passes_logs/2026/01/23/R3.2S_Murmansk/R3.2S_Murmansk__20260123_213305_JL1KF02B05_rec.log

#Pass ID: 20260123_213305_JL1KF02B05
#Satellite: JL1KF02B05
#Configuration: 01B_900M
#almurnet v.1.7.20251203
#Start time: 2026-01-23 21:33:06

#Version: 2.2.20231116
#Station: R3.2S_Murmansk
#Location: 33.079688 lon 68.888172 lat
#TLE: 1 61194U 24169F   26022.96101522  .00006187  00000+0  38573-3 0  9991
#TLE: 2 61194  97.5705 114.6700 0018165 130.9830 229.2974 15.09759959 73936

#Time	Az	El	Level	Level2	SNR	BER	BlckErr	Temp	State	Recorded	gain1	gain2
2026-01-23 21:33:06.00	203.97	2.04	-54.8	-56.9	6.2	0.00e+00	0	44	0	0	80	19067
2026-01-23 21:33:07.01	204.05	2.10	-54.8	-56.9	6.2	0.00e+00	0	44	104	0	81	18083
2026-01-23 21:33:08.02	204.14	2.17	-54.9	-57.0	6.2	0.00e+00	0	44	104	0	81	18370
2026-01-23 21:33:09.03	204.22	2.23	-55.0	-57.1	6.2	0.00e+00	0	44	104	0	81	18488
2026-01-23 21:33:10.04	204.30	2.29	-55.0	-57.1	6.2	0.00e+00	0	44	104	0	81	18464
2026-01-23 21:33:11.05	204.38	2.35	-55.0	-57.1	6.2	0.00e+00	0	44	104	0	81	18440
2026-01-23 21:33:12.05	204.47	2.42	-55.0	-57.1	6.2	0.00e+00	0	44	104	0	81	18443
2026-01-23 21:33:13.06	204.55	2.48	-55.0	-57.0	6.2	0.00e+00	0	44	104	0	81	18331
2026-01-23 21:33:14.07	204.64	2.54	-54.9	-57.0	6.2	0.00e+00	0	44	104	0	81	18339
2026-01-23 21:33:15.08	204.72	2.61	-54.9	-57.0	6.2	0.00e+00	0	44	104	0	81	18224
2026-01-23 21:33:16.09	204.81	2.67	-54.9	-57.0	6.2	0.00e+00	0	44	104	0	81	18183
2026-01-23 21:33:17.09	204.89	2.73	-54.9	-56.9	6.2	0.00e+00	0	44	104	0	81	18144
2026-01-23 21:33:18.10	204.98	2.80	-54.8	-56.9	6.2	0.00e+00	0	44	104	0	81	18151
2026-01-23 21:33:19.11	205.06	2.86	-54.8	-56.9	6.2	0.00e+00	0	44	104	0	81	17998
2026-01-23 21:33:20.12	205.15	2.93	-54.7	-56.8	6.2	0.00e+00	0	44	104	0	81	17873
2026-01-23 21:33:21.13	205.24	2.99	-54.7	-56.8	6.2	0.00e+00	0	44	104	0	81	17853
2026-01-23 21:33:22.13	205.33	3.06	-54.7	-56.7	6.2	0.00e+00	0	44	104	0	81	17688
2026-01-23 21:33:23.14	205.41	3.12	-54.6	-56.7	6.2	0.00e+00	0	44	104	0	81	17608
2026-01-23 21:33:24.15	205.50	3.19	-54.5	-56.6	6.2	0.00e+00	0	44	104	0	81	17428
2026-01-23 21:33:25.16	205.59	3.25	-54.4	-56.5	6.2	0.00e+00	0	44	104	0	80	18308
2026-01-23 21:33:26.17	205.68	3.32	-54.3	-56.4	6.2	0.00e+00	0	44	104	0	80	18102
2026-01-23 21:33:27.17	205.77	3.38	-54.2	-56.3	6.2	0.00e+00	0	44	104	0	80	17878
2026-01-23 21:33:28.18	205.86	3.45	-54.1	-56.2	6.2	0.00e+00	0	44	104	0	80	17622
2026-01-23 21:33:29.19	205.95	3.51	-53.8	-55.9	6.2	0.00e+00	0	44	104	0	79	18132
2026-01-23 21:33:30.20	206.05	3.58	-53.4	-55.6	6.2	0.00e+00	0	44	104	0	78	18447
2026-01-23 21:33:31.21	206.14	3.64	-53.4	-55.5	6.2	0.00e+00	0	44	104	0	78	18208
2026-01-23 21:33:32.21	206.23	3.71	-53.4	-55.4	6.2	0.00e+00	0	45	104	0	78	18170
2026-01-23 21:33:33.23	206.32	3.78	-53.3	-55.4	6.2	0.00e+00	0	44	104	0	78	18160
2026-01-23 21:33:34.23	206.42	3.84	-53.3	-55.4	6.2	0.00e+00	0	44	104	0	78	18171
2026-01-23 21:33:35.24	206.51	3.91	-53.3	-55.4	6.2	0.00e+00	0	45	104	0	78	18171
2026-01-23 21:33:36.25	206.61	3.98	-53.3	-55.4	6.2	0.00e+00	0	45	104	0	78	18132
2026-01-23 21:33:37.26	206.70	4.04	-53.3	-55.4	6.2	0.00e+00	0	45	104	0	78	18133
2026-01-23 21:33:38.27	206.80	4.11	-53.3	-55.4	6.2	0.00e+00	0	45	104	0	78	18145
2026-01-23 21:33:39.28	206.89	4.18	-53.3	-55.4	6.2	0.00e+00	0	45	104	0	78	18137
2026-01-23 21:33:40.29	206.99	4.24	-53.3	-55.4	6.2	0.00e+00	0	45	104	0	78	18141
2026-01-23 21:33:41.30	207.09	4.31	-53.3	-55.4	6.2	0.00e+00	0	45	104	0	78	18160
2026-01-23 21:33:42.30	207.18	4.38	-53.3	-55.4	6.2	0.00e+00	0	45	104	0	78	18101
2026-01-23 21:33:43.31	207.28	4.45	-53.3	-55.4	6.2	0.00e+00	0	45	104	0	78	18127
2026-01-23 21:33:44.32	207.38	4.51	-53.3	-55.4	6.2	0.00e+00	0	45	104	0	78	18122
2026-01-23 21:33:45.33	207.48	4.58	-53.3	-55.4	6.2	0.00e+00	0	45	104	0	78	18099
2026-01-23 21:33:46.33	207.58	4.65	-53.3	-55.4	6.2	0.00e+00	0	45	104	0	78	18098
2026-01-23 21:33:47.34	207.68	4.72	-53.3	-55.4	6.2	0.00e+00	0	45	104	0	78	18075
2026-01-23 21:33:48.35	207.78	4.79	-53.3	-55.4	6.2	0.00e+00	0	45	104	0	78	18087
2026-01-23 21:33:49.36	207.88	4.86	-53.3	-55.4	6.2	0.00e+00	0	45	104	0	78	18101
2026-01-23 21:33:50.37	207.99	4.93	-53.3	-55.4	6.2	0.00e+00	0	45	104	0	78	18040
2026-01-23 21:33:51.37	208.09	4.99	-53.3	-55.4	6.2	0.00e+00	0	45	104	0	78	18048
2026-01-23 21:33:52.38	208.19	5.06	-53.3	-55.4	6.2	0.00e+00	0	45	104	0	78	18105
2026-01-23 21:33:53.39	208.30	5.13	-53.3	-55.4	6.2	0.00e+00	0	45	104	0	78	18104
2026-01-23 21:33:54.40	208.40	5.20	-53.3	-55.4	6.2	0.00e+00	0	45	104	0	78	18088
2026-01-23 21:33:55.40	208.50	5.27	-53.4	-55.5	6.2	0.00e+00	0	45	104	0	78	18252
2026-01-23 21:33:56.41	208.61	5.34	-53.3	-55.4	6.2	0.00e+00	0	45	104	0	78	18089
2026-01-23 21:33:57.42	208.72	5.41	-53.3	-55.3	6.2	0.00e+00	0	45	104	0	78	17965
2026-01-23 21:33:58.43	208.82	5.48	-53.3	-55.4	6.2	0.00e+00	0	45	104	0	78	17985
2026-01-23 21:33:59.44	208.93	5.55	-53.4	-55.5	6.2	0.00e+00	0	45	104	0	78	18289
2026-01-23 21:34:00.45	209.04	5.62	-53.3	-55.4	6.2	0.00e+00	0	45	104	0	78	18077
2026-01-23 21:34:01.45	209.15	5.69	-53.2	-55.3	6.2	0.00e+00	0	45	104	0	78	17951
2026-01-23 21:34:02.46	209.26	5.77	-53.2	-55.4	6.2	0.00e+00	0	45	104	0	78	17987
2026-01-23 21:34:03.47	209.37	5.84	-53.4	-55.5	6.2	0.00e+00	0	46	104	0	78	18214
2026-01-23 21:34:04.48	209.48	5.91	-53.3	-55.4	6.2	0.00e+00	0	45	104	0	78	18088
2026-01-23 21:34:05.49	209.59	5.98	-53.2	-55.3	6.2	0.00e+00	0	45	104	0	78	17886
2026-01-23 21:34:06.49	209.70	6.05	-53.2	-55.4	6.2	0.00e+00	0	45	104	0	78	18001
2026-01-23 21:34:07.50	209.81	6.12	-53.3	-55.5	6.2	0.00e+00	0	45	104	0	78	18180
2026-01-23 21:34:08.51	209.93	6.20	-53.3	-55.4	6.2	0.00e+00	0	45	104	0	78	18019
2026-01-23 21:34:09.52	210.04	6.27	-53.2	-55.3	6.2	0.00e+00	0	46	104	0	78	17908
2026-01-23 21:34:10.53	210.16	6.34	-53.2	-55.4	6.2	0.00e+00	0	46	104	0	78	17979
2026-01-23 21:34:11.54	210.27	6.41	-53.3	-55.4	6.2	0.00e+00	0	45	104	0	78	18176
2026-01-23 21:34:12.54	210.39	6.49	-53.3	-55.4	6.2	0.00e+00	0	45	104	0	78	18029
2026-01-23 21:34:13.55	210.50	6.56	-53.2	-55.3	6.2	0.00e+00	0	45	104	0	78	17861
2026-01-23 21:34:14.56	210.62	6.63	-53.2	-55.3	6.2	0.00e+00	0	45	104	0	78	17924
2026-01-23 21:34:15.57	210.74	6.70	-53.4	-55.5	6.2	0.00e+00	0	46	104	0	78	18221
2026-01-23 21:34:16.58	210.86	6.78	-53.3	-55.4	6.2	0.00e+00	0	45	104	0	78	18011
2026-01-23 21:34:17.59	210.98	6.85	-53.2	-55.3	6.2	0.00e+00	0	45	104	0	78	17879
2026-01-23 21:34:18.59	211.10	6.93	-53.3	-55.4	6.2	0.00e+00	0	45	104	0	78	18049
2026-01-23 21:34:19.60	211.22	7.00	-53.4	-55.4	6.2	0.00e+00	0	46	104	0	78	18143
2026-01-23 21:34:20.61	211.34	7.07	-53.3	-55.4	6.2	0.00e+00	0	46	104	0	78	18075
2026-01-23 21:34:21.62	211.46	7.15	-53.2	-55.4	6.2	0.00e+00	0	46	104	0	78	18003
2026-01-23 21:34:22.63	211.58	7.22	-53.3	-55.4	6.2	0.00e+00	0	46	104	0	78	18131
2026-01-23 21:34:23.63	211.71	7.30	-53.4	-55.5	6.2	0.00e+00	0	45	104	0	78	18190
2026-01-23 21:34:24.64	211.83	7.37	-53.3	-55.4	6.2	0.00e+00	0	46	104	0	78	18081
2026-01-23 21:34:25.65	211.96	7.45	-53.3	-55.4	6.2	0.00e+00	0	46	104	0	78	18000
2026-01-23 21:34:26.65	212.08	7.52	-53.3	-55.4	6.2	0.00e+00	0	46	104	0	78	18087
2026-01-23 21:34:27.66	212.21	7.60	-53.3	-55.4	6.2	0.00e+00	0	46	104	0	78	18145
2026-01-23 21:34:28.67	212.34	7.67	-53.3	-55.4	6.2	0.00e+00	0	46	104	0	78	18041
2026-01-23 21:34:29.68	212.47	7.75	-53.3	-55.4	6.2	0.00e+00	0	46	104	0	78	18011
2026-01-23 21:34:30.69	212.60	7.83	-53.3	-55.4	6.2	0.00e+00	0	46	104	0	78	18055
2026-01-23 21:34:31.69	212.72	7.90	-53.4	-55.5	6.2	0.00e+00	0	46	104	0	78	18223
2026-01-23 21:34:32.70	212.86	7.98	-53.3	-55.4	6.2	0.00e+00	0	46	104	0	78	18008
2026-01-23 21:34:33.71	212.99	8.06	-53.3	-55.3	6.2	0.00e+00	0	46	104	0	78	17954
2026-01-23 21:34:34.72	213.12	8.13	-53.4	-55.4	6.2	0.00e+00	0	46	104	0	78	18165
2026-01-23 21:34:35.72	213.25	8.21	-53.4	-55.5	6.2	0.00e+00	0	46	104	0	78	18322
2026-01-23 21:34:36.73	213.39	8.29	-53.3	-55.4	6.2	0.00e+00	0	46	104	0	78	18070
2026-01-23 21:34:37.74	213.52	8.36	-53.3	-55.4	6.2	0.00e+00	0	46	104	0	78	17976
2026-01-23 21:34:38.74	213.66	8.44	-49.0	-49.6	6.8	0.00e+00	0	46	104	0	68	16417
2026-01-23 21:34:39.75	213.79	8.52	-50.7	-51.7	6.4	0.00e+00	0	46	104	0	72	16701
2026-01-23 21:34:40.76	213.93	8.60	-46.6	-46.9	6.7	0.00e+00	0	46	104	0	64	15225
2026-01-23 21:34:41.77	214.07	8.68	-47.1	-47.5	6.7	0.00e+00	0	46	104	0	66	14520
2026-01-23 21:34:42.77	214.21	8.75	-46.9	-47.3	6.7	0.00e+00	0	46	104	0	65	15034
2026-01-23 21:34:43.78	214.35	8.83	-47.1	-47.5	6.7	0.00e+00	0	46	104	0	65	15338
2026-01-23 21:34:44.79	214.49	8.91	-46.7	-47.1	6.7	0.00e+00	0	46	104	0	65	14619
2026-01-23 21:34:45.80	214.63	8.99	-47.9	-48.4	6.7	0.00e+00	0	46	104	0	66	16161
2026-01-23 21:34:46.81	214.77	9.07	-50.3	-50.7	6.5	0.00e+00	0	46	104	0	70	16679
2026-01-23 21:34:47.82	214.92	9.15	-51.2	-52.4	6.3	0.00e+00	0	46	104	0	72	18094
2026-01-23 21:34:48.83	215.06	9.23	-49.4	-50.1	6.5	0.00e+00	0	46	104	0	69	16436
2026-01-23 21:34:49.84	215.21	9.31	-47.3	-47.8	6.7	0.00e+00	0	46	104	0	66	14977
2026-01-23 21:34:50.84	215.35	9.39	-46.9	-47.2	7.5	0.00e+00	0	46	104	0	65	14932
2026-01-23 21:34:51.85	215.50	9.47	-46.7	-46.9	7.5	0.00e+00	0	46	104	0	65	14392
2026-01-23 21:34:52.86	215.65	9.55	-47.0	-47.4	7.4	0.00e+00	0	46	104	0	65	15121
2026-01-23 21:34:53.87	215.80	9.63	-50.1	-51.0	6.7	0.00e+00	0	46	104	0	70	17310
2026-01-23 21:34:54.88	215.95	9.71	-36.8	-36.7	11.3	2.24e-02	0	46	104	0	44	14923
2026-01-23 21:34:55.88	216.10	9.79	-37.2	-37.1	14.2	6.08e-04	0	46	0	67108864	44	15601
2026-01-23 21:34:56.89	216.25	9.87	-33.7	-33.5	14.9	1.70e-04	0	46	0	176160768	37	15472
2026-01-23 21:34:57.90	216.41	9.95	-32.1	-32.0	13.8	3.66e-04	0	46	0	301989888	36	13671
2026-01-23 21:34:58.90	216.56	10.03	-29.3	-29.2	13.8	5.00e-04	0	46	0	419430400	30	14025
2026-01-23 21:34:59.91	216.71	10.11	-28.9	-28.7	14.0	3.30e-04	0	46	0	528482304	29	14086
2026-01-23 21:35:00.92	216.87	10.20	-28.6	-28.4	13.9	4.12e-04	0	46	0	637534208	29	13593
2026-01-23 21:35:01.93	217.03	10.28	-28.6	-28.5	13.9	4.02e-04	0	46	0	754974720	28	14482
2026-01-23 21:35:02.94	217.19	10.36	-28.5	-28.3	13.9	3.80e-04	0	46	0	864026624	28	14269
2026-01-23 21:35:03.95	217.35	10.44	-28.6	-28.4	13.8	3.70e-04	0	46	0	981467136	28	14402
2026-01-23 21:35:04.95	217.51	10.53	-28.6	-28.4	13.8	4.33e-04	0	46	0	1090519040	28	14395
2026-01-23 21:35:05.96	217.67	10.61	-28.4	-28.3	13.8	4.63e-04	0	46	0	1207959552	28	14123
2026-01-23 21:35:06.97	217.83	10.69	-28.3	-28.2	13.8	4.82e-04	0	46	0	1317011456	28	13952
2026-01-23 21:35:07.98	217.99	10.77	-28.3	-28.1	13.8	3.74e-04	0	46	0	1426063360	28	13942
2026-01-23 21:35:08.99	218.16	10.86	-28.1	-28.0	13.9	3.68e-04	0	46	0	1543503872	28	13666
2026-01-23 21:35:10.00	218.32	10.94	-28.3	-28.1	13.8	4.44e-04	0	46	0	1652555776	28	13947
2026-01-23 21:35:11.00	218.49	11.02	-28.7	-28.6	13.9	4.39e-04	0	47	0	1778384896	28	14621
2026-01-23 21:35:12.01	218.66	11.11	-28.6	-28.4	14.0	4.16e-04	0	46	0	1887436800	28	14436
2026-01-23 21:35:13.02	218.83	11.19	-28.7	-28.6	13.8	4.75e-04	0	46	0	2004877312	28	14652
2026-01-23 21:35:14.03	219.00	11.28	-28.5	-28.4	13.8	4.50e-04	0	47	0	2113929216	28	14319
2026-01-23 21:35:15.03	219.17	11.36	-28.6	-28.5	13.8	5.59e-04	0	46	0	2231369728	28	14504
2026-01-23 21:35:16.04	219.34	11.45	-28.1	-28.0	13.7	4.81e-04	0	46	0	2340421632	28	13675
2026-01-23 21:35:17.05	219.51	11.53	-28.3	-28.1	13.7	4.96e-04	0	47	0	2449473536	28	13897
2026-01-23 21:35:18.06	219.69	11.61	-28.1	-27.9	13.7	5.03e-04	0	46	0	2566914048	28	13603
2026-01-23 21:35:19.07	219.87	11.70	-28.2	-28.0	13.7	4.88e-04	0	47	0	2675965952	27	14597
2026-01-23 21:35:20.07	220.04	11.78	-28.2	-28.0	13.7	4.77e-04	0	47	0	2793406464	27	14556
2026-01-23 21:35:21.08	220.22	11.87	-28.2	-28.0	13.8	5.61e-04	0	47	0	2902458368	27	14552
2026-01-23 21:35:22.09	220.40	11.96	-28.3	-28.2	13.6	5.00e-04	0	46	0	3011510272	27	14777
2026-01-23 21:35:23.10	220.58	12.04	-28.0	-27.8	13.7	4.82e-04	0	46	0	3128950784	27	14242
2026-01-23 21:35:24.10	220.76	12.13	-28.0	-27.9	13.7	4.75e-04	0	47	0	3254779904	27	14349
2026-01-23 21:35:25.11	220.94	12.21	-27.8	-27.7	13.7	3.91e-04	0	46	0	3363831808	27	13958
2026-01-23 21:35:26.12	221.13	12.30	-27.6	-27.5	13.7	4.02e-04	0	47	0	3472883712	27	13691
2026-01-23 21:35:27.13	221.32	12.39	-27.8	-27.6	13.7	3.74e-04	0	47	0	3590324224	27	13918
2026-01-23 21:35:28.13	221.50	12.47	-27.8	-27.6	13.7	3.80e-04	0	47	0	3699376128	27	13910
2026-01-23 21:35:29.14	221.69	12.56	-27.7	-27.5	13.7	3.78e-04	0	47	0	3816816640	27	13764
2026-01-23 21:35:30.15	221.88	12.64	-27.9	-27.7	13.7	3.95e-04	0	47	0	3925868544	27	14078
2026-01-23 21:35:31.16	222.07	12.73	-27.5	-27.4	13.8	4.14e-04	0	47	0	4043309056	27	13551
2026-01-23 21:35:32.17	222.26	12.82	-27.7	-27.5	13.7	4.14e-04	0	47	0	4152360960	27	13750
2026-01-23 21:35:33.17	222.45	12.91	-27.5	-27.3	13.7	3.70e-04	0	47	0	4261412864	27	13459
2026-01-23 21:35:34.18	222.65	12.99	-27.5	-27.4	13.7	4.00e-04	0	47	0	4378853376	26	14288
2026-01-23 21:35:35.19	222.85	13.08	-27.5	-27.4	13.7	3.81e-04	0	47	0	4487905280	26	14288
2026-01-23 21:35:36.20	223.04	13.17	-27.7	-27.5	13.7	4.44e-04	0	47	0	4613734400	26	14542
2026-01-23 21:35:37.21	223.24	13.26	-27.5	-27.3	13.7	3.78e-04	0	47	0	4722786304	26	14229
2026-01-23 21:35:38.22	223.44	13.34	-27.5	-27.3	13.7	4.27e-04	0	47	0	4840226816	26	14271
2026-01-23 21:35:39.23	223.64	13.43	-27.5	-27.4	13.7	4.82e-04	0	47	0	4949278720	26	14321
2026-01-23 21:35:40.23	223.85	13.52	-27.3	-27.2	13.8	4.18e-04	0	47	0	5066719232	26	14015
2026-01-23 21:35:41.24	224.05	13.61	-27.3	-27.2	13.8	3.81e-04	0	47	0	5175771136	26	13963
2026-01-23 21:35:42.25	224.26	13.70	-27.3	-27.2	13.7	3.85e-04	0	47	0	5284823040	26	14005
2026-01-23 21:35:43.26	224.46	13.78	-27.3	-27.2	13.7	3.22e-04	0	47	0	5402263552	26	13985
2026-01-23 21:35:44.27	224.67	13.87	-27.1	-27.0	13.8	3.13e-04	0	47	0	5511315456	26	13702
2026-01-23 21:35:45.27	224.88	13.96	-27.3	-27.1	13.7	4.25e-04	0	47	0	5628755968	26	13871
2026-01-23 21:35:46.28	225.09	14.05	-27.3	-27.2	13.7	3.70e-04	0	47	0	5737807872	26	14005
2026-01-23 21:35:47.29	225.30	14.14	-27.1	-27.0	13.7	3.83e-04	0	47	0	5846859776	26	13648
2026-01-23 21:35:48.30	225.52	14.23	-27.1	-27.0	13.7	4.00e-04	0	47	0	5972688896	26	13675
2026-01-23 21:35:49.31	225.73	14.32	-27.0	-26.9	13.7	3.80e-04	0	47	0	6090129408	25	14306
2026-01-23 21:35:50.32	225.95	14.41	-27.2	-27.0	13.7	3.93e-04	0	47	0	6199181312	25	14534
2026-01-23 21:35:51.33	226.17	14.49	-26.9	-26.8	13.8	4.00e-04	0	47	0	6308233216	25	14116
2026-01-23 21:35:52.33	226.39	14.58	-27.1	-26.9	13.8	3.68e-04	0	47	0	6425673728	25	14364
2026-01-23 21:35:53.34	226.61	14.67	-26.9	-26.8	13.8	4.06e-04	0	47	0	6534725632	25	14184
2026-01-23 21:35:54.35	226.84	14.76	-26.9	-26.8	13.7	4.02e-04	0	47	0	6652166144	25	14138
2026-01-23 21:35:55.36	227.06	14.85	-26.9	-26.8	13.7	4.08e-04	0	47	0	6761218048	25	14138
2026-01-23 21:35:56.37	227.29	14.94	-26.8	-26.7	13.7	3.49e-04	0	47	0	6870269952	25	13956
2026-01-23 21:35:57.38	227.52	15.03	-26.8	-26.6	13.7	3.38e-04	0	47	0	6987710464	25	13885
2026-01-23 21:35:58.38	227.74	15.12	-26.9	-26.7	13.7	3.93e-04	0	47	0	7096762368	25	14037
2026-01-23 21:35:59.39	227.97	15.21	-26.8	-26.6	13.8	3.80e-04	0	47	0	7214202880	25	13882
2026-01-23 21:36:00.40	228.21	15.30	-26.7	-26.6	13.7	3.51e-04	0	47	0	7331643392	25	13813
2026-01-23 21:36:01.40	228.44	15.39	-26.7	-26.5	13.8	3.55e-04	0	47	0	7449083904	25	13704
2026-01-23 21:36:02.41	228.67	15.48	-26.6	-26.4	13.8	3.34e-04	0	47	0	7558135808	24	14377
2026-01-23 21:36:03.42	228.91	15.57	-26.5	-26.4	13.8	3.11e-04	0	47	0	7675576320	24	14339
2026-01-23 21:36:04.43	229.15	15.66	-26.6	-26.4	13.8	3.07e-04	0	47	0	7784628224	24	14359
2026-01-23 21:36:05.44	229.39	15.75	-26.7	-26.6	13.7	3.78e-04	0	47	0	7902068736	24	14645
2026-01-23 21:36:06.45	229.64	15.84	-26.6	-26.4	13.8	3.17e-04	0	47	0	8011120640	24	14348
2026-01-23 21:36:07.45	229.88	15.92	-26.5	-26.4	13.7	3.20e-04	0	47	0	8120172544	24	14316
2026-01-23 21:36:08.46	230.12	16.01	-26.3	-26.2	13.8	3.01e-04	0	47	0	8237613056	24	13976
2026-01-23 21:36:09.47	230.37	16.10	-26.4	-26.3	13.8	3.66e-04	0	47	0	8346664960	24	14157
2026-01-23 21:36:10.48	230.62	16.19	-26.3	-26.2	13.8	3.09e-04	0	47	0	8464105472	24	13976
2026-01-23 21:36:11.49	230.87	16.28	-26.3	-26.1	13.8	2.75e-04	0	47	0	8573157376	24	13924
2026-01-23 21:36:12.49	231.12	16.37	-26.4	-26.3	13.8	3.49e-04	0	47	0	8682209280	24	14184
2026-01-23 21:36:13.50	231.37	16.46	-26.4	-26.2	13.7	3.41e-04	0	47	0	8808038400	24	14069
2026-01-23 21:36:14.51	231.63	16.55	-26.3	-26.1	13.7	2.88e-04	0	47	0	8925478912	24	13936
2026-01-23 21:36:15.52	231.89	16.64	-26.2	-26.1	13.8	3.26e-04	0	47	0	9034530816	24	13823
2026-01-23 21:36:16.53	232.15	16.73	-26.3	-26.2	13.7	3.15e-04	0	47	0	9143582720	24	13983
2026-01-23 21:36:17.53	232.41	16.82	-26.3	-26.1	13.8	3.18e-04	0	47	0	9261023232	24	13939
2026-01-23 21:36:18.54	232.67	16.90	-26.2	-26.1	13.8	3.36e-04	0	47	0	9370075136	24	13838
2026-01-23 21:36:19.55	232.93	16.99	-26.1	-26.0	13.8	2.82e-04	0	47	0	9487515648	24	13660
2026-01-23 21:36:20.55	233.20	17.08	-26.2	-26.1	13.8	3.11e-04	0	47	0	9596567552	24	13826
2026-01-23 21:36:21.56	233.47	17.17	-26.3	-26.1	13.7	3.62e-04	0	47	0	9705619456	24	13871
2026-01-23 21:36:22.57	233.74	17.26	-26.1	-25.9	13.8	3.72e-04	0	47	0	9823059968	24	13571
2026-01-23 21:36:23.58	234.01	17.35	-26.0	-25.8	13.7	3.03e-04	0	47	0	9932111872	23	14272
2026-01-23 21:36:24.59	234.28	17.43	-25.9	-25.8	13.7	3.87e-04	0	47	0	10049552384	23	14178
2026-01-23 21:36:25.60	234.56	17.52	-26.0	-25.9	13.7	3.74e-04	0	47	0	10158604288	23	14292
2026-01-23 21:36:26.60	234.83	17.61	-26.0	-25.8	13.8	3.81e-04	0	47	0	10284433408	23	14247
2026-01-23 21:36:27.61	235.11	17.70	-26.0	-25.9	13.8	3.45e-04	0	47	0	10393485312	23	14294
2026-01-23 21:36:28.62	235.39	17.78	-25.8	-25.7	13.8	3.66e-04	0	47	0	10510925824	23	14008
2026-01-23 21:36:29.63	235.67	17.87	-26.0	-25.8	13.7	4.23e-04	0	47	0	10619977728	23	14211
2026-01-23 21:36:30.63	235.95	17.96	-25.7	-25.6	13.7	3.95e-04	0	47	0	10729029632	23	13832
2026-01-23 21:36:31.64	236.24	18.04	-25.8	-25.6	13.7	3.47e-04	0	47	0	10846470144	23	13891
2026-01-23 21:36:32.65	236.53	18.13	-25.8	-25.6	13.8	3.49e-04	0	47	0	10955522048	23	13937
2026-01-23 21:36:33.66	236.82	18.21	-25.8	-25.6	13.7	3.91e-04	0	47	0	11072962560	23	13871
2026-01-23 21:36:34.67	237.11	18.30	-25.7	-25.5	13.8	3.85e-04	0	47	0	11182014464	23	13790
2026-01-23 21:36:35.68	237.40	18.39	-25.8	-25.6	13.7	4.39e-04	0	47	0	11299454976	23	13876
2026-01-23 21:36:36.68	237.70	18.47	-25.7	-25.5	13.8	3.58e-04	0	47	0	11408506880	23	13746
2026-01-23 21:36:37.69	237.99	18.56	-25.7	-25.5	13.8	3.51e-04	0	47	0	11517558784	23	13773
2026-01-23 21:36:38.70	238.29	18.64	-25.7	-25.5	13.7	3.43e-04	0	47	0	11643387904	23	13739
2026-01-23 21:36:39.71	238.59	18.72	-25.7	-25.6	13.8	3.74e-04	0	47	0	11760828416	23	13803
2026-01-23 21:36:40.71	238.89	18.81	-25.6	-25.5	13.7	4.04e-04	0	47	0	11869880320	23	13651
2026-01-23 21:36:41.72	239.20	18.89	-25.6	-25.4	13.8	4.29e-04	0	47	0	11978932224	23	13580
2026-01-23 21:36:42.73	239.50	18.97	-25.6	-25.4	13.8	3.57e-04	0	47	0	12096372736	23	13560
2026-01-23 21:36:43.74	239.81	19.06	-25.6	-25.5	13.7	3.53e-04	0	47	0	12205424640	23	13683
2026-01-23 21:36:44.75	240.12	19.14	-25.6	-25.4	13.8	3.72e-04	0	47	0	12322865152	23	13605
2026-01-23 21:36:45.75	240.43	19.22	-25.5	-25.4	13.9	4.10e-04	0	47	0	12431917056	22	14275
2026-01-23 21:36:46.76	240.74	19.30	-25.6	-25.4	13.8	4.00e-04	0	47	0	12540968960	22	14368
2026-01-23 21:36:47.77	241.06	19.38	-25.5	-25.3	13.9	3.87e-04	0	47	0	12658409472	22	14254
2026-01-23 21:36:48.78	241.38	19.46	-25.5	-25.3	13.8	4.04e-04	0	47	0	12767461376	22	14214
2026-01-23 21:36:49.79	241.70	19.54	-25.4	-25.2	13.9	4.06e-04	0	47	0	12884901888	22	14095
2026-01-23 21:36:50.80	242.02	19.62	-25.3	-25.1	13.8	3.49e-04	0	47	0	13002342400	22	13898
2026-01-23 21:36:51.80	242.34	19.70	-25.4	-25.3	14.0	4.10e-04	0	47	0	13119782912	22	14161
2026-01-23 21:36:52.81	242.66	19.78	-25.3	-25.2	14.0	3.51e-04	0	47	0	13228834816	22	14001
2026-01-23 21:36:53.82	242.99	19.86	-25.4	-25.2	14.0	3.22e-04	0	47	0	13346275328	22	14029
2026-01-23 21:36:54.83	243.32	19.93	-25.3	-25.1	14.0	3.47e-04	0	47	0	13455327232	22	13862
2026-01-23 21:36:55.84	243.65	20.01	-25.3	-25.1	13.9	4.10e-04	0	47	0	13564379136	22	13871
2026-01-23 21:36:56.85	243.98	20.09	-25.2	-25.1	14.0	3.41e-04	0	47	0	13681819648	22	13824
2026-01-23 21:36:57.86	244.32	20.16	-25.2	-25.1	14.1	3.43e-04	0	47	0	13790871552	22	13845
2026-01-23 21:36:58.86	244.65	20.24	-25.1	-24.9	14.1	3.11e-04	0	47	0	13908312064	22	13597
2026-01-23 21:36:59.87	244.99	20.31	-25.1	-25.0	14.2	2.63e-04	0	47	0	14017363968	22	13680
2026-01-23 21:37:00.88	245.33	20.39	-25.1	-24.9	14.1	2.78e-04	0	47	0	14126415872	22	13580
2026-01-23 21:37:01.88	245.67	20.46	-25.1	-24.9	14.3	2.33e-04	0	47	0	14243856384	22	13583
2026-01-23 21:37:02.89	246.01	20.53	-25.1	-24.9	14.1	2.19e-04	0	47	0	14352908288	22	13590
2026-01-23 21:37:03.90	246.35	20.60	-25.0	-24.8	14.3	2.44e-04	0	47	0	14478737408	21	14223
2026-01-23 21:37:04.91	246.70	20.68	-24.9	-24.7	14.2	1.62e-04	0	47	0	14587789312	21	14053
2026-01-23 21:37:05.92	247.05	20.75	-24.8	-24.7	14.3	2.14e-04	0	47	0	14705229824	21	13977
2026-01-23 21:37:06.92	247.40	20.81	-24.8	-24.7	14.4	1.64e-04	0	47	0	14814281728	21	13985
2026-01-23 21:37:07.93	247.75	20.88	-24.9	-24.7	14.3	1.66e-04	0	47	0	14931722240	21	14079
2026-01-23 21:37:08.94	248.10	20.95	-24.8	-24.7	14.4	1.66e-04	0	47	0	15040774144	21	13970
2026-01-23 21:37:09.95	248.46	21.02	-24.8	-24.7	14.5	1.26e-04	0	47	0	15158214656	21	13995
2026-01-23 21:37:10.96	248.82	21.09	-24.8	-24.6	14.5	1.03e-04	0	47	0	15267266560	21	13880
2026-01-23 21:37:11.96	249.17	21.15	-24.7	-24.5	14.4	1.18e-04	0	47	0	15376318464	21	13746
2026-01-23 21:37:12.97	249.53	21.22	-24.8	-24.6	14.5	1.07e-04	0	47	0	15493758976	21	13872
2026-01-23 21:37:13.98	249.89	21.28	-24.8	-24.6	14.8	6.10e-05	0	47	0	15602810880	21	13941
2026-01-23 21:37:14.99	250.26	21.34	-24.7	-24.5	14.8	7.24e-05	0	47	0	15720251392	21	13789
2026-01-23 21:37:15.99	250.62	21.41	-24.6	-24.5	14.6	6.29e-05	0	47	0	15829303296	21	13679
2026-01-23 21:37:17.00	250.99	21.47	-24.6	-24.4	14.9	4.95e-05	0	47	0	15955132416	21	13597
2026-01-23 21:37:18.01	251.36	21.53	-24.8	-24.6	14.7	3.24e-05	0	47	0	16064184320	21	13872
2026-01-23 21:37:19.02	251.73	21.59	-24.8	-24.6	15.0	5.14e-05	0	47	0	16181624832	21	13883
2026-01-23 21:37:20.03	252.10	21.65	-24.7	-24.6	14.9	2.28e-05	0	47	0	16290676736	21	13840
2026-01-23 21:37:21.03	252.47	21.70	-24.7	-24.5	15.0	1.33e-05	0	47	0	16399728640	21	13745
2026-01-23 21:37:22.04	252.84	21.76	-24.6	-24.5	15.1	1.71e-05	0	47	0	16517169152	21	13666
2026-01-23 21:37:23.05	253.22	21.82	-24.7	-24.5	15.3	9.50e-06	0	47	0	16626221056	21	13741
2026-01-23 21:37:24.05	253.59	21.87	-24.6	-24.5	15.4	1.14e-05	0	47	0	16743661568	21	13677
2026-01-23 21:37:25.06	253.97	21.92	-24.6	-24.4	15.2	3.80e-06	0	47	0	16852713472	21	13601
2026-01-23 21:37:26.07	254.35	21.98	-24.7	-24.5	15.1	7.60e-06	0	47	0	16961765376	21	13765
2026-01-23 21:37:27.08	254.74	22.03	-24.6	-24.5	14.9	2.09e-05	0	47	0	17079205888	21	13695
2026-01-23 21:37:28.08	255.12	22.08	-24.7	-24.5	14.8	1.14e-05	0	47	0	17188257792	21	13689
2026-01-23 21:37:29.09	255.50	22.13	-24.6	-24.5	15.0	5.70e-06	0	47	0	17305698304	21	13644
2026-01-23 21:37:30.10	255.89	22.18	-24.6	-24.4	14.9	9.50e-06	0	47	0	17423138816	21	13582
2026-01-23 21:37:31.11	256.28	22.22	-24.5	-24.4	15.1	3.80e-06	0	47	0	17540579328	21	13551
2026-01-23 21:37:32.12	256.67	22.27	-24.6	-24.4	15.0	9.50e-06	0	47	0	17649631232	21	13604
2026-01-23 21:37:33.13	257.06	22.32	-24.6	-24.4	14.5	1.33e-05	0	47	0	17767071744	21	13547
2026-01-23 21:37:34.13	257.44	22.36	-24.5	-24.4	14.7	9.50e-06	0	47	0	17876123648	21	13535
2026-01-23 21:37:35.14	257.84	22.40	-24.7	-24.6	14.8	7.60e-06	0	47	0	17985175552	21	13821
2026-01-23 21:37:36.15	258.23	22.44	-24.5	-24.3	14.6	9.50e-06	0	47	0	18102616064	21	13474
2026-01-23 21:37:37.16	258.62	22.48	-24.5	-24.4	14.6	1.14e-05	0	47	0	18211667968	21	13518
2026-01-23 21:37:38.17	259.02	22.52	-24.5	-24.4	14.5	1.14e-05	0	47	0	18329108480	20	14314
2026-01-23 21:37:39.17	259.41	22.56	-24.5	-24.3	14.3	1.52e-05	0	47	0	18438160384	20	14206
2026-01-23 21:37:40.18	259.81	22.60	-24.6	-24.4	14.4	1.71e-05	0	47	0	18555600896	20	14396
2026-01-23 21:37:41.19	260.21	22.63	-24.5	-24.4	14.2	2.28e-05	0	47	0	18664652800	20	14282
2026-01-23 21:37:42.20	260.61	22.67	-24.6	-24.5	14.1	3.24e-05	0	47	0	18790481920	20	14502
2026-01-23 21:37:43.20	261.01	22.70	-24.5	-24.3	14.3	2.47e-05	0	47	0	18899533824	20	14247
2026-01-23 21:37:44.21	261.41	22.73	-24.4	-24.3	14.2	2.09e-05	0	47	0	19016974336	20	14125
2026-01-23 21:37:45.22	261.81	22.76	-24.4	-24.2	14.0	2.28e-05	0	47	0	19126026240	20	14073
2026-01-23 21:37:46.23	262.22	22.79	-24.4	-24.3	14.0	2.67e-05	0	47	0	19235078144	20	14137
2026-01-23 21:37:47.24	262.62	22.82	-24.5	-24.3	14.0	1.90e-05	0	47	0	19352518656	20	14270
2026-01-23 21:37:48.25	263.03	22.85	-24.4	-24.2	14.0	3.05e-05	0	47	0	19461570560	20	14103
2026-01-23 21:37:49.25	263.43	22.87	-24.5	-24.4	14.0	2.86e-05	0	47	0	19579011072	20	14298
2026-01-23 21:37:50.26	263.84	22.90	-24.5	-24.3	13.9	3.62e-05	0	47	0	19688062976	20	14194
2026-01-23 21:37:51.27	264.24	22.92	-24.5	-24.3	14.0	2.09e-05	0	47	0	19797114880	20	14216
2026-01-23 21:37:52.28	264.65	22.94	-24.6	-24.4	13.8	2.86e-05	0	47	0	19914555392	20	14372
2026-01-23 21:37:53.29	265.06	22.96	-24.6	-24.4	14.0	3.62e-05	0	47	0	20023607296	20	14340
2026-01-23 21:37:54.30	265.47	22.98	-24.6	-24.5	13.9	3.81e-05	0	47	0	20149436416	20	14442
2026-01-23 21:37:55.31	265.88	22.99	-24.5	-24.4	13.9	5.14e-05	0	47	0	20258488320	20	14320
2026-01-23 21:37:56.31	266.29	23.01	-24.6	-24.4	13.8	4.76e-05	0	47	0	20375928832	20	14359
2026-01-23 21:37:57.32	266.70	23.02	-24.5	-24.3	13.8	5.91e-05	0	47	0	20484980736	20	14217
2026-01-23 21:37:58.33	267.11	23.04	-24.6	-24.4	13.8	3.62e-05	0	47	0	20602421248	20	14359
2026-01-23 21:37:59.34	267.52	23.05	-24.6	-24.4	13.8	5.53e-05	0	47	0	20711473152	20	14411
2026-01-23 21:38:00.35	267.93	23.06	-24.5	-24.4	13.7	6.29e-05	0	47	0	20820525056	20	14279
2026-01-23 21:38:01.35	268.34	23.07	-24.6	-24.5	13.8	6.86e-05	0	47	0	20937965568	20	14445
2026-01-23 21:38:02.36	268.75	23.08	-24.6	-24.5	13.7	9.91e-05	0	47	0	21047017472	20	14496
2026-01-23 21:38:03.37	269.16	23.08	-24.8	-24.6	13.8	8.01e-05	0	47	0	21164457984	20	14674
2026-01-23 21:38:04.38	269.58	23.09	-24.7	-24.5	13.6	7.05e-05	0	47	0	21273509888	20	14607
2026-01-23 21:38:05.39	269.99	23.09	-24.8	-24.6	13.7	8.39e-05	0	47	0	21390950400	20	14773
2026-01-23 21:38:06.39	270.40	23.09	-24.7	-24.6	13.8	7.24e-05	0	47	0	21500002304	20	14644
2026-01-23 21:38:07.40	270.81	23.09	-24.7	-24.5	13.7	7.05e-05	0	47	0	21625831424	20	14573
2026-01-23 21:38:08.41	271.22	23.09	-24.7	-24.5	13.8	5.34e-05	0	47	0	21734883328	20	14544
2026-01-23 21:38:09.42	271.64	23.09	-24.8	-24.6	13.7	6.86e-05	0	47	0	21843935232	20	14713
2026-01-23 21:38:10.43	272.05	23.09	-24.8	-24.6	13.7	6.48e-05	0	48	0	21961375744	20	14696
2026-01-23 21:38:11.43	272.46	23.08	-24.8	-24.6	13.6	4.57e-05	0	48	0	22070427648	20	14698
2026-01-23 21:38:12.44	272.87	23.07	-24.6	-24.5	13.6	7.05e-05	0	47	0	22187868160	20	14474
2026-01-23 21:38:13.45	273.28	23.07	-24.7	-24.5	13.6	6.48e-05	0	47	0	22296920064	20	14604
2026-01-23 21:38:14.46	273.70	23.06	-24.7	-24.6	13.6	7.05e-05	0	47	0	22414360576	20	14629
2026-01-23 21:38:15.47	274.11	23.05	-24.9	-24.7	13.7	7.43e-05	0	47	0	22523412480	20	14860
2026-01-23 21:38:16.47	274.51	23.03	-24.8	-24.7	13.7	6.67e-05	0	47	0	22632464384	20	14789
2026-01-23 21:38:17.48	274.93	23.02	-24.9	-24.7	13.6	5.91e-05	0	47	0	22749904896	20	14920
2026-01-23 21:38:18.49	275.34	23.01	-24.8	-24.7	13.7	7.05e-05	0	47	0	22858956800	20	14835
2026-01-23 21:38:19.50	275.75	22.99	-24.9	-24.7	13.6	6.10e-05	0	47	0	22984785920	20	14907
2026-01-23 21:38:20.51	276.16	22.97	-25.0	-24.8	13.7	6.29e-05	0	47	0	23093837824	20	15037
2026-01-23 21:38:21.51	276.56	22.95	-25.0	-24.8	13.6	4.76e-05	0	47	0	23211278336	20	15056
2026-01-23 21:38:22.52	276.97	22.93	-24.9	-24.8	13.6	5.14e-05	0	47	0	23320330240	20	14997
2026-01-23 21:38:23.53	277.38	22.91	-24.9	-24.7	13.5	1.90e-05	0	47	0	23437770752	20	14920
2026-01-23 21:38:24.54	277.78	22.89	-25.0	-24.8	13.5	5.34e-05	0	47	0	23546822656	20	15102
2026-01-23 21:38:25.54	278.19	22.86	-25.1	-24.9	13.6	2.47e-05	0	47	0	23655874560	20	15243
2026-01-23 21:38:26.55	278.59	22.84	-25.1	-24.9	13.6	2.47e-05	0	48	0	23773315072	20	15188
2026-01-23 21:38:27.56	279.00	22.81	-25.1	-25.0	13.6	2.86e-05	0	47	0	23882366976	20	15316
2026-01-23 21:38:28.57	279.40	22.78	-25.1	-24.9	13.6	1.14e-05	0	47	0	23999807488	21	14408
2026-01-23 21:38:29.58	279.81	22.75	-25.1	-24.9	13.7	2.67e-05	0	47	0	24108859392	21	14401
2026-01-23 21:38:30.59	280.21	22.72	-25.1	-25.0	13.6	2.67e-05	0	47	0	24217911296	21	14449
2026-01-23 21:38:31.59	280.61	22.69	-25.2	-25.0	13.7	2.28e-05	0	47	0	24335351808	21	14590
2026-01-23 21:38:32.60	281.01	22.66	-25.2	-25.0	13.7	1.71e-05	0	47	0	24461180928	21	14520
2026-01-23 21:38:33.61	281.41	22.62	-25.1	-25.0	13.6	1.52e-05	0	47	0	24570232832	21	14449
2026-01-23 21:38:34.62	281.81	22.59	-25.2	-25.0	13.7	2.86e-05	0	47	0	24679284736	21	14511
2026-01-23 21:38:35.63	282.21	22.55	-25.2	-25.0	13.6	2.47e-05	0	47	0	24796725248	21	14596
2026-01-23 21:38:36.63	282.60	22.51	-25.1	-25.0	13.7	9.50e-06	0	48	0	24905777152	21	14476
2026-01-23 21:38:37.64	282.99	22.47	-25.2	-25.0	13.6	3.81e-05	0	47	0	25023217664	21	14592
2026-01-23 21:38:38.64	283.39	22.43	-25.2	-25.0	13.6	3.05e-05	0	47	0	25132269568	21	14581
2026-01-23 21:38:39.65	283.78	22.39	-25.3	-25.2	13.7	3.05e-05	0	47	0	25249710080	21	14799
2026-01-23 21:38:40.66	284.17	22.35	-25.3	-25.1	13.6	2.28e-05	0	48	0	25358761984	21	14720
2026-01-23 21:38:41.67	284.56	22.30	-25.4	-25.2	13.6	1.90e-05	0	47	0	25467813888	21	14827
2026-01-23 21:38:42.68	284.95	22.26	-25.3	-25.1	13.6	1.90e-05	0	47	0	25585254400	21	14705
2026-01-23 21:38:43.69	285.34	22.21	-25.3	-25.1	13.6	2.09e-05	0	48	0	25694306304	21	14737
2026-01-23 21:38:44.69	285.72	22.16	-25.3	-25.2	13.7	2.86e-05	0	47	0	25811746816	21	14820
2026-01-23 21:38:45.70	286.11	22.11	-25.4	-25.3	13.7	1.90e-05	0	47	0	25929187328	21	14980
2026-01-23 21:38:46.71	286.50	22.06	-25.3	-25.2	13.6	4.19e-05	0	47	0	26046627840	21	14777
2026-01-23 21:38:47.72	286.88	22.01	-25.4	-25.2	13.7	3.43e-05	0	47	0	26155679744	21	14928
2026-01-23 21:38:48.73	287.26	21.96	-25.5	-25.3	13.6	2.09e-05	0	47	0	26273120256	21	15019
2026-01-23 21:38:49.73	287.64	21.91	-25.5	-25.3	13.6	2.47e-05	0	47	0	26382172160	21	15037
2026-01-23 21:38:50.74	288.02	21.85	-25.6	-25.4	13.6	2.09e-05	0	47	0	26491224064	21	15269
2026-01-23 21:38:51.75	288.39	21.80	-25.6	-25.4	13.7	2.28e-05	0	47	0	26608664576	21	15246
2026-01-23 21:38:52.76	288.77	21.74	-25.5	-25.4	13.6	1.90e-05	0	47	0	26717716480	21	15175
2026-01-23 21:38:53.77	289.15	21.69	-25.6	-25.5	13.6	3.24e-05	0	47	0	26835156992	21	15326
2026-01-23 21:38:54.77	289.52	21.63	-25.6	-25.4	13.6	3.24e-05	0	48	0	26944208896	21	15191
2026-01-23 21:38:55.78	289.89	21.57	-25.7	-25.5	13.6	5.34e-05	0	47	0	27053260800	21	15414
2026-01-23 21:38:56.79	290.26	21.51	-25.7	-25.5	13.6	5.14e-05	0	47	0	27170701312	22	14560
2026-01-23 21:38:57.79	290.62	21.45	-25.6	-25.4	13.6	4.95e-05	0	48	0	27279753216	22	14402
2026-01-23 21:38:58.80	290.99	21.39	-25.7	-25.6	13.6	4.76e-05	0	47	0	27405582336	22	14630
2026-01-23 21:38:59.81	291.35	21.32	-25.7	-25.5	13.6	4.38e-05	0	47	0	27514634240	22	14515
2026-01-23 21:39:00.82	291.72	21.26	-25.8	-25.6	13.6	5.72e-05	0	48	0	27632074752	22	14712
2026-01-23 21:39:01.83	292.08	21.20	-25.7	-25.6	13.7	3.62e-05	0	47	0	27741126656	22	14623
2026-01-23 21:39:02.84	292.44	21.13	-25.7	-25.6	13.6	6.48e-05	0	47	0	27858567168	22	14617
2026-01-23 21:39:03.85	292.80	21.06	-25.8	-25.6	13.6	4.19e-05	0	47	0	27967619072	22	14757
2026-01-23 21:39:04.86	293.16	21.00	-25.8	-25.6	13.7	6.10e-05	0	47	0	28076670976	22	14720
2026-01-23 21:39:05.87	293.51	20.93	-25.9	-25.7	13.6	4.57e-05	0	47	0	28194111488	22	14851
2026-01-23 21:39:06.87	293.86	20.86	-25.8	-25.7	13.6	6.29e-05	0	47	0	28303163392	22	14798
2026-01-23 21:39:07.88	294.21	20.79	-25.9	-25.7	13.6	5.34e-05	0	47	0	28420603904	22	14864
2026-01-23 21:39:08.89	294.56	20.72	-26.0	-25.8	13.6	8.77e-05	0	47	0	28529655808	22	15025
2026-01-23 21:39:09.90	294.91	20.65	-26.0	-25.8	13.6	6.29e-05	0	48	0	28655484928	22	15041
2026-01-23 21:39:10.91	295.26	20.58	-25.9	-25.7	13.6	6.67e-05	0	47	0	28764536832	22	14871
2026-01-23 21:39:11.91	295.60	20.51	-25.9	-25.7	13.6	6.86e-05	0	47	0	28881977344	22	14855
2026-01-23 21:39:12.92	295.94	20.44	-25.9	-25.7	13.6	6.67e-05	0	47	0	28991029248	22	14906
2026-01-23 21:39:13.93	296.28	20.36	-25.9	-25.7	13.6	6.67e-05	0	47	0	29100081152	22	14871
2026-01-23 21:39:14.94	296.62	20.29	-26.0	-25.8	13.6	6.86e-05	0	47	0	29217521664	22	15067
2026-01-23 21:39:15.95	296.96	20.21	-26.0	-25.8	13.6	5.91e-05	0	47	0	29326573568	22	15113
2026-01-23 21:39:16.96	297.30	20.14	-26.1	-26.0	13.6	7.43e-05	0	47	0	29444014080	22	15325
2026-01-23 21:39:17.97	297.63	20.06	-26.0	-25.9	13.6	5.14e-05	0	48	0	29553065984	22	15141
2026-01-23 21:39:18.98	297.96	19.99	-26.1	-25.9	13.6	5.72e-05	0	47	0	29670506496	22	15247
2026-01-23 21:39:19.99	298.29	19.91	-26.1	-25.9	13.6	5.34e-05	0	47	0	29779558400	22	15276
2026-01-23 21:39:21.00	298.62	19.83	-26.1	-25.9	13.6	7.05e-05	0	47	0	29905387520	22	15208
2026-01-23 21:39:22.01	298.95	19.75	-26.1	-25.9	13.6	8.01e-05	0	47	0	30014439424	22	15230
2026-01-23 21:39:23.02	299.27	19.67	-26.1	-26.0	13.6	8.58e-05	0	47	0	30131879936	22	15322
2026-01-23 21:39:24.02	299.59	19.60	-26.2	-26.0	13.7	4.95e-05	0	47	0	30240931840	22	15448
2026-01-23 21:39:25.03	299.91	19.52	-26.2	-26.0	13.7	7.24e-05	0	47	0	30349983744	23	14562
2026-01-23 21:39:26.04	300.23	19.44	-26.3	-26.1	13.6	8.77e-05	0	47	0	30467424256	23	14772
2026-01-23 21:39:27.05	300.55	19.36	-26.3	-26.2	13.7	5.34e-05	0	47	0	30576476160	23	14813
2026-01-23 21:39:28.06	300.86	19.27	-26.3	-26.2	13.6	7.62e-05	0	47	0	30693916672	23	14809
2026-01-23 21:39:29.07	301.18	19.19	-26.3	-26.1	13.7	6.10e-05	0	47	0	30802968576	23	14761
2026-01-23 21:39:30.08	301.49	19.11	-26.3	-26.1	13.6	7.62e-05	0	47	0	30912020480	23	14768
2026-01-23 21:39:31.09	301.80	19.03	-26.3	-26.1	13.6	7.82e-05	0	48	0	31029460992	23	14722
2026-01-23 21:39:32.10	302.11	18.94	-26.3	-26.2	13.7	1.11e-04	0	47	0	31155290112	23	14783
2026-01-23 21:39:33.11	302.41	18.86	-26.5	-26.3	13.6	1.11e-04	0	47	0	31264342016	23	15109
2026-01-23 21:39:34.12	302.72	18.78	-26.4	-26.2	13.6	8.77e-05	0	48	0	31373393920	23	14913
2026-01-23 21:39:35.12	303.02	18.69	-26.5	-26.3	13.6	9.91e-05	0	47	0	31490834432	23	15112
2026-01-23 21:39:36.13	303.32	18.61	-26.4	-26.3	13.6	1.14e-04	0	48	0	31599886336	23	14969
2026-01-23 21:39:37.14	303.61	18.53	-26.5	-26.3	13.6	8.58e-05	0	47	0	31717326848	23	15119
2026-01-23 21:39:38.15	303.91	18.44	-26.5	-26.3	13.7	7.62e-05	0	47	0	31826378752	23	15098
2026-01-23 21:39:39.16	304.21	18.36	-26.5	-26.3	13.6	1.01e-04	0	47	0	31935430656	23	15112
2026-01-23 21:39:40.17	304.50	18.27	-26.6	-26.4	14.0	1.14e-04	0	47	0	32052871168	23	15253
2026-01-23 21:39:41.18	304.79	18.18	-26.6	-26.4	14.1	1.07e-04	0	47	0	32161923072	23	15236
2026-01-23 21:39:42.19	305.08	18.10	-26.6	-26.4	14.1	1.12e-04	0	48	0	32279363584	23	15196
2026-01-23 21:39:43.19	305.36	18.01	-26.6	-26.4	14.1	8.77e-05	0	47	0	32388415488	23	15256
2026-01-23 21:39:44.20	305.65	17.93	-26.7	-26.5	14.1	1.45e-04	0	48	0	32514244608	23	15382
2026-01-23 21:39:45.21	305.93	17.84	-26.7	-26.5	14.1	1.33e-04	0	47	0	32623296512	23	15391
2026-01-23 21:39:46.22	306.22	17.75	-26.7	-26.5	14.2	1.22e-04	0	47	0	32740737024	24	14587
2026-01-23 21:39:47.23	306.50	17.66	-26.8	-26.6	14.2	8.20e-05	0	48	0	32849788928	24	14687
2026-01-23 21:39:48.24	306.78	17.58	-26.8	-26.7	14.2	1.18e-04	0	47	0	32958840832	24	14798
2026-01-23 21:39:49.25	307.05	17.49	-26.8	-26.6	14.1	1.33e-04	0	47	0	33076281344	24	14697
2026-01-23 21:39:50.26	307.33	17.40	-26.8	-26.6	14.1	8.77e-05	0	47	0	33185333248	24	14714
2026-01-23 21:39:51.27	307.60	17.31	-26.9	-26.7	14.2	9.53e-05	0	48	0	33302773760	24	14847
2026-01-23 21:39:52.27	307.87	17.23	-26.8	-26.7	14.2	9.15e-05	0	47	0	33411825664	24	14825
2026-01-23 21:39:53.28	308.14	17.14	-26.9	-26.8	14.2	9.53e-05	0	47	0	33529266176	24	14981
2026-01-23 21:39:54.29	308.41	17.05	-27.0	-26.9	14.2	9.15e-05	0	47	0	33638318080	24	15155
2026-01-23 21:39:55.30	308.67	16.96	-27.0	-26.8	14.1	1.11e-04	0	47	0	33764147200	24	15092
2026-01-23 21:39:56.31	308.94	16.87	-27.1	-27.0	14.1	1.22e-04	0	48	0	33873199104	24	15306
2026-01-23 21:39:57.31	309.20	16.78	-27.1	-26.9	14.2	1.43e-04	0	48	0	33990639616	24	15272
2026-01-23 21:39:58.32	309.46	16.69	-27.1	-26.9	14.1	1.16e-04	0	47	0	34099691520	24	15281
2026-01-23 21:39:59.33	309.72	16.61	-27.2	-27.0	14.2	1.09e-04	0	47	0	34208743424	24	15440
2026-01-23 21:40:00.34	309.97	16.52	-27.1	-27.0	14.1	1.47e-04	0	48	0	34326183936	24	15348
2026-01-23 21:40:01.34	310.23	16.43	-27.2	-27.1	14.2	1.26e-04	0	47	0	34435235840	25	14641
2026-01-23 21:40:02.35	310.48	16.34	-27.3	-27.1	14.2	1.41e-04	0	47	0	34552676352	25	14673
2026-01-23 21:40:03.36	310.73	16.25	-27.3	-27.1	14.2	1.49e-04	0	47	0	34661728256	25	14665
2026-01-23 21:40:04.37	310.98	16.16	-27.3	-27.2	14.2	1.43e-04	0	47	0	34770780160	25	14804
2026-01-23 21:40:05.38	311.23	16.07	-27.2	-27.1	14.3	1.20e-04	0	47	0	34888220672	25	14639
2026-01-23 21:40:06.39	311.48	15.98	-27.3	-27.2	14.3	1.41e-04	0	47	0	34997272576	25	14817
2026-01-23 21:40:07.40	311.73	15.89	-27.4	-27.3	14.2	1.30e-04	0	47	0	35123101696	25	14956
2026-01-23 21:40:08.41	311.97	15.80	-27.3	-27.2	14.3	1.75e-04	0	48	0	35232153600	25	14782
2026-01-23 21:40:09.42	312.21	15.71	-27.4	-27.2	14.2	1.66e-04	0	48	0	35349594112	25	14891
2026-01-23 21:40:10.43	312.45	15.62	-27.5	-27.3	14.3	1.22e-04	0	47	0	35458646016	25	15107
2026-01-23 21:40:11.43	312.69	15.53	-27.4	-27.3	14.3	1.28e-04	0	47	0	35576086528	25	14980
2026-01-23 21:40:12.44	312.93	15.44	-27.5	-27.4	14.4	1.28e-04	0	47	0	35685138432	25	15124
2026-01-23 21:40:13.45	313.16	15.35	-27.5	-27.3	14.1	1.35e-04	0	47	0	35794190336	25	15043
2026-01-23 21:40:14.46	313.40	15.26	-27.5	-27.3	14.2	1.79e-04	0	47	0	35911630848	25	15102
2026-01-23 21:40:15.47	313.63	15.18	-27.7	-27.5	14.2	1.87e-04	0	47	0	36020682752	25	15412
2026-01-23 21:40:16.48	313.86	15.09	-27.8	-27.7	14.3	1.94e-04	0	47	0	36138123264	26	14823
2026-01-23 21:40:17.49	314.09	15.00	-27.9	-27.8	14.3	1.72e-04	0	47	0	36247175168	26	15021
2026-01-23 21:40:18.50	314.32	14.91	-28.2	-28.0	14.3	1.66e-04	0	47	0	36373004288	26	15381
2026-01-23 21:40:19.51	314.54	14.82	-27.9	-27.7	14.3	1.70e-04	0	47	0	36482056192	27	14042
2026-01-23 21:40:20.51	314.77	14.73	-27.9	-27.8	14.3	1.58e-04	0	47	0	36599496704	27	14140
2026-01-23 21:40:21.52	314.99	14.64	-28.0	-27.9	14.4	1.91e-04	0	47	0	36708548608	27	14326
2026-01-23 21:40:22.53	315.21	14.55	-27.8	-27.6	14.5	1.39e-04	0	47	0	36817600512	27	13878
2026-01-23 21:40:23.54	315.43	14.46	-27.9	-27.8	14.5	1.54e-04	0	47	0	36935041024	27	14113
2026-01-23 21:40:24.55	315.65	14.37	-27.9	-27.7	14.5	1.54e-04	0	47	0	37044092928	27	14045
2026-01-23 21:40:25.56	315.87	14.28	-28.0	-27.9	14.5	1.72e-04	0	48	0	37161533440	27	14334
2026-01-23 21:40:26.56	316.08	14.19	-28.1	-27.9	14.5	1.68e-04	0	48	0	37270585344	27	14338
2026-01-23 21:40:27.57	316.29	14.11	-27.9	-27.7	14.3	2.75e-04	0	47	0	37388025856	27	14046
2026-01-23 21:40:28.58	316.51	14.02	-27.9	-27.8	14.2	3.47e-04	0	48	0	37497077760	27	14204
2026-01-23 21:40:29.59	316.72	13.93	-28.1	-27.9	14.2	4.58e-04	0	47	0	37606129664	27	14340
2026-01-23 21:40:30.60	316.93	13.84	-49.9	-50.5	7.4	0.00e+00	0	47	104	37690015744	70	16307
2026-01-23 21:40:31.61	317.14	13.75	-54.1	-56.3	6.2	0.00e+00	0	47	104	37690015744	78	20067
2026-01-23 21:40:32.62	317.34	13.66	-54.1	-56.2	6.2	0.00e+00	0	47	104	37690015744	78	19890
2026-01-23 21:40:33.63	317.55	13.57	-54.0	-56.2	6.2	0.00e+00	0	47	104	37690015744	78	19759
2026-01-23 21:40:34.63	317.75	13.49	-54.1	-56.2	6.2	0.00e+00	0	47	104	37690015744	78	19784
2026-01-23 21:40:35.64	317.96	13.40	-54.1	-56.1	6.2	0.00e+00	0	47	104	37690015744	78	19698
2026-01-23 21:40:36.65	318.16	13.31	-54.1	-56.2	6.2	0.00e+00	0	47	104	37690015744	78	19726
2026-01-23 21:40:37.66	318.36	13.22	-54.0	-56.1	6.2	0.00e+00	0	47	104	37690015744	78	19691
2026-01-23 21:40:38.66	318.55	13.14	-54.1	-56.2	6.2	0.00e+00	0	47	104	37690015744	78	19807
2026-01-23 21:40:39.67	318.75	13.05	-54.0	-56.1	6.2	0.00e+00	0	47	104	37690015744	78	19655
2026-01-23 21:40:40.68	318.95	12.96	-54.0	-56.1	6.2	0.00e+00	0	47	104	37690015744	78	19528
2026-01-23 21:40:41.69	319.14	12.87	-54.0	-56.1	6.2	0.00e+00	0	47	104	37690015744	78	19490
2026-01-23 21:40:42.70	319.34	12.79	-54.0	-56.1	6.2	0.00e+00	0	47	104	37690015744	78	19614
2026-01-23 21:40:43.71	319.53	12.70	-53.9	-56.1	6.2	0.00e+00	0	47	104	37690015744	78	19483
2026-01-23 21:40:44.71	319.72	12.61	-53.9	-56.0	6.2	0.00e+00	0	47	104	37690015744	78	19377
2026-01-23 21:40:45.72	319.91	12.53	-53.9	-56.0	6.2	0.00e+00	0	47	104	37690015744	78	19305
2026-01-23 21:40:46.73	320.10	12.44	-53.9	-56.0	6.2	0.00e+00	0	47	104	37690015744	78	19423
2026-01-23 21:40:47.74	320.28	12.35	-53.9	-55.9	6.2	0.00e+00	0	47	104	37690015744	78	19252
2026-01-23 21:40:48.74	320.47	12.27	-53.8	-55.9	6.2	0.00e+00	0	47	104	37690015744	78	19234
2026-01-23 21:40:49.75	320.65	12.18	-53.8	-55.9	6.2	0.00e+00	0	47	104	37690015744	78	19149
2026-01-23 21:40:50.76	320.84	12.10	-53.8	-56.0	6.2	0.00e+00	0	47	104	37690015744	78	19275
2026-01-23 21:40:51.77	321.02	12.01	-53.8	-55.9	6.2	0.00e+00	0	47	104	37690015744	78	19109
2026-01-23 21:40:52.78	321.20	11.92	-53.8	-55.8	6.2	0.00e+00	0	47	104	37690015744	78	19021
2026-01-23 21:40:53.78	321.38	11.84	-53.8	-55.8	6.2	0.00e+00	0	47	104	37690015744	78	19010
2026-01-23 21:40:54.79	321.55	11.75	-53.8	-55.9	6.2	0.00e+00	0	47	104	37690015744	78	19125
2026-01-23 21:40:55.80	321.73	11.67	-53.7	-55.8	6.2	0.00e+00	0	47	104	37690015744	78	19003
2026-01-23 21:40:56.81	321.91	11.58	-53.7	-55.8	6.2	0.00e+00	0	47	104	37690015744	78	18924
2026-01-23 21:40:57.82	322.08	11.50	-53.7	-55.8	6.2	0.00e+00	0	47	104	37690015744	78	18965
2026-01-23 21:40:58.83	322.26	11.41	-53.7	-55.9	6.2	0.00e+00	0	47	104	37690015744	78	19069
2026-01-23 21:40:59.83	322.43	11.33	-53.7	-55.8	6.2	0.00e+00	0	47	104	37690015744	78	18920
2026-01-23 21:41:00.84	322.60	11.25	-53.7	-55.8	6.2	0.00e+00	0	47	104	37690015744	78	18866
2026-01-23 21:41:01.85	322.77	11.16	-53.7	-55.8	6.2	0.00e+00	0	47	104	37690015744	78	18885
2026-01-23 21:41:02.86	322.94	11.08	-53.7	-55.8	6.2	0.00e+00	0	47	104	37690015744	78	18972
2026-01-23 21:41:03.87	323.11	10.99	-53.7	-55.8	6.2	0.00e+00	0	47	104	37690015744	78	18864
2026-01-23 21:41:04.87	323.27	10.91	-53.6	-55.7	6.2	0.00e+00	0	47	104	37690015744	78	18732
2026-01-23 21:41:05.88	323.44	10.83	-53.7	-55.7	6.2	0.00e+00	0	47	104	37690015744	78	18761
2026-01-23 21:41:06.89	323.60	10.74	-53.7	-55.8	6.2	0.00e+00	0	47	104	37690015744	78	18851
2026-01-23 21:41:07.90	323.77	10.66	-53.6	-55.7	6.2	0.00e+00	0	47	104	37690015744	78	18702
2026-01-23 21:41:08.91	323.93	10.58	-53.6	-55.7	6.2	0.00e+00	0	47	104	37690015744	78	18715
2026-01-23 21:41:09.91	324.09	10.50	-53.6	-55.7	6.2	0.00e+00	0	47	104	37690015744	78	18711
2026-01-23 21:41:10.92	324.25	10.41	-53.6	-55.7	6.2	0.00e+00	0	47	104	37690015744	78	18731
2026-01-23 21:41:11.93	324.41	10.33	-53.6	-55.7	6.2	0.00e+00	0	47	104	37690015744	78	18613
2026-01-23 21:41:12.94	324.57	10.25	-53.5	-55.6	6.2	0.00e+00	0	47	104	37690015744	78	18542
2026-01-23 21:41:13.95	324.73	10.17	-53.5	-55.6	6.2	0.00e+00	0	47	104	37690015744	78	18576
2026-01-23 21:41:14.95	324.88	10.09	-53.6	-55.7	6.2	0.00e+00	0	47	104	37690015744	78	18655
2026-01-23 21:41:15.96	325.04	10.00	-53.5	-55.6	6.2	0.00e+00	0	47	104	37690015744	78	18468
2026-01-23 21:41:16.97	325.19	9.92	-53.5	-55.6	6.2	0.00e+00	0	47	104	37690015744	78	18531
2026-01-23 21:41:17.98	325.35	9.84	-53.5	-55.6	6.2	0.00e+00	0	47	104	37690015744	78	18430
2026-01-23 21:41:18.99	325.50	9.76	-53.5	-55.6	6.2	0.00e+00	0	47	104	37690015744	78	18463
2026-01-23 21:41:19.99	325.65	9.68	-53.4	-55.5	6.2	0.00e+00	0	47	104	37690015744	78	18349
2026-01-23 21:41:21.00	325.80	9.60	-53.4	-55.5	6.2	0.00e+00	0	47	104	37690015744	78	18321
2026-01-23 21:41:22.01	325.95	9.52	-53.4	-55.5	6.2	0.00e+00	0	47	104	37690015744	78	18335
2026-01-23 21:41:23.02	326.10	9.44	-53.4	-55.5	6.2	0.00e+00	0	47	104	37690015744	78	18332
2026-01-23 21:41:24.03	326.24	9.36	-53.4	-55.5	6.2	0.00e+00	0	47	104	37690015744	78	18289
2026-01-23 21:41:25.03	326.39	9.28	-53.4	-55.5	6.2	0.00e+00	0	47	104	37690015744	78	18248
2026-01-23 21:41:26.04	326.54	9.20	-53.4	-55.5	6.2	0.00e+00	0	47	104	37690015744	78	18226
2026-01-23 21:41:27.05	326.68	9.12	-53.4	-55.5	6.2	0.00e+00	0	47	104	37690015744	78	18320
2026-01-23 21:41:28.06	326.83	9.04	-53.3	-55.4	6.2	0.00e+00	0	47	104	37690015744	78	18127
2026-01-23 21:41:29.07	326.97	8.96	-53.3	-55.4	6.2	0.00e+00	0	47	104	37690015744	78	18115
2026-01-23 21:41:30.07	327.11	8.88	-53.3	-55.4	6.2	0.00e+00	0	47	104	37690015744	78	18069
2026-01-23 21:41:31.08	327.25	8.80	-53.4	-55.5	6.2	0.00e+00	0	47	104	37690015744	78	18217
2026-01-23 21:41:32.09	327.39	8.73	-53.3	-55.4	6.2	0.00e+00	0	47	104	37690015744	78	18079
2026-01-23 21:41:33.10	327.53	8.65	-53.3	-55.4	6.2	0.00e+00	0	47	104	37690015744	78	18042
2026-01-23 21:41:34.10	327.67	8.57	-53.3	-55.3	6.2	0.00e+00	0	47	104	37690015744	78	17952
2026-01-23 21:41:35.11	327.81	8.49	-53.3	-55.4	6.2	0.00e+00	0	47	104	37690015744	78	18047
2026-01-23 21:41:36.12	327.94	8.41	-53.2	-55.3	6.2	0.00e+00	0	47	104	37690015744	78	17922
2026-01-23 21:41:37.13	328.08	8.34	-53.2	-55.3	6.2	0.00e+00	0	47	104	37690015744	78	17955
2026-01-23 21:41:38.14	328.21	8.26	-53.2	-55.3	6.2	0.00e+00	0	47	104	37690015744	78	17907
2026-01-23 21:41:39.14	328.35	8.18	-53.3	-55.4	6.2	0.00e+00	0	47	104	37690015744	78	18033
2026-01-23 21:41:40.15	328.48	8.10	-53.2	-55.3	6.2	0.00e+00	0	47	104	37690015744	78	17822
2026-01-23 21:41:41.16	328.61	8.03	-53.2	-55.3	6.2	0.00e+00	0	47	104	37690015744	78	17856
2026-01-23 21:41:42.17	328.75	7.95	-53.2	-55.3	6.2	0.00e+00	0	47	104	37690015744	78	17809
2026-01-23 21:41:43.18	328.88	7.87	-53.2	-55.4	6.2	0.00e+00	0	47	104	37690015744	78	17975
2026-01-23 21:41:44.18	329.01	7.80	-53.2	-55.2	6.2	0.00e+00	0	47	104	37690015744	78	17754
2026-01-23 21:41:45.19	329.14	7.72	-53.1	-55.2	6.2	0.00e+00	0	47	104	37690015744	78	17741
2026-01-23 21:41:46.20	329.26	7.65	-53.2	-55.3	6.2	0.00e+00	0	47	104	37690015744	78	17770
2026-01-23 21:41:47.21	329.39	7.57	-53.2	-55.3	6.2	0.00e+00	0	47	104	37690015744	78	17854
2026-01-23 21:41:48.21	329.52	7.50	-53.1	-55.3	6.2	0.00e+00	0	47	104	37690015744	78	17779
2026-01-23 21:41:49.22	329.64	7.42	-53.1	-55.2	6.2	0.00e+00	0	47	104	37690015744	78	17745
2026-01-23 21:41:50.23	329.77	7.35	-53.1	-55.2	6.2	0.00e+00	0	47	104	37690015744	78	17709
2026-01-23 21:41:51.24	329.90	7.27	-53.2	-55.3	6.2	0.00e+00	0	47	104	37690015744	78	17895
2026-01-23 21:41:52.25	330.02	7.20	-53.1	-55.3	6.2	0.00e+00	0	47	104	37690015744	78	17774
2026-01-23 21:41:53.25	330.14	7.12	-53.1	-55.3	6.2	0.00e+00	0	47	104	37690015744	78	17769
2026-01-23 21:41:54.26	330.26	7.05	-53.1	-55.2	6.2	0.00e+00	0	47	104	37690015744	78	17636
2026-01-23 21:41:55.27	330.39	6.97	-53.1	-55.3	6.2	0.00e+00	0	47	104	37690015744	78	17775
2026-01-23 21:41:56.28	330.51	6.90	-53.1	-55.2	6.2	0.00e+00	0	47	104	37690015744	78	17701
2026-01-23 21:41:57.29	330.63	6.83	-53.1	-55.2	6.2	0.00e+00	0	47	104	37690015744	78	17627
2026-01-23 21:41:58.29	330.75	6.75	-53.1	-55.2	6.2	0.00e+00	0	47	104	37690015744	78	17616
2026-01-23 21:41:59.30	330.87	6.68	-53.1	-55.2	6.2	0.00e+00	0	47	104	37690015744	78	17652
2026-01-23 21:42:00.31	330.99	6.61	-53.1	-55.2	6.2	0.00e+00	0	47	104	37690015744	78	17566
2026-01-23 21:42:01.32	331.10	6.53	-53.1	-55.2	6.2	0.00e+00	0	47	104	37690015744	78	17612
2026-01-23 21:42:02.33	331.22	6.46	-53.1	-55.1	6.2	0.00e+00	0	47	104	37690015744	78	17505
2026-01-23 21:42:03.33	331.34	6.39	-53.1	-55.2	6.2	0.00e+00	0	47	104	37690015744	78	17635
2026-01-23 21:42:04.34	331.45	6.32	-53.0	-55.1	6.2	0.00e+00	0	47	104	37690015744	78	17508
2026-01-23 21:42:05.35	331.57	6.24	-53.0	-55.1	6.2	0.00e+00	0	47	104	37690015744	78	17422
2026-01-23 21:42:06.36	331.68	6.17	-53.0	-55.1	6.2	0.00e+00	0	47	104	37690015744	77	18460
2026-01-23 21:42:07.37	331.79	6.10	-53.0	-55.1	6.2	0.00e+00	0	47	104	37690015744	77	18479
2026-01-23 21:42:08.38	331.91	6.03	-52.9	-55.0	6.2	0.00e+00	0	47	104	37690015744	77	18361
2026-01-23 21:42:09.38	332.02	5.96	-52.9	-55.0	6.2	0.00e+00	0	47	104	37690015744	77	18325
2026-01-23 21:42:10.39	332.13	5.88	-52.9	-55.0	6.2	0.00e+00	0	47	104	37690015744	77	18262
2026-01-23 21:42:11.40	332.24	5.81	-52.9	-55.1	6.2	0.00e+00	0	47	104	37690015744	77	18404
2026-01-23 21:42:12.41	332.35	5.74	-52.9	-55.0	6.2	0.00e+00	0	47	104	37690015744	77	18291
2026-01-23 21:42:13.41	332.46	5.67	-52.8	-54.9	6.2	0.00e+00	0	47	104	37690015744	77	18169
2026-01-23 21:42:14.42	332.57	5.60	-52.9	-55.0	6.2	0.00e+00	0	47	104	37690015744	77	18210
2026-01-23 21:42:15.43	332.68	5.53	-52.9	-55.0	6.2	0.00e+00	0	47	104	37690015744	77	18313
2026-01-23 21:42:16.44	332.79	5.46	-52.8	-54.9	6.2	0.00e+00	0	47	104	37690015744	77	18179
2026-01-23 21:42:17.45	332.89	5.39	-52.8	-54.9	6.2	0.00e+00	0	47	104	37690015744	77	17976
2026-01-23 21:42:18.45	333.00	5.32	-52.8	-54.9	6.2	0.00e+00	0	47	104	37690015744	77	18091
2026-01-23 21:42:19.46	333.11	5.25	-52.8	-54.9	6.2	0.00e+00	0	47	104	37690015744	77	18168
2026-01-23 21:42:20.47	333.21	5.18	-52.8	-54.9	6.2	0.00e+00	0	47	104	37690015744	77	18016
2026-01-23 21:42:21.48	333.32	5.11	-52.7	-54.8	6.2	0.00e+00	0	47	104	37690015744	77	17892
2026-01-23 21:42:22.49	333.42	5.04	-52.7	-54.8	6.2	0.00e+00	0	47	104	37690015744	77	17943
2026-01-23 21:42:23.50	333.53	4.97	-52.9	-55.0	6.2	0.00e+00	0	47	104	37690015744	77	18290
2026-01-23 21:42:24.50	333.63	4.90	-53.3	-55.4	6.2	0.00e+00	0	47	104	37690015744	77	19192
2026-01-23 21:42:25.51	333.73	4.83	-53.7	-55.8	6.2	0.00e+00	0	47	104	37690015744	77	19985
2026-01-23 21:42:26.52	333.83	4.77	-54.1	-56.2	6.2	0.00e+00	0	47	104	37690015744	78	19705
2026-01-23 21:42:27.53	333.93	4.70	-54.2	-56.3	6.2	0.00e+00	0	47	104	37690015744	78	19953
2026-01-23 21:42:28.54	334.03	4.63	-54.3	-56.4	6.2	0.00e+00	0	47	104	37690015744	79	19180
2026-01-23 21:42:29.55	334.14	4.56	-54.4	-56.5	6.2	0.00e+00	0	47	104	37690015744	79	19298
2026-01-23 21:42:30.55	334.23	4.49	-54.4	-56.5	6.2	0.00e+00	0	47	104	37690015744	79	19360
2026-01-23 21:42:31.56	334.33	4.42	-54.4	-56.5	6.2	0.00e+00	0	47	104	37690015744	79	19325
2026-01-23 21:42:32.57	334.43	4.36	-54.3	-56.4	6.2	0.00e+00	0	47	104	37690015744	79	19147
2026-01-23 21:42:33.58	334.53	4.29	-54.2	-56.3	6.2	0.00e+00	0	47	104	37690015744	79	18999
2026-01-23 21:42:34.59	334.63	4.22	-54.2	-56.3	6.2	0.00e+00	0	47	104	37690015744	79	18845
2026-01-23 21:42:35.60	334.73	4.15	-54.0	-56.1	6.2	0.00e+00	0	47	104	37690015744	79	18457
2026-01-23 21:42:36.61	334.82	4.09	-54.0	-56.1	6.2	0.00e+00	0	47	104	37690015744	79	18443
2026-01-23 21:42:37.62	334.92	4.02	-54.0	-56.1	6.2	0.00e+00	0	47	104	37690015744	79	18558
2026-01-23 21:42:38.63	335.01	3.95	-54.0	-56.1	6.2	0.00e+00	0	47	104	37690015744	79	18531
2026-01-23 21:42:39.63	335.11	3.89	-54.0	-56.1	6.2	0.00e+00	0	47	104	37690015744	79	18508
2026-01-23 21:42:40.64	335.20	3.82	-54.0	-56.1	6.2	0.00e+00	0	47	104	37690015744	79	18552
2026-01-23 21:42:41.65	335.30	3.75	-54.0	-56.1	6.2	0.00e+00	0	47	104	37690015744	79	18474
2026-01-23 21:42:42.66	335.39	3.69	-54.0	-56.1	6.2	0.00e+00	0	47	104	37690015744	79	18432
2026-01-23 21:42:43.67	335.48	3.62	-53.9	-56.0	6.2	0.00e+00	0	47	104	37690015744	79	18387
2026-01-23 21:42:44.68	335.58	3.56	-53.9	-56.0	6.2	0.00e+00	0	47	104	37690015744	79	18288
2026-01-23 21:42:45.69	335.67	3.49	-53.8	-56.0	6.2	0.00e+00	0	47	104	37690015744	79	18205
2026-01-23 21:42:46.70	335.76	3.43	-53.8	-55.9	6.2	0.00e+00	0	47	104	37690015744	79	18020
2026-01-23 21:42:47.71	335.85	3.36	-53.8	-55.9	6.2	0.00e+00	0	46	104	37690015744	79	18005
2026-01-23 21:42:48.72	335.94	3.29	-53.7	-55.8	6.2	0.00e+00	0	47	104	37690015744	79	17898
2026-01-23 21:42:49.73	336.03	3.23	-53.7	-55.8	6.2	0.00e+00	0	47	104	37690015744	79	17928
2026-01-23 21:42:50.73	336.12	3.16	-53.7	-55.8	6.2	0.00e+00	0	47	104	37690015744	79	17881
2026-01-23 21:42:51.74	336.21	3.10	-53.7	-55.8	6.2	0.00e+00	0	47	104	37690015744	79	17780
2026-01-23 21:42:52.75	336.30	3.04	-53.7	-55.8	6.2	0.00e+00	0	47	104	37690015744	79	17795
2026-01-23 21:42:53.76	336.39	2.97	-53.7	-55.8	6.2	0.00e+00	0	46	104	37690015744	79	17779
2026-01-23 21:42:54.77	336.48	2.91	-53.6	-55.7	6.2	0.00e+00	0	47	104	37690015744	79	17746
2026-01-23 21:42:55.77	336.56	2.84	-53.6	-55.7	6.2	0.00e+00	0	47	104	37690015744	79	17750
2026-01-23 21:42:56.78	336.65	2.78	-53.6	-55.7	6.2	0.00e+00	0	47	104	37690015744	79	17740
2026-01-23 21:42:57.79	336.74	2.71	-53.6	-55.7	6.2	0.00e+00	0	47	104	37690015744	79	17688
2026-01-23 21:42:58.80	336.82	2.65	-53.6	-55.7	6.2	0.00e+00	0	47	104	37690015744	79	17634
2026-01-23 21:42:59.81	336.91	2.59	-53.6	-55.7	6.2	0.00e+00	0	47	104	37690015744	79	17645
2026-01-23 21:43:00.79	336.99	2.53	-53.6	-55.7	6.2	0.00e+00	0	47	104	37690015744	79	17649
2026-01-23 21:43:01.80	337.08	2.46	-53.6	-55.7	6.2	0.00e+00	0	47	104	37690015744	79	17637
2026-01-23 21:43:02.81	337.16	2.40	-53.6	-55.7	6.2	0.00e+00	0	46	104	37690015744	79	17620
2026-01-23 21:43:03.82	337.25	2.34	-53.6	-55.7	6.2	0.00e+00	0	47	104	37690015744	79	17598
2026-01-23 21:43:04.83	337.33	2.27	-53.6	-55.7	6.2	0.00e+00	0	47	104	37690015744	79	17568
2026-01-23 21:43:05.83	337.41	2.21	-53.6	-55.7	6.2	0.00e+00	0	47	104	37690015744	79	17636
2026-01-23 21:43:06.84	337.50	2.15	-53.6	-55.6	6.2	0.00e+00	0	47	104	37690015744	79	17562
2026-01-23 21:43:07.85	337.58	2.09	-53.6	-55.7	6.2	0.00e+00	0	47	104	37690015744	79	17567
2026-01-23 21:43:08.86	337.66	2.02	-53.6	-55.7	6.2	0.00e+00	0	47	104	37690015744	79	17591
2026-01-23 21:43:09.87	337.74	1.96	-53.6	-55.6	6.2	0.00e+00	0	47	104	37690015744	79	17554

#Closed at: 2026-01-23 21:43:10
#Recorded file [37690 MB]: D:/lorett/data/31041_260124_003305.dat