passes_logs/2026/01/23/R3.2S_Murmansk/R3.2S_Murmansk__20260123_061348_KANOPUS-V_5_rec.log

#Pass ID: 20260123_061348_KANOPUS-V 5
#Satellite: KANOPUS-V 5
#Configuration: KANOPUS-V_8320
#almurnet v.1.7.20251203
#Start time: 2026-01-23 06:13:48

#Version: 2.2.20231116
#Station: R3.2S_Murmansk
#Location: 33.079688 lon 68.888172 lat
#TLE: 1 43876U 18111A   26022.52701148  .00004818  00000+0  20478-3 0  9994
#TLE: 2 43876  97.3679 290.9053 0001819  88.4130 271.7316 15.23508812392615

#Time	Az	El	Level	Level2	SNR	BER	BlckErr	Temp	State	Recorded	gain1	gain2
2026-01-23 06:13:48.78	117.74	2.02	-55.2	-64.0	3.8	7.44e-01	0	41	0	0	81	10262
2026-01-23 06:13:49.79	117.68	2.09	-55.3	-64.1	3.8	7.45e-01	0	41	104	0	81	10406
2026-01-23 06:13:50.80	117.62	2.16	-55.4	-64.2	3.8	7.45e-01	0	41	104	0	81	10487
2026-01-23 06:13:51.81	117.56	2.23	-55.4	-64.2	3.8	7.46e-01	0	41	104	0	81	10448
2026-01-23 06:13:52.81	117.50	2.29	-55.4	-64.2	3.8	7.46e-01	0	41	104	0	81	10481
2026-01-23 06:13:53.82	117.44	2.36	-55.3	-64.2	3.8	7.45e-01	0	42	104	0	81	10435
2026-01-23 06:13:54.83	117.37	2.43	-55.3	-64.2	3.8	7.46e-01	0	41	104	0	81	10419
2026-01-23 06:13:55.84	117.31	2.50	-55.3	-64.1	3.8	7.46e-01	0	41	104	0	81	10398
2026-01-23 06:13:56.85	117.25	2.57	-55.3	-64.1	3.8	7.46e-01	0	42	104	0	81	10358
2026-01-23 06:13:57.85	117.19	2.64	-55.2	-64.1	3.8	7.46e-01	0	41	104	0	81	10295
2026-01-23 06:13:58.86	117.12	2.71	-55.2	-64.0	3.8	7.44e-01	0	42	104	0	81	10221
2026-01-23 06:13:59.87	117.06	2.77	-55.1	-64.0	3.8	7.45e-01	0	42	104	0	81	10202
2026-01-23 06:14:00.88	116.99	2.84	-55.1	-63.9	3.8	7.44e-01	0	42	104	0	81	10105
2026-01-23 06:14:01.89	116.93	2.91	-55.0	-63.9	3.8	7.45e-01	0	42	104	0	81	10084
2026-01-23 06:14:02.89	116.86	2.98	-55.0	-63.9	3.8	7.46e-01	0	42	104	0	81	10080
2026-01-23 06:14:03.90	116.80	3.05	-55.0	-63.8	3.8	7.46e-01	0	42	104	0	81	9995
2026-01-23 06:14:04.91	116.73	3.12	-54.9	-63.8	3.8	7.45e-01	0	42	104	0	81	9987
2026-01-23 06:14:05.92	116.66	3.19	-54.9	-63.7	3.8	7.45e-01	0	42	104	0	81	9926
2026-01-23 06:14:06.93	116.59	3.26	-54.9	-63.7	3.8	7.46e-01	0	42	104	0	81	9875
2026-01-23 06:14:07.93	116.53	3.33	-54.8	-63.6	3.8	7.45e-01	0	42	104	0	81	9830
2026-01-23 06:14:08.94	116.46	3.41	-54.8	-63.6	3.8	7.44e-01	0	42	104	0	81	9764
2026-01-23 06:14:09.95	116.39	3.48	-54.7	-63.5	3.8	7.45e-01	0	42	104	0	81	9699
2026-01-23 06:14:10.96	116.32	3.55	-54.6	-63.5	3.8	7.45e-01	0	42	104	0	81	9626
2026-01-23 06:14:11.97	116.25	3.62	-54.6	-63.4	3.8	7.45e-01	0	42	104	0	81	9577
2026-01-23 06:14:12.98	116.18	3.69	-54.5	-63.3	3.8	7.46e-01	0	42	104	0	81	9447
2026-01-23 06:14:13.99	116.11	3.76	-54.4	-63.2	3.8	7.45e-01	0	42	104	0	80	9917
2026-01-23 06:14:14.99	116.04	3.84	-54.3	-63.1	3.8	7.45e-01	0	42	104	0	80	9752
2026-01-23 06:14:16.00	115.97	3.91	-54.1	-63.0	3.8	7.46e-01	0	42	104	0	80	9638
2026-01-23 06:14:17.01	115.90	3.98	-54.0	-62.8	3.8	7.45e-01	0	42	104	0	80	9396
2026-01-23 06:14:18.02	115.82	4.05	-53.8	-62.7	3.8	7.44e-01	0	42	104	0	79	9845
2026-01-23 06:14:19.03	115.75	4.13	-53.4	-61.8	3.8	7.45e-01	0	42	104	0	78	9434
2026-01-23 06:14:20.04	115.68	4.20	-53.4	-61.8	3.8	7.46e-01	0	42	104	0	78	9436
2026-01-23 06:14:21.05	115.60	4.28	-53.4	-61.9	3.8	7.45e-01	0	42	104	0	78	9538
2026-01-23 06:14:22.06	115.53	4.35	-53.4	-61.9	3.8	7.45e-01	0	42	104	0	78	9540
2026-01-23 06:14:23.07	115.45	4.42	-53.2	-61.2	3.8	7.45e-01	0	42	104	0	78	8804
2026-01-23 06:14:24.07	115.38	4.50	-52.8	-59.7	3.9	7.43e-01	0	42	104	0	77	7899
2026-01-23 06:14:25.08	115.30	4.57	-51.8	-56.9	4.9	7.10e-01	0	42	104	0	75	6362
2026-01-23 06:14:26.09	115.23	4.65	-50.7	-54.7	6.3	6.70e-01	0	42	0	12582912	73	5588
2026-01-23 06:14:27.10	115.15	4.72	-49.7	-53.0	8.0	6.41e-01	0	42	0	27262976	71	5122
2026-01-23 06:14:28.11	115.07	4.80	-48.8	-51.8	9.1	6.25e-01	0	42	0	41943040	69	4999
2026-01-23 06:14:29.12	114.99	4.87	-48.1	-50.8	10.3	6.16e-01	0	42	0	58720256	67	5031
2026-01-23 06:14:30.13	114.91	4.95	-47.6	-50.3	10.8	6.12e-01	0	42	0	73400320	67	4725
2026-01-23 06:14:31.13	114.84	5.02	-47.7	-50.4	10.7	6.14e-01	0	42	0	88080384	67	4776
2026-01-23 06:14:32.14	114.76	5.10	-45.5	-47.7	13.3	6.05e-01	0	42	0	104857600	63	4417
2026-01-23 06:14:33.15	114.68	5.18	-46.3	-48.6	12.6	6.05e-01	0	42	0	119537664	63	4914
2026-01-23 06:14:34.16	114.59	5.25	-52.5	-58.7	4.2	7.35e-01	0	42	0	134217728	75	7829
2026-01-23 06:14:35.17	114.51	5.33	-50.2	-53.7	7.6	6.47e-01	0	42	0	150994944	71	5545
2026-01-23 06:14:36.17	114.43	5.41	-49.1	-52.1	9.0	6.27e-01	0	43	0	165675008	68	5528
2026-01-23 06:14:37.18	114.35	5.49	-46.4	-48.7	12.6	6.03e-01	0	43	0	182452224	64	4702
2026-01-23 06:14:38.19	114.27	5.56	-46.3	-48.7	12.5	6.06e-01	0	43	0	197132288	64	4656
2026-01-23 06:14:39.19	114.18	5.64	-45.8	-48.1	13.2	6.03e-01	0	42	0	213909504	63	4610
2026-01-23 06:14:40.21	114.10	5.72	-45.9	-48.2	13.2	6.04e-01	0	43	0	228589568	63	4653
2026-01-23 06:14:41.21	114.01	5.80	-45.8	-48.0	13.2	6.04e-01	0	43	0	243269632	63	4598
2026-01-23 06:14:42.22	113.93	5.88	-46.1	-48.4	12.9	6.05e-01	0	43	0	260046848	63	4778
2026-01-23 06:14:43.23	113.84	5.96	-45.8	-48.0	13.3	6.05e-01	0	43	0	274726912	63	4593
2026-01-23 06:14:44.24	113.76	6.04	-45.7	-47.9	13.4	6.03e-01	0	43	0	289406976	63	4530
2026-01-23 06:14:45.24	113.67	6.12	-45.6	-47.9	13.4	6.04e-01	0	43	0	306184192	63	4511
2026-01-23 06:14:46.25	113.58	6.20	-46.0	-48.2	13.2	6.04e-01	0	43	0	320864256	63	4703
2026-01-23 06:14:47.26	113.49	6.28	-45.9	-48.1	13.3	6.06e-01	0	43	0	335544320	63	4640
2026-01-23 06:14:48.27	113.40	6.36	-46.0	-48.3	13.1	6.04e-01	0	43	0	352321536	63	4712
2026-01-23 06:14:49.28	113.31	6.44	-45.5	-47.7	13.6	6.05e-01	0	43	0	369098752	62	4669
2026-01-23 06:14:50.28	113.22	6.52	-45.6	-47.8	13.5	6.02e-01	0	43	0	383778816	62	4748
2026-01-23 06:14:51.30	113.13	6.60	-45.4	-47.5	13.8	6.01e-01	0	43	0	398458880	62	4587
2026-01-23 06:14:52.31	113.04	6.68	-45.2	-47.3	14.0	6.01e-01	0	43	0	415236096	62	4478
2026-01-23 06:14:53.31	112.95	6.76	-45.2	-47.4	14.0	6.03e-01	0	43	0	429916160	62	4494
2026-01-23 06:14:54.32	112.85	6.85	-45.3	-47.4	14.0	6.03e-01	0	43	0	444596224	62	4520
2026-01-23 06:14:55.33	112.76	6.93	-45.2	-47.4	14.1	6.00e-01	0	43	0	461373440	62	4497
2026-01-23 06:14:56.34	112.66	7.01	-45.0	-47.1	14.3	6.02e-01	0	43	0	476053504	62	4390
2026-01-23 06:14:57.35	112.57	7.09	-45.2	-47.3	14.1	6.03e-01	0	43	0	490733568	62	4477
2026-01-23 06:14:58.36	112.47	7.18	-45.2	-47.3	14.1	6.03e-01	0	43	0	507510784	62	4486
2026-01-23 06:14:59.37	112.38	7.26	-45.1	-47.2	14.2	6.03e-01	0	43	0	522190848	62	4414
2026-01-23 06:15:00.38	112.28	7.35	-45.2	-47.3	14.2	6.04e-01	0	43	0	538968064	62	4461
2026-01-23 06:15:01.39	112.18	7.43	-45.2	-47.3	14.1	6.02e-01	0	43	0	553648128	62	4478
2026-01-23 06:15:02.40	112.08	7.52	-45.2	-47.4	14.1	6.03e-01	0	43	0	570425344	62	4494
2026-01-23 06:15:03.41	111.98	7.60	-45.1	-47.3	14.2	6.03e-01	0	43	0	585105408	62	4443
2026-01-23 06:15:04.42	111.88	7.69	-45.2	-47.4	14.1	6.05e-01	0	43	0	599785472	62	4501
2026-01-23 06:15:05.43	111.78	7.77	-45.0	-47.1	14.3	6.03e-01	0	43	0	616562688	62	4372
2026-01-23 06:15:06.43	111.68	7.86	-45.1	-47.3	14.2	6.01e-01	0	43	0	631242752	62	4452
2026-01-23 06:15:07.44	111.58	7.94	-45.0	-47.2	14.3	6.02e-01	0	43	0	645922816	61	4656
2026-01-23 06:15:08.45	111.47	8.03	-44.9	-47.1	14.4	6.02e-01	0	43	0	660602880	61	4603
2026-01-23 06:15:09.46	111.37	8.12	-44.8	-46.9	14.6	6.03e-01	0	43	0	677380096	61	4525
2026-01-23 06:15:10.47	111.26	8.21	-44.8	-46.9	14.5	6.03e-01	0	43	0	692060160	61	4518
2026-01-23 06:15:11.48	111.16	8.29	-44.7	-46.8	14.6	6.02e-01	0	43	0	708837376	61	4466
2026-01-23 06:15:12.49	111.05	8.38	-44.5	-46.7	14.7	6.01e-01	0	43	0	725614592	61	4401
2026-01-23 06:15:13.50	110.94	8.47	-44.6	-46.8	14.7	6.03e-01	0	43	0	740294656	61	4447
2026-01-23 06:15:14.51	110.83	8.56	-44.5	-46.7	14.7	6.02e-01	0	43	0	754974720	60	4678
2026-01-23 06:15:15.51	110.72	8.65	-44.7	-46.8	14.6	6.01e-01	0	43	0	769654784	60	4751
2026-01-23 06:15:16.52	110.61	8.74	-44.6	-46.8	14.6	6.02e-01	0	43	0	786432000	60	4706
2026-01-23 06:15:17.53	110.50	8.83	-44.5	-46.7	14.7	6.01e-01	0	43	0	801112064	60	4685
2026-01-23 06:15:18.54	110.39	8.92	-44.2	-46.4	14.9	6.02e-01	0	43	0	815792128	60	4533
2026-01-23 06:15:19.55	110.28	9.01	-44.3	-46.4	14.9	6.05e-01	0	43	0	832569344	60	4538
2026-01-23 06:15:20.56	110.16	9.10	-44.2	-46.4	15.0	6.01e-01	0	43	0	847249408	60	4506
2026-01-23 06:15:21.57	110.05	9.19	-44.3	-46.5	14.9	6.02e-01	0	43	0	861929472	60	4566
2026-01-23 06:15:22.58	109.93	9.28	-44.0	-46.2	15.2	5.99e-01	0	43	0	878706688	60	4393
2026-01-23 06:15:23.58	109.82	9.37	-44.2	-46.3	15.0	6.02e-01	0	43	0	895483904	60	4467
2026-01-23 06:15:24.59	109.70	9.46	-44.0	-46.1	15.2	6.01e-01	0	43	0	910163968	59	4630
2026-01-23 06:15:25.60	109.58	9.55	-44.1	-46.3	15.1	6.02e-01	0	43	0	924844032	59	4729
2026-01-23 06:15:26.61	109.46	9.65	-44.2	-46.3	15.0	6.02e-01	0	43	0	941621248	59	4731
2026-01-23 06:15:27.62	109.34	9.74	-43.9	-46.0	15.3	6.03e-01	0	43	0	956301312	59	4553
2026-01-23 06:15:28.63	109.22	9.83	-43.8	-45.9	15.4	6.02e-01	0	43	0	970981376	59	4517
2026-01-23 06:15:29.64	109.10	9.93	-43.8	-45.9	15.4	6.02e-01	0	43	0	987758592	59	4503
2026-01-23 06:15:30.65	108.98	10.02	-43.8	-45.8	15.4	6.03e-01	0	43	0	1002438656	59	4482
2026-01-23 06:15:31.66	108.85	10.12	-43.7	-45.6	15.6	6.02e-01	0	43	0	1017118720	59	4384
2026-01-23 06:15:32.67	108.73	10.21	-43.6	-45.6	15.6	6.03e-01	0	43	0	1033895936	59	4370
2026-01-23 06:15:33.67	108.60	10.31	-43.8	-45.8	15.5	6.02e-01	0	43	0	1048576000	59	4463
2026-01-23 06:15:34.68	108.47	10.40	-43.7	-45.6	15.7	6.04e-01	0	43	0	1065353216	59	4360
2026-01-23 06:15:35.69	108.35	10.50	-43.6	-45.5	15.7	6.04e-01	0	43	0	1080033280	59	4322
2026-01-23 06:15:36.70	108.22	10.60	-43.4	-45.3	15.9	6.01e-01	0	43	0	1096810496	58	4465
2026-01-23 06:15:37.71	108.09	10.69	-43.4	-45.3	15.9	6.01e-01	0	43	0	1111490560	58	4466
2026-01-23 06:15:38.72	107.95	10.79	-43.3	-45.2	16.0	5.99e-01	0	43	0	1126170624	58	4405
2026-01-23 06:15:39.73	107.82	10.89	-43.3	-45.2	16.0	6.00e-01	0	43	0	1142947840	58	4414
2026-01-23 06:15:40.73	107.69	10.99	-43.1	-45.0	16.2	5.92e-01	0	44	0	1157627904	58	4327
2026-01-23 06:15:41.74	107.55	11.08	-43.2	-45.0	16.2	5.92e-01	0	44	0	1172307968	58	4333
2026-01-23 06:15:42.75	107.42	11.18	-43.2	-45.0	16.2	5.92e-01	0	43	0	1189085184	58	4324
2026-01-23 06:15:43.76	107.28	11.28	-43.2	-45.1	16.1	5.92e-01	0	43	0	1203765248	58	4346
2026-01-23 06:15:44.77	107.14	11.38	-43.1	-45.0	16.2	5.92e-01	0	43	0	1218445312	58	4340
2026-01-23 06:15:45.77	107.00	11.48	-43.0	-45.0	16.2	5.92e-01	0	43	0	1235222528	58	4295
2026-01-23 06:15:46.78	106.86	11.58	-42.9	-44.8	16.3	5.93e-01	0	43	0	1251999744	57	4474
2026-01-23 06:15:47.79	106.72	11.68	-43.0	-44.9	16.2	5.92e-01	0	44	0	1266679808	57	4535
2026-01-23 06:15:48.80	106.58	11.78	-42.8	-44.8	16.4	5.92e-01	0	43	0	1281359872	57	4469
2026-01-23 06:15:49.81	106.43	11.89	-44.0	-44.9	16.3	5.92e-01	0	43	0	1298137088	58	4263
2026-01-23 06:15:50.81	106.29	11.99	-54.8	-63.7	3.9	7.43e-01	0	43	0	1312817152	64	26234
2026-01-23 06:15:51.82	106.14	12.09	-54.2	-63.1	3.8	7.44e-01	0	43	104	1312817152	79	10391
2026-01-23 06:15:52.83	105.99	12.19	-54.2	-63.1	3.8	7.45e-01	0	44	104	1312817152	79	10317
2026-01-23 06:15:53.84	105.84	12.30	-54.3	-63.1	3.8	7.45e-01	0	44	104	1312817152	79	10342
2026-01-23 06:15:54.85	105.69	12.40	-54.3	-63.1	3.8	7.43e-01	0	44	104	1312817152	79	10365
2026-01-23 06:15:55.85	105.54	12.50	-54.3	-63.1	3.8	7.46e-01	0	43	104	1312817152	79	10345
2026-01-23 06:15:56.87	105.39	12.61	-54.3	-63.1	3.8	7.46e-01	0	43	104	1312817152	79	10408
2026-01-23 06:15:57.87	105.23	12.71	-54.3	-63.1	3.8	7.44e-01	0	43	104	1312817152	79	10396
2026-01-23 06:15:58.88	105.08	12.82	-54.3	-63.1	3.8	7.46e-01	0	44	104	1312817152	79	10380
2026-01-23 06:15:59.89	104.92	12.92	-54.3	-63.1	3.8	7.45e-01	0	44	104	1312817152	79	10407
2026-01-23 06:16:00.90	104.76	13.03	-54.3	-63.1	3.8	7.46e-01	0	43	104	1312817152	79	10398
2026-01-23 06:16:01.91	104.60	13.14	-54.3	-63.1	3.8	7.45e-01	0	44	104	1312817152	79	10361
2026-01-23 06:16:02.92	104.44	13.24	-54.3	-63.1	3.8	7.47e-01	0	44	104	1312817152	79	10392
2026-01-23 06:16:03.93	104.27	13.35	-54.3	-63.1	3.8	7.44e-01	0	43	104	1312817152	79	10391
2026-01-23 06:16:04.93	104.11	13.46	-54.3	-63.1	3.8	7.45e-01	0	44	104	1312817152	79	10387
2026-01-23 06:16:05.94	103.94	13.57	-54.3	-63.1	3.8	7.44e-01	0	44	104	1312817152	79	10402
2026-01-23 06:16:06.95	103.78	13.68	-54.3	-63.1	3.8	7.46e-01	0	43	104	1312817152	79	10370
2026-01-23 06:16:07.96	103.61	13.79	-54.3	-63.1	3.8	7.45e-01	0	44	104	1312817152	79	10380
2026-01-23 06:16:08.97	103.44	13.90	-54.3	-63.1	3.8	7.44e-01	0	43	104	1312817152	79	10394
2026-01-23 06:16:09.98	103.26	14.01	-54.3	-63.2	3.8	7.45e-01	0	43	104	1312817152	79	10490
2026-01-23 06:16:10.99	103.09	14.12	-54.3	-63.1	3.8	7.48e-01	0	44	104	1312817152	79	10385
2026-01-23 06:16:11.99	102.92	14.23	-54.3	-63.1	3.8	7.47e-01	0	43	104	1312817152	79	10408
2026-01-23 06:16:13.00	102.74	14.34	-54.3	-63.1	3.8	7.45e-01	0	43	104	1312817152	79	10411
2026-01-23 06:16:14.01	102.56	14.45	-54.3	-63.2	3.8	7.45e-01	0	43	104	1312817152	79	10422
2026-01-23 06:16:15.02	102.38	14.56	-54.3	-63.2	3.8	7.44e-01	0	43	104	1312817152	79	10416
2026-01-23 06:16:16.03	102.20	14.67	-54.3	-63.1	3.8	7.47e-01	0	44	104	1312817152	79	10408
2026-01-23 06:16:17.04	102.01	14.79	-54.3	-63.2	3.8	7.44e-01	0	43	104	1312817152	79	10424
2026-01-23 06:16:18.05	101.83	14.90	-54.3	-63.2	3.8	7.45e-01	0	44	104	1312817152	79	10424
2026-01-23 06:16:19.06	101.64	15.02	-54.3	-63.2	3.8	7.45e-01	0	43	104	1312817152	79	10413
2026-01-23 06:16:20.07	101.45	15.13	-54.3	-63.2	3.8	7.45e-01	0	43	104	1312817152	79	10461
2026-01-23 06:16:21.07	101.26	15.24	-54.3	-63.2	3.8	7.45e-01	0	44	104	1312817152	79	10445
2026-01-23 06:16:22.08	101.07	15.36	-54.4	-63.2	3.8	7.45e-01	0	44	104	1312817152	79	10442
2026-01-23 06:16:23.09	100.88	15.48	-54.3	-63.2	3.8	7.46e-01	0	43	104	1312817152	79	10439
2026-01-23 06:16:24.10	100.68	15.59	-54.3	-63.2	3.8	7.46e-01	0	44	104	1312817152	79	10456
2026-01-23 06:16:25.11	100.48	15.71	-54.4	-63.2	3.8	7.45e-01	0	44	104	1312817152	79	10456
2026-01-23 06:16:26.11	100.29	15.82	-54.4	-63.2	3.8	7.45e-01	0	44	104	1312817152	79	10523
2026-01-23 06:16:27.12	100.08	15.94	-54.4	-63.2	3.8	7.46e-01	0	44	104	1312817152	79	10436
2026-01-23 06:16:28.13	99.88	16.06	-54.4	-63.2	3.8	7.45e-01	0	44	104	1312817152	79	10464
2026-01-23 06:16:29.14	99.68	16.18	-54.4	-63.2	3.8	7.46e-01	0	44	104	1312817152	79	10434
2026-01-23 06:16:30.15	99.47	16.30	-54.4	-63.2	3.8	7.46e-01	0	44	104	1312817152	79	10516
2026-01-23 06:16:31.16	99.26	16.42	-54.4	-63.2	3.8	7.44e-01	0	44	104	1312817152	79	10428
2026-01-23 06:16:32.17	99.05	16.54	-54.4	-63.2	3.8	7.46e-01	0	44	104	1312817152	79	10474
2026-01-23 06:16:33.17	98.84	16.65	-54.4	-63.2	3.8	7.45e-01	0	44	104	1312817152	79	10467
2026-01-23 06:16:34.18	98.62	16.77	-54.4	-63.2	3.8	7.46e-01	0	44	104	1312817152	79	10494
2026-01-23 06:16:35.19	98.40	16.90	-54.4	-63.2	3.8	7.45e-01	0	44	104	1312817152	79	10511
2026-01-23 06:16:36.20	98.19	17.02	-54.4	-63.2	3.8	7.45e-01	0	44	104	1312817152	79	10527
2026-01-23 06:16:37.21	97.96	17.14	-54.4	-63.2	3.8	7.46e-01	0	44	104	1312817152	79	10474
2026-01-23 06:16:38.22	97.74	17.26	-54.4	-63.2	3.8	7.45e-01	0	44	104	1312817152	79	10505
2026-01-23 06:16:39.23	97.51	17.38	-54.4	-63.2	3.8	7.45e-01	0	44	104	1312817152	79	10501
2026-01-23 06:16:40.23	97.29	17.50	-54.4	-63.2	3.8	7.45e-01	0	44	104	1312817152	79	10504
2026-01-23 06:16:41.24	97.06	17.63	-54.4	-63.2	3.8	7.45e-01	0	44	104	1312817152	79	10497
2026-01-23 06:16:42.25	96.83	17.75	-54.4	-63.2	3.8	7.46e-01	0	44	104	1312817152	79	10501
2026-01-23 06:16:43.26	96.59	17.87	-54.4	-63.2	3.8	7.45e-01	0	44	104	1312817152	79	10479
2026-01-23 06:16:44.27	96.35	18.00	-54.4	-63.2	3.8	7.45e-01	0	44	104	1312817152	79	10502
2026-01-23 06:16:45.27	96.12	18.12	-54.4	-63.2	3.8	7.45e-01	0	44	104	1312817152	79	10511
2026-01-23 06:16:46.28	95.88	18.25	-54.4	-63.2	3.8	7.47e-01	0	44	104	1312817152	79	10525
2026-01-23 06:16:47.29	95.63	18.37	-54.4	-63.2	3.8	7.46e-01	0	44	104	1312817152	79	10512
2026-01-23 06:16:48.30	95.39	18.50	-54.4	-63.3	3.8	7.46e-01	0	44	104	1312817152	79	10546
2026-01-23 06:16:49.31	95.14	18.62	-54.4	-63.3	3.8	7.46e-01	0	44	104	1312817152	79	10546
2026-01-23 06:16:50.32	94.89	18.75	-54.4	-63.2	3.8	7.46e-01	0	43	104	1312817152	79	10508
2026-01-23 06:16:51.33	94.63	18.88	-54.4	-63.3	3.8	7.44e-01	0	44	104	1312817152	79	10538
2026-01-23 06:16:52.33	94.38	19.00	-54.4	-63.2	3.8	7.44e-01	0	43	104	1312817152	79	10518
2026-01-23 06:16:53.34	94.12	19.13	-54.4	-63.3	3.8	7.46e-01	0	44	104	1312817152	79	10537
2026-01-23 06:16:54.35	93.86	19.26	-54.4	-63.3	3.8	7.44e-01	0	44	104	1312817152	79	10550
2026-01-23 06:16:55.36	93.60	19.38	-54.4	-63.3	3.8	7.45e-01	0	44	104	1312817152	79	10543
2026-01-23 06:16:56.37	93.33	19.51	-54.4	-63.3	3.8	7.45e-01	0	44	104	1312817152	79	10544
2026-01-23 06:16:57.37	93.07	19.64	-54.4	-63.2	3.8	7.43e-01	0	43	104	1312817152	79	10498
2026-01-23 06:16:58.38	92.80	19.77	-54.4	-63.3	3.8	7.45e-01	0	44	104	1312817152	79	10575
2026-01-23 06:16:59.39	92.52	19.90	-54.4	-63.2	3.8	7.45e-01	0	44	104	1312817152	79	10518
2026-01-23 06:17:00.40	92.25	20.02	-54.4	-63.2	3.8	7.46e-01	0	44	104	1312817152	79	10531
2026-01-23 06:17:01.41	91.97	20.15	-54.5	-63.3	3.8	7.45e-01	0	44	104	1312817152	79	10563
2026-01-23 06:17:02.41	91.69	20.28	-54.5	-63.3	3.8	7.45e-01	0	44	104	1312817152	79	10567
2026-01-23 06:17:03.42	91.40	20.41	-54.4	-63.3	3.8	7.45e-01	0	44	104	1312817152	79	10559
2026-01-23 06:17:04.43	91.12	20.54	-54.5	-63.3	3.8	7.47e-01	0	44	104	1312817152	79	10560
2026-01-23 06:17:05.44	90.82	20.67	-54.5	-63.3	3.8	7.46e-01	0	44	104	1312817152	79	10568
2026-01-23 06:17:06.45	90.53	20.80	-54.4	-63.3	3.8	7.46e-01	0	44	104	1312817152	79	10550
2026-01-23 06:17:07.45	90.24	20.93	-54.4	-63.3	3.8	7.45e-01	0	44	104	1312817152	79	10565
2026-01-23 06:17:08.46	89.94	21.06	-54.5	-63.3	3.8	7.44e-01	0	44	104	1312817152	79	10565
2026-01-23 06:17:09.47	89.64	21.19	-54.5	-63.3	3.8	7.46e-01	0	44	104	1312817152	79	10571
2026-01-23 06:17:10.48	89.33	21.32	-54.5	-63.3	3.8	7.45e-01	0	44	104	1312817152	79	10552
2026-01-23 06:17:11.49	89.03	21.45	-54.5	-63.3	3.8	7.46e-01	0	44	104	1312817152	79	10561
2026-01-23 06:17:12.49	88.72	21.58	-54.5	-63.3	3.8	7.46e-01	0	44	104	1312817152	79	10619
2026-01-23 06:17:13.50	88.41	21.71	-54.5	-63.3	3.8	7.46e-01	0	44	104	1312817152	79	10557
2026-01-23 06:17:14.51	88.09	21.84	-54.5	-63.3	3.8	7.45e-01	0	44	104	1312817152	79	10551
2026-01-23 06:17:15.52	87.77	21.97	-54.5	-63.3	3.8	7.46e-01	0	44	104	1312817152	79	10562
2026-01-23 06:17:16.53	87.45	22.10	-54.5	-63.3	3.8	7.46e-01	0	44	104	1312817152	79	10572
2026-01-23 06:17:17.54	87.12	22.23	-54.5	-63.3	3.8	7.46e-01	0	44	104	1312817152	79	10607
2026-01-23 06:17:18.54	86.80	22.36	-54.5	-63.3	3.8	7.46e-01	0	44	104	1312817152	79	10594
2026-01-23 06:17:19.55	86.46	22.49	-54.5	-63.3	3.8	7.45e-01	0	44	104	1312817152	79	10594
2026-01-23 06:17:20.56	86.13	22.62	-54.5	-63.3	3.8	7.45e-01	0	44	104	1312817152	79	10592
2026-01-23 06:17:21.57	85.79	22.75	-54.5	-63.3	3.8	7.46e-01	0	44	104	1312817152	79	10604
2026-01-23 06:17:22.58	85.45	22.88	-54.5	-63.3	3.8	7.45e-01	0	44	104	1312817152	79	10628
2026-01-23 06:17:23.59	85.11	23.01	-54.5	-63.3	3.8	7.45e-01	0	44	104	1312817152	79	10625
2026-01-23 06:17:24.59	84.76	23.14	-54.5	-63.3	3.8	7.45e-01	0	44	104	1312817152	79	10641
2026-01-23 06:17:25.60	84.41	23.27	-54.5	-63.3	3.8	7.46e-01	0	44	104	1312817152	79	10617
2026-01-23 06:17:26.61	84.06	23.40	-54.5	-63.3	3.8	7.45e-01	0	44	104	1312817152	79	10639
2026-01-23 06:17:27.62	83.70	23.53	-54.5	-63.3	3.8	7.46e-01	0	44	104	1312817152	79	10655
2026-01-23 06:17:28.63	83.34	23.65	-54.5	-63.3	3.8	7.45e-01	0	44	104	1312817152	79	10645
2026-01-23 06:17:29.64	82.97	23.78	-54.5	-63.3	3.8	7.46e-01	0	44	104	1312817152	79	10625
2026-01-23 06:17:30.65	82.60	23.91	-54.5	-63.4	3.8	7.45e-01	0	44	104	1312817152	79	10673
2026-01-23 06:17:31.66	82.23	24.04	-54.5	-63.4	3.8	7.45e-01	0	44	104	1312817152	79	10718
2026-01-23 06:17:32.67	81.86	24.16	-54.5	-63.3	3.8	7.46e-01	0	44	104	1312817152	79	10650
2026-01-23 06:17:33.67	81.48	24.29	-54.5	-63.4	3.8	7.44e-01	0	44	104	1312817152	79	10711
2026-01-23 06:17:34.68	81.10	24.41	-54.6	-63.4	3.8	7.47e-01	0	44	104	1312817152	79	10713
2026-01-23 06:17:35.69	80.72	24.54	-54.5	-63.4	3.8	7.45e-01	0	44	104	1312817152	79	10686
2026-01-23 06:17:36.70	80.33	24.66	-54.5	-63.4	3.8	7.45e-01	0	44	104	1312817152	79	10678
2026-01-23 06:17:37.71	79.94	24.79	-54.6	-63.4	3.8	7.44e-01	0	44	104	1312817152	79	10668
2026-01-23 06:17:38.72	79.54	24.91	-54.6	-63.4	3.8	7.45e-01	0	44	104	1312817152	79	10722
2026-01-23 06:17:39.73	79.14	25.03	-54.6	-63.4	3.8	7.47e-01	0	44	104	1312817152	79	10732
2026-01-23 06:17:40.73	78.75	25.16	-54.6	-63.4	3.8	7.45e-01	0	44	104	1312817152	79	10664
2026-01-23 06:17:41.74	78.34	25.28	-54.6	-63.4	3.8	7.45e-01	0	44	104	1312817152	79	10705
2026-01-23 06:17:42.75	77.93	25.40	-54.6	-63.4	3.8	7.47e-01	0	44	104	1312817152	79	10729
2026-01-23 06:17:43.76	77.52	25.52	-54.6	-63.4	3.8	7.46e-01	0	44	104	1312817152	79	10725
2026-01-23 06:17:44.77	77.10	25.64	-54.6	-63.4	3.8	7.45e-01	0	44	104	1312817152	79	10700
2026-01-23 06:17:45.78	76.69	25.75	-54.6	-63.4	3.8	7.46e-01	0	44	104	1312817152	79	10738
2026-01-23 06:17:46.78	76.27	25.87	-54.6	-63.4	3.8	7.45e-01	0	44	104	1312817152	79	10755
2026-01-23 06:17:47.79	75.84	25.99	-54.6	-63.4	3.8	7.46e-01	0	44	104	1312817152	79	10738
2026-01-23 06:17:48.80	75.41	26.10	-54.6	-63.4	3.8	7.45e-01	0	44	104	1312817152	79	10729
2026-01-23 06:17:49.81	74.98	26.22	-54.6	-63.4	3.8	7.45e-01	0	44	104	1312817152	79	10764
2026-01-23 06:17:50.82	74.54	26.33	-54.6	-63.4	3.8	7.46e-01	0	44	104	1312817152	79	10763
2026-01-23 06:17:51.83	74.10	26.44	-54.6	-63.4	3.8	7.45e-01	0	44	104	1312817152	79	10770
2026-01-23 06:17:52.83	73.66	26.55	-54.6	-63.4	3.8	7.46e-01	0	44	104	1312817152	79	10743
2026-01-23 06:17:53.84	73.21	26.66	-54.6	-63.5	3.8	7.46e-01	0	44	104	1312817152	79	10784
2026-01-23 06:17:54.85	72.76	26.77	-54.6	-63.5	3.8	7.46e-01	0	44	104	1312817152	79	10805
2026-01-23 06:17:55.86	72.31	26.88	-54.6	-63.5	3.8	7.46e-01	0	44	104	1312817152	79	10779
2026-01-23 06:17:56.87	71.85	26.98	-54.6	-63.5	3.8	7.44e-01	0	44	104	1312817152	79	10807
2026-01-23 06:17:57.88	71.39	27.09	-54.6	-63.4	3.8	7.46e-01	0	44	104	1312817152	79	10760
2026-01-23 06:17:58.88	70.93	27.19	-54.6	-63.5	3.8	7.46e-01	0	44	104	1312817152	79	10818
2026-01-23 06:17:59.89	70.47	27.29	-54.6	-63.5	3.8	7.45e-01	0	44	104	1312817152	79	10802
2026-01-23 06:18:00.90	70.00	27.39	-54.6	-63.4	3.8	7.47e-01	0	44	104	1312817152	79	10765
2026-01-23 06:18:01.91	69.52	27.49	-54.6	-63.5	3.8	7.46e-01	0	44	104	1312817152	79	10802
2026-01-23 06:18:02.92	69.05	27.59	-54.6	-63.5	3.8	7.44e-01	0	44	104	1312817152	79	10793
2026-01-23 06:18:03.92	68.57	27.68	-54.6	-63.5	3.8	7.45e-01	0	44	104	1312817152	79	10785
2026-01-23 06:18:04.93	68.09	27.77	-54.6	-63.4	3.8	7.45e-01	0	44	104	1312817152	79	10742
2026-01-23 06:18:05.94	67.60	27.87	-54.6	-63.4	3.8	7.46e-01	0	44	104	1312817152	79	10760
2026-01-23 06:18:06.95	67.12	27.96	-54.7	-63.5	3.8	7.44e-01	0	44	104	1312817152	79	10797
2026-01-23 06:18:07.96	66.62	28.04	-54.6	-63.4	3.8	7.47e-01	0	44	104	1312817152	79	10765
2026-01-23 06:18:08.96	66.13	28.13	-54.7	-63.5	3.8	7.45e-01	0	44	104	1312817152	79	10794
2026-01-23 06:18:09.97	65.64	28.21	-54.7	-63.5	3.8	7.46e-01	0	44	104	1312817152	79	10836
2026-01-23 06:18:10.98	65.14	28.30	-54.7	-63.5	3.8	7.44e-01	0	44	104	1312817152	79	10806
2026-01-23 06:18:11.99	64.63	28.38	-54.7	-63.5	3.8	7.45e-01	0	44	104	1312817152	79	10801
2026-01-23 06:18:13.00	64.13	28.46	-54.6	-63.4	3.8	7.44e-01	0	44	104	1312817152	79	10768
2026-01-23 06:18:14.00	63.62	28.53	-54.6	-63.5	3.8	7.45e-01	0	44	104	1312817152	79	10801
2026-01-23 06:18:15.01	63.11	28.61	-54.7	-63.5	3.8	7.44e-01	0	44	104	1312817152	79	10826
2026-01-23 06:18:16.02	62.60	28.68	-54.6	-63.5	3.8	7.45e-01	0	44	104	1312817152	79	10800
2026-01-23 06:18:17.03	62.08	28.75	-54.6	-63.5	3.8	7.45e-01	0	44	104	1312817152	79	10816
2026-01-23 06:18:18.03	61.57	28.82	-54.7	-63.5	3.8	7.44e-01	0	44	104	1312817152	79	10800
2026-01-23 06:18:19.04	61.05	28.88	-54.7	-63.5	3.8	7.43e-01	0	44	104	1312817152	79	10818
2026-01-23 06:18:20.05	60.52	28.95	-54.6	-63.5	3.8	7.46e-01	0	44	104	1312817152	79	10797
2026-01-23 06:18:21.05	60.00	29.01	-54.6	-63.5	3.8	7.46e-01	0	44	104	1312817152	79	10794
2026-01-23 06:18:22.06	59.47	29.07	-54.7	-63.5	3.8	7.45e-01	0	44	104	1312817152	79	10858
2026-01-23 06:18:23.07	58.94	29.12	-54.7	-63.5	3.8	7.45e-01	0	44	104	1312817152	79	10820
2026-01-23 06:18:24.08	58.41	29.18	-54.7	-63.5	3.8	7.47e-01	0	44	104	1312817152	79	10805
2026-01-23 06:18:25.08	57.88	29.23	-54.7	-63.5	3.8	7.44e-01	0	44	104	1312817152	79	10789
2026-01-23 06:18:26.09	57.35	29.28	-54.7	-63.5	3.8	7.46e-01	0	44	104	1312817152	79	10819
2026-01-23 06:18:27.10	56.81	29.32	-54.7	-63.5	3.8	7.45e-01	0	44	104	1312817152	79	10819
2026-01-23 06:18:28.11	56.27	29.37	-54.7	-63.5	3.8	7.45e-01	0	44	104	1312817152	79	10804
2026-01-23 06:18:29.12	55.73	29.41	-54.7	-63.5	3.8	7.45e-01	0	44	104	1312817152	79	10799
2026-01-23 06:18:30.12	55.19	29.45	-54.7	-63.5	3.8	7.46e-01	0	44	104	1312817152	79	10820
2026-01-23 06:18:31.13	54.65	29.48	-54.7	-63.5	3.8	7.44e-01	0	44	104	1312817152	79	10831
2026-01-23 06:18:32.14	54.11	29.52	-54.6	-63.5	3.8	7.46e-01	0	44	104	1312817152	79	10801
2026-01-23 06:18:33.15	53.56	29.55	-54.6	-63.5	3.8	7.47e-01	0	44	104	1312817152	79	10818
2026-01-23 06:18:34.16	53.01	29.58	-54.7	-63.5	3.8	7.46e-01	0	44	104	1312817152	79	10781
2026-01-23 06:18:35.17	52.47	29.60	-54.7	-63.5	3.8	7.46e-01	0	44	104	1312817152	79	10818
2026-01-23 06:18:36.17	51.92	29.63	-54.7	-63.5	3.8	7.46e-01	0	44	104	1312817152	79	10821
2026-01-23 06:18:37.18	51.37	29.65	-54.6	-63.5	3.8	7.46e-01	0	44	104	1312817152	79	10805
2026-01-23 06:18:38.19	50.82	29.66	-54.7	-63.5	3.8	7.45e-01	0	44	104	1312817152	79	10856
2026-01-23 06:18:39.20	50.27	29.68	-54.7	-63.5	3.8	7.47e-01	0	44	104	1312817152	79	10819
2026-01-23 06:18:40.20	49.73	29.69	-54.7	-63.5	3.8	7.46e-01	0	44	104	1312817152	79	10816
2026-01-23 06:18:41.21	49.17	29.70	-54.7	-63.5	3.8	7.46e-01	0	44	104	1312817152	79	10828
2026-01-23 06:18:42.22	48.62	29.71	-54.7	-63.5	3.8	7.45e-01	0	44	104	1312817152	79	10820
2026-01-23 06:18:43.23	48.07	29.71	-54.7	-63.5	3.8	7.47e-01	0	44	104	1312817152	79	10806
2026-01-23 06:18:44.24	47.52	29.71	-54.7	-63.5	3.8	7.46e-01	0	44	104	1312817152	79	10817
2026-01-23 06:18:45.25	46.97	29.71	-54.7	-63.5	3.8	7.45e-01	0	44	104	1312817152	79	10789
2026-01-23 06:18:46.25	46.42	29.71	-54.7	-63.5	3.8	7.46e-01	0	44	104	1312817152	79	10842
2026-01-23 06:18:47.26	45.87	29.70	-54.7	-63.5	3.8	7.45e-01	0	44	104	1312817152	79	10785
2026-01-23 06:18:48.27	45.31	29.69	-54.7	-63.5	3.8	7.47e-01	0	44	104	1312817152	79	10838
2026-01-23 06:18:49.28	44.76	29.68	-54.7	-63.5	3.8	7.45e-01	0	44	104	1312817152	79	10798
2026-01-23 06:18:50.29	44.21	29.66	-54.7	-63.5	3.8	7.45e-01	0	44	104	1312817152	79	10863
2026-01-23 06:18:51.29	43.67	29.65	-54.7	-63.5	3.8	7.45e-01	0	44	104	1312817152	79	10822
2026-01-23 06:18:52.30	43.12	29.62	-54.7	-63.5	3.8	7.46e-01	0	44	104	1312817152	79	10805
2026-01-23 06:18:53.31	42.57	29.60	-54.7	-63.4	3.8	7.46e-01	0	44	104	1312817152	79	10778
2026-01-23 06:18:54.32	42.02	29.57	-54.7	-63.5	3.8	7.45e-01	0	44	104	1312817152	79	10814
2026-01-23 06:18:55.33	41.48	29.55	-54.7	-63.5	3.8	7.45e-01	0	44	104	1312817152	79	10822
2026-01-23 06:18:56.33	40.94	29.51	-54.7	-63.5	3.8	7.44e-01	0	44	104	1312817152	79	10833
2026-01-23 06:18:57.34	40.39	29.48	-54.6	-63.5	3.8	7.47e-01	0	44	104	1312817152	79	10779
2026-01-23 06:18:58.35	39.85	29.44	-54.7	-63.5	3.8	7.45e-01	0	44	104	1312817152	79	10834
2026-01-23 06:18:59.36	39.31	29.40	-54.7	-63.5	3.8	7.45e-01	0	44	104	1312817152	79	10838
2026-01-23 06:19:00.37	38.77	29.36	-54.7	-63.4	3.8	7.45e-01	0	44	104	1312817152	79	10772
2026-01-23 06:19:01.38	38.23	29.32	-54.7	-63.5	3.8	7.46e-01	0	44	104	1312817152	79	10810
2026-01-23 06:19:02.38	37.70	29.27	-54.7	-63.5	3.8	7.46e-01	0	44	104	1312817152	79	10818
2026-01-23 06:19:03.39	37.16	29.22	-54.7	-63.5	3.8	7.46e-01	0	44	104	1312817152	79	10808
2026-01-23 06:19:04.40	36.63	29.17	-54.7	-63.5	3.8	7.44e-01	0	44	104	1312817152	79	10805
2026-01-23 06:19:05.41	36.10	29.12	-54.6	-63.5	3.8	7.44e-01	0	44	104	1312817152	79	10786
2026-01-23 06:19:06.41	35.58	29.06	-54.7	-63.5	3.8	7.45e-01	0	44	104	1312817152	79	10845
2026-01-23 06:19:07.42	35.05	29.00	-54.7	-63.5	3.8	7.44e-01	0	44	104	1312817152	79	10818
2026-01-23 06:19:08.43	34.52	28.94	-54.7	-63.5	3.8	7.44e-01	0	44	104	1312817152	79	10830
2026-01-23 06:19:09.44	34.00	28.88	-54.7	-63.5	3.8	7.45e-01	0	44	104	1312817152	79	10818
2026-01-23 06:19:10.45	33.48	28.81	-54.6	-63.5	3.8	7.45e-01	0	44	104	1312817152	79	10823
2026-01-23 06:19:11.45	32.97	28.74	-54.6	-63.5	3.8	7.46e-01	0	44	104	1312817152	79	10800
2026-01-23 06:19:12.46	32.45	28.67	-54.6	-63.5	3.8	7.46e-01	0	44	104	1312817152	79	10782
2026-01-23 06:19:13.47	31.94	28.60	-54.6	-63.4	3.8	7.46e-01	0	44	104	1312817152	79	10758
2026-01-23 06:19:14.48	31.43	28.52	-54.6	-63.5	3.8	7.44e-01	0	44	104	1312817152	79	10786
2026-01-23 06:19:15.48	30.93	28.45	-54.6	-63.5	3.8	7.45e-01	0	44	104	1312817152	79	10813
2026-01-23 06:19:16.49	30.42	28.37	-54.6	-63.5	3.8	7.43e-01	0	44	104	1312817152	79	10803
2026-01-23 06:19:17.50	29.92	28.29	-54.6	-63.4	3.8	7.47e-01	0	44	104	1312817152	79	10766
2026-01-23 06:19:18.51	29.42	28.21	-54.7	-63.5	3.8	7.46e-01	0	44	104	1312817152	79	10812
2026-01-23 06:19:19.51	28.93	28.12	-54.6	-63.5	3.8	7.45e-01	0	44	104	1312817152	79	10781
2026-01-23 06:19:20.52	28.44	28.04	-54.6	-63.5	3.8	7.46e-01	0	44	104	1312817152	79	10798
2026-01-23 06:19:21.53	27.95	27.95	-54.6	-63.5	3.8	7.45e-01	0	44	104	1312817152	79	10782
2026-01-23 06:19:22.54	27.46	27.86	-54.7	-63.5	3.8	7.45e-01	0	44	104	1312817152	79	10823
2026-01-23 06:19:23.55	26.97	27.77	-54.6	-63.4	3.8	7.44e-01	0	44	104	1312817152	79	10735
2026-01-23 06:19:24.55	26.50	27.67	-54.6	-63.4	3.8	7.46e-01	0	44	104	1312817152	79	10752
2026-01-23 06:19:25.56	26.02	27.58	-54.6	-63.4	3.8	7.47e-01	0	44	104	1312817152	79	10760
2026-01-23 06:19:26.57	25.54	27.48	-54.6	-63.4	3.8	7.44e-01	0	44	104	1312817152	79	10773
2026-01-23 06:19:27.58	25.07	27.38	-54.6	-63.4	3.8	7.46e-01	0	44	104	1312817152	79	10776
2026-01-23 06:19:28.59	24.60	27.28	-54.6	-63.5	3.8	7.44e-01	0	44	104	1312817152	79	10789
2026-01-23 06:19:29.59	24.14	27.18	-54.6	-63.4	3.8	7.45e-01	0	44	104	1312817152	79	10721
2026-01-23 06:19:30.60	23.68	27.08	-54.6	-63.4	3.8	7.44e-01	0	44	104	1312817152	79	10756
2026-01-23 06:19:31.61	23.22	26.97	-54.6	-63.4	3.8	7.45e-01	0	44	104	1312817152	79	10750
2026-01-23 06:19:32.62	22.77	26.87	-54.6	-63.5	3.8	7.44e-01	0	44	104	1312817152	79	10787
2026-01-23 06:19:33.63	22.31	26.76	-54.6	-63.4	3.8	7.45e-01	0	44	104	1312817152	79	10751
2026-01-23 06:19:34.63	21.87	26.65	-54.6	-63.4	3.8	7.45e-01	0	44	104	1312817152	79	10760
2026-01-23 06:19:35.64	21.42	26.55	-54.6	-63.5	3.8	7.44e-01	0	44	104	1312817152	79	10784
2026-01-23 06:19:36.65	20.98	26.43	-54.6	-63.4	3.8	7.45e-01	0	44	104	1312817152	79	10739
2026-01-23 06:19:37.66	20.54	26.32	-54.6	-63.5	3.8	7.46e-01	0	44	104	1312817152	79	10780
2026-01-23 06:19:38.66	20.11	26.21	-54.6	-63.4	3.8	7.45e-01	0	44	104	1312817152	79	10737
2026-01-23 06:19:39.67	19.68	26.10	-54.6	-63.4	3.8	7.45e-01	0	44	104	1312817152	79	10775
2026-01-23 06:19:40.68	19.25	25.98	-54.6	-63.4	3.8	7.47e-01	0	44	104	1312817152	79	10690
2026-01-23 06:19:41.69	18.83	25.87	-54.6	-63.4	3.8	7.46e-01	0	44	104	1312817152	79	10764
2026-01-23 06:19:42.69	18.41	25.75	-54.6	-63.4	3.8	7.44e-01	0	44	104	1312817152	79	10717
2026-01-23 06:19:43.70	17.99	25.63	-54.6	-63.4	3.8	7.44e-01	0	44	104	1312817152	79	10707
2026-01-23 06:19:44.71	17.58	25.51	-54.6	-63.4	3.8	7.46e-01	0	44	104	1312817152	79	10722
2026-01-23 06:19:45.72	17.17	25.39	-54.6	-63.4	3.8	7.44e-01	0	44	104	1312817152	79	10766
2026-01-23 06:19:46.73	16.76	25.27	-54.6	-63.4	3.8	7.45e-01	0	44	104	1312817152	79	10740
2026-01-23 06:19:47.73	16.36	25.15	-54.6	-63.4	3.8	7.47e-01	0	44	104	1312817152	79	10708
2026-01-23 06:19:48.74	15.96	25.03	-54.6	-63.4	3.8	7.44e-01	0	44	104	1312817152	79	10719
2026-01-23 06:19:49.75	15.56	24.91	-54.6	-63.4	3.8	7.45e-01	0	44	104	1312817152	79	10690
2026-01-23 06:19:50.76	15.17	24.79	-54.6	-63.4	3.8	7.44e-01	0	44	104	1312817152	79	10716
2026-01-23 06:19:51.77	14.78	24.66	-54.6	-63.4	3.8	7.46e-01	0	44	104	1312817152	79	10696
2026-01-23 06:19:52.77	14.40	24.54	-54.6	-63.4	3.8	7.45e-01	0	44	104	1312817152	79	10714
2026-01-23 06:19:53.78	14.01	24.42	-54.6	-63.4	3.8	7.46e-01	0	44	104	1312817152	79	10712
2026-01-23 06:19:54.79	13.63	24.29	-54.6	-63.4	3.8	7.46e-01	0	44	104	1312817152	79	10716
2026-01-23 06:19:55.80	13.26	24.16	-54.6	-63.4	3.8	7.45e-01	0	44	104	1312817152	79	10678
2026-01-23 06:19:56.80	12.89	24.04	-54.6	-63.4	3.8	7.45e-01	0	44	104	1312817152	79	10705
2026-01-23 06:19:57.81	12.52	23.91	-54.6	-63.4	3.8	7.46e-01	0	44	104	1312817152	79	10707
2026-01-23 06:19:58.82	12.15	23.78	-54.6	-63.4	3.8	7.45e-01	0	44	104	1312817152	79	10714
2026-01-23 06:19:59.83	11.79	23.66	-54.5	-63.4	3.8	7.45e-01	0	44	104	1312817152	79	10683
2026-01-23 06:20:00.84	11.43	23.53	-54.5	-63.4	3.8	7.46e-01	0	44	104	1312817152	79	10699
2026-01-23 06:20:01.84	11.08	23.40	-54.5	-63.4	3.8	7.46e-01	0	44	104	1312817152	79	10657
2026-01-23 06:20:02.85	10.72	23.27	-54.5	-63.4	3.8	7.44e-01	0	44	104	1312817152	79	10708
2026-01-23 06:20:03.86	10.37	23.15	-54.5	-63.3	3.8	7.44e-01	0	44	104	1312817152	79	10618
2026-01-23 06:20:04.87	10.03	23.02	-54.5	-63.3	3.8	7.43e-01	0	44	104	1312817152	79	10640
2026-01-23 06:20:05.88	9.68	22.89	-54.5	-63.3	3.8	7.46e-01	0	44	104	1312817152	79	10655
2026-01-23 06:20:06.89	9.34	22.76	-54.5	-63.3	3.8	7.45e-01	0	44	104	1312817152	79	10636
2026-01-23 06:20:07.89	9.01	22.63	-54.5	-63.3	3.8	7.45e-01	0	44	104	1312817152	79	10643
2026-01-23 06:20:08.90	8.68	22.50	-54.5	-63.3	3.8	7.45e-01	0	44	104	1312817152	79	10644
2026-01-23 06:20:09.91	8.35	22.37	-54.5	-63.4	3.8	7.45e-01	0	44	104	1312817152	79	10659
2026-01-23 06:20:10.92	8.02	22.24	-54.5	-63.3	3.8	7.44e-01	0	44	104	1312817152	79	10647
2026-01-23 06:20:11.93	7.69	22.11	-54.5	-63.3	3.8	7.44e-01	0	44	104	1312817152	79	10595
2026-01-23 06:20:12.93	7.38	21.98	-54.5	-63.3	3.8	7.45e-01	0	44	104	1312817152	79	10615
2026-01-23 06:20:13.94	7.06	21.85	-54.5	-63.3	3.8	7.47e-01	0	44	104	1312817152	79	10638
2026-01-23 06:20:14.95	6.74	21.72	-54.5	-63.3	3.8	7.45e-01	0	44	104	1312817152	79	10590
2026-01-23 06:20:15.95	6.43	21.59	-54.5	-63.3	3.8	7.44e-01	0	44	104	1312817152	79	10612
2026-01-23 06:20:16.96	6.12	21.46	-54.5	-63.3	3.8	7.45e-01	0	44	104	1312817152	79	10622
2026-01-23 06:20:17.97	5.82	21.33	-54.5	-63.3	3.8	7.43e-01	0	44	104	1312817152	79	10612
2026-01-23 06:20:18.98	5.51	21.20	-54.5	-63.3	3.8	7.44e-01	0	44	104	1312817152	79	10582
2026-01-23 06:20:19.98	5.22	21.07	-54.5	-63.3	3.8	7.44e-01	0	44	104	1312817152	79	10600
2026-01-23 06:20:20.99	4.92	20.95	-54.5	-63.3	3.8	7.44e-01	0	44	104	1312817152	79	10566
2026-01-23 06:20:22.00	4.62	20.82	-54.5	-63.3	3.8	7.46e-01	0	44	104	1312817152	79	10618
2026-01-23 06:20:23.01	4.33	20.69	-54.4	-63.3	3.8	7.45e-01	0	44	104	1312817152	79	10619
2026-01-23 06:20:24.01	4.05	20.56	-54.5	-63.3	3.8	7.44e-01	0	44	104	1312817152	79	10602
2026-01-23 06:20:25.02	3.76	20.43	-54.4	-63.2	3.8	7.45e-01	0	44	104	1312817152	79	10530
2026-01-23 06:20:26.03	3.48	20.30	-54.5	-63.3	3.8	7.45e-01	0	44	104	1312817152	79	10594
2026-01-23 06:20:27.04	3.20	20.17	-54.4	-63.3	3.8	7.44e-01	0	44	104	1312817152	79	10572
2026-01-23 06:20:28.04	2.92	20.04	-54.5	-63.3	3.8	7.46e-01	0	44	104	1312817152	79	10577
2026-01-23 06:20:29.05	2.65	19.92	-54.4	-63.3	3.8	7.45e-01	0	44	104	1312817152	79	10563
2026-01-23 06:20:30.06	2.37	19.79	-54.5	-63.3	3.8	7.46e-01	0	44	104	1312817152	79	10575
2026-01-23 06:20:31.07	2.10	19.66	-54.4	-63.3	3.8	7.43e-01	0	44	104	1312817152	79	10535
2026-01-23 06:20:32.08	1.84	19.53	-54.4	-63.2	3.8	7.45e-01	0	44	104	1312817152	79	10524
2026-01-23 06:20:33.09	1.57	19.40	-54.4	-63.2	3.8	7.45e-01	0	44	104	1312817152	79	10527
2026-01-23 06:20:34.09	1.31	19.28	-54.4	-63.2	3.8	7.45e-01	0	44	104	1312817152	79	10528
2026-01-23 06:20:35.10	1.05	19.15	-54.4	-63.3	3.8	7.46e-01	0	44	104	1312817152	79	10535
2026-01-23 06:20:36.11	0.80	19.03	-54.4	-63.2	3.8	7.48e-01	0	44	104	1312817152	79	10524
2026-01-23 06:20:37.12	0.54	18.90	-54.4	-63.3	3.8	7.46e-01	0	44	104	1312817152	79	10568
2026-01-23 06:20:38.12	0.29	18.77	-54.4	-63.2	3.8	7.45e-01	0	44	104	1312817152	79	10512
2026-01-23 06:20:39.13	0.04	18.65	-54.4	-63.2	3.8	7.46e-01	0	44	104	1312817152	79	10467
2026-01-23 06:20:40.14	359.79	18.52	-54.4	-63.2	3.8	7.44e-01	0	44	104	1312817152	79	10460
2026-01-23 06:20:41.15	359.55	18.40	-54.4	-63.2	3.8	7.46e-01	0	44	104	1312817152	79	10492
2026-01-23 06:20:42.16	359.31	18.27	-54.4	-63.2	3.8	7.45e-01	0	44	104	1312817152	79	10487
2026-01-23 06:20:43.16	359.07	18.15	-54.4	-63.2	3.8	7.46e-01	0	44	104	1312817152	79	10466
2026-01-23 06:20:44.17	358.83	18.03	-54.4	-63.2	3.8	7.45e-01	0	44	104	1312817152	79	10482
2026-01-23 06:20:45.18	358.59	17.90	-54.4	-63.2	3.8	7.46e-01	0	44	104	1312817152	79	10478
2026-01-23 06:20:46.19	358.36	17.78	-54.4	-63.2	3.8	7.45e-01	0	44	104	1312817152	79	10485
2026-01-23 06:20:47.20	358.13	17.66	-54.3	-63.2	3.8	7.45e-01	0	44	104	1312817152	79	10422
2026-01-23 06:20:48.20	357.90	17.54	-54.4	-63.2	3.8	7.46e-01	0	44	104	1312817152	79	10459
2026-01-23 06:20:49.21	357.68	17.41	-54.3	-63.1	3.8	7.45e-01	0	44	104	1312817152	79	10362
2026-01-23 06:20:50.22	357.45	17.29	-54.4	-63.2	3.8	7.46e-01	0	44	104	1312817152	79	10439
2026-01-23 06:20:51.23	357.23	17.17	-54.3	-63.2	3.8	7.45e-01	0	44	104	1312817152	79	10432
2026-01-23 06:20:52.24	357.01	17.05	-54.3	-63.1	3.8	7.45e-01	0	44	104	1312817152	79	10407
2026-01-23 06:20:53.24	356.79	16.93	-54.3	-63.1	3.8	7.46e-01	0	44	104	1312817152	79	10389
2026-01-23 06:20:54.25	356.57	16.81	-54.3	-63.2	3.8	7.47e-01	0	44	104	1312817152	79	10438
2026-01-23 06:20:55.26	356.36	16.69	-54.3	-63.1	3.8	7.46e-01	0	44	104	1312817152	79	10382
2026-01-23 06:20:56.27	356.15	16.57	-54.3	-63.2	3.8	7.45e-01	0	44	104	1312817152	79	10432
2026-01-23 06:20:57.27	355.94	16.45	-54.3	-63.1	3.8	7.45e-01	0	44	104	1312817152	79	10389
2026-01-23 06:20:58.29	355.73	16.33	-54.3	-63.1	3.8	7.45e-01	0	44	104	1312817152	79	10390
2026-01-23 06:20:59.29	355.53	16.21	-54.3	-63.1	3.8	7.45e-01	0	44	104	1312817152	79	10394
2026-01-23 06:21:00.30	355.32	16.10	-54.3	-63.1	3.8	7.46e-01	0	44	104	1312817152	79	10381
2026-01-23 06:21:01.31	355.12	15.98	-54.3	-63.1	3.8	7.45e-01	0	44	104	1312817152	79	10389
2026-01-23 06:21:02.32	354.92	15.86	-54.3	-63.1	3.8	7.47e-01	0	44	104	1312817152	79	10377
2026-01-23 06:21:03.32	354.72	15.75	-54.3	-63.1	3.8	7.44e-01	0	44	104	1312817152	79	10339
2026-01-23 06:21:04.33	354.52	15.63	-54.3	-63.1	3.8	7.45e-01	0	44	104	1312817152	79	10363
2026-01-23 06:21:05.34	354.33	15.52	-54.3	-63.1	3.8	7.44e-01	0	44	104	1312817152	79	10325
2026-01-23 06:21:06.35	354.14	15.40	-54.3	-63.0	3.8	7.44e-01	0	44	104	1312817152	79	10293
2026-01-23 06:21:07.36	353.94	15.28	-54.3	-63.1	3.8	7.45e-01	0	44	104	1312817152	79	10308
2026-01-23 06:21:08.36	353.76	15.17	-54.2	-63.1	3.8	7.45e-01	0	44	104	1312817152	79	10333
2026-01-23 06:21:09.37	353.57	15.06	-54.3	-63.1	3.8	7.45e-01	0	44	104	1312817152	79	10322
2026-01-23 06:21:10.38	353.38	14.94	-54.2	-63.1	3.8	7.44e-01	0	44	104	1312817152	79	10325
2026-01-23 06:21:11.39	353.20	14.83	-54.2	-63.0	3.8	7.47e-01	0	44	104	1312817152	79	10271
2026-01-23 06:21:12.40	353.01	14.72	-54.2	-63.1	3.8	7.45e-01	0	44	104	1312817152	79	10321
2026-01-23 06:21:13.40	352.84	14.61	-54.2	-63.0	3.8	7.45e-01	0	44	104	1312817152	79	10292
2026-01-23 06:21:14.41	352.66	14.49	-54.2	-63.0	3.8	7.45e-01	0	44	104	1312817152	79	10271
2026-01-23 06:21:15.42	352.48	14.38	-54.2	-63.0	3.8	7.47e-01	0	44	104	1312817152	79	10254
2026-01-23 06:21:16.43	352.30	14.27	-54.2	-63.0	3.8	7.45e-01	0	44	104	1312817152	79	10252
2026-01-23 06:21:17.44	352.13	14.16	-54.2	-63.0	3.8	7.45e-01	0	44	104	1312817152	79	10280
2026-01-23 06:21:18.45	351.95	14.05	-54.2	-63.0	3.8	7.46e-01	0	44	104	1312817152	79	10221
2026-01-23 06:21:19.45	351.78	13.94	-54.2	-63.0	3.8	7.45e-01	0	44	104	1312817152	79	10188
2026-01-23 06:21:20.46	351.61	13.83	-54.2	-63.0	3.8	7.46e-01	0	44	104	1312817152	79	10234
2026-01-23 06:21:21.47	351.45	13.72	-54.2	-63.0	3.8	7.46e-01	0	44	104	1312817152	79	10222
2026-01-23 06:21:22.48	351.28	13.62	-54.2	-63.0	3.8	7.45e-01	0	44	104	1312817152	79	10220
2026-01-23 06:21:23.48	351.11	13.51	-54.1	-63.0	3.8	7.44e-01	0	44	104	1312817152	79	10208
2026-01-23 06:21:24.49	350.95	13.40	-54.1	-63.0	3.8	7.46e-01	0	44	104	1312817152	79	10208
2026-01-23 06:21:25.50	350.79	13.29	-54.2	-63.0	3.8	7.45e-01	0	44	104	1312817152	79	10207
2026-01-23 06:21:26.51	350.63	13.19	-54.1	-63.0	3.8	7.48e-01	0	44	104	1312817152	79	10176
2026-01-23 06:21:27.52	350.47	13.08	-54.1	-62.9	3.8	7.43e-01	0	44	104	1312817152	79	10169
2026-01-23 06:21:28.53	350.31	12.97	-54.1	-62.9	3.8	7.46e-01	0	44	104	1312817152	79	10146
2026-01-23 06:21:29.54	350.15	12.87	-54.1	-62.9	3.8	7.46e-01	0	44	104	1312817152	79	10147
2026-01-23 06:21:30.55	350.00	12.76	-54.1	-62.9	3.8	7.45e-01	0	44	104	1312817152	79	10134
2026-01-23 06:21:31.56	349.84	12.66	-54.1	-62.9	3.8	7.44e-01	0	44	104	1312817152	79	10130
2026-01-23 06:21:32.57	349.69	12.56	-54.1	-62.9	3.8	7.46e-01	0	44	104	1312817152	79	10160
2026-01-23 06:21:33.57	349.54	12.45	-54.1	-62.9	3.8	7.44e-01	0	44	104	1312817152	79	10158
2026-01-23 06:21:34.58	349.39	12.35	-54.1	-62.9	3.8	7.46e-01	0	44	104	1312817152	79	10105
2026-01-23 06:21:35.59	349.24	12.25	-54.1	-62.9	3.8	7.45e-01	0	44	104	1312817152	79	10082
2026-01-23 06:21:36.60	349.09	12.14	-54.1	-62.9	3.8	7.46e-01	0	44	104	1312817152	79	10120
2026-01-23 06:21:37.61	348.95	12.04	-54.1	-62.9	3.8	7.45e-01	0	44	104	1312817152	79	10113
2026-01-23 06:21:38.62	348.80	11.94	-54.0	-62.9	3.8	7.46e-01	0	44	104	1312817152	79	10090
2026-01-23 06:21:39.63	348.66	11.84	-54.0	-62.8	3.8	7.46e-01	0	44	104	1312817152	79	10055
2026-01-23 06:21:40.63	348.52	11.74	-54.0	-62.9	3.8	7.45e-01	0	44	104	1312817152	79	10091
2026-01-23 06:21:41.64	348.38	11.64	-54.1	-62.9	3.8	7.44e-01	0	44	104	1312817152	79	10090
2026-01-23 06:21:42.65	348.23	11.54	-54.0	-62.8	3.8	7.45e-01	0	44	104	1312817152	79	10006
2026-01-23 06:21:43.66	348.10	11.44	-54.0	-62.8	3.8	7.47e-01	0	44	104	1312817152	79	10014
2026-01-23 06:21:44.67	347.96	11.34	-54.0	-62.9	3.8	7.46e-01	0	44	104	1312817152	79	10060
2026-01-23 06:21:45.67	347.82	11.24	-54.0	-62.8	3.8	7.43e-01	0	44	104	1312817152	79	10042
2026-01-23 06:21:46.68	347.69	11.14	-54.0	-62.8	3.8	7.46e-01	0	44	104	1312817152	79	9996
2026-01-23 06:21:47.69	347.55	11.04	-54.0	-62.8	3.8	7.45e-01	0	44	104	1312817152	79	10002
2026-01-23 06:21:48.70	347.42	10.94	-54.0	-62.8	3.8	7.46e-01	0	44	104	1312817152	79	10006
2026-01-23 06:21:49.70	347.29	10.85	-54.0	-62.8	3.8	7.46e-01	0	44	104	1312817152	79	10032
2026-01-23 06:21:50.71	347.16	10.75	-53.9	-62.8	3.8	7.43e-01	0	44	104	1312817152	79	9998
2026-01-23 06:21:51.72	347.03	10.65	-53.9	-62.8	3.8	7.45e-01	0	44	104	1312817152	79	9957
2026-01-23 06:21:52.73	346.90	10.56	-54.0	-62.8	3.8	7.44e-01	0	44	104	1312817152	79	9968
2026-01-23 06:21:53.74	346.77	10.46	-54.0	-62.8	3.8	7.44e-01	0	44	104	1312817152	79	9982
2026-01-23 06:21:54.74	346.65	10.37	-53.9	-62.7	3.8	7.45e-01	0	44	104	1312817152	79	9928
2026-01-23 06:21:55.75	346.52	10.27	-53.9	-62.7	3.8	7.46e-01	0	44	104	1312817152	79	9921
2026-01-23 06:21:56.76	346.40	10.18	-53.9	-62.7	3.8	7.45e-01	0	44	104	1312817152	79	9923
2026-01-23 06:21:57.77	346.27	10.08	-54.0	-62.8	3.8	7.46e-01	0	44	104	1312817152	79	9974
2026-01-23 06:21:58.78	346.15	9.99	-53.9	-62.7	3.8	7.45e-01	0	44	104	1312817152	79	9881
2026-01-23 06:21:59.78	346.03	9.90	-53.9	-62.7	3.8	7.47e-01	0	44	104	1312817152	79	9847
2026-01-23 06:22:00.79	345.91	9.80	-53.9	-62.7	3.8	7.44e-01	0	44	104	1312817152	79	9898
2026-01-23 06:22:01.80	345.79	9.71	-53.9	-62.8	3.8	7.47e-01	0	44	104	1312817152	79	9956
2026-01-23 06:22:02.81	345.67	9.62	-53.8	-62.6	3.8	7.44e-01	0	44	104	1312817152	79	9806
2026-01-23 06:22:03.82	345.55	9.53	-53.8	-62.7	3.8	7.44e-01	0	44	104	1312817152	79	9850
2026-01-23 06:22:04.83	345.43	9.43	-53.9	-62.7	3.8	7.48e-01	0	44	104	1312817152	79	9897
2026-01-23 06:22:05.84	345.32	9.34	-53.9	-62.7	3.8	7.46e-01	0	44	104	1312817152	79	9899
2026-01-23 06:22:06.85	345.20	9.25	-53.8	-62.6	3.8	7.43e-01	0	44	104	1312817152	79	9795
2026-01-23 06:22:07.86	345.09	9.16	-53.8	-62.6	3.8	7.44e-01	0	44	104	1312817152	79	9770
2026-01-23 06:22:08.86	344.98	9.07	-53.8	-62.6	3.8	7.46e-01	0	44	104	1312817152	79	9814
2026-01-23 06:22:09.87	344.87	8.98	-53.8	-62.7	3.8	7.46e-01	0	44	104	1312817152	79	9838
2026-01-23 06:22:10.88	344.75	8.89	-53.7	-62.6	3.8	7.43e-01	0	44	104	1312817152	79	9754
2026-01-23 06:22:11.89	344.64	8.80	-53.8	-62.6	3.8	7.45e-01	0	44	104	1312817152	79	9737
2026-01-23 06:22:12.90	344.53	8.71	-53.8	-62.6	3.8	7.46e-01	0	44	104	1312817152	79	9804
2026-01-23 06:22:13.91	344.43	8.62	-53.8	-62.6	3.8	7.45e-01	0	44	104	1312817152	79	9779
2026-01-23 06:22:14.92	344.32	8.53	-53.7	-62.5	3.8	7.46e-01	0	44	104	1312817152	79	9710
2026-01-23 06:22:15.92	344.21	8.45	-53.7	-62.5	3.8	7.44e-01	0	44	104	1312817152	79	9711
2026-01-23 06:22:16.93	344.11	8.36	-53.8	-62.6	3.8	7.45e-01	0	44	104	1312817152	79	9756
2026-01-23 06:22:17.94	344.00	8.27	-53.8	-62.6	3.8	7.45e-01	0	44	104	1312817152	79	9745
2026-01-23 06:22:18.95	343.90	8.19	-53.7	-62.5	3.8	7.44e-01	0	44	104	1312817152	79	9659
2026-01-23 06:22:19.96	343.79	8.10	-53.7	-62.5	3.8	7.45e-01	0	44	104	1312817152	79	9667
2026-01-23 06:22:20.97	343.69	8.01	-53.7	-62.5	3.8	7.45e-01	0	44	104	1312817152	79	9701
2026-01-23 06:22:21.97	343.59	7.93	-53.7	-62.6	3.8	7.45e-01	0	44	104	1312817152	79	9723
2026-01-23 06:22:22.98	343.49	7.84	-53.6	-62.5	3.8	7.45e-01	0	44	104	1312817152	79	9620
2026-01-23 06:22:23.99	343.38	7.76	-53.6	-62.5	3.8	7.45e-01	0	44	104	1312817152	79	9634
2026-01-23 06:22:25.00	343.28	7.67	-53.7	-62.5	3.8	7.44e-01	0	44	104	1312817152	79	9661
2026-01-23 06:22:26.01	343.19	7.59	-53.7	-62.5	3.8	7.45e-01	0	44	104	1312817152	79	9714
2026-01-23 06:22:27.01	343.09	7.50	-53.6	-62.4	3.8	7.46e-01	0	44	104	1312817152	79	9546
2026-01-23 06:22:28.02	342.99	7.42	-53.6	-62.4	3.8	7.45e-01	0	44	104	1312817152	79	9564
2026-01-23 06:22:29.03	342.89	7.33	-53.7	-62.5	3.8	7.45e-01	0	44	104	1312817152	79	9662
2026-01-23 06:22:30.04	342.80	7.25	-53.7	-62.5	3.8	7.43e-01	0	44	104	1312817152	79	9626
2026-01-23 06:22:31.05	342.70	7.17	-53.5	-62.4	3.8	7.47e-01	0	44	104	1312817152	79	9534
2026-01-23 06:22:32.06	342.61	7.08	-53.5	-62.4	3.8	7.47e-01	0	44	104	1312817152	79	9526
2026-01-23 06:22:33.07	342.51	7.00	-53.6	-62.5	3.8	7.45e-01	0	44	104	1312817152	79	9623
2026-01-23 06:22:34.08	342.42	6.92	-53.6	-62.4	3.8	7.46e-01	0	44	104	1312817152	79	9602
2026-01-23 06:22:35.08	342.33	6.84	-53.5	-62.3	3.8	7.45e-01	0	44	104	1312817152	79	9460
2026-01-23 06:22:36.09	342.24	6.75	-53.5	-62.3	3.8	7.46e-01	0	44	104	1312817152	79	9478
2026-01-23 06:22:37.10	342.14	6.67	-53.6	-62.4	3.8	7.45e-01	0	44	104	1312817152	79	9582
2026-01-23 06:22:38.11	342.05	6.59	-53.6	-62.4	3.8	7.45e-01	0	44	104	1312817152	79	9535
2026-01-23 06:22:39.12	341.96	6.51	-53.4	-62.2	3.8	7.46e-01	0	44	104	1312817152	78	9920
2026-01-23 06:22:40.12	341.88	6.43	-53.4	-62.2	3.8	7.46e-01	0	44	104	1312817152	78	9930
2026-01-23 06:22:41.13	341.79	6.35	-53.5	-62.3	3.8	7.44e-01	0	44	104	1312817152	78	10058
2026-01-23 06:22:42.14	341.70	6.27	-53.5	-62.4	3.8	7.46e-01	0	44	104	1312817152	78	10067
2026-01-23 06:22:43.15	341.61	6.19	-53.4	-62.2	3.8	7.45e-01	0	44	104	1312817152	78	9900
2026-01-23 06:22:44.16	341.52	6.11	-53.4	-62.2	3.8	7.46e-01	0	44	104	1312817152	78	9900
2026-01-23 06:22:45.16	341.44	6.03	-53.5	-62.3	3.8	7.45e-01	0	44	104	1312817152	78	10020
2026-01-23 06:22:46.17	341.35	5.95	-53.5	-62.3	3.8	7.44e-01	0	44	104	1312817152	78	10003
2026-01-23 06:22:47.18	341.27	5.87	-53.3	-62.2	3.8	7.45e-01	0	44	104	1312817152	78	9833
2026-01-23 06:22:48.19	341.18	5.80	-53.3	-62.2	3.8	7.46e-01	0	44	104	1312817152	78	9839
2026-01-23 06:22:49.20	341.10	5.72	-53.4	-62.3	3.8	7.46e-01	0	44	104	1312817152	78	9961
2026-01-23 06:22:50.20	341.02	5.64	-53.4	-62.3	3.8	7.45e-01	0	44	104	1312817152	78	9952
2026-01-23 06:22:51.21	340.94	5.56	-53.3	-62.1	3.8	7.45e-01	0	44	104	1312817152	78	9788
2026-01-23 06:22:52.22	340.85	5.48	-53.3	-62.1	3.8	7.46e-01	0	44	104	1312817152	78	9820
2026-01-23 06:22:53.23	340.77	5.41	-53.4	-62.2	3.8	7.44e-01	0	44	104	1312817152	78	9879
2026-01-23 06:22:54.24	340.69	5.33	-53.4	-62.2	3.8	7.46e-01	0	44	104	1312817152	78	9859
2026-01-23 06:22:55.24	340.61	5.25	-53.2	-62.0	3.8	7.46e-01	0	44	104	1312817152	78	9701
2026-01-23 06:22:56.25	340.53	5.18	-53.2	-62.1	3.8	7.44e-01	0	44	104	1312817152	78	9745
2026-01-23 06:22:57.26	340.45	5.10	-53.3	-62.1	3.8	7.46e-01	0	44	104	1312817152	78	9808
2026-01-23 06:22:58.27	340.37	5.03	-53.3	-62.2	3.8	7.45e-01	0	44	104	1312817152	78	9859
2026-01-23 06:22:59.28	340.30	4.95	-53.7	-62.5	3.8	7.45e-01	0	44	104	1312817152	78	10279
2026-01-23 06:23:00.29	340.22	4.87	-54.0	-62.9	3.8	7.45e-01	0	44	104	1312817152	78	10694
2026-01-23 06:23:01.29	340.14	4.80	-54.2	-63.1	3.8	7.46e-01	0	44	104	1312817152	79	10315
2026-01-23 06:23:02.30	340.07	4.73	-54.4	-63.2	3.8	7.45e-01	0	44	104	1312817152	79	10513
2026-01-23 06:23:03.31	339.99	4.65	-54.5	-63.3	3.8	7.45e-01	0	44	104	1312817152	79	10615
2026-01-23 06:23:04.32	339.91	4.58	-54.6	-63.4	3.8	7.46e-01	0	44	104	1312817152	79	10763
2026-01-23 06:23:05.33	339.84	4.50	-54.7	-63.5	3.8	7.45e-01	0	44	104	1312817152	79	10858
2026-01-23 06:23:06.34	339.76	4.43	-54.7	-63.5	3.8	7.45e-01	0	44	104	1312817152	80	10224
2026-01-23 06:23:07.35	339.69	4.35	-54.7	-63.5	3.8	7.46e-01	0	44	104	1312817152	80	10236
2026-01-23 06:23:08.35	339.62	4.28	-54.7	-63.5	3.8	7.46e-01	0	44	104	1312817152	80	10215
2026-01-23 06:23:09.36	339.55	4.21	-54.6	-63.5	3.8	7.45e-01	0	44	104	1312817152	80	10206
2026-01-23 06:23:10.37	339.47	4.13	-54.6	-63.4	3.8	7.44e-01	0	44	104	1312817152	80	10152
2026-01-23 06:23:11.38	339.40	4.06	-54.5	-63.4	3.8	7.46e-01	0	44	104	1312817152	80	10092
2026-01-23 06:23:12.38	339.33	3.99	-54.4	-63.3	3.8	7.45e-01	0	44	104	1312817152	80	9947
2026-01-23 06:23:13.39	339.26	3.92	-54.4	-63.2	3.8	7.45e-01	0	44	104	1312817152	80	9931
2026-01-23 06:23:14.40	339.19	3.84	-54.4	-63.2	3.8	7.45e-01	0	44	104	1312817152	80	9933
2026-01-23 06:23:15.41	339.12	3.77	-54.5	-63.3	3.8	7.46e-01	0	44	104	1312817152	80	9967
2026-01-23 06:23:16.41	339.05	3.70	-54.5	-63.3	3.8	7.45e-01	0	44	104	1312817152	80	10025
2026-01-23 06:23:17.42	338.98	3.63	-54.5	-63.4	3.8	7.45e-01	0	44	104	1312817152	80	10075
2026-01-23 06:23:18.43	338.91	3.56	-54.5	-63.3	3.8	7.45e-01	0	44	104	1312817152	80	10049
2026-01-23 06:23:19.44	338.84	3.49	-54.5	-63.4	3.8	7.45e-01	0	44	104	1312817152	80	10062
2026-01-23 06:23:20.45	338.78	3.42	-54.5	-63.3	3.8	7.43e-01	0	44	104	1312817152	80	10026
2026-01-23 06:23:21.45	338.71	3.35	-54.5	-63.3	3.8	7.46e-01	0	44	104	1312817152	80	10008
2026-01-23 06:23:22.46	338.64	3.28	-54.5	-63.3	3.8	7.44e-01	0	44	104	1312817152	80	9998
2026-01-23 06:23:23.47	338.58	3.21	-54.5	-63.3	3.8	7.45e-01	0	44	104	1312817152	80	9993
2026-01-23 06:23:24.48	338.51	3.14	-54.5	-63.3	3.8	7.46e-01	0	44	104	1312817152	80	9992
2026-01-23 06:23:25.48	338.44	3.07	-54.5	-63.3	3.8	7.45e-01	0	44	104	1312817152	80	10022
2026-01-23 06:23:26.49	338.38	3.00	-54.5	-63.3	3.8	7.45e-01	0	44	104	1312817152	80	9981
2026-01-23 06:23:27.50	338.31	2.93	-54.5	-63.3	3.8	7.46e-01	0	44	104	1312817152	80	10008
2026-01-23 06:23:28.51	338.25	2.86	-54.5	-63.3	3.8	7.44e-01	0	44	104	1312817152	80	9993
2026-01-23 06:23:29.52	338.19	2.79	-54.5	-63.3	3.8	7.45e-01	0	44	104	1312817152	80	9953
2026-01-23 06:23:30.53	338.12	2.72	-54.4	-63.3	3.8	7.45e-01	0	44	104	1312817152	80	10038
2026-01-23 06:23:31.54	338.06	2.65	-54.4	-63.3	3.8	7.46e-01	0	44	104	1312817152	80	9993
2026-01-23 06:23:32.55	338.00	2.58	-54.4	-63.3	3.8	7.44e-01	0	44	104	1312817152	80	9960
2026-01-23 06:23:33.55	337.94	2.51	-54.4	-63.3	3.8	7.45e-01	0	44	104	1312817152	80	9972
2026-01-23 06:23:34.56	337.87	2.45	-54.4	-63.2	3.8	7.45e-01	0	44	104	1312817152	80	9943
2026-01-23 06:23:35.57	337.81	2.38	-54.4	-63.3	3.8	7.44e-01	0	44	104	1312817152	80	9962
2026-01-23 06:23:36.58	337.75	2.31	-54.4	-63.3	3.8	7.46e-01	0	44	104	1312817152	80	9963
2026-01-23 06:23:37.58	337.69	2.24	-54.4	-63.2	3.8	7.48e-01	0	44	104	1312817152	80	9944
2026-01-23 06:23:38.59	337.63	2.18	-54.4	-63.3	3.8	7.46e-01	0	44	104	1312817152	80	9950
2026-01-23 06:23:39.60	337.57	2.11	-54.4	-63.3	3.8	7.47e-01	0	44	104	1312817152	80	9972
2026-01-23 06:23:40.61	337.51	2.04	-54.4	-63.3	3.8	7.44e-01	0	44	104	1312817152	80	9981
2026-01-23 06:23:41.62	337.45	1.98	-54.4	-63.2	3.8	7.45e-01	0	44	104	1312817152	80	9932

#Closed at: 2026-01-23 06:23:41
#Recorded file [1312 MB]: D:/lorett/data/31041_260123_091348.dat