passes_logs/2026/01/23/R3.2S_Murmansk/R3.2S_Murmansk__20260123_234226_KANOPUS-V_5_rec.log

#Pass ID: 20260123_234226_KANOPUS-V 5
#Satellite: KANOPUS-V 5
#Configuration: KANOPUS-V_8320
#almurnet v.1.7.20251203
#Start time: 2026-01-23 23:42:28

#Version: 2.2.20231116
#Station: R3.2S_Murmansk
#Location: 33.079688 lon 68.888172 lat
#TLE: 1 43876U 18111A   26023.64356892  .00004816  00000+0  20464-3 0  9993
#TLE: 2 43876  97.3677 292.0017 0001813  88.2876 271.8569 15.23520012392780

#Time	Az	El	Level	Level2	SNR	BER	BlckErr	Temp	State	Recorded	gain1	gain2
2026-01-23 23:42:28.27	22.35	2.13	-53.0	-61.9	3.8	7.45e-01	0	42	0	0	78	9525
2026-01-23 23:42:29.27	22.29	2.20	-53.0	-61.9	3.8	7.45e-01	0	42	104	0	77	10077
2026-01-23 23:42:30.28	22.23	2.27	-53.0	-61.9	3.8	7.45e-01	0	42	104	0	77	10070
2026-01-23 23:42:31.28	22.17	2.34	-53.0	-61.9	3.8	7.44e-01	0	42	104	0	77	10090
2026-01-23 23:42:32.29	22.11	2.40	-53.0	-61.8	3.8	7.46e-01	0	42	104	0	77	10055
2026-01-23 23:42:33.30	22.05	2.47	-53.0	-61.8	3.8	7.45e-01	0	42	104	0	77	10043
2026-01-23 23:42:34.31	21.99	2.54	-53.0	-61.8	3.8	7.46e-01	0	42	104	0	77	10045
2026-01-23 23:42:35.32	21.93	2.61	-53.0	-61.8	3.8	7.46e-01	0	42	104	0	77	10041
2026-01-23 23:42:36.33	21.87	2.68	-53.0	-61.8	3.8	7.45e-01	0	42	104	0	77	9999
2026-01-23 23:42:37.33	21.81	2.75	-53.0	-61.8	3.8	7.45e-01	0	42	104	0	77	10031
2026-01-23 23:42:38.34	21.74	2.81	-53.0	-61.8	3.8	7.45e-01	0	42	104	0	77	10031
2026-01-23 23:42:39.35	21.68	2.88	-53.0	-61.8	3.8	7.45e-01	0	42	104	0	77	10028
2026-01-23 23:42:40.36	21.62	2.95	-53.0	-61.8	3.8	7.46e-01	0	42	104	0	77	10059
2026-01-23 23:42:41.37	21.55	3.02	-53.0	-61.8	3.8	7.46e-01	0	42	104	0	77	10059
2026-01-23 23:42:42.37	21.49	3.09	-53.0	-61.8	3.8	7.44e-01	0	42	104	0	77	10033
2026-01-23 23:42:43.38	21.42	3.16	-53.0	-61.8	3.8	7.46e-01	0	43	104	0	77	10035
2026-01-23 23:42:44.39	21.36	3.23	-53.0	-61.8	3.8	7.46e-01	0	42	104	0	77	10008
2026-01-23 23:42:45.39	21.29	3.30	-53.0	-61.8	3.8	7.44e-01	0	43	104	0	77	10023
2026-01-23 23:42:46.40	21.23	3.37	-53.0	-61.8	3.8	7.47e-01	0	43	104	0	77	10033
2026-01-23 23:42:47.41	21.16	3.44	-53.0	-61.9	3.8	7.44e-01	0	42	104	0	77	10064
2026-01-23 23:42:48.42	21.09	3.52	-53.0	-61.8	3.8	7.45e-01	0	43	104	0	77	10017
2026-01-23 23:42:49.43	21.03	3.59	-53.0	-61.8	3.8	7.45e-01	0	43	104	0	77	9987
2026-01-23 23:42:50.44	20.96	3.66	-53.0	-61.8	3.8	7.46e-01	0	43	104	0	77	10034
2026-01-23 23:42:51.45	20.89	3.73	-53.0	-61.9	3.8	7.44e-01	0	43	104	0	77	10061
2026-01-23 23:42:52.45	20.82	3.80	-53.0	-61.8	3.8	7.45e-01	0	43	104	0	77	10017
2026-01-23 23:42:53.46	20.75	3.87	-53.0	-61.8	3.8	7.46e-01	0	43	104	0	77	10031
2026-01-23 23:42:54.47	20.68	3.95	-53.0	-61.8	3.8	7.45e-01	0	43	104	0	77	10021
2026-01-23 23:42:55.48	20.61	4.02	-53.0	-61.8	3.8	7.46e-01	0	43	104	0	77	10039
2026-01-23 23:42:56.49	20.54	4.09	-53.0	-61.8	3.8	7.45e-01	0	43	104	0	77	9998
2026-01-23 23:42:57.49	20.47	4.16	-53.0	-61.8	3.8	7.47e-01	0	43	104	0	77	10059
2026-01-23 23:42:58.50	20.40	4.24	-53.0	-61.8	3.8	7.45e-01	0	43	104	0	77	10026
2026-01-23 23:42:59.51	20.33	4.31	-53.0	-61.8	3.8	7.46e-01	0	43	104	0	77	10039
2026-01-23 23:43:00.52	20.26	4.39	-53.0	-61.8	3.8	7.45e-01	0	43	104	0	77	10022
2026-01-23 23:43:01.53	20.18	4.46	-53.0	-61.8	3.8	7.46e-01	0	43	104	0	77	10029
2026-01-23 23:43:02.54	20.11	4.53	-53.0	-61.8	3.8	7.44e-01	0	43	104	0	77	10045
2026-01-23 23:43:03.55	20.04	4.61	-53.0	-61.8	3.8	7.45e-01	0	43	104	0	77	10002
2026-01-23 23:43:04.56	19.96	4.68	-53.0	-61.8	3.8	7.45e-01	0	43	104	0	77	10040
2026-01-23 23:43:05.56	19.89	4.76	-53.0	-61.8	3.8	7.45e-01	0	43	104	0	77	10011
2026-01-23 23:43:06.57	19.81	4.83	-53.0	-61.8	3.8	7.45e-01	0	43	104	0	77	10051
2026-01-23 23:43:07.58	19.74	4.91	-53.0	-61.8	3.8	7.45e-01	0	43	104	0	77	10051
2026-01-23 23:43:08.59	19.66	4.98	-53.0	-61.8	3.8	7.46e-01	0	43	104	0	77	10039
2026-01-23 23:43:09.59	19.58	5.06	-53.0	-61.9	3.8	7.46e-01	0	43	104	0	77	10064
2026-01-23 23:43:10.60	19.51	5.14	-53.0	-61.8	3.8	7.45e-01	0	43	104	0	77	10041
2026-01-23 23:43:11.61	19.43	5.21	-53.0	-61.8	3.8	7.44e-01	0	43	104	0	77	10045
2026-01-23 23:43:12.62	19.35	5.29	-53.0	-61.8	3.8	7.44e-01	0	43	104	0	77	10047
2026-01-23 23:43:13.63	19.27	5.37	-53.1	-61.9	3.8	7.43e-01	0	43	104	0	77	10082
2026-01-23 23:43:14.64	19.19	5.44	-53.0	-61.8	3.8	7.46e-01	0	43	104	0	77	10051
2026-01-23 23:43:15.64	19.11	5.52	-53.0	-61.9	3.8	7.45e-01	0	43	104	0	77	10083
2026-01-23 23:43:16.65	19.03	5.60	-53.0	-61.8	3.8	7.46e-01	0	43	104	0	77	10047
2026-01-23 23:43:17.66	18.95	5.68	-53.0	-61.8	3.8	7.47e-01	0	43	104	0	77	10039
2026-01-23 23:43:18.67	18.86	5.75	-53.0	-61.8	3.8	7.44e-01	0	43	104	0	77	9978
2026-01-23 23:43:19.68	18.78	5.83	-53.0	-61.9	3.8	7.46e-01	0	43	104	0	77	10083
2026-01-23 23:43:20.69	18.70	5.91	-53.0	-61.8	3.8	7.45e-01	0	43	104	0	77	9987
2026-01-23 23:43:21.69	18.62	5.99	-53.0	-61.8	3.8	7.45e-01	0	43	104	0	77	9984
2026-01-23 23:43:22.70	18.53	6.07	-52.9	-61.7	3.8	7.46e-01	0	43	104	0	77	9898
2026-01-23 23:43:23.71	18.45	6.15	-53.0	-61.8	3.8	7.43e-01	0	43	104	0	77	10044
2026-01-23 23:43:24.72	18.36	6.23	-52.9	-61.7	3.8	7.45e-01	0	43	104	0	77	9894
2026-01-23 23:43:25.72	18.27	6.31	-52.9	-61.8	3.8	7.43e-01	0	43	104	0	77	9992
2026-01-23 23:43:26.73	18.19	6.39	-52.9	-61.7	3.8	7.46e-01	0	43	104	0	77	9923
2026-01-23 23:43:27.74	18.10	6.47	-52.9	-61.8	3.8	7.46e-01	0	43	104	0	77	9965
2026-01-23 23:43:28.75	18.01	6.55	-52.9	-61.7	3.8	7.44e-01	0	43	104	0	77	9875
2026-01-23 23:43:29.76	17.92	6.63	-52.9	-61.7	3.8	7.46e-01	0	44	104	0	77	9929
2026-01-23 23:43:30.77	17.83	6.71	-52.9	-61.7	3.8	7.45e-01	0	43	104	0	77	9912
2026-01-23 23:43:31.77	17.74	6.80	-52.9	-61.8	3.8	7.45e-01	0	43	104	0	77	9967
2026-01-23 23:43:32.78	17.65	6.88	-52.9	-61.8	3.8	7.44e-01	0	44	104	0	77	9951
2026-01-23 23:43:33.79	17.56	6.96	-52.9	-61.7	3.8	7.45e-01	0	43	104	0	77	9911
2026-01-23 23:43:34.80	17.47	7.04	-53.0	-61.8	3.8	7.44e-01	0	43	104	0	77	9956
2026-01-23 23:43:35.81	17.37	7.13	-52.9	-61.8	3.8	7.45e-01	0	43	104	0	77	9946
2026-01-23 23:43:36.82	17.28	7.21	-53.0	-61.8	3.8	7.46e-01	0	44	104	0	77	10003
2026-01-23 23:43:37.82	17.19	7.29	-52.9	-61.7	3.8	7.45e-01	0	43	104	0	77	9931
2026-01-23 23:43:38.83	17.09	7.38	-53.0	-61.8	3.8	7.44e-01	0	43	104	0	77	10048
2026-01-23 23:43:39.84	17.00	7.46	-52.9	-61.8	3.8	7.45e-01	0	44	104	0	77	9976
2026-01-23 23:43:40.85	16.90	7.55	-53.0	-61.8	3.8	7.45e-01	0	43	104	0	77	10055
2026-01-23 23:43:41.86	16.80	7.63	-52.9	-61.8	3.8	7.45e-01	0	44	104	0	77	9952
2026-01-23 23:43:42.86	16.70	7.72	-53.1	-61.9	3.8	7.44e-01	0	44	104	0	77	10096
2026-01-23 23:43:43.87	16.61	7.80	-53.0	-61.8	3.8	7.45e-01	0	44	104	0	77	9977
2026-01-23 23:43:44.88	16.51	7.89	-53.1	-61.9	3.8	7.45e-01	0	43	104	0	77	10121
2026-01-23 23:43:45.89	16.41	7.97	-53.0	-61.8	3.8	7.47e-01	0	43	104	0	77	10053
2026-01-23 23:43:46.90	16.30	8.06	-53.1	-61.9	3.8	7.46e-01	0	44	104	0	77	10144
2026-01-23 23:43:47.90	16.20	8.15	-53.0	-61.8	3.8	7.45e-01	0	44	104	0	77	10016
2026-01-23 23:43:48.91	16.10	8.23	-53.1	-61.9	3.8	7.45e-01	0	44	104	0	77	10115
2026-01-23 23:43:49.92	16.00	8.32	-53.0	-61.8	3.8	7.45e-01	0	44	104	0	77	10059
2026-01-23 23:43:50.93	15.89	8.41	-53.2	-61.9	3.8	7.45e-01	0	44	104	0	77	10163
2026-01-23 23:43:51.94	15.79	8.50	-53.0	-61.9	3.8	7.45e-01	0	44	104	0	77	10108
2026-01-23 23:43:52.94	15.68	8.59	-53.1	-62.0	3.8	7.45e-01	0	44	104	0	77	10178
2026-01-23 23:43:53.95	15.58	8.67	-53.1	-61.9	3.8	7.45e-01	0	44	104	0	77	10115
2026-01-23 23:43:54.96	15.47	8.76	-53.2	-62.0	3.8	7.45e-01	0	44	104	0	77	10270
2026-01-23 23:43:55.97	15.36	8.85	-53.1	-61.9	3.8	7.45e-01	0	44	104	0	77	10073
2026-01-23 23:43:56.98	15.25	8.94	-53.2	-62.0	3.8	7.45e-01	0	44	104	0	77	10265
2026-01-23 23:43:57.99	15.14	9.03	-53.1	-61.9	3.8	7.45e-01	0	44	104	0	77	10144
2026-01-23 23:43:58.99	15.03	9.12	-53.3	-62.1	3.8	7.46e-01	0	44	104	0	77	10397
2026-01-23 23:44:00.00	14.92	9.21	-53.1	-61.9	3.8	7.44e-01	0	44	104	0	77	10150
2026-01-23 23:44:00.97	14.81	9.30	-53.3	-62.1	3.8	7.45e-01	0	44	104	0	77	10377
2026-01-23 23:44:01.98	14.70	9.39	-53.2	-62.0	3.8	7.45e-01	0	44	104	0	77	10213
2026-01-23 23:44:02.98	14.58	9.48	-53.4	-62.2	3.8	7.46e-01	0	44	104	0	77	10472
2026-01-23 23:44:03.99	14.47	9.58	-53.2	-62.0	3.8	7.46e-01	0	44	104	0	77	10253
2026-01-23 23:44:05.00	14.35	9.67	-53.4	-62.2	3.8	7.45e-01	0	44	104	0	77	10512
2026-01-23 23:44:06.01	14.23	9.76	-53.3	-62.1	3.8	7.47e-01	0	44	104	0	77	10312
2026-01-23 23:44:07.02	14.11	9.86	-53.5	-62.3	3.8	7.46e-01	0	44	104	0	77	10555
2026-01-23 23:44:08.03	14.00	9.95	-53.3	-62.1	3.8	7.46e-01	0	44	104	0	77	10407
2026-01-23 23:44:09.03	13.88	10.04	-53.5	-62.3	3.8	7.45e-01	0	44	104	0	77	10556
2026-01-23 23:44:10.04	13.75	10.14	-53.4	-62.2	3.8	7.44e-01	0	44	104	0	77	10436
2026-01-23 23:44:11.05	13.63	10.23	-53.5	-62.3	3.8	7.46e-01	0	44	104	0	77	10573
2026-01-23 23:44:12.06	13.51	10.33	-53.4	-62.2	3.8	7.44e-01	0	44	104	0	77	10467
2026-01-23 23:44:13.07	13.38	10.42	-53.5	-62.3	3.8	7.45e-01	0	44	104	0	77	10588
2026-01-23 23:44:14.08	13.26	10.52	-53.4	-62.3	3.8	7.45e-01	0	44	104	0	77	10568
2026-01-23 23:44:15.08	13.13	10.62	-53.5	-62.3	3.8	7.44e-01	0	44	104	0	77	10589
2026-01-23 23:44:16.09	13.01	10.71	-53.4	-62.2	3.8	7.47e-01	0	44	104	0	77	10530
2026-01-23 23:44:17.10	12.88	10.81	-53.5	-62.3	3.8	7.44e-01	0	44	104	0	77	10597
2026-01-23 23:44:18.11	12.75	10.91	-53.4	-62.3	3.8	7.46e-01	0	44	104	0	77	10582
2026-01-23 23:44:19.12	12.62	11.01	-53.5	-62.3	3.8	7.45e-01	0	44	104	0	77	10638
2026-01-23 23:44:20.12	12.49	11.10	-53.5	-62.3	3.8	7.44e-01	0	44	104	0	77	10547
2026-01-23 23:44:21.13	12.35	11.20	-53.5	-62.3	3.8	7.44e-01	0	44	104	0	77	10621
2026-01-23 23:44:22.14	12.22	11.30	-53.5	-62.3	3.8	7.47e-01	0	44	104	0	77	10556
2026-01-23 23:44:23.15	12.08	11.40	-53.5	-62.3	3.8	7.46e-01	0	44	104	0	77	10635
2026-01-23 23:44:24.15	11.95	11.50	-53.5	-62.3	3.8	7.45e-01	0	44	104	0	77	10605
2026-01-23 23:44:25.16	11.81	11.60	-53.5	-62.3	3.8	7.44e-01	0	44	104	0	77	10638
2026-01-23 23:44:26.17	11.67	11.70	-53.5	-62.3	3.8	7.44e-01	0	44	104	0	77	10569
2026-01-23 23:44:27.18	11.53	11.80	-53.5	-62.4	3.8	7.46e-01	0	44	104	0	77	10688
2026-01-23 23:44:28.19	11.39	11.91	-53.5	-62.3	3.8	7.46e-01	0	44	104	0	77	10619
2026-01-23 23:44:29.19	11.25	12.01	-53.5	-62.4	3.8	7.45e-01	0	44	104	0	77	10680
2026-01-23 23:44:30.20	11.10	12.11	-53.5	-62.3	3.8	7.46e-01	0	44	104	0	77	10574
2026-01-23 23:44:31.21	10.96	12.21	-53.6	-62.4	3.8	7.44e-01	0	44	104	0	77	10731
2026-01-23 23:44:32.22	10.81	12.32	-53.5	-62.3	3.8	7.46e-01	0	44	104	0	77	10624
2026-01-23 23:44:33.23	10.67	12.42	-53.6	-62.4	3.8	7.44e-01	0	44	104	0	77	10697
2026-01-23 23:44:34.23	10.52	12.52	-53.6	-62.4	3.8	7.45e-01	0	44	104	0	77	10662
2026-01-23 23:44:35.24	10.37	12.63	-53.6	-62.4	3.8	7.44e-01	0	44	104	0	77	10765
2026-01-23 23:44:36.25	10.22	12.73	-53.6	-62.4	3.8	7.46e-01	0	44	104	0	77	10722
2026-01-23 23:44:37.26	10.06	12.84	-53.6	-62.5	3.8	7.45e-01	0	44	104	0	77	10813
2026-01-23 23:44:38.27	9.91	12.95	-53.6	-62.4	3.8	7.47e-01	0	44	104	0	77	10684
2026-01-23 23:44:39.27	9.76	13.05	-53.6	-62.5	3.8	7.46e-01	0	44	104	0	77	10789
2026-01-23 23:44:40.28	9.60	13.16	-53.6	-62.4	3.8	7.46e-01	0	44	104	0	77	10765
2026-01-23 23:44:41.29	9.44	13.26	-53.7	-62.5	3.8	7.45e-01	0	44	104	0	77	10786
2026-01-23 23:44:42.30	9.28	13.37	-53.6	-62.4	3.8	7.46e-01	0	44	104	0	77	10768
2026-01-23 23:44:43.30	9.12	13.48	-53.7	-62.5	3.8	7.47e-01	0	44	104	0	77	10847
2026-01-23 23:44:44.31	8.96	13.59	-53.6	-62.4	3.8	7.47e-01	0	44	104	0	77	10754
2026-01-23 23:44:45.32	8.79	13.70	-53.7	-62.5	3.8	7.45e-01	0	44	104	0	77	10857
2026-01-23 23:44:46.33	8.63	13.81	-53.6	-62.5	3.8	7.44e-01	0	44	104	0	77	10781
2026-01-23 23:44:47.33	8.46	13.92	-53.7	-62.5	3.8	7.44e-01	0	44	104	0	78	10289
2026-01-23 23:44:48.34	8.29	14.03	-53.7	-62.5	3.8	7.44e-01	0	44	104	0	78	10239
2026-01-23 23:44:49.35	8.12	14.14	-53.7	-62.5	3.8	7.45e-01	0	44	104	0	78	10272
2026-01-23 23:44:50.36	7.95	14.25	-53.7	-62.5	3.8	7.45e-01	0	44	104	0	78	10220
2026-01-23 23:44:51.37	7.78	14.36	-53.8	-62.6	3.8	7.45e-01	0	44	104	0	78	10306
2026-01-23 23:44:52.37	7.61	14.47	-53.7	-62.5	3.8	7.44e-01	0	44	104	0	78	10291
2026-01-23 23:44:53.38	7.43	14.58	-53.7	-62.6	3.8	7.44e-01	0	44	104	0	78	10306
2026-01-23 23:44:54.39	7.25	14.70	-53.7	-62.6	3.8	7.46e-01	0	44	104	0	78	10307
2026-01-23 23:44:55.40	7.07	14.81	-53.8	-62.6	3.8	7.46e-01	0	44	104	0	78	10344
2026-01-23 23:44:56.41	6.89	14.92	-53.7	-62.5	3.8	7.45e-01	0	44	104	0	78	10287
2026-01-23 23:44:57.42	6.71	15.04	-53.8	-62.6	3.8	7.46e-01	0	44	104	0	78	10340
2026-01-23 23:44:58.43	6.52	15.15	-53.7	-62.5	3.8	7.43e-01	0	44	104	0	78	10271
2026-01-23 23:44:59.43	6.34	15.27	-53.8	-62.6	3.8	7.47e-01	0	44	104	0	78	10380
2026-01-23 23:45:00.44	6.15	15.38	-53.8	-62.6	3.8	7.46e-01	0	44	104	0	78	10321
2026-01-23 23:45:01.45	5.96	15.50	-53.8	-62.6	3.8	7.45e-01	0	44	104	0	78	10353
2026-01-23 23:45:02.46	5.77	15.62	-53.8	-62.6	3.8	7.46e-01	0	44	104	0	78	10352
2026-01-23 23:45:03.47	5.57	15.73	-53.8	-62.6	3.8	7.45e-01	0	44	104	0	78	10406
2026-01-23 23:45:04.47	5.38	15.85	-53.8	-62.7	3.8	7.44e-01	0	44	104	0	78	10418
2026-01-23 23:45:05.48	5.18	15.97	-53.8	-62.6	3.8	7.45e-01	0	44	104	0	78	10387
2026-01-23 23:45:06.49	4.98	16.09	-53.8	-62.6	3.8	7.46e-01	0	44	104	0	78	10403
2026-01-23 23:45:07.50	4.78	16.20	-53.9	-62.7	3.8	7.46e-01	0	44	104	0	78	10458
2026-01-23 23:45:08.51	4.58	16.32	-53.9	-62.7	3.8	7.44e-01	0	44	104	0	78	10442
2026-01-23 23:45:09.52	4.37	16.44	-53.9	-62.7	3.8	7.46e-01	0	44	104	0	78	10481
2026-01-23 23:45:10.53	4.16	16.56	-53.9	-62.7	3.8	7.45e-01	0	44	104	0	78	10442
2026-01-23 23:45:11.53	3.96	16.68	-53.9	-62.7	3.8	7.48e-01	0	44	104	0	78	10479
2026-01-23 23:45:12.54	3.75	16.80	-53.9	-62.7	3.8	7.45e-01	0	44	104	0	78	10489
2026-01-23 23:45:13.55	3.53	16.92	-53.9	-62.7	3.8	7.46e-01	0	44	104	0	78	10440
2026-01-23 23:45:14.56	3.32	17.05	-53.9	-62.7	3.8	7.45e-01	0	44	104	0	78	10453
2026-01-23 23:45:15.57	3.10	17.17	-53.9	-62.7	3.8	7.46e-01	0	44	104	0	78	10483
2026-01-23 23:45:16.57	2.88	17.29	-53.9	-62.7	3.8	7.45e-01	0	44	104	0	78	10461
2026-01-23 23:45:17.58	2.66	17.41	-53.9	-62.7	3.8	7.44e-01	0	44	104	0	78	10462
2026-01-23 23:45:18.59	2.44	17.54	-53.9	-62.7	3.8	7.45e-01	0	44	104	0	78	10475
2026-01-23 23:45:19.60	2.21	17.66	-53.9	-62.8	3.8	7.46e-01	0	44	104	0	78	10542
2026-01-23 23:45:20.61	1.98	17.78	-53.9	-62.7	3.8	7.45e-01	0	44	104	0	78	10527
2026-01-23 23:45:21.61	1.76	17.91	-53.9	-62.8	3.8	7.44e-01	0	44	104	0	78	10587
2026-01-23 23:45:22.62	1.52	18.03	-54.0	-62.8	3.8	7.44e-01	0	44	104	0	78	10638
2026-01-23 23:45:23.63	1.29	18.16	-54.0	-62.8	3.8	7.45e-01	0	44	104	0	78	10632
2026-01-23 23:45:24.64	1.05	18.28	-54.0	-62.9	3.8	7.45e-01	0	44	104	0	78	10660
2026-01-23 23:45:25.64	0.82	18.41	-54.1	-62.9	3.8	7.45e-01	0	44	104	0	78	10709
2026-01-23 23:45:26.66	0.57	18.54	-54.1	-62.9	3.8	7.46e-01	0	44	104	0	78	10719
2026-01-23 23:45:27.66	0.33	18.66	-54.1	-62.9	3.8	7.45e-01	0	44	104	0	78	10686
2026-01-23 23:45:28.68	0.08	18.79	-54.1	-62.8	3.8	7.46e-01	0	44	104	0	78	10644
2026-01-23 23:45:29.68	359.83	18.92	-54.1	-62.9	3.8	7.44e-01	0	44	104	0	78	10710
2026-01-23 23:45:30.69	359.58	19.04	-54.1	-62.9	3.8	7.44e-01	0	44	104	0	78	10732
2026-01-23 23:45:31.70	359.33	19.17	-54.1	-62.9	3.8	7.46e-01	0	44	104	0	78	10699
2026-01-23 23:45:32.71	359.07	19.30	-54.1	-62.9	3.8	7.45e-01	0	44	104	0	78	10728
2026-01-23 23:45:33.72	358.81	19.43	-54.0	-62.9	3.8	7.45e-01	0	44	104	0	78	10678
2026-01-23 23:45:34.73	358.55	19.56	-54.1	-62.9	3.8	7.45e-01	0	44	104	0	78	10716
2026-01-23 23:45:35.73	358.29	19.69	-54.1	-62.9	3.8	7.45e-01	0	44	104	0	78	10695
2026-01-23 23:45:36.74	358.02	19.82	-54.1	-62.9	3.8	7.46e-01	0	44	104	0	78	10700
2026-01-23 23:45:37.75	357.75	19.95	-54.0	-62.8	3.8	7.47e-01	0	44	104	0	78	10653
2026-01-23 23:45:38.76	357.48	20.08	-54.1	-62.9	3.8	7.45e-01	0	44	104	0	78	10741
2026-01-23 23:45:39.77	357.21	20.21	-54.1	-62.9	3.8	7.44e-01	0	45	104	0	78	10742
2026-01-23 23:45:40.77	356.93	20.34	-54.1	-63.0	3.8	7.46e-01	0	44	104	0	78	10784
2026-01-23 23:45:41.78	356.65	20.47	-54.1	-62.9	3.8	7.47e-01	0	44	104	0	78	10713
2026-01-23 23:45:42.79	356.37	20.60	-54.1	-63.0	3.8	7.46e-01	0	44	104	0	78	10779
2026-01-23 23:45:43.80	356.09	20.73	-54.1	-62.9	3.8	7.46e-01	0	44	104	0	78	10726
2026-01-23 23:45:44.81	355.80	20.86	-54.1	-62.9	3.8	7.44e-01	0	44	104	0	78	10721
2026-01-23 23:45:45.81	355.51	20.99	-54.1	-62.9	3.8	7.46e-01	0	44	104	0	78	10686
2026-01-23 23:45:46.82	355.21	21.12	-54.1	-63.0	3.8	7.46e-01	0	44	104	0	78	10816
2026-01-23 23:45:47.83	354.92	21.26	-54.1	-62.9	3.8	7.46e-01	0	44	104	0	78	10738
2026-01-23 23:45:48.84	354.62	21.39	-54.1	-63.0	3.8	7.44e-01	0	44	104	0	78	10786
2026-01-23 23:45:49.85	354.31	21.52	-54.1	-62.9	3.8	7.45e-01	0	44	104	0	78	10755
2026-01-23 23:45:50.85	354.01	21.65	-54.2	-63.0	3.8	7.46e-01	0	44	104	0	78	10800
2026-01-23 23:45:51.86	353.70	21.78	-54.1	-63.0	3.8	7.46e-01	0	44	104	0	78	10787
2026-01-23 23:45:52.87	353.39	21.92	-54.2	-63.0	3.8	7.45e-01	0	44	104	0	78	10787
2026-01-23 23:45:53.88	353.07	22.05	-54.1	-62.9	3.8	7.45e-01	0	44	104	0	78	10753
2026-01-23 23:45:54.89	352.76	22.18	-54.2	-63.0	3.8	7.44e-01	0	45	104	0	78	10840
2026-01-23 23:45:55.89	352.44	22.31	-54.1	-63.0	3.8	7.45e-01	0	45	104	0	78	10804
2026-01-23 23:45:56.90	352.11	22.45	-54.2	-63.0	3.8	7.44e-01	0	44	104	0	78	10817
2026-01-23 23:45:57.91	351.79	22.58	-54.1	-63.0	3.8	7.45e-01	0	44	104	0	78	10782
2026-01-23 23:45:58.92	351.46	22.71	-54.2	-63.0	3.8	7.46e-01	0	45	104	0	78	10845
2026-01-23 23:45:59.93	351.12	22.84	-54.1	-63.0	3.8	7.44e-01	0	45	104	0	78	10821
2026-01-23 23:46:00.93	350.79	22.97	-54.2	-63.0	3.8	7.46e-01	0	44	104	0	78	10869
2026-01-23 23:46:01.94	350.45	23.11	-54.1	-63.0	3.8	7.46e-01	0	45	104	0	78	10796
2026-01-23 23:46:02.95	350.10	23.24	-54.2	-63.1	3.8	7.46e-01	0	45	104	0	79	10294
2026-01-23 23:46:03.96	349.76	23.37	-54.2	-63.0	3.8	7.45e-01	0	45	104	0	79	10271
2026-01-23 23:46:04.97	349.41	23.50	-54.2	-63.0	3.8	7.45e-01	0	44	104	0	79	10290
2026-01-23 23:46:05.97	349.06	23.63	-54.2	-63.0	3.8	7.45e-01	0	44	104	0	79	10249
2026-01-23 23:46:06.98	348.70	23.76	-54.2	-63.1	3.8	7.45e-01	0	45	104	0	79	10312
2026-01-23 23:46:07.99	348.34	23.89	-54.2	-63.0	3.8	7.46e-01	0	44	104	0	79	10250
2026-01-23 23:46:09.00	347.97	24.02	-54.2	-63.0	3.8	7.44e-01	0	45	104	0	79	10279
2026-01-23 23:46:10.00	347.61	24.15	-54.2	-63.0	3.8	7.45e-01	0	45	104	0	79	10223
2026-01-23 23:46:11.01	347.24	24.28	-54.2	-63.1	3.8	7.45e-01	0	45	104	0	79	10318
2026-01-23 23:46:12.02	346.87	24.41	-54.2	-63.0	3.8	7.45e-01	0	45	104	0	79	10244
2026-01-23 23:46:13.03	346.49	24.54	-54.2	-63.1	3.8	7.47e-01	0	44	104	0	79	10319
2026-01-23 23:46:14.03	346.11	24.67	-54.2	-63.0	3.8	7.45e-01	0	45	104	0	79	10250
2026-01-23 23:46:15.04	345.73	24.79	-54.3	-63.1	3.8	7.44e-01	0	45	104	0	79	10309
2026-01-23 23:46:16.05	345.34	24.92	-54.2	-63.0	3.8	7.45e-01	0	44	104	0	79	10281
2026-01-23 23:46:17.06	344.95	25.05	-54.3	-63.1	3.8	7.45e-01	0	44	104	0	79	10340
2026-01-23 23:46:18.07	344.55	25.17	-54.2	-63.1	3.8	7.46e-01	0	45	104	0	79	10313
2026-01-23 23:46:19.07	344.16	25.30	-54.3	-63.1	3.8	7.45e-01	0	45	104	0	79	10369
2026-01-23 23:46:20.08	343.75	25.42	-54.3	-63.1	3.8	7.45e-01	0	45	104	0	79	10326
2026-01-23 23:46:21.09	343.35	25.55	-54.3	-63.1	3.8	7.45e-01	0	45	104	0	79	10350
2026-01-23 23:46:22.10	342.94	25.67	-54.3	-63.1	3.8	7.45e-01	0	45	104	0	79	10325
2026-01-23 23:46:23.11	342.53	25.79	-54.3	-63.1	3.8	7.45e-01	0	45	104	0	79	10403
2026-01-23 23:46:24.11	342.11	25.91	-54.3	-63.1	3.8	7.46e-01	0	45	104	0	79	10336
2026-01-23 23:46:25.12	341.69	26.04	-54.3	-63.1	3.8	7.44e-01	0	45	104	0	79	10364
2026-01-23 23:46:26.13	341.27	26.16	-54.3	-63.1	3.8	7.45e-01	0	45	104	0	79	10334
2026-01-23 23:46:27.14	340.84	26.27	-54.3	-63.1	3.8	7.46e-01	0	45	104	0	79	10403
2026-01-23 23:46:28.15	340.41	26.39	-54.3	-63.1	3.8	7.46e-01	0	45	104	0	79	10349
2026-01-23 23:46:29.15	339.98	26.51	-54.3	-63.1	3.8	7.46e-01	0	45	104	0	79	10388
2026-01-23 23:46:30.16	339.54	26.63	-54.3	-63.1	3.8	7.46e-01	0	45	104	0	79	10343
2026-01-23 23:46:31.17	339.10	26.74	-54.3	-63.2	3.8	7.46e-01	0	45	104	0	79	10424
2026-01-23 23:46:32.18	338.66	26.85	-54.3	-63.1	3.8	7.44e-01	0	45	104	0	79	10382
2026-01-23 23:46:33.19	338.21	26.97	-54.4	-63.2	3.8	7.44e-01	0	45	104	0	79	10444
2026-01-23 23:46:34.19	337.76	27.08	-54.3	-63.1	3.8	7.44e-01	0	45	104	0	79	10392
2026-01-23 23:46:35.20	337.30	27.19	-54.4	-63.2	3.8	7.43e-01	0	45	104	0	79	10473
2026-01-23 23:46:36.21	336.85	27.30	-54.4	-63.2	3.8	7.46e-01	0	45	104	0	79	10443
2026-01-23 23:46:37.21	336.39	27.40	-54.4	-63.2	3.8	7.45e-01	0	45	104	0	79	10504
2026-01-23 23:46:38.22	335.92	27.51	-54.4	-63.2	3.8	7.46e-01	0	45	104	0	79	10456
2026-01-23 23:46:39.23	335.45	27.61	-54.4	-63.2	3.8	7.46e-01	0	45	104	0	79	10502
2026-01-23 23:46:40.24	334.98	27.72	-54.4	-63.2	3.8	7.45e-01	0	45	104	0	79	10464
2026-01-23 23:46:41.25	334.50	27.82	-54.4	-63.3	3.8	7.46e-01	0	44	104	0	79	10552
2026-01-23 23:46:42.25	334.03	27.92	-54.4	-63.2	3.8	7.47e-01	0	44	104	0	79	10485
2026-01-23 23:46:43.26	333.55	28.01	-54.5	-63.3	3.8	7.45e-01	0	45	104	0	79	10549
2026-01-23 23:46:44.27	333.06	28.11	-54.5	-63.3	3.8	7.46e-01	0	45	104	0	79	10585
2026-01-23 23:46:45.28	332.57	28.21	-54.5	-63.3	3.8	7.46e-01	0	45	104	0	79	10539
2026-01-23 23:46:46.29	332.08	28.30	-54.4	-63.2	3.8	7.46e-01	0	45	104	0	79	10502
2026-01-23 23:46:47.29	331.59	28.39	-54.5	-63.3	3.8	7.45e-01	0	45	104	0	79	10583
2026-01-23 23:46:48.30	331.09	28.48	-54.5	-63.3	3.8	7.45e-01	0	45	104	0	79	10553
2026-01-23 23:46:49.31	330.59	28.57	-54.5	-63.3	3.8	7.45e-01	0	45	104	0	79	10603
2026-01-23 23:46:50.32	330.08	28.65	-54.4	-63.3	3.8	7.45e-01	0	45	104	0	79	10540
2026-01-23 23:46:51.33	329.58	28.74	-54.5	-63.3	3.8	7.45e-01	0	45	104	0	79	10640
2026-01-23 23:46:52.34	329.07	28.82	-54.5	-63.3	3.8	7.44e-01	0	45	104	0	79	10602
2026-01-23 23:46:53.35	328.55	28.90	-54.5	-63.3	3.8	7.45e-01	0	45	104	0	79	10588
2026-01-23 23:46:54.35	328.04	28.97	-54.5	-63.3	3.8	7.44e-01	0	45	104	0	79	10593
2026-01-23 23:46:55.36	327.52	29.05	-54.6	-63.4	3.8	7.45e-01	0	45	104	0	79	10703
2026-01-23 23:46:56.37	327.00	29.12	-54.6	-63.4	3.8	7.45e-01	0	44	104	0	79	10657
2026-01-23 23:46:57.37	326.48	29.19	-54.5	-63.4	3.8	7.44e-01	0	45	104	0	79	10684
2026-01-23 23:46:58.38	325.96	29.26	-54.5	-63.4	3.8	7.43e-01	0	45	104	0	79	10678
2026-01-23 23:46:59.39	325.43	29.33	-54.6	-63.4	3.8	7.45e-01	0	45	104	0	79	10716
2026-01-23 23:47:00.40	324.90	29.39	-54.6	-63.4	3.8	7.45e-01	0	45	104	0	79	10710
2026-01-23 23:47:01.41	324.36	29.45	-54.6	-63.4	3.8	7.45e-01	0	45	104	0	79	10680
2026-01-23 23:47:02.41	323.83	29.51	-54.6	-63.4	3.8	7.44e-01	0	45	104	0	79	10702
2026-01-23 23:47:03.42	323.30	29.57	-54.6	-63.4	3.8	7.45e-01	0	45	104	0	79	10713
2026-01-23 23:47:04.43	322.76	29.62	-54.6	-63.4	3.8	7.46e-01	0	45	104	0	79	10744
2026-01-23 23:47:05.44	322.22	29.67	-54.6	-63.4	3.8	7.45e-01	0	44	104	0	79	10723
2026-01-23 23:47:06.45	321.67	29.72	-54.6	-63.4	3.8	7.46e-01	0	44	104	0	79	10659
2026-01-23 23:47:07.46	321.13	29.77	-54.6	-63.4	3.8	7.46e-01	0	45	104	0	79	10676
2026-01-23 23:47:08.47	320.58	29.81	-54.6	-63.4	3.8	7.46e-01	0	45	104	0	79	10739
2026-01-23 23:47:09.47	320.04	29.85	-54.6	-63.4	3.8	7.42e-01	0	45	104	0	79	10715
2026-01-23 23:47:10.48	319.49	29.89	-54.6	-63.4	3.8	7.46e-01	0	45	104	0	79	10703
2026-01-23 23:47:11.49	318.94	29.93	-54.6	-63.4	3.8	7.46e-01	0	45	104	0	79	10738
2026-01-23 23:47:12.50	318.38	29.96	-54.6	-63.4	3.8	7.44e-01	0	45	104	0	79	10713
2026-01-23 23:47:13.51	317.83	29.99	-54.6	-63.4	3.8	7.45e-01	0	45	104	0	79	10736
2026-01-23 23:47:14.52	317.27	30.02	-54.6	-63.4	3.8	7.44e-01	0	45	104	0	79	10702
2026-01-23 23:47:15.53	316.72	30.04	-54.6	-63.4	3.8	7.45e-01	0	45	104	0	79	10762
2026-01-23 23:47:16.54	316.16	30.06	-54.6	-63.4	3.8	7.44e-01	0	45	104	0	79	10753
2026-01-23 23:47:17.54	315.61	30.08	-54.6	-63.5	3.8	7.45e-01	0	45	104	0	79	10781
2026-01-23 23:47:18.55	315.05	30.10	-54.6	-63.5	3.8	7.44e-01	0	45	104	0	79	10800
2026-01-23 23:47:19.56	314.49	30.11	-54.6	-63.4	3.8	7.45e-01	0	45	104	0	79	10767
2026-01-23 23:47:20.57	313.93	30.12	-54.6	-63.5	3.8	7.45e-01	0	45	104	0	79	10789
2026-01-23 23:47:21.58	313.37	30.13	-54.6	-63.5	3.8	7.46e-01	0	44	104	0	79	10783
2026-01-23 23:47:22.59	312.81	30.14	-54.6	-63.4	3.8	7.46e-01	0	45	104	0	79	10776
2026-01-23 23:47:23.59	312.26	30.14	-54.6	-63.5	3.8	7.45e-01	0	44	104	0	79	10782
2026-01-23 23:47:24.60	311.70	30.14	-54.7	-63.5	3.8	7.45e-01	0	45	104	0	79	10790
2026-01-23 23:47:25.61	311.14	30.13	-54.6	-63.5	3.8	7.45e-01	0	45	104	0	79	10790
2026-01-23 23:47:26.62	310.58	30.13	-54.7	-63.5	3.8	7.44e-01	0	44	104	0	79	10803
2026-01-23 23:47:27.63	310.02	30.12	-54.6	-63.5	3.8	7.43e-01	0	45	104	0	79	10799
2026-01-23 23:47:28.63	309.46	30.11	-54.7	-63.5	3.8	7.47e-01	0	45	104	0	79	10873
2026-01-23 23:47:29.64	308.90	30.09	-54.6	-63.5	3.8	7.45e-01	0	45	104	0	80	10190
2026-01-23 23:47:30.65	308.35	30.07	-54.7	-63.5	3.8	7.46e-01	0	45	104	0	80	10225
2026-01-23 23:47:31.66	307.79	30.05	-54.6	-63.5	3.8	7.46e-01	0	44	104	0	80	10225
2026-01-23 23:47:32.66	307.24	30.03	-54.7	-63.5	3.8	7.47e-01	0	45	104	0	80	10271
2026-01-23 23:47:33.67	306.68	30.00	-54.6	-63.5	3.8	7.47e-01	0	45	104	0	80	10204
2026-01-23 23:47:34.68	306.13	29.98	-54.7	-63.5	3.8	7.44e-01	0	45	104	0	80	10193
2026-01-23 23:47:35.69	305.57	29.94	-54.6	-63.5	3.8	7.46e-01	0	45	104	0	80	10210
2026-01-23 23:47:36.70	305.02	29.91	-54.7	-63.5	3.8	7.46e-01	0	45	104	0	80	10183
2026-01-23 23:47:37.71	304.47	29.87	-54.6	-63.5	3.8	7.47e-01	0	45	104	0	80	10218
2026-01-23 23:47:38.71	303.93	29.83	-54.6	-63.5	3.8	7.45e-01	0	45	104	0	80	10189
2026-01-23 23:47:39.72	303.38	29.79	-54.6	-63.5	3.8	7.46e-01	0	45	104	0	80	10178
2026-01-23 23:47:40.73	302.83	29.75	-54.6	-63.5	3.8	7.44e-01	0	45	104	0	80	10197
2026-01-23 23:47:41.74	302.29	29.70	-54.6	-63.5	3.8	7.45e-01	0	45	104	0	80	10188
2026-01-23 23:47:42.75	301.74	29.65	-54.6	-63.5	3.8	7.45e-01	0	45	104	0	80	10209
2026-01-23 23:47:43.75	301.21	29.59	-54.6	-63.5	3.8	7.46e-01	0	45	104	0	80	10179
2026-01-23 23:47:44.76	300.67	29.54	-54.6	-63.5	3.8	7.45e-01	0	45	104	0	80	10202
2026-01-23 23:47:45.77	300.13	29.48	-54.6	-63.4	3.8	7.45e-01	0	45	104	0	80	10166
2026-01-23 23:47:46.78	299.59	29.42	-54.7	-63.5	3.8	7.45e-01	0	45	104	0	80	10186
2026-01-23 23:47:47.79	299.06	29.36	-54.6	-63.5	3.8	7.45e-01	0	45	104	0	80	10200
2026-01-23 23:47:48.79	298.54	29.29	-54.7	-63.5	3.8	7.44e-01	0	45	104	0	80	10206
2026-01-23 23:47:49.80	298.01	29.23	-54.6	-63.5	3.8	7.46e-01	0	45	104	0	80	10200
2026-01-23 23:47:50.81	297.48	29.16	-54.7	-63.5	3.8	7.45e-01	0	45	104	0	80	10216
2026-01-23 23:47:51.82	296.96	29.09	-54.6	-63.4	3.8	7.45e-01	0	45	104	0	80	10160
2026-01-23 23:47:52.83	296.44	29.01	-54.7	-63.5	3.8	7.44e-01	0	45	104	0	80	10216
2026-01-23 23:47:53.83	295.93	28.94	-54.6	-63.5	3.8	7.46e-01	0	45	104	0	80	10189
2026-01-23 23:47:54.84	295.41	28.86	-54.7	-63.5	3.8	7.45e-01	0	45	104	0	80	10235
2026-01-23 23:47:55.85	294.90	28.78	-54.6	-63.4	3.8	7.45e-01	0	45	104	0	80	10169
2026-01-23 23:47:56.86	294.39	28.69	-54.7	-63.4	3.8	7.46e-01	0	45	104	0	80	10163
2026-01-23 23:47:57.87	293.88	28.61	-54.7	-63.5	3.8	7.45e-01	0	45	104	0	80	10217
2026-01-23 23:47:58.87	293.38	28.52	-54.7	-63.5	3.8	7.45e-01	0	45	104	0	80	10217
2026-01-23 23:47:59.88	292.88	28.43	-54.6	-63.5	3.8	7.45e-01	0	45	104	0	80	10204
2026-01-23 23:48:00.89	292.38	28.34	-54.6	-63.5	3.8	7.45e-01	0	45	104	0	80	10196
2026-01-23 23:48:01.90	291.89	28.25	-54.7	-63.6	3.8	7.47e-01	0	45	104	0	80	10337
2026-01-23 23:48:02.91	291.40	28.16	-54.7	-63.5	3.8	7.46e-01	0	45	104	0	80	10259
2026-01-23 23:48:03.91	290.91	28.06	-54.6	-63.4	3.8	7.45e-01	0	45	104	0	80	10149
2026-01-23 23:48:04.92	290.43	27.96	-54.6	-63.5	3.8	7.45e-01	0	45	104	0	80	10215
2026-01-23 23:48:05.93	289.94	27.86	-54.6	-63.5	3.8	7.46e-01	0	45	104	0	80	10207
2026-01-23 23:48:06.94	289.47	27.76	-54.6	-63.4	3.8	7.43e-01	0	45	104	0	80	10160
2026-01-23 23:48:07.95	288.99	27.66	-54.6	-63.4	3.8	7.46e-01	0	45	104	0	80	10161
2026-01-23 23:48:08.95	288.52	27.56	-54.6	-63.5	3.8	7.45e-01	0	45	104	0	80	10198
2026-01-23 23:48:09.96	288.05	27.45	-54.6	-63.4	3.8	7.45e-01	0	45	104	0	80	10158
2026-01-23 23:48:10.97	287.59	27.35	-54.6	-63.4	3.8	7.44e-01	0	45	104	0	80	10124
2026-01-23 23:48:11.98	287.13	27.24	-54.6	-63.4	3.8	7.45e-01	0	45	104	0	80	10138
2026-01-23 23:48:12.99	286.67	27.13	-54.6	-63.4	3.8	7.46e-01	0	45	104	0	80	10101
2026-01-23 23:48:13.99	286.22	27.02	-54.6	-63.4	3.8	7.44e-01	0	45	104	0	80	10118
2026-01-23 23:48:15.00	285.77	26.90	-54.6	-63.4	3.8	7.44e-01	0	45	104	0	80	10087
2026-01-23 23:48:16.01	285.32	26.79	-54.5	-63.4	3.8	7.44e-01	0	45	104	0	80	10111
2026-01-23 23:48:17.02	284.88	26.68	-54.5	-63.4	3.8	7.47e-01	0	45	104	0	80	10075
2026-01-23 23:48:18.03	284.43	26.56	-54.5	-63.4	3.8	7.45e-01	0	45	104	0	80	10080
2026-01-23 23:48:19.03	284.00	26.44	-54.5	-63.3	3.8	7.46e-01	0	45	104	0	80	10041
2026-01-23 23:48:20.04	283.57	26.33	-54.5	-63.3	3.8	7.45e-01	0	45	104	0	80	10055
2026-01-23 23:48:21.05	283.14	26.21	-54.5	-63.4	3.8	7.45e-01	0	45	104	0	80	10083
2026-01-23 23:48:22.06	282.71	26.09	-54.5	-63.4	3.8	7.45e-01	0	45	104	0	80	10084
2026-01-23 23:48:23.07	282.29	25.97	-54.5	-63.4	3.8	7.44e-01	0	45	104	0	80	10076
2026-01-23 23:48:24.07	281.87	25.85	-54.5	-63.3	3.8	7.44e-01	0	45	104	0	80	10026
2026-01-23 23:48:25.08	281.46	25.72	-54.5	-63.3	3.8	7.46e-01	0	45	104	0	80	9979
2026-01-23 23:48:26.09	281.04	25.60	-54.5	-63.3	3.8	7.44e-01	0	45	104	0	80	10032
2026-01-23 23:48:27.10	280.64	25.48	-54.5	-63.3	3.8	7.46e-01	0	45	104	0	80	9964
2026-01-23 23:48:28.11	280.23	25.35	-54.5	-63.3	3.8	7.45e-01	0	45	104	0	80	10008
2026-01-23 23:48:29.12	279.83	25.23	-54.4	-63.3	3.8	7.44e-01	0	45	104	0	80	10006
2026-01-23 23:48:30.13	279.43	25.10	-54.5	-63.3	3.8	7.46e-01	0	45	104	0	80	9974
2026-01-23 23:48:31.13	279.04	24.97	-54.4	-63.3	3.8	7.45e-01	0	45	104	0	80	9968
2026-01-23 23:48:32.14	278.65	24.85	-54.4	-63.2	3.8	7.46e-01	0	45	104	0	80	9910
2026-01-23 23:48:33.15	278.26	24.72	-54.4	-63.2	3.8	7.46e-01	0	45	104	0	80	9920
2026-01-23 23:48:34.16	277.88	24.59	-54.4	-63.2	3.8	7.46e-01	0	45	104	0	80	9932
2026-01-23 23:48:35.17	277.50	24.46	-54.4	-63.2	3.8	7.45e-01	0	45	104	0	80	9934
2026-01-23 23:48:36.18	277.12	24.33	-54.4	-63.2	3.8	7.46e-01	0	45	104	0	80	9925
2026-01-23 23:48:37.19	276.75	24.20	-54.4	-63.2	3.8	7.45e-01	0	45	104	0	80	9918
2026-01-23 23:48:38.19	276.38	24.07	-54.4	-63.2	3.8	7.45e-01	0	45	104	0	80	9923
2026-01-23 23:48:39.20	276.01	23.94	-54.4	-63.2	3.8	7.46e-01	0	45	104	0	80	9914
2026-01-23 23:48:40.21	275.65	23.81	-54.4	-63.2	3.8	7.46e-01	0	45	104	0	80	9889
2026-01-23 23:48:41.22	275.29	23.68	-54.4	-63.2	3.8	7.46e-01	0	45	104	0	80	9871
2026-01-23 23:48:42.23	274.93	23.55	-54.4	-63.2	3.8	7.47e-01	0	45	104	0	80	9889
2026-01-23 23:48:43.23	274.58	23.42	-54.4	-63.2	3.8	7.44e-01	0	45	104	0	80	9852
2026-01-23 23:48:44.24	274.23	23.28	-54.3	-63.2	3.8	7.45e-01	0	45	104	0	80	9836
2026-01-23 23:48:45.25	273.89	23.15	-54.3	-63.2	3.8	7.44e-01	0	45	104	0	80	9853
2026-01-23 23:48:46.26	273.55	23.02	-54.3	-63.2	3.8	7.46e-01	0	45	104	0	80	9846
2026-01-23 23:48:47.27	273.21	22.89	-54.3	-63.2	3.8	7.46e-01	0	45	104	0	80	9853
2026-01-23 23:48:48.27	272.87	22.76	-54.3	-63.1	3.8	7.46e-01	0	45	104	0	80	9830
2026-01-23 23:48:49.28	272.54	22.62	-54.3	-63.2	3.8	7.45e-01	0	45	104	0	80	9834
2026-01-23 23:48:50.29	272.21	22.49	-54.3	-63.1	3.8	7.46e-01	0	45	104	0	80	9829
2026-01-23 23:48:51.30	271.88	22.36	-54.3	-63.2	3.8	7.45e-01	0	45	104	0	80	9853
2026-01-23 23:48:52.31	271.56	22.22	-54.3	-63.1	3.8	7.45e-01	0	45	104	0	80	9802
2026-01-23 23:48:53.31	271.24	22.09	-54.3	-63.1	3.8	7.45e-01	0	45	104	0	80	9809
2026-01-23 23:48:54.32	270.92	21.96	-54.3	-63.1	3.8	7.44e-01	0	45	104	0	80	9780
2026-01-23 23:48:55.33	270.61	21.83	-54.3	-63.1	3.8	7.44e-01	0	45	104	0	80	9785
2026-01-23 23:48:56.34	270.30	21.69	-54.3	-63.1	3.8	7.45e-01	0	45	104	0	80	9755
2026-01-23 23:48:57.35	269.99	21.56	-54.3	-63.1	3.8	7.46e-01	0	45	104	0	80	9746
2026-01-23 23:48:58.35	269.69	21.43	-54.3	-63.0	3.8	7.45e-01	0	45	104	0	80	9716
2026-01-23 23:48:59.36	269.38	21.30	-54.2	-63.1	3.8	7.44e-01	0	45	104	0	80	9743
2026-01-23 23:49:00.37	269.08	21.16	-54.2	-63.1	3.8	7.45e-01	0	45	104	0	80	9761
2026-01-23 23:49:01.37	268.79	21.03	-54.2	-63.1	3.8	7.46e-01	0	45	104	0	80	9740
2026-01-23 23:49:02.38	268.50	20.90	-54.2	-63.0	3.8	7.45e-01	0	45	104	0	80	9714
2026-01-23 23:49:03.39	268.20	20.77	-54.2	-63.1	3.8	7.45e-01	0	45	104	0	80	9744
2026-01-23 23:49:04.40	267.92	20.64	-54.2	-63.1	3.8	7.45e-01	0	45	104	0	80	9752
2026-01-23 23:49:05.41	267.63	20.50	-54.2	-63.0	3.8	7.45e-01	0	45	104	0	80	9715
2026-01-23 23:49:06.41	267.35	20.37	-54.2	-63.0	3.8	7.46e-01	0	45	104	0	80	9705
2026-01-23 23:49:07.42	267.07	20.24	-54.2	-63.0	3.8	7.45e-01	0	45	104	0	80	9699
2026-01-23 23:49:08.43	266.80	20.11	-54.2	-63.0	3.8	7.44e-01	0	45	104	0	80	9692
2026-01-23 23:49:09.44	266.52	19.98	-54.2	-63.0	3.8	7.45e-01	0	45	104	0	80	9702
2026-01-23 23:49:10.45	266.25	19.85	-54.2	-63.0	3.8	7.45e-01	0	45	104	0	80	9680
2026-01-23 23:49:11.45	265.98	19.72	-54.2	-63.0	3.8	7.45e-01	0	45	104	0	80	9668
2026-01-23 23:49:12.46	265.72	19.59	-54.2	-63.0	3.8	7.46e-01	0	45	104	0	80	9632
2026-01-23 23:49:13.47	265.45	19.46	-54.2	-63.0	3.8	7.45e-01	0	45	104	0	80	9608
2026-01-23 23:49:14.48	265.19	19.33	-54.1	-62.9	3.8	7.46e-01	0	45	104	0	80	9605
2026-01-23 23:49:15.49	264.93	19.20	-54.1	-63.0	3.8	7.45e-01	0	45	104	0	80	9641
2026-01-23 23:49:16.49	264.68	19.08	-54.1	-63.0	3.8	7.45e-01	0	45	104	0	80	9634
2026-01-23 23:49:17.50	264.43	18.95	-54.1	-63.0	3.8	7.46e-01	0	45	104	0	80	9639
2026-01-23 23:49:18.51	264.18	18.82	-54.1	-62.9	3.8	7.45e-01	0	45	104	0	80	9577
2026-01-23 23:49:19.52	263.93	18.69	-54.1	-62.9	3.8	7.44e-01	0	45	104	0	80	9578
2026-01-23 23:49:20.53	263.68	18.56	-54.1	-62.9	3.8	7.46e-01	0	45	104	0	80	9590
2026-01-23 23:49:21.53	263.44	18.44	-54.1	-62.9	3.8	7.44e-01	0	45	104	0	80	9575
2026-01-23 23:49:22.54	263.20	18.31	-54.1	-62.9	3.8	7.46e-01	0	45	104	0	80	9589
2026-01-23 23:49:23.55	262.96	18.18	-54.1	-62.9	3.8	7.45e-01	0	45	104	0	80	9581
2026-01-23 23:49:24.56	262.72	18.06	-54.1	-62.9	3.8	7.45e-01	0	45	104	0	80	9579
2026-01-23 23:49:25.57	262.49	17.93	-54.1	-62.9	3.8	7.45e-01	0	45	104	0	80	9568
2026-01-23 23:49:26.57	262.26	17.81	-54.1	-62.9	3.8	7.46e-01	0	45	104	0	80	9574
2026-01-23 23:49:27.58	262.03	17.68	-54.1	-62.9	3.8	7.45e-01	0	45	104	0	80	9559
2026-01-23 23:49:28.59	261.80	17.56	-54.1	-62.9	3.8	7.45e-01	0	45	104	0	80	9545
2026-01-23 23:49:29.60	261.57	17.43	-54.0	-62.9	3.8	7.45e-01	0	45	104	0	80	9509
2026-01-23 23:49:30.61	261.35	17.31	-54.0	-62.9	3.8	7.45e-01	0	45	104	0	80	9521
2026-01-23 23:49:31.61	261.13	17.19	-54.1	-62.9	3.8	7.46e-01	0	45	104	0	80	9549
2026-01-23 23:49:32.62	260.91	17.07	-54.0	-62.9	3.8	7.46e-01	0	45	104	0	80	9498
2026-01-23 23:49:33.63	260.70	16.94	-54.0	-62.9	3.8	7.46e-01	0	45	104	0	80	9501
2026-01-23 23:49:34.64	260.48	16.82	-54.0	-62.9	3.8	7.44e-01	0	45	104	0	80	9508
2026-01-23 23:49:35.64	260.27	16.70	-54.0	-62.8	3.8	7.44e-01	0	45	104	0	80	9492
2026-01-23 23:49:36.65	260.06	16.58	-54.0	-62.8	3.8	7.45e-01	0	45	104	0	80	9477
2026-01-23 23:49:37.66	259.85	16.46	-54.0	-62.8	3.8	7.46e-01	0	45	104	0	80	9460
2026-01-23 23:49:38.67	259.64	16.34	-54.0	-62.8	3.8	7.48e-01	0	45	104	0	80	9448
2026-01-23 23:49:39.67	259.44	16.22	-54.0	-62.8	3.8	7.44e-01	0	45	104	0	79	10024
2026-01-23 23:49:40.68	259.24	16.10	-53.9	-62.7	3.8	7.45e-01	0	45	104	0	79	9939
2026-01-23 23:49:41.69	259.04	15.98	-54.0	-62.8	3.8	7.45e-01	0	45	104	0	79	10036
2026-01-23 23:49:42.70	258.84	15.86	-54.0	-62.9	3.8	7.46e-01	0	45	104	0	79	10067
2026-01-23 23:49:43.71	258.64	15.75	-47.5	-58.3	3.8	7.46e-01	0	45	104	0	67	11852
2026-01-23 23:49:44.71	258.45	15.63	-52.5	-61.9	3.8	7.45e-01	0	45	104	0	75	11375
2026-01-23 23:49:45.72	258.25	15.51	-50.2	-60.3	3.8	7.45e-01	0	45	104	0	72	11234
2026-01-23 23:49:46.73	258.06	15.39	-53.0	-62.1	3.8	7.44e-01	0	45	104	0	76	11018
2026-01-23 23:49:47.74	257.87	15.28	-53.6	-62.6	3.8	7.46e-01	0	45	104	0	77	10908
2026-01-23 23:49:48.75	257.68	15.16	-53.9	-62.8	3.8	7.45e-01	0	45	104	0	78	10558
2026-01-23 23:49:49.75	257.50	15.05	-53.9	-62.7	3.8	7.46e-01	0	45	104	0	78	10491
2026-01-23 23:49:50.76	257.31	14.93	-53.9	-62.8	3.8	7.46e-01	0	45	104	0	78	10576
2026-01-23 23:49:51.77	257.13	14.82	-53.9	-62.7	3.8	7.45e-01	0	45	104	0	78	10523
2026-01-23 23:49:52.78	256.95	14.70	-53.9	-62.8	3.8	7.45e-01	0	45	104	0	78	10585
2026-01-23 23:49:53.78	256.77	14.59	-53.9	-62.7	3.8	7.45e-01	0	45	104	0	78	10509
2026-01-23 23:49:54.79	256.59	14.48	-53.9	-62.7	3.8	7.44e-01	0	45	104	0	78	10481
2026-01-23 23:49:55.80	256.42	14.37	-53.9	-62.7	3.8	7.45e-01	0	45	104	0	78	10502
2026-01-23 23:49:56.80	256.24	14.25	-53.9	-62.8	3.8	7.45e-01	0	45	104	0	78	10571
2026-01-23 23:49:57.81	256.07	14.14	-53.9	-62.7	3.8	7.46e-01	0	45	104	0	78	10499
2026-01-23 23:49:58.82	255.90	14.03	-53.9	-62.8	3.8	7.45e-01	0	45	104	0	78	10545
2026-01-23 23:49:59.83	255.73	13.92	-53.9	-62.7	3.8	7.45e-01	0	45	104	0	78	10527
2026-01-23 23:50:00.84	255.56	13.81	-53.9	-62.8	3.8	7.46e-01	0	45	104	0	78	10542
2026-01-23 23:50:01.85	255.39	13.70	-53.9	-62.7	3.8	7.45e-01	0	45	104	0	78	10526
2026-01-23 23:50:02.85	255.23	13.59	-53.9	-62.7	3.8	7.44e-01	0	45	104	0	78	10498
2026-01-23 23:50:03.86	255.06	13.48	-53.9	-62.7	3.8	7.45e-01	0	45	104	0	78	10490
2026-01-23 23:50:04.87	254.90	13.37	-53.9	-62.7	3.8	7.45e-01	0	45	104	0	78	10488
2026-01-23 23:50:05.88	254.74	13.26	-53.9	-62.7	3.8	7.47e-01	0	45	104	0	78	10446
2026-01-23 23:50:06.89	254.58	13.16	-53.8	-62.7	3.8	7.45e-01	0	45	104	0	78	10462
2026-01-23 23:50:07.89	254.42	13.05	-53.9	-62.7	3.8	7.44e-01	0	45	104	0	78	10425
2026-01-23 23:50:08.90	254.27	12.94	-53.9	-62.7	3.8	7.46e-01	0	45	104	0	78	10456
2026-01-23 23:50:09.91	254.11	12.84	-53.8	-62.7	3.8	7.44e-01	0	45	104	0	78	10434
2026-01-23 23:50:10.92	253.96	12.73	-53.8	-62.6	3.8	7.44e-01	0	45	104	0	78	10379
2026-01-23 23:50:11.93	253.80	12.62	-53.8	-62.7	3.8	7.45e-01	0	45	104	0	78	10432
2026-01-23 23:50:12.93	253.65	12.52	-53.8	-62.6	3.8	7.45e-01	0	45	104	0	78	10399
2026-01-23 23:50:13.94	253.50	12.42	-53.8	-62.6	3.8	7.46e-01	0	45	104	0	78	10392
2026-01-23 23:50:14.95	253.35	12.31	-53.8	-62.6	3.8	7.45e-01	0	45	104	0	78	10405
2026-01-23 23:50:15.96	253.21	12.21	-53.8	-62.6	3.8	7.45e-01	0	45	104	0	78	10400
2026-01-23 23:50:16.97	253.06	12.10	-53.8	-62.6	3.8	7.45e-01	0	45	104	0	78	10388
2026-01-23 23:50:17.97	252.92	12.00	-53.8	-62.6	3.8	7.47e-01	0	45	104	0	78	10351
2026-01-23 23:50:18.98	252.77	11.90	-53.8	-62.6	3.8	7.45e-01	0	45	104	0	78	10345
2026-01-23 23:50:19.99	252.63	11.80	-53.8	-62.6	3.8	7.46e-01	0	45	104	0	78	10376
2026-01-23 23:50:21.00	252.49	11.69	-53.8	-62.6	3.8	7.46e-01	0	45	104	0	78	10359
2026-01-23 23:50:22.01	252.35	11.59	-53.7	-62.5	3.8	7.44e-01	0	45	104	0	78	10293
2026-01-23 23:50:23.01	252.21	11.49	-53.7	-62.6	3.8	7.45e-01	0	45	104	0	78	10297
2026-01-23 23:50:24.02	252.07	11.39	-53.7	-62.6	3.8	7.44e-01	0	45	104	0	78	10313
2026-01-23 23:50:25.03	251.94	11.29	-53.7	-62.6	3.8	7.45e-01	0	45	104	0	78	10351
2026-01-23 23:50:26.04	251.80	11.19	-53.7	-62.6	3.8	7.45e-01	0	45	104	0	78	10296
2026-01-23 23:50:27.05	251.67	11.09	-53.7	-62.5	3.8	7.45e-01	0	45	104	0	78	10269
2026-01-23 23:50:28.06	251.53	10.99	-53.7	-62.6	3.8	7.45e-01	0	45	104	0	78	10322
2026-01-23 23:50:29.07	251.40	10.89	-53.7	-62.5	3.8	7.46e-01	0	45	104	0	78	10284
2026-01-23 23:50:30.07	251.27	10.80	-53.7	-62.5	3.8	7.44e-01	0	45	104	0	78	10239
2026-01-23 23:50:31.08	251.14	10.70	-53.7	-62.5	3.8	7.45e-01	0	45	104	0	78	10258
2026-01-23 23:50:32.09	251.01	10.60	-53.7	-62.5	3.8	7.47e-01	0	45	104	0	78	10239
2026-01-23 23:50:33.09	250.89	10.51	-53.7	-62.5	3.8	7.46e-01	0	45	104	0	78	10243
2026-01-23 23:50:34.10	250.76	10.41	-53.6	-62.5	3.8	7.44e-01	0	45	104	0	78	10207
2026-01-23 23:50:35.11	250.63	10.31	-53.6	-62.5	3.8	7.44e-01	0	45	104	0	78	10186
2026-01-23 23:50:36.12	250.51	10.22	-53.7	-62.5	3.8	7.46e-01	0	45	104	0	78	10220
2026-01-23 23:50:37.13	250.39	10.12	-53.7	-62.5	3.8	7.45e-01	0	45	104	0	78	10195
2026-01-23 23:50:38.14	250.26	10.03	-53.6	-62.4	3.8	7.45e-01	0	45	104	0	78	10164
2026-01-23 23:50:39.14	250.14	9.93	-53.6	-62.5	3.8	7.46e-01	0	45	104	0	78	10188
2026-01-23 23:50:40.15	250.02	9.84	-53.6	-62.4	3.8	7.44e-01	0	45	104	0	78	10148
2026-01-23 23:50:41.16	249.90	9.74	-53.6	-62.5	3.8	7.43e-01	0	45	104	0	78	10187
2026-01-23 23:50:42.17	249.78	9.65	-53.6	-62.4	3.8	7.46e-01	0	45	104	0	78	10125
2026-01-23 23:50:43.18	249.67	9.56	-53.6	-62.4	3.8	7.44e-01	0	45	104	0	78	10096
2026-01-23 23:50:44.19	249.55	9.46	-53.6	-62.4	3.8	7.44e-01	0	45	104	0	78	10173
2026-01-23 23:50:45.19	249.44	9.37	-53.6	-62.4	3.8	7.47e-01	0	45	104	0	78	10145
2026-01-23 23:50:46.20	249.32	9.28	-53.5	-62.3	3.8	7.45e-01	0	45	104	0	78	10038
2026-01-23 23:50:47.21	249.21	9.19	-53.5	-62.3	3.8	7.46e-01	0	45	104	0	78	10042
2026-01-23 23:50:48.22	249.09	9.10	-53.6	-62.4	3.8	7.46e-01	0	45	104	0	78	10132
2026-01-23 23:50:49.23	248.98	9.01	-53.6	-62.4	3.8	7.46e-01	0	45	104	0	78	10060
2026-01-23 23:50:50.24	248.87	8.92	-53.4	-62.3	3.8	7.46e-01	0	45	104	0	78	9956
2026-01-23 23:50:51.24	248.76	8.83	-53.5	-62.3	3.8	7.45e-01	0	45	104	0	78	10006
2026-01-23 23:50:52.25	248.65	8.74	-53.5	-62.3	3.8	7.46e-01	0	45	104	0	78	10030
2026-01-23 23:50:53.26	248.54	8.65	-53.5	-62.3	3.8	7.45e-01	0	45	104	0	78	10049
2026-01-23 23:50:54.27	248.44	8.56	-53.3	-62.2	3.8	7.46e-01	0	45	104	0	78	9855
2026-01-23 23:50:55.28	248.33	8.47	-53.4	-62.2	3.8	7.46e-01	0	45	104	0	78	9911
2026-01-23 23:50:56.29	248.22	8.38	-53.5	-62.3	3.8	7.45e-01	0	45	104	0	78	10005
2026-01-23 23:50:57.29	248.12	8.29	-53.4	-62.3	3.8	7.45e-01	0	45	104	0	78	9961
2026-01-23 23:50:58.30	248.01	8.20	-53.3	-62.1	3.8	7.44e-01	0	45	104	0	78	9733
2026-01-23 23:50:59.31	247.91	8.12	-53.3	-62.2	3.8	7.45e-01	0	45	104	0	78	9837
2026-01-23 23:51:00.31	247.81	8.03	-53.4	-62.2	3.8	7.46e-01	0	45	104	0	78	9885
2026-01-23 23:51:01.32	247.71	7.94	-53.4	-62.2	3.8	7.43e-01	0	45	104	0	78	9853
2026-01-23 23:51:02.33	247.60	7.86	-53.2	-62.0	3.8	7.45e-01	0	45	104	0	78	9636
2026-01-23 23:51:03.34	247.50	7.77	-53.2	-62.1	3.8	7.45e-01	0	45	104	0	78	9746
2026-01-23 23:51:04.34	247.40	7.68	-53.3	-62.1	3.8	7.47e-01	0	45	104	0	78	9799
2026-01-23 23:51:05.35	247.31	7.60	-53.3	-62.1	3.8	7.46e-01	0	45	104	0	78	9732
2026-01-23 23:51:06.36	247.21	7.51	-53.1	-62.0	3.8	7.47e-01	0	45	104	0	78	9607
2026-01-23 23:51:07.37	247.11	7.43	-53.2	-62.0	3.8	7.46e-01	0	45	104	0	78	9632
2026-01-23 23:51:08.37	247.01	7.34	-53.3	-62.1	3.8	7.45e-01	0	45	104	0	78	9728
2026-01-23 23:51:09.38	246.92	7.26	-53.2	-62.0	3.8	7.46e-01	0	44	104	0	78	9669
2026-01-23 23:51:10.39	246.82	7.18	-53.1	-61.9	3.8	7.45e-01	0	45	104	0	78	9576
2026-01-23 23:51:11.40	246.73	7.09	-53.1	-62.0	3.8	7.45e-01	0	45	104	0	78	9656
2026-01-23 23:51:12.41	246.63	7.01	-53.2	-62.0	3.8	7.46e-01	0	45	104	0	78	9663
2026-01-23 23:51:13.42	246.54	6.93	-53.1	-62.0	3.8	7.44e-01	0	45	104	0	78	9613
2026-01-23 23:51:14.43	246.45	6.84	-53.0	-61.9	3.8	7.46e-01	0	45	104	0	78	9524
2026-01-23 23:51:15.44	246.36	6.76	-53.1	-61.9	3.8	7.46e-01	0	45	104	0	78	9530
2026-01-23 23:51:16.44	246.27	6.68	-53.1	-61.9	3.8	7.46e-01	0	44	104	0	78	9604
2026-01-23 23:51:17.45	246.18	6.60	-53.0	-61.9	3.8	7.44e-01	0	45	104	0	78	9528
2026-01-23 23:51:18.46	246.09	6.51	-52.9	-61.7	3.8	7.46e-01	0	45	104	0	77	9932
2026-01-23 23:51:19.47	246.00	6.43	-53.0	-61.8	3.8	7.45e-01	0	45	104	0	77	9965
2026-01-23 23:51:20.48	245.91	6.35	-53.0	-61.9	3.8	7.46e-01	0	45	104	0	77	10077
2026-01-23 23:51:21.49	245.82	6.27	-52.9	-61.7	3.8	7.45e-01	0	45	104	0	77	9916
2026-01-23 23:51:22.49	245.73	6.19	-52.9	-61.7	3.8	7.46e-01	0	45	104	0	77	9908
2026-01-23 23:51:23.50	245.65	6.11	-52.9	-61.8	3.8	7.44e-01	0	45	104	0	77	9960
2026-01-23 23:51:24.51	245.56	6.03	-53.0	-61.8	3.8	7.45e-01	0	45	104	0	77	9985
2026-01-23 23:51:25.52	245.47	5.95	-52.9	-61.7	3.8	7.47e-01	0	45	104	0	77	9890
2026-01-23 23:51:26.53	245.39	5.87	-52.8	-61.7	3.8	7.45e-01	0	45	104	0	77	9857
2026-01-23 23:51:27.54	245.31	5.79	-52.9	-61.7	3.8	7.45e-01	0	45	104	0	77	9862
2026-01-23 23:51:28.55	245.22	5.71	-52.9	-61.7	3.8	7.46e-01	0	45	104	0	77	9944
2026-01-23 23:51:29.55	245.14	5.64	-52.8	-61.6	3.8	7.46e-01	0	45	104	0	77	9822
2026-01-23 23:51:30.56	245.06	5.56	-52.8	-61.6	3.8	7.45e-01	0	45	104	0	77	9771
2026-01-23 23:51:31.57	244.98	5.48	-52.8	-61.7	3.8	7.45e-01	0	45	104	0	77	9834
2026-01-23 23:51:32.58	244.89	5.40	-52.9	-61.7	3.8	7.46e-01	0	44	104	0	77	9864
2026-01-23 23:51:33.59	244.81	5.32	-52.8	-61.6	3.8	7.45e-01	0	44	104	0	77	9798
2026-01-23 23:51:34.59	244.73	5.25	-52.7	-61.6	3.8	7.45e-01	0	44	104	0	77	9749
2026-01-23 23:51:35.60	244.65	5.17	-52.8	-61.6	3.8	7.46e-01	0	45	104	0	77	9802
2026-01-23 23:51:36.61	244.58	5.09	-52.8	-61.6	3.8	7.45e-01	0	45	104	0	77	9827
2026-01-23 23:51:37.62	244.50	5.02	-52.9	-61.7	3.8	7.44e-01	0	45	104	0	77	9877
2026-01-23 23:51:38.63	244.42	4.94	-53.5	-62.4	3.8	7.45e-01	0	44	104	0	77	10703
2026-01-23 23:51:39.63	244.34	4.87	-53.9	-62.8	3.8	7.47e-01	0	44	104	0	78	10555
2026-01-23 23:51:40.64	244.27	4.79	-54.2	-63.0	3.8	7.45e-01	0	45	104	0	78	10854
2026-01-23 23:51:41.65	244.19	4.71	-54.3	-63.1	3.8	7.44e-01	0	45	104	0	79	10404
2026-01-23 23:51:42.66	244.11	4.64	-54.5	-63.3	3.8	7.48e-01	0	45	104	0	79	10553
2026-01-23 23:51:43.67	244.04	4.56	-54.6	-63.4	3.8	7.46e-01	0	45	104	0	79	10775
2026-01-23 23:51:44.67	243.96	4.49	-54.7	-63.5	3.8	7.47e-01	0	45	104	0	80	10234
2026-01-23 23:51:45.69	243.89	4.41	-54.8	-63.6	3.8	7.45e-01	0	44	104	0	80	10324
2026-01-23 23:51:46.69	243.82	4.34	-54.9	-63.7	3.8	7.45e-01	0	44	104	0	80	10439
2026-01-23 23:51:47.70	243.74	4.27	-54.9	-63.8	3.8	7.47e-01	0	44	104	0	80	10556
2026-01-23 23:51:48.71	243.67	4.19	-55.0	-63.8	3.8	7.47e-01	0	45	104	0	80	10619
2026-01-23 23:51:49.72	243.60	4.12	-55.0	-63.8	3.8	7.46e-01	0	44	104	0	80	10611
2026-01-23 23:51:50.73	243.52	4.05	-55.0	-63.9	3.8	7.46e-01	0	45	104	0	80	10686
2026-01-23 23:51:51.73	243.45	3.97	-55.0	-63.9	3.8	7.45e-01	0	45	104	0	80	10667
2026-01-23 23:51:52.75	243.38	3.90	-55.1	-63.9	3.8	7.43e-01	0	44	104	0	80	10713
2026-01-23 23:51:53.75	243.31	3.83	-55.1	-63.9	3.8	7.45e-01	0	45	104	0	80	10716
2026-01-23 23:51:54.76	243.24	3.75	-55.1	-63.9	3.8	7.44e-01	0	45	104	0	80	10738
2026-01-23 23:51:55.77	243.17	3.68	-55.1	-63.9	3.8	7.45e-01	0	44	104	0	80	10730
2026-01-23 23:51:56.78	243.10	3.61	-55.1	-63.9	3.8	7.45e-01	0	45	104	0	80	10708
2026-01-23 23:51:57.79	243.04	3.54	-55.1	-63.9	3.8	7.45e-01	0	45	104	0	80	10692
2026-01-23 23:51:58.80	242.97	3.47	-55.1	-63.9	3.8	7.46e-01	0	45	104	0	80	10682
2026-01-23 23:51:59.81	242.90	3.40	-55.0	-63.9	3.8	7.45e-01	0	44	104	0	80	10672
2026-01-23 23:52:00.82	242.83	3.32	-55.0	-63.8	3.8	7.45e-01	0	44	104	0	80	10561
2026-01-23 23:52:01.83	242.77	3.25	-54.9	-63.8	3.8	7.46e-01	0	44	104	0	80	10539
2026-01-23 23:52:02.84	242.70	3.18	-54.9	-63.7	3.8	7.45e-01	0	45	104	0	80	10476
2026-01-23 23:52:03.85	242.63	3.11	-54.8	-63.7	3.8	7.45e-01	0	44	104	0	80	10436
2026-01-23 23:52:04.86	242.57	3.04	-54.8	-63.7	3.8	7.45e-01	0	44	104	0	80	10414
2026-01-23 23:52:05.87	242.50	2.97	-54.8	-63.6	3.8	7.44e-01	0	45	104	0	80	10387
2026-01-23 23:52:06.87	242.44	2.90	-54.8	-63.6	3.8	7.46e-01	0	45	104	0	80	10349
2026-01-23 23:52:07.88	242.37	2.83	-54.8	-63.6	3.8	7.44e-01	0	45	104	0	80	10409
2026-01-23 23:52:08.89	242.31	2.76	-54.8	-63.6	3.8	7.45e-01	0	45	104	0	80	10356
2026-01-23 23:52:09.90	242.25	2.69	-54.8	-63.6	3.8	7.45e-01	0	45	104	0	80	10323
2026-01-23 23:52:10.91	242.18	2.62	-54.7	-63.6	3.8	7.45e-01	0	45	104	0	80	10326
2026-01-23 23:52:11.92	242.12	2.56	-54.7	-63.6	3.8	7.46e-01	0	45	104	0	80	10336
2026-01-23 23:52:12.93	242.06	2.49	-54.7	-63.5	3.8	7.47e-01	0	45	104	0	80	10251
2026-01-23 23:52:13.93	242.00	2.42	-54.7	-63.5	3.8	7.44e-01	0	45	104	0	80	10256
2026-01-23 23:52:14.94	241.94	2.35	-54.7	-63.5	3.8	7.46e-01	0	45	104	0	80	10250
2026-01-23 23:52:15.95	241.87	2.28	-54.7	-63.5	3.8	7.45e-01	0	44	104	0	80	10283
2026-01-23 23:52:16.96	241.81	2.21	-54.7	-63.5	3.8	7.45e-01	0	45	104	0	80	10196
2026-01-23 23:52:17.97	241.75	2.15	-54.7	-63.5	3.8	7.47e-01	0	45	104	0	80	10233
2026-01-23 23:52:18.97	241.69	2.08	-54.7	-63.5	3.8	7.47e-01	0	45	104	0	80	10231
2026-01-23 23:52:19.98	241.63	2.01	-54.7	-63.5	3.8	7.44e-01	0	45	104	0	80	10247
2026-01-23 23:52:20.99	241.57	1.94	-54.8	-63.6	3.8	7.45e-01	0	45	104	0	80	10348

#Closed at: 2026-01-23 23:52:21
#Recorded file [0 MB]: D:/lorett/data/31041_260124_024228.dat