passes_logs/2026/01/23/R3.2S_Murmansk/R3.2S_Murmansk__20260123_071955_NOAA_20_JPSS-1_rec.log

#Pass ID: 20260123_071955_NOAA 20 (JPSS-1)
#Satellite: NOAA 20 (JPSS-1)
#Configuration: NOAA 20
#almurnet v.1.7.20251203
#Start time: 2026-01-23 07:19:54

#Version: 2.2.20231116
#Station: R3.2S_Murmansk
#Location: 33.079688 lon 68.888172 lat
#TLE: 1 43013U 17073A   26022.44900781  .00000193  00000+0  11233-3 0  9999
#TLE: 2 43013  98.7645 323.3100 0001197  28.8413 331.2829 14.19538802423792

#Time	Az	El	Level	Level2	SNR	BER	BlckErr	Temp	State	Recorded	gain1	gain2
2026-01-23 07:19:54.76	101.82	1.97	-54.5	-69.5	3.8	1.49e+00	0	41	0	0	79	21607
2026-01-23 07:19:55.77	101.78	2.03	-54.7	-69.7	3.8	1.49e+00	0	41	104	0	79	22181
2026-01-23 07:19:56.77	101.73	2.09	-54.6	-69.7	3.8	1.49e+00	0	41	104	0	79	22135
2026-01-23 07:19:57.78	101.68	2.15	-54.6	-69.7	3.8	1.49e+00	0	41	104	0	79	22012
2026-01-23 07:19:58.79	101.64	2.22	-54.6	-69.6	3.8	1.49e+00	0	41	104	0	79	21945
2026-01-23 07:19:59.80	101.59	2.28	-54.6	-69.6	3.8	1.49e+00	0	41	104	0	79	21857
2026-01-23 07:20:00.81	101.54	2.34	-54.6	-69.6	3.8	1.49e+00	0	41	104	0	79	21807
2026-01-23 07:20:01.82	101.50	2.40	-54.5	-69.5	3.8	1.49e+00	0	41	104	0	79	21679
2026-01-23 07:20:02.83	101.45	2.46	-54.5	-69.5	3.8	1.49e+00	0	41	104	0	79	21531
2026-01-23 07:20:03.84	101.40	2.52	-54.4	-69.4	3.8	1.49e+00	0	41	104	0	79	21400
2026-01-23 07:20:04.85	101.35	2.59	-54.3	-69.3	3.8	1.49e+00	0	41	104	0	79	21157
2026-01-23 07:20:05.86	101.30	2.65	-54.3	-69.3	3.8	1.49e+00	0	41	104	0	79	21023
2026-01-23 07:20:06.86	101.26	2.71	-54.2	-69.2	3.8	1.49e+00	0	41	104	0	79	20855
2026-01-23 07:20:07.87	101.21	2.77	-54.1	-69.1	3.8	1.49e+00	0	41	104	0	79	20660
2026-01-23 07:20:08.88	101.16	2.84	-54.0	-69.0	3.8	1.49e+00	0	41	104	0	79	20476
2026-01-23 07:20:09.89	101.11	2.90	-53.9	-68.9	3.8	1.49e+00	0	41	104	0	79	20250
2026-01-23 07:20:10.90	101.06	2.96	-53.8	-68.8	3.8	1.49e+00	0	41	104	0	79	20027
2026-01-23 07:20:11.90	101.01	3.02	-53.7	-68.7	3.8	1.49e+00	0	41	104	0	79	19734
2026-01-23 07:20:12.91	100.96	3.09	-53.6	-68.6	3.8	1.49e+00	0	41	104	0	79	19424
2026-01-23 07:20:13.92	100.91	3.15	-53.6	-68.6	3.8	1.49e+00	0	42	104	0	79	19400
2026-01-23 07:20:14.93	100.86	3.21	-53.5	-68.5	3.8	1.49e+00	0	42	104	0	79	19266
2026-01-23 07:20:15.94	100.81	3.28	-53.4	-68.4	3.8	1.49e+00	0	42	104	0	77	21303
2026-01-23 07:20:16.95	100.76	3.34	-53.3	-68.2	3.8	1.49e+00	0	42	104	0	77	20996
2026-01-23 07:20:17.96	100.71	3.40	-53.2	-68.1	3.8	1.49e+00	0	42	104	0	77	20760
2026-01-23 07:20:18.96	100.66	3.47	-53.0	-67.9	3.8	1.49e+00	0	41	104	0	77	20287
2026-01-23 07:20:19.97	100.61	3.53	-52.9	-67.8	3.8	1.49e+00	0	41	104	0	77	20000
2026-01-23 07:20:20.98	100.56	3.59	-52.7	-67.7	3.8	1.49e+00	0	42	104	0	76	20818
2026-01-23 07:20:21.99	100.50	3.66	-52.5	-67.4	3.8	1.49e+00	0	42	104	0	76	20272
2026-01-23 07:20:22.99	100.45	3.72	-52.4	-66.7	3.8	1.49e+00	0	42	104	0	76	18716
2026-01-23 07:20:24.00	100.40	3.79	-52.4	-66.6	3.8	1.49e+00	0	42	104	0	76	18445
2026-01-23 07:20:25.01	100.35	3.85	-52.3	-66.0	3.8	1.49e+00	0	42	104	0	76	17276
2026-01-23 07:20:26.02	100.29	3.92	-52.3	-66.0	3.8	1.49e+00	0	42	104	0	76	17095
2026-01-23 07:20:27.03	100.24	3.98	-52.3	-65.7	3.9	1.49e+00	0	42	104	0	75	17605
2026-01-23 07:20:28.04	100.19	4.05	-52.3	-65.7	3.8	1.49e+00	0	42	104	0	75	17606
2026-01-23 07:20:29.04	100.13	4.11	-52.3	-65.4	3.9	1.49e+00	0	42	104	0	75	16891
2026-01-23 07:20:30.05	100.08	4.18	-52.2	-64.6	4.0	1.48e+00	0	42	104	0	75	15421
2026-01-23 07:20:31.06	100.03	4.24	-52.1	-63.3	4.3	1.41e+00	17	42	0	0	75	13387
2026-01-23 07:20:32.07	99.97	4.31	-52.0	-62.1	4.8	8.75e-01	0	42	0	1048576	75	11552
2026-01-23 07:20:33.08	99.92	4.37	-51.7	-60.0	6.1	3.78e-01	0	42	0	3145728	74	9673
2026-01-23 07:20:34.09	99.86	4.44	-51.5	-58.8	7.2	1.92e-01	0	42	0	5242880	74	8442
2026-01-23 07:20:35.10	99.81	4.50	-51.3	-57.7	8.2	6.86e-02	0	42	0	7340032	74	7445
2026-01-23 07:20:36.10	99.75	4.57	-50.7	-55.9	10.1	1.23e-02	0	42	0	8388608	73	6418
2026-01-23 07:20:37.11	99.70	4.64	-50.7	-55.9	10.2	5.16e-03	0	42	0	10485760	73	6380
2026-01-23 07:20:38.12	99.64	4.70	-50.3	-54.7	11.5	3.38e-03	0	42	0	12582912	72	5857
2026-01-23 07:20:39.13	99.59	4.77	-50.3	-54.6	11.6	1.05e-03	0	42	0	14680064	71	6178
2026-01-23 07:20:40.14	99.53	4.83	-50.2	-54.5	11.8	4.37e-04	0	42	0	16777216	71	6071
2026-01-23 07:20:41.14	99.47	4.90	-50.3	-54.9	11.4	6.83e-04	0	42	0	17825792	71	6364
2026-01-23 07:20:42.15	99.42	4.97	-50.3	-54.8	11.4	9.32e-04	0	42	0	19922944	71	6310
2026-01-23 07:20:43.16	99.36	5.03	-50.7	-55.7	10.5	3.76e-03	0	42	0	22020096	71	6996
2026-01-23 07:20:44.17	99.30	5.10	-50.4	-54.8	11.5	8.84e-04	0	42	0	24117248	71	6322
2026-01-23 07:20:45.18	99.24	5.17	-50.3	-54.6	11.7	1.41e-03	0	42	0	26214400	71	6136
2026-01-23 07:20:46.18	99.19	5.24	-51.9	-61.6	4.9	6.68e-01	1	42	0	27262976	74	11646
2026-01-23 07:20:47.19	99.13	5.30	-48.9	-51.6	14.9	0.00e+00	0	42	0	29360128	68	5187
2026-01-23 07:20:48.20	99.07	5.37	-52.4	-66.3	3.8	2.73e-01	0	42	104	30408704	75	18885
2026-01-23 07:20:49.21	99.01	5.44	-48.9	-51.6	14.7	1.62e-01	0	42	0	30408704	69	4917
2026-01-23 07:20:50.22	98.95	5.51	-48.4	-50.8	15.7	0.00e+00	0	42	0	32505856	68	4744
2026-01-23 07:20:51.22	98.89	5.57	-48.4	-50.9	15.6	0.00e+00	0	42	0	33554432	68	4801
2026-01-23 07:20:52.23	98.83	5.64	-48.6	-51.3	15.3	0.00e+00	0	42	0	35651584	68	4986
2026-01-23 07:20:53.24	98.77	5.71	-48.3	-50.8	15.6	0.00e+00	0	42	0	37748736	67	5028
2026-01-23 07:20:54.25	98.71	5.78	-48.5	-51.1	15.3	0.00e+00	0	42	0	39845888	67	5196
2026-01-23 07:20:55.26	98.65	5.85	-48.6	-51.2	15.3	0.00e+00	0	42	0	41943040	67	5254
2026-01-23 07:20:56.26	98.59	5.92	-48.5	-51.1	15.2	0.00e+00	0	42	0	42991616	67	5218
2026-01-23 07:20:57.27	98.53	5.99	-48.0	-50.4	16.1	0.00e+00	0	42	0	45088768	67	4765
2026-01-23 07:20:58.28	98.47	6.05	-48.0	-50.4	16.1	0.00e+00	0	42	0	47185920	67	4767
2026-01-23 07:20:59.29	98.41	6.12	-47.9	-50.2	16.3	0.00e+00	0	42	0	49283072	67	4698
2026-01-23 07:21:00.30	98.34	6.19	-47.8	-50.1	16.4	0.00e+00	0	42	0	51380224	67	4618
2026-01-23 07:21:01.30	98.28	6.26	-47.9	-50.2	16.3	0.00e+00	0	42	0	52428800	67	4661
2026-01-23 07:21:02.31	98.22	6.33	-47.8	-50.0	16.4	0.00e+00	0	42	0	54525952	66	4864
2026-01-23 07:21:03.32	98.15	6.40	-47.9	-50.2	16.3	0.00e+00	0	42	0	56623104	66	4938
2026-01-23 07:21:04.33	98.09	6.47	-47.9	-50.1	16.3	0.00e+00	0	42	0	58720256	66	4924
2026-01-23 07:21:05.33	98.03	6.54	-47.8	-50.0	16.5	0.00e+00	0	42	0	60817408	66	4849
2026-01-23 07:21:06.34	97.96	6.61	-47.9	-50.1	16.4	0.00e+00	0	42	0	61865984	66	4897
2026-01-23 07:21:07.35	97.90	6.68	-47.9	-50.1	16.4	0.00e+00	0	42	0	63963136	66	4920
2026-01-23 07:21:08.36	97.83	6.75	-47.7	-49.9	16.6	0.00e+00	0	42	0	66060288	66	4789
2026-01-23 07:21:09.37	97.77	6.82	-47.7	-49.9	16.6	0.00e+00	0	42	0	68157440	66	4791
2026-01-23 07:21:10.37	97.70	6.89	-47.8	-50.0	16.6	0.00e+00	0	42	0	70254592	66	4839
2026-01-23 07:21:11.38	97.64	6.97	-47.9	-50.1	16.4	0.00e+00	0	42	0	71303168	66	4898
2026-01-23 07:21:12.39	97.57	7.04	-47.8	-50.0	16.6	0.00e+00	0	42	0	73400320	66	4858
2026-01-23 07:21:13.40	97.51	7.11	-47.8	-50.0	16.6	0.00e+00	0	42	0	75497472	66	4836
2026-01-23 07:21:14.41	97.44	7.18	-47.8	-50.1	16.5	0.00e+00	0	42	0	77594624	66	4872
2026-01-23 07:21:15.42	97.37	7.25	-47.9	-50.1	16.5	0.00e+00	0	42	0	79691776	66	4884
2026-01-23 07:21:16.42	97.31	7.32	-47.7	-49.9	16.7	0.00e+00	0	43	0	80740352	66	4780
2026-01-23 07:21:17.43	97.24	7.39	-47.8	-50.0	16.6	0.00e+00	0	42	0	82837504	66	4851
2026-01-23 07:21:18.44	97.17	7.47	-48.0	-50.2	16.4	0.00e+00	0	42	0	84934656	66	4967
2026-01-23 07:21:19.45	97.10	7.54	-47.9	-50.0	16.6	0.00e+00	0	42	0	87031808	66	4866
2026-01-23 07:21:20.45	97.03	7.61	-47.9	-50.2	16.4	0.00e+00	0	42	0	89128960	66	4946
2026-01-23 07:21:21.46	96.96	7.68	-47.9	-50.1	16.5	0.00e+00	0	43	0	91226112	66	4922
2026-01-23 07:21:22.47	96.89	7.76	-47.8	-49.9	16.7	0.00e+00	0	43	0	92274688	66	4803
2026-01-23 07:21:23.48	96.82	7.83	-47.8	-49.9	16.7	0.00e+00	0	43	0	94371840	66	4787
2026-01-23 07:21:24.49	96.75	7.90	-47.8	-49.9	16.7	0.00e+00	0	43	0	96468992	66	4793
2026-01-23 07:21:25.49	96.68	7.98	-47.9	-50.0	16.6	0.00e+00	0	43	0	98566144	66	4865
2026-01-23 07:21:26.50	96.61	8.05	-47.8	-49.9	16.7	0.00e+00	0	42	0	99614720	66	4813
2026-01-23 07:21:27.51	96.54	8.12	-47.7	-49.8	16.8	0.00e+00	0	43	0	101711872	66	4753
2026-01-23 07:21:28.52	96.47	8.20	-47.8	-49.9	16.8	0.00e+00	0	43	0	103809024	66	4783
2026-01-23 07:21:29.53	96.40	8.27	-47.5	-49.6	17.1	0.00e+00	0	42	0	105906176	66	4610
2026-01-23 07:21:30.53	96.32	8.35	-47.8	-49.9	16.7	0.00e+00	0	42	0	108003328	66	4796
2026-01-23 07:21:31.54	96.25	8.42	-47.7	-49.8	16.8	0.00e+00	0	43	0	109051904	66	4737
2026-01-23 07:21:32.55	96.18	8.50	-47.6	-49.7	17.0	0.00e+00	0	43	0	111149056	66	4663
2026-01-23 07:21:33.55	96.10	8.57	-47.8	-49.9	16.8	0.00e+00	0	42	0	113246208	66	4783
2026-01-23 07:21:34.57	96.03	8.64	-47.8	-50.0	16.7	0.00e+00	0	43	0	115343360	66	4834
2026-01-23 07:21:35.57	95.96	8.72	-47.8	-49.9	16.8	0.00e+00	0	43	0	117440512	66	4807
2026-01-23 07:21:36.58	95.88	8.79	-47.6	-49.7	17.0	0.00e+00	0	42	0	119537664	66	4676
2026-01-23 07:21:37.59	95.81	8.87	-47.6	-49.7	17.0	0.00e+00	0	43	0	120586240	66	4686
2026-01-23 07:21:38.60	95.73	8.95	-47.6	-49.6	17.1	0.00e+00	0	43	0	122683392	66	4631
2026-01-23 07:21:39.61	95.65	9.02	-47.4	-49.3	17.4	0.00e+00	0	43	0	124780544	66	4489
2026-01-23 07:21:40.62	95.58	9.10	-47.6	-49.6	17.1	0.00e+00	0	43	0	126877696	66	4641
2026-01-23 07:21:41.62	95.50	9.17	-47.4	-49.4	17.3	0.00e+00	0	43	0	127926272	66	4525
2026-01-23 07:21:42.63	95.42	9.25	-47.5	-49.4	17.3	0.00e+00	0	42	0	130023424	66	4533
2026-01-23 07:21:43.64	95.35	9.33	-47.5	-49.5	17.2	0.00e+00	0	42	0	132120576	66	4584
2026-01-23 07:21:44.64	95.27	9.40	-47.4	-49.4	17.3	0.00e+00	0	42	0	134217728	66	4517
2026-01-23 07:21:45.65	95.19	9.48	-47.4	-49.4	17.3	0.00e+00	0	43	0	136314880	66	4518
2026-01-23 07:21:46.66	95.11	9.56	-47.3	-49.2	17.5	0.00e+00	0	43	0	138412032	66	4430
2026-01-23 07:21:47.67	95.03	9.63	-47.3	-49.3	17.6	0.00e+00	0	43	0	139460608	66	4447
2026-01-23 07:21:48.68	94.95	9.71	-47.4	-49.3	17.5	0.00e+00	0	43	0	141557760	66	4463
2026-01-23 07:21:49.68	94.87	9.79	-47.3	-49.3	17.6	0.00e+00	0	43	0	143654912	66	4442
2026-01-23 07:21:50.69	94.79	9.87	-47.1	-48.9	17.9	0.00e+00	0	43	0	145752064	65	4513
2026-01-23 07:21:51.70	94.71	9.95	-47.2	-49.1	17.7	0.00e+00	0	43	0	147849216	65	4606
2026-01-23 07:21:52.71	94.63	10.02	-47.2	-49.0	17.8	0.00e+00	0	43	0	148897792	65	4589
2026-01-23 07:21:53.72	94.54	10.10	-47.2	-49.1	17.8	0.00e+00	0	43	0	150994944	65	4608
2026-01-23 07:21:54.72	94.46	10.18	-47.1	-49.0	17.9	0.00e+00	0	43	0	153092096	65	4554
2026-01-23 07:21:55.73	94.38	10.26	-47.1	-48.9	17.9	0.00e+00	0	43	0	155189248	65	4532
2026-01-23 07:21:56.74	94.29	10.34	-46.9	-48.7	18.1	0.00e+00	0	43	0	156237824	65	4407
2026-01-23 07:21:57.75	94.21	10.42	-47.1	-48.9	18.0	0.00e+00	0	43	0	158334976	65	4510
2026-01-23 07:21:58.75	94.13	10.50	-46.9	-48.7	18.2	0.00e+00	0	43	0	160432128	65	4406
2026-01-23 07:21:59.76	94.04	10.58	-46.9	-48.7	18.2	0.00e+00	0	42	0	162529280	65	4396
2026-01-23 07:22:00.77	93.96	10.66	-46.7	-48.4	18.4	0.00e+00	0	43	0	164626432	65	4280
2026-01-23 07:22:01.78	93.87	10.74	-46.9	-48.6	18.3	0.00e+00	0	42	0	166723584	65	4363
2026-01-23 07:22:02.78	93.78	10.81	-46.9	-48.7	18.2	0.00e+00	0	43	0	167772160	65	4413
2026-01-23 07:22:03.79	93.70	10.90	-46.8	-48.5	18.3	0.00e+00	0	43	0	169869312	65	4325
2026-01-23 07:22:04.80	93.61	10.98	-46.8	-48.5	18.4	0.00e+00	0	43	0	171966464	65	4331
2026-01-23 07:22:05.81	93.52	11.06	-46.8	-48.5	18.4	0.00e+00	0	43	0	174063616	65	4329
2026-01-23 07:22:06.82	93.43	11.14	-46.9	-48.6	18.3	0.00e+00	0	43	0	176160768	65	4370
2026-01-23 07:22:07.82	93.34	11.22	-46.8	-48.5	18.4	0.00e+00	0	43	0	177209344	65	4330
2026-01-23 07:22:08.83	93.26	11.30	-46.7	-48.4	18.5	0.00e+00	0	43	0	179306496	65	4281
2026-01-23 07:22:09.84	93.17	11.38	-46.8	-48.5	18.4	0.00e+00	0	43	0	181403648	65	4316
2026-01-23 07:22:10.85	93.07	11.46	-46.7	-48.4	18.5	0.00e+00	0	43	0	183500800	65	4255
2026-01-23 07:22:11.86	92.98	11.54	-46.8	-48.5	18.5	0.00e+00	0	43	0	185597952	65	4313
2026-01-23 07:22:12.86	92.89	11.63	-46.9	-48.6	18.4	0.00e+00	0	43	0	186646528	65	4347
2026-01-23 07:22:13.87	92.80	11.71	-46.8	-48.5	18.5	0.00e+00	0	43	0	188743680	64	4564
2026-01-23 07:22:14.88	92.71	11.79	-46.8	-48.4	18.5	0.00e+00	0	43	0	190840832	64	4535
2026-01-23 07:22:15.89	92.61	11.87	-46.8	-48.5	18.5	0.00e+00	0	43	0	192937984	64	4559
2026-01-23 07:22:16.90	92.52	11.96	-46.9	-48.6	18.4	0.00e+00	0	43	0	195035136	64	4602
2026-01-23 07:22:17.90	92.43	12.04	-46.8	-48.5	18.5	0.00e+00	0	43	0	196083712	64	4547
2026-01-23 07:22:18.91	92.33	12.12	-46.7	-48.4	18.6	0.00e+00	0	43	0	198180864	64	4502
2026-01-23 07:22:19.92	92.24	12.21	-46.7	-48.4	18.6	0.00e+00	0	43	0	200278016	64	4494
2026-01-23 07:22:20.93	92.14	12.29	-46.7	-48.4	18.6	0.00e+00	0	43	0	202375168	64	4521
2026-01-23 07:22:21.94	92.04	12.37	-46.8	-48.4	18.5	0.00e+00	0	43	0	204472320	64	4533
2026-01-23 07:22:22.95	91.95	12.46	-46.7	-48.3	18.6	0.00e+00	0	43	0	205520896	64	4492
2026-01-23 07:22:23.96	91.85	12.54	-46.7	-48.3	18.6	0.00e+00	0	43	0	207618048	64	4485
2026-01-23 07:22:24.96	91.75	12.63	-46.6	-48.3	18.7	0.00e+00	0	43	0	209715200	64	4444
2026-01-23 07:22:25.97	91.65	12.71	-46.7	-48.4	18.6	0.00e+00	0	43	0	211812352	64	4513
2026-01-23 07:22:26.98	91.55	12.80	-46.7	-48.4	18.6	0.00e+00	0	43	0	213909504	64	4524
2026-01-23 07:22:27.99	91.45	12.88	-46.6	-48.2	18.8	0.00e+00	0	43	0	214958080	64	4422
2026-01-23 07:22:28.99	91.35	12.97	-46.7	-48.3	18.7	0.00e+00	0	43	0	217055232	64	4461
2026-01-23 07:22:30.00	91.25	13.05	-46.5	-48.1	18.9	0.00e+00	0	43	0	219152384	64	4356
2026-01-23 07:22:31.01	91.15	13.14	-46.6	-48.2	18.8	0.00e+00	0	43	0	221249536	64	4412
2026-01-23 07:22:32.02	91.05	13.22	-46.5	-48.1	18.9	0.00e+00	0	43	0	223346688	64	4377
2026-01-23 07:22:33.03	90.95	13.31	-46.7	-48.4	18.6	0.00e+00	0	43	0	224395264	64	4501
2026-01-23 07:22:34.04	90.84	13.40	-46.7	-48.4	18.6	0.00e+00	0	43	0	226492416	64	4498
2026-01-23 07:22:35.04	90.74	13.48	-46.8	-48.5	18.5	0.00e+00	0	43	0	228589568	64	4586
2026-01-23 07:22:36.05	90.63	13.57	-46.8	-48.5	18.6	0.00e+00	0	43	0	230686720	64	4565
2026-01-23 07:22:37.06	90.53	13.66	-46.7	-48.3	18.7	0.00e+00	0	43	0	232783872	64	4461
2026-01-23 07:22:38.07	90.42	13.75	-46.6	-48.1	18.9	0.00e+00	0	43	0	233832448	64	4387
2026-01-23 07:22:39.08	90.31	13.83	-46.7	-48.3	18.8	0.00e+00	0	43	0	235929600	64	4459
2026-01-23 07:22:40.09	90.21	13.92	-46.6	-48.2	18.9	0.00e+00	0	43	0	238026752	64	4396
2026-01-23 07:22:41.10	90.10	14.01	-46.8	-48.4	18.7	0.00e+00	0	43	0	240123904	64	4528
2026-01-23 07:22:42.10	89.99	14.10	-46.6	-48.2	18.9	0.00e+00	0	43	0	242221056	64	4427
2026-01-23 07:22:43.11	89.88	14.18	-46.6	-48.2	18.8	0.00e+00	0	43	0	243269632	64	4430
2026-01-23 07:22:44.12	89.77	14.27	-46.7	-48.3	18.8	0.00e+00	0	43	0	245366784	64	4492
2026-01-23 07:22:45.13	89.66	14.36	-46.7	-48.3	18.7	0.00e+00	0	43	0	247463936	64	4489
2026-01-23 07:22:46.14	89.55	14.45	-46.6	-48.1	18.9	0.00e+00	0	43	0	249561088	64	4381
2026-01-23 07:22:47.14	89.44	14.54	-46.6	-48.2	18.9	0.00e+00	0	43	0	251658240	64	4432
2026-01-23 07:22:48.15	89.32	14.63	-46.6	-48.2	18.9	0.00e+00	0	43	0	252706816	64	4411
2026-01-23 07:22:49.16	89.21	14.72	-46.6	-48.2	18.9	0.00e+00	0	43	0	254803968	64	4413
2026-01-23 07:22:50.17	89.10	14.81	-46.8	-48.4	18.7	0.00e+00	0	43	0	256901120	64	4515
2026-01-23 07:22:51.17	88.98	14.90	-46.8	-48.5	18.6	0.00e+00	0	43	0	258998272	64	4568
2026-01-23 07:22:52.18	88.87	14.99	-46.9	-48.5	18.5	0.00e+00	0	43	0	261095424	64	4596
2026-01-23 07:22:53.19	88.75	15.08	-46.7	-48.3	18.8	0.00e+00	0	43	0	262144000	64	4486
2026-01-23 07:22:54.20	88.63	15.17	-46.7	-48.3	18.8	0.00e+00	0	43	0	264241152	64	4487
2026-01-23 07:22:55.21	88.52	15.26	-46.7	-48.4	18.8	0.00e+00	0	43	0	266338304	64	4501
2026-01-23 07:22:56.21	88.40	15.35	-46.7	-48.3	18.8	0.00e+00	0	43	0	268435456	64	4480
2026-01-23 07:22:57.22	88.28	15.44	-46.7	-48.3	18.8	0.00e+00	0	43	0	270532608	64	4475
2026-01-23 07:22:58.23	88.16	15.54	-46.7	-48.3	18.9	0.00e+00	0	43	0	271581184	64	4474
2026-01-23 07:22:59.24	88.04	15.63	-46.7	-48.3	18.8	0.00e+00	0	43	0	273678336	64	4485
2026-01-23 07:23:00.24	87.92	15.72	-46.6	-48.2	18.9	0.00e+00	0	43	0	275775488	64	4432
2026-01-23 07:23:01.25	87.79	15.81	-46.6	-48.1	19.0	0.00e+00	0	43	0	277872640	64	4383
2026-01-23 07:23:02.26	87.67	15.90	-46.6	-48.2	19.0	0.00e+00	0	43	0	279969792	64	4396
2026-01-23 07:23:03.27	87.55	16.00	-46.6	-48.2	18.9	0.00e+00	0	43	0	282066944	64	4431
2026-01-23 07:23:04.27	87.42	16.09	-46.5	-48.1	19.1	0.00e+00	0	43	0	283115520	64	4344
2026-01-23 07:23:05.28	87.30	16.18	-46.7	-48.2	18.9	0.00e+00	0	43	0	285212672	64	4432
2026-01-23 07:23:06.29	87.17	16.27	-46.6	-48.1	19.1	0.00e+00	0	43	0	287309824	64	4362
2026-01-23 07:23:07.29	87.05	16.37	-46.6	-48.2	19.0	0.00e+00	0	43	0	289406976	64	4399
2026-01-23 07:23:08.30	86.92	16.46	-46.7	-48.2	19.0	0.00e+00	0	43	0	290455552	64	4429
2026-01-23 07:23:09.31	86.79	16.56	-46.6	-48.2	19.0	0.00e+00	0	43	0	292552704	64	4402
2026-01-23 07:23:10.32	86.66	16.65	-46.7	-48.3	18.9	0.00e+00	0	43	0	294649856	64	4481
2026-01-23 07:23:11.33	86.53	16.74	-46.7	-48.3	18.9	0.00e+00	0	43	0	296747008	64	4491
2026-01-23 07:23:12.34	86.40	16.84	-46.8	-48.4	18.8	0.00e+00	0	43	0	298844160	64	4504
2026-01-23 07:23:13.35	86.27	16.93	-46.8	-48.4	18.9	0.00e+00	0	43	0	299892736	64	4496
2026-01-23 07:23:14.35	86.13	17.03	-46.8	-48.3	18.9	0.00e+00	0	43	0	301989888	64	4491
2026-01-23 07:23:15.36	86.00	17.12	-46.8	-48.4	18.9	0.00e+00	0	43	0	304087040	64	4498
2026-01-23 07:23:16.37	85.86	17.22	-46.9	-48.5	18.8	0.00e+00	0	43	0	306184192	64	4561
2026-01-23 07:23:17.38	85.73	17.31	-46.9	-48.5	18.7	0.00e+00	0	43	0	308281344	64	4579
2026-01-23 07:23:18.39	85.59	17.41	-46.9	-48.5	18.7	0.00e+00	0	43	0	310378496	64	4583
2026-01-23 07:23:19.40	85.46	17.51	-47.0	-48.6	18.6	0.00e+00	0	43	0	311427072	64	4632
2026-01-23 07:23:20.41	85.32	17.60	-46.9	-48.5	18.8	0.00e+00	0	43	0	313524224	64	4565
2026-01-23 07:23:21.42	85.18	17.70	-46.9	-48.5	18.8	0.00e+00	0	43	0	315621376	64	4582
2026-01-23 07:23:22.42	85.04	17.79	-46.8	-48.4	18.9	0.00e+00	0	43	0	317718528	64	4522
2026-01-23 07:23:23.43	84.90	17.89	-46.8	-48.4	18.8	0.00e+00	0	43	0	318767104	64	4531
2026-01-23 07:23:24.44	84.76	17.99	-46.6	-48.1	19.1	0.00e+00	0	43	0	320864256	64	4384
2026-01-23 07:23:25.45	84.61	18.09	-46.7	-48.3	19.0	0.00e+00	0	43	0	322961408	64	4449
2026-01-23 07:23:26.46	84.47	18.18	-46.8	-48.4	18.9	0.00e+00	0	43	0	325058560	64	4509
2026-01-23 07:23:27.46	84.33	18.28	-46.6	-48.2	19.1	0.00e+00	0	43	0	327155712	64	4394
2026-01-23 07:23:28.47	84.18	18.38	-46.5	-48.1	19.2	0.00e+00	0	43	0	329252864	64	4348
2026-01-23 07:23:29.48	84.03	18.48	-46.6	-48.2	19.1	0.00e+00	0	43	0	330301440	64	4399
2026-01-23 07:23:30.48	83.89	18.57	-46.6	-48.1	19.1	0.00e+00	0	43	0	332398592	64	4382
2026-01-23 07:23:31.49	83.74	18.67	-46.5	-48.1	19.2	0.00e+00	0	43	0	334495744	64	4349
2026-01-23 07:23:32.50	83.59	18.77	-46.5	-48.1	19.2	0.00e+00	0	43	0	336592896	64	4355
2026-01-23 07:23:33.51	83.44	18.87	-46.5	-48.0	19.2	0.00e+00	0	43	0	338690048	64	4323
2026-01-23 07:23:34.52	83.29	18.97	-46.5	-48.0	19.3	0.00e+00	0	43	0	339738624	64	4327
2026-01-23 07:23:35.53	83.14	19.07	-46.5	-48.0	19.3	0.00e+00	0	43	0	341835776	64	4295
2026-01-23 07:23:36.53	82.98	19.17	-46.4	-47.9	19.4	0.00e+00	0	43	0	343932928	64	4251
2026-01-23 07:23:37.54	82.83	19.27	-46.4	-47.9	19.4	0.00e+00	0	43	0	346030080	64	4277
2026-01-23 07:23:38.55	82.67	19.37	-46.5	-48.0	19.3	0.00e+00	0	43	0	347078656	64	4305
2026-01-23 07:23:39.56	82.52	19.47	-46.4	-47.9	19.4	0.00e+00	0	43	0	349175808	64	4250
2026-01-23 07:23:40.57	82.36	19.57	-46.4	-47.8	19.5	0.00e+00	0	43	0	351272960	64	4229
2026-01-23 07:23:41.58	82.20	19.67	-46.4	-47.9	19.5	0.00e+00	0	43	0	353370112	64	4249
2026-01-23 07:23:42.58	82.04	19.77	-46.3	-47.8	19.5	0.00e+00	0	43	0	355467264	64	4196
2026-01-23 07:23:43.59	81.88	19.87	-46.3	-47.7	19.6	0.00e+00	0	43	0	357564416	64	4183
2026-01-23 07:23:44.60	81.72	19.97	-46.2	-47.7	19.6	0.00e+00	0	43	0	358612992	64	4161
2026-01-23 07:23:45.61	81.56	20.07	-46.3	-47.7	19.6	0.00e+00	0	43	0	360710144	64	4180
2026-01-23 07:23:46.61	81.39	20.17	-46.2	-47.6	19.7	0.00e+00	0	43	0	362807296	64	4108
2026-01-23 07:23:47.62	81.23	20.27	-46.0	-47.4	19.8	0.00e+00	0	43	0	364904448	64	4044
2026-01-23 07:23:48.63	81.06	20.37	-46.2	-47.6	19.7	0.00e+00	0	43	0	367001600	64	4140
2026-01-23 07:23:49.64	80.90	20.47	-46.2	-47.6	19.7	0.00e+00	0	43	0	368050176	64	4112
2026-01-23 07:23:50.65	80.73	20.57	-46.0	-47.4	20.0	0.00e+00	0	43	0	370147328	63	4249
2026-01-23 07:23:51.65	80.56	20.67	-46.1	-47.4	20.0	0.00e+00	0	43	0	372244480	63	4290
2026-01-23 07:23:52.66	80.39	20.78	-46.1	-47.5	19.9	0.00e+00	0	43	0	374341632	63	4303
2026-01-23 07:23:53.67	80.22	20.88	-46.0	-47.4	19.9	0.00e+00	0	43	0	376438784	63	4260
2026-01-23 07:23:54.68	80.04	20.98	-46.1	-47.5	19.9	0.00e+00	0	43	0	377487360	63	4312
2026-01-23 07:23:55.69	79.87	21.08	-46.1	-47.4	20.0	0.00e+00	0	43	0	379584512	63	4285
2026-01-23 07:23:56.69	79.69	21.18	-46.1	-47.4	20.0	0.00e+00	0	43	0	381681664	63	4290
2026-01-23 07:23:57.70	79.52	21.29	-46.0	-47.4	20.0	0.00e+00	0	43	0	383778816	63	4269
2026-01-23 07:23:58.71	79.34	21.39	-46.1	-47.5	19.9	0.00e+00	0	43	0	385875968	63	4313
2026-01-23 07:23:59.72	79.16	21.49	-46.3	-47.7	19.8	0.00e+00	0	43	0	386924544	63	4402
2026-01-23 07:24:00.73	78.98	21.60	-46.3	-47.8	19.7	0.00e+00	0	43	0	389021696	63	4446
2026-01-23 07:24:01.73	78.80	21.70	-46.5	-47.9	19.6	0.00e+00	0	43	0	391118848	63	4532
2026-01-23 07:24:02.74	78.62	21.80	-46.4	-47.8	19.7	0.00e+00	0	43	0	393216000	63	4480
2026-01-23 07:24:03.75	78.43	21.90	-46.5	-47.9	19.6	0.00e+00	0	43	0	395313152	63	4529
2026-01-23 07:24:04.76	78.25	22.01	-46.5	-48.0	19.5	0.00e+00	0	43	0	397410304	63	4557
2026-01-23 07:24:05.77	78.06	22.11	-46.7	-48.2	19.3	0.00e+00	0	43	0	398458880	63	4669
2026-01-23 07:24:06.77	77.88	22.21	-46.5	-48.0	19.5	0.00e+00	0	43	0	400556032	63	4550
2026-01-23 07:24:07.78	77.69	22.32	-46.6	-48.0	19.5	0.00e+00	0	43	0	402653184	63	4597
2026-01-23 07:24:08.79	77.50	22.42	-46.5	-48.0	19.4	0.00e+00	0	43	0	404750336	64	4334
2026-01-23 07:24:09.80	77.31	22.53	-46.6	-48.1	19.3	0.00e+00	0	43	0	405798912	64	4363
2026-01-23 07:24:10.81	77.11	22.63	-46.7	-48.2	19.3	0.00e+00	0	43	0	407896064	64	4403
2026-01-23 07:24:11.82	76.92	22.73	-46.8	-48.4	19.0	0.00e+00	0	43	0	409993216	64	4517
2026-01-23 07:24:12.83	76.72	22.84	-46.7	-48.3	19.1	0.00e+00	0	43	0	412090368	64	4458
2026-01-23 07:24:13.84	76.53	22.94	-46.7	-48.3	19.1	0.00e+00	0	43	0	414187520	64	4458
2026-01-23 07:24:14.84	76.33	23.05	-46.8	-48.3	19.1	0.00e+00	0	43	0	415236096	64	4493
2026-01-23 07:24:15.85	76.13	23.15	-46.7	-48.2	19.2	0.00e+00	0	43	0	417333248	64	4436
2026-01-23 07:24:16.86	75.93	23.25	-46.5	-48.0	19.4	0.00e+00	0	43	0	419430400	64	4328
2026-01-23 07:24:17.87	75.73	23.36	-46.6	-48.1	19.4	0.00e+00	0	43	0	421527552	64	4348
2026-01-23 07:24:18.88	75.53	23.46	-46.6	-48.1	19.3	0.00e+00	0	43	0	423624704	64	4375
2026-01-23 07:24:19.88	75.32	23.57	-46.4	-47.9	19.6	0.00e+00	0	43	0	425721856	64	4255
2026-01-23 07:24:20.89	75.12	23.67	-46.5	-48.0	19.5	0.00e+00	0	43	0	426770432	64	4330
2026-01-23 07:24:21.90	74.91	23.77	-46.5	-48.0	19.5	0.00e+00	0	43	0	428867584	64	4294
2026-01-23 07:24:22.91	74.70	23.88	-46.3	-47.8	19.7	0.00e+00	0	43	0	430964736	64	4197
2026-01-23 07:24:23.92	74.49	23.98	-46.3	-47.7	19.7	0.00e+00	0	43	0	433061888	64	4193
2026-01-23 07:24:24.93	74.28	24.09	-46.2	-47.6	19.8	0.00e+00	0	43	0	434110464	64	4126
2026-01-23 07:24:25.94	74.06	24.19	-46.3	-47.7	19.8	0.00e+00	0	43	0	436207616	64	4151
2026-01-23 07:24:26.94	73.85	24.29	-46.2	-47.5	19.9	0.00e+00	0	43	0	438304768	64	4097
2026-01-23 07:24:27.95	73.64	24.40	-46.3	-47.7	19.8	0.00e+00	0	43	0	440401920	64	4166
2026-01-23 07:24:28.96	73.42	24.50	-46.3	-47.8	19.7	0.00e+00	0	43	0	442499072	64	4203
2026-01-23 07:24:29.97	73.20	24.61	-46.2	-47.6	19.9	0.00e+00	0	43	0	444596224	64	4131
2026-01-23 07:24:30.97	72.98	24.71	-46.2	-47.6	19.9	0.00e+00	0	43	0	445644800	64	4127
2026-01-23 07:24:31.98	72.76	24.81	-46.1	-47.5	19.9	0.00e+00	0	43	0	447741952	64	4066
2026-01-23 07:24:32.99	72.54	24.92	-46.0	-47.3	20.2	0.00e+00	0	43	0	449839104	63	4241
2026-01-23 07:24:34.00	72.31	25.02	-46.0	-47.3	20.3	0.00e+00	0	43	0	451936256	63	4220
2026-01-23 07:24:35.01	72.08	25.13	-46.0	-47.3	20.3	0.00e+00	0	43	0	454033408	63	4232
2026-01-23 07:24:36.01	71.86	25.23	-45.9	-47.2	20.4	0.00e+00	0	43	0	455081984	63	4163
2026-01-23 07:24:37.02	71.63	25.33	-45.8	-47.1	20.4	0.00e+00	0	43	0	457179136	63	4136
2026-01-23 07:24:38.03	71.40	25.44	-45.8	-47.1	20.4	0.00e+00	0	43	0	459276288	63	4139
2026-01-23 07:24:39.04	71.17	25.54	-45.9	-47.2	20.4	0.00e+00	0	43	0	461373440	63	4164
2026-01-23 07:24:40.04	70.93	25.64	-45.9	-47.2	20.4	0.00e+00	0	43	0	462422016	63	4181
2026-01-23 07:24:41.05	70.70	25.75	-46.0	-47.3	20.3	0.00e+00	0	43	0	464519168	63	4238
2026-01-23 07:24:42.06	70.46	25.85	-46.1	-47.4	20.2	0.00e+00	0	43	0	466616320	63	4260
2026-01-23 07:24:43.07	70.22	25.95	-45.9	-47.2	20.4	0.00e+00	0	43	0	468713472	63	4182
2026-01-23 07:24:44.08	69.98	26.05	-45.9	-47.2	20.4	0.00e+00	0	43	0	470810624	63	4165
2026-01-23 07:24:45.09	69.74	26.16	-46.0	-47.4	20.2	0.00e+00	0	43	0	472907776	63	4253
2026-01-23 07:24:46.09	69.50	26.26	-45.8	-47.1	20.5	0.00e+00	0	43	0	473956352	63	4123
2026-01-23 07:24:47.10	69.25	26.36	-45.7	-47.0	20.6	0.00e+00	0	43	0	476053504	63	4076
2026-01-23 07:24:48.11	69.01	26.46	-45.9	-47.2	20.4	0.00e+00	0	43	0	478150656	63	4192
2026-01-23 07:24:49.12	68.76	26.56	-45.9	-47.2	20.4	0.00e+00	0	43	0	480247808	63	4193
2026-01-23 07:24:50.13	68.51	26.67	-46.1	-47.4	20.2	0.00e+00	0	43	0	482344960	63	4288
2026-01-23 07:24:51.14	68.26	26.77	-46.0	-47.3	20.3	0.00e+00	0	43	0	483393536	63	4225
2026-01-23 07:24:52.14	68.01	26.87	-46.0	-47.3	20.4	0.00e+00	0	43	0	485490688	63	4199
2026-01-23 07:24:53.15	67.75	26.97	-46.0	-47.3	20.4	0.00e+00	0	43	0	487587840	63	4208
2026-01-23 07:24:54.16	67.50	27.07	-45.8	-47.1	20.5	0.00e+00	0	43	0	489684992	63	4121
2026-01-23 07:24:55.17	67.24	27.17	-45.7	-47.0	20.6	0.00e+00	0	43	0	491782144	63	4066
2026-01-23 07:24:56.18	66.98	27.27	-46.0	-47.2	20.4	0.00e+00	0	43	0	492830720	63	4193
2026-01-23 07:24:57.18	66.72	27.37	-46.2	-47.6	20.1	0.00e+00	0	43	0	494927872	63	4352
2026-01-23 07:24:58.19	66.46	27.47	-46.4	-47.8	19.9	0.00e+00	0	43	0	497025024	63	4469
2026-01-23 07:24:59.20	66.19	27.57	-46.6	-48.1	19.6	0.00e+00	0	43	0	499122176	63	4601
2026-01-23 07:25:00.21	65.93	27.67	-46.6	-48.1	19.5	0.00e+00	0	43	0	501219328	64	4380
2026-01-23 07:25:01.21	65.66	27.76	-46.8	-48.3	19.3	0.00e+00	0	43	0	502267904	64	4481
2026-01-23 07:25:02.22	65.39	27.86	-46.9	-48.5	19.2	0.00e+00	0	43	0	504365056	64	4549
2026-01-23 07:25:03.23	65.12	27.96	-47.1	-48.7	19.0	0.00e+00	0	43	0	506462208	64	4662
2026-01-23 07:25:04.24	64.85	28.06	-47.2	-48.7	18.9	0.00e+00	0	43	0	508559360	64	4701
2026-01-23 07:25:05.25	64.57	28.15	-47.2	-48.8	18.8	0.00e+00	0	43	0	510656512	65	4449
2026-01-23 07:25:06.26	64.30	28.25	-47.3	-49.0	18.7	0.00e+00	0	43	0	511705088	65	4547
2026-01-23 07:25:07.27	64.02	28.35	-47.3	-49.0	18.7	0.00e+00	0	43	0	513802240	65	4550
2026-01-23 07:25:08.27	63.74	28.44	-47.5	-49.2	18.5	0.00e+00	0	43	0	515899392	65	4656
2026-01-23 07:25:09.28	63.46	28.54	-47.7	-49.4	18.3	0.00e+00	0	43	0	517996544	65	4787
2026-01-23 07:25:10.29	63.18	28.63	-47.7	-49.5	18.3	0.00e+00	0	43	0	520093696	66	4558
2026-01-23 07:25:11.30	62.90	28.73	-47.8	-49.5	18.2	0.00e+00	0	43	0	521142272	66	4577
2026-01-23 07:25:12.31	62.61	28.82	-47.8	-49.5	18.1	0.00e+00	0	43	0	523239424	66	4593
2026-01-23 07:25:13.32	62.32	28.91	-47.9	-49.6	18.1	0.00e+00	0	43	0	525336576	66	4645
2026-01-23 07:25:14.33	62.03	29.01	-48.0	-49.8	17.9	0.00e+00	0	43	0	527433728	66	4741
2026-01-23 07:25:15.34	61.74	29.10	-48.1	-49.9	17.8	0.00e+00	0	43	0	529530880	66	4804
2026-01-23 07:25:16.34	61.45	29.19	-47.9	-49.7	18.0	0.00e+00	0	43	0	530579456	66	4692
2026-01-23 07:25:17.35	61.16	29.28	-48.0	-49.8	17.9	0.00e+00	0	43	0	532676608	66	4756
2026-01-23 07:25:18.36	60.86	29.37	-48.1	-49.9	17.7	0.00e+00	0	43	0	534773760	66	4813
2026-01-23 07:25:19.36	60.57	29.46	-48.3	-50.2	17.6	0.00e+00	0	43	0	536870912	67	4655
2026-01-23 07:25:20.37	60.27	29.55	-48.5	-50.5	17.2	0.00e+00	0	43	0	538968064	67	4866
2026-01-23 07:25:21.38	59.96	29.64	-48.7	-50.8	16.9	0.00e+00	0	43	0	540016640	67	5013
2026-01-23 07:25:22.39	59.66	29.73	-49.0	-51.1	16.7	0.00e+00	0	43	0	542113792	68	4914
2026-01-23 07:25:23.39	59.36	29.82	-48.8	-50.9	16.9	0.00e+00	0	43	0	544210944	68	4812
2026-01-23 07:25:24.40	59.05	29.90	-48.6	-50.6	17.3	0.00e+00	0	43	0	546308096	68	4620
2026-01-23 07:25:25.41	58.75	29.99	-48.3	-50.3	17.6	0.00e+00	0	43	0	548405248	68	4449
2026-01-23 07:25:26.42	58.44	30.08	-48.3	-50.2	17.7	0.00e+00	0	43	0	549453824	68	4394
2026-01-23 07:25:27.43	58.12	30.16	-48.1	-49.9	17.9	0.00e+00	0	43	0	551550976	68	4287
2026-01-23 07:25:28.43	57.82	30.24	-47.9	-49.7	18.1	0.00e+00	0	43	0	553648128	67	4412
2026-01-23 07:25:29.44	57.50	30.33	-47.9	-49.7	18.1	0.00e+00	0	43	0	555745280	67	4416
2026-01-23 07:25:30.45	57.18	30.41	-48.0	-49.8	18.0	0.00e+00	0	43	0	557842432	67	4457
2026-01-23 07:25:31.45	56.87	30.49	-48.0	-49.9	17.8	0.00e+00	0	43	0	559939584	67	4497
2026-01-23 07:25:32.46	56.55	30.57	-48.1	-49.9	17.9	0.00e+00	0	43	0	560988160	67	4525
2026-01-23 07:25:33.47	56.23	30.65	-47.9	-49.7	18.0	0.00e+00	0	43	0	563085312	67	4406
2026-01-23 07:25:34.48	55.91	30.73	-47.9	-49.7	18.0	0.00e+00	0	43	0	565182464	67	4435
2026-01-23 07:25:35.49	55.58	30.81	-47.9	-49.7	18.0	0.00e+00	0	43	0	567279616	67	4407
2026-01-23 07:25:36.49	55.26	30.89	-47.7	-49.4	18.3	0.00e+00	0	43	0	568328192	67	4282
2026-01-23 07:25:37.50	54.93	30.97	-47.8	-49.5	18.3	0.00e+00	0	43	0	570425344	67	4305
2026-01-23 07:25:38.51	54.60	31.04	-47.7	-49.4	18.3	0.00e+00	0	43	0	572522496	67	4254
2026-01-23 07:25:39.52	54.27	31.12	-47.5	-49.2	18.6	0.00e+00	0	43	0	574619648	66	4392
2026-01-23 07:25:40.53	53.94	31.19	-47.6	-49.2	18.5	0.00e+00	0	43	0	576716800	66	4440
2026-01-23 07:25:41.53	53.61	31.27	-47.5	-49.2	18.5	0.00e+00	0	43	0	577765376	66	4418
2026-01-23 07:25:42.54	53.28	31.34	-47.6	-49.3	18.4	0.00e+00	0	43	0	579862528	66	4457
2026-01-23 07:25:43.55	52.94	31.41	-47.7	-49.4	18.3	0.00e+00	0	43	0	581959680	66	4535
2026-01-23 07:25:44.56	52.60	31.48	-47.8	-49.5	18.2	0.00e+00	0	43	0	584056832	66	4595
2026-01-23 07:25:45.57	52.26	31.55	-47.8	-49.5	18.2	0.00e+00	0	43	0	586153984	66	4598
2026-01-23 07:25:46.57	51.92	31.62	-47.9	-49.6	18.2	0.00e+00	0	43	0	588251136	66	4645
2026-01-23 07:25:47.58	51.58	31.69	-47.8	-49.6	18.1	0.00e+00	0	43	0	589299712	66	4607
2026-01-23 07:25:48.59	51.24	31.76	-47.6	-49.3	18.4	0.00e+00	0	43	0	591396864	66	4450
2026-01-23 07:25:49.60	50.89	31.82	-47.7	-49.4	18.3	0.00e+00	0	43	0	593494016	66	4515
2026-01-23 07:25:50.61	50.55	31.89	-47.8	-49.6	18.2	0.00e+00	0	43	0	595591168	66	4617
2026-01-23 07:25:51.62	50.20	31.95	-47.9	-49.7	18.1	0.00e+00	0	43	0	597688320	66	4686
2026-01-23 07:25:52.63	49.85	32.01	-47.9	-49.7	18.1	0.00e+00	0	43	0	598736896	66	4665
2026-01-23 07:25:53.64	49.50	32.08	-47.7	-49.4	18.4	0.00e+00	0	43	0	600834048	66	4497
2026-01-23 07:25:54.65	49.15	32.14	-47.5	-49.1	18.6	0.00e+00	0	43	0	602931200	66	4370
2026-01-23 07:25:55.66	48.79	32.20	-47.3	-48.9	18.9	0.00e+00	0	43	0	605028352	66	4267
2026-01-23 07:25:56.66	48.44	32.26	-47.4	-49.0	18.8	0.00e+00	0	43	0	607125504	66	4298
2026-01-23 07:25:57.67	48.09	32.31	-47.1	-48.6	19.1	0.00e+00	0	43	0	608174080	66	4133
2026-01-23 07:25:58.68	47.73	32.37	-47.0	-48.5	19.3	0.00e+00	0	43	0	610271232	65	4300
2026-01-23 07:25:59.69	47.37	32.42	-47.1	-48.6	19.1	0.00e+00	0	43	0	612368384	65	4375
2026-01-23 07:26:00.69	47.01	32.48	-47.1	-48.7	19.1	0.00e+00	0	43	0	614465536	65	4392
2026-01-23 07:26:01.70	46.65	32.53	-47.0	-48.5	19.2	0.00e+00	0	43	0	616562688	65	4330
2026-01-23 07:26:02.71	46.29	32.58	-47.1	-48.6	19.2	0.00e+00	0	43	0	617611264	65	4359
2026-01-23 07:26:03.72	45.93	32.63	-47.1	-48.7	19.1	0.00e+00	0	43	0	619708416	65	4411
2026-01-23 07:26:04.73	45.56	32.68	-47.2	-48.8	19.0	0.00e+00	0	43	0	621805568	65	4472
2026-01-23 07:26:05.73	45.20	32.73	-47.1	-48.7	19.1	0.00e+00	0	43	0	623902720	65	4420
2026-01-23 07:26:06.74	44.84	32.77	-47.2	-48.8	19.0	0.00e+00	0	43	0	625999872	65	4451
2026-01-23 07:26:07.75	44.47	32.82	-46.9	-48.4	19.3	0.00e+00	0	43	0	627048448	65	4274
2026-01-23 07:26:08.75	44.10	32.86	-46.6	-48.1	19.7	0.00e+00	0	43	0	629145600	65	4113
2026-01-23 07:26:09.76	43.73	32.91	-46.6	-48.0	19.8	0.00e+00	0	43	0	631242752	65	4065
2026-01-23 07:26:10.77	43.36	32.95	-46.4	-47.8	19.9	0.00e+00	0	43	0	633339904	64	4223
2026-01-23 07:26:11.78	42.99	32.99	-46.4	-47.7	20.0	0.00e+00	0	43	0	635437056	64	4192
2026-01-23 07:26:12.79	42.62	33.03	-46.3	-47.7	20.0	0.00e+00	0	43	0	636485632	64	4149
2026-01-23 07:26:13.79	42.25	33.06	-46.6	-48.0	19.7	0.00e+00	0	43	0	638582784	64	4304
2026-01-23 07:26:14.80	41.88	33.10	-46.3	-47.7	20.0	0.00e+00	0	43	0	640679936	64	4152
2026-01-23 07:26:15.81	41.50	33.13	-46.4	-47.8	19.9	0.00e+00	0	43	0	642777088	64	4216
2026-01-23 07:26:16.82	41.13	33.17	-46.5	-47.9	19.8	0.00e+00	0	43	0	644874240	64	4272
2026-01-23 07:26:17.83	40.75	33.20	-46.6	-48.0	19.7	0.00e+00	0	43	0	645922816	64	4310
2026-01-23 07:26:18.84	40.37	33.23	-46.6	-48.0	19.8	0.00e+00	0	43	0	648019968	64	4336
2026-01-23 07:26:19.84	40.00	33.26	-46.7	-48.1	19.7	0.00e+00	0	43	0	650117120	64	4366
2026-01-23 07:26:20.85	39.62	33.29	-46.8	-48.3	19.5	0.00e+00	0	43	0	652214272	64	4472
2026-01-23 07:26:21.86	39.24	33.31	-46.8	-48.3	19.4	0.00e+00	0	43	0	654311424	64	4476
2026-01-23 07:26:22.87	38.86	33.34	-47.0	-48.6	19.2	0.00e+00	0	43	0	655360000	64	4613
2026-01-23 07:26:23.88	38.48	33.36	-47.2	-48.8	19.0	0.00e+00	0	43	0	657457152	64	4736
2026-01-23 07:26:24.89	38.10	33.39	-47.3	-48.8	18.9	0.00e+00	0	43	0	659554304	65	4492
2026-01-23 07:26:25.89	37.72	33.41	-47.3	-48.8	19.0	0.00e+00	0	43	0	661651456	65	4491
2026-01-23 07:26:26.90	37.34	33.43	-47.2	-48.7	19.0	0.00e+00	0	43	0	663748608	65	4417
2026-01-23 07:26:27.91	36.96	33.44	-47.2	-48.8	19.0	0.00e+00	0	43	0	664797184	65	4452
2026-01-23 07:26:28.92	36.58	33.46	-47.2	-48.8	19.0	0.00e+00	0	43	0	666894336	65	4455
2026-01-23 07:26:29.93	36.20	33.48	-47.3	-48.9	18.9	0.00e+00	0	43	0	668991488	65	4515
2026-01-23 07:26:30.93	35.82	33.49	-47.2	-48.8	19.0	0.00e+00	0	43	0	671088640	65	4461
2026-01-23 07:26:31.94	35.43	33.50	-47.2	-48.7	19.1	0.00e+00	0	43	0	673185792	65	4419
2026-01-23 07:26:32.95	35.05	33.51	-47.1	-48.6	19.1	0.00e+00	0	43	0	674234368	65	4376
2026-01-23 07:26:33.96	34.67	33.52	-47.0	-48.5	19.2	0.00e+00	0	43	0	676331520	65	4332
2026-01-23 07:26:34.97	34.28	33.53	-47.2	-48.8	19.0	0.00e+00	0	43	0	678428672	65	4452
2026-01-23 07:26:35.97	33.90	33.54	-47.3	-48.9	18.9	0.00e+00	0	43	0	680525824	65	4497
2026-01-23 07:26:36.98	33.52	33.54	-47.1	-48.7	19.1	0.00e+00	0	43	0	682622976	65	4394
2026-01-23 07:26:37.99	33.13	33.54	-47.1	-48.6	19.1	0.00e+00	0	43	0	683671552	65	4378
2026-01-23 07:26:39.00	32.75	33.55	-47.1	-48.6	19.1	0.00e+00	0	43	0	685768704	65	4361
2026-01-23 07:26:40.01	32.36	33.55	-47.1	-48.6	19.2	0.00e+00	0	43	0	687865856	65	4357
2026-01-23 07:26:41.01	31.98	33.55	-47.0	-48.5	19.3	0.00e+00	0	43	0	689963008	65	4322
2026-01-23 07:26:42.02	31.60	33.54	-46.9	-48.3	19.4	0.00e+00	0	43	0	692060160	65	4228
2026-01-23 07:26:43.03	31.21	33.54	-46.9	-48.4	19.5	0.00e+00	0	43	0	693108736	65	4243
2026-01-23 07:26:44.04	30.83	33.53	-46.8	-48.3	19.5	0.00e+00	0	43	0	695205888	65	4207
2026-01-23 07:26:45.05	30.44	33.53	-47.0	-48.5	19.3	0.00e+00	0	43	0	697303040	65	4310
2026-01-23 07:26:46.05	30.06	33.52	-47.2	-48.8	19.0	0.00e+00	0	43	0	699400192	65	4451
2026-01-23 07:26:47.06	29.68	33.51	-47.4	-49.1	18.7	0.00e+00	0	43	0	701497344	65	4603
2026-01-23 07:26:48.07	29.30	33.50	-47.6	-49.2	18.5	0.00e+00	0	43	0	703594496	65	4701
2026-01-23 07:26:49.08	28.91	33.49	-47.6	-49.3	18.5	0.00e+00	0	43	0	704643072	65	4730
2026-01-23 07:26:50.09	28.53	33.47	-47.7	-49.4	18.4	0.00e+00	0	43	0	706740224	65	4761
2026-01-23 07:26:51.10	28.15	33.46	-47.6	-49.3	18.5	0.00e+00	0	43	0	708837376	65	4752
2026-01-23 07:26:52.10	27.77	33.44	-47.7	-49.4	18.5	0.00e+00	0	43	0	710934528	66	4506
2026-01-23 07:26:53.11	27.39	33.42	-47.7	-49.4	18.4	0.00e+00	0	43	0	711983104	66	4513
2026-01-23 07:26:54.12	27.01	33.40	-47.6	-49.4	18.5	0.00e+00	0	43	0	714080256	66	4495
2026-01-23 07:26:55.13	26.62	33.38	-47.6	-49.3	18.5	0.00e+00	0	43	0	716177408	66	4452
2026-01-23 07:26:56.13	26.25	33.36	-47.7	-49.3	18.5	0.00e+00	0	43	0	718274560	66	4484
2026-01-23 07:26:57.14	25.87	33.33	-47.7	-49.4	18.4	0.00e+00	0	43	0	720371712	66	4544
2026-01-23 07:26:58.15	25.49	33.31	-47.8	-49.5	18.3	0.00e+00	0	43	0	721420288	66	4559
2026-01-23 07:26:59.16	25.11	33.28	-47.8	-49.5	18.3	0.00e+00	0	43	0	723517440	66	4552
2026-01-23 07:27:00.17	24.73	33.25	-47.4	-49.0	18.7	0.00e+00	0	43	0	725614592	66	4326
2026-01-23 07:27:01.17	24.36	33.22	-47.3	-48.9	18.9	0.00e+00	0	43	0	727711744	66	4272
2026-01-23 07:27:02.18	23.98	33.19	-47.4	-49.0	18.7	0.00e+00	0	43	0	729808896	66	4340
2026-01-23 07:27:03.19	23.61	33.16	-47.5	-49.1	18.7	0.00e+00	0	43	0	731906048	66	4353
2026-01-23 07:27:04.20	23.23	33.13	-47.6	-49.3	18.5	0.00e+00	0	43	0	732954624	66	4479
2026-01-23 07:27:05.21	22.86	33.09	-47.9	-49.6	18.2	0.00e+00	0	43	0	735051776	66	4635
2026-01-23 07:27:06.21	22.49	33.06	-48.0	-49.8	18.1	0.00e+00	0	43	0	737148928	66	4714
2026-01-23 07:27:07.23	22.11	33.02	-48.1	-49.9	17.9	0.00e+00	0	43	0	739246080	66	4770
2026-01-23 07:27:08.23	21.74	32.98	-48.0	-49.7	18.0	0.00e+00	0	43	0	740294656	66	4694
2026-01-23 07:27:09.24	21.37	32.94	-47.9	-49.7	18.1	0.00e+00	0	43	0	742391808	66	4661
2026-01-23 07:27:10.25	21.00	32.90	-48.0	-49.8	18.0	0.00e+00	0	43	0	744488960	66	4712
2026-01-23 07:27:11.26	20.63	32.85	-47.9	-49.6	18.2	0.00e+00	0	43	0	746586112	66	4633
2026-01-23 07:27:12.26	20.27	32.81	-47.9	-49.7	18.2	0.00e+00	0	43	0	748683264	66	4666
2026-01-23 07:27:13.27	19.90	32.76	-48.1	-49.9	17.9	0.00e+00	0	43	0	750780416	66	4798
2026-01-23 07:27:14.28	19.54	32.72	-48.1	-50.0	17.9	0.00e+00	0	43	0	751828992	66	4816
2026-01-23 07:27:15.29	19.17	32.67	-48.1	-50.0	17.8	0.00e+00	0	43	0	753926144	67	4566
2026-01-23 07:27:16.29	18.81	32.62	-48.2	-50.1	17.8	0.00e+00	0	43	0	756023296	67	4604
2026-01-23 07:27:17.30	18.45	32.57	-48.4	-50.3	17.6	0.00e+00	0	43	0	758120448	67	4725
2026-01-23 07:27:18.31	18.09	32.52	-48.6	-50.6	17.2	0.00e+00	0	43	0	760217600	67	4887
2026-01-23 07:27:19.32	17.73	32.47	-48.4	-50.4	17.4	0.00e+00	0	43	0	761266176	67	4787
2026-01-23 07:27:20.33	17.37	32.41	-48.2	-50.1	17.7	0.00e+00	0	43	0	763363328	67	4608
2026-01-23 07:27:21.34	17.01	32.36	-47.8	-49.5	18.2	0.00e+00	0	43	0	765460480	67	4332
2026-01-23 07:27:22.35	16.65	32.30	-47.9	-49.7	18.1	0.00e+00	0	43	0	767557632	67	4406
2026-01-23 07:27:23.35	16.30	32.24	-47.8	-49.5	18.3	0.00e+00	0	43	0	768606208	67	4305
2026-01-23 07:27:24.36	15.95	32.18	-47.7	-49.4	18.4	0.00e+00	0	43	0	770703360	67	4256
2026-01-23 07:27:25.37	15.60	32.12	-47.7	-49.4	18.4	0.00e+00	0	43	0	772800512	67	4257
2026-01-23 07:27:26.37	15.25	32.06	-47.9	-49.6	18.2	0.00e+00	0	43	0	774897664	67	4391
2026-01-23 07:27:27.38	14.90	32.00	-48.0	-49.8	18.1	0.00e+00	0	43	0	776994816	67	4471
2026-01-23 07:27:28.39	14.55	31.94	-48.1	-49.9	17.9	0.00e+00	0	43	0	779091968	67	4503
2026-01-23 07:27:29.40	14.20	31.87	-48.0	-49.7	18.1	0.00e+00	0	43	0	780140544	67	4431
2026-01-23 07:27:30.41	13.86	31.81	-47.9	-49.6	18.2	0.00e+00	0	43	0	782237696	67	4370
2026-01-23 07:27:31.42	13.51	31.74	-47.9	-49.7	18.2	0.00e+00	0	43	0	784334848	67	4397
2026-01-23 07:27:32.43	13.17	31.68	-47.8	-49.5	18.3	0.00e+00	0	43	0	786432000	67	4333
2026-01-23 07:27:33.44	12.83	31.61	-47.7	-49.4	18.4	0.00e+00	0	43	0	788529152	67	4283
2026-01-23 07:27:34.45	12.49	31.54	-47.8	-49.6	18.2	0.00e+00	0	43	0	789577728	67	4353
2026-01-23 07:27:35.46	12.15	31.47	-47.9	-49.7	18.1	0.00e+00	0	43	0	791674880	67	4414
2026-01-23 07:27:36.46	11.81	31.40	-48.1	-49.9	17.9	0.00e+00	0	43	0	793772032	67	4534
2026-01-23 07:27:37.47	11.48	31.33	-48.2	-50.1	17.7	0.00e+00	0	43	0	795869184	67	4627
2026-01-23 07:27:38.48	11.14	31.25	-48.3	-50.3	17.6	0.00e+00	0	43	0	797966336	67	4714
2026-01-23 07:27:39.49	10.81	31.18	-48.4	-50.3	17.5	0.00e+00	0	43	0	799014912	67	4735
2026-01-23 07:27:40.50	10.48	31.10	-48.4	-50.3	17.5	0.00e+00	0	43	0	801112064	67	4726
2026-01-23 07:27:41.51	10.15	31.03	-48.4	-50.3	17.5	0.00e+00	0	43	0	803209216	67	4736
2026-01-23 07:27:42.52	9.82	30.95	-48.2	-50.1	17.7	0.00e+00	0	43	0	805306368	67	4620
2026-01-23 07:27:43.52	9.50	30.88	-48.1	-49.9	18.0	0.00e+00	0	43	0	807403520	67	4500
2026-01-23 07:27:44.53	9.18	30.80	-48.0	-49.7	18.1	0.00e+00	0	43	0	808452096	67	4436
2026-01-23 07:27:45.54	8.85	30.72	-47.8	-49.6	18.3	0.00e+00	0	43	0	810549248	67	4350
2026-01-23 07:27:46.55	8.53	30.64	-48.0	-49.8	17.9	0.00e+00	0	43	0	812646400	67	4470
2026-01-23 07:27:47.56	8.21	30.56	-48.2	-50.0	17.7	0.00e+00	0	43	0	814743552	67	4588
2026-01-23 07:27:48.56	7.89	30.48	-48.4	-50.3	17.5	0.00e+00	0	43	0	816840704	67	4727
2026-01-23 07:27:49.57	7.58	30.39	-48.3	-50.3	17.5	0.00e+00	0	43	0	818937856	67	4714
2026-01-23 07:27:50.58	7.26	30.31	-48.4	-50.4	17.4	0.00e+00	0	43	0	819986432	67	4785
2026-01-23 07:27:51.59	6.95	30.23	-48.2	-50.1	17.7	0.00e+00	0	43	0	822083584	67	4600
2026-01-23 07:27:52.60	6.64	30.14	-48.0	-49.8	18.0	0.00e+00	0	43	0	824180736	67	4485
2026-01-23 07:27:53.61	6.33	30.06	-48.0	-49.7	18.0	0.00e+00	0	43	0	826277888	67	4440
2026-01-23 07:27:54.62	6.02	29.97	-48.0	-49.7	18.1	0.00e+00	0	43	0	827326464	67	4436
2026-01-23 07:27:55.63	5.71	29.89	-48.1	-50.0	17.8	0.00e+00	0	43	0	829423616	67	4558
2026-01-23 07:27:56.64	5.41	29.80	-48.3	-50.3	17.5	0.00e+00	0	43	0	831520768	67	4706
2026-01-23 07:27:57.64	5.11	29.71	-48.1	-49.9	17.9	0.00e+00	0	43	0	833617920	67	4520
2026-01-23 07:27:58.65	4.80	29.62	-48.1	-49.9	17.9	0.00e+00	0	43	0	835715072	67	4512
2026-01-23 07:27:59.66	4.50	29.54	-48.2	-50.1	17.7	0.00e+00	0	43	0	837812224	67	4619
2026-01-23 07:28:00.67	4.20	29.45	-48.0	-49.8	18.0	0.00e+00	0	43	0	838860800	67	4445
2026-01-23 07:28:01.68	3.91	29.36	-47.9	-49.6	18.1	0.00e+00	0	43	0	840957952	67	4381
2026-01-23 07:28:02.69	3.61	29.26	-47.8	-49.5	18.2	0.00e+00	0	43	0	843055104	67	4296
2026-01-23 07:28:03.70	3.32	29.17	-47.6	-49.3	18.5	0.00e+00	0	43	0	845152256	67	4216
2026-01-23 07:28:04.70	3.03	29.08	-47.4	-49.1	18.6	0.00e+00	0	43	0	847249408	66	4350
2026-01-23 07:28:05.71	2.74	28.99	-47.4	-49.1	18.7	0.00e+00	0	43	0	848297984	66	4354
2026-01-23 07:28:06.72	2.45	28.90	-47.5	-49.2	18.6	0.00e+00	0	43	0	850395136	66	4420
2026-01-23 07:28:07.73	2.16	28.80	-47.7	-49.4	18.4	0.00e+00	0	43	0	852492288	66	4500
2026-01-23 07:28:08.74	1.88	28.71	-47.5	-49.2	18.6	0.00e+00	0	43	0	854589440	66	4413
2026-01-23 07:28:09.75	1.60	28.62	-47.7	-49.5	18.3	0.00e+00	0	43	0	855638016	66	4565
2026-01-23 07:28:10.76	1.31	28.52	-47.8	-49.6	18.2	0.00e+00	0	43	0	857735168	66	4631
2026-01-23 07:28:11.76	1.04	28.43	-47.7	-49.5	18.3	0.00e+00	0	43	0	859832320	66	4547
2026-01-23 07:28:12.77	0.76	28.33	-47.6	-49.3	18.4	0.00e+00	0	43	0	861929472	66	4480
2026-01-23 07:28:13.78	0.48	28.23	-47.5	-49.1	18.6	0.00e+00	0	43	0	864026624	66	4376
2026-01-23 07:28:14.79	0.21	28.14	-47.4	-49.1	18.6	0.00e+00	0	43	0	866123776	66	4364
2026-01-23 07:28:15.80	359.93	28.04	-47.4	-49.1	18.7	0.00e+00	0	43	0	867172352	66	4347
2026-01-23 07:28:16.80	359.66	27.94	-47.1	-48.7	19.0	0.00e+00	0	43	0	869269504	66	4169
2026-01-23 07:28:17.81	359.39	27.85	-47.1	-48.7	19.0	0.00e+00	0	43	0	871366656	66	4155
2026-01-23 07:28:18.82	359.13	27.75	-47.0	-48.5	19.2	0.00e+00	0	43	0	873463808	66	4081
2026-01-23 07:28:19.83	358.86	27.65	-46.8	-48.3	19.4	0.00e+00	0	43	0	875560960	65	4221
2026-01-23 07:28:20.84	358.59	27.55	-46.7	-48.2	19.5	0.00e+00	0	43	0	876609536	65	4156
2026-01-23 07:28:21.85	358.33	27.45	-46.6	-48.0	19.6	0.00e+00	0	43	0	878706688	65	4093
2026-01-23 07:28:22.86	358.07	27.35	-46.5	-48.0	19.7	0.00e+00	0	43	0	880803840	65	4053
2026-01-23 07:28:23.87	357.81	27.25	-46.5	-48.0	19.7	0.00e+00	0	43	0	882900992	64	4303
2026-01-23 07:28:24.87	357.55	27.16	-46.5	-47.9	19.8	0.00e+00	0	43	0	884998144	64	4263
2026-01-23 07:28:25.88	357.30	27.05	-46.5	-47.9	19.7	0.00e+00	0	43	0	886046720	64	4272
2026-01-23 07:28:26.89	357.04	26.95	-46.5	-48.0	19.7	0.00e+00	0	43	0	888143872	64	4305
2026-01-23 07:28:27.90	356.79	26.85	-46.2	-47.5	20.1	0.00e+00	0	43	0	890241024	64	4083
2026-01-23 07:28:28.91	356.53	26.75	-46.0	-47.3	20.4	0.00e+00	0	43	0	892338176	63	4215
2026-01-23 07:28:29.92	356.28	26.65	-45.9	-47.2	20.5	0.00e+00	0	43	0	894435328	63	4178
2026-01-23 07:28:30.93	356.04	26.55	-45.8	-47.1	20.7	0.00e+00	0	43	0	895483904	63	4100
2026-01-23 07:28:31.94	355.79	26.45	-45.8	-47.1	20.6	0.00e+00	0	43	0	897581056	63	4118
2026-01-23 07:28:32.94	355.54	26.35	-45.7	-46.9	20.7	0.00e+00	0	43	0	899678208	63	4040
2026-01-23 07:28:33.95	355.30	26.25	-45.5	-46.7	21.0	0.00e+00	0	43	0	901775360	62	4170
2026-01-23 07:28:34.96	355.06	26.14	-45.4	-46.7	21.0	0.00e+00	0	43	0	903872512	62	4158
2026-01-23 07:28:35.97	354.82	26.04	-45.4	-46.6	21.0	0.00e+00	0	43	0	904921088	62	4135
2026-01-23 07:28:36.97	354.58	25.94	-45.2	-46.4	21.3	0.00e+00	0	43	0	907018240	62	4007
2026-01-23 07:28:37.98	354.34	25.84	-45.0	-46.1	21.4	0.00e+00	0	43	0	909115392	62	3903
2026-01-23 07:28:38.99	354.11	25.73	-44.8	-45.9	21.7	0.00e+00	0	43	0	911212544	61	4051
2026-01-23 07:28:40.00	353.87	25.63	-44.7	-45.8	21.8	0.00e+00	0	43	0	913309696	61	3996
2026-01-23 07:28:41.00	353.64	25.53	-44.6	-45.7	21.9	0.00e+00	0	43	0	914358272	61	3953
2026-01-23 07:28:42.01	353.41	25.43	-44.6	-45.7	21.9	0.00e+00	0	43	0	916455424	61	3937
2026-01-23 07:28:43.02	353.18	25.32	-44.6	-45.7	21.9	0.00e+00	0	43	0	918552576	61	3927
2026-01-23 07:28:44.03	352.95	25.22	-44.6	-45.7	21.9	0.00e+00	0	43	0	920649728	61	3918
2026-01-23 07:28:45.04	352.72	25.12	-44.5	-45.5	22.0	0.00e+00	0	43	0	922746880	60	4097
2026-01-23 07:28:46.04	352.50	25.01	-44.3	-45.3	22.2	0.00e+00	0	43	0	923795456	60	4002
2026-01-23 07:28:47.05	352.28	24.91	-44.2	-45.3	22.2	0.00e+00	0	43	0	925892608	60	3979
2026-01-23 07:28:48.06	352.05	24.81	-44.0	-45.1	22.4	0.00e+00	0	43	0	927989760	60	3879
2026-01-23 07:28:49.07	351.83	24.70	-44.0	-45.1	22.4	0.00e+00	0	43	0	930086912	60	3881
2026-01-23 07:28:50.08	351.61	24.60	-44.1	-45.2	22.3	0.00e+00	0	43	0	932184064	60	3918
2026-01-23 07:28:51.08	351.40	24.49	-44.0	-45.0	22.5	0.00e+00	0	43	0	933232640	60	3850
2026-01-23 07:28:52.09	351.18	24.39	-44.4	-45.5	22.3	0.00e+00	0	43	0	935329792	59	4326
2026-01-23 07:28:53.10	350.97	24.29	-44.5	-45.6	22.3	0.00e+00	0	43	0	937426944	59	4341
2026-01-23 07:28:54.11	350.75	24.18	-44.6	-45.7	22.1	0.00e+00	0	43	0	939524096	59	4401
2026-01-23 07:28:55.12	350.54	24.08	-44.6	-45.6	22.2	0.00e+00	0	43	0	941621248	59	4384
2026-01-23 07:28:56.12	350.33	23.98	-44.7	-45.8	22.0	0.00e+00	0	43	0	942669824	59	4458
2026-01-23 07:28:57.13	350.12	23.87	-44.4	-45.5	22.0	0.00e+00	0	43	0	944766976	60	4084
2026-01-23 07:28:58.14	349.91	23.77	-44.3	-45.4	22.1	0.00e+00	0	43	0	946864128	60	4029
2026-01-23 07:28:59.15	349.71	23.66	-44.4	-45.5	22.1	0.00e+00	0	43	0	948961280	60	4052
2026-01-23 07:29:00.15	349.50	23.56	-44.4	-45.5	22.0	0.00e+00	0	43	0	951058432	60	4065
2026-01-23 07:29:01.16	349.30	23.46	-44.5	-45.6	21.9	0.00e+00	0	43	0	953155584	60	4114
2026-01-23 07:29:02.17	349.10	23.35	-44.5	-45.6	21.9	0.00e+00	0	43	0	954204160	60	4140
2026-01-23 07:29:03.18	348.90	23.25	-44.6	-45.7	21.8	0.00e+00	0	43	0	956301312	60	4178
2026-01-23 07:29:04.19	348.70	23.14	-44.7	-45.8	21.7	0.00e+00	0	43	0	958398464	60	4226
2026-01-23 07:29:05.20	348.50	23.04	-44.7	-45.8	21.7	0.00e+00	0	43	0	960495616	60	4211
2026-01-23 07:29:06.20	348.30	22.94	-44.5	-45.6	21.9	0.00e+00	0	43	0	961544192	60	4143
2026-01-23 07:29:07.21	348.11	22.83	-44.6	-45.7	21.8	0.00e+00	0	43	0	963641344	60	4154
2026-01-23 07:29:08.22	347.91	22.73	-44.7	-45.8	21.7	0.00e+00	0	43	0	965738496	60	4220
2026-01-23 07:29:09.23	347.72	22.63	-44.8	-45.9	21.6	0.00e+00	0	43	0	967835648	60	4258
2026-01-23 07:29:10.23	347.53	22.52	-44.8	-45.9	21.6	0.00e+00	0	43	0	969932800	60	4282
2026-01-23 07:29:11.24	347.34	22.42	-44.9	-46.0	21.5	0.00e+00	0	43	0	970981376	60	4336
2026-01-23 07:29:12.25	347.15	22.32	-44.8	-45.9	21.6	0.00e+00	0	43	0	973078528	60	4269
2026-01-23 07:29:13.26	346.96	22.21	-44.8	-46.0	21.5	0.00e+00	0	43	0	975175680	60	4303
2026-01-23 07:29:14.27	346.77	22.11	-45.0	-46.1	21.4	0.00e+00	0	43	0	977272832	60	4383
2026-01-23 07:29:15.27	346.59	22.01	-44.9	-46.1	21.4	0.00e+00	0	43	0	979369984	60	4355
2026-01-23 07:29:16.28	346.41	21.90	-45.0	-46.1	21.4	0.00e+00	0	43	0	981467136	60	4387
2026-01-23 07:29:17.29	346.22	21.80	-45.0	-46.2	21.3	0.00e+00	0	43	0	982515712	60	4422
2026-01-23 07:29:18.30	346.04	21.70	-45.0	-46.2	21.3	0.00e+00	0	43	0	984612864	60	4405
2026-01-23 07:29:19.31	345.86	21.60	-45.1	-46.2	21.3	0.00e+00	0	43	0	986710016	60	4426
2026-01-23 07:29:20.31	345.68	21.49	-45.1	-46.3	21.2	0.00e+00	0	43	0	988807168	60	4456
2026-01-23 07:29:21.32	345.50	21.39	-45.1	-46.2	21.3	0.00e+00	0	43	0	989855744	60	4431
2026-01-23 07:29:22.33	345.33	21.29	-45.2	-46.3	21.1	0.00e+00	0	43	0	991952896	60	4493
2026-01-23 07:29:23.34	345.15	21.19	-45.2	-46.4	21.1	0.00e+00	0	43	0	994050048	61	4285
2026-01-23 07:29:24.35	344.98	21.08	-45.2	-46.3	21.2	0.00e+00	0	43	0	996147200	61	4231
2026-01-23 07:29:25.35	344.80	20.98	-45.3	-46.5	21.0	0.00e+00	0	43	0	998244352	61	4305
2026-01-23 07:29:26.37	344.63	20.88	-45.3	-46.5	21.0	0.00e+00	0	43	0	1000341504	61	4301
2026-01-23 07:29:27.37	344.46	20.78	-45.3	-46.4	21.1	0.00e+00	0	43	0	1001390080	61	4290
2026-01-23 07:29:28.38	344.29	20.68	-45.2	-46.4	21.1	0.00e+00	0	43	0	1003487232	61	4273
2026-01-23 07:29:29.39	344.12	20.58	-45.3	-46.5	21.0	0.00e+00	0	43	0	1005584384	61	4309
2026-01-23 07:29:30.40	343.95	20.47	-45.3	-46.5	21.1	0.00e+00	0	43	0	1007681536	61	4293
2026-01-23 07:29:31.40	343.79	20.37	-45.4	-46.6	20.9	0.00e+00	0	43	0	1009778688	61	4377
2026-01-23 07:29:32.41	343.62	20.27	-45.4	-46.7	20.9	0.00e+00	0	43	0	1010827264	61	4408
2026-01-23 07:29:33.41	343.46	20.17	-45.4	-46.7	20.8	0.00e+00	0	43	0	1012924416	61	4407
2026-01-23 07:29:34.42	343.30	20.07	-45.6	-46.8	20.7	0.00e+00	0	43	0	1015021568	61	4475
2026-01-23 07:29:35.43	343.14	19.97	-45.6	-46.8	20.6	0.00e+00	0	43	0	1017118720	61	4486
2026-01-23 07:29:36.44	342.97	19.87	-45.7	-47.0	20.5	0.00e+00	0	43	0	1018167296	61	4558
2026-01-23 07:29:37.45	342.81	19.77	-45.8	-47.0	20.5	0.00e+00	0	43	0	1020264448	62	4340
2026-01-23 07:29:38.46	342.66	19.67	-45.8	-47.1	20.4	0.00e+00	0	43	0	1022361600	62	4359
2026-01-23 07:29:39.46	342.50	19.57	-45.8	-47.1	20.4	0.00e+00	0	43	0	1024458752	62	4366
2026-01-23 07:29:40.47	342.34	19.47	-45.9	-47.2	20.3	0.00e+00	0	43	0	1026555904	62	4434
2026-01-23 07:29:41.48	342.19	19.37	-45.9	-47.3	20.3	0.00e+00	0	43	0	1028653056	62	4445
2026-01-23 07:29:42.49	342.03	19.27	-46.0	-47.3	20.2	0.00e+00	0	43	0	1029701632	62	4475
2026-01-23 07:29:43.50	341.88	19.17	-46.0	-47.3	20.2	0.00e+00	0	43	0	1031798784	62	4485
2026-01-23 07:29:44.50	341.73	19.08	-46.1	-47.5	20.0	0.00e+00	0	43	0	1033895936	62	4557
2026-01-23 07:29:45.52	341.57	18.98	-46.1	-47.4	20.1	0.00e+00	0	43	0	1035993088	62	4522
2026-01-23 07:29:46.52	341.42	18.88	-46.1	-47.5	20.1	0.00e+00	0	43	0	1038090240	62	4548
2026-01-23 07:29:47.53	341.27	18.78	-46.2	-47.6	19.9	0.00e+00	0	43	0	1039138816	63	4381
2026-01-23 07:29:48.54	341.13	18.68	-46.2	-47.6	20.0	0.00e+00	0	43	0	1041235968	63	4342
2026-01-23 07:29:49.55	340.98	18.58	-46.2	-47.6	19.9	0.00e+00	0	43	0	1043333120	63	4386
2026-01-23 07:29:50.56	340.83	18.48	-46.4	-47.8	19.7	0.00e+00	0	43	0	1045430272	63	4454
2026-01-23 07:29:51.56	340.69	18.39	-46.4	-47.9	19.7	0.00e+00	0	43	0	1047527424	63	4500
2026-01-23 07:29:52.57	340.54	18.29	-46.4	-47.8	19.7	0.00e+00	0	43	0	1048576000	63	4487
2026-01-23 07:29:53.58	340.40	18.19	-46.4	-47.9	19.7	0.00e+00	0	43	0	1050673152	63	4496
2026-01-23 07:29:54.59	340.25	18.10	-46.4	-47.9	19.6	0.00e+00	0	43	0	1052770304	63	4518
2026-01-23 07:29:55.59	340.11	18.00	-46.5	-47.9	19.6	0.00e+00	0	43	0	1054867456	63	4522
2026-01-23 07:29:56.60	339.97	17.90	-46.3	-47.8	19.7	0.00e+00	0	43	0	1056964608	63	4442
2026-01-23 07:29:57.61	339.83	17.81	-46.4	-47.9	19.6	0.00e+00	0	43	0	1058013184	63	4503
2026-01-23 07:29:58.62	339.69	17.71	-46.3	-47.7	19.8	0.00e+00	0	43	0	1060110336	63	4414
2026-01-23 07:29:59.63	339.55	17.61	-46.3	-47.8	19.7	0.00e+00	0	43	0	1062207488	63	4445
2026-01-23 07:30:00.64	339.42	17.52	-46.4	-47.8	19.6	0.00e+00	0	43	0	1064304640	63	4493
2026-01-23 07:30:01.64	339.28	17.42	-46.5	-48.0	19.5	0.00e+00	0	43	0	1066401792	63	4560
2026-01-23 07:30:02.65	339.15	17.33	-46.5	-48.0	19.5	0.00e+00	0	43	0	1067450368	63	4581
2026-01-23 07:30:03.66	339.01	17.23	-46.6	-48.1	19.3	0.00e+00	0	43	0	1069547520	63	4638
2026-01-23 07:30:04.67	338.88	17.14	-46.7	-48.2	19.2	0.00e+00	0	43	0	1071644672	63	4681
2026-01-23 07:30:05.68	338.74	17.04	-46.7	-48.2	19.1	0.00e+00	0	43	0	1073741824	64	4430
2026-01-23 07:30:06.68	338.61	16.95	-46.7	-48.3	19.1	0.00e+00	0	43	0	1075838976	64	4456
2026-01-23 07:30:07.69	338.48	16.85	-46.8	-48.4	19.0	0.00e+00	0	43	0	1076887552	64	4501
2026-01-23 07:30:08.70	338.35	16.76	-46.7	-48.3	19.1	0.00e+00	0	43	0	1078984704	64	4448
2026-01-23 07:30:09.71	338.22	16.66	-46.8	-48.4	18.9	0.00e+00	0	43	0	1081081856	64	4528
2026-01-23 07:30:10.72	338.09	16.57	-46.8	-48.4	18.9	0.00e+00	0	43	0	1083179008	64	4539
2026-01-23 07:30:11.72	337.96	16.48	-46.8	-48.4	18.9	0.00e+00	0	43	0	1085276160	64	4533
2026-01-23 07:30:12.73	337.84	16.38	-46.9	-48.5	18.8	0.00e+00	0	43	0	1086324736	64	4575
2026-01-23 07:30:13.74	337.71	16.29	-46.8	-48.3	19.0	3.80e-06	0	43	0	1088421888	64	4482
2026-01-23 07:30:14.75	337.58	16.20	-46.7	-48.3	19.0	0.00e+00	0	43	0	1090519040	64	4466
2026-01-23 07:30:15.76	337.46	16.10	-46.7	-48.3	19.1	0.00e+00	0	43	0	1092616192	64	4447
2026-01-23 07:30:16.76	337.34	16.01	-46.7	-48.2	19.1	0.00e+00	0	43	0	1094713344	64	4428
2026-01-23 07:30:17.77	337.21	15.92	-46.7	-48.3	19.0	0.00e+00	0	43	0	1096810496	64	4457
2026-01-23 07:30:18.78	337.09	15.83	-46.7	-48.3	19.1	0.00e+00	0	43	0	1097859072	64	4445
2026-01-23 07:30:19.79	336.97	15.74	-46.6	-48.2	19.2	0.00e+00	0	43	0	1099956224	64	4401
2026-01-23 07:30:20.79	336.85	15.64	-46.7	-48.2	19.1	0.00e+00	0	43	0	1102053376	64	4441
2026-01-23 07:30:21.80	336.73	15.55	-46.7	-48.2	19.1	0.00e+00	0	43	0	1104150528	64	4419
2026-01-23 07:30:22.81	336.61	15.46	-46.6	-48.2	19.1	0.00e+00	0	43	0	1105199104	64	4412
2026-01-23 07:30:23.82	336.49	15.37	-46.5	-48.1	19.2	1.50e-06	0	43	0	1107296256	64	4347
2026-01-23 07:30:24.83	336.37	15.28	-46.6	-48.2	19.1	0.00e+00	0	43	0	1109393408	64	4397
2026-01-23 07:30:25.84	336.26	15.19	-46.5	-48.1	19.2	0.00e+00	0	43	0	1111490560	64	4344
2026-01-23 07:30:26.85	336.14	15.10	-46.6	-48.1	19.2	0.00e+00	0	43	0	1113587712	64	4366
2026-01-23 07:30:27.86	336.02	15.01	-46.6	-48.2	19.1	0.00e+00	0	43	0	1115684864	64	4397
2026-01-23 07:30:28.86	335.91	14.92	-46.6	-48.2	19.1	0.00e+00	0	43	0	1116733440	64	4399
2026-01-23 07:30:29.87	335.79	14.83	-46.7	-48.2	19.0	0.00e+00	0	43	0	1118830592	64	4431
2026-01-23 07:30:30.88	335.68	14.74	-46.7	-48.3	19.0	0.00e+00	0	43	0	1120927744	64	4448
2026-01-23 07:30:31.89	335.57	14.65	-46.8	-48.4	18.9	0.00e+00	0	43	0	1123024896	64	4521
2026-01-23 07:30:32.89	335.46	14.56	-46.8	-48.4	18.8	0.00e+00	0	43	0	1125122048	64	4525
2026-01-23 07:30:33.90	335.35	14.47	-46.8	-48.4	18.8	0.00e+00	0	43	0	1126170624	64	4535
2026-01-23 07:30:34.91	335.23	14.38	-46.9	-48.5	18.8	0.00e+00	0	43	0	1128267776	64	4556
2026-01-23 07:30:35.92	335.12	14.29	-46.8	-48.5	18.8	0.00e+00	0	43	0	1130364928	64	4546
2026-01-23 07:30:36.93	335.01	14.21	-46.9	-48.5	18.7	0.00e+00	0	43	0	1132462080	64	4566
2026-01-23 07:30:37.94	334.91	14.12	-46.9	-48.5	18.7	0.00e+00	0	43	0	1133510656	64	4579
2026-01-23 07:30:38.95	334.80	14.03	-46.8	-48.4	18.8	0.00e+00	0	43	0	1135607808	64	4529
2026-01-23 07:30:39.95	334.69	13.94	-46.9	-48.5	18.7	0.00e+00	0	43	0	1137704960	64	4570
2026-01-23 07:30:40.96	334.58	13.86	-46.9	-48.5	18.8	0.00e+00	0	43	0	1139802112	64	4561
2026-01-23 07:30:41.97	334.48	13.77	-46.8	-48.4	18.8	0.00e+00	0	43	0	1141899264	64	4525
2026-01-23 07:30:42.98	334.37	13.68	-46.8	-48.5	18.7	0.00e+00	0	43	0	1143996416	64	4547
2026-01-23 07:30:43.99	334.27	13.59	-46.8	-48.4	18.8	0.00e+00	0	43	0	1145044992	64	4504
2026-01-23 07:30:44.99	334.16	13.51	-46.8	-48.4	18.8	0.00e+00	0	43	0	1147142144	64	4532
2026-01-23 07:30:46.00	334.06	13.42	-46.8	-48.4	18.8	0.00e+00	0	43	0	1149239296	64	4520
2026-01-23 07:30:47.01	333.96	13.34	-46.8	-48.4	18.8	0.00e+00	0	43	0	1151336448	64	4505
2026-01-23 07:30:48.02	333.85	13.25	-46.8	-48.5	18.7	0.00e+00	0	43	0	1153433600	64	4558
2026-01-23 07:30:49.03	333.75	13.16	-46.9	-48.5	18.7	0.00e+00	0	43	0	1154482176	64	4570
2026-01-23 07:30:50.03	333.65	13.08	-46.7	-48.2	18.9	0.00e+00	0	43	0	1156579328	64	4439
2026-01-23 07:30:51.04	333.55	12.99	-46.7	-48.3	18.8	0.00e+00	0	43	0	1158676480	64	4473
2026-01-23 07:30:52.05	333.45	12.91	-46.7	-48.3	18.9	0.00e+00	0	43	0	1160773632	64	4446
2026-01-23 07:30:53.06	333.35	12.82	-46.8	-48.4	18.8	0.00e+00	0	43	0	1162870784	64	4508
2026-01-23 07:30:54.07	333.25	12.74	-46.7	-48.3	18.8	0.00e+00	0	43	0	1163919360	64	4470
2026-01-23 07:30:55.07	333.16	12.65	-46.8	-48.4	18.7	0.00e+00	0	43	0	1166016512	64	4506
2026-01-23 07:30:56.08	333.06	12.57	-46.8	-48.4	18.7	0.00e+00	0	43	0	1168113664	64	4529
2026-01-23 07:30:57.09	332.96	12.49	-46.8	-48.4	18.8	0.00e+00	0	43	0	1170210816	64	4530
2026-01-23 07:30:58.09	332.87	12.40	-46.8	-48.4	18.7	0.00e+00	0	43	0	1172307968	64	4540
2026-01-23 07:30:59.10	332.77	12.32	-46.9	-48.6	18.6	0.00e+00	0	43	0	1173356544	64	4599
2026-01-23 07:31:00.11	332.67	12.23	-46.9	-48.6	18.5	0.00e+00	0	43	0	1175453696	64	4625
2026-01-23 07:31:01.12	332.58	12.15	-47.1	-48.9	18.3	0.00e+00	0	43	0	1177550848	64	4767
2026-01-23 07:31:02.13	332.48	12.07	-47.0	-48.8	18.3	0.00e+00	0	43	0	1179648000	64	4708
2026-01-23 07:31:03.14	332.39	11.98	-47.1	-48.9	18.2	0.00e+00	0	43	0	1181745152	64	4781
2026-01-23 07:31:04.14	332.30	11.90	-47.2	-48.9	18.2	9.10e-06	0	43	0	1182793728	64	4814
2026-01-23 07:31:05.15	332.21	11.82	-47.3	-49.1	18.0	0.00e+00	0	43	0	1184890880	65	4648
2026-01-23 07:31:06.16	332.11	11.74	-47.4	-49.2	17.9	6.10e-06	0	43	0	1186988032	65	4702
2026-01-23 07:31:07.17	332.02	11.66	-47.5	-49.4	17.7	0.00e+00	0	43	0	1189085184	65	4778
2026-01-23 07:31:08.18	331.93	11.57	-47.5	-49.4	17.7	0.00e+00	0	43	0	1191182336	65	4772
2026-01-23 07:31:09.18	331.84	11.49	-47.5	-49.4	17.7	0.00e+00	0	43	0	1192230912	65	4788
2026-01-23 07:31:10.19	331.75	11.41	-47.6	-49.5	17.6	0.00e+00	0	43	0	1194328064	65	4818
2026-01-23 07:31:11.20	331.66	11.33	-47.5	-49.4	17.6	0.00e+00	0	43	0	1196425216	65	4805
2026-01-23 07:31:12.20	331.57	11.25	-47.5	-49.4	17.6	0.00e+00	0	43	0	1198522368	65	4813
2026-01-23 07:31:13.21	331.49	11.17	-47.5	-49.4	17.7	0.00e+00	0	43	0	1200619520	65	4773
2026-01-23 07:31:14.22	331.40	11.09	-47.5	-49.4	17.6	0.00e+00	0	43	0	1201668096	65	4777
2026-01-23 07:31:15.23	331.31	11.01	-47.5	-49.4	17.6	0.00e+00	0	43	0	1203765248	65	4814
2026-01-23 07:31:16.24	331.22	10.93	-47.6	-49.5	17.5	0.00e+00	0	43	0	1205862400	65	4853
2026-01-23 07:31:17.25	331.14	10.85	-47.7	-49.7	17.4	0.00e+00	0	43	0	1207959552	65	4950
2026-01-23 07:31:18.25	331.05	10.77	-47.6	-49.5	17.5	0.00e+00	0	43	0	1210056704	66	4589
2026-01-23 07:31:19.27	330.96	10.69	-47.5	-49.4	17.6	0.00e+00	0	43	0	1211105280	66	4538
2026-01-23 07:31:20.27	330.88	10.61	-47.6	-49.5	17.5	0.00e+00	0	43	0	1213202432	66	4565
2026-01-23 07:31:21.28	330.80	10.53	-47.6	-49.6	17.5	0.00e+00	0	43	0	1215299584	66	4621
2026-01-23 07:31:22.29	330.71	10.45	-47.6	-49.5	17.5	0.00e+00	0	43	0	1217396736	66	4592
2026-01-23 07:31:23.30	330.63	10.37	-47.6	-49.5	17.5	0.00e+00	0	43	0	1219493888	66	4595
2026-01-23 07:31:24.31	330.55	10.29	-47.7	-49.7	17.3	0.00e+00	0	43	0	1220542464	66	4679
2026-01-23 07:31:25.31	330.46	10.21	-47.7	-49.7	17.3	0.00e+00	0	43	0	1222639616	66	4669
2026-01-23 07:31:26.32	330.38	10.13	-47.8	-49.8	17.2	0.00e+00	0	43	0	1224736768	66	4709
2026-01-23 07:31:27.33	330.30	10.06	-47.8	-49.8	17.2	0.00e+00	0	43	0	1226833920	66	4752
2026-01-23 07:31:28.34	330.22	9.98	-47.8	-49.8	17.2	0.00e+00	0	43	0	1228931072	66	4722
2026-01-23 07:31:29.35	330.14	9.90	-47.8	-49.9	17.2	0.00e+00	0	43	0	1229979648	66	4760
2026-01-23 07:31:30.36	330.06	9.82	-47.9	-50.0	17.0	0.00e+00	0	43	0	1232076800	66	4822
2026-01-23 07:31:31.36	329.98	9.75	-47.9	-50.0	17.0	0.00e+00	0	43	0	1234173952	66	4835
2026-01-23 07:31:32.37	329.90	9.67	-47.8	-49.9	17.1	0.00e+00	0	43	0	1236271104	66	4784
