passes_logs/2026/01/23/R3.2S_Murmansk/R3.2S_Murmansk__20260123_101858_SUOMI_NPP_rec.log

#Pass ID: 20260123_101858_SUOMI NPP
#Satellite: SUOMI NPP
#Configuration: NPP
#almurnet v.1.7.20251203
#Start time: 2026-01-23 10:18:58

#Version: 2.2.20231116
#Station: R3.2S_Murmansk
#Location: 33.079688 lon 68.888172 lat
#TLE: 1 37849U 11061A   26022.50498765  .00000208  00000+0  11976-3 0  9992
#TLE: 2 37849  98.7820 324.4892 0002275  50.8149 309.3229 14.19528284737775

#Time	Az	El	Level	Level2	SNR	BER	BlckErr	Temp	State	Recorded	gain1	gain2
2026-01-23 10:18:58.76	169.09	1.99	-54.3	-69.3	3.8	1.49e+00	0	40	0	0	79	21097
2026-01-23 10:18:59.77	169.11	2.06	-54.4	-69.5	3.8	1.49e+00	0	40	104	0	79	21559
2026-01-23 10:19:00.78	169.13	2.12	-54.5	-69.6	3.8	1.49e+00	0	40	104	0	79	21807
2026-01-23 10:19:01.79	169.16	2.19	-54.5	-69.6	3.8	1.49e+00	0	40	104	0	79	21794
2026-01-23 10:19:02.80	169.18	2.25	-54.5	-69.5	3.8	1.49e+00	0	40	104	0	79	21722
2026-01-23 10:19:03.80	169.20	2.31	-54.5	-69.5	3.8	1.49e+00	0	40	104	0	79	21676
2026-01-23 10:19:04.81	169.22	2.38	-54.5	-69.5	3.8	1.49e+00	0	40	104	0	79	21561
2026-01-23 10:19:05.82	169.25	2.44	-54.4	-69.5	3.8	1.49e+00	0	40	104	0	79	21546
2026-01-23 10:19:06.83	169.27	2.51	-54.4	-69.4	3.8	1.49e+00	0	41	104	0	79	21423
2026-01-23 10:19:07.84	169.30	2.57	-54.4	-69.4	3.8	1.49e+00	0	41	104	0	79	21285
2026-01-23 10:19:08.84	169.32	2.64	-54.3	-69.3	3.8	1.49e+00	0	40	104	0	79	21247
2026-01-23 10:19:09.85	169.34	2.70	-54.3	-69.3	3.8	1.49e+00	0	41	104	0	79	21124
2026-01-23 10:19:10.86	169.37	2.77	-54.2	-69.2	3.8	1.49e+00	0	41	104	0	79	20967
2026-01-23 10:19:11.87	169.39	2.84	-54.2	-69.2	3.8	1.49e+00	0	41	104	0	79	20874
2026-01-23 10:19:12.88	169.42	2.90	-54.2	-69.2	3.8	1.49e+00	0	41	104	0	79	20799
2026-01-23 10:19:13.88	169.44	2.97	-54.1	-69.1	3.8	1.49e+00	0	41	104	0	79	20607
2026-01-23 10:19:14.89	169.46	3.03	-54.0	-69.0	3.8	1.49e+00	0	41	104	0	79	20481
2026-01-23 10:19:15.90	169.49	3.10	-54.0	-69.0	3.8	1.49e+00	0	41	104	0	79	20321
2026-01-23 10:19:16.91	169.51	3.17	-53.9	-68.9	3.8	1.49e+00	0	41	104	0	79	20118
2026-01-23 10:19:17.91	169.54	3.23	-53.8	-68.8	3.8	1.49e+00	0	41	104	0	79	19853
2026-01-23 10:19:18.92	169.56	3.30	-53.7	-68.7	3.8	1.49e+00	0	41	104	0	79	19639
2026-01-23 10:19:19.93	169.59	3.37	-53.5	-68.5	3.8	1.49e+00	0	41	104	0	79	19311
2026-01-23 10:19:20.94	169.61	3.43	-53.3	-68.2	3.8	1.49e+00	0	41	104	0	78	19799
2026-01-23 10:19:21.95	169.64	3.50	-52.8	-67.5	3.8	1.49e+00	0	41	104	0	77	19378
2026-01-23 10:19:22.96	169.66	3.57	-52.7	-67.4	3.8	1.49e+00	0	41	104	0	77	19093
2026-01-23 10:19:23.97	169.69	3.64	-52.7	-67.2	3.8	1.49e+00	0	41	104	0	77	18633
2026-01-23 10:19:24.97	169.71	3.70	-52.6	-67.0	3.8	1.49e+00	0	41	104	0	77	18238
2026-01-23 10:19:25.98	169.74	3.77	-52.6	-66.9	3.8	1.49e+00	0	41	104	0	77	18007
2026-01-23 10:19:26.99	169.76	3.84	-52.6	-67.0	3.8	1.49e+00	0	41	104	0	77	18114
2026-01-23 10:19:28.00	169.79	3.91	-52.6	-67.2	3.8	1.49e+00	0	41	104	0	77	18598
2026-01-23 10:19:29.01	169.81	3.98	-52.6	-67.5	3.8	1.49e+00	0	41	104	0	77	19169
2026-01-23 10:19:30.02	169.84	4.05	-52.6	-67.3	3.8	1.49e+00	0	41	104	0	77	18815
2026-01-23 10:19:31.03	169.87	4.11	-52.6	-66.3	3.8	1.49e+00	0	41	104	0	77	16805
2026-01-23 10:19:32.03	169.89	4.18	-52.5	-64.7	4.0	1.49e+00	0	41	104	0	77	13889
2026-01-23 10:19:33.04	169.92	4.25	-52.2	-62.0	5.0	1.28e+00	0	41	0	1048576	76	10835
2026-01-23 10:19:34.05	169.94	4.32	-52.0	-60.1	6.3	3.59e-01	0	41	0	2097152	76	8716
2026-01-23 10:19:35.06	169.97	4.39	-51.4	-57.6	8.6	1.03e-01	0	41	0	4194304	74	7328
2026-01-23 10:19:36.07	170.00	4.46	-50.8	-55.7	10.5	9.67e-03	0	41	0	6291456	73	6267
2026-01-23 10:19:37.08	170.02	4.53	-50.2	-54.2	12.2	1.03e-03	0	41	0	8388608	72	5569
2026-01-23 10:19:38.09	170.05	4.60	-49.9	-53.4	13.1	8.62e-05	0	41	0	10485760	71	5398
2026-01-23 10:19:39.10	170.08	4.67	-49.3	-52.4	14.1	1.14e-05	0	41	0	11534336	70	5066
2026-01-23 10:19:40.11	170.10	4.74	-48.9	-51.8	14.7	0.00e+00	0	42	0	13631488	69	5000
2026-01-23 10:19:41.12	170.13	4.81	-48.3	-50.8	15.7	0.00e+00	0	41	0	15728640	68	4734
2026-01-23 10:19:42.12	170.16	4.88	-48.1	-50.5	16.0	0.00e+00	0	41	0	17825792	67	4821
2026-01-23 10:19:43.13	170.19	4.95	-48.0	-50.3	16.1	0.00e+00	0	41	0	19922944	67	4731
2026-01-23 10:19:44.14	170.21	5.03	-47.8	-50.0	16.4	0.00e+00	0	41	0	20971520	67	4592
2026-01-23 10:19:45.15	170.24	5.10	-48.9	-51.6	15.0	0.00e+00	0	41	0	23068672	68	5205
2026-01-23 10:19:46.16	170.27	5.17	-50.0	-53.7	12.7	0.00e+00	0	41	0	25165824	70	5887
2026-01-23 10:19:47.16	170.30	5.24	-50.1	-53.8	12.8	5.30e-06	0	42	0	27262976	70	5939
2026-01-23 10:19:48.17	170.32	5.31	-49.9	-53.3	13.1	9.91e-05	0	42	0	29360128	71	5299
2026-01-23 10:19:49.18	170.35	5.38	-50.4	-54.9	11.4	9.44e-04	0	42	0	31457280	72	6011
2026-01-23 10:19:50.19	170.38	5.46	-47.5	-49.6	16.8	0.00e+00	0	41	0	32505856	67	4363
2026-01-23 10:19:51.20	170.41	5.53	-47.7	-49.8	16.6	0.00e+00	0	42	0	34603008	67	4480
2026-01-23 10:19:52.21	170.44	5.60	-47.4	-49.5	17.0	0.00e+00	0	42	0	36700160	66	4568
2026-01-23 10:19:53.22	170.46	5.67	-47.4	-49.5	17.0	0.00e+00	0	41	0	38797312	66	4570
2026-01-23 10:19:54.22	170.49	5.75	-47.5	-49.6	16.8	0.00e+00	0	42	0	39845888	66	4636
2026-01-23 10:19:55.23	170.52	5.82	-47.5	-49.5	17.0	0.00e+00	0	42	0	41943040	66	4582
2026-01-23 10:19:56.24	170.55	5.89	-47.3	-49.3	17.2	0.00e+00	0	42	0	44040192	66	4470
2026-01-23 10:19:57.25	170.58	5.97	-47.3	-49.3	17.1	0.00e+00	0	42	0	46137344	66	4493
2026-01-23 10:19:58.26	170.61	6.04	-47.2	-49.2	17.3	0.00e+00	0	42	0	48234496	66	4408
2026-01-23 10:19:59.26	170.64	6.11	-47.1	-49.0	17.5	0.00e+00	0	42	0	50331648	66	4304
2026-01-23 10:20:00.27	170.67	6.19	-47.2	-49.1	17.4	0.00e+00	0	42	0	51380224	66	4364
2026-01-23 10:20:01.28	170.70	6.26	-47.2	-49.1	17.5	0.00e+00	0	42	0	53477376	66	4350
2026-01-23 10:20:02.29	170.73	6.34	-47.0	-48.9	17.7	0.00e+00	0	42	0	55574528	66	4262
2026-01-23 10:20:03.29	170.75	6.41	-47.0	-48.9	17.7	0.00e+00	0	42	0	57671680	65	4517
2026-01-23 10:20:04.30	170.78	6.49	-47.2	-49.1	17.5	0.00e+00	0	42	0	59768832	65	4641
2026-01-23 10:20:05.31	170.81	6.56	-46.9	-48.7	17.8	0.00e+00	0	42	0	60817408	65	4395
2026-01-23 10:20:06.32	170.84	6.64	-47.1	-49.0	17.6	0.00e+00	0	42	0	62914560	65	4567
2026-01-23 10:20:07.33	170.88	6.72	-47.1	-49.0	17.6	0.00e+00	0	42	0	65011712	65	4571
2026-01-23 10:20:08.34	170.91	6.79	-46.9	-48.7	17.9	0.00e+00	0	42	0	67108864	65	4402
2026-01-23 10:20:09.35	170.94	6.87	-47.1	-49.0	17.6	0.00e+00	0	42	0	68157440	65	4552
2026-01-23 10:20:10.35	170.97	6.94	-47.1	-49.0	17.6	0.00e+00	0	42	0	70254592	65	4560
2026-01-23 10:20:11.36	171.00	7.02	-46.8	-48.6	18.1	0.00e+00	0	42	0	72351744	65	4343
2026-01-23 10:20:12.37	171.03	7.10	-46.9	-48.7	17.9	0.00e+00	0	42	0	74448896	65	4433
2026-01-23 10:20:13.38	171.06	7.17	-46.8	-48.5	18.1	0.00e+00	0	42	0	76546048	65	4323
2026-01-23 10:20:14.39	171.09	7.25	-46.8	-48.5	18.1	0.00e+00	0	42	0	78643200	65	4324
2026-01-23 10:20:15.40	171.12	7.33	-46.9	-48.7	18.0	0.00e+00	0	42	0	79691776	65	4398
2026-01-23 10:20:16.41	171.15	7.41	-46.8	-48.6	18.1	0.00e+00	0	42	0	81788928	65	4364
2026-01-23 10:20:17.42	171.19	7.49	-46.6	-48.2	18.4	0.00e+00	0	42	0	83886080	65	4178
2026-01-23 10:20:18.42	171.22	7.56	-46.6	-48.3	18.3	0.00e+00	0	42	0	85983232	65	4222
2026-01-23 10:20:19.43	171.25	7.64	-46.7	-48.4	18.3	0.00e+00	0	42	0	88080384	65	4252
2026-01-23 10:20:20.44	171.28	7.72	-46.8	-48.5	18.2	0.00e+00	0	42	0	89128960	65	4296
2026-01-23 10:20:21.45	171.31	7.80	-46.5	-48.2	18.5	0.00e+00	0	42	0	91226112	65	4161
2026-01-23 10:20:22.46	171.35	7.88	-46.6	-48.3	18.4	0.00e+00	0	42	0	93323264	65	4212
2026-01-23 10:20:23.47	171.38	7.96	-46.7	-48.4	18.3	0.00e+00	0	42	0	95420416	65	4283
2026-01-23 10:20:24.48	171.41	8.04	-46.5	-48.2	18.5	0.00e+00	0	42	0	97517568	65	4166
2026-01-23 10:20:25.48	171.44	8.12	-46.6	-48.3	18.4	0.00e+00	0	42	0	98566144	65	4196
2026-01-23 10:20:26.49	171.48	8.20	-46.6	-48.3	18.4	0.00e+00	0	42	0	100663296	65	4197
2026-01-23 10:20:27.50	171.51	8.28	-46.8	-48.5	18.2	0.00e+00	0	42	0	102760448	65	4309
2026-01-23 10:20:28.51	171.54	8.36	-46.7	-48.4	18.3	0.00e+00	0	42	0	104857600	65	4289
2026-01-23 10:20:29.52	171.58	8.44	-46.7	-48.4	18.4	0.00e+00	0	42	0	106954752	65	4265
2026-01-23 10:20:30.52	171.61	8.52	-46.5	-48.1	18.6	0.00e+00	0	42	0	108003328	64	4373
2026-01-23 10:20:31.53	171.65	8.60	-46.7	-48.4	18.3	0.00e+00	0	42	0	110100480	64	4534
2026-01-23 10:20:32.54	171.68	8.68	-46.6	-48.2	18.5	0.00e+00	0	42	0	112197632	64	4421
2026-01-23 10:20:33.55	171.71	8.77	-46.6	-48.3	18.4	0.00e+00	0	42	0	114294784	64	4479
2026-01-23 10:20:34.56	171.75	8.85	-46.3	-47.8	18.9	0.00e+00	0	42	0	116391936	64	4226
2026-01-23 10:20:35.57	171.78	8.93	-46.5	-48.1	18.7	0.00e+00	0	42	0	118489088	64	4358
2026-01-23 10:20:36.57	171.82	9.01	-46.6	-48.3	18.6	0.00e+00	0	42	0	119537664	64	4450
2026-01-23 10:20:37.58	171.85	9.10	-46.3	-47.9	18.9	0.00e+00	0	42	0	121634816	64	4247
2026-01-23 10:20:38.59	171.89	9.18	-46.2	-47.7	19.1	0.00e+00	0	42	0	123731968	64	4162
2026-01-23 10:20:39.60	171.92	9.26	-46.2	-47.7	19.1	0.00e+00	0	42	0	125829120	64	4180
2026-01-23 10:20:40.60	171.96	9.35	-46.2	-47.7	19.1	0.00e+00	0	42	0	126877696	64	4185
2026-01-23 10:20:41.61	171.99	9.43	-46.1	-47.6	19.2	0.00e+00	0	42	0	128974848	64	4145
2026-01-23 10:20:42.62	172.03	9.52	-46.3	-47.8	19.0	0.00e+00	0	42	0	131072000	64	4214
2026-01-23 10:20:43.63	172.07	9.60	-46.0	-47.4	19.3	0.00e+00	0	42	0	133169152	64	4047
2026-01-23 10:20:44.64	172.10	9.69	-46.2	-47.7	19.2	0.00e+00	0	42	0	135266304	63	4409
2026-01-23 10:20:45.65	172.14	9.77	-46.1	-47.5	19.4	0.00e+00	0	42	0	136314880	63	4332
2026-01-23 10:20:46.65	172.18	9.86	-46.0	-47.5	19.4	0.00e+00	0	42	0	138412032	63	4302
2026-01-23 10:20:47.67	172.21	9.94	-45.9	-47.4	19.5	0.00e+00	0	42	0	140509184	63	4245
2026-01-23 10:20:48.67	172.25	10.03	-46.2	-47.7	19.2	0.00e+00	0	42	0	142606336	63	4421
2026-01-23 10:20:49.68	172.29	10.11	-46.0	-47.5	19.4	0.00e+00	0	42	0	144703488	63	4302
2026-01-23 10:20:50.69	172.32	10.20	-46.1	-47.5	19.4	0.00e+00	0	42	0	146800640	63	4333
2026-01-23 10:20:51.70	172.36	10.29	-45.9	-47.3	19.6	0.00e+00	0	42	0	147849216	63	4216
2026-01-23 10:20:52.71	172.40	10.38	-45.9	-47.3	19.7	0.00e+00	0	42	0	149946368	63	4206
2026-01-23 10:20:53.72	172.44	10.46	-45.8	-47.2	19.7	0.00e+00	0	42	0	152043520	63	4188
2026-01-23 10:20:54.72	172.48	10.55	-45.8	-47.2	19.7	0.00e+00	0	42	0	154140672	63	4183
2026-01-23 10:20:55.73	172.51	10.64	-46.0	-47.5	19.5	0.00e+00	0	42	0	155189248	63	4308
2026-01-23 10:20:56.74	172.55	10.73	-46.0	-47.4	19.5	0.00e+00	0	42	0	157286400	63	4265
2026-01-23 10:20:57.75	172.59	10.82	-45.8	-47.2	19.7	0.00e+00	0	42	0	159383552	63	4186
2026-01-23 10:20:58.75	172.63	10.90	-45.9	-47.4	19.6	0.00e+00	0	42	0	161480704	63	4252
2026-01-23 10:20:59.76	172.67	10.99	-45.8	-47.1	19.8	0.00e+00	0	42	0	163577856	63	4140
2026-01-23 10:21:00.77	172.71	11.08	-45.7	-47.0	19.9	0.00e+00	0	42	0	165675008	63	4079
2026-01-23 10:21:01.78	172.75	11.17	-45.8	-47.2	19.7	0.00e+00	0	42	0	166723584	63	4187
2026-01-23 10:21:02.79	172.79	11.26	-45.7	-47.1	19.8	0.00e+00	0	42	0	168820736	63	4139
2026-01-23 10:21:03.80	172.83	11.36	-45.7	-47.0	19.9	0.00e+00	0	42	0	170917888	63	4096
2026-01-23 10:21:04.80	172.87	11.45	-45.7	-47.0	19.9	0.00e+00	0	42	0	173015040	63	4084
2026-01-23 10:21:05.81	172.91	11.54	-45.6	-47.0	20.0	0.00e+00	0	42	0	175112192	63	4068
2026-01-23 10:21:06.82	172.95	11.63	-45.6	-46.9	20.1	0.00e+00	0	42	0	176160768	63	4027
2026-01-23 10:21:07.83	172.99	11.72	-45.7	-47.1	19.9	0.00e+00	0	42	0	178257920	63	4126
2026-01-23 10:21:08.84	173.03	11.81	-45.7	-47.1	19.9	0.00e+00	0	42	0	180355072	63	4115
2026-01-23 10:21:09.84	173.08	11.91	-45.6	-46.9	20.1	0.00e+00	0	42	0	182452224	63	4033
2026-01-23 10:21:10.85	173.12	12.00	-45.7	-47.1	19.9	0.00e+00	0	42	0	183500800	63	4121
2026-01-23 10:21:11.86	173.16	12.09	-45.7	-47.0	19.9	0.00e+00	0	42	0	185597952	63	4083
2026-01-23 10:21:12.87	173.20	12.19	-45.6	-47.0	20.0	0.00e+00	0	42	0	187695104	63	4060
2026-01-23 10:21:13.88	173.24	12.28	-45.6	-47.0	20.0	0.00e+00	0	42	0	189792256	63	4060
2026-01-23 10:21:14.88	173.29	12.37	-45.7	-47.0	20.0	0.00e+00	0	42	0	191889408	63	4096
2026-01-23 10:21:15.89	173.33	12.47	-45.8	-47.2	19.8	0.00e+00	0	42	0	193986560	63	4175
2026-01-23 10:21:16.90	173.37	12.56	-45.5	-46.8	20.1	0.00e+00	0	42	0	195035136	63	4000
2026-01-23 10:21:17.91	173.42	12.66	-45.3	-46.6	20.4	0.00e+00	0	42	0	197132288	62	4128
2026-01-23 10:21:18.92	173.46	12.76	-45.3	-46.6	20.4	0.00e+00	0	42	0	199229440	62	4121
2026-01-23 10:21:19.92	173.50	12.85	-45.3	-46.6	20.3	0.00e+00	0	42	0	201326592	62	4122
2026-01-23 10:21:20.93	173.55	12.95	-45.4	-46.7	20.3	0.00e+00	0	42	0	203423744	62	4147
2026-01-23 10:21:21.94	173.59	13.05	-45.4	-46.6	20.4	0.00e+00	0	42	0	204472320	62	4137
2026-01-23 10:21:22.95	173.64	13.14	-45.2	-46.5	20.5	0.00e+00	0	42	0	206569472	62	4072
2026-01-23 10:21:23.96	173.68	13.24	-45.4	-46.6	20.4	0.00e+00	0	42	0	208666624	62	4138
2026-01-23 10:21:24.96	173.73	13.34	-45.3	-46.6	20.4	0.00e+00	0	42	0	210763776	62	4106
2026-01-23 10:21:25.97	173.77	13.44	-45.3	-46.6	20.4	0.00e+00	0	42	0	212860928	62	4137
2026-01-23 10:21:26.98	173.82	13.54	-45.3	-46.6	20.4	0.00e+00	0	42	0	213909504	62	4114
2026-01-23 10:21:27.99	173.87	13.64	-45.2	-46.4	20.6	0.00e+00	0	42	0	216006656	62	4027
2026-01-23 10:21:28.99	173.91	13.73	-45.2	-46.5	20.5	0.00e+00	0	42	0	218103808	62	4060
2026-01-23 10:21:30.00	173.96	13.83	-45.3	-46.5	20.4	0.00e+00	0	42	0	220200960	62	4093
2026-01-23 10:21:31.01	174.01	13.93	-45.2	-46.5	20.5	0.00e+00	0	42	0	222298112	62	4056
2026-01-23 10:21:32.02	174.05	14.04	-45.3	-46.5	20.5	0.00e+00	0	42	0	223346688	62	4093
2026-01-23 10:21:33.03	174.10	14.14	-45.3	-46.6	20.3	0.00e+00	0	42	0	225443840	62	4128
2026-01-23 10:21:34.04	174.15	14.24	-45.3	-46.6	20.4	0.00e+00	0	42	0	227540992	62	4113
2026-01-23 10:21:35.05	174.20	14.34	-45.3	-46.5	20.5	0.00e+00	0	42	0	229638144	62	4080
2026-01-23 10:21:36.06	174.25	14.44	-45.3	-46.5	20.5	0.00e+00	0	42	0	231735296	62	4088
2026-01-23 10:21:37.06	174.30	14.55	-45.4	-46.7	20.4	0.00e+00	0	42	0	233832448	62	4161
2026-01-23 10:21:38.07	174.35	14.65	-45.3	-46.6	20.4	0.00e+00	0	42	0	234881024	62	4128
2026-01-23 10:21:39.08	174.40	14.75	-45.4	-46.7	20.3	0.00e+00	0	42	0	236978176	62	4177
2026-01-23 10:21:40.09	174.45	14.86	-45.4	-46.7	20.3	0.00e+00	0	42	0	239075328	62	4178
2026-01-23 10:21:41.09	174.50	14.96	-45.4	-46.7	20.3	0.00e+00	0	42	0	241172480	62	4185
2026-01-23 10:21:42.10	174.55	15.07	-45.5	-46.8	20.3	0.00e+00	0	42	0	242221056	62	4207
2026-01-23 10:21:43.11	174.60	15.17	-45.6	-47.0	20.1	0.00e+00	0	42	0	244318208	62	4305
2026-01-23 10:21:44.12	174.65	15.28	-45.6	-46.9	20.2	0.00e+00	0	42	0	246415360	62	4253
2026-01-23 10:21:45.12	174.70	15.38	-45.6	-46.9	20.2	0.00e+00	0	42	0	248512512	62	4266
2026-01-23 10:21:46.13	174.75	15.49	-45.5	-46.8	20.2	0.00e+00	0	42	0	250609664	62	4239
2026-01-23 10:21:47.14	174.80	15.60	-45.8	-47.2	19.9	0.00e+00	0	43	0	251658240	62	4426
2026-01-23 10:21:48.15	174.86	15.71	-45.5	-46.8	20.3	0.00e+00	0	42	0	253755392	62	4202
2026-01-23 10:21:49.16	174.91	15.81	-45.5	-46.8	20.3	0.00e+00	0	42	0	255852544	62	4235
2026-01-23 10:21:50.16	174.96	15.92	-45.5	-46.8	20.3	0.00e+00	0	42	0	257949696	62	4216
2026-01-23 10:21:51.17	175.02	16.03	-45.5	-46.8	20.3	0.00e+00	0	42	0	260046848	62	4241
2026-01-23 10:21:52.18	175.07	16.14	-45.6	-47.0	20.2	0.00e+00	0	42	0	262144000	62	4298
2026-01-23 10:21:53.19	175.12	16.25	-45.8	-47.1	20.0	0.00e+00	0	42	0	263192576	62	4371
2026-01-23 10:21:54.19	175.18	16.36	-45.5	-46.8	20.3	0.00e+00	0	42	0	265289728	62	4241
2026-01-23 10:21:55.20	175.23	16.47	-45.6	-46.9	20.2	0.00e+00	0	42	0	267386880	62	4281
2026-01-23 10:21:56.21	175.29	16.58	-45.8	-47.1	20.0	0.00e+00	0	42	0	269484032	62	4368
2026-01-23 10:21:57.22	175.35	16.70	-45.7	-47.0	20.1	0.00e+00	0	42	0	270532608	62	4340
2026-01-23 10:21:58.22	175.40	16.81	-45.9	-47.3	19.9	0.00e+00	0	42	0	272629760	62	4442
2026-01-23 10:21:59.23	175.46	16.92	-45.9	-47.3	19.9	0.00e+00	0	42	0	274726912	62	4481
2026-01-23 10:22:00.24	175.52	17.03	-46.1	-47.5	19.7	0.00e+00	0	42	0	276824064	62	4560
2026-01-23 10:22:01.25	175.57	17.15	-45.9	-47.3	19.9	0.00e+00	0	42	0	278921216	62	4483
2026-01-23 10:22:02.26	175.63	17.26	-46.0	-47.4	19.8	0.00e+00	0	42	0	279969792	62	4506
2026-01-23 10:22:03.26	175.69	17.38	-46.0	-47.5	19.7	0.00e+00	0	42	0	282066944	63	4296
2026-01-23 10:22:04.27	175.75	17.49	-46.2	-47.6	19.6	0.00e+00	0	42	0	284164096	63	4372
2026-01-23 10:22:05.28	175.81	17.61	-46.1	-47.6	19.7	0.00e+00	0	42	0	286261248	63	4351
2026-01-23 10:22:06.29	175.87	17.73	-46.2	-47.6	19.6	0.00e+00	0	42	0	288358400	63	4381
2026-01-23 10:22:07.30	175.93	17.84	-46.2	-47.6	19.6	0.00e+00	0	42	0	290455552	63	4377
2026-01-23 10:22:08.30	175.99	17.96	-46.2	-47.7	19.6	0.00e+00	0	42	0	291504128	63	4394
2026-01-23 10:22:09.31	176.05	18.08	-46.2	-47.6	19.6	0.00e+00	0	42	0	293601280	63	4377
2026-01-23 10:22:10.32	176.11	18.20	-46.2	-47.6	19.7	0.00e+00	0	42	0	295698432	63	4357
2026-01-23 10:22:11.32	176.17	18.32	-45.9	-47.2	20.0	0.00e+00	0	42	0	297795584	63	4193
2026-01-23 10:22:12.33	176.23	18.44	-45.9	-47.3	20.0	0.00e+00	0	42	0	298844160	63	4200
2026-01-23 10:22:13.34	176.29	18.56	-46.0	-47.4	19.9	0.00e+00	0	43	0	300941312	63	4246
2026-01-23 10:22:14.35	176.36	18.68	-46.0	-47.4	19.9	0.00e+00	0	42	0	303038464	63	4248
2026-01-23 10:22:15.36	176.42	18.80	-46.0	-47.4	19.9	0.00e+00	0	42	0	305135616	63	4248
2026-01-23 10:22:16.36	176.49	18.92	-46.1	-47.5	19.7	0.00e+00	0	42	0	307232768	63	4314
2026-01-23 10:22:17.37	176.55	19.04	-46.2	-47.7	19.6	0.00e+00	0	42	0	309329920	63	4396
2026-01-23 10:22:18.38	176.62	19.17	-46.3	-47.7	19.5	0.00e+00	0	42	0	310378496	63	4418
2026-01-23 10:22:19.39	176.68	19.29	-46.4	-47.9	19.4	0.00e+00	0	42	0	312475648	63	4504
2026-01-23 10:22:20.40	176.75	19.41	-46.4	-47.8	19.5	0.00e+00	0	42	0	314572800	63	4489
2026-01-23 10:22:21.40	176.81	19.54	-46.2	-47.6	19.7	0.00e+00	0	42	0	316669952	63	4349
2026-01-23 10:22:22.41	176.88	19.66	-46.3	-47.7	19.6	0.00e+00	0	43	0	318767104	63	4415
2026-01-23 10:22:23.42	176.95	19.79	-46.0	-47.4	19.9	0.00e+00	0	42	0	319815680	63	4263
2026-01-23 10:22:24.43	177.02	19.92	-46.1	-47.4	19.8	0.00e+00	0	42	0	321912832	63	4274
2026-01-23 10:22:25.44	177.08	20.04	-45.8	-47.1	20.1	0.00e+00	0	42	0	324009984	63	4121
2026-01-23 10:22:26.44	177.15	20.17	-46.0	-47.3	20.0	0.00e+00	0	42	0	326107136	63	4216
2026-01-23 10:22:27.45	177.22	20.30	-45.9	-47.3	20.0	0.00e+00	0	42	0	327155712	63	4196
2026-01-23 10:22:28.46	177.29	20.43	-45.9	-47.2	20.0	0.00e+00	0	42	0	329252864	63	4174
2026-01-23 10:22:29.47	177.36	20.56	-45.8	-47.1	20.1	0.00e+00	0	42	0	331350016	63	4112
2026-01-23 10:22:30.47	177.44	20.69	-45.9	-47.2	20.0	0.00e+00	0	42	0	333447168	63	4181
2026-01-23 10:22:31.48	177.51	20.82	-45.8	-47.1	20.1	0.00e+00	0	42	0	335544320	63	4133
2026-01-23 10:22:32.49	177.58	20.95	-46.2	-47.6	19.6	0.00e+00	0	42	0	337641472	63	4377
2026-01-23 10:22:33.50	177.65	21.09	-46.1	-47.5	19.7	0.00e+00	0	42	0	338690048	63	4324
2026-01-23 10:22:34.51	177.73	21.22	-46.3	-47.7	19.6	0.00e+00	0	42	0	340787200	63	4402
2026-01-23 10:22:35.52	177.80	21.35	-46.2	-47.6	19.7	0.00e+00	0	42	0	342884352	63	4362
2026-01-23 10:22:36.52	177.88	21.49	-46.3	-47.7	19.6	0.00e+00	0	43	0	344981504	63	4430
2026-01-23 10:22:37.53	177.95	21.62	-46.4	-47.8	19.5	0.00e+00	0	43	0	347078656	63	4493
2026-01-23 10:22:38.54	178.03	21.76	-46.3	-47.8	19.6	0.00e+00	0	42	0	348127232	63	4466
2026-01-23 10:22:39.55	178.11	21.89	-46.4	-47.9	19.5	0.00e+00	0	42	0	350224384	63	4499
2026-01-23 10:22:40.56	178.18	22.03	-46.2	-47.7	19.7	0.00e+00	0	43	0	352321536	63	4399
2026-01-23 10:22:41.56	178.26	22.17	-46.2	-47.6	19.7	0.00e+00	0	42	0	354418688	63	4360
2026-01-23 10:22:42.57	178.34	22.31	-46.0	-47.4	19.9	0.00e+00	0	43	0	356515840	63	4289
2026-01-23 10:22:43.58	178.42	22.45	-46.0	-47.4	19.9	0.00e+00	0	42	0	357564416	63	4243
2026-01-23 10:22:44.59	178.50	22.59	-45.8	-47.2	20.1	0.00e+00	0	42	0	359661568	63	4146
2026-01-23 10:22:45.60	178.58	22.73	-45.5	-46.8	20.5	0.00e+00	0	43	0	361758720	63	3966
2026-01-23 10:22:46.61	178.66	22.87	-45.7	-47.0	20.3	0.00e+00	0	42	0	363855872	62	4310
2026-01-23 10:22:47.62	178.74	23.01	-45.4	-46.6	20.6	0.00e+00	0	42	0	365953024	62	4128
2026-01-23 10:22:48.63	178.83	23.15	-45.0	-46.2	20.9	0.00e+00	0	42	0	367001600	62	3958
2026-01-23 10:22:49.64	178.91	23.30	-45.2	-46.4	20.9	0.00e+00	0	42	0	369098752	62	4018
2026-01-23 10:22:50.64	178.99	23.44	-44.8	-45.9	21.2	0.00e+00	0	42	0	371195904	61	4036
2026-01-23 10:22:51.65	179.08	23.59	-44.8	-45.9	21.3	0.00e+00	0	42	0	373293056	61	4025
2026-01-23 10:22:52.66	179.17	23.73	-44.5	-45.6	21.5	0.00e+00	0	42	0	375390208	60	4113
2026-01-23 10:22:53.67	179.25	23.88	-44.1	-45.1	21.9	0.00e+00	0	42	0	376438784	60	3911
2026-01-23 10:22:54.68	179.34	24.03	-44.1	-45.1	21.9	0.00e+00	0	42	0	378535936	60	3890
2026-01-23 10:22:55.68	179.43	24.17	-44.3	-45.4	22.0	0.00e+00	0	42	0	380633088	59	4251
2026-01-23 10:22:56.69	179.52	24.32	-44.2	-45.2	22.2	0.00e+00	0	42	0	382730240	59	4166
2026-01-23 10:22:57.70	179.61	24.47	-44.2	-45.3	22.1	0.00e+00	0	42	0	384827392	59	4194
2026-01-23 10:22:58.71	179.70	24.62	-44.1	-45.2	22.2	0.00e+00	0	42	0	385875968	59	4146
2026-01-23 10:22:59.72	179.79	24.77	-44.2	-45.2	22.1	0.00e+00	0	42	0	387973120	59	4167
2026-01-23 10:23:00.72	179.88	24.92	-44.1	-45.1	22.2	0.00e+00	0	42	0	390070272	59	4134
2026-01-23 10:23:01.73	179.97	25.08	-44.3	-45.3	22.0	0.00e+00	0	42	0	392167424	59	4242
2026-01-23 10:23:02.73	180.07	25.23	-44.2	-45.2	22.1	0.00e+00	0	42	0	394264576	59	4188
2026-01-23 10:23:03.74	180.16	25.38	-44.2	-45.3	22.1	0.00e+00	0	42	0	395313152	59	4206
2026-01-23 10:23:04.75	180.26	25.54	-44.3	-45.4	22.0	0.00e+00	0	42	0	397410304	59	4255
2026-01-23 10:23:05.76	180.36	25.70	-44.3	-45.4	22.0	0.00e+00	0	42	0	399507456	59	4268
2026-01-23 10:23:06.77	180.45	25.85	-44.6	-45.7	21.7	0.00e+00	0	43	0	401604608	59	4406
2026-01-23 10:23:07.78	180.55	26.01	-44.3	-45.3	22.0	0.00e+00	0	42	0	403701760	59	4241
2026-01-23 10:23:08.78	180.65	26.17	-44.3	-45.4	21.9	0.00e+00	0	42	0	404750336	59	4284
2026-01-23 10:23:09.79	180.75	26.33	-44.5	-45.6	21.8	0.00e+00	0	42	0	406847488	59	4382
2026-01-23 10:23:10.80	180.85	26.49	-44.6	-45.7	21.8	0.00e+00	0	43	0	408944640	59	4420
2026-01-23 10:23:11.81	180.96	26.65	-44.4	-45.5	21.4	0.00e+00	0	42	0	411041792	60	4087
2026-01-23 10:23:12.82	181.06	26.81	-44.3	-45.4	21.7	0.00e+00	0	42	0	413138944	60	4047
2026-01-23 10:23:13.82	181.16	26.98	-44.5	-45.6	21.5	0.00e+00	0	42	0	414187520	60	4135
2026-01-23 10:23:14.83	181.27	27.14	-44.3	-45.4	21.7	0.00e+00	0	42	0	416284672	60	4051
2026-01-23 10:23:15.84	181.38	27.30	-44.5	-45.7	21.5	0.00e+00	0	42	0	418381824	60	4164
2026-01-23 10:23:16.85	181.48	27.47	-44.6	-45.8	21.4	0.00e+00	0	42	0	420478976	60	4210
2026-01-23 10:23:17.86	181.59	27.64	-44.5	-45.7	21.6	0.00e+00	0	42	0	422576128	60	4148
2026-01-23 10:23:18.87	181.70	27.80	-44.4	-45.5	21.7	0.00e+00	0	42	0	424673280	60	4066
2026-01-23 10:23:19.87	181.81	27.97	-44.4	-45.5	21.7	0.00e+00	0	42	0	425721856	60	4071
2026-01-23 10:23:20.88	181.92	28.14	-44.5	-45.6	21.6	0.00e+00	0	42	0	427819008	60	4103
2026-01-23 10:23:21.89	182.04	28.31	-44.5	-45.6	21.6	0.00e+00	0	42	0	429916160	60	4100
2026-01-23 10:23:22.90	182.15	28.48	-44.7	-45.8	21.4	0.00e+00	0	42	0	432013312	60	4222
2026-01-23 10:23:23.91	182.27	28.66	-44.4	-45.5	21.7	0.00e+00	0	43	0	433061888	60	4067
2026-01-23 10:23:24.92	182.39	28.83	-44.6	-45.7	21.6	0.00e+00	0	42	0	435159040	60	4174
2026-01-23 10:23:25.92	182.50	29.00	-44.6	-45.7	21.5	0.00e+00	0	42	0	437256192	60	4153
2026-01-23 10:23:26.93	182.62	29.18	-44.4	-45.5	21.7	0.00e+00	0	42	0	439353344	60	4076
2026-01-23 10:23:27.94	182.74	29.35	-44.7	-45.8	21.5	0.00e+00	0	42	0	441450496	60	4204
2026-01-23 10:23:28.95	182.86	29.53	-44.9	-46.0	21.2	0.00e+00	0	42	0	442499072	60	4338
2026-01-23 10:23:29.96	182.99	29.71	-44.8	-46.0	21.2	0.00e+00	0	42	0	444596224	60	4311
2026-01-23 10:23:30.96	183.11	29.89	-45.1	-46.3	21.0	0.00e+00	0	42	0	446693376	60	4472
2026-01-23 10:23:31.97	183.24	30.07	-45.4	-46.6	20.8	0.00e+00	0	42	0	448790528	61	4375
2026-01-23 10:23:32.98	183.36	30.25	-45.7	-46.9	20.5	0.00e+00	0	42	0	450887680	62	4286
2026-01-23 10:23:33.99	183.49	30.43	-45.8	-47.1	20.3	0.00e+00	0	42	0	452984832	62	4368
2026-01-23 10:23:34.99	183.62	30.61	-46.0	-47.4	20.1	0.00e+00	0	43	0	454033408	62	4506
2026-01-23 10:23:36.00	183.75	30.79	-46.4	-47.8	19.8	0.00e+00	0	42	0	456130560	63	4444
2026-01-23 10:23:37.01	183.89	30.98	-46.5	-47.9	19.6	0.00e+00	0	42	0	458227712	63	4523
2026-01-23 10:23:38.02	184.02	31.17	-46.6	-48.1	19.5	0.00e+00	0	42	0	460324864	63	4619
2026-01-23 10:23:39.03	184.16	31.35	-46.4	-47.9	19.7	0.00e+00	0	42	0	461373440	63	4501
2026-01-23 10:23:40.03	184.29	31.54	-46.7	-48.3	19.2	0.00e+00	0	42	0	463470592	64	4443
2026-01-23 10:23:41.04	184.43	31.73	-47.0	-48.5	18.9	0.00e+00	0	42	0	465567744	64	4591
2026-01-23 10:23:42.05	184.57	31.92	-47.3	-48.9	18.6	0.00e+00	0	42	0	467664896	65	4543
2026-01-23 10:23:43.06	184.71	32.11	-47.6	-49.4	18.2	0.00e+00	0	42	0	469762048	65	4795
2026-01-23 10:23:44.07	184.86	32.30	-48.1	-50.1	17.5	0.00e+00	0	43	0	471859200	66	4897
2026-01-23 10:23:45.08	185.00	32.50	-48.1	-50.0	17.7	0.00e+00	0	42	0	472907776	67	4560
2026-01-23 10:23:46.08	185.15	32.69	-47.9	-49.8	17.9	0.00e+00	0	42	0	475004928	67	4463
2026-01-23 10:23:47.09	185.30	32.88	-48.4	-50.4	17.3	0.00e+00	0	42	0	477102080	67	4781
2026-01-23 10:23:48.10	185.45	33.08	-48.2	-50.1	17.5	0.00e+00	0	42	0	479199232	67	4615
2026-01-23 10:23:49.10	185.60	33.28	-47.8	-49.6	18.0	0.00e+00	0	42	0	481296384	67	4360
2026-01-23 10:23:50.12	185.75	33.48	-47.8	-49.5	18.0	0.00e+00	0	42	0	482344960	67	4327
2026-01-23 10:23:51.12	185.91	33.67	-47.5	-49.2	18.4	0.00e+00	0	42	0	484442112	66	4401
2026-01-23 10:23:52.13	186.07	33.88	-47.1	-48.7	18.9	0.00e+00	0	42	0	486539264	66	4146
2026-01-23 10:23:53.14	186.23	34.08	-46.9	-48.4	19.1	0.00e+00	0	42	0	488636416	65	4260
2026-01-23 10:23:54.15	186.39	34.28	-46.6	-48.1	19.4	0.00e+00	0	42	0	489684992	65	4106
2026-01-23 10:23:55.15	186.55	34.48	-46.5	-47.9	19.5	0.00e+00	0	42	0	491782144	64	4278
2026-01-23 10:23:56.16	186.72	34.69	-46.7	-48.2	19.3	0.00e+00	0	42	0	493879296	64	4424
2026-01-23 10:23:57.17	186.88	34.89	-46.4	-47.8	19.7	0.00e+00	0	42	0	495976448	64	4203
2026-01-23 10:23:58.18	187.05	35.10	-46.8	-48.3	19.3	0.00e+00	0	42	0	498073600	64	4450
2026-01-23 10:23:59.18	187.22	35.31	-46.8	-48.3	19.1	0.00e+00	0	42	0	500170752	64	4468
2026-01-23 10:24:00.19	187.40	35.52	-46.6	-48.1	19.4	0.00e+00	0	42	0	501219328	64	4361
2026-01-23 10:24:01.20	187.57	35.73	-46.6	-48.1	19.4	0.00e+00	0	42	0	503316480	64	4352
2026-01-23 10:24:02.21	187.75	35.94	-47.2	-48.8	18.8	0.00e+00	0	42	0	505413632	65	4470
2026-01-23 10:24:03.22	187.93	36.15	-47.5	-49.2	18.3	0.00e+00	0	43	0	507510784	66	4405
2026-01-23 10:24:04.22	188.12	36.37	-47.5	-49.3	18.4	0.00e+00	0	42	0	509607936	66	4450
2026-01-23 10:24:05.23	188.30	36.58	-48.0	-49.8	17.8	0.00e+00	0	42	0	510656512	66	4749
2026-01-23 10:24:06.24	188.49	36.80	-47.7	-49.4	18.2	0.00e+00	0	42	0	512753664	66	4514
2026-01-23 10:24:07.25	188.68	37.01	-47.5	-49.2	18.4	0.00e+00	0	42	0	514850816	66	4431
2026-01-23 10:24:08.26	188.87	37.23	-47.2	-48.8	18.6	0.00e+00	0	42	0	516947968	66	4211
2026-01-23 10:24:09.26	189.07	37.45	-47.2	-48.8	18.8	0.00e+00	0	42	0	519045120	65	4445
2026-01-23 10:24:10.27	189.26	37.67	-47.1	-48.6	18.9	0.00e+00	0	43	0	520093696	65	4379
2026-01-23 10:24:11.28	189.46	37.89	-47.1	-48.6	18.9	0.00e+00	0	43	0	522190848	65	4377
2026-01-23 10:24:12.29	189.67	38.11	-47.5	-49.2	18.5	0.00e+00	0	42	0	524288000	65	4653
2026-01-23 10:24:13.29	189.87	38.34	-48.0	-49.9	17.8	0.00e+00	0	43	0	526385152	66	4784
2026-01-23 10:24:14.30	190.08	38.56	-48.4	-50.4	17.3	0.00e+00	0	42	0	528482304	67	4772
2026-01-23 10:24:15.31	190.29	38.79	-48.4	-50.4	17.2	0.00e+00	0	42	0	529530880	67	4806
2026-01-23 10:24:16.32	190.51	39.01	-48.3	-50.3	17.4	0.00e+00	0	42	0	531628032	67	4756
2026-01-23 10:24:17.32	190.72	39.24	-47.6	-49.4	18.2	0.00e+00	0	42	0	533725184	67	4253
2026-01-23 10:24:18.33	190.94	39.47	-47.7	-49.5	18.2	0.00e+00	0	43	0	535822336	66	4546
2026-01-23 10:24:19.34	191.17	39.70	-47.5	-49.1	18.5	0.00e+00	0	42	0	537919488	66	4375
2026-01-23 10:24:20.35	191.39	39.93	-47.6	-49.3	18.2	0.00e+00	0	42	0	538968064	66	4484
2026-01-23 10:24:21.35	191.62	40.16	-47.5	-49.2	18.4	0.00e+00	0	43	0	541065216	66	4428
2026-01-23 10:24:22.36	191.85	40.39	-47.5	-49.1	18.4	0.00e+00	0	43	0	543162368	66	4381
2026-01-23 10:24:23.37	192.09	40.63	-47.4	-49.0	18.6	0.00e+00	0	42	0	545259520	66	4333
2026-01-23 10:24:24.38	192.33	40.86	-47.2	-48.8	18.8	0.00e+00	0	42	0	547356672	66	4223
2026-01-23 10:24:25.39	192.57	41.10	-47.2	-48.8	18.8	0.00e+00	0	43	0	548405248	66	4216
2026-01-23 10:24:26.40	192.82	41.34	-47.4	-49.0	18.6	0.00e+00	0	43	0	550502400	66	4325
2026-01-23 10:24:27.40	193.07	41.57	-46.9	-48.4	19.2	0.00e+00	0	42	0	552599552	65	4258
2026-01-23 10:24:28.41	193.32	41.81	-46.4	-47.8	19.7	0.00e+00	0	42	0	554696704	64	4238
2026-01-23 10:24:29.42	193.58	42.05	-46.3	-47.7	19.9	0.00e+00	0	42	0	556793856	64	4149
2026-01-23 10:24:30.43	193.84	42.29	-46.5	-47.9	19.6	0.00e+00	0	42	0	557842432	64	4279
2026-01-23 10:24:31.44	194.10	42.53	-46.6	-48.0	19.5	0.00e+00	0	43	0	559939584	64	4307
2026-01-23 10:24:32.44	194.37	42.77	-46.8	-48.3	19.4	0.00e+00	0	43	0	562036736	64	4444
2026-01-23 10:24:33.45	194.64	43.02	-47.6	-49.3	18.3	0.00e+00	0	43	0	564133888	65	4742
2026-01-23 10:24:34.46	194.92	43.26	-47.9	-49.7	18.0	0.00e+00	0	43	0	566231040	66	4691
2026-01-23 10:24:35.47	195.20	43.51	-48.0	-49.9	17.8	0.00e+00	0	42	0	568328192	67	4509
2026-01-23 10:24:36.47	195.49	43.75	-47.6	-49.3	18.3	0.00e+00	0	43	0	569376768	67	4234
2026-01-23 10:24:37.48	195.78	44.00	-47.3	-48.9	18.8	0.00e+00	0	42	0	571473920	66	4278
2026-01-23 10:24:38.49	196.07	44.25	-47.2	-48.8	18.8	0.00e+00	0	43	0	573571072	66	4212
2026-01-23 10:24:39.50	196.37	44.50	-47.3	-48.9	18.7	0.00e+00	0	42	0	575668224	66	4280
2026-01-23 10:24:40.51	196.67	44.75	-47.5	-49.2	18.5	0.00e+00	0	43	0	576716800	65	4677
2026-01-23 10:24:41.52	196.98	45.00	-47.3	-49.0	18.7	0.00e+00	0	43	0	578813952	65	4548
2026-01-23 10:24:42.53	197.30	45.25	-47.5	-49.3	18.5	0.00e+00	0	43	0	580911104	65	4706
2026-01-23 10:24:43.54	197.61	45.50	-47.8	-49.5	18.1	0.00e+00	0	43	0	583008256	66	4583
2026-01-23 10:24:44.54	197.93	45.75	-47.3	-49.0	18.7	0.00e+00	0	43	0	585105408	66	4301
2026-01-23 10:24:45.55	198.26	46.00	-46.6	-48.1	19.4	0.00e+00	0	43	0	586153984	65	4114
2026-01-23 10:24:46.56	198.60	46.25	-46.6	-48.0	19.5	0.00e+00	0	42	0	588251136	64	4325
2026-01-23 10:24:47.57	198.94	46.51	-46.3	-47.6	19.9	0.00e+00	0	43	0	590348288	64	4141
2026-01-23 10:24:48.57	199.28	46.76	-46.1	-47.5	20.0	0.00e+00	0	43	0	592445440	64	4072
2026-01-23 10:24:49.58	199.63	47.01	-46.3	-47.7	19.9	0.00e+00	0	43	0	594542592	64	4153
2026-01-23 10:24:50.59	199.98	47.27	-46.8	-48.3	19.4	0.00e+00	0	42	0	596639744	64	4448
2026-01-23 10:24:51.60	200.34	47.52	-47.1	-48.7	19.0	0.00e+00	0	43	0	597688320	65	4431
2026-01-23 10:24:52.61	200.71	47.78	-47.1	-48.7	18.9	0.00e+00	0	43	0	599785472	65	4434
2026-01-23 10:24:53.62	201.08	48.03	-47.0	-48.5	19.0	0.00e+00	0	43	0	601882624	65	4336
2026-01-23 10:24:54.62	201.46	48.29	-47.2	-48.8	18.9	0.00e+00	0	42	0	603979776	65	4442
2026-01-23 10:24:55.63	201.84	48.54	-46.8	-48.2	19.4	0.00e+00	0	42	0	605028352	65	4179
2026-01-23 10:24:56.64	202.24	48.80	-46.5	-47.9	19.7	0.00e+00	0	42	0	607125504	64	4244
2026-01-23 10:24:57.65	202.64	49.05	-46.2	-47.5	20.0	0.00e+00	0	43	0	609222656	64	4091
2026-01-23 10:24:58.65	203.04	49.31	-45.8	-47.1	20.4	0.00e+00	0	43	0	611319808	63	4105
2026-01-23 10:24:59.66	203.45	49.56	-45.2	-46.3	21.2	0.00e+00	0	43	0	613416960	62	3996
2026-01-23 10:25:00.67	203.87	49.82	-45.3	-46.5	21.0	0.00e+00	0	43	0	615514112	61	4296
2026-01-23 10:25:01.68	204.29	50.08	-46.3	-47.6	20.0	0.00e+00	0	43	0	616562688	63	4369
2026-01-23 10:25:02.68	204.72	50.33	-47.0	-48.5	19.1	0.00e+00	0	43	0	618659840	64	4571
2026-01-23 10:25:03.69	205.16	50.59	-47.1	-48.7	19.0	0.00e+00	0	43	0	620756992	65	4430
2026-01-23 10:25:04.70	205.61	50.84	-46.7	-48.2	19.4	0.00e+00	0	42	0	622854144	65	4165
2026-01-23 10:25:05.71	206.06	51.09	-46.1	-47.4	20.1	0.00e+00	0	43	0	624951296	64	4035
2026-01-23 10:25:06.72	206.53	51.35	-45.2	-46.4	21.1	0.00e+00	0	43	0	625999872	62	4009
2026-01-23 10:25:07.72	206.99	51.60	-45.2	-46.3	21.2	0.00e+00	0	42	0	628097024	62	3990
2026-01-23 10:25:08.73	207.47	51.85	-46.2	-47.5	20.2	0.00e+00	0	43	0	630194176	62	4571
2026-01-23 10:25:09.74	207.96	52.11	-46.6	-48.1	19.7	0.00e+00	0	43	0	632291328	63	4605
2026-01-23 10:25:10.75	208.45	52.36	-46.4	-47.8	19.7	0.00e+00	0	43	0	633339904	64	4220
2026-01-23 10:25:11.76	208.95	52.61	-45.7	-46.9	20.7	0.00e+00	0	42	0	635437056	63	4020
2026-01-23 10:25:12.76	209.46	52.85	-45.3	-46.5	21.1	0.00e+00	0	42	0	637534208	62	4071
2026-01-23 10:25:13.77	209.98	53.10	-45.7	-46.9	20.7	0.00e+00	0	43	0	639631360	62	4267
2026-01-23 10:25:14.78	210.51	53.35	-46.0	-47.3	20.4	0.00e+00	0	43	0	641728512	63	4212
2026-01-23 10:25:15.79	211.05	53.60	-46.6	-48.1	19.6	0.00e+00	0	43	0	643825664	63	4622
2026-01-23 10:25:16.80	211.59	53.84	-46.2	-47.5	20.1	0.00e+00	0	42	0	644874240	63	4337
2026-01-23 10:25:17.80	212.15	54.08	-45.5	-46.7	20.9	0.00e+00	0	42	0	646971392	63	3931
2026-01-23 10:25:18.81	212.71	54.32	-45.3	-46.4	21.1	0.00e+00	0	42	0	649068544	62	4037
2026-01-23 10:25:19.82	213.29	54.56	-45.2	-46.3	21.3	0.00e+00	0	42	0	651165696	62	3981
2026-01-23 10:25:20.83	213.87	54.80	-45.5	-46.8	20.8	0.00e+00	0	43	0	653262848	62	4202
2026-01-23 10:25:21.84	214.46	55.04	-45.7	-46.9	20.7	0.00e+00	0	43	0	654311424	62	4267
2026-01-23 10:25:22.84	215.06	55.27	-45.4	-46.5	21.1	0.00e+00	0	43	0	656408576	62	4091
2026-01-23 10:25:23.85	215.68	55.50	-45.1	-46.2	21.4	0.00e+00	0	42	0	658505728	62	3935
2026-01-23 10:25:24.86	216.30	55.73	-45.6	-46.9	20.8	0.00e+00	0	42	0	660602880	62	4255
2026-01-23 10:25:25.87	216.94	55.96	-45.6	-46.9	20.8	0.00e+00	0	42	0	662700032	62	4261
2026-01-23 10:25:26.88	217.58	56.18	-45.9	-47.2	20.6	0.00e+00	0	42	0	663748608	62	4409
2026-01-23 10:25:27.88	218.23	56.40	-45.9	-47.2	20.4	0.00e+00	0	43	0	665845760	62	4436
2026-01-23 10:25:28.89	218.89	56.62	-46.3	-47.8	20.0	0.00e+00	0	43	0	667942912	63	4442
2026-01-23 10:25:29.90	219.57	56.84	-46.1	-47.5	20.4	0.00e+00	0	42	0	670040064	63	4299
2026-01-23 10:25:30.91	220.26	57.05	-45.0	-46.1	21.4	0.00e+00	0	42	0	672137216	62	3906
2026-01-23 10:25:31.92	220.95	57.26	-44.5	-45.5	22.0	0.00e+00	0	43	0	673185792	60	4065
2026-01-23 10:25:32.93	221.66	57.47	-44.8	-45.9	21.7	0.00e+00	0	43	0	675282944	60	4256
2026-01-23 10:25:33.94	222.38	57.67	-45.9	-47.2	20.5	0.00e+00	0	42	0	677380096	62	4401
2026-01-23 10:25:34.94	223.10	57.87	-46.4	-47.8	19.9	0.00e+00	0	42	0	679477248	64	4204
2026-01-23 10:25:35.95	223.84	58.07	-46.3	-47.7	19.9	0.00e+00	0	43	0	681574400	64	4154
2026-01-23 10:25:36.96	224.59	58.26	-45.8	-47.0	20.7	0.00e+00	0	43	0	682622976	63	4074
2026-01-23 10:25:37.97	225.35	58.45	-45.7	-47.0	20.8	0.00e+00	0	43	0	684720128	63	4052
2026-01-23 10:25:38.98	226.12	58.64	-45.7	-46.9	20.8	0.00e+00	0	43	0	686817280	62	4271
2026-01-23 10:25:39.99	226.91	58.82	-45.0	-46.1	21.5	0.00e+00	0	43	0	688914432	62	3906
2026-01-23 10:25:40.99	227.69	58.99	-44.4	-45.4	22.1	0.00e+00	0	43	0	691011584	60	4023
2026-01-23 10:25:42.00	228.49	59.16	-44.3	-45.4	22.1	0.00e+00	0	42	0	692060160	60	4018
2026-01-23 10:25:43.01	229.31	59.33	-44.5	-45.6	21.9	0.00e+00	0	43	0	694157312	60	4114
2026-01-23 10:25:44.02	230.13	59.49	-44.9	-46.0	21.6	0.00e+00	0	42	0	696254464	60	4332
2026-01-23 10:25:45.03	230.97	59.65	-45.3	-46.5	21.2	0.00e+00	0	43	0	698351616	61	4316
2026-01-23 10:25:46.03	231.80	59.80	-45.9	-47.1	20.5	0.00e+00	0	42	0	700448768	62	4387
2026-01-23 10:25:47.04	232.66	59.95	-45.3	-46.5	21.1	0.00e+00	0	43	0	701497344	62	4060
2026-01-23 10:25:48.05	233.52	60.09	-44.4	-45.5	22.0	0.00e+00	0	42	0	703594496	60	4053
2026-01-23 10:25:49.06	234.39	60.22	-44.3	-45.3	22.4	0.00e+00	0	43	0	705691648	59	4202
2026-01-23 10:25:50.07	235.27	60.35	-44.3	-45.3	22.2	0.00e+00	0	43	0	707788800	59	4213
2026-01-23 10:25:51.07	236.15	60.48	-44.3	-45.3	22.4	0.00e+00	0	43	0	709885952	59	4238
2026-01-23 10:25:52.08	237.05	60.60	-44.5	-45.6	22.2	0.00e+00	0	43	0	710934528	59	4349
2026-01-23 10:25:53.09	237.96	60.71	-45.0	-46.1	21.6	0.00e+00	0	43	0	713031680	60	4346
2026-01-23 10:25:54.10	238.87	60.82	-45.9	-47.1	20.6	0.00e+00	0	42	0	715128832	62	4380
2026-01-23 10:25:55.11	239.80	60.92	-46.4	-47.8	20.0	0.00e+00	0	43	0	717225984	63	4470
2026-01-23 10:25:56.12	240.73	61.01	-46.1	-47.4	20.3	0.00e+00	0	42	0	719323136	64	4038
2026-01-23 10:25:57.13	241.66	61.10	-45.9	-47.2	20.6	0.00e+00	0	42	0	720371712	63	4174
2026-01-23 10:25:58.14	242.60	61.18	-46.0	-47.3	20.6	0.00e+00	0	43	0	722468864	63	4195
2026-01-23 10:25:59.15	243.55	61.25	-46.0	-47.3	20.5	0.00e+00	0	43	0	724566016	63	4210
2026-01-23 10:26:00.15	244.50	61.32	-45.9	-47.1	20.6	0.00e+00	0	43	0	726663168	63	4133
2026-01-23 10:26:01.16	245.45	61.38	-46.0	-47.3	20.5	0.00e+00	0	43	0	728760320	63	4206
2026-01-23 10:26:02.17	246.42	61.43	-46.0	-47.3	20.5	0.00e+00	0	43	0	730857472	63	4196
2026-01-23 10:26:03.18	247.38	61.48	-45.6	-46.8	20.9	0.00e+00	0	42	0	731906048	62	4204
2026-01-23 10:26:04.19	248.35	61.52	-45.0	-46.1	21.5	0.00e+00	0	42	0	734003200	61	4131
2026-01-23 10:26:05.19	249.32	61.55	-44.7	-45.8	21.7	0.00e+00	0	42	0	736100352	61	3978
2026-01-23 10:26:06.20	250.29	61.58	-45.4	-46.6	21.1	0.00e+00	0	43	0	738197504	61	4387
2026-01-23 10:26:07.21	251.27	61.60	-45.8	-47.1	20.7	0.00e+00	0	42	0	739246080	62	4343
2026-01-23 10:26:08.22	252.25	61.61	-45.3	-46.4	21.2	0.00e+00	0	42	0	741343232	62	4035
2026-01-23 10:26:09.23	253.22	61.61	-44.6	-45.6	21.9	0.00e+00	0	43	0	743440384	61	3885
2026-01-23 10:26:10.23	254.19	61.61	-44.4	-45.5	22.0	0.00e+00	0	42	0	745537536	61	3826
2026-01-23 10:26:11.24	255.17	61.60	-44.3	-45.3	22.2	0.00e+00	0	42	0	747634688	60	3991
2026-01-23 10:26:12.25	256.15	61.59	-44.1	-45.1	22.4	0.00e+00	0	42	0	748683264	60	3907
2026-01-23 10:26:13.26	257.12	61.56	-44.3	-45.4	22.2	0.00e+00	0	42	0	750780416	60	4013
2026-01-23 10:26:14.27	258.10	61.53	-45.3	-46.5	21.2	0.00e+00	0	42	0	752877568	61	4309
2026-01-23 10:26:15.27	259.06	61.49	-45.9	-47.2	20.6	0.00e+00	0	43	0	754974720	62	4432
2026-01-23 10:26:16.28	260.02	61.45	-45.2	-46.4	21.2	0.00e+00	0	43	0	757071872	62	4026
2026-01-23 10:26:17.29	260.99	61.40	-44.4	-45.4	22.1	0.00e+00	0	42	0	759169024	60	4040
2026-01-23 10:26:18.30	261.95	61.34	-45.0	-46.2	21.4	0.00e+00	0	43	0	760217600	61	4156
2026-01-23 10:26:19.31	262.90	61.27	-45.4	-46.6	21.2	0.00e+00	0	43	0	762314752	61	4343
2026-01-23 10:26:20.32	263.85	61.20	-45.5	-46.7	20.9	0.00e+00	0	43	0	764411904	61	4426
2026-01-23 10:26:21.32	264.79	61.12	-45.8	-47.0	20.9	0.00e+00	0	43	0	766509056	62	4328
2026-01-23 10:26:22.33	265.72	61.04	-45.4	-46.6	21.1	0.00e+00	0	43	0	767557632	62	4103
2026-01-23 10:26:23.34	266.65	60.95	-44.7	-45.7	21.8	0.00e+00	0	43	0	769654784	61	3946
2026-01-23 10:26:24.35	267.58	60.85	-45.2	-46.3	21.5	0.00e+00	0	42	0	771751936	60	4461
2026-01-23 10:26:25.36	268.49	60.74	-46.5	-47.9	20.0	0.00e+00	0	42	0	773849088	63	4529
2026-01-23 10:26:26.36	269.39	60.63	-47.4	-49.0	18.8	0.00e+00	0	42	0	775946240	65	4592
2026-01-23 10:26:27.37	270.30	60.52	-47.2	-48.7	19.2	0.00e+00	0	43	0	778043392	65	4417
2026-01-23 10:26:28.38	271.19	60.40	-47.7	-49.3	18.6	0.00e+00	0	43	0	779091968	65	4756
2026-01-23 10:26:29.39	272.07	60.27	-48.7	-50.7	17.4	0.00e+00	0	42	0	781189120	67	4934
2026-01-23 10:26:30.39	272.94	60.13	-47.8	-49.5	18.4	0.00e+00	0	42	0	783286272	67	4298
2026-01-23 10:26:31.40	273.80	59.99	-47.4	-48.9	19.1	0.00e+00	0	43	0	785383424	66	4250
2026-01-23 10:26:32.41	274.66	59.85	-46.8	-48.1	19.7	0.00e+00	0	43	0	787480576	65	4137
2026-01-23 10:26:33.42	275.50	59.70	-47.6	-49.2	18.7	0.00e+00	0	42	0	788529152	65	4680
2026-01-23 10:26:34.43	276.34	59.54	-48.4	-50.3	17.7	0.00e+00	0	42	0	790626304	67	4712
2026-01-23 10:26:35.44	277.17	59.38	-48.4	-50.3	17.8	0.00e+00	0	42	0	792723456	68	4447
2026-01-23 10:26:36.45	277.98	59.22	-46.6	-47.9	19.8	0.00e+00	0	42	0	794820608	65	4034
2026-01-23 10:26:37.45	278.78	59.05	-46.1	-47.3	20.5	0.00e+00	0	42	0	795869184	63	4223
2026-01-23 10:26:38.46	279.58	58.88	-46.6	-48.0	20.0	0.00e+00	0	43	0	797966336	63	4561
2026-01-23 10:26:39.47	280.36	58.70	-47.8	-49.1	19.2	0.00e+00	0	43	0	800063488	65	4636
2026-01-23 10:26:40.48	281.14	58.51	-47.0	-48.4	19.5	0.00e+00	0	43	0	802160640	65	4271
2026-01-23 10:26:41.49	281.90	58.33	-47.3	-48.8	19.1	0.00e+00	0	42	0	804257792	65	4455
2026-01-23 10:26:42.50	282.65	58.14	-46.7	-48.1	19.7	0.00e+00	0	43	0	806354944	65	4121
2026-01-23 10:26:43.50	283.39	57.94	-45.3	-46.4	21.3	0.00e+00	0	42	0	807403520	62	4045
2026-01-23 10:26:44.51	284.12	57.74	-44.7	-45.7	21.9	0.00e+00	0	42	0	809500672	61	3947
2026-01-23 10:26:45.52	284.84	57.54	-45.6	-46.8	21.0	0.00e+00	0	43	0	811597824	61	4463
2026-01-23 10:26:46.53	285.55	57.34	-44.9	-46.1	21.6	0.00e+00	0	43	0	813694976	61	4102
2026-01-23 10:26:47.54	286.25	57.13	-44.3	-45.3	22.5	0.00e+00	0	43	0	815792128	59	4220
2026-01-23 10:26:48.54	286.93	56.92	-44.1	-45.1	22.7	0.00e+00	0	42	0	816840704	59	4101
2026-01-23 10:26:49.55	287.61	56.70	-44.4	-45.4	22.2	0.00e+00	0	42	0	818937856	60	4029
2026-01-23 10:26:50.56	288.28	56.48	-44.3	-45.3	22.2	0.00e+00	0	43	0	821035008	60	3996
2026-01-23 10:26:51.57	288.94	56.26	-44.7	-45.7	21.8	0.00e+00	0	43	0	823132160	60	4190
2026-01-23 10:26:52.58	289.58	56.04	-45.4	-46.6	21.1	0.00e+00	0	43	0	825229312	61	4386
2026-01-23 10:26:53.59	290.22	55.81	-46.0	-47.3	20.5	0.00e+00	0	42	0	826277888	62	4484
2026-01-23 10:26:54.60	290.85	55.58	-45.0	-46.1	21.4	0.00e+00	0	43	0	828375040	62	3905
2026-01-23 10:26:55.60	291.46	55.36	-43.7	-44.6	23.0	0.00e+00	0	43	0	830472192	59	3906
2026-01-23 10:26:56.61	292.06	55.12	-43.4	-44.3	23.3	0.00e+00	0	43	0	832569344	58	3976
2026-01-23 10:26:57.62	292.66	54.89	-43.5	-44.4	23.2	0.00e+00	0	43	0	834666496	58	4026
2026-01-23 10:26:58.63	293.25	54.65	-43.1	-44.0	23.5	0.00e+00	0	43	0	835715072	58	3855
2026-01-23 10:26:59.63	293.82	54.42	-43.0	-43.9	23.6	0.00e+00	0	43	0	837812224	57	4015
2026-01-23 10:27:00.64	294.39	54.18	-43.0	-43.9	23.7	0.00e+00	0	43	0	839909376	57	4014
2026-01-23 10:27:01.65	294.94	53.93	-44.0	-45.0	22.7	0.00e+00	0	43	0	842006528	58	4306
2026-01-23 10:27:02.66	295.49	53.69	-44.3	-45.3	22.5	0.00e+00	0	43	0	844103680	59	4232
2026-01-23 10:27:03.67	296.03	53.45	-43.7	-44.7	23.0	0.00e+00	0	43	0	846200832	59	3932
2026-01-23 10:27:04.67	296.56	53.20	-43.3	-44.3	23.3	0.00e+00	0	42	0	847249408	58	3967
2026-01-23 10:27:05.68	297.08	52.95	-43.3	-44.2	23.4	0.00e+00	0	43	0	849346560	58	3935
2026-01-23 10:27:06.69	297.60	52.71	-43.6	-44.6	23.0	0.00e+00	0	43	0	851443712	58	4119
2026-01-23 10:27:07.70	298.10	52.46	-43.3	-44.2	23.3	0.00e+00	0	42	0	853540864	58	3954
2026-01-23 10:27:08.71	298.60	52.21	-43.6	-44.6	23.1	0.00e+00	0	42	0	854589440	58	4116
2026-01-23 10:27:09.72	299.09	51.96	-44.0	-45.0	22.8	0.00e+00	0	43	0	856686592	58	4306
2026-01-23 10:27:10.72	299.56	51.71	-44.1	-45.1	22.7	0.00e+00	0	43	0	858783744	59	4110
2026-01-23 10:27:11.73	300.03	51.45	-43.9	-44.9	22.9	0.00e+00	0	43	0	860880896	59	4026
2026-01-23 10:27:12.74	300.50	51.20	-44.2	-45.2	22.6	0.00e+00	0	43	0	862978048	59	4174
2026-01-23 10:27:13.75	300.96	50.95	-44.4	-45.5	22.1	0.00e+00	0	42	0	864026624	60	4063
2026-01-23 10:27:14.75	301.40	50.70	-45.1	-46.2	21.5	0.00e+00	0	43	0	866123776	60	4414
2026-01-23 10:27:15.76	301.84	50.44	-44.9	-45.9	21.7	0.00e+00	0	43	0	868220928	60	4280
2026-01-23 10:27:16.77	302.28	50.19	-44.5	-45.5	22.1	0.00e+00	0	43	0	870318080	60	4086
2026-01-23 10:27:17.77	302.70	49.93	-45.8	-47.1	20.8	0.00e+00	0	43	0	872415232	62	4355
2026-01-23 10:27:18.79	303.12	49.68	-47.9	-49.7	18.3	0.00e+00	0	43	0	874512384	66	4686
2026-01-23 10:27:19.79	303.53	49.42	-48.9	-51.0	17.0	0.00e+00	0	43	0	875560960	68	4869
2026-01-23 10:27:20.80	303.94	49.17	-49.2	-51.4	16.7	0.00e+00	0	42	0	877658112	70	4518
2026-01-23 10:27:21.81	304.34	48.91	-50.0	-52.7	15.5	0.00e+00	0	43	0	879755264	70	5228
2026-01-23 10:27:22.82	304.73	48.66	-50.3	-53.0	15.1	0.00e+00	0	43	0	881852416	71	5120
2026-01-23 10:27:23.83	305.12	48.40	-50.5	-53.3	14.7	7.00e-07	0	43	0	882900992	72	5041
2026-01-23 10:27:24.84	305.50	48.15	-50.6	-53.5	14.5	3.00e-06	0	43	0	884998144	72	5137
2026-01-23 10:27:25.85	305.88	47.89	-50.4	-53.1	15.0	1.50e-06	0	43	0	887095296	72	4921
2026-01-23 10:27:26.86	306.24	47.64	-49.2	-51.3	16.8	0.00e+00	0	43	0	889192448	70	4459
2026-01-23 10:27:27.87	306.61	47.38	-48.8	-50.7	17.4	0.00e+00	0	43	0	891289600	69	4431
2026-01-23 10:27:28.88	306.96	47.13	-47.9	-49.5	18.4	0.00e+00	0	43	0	893386752	67	4338
2026-01-23 10:27:29.88	307.31	46.88	-47.4	-49.0	19.0	0.00e+00	0	43	0	894435328	66	4305
2026-01-23 10:27:30.89	307.66	46.62	-47.1	-48.5	19.3	0.00e+00	0	43	0	896532480	65	4334
2026-01-23 10:27:31.90	308.00	46.37	-47.1	-48.6	19.3	0.00e+00	0	43	0	898629632	65	4364
2026-01-23 10:27:32.91	308.33	46.12	-47.4	-49.0	18.9	0.00e+00	0	43	0	900726784	65	4554
2026-01-23 10:27:33.92	308.66	45.87	-46.4	-47.8	19.9	0.00e+00	0	43	0	902823936	64	4212
2026-01-23 10:27:34.93	308.99	45.62	-45.2	-46.4	21.4	0.00e+00	0	43	0	903872512	62	4012
2026-01-23 10:27:35.94	309.31	45.37	-45.5	-46.6	21.1	0.00e+00	0	43	0	905969664	62	4121
2026-01-23 10:27:36.94	309.62	45.12	-46.6	-47.9	19.9	0.00e+00	0	43	0	908066816	63	4542
2026-01-23 10:27:37.95	309.93	44.87	-47.7	-49.4	18.5	0.00e+00	0	43	0	910163968	65	4787
2026-01-23 10:27:38.96	310.23	44.62	-48.2	-50.1	17.8	0.00e+00	0	43	0	912261120	67	4615
2026-01-23 10:27:39.97	310.53	44.37	-47.2	-48.8	19.0	0.00e+00	0	43	0	913309696	66	4207
2026-01-23 10:27:40.98	310.83	44.13	-46.2	-47.5	20.2	0.00e+00	0	43	0	915406848	64	4085
2026-01-23 10:27:41.99	311.12	43.88	-45.5	-46.7	21.0	0.00e+00	0	43	0	917504000	63	3936
2026-01-23 10:27:43.00	311.41	43.63	-45.4	-46.5	21.2	0.00e+00	0	43	0	919601152	62	4078
2026-01-23 10:27:44.01	311.69	43.39	-45.6	-46.8	20.9	0.00e+00	0	43	0	921698304	62	4211
2026-01-23 10:27:45.02	311.97	43.15	-45.9	-47.2	20.6	0.00e+00	0	43	0	922746880	62	4402
2026-01-23 10:27:46.03	312.24	42.90	-46.7	-48.1	19.7	0.00e+00	0	43	0	924844032	63	4624
2026-01-23 10:27:47.03	312.51	42.66	-46.8	-48.3	19.5	0.00e+00	0	43	0	926941184	64	4445
2026-01-23 10:27:48.04	312.78	42.42	-46.0	-47.2	20.4	0.00e+00	0	43	0	929038336	63	4172
2026-01-23 10:27:49.05	313.04	42.18	-45.4	-46.6	21.0	0.00e+00	0	43	0	931135488	62	4106
2026-01-23 10:27:50.06	313.30	41.94	-45.1	-46.2	21.4	0.00e+00	0	43	0	932184064	61	4188
2026-01-23 10:27:51.07	313.55	41.70	-45.7	-46.9	20.8	0.00e+00	0	43	0	934281216	61	4496
2026-01-23 10:27:52.08	313.80	41.47	-46.7	-48.1	19.7	0.00e+00	0	43	0	936378368	64	4386
2026-01-23 10:27:53.09	314.05	41.23	-47.6	-49.4	18.4	0.00e+00	0	43	0	938475520	65	4762
2026-01-23 10:27:54.10	314.30	40.99	-47.3	-49.0	18.8	0.00e+00	0	42	0	940572672	65	4565
2026-01-23 10:27:55.11	314.54	40.76	-46.2	-47.6	20.1	0.00e+00	0	42	0	941621248	64	4100
2026-01-23 10:27:56.11	314.77	40.53	-45.5	-46.7	21.0	0.00e+00	0	43	0	943718400	62	4149
2026-01-23 10:27:57.12	315.01	40.29	-45.0	-46.1	21.4	0.00e+00	0	43	0	945815552	61	4139
2026-01-23 10:27:58.13	315.24	40.06	-44.9	-46.0	21.6	0.00e+00	0	43	0	947912704	61	4062
2026-01-23 10:27:59.14	315.46	39.83	-45.9	-47.2	20.5	0.00e+00	0	43	0	950009856	62	4405
2026-01-23 10:28:00.15	315.69	39.60	-46.7	-48.1	19.7	0.00e+00	0	43	0	951058432	63	4622
2026-01-23 10:28:01.15	315.91	39.38	-46.0	-47.3	20.3	0.00e+00	0	43	0	953155584	63	4230
2026-01-23 10:28:02.16	316.13	39.15	-45.3	-46.5	21.1	0.00e+00	0	43	0	955252736	62	4087
2026-01-23 10:28:03.17	316.34	38.92	-45.1	-46.2	21.3	0.00e+00	0	43	0	957349888	62	3951
2026-01-23 10:28:04.18	316.55	38.70	-44.9	-46.0	21.6	0.00e+00	0	42	0	959447040	61	4059
2026-01-23 10:28:05.19	316.76	38.47	-44.6	-45.6	21.8	0.00e+00	0	43	0	960495616	61	3901
2026-01-23 10:28:06.20	316.97	38.25	-44.4	-45.4	22.0	0.00e+00	0	43	0	962592768	60	4038
2026-01-23 10:28:07.21	317.17	38.03	-45.1	-46.2	21.4	0.00e+00	0	43	0	964689920	60	4413
2026-01-23 10:28:08.22	317.37	37.81	-45.9	-47.1	20.5	0.00e+00	0	43	0	966787072	62	4390
2026-01-23 10:28:09.23	317.57	37.59	-47.2	-48.8	19.0	0.00e+00	0	42	0	968884224	64	4726
2026-01-23 10:28:10.24	317.77	37.37	-48.6	-50.7	17.2	0.00e+00	0	42	0	969932800	67	4948
2026-01-23 10:28:11.24	317.96	37.15	-48.6	-50.6	17.4	0.00e+00	0	42	0	972029952	68	4618
2026-01-23 10:28:12.25	318.15	36.93	-48.6	-50.6	17.2	0.00e+00	0	43	0	974127104	68	4650
2026-01-23 10:28:13.26	318.34	36.72	-47.2	-48.7	19.0	0.00e+00	0	43	0	976224256	66	4170
2026-01-23 10:28:14.27	318.53	36.50	-46.3	-47.7	19.9	0.00e+00	0	43	0	978321408	64	4147
2026-01-23 10:28:15.28	318.71	36.29	-45.9	-47.1	20.6	0.00e+00	0	42	0	980418560	63	4124
2026-01-23 10:28:16.28	318.89	36.08	-45.9	-47.1	20.5	0.00e+00	0	43	0	981467136	63	4123
2026-01-23 10:28:17.29	319.07	35.87	-45.9	-47.2	20.5	0.00e+00	0	43	0	983564288	63	4160
2026-01-23 10:28:18.30	319.25	35.66	-46.6	-48.0	19.8	0.00e+00	0	42	0	985661440	63	4557
2026-01-23 10:28:19.31	319.42	35.45	-47.7	-49.4	18.4	0.00e+00	0	43	0	987758592	65	4808
2026-01-23 10:28:20.32	319.59	35.24	-48.5	-50.4	17.4	0.00e+00	0	43	0	988807168	67	4799
2026-01-23 10:28:21.33	319.76	35.04	-49.4	-51.8	16.1	0.00e+00	0	43	0	990904320	69	5000
2026-01-23 10:28:22.34	319.93	34.83	-49.3	-51.5	16.3	0.00e+00	0	43	0	993001472	69	4842
2026-01-23 10:28:23.35	320.10	34.62	-48.5	-50.4	17.4	0.00e+00	0	42	0	995098624	69	4276
2026-01-23 10:28:24.35	320.26	34.42	-47.7	-49.4	18.3	0.00e+00	0	43	0	997195776	67	4253
2026-01-23 10:28:25.36	320.42	34.22	-46.9	-48.4	19.2	0.00e+00	0	43	0	999292928	65	4273
2026-01-23 10:28:26.37	320.59	34.02	-46.3	-47.6	19.9	0.00e+00	0	42	0	1000341504	64	4142
2026-01-23 10:28:27.38	320.74	33.82	-46.1	-47.4	20.1	0.00e+00	0	42	0	1002438656	64	4032
2026-01-23 10:28:28.39	320.90	33.62	-46.3	-47.7	19.9	0.00e+00	0	43	0	1004535808	64	4156
2026-01-23 10:28:29.39	321.05	33.42	-46.4	-47.8	19.9	0.00e+00	0	42	0	1006632960	64	4201
2026-01-23 10:28:30.40	321.21	33.23	-46.6	-48.0	19.6	0.00e+00	0	43	0	1008730112	64	4329
2026-01-23 10:28:31.41	321.36	33.03	-47.0	-48.5	19.2	0.00e+00	0	43	0	1009778688	64	4593
2026-01-23 10:28:32.42	321.51	32.83	-47.2	-48.8	18.9	0.00e+00	0	43	0	1011875840	65	4468
2026-01-23 10:28:33.43	321.66	32.64	-47.8	-49.5	18.1	0.00e+00	0	42	0	1013972992	66	4596
2026-01-23 10:28:34.44	321.80	32.45	-47.6	-49.4	18.3	0.00e+00	0	42	0	1016070144	66	4495
2026-01-23 10:28:35.44	321.94	32.26	-47.9	-49.7	18.1	0.00e+00	0	43	0	1017118720	66	4678
2026-01-23 10:28:36.45	322.09	32.07	-47.7	-49.4	18.3	0.00e+00	0	43	0	1019215872	66	4502
2026-01-23 10:28:37.46	322.23	31.88	-47.5	-49.2	18.5	0.00e+00	0	42	0	1021313024	66	4398
2026-01-23 10:28:38.47	322.37	31.69	-47.1	-48.7	18.9	0.00e+00	0	42	0	1023410176	66	4155
2026-01-23 10:28:39.47	322.50	31.50	-47.1	-48.7	18.9	0.00e+00	0	43	0	1025507328	65	4394
2026-01-23 10:28:40.48	322.64	31.32	-47.0	-48.6	19.0	0.00e+00	0	43	0	1027604480	65	4370
2026-01-23 10:28:41.49	322.78	31.13	-47.1	-48.7	18.9	0.00e+00	0	43	0	1028653056	65	4406
2026-01-23 10:28:42.50	322.91	30.94	-47.3	-49.0	18.6	0.00e+00	0	42	0	1030750208	65	4558
2026-01-23 10:28:43.50	323.04	30.76	-46.9	-48.4	19.2	0.00e+00	0	43	0	1032847360	65	4260
2026-01-23 10:28:44.51	323.17	30.58	-46.7	-48.1	19.5	0.00e+00	0	43	0	1034944512	65	4136
2026-01-23 10:28:45.52	323.30	30.40	-46.8	-48.3	19.3	0.00e+00	0	42	0	1037041664	65	4207
2026-01-23 10:28:46.53	323.43	30.22	-46.1	-47.4	20.1	0.00e+00	0	43	0	1038090240	64	4022
2026-01-23 10:28:47.54	323.55	30.04	-46.0	-47.3	20.2	0.00e+00	0	43	0	1040187392	63	4220
2026-01-23 10:28:48.55	323.68	29.86	-46.2	-47.5	20.0	0.00e+00	0	42	0	1042284544	63	4339
2026-01-23 10:28:49.55	323.80	29.68	-45.6	-46.9	20.7	0.00e+00	0	43	0	1044381696	63	4015
2026-01-23 10:28:50.56	323.92	29.51	-45.2	-46.4	21.1	0.00e+00	0	43	0	1046478848	62	4025
2026-01-23 10:28:51.57	324.05	29.33	-45.1	-46.3	21.2	0.00e+00	0	43	0	1047527424	62	3969
2026-01-23 10:28:52.58	324.16	29.16	-45.3	-46.4	21.0	0.00e+00	0	43	0	1049624576	62	4048
2026-01-23 10:28:53.58	324.28	28.98	-45.4	-46.6	20.9	0.00e+00	0	43	0	1051721728	62	4112
2026-01-23 10:28:54.59	324.40	28.81	-45.6	-46.9	20.6	0.00e+00	0	43	0	1053818880	62	4260
2026-01-23 10:28:55.60	324.52	28.64	-45.6	-46.9	20.5	0.00e+00	0	43	0	1055916032	62	4274
2026-01-23 10:28:56.61	324.63	28.47	-46.1	-47.4	20.1	0.00e+00	0	43	0	1056964608	62	4541
2026-01-23 10:28:57.62	324.75	28.30	-46.4	-47.7	19.8	0.00e+00	0	42	0	1059061760	63	4441
2026-01-23 10:28:58.63	324.86	28.13	-46.3	-47.7	19.8	0.00e+00	0	43	0	1061158912	64	4170
2026-01-23 10:28:59.64	324.97	27.96	-46.9	-48.4	19.2	0.00e+00	0	43	0	1063256064	64	4513
2026-01-23 10:29:00.64	325.08	27.79	-47.0	-48.5	19.0	0.00e+00	0	43	0	1065353216	64	4568
2026-01-23 10:29:01.65	325.19	27.63	-46.7	-48.1	19.3	0.00e+00	0	43	0	1066401792	64	4377
2026-01-23 10:29:02.66	325.30	27.46	-46.9	-48.4	19.0	0.00e+00	0	43	0	1068498944	64	4532
2026-01-23 10:29:03.67	325.40	27.30	-46.7	-48.1	19.3	0.00e+00	0	43	0	1070596096	64	4377
2026-01-23 10:29:04.68	325.51	27.13	-46.3	-47.7	19.8	0.00e+00	0	43	0	1072693248	64	4159
2026-01-23 10:29:05.68	325.61	26.97	-46.2	-47.5	20.0	0.00e+00	0	43	0	1074790400	64	4077
2026-01-23 10:29:06.69	325.72	26.81	-46.0	-47.3	20.2	0.00e+00	0	43	0	1075838976	63	4234
2026-01-23 10:29:07.70	325.82	26.65	-46.1	-47.4	20.1	0.00e+00	0	42	0	1077936128	63	4270
2026-01-23 10:29:08.71	325.92	26.49	-46.2	-47.5	20.0	0.00e+00	0	43	0	1080033280	63	4336
2026-01-23 10:29:09.71	326.02	26.33	-46.0	-47.3	20.1	0.00e+00	0	43	0	1082130432	63	4228
2026-01-23 10:29:10.72	326.12	26.17	-46.4	-47.8	19.7	0.00e+00	0	43	0	1084227584	63	4486
2026-01-23 10:29:11.73	326.22	26.01	-46.4	-47.8	19.8	0.00e+00	0	43	0	1085276160	63	4450
2026-01-23 10:29:12.74	326.32	25.86	-46.2	-47.5	20.0	0.00e+00	0	43	0	1087373312	63	4331
2026-01-23 10:29:13.75	326.42	25.70	-46.1	-47.4	20.1	0.00e+00	0	43	0	1089470464	63	4254
2026-01-23 10:29:14.75	326.51	25.55	-45.9	-47.2	20.3	0.00e+00	0	43	0	1091567616	63	4146
2026-01-23 10:29:15.76	326.61	25.39	-45.6	-46.9	20.6	0.00e+00	0	43	0	1093664768	63	4006
2026-01-23 10:29:16.77	326.71	25.24	-45.3	-46.5	20.9	0.00e+00	0	42	0	1095761920	62	4070
2026-01-23 10:29:17.78	326.80	25.09	-45.2	-46.4	21.0	0.00e+00	0	43	0	1096810496	62	4040
2026-01-23 10:29:18.79	326.89	24.93	-45.1	-46.2	21.1	0.00e+00	0	42	0	1098907648	62	3949
2026-01-23 10:29:19.79	326.98	24.79	-44.9	-46.1	21.1	0.00e+00	0	43	0	1101004800	61	4112
2026-01-23 10:29:20.80	327.07	24.63	-45.0	-46.1	21.2	0.00e+00	0	43	0	1103101952	61	4129
2026-01-23 10:29:21.81	327.17	24.49	-44.8	-46.0	21.3	0.00e+00	0	42	0	1104150528	61	4059
2026-01-23 10:29:22.82	327.26	24.34	-44.9	-46.1	21.2	0.00e+00	0	42	0	1106247680	61	4116
2026-01-23 10:29:23.83	327.34	24.19	-44.8	-45.9	21.4	0.00e+00	0	43	0	1108344832	61	4020
2026-01-23 10:29:24.84	327.43	24.04	-44.9	-46.0	21.3	0.00e+00	0	43	0	1110441984	61	4085
2026-01-23 10:29:25.84	327.52	23.90	-45.0	-46.2	21.1	0.00e+00	0	43	0	1112539136	61	4155
2026-01-23 10:29:26.85	327.61	23.75	-44.9	-46.1	21.2	0.00e+00	0	42	0	1113587712	61	4124
2026-01-23 10:29:27.86	327.69	23.61	-45.3	-46.4	20.8	0.00e+00	0	43	0	1115684864	61	4288
2026-01-23 10:29:28.87	327.78	23.46	-45.1	-46.3	21.0	0.00e+00	0	43	0	1117782016	61	4208
2026-01-23 10:29:29.87	327.86	23.32	-45.3	-46.5	20.9	0.00e+00	0	43	0	1119879168	61	4317
2026-01-23 10:29:30.89	327.94	23.17	-45.5	-46.8	20.6	0.00e+00	0	43	0	1121976320	61	4444
2026-01-23 10:29:31.89	328.03	23.03	-45.7	-47.0	20.4	0.00e+00	0	43	0	1124073472	61	4549
2026-01-23 10:29:32.90	328.11	22.89	-45.8	-47.0	20.4	0.00e+00	0	42	0	1125122048	62	4339
2026-01-23 10:29:33.91	328.19	22.75	-45.9	-47.2	20.2	0.00e+00	0	42	0	1127219200	62	4423
2026-01-23 10:29:34.92	328.27	22.61	-46.1	-47.4	20.0	0.00e+00	0	42	0	1129316352	62	4529
2026-01-23 10:29:35.93	328.35	22.47	-46.0	-47.3	20.0	0.00e+00	0	43	0	1131413504	62	4479
2026-01-23 10:29:36.94	328.43	22.33	-46.2	-47.6	19.8	0.00e+00	0	43	0	1132462080	63	4359
2026-01-23 10:29:37.95	328.51	22.20	-46.3	-47.7	19.7	0.00e+00	0	43	0	1134559232	63	4414
2026-01-23 10:29:38.96	328.59	22.06	-46.1	-47.5	19.8	0.00e+00	0	43	0	1136656384	63	4329
2026-01-23 10:29:39.96	328.66	21.92	-45.7	-47.1	20.2	0.00e+00	0	43	0	1138753536	63	4108
2026-01-23 10:29:40.97	328.74	21.79	-45.7	-47.0	20.3	0.00e+00	0	43	0	1140850688	63	4076
2026-01-23 10:29:41.98	328.82	21.65	-45.4	-46.6	20.6	0.00e+00	0	43	0	1142947840	62	4138
2026-01-23 10:29:42.99	328.89	21.52	-45.4	-46.7	20.5	0.00e+00	0	43	0	1143996416	62	4173
2026-01-23 10:29:43.99	328.97	21.39	-45.2	-46.5	20.8	0.00e+00	0	43	0	1146093568	62	4054
2026-01-23 10:29:45.00	329.04	21.25	-45.1	-46.4	20.9	0.00e+00	0	43	0	1148190720	61	4254
2026-01-23 10:29:46.01	329.12	21.12	-44.9	-46.1	21.1	0.00e+00	0	43	0	1150287872	61	4124
2026-01-23 10:29:47.02	329.19	20.99	-44.7	-45.8	21.3	0.00e+00	0	43	0	1152385024	61	4001
2026-01-23 10:29:48.03	329.26	20.86	-44.7	-45.9	21.3	0.00e+00	0	43	0	1153433600	61	4009
2026-01-23 10:29:49.03	329.33	20.73	-44.5	-45.6	21.5	0.00e+00	0	43	0	1155530752	60	4104
2026-01-23 10:29:50.04	329.40	20.60	-44.2	-45.3	21.8	0.00e+00	0	43	0	1157627904	60	3985
2026-01-23 10:29:51.05	329.47	20.47	-44.3	-45.4	21.9	0.00e+00	0	43	0	1159725056	59	4272
2026-01-23 10:29:52.06	329.55	20.34	-44.1	-45.1	22.2	0.00e+00	0	43	0	1161822208	59	4139
2026-01-23 10:29:53.07	329.62	20.21	-43.7	-44.7	22.5	0.00e+00	0	43	0	1162870784	59	3933
2026-01-23 10:29:54.08	329.68	20.09	-43.6	-44.6	22.6	0.00e+00	0	42	0	1164967936	59	3870
2026-01-23 10:29:55.08	329.75	19.96	-43.4	-44.4	22.7	0.00e+00	0	43	0	1167065088	58	4005
2026-01-23 10:29:56.09	329.82	19.84	-43.3	-44.3	22.8	0.00e+00	0	43	0	1169162240	58	3976
2026-01-23 10:29:57.10	329.89	19.71	-43.4	-44.3	22.7	0.00e+00	0	43	0	1171259392	58	3997
2026-01-23 10:29:58.11	329.96	19.59	-43.5	-44.5	22.6	0.00e+00	0	43	0	1172307968	58	4061
2026-01-23 10:29:59.12	330.02	19.46	-43.7	-44.7	22.5	0.00e+00	0	42	0	1174405120	58	4172
2026-01-23 10:30:00.12	330.09	19.34	-43.9	-44.9	22.3	0.00e+00	0	42	0	1176502272	58	4278
2026-01-23 10:30:01.13	330.15	19.22	-44.1	-45.2	22.1	0.00e+00	0	43	0	1178599424	58	4412
2026-01-23 10:30:02.14	330.22	19.09	-44.2	-45.3	22.0	0.00e+00	0	43	0	1180696576	59	4236
2026-01-23 10:30:03.15	330.28	18.97	-44.6	-45.7	21.6	0.00e+00	0	43	0	1181745152	59	4440
2026-01-23 10:30:04.16	330.35	18.85	-44.6	-45.7	21.3	0.00e+00	0	43	0	1183842304	60	4182
2026-01-23 10:30:05.16	330.41	18.73	-44.9	-46.1	21.0	0.00e+00	0	43	0	1185939456	60	4365
2026-01-23 10:30:06.17	330.47	18.61	-45.3	-46.6	20.5	0.00e+00	0	43	0	1188036608	61	4384
2026-01-23 10:30:07.17	330.54	18.49	-45.5	-46.8	20.2	0.00e+00	0	42	0	1190133760	61	4487
2026-01-23 10:30:08.18	330.60	18.37	-45.7	-47.1	20.1	0.00e+00	0	42	0	1191182336	62	4351
2026-01-23 10:30:09.19	330.66	18.25	-45.9	-47.3	19.9	0.00e+00	0	42	0	1193279488	62	4467
2026-01-23 10:30:10.20	330.72	18.13	-46.0	-47.4	19.7	0.00e+00	0	43	0	1195376640	62	4526
2026-01-23 10:30:11.21	330.78	18.02	-46.1	-47.5	19.7	0.00e+00	0	43	0	1197473792	62	4594
2026-01-23 10:30:12.22	330.84	17.90	-46.2	-47.6	19.7	0.00e+00	0	42	0	1199570944	63	4376
2026-01-23 10:30:13.22	330.90	17.78	-46.2	-47.6	19.6	0.00e+00	0	43	0	1200619520	63	4378
2026-01-23 10:30:14.23	330.96	17.67	-46.3	-47.8	19.5	0.00e+00	0	43	0	1202716672	63	4470
2026-01-23 10:30:15.24	331.02	17.55	-46.1	-47.5	19.6	0.00e+00	0	43	0	1204813824	63	4323
2026-01-23 10:30:16.25	331.08	17.44	-46.0	-47.4	19.8	0.00e+00	0	43	0	1206910976	63	4269
2026-01-23 10:30:17.26	331.14	17.32	-45.9	-47.3	19.9	0.00e+00	0	43	0	1209008128	63	4207
2026-01-23 10:30:18.27	331.20	17.21	-45.9	-47.3	19.8	0.00e+00	0	43	0	1210056704	63	4237
2026-01-23 10:30:19.27	331.26	17.10	-45.9	-47.3	19.9	0.00e+00	0	43	0	1212153856	63	4214
2026-01-23 10:30:20.28	331.31	16.98	-45.9	-47.2	20.0	0.00e+00	0	43	0	1214251008	63	4171
2026-01-23 10:30:21.29	331.37	16.87	-45.9	-47.3	19.9	0.00e+00	0	42	0	1216348160	63	4209
2026-01-23 10:30:22.30	331.43	16.76	-45.8	-47.2	20.0	0.00e+00	0	42	0	1218445312	63	4156
2026-01-23 10:30:23.31	331.48	16.65	-45.6	-47.0	20.1	0.00e+00	0	43	0	1219493888	63	4062
2026-01-23 10:30:24.32	331.54	16.54	-45.8	-47.1	20.0	0.00e+00	0	43	0	1221591040	63	4135
2026-01-23 10:30:25.32	331.59	16.43	-45.8	-47.1	20.0	0.00e+00	0	42	0	1223688192	63	4141
2026-01-23 10:30:26.33	331.65	16.32	-45.7	-47.0	20.1	0.00e+00	0	43	0	1225785344	63	4090
2026-01-23 10:30:27.34	331.70	16.21	-45.7	-47.1	20.0	0.00e+00	0	43	0	1227882496	63	4105
2026-01-23 10:30:28.35	331.76	16.10	-45.6	-46.9	20.2	0.00e+00	0	43	0	1228931072	63	4031
2026-01-23 10:30:29.35	331.81	15.99	-45.7	-47.0	20.1	0.00e+00	0	43	0	1231028224	63	4075
2026-01-23 10:30:30.36	331.86	15.88	-45.5	-46.8	20.3	0.00e+00	0	43	0	1233125376	63	3987
