passes_logs/2026/01/23/R3.2S_Murmansk/R3.2S_Murmansk__20260123_020148_SUOMI_NPP_rec.log

#Pass ID: 20260123_020148_SUOMI NPP
#Satellite: SUOMI NPP
#Configuration: NPP
#almurnet v.1.7.20251203
#Start time: 2026-01-23 02:01:49

#Version: 2.2.20231116
#Station: R3.2S_Murmansk
#Location: 33.079688 lon 68.888172 lat
#TLE: 1 37849U 11061A   26022.50498765  .00000208  00000+0  11976-3 0  9992
#TLE: 2 37849  98.7820 324.4892 0002275  50.8149 309.3229 14.19528284737775

#Time	Az	El	Level	Level2	SNR	BER	BlckErr	Temp	State	Recorded	gain1	gain2
2026-01-23 02:01:49.41	30.48	2.08	-54.4	-69.4	3.8	1.49e+00	0	41	0	0	79	21440
2026-01-23 02:01:50.42	30.45	2.14	-54.4	-69.5	3.8	1.49e+00	0	41	104	0	79	21607
2026-01-23 02:01:51.43	30.42	2.20	-54.4	-69.5	3.8	1.49e+00	0	41	104	0	79	21522
2026-01-23 02:01:52.43	30.39	2.27	-54.4	-69.4	3.8	1.49e+00	0	41	104	0	79	21415
2026-01-23 02:01:53.44	30.37	2.33	-54.3	-69.4	3.8	1.49e+00	0	42	104	0	79	21262
2026-01-23 02:01:54.45	30.34	2.39	-54.3	-69.3	3.8	1.49e+00	0	41	104	0	79	21179
2026-01-23 02:01:55.46	30.31	2.46	-54.3	-69.3	3.8	1.49e+00	0	42	104	0	79	21094
2026-01-23 02:01:56.47	30.28	2.52	-54.3	-69.2	3.8	1.49e+00	0	41	104	0	79	21006
2026-01-23 02:01:57.48	30.25	2.59	-54.2	-69.3	3.8	1.49e+00	0	42	104	0	79	21050
2026-01-23 02:01:58.49	30.23	2.65	-54.2	-69.2	3.8	1.49e+00	0	42	104	0	79	20906
2026-01-23 02:01:59.49	30.20	2.71	-54.1	-69.1	3.8	1.49e+00	0	42	104	0	79	20761
2026-01-23 02:02:00.50	30.17	2.78	-54.1	-69.1	3.8	1.49e+00	0	42	104	0	79	20619
2026-01-23 02:02:01.51	30.14	2.84	-54.0	-69.0	3.8	1.49e+00	0	42	104	0	79	20424
2026-01-23 02:02:02.52	30.11	2.91	-53.9	-68.9	3.8	1.49e+00	0	42	104	0	79	20195
2026-01-23 02:02:03.53	30.08	2.98	-53.8	-68.8	3.8	1.49e+00	0	42	104	0	79	19960
2026-01-23 02:02:04.53	30.05	3.04	-53.7	-68.7	3.8	1.49e+00	0	42	104	0	79	19691
2026-01-23 02:02:05.54	30.02	3.11	-53.5	-68.5	3.8	1.49e+00	0	42	104	0	79	19313
2026-01-23 02:02:06.55	29.99	3.17	-53.3	-68.3	3.8	1.49e+00	0	42	104	0	78	19887
2026-01-23 02:02:07.56	29.96	3.24	-52.8	-67.8	3.8	1.49e+00	0	42	104	0	77	19935
2026-01-23 02:02:08.57	29.93	3.30	-52.4	-66.6	3.8	1.49e+00	0	42	104	0	76	18412
2026-01-23 02:02:09.58	29.90	3.37	-52.4	-66.3	3.8	1.49e+00	0	42	104	0	76	17887
2026-01-23 02:02:10.59	29.87	3.44	-52.4	-66.5	3.8	1.49e+00	0	42	104	0	76	18254
2026-01-23 02:02:11.59	29.84	3.50	-52.4	-66.6	3.8	1.49e+00	0	42	104	0	76	18328
2026-01-23 02:02:12.60	29.81	3.57	-52.4	-66.8	3.8	1.49e+00	0	42	104	0	76	18895
2026-01-23 02:02:13.61	29.78	3.63	-52.4	-66.9	3.8	1.49e+00	0	42	104	0	76	18955
2026-01-23 02:02:14.62	29.75	3.70	-52.4	-66.6	3.8	1.49e+00	0	42	104	0	76	18512
2026-01-23 02:02:15.63	29.72	3.77	-52.3	-65.0	3.9	1.49e+00	0	42	104	0	76	15393
2026-01-23 02:02:16.64	29.69	3.84	-52.1	-62.4	4.7	1.43e+00	0	42	0	0	76	11400
2026-01-23 02:02:17.65	29.66	3.90	-51.8	-60.4	5.8	5.43e-01	0	42	0	2097152	75	9599
2026-01-23 02:02:18.66	29.62	3.97	-51.4	-58.0	8.0	1.35e-01	0	42	0	4194304	74	7651
2026-01-23 02:02:19.67	29.59	4.04	-50.9	-56.2	9.9	2.24e-02	0	42	0	5242880	73	6621
2026-01-23 02:02:20.68	29.56	4.11	-50.1	-54.2	11.9	6.29e-04	0	42	0	7340032	72	5591
2026-01-23 02:02:21.69	29.53	4.17	-49.7	-53.4	12.9	1.34e-04	0	42	0	9437184	71	5365
2026-01-23 02:02:22.69	29.50	4.24	-49.3	-52.6	13.7	7.60e-06	0	42	0	11534336	70	5188
2026-01-23 02:02:23.70	29.46	4.31	-48.9	-51.9	14.3	3.00e-06	0	43	0	13631488	69	5080
2026-01-23 02:02:24.71	29.43	4.38	-48.3	-50.9	15.4	7.00e-07	0	42	0	15728640	68	4771
2026-01-23 02:02:25.72	29.40	4.45	-47.6	-49.9	16.3	0.00e+00	0	42	0	16777216	67	4535
2026-01-23 02:02:26.73	29.37	4.52	-47.8	-50.2	16.0	0.00e+00	0	42	0	18874368	66	4967
2026-01-23 02:02:27.73	29.33	4.58	-47.4	-49.6	16.5	0.00e+00	0	42	0	20971520	66	4646
2026-01-23 02:02:28.74	29.30	4.65	-48.0	-50.5	15.7	0.00e+00	0	42	0	23068672	66	5139
2026-01-23 02:02:29.75	29.27	4.72	-47.9	-50.3	15.9	0.00e+00	0	42	0	24117248	66	5014
2026-01-23 02:02:30.76	29.23	4.79	-48.2	-50.8	15.4	0.00e+00	0	42	0	26214400	66	5336
2026-01-23 02:02:31.77	29.20	4.86	-48.7	-51.6	14.6	0.00e+00	0	42	0	28311552	67	5494
2026-01-23 02:02:32.77	29.16	4.93	-49.4	-52.8	13.5	3.80e-06	0	42	0	30408704	69	5637
2026-01-23 02:02:33.78	29.13	5.00	-49.9	-53.8	12.5	5.87e-05	0	43	0	32505856	70	5926
2026-01-23 02:02:34.79	29.10	5.07	-49.3	-52.4	14.0	5.79e-05	0	42	0	33554432	70	5091
2026-01-23 02:02:35.79	29.06	5.14	-47.0	-49.0	17.3	2.20e-06	0	43	0	35651584	65	4562
2026-01-23 02:02:36.80	29.03	5.21	-52.1	-62.5	5.0	0.00e+00	0	43	0	37748736	74	12833
2026-01-23 02:02:37.81	28.99	5.28	-46.3	-48.0	17.4	1.39e+00	0	43	104	37748736	64	4329
2026-01-23 02:02:38.82	28.96	5.35	-51.4	-58.2	8.4	0.00e+00	0	43	0	38797312	73	8330
2026-01-23 02:02:39.83	28.92	5.42	-46.7	-48.5	17.7	2.10e-04	0	42	0	40894464	65	4316
2026-01-23 02:02:40.84	28.89	5.49	-46.4	-48.2	18.0	0.00e+00	0	42	0	42991616	64	4429
2026-01-23 02:02:41.84	28.85	5.57	-46.4	-48.2	18.0	0.00e+00	0	43	0	44040192	64	4431
2026-01-23 02:02:42.85	28.81	5.64	-46.3	-48.0	18.2	0.00e+00	0	42	0	46137344	64	4333
2026-01-23 02:02:43.86	28.78	5.71	-46.4	-48.2	18.0	0.00e+00	0	43	0	48234496	64	4439
2026-01-23 02:02:44.87	28.74	5.78	-46.1	-47.8	18.5	0.00e+00	0	43	0	50331648	64	4217
2026-01-23 02:02:45.88	28.71	5.85	-46.4	-48.2	18.0	0.00e+00	0	43	0	52428800	64	4419
2026-01-23 02:02:46.88	28.67	5.92	-46.2	-48.0	18.4	0.00e+00	0	43	0	53477376	64	4303
2026-01-23 02:02:47.89	28.63	6.00	-46.2	-48.0	18.4	0.00e+00	0	43	0	55574528	64	4292
2026-01-23 02:02:48.90	28.60	6.07	-46.2	-47.9	18.4	0.00e+00	0	43	0	57671680	64	4284
2026-01-23 02:02:49.91	28.56	6.14	-46.2	-47.9	18.4	0.00e+00	0	43	0	59768832	64	4262
2026-01-23 02:02:50.92	28.52	6.22	-46.3	-48.0	18.3	0.00e+00	0	43	0	61865984	64	4336
2026-01-23 02:02:51.93	28.48	6.29	-46.3	-48.0	18.4	0.00e+00	0	43	0	62914560	64	4304
2026-01-23 02:02:52.94	28.44	6.36	-46.0	-47.6	18.8	0.00e+00	0	43	0	65011712	63	4383
2026-01-23 02:02:53.95	28.41	6.44	-46.2	-47.9	18.6	0.00e+00	0	43	0	67108864	63	4495
2026-01-23 02:02:54.96	28.37	6.51	-46.2	-47.9	18.5	0.00e+00	0	43	0	69206016	63	4544
2026-01-23 02:02:55.97	28.33	6.58	-46.2	-47.8	18.7	0.00e+00	0	43	0	71303168	63	4470
2026-01-23 02:02:56.97	28.29	6.66	-46.1	-47.8	18.7	0.00e+00	0	43	0	72351744	63	4463
2026-01-23 02:02:57.98	28.25	6.73	-46.3	-48.0	18.5	0.00e+00	0	43	0	74448896	63	4555
2026-01-23 02:02:58.99	28.21	6.81	-46.3	-48.0	18.5	0.00e+00	0	43	0	76546048	63	4558
2026-01-23 02:03:00.00	28.17	6.88	-46.1	-47.7	18.8	0.00e+00	0	43	0	78643200	63	4430
2026-01-23 02:03:01.01	28.13	6.96	-46.1	-47.7	18.8	0.00e+00	0	43	0	80740352	63	4416
2026-01-23 02:03:02.01	28.09	7.03	-46.1	-47.8	18.7	0.00e+00	0	43	0	81788928	63	4477
2026-01-23 02:03:03.02	28.05	7.11	-46.2	-47.9	18.6	0.00e+00	0	43	0	83886080	63	4538
2026-01-23 02:03:04.03	28.01	7.18	-46.3	-48.0	18.5	0.00e+00	0	43	0	85983232	63	4582
2026-01-23 02:03:05.04	27.97	7.26	-46.2	-47.9	18.6	0.00e+00	0	43	0	88080384	63	4514
2026-01-23 02:03:06.05	27.93	7.33	-46.3	-48.0	18.5	0.00e+00	0	43	0	90177536	63	4569
2026-01-23 02:03:07.05	27.89	7.41	-46.4	-48.1	18.4	0.00e+00	0	43	0	91226112	63	4639
2026-01-23 02:03:08.06	27.85	7.49	-46.3	-48.0	18.5	0.00e+00	0	43	0	93323264	63	4589
2026-01-23 02:03:09.07	27.81	7.56	-46.1	-47.7	18.9	0.00e+00	0	43	0	95420416	63	4416
2026-01-23 02:03:10.07	27.77	7.64	-46.4	-48.2	18.4	0.00e+00	0	43	0	97517568	63	4660
2026-01-23 02:03:11.08	27.73	7.72	-46.4	-48.1	18.4	0.00e+00	0	43	0	99614720	63	4650
2026-01-23 02:03:12.09	27.68	7.79	-46.2	-47.8	18.7	0.00e+00	0	43	0	100663296	63	4487
2026-01-23 02:03:13.10	27.64	7.87	-46.2	-47.9	18.7	0.00e+00	0	43	0	102760448	63	4513
2026-01-23 02:03:14.11	27.60	7.95	-46.3	-48.0	18.6	0.00e+00	0	43	0	104857600	63	4589
2026-01-23 02:03:15.11	27.56	8.03	-46.1	-47.8	18.8	0.00e+00	0	43	0	106954752	63	4448
2026-01-23 02:03:16.12	27.51	8.10	-46.2	-47.9	18.8	0.00e+00	0	43	0	109051904	63	4523
2026-01-23 02:03:17.13	27.47	8.18	-46.1	-47.8	18.9	0.00e+00	0	43	0	110100480	63	4444
2026-01-23 02:03:18.14	27.42	8.26	-46.2	-47.8	18.7	0.00e+00	0	43	0	112197632	63	4483
2026-01-23 02:03:19.14	27.38	8.34	-46.2	-47.8	18.8	0.00e+00	0	43	0	114294784	63	4470
2026-01-23 02:03:20.15	27.34	8.42	-46.2	-47.8	18.8	0.00e+00	0	43	0	116391936	63	4488
2026-01-23 02:03:21.16	27.29	8.50	-46.3	-48.0	18.6	0.00e+00	0	43	0	118489088	63	4569
2026-01-23 02:03:22.17	27.25	8.58	-46.0	-47.6	19.0	0.00e+00	0	43	0	119537664	63	4385
2026-01-23 02:03:23.18	27.20	8.66	-45.9	-47.4	19.2	0.00e+00	0	43	0	121634816	63	4286
2026-01-23 02:03:24.19	27.16	8.74	-46.0	-47.5	19.1	0.00e+00	0	43	0	123731968	63	4334
2026-01-23 02:03:25.20	27.11	8.82	-45.8	-47.3	19.3	0.00e+00	0	43	0	125829120	63	4217
2026-01-23 02:03:26.21	27.06	8.90	-46.1	-47.7	19.0	0.00e+00	0	43	0	127926272	63	4407
2026-01-23 02:03:27.21	27.02	8.98	-46.0	-47.6	19.1	0.00e+00	0	43	0	130023424	63	4346
2026-01-23 02:03:28.22	26.97	9.06	-45.8	-47.4	19.3	0.00e+00	0	43	0	131072000	63	4248
2026-01-23 02:03:29.23	26.93	9.14	-45.7	-47.2	19.4	0.00e+00	0	43	0	133169152	63	4156
2026-01-23 02:03:30.24	26.88	9.22	-45.9	-47.5	19.2	0.00e+00	0	43	0	135266304	63	4310
2026-01-23 02:03:31.25	26.83	9.30	-45.8	-47.3	19.4	0.00e+00	0	43	0	137363456	63	4217
2026-01-23 02:03:32.25	26.78	9.39	-45.5	-47.0	19.6	0.00e+00	0	43	0	138412032	62	4326
2026-01-23 02:03:33.26	26.74	9.47	-45.5	-47.0	19.7	0.00e+00	0	43	0	140509184	62	4323
2026-01-23 02:03:34.27	26.69	9.55	-45.6	-47.1	19.5	0.00e+00	0	43	0	142606336	62	4378
2026-01-23 02:03:35.28	26.64	9.63	-45.6	-47.1	19.5	0.00e+00	0	43	0	144703488	62	4386
2026-01-23 02:03:36.29	26.59	9.72	-45.6	-47.1	19.5	0.00e+00	0	43	0	146800640	62	4374
2026-01-23 02:03:37.29	26.54	9.80	-45.7	-47.2	19.5	0.00e+00	0	43	0	147849216	62	4413
2026-01-23 02:03:38.30	26.49	9.88	-45.5	-46.9	19.8	0.00e+00	0	43	0	149946368	62	4274
2026-01-23 02:03:39.31	26.44	9.97	-45.4	-46.8	19.8	0.00e+00	0	43	0	152043520	62	4227
2026-01-23 02:03:40.31	26.39	10.05	-45.5	-46.9	19.8	0.00e+00	0	43	0	154140672	62	4265
2026-01-23 02:03:41.32	26.34	10.13	-45.2	-46.6	20.0	0.00e+00	0	43	0	156237824	62	4140
2026-01-23 02:03:42.33	26.29	10.22	-45.3	-46.7	20.0	0.00e+00	0	43	0	158334976	62	4157
2026-01-23 02:03:43.34	26.24	10.30	-45.3	-46.7	20.0	0.00e+00	0	43	0	159383552	62	4165
2026-01-23 02:03:44.35	26.19	10.39	-45.3	-46.7	19.9	0.00e+00	0	43	0	161480704	62	4165
2026-01-23 02:03:45.35	26.14	10.47	-45.2	-46.5	20.1	0.00e+00	0	43	0	163577856	62	4085
2026-01-23 02:03:46.36	26.09	10.56	-45.3	-46.6	20.0	0.00e+00	0	43	0	165675008	62	4140
2026-01-23 02:03:47.37	26.04	10.64	-45.3	-46.7	20.0	0.00e+00	0	43	0	166723584	62	4159
2026-01-23 02:03:48.38	25.98	10.73	-45.2	-46.6	20.1	0.00e+00	0	43	0	168820736	62	4116
2026-01-23 02:03:49.38	25.93	10.82	-45.3	-46.7	20.0	0.00e+00	0	43	0	170917888	62	4160
2026-01-23 02:03:50.39	25.88	10.90	-45.4	-46.8	20.0	0.00e+00	0	43	0	173015040	62	4194
2026-01-23 02:03:51.40	25.82	10.99	-45.3	-46.7	20.0	0.00e+00	0	43	0	175112192	62	4169
2026-01-23 02:03:52.41	25.77	11.08	-45.4	-46.8	20.0	0.00e+00	0	43	0	177209344	62	4208
2026-01-23 02:03:53.42	25.71	11.17	-45.4	-46.8	20.0	0.00e+00	0	43	0	178257920	62	4205
2026-01-23 02:03:54.43	25.66	11.25	-45.3	-46.7	20.0	0.00e+00	0	43	0	180355072	62	4186
2026-01-23 02:03:55.43	25.61	11.34	-45.1	-46.4	20.2	0.00e+00	0	43	0	182452224	62	4044
2026-01-23 02:03:56.44	25.55	11.43	-45.2	-46.5	20.2	0.00e+00	0	43	0	184549376	62	4090
2026-01-23 02:03:57.45	25.49	11.52	-45.3	-46.7	20.1	0.00e+00	0	43	0	186646528	62	4157
2026-01-23 02:03:58.46	25.44	11.61	-45.2	-46.5	20.2	0.00e+00	0	43	0	187695104	62	4095
2026-01-23 02:03:59.46	25.38	11.70	-45.2	-46.5	20.2	0.00e+00	0	43	0	189792256	62	4082
2026-01-23 02:04:00.47	25.33	11.79	-45.3	-46.7	20.1	0.00e+00	0	43	0	191889408	62	4154
2026-01-23 02:04:01.48	25.27	11.88	-45.3	-46.6	20.1	0.00e+00	0	43	0	193986560	62	4143
2026-01-23 02:04:02.49	25.21	11.97	-45.3	-46.7	20.1	0.00e+00	0	43	0	195035136	62	4153
2026-01-23 02:04:03.50	25.15	12.06	-45.2	-46.5	20.2	0.00e+00	0	43	0	197132288	62	4096
2026-01-23 02:04:04.51	25.10	12.15	-45.1	-46.4	20.3	0.00e+00	0	43	0	199229440	61	4265
2026-01-23 02:04:05.52	25.04	12.24	-45.3	-46.7	20.1	0.00e+00	0	43	0	201326592	61	4416
2026-01-23 02:04:06.52	24.98	12.33	-45.1	-46.5	20.3	0.00e+00	0	43	0	203423744	61	4292
2026-01-23 02:04:07.53	24.92	12.42	-45.1	-46.5	20.3	0.00e+00	0	43	0	205520896	61	4318
2026-01-23 02:04:08.54	24.86	12.51	-45.1	-46.5	20.3	0.00e+00	0	43	0	206569472	61	4311
2026-01-23 02:04:09.55	24.80	12.61	-45.3	-46.6	20.1	0.00e+00	0	43	0	208666624	61	4390
2026-01-23 02:04:10.55	24.74	12.70	-45.1	-46.5	20.3	0.00e+00	0	43	0	210763776	61	4310
2026-01-23 02:04:11.56	24.68	12.79	-45.0	-46.3	20.5	0.00e+00	0	43	0	212860928	61	4211
2026-01-23 02:04:12.57	24.62	12.88	-45.1	-46.4	20.3	0.00e+00	0	43	0	214958080	61	4288
2026-01-23 02:04:13.58	24.55	12.98	-45.0	-46.3	20.4	0.00e+00	0	43	0	216006656	61	4222
2026-01-23 02:04:14.59	24.49	13.07	-44.9	-46.3	20.5	0.00e+00	0	44	0	218103808	61	4195
2026-01-23 02:04:15.59	24.43	13.16	-45.0	-46.3	20.4	0.00e+00	0	43	0	220200960	61	4242
2026-01-23 02:04:16.60	24.37	13.26	-44.9	-46.2	20.6	0.00e+00	0	43	0	222298112	61	4164
2026-01-23 02:04:17.61	24.30	13.35	-44.9	-46.2	20.5	0.00e+00	0	43	0	224395264	61	4176
2026-01-23 02:04:18.62	24.24	13.45	-45.0	-46.3	20.5	0.00e+00	0	43	0	225443840	61	4220
2026-01-23 02:04:19.63	24.17	13.55	-44.8	-46.1	20.6	0.00e+00	0	43	0	227540992	61	4123
2026-01-23 02:04:20.63	24.11	13.64	-44.8	-46.1	20.7	0.00e+00	0	43	0	229638144	61	4129
2026-01-23 02:04:21.64	24.04	13.74	-44.9	-46.2	20.6	0.00e+00	0	43	0	231735296	61	4180
2026-01-23 02:04:22.65	23.98	13.83	-45.1	-46.4	20.4	0.00e+00	0	43	0	233832448	61	4285
2026-01-23 02:04:23.66	23.91	13.93	-45.1	-46.4	20.4	0.00e+00	0	43	0	234881024	61	4284
2026-01-23 02:04:24.66	23.85	14.03	-45.0	-46.4	20.4	0.00e+00	0	43	0	236978176	61	4247
2026-01-23 02:04:25.68	23.78	14.13	-45.3	-46.7	20.2	0.00e+00	0	43	0	239075328	61	4399
2026-01-23 02:04:26.68	23.71	14.22	-45.1	-46.5	20.4	0.00e+00	0	43	0	241172480	61	4293
2026-01-23 02:04:27.69	23.64	14.32	-45.2	-46.6	20.2	0.00e+00	0	43	0	243269632	61	4367
2026-01-23 02:04:28.70	23.57	14.42	-45.2	-46.5	20.3	0.00e+00	0	43	0	244318208	61	4318
2026-01-23 02:04:29.71	23.51	14.52	-45.0	-46.4	20.5	0.00e+00	0	43	0	246415360	61	4251
2026-01-23 02:04:30.72	23.44	14.62	-45.1	-46.4	20.4	0.00e+00	0	44	0	248512512	61	4289
2026-01-23 02:04:31.73	23.37	14.72	-45.3	-46.7	20.2	0.00e+00	0	43	0	250609664	61	4411
2026-01-23 02:04:32.73	23.30	14.82	-44.9	-46.2	20.6	0.00e+00	0	44	0	252706816	61	4176
2026-01-23 02:04:33.74	23.22	14.92	-45.0	-46.3	20.6	0.00e+00	0	43	0	253755392	61	4203
2026-01-23 02:04:34.75	23.15	15.02	-45.1	-46.4	20.4	0.00e+00	0	44	0	255852544	61	4280
2026-01-23 02:04:35.76	23.08	15.12	-45.2	-46.6	20.3	0.00e+00	0	43	0	257949696	61	4370
2026-01-23 02:04:36.76	23.01	15.22	-44.9	-46.2	20.7	0.00e+00	0	43	0	260046848	61	4169
2026-01-23 02:04:37.77	22.94	15.32	-45.1	-46.4	20.5	0.00e+00	0	43	0	262144000	61	4265
2026-01-23 02:04:38.78	22.86	15.43	-45.1	-46.4	20.5	0.00e+00	0	43	0	263192576	61	4272
2026-01-23 02:04:39.79	22.79	15.53	-44.9	-46.2	20.6	0.00e+00	0	43	0	265289728	61	4193
2026-01-23 02:04:40.80	22.71	15.63	-45.1	-46.4	20.5	0.00e+00	0	43	0	267386880	61	4275
2026-01-23 02:04:41.80	22.64	15.74	-45.2	-46.5	20.3	0.00e+00	0	43	0	269484032	61	4335
2026-01-23 02:04:42.81	22.56	15.84	-45.1	-46.4	20.5	0.00e+00	0	43	0	271581184	61	4277
2026-01-23 02:04:43.82	22.49	15.94	-45.2	-46.5	20.4	0.00e+00	0	43	0	273678336	61	4320
2026-01-23 02:04:44.83	22.41	16.05	-45.2	-46.6	20.3	0.00e+00	0	43	0	274726912	61	4345
2026-01-23 02:04:45.83	22.33	16.15	-45.2	-46.6	20.3	0.00e+00	0	43	0	276824064	61	4368
2026-01-23 02:04:46.84	22.25	16.26	-45.2	-46.5	20.4	0.00e+00	0	43	0	278921216	61	4332
2026-01-23 02:04:47.85	22.18	16.37	-45.2	-46.6	20.3	0.00e+00	0	44	0	281018368	61	4373
2026-01-23 02:04:48.86	22.10	16.47	-45.3	-46.7	20.2	0.00e+00	0	43	0	282066944	61	4413
2026-01-23 02:04:49.87	22.02	16.58	-45.3	-46.7	20.2	0.00e+00	0	43	0	284164096	61	4432
2026-01-23 02:04:50.87	21.94	16.68	-45.2	-46.6	20.3	0.00e+00	0	44	0	286261248	61	4362
2026-01-23 02:04:51.88	21.86	16.79	-45.2	-46.5	20.4	0.00e+00	0	43	0	288358400	61	4322
2026-01-23 02:04:52.89	21.77	16.90	-45.2	-46.6	20.3	0.00e+00	0	44	0	290455552	61	4346
2026-01-23 02:04:53.90	21.69	17.01	-45.4	-46.8	20.2	0.00e+00	0	43	0	291504128	61	4443
2026-01-23 02:04:54.91	21.61	17.12	-45.3	-46.6	20.3	0.00e+00	0	43	0	293601280	61	4372
2026-01-23 02:04:55.91	21.53	17.23	-45.1	-46.4	20.5	0.00e+00	0	43	0	295698432	61	4286
2026-01-23 02:04:56.92	21.44	17.34	-45.1	-46.5	20.5	0.00e+00	0	44	0	297795584	61	4295
2026-01-23 02:04:57.93	21.36	17.45	-45.2	-46.5	20.5	0.00e+00	0	44	0	299892736	61	4315
2026-01-23 02:04:58.94	21.27	17.56	-45.3	-46.7	20.4	0.00e+00	0	44	0	301989888	61	4393
2026-01-23 02:04:59.95	21.19	17.67	-45.2	-46.6	20.4	0.00e+00	0	43	0	303038464	61	4341
2026-01-23 02:05:00.95	21.10	17.78	-45.2	-46.6	20.5	0.00e+00	0	44	0	305135616	61	4342
2026-01-23 02:05:01.96	21.01	17.89	-45.5	-46.8	20.2	0.00e+00	0	44	0	307232768	61	4486
2026-01-23 02:05:02.96	20.93	18.00	-45.3	-46.6	20.4	0.00e+00	0	43	0	309329920	61	4374
2026-01-23 02:05:03.97	20.84	18.11	-45.1	-46.4	20.6	0.00e+00	0	44	0	310378496	61	4250
2026-01-23 02:05:04.98	20.75	18.23	-45.3	-46.6	20.4	0.00e+00	0	43	0	312475648	61	4383
2026-01-23 02:05:05.99	20.66	18.34	-45.4	-46.7	20.3	0.00e+00	0	44	0	314572800	61	4412
2026-01-23 02:05:06.99	20.57	18.45	-45.3	-46.7	20.3	0.00e+00	0	43	0	316669952	61	4407
2026-01-23 02:05:08.00	20.48	18.57	-45.1	-46.4	20.5	0.00e+00	0	43	0	318767104	61	4286
2026-01-23 02:05:09.01	20.38	18.68	-45.1	-46.3	20.6	0.00e+00	0	43	0	320864256	61	4236
2026-01-23 02:05:10.02	20.29	18.80	-45.2	-46.5	20.5	0.00e+00	0	44	0	321912832	61	4315
2026-01-23 02:05:11.03	20.20	18.91	-45.1	-46.3	20.6	0.00e+00	0	43	0	324009984	61	4242
2026-01-23 02:05:12.03	20.10	19.03	-45.1	-46.4	20.5	0.00e+00	0	44	0	326107136	61	4284
2026-01-23 02:05:13.04	20.01	19.15	-45.4	-46.8	20.2	0.00e+00	0	43	0	328204288	61	4461
2026-01-23 02:05:14.05	19.91	19.26	-45.3	-46.6	20.4	0.00e+00	0	43	0	330301440	61	4361
2026-01-23 02:05:15.06	19.81	19.38	-45.4	-46.8	20.2	0.00e+00	0	44	0	331350016	61	4480
2026-01-23 02:05:16.07	19.72	19.50	-45.4	-46.8	20.2	0.00e+00	0	43	0	333447168	61	4463
2026-01-23 02:05:17.07	19.62	19.62	-45.4	-46.7	20.3	0.00e+00	0	44	0	335544320	61	4433
2026-01-23 02:05:18.08	19.52	19.74	-45.4	-46.8	20.2	0.00e+00	0	44	0	337641472	61	4462
2026-01-23 02:05:19.09	19.42	19.86	-45.5	-46.9	20.1	0.00e+00	0	43	0	338690048	61	4526
2026-01-23 02:05:20.10	19.32	19.98	-45.6	-47.0	20.1	0.00e+00	0	43	0	340787200	61	4546
2026-01-23 02:05:21.11	19.22	20.10	-45.5	-46.8	20.2	0.00e+00	0	44	0	342884352	61	4487
2026-01-23 02:05:22.11	19.12	20.22	-45.4	-46.8	20.2	0.00e+00	0	44	0	344981504	61	4466
2026-01-23 02:05:23.12	19.01	20.34	-45.4	-46.8	20.2	0.00e+00	0	43	0	347078656	61	4467
2026-01-23 02:05:24.12	18.91	20.46	-45.5	-46.8	20.2	0.00e+00	0	43	0	349175808	61	4492
2026-01-23 02:05:25.13	18.81	20.58	-45.2	-46.5	20.5	0.00e+00	0	43	0	350224384	61	4308
2026-01-23 02:05:26.14	18.70	20.71	-45.7	-47.1	20.0	0.00e+00	0	43	0	352321536	62	4374
2026-01-23 02:05:27.15	18.59	20.83	-45.7	-47.1	20.0	0.00e+00	0	43	0	354418688	62	4359
2026-01-23 02:05:28.16	18.48	20.95	-45.8	-47.3	19.8	0.00e+00	0	44	0	356515840	62	4462
2026-01-23 02:05:29.17	18.38	21.08	-45.7	-47.1	20.0	0.00e+00	0	44	0	358612992	62	4367
2026-01-23 02:05:30.17	18.27	21.20	-45.8	-47.2	19.9	0.00e+00	0	44	0	359661568	62	4406
2026-01-23 02:05:31.18	18.16	21.33	-45.9	-47.4	19.8	0.00e+00	0	44	0	361758720	62	4521
2026-01-23 02:05:32.19	18.05	21.45	-45.8	-47.3	19.9	0.00e+00	0	44	0	363855872	62	4457
2026-01-23 02:05:33.20	17.93	21.58	-45.5	-46.9	20.2	0.00e+00	0	44	0	365953024	62	4267
2026-01-23 02:05:34.21	17.82	21.71	-45.9	-47.3	19.8	0.00e+00	0	44	0	368050176	62	4483
2026-01-23 02:05:35.21	17.71	21.83	-46.0	-47.4	19.8	0.00e+00	0	44	0	369098752	62	4527
2026-01-23 02:05:36.22	17.59	21.96	-45.8	-47.2	20.0	0.00e+00	0	44	0	371195904	62	4441
2026-01-23 02:05:37.23	17.48	22.09	-45.7	-47.1	20.0	0.00e+00	0	44	0	373293056	62	4383
2026-01-23 02:05:38.23	17.36	22.22	-45.7	-47.1	20.2	0.00e+00	0	44	0	375390208	62	4356
2026-01-23 02:05:39.24	17.24	22.35	-45.5	-46.9	20.3	0.00e+00	0	44	0	377487360	62	4258
2026-01-23 02:05:40.25	17.12	22.48	-45.7	-47.1	20.1	0.00e+00	0	44	0	378535936	62	4346
2026-01-23 02:05:41.26	17.00	22.61	-45.7	-47.1	20.1	0.00e+00	0	44	0	380633088	62	4348
2026-01-23 02:05:42.27	16.88	22.74	-45.8	-47.2	20.0	0.00e+00	0	44	0	382730240	62	4424
2026-01-23 02:05:43.28	16.76	22.87	-46.0	-47.4	19.8	0.00e+00	0	44	0	384827392	62	4538
2026-01-23 02:05:44.29	16.64	23.00	-46.4	-48.0	19.3	0.00e+00	0	44	0	386924544	63	4557
2026-01-23 02:05:45.29	16.51	23.14	-46.2	-47.7	19.5	0.00e+00	0	44	0	387973120	63	4426
2026-01-23 02:05:46.30	16.39	23.27	-46.2	-47.7	19.6	0.00e+00	0	44	0	390070272	63	4403
2026-01-23 02:05:47.31	16.26	23.40	-46.4	-47.9	19.3	0.00e+00	0	44	0	392167424	63	4527
2026-01-23 02:05:48.32	16.13	23.54	-46.5	-48.0	19.2	0.00e+00	0	44	0	394264576	63	4584
2026-01-23 02:05:49.33	16.01	23.67	-46.5	-48.1	19.2	0.00e+00	0	43	0	396361728	63	4613
2026-01-23 02:05:50.33	15.88	23.81	-46.5	-48.1	19.1	0.00e+00	0	44	0	397410304	64	4365
2026-01-23 02:05:51.34	15.75	23.94	-46.4	-48.0	19.1	0.00e+00	0	44	0	399507456	64	4333
2026-01-23 02:05:52.35	15.61	24.08	-46.4	-48.1	19.1	0.00e+00	0	44	0	401604608	64	4351
2026-01-23 02:05:53.36	15.48	24.22	-46.4	-48.0	19.1	0.00e+00	0	44	0	403701760	64	4338
2026-01-23 02:05:54.36	15.35	24.35	-46.2	-47.8	19.4	0.00e+00	0	44	0	405798912	64	4206
2026-01-23 02:05:55.37	15.21	24.49	-46.5	-48.1	19.1	0.00e+00	0	44	0	406847488	64	4377
2026-01-23 02:05:56.38	15.07	24.63	-46.5	-48.1	19.0	0.00e+00	0	44	0	408944640	64	4388
2026-01-23 02:05:57.39	14.93	24.77	-46.4	-48.0	19.2	0.00e+00	0	44	0	411041792	64	4321
2026-01-23 02:05:58.40	14.80	24.91	-46.5	-48.2	19.1	0.00e+00	0	44	0	413138944	64	4406
2026-01-23 02:05:59.41	14.65	25.05	-46.8	-48.6	18.6	0.00e+00	0	44	0	415236096	64	4616
2026-01-23 02:06:00.41	14.51	25.19	-46.8	-48.5	18.7	0.00e+00	0	44	0	417333248	64	4567
2026-01-23 02:06:01.42	14.37	25.33	-46.9	-48.6	18.6	0.00e+00	0	44	0	418381824	64	4640
2026-01-23 02:06:02.43	14.23	25.47	-46.9	-48.6	18.6	0.00e+00	0	44	0	420478976	64	4645
2026-01-23 02:06:03.44	14.08	25.62	-47.0	-48.8	18.5	0.00e+00	0	44	0	422576128	64	4709
2026-01-23 02:06:04.45	13.93	25.76	-46.8	-48.6	18.7	0.00e+00	0	44	0	424673280	64	4618
2026-01-23 02:06:05.45	13.78	25.90	-46.8	-48.5	18.8	0.00e+00	0	44	0	425721856	64	4581
2026-01-23 02:06:06.46	13.63	26.05	-46.5	-48.1	19.1	0.00e+00	0	44	0	427819008	64	4356
2026-01-23 02:06:07.47	13.48	26.19	-46.2	-47.7	19.5	0.00e+00	0	44	0	429916160	64	4168
2026-01-23 02:06:08.48	13.33	26.34	-46.1	-47.5	19.7	0.00e+00	0	44	0	432013312	63	4336
2026-01-23 02:06:09.49	13.17	26.48	-46.2	-47.7	19.6	0.00e+00	0	44	0	434110464	63	4406
2026-01-23 02:06:10.49	13.02	26.63	-45.8	-47.2	20.0	0.00e+00	0	44	0	435159040	63	4165
2026-01-23 02:06:11.50	12.86	26.78	-45.8	-47.2	20.0	0.00e+00	0	44	0	437256192	63	4180
2026-01-23 02:06:12.51	12.70	26.92	-45.9	-47.3	20.0	0.00e+00	0	44	0	439353344	63	4217
2026-01-23 02:06:13.52	12.54	27.07	-46.1	-47.5	19.7	0.00e+00	0	44	0	441450496	63	4329
2026-01-23 02:06:14.52	12.38	27.22	-46.1	-47.6	19.8	0.00e+00	0	44	0	443547648	63	4348
2026-01-23 02:06:15.53	12.22	27.37	-46.4	-48.0	19.4	0.00e+00	0	44	0	445644800	63	4569
2026-01-23 02:06:16.54	12.05	27.52	-46.5	-48.0	19.3	0.00e+00	0	44	0	446693376	63	4578
2026-01-23 02:06:17.55	11.89	27.67	-46.4	-47.9	19.3	0.00e+00	0	44	0	448790528	63	4541
2026-01-23 02:06:18.56	11.72	27.82	-45.8	-47.2	20.0	0.00e+00	0	44	0	450887680	63	4177
2026-01-23 02:06:19.57	11.55	27.97	-45.9	-47.4	19.9	0.00e+00	0	44	0	452984832	63	4247
2026-01-23 02:06:20.57	11.38	28.12	-45.8	-47.2	20.0	0.00e+00	0	44	0	454033408	63	4161
2026-01-23 02:06:21.58	11.21	28.28	-45.6	-47.0	20.1	0.00e+00	0	44	0	456130560	62	4322
2026-01-23 02:06:22.59	11.03	28.43	-45.6	-47.0	20.0	0.00e+00	0	44	0	458227712	62	4299
2026-01-23 02:06:23.60	10.85	28.58	-45.8	-47.2	20.0	0.00e+00	0	44	0	460324864	62	4434
2026-01-23 02:06:24.61	10.67	28.74	-45.9	-47.4	19.8	0.00e+00	0	44	0	462422016	62	4519
2026-01-23 02:06:25.62	10.49	28.89	-46.1	-47.6	19.7	0.00e+00	0	44	0	464519168	62	4599
2026-01-23 02:06:26.63	10.31	29.05	-46.2	-47.7	19.6	0.00e+00	0	44	0	465567744	63	4423
2026-01-23 02:06:27.63	10.13	29.20	-46.6	-48.2	19.1	0.00e+00	0	44	0	467664896	63	4667
2026-01-23 02:06:28.64	9.94	29.36	-46.7	-48.4	18.9	0.00e+00	0	44	0	469762048	64	4509
2026-01-23 02:06:29.65	9.76	29.52	-46.6	-48.2	19.0	0.00e+00	0	44	0	471859200	64	4398
2026-01-23 02:06:30.66	9.57	29.67	-46.4	-48.0	19.3	0.00e+00	0	44	0	473956352	64	4294
2026-01-23 02:06:31.67	9.38	29.83	-46.3	-47.8	19.5	0.00e+00	0	44	0	475004928	64	4204
2026-01-23 02:06:32.67	9.19	29.99	-46.4	-47.9	19.4	0.00e+00	0	44	0	477102080	64	4279
2026-01-23 02:06:33.68	8.99	30.15	-46.2	-47.7	19.6	0.00e+00	0	44	0	479199232	64	4162
2026-01-23 02:06:34.69	8.79	30.31	-46.4	-47.9	19.6	0.00e+00	0	44	0	481296384	63	4494
2026-01-23 02:06:35.70	8.59	30.47	-46.8	-48.4	18.8	0.00e+00	0	44	0	482344960	64	4522
2026-01-23 02:06:36.70	8.40	30.63	-47.0	-48.7	18.6	0.00e+00	0	44	0	484442112	64	4701
2026-01-23 02:06:37.71	8.19	30.79	-47.2	-48.9	18.5	0.00e+00	0	44	0	486539264	65	4524
2026-01-23 02:06:38.72	7.99	30.95	-47.3	-49.1	18.3	0.00e+00	0	44	0	488636416	65	4601
2026-01-23 02:06:39.73	7.78	31.11	-46.8	-48.4	18.9	0.00e+00	0	44	0	490733568	65	4268
2026-01-23 02:06:40.74	7.57	31.27	-47.1	-48.9	18.4	0.00e+00	0	44	0	492830720	65	4517
2026-01-23 02:06:41.75	7.36	31.44	-46.8	-48.4	18.9	0.00e+00	0	44	0	493879296	65	4274
2026-01-23 02:06:42.75	7.15	31.60	-47.1	-48.8	18.6	0.00e+00	0	44	0	495976448	64	4712
2026-01-23 02:06:43.76	6.93	31.76	-47.1	-48.8	18.6	0.00e+00	0	44	0	498073600	64	4716
2026-01-23 02:06:44.77	6.71	31.93	-46.8	-48.4	19.0	0.00e+00	0	44	0	500170752	64	4499
2026-01-23 02:06:45.78	6.49	32.09	-47.0	-48.6	18.8	0.00e+00	0	44	0	502267904	64	4630
2026-01-23 02:06:46.79	6.27	32.26	-47.4	-49.2	18.3	0.00e+00	0	44	0	503316480	65	4674
2026-01-23 02:06:47.79	6.05	32.42	-47.3	-49.1	18.3	0.00e+00	0	44	0	505413632	65	4609
2026-01-23 02:06:48.80	5.82	32.59	-47.4	-49.2	18.2	0.00e+00	0	44	0	507510784	65	4659
2026-01-23 02:06:49.81	5.59	32.75	-47.5	-49.3	18.1	0.00e+00	0	44	0	509607936	65	4740
2026-01-23 02:06:50.82	5.36	32.92	-47.3	-49.1	18.3	0.00e+00	0	44	0	511705088	65	4617
2026-01-23 02:06:51.83	5.12	33.09	-47.0	-48.6	18.7	0.00e+00	0	44	0	512753664	65	4380
2026-01-23 02:06:52.83	4.89	33.25	-47.1	-48.8	18.7	0.00e+00	0	44	0	514850816	65	4447
2026-01-23 02:06:53.84	4.65	33.42	-46.7	-48.3	19.1	0.00e+00	0	44	0	516947968	65	4202
2026-01-23 02:06:54.85	4.41	33.59	-46.8	-48.5	18.9	0.00e+00	0	44	0	519045120	65	4294
2026-01-23 02:06:55.86	4.16	33.76	-46.7	-48.3	19.1	0.00e+00	0	44	0	521142272	65	4195
2026-01-23 02:06:56.86	3.92	33.92	-47.4	-49.2	18.3	0.00e+00	0	44	0	522190848	65	4676
2026-01-23 02:06:57.87	3.67	34.09	-47.8	-49.8	17.7	0.00e+00	0	44	0	524288000	66	4707
2026-01-23 02:06:58.88	3.42	34.26	-48.0	-49.9	17.6	0.00e+00	0	44	0	526385152	66	4814
2026-01-23 02:06:59.89	3.16	34.43	-47.8	-49.8	17.8	0.00e+00	0	44	0	528482304	66	4707
2026-01-23 02:07:00.90	2.91	34.60	-47.7	-49.6	17.9	0.00e+00	0	44	0	530579456	66	4640
2026-01-23 02:07:01.91	2.64	34.77	-47.7	-49.6	17.9	0.00e+00	0	44	0	531628032	66	4623
2026-01-23 02:07:02.91	2.38	34.94	-47.3	-49.0	18.4	0.00e+00	0	44	0	533725184	66	4315
2026-01-23 02:07:03.92	2.12	35.11	-47.1	-48.7	18.7	0.00e+00	0	44	0	535822336	65	4440
2026-01-23 02:07:04.93	1.85	35.28	-46.8	-48.3	19.0	0.00e+00	0	44	0	537919488	65	4242
2026-01-23 02:07:05.94	1.58	35.45	-46.7	-48.2	19.2	0.00e+00	0	44	0	540016640	65	4181
2026-01-23 02:07:06.94	1.31	35.62	-47.3	-49.0	18.4	0.00e+00	0	44	0	541065216	65	4580
2026-01-23 02:07:07.95	1.03	35.79	-47.4	-49.2	18.2	0.00e+00	0	44	0	543162368	65	4704
2026-01-23 02:07:08.96	0.75	35.97	-48.0	-50.1	17.4	0.00e+00	0	44	0	545259520	66	4909
2026-01-23 02:07:09.97	0.47	36.14	-48.5	-50.8	16.7	0.00e+00	0	44	0	547356672	67	5020
2026-01-23 02:07:10.98	0.18	36.31	-48.9	-51.5	16.2	0.00e+00	0	44	0	549453824	68	5126
2026-01-23 02:07:11.98	359.89	36.48	-48.4	-50.7	16.8	0.00e+00	0	44	0	550502400	68	4656
2026-01-23 02:07:12.99	359.60	36.65	-48.2	-50.4	17.1	0.00e+00	0	44	0	552599552	68	4529
2026-01-23 02:07:14.00	359.30	36.82	-47.7	-49.7	17.8	0.00e+00	0	44	0	554696704	67	4431
2026-01-23 02:07:15.01	359.00	36.99	-47.5	-49.4	18.0	0.00e+00	0	44	0	556793856	66	4529
2026-01-23 02:07:16.02	358.70	37.17	-47.3	-49.1	18.3	0.00e+00	0	44	0	558891008	66	4388
2026-01-23 02:07:17.03	358.40	37.34	-47.3	-49.2	18.4	0.00e+00	0	44	0	559939584	66	4394
2026-01-23 02:07:18.03	358.09	37.51	-47.3	-49.2	18.3	0.00e+00	0	44	0	562036736	65	4655
2026-01-23 02:07:19.04	357.78	37.68	-47.2	-48.9	18.5	0.00e+00	0	44	0	564133888	65	4537
2026-01-23 02:07:20.04	357.47	37.85	-46.9	-48.6	18.8	0.00e+00	0	44	0	566231040	65	4365
2026-01-23 02:07:21.05	357.15	38.02	-46.7	-48.4	19.0	0.00e+00	0	44	0	568328192	65	4253
2026-01-23 02:07:22.06	356.83	38.19	-46.7	-48.3	19.2	0.00e+00	0	44	0	569376768	65	4215
2026-01-23 02:07:23.07	356.50	38.36	-47.0	-48.8	18.7	0.00e+00	0	44	0	571473920	65	4474
2026-01-23 02:07:24.08	356.17	38.54	-47.1	-49.0	18.6	0.00e+00	0	44	0	573571072	65	4550
2026-01-23 02:07:25.09	355.84	38.71	-47.3	-49.2	18.3	0.00e+00	0	44	0	575668224	65	4664
2026-01-23 02:07:26.10	355.51	38.88	-47.5	-49.4	18.1	0.00e+00	0	44	0	577765376	65	4771
2026-01-23 02:07:27.10	355.17	39.05	-47.3	-49.1	18.5	0.00e+00	0	44	0	578813952	65	4603
2026-01-23 02:07:28.11	354.83	39.22	-47.2	-49.0	18.5	0.00e+00	0	44	0	580911104	65	4575
2026-01-23 02:07:29.12	354.48	39.39	-47.0	-48.7	18.7	0.00e+00	0	44	0	583008256	65	4423
2026-01-23 02:07:30.13	354.13	39.55	-47.1	-48.8	18.6	0.00e+00	0	44	0	585105408	65	4463
2026-01-23 02:07:31.14	353.78	39.72	-47.4	-49.2	18.3	0.00e+00	0	44	0	587202560	65	4678
2026-01-23 02:07:32.15	353.42	39.89	-47.8	-49.8	17.8	0.00e+00	0	44	0	588251136	66	4757
2026-01-23 02:07:33.15	353.06	40.06	-47.8	-49.8	17.7	0.00e+00	0	44	0	590348288	66	4738
2026-01-23 02:07:34.16	352.69	40.22	-47.9	-49.9	17.6	0.00e+00	0	44	0	592445440	66	4803
2026-01-23 02:07:35.17	352.33	40.39	-47.5	-49.4	18.1	0.00e+00	0	44	0	594542592	66	4502
2026-01-23 02:07:36.18	351.95	40.56	-46.7	-48.3	19.1	0.00e+00	0	44	0	596639744	65	4209
2026-01-23 02:07:37.19	351.58	40.72	-46.1	-47.5	19.8	0.00e+00	0	44	0	597688320	64	4092
2026-01-23 02:07:38.20	351.19	40.89	-46.5	-48.1	19.4	0.00e+00	0	44	0	599785472	63	4621
2026-01-23 02:07:39.21	350.81	41.05	-47.1	-48.9	18.5	0.00e+00	0	44	0	601882624	64	4781
2026-01-23 02:07:40.21	350.43	41.21	-47.8	-49.9	17.5	0.00e+00	0	44	0	603979776	66	4792
2026-01-23 02:07:41.22	350.03	41.38	-47.7	-49.7	17.7	0.00e+00	0	44	0	606076928	66	4699
2026-01-23 02:07:42.23	349.64	41.54	-46.7	-48.3	19.1	0.00e+00	0	44	0	608174080	65	4234
2026-01-23 02:07:43.24	349.24	41.70	-46.1	-47.5	19.9	0.00e+00	0	44	0	609222656	64	4074
2026-01-23 02:07:44.24	348.84	41.86	-46.1	-47.5	19.9	0.00e+00	0	44	0	611319808	64	4091
2026-01-23 02:07:45.25	348.43	42.02	-46.6	-48.1	19.3	0.00e+00	0	44	0	613416960	64	4363
2026-01-23 02:07:46.26	348.01	42.18	-46.9	-48.6	18.9	0.00e+00	0	44	0	615514112	64	4621
2026-01-23 02:07:47.27	347.60	42.33	-47.5	-49.4	18.2	0.00e+00	0	44	0	616562688	65	4777
2026-01-23 02:07:48.28	347.18	42.49	-47.6	-49.5	18.0	0.00e+00	0	44	0	618659840	65	4824
2026-01-23 02:07:49.29	346.75	42.64	-47.6	-49.5	18.1	0.00e+00	0	44	0	620756992	66	4566
2026-01-23 02:07:50.30	346.32	42.80	-47.9	-50.0	17.6	0.00e+00	0	44	0	622854144	66	4827
2026-01-23 02:07:51.31	345.89	42.95	-48.0	-50.2	17.4	0.00e+00	0	44	0	624951296	66	4946
2026-01-23 02:07:52.32	345.45	43.10	-47.8	-49.9	17.7	0.00e+00	0	44	0	627048448	66	4768
2026-01-23 02:07:53.33	345.01	43.25	-47.3	-49.2	18.3	0.00e+00	0	44	0	628097024	66	4431
2026-01-23 02:07:54.33	344.57	43.40	-46.7	-48.3	19.1	0.00e+00	0	44	0	630194176	65	4233
2026-01-23 02:07:55.34	344.12	43.55	-45.9	-47.4	20.1	0.00e+00	0	44	0	632291328	63	4247
2026-01-23 02:07:56.35	343.67	43.69	-45.3	-46.6	20.8	0.00e+00	0	44	0	634388480	62	4104
2026-01-23 02:07:57.36	343.21	43.84	-44.5	-45.7	21.7	0.00e+00	0	44	0	636485632	61	3923
2026-01-23 02:07:58.36	342.75	43.98	-44.7	-45.9	21.5	0.00e+00	0	44	0	637534208	61	4026
2026-01-23 02:07:59.37	342.28	44.12	-45.6	-47.0	20.6	0.00e+00	0	44	0	639631360	61	4560
2026-01-23 02:08:00.38	341.81	44.26	-46.5	-48.1	19.5	0.00e+00	0	44	0	641728512	63	4623
2026-01-23 02:08:01.39	341.34	44.40	-47.1	-49.0	18.6	0.00e+00	0	44	0	643825664	64	4819
2026-01-23 02:08:02.40	340.86	44.53	-46.0	-47.5	19.9	0.00e+00	0	44	0	644874240	63	4331
2026-01-23 02:08:03.41	340.38	44.67	-45.8	-47.3	20.1	0.00e+00	0	44	0	646971392	63	4219
2026-01-23 02:08:04.41	339.89	44.80	-45.3	-46.6	20.8	0.00e+00	0	44	0	649068544	62	4124
2026-01-23 02:08:05.42	339.40	44.93	-45.3	-46.6	20.7	0.00e+00	0	44	0	651165696	61	4348
2026-01-23 02:08:06.43	338.91	45.06	-45.2	-46.6	20.7	0.00e+00	0	44	0	653262848	61	4347
2026-01-23 02:08:07.44	338.41	45.18	-45.4	-46.8	20.5	0.00e+00	0	44	0	655360000	61	4473
2026-01-23 02:08:08.45	337.91	45.31	-45.6	-47.0	20.4	0.00e+00	0	44	0	656408576	62	4308
2026-01-23 02:08:09.45	337.40	45.43	-45.6	-46.9	20.5	0.00e+00	0	44	0	658505728	62	4274
2026-01-23 02:08:10.46	336.89	45.55	-45.2	-46.5	21.0	0.00e+00	0	44	0	660602880	62	4052
2026-01-23 02:08:11.46	336.38	45.67	-44.9	-46.0	21.3	0.00e+00	0	44	0	662700032	61	4092
2026-01-23 02:08:12.47	335.86	45.78	-44.9	-46.0	21.3	0.00e+00	0	44	0	664797184	61	4094
2026-01-23 02:08:13.48	335.34	45.90	-45.1	-46.4	21.0	0.00e+00	0	44	0	665845760	61	4256
2026-01-23 02:08:14.49	334.81	46.01	-46.6	-48.2	19.4	0.00e+00	0	44	0	667942912	63	4683
2026-01-23 02:08:15.50	334.28	46.12	-47.2	-49.0	18.6	0.00e+00	0	44	0	670040064	65	4575
2026-01-23 02:08:16.51	333.75	46.22	-47.7	-49.8	17.8	0.00e+00	0	44	0	672137216	66	4709
2026-01-23 02:08:17.51	333.22	46.33	-48.0	-50.2	17.4	0.00e+00	0	44	0	674234368	66	4933
2026-01-23 02:08:18.52	332.68	46.43	-48.2	-50.4	17.0	0.00e+00	0	44	0	675282944	67	4804
2026-01-23 02:08:19.53	332.13	46.53	-48.7	-51.3	16.3	0.00e+00	0	44	0	677380096	67	5337
2026-01-23 02:08:20.54	331.59	46.62	-49.7	-53.1	14.6	0.00e+00	0	44	0	679477248	70	5520
2026-01-23 02:08:21.54	331.04	46.72	-50.3	-54.4	13.1	1.06e-05	0	44	0	681574400	71	6004
2026-01-23 02:08:22.55	330.49	46.81	-49.0	-51.8	15.7	0.00e+00	0	44	0	683671552	70	4710
2026-01-23 02:08:23.56	329.93	46.90	-48.1	-50.2	17.1	0.00e+00	0	44	0	684720128	67	4690
2026-01-23 02:08:24.56	329.37	46.98	-47.4	-49.3	18.1	0.00e+00	0	44	0	686817280	66	4473
2026-01-23 02:08:25.57	328.81	47.06	-47.4	-49.5	18.0	0.00e+00	0	44	0	688914432	66	4554
2026-01-23 02:08:26.58	328.24	47.14	-47.8	-50.0	17.5	0.00e+00	0	44	0	691011584	66	4845
2026-01-23 02:08:27.59	327.67	47.22	-48.5	-51.0	16.6	0.00e+00	0	44	0	693108736	67	5145
2026-01-23 02:08:28.60	327.10	47.29	-47.8	-49.7	17.8	0.00e+00	0	44	0	694157312	67	4431
2026-01-23 02:08:29.61	326.53	47.36	-46.5	-48.1	19.4	0.00e+00	0	44	0	696254464	65	4102
2026-01-23 02:08:30.62	325.95	47.43	-46.7	-48.3	19.2	0.00e+00	0	44	0	698351616	64	4486
2026-01-23 02:08:31.63	325.37	47.50	-47.4	-49.3	18.4	0.00e+00	0	44	0	700448768	65	4738
2026-01-23 02:08:32.63	324.79	47.56	-47.8	-49.9	17.8	0.00e+00	0	44	0	702545920	66	4762
2026-01-23 02:08:33.64	324.21	47.61	-47.5	-49.4	18.1	0.00e+00	0	44	0	703594496	66	4536
2026-01-23 02:08:34.65	323.62	47.67	-47.1	-49.0	18.6	0.00e+00	0	44	0	705691648	66	4296
2026-01-23 02:08:35.66	323.03	47.72	-46.8	-48.5	19.0	0.00e+00	0	44	0	707788800	65	4322
2026-01-23 02:08:36.66	322.45	47.77	-46.2	-47.7	19.6	0.00e+00	0	44	0	709885952	64	4181
2026-01-23 02:08:37.67	321.85	47.81	-45.9	-47.4	20.1	0.00e+00	0	44	0	711983104	63	4248
2026-01-23 02:08:38.68	321.26	47.86	-46.7	-48.4	19.0	0.00e+00	0	44	0	713031680	64	4522
2026-01-23 02:08:39.69	320.66	47.90	-47.8	-50.1	17.6	0.00e+00	0	44	0	715128832	66	4903
2026-01-23 02:08:40.70	320.07	47.93	-47.7	-49.8	17.7	0.00e+00	0	44	0	717225984	66	4734
2026-01-23 02:08:41.71	319.47	47.96	-46.5	-48.2	19.2	0.00e+00	0	44	0	719323136	64	4434
2026-01-23 02:08:42.71	318.87	47.99	-46.1	-47.7	19.6	0.00e+00	0	44	0	721420288	63	4395
2026-01-23 02:08:43.72	318.27	48.02	-45.8	-47.3	20.0	0.00e+00	0	44	0	723517440	63	4239
2026-01-23 02:08:44.73	317.67	48.04	-45.5	-47.0	20.2	0.00e+00	0	44	0	724566016	63	4090
2026-01-23 02:08:45.73	317.07	48.06	-44.8	-46.1	21.1	0.00e+00	0	44	0	726663168	61	4131
2026-01-23 02:08:46.74	316.47	48.07	-45.3	-46.6	20.7	0.00e+00	0	44	0	728760320	61	4379
2026-01-23 02:08:47.75	315.87	48.08	-46.1	-47.7	20.0	0.00e+00	0	44	0	730857472	62	4662
2026-01-23 02:08:48.76	315.26	48.09	-46.6	-48.4	19.0	0.00e+00	0	44	0	731906048	63	4779
2026-01-23 02:08:49.77	314.66	48.10	-46.3	-48.0	19.4	0.00e+00	0	44	0	734003200	64	4340
2026-01-23 02:08:50.78	314.06	48.10	-46.6	-48.4	18.9	0.00e+00	0	44	0	736100352	64	4537
2026-01-23 02:08:51.78	313.46	48.09	-47.5	-49.8	17.6	0.00e+00	0	44	0	738197504	65	5012
2026-01-23 02:08:52.79	312.85	48.09	-47.7	-50.1	17.2	0.00e+00	0	44	0	740294656	66	4882
2026-01-23 02:08:53.80	312.25	48.08	-46.8	-48.7	18.5	0.00e+00	0	44	0	741343232	65	4436
2026-01-23 02:08:54.81	311.65	48.07	-46.7	-48.6	18.6	0.00e+00	0	44	0	743440384	65	4373
2026-01-23 02:08:55.81	311.05	48.05	-46.4	-48.3	19.0	0.00e+00	0	44	0	745537536	64	4478
2026-01-23 02:08:56.82	310.45	48.03	-46.5	-48.4	18.9	0.00e+00	0	44	0	747634688	64	4505
2026-01-23 02:08:57.83	309.84	48.01	-46.4	-48.1	19.2	0.00e+00	0	44	0	749731840	64	4387
2026-01-23 02:08:58.84	309.24	47.98	-46.4	-48.1	19.3	0.00e+00	0	44	0	751828992	63	4624
2026-01-23 02:08:59.84	308.65	47.95	-46.0	-47.5	19.7	0.00e+00	0	44	0	752877568	63	4340
2026-01-23 02:09:00.85	308.05	47.92	-45.7	-47.1	20.0	0.00e+00	0	44	0	754974720	63	4128
2026-01-23 02:09:01.86	307.46	47.88	-45.0	-46.3	20.9	0.00e+00	0	44	0	757071872	62	3978
2026-01-23 02:09:02.87	306.86	47.84	-44.7	-45.9	21.1	0.00e+00	0	44	0	759169024	61	4047
2026-01-23 02:09:03.88	306.27	47.80	-44.9	-46.2	20.9	0.00e+00	0	44	0	760217600	60	4413
2026-01-23 02:09:04.88	305.68	47.75	-45.1	-46.5	20.6	0.00e+00	0	44	0	762314752	60	4574
2026-01-23 02:09:05.89	305.09	47.70	-46.1	-47.7	19.6	0.00e+00	0	44	0	764411904	62	4698
2026-01-23 02:09:06.90	304.50	47.65	-46.8	-48.6	18.6	0.00e+00	0	44	0	766509056	64	4636
2026-01-23 02:09:07.91	303.91	47.59	-46.5	-48.3	19.0	0.00e+00	0	44	0	768606208	64	4464
2026-01-23 02:09:08.92	303.33	47.53	-46.8	-48.7	18.9	0.00e+00	0	44	0	770703360	64	4669
2026-01-23 02:09:09.92	302.75	47.47	-46.9	-48.8	18.6	0.00e+00	0	44	0	771751936	64	4737
2026-01-23 02:09:10.93	302.17	47.41	-46.9	-48.8	18.7	0.00e+00	0	44	0	773849088	64	4713
2026-01-23 02:09:11.94	301.60	47.34	-46.5	-48.2	19.1	0.00e+00	0	44	0	775946240	64	4431
2026-01-23 02:09:12.95	301.02	47.27	-46.6	-48.4	19.0	0.00e+00	0	44	0	778043392	64	4498
2026-01-23 02:09:13.96	300.45	47.19	-47.1	-49.1	18.4	0.00e+00	0	44	0	780140544	64	4883
2026-01-23 02:09:14.97	299.88	47.11	-47.3	-49.3	18.1	0.00e+00	0	44	0	781189120	65	4738
2026-01-23 02:09:15.98	299.32	47.03	-47.2	-49.1	18.3	0.00e+00	0	44	0	783286272	66	4357
2026-01-23 02:09:16.98	298.76	46.95	-46.4	-48.1	19.3	0.00e+00	0	44	0	785383424	64	4348
2026-01-23 02:09:17.99	298.20	46.86	-45.7	-47.1	20.2	0.00e+00	0	44	0	787480576	63	4130
2026-01-23 02:09:19.00	297.64	46.77	-45.9	-47.3	20.1	0.00e+00	0	44	0	788529152	63	4242
2026-01-23 02:09:20.01	297.09	46.68	-46.1	-47.6	19.8	0.00e+00	0	44	0	790626304	63	4379
2026-01-23 02:09:21.02	296.54	46.59	-46.7	-48.4	19.0	0.00e+00	0	44	0	792723456	64	4517
2026-01-23 02:09:22.02	296.00	46.49	-46.2	-47.7	19.6	0.00e+00	0	44	0	794820608	64	4166
2026-01-23 02:09:23.03	295.45	46.39	-46.1	-47.7	19.7	0.00e+00	0	44	0	796917760	63	4411
2026-01-23 02:09:24.04	294.91	46.29	-46.7	-48.5	19.0	0.00e+00	0	44	0	799014912	64	4553
2026-01-23 02:09:25.05	294.38	46.18	-47.8	-50.1	17.5	0.00e+00	0	44	0	800063488	66	4881
2026-01-23 02:09:26.05	293.85	46.08	-47.7	-49.9	17.7	0.00e+00	0	44	0	802160640	66	4803
2026-01-23 02:09:27.06	293.32	45.97	-47.2	-49.1	18.3	0.00e+00	0	44	0	804257792	66	4376
2026-01-23 02:09:28.07	292.79	45.86	-46.6	-48.3	19.0	0.00e+00	0	44	0	806354944	64	4468
2026-01-23 02:09:29.08	292.27	45.74	-46.8	-48.5	18.8	0.00e+00	0	44	0	808452096	64	4580
2026-01-23 02:09:30.08	291.76	45.62	-46.1	-47.6	19.7	0.00e+00	0	44	0	809500672	64	4134
2026-01-23 02:09:31.09	291.25	45.51	-45.8	-47.3	20.0	0.00e+00	0	44	0	811597824	63	4213
2026-01-23 02:09:32.10	290.74	45.38	-45.6	-47.0	20.3	0.00e+00	0	44	0	813694976	62	4312
2026-01-23 02:09:33.11	290.23	45.26	-46.0	-47.5	19.9	0.00e+00	0	44	0	815792128	62	4575
2026-01-23 02:09:34.12	289.73	45.13	-46.2	-47.8	19.7	0.00e+00	0	44	0	817889280	63	4487
2026-01-23 02:09:35.12	289.23	45.01	-46.6	-48.2	19.3	0.00e+00	0	44	0	818937856	63	4681
2026-01-23 02:09:36.13	288.74	44.88	-46.4	-48.0	19.3	0.00e+00	0	44	0	821035008	64	4325
2026-01-23 02:09:37.14	288.25	44.75	-46.1	-47.7	19.7	0.00e+00	0	44	0	823132160	64	4155
2026-01-23 02:09:38.15	287.76	44.61	-46.0	-47.4	20.2	0.00e+00	0	44	0	825229312	63	4268
2026-01-23 02:09:39.16	287.28	44.48	-46.0	-47.5	20.1	0.00e+00	0	44	0	827326464	63	4303
2026-01-23 02:09:40.17	286.80	44.34	-46.6	-48.3	19.3	0.00e+00	0	44	0	828375040	63	4730
2026-01-23 02:09:41.17	286.33	44.20	-46.3	-48.0	19.6	0.00e+00	0	44	0	830472192	63	4569
2026-01-23 02:09:42.18	285.86	44.06	-45.3	-46.6	20.8	0.00e+00	0	44	0	832569344	62	4128
2026-01-23 02:09:43.19	285.40	43.92	-45.0	-46.4	21.0	0.00e+00	0	44	0	834666496	61	4253
2026-01-23 02:09:44.19	284.94	43.78	-45.1	-46.4	21.0	0.00e+00	0	44	0	836763648	61	4251
2026-01-23 02:09:45.20	284.49	43.63	-45.4	-46.8	20.6	0.00e+00	0	44	0	837812224	61	4453
2026-01-23 02:09:46.21	284.03	43.49	-44.4	-45.6	21.7	0.00e+00	0	44	0	839909376	60	4109
2026-01-23 02:09:47.22	283.58	43.34	-44.2	-45.3	22.2	0.00e+00	0	44	0	842006528	59	4217
2026-01-23 02:09:48.23	283.14	43.19	-44.2	-45.3	22.2	0.00e+00	0	44	0	844103680	59	4239
2026-01-23 02:09:49.23	282.70	43.04	-44.7	-45.9	21.7	0.00e+00	0	44	0	846200832	59	4525
2026-01-23 02:09:50.24	282.27	42.89	-44.2	-45.4	22.0	0.00e+00	0	44	0	847249408	60	4017
2026-01-23 02:09:51.25	281.83	42.74	-44.1	-45.2	22.0	0.00e+00	0	44	0	849346560	60	3951
2026-01-23 02:09:52.26	281.41	42.58	-44.0	-45.0	22.5	0.00e+00	0	44	0	851443712	59	4078
2026-01-23 02:09:53.27	280.98	42.43	-44.6	-45.8	21.8	0.00e+00	0	44	0	853540864	59	4454
2026-01-23 02:09:54.28	280.56	42.27	-44.4	-45.5	21.9	0.00e+00	0	44	0	855638016	59	4324
2026-01-23 02:09:55.29	280.15	42.11	-44.6	-45.8	21.6	0.00e+00	0	44	0	856686592	60	4197
2026-01-23 02:09:56.29	279.74	41.95	-44.9	-46.1	21.4	0.00e+00	0	44	0	858783744	60	4343
2026-01-23 02:09:57.30	279.33	41.79	-45.3	-46.6	20.9	0.00e+00	0	44	0	860880896	61	4365
2026-01-23 02:09:58.31	278.93	41.63	-45.5	-46.8	20.7	0.00e+00	0	44	0	862978048	61	4448
2026-01-23 02:09:59.32	278.53	41.47	-45.9	-47.3	20.2	0.00e+00	0	44	0	865075200	62	4490
2026-01-23 02:10:00.33	278.13	41.31	-46.1	-47.5	20.1	0.00e+00	0	44	0	866123776	62	4584
2026-01-23 02:10:01.33	277.74	41.15	-45.8	-47.1	20.4	0.00e+00	0	44	0	868220928	63	4143
2026-01-23 02:10:02.34	277.36	40.98	-45.1	-46.4	21.1	0.00e+00	0	44	0	870318080	62	4016
2026-01-23 02:10:03.35	276.97	40.82	-44.4	-45.5	21.8	0.00e+00	0	44	0	872415232	60	4073
2026-01-23 02:10:04.36	276.59	40.65	-44.8	-45.9	21.5	0.00e+00	0	44	0	874512384	60	4281
2026-01-23 02:10:05.36	276.22	40.49	-45.2	-46.5	21.0	0.00e+00	0	44	0	875560960	61	4316
2026-01-23 02:10:06.37	275.85	40.32	-45.3	-46.6	20.9	0.00e+00	0	44	0	877658112	61	4390
2026-01-23 02:10:07.38	275.48	40.15	-45.6	-47.0	20.5	0.00e+00	0	44	0	879755264	61	4549
2026-01-23 02:10:08.39	275.12	39.99	-45.9	-47.4	20.2	0.00e+00	0	44	0	881852416	62	4520
2026-01-23 02:10:09.40	274.75	39.82	-46.4	-47.9	19.8	0.00e+00	0	44	0	883949568	63	4539
2026-01-23 02:10:10.41	274.40	39.65	-46.0	-47.4	20.3	0.00e+00	0	44	0	886046720	63	4279
2026-01-23 02:10:11.41	274.05	39.48	-45.4	-46.6	20.9	0.00e+00	0	44	0	887095296	62	4145
2026-01-23 02:10:12.42	273.70	39.31	-45.8	-47.1	20.5	0.00e+00	0	44	0	889192448	62	4361
2026-01-23 02:10:13.42	273.36	39.14	-46.7	-48.3	19.3	0.00e+00	0	44	0	891289600	64	4474
2026-01-23 02:10:14.43	273.01	38.97	-47.5	-49.3	18.3	0.00e+00	0	44	0	893386752	65	4721
2026-01-23 02:10:15.45	272.67	38.80	-47.7	-49.6	18.1	0.00e+00	0	44	0	894435328	65	4920
2026-01-23 02:10:16.45	272.34	38.63	-47.2	-48.9	18.7	0.00e+00	0	44	0	896532480	66	4281
2026-01-23 02:10:17.46	272.01	38.46	-47.0	-48.7	19.0	0.00e+00	0	44	0	898629632	65	4410
2026-01-23 02:10:18.47	271.68	38.29	-47.1	-48.8	18.9	0.00e+00	0	44	0	900726784	65	4482
2026-01-23 02:10:19.48	271.36	38.12	-46.9	-48.5	19.1	0.00e+00	0	44	0	902823936	65	4327
2026-01-23 02:10:20.48	271.04	37.95	-46.6	-48.1	19.5	0.00e+00	0	44	0	903872512	65	4121
2026-01-23 02:10:21.49	270.72	37.78	-46.9	-48.5	19.1	0.00e+00	0	44	0	905969664	64	4597
2026-01-23 02:10:22.50	270.40	37.60	-47.0	-48.6	19.0	0.00e+00	0	44	0	908066816	64	4625
2026-01-23 02:10:23.51	270.09	37.43	-47.5	-49.3	18.3	0.00e+00	0	44	0	910163968	65	4708
2026-01-23 02:10:24.51	269.79	37.26	-47.4	-49.1	18.5	0.00e+00	0	44	0	912261120	65	4614
2026-01-23 02:10:25.52	269.48	37.09	-47.5	-49.2	18.4	0.00e+00	0	44	0	914358272	65	4676
2026-01-23 02:10:26.53	269.18	36.92	-47.5	-49.2	18.3	0.00e+00	0	44	0	915406848	65	4700
2026-01-23 02:10:27.54	268.88	36.74	-48.1	-50.1	17.5	0.00e+00	0	44	0	917504000	66	4917
2026-01-23 02:10:28.54	268.59	36.57	-48.5	-50.7	17.1	0.00e+00	0	44	0	919601152	67	4940
2026-01-23 02:10:29.55	268.30	36.40	-48.6	-51.0	16.8	0.00e+00	0	44	0	921698304	68	4822
2026-01-23 02:10:30.56	268.01	36.23	-48.7	-51.1	16.7	0.00e+00	0	44	0	922746880	68	4884
2026-01-23 02:10:31.57	267.73	36.06	-49.3	-52.0	15.5	0.00e+00	0	44	0	924844032	69	5142
2026-01-23 02:10:32.58	267.44	35.89	-49.8	-52.8	14.9	0.00e+00	0	44	0	926941184	70	5335
2026-01-23 02:10:33.59	267.16	35.71	-50.2	-53.4	14.4	0.00e+00	0	44	0	929038336	71	5373
2026-01-23 02:10:34.59	266.89	35.54	-49.6	-52.3	15.4	0.00e+00	0	44	0	931135488	71	4730
2026-01-23 02:10:35.60	266.61	35.37	-48.6	-50.8	17.1	0.00e+00	0	44	0	932184064	69	4443
2026-01-23 02:10:36.61	266.34	35.20	-48.5	-50.5	17.3	0.00e+00	0	44	0	934281216	68	4597
2026-01-23 02:10:37.62	266.08	35.03	-49.1	-51.5	16.4	0.00e+00	0	44	0	936378368	68	5119
2026-01-23 02:10:38.63	265.81	34.86	-50.3	-53.7	14.3	0.00e+00	0	44	0	938475520	71	5538
2026-01-23 02:10:39.63	265.55	34.69	-50.6	-54.1	13.6	1.60e-05	0	44	0	940572672	72	5523
2026-01-23 02:10:40.64	265.29	34.52	-50.4	-53.7	14.0	1.60e-05	0	44	0	942669824	72	5260
2026-01-23 02:10:41.65	265.03	34.35	-49.5	-52.1	15.7	0.00e+00	0	44	0	943718400	71	4601
2026-01-23 02:10:42.65	264.78	34.18	-49.0	-51.2	16.5	0.00e+00	0	44	0	945815552	70	4437
2026-01-23 02:10:43.66	264.53	34.01	-48.8	-51.0	16.8	0.00e+00	0	44	0	947912704	69	4571
2026-01-23 02:10:44.67	264.28	33.84	-48.7	-50.8	17.1	0.00e+00	0	44	0	950009856	69	4482
2026-01-23 02:10:45.68	264.03	33.67	-48.3	-50.2	17.6	0.00e+00	0	44	0	951058432	68	4440
2026-01-23 02:10:46.68	263.79	33.50	-48.5	-50.6	17.2	0.00e+00	0	44	0	953155584	68	4646
2026-01-23 02:10:47.69	263.55	33.34	-48.3	-50.3	17.5	0.00e+00	0	44	0	955252736	68	4470
2026-01-23 02:10:48.70	263.31	33.17	-48.2	-50.1	17.6	0.00e+00	0	44	0	957349888	68	4372
2026-01-23 02:10:49.71	263.07	33.00	-48.1	-50.0	17.7	0.00e+00	0	44	0	959447040	68	4330
2026-01-23 02:10:50.72	262.84	32.83	-47.7	-49.5	18.1	0.00e+00	0	44	0	961544192	67	4303
2026-01-23 02:10:51.72	262.61	32.67	-46.6	-48.1	19.4	0.00e+00	0	44	0	962592768	65	4123
2026-01-23 02:10:52.73	262.38	32.50	-46.7	-48.2	19.3	0.00e+00	0	44	0	964689920	64	4407
2026-01-23 02:10:53.74	262.16	32.34	-47.0	-48.6	18.9	0.00e+00	0	44	0	966787072	64	4632
2026-01-23 02:10:54.75	261.93	32.17	-47.8	-49.7	17.9	0.00e+00	0	44	0	968884224	66	4670
2026-01-23 02:10:55.76	261.71	32.00	-48.0	-50.0	17.6	0.00e+00	0	44	0	970981376	67	4598
2026-01-23 02:10:56.77	261.49	31.84	-48.9	-51.2	16.6	0.00e+00	0	44	0	972029952	68	4952
2026-01-23 02:10:57.77	261.27	31.68	-49.0	-51.4	16.3	0.00e+00	0	44	0	974127104	69	4779
2026-01-23 02:10:58.78	261.06	31.51	-48.9	-51.2	16.5	0.00e+00	0	44	0	976224256	69	4687
2026-01-23 02:10:59.79	260.84	31.35	-48.4	-50.6	17.1	0.00e+00	0	44	0	978321408	68	4603
2026-01-23 02:11:00.79	260.63	31.19	-48.1	-50.1	17.5	0.00e+00	0	44	0	979369984	67	4603
2026-01-23 02:11:01.80	260.43	31.02	-48.0	-50.0	17.5	0.00e+00	0	44	0	981467136	67	4589
2026-01-23 02:11:02.81	260.22	30.86	-48.5	-50.7	17.0	0.00e+00	0	44	0	983564288	67	4958
2026-01-23 02:11:03.82	260.01	30.70	-48.1	-50.0	17.6	0.00e+00	0	44	0	985661440	67	4590
2026-01-23 02:11:04.83	259.81	30.54	-47.7	-49.6	18.0	0.00e+00	0	44	0	987758592	67	4350
2026-01-23 02:11:05.83	259.61	30.38	-47.1	-48.7	18.8	0.00e+00	0	44	0	989855744	66	4151
2026-01-23 02:11:06.84	259.41	30.22	-46.6	-48.1	19.4	0.00e+00	0	44	0	990904320	65	4131
2026-01-23 02:11:07.85	259.22	30.06	-46.7	-48.2	19.3	0.00e+00	0	44	0	993001472	65	4170
2026-01-23 02:11:08.86	259.02	29.90	-47.0	-48.6	18.9	0.00e+00	0	44	0	995098624	65	4375
2026-01-23 02:11:09.87	258.83	29.74	-47.7	-49.6	18.0	0.00e+00	0	44	0	997195776	65	4896
2026-01-23 02:11:10.87	258.64	29.59	-48.0	-50.0	17.7	0.00e+00	0	44	0	999292928	66	4818
2026-01-23 02:11:11.88	258.45	29.43	-48.4	-50.6	17.1	0.00e+00	0	44	0	1000341504	67	4875
2026-01-23 02:11:12.89	258.26	29.27	-47.9	-49.8	17.7	0.00e+00	0	44	0	1002438656	67	4458
2026-01-23 02:11:13.89	258.08	29.12	-47.6	-49.4	18.1	0.00e+00	0	44	0	1004535808	67	4259
2026-01-23 02:11:14.90	257.90	28.96	-46.3	-47.8	19.6	0.00e+00	0	44	0	1006632960	64	4211
2026-01-23 02:11:15.91	257.71	28.80	-46.0	-47.3	20.1	0.00e+00	0	44	0	1008730112	63	4227
2026-01-23 02:11:16.92	257.53	28.65	-45.7	-46.9	20.5	0.00e+00	0	44	0	1009778688	63	4038
2026-01-23 02:11:17.93	257.36	28.49	-45.7	-47.0	20.5	0.00e+00	0	44	0	1011875840	63	4076
2026-01-23 02:11:18.93	257.18	28.34	-45.9	-47.2	20.3	0.00e+00	0	44	0	1013972992	63	4180
2026-01-23 02:11:19.94	257.01	28.19	-46.2	-47.6	19.8	0.00e+00	0	44	0	1016070144	63	4379
2026-01-23 02:11:20.95	256.83	28.04	-46.6	-48.1	19.4	0.00e+00	0	44	0	1018167296	63	4645
2026-01-23 02:11:21.96	256.66	27.88	-47.2	-48.9	18.6	0.00e+00	0	44	0	1019215872	64	4767
2026-01-23 02:11:22.97	256.49	27.73	-48.3	-50.4	17.2	0.00e+00	0	44	0	1021313024	67	4781
2026-01-23 02:11:23.98	256.32	27.58	-48.4	-50.5	17.0	0.00e+00	0	44	0	1023410176	67	4860
2026-01-23 02:11:24.99	256.16	27.43	-48.2	-50.3	17.2	0.00e+00	0	44	0	1025507328	67	4752
2026-01-23 02:11:26.00	255.99	27.28	-47.7	-49.6	17.9	0.00e+00	0	44	0	1027604480	67	4386
2026-01-23 02:11:27.00	255.83	27.13	-47.2	-48.9	18.5	0.00e+00	0	44	0	1028653056	66	4261
2026-01-23 02:11:28.01	255.67	26.98	-46.3	-47.8	19.6	0.00e+00	0	44	0	1030750208	64	4216
2026-01-23 02:11:29.02	255.51	26.83	-46.0	-47.4	19.9	0.00e+00	0	44	0	1032847360	64	4030
2026-01-23 02:11:30.03	255.35	26.69	-46.1	-47.5	19.9	0.00e+00	0	44	0	1034944512	63	4332
2026-01-23 02:11:31.04	255.19	26.54	-46.2	-47.6	19.8	0.00e+00	0	44	0	1037041664	63	4382
2026-01-23 02:11:32.04	255.04	26.39	-46.0	-47.4	20.1	0.00e+00	0	44	0	1038090240	63	4256
2026-01-23 02:11:33.05	254.88	26.25	-46.4	-47.9	19.5	0.00e+00	0	44	0	1040187392	63	4526
2026-01-23 02:11:34.06	254.73	26.10	-46.3	-47.8	19.6	0.00e+00	0	44	0	1042284544	63	4467
2026-01-23 02:11:35.07	254.58	25.96	-46.5	-48.0	19.4	0.00e+00	0	44	0	1044381696	63	4598
2026-01-23 02:11:36.08	254.43	25.81	-46.7	-48.2	19.2	0.00e+00	0	44	0	1046478848	63	4702
2026-01-23 02:11:37.08	254.28	25.67	-46.6	-48.2	19.1	0.00e+00	0	44	0	1047527424	64	4429
2026-01-23 02:11:38.09	254.13	25.53	-46.6	-48.2	19.2	0.00e+00	0	44	0	1049624576	64	4405
2026-01-23 02:11:39.10	253.99	25.38	-46.3	-47.8	19.5	0.00e+00	0	44	0	1051721728	64	4201
2026-01-23 02:11:40.11	253.84	25.24	-46.4	-48.0	19.3	0.00e+00	0	44	0	1053818880	64	4306
2026-01-23 02:11:41.12	253.70	25.10	-46.6	-48.1	19.2	0.00e+00	0	44	0	1055916032	64	4384
2026-01-23 02:11:42.13	253.56	24.96	-46.9	-48.6	18.7	0.00e+00	0	44	0	1058013184	64	4640
2026-01-23 02:11:43.14	253.41	24.82	-47.2	-48.9	18.4	0.00e+00	0	44	0	1059061760	65	4522
2026-01-23 02:11:44.15	253.28	24.68	-47.6	-49.5	17.8	0.00e+00	0	44	0	1061158912	65	4866
2026-01-23 02:11:45.15	253.14	24.54	-47.8	-49.7	17.7	0.00e+00	0	44	0	1063256064	66	4691
2026-01-23 02:11:46.16	253.00	24.40	-47.9	-49.9	17.5	0.00e+00	0	44	0	1065353216	66	4762
2026-01-23 02:11:47.17	252.87	24.26	-47.8	-49.7	17.6	0.00e+00	0	44	0	1066401792	66	4696
2026-01-23 02:11:48.18	252.73	24.12	-47.4	-49.2	18.2	0.00e+00	0	44	0	1068498944	66	4436
2026-01-23 02:11:49.19	252.60	23.99	-47.2	-48.9	18.4	0.00e+00	0	44	0	1070596096	66	4263
2026-01-23 02:11:50.20	252.46	23.85	-46.9	-48.5	18.8	0.00e+00	0	44	0	1072693248	65	4309
2026-01-23 02:11:51.21	252.33	23.71	-46.7	-48.2	19.1	0.00e+00	0	44	0	1074790400	65	4172
2026-01-23 02:11:52.22	252.20	23.58	-46.7	-48.2	19.1	0.00e+00	0	44	0	1076887552	65	4177
2026-01-23 02:11:53.23	252.07	23.44	-46.6	-48.2	19.2	0.00e+00	0	44	0	1077936128	64	4410
2026-01-23 02:11:54.23	251.95	23.31	-46.6	-48.1	19.2	0.00e+00	0	44	0	1080033280	64	4386
2026-01-23 02:11:55.24	251.82	23.18	-46.5	-48.0	19.3	0.00e+00	0	44	0	1082130432	64	4322
2026-01-23 02:11:56.25	251.70	23.04	-46.5	-48.1	19.2	0.00e+00	0	44	0	1084227584	64	4366
2026-01-23 02:11:57.26	251.57	22.91	-46.5	-48.0	19.3	0.00e+00	0	44	0	1086324736	64	4326
2026-01-23 02:11:58.26	251.45	22.78	-46.7	-48.3	19.0	0.00e+00	0	44	0	1087373312	64	4450
2026-01-23 02:11:59.27	251.33	22.65	-46.6	-48.2	19.1	0.00e+00	0	44	0	1089470464	64	4427
2026-01-23 02:12:00.28	251.21	22.51	-46.7	-48.3	19.0	0.00e+00	0	44	0	1091567616	64	4479
2026-01-23 02:12:01.29	251.09	22.38	-46.7	-48.4	19.0	0.00e+00	0	44	0	1093664768	64	4513
2026-01-23 02:12:02.30	250.97	22.25	-46.8	-48.4	18.9	0.00e+00	0	44	0	1094713344	64	4527
2026-01-23 02:12:03.30	250.85	22.12	-46.8	-48.5	18.9	0.00e+00	0	44	0	1096810496	64	4546
2026-01-23 02:12:04.31	250.73	22.00	-46.8	-48.5	18.8	0.00e+00	0	44	0	1098907648	64	4549
2026-01-23 02:12:05.32	250.62	21.87	-46.5	-48.1	19.1	0.00e+00	0	44	0	1101004800	64	4382
2026-01-23 02:12:06.33	250.50	21.74	-46.5	-48.0	19.2	0.00e+00	0	44	0	1103101952	64	4340
2026-01-23 02:12:07.34	250.39	21.61	-46.2	-47.7	19.5	0.00e+00	0	44	0	1105199104	64	4152
2026-01-23 02:12:08.35	250.27	21.48	-45.9	-47.4	19.9	0.00e+00	0	44	0	1106247680	63	4263
2026-01-23 02:12:09.35	250.16	21.36	-45.9	-47.4	19.9	0.00e+00	0	44	0	1108344832	63	4255
2026-01-23 02:12:10.36	250.05	21.23	-45.9	-47.3	19.9	0.00e+00	0	44	0	1110441984	63	4236
2026-01-23 02:12:11.37	249.94	21.11	-46.2	-47.7	19.5	0.00e+00	0	44	0	1112539136	63	4418
2026-01-23 02:12:12.38	249.83	20.98	-46.7	-48.3	19.0	0.00e+00	0	44	0	1114636288	63	4726
2026-01-23 02:12:13.39	249.72	20.86	-47.1	-48.9	18.4	0.00e+00	0	44	0	1115684864	64	4765
2026-01-23 02:12:14.40	249.62	20.73	-47.5	-49.4	17.9	0.00e+00	0	44	0	1117782016	65	4789
2026-01-23 02:12:15.41	249.51	20.61	-48.2	-50.3	17.1	0.00e+00	0	44	0	1119879168	66	5036
2026-01-23 02:12:16.41	249.40	20.49	-48.5	-50.9	16.6	0.00e+00	0	44	0	1121976320	67	5047
2026-01-23 02:12:17.42	249.30	20.36	-48.5	-50.8	16.5	0.00e+00	0	44	0	1124073472	67	5007
2026-01-23 02:12:18.43	249.19	20.24	-48.4	-50.7	16.6	0.00e+00	0	44	0	1125122048	67	4953
2026-01-23 02:12:19.44	249.09	20.12	-48.1	-50.2	17.1	0.00e+00	0	44	0	1127219200	67	4685
2026-01-23 02:12:20.45	248.99	20.00	-48.0	-50.2	17.2	0.00e+00	0	44	0	1129316352	67	4658
2026-01-23 02:12:21.46	248.89	19.88	-47.8	-49.9	17.5	0.00e+00	0	44	0	1131413504	67	4521
2026-01-23 02:12:22.47	248.79	19.76	-47.6	-49.6	17.7	0.00e+00	0	44	0	1133510656	67	4362
2026-01-23 02:12:23.47	248.69	19.64	-47.3	-49.2	18.0	0.00e+00	0	44	0	1134559232	66	4437
2026-01-23 02:12:24.48	248.59	19.52	-47.3	-49.2	18.1	0.00e+00	0	44	0	1136656384	66	4428
2026-01-23 02:12:25.49	248.49	19.40	-47.4	-49.4	17.9	0.00e+00	0	44	0	1138753536	66	4507
2026-01-23 02:12:26.50	248.39	19.28	-47.3	-49.2	18.0	0.00e+00	0	44	0	1140850688	66	4427
2026-01-23 02:12:27.51	248.29	19.17	-47.3	-49.2	18.0	0.00e+00	0	44	0	1142947840	66	4439
2026-01-23 02:12:28.51	248.20	19.05	-47.4	-49.2	18.1	0.00e+00	0	44	0	1143996416	66	4435
2026-01-23 02:12:29.52	248.10	18.93	-47.4	-49.3	18.0	0.00e+00	0	44	0	1146093568	66	4458
2026-01-23 02:12:30.53	248.01	18.82	-47.4	-49.2	18.0	0.00e+00	0	44	0	1148190720	66	4438
2026-01-23 02:12:31.54	247.92	18.70	-47.3	-49.2	18.0	0.00e+00	0	44	0	1150287872	66	4403
2026-01-23 02:12:32.55	247.82	18.58	-47.4	-49.2	18.0	0.00e+00	0	44	0	1152385024	66	4430
2026-01-23 02:12:33.56	247.73	18.47	-47.3	-49.2	18.1	0.00e+00	0	44	0	1153433600	66	4395
2026-01-23 02:12:34.57	247.64	18.35	-47.6	-49.5	17.8	0.00e+00	0	44	0	1155530752	66	4571
2026-01-23 02:12:35.58	247.55	18.24	-47.6	-49.5	17.8	0.00e+00	0	44	0	1157627904	66	4594
2026-01-23 02:12:36.59	247.46	18.13	-47.5	-49.5	17.8	0.00e+00	0	44	0	1159725056	66	4559
2026-01-23 02:12:37.59	247.37	18.01	-47.6	-49.5	17.7	0.00e+00	0	44	0	1161822208	66	4593
2026-01-23 02:12:38.60	247.28	17.90	-47.5	-49.5	17.8	0.00e+00	0	44	0	1162870784	66	4549
2026-01-23 02:12:39.61	247.19	17.79	-47.4	-49.3	18.0	0.00e+00	0	44	0	1164967936	66	4472
2026-01-23 02:12:40.62	247.10	17.68	-47.3	-49.2	18.0	0.00e+00	0	44	0	1167065088	66	4426
2026-01-23 02:12:41.63	247.02	17.57	-47.4	-49.3	17.9	0.00e+00	0	44	0	1169162240	66	4478
2026-01-23 02:12:42.64	246.93	17.45	-47.3	-49.2	18.0	0.00e+00	0	44	0	1171259392	66	4430
2026-01-23 02:12:43.64	246.84	17.35	-47.3	-49.2	18.1	0.00e+00	0	44	0	1172307968	66	4392
2026-01-23 02:12:44.65	246.76	17.24	-47.1	-48.9	18.3	0.00e+00	0	44	0	1174405120	66	4289
2026-01-23 02:12:45.66	246.68	17.13	-47.2	-49.0	18.3	0.00e+00	0	44	0	1176502272	66	4302
2026-01-23 02:12:46.67	246.59	17.02	-47.0	-48.8	18.5	0.00e+00	0	44	0	1178599424	66	4222
2026-01-23 02:12:47.68	246.51	16.91	-47.0	-48.8	18.4	0.00e+00	0	44	0	1180696576	65	4452
2026-01-23 02:12:48.68	246.43	16.80	-47.0	-48.8	18.4	0.00e+00	0	44	0	1181745152	65	4449
2026-01-23 02:12:49.69	246.35	16.69	-46.9	-48.7	18.5	0.00e+00	0	44	0	1183842304	65	4406
2026-01-23 02:12:50.70	246.26	16.58	-47.3	-49.1	18.1	0.00e+00	0	44	0	1185939456	65	4648
2026-01-23 02:12:51.70	246.18	16.48	-47.0	-48.7	18.5	0.00e+00	0	44	0	1188036608	65	4420
2026-01-23 02:12:52.71	246.10	16.37	-47.3	-49.1	18.0	0.00e+00	0	44	0	1190133760	65	4634
2026-01-23 02:12:53.72	246.02	16.26	-47.3	-49.2	18.0	0.00e+00	0	44	0	1192230912	65	4675
2026-01-23 02:12:54.73	245.95	16.16	-47.4	-49.3	17.9	0.00e+00	0	44	0	1193279488	65	4727
2026-01-23 02:12:55.74	245.87	16.05	-47.4	-49.3	17.9	0.00e+00	0	44	0	1195376640	65	4744
2026-01-23 02:12:56.75	245.79	15.95	-47.6	-49.5	17.6	0.00e+00	0	44	0	1197473792	65	4848
2026-01-23 02:12:57.76	245.71	15.84	-47.4	-49.3	17.9	0.00e+00	0	44	0	1199570944	65	4706
2026-01-23 02:12:58.77	245.64	15.74	-47.3	-49.1	18.0	0.00e+00	0	44	0	1200619520	65	4643
2026-01-23 02:12:59.77	245.56	15.63	-47.4	-49.2	17.9	0.00e+00	0	44	0	1202716672	65	4695
2026-01-23 02:13:00.78	245.48	15.53	-47.2	-49.0	18.2	0.00e+00	0	44	0	1204813824	65	4570
2026-01-23 02:13:01.79	245.41	15.43	-46.9	-48.6	18.5	0.00e+00	0	44	0	1206910976	65	4391
2026-01-23 02:13:02.80	245.34	15.33	-46.9	-48.6	18.4	0.00e+00	0	44	0	1209008128	65	4364
2026-01-23 02:13:03.80	245.26	15.22	-46.7	-48.3	18.7	0.00e+00	0	44	0	1211105280	65	4240
2026-01-23 02:13:04.81	245.19	15.12	-46.8	-48.4	18.7	0.00e+00	0	44	0	1212153856	65	4278
2026-01-23 02:13:05.82	245.12	15.02	-46.6	-48.2	18.9	0.00e+00	0	44	0	1214251008	65	4161
2026-01-23 02:13:06.83	245.04	14.92	-46.4	-48.0	19.0	0.00e+00	0	44	0	1216348160	64	4331
2026-01-23 02:13:07.84	244.97	14.82	-46.5	-48.0	19.0	0.00e+00	0	44	0	1218445312	64	4332
2026-01-23 02:13:08.85	244.90	14.72	-46.4	-48.0	19.0	0.00e+00	0	44	0	1220542464	64	4293
2026-01-23 02:13:09.85	244.83	14.62	-46.4	-48.0	19.0	0.00e+00	0	44	0	1221591040	64	4328
2026-01-23 02:13:10.86	244.76	14.52	-46.3	-47.9	19.1	0.00e+00	0	44	0	1223688192	64	4258
2026-01-23 02:13:11.87	244.69	14.42	-46.5	-48.1	19.0	0.00e+00	0	44	0	1225785344	64	4341
2026-01-23 02:13:12.88	244.62	14.32	-46.3	-47.8	19.1	0.00e+00	0	44	0	1227882496	64	4221
2026-01-23 02:13:13.88	244.55	14.22	-46.3	-47.8	19.1	0.00e+00	0	44	0	1228931072	64	4231
2026-01-23 02:13:14.89	244.48	14.12	-46.5	-48.1	18.9	0.00e+00	0	44	0	1231028224	64	4369
2026-01-23 02:13:15.90	244.42	14.02	-46.4	-48.0	19.0	0.00e+00	0	44	0	1233125376	64	4311
2026-01-23 02:13:16.91	244.35	13.93	-46.5	-48.1	18.8	0.00e+00	0	44	0	1235222528	64	4383
2026-01-23 02:13:17.92	244.28	13.83	-46.6	-48.3	18.8	0.00e+00	0	44	0	1237319680	64	4448
2026-01-23 02:13:18.92	244.22	13.73	-46.4	-48.0	19.0	0.00e+00	0	44	0	1239416832	64	4326
2026-01-23 02:13:19.93	244.15	13.64	-46.6	-48.2	18.8	0.00e+00	0	44	0	1240465408	64	4399
2026-01-23 02:13:20.94	244.08	13.54	-46.7	-48.3	18.7	0.00e+00	0	44	0	1242562560	64	4465
2026-01-23 02:13:21.94	244.02	13.44	-46.7	-48.3	18.7	0.00e+00	0	44	0	1244659712	64	4471
2026-01-23 02:13:22.95	243.95	13.35	-46.7	-48.3	18.7	0.00e+00	0	44	0	1246756864	64	4467
2026-01-23 02:13:23.96	243.89	13.25	-46.8	-48.5	18.4	0.00e+00	0	44	0	1248854016	64	4579
2026-01-23 02:13:24.97	243.83	13.16	-46.7	-48.3	18.7	0.00e+00	0	44	0	1249902592	64	4472
