passes_logs/2026/01/23/R3.2S_Murmansk/R3.2S_Murmansk__20260123_205037_TY-42_rec.log

#Pass ID: 20260123_205037_TY-42
#Satellite: TY-42
#Configuration: TY-42_900M
#almurnet v.1.7.20251203
#Start time: 2026-01-23 20:50:39

#Version: 2.2.20231116
#Station: R3.2S_Murmansk
#Location: 33.079688 lon 68.888172 lat
#TLE: 1 64048U 25103A   26023.66790509  .00008008  00000-0  38191-3 0 09999
#TLE: 2 64048 097.4117 098.9223 0001893 091.9782 302.8981 15.19160197 38139

#Time	Az	El	Level	Level2	SNR	BER	BlckErr	Temp	State	Recorded	gain1	gain2
2026-01-23 20:50:39.21	216.39	2.12	-54.3	-56.4	6.3	0.00e+00	0	50	0	0	79	19217
2026-01-23 20:50:40.21	216.49	2.18	-54.6	-56.8	6.2	0.00e+00	0	50	104	0	80	18929
2026-01-23 20:50:41.21	216.59	2.24	-54.6	-56.8	6.2	0.00e+00	0	50	104	0	80	18821
2026-01-23 20:50:42.22	216.70	2.30	-54.6	-56.8	6.2	0.00e+00	0	50	104	0	80	18819
2026-01-23 20:50:43.23	216.80	2.36	-54.6	-56.8	6.2	0.00e+00	0	50	104	0	80	18823
2026-01-23 20:50:44.24	216.91	2.42	-54.6	-56.7	6.2	0.00e+00	0	50	104	0	80	18794
2026-01-23 20:50:45.25	217.01	2.48	-54.6	-56.7	6.2	0.00e+00	0	50	104	0	80	18720
2026-01-23 20:50:46.25	217.12	2.54	-54.5	-56.6	6.2	0.00e+00	0	50	104	0	80	18597
2026-01-23 20:50:47.26	217.23	2.60	-54.5	-56.6	6.2	0.00e+00	0	51	104	0	80	18595
2026-01-23 20:50:48.27	217.34	2.66	-54.5	-56.6	6.2	0.00e+00	0	51	104	0	80	18477
2026-01-23 20:50:49.28	217.44	2.72	-54.4	-56.5	6.2	0.00e+00	0	51	104	0	80	18385
2026-01-23 20:50:50.29	217.55	2.78	-54.4	-56.6	6.2	0.00e+00	0	51	104	0	80	18452
2026-01-23 20:50:51.29	217.66	2.84	-54.4	-56.5	6.2	0.00e+00	0	51	104	0	80	18302
2026-01-23 20:50:52.30	217.77	2.90	-54.3	-56.5	6.2	0.00e+00	0	51	104	0	80	18213
2026-01-23 20:50:53.31	217.88	2.96	-54.2	-56.4	6.2	0.00e+00	0	51	104	0	80	18040
2026-01-23 20:50:54.31	217.99	3.02	-54.2	-56.3	6.2	0.00e+00	0	51	104	0	80	17878
2026-01-23 20:50:55.32	218.10	3.08	-54.1	-56.2	6.2	0.00e+00	0	51	104	0	80	17745
2026-01-23 20:50:56.33	218.22	3.14	-54.0	-56.1	6.2	0.00e+00	0	51	104	0	80	17542
2026-01-23 20:50:57.34	218.33	3.20	-54.0	-56.1	6.2	0.00e+00	0	51	104	0	79	18490
2026-01-23 20:50:58.34	218.44	3.26	-53.7	-55.9	6.2	0.00e+00	0	51	104	0	79	18029
2026-01-23 20:50:59.36	218.56	3.32	-53.4	-55.5	6.2	0.00e+00	0	51	104	0	78	18334
2026-01-23 20:51:00.36	218.67	3.38	-53.1	-55.2	6.2	0.00e+00	0	51	104	0	78	17704
2026-01-23 20:51:01.37	218.79	3.44	-53.0	-55.1	6.2	0.00e+00	0	52	104	0	78	17483
2026-01-23 20:51:02.38	218.90	3.51	-53.0	-55.1	6.2	0.00e+00	0	52	104	0	78	17499
2026-01-23 20:51:03.39	219.02	3.57	-53.0	-55.1	6.2	0.00e+00	0	51	104	0	78	17500
2026-01-23 20:51:04.40	219.13	3.63	-52.9	-55.1	6.2	0.00e+00	0	51	104	0	77	18402
2026-01-23 20:51:05.41	219.25	3.69	-52.9	-55.1	6.2	0.00e+00	0	52	104	0	77	18425
2026-01-23 20:51:06.41	219.37	3.75	-52.9	-55.1	6.2	0.00e+00	0	52	104	0	77	18402
2026-01-23 20:51:07.42	219.49	3.81	-52.9	-55.1	6.2	0.00e+00	0	52	104	0	77	18437
2026-01-23 20:51:08.43	219.61	3.88	-52.9	-55.1	6.2	0.00e+00	0	52	104	0	77	18429
2026-01-23 20:51:09.44	219.73	3.94	-52.9	-55.0	6.2	0.00e+00	0	52	104	0	77	18388
2026-01-23 20:51:10.45	219.85	4.00	-52.9	-55.1	6.2	0.00e+00	0	52	104	0	77	18405
2026-01-23 20:51:11.45	219.97	4.06	-52.9	-55.1	6.2	0.00e+00	0	52	104	0	77	18395
2026-01-23 20:51:12.46	220.09	4.12	-52.9	-55.0	6.2	0.00e+00	0	52	104	0	77	18380
2026-01-23 20:51:13.47	220.21	4.19	-52.9	-55.0	6.2	0.00e+00	0	52	104	0	77	18350
2026-01-23 20:51:14.48	220.34	4.25	-52.9	-55.1	6.2	0.00e+00	0	52	104	0	77	18412
2026-01-23 20:51:15.49	220.46	4.31	-52.9	-55.0	6.2	0.00e+00	0	52	104	0	77	18343
2026-01-23 20:51:16.50	220.58	4.37	-52.9	-55.0	6.2	0.00e+00	0	52	104	0	77	18318
2026-01-23 20:51:17.51	220.71	4.44	-52.9	-55.0	6.2	0.00e+00	0	52	104	0	77	18351
2026-01-23 20:51:18.51	220.83	4.50	-52.9	-55.0	6.2	0.00e+00	0	52	104	0	77	18387
2026-01-23 20:51:19.52	220.96	4.56	-52.9	-55.0	6.2	0.00e+00	0	52	104	0	77	18312
2026-01-23 20:51:20.53	221.09	4.63	-52.9	-55.0	6.2	0.00e+00	0	52	104	0	77	18366
2026-01-23 20:51:21.54	221.22	4.69	-52.9	-55.0	6.2	0.00e+00	0	52	104	0	77	18347
2026-01-23 20:51:22.55	221.34	4.75	-52.9	-55.0	6.2	0.00e+00	0	52	104	0	77	18359
2026-01-23 20:51:23.55	221.47	4.82	-52.9	-55.0	6.2	0.00e+00	0	52	104	0	77	18298
2026-01-23 20:51:24.56	221.60	4.88	-52.9	-55.0	6.2	0.00e+00	0	53	104	0	77	18295
2026-01-23 20:51:25.57	221.73	4.94	-52.9	-55.0	6.2	0.00e+00	0	52	104	0	77	18359
2026-01-23 20:51:26.57	221.86	5.01	-52.9	-55.0	6.2	0.00e+00	0	53	104	0	77	18357
2026-01-23 20:51:27.58	221.99	5.07	-53.0	-55.1	6.2	0.00e+00	0	52	104	0	77	18528
2026-01-23 20:51:28.59	222.13	5.13	-53.0	-55.1	6.2	0.00e+00	0	52	104	0	77	18494
2026-01-23 20:51:29.60	222.26	5.20	-52.9	-55.0	6.2	0.00e+00	0	52	104	0	77	18359
2026-01-23 20:51:30.60	222.39	5.26	-52.8	-55.0	6.2	0.00e+00	0	53	104	0	77	18225
2026-01-23 20:51:31.61	222.53	5.33	-52.9	-55.1	6.2	0.00e+00	0	53	104	0	77	18432
2026-01-23 20:51:32.62	222.66	5.39	-41.0	-40.9	10.8	0.00e+00	0	53	104	0	53	14331
2026-01-23 20:51:33.63	222.80	5.45	-36.5	-36.3	13.9	0.00e+00	0	54	0	67108864	44	14250
2026-01-23 20:51:34.63	222.93	5.52	-42.0	-42.1	11.5	0.00e+00	185	55	0	176160768	54	15485
2026-01-23 20:51:35.64	223.07	5.58	-36.3	-36.2	14.0	1.81e-01	0	55	0	293601280	44	14111
2026-01-23 20:51:36.65	223.21	5.65	-36.7	-36.6	13.8	1.81e-01	0	55	0	402653184	45	13810
2026-01-23 20:51:37.66	223.35	5.71	-36.6	-36.5	13.9	1.81e-01	0	55	0	520093696	43	15396
2026-01-23 20:51:38.67	223.49	5.78	-36.1	-36.0	14.1	3.28e-02	0	55	0	629145600	43	14584
2026-01-23 20:51:39.67	223.63	5.84	-35.9	-35.8	14.3	3.28e-02	0	55	0	746586112	43	14163
2026-01-23 20:51:40.68	223.77	5.91	-35.8	-35.7	14.3	3.28e-02	0	55	0	855638016	42	14906
2026-01-23 20:51:41.69	223.91	5.97	-35.8	-35.7	14.3	1.81e-02	0	55	0	964689920	42	14937
2026-01-23 20:51:42.70	224.05	6.04	-35.6	-35.6	14.4	1.81e-02	0	55	0	1082130432	42	14635
2026-01-23 20:51:43.71	224.20	6.10	-35.5	-35.4	14.5	1.81e-02	0	55	0	1191182336	42	14336
2026-01-23 20:51:44.72	224.34	6.17	-35.7	-35.6	14.4	1.60e-02	0	55	0	1317011456	42	14663
2026-01-23 20:51:45.73	224.49	6.23	-35.4	-35.3	14.5	1.60e-02	0	55	0	1426063360	42	14213
2026-01-23 20:51:46.73	224.63	6.30	-35.5	-35.4	14.4	1.60e-02	0	55	0	1543503872	42	14434
2026-01-23 20:51:47.74	224.78	6.37	-35.7	-35.7	14.3	1.27e-02	0	55	0	1652555776	42	14793
2026-01-23 20:51:48.75	224.93	6.43	-35.6	-35.6	14.4	1.27e-02	0	55	0	1769996288	42	14610
2026-01-23 20:51:49.76	225.07	6.50	-35.5	-35.4	14.5	1.31e-02	0	55	0	1879048192	42	14411
2026-01-23 20:51:50.77	225.22	6.56	-35.0	-34.9	14.7	1.31e-02	0	56	0	1988100096	42	13596
2026-01-23 20:51:51.78	225.37	6.63	-35.1	-35.0	14.8	1.31e-02	0	56	0	2105540608	42	13661
2026-01-23 20:51:52.79	225.52	6.70	-35.3	-35.2	14.6	9.92e-03	0	56	0	2214592512	41	14864
2026-01-23 20:51:53.79	225.68	6.76	-35.6	-35.5	14.5	9.92e-03	0	55	0	2332033024	41	15420
2026-01-23 20:51:54.80	225.83	6.83	-35.1	-35.0	14.8	9.92e-03	0	56	0	2441084928	41	14575
2026-01-23 20:51:55.81	225.98	6.89	-35.7	-35.7	14.5	1.05e-02	0	56	0	2566914048	42	14800
2026-01-23 20:51:56.82	226.14	6.96	-35.3	-35.2	14.7	1.05e-02	0	56	0	2675965952	42	14006
2026-01-23 20:51:57.82	226.29	7.03	-34.8	-34.7	15.0	9.60e-03	0	56	0	2793406464	41	14003
2026-01-23 20:51:58.83	226.44	7.09	-34.9	-34.8	14.9	9.60e-03	0	56	0	2902458368	40	14992
2026-01-23 20:51:59.83	226.60	7.16	-35.2	-35.1	14.8	7.66e-03	0	56	0	3011510272	41	14653
2026-01-23 20:52:00.84	226.76	7.23	-35.1	-35.0	14.8	7.66e-03	0	56	0	3128950784	41	14487
2026-01-23 20:52:01.85	226.92	7.29	-34.6	-34.5	15.0	7.66e-03	0	56	0	3238002688	41	13730
2026-01-23 20:52:02.86	227.08	7.36	-34.8	-34.7	14.9	8.06e-03	0	56	0	3355443200	41	14024
2026-01-23 20:52:03.87	227.24	7.43	-35.0	-34.9	14.8	8.06e-03	0	56	0	3464495104	41	14390
2026-01-23 20:52:04.87	227.40	7.49	-34.8	-34.7	15.0	8.06e-03	0	56	0	3581935616	41	14035
2026-01-23 20:52:05.88	227.56	7.56	-34.6	-34.5	15.1	8.06e-03	0	56	0	3690987520	41	13699
2026-01-23 20:52:06.89	227.72	7.63	-34.5	-34.4	15.1	7.13e-03	0	56	0	3800039424	40	14376
2026-01-23 20:52:07.90	227.88	7.69	-34.5	-34.4	15.1	7.13e-03	0	56	0	3917479936	40	14310
2026-01-23 20:52:08.91	228.05	7.76	-34.7	-34.6	15.0	7.13e-03	0	56	0	4026531840	40	14772
2026-01-23 20:52:09.92	228.21	7.83	-35.0	-34.9	14.9	5.56e-03	0	57	0	4152360960	40	15150
2026-01-23 20:52:10.93	228.38	7.90	-34.2	-34.1	15.2	5.56e-03	0	57	0	4261412864	40	13827
2026-01-23 20:52:11.94	228.55	7.96	-34.5	-34.4	15.1	5.60e-03	0	57	0	4378853376	40	14350
2026-01-23 20:52:12.95	228.72	8.03	-34.2	-34.1	15.2	5.60e-03	0	57	0	4487905280	40	13910
2026-01-23 20:52:13.95	228.89	8.10	-34.5	-34.4	15.1	5.60e-03	0	57	0	4605345792	40	14313
2026-01-23 20:52:14.96	229.06	8.17	-35.0	-35.0	14.8	5.60e-03	0	57	0	4714397696	40	15331
2026-01-23 20:52:15.97	229.23	8.23	-34.3	-34.2	15.2	5.15e-03	0	57	0	4823449600	40	14024
2026-01-23 20:52:16.98	229.40	8.30	-34.7	-34.6	15.0	5.15e-03	0	57	0	4940890112	39	15589
2026-01-23 20:52:17.99	229.57	8.37	-34.4	-34.4	15.1	5.15e-03	0	57	0	5049942016	40	14301
2026-01-23 20:52:19.00	229.75	8.44	-34.4	-34.3	15.2	4.48e-03	0	57	0	5167382528	40	14154
2026-01-23 20:52:20.01	229.92	8.51	-34.1	-34.0	15.3	4.48e-03	0	57	0	5276434432	40	13754
2026-01-23 20:52:21.01	230.10	8.57	-34.2	-34.1	15.3	4.43e-03	0	57	0	5402263552	39	14722
2026-01-23 20:52:22.02	230.27	8.64	-34.1	-34.0	15.3	4.43e-03	0	57	0	5511315456	39	14535
2026-01-23 20:52:23.03	230.45	8.71	-34.1	-34.0	15.4	4.43e-03	0	57	0	5628755968	39	14464
2026-01-23 20:52:24.04	230.63	8.78	-34.3	-34.2	15.3	3.64e-03	0	57	0	5737807872	39	14867
2026-01-23 20:52:25.05	230.81	8.85	-34.7	-34.6	15.1	3.64e-03	0	57	0	5846859776	39	15528
2026-01-23 20:52:26.06	230.99	8.91	-34.9	-34.9	14.9	3.64e-03	0	57	0	5964300288	40	15133
2026-01-23 20:52:27.06	231.17	8.98	-35.3	-35.2	14.8	3.64e-03	0	57	0	6073352192	41	14848
2026-01-23 20:52:28.07	231.36	9.05	-34.8	-34.7	15.0	5.72e-03	0	57	0	6190792704	40	14810
2026-01-23 20:52:29.08	231.54	9.12	-34.5	-34.4	15.2	5.72e-03	0	57	0	6299844608	40	14327
2026-01-23 20:52:30.09	231.72	9.19	-34.6	-34.6	15.1	5.72e-03	0	57	0	6408896512	40	14618
2026-01-23 20:52:31.10	231.91	9.25	-34.2	-34.1	15.3	5.23e-03	0	57	0	6526337024	40	13864
2026-01-23 20:52:32.11	232.10	9.32	-34.2	-34.1	15.3	5.23e-03	0	57	0	6652166144	39	14689
2026-01-23 20:52:33.12	232.29	9.39	-34.0	-33.9	15.4	3.40e-03	0	57	0	6761218048	39	14357
2026-01-23 20:52:34.13	232.48	9.46	-34.0	-33.9	15.4	3.40e-03	0	57	0	6870269952	39	14369
2026-01-23 20:52:35.13	232.66	9.53	-33.9	-33.8	15.4	3.40e-03	0	57	0	6987710464	39	14266
2026-01-23 20:52:36.14	232.86	9.60	-33.8	-33.7	15.5	2.62e-03	0	58	0	7096762368	39	14052
2026-01-23 20:52:37.15	233.05	9.66	-34.0	-33.9	15.4	2.62e-03	0	57	0	7214202880	39	14372
2026-01-23 20:52:38.16	233.24	9.73	-33.8	-33.7	15.5	2.62e-03	0	57	0	7323254784	39	14039
2026-01-23 20:52:39.17	233.44	9.80	-33.7	-33.6	15.6	2.62e-03	0	57	0	7440695296	39	13815
2026-01-23 20:52:40.17	233.63	9.87	-33.7	-33.6	15.5	2.39e-03	0	57	0	7549747200	39	13928
2026-01-23 20:52:41.18	233.83	9.94	-33.6	-33.5	15.6	2.39e-03	0	58	0	7658799104	39	13722
2026-01-23 20:52:42.19	234.03	10.01	-33.6	-33.5	15.6	2.09e-03	0	57	0	7776239616	39	13779
2026-01-23 20:52:43.20	234.22	10.07	-33.7	-33.6	15.5	2.09e-03	0	57	0	7885291520	39	13856
2026-01-23 20:52:44.21	234.42	10.14	-33.6	-33.5	15.6	2.09e-03	0	58	0	8002732032	39	13730
2026-01-23 20:52:45.21	234.62	10.21	-33.7	-33.6	15.5	2.11e-03	0	58	0	8120172544	39	13869
2026-01-23 20:52:46.22	234.83	10.28	-33.7	-33.6	15.5	2.11e-03	0	58	0	8237613056	39	13863
2026-01-23 20:52:47.23	235.03	10.35	-33.8	-33.8	15.4	2.11e-03	0	58	0	8346664960	39	14127
2026-01-23 20:52:48.24	235.23	10.41	-33.6	-33.5	15.6	2.23e-03	0	58	0	8464105472	39	13664
2026-01-23 20:52:49.25	235.44	10.48	-33.6	-33.5	15.6	2.23e-03	0	58	0	8573157376	39	13778
2026-01-23 20:52:50.26	235.65	10.55	-33.9	-33.8	15.5	2.23e-03	0	58	0	8682209280	39	14181
2026-01-23 20:52:51.27	235.86	10.62	-33.7	-33.6	15.5	2.17e-03	0	57	0	8799649792	39	13878
2026-01-23 20:52:52.28	236.06	10.69	-33.7	-33.6	15.6	2.17e-03	0	58	0	8908701696	39	13875
2026-01-23 20:52:53.29	236.28	10.76	-33.4	-33.3	15.6	2.17e-03	0	58	0	9026142208	38	14261
2026-01-23 20:52:54.29	236.48	10.82	-33.6	-33.5	15.6	2.31e-03	0	58	0	9135194112	38	14544
2026-01-23 20:52:55.30	236.70	10.89	-33.8	-33.7	15.5	2.31e-03	0	58	0	9244246016	38	14834
2026-01-23 20:52:56.31	236.91	10.96	-33.3	-33.2	15.7	2.31e-03	0	58	0	9370075136	38	14031
2026-01-23 20:52:57.32	237.13	11.03	-33.1	-33.0	15.7	2.31e-03	0	58	0	9487515648	38	13729
2026-01-23 20:52:58.33	237.34	11.09	-33.0	-32.9	15.8	1.86e-03	0	58	0	9596567552	38	13620
2026-01-23 20:52:59.34	237.56	11.16	-33.2	-33.1	15.7	1.86e-03	0	58	0	9705619456	38	13949
2026-01-23 20:53:00.34	237.78	11.23	-33.1	-33.0	15.7	1.86e-03	0	58	0	9823059968	38	13763
2026-01-23 20:53:01.35	238.00	11.30	-33.1	-33.0	15.7	1.51e-03	0	58	0	9932111872	37	14444
2026-01-23 20:53:02.36	238.22	11.36	-33.1	-33.0	15.7	1.51e-03	0	58	0	10049552384	37	14545
2026-01-23 20:53:03.37	238.44	11.43	-32.9	-32.8	15.8	1.34e-03	0	58	0	10158604288	37	14269
2026-01-23 20:53:04.38	238.66	11.50	-33.3	-33.2	15.6	1.34e-03	0	58	0	10267656192	37	14875
2026-01-23 20:53:05.38	238.89	11.56	-33.0	-32.9	15.8	1.34e-03	0	58	0	10385096704	37	14368
2026-01-23 20:53:06.39	239.11	11.63	-32.9	-32.8	15.8	1.55e-03	0	58	0	10494148608	37	14200
2026-01-23 20:53:07.40	239.34	11.70	-33.0	-32.9	15.7	1.55e-03	0	58	0	10611589120	37	14389
2026-01-23 20:53:08.41	239.57	11.77	-33.0	-32.9	15.8	1.55e-03	0	58	0	10729029632	37	14310
2026-01-23 20:53:09.42	239.80	11.83	-33.0	-32.9	15.8	1.36e-03	0	58	0	10846470144	37	14364
2026-01-23 20:53:10.43	240.03	11.90	-32.9	-32.8	15.8	1.36e-03	0	58	0	10955522048	37	14267
2026-01-23 20:53:11.44	240.26	11.97	-32.9	-32.8	15.8	1.36e-03	0	58	0	11072962560	37	14267
2026-01-23 20:53:12.45	240.49	12.03	-32.8	-32.8	15.8	1.30e-03	0	58	0	11182014464	37	14112
2026-01-23 20:53:13.46	240.73	12.10	-32.8	-32.7	15.8	1.30e-03	0	58	0	11299454976	37	14061
2026-01-23 20:53:14.47	240.96	12.16	-32.9	-32.8	15.7	1.30e-03	0	58	0	11408506880	37	14217
2026-01-23 20:53:15.47	241.20	12.23	-32.9	-32.8	15.8	1.23e-03	0	58	0	11517558784	37	14185
2026-01-23 20:53:16.48	241.43	12.30	-32.9	-32.9	15.8	1.23e-03	0	58	0	11634999296	37	14287
2026-01-23 20:53:17.49	241.67	12.36	-32.8	-32.7	15.8	1.37e-03	0	58	0	11744051200	37	14028
2026-01-23 20:53:18.50	241.91	12.43	-32.8	-32.7	15.8	1.37e-03	0	58	0	11861491712	37	14098
2026-01-23 20:53:19.51	242.16	12.49	-32.8	-32.7	15.8	1.37e-03	0	58	0	11970543616	37	14079
2026-01-23 20:53:20.51	242.40	12.56	-32.9	-32.8	15.7	1.33e-03	0	58	0	12096372736	37	14142
2026-01-23 20:53:21.53	242.64	12.62	-32.9	-32.8	15.7	1.33e-03	0	58	0	12205424640	37	14161
2026-01-23 20:53:22.53	242.89	12.69	-32.8	-32.8	15.8	1.33e-03	0	58	0	12322865152	37	14112
2026-01-23 20:53:23.54	243.13	12.75	-32.8	-32.7	15.8	1.38e-03	0	58	0	12431917056	37	14041
2026-01-23 20:53:24.55	243.38	12.81	-32.9	-32.8	15.8	1.38e-03	0	58	0	12540968960	37	14143
2026-01-23 20:53:25.56	243.63	12.88	-32.7	-32.7	15.8	1.38e-03	0	58	0	12658409472	37	13951
2026-01-23 20:53:26.57	243.88	12.94	-33.0	-32.9	15.7	1.24e-03	0	58	0	12767461376	37	14302
2026-01-23 20:53:27.58	244.13	13.01	-33.0	-32.9	15.7	1.24e-03	0	58	0	12884901888	37	14290
2026-01-23 20:53:28.59	244.39	13.07	-32.8	-32.7	15.8	1.24e-03	0	58	0	12993953792	37	13970
2026-01-23 20:53:29.59	244.64	13.13	-32.6	-32.5	15.9	1.34e-03	0	58	0	13103005696	37	13715
2026-01-23 20:53:30.60	244.89	13.19	-32.6	-32.6	15.8	1.34e-03	0	58	0	13220446208	37	13791
2026-01-23 20:53:31.61	245.15	13.26	-32.6	-32.5	15.8	1.34e-03	0	58	0	13346275328	37	13717
2026-01-23 20:53:32.62	245.41	13.32	-32.7	-32.6	15.8	1.04e-03	0	58	0	13455327232	37	13840
2026-01-23 20:53:33.63	245.67	13.38	-32.4	-32.3	15.9	1.04e-03	0	58	0	13564379136	36	14183
2026-01-23 20:53:34.63	245.93	13.44	-32.5	-32.3	15.9	1.04e-03	0	58	0	13681819648	36	14274
2026-01-23 20:53:35.64	246.19	13.50	-32.2	-32.1	15.9	1.04e-03	0	58	0	13790871552	36	13920
2026-01-23 20:53:36.65	246.45	13.57	-32.4	-32.3	15.9	9.30e-04	0	58	0	13908312064	36	14207
2026-01-23 20:53:37.66	246.72	13.63	-32.4	-32.3	15.9	9.30e-04	0	58	0	14017363968	36	14133
2026-01-23 20:53:38.67	246.98	13.69	-32.4	-32.3	15.9	7.53e-04	0	58	0	14126415872	36	14162
2026-01-23 20:53:39.67	247.25	13.75	-32.4	-32.3	15.9	7.53e-04	0	58	0	14243856384	36	14215
2026-01-23 20:53:40.68	247.51	13.81	-32.4	-32.3	15.9	7.53e-04	0	58	0	14352908288	36	14212
2026-01-23 20:53:41.69	247.78	13.87	-32.4	-32.3	15.9	8.25e-04	0	58	0	14470348800	36	14238
2026-01-23 20:53:42.69	248.05	13.93	-32.1	-32.0	16.0	8.25e-04	0	58	0	14579400704	36	13758
2026-01-23 20:53:43.70	248.32	13.99	-32.3	-32.2	15.9	8.25e-04	0	58	0	14696841216	36	13958
2026-01-23 20:53:44.71	248.60	14.04	-32.1	-32.0	16.0	7.72e-04	0	58	0	14814281728	36	13735
2026-01-23 20:53:45.72	248.87	14.10	-32.2	-32.1	16.0	7.72e-04	0	58	0	14931722240	36	13897
2026-01-23 20:53:46.73	249.15	14.16	-32.1	-32.0	16.0	5.82e-04	0	58	0	15040774144	36	13774
2026-01-23 20:53:47.73	249.42	14.22	-32.0	-31.9	16.0	5.82e-04	0	59	0	15158214656	36	13577
2026-01-23 20:53:48.74	249.70	14.28	-32.0	-31.9	16.0	5.82e-04	0	59	0	15267266560	36	13583
2026-01-23 20:53:49.75	249.98	14.33	-29.7	-29.6	15.6	4.91e-04	0	59	0	15376318464	31	13799
2026-01-23 20:53:50.76	250.26	14.39	-29.5	-29.4	15.6	4.91e-04	0	58	0	15493758976	30	14385
2026-01-23 20:53:51.77	250.54	14.45	-29.6	-29.5	15.6	4.91e-04	0	58	0	15602810880	30	14480
2026-01-23 20:53:52.78	250.83	14.50	-29.5	-29.4	15.6	1.77e-03	0	58	0	15720251392	30	14408
2026-01-23 20:53:53.79	251.11	14.56	-29.4	-29.3	15.6	1.77e-03	0	59	0	15829303296	30	14247
2026-01-23 20:53:54.79	251.39	14.61	-29.4	-29.3	15.7	1.77e-03	0	59	0	15938355200	30	14185
2026-01-23 20:53:55.80	251.68	14.67	-29.4	-29.3	15.7	1.73e-03	0	58	0	16055795712	30	14236
2026-01-23 20:53:56.81	251.97	14.72	-29.4	-29.3	15.7	1.73e-03	0	59	0	16181624832	30	14208
2026-01-23 20:53:57.82	252.26	14.77	-29.3	-29.2	15.7	1.73e-03	0	58	0	16290676736	30	14079
2026-01-23 20:53:58.82	252.54	14.83	-29.4	-29.3	15.7	1.71e-03	0	59	0	16399728640	30	14217
2026-01-23 20:53:59.83	252.84	14.88	-29.5	-29.4	15.7	1.71e-03	0	59	0	16517169152	30	14380
2026-01-23 20:54:00.84	253.13	14.93	-29.5	-29.4	15.7	1.80e-03	0	59	0	16626221056	30	14294
2026-01-23 20:54:01.85	253.42	14.98	-29.4	-29.3	15.7	1.80e-03	0	59	0	16743661568	30	14247
2026-01-23 20:54:02.86	253.72	15.03	-29.4	-29.3	15.7	1.80e-03	0	59	0	16852713472	30	14242
2026-01-23 20:54:03.87	254.01	15.09	-29.5	-29.4	15.7	1.53e-03	0	59	0	16961765376	30	14377
2026-01-23 20:54:04.87	254.31	15.13	-29.2	-29.1	15.8	1.53e-03	0	59	0	17079205888	30	13878
2026-01-23 20:54:05.88	254.61	15.18	-29.4	-29.3	15.7	1.53e-03	0	59	0	17188257792	30	14161
2026-01-23 20:54:06.89	254.91	15.23	-29.4	-29.3	15.7	1.44e-03	0	59	0	17305698304	30	14201
2026-01-23 20:54:07.89	255.21	15.28	-29.4	-29.3	15.7	1.44e-03	0	59	0	17414750208	30	14142
2026-01-23 20:54:08.90	255.51	15.33	-29.3	-29.2	15.7	1.44e-03	0	59	0	17532190720	30	14095
2026-01-23 20:54:09.91	255.81	15.38	-29.3	-29.2	15.7	1.39e-03	0	58	0	17649631232	30	14108
2026-01-23 20:54:10.92	256.12	15.43	-29.3	-29.2	15.7	1.39e-03	0	59	0	17767071744	30	14075
2026-01-23 20:54:11.93	256.42	15.47	-29.3	-29.2	15.7	1.39e-03	0	59	0	17876123648	30	14028
2026-01-23 20:54:12.93	256.72	15.52	-29.3	-29.2	15.7	1.44e-03	0	59	0	17985175552	30	14043
2026-01-23 20:54:13.94	257.03	15.56	-29.2	-29.1	15.8	1.44e-03	0	59	0	18102616064	30	13863
2026-01-23 20:54:14.95	257.34	15.61	-29.2	-29.1	15.7	1.28e-03	0	59	0	18211667968	30	13946
2026-01-23 20:54:15.96	257.65	15.65	-29.4	-29.3	15.7	1.28e-03	0	59	0	18329108480	30	14158
2026-01-23 20:54:16.97	257.96	15.70	-29.2	-29.1	15.7	1.15e-03	0	59	0	18438160384	30	13854
2026-01-23 20:54:17.97	258.27	15.74	-29.1	-29.1	15.8	1.15e-03	0	59	0	18555600896	30	13802
2026-01-23 20:54:18.98	258.58	15.78	-29.2	-29.1	15.7	1.15e-03	0	59	0	18664652800	30	13909
2026-01-23 20:54:19.99	258.90	15.82	-29.1	-29.1	15.8	1.27e-03	0	59	0	18773704704	30	13803
2026-01-23 20:54:21.00	259.21	15.86	-29.3	-29.2	15.7	1.27e-03	0	59	0	18891145216	30	14109
2026-01-23 20:54:22.01	259.53	15.90	-29.2	-29.1	15.8	1.27e-03	0	59	0	19000197120	30	13927
2026-01-23 20:54:23.02	259.84	15.94	-29.2	-29.1	15.7	1.27e-03	0	59	0	19126026240	30	13911
2026-01-23 20:54:24.02	260.16	15.98	-29.2	-29.1	15.8	1.27e-03	0	59	0	19235078144	30	13805
2026-01-23 20:54:25.03	260.48	16.02	-29.4	-29.3	15.7	1.27e-03	0	59	0	19352518656	30	14136
2026-01-23 20:54:26.04	260.79	16.06	-29.2	-29.1	15.7	1.34e-03	0	59	0	19461570560	30	13872
2026-01-23 20:54:27.05	261.11	16.10	-29.3	-29.2	15.7	1.34e-03	0	59	0	19579011072	30	14019
2026-01-23 20:54:28.06	261.44	16.13	-29.3	-29.2	15.7	1.34e-03	0	59	0	19688062976	30	13996
2026-01-23 20:54:29.07	261.76	16.17	-29.1	-29.0	15.7	1.34e-03	0	59	0	19797114880	30	13704
2026-01-23 20:54:30.08	262.08	16.20	-29.1	-29.0	15.8	1.25e-03	0	59	0	19914555392	30	13786
2026-01-23 20:54:31.09	262.40	16.24	-29.2	-29.1	15.7	1.25e-03	0	59	0	20023607296	30	13932
2026-01-23 20:54:32.09	262.73	16.27	-29.2	-29.1	15.7	1.25e-03	0	59	0	20141047808	30	13904
2026-01-23 20:54:33.10	263.05	16.30	-29.1	-29.0	15.7	1.30e-03	0	59	0	20250099712	30	13738
2026-01-23 20:54:34.11	263.38	16.34	-29.3	-29.2	15.7	1.30e-03	0	59	0	20375928832	30	13959
2026-01-23 20:54:35.12	263.71	16.37	-29.3	-29.2	15.7	1.42e-03	0	59	0	20484980736	30	13974
2026-01-23 20:54:36.13	264.03	16.40	-29.1	-29.0	15.7	1.42e-03	0	59	0	20602421248	30	13767
2026-01-23 20:54:37.13	264.36	16.43	-29.1	-29.0	15.8	1.42e-03	0	59	0	20711473152	30	13775
2026-01-23 20:54:38.14	264.69	16.46	-29.1	-29.0	15.7	1.37e-03	0	59	0	20820525056	30	13772
2026-01-23 20:54:39.15	265.02	16.49	-29.2	-29.1	15.7	1.37e-03	0	59	0	20937965568	30	13890
2026-01-23 20:54:40.15	265.35	16.51	-29.3	-29.2	15.7	1.37e-03	0	59	0	21047017472	30	14075
2026-01-23 20:54:41.16	265.68	16.54	-29.3	-29.2	15.7	1.44e-03	0	59	0	21164457984	30	14053
2026-01-23 20:54:42.17	266.01	16.57	-29.3	-29.2	15.7	1.44e-03	0	59	0	21273509888	30	13960
2026-01-23 20:54:43.18	266.34	16.59	-29.2	-29.1	15.7	1.44e-03	0	59	0	21390950400	30	13938
2026-01-23 20:54:44.18	266.67	16.62	-29.2	-29.1	15.7	1.62e-03	0	59	0	21500002304	30	13909
2026-01-23 20:54:45.19	267.01	16.64	-29.2	-29.1	15.7	1.62e-03	0	59	0	21609054208	30	13882
2026-01-23 20:54:46.20	267.34	16.66	-29.1	-29.0	15.7	1.62e-03	0	59	0	21726494720	30	13664
2026-01-23 20:54:47.21	267.68	16.69	-29.1	-29.0	15.7	1.55e-03	0	59	0	21843935232	30	13699
2026-01-23 20:54:48.22	268.01	16.71	-29.2	-29.1	15.7	1.55e-03	0	59	0	21961375744	30	13886
2026-01-23 20:54:49.23	268.35	16.73	-29.3	-29.2	15.7	1.55e-03	0	59	0	22070427648	30	14054
2026-01-23 20:54:50.23	268.68	16.75	-29.2	-29.1	15.7	1.55e-03	0	59	0	22187868160	30	13937
2026-01-23 20:54:51.24	269.02	16.77	-29.1	-29.0	15.8	1.43e-03	0	59	0	22296920064	30	13707
2026-01-23 20:54:52.25	269.35	16.78	-29.3	-29.1	15.7	1.43e-03	0	59	0	22414360576	30	13931
2026-01-23 20:54:53.26	269.69	16.80	-29.5	-29.4	15.6	1.59e-03	0	59	0	22523412480	30	14318
2026-01-23 20:54:54.27	270.03	16.82	-29.2	-29.1	15.7	1.59e-03	0	59	0	22632464384	30	13924
2026-01-23 20:54:55.27	270.37	16.83	-29.2	-29.2	15.7	1.59e-03	0	59	0	22749904896	30	13955
2026-01-23 20:54:56.28	270.71	16.85	-29.2	-29.1	15.7	1.57e-03	0	59	0	22858956800	30	13873
2026-01-23 20:54:57.29	271.05	16.86	-29.1	-29.0	15.7	1.57e-03	0	59	0	22976397312	30	13778
2026-01-23 20:54:58.30	271.39	16.87	-29.3	-29.2	15.6	1.68e-03	0	59	0	23085449216	30	14029
2026-01-23 20:54:59.31	271.73	16.89	-29.2	-29.1	15.7	1.68e-03	0	59	0	23211278336	30	13854
2026-01-23 20:55:00.31	272.06	16.90	-29.1	-29.0	15.7	1.68e-03	0	59	0	23320330240	30	13742
2026-01-23 20:55:01.32	272.40	16.91	-29.2	-29.1	15.7	1.52e-03	0	59	0	23437770752	30	13873
2026-01-23 20:55:02.33	272.75	16.92	-29.2	-29.1	15.7	1.52e-03	0	59	0	23546822656	30	13877
2026-01-23 20:55:03.34	273.09	16.93	-29.2	-29.1	15.7	1.52e-03	0	59	0	23655874560	30	13871
2026-01-23 20:55:04.35	273.43	16.93	-29.1	-29.0	15.7	1.46e-03	0	59	0	23773315072	30	13689
2026-01-23 20:55:05.36	273.77	16.94	-29.1	-29.0	15.7	1.46e-03	0	59	0	23882366976	30	13751
2026-01-23 20:55:06.37	274.11	16.95	-29.1	-29.0	15.7	1.46e-03	0	59	0	23999807488	29	14557
2026-01-23 20:55:07.37	274.45	16.95	-29.2	-29.1	15.6	1.46e-03	0	59	0	24108859392	29	14714
2026-01-23 20:55:08.38	274.79	16.96	-29.2	-29.1	15.6	1.67e-03	0	59	0	24217911296	29	14662
2026-01-23 20:55:09.39	275.13	16.96	-29.3	-29.2	15.6	1.67e-03	0	59	0	24335351808	29	14807
2026-01-23 20:55:10.40	275.48	16.96	-29.3	-29.2	15.6	1.67e-03	0	59	0	24444403712	29	14777
2026-01-23 20:55:11.41	275.82	16.97	-29.3	-29.2	15.6	1.35e-03	0	59	0	24570232832	29	14921
2026-01-23 20:55:12.42	276.16	16.97	-29.2	-29.1	15.6	1.35e-03	0	59	0	24679284736	29	14697
2026-01-23 20:55:13.43	276.50	16.97	-29.1	-29.0	15.7	1.35e-03	0	59	0	24796725248	29	14513
2026-01-23 20:55:14.44	276.85	16.97	-29.2	-29.1	15.6	1.61e-03	0	59	0	24905777152	29	14737
2026-01-23 20:55:15.45	277.19	16.96	-29.2	-29.1	15.6	1.61e-03	0	59	0	25023217664	29	14652
2026-01-23 20:55:16.45	277.53	16.96	-29.3	-29.2	15.6	1.61e-03	0	59	0	25132269568	29	14946
2026-01-23 20:55:17.46	277.87	16.96	-29.2	-29.1	15.6	1.60e-03	0	59	0	25249710080	29	14759
2026-01-23 20:55:18.47	278.21	16.95	-29.2	-29.1	15.6	1.60e-03	0	59	0	25358761984	29	14693
2026-01-23 20:55:19.48	278.55	16.95	-29.1	-29.0	15.6	1.60e-03	0	59	0	25467813888	29	14545
2026-01-23 20:55:20.49	278.89	16.94	-29.4	-29.3	15.5	1.60e-03	0	59	0	25585254400	29	15033
2026-01-23 20:55:21.49	279.23	16.94	-29.3	-29.2	15.5	1.45e-03	0	59	0	25694306304	29	14919
2026-01-23 20:55:22.50	279.57	16.93	-29.3	-29.2	15.6	1.45e-03	0	59	0	25811746816	29	14906
2026-01-23 20:55:23.51	279.92	16.92	-29.3	-29.2	15.6	1.45e-03	0	59	0	25929187328	29	14821
2026-01-23 20:55:24.52	280.26	16.91	-29.4	-29.3	15.6	1.58e-03	0	59	0	26046627840	29	14961
2026-01-23 20:55:25.53	280.60	16.90	-29.3	-29.2	15.6	1.58e-03	0	59	0	26155679744	29	14869
2026-01-23 20:55:26.54	280.94	16.89	-29.5	-29.4	15.5	1.58e-03	0	59	0	26273120256	29	15258
2026-01-23 20:55:27.54	281.27	16.88	-29.4	-29.3	15.5	1.73e-03	0	59	0	26382172160	29	14984
2026-01-23 20:55:28.55	281.61	16.86	-29.4	-29.3	15.5	1.73e-03	0	59	0	26491224064	29	15103
2026-01-23 20:55:29.56	281.95	16.85	-29.4	-29.3	15.5	1.78e-03	0	59	0	26608664576	29	15052
2026-01-23 20:55:30.57	282.29	16.83	-29.3	-29.3	15.6	1.78e-03	0	59	0	26717716480	29	14955
2026-01-23 20:55:31.58	282.63	16.82	-29.3	-29.2	15.6	1.78e-03	0	59	0	26835156992	29	14923
2026-01-23 20:55:32.58	282.96	16.80	-29.4	-29.3	15.5	1.65e-03	0	59	0	26944208896	29	15003
2026-01-23 20:55:33.59	283.30	16.79	-29.6	-29.5	15.4	1.65e-03	0	59	0	27053260800	29	15395
2026-01-23 20:55:34.60	283.64	16.77	-29.5	-29.4	15.4	2.26e-03	0	59	0	27170701312	29	15180
2026-01-23 20:55:35.60	283.97	16.75	-29.5	-29.4	15.4	2.26e-03	0	59	0	27279753216	29	15152
2026-01-23 20:55:36.61	284.31	16.73	-29.3	-29.2	15.5	2.26e-03	0	59	0	27405582336	29	14877
2026-01-23 20:55:37.62	284.64	16.71	-29.5	-29.4	15.4	2.49e-03	0	59	0	27514634240	29	15158
2026-01-23 20:55:38.63	284.98	16.69	-29.5	-29.4	15.4	2.49e-03	0	59	0	27632074752	29	15197
2026-01-23 20:55:39.64	285.31	16.66	-29.2	-29.1	15.5	2.49e-03	0	59	0	27741126656	29	14642
2026-01-23 20:55:40.65	285.65	16.64	-29.2	-29.1	15.5	2.40e-03	0	59	0	27858567168	29	14678
2026-01-23 20:55:41.66	285.98	16.62	-53.8	-56.1	6.2	2.40e-03	0	59	104	27942453248	74	24701
2026-01-23 20:55:42.66	286.31	16.59	-53.9	-56.1	6.2	2.40e-03	0	58	104	27942453248	78	19621
2026-01-23 20:55:43.67	286.64	16.57	-53.9	-56.1	6.2	2.40e-03	0	58	104	27942453248	78	19582
2026-01-23 20:55:44.68	286.98	16.54	-53.9	-56.1	6.2	2.40e-03	0	58	104	27942453248	78	19571
2026-01-23 20:55:45.69	287.31	16.52	-53.9	-56.0	6.2	2.40e-03	0	58	104	27942453248	78	19347
2026-01-23 20:55:46.70	287.64	16.49	-53.9	-56.1	6.2	2.40e-03	0	58	104	27942453248	78	19588
2026-01-23 20:55:47.71	287.97	16.46	-53.9	-56.1	6.2	2.40e-03	0	58	104	27942453248	78	19500
2026-01-23 20:55:48.72	288.29	16.43	-53.9	-56.0	6.2	2.40e-03	0	58	104	27942453248	78	19435
2026-01-23 20:55:49.73	288.62	16.40	-54.0	-56.1	6.2	2.40e-03	0	58	104	27942453248	78	19554
2026-01-23 20:55:50.74	288.95	16.37	-54.0	-56.1	6.2	2.40e-03	0	57	104	27942453248	78	19579
2026-01-23 20:55:51.75	289.28	16.34	-54.0	-56.1	6.2	7.96e-04	0	58	104	27942453248	78	19556
2026-01-23 20:55:52.76	289.60	16.31	-53.9	-56.1	6.2	7.96e-04	0	57	104	27942453248	78	19498
2026-01-23 20:55:53.76	289.92	16.27	-54.0	-56.1	6.2	7.96e-04	0	57	104	27942453248	78	19698
2026-01-23 20:55:54.77	290.25	16.24	-54.0	-56.1	6.2	7.96e-04	0	57	104	27942453248	78	19691
2026-01-23 20:55:55.78	290.57	16.21	-54.0	-56.1	6.2	7.96e-04	0	57	104	27942453248	78	19606
2026-01-23 20:55:56.79	290.89	16.17	-54.0	-56.1	6.2	7.96e-04	0	57	104	27942453248	78	19525
2026-01-23 20:55:57.80	291.21	16.14	-54.0	-56.1	6.2	7.96e-04	0	57	104	27942453248	78	19609
2026-01-23 20:55:58.80	291.53	16.10	-54.0	-56.2	6.2	7.96e-04	0	57	104	27942453248	78	19711
2026-01-23 20:55:59.81	291.85	16.06	-54.0	-56.1	6.2	7.96e-04	0	57	104	27942453248	78	19700
2026-01-23 20:56:00.82	292.17	16.03	-54.0	-56.1	6.2	7.96e-04	0	57	104	27942453248	78	19564
2026-01-23 20:56:01.83	292.49	15.99	-54.0	-56.1	6.2	0.00e+00	0	57	104	27942453248	78	19677
2026-01-23 20:56:02.84	292.80	15.95	-54.0	-56.1	6.2	0.00e+00	0	57	104	27942453248	78	19638
2026-01-23 20:56:03.84	293.12	15.91	-54.0	-56.1	6.2	0.00e+00	0	57	104	27942453248	78	19668
2026-01-23 20:56:04.85	293.43	15.87	-53.9	-56.1	6.2	0.00e+00	0	57	104	27942453248	78	19480
2026-01-23 20:56:05.86	293.74	15.83	-54.0	-56.1	6.2	0.00e+00	0	57	104	27942453248	78	19609
2026-01-23 20:56:06.87	294.06	15.79	-54.0	-56.1	6.2	0.00e+00	0	57	104	27942453248	78	19577
2026-01-23 20:56:07.88	294.37	15.74	-54.0	-56.1	6.2	0.00e+00	0	57	104	27942453248	78	19567
2026-01-23 20:56:08.88	294.68	15.70	-53.9	-56.0	6.2	0.00e+00	0	57	104	27942453248	78	19471
2026-01-23 20:56:09.89	294.99	15.66	-54.0	-56.1	6.2	0.00e+00	0	57	104	27942453248	78	19611
2026-01-23 20:56:10.90	295.29	15.61	-53.9	-56.0	6.2	0.00e+00	0	57	104	27942453248	78	19443
2026-01-23 20:56:11.91	295.60	15.57	-53.9	-56.0	6.2	0.00e+00	0	56	104	27942453248	78	19478
2026-01-23 20:56:12.92	295.91	15.52	-53.9	-56.0	6.2	0.00e+00	0	56	104	27942453248	78	19349
2026-01-23 20:56:13.93	296.21	15.48	-53.9	-56.1	6.2	0.00e+00	0	57	104	27942453248	78	19488
2026-01-23 20:56:14.93	296.52	15.43	-53.9	-56.0	6.2	0.00e+00	0	56	104	27942453248	78	19331
2026-01-23 20:56:15.94	296.82	15.39	-53.9	-56.0	6.2	0.00e+00	0	57	104	27942453248	78	19406
2026-01-23 20:56:16.95	297.12	15.34	-53.8	-55.9	6.2	0.00e+00	0	57	104	27942453248	78	19241
2026-01-23 20:56:17.96	297.42	15.29	-53.9	-56.0	6.2	0.00e+00	0	56	104	27942453248	78	19349
2026-01-23 20:56:18.97	297.72	15.24	-53.8	-56.0	6.2	0.00e+00	0	56	104	27942453248	78	19296
2026-01-23 20:56:19.97	298.02	15.19	-53.8	-56.0	6.2	0.00e+00	0	56	104	27942453248	78	19302
2026-01-23 20:56:20.98	298.32	15.14	-53.8	-55.9	6.2	0.00e+00	0	57	104	27942453248	78	19136
2026-01-23 20:56:21.99	298.61	15.09	-53.8	-55.9	6.2	0.00e+00	0	56	104	27942453248	78	19225
2026-01-23 20:56:23.00	298.91	15.04	-53.8	-55.9	6.2	0.00e+00	0	56	104	27942453248	78	19113
2026-01-23 20:56:24.01	299.20	14.99	-53.8	-55.9	6.2	0.00e+00	0	57	104	27942453248	78	19166
2026-01-23 20:56:25.01	299.49	14.94	-53.7	-55.9	6.2	0.00e+00	0	56	104	27942453248	78	19045
2026-01-23 20:56:26.02	299.78	14.89	-53.8	-55.9	6.2	0.00e+00	0	56	104	27942453248	78	19153
2026-01-23 20:56:27.03	300.07	14.84	-53.7	-55.9	6.2	0.00e+00	0	56	104	27942453248	78	19110
2026-01-23 20:56:28.04	300.36	14.78	-53.7	-55.9	6.2	0.00e+00	0	56	104	27942453248	78	19037
2026-01-23 20:56:29.05	300.65	14.73	-53.7	-55.9	6.2	0.00e+00	0	56	104	27942453248	78	19039
2026-01-23 20:56:30.05	300.94	14.68	-53.7	-55.8	6.2	0.00e+00	0	56	104	27942453248	78	19002
2026-01-23 20:56:31.06	301.22	14.62	-53.7	-55.8	6.2	0.00e+00	0	56	104	27942453248	78	18995
2026-01-23 20:56:32.07	301.51	14.57	-53.7	-55.8	6.2	0.00e+00	0	56	104	27942453248	78	18926
2026-01-23 20:56:33.08	301.79	14.51	-53.7	-55.8	6.2	0.00e+00	0	56	104	27942453248	78	18949
2026-01-23 20:56:34.09	302.07	14.46	-53.7	-55.8	6.2	0.00e+00	0	56	104	27942453248	78	18973
2026-01-23 20:56:35.09	302.35	14.40	-53.7	-55.8	6.2	0.00e+00	0	56	104	27942453248	78	18956
2026-01-23 20:56:36.10	302.63	14.35	-53.7	-55.8	6.2	0.00e+00	0	56	104	27942453248	78	18955
2026-01-23 20:56:37.11	302.91	14.29	-53.6	-55.8	6.2	0.00e+00	0	56	104	27942453248	78	18851
2026-01-23 20:56:38.12	303.19	14.23	-53.6	-55.8	6.2	0.00e+00	0	56	104	27942453248	78	18880
2026-01-23 20:56:39.12	303.46	14.18	-53.7	-55.8	6.2	0.00e+00	0	56	104	27942453248	78	18837
2026-01-23 20:56:40.13	303.73	14.12	-53.6	-55.7	6.2	0.00e+00	0	56	104	27942453248	78	18792
2026-01-23 20:56:41.14	304.01	14.06	-53.6	-55.7	6.2	0.00e+00	0	56	104	27942453248	78	18718
2026-01-23 20:56:42.15	304.28	14.00	-53.6	-55.8	6.2	0.00e+00	0	56	104	27942453248	78	18830
2026-01-23 20:56:43.16	304.55	13.94	-53.6	-55.7	6.2	0.00e+00	0	56	104	27942453248	78	18756
2026-01-23 20:56:44.16	304.82	13.89	-53.6	-55.7	6.2	0.00e+00	0	56	104	27942453248	78	18749
2026-01-23 20:56:45.17	305.09	13.83	-53.6	-55.7	6.2	0.00e+00	0	56	104	27942453248	78	18786
2026-01-23 20:56:46.18	305.35	13.77	-53.6	-55.7	6.2	0.00e+00	0	56	104	27942453248	78	18665
2026-01-23 20:56:47.19	305.62	13.71	-53.6	-55.7	6.2	0.00e+00	0	56	104	27942453248	78	18781
2026-01-23 20:56:48.19	305.88	13.65	-53.6	-55.7	6.2	0.00e+00	0	56	104	27942453248	78	18696
2026-01-23 20:56:49.20	306.14	13.59	-53.6	-55.7	6.2	0.00e+00	0	56	104	27942453248	78	18797
2026-01-23 20:56:50.21	306.41	13.52	-53.6	-55.7	6.2	0.00e+00	0	56	104	27942453248	78	18723
2026-01-23 20:56:51.22	306.67	13.46	-53.6	-55.7	6.2	0.00e+00	0	56	104	27942453248	78	18649
2026-01-23 20:56:52.23	306.93	13.40	-53.5	-55.7	6.2	0.00e+00	0	56	104	27942453248	78	18672
2026-01-23 20:56:53.23	307.18	13.34	-53.6	-55.7	6.2	0.00e+00	0	56	104	27942453248	78	18608
2026-01-23 20:56:54.24	307.44	13.28	-53.6	-55.7	6.2	0.00e+00	0	56	104	27942453248	78	18713
2026-01-23 20:56:55.25	307.70	13.22	-53.5	-55.7	6.2	0.00e+00	0	56	104	27942453248	78	18673
2026-01-23 20:56:56.25	307.95	13.15	-53.5	-55.6	6.2	0.00e+00	0	56	104	27942453248	78	18602
2026-01-23 20:56:57.26	308.20	13.09	-53.5	-55.6	6.2	0.00e+00	0	56	104	27942453248	78	18567
2026-01-23 20:56:58.27	308.45	13.03	-53.6	-55.7	6.2	0.00e+00	0	56	104	27942453248	78	18661
2026-01-23 20:56:59.28	308.70	12.97	-53.5	-55.6	6.2	0.00e+00	0	56	104	27942453248	78	18567
2026-01-23 20:57:00.29	308.95	12.90	-53.5	-55.6	6.2	0.00e+00	0	56	104	27942453248	78	18551
2026-01-23 20:57:01.29	309.20	12.84	-53.5	-55.6	6.2	0.00e+00	0	56	104	27942453248	78	18450
2026-01-23 20:57:02.30	309.45	12.78	-53.5	-55.6	6.2	0.00e+00	0	56	104	27942453248	78	18565
2026-01-23 20:57:03.31	309.69	12.71	-53.5	-55.6	6.2	0.00e+00	0	56	104	27942453248	78	18448
2026-01-23 20:57:04.32	309.94	12.65	-53.4	-55.5	6.2	0.00e+00	0	56	104	27942453248	78	18341
2026-01-23 20:57:05.32	310.18	12.58	-53.4	-55.5	6.2	0.00e+00	0	56	104	27942453248	78	18369
2026-01-23 20:57:06.33	310.42	12.52	-53.5	-55.6	6.2	0.00e+00	0	56	104	27942453248	78	18554
2026-01-23 20:57:07.34	310.66	12.45	-53.4	-55.6	6.2	0.00e+00	0	56	104	27942453248	78	18402
2026-01-23 20:57:08.35	310.90	12.39	-53.4	-55.5	6.2	0.00e+00	0	56	104	27942453248	78	18286
2026-01-23 20:57:09.36	311.14	12.32	-53.4	-55.5	6.2	0.00e+00	0	56	104	27942453248	78	18365
2026-01-23 20:57:10.37	311.38	12.26	-53.5	-55.6	6.2	0.00e+00	0	56	104	27942453248	78	18479
2026-01-23 20:57:11.37	311.61	12.19	-53.4	-55.5	6.2	0.00e+00	0	55	104	27942453248	78	18341
2026-01-23 20:57:12.38	311.84	12.13	-53.4	-55.5	6.2	0.00e+00	0	56	104	27942453248	78	18281
2026-01-23 20:57:13.39	312.08	12.06	-53.4	-55.5	6.2	0.00e+00	0	55	104	27942453248	78	18240
2026-01-23 20:57:14.40	312.31	12.00	-53.4	-55.6	6.2	0.00e+00	0	56	104	27942453248	78	18441
2026-01-23 20:57:15.41	312.54	11.93	-53.4	-55.5	6.2	0.00e+00	0	56	104	27942453248	78	18248
2026-01-23 20:57:16.41	312.77	11.87	-53.3	-55.5	6.2	0.00e+00	0	56	104	27942453248	78	18197
2026-01-23 20:57:17.42	313.00	11.80	-53.4	-55.5	6.2	0.00e+00	0	56	104	27942453248	78	18226
2026-01-23 20:57:18.43	313.22	11.73	-53.4	-55.5	6.2	0.00e+00	0	56	104	27942453248	78	18333
2026-01-23 20:57:19.44	313.45	11.67	-53.3	-55.4	6.2	0.00e+00	0	56	104	27942453248	78	18109
2026-01-23 20:57:20.44	313.67	11.60	-53.3	-55.4	6.2	0.00e+00	0	56	104	27942453248	78	18061
2026-01-23 20:57:21.45	313.90	11.53	-53.3	-55.4	6.2	0.00e+00	0	56	104	27942453248	78	18148
2026-01-23 20:57:22.46	314.12	11.47	-53.4	-55.5	6.2	0.00e+00	0	56	104	27942453248	78	18194
2026-01-23 20:57:23.47	314.34	11.40	-53.3	-55.4	6.2	0.00e+00	0	56	104	27942453248	78	18163
2026-01-23 20:57:24.47	314.56	11.33	-53.3	-55.4	6.2	0.00e+00	0	56	104	27942453248	78	18049
2026-01-23 20:57:25.48	314.78	11.27	-53.3	-55.4	6.2	0.00e+00	0	56	104	27942453248	78	18063
2026-01-23 20:57:26.49	314.99	11.20	-53.3	-55.4	6.2	0.00e+00	0	55	104	27942453248	78	18174
2026-01-23 20:57:27.50	315.21	11.13	-53.2	-55.4	6.2	0.00e+00	0	56	104	27942453248	78	18045
2026-01-23 20:57:28.50	315.42	11.07	-53.2	-55.3	6.2	0.00e+00	0	55	104	27942453248	78	17918
2026-01-23 20:57:29.51	315.64	11.00	-53.3	-55.4	6.2	0.00e+00	0	56	104	27942453248	78	18064
2026-01-23 20:57:30.52	315.85	10.93	-53.2	-55.4	6.2	0.00e+00	0	55	104	27942453248	78	18007
2026-01-23 20:57:31.53	316.06	10.86	-53.2	-55.3	6.2	0.00e+00	0	55	104	27942453248	78	17927
2026-01-23 20:57:32.54	316.27	10.80	-53.2	-55.3	6.2	0.00e+00	0	56	104	27942453248	78	17866
2026-01-23 20:57:33.55	316.48	10.73	-53.2	-55.3	6.2	0.00e+00	0	56	104	27942453248	78	17900
2026-01-23 20:57:34.56	316.69	10.66	-53.2	-55.3	6.2	0.00e+00	0	56	104	27942453248	78	17877
2026-01-23 20:57:35.56	316.90	10.59	-53.1	-55.3	6.2	0.00e+00	0	56	104	27942453248	78	17781
2026-01-23 20:57:36.57	317.10	10.53	-53.1	-55.3	6.2	0.00e+00	0	56	104	27942453248	78	17788
2026-01-23 20:57:37.58	317.31	10.46	-53.2	-55.3	6.2	0.00e+00	0	55	104	27942453248	78	17849
2026-01-23 20:57:38.59	317.51	10.39	-53.1	-55.3	6.2	0.00e+00	0	55	104	27942453248	78	17813
2026-01-23 20:57:39.60	317.72	10.32	-53.1	-55.2	6.2	0.00e+00	0	55	104	27942453248	78	17720
2026-01-23 20:57:40.61	317.92	10.26	-53.1	-55.2	6.2	0.00e+00	0	56	104	27942453248	78	17664
2026-01-23 20:57:41.61	318.12	10.19	-53.1	-55.3	6.2	0.00e+00	0	55	104	27942453248	78	17809
2026-01-23 20:57:42.62	318.31	10.12	-53.1	-55.2	6.2	0.00e+00	0	55	104	27942453248	78	17745
2026-01-23 20:57:43.63	318.51	10.05	-53.1	-55.2	6.2	0.00e+00	0	56	104	27942453248	78	17658
2026-01-23 20:57:44.64	318.71	9.98	-53.1	-55.2	6.2	0.00e+00	0	56	104	27942453248	78	17609
2026-01-23 20:57:45.64	318.90	9.92	-53.1	-55.2	6.2	0.00e+00	0	55	104	27942453248	78	17675
2026-01-23 20:57:46.65	319.10	9.85	-53.1	-55.2	6.2	0.00e+00	0	55	104	27942453248	78	17576
2026-01-23 20:57:47.66	319.29	9.78	-53.0	-55.2	6.2	0.00e+00	0	55	104	27942453248	78	17582
2026-01-23 20:57:48.67	319.49	9.71	-53.0	-55.2	6.2	0.00e+00	0	56	104	27942453248	78	17579
2026-01-23 20:57:49.68	319.68	9.65	-53.1	-55.2	6.2	0.00e+00	0	56	104	27942453248	78	17656
2026-01-23 20:57:50.69	319.87	9.58	-53.0	-55.1	6.2	0.00e+00	0	56	104	27942453248	78	17529
2026-01-23 20:57:51.69	320.06	9.51	-53.0	-55.1	6.2	0.00e+00	0	55	104	27942453248	78	17547
2026-01-23 20:57:52.70	320.25	9.44	-53.0	-55.1	6.2	0.00e+00	0	55	104	27942453248	78	17525
2026-01-23 20:57:53.71	320.43	9.37	-53.0	-55.2	6.2	0.00e+00	0	56	104	27942453248	78	17567
2026-01-23 20:57:54.72	320.62	9.31	-53.0	-55.1	6.2	0.00e+00	0	55	104	27942453248	78	17543
2026-01-23 20:57:55.73	320.81	9.24	-53.0	-55.1	6.2	0.00e+00	0	55	104	27942453248	78	17459
2026-01-23 20:57:56.74	320.99	9.17	-52.9	-55.0	6.2	0.00e+00	0	55	104	27942453248	77	18370
2026-01-23 20:57:57.74	321.17	9.10	-53.0	-55.1	6.2	0.00e+00	0	55	104	27942453248	77	18538
2026-01-23 20:57:58.75	321.35	9.04	-53.0	-55.1	6.2	0.00e+00	0	55	104	27942453248	77	18411
2026-01-23 20:57:59.76	321.54	8.97	-52.9	-55.1	6.2	0.00e+00	0	55	104	27942453248	77	18404
2026-01-23 20:58:00.77	321.72	8.90	-52.9	-55.0	6.2	0.00e+00	0	55	104	27942453248	77	18340
2026-01-23 20:58:01.78	321.90	8.83	-53.0	-55.1	6.2	0.00e+00	0	55	104	27942453248	77	18493
2026-01-23 20:58:02.79	322.07	8.77	-52.9	-55.0	6.2	0.00e+00	0	55	104	27942453248	77	18339
2026-01-23 20:58:03.80	322.25	8.70	-52.9	-55.0	6.2	0.00e+00	0	55	104	27942453248	77	18373
2026-01-23 20:58:04.81	322.43	8.63	-52.8	-55.0	6.2	0.00e+00	0	55	104	27942453248	77	18203
2026-01-23 20:58:05.82	322.60	8.56	-53.0	-55.1	6.2	0.00e+00	0	55	104	27942453248	77	18481
2026-01-23 20:58:06.83	322.78	8.50	-52.9	-55.0	6.2	0.00e+00	0	55	104	27942453248	77	18248
2026-01-23 20:58:07.83	322.95	8.43	-52.9	-55.0	6.2	0.00e+00	0	55	104	27942453248	77	18288
2026-01-23 20:58:08.84	323.12	8.36	-52.8	-54.9	6.2	0.00e+00	0	55	104	27942453248	77	17998
2026-01-23 20:58:09.85	323.30	8.29	-52.9	-55.0	6.2	0.00e+00	0	55	104	27942453248	77	18368
2026-01-23 20:58:10.86	323.47	8.23	-52.8	-54.9	6.2	0.00e+00	0	55	104	27942453248	77	18123
2026-01-23 20:58:11.87	323.64	8.16	-52.8	-55.0	6.2	0.00e+00	0	55	104	27942453248	77	18206
2026-01-23 20:58:12.88	323.80	8.09	-52.7	-54.9	6.2	0.00e+00	0	55	104	27942453248	77	18023
2026-01-23 20:58:13.89	323.97	8.03	-52.9	-55.0	6.2	0.00e+00	0	55	104	27942453248	77	18324
2026-01-23 20:58:14.90	324.14	7.96	-52.8	-54.9	6.2	0.00e+00	0	55	104	27942453248	77	18058
2026-01-23 20:58:15.91	324.31	7.89	-52.8	-54.9	6.2	0.00e+00	0	55	104	27942453248	77	18097
2026-01-23 20:58:16.91	324.47	7.83	-52.7	-54.8	6.2	0.00e+00	0	55	104	27942453248	77	17939
2026-01-23 20:58:17.92	324.63	7.76	-52.9	-55.0	6.2	0.00e+00	0	55	104	27942453248	77	18210
2026-01-23 20:58:18.93	324.80	7.69	-52.7	-54.8	6.2	0.00e+00	0	55	104	27942453248	77	17945
2026-01-23 20:58:19.94	324.96	7.63	-52.7	-54.8	6.2	0.00e+00	0	55	104	27942453248	77	17938
2026-01-23 20:58:20.95	325.12	7.56	-52.6	-54.8	6.2	0.00e+00	0	55	104	27942453248	77	17808
2026-01-23 20:58:21.96	325.28	7.49	-52.8	-55.0	6.2	0.00e+00	0	55	104	27942453248	77	18186
2026-01-23 20:58:22.97	325.44	7.43	-52.7	-54.8	6.2	0.00e+00	0	55	104	27942453248	77	17804
2026-01-23 20:58:23.98	325.60	7.36	-52.7	-54.8	6.2	0.00e+00	0	55	104	27942453248	77	17844
2026-01-23 20:58:24.99	325.76	7.29	-52.6	-54.7	6.2	0.00e+00	0	55	104	27942453248	77	17760
2026-01-23 20:58:26.00	325.92	7.23	-52.7	-54.9	6.2	0.00e+00	0	55	104	27942453248	77	18013
2026-01-23 20:58:27.01	326.07	7.16	-52.6	-54.8	6.2	0.00e+00	0	55	104	27942453248	77	17807
2026-01-23 20:58:28.01	326.23	7.09	-52.6	-54.8	6.2	0.00e+00	0	55	104	27942453248	77	17792
2026-01-23 20:58:29.02	326.38	7.03	-52.6	-54.7	6.2	0.00e+00	0	55	104	27942453248	77	17605
2026-01-23 20:58:30.03	326.54	6.96	-52.7	-54.8	6.2	0.00e+00	0	55	104	27942453248	77	17920
2026-01-23 20:58:31.04	326.69	6.90	-52.6	-54.7	6.2	0.00e+00	0	55	104	27942453248	77	17665
2026-01-23 20:58:32.05	326.84	6.83	-52.6	-54.7	6.2	0.00e+00	0	55	104	27942453248	77	17731
2026-01-23 20:58:33.05	326.99	6.77	-52.5	-54.6	6.2	0.00e+00	0	55	104	27942453248	77	17472
2026-01-23 20:58:34.06	327.14	6.70	-52.6	-54.8	6.2	0.00e+00	0	55	104	27942453248	77	17814
2026-01-23 20:58:35.07	327.29	6.63	-52.5	-54.7	6.2	0.00e+00	0	55	104	27942453248	77	17599
2026-01-23 20:58:36.08	327.44	6.57	-52.6	-54.7	6.2	0.00e+00	0	55	104	27942453248	77	17676
2026-01-23 20:58:37.09	327.59	6.50	-52.4	-54.5	6.2	0.00e+00	0	55	104	27942453248	76	18368
2026-01-23 20:58:38.09	327.73	6.44	-52.6	-54.7	6.2	0.00e+00	0	55	104	27942453248	76	18698
2026-01-23 20:58:39.10	327.88	6.37	-52.5	-54.6	6.2	0.00e+00	0	55	104	27942453248	76	18456
2026-01-23 20:58:40.11	328.03	6.31	-52.5	-54.6	6.2	0.00e+00	0	55	104	27942453248	76	18505
2026-01-23 20:58:41.12	328.17	6.24	-52.4	-54.5	6.2	0.00e+00	0	55	104	27942453248	76	18350
2026-01-23 20:58:42.12	328.31	6.18	-52.5	-54.7	6.2	0.00e+00	0	55	104	27942453248	76	18609
2026-01-23 20:58:43.13	328.46	6.11	-52.4	-54.5	6.2	0.00e+00	0	55	104	27942453248	76	18365
2026-01-23 20:58:44.14	328.60	6.05	-52.5	-54.5	6.2	0.00e+00	0	55	104	27942453248	76	18377
2026-01-23 20:58:45.15	328.74	5.98	-52.3	-54.4	6.2	0.00e+00	0	55	104	27942453248	76	18163
2026-01-23 20:58:46.16	328.88	5.92	-52.5	-54.6	6.2	0.00e+00	0	55	104	27942453248	76	18569
2026-01-23 20:58:47.16	329.02	5.86	-52.4	-54.5	6.2	0.00e+00	0	55	104	27942453248	76	18220
2026-01-23 20:58:48.17	329.16	5.79	-52.4	-54.5	6.2	0.00e+00	0	55	104	27942453248	76	18347
2026-01-23 20:58:49.18	329.30	5.73	-52.2	-54.3	6.2	0.00e+00	0	55	104	27942453248	76	17947
2026-01-23 20:58:50.19	329.44	5.66	-52.5	-54.6	6.2	0.00e+00	0	55	104	27942453248	76	18523
2026-01-23 20:58:51.19	329.57	5.60	-52.3	-54.4	6.2	0.00e+00	0	55	104	27942453248	76	18034
2026-01-23 20:58:52.20	329.71	5.54	-52.3	-54.4	6.2	0.00e+00	0	55	104	27942453248	76	18128
2026-01-23 20:58:53.21	329.85	5.47	-52.2	-54.3	6.2	0.00e+00	0	55	104	27942453248	76	17879
2026-01-23 20:58:54.21	329.98	5.41	-52.4	-54.5	6.2	0.00e+00	0	55	104	27942453248	76	18269
2026-01-23 20:58:55.22	330.11	5.34	-52.2	-54.3	6.2	0.00e+00	0	55	104	27942453248	76	17911
2026-01-23 20:58:56.23	330.25	5.28	-52.2	-54.4	6.2	0.00e+00	0	55	104	27942453248	76	17979
2026-01-23 20:58:57.24	330.38	5.22	-52.1	-54.2	6.2	0.00e+00	0	55	104	27942453248	76	17754
2026-01-23 20:58:58.25	330.51	5.15	-52.3	-54.4	6.2	0.00e+00	0	55	104	27942453248	76	18106
2026-01-23 20:58:59.26	330.65	5.09	-52.2	-54.3	6.2	0.00e+00	0	55	104	27942453248	76	17838
2026-01-23 20:59:00.27	330.78	5.03	-52.2	-54.4	6.2	0.00e+00	0	55	104	27942453248	76	17994
2026-01-23 20:59:01.27	330.91	4.96	-52.6	-54.7	6.2	0.00e+00	0	55	104	27942453248	76	18731
2026-01-23 20:59:02.28	331.03	4.90	-53.0	-55.1	6.2	0.00e+00	0	55	104	27942453248	76	19632
2026-01-23 20:59:03.29	331.16	4.84	-53.2	-55.3	6.2	0.00e+00	0	55	104	27942453248	76	19957
2026-01-23 20:59:04.30	331.29	4.77	-48.1	-55.3	6.2	0.00e+00	0	55	104	27942453248	66	35757
2026-01-23 20:59:05.31	331.42	4.71	-53.4	-55.5	6.2	0.00e+00	0	55	104	27942453248	77	19344
2026-01-23 20:59:06.32	331.55	4.65	-53.5	-55.6	6.2	0.00e+00	0	55	104	27942453248	77	19511
2026-01-23 20:59:07.33	331.67	4.59	-53.4	-55.5	6.2	0.00e+00	0	55	104	27942453248	77	19354
2026-01-23 20:59:08.33	331.80	4.52	-53.6	-55.7	6.2	0.00e+00	0	56	104	27942453248	77	19779
2026-01-23 20:59:09.34	331.92	4.46	-53.6	-55.7	6.2	0.00e+00	0	55	104	27942453248	77	19714
2026-01-23 20:59:10.35	332.05	4.40	-53.5	-55.6	6.2	0.00e+00	0	55	104	27942453248	77	19665
2026-01-23 20:59:11.36	332.17	4.34	-53.4	-55.5	6.2	0.00e+00	0	55	104	27942453248	77	19346
2026-01-23 20:59:12.37	332.29	4.28	-53.3	-55.5	6.2	0.00e+00	0	55	104	27942453248	77	19294
2026-01-23 20:59:13.38	332.42	4.21	-53.4	-55.5	6.2	0.00e+00	0	55	104	27942453248	77	19431
2026-01-23 20:59:14.39	332.54	4.15	-53.4	-55.5	6.2	0.00e+00	0	55	104	27942453248	77	19466
2026-01-23 20:59:15.40	332.66	4.09	-53.4	-55.5	6.2	0.00e+00	0	55	104	27942453248	77	19432
2026-01-23 20:59:16.41	332.78	4.03	-53.4	-55.4	6.2	0.00e+00	0	55	104	27942453248	77	19077
2026-01-23 20:59:17.41	332.90	3.97	-53.5	-55.6	6.2	0.00e+00	0	55	104	27942453248	77	19668
2026-01-23 20:59:18.42	333.02	3.91	-53.6	-55.7	6.2	0.00e+00	0	55	104	27942453248	77	19830
2026-01-23 20:59:19.43	333.14	3.84	-53.5	-55.6	6.2	0.00e+00	0	56	104	27942453248	77	19507
2026-01-23 20:59:20.44	333.25	3.78	-53.5	-55.6	6.2	0.00e+00	0	55	104	27942453248	77	19651
2026-01-23 20:59:21.45	333.37	3.72	-53.5	-55.6	6.2	0.00e+00	0	55	104	27942453248	77	19627
2026-01-23 20:59:22.46	333.49	3.66	-53.5	-55.6	6.2	0.00e+00	0	55	104	27942453248	77	19595
2026-01-23 20:59:23.47	333.61	3.60	-53.4	-55.5	6.2	0.00e+00	0	55	104	27942453248	77	19454
2026-01-23 20:59:24.47	333.72	3.54	-53.4	-55.5	6.2	0.00e+00	0	55	104	27942453248	77	19430
2026-01-23 20:59:25.48	333.83	3.48	-53.4	-55.5	6.2	0.00e+00	0	55	104	27942453248	77	19428
2026-01-23 20:59:26.49	333.95	3.42	-53.4	-55.5	6.2	0.00e+00	0	55	104	27942453248	77	19399
2026-01-23 20:59:27.50	334.06	3.36	-53.4	-55.5	6.2	0.00e+00	0	55	104	27942453248	77	19378
2026-01-23 20:59:28.50	334.18	3.30	-53.4	-55.4	6.2	0.00e+00	0	56	104	27942453248	77	19253
2026-01-23 20:59:29.51	334.29	3.24	-53.4	-55.5	6.2	0.00e+00	0	55	104	27942453248	77	19307
2026-01-23 20:59:30.52	334.40	3.18	-53.4	-55.5	6.2	0.00e+00	0	55	104	27942453248	77	19349
2026-01-23 20:59:31.53	334.51	3.12	-53.4	-55.4	6.2	0.00e+00	0	55	104	27942453248	77	19248
2026-01-23 20:59:32.53	334.62	3.06	-53.4	-55.5	6.2	0.00e+00	0	55	104	27942453248	77	19276
2026-01-23 20:59:33.54	334.73	3.00	-53.4	-55.5	6.2	0.00e+00	0	55	104	27942453248	77	19304
2026-01-23 20:59:34.55	334.84	2.94	-53.4	-55.5	6.2	0.00e+00	0	55	104	27942453248	77	19262
2026-01-23 20:59:35.56	334.95	2.88	-53.3	-55.5	6.2	0.00e+00	0	56	104	27942453248	77	19291
2026-01-23 20:59:36.57	335.06	2.82	-53.3	-55.5	6.2	0.00e+00	0	55	104	27942453248	77	19275
2026-01-23 20:59:37.58	335.17	2.76	-53.3	-55.4	6.2	0.00e+00	0	55	104	27942453248	77	19248
2026-01-23 20:59:38.59	335.28	2.70	-53.3	-55.5	6.2	0.00e+00	0	55	104	27942453248	77	19268
2026-01-23 20:59:39.60	335.39	2.64	-53.3	-55.4	6.2	0.00e+00	0	55	104	27942453248	77	19197
2026-01-23 20:59:40.61	335.49	2.58	-53.3	-55.5	6.2	0.00e+00	0	55	104	27942453248	77	19302
2026-01-23 20:59:41.61	335.60	2.52	-53.3	-55.4	6.2	0.00e+00	0	55	104	27942453248	77	19224
2026-01-23 20:59:42.62	335.70	2.46	-53.3	-55.5	6.2	0.00e+00	0	55	104	27942453248	77	19268
2026-01-23 20:59:43.63	335.81	2.40	-53.3	-55.4	6.2	0.00e+00	0	55	104	27942453248	77	19225
2026-01-23 20:59:44.64	335.92	2.34	-53.3	-55.4	6.2	0.00e+00	0	55	104	27942453248	77	19224
2026-01-23 20:59:45.65	336.02	2.28	-53.3	-55.5	6.2	0.00e+00	0	56	104	27942453248	77	19300
2026-01-23 20:59:46.65	336.12	2.22	-53.3	-55.4	6.2	0.00e+00	0	55	104	27942453248	77	19244
2026-01-23 20:59:47.66	336.23	2.17	-53.3	-55.4	6.2	0.00e+00	0	56	104	27942453248	77	19175
2026-01-23 20:59:48.67	336.33	2.11	-53.3	-55.4	6.2	0.00e+00	0	55	104	27942453248	77	19207
2026-01-23 20:59:49.68	336.43	2.05	-53.3	-55.4	6.2	0.00e+00	0	55	104	27942453248	77	19207
2026-01-23 20:59:50.69	336.53	1.99	-53.3	-55.4	6.2	0.00e+00	0	55	104	27942453248	77	19200
2026-01-23 20:59:51.70	336.63	1.93	-53.3	-55.4	6.2	0.00e+00	0	56	104	27942453248	77	19197
2026-01-23 20:59:52.71	336.74	1.87	-53.3	-55.4	6.2	0.00e+00	0	55	104	27942453248	77	19141

#Closed at: 2026-01-23 20:59:52
#Recorded file [27942 MB]: D:/lorett/data/31041_260123_235039.dat