passes_logs/2026/01/23/R3.2S_Murmansk/R3.2S_Murmansk__20260123_052056_SUOMI_NPP_rec.log

#Pass ID: 20260123_052056_SUOMI NPP
#Satellite: SUOMI NPP
#Configuration: NPP
#almurnet v.1.7.20251203
#Start time: 2026-01-23 05:20:58

#Version: 2.2.20231116
#Station: R3.2S_Murmansk
#Location: 33.079688 lon 68.888172 lat
#TLE: 1 37849U 11061A   26022.50498765  .00000208  00000+0  11976-3 0  9992
#TLE: 2 37849  98.7820 324.4892 0002275  50.8149 309.3229 14.19528284737775

#Time	Az	El	Level	Level2	SNR	BER	BlckErr	Temp	State	Recorded	gain1	gain2
2026-01-23 05:20:58.41	63.73	2.08	-54.2	-69.3	3.8	1.49e+00	0	41	0	0	79	21045
2026-01-23 05:20:59.42	63.66	2.14	-54.2	-69.3	3.8	1.49e+00	0	41	104	0	79	21060
2026-01-23 05:21:00.43	63.60	2.20	-54.2	-69.3	3.8	1.49e+00	0	41	104	0	79	21032
2026-01-23 05:21:01.43	63.53	2.25	-54.2	-69.2	3.8	1.49e+00	0	41	104	0	79	20981
2026-01-23 05:21:02.44	63.47	2.31	-54.3	-69.3	3.8	1.49e+00	0	41	104	0	79	21148
2026-01-23 05:21:03.45	63.40	2.37	-54.4	-69.4	3.8	1.49e+00	0	41	104	0	79	21370
2026-01-23 05:21:04.46	63.34	2.43	-54.4	-69.4	3.8	1.49e+00	0	41	104	0	79	21376
2026-01-23 05:21:05.47	63.27	2.48	-54.4	-69.4	3.8	1.49e+00	0	41	104	0	79	21365
2026-01-23 05:21:06.48	63.20	2.54	-54.4	-69.4	3.8	1.49e+00	0	41	104	0	79	21457
2026-01-23 05:21:07.48	63.14	2.60	-54.4	-69.4	3.8	1.49e+00	0	41	104	0	79	21385
2026-01-23 05:21:08.49	63.07	2.66	-54.4	-69.4	3.8	1.49e+00	0	41	104	0	79	21381
2026-01-23 05:21:09.50	63.00	2.72	-54.4	-69.4	3.8	1.49e+00	0	42	104	0	79	21316
2026-01-23 05:21:10.51	62.93	2.77	-54.3	-69.3	3.8	1.49e+00	0	41	104	0	79	21105
2026-01-23 05:21:11.52	62.87	2.83	-54.2	-69.2	3.8	1.49e+00	0	42	104	0	79	20978
2026-01-23 05:21:12.53	62.80	2.89	-54.2	-69.2	3.8	1.49e+00	0	41	104	0	79	20821
2026-01-23 05:21:13.53	62.73	2.95	-54.1	-69.1	3.8	1.49e+00	0	41	104	0	79	20731
2026-01-23 05:21:14.54	62.66	3.01	-54.1	-69.1	3.8	1.49e+00	0	41	104	0	79	20619
2026-01-23 05:21:15.55	62.59	3.07	-54.0	-69.0	3.8	1.49e+00	0	41	104	0	79	20526
2026-01-23 05:21:16.56	62.52	3.12	-53.9	-68.9	3.8	1.49e+00	0	42	104	0	79	20224
2026-01-23 05:21:17.56	62.45	3.18	-53.9	-68.8	3.8	1.49e+00	0	42	104	0	79	20060
2026-01-23 05:21:18.57	62.38	3.24	-53.8	-68.7	3.8	1.49e+00	0	42	104	0	79	19832
2026-01-23 05:21:19.58	62.31	3.30	-53.7	-68.6	3.8	1.49e+00	0	42	104	0	79	19529
2026-01-23 05:21:20.59	62.24	3.36	-53.6	-68.5	3.8	1.49e+00	0	41	104	0	79	19345
2026-01-23 05:21:21.60	62.17	3.42	-53.4	-68.3	3.8	1.49e+00	0	42	104	0	78	20055
2026-01-23 05:21:22.61	62.10	3.48	-53.2	-68.1	3.8	1.49e+00	0	42	104	0	78	19613
2026-01-23 05:21:23.62	62.03	3.54	-52.9	-67.8	3.8	1.49e+00	0	42	104	0	77	20070
2026-01-23 05:21:24.62	61.96	3.60	-52.5	-67.3	3.8	1.49e+00	0	42	104	0	77	18885
2026-01-23 05:21:25.63	61.88	3.66	-52.4	-67.3	3.8	1.49e+00	0	42	104	0	76	20054
2026-01-23 05:21:26.64	61.81	3.72	-52.4	-67.3	3.8	1.49e+00	0	42	104	0	76	19978
2026-01-23 05:21:27.65	61.74	3.78	-52.4	-67.2	3.8	1.49e+00	0	42	104	0	76	19738
2026-01-23 05:21:28.65	61.67	3.83	-52.3	-67.0	3.8	1.49e+00	0	42	104	0	76	19377
2026-01-23 05:21:29.66	61.59	3.89	-52.3	-66.6	3.8	1.49e+00	0	42	104	0	76	18454
2026-01-23 05:21:30.67	61.52	3.95	-52.3	-66.2	3.8	1.49e+00	0	42	104	0	76	17620
2026-01-23 05:21:31.68	61.44	4.01	-52.3	-66.1	3.8	1.49e+00	0	42	104	0	76	17307
2026-01-23 05:21:32.69	61.37	4.07	-52.3	-65.8	3.8	1.49e+00	0	42	104	0	76	16831
2026-01-23 05:21:33.69	61.30	4.13	-52.3	-65.8	3.8	1.49e+00	0	42	104	0	76	16883
2026-01-23 05:21:34.70	61.22	4.19	-52.3	-65.7	3.8	1.49e+00	0	42	104	0	76	16537
2026-01-23 05:21:35.71	61.15	4.25	-52.2	-65.3	3.8	1.49e+00	0	42	104	0	76	15868
2026-01-23 05:21:36.72	61.07	4.32	-52.2	-64.0	4.1	1.46e+00	0	42	104	0	76	13624
2026-01-23 05:21:37.73	60.99	4.38	-52.0	-62.5	4.6	1.23e+00	0	42	0	1048576	76	11486
2026-01-23 05:21:38.74	60.92	4.44	-51.8	-60.7	5.6	6.86e-01	0	42	0	2097152	75	9881
2026-01-23 05:21:39.75	60.84	4.50	-51.5	-59.2	6.8	2.28e-01	0	42	0	4194304	75	8358
2026-01-23 05:21:40.75	60.76	4.56	-51.3	-58.0	8.0	1.09e-01	0	42	0	6291456	74	7638
2026-01-23 05:21:41.76	60.69	4.62	-51.1	-57.2	8.8	4.27e-02	0	42	0	8388608	74	6964
2026-01-23 05:21:42.77	60.61	4.68	-50.8	-56.5	9.4	1.57e-02	0	42	0	10485760	73	6807
2026-01-23 05:21:43.78	60.53	4.74	-50.7	-56.0	10.0	1.08e-02	0	42	0	11534336	73	6452
2026-01-23 05:21:44.78	60.45	4.80	-50.8	-56.3	9.7	9.20e-03	0	42	0	13631488	73	6682
2026-01-23 05:21:45.79	60.37	4.86	-50.8	-56.4	9.6	1.08e-02	0	42	0	15728640	73	6784
2026-01-23 05:21:46.80	60.30	4.92	-51.1	-57.2	8.7	2.18e-02	0	42	0	17825792	73	7452
2026-01-23 05:21:47.81	60.22	4.98	-51.3	-58.0	7.9	5.48e-02	0	42	0	19922944	73	8165
2026-01-23 05:21:48.82	60.14	5.05	-51.5	-59.2	6.9	1.41e-01	0	42	0	20971520	73	9281
2026-01-23 05:21:49.83	60.06	5.11	-48.9	-51.9	14.3	2.21e-02	0	42	0	23068672	69	5068
2026-01-23 05:21:50.84	59.98	5.17	-50.4	-55.1	11.2	1.06e-05	0	42	0	25165824	71	6546
2026-01-23 05:21:51.85	59.90	5.23	-52.2	-65.9	3.8	1.22e-02	0	42	0	27262976	75	17890
2026-01-23 05:21:52.85	59.81	5.29	-47.7	-50.0	15.7	1.09e+00	0	42	104	27262976	67	4576
2026-01-23 05:21:53.86	59.73	5.35	-52.3	-67.1	3.8	5.36e-02	0	42	104	28311552	75	20735
2026-01-23 05:21:54.88	59.65	5.42	-48.2	-50.8	15.0	1.45e+00	0	42	104	28311552	68	4748
2026-01-23 05:21:55.88	59.57	5.48	-47.9	-50.3	16.0	0.00e+00	0	42	0	29360128	67	4713
2026-01-23 05:21:56.89	59.49	5.54	-48.0	-50.6	15.7	0.00e+00	0	42	0	31457280	67	4886
2026-01-23 05:21:57.90	59.40	5.60	-47.8	-50.2	16.0	0.00e+00	0	43	0	33554432	67	4689
2026-01-23 05:21:58.91	59.32	5.67	-47.7	-50.0	16.2	0.00e+00	0	43	0	35651584	67	4581
2026-01-23 05:21:59.92	59.24	5.73	-47.8	-50.2	16.1	0.00e+00	0	42	0	37748736	67	4683
2026-01-23 05:22:00.93	59.15	5.79	-47.7	-50.0	16.2	0.00e+00	0	43	0	38797312	67	4579
2026-01-23 05:22:01.94	59.07	5.85	-47.7	-50.0	16.2	0.00e+00	0	42	0	40894464	67	4588
2026-01-23 05:22:02.95	58.98	5.92	-47.5	-49.8	16.5	0.00e+00	0	42	0	42991616	67	4465
2026-01-23 05:22:03.96	58.90	5.98	-47.5	-49.7	16.6	0.00e+00	0	43	0	45088768	67	4439
2026-01-23 05:22:04.97	58.81	6.04	-47.5	-49.7	16.7	0.00e+00	0	42	0	46137344	66	4656
2026-01-23 05:22:05.97	58.73	6.10	-47.8	-50.1	16.2	0.00e+00	0	42	0	48234496	66	4923
2026-01-23 05:22:06.98	58.64	6.17	-47.6	-49.9	16.4	0.00e+00	0	42	0	50331648	66	4804
2026-01-23 05:22:07.99	58.55	6.23	-47.6	-49.9	16.4	0.00e+00	0	42	0	52428800	66	4813
2026-01-23 05:22:09.00	58.47	6.29	-47.7	-50.1	16.3	0.00e+00	0	43	0	54525952	66	4882
2026-01-23 05:22:10.01	58.38	6.36	-48.0	-50.5	15.9	0.00e+00	0	43	0	56623104	66	5128
2026-01-23 05:22:11.02	58.29	6.42	-47.8	-50.2	16.1	0.00e+00	0	42	0	57671680	66	4970
2026-01-23 05:22:12.03	58.20	6.48	-48.2	-50.9	15.6	0.00e+00	0	42	0	59768832	67	5059
2026-01-23 05:22:13.04	58.11	6.55	-48.1	-50.6	15.8	0.00e+00	0	42	0	61865984	67	4911
2026-01-23 05:22:14.04	58.03	6.61	-48.1	-50.7	15.7	0.00e+00	0	42	0	63963136	67	4932
2026-01-23 05:22:15.05	57.94	6.67	-47.9	-50.3	16.1	0.00e+00	0	42	0	66060288	67	4748
2026-01-23 05:22:16.06	57.85	6.74	-47.8	-50.2	16.2	0.00e+00	0	42	0	67108864	67	4669
2026-01-23 05:22:17.07	57.76	6.80	-47.8	-50.2	16.2	0.00e+00	0	43	0	69206016	67	4668
2026-01-23 05:22:18.08	57.67	6.87	-47.9	-50.3	16.1	0.00e+00	0	42	0	71303168	67	4719
2026-01-23 05:22:19.09	57.57	6.93	-47.9	-50.3	16.1	0.00e+00	0	43	0	73400320	67	4730
2026-01-23 05:22:20.10	57.48	7.00	-47.9	-50.4	16.0	0.00e+00	0	42	0	74448896	67	4782
2026-01-23 05:22:21.11	57.39	7.06	-48.0	-50.5	16.0	0.00e+00	0	42	0	76546048	67	4836
2026-01-23 05:22:22.12	57.30	7.12	-48.0	-50.5	15.9	0.00e+00	0	42	0	78643200	67	4846
2026-01-23 05:22:23.13	57.20	7.19	-47.9	-50.4	16.0	0.00e+00	0	43	0	80740352	67	4788
2026-01-23 05:22:24.14	57.11	7.25	-48.0	-50.5	15.9	0.00e+00	0	42	0	82837504	67	4834
2026-01-23 05:22:25.15	57.02	7.32	-47.9	-50.3	16.2	0.00e+00	0	43	0	84934656	67	4737
2026-01-23 05:22:26.16	56.92	7.38	-47.7	-49.9	16.6	0.00e+00	0	43	0	85983232	67	4538
2026-01-23 05:22:27.17	56.83	7.45	-47.6	-49.8	16.7	0.00e+00	0	43	0	88080384	67	4487
2026-01-23 05:22:28.17	56.73	7.51	-47.5	-49.7	16.8	0.00e+00	0	43	0	90177536	66	4697
2026-01-23 05:22:29.18	56.64	7.58	-47.5	-49.7	16.8	0.00e+00	0	43	0	92274688	66	4700
2026-01-23 05:22:30.19	56.54	7.64	-47.3	-49.4	17.1	0.00e+00	0	43	0	94371840	66	4498
2026-01-23 05:22:31.20	56.45	7.71	-47.3	-49.5	17.1	0.00e+00	0	43	0	95420416	66	4546
2026-01-23 05:22:32.20	56.35	7.77	-47.4	-49.6	16.9	0.00e+00	0	43	0	97517568	66	4606
2026-01-23 05:22:33.21	56.25	7.84	-47.3	-49.4	17.1	0.00e+00	0	43	0	99614720	66	4503
2026-01-23 05:22:34.22	56.16	7.90	-47.4	-49.6	17.0	0.00e+00	0	43	0	101711872	66	4612
2026-01-23 05:22:35.23	56.06	7.97	-47.3	-49.4	17.2	0.00e+00	0	43	0	103809024	66	4513
2026-01-23 05:22:36.24	55.96	8.03	-47.5	-49.6	16.9	0.00e+00	0	43	0	104857600	66	4630
2026-01-23 05:22:37.25	55.86	8.10	-47.4	-49.6	17.0	0.00e+00	0	43	0	106954752	66	4602
2026-01-23 05:22:38.26	55.76	8.17	-47.1	-49.1	17.4	0.00e+00	0	43	0	109051904	66	4357
2026-01-23 05:22:39.27	55.66	8.23	-47.1	-49.1	17.5	0.00e+00	0	43	0	111149056	66	4347
2026-01-23 05:22:40.27	55.56	8.30	-47.0	-49.0	17.5	0.00e+00	0	43	0	113246208	65	4568
2026-01-23 05:22:41.28	55.46	8.36	-46.9	-48.9	17.7	0.00e+00	0	43	0	114294784	65	4508
2026-01-23 05:22:42.29	55.36	8.43	-47.1	-49.1	17.5	0.00e+00	0	42	0	116391936	65	4602
2026-01-23 05:22:43.30	55.26	8.50	-47.0	-48.9	17.6	0.00e+00	0	43	0	118489088	65	4527
2026-01-23 05:22:44.31	55.15	8.56	-47.0	-49.0	17.6	0.00e+00	0	43	0	120586240	65	4580
2026-01-23 05:22:45.31	55.05	8.63	-47.2	-49.2	17.4	0.00e+00	0	43	0	122683392	65	4679
2026-01-23 05:22:46.32	54.95	8.70	-47.2	-49.2	17.4	0.00e+00	0	43	0	123731968	65	4658
2026-01-23 05:22:47.33	54.85	8.76	-47.0	-48.9	17.7	0.00e+00	0	43	0	125829120	65	4533
2026-01-23 05:22:48.34	54.74	8.83	-47.2	-49.2	17.4	0.00e+00	0	43	0	127926272	65	4667
2026-01-23 05:22:49.35	54.64	8.90	-47.1	-49.1	17.5	0.00e+00	0	43	0	130023424	65	4613
2026-01-23 05:22:50.35	54.53	8.96	-47.2	-49.2	17.4	0.00e+00	0	43	0	132120576	65	4683
2026-01-23 05:22:51.36	54.43	9.03	-47.1	-49.0	17.6	0.00e+00	0	43	0	133169152	65	4582
2026-01-23 05:22:52.37	54.32	9.10	-47.0	-49.0	17.6	0.00e+00	0	43	0	135266304	65	4565
2026-01-23 05:22:53.38	54.21	9.16	-47.2	-49.2	17.4	0.00e+00	0	43	0	137363456	65	4654
2026-01-23 05:22:54.38	54.11	9.23	-47.0	-48.9	17.7	0.00e+00	0	43	0	139460608	65	4537
2026-01-23 05:22:55.39	54.00	9.30	-47.1	-49.0	17.6	0.00e+00	0	43	0	141557760	65	4593
2026-01-23 05:22:56.40	53.89	9.36	-47.2	-49.3	17.4	0.00e+00	0	43	0	142606336	65	4707
2026-01-23 05:22:57.41	53.78	9.43	-47.3	-49.3	17.4	0.00e+00	0	43	0	144703488	65	4742
2026-01-23 05:22:58.42	53.67	9.50	-47.5	-49.6	17.1	0.00e+00	0	43	0	146800640	65	4896
2026-01-23 05:22:59.42	53.56	9.57	-47.5	-49.7	17.0	0.00e+00	0	43	0	148897792	65	4945
2026-01-23 05:23:00.43	53.45	9.63	-47.4	-49.5	17.1	0.00e+00	0	43	0	150994944	65	4847
2026-01-23 05:23:01.44	53.34	9.70	-47.4	-49.5	17.2	0.00e+00	0	43	0	152043520	66	4577
2026-01-23 05:23:02.45	53.23	9.77	-47.3	-49.4	17.4	0.00e+00	0	43	0	154140672	66	4495
2026-01-23 05:23:03.45	53.12	9.84	-47.3	-49.3	17.4	0.00e+00	0	43	0	156237824	66	4482
2026-01-23 05:23:04.46	53.01	9.91	-47.4	-49.4	17.2	0.00e+00	0	43	0	158334976	66	4543
2026-01-23 05:23:05.47	52.89	9.97	-47.3	-49.3	17.4	0.00e+00	0	43	0	160432128	66	4451
2026-01-23 05:23:06.48	52.78	10.04	-47.6	-49.7	17.0	0.00e+00	0	43	0	161480704	66	4689
2026-01-23 05:23:07.48	52.67	10.11	-47.3	-49.3	17.4	0.00e+00	0	43	0	163577856	66	4458
2026-01-23 05:23:08.49	52.55	10.18	-47.4	-49.4	17.4	0.00e+00	0	43	0	165675008	66	4510
2026-01-23 05:23:09.50	52.44	10.25	-47.4	-49.4	17.3	0.00e+00	0	43	0	167772160	66	4516
2026-01-23 05:23:10.51	52.32	10.31	-47.4	-49.4	17.3	0.00e+00	0	43	0	169869312	66	4522
2026-01-23 05:23:11.51	52.21	10.38	-47.4	-49.4	17.3	0.00e+00	0	43	0	171966464	66	4528
2026-01-23 05:23:12.52	52.09	10.45	-47.3	-49.3	17.4	0.00e+00	0	43	0	173015040	66	4456
2026-01-23 05:23:13.53	51.97	10.52	-47.3	-49.2	17.5	0.00e+00	0	43	0	175112192	66	4433
2026-01-23 05:23:14.54	51.85	10.59	-47.4	-49.5	17.2	0.00e+00	0	43	0	177209344	66	4563
2026-01-23 05:23:15.55	51.73	10.66	-47.3	-49.3	17.5	0.00e+00	0	43	0	179306496	66	4446
2026-01-23 05:23:16.55	51.62	10.73	-47.1	-49.1	17.7	0.00e+00	0	43	0	180355072	66	4343
2026-01-23 05:23:17.56	51.50	10.79	-47.1	-49.1	17.7	0.00e+00	0	43	0	182452224	66	4355
2026-01-23 05:23:18.57	51.38	10.86	-46.9	-48.8	17.9	0.00e+00	0	43	0	184549376	65	4457
2026-01-23 05:23:19.58	51.26	10.93	-46.8	-48.6	18.1	0.00e+00	0	43	0	186646528	65	4379
2026-01-23 05:23:20.59	51.13	11.00	-47.0	-48.9	17.9	0.00e+00	0	43	0	188743680	65	4501
2026-01-23 05:23:21.59	51.01	11.07	-46.8	-48.7	18.0	0.00e+00	0	43	0	189792256	65	4409
2026-01-23 05:23:22.60	50.89	11.14	-46.9	-48.7	17.9	0.00e+00	0	43	0	191889408	65	4441
2026-01-23 05:23:23.61	50.77	11.21	-46.8	-48.6	18.1	0.00e+00	0	43	0	193986560	65	4370
2026-01-23 05:23:24.61	50.64	11.28	-46.6	-48.3	18.4	0.00e+00	0	43	0	196083712	65	4223
2026-01-23 05:23:25.62	50.52	11.35	-46.6	-48.3	18.4	0.00e+00	0	43	0	198180864	65	4224
2026-01-23 05:23:26.63	50.39	11.42	-46.5	-48.3	18.4	0.00e+00	0	43	0	200278016	65	4214
2026-01-23 05:23:27.64	50.27	11.49	-46.8	-48.6	18.2	0.00e+00	0	43	0	201326592	65	4347
2026-01-23 05:23:28.65	50.14	11.56	-46.8	-48.6	18.2	0.00e+00	0	43	0	203423744	65	4351
2026-01-23 05:23:29.66	50.02	11.63	-46.5	-48.2	18.5	0.00e+00	0	43	0	205520896	64	4441
2026-01-23 05:23:30.66	49.89	11.70	-46.5	-48.2	18.5	0.00e+00	0	43	0	207618048	64	4411
2026-01-23 05:23:31.67	49.76	11.77	-46.5	-48.3	18.4	0.00e+00	0	43	0	208666624	64	4457
2026-01-23 05:23:32.68	49.63	11.84	-46.4	-48.1	18.7	0.00e+00	0	43	0	210763776	64	4347
2026-01-23 05:23:33.69	49.50	11.91	-46.4	-48.2	18.6	0.00e+00	0	43	0	212860928	64	4398
2026-01-23 05:23:34.69	49.37	11.98	-46.3	-47.9	18.8	0.00e+00	0	43	0	214958080	64	4284
2026-01-23 05:23:35.70	49.24	12.05	-46.4	-48.1	18.6	0.00e+00	0	43	0	217055232	64	4389
2026-01-23 05:23:36.71	49.11	12.12	-46.4	-48.1	18.7	0.00e+00	0	43	0	219152384	64	4353
2026-01-23 05:23:37.72	48.98	12.19	-46.3	-48.0	18.8	0.00e+00	0	43	0	220200960	64	4319
2026-01-23 05:23:38.73	48.85	12.26	-46.3	-48.0	18.8	0.00e+00	0	43	0	222298112	64	4293
2026-01-23 05:23:39.73	48.71	12.33	-46.4	-48.1	18.7	0.00e+00	0	43	0	224395264	64	4344
2026-01-23 05:23:40.74	48.58	12.40	-46.2	-47.9	18.9	0.00e+00	0	43	0	226492416	64	4258
2026-01-23 05:23:41.75	48.45	12.47	-46.0	-47.6	19.1	0.00e+00	0	43	0	228589568	64	4135
2026-01-23 05:23:42.76	48.31	12.54	-46.2	-47.8	18.9	0.00e+00	0	43	0	229638144	64	4200
2026-01-23 05:23:43.77	48.17	12.61	-46.3	-48.0	18.8	0.00e+00	0	43	0	231735296	64	4323
2026-01-23 05:23:44.78	48.04	12.68	-46.2	-47.8	19.0	0.00e+00	0	43	0	233832448	64	4219
2026-01-23 05:23:45.79	47.90	12.75	-46.3	-48.0	18.8	0.00e+00	0	43	0	235929600	64	4313
2026-01-23 05:23:46.79	47.76	12.82	-46.3	-47.9	18.8	0.00e+00	0	43	0	236978176	64	4283
2026-01-23 05:23:47.80	47.63	12.89	-46.4	-48.1	18.7	0.00e+00	0	43	0	239075328	64	4345
2026-01-23 05:23:48.81	47.49	12.96	-46.3	-48.0	18.8	0.00e+00	0	43	0	241172480	64	4316
2026-01-23 05:23:49.82	47.35	13.03	-46.2	-47.9	18.9	0.00e+00	0	43	0	243269632	64	4244
2026-01-23 05:23:50.82	47.21	13.10	-46.3	-48.0	18.8	0.00e+00	0	43	0	245366784	64	4302
2026-01-23 05:23:51.83	47.07	13.17	-46.3	-47.9	18.8	0.00e+00	0	43	0	247463936	64	4285
2026-01-23 05:23:52.84	46.92	13.24	-46.3	-48.0	18.8	0.00e+00	0	43	0	248512512	64	4304
2026-01-23 05:23:53.85	46.78	13.31	-46.5	-48.3	18.5	0.00e+00	0	43	0	250609664	64	4448
2026-01-23 05:23:54.86	46.64	13.38	-46.4	-48.2	18.6	0.00e+00	0	43	0	252706816	64	4393
2026-01-23 05:23:55.86	46.49	13.45	-46.5	-48.2	18.6	0.00e+00	0	43	0	254803968	64	4428
2026-01-23 05:23:56.87	46.35	13.53	-46.3	-48.0	18.7	0.00e+00	0	43	0	256901120	64	4297
2026-01-23 05:23:57.88	46.20	13.60	-46.4	-48.2	18.7	0.00e+00	0	43	0	257949696	64	4392
2026-01-23 05:23:58.89	46.06	13.67	-46.2	-47.9	18.8	0.00e+00	0	43	0	260046848	64	4279
2026-01-23 05:23:59.90	45.91	13.74	-46.3	-48.0	18.7	0.00e+00	0	43	0	262144000	64	4320
2026-01-23 05:24:00.91	45.76	13.81	-46.5	-48.3	18.5	0.00e+00	0	43	0	264241152	64	4450
2026-01-23 05:24:01.91	45.62	13.88	-46.6	-48.4	18.4	0.00e+00	0	43	0	266338304	64	4530
2026-01-23 05:24:02.92	45.47	13.95	-46.4	-48.2	18.6	0.00e+00	0	43	0	267386880	64	4434
2026-01-23 05:24:03.93	45.32	14.02	-46.5	-48.3	18.5	0.00e+00	0	43	0	269484032	64	4478
2026-01-23 05:24:04.94	45.17	14.09	-46.4	-48.1	18.8	0.00e+00	0	43	0	271581184	64	4363
2026-01-23 05:24:05.95	45.02	14.16	-46.4	-48.2	18.7	0.00e+00	0	43	0	273678336	64	4401
2026-01-23 05:24:06.95	44.87	14.23	-46.4	-48.2	18.6	0.00e+00	0	43	0	275775488	64	4409
2026-01-23 05:24:07.96	44.71	14.31	-46.3	-48.1	18.7	0.00e+00	0	43	0	276824064	64	4349
2026-01-23 05:24:08.97	44.56	14.38	-46.4	-48.2	18.7	0.00e+00	0	43	0	278921216	64	4398
2026-01-23 05:24:09.98	44.40	14.45	-46.5	-48.2	18.6	0.00e+00	0	43	0	281018368	64	4416
2026-01-23 05:24:10.99	44.25	14.52	-46.3	-48.0	18.8	0.00e+00	0	43	0	283115520	64	4326
2026-01-23 05:24:11.99	44.10	14.59	-46.4	-48.1	18.7	0.00e+00	0	43	0	285212672	64	4378
2026-01-23 05:24:13.00	43.94	14.66	-46.5	-48.2	18.7	0.00e+00	0	43	0	286261248	64	4433
2026-01-23 05:24:14.01	43.78	14.73	-46.3	-48.1	18.7	0.00e+00	0	43	0	288358400	64	4345
2026-01-23 05:24:15.02	43.62	14.80	-46.6	-48.4	18.5	0.00e+00	0	43	0	290455552	64	4513
2026-01-23 05:24:16.02	43.47	14.87	-46.7	-48.5	18.4	0.00e+00	0	43	0	292552704	64	4554
2026-01-23 05:24:17.03	43.31	14.94	-46.7	-48.6	18.3	0.00e+00	0	43	0	294649856	64	4621
2026-01-23 05:24:18.04	43.15	15.01	-46.9	-48.8	18.1	0.00e+00	0	43	0	295698432	64	4717
2026-01-23 05:24:19.05	42.98	15.08	-46.9	-48.8	18.0	0.00e+00	0	43	0	297795584	64	4753
2026-01-23 05:24:20.06	42.82	15.16	-46.9	-48.8	18.1	0.00e+00	0	43	0	299892736	64	4738
2026-01-23 05:24:21.07	42.66	15.23	-47.2	-49.1	17.7	0.00e+00	0	43	0	301989888	65	4651
2026-01-23 05:24:22.07	42.50	15.30	-47.0	-49.0	17.8	0.00e+00	0	43	0	304087040	65	4577
2026-01-23 05:24:23.08	42.33	15.37	-47.1	-49.1	17.8	0.00e+00	0	43	0	305135616	65	4632
2026-01-23 05:24:24.09	42.17	15.44	-46.9	-48.8	18.1	0.00e+00	0	43	0	307232768	65	4450
2026-01-23 05:24:25.10	42.00	15.51	-46.6	-48.4	18.4	0.00e+00	0	43	0	309329920	65	4256
2026-01-23 05:24:26.11	41.84	15.58	-46.6	-48.3	18.4	0.00e+00	0	43	0	311427072	65	4211
2026-01-23 05:24:27.11	41.67	15.65	-46.6	-48.4	18.4	0.00e+00	0	43	0	313524224	65	4252
2026-01-23 05:24:28.12	41.50	15.72	-46.7	-48.5	18.3	0.00e+00	0	43	0	315621376	65	4314
2026-01-23 05:24:29.13	41.33	15.79	-46.7	-48.4	18.4	0.00e+00	0	43	0	316669952	65	4282
2026-01-23 05:24:30.14	41.16	15.86	-46.8	-48.6	18.3	0.00e+00	0	43	0	318767104	65	4371
2026-01-23 05:24:31.15	40.99	15.93	-46.7	-48.5	18.3	0.00e+00	0	43	0	320864256	65	4300
2026-01-23 05:24:32.15	40.82	16.00	-46.5	-48.2	18.6	0.00e+00	0	43	0	322961408	65	4189
2026-01-23 05:24:33.16	40.65	16.07	-46.8	-48.6	18.2	0.00e+00	0	43	0	324009984	65	4378
2026-01-23 05:24:34.17	40.48	16.14	-46.7	-48.5	18.3	0.00e+00	0	43	0	326107136	65	4313
2026-01-23 05:24:35.17	40.30	16.21	-46.6	-48.4	18.5	0.00e+00	0	43	0	328204288	65	4255
2026-01-23 05:24:36.18	40.13	16.28	-46.5	-48.2	18.6	0.00e+00	0	43	0	330301440	65	4184
2026-01-23 05:24:37.19	39.95	16.35	-46.4	-48.1	18.7	0.00e+00	0	43	0	332398592	64	4379
2026-01-23 05:24:38.20	39.78	16.42	-46.5	-48.3	18.5	0.00e+00	0	43	0	333447168	64	4448
2026-01-23 05:24:39.21	39.60	16.49	-46.6	-48.3	18.5	0.00e+00	0	43	0	335544320	64	4493
2026-01-23 05:24:40.22	39.42	16.56	-46.5	-48.2	18.6	0.00e+00	0	43	0	337641472	64	4429
2026-01-23 05:24:41.23	39.24	16.63	-46.6	-48.4	18.5	0.00e+00	0	43	0	339738624	64	4495
2026-01-23 05:24:42.23	39.06	16.70	-47.0	-48.8	18.2	0.00e+00	0	43	0	341835776	64	4738
2026-01-23 05:24:43.24	38.88	16.77	-47.2	-49.1	17.8	0.00e+00	0	43	0	343932928	64	4873
2026-01-23 05:24:44.25	38.70	16.84	-47.0	-48.9	18.0	0.00e+00	0	43	0	344981504	64	4775
2026-01-23 05:24:45.26	38.52	16.91	-47.2	-49.1	17.8	0.00e+00	0	43	0	347078656	64	4922
2026-01-23 05:24:46.27	38.34	16.98	-47.0	-48.9	18.0	0.00e+00	0	43	0	349175808	65	4537
2026-01-23 05:24:47.27	38.15	17.05	-47.1	-49.0	17.9	0.00e+00	0	43	0	351272960	65	4580
2026-01-23 05:24:48.28	37.97	17.12	-47.0	-48.9	18.0	0.00e+00	0	43	0	352321536	65	4516
2026-01-23 05:24:49.29	37.78	17.19	-46.8	-48.7	18.2	0.00e+00	0	43	0	354418688	65	4410
2026-01-23 05:24:50.30	37.60	17.25	-46.9	-48.7	18.3	0.00e+00	0	43	0	356515840	65	4423
2026-01-23 05:24:51.30	37.41	17.32	-46.5	-48.2	18.6	0.00e+00	0	43	0	358612992	65	4185
2026-01-23 05:24:52.31	37.22	17.39	-46.2	-47.8	19.1	0.00e+00	0	43	0	360710144	64	4212
2026-01-23 05:24:53.32	37.03	17.46	-46.2	-47.8	19.1	0.00e+00	0	43	0	362807296	64	4196
2026-01-23 05:24:54.33	36.84	17.53	-46.1	-47.6	19.4	0.00e+00	0	43	0	363855872	63	4374
2026-01-23 05:24:55.34	36.65	17.60	-46.2	-47.7	19.2	0.00e+00	0	43	0	365953024	63	4434
2026-01-23 05:24:56.35	36.46	17.66	-46.3	-48.0	19.0	0.00e+00	0	43	0	368050176	63	4555
2026-01-23 05:24:57.35	36.27	17.73	-46.3	-48.0	19.0	0.00e+00	0	43	0	370147328	63	4557
2026-01-23 05:24:58.36	36.07	17.80	-46.5	-48.2	18.9	0.00e+00	0	43	0	372244480	63	4654
2026-01-23 05:24:59.37	35.88	17.87	-46.1	-47.8	19.2	0.00e+00	0	43	0	373293056	63	4448
2026-01-23 05:25:00.38	35.68	17.93	-46.0	-47.6	19.4	0.00e+00	0	43	0	375390208	63	4362
2026-01-23 05:25:01.38	35.49	18.00	-46.0	-47.6	19.3	0.00e+00	0	43	0	377487360	63	4383
2026-01-23 05:25:02.39	35.29	18.07	-46.1	-47.7	19.2	0.00e+00	0	43	0	379584512	63	4421
2026-01-23 05:25:03.40	35.10	18.13	-45.9	-47.5	19.4	0.00e+00	0	43	0	380633088	63	4310
2026-01-23 05:25:04.41	34.90	18.20	-45.8	-47.4	19.6	0.00e+00	0	43	0	382730240	63	4262
2026-01-23 05:25:05.42	34.70	18.27	-45.6	-47.1	19.7	0.00e+00	0	43	0	384827392	63	4144
2026-01-23 05:25:06.43	34.50	18.33	-45.4	-46.9	19.9	0.00e+00	0	43	0	386924544	62	4260
2026-01-23 05:25:07.43	34.30	18.40	-45.3	-46.7	20.1	0.00e+00	0	43	0	389021696	62	4168
2026-01-23 05:25:08.44	34.09	18.46	-45.3	-46.7	20.1	0.00e+00	0	43	0	391118848	62	4179
2026-01-23 05:25:09.45	33.89	18.53	-45.2	-46.6	20.3	0.00e+00	0	43	0	392167424	62	4121
2026-01-23 05:25:10.46	33.69	18.60	-45.3	-46.7	20.1	0.00e+00	0	43	0	394264576	62	4172
2026-01-23 05:25:11.47	33.48	18.66	-45.3	-46.8	20.1	0.00e+00	0	43	0	396361728	62	4219
2026-01-23 05:25:12.47	33.28	18.73	-45.3	-46.7	20.2	0.00e+00	0	43	0	398458880	62	4183
2026-01-23 05:25:13.48	33.07	18.79	-45.4	-46.9	20.0	0.00e+00	0	43	0	400556032	62	4262
2026-01-23 05:25:14.49	32.86	18.86	-45.3	-46.7	20.2	0.00e+00	0	43	0	401604608	62	4188
2026-01-23 05:25:15.49	32.66	18.92	-45.1	-46.5	20.4	0.00e+00	0	43	0	403701760	62	4069
2026-01-23 05:25:16.50	32.45	18.98	-45.1	-46.5	20.2	0.00e+00	0	43	0	405798912	62	4086
2026-01-23 05:25:17.51	32.24	19.05	-45.1	-46.5	20.3	0.00e+00	0	43	0	407896064	62	4083
2026-01-23 05:25:18.52	32.02	19.11	-44.7	-46.0	20.8	0.00e+00	0	43	0	409993216	61	4059
2026-01-23 05:25:19.53	31.81	19.18	-44.7	-46.0	20.8	0.00e+00	0	43	0	411041792	61	4082
2026-01-23 05:25:20.53	31.60	19.24	-44.6	-45.8	20.9	0.00e+00	0	43	0	413138944	61	3993
2026-01-23 05:25:21.54	31.39	19.30	-44.6	-45.9	20.9	0.00e+00	0	43	0	415236096	61	4027
2026-01-23 05:25:22.55	31.17	19.36	-44.8	-46.1	20.7	0.00e+00	0	43	0	417333248	61	4145
2026-01-23 05:25:23.56	30.96	19.43	-44.8	-46.2	20.6	0.00e+00	0	43	0	419430400	61	4147
2026-01-23 05:25:24.56	30.74	19.49	-44.8	-46.1	20.7	0.00e+00	0	43	0	420478976	61	4099
2026-01-23 05:25:25.57	30.52	19.55	-44.6	-45.8	21.0	0.00e+00	0	43	0	422576128	61	3995
2026-01-23 05:25:26.58	30.30	19.61	-44.7	-46.0	20.8	0.00e+00	0	43	0	424673280	61	4084
2026-01-23 05:25:27.59	30.09	19.67	-45.1	-46.4	20.5	0.00e+00	0	43	0	426770432	61	4290
2026-01-23 05:25:28.60	29.87	19.73	-45.2	-46.6	20.3	0.00e+00	0	43	0	428867584	61	4341
2026-01-23 05:25:29.61	29.64	19.79	-45.2	-46.6	20.3	0.00e+00	0	43	0	429916160	61	4385
2026-01-23 05:25:30.61	29.42	19.85	-45.2	-46.6	20.3	0.00e+00	0	43	0	432013312	61	4358
2026-01-23 05:25:31.62	29.20	19.91	-45.0	-46.4	20.5	0.00e+00	0	43	0	434110464	61	4252
2026-01-23 05:25:32.63	28.98	19.97	-44.6	-45.9	20.9	0.00e+00	0	43	0	436207616	61	4017
2026-01-23 05:25:33.64	28.75	20.03	-44.4	-45.7	21.1	0.00e+00	0	43	0	438304768	60	4148
2026-01-23 05:25:34.65	28.53	20.09	-44.6	-45.8	21.0	0.00e+00	0	43	0	439353344	60	4236
2026-01-23 05:25:35.65	28.30	20.15	-44.7	-46.0	20.8	0.00e+00	0	43	0	441450496	60	4313
2026-01-23 05:25:36.66	28.08	20.21	-44.7	-46.0	20.8	0.00e+00	0	43	0	443547648	60	4321
2026-01-23 05:25:37.67	27.85	20.27	-44.5	-45.7	21.1	0.00e+00	0	43	0	445644800	60	4176
2026-01-23 05:25:38.68	27.62	20.33	-44.5	-45.8	21.0	0.00e+00	0	43	0	447741952	60	4207
2026-01-23 05:25:39.68	27.39	20.38	-44.5	-45.7	21.1	0.00e+00	0	43	0	448790528	60	4193
2026-01-23 05:25:40.69	27.16	20.44	-44.4	-45.6	21.2	0.00e+00	0	43	0	450887680	60	4108
2026-01-23 05:25:41.70	26.93	20.50	-44.6	-45.9	21.0	0.00e+00	0	43	0	452984832	60	4267
2026-01-23 05:25:42.71	26.70	20.55	-44.5	-45.7	21.1	0.00e+00	0	43	0	455081984	60	4189
2026-01-23 05:25:43.72	26.46	20.61	-44.3	-45.5	21.3	0.00e+00	0	43	0	457179136	60	4075
2026-01-23 05:25:44.72	26.23	20.66	-44.3	-45.5	21.5	0.00e+00	0	43	0	458227712	59	4326
2026-01-23 05:25:45.73	25.99	20.72	-44.5	-45.7	21.4	0.00e+00	0	43	0	460324864	59	4406
2026-01-23 05:25:46.74	25.76	20.77	-44.4	-45.6	21.5	0.00e+00	0	43	0	462422016	59	4382
2026-01-23 05:25:47.75	25.52	20.83	-44.4	-45.6	21.0	0.00e+00	0	43	0	464519168	60	4116
2026-01-23 05:25:48.76	25.28	20.88	-44.5	-45.7	21.2	0.00e+00	0	43	0	466616320	60	4158
2026-01-23 05:25:49.77	25.05	20.94	-44.2	-45.3	21.5	0.00e+00	0	43	0	467664896	60	4003
2026-01-23 05:25:50.77	24.81	20.99	-44.2	-45.3	21.5	0.00e+00	0	43	0	469762048	60	3983
2026-01-23 05:25:51.78	24.57	21.04	-44.4	-45.5	21.6	0.00e+00	0	43	0	471859200	59	4333
2026-01-23 05:25:52.79	24.33	21.09	-44.4	-45.6	21.5	0.00e+00	0	43	0	473956352	59	4368
2026-01-23 05:25:53.80	24.09	21.15	-44.6	-45.8	21.4	0.00e+00	0	43	0	476053504	59	4453
2026-01-23 05:25:54.81	23.84	21.20	-44.4	-45.6	21.3	0.00e+00	0	43	0	478150656	60	4103
2026-01-23 05:25:55.81	23.60	21.25	-44.4	-45.6	21.3	0.00e+00	0	43	0	479199232	60	4111
2026-01-23 05:25:56.82	23.36	21.30	-44.4	-45.6	21.3	0.00e+00	0	43	0	481296384	60	4114
2026-01-23 05:25:57.83	23.11	21.35	-44.3	-45.5	21.4	0.00e+00	0	43	0	483393536	60	4087
2026-01-23 05:25:58.84	22.87	21.40	-44.3	-45.5	21.4	0.00e+00	0	43	0	485490688	60	4070
2026-01-23 05:25:59.84	22.62	21.45	-44.4	-45.6	21.3	0.00e+00	0	43	0	486539264	60	4107
2026-01-23 05:26:00.85	22.38	21.50	-44.4	-45.6	21.3	0.00e+00	0	43	0	488636416	60	4107
2026-01-23 05:26:01.86	22.13	21.55	-44.5	-45.7	21.2	0.00e+00	0	43	0	490733568	60	4178
2026-01-23 05:26:02.87	21.88	21.59	-44.4	-45.6	21.3	0.00e+00	0	43	0	492830720	60	4138
2026-01-23 05:26:03.88	21.63	21.64	-44.3	-45.5	21.4	0.00e+00	0	43	0	494927872	60	4076
2026-01-23 05:26:04.89	21.38	21.69	-44.4	-45.6	21.4	0.00e+00	0	43	0	495976448	60	4103
2026-01-23 05:26:05.89	21.13	21.73	-44.3	-45.5	21.4	0.00e+00	0	43	0	498073600	60	4095
2026-01-23 05:26:06.90	20.88	21.78	-44.3	-45.5	21.4	0.00e+00	0	43	0	500170752	60	4090
2026-01-23 05:26:07.91	20.62	21.82	-44.4	-45.6	21.3	0.00e+00	0	43	0	502267904	60	4113
2026-01-23 05:26:08.92	20.37	21.87	-44.1	-45.2	21.6	0.00e+00	0	43	0	504365056	60	3937
2026-01-23 05:26:09.93	20.12	21.91	-44.2	-45.4	21.8	0.00e+00	0	43	0	506462208	59	4249
2026-01-23 05:26:10.93	19.86	21.96	-44.3	-45.5	21.7	0.00e+00	0	43	0	507510784	59	4293
2026-01-23 05:26:11.94	19.61	22.00	-44.5	-45.7	21.4	0.00e+00	0	43	0	509607936	59	4433
2026-01-23 05:26:12.95	19.35	22.04	-44.4	-45.6	21.5	0.00e+00	0	43	0	511705088	59	4375
2026-01-23 05:26:13.96	19.09	22.08	-44.4	-45.6	21.7	0.00e+00	0	43	0	513802240	59	4348
2026-01-23 05:26:14.96	18.84	22.13	-44.2	-45.4	21.8	0.00e+00	0	43	0	514850816	59	4243
2026-01-23 05:26:15.97	18.58	22.17	-44.3	-45.4	21.7	0.00e+00	0	43	0	516947968	59	4287
2026-01-23 05:26:16.98	18.32	22.21	-44.4	-45.5	21.7	0.00e+00	0	43	0	519045120	59	4331
2026-01-23 05:26:17.99	18.06	22.25	-44.4	-45.6	21.6	0.00e+00	0	43	0	521142272	59	4346
2026-01-23 05:26:19.00	17.80	22.29	-44.5	-45.7	21.5	0.00e+00	0	43	0	523239424	59	4393
2026-01-23 05:26:20.00	17.54	22.33	-44.4	-45.6	21.6	0.00e+00	0	43	0	525336576	59	4342
2026-01-23 05:26:21.01	17.28	22.36	-44.7	-45.9	21.3	0.00e+00	0	43	0	526385152	59	4539
2026-01-23 05:26:22.02	17.02	22.40	-44.3	-45.5	21.4	0.00e+00	0	43	0	528482304	60	4077
2026-01-23 05:26:23.03	16.76	22.44	-44.7	-45.9	21.1	0.00e+00	0	43	0	530579456	60	4265
2026-01-23 05:26:24.04	16.49	22.47	-45.1	-46.4	20.7	0.00e+00	0	43	0	532676608	60	4522
2026-01-23 05:26:25.05	16.23	22.51	-45.3	-46.6	20.5	0.00e+00	0	43	0	534773760	61	4354
2026-01-23 05:26:26.06	15.96	22.55	-45.5	-46.9	20.2	0.00e+00	0	43	0	535822336	61	4502
2026-01-23 05:26:27.06	15.70	22.58	-45.8	-47.2	19.9	0.00e+00	0	43	0	537919488	62	4418
2026-01-23 05:26:28.07	15.43	22.61	-45.9	-47.4	19.8	0.00e+00	0	43	0	540016640	62	4503
2026-01-23 05:26:29.08	15.17	22.65	-46.0	-47.5	19.7	0.00e+00	0	43	0	542113792	62	4566
2026-01-23 05:26:30.09	14.90	22.68	-46.2	-47.7	19.5	0.00e+00	0	43	0	543162368	63	4406
2026-01-23 05:26:31.10	14.63	22.71	-46.1	-47.6	19.5	0.00e+00	0	43	0	545259520	63	4382
2026-01-23 05:26:32.10	14.37	22.74	-46.1	-47.6	19.5	0.00e+00	0	43	0	547356672	63	4389
2026-01-23 05:26:33.11	14.10	22.77	-45.9	-47.4	19.7	0.00e+00	0	43	0	549453824	63	4282
2026-01-23 05:26:34.12	13.83	22.80	-45.5	-46.9	20.2	0.00e+00	0	43	0	551550976	63	4042
2026-01-23 05:26:35.13	13.56	22.83	-45.4	-46.8	20.3	0.00e+00	0	43	0	553648128	62	4200
2026-01-23 05:26:36.14	13.29	22.86	-45.3	-46.6	20.5	0.00e+00	0	43	0	554696704	62	4125
2026-01-23 05:26:37.15	13.02	22.89	-45.2	-46.6	20.4	0.00e+00	0	43	0	556793856	62	4106
2026-01-23 05:26:38.15	12.75	22.92	-45.4	-46.7	20.3	0.00e+00	0	43	0	558891008	62	4179
2026-01-23 05:26:39.16	12.47	22.94	-45.4	-46.7	20.3	0.00e+00	0	43	0	560988160	62	4180
2026-01-23 05:26:40.17	12.20	22.97	-45.3	-46.7	20.4	0.00e+00	0	43	0	563085312	62	4159
2026-01-23 05:26:41.18	11.93	23.00	-45.3	-46.6	20.4	0.00e+00	0	43	0	564133888	62	4129
2026-01-23 05:26:42.18	11.66	23.02	-45.3	-46.7	20.3	0.00e+00	0	43	0	566231040	62	4170
2026-01-23 05:26:43.19	11.38	23.05	-45.4	-46.8	20.2	0.00e+00	0	43	0	568328192	62	4233
2026-01-23 05:26:44.20	11.11	23.07	-45.8	-47.2	19.9	0.00e+00	0	43	0	570425344	62	4435
2026-01-23 05:26:45.21	10.84	23.09	-46.0	-47.5	19.5	0.00e+00	0	43	0	572522496	62	4575
2026-01-23 05:26:46.22	10.56	23.11	-45.8	-47.3	19.7	0.00e+00	0	43	0	573571072	62	4483
2026-01-23 05:26:47.23	10.29	23.13	-45.9	-47.4	19.8	0.00e+00	0	43	0	575668224	62	4507
2026-01-23 05:26:48.23	10.01	23.16	-45.8	-47.2	19.8	0.00e+00	0	43	0	577765376	62	4416
2026-01-23 05:26:49.24	9.74	23.18	-45.8	-47.3	19.8	0.00e+00	0	43	0	579862528	62	4459
2026-01-23 05:26:50.25	9.46	23.19	-46.1	-47.5	19.5	0.00e+00	0	43	0	581959680	62	4598
2026-01-23 05:26:51.26	9.18	23.21	-46.2	-47.7	19.4	0.00e+00	0	43	0	583008256	63	4439
2026-01-23 05:26:52.26	8.91	23.23	-46.3	-47.9	19.3	0.00e+00	0	43	0	585105408	63	4502
2026-01-23 05:26:53.27	8.63	23.25	-46.2	-47.8	19.3	0.00e+00	0	43	0	587202560	63	4460
2026-01-23 05:26:54.28	8.35	23.26	-46.5	-48.1	19.1	0.00e+00	0	43	0	589299712	63	4628
2026-01-23 05:26:55.29	8.08	23.28	-46.4	-48.0	19.1	0.00e+00	0	44	0	591396864	63	4558
2026-01-23 05:26:56.30	7.80	23.30	-46.3	-47.9	19.2	0.00e+00	0	43	0	592445440	63	4519
2026-01-23 05:26:57.31	7.52	23.31	-46.2	-47.7	19.4	0.00e+00	0	43	0	594542592	63	4439
2026-01-23 05:26:58.32	7.24	23.32	-46.1	-47.6	19.5	0.00e+00	0	43	0	596639744	63	4364
2026-01-23 05:26:59.33	6.96	23.34	-46.1	-47.6	19.5	0.00e+00	0	43	0	598736896	63	4373
2026-01-23 05:27:00.33	6.68	23.35	-46.1	-47.6	19.5	0.00e+00	0	43	0	600834048	63	4385
2026-01-23 05:27:01.34	6.40	23.36	-46.4	-48.1	19.1	0.00e+00	0	43	0	601882624	63	4599
2026-01-23 05:27:02.35	6.13	23.37	-46.6	-48.4	18.7	0.00e+00	0	43	0	603979776	64	4503
2026-01-23 05:27:03.36	5.85	23.38	-46.9	-48.7	18.4	0.00e+00	0	43	0	606076928	64	4682
2026-01-23 05:27:04.37	5.57	23.39	-47.1	-48.9	18.2	0.00e+00	0	43	0	608174080	64	4808
2026-01-23 05:27:05.37	5.29	23.40	-47.1	-48.9	18.2	0.00e+00	0	43	0	610271232	64	4809
2026-01-23 05:27:06.38	5.01	23.41	-46.8	-48.6	18.5	0.00e+00	0	43	0	611319808	64	4651
2026-01-23 05:27:07.39	4.73	23.41	-46.8	-48.6	18.5	0.00e+00	0	43	0	613416960	64	4633
2026-01-23 05:27:08.40	4.45	23.42	-46.5	-48.3	18.8	0.00e+00	0	44	0	615514112	64	4457
2026-01-23 05:27:09.40	4.17	23.43	-46.2	-47.8	19.1	0.00e+00	0	43	0	617611264	64	4230
2026-01-23 05:27:10.42	3.88	23.43	-45.8	-47.3	19.7	0.00e+00	0	44	0	619708416	63	4221
2026-01-23 05:27:11.43	3.60	23.43	-45.5	-46.9	20.0	0.00e+00	0	43	0	621805568	63	4051
2026-01-23 05:27:12.43	3.33	23.44	-45.3	-46.7	20.2	0.00e+00	0	43	0	622854144	62	4162
2026-01-23 05:27:13.44	3.04	23.44	-45.3	-46.6	20.3	0.00e+00	0	44	0	624951296	62	4144
2026-01-23 05:27:14.45	2.76	23.44	-45.3	-46.7	20.3	0.00e+00	0	43	0	627048448	62	4155
2026-01-23 05:27:15.46	2.48	23.44	-45.6	-47.1	20.0	0.00e+00	0	43	0	629145600	62	4349
2026-01-23 05:27:16.47	2.20	23.44	-45.8	-47.3	19.7	0.00e+00	0	44	0	630194176	62	4485
2026-01-23 05:27:17.48	1.92	23.44	-45.8	-47.3	19.7	0.00e+00	0	43	0	632291328	62	4469
2026-01-23 05:27:18.49	1.64	23.44	-45.7	-47.2	19.8	0.00e+00	0	43	0	634388480	62	4407
2026-01-23 05:27:19.49	1.36	23.44	-45.5	-47.0	20.0	0.00e+00	0	43	0	636485632	62	4297
2026-01-23 05:27:20.50	1.08	23.44	-45.4	-46.9	20.1	0.00e+00	0	43	0	638582784	62	4243
2026-01-23 05:27:21.51	0.80	23.43	-45.5	-46.9	20.1	0.00e+00	0	43	0	640679936	62	4279
2026-01-23 05:27:22.52	0.52	23.43	-45.3	-46.7	20.2	0.00e+00	0	43	0	641728512	62	4181
2026-01-23 05:27:23.53	0.24	23.42	-45.4	-46.9	20.2	0.00e+00	0	43	0	643825664	62	4250
2026-01-23 05:27:24.53	359.96	23.42	-45.4	-46.8	20.2	0.00e+00	0	43	0	645922816	62	4230
2026-01-23 05:27:25.54	359.68	23.41	-45.2	-46.6	20.4	0.00e+00	0	43	0	648019968	62	4105
2026-01-23 05:27:26.55	359.40	23.41	-45.2	-46.5	20.5	0.00e+00	0	43	0	650117120	62	4086
2026-01-23 05:27:27.56	359.12	23.40	-45.2	-46.6	20.5	0.00e+00	0	43	0	651165696	62	4104
2026-01-23 05:27:28.56	358.84	23.39	-45.3	-46.6	20.4	0.00e+00	0	43	0	653262848	62	4125
2026-01-23 05:27:29.57	358.56	23.38	-45.2	-46.6	20.4	0.00e+00	0	44	0	655360000	62	4113
2026-01-23 05:27:30.58	358.28	23.37	-45.0	-46.3	20.6	0.00e+00	0	43	0	657457152	61	4219
2026-01-23 05:27:31.59	358.00	23.36	-44.7	-45.9	21.0	0.00e+00	0	43	0	658505728	61	4045
2026-01-23 05:27:32.60	357.72	23.35	-44.7	-45.9	21.1	0.00e+00	0	43	0	660602880	61	4021
2026-01-23 05:27:33.60	357.45	23.34	-44.7	-46.0	21.0	0.00e+00	0	43	0	662700032	61	4059
2026-01-23 05:27:34.61	357.17	23.32	-45.0	-46.3	20.7	0.00e+00	0	43	0	664797184	61	4210
2026-01-23 05:27:35.62	356.89	23.31	-45.0	-46.3	20.7	0.00e+00	0	43	0	666894336	61	4234
2026-01-23 05:27:36.63	356.61	23.29	-45.1	-46.4	20.6	0.00e+00	0	43	0	668991488	61	4255
2026-01-23 05:27:37.64	356.33	23.28	-45.0	-46.3	20.7	0.00e+00	0	43	0	670040064	61	4225
2026-01-23 05:27:38.65	356.05	23.26	-44.8	-46.0	21.0	0.00e+00	0	43	0	672137216	61	4093
2026-01-23 05:27:39.66	355.78	23.25	-44.7	-45.9	21.1	0.00e+00	0	43	0	674234368	61	4048
2026-01-23 05:27:40.66	355.50	23.23	-44.4	-45.6	21.4	0.00e+00	0	43	0	676331520	60	4100
2026-01-23 05:27:41.67	355.22	23.21	-44.4	-45.5	21.4	0.00e+00	0	44	0	678428672	60	4085
2026-01-23 05:27:42.68	354.95	23.19	-44.4	-45.5	21.5	0.00e+00	0	43	0	679477248	60	4086
2026-01-23 05:27:43.69	354.67	23.17	-44.4	-45.6	21.4	0.00e+00	0	43	0	681574400	60	4123
2026-01-23 05:27:44.70	354.39	23.15	-44.1	-45.3	21.6	0.00e+00	0	43	0	683671552	60	3971
2026-01-23 05:27:45.70	354.12	23.13	-44.1	-45.2	21.7	0.00e+00	0	43	0	685768704	60	3925
2026-01-23 05:27:46.71	353.85	23.11	-44.4	-45.6	21.7	0.00e+00	0	43	0	687865856	59	4368
2026-01-23 05:27:47.72	353.57	23.09	-44.5	-45.6	21.6	0.00e+00	0	43	0	688914432	59	4388
2026-01-23 05:27:48.73	353.30	23.07	-44.5	-45.7	21.6	0.00e+00	0	43	0	691011584	59	4398
2026-01-23 05:27:49.74	353.02	23.04	-44.3	-45.5	21.8	0.00e+00	0	43	0	693108736	59	4302
2026-01-23 05:27:50.74	352.75	23.02	-44.5	-45.6	21.7	0.00e+00	0	43	0	695205888	59	4378
2026-01-23 05:27:51.75	352.48	22.99	-44.7	-45.9	21.4	0.00e+00	0	43	0	697303040	59	4526
2026-01-23 05:27:52.76	352.21	22.97	-44.3	-45.4	21.5	0.00e+00	0	43	0	698351616	60	4032
2026-01-23 05:27:53.77	351.93	22.94	-44.5	-45.7	21.3	0.00e+00	0	43	0	700448768	60	4166
2026-01-23 05:27:54.78	351.66	22.92	-44.9	-46.1	20.9	0.00e+00	0	43	0	702545920	60	4364
2026-01-23 05:27:55.78	351.39	22.89	-44.7	-45.9	21.1	0.00e+00	0	43	0	704643072	60	4265
2026-01-23 05:27:56.79	351.12	22.86	-44.8	-46.0	21.0	0.00e+00	0	43	0	706740224	60	4315
2026-01-23 05:27:57.80	350.85	22.83	-44.7	-45.9	21.1	0.00e+00	0	43	0	707788800	60	4258
2026-01-23 05:27:58.81	350.58	22.80	-44.9	-46.1	20.9	0.00e+00	0	43	0	709885952	60	4375
2026-01-23 05:27:59.82	350.31	22.77	-44.4	-45.6	21.4	0.00e+00	0	43	0	711983104	60	4132
2026-01-23 05:28:00.82	350.05	22.74	-44.3	-45.5	21.5	0.00e+00	0	43	0	714080256	60	4055
2026-01-23 05:28:01.83	349.78	22.71	-44.1	-45.2	21.7	0.00e+00	0	43	0	716177408	60	3958
2026-01-23 05:28:02.84	349.51	22.68	-44.5	-45.6	21.6	0.00e+00	0	43	0	717225984	59	4385
2026-01-23 05:28:03.85	349.24	22.64	-44.6	-45.8	21.5	0.00e+00	0	43	0	719323136	59	4448
2026-01-23 05:28:04.86	348.98	22.61	-44.5	-45.7	21.2	0.00e+00	0	43	0	721420288	60	4172
2026-01-23 05:28:05.86	348.71	22.58	-45.0	-46.2	20.8	0.00e+00	0	43	0	723517440	60	4429
2026-01-23 05:28:06.87	348.45	22.54	-44.9	-46.1	20.9	0.00e+00	0	43	0	725614592	60	4380
2026-01-23 05:28:07.88	348.18	22.51	-45.0	-46.2	20.8	0.00e+00	0	43	0	726663168	60	4441
2026-01-23 05:28:08.89	347.92	22.47	-44.8	-46.0	21.0	0.00e+00	0	44	0	728760320	60	4314
2026-01-23 05:28:09.90	347.65	22.44	-44.7	-45.9	21.1	0.00e+00	0	43	0	730857472	60	4267
2026-01-23 05:28:10.90	347.39	22.40	-44.5	-45.7	21.2	0.00e+00	0	43	0	732954624	60	4172
2026-01-23 05:28:11.91	347.13	22.36	-44.6	-45.9	21.1	0.00e+00	0	43	0	735051776	60	4243
2026-01-23 05:28:12.92	346.87	22.32	-44.6	-45.8	21.2	0.00e+00	0	43	0	736100352	60	4209
2026-01-23 05:28:13.93	346.61	22.28	-44.6	-45.8	21.1	0.00e+00	0	43	0	738197504	60	4232
2026-01-23 05:28:14.94	346.35	22.24	-44.8	-46.1	20.9	0.00e+00	0	43	0	740294656	60	4360
2026-01-23 05:28:15.95	346.09	22.20	-45.2	-46.6	20.5	0.00e+00	0	43	0	742391808	61	4342
2026-01-23 05:28:16.95	345.83	22.16	-45.2	-46.6	20.4	0.00e+00	0	43	0	744488960	61	4346
2026-01-23 05:28:17.96	345.57	22.12	-45.5	-46.9	20.2	0.00e+00	0	43	0	745537536	61	4539
2026-01-23 05:28:18.97	345.32	22.08	-45.5	-46.9	20.2	0.00e+00	0	43	0	747634688	61	4538
2026-01-23 05:28:19.98	345.06	22.04	-46.0	-47.5	19.6	0.00e+00	0	43	0	749731840	62	4564
2026-01-23 05:28:20.99	344.80	22.00	-46.0	-47.6	19.8	0.00e+00	0	43	0	751828992	63	4347
2026-01-23 05:28:22.00	344.55	21.95	-46.4	-48.0	19.1	0.00e+00	0	43	0	753926144	63	4592
2026-01-23 05:28:23.01	344.29	21.91	-46.4	-48.0	19.1	0.00e+00	0	43	0	756023296	63	4563
2026-01-23 05:28:24.01	344.04	21.87	-46.1	-47.6	19.5	0.00e+00	0	43	0	757071872	63	4385
2026-01-23 05:28:25.02	343.79	21.82	-45.9	-47.4	19.7	0.00e+00	0	43	0	759169024	63	4282
2026-01-23 05:28:26.03	343.53	21.78	-45.7	-47.2	19.9	0.00e+00	0	43	0	761266176	63	4167
2026-01-23 05:28:27.04	343.28	21.73	-45.7	-47.1	19.9	0.00e+00	0	43	0	763363328	63	4127
2026-01-23 05:28:28.04	343.03	21.68	-45.5	-46.9	20.1	0.00e+00	0	43	0	764411904	62	4251
2026-01-23 05:28:29.05	342.78	21.64	-45.6	-47.0	20.0	0.00e+00	0	43	0	766509056	62	4320
2026-01-23 05:28:30.06	342.53	21.59	-45.8	-47.2	19.8	0.00e+00	0	43	0	768606208	62	4425
2026-01-23 05:28:31.07	342.29	21.54	-45.8	-47.2	19.8	0.00e+00	0	43	0	770703360	62	4427
2026-01-23 05:28:32.08	342.04	21.49	-45.8	-47.2	19.9	0.00e+00	0	43	0	772800512	62	4418
2026-01-23 05:28:33.08	341.79	21.45	-45.7	-47.1	19.9	0.00e+00	0	43	0	773849088	62	4378
2026-01-23 05:28:34.09	341.55	21.40	-45.5	-46.8	20.1	0.00e+00	0	43	0	775946240	62	4240
2026-01-23 05:28:35.11	341.30	21.35	-45.4	-46.8	20.2	0.00e+00	0	43	0	778043392	62	4228
2026-01-23 05:28:36.11	341.06	21.30	-45.4	-46.7	20.3	0.00e+00	0	43	0	780140544	62	4172
2026-01-23 05:28:37.12	340.81	21.25	-45.3	-46.7	20.3	0.00e+00	0	43	0	782237696	62	4164
2026-01-23 05:28:38.13	340.57	21.19	-45.5	-46.9	20.2	0.00e+00	0	44	0	784334848	62	4260
2026-01-23 05:28:39.14	340.33	21.14	-45.4	-46.8	20.2	0.00e+00	0	43	0	785383424	62	4214
2026-01-23 05:28:40.14	340.09	21.09	-45.4	-46.7	20.3	0.00e+00	0	43	0	787480576	62	4183
2026-01-23 05:28:41.15	339.85	21.04	-45.2	-46.5	20.5	0.00e+00	0	43	0	789577728	62	4087
2026-01-23 05:28:42.16	339.61	20.99	-45.3	-46.6	20.4	0.00e+00	0	43	0	791674880	62	4137
2026-01-23 05:28:43.17	339.37	20.93	-45.4	-46.8	20.3	0.00e+00	0	43	0	792723456	62	4198
2026-01-23 05:28:44.18	339.13	20.88	-45.6	-47.0	20.1	0.00e+00	0	43	0	794820608	62	4310
2026-01-23 05:28:45.19	338.89	20.83	-45.6	-47.1	20.0	0.00e+00	0	43	0	796917760	62	4357
2026-01-23 05:28:46.19	338.66	20.77	-46.0	-47.6	19.5	0.00e+00	0	43	0	799014912	62	4610
2026-01-23 05:28:47.20	338.42	20.72	-46.1	-47.7	19.4	0.00e+00	0	43	0	801112064	62	4663
2026-01-23 05:28:48.21	338.19	20.66	-46.3	-47.9	19.2	0.00e+00	0	43	0	803209216	63	4530
2026-01-23 05:28:49.22	337.95	20.61	-46.4	-48.0	19.1	0.00e+00	0	43	0	804257792	63	4588
2026-01-23 05:28:50.22	337.72	20.55	-46.4	-48.0	19.0	0.00e+00	0	43	0	806354944	63	4596
2026-01-23 05:28:51.23	337.49	20.49	-46.5	-48.1	19.0	0.00e+00	0	44	0	808452096	63	4649
2026-01-23 05:28:52.24	337.26	20.44	-46.4	-48.0	19.1	0.00e+00	0	43	0	810549248	63	4591
2026-01-23 05:28:53.24	337.03	20.38	-46.6	-48.3	18.7	0.00e+00	0	43	0	812646400	64	4485
2026-01-23 05:28:54.25	336.80	20.32	-46.8	-48.7	18.4	0.00e+00	0	43	0	813694976	64	4660
2026-01-23 05:28:55.26	336.57	20.27	-47.3	-49.4	17.7	0.00e+00	0	43	0	815792128	65	4765
2026-01-23 05:28:56.27	336.34	20.21	-47.6	-49.7	17.3	0.00e+00	0	43	0	817889280	65	4972
2026-01-23 05:28:57.28	336.11	20.15	-47.7	-50.0	17.1	0.00e+00	0	43	0	819986432	66	4820
2026-01-23 05:28:58.29	335.89	20.09	-47.5	-49.6	17.2	0.00e+00	0	43	0	821035008	66	4641
2026-01-23 05:28:59.29	335.67	20.03	-47.1	-49.1	18.0	0.00e+00	0	44	0	823132160	66	4361
2026-01-23 05:29:00.30	335.44	19.97	-46.7	-48.4	18.6	0.00e+00	0	43	0	825229312	65	4291
2026-01-23 05:29:01.31	335.22	19.91	-46.3	-47.9	19.1	0.00e+00	0	44	0	827326464	64	4285
2026-01-23 05:29:02.32	334.99	19.85	-45.9	-47.5	19.6	0.00e+00	0	44	0	829423616	63	4294
2026-01-23 05:29:03.33	334.77	19.79	-45.7	-47.2	19.9	0.00e+00	0	43	0	831520768	63	4160
2026-01-23 05:29:04.33	334.55	19.73	-45.5	-47.0	20.1	0.00e+00	0	44	0	832569344	63	4055
2026-01-23 05:29:05.34	334.33	19.67	-45.3	-46.6	20.3	0.00e+00	0	43	0	834666496	62	4142
2026-01-23 05:29:06.35	334.11	19.61	-45.3	-46.8	20.2	0.00e+00	0	43	0	836763648	62	4197
2026-01-23 05:29:07.36	333.90	19.55	-45.0	-46.3	20.6	0.00e+00	0	43	0	838860800	61	4215
2026-01-23 05:29:08.36	333.68	19.49	-45.0	-46.3	20.6	0.00e+00	0	43	0	840957952	61	4229
2026-01-23 05:29:09.37	333.46	19.42	-44.7	-46.0	20.9	0.00e+00	0	44	0	842006528	61	4057
2026-01-23 05:29:10.38	333.25	19.36	-44.9	-46.2	20.7	0.00e+00	0	44	0	844103680	61	4153
2026-01-23 05:29:11.39	333.03	19.30	-44.9	-46.2	20.7	0.00e+00	0	43	0	846200832	61	4164
2026-01-23 05:29:12.40	332.82	19.23	-44.8	-46.1	20.8	0.00e+00	0	44	0	848297984	61	4115
2026-01-23 05:29:13.40	332.61	19.17	-44.7	-46.0	20.9	0.00e+00	0	44	0	849346560	61	4063
2026-01-23 05:29:14.41	332.40	19.11	-44.7	-46.0	20.8	0.00e+00	0	44	0	851443712	61	4054
2026-01-23 05:29:15.42	332.19	19.05	-44.6	-45.8	21.0	0.00e+00	0	43	0	853540864	61	3983
2026-01-23 05:29:16.43	331.98	18.98	-44.4	-45.6	21.2	0.00e+00	0	43	0	855638016	60	4130
2026-01-23 05:29:17.44	331.77	18.92	-44.4	-45.6	21.1	0.00e+00	0	44	0	857735168	60	4125
2026-01-23 05:29:18.45	331.56	18.85	-44.5	-45.8	21.0	1.44e-05	0	44	0	859832320	60	4212
2026-01-23 05:29:19.45	331.35	18.79	-44.9	-46.2	20.6	0.00e+00	0	44	0	860880896	60	4407
2026-01-23 05:29:20.46	331.14	18.72	-45.1	-46.5	20.4	0.00e+00	0	44	0	862978048	60	4551
2026-01-23 05:29:21.47	330.94	18.66	-45.7	-47.2	19.8	5.30e-06	0	44	0	865075200	61	4659
2026-01-23 05:29:22.48	330.73	18.59	-46.0	-47.6	19.4	0.00e+00	0	44	0	867172352	62	4617
2026-01-23 05:29:23.49	330.53	18.53	-46.4	-48.0	19.0	0.00e+00	0	44	0	869269504	63	4594
2026-01-23 05:29:24.50	330.33	18.46	-46.4	-48.1	18.9	0.00e+00	0	43	0	870318080	63	4632
2026-01-23 05:29:25.51	330.12	18.40	-46.7	-48.4	18.6	0.00e+00	0	43	0	872415232	63	4809
2026-01-23 05:29:26.51	329.93	18.33	-46.5	-48.3	18.7	0.00e+00	0	44	0	874512384	63	4729
2026-01-23 05:29:27.52	329.72	18.26	-46.4	-48.1	19.1	0.00e+00	0	43	0	876609536	63	4622
2026-01-23 05:29:28.53	329.52	18.20	-46.0	-47.5	19.4	0.00e+00	0	44	0	878706688	63	4340
2026-01-23 05:29:29.54	329.33	18.13	-45.8	-47.3	19.7	0.00e+00	0	43	0	879755264	63	4219
2026-01-23 05:29:30.55	329.13	18.06	-45.8	-47.3	19.6	0.00e+00	0	44	0	881852416	63	4198
2026-01-23 05:29:31.55	328.93	18.00	-45.6	-47.1	19.8	0.00e+00	0	43	0	883949568	63	4124
2026-01-23 05:29:32.56	328.74	17.93	-45.4	-46.8	20.1	0.00e+00	0	44	0	886046720	62	4222
2026-01-23 05:29:33.57	328.54	17.86	-45.3	-46.7	20.2	0.00e+00	0	44	0	888143872	62	4157
2026-01-23 05:29:34.58	328.35	17.80	-45.0	-46.4	20.5	0.00e+00	0	44	0	889192448	62	4006
2026-01-23 05:29:35.59	328.15	17.73	-44.7	-45.9	20.7	0.00e+00	0	43	0	891289600	61	4044
2026-01-23 05:29:36.59	327.96	17.66	-44.6	-45.9	20.9	0.00e+00	0	44	0	893386752	61	4008
2026-01-23 05:29:37.60	327.77	17.59	-44.6	-45.9	21.0	0.00e+00	0	44	0	895483904	61	4016
2026-01-23 05:29:38.61	327.58	17.52	-44.7	-46.0	20.8	0.00e+00	0	44	0	897581056	61	4067
2026-01-23 05:29:39.62	327.39	17.46	-44.9	-46.2	20.7	3.80e-06	0	43	0	899678208	61	4180
2026-01-23 05:29:40.62	327.20	17.39	-45.3	-46.7	20.3	0.00e+00	0	44	0	900726784	61	4392
2026-01-23 05:29:41.63	327.02	17.32	-45.6	-47.1	19.8	0.00e+00	0	44	0	902823936	61	4634
2026-01-23 05:29:42.64	326.83	17.25	-45.8	-47.3	19.6	0.00e+00	0	43	0	904921088	62	4471
2026-01-23 05:29:43.65	326.64	17.18	-45.8	-47.3	19.6	0.00e+00	0	44	0	907018240	62	4482
2026-01-23 05:29:44.66	326.46	17.11	-45.6	-47.1	19.9	0.00e+00	0	44	0	908066816	62	4357
2026-01-23 05:29:45.67	326.27	17.04	-45.5	-46.9	20.0	0.00e+00	0	43	0	910163968	62	4266
2026-01-23 05:29:46.67	326.09	16.98	-45.5	-46.9	19.9	0.00e+00	0	44	0	912261120	62	4278
2026-01-23 05:29:47.68	325.91	16.91	-45.6	-47.1	19.9	0.00e+00	0	43	0	914358272	62	4373
2026-01-23 05:29:48.69	325.72	16.84	-45.7	-47.2	19.8	0.00e+00	0	44	0	916455424	62	4427
2026-01-23 05:29:49.70	325.54	16.77	-45.8	-47.3	19.7	0.00e+00	0	43	0	917504000	62	4460
2026-01-23 05:29:50.71	325.36	16.70	-46.0	-47.6	19.4	0.00e+00	0	43	0	919601152	62	4600
2026-01-23 05:29:51.72	325.18	16.63	-46.0	-47.6	19.4	0.00e+00	0	44	0	921698304	62	4601
2026-01-23 05:29:52.72	325.00	16.56	-45.9	-47.5	19.5	0.00e+00	0	44	0	923795456	62	4578
2026-01-23 05:29:53.73	324.83	16.49	-45.8	-47.4	19.6	0.00e+00	0	43	0	925892608	62	4497
2026-01-23 05:29:54.74	324.65	16.42	-45.8	-47.3	19.7	3.80e-06	0	44	0	927989760	62	4481
2026-01-23 05:29:55.75	324.47	16.35	-45.8	-47.3	19.7	0.00e+00	0	43	0	929038336	62	4445
2026-01-23 05:29:56.76	324.30	16.28	-45.8	-47.3	19.7	0.00e+00	0	43	0	931135488	62	4444
2026-01-23 05:29:57.77	324.12	16.21	-45.7	-47.1	19.8	0.00e+00	0	43	0	933232640	62	4381
2026-01-23 05:29:58.78	323.95	16.14	-45.6	-47.1	19.9	0.00e+00	0	43	0	935329792	62	4352
2026-01-23 05:29:59.78	323.78	16.07	-45.2	-46.5	20.3	0.00e+00	0	44	0	936378368	62	4096
2026-01-23 05:30:00.79	323.61	16.00	-45.1	-46.5	20.4	0.00e+00	0	43	0	938475520	62	4070
2026-01-23 05:30:01.80	323.43	15.93	-45.1	-46.4	20.4	0.00e+00	0	43	0	940572672	62	4049
2026-01-23 05:30:02.81	323.26	15.86	-44.9	-46.2	20.6	0.00e+00	0	43	0	942669824	61	4183
2026-01-23 05:30:03.82	323.09	15.79	-45.0	-46.3	20.5	0.00e+00	0	43	0	944766976	61	4235
2026-01-23 05:30:04.83	322.93	15.72	-45.2	-46.5	20.4	0.00e+00	0	43	0	946864128	61	4323
2026-01-23 05:30:05.83	322.76	15.65	-45.1	-46.4	20.4	0.00e+00	0	43	0	947912704	61	4269
2026-01-23 05:30:06.84	322.59	15.58	-45.0	-46.3	20.6	0.00e+00	0	43	0	950009856	61	4198
2026-01-23 05:30:07.85	322.42	15.51	-45.0	-46.3	20.5	0.00e+00	0	43	0	952107008	61	4233
2026-01-23 05:30:08.86	322.26	15.44	-44.6	-45.8	21.0	0.00e+00	0	43	0	954204160	61	3995
2026-01-23 05:30:09.87	322.09	15.37	-44.2	-45.3	21.4	0.00e+00	0	43	0	956301312	60	3984
2026-01-23 05:30:10.88	321.93	15.29	-44.1	-45.3	21.4	0.00e+00	0	43	0	957349888	60	3969
2026-01-23 05:30:11.89	321.77	15.22	-44.3	-45.4	21.6	0.00e+00	0	43	0	959447040	59	4281
2026-01-23 05:30:12.89	321.61	15.15	-44.3	-45.4	21.5	0.00e+00	0	43	0	961544192	59	4287
2026-01-23 05:30:13.90	321.44	15.08	-44.4	-45.6	21.4	0.00e+00	0	43	0	963641344	59	4363
2026-01-23 05:30:14.91	321.28	15.01	-44.6	-45.8	21.3	0.00e+00	0	43	0	965738496	59	4459
2026-01-23 05:30:15.92	321.12	14.94	-44.6	-45.8	21.2	0.00e+00	0	43	0	966787072	59	4490
2026-01-23 05:30:16.93	320.96	14.87	-44.6	-45.8	21.0	0.00e+00	0	43	0	968884224	60	4217
2026-01-23 05:30:17.93	320.81	14.80	-44.7	-45.9	20.9	0.00e+00	0	43	0	970981376	60	4288
2026-01-23 05:30:18.94	320.65	14.73	-44.8	-46.1	20.7	0.00e+00	0	43	0	973078528	60	4366
2026-01-23 05:30:19.95	320.49	14.66	-45.0	-46.2	20.6	0.00e+00	0	43	0	975175680	60	4440
2026-01-23 05:30:20.96	320.33	14.59	-45.1	-46.4	20.4	0.00e+00	0	43	0	976224256	60	4538
2026-01-23 05:30:21.97	320.18	14.52	-45.0	-46.3	20.5	0.00e+00	0	43	0	978321408	60	4489
2026-01-23 05:30:22.97	320.03	14.45	-45.1	-46.4	20.4	0.00e+00	0	43	0	980418560	60	4530
2026-01-23 05:30:23.98	319.87	14.37	-45.1	-46.4	20.4	0.00e+00	0	44	0	982515712	60	4507
2026-01-23 05:30:24.99	319.72	14.30	-44.7	-46.0	20.8	0.00e+00	0	43	0	984612864	60	4306
2026-01-23 05:30:26.00	319.57	14.23	-44.5	-45.7	21.0	0.00e+00	0	43	0	985661440	60	4192
2026-01-23 05:30:27.01	319.41	14.16	-44.4	-45.6	21.1	0.00e+00	0	43	0	987758592	60	4132
2026-01-23 05:30:28.01	319.26	14.09	-44.5	-45.6	21.1	0.00e+00	0	44	0	989855744	60	4141
2026-01-23 05:30:29.02	319.11	14.02	-44.4	-45.6	21.2	0.00e+00	0	43	0	991952896	60	4111
2026-01-23 05:30:30.03	318.96	13.95	-44.5	-45.7	21.1	0.00e+00	0	43	0	994050048	60	4166
2026-01-23 05:30:31.04	318.81	13.88	-44.7	-46.0	20.8	0.00e+00	0	43	0	995098624	60	4316
2026-01-23 05:30:32.05	318.67	13.81	-44.9	-46.2	20.6	0.00e+00	0	43	0	997195776	60	4405
2026-01-23 05:30:33.06	318.52	13.74	-45.3	-46.6	20.2	0.00e+00	0	43	0	999292928	61	4372
2026-01-23 05:30:34.07	318.37	13.67	-45.5	-46.9	19.9	0.00e+00	0	43	0	1001390080	61	4511
2026-01-23 05:30:35.08	318.23	13.59	-45.6	-47.0	19.9	0.00e+00	0	43	0	1003487232	61	4565
2026-01-23 05:30:36.08	318.08	13.52	-45.6	-47.1	19.8	0.00e+00	0	43	0	1004535808	61	4602
2026-01-23 05:30:37.09	317.94	13.45	-45.5	-47.0	19.9	0.00e+00	0	43	0	1006632960	61	4554
2026-01-23 05:30:38.10	317.79	13.38	-45.6	-47.1	19.8	0.00e+00	0	43	0	1008730112	61	4615
2026-01-23 05:30:39.11	317.65	13.31	-45.6	-47.0	19.9	0.00e+00	0	43	0	1010827264	62	4318
2026-01-23 05:30:40.12	317.51	13.24	-45.7	-47.2	19.8	0.00e+00	0	43	0	1012924416	62	4396
2026-01-23 05:30:41.13	317.37	13.17	-45.5	-46.9	20.0	0.00e+00	0	43	0	1013972992	62	4249
2026-01-23 05:30:42.14	317.22	13.10	-45.5	-46.9	20.0	0.00e+00	0	43	0	1016070144	62	4268
2026-01-23 05:30:43.14	317.09	13.03	-45.4	-46.8	20.1	0.00e+00	0	43	0	1018167296	62	4225
2026-01-23 05:30:44.15	316.95	12.96	-45.3	-46.6	20.2	0.00e+00	0	43	0	1020264448	62	4132
2026-01-23 05:30:45.16	316.81	12.89	-45.4	-46.7	20.1	0.00e+00	0	44	0	1022361600	62	4189
2026-01-23 05:30:46.17	316.67	12.82	-45.0	-46.3	20.4	0.00e+00	0	43	0	1023410176	62	3985
2026-01-23 05:30:47.18	316.53	12.75	-44.8	-46.0	20.7	0.00e+00	0	43	0	1025507328	61	4097
2026-01-23 05:30:48.19	316.39	12.68	-44.5	-45.7	20.9	0.00e+00	0	43	0	1027604480	61	3955
2026-01-23 05:30:49.20	316.26	12.61	-44.9	-46.1	20.7	0.00e+00	0	43	0	1029701632	61	4137
2026-01-23 05:30:50.21	316.12	12.54	-44.9	-46.2	20.5	0.00e+00	0	44	0	1031798784	61	4154
2026-01-23 05:30:51.21	315.99	12.47	-45.0	-46.4	20.4	0.00e+00	0	43	0	1033895936	61	4247
2026-01-23 05:30:52.22	315.85	12.40	-45.4	-46.8	20.0	0.00e+00	0	43	0	1034944512	61	4468
2026-01-23 05:30:53.23	315.72	12.32	-45.7	-47.2	19.7	0.00e+00	0	44	0	1037041664	61	4655
2026-01-23 05:30:54.24	315.59	12.25	-46.1	-47.6	19.3	0.00e+00	0	43	0	1039138816	62	4633
2026-01-23 05:30:55.25	315.45	12.18	-46.2	-47.8	19.1	0.00e+00	0	43	0	1041235968	62	4736
2026-01-23 05:30:56.25	315.32	12.11	-46.5	-48.2	18.7	0.00e+00	0	43	0	1042284544	63	4690
2026-01-23 05:30:57.26	315.19	12.04	-46.4	-48.0	18.9	0.00e+00	0	44	0	1044381696	63	4570
2026-01-23 05:30:58.27	315.06	11.97	-46.4	-48.0	19.0	0.00e+00	0	43	0	1046478848	63	4574
2026-01-23 05:30:59.28	314.93	11.90	-46.1	-47.7	19.2	0.00e+00	0	43	0	1048576000	63	4399
2026-01-23 05:31:00.29	314.80	11.83	-46.0	-47.5	19.4	0.00e+00	0	43	0	1050673152	63	4338
2026-01-23 05:31:01.29	314.67	11.77	-45.9	-47.5	19.4	0.00e+00	0	43	0	1051721728	63	4300
2026-01-23 05:31:02.29	314.55	11.70	-45.6	-47.0	19.8	0.00e+00	0	44	0	1053818880	63	4093
2026-01-23 05:31:03.30	314.42	11.63	-45.5	-46.9	19.9	0.00e+00	0	43	0	1055916032	62	4247
2026-01-23 05:31:04.31	314.29	11.56	-45.3	-46.7	20.0	0.00e+00	0	43	0	1058013184	62	4187
2026-01-23 05:31:05.32	314.17	11.49	-45.6	-47.0	19.8	0.00e+00	0	43	0	1060110336	62	4308
2026-01-23 05:31:06.33	314.04	11.42	-45.4	-46.9	19.9	0.00e+00	0	43	0	1062207488	62	4247
2026-01-23 05:31:07.34	313.92	11.35	-45.6	-47.0	19.8	0.00e+00	0	43	0	1063256064	62	4333
2026-01-23 05:31:08.35	313.79	11.28	-45.6	-47.1	19.7	0.00e+00	0	43	0	1065353216	62	4360
2026-01-23 05:31:09.35	313.67	11.21	-45.6	-47.0	19.8	0.00e+00	0	43	0	1067450368	62	4325
2026-01-23 05:31:10.36	313.55	11.14	-45.6	-47.0	19.8	0.00e+00	0	43	0	1069547520	62	4303
2026-01-23 05:31:11.37	313.42	11.07	-45.5	-46.9	19.8	0.00e+00	0	43	0	1070596096	62	4283
2026-01-23 05:31:12.38	313.30	11.00	-45.6	-47.1	19.7	0.00e+00	0	43	0	1072693248	62	4344
2026-01-23 05:31:13.39	313.18	10.93	-45.5	-46.9	19.9	0.00e+00	0	43	0	1074790400	62	4243
2026-01-23 05:31:14.40	313.06	10.86	-45.7	-47.1	19.7	0.00e+00	0	43	0	1076887552	62	4366
2026-01-23 05:31:15.41	312.94	10.79	-45.7	-47.1	19.6	0.00e+00	0	43	0	1078984704	62	4375
2026-01-23 05:31:16.41	312.82	10.73	-45.9	-47.4	19.3	0.00e+00	0	43	0	1081081856	62	4545
2026-01-23 05:31:17.42	312.70	10.66	-46.3	-47.9	18.9	0.00e+00	0	43	0	1082130432	63	4524
2026-01-23 05:31:18.43	312.58	10.59	-46.3	-48.0	18.9	0.00e+00	0	44	0	1084227584	63	4547
2026-01-23 05:31:19.44	312.47	10.52	-46.5	-48.1	18.7	0.00e+00	0	43	0	1086324736	63	4647
2026-01-23 05:31:20.44	312.35	10.45	-46.4	-48.1	18.7	0.00e+00	0	43	0	1088421888	63	4617
2026-01-23 05:31:21.45	312.23	10.38	-46.3	-48.0	18.8	0.00e+00	0	43	0	1090519040	63	4550
2026-01-23 05:31:22.46	312.12	10.31	-46.4	-48.1	18.8	0.00e+00	0	44	0	1091567616	63	4602
2026-01-23 05:31:23.47	312.00	10.25	-46.4	-48.1	18.7	0.00e+00	0	43	0	1093664768	63	4637
2026-01-23 05:31:24.47	311.89	10.18	-46.5	-48.2	18.7	0.00e+00	0	44	0	1095761920	63	4652
2026-01-23 05:31:25.48	311.77	10.11	-46.4	-48.1	18.7	0.00e+00	0	43	0	1097859072	63	4604
2026-01-23 05:31:26.49	311.66	10.04	-46.7	-48.5	18.3	0.00e+00	0	43	0	1098907648	63	4836
2026-01-23 05:31:27.49	311.55	9.97	-46.4	-48.2	18.5	0.00e+00	0	43	0	1101004800	64	4396
2026-01-23 05:31:28.50	311.43	9.91	-46.6	-48.4	18.3	0.00e+00	0	43	0	1103101952	64	4502
2026-01-23 05:31:29.51	311.32	9.84	-46.8	-48.6	18.2	0.00e+00	0	43	0	1105199104	64	4611
2026-01-23 05:31:30.52	311.21	9.77	-46.9	-48.8	17.9	0.00e+00	0	43	0	1107296256	64	4734
2026-01-23 05:31:31.53	311.10	9.70	-46.9	-48.8	17.9	0.00e+00	0	43	0	1109393408	64	4744
2026-01-23 05:31:32.54	310.99	9.64	-46.9	-48.8	17.9	0.00e+00	0	43	0	1110441984	64	4745
2026-01-23 05:31:33.55	310.88	9.57	-47.3	-49.4	17.3	0.00e+00	0	43	0	1112539136	65	4781
2026-01-23 05:31:34.55	310.77	9.50	-47.2	-49.2	17.5	0.00e+00	0	44	0	1114636288	65	4676
2026-01-23 05:31:35.56	310.66	9.43	-47.0	-48.9	17.8	0.00e+00	0	43	0	1116733440	65	4516
2026-01-23 05:31:36.57	310.55	9.37	-47.0	-48.8	17.9	0.00e+00	0	43	0	1118830592	65	4490
2026-01-23 05:31:37.58	310.44	9.30	-46.7	-48.5	18.2	0.00e+00	0	43	0	1119879168	65	4294
2026-01-23 05:31:38.59	310.33	9.23	-46.6	-48.3	18.3	0.00e+00	0	43	0	1121976320	65	4228
2026-01-23 05:31:39.59	310.23	9.16	-46.3	-47.9	18.7	0.00e+00	0	43	0	1124073472	64	4288
2026-01-23 05:31:40.60	310.12	9.10	-46.4	-48.1	18.6	0.00e+00	0	43	0	1126170624	64	4341
2026-01-23 05:31:41.61	310.01	9.03	-46.3	-47.9	18.7	0.00e+00	0	43	0	1128267776	64	4254
2026-01-23 05:31:42.62	309.91	8.96	-46.1	-47.7	18.9	0.00e+00	0	43	0	1129316352	64	4151
2026-01-23 05:31:43.62	309.80	8.90	-46.2	-47.8	18.9	0.00e+00	0	43	0	1131413504	63	4445
2026-01-23 05:31:44.63	309.70	8.83	-46.3	-47.9	18.7	0.00e+00	0	43	0	1133510656	63	4544
2026-01-23 05:31:45.64	309.60	8.76	-46.3	-47.9	18.7	0.00e+00	0	43	0	1135607808	63	4529
2026-01-23 05:31:46.65	309.49	8.70	-46.3	-47.9	18.7	0.00e+00	0	43	0	1137704960	63	4538
2026-01-23 05:31:47.66	309.39	8.63	-46.5	-48.2	18.4	0.00e+00	0	43	0	1138753536	63	4698
2026-01-23 05:31:48.66	309.29	8.56	-46.5	-48.3	18.4	0.00e+00	0	43	0	1140850688	63	4706
2026-01-23 05:31:49.67	309.18	8.50	-46.8	-48.6	18.0	0.00e+00	0	44	0	1142947840	64	4604
2026-01-23 05:31:50.68	309.08	8.43	-46.7	-48.5	18.1	0.00e+00	0	43	0	1145044992	64	4558
2026-01-23 05:31:51.69	308.98	8.37	-46.8	-48.6	18.0	0.00e+00	0	43	0	1147142144	64	4632
2026-01-23 05:31:52.70	308.88	8.30	-46.9	-48.7	17.9	0.00e+00	0	43	0	1148190720	64	4676
2026-01-23 05:31:53.71	308.78	8.23	-46.8	-48.6	18.0	0.00e+00	0	43	0	1150287872	64	4639
2026-01-23 05:31:54.72	308.68	8.17	-47.0	-48.9	17.7	0.00e+00	0	43	0	1152385024	64	4762
2026-01-23 05:31:55.73	308.58	8.10	-46.9	-48.7	17.8	0.00e+00	0	43	0	1154482176	64	4688
2026-01-23 05:31:56.73	308.48	8.04	-46.7	-48.5	18.0	0.00e+00	0	43	0	1156579328	64	4565
2026-01-23 05:31:57.74	308.38	7.97	-46.5	-48.2	18.3	0.00e+00	0	43	0	1157627904	64	4410
2026-01-23 05:31:58.75	308.29	7.91	-46.7	-48.5	18.0	0.00e+00	0	43	0	1159725056	64	4591
2026-01-23 05:31:59.76	308.19	7.84	-46.6	-48.3	18.2	0.00e+00	0	43	0	1161822208	64	4484
2026-01-23 05:32:00.77	308.09	7.77	-46.6	-48.4	18.1	0.00e+00	0	43	0	1163919360	64	4502
2026-01-23 05:32:01.77	308.00	7.71	-46.4	-48.1	18.4	0.00e+00	0	43	0	1166016512	64	4389
2026-01-23 05:32:02.78	307.90	7.64	-46.5	-48.2	18.2	0.00e+00	0	43	0	1167065088	64	4426
2026-01-23 05:32:03.79	307.80	7.58	-46.6	-48.4	18.1	0.00e+00	0	44	0	1169162240	64	4496
2026-01-23 05:32:04.80	307.71	7.51	-46.7	-48.5	18.0	0.00e+00	0	43	0	1171259392	64	4566
2026-01-23 05:32:05.80	307.61	7.45	-46.7	-48.5	18.0	0.00e+00	0	43	0	1173356544	64	4596
2026-01-23 05:32:06.81	307.52	7.39	-46.7	-48.6	17.9	0.00e+00	0	43	0	1175453696	64	4613
2026-01-23 05:32:07.82	307.43	7.32	-46.6	-48.4	18.0	0.00e+00	0	43	0	1177550848	64	4542
2026-01-23 05:32:08.83	307.33	7.26	-47.0	-49.0	17.5	0.00e+00	0	43	0	1178599424	64	4856
2026-01-23 05:32:09.83	307.24	7.19	-47.0	-48.9	17.5	0.00e+00	0	43	0	1180696576	64	4805
2026-01-23 05:32:10.84	307.15	7.13	-47.0	-49.0	17.4	0.00e+00	0	43	0	1182793728	65	4580
2026-01-23 05:32:11.85	307.05	7.06	-47.3	-49.4	17.1	0.00e+00	0	43	0	1184890880	65	4781
2026-01-23 05:32:12.86	306.96	7.00	-47.4	-49.5	16.9	0.00e+00	0	43	0	1185939456	65	4829
2026-01-23 05:32:13.86	306.87	6.94	-47.4	-49.6	16.9	0.00e+00	0	43	0	1188036608	65	4880
2026-01-23 05:32:14.87	306.78	6.87	-47.6	-49.8	16.6	0.00e+00	0	43	0	1190133760	65	5015
2026-01-23 05:32:15.88	306.69	6.81	-47.7	-50.0	16.5	0.00e+00	0	43	0	1192230912	65	5122
2026-01-23 05:32:16.89	306.60	6.74	-48.0	-50.4	16.1	0.00e+00	0	43	0	1194328064	66	5044
2026-01-23 05:32:17.90	306.51	6.68	-48.0	-50.4	16.1	0.00e+00	0	44	0	1195376640	66	5054
2026-01-23 05:32:18.90	306.42	6.62	-48.0	-50.4	16.0	0.00e+00	0	43	0	1197473792	66	5083
2026-01-23 05:32:19.92	306.33	6.55	-48.2	-50.8	15.6	0.00e+00	0	43	0	1199570944	67	5007
2026-01-23 05:32:20.92	306.24	6.49	-48.3	-51.0	15.5	0.00e+00	0	43	0	1201668096	67	5103
2026-01-23 05:32:21.93	306.16	6.43	-48.3	-50.8	15.6	0.00e+00	0	43	0	1203765248	67	5037
2026-01-23 05:32:22.94	306.07	6.36	-48.4	-51.0	15.4	0.00e+00	0	43	0	1205862400	67	5117
2026-01-23 05:32:23.95	305.98	6.30	-48.3	-50.9	15.5	0.00e+00	0	44	0	1206910976	67	5088
2026-01-23 05:32:24.96	305.89	6.24	-48.3	-50.9	15.5	0.00e+00	0	44	0	1209008128	67	5047
2026-01-23 05:32:25.97	305.81	6.17	-48.4	-51.0	15.4	0.00e+00	0	43	0	1211105280	67	5123
2026-01-23 05:32:26.97	305.72	6.11	-48.1	-50.6	15.7	0.00e+00	0	43	0	1213202432	67	4912
2026-01-23 05:32:27.98	305.64	6.05	-48.4	-51.1	15.3	0.00e+00	0	43	0	1214251008	67	5175
2026-01-23 05:32:28.99	305.55	5.98	-48.3	-50.8	15.6	0.00e+00	0	43	0	1216348160	67	5018
2026-01-23 05:32:30.00	305.46	5.92	-48.1	-50.6	15.7	0.00e+00	0	43	0	1218445312	67	4902
2026-01-23 05:32:31.00	305.38	5.86	-48.1	-50.5	15.8	0.00e+00	0	44	0	1220542464	67	4870
2026-01-23 05:32:32.01	305.30	5.80	-48.1	-50.5	15.8	0.00e+00	0	43	0	1222639616	67	4852
2026-01-23 05:32:33.02	305.21	5.73	-47.9	-50.3	16.0	0.00e+00	0	43	0	1224736768	67	4719
2026-01-23 05:32:34.03	305.13	5.67	-48.0	-50.4	15.8	0.00e+00	0	43	0	1225785344	67	4806
2026-01-23 05:32:35.04	305.05	5.61	-48.0	-50.5	15.8	0.00e+00	0	43	0	1227882496	67	4815
2026-01-23 05:32:36.04	304.96	5.55	-48.1	-50.5	15.7	0.00e+00	0	43	0	1229979648	67	4854
