passes_logs/2026/01/23/R3.2S_Murmansk/R3.2S_Murmansk__20260123_043940_FENGYUN_3D_rec.log

#Pass ID: 20260123_043940_FENGYUN 3D
#Satellite: FENGYUN 3D
#Configuration: FENGYUN 3D
#almurnet v.1.7.20251203
#Start time: 2026-01-23 04:39:42

#Version: 2.2.20231116
#Station: R3.2S_Murmansk
#Location: 33.079688 lon 68.888172 lat
#TLE: 1 43010U 17072A   26022.47411728  .00000617  00000+0  31375-3 0  9996
#TLE: 2 43010  98.9952 354.4060 0002481  95.7964 264.3494 14.19699924424319

#Time	Az	El	Level	Level2	SNR	BER	BlckErr	Temp	State	Recorded	gain1	gain2
2026-01-23 04:39:42.53	34.96	2.14	-54.2	-66.2	3.8	8.46e-01	0	41	0	0	79	14738
2026-01-23 04:39:43.55	34.92	2.20	-54.4	-66.4	3.8	8.47e-01	0	41	104	0	79	15201
2026-01-23 04:39:44.55	34.88	2.26	-54.4	-66.4	3.8	8.47e-01	0	41	104	0	79	15076
2026-01-23 04:39:45.56	34.84	2.33	-54.4	-66.4	3.8	8.47e-01	0	41	104	0	79	15073
2026-01-23 04:39:46.57	34.80	2.39	-54.3	-66.3	3.8	8.48e-01	0	41	104	0	79	15046
2026-01-23 04:39:47.58	34.76	2.45	-54.3	-66.3	3.8	8.46e-01	0	41	104	0	79	14917
2026-01-23 04:39:48.59	34.72	2.51	-54.3	-66.2	3.8	8.46e-01	0	41	104	0	79	14852
2026-01-23 04:39:49.60	34.68	2.58	-54.2	-66.2	3.8	8.47e-01	0	41	104	0	79	14868
2026-01-23 04:39:50.60	34.64	2.64	-54.2	-66.2	3.8	8.46e-01	0	41	104	0	79	14821
2026-01-23 04:39:51.61	34.60	2.70	-54.2	-66.2	3.8	8.46e-01	0	41	104	0	79	14731
2026-01-23 04:39:52.62	34.56	2.77	-54.2	-66.2	3.8	8.46e-01	0	42	104	0	79	14711
2026-01-23 04:39:53.62	34.52	2.83	-54.1	-66.1	3.8	8.47e-01	0	42	104	0	79	14585
2026-01-23 04:39:54.63	34.47	2.89	-54.0	-66.0	3.8	8.46e-01	0	42	104	0	79	14418
2026-01-23 04:39:55.64	34.43	2.96	-54.0	-65.9	3.8	8.46e-01	0	42	104	0	79	14324
2026-01-23 04:39:56.65	34.39	3.02	-53.9	-65.8	3.8	8.47e-01	0	42	104	0	79	14205
2026-01-23 04:39:57.66	34.35	3.08	-53.8	-65.7	3.8	8.45e-01	0	42	104	0	79	13978
2026-01-23 04:39:58.67	34.31	3.15	-53.6	-65.6	3.8	8.46e-01	0	42	104	0	79	13824
2026-01-23 04:39:59.67	34.26	3.21	-53.5	-65.4	3.8	8.47e-01	0	42	104	0	79	13504
2026-01-23 04:40:00.68	34.22	3.28	-53.2	-65.0	3.8	8.46e-01	0	42	104	0	78	13696
2026-01-23 04:40:01.69	34.18	3.34	-52.8	-64.6	3.8	8.46e-01	0	42	104	0	77	13814
2026-01-23 04:40:02.70	34.14	3.41	-52.3	-63.4	3.8	8.45e-01	0	42	104	0	76	12682
2026-01-23 04:40:03.71	34.09	3.47	-52.2	-62.9	3.8	8.46e-01	0	42	104	0	76	12069
2026-01-23 04:40:04.71	34.05	3.54	-52.1	-62.3	3.8	8.46e-01	0	42	104	0	76	11274
2026-01-23 04:40:05.72	34.01	3.60	-52.1	-62.1	3.8	8.45e-01	0	42	104	0	76	10933
2026-01-23 04:40:06.73	33.96	3.67	-52.1	-62.0	3.8	8.45e-01	0	42	104	0	76	10889
2026-01-23 04:40:07.74	33.92	3.73	-52.1	-62.1	3.9	8.44e-01	0	42	104	0	76	10964
2026-01-23 04:40:08.75	33.87	3.80	-52.1	-62.2	3.9	8.44e-01	0	42	104	0	76	11052
2026-01-23 04:40:09.75	33.83	3.86	-52.1	-61.7	4.0	8.43e-01	0	42	104	0	76	10524
2026-01-23 04:40:10.76	33.78	3.93	-52.0	-60.9	4.1	8.41e-01	0	42	0	0	76	9561
2026-01-23 04:40:11.77	33.74	3.99	-51.7	-59.4	4.6	8.19e-01	0	42	0	0	75	8493
2026-01-23 04:40:12.78	33.69	4.06	-51.4	-58.0	5.4	7.35e-01	0	42	0	0	74	7635
2026-01-23 04:40:13.78	33.65	4.12	-50.8	-56.0	7.0	2.93e-01	0	42	0	4194304	73	6446
2026-01-23 04:40:14.79	33.60	4.19	-50.3	-54.5	8.5	7.47e-02	0	42	0	10485760	72	5744
2026-01-23 04:40:15.80	33.56	4.26	-49.7	-53.2	9.9	1.99e-02	0	42	0	15728640	71	5239
2026-01-23 04:40:16.81	33.51	4.32	-49.0	-51.9	11.3	2.48e-03	0	42	0	20971520	70	4778
2026-01-23 04:40:17.82	33.47	4.39	-48.6	-51.2	11.9	7.84e-04	0	42	0	27262976	69	4697
2026-01-23 04:40:18.83	33.42	4.46	-48.3	-50.8	12.4	2.13e-04	0	42	0	32505856	68	4733
2026-01-23 04:40:19.83	33.37	4.52	-48.1	-50.5	12.7	1.52e-04	0	42	0	38797312	68	4573
2026-01-23 04:40:20.84	33.33	4.59	-48.0	-50.4	12.9	5.83e-05	0	42	0	44040192	68	4506
2026-01-23 04:40:21.85	33.28	4.66	-48.1	-50.5	12.8	8.81e-05	0	42	0	50331648	68	4551
2026-01-23 04:40:22.86	33.23	4.73	-48.5	-51.0	12.2	2.09e-04	0	42	0	55574528	68	4861
2026-01-23 04:40:23.87	33.18	4.79	-48.7	-51.4	11.8	4.32e-04	0	42	0	60817408	68	5061
2026-01-23 04:40:24.87	33.14	4.86	-49.1	-52.1	11.1	1.51e-03	0	42	0	67108864	68	5472
2026-01-23 04:40:25.88	33.09	4.93	-49.8	-53.5	9.6	1.05e-02	0	42	0	72351744	70	5732
2026-01-23 04:40:26.89	33.04	5.00	-50.3	-54.6	8.4	3.10e-02	0	42	0	77594624	71	6175
2026-01-23 04:40:27.89	32.99	5.06	-46.0	-47.6	15.7	1.71e-05	0	42	0	83886080	64	4107
2026-01-23 04:40:28.90	32.94	5.13	-47.8	-50.1	13.3	1.10e-06	0	42	0	89128960	66	4871
2026-01-23 04:40:29.91	32.89	5.20	-52.2	-63.8	3.8	6.21e-01	0	42	104	93323264	74	14937
2026-01-23 04:40:30.92	32.84	5.27	-43.6	-44.7	18.2	6.40e-01	0	42	104	93323264	59	3919
2026-01-23 04:40:31.93	32.79	5.34	-52.2	-62.7	3.9	4.72e-01	0	42	0	97517568	74	13225
2026-01-23 04:40:32.93	32.74	5.41	-43.7	-44.7	18.2	7.86e-01	0	43	104	97517568	59	3947
2026-01-23 04:40:33.94	32.69	5.48	-43.7	-44.8	19.1	0.00e+00	0	43	0	102760448	59	3989
2026-01-23 04:40:34.95	32.64	5.55	-43.6	-44.6	19.2	0.00e+00	0	43	0	108003328	59	3912
2026-01-23 04:40:35.96	32.59	5.62	-43.4	-44.4	19.5	0.00e+00	0	42	0	113246208	58	4049
2026-01-23 04:40:36.97	32.54	5.69	-43.4	-44.5	19.5	0.00e+00	0	43	0	119537664	58	4059
2026-01-23 04:40:37.97	32.49	5.75	-43.6	-44.6	19.3	0.00e+00	0	43	0	124780544	58	4142
2026-01-23 04:40:38.98	32.44	5.82	-43.1	-44.2	19.8	0.00e+00	0	43	0	130023424	58	3918
2026-01-23 04:40:39.99	32.39	5.90	-43.4	-44.4	19.5	0.00e+00	0	43	0	136314880	58	4036
2026-01-23 04:40:41.00	32.34	5.97	-43.3	-44.4	19.5	0.00e+00	0	42	0	141557760	58	4018
2026-01-23 04:40:42.00	32.28	6.04	-43.5	-44.5	19.4	0.00e+00	0	43	0	146800640	58	4096
2026-01-23 04:40:43.01	32.23	6.11	-43.1	-44.2	19.8	0.00e+00	0	43	0	153092096	58	3921
2026-01-23 04:40:44.02	32.18	6.18	-43.2	-44.2	19.7	0.00e+00	0	43	0	158334976	58	3938
2026-01-23 04:40:45.03	32.13	6.25	-43.2	-44.2	19.8	0.00e+00	0	42	0	164626432	58	3951
2026-01-23 04:40:46.04	32.07	6.32	-43.4	-44.4	19.6	0.00e+00	0	43	0	169869312	58	4024
2026-01-23 04:40:47.05	32.02	6.39	-43.5	-44.5	19.5	0.00e+00	0	43	0	176160768	58	4096
2026-01-23 04:40:48.05	31.97	6.46	-43.3	-44.4	19.6	0.00e+00	0	43	0	181403648	58	4014
2026-01-23 04:40:49.06	31.91	6.53	-43.2	-44.2	19.8	0.00e+00	0	43	0	187695104	58	3957
2026-01-23 04:40:50.07	31.86	6.60	-43.3	-44.3	19.7	0.00e+00	0	43	0	192937984	58	3981
2026-01-23 04:40:51.08	31.80	6.68	-43.1	-44.1	19.9	0.00e+00	0	43	0	198180864	58	3902
2026-01-23 04:40:52.09	31.75	6.75	-43.1	-44.1	20.0	0.00e+00	0	43	0	204472320	58	3886
2026-01-23 04:40:53.10	31.69	6.82	-43.1	-44.2	19.9	0.00e+00	0	43	0	209715200	58	3923
2026-01-23 04:40:54.10	31.64	6.89	-43.0	-44.0	20.0	0.00e+00	0	43	0	214958080	58	3839
2026-01-23 04:40:55.11	31.58	6.97	-42.8	-43.7	20.3	0.00e+00	0	43	0	221249536	57	3957
2026-01-23 04:40:56.12	31.52	7.04	-42.8	-43.8	20.2	0.00e+00	0	43	0	226492416	57	3966
2026-01-23 04:40:57.13	31.47	7.11	-43.0	-44.0	20.1	0.00e+00	0	43	0	231735296	57	4069
2026-01-23 04:40:58.14	31.41	7.19	-43.0	-44.1	20.0	0.00e+00	0	43	0	238026752	57	4102
2026-01-23 04:40:59.15	31.35	7.26	-43.1	-44.1	20.0	0.00e+00	0	43	0	244318208	57	4123
2026-01-23 04:41:00.16	31.30	7.33	-43.0	-44.0	20.1	0.00e+00	0	43	0	249561088	57	4083
2026-01-23 04:41:01.17	31.24	7.41	-43.0	-44.0	20.1	0.00e+00	0	43	0	254803968	57	4068
2026-01-23 04:41:02.17	31.18	7.48	-42.8	-43.8	20.3	0.00e+00	0	43	0	261095424	57	3993
2026-01-23 04:41:03.18	31.12	7.55	-42.6	-43.6	20.5	0.00e+00	0	43	0	266338304	57	3877
2026-01-23 04:41:04.19	31.06	7.63	-42.6	-43.5	20.5	0.00e+00	0	43	0	272629760	57	3868
2026-01-23 04:41:05.20	31.00	7.70	-42.6	-43.6	20.5	0.00e+00	0	43	0	277872640	57	3873
2026-01-23 04:41:06.21	30.94	7.78	-42.7	-43.6	20.5	0.00e+00	0	43	0	283115520	57	3893
2026-01-23 04:41:07.21	30.89	7.85	-42.7	-43.6	20.5	0.00e+00	0	43	0	289406976	57	3909
2026-01-23 04:41:08.22	30.83	7.93	-42.7	-43.6	20.5	0.00e+00	0	43	0	294649856	57	3910
2026-01-23 04:41:09.23	30.76	8.00	-42.9	-43.8	20.3	0.00e+00	0	43	0	299892736	57	3993
2026-01-23 04:41:10.24	30.70	8.08	-42.8	-43.7	20.4	0.00e+00	0	43	0	306184192	57	3943
2026-01-23 04:41:11.24	30.64	8.15	-42.8	-43.7	20.4	0.00e+00	0	43	0	312475648	57	3952
2026-01-23 04:41:12.25	30.58	8.23	-42.6	-43.5	20.6	0.00e+00	0	43	0	317718528	57	3866
2026-01-23 04:41:13.26	30.52	8.30	-42.6	-43.6	20.6	0.00e+00	0	43	0	322961408	57	3883
2026-01-23 04:41:14.27	30.46	8.38	-42.6	-43.5	20.6	0.00e+00	0	43	0	329252864	57	3856
2026-01-23 04:41:15.28	30.40	8.46	-42.3	-43.3	20.9	0.00e+00	0	43	0	334495744	56	3961
2026-01-23 04:41:16.28	30.33	8.53	-42.4	-43.3	20.9	0.00e+00	0	43	0	339738624	56	3973
2026-01-23 04:41:17.29	30.27	8.61	-42.4	-43.3	20.8	0.00e+00	0	43	0	346030080	56	3999
2026-01-23 04:41:18.30	30.21	8.69	-42.4	-43.4	20.8	0.00e+00	0	43	0	351272960	56	4016
2026-01-23 04:41:19.31	30.14	8.77	-42.5	-43.4	20.8	0.00e+00	0	43	0	357564416	56	4030
2026-01-23 04:41:20.32	30.08	8.84	-42.6	-43.5	20.7	0.00e+00	0	43	0	362807296	56	4069
2026-01-23 04:41:21.32	30.01	8.92	-42.5	-43.4	20.8	0.00e+00	0	43	0	368050176	56	4044
2026-01-23 04:41:22.33	29.95	9.00	-42.3	-43.2	21.0	0.00e+00	0	43	0	374341632	56	3927
2026-01-23 04:41:23.34	29.88	9.08	-42.2	-43.2	21.1	0.00e+00	0	43	0	380633088	56	3919
2026-01-23 04:41:24.35	29.82	9.15	-42.1	-43.0	21.2	0.00e+00	0	43	0	385875968	56	3846
2026-01-23 04:41:25.36	29.75	9.23	-42.1	-43.0	21.2	0.00e+00	0	43	0	391118848	56	3855
2026-01-23 04:41:26.37	29.69	9.31	-42.1	-43.0	21.2	0.00e+00	0	43	0	397410304	56	3852
2026-01-23 04:41:27.38	29.62	9.39	-42.1	-43.0	21.3	0.00e+00	0	43	0	402653184	56	3828
2026-01-23 04:41:28.39	29.55	9.47	-42.1	-43.0	21.2	0.00e+00	0	43	0	407896064	56	3853
2026-01-23 04:41:29.40	29.48	9.55	-42.2	-43.1	21.2	0.00e+00	0	43	0	414187520	56	3880
2026-01-23 04:41:30.40	29.42	9.63	-42.1	-43.0	21.2	0.00e+00	0	43	0	419430400	56	3852
2026-01-23 04:41:31.41	29.35	9.71	-42.1	-43.0	21.3	0.00e+00	0	43	0	424673280	56	3851
2026-01-23 04:41:32.42	29.28	9.79	-42.1	-43.0	21.2	0.00e+00	0	43	0	430964736	56	3867
2026-01-23 04:41:33.43	29.21	9.87	-42.0	-42.9	21.3	0.00e+00	0	43	0	436207616	56	3810
2026-01-23 04:41:34.44	29.14	9.95	-42.0	-42.9	21.3	0.00e+00	0	43	0	442499072	56	3812
2026-01-23 04:41:35.45	29.07	10.03	-42.1	-43.0	21.3	0.00e+00	0	43	0	447741952	56	3842
2026-01-23 04:41:36.45	29.00	10.11	-42.1	-43.0	21.3	0.00e+00	0	43	0	454033408	56	3863
2026-01-23 04:41:37.46	28.93	10.19	-42.1	-43.0	21.3	0.00e+00	0	43	0	459276288	56	3828
2026-01-23 04:41:38.47	28.86	10.27	-42.1	-43.0	21.3	0.00e+00	0	43	0	465567744	56	3834
2026-01-23 04:41:39.48	28.79	10.35	-42.1	-43.0	21.3	0.00e+00	0	43	0	470810624	56	3865
2026-01-23 04:41:40.48	28.72	10.43	-42.2	-43.1	21.2	0.00e+00	0	43	0	476053504	56	3893
2026-01-23 04:41:41.49	28.64	10.52	-42.2	-43.1	21.3	0.00e+00	0	43	0	482344960	56	3877
2026-01-23 04:41:42.50	28.57	10.60	-41.9	-42.8	21.5	0.00e+00	0	43	0	487587840	55	3965
2026-01-23 04:41:43.51	28.50	10.68	-41.9	-42.8	21.4	0.00e+00	0	43	0	492830720	55	3984
2026-01-23 04:41:44.52	28.42	10.76	-42.0	-42.9	21.3	0.00e+00	0	43	0	499122176	55	4022
2026-01-23 04:41:45.52	28.35	10.85	-41.8	-42.6	21.6	0.00e+00	0	43	0	504365056	55	3903
2026-01-23 04:41:46.53	28.28	10.93	-41.8	-42.7	21.5	0.00e+00	0	43	0	510656512	55	3931
2026-01-23 04:41:47.54	28.20	11.01	-41.8	-42.7	21.5	0.00e+00	0	43	0	515899392	55	3917
2026-01-23 04:41:48.55	28.13	11.10	-41.8	-42.7	21.6	0.00e+00	0	43	0	522190848	55	3915
2026-01-23 04:41:49.56	28.05	11.18	-41.8	-42.7	21.6	0.00e+00	0	43	0	527433728	55	3917
2026-01-23 04:41:50.57	27.97	11.26	-41.6	-42.5	21.8	0.00e+00	0	43	0	532676608	55	3832
2026-01-23 04:41:51.57	27.90	11.35	-41.7	-42.5	21.7	0.00e+00	0	43	0	538968064	55	3857
2026-01-23 04:41:52.58	27.82	11.43	-41.7	-42.5	21.8	0.00e+00	0	43	0	544210944	55	3848
2026-01-23 04:41:53.59	27.74	11.52	-41.4	-42.2	22.0	0.00e+00	0	43	0	550502400	54	3939
2026-01-23 04:41:54.60	27.66	11.60	-41.4	-42.2	22.0	0.00e+00	0	43	0	555745280	54	3938
2026-01-23 04:41:55.61	27.58	11.69	-41.4	-42.3	22.0	0.00e+00	0	43	0	560988160	54	3961
2026-01-23 04:41:56.62	27.50	11.77	-41.5	-42.3	21.9	0.00e+00	0	43	0	567279616	54	3987
2026-01-23 04:41:57.62	27.43	11.86	-41.6	-42.5	21.8	0.00e+00	0	43	0	572522496	54	4057
2026-01-23 04:41:58.63	27.35	11.94	-41.5	-42.3	21.9	0.00e+00	0	43	0	578813952	54	3998
2026-01-23 04:41:59.64	27.26	12.03	-41.4	-42.3	22.0	0.00e+00	0	43	0	584056832	54	3964
2026-01-23 04:42:00.65	27.18	12.12	-41.4	-42.2	22.1	0.00e+00	0	43	0	590348288	54	3935
2026-01-23 04:42:01.66	27.10	12.20	-41.5	-42.3	22.0	0.00e+00	0	43	0	595591168	54	3986
2026-01-23 04:42:02.67	27.02	12.29	-41.5	-42.4	21.9	0.00e+00	0	43	0	600834048	54	4015
2026-01-23 04:42:03.67	26.94	12.38	-41.3	-42.2	22.1	0.00e+00	0	43	0	607125504	54	3929
2026-01-23 04:42:04.68	26.85	12.46	-41.2	-42.1	22.2	0.00e+00	0	43	0	612368384	54	3872
2026-01-23 04:42:05.69	26.77	12.55	-41.2	-42.1	22.2	0.00e+00	0	43	0	617611264	54	3869
2026-01-23 04:42:06.70	26.69	12.64	-41.2	-42.0	22.2	0.00e+00	0	43	0	623902720	54	3862
2026-01-23 04:42:07.70	26.60	12.73	-41.2	-42.0	22.3	0.00e+00	0	43	0	629145600	54	3853
2026-01-23 04:42:08.71	26.52	12.81	-41.2	-42.0	22.2	0.00e+00	0	43	0	635437056	54	3867
2026-01-23 04:42:09.72	26.43	12.90	-41.1	-41.9	22.4	0.00e+00	0	43	0	640679936	54	3809
2026-01-23 04:42:10.73	26.34	12.99	-41.1	-41.9	22.4	0.00e+00	0	43	0	645922816	54	3813
2026-01-23 04:42:11.74	26.26	13.08	-41.0	-41.8	22.5	0.00e+00	0	43	0	652214272	54	3776
2026-01-23 04:42:12.74	26.17	13.17	-41.0	-41.9	22.4	0.00e+00	0	43	0	658505728	54	3781
2026-01-23 04:42:13.75	26.08	13.26	-41.0	-41.8	22.5	0.00e+00	0	43	0	663748608	54	3763
2026-01-23 04:42:14.76	25.99	13.35	-41.1	-41.9	22.4	0.00e+00	0	43	0	668991488	54	3796
2026-01-23 04:42:15.77	25.90	13.44	-41.0	-41.8	22.5	0.00e+00	0	43	0	675282944	54	3778
2026-01-23 04:42:16.78	25.81	13.53	-41.1	-41.9	22.4	0.00e+00	0	43	0	680525824	54	3802
2026-01-23 04:42:17.78	25.73	13.62	-41.1	-41.9	22.4	0.00e+00	0	43	0	685768704	54	3820
2026-01-23 04:42:18.79	25.63	13.71	-41.2	-42.1	22.3	0.00e+00	0	43	0	692060160	54	3875
2026-01-23 04:42:19.80	25.54	13.80	-41.1	-41.9	22.4	0.00e+00	0	43	0	697303040	54	3813
2026-01-23 04:42:20.81	25.45	13.90	-41.1	-41.9	22.4	0.00e+00	0	43	0	702545920	54	3815
2026-01-23 04:42:21.82	25.36	13.99	-41.1	-41.9	22.4	0.00e+00	0	43	0	708837376	54	3819
2026-01-23 04:42:22.83	25.26	14.08	-41.0	-41.9	22.5	0.00e+00	0	43	0	714080256	54	3784
2026-01-23 04:42:23.84	25.17	14.17	-40.9	-41.8	22.5	0.00e+00	0	43	0	720371712	53	3964
2026-01-23 04:42:24.85	25.08	14.26	-41.1	-41.9	22.4	0.00e+00	0	43	0	725614592	53	4027
2026-01-23 04:42:25.85	24.98	14.36	-41.1	-42.0	22.4	0.00e+00	0	43	0	731906048	53	4059
2026-01-23 04:42:26.87	24.88	14.45	-41.0	-41.9	22.5	0.00e+00	0	43	0	737148928	53	4006
2026-01-23 04:42:27.87	24.79	14.54	-41.0	-41.8	22.5	0.00e+00	0	43	0	743440384	53	3988
2026-01-23 04:42:28.88	24.69	14.64	-40.9	-41.7	22.6	0.00e+00	0	43	0	748683264	53	3947
2026-01-23 04:42:29.89	24.59	14.73	-40.9	-41.7	22.7	0.00e+00	0	44	0	753926144	53	3926
2026-01-23 04:42:30.90	24.50	14.83	-40.9	-41.7	22.7	0.00e+00	0	43	0	760217600	53	3929
2026-01-23 04:42:31.90	24.40	14.92	-40.9	-41.8	22.6	0.00e+00	0	43	0	765460480	53	3964
2026-01-23 04:42:32.91	24.30	15.01	-40.9	-41.7	22.7	0.00e+00	0	43	0	770703360	53	3923
2026-01-23 04:42:33.92	24.20	15.11	-40.9	-41.7	22.7	0.00e+00	0	43	0	776994816	53	3935
2026-01-23 04:42:34.93	24.10	15.20	-40.8	-41.6	22.8	0.00e+00	0	43	0	783286272	53	3874
2026-01-23 04:42:35.94	24.00	15.30	-40.8	-41.6	22.7	0.00e+00	0	43	0	788529152	53	3900
2026-01-23 04:42:36.95	23.89	15.40	-40.8	-41.6	22.8	0.00e+00	0	43	0	793772032	53	3906
2026-01-23 04:42:37.96	23.79	15.49	-40.6	-41.4	23.0	0.00e+00	0	43	0	800063488	53	3803
2026-01-23 04:42:38.96	23.69	15.59	-40.6	-41.4	22.9	0.00e+00	0	43	0	805306368	53	3808
2026-01-23 04:42:39.97	23.58	15.69	-40.7	-41.5	22.9	0.00e+00	0	43	0	810549248	53	3841
2026-01-23 04:42:40.98	23.48	15.78	-40.5	-41.3	23.0	0.00e+00	0	43	0	816840704	53	3763
2026-01-23 04:42:41.99	23.37	15.88	-40.5	-41.3	23.1	0.00e+00	0	43	0	822083584	53	3760
2026-01-23 04:42:43.00	23.27	15.98	-40.6	-41.4	23.0	0.00e+00	0	43	0	828375040	53	3787
2026-01-23 04:42:44.01	23.16	16.08	-40.5	-41.3	23.1	0.00e+00	0	43	0	833617920	52	3981
2026-01-23 04:42:45.02	23.05	16.17	-40.5	-41.3	23.1	0.00e+00	0	43	0	838860800	52	3981
2026-01-23 04:42:46.03	22.94	16.27	-40.3	-41.1	23.2	0.00e+00	0	43	0	845152256	52	3892
2026-01-23 04:42:47.04	22.83	16.37	-40.4	-41.1	23.2	0.00e+00	0	43	0	851443712	52	3903
2026-01-23 04:42:48.05	22.72	16.47	-40.4	-41.1	23.2	0.00e+00	0	43	0	856686592	52	3909
2026-01-23 04:42:49.05	22.61	16.57	-40.3	-41.1	23.3	0.00e+00	0	43	0	861929472	52	3899
2026-01-23 04:42:50.06	22.50	16.67	-40.3	-41.0	23.3	0.00e+00	0	43	0	868220928	52	3857
2026-01-23 04:42:51.07	22.39	16.77	-40.2	-41.0	23.3	0.00e+00	0	43	0	873463808	52	3852
2026-01-23 04:42:52.08	22.28	16.87	-40.1	-40.9	23.4	0.00e+00	0	43	0	878706688	52	3806
2026-01-23 04:42:53.09	22.16	16.97	-40.2	-41.0	23.4	0.00e+00	0	43	0	884998144	52	3835
2026-01-23 04:42:54.09	22.05	17.07	-40.2	-40.9	23.4	0.00e+00	0	44	0	890241024	52	3822
2026-01-23 04:42:55.10	21.93	17.17	-40.0	-40.8	23.6	0.00e+00	0	43	0	895483904	52	3740
2026-01-23 04:42:56.11	21.82	17.27	-40.1	-40.8	23.6	0.00e+00	0	43	0	901775360	51	3985
2026-01-23 04:42:57.12	21.70	17.38	-40.2	-41.0	23.5	0.00e+00	0	43	0	907018240	51	4054
2026-01-23 04:42:58.13	21.58	17.48	-40.3	-41.1	23.4	0.00e+00	0	43	0	913309696	51	4101
2026-01-23 04:42:59.14	21.46	17.58	-40.3	-41.0	23.4	0.00e+00	0	43	0	918552576	51	4093
2026-01-23 04:43:00.15	21.34	17.68	-40.3	-41.1	23.4	0.00e+00	0	43	0	924844032	51	4126
2026-01-23 04:43:01.16	21.22	17.79	-40.2	-41.0	23.5	0.00e+00	0	43	0	930086912	51	4079
2026-01-23 04:43:02.17	21.10	17.89	-40.1	-40.9	23.6	0.00e+00	0	43	0	936378368	51	4010
2026-01-23 04:43:03.17	20.98	17.99	-40.1	-40.9	23.6	0.00e+00	0	43	0	941621248	51	4024
2026-01-23 04:43:04.18	20.86	18.10	-40.1	-40.9	23.6	0.00e+00	0	43	0	946864128	51	4018
2026-01-23 04:43:05.19	20.73	18.20	-40.2	-40.9	23.6	0.00e+00	0	43	0	953155584	51	4049
2026-01-23 04:43:06.20	20.61	18.30	-40.1	-40.9	23.6	0.00e+00	0	43	0	958398464	51	4031
2026-01-23 04:43:07.20	20.48	18.41	-40.0	-40.8	23.7	0.00e+00	0	43	0	963641344	51	3966
2026-01-23 04:43:08.21	20.36	18.51	-40.0	-40.7	23.7	0.00e+00	0	43	0	969932800	51	3946
2026-01-23 04:43:09.22	20.23	18.62	-39.9	-40.7	23.8	0.00e+00	0	43	0	975175680	51	3927
2026-01-23 04:43:10.23	20.10	18.73	-40.0	-40.7	23.7	0.00e+00	0	43	0	980418560	51	3953
2026-01-23 04:43:11.24	19.97	18.83	-39.9	-40.6	23.8	0.00e+00	0	43	0	986710016	51	3904
2026-01-23 04:43:12.25	19.84	18.94	-42.6	-43.4	21.0	0.00e+00	0	43	0	993001472	56	4050
2026-01-23 04:43:13.26	19.71	19.04	-39.9	-40.7	23.8	0.00e+00	0	43	0	998244352	51	3923
2026-01-23 04:43:14.26	19.58	19.15	-39.8	-40.6	23.9	0.00e+00	0	43	0	1003487232	51	3873
2026-01-23 04:43:15.27	19.45	19.26	-39.8	-40.6	23.9	0.00e+00	0	43	0	1009778688	51	3869
2026-01-23 04:43:16.28	19.31	19.36	-39.8	-40.5	24.0	0.00e+00	0	44	0	1015021568	51	3855
2026-01-23 04:43:17.29	19.18	19.47	-39.7	-40.4	24.1	0.00e+00	0	43	0	1021313024	51	3817
2026-01-23 04:43:18.30	19.04	19.58	-39.7	-40.4	24.0	0.00e+00	0	43	0	1026555904	51	3814
2026-01-23 04:43:19.31	18.90	19.69	-39.5	-40.3	24.2	0.00e+00	0	43	0	1031798784	51	3741
2026-01-23 04:43:20.32	18.77	19.80	-39.3	-40.0	24.4	0.00e+00	0	43	0	1038090240	50	3868
2026-01-23 04:43:21.33	18.63	19.91	-39.3	-40.0	24.4	0.00e+00	0	44	0	1043333120	50	3866
2026-01-23 04:43:22.34	18.49	20.02	-39.3	-40.0	24.4	0.00e+00	0	43	0	1049624576	50	3857
2026-01-23 04:43:23.35	18.35	20.13	-39.4	-40.1	24.4	0.00e+00	0	43	0	1054867456	50	3884
2026-01-23 04:43:24.36	18.20	20.24	-39.4	-40.2	24.3	0.00e+00	0	43	0	1061158912	50	3925
2026-01-23 04:43:25.37	18.06	20.35	-39.5	-40.2	24.2	0.00e+00	0	43	0	1066401792	50	3953
2026-01-23 04:43:26.37	17.92	20.46	-39.4	-40.2	24.3	0.00e+00	0	43	0	1071644672	50	3921
2026-01-23 04:43:27.38	17.77	20.57	-39.5	-40.2	24.3	0.00e+00	0	43	0	1077936128	50	3943
2026-01-23 04:43:28.39	17.63	20.68	-39.6	-40.4	24.1	0.00e+00	0	43	0	1083179008	50	4008
2026-01-23 04:43:29.40	17.48	20.79	-39.6	-40.3	24.2	0.00e+00	0	44	0	1088421888	50	3985
2026-01-23 04:43:30.41	17.33	20.90	-39.7	-40.4	24.1	0.00e+00	0	43	0	1094713344	50	4030
2026-01-23 04:43:31.42	17.18	21.01	-39.7	-40.4	24.1	0.00e+00	0	43	0	1099956224	50	4033
2026-01-23 04:43:32.43	17.03	21.12	-39.6	-40.4	24.2	0.00e+00	0	44	0	1106247680	50	4005
2026-01-23 04:43:33.43	16.88	21.24	-39.4	-40.1	24.4	0.00e+00	0	43	0	1111490560	50	3900
2026-01-23 04:43:34.44	16.73	21.35	-39.3	-40.0	24.5	0.00e+00	0	44	0	1117782016	50	3854
2026-01-23 04:43:35.45	16.57	21.46	-39.3	-40.0	24.5	0.00e+00	0	43	0	1123024896	50	3840
2026-01-23 04:43:36.46	16.42	21.58	-39.1	-39.8	24.6	0.00e+00	0	44	0	1129316352	50	3763
2026-01-23 04:43:37.47	16.26	21.69	-39.0	-39.7	24.7	0.00e+00	0	43	0	1134559232	50	3735
2026-01-23 04:43:38.48	16.10	21.80	-38.9	-39.7	24.8	0.00e+00	0	43	0	1139802112	49	3916
2026-01-23 04:43:39.49	15.94	21.92	-38.9	-39.6	24.8	0.00e+00	0	43	0	1146093568	49	3899
2026-01-23 04:43:40.50	15.78	22.03	-38.9	-39.6	24.8	0.00e+00	0	43	0	1151336448	49	3913
2026-01-23 04:43:41.51	15.62	22.15	-38.9	-39.6	24.9	0.00e+00	0	43	0	1156579328	49	3873
2026-01-23 04:43:42.52	15.46	22.26	-38.9	-39.7	24.8	0.00e+00	0	43	0	1162870784	49	3914
2026-01-23 04:43:43.53	15.30	22.38	-38.8	-39.5	24.9	0.00e+00	0	44	0	1168113664	49	3860
2026-01-23 04:43:44.54	15.13	22.49	-38.9	-39.6	24.9	0.00e+00	0	43	0	1174405120	49	3875
2026-01-23 04:43:45.55	14.96	22.61	-38.8	-39.5	25.0	0.00e+00	0	44	0	1179648000	49	3830
2026-01-23 04:43:46.56	14.80	22.72	-38.7	-39.4	25.0	0.00e+00	0	44	0	1185939456	49	3817
2026-01-23 04:43:47.57	14.63	22.84	-38.8	-39.5	24.9	0.00e+00	0	43	0	1191182336	49	3840
2026-01-23 04:43:48.57	14.46	22.96	-38.7	-39.4	25.0	0.00e+00	0	43	0	1196425216	49	3810
2026-01-23 04:43:49.58	14.29	23.07	-38.7	-39.4	25.0	0.00e+00	0	43	0	1202716672	49	3814
2026-01-23 04:43:50.59	14.12	23.19	-38.8	-39.6	24.9	0.00e+00	0	43	0	1207959552	49	3873
2026-01-23 04:43:51.60	13.94	23.31	-38.8	-39.5	24.9	0.00e+00	0	43	0	1214251008	49	3860
2026-01-23 04:43:52.61	13.77	23.43	-38.8	-39.5	24.9	0.00e+00	0	44	0	1219493888	49	3861
2026-01-23 04:43:53.62	13.59	23.54	-38.8	-39.5	24.9	0.00e+00	0	44	0	1224736768	49	3855
2026-01-23 04:43:54.63	13.41	23.66	-38.9	-39.6	24.9	0.00e+00	0	43	0	1231028224	49	3878
2026-01-23 04:43:55.64	13.23	23.78	-38.8	-39.5	24.9	0.00e+00	0	43	0	1237319680	49	3840
2026-01-23 04:43:56.65	13.05	23.90	-38.8	-39.6	24.9	0.00e+00	0	44	0	1242562560	49	3870
2026-01-23 04:43:57.66	12.87	24.02	-38.8	-39.6	24.9	0.00e+00	0	43	0	1247805440	49	3873
2026-01-23 04:43:58.67	12.69	24.14	-38.9	-39.6	24.8	0.00e+00	0	44	0	1254096896	49	3908
2026-01-23 04:43:59.68	12.50	24.26	-38.9	-39.6	24.9	0.00e+00	0	44	0	1259339776	49	3878
2026-01-23 04:44:00.69	12.31	24.37	-38.8	-39.5	25.0	0.00e+00	0	43	0	1264582656	49	3850
2026-01-23 04:44:01.69	12.13	24.49	-38.8	-39.6	24.9	0.00e+00	0	43	0	1270874112	49	3872
2026-01-23 04:44:02.70	11.94	24.61	-38.7	-39.5	25.0	0.00e+00	0	43	0	1276116992	49	3829
2026-01-23 04:44:03.71	11.75	24.73	-38.7	-39.4	25.1	0.00e+00	0	43	0	1281359872	49	3797
2026-01-23 04:44:04.72	11.56	24.85	-38.7	-39.4	25.0	0.00e+00	0	43	0	1287651328	49	3810
2026-01-23 04:44:05.72	11.36	24.97	-38.7	-39.4	25.1	0.00e+00	0	43	0	1292894208	49	3802
2026-01-23 04:44:06.73	11.17	25.09	-38.8	-39.5	25.0	0.00e+00	0	43	0	1299185664	49	3841
2026-01-23 04:44:07.74	10.97	25.21	-38.5	-39.2	25.2	0.00e+00	0	43	0	1304428544	49	3735
2026-01-23 04:44:08.75	10.77	25.33	-38.5	-39.2	25.2	0.00e+00	0	44	0	1310720000	49	3725
2026-01-23 04:44:09.76	10.57	25.46	-38.5	-39.2	25.3	0.00e+00	0	43	0	1315962880	49	3706
2026-01-23 04:44:10.76	10.37	25.58	-38.5	-39.2	25.3	0.00e+00	0	44	0	1322254336	49	3697
2026-01-23 04:44:11.77	10.17	25.70	-38.3	-39.0	25.4	0.00e+00	0	44	0	1327497216	48	3857
2026-01-23 04:44:12.78	9.97	25.82	-38.4	-39.1	25.4	0.00e+00	0	43	0	1332740096	48	3881
2026-01-23 04:44:13.79	9.76	25.94	-38.4	-39.1	25.3	0.00e+00	0	43	0	1339031552	48	3909
2026-01-23 04:44:14.80	9.55	26.06	-38.4	-39.1	25.3	0.00e+00	0	43	0	1344274432	48	3899
2026-01-23 04:44:15.81	9.34	26.18	-38.4	-39.2	25.3	0.00e+00	0	44	0	1349517312	48	3918
2026-01-23 04:44:16.81	9.13	26.31	-38.5	-39.2	25.3	0.00e+00	0	43	0	1355808768	48	3932
2026-01-23 04:44:17.82	8.92	26.43	-38.4	-39.1	25.4	0.00e+00	0	44	0	1361051648	48	3875
2026-01-23 04:44:18.83	8.71	26.55	-38.4	-39.1	25.3	0.00e+00	0	43	0	1366294528	48	3882
2026-01-23 04:44:19.84	8.49	26.67	-38.2	-38.9	25.5	0.00e+00	0	44	0	1372585984	48	3816
2026-01-23 04:44:20.85	8.27	26.80	-38.2	-38.9	25.5	0.00e+00	0	44	0	1378877440	48	3799
2026-01-23 04:44:21.85	8.06	26.92	-38.3	-39.0	25.5	0.00e+00	0	43	0	1384120320	48	3839
2026-01-23 04:44:22.86	7.83	27.04	-38.3	-38.9	25.5	0.00e+00	0	44	0	1389363200	48	3821
2026-01-23 04:44:23.87	7.61	27.16	-38.2	-38.9	25.6	0.00e+00	0	44	0	1395654656	48	3784
2026-01-23 04:44:24.88	7.39	27.28	-38.2	-38.9	25.6	0.00e+00	0	43	0	1400897536	48	3799
2026-01-23 04:44:25.88	7.16	27.41	-38.3	-39.0	25.5	0.00e+00	0	43	0	1407188992	48	3840
2026-01-23 04:44:26.89	6.93	27.53	-38.3	-38.9	25.5	0.00e+00	0	43	0	1412431872	48	3819
2026-01-23 04:44:27.90	6.70	27.65	-38.2	-38.9	25.6	0.00e+00	0	43	0	1417674752	48	3792
2026-01-23 04:44:28.91	6.47	27.78	-38.2	-38.9	25.5	0.00e+00	0	44	0	1423966208	48	3807
2026-01-23 04:44:29.91	6.24	27.90	-38.2	-38.9	25.6	0.00e+00	0	43	0	1429209088	48	3801
2026-01-23 04:44:30.92	6.01	28.02	-38.3	-39.0	25.5	0.00e+00	0	44	0	1434451968	48	3836
2026-01-23 04:44:31.93	5.77	28.14	-38.3	-39.0	25.4	0.00e+00	0	43	0	1440743424	48	3848
2026-01-23 04:44:32.94	5.53	28.27	-38.3	-39.0	25.4	0.00e+00	0	44	0	1447034880	48	3862
2026-01-23 04:44:33.95	5.29	28.39	-38.3	-39.0	25.5	0.00e+00	0	44	0	1452277760	48	3845
2026-01-23 04:44:34.96	5.05	28.51	-38.4	-39.1	25.4	0.00e+00	0	43	0	1457520640	48	3871
2026-01-23 04:44:35.96	4.80	28.63	-38.1	-38.8	25.6	0.00e+00	0	43	0	1463812096	48	3768
2026-01-23 04:44:36.97	4.56	28.76	-38.0	-38.7	25.8	0.00e+00	0	44	0	1469054976	48	3716
2026-01-23 04:44:37.98	4.31	28.88	-38.0	-38.7	25.8	0.00e+00	0	43	0	1474297856	48	3711
2026-01-23 04:44:38.98	4.06	29.00	-37.7	-38.4	25.5	0.00e+00	0	44	0	1480589312	47	3815
2026-01-23 04:44:39.99	3.81	29.12	-37.7	-38.4	25.5	0.00e+00	0	43	0	1485832192	47	3822
2026-01-23 04:44:41.00	3.55	29.25	-37.7	-38.4	25.5	0.00e+00	0	43	0	1492123648	47	3789
2026-01-23 04:44:42.01	3.30	29.37	-37.6	-38.3	25.6	0.00e+00	0	44	0	1497366528	47	3776
2026-01-23 04:44:43.01	3.04	29.49	-37.6	-38.4	25.6	0.00e+00	0	44	0	1502609408	47	3783
2026-01-23 04:44:44.02	2.78	29.61	-37.8	-38.5	25.4	0.00e+00	0	43	0	1508900864	47	3847
2026-01-23 04:44:45.03	2.52	29.74	-37.9	-38.6	25.4	0.00e+00	0	43	0	1514143744	47	3884
2026-01-23 04:44:46.04	2.25	29.86	-38.0	-38.7	25.3	0.00e+00	0	44	0	1520435200	47	3922
2026-01-23 04:44:47.04	1.99	29.98	-37.8	-38.5	25.4	0.00e+00	0	43	0	1525678080	47	3844
2026-01-23 04:44:48.05	1.72	30.10	-37.7	-38.4	25.5	0.00e+00	0	44	0	1531969536	47	3791
2026-01-23 04:44:49.06	1.45	30.22	-37.6	-38.3	25.6	0.00e+00	0	44	0	1537212416	47	3770
2026-01-23 04:44:50.07	1.18	30.34	-37.7	-38.4	25.5	0.00e+00	0	44	0	1542455296	47	3800
2026-01-23 04:44:51.08	0.90	30.46	-37.8	-38.5	25.5	0.00e+00	0	43	0	1548746752	47	3841
2026-01-23 04:44:52.09	0.63	30.58	-37.9	-38.6	25.4	0.00e+00	0	44	0	1553989632	47	3886
2026-01-23 04:44:53.10	0.35	30.70	-37.8	-38.5	25.4	0.00e+00	0	44	0	1559232512	47	3850
2026-01-23 04:44:54.11	0.07	30.82	-37.8	-38.5	25.4	0.00e+00	0	43	0	1565523968	47	3854
2026-01-23 04:44:55.11	359.79	30.94	-37.9	-38.6	25.4	0.00e+00	0	44	0	1570766848	47	3871
2026-01-23 04:44:56.12	359.50	31.06	-37.8	-38.5	25.4	0.00e+00	0	44	0	1577058304	47	3844
2026-01-23 04:44:57.13	359.21	31.18	-37.6	-38.4	25.6	0.00e+00	0	44	0	1582301184	47	3781
2026-01-23 04:44:58.14	358.93	31.30	-37.5	-38.2	25.7	0.00e+00	0	44	0	1588592640	47	3728
2026-01-23 04:44:59.15	358.63	31.42	-37.6	-38.2	25.7	0.00e+00	0	44	0	1593835520	47	3736
2026-01-23 04:45:00.16	358.34	31.54	-37.4	-38.1	25.8	0.00e+00	0	44	0	1600126976	46	3908
2026-01-23 04:45:01.17	358.04	31.66	-37.4	-38.1	25.8	0.00e+00	0	44	0	1605369856	46	3882
2026-01-23 04:45:02.17	357.75	31.77	-37.5	-38.2	25.7	0.00e+00	0	44	0	1610612736	46	3934
2026-01-23 04:45:03.18	357.45	31.89	-37.5	-38.2	25.7	0.00e+00	0	44	0	1616904192	46	3945
2026-01-23 04:45:04.19	357.15	32.01	-37.5	-38.2	25.7	0.00e+00	0	43	0	1622147072	46	3950
2026-01-23 04:45:05.20	356.84	32.12	-37.5	-38.2	25.7	0.00e+00	0	44	0	1627389952	46	3954
2026-01-23 04:45:06.20	356.54	32.24	-37.5	-38.2	25.7	0.00e+00	0	44	0	1633681408	46	3931
2026-01-23 04:45:07.21	356.23	32.35	-37.4	-38.1	25.8	0.00e+00	0	44	0	1638924288	46	3883
2026-01-23 04:45:08.22	355.92	32.47	-37.4	-38.1	25.8	0.00e+00	0	44	0	1645215744	46	3905
2026-01-23 04:45:09.23	355.60	32.58	-37.5	-38.2	25.7	0.00e+00	0	44	0	1650458624	46	3947
2026-01-23 04:45:10.23	355.29	32.69	-37.4	-38.1	25.8	0.00e+00	0	44	0	1656750080	46	3899
2026-01-23 04:45:11.24	354.97	32.81	-37.4	-38.1	25.8	0.00e+00	0	44	0	1661992960	46	3903
2026-01-23 04:45:12.25	354.65	32.92	-37.4	-38.1	25.8	0.00e+00	0	44	0	1667235840	46	3891
2026-01-23 04:45:13.26	354.33	33.03	-37.4	-38.2	25.8	0.00e+00	0	44	0	1673527296	46	3914
2026-01-23 04:45:14.27	354.01	33.14	-37.3	-38.0	25.9	0.00e+00	0	44	0	1678770176	46	3829
2026-01-23 04:45:15.28	353.68	33.25	-37.2	-37.9	26.0	0.00e+00	0	44	0	1685061632	46	3804
2026-01-23 04:45:16.28	353.35	33.36	-37.3	-38.0	25.9	0.00e+00	0	44	0	1690304512	46	3851
2026-01-23 04:45:17.29	353.02	33.47	-37.4	-38.1	25.8	0.00e+00	0	44	0	1695547392	46	3895
2026-01-23 04:45:18.30	352.69	33.58	-37.4	-38.1	25.9	0.00e+00	0	44	0	1701838848	46	3870
2026-01-23 04:45:19.31	352.35	33.69	-37.3	-38.0	25.9	0.00e+00	0	44	0	1707081728	46	3843
2026-01-23 04:45:20.31	352.02	33.79	-37.4	-38.1	25.8	0.00e+00	0	44	0	1712324608	46	3873
2026-01-23 04:45:21.32	351.68	33.90	-37.5	-38.2	25.7	0.00e+00	0	44	0	1718616064	46	3943
2026-01-23 04:45:22.33	351.34	34.00	-37.5	-38.3	25.7	0.00e+00	0	44	0	1723858944	46	3961
2026-01-23 04:45:23.34	350.99	34.11	-37.5	-38.2	25.8	0.00e+00	0	44	0	1730150400	46	3927
2026-01-23 04:45:24.35	350.64	34.21	-37.5	-38.2	25.7	0.00e+00	0	44	0	1735393280	46	3938
2026-01-23 04:45:25.35	350.30	34.31	-37.5	-38.2	25.7	0.00e+00	0	44	0	1741684736	46	3950
2026-01-23 04:45:26.37	349.94	34.42	-37.5	-38.2	25.7	0.00e+00	0	44	0	1746927616	46	3925
2026-01-23 04:45:27.37	349.59	34.52	-37.4	-38.1	25.8	0.00e+00	0	44	0	1753219072	46	3902
2026-01-23 04:45:28.38	349.24	34.62	-37.3	-38.0	26.0	0.00e+00	0	44	0	1758461952	46	3841
2026-01-23 04:45:29.39	348.88	34.72	-37.3	-38.0	25.9	0.00e+00	0	44	0	1763704832	46	3844
2026-01-23 04:45:30.40	348.52	34.81	-37.2	-37.9	26.0	0.00e+00	0	44	0	1769996288	46	3800
2026-01-23 04:45:31.41	348.16	34.91	-37.2	-37.9	26.1	0.00e+00	0	44	0	1775239168	46	3792
2026-01-23 04:45:32.41	347.80	35.01	-37.3	-38.0	26.0	0.00e+00	0	44	0	1780482048	46	3827
2026-01-23 04:45:33.42	347.43	35.10	-37.2	-37.9	26.0	0.00e+00	0	44	0	1786773504	46	3804
2026-01-23 04:45:34.43	347.06	35.20	-37.2	-37.9	26.1	0.00e+00	0	44	0	1792016384	46	3781
2026-01-23 04:45:35.44	346.69	35.29	-37.1	-37.8	26.2	0.00e+00	0	44	0	1798307840	46	3750
2026-01-23 04:45:36.44	346.32	35.38	-37.2	-37.9	26.1	0.00e+00	0	44	0	1803550720	46	3793
2026-01-23 04:45:37.45	345.94	35.47	-37.2	-37.9	26.0	0.00e+00	0	44	0	1809842176	46	3821
2026-01-23 04:45:38.46	345.57	35.56	-37.3	-38.0	26.0	0.00e+00	0	44	0	1815085056	46	3826
2026-01-23 04:45:39.47	345.19	35.65	-37.4	-38.1	25.9	0.00e+00	0	44	0	1820327936	46	3878
2026-01-23 04:45:40.47	344.81	35.74	-37.5	-38.2	25.8	0.00e+00	0	44	0	1826619392	46	3936
2026-01-23 04:45:41.48	344.43	35.82	-37.4	-38.1	25.9	0.00e+00	0	44	0	1831862272	46	3874
2026-01-23 04:45:42.49	344.04	35.91	-37.4	-38.1	25.9	0.00e+00	0	44	0	1838153728	46	3896
2026-01-23 04:45:43.50	343.65	35.99	-37.5	-38.2	25.8	0.00e+00	0	44	0	1843396608	46	3947
2026-01-23 04:45:44.51	343.26	36.07	-37.5	-38.2	25.8	0.00e+00	0	44	0	1848639488	46	3951
2026-01-23 04:45:45.51	342.88	36.15	-37.5	-38.2	25.8	0.00e+00	0	44	0	1854930944	46	3946
2026-01-23 04:45:46.52	342.48	36.23	-37.5	-38.2	25.8	0.00e+00	0	44	0	1860173824	46	3944
2026-01-23 04:45:47.53	342.09	36.31	-37.6	-38.3	25.8	0.00e+00	0	44	0	1865416704	46	3963
2026-01-23 04:45:48.54	341.69	36.39	-37.6	-38.3	25.7	0.00e+00	0	44	0	1871708160	46	3988
2026-01-23 04:45:49.55	341.29	36.46	-37.6	-38.3	25.8	0.00e+00	0	44	0	1877999616	46	3969
2026-01-23 04:45:50.56	340.89	36.54	-37.7	-38.4	25.7	0.00e+00	0	44	0	1883242496	46	4023
2026-01-23 04:45:51.56	340.49	36.61	-37.5	-38.2	25.8	0.00e+00	0	44	0	1888485376	46	3928
2026-01-23 04:45:52.57	340.09	36.68	-37.6	-38.3	25.8	0.00e+00	0	44	0	1894776832	46	3973
2026-01-23 04:45:53.58	339.68	36.75	-37.3	-38.0	26.0	0.00e+00	0	44	0	1900019712	46	3849
2026-01-23 04:45:54.59	339.27	36.82	-37.3	-38.0	26.0	0.00e+00	0	44	0	1905262592	46	3860
2026-01-23 04:45:55.59	338.87	36.88	-37.3	-38.0	26.0	0.00e+00	0	44	0	1911554048	46	3866
2026-01-23 04:45:56.60	338.45	36.95	-37.5	-38.2	25.9	0.00e+00	0	44	0	1916796928	46	3922
2026-01-23 04:45:57.61	338.04	37.01	-37.6	-38.3	25.8	0.00e+00	0	44	0	1923088384	46	3975
2026-01-23 04:45:58.62	337.63	37.07	-37.6	-38.3	25.8	0.00e+00	0	44	0	1928331264	46	3974
2026-01-23 04:45:59.63	337.21	37.13	-37.6	-38.3	25.8	0.00e+00	0	44	0	1933574144	46	3964
2026-01-23 04:46:00.63	336.80	37.19	-37.6	-38.3	25.8	0.00e+00	0	44	0	1939865600	46	3962
2026-01-23 04:46:01.64	336.38	37.25	-37.5	-38.2	25.9	0.00e+00	0	44	0	1946157056	46	3936
2026-01-23 04:46:02.65	335.96	37.30	-37.5	-38.2	25.8	0.00e+00	0	44	0	1951399936	46	3951
2026-01-23 04:46:03.66	335.53	37.36	-37.4	-38.1	25.9	0.00e+00	0	44	0	1956642816	46	3907
2026-01-23 04:46:04.67	335.11	37.41	-37.5	-38.2	25.9	0.00e+00	0	44	0	1962934272	46	3926
2026-01-23 04:46:05.67	334.69	37.46	-37.3	-38.0	26.0	0.00e+00	0	44	0	1968177152	46	3859
2026-01-23 04:46:06.68	334.26	37.51	-37.4	-38.1	26.0	0.00e+00	0	44	0	1973420032	46	3871
2026-01-23 04:46:07.69	333.84	37.56	-37.4	-38.1	26.0	0.00e+00	0	44	0	1979711488	46	3890
2026-01-23 04:46:08.70	333.41	37.60	-37.5	-38.2	25.9	0.00e+00	0	44	0	1984954368	46	3932
2026-01-23 04:46:09.71	332.98	37.64	-37.5	-38.1	25.9	0.00e+00	0	44	0	1990197248	46	3911
2026-01-23 04:46:10.71	332.55	37.69	-37.2	-37.9	26.1	0.00e+00	0	44	0	1996488704	46	3801
2026-01-23 04:46:11.72	332.12	37.73	-37.2	-37.9	26.2	0.00e+00	0	43	0	2001731584	46	3783
2026-01-23 04:46:12.73	331.69	37.76	-37.2	-37.9	26.1	0.00e+00	0	43	0	2008023040	46	3807
2026-01-23 04:46:13.74	331.25	37.80	-37.3	-38.0	26.1	0.00e+00	0	44	0	2013265920	46	3828
2026-01-23 04:46:14.75	330.82	37.83	-37.4	-38.1	26.0	0.00e+00	0	44	0	2019557376	46	3871
2026-01-23 04:46:15.76	330.38	37.87	-37.4	-38.1	25.9	0.00e+00	0	44	0	2024800256	46	3892
2026-01-23 04:46:16.77	329.94	37.90	-37.4	-38.1	26.0	0.00e+00	0	44	0	2031091712	46	3870
2026-01-23 04:46:17.78	329.51	37.92	-37.3	-38.0	26.0	0.00e+00	0	44	0	2036334592	46	3844
2026-01-23 04:46:18.78	329.07	37.95	-37.4	-38.0	26.0	0.00e+00	0	44	0	2041577472	46	3854
2026-01-23 04:46:19.79	328.63	37.98	-37.4	-38.0	26.0	0.00e+00	0	44	0	2047868928	46	3865
2026-01-23 04:46:20.80	328.19	38.00	-37.6	-38.3	25.8	0.00e+00	0	44	0	2053111808	46	3969
2026-01-23 04:46:21.81	327.75	38.02	-37.7	-38.4	25.7	0.00e+00	0	44	0	2058354688	46	4048
2026-01-23 04:46:22.82	327.31	38.04	-37.6	-38.3	25.8	0.00e+00	0	44	0	2064646144	46	3980
2026-01-23 04:46:23.82	326.87	38.06	-37.5	-38.2	25.9	0.00e+00	0	44	0	2069889024	46	3919
2026-01-23 04:46:24.83	326.43	38.07	-37.5	-38.2	25.9	0.00e+00	0	44	0	2075131904	46	3925
2026-01-23 04:46:25.84	325.99	38.09	-37.4	-38.0	26.0	0.00e+00	0	44	0	2081423360	46	3861
2026-01-23 04:46:26.85	325.55	38.10	-37.3	-38.0	26.1	0.00e+00	0	44	0	2087714816	46	3843
2026-01-23 04:46:27.86	325.10	38.11	-37.4	-38.1	26.0	0.00e+00	0	44	0	2092957696	46	3886
2026-01-23 04:46:28.87	324.66	38.11	-37.3	-38.0	26.0	0.00e+00	0	44	0	2098200576	46	3857
2026-01-23 04:46:29.88	324.22	38.12	-37.4	-38.1	26.0	0.00e+00	0	44	0	2104492032	46	3877
2026-01-23 04:46:30.89	323.77	38.12	-37.3	-38.0	26.1	0.00e+00	0	44	0	2109734912	46	3828
2026-01-23 04:46:31.89	323.33	38.12	-37.4	-38.1	25.9	0.00e+00	0	44	0	2116026368	46	3899
2026-01-23 04:46:32.90	322.89	38.12	-37.5	-38.2	25.9	0.00e+00	0	44	0	2121269248	46	3937
2026-01-23 04:46:33.91	322.45	38.12	-37.5	-38.2	25.9	0.00e+00	0	44	0	2126512128	46	3926
2026-01-23 04:46:34.92	322.00	38.12	-37.5	-38.1	25.9	0.00e+00	0	44	0	2132803584	46	3907
2026-01-23 04:46:35.93	321.56	38.11	-37.5	-38.2	25.9	0.00e+00	0	44	0	2138046464	46	3921
2026-01-23 04:46:36.94	321.12	38.10	-37.6	-38.3	25.8	0.00e+00	0	44	0	2144337920	46	3979
2026-01-23 04:46:37.94	320.68	38.09	-37.6	-38.3	25.8	0.00e+00	0	44	0	2149580800	46	3972
2026-01-23 04:46:38.95	320.24	38.08	-37.5	-38.2	25.9	0.00e+00	0	44	0	2155872256	46	3926
2026-01-23 04:46:39.96	319.79	38.07	-37.6	-38.2	25.8	0.00e+00	0	44	0	2161115136	46	3956
2026-01-23 04:46:40.97	319.35	38.05	-37.5	-38.2	25.9	0.00e+00	0	44	0	2166358016	46	3938
2026-01-23 04:46:41.97	318.92	38.03	-37.6	-38.3	25.8	0.00e+00	0	44	0	2172649472	46	3993
2026-01-23 04:46:42.98	318.47	38.01	-37.3	-38.0	26.0	0.00e+00	0	44	0	2177892352	46	3846
2026-01-23 04:46:43.98	318.04	37.99	-37.4	-38.1	26.0	0.00e+00	0	44	0	2183135232	46	3879
2026-01-23 04:46:44.99	317.60	37.97	-37.4	-38.1	25.9	0.00e+00	0	44	0	2189426688	46	3913
2026-01-23 04:46:46.00	317.16	37.94	-37.5	-38.2	25.9	0.00e+00	0	44	0	2194669568	46	3920
2026-01-23 04:46:47.01	316.72	37.92	-37.4	-38.1	26.0	0.00e+00	0	44	0	2200961024	46	3888
2026-01-23 04:46:48.02	316.28	37.89	-37.4	-38.1	25.9	0.00e+00	0	44	0	2206203904	46	3898
2026-01-23 04:46:49.03	315.85	37.86	-37.3	-38.0	26.0	0.00e+00	0	44	0	2211446784	46	3844
2026-01-23 04:46:50.03	315.41	37.82	-37.3	-38.0	26.0	0.00e+00	0	44	0	2217738240	46	3840
2026-01-23 04:46:51.04	314.98	37.79	-37.4	-38.1	26.0	0.00e+00	0	44	0	2224029696	46	3883
2026-01-23 04:46:52.05	314.55	37.75	-37.4	-38.1	25.9	0.00e+00	0	44	0	2229272576	46	3903
2026-01-23 04:46:53.06	314.11	37.71	-37.5	-38.2	25.9	0.00e+00	0	44	0	2234515456	46	3914
2026-01-23 04:46:54.07	313.68	37.67	-37.4	-38.1	25.9	0.00e+00	0	44	0	2240806912	46	3902
2026-01-23 04:46:55.07	313.25	37.63	-37.6	-38.3	25.8	0.00e+00	0	44	0	2246049792	46	3967
2026-01-23 04:46:56.08	312.82	37.59	-37.6	-38.4	25.8	0.00e+00	0	44	0	2251292672	46	4010
2026-01-23 04:46:57.09	312.40	37.54	-37.5	-38.1	25.9	0.00e+00	0	44	0	2257584128	46	3913
2026-01-23 04:46:58.10	311.97	37.49	-37.5	-38.2	25.9	0.00e+00	0	44	0	2262827008	46	3922
2026-01-23 04:46:59.10	311.55	37.45	-37.3	-38.0	26.0	0.00e+00	0	44	0	2268069888	46	3850
2026-01-23 04:47:00.11	311.12	37.39	-37.3	-38.0	26.1	0.00e+00	0	44	0	2274361344	46	3855
2026-01-23 04:47:01.12	310.70	37.34	-37.3	-38.0	26.0	0.00e+00	0	44	0	2279604224	46	3849
2026-01-23 04:47:02.13	310.28	37.29	-37.4	-38.1	26.0	0.00e+00	0	44	0	2285895680	46	3884
2026-01-23 04:47:03.14	309.85	37.23	-37.3	-38.0	26.1	0.00e+00	0	44	0	2291138560	46	3840
2026-01-23 04:47:04.15	309.44	37.17	-37.1	-37.8	26.2	0.00e+00	0	44	0	2297430016	46	3763
2026-01-23 04:47:05.15	309.02	37.12	-37.1	-37.8	26.2	0.00e+00	0	44	0	2302672896	46	3770
2026-01-23 04:47:06.16	308.61	37.05	-37.2	-37.9	26.2	0.00e+00	0	44	0	2308964352	46	3794
2026-01-23 04:47:07.17	308.19	36.99	-37.3	-38.0	26.1	0.00e+00	0	44	0	2314207232	46	3836
2026-01-23 04:47:08.18	307.78	36.93	-37.4	-38.1	26.0	0.00e+00	0	44	0	2319450112	46	3888
2026-01-23 04:47:09.19	307.37	36.86	-37.5	-38.2	25.9	0.00e+00	0	44	0	2325741568	46	3914
2026-01-23 04:47:10.19	306.96	36.80	-37.5	-38.1	25.9	0.00e+00	0	44	0	2330984448	46	3912
2026-01-23 04:47:11.20	306.55	36.73	-37.5	-38.2	25.9	0.00e+00	0	44	0	2336227328	46	3941
2026-01-23 04:47:12.21	306.15	36.66	-37.5	-38.3	25.8	0.00e+00	0	44	0	2342518784	46	3960
2026-01-23 04:47:13.22	305.74	36.59	-37.4	-38.1	26.0	0.00e+00	0	44	0	2347761664	46	3913
2026-01-23 04:47:14.23	305.34	36.51	-37.3	-38.0	26.0	0.00e+00	0	44	0	2353004544	46	3859
2026-01-23 04:47:15.24	304.94	36.44	-37.2	-37.9	26.2	0.00e+00	0	44	0	2359296000	46	3798
2026-01-23 04:47:16.25	304.54	36.36	-37.3	-38.0	26.1	0.00e+00	0	44	0	2365587456	46	3835
2026-01-23 04:47:17.25	304.15	36.28	-37.4	-38.1	26.0	0.00e+00	0	43	0	2370830336	46	3889
2026-01-23 04:47:18.26	303.75	36.21	-37.4	-38.1	26.0	0.00e+00	0	44	0	2376073216	46	3905
2026-01-23 04:47:19.27	303.36	36.13	-37.4	-38.1	26.0	0.00e+00	0	44	0	2382364672	46	3879
2026-01-23 04:47:20.28	302.97	36.04	-37.4	-38.1	26.0	0.00e+00	0	44	0	2387607552	46	3892
2026-01-23 04:47:21.29	302.58	35.96	-37.3	-38.0	26.1	0.00e+00	0	44	0	2393899008	46	3853
2026-01-23 04:47:22.30	302.19	35.88	-37.2	-37.9	26.2	0.00e+00	0	44	0	2399141888	46	3806
2026-01-23 04:47:23.31	301.80	35.79	-37.3	-37.9	26.1	0.00e+00	0	44	0	2404384768	46	3824
2026-01-23 04:47:24.32	301.42	35.71	-37.3	-37.9	26.1	0.00e+00	0	44	0	2410676224	46	3821
2026-01-23 04:47:25.33	301.04	35.62	-37.4	-38.1	26.0	0.00e+00	0	44	0	2415919104	46	3886
2026-01-23 04:47:26.33	300.66	35.53	-37.4	-38.1	26.0	0.00e+00	0	43	0	2422210560	46	3876
2026-01-23 04:47:27.34	300.29	35.44	-37.6	-38.3	25.8	0.00e+00	0	44	0	2427453440	46	3970
2026-01-23 04:47:28.35	299.91	35.35	-37.6	-38.3	25.8	0.00e+00	0	44	0	2433744896	46	3976
2026-01-23 04:47:29.36	299.54	35.26	-37.6	-38.3	25.8	0.00e+00	0	44	0	2438987776	46	3989
2026-01-23 04:47:30.36	299.17	35.16	-37.5	-38.2	25.9	0.00e+00	0	44	0	2444230656	46	3956
2026-01-23 04:47:31.37	298.80	35.07	-37.5	-38.2	25.9	0.00e+00	0	44	0	2450522112	46	3940
2026-01-23 04:47:32.38	298.44	34.97	-37.5	-38.2	25.9	0.00e+00	0	44	0	2455764992	46	3923
2026-01-23 04:47:33.39	298.07	34.88	-37.4	-38.1	26.0	0.00e+00	0	44	0	2461007872	46	3887
2026-01-23 04:47:34.40	297.71	34.78	-37.5	-38.2	25.9	0.00e+00	0	44	0	2467299328	46	3932
2026-01-23 04:47:35.41	297.35	34.68	-37.4	-38.1	26.0	0.00e+00	0	44	0	2472542208	46	3879
2026-01-23 04:47:36.41	297.00	34.58	-37.4	-38.1	26.0	0.00e+00	0	44	0	2478833664	46	3887
2026-01-23 04:47:37.42	296.64	34.48	-37.3	-38.0	26.1	0.00e+00	0	43	0	2484076544	46	3838
2026-01-23 04:47:38.43	296.29	34.38	-37.2	-37.9	26.2	0.00e+00	0	44	0	2489319424	46	3787
2026-01-23 04:47:39.44	295.93	34.28	-37.2	-37.9	26.1	0.00e+00	0	43	0	2495610880	46	3813
2026-01-23 04:47:40.44	295.59	34.17	-37.1	-37.8	26.3	0.00e+00	0	44	0	2501902336	46	3757
2026-01-23 04:47:41.45	295.24	34.07	-37.2	-37.9	26.2	0.00e+00	0	43	0	2507145216	46	3793
2026-01-23 04:47:42.46	294.90	33.96	-37.3	-38.0	26.1	0.00e+00	0	43	0	2512388096	46	3836
2026-01-23 04:47:43.47	294.56	33.86	-37.2	-37.9	26.2	0.00e+00	0	44	0	2518679552	46	3816
2026-01-23 04:47:44.48	294.22	33.75	-37.3	-38.0	26.0	0.00e+00	0	44	0	2523922432	46	3856
2026-01-23 04:47:45.49	293.88	33.65	-37.4	-38.1	26.0	0.00e+00	0	43	0	2529165312	46	3875
2026-01-23 04:47:46.49	293.55	33.54	-37.4	-38.1	26.0	0.00e+00	0	44	0	2535456768	46	3889
2026-01-23 04:47:47.50	293.21	33.43	-37.4	-38.1	26.0	0.00e+00	0	44	0	2540699648	46	3895
2026-01-23 04:47:48.51	292.88	33.32	-37.4	-38.1	26.0	0.00e+00	0	44	0	2545942528	46	3886
2026-01-23 04:47:49.52	292.55	33.21	-37.3	-38.0	26.0	0.00e+00	0	44	0	2552233984	46	3860
2026-01-23 04:47:50.53	292.23	33.10	-37.3	-38.0	26.1	0.00e+00	0	44	0	2557476864	46	3856
2026-01-23 04:47:51.53	291.90	32.99	-37.3	-38.0	26.1	0.00e+00	0	44	0	2563768320	46	3828
2026-01-23 04:47:52.54	291.58	32.88	-37.4	-38.1	26.0	0.00e+00	0	44	0	2569011200	46	3878
2026-01-23 04:47:53.55	291.26	32.76	-37.5	-38.2	25.9	0.00e+00	0	44	0	2575302656	46	3923
2026-01-23 04:47:54.56	290.94	32.65	-37.6	-38.3	25.8	0.00e+00	0	44	0	2580545536	46	3965
2026-01-23 04:47:55.57	290.63	32.54	-37.4	-38.1	26.0	0.00e+00	0	44	0	2586836992	46	3890
2026-01-23 04:47:56.57	290.32	32.42	-37.5	-38.2	25.9	0.00e+00	0	44	0	2592079872	46	3921
2026-01-23 04:47:57.58	290.01	32.31	-37.7	-38.4	25.8	0.00e+00	0	44	0	2597322752	46	4016
2026-01-23 04:47:58.59	289.70	32.19	-37.7	-38.4	25.7	0.00e+00	0	44	0	2603614208	46	4032
2026-01-23 04:47:59.60	289.39	32.08	-37.7	-38.4	25.7	0.00e+00	0	44	0	2608857088	46	4020
2026-01-23 04:48:00.60	289.09	31.96	-37.7	-38.4	25.7	0.00e+00	0	44	0	2614099968	46	4014
2026-01-23 04:48:01.61	288.79	31.84	-37.5	-38.2	25.9	0.00e+00	0	44	0	2620391424	46	3930
2026-01-23 04:48:02.62	288.49	31.73	-37.4	-38.1	25.9	0.00e+00	0	44	0	2625634304	46	3905
2026-01-23 04:48:03.63	288.19	31.61	-37.6	-38.3	25.9	0.00e+00	0	44	0	2630877184	46	3959
2026-01-23 04:48:04.63	287.90	31.49	-37.6	-38.3	25.8	0.00e+00	0	44	0	2637168640	46	3969
2026-01-23 04:48:05.64	287.60	31.37	-37.5	-38.2	25.9	0.00e+00	0	44	0	2643460096	46	3914
2026-01-23 04:48:06.65	287.31	31.25	-37.6	-38.3	25.8	0.00e+00	0	44	0	2648702976	46	3973
2026-01-23 04:48:07.66	287.02	31.13	-37.7	-38.4	25.7	0.00e+00	0	43	0	2653945856	46	4024
2026-01-23 04:48:08.67	286.74	31.01	-37.7	-38.4	25.7	0.00e+00	0	44	0	2660237312	46	4044
2026-01-23 04:48:09.67	286.45	30.90	-37.7	-38.4	25.7	0.00e+00	0	44	0	2665480192	46	4051
2026-01-23 04:48:10.68	286.17	30.78	-37.8	-38.5	25.6	0.00e+00	0	44	0	2671771648	46	4060
2026-01-23 04:48:11.69	285.89	30.65	-37.8	-38.5	25.6	0.00e+00	0	44	0	2677014528	46	4087
2026-01-23 04:48:12.70	285.61	30.53	-37.8	-38.5	25.6	0.00e+00	0	44	0	2682257408	46	4058
2026-01-23 04:48:13.71	285.33	30.41	-37.6	-38.3	25.8	0.00e+00	0	43	0	2688548864	46	3986
2026-01-23 04:48:14.71	285.06	30.29	-37.6	-38.3	25.8	0.00e+00	0	44	0	2693791744	46	3983
2026-01-23 04:48:15.72	284.79	30.17	-37.4	-38.1	26.0	0.00e+00	0	44	0	2699034624	46	3881
2026-01-23 04:48:16.73	284.52	30.05	-37.4	-38.1	26.0	0.00e+00	0	44	0	2705326080	46	3892
2026-01-23 04:48:17.74	284.25	29.93	-37.4	-38.0	26.0	0.00e+00	0	44	0	2711617536	46	3865
2026-01-23 04:48:18.75	283.99	29.81	-37.4	-38.0	26.0	0.00e+00	0	44	0	2716860416	46	3868
2026-01-23 04:48:19.75	283.72	29.68	-37.5	-38.2	25.9	0.00e+00	0	44	0	2722103296	46	3921
2026-01-23 04:48:20.76	283.46	29.56	-37.7	-38.4	25.7	0.00e+00	0	44	0	2728394752	46	4038
2026-01-23 04:48:21.77	283.20	29.44	-37.8	-38.5	25.6	0.00e+00	0	43	0	2733637632	46	4061
2026-01-23 04:48:22.78	282.94	29.32	-37.9	-38.6	25.5	0.00e+00	0	44	0	2738880512	46	4105
2026-01-23 04:48:23.78	282.69	29.20	-37.8	-38.5	25.6	0.00e+00	0	43	0	2745171968	46	4073
2026-01-23 04:48:24.79	282.43	29.07	-37.9	-38.6	25.6	0.00e+00	0	44	0	2750414848	46	4107
2026-01-23 04:48:25.80	282.18	28.95	-37.9	-38.6	25.5	0.00e+00	0	44	0	2756706304	46	4130
2026-01-23 04:48:26.81	281.93	28.83	-38.0	-38.7	25.4	0.00e+00	0	44	0	2761949184	46	4173
2026-01-23 04:48:27.82	281.68	28.70	-38.1	-38.8	25.3	0.00e+00	0	44	0	2767192064	46	4216
2026-01-23 04:48:28.83	281.44	28.58	-38.1	-38.8	25.3	0.00e+00	0	44	0	2773483520	46	4225
2026-01-23 04:48:29.84	281.19	28.46	-38.1	-38.8	25.3	0.00e+00	0	44	0	2779774976	46	4235
2026-01-23 04:48:30.85	280.95	28.33	-37.9	-38.6	25.5	0.00e+00	0	43	0	2785017856	46	4141
2026-01-23 04:48:31.85	280.71	28.21	-38.0	-38.7	25.4	0.00e+00	0	44	0	2790260736	46	4150
2026-01-23 04:48:32.86	280.47	28.09	-38.1	-38.8	25.3	0.00e+00	0	44	0	2796552192	46	4219
2026-01-23 04:48:33.87	280.23	27.96	-38.2	-38.9	25.2	0.00e+00	0	44	0	2801795072	46	4277
2026-01-23 04:48:34.88	280.00	27.84	-38.2	-38.9	25.2	0.00e+00	0	44	0	2807037952	47	4039
2026-01-23 04:48:35.88	279.77	27.72	-38.3	-39.0	25.2	0.00e+00	0	44	0	2813329408	47	4074
2026-01-23 04:48:36.89	279.54	27.60	-38.3	-39.1	25.1	0.00e+00	0	44	0	2818572288	47	4109
2026-01-23 04:48:37.90	279.31	27.47	-38.3	-39.0	25.1	0.00e+00	0	44	0	2823815168	47	4086
2026-01-23 04:48:38.91	279.08	27.35	-38.3	-39.0	25.1	0.00e+00	0	44	0	2830106624	47	4063
2026-01-23 04:48:39.92	278.85	27.23	-38.2	-38.9	25.2	0.00e+00	0	44	0	2835349504	47	4046
2026-01-23 04:48:40.93	278.63	27.10	-38.2	-38.9	25.2	0.00e+00	0	44	0	2841640960	47	4023
2026-01-23 04:48:41.93	278.41	26.98	-38.2	-38.9	25.2	0.00e+00	0	44	0	2846883840	47	4051
2026-01-23 04:48:42.94	278.18	26.86	-38.1	-38.8	25.3	0.00e+00	0	43	0	2853175296	47	3983
2026-01-23 04:48:43.95	277.97	26.73	-38.2	-38.9	25.2	0.00e+00	0	44	0	2858418176	47	4025
2026-01-23 04:48:44.96	277.75	26.61	-38.3	-39.0	25.1	0.00e+00	0	44	0	2864709632	47	4061
2026-01-23 04:48:45.97	277.53	26.49	-38.4	-39.1	25.0	0.00e+00	0	44	0	2869952512	47	4119
2026-01-23 04:48:46.97	277.32	26.37	-38.4	-39.1	25.1	0.00e+00	0	44	0	2875195392	47	4121
2026-01-23 04:48:47.98	277.11	26.24	-38.4	-39.2	25.0	0.00e+00	0	43	0	2881486848	47	4158
2026-01-23 04:48:48.99	276.90	26.12	-38.3	-39.0	25.1	0.00e+00	0	44	0	2886729728	47	4094
2026-01-23 04:48:50.00	276.69	26.00	-38.3	-39.0	25.1	0.00e+00	0	44	0	2891972608	47	4095
2026-01-23 04:48:51.01	276.48	25.88	-38.3	-39.0	25.1	0.00e+00	0	44	0	2898264064	47	4084
2026-01-23 04:48:52.01	276.27	25.76	-38.4	-39.1	25.0	0.00e+00	0	44	0	2903506944	47	4118
2026-01-23 04:48:53.02	276.07	25.64	-38.3	-39.1	25.0	0.00e+00	0	44	0	2908749824	47	4099
2026-01-23 04:48:54.03	275.87	25.51	-38.3	-39.1	25.0	0.00e+00	0	44	0	2915041280	47	4111
2026-01-23 04:48:55.04	275.66	25.39	-38.5	-39.2	24.9	0.00e+00	0	44	0	2921332736	47	4162
2026-01-23 04:48:56.04	275.47	25.27	-38.5	-39.2	24.9	0.00e+00	0	44	0	2926575616	47	4184
2026-01-23 04:48:57.05	275.27	25.15	-38.4	-39.1	25.0	0.00e+00	0	43	0	2931818496	47	4139
2026-01-23 04:48:58.06	275.07	25.03	-38.5	-39.2	24.9	0.00e+00	0	43	0	2938109952	47	4166
2026-01-23 04:48:59.07	274.88	24.91	-38.6	-39.4	24.7	0.00e+00	0	43	0	2943352832	47	4254
2026-01-23 04:49:00.08	274.68	24.79	-38.7	-39.4	24.7	0.00e+00	0	44	0	2949644288	47	4288
2026-01-23 04:49:01.09	274.49	24.67	-39.2	-39.9	24.8	0.00e+00	0	43	0	2954887168	48	4244
2026-01-23 04:49:02.10	274.30	24.55	-39.1	-39.8	24.9	0.00e+00	0	44	0	2960130048	48	4218
2026-01-23 04:49:03.11	274.11	24.43	-39.1	-39.8	24.9	0.00e+00	0	44	0	2966421504	48	4202
2026-01-23 04:49:04.11	273.92	24.31	-39.1	-39.8	24.8	0.00e+00	0	44	0	2971664384	48	4241
2026-01-23 04:49:05.12	273.74	24.19	-39.0	-39.7	25.0	0.00e+00	0	44	0	2976907264	48	4150
2026-01-23 04:49:06.13	273.55	24.07	-39.0	-39.7	25.0	0.00e+00	0	44	0	2983198720	48	4149
2026-01-23 04:49:07.14	273.37	23.95	-39.0	-39.7	25.0	0.00e+00	0	43	0	2989490176	48	4166
2026-01-23 04:49:08.15	273.19	23.83	-39.0	-39.7	25.0	0.00e+00	0	44	0	2994733056	48	4172
2026-01-23 04:49:09.16	273.01	23.71	-38.8	-39.5	25.1	0.00e+00	0	44	0	2999975936	48	4081
2026-01-23 04:49:10.17	272.83	23.59	-38.8	-39.5	25.1	0.00e+00	0	43	0	3006267392	48	4085
2026-01-23 04:49:11.17	272.65	23.48	-38.8	-39.4	25.2	0.00e+00	0	43	0	3011510272	48	4045
2026-01-23 04:49:12.18	272.47	23.36	-38.8	-39.5	25.2	0.00e+00	0	44	0	3016753152	48	4058
2026-01-23 04:49:13.19	272.30	23.24	-38.9	-39.6	25.0	0.00e+00	0	43	0	3023044608	48	4135
2026-01-23 04:49:14.20	272.12	23.12	-38.8	-39.5	25.1	0.00e+00	0	44	0	3028287488	48	4074
2026-01-23 04:49:15.20	271.95	23.01	-38.7	-39.4	25.2	0.00e+00	0	43	0	3034578944	48	4017
2026-01-23 04:49:16.22	271.78	22.89	-38.8	-39.5	25.1	0.00e+00	0	44	0	3039821824	48	4061
2026-01-23 04:49:17.23	271.61	22.77	-38.8	-39.5	25.1	0.00e+00	0	44	0	3045064704	48	4077
2026-01-23 04:49:18.23	271.44	22.66	-38.7	-39.4	25.2	0.00e+00	0	43	0	3051356160	48	4039
2026-01-23 04:49:19.24	271.27	22.54	-38.7	-39.4	25.2	0.00e+00	0	44	0	3057647616	48	4045
2026-01-23 04:49:20.25	271.11	22.43	-38.7	-39.4	25.2	0.00e+00	0	44	0	3062890496	48	4036
2026-01-23 04:49:21.26	270.94	22.31	-38.8	-39.5	25.1	0.00e+00	0	43	0	3068133376	48	4066
2026-01-23 04:49:22.27	270.78	22.19	-38.9	-39.6	25.0	0.00e+00	0	44	0	3074424832	48	4103
2026-01-23 04:49:23.27	270.62	22.08	-38.9	-39.6	25.0	0.00e+00	0	44	0	3079667712	48	4133
2026-01-23 04:49:24.28	270.46	21.96	-38.9	-39.6	25.0	0.00e+00	0	43	0	3084910592	48	4136
2026-01-23 04:49:25.29	270.30	21.85	-39.0	-39.7	24.9	0.00e+00	0	43	0	3091202048	48	4165
2026-01-23 04:49:26.30	270.14	21.74	-39.0	-39.7	24.9	0.00e+00	0	44	0	3096444928	48	4182
2026-01-23 04:49:27.31	269.98	21.62	-39.2	-39.9	24.7	0.00e+00	0	44	0	3101687808	48	4263
2026-01-23 04:49:28.31	269.83	21.51	-39.3	-40.0	24.6	0.00e+00	0	43	0	3107979264	49	4067
2026-01-23 04:49:29.32	269.67	21.40	-39.2	-39.9	24.7	0.00e+00	0	44	0	3113222144	49	4022
2026-01-23 04:49:30.33	269.52	21.28	-39.2	-39.9	24.7	0.00e+00	0	44	0	3119513600	49	4045
2026-01-23 04:49:31.34	269.36	21.17	-39.2	-39.9	24.7	0.00e+00	0	44	0	3124756480	49	4019
2026-01-23 04:49:32.34	269.21	21.06	-39.2	-40.0	24.7	0.00e+00	0	44	0	3131047936	49	4053
2026-01-23 04:49:33.35	269.06	20.95	-39.1	-39.9	24.7	0.00e+00	0	44	0	3136290816	49	4011
2026-01-23 04:49:34.36	268.91	20.83	-39.0	-39.7	24.9	0.00e+00	0	44	0	3142582272	49	3952
2026-01-23 04:49:35.37	268.76	20.72	-39.0	-39.7	24.8	0.00e+00	0	44	0	3147825152	49	3952
2026-01-23 04:49:36.38	268.62	20.61	-39.0	-39.7	24.9	0.00e+00	0	44	0	3153068032	49	3950
2026-01-23 04:49:37.39	268.47	20.50	-39.0	-39.7	24.8	0.00e+00	0	43	0	3159359488	49	3955
2026-01-23 04:49:38.40	268.32	20.39	-39.1	-39.8	24.8	0.00e+00	0	43	0	3164602368	49	3971
2026-01-23 04:49:39.41	268.18	20.28	-39.1	-39.8	24.7	0.00e+00	0	44	0	3169845248	49	3997
2026-01-23 04:49:40.41	268.04	20.17	-39.2	-40.0	24.6	0.00e+00	0	44	0	3176136704	49	4059
2026-01-23 04:49:41.42	267.89	20.06	-39.3	-40.0	24.6	0.00e+00	0	44	0	3181379584	49	4074
2026-01-23 04:49:42.43	267.75	19.95	-39.1	-39.8	24.7	0.00e+00	0	44	0	3186622464	49	3990
2026-01-23 04:49:43.44	267.61	19.84	-39.3	-40.0	24.5	0.00e+00	0	43	0	3192913920	49	4074
2026-01-23 04:49:44.44	267.48	19.73	-39.3	-40.0	24.6	0.00e+00	0	43	0	3199205376	49	4079
2026-01-23 04:49:45.45	267.34	19.62	-39.3	-40.0	24.6	0.00e+00	0	44	0	3204448256	49	4076
2026-01-23 04:49:46.46	267.20	19.51	-39.4	-40.1	24.4	0.00e+00	0	43	0	3209691136	49	4140
2026-01-23 04:49:47.47	267.06	19.40	-39.6	-40.3	24.3	0.00e+00	0	43	0	3215982592	49	4219
2026-01-23 04:49:48.48	266.93	19.30	-39.5	-40.3	24.3	0.00e+00	0	44	0	3221225472	49	4197
2026-01-23 04:49:49.49	266.79	19.19	-39.5	-40.2	24.3	0.00e+00	0	44	0	3227516928	49	4189
2026-01-23 04:49:50.49	266.66	19.08	-39.6	-40.3	24.3	0.00e+00	0	43	0	3232759808	49	4207
2026-01-23 04:49:51.50	266.53	18.97	-39.6	-40.4	24.2	0.00e+00	0	43	0	3238002688	49	4249
2026-01-23 04:49:52.51	266.40	18.87	-39.6	-40.3	24.2	0.00e+00	0	44	0	3244294144	49	4234
2026-01-23 04:49:53.52	266.27	18.76	-39.6	-40.4	24.2	0.00e+00	0	43	0	3249537024	49	4261
2026-01-23 04:49:54.53	266.14	18.66	-39.7	-40.5	24.1	0.00e+00	0	43	0	3254779904	50	4060
2026-01-23 04:49:55.53	266.01	18.55	-39.9	-40.6	24.0	0.00e+00	0	44	0	3261071360	50	4128
2026-01-23 04:49:56.54	265.88	18.44	-39.8	-40.5	24.1	0.00e+00	0	44	0	3267362816	50	4080
2026-01-23 04:49:57.55	265.76	18.34	-39.9	-40.7	23.9	0.00e+00	0	44	0	3272605696	50	4154
2026-01-23 04:49:58.56	265.63	18.23	-39.8	-40.6	24.0	0.00e+00	0	44	0	3277848576	50	4106
2026-01-23 04:49:59.57	265.51	18.13	-39.8	-40.5	24.1	0.00e+00	0	44	0	3284140032	50	4079
2026-01-23 04:50:00.57	265.38	18.03	-40.0	-40.7	23.9	0.00e+00	0	44	0	3289382912	50	4190
2026-01-23 04:50:01.58	265.26	17.92	-39.8	-40.5	24.0	0.00e+00	0	44	0	3294625792	50	4093
2026-01-23 04:50:02.59	265.14	17.82	-39.9	-40.7	23.9	0.00e+00	0	44	0	3300917248	50	4160
2026-01-23 04:50:03.60	265.02	17.71	-40.0	-40.7	23.8	0.00e+00	0	44	0	3306160128	50	4187
2026-01-23 04:50:04.60	264.90	17.61	-40.0	-40.7	23.8	0.00e+00	0	44	0	3312451584	50	4189
2026-01-23 04:50:05.61	264.78	17.51	-40.0	-40.8	23.8	0.00e+00	0	43	0	3317694464	50	4194
2026-01-23 04:50:06.62	264.66	17.41	-40.0	-40.7	23.8	0.00e+00	0	44	0	3322937344	50	4189
2026-01-23 04:50:07.63	264.54	17.30	-40.0	-40.8	23.8	0.00e+00	0	44	0	3329228800	50	4201
2026-01-23 04:50:08.64	264.42	17.20	-40.1	-40.8	23.8	0.00e+00	0	44	0	3335520256	50	4222
2026-01-23 04:50:09.65	264.31	17.10	-40.1	-40.8	23.7	0.00e+00	0	44	0	3340763136	50	4223
2026-01-23 04:50:10.65	264.19	17.00	-40.0	-40.8	23.8	0.00e+00	0	43	0	3346006016	50	4217
2026-01-23 04:50:11.66	264.08	16.90	-40.0	-40.8	23.8	0.00e+00	0	44	0	3352297472	50	4211
2026-01-23 04:50:12.67	263.96	16.80	-40.1	-40.8	23.7	0.00e+00	0	44	0	3357540352	50	4241
2026-01-23 04:50:13.68	263.85	16.70	-40.2	-41.0	23.6	0.00e+00	0	44	0	3362783232	51	4052
2026-01-23 04:50:14.68	263.74	16.60	-40.3	-41.0	23.5	0.00e+00	0	44	0	3369074688	51	4085
2026-01-23 04:50:15.69	263.62	16.50	-40.2	-41.0	23.6	0.00e+00	0	44	0	3374317568	51	4063
2026-01-23 04:50:16.70	263.51	16.40	-40.1	-40.9	23.7	0.00e+00	0	44	0	3379560448	51	4027
2026-01-23 04:50:17.71	263.40	16.30	-40.3	-41.0	23.5	0.00e+00	0	43	0	3385851904	51	4092
2026-01-23 04:50:18.72	263.29	16.20	-40.2	-41.0	23.6	0.00e+00	0	43	0	3391094784	51	4053
2026-01-23 04:50:19.72	263.19	16.10	-40.3	-41.0	23.5	0.00e+00	0	43	0	3397386240	51	4082
2026-01-23 04:50:20.73	263.08	16.00	-40.2	-41.0	23.5	0.00e+00	0	43	0	3402629120	51	4074
2026-01-23 04:50:21.74	262.97	15.91	-40.3	-41.0	23.5	0.00e+00	0	43	0	3408920576	51	4091
2026-01-23 04:50:22.75	262.86	15.81	-40.3	-41.1	23.5	0.00e+00	0	44	0	3414163456	51	4104
2026-01-23 04:50:23.76	262.76	15.71	-40.3	-41.1	23.4	0.00e+00	0	43	0	3420454912	51	4118
2026-01-23 04:50:24.77	262.65	15.61	-40.3	-41.0	23.5	0.00e+00	0	44	0	3425697792	51	4096
2026-01-23 04:50:25.77	262.55	15.52	-40.4	-41.1	23.4	0.00e+00	0	44	0	3430940672	51	4131
2026-01-23 04:50:26.78	262.44	15.42	-40.5	-41.3	23.3	0.00e+00	0	44	0	3437232128	51	4208
2026-01-23 04:50:27.79	262.34	15.32	-40.6	-41.3	23.2	0.00e+00	0	43	0	3442475008	51	4236
2026-01-23 04:50:28.80	262.24	15.23	-40.6	-41.4	23.2	0.00e+00	0	44	0	3447717888	51	4253
2026-01-23 04:50:29.80	262.14	15.13	-40.7	-41.5	23.1	0.00e+00	0	43	0	3454009344	51	4300
2026-01-23 04:50:30.81	262.04	15.04	-40.6	-41.4	23.1	0.00e+00	0	44	0	3459252224	52	4007
2026-01-23 04:50:31.82	261.94	14.94	-40.7	-41.6	22.9	0.00e+00	0	43	0	3464495104	52	4100
2026-01-23 04:50:32.83	261.84	14.85	-40.7	-41.5	23.0	0.00e+00	0	43	0	3470786560	52	4062
2026-01-23 04:50:33.84	261.74	14.75	-40.7	-41.5	23.0	0.00e+00	0	43	0	3477078016	52	4065
2026-01-23 04:50:34.85	261.64	14.66	-40.8	-41.6	22.9	0.00e+00	0	44	0	3482320896	52	4102
2026-01-23 04:50:35.86	261.54	14.56	-40.8	-41.6	22.9	0.00e+00	0	44	0	3487563776	52	4108
2026-01-23 04:50:36.87	261.44	14.47	-40.7	-41.5	23.0	0.00e+00	0	44	0	3493855232	52	4063
2026-01-23 04:50:37.87	261.35	14.38	-40.7	-41.5	22.9	0.00e+00	0	43	0	3499098112	52	4088
2026-01-23 04:50:38.88	261.25	14.28	-40.8	-41.6	22.8	0.00e+00	0	43	0	3505389568	52	4114
2026-01-23 04:50:39.89	261.16	14.19	-40.8	-41.5	22.9	0.00e+00	0	43	0	3510632448	52	4092
2026-01-23 04:50:40.90	261.06	14.10	-40.6	-41.4	23.0	0.00e+00	0	44	0	3515875328	52	4033
2026-01-23 04:50:41.90	260.97	14.01	-40.7	-41.5	22.9	0.00e+00	0	44	0	3522166784	52	4086
2026-01-23 04:50:42.91	260.87	13.91	-40.7	-41.5	22.9	0.00e+00	0	43	0	3527409664	52	4084
2026-01-23 04:50:43.92	260.78	13.82	-40.9	-41.7	22.8	0.00e+00	0	43	0	3532652544	52	4150
2026-01-23 04:50:44.93	260.69	13.73	-40.9	-41.7	22.8	0.00e+00	0	44	0	3538944000	52	4155
2026-01-23 04:50:45.94	260.60	13.64	-40.8	-41.5	22.9	0.00e+00	0	43	0	3545235456	52	4097
2026-01-23 04:50:46.95	260.51	13.55	-40.8	-41.6	22.8	0.00e+00	0	44	0	3550478336	52	4112
2026-01-23 04:50:47.96	260.41	13.46	-40.8	-41.6	22.7	0.00e+00	0	43	0	3555721216	52	4140
2026-01-23 04:50:48.97	260.32	13.37	-40.9	-41.6	22.8	0.00e+00	0	43	0	3562012672	52	4140
2026-01-23 04:50:49.97	260.24	13.28	-40.8	-41.6	22.8	0.00e+00	0	43	0	3567255552	52	4143
2026-01-23 04:50:50.98	260.15	13.19	-40.8	-41.6	22.8	0.00e+00	0	44	0	3572498432	52	4126
2026-01-23 04:50:51.99	260.06	13.10	-40.8	-41.6	22.8	0.00e+00	0	44	0	3578789888	52	4111
2026-01-23 04:50:53.00	259.97	13.01	-40.8	-41.6	22.7	0.00e+00	0	44	0	3584032768	52	4128
2026-01-23 04:50:54.00	259.88	12.92	-40.8	-41.6	22.7	0.00e+00	0	43	0	3590324224	52	4129
2026-01-23 04:50:55.01	259.80	12.83	-40.9	-41.7	22.6	0.00e+00	0	43	0	3595567104	52	4192
2026-01-23 04:50:56.02	259.71	12.74	-41.0	-41.8	22.6	0.00e+00	0	43	0	3600809984	52	4200
2026-01-23 04:50:57.03	259.63	12.65	-41.0	-41.9	22.6	0.00e+00	0	44	0	3607101440	52	4243
2026-01-23 04:50:58.04	259.54	12.56	-41.1	-41.9	22.5	0.00e+00	0	44	0	3613392896	52	4287
2026-01-23 04:50:59.05	259.46	12.48	-41.1	-41.9	22.4	0.00e+00	0	43	0	3618635776	52	4289
2026-01-23 04:51:00.05	259.37	12.39	-41.2	-42.0	22.3	0.00e+00	0	43	0	3623878656	52	4337
2026-01-23 04:51:01.06	259.29	12.30	-41.1	-41.9	22.4	0.00e+00	0	43	0	3630170112	53	4047
2026-01-23 04:51:02.07	259.21	12.21	-41.3	-42.1	22.2	0.00e+00	0	43	0	3635412992	53	4139
2026-01-23 04:51:03.08	259.12	12.13	-41.3	-42.1	22.3	0.00e+00	0	43	0	3640655872	53	4131
2026-01-23 04:51:04.09	259.04	12.04	-41.3	-42.1	22.2	0.00e+00	0	44	0	3646947328	53	4141
2026-01-23 04:51:05.10	258.96	11.95	-41.3	-42.1	22.3	0.00e+00	0	44	0	3652190208	53	4124
2026-01-23 04:51:06.11	258.88	11.87	-41.3	-42.1	22.3	0.00e+00	0	44	0	3657433088	53	4122
2026-01-23 04:51:07.12	258.80	11.78	-41.3	-42.2	22.2	0.00e+00	0	44	0	3663724544	53	4149
2026-01-23 04:51:08.12	258.72	11.70	-41.5	-42.4	22.0	0.00e+00	0	43	0	3668967424	53	4253
2026-01-23 04:51:09.13	258.64	11.61	-41.4	-42.3	22.1	0.00e+00	0	44	0	3675258880	53	4199
2026-01-23 04:51:10.14	258.56	11.52	-41.6	-42.4	21.9	0.00e+00	0	44	0	3680501760	53	4273
2026-01-23 04:51:11.15	258.48	11.44	-41.3	-42.2	22.2	0.00e+00	0	44	0	3686793216	53	4148
2026-01-23 04:51:12.16	258.40	11.35	-41.4	-42.2	22.1	0.00e+00	0	43	0	3692036096	53	4183
2026-01-23 04:51:13.17	258.32	11.27	-41.4	-42.2	22.1	0.00e+00	0	44	0	3698327552	53	4177
