passes_logs/2026/01/23/R3.2S_Murmansk/R3.2S_Murmansk__20260123_194749_JL1KF02B07_rec.log

#Pass ID: 20260123_194749_JL1KF02B07
#Satellite: JL1KF02B07
#Configuration: 01B_900M
#almurnet v.1.7.20251203
#Start time: 2026-01-23 19:47:49

#Version: 2.2.20231116
#Station: R3.2S_Murmansk
#Location: 33.079688 lon 68.888172 lat
#TLE: 1 65939U 25226B   26023.55098322  .00007887  00000+0  49835-3 0  9997
#TLE: 2 65939  97.6527 102.5414 0017878 270.2089  89.7091 15.09195681 15753

#Time	Az	El	Level	Level2	SNR	BER	BlckErr	Temp	State	Recorded	gain1	gain2
2026-01-23 19:47:49.99	177.38	1.01	-54.7	-56.8	6.2	0.00e+00	0	43	0	0	80	18875
2026-01-23 19:47:50.99	177.42	1.07	-54.7	-56.8	6.2	0.00e+00	0	43	104	0	80	18956
2026-01-23 19:47:52.00	177.46	1.14	-54.6	-56.7	6.2	0.00e+00	0	43	104	0	80	18795
2026-01-23 19:47:53.01	177.49	1.21	-54.6	-56.7	6.2	0.00e+00	0	43	104	0	80	18765
2026-01-23 19:47:54.01	177.53	1.27	-54.6	-56.7	6.2	0.00e+00	0	43	104	0	80	18684
2026-01-23 19:47:55.02	177.57	1.34	-54.8	-56.9	6.2	0.00e+00	0	43	104	0	80	19149
2026-01-23 19:47:56.03	177.60	1.41	-54.9	-57.0	6.2	0.00e+00	0	43	104	0	80	19352
2026-01-23 19:47:57.04	177.64	1.47	-54.9	-57.0	6.2	0.00e+00	0	43	104	0	80	19375
2026-01-23 19:47:58.05	177.68	1.54	-54.9	-57.0	6.2	0.00e+00	0	43	104	0	80	19331
2026-01-23 19:47:59.05	177.72	1.61	-54.9	-56.9	6.2	0.00e+00	0	43	104	0	80	19214
2026-01-23 19:48:00.06	177.75	1.67	-54.8	-56.9	6.2	0.00e+00	0	44	104	0	80	19182
2026-01-23 19:48:01.07	177.79	1.74	-54.8	-56.9	6.2	0.00e+00	0	43	104	0	80	19126
2026-01-23 19:48:02.08	177.83	1.81	-54.8	-56.9	6.2	0.00e+00	0	44	104	0	80	19059
2026-01-23 19:48:03.09	177.87	1.88	-54.8	-56.9	6.2	0.00e+00	0	44	104	0	80	19059
2026-01-23 19:48:04.09	177.91	1.94	-54.7	-56.8	6.2	0.00e+00	0	44	104	0	80	18982
2026-01-23 19:48:05.10	177.95	2.01	-54.7	-56.8	6.2	0.00e+00	0	44	104	0	80	18911
2026-01-23 19:48:06.11	177.99	2.08	-54.7	-56.8	6.2	0.00e+00	0	44	104	0	80	18880
2026-01-23 19:48:07.12	178.03	2.15	-54.6	-56.7	6.2	0.00e+00	0	44	104	0	80	18783
2026-01-23 19:48:08.13	178.07	2.22	-54.6	-56.7	6.2	0.00e+00	0	44	104	0	80	18681
2026-01-23 19:48:09.13	178.10	2.29	-54.5	-56.7	6.2	0.00e+00	0	44	104	0	80	18631
2026-01-23 19:48:10.14	178.14	2.35	-54.5	-56.6	6.2	0.00e+00	0	44	104	0	80	18436
2026-01-23 19:48:11.15	178.19	2.42	-54.4	-56.5	6.2	0.00e+00	0	44	104	0	80	18326
2026-01-23 19:48:12.15	178.23	2.49	-54.4	-56.5	6.2	0.00e+00	0	44	104	0	80	18204
2026-01-23 19:48:13.16	178.27	2.56	-54.3	-56.4	6.2	0.00e+00	0	44	104	0	80	17989
2026-01-23 19:48:14.17	178.31	2.63	-54.2	-56.2	6.2	0.00e+00	0	44	104	0	80	17756
2026-01-23 19:48:15.18	178.35	2.70	-54.1	-56.2	6.2	0.00e+00	0	44	104	0	80	17564
2026-01-23 19:48:16.19	178.39	2.77	-53.9	-56.0	6.2	0.00e+00	0	44	104	0	79	18239
2026-01-23 19:48:17.20	178.43	2.84	-53.5	-55.6	6.2	0.00e+00	0	44	104	0	79	17515
2026-01-23 19:48:18.21	178.47	2.92	-53.4	-55.5	6.2	0.00e+00	0	44	104	0	78	18337
2026-01-23 19:48:19.22	178.51	2.99	-53.4	-55.5	6.2	0.00e+00	0	44	104	0	78	18342
2026-01-23 19:48:20.23	178.56	3.06	-53.4	-55.5	6.2	0.00e+00	0	44	104	0	78	18276
2026-01-23 19:48:21.24	178.60	3.13	-53.4	-55.5	6.2	0.00e+00	0	44	104	0	78	18209
2026-01-23 19:48:22.25	178.64	3.20	-53.4	-55.5	6.2	0.00e+00	0	44	104	0	78	18289
2026-01-23 19:48:23.25	178.68	3.27	-53.4	-55.5	6.2	0.00e+00	0	44	104	0	78	18191
2026-01-23 19:48:24.27	178.73	3.35	-53.4	-55.5	6.2	0.00e+00	0	44	104	0	78	18297
2026-01-23 19:48:25.27	178.77	3.42	-53.4	-55.4	6.2	0.00e+00	0	44	104	0	78	18167
2026-01-23 19:48:26.28	178.82	3.49	-53.4	-55.4	6.2	0.00e+00	0	44	104	0	78	18098
2026-01-23 19:48:27.29	178.86	3.56	-53.4	-55.4	6.2	0.00e+00	0	45	104	0	78	18162
2026-01-23 19:48:28.30	178.90	3.64	-53.3	-55.5	6.2	0.00e+00	0	44	104	0	78	18191
2026-01-23 19:48:29.31	178.95	3.71	-53.3	-55.4	6.2	0.00e+00	0	44	104	0	78	18121
2026-01-23 19:48:30.31	178.99	3.78	-53.3	-55.4	6.2	0.00e+00	0	44	104	0	78	18104
2026-01-23 19:48:31.32	179.04	3.86	-53.3	-55.4	6.2	0.00e+00	0	44	104	0	78	18123
2026-01-23 19:48:32.33	179.08	3.93	-53.3	-55.4	6.2	0.00e+00	0	44	104	0	78	18119
2026-01-23 19:48:33.34	179.13	4.01	-53.3	-55.4	6.2	0.00e+00	0	45	104	0	78	18086
2026-01-23 19:48:34.34	179.17	4.08	-53.3	-55.4	6.2	0.00e+00	0	45	104	0	78	18140
2026-01-23 19:48:35.35	179.22	4.15	-53.3	-55.4	6.2	0.00e+00	0	44	104	0	78	18039
2026-01-23 19:48:36.36	179.26	4.23	-53.3	-55.4	6.2	0.00e+00	0	44	104	0	78	18101
2026-01-23 19:48:37.37	179.31	4.30	-53.3	-55.4	6.2	0.00e+00	0	44	104	0	78	18120
2026-01-23 19:48:38.37	179.36	4.38	-53.3	-55.4	6.2	0.00e+00	0	45	104	0	78	18062
2026-01-23 19:48:39.38	179.40	4.46	-53.3	-55.4	6.2	0.00e+00	0	44	104	0	78	18069
2026-01-23 19:48:40.39	179.45	4.53	-53.3	-55.4	6.2	0.00e+00	0	45	104	0	78	18122
2026-01-23 19:48:41.40	179.50	4.61	-53.3	-55.4	6.2	0.00e+00	0	44	104	0	78	18062
2026-01-23 19:48:42.41	179.55	4.68	-53.3	-55.4	6.2	0.00e+00	0	44	104	0	78	18092
2026-01-23 19:48:43.41	179.59	4.76	-53.3	-55.4	6.2	0.00e+00	0	45	104	0	78	18058
2026-01-23 19:48:44.42	179.64	4.84	-53.3	-55.4	6.2	0.00e+00	0	45	104	0	78	18025
2026-01-23 19:48:45.43	179.69	4.92	-53.3	-55.4	6.2	0.00e+00	0	45	104	0	78	18069
2026-01-23 19:48:46.44	179.74	4.99	-53.3	-55.4	6.2	0.00e+00	0	45	104	0	78	18029
2026-01-23 19:48:47.45	179.79	5.07	-53.3	-55.4	6.2	0.00e+00	0	44	104	0	78	18112
2026-01-23 19:48:48.45	179.84	5.15	-53.4	-55.4	6.2	0.00e+00	0	45	104	0	78	18175
2026-01-23 19:48:49.46	179.89	5.23	-53.3	-55.4	6.2	0.00e+00	0	45	104	0	78	18152
2026-01-23 19:48:50.47	179.94	5.31	-53.4	-55.5	6.2	0.00e+00	0	44	104	0	78	18340
2026-01-23 19:48:51.48	179.99	5.39	-53.4	-55.5	6.2	0.00e+00	0	45	104	0	78	18253
2026-01-23 19:48:52.49	180.04	5.47	-53.3	-55.4	6.2	0.00e+00	0	44	104	0	78	18007
2026-01-23 19:48:53.50	180.09	5.54	-53.3	-55.5	6.2	0.00e+00	0	45	104	0	78	18203
2026-01-23 19:48:54.51	180.14	5.62	-53.4	-55.5	6.2	0.00e+00	0	45	104	0	78	18362
2026-01-23 19:48:55.51	180.19	5.70	-53.3	-55.4	6.2	0.00e+00	0	45	104	0	78	18161
2026-01-23 19:48:56.52	180.25	5.78	-53.3	-55.4	6.2	0.00e+00	0	45	104	0	78	18040
2026-01-23 19:48:57.53	180.30	5.87	-53.3	-55.4	6.2	0.00e+00	0	45	104	0	78	18172
2026-01-23 19:48:58.54	180.35	5.95	-53.4	-55.5	6.2	0.00e+00	0	45	104	0	78	18340
2026-01-23 19:48:59.55	180.40	6.03	-53.3	-55.4	6.2	0.00e+00	0	45	104	0	78	18142
2026-01-23 19:49:00.55	180.46	6.11	-53.3	-55.4	6.2	0.00e+00	0	45	104	0	78	18022
2026-01-23 19:49:01.56	180.51	6.19	-53.3	-55.4	6.2	0.00e+00	0	45	104	0	78	18122
2026-01-23 19:49:02.57	180.56	6.27	-53.4	-55.5	6.2	0.00e+00	0	45	104	0	78	18320
2026-01-23 19:49:03.58	180.62	6.36	-53.3	-55.5	6.2	0.00e+00	0	45	104	0	78	18243
2026-01-23 19:49:04.59	180.67	6.44	-53.3	-55.4	6.2	0.00e+00	0	45	104	0	78	18069
2026-01-23 19:49:05.59	180.73	6.52	-53.4	-55.4	6.2	0.00e+00	0	45	104	0	78	18176
2026-01-23 19:49:06.60	180.78	6.61	-53.4	-55.5	6.2	0.00e+00	0	45	104	0	78	18360
2026-01-23 19:49:07.61	180.84	6.69	-53.3	-55.4	6.2	0.00e+00	0	45	104	0	78	18166
2026-01-23 19:49:08.62	180.89	6.77	-53.3	-55.4	6.2	0.00e+00	0	45	104	0	78	17987
2026-01-23 19:49:09.63	180.95	6.86	-53.4	-55.5	6.2	0.00e+00	0	45	104	0	78	18260
2026-01-23 19:49:10.63	181.01	6.94	-53.5	-55.6	6.2	0.00e+00	0	45	104	0	78	18395
2026-01-23 19:49:11.64	181.06	7.03	-53.4	-55.5	6.2	0.00e+00	0	45	104	0	78	18283
2026-01-23 19:49:12.65	181.12	7.11	-53.3	-55.4	6.2	0.00e+00	0	45	104	0	78	18122
2026-01-23 19:49:13.66	181.18	7.20	-53.4	-55.5	6.2	0.00e+00	0	45	104	0	78	18323
2026-01-23 19:49:14.67	181.24	7.29	-53.5	-55.6	6.2	0.00e+00	0	45	104	0	78	18472
2026-01-23 19:49:15.68	181.30	7.37	-53.4	-55.5	6.2	0.00e+00	0	45	104	0	78	18248
2026-01-23 19:49:16.68	181.36	7.46	-53.4	-55.5	6.2	0.00e+00	0	45	104	0	78	18205
2026-01-23 19:49:17.69	181.42	7.55	-53.4	-55.5	6.2	0.00e+00	0	45	104	0	78	18359
2026-01-23 19:49:18.70	181.48	7.64	-53.5	-55.6	6.2	0.00e+00	0	45	104	0	78	18500
2026-01-23 19:49:19.71	181.54	7.72	-53.4	-55.5	6.2	0.00e+00	0	45	104	0	78	18270
2026-01-23 19:49:20.71	181.60	7.81	-53.4	-55.5	6.2	0.00e+00	0	45	104	0	78	18255
2026-01-23 19:49:21.72	181.66	7.90	-53.5	-55.6	6.2	0.00e+00	0	45	104	0	78	18487
2026-01-23 19:49:22.73	181.72	7.99	-53.5	-55.7	6.2	0.00e+00	0	45	104	0	78	18614
2026-01-23 19:49:23.74	181.78	8.08	-53.4	-55.5	6.2	0.00e+00	0	45	104	0	78	18331
2026-01-23 19:49:24.75	181.84	8.17	-52.3	-53.9	6.3	0.00e+00	0	45	104	0	76	17108
2026-01-23 19:49:25.75	181.91	8.26	-50.0	-50.8	6.3	0.00e+00	0	45	104	0	70	16898
2026-01-23 19:49:26.76	181.97	8.35	-52.0	-53.4	6.3	0.00e+00	0	45	104	0	74	18058
2026-01-23 19:49:27.77	182.03	8.44	-49.4	-50.4	6.3	0.00e+00	0	45	104	0	69	17038
2026-01-23 19:49:28.77	182.10	8.53	-48.9	-49.5	6.3	0.00e+00	0	45	104	0	69	15319
2026-01-23 19:49:29.78	182.16	8.62	-48.6	-49.2	6.3	0.00e+00	0	45	104	0	69	14918
2026-01-23 19:49:30.79	182.23	8.72	-48.6	-49.2	6.3	0.00e+00	0	45	104	0	69	14900
2026-01-23 19:49:31.80	182.29	8.81	-49.1	-49.9	6.3	0.00e+00	0	45	104	0	68	17144
2026-01-23 19:49:32.81	182.36	8.90	-50.2	-51.3	6.3	0.00e+00	0	45	104	0	70	17775
2026-01-23 19:49:33.81	182.42	9.00	-51.8	-52.6	6.2	0.00e+00	0	45	104	0	73	17468
2026-01-23 19:49:34.82	182.49	9.09	-51.1	-52.3	6.2	0.00e+00	0	45	104	0	72	17946
2026-01-23 19:49:35.83	182.56	9.18	-51.1	-52.3	6.3	0.00e+00	0	45	104	0	72	17865
2026-01-23 19:49:36.84	182.63	9.28	-49.3	-50.1	6.3	0.00e+00	0	45	104	0	70	15613
2026-01-23 19:49:37.85	182.69	9.37	-48.8	-49.4	6.3	0.00e+00	0	45	104	0	69	15125
2026-01-23 19:49:38.85	182.76	9.47	-48.6	-49.2	6.2	0.00e+00	0	45	104	0	69	14882
2026-01-23 19:49:39.86	182.83	9.57	-49.5	-50.4	6.3	0.00e+00	0	45	104	0	69	17006
2026-01-23 19:49:40.87	182.90	9.66	-39.9	-39.8	13.3	2.10e-03	0	45	104	0	50	15047
2026-01-23 19:49:41.88	182.97	9.76	-35.3	-35.1	16.1	1.14e-05	0	45	0	92274688	40	15637
2026-01-23 19:49:42.89	183.04	9.86	-40.4	-40.3	13.5	1.43e-03	0	45	0	201326592	51	14981
2026-01-23 19:49:43.89	183.11	9.95	-35.9	-35.8	15.6	5.53e-05	0	45	0	327155712	42	15009
2026-01-23 19:49:44.90	183.19	10.05	-33.0	-32.8	17.1	0.00e+00	0	45	0	436207616	38	13439
2026-01-23 19:49:45.91	183.26	10.15	-33.0	-32.8	17.2	1.90e-06	0	45	0	553648128	38	13434
2026-01-23 19:49:46.91	183.33	10.25	-32.5	-32.3	17.5	0.00e+00	0	45	0	662700032	36	14237
2026-01-23 19:49:47.92	183.40	10.35	-32.6	-32.4	17.5	1.90e-06	0	45	0	780140544	36	14374
2026-01-23 19:49:48.93	183.48	10.45	-32.7	-32.5	17.4	0.00e+00	0	46	0	889192448	36	14538
2026-01-23 19:49:49.94	183.55	10.55	-32.5	-32.3	17.7	0.00e+00	0	45	0	998244352	36	14216
2026-01-23 19:49:50.95	183.63	10.65	-32.6	-32.4	17.7	0.00e+00	0	46	0	1115684864	36	14416
2026-01-23 19:49:51.95	183.70	10.75	-32.3	-32.1	17.8	1.90e-06	0	46	0	1224736768	36	13924
2026-01-23 19:49:52.96	183.78	10.86	-32.4	-32.2	17.7	0.00e+00	0	45	0	1342177280	36	14076
2026-01-23 19:49:53.97	183.86	10.96	-32.5	-32.4	17.8	1.90e-06	0	45	0	1451229184	36	14344
2026-01-23 19:49:54.98	183.94	11.06	-32.6	-32.4	17.6	1.90e-06	0	46	0	1560281088	36	14419
2026-01-23 19:49:55.99	184.01	11.17	-32.4	-32.2	17.8	0.00e+00	0	46	0	1677721600	36	14025
2026-01-23 19:49:56.99	184.09	11.27	-32.2	-32.0	17.7	0.00e+00	0	46	0	1803550720	36	13746
2026-01-23 19:49:58.00	184.17	11.37	-32.3	-32.1	17.7	0.00e+00	0	46	0	1912602624	36	13919
2026-01-23 19:49:59.01	184.25	11.48	-32.2	-32.1	17.7	0.00e+00	0	46	0	2021654528	36	13813
2026-01-23 19:50:00.01	184.33	11.58	-32.2	-32.0	17.7	0.00e+00	0	46	0	2139095040	36	13715
2026-01-23 19:50:01.02	184.41	11.69	-32.2	-32.0	17.7	0.00e+00	0	46	0	2248146944	36	13758
2026-01-23 19:50:02.03	184.50	11.80	-32.1	-32.0	17.8	0.00e+00	0	46	0	2365587456	36	13642
2026-01-23 19:50:03.04	184.58	11.90	-32.0	-31.8	17.7	0.00e+00	0	46	0	2474639360	36	13412
2026-01-23 19:50:04.05	184.66	12.01	-29.7	-29.6	17.2	3.80e-06	0	46	0	2592079872	31	13804
2026-01-23 19:50:05.05	184.75	12.12	-29.6	-29.5	17.4	0.00e+00	0	46	0	2701131776	31	13664
2026-01-23 19:50:06.06	184.83	12.23	-29.7	-29.5	17.4	0.00e+00	0	46	0	2810183680	31	13726
2026-01-23 19:50:07.07	184.92	12.34	-29.9	-29.7	17.3	0.00e+00	0	46	0	2927624192	31	14078
2026-01-23 19:50:08.08	185.00	12.45	-30.0	-29.9	17.2	5.70e-06	0	46	0	3036676096	31	14324
2026-01-23 19:50:09.09	185.09	12.56	-29.8	-29.6	17.3	1.90e-06	0	46	0	3154116608	31	13895
2026-01-23 19:50:10.09	185.18	12.67	-29.3	-29.2	17.6	0.00e+00	0	46	0	3271557120	30	13984
2026-01-23 19:50:11.10	185.27	12.78	-29.4	-29.3	17.4	0.00e+00	0	46	0	3388997632	30	14126
2026-01-23 19:50:12.11	185.36	12.90	-29.4	-29.2	17.5	0.00e+00	0	46	0	3498049536	30	14053
2026-01-23 19:50:13.12	185.45	13.01	-29.3	-29.1	17.5	3.80e-06	0	46	0	3615490048	30	13871
2026-01-23 19:50:14.13	185.54	13.12	-29.3	-29.1	17.4	3.80e-06	0	46	0	3724541952	30	13927
2026-01-23 19:50:15.13	185.63	13.24	-29.3	-29.1	17.4	3.80e-06	0	46	0	3833593856	30	13861
2026-01-23 19:50:16.14	185.72	13.35	-29.0	-28.8	17.5	0.00e+00	0	46	0	3951034368	30	13461
2026-01-23 19:50:17.15	185.81	13.47	-29.1	-28.9	17.5	0.00e+00	0	46	0	4060086272	30	13623
2026-01-23 19:50:18.15	185.91	13.58	-29.2	-29.0	17.6	0.00e+00	0	46	0	4177526784	30	13777
2026-01-23 19:50:19.16	186.00	13.70	-29.2	-29.1	17.5	1.90e-06	0	46	0	4286578688	30	13803
2026-01-23 19:50:20.17	186.10	13.82	-29.1	-29.0	17.6	3.80e-06	0	46	0	4395630592	30	13657
2026-01-23 19:50:21.18	186.19	13.93	-29.1	-28.9	17.7	0.00e+00	0	46	0	4513071104	30	13565
2026-01-23 19:50:22.19	186.29	14.05	-29.2	-29.0	17.5	3.80e-06	0	46	0	4622123008	30	13740
2026-01-23 19:50:23.19	186.39	14.17	-29.0	-28.8	17.7	1.90e-06	0	46	0	4747952128	30	13400
2026-01-23 19:50:24.20	186.49	14.29	-29.1	-28.9	17.7	0.00e+00	0	46	0	4857004032	29	14366
2026-01-23 19:50:25.21	186.59	14.41	-28.9	-28.7	17.8	0.00e+00	0	46	0	4974444544	29	14108
2026-01-23 19:50:26.22	186.69	14.54	-28.7	-28.5	18.0	0.00e+00	0	46	0	5083496448	29	13779
2026-01-23 19:50:27.23	186.79	14.66	-28.7	-28.5	18.0	1.90e-06	0	46	0	5200936960	29	13761
2026-01-23 19:50:28.23	186.89	14.78	-28.6	-28.4	18.0	0.00e+00	0	46	0	5309988864	29	13580
2026-01-23 19:50:29.24	186.99	14.90	-28.8	-28.6	18.0	0.00e+00	0	46	0	5419040768	29	13848
2026-01-23 19:50:30.25	187.10	15.03	-28.6	-28.5	18.0	1.90e-06	0	46	0	5536481280	29	13633
2026-01-23 19:50:31.26	187.21	15.15	-28.6	-28.4	18.2	0.00e+00	0	46	0	5645533184	29	13583
2026-01-23 19:50:32.27	187.31	15.28	-28.6	-28.4	18.2	0.00e+00	0	46	0	5762973696	29	13573
2026-01-23 19:50:33.28	187.42	15.40	-28.6	-28.4	18.2	0.00e+00	0	46	0	5872025600	29	13530
2026-01-23 19:50:34.28	187.53	15.53	-28.4	-28.3	18.2	0.00e+00	0	46	0	5989466112	28	14114
2026-01-23 19:50:35.29	187.64	15.66	-28.4	-28.2	18.2	0.00e+00	0	46	0	6098518016	28	14082
2026-01-23 19:50:36.30	187.75	15.79	-28.2	-28.1	18.3	0.00e+00	0	46	0	6224347136	28	13808
2026-01-23 19:50:37.31	187.86	15.92	-28.1	-27.9	18.3	0.00e+00	0	46	0	6333399040	28	13602
2026-01-23 19:50:38.32	187.97	16.05	-28.2	-28.1	18.3	0.00e+00	0	46	0	6450839552	28	13809
2026-01-23 19:50:39.33	188.09	16.18	-28.1	-28.0	18.3	0.00e+00	0	46	0	6559891456	28	13646
2026-01-23 19:50:40.33	188.20	16.31	-28.1	-27.9	18.4	0.00e+00	0	46	0	6668943360	28	13558
2026-01-23 19:50:41.34	188.32	16.44	-28.0	-27.8	18.4	0.00e+00	0	46	0	6786383872	28	13441
2026-01-23 19:50:42.35	188.43	16.57	-28.0	-27.8	18.5	0.00e+00	0	46	0	6895435776	27	14177
2026-01-23 19:50:43.36	188.55	16.71	-28.0	-27.8	18.5	0.00e+00	0	46	0	7012876288	27	14247
2026-01-23 19:50:44.37	188.67	16.84	-27.9	-27.7	18.5	0.00e+00	0	46	0	7121928192	27	14026
2026-01-23 19:50:45.37	188.79	16.98	-27.9	-27.8	18.5	0.00e+00	0	46	0	7230980096	27	14163
2026-01-23 19:50:46.38	188.91	17.11	-27.8	-27.7	18.6	0.00e+00	0	46	0	7348420608	27	13962
2026-01-23 19:50:47.39	189.03	17.25	-27.8	-27.6	18.6	0.00e+00	0	46	0	7457472512	27	13941
2026-01-23 19:50:48.40	189.16	17.39	-27.6	-27.4	18.6	0.00e+00	0	46	0	7583301632	27	13598
2026-01-23 19:50:49.41	189.28	17.53	-27.6	-27.5	18.7	0.00e+00	0	46	0	7692353536	27	13691
2026-01-23 19:50:50.42	189.41	17.67	-27.7	-27.5	18.6	0.00e+00	0	46	0	7809794048	27	13719
2026-01-23 19:50:51.42	189.54	17.81	-27.7	-27.6	18.6	0.00e+00	0	46	0	7918845952	27	13805
2026-01-23 19:50:52.43	189.67	17.95	-27.5	-27.3	18.6	0.00e+00	0	46	0	8036286464	27	13412
2026-01-23 19:50:53.44	189.80	18.09	-27.4	-27.3	18.6	0.00e+00	0	46	0	8145338368	26	14160
2026-01-23 19:50:54.45	189.93	18.24	-27.4	-27.3	18.6	0.00e+00	0	46	0	8254390272	26	14155
2026-01-23 19:50:55.46	190.06	18.38	-27.2	-27.0	18.7	0.00e+00	0	46	0	8371830784	26	13712
2026-01-23 19:50:56.47	190.20	18.53	-27.3	-27.1	18.7	0.00e+00	0	46	0	8480882688	26	13877
2026-01-23 19:50:57.47	190.33	18.67	-27.1	-26.9	18.7	0.00e+00	0	46	0	8598323200	26	13537
2026-01-23 19:50:58.48	190.47	18.82	-27.1	-27.0	18.7	0.00e+00	0	46	0	8707375104	26	13662
2026-01-23 19:50:59.49	190.61	18.97	-27.0	-26.9	18.8	0.00e+00	0	46	0	8833204224	25	14331
2026-01-23 19:51:00.50	190.75	19.11	-27.0	-26.8	18.9	0.00e+00	0	46	0	8942256128	25	14200
2026-01-23 19:51:01.51	190.89	19.26	-27.1	-26.9	18.8	0.00e+00	0	46	0	9059696640	25	14439
2026-01-23 19:51:02.52	191.04	19.42	-26.8	-26.6	19.0	0.00e+00	0	46	0	9168748544	25	13893
2026-01-23 19:51:03.53	191.18	19.57	-26.9	-26.7	18.9	0.00e+00	0	46	0	9277800448	25	14034
2026-01-23 19:51:04.54	191.33	19.72	-26.7	-26.5	19.0	0.00e+00	0	46	0	9395240960	25	13783
2026-01-23 19:51:05.55	191.48	19.87	-26.8	-26.6	19.0	0.00e+00	0	46	0	9504292864	25	13867
2026-01-23 19:51:06.55	191.62	20.03	-26.6	-26.4	19.0	0.00e+00	0	46	0	9621733376	25	13617
2026-01-23 19:51:07.56	191.78	20.18	-26.5	-26.3	19.0	0.00e+00	0	46	0	9730785280	25	13442
2026-01-23 19:51:08.57	191.93	20.34	-26.4	-26.3	19.0	0.00e+00	0	46	0	9848225792	24	14149
2026-01-23 19:51:09.58	192.08	20.50	-26.6	-26.4	19.0	0.00e+00	0	46	0	9957277696	24	14360
2026-01-23 19:51:10.58	192.24	20.65	-26.3	-26.2	19.1	0.00e+00	0	46	0	10066329600	24	14006
2026-01-23 19:51:11.59	192.40	20.81	-26.4	-26.2	19.2	0.00e+00	0	46	0	10183770112	24	14034
2026-01-23 19:51:12.60	192.56	20.97	-26.4	-26.2	19.2	0.00e+00	0	46	0	10309599232	24	14044
2026-01-23 19:51:13.60	192.72	21.13	-26.4	-26.2	19.2	0.00e+00	0	46	0	10418651136	24	14054
2026-01-23 19:51:14.62	192.88	21.30	-26.4	-26.3	19.1	0.00e+00	0	46	0	10527703040	24	14148
2026-01-23 19:51:15.63	193.05	21.46	-26.2	-26.1	19.1	0.00e+00	0	46	0	10645143552	24	13803
2026-01-23 19:51:16.63	193.22	21.63	-26.3	-26.1	19.1	0.00e+00	0	46	0	10754195456	24	13891
2026-01-23 19:51:17.64	193.39	21.79	-26.1	-26.0	19.3	0.00e+00	0	46	0	10871635968	24	13661
2026-01-23 19:51:18.65	193.56	21.96	-26.1	-25.9	19.3	0.00e+00	0	46	0	10980687872	24	13597
2026-01-23 19:51:19.66	193.73	22.13	-26.1	-25.9	19.4	0.00e+00	0	46	0	11089739776	24	13526
2026-01-23 19:51:20.66	193.90	22.29	-26.0	-25.8	19.3	0.00e+00	0	46	0	11207180288	24	13470
2026-01-23 19:51:21.67	194.08	22.46	-25.9	-25.7	19.2	0.00e+00	0	46	0	11316232192	23	14077
2026-01-23 19:51:22.68	194.26	22.64	-25.9	-25.7	19.2	0.00e+00	0	46	0	11433672704	23	14076
2026-01-23 19:51:23.68	194.44	22.81	-26.1	-25.9	19.3	0.00e+00	0	46	0	11542724608	23	14324
2026-01-23 19:51:24.69	194.63	22.98	-25.8	-25.6	19.3	0.00e+00	0	46	0	11668553728	23	13897
2026-01-23 19:51:25.70	194.81	23.15	-25.8	-25.7	19.4	0.00e+00	0	46	0	11777605632	23	14009
2026-01-23 19:51:26.71	195.00	23.33	-25.7	-25.6	19.4	0.00e+00	0	46	0	11895046144	23	13818
2026-01-23 19:51:27.72	195.19	23.51	-25.9	-25.7	19.3	0.00e+00	0	46	0	12004098048	23	14034
2026-01-23 19:51:28.73	195.38	23.69	-25.5	-25.4	19.5	0.00e+00	0	46	0	12113149952	23	13489
2026-01-23 19:51:29.74	195.58	23.86	-25.4	-25.3	19.6	0.00e+00	0	46	0	12230590464	22	14164
2026-01-23 19:51:30.74	195.77	24.04	-25.4	-25.3	19.6	0.00e+00	0	46	0	12339642368	22	14163
2026-01-23 19:51:31.75	195.97	24.22	-25.3	-25.2	19.5	0.00e+00	0	46	0	12457082880	22	13974
2026-01-23 19:51:32.76	196.18	24.41	-25.3	-25.1	19.8	0.00e+00	0	46	0	12566134784	22	13927
2026-01-23 19:51:33.77	196.38	24.59	-25.2	-25.1	19.7	0.00e+00	0	46	0	12683575296	22	13813
2026-01-23 19:51:34.78	196.59	24.78	-25.2	-25.1	19.8	0.00e+00	0	46	0	12792627200	22	13818
2026-01-23 19:51:35.79	196.80	24.96	-25.3	-25.1	19.6	0.00e+00	0	46	0	12901679104	22	13921
2026-01-23 19:51:36.80	197.01	25.15	-25.2	-25.0	19.7	0.00e+00	0	46	0	13027508224	22	13722
2026-01-23 19:51:37.81	197.23	25.34	-25.0	-24.9	19.8	0.00e+00	0	46	0	13136560128	22	13513
2026-01-23 19:51:38.82	197.45	25.53	-25.0	-24.9	19.8	0.00e+00	0	46	0	13254000640	22	13517
2026-01-23 19:51:39.83	197.67	25.72	-25.0	-24.8	19.9	0.00e+00	0	46	0	13363052544	22	13442
2026-01-23 19:51:40.83	197.89	25.91	-24.9	-24.7	20.0	0.00e+00	0	46	0	13480493056	21	14046
2026-01-23 19:51:41.85	198.12	26.10	-24.7	-24.6	20.1	0.00e+00	0	46	0	13589544960	21	13791
2026-01-23 19:51:42.85	198.35	26.30	-24.7	-24.5	20.0	0.00e+00	0	46	0	13706985472	21	13734
2026-01-23 19:51:43.86	198.58	26.49	-24.7	-24.5	20.0	0.00e+00	0	46	0	13816037376	21	13721
2026-01-23 19:51:44.87	198.82	26.69	-24.6	-24.5	20.1	0.00e+00	0	46	0	13925089280	21	13683
2026-01-23 19:51:45.88	199.06	26.89	-24.5	-24.3	20.2	0.00e+00	0	46	0	14042529792	21	13445
2026-01-23 19:51:46.88	199.30	27.08	-24.6	-24.4	20.1	0.00e+00	0	46	0	14151581696	21	13598
2026-01-23 19:51:47.89	199.54	27.29	-24.5	-24.3	20.0	0.00e+00	0	46	0	14269022208	21	13446
2026-01-23 19:51:48.90	199.79	27.49	-24.3	-24.1	19.9	0.00e+00	0	46	0	14386462720	20	13929
2026-01-23 19:51:49.91	200.04	27.69	-24.3	-24.1	20.1	0.00e+00	0	46	0	14503903232	20	13846
2026-01-23 19:51:50.92	200.30	27.89	-24.4	-24.2	19.8	0.00e+00	0	46	0	14612955136	20	14080
2026-01-23 19:51:51.93	200.56	28.10	-24.3	-24.2	20.1	0.00e+00	0	46	0	14730395648	20	13962
2026-01-23 19:51:52.94	200.82	28.31	-24.1	-24.0	19.9	0.00e+00	0	46	0	14839447552	20	13662
2026-01-23 19:51:53.95	201.09	28.51	-24.0	-23.9	20.0	0.00e+00	0	46	0	14948499456	19	14296
2026-01-23 19:51:54.96	201.36	28.72	-24.0	-23.8	19.9	0.00e+00	0	46	0	15065939968	19	14261
2026-01-23 19:51:55.97	201.63	28.93	-23.9	-23.8	19.8	0.00e+00	0	46	0	15174991872	19	14180
2026-01-23 19:51:56.97	201.91	29.14	-24.0	-23.9	19.9	0.00e+00	0	46	0	15292432384	19	14326
2026-01-23 19:51:57.98	202.19	29.35	-23.8	-23.6	20.0	0.00e+00	0	46	0	15401484288	19	13938
2026-01-23 19:51:58.99	202.47	29.57	-23.8	-23.7	19.9	0.00e+00	0	46	0	15527313408	19	13965
2026-01-23 19:52:00.00	202.76	29.78	-23.7	-23.6	19.8	0.00e+00	0	46	0	15636365312	19	13858
2026-01-23 19:52:01.01	203.06	30.00	-23.8	-23.6	19.8	0.00e+00	0	46	0	15753805824	19	13905
2026-01-23 19:52:02.02	203.35	30.21	-23.8	-23.6	19.7	0.00e+00	0	46	0	15862857728	19	13862
2026-01-23 19:52:03.03	203.65	30.43	-23.5	-23.4	19.8	0.00e+00	0	46	0	15971909632	19	13535
2026-01-23 19:52:04.03	203.96	30.65	-23.6	-23.4	19.9	0.00e+00	0	46	0	16089350144	19	13541
2026-01-23 19:52:05.04	204.27	30.87	-23.5	-23.3	20.0	0.00e+00	0	46	0	16198402048	19	13443
2026-01-23 19:52:06.05	204.58	31.09	-23.4	-23.2	19.9	0.00e+00	0	46	0	16315842560	18	14042
2026-01-23 19:52:07.06	204.90	31.31	-23.4	-23.2	20.0	0.00e+00	0	46	0	16424894464	18	14065
2026-01-23 19:52:08.07	205.23	31.53	-23.4	-23.2	20.2	0.00e+00	0	46	0	16542334976	18	14083
2026-01-23 19:52:09.08	205.55	31.76	-23.3	-23.1	19.9	0.00e+00	0	46	0	16651386880	18	13901
2026-01-23 19:52:10.08	205.88	31.98	-23.3	-23.2	20.0	0.00e+00	0	46	0	16760438784	18	13995
2026-01-23 19:52:11.09	206.22	32.21	-23.3	-23.2	19.9	0.00e+00	0	46	0	16886267904	18	13975
2026-01-23 19:52:12.10	206.57	32.43	-23.1	-22.9	20.1	0.00e+00	0	46	0	16995319808	18	13595
2026-01-23 19:52:13.11	206.91	32.66	-23.1	-23.0	19.9	0.00e+00	0	46	0	17112760320	18	13685
2026-01-23 19:52:14.12	207.27	32.89	-23.2	-23.0	19.8	0.00e+00	0	46	0	17221812224	18	13790
2026-01-23 19:52:15.13	207.63	33.12	-23.0	-22.9	20.1	0.00e+00	0	46	0	17339252736	18	13500
2026-01-23 19:52:16.14	207.99	33.35	-23.0	-22.8	20.0	0.00e+00	0	46	0	17448304640	18	13466
2026-01-23 19:52:17.15	208.36	33.58	-22.9	-22.7	19.7	0.00e+00	0	46	0	17565745152	17	14059
2026-01-23 19:52:18.15	208.73	33.81	-22.9	-22.8	19.5	0.00e+00	0	46	0	17674797056	17	14168
2026-01-23 19:52:19.16	209.11	34.04	-22.8	-22.6	19.6	0.00e+00	0	46	0	17783848960	17	13863
2026-01-23 19:52:20.17	209.50	34.27	-22.6	-22.5	19.7	0.00e+00	0	46	0	17901289472	17	13668
2026-01-23 19:52:21.18	209.89	34.51	-22.6	-22.5	19.8	0.00e+00	0	46	0	18010341376	17	13672
2026-01-23 19:52:22.19	210.29	34.74	-22.6	-22.4	19.7	0.00e+00	0	46	0	18127781888	17	13600
2026-01-23 19:52:23.20	210.69	34.98	-22.7	-22.5	19.7	0.00e+00	0	46	0	18245222400	17	13719
2026-01-23 19:52:24.20	211.09	35.21	-22.4	-22.3	19.8	0.00e+00	0	46	0	18362662912	16	14167
2026-01-23 19:52:25.21	211.51	35.44	-22.4	-22.3	19.6	0.00e+00	0	46	0	18471714816	16	14143
2026-01-23 19:52:26.22	211.93	35.68	-22.5	-22.4	19.6	0.00e+00	0	46	0	18589155328	16	14315
2026-01-23 19:52:27.22	212.36	35.91	-22.3	-22.2	19.9	0.00e+00	0	47	0	18698207232	16	13979
2026-01-23 19:52:28.23	212.79	36.15	-22.4	-22.2	19.5	0.00e+00	0	46	0	18807259136	16	14032
2026-01-23 19:52:29.24	213.23	36.39	-22.3	-22.1	19.9	0.00e+00	0	46	0	18924699648	16	13845
2026-01-23 19:52:30.25	213.68	36.62	-22.4	-22.2	19.7	0.00e+00	0	46	0	19033751552	16	14002
2026-01-23 19:52:31.26	214.13	36.86	-22.2	-22.1	19.9	0.00e+00	0	46	0	19151192064	16	13835
2026-01-23 19:52:32.27	214.60	37.10	-22.1	-22.0	19.6	0.00e+00	0	46	0	19260243968	16	13637
2026-01-23 19:52:33.28	215.06	37.33	-22.3	-22.1	19.7	0.00e+00	0	46	0	19369295872	16	13913
2026-01-23 19:52:34.29	215.54	37.57	-22.2	-22.0	19.9	0.00e+00	0	46	0	19486736384	16	13681
2026-01-23 19:52:35.29	216.02	37.80	-22.2	-22.1	19.4	0.00e+00	0	46	0	19612565504	16	13806
2026-01-23 19:52:36.30	216.51	38.04	-22.1	-21.9	19.6	0.00e+00	0	46	0	19721617408	16	13604
2026-01-23 19:52:37.31	217.01	38.27	-22.0	-21.9	19.7	0.00e+00	0	46	0	19830669312	16	13498
2026-01-23 19:52:38.32	217.51	38.51	-22.1	-21.9	19.7	0.00e+00	0	46	0	19948109824	16	13546
2026-01-23 19:52:39.32	218.02	38.74	-21.8	-21.7	19.7	0.00e+00	0	46	0	20057161728	15	13994
2026-01-23 19:52:40.33	218.54	38.97	-22.0	-21.8	19.8	0.00e+00	0	46	0	20174602240	15	14235
2026-01-23 19:52:41.34	219.06	39.20	-21.8	-21.7	19.5	0.00e+00	0	46	0	20283654144	15	13973
2026-01-23 19:52:42.35	219.60	39.44	-21.8	-21.6	19.4	0.00e+00	0	46	0	20401094656	15	13888
2026-01-23 19:52:43.36	220.14	39.67	-21.9	-21.7	19.2	0.00e+00	0	46	0	20510146560	15	14084
2026-01-23 19:52:44.36	220.69	39.89	-21.7	-21.6	19.1	0.00e+00	0	46	0	20619198464	15	13826
2026-01-23 19:52:45.37	221.25	40.12	-21.6	-21.4	19.3	0.00e+00	0	46	0	20736638976	15	13600
2026-01-23 19:52:46.37	221.81	40.35	-21.7	-21.5	19.3	0.00e+00	0	46	0	20845690880	15	13723
2026-01-23 19:52:47.38	222.38	40.57	-21.7	-21.5	18.9	0.00e+00	0	46	0	20963131392	15	13769
2026-01-23 19:52:48.39	222.97	40.80	-21.6	-21.5	18.9	0.00e+00	0	46	0	21072183296	15	13633
2026-01-23 19:52:49.40	223.56	41.02	-21.6	-21.4	18.8	0.00e+00	0	46	0	21198012416	15	13560
2026-01-23 19:52:50.40	224.15	41.24	-21.6	-21.4	18.5	0.00e+00	0	46	0	21307064320	15	13500
2026-01-23 19:52:51.41	224.76	41.46	-21.4	-21.2	18.6	0.00e+00	0	46	0	21424504832	14	14024
2026-01-23 19:52:52.42	225.38	41.67	-21.4	-21.3	18.4	0.00e+00	0	46	0	21533556736	14	14156
2026-01-23 19:52:53.42	226.00	41.89	-21.4	-21.2	18.2	0.00e+00	0	46	0	21642608640	14	14012
2026-01-23 19:52:54.43	226.63	42.10	-21.3	-21.1	18.5	0.00e+00	0	46	0	21760049152	14	13891
2026-01-23 19:52:55.44	227.27	42.31	-21.3	-21.2	18.2	0.00e+00	0	46	0	21869101056	14	13954
2026-01-23 19:52:56.45	227.93	42.51	-21.4	-21.3	17.7	0.00e+00	0	46	0	21978152960	14	14115
2026-01-23 19:52:57.46	228.59	42.72	-21.1	-20.9	17.9	0.00e+00	0	47	0	22095593472	14	13628
2026-01-23 19:52:58.47	229.25	42.92	-21.3	-21.1	18.0	0.00e+00	0	46	0	22204645376	14	13829
2026-01-23 19:52:59.48	229.93	43.12	-21.1	-20.9	18.0	0.00e+00	0	46	0	22322085888	14	13528
2026-01-23 19:53:00.49	230.62	43.31	-21.2	-21.0	17.9	0.00e+00	0	46	0	22431137792	14	13721
2026-01-23 19:53:01.49	231.30	43.50	-21.1	-21.0	17.9	0.00e+00	0	46	0	22556966912	14	13665
2026-01-23 19:53:02.50	232.00	43.69	-21.2	-21.1	17.8	0.00e+00	0	46	0	22666018816	14	13815
2026-01-23 19:53:03.51	232.71	43.88	-21.1	-20.9	17.7	0.00e+00	0	46	0	22783459328	14	13536
2026-01-23 19:53:04.52	233.43	44.06	-21.0	-20.8	17.8	0.00e+00	0	46	0	22892511232	14	13475
2026-01-23 19:53:05.52	234.15	44.23	-20.9	-20.8	17.6	0.00e+00	0	46	0	23009951744	13	14115
2026-01-23 19:53:06.53	234.89	44.40	-20.9	-20.7	17.5	0.00e+00	0	46	0	23119003648	13	14014
2026-01-23 19:53:07.54	235.63	44.57	-20.8	-20.7	17.6	0.00e+00	0	46	0	23228055552	13	13954
2026-01-23 19:53:08.55	236.38	44.74	-20.9	-20.7	17.9	0.00e+00	0	46	0	23345496064	13	13996
2026-01-23 19:53:09.56	237.14	44.90	-21.0	-20.8	17.7	0.00e+00	0	46	0	23454547968	13	14181
2026-01-23 19:53:10.57	237.91	45.05	-20.8	-20.7	17.8	0.00e+00	0	46	0	23571988480	13	13965
2026-01-23 19:53:11.58	238.68	45.20	-20.9	-20.7	18.1	0.00e+00	0	46	0	23681040384	13	14021
2026-01-23 19:53:12.58	239.45	45.34	-21.0	-20.8	17.8	0.00e+00	0	46	0	23798480896	13	14196
2026-01-23 19:53:13.59	240.24	45.48	-20.9	-20.7	18.4	0.00e+00	0	46	0	23907532800	13	14007
2026-01-23 19:53:14.60	241.04	45.62	-20.9	-20.7	18.3	0.00e+00	0	46	0	24033361920	13	13992
2026-01-23 19:53:15.61	241.84	45.75	-20.8	-20.6	18.4	0.00e+00	0	46	0	24142413824	13	13940
2026-01-23 19:53:16.61	242.64	45.87	-20.8	-20.6	18.8	0.00e+00	0	46	0	24259854336	13	13930
2026-01-23 19:53:17.62	243.46	45.99	-20.8	-20.6	18.5	0.00e+00	0	46	0	24368906240	13	13881
2026-01-23 19:53:18.63	244.28	46.10	-20.8	-20.6	18.4	0.00e+00	0	46	0	24477958144	13	13933
2026-01-23 19:53:19.64	245.10	46.21	-20.9	-20.7	18.8	0.00e+00	0	46	0	24595398656	13	14000
2026-01-23 19:53:20.64	245.93	46.31	-20.9	-20.7	19.1	0.00e+00	0	46	0	24704450560	13	14037
2026-01-23 19:53:21.65	246.77	46.40	-20.8	-20.6	19.0	0.00e+00	0	46	0	24821891072	13	13910
2026-01-23 19:53:22.66	247.61	46.49	-20.9	-20.7	19.0	0.00e+00	0	46	0	24930942976	13	14106
2026-01-23 19:53:23.66	248.45	46.57	-20.8	-20.7	18.9	0.00e+00	0	46	0	25039994880	13	13963
2026-01-23 19:53:24.67	249.30	46.64	-21.0	-20.8	19.2	0.00e+00	0	46	0	25157435392	13	14145
2026-01-23 19:53:25.68	250.15	46.71	-20.8	-20.6	19.2	0.00e+00	0	46	0	25266487296	13	13898
2026-01-23 19:53:26.68	251.00	46.77	-20.8	-20.6	19.3	0.00e+00	0	46	0	25383927808	13	13921
2026-01-23 19:53:27.69	251.87	46.83	-20.8	-20.7	19.2	0.00e+00	0	46	0	25501368320	13	13971
2026-01-23 19:53:28.70	252.73	46.88	-20.8	-20.6	18.9	0.00e+00	0	46	0	25618808832	13	13868
2026-01-23 19:53:29.71	253.60	46.92	-20.7	-20.5	19.2	0.00e+00	0	46	0	25727860736	13	13757
2026-01-23 19:53:30.72	254.47	46.95	-20.8	-20.6	19.5	0.00e+00	0	46	0	25845301248	13	13909
2026-01-23 19:53:31.73	255.34	46.98	-20.8	-20.6	19.3	0.00e+00	0	46	0	25954353152	13	13853
2026-01-23 19:53:32.74	256.21	47.00	-20.8	-20.7	19.3	0.00e+00	0	46	0	26063405056	13	13956
2026-01-23 19:53:33.75	257.08	47.01	-20.9	-20.7	19.5	0.00e+00	0	46	0	26180845568	13	14008
2026-01-23 19:53:34.75	257.95	47.02	-20.9	-20.7	19.1	0.00e+00	0	46	0	26289897472	13	14004
2026-01-23 19:53:35.76	258.82	47.02	-20.8	-20.6	19.6	0.00e+00	0	46	0	26407337984	13	13910
2026-01-23 19:53:36.77	259.70	47.01	-20.8	-20.6	19.2	0.00e+00	0	46	0	26516389888	13	13919
2026-01-23 19:53:37.78	260.57	47.00	-20.8	-20.6	19.6	0.00e+00	0	46	0	26625441792	13	13884
2026-01-23 19:53:38.78	261.43	46.98	-20.8	-20.7	19.4	0.00e+00	0	46	0	26742882304	13	13960
2026-01-23 19:53:39.79	262.30	46.95	-20.9	-20.7	19.2	0.00e+00	0	46	0	26868711424	13	13989
2026-01-23 19:53:40.80	263.17	46.92	-20.8	-20.6	19.5	0.00e+00	0	46	0	26977763328	13	13945
2026-01-23 19:53:41.80	264.03	46.87	-20.8	-20.6	19.7	0.00e+00	0	46	0	27086815232	13	13946
2026-01-23 19:53:42.81	264.90	46.83	-20.9	-20.7	19.4	0.00e+00	0	46	0	27204255744	13	13992
2026-01-23 19:53:43.82	265.76	46.77	-20.9	-20.7	19.3	0.00e+00	0	46	0	27313307648	13	14014
2026-01-23 19:53:44.83	266.61	46.71	-20.9	-20.8	19.4	0.00e+00	0	46	0	27430748160	13	14141
2026-01-23 19:53:45.84	267.47	46.64	-20.9	-20.7	19.4	0.00e+00	0	46	0	27539800064	13	14073
2026-01-23 19:53:46.85	268.32	46.56	-20.9	-20.7	19.5	0.00e+00	0	47	0	27657240576	13	14074
2026-01-23 19:53:47.85	269.16	46.48	-20.9	-20.8	19.3	0.00e+00	0	46	0	27766292480	13	14118
2026-01-23 19:53:48.86	270.00	46.40	-21.0	-20.8	19.2	0.00e+00	0	46	0	27875344384	13	14267
2026-01-23 19:53:49.87	270.83	46.30	-21.0	-20.8	19.2	0.00e+00	0	46	0	27992784896	13	14152
2026-01-23 19:53:50.88	271.66	46.20	-21.0	-20.8	19.2	0.00e+00	0	46	0	28101836800	13	14238
2026-01-23 19:53:51.88	272.48	46.10	-21.0	-20.9	19.3	0.00e+00	0	46	0	28219277312	13	14283
2026-01-23 19:53:52.89	273.30	45.98	-21.0	-20.9	19.7	0.00e+00	0	46	0	28328329216	13	14302
2026-01-23 19:53:53.90	274.11	45.87	-21.2	-21.0	19.2	0.00e+00	0	46	0	28454158336	13	14552
2026-01-23 19:53:54.91	274.92	45.74	-21.2	-21.0	19.3	0.00e+00	0	46	0	28563210240	13	14537
2026-01-23 19:53:55.92	275.72	45.61	-21.2	-21.0	19.7	0.00e+00	0	46	0	28680650752	13	14569
2026-01-23 19:53:56.92	276.51	45.48	-21.2	-21.0	19.4	0.00e+00	0	46	0	28789702656	13	14543
2026-01-23 19:53:57.93	277.29	45.34	-21.2	-21.0	19.7	0.00e+00	0	46	0	28898754560	13	14544
2026-01-23 19:53:58.94	278.07	45.20	-21.2	-21.0	19.7	0.00e+00	0	46	0	29016195072	13	14569
2026-01-23 19:53:59.94	278.84	45.05	-21.2	-21.1	19.8	0.00e+00	0	47	0	29125246976	13	14627
2026-01-23 19:54:00.95	279.60	44.89	-21.3	-21.1	19.8	0.00e+00	0	46	0	29242687488	13	14627
2026-01-23 19:54:01.96	280.36	44.74	-21.4	-21.2	20.0	0.00e+00	0	46	0	29351739392	13	14832
2026-01-23 19:54:02.97	281.11	44.57	-21.4	-21.2	19.7	0.00e+00	0	46	0	29460791296	13	14844
2026-01-23 19:54:03.98	281.85	44.40	-21.4	-21.2	19.9	0.00e+00	0	46	0	29578231808	13	14887
2026-01-23 19:54:04.99	282.58	44.23	-21.4	-21.2	20.1	0.00e+00	0	46	0	29687283712	13	14923
2026-01-23 19:54:05.99	283.30	44.06	-21.5	-21.4	20.1	0.00e+00	0	46	0	29813112832	13	15122
2026-01-23 19:54:07.00	284.01	43.88	-21.5	-21.3	20.2	0.00e+00	0	46	0	29922164736	13	14987
2026-01-23 19:54:08.01	284.72	43.69	-21.5	-21.4	20.0	0.00e+00	0	46	0	30039605248	13	15137
2026-01-23 19:54:09.01	285.41	43.51	-21.6	-21.4	20.0	0.00e+00	0	46	0	30148657152	13	15242
2026-01-23 19:54:10.02	286.11	43.32	-21.6	-21.4	20.1	0.00e+00	0	46	0	30266097664	13	15260
2026-01-23 19:54:11.02	286.78	43.12	-21.7	-21.5	20.2	0.00e+00	0	46	0	30375149568	13	15397
2026-01-23 19:54:12.03	287.46	42.93	-21.8	-21.6	20.3	0.00e+00	0	46	0	30484201472	14	14742
2026-01-23 19:54:13.04	288.12	42.73	-21.9	-21.8	20.5	0.00e+00	0	46	0	30601641984	14	14950
2026-01-23 19:54:14.05	288.78	42.52	-21.8	-21.7	20.6	0.00e+00	0	46	0	30710693888	14	14808
2026-01-23 19:54:15.06	289.43	42.32	-22.0	-21.8	20.8	0.00e+00	0	46	0	30828134400	14	15065
2026-01-23 19:54:16.07	290.07	42.11	-22.0	-21.8	20.7	0.00e+00	0	46	0	30937186304	14	15082
2026-01-23 19:54:17.08	290.70	41.90	-22.0	-21.8	20.7	0.00e+00	0	46	0	31054626816	14	15116
2026-01-23 19:54:18.08	291.32	41.69	-22.1	-21.9	20.7	0.00e+00	0	46	0	31163678720	14	15290
2026-01-23 19:54:19.10	291.94	41.47	-22.2	-22.0	20.7	0.00e+00	0	46	0	31289507840	14	15348
2026-01-23 19:54:20.10	292.54	41.25	-22.2	-22.0	20.7	0.00e+00	0	46	0	31398559744	15	14576
2026-01-23 19:54:21.11	293.14	41.03	-22.2	-22.0	20.9	0.00e+00	0	46	0	31516000256	15	14485
2026-01-23 19:54:22.12	293.73	40.81	-22.2	-22.0	20.8	0.00e+00	0	46	0	31625052160	15	14569
2026-01-23 19:54:23.13	294.31	40.59	-22.3	-22.1	21.0	0.00e+00	0	46	0	31734104064	15	14727
2026-01-23 19:54:24.13	294.87	40.37	-22.4	-22.2	20.9	0.00e+00	0	46	0	31851544576	15	14936
2026-01-23 19:54:25.14	295.44	40.14	-22.4	-22.2	21.1	0.00e+00	0	46	0	31960596480	15	14927
2026-01-23 19:54:26.15	296.00	39.91	-22.5	-22.3	21.1	0.00e+00	0	46	0	32078036992	15	15082
2026-01-23 19:54:27.16	296.55	39.69	-22.5	-22.3	20.9	0.00e+00	0	46	0	32187088896	15	14991
2026-01-23 19:54:28.17	297.09	39.46	-22.5	-22.3	21.2	0.00e+00	0	46	0	32296140800	15	15089
2026-01-23 19:54:29.17	297.61	39.23	-22.5	-22.4	21.1	0.00e+00	0	46	0	32413581312	15	15151
2026-01-23 19:54:30.18	298.14	39.00	-22.6	-22.4	21.0	0.00e+00	0	46	0	32522633216	15	15255
2026-01-23 19:54:31.19	298.66	38.77	-22.6	-22.4	21.2	0.00e+00	0	46	0	32648462336	15	15286
2026-01-23 19:54:32.20	299.17	38.53	-22.7	-22.5	21.0	0.00e+00	0	46	0	32757514240	15	15417
2026-01-23 19:54:33.21	299.67	38.30	-22.9	-22.7	21.0	0.00e+00	0	46	0	32874954752	16	14929
2026-01-23 19:54:34.22	300.17	38.07	-22.9	-22.8	21.1	0.00e+00	0	46	0	32984006656	16	14958
2026-01-23 19:54:35.23	300.65	37.83	-22.9	-22.8	21.0	0.00e+00	0	46	0	33101447168	16	14951
2026-01-23 19:54:36.23	301.13	37.60	-23.1	-22.9	21.1	0.00e+00	0	46	0	33210499072	16	15187
2026-01-23 19:54:37.24	301.60	37.36	-23.0	-22.9	21.2	0.00e+00	0	46	0	33319550976	16	15138
2026-01-23 19:54:38.25	302.07	37.13	-23.1	-22.9	21.2	0.00e+00	0	46	0	33436991488	16	15256
2026-01-23 19:54:39.26	302.53	36.89	-23.1	-23.0	21.3	0.00e+00	0	46	0	33546043392	16	15344
2026-01-23 19:54:40.27	302.98	36.66	-23.1	-23.0	21.2	0.00e+00	0	46	0	33663483904	16	15319
2026-01-23 19:54:41.28	303.43	36.42	-23.2	-23.0	21.2	0.00e+00	0	46	0	33772535808	17	14481
2026-01-23 19:54:42.29	303.87	36.19	-23.3	-23.2	21.0	0.00e+00	0	46	0	33881587712	17	14801
2026-01-23 19:54:43.30	304.30	35.95	-23.4	-23.2	20.9	0.00e+00	0	46	0	34007416832	17	14870
2026-01-23 19:54:44.31	304.73	35.72	-23.4	-23.2	20.9	0.00e+00	0	46	0	34124857344	17	14902
2026-01-23 19:54:45.31	305.14	35.49	-23.4	-23.3	20.9	0.00e+00	0	46	0	34233909248	17	14975
2026-01-23 19:54:46.32	305.56	35.25	-23.6	-23.4	20.7	0.00e+00	0	46	0	34342961152	17	15158
2026-01-23 19:54:47.33	305.97	35.02	-23.5	-23.3	20.7	0.00e+00	0	46	0	34460401664	17	15074
2026-01-23 19:54:48.34	306.37	34.79	-23.7	-23.5	20.6	0.00e+00	0	46	0	34569453568	17	15344
2026-01-23 19:54:49.35	306.76	34.56	-23.7	-23.5	20.6	0.00e+00	0	46	0	34686894080	18	14531
2026-01-23 19:54:50.36	307.15	34.32	-23.9	-23.7	20.5	0.00e+00	0	47	0	34795945984	18	14835
2026-01-23 19:54:51.37	307.54	34.09	-23.9	-23.7	20.4	0.00e+00	0	46	0	34913386496	18	14866
2026-01-23 19:54:52.38	307.92	33.86	-23.8	-23.7	20.5	0.00e+00	0	46	0	35022438400	18	14817
2026-01-23 19:54:53.39	308.29	33.63	-24.0	-23.8	20.2	0.00e+00	0	46	0	35131490304	18	15105
2026-01-23 19:54:54.40	308.66	33.40	-24.0	-23.8	20.1	0.00e+00	0	46	0	35257319424	18	15088
2026-01-23 19:54:55.41	309.02	33.17	-24.1	-24.0	19.7	0.00e+00	0	46	0	35374759936	18	15338
2026-01-23 19:54:56.42	309.38	32.95	-24.3	-24.2	19.6	0.00e+00	0	47	0	35483811840	19	14805
2026-01-23 19:54:57.42	309.73	32.72	-24.1	-23.9	19.2	0.00e+00	0	46	0	35592863744	19	14440
2026-01-23 19:54:58.43	310.07	32.50	-24.4	-24.2	19.2	0.00e+00	0	46	0	35710304256	19	14810
2026-01-23 19:54:59.44	310.41	32.27	-24.3	-24.2	19.3	0.00e+00	0	46	0	35819356160	19	14792
2026-01-23 19:55:00.45	310.75	32.05	-24.3	-24.2	19.2	0.00e+00	0	46	0	35936796672	19	14812
2026-01-23 19:55:01.46	311.08	31.82	-24.4	-24.2	19.2	0.00e+00	0	46	0	36045848576	19	14872
2026-01-23 19:55:02.47	311.41	31.60	-24.6	-24.4	19.3	0.00e+00	0	46	0	36154900480	19	15187
2026-01-23 19:55:03.47	311.73	31.38	-24.5	-24.3	19.4	0.00e+00	0	46	0	36272340992	19	15100
2026-01-23 19:55:04.48	312.05	31.16	-24.6	-24.4	19.6	0.00e+00	0	46	0	36381392896	19	15208
2026-01-23 19:55:05.49	312.36	30.94	-24.7	-24.5	19.5	0.00e+00	0	46	0	36507222016	19	15359
2026-01-23 19:55:06.50	312.67	30.72	-24.7	-24.5	19.7	0.00e+00	0	46	0	36616273920	19	15377
2026-01-23 19:55:07.51	312.98	30.51	-24.7	-24.5	19.6	0.00e+00	0	46	0	36733714432	20	14559
2026-01-23 19:55:08.52	313.28	30.29	-24.8	-24.6	19.5	0.00e+00	0	46	0	36842766336	20	14686
2026-01-23 19:55:09.53	313.57	30.07	-24.8	-24.6	19.8	0.00e+00	0	47	0	36960206848	20	14741
2026-01-23 19:55:10.53	313.86	29.86	-24.9	-24.7	19.6	0.00e+00	0	46	0	37069258752	20	14919
2026-01-23 19:55:11.54	314.15	29.65	-24.9	-24.7	19.6	0.00e+00	0	46	0	37178310656	20	14834
2026-01-23 19:55:12.55	314.43	29.44	-24.8	-24.7	19.6	0.00e+00	0	46	0	37295751168	20	14823
2026-01-23 19:55:13.56	314.71	29.23	-24.9	-24.7	19.8	0.00e+00	0	46	0	37404803072	20	14861
2026-01-23 19:55:14.57	314.99	29.02	-25.1	-24.9	19.3	0.00e+00	0	46	0	37522243584	20	15179
2026-01-23 19:55:15.58	315.26	28.81	-25.1	-25.0	19.6	0.00e+00	0	46	0	37631295488	20	15314
2026-01-23 19:55:16.58	315.53	28.60	-25.1	-25.0	19.5	0.00e+00	0	46	0	37740347392	20	15337
2026-01-23 19:55:17.59	315.80	28.40	-25.2	-25.0	19.5	0.00e+00	0	46	0	37857787904	20	15398
2026-01-23 19:55:18.60	316.06	28.19	-25.3	-25.1	19.3	0.00e+00	0	46	0	37983617024	21	14736
2026-01-23 19:55:19.61	316.32	27.99	-25.2	-25.0	19.2	0.00e+00	0	46	0	38092668928	21	14605
2026-01-23 19:55:20.61	316.57	27.79	-25.3	-25.1	19.3	0.00e+00	0	46	0	38201720832	21	14773
2026-01-23 19:55:21.62	316.82	27.59	-25.4	-25.2	19.2	0.00e+00	0	46	0	38319161344	21	14905
2026-01-23 19:55:22.63	317.07	27.39	-25.4	-25.2	19.2	0.00e+00	0	46	0	38428213248	21	14938
2026-01-23 19:55:23.64	317.31	27.19	-25.6	-25.4	19.1	0.00e+00	0	46	0	38545653760	21	15188
2026-01-23 19:55:24.65	317.55	26.99	-25.5	-25.4	19.1	0.00e+00	0	46	0	38654705664	21	15185
2026-01-23 19:55:25.65	317.79	26.79	-25.7	-25.5	18.9	0.00e+00	0	46	0	38772146176	21	15366
2026-01-23 19:55:26.66	318.03	26.60	-25.8	-25.6	18.8	0.00e+00	0	46	0	38881198080	22	14673
2026-01-23 19:55:27.67	318.26	26.40	-25.8	-25.7	18.8	0.00e+00	0	46	0	38990249984	22	14809
2026-01-23 19:55:28.68	318.49	26.21	-25.9	-25.7	18.7	0.00e+00	0	46	0	39107690496	22	14832
2026-01-23 19:55:29.68	318.71	26.02	-26.0	-25.8	18.5	0.00e+00	0	46	0	39216742400	22	15015
2026-01-23 19:55:30.69	318.94	25.83	-26.0	-25.8	18.7	0.00e+00	0	46	0	39342571520	22	15055
2026-01-23 19:55:31.70	319.16	25.64	-25.9	-25.8	18.6	0.00e+00	0	46	0	39451623424	22	14999
2026-01-23 19:55:32.71	319.38	25.45	-26.0	-25.8	18.8	0.00e+00	0	46	0	39569063936	22	15010
2026-01-23 19:55:33.72	319.59	25.26	-26.1	-25.9	18.7	0.00e+00	0	46	0	39678115840	22	15169
2026-01-23 19:55:34.72	319.80	25.08	-26.1	-25.9	18.7	0.00e+00	0	46	0	39795556352	22	15294
2026-01-23 19:55:35.73	320.01	24.90	-26.1	-26.0	18.8	0.00e+00	0	47	0	39904608256	22	15324
2026-01-23 19:55:36.74	320.22	24.71	-26.3	-26.2	18.5	0.00e+00	0	46	0	40013660160	23	14780
2026-01-23 19:55:37.75	320.42	24.53	-26.4	-26.3	18.7	0.00e+00	0	46	0	40131100672	23	15005
2026-01-23 19:55:38.76	320.63	24.35	-26.3	-26.1	18.6	0.00e+00	0	47	0	40240152576	23	14759
2026-01-23 19:55:39.77	320.83	24.17	-26.5	-26.4	18.5	0.00e+00	0	46	0	40357593088	23	15128
2026-01-23 19:55:40.77	321.02	23.99	-26.5	-26.4	18.7	0.00e+00	0	46	0	40466644992	23	15165
2026-01-23 19:55:41.78	321.22	23.81	-26.6	-26.5	18.3	0.00e+00	0	46	0	40575696896	24	14478
2026-01-23 19:55:42.79	321.41	23.63	-26.7	-26.6	18.3	0.00e+00	0	46	0	40693137408	24	14625
2026-01-23 19:55:43.80	321.60	23.46	-26.6	-26.5	18.5	0.00e+00	0	46	0	40818966528	24	14484
2026-01-23 19:55:44.80	321.78	23.29	-26.7	-26.5	18.4	0.00e+00	0	46	0	40928018432	24	14572
2026-01-23 19:55:45.81	321.97	23.11	-26.9	-26.7	18.2	1.90e-06	0	46	0	41037070336	24	14862
2026-01-23 19:55:46.82	322.15	22.94	-26.8	-26.6	18.3	0.00e+00	0	46	0	41154510848	24	14703
2026-01-23 19:55:47.82	322.33	22.77	-26.8	-26.7	18.3	0.00e+00	0	46	0	41263562752	24	14782
2026-01-23 19:55:48.83	322.51	22.60	-26.9	-26.8	18.3	0.00e+00	0	46	0	41381003264	24	14968
2026-01-23 19:55:49.84	322.69	22.43	-26.9	-26.7	18.3	0.00e+00	0	46	0	41490055168	24	14889
2026-01-23 19:55:50.85	322.87	22.26	-27.1	-27.0	18.3	0.00e+00	0	46	0	41599107072	24	15322
2026-01-23 19:55:51.86	323.04	22.10	-27.1	-26.9	18.3	0.00e+00	0	47	0	41716547584	24	15268
2026-01-23 19:55:52.87	323.21	21.93	-27.1	-26.9	18.5	0.00e+00	0	46	0	41825599488	24	15210
2026-01-23 19:55:53.87	323.38	21.77	-27.3	-27.2	18.6	0.00e+00	0	46	0	41943040000	25	14781
2026-01-23 19:55:54.88	323.55	21.60	-27.4	-27.3	18.4	0.00e+00	0	46	0	42052091904	25	14985
2026-01-23 19:55:55.89	323.71	21.44	-27.5	-27.3	18.3	0.00e+00	0	47	0	42169532416	25	15034
2026-01-23 19:55:56.90	323.87	21.28	-27.5	-27.3	18.4	0.00e+00	0	46	0	42286972928	25	15071
2026-01-23 19:55:57.91	324.04	21.12	-27.7	-27.5	18.3	0.00e+00	0	46	0	42404413440	25	15390
2026-01-23 19:55:58.91	324.19	20.96	-27.6	-27.4	18.5	0.00e+00	0	47	0	42513465344	25	15231
2026-01-23 19:55:59.92	324.35	20.80	-27.7	-27.5	18.5	0.00e+00	0	46	0	42630905856	26	14497
2026-01-23 19:56:00.93	324.51	20.64	-27.6	-27.5	18.7	0.00e+00	0	47	0	42739957760	26	14508
2026-01-23 19:56:01.94	324.66	20.49	-27.8	-27.6	18.5	0.00e+00	0	46	0	42849009664	26	14720
2026-01-23 19:56:02.94	324.82	20.33	-27.8	-27.6	18.7	0.00e+00	0	46	0	42966450176	26	14742
2026-01-23 19:56:03.95	324.97	20.18	-27.8	-27.7	18.6	0.00e+00	0	46	0	43075502080	26	14841
2026-01-23 19:56:04.96	325.12	20.02	-27.9	-27.7	18.5	0.00e+00	0	46	0	43192942592	26	14883
2026-01-23 19:56:05.97	325.27	19.87	-27.9	-27.8	18.8	0.00e+00	0	47	0	43301994496	26	15020
2026-01-23 19:56:06.97	325.41	19.72	-28.1	-27.9	18.6	0.00e+00	0	46	0	43411046400	26	15199
2026-01-23 19:56:07.98	325.56	19.57	-28.0	-27.9	18.6	0.00e+00	0	46	0	43528486912	26	15156
2026-01-23 19:56:08.99	325.70	19.42	-28.1	-28.0	18.6	0.00e+00	0	46	0	43637538816	26	15362
2026-01-23 19:56:10.00	325.84	19.27	-28.2	-28.0	18.7	0.00e+00	0	47	0	43763367936	27	14529
2026-01-23 19:56:11.01	325.98	19.12	-28.3	-28.1	18.5	1.90e-06	0	46	0	43872419840	27	14708
2026-01-23 19:56:12.01	326.12	18.98	-28.4	-28.2	18.4	0.00e+00	0	46	0	43989860352	27	14904
2026-01-23 19:56:13.02	326.26	18.83	-28.5	-28.3	18.4	0.00e+00	0	46	0	44098912256	27	15033
2026-01-23 19:56:14.03	326.39	18.69	-28.5	-28.4	18.4	0.00e+00	0	46	0	44216352768	27	15130
2026-01-23 19:56:15.04	326.53	18.54	-28.5	-28.3	18.4	0.00e+00	0	46	0	44325404672	27	15066
2026-01-23 19:56:16.05	326.66	18.40	-28.6	-28.5	18.3	0.00e+00	0	47	0	44434456576	27	15325
2026-01-23 19:56:17.05	326.79	18.26	-28.6	-28.4	18.3	0.00e+00	0	47	0	44551897088	27	15289
2026-01-23 19:56:18.06	326.92	18.11	-28.7	-28.5	18.2	0.00e+00	0	47	0	44660948992	27	15438
2026-01-23 19:56:19.07	327.05	17.97	-28.6	-28.5	18.3	0.00e+00	0	47	0	44778389504	28	14451
2026-01-23 19:56:20.08	327.18	17.83	-28.6	-28.5	18.3	0.00e+00	0	46	0	44887441408	28	14505
2026-01-23 19:56:21.09	327.31	17.69	-28.7	-28.6	18.1	0.00e+00	0	46	0	44996493312	28	14637
2026-01-23 19:56:22.09	327.43	17.56	-28.8	-28.6	18.0	0.00e+00	0	46	0	45122322432	28	14769
2026-01-23 19:56:23.10	327.56	17.42	-28.8	-28.7	18.2	0.00e+00	0	46	0	45239762944	28	14839
2026-01-23 19:56:24.11	327.68	17.28	-28.9	-28.7	18.1	0.00e+00	0	46	0	45348814848	28	14871
2026-01-23 19:56:25.12	327.80	17.15	-28.9	-28.8	17.9	0.00e+00	0	46	0	45457866752	28	15008
2026-01-23 19:56:26.13	327.92	17.01	-28.9	-28.7	18.1	0.00e+00	0	46	0	45575307264	28	14890
2026-01-23 19:56:27.13	328.04	16.88	-28.9	-28.7	17.9	0.00e+00	0	46	0	45684359168	28	14942
2026-01-23 19:56:28.14	328.16	16.75	-29.1	-28.9	18.0	0.00e+00	0	46	0	45801799680	28	15226
2026-01-23 19:56:29.15	328.28	16.61	-29.1	-28.9	17.8	1.90e-06	0	46	0	45910851584	28	15287
2026-01-23 19:56:30.16	328.39	16.48	-29.1	-29.0	17.9	0.00e+00	0	46	0	46028292096	28	15308
2026-01-23 19:56:31.17	328.51	16.35	-29.2	-29.0	17.9	0.00e+00	0	46	0	46137344000	28	15447
2026-01-23 19:56:32.17	328.62	16.22	-29.3	-29.1	17.8	0.00e+00	0	47	0	46246395904	29	14688
2026-01-23 19:56:33.18	328.73	16.09	-29.3	-29.1	17.9	0.00e+00	0	46	0	46363836416	29	14750
2026-01-23 19:56:34.19	328.84	15.96	-29.4	-29.2	17.8	1.90e-06	0	46	0	46472888320	29	14923
2026-01-23 19:56:35.20	328.95	15.83	-29.4	-29.2	17.6	1.90e-06	0	47	0	46598717440	29	14945
2026-01-23 19:56:36.20	329.06	15.71	-29.4	-29.2	17.6	0.00e+00	0	47	0	46707769344	29	14904
2026-01-23 19:56:37.22	329.17	15.58	-29.4	-29.3	17.7	0.00e+00	0	46	0	46825209856	29	14979
2026-01-23 19:56:38.22	329.28	15.46	-29.5	-29.3	17.7	1.90e-06	0	46	0	46934261760	29	15072
2026-01-23 19:56:39.23	329.39	15.33	-29.5	-29.4	17.7	1.90e-06	0	47	0	47051702272	29	15195
2026-01-23 19:56:40.24	329.49	15.21	-29.7	-29.5	17.6	0.00e+00	0	47	0	47160754176	29	15396
2026-01-23 19:56:41.24	329.60	15.08	-29.8	-29.7	17.6	0.00e+00	0	47	0	47269806080	30	14840
2026-01-23 19:56:42.25	329.70	14.96	-29.8	-29.6	17.6	1.90e-06	0	47	0	47387246592	30	14722
2026-01-23 19:56:43.26	329.80	14.84	-29.7	-29.5	17.5	0.00e+00	0	46	0	47496298496	30	14584
2026-01-23 19:56:44.26	329.90	14.72	-29.8	-29.7	17.3	3.80e-06	0	47	0	47613739008	30	14806
2026-01-23 19:56:45.27	330.00	14.60	-29.9	-29.7	17.2	0.00e+00	0	47	0	47722790912	30	14932
2026-01-23 19:56:46.28	330.10	14.48	-29.8	-29.7	17.2	3.80e-06	0	46	0	47831842816	30	14857
2026-01-23 19:56:47.29	330.20	14.36	-29.8	-29.6	17.4	1.90e-06	0	47	0	47949283328	30	14768
2026-01-23 19:56:48.30	330.30	14.24	-29.9	-29.8	17.2	5.70e-06	0	46	0	48075112448	30	15006
2026-01-23 19:56:49.31	330.40	14.12	-29.9	-29.8	17.0	0.00e+00	0	47	0	48184164352	30	14953
2026-01-23 19:56:50.31	330.50	14.00	-30.1	-29.9	17.1	1.90e-06	0	47	0	48293216256	30	15281
2026-01-23 19:56:51.32	330.59	13.89	-30.1	-30.0	17.0	1.90e-06	0	46	0	48410656768	31	14473
2026-01-23 19:56:52.33	330.69	13.77	-30.3	-30.1	16.9	7.60e-06	0	46	0	48519708672	31	14715
2026-01-23 19:56:53.33	330.78	13.66	-30.2	-30.1	17.0	1.90e-06	0	46	0	48637149184	31	14641
2026-01-23 19:56:54.34	330.87	13.54	-30.2	-30.0	16.9	7.60e-06	0	47	0	48746201088	31	14594
2026-01-23 19:56:55.35	330.97	13.43	-30.1	-30.0	17.0	1.14e-05	0	46	0	48855252992	31	14475
2026-01-23 19:56:56.36	331.06	13.31	-30.3	-30.1	16.9	1.52e-05	0	47	0	48972693504	31	14751
2026-01-23 19:56:57.37	331.15	13.20	-30.3	-30.2	16.7	5.70e-06	0	47	0	49081745408	31	14805
2026-01-23 19:56:58.37	331.24	13.09	-30.4	-30.3	16.7	1.71e-05	0	47	0	49199185920	31	15037
2026-01-23 19:56:59.38	331.33	12.97	-30.5	-30.4	16.6	3.80e-06	0	46	0	49308237824	31	15180
2026-01-23 19:57:00.39	331.42	12.86	-30.6	-30.4	16.5	1.33e-05	0	47	0	49425678336	31	15218
2026-01-23 19:57:01.40	331.51	12.75	-30.5	-30.4	16.6	1.14e-05	0	47	0	49543118848	31	15149
2026-01-23 19:57:02.41	331.59	12.64	-30.5	-30.4	16.6	1.33e-05	0	47	0	49660559360	32	14286
2026-01-23 19:57:03.42	331.68	12.53	-30.5	-30.4	16.4	2.28e-05	0	47	0	49769611264	32	14341
2026-01-23 19:57:04.42	331.76	12.42	-30.5	-30.4	16.4	7.60e-06	0	47	0	49878663168	32	14280
2026-01-23 19:57:05.43	331.85	12.32	-30.7	-30.5	16.3	1.71e-05	0	47	0	49996103680	32	14593
2026-01-23 19:57:06.44	331.93	12.21	-31.0	-30.9	16.1	2.47e-05	0	47	0	50105155584	32	15196
2026-01-23 19:57:07.45	332.02	12.10	-30.7	-30.6	16.3	2.86e-05	0	46	0	50222596096	32	14629
2026-01-23 19:57:08.46	332.10	11.99	-30.8	-30.7	16.3	2.28e-05	0	47	0	50331648000	32	14791
2026-01-23 19:57:09.46	332.18	11.89	-31.0	-30.9	16.2	3.24e-05	0	47	0	50449088512	32	15187
2026-01-23 19:57:10.47	332.26	11.78	-30.9	-30.8	16.3	2.28e-05	0	46	0	50558140416	32	15025
2026-01-23 19:57:11.48	332.35	11.68	-31.0	-30.9	16.3	4.00e-05	0	47	0	50667192320	32	15179
2026-01-23 19:57:12.49	332.43	11.57	-31.0	-30.9	16.2	2.86e-05	0	47	0	50784632832	32	15235
2026-01-23 19:57:13.49	332.51	11.47	-31.0	-30.9	16.1	4.19e-05	0	47	0	50910461952	32	15197
2026-01-23 19:57:14.50	332.59	11.36	-31.0	-30.8	16.2	4.00e-05	0	47	0	51019513856	32	15087
2026-01-23 19:57:15.51	332.66	11.26	-31.1	-30.9	16.3	4.00e-05	0	47	0	51128565760	33	14433
2026-01-23 19:57:16.52	332.74	11.16	-31.0	-30.8	16.1	4.76e-05	0	46	0	51246006272	33	14213
2026-01-23 19:57:17.53	332.82	11.05	-31.2	-31.1	15.9	4.57e-05	0	47	0	51355058176	33	14625
2026-01-23 19:57:18.53	332.90	10.95	-31.3	-31.2	15.9	3.62e-05	0	47	0	51472498688	33	14875
2026-01-23 19:57:19.54	332.97	10.85	-51.4	-52.6	6.5	0.00e+00	0	47	104	51547996160	73	17448
2026-01-23 19:57:20.55	333.05	10.75	-53.8	-56.0	6.2	0.00e+00	0	47	104	51547996160	78	19307
2026-01-23 19:57:21.56	333.12	10.65	-53.7	-55.9	6.2	0.00e+00	0	46	104	51547996160	78	19093
2026-01-23 19:57:22.57	333.20	10.55	-53.8	-55.9	6.2	0.00e+00	0	46	104	51547996160	78	19074
2026-01-23 19:57:23.57	333.27	10.45	-53.8	-55.9	6.2	0.00e+00	0	46	104	51547996160	78	19055
2026-01-23 19:57:24.58	333.34	10.35	-53.7	-55.8	6.2	0.00e+00	0	46	104	51547996160	78	18930
2026-01-23 19:57:25.59	333.42	10.26	-53.7	-55.8	6.2	0.00e+00	0	46	104	51547996160	78	19015
2026-01-23 19:57:26.60	333.49	10.16	-53.6	-55.7	6.2	0.00e+00	0	46	104	51547996160	78	18686
2026-01-23 19:57:27.61	333.56	10.06	-53.7	-55.8	6.2	0.00e+00	0	46	104	51547996160	78	18824
2026-01-23 19:57:28.61	333.63	9.96	-53.6	-55.7	6.2	0.00e+00	0	46	104	51547996160	78	18766
2026-01-23 19:57:29.62	333.70	9.87	-53.6	-55.7	6.2	0.00e+00	0	46	104	51547996160	78	18737
2026-01-23 19:57:30.63	333.77	9.77	-53.5	-55.6	6.2	0.00e+00	0	46	104	51547996160	78	18394
2026-01-23 19:57:31.64	333.84	9.67	-53.6	-55.7	6.2	0.00e+00	0	46	104	51547996160	78	18608
2026-01-23 19:57:32.65	333.91	9.58	-53.5	-55.6	6.2	0.00e+00	0	46	104	51547996160	78	18484
2026-01-23 19:57:33.65	333.98	9.49	-53.5	-55.6	6.2	0.00e+00	0	46	104	51547996160	78	18534
2026-01-23 19:57:34.66	334.05	9.39	-53.5	-55.6	6.2	0.00e+00	0	46	104	51547996160	78	18491
2026-01-23 19:57:35.67	334.12	9.30	-53.5	-55.6	6.2	0.00e+00	0	46	104	51547996160	78	18485
2026-01-23 19:57:36.68	334.19	9.20	-53.5	-55.5	6.2	0.00e+00	0	46	104	51547996160	78	18363
2026-01-23 19:57:37.69	334.25	9.11	-53.5	-55.6	6.2	0.00e+00	0	46	104	51547996160	78	18442
2026-01-23 19:57:38.69	334.32	9.02	-53.5	-55.6	6.2	0.00e+00	0	46	104	51547996160	78	18430
2026-01-23 19:57:39.70	334.38	8.93	-53.5	-55.6	6.2	0.00e+00	0	46	104	51547996160	78	18550
2026-01-23 19:57:40.71	334.45	8.83	-53.5	-55.5	6.2	0.00e+00	0	47	104	51547996160	78	18383
2026-01-23 19:57:41.72	334.51	8.74	-53.5	-55.6	6.2	0.00e+00	0	46	104	51547996160	78	18482
2026-01-23 19:57:42.73	334.58	8.65	-53.4	-55.5	6.2	0.00e+00	0	46	104	51547996160	78	18286
2026-01-23 19:57:43.73	334.64	8.56	-53.4	-55.5	6.2	0.00e+00	0	46	104	51547996160	78	18267
2026-01-23 19:57:44.74	334.71	8.47	-53.4	-55.5	6.2	0.00e+00	0	46	104	51547996160	78	18326
2026-01-23 19:57:45.75	334.77	8.38	-53.4	-55.5	6.2	0.00e+00	0	46	104	51547996160	78	18344
2026-01-23 19:57:46.76	334.83	8.29	-53.4	-55.5	6.2	0.00e+00	0	46	104	51547996160	78	18181
2026-01-23 19:57:47.77	334.89	8.20	-53.4	-55.5	6.2	0.00e+00	0	46	104	51547996160	78	18189
2026-01-23 19:57:48.77	334.96	8.11	-53.4	-55.5	6.2	0.00e+00	0	46	104	51547996160	78	18222
2026-01-23 19:57:49.78	335.02	8.02	-53.4	-55.5	6.2	0.00e+00	0	46	104	51547996160	78	18227
2026-01-23 19:57:50.79	335.08	7.94	-53.3	-55.4	6.2	0.00e+00	0	46	104	51547996160	78	18065
2026-01-23 19:57:51.80	335.14	7.85	-53.3	-55.5	6.2	0.00e+00	0	46	104	51547996160	78	18226
2026-01-23 19:57:52.81	335.20	7.76	-53.3	-55.4	6.2	0.00e+00	0	46	104	51547996160	78	18009
2026-01-23 19:57:53.81	335.26	7.67	-53.3	-55.4	6.2	0.00e+00	0	46	104	51547996160	78	18147
2026-01-23 19:57:54.82	335.32	7.59	-53.2	-55.3	6.2	0.00e+00	0	46	104	51547996160	78	17887
2026-01-23 19:57:55.83	335.38	7.50	-53.3	-55.4	6.2	0.00e+00	0	46	104	51547996160	78	17978
2026-01-23 19:57:56.84	335.44	7.41	-53.2	-55.3	6.2	0.00e+00	0	46	104	51547996160	78	17878
2026-01-23 19:57:57.85	335.50	7.33	-53.3	-55.4	6.2	0.00e+00	0	46	104	51547996160	78	18048
2026-01-23 19:57:58.85	335.55	7.24	-53.2	-55.2	6.2	0.00e+00	0	46	104	51547996160	78	17726
2026-01-23 19:57:59.86	335.61	7.16	-53.2	-55.4	6.2	0.00e+00	0	46	104	51547996160	78	17972
2026-01-23 19:58:00.87	335.67	7.07	-53.2	-55.2	6.2	0.00e+00	0	46	104	51547996160	78	17729
2026-01-23 19:58:01.88	335.73	6.99	-53.2	-55.3	6.2	0.00e+00	0	46	104	51547996160	78	17849
2026-01-23 19:58:02.89	335.78	6.91	-53.1	-55.2	6.2	0.00e+00	0	46	104	51547996160	78	17626
2026-01-23 19:58:03.89	335.84	6.82	-53.1	-55.3	6.2	0.00e+00	0	46	104	51547996160	78	17795
2026-01-23 19:58:04.90	335.89	6.74	-53.1	-55.2	6.2	0.00e+00	0	46	104	51547996160	78	17696
2026-01-23 19:58:05.91	335.95	6.66	-53.2	-55.3	6.2	0.00e+00	0	46	104	51547996160	78	17814
2026-01-23 19:58:06.91	336.00	6.57	-53.1	-55.1	6.2	0.00e+00	0	46	104	51547996160	78	17559
2026-01-23 19:58:07.92	336.06	6.49	-53.1	-55.2	6.2	0.00e+00	0	46	104	51547996160	78	17642
2026-01-23 19:58:08.93	336.11	6.41	-53.1	-55.2	6.2	0.00e+00	0	46	104	51547996160	78	17609
2026-01-23 19:58:09.93	336.17	6.33	-53.1	-55.2	6.2	0.00e+00	0	46	104	51547996160	78	17705
2026-01-23 19:58:10.94	336.22	6.25	-53.0	-55.1	6.2	0.00e+00	0	46	104	51547996160	78	17469
2026-01-23 19:58:11.95	336.27	6.17	-53.1	-55.2	6.2	0.00e+00	0	46	104	51547996160	78	17620
2026-01-23 19:58:12.96	336.33	6.09	-53.0	-55.1	6.2	0.00e+00	0	46	104	51547996160	78	17455
2026-01-23 19:58:13.97	336.38	6.00	-53.1	-55.1	6.2	0.00e+00	0	46	104	51547996160	78	17538
2026-01-23 19:58:14.97	336.43	5.93	-52.9	-55.0	6.2	0.00e+00	0	46	104	51547996160	77	18298
2026-01-23 19:58:15.98	336.48	5.85	-53.0	-55.1	6.2	0.00e+00	0	46	104	51547996160	77	18536
2026-01-23 19:58:16.99	336.54	5.77	-52.9	-55.0	6.2	0.00e+00	0	46	104	51547996160	77	18268
2026-01-23 19:58:18.00	336.59	5.69	-53.0	-55.1	6.2	0.00e+00	0	46	104	51547996160	77	18438
2026-01-23 19:58:19.01	336.64	5.61	-52.8	-54.9	6.2	0.00e+00	0	46	104	51547996160	77	18154
2026-01-23 19:58:20.01	336.69	5.53	-52.9	-55.0	6.2	0.00e+00	0	46	104	51547996160	77	18343
2026-01-23 19:58:21.02	336.74	5.45	-52.8	-54.9	6.2	0.00e+00	0	46	104	51547996160	77	17993
2026-01-23 19:58:22.03	336.79	5.37	-52.9	-55.0	6.2	0.00e+00	0	46	104	51547996160	77	18356
2026-01-23 19:58:23.04	336.84	5.29	-52.8	-54.8	6.2	0.00e+00	0	46	104	51547996160	77	17966
2026-01-23 19:58:24.04	336.89	5.22	-52.9	-55.0	6.2	0.00e+00	0	46	104	51547996160	77	18235
2026-01-23 19:58:25.05	336.94	5.14	-52.7	-54.8	6.2	0.00e+00	0	46	104	51547996160	77	17888
2026-01-23 19:58:26.06	336.99	5.06	-52.9	-55.0	6.2	0.00e+00	0	46	104	51547996160	77	18301
2026-01-23 19:58:27.07	337.04	4.99	-53.2	-55.2	6.2	0.00e+00	0	46	104	51547996160	77	18794
2026-01-23 19:58:28.07	337.09	4.91	-53.7	-55.8	6.2	0.00e+00	0	46	104	51547996160	77	19979
2026-01-23 19:58:29.08	337.13	4.83	-54.0	-56.1	6.2	0.00e+00	0	46	104	51547996160	78	19586
2026-01-23 19:58:30.09	337.18	4.76	-54.2	-56.3	6.2	0.00e+00	0	46	104	51547996160	78	20028
2026-01-23 19:58:31.10	337.23	4.68	-54.4	-56.5	6.2	0.00e+00	0	46	104	51547996160	79	19405
2026-01-23 19:58:32.11	337.28	4.61	-54.5	-56.6	6.2	0.00e+00	0	46	104	51547996160	79	19551
2026-01-23 19:58:33.12	337.32	4.53	-54.6	-56.7	6.2	0.00e+00	0	46	104	51547996160	79	19748
2026-01-23 19:58:34.12	337.37	4.46	-54.6	-56.7	6.2	0.00e+00	0	46	104	51547996160	79	19739
2026-01-23 19:58:35.13	337.42	4.38	-54.6	-56.6	6.2	0.00e+00	0	46	104	51547996160	79	19686
2026-01-23 19:58:36.14	337.46	4.31	-54.5	-56.6	6.2	0.00e+00	0	46	104	51547996160	79	19530
2026-01-23 19:58:37.15	337.51	4.23	-54.4	-56.5	6.2	0.00e+00	0	46	104	51547996160	79	19425
2026-01-23 19:58:38.16	337.56	4.16	-54.3	-56.4	6.2	0.00e+00	0	46	104	51547996160	79	19173
2026-01-23 19:58:39.17	337.60	4.08	-54.3	-56.4	6.2	0.00e+00	0	46	104	51547996160	79	19042
2026-01-23 19:58:40.17	337.65	4.01	-54.1	-56.2	6.2	0.00e+00	0	46	104	51547996160	79	18747
2026-01-23 19:58:41.18	337.69	3.94	-54.1	-56.2	6.2	0.00e+00	0	46	104	51547996160	79	18702
2026-01-23 19:58:42.19	337.74	3.86	-54.1	-56.2	6.2	0.00e+00	0	46	104	51547996160	79	18738
2026-01-23 19:58:43.20	337.78	3.79	-54.1	-56.2	6.2	0.00e+00	0	46	104	51547996160	79	18679
2026-01-23 19:58:44.21	337.83	3.72	-54.1	-56.2	6.2	0.00e+00	0	46	104	51547996160	79	18680
2026-01-23 19:58:45.22	337.87	3.65	-54.1	-56.2	6.2	0.00e+00	0	46	104	51547996160	79	18682
2026-01-23 19:58:46.23	337.92	3.57	-54.1	-56.1	6.2	0.00e+00	0	46	104	51547996160	79	18547
2026-01-23 19:58:47.24	337.96	3.50	-54.0	-56.1	6.2	0.00e+00	0	46	104	51547996160	79	18455
2026-01-23 19:58:48.24	338.00	3.43	-53.9	-56.0	6.2	0.00e+00	0	46	104	51547996160	79	18350
2026-01-23 19:58:49.25	338.05	3.36	-53.8	-55.9	6.2	0.00e+00	0	46	104	51547996160	79	18143
2026-01-23 19:58:50.26	338.09	3.29	-53.8	-55.9	6.2	0.00e+00	0	46	104	51547996160	79	18115
2026-01-23 19:58:51.27	338.13	3.22	-53.8	-55.9	6.2	0.00e+00	0	46	104	51547996160	79	18029
2026-01-23 19:58:52.28	338.17	3.15	-53.8	-55.9	6.2	0.00e+00	0	46	104	51547996160	79	18031
2026-01-23 19:58:53.29	338.22	3.08	-53.8	-55.9	6.2	0.00e+00	0	46	104	51547996160	79	18004
2026-01-23 19:58:54.30	338.26	3.00	-53.8	-55.8	6.2	0.00e+00	0	46	104	51547996160	79	17925

#Closed at: 2026-01-23 19:58:54
#Recorded file [51547 MB]: D:/lorett/data/31041_260123_224749.dat