passes_logs/2026/01/23/R3.2S_Murmansk/R3.2S_Murmansk__20260123_222204_SUOMI_NPP_rec.log

#Pass ID: 20260123_222204_SUOMI NPP
#Satellite: SUOMI NPP
#Configuration: NPP
#almurnet v.1.7.20251203
#Start time: 2026-01-23 22:22:06

#Version: 2.2.20231116
#Station: R3.2S_Murmansk
#Location: 33.079688 lon 68.888172 lat
#TLE: 1 37849U 11061A   26022.92790088  .00000200  00000+0  11571-3 0  9994
#TLE: 2 37849  98.7820 324.9085 0002258  50.1112 310.0263 14.19528452737839

#Time	Az	El	Level	Level2	SNR	BER	BlckErr	Temp	State	Recorded	gain1	gain2
2026-01-23 22:22:06.60	18.97	2.12	-52.2	-67.1	3.8	1.49e+00	0	42	0	0	76	19605
2026-01-23 22:22:07.56	19.04	2.18	-52.1	-67.1	3.8	1.49e+00	0	42	104	0	74	21949
2026-01-23 22:22:08.53	19.11	2.23	-52.1	-67.1	3.8	1.49e+00	0	42	104	0	74	21840
2026-01-23 22:22:09.50	19.18	2.28	-52.1	-67.1	3.8	1.49e+00	0	42	104	0	74	21828
2026-01-23 22:22:10.47	19.25	2.33	-52.1	-67.0	3.8	1.49e+00	0	42	104	0	74	21741
2026-01-23 22:22:11.43	19.32	2.39	-52.1	-67.0	3.8	1.49e+00	0	42	104	0	74	21738
2026-01-23 22:22:12.40	19.39	2.44	-52.1	-67.1	3.8	1.49e+00	0	42	104	0	74	21761
2026-01-23 22:22:13.37	19.46	2.49	-52.1	-67.0	3.8	1.49e+00	0	42	104	0	74	21695
2026-01-23 22:22:14.34	19.53	2.55	-52.1	-67.0	3.8	1.49e+00	0	42	104	0	74	21732
2026-01-23 22:22:15.31	19.61	2.60	-52.1	-67.0	3.8	1.49e+00	0	42	104	0	74	21741
2026-01-23 22:22:16.28	19.68	2.65	-52.1	-67.0	3.8	1.49e+00	0	42	104	0	74	21678
2026-01-23 22:22:17.25	19.75	2.71	-52.1	-67.0	3.8	1.49e+00	0	42	104	0	74	21694
2026-01-23 22:22:18.22	19.82	2.76	-52.1	-67.0	3.8	1.49e+00	0	42	104	0	74	21621
2026-01-23 22:22:19.19	19.89	2.82	-52.1	-67.0	3.8	1.49e+00	0	42	104	0	74	21591
2026-01-23 22:22:20.16	19.97	2.87	-52.1	-67.0	3.8	1.49e+00	0	42	104	0	74	21697
2026-01-23 22:22:21.13	20.04	2.92	-52.1	-67.0	3.8	1.49e+00	0	42	104	0	74	21540
2026-01-23 22:22:22.10	20.11	2.98	-52.1	-67.0	3.8	1.49e+00	0	42	104	0	74	21621
2026-01-23 22:22:23.07	20.19	3.03	-52.1	-67.0	3.8	1.49e+00	0	42	104	0	74	21534
2026-01-23 22:22:24.04	20.26	3.08	-52.2	-67.0	3.8	1.49e+00	0	42	104	0	74	21560
2026-01-23 22:22:25.00	20.33	3.14	-52.1	-66.9	3.8	1.49e+00	0	42	104	0	74	21336
2026-01-23 22:22:25.98	20.41	3.19	-52.1	-66.8	3.8	1.49e+00	0	42	104	0	74	21084
2026-01-23 22:22:26.95	20.48	3.25	-52.1	-66.8	3.8	1.49e+00	0	42	104	0	74	21140
2026-01-23 22:22:27.93	20.56	3.30	-52.1	-66.8	3.8	1.49e+00	0	42	104	0	74	21032
2026-01-23 22:22:28.89	20.63	3.36	-52.1	-66.7	3.8	1.49e+00	0	42	104	0	74	20890
2026-01-23 22:22:29.87	20.71	3.41	-52.1	-66.7	3.8	1.49e+00	0	42	104	0	74	20972
2026-01-23 22:22:30.83	20.79	3.47	-52.1	-66.7	3.8	1.49e+00	0	42	104	0	74	21013
2026-01-23 22:22:31.80	20.86	3.52	-52.1	-66.8	3.8	1.49e+00	0	43	104	0	74	21053
2026-01-23 22:22:32.77	20.94	3.57	-52.1	-66.9	3.8	1.49e+00	0	42	104	0	74	21325
2026-01-23 22:22:33.74	21.01	3.63	-52.0	-66.8	3.8	1.49e+00	0	42	104	0	74	21249
2026-01-23 22:22:34.70	21.09	3.68	-52.0	-66.9	3.8	1.49e+00	0	42	104	0	74	21278
2026-01-23 22:22:35.67	21.17	3.74	-52.0	-66.9	3.8	1.49e+00	0	42	104	0	74	21348
2026-01-23 22:22:36.65	21.25	3.79	-52.0	-66.8	3.8	1.49e+00	0	42	104	0	74	21246
2026-01-23 22:22:37.62	21.32	3.85	-52.0	-66.7	3.8	1.49e+00	0	42	104	0	74	20866
2026-01-23 22:22:38.58	21.40	3.90	-52.0	-66.5	3.8	1.49e+00	0	42	104	0	74	20331
2026-01-23 22:22:39.55	21.48	3.96	-52.0	-66.2	3.8	1.49e+00	0	42	104	0	74	19635
2026-01-23 22:22:40.52	21.56	4.01	-52.0	-65.5	3.8	1.49e+00	0	42	104	0	74	18186
2026-01-23 22:22:41.48	21.63	4.07	-52.0	-65.1	3.8	1.49e+00	0	42	104	0	74	17377
2026-01-23 22:22:42.46	21.71	4.13	-52.0	-65.0	3.8	1.49e+00	0	43	104	0	74	17104
2026-01-23 22:22:43.43	21.79	4.18	-51.9	-64.5	3.9	1.48e+00	0	42	104	0	74	16221
2026-01-23 22:22:44.40	21.87	4.24	-51.9	-63.9	4.1	1.44e+00	0	43	0	0	74	15109
2026-01-23 22:22:45.38	21.95	4.29	-51.8	-63.1	4.3	1.38e+00	24	43	0	0	74	13758
2026-01-23 22:22:46.35	22.03	4.35	-51.6	-60.8	5.4	7.93e-01	0	43	0	1048576	74	10576
2026-01-23 22:22:47.33	22.11	4.40	-51.2	-58.6	7.2	3.09e-01	0	42	0	3145728	74	8200
2026-01-23 22:22:48.31	22.20	4.46	-50.9	-57.2	8.4	6.08e-02	0	43	0	5242880	73	7390
2026-01-23 22:22:49.28	22.28	4.52	-50.3	-55.1	10.6	6.49e-03	0	42	0	6291456	72	6149
2026-01-23 22:22:50.25	22.36	4.57	-49.6	-53.5	12.4	3.24e-04	0	42	0	8388608	71	5428
2026-01-23 22:22:51.22	22.44	4.63	-48.9	-52.0	13.9	2.05e-05	0	43	0	10485760	69	5152
2026-01-23 22:22:52.19	22.52	4.68	-48.7	-51.7	14.3	2.20e-06	0	43	0	12582912	69	4952
2026-01-23 22:22:53.16	22.60	4.74	-48.0	-50.6	15.3	0.00e+00	0	43	0	13631488	68	4603
2026-01-23 22:22:54.13	22.69	4.80	-47.8	-50.3	15.6	0.00e+00	0	43	0	15728640	67	4720
2026-01-23 22:22:55.10	22.77	4.85	-48.1	-50.8	15.2	0.00e+00	0	43	0	17825792	67	5013
2026-01-23 22:22:56.07	22.85	4.91	-48.1	-50.8	15.0	0.00e+00	0	42	0	19922944	67	5037
2026-01-23 22:22:57.04	22.94	4.97	-48.9	-52.1	13.9	0.00e+00	0	43	0	20971520	68	5490
2026-01-23 22:22:58.01	23.02	5.02	-49.3	-52.8	13.1	1.29e-05	0	43	0	23068672	69	5629
2026-01-23 22:22:58.98	23.10	5.08	-49.8	-53.8	12.2	6.56e-05	0	43	0	25165824	70	5982
2026-01-23 22:22:59.95	23.19	5.14	-47.9	-50.4	15.6	1.14e-05	0	42	0	27262976	67	4794
2026-01-23 22:23:00.92	23.27	5.19	-51.7	-61.7	5.1	2.20e-06	0	43	0	28311552	73	12473
2026-01-23 22:23:01.89	23.36	5.25	-51.5	-60.2	5.9	9.50e-01	0	43	0	30408704	74	9847
2026-01-23 22:23:02.86	23.44	5.31	-47.4	-49.5	16.6	9.84e-04	0	42	0	32505856	65	4862
2026-01-23 22:23:03.82	23.53	5.36	-47.9	-50.3	15.8	0.00e+00	0	42	0	33554432	67	4708
2026-01-23 22:23:04.79	23.61	5.42	-47.4	-49.6	16.4	0.00e+00	0	42	0	35651584	66	4644
2026-01-23 22:23:05.76	23.70	5.48	-47.2	-49.3	16.8	0.00e+00	0	43	0	37748736	65	4719
2026-01-23 22:23:06.73	23.78	5.54	-46.7	-48.7	17.4	0.00e+00	0	42	0	39845888	65	4392
2026-01-23 22:23:07.70	23.87	5.59	-47.3	-49.4	16.7	0.00e+00	0	43	0	40894464	65	4784
2026-01-23 22:23:08.66	23.96	5.65	-47.0	-49.0	17.1	0.00e+00	0	43	0	42991616	65	4587
2026-01-23 22:23:09.63	24.04	5.71	-47.1	-49.2	16.9	0.00e+00	0	43	0	45088768	65	4685
2026-01-23 22:23:10.60	24.13	5.76	-47.0	-49.0	17.0	0.00e+00	0	43	0	47185920	65	4576
2026-01-23 22:23:11.58	24.22	5.82	-46.7	-48.6	17.5	0.00e+00	0	43	0	48234496	65	4372
2026-01-23 22:23:12.54	24.31	5.88	-46.7	-48.6	17.5	0.00e+00	0	43	0	50331648	65	4366
2026-01-23 22:23:13.51	24.40	5.94	-46.7	-48.6	17.4	0.00e+00	0	43	0	52428800	65	4390
2026-01-23 22:23:14.48	24.49	6.00	-46.6	-48.5	17.6	0.00e+00	0	43	0	53477376	65	4298
2026-01-23 22:23:15.45	24.58	6.05	-46.5	-48.3	17.8	0.00e+00	0	43	0	55574528	64	4464
2026-01-23 22:23:16.42	24.67	6.11	-46.7	-48.6	17.4	0.00e+00	0	43	0	57671680	64	4645
2026-01-23 22:23:17.39	24.76	6.17	-46.9	-48.9	17.3	0.00e+00	0	43	0	59768832	64	4772
2026-01-23 22:23:18.36	24.85	6.23	-46.2	-48.0	18.1	0.00e+00	0	43	0	60817408	64	4308
2026-01-23 22:23:19.33	24.94	6.29	-46.5	-48.2	17.8	0.00e+00	0	43	0	62914560	64	4440
2026-01-23 22:23:20.29	25.03	6.34	-46.6	-48.5	17.6	0.00e+00	0	43	0	65011712	64	4568
2026-01-23 22:23:21.26	25.12	6.40	-46.6	-48.4	17.7	0.00e+00	0	43	0	67108864	64	4525
2026-01-23 22:23:22.24	25.21	6.46	-46.7	-48.5	17.5	0.00e+00	0	43	0	68157440	64	4583
2026-01-23 22:23:23.21	25.30	6.52	-46.8	-48.8	17.3	0.00e+00	0	43	0	70254592	64	4709
2026-01-23 22:23:24.18	25.40	6.58	-46.7	-48.6	17.6	0.00e+00	0	43	0	72351744	64	4633
2026-01-23 22:23:25.15	25.49	6.64	-46.8	-48.8	17.4	0.00e+00	0	43	0	74448896	64	4719
2026-01-23 22:23:26.11	25.58	6.69	-46.9	-48.8	17.4	0.00e+00	0	43	0	75497472	64	4750
2026-01-23 22:23:27.08	25.67	6.75	-47.1	-49.1	17.0	0.00e+00	0	43	0	77594624	64	4921
2026-01-23 22:23:28.05	25.77	6.81	-47.3	-49.4	16.8	0.00e+00	0	43	0	79691776	65	4795
2026-01-23 22:23:29.02	25.86	6.87	-47.1	-49.2	17.1	0.00e+00	0	43	0	81788928	65	4663
2026-01-23 22:23:29.99	25.96	6.93	-47.2	-49.3	16.9	0.00e+00	0	43	0	82837504	65	4729
2026-01-23 22:23:30.95	26.05	6.99	-47.4	-49.6	16.6	0.00e+00	0	43	0	84934656	65	4889
2026-01-23 22:23:31.92	26.15	7.05	-47.4	-49.5	16.7	0.00e+00	0	43	0	87031808	65	4847
2026-01-23 22:23:32.89	26.24	7.11	-47.4	-49.5	16.7	0.00e+00	0	43	0	88080384	65	4818
2026-01-23 22:23:33.87	26.34	7.17	-47.4	-49.5	16.7	0.00e+00	0	43	0	90177536	65	4848
2026-01-23 22:23:34.84	26.44	7.23	-47.7	-50.0	16.3	0.00e+00	0	43	0	92274688	66	4841
2026-01-23 22:23:35.81	26.53	7.28	-47.5	-49.6	16.6	0.00e+00	0	43	0	94371840	66	4641
2026-01-23 22:23:36.78	26.63	7.34	-47.5	-49.7	16.6	0.00e+00	0	43	0	95420416	66	4676
2026-01-23 22:23:37.75	26.73	7.40	-47.8	-50.0	16.4	0.00e+00	0	43	0	97517568	66	4835
2026-01-23 22:23:38.72	26.83	7.46	-47.8	-50.1	16.3	0.00e+00	0	43	0	99614720	66	4886
2026-01-23 22:23:39.69	26.92	7.52	-47.8	-50.1	16.3	0.00e+00	0	43	0	101711872	66	4886
2026-01-23 22:23:40.66	27.02	7.58	-47.7	-49.9	16.4	0.00e+00	0	43	0	102760448	66	4780
2026-01-23 22:23:41.63	27.12	7.64	-47.6	-49.7	16.7	0.00e+00	0	43	0	104857600	66	4685
2026-01-23 22:23:42.60	27.22	7.70	-47.3	-49.3	16.9	0.00e+00	0	43	0	106954752	66	4493
2026-01-23 22:23:43.58	27.32	7.76	-47.4	-49.5	16.9	0.00e+00	0	43	0	108003328	66	4576
2026-01-23 22:23:44.55	27.42	7.82	-47.3	-49.4	16.9	0.00e+00	0	43	0	110100480	66	4506
2026-01-23 22:23:45.52	27.52	7.88	-47.0	-48.9	17.4	0.00e+00	0	43	0	112197632	65	4532
2026-01-23 22:23:46.49	27.62	7.94	-46.7	-48.5	17.8	0.00e+00	0	43	0	114294784	65	4311
2026-01-23 22:23:47.46	27.73	8.00	-46.8	-48.7	17.6	0.00e+00	0	43	0	115343360	65	4415
2026-01-23 22:23:48.43	27.83	8.06	-46.8	-48.7	17.6	0.00e+00	0	43	0	117440512	65	4418
2026-01-23 22:23:49.39	27.93	8.12	-46.8	-48.7	17.6	0.00e+00	0	43	0	119537664	65	4415
2026-01-23 22:23:50.37	28.03	8.19	-47.0	-48.9	17.4	0.00e+00	0	43	0	121634816	65	4531
2026-01-23 22:23:51.33	28.13	8.25	-46.9	-48.8	17.6	0.00e+00	0	43	0	122683392	65	4479
2026-01-23 22:23:52.30	28.24	8.31	-46.9	-48.8	17.6	0.00e+00	0	43	0	124780544	65	4453
2026-01-23 22:23:53.27	28.34	8.37	-46.8	-48.7	17.7	0.00e+00	0	43	0	126877696	65	4422
2026-01-23 22:23:54.24	28.45	8.43	-46.8	-48.7	17.7	0.00e+00	0	43	0	128974848	65	4396
2026-01-23 22:23:55.21	28.55	8.49	-46.7	-48.5	17.9	0.00e+00	0	43	0	130023424	65	4294
2026-01-23 22:23:56.18	28.66	8.55	-46.6	-48.4	17.9	0.00e+00	0	43	0	132120576	64	4502
2026-01-23 22:23:57.15	28.76	8.61	-46.6	-48.4	17.9	0.00e+00	0	43	0	134217728	64	4540
2026-01-23 22:23:58.13	28.87	8.67	-46.4	-48.1	18.2	0.00e+00	0	43	0	136314880	64	4371
2026-01-23 22:23:59.10	28.97	8.73	-46.4	-48.2	18.2	0.00e+00	0	43	0	137363456	64	4393
2026-01-23 22:24:00.06	29.08	8.79	-46.3	-48.0	18.4	0.00e+00	0	43	0	139460608	64	4304
2026-01-23 22:24:01.03	29.19	8.85	-46.3	-48.0	18.4	0.00e+00	0	43	0	141557760	64	4305
2026-01-23 22:24:02.00	29.30	8.92	-46.2	-47.8	18.5	0.00e+00	0	43	0	143654912	64	4223
2026-01-23 22:24:02.97	29.40	8.98	-46.2	-47.9	18.5	0.00e+00	0	43	0	144703488	64	4243
2026-01-23 22:24:03.94	29.51	9.04	-46.2	-47.8	18.4	0.00e+00	0	43	0	146800640	64	4216
2026-01-23 22:24:04.91	29.62	9.10	-46.3	-48.0	18.4	0.00e+00	0	43	0	148897792	64	4314
2026-01-23 22:24:05.88	29.73	9.16	-46.0	-47.7	18.7	0.00e+00	0	43	0	149946368	64	4147
2026-01-23 22:24:06.86	29.84	9.22	-46.0	-47.6	18.8	0.00e+00	0	43	0	152043520	63	4372
2026-01-23 22:24:07.83	29.95	9.29	-46.1	-47.7	18.8	0.00e+00	0	43	0	154140672	63	4422
2026-01-23 22:24:08.80	30.06	9.35	-46.0	-47.6	18.8	0.00e+00	0	43	0	156237824	63	4373
2026-01-23 22:24:09.76	30.17	9.41	-46.0	-47.6	18.9	0.00e+00	0	43	0	157286400	63	4358
2026-01-23 22:24:10.73	30.28	9.47	-46.1	-47.6	18.8	0.00e+00	0	43	0	159383552	63	4381
2026-01-23 22:24:11.70	30.40	9.53	-46.0	-47.5	19.0	0.00e+00	0	43	0	161480704	63	4312
2026-01-23 22:24:12.67	30.51	9.59	-46.2	-47.8	18.7	0.00e+00	0	43	0	162529280	63	4461
2026-01-23 22:24:13.64	30.62	9.66	-46.3	-47.9	18.6	0.00e+00	0	43	0	164626432	63	4529
2026-01-23 22:24:14.61	30.74	9.72	-46.3	-47.9	18.6	0.00e+00	0	43	0	166723584	63	4539
2026-01-23 22:24:15.58	30.85	9.78	-46.2	-47.8	18.7	0.00e+00	0	43	0	168820736	63	4491
2026-01-23 22:24:16.55	30.96	9.84	-46.2	-47.8	18.8	0.00e+00	0	43	0	169869312	63	4452
2026-01-23 22:24:17.52	31.08	9.91	-46.2	-47.9	18.7	0.00e+00	0	43	0	171966464	63	4495
2026-01-23 22:24:18.49	31.19	9.97	-46.4	-48.0	18.5	0.00e+00	0	43	0	174063616	63	4585
2026-01-23 22:24:19.46	31.31	10.03	-46.3	-47.9	18.7	0.00e+00	0	43	0	176160768	63	4515
2026-01-23 22:24:20.43	31.43	10.09	-46.2	-47.8	18.7	0.00e+00	0	43	0	177209344	63	4460
2026-01-23 22:24:21.40	31.54	10.16	-46.1	-47.6	18.9	0.00e+00	0	43	0	179306496	63	4371
2026-01-23 22:24:22.37	31.66	10.22	-46.2	-47.7	18.8	0.00e+00	0	43	0	181403648	63	4427
2026-01-23 22:24:23.34	31.78	10.28	-46.3	-47.9	18.7	0.00e+00	0	43	0	183500800	63	4544
2026-01-23 22:24:24.31	31.90	10.34	-46.2	-47.8	18.8	0.00e+00	0	43	0	184549376	63	4451
2026-01-23 22:24:25.28	32.01	10.41	-46.1	-47.6	19.0	0.00e+00	0	43	0	186646528	63	4371
2026-01-23 22:24:26.24	32.13	10.47	-46.0	-47.5	19.0	0.00e+00	0	43	0	188743680	63	4336
2026-01-23 22:24:27.21	32.25	10.53	-46.0	-47.5	19.1	0.00e+00	0	43	0	190840832	63	4305
2026-01-23 22:24:28.18	32.37	10.59	-45.9	-47.4	19.2	0.00e+00	0	43	0	191889408	63	4263
2026-01-23 22:24:29.15	32.49	10.66	-45.8	-47.3	19.3	0.00e+00	0	43	0	193986560	63	4213
2026-01-23 22:24:30.12	32.61	10.72	-45.7	-47.2	19.4	0.00e+00	0	43	0	196083712	63	4160
2026-01-23 22:24:31.09	32.74	10.78	-45.9	-47.3	19.2	0.00e+00	0	43	0	197132288	63	4238
2026-01-23 22:24:32.06	32.86	10.85	-45.9	-47.4	19.2	0.00e+00	0	43	0	199229440	63	4259
2026-01-23 22:24:33.03	32.98	10.91	-45.9	-47.4	19.2	0.00e+00	0	43	0	201326592	63	4285
2026-01-23 22:24:33.99	33.10	10.97	-45.9	-47.4	19.2	0.00e+00	0	43	0	203423744	63	4244
2026-01-23 22:24:34.96	33.23	11.04	-45.8	-47.3	19.3	0.00e+00	0	43	0	204472320	63	4212
2026-01-23 22:24:35.93	33.35	11.10	-45.7	-47.2	19.4	0.00e+00	0	43	0	206569472	63	4156
2026-01-23 22:24:36.90	33.48	11.16	-45.8	-47.2	19.3	0.00e+00	0	43	0	208666624	63	4177
2026-01-23 22:24:37.87	33.60	11.23	-45.8	-47.3	19.2	0.00e+00	0	43	0	210763776	63	4225
2026-01-23 22:24:38.84	33.73	11.29	-45.5	-47.0	19.6	0.00e+00	0	43	0	211812352	63	4052
2026-01-23 22:24:39.81	33.85	11.35	-45.6	-47.0	19.5	0.00e+00	0	43	0	213909504	62	4340
2026-01-23 22:24:40.78	33.98	11.42	-45.8	-47.2	19.3	0.00e+00	0	43	0	216006656	62	4440
2026-01-23 22:24:41.75	34.11	11.48	-45.7	-47.1	19.5	0.00e+00	0	43	0	218103808	62	4370
2026-01-23 22:24:42.72	34.24	11.54	-45.5	-46.9	19.7	0.00e+00	0	43	0	219152384	62	4267
2026-01-23 22:24:43.69	34.36	11.61	-45.5	-47.0	19.6	0.00e+00	0	43	0	221249536	62	4299
2026-01-23 22:24:44.66	34.49	11.67	-45.3	-46.6	19.9	0.00e+00	0	43	0	223346688	62	4134
2026-01-23 22:24:45.63	34.62	11.73	-45.2	-46.6	20.0	0.00e+00	0	43	0	224395264	62	4100
2026-01-23 22:24:46.59	34.75	11.80	-45.4	-46.8	19.8	0.00e+00	0	43	0	226492416	62	4231
2026-01-23 22:24:47.56	34.88	11.86	-45.4	-46.8	19.8	0.00e+00	0	43	0	228589568	62	4215
2026-01-23 22:24:48.53	35.01	11.92	-45.1	-46.4	20.1	0.00e+00	0	43	0	230686720	62	4041
2026-01-23 22:24:49.50	35.14	11.99	-45.1	-46.5	20.1	0.00e+00	0	43	0	231735296	62	4053
2026-01-23 22:24:50.47	35.28	12.05	-45.1	-46.4	20.1	0.00e+00	0	43	0	233832448	62	4046
2026-01-23 22:24:51.44	35.41	12.12	-45.2	-46.5	20.1	0.00e+00	0	43	0	235929600	62	4069
2026-01-23 22:24:52.41	35.54	12.18	-45.2	-46.5	20.0	0.00e+00	0	43	0	238026752	62	4092
2026-01-23 22:24:53.38	35.68	12.24	-45.2	-46.5	20.1	0.00e+00	0	43	0	239075328	62	4063
2026-01-23 22:24:54.35	35.81	12.31	-45.4	-46.8	19.8	0.00e+00	0	43	0	241172480	62	4217
2026-01-23 22:24:55.32	35.95	12.37	-45.4	-46.8	19.9	0.00e+00	0	43	0	243269632	62	4205
2026-01-23 22:24:56.29	36.08	12.44	-45.5	-46.9	19.7	0.00e+00	0	43	0	244318208	62	4257
2026-01-23 22:24:57.26	36.22	12.50	-45.6	-47.0	19.7	0.00e+00	0	43	0	246415360	62	4309
2026-01-23 22:24:58.23	36.35	12.57	-45.5	-46.9	19.7	0.00e+00	0	43	0	248512512	62	4288
2026-01-23 22:24:59.20	36.49	12.63	-45.4	-46.8	19.8	0.00e+00	0	43	0	250609664	62	4237
2026-01-23 22:25:00.17	36.63	12.69	-45.8	-47.3	19.3	0.00e+00	0	43	0	251658240	62	4475
2026-01-23 22:25:01.14	36.77	12.76	-45.8	-47.2	19.4	0.00e+00	0	43	0	253755392	62	4423
2026-01-23 22:25:02.11	36.91	12.82	-45.5	-46.9	19.8	0.00e+00	0	43	0	255852544	62	4252
2026-01-23 22:25:03.07	37.05	12.89	-45.8	-47.3	19.4	0.00e+00	0	43	0	257949696	62	4465
2026-01-23 22:25:04.05	37.19	12.95	-45.5	-46.9	19.7	0.00e+00	0	43	0	258998272	62	4291
2026-01-23 22:25:05.01	37.33	13.01	-45.6	-47.0	19.6	0.00e+00	0	43	0	261095424	62	4315
2026-01-23 22:25:05.98	37.47	13.08	-45.7	-47.1	19.6	0.00e+00	0	43	0	263192576	62	4381
2026-01-23 22:25:06.95	37.61	13.14	-45.7	-47.1	19.6	0.00e+00	0	43	0	265289728	62	4358
2026-01-23 22:25:07.92	37.75	13.21	-45.8	-47.2	19.5	0.00e+00	0	43	0	266338304	62	4420
2026-01-23 22:25:08.89	37.90	13.27	-45.6	-47.0	19.7	0.00e+00	0	43	0	268435456	62	4304
2026-01-23 22:25:09.86	38.04	13.34	-45.9	-47.4	19.3	0.00e+00	0	43	0	270532608	62	4530
2026-01-23 22:25:10.83	38.18	13.40	-45.8	-47.3	19.4	0.00e+00	0	43	0	272629760	62	4442
2026-01-23 22:25:11.80	38.33	13.47	-45.8	-47.3	19.4	0.00e+00	0	43	0	273678336	62	4451
2026-01-23 22:25:12.77	38.47	13.53	-46.0	-47.6	19.2	0.00e+00	0	43	0	275775488	62	4606
2026-01-23 22:25:13.74	38.62	13.59	-45.8	-47.2	19.5	0.00e+00	0	43	0	277872640	62	4419
2026-01-23 22:25:14.71	38.77	13.66	-45.6	-47.0	19.7	0.00e+00	0	43	0	279969792	62	4330
2026-01-23 22:25:15.68	38.91	13.72	-45.5	-46.9	19.8	0.00e+00	0	43	0	281018368	62	4249
2026-01-23 22:25:16.65	39.06	13.79	-45.3	-46.6	20.0	0.00e+00	0	43	0	283115520	62	4131
2026-01-23 22:25:17.62	39.21	13.85	-45.0	-46.3	20.3	0.00e+00	0	43	0	285212672	62	4001
2026-01-23 22:25:18.60	39.36	13.92	-45.1	-46.5	20.2	0.00e+00	0	43	0	286261248	62	4059
2026-01-23 22:25:19.57	39.51	13.98	-45.1	-46.5	20.3	0.00e+00	0	43	0	288358400	62	4056
2026-01-23 22:25:20.54	39.66	14.05	-45.2	-46.5	20.2	0.00e+00	0	43	0	290455552	62	4070
2026-01-23 22:25:21.51	39.81	14.11	-45.2	-46.5	20.1	0.00e+00	0	43	0	292552704	62	4094
2026-01-23 22:25:22.48	39.97	14.17	-45.2	-46.5	20.2	0.00e+00	0	43	0	293601280	62	4083
2026-01-23 22:25:23.45	40.12	14.24	-45.2	-46.6	20.1	0.00e+00	0	43	0	295698432	62	4108
2026-01-23 22:25:24.42	40.27	14.30	-45.1	-46.4	20.3	0.00e+00	0	43	0	297795584	62	4045
2026-01-23 22:25:25.39	40.43	14.37	-45.2	-46.5	20.2	0.00e+00	0	43	0	298844160	62	4080
2026-01-23 22:25:26.36	40.58	14.43	-45.1	-46.4	20.2	0.00e+00	0	43	0	300941312	62	4045
2026-01-23 22:25:27.33	40.74	14.50	-45.2	-46.5	20.1	0.00e+00	0	43	0	303038464	62	4097
2026-01-23 22:25:28.30	40.89	14.56	-45.3	-46.7	20.1	0.00e+00	0	43	0	305135616	62	4157
2026-01-23 22:25:29.27	41.05	14.62	-45.3	-46.6	20.1	0.00e+00	0	43	0	306184192	62	4145
2026-01-23 22:25:30.24	41.20	14.69	-45.5	-46.9	19.9	0.00e+00	0	43	0	308281344	62	4283
2026-01-23 22:25:31.21	41.36	14.75	-45.4	-46.8	20.0	0.00e+00	0	43	0	310378496	62	4202
2026-01-23 22:25:32.18	41.52	14.82	-45.5	-46.8	19.9	0.00e+00	0	43	0	312475648	62	4232
2026-01-23 22:25:33.15	41.68	14.88	-45.2	-46.6	20.2	0.00e+00	0	43	0	313524224	62	4102
2026-01-23 22:25:34.11	41.84	14.94	-45.1	-46.4	20.4	0.00e+00	0	43	0	315621376	62	4009
2026-01-23 22:25:35.09	42.00	15.01	-45.1	-46.4	20.4	0.00e+00	0	43	0	317718528	62	4015
2026-01-23 22:25:36.06	42.16	15.07	-45.1	-46.4	20.3	0.00e+00	0	43	0	319815680	61	4272
2026-01-23 22:25:37.03	42.32	15.14	-45.1	-46.4	20.3	0.00e+00	0	43	0	320864256	61	4290
2026-01-23 22:25:38.00	42.49	15.20	-45.2	-46.5	20.2	0.00e+00	0	43	0	322961408	61	4328
2026-01-23 22:25:38.97	42.65	15.27	-45.3	-46.6	20.2	0.00e+00	0	43	0	325058560	61	4377
2026-01-23 22:25:39.93	42.81	15.33	-45.5	-46.8	19.9	0.00e+00	0	43	0	327155712	61	4490
2026-01-23 22:25:40.90	42.97	15.39	-45.5	-46.9	19.9	0.00e+00	0	43	0	328204288	61	4519
2026-01-23 22:25:41.87	43.14	15.46	-45.5	-46.9	19.8	0.00e+00	0	43	0	330301440	61	4522
2026-01-23 22:25:42.84	43.31	15.52	-45.5	-46.9	19.9	0.00e+00	0	43	0	332398592	61	4513
2026-01-23 22:25:43.81	43.47	15.58	-45.5	-46.9	19.8	0.00e+00	0	43	0	334495744	61	4533
2026-01-23 22:25:44.77	43.64	15.65	-45.3	-46.6	20.2	0.00e+00	0	43	0	335544320	61	4352
2026-01-23 22:25:45.74	43.81	15.71	-45.0	-46.3	20.4	0.00e+00	0	43	0	337641472	61	4202
2026-01-23 22:25:46.72	43.98	15.77	-45.1	-46.4	20.4	0.00e+00	0	43	0	339738624	61	4254
2026-01-23 22:25:47.69	44.14	15.84	-45.1	-46.4	20.4	0.00e+00	0	43	0	340787200	61	4256
2026-01-23 22:25:48.66	44.31	15.90	-45.0	-46.2	20.6	0.00e+00	0	43	0	342884352	61	4176
2026-01-23 22:25:49.63	44.49	15.96	-45.1	-46.3	20.4	0.00e+00	0	43	0	344981504	61	4240
2026-01-23 22:25:50.59	44.66	16.03	-45.2	-46.6	20.2	0.00e+00	0	43	0	347078656	61	4350
2026-01-23 22:25:51.56	44.83	16.09	-45.5	-46.9	19.9	0.00e+00	0	43	0	348127232	61	4501
2026-01-23 22:25:52.53	45.00	16.15	-45.3	-46.7	20.1	0.00e+00	0	43	0	350224384	61	4394
2026-01-23 22:25:53.50	45.17	16.22	-45.5	-46.8	20.0	0.00e+00	0	43	0	352321536	61	4483
2026-01-23 22:25:54.47	45.35	16.28	-45.3	-46.7	20.1	0.00e+00	0	43	0	354418688	61	4410
2026-01-23 22:25:55.44	45.52	16.34	-45.1	-46.4	20.3	0.00e+00	0	43	0	355467264	61	4289
2026-01-23 22:25:56.41	45.70	16.40	-45.1	-46.4	20.4	0.00e+00	0	43	0	357564416	61	4247
2026-01-23 22:25:57.37	45.87	16.47	-45.0	-46.2	20.6	0.00e+00	0	43	0	359661568	61	4169
2026-01-23 22:25:58.35	46.05	16.53	-45.0	-46.3	20.5	0.00e+00	0	43	0	360710144	61	4203
2026-01-23 22:25:59.32	46.23	16.59	-45.1	-46.3	20.5	0.00e+00	0	43	0	362807296	61	4226
2026-01-23 22:26:00.29	46.41	16.65	-44.9	-46.2	20.6	0.00e+00	0	43	0	364904448	61	4149
2026-01-23 22:26:01.26	46.59	16.72	-44.8	-46.1	20.7	0.00e+00	0	43	0	367001600	61	4101
2026-01-23 22:26:02.23	46.77	16.78	-44.9	-46.2	20.6	0.00e+00	0	43	0	368050176	61	4149
2026-01-23 22:26:03.20	46.95	16.84	-45.0	-46.2	20.6	0.00e+00	0	43	0	370147328	61	4180
2026-01-23 22:26:04.17	47.13	16.90	-44.9	-46.2	20.5	0.00e+00	0	43	0	372244480	61	4166
2026-01-23 22:26:05.14	47.31	16.96	-45.1	-46.3	20.4	0.00e+00	0	43	0	374341632	61	4238
2026-01-23 22:26:06.11	47.49	17.03	-45.0	-46.3	20.5	0.00e+00	0	43	0	375390208	61	4199
2026-01-23 22:26:07.08	47.68	17.09	-45.1	-46.3	20.4	0.00e+00	0	43	0	377487360	61	4240
2026-01-23 22:26:08.05	47.86	17.15	-45.0	-46.3	20.5	0.00e+00	0	43	0	379584512	61	4211
2026-01-23 22:26:09.02	48.05	17.21	-45.2	-46.5	20.4	0.00e+00	0	43	0	381681664	61	4304
2026-01-23 22:26:10.00	48.23	17.27	-45.4	-46.8	20.0	0.00e+00	0	43	0	382730240	61	4444
2026-01-23 22:26:10.96	48.42	17.33	-45.3	-46.6	20.2	0.00e+00	0	43	0	384827392	61	4367
2026-01-23 22:26:11.94	48.61	17.39	-45.2	-46.6	20.2	0.00e+00	0	43	0	386924544	61	4341
2026-01-23 22:26:12.90	48.79	17.45	-45.2	-46.6	20.3	0.00e+00	0	43	0	389021696	61	4351
2026-01-23 22:26:13.87	48.98	17.51	-45.3	-46.6	20.2	0.00e+00	0	43	0	390070272	61	4371
2026-01-23 22:26:14.84	49.17	17.57	-45.3	-46.6	20.2	0.00e+00	0	43	0	392167424	61	4367
2026-01-23 22:26:15.81	49.36	17.63	-45.1	-46.3	20.5	0.00e+00	0	43	0	394264576	61	4240
2026-01-23 22:26:16.78	49.55	17.70	-44.9	-46.2	20.7	0.00e+00	0	43	0	395313152	61	4152
2026-01-23 22:26:17.75	49.74	17.76	-45.0	-46.3	20.6	0.00e+00	0	43	0	397410304	61	4197
2026-01-23 22:26:18.71	49.93	17.81	-45.0	-46.2	20.6	0.00e+00	0	43	0	399507456	61	4193
2026-01-23 22:26:19.68	50.13	17.87	-45.1	-46.4	20.4	0.00e+00	0	43	0	401604608	61	4260
2026-01-23 22:26:20.65	50.32	17.93	-45.1	-46.4	20.4	0.00e+00	0	43	0	402653184	61	4274
2026-01-23 22:26:21.63	50.52	17.99	-45.4	-46.8	20.1	0.00e+00	0	43	0	404750336	61	4466
2026-01-23 22:26:22.60	50.71	18.05	-45.6	-47.0	19.8	0.00e+00	0	43	0	406847488	61	4591
2026-01-23 22:26:23.57	50.91	18.11	-45.8	-47.2	19.7	0.00e+00	0	43	0	408944640	62	4396
2026-01-23 22:26:24.54	51.11	18.17	-45.7	-47.1	19.9	0.00e+00	0	43	0	409993216	62	4355
2026-01-23 22:26:25.52	51.31	18.23	-45.6	-47.0	19.9	0.00e+00	0	43	0	412090368	62	4312
2026-01-23 22:26:26.49	51.50	18.29	-45.3	-46.6	20.3	0.00e+00	0	43	0	414187520	62	4132
2026-01-23 22:26:27.46	51.70	18.35	-45.4	-46.7	20.2	0.00e+00	0	43	0	416284672	62	4190
2026-01-23 22:26:28.43	51.90	18.40	-45.4	-46.7	20.3	0.00e+00	0	43	0	417333248	62	4164
2026-01-23 22:26:29.40	52.10	18.46	-45.6	-46.9	20.0	0.00e+00	0	43	0	419430400	62	4272
2026-01-23 22:26:30.37	52.30	18.52	-45.8	-47.2	19.7	0.00e+00	0	43	0	421527552	62	4416
2026-01-23 22:26:31.34	52.51	18.58	-46.1	-47.6	19.3	0.00e+00	0	43	0	422576128	62	4631
2026-01-23 22:26:32.31	52.71	18.63	-46.1	-47.6	19.4	0.00e+00	0	43	0	424673280	62	4628
2026-01-23 22:26:33.28	52.91	18.69	-46.4	-47.9	19.0	0.00e+00	0	43	0	426770432	63	4534
2026-01-23 22:26:34.25	53.12	18.75	-46.1	-47.6	19.5	0.00e+00	0	43	0	428867584	63	4342
2026-01-23 22:26:35.22	53.32	18.81	-46.0	-47.5	19.5	0.00e+00	0	43	0	429916160	63	4306
2026-01-23 22:26:36.19	53.53	18.86	-45.8	-47.2	19.7	0.00e+00	0	43	0	432013312	63	4170
2026-01-23 22:26:37.16	53.73	18.92	-45.9	-47.2	19.7	0.00e+00	0	43	0	434110464	63	4191
2026-01-23 22:26:38.14	53.94	18.97	-46.0	-47.4	19.5	0.00e+00	0	43	0	436207616	63	4290
2026-01-23 22:26:39.11	54.15	19.03	-46.2	-47.7	19.3	0.00e+00	0	43	0	437256192	63	4394
2026-01-23 22:26:40.08	54.36	19.09	-46.4	-47.9	19.1	0.00e+00	0	43	0	439353344	63	4538
2026-01-23 22:26:41.05	54.57	19.14	-46.5	-48.1	18.9	0.00e+00	0	43	0	441450496	63	4622
2026-01-23 22:26:42.02	54.78	19.20	-46.7	-48.3	18.6	0.00e+00	0	43	0	443547648	64	4467
2026-01-23 22:26:42.98	54.99	19.25	-46.5	-48.0	18.9	0.00e+00	0	43	0	444596224	64	4321
2026-01-23 22:26:43.95	55.20	19.30	-46.6	-48.2	18.8	0.00e+00	0	43	0	446693376	64	4406
2026-01-23 22:26:44.92	55.41	19.36	-46.8	-48.4	18.6	0.00e+00	0	43	0	448790528	64	4541
2026-01-23 22:26:45.89	55.63	19.41	-46.9	-48.5	18.5	0.00e+00	0	43	0	449839104	64	4570
2026-01-23 22:26:46.86	55.84	19.47	-46.9	-48.6	18.3	0.00e+00	0	43	0	451936256	64	4638
2026-01-23 22:26:47.84	56.06	19.52	-47.0	-48.7	18.2	0.00e+00	0	43	0	454033408	64	4665
2026-01-23 22:26:48.81	56.27	19.57	-46.9	-48.6	18.4	0.00e+00	0	43	0	456130560	64	4633
2026-01-23 22:26:49.78	56.49	19.62	-46.9	-48.6	18.4	0.00e+00	0	43	0	457179136	64	4634
2026-01-23 22:26:50.75	56.71	19.68	-46.8	-48.4	18.6	0.00e+00	0	43	0	459276288	64	4518
2026-01-23 22:26:51.72	56.92	19.73	-46.5	-48.0	18.9	0.00e+00	0	43	0	461373440	64	4317
2026-01-23 22:26:52.69	57.14	19.78	-46.3	-47.8	19.1	0.00e+00	0	43	0	463470592	64	4240
2026-01-23 22:26:53.66	57.36	19.83	-46.4	-47.9	19.1	0.00e+00	0	43	0	464519168	64	4251
2026-01-23 22:26:54.62	57.58	19.88	-46.3	-47.8	19.2	0.00e+00	0	43	0	466616320	64	4210
2026-01-23 22:26:55.59	57.80	19.93	-46.3	-47.8	19.1	0.00e+00	0	43	0	468713472	64	4240
2026-01-23 22:26:56.56	58.02	19.99	-46.2	-47.6	19.3	0.00e+00	0	43	0	470810624	64	4137
2026-01-23 22:26:57.53	58.24	20.04	-46.1	-47.6	19.4	0.00e+00	0	43	0	471859200	64	4107
2026-01-23 22:26:58.50	58.46	20.09	-46.1	-47.5	19.4	0.00e+00	0	43	0	473956352	64	4093
2026-01-23 22:26:59.47	58.69	20.14	-46.1	-47.5	19.5	0.00e+00	0	43	0	476053504	63	4304
2026-01-23 22:27:00.44	58.91	20.18	-45.9	-47.3	19.6	0.00e+00	0	43	0	478150656	63	4240
2026-01-23 22:27:01.41	59.14	20.23	-46.2	-47.7	19.3	0.00e+00	0	43	0	479199232	63	4411
2026-01-23 22:27:02.38	59.36	20.28	-46.2	-47.7	19.3	0.00e+00	0	43	0	481296384	63	4424
2026-01-23 22:27:03.35	59.59	20.33	-46.4	-47.9	19.1	0.00e+00	0	43	0	483393536	63	4528
2026-01-23 22:27:04.33	59.82	20.38	-46.4	-48.0	19.1	0.00e+00	0	43	0	485490688	63	4558
2026-01-23 22:27:05.30	60.04	20.43	-46.2	-47.7	19.3	0.00e+00	0	43	0	486539264	63	4395
2026-01-23 22:27:06.27	60.27	20.47	-46.0	-47.4	19.5	0.00e+00	0	43	0	488636416	63	4283
2026-01-23 22:27:07.24	60.50	20.52	-45.7	-47.0	19.9	0.00e+00	0	43	0	490733568	63	4091
2026-01-23 22:27:08.22	60.73	20.57	-45.3	-46.6	20.2	0.00e+00	0	43	0	491782144	62	4132
2026-01-23 22:27:09.18	60.96	20.61	-45.3	-46.6	20.3	0.00e+00	0	43	0	493879296	62	4125
2026-01-23 22:27:10.15	61.19	20.66	-45.5	-46.8	20.1	0.00e+00	0	43	0	495976448	62	4219
2026-01-23 22:27:11.12	61.42	20.71	-45.6	-47.0	19.9	0.00e+00	0	43	0	498073600	62	4294
2026-01-23 22:27:12.09	61.66	20.75	-45.8	-47.2	19.8	0.00e+00	0	43	0	499122176	62	4397
2026-01-23 22:27:13.06	61.89	20.80	-45.7	-47.1	19.8	0.00e+00	0	43	0	501219328	62	4354
2026-01-23 22:27:14.03	62.12	20.84	-45.6	-47.0	20.0	0.00e+00	0	43	0	503316480	62	4307
2026-01-23 22:27:15.00	62.36	20.88	-45.7	-47.1	19.8	0.00e+00	0	43	0	505413632	62	4373
2026-01-23 22:27:15.96	62.59	20.93	-45.4	-46.8	20.2	0.00e+00	0	43	0	506462208	62	4195
2026-01-23 22:27:16.94	62.83	20.97	-45.6	-47.0	20.0	0.00e+00	0	43	0	508559360	62	4294
2026-01-23 22:27:17.91	63.06	21.01	-45.9	-47.3	19.7	0.00e+00	0	43	0	510656512	62	4460
2026-01-23 22:27:18.88	63.30	21.06	-46.2	-47.6	19.3	0.00e+00	0	43	0	511705088	62	4647
2026-01-23 22:27:19.85	63.54	21.10	-46.3	-47.9	19.2	0.00e+00	0	43	0	513802240	63	4506
2026-01-23 22:27:20.82	63.78	21.14	-46.1	-47.5	19.4	0.00e+00	0	43	0	515899392	63	4336
2026-01-23 22:27:21.79	64.01	21.18	-45.8	-47.2	19.8	0.00e+00	0	43	0	517996544	63	4187
2026-01-23 22:27:22.76	64.25	21.22	-45.5	-46.9	20.1	0.00e+00	0	43	0	519045120	63	4018
2026-01-23 22:27:23.73	64.49	21.26	-45.2	-46.4	20.4	0.00e+00	0	43	0	521142272	62	4046
2026-01-23 22:27:24.70	64.73	21.30	-44.8	-46.0	20.8	0.00e+00	0	43	0	523239424	61	4082
2026-01-23 22:27:25.67	64.98	21.34	-45.0	-46.3	20.6	0.00e+00	0	43	0	525336576	61	4210
2026-01-23 22:27:26.64	65.22	21.38	-45.3	-46.6	20.5	0.00e+00	0	43	0	526385152	61	4344
2026-01-23 22:27:27.61	65.46	21.42	-45.5	-46.8	20.2	0.00e+00	0	43	0	528482304	61	4486
2026-01-23 22:27:28.57	65.70	21.45	-45.4	-46.8	20.2	0.00e+00	0	43	0	530579456	61	4442
2026-01-23 22:27:29.55	65.95	21.49	-45.6	-46.9	20.1	0.00e+00	0	43	0	532676608	61	4521
2026-01-23 22:27:30.52	66.19	21.53	-45.5	-46.8	20.1	0.00e+00	0	43	0	533725184	61	4482
2026-01-23 22:27:31.48	66.43	21.56	-45.5	-46.9	20.1	0.00e+00	0	43	0	535822336	61	4507
2026-01-23 22:27:32.45	66.68	21.60	-45.5	-46.8	20.1	0.00e+00	0	43	0	537919488	61	4484
2026-01-23 22:27:33.42	66.92	21.64	-45.5	-46.8	20.1	0.00e+00	0	43	0	540016640	61	4457
2026-01-23 22:27:34.39	67.17	21.67	-45.4	-46.7	20.2	0.00e+00	0	43	0	541065216	61	4421
2026-01-23 22:27:35.37	67.42	21.71	-45.3	-46.6	20.3	0.00e+00	0	43	0	543162368	61	4361
2026-01-23 22:27:36.34	67.67	21.74	-45.2	-46.5	20.4	0.00e+00	0	43	0	545259520	61	4339
2026-01-23 22:27:37.31	67.92	21.77	-45.0	-46.3	20.6	0.00e+00	0	43	0	547356672	61	4219
2026-01-23 22:27:38.28	68.16	21.81	-45.2	-46.5	20.5	0.00e+00	0	43	0	548405248	61	4311
2026-01-23 22:27:39.25	68.41	21.84	-45.2	-46.4	20.5	0.00e+00	0	43	0	550502400	61	4288
2026-01-23 22:27:40.22	68.66	21.87	-45.2	-46.4	20.4	0.00e+00	0	43	0	552599552	61	4291
2026-01-23 22:27:41.19	68.91	21.90	-45.4	-46.7	20.3	0.00e+00	0	43	0	553648128	61	4409
2026-01-23 22:27:42.16	69.16	21.94	-45.1	-46.4	20.5	0.00e+00	0	43	0	555745280	61	4250
2026-01-23 22:27:43.13	69.41	21.97	-45.1	-46.4	20.5	0.00e+00	0	43	0	557842432	61	4274
2026-01-23 22:27:44.10	69.67	22.00	-45.3	-46.5	20.3	0.00e+00	0	43	0	559939584	61	4338
2026-01-23 22:27:45.08	69.92	22.03	-45.3	-46.6	20.3	0.00e+00	0	43	0	560988160	61	4358
2026-01-23 22:27:46.05	70.17	22.05	-45.3	-46.6	20.3	0.00e+00	0	43	0	563085312	61	4364
2026-01-23 22:27:47.02	70.43	22.08	-45.6	-46.9	20.1	0.00e+00	0	43	0	565182464	61	4536
2026-01-23 22:27:47.99	70.68	22.11	-45.8	-47.1	19.9	0.00e+00	0	43	0	567279616	62	4377
2026-01-23 22:27:48.96	70.93	22.14	-45.7	-47.1	19.9	0.00e+00	0	43	0	568328192	62	4375
2026-01-23 22:27:49.93	71.19	22.17	-45.5	-46.8	20.1	0.00e+00	0	43	0	570425344	62	4208
2026-01-23 22:27:50.90	71.44	22.19	-45.2	-46.5	20.4	0.00e+00	0	43	0	572522496	62	4079
2026-01-23 22:27:51.87	71.70	22.22	-45.4	-46.6	20.3	0.00e+00	0	43	0	573571072	62	4145
2026-01-23 22:27:52.83	71.95	22.24	-45.5	-46.9	20.1	0.00e+00	0	43	0	575668224	62	4243
2026-01-23 22:27:53.80	72.21	22.27	-46.0	-47.4	19.5	0.00e+00	0	43	0	577765376	62	4542
2026-01-23 22:27:54.77	72.46	22.29	-46.2	-47.6	19.4	0.00e+00	0	43	0	579862528	62	4642
2026-01-23 22:27:55.75	72.72	22.32	-46.0	-47.4	19.6	0.00e+00	0	43	0	580911104	62	4538
2026-01-23 22:27:56.71	72.98	22.34	-45.7	-47.1	19.9	0.00e+00	0	43	0	583008256	62	4350
2026-01-23 22:27:57.68	73.23	22.36	-45.3	-46.6	20.4	0.00e+00	0	43	0	585105408	62	4129
2026-01-23 22:27:58.65	73.49	22.38	-45.1	-46.4	20.7	0.00e+00	0	43	0	587202560	62	4009
2026-01-23 22:27:59.62	73.75	22.40	-45.1	-46.3	20.6	0.00e+00	0	43	0	588251136	61	4234
2026-01-23 22:28:00.60	74.01	22.43	-45.4	-46.7	20.3	0.00e+00	0	43	0	590348288	61	4441
2026-01-23 22:28:01.57	74.27	22.45	-45.8	-47.2	19.9	0.00e+00	0	43	0	592445440	62	4431
2026-01-23 22:28:02.54	74.53	22.47	-46.1	-47.6	19.5	0.00e+00	0	43	0	594542592	62	4616
2026-01-23 22:28:03.51	74.79	22.48	-46.2	-47.6	19.4	0.00e+00	0	43	0	595591168	63	4387
2026-01-23 22:28:04.48	75.05	22.50	-45.8	-47.2	19.7	0.00e+00	0	43	0	597688320	63	4186
2026-01-23 22:28:05.45	75.31	22.52	-45.5	-46.8	20.2	0.00e+00	0	43	0	599785472	62	4217
2026-01-23 22:28:06.42	75.57	22.54	-45.3	-46.5	20.4	0.00e+00	0	43	0	601882624	62	4085
2026-01-23 22:28:07.39	75.83	22.56	-45.3	-46.5	20.4	0.00e+00	0	43	0	602931200	62	4089
2026-01-23 22:28:08.36	76.09	22.57	-45.4	-46.8	20.2	0.00e+00	0	43	0	605028352	62	4196
2026-01-23 22:28:09.33	76.35	22.59	-45.7	-47.1	20.0	0.00e+00	0	43	0	607125504	62	4345
2026-01-23 22:28:10.30	76.61	22.60	-45.8	-47.2	19.8	0.00e+00	0	43	0	609222656	62	4415
2026-01-23 22:28:11.28	76.88	22.62	-45.6	-47.0	20.0	0.00e+00	0	43	0	610271232	62	4301
2026-01-23 22:28:12.24	77.14	22.63	-45.5	-46.8	20.3	0.00e+00	0	43	0	612368384	62	4196
2026-01-23 22:28:13.21	77.40	22.64	-45.6	-46.9	20.2	0.00e+00	0	43	0	614465536	62	4285
2026-01-23 22:28:14.18	77.66	22.66	-45.5	-46.8	20.3	0.00e+00	0	43	0	615514112	62	4212
2026-01-23 22:28:15.15	77.93	22.67	-45.7	-47.1	20.1	0.00e+00	0	43	0	617611264	62	4354
2026-01-23 22:28:16.12	78.19	22.68	-45.9	-47.3	19.8	0.00e+00	0	43	0	619708416	62	4451
2026-01-23 22:28:17.09	78.45	22.69	-45.8	-47.2	19.9	0.00e+00	0	43	0	621805568	62	4416
2026-01-23 22:28:18.06	78.71	22.70	-45.8	-47.1	19.9	0.00e+00	0	43	0	622854144	62	4387
2026-01-23 22:28:19.03	78.98	22.71	-45.6	-46.9	20.1	0.00e+00	0	43	0	624951296	62	4271
2026-01-23 22:28:20.00	79.24	22.72	-45.4	-46.7	20.3	0.00e+00	0	43	0	627048448	62	4149
2026-01-23 22:28:20.97	79.51	22.73	-45.4	-46.8	20.3	0.00e+00	0	43	0	628097024	62	4194
2026-01-23 22:28:21.94	79.77	22.73	-45.9	-47.3	19.7	0.00e+00	0	43	0	630194176	62	4491
2026-01-23 22:28:22.90	80.03	22.74	-46.1	-47.6	19.5	0.00e+00	0	43	0	632291328	62	4614
2026-01-23 22:28:23.88	80.30	22.75	-46.3	-47.8	19.3	0.00e+00	0	43	0	634388480	63	4448
2026-01-23 22:28:24.85	80.56	22.75	-46.3	-47.8	19.3	0.00e+00	0	43	0	635437056	63	4456
2026-01-23 22:28:25.83	80.83	22.76	-46.0	-47.4	19.6	0.00e+00	0	43	0	637534208	63	4291
2026-01-23 22:28:26.80	81.09	22.76	-46.0	-47.4	19.7	0.00e+00	0	43	0	639631360	63	4257
2026-01-23 22:28:27.77	81.36	22.77	-46.0	-47.4	19.7	0.00e+00	0	43	0	641728512	63	4278
2026-01-23 22:28:28.74	81.62	22.77	-46.1	-47.5	19.6	0.00e+00	0	43	0	642777088	63	4329
2026-01-23 22:28:29.72	81.89	22.77	-45.9	-47.2	19.9	0.00e+00	0	43	0	644874240	63	4192
2026-01-23 22:28:30.69	82.15	22.78	-45.8	-47.1	20.0	0.00e+00	0	43	0	646971392	63	4119
2026-01-23 22:28:31.66	82.42	22.78	-45.6	-46.9	20.2	0.00e+00	0	43	0	649068544	63	4036
2026-01-23 22:28:32.63	82.68	22.78	-45.6	-47.0	20.1	0.00e+00	0	43	0	650117120	63	4056
2026-01-23 22:28:33.60	82.95	22.78	-45.7	-47.0	20.1	0.00e+00	0	43	0	652214272	63	4071
2026-01-23 22:28:34.57	83.21	22.78	-45.6	-47.0	20.1	0.00e+00	0	43	0	654311424	63	4054
2026-01-23 22:28:35.54	83.48	22.78	-45.5	-46.9	20.2	0.00e+00	0	43	0	656408576	63	4007
2026-01-23 22:28:36.51	83.74	22.78	-45.5	-46.8	20.2	0.00e+00	0	43	0	657457152	63	3983
2026-01-23 22:28:37.48	84.01	22.77	-45.6	-46.9	20.1	0.00e+00	0	43	0	659554304	62	4291
2026-01-23 22:28:38.45	84.27	22.77	-45.4	-46.7	20.3	0.00e+00	0	43	0	661651456	62	4191
2026-01-23 22:28:39.42	84.54	22.77	-45.4	-46.7	20.4	0.00e+00	0	43	0	663748608	62	4154
2026-01-23 22:28:40.39	84.80	22.76	-45.3	-46.5	20.5	0.00e+00	0	43	0	664797184	62	4084
2026-01-23 22:28:41.35	85.06	22.76	-45.0	-46.2	20.7	0.00e+00	0	43	0	666894336	61	4152
2026-01-23 22:28:42.32	85.33	22.75	-44.9	-46.2	20.8	0.00e+00	0	43	0	668991488	61	4149
2026-01-23 22:28:43.29	85.59	22.75	-44.9	-46.1	20.9	0.00e+00	0	43	0	670040064	61	4110
2026-01-23 22:28:44.26	85.86	22.74	-44.7	-45.9	21.1	0.00e+00	0	43	0	672137216	61	4007
2026-01-23 22:28:45.24	86.12	22.73	-44.7	-45.9	21.0	0.00e+00	0	43	0	674234368	61	4010
2026-01-23 22:28:46.21	86.39	22.73	-44.8	-45.9	20.9	0.00e+00	0	43	0	676331520	61	4047
2026-01-23 22:28:47.18	86.65	22.72	-44.7	-45.8	21.0	0.00e+00	0	43	0	677380096	61	4002
2026-01-23 22:28:48.16	86.92	22.71	-45.0	-46.2	20.8	0.00e+00	0	43	0	679477248	61	4168
2026-01-23 22:28:49.15	87.19	22.70	-45.0	-46.2	20.7	0.00e+00	0	43	0	681574400	61	4178
2026-01-23 22:28:50.14	87.45	22.69	-45.1	-46.4	20.5	0.00e+00	0	43	0	683671552	61	4261
2026-01-23 22:28:51.12	87.72	22.68	-45.2	-46.5	20.4	0.00e+00	0	43	0	684720128	61	4306
2026-01-23 22:28:52.11	87.99	22.67	-45.2	-46.4	20.5	0.00e+00	0	43	0	686817280	61	4268
2026-01-23 22:28:53.10	88.26	22.65	-45.1	-46.3	20.7	0.00e+00	0	43	0	688914432	61	4205
2026-01-23 22:28:54.09	88.52	22.64	-45.1	-46.3	20.6	0.00e+00	0	43	0	691011584	61	4240
2026-01-23 22:28:55.07	88.79	22.63	-45.1	-46.4	20.6	0.00e+00	0	43	0	692060160	61	4254
2026-01-23 22:28:56.06	89.06	22.61	-45.2	-46.5	20.4	0.00e+00	0	43	0	694157312	61	4324
2026-01-23 22:28:57.04	89.32	22.60	-45.4	-46.7	20.3	0.00e+00	0	43	0	696254464	61	4399
2026-01-23 22:28:58.02	89.59	22.58	-45.4	-46.7	20.2	0.00e+00	0	43	0	698351616	61	4434
2026-01-23 22:28:59.01	89.85	22.57	-45.5	-46.8	20.2	0.00e+00	0	43	0	700448768	61	4464
2026-01-23 22:29:00.00	90.12	22.55	-45.3	-46.6	20.4	0.00e+00	0	43	0	701497344	61	4345
2026-01-23 22:29:01.01	90.39	22.53	-45.0	-46.2	20.7	0.00e+00	0	43	0	703594496	61	4176
2026-01-23 22:29:02.02	90.66	22.52	-45.1	-46.4	20.5	0.00e+00	0	43	0	705691648	61	4257
2026-01-23 22:29:03.02	90.93	22.50	-45.1	-46.3	20.6	0.00e+00	0	43	0	707788800	61	4221
2026-01-23 22:29:04.03	91.20	22.48	-45.4	-46.7	20.3	0.00e+00	0	43	0	709885952	61	4413
2026-01-23 22:29:05.04	91.47	22.46	-45.5	-46.8	20.2	0.00e+00	0	43	0	710934528	61	4471
2026-01-23 22:29:06.05	91.74	22.44	-45.8	-47.1	19.9	0.00e+00	0	43	0	713031680	62	4391
2026-01-23 22:29:07.05	92.01	22.42	-45.7	-47.0	20.0	0.00e+00	0	43	0	715128832	62	4319
2026-01-23 22:29:08.06	92.28	22.39	-45.5	-46.8	20.3	0.00e+00	0	43	0	717225984	62	4219
2026-01-23 22:29:09.07	92.55	22.37	-45.2	-46.4	20.6	0.00e+00	0	43	0	718274560	62	4039
2026-01-23 22:29:10.08	92.82	22.35	-44.7	-45.8	21.2	0.00e+00	0	43	0	720371712	61	4000
2026-01-23 22:29:11.09	93.09	22.32	-44.8	-46.0	21.2	0.00e+00	0	43	0	722468864	61	4074
2026-01-23 22:29:12.09	93.35	22.30	-44.8	-46.0	21.1	0.00e+00	0	43	0	724566016	61	4052
2026-01-23 22:29:13.10	93.62	22.27	-44.8	-46.0	21.1	0.00e+00	0	43	0	726663168	61	4059
2026-01-23 22:29:14.11	93.88	22.25	-44.7	-45.9	21.1	0.00e+00	0	43	0	728760320	61	4034
2026-01-23 22:29:15.12	94.15	22.22	-44.6	-45.7	21.3	0.00e+00	0	43	0	729808896	61	3951
2026-01-23 22:29:16.13	94.42	22.20	-44.2	-45.3	21.6	0.00e+00	0	43	0	731906048	60	3987
2026-01-23 22:29:17.13	94.68	22.17	-44.3	-45.4	21.6	0.00e+00	0	43	0	734003200	60	4013
2026-01-23 22:29:18.14	94.95	22.14	-44.1	-45.2	21.7	0.00e+00	0	43	0	736100352	60	3945
2026-01-23 22:29:19.15	95.21	22.11	-44.2	-45.3	21.5	0.00e+00	0	43	0	738197504	60	4004
2026-01-23 22:29:20.16	95.47	22.08	-44.2	-45.4	21.5	0.00e+00	0	43	0	739246080	60	4008
2026-01-23 22:29:21.17	95.74	22.05	-44.4	-45.5	21.3	0.00e+00	0	43	0	741343232	60	4095
2026-01-23 22:29:22.17	96.00	22.02	-44.5	-45.7	21.3	0.00e+00	0	43	0	743440384	60	4148
2026-01-23 22:29:23.18	96.26	21.99	-44.4	-45.6	21.3	0.00e+00	0	43	0	745537536	60	4101
2026-01-23 22:29:24.19	96.52	21.96	-44.4	-45.6	21.3	0.00e+00	0	43	0	746586112	60	4116
2026-01-23 22:29:25.20	96.79	21.93	-44.4	-45.5	21.3	0.00e+00	0	43	0	748683264	60	4088
2026-01-23 22:29:26.20	97.04	21.90	-44.5	-45.7	21.3	0.00e+00	0	43	0	750780416	60	4147
2026-01-23 22:29:27.21	97.31	21.86	-44.5	-45.7	21.2	0.00e+00	0	43	0	752877568	60	4146
2026-01-23 22:29:28.22	97.57	21.83	-44.5	-45.7	21.3	0.00e+00	0	43	0	754974720	60	4164
2026-01-23 22:29:29.23	97.83	21.79	-44.5	-45.7	21.2	0.00e+00	0	43	0	757071872	60	4152
2026-01-23 22:29:30.24	98.08	21.76	-44.7	-45.9	21.1	0.00e+00	0	43	0	758120448	60	4246
2026-01-23 22:29:31.25	98.34	21.72	-44.6	-45.7	21.2	0.00e+00	0	43	0	760217600	60	4178
2026-01-23 22:29:32.25	98.60	21.69	-44.4	-45.5	21.4	0.00e+00	0	43	0	762314752	60	4080
2026-01-23 22:29:33.24	98.85	21.65	-44.2	-45.4	21.5	0.00e+00	0	43	0	764411904	60	4008
2026-01-23 22:29:34.24	99.10	21.62	-44.2	-45.3	21.5	0.00e+00	0	43	0	766509056	60	4001
2026-01-23 22:29:35.24	99.36	21.58	-44.1	-45.2	21.6	0.00e+00	0	43	0	767557632	60	3946
2026-01-23 22:29:36.25	99.61	21.54	-44.4	-45.6	21.6	0.00e+00	0	43	0	769654784	59	4356
2026-01-23 22:29:37.26	99.87	21.50	-44.5	-45.6	21.5	0.00e+00	0	43	0	771751936	59	4371
2026-01-23 22:29:38.26	100.12	21.46	-44.4	-45.5	21.7	0.00e+00	0	43	0	773849088	59	4326
2026-01-23 22:29:39.26	100.37	21.43	-44.3	-45.4	21.8	0.00e+00	0	43	0	774897664	59	4275
2026-01-23 22:29:40.27	100.62	21.39	-44.1	-45.2	21.9	0.00e+00	0	43	0	776994816	59	4165
2026-01-23 22:29:41.28	100.88	21.35	-44.1	-45.2	22.0	0.00e+00	0	43	0	779091968	59	4165
2026-01-23 22:29:42.28	101.13	21.30	-44.3	-45.4	21.9	0.00e+00	0	43	0	781189120	59	4277
2026-01-23 22:29:43.29	101.38	21.26	-44.4	-45.5	21.8	0.00e+00	0	43	0	783286272	59	4304
2026-01-23 22:29:44.30	101.63	21.22	-44.5	-45.6	21.6	0.00e+00	0	43	0	785383424	59	4372
2026-01-23 22:29:45.31	101.88	21.18	-44.6	-45.7	21.4	0.00e+00	0	43	0	786432000	59	4440
2026-01-23 22:29:46.31	102.12	21.14	-44.3	-45.5	21.4	0.00e+00	0	43	0	788529152	60	4065
2026-01-23 22:29:47.32	102.37	21.09	-44.5	-45.7	21.4	0.00e+00	0	43	0	790626304	60	4150
2026-01-23 22:29:48.32	102.62	21.05	-44.7	-45.9	21.1	0.00e+00	0	44	0	792723456	60	4281
2026-01-23 22:29:49.33	102.87	21.01	-44.7	-45.9	21.3	0.00e+00	0	43	0	794820608	60	4243
2026-01-23 22:29:50.34	103.11	20.96	-44.5	-45.6	21.4	0.00e+00	0	43	0	795869184	60	4131
2026-01-23 22:29:51.34	103.36	20.92	-44.3	-45.4	21.7	0.00e+00	0	43	0	797966336	60	4033
2026-01-23 22:29:52.34	103.60	20.87	-44.5	-45.6	21.4	0.00e+00	0	43	0	800063488	60	4121
2026-01-23 22:29:53.35	103.84	20.83	-44.4	-45.6	21.3	0.00e+00	0	43	0	802160640	60	4103
2026-01-23 22:29:54.35	104.08	20.78	-44.6	-45.8	21.1	0.00e+00	0	43	0	803209216	60	4231
2026-01-23 22:29:55.36	104.33	20.73	-44.7	-46.0	21.0	0.00e+00	0	43	0	805306368	60	4292
2026-01-23 22:29:56.36	104.57	20.69	-44.8	-46.1	20.9	0.00e+00	0	44	0	807403520	60	4352
2026-01-23 22:29:57.37	104.81	20.64	-44.7	-45.9	20.9	0.00e+00	0	44	0	809500672	60	4275
2026-01-23 22:29:58.37	105.05	20.59	-44.5	-45.6	21.2	0.00e+00	0	43	0	811597824	60	4139
2026-01-23 22:29:59.38	105.29	20.54	-44.5	-45.6	21.2	0.00e+00	0	44	0	812646400	60	4141
2026-01-23 22:30:00.39	105.53	20.49	-44.5	-45.6	21.3	0.00e+00	0	43	0	814743552	60	4140
2026-01-23 22:30:01.39	105.76	20.44	-44.5	-45.6	21.4	0.00e+00	0	44	0	816840704	60	4132
2026-01-23 22:30:02.40	106.00	20.39	-44.3	-45.5	21.4	0.00e+00	0	43	0	818937856	60	4061
2026-01-23 22:30:03.41	106.24	20.34	-44.2	-45.3	21.5	0.00e+00	0	43	0	821035008	60	3987
2026-01-23 22:30:04.41	106.47	20.29	-44.6	-45.7	21.3	0.00e+00	0	44	0	823132160	60	4189
2026-01-23 22:30:05.42	106.71	20.24	-44.8	-46.0	21.1	0.00e+00	0	44	0	824180736	60	4292
2026-01-23 22:30:06.43	106.94	20.19	-45.0	-46.2	20.7	0.00e+00	0	43	0	826277888	60	4421
2026-01-23 22:30:07.44	107.17	20.14	-45.4	-46.7	20.3	0.00e+00	0	44	0	828375040	61	4400
2026-01-23 22:30:08.45	107.41	20.09	-45.8	-47.2	19.8	0.00e+00	0	44	0	830472192	62	4423
2026-01-23 22:30:09.45	107.64	20.04	-45.8	-47.2	19.8	0.00e+00	0	43	0	831520768	62	4433
2026-01-23 22:30:10.46	107.87	19.99	-45.7	-47.1	19.9	0.00e+00	0	44	0	833617920	62	4373
2026-01-23 22:30:11.47	108.10	19.93	-45.9	-47.3	19.7	0.00e+00	0	43	0	835715072	62	4453
2026-01-23 22:30:12.48	108.33	19.88	-45.7	-47.0	20.0	0.00e+00	0	43	0	837812224	62	4332
2026-01-23 22:30:13.49	108.56	19.83	-45.9	-47.3	19.7	0.00e+00	0	44	0	839909376	62	4487
2026-01-23 22:30:14.50	108.79	19.77	-45.8	-47.2	19.8	0.00e+00	0	44	0	842006528	62	4438
2026-01-23 22:30:15.51	109.02	19.72	-45.8	-47.1	19.9	0.00e+00	0	44	0	843055104	62	4376
2026-01-23 22:30:16.52	109.24	19.66	-45.4	-46.7	20.2	0.00e+00	0	44	0	845152256	62	4181
2026-01-23 22:30:17.52	109.47	19.61	-45.1	-46.4	20.6	0.00e+00	0	43	0	847249408	62	4021
2026-01-23 22:30:18.53	109.69	19.55	-45.0	-46.3	20.6	0.00e+00	0	44	0	849346560	61	4202
2026-01-23 22:30:19.54	109.92	19.50	-45.1	-46.4	20.5	0.00e+00	0	43	0	851443712	61	4266
2026-01-23 22:30:20.55	110.14	19.44	-45.2	-46.5	20.4	0.00e+00	0	44	0	852492288	61	4302
2026-01-23 22:30:21.56	110.37	19.38	-45.2	-46.5	20.4	0.00e+00	0	44	0	854589440	61	4309
2026-01-23 22:30:22.57	110.59	19.33	-45.5	-46.8	20.0	0.00e+00	0	43	0	856686592	61	4493
2026-01-23 22:30:23.57	110.81	19.27	-45.4	-46.8	20.2	0.00e+00	0	43	0	858783744	61	4445
2026-01-23 22:30:24.58	111.03	19.22	-45.3	-46.6	20.3	0.00e+00	0	44	0	859832320	61	4383
2026-01-23 22:30:25.59	111.25	19.16	-45.5	-46.8	20.1	0.00e+00	0	44	0	861929472	61	4473
2026-01-23 22:30:26.60	111.47	19.10	-45.3	-46.6	20.3	0.00e+00	0	44	0	864026624	61	4369
2026-01-23 22:30:27.61	111.69	19.04	-45.4	-46.7	20.2	0.00e+00	0	44	0	866123776	61	4414
2026-01-23 22:30:28.62	111.90	18.98	-45.5	-46.9	20.0	0.00e+00	0	44	0	868220928	61	4505
2026-01-23 22:30:29.63	112.12	18.93	-45.9	-47.3	19.6	0.00e+00	0	44	0	870318080	62	4452
2026-01-23 22:30:30.63	112.33	18.87	-46.2	-47.7	19.3	0.00e+00	0	44	0	871366656	62	4662
2026-01-23 22:30:31.64	112.55	18.81	-46.7	-48.3	18.7	0.00e+00	0	44	0	873463808	63	4732
2026-01-23 22:30:32.65	112.76	18.75	-46.7	-48.4	18.7	0.00e+00	0	44	0	875560960	63	4765
2026-01-23 22:30:33.66	112.98	18.69	-46.6	-48.2	18.6	0.00e+00	0	44	0	877658112	64	4407
2026-01-23 22:30:34.67	113.19	18.63	-46.1	-47.6	19.1	0.00e+00	0	44	0	879755264	64	4137
2026-01-23 22:30:35.67	113.40	18.57	-46.0	-47.4	19.5	0.00e+00	0	44	0	880803840	63	4280
2026-01-23 22:30:36.68	113.61	18.51	-45.7	-47.0	19.8	0.00e+00	0	44	0	882900992	63	4092
2026-01-23 22:30:37.69	113.82	18.45	-45.6	-46.9	19.9	0.00e+00	0	44	0	884998144	63	4048
2026-01-23 22:30:38.70	114.03	18.39	-45.6	-46.9	19.9	0.00e+00	0	44	0	887095296	62	4286
2026-01-23 22:30:39.71	114.24	18.33	-45.9	-47.3	19.6	0.00e+00	0	44	0	889192448	62	4458
2026-01-23 22:30:40.71	114.44	18.27	-45.9	-47.4	19.5	0.00e+00	0	44	0	890241024	62	4519
2026-01-23 22:30:41.72	114.65	18.21	-46.2	-47.8	19.2	0.00e+00	0	44	0	892338176	63	4443
2026-01-23 22:30:42.73	114.86	18.15	-46.2	-47.8	19.1	0.00e+00	0	44	0	894435328	63	4447
2026-01-23 22:30:43.74	115.06	18.09	-46.5	-48.1	18.9	0.00e+00	0	44	0	896532480	63	4599
2026-01-23 22:30:44.74	115.27	18.02	-46.3	-47.8	19.0	0.00e+00	0	43	0	898629632	63	4492
2026-01-23 22:30:45.75	115.47	17.96	-46.1	-47.6	19.3	0.00e+00	0	44	0	899678208	63	4345
2026-01-23 22:30:46.76	115.67	17.90	-45.9	-47.4	19.5	0.00e+00	0	44	0	901775360	63	4245
2026-01-23 22:30:47.77	115.87	17.84	-45.8	-47.2	19.7	0.00e+00	0	44	0	903872512	63	4174
2026-01-23 22:30:48.78	116.08	17.77	-46.1	-47.5	19.3	0.00e+00	0	44	0	905969664	63	4335
2026-01-23 22:30:49.79	116.28	17.71	-45.9	-47.3	19.5	0.00e+00	0	44	0	908066816	63	4230
2026-01-23 22:30:50.79	116.47	17.65	-46.0	-47.5	19.4	0.00e+00	0	44	0	909115392	63	4299
2026-01-23 22:30:51.80	116.67	17.59	-46.0	-47.5	19.3	0.00e+00	0	44	0	911212544	63	4332
2026-01-23 22:30:52.81	116.87	17.52	-45.6	-47.0	19.7	0.00e+00	0	44	0	913309696	63	4070
2026-01-23 22:30:53.82	117.07	17.46	-45.5	-46.9	19.9	0.00e+00	0	44	0	915406848	63	4033
2026-01-23 22:30:54.83	117.26	17.40	-45.4	-46.7	20.0	0.00e+00	0	44	0	917504000	62	4178
2026-01-23 22:30:55.83	117.46	17.33	-45.4	-46.8	20.0	0.00e+00	0	44	0	918552576	62	4209
2026-01-23 22:30:56.84	117.65	17.27	-45.5	-46.9	19.9	0.00e+00	0	44	0	920649728	62	4269
2026-01-23 22:30:57.85	117.85	17.21	-45.6	-47.0	19.8	0.00e+00	0	44	0	922746880	62	4324
2026-01-23 22:30:58.86	118.04	17.14	-46.0	-47.5	19.3	0.00e+00	0	44	0	924844032	62	4549
2026-01-23 22:30:59.86	118.23	17.08	-46.0	-47.5	19.3	0.00e+00	0	44	0	926941184	62	4570
2026-01-23 22:31:00.87	118.42	17.01	-46.1	-47.6	19.2	0.00e+00	0	44	0	927989760	62	4629
2026-01-23 22:31:01.88	118.61	16.95	-45.8	-47.3	19.5	0.00e+00	0	44	0	930086912	62	4454
2026-01-23 22:31:02.89	118.80	16.88	-45.4	-46.7	20.0	0.00e+00	0	44	0	932184064	62	4187
2026-01-23 22:31:03.90	118.99	16.82	-45.0	-46.3	20.4	0.00e+00	0	44	0	934281216	61	4197
2026-01-23 22:31:04.90	119.18	16.75	-44.6	-45.8	20.7	0.00e+00	0	44	0	936378368	61	3984
2026-01-23 22:31:05.91	119.37	16.69	-44.9	-46.1	20.5	0.00e+00	0	44	0	938475520	61	4142
2026-01-23 22:31:06.92	119.56	16.62	-44.9	-46.2	20.5	0.00e+00	0	44	0	939524096	61	4164
2026-01-23 22:31:07.93	119.74	16.56	-45.1	-46.3	20.3	0.00e+00	0	43	0	941621248	61	4242
2026-01-23 22:31:08.94	119.93	16.49	-45.3	-46.7	20.0	0.00e+00	0	44	0	943718400	61	4400
2026-01-23 22:31:09.95	120.11	16.43	-45.4	-46.8	19.9	0.00e+00	0	44	0	945815552	61	4470
2026-01-23 22:31:10.95	120.29	16.36	-45.8	-47.3	19.6	0.00e+00	0	44	0	946864128	62	4453
2026-01-23 22:31:11.96	120.48	16.30	-45.6	-47.0	19.6	0.00e+00	0	44	0	948961280	62	4338
2026-01-23 22:31:12.97	120.66	16.23	-45.5	-46.8	19.9	0.00e+00	0	44	0	951058432	62	4237
2026-01-23 22:31:13.98	120.84	16.17	-45.7	-47.2	19.5	0.00e+00	0	44	0	953155584	62	4392
2026-01-23 22:31:14.99	121.02	16.10	-45.7	-47.1	19.6	0.00e+00	0	44	0	955252736	62	4373
2026-01-23 22:31:16.00	121.20	16.03	-46.1	-47.6	19.2	0.00e+00	0	44	0	957349888	62	4618
2026-01-23 22:31:17.01	121.38	15.97	-46.1	-47.7	19.1	0.00e+00	0	44	0	958398464	63	4413
2026-01-23 22:31:18.01	121.56	15.90	-46.3	-47.8	18.9	0.00e+00	0	44	0	960495616	63	4487
2026-01-23 22:31:19.02	121.74	15.84	-46.4	-48.1	18.7	0.00e+00	0	44	0	962592768	63	4599
2026-01-23 22:31:20.03	121.91	15.77	-46.1	-47.6	19.1	0.00e+00	0	44	0	964689920	63	4359
2026-01-23 22:31:21.04	122.09	15.70	-45.7	-47.2	19.5	0.00e+00	0	44	0	966787072	63	4165
2026-01-23 22:31:22.05	122.26	15.64	-45.4	-46.8	19.9	0.00e+00	0	44	0	967835648	62	4195
2026-01-23 22:31:23.06	122.44	15.57	-44.9	-46.2	20.3	0.00e+00	0	44	0	969932800	61	4174
2026-01-23 22:31:24.07	122.61	15.50	-44.9	-46.1	20.4	0.00e+00	0	44	0	972029952	61	4135
2026-01-23 22:31:25.07	122.78	15.44	-44.7	-45.9	20.6	0.00e+00	0	44	0	974127104	61	4048
2026-01-23 22:31:26.08	122.96	15.37	-44.9	-46.2	20.3	0.00e+00	0	44	0	975175680	61	4156
2026-01-23 22:31:27.09	123.13	15.30	-45.0	-46.3	20.3	0.00e+00	0	44	0	977272832	61	4202
2026-01-23 22:31:28.10	123.30	15.24	-45.4	-46.8	19.8	0.00e+00	0	44	0	979369984	61	4455
2026-01-23 22:31:29.11	123.47	15.17	-45.5	-47.0	19.6	0.00e+00	0	44	0	981467136	61	4560
2026-01-23 22:31:30.11	123.64	15.10	-45.6	-47.0	19.6	0.00e+00	0	44	0	983564288	61	4567
2026-01-23 22:31:31.12	123.81	15.04	-45.5	-47.0	19.6	0.00e+00	0	44	0	985661440	61	4557
2026-01-23 22:31:32.13	123.97	14.97	-45.2	-46.6	20.0	0.00e+00	0	44	0	986710016	61	4349
2026-01-23 22:31:33.14	124.14	14.90	-45.0	-46.3	20.3	0.00e+00	0	44	0	988807168	61	4196
2026-01-23 22:31:34.15	124.31	14.83	-44.7	-45.9	20.5	0.00e+00	0	44	0	990904320	61	4038
2026-01-23 22:31:35.15	124.47	14.77	-44.6	-45.8	20.6	0.00e+00	0	44	0	993001472	61	3983
2026-01-23 22:31:36.16	124.64	14.70	-44.6	-45.8	20.5	0.00e+00	0	44	0	995098624	61	3987
2026-01-23 22:31:37.17	124.80	14.63	-44.6	-45.8	20.6	0.00e+00	0	44	0	996147200	61	3984
2026-01-23 22:31:38.18	124.97	14.57	-44.9	-46.2	20.3	0.00e+00	0	44	0	998244352	61	4180
2026-01-23 22:31:39.19	125.13	14.50	-45.0	-46.3	20.2	0.00e+00	0	44	0	1000341504	61	4208
2026-01-23 22:31:40.19	125.29	14.43	-45.2	-46.5	19.9	0.00e+00	0	44	0	1002438656	61	4331
2026-01-23 22:31:41.20	125.45	14.36	-45.2	-46.6	19.9	0.00e+00	0	44	0	1004535808	61	4353
2026-01-23 22:31:42.21	125.61	14.30	-45.4	-46.9	19.7	0.00e+00	0	44	0	1005584384	61	4501
2026-01-23 22:31:43.22	125.77	14.23	-45.4	-46.8	19.7	0.00e+00	0	44	0	1007681536	61	4453
2026-01-23 22:31:44.23	125.93	14.16	-45.3	-46.7	19.7	0.00e+00	0	44	0	1009778688	61	4432
2026-01-23 22:31:45.23	126.09	14.10	-45.3	-46.7	19.8	0.00e+00	0	44	0	1011875840	61	4397
2026-01-23 22:31:46.24	126.25	14.03	-45.6	-47.0	19.5	0.00e+00	0	44	0	1013972992	61	4582
2026-01-23 22:31:47.25	126.40	13.96	-45.7	-47.2	19.3	0.00e+00	0	44	0	1015021568	62	4401
2026-01-23 22:31:48.26	126.56	13.89	-46.1	-47.7	18.8	0.00e+00	0	44	0	1017118720	62	4682
2026-01-23 22:31:49.27	126.72	13.83	-46.2	-47.8	18.7	0.00e+00	0	44	0	1019215872	62	4734
2026-01-23 22:31:50.27	126.87	13.76	-46.4	-48.1	18.5	0.00e+00	0	44	0	1021313024	63	4606
2026-01-23 22:31:51.28	127.03	13.69	-46.3	-48.0	18.4	0.00e+00	0	44	0	1023410176	63	4581
2026-01-23 22:31:52.29	127.18	13.62	-46.2	-47.9	18.6	0.00e+00	0	44	0	1024458752	63	4506
2026-01-23 22:31:53.30	127.33	13.56	-46.0	-47.6	18.9	0.00e+00	0	44	0	1026555904	63	4376
2026-01-23 22:31:54.30	127.48	13.49	-46.2	-47.8	18.7	0.00e+00	0	44	0	1028653056	63	4475
2026-01-23 22:31:55.31	127.64	13.42	-45.9	-47.5	19.0	0.00e+00	0	43	0	1030750208	63	4314
2026-01-23 22:31:56.32	127.79	13.35	-45.9	-47.4	19.0	0.00e+00	0	44	0	1032847360	63	4264
2026-01-23 22:31:57.33	127.94	13.29	-46.0	-47.5	18.9	0.00e+00	0	44	0	1033895936	63	4325
2026-01-23 22:31:58.34	128.09	13.22	-45.9	-47.5	19.0	0.00e+00	0	44	0	1035993088	63	4310
2026-01-23 22:31:59.35	128.24	13.15	-46.0	-47.6	18.9	0.00e+00	0	44	0	1038090240	63	4345
2026-01-23 22:32:00.35	128.38	13.09	-46.1	-47.7	18.7	0.00e+00	0	44	0	1040187392	63	4426
2026-01-23 22:32:01.36	128.53	13.02	-46.4	-48.1	18.3	0.00e+00	0	44	0	1042284544	63	4635
2026-01-23 22:32:02.37	128.68	12.95	-46.5	-48.2	18.3	0.00e+00	0	44	0	1043333120	63	4683
2026-01-23 22:32:03.38	128.83	12.88	-46.4	-48.1	18.3	0.00e+00	0	44	0	1045430272	63	4626
2026-01-23 22:32:04.38	128.97	12.82	-46.2	-47.9	18.5	0.00e+00	0	44	0	1047527424	63	4526
2026-01-23 22:32:05.39	129.12	12.75	-46.0	-47.6	18.8	0.00e+00	0	44	0	1049624576	63	4385
2026-01-23 22:32:06.40	129.26	12.68	-45.9	-47.5	18.8	0.00e+00	0	44	0	1051721728	63	4331
2026-01-23 22:32:07.41	129.41	12.61	-45.9	-47.4	18.9	0.00e+00	0	43	0	1052770304	63	4282
2026-01-23 22:32:08.42	129.55	12.55	-46.0	-47.6	18.8	0.00e+00	0	44	0	1054867456	63	4342
2026-01-23 22:32:09.43	129.69	12.48	-46.1	-47.7	18.7	0.00e+00	0	44	0	1056964608	63	4401
2026-01-23 22:32:10.43	129.83	12.41	-46.2	-47.9	18.4	0.00e+00	0	44	0	1059061760	63	4525
2026-01-23 22:32:11.44	129.97	12.35	-46.2	-47.9	18.5	0.00e+00	0	44	0	1061158912	63	4514
2026-01-23 22:32:12.45	130.12	12.28	-46.5	-48.3	18.2	0.00e+00	0	44	0	1062207488	63	4714
2026-01-23 22:32:13.46	130.26	12.21	-46.6	-48.3	18.0	0.00e+00	0	44	0	1064304640	63	4753
2026-01-23 22:32:14.47	130.40	12.14	-46.4	-48.1	18.2	0.00e+00	0	44	0	1066401792	64	4369
2026-01-23 22:32:15.48	130.53	12.08	-46.5	-48.2	18.0	0.00e+00	0	44	0	1068498944	64	4438
2026-01-23 22:32:16.48	130.67	12.01	-46.0	-47.7	18.5	0.00e+00	0	44	0	1070596096	64	4163
2026-01-23 22:32:17.49	130.81	11.94	-45.8	-47.4	18.9	0.00e+00	0	44	0	1072693248	63	4268
2026-01-23 22:32:18.50	130.95	11.88	-45.7	-47.3	19.0	0.00e+00	0	44	0	1073741824	63	4194
2026-01-23 22:32:19.51	131.08	11.81	-45.6	-47.1	19.1	0.00e+00	0	44	0	1075838976	63	4128
2026-01-23 22:32:20.52	131.22	11.74	-45.4	-46.9	19.3	0.00e+00	0	44	0	1077936128	62	4252
2026-01-23 22:32:21.53	131.36	11.68	-45.4	-46.8	19.4	0.00e+00	0	44	0	1080033280	62	4230
2026-01-23 22:32:22.53	131.49	11.61	-45.2	-46.6	19.6	0.00e+00	0	44	0	1081081856	62	4135
2026-01-23 22:32:23.54	131.62	11.54	-45.2	-46.6	19.6	0.00e+00	0	44	0	1083179008	62	4109
2026-01-23 22:32:24.55	131.76	11.48	-45.2	-46.6	19.6	0.00e+00	0	44	0	1085276160	62	4128
2026-01-23 22:32:25.56	131.89	11.41	-45.4	-46.8	19.4	0.00e+00	0	44	0	1087373312	62	4222
2026-01-23 22:32:26.57	132.02	11.34	-45.4	-46.9	19.3	0.00e+00	0	44	0	1089470464	62	4273
2026-01-23 22:32:27.57	132.15	11.28	-45.5	-46.9	19.3	0.00e+00	0	44	0	1090519040	62	4285
2026-01-23 22:32:28.58	132.29	11.21	-45.5	-47.0	19.2	0.00e+00	0	44	0	1092616192	62	4339
2026-01-23 22:32:29.59	132.42	11.14	-45.8	-47.3	18.9	0.00e+00	0	44	0	1094713344	62	4492
2026-01-23 22:32:30.60	132.55	11.08	-45.7	-47.2	19.0	0.00e+00	0	44	0	1096810496	62	4428
2026-01-23 22:32:31.61	132.68	11.01	-45.8	-47.4	18.8	0.00e+00	0	44	0	1098907648	62	4515
2026-01-23 22:32:32.61	132.80	10.95	-45.7	-47.2	19.0	0.00e+00	0	44	0	1101004800	62	4413
2026-01-23 22:32:33.62	132.93	10.88	-45.7	-47.3	19.0	0.00e+00	0	44	0	1102053376	62	4454
2026-01-23 22:32:34.63	133.06	10.81	-45.8	-47.4	18.9	0.00e+00	0	44	0	1104150528	62	4505
2026-01-23 22:32:35.64	133.19	10.75	-45.5	-47.0	19.1	0.00e+00	0	44	0	1106247680	62	4340
2026-01-23 22:32:36.65	133.32	10.68	-45.7	-47.2	19.0	0.00e+00	0	44	0	1108344832	62	4414
2026-01-23 22:32:37.65	133.44	10.62	-45.9	-47.5	18.7	0.00e+00	0	44	0	1109393408	62	4581
2026-01-23 22:32:38.66	133.57	10.55	-46.1	-47.8	18.5	0.00e+00	0	44	0	1111490560	62	4710
2026-01-23 22:32:39.67	133.69	10.48	-46.2	-47.9	18.4	0.00e+00	0	44	0	1113587712	62	4781
2026-01-23 22:32:40.68	133.82	10.42	-46.4	-48.1	18.1	0.00e+00	0	44	0	1115684864	63	4644
2026-01-23 22:32:41.68	133.94	10.35	-46.3	-48.0	18.3	0.00e+00	0	44	0	1117782016	63	4548
2026-01-23 22:32:42.69	134.06	10.29	-46.3	-48.0	18.3	0.00e+00	0	44	0	1118830592	63	4566
2026-01-23 22:32:43.70	134.19	10.22	-46.2	-47.9	18.4	0.00e+00	0	44	0	1120927744	63	4526
2026-01-23 22:32:44.71	134.31	10.16	-46.3	-48.0	18.3	0.00e+00	0	44	0	1123024896	63	4571
2026-01-23 22:32:45.72	134.43	10.09	-46.2	-47.9	18.4	0.00e+00	0	44	0	1125122048	63	4531
2026-01-23 22:32:46.73	134.55	10.02	-46.1	-47.8	18.5	0.00e+00	0	44	0	1127219200	63	4451
2026-01-23 22:32:47.73	134.67	9.96	-46.1	-47.7	18.5	0.00e+00	0	44	0	1129316352	63	4427
2026-01-23 22:32:48.74	134.79	9.89	-45.9	-47.5	18.7	0.00e+00	0	44	0	1130364928	63	4300
2026-01-23 22:32:49.75	134.91	9.83	-45.9	-47.5	18.7	0.00e+00	0	44	0	1132462080	63	4323
2026-01-23 22:32:50.75	135.03	9.76	-45.9	-47.5	18.7	0.00e+00	0	44	0	1134559232	63	4315
2026-01-23 22:32:51.76	135.15	9.70	-45.7	-47.2	19.0	0.00e+00	0	44	0	1136656384	63	4174
2026-01-23 22:32:52.77	135.27	9.63	-45.9	-47.5	18.8	0.00e+00	0	44	0	1137704960	63	4299
2026-01-23 22:32:53.78	135.39	9.57	-46.2	-47.8	18.4	0.00e+00	0	44	0	1139802112	63	4489
2026-01-23 22:32:54.79	135.51	9.50	-45.9	-47.5	18.7	0.00e+00	0	44	0	1141899264	63	4297
2026-01-23 22:32:55.79	135.62	9.44	-45.9	-47.4	18.7	0.00e+00	0	44	0	1143996416	63	4285
2026-01-23 22:32:56.80	135.74	9.37	-46.1	-47.8	18.4	0.00e+00	0	44	0	1146093568	63	4448
2026-01-23 22:32:57.81	135.85	9.31	-46.3	-48.0	18.1	0.00e+00	0	44	0	1148190720	63	4577
2026-01-23 22:32:58.82	135.97	9.24	-46.3	-48.0	18.1	0.00e+00	0	44	0	1149239296	63	4584
2026-01-23 22:32:59.83	136.08	9.18	-46.4	-48.1	18.1	0.00e+00	0	44	0	1151336448	63	4620
2026-01-23 22:33:00.83	136.20	9.12	-46.4	-48.2	17.9	0.00e+00	0	44	0	1153433600	63	4675
2026-01-23 22:33:01.84	136.31	9.05	-46.5	-48.3	17.7	0.00e+00	0	44	0	1155530752	64	4468
2026-01-23 22:33:02.85	136.43	8.99	-46.4	-48.3	17.8	0.00e+00	0	44	0	1157627904	64	4443
2026-01-23 22:33:03.86	136.54	8.92	-46.4	-48.2	17.8	0.00e+00	0	44	0	1158676480	64	4403
2026-01-23 22:33:04.87	136.65	8.86	-46.7	-48.6	17.4	0.00e+00	0	44	0	1160773632	64	4643
2026-01-23 22:33:05.87	136.76	8.79	-46.4	-48.3	17.7	0.00e+00	0	44	0	1162870784	64	4443
2026-01-23 22:33:06.88	136.87	8.73	-46.6	-48.6	17.5	0.00e+00	0	44	0	1164967936	64	4603
2026-01-23 22:33:07.89	136.99	8.67	-46.7	-48.6	17.4	0.00e+00	0	44	0	1166016512	64	4627
2026-01-23 22:33:08.89	137.09	8.60	-46.5	-48.3	17.7	0.00e+00	0	44	0	1168113664	64	4475
2026-01-23 22:33:09.90	137.21	8.54	-46.4	-48.2	17.8	0.00e+00	0	44	0	1170210816	64	4410
2026-01-23 22:33:10.91	137.32	8.47	-46.5	-48.4	17.6	0.00e+00	0	44	0	1172307968	64	4506
2026-01-23 22:33:11.92	137.42	8.41	-46.8	-48.7	17.3	0.00e+00	0	44	0	1174405120	64	4701
2026-01-23 22:33:12.93	137.53	8.35	-46.8	-48.8	17.1	0.00e+00	0	44	0	1176502272	64	4759
2026-01-23 22:33:13.93	137.64	8.28	-46.4	-48.2	17.7	0.00e+00	0	44	0	1177550848	64	4425
2026-01-23 22:33:14.94	137.75	8.22	-46.1	-47.8	18.1	0.00e+00	0	44	0	1179648000	64	4219
2026-01-23 22:33:15.95	137.86	8.16	-46.4	-48.3	17.7	0.00e+00	0	44	0	1181745152	63	4731
2026-01-23 22:33:16.96	137.96	8.09	-46.3	-48.1	17.8	0.00e+00	0	44	0	1183842304	63	4648
2026-01-23 22:33:17.96	138.07	8.03	-46.3	-48.2	17.9	0.00e+00	0	44	0	1185939456	63	4663
2026-01-23 22:33:18.97	138.18	7.97	-46.3	-48.2	17.7	0.00e+00	0	44	0	1186988032	63	4669
2026-01-23 22:33:19.98	138.28	7.90	-46.5	-48.4	17.6	0.00e+00	0	44	0	1189085184	63	4792
2026-01-23 22:33:20.99	138.39	7.84	-46.5	-48.4	17.6	0.00e+00	0	44	0	1191182336	63	4787
2026-01-23 22:33:21.99	138.49	7.78	-46.1	-47.8	18.2	0.00e+00	0	44	0	1193279488	63	4475
2026-01-23 22:33:23.00	138.59	7.72	-46.0	-47.7	18.2	0.00e+00	0	44	0	1195376640	63	4417
2026-01-23 22:33:24.01	138.70	7.65	-46.0	-47.8	18.2	0.00e+00	0	44	0	1196425216	63	4446
2026-01-23 22:33:25.02	138.80	7.59	-46.1	-47.9	18.1	0.00e+00	0	44	0	1198522368	63	4494
2026-01-23 22:33:26.03	138.91	7.53	-46.1	-47.9	18.0	0.00e+00	0	44	0	1200619520	63	4521
2026-01-23 22:33:27.03	139.01	7.46	-46.0	-47.7	18.2	0.00e+00	0	44	0	1202716672	63	4422
2026-01-23 22:33:28.04	139.11	7.40	-46.0	-47.7	18.3	0.00e+00	0	44	0	1204813824	63	4398
2026-01-23 22:33:29.05	139.21	7.34	-46.3	-48.1	17.9	0.00e+00	0	44	0	1205862400	63	4611
