passes_logs/2026/01/23/R3.2S_Murmansk/R3.2S_Murmansk__20260123_063023_NOAA_21_JPSS-2_rec.log

#Pass ID: 20260123_063023_NOAA 21 (JPSS-2)
#Satellite: NOAA 21 (JPSS-2)
#Configuration: NOAA-21
#almurnet v.1.7.20251203
#Start time: 2026-01-23 06:30:23

#Version: 2.2.20231116
#Station: R3.2S_Murmansk
#Location: 33.079688 lon 68.888172 lat
#TLE: 1 54234U 22150A   26022.41365820  .00000211  00000+0  12084-3 0  9990
#TLE: 2 54234  98.7507 323.2240 0000658 234.5287 125.5828 14.19537645165864

#Time	Az	El	Level	Level2	SNR	BER	BlckErr	Temp	State	Recorded	gain1	gain2
2026-01-23 06:30:23.76	85.16	2.04	-54.5	-67.4	3.8	1.49e+00	0	41	0	0	79	16966
2026-01-23 06:30:24.77	85.10	2.10	-54.4	-67.2	3.8	1.49e+00	0	41	104	0	79	16686
2026-01-23 06:30:25.77	85.04	2.15	-54.4	-67.2	3.8	1.49e+00	0	41	104	0	79	16608
2026-01-23 06:30:26.78	84.99	2.21	-54.3	-67.1	3.8	1.49e+00	0	41	104	0	79	16325
2026-01-23 06:30:27.79	84.93	2.27	-54.3	-67.1	3.8	1.49e+00	0	41	104	0	79	16390
2026-01-23 06:30:28.80	84.87	2.33	-54.2	-67.0	3.8	1.49e+00	0	41	104	0	79	16226
2026-01-23 06:30:29.81	84.81	2.39	-54.1	-66.9	3.8	1.49e+00	0	41	104	0	79	16075
2026-01-23 06:30:30.81	84.75	2.45	-54.0	-66.8	3.8	1.49e+00	0	41	104	0	79	15905
2026-01-23 06:30:31.82	84.69	2.51	-53.9	-66.7	3.8	1.49e+00	0	41	104	0	79	15716
2026-01-23 06:30:32.83	84.64	2.57	-53.8	-66.6	3.8	1.49e+00	0	41	104	0	79	15523
2026-01-23 06:30:33.84	84.58	2.63	-53.7	-66.5	3.8	1.49e+00	0	41	104	0	79	15246
2026-01-23 06:30:34.85	84.52	2.69	-53.5	-66.3	3.8	1.49e+00	0	41	104	0	79	14942
2026-01-23 06:30:35.85	84.46	2.75	-53.3	-66.1	3.8	1.49e+00	0	41	104	0	78	15443
2026-01-23 06:30:36.86	84.40	2.81	-52.9	-65.6	3.8	1.49e+00	0	41	104	0	77	15542
2026-01-23 06:30:37.87	84.34	2.87	-52.4	-65.1	3.8	1.49e+00	0	41	104	0	76	15488
2026-01-23 06:30:38.88	84.27	2.93	-52.3	-65.0	3.8	1.49e+00	0	42	104	0	76	15399
2026-01-23 06:30:39.88	84.21	2.99	-52.3	-65.1	3.8	1.49e+00	0	41	104	0	76	15410
2026-01-23 06:30:40.89	84.15	3.05	-52.3	-65.0	3.8	1.49e+00	0	41	104	0	76	15392
2026-01-23 06:30:41.90	84.09	3.11	-52.3	-65.0	3.8	1.49e+00	0	42	104	0	76	15392
2026-01-23 06:30:42.91	84.03	3.17	-52.3	-65.0	3.8	1.49e+00	0	42	104	0	76	15355
2026-01-23 06:30:43.91	83.97	3.23	-52.3	-65.0	3.8	1.49e+00	0	42	104	0	76	15273
2026-01-23 06:30:44.92	83.90	3.29	-52.3	-64.9	3.8	1.49e+00	0	41	104	0	76	15225
2026-01-23 06:30:45.93	83.84	3.35	-52.3	-64.9	3.8	1.49e+00	0	42	104	0	76	15217
2026-01-23 06:30:46.94	83.78	3.41	-52.3	-65.0	3.8	1.49e+00	0	42	104	0	76	15253
2026-01-23 06:30:47.94	83.72	3.47	-52.3	-65.0	3.8	1.49e+00	0	42	104	0	76	15337
2026-01-23 06:30:48.95	83.65	3.54	-52.3	-65.0	3.8	1.49e+00	0	42	104	0	76	15387
2026-01-23 06:30:49.96	83.59	3.60	-52.3	-65.0	3.8	1.49e+00	0	42	104	0	76	15336
2026-01-23 06:30:50.97	83.52	3.66	-52.3	-64.9	3.8	1.49e+00	0	41	104	0	76	15061
2026-01-23 06:30:51.98	83.46	3.72	-52.2	-64.6	3.8	1.49e+00	0	42	104	0	76	14651
2026-01-23 06:30:52.98	83.40	3.78	-52.2	-64.2	3.8	1.49e+00	0	42	104	0	76	13981
2026-01-23 06:30:53.99	83.33	3.84	-52.2	-63.8	3.8	1.49e+00	0	42	104	0	76	13314
2026-01-23 06:30:55.00	83.27	3.91	-52.1	-63.4	3.8	1.49e+00	0	42	104	0	76	12760
2026-01-23 06:30:56.01	83.20	3.97	-52.1	-63.3	3.9	1.49e+00	0	42	104	0	76	12548
2026-01-23 06:30:57.02	83.13	4.03	-52.1	-63.2	3.8	1.49e+00	0	42	104	0	76	12512
2026-01-23 06:30:58.03	83.07	4.09	-52.1	-63.1	3.9	1.49e+00	0	42	104	0	76	12313
2026-01-23 06:30:59.03	83.00	4.15	-52.0	-62.1	4.1	1.47e+00	0	42	104	0	76	10951
2026-01-23 06:31:00.04	82.93	4.22	-51.9	-60.7	4.4	1.47e+00	0	42	104	0	75	9944
2026-01-23 06:31:01.05	82.87	4.28	-51.5	-58.4	5.6	5.95e-01	0	42	0	1048576	74	8057
2026-01-23 06:31:02.06	82.80	4.34	-50.9	-56.3	7.4	2.19e-01	0	42	0	4194304	73	6670
2026-01-23 06:31:03.06	82.73	4.40	-50.2	-54.4	9.3	4.39e-02	0	42	0	7340032	72	5669
2026-01-23 06:31:04.07	82.67	4.47	-49.4	-52.7	11.1	3.25e-03	0	42	0	10485760	70	5259
2026-01-23 06:31:05.08	82.60	4.53	-48.8	-51.6	12.3	1.77e-04	0	42	0	13631488	69	4919
2026-01-23 06:31:06.08	82.53	4.59	-47.9	-50.2	13.7	9.90e-06	0	42	0	16777216	67	4682
2026-01-23 06:31:07.09	82.46	4.66	-47.9	-50.3	13.6	2.05e-05	0	42	0	19922944	67	4717
2026-01-23 06:31:08.10	82.39	4.72	-47.5	-49.6	14.3	3.00e-06	0	42	0	23068672	67	4358
2026-01-23 06:31:09.11	82.32	4.78	-47.2	-49.2	14.7	0.00e+00	0	42	0	26214400	66	4404
2026-01-23 06:31:10.12	82.25	4.85	-47.6	-49.7	14.1	2.20e-06	0	42	0	29360128	66	4699
2026-01-23 06:31:11.13	82.18	4.91	-47.5	-49.6	14.3	3.00e-06	0	42	0	32505856	66	4620
2026-01-23 06:31:12.13	82.11	4.97	-47.9	-50.2	13.7	2.20e-06	0	42	0	35651584	66	4931
2026-01-23 06:31:13.14	82.04	5.04	-49.0	-52.0	11.9	2.78e-04	0	42	0	38797312	68	5437
2026-01-23 06:31:14.15	81.97	5.10	-49.4	-52.7	11.1	1.46e-03	0	42	0	41943040	69	5575
2026-01-23 06:31:15.15	81.90	5.16	-46.0	-47.5	16.6	0.00e+00	0	42	0	45088768	63	4297
2026-01-23 06:31:16.16	81.83	5.23	-52.2	-64.7	3.8	1.49e+00	0	42	104	47185920	74	16689
2026-01-23 06:31:17.17	81.75	5.29	-45.5	-46.9	17.1	0.00e+00	0	42	0	48234496	63	4007
2026-01-23 06:31:18.18	81.68	5.36	-49.9	-53.5	10.4	6.23e-03	0	42	0	50331648	70	5750
2026-01-23 06:31:19.19	81.61	5.42	-45.2	-46.5	17.5	0.00e+00	0	42	0	53477376	62	4072
2026-01-23 06:31:20.20	81.54	5.49	-45.1	-46.4	17.7	0.00e+00	0	42	0	56623104	61	4245
2026-01-23 06:31:21.20	81.46	5.55	-45.0	-46.3	17.8	0.00e+00	0	42	0	59768832	61	4194
2026-01-23 06:31:22.21	81.39	5.62	-44.9	-46.2	17.9	0.00e+00	0	42	0	62914560	61	4171
2026-01-23 06:31:23.22	81.32	5.68	-45.3	-46.6	17.5	0.00e+00	0	42	0	66060288	61	4374
2026-01-23 06:31:24.23	81.24	5.75	-45.0	-46.3	17.8	0.00e+00	0	42	0	69206016	61	4214
2026-01-23 06:31:25.24	81.17	5.81	-45.1	-46.4	17.7	0.00e+00	0	42	0	72351744	61	4273
2026-01-23 06:31:26.24	81.09	5.88	-45.1	-46.4	17.7	0.00e+00	0	42	0	75497472	61	4259
2026-01-23 06:31:27.25	81.02	5.94	-45.0	-46.3	17.8	0.00e+00	0	42	0	78643200	61	4232
2026-01-23 06:31:28.26	80.94	6.01	-45.0	-46.3	17.9	0.00e+00	0	42	0	82837504	61	4210
2026-01-23 06:31:29.27	80.86	6.07	-45.1	-46.4	17.8	0.00e+00	0	42	0	85983232	61	4287
2026-01-23 06:31:30.28	80.79	6.14	-45.0	-46.2	18.0	0.00e+00	0	42	0	89128960	61	4180
2026-01-23 06:31:31.29	80.71	6.20	-45.2	-46.5	17.8	0.00e+00	0	42	0	92274688	61	4316
2026-01-23 06:31:32.30	80.63	6.27	-45.1	-46.4	17.9	0.00e+00	0	42	0	95420416	61	4274
2026-01-23 06:31:33.30	80.56	6.34	-45.0	-46.2	18.1	0.00e+00	0	42	0	97517568	61	4179
2026-01-23 06:31:34.31	80.48	6.40	-44.8	-46.0	18.3	0.00e+00	0	42	0	100663296	61	4079
2026-01-23 06:31:35.32	80.40	6.47	-44.9	-46.1	18.2	0.00e+00	0	42	0	103809024	61	4125
2026-01-23 06:31:36.33	80.32	6.53	-44.9	-46.2	18.1	0.00e+00	0	42	0	106954752	61	4157
2026-01-23 06:31:37.33	80.24	6.60	-44.9	-46.2	18.1	0.00e+00	0	42	0	110100480	61	4159
2026-01-23 06:31:38.34	80.16	6.67	-44.8	-46.1	18.3	0.00e+00	0	42	0	113246208	61	4106
2026-01-23 06:31:39.35	80.08	6.73	-44.8	-46.0	18.4	0.00e+00	0	43	0	116391936	61	4060
2026-01-23 06:31:40.36	80.00	6.80	-44.8	-46.0	18.4	0.00e+00	0	42	0	120586240	61	4079
2026-01-23 06:31:41.37	79.92	6.87	-44.8	-45.9	18.4	0.00e+00	0	43	0	123731968	61	4050
2026-01-23 06:31:42.37	79.84	6.93	-44.8	-46.0	18.4	0.00e+00	0	43	0	126877696	61	4056
2026-01-23 06:31:43.38	79.76	7.00	-44.6	-45.8	18.5	0.00e+00	0	43	0	130023424	61	3995
2026-01-23 06:31:44.39	79.68	7.07	-44.7	-45.8	18.5	0.00e+00	0	43	0	133169152	61	3994
2026-01-23 06:31:45.40	79.60	7.14	-44.5	-45.7	18.7	0.00e+00	0	43	0	136314880	60	4164
2026-01-23 06:31:46.41	79.51	7.21	-44.6	-45.8	18.6	0.00e+00	0	43	0	139460608	60	4196
2026-01-23 06:31:47.42	79.43	7.27	-44.3	-45.4	18.9	0.00e+00	0	43	0	142606336	60	4049
2026-01-23 06:31:48.43	79.35	7.34	-44.4	-45.6	18.8	0.00e+00	0	43	0	145752064	60	4107
2026-01-23 06:31:49.43	79.26	7.41	-44.5	-45.7	18.7	0.00e+00	0	43	0	147849216	60	4165
2026-01-23 06:31:50.44	79.18	7.48	-44.5	-45.6	18.8	0.00e+00	0	43	0	150994944	60	4121
2026-01-23 06:31:51.45	79.09	7.54	-44.5	-45.6	18.7	0.00e+00	0	43	0	154140672	60	4140
2026-01-23 06:31:52.46	79.01	7.61	-44.5	-45.6	18.8	0.00e+00	0	43	0	158334976	60	4129
2026-01-23 06:31:53.47	78.92	7.68	-44.8	-46.0	18.5	0.00e+00	0	43	0	161480704	60	4301
2026-01-23 06:31:54.47	78.84	7.75	-44.7	-45.9	18.5	0.00e+00	0	43	0	164626432	60	4271
2026-01-23 06:31:55.48	78.75	7.82	-44.6	-45.8	18.7	0.00e+00	0	43	0	167772160	60	4205
2026-01-23 06:31:56.49	78.67	7.89	-44.3	-45.4	19.0	0.00e+00	0	43	0	170917888	60	4031
2026-01-23 06:31:57.50	78.58	7.96	-44.6	-45.8	18.7	0.00e+00	0	43	0	174063616	60	4208
2026-01-23 06:31:58.51	78.49	8.03	-44.6	-45.8	18.7	0.00e+00	0	42	0	177209344	60	4199
2026-01-23 06:31:59.52	78.40	8.10	-44.5	-45.6	18.9	0.00e+00	0	43	0	180355072	60	4125
2026-01-23 06:32:00.53	78.31	8.16	-44.5	-45.6	18.8	0.00e+00	0	43	0	183500800	60	4139
2026-01-23 06:32:01.53	78.23	8.23	-44.4	-45.6	18.9	0.00e+00	0	43	0	186646528	60	4109
2026-01-23 06:32:02.54	78.14	8.30	-44.5	-45.6	18.9	0.00e+00	0	43	0	189792256	60	4124
2026-01-23 06:32:03.55	78.05	8.37	-44.0	-45.1	19.4	0.00e+00	0	43	0	192937984	60	3884
2026-01-23 06:32:04.56	77.96	8.44	-44.3	-45.4	19.5	0.00e+00	0	43	0	196083712	59	4248
2026-01-23 06:32:05.57	77.87	8.51	-44.5	-45.6	19.2	0.00e+00	0	43	0	199229440	59	4382
2026-01-23 06:32:06.57	77.78	8.58	-44.5	-45.6	19.2	0.00e+00	0	43	0	202375168	59	4350
2026-01-23 06:32:07.58	77.68	8.65	-44.5	-45.6	19.2	0.00e+00	0	43	0	205520896	59	4390
2026-01-23 06:32:08.59	77.59	8.72	-44.6	-45.8	19.1	0.00e+00	0	43	0	208666624	59	4447
2026-01-23 06:32:09.60	77.50	8.79	-44.2	-45.3	19.2	0.00e+00	0	43	0	211812352	60	3960
2026-01-23 06:32:10.61	77.41	8.86	-44.4	-45.4	19.4	0.00e+00	0	43	0	214958080	59	4286
2026-01-23 06:32:11.62	77.31	8.93	-44.3	-45.4	19.4	0.00e+00	0	43	0	218103808	59	4273
2026-01-23 06:32:12.63	77.22	9.01	-44.5	-45.6	19.3	0.00e+00	0	43	0	221249536	59	4351
2026-01-23 06:32:13.64	77.13	9.08	-44.1	-45.1	19.7	0.00e+00	0	43	0	224395264	59	4127
2026-01-23 06:32:14.65	77.03	9.15	-44.1	-45.1	19.7	0.00e+00	0	42	0	227540992	59	4123
2026-01-23 06:32:15.65	76.94	9.22	-44.2	-45.2	19.6	0.00e+00	0	43	0	230686720	59	4181
2026-01-23 06:32:16.66	76.84	9.29	-44.1	-45.1	19.7	0.00e+00	0	43	0	233832448	59	4121
2026-01-23 06:32:17.67	76.74	9.36	-44.1	-45.2	19.7	0.00e+00	0	43	0	236978176	59	4169
2026-01-23 06:32:18.68	76.65	9.43	-44.0	-45.1	19.8	0.00e+00	0	43	0	240123904	59	4099
2026-01-23 06:32:19.69	76.55	9.50	-44.0	-45.0	19.8	0.00e+00	0	43	0	243269632	59	4097
2026-01-23 06:32:20.69	76.45	9.58	-44.0	-45.1	19.8	0.00e+00	0	43	0	246415360	59	4104
2026-01-23 06:32:21.70	76.35	9.65	-44.1	-45.1	19.8	0.00e+00	0	43	0	249561088	59	4124
2026-01-23 06:32:22.71	76.26	9.72	-43.9	-44.9	19.9	0.00e+00	0	43	0	252706816	59	4045
2026-01-23 06:32:23.72	76.16	9.79	-43.9	-45.0	19.9	0.00e+00	0	43	0	255852544	59	4059
2026-01-23 06:32:24.73	76.06	9.87	-43.9	-44.9	20.0	0.00e+00	0	43	0	258998272	59	4011
2026-01-23 06:32:25.74	75.96	9.94	-43.8	-44.8	20.1	0.00e+00	0	43	0	262144000	59	3975
2026-01-23 06:32:26.75	75.86	10.01	-43.9	-44.9	20.0	0.00e+00	0	43	0	265289728	59	4034
2026-01-23 06:32:27.76	75.75	10.08	-43.7	-44.6	20.3	0.00e+00	0	43	0	268435456	59	3909
2026-01-23 06:32:28.77	75.65	10.16	-43.7	-44.7	20.2	0.00e+00	0	43	0	271581184	59	3928
2026-01-23 06:32:29.77	75.55	10.23	-43.8	-44.8	20.1	0.00e+00	0	43	0	274726912	59	3972
2026-01-23 06:32:30.78	75.45	10.30	-43.6	-44.5	20.3	0.00e+00	0	43	0	277872640	59	3864
2026-01-23 06:32:31.79	75.34	10.37	-43.4	-44.4	20.4	0.00e+00	0	43	0	281018368	58	4025
2026-01-23 06:32:32.80	75.24	10.45	-43.3	-44.2	20.6	0.00e+00	0	43	0	284164096	58	3944
2026-01-23 06:32:33.81	75.14	10.52	-43.3	-44.2	20.6	0.00e+00	0	43	0	287309824	58	3944
2026-01-23 06:32:34.81	75.03	10.59	-43.4	-44.4	20.5	0.00e+00	0	43	0	290455552	58	4013
2026-01-23 06:32:35.82	74.93	10.67	-43.5	-44.5	20.4	0.00e+00	0	43	0	293601280	58	4058
2026-01-23 06:32:36.83	74.82	10.74	-43.5	-44.4	20.4	0.00e+00	0	43	0	296747008	58	4043
2026-01-23 06:32:37.84	74.71	10.82	-43.5	-44.4	20.4	0.00e+00	0	43	0	299892736	58	4045
2026-01-23 06:32:38.84	74.61	10.89	-43.5	-44.5	20.4	0.00e+00	0	43	0	303038464	58	4058
2026-01-23 06:32:39.85	74.50	10.96	-43.4	-44.4	20.5	0.00e+00	0	43	0	306184192	58	4019
2026-01-23 06:32:40.86	74.39	11.04	-43.4	-44.3	20.6	0.00e+00	0	43	0	309329920	58	3995
2026-01-23 06:32:41.87	74.28	11.11	-43.3	-44.3	20.6	0.00e+00	0	43	0	312475648	58	3976
2026-01-23 06:32:42.88	74.17	11.19	-43.3	-44.3	20.7	0.00e+00	0	43	0	315621376	58	3964
2026-01-23 06:32:43.88	74.06	11.26	-43.3	-44.2	20.7	0.00e+00	0	43	0	318767104	58	3931
2026-01-23 06:32:44.89	73.95	11.34	-43.3	-44.2	20.7	0.00e+00	0	43	0	321912832	58	3956
2026-01-23 06:32:45.90	73.84	11.41	-43.2	-44.1	20.8	0.00e+00	0	43	0	325058560	58	3892
2026-01-23 06:32:46.91	73.73	11.49	-43.2	-44.1	20.8	0.00e+00	0	43	0	328204288	58	3907
2026-01-23 06:32:47.91	73.62	11.56	-43.1	-44.0	20.9	0.00e+00	0	43	0	331350016	58	3858
2026-01-23 06:32:48.92	73.51	11.64	-42.9	-43.8	21.1	0.00e+00	0	43	0	334495744	57	3988
2026-01-23 06:32:49.93	73.39	11.71	-42.9	-43.8	21.1	0.00e+00	0	43	0	337641472	57	3961
2026-01-23 06:32:50.94	73.28	11.79	-42.9	-43.8	21.1	0.00e+00	0	43	0	340787200	57	3976
2026-01-23 06:32:51.94	73.16	11.86	-42.8	-43.7	21.2	0.00e+00	0	43	0	343932928	57	3925
2026-01-23 06:32:52.95	73.05	11.94	-42.8	-43.7	21.2	0.00e+00	0	43	0	347078656	57	3914
2026-01-23 06:32:53.96	72.93	12.01	-42.9	-43.8	21.1	0.00e+00	0	43	0	350224384	57	3976
2026-01-23 06:32:54.97	72.82	12.09	-42.9	-43.8	21.0	0.00e+00	0	43	0	353370112	57	3991
2026-01-23 06:32:55.97	72.70	12.17	-42.9	-43.8	21.1	0.00e+00	0	43	0	356515840	57	3988
2026-01-23 06:32:56.98	72.58	12.24	-43.1	-44.0	20.9	0.00e+00	0	43	0	359661568	57	4075
2026-01-23 06:32:57.99	72.46	12.32	-42.9	-43.8	21.1	0.00e+00	0	43	0	362807296	57	3976
2026-01-23 06:32:59.00	72.34	12.40	-43.0	-43.9	21.0	0.00e+00	0	43	0	365953024	57	4036
2026-01-23 06:33:00.01	72.22	12.47	-43.0	-43.9	21.0	0.00e+00	0	43	0	369098752	57	4022
2026-01-23 06:33:01.01	72.11	12.55	-42.9	-43.8	21.1	0.00e+00	0	43	0	372244480	57	3977
2026-01-23 06:33:02.02	71.98	12.62	-43.1	-44.1	20.9	0.00e+00	0	43	0	375390208	57	4103
2026-01-23 06:33:03.03	71.86	12.70	-43.0	-43.9	21.0	0.00e+00	0	43	0	378535936	57	4036
2026-01-23 06:33:04.04	71.74	12.78	-43.0	-43.9	21.0	0.00e+00	0	43	0	381681664	57	4040
2026-01-23 06:33:05.04	71.62	12.86	-43.1	-44.0	21.0	0.00e+00	0	43	0	384827392	57	4080
2026-01-23 06:33:06.05	71.49	12.93	-43.2	-44.1	20.9	0.00e+00	0	43	0	387973120	57	4106
2026-01-23 06:33:07.06	71.37	13.01	-42.9	-43.7	21.2	0.00e+00	0	43	0	391118848	57	3952
2026-01-23 06:33:08.07	71.25	13.09	-42.9	-43.8	21.1	0.00e+00	0	43	0	394264576	57	3991
2026-01-23 06:33:09.08	71.12	13.17	-42.9	-43.8	21.2	0.00e+00	0	43	0	397410304	57	3962
2026-01-23 06:33:10.08	70.99	13.24	-42.9	-43.8	21.2	0.00e+00	0	43	0	400556032	57	3974
2026-01-23 06:33:11.09	70.87	13.32	-42.9	-43.8	21.1	0.00e+00	0	43	0	403701760	57	3977
2026-01-23 06:33:12.10	70.74	13.40	-42.9	-43.8	21.2	0.00e+00	0	43	0	406847488	57	3961
2026-01-23 06:33:13.11	70.61	13.48	-42.9	-43.8	21.1	0.00e+00	0	43	0	409993216	57	3984
2026-01-23 06:33:14.12	70.48	13.55	-43.0	-43.9	21.1	0.00e+00	0	43	0	413138944	57	4015
2026-01-23 06:33:15.13	70.35	13.63	-43.1	-44.0	21.0	0.00e+00	0	43	0	416284672	57	4089
2026-01-23 06:33:16.13	70.22	13.71	-43.1	-44.0	21.0	0.00e+00	0	43	0	419430400	57	4063
2026-01-23 06:33:17.14	70.09	13.79	-42.9	-43.8	21.1	0.00e+00	0	43	0	422576128	57	3987
2026-01-23 06:33:18.15	69.96	13.87	-43.0	-43.9	21.1	0.00e+00	0	43	0	425721856	57	4011
2026-01-23 06:33:19.16	69.83	13.95	-42.9	-43.8	21.1	0.00e+00	0	43	0	428867584	57	3991
2026-01-23 06:33:20.16	69.70	14.02	-43.0	-43.9	21.1	0.00e+00	0	43	0	432013312	57	4010
2026-01-23 06:33:21.17	69.56	14.10	-43.0	-43.9	21.1	0.00e+00	0	43	0	435159040	57	4021
2026-01-23 06:33:22.18	69.43	14.18	-43.0	-43.9	21.1	0.00e+00	0	43	0	438304768	57	4036
2026-01-23 06:33:23.19	69.29	14.26	-42.9	-43.8	21.2	0.00e+00	0	43	0	441450496	57	3971
2026-01-23 06:33:24.20	69.16	14.34	-42.9	-43.8	21.2	0.00e+00	0	43	0	444596224	57	3989
2026-01-23 06:33:25.21	69.02	14.42	-42.9	-43.8	21.1	0.00e+00	0	43	0	447741952	57	3988
2026-01-23 06:33:26.21	68.88	14.50	-42.9	-43.8	21.1	0.00e+00	0	43	0	450887680	57	3983
2026-01-23 06:33:27.22	68.74	14.58	-43.1	-44.0	20.9	0.00e+00	0	43	0	454033408	57	4082
2026-01-23 06:33:28.23	68.60	14.66	-43.1	-44.0	21.0	0.00e+00	0	43	0	457179136	57	4089
2026-01-23 06:33:29.24	68.46	14.74	-43.0	-43.9	21.0	0.00e+00	0	43	0	460324864	57	4043
2026-01-23 06:33:30.24	68.33	14.82	-43.2	-44.1	20.9	0.00e+00	0	43	0	463470592	57	4118
2026-01-23 06:33:31.25	68.18	14.90	-43.2	-44.1	20.9	0.00e+00	0	43	0	466616320	57	4127
2026-01-23 06:33:32.26	68.04	14.98	-43.2	-44.1	20.9	0.00e+00	0	43	0	469762048	57	4144
2026-01-23 06:33:33.27	67.90	15.06	-43.2	-44.1	21.0	0.00e+00	0	43	0	472907776	57	4120
2026-01-23 06:33:34.28	67.75	15.14	-43.3	-44.2	20.9	0.00e+00	0	43	0	476053504	57	4171
2026-01-23 06:33:35.28	67.61	15.22	-43.4	-44.3	20.8	0.00e+00	0	43	0	479199232	57	4206
2026-01-23 06:33:36.29	67.47	15.30	-43.1	-44.0	21.0	0.00e+00	0	43	0	482344960	57	4096
2026-01-23 06:33:37.30	67.32	15.38	-43.1	-43.9	21.1	0.00e+00	0	43	0	485490688	57	4046
2026-01-23 06:33:38.31	67.17	15.46	-43.1	-44.0	21.0	0.00e+00	0	43	0	488636416	57	4076
2026-01-23 06:33:39.32	67.02	15.54	-43.1	-44.0	21.0	0.00e+00	0	43	0	491782144	57	4080
2026-01-23 06:33:40.33	66.88	15.62	-43.1	-44.0	21.0	0.00e+00	0	43	0	494927872	57	4086
2026-01-23 06:33:41.33	66.73	15.70	-43.2	-44.1	20.9	0.00e+00	0	43	0	498073600	57	4108
2026-01-23 06:33:42.34	66.58	15.78	-43.2	-44.1	20.9	0.00e+00	0	43	0	501219328	57	4102
2026-01-23 06:33:43.35	66.43	15.86	-43.2	-44.1	20.9	0.00e+00	0	43	0	504365056	57	4137
2026-01-23 06:33:44.35	66.28	15.94	-43.2	-44.1	20.9	0.00e+00	0	43	0	507510784	57	4145
2026-01-23 06:33:45.36	66.12	16.02	-43.4	-44.3	20.8	0.00e+00	0	43	0	510656512	57	4205
2026-01-23 06:33:46.37	65.97	16.10	-43.4	-44.3	20.8	0.00e+00	0	43	0	513802240	57	4203
2026-01-23 06:33:47.38	65.82	16.18	-43.4	-44.3	20.8	0.00e+00	0	43	0	516947968	57	4206
2026-01-23 06:33:48.38	65.66	16.26	-43.4	-44.3	20.8	0.00e+00	0	43	0	520093696	57	4227
2026-01-23 06:33:49.39	65.51	16.34	-43.4	-44.3	20.8	0.00e+00	0	43	0	523239424	57	4234
2026-01-23 06:33:50.40	65.35	16.42	-43.3	-44.3	20.8	0.00e+00	0	43	0	526385152	57	4200
2026-01-23 06:33:51.41	65.19	16.50	-43.5	-44.4	20.6	0.00e+00	0	43	0	529530880	57	4282
2026-01-23 06:33:52.42	65.03	16.58	-43.4	-44.3	20.7	0.00e+00	0	43	0	532676608	57	4228
2026-01-23 06:33:53.42	64.87	16.67	-43.4	-44.3	20.7	0.00e+00	0	43	0	535822336	57	4220
2026-01-23 06:33:54.43	64.71	16.75	-43.3	-44.3	20.7	0.00e+00	0	43	0	538968064	57	4202
2026-01-23 06:33:55.44	64.55	16.83	-43.6	-44.6	20.5	0.00e+00	0	43	0	542113792	57	4358
2026-01-23 06:33:56.45	64.39	16.91	-43.7	-44.6	20.5	0.00e+00	0	43	0	545259520	58	4145
2026-01-23 06:33:57.46	64.23	16.99	-43.6	-44.6	20.5	0.00e+00	0	43	0	548405248	58	4120
2026-01-23 06:33:58.47	64.06	17.07	-43.5	-44.5	20.7	0.00e+00	0	43	0	551550976	58	4063
2026-01-23 06:33:59.47	63.90	17.15	-43.3	-44.2	20.9	0.00e+00	0	43	0	554696704	58	3946
2026-01-23 06:34:00.47	63.73	17.23	-43.2	-44.2	21.0	0.00e+00	0	43	0	557842432	58	3917
2026-01-23 06:34:01.48	63.57	17.31	-43.3	-44.2	20.9	0.00e+00	0	43	0	560988160	58	3937
2026-01-23 06:34:02.49	63.40	17.40	-43.3	-44.2	20.9	0.00e+00	0	43	0	564133888	58	3926
2026-01-23 06:34:03.49	63.23	17.48	-43.3	-44.2	20.9	0.00e+00	0	43	0	567279616	58	3922
2026-01-23 06:34:04.50	63.06	17.56	-43.2	-44.1	21.0	0.00e+00	0	43	0	570425344	58	3873
2026-01-23 06:34:05.51	62.89	17.64	-43.1	-44.0	21.0	0.00e+00	0	43	0	573571072	58	3850
2026-01-23 06:34:06.52	62.72	17.72	-43.1	-44.0	21.1	0.00e+00	0	43	0	576716800	58	3841
2026-01-23 06:34:07.53	62.55	17.80	-43.2	-44.1	21.0	0.00e+00	0	43	0	579862528	58	3880
2026-01-23 06:34:08.53	62.38	17.88	-43.1	-44.0	21.1	0.00e+00	0	43	0	583008256	58	3849
2026-01-23 06:34:09.54	62.20	17.96	-43.1	-43.9	21.1	0.00e+00	0	43	0	586153984	58	3821
2026-01-23 06:34:10.55	62.03	18.05	-43.0	-43.9	21.2	0.00e+00	0	43	0	589299712	58	3782
2026-01-23 06:34:11.56	61.85	18.13	-43.1	-44.0	21.1	0.00e+00	0	43	0	592445440	57	4059
2026-01-23 06:34:12.57	61.68	18.21	-42.9	-43.8	21.3	0.00e+00	0	43	0	595591168	57	3996
2026-01-23 06:34:13.57	61.50	18.29	-42.9	-43.8	21.3	0.00e+00	0	43	0	598736896	57	3991
2026-01-23 06:34:14.58	61.32	18.37	-42.9	-43.8	21.3	0.00e+00	0	43	0	601882624	57	3995
2026-01-23 06:34:15.59	61.14	18.45	-42.9	-43.8	21.3	0.00e+00	0	43	0	605028352	57	3992
2026-01-23 06:34:16.60	60.96	18.53	-42.9	-43.8	21.3	0.00e+00	0	43	0	608174080	57	3964
2026-01-23 06:34:17.61	60.78	18.61	-42.9	-43.8	21.4	0.00e+00	0	43	0	611319808	57	3965
2026-01-23 06:34:18.61	60.60	18.69	-42.9	-43.8	21.3	0.00e+00	0	43	0	614465536	57	3992
2026-01-23 06:34:19.62	60.41	18.78	-43.0	-43.8	21.3	0.00e+00	0	43	0	617611264	57	3998
2026-01-23 06:34:20.63	60.23	18.86	-42.8	-43.7	21.4	0.00e+00	0	43	0	620756992	57	3920
2026-01-23 06:34:21.64	60.04	18.94	-42.6	-43.5	21.6	0.00e+00	0	43	0	623902720	57	3837
2026-01-23 06:34:22.64	59.86	19.02	-42.6	-43.4	21.6	0.00e+00	0	43	0	627048448	57	3820
2026-01-23 06:34:23.65	59.67	19.10	-42.6	-43.5	21.6	0.00e+00	0	43	0	630194176	57	3847
2026-01-23 06:34:24.66	59.48	19.18	-42.5	-43.4	21.7	0.00e+00	0	43	0	633339904	57	3803
2026-01-23 06:34:25.67	59.29	19.26	-42.6	-43.4	21.6	0.00e+00	0	43	0	636485632	56	4048
2026-01-23 06:34:26.68	59.10	19.34	-42.6	-43.4	21.6	0.00e+00	0	43	0	639631360	56	4039
2026-01-23 06:34:27.69	58.91	19.42	-42.5	-43.3	21.7	0.00e+00	0	43	0	642777088	56	3999
2026-01-23 06:34:28.69	58.72	19.50	-42.4	-43.2	21.9	0.00e+00	0	43	0	645922816	56	3936
2026-01-23 06:34:29.70	58.52	19.58	-42.4	-43.3	21.8	0.00e+00	0	43	0	649068544	56	3965
2026-01-23 06:34:30.71	58.33	19.66	-42.5	-43.3	21.7	0.00e+00	0	43	0	652214272	56	3995
2026-01-23 06:34:31.72	58.13	19.74	-42.2	-43.0	21.9	0.00e+00	0	43	0	655360000	56	3845
2026-01-23 06:34:32.72	57.94	19.82	-42.3	-43.1	21.8	0.00e+00	0	43	0	658505728	56	3886
2026-01-23 06:34:33.73	57.74	19.90	-42.3	-43.1	21.7	0.00e+00	0	43	0	661651456	56	3902
2026-01-23 06:34:34.74	57.54	19.98	-42.3	-43.1	21.7	0.00e+00	0	43	0	664797184	56	3913
2026-01-23 06:34:35.75	57.34	20.06	-42.5	-43.3	21.6	0.00e+00	0	43	0	667942912	56	3989
2026-01-23 06:34:36.76	57.14	20.14	-42.5	-43.4	21.5	0.00e+00	0	43	0	671088640	56	4018
2026-01-23 06:34:37.76	56.94	20.22	-42.6	-43.5	21.5	0.00e+00	0	43	0	674234368	56	4059
2026-01-23 06:34:38.77	56.73	20.30	-42.6	-43.4	21.6	0.00e+00	0	43	0	677380096	56	4035
2026-01-23 06:34:39.78	56.53	20.38	-42.5	-43.3	21.6	0.00e+00	0	43	0	680525824	56	4002
2026-01-23 06:34:40.79	56.32	20.46	-42.5	-43.4	21.7	0.00e+00	0	43	0	683671552	56	4012
2026-01-23 06:34:41.80	56.12	20.54	-42.3	-43.1	21.8	0.00e+00	0	43	0	686817280	56	3913
2026-01-23 06:34:42.81	55.91	20.62	-42.5	-43.3	21.6	0.00e+00	0	43	0	689963008	56	3982
2026-01-23 06:34:43.81	55.70	20.70	-42.4	-43.2	21.7	0.00e+00	0	43	0	693108736	56	3953
2026-01-23 06:34:44.82	55.49	20.78	-42.6	-43.5	21.5	0.00e+00	0	43	0	696254464	56	4060
2026-01-23 06:34:45.83	55.28	20.86	-42.4	-43.3	21.6	0.00e+00	0	43	0	699400192	56	3979
2026-01-23 06:34:46.83	55.07	20.93	-42.5	-43.4	21.7	0.00e+00	0	43	0	702545920	56	4014
2026-01-23 06:34:47.84	54.86	21.01	-42.6	-43.4	21.7	0.00e+00	0	43	0	705691648	56	4026
2026-01-23 06:34:48.85	54.64	21.09	-42.5	-43.4	21.8	0.00e+00	0	43	0	708837376	56	4009
2026-01-23 06:34:49.86	54.43	21.17	-42.1	-42.9	22.0	0.00e+00	0	43	0	711983104	56	3824
2026-01-23 06:34:50.86	54.21	21.24	-42.0	-42.8	22.0	0.00e+00	0	43	0	715128832	56	3776
2026-01-23 06:34:51.87	54.00	21.32	-42.0	-42.8	21.9	0.00e+00	0	43	0	718274560	56	3755
2026-01-23 06:34:52.88	53.78	21.40	-42.1	-42.9	22.1	0.00e+00	0	43	0	721420288	56	3797
2026-01-23 06:34:53.89	53.56	21.48	-42.2	-43.0	22.1	0.00e+00	0	43	0	724566016	56	3850
2026-01-23 06:34:54.90	53.34	21.55	-42.0	-42.8	22.2	0.00e+00	0	43	0	727711744	56	3771
2026-01-23 06:34:55.91	53.12	21.63	-42.0	-42.8	22.2	0.00e+00	0	43	0	730857472	56	3776
2026-01-23 06:34:56.91	52.90	21.70	-42.1	-42.9	22.2	0.00e+00	0	43	0	734003200	56	3787
2026-01-23 06:34:57.93	52.67	21.78	-42.2	-43.0	22.1	0.00e+00	0	43	0	737148928	56	3838
2026-01-23 06:34:58.93	52.45	21.86	-42.2	-43.0	22.0	0.00e+00	0	43	0	740294656	56	3863
2026-01-23 06:34:59.94	52.22	21.93	-42.1	-42.9	22.1	0.00e+00	0	43	0	743440384	56	3809
2026-01-23 06:35:00.95	51.99	22.01	-42.2	-43.0	22.0	0.00e+00	0	43	0	746586112	56	3833
2026-01-23 06:35:01.96	51.76	22.08	-42.2	-43.0	21.9	0.00e+00	0	43	0	749731840	56	3837
2026-01-23 06:35:02.97	51.53	22.16	-42.2	-43.0	21.7	0.00e+00	0	43	0	752877568	56	3851
2026-01-23 06:35:03.97	51.31	22.23	-42.3	-43.1	21.8	0.00e+00	0	43	0	756023296	56	3905
2026-01-23 06:35:04.98	51.07	22.31	-42.3	-43.1	21.9	0.00e+00	0	43	0	759169024	56	3909
2026-01-23 06:35:05.99	50.84	22.38	-42.3	-43.1	21.9	0.00e+00	0	43	0	762314752	56	3911
2026-01-23 06:35:07.00	50.61	22.45	-42.2	-43.0	22.1	0.00e+00	0	43	0	765460480	56	3860
2026-01-23 06:35:08.00	50.37	22.53	-42.2	-43.0	22.1	0.00e+00	0	43	0	768606208	56	3846
2026-01-23 06:35:09.01	50.14	22.60	-42.2	-43.0	22.0	0.00e+00	0	43	0	771751936	56	3862
2026-01-23 06:35:10.02	49.90	22.67	-42.2	-43.1	22.0	0.00e+00	0	43	0	774897664	56	3870
2026-01-23 06:35:11.03	49.66	22.74	-42.2	-43.0	22.1	0.00e+00	0	43	0	778043392	56	3842
2026-01-23 06:35:12.04	49.42	22.82	-42.2	-43.0	22.1	0.00e+00	0	43	0	781189120	56	3855
2026-01-23 06:35:13.04	49.18	22.89	-42.1	-43.0	22.1	0.00e+00	0	43	0	784334848	56	3827
2026-01-23 06:35:14.05	48.94	22.96	-42.2	-43.0	22.1	0.00e+00	0	43	0	787480576	56	3851
2026-01-23 06:35:15.06	48.70	23.03	-42.2	-43.1	22.0	0.00e+00	0	43	0	791674880	56	3872
2026-01-23 06:35:16.07	48.45	23.10	-42.4	-43.3	21.9	0.00e+00	0	43	0	794820608	56	3967
2026-01-23 06:35:17.08	48.21	23.17	-42.4	-43.3	21.9	0.00e+00	0	43	0	796917760	56	3977
2026-01-23 06:35:18.09	47.96	23.24	-42.4	-43.2	21.9	0.00e+00	0	43	0	800063488	56	3952
2026-01-23 06:35:19.09	47.72	23.31	-42.3	-43.2	22.0	0.00e+00	0	43	0	803209216	56	3914
2026-01-23 06:35:20.10	47.47	23.38	-42.4	-43.2	22.0	0.00e+00	0	43	0	806354944	56	3932
2026-01-23 06:35:21.11	47.22	23.45	-42.4	-43.3	21.9	0.00e+00	0	43	0	809500672	56	3973
2026-01-23 06:35:22.12	46.97	23.52	-42.5	-43.3	21.9	0.00e+00	0	43	0	812646400	56	3982
2026-01-23 06:35:23.13	46.72	23.58	-42.5	-43.4	21.8	0.00e+00	0	43	0	815792128	56	4021
2026-01-23 06:35:24.13	46.47	23.65	-42.5	-43.4	21.8	0.00e+00	0	43	0	818937856	56	4010
2026-01-23 06:35:25.14	46.21	23.72	-42.6	-43.5	21.7	0.00e+00	0	43	0	822083584	56	4072
2026-01-23 06:35:26.15	45.96	23.78	-42.7	-43.6	21.6	0.00e+00	0	43	0	825229312	56	4116
2026-01-23 06:35:27.16	45.70	23.85	-42.7	-43.5	21.7	0.00e+00	0	43	0	829423616	56	4094
2026-01-23 06:35:28.17	45.44	23.92	-42.7	-43.5	21.7	0.00e+00	0	43	0	832569344	56	4085
2026-01-23 06:35:29.17	45.19	23.98	-42.6	-43.5	21.7	0.00e+00	0	43	0	835715072	56	4062
2026-01-23 06:35:30.18	44.93	24.04	-42.5	-43.3	21.9	0.00e+00	0	43	0	838860800	56	3967
2026-01-23 06:35:31.19	44.67	24.11	-42.5	-43.3	21.9	0.00e+00	0	43	0	842006528	56	3985
2026-01-23 06:35:32.20	44.40	24.17	-42.4	-43.2	21.9	0.00e+00	0	43	0	844103680	56	3923
2026-01-23 06:35:33.21	44.14	24.24	-42.3	-43.1	22.0	0.00e+00	0	43	0	847249408	56	3902
2026-01-23 06:35:34.21	43.88	24.30	-42.4	-43.2	22.0	0.00e+00	0	43	0	850395136	56	3928
2026-01-23 06:35:35.22	43.62	24.36	-42.5	-43.3	21.8	0.00e+00	0	43	0	853540864	56	3995
2026-01-23 06:35:36.23	43.35	24.42	-42.4	-43.3	21.9	0.00e+00	0	43	0	856686592	56	3961
2026-01-23 06:35:37.24	43.08	24.48	-42.3	-43.1	22.0	0.00e+00	0	43	0	859832320	56	3896
2026-01-23 06:35:38.24	42.82	24.54	-42.2	-43.0	22.1	0.00e+00	0	43	0	862978048	56	3857
2026-01-23 06:35:39.25	42.55	24.60	-42.2	-43.0	22.1	0.00e+00	0	43	0	866123776	56	3848
2026-01-23 06:35:40.26	42.28	24.66	-42.3	-43.1	22.0	0.00e+00	0	43	0	870318080	56	3883
2026-01-23 06:35:41.27	42.01	24.72	-42.4	-43.3	21.8	0.00e+00	0	43	0	873463808	56	3960
2026-01-23 06:35:42.28	41.74	24.78	-42.6	-43.5	21.6	0.00e+00	0	43	0	876609536	56	4073
2026-01-23 06:35:43.28	41.46	24.84	-42.8	-43.7	21.5	0.00e+00	0	43	0	879755264	56	4174
2026-01-23 06:35:44.29	41.19	24.89	-42.9	-43.8	21.4	0.00e+00	0	43	0	882900992	56	4227
2026-01-23 06:35:45.30	40.92	24.95	-42.8	-43.7	21.5	0.00e+00	0	43	0	886046720	56	4150
2026-01-23 06:35:46.31	40.64	25.01	-42.7	-43.5	21.7	0.00e+00	0	43	0	889192448	56	4080
2026-01-23 06:35:47.32	40.36	25.06	-42.7	-43.5	21.7	0.00e+00	0	43	0	891289600	56	4094
2026-01-23 06:35:48.33	40.08	25.12	-42.6	-43.5	21.8	0.00e+00	0	43	0	894435328	56	4054
2026-01-23 06:35:49.34	39.81	25.17	-42.5	-43.3	21.9	0.00e+00	0	43	0	897581056	56	3973
2026-01-23 06:35:50.35	39.53	25.23	-42.4	-43.2	22.0	0.00e+00	0	43	0	900726784	56	3951
2026-01-23 06:35:51.35	39.25	25.28	-42.5	-43.3	21.9	0.00e+00	0	43	0	904921088	56	4004
2026-01-23 06:35:52.36	38.97	25.33	-42.3	-43.1	22.1	0.00e+00	0	43	0	908066816	56	3885
2026-01-23 06:35:53.37	38.68	25.38	-42.2	-43.0	22.2	0.00e+00	0	43	0	911212544	56	3834
2026-01-23 06:35:54.38	38.40	25.43	-42.0	-42.8	22.3	0.00e+00	0	43	0	914358272	56	3763
2026-01-23 06:35:55.39	38.11	25.48	-41.8	-42.6	22.4	0.00e+00	0	43	0	917504000	55	3899
2026-01-23 06:35:56.39	37.83	25.53	-41.8	-42.6	22.4	0.00e+00	0	43	0	920649728	55	3882
2026-01-23 06:35:57.40	37.55	25.58	-41.9	-42.7	22.4	0.00e+00	0	43	0	923795456	55	3922
2026-01-23 06:35:58.41	37.26	25.63	-41.8	-42.6	22.4	0.00e+00	0	44	0	926941184	55	3905
2026-01-23 06:35:59.42	36.97	25.68	-41.8	-42.6	22.4	0.00e+00	0	43	0	930086912	55	3892
2026-01-23 06:36:00.42	36.68	25.72	-42.0	-42.8	22.2	0.00e+00	0	43	0	933232640	55	3965
2026-01-23 06:36:01.43	36.39	25.77	-41.9	-42.7	22.3	0.00e+00	0	43	0	936378368	55	3947
2026-01-23 06:36:02.44	36.10	25.81	-41.9	-42.7	22.3	0.00e+00	0	43	0	938475520	55	3943
2026-01-23 06:36:03.45	35.81	25.86	-41.9	-42.7	22.3	0.00e+00	0	43	0	941621248	55	3932
2026-01-23 06:36:04.45	35.52	25.90	-42.0	-42.8	22.3	0.00e+00	0	43	0	944766976	55	3967
2026-01-23 06:36:05.46	35.23	25.94	-42.0	-42.8	22.2	0.00e+00	0	43	0	948961280	55	3992
2026-01-23 06:36:06.47	34.93	25.99	-41.9	-42.6	22.4	0.00e+00	0	43	0	952107008	55	3913
2026-01-23 06:36:07.48	34.64	26.03	-41.8	-42.6	22.5	0.00e+00	0	43	0	955252736	55	3870
2026-01-23 06:36:08.49	34.34	26.07	-41.7	-42.5	22.5	0.00e+00	0	43	0	958398464	55	3844
2026-01-23 06:36:09.49	34.05	26.11	-41.7	-42.4	22.6	0.00e+00	0	43	0	961544192	55	3815
2026-01-23 06:36:10.50	33.75	26.15	-41.7	-42.5	22.5	0.00e+00	0	43	0	964689920	55	3828
2026-01-23 06:36:11.51	33.46	26.19	-41.8	-42.5	22.5	0.00e+00	0	43	0	967835648	55	3861
2026-01-23 06:36:12.52	33.16	26.22	-41.7	-42.5	22.6	0.00e+00	0	43	0	970981376	55	3826
2026-01-23 06:36:13.53	32.86	26.26	-41.7	-42.5	22.5	0.00e+00	0	43	0	974127104	55	3854
2026-01-23 06:36:14.53	32.56	26.30	-41.8	-42.6	22.4	0.00e+00	0	44	0	977272832	55	3901
2026-01-23 06:36:15.54	32.26	26.33	-41.8	-42.6	22.4	0.00e+00	0	43	0	980418560	55	3889
2026-01-23 06:36:16.55	31.96	26.37	-41.9	-42.7	22.4	0.00e+00	0	43	0	983564288	55	3920
2026-01-23 06:36:17.56	31.66	26.40	-41.9	-42.6	22.4	0.00e+00	0	43	0	986710016	55	3911
2026-01-23 06:36:18.57	31.36	26.43	-42.0	-42.8	22.2	0.00e+00	0	43	0	989855744	55	3995
2026-01-23 06:36:19.57	31.06	26.46	-42.1	-42.9	22.2	0.00e+00	0	43	0	993001472	55	4010
2026-01-23 06:36:20.58	30.75	26.49	-42.1	-42.9	22.2	0.00e+00	0	43	0	996147200	55	4031
2026-01-23 06:36:21.59	30.45	26.52	-42.1	-42.9	22.2	0.00e+00	0	43	0	999292928	55	4028
2026-01-23 06:36:22.60	30.14	26.55	-42.1	-42.9	22.2	0.00e+00	0	43	0	1002438656	55	4026
2026-01-23 06:36:23.61	29.84	26.58	-42.0	-42.8	22.3	0.00e+00	0	43	0	1005584384	55	3981
2026-01-23 06:36:24.62	29.53	26.61	-42.1	-42.9	22.2	0.00e+00	0	43	0	1008730112	55	4010
2026-01-23 06:36:25.62	29.23	26.64	-42.1	-42.9	22.2	0.00e+00	0	43	0	1011875840	55	4008
2026-01-23 06:36:26.63	28.92	26.66	-42.2	-43.0	22.0	0.00e+00	0	43	0	1015021568	55	4094
2026-01-23 06:36:27.64	28.61	26.69	-42.2	-43.0	22.1	0.00e+00	0	43	0	1018167296	55	4072
2026-01-23 06:36:28.65	28.31	26.71	-42.2	-43.0	22.1	0.00e+00	0	43	0	1021313024	55	4079
2026-01-23 06:36:29.66	28.00	26.73	-42.2	-43.0	22.0	0.00e+00	0	43	0	1024458752	55	4074
2026-01-23 06:36:30.67	27.69	26.76	-42.2	-43.0	22.0	0.00e+00	0	43	0	1027604480	55	4077
2026-01-23 06:36:31.67	27.38	26.78	-42.2	-43.0	22.1	0.00e+00	0	43	0	1030750208	55	4064
2026-01-23 06:36:32.68	27.07	26.80	-42.0	-42.8	22.2	0.00e+00	0	43	0	1033895936	55	3981
2026-01-23 06:36:33.69	26.76	26.82	-42.1	-42.9	22.1	0.00e+00	0	43	0	1037041664	55	4045
2026-01-23 06:36:34.69	26.46	26.84	-42.4	-43.2	21.9	0.00e+00	0	43	0	1040187392	55	4157
2026-01-23 06:36:35.70	26.15	26.85	-42.6	-43.4	21.7	0.00e+00	0	43	0	1043333120	55	4273
2026-01-23 06:36:36.71	25.83	26.87	-42.6	-43.4	21.7	0.00e+00	0	43	0	1046478848	55	4278
2026-01-23 06:36:37.72	25.52	26.89	-42.5	-43.3	21.8	0.00e+00	0	43	0	1049624576	55	4241
2026-01-23 06:36:38.73	25.21	26.90	-42.5	-43.4	21.7	0.00e+00	0	43	0	1052770304	55	4252
2026-01-23 06:36:39.74	24.90	26.91	-42.5	-43.4	21.7	0.00e+00	0	43	0	1055916032	55	4247
2026-01-23 06:36:40.74	24.59	26.93	-42.5	-43.4	21.7	0.00e+00	0	43	0	1059061760	55	4251
2026-01-23 06:36:41.75	24.28	26.94	-42.6	-43.4	21.7	0.00e+00	0	43	0	1062207488	55	4261
2026-01-23 06:36:42.76	23.97	26.95	-42.3	-43.1	22.0	0.00e+00	0	43	0	1065353216	55	4141
2026-01-23 06:36:43.77	23.65	26.96	-42.2	-43.0	22.1	0.00e+00	0	43	0	1068498944	55	4074
2026-01-23 06:36:44.78	23.34	26.97	-42.3	-43.1	22.0	0.00e+00	0	43	0	1071644672	55	4127
2026-01-23 06:36:45.78	23.03	26.98	-42.2	-43.0	22.0	0.00e+00	0	43	0	1074790400	55	4095
2026-01-23 06:36:46.79	22.72	26.99	-42.2	-43.0	22.0	0.00e+00	0	43	0	1077936128	55	4084
2026-01-23 06:36:47.80	22.40	26.99	-42.2	-43.0	22.0	0.00e+00	0	43	0	1081081856	55	4072
2026-01-23 06:36:48.81	22.09	27.00	-42.2	-43.0	22.0	0.00e+00	0	43	0	1084227584	55	4085
2026-01-23 06:36:49.82	21.78	27.00	-42.2	-43.0	22.0	0.00e+00	0	43	0	1087373312	55	4065
2026-01-23 06:36:50.82	21.46	27.01	-42.3	-43.1	22.0	0.00e+00	0	43	0	1090519040	55	4124
2026-01-23 06:36:51.83	21.15	27.01	-42.3	-43.2	21.9	0.00e+00	0	43	0	1093664768	55	4158
2026-01-23 06:36:52.84	20.84	27.01	-42.3	-43.1	22.0	0.00e+00	0	43	0	1096810496	55	4130
2026-01-23 06:36:53.85	20.52	27.01	-42.4	-43.2	21.9	0.00e+00	0	43	0	1099956224	55	4185
2026-01-23 06:36:54.86	20.21	27.01	-42.5	-43.4	21.7	0.00e+00	0	43	0	1103101952	55	4248
2026-01-23 06:36:55.86	19.90	27.01	-42.6	-43.5	21.7	0.00e+00	0	43	0	1106247680	55	4293
2026-01-23 06:36:56.87	19.58	27.01	-42.5	-43.4	21.8	0.00e+00	0	43	0	1109393408	55	4266
2026-01-23 06:36:57.88	19.27	27.00	-42.5	-43.4	21.8	0.00e+00	0	43	0	1112539136	55	4257
2026-01-23 06:36:58.89	18.96	27.00	-42.5	-43.4	21.8	0.00e+00	0	43	0	1115684864	55	4260
2026-01-23 06:36:59.90	18.64	26.99	-42.5	-43.3	21.8	0.00e+00	0	43	0	1118830592	55	4216
2026-01-23 06:37:00.91	18.33	26.99	-42.4	-43.3	21.9	0.00e+00	0	43	0	1121976320	55	4204
2026-01-23 06:37:01.92	18.02	26.98	-42.1	-42.9	22.1	0.00e+00	0	43	0	1125122048	55	4046
2026-01-23 06:37:02.92	17.71	26.97	-42.0	-42.8	22.3	0.00e+00	0	43	0	1128267776	55	3961
2026-01-23 06:37:03.93	17.39	26.97	-41.8	-42.6	22.4	0.00e+00	0	43	0	1131413504	55	3897
2026-01-23 06:37:04.94	17.08	26.96	-41.9	-42.7	22.4	0.00e+00	0	43	0	1134559232	55	3923
2026-01-23 06:37:05.95	16.77	26.94	-42.0	-42.8	22.3	0.00e+00	0	43	0	1137704960	55	3963
2026-01-23 06:37:06.96	16.45	26.93	-42.1	-42.9	22.2	0.00e+00	0	43	0	1140850688	55	4007
2026-01-23 06:37:07.96	16.14	26.92	-41.9	-42.7	22.3	0.00e+00	0	43	0	1143996416	55	3947
2026-01-23 06:37:08.97	15.83	26.91	-42.0	-42.8	22.3	0.00e+00	0	43	0	1147142144	55	3959
2026-01-23 06:37:09.98	15.52	26.89	-41.9	-42.7	22.3	0.00e+00	0	43	0	1150287872	55	3943
2026-01-23 06:37:10.98	15.21	26.88	-42.0	-42.8	22.3	0.00e+00	0	43	0	1153433600	55	3982
2026-01-23 06:37:11.99	14.90	26.86	-42.1	-42.9	22.2	0.00e+00	0	43	0	1156579328	55	4012
2026-01-23 06:37:13.00	14.59	26.84	-42.2	-43.0	22.1	0.00e+00	0	43	0	1159725056	55	4075
2026-01-23 06:37:14.01	14.28	26.83	-42.1	-42.9	22.1	0.00e+00	0	43	0	1162870784	55	4048
2026-01-23 06:37:15.02	13.97	26.81	-42.2	-43.0	22.1	0.00e+00	0	43	0	1166016512	55	4077
2026-01-23 06:37:16.02	13.66	26.79	-42.2	-43.0	22.1	0.00e+00	0	43	0	1169162240	55	4079
2026-01-23 06:37:17.03	13.35	26.77	-42.2	-43.0	22.1	0.00e+00	0	43	0	1172307968	55	4071
2026-01-23 06:37:18.04	13.05	26.75	-42.2	-43.0	22.1	0.00e+00	0	43	0	1175453696	55	4072
2026-01-23 06:37:19.05	12.74	26.72	-42.1	-42.9	22.2	0.00e+00	0	43	0	1178599424	55	4026
2026-01-23 06:37:20.06	12.43	26.70	-42.2	-43.0	22.1	0.00e+00	0	43	0	1181745152	55	4078
2026-01-23 06:37:21.06	12.12	26.67	-42.1	-42.9	22.2	0.00e+00	0	43	0	1184890880	55	4035
2026-01-23 06:37:22.07	11.82	26.65	-42.0	-42.8	22.2	0.00e+00	0	43	0	1188036608	55	3977
2026-01-23 06:37:23.08	11.51	26.62	-42.1	-42.9	22.2	0.00e+00	0	43	0	1191182336	55	4008
2026-01-23 06:37:24.08	11.21	26.60	-42.0	-42.8	22.2	0.00e+00	0	43	0	1194328064	55	3984
2026-01-23 06:37:25.09	10.90	26.57	-42.0	-42.8	22.3	0.00e+00	0	43	0	1197473792	55	3976
2026-01-23 06:37:26.10	10.60	26.54	-42.1	-42.9	22.3	0.00e+00	0	43	0	1200619520	55	4011
2026-01-23 06:37:27.11	10.29	26.51	-42.1	-42.9	22.2	0.00e+00	0	43	0	1203765248	55	4019
2026-01-23 06:37:28.12	9.99	26.48	-42.2	-43.0	22.1	0.00e+00	0	43	0	1206910976	55	4081
2026-01-23 06:37:29.13	9.69	26.45	-42.2	-43.0	22.1	0.00e+00	0	43	0	1210056704	55	4083
2026-01-23 06:37:30.13	9.39	26.42	-42.3	-43.1	22.0	0.00e+00	0	43	0	1213202432	55	4105
2026-01-23 06:37:31.14	9.08	26.38	-42.2	-43.0	22.1	0.00e+00	0	43	0	1216348160	55	4083
2026-01-23 06:37:32.15	8.78	26.35	-42.1	-42.9	22.2	0.00e+00	0	43	0	1219493888	55	4031
2026-01-23 06:37:33.16	8.48	26.31	-42.0	-42.8	22.3	0.00e+00	0	43	0	1222639616	55	3990
2026-01-23 06:37:34.17	8.18	26.28	-42.1	-42.9	22.2	0.00e+00	0	43	0	1225785344	55	4014
2026-01-23 06:37:35.17	7.89	26.24	-42.0	-42.8	22.2	0.00e+00	0	43	0	1228931072	55	3984
2026-01-23 06:37:36.18	7.59	26.21	-42.0	-42.8	22.2	0.00e+00	0	43	0	1232076800	55	3965
2026-01-23 06:37:37.19	7.29	26.17	-42.0	-42.8	22.1	0.00e+00	0	43	0	1235222528	55	3994
2026-01-23 06:37:38.20	6.99	26.13	-41.9	-42.7	22.2	0.00e+00	0	43	0	1238368256	55	3939
2026-01-23 06:37:39.21	6.70	26.09	-41.9	-42.7	22.2	0.00e+00	0	43	0	1241513984	55	3942
2026-01-23 06:37:40.21	6.40	26.05	-42.0	-42.8	22.2	0.00e+00	0	43	0	1244659712	55	3997
2026-01-23 06:37:41.22	6.11	26.01	-42.0	-42.8	22.2	0.00e+00	0	43	0	1247805440	55	3987
2026-01-23 06:37:42.23	5.81	25.97	-42.0	-42.8	22.3	0.00e+00	0	43	0	1250951168	55	3989
2026-01-23 06:37:43.24	5.52	25.92	-42.0	-42.7	22.3	0.00e+00	0	43	0	1254096896	55	3958
2026-01-23 06:37:44.25	5.23	25.88	-41.9	-42.7	22.4	0.00e+00	0	43	0	1257242624	55	3916
2026-01-23 06:37:45.25	4.94	25.84	-42.0	-42.8	22.3	0.00e+00	0	43	0	1260388352	55	3978
2026-01-23 06:37:46.26	4.65	25.79	-42.0	-42.8	22.3	0.00e+00	0	43	0	1263534080	55	3984
2026-01-23 06:37:47.27	4.36	25.75	-41.9	-42.7	22.3	0.00e+00	0	43	0	1266679808	55	3949
2026-01-23 06:37:48.28	4.07	25.70	-42.1	-42.9	22.3	0.00e+00	0	43	0	1269825536	55	4015
2026-01-23 06:37:49.29	3.78	25.65	-42.0	-42.8	22.3	0.00e+00	0	43	0	1272971264	55	4000
2026-01-23 06:37:50.30	3.49	25.61	-42.1	-42.9	22.2	0.00e+00	0	43	0	1276116992	55	4014
2026-01-23 06:37:51.30	3.21	25.56	-42.0	-42.8	22.3	0.00e+00	0	43	0	1279262720	55	3961
2026-01-23 06:37:52.31	2.92	25.51	-42.1	-42.9	22.2	0.00e+00	0	43	0	1282408448	55	4016
2026-01-23 06:37:53.32	2.64	25.46	-42.0	-42.8	22.3	0.00e+00	0	43	0	1285554176	55	3968
2026-01-23 06:37:54.33	2.35	25.41	-41.9	-42.7	22.4	0.00e+00	0	43	0	1288699904	55	3915
2026-01-23 06:37:55.34	2.07	25.36	-42.0	-42.8	22.3	0.00e+00	0	43	0	1291845632	55	3981
2026-01-23 06:37:56.35	1.79	25.31	-42.0	-42.8	22.4	0.00e+00	0	43	0	1294991360	55	3964
2026-01-23 06:37:57.36	1.51	25.25	-42.0	-42.7	22.4	0.00e+00	0	43	0	1298137088	55	3954
2026-01-23 06:37:58.37	1.23	25.20	-42.1	-42.8	22.3	0.00e+00	0	43	0	1301282816	55	4000
2026-01-23 06:37:59.38	0.95	25.15	-42.1	-42.9	22.2	0.00e+00	0	43	0	1304428544	55	4046
2026-01-23 06:38:00.38	0.67	25.09	-42.2	-43.0	22.1	0.00e+00	0	43	0	1307574272	55	4059
2026-01-23 06:38:01.39	0.40	25.04	-42.0	-42.8	22.3	0.00e+00	0	43	0	1310720000	55	3989
2026-01-23 06:38:02.40	0.12	24.98	-42.0	-42.8	22.3	0.00e+00	0	43	0	1313865728	55	3985
2026-01-23 06:38:03.41	359.84	24.92	-42.0	-42.7	22.3	0.00e+00	0	43	0	1317011456	55	3955
2026-01-23 06:38:04.42	359.57	24.87	-42.0	-42.8	22.2	0.00e+00	0	43	0	1320157184	55	3983
2026-01-23 06:38:05.42	359.30	24.81	-42.2	-43.0	22.0	0.00e+00	0	43	0	1323302912	55	4089
2026-01-23 06:38:06.43	359.03	24.75	-42.2	-43.1	22.0	0.00e+00	0	43	0	1326448640	55	4106
2026-01-23 06:38:07.44	358.76	24.69	-42.3	-43.1	22.0	0.00e+00	0	43	0	1329594368	55	4121
2026-01-23 06:38:08.45	358.48	24.64	-42.3	-43.1	21.9	0.00e+00	0	43	0	1332740096	55	4140
2026-01-23 06:38:09.45	358.22	24.58	-42.2	-43.0	22.0	0.00e+00	0	43	0	1335885824	55	4098
2026-01-23 06:38:10.46	357.95	24.52	-41.9	-42.7	22.2	0.00e+00	0	43	0	1339031552	55	3942
2026-01-23 06:38:11.47	357.68	24.45	-41.9	-42.7	22.3	0.00e+00	0	43	0	1342177280	55	3934
2026-01-23 06:38:12.48	357.42	24.39	-42.0	-42.8	22.3	0.00e+00	0	43	0	1345323008	55	3969
2026-01-23 06:38:13.49	357.15	24.33	-42.0	-42.8	22.2	0.00e+00	0	43	0	1348468736	55	3980
2026-01-23 06:38:14.50	356.89	24.27	-42.1	-42.9	22.2	0.00e+00	0	43	0	1351614464	55	4035
2026-01-23 06:38:15.50	356.63	24.21	-42.4	-43.2	21.8	0.00e+00	0	43	0	1354760192	55	4189
2026-01-23 06:38:16.51	356.37	24.14	-42.6	-43.5	21.7	0.00e+00	0	43	0	1357905920	55	4302
2026-01-23 06:38:17.52	356.10	24.08	-42.7	-43.5	21.6	0.00e+00	0	43	0	1361051648	55	4323
2026-01-23 06:38:18.53	355.84	24.02	-42.3	-43.2	21.8	0.00e+00	0	43	0	1364197376	55	4155
2026-01-23 06:38:19.54	355.59	23.95	-42.2	-43.0	21.9	0.00e+00	0	43	0	1367343104	55	4093
2026-01-23 06:38:20.54	355.33	23.89	-42.3	-43.1	21.9	0.00e+00	0	43	0	1370488832	55	4115
2026-01-23 06:38:21.55	355.07	23.82	-42.0	-42.8	22.1	0.00e+00	0	43	0	1373634560	55	3991
2026-01-23 06:38:22.56	354.82	23.75	-41.9	-42.7	22.2	0.00e+00	0	43	0	1376780288	55	3939
2026-01-23 06:38:23.57	354.56	23.69	-41.6	-42.4	22.5	0.00e+00	0	43	0	1379926016	55	3782
2026-01-23 06:38:24.57	354.31	23.62	-41.5	-42.2	22.7	0.00e+00	0	43	0	1383071744	55	3726
2026-01-23 06:38:25.58	354.06	23.55	-41.7	-42.5	22.4	0.00e+00	0	43	0	1386217472	55	3857
2026-01-23 06:38:26.59	353.81	23.48	-42.0	-42.8	22.2	0.00e+00	0	43	0	1389363200	55	3966
2026-01-23 06:38:27.60	353.56	23.42	-42.1	-42.9	22.1	0.00e+00	0	43	0	1392508928	55	4017
2026-01-23 06:38:28.61	353.31	23.35	-42.1	-42.9	22.0	0.00e+00	0	43	0	1395654656	55	4041
2026-01-23 06:38:29.61	353.07	23.28	-42.2	-43.0	21.9	0.00e+00	0	43	0	1398800384	55	4060
2026-01-23 06:38:30.62	352.82	23.21	-42.1	-42.9	22.0	0.00e+00	0	43	0	1401946112	55	4042
2026-01-23 06:38:31.63	352.57	23.14	-42.1	-42.9	22.1	0.00e+00	0	43	0	1405091840	55	4025
2026-01-23 06:38:32.64	352.33	23.07	-41.9	-42.7	22.2	0.00e+00	0	43	0	1408237568	55	3955
2026-01-23 06:38:33.64	352.09	23.00	-41.9	-42.7	22.3	0.00e+00	0	43	0	1411383296	55	3945
2026-01-23 06:38:34.65	351.85	22.93	-42.0	-42.8	22.2	0.00e+00	0	43	0	1414529024	55	3982
2026-01-23 06:38:35.66	351.60	22.86	-42.0	-42.8	22.3	0.00e+00	0	43	0	1417674752	55	3959
2026-01-23 06:38:36.67	351.36	22.78	-42.1	-42.9	22.1	0.00e+00	0	43	0	1420820480	55	4037
2026-01-23 06:38:37.68	351.13	22.71	-42.1	-42.9	22.2	0.00e+00	0	43	0	1423966208	55	4009
2026-01-23 06:38:38.68	350.89	22.64	-41.9	-42.7	22.3	0.00e+00	0	43	0	1427111936	55	3954
2026-01-23 06:38:39.70	350.65	22.57	-41.8	-42.6	22.4	0.00e+00	0	43	0	1430257664	55	3894
2026-01-23 06:38:40.70	350.42	22.49	-41.9	-42.6	22.3	0.00e+00	0	43	0	1433403392	55	3908
2026-01-23 06:38:41.71	350.18	22.42	-41.9	-42.7	22.3	0.00e+00	0	43	0	1436549120	55	3933
2026-01-23 06:38:42.72	349.95	22.35	-42.0	-42.8	22.2	0.00e+00	0	43	0	1439694848	55	4001
2026-01-23 06:38:43.73	349.72	22.27	-42.0	-42.8	22.3	0.00e+00	0	43	0	1442840576	55	3973
2026-01-23 06:38:44.74	349.49	22.20	-42.1	-42.9	22.1	0.00e+00	0	43	0	1445986304	55	4034
2026-01-23 06:38:45.74	349.26	22.12	-42.3	-43.2	22.0	0.00e+00	0	43	0	1449132032	55	4156
2026-01-23 06:38:46.75	349.03	22.05	-42.6	-43.4	21.7	0.00e+00	0	43	0	1452277760	55	4287
2026-01-23 06:38:47.76	348.80	21.97	-42.6	-43.4	21.7	0.00e+00	0	43	0	1455423488	55	4285
2026-01-23 06:38:48.77	348.58	21.90	-42.5	-43.4	21.8	0.00e+00	0	43	0	1458569216	55	4258
2026-01-23 06:38:49.78	348.35	21.82	-42.4	-43.2	21.9	0.00e+00	0	43	0	1461714944	55	4186
2026-01-23 06:38:50.79	348.13	21.75	-42.4	-43.2	21.9	0.00e+00	0	43	0	1464860672	55	4168
2026-01-23 06:38:51.79	347.91	21.67	-42.3	-43.2	22.0	0.00e+00	0	43	0	1468006400	55	4147
2026-01-23 06:38:52.80	347.68	21.60	-42.0	-42.8	22.2	0.00e+00	0	43	0	1471152128	55	3992
2026-01-23 06:38:53.81	347.46	21.52	-41.9	-42.7	22.3	0.00e+00	0	43	0	1474297856	55	3923
2026-01-23 06:38:54.82	347.24	21.44	-42.0	-42.8	22.2	0.00e+00	0	43	0	1477443584	55	3981
2026-01-23 06:38:55.83	347.02	21.37	-42.0	-42.7	22.3	0.00e+00	0	43	0	1480589312	55	3957
2026-01-23 06:38:56.84	346.81	21.29	-42.0	-42.8	22.2	0.00e+00	0	43	0	1483735040	55	3999
2026-01-23 06:38:57.85	346.59	21.21	-42.1	-42.9	22.1	0.00e+00	0	43	0	1486880768	55	4039
2026-01-23 06:38:58.85	346.38	21.13	-42.2	-43.0	22.1	0.00e+00	0	43	0	1490026496	55	4074
2026-01-23 06:38:59.86	346.16	21.06	-42.3	-43.1	21.9	0.00e+00	0	43	0	1493172224	55	4140
2026-01-23 06:39:00.87	345.95	20.98	-42.3	-43.1	21.9	0.00e+00	0	43	0	1496317952	55	4131
2026-01-23 06:39:01.88	345.74	20.90	-42.2	-43.0	22.0	0.00e+00	0	43	0	1499463680	55	4097
2026-01-23 06:39:02.89	345.52	20.82	-42.2	-43.1	22.0	0.00e+00	0	43	0	1502609408	55	4104
2026-01-23 06:39:03.90	345.31	20.74	-42.4	-43.2	21.8	0.00e+00	0	43	0	1505755136	55	4191
2026-01-23 06:39:04.91	345.11	20.66	-42.4	-43.2	21.8	0.00e+00	0	43	0	1508900864	55	4190
2026-01-23 06:39:05.91	344.90	20.59	-42.5	-43.4	21.6	0.00e+00	0	43	0	1512046592	55	4263
2026-01-23 06:39:06.92	344.69	20.51	-42.7	-43.5	21.5	0.00e+00	0	43	0	1515192320	55	4332
2026-01-23 06:39:07.93	344.49	20.43	-42.7	-43.5	21.5	0.00e+00	0	43	0	1518338048	55	4325
2026-01-23 06:39:08.94	344.28	20.35	-42.6	-43.5	21.5	0.00e+00	0	43	0	1521483776	55	4303
2026-01-23 06:39:09.94	344.08	20.27	-42.4	-43.2	21.7	0.00e+00	0	43	0	1524629504	55	4170
2026-01-23 06:39:10.95	343.88	20.19	-42.4	-43.2	21.7	0.00e+00	0	43	0	1527775232	55	4171
2026-01-23 06:39:11.96	343.68	20.11	-42.3	-43.1	21.9	0.00e+00	0	43	0	1531969536	55	4113
2026-01-23 06:39:12.97	343.48	20.03	-42.4	-43.2	21.8	0.00e+00	0	43	0	1535115264	55	4193
2026-01-23 06:39:13.97	343.28	19.95	-42.1	-42.9	22.0	0.00e+00	0	43	0	1538260992	55	4032
2026-01-23 06:39:14.98	343.08	19.87	-42.1	-42.9	22.1	0.00e+00	0	43	0	1540358144	55	4006
2026-01-23 06:39:15.99	342.88	19.79	-42.0	-42.8	22.2	0.00e+00	0	43	0	1543503872	55	3992
2026-01-23 06:39:17.00	342.69	19.71	-42.2	-43.0	22.1	0.00e+00	0	43	0	1546649600	55	4056
2026-01-23 06:39:18.01	342.49	19.63	-42.3	-43.1	21.9	0.00e+00	0	43	0	1549795328	55	4118
2026-01-23 06:39:19.02	342.30	19.55	-42.4	-43.3	21.8	0.00e+00	0	43	0	1552941056	55	4205
2026-01-23 06:39:20.02	342.11	19.47	-42.6	-43.5	21.6	0.00e+00	0	43	0	1556086784	55	4295
2026-01-23 06:39:21.03	341.91	19.39	-42.7	-43.5	21.6	0.00e+00	0	43	0	1559232512	55	4325
2026-01-23 06:39:22.04	341.72	19.31	-42.7	-43.5	21.5	0.00e+00	0	43	0	1562378240	55	4340
2026-01-23 06:39:23.05	341.53	19.23	-42.7	-43.5	21.6	0.00e+00	0	43	0	1565523968	55	4323
2026-01-23 06:39:24.05	341.35	19.15	-42.7	-43.5	21.5	0.00e+00	0	43	0	1568669696	55	4328
2026-01-23 06:39:25.06	341.16	19.07	-42.6	-43.4	21.6	0.00e+00	0	43	0	1572864000	55	4285
2026-01-23 06:39:26.07	340.97	18.99	-42.6	-43.4	21.6	0.00e+00	0	43	0	1576009728	55	4274
2026-01-23 06:39:27.08	340.78	18.91	-42.6	-43.5	21.5	0.00e+00	0	43	0	1579155456	55	4308
2026-01-23 06:39:28.08	340.60	18.83	-42.8	-43.7	21.4	0.00e+00	0	43	0	1582301184	56	4170
2026-01-23 06:39:29.09	340.42	18.74	-42.9	-43.8	21.3	0.00e+00	0	43	0	1585446912	56	4213
2026-01-23 06:39:30.10	340.23	18.66	-43.0	-43.9	21.2	0.00e+00	0	43	0	1587544064	56	4247
2026-01-23 06:39:31.11	340.05	18.58	-43.0	-43.9	21.2	0.00e+00	0	43	0	1590689792	56	4263
2026-01-23 06:39:32.12	339.87	18.50	-42.9	-43.8	21.2	0.00e+00	0	43	0	1593835520	56	4214
2026-01-23 06:39:33.12	339.69	18.42	-43.0	-43.8	21.2	0.00e+00	0	43	0	1596981248	56	4242
2026-01-23 06:39:34.13	339.51	18.34	-42.9	-43.8	21.2	0.00e+00	0	43	0	1600126976	56	4208
2026-01-23 06:39:35.14	339.33	18.26	-42.7	-43.6	21.4	0.00e+00	0	43	0	1603272704	56	4123
2026-01-23 06:39:36.15	339.16	18.18	-42.8	-43.6	21.5	0.00e+00	0	43	0	1606418432	56	4129
2026-01-23 06:39:37.16	338.98	18.10	-42.6	-43.5	21.6	0.00e+00	0	43	0	1610612736	56	4069
2026-01-23 06:39:38.16	338.81	18.02	-42.6	-43.4	21.6	0.00e+00	0	43	0	1613758464	56	4044
2026-01-23 06:39:39.17	338.63	17.93	-42.7	-43.6	21.5	0.00e+00	0	43	0	1616904192	56	4110
2026-01-23 06:39:40.18	338.46	17.85	-42.7	-43.5	21.6	0.00e+00	0	43	0	1620049920	56	4072
2026-01-23 06:39:41.19	338.29	17.77	-42.6	-43.4	21.7	0.00e+00	0	43	0	1623195648	56	4043
2026-01-23 06:39:42.20	338.12	17.69	-42.6	-43.5	21.6	0.00e+00	0	43	0	1626341376	56	4056
2026-01-23 06:39:43.20	337.95	17.61	-42.7	-43.6	21.6	0.00e+00	0	43	0	1629487104	56	4110
2026-01-23 06:39:44.21	337.78	17.53	-42.5	-43.4	21.8	0.00e+00	0	43	0	1632632832	56	4005
2026-01-23 06:39:45.22	337.61	17.45	-42.4	-43.3	21.8	0.00e+00	0	43	0	1634729984	56	3962
2026-01-23 06:39:46.23	337.44	17.37	-42.4	-43.2	21.9	0.00e+00	0	43	0	1637875712	56	3950
2026-01-23 06:39:47.24	337.27	17.28	-42.4	-43.3	21.8	0.00e+00	0	43	0	1641021440	56	3975
2026-01-23 06:39:48.24	337.11	17.20	-42.6	-43.4	21.7	0.00e+00	0	43	0	1644167168	56	4026
2026-01-23 06:39:49.25	336.94	17.12	-42.6	-43.4	21.7	0.00e+00	0	43	0	1647312896	56	4047
2026-01-23 06:39:50.26	336.78	17.04	-42.7	-43.6	21.6	0.00e+00	0	43	0	1651507200	56	4099
2026-01-23 06:39:51.27	336.62	16.96	-42.8	-43.6	21.5	0.00e+00	0	43	0	1654652928	56	4124
2026-01-23 06:39:52.28	336.46	16.88	-42.7	-43.6	21.5	0.00e+00	0	43	0	1657798656	56	4117
2026-01-23 06:39:53.29	336.29	16.80	-42.7	-43.6	21.5	0.00e+00	0	43	0	1660944384	56	4103
2026-01-23 06:39:54.30	336.13	16.72	-42.8	-43.6	21.5	0.00e+00	0	43	0	1664090112	56	4133
2026-01-23 06:39:55.31	335.97	16.64	-42.8	-43.6	21.5	0.00e+00	0	44	0	1667235840	56	4124
2026-01-23 06:39:56.31	335.82	16.55	-42.8	-43.6	21.4	0.00e+00	0	43	0	1670381568	56	4135
2026-01-23 06:39:57.32	335.66	16.47	-42.7	-43.6	21.5	0.00e+00	0	43	0	1673527296	56	4120
2026-01-23 06:39:58.33	335.50	16.39	-42.6	-43.4	21.6	0.00e+00	0	43	0	1676673024	56	4032
2026-01-23 06:39:59.34	335.34	16.31	-42.6	-43.5	21.6	0.00e+00	0	43	0	1679818752	56	4057
2026-01-23 06:40:00.35	335.19	16.23	-42.6	-43.5	21.6	0.00e+00	0	43	0	1681915904	56	4054
2026-01-23 06:40:01.36	335.03	16.15	-42.6	-43.4	21.6	0.00e+00	0	43	0	1686110208	56	4046
2026-01-23 06:40:02.37	334.88	16.07	-42.6	-43.5	21.6	0.00e+00	0	43	0	1689255936	56	4056
2026-01-23 06:40:03.38	334.73	15.99	-42.8	-43.6	21.5	0.00e+00	0	43	0	1692401664	56	4138
2026-01-23 06:40:04.39	334.58	15.91	-42.9	-43.8	21.3	0.00e+00	0	43	0	1695547392	56	4217
2026-01-23 06:40:05.39	334.43	15.83	-43.1	-44.0	21.2	0.00e+00	0	43	0	1698693120	56	4298
2026-01-23 06:40:06.40	334.28	15.75	-43.2	-44.1	21.1	0.00e+00	0	43	0	1701838848	56	4362
2026-01-23 06:40:07.41	334.13	15.67	-43.3	-44.2	20.9	0.00e+00	0	43	0	1704984576	57	4160
2026-01-23 06:40:08.42	333.98	15.59	-43.3	-44.2	20.9	0.00e+00	0	43	0	1708130304	57	4184
2026-01-23 06:40:09.43	333.83	15.51	-43.1	-44.0	21.0	0.00e+00	0	43	0	1711276032	57	4080
2026-01-23 06:40:10.44	333.68	15.43	-43.0	-43.9	21.1	0.00e+00	0	43	0	1714421760	57	4041
2026-01-23 06:40:11.45	333.54	15.35	-42.9	-43.8	21.2	0.00e+00	0	43	0	1717567488	57	3985
2026-01-23 06:40:12.45	333.39	15.27	-42.8	-43.6	21.3	0.00e+00	0	43	0	1720713216	57	3898
2026-01-23 06:40:13.46	333.25	15.19	-42.8	-43.6	21.3	0.00e+00	0	43	0	1723858944	57	3894
2026-01-23 06:40:14.47	333.10	15.11	-42.8	-43.7	21.3	0.00e+00	0	43	0	1727004672	57	3927
2026-01-23 06:40:15.48	332.96	15.03	-42.7	-43.6	21.4	0.00e+00	0	43	0	1730150400	57	3889
2026-01-23 06:40:16.49	332.82	14.95	-42.9	-43.7	21.3	0.00e+00	0	43	0	1733296128	57	3949
2026-01-23 06:40:17.49	332.68	14.87	-42.9	-43.8	21.3	0.00e+00	0	43	0	1736441856	57	3984
2026-01-23 06:40:18.50	332.54	14.79	-43.2	-44.0	21.1	0.00e+00	0	43	0	1739587584	57	4093
2026-01-23 06:40:19.51	332.40	14.71	-43.3	-44.2	20.9	0.00e+00	0	43	0	1742733312	57	4170
2026-01-23 06:40:20.52	332.26	14.63	-43.4	-44.3	20.8	0.00e+00	0	43	0	1745879040	57	4215
2026-01-23 06:40:21.53	332.12	14.55	-43.4	-44.3	20.8	0.00e+00	0	43	0	1749024768	57	4232
2026-01-23 06:40:22.53	331.98	14.47	-43.5	-44.5	20.7	0.00e+00	0	43	0	1752170496	57	4300
2026-01-23 06:40:23.54	331.85	14.39	-43.5	-44.4	20.6	0.00e+00	0	43	0	1755316224	57	4277
2026-01-23 06:40:24.55	331.71	14.31	-43.6	-44.5	20.5	0.00e+00	0	43	0	1758461952	57	4315
2026-01-23 06:40:25.56	331.57	14.23	-43.6	-44.5	20.5	0.00e+00	0	43	0	1761607680	57	4312
2026-01-23 06:40:26.57	331.44	14.16	-43.5	-44.5	20.5	0.00e+00	0	43	0	1764753408	57	4296
2026-01-23 06:40:27.58	331.30	14.08	-43.3	-44.2	20.7	0.00e+00	0	43	0	1767899136	57	4186
2026-01-23 06:40:28.59	331.17	14.00	-43.2	-44.1	20.9	0.00e+00	0	43	0	1771044864	57	4120
2026-01-23 06:40:29.60	331.04	13.92	-43.2	-44.1	20.9	0.00e+00	0	43	0	1774190592	57	4110
2026-01-23 06:40:30.61	330.91	13.84	-43.2	-44.1	20.9	0.00e+00	0	43	0	1777336320	57	4114
2026-01-23 06:40:31.61	330.78	13.76	-43.1	-44.0	21.0	0.00e+00	0	43	0	1780482048	57	4092
2026-01-23 06:40:32.62	330.65	13.68	-43.2	-44.1	20.9	0.00e+00	0	44	0	1783627776	57	4135
2026-01-23 06:40:33.63	330.52	13.61	-43.3	-44.2	20.9	0.00e+00	0	43	0	1786773504	57	4156
2026-01-23 06:40:34.64	330.39	13.53	-43.3	-44.2	20.9	0.00e+00	0	44	0	1789919232	57	4169
2026-01-23 06:40:35.65	330.26	13.45	-43.5	-44.4	20.7	0.00e+00	0	43	0	1793064960	57	4285
2026-01-23 06:40:36.65	330.13	13.37	-43.6	-44.5	20.6	0.00e+00	0	43	0	1796210688	57	4333
2026-01-23 06:40:37.66	330.01	13.30	-43.6	-44.6	20.5	0.00e+00	0	43	0	1799356416	57	4359
2026-01-23 06:40:38.67	329.88	13.22	-43.6	-44.6	20.5	0.00e+00	0	43	0	1802502144	57	4355
2026-01-23 06:40:39.68	329.75	13.14	-43.7	-44.7	20.4	0.00e+00	0	44	0	1805647872	57	4404
2026-01-23 06:40:40.69	329.63	13.06	-43.5	-44.5	20.5	0.00e+00	0	43	0	1808793600	57	4297
2026-01-23 06:40:41.70	329.50	12.98	-43.4	-44.3	20.6	0.00e+00	0	43	0	1811939328	57	4238
2026-01-23 06:40:42.71	329.38	12.91	-43.4	-44.3	20.6	0.00e+00	0	43	0	1815085056	57	4209
2026-01-23 06:40:43.72	329.26	12.83	-43.2	-44.1	20.8	0.00e+00	0	43	0	1818230784	57	4126
2026-01-23 06:40:44.73	329.14	12.75	-43.2	-44.1	20.8	0.00e+00	0	43	0	1821376512	57	4145
2026-01-23 06:40:45.73	329.02	12.68	-43.0	-43.8	21.1	0.00e+00	0	43	0	1824522240	57	4001
2026-01-23 06:40:46.74	328.89	12.60	-42.9	-43.7	21.1	0.00e+00	0	43	0	1827667968	57	3956
2026-01-23 06:40:47.75	328.77	12.52	-42.8	-43.7	21.2	0.00e+00	0	43	0	1830813696	57	3941
2026-01-23 06:40:48.76	328.65	12.45	-42.8	-43.7	21.2	0.00e+00	0	43	0	1833959424	57	3940
2026-01-23 06:40:49.77	328.53	12.37	-42.8	-43.7	21.2	0.00e+00	0	43	0	1837105152	57	3932
2026-01-23 06:40:50.77	328.42	12.29	-42.8	-43.7	21.3	0.00e+00	0	43	0	1840250880	57	3924
2026-01-23 06:40:51.78	328.30	12.22	-42.8	-43.7	21.2	0.00e+00	0	43	0	1843396608	57	3935
2026-01-23 06:40:52.79	328.18	12.14	-42.9	-43.8	21.2	0.00e+00	0	43	0	1846542336	57	3986
2026-01-23 06:40:53.80	328.07	12.07	-43.2	-44.1	20.9	0.00e+00	0	43	0	1849688064	57	4104
2026-01-23 06:40:54.81	327.95	11.99	-43.3	-44.2	20.8	0.00e+00	0	43	0	1852833792	57	4151
2026-01-23 06:40:55.81	327.84	11.92	-43.5	-44.4	20.6	0.00e+00	0	43	0	1855979520	57	4290
2026-01-23 06:40:56.82	327.72	11.84	-43.7	-44.7	20.4	0.00e+00	0	43	0	1859125248	58	4167
2026-01-23 06:40:57.83	327.61	11.76	-43.9	-44.9	20.2	0.00e+00	0	43	0	1862270976	58	4245
2026-01-23 06:40:58.84	327.49	11.69	-44.0	-45.1	20.0	0.00e+00	0	43	0	1865416704	58	4343
2026-01-23 06:40:59.85	327.38	11.61	-43.9	-44.9	20.1	0.00e+00	0	43	0	1868562432	58	4286
2026-01-23 06:41:00.85	327.27	11.54	-44.0	-45.0	20.0	0.00e+00	0	44	0	1871708160	58	4306
2026-01-23 06:41:01.86	327.16	11.46	-43.9	-44.9	20.0	0.00e+00	0	44	0	1874853888	58	4290
2026-01-23 06:41:02.87	327.05	11.39	-43.7	-44.7	20.2	0.00e+00	0	43	0	1877999616	58	4163
2026-01-23 06:41:03.88	326.94	11.31	-43.7	-44.7	20.1	0.00e+00	0	43	0	1881145344	58	4182
2026-01-23 06:41:04.88	326.83	11.24	-43.7	-44.6	20.2	0.00e+00	0	44	0	1884291072	58	4139
2026-01-23 06:41:05.89	326.72	11.17	-43.4	-44.3	20.6	0.00e+00	0	43	0	1887436800	58	3969
2026-01-23 06:41:06.90	326.61	11.09	-43.2	-44.1	20.7	0.00e+00	0	43	0	1890582528	58	3911
2026-01-23 06:41:07.91	326.50	11.02	-43.3	-44.2	20.6	0.00e+00	0	43	0	1893728256	58	3947
2026-01-23 06:41:08.92	326.39	10.94	-43.1	-44.0	20.9	0.00e+00	0	43	0	1896873984	58	3833
2026-01-23 06:41:09.92	326.29	10.87	-43.2	-44.2	20.7	0.00e+00	0	44	0	1900019712	58	3914
2026-01-23 06:41:10.93	326.18	10.79	-43.3	-44.2	20.7	0.00e+00	0	43	0	1903165440	58	3953
2026-01-23 06:41:11.94	326.07	10.72	-43.4	-44.4	20.6	0.00e+00	0	44	0	1906311168	58	4005
2026-01-23 06:41:12.95	325.97	10.65	-43.4	-44.4	20.6	0.00e+00	0	44	0	1909456896	58	4013
2026-01-23 06:41:13.96	325.86	10.57	-43.6	-44.5	20.4	0.00e+00	0	44	0	1912602624	58	4092
2026-01-23 06:41:14.97	325.76	10.50	-43.7	-44.6	20.3	0.00e+00	0	44	0	1915748352	58	4143
2026-01-23 06:41:15.97	325.66	10.43	-43.8	-44.8	20.2	0.00e+00	0	43	0	1918894080	58	4216
2026-01-23 06:41:16.98	325.55	10.35	-44.0	-45.0	20.0	0.00e+00	0	43	0	1922039808	58	4305
2026-01-23 06:41:17.99	325.45	10.28	-44.1	-45.1	19.9	0.00e+00	0	43	0	1925185536	58	4386
2026-01-23 06:41:19.00	325.35	10.21	-44.1	-45.2	19.8	0.00e+00	0	44	0	1928331264	58	4401
2026-01-23 06:41:20.01	325.24	10.13	-44.3	-45.4	19.6	0.00e+00	0	44	0	1931476992	59	4274
2026-01-23 06:41:21.01	325.14	10.06	-44.4	-45.4	19.6	0.00e+00	0	43	0	1934622720	59	4278
2026-01-23 06:41:22.02	325.04	9.99	-44.3	-45.4	19.6	0.00e+00	0	44	0	1937768448	59	4273
2026-01-23 06:41:23.03	324.94	9.92	-44.5	-45.6	19.4	0.00e+00	0	44	0	1940914176	59	4345
2026-01-23 06:41:24.04	324.84	9.85	-44.4	-45.5	19.4	0.00e+00	0	43	0	1944059904	59	4332
2026-01-23 06:41:25.04	324.75	9.77	-44.6	-45.7	19.3	0.00e+00	0	44	0	1947205632	59	4392
2026-01-23 06:41:26.05	324.65	9.70	-44.3	-45.4	19.5	0.00e+00	0	44	0	1950351360	59	4274
2026-01-23 06:41:27.06	324.55	9.63	-44.3	-45.4	19.5	0.00e+00	0	44	0	1953497088	59	4257
2026-01-23 06:41:28.07	324.45	9.56	-44.1	-45.2	19.7	0.00e+00	0	44	0	1956642816	59	4146
2026-01-23 06:41:29.08	324.35	9.49	-44.1	-45.2	19.7	0.00e+00	0	43	0	1959788544	59	4167
2026-01-23 06:41:30.09	324.26	9.41	-44.0	-45.0	19.8	0.00e+00	0	44	0	1962934272	59	4073
2026-01-23 06:41:31.09	324.16	9.34	-44.4	-45.4	19.5	0.00e+00	0	44	0	1966080000	59	4282
2026-01-23 06:41:32.10	324.07	9.27	-44.4	-45.4	19.4	0.00e+00	0	44	0	1969225728	59	4290
2026-01-23 06:41:33.11	323.97	9.20	-44.4	-45.5	19.4	0.00e+00	0	44	0	1972371456	59	4323
2026-01-23 06:41:34.12	323.88	9.13	-44.3	-45.4	19.5	0.00e+00	0	44	0	1975517184	59	4251
2026-01-23 06:41:35.13	323.78	9.06	-44.3	-45.3	19.6	0.00e+00	0	43	0	1978662912	59	4238
2026-01-23 06:41:36.14	323.69	8.99	-44.2	-45.3	19.6	0.00e+00	0	43	0	1981808640	59	4196
2026-01-23 06:41:37.14	323.60	8.92	-44.5	-45.6	19.3	0.00e+00	0	44	0	1984954368	59	4364
2026-01-23 06:41:38.15	323.50	8.85	-44.6	-45.8	19.2	0.00e+00	0	43	0	1988100096	59	4444
2026-01-23 06:41:39.16	323.41	8.78	-44.4	-45.5	19.4	0.00e+00	0	44	0	1991245824	59	4312
2026-01-23 06:41:40.17	323.32	8.71	-44.5	-45.6	19.3	0.00e+00	0	44	0	1994391552	59	4384
2026-01-23 06:41:41.17	323.23	8.64	-44.6	-45.8	19.2	0.00e+00	0	44	0	1997537280	59	4449
2026-01-23 06:41:42.18	323.14	8.57	-44.5	-45.6	19.1	0.00e+00	0	44	0	2000683008	60	4104
2026-01-23 06:41:43.19	323.05	8.50	-44.3	-45.4	19.2	0.00e+00	0	44	0	2003828736	60	4045
2026-01-23 06:41:44.20	322.96	8.43	-44.4	-45.5	19.1	0.00e+00	0	43	0	2006974464	60	4097
2026-01-23 06:41:45.20	322.87	8.36	-44.5	-45.6	19.0	0.00e+00	0	44	0	2010120192	60	4119
2026-01-23 06:41:46.21	322.78	8.29	-44.6	-45.8	18.8	0.00e+00	0	43	0	2013265920	60	4207
2026-01-23 06:41:47.22	322.69	8.22	-44.6	-45.8	18.8	0.00e+00	0	44	0	2016411648	60	4213
2026-01-23 06:41:48.23	322.60	8.15	-44.7	-45.8	18.8	0.00e+00	0	44	0	2019557376	60	4220
2026-01-23 06:41:49.24	322.51	8.08	-44.8	-45.9	18.6	0.00e+00	0	43	0	2022703104	60	4280
2026-01-23 06:41:50.24	322.43	8.01	-44.8	-46.0	18.6	0.00e+00	0	44	0	2025848832	60	4312
2026-01-23 06:41:51.25	322.34	7.94	-44.7	-45.9	18.6	0.00e+00	0	44	0	2028994560	60	4270
2026-01-23 06:41:52.26	322.25	7.87	-44.6	-45.7	18.8	0.00e+00	0	44	0	2032140288	60	4189
2026-01-23 06:41:53.27	322.17	7.80	-44.8	-46.0	18.5	0.00e+00	0	43	0	2035286016	60	4311
2026-01-23 06:41:54.28	322.08	7.74	-44.6	-45.8	18.7	0.00e+00	0	43	0	2038431744	60	4212
2026-01-23 06:41:55.28	321.99	7.67	-44.7	-45.8	18.6	0.00e+00	0	43	0	2041577472	60	4235
2026-01-23 06:41:56.29	321.91	7.60	-44.6	-45.8	18.7	0.00e+00	0	44	0	2044723200	60	4198
2026-01-23 06:41:57.30	321.83	7.53	-44.6	-45.8	18.7	0.00e+00	0	44	0	2047868928	60	4196
2026-01-23 06:41:58.31	321.74	7.46	-44.3	-45.4	19.1	0.00e+00	0	44	0	2051014656	60	4033
