passes_logs/2026/01/23/R3.2S_Murmansk/R3.2S_Murmansk__20260123_215925_JL1KF02B03_rec.log

#Pass ID: 20260123_215925_JL1KF02B03
#Satellite: JL1KF02B03
#Configuration: 01B_900M
#almurnet v.1.7.20251203
#Start time: 2026-01-23 21:59:24

#Version: 2.2.20231116
#Station: R3.2S_Murmansk
#Location: 33.079688 lon 68.888172 lat
#TLE: 1 61190U 24169B   26022.91257898  .00006723  00000+0  42235-3 0  9996
#TLE: 2 61190  97.5626 113.9295 0014746 155.0471 205.1474 15.09499681 73914

#Time	Az	El	Level	Level2	SNR	BER	BlckErr	Temp	State	Recorded	gain1	gain2
2026-01-23 21:59:24.98	218.44	2.00	-54.8	-56.8	6.3	0.00e+00	0	45	0	0	80	19019
2026-01-23 21:59:25.95	218.54	2.05	-55.0	-57.1	6.2	0.00e+00	0	45	104	0	81	18480
2026-01-23 21:59:26.92	218.64	2.11	-55.0	-57.1	6.2	0.00e+00	0	45	104	0	81	18538
2026-01-23 21:59:27.89	218.74	2.16	-55.0	-57.1	6.2	0.00e+00	0	45	104	0	81	18582
2026-01-23 21:59:28.86	218.84	2.22	-55.0	-57.1	6.2	0.00e+00	0	45	104	0	81	18568
2026-01-23 21:59:29.83	218.94	2.27	-55.0	-57.1	6.2	0.00e+00	0	45	104	0	81	18523
2026-01-23 21:59:30.80	219.04	2.33	-55.0	-57.1	6.2	0.00e+00	0	45	104	0	81	18503
2026-01-23 21:59:31.77	219.14	2.39	-55.0	-57.1	6.2	0.00e+00	0	45	104	0	81	18425
2026-01-23 21:59:32.74	219.24	2.44	-54.9	-57.1	6.2	0.00e+00	0	45	104	0	81	18407
2026-01-23 21:59:33.70	219.34	2.50	-54.9	-57.0	6.2	0.00e+00	0	45	104	0	81	18267
2026-01-23 21:59:34.68	219.44	2.55	-54.9	-57.0	6.2	0.00e+00	0	45	104	0	81	18246
2026-01-23 21:59:35.64	219.54	2.61	-54.8	-56.9	6.2	0.00e+00	0	45	104	0	81	18134
2026-01-23 21:59:36.61	219.65	2.66	-54.8	-56.8	6.2	0.00e+00	0	45	104	0	81	17961
2026-01-23 21:59:37.58	219.75	2.72	-54.8	-56.8	6.2	0.00e+00	0	45	104	0	81	17942
2026-01-23 21:59:38.55	219.85	2.78	-54.7	-56.8	6.2	0.00e+00	0	45	104	0	81	17811
2026-01-23 21:59:39.51	219.96	2.83	-54.7	-56.7	6.2	0.00e+00	0	45	104	0	81	17763
2026-01-23 21:59:40.48	220.06	2.89	-54.6	-56.7	6.2	0.00e+00	0	45	104	0	81	17639
2026-01-23 21:59:41.45	220.17	2.94	-54.6	-56.6	6.2	0.00e+00	0	45	104	0	81	17562
2026-01-23 21:59:42.42	220.27	3.00	-54.5	-56.6	6.2	0.00e+00	0	45	104	0	81	17423
2026-01-23 21:59:43.39	220.38	3.06	-54.4	-56.5	6.2	0.00e+00	0	45	104	0	80	18257
2026-01-23 21:59:44.37	220.49	3.11	-54.3	-56.4	6.2	0.00e+00	0	45	104	0	80	18049
2026-01-23 21:59:45.33	220.59	3.17	-54.2	-56.2	6.2	0.00e+00	0	45	104	0	80	17739
2026-01-23 21:59:46.30	220.70	3.23	-54.0	-56.1	6.2	0.00e+00	0	45	104	0	80	17387
2026-01-23 21:59:47.27	220.81	3.28	-53.9	-56.0	6.2	0.00e+00	0	45	104	0	79	18310
2026-01-23 21:59:48.24	220.92	3.34	-53.4	-55.5	6.2	0.00e+00	0	45	104	0	78	18253
2026-01-23 21:59:49.21	221.02	3.40	-53.3	-55.5	6.2	0.00e+00	0	45	104	0	78	18185
2026-01-23 21:59:50.18	221.13	3.46	-53.3	-55.4	6.2	0.00e+00	0	45	104	0	78	18107
2026-01-23 21:59:51.15	221.24	3.51	-53.3	-55.4	6.2	0.00e+00	0	46	104	0	78	18105
2026-01-23 21:59:52.12	221.36	3.57	-53.3	-55.4	6.2	0.00e+00	0	45	104	0	78	18118
2026-01-23 21:59:53.10	221.47	3.63	-53.3	-55.4	6.2	0.00e+00	0	46	104	0	78	18064
2026-01-23 21:59:54.06	221.58	3.68	-53.3	-55.4	6.2	0.00e+00	0	46	104	0	78	18056
2026-01-23 21:59:55.03	221.69	3.74	-53.3	-55.4	6.2	0.00e+00	0	46	104	0	78	18019
2026-01-23 21:59:56.00	221.80	3.80	-53.3	-55.4	6.2	0.00e+00	0	46	104	0	78	18054
2026-01-23 21:59:56.97	221.92	3.86	-53.3	-55.4	6.2	0.00e+00	0	46	104	0	78	18028
2026-01-23 21:59:57.94	222.03	3.91	-53.3	-55.4	6.2	0.00e+00	0	46	104	0	78	18035
2026-01-23 21:59:58.91	222.14	3.97	-53.3	-55.4	6.2	0.00e+00	0	46	104	0	78	17999
2026-01-23 21:59:59.88	222.26	4.03	-53.3	-55.3	6.2	0.00e+00	0	46	104	0	78	17962
2026-01-23 22:00:00.85	222.37	4.09	-53.3	-55.4	6.2	0.00e+00	0	46	104	0	78	18047
2026-01-23 22:00:01.82	222.49	4.15	-53.3	-55.4	6.2	0.00e+00	0	46	104	0	78	18010
2026-01-23 22:00:02.79	222.61	4.20	-53.3	-55.3	6.2	0.00e+00	0	46	104	0	78	17932
2026-01-23 22:00:03.76	222.72	4.26	-53.3	-55.4	6.2	0.00e+00	0	46	104	0	78	18019
2026-01-23 22:00:04.72	222.84	4.32	-53.3	-55.4	6.2	0.00e+00	0	46	104	0	78	18042
2026-01-23 22:00:05.69	222.96	4.38	-53.3	-55.4	6.2	0.00e+00	0	46	104	0	78	18027
2026-01-23 22:00:06.66	223.08	4.44	-53.3	-55.4	6.2	0.00e+00	0	46	104	0	78	17995
2026-01-23 22:00:07.63	223.20	4.50	-53.3	-55.4	6.2	0.00e+00	0	46	104	0	78	17972
2026-01-23 22:00:08.60	223.32	4.55	-53.2	-55.4	6.2	0.00e+00	0	46	104	0	78	18002
2026-01-23 22:00:09.57	223.44	4.61	-53.3	-55.3	6.2	0.00e+00	0	46	104	0	78	17957
2026-01-23 22:00:10.54	223.56	4.67	-53.3	-55.4	6.2	0.00e+00	0	46	104	0	78	17976
2026-01-23 22:00:11.51	223.68	4.73	-53.3	-55.4	6.2	0.00e+00	0	46	104	0	78	17977
2026-01-23 22:00:12.48	223.80	4.79	-53.2	-55.4	6.2	0.00e+00	0	46	104	0	78	17989
2026-01-23 22:00:13.45	223.92	4.85	-53.2	-55.3	6.2	0.00e+00	0	46	104	0	78	17970
2026-01-23 22:00:14.41	224.05	4.91	-53.2	-55.3	6.2	0.00e+00	0	46	104	0	78	17932
2026-01-23 22:00:15.38	224.17	4.97	-53.2	-55.3	6.2	0.00e+00	0	46	104	0	78	17943
2026-01-23 22:00:16.35	224.29	5.02	-53.3	-55.4	6.2	0.00e+00	0	46	104	0	78	18013
2026-01-23 22:00:17.32	224.42	5.08	-53.4	-55.5	6.2	0.00e+00	0	46	104	0	78	18256
2026-01-23 22:00:18.29	224.55	5.14	-53.2	-55.3	6.2	0.00e+00	0	46	104	0	78	17907
2026-01-23 22:00:19.26	224.67	5.20	-53.3	-55.4	6.2	0.00e+00	0	46	104	0	78	18152
2026-01-23 22:00:20.23	224.80	5.26	-53.3	-55.3	6.2	0.00e+00	0	46	104	0	78	17954
2026-01-23 22:00:21.20	224.93	5.32	-53.2	-55.2	6.2	0.00e+00	0	46	104	0	78	17735
2026-01-23 22:00:22.18	225.06	5.38	-53.1	-55.2	6.2	0.00e+00	0	46	104	0	78	17753
2026-01-23 22:00:23.15	225.18	5.44	-53.3	-55.4	6.2	0.00e+00	0	46	104	0	78	18086
2026-01-23 22:00:24.13	225.32	5.50	-53.2	-55.4	6.2	0.00e+00	0	46	104	0	78	18005
2026-01-23 22:00:25.10	225.45	5.56	-53.2	-55.3	6.2	0.00e+00	0	46	104	0	78	17846
2026-01-23 22:00:26.06	225.57	5.62	-53.1	-55.2	6.2	0.00e+00	0	46	104	0	78	17713
2026-01-23 22:00:27.03	225.71	5.68	-53.3	-55.4	6.2	0.00e+00	0	46	104	0	78	18050
2026-01-23 22:00:28.00	225.84	5.74	-53.2	-55.3	6.2	0.00e+00	0	46	104	0	78	17963
2026-01-23 22:00:28.97	225.97	5.80	-53.2	-55.3	6.2	0.00e+00	0	46	104	0	78	17833
2026-01-23 22:00:29.93	226.10	5.86	-53.1	-55.2	6.2	0.00e+00	0	46	104	0	78	17749
2026-01-23 22:00:30.91	226.24	5.92	-53.3	-55.4	6.2	0.00e+00	0	46	104	0	78	18061
2026-01-23 22:00:31.88	226.37	5.98	-53.2	-55.3	6.2	0.00e+00	0	46	104	0	78	17889
2026-01-23 22:00:32.85	226.51	6.04	-53.2	-55.3	6.2	0.00e+00	0	46	104	0	78	17806
2026-01-23 22:00:33.82	226.64	6.10	-53.1	-55.2	6.2	0.00e+00	0	46	104	0	78	17713
2026-01-23 22:00:34.79	226.78	6.16	-53.2	-55.3	6.2	0.00e+00	0	46	104	0	78	17930
2026-01-23 22:00:35.76	226.92	6.22	-53.2	-55.3	6.2	0.00e+00	0	46	104	0	78	17902
2026-01-23 22:00:36.72	227.05	6.28	-53.2	-55.2	6.2	0.00e+00	0	47	104	0	78	17753
2026-01-23 22:00:37.69	227.19	6.34	-53.1	-55.2	6.2	0.00e+00	0	46	104	0	78	17763
2026-01-23 22:00:38.66	227.33	6.40	-53.2	-55.3	6.2	0.00e+00	0	47	104	0	78	17822
2026-01-23 22:00:39.63	227.47	6.46	-53.2	-55.3	6.2	0.00e+00	0	47	104	0	78	17917
2026-01-23 22:00:40.60	227.61	6.52	-53.2	-55.2	6.2	0.00e+00	0	46	104	0	78	17745
2026-01-23 22:00:41.56	227.75	6.58	-53.1	-55.2	6.2	0.00e+00	0	47	104	0	78	17693
2026-01-23 22:00:42.53	227.89	6.65	-53.2	-55.2	6.2	0.00e+00	0	46	104	0	78	17761
2026-01-23 22:00:43.50	228.04	6.71	-53.3	-55.4	6.2	0.00e+00	0	46	104	0	78	17975
2026-01-23 22:00:44.47	228.18	6.77	-53.2	-55.3	6.2	0.00e+00	0	46	104	0	78	17851
2026-01-23 22:00:45.44	228.32	6.83	-53.1	-55.3	6.2	0.00e+00	0	46	104	0	78	17808
2026-01-23 22:00:46.41	228.47	6.89	-53.2	-55.3	6.2	0.00e+00	0	47	104	0	78	17795
2026-01-23 22:00:47.37	228.61	6.95	-53.3	-55.4	6.2	0.00e+00	0	46	104	0	78	18021
2026-01-23 22:00:48.35	228.76	7.01	-53.2	-55.3	6.2	0.00e+00	0	46	104	0	78	17880
2026-01-23 22:00:49.32	228.91	7.07	-53.2	-55.3	6.2	0.00e+00	0	46	104	0	78	17825
2026-01-23 22:00:50.29	229.05	7.13	-53.2	-55.3	6.2	0.00e+00	0	46	104	0	78	17785
2026-01-23 22:00:51.26	229.20	7.20	-53.3	-55.4	6.2	0.00e+00	0	47	104	0	78	18008
2026-01-23 22:00:52.22	229.35	7.26	-53.2	-55.3	6.2	0.00e+00	0	47	104	0	78	17872
2026-01-23 22:00:53.19	229.50	7.32	-53.2	-55.3	6.2	0.00e+00	0	46	104	0	78	17823
2026-01-23 22:00:54.16	229.65	7.38	-53.1	-55.2	6.2	0.00e+00	0	47	104	0	78	17732
2026-01-23 22:00:55.13	229.80	7.44	-53.2	-55.3	6.2	0.00e+00	0	46	104	0	78	17922
2026-01-23 22:00:56.11	229.96	7.50	-53.2	-55.3	6.2	0.00e+00	0	47	104	0	78	17938
2026-01-23 22:00:57.08	230.11	7.57	-53.2	-55.3	6.2	0.00e+00	0	47	104	0	78	17845
2026-01-23 22:00:58.05	230.26	7.63	-53.2	-55.2	6.2	0.00e+00	0	47	104	0	78	17761
2026-01-23 22:00:59.02	230.42	7.69	-53.2	-55.4	6.2	0.00e+00	0	47	104	0	78	18010
2026-01-23 22:00:59.99	230.57	7.75	-53.2	-55.3	6.2	0.00e+00	0	47	104	0	78	17885
2026-01-23 22:01:00.96	230.73	7.81	-53.2	-55.3	6.2	0.00e+00	0	46	104	0	78	17868
2026-01-23 22:01:01.93	230.89	7.87	-53.2	-55.3	6.2	0.00e+00	0	47	104	0	78	17807
2026-01-23 22:01:02.90	231.04	7.94	-53.2	-55.3	6.2	0.00e+00	0	47	104	0	78	17943
2026-01-23 22:01:03.88	231.20	8.00	-53.2	-55.3	6.2	0.00e+00	0	47	104	0	78	17832
2026-01-23 22:01:04.84	231.36	8.06	-53.2	-55.2	6.2	0.00e+00	0	46	104	0	78	17759
2026-01-23 22:01:05.81	231.52	8.12	-53.1	-55.3	6.2	0.00e+00	0	47	104	0	78	17769
2026-01-23 22:01:06.78	231.68	8.18	-53.2	-55.3	6.2	0.00e+00	0	47	104	0	78	17853
2026-01-23 22:01:07.76	231.84	8.25	-53.2	-55.3	6.2	0.00e+00	0	47	104	0	78	17904
2026-01-23 22:01:08.72	232.01	8.31	-53.2	-55.3	6.2	0.00e+00	0	47	104	0	78	17850
2026-01-23 22:01:09.69	232.17	8.37	-53.1	-55.2	6.2	0.00e+00	0	47	104	0	78	17730
2026-01-23 22:01:10.66	232.33	8.43	-53.2	-55.3	6.2	0.00e+00	0	47	104	0	78	17813
2026-01-23 22:01:11.63	232.50	8.49	-53.2	-55.3	6.2	0.00e+00	0	47	104	0	78	17883
2026-01-23 22:01:12.60	232.66	8.56	-53.2	-55.3	6.2	0.00e+00	0	47	104	0	78	17792
2026-01-23 22:01:13.56	232.83	8.62	-53.1	-55.3	6.2	0.00e+00	0	47	104	0	78	17783
2026-01-23 22:01:14.54	233.00	8.68	-53.2	-55.3	6.2	0.00e+00	0	47	104	0	78	17778
2026-01-23 22:01:15.51	233.16	8.74	-53.2	-55.3	6.2	0.00e+00	0	47	104	0	78	17935
2026-01-23 22:01:16.48	233.33	8.80	-53.2	-55.3	6.2	0.00e+00	0	47	104	0	78	17779
2026-01-23 22:01:17.45	233.50	8.87	-53.2	-55.2	6.2	0.00e+00	0	47	104	0	78	17754
2026-01-23 22:01:18.41	233.67	8.93	-53.2	-55.3	6.2	0.00e+00	0	47	104	0	78	17824
2026-01-23 22:01:19.38	233.84	8.99	-53.3	-55.4	6.2	0.00e+00	0	47	104	0	78	18015
2026-01-23 22:01:20.35	234.02	9.05	-53.2	-55.3	6.2	0.00e+00	0	47	104	0	78	17949
2026-01-23 22:01:21.32	234.19	9.11	-53.2	-55.3	6.2	0.00e+00	0	47	104	0	78	17865
2026-01-23 22:01:22.29	234.36	9.18	-53.2	-55.3	6.2	0.00e+00	0	47	104	0	78	17862
2026-01-23 22:01:23.27	234.54	9.24	-53.3	-55.4	6.2	0.00e+00	0	47	104	0	78	18075
2026-01-23 22:01:24.24	234.72	9.30	-53.2	-55.4	6.2	0.00e+00	0	47	104	0	78	18013
2026-01-23 22:01:25.21	234.89	9.36	-53.2	-55.3	6.2	0.00e+00	0	47	104	0	78	17817
2026-01-23 22:01:26.19	235.07	9.43	-42.9	-43.1	10.2	8.96e-04	0	47	104	0	58	13908
2026-01-23 22:01:27.16	235.25	9.49	-36.2	-36.0	14.4	6.46e-04	0	47	0	41943040	43	14465
2026-01-23 22:01:28.12	235.43	9.55	-37.3	-37.1	13.4	2.22e-03	0	47	0	159383552	46	13823
2026-01-23 22:01:29.09	235.61	9.61	-36.5	-36.3	13.9	1.15e-03	0	47	0	268435456	44	14235
2026-01-23 22:01:30.06	235.79	9.67	-33.8	-33.5	15.3	9.53e-05	0	47	0	369098752	39	13773
2026-01-23 22:01:31.03	235.97	9.74	-34.0	-33.8	15.2	1.14e-04	0	47	0	486539264	39	14215
2026-01-23 22:01:32.01	236.16	9.80	-33.8	-33.6	15.3	1.20e-04	0	47	0	595591168	39	13838
2026-01-23 22:01:32.98	236.34	9.86	-33.8	-33.6	15.2	1.01e-04	0	47	0	713031680	39	13908
2026-01-23 22:01:33.96	236.53	9.92	-33.2	-33.0	15.4	6.67e-05	0	47	0	813694976	38	13714
2026-01-23 22:01:34.93	236.71	9.99	-32.9	-32.7	15.5	5.72e-05	0	47	0	922746880	37	14029
2026-01-23 22:01:35.90	236.90	10.05	-33.2	-33.0	15.4	5.72e-05	0	47	0	1031798784	37	14492
2026-01-23 22:01:36.87	237.09	10.11	-33.2	-33.0	15.4	1.05e-04	0	47	0	1132462080	37	14444
2026-01-23 22:01:37.84	237.28	10.17	-33.5	-33.3	15.3	1.12e-04	0	47	0	1249902592	37	15104
2026-01-23 22:01:38.81	237.47	10.23	-33.3	-33.0	15.3	7.82e-05	0	47	0	1358954496	37	14599
2026-01-23 22:01:39.78	237.66	10.29	-33.3	-33.2	15.4	7.62e-05	0	47	0	1476395008	37	14783
2026-01-23 22:01:40.75	237.85	10.36	-33.2	-33.0	15.4	1.03e-04	0	47	0	1577058304	37	14473
2026-01-23 22:01:41.72	238.04	10.42	-32.9	-32.7	15.5	4.95e-05	0	47	0	1686110208	37	14044
2026-01-23 22:01:42.70	238.23	10.48	-32.8	-32.6	15.5	6.10e-05	0	47	0	1803550720	37	13846
2026-01-23 22:01:43.67	238.43	10.54	-33.0	-32.8	15.5	8.58e-05	0	47	0	1904214016	37	14226
2026-01-23 22:01:44.64	238.62	10.60	-32.9	-32.7	15.5	7.05e-05	0	47	0	2013265920	37	14077
2026-01-23 22:01:45.62	238.82	10.66	-32.8	-32.6	15.5	4.95e-05	0	47	0	2130706432	37	13858
2026-01-23 22:01:46.59	239.02	10.73	-32.8	-32.6	15.6	7.05e-05	0	47	0	2239758336	37	13846
2026-01-23 22:01:47.55	239.21	10.79	-33.1	-32.9	15.5	6.48e-05	0	47	0	2340421632	37	14361
2026-01-23 22:01:48.52	239.41	10.85	-33.0	-32.8	15.5	8.77e-05	0	47	0	2449473536	37	14268
2026-01-23 22:01:49.49	239.61	10.91	-32.9	-32.7	15.5	6.48e-05	0	47	0	2566914048	37	13995
2026-01-23 22:01:50.46	239.81	10.97	-32.9	-32.7	15.5	4.57e-05	0	47	0	2667577344	37	14053
2026-01-23 22:01:51.43	240.02	11.03	-33.0	-32.8	15.5	5.91e-05	0	47	0	2776629248	37	14261
2026-01-23 22:01:52.40	240.22	11.09	-33.0	-32.8	15.5	4.76e-05	0	48	0	2894069760	37	14169
2026-01-23 22:01:53.37	240.42	11.15	-32.9	-32.7	15.5	4.38e-05	0	47	0	2994733056	37	14056
2026-01-23 22:01:54.33	240.62	11.21	-32.5	-32.3	15.6	4.95e-05	0	47	0	3103784960	36	14183
2026-01-23 22:01:55.30	240.83	11.27	-32.9	-32.7	15.5	7.24e-05	0	47	0	3221225472	36	14852
2026-01-23 22:01:56.27	241.04	11.33	-32.6	-32.4	15.5	4.95e-05	0	47	0	3321888768	36	14368
2026-01-23 22:01:57.24	241.24	11.39	-32.6	-32.4	15.6	6.86e-05	0	48	0	3430940672	36	14396
2026-01-23 22:01:58.21	241.45	11.45	-32.6	-32.4	15.6	6.48e-05	0	47	0	3539992576	36	14337
2026-01-23 22:01:59.18	241.66	11.51	-32.5	-32.3	15.6	4.95e-05	0	47	0	3657433088	36	14123
2026-01-23 22:02:00.15	241.87	11.57	-32.6	-32.4	15.6	4.57e-05	0	48	0	3758096384	36	14390
2026-01-23 22:02:01.12	242.09	11.63	-32.6	-32.4	15.6	6.48e-05	0	48	0	3867148288	36	14356
2026-01-23 22:02:02.09	242.30	11.69	-32.5	-32.3	15.6	4.00e-05	0	48	0	3984588800	36	14173
2026-01-23 22:02:03.06	242.51	11.75	-32.5	-32.3	15.6	5.34e-05	0	48	0	4085252096	36	14273
2026-01-23 22:02:04.03	242.73	11.81	-32.5	-32.3	15.6	6.10e-05	0	48	0	4194304000	36	14270
2026-01-23 22:02:05.00	242.94	11.87	-32.5	-32.3	15.6	4.95e-05	0	48	0	4311744512	36	14141
2026-01-23 22:02:05.97	243.16	11.93	-32.5	-32.3	15.6	2.86e-05	0	48	0	4412407808	36	14124
2026-01-23 22:02:06.94	243.38	11.99	-32.4	-32.2	15.6	4.57e-05	0	48	0	4521459712	36	14005
2026-01-23 22:02:07.91	243.60	12.05	-32.4	-32.2	15.6	4.19e-05	0	48	0	4638900224	36	13976
2026-01-23 22:02:08.88	243.81	12.11	-32.4	-32.2	15.5	6.86e-05	0	47	0	4747952128	36	14102
2026-01-23 22:02:09.85	244.04	12.17	-32.6	-32.4	15.5	7.82e-05	0	48	0	4848615424	36	14334
2026-01-23 22:02:10.82	244.26	12.23	-32.4	-32.2	15.5	5.53e-05	0	48	0	4957667328	36	14062
2026-01-23 22:02:11.79	244.48	12.28	-32.5	-32.3	15.5	4.57e-05	0	48	0	5075107840	36	14155
2026-01-23 22:02:12.76	244.70	12.34	-32.4	-32.2	15.6	5.53e-05	0	48	0	5175771136	36	14016
2026-01-23 22:02:13.73	244.93	12.40	-32.6	-32.4	15.5	5.34e-05	0	48	0	5284823040	36	14369
2026-01-23 22:02:14.69	245.15	12.46	-32.3	-32.1	15.6	4.19e-05	0	48	0	5402263552	36	13818
2026-01-23 22:02:15.66	245.38	12.51	-32.3	-32.1	15.6	4.19e-05	0	48	0	5502926848	36	13892
2026-01-23 22:02:16.63	245.61	12.57	-32.3	-32.1	15.7	3.05e-05	0	48	0	5611978752	36	13795
2026-01-23 22:02:17.60	245.84	12.63	-32.4	-32.2	15.6	4.00e-05	0	48	0	5729419264	36	14074
2026-01-23 22:02:18.57	246.07	12.69	-32.3	-32.1	15.6	2.09e-05	0	47	0	5830082560	36	13871
2026-01-23 22:02:19.54	246.30	12.74	-32.3	-32.1	15.7	4.00e-05	0	48	0	5939134464	36	13816
2026-01-23 22:02:20.51	246.53	12.80	-32.2	-32.0	15.6	5.53e-05	0	48	0	6056574976	36	13720
2026-01-23 22:02:21.47	246.76	12.86	-32.4	-32.2	15.6	4.95e-05	0	48	0	6157238272	36	13952
2026-01-23 22:02:22.44	246.99	12.91	-32.2	-32.0	15.5	2.86e-05	0	48	0	6266290176	36	13674
2026-01-23 22:02:23.41	247.23	12.97	-32.3	-32.1	15.5	4.57e-05	0	48	0	6375342080	36	13866
2026-01-23 22:02:24.38	247.46	13.02	-32.5	-32.3	15.4	4.57e-05	0	48	0	6492782592	36	14137
2026-01-23 22:02:25.34	247.70	13.08	-32.3	-32.1	15.6	4.95e-05	0	48	0	6593445888	36	13814
2026-01-23 22:02:26.31	247.94	13.13	-32.4	-32.2	15.5	7.24e-05	0	48	0	6702497792	36	14054
2026-01-23 22:02:27.28	248.17	13.19	-32.4	-32.2	15.5	4.38e-05	0	48	0	6819938304	36	14083
2026-01-23 22:02:28.25	248.42	13.24	-32.3	-32.1	15.6	5.14e-05	0	48	0	6920601600	36	13829
2026-01-23 22:02:29.23	248.66	13.30	-32.3	-32.1	15.7	3.81e-05	0	48	0	7029653504	36	13801
2026-01-23 22:02:30.20	248.90	13.35	-32.3	-32.1	15.7	1.14e-05	0	48	0	7147094016	36	13871
2026-01-23 22:02:31.17	249.14	13.41	-32.2	-32.0	15.7	1.14e-05	0	48	0	7247757312	36	13729
2026-01-23 22:02:32.14	249.39	13.46	-32.2	-32.0	15.7	2.67e-05	0	48	0	7356809216	36	13681
2026-01-23 22:02:33.11	249.63	13.51	-32.1	-31.9	15.7	3.05e-05	0	48	0	7474249728	36	13626
2026-01-23 22:02:34.08	249.88	13.57	-32.2	-32.0	15.7	2.47e-05	0	48	0	7583301632	36	13635
2026-01-23 22:02:35.05	250.13	13.62	-32.0	-31.8	15.7	3.62e-05	0	48	0	7683964928	36	13473
2026-01-23 22:02:36.02	250.37	13.67	-32.1	-31.9	15.7	3.81e-05	0	48	0	7793016832	36	13507
2026-01-23 22:02:36.99	250.62	13.72	-32.0	-31.7	15.8	2.28e-05	0	48	0	7910457344	36	13308
2026-01-23 22:02:37.96	250.87	13.77	-29.7	-29.5	15.4	8.39e-05	0	48	0	8011120640	31	13743
2026-01-23 22:02:38.93	251.13	13.83	-29.8	-29.7	15.3	9.34e-05	0	48	0	8120172544	31	13954
2026-01-23 22:02:39.89	251.37	13.88	-29.6	-29.4	15.4	7.82e-05	0	48	0	8237613056	31	13502
2026-01-23 22:02:40.86	251.63	13.93	-29.6	-29.4	15.3	7.62e-05	0	48	0	8338276352	31	13619
2026-01-23 22:02:41.82	251.88	13.98	-29.6	-29.4	15.3	9.72e-05	0	48	0	8447328256	31	13586
2026-01-23 22:02:42.79	252.13	14.03	-29.7	-29.5	15.2	1.14e-04	0	48	0	8564768768	31	13770
2026-01-23 22:02:43.76	252.39	14.08	-29.6	-29.5	15.3	8.01e-05	0	48	0	8665432064	31	13642
2026-01-23 22:02:44.73	252.65	14.13	-29.7	-29.5	15.2	1.03e-04	0	48	0	8774483968	31	13676
2026-01-23 22:02:45.70	252.91	14.18	-29.6	-29.3	15.3	9.72e-05	0	48	0	8891924480	31	13471
2026-01-23 22:02:46.67	253.16	14.23	-29.7	-29.5	15.3	8.58e-05	0	48	0	8992587776	31	13650
2026-01-23 22:02:47.64	253.42	14.27	-29.6	-29.4	15.3	8.20e-05	0	48	0	9101639680	30	14393
2026-01-23 22:02:48.61	253.69	14.32	-29.7	-29.5	15.3	9.72e-05	0	48	0	9210691584	30	14468
2026-01-23 22:02:49.58	253.95	14.37	-29.6	-29.4	15.3	9.53e-05	0	48	0	9328132096	30	14363
2026-01-23 22:02:50.55	254.21	14.42	-29.5	-29.3	15.3	1.03e-04	0	48	0	9428795392	30	14261
2026-01-23 22:02:51.52	254.47	14.46	-29.6	-29.4	15.3	1.07e-04	0	48	0	9537847296	30	14337
2026-01-23 22:02:52.49	254.74	14.51	-29.8	-29.7	15.2	1.35e-04	0	48	0	9655287808	30	14782
2026-01-23 22:02:53.46	255.01	14.56	-29.8	-29.6	15.2	1.22e-04	0	48	0	9755951104	30	14674
2026-01-23 22:02:54.42	255.27	14.60	-30.0	-29.8	15.0	1.45e-04	0	48	0	9865003008	30	15112
2026-01-23 22:02:55.39	255.54	14.65	-30.1	-29.9	15.0	1.58e-04	0	48	0	9982443520	30	15157
2026-01-23 22:02:56.36	255.81	14.69	-30.1	-29.9	15.0	1.22e-04	0	48	0	10083106816	30	15206
2026-01-23 22:02:57.33	256.07	14.74	-29.9	-29.7	15.1	1.52e-04	0	48	0	10192158720	31	14023
2026-01-23 22:02:58.30	256.34	14.78	-29.7	-29.6	15.3	8.20e-05	0	48	0	10309599232	31	13793
2026-01-23 22:02:59.27	256.62	14.83	-29.8	-29.6	15.2	7.24e-05	0	48	0	10410262528	31	13791
2026-01-23 22:03:00.23	256.89	14.87	-29.7	-29.5	15.3	9.91e-05	0	48	0	10519314432	31	13710
2026-01-23 22:03:01.20	257.16	14.91	-29.6	-29.4	15.3	7.62e-05	0	48	0	10628366336	31	13517
2026-01-23 22:03:02.17	257.43	14.95	-29.7	-29.5	15.3	1.05e-04	0	48	0	10729029632	31	13754
2026-01-23 22:03:03.14	257.71	15.00	-29.6	-29.4	15.3	8.39e-05	0	48	0	10846470144	31	13545
2026-01-23 22:03:04.10	257.98	15.04	-29.6	-29.4	15.3	7.43e-05	0	48	0	10955522048	31	13604
2026-01-23 22:03:05.07	258.26	15.08	-29.7	-29.5	15.2	1.09e-04	0	48	0	11056185344	31	13744
2026-01-23 22:03:06.04	258.53	15.12	-29.4	-29.2	15.3	9.53e-05	0	48	0	11173625856	30	14059
2026-01-23 22:03:07.01	258.81	15.16	-29.5	-29.3	15.4	8.39e-05	0	48	0	11282677760	30	14236
2026-01-23 22:03:07.99	259.09	15.20	-29.4	-29.2	15.5	5.72e-05	0	48	0	11400118272	30	13975
2026-01-23 22:03:08.96	259.37	15.24	-29.4	-29.2	15.4	7.05e-05	0	48	0	11500781568	30	14045
2026-01-23 22:03:09.93	259.66	15.27	-29.5	-29.3	15.5	6.29e-05	0	48	0	11609833472	30	14174
2026-01-23 22:03:10.89	259.93	15.31	-29.5	-29.4	15.4	7.05e-05	0	48	0	11727273984	30	14278
2026-01-23 22:03:11.86	260.22	15.35	-29.4	-29.2	15.5	7.82e-05	0	48	0	11827937280	30	14037
2026-01-23 22:03:12.83	260.50	15.39	-29.4	-29.2	15.5	6.67e-05	0	48	0	11936989184	30	14019
2026-01-23 22:03:13.81	260.79	15.42	-29.4	-29.2	15.5	7.05e-05	0	48	0	12046041088	30	14038
2026-01-23 22:03:14.78	261.07	15.46	-29.4	-29.2	15.4	8.01e-05	0	48	0	12163481600	30	13967
2026-01-23 22:03:15.75	261.36	15.49	-29.4	-29.2	15.5	4.57e-05	0	48	0	12264144896	30	14073
2026-01-23 22:03:16.72	261.64	15.53	-29.3	-29.1	15.5	7.24e-05	0	48	0	12373196800	30	13862
2026-01-23 22:03:17.69	261.93	15.56	-29.3	-29.1	15.5	6.10e-05	0	48	0	12490637312	30	13899
2026-01-23 22:03:18.66	262.22	15.60	-29.4	-29.2	15.4	7.43e-05	0	48	0	12591300608	30	14045
2026-01-23 22:03:19.63	262.51	15.63	-29.3	-29.2	15.5	6.48e-05	0	48	0	12700352512	30	13952
2026-01-23 22:03:20.59	262.79	15.66	-29.4	-29.2	15.5	5.53e-05	0	48	0	12817793024	30	13960
2026-01-23 22:03:21.56	263.08	15.69	-29.4	-29.2	15.6	6.29e-05	0	48	0	12918456320	30	14006
2026-01-23 22:03:22.53	263.37	15.73	-29.3	-29.1	15.6	5.53e-05	0	48	0	13027508224	30	13842
2026-01-23 22:03:23.49	263.66	15.76	-29.4	-29.2	15.6	6.86e-05	0	48	0	13136560128	30	14008
2026-01-23 22:03:24.46	263.95	15.79	-29.3	-29.1	15.6	5.34e-05	0	48	0	13245612032	30	13855
2026-01-23 22:03:25.43	264.25	15.82	-29.4	-29.2	15.4	6.86e-05	0	48	0	13354663936	30	14059
2026-01-23 22:03:26.40	264.54	15.85	-29.3	-29.1	15.6	4.95e-05	0	48	0	13463715840	30	13928
2026-01-23 22:03:27.37	264.83	15.87	-29.4	-29.2	15.6	5.34e-05	0	48	0	13564379136	30	13979
2026-01-23 22:03:28.33	265.13	15.90	-29.2	-29.0	15.6	4.95e-05	0	48	0	13681819648	30	13728
2026-01-23 22:03:29.30	265.42	15.93	-29.3	-29.1	15.6	6.67e-05	0	48	0	13790871552	30	13843
2026-01-23 22:03:30.27	265.72	15.96	-29.2	-29.1	15.5	4.76e-05	0	48	0	13891534848	30	13795
2026-01-23 22:03:31.25	266.02	15.98	-29.1	-28.9	15.6	4.95e-05	0	48	0	14008975360	30	13632
2026-01-23 22:03:32.22	266.31	16.01	-29.3	-29.1	15.5	6.10e-05	0	48	0	14118027264	30	13924
2026-01-23 22:03:33.19	266.61	16.03	-29.2	-29.0	15.5	6.10e-05	0	48	0	14235467776	30	13729
2026-01-23 22:03:34.15	266.91	16.06	-29.3	-29.1	15.6	4.38e-05	0	48	0	14336131072	30	13895
2026-01-23 22:03:35.12	267.20	16.08	-29.2	-29.0	15.6	4.00e-05	0	48	0	14445182976	30	13750
2026-01-23 22:03:36.09	267.50	16.10	-29.2	-29.0	15.6	4.00e-05	0	48	0	14554234880	30	13723
2026-01-23 22:03:37.06	267.80	16.13	-29.2	-29.0	15.6	4.00e-05	0	48	0	14663286784	30	13637
2026-01-23 22:03:38.03	268.10	16.15	-29.2	-29.0	15.6	5.72e-05	0	48	0	14772338688	30	13755
2026-01-23 22:03:39.00	268.40	16.17	-29.3	-29.1	15.5	4.95e-05	0	48	0	14881390592	30	13827
2026-01-23 22:03:39.97	268.70	16.19	-29.2	-29.0	15.6	3.43e-05	0	48	0	14982053888	30	13657
2026-01-23 22:03:40.94	269.01	16.21	-29.1	-28.9	15.7	4.76e-05	0	48	0	15099494400	30	13608
2026-01-23 22:03:41.90	269.30	16.23	-29.2	-29.0	15.6	4.76e-05	0	48	0	15208546304	30	13674
2026-01-23 22:03:42.87	269.61	16.25	-29.2	-29.0	15.5	4.76e-05	0	48	0	15309209600	30	13738
2026-01-23 22:03:43.84	269.91	16.26	-29.2	-29.0	15.7	3.24e-05	0	48	0	15426650112	30	13761
2026-01-23 22:03:44.81	270.21	16.28	-29.2	-29.0	15.7	3.05e-05	0	48	0	15535702016	30	13684
2026-01-23 22:03:45.78	270.52	16.30	-29.2	-29.0	15.7	4.00e-05	0	48	0	15653142528	30	13661
2026-01-23 22:03:46.75	270.82	16.31	-29.2	-29.0	15.7	4.00e-05	0	48	0	15753805824	30	13706
2026-01-23 22:03:47.71	271.12	16.33	-29.2	-29.0	15.7	5.72e-05	0	48	0	15862857728	30	13748
2026-01-23 22:03:48.69	271.43	16.34	-29.2	-29.0	15.7	3.05e-05	0	48	0	15971909632	30	13740
2026-01-23 22:03:49.66	271.73	16.35	-29.3	-29.1	15.6	4.19e-05	0	48	0	16080961536	30	13815
2026-01-23 22:03:50.62	272.04	16.37	-29.2	-29.0	15.7	3.24e-05	0	48	0	16190013440	30	13665
2026-01-23 22:03:51.59	272.34	16.38	-29.2	-29.0	15.7	6.10e-05	0	48	0	16299065344	30	13752
2026-01-23 22:03:52.56	272.65	16.39	-29.2	-29.0	15.7	4.76e-05	0	48	0	16399728640	30	13674
2026-01-23 22:03:53.53	272.95	16.40	-29.3	-29.1	15.7	5.72e-05	0	48	0	16517169152	30	13880
2026-01-23 22:03:54.50	273.26	16.41	-29.2	-29.0	15.7	4.57e-05	0	48	0	16626221056	30	13763
2026-01-23 22:03:55.47	273.57	16.42	-29.2	-29.0	15.7	3.43e-05	0	48	0	16726884352	30	13732
2026-01-23 22:03:56.44	273.87	16.43	-29.2	-29.0	15.7	4.00e-05	0	48	0	16844324864	30	13708
2026-01-23 22:03:57.41	274.18	16.44	-29.2	-29.0	15.7	2.67e-05	0	48	0	16953376768	30	13754
2026-01-23 22:03:58.38	274.49	16.45	-29.3	-29.1	15.7	6.10e-05	0	48	0	17070817280	30	13815
2026-01-23 22:03:59.35	274.80	16.45	-29.3	-29.1	15.7	3.81e-05	0	48	0	17171480576	30	13873
2026-01-23 22:04:00.31	275.10	16.46	-29.3	-29.1	15.7	4.19e-05	0	48	0	17280532480	30	13861
2026-01-23 22:04:01.28	275.41	16.46	-29.4	-29.1	15.7	4.95e-05	0	48	0	17389584384	30	13936
2026-01-23 22:04:02.26	275.72	16.47	-29.3	-29.1	15.7	2.47e-05	0	48	0	17490247680	30	13908
2026-01-23 22:04:03.22	276.02	16.47	-29.3	-29.1	15.8	4.00e-05	0	48	0	17607688192	30	13792
2026-01-23 22:04:04.19	276.33	16.48	-29.2	-29.0	15.7	5.14e-05	0	48	0	17716740096	30	13739
2026-01-23 22:04:05.16	276.64	16.48	-29.2	-29.0	15.8	4.00e-05	0	48	0	17817403392	30	13753
2026-01-23 22:04:06.13	276.95	16.48	-29.3	-29.1	15.7	3.43e-05	0	48	0	17934843904	30	13846
2026-01-23 22:04:07.10	277.25	16.48	-29.2	-29.0	15.8	3.24e-05	0	48	0	18043895808	30	13703
2026-01-23 22:04:08.08	277.57	16.48	-29.2	-29.1	15.8	5.34e-05	0	48	0	18161336320	30	13797
2026-01-23 22:04:09.05	277.87	16.48	-29.2	-29.0	15.8	3.43e-05	0	48	0	18261999616	30	13666
2026-01-23 22:04:10.02	278.18	16.48	-29.2	-29.0	15.8	2.47e-05	0	48	0	18371051520	30	13651
2026-01-23 22:04:10.99	278.49	16.48	-29.1	-28.9	15.8	2.09e-05	0	48	0	18480103424	30	13629
2026-01-23 22:04:11.96	278.80	16.47	-29.1	-28.9	15.8	4.00e-05	0	48	0	18589155328	30	13535
2026-01-23 22:04:12.92	279.10	16.47	-29.2	-29.0	15.8	2.86e-05	0	48	0	18698207232	30	13675
2026-01-23 22:04:13.90	279.41	16.47	-29.2	-29.0	15.8	3.24e-05	0	48	0	18807259136	30	13774
2026-01-23 22:04:14.86	279.72	16.46	-29.2	-29.0	15.8	2.67e-05	0	48	0	18907922432	30	13740
2026-01-23 22:04:15.83	280.03	16.46	-29.4	-29.2	15.8	4.38e-05	0	48	0	19025362944	30	13998
2026-01-23 22:04:16.80	280.33	16.45	-29.4	-29.2	15.8	4.57e-05	0	48	0	19134414848	30	13993
2026-01-23 22:04:17.76	280.64	16.44	-29.4	-29.2	15.8	3.24e-05	0	48	0	19235078144	30	14062
2026-01-23 22:04:18.73	280.94	16.44	-29.3	-29.1	15.9	3.43e-05	0	48	0	19352518656	30	13871
2026-01-23 22:04:19.71	281.25	16.43	-29.2	-29.0	15.9	2.86e-05	0	48	0	19461570560	30	13764
2026-01-23 22:04:20.68	281.56	16.42	-29.3	-29.1	15.9	3.81e-05	0	48	0	19579011072	30	13851
2026-01-23 22:04:21.65	281.87	16.41	-29.4	-29.2	15.9	2.86e-05	0	48	0	19679674368	30	13990
2026-01-23 22:04:22.62	282.17	16.40	-29.4	-29.2	15.9	1.71e-05	0	48	0	19788726272	30	13994
2026-01-23 22:04:23.59	282.48	16.39	-29.3	-29.1	15.9	2.28e-05	0	48	0	19897778176	30	13895
2026-01-23 22:04:24.55	282.78	16.38	-29.3	-29.2	15.9	2.67e-05	0	48	0	20006830080	30	13957
2026-01-23 22:04:25.52	283.09	16.36	-29.3	-29.1	16.0	1.71e-05	0	48	0	20115881984	30	13895
2026-01-23 22:04:26.49	283.39	16.35	-29.5	-29.3	15.9	4.57e-05	0	48	0	20224933888	30	14163
2026-01-23 22:04:27.46	283.70	16.34	-29.3	-29.1	16.0	3.62e-05	0	48	0	20325597184	30	13898
2026-01-23 22:04:28.42	284.00	16.32	-29.3	-29.1	16.1	2.28e-05	0	48	0	20443037696	30	13883
2026-01-23 22:04:29.39	284.30	16.31	-29.3	-29.2	16.1	2.47e-05	0	48	0	20552089600	30	13961
2026-01-23 22:04:30.36	284.61	16.29	-29.3	-29.1	16.1	2.67e-05	0	48	0	20652752896	30	13888
2026-01-23 22:04:31.32	284.91	16.28	-29.3	-29.1	16.1	2.86e-05	0	48	0	20770193408	30	13945
2026-01-23 22:04:32.29	285.21	16.26	-29.3	-29.1	16.2	3.62e-05	0	48	0	20879245312	30	13926
2026-01-23 22:04:33.26	285.51	16.24	-29.3	-29.1	16.2	2.09e-05	0	48	0	20979908608	30	13874
2026-01-23 22:04:34.23	285.82	16.22	-29.4	-29.2	16.2	2.47e-05	0	48	0	21097349120	30	13990
2026-01-23 22:04:35.21	286.12	16.20	-29.3	-29.1	16.3	1.33e-05	0	48	0	21206401024	30	13944
2026-01-23 22:04:36.17	286.42	16.18	-29.4	-29.2	16.2	1.71e-05	0	48	0	21307064320	30	13997
2026-01-23 22:04:37.14	286.72	16.16	-29.5	-29.3	16.2	2.47e-05	0	48	0	21424504832	30	14133
2026-01-23 22:04:38.11	287.02	16.14	-29.3	-29.1	16.3	1.52e-05	0	48	0	21533556736	30	13834
2026-01-23 22:04:39.08	287.32	16.12	-29.4	-29.2	16.3	1.90e-05	0	48	0	21642608640	30	13986
2026-01-23 22:04:40.04	287.62	16.10	-29.4	-29.2	16.4	1.90e-05	0	48	0	21743271936	30	13988
2026-01-23 22:04:41.01	287.92	16.07	-29.4	-29.2	16.4	1.52e-05	0	48	0	21860712448	30	14080
2026-01-23 22:04:41.98	288.21	16.05	-29.4	-29.2	16.4	2.86e-05	0	48	0	21969764352	30	14054
2026-01-23 22:04:42.95	288.51	16.03	-29.4	-29.2	16.5	1.52e-05	0	48	0	22070427648	30	13951
2026-01-23 22:04:43.92	288.81	16.00	-29.5	-29.3	16.5	1.33e-05	0	48	0	22187868160	30	14201
2026-01-23 22:04:44.89	289.11	15.97	-29.7	-29.5	16.4	1.71e-05	0	48	0	22296920064	30	14484
2026-01-23 22:04:45.85	289.40	15.95	-29.6	-29.4	16.4	1.71e-05	0	48	0	22397583360	30	14430
2026-01-23 22:04:46.82	289.70	15.92	-29.7	-29.5	16.5	1.14e-05	0	48	0	22515023872	30	14446
2026-01-23 22:04:47.78	289.99	15.89	-29.9	-29.7	16.3	3.05e-05	0	48	0	22624075776	30	14833
2026-01-23 22:04:48.76	290.29	15.87	-29.5	-29.3	16.6	9.50e-06	0	48	0	22724739072	30	14268
2026-01-23 22:04:49.73	290.58	15.84	-29.8	-29.6	16.6	9.50e-06	0	48	0	22842179584	30	14720
2026-01-23 22:04:50.70	290.87	15.81	-29.6	-29.4	16.7	1.33e-05	0	48	0	22951231488	30	14328
2026-01-23 22:04:51.66	291.16	15.78	-29.5	-29.3	16.8	5.70e-06	0	48	0	23051894784	30	14268
2026-01-23 22:04:52.63	291.45	15.75	-29.6	-29.4	16.7	1.52e-05	0	48	0	23160946688	30	14421
2026-01-23 22:04:53.61	291.75	15.72	-29.7	-29.6	16.8	1.71e-05	0	48	0	23278387200	30	14624
2026-01-23 22:04:54.57	292.04	15.69	-29.7	-29.5	16.8	1.33e-05	0	48	0	23379050496	30	14469
2026-01-23 22:04:55.55	292.33	15.65	-29.6	-29.5	16.9	9.50e-06	0	48	0	23488102400	30	14445
2026-01-23 22:04:56.51	292.61	15.62	-29.8	-29.6	16.8	1.52e-05	0	48	0	23605542912	30	14652
2026-01-23 22:04:57.48	292.90	15.59	-29.8	-29.6	16.9	2.67e-05	0	48	0	23714594816	30	14654
2026-01-23 22:04:58.45	293.19	15.55	-29.7	-29.5	16.9	1.52e-05	0	48	0	23815258112	30	14592
2026-01-23 22:04:59.42	293.48	15.52	-29.8	-29.6	17.0	5.70e-06	0	48	0	23932698624	30	14762
2026-01-23 22:05:00.39	293.76	15.48	-29.9	-29.7	17.0	7.60e-06	0	48	0	24041750528	30	14801
2026-01-23 22:05:01.35	294.05	15.45	-29.8	-29.6	17.1	5.70e-06	0	48	0	24142413824	30	14744
2026-01-23 22:05:02.32	294.33	15.41	-29.8	-29.6	17.1	3.80e-06	0	48	0	24251465728	30	14666
2026-01-23 22:05:03.29	294.61	15.38	-29.9	-29.7	17.1	7.60e-06	0	48	0	24368906240	30	14878
2026-01-23 22:05:04.26	294.90	15.34	-30.0	-29.8	17.1	9.50e-06	0	48	0	24469569536	30	15107
2026-01-23 22:05:05.23	295.18	15.30	-30.0	-29.8	17.1	9.50e-06	0	48	0	24578621440	30	15088
2026-01-23 22:05:06.20	295.46	15.26	-30.1	-29.9	17.1	9.50e-06	0	48	0	24696061952	30	15142
2026-01-23 22:05:07.16	295.74	15.23	-30.2	-30.0	17.1	7.60e-06	0	48	0	24796725248	30	15411
2026-01-23 22:05:08.14	296.02	15.19	-30.0	-29.8	17.2	1.90e-06	0	48	0	24905777152	30	15027
2026-01-23 22:05:09.11	296.30	15.15	-29.9	-29.7	17.3	1.90e-06	0	48	0	25023217664	30	14860
2026-01-23 22:05:10.08	296.58	15.11	-30.0	-29.8	17.2	7.60e-06	0	48	0	25132269568	30	15010
2026-01-23 22:05:11.05	296.86	15.07	-30.0	-29.9	17.2	7.60e-06	0	48	0	25232932864	30	15145
2026-01-23 22:05:12.02	297.13	15.02	-30.0	-29.8	17.3	7.60e-06	0	48	0	25350373376	30	15038
2026-01-23 22:05:12.98	297.40	14.98	-30.0	-29.8	17.3	7.60e-06	0	48	0	25459425280	30	15110
2026-01-23 22:05:13.95	297.68	14.94	-30.0	-29.8	17.3	3.80e-06	0	48	0	25560088576	30	15092
2026-01-23 22:05:14.91	297.95	14.90	-30.1	-29.9	17.3	3.80e-06	0	48	0	25669140480	30	15275
2026-01-23 22:05:15.88	298.22	14.86	-30.1	-29.9	17.4	1.33e-05	0	48	0	25786580992	30	15193
2026-01-23 22:05:16.85	298.49	14.81	-30.0	-29.8	17.4	3.80e-06	0	48	0	25887244288	30	15101
2026-01-23 22:05:17.83	298.77	14.77	-30.1	-29.9	17.4	0.00e+00	0	48	0	25996296192	30	15195
2026-01-23 22:05:18.79	299.04	14.73	-30.4	-30.2	17.3	3.80e-06	0	48	0	26113736704	31	14870
2026-01-23 22:05:19.76	299.31	14.68	-30.3	-30.1	17.4	3.80e-06	0	48	0	26214400000	31	14712
2026-01-23 22:05:20.73	299.57	14.64	-30.2	-30.0	17.5	0.00e+00	0	48	0	26323451904	31	14580
2026-01-23 22:05:21.70	299.84	14.59	-29.9	-29.7	17.6	1.90e-06	0	48	0	26440892416	31	13975
2026-01-23 22:05:22.67	300.11	14.54	-30.0	-29.8	17.5	5.70e-06	0	48	0	26541555712	31	14231
2026-01-23 22:05:23.64	300.37	14.50	-30.0	-29.8	17.5	7.60e-06	0	48	0	26650607616	31	14247
2026-01-23 22:05:24.61	300.64	14.45	-30.1	-29.9	17.6	5.70e-06	0	48	0	26768048128	31	14314
2026-01-23 22:05:25.58	300.90	14.40	-30.1	-29.9	17.6	3.80e-06	0	48	0	26868711424	31	14302
2026-01-23 22:05:26.54	301.16	14.36	-30.4	-30.2	17.4	3.80e-06	0	48	0	26977763328	31	14780
2026-01-23 22:05:27.52	301.43	14.31	-30.2	-30.0	17.5	5.70e-06	0	48	0	27086815232	31	14458
2026-01-23 22:05:28.49	301.69	14.26	-30.3	-30.1	17.5	1.14e-05	0	48	0	27204255744	31	14622
2026-01-23 22:05:29.46	301.95	14.21	-30.4	-30.2	17.5	5.70e-06	0	48	0	27304919040	31	14873
2026-01-23 22:05:30.43	302.21	14.16	-30.4	-30.2	17.4	7.60e-06	0	48	0	27413970944	31	14899
2026-01-23 22:05:31.40	302.46	14.11	-30.3	-30.1	17.5	5.70e-06	0	48	0	27531411456	31	14759
2026-01-23 22:05:32.37	302.72	14.06	-30.4	-30.2	17.5	7.60e-06	0	48	0	27632074752	31	14821
2026-01-23 22:05:33.34	302.98	14.01	-30.3	-30.1	17.5	1.90e-06	0	48	0	27741126656	31	14746
2026-01-23 22:05:34.31	303.23	13.96	-30.2	-30.0	17.6	5.70e-06	0	48	0	27858567168	31	14547
2026-01-23 22:05:35.27	303.48	13.91	-30.3	-30.1	17.5	5.70e-06	0	48	0	27959230464	31	14644
2026-01-23 22:05:36.25	303.74	13.86	-30.3	-30.1	17.5	1.90e-06	0	48	0	28068282368	31	14757
2026-01-23 22:05:37.22	303.99	13.81	-30.3	-30.1	17.5	5.70e-06	0	48	0	28185722880	31	14680
2026-01-23 22:05:38.19	304.24	13.76	-30.3	-30.1	17.5	1.90e-06	0	48	0	28294774784	31	14640
2026-01-23 22:05:39.15	304.49	13.71	-30.3	-30.1	17.5	5.70e-06	0	48	0	28395438080	31	14740
2026-01-23 22:05:40.12	304.74	13.66	-30.3	-30.1	17.5	7.60e-06	0	48	0	28504489984	31	14712
2026-01-23 22:05:41.09	304.99	13.60	-30.5	-30.3	17.4	1.90e-06	0	48	0	28621930496	31	14989
2026-01-23 22:05:42.05	305.23	13.55	-30.5	-30.3	17.4	3.80e-06	0	48	0	28722593792	31	15069
2026-01-23 22:05:43.02	305.48	13.50	-30.6	-30.4	17.4	1.14e-05	0	48	0	28831645696	31	15139
2026-01-23 22:05:43.99	305.72	13.44	-30.5	-30.3	17.4	1.90e-06	0	48	0	28949086208	32	14160
2026-01-23 22:05:44.96	305.96	13.39	-30.5	-30.3	17.4	7.60e-06	0	48	0	29049749504	32	14181
2026-01-23 22:05:45.94	306.21	13.34	-30.5	-30.3	17.4	5.70e-06	0	48	0	29158801408	32	14127
2026-01-23 22:05:46.90	306.45	13.28	-30.4	-30.2	17.4	5.70e-06	0	48	0	29276241920	32	13994
2026-01-23 22:05:47.87	306.69	13.23	-30.5	-30.3	17.4	1.14e-05	0	48	0	29376905216	32	14231
2026-01-23 22:05:48.84	306.93	13.17	-30.4	-30.2	17.4	3.80e-06	0	48	0	29485957120	32	14058
2026-01-23 22:05:49.81	307.17	13.12	-30.4	-30.2	17.5	7.60e-06	0	48	0	29595009024	32	13987
2026-01-23 22:05:50.78	307.41	13.06	-30.4	-30.2	17.4	1.33e-05	0	48	0	29712449536	32	14044
2026-01-23 22:05:51.75	307.64	13.01	-30.6	-30.4	17.3	9.50e-06	0	48	0	29813112832	32	14300
2026-01-23 22:05:52.72	307.88	12.95	-30.5	-30.3	17.4	1.90e-06	0	48	0	29922164736	32	14208
2026-01-23 22:05:53.69	308.11	12.90	-30.5	-30.3	17.4	7.60e-06	0	48	0	30039605248	32	14248
2026-01-23 22:05:54.65	308.35	12.84	-30.5	-30.3	17.4	5.70e-06	0	48	0	30140268544	32	14273
2026-01-23 22:05:55.62	308.58	12.78	-30.6	-30.5	17.3	1.14e-05	0	48	0	30249320448	32	14464
2026-01-23 22:05:56.59	308.81	12.73	-30.5	-30.3	17.4	3.80e-06	0	48	0	30366760960	32	14169
2026-01-23 22:05:57.56	309.04	12.67	-30.6	-30.4	17.3	5.70e-06	0	48	0	30467424256	32	14330
2026-01-23 22:05:58.53	309.27	12.61	-30.5	-30.3	17.4	9.50e-06	0	48	0	30576476160	32	14201
2026-01-23 22:05:59.51	309.50	12.56	-30.5	-30.3	17.4	9.50e-06	0	48	0	30693916672	32	14227
2026-01-23 22:06:00.47	309.73	12.50	-30.5	-30.3	17.4	1.90e-06	0	48	0	30794579968	32	14194
2026-01-23 22:06:01.44	309.95	12.44	-53.5	-55.5	6.3	0.00e+00	0	48	104	30886854656	61	48530
2026-01-23 22:06:02.41	310.18	12.38	-54.0	-56.2	6.2	0.00e+00	0	48	104	30886854656	78	19916
2026-01-23 22:06:03.38	310.40	12.33	-54.1	-56.2	6.2	0.00e+00	0	48	104	30886854656	78	19874
2026-01-23 22:06:04.35	310.63	12.27	-54.0	-56.2	6.2	0.00e+00	0	48	104	30886854656	78	19734
2026-01-23 22:06:05.32	310.85	12.21	-54.0	-56.2	6.2	0.00e+00	0	48	104	30886854656	78	19722
2026-01-23 22:06:06.29	311.07	12.15	-54.1	-56.2	6.2	0.00e+00	0	48	104	30886854656	78	19814
2026-01-23 22:06:07.26	311.29	12.09	-54.1	-56.2	6.2	0.00e+00	0	48	104	30886854656	78	19812
2026-01-23 22:06:08.23	311.51	12.03	-54.1	-56.2	6.2	0.00e+00	0	48	104	30886854656	78	19733
2026-01-23 22:06:09.20	311.73	11.97	-54.1	-56.1	6.2	0.00e+00	0	48	104	30886854656	78	19674
2026-01-23 22:06:10.17	311.95	11.92	-54.2	-56.3	6.2	0.00e+00	0	48	104	30886854656	78	20011
2026-01-23 22:06:11.15	312.17	11.86	-54.1	-56.2	6.2	0.00e+00	0	48	104	30886854656	78	19754
2026-01-23 22:06:12.12	312.38	11.80	-54.0	-56.1	6.2	0.00e+00	0	48	104	30886854656	78	19654
2026-01-23 22:06:13.09	312.60	11.74	-54.0	-56.1	6.2	0.00e+00	0	48	104	30886854656	78	19640
2026-01-23 22:06:14.06	312.81	11.68	-54.1	-56.2	6.2	0.00e+00	0	48	104	30886854656	78	19849
2026-01-23 22:06:15.03	313.02	11.62	-54.0	-56.1	6.2	0.00e+00	0	48	104	30886854656	78	19658
2026-01-23 22:06:16.00	313.23	11.56	-54.0	-56.1	6.2	0.00e+00	0	48	104	30886854656	78	19614
2026-01-23 22:06:16.96	313.44	11.50	-54.0	-56.1	6.2	0.00e+00	0	48	104	30886854656	78	19589
2026-01-23 22:06:17.93	313.65	11.44	-54.1	-56.2	6.2	0.00e+00	0	48	104	30886854656	78	19767
2026-01-23 22:06:18.90	313.86	11.38	-54.0	-56.1	6.2	0.00e+00	0	48	104	30886854656	78	19587
2026-01-23 22:06:19.87	314.07	11.32	-54.0	-56.0	6.2	0.00e+00	0	48	104	30886854656	78	19451
2026-01-23 22:06:20.83	314.27	11.26	-53.9	-56.0	6.2	0.00e+00	0	48	104	30886854656	78	19266
2026-01-23 22:06:21.80	314.48	11.20	-54.0	-56.1	6.2	0.00e+00	0	48	104	30886854656	78	19634
2026-01-23 22:06:22.77	314.68	11.14	-53.9	-56.0	6.2	0.00e+00	0	48	104	30886854656	78	19474
2026-01-23 22:06:23.74	314.89	11.08	-53.9	-56.0	6.2	0.00e+00	0	48	104	30886854656	78	19287
2026-01-23 22:06:24.71	315.09	11.02	-53.9	-56.0	6.2	0.00e+00	0	48	104	30886854656	78	19300
2026-01-23 22:06:25.67	315.29	10.95	-54.0	-56.0	6.2	0.00e+00	0	48	104	30886854656	78	19433
2026-01-23 22:06:26.64	315.49	10.89	-53.9	-56.0	6.2	0.00e+00	0	48	104	30886854656	78	19359
2026-01-23 22:06:27.61	315.69	10.83	-53.8	-55.9	6.2	0.00e+00	0	48	104	30886854656	78	19245
2026-01-23 22:06:28.58	315.89	10.77	-53.8	-55.9	6.2	0.00e+00	0	48	104	30886854656	78	19124
2026-01-23 22:06:29.55	316.09	10.71	-53.9	-56.0	6.2	0.00e+00	0	48	104	30886854656	78	19330
2026-01-23 22:06:30.52	316.28	10.65	-53.8	-56.0	6.2	0.00e+00	0	48	104	30886854656	78	19269
2026-01-23 22:06:31.49	316.48	10.59	-53.8	-55.9	6.2	0.00e+00	0	48	104	30886854656	78	19080
2026-01-23 22:06:32.46	316.67	10.53	-53.7	-55.8	6.2	0.00e+00	0	48	104	30886854656	78	18945
2026-01-23 22:06:33.43	316.87	10.46	-53.8	-55.9	6.2	0.00e+00	0	48	104	30886854656	78	19036
2026-01-23 22:06:34.40	317.06	10.40	-53.8	-55.9	6.2	0.00e+00	0	48	104	30886854656	78	19144
2026-01-23 22:06:35.37	317.25	10.34	-53.7	-55.8	6.2	0.00e+00	0	48	104	30886854656	78	18926
2026-01-23 22:06:36.34	317.45	10.28	-53.7	-55.7	6.2	0.00e+00	0	48	104	30886854656	78	18799
2026-01-23 22:06:37.31	317.64	10.22	-53.7	-55.8	6.2	0.00e+00	0	48	104	30886854656	78	18850
2026-01-23 22:06:38.27	317.82	10.16	-53.7	-55.8	6.2	0.00e+00	0	48	104	30886854656	78	19033
2026-01-23 22:06:39.24	318.01	10.10	-53.6	-55.7	6.2	0.00e+00	0	48	104	30886854656	78	18816
2026-01-23 22:06:40.21	318.20	10.03	-53.6	-55.7	6.2	0.00e+00	0	48	104	30886854656	78	18668
2026-01-23 22:06:41.18	318.39	9.97	-53.6	-55.7	6.2	0.00e+00	0	48	104	30886854656	78	18696
2026-01-23 22:06:42.15	318.57	9.91	-53.7	-55.8	6.2	0.00e+00	0	48	104	30886854656	78	18985
2026-01-23 22:06:43.13	318.76	9.85	-53.6	-55.7	6.2	0.00e+00	0	48	104	30886854656	78	18682
2026-01-23 22:06:44.10	318.94	9.79	-53.5	-55.6	6.2	0.00e+00	0	48	104	30886854656	78	18582
2026-01-23 22:06:45.06	319.12	9.72	-53.6	-55.7	6.2	0.00e+00	0	48	104	30886854656	78	18612
2026-01-23 22:06:46.03	319.31	9.66	-53.7	-55.7	6.2	0.00e+00	0	48	104	30886854656	78	18799
2026-01-23 22:06:47.01	319.49	9.60	-53.5	-55.6	6.2	0.00e+00	0	48	104	30886854656	78	18577
2026-01-23 22:06:47.98	319.67	9.54	-53.5	-55.6	6.2	0.00e+00	0	48	104	30886854656	78	18499
2026-01-23 22:06:48.94	319.85	9.48	-53.5	-55.6	6.2	0.00e+00	0	48	104	30886854656	78	18411
2026-01-23 22:06:49.91	320.02	9.41	-53.7	-55.8	6.2	0.00e+00	0	48	104	30886854656	78	18820
2026-01-23 22:06:50.88	320.20	9.35	-53.6	-55.7	6.2	0.00e+00	0	48	104	30886854656	78	18627
2026-01-23 22:06:51.84	320.38	9.29	-53.5	-55.6	6.2	0.00e+00	0	48	104	30886854656	78	18553
2026-01-23 22:06:52.81	320.55	9.23	-53.5	-55.6	6.2	0.00e+00	0	48	104	30886854656	78	18506
2026-01-23 22:06:53.78	320.73	9.17	-53.6	-55.7	6.2	0.00e+00	0	48	104	30886854656	78	18651
2026-01-23 22:06:54.75	320.90	9.10	-53.5	-55.6	6.2	0.00e+00	0	48	104	30886854656	78	18479
2026-01-23 22:06:55.72	321.08	9.04	-53.5	-55.6	6.2	0.00e+00	0	48	104	30886854656	78	18409
2026-01-23 22:06:56.69	321.25	8.98	-53.5	-55.6	6.2	0.00e+00	0	48	104	30886854656	78	18467
2026-01-23 22:06:57.66	321.42	8.92	-53.6	-55.6	6.2	0.00e+00	0	48	104	30886854656	78	18595
2026-01-23 22:06:58.63	321.59	8.86	-53.5	-55.6	6.2	0.00e+00	0	48	104	30886854656	78	18430
2026-01-23 22:06:59.59	321.76	8.79	-53.4	-55.5	6.2	0.00e+00	0	48	104	30886854656	78	18385
2026-01-23 22:07:00.56	321.93	8.73	-53.4	-55.5	6.2	0.00e+00	0	48	104	30886854656	78	18338
2026-01-23 22:07:01.53	322.10	8.67	-53.5	-55.6	6.2	0.00e+00	0	48	104	30886854656	78	18394
2026-01-23 22:07:02.50	322.26	8.61	-53.5	-55.5	6.2	0.00e+00	0	48	104	30886854656	78	18351
2026-01-23 22:07:03.47	322.43	8.55	-53.4	-55.5	6.2	0.00e+00	0	48	104	30886854656	78	18318
2026-01-23 22:07:04.44	322.60	8.48	-53.4	-55.5	6.2	0.00e+00	0	48	104	30886854656	78	18181
2026-01-23 22:07:05.41	322.76	8.42	-53.4	-55.5	6.2	0.00e+00	0	48	104	30886854656	78	18266
2026-01-23 22:07:06.38	322.92	8.36	-53.4	-55.5	6.2	0.00e+00	0	48	104	30886854656	78	18293
2026-01-23 22:07:07.35	323.09	8.30	-53.4	-55.5	6.2	0.00e+00	0	48	104	30886854656	78	18225
2026-01-23 22:07:08.33	323.25	8.24	-53.3	-55.4	6.2	0.00e+00	0	48	104	30886854656	78	18103
2026-01-23 22:07:09.29	323.41	8.17	-53.4	-55.4	6.2	0.00e+00	0	48	104	30886854656	78	18175
2026-01-23 22:07:10.26	323.57	8.11	-53.4	-55.5	6.2	0.00e+00	0	48	104	30886854656	78	18192
2026-01-23 22:07:11.23	323.73	8.05	-53.3	-55.4	6.2	0.00e+00	0	48	104	30886854656	78	18065
2026-01-23 22:07:12.20	323.89	7.99	-53.3	-55.4	6.2	0.00e+00	0	48	104	30886854656	78	18062
2026-01-23 22:07:13.17	324.05	7.93	-53.3	-55.4	6.2	0.00e+00	0	48	104	30886854656	78	18147
2026-01-23 22:07:14.14	324.21	7.87	-53.4	-55.5	6.2	0.00e+00	0	48	104	30886854656	78	18251
2026-01-23 22:07:15.10	324.36	7.80	-53.3	-55.4	6.2	0.00e+00	0	48	104	30886854656	78	18089
2026-01-23 22:07:16.07	324.52	7.74	-53.3	-55.4	6.2	0.00e+00	0	48	104	30886854656	78	17986
2026-01-23 22:07:17.04	324.68	7.68	-53.3	-55.4	6.2	0.00e+00	0	48	104	30886854656	78	17996
2026-01-23 22:07:18.01	324.83	7.62	-53.3	-55.4	6.2	0.00e+00	0	48	104	30886854656	78	18155
2026-01-23 22:07:18.98	324.98	7.56	-53.2	-55.4	6.2	0.00e+00	0	48	104	30886854656	78	17981
2026-01-23 22:07:19.94	325.14	7.50	-53.2	-55.3	6.2	0.00e+00	0	48	104	30886854656	78	17866
2026-01-23 22:07:20.91	325.29	7.44	-53.2	-55.3	6.2	0.00e+00	0	48	104	30886854656	78	17963
2026-01-23 22:07:21.88	325.44	7.37	-53.3	-55.4	6.2	0.00e+00	0	48	104	30886854656	78	18109
2026-01-23 22:07:22.85	325.59	7.31	-53.2	-55.3	6.2	0.00e+00	0	48	104	30886854656	78	17879
2026-01-23 22:07:23.82	325.74	7.25	-53.2	-55.3	6.2	0.00e+00	0	48	104	30886854656	78	17888
2026-01-23 22:07:24.78	325.89	7.19	-53.2	-55.3	6.2	0.00e+00	0	48	104	30886854656	78	17885
2026-01-23 22:07:25.75	326.04	7.13	-53.2	-55.3	6.2	0.00e+00	0	48	104	30886854656	78	17888
2026-01-23 22:07:26.72	326.19	7.07	-53.1	-55.2	6.2	0.00e+00	0	48	104	30886854656	78	17691
2026-01-23 22:07:27.69	326.33	7.01	-53.1	-55.2	6.2	0.00e+00	0	48	104	30886854656	78	17762
2026-01-23 22:07:28.67	326.48	6.94	-52.7	-55.0	6.2	0.00e+00	0	48	104	30886854656	77	18202
2026-01-23 22:07:29.64	326.63	6.88	-53.2	-55.3	6.2	0.00e+00	0	48	104	30886854656	77	18850
2026-01-23 22:07:30.61	326.77	6.82	-53.1	-55.2	6.2	0.00e+00	0	48	104	30886854656	77	18731
2026-01-23 22:07:31.58	326.92	6.76	-53.1	-55.2	6.2	0.00e+00	0	48	104	30886854656	77	18769
2026-01-23 22:07:32.54	327.06	6.70	-53.1	-55.2	6.2	0.00e+00	0	48	104	30886854656	77	18693
2026-01-23 22:07:33.51	327.20	6.64	-53.2	-55.2	6.2	0.00e+00	0	48	104	30886854656	77	18809
2026-01-23 22:07:34.48	327.34	6.58	-53.2	-55.3	6.2	0.00e+00	0	48	104	30886854656	77	18838
2026-01-23 22:07:35.45	327.48	6.52	-53.1	-55.2	6.2	0.00e+00	0	48	104	30886854656	77	18794
2026-01-23 22:07:36.42	327.63	6.46	-53.1	-55.2	6.2	0.00e+00	0	48	104	30886854656	77	18719
2026-01-23 22:07:37.39	327.77	6.40	-53.1	-55.2	6.2	0.00e+00	0	48	104	30886854656	77	18756
2026-01-23 22:07:38.36	327.90	6.34	-53.1	-55.2	6.2	0.00e+00	0	48	104	30886854656	77	18722
2026-01-23 22:07:39.33	328.04	6.28	-53.1	-55.2	6.2	0.00e+00	0	48	104	30886854656	77	18633
2026-01-23 22:07:40.30	328.18	6.22	-53.0	-55.2	6.2	0.00e+00	0	48	104	30886854656	77	18609
2026-01-23 22:07:41.27	328.32	6.16	-53.0	-55.1	6.2	0.00e+00	0	48	104	30886854656	77	18523
2026-01-23 22:07:42.24	328.46	6.10	-53.1	-55.2	6.2	0.00e+00	0	48	104	30886854656	77	18722
2026-01-23 22:07:43.21	328.59	6.04	-53.0	-55.1	6.2	0.00e+00	0	48	104	30886854656	77	18543
2026-01-23 22:07:44.18	328.73	5.98	-53.0	-55.1	6.2	0.00e+00	0	48	104	30886854656	77	18485
2026-01-23 22:07:45.15	328.86	5.92	-52.9	-55.0	6.2	0.00e+00	0	48	104	30886854656	77	18339
2026-01-23 22:07:46.12	329.00	5.86	-53.1	-55.2	6.2	0.00e+00	0	48	104	30886854656	77	18698
2026-01-23 22:07:47.08	329.13	5.80	-52.9	-55.0	6.2	0.00e+00	0	48	104	30886854656	77	18352
2026-01-23 22:07:48.05	329.26	5.74	-53.0	-55.0	6.2	0.00e+00	0	48	104	30886854656	77	18376
2026-01-23 22:07:49.02	329.39	5.68	-52.9	-55.0	6.2	0.00e+00	0	48	104	30886854656	77	18258
2026-01-23 22:07:50.00	329.53	5.62	-53.0	-55.2	6.2	0.00e+00	0	48	104	30886854656	77	18621
2026-01-23 22:07:50.97	329.66	5.56	-52.9	-55.0	6.2	0.00e+00	0	48	104	30886854656	77	18256
2026-01-23 22:07:51.94	329.79	5.50	-52.9	-55.0	6.2	0.00e+00	0	48	104	30886854656	77	18342
2026-01-23 22:07:52.90	329.92	5.44	-52.9	-54.9	6.2	0.00e+00	0	48	104	30886854656	77	18110
2026-01-23 22:07:53.87	330.05	5.38	-53.0	-55.1	6.2	0.00e+00	0	48	104	30886854656	77	18552
2026-01-23 22:07:54.84	330.17	5.32	-52.9	-55.0	6.2	0.00e+00	0	48	104	30886854656	77	18260
2026-01-23 22:07:55.82	330.30	5.26	-52.9	-55.0	6.2	0.00e+00	0	48	104	30886854656	77	18271
2026-01-23 22:07:56.79	330.43	5.20	-52.8	-54.9	6.2	0.00e+00	0	48	104	30886854656	77	18111
2026-01-23 22:07:57.76	330.56	5.14	-52.9	-55.0	6.2	0.00e+00	0	48	104	30886854656	77	18323
2026-01-23 22:07:58.73	330.68	5.08	-52.8	-55.0	6.2	0.00e+00	0	48	104	30886854656	77	18193
2026-01-23 22:07:59.70	330.81	5.02	-52.8	-54.9	6.2	0.00e+00	0	48	104	30886854656	77	18131
2026-01-23 22:08:00.67	330.93	4.96	-52.9	-55.0	6.2	0.00e+00	0	48	104	30886854656	77	18231
2026-01-23 22:08:01.64	331.06	4.90	-53.3	-55.4	6.2	0.00e+00	0	48	104	30886854656	77	19233
2026-01-23 22:08:02.61	331.18	4.84	-53.7	-55.8	6.2	0.00e+00	0	48	104	30886854656	77	20059
2026-01-23 22:08:03.58	331.30	4.79	-53.9	-56.1	6.2	0.00e+00	0	48	104	30886854656	78	19484
2026-01-23 22:08:04.54	331.43	4.73	-54.2	-56.3	6.2	0.00e+00	0	48	104	30886854656	78	20026
2026-01-23 22:08:05.51	331.55	4.67	-54.3	-56.4	6.2	0.00e+00	0	48	104	30886854656	79	19112
2026-01-23 22:08:06.49	331.67	4.61	-54.3	-56.4	6.2	0.00e+00	0	48	104	30886854656	79	19160
2026-01-23 22:08:07.46	331.79	4.55	-54.3	-56.4	6.2	0.00e+00	0	48	104	30886854656	79	19251
2026-01-23 22:08:08.43	331.91	4.49	-54.3	-56.4	6.2	0.00e+00	0	48	104	30886854656	79	19190
2026-01-23 22:08:09.39	332.03	4.44	-54.2	-56.4	6.2	0.00e+00	0	48	104	30886854656	79	19088
2026-01-23 22:08:10.36	332.15	4.38	-54.2	-56.3	6.2	0.00e+00	0	48	104	30886854656	79	18917
2026-01-23 22:08:11.33	332.27	4.32	-54.0	-56.1	6.2	0.00e+00	0	48	104	30886854656	79	18470
2026-01-23 22:08:12.30	332.38	4.26	-54.0	-56.1	6.2	0.00e+00	0	48	104	30886854656	79	18422
2026-01-23 22:08:13.27	332.50	4.20	-54.0	-56.1	6.2	0.00e+00	0	48	104	30886854656	79	18441
2026-01-23 22:08:14.24	332.62	4.14	-54.0	-56.1	6.2	0.00e+00	0	48	104	30886854656	79	18558
2026-01-23 22:08:15.21	332.74	4.09	-54.1	-56.2	6.2	0.00e+00	0	48	104	30886854656	79	18657
2026-01-23 22:08:16.18	332.85	4.03	-54.1	-56.2	6.2	0.00e+00	0	48	104	30886854656	79	18659
2026-01-23 22:08:17.14	332.97	3.97	-54.1	-56.2	6.2	0.00e+00	0	47	104	30886854656	79	18711
2026-01-23 22:08:18.11	333.08	3.91	-54.1	-56.2	6.2	0.00e+00	0	48	104	30886854656	79	18610
2026-01-23 22:08:19.08	333.19	3.86	-54.0	-56.1	6.2	0.00e+00	0	48	104	30886854656	79	18576
2026-01-23 22:08:20.05	333.31	3.80	-54.0	-56.1	6.2	0.00e+00	0	48	104	30886854656	79	18497
2026-01-23 22:08:21.02	333.42	3.74	-54.0	-56.1	6.2	0.00e+00	0	48	104	30886854656	79	18479
2026-01-23 22:08:22.00	333.53	3.68	-53.9	-56.0	6.2	0.00e+00	0	48	104	30886854656	79	18346
2026-01-23 22:08:22.97	333.65	3.63	-53.9	-56.0	6.2	0.00e+00	0	48	104	30886854656	79	18186
2026-01-23 22:08:23.94	333.76	3.57	-53.8	-55.9	6.2	0.00e+00	0	48	104	30886854656	79	18045
2026-01-23 22:08:24.91	333.87	3.51	-53.8	-55.9	6.2	0.00e+00	0	48	104	30886854656	79	18004
2026-01-23 22:08:25.88	333.98	3.45	-53.7	-55.8	6.2	0.00e+00	0	48	104	30886854656	79	17949
2026-01-23 22:08:26.85	334.09	3.40	-53.7	-55.8	6.2	0.00e+00	0	48	104	30886854656	79	17958
2026-01-23 22:08:27.82	334.20	3.34	-53.7	-55.8	6.2	0.00e+00	0	48	104	30886854656	79	17867
2026-01-23 22:08:28.79	334.31	3.28	-53.7	-55.8	6.2	0.00e+00	0	48	104	30886854656	79	17852
2026-01-23 22:08:29.75	334.42	3.23	-53.7	-55.8	6.2	0.00e+00	0	48	104	30886854656	79	17796
2026-01-23 22:08:30.72	334.52	3.17	-53.6	-55.7	6.2	0.00e+00	0	48	104	30886854656	79	17739
2026-01-23 22:08:31.69	334.63	3.11	-53.6	-55.7	6.2	0.00e+00	0	48	104	30886854656	79	17738
2026-01-23 22:08:32.66	334.74	3.06	-53.6	-55.8	6.2	0.00e+00	0	48	104	30886854656	79	17800
2026-01-23 22:08:33.63	334.85	3.00	-53.6	-55.7	6.2	0.00e+00	0	48	104	30886854656	79	17762
2026-01-23 22:08:34.60	334.95	2.95	-53.6	-55.7	6.2	0.00e+00	0	48	104	30886854656	79	17710
2026-01-23 22:08:35.57	335.06	2.89	-53.6	-55.7	6.2	0.00e+00	0	48	104	30886854656	79	17664
2026-01-23 22:08:36.54	335.16	2.83	-53.6	-55.6	6.2	0.00e+00	0	48	104	30886854656	79	17557
2026-01-23 22:08:37.50	335.27	2.78	-53.6	-55.7	6.2	0.00e+00	0	48	104	30886854656	79	17577
2026-01-23 22:08:38.47	335.37	2.72	-53.6	-55.6	6.2	0.00e+00	0	48	104	30886854656	79	17553
2026-01-23 22:08:39.44	335.47	2.67	-53.5	-55.6	6.2	0.00e+00	0	48	104	30886854656	79	17508
2026-01-23 22:08:40.41	335.58	2.61	-53.5	-55.6	6.2	0.00e+00	0	48	104	30886854656	79	17550
2026-01-23 22:08:41.38	335.68	2.55	-53.5	-55.7	6.2	0.00e+00	0	48	104	30886854656	79	17579
2026-01-23 22:08:42.34	335.78	2.50	-53.5	-55.7	6.2	0.00e+00	0	48	104	30886854656	79	17572
2026-01-23 22:08:43.31	335.88	2.44	-53.5	-55.6	6.2	0.00e+00	0	48	104	30886854656	79	17479
2026-01-23 22:08:44.28	335.98	2.39	-53.5	-55.6	6.2	0.00e+00	0	48	104	30886854656	79	17428
2026-01-23 22:08:45.25	336.09	2.33	-53.5	-55.6	6.2	0.00e+00	0	48	104	30886854656	79	17402
2026-01-23 22:08:46.22	336.19	2.28	-53.5	-55.6	6.2	0.00e+00	0	47	104	30886854656	79	17444
2026-01-23 22:08:47.19	336.29	2.22	-53.5	-55.6	6.2	0.00e+00	0	48	104	30886854656	79	17489
2026-01-23 22:08:48.16	336.39	2.17	-53.5	-55.6	6.2	0.00e+00	0	48	104	30886854656	79	17444
2026-01-23 22:08:49.13	336.49	2.11	-53.5	-55.6	6.2	0.00e+00	0	48	104	30886854656	79	17484
2026-01-23 22:08:50.10	336.58	2.06	-53.5	-55.6	6.2	0.00e+00	0	48	104	30886854656	79	17473
2026-01-23 22:08:51.07	336.68	2.00	-53.5	-55.6	6.2	0.00e+00	0	48	104	30886854656	79	17420
2026-01-23 22:08:52.04	336.78	1.95	-53.5	-55.6	6.2	0.00e+00	0	48	104	30886854656	79	17391
2026-01-23 22:08:53.01	336.88	1.89	-53.5	-55.6	6.2	0.00e+00	0	48	104	30886854656	79	17501

#Closed at: 2026-01-23 22:08:53
#Recorded file [30886 MB]: D:/lorett/data/31041_260124_005924.dat