passes_logs/2026/01/23/R3.2S_Murmansk/R3.2S_Murmansk__20260123_065942_SUOMI_NPP_rec.log

#Pass ID: 20260123_065942_SUOMI NPP
#Satellite: SUOMI NPP
#Configuration: NPP
#almurnet v.1.7.20251203
#Start time: 2026-01-23 06:59:43

#Version: 2.2.20231116
#Station: R3.2S_Murmansk
#Location: 33.079688 lon 68.888172 lat
#TLE: 1 37849U 11061A   26022.50498765  .00000208  00000+0  11976-3 0  9992
#TLE: 2 37849  98.7820 324.4892 0002275  50.8149 309.3229 14.19528284737775

#Time	Az	El	Level	Level2	SNR	BER	BlckErr	Temp	State	Recorded	gain1	gain2
2026-01-23 06:59:43.17	93.30	2.02	-54.4	-69.4	3.8	1.49e+00	0	41	0	0	79	21381
2026-01-23 06:59:44.17	93.25	2.08	-54.6	-69.6	3.8	1.49e+00	0	41	104	0	79	21885
2026-01-23 06:59:45.17	93.20	2.14	-54.6	-69.6	3.8	1.49e+00	0	41	104	0	79	21850
2026-01-23 06:59:46.18	93.14	2.20	-54.6	-69.6	3.8	1.49e+00	0	41	104	0	79	21864
2026-01-23 06:59:47.19	93.09	2.26	-54.6	-69.6	3.8	1.49e+00	0	41	104	0	79	21808
2026-01-23 06:59:48.20	93.04	2.32	-54.5	-69.6	3.8	1.49e+00	0	41	104	0	79	21777
2026-01-23 06:59:49.21	92.98	2.38	-54.5	-69.5	3.8	1.49e+00	0	41	104	0	79	21676
2026-01-23 06:59:50.22	92.93	2.44	-54.5	-69.5	3.8	1.49e+00	0	41	104	0	79	21621
2026-01-23 06:59:51.22	92.88	2.50	-54.4	-69.4	3.8	1.49e+00	0	41	104	0	79	21446
2026-01-23 06:59:52.23	92.82	2.56	-54.4	-69.4	3.8	1.49e+00	0	41	104	0	79	21363
2026-01-23 06:59:53.24	92.77	2.62	-54.3	-69.3	3.8	1.49e+00	0	41	104	0	79	21214
2026-01-23 06:59:54.24	92.71	2.68	-54.2	-69.3	3.8	1.49e+00	0	41	104	0	79	21044
2026-01-23 06:59:55.25	92.66	2.74	-54.2	-69.2	3.8	1.49e+00	0	41	104	0	79	20865
2026-01-23 06:59:56.26	92.60	2.80	-54.1	-69.1	3.8	1.49e+00	0	41	104	0	79	20701
2026-01-23 06:59:57.27	92.55	2.86	-54.1	-69.1	3.8	1.49e+00	0	41	104	0	79	20559
2026-01-23 06:59:58.28	92.49	2.93	-54.0	-69.0	3.8	1.49e+00	0	42	104	0	79	20339
2026-01-23 06:59:59.29	92.44	2.99	-53.8	-68.8	3.8	1.49e+00	0	41	104	0	79	20020
2026-01-23 07:00:00.29	92.38	3.05	-53.7	-68.7	3.8	1.49e+00	0	42	104	0	79	19658
2026-01-23 07:00:01.30	92.32	3.11	-53.5	-68.4	3.8	1.49e+00	0	42	104	0	78	20270
2026-01-23 07:00:02.31	92.27	3.17	-53.2	-68.2	3.8	1.49e+00	0	42	104	0	78	19782
2026-01-23 07:00:03.32	92.21	3.24	-53.0	-68.0	3.8	1.49e+00	0	41	104	0	78	19270
2026-01-23 07:00:04.33	92.15	3.30	-52.9	-67.9	3.8	1.49e+00	0	42	104	0	77	20078
2026-01-23 07:00:05.34	92.10	3.36	-52.7	-67.7	3.8	1.49e+00	0	42	104	0	77	19734
2026-01-23 07:00:06.34	92.04	3.42	-52.6	-67.6	3.8	1.49e+00	0	42	104	0	77	19512
2026-01-23 07:00:07.35	91.98	3.48	-52.4	-67.4	3.8	1.49e+00	0	42	104	0	76	20165
2026-01-23 07:00:08.36	91.92	3.55	-52.3	-67.2	3.8	1.49e+00	0	42	104	0	75	20970
2026-01-23 07:00:09.36	91.86	3.61	-52.3	-67.2	3.8	1.49e+00	0	42	104	0	75	20916
2026-01-23 07:00:10.38	91.81	3.67	-52.2	-67.2	3.8	1.49e+00	0	42	104	0	75	20844
2026-01-23 07:00:11.38	91.75	3.73	-52.2	-67.1	3.8	1.49e+00	0	42	104	0	75	20755
2026-01-23 07:00:12.39	91.69	3.80	-52.2	-66.9	3.8	1.49e+00	0	42	104	0	75	20280
2026-01-23 07:00:13.40	91.63	3.86	-52.2	-66.7	3.8	1.49e+00	0	42	104	0	75	19671
2026-01-23 07:00:14.41	91.57	3.92	-52.2	-66.4	3.8	1.49e+00	0	42	104	0	75	18977
2026-01-23 07:00:15.41	91.51	3.99	-52.2	-66.2	3.8	1.49e+00	0	42	104	0	75	18547
2026-01-23 07:00:16.42	91.45	4.05	-52.2	-65.9	3.8	1.49e+00	0	42	104	0	75	17904
2026-01-23 07:00:17.43	91.39	4.11	-52.2	-65.8	3.8	1.49e+00	0	42	104	0	75	17807
2026-01-23 07:00:18.44	91.33	4.18	-52.2	-65.8	3.8	1.49e+00	0	42	104	0	75	17728
2026-01-23 07:00:19.45	91.27	4.24	-52.1	-65.1	3.8	1.49e+00	0	42	104	0	74	17366
2026-01-23 07:00:20.46	91.20	4.31	-52.1	-64.7	4.0	1.49e+00	0	42	104	0	74	16650
2026-01-23 07:00:21.47	91.14	4.37	-52.0	-63.2	4.3	1.34e+00	116	42	0	0	74	13968
2026-01-23 07:00:22.48	91.08	4.43	-51.8	-61.2	5.3	8.48e-01	0	42	0	2097152	74	11097
2026-01-23 07:00:23.48	91.02	4.50	-51.6	-59.9	6.2	4.63e-01	0	42	0	3145728	74	9499
2026-01-23 07:00:24.49	90.96	4.56	-51.3	-58.1	7.7	9.37e-02	0	42	0	5242880	74	7789
2026-01-23 07:00:25.50	90.89	4.63	-51.1	-57.3	8.5	4.52e-02	0	42	0	7340032	73	7539
2026-01-23 07:00:26.51	90.83	4.69	-50.7	-56.2	9.7	1.96e-02	0	42	0	9437184	73	6617
2026-01-23 07:00:27.52	90.77	4.76	-50.5	-55.6	10.3	4.44e-03	0	42	0	11534336	72	6510
2026-01-23 07:00:28.52	90.70	4.82	-50.4	-55.3	10.7	2.65e-03	0	42	0	12582912	72	6291
2026-01-23 07:00:29.53	90.64	4.89	-50.2	-54.7	11.2	2.35e-03	0	42	0	14680064	72	5895
2026-01-23 07:00:30.54	90.57	4.95	-50.3	-55.0	11.0	9.94e-04	0	42	0	16777216	72	6107
2026-01-23 07:00:31.55	90.51	5.02	-50.4	-55.1	10.9	1.23e-03	0	42	0	18874368	72	6197
2026-01-23 07:00:32.56	90.45	5.08	-50.3	-55.0	11.0	3.89e-03	0	42	0	20971520	72	6072
2026-01-23 07:00:33.56	90.38	5.15	-49.0	-51.9	14.2	4.22e-03	0	42	0	22020096	70	4807
2026-01-23 07:00:34.57	90.31	5.21	-51.4	-58.9	7.9	2.20e-06	0	42	0	24117248	73	9020
2026-01-23 07:00:35.58	90.25	5.28	-49.3	-52.5	5.8	1.49e+00	0	42	104	24117248	70	5144
2026-01-23 07:00:36.59	90.18	5.35	-48.6	-51.2	15.2	2.82e-05	0	42	0	25165824	68	4958
2026-01-23 07:00:37.60	90.12	5.41	-49.2	-52.3	13.9	5.16e-04	0	42	0	26214400	70	5020
2026-01-23 07:00:38.61	90.05	5.48	-48.3	-50.9	15.4	0.00e+00	0	42	0	28311552	68	4789
2026-01-23 07:00:39.61	89.98	5.54	-48.4	-50.9	15.4	0.00e+00	0	42	0	30408704	68	4810
2026-01-23 07:00:40.62	89.92	5.61	-48.5	-51.1	15.2	0.00e+00	0	42	0	32505856	68	4918
2026-01-23 07:00:41.63	89.85	5.68	-48.4	-51.0	15.4	0.00e+00	0	42	0	34603008	68	4845
2026-01-23 07:00:42.64	89.78	5.74	-48.5	-51.1	15.3	0.00e+00	0	42	0	35651584	68	4882
2026-01-23 07:00:43.64	89.71	5.81	-48.6	-51.3	15.1	0.00e+00	0	42	0	37748736	68	5004
2026-01-23 07:00:44.65	89.64	5.88	-48.2	-50.6	15.8	0.00e+00	0	42	0	39845888	68	4617
2026-01-23 07:00:45.66	89.57	5.94	-48.4	-50.8	15.7	0.00e+00	0	42	0	41943040	68	4756
2026-01-23 07:00:46.67	89.50	6.01	-48.7	-51.4	15.1	0.00e+00	0	42	0	44040192	68	5083
2026-01-23 07:00:47.68	89.43	6.08	-48.6	-51.2	15.3	0.00e+00	0	42	0	45088768	68	4947
2026-01-23 07:00:48.68	89.36	6.15	-48.5	-51.0	15.4	0.00e+00	0	42	0	47185920	68	4862
2026-01-23 07:00:49.69	89.29	6.21	-48.4	-50.9	15.6	0.00e+00	0	42	0	49283072	68	4773
2026-01-23 07:00:50.70	89.22	6.28	-48.5	-51.0	15.4	7.00e-07	0	42	0	51380224	68	4869
2026-01-23 07:00:51.71	89.15	6.35	-48.4	-50.9	15.6	0.00e+00	0	42	0	53477376	67	5052
2026-01-23 07:00:52.71	89.08	6.42	-48.4	-50.9	15.6	0.00e+00	0	42	0	54525952	67	5049
2026-01-23 07:00:53.72	89.01	6.49	-48.3	-50.7	15.7	0.00e+00	0	43	0	56623104	67	4975
2026-01-23 07:00:54.73	88.94	6.55	-48.5	-51.0	15.4	0.00e+00	0	42	0	58720256	67	5146
2026-01-23 07:00:55.74	88.86	6.62	-48.5	-51.2	15.3	0.00e+00	0	42	0	60817408	67	5226
2026-01-23 07:00:56.75	88.79	6.69	-48.2	-50.6	15.9	0.00e+00	0	42	0	62914560	67	4920
2026-01-23 07:00:57.76	88.72	6.76	-48.2	-50.6	15.9	0.00e+00	0	42	0	63963136	67	4883
2026-01-23 07:00:58.76	88.65	6.83	-48.2	-50.6	15.9	0.00e+00	0	42	0	66060288	67	4903
2026-01-23 07:00:59.77	88.57	6.90	-48.2	-50.6	16.0	0.00e+00	0	42	0	68157440	67	4879
2026-01-23 07:01:00.78	88.50	6.97	-48.2	-50.5	16.1	0.00e+00	0	43	0	70254592	67	4835
2026-01-23 07:01:01.79	88.42	7.04	-48.2	-50.6	16.0	0.00e+00	0	43	0	72351744	67	4874
2026-01-23 07:01:02.80	88.35	7.11	-48.3	-50.8	15.8	0.00e+00	0	43	0	73400320	67	5001
2026-01-23 07:01:03.81	88.27	7.17	-48.7	-51.3	15.2	0.00e+00	0	42	0	75497472	67	5318
2026-01-23 07:01:04.82	88.20	7.24	-48.5	-51.0	15.6	0.00e+00	0	42	0	77594624	67	5143
2026-01-23 07:01:05.82	88.12	7.31	-48.5	-51.0	15.7	0.00e+00	0	42	0	79691776	67	5127
2026-01-23 07:01:06.83	88.04	7.38	-48.1	-50.6	16.0	0.00e+00	0	43	0	81788928	67	4879
2026-01-23 07:01:07.84	87.97	7.45	-48.1	-50.6	16.0	0.00e+00	0	43	0	82837504	67	4879
2026-01-23 07:01:08.85	87.89	7.52	-47.9	-50.4	16.2	0.00e+00	0	42	0	84934656	67	4772
2026-01-23 07:01:09.85	87.81	7.59	-47.9	-50.3	16.2	0.00e+00	0	43	0	87031808	67	4730
2026-01-23 07:01:10.86	87.73	7.67	-47.9	-50.3	16.2	0.00e+00	0	43	0	89128960	67	4745
2026-01-23 07:01:11.87	87.66	7.74	-47.9	-50.3	16.3	0.00e+00	0	43	0	91226112	67	4708
2026-01-23 07:01:12.88	87.58	7.81	-47.6	-49.8	16.8	0.00e+00	0	43	0	93323264	67	4467
2026-01-23 07:01:13.89	87.50	7.88	-47.6	-49.7	16.8	0.00e+00	0	42	0	94371840	67	4431
2026-01-23 07:01:14.89	87.42	7.95	-47.7	-50.0	16.6	0.00e+00	0	43	0	96468992	67	4567
2026-01-23 07:01:15.90	87.34	8.02	-47.8	-50.0	16.6	0.00e+00	0	43	0	98566144	67	4573
2026-01-23 07:01:16.91	87.26	8.09	-47.6	-49.8	16.7	0.00e+00	0	43	0	100663296	67	4481
2026-01-23 07:01:17.92	87.18	8.16	-47.5	-49.6	16.9	0.00e+00	0	43	0	102760448	67	4379
2026-01-23 07:01:18.93	87.10	8.23	-47.4	-49.5	17.0	0.00e+00	0	43	0	103809024	66	4588
2026-01-23 07:01:19.93	87.01	8.31	-47.2	-49.2	17.3	0.00e+00	0	43	0	105906176	66	4435
2026-01-23 07:01:20.94	86.93	8.38	-47.1	-49.1	17.5	0.00e+00	0	43	0	108003328	66	4353
2026-01-23 07:01:21.95	86.85	8.45	-47.2	-49.2	17.5	0.00e+00	0	43	0	110100480	66	4401
2026-01-23 07:01:22.96	86.77	8.52	-47.1	-49.1	17.5	0.00e+00	0	43	0	111149056	66	4379
2026-01-23 07:01:23.96	86.68	8.59	-47.1	-49.0	17.5	0.00e+00	0	43	0	113246208	65	4585
2026-01-23 07:01:24.97	86.60	8.67	-47.2	-49.2	17.3	0.00e+00	0	43	0	115343360	65	4702
2026-01-23 07:01:25.98	86.51	8.74	-46.9	-48.8	17.8	0.00e+00	0	43	0	117440512	65	4470
2026-01-23 07:01:26.99	86.43	8.81	-46.8	-48.6	17.9	0.00e+00	0	43	0	119537664	65	4388
2026-01-23 07:01:27.99	86.35	8.89	-46.9	-48.8	17.8	0.00e+00	0	43	0	121634816	65	4470
2026-01-23 07:01:29.00	86.26	8.96	-47.2	-49.2	17.4	0.00e+00	0	43	0	122683392	65	4702
2026-01-23 07:01:30.01	86.17	9.03	-46.9	-48.7	17.8	0.00e+00	0	43	0	124780544	65	4438
2026-01-23 07:01:31.02	86.09	9.11	-47.0	-49.0	17.5	0.00e+00	0	43	0	126877696	65	4578
2026-01-23 07:01:32.03	86.00	9.18	-46.9	-48.9	17.7	0.00e+00	0	43	0	128974848	65	4506
2026-01-23 07:01:33.03	85.91	9.25	-47.3	-49.4	17.3	0.00e+00	0	43	0	130023424	65	4764
2026-01-23 07:01:34.04	85.83	9.33	-47.0	-49.0	17.6	0.00e+00	0	43	0	132120576	65	4573
2026-01-23 07:01:35.05	85.74	9.40	-47.0	-49.0	17.6	0.00e+00	0	43	0	134217728	65	4574
2026-01-23 07:01:36.06	85.65	9.48	-47.1	-49.1	17.6	0.00e+00	0	43	0	136314880	65	4611
2026-01-23 07:01:37.07	85.56	9.55	-47.0	-49.0	17.6	0.00e+00	0	43	0	138412032	65	4553
2026-01-23 07:01:38.08	85.47	9.62	-47.1	-49.0	17.5	0.00e+00	0	43	0	140509184	65	4586
2026-01-23 07:01:39.08	85.38	9.70	-47.1	-49.0	17.6	0.00e+00	0	43	0	141557760	65	4580
2026-01-23 07:01:40.09	85.29	9.77	-47.0	-49.0	17.6	0.00e+00	0	43	0	143654912	65	4580
2026-01-23 07:01:41.10	85.20	9.85	-47.0	-48.9	17.6	0.00e+00	0	43	0	145752064	65	4543
2026-01-23 07:01:42.11	85.11	9.92	-47.2	-49.2	17.5	0.00e+00	0	43	0	147849216	65	4662
2026-01-23 07:01:43.11	85.01	10.00	-47.0	-49.0	17.6	0.00e+00	0	43	0	149946368	65	4576
2026-01-23 07:01:44.12	84.92	10.07	-47.2	-49.2	17.5	0.00e+00	0	43	0	150994944	65	4679
2026-01-23 07:01:45.13	84.83	10.15	-47.0	-48.9	17.7	0.00e+00	0	43	0	153092096	65	4509
2026-01-23 07:01:46.14	84.73	10.23	-47.1	-49.0	17.6	0.00e+00	0	43	0	155189248	65	4579
2026-01-23 07:01:47.15	84.64	10.30	-46.9	-48.9	17.8	0.00e+00	0	43	0	157286400	65	4496
2026-01-23 07:01:48.16	84.55	10.38	-47.0	-48.9	17.8	0.00e+00	0	43	0	159383552	65	4496
2026-01-23 07:01:49.16	84.45	10.45	-47.0	-49.0	17.7	0.00e+00	0	43	0	160432128	65	4560
2026-01-23 07:01:50.17	84.35	10.53	-47.2	-49.1	17.6	0.00e+00	0	43	0	162529280	65	4636
2026-01-23 07:01:51.18	84.26	10.61	-47.1	-49.0	17.6	0.00e+00	0	43	0	164626432	65	4591
2026-01-23 07:01:52.19	84.16	10.68	-47.3	-49.3	17.3	0.00e+00	0	43	0	166723584	65	4749
2026-01-23 07:01:53.20	84.06	10.76	-47.2	-49.2	17.4	0.00e+00	0	43	0	168820736	65	4678
2026-01-23 07:01:54.20	83.97	10.84	-47.0	-48.9	17.8	0.00e+00	0	43	0	169869312	65	4519
2026-01-23 07:01:55.21	83.87	10.91	-46.8	-48.6	18.0	0.00e+00	0	43	0	171966464	65	4378
2026-01-23 07:01:56.22	83.77	10.99	-46.8	-48.7	17.9	0.00e+00	0	43	0	174063616	65	4410
2026-01-23 07:01:57.23	83.67	11.07	-46.7	-48.5	18.1	0.00e+00	0	43	0	176160768	65	4322
2026-01-23 07:01:58.24	83.57	11.15	-46.9	-48.8	17.9	0.00e+00	0	43	0	178257920	65	4469
2026-01-23 07:01:59.24	83.47	11.23	-47.1	-49.0	17.6	0.00e+00	0	43	0	179306496	65	4596
2026-01-23 07:02:00.25	83.37	11.30	-47.2	-49.2	17.5	0.00e+00	0	43	0	181403648	65	4673
2026-01-23 07:02:01.26	83.27	11.38	-46.9	-48.8	17.9	0.00e+00	0	43	0	183500800	65	4466
2026-01-23 07:02:02.27	83.17	11.46	-47.0	-48.9	17.8	0.00e+00	0	43	0	185597952	65	4532
2026-01-23 07:02:03.27	83.06	11.54	-46.9	-48.8	17.9	0.00e+00	0	43	0	187695104	65	4445
2026-01-23 07:02:04.28	82.96	11.62	-46.9	-48.7	17.9	0.00e+00	0	43	0	188743680	65	4432
2026-01-23 07:02:05.29	82.86	11.70	-46.9	-48.8	17.9	0.00e+00	0	43	0	190840832	65	4472
2026-01-23 07:02:06.30	82.75	11.77	-47.0	-48.9	17.8	0.00e+00	0	43	0	192937984	65	4511
2026-01-23 07:02:07.31	82.65	11.85	-46.9	-48.8	17.8	0.00e+00	0	43	0	195035136	65	4487
2026-01-23 07:02:08.32	82.54	11.93	-47.0	-48.9	17.8	0.00e+00	0	43	0	197132288	65	4510
2026-01-23 07:02:09.33	82.43	12.01	-46.9	-48.9	17.8	0.00e+00	0	43	0	198180864	65	4500
2026-01-23 07:02:10.34	82.33	12.09	-47.0	-48.9	17.8	0.00e+00	0	43	0	200278016	65	4502
2026-01-23 07:02:11.34	82.22	12.17	-47.1	-49.1	17.6	0.00e+00	0	43	0	202375168	65	4614
2026-01-23 07:02:12.35	82.11	12.25	-47.2	-49.2	17.6	0.00e+00	0	43	0	204472320	65	4656
2026-01-23 07:02:13.36	82.00	12.33	-47.3	-49.3	17.4	0.00e+00	0	43	0	206569472	65	4735
2026-01-23 07:02:14.37	81.90	12.41	-47.2	-49.3	17.4	0.00e+00	0	43	0	208666624	65	4712
2026-01-23 07:02:15.38	81.79	12.49	-47.3	-49.3	17.4	0.00e+00	0	43	0	209715200	65	4752
2026-01-23 07:02:16.38	81.68	12.57	-47.0	-48.9	17.8	0.00e+00	0	43	0	211812352	65	4536
2026-01-23 07:02:17.39	81.56	12.65	-47.1	-49.1	17.6	0.00e+00	0	43	0	213909504	65	4611
2026-01-23 07:02:18.40	81.45	12.73	-46.9	-48.8	17.9	0.00e+00	0	43	0	216006656	65	4449
2026-01-23 07:02:19.41	81.34	12.82	-47.0	-48.9	17.8	0.00e+00	0	43	0	217055232	65	4517
2026-01-23 07:02:20.41	81.23	12.90	-47.2	-49.3	17.5	0.00e+00	0	43	0	219152384	65	4715
2026-01-23 07:02:21.42	81.12	12.98	-47.3	-49.4	17.3	0.00e+00	0	43	0	221249536	65	4797
2026-01-23 07:02:22.43	81.00	13.06	-47.2	-49.2	17.5	0.00e+00	0	43	0	223346688	65	4677
2026-01-23 07:02:23.44	80.89	13.14	-47.1	-49.1	17.6	0.00e+00	0	43	0	225443840	65	4614
2026-01-23 07:02:24.45	80.77	13.22	-46.8	-48.7	18.0	0.00e+00	0	43	0	226492416	65	4415
2026-01-23 07:02:25.45	80.66	13.30	-46.6	-48.4	18.3	0.00e+00	0	43	0	228589568	65	4267
2026-01-23 07:02:26.46	80.54	13.39	-46.3	-48.0	18.7	0.00e+00	0	43	0	230686720	64	4315
2026-01-23 07:02:27.47	80.42	13.47	-46.5	-48.3	18.4	0.00e+00	0	43	0	232783872	64	4446
2026-01-23 07:02:28.48	80.30	13.55	-46.6	-48.4	18.4	0.00e+00	0	43	0	234881024	64	4494
2026-01-23 07:02:29.49	80.18	13.63	-46.6	-48.4	18.4	0.00e+00	0	43	0	236978176	64	4517
2026-01-23 07:02:30.49	80.06	13.72	-46.6	-48.3	18.4	0.00e+00	0	43	0	238026752	64	4493
2026-01-23 07:02:31.50	79.94	13.80	-46.5	-48.3	18.4	0.00e+00	0	43	0	240123904	64	4448
2026-01-23 07:02:32.51	79.82	13.88	-46.5	-48.2	18.5	0.00e+00	0	43	0	242221056	64	4402
2026-01-23 07:02:33.52	79.70	13.97	-46.4	-48.1	18.6	0.00e+00	0	43	0	244318208	64	4377
2026-01-23 07:02:34.53	79.58	14.05	-46.1	-47.7	19.0	0.00e+00	0	43	0	245366784	64	4175
2026-01-23 07:02:35.54	79.46	14.13	-46.6	-48.3	18.5	0.00e+00	0	43	0	247463936	64	4443
2026-01-23 07:02:36.54	79.33	14.22	-46.2	-47.8	18.8	0.00e+00	0	43	0	249561088	64	4241
2026-01-23 07:02:37.55	79.21	14.30	-46.3	-48.0	18.7	0.00e+00	0	43	0	251658240	64	4320
2026-01-23 07:02:38.56	79.08	14.38	-46.8	-48.7	18.1	0.00e+00	0	43	0	253755392	64	4671
2026-01-23 07:02:39.57	78.96	14.47	-46.8	-48.5	18.2	0.00e+00	0	43	0	255852544	64	4598
2026-01-23 07:02:40.58	78.83	14.55	-46.9	-48.7	18.1	0.00e+00	0	43	0	256901120	64	4686
2026-01-23 07:02:41.59	78.70	14.64	-47.0	-48.8	18.0	0.00e+00	0	43	0	258998272	64	4758
2026-01-23 07:02:42.60	78.58	14.72	-47.1	-49.0	17.9	0.00e+00	0	43	0	261095424	64	4846
2026-01-23 07:02:43.60	78.45	14.81	-47.0	-48.9	18.0	0.00e+00	0	43	0	263192576	64	4768
2026-01-23 07:02:44.61	78.32	14.89	-47.0	-48.9	17.9	0.00e+00	0	43	0	265289728	64	4792
2026-01-23 07:02:45.62	78.19	14.98	-47.0	-48.9	18.0	0.00e+00	0	43	0	266338304	64	4775
2026-01-23 07:02:46.63	78.06	15.06	-47.1	-49.0	17.9	0.00e+00	0	43	0	268435456	64	4815
2026-01-23 07:02:47.64	77.92	15.15	-46.8	-48.6	18.2	0.00e+00	0	43	0	270532608	64	4602
2026-01-23 07:02:48.65	77.79	15.23	-47.0	-48.9	18.0	0.00e+00	0	43	0	272629760	64	4775
2026-01-23 07:02:49.66	77.66	15.32	-47.0	-48.9	17.9	0.00e+00	0	43	0	273678336	64	4809
2026-01-23 07:02:50.67	77.52	15.40	-47.0	-48.9	18.0	0.00e+00	0	43	0	275775488	64	4780
2026-01-23 07:02:51.68	77.39	15.49	-47.0	-48.9	17.9	0.00e+00	0	43	0	277872640	64	4810
2026-01-23 07:02:52.68	77.25	15.58	-46.9	-48.7	18.2	0.00e+00	0	43	0	279969792	64	4668
2026-01-23 07:02:53.69	77.12	15.66	-46.9	-48.7	18.1	0.00e+00	0	43	0	282066944	64	4681
2026-01-23 07:02:54.70	76.98	15.75	-46.8	-48.6	18.2	0.00e+00	0	43	0	284164096	64	4646
2026-01-23 07:02:55.71	76.84	15.83	-46.4	-48.0	18.7	0.00e+00	0	43	0	285212672	64	4321
2026-01-23 07:02:56.71	76.70	15.92	-46.7	-48.5	18.3	0.00e+00	0	43	0	287309824	64	4578
2026-01-23 07:02:57.72	76.56	16.01	-46.7	-48.4	18.5	0.00e+00	0	43	0	289406976	64	4544
2026-01-23 07:02:58.73	76.42	16.09	-46.4	-48.1	18.7	0.00e+00	0	43	0	291504128	64	4369
2026-01-23 07:02:59.74	76.28	16.18	-46.5	-48.2	18.6	0.00e+00	0	43	0	293601280	64	4420
2026-01-23 07:03:00.75	76.14	16.27	-46.5	-48.3	18.6	0.00e+00	0	43	0	294649856	64	4442
2026-01-23 07:03:01.76	76.00	16.36	-46.5	-48.2	18.7	0.00e+00	0	43	0	296747008	64	4408
2026-01-23 07:03:02.76	75.85	16.44	-46.5	-48.2	18.7	0.00e+00	0	43	0	298844160	64	4421
2026-01-23 07:03:03.77	75.71	16.53	-46.1	-47.6	19.3	0.00e+00	0	43	0	300941312	63	4381
2026-01-23 07:03:04.78	75.56	16.62	-46.0	-47.6	19.3	0.00e+00	0	43	0	303038464	63	4378
2026-01-23 07:03:05.79	75.41	16.71	-46.0	-47.5	19.4	0.00e+00	0	43	0	304087040	63	4335
2026-01-23 07:03:06.79	75.27	16.79	-45.9	-47.4	19.5	0.00e+00	0	43	0	306184192	63	4271
2026-01-23 07:03:07.80	75.12	16.88	-45.9	-47.4	19.6	0.00e+00	0	43	0	308281344	63	4254
2026-01-23 07:03:08.81	74.97	16.97	-45.7	-47.2	19.7	0.00e+00	0	43	0	310378496	63	4178
2026-01-23 07:03:09.82	74.82	17.06	-45.8	-47.3	19.7	0.00e+00	0	43	0	312475648	63	4202
2026-01-23 07:03:10.83	74.67	17.15	-45.7	-47.2	19.7	0.00e+00	0	43	0	313524224	63	4156
2026-01-23 07:03:11.84	74.52	17.23	-45.6	-47.0	20.0	0.00e+00	0	43	0	315621376	63	4061
2026-01-23 07:03:12.84	74.37	17.32	-45.7	-47.2	19.7	0.00e+00	0	43	0	317718528	63	4153
2026-01-23 07:03:13.85	74.21	17.41	-45.7	-47.1	19.8	0.00e+00	0	43	0	319815680	63	4126
2026-01-23 07:03:14.86	74.06	17.50	-45.7	-47.1	19.8	0.00e+00	0	43	0	321912832	63	4123
2026-01-23 07:03:15.87	73.90	17.59	-45.9	-47.4	19.6	0.00e+00	0	43	0	322961408	63	4263
2026-01-23 07:03:16.87	73.75	17.68	-45.9	-47.4	19.5	0.00e+00	0	43	0	325058560	63	4286
2026-01-23 07:03:17.88	73.59	17.77	-46.0	-47.6	19.4	0.00e+00	0	43	0	327155712	63	4341
2026-01-23 07:03:18.89	73.43	17.86	-46.1	-47.6	19.4	0.00e+00	0	43	0	329252864	63	4390
2026-01-23 07:03:19.90	73.27	17.94	-46.0	-47.5	19.5	0.00e+00	0	43	0	331350016	63	4321
2026-01-23 07:03:20.91	73.11	18.03	-46.1	-47.6	19.4	0.00e+00	0	43	0	332398592	63	4352
2026-01-23 07:03:21.91	72.95	18.12	-46.2	-47.8	19.3	0.00e+00	0	43	0	334495744	63	4447
2026-01-23 07:03:22.92	72.79	18.21	-46.2	-47.8	19.3	0.00e+00	0	43	0	336592896	63	4443
2026-01-23 07:03:23.93	72.62	18.30	-46.3	-47.9	19.1	0.00e+00	0	43	0	338690048	63	4520
2026-01-23 07:03:24.94	72.46	18.39	-46.4	-48.0	19.0	0.00e+00	0	43	0	340787200	63	4586
2026-01-23 07:03:25.95	72.29	18.48	-46.2	-47.8	19.2	0.00e+00	0	43	0	341835776	63	4484
2026-01-23 07:03:26.96	72.13	18.57	-46.4	-48.0	19.0	0.00e+00	0	43	0	343932928	63	4564
2026-01-23 07:03:27.96	71.96	18.66	-46.3	-48.0	19.1	0.00e+00	0	43	0	346030080	63	4558
2026-01-23 07:03:28.97	71.79	18.75	-46.2	-47.8	19.3	0.00e+00	0	43	0	348127232	63	4469
2026-01-23 07:03:29.98	71.62	18.84	-46.1	-47.6	19.4	0.00e+00	0	43	0	350224384	63	4368
2026-01-23 07:03:30.99	71.45	18.93	-45.9	-47.4	19.6	0.00e+00	0	43	0	352321536	63	4291
2026-01-23 07:03:32.00	71.28	19.02	-45.7	-47.1	19.8	0.00e+00	0	43	0	353370112	63	4144
2026-01-23 07:03:33.00	71.11	19.11	-45.8	-47.2	19.8	0.00e+00	0	43	0	355467264	63	4170
2026-01-23 07:03:34.01	70.94	19.20	-45.8	-47.2	19.7	0.00e+00	0	43	0	357564416	63	4192
2026-01-23 07:03:35.02	70.76	19.29	-46.1	-47.6	19.4	0.00e+00	0	43	0	359661568	63	4383
2026-01-23 07:03:36.03	70.59	19.38	-46.1	-47.6	19.4	0.00e+00	0	43	0	360710144	63	4370
2026-01-23 07:03:37.04	70.41	19.47	-46.1	-47.6	19.4	0.00e+00	0	43	0	362807296	63	4373
2026-01-23 07:03:38.05	70.23	19.56	-45.7	-47.1	19.9	0.00e+00	0	43	0	364904448	63	4134
2026-01-23 07:03:39.05	70.06	19.65	-45.7	-47.1	19.9	0.00e+00	0	43	0	367001600	63	4140
2026-01-23 07:03:40.06	69.88	19.74	-45.8	-47.3	19.7	0.00e+00	0	43	0	369098752	63	4223
2026-01-23 07:03:41.07	69.70	19.83	-46.0	-47.5	19.5	0.00e+00	0	43	0	371195904	63	4331
2026-01-23 07:03:42.08	69.51	19.92	-46.3	-47.9	19.2	0.00e+00	0	43	0	372244480	63	4524
2026-01-23 07:03:43.09	69.33	20.02	-46.6	-48.2	18.9	0.00e+00	0	43	0	374341632	63	4694
2026-01-23 07:03:44.10	69.15	20.11	-46.5	-48.1	19.0	0.00e+00	0	43	0	376438784	63	4615
2026-01-23 07:03:45.10	68.96	20.20	-46.6	-48.3	18.9	0.00e+00	0	43	0	378535936	63	4743
2026-01-23 07:03:46.11	68.78	20.29	-46.6	-48.3	18.8	0.00e+00	0	43	0	380633088	64	4454
2026-01-23 07:03:47.12	68.59	20.38	-46.6	-48.3	18.8	0.00e+00	0	43	0	381681664	64	4448
2026-01-23 07:03:48.13	68.40	20.47	-46.5	-48.1	18.9	0.00e+00	0	43	0	383778816	64	4376
2026-01-23 07:03:49.14	68.21	20.56	-46.4	-48.0	19.0	0.00e+00	0	43	0	385875968	64	4325
2026-01-23 07:03:50.14	68.02	20.65	-46.4	-48.0	19.1	0.00e+00	0	43	0	387973120	64	4307
2026-01-23 07:03:51.15	67.83	20.74	-46.3	-47.8	19.2	0.00e+00	0	43	0	389021696	64	4230
2026-01-23 07:03:52.16	67.64	20.83	-46.2	-47.8	19.3	0.00e+00	0	43	0	391118848	63	4463
2026-01-23 07:03:53.17	67.44	20.92	-46.4	-47.9	19.2	0.00e+00	0	43	0	393216000	63	4543
2026-01-23 07:03:54.17	67.25	21.01	-46.3	-47.8	19.3	0.00e+00	0	43	0	395313152	63	4486
2026-01-23 07:03:55.18	67.05	21.10	-46.6	-48.3	18.9	0.00e+00	0	43	0	397410304	63	4721
2026-01-23 07:03:56.19	66.85	21.19	-46.6	-48.2	19.0	0.00e+00	0	43	0	399507456	63	4685
2026-01-23 07:03:57.20	66.65	21.28	-46.7	-48.4	18.7	0.00e+00	0	43	0	400556032	64	4529
2026-01-23 07:03:58.21	66.45	21.37	-46.7	-48.4	18.7	0.00e+00	0	43	0	402653184	64	4508
2026-01-23 07:03:59.21	66.26	21.46	-46.8	-48.5	18.7	0.00e+00	0	43	0	404750336	64	4569
2026-01-23 07:04:00.22	66.05	21.55	-46.6	-48.3	18.9	0.00e+00	0	43	0	406847488	64	4448
2026-01-23 07:04:01.23	65.85	21.64	-46.4	-47.9	19.1	0.00e+00	0	44	0	408944640	64	4285
2026-01-23 07:04:02.24	65.64	21.73	-46.1	-47.7	19.4	0.00e+00	0	43	0	409993216	64	4155
2026-01-23 07:04:03.25	65.44	21.82	-46.0	-47.5	19.6	0.00e+00	0	43	0	412090368	64	4074
2026-01-23 07:04:04.25	65.23	21.91	-45.9	-47.3	19.8	0.00e+00	0	43	0	414187520	63	4241
2026-01-23 07:04:05.26	65.02	22.00	-45.9	-47.4	19.7	0.00e+00	0	43	0	416284672	63	4271
2026-01-23 07:04:06.27	64.81	22.09	-45.8	-47.3	19.9	0.00e+00	0	43	0	418381824	63	4197
2026-01-23 07:04:07.28	64.60	22.18	-46.0	-47.5	19.6	0.00e+00	0	43	0	419430400	63	4325
2026-01-23 07:04:08.29	64.39	22.27	-46.0	-47.5	19.6	0.00e+00	0	43	0	421527552	63	4336
2026-01-23 07:04:09.29	64.18	22.36	-46.0	-47.5	19.7	0.00e+00	0	43	0	423624704	63	4296
2026-01-23 07:04:10.30	63.96	22.45	-46.4	-48.0	19.3	0.00e+00	0	43	0	425721856	63	4547
2026-01-23 07:04:11.31	63.75	22.54	-46.3	-47.8	19.5	0.00e+00	0	43	0	427819008	63	4461
2026-01-23 07:04:12.32	63.53	22.63	-46.1	-47.6	19.6	0.00e+00	0	43	0	428867584	63	4367
2026-01-23 07:04:13.33	63.31	22.72	-46.0	-47.4	19.8	0.00e+00	0	43	0	430964736	63	4264
2026-01-23 07:04:14.33	63.09	22.81	-46.1	-47.6	19.5	0.00e+00	0	43	0	433061888	63	4388
2026-01-23 07:04:15.34	62.87	22.89	-45.9	-47.3	19.9	0.00e+00	0	43	0	435159040	63	4214
2026-01-23 07:04:16.35	62.65	22.98	-45.4	-46.8	20.3	0.00e+00	0	43	0	437256192	62	4213
2026-01-23 07:04:17.36	62.43	23.07	-45.5	-46.8	20.3	0.00e+00	0	43	0	438304768	62	4241
2026-01-23 07:04:18.37	62.20	23.16	-45.0	-46.2	20.8	0.00e+00	0	43	0	440401920	61	4190
2026-01-23 07:04:19.37	61.98	23.25	-45.0	-46.2	20.8	0.00e+00	0	43	0	442499072	61	4177
2026-01-23 07:04:20.38	61.75	23.33	-44.7	-45.9	21.1	0.00e+00	0	43	0	444596224	61	4010
2026-01-23 07:04:21.39	61.52	23.42	-44.6	-45.7	21.3	0.00e+00	0	43	0	446693376	60	4187
2026-01-23 07:04:22.40	61.29	23.51	-44.4	-45.5	21.5	0.00e+00	0	43	0	447741952	60	4092
2026-01-23 07:04:23.41	61.06	23.60	-44.4	-45.6	21.4	0.00e+00	0	43	0	449839104	60	4113
2026-01-23 07:04:24.41	60.83	23.68	-44.5	-45.6	21.3	0.00e+00	0	43	0	451936256	60	4144
2026-01-23 07:04:25.42	60.60	23.77	-44.7	-45.9	21.1	0.00e+00	0	43	0	454033408	60	4272
2026-01-23 07:04:26.43	60.36	23.86	-44.9	-46.3	20.8	0.00e+00	0	43	0	456130560	60	4442
2026-01-23 07:04:27.44	60.13	23.94	-45.0	-46.3	20.9	0.00e+00	0	43	0	457179136	61	4199
2026-01-23 07:04:28.45	59.89	24.03	-45.1	-46.5	20.6	0.00e+00	0	43	0	459276288	61	4304
2026-01-23 07:04:29.46	59.65	24.12	-45.2	-46.6	20.5	0.00e+00	0	43	0	461373440	61	4369
2026-01-23 07:04:30.46	59.41	24.20	-45.1	-46.4	20.6	0.00e+00	0	43	0	463470592	61	4284
2026-01-23 07:04:31.47	59.17	24.29	-45.3	-46.7	20.5	0.00e+00	0	43	0	465567744	61	4398
2026-01-23 07:04:32.48	58.93	24.37	-45.0	-46.3	20.7	0.00e+00	0	43	0	466616320	61	4228
2026-01-23 07:04:33.49	58.68	24.46	-45.0	-46.3	20.7	0.00e+00	0	43	0	468713472	61	4232
2026-01-23 07:04:34.49	58.44	24.54	-45.0	-46.3	20.7	0.00e+00	0	43	0	470810624	61	4239
2026-01-23 07:04:35.50	58.19	24.62	-45.3	-46.6	20.5	0.00e+00	0	43	0	472907776	61	4371
2026-01-23 07:04:36.51	57.94	24.71	-45.1	-46.4	20.6	0.00e+00	0	43	0	475004928	61	4290
2026-01-23 07:04:37.52	57.69	24.79	-44.8	-46.1	21.0	0.00e+00	0	43	0	476053504	61	4107
2026-01-23 07:04:38.53	57.44	24.87	-44.9	-46.1	20.9	0.00e+00	0	43	0	478150656	61	4135
2026-01-23 07:04:39.54	57.19	24.96	-44.9	-46.2	20.8	0.00e+00	0	43	0	480247808	61	4153
2026-01-23 07:04:40.54	56.94	25.04	-45.1	-46.4	20.6	0.00e+00	0	43	0	482344960	61	4279
2026-01-23 07:04:41.55	56.68	25.12	-45.1	-46.4	20.6	0.00e+00	0	43	0	484442112	61	4261
2026-01-23 07:04:42.56	56.43	25.20	-45.1	-46.5	20.5	0.00e+00	0	43	0	485490688	61	4327
2026-01-23 07:04:43.57	56.17	25.28	-44.9	-46.1	20.9	0.00e+00	0	43	0	487587840	61	4143
2026-01-23 07:04:44.57	55.91	25.36	-44.7	-45.9	21.0	0.00e+00	0	43	0	489684992	61	4048
2026-01-23 07:04:45.58	55.65	25.44	-44.9	-46.2	20.8	0.00e+00	0	43	0	491782144	61	4170
2026-01-23 07:04:46.59	55.39	25.52	-44.9	-46.1	20.9	0.00e+00	0	43	0	493879296	61	4126
2026-01-23 07:04:47.60	55.13	25.60	-45.1	-46.4	20.8	0.00e+00	0	43	0	494927872	61	4251
2026-01-23 07:04:48.61	54.86	25.68	-44.8	-46.0	21.0	0.00e+00	0	43	0	497025024	61	4071
2026-01-23 07:04:49.61	54.60	25.76	-44.4	-45.6	21.4	0.00e+00	0	43	0	499122176	60	4122
2026-01-23 07:04:50.62	54.33	25.84	-44.4	-45.5	21.5	0.00e+00	0	43	0	501219328	60	4098
2026-01-23 07:04:51.63	54.06	25.92	-44.6	-45.8	21.2	0.00e+00	0	43	0	503316480	60	4230
2026-01-23 07:04:52.64	53.79	25.99	-44.8	-46.0	21.1	0.00e+00	0	43	0	504365056	60	4296
2026-01-23 07:04:53.65	53.52	26.07	-45.0	-46.3	20.8	0.00e+00	0	43	0	506462208	60	4474
2026-01-23 07:04:54.66	53.25	26.15	-45.4	-46.8	20.3	0.00e+00	0	43	0	508559360	61	4461
2026-01-23 07:04:55.66	52.98	26.22	-45.6	-47.0	20.2	0.00e+00	0	43	0	510656512	62	4294
2026-01-23 07:04:56.67	52.70	26.30	-46.0	-47.5	19.7	0.00e+00	0	43	0	512753664	62	4594
2026-01-23 07:04:57.68	52.43	26.37	-45.9	-47.3	19.9	0.00e+00	0	43	0	514850816	62	4487
2026-01-23 07:04:58.69	52.15	26.45	-45.8	-47.2	20.0	0.00e+00	0	43	0	515899392	62	4396
2026-01-23 07:04:59.69	51.87	26.52	-45.3	-46.6	20.6	0.00e+00	0	43	0	517996544	62	4110
2026-01-23 07:05:00.70	51.59	26.60	-45.2	-46.5	20.6	0.00e+00	0	43	0	520093696	62	4082
2026-01-23 07:05:01.71	51.31	26.67	-45.4	-46.8	20.4	0.00e+00	0	43	0	522190848	62	4197
2026-01-23 07:05:02.72	51.03	26.74	-45.5	-46.8	20.3	0.00e+00	0	43	0	523239424	62	4239
2026-01-23 07:05:03.73	50.74	26.81	-45.5	-46.8	20.3	0.00e+00	0	43	0	525336576	62	4215
2026-01-23 07:05:04.74	50.46	26.88	-45.4	-46.7	20.4	0.00e+00	0	43	0	527433728	62	4190
2026-01-23 07:05:05.74	50.18	26.95	-45.5	-46.9	20.3	0.00e+00	0	43	0	529530880	62	4246
2026-01-23 07:05:06.75	49.89	27.02	-45.5	-46.9	20.3	0.00e+00	0	43	0	531628032	62	4258
2026-01-23 07:05:07.76	49.60	27.09	-45.7	-47.2	20.0	0.00e+00	0	43	0	532676608	62	4404
2026-01-23 07:05:08.77	49.31	27.16	-45.4	-46.8	20.3	0.00e+00	0	43	0	534773760	62	4216
2026-01-23 07:05:09.77	49.02	27.23	-45.1	-46.3	20.8	0.00e+00	0	43	0	536870912	62	4001
2026-01-23 07:05:10.78	48.73	27.29	-45.0	-46.2	20.9	0.00e+00	0	43	0	538968064	61	4190
2026-01-23 07:05:11.79	48.43	27.36	-45.3	-46.6	20.5	0.00e+00	0	43	0	541065216	61	4360
2026-01-23 07:05:12.80	48.14	27.43	-45.4	-46.8	20.4	0.00e+00	0	43	0	543162368	61	4444
2026-01-23 07:05:13.81	47.84	27.49	-45.4	-46.8	20.4	0.00e+00	0	43	0	544210944	61	4459
2026-01-23 07:05:14.82	47.54	27.56	-45.6	-46.9	20.3	0.00e+00	0	43	0	546308096	61	4540
2026-01-23 07:05:15.83	47.24	27.62	-45.9	-47.4	19.8	0.00e+00	0	43	0	548405248	62	4509
2026-01-23 07:05:16.84	46.94	27.68	-46.1	-47.7	19.5	0.00e+00	0	43	0	550502400	63	4401
2026-01-23 07:05:17.84	46.64	27.74	-46.4	-48.0	19.3	0.00e+00	0	43	0	551550976	63	4563
2026-01-23 07:05:18.85	46.34	27.81	-46.1	-47.7	19.6	0.00e+00	0	43	0	553648128	63	4394
2026-01-23 07:05:19.86	46.04	27.87	-45.7	-47.1	20.2	0.00e+00	0	43	0	555745280	63	4112
2026-01-23 07:05:20.87	45.73	27.93	-45.6	-47.0	20.2	0.00e+00	0	43	0	557842432	63	4080
2026-01-23 07:05:21.87	45.43	27.99	-45.7	-47.1	20.1	0.00e+00	0	43	0	559939584	63	4125
2026-01-23 07:05:22.88	45.12	28.04	-45.8	-47.3	20.0	0.00e+00	0	43	0	562036736	63	4198
2026-01-23 07:05:23.89	44.81	28.10	-45.6	-47.0	20.2	0.00e+00	0	43	0	563085312	63	4075
2026-01-23 07:05:24.90	44.50	28.16	-45.1	-46.4	20.7	0.00e+00	0	43	0	565182464	62	4023
2026-01-23 07:05:25.91	44.19	28.21	-44.6	-45.7	21.3	0.00e+00	0	43	0	567279616	61	3958
2026-01-23 07:05:26.92	43.88	28.27	-44.5	-45.7	21.4	0.00e+00	0	43	0	569376768	61	3940
2026-01-23 07:05:27.92	43.57	28.32	-44.9	-46.1	21.0	0.00e+00	0	43	0	571473920	61	4129
2026-01-23 07:05:28.93	43.26	28.38	-45.2	-46.5	20.6	0.00e+00	0	43	0	572522496	61	4321
2026-01-23 07:05:29.94	42.94	28.43	-45.2	-46.6	20.5	0.00e+00	0	43	0	574619648	61	4344
2026-01-23 07:05:30.95	42.63	28.48	-45.1	-46.4	20.6	0.00e+00	0	43	0	576716800	61	4280
2026-01-23 07:05:31.95	42.32	28.53	-45.2	-46.5	20.6	0.00e+00	0	43	0	578813952	61	4312
2026-01-23 07:05:32.96	42.00	28.58	-44.8	-46.0	21.0	0.00e+00	0	43	0	579862528	61	4086
2026-01-23 07:05:33.97	41.68	28.63	-45.1	-46.4	20.8	0.00e+00	0	43	0	581959680	61	4247
2026-01-23 07:05:34.98	41.36	28.68	-45.2	-46.4	20.7	0.00e+00	0	43	0	584056832	61	4286
2026-01-23 07:05:35.99	41.04	28.73	-45.0	-46.3	20.8	0.00e+00	0	43	0	586153984	61	4215
2026-01-23 07:05:36.99	40.72	28.77	-45.1	-46.4	20.8	0.00e+00	0	43	0	588251136	61	4267
2026-01-23 07:05:38.00	40.40	28.82	-45.4	-46.7	20.5	0.00e+00	0	43	0	590348288	61	4431
2026-01-23 07:05:39.01	40.07	28.86	-45.7	-47.1	20.1	0.00e+00	0	43	0	591396864	62	4353
2026-01-23 07:05:40.02	39.75	28.91	-45.7	-47.1	20.1	0.00e+00	0	43	0	593494016	62	4362
2026-01-23 07:05:41.03	39.42	28.95	-45.9	-47.4	19.9	0.00e+00	0	43	0	595591168	62	4495
2026-01-23 07:05:42.03	39.10	28.99	-46.3	-47.8	19.5	0.00e+00	0	43	0	597688320	63	4471
2026-01-23 07:05:43.04	38.77	29.03	-46.9	-48.6	18.7	0.00e+00	0	43	0	599785472	64	4611
2026-01-23 07:05:44.05	38.45	29.07	-47.1	-48.9	18.4	0.00e+00	0	43	0	600834048	64	4786
2026-01-23 07:05:45.06	38.12	29.11	-47.4	-49.3	18.0	0.00e+00	0	43	0	602931200	65	4739
2026-01-23 07:05:46.07	37.79	29.15	-47.2	-49.1	18.2	0.00e+00	0	43	0	605028352	65	4611
2026-01-23 07:05:47.07	37.46	29.18	-47.1	-48.8	18.5	0.00e+00	0	43	0	607125504	65	4470
2026-01-23 07:05:48.08	37.13	29.22	-47.3	-49.1	18.2	0.00e+00	0	43	0	609222656	65	4641
2026-01-23 07:05:49.09	36.80	29.25	-47.2	-49.0	18.3	0.00e+00	0	43	0	610271232	65	4570
2026-01-23 07:05:50.10	36.47	29.29	-47.2	-49.0	18.3	0.00e+00	0	43	0	612368384	65	4549
2026-01-23 07:05:51.11	36.13	29.32	-46.9	-48.7	18.6	0.00e+00	0	43	0	614465536	65	4404
2026-01-23 07:05:52.12	35.80	29.35	-46.9	-48.6	18.7	0.00e+00	0	43	0	616562688	65	4345
2026-01-23 07:05:53.12	35.47	29.38	-46.6	-48.3	19.0	0.00e+00	0	43	0	618659840	65	4197
2026-01-23 07:05:54.13	35.14	29.41	-46.6	-48.2	19.1	0.00e+00	0	43	0	619708416	65	4188
2026-01-23 07:05:55.14	34.80	29.44	-46.3	-47.8	19.4	0.00e+00	0	43	0	621805568	64	4217
2026-01-23 07:05:56.15	34.46	29.47	-46.0	-47.5	19.8	0.00e+00	0	43	0	623902720	63	4302
2026-01-23 07:05:57.16	34.13	29.49	-46.1	-47.5	19.8	0.00e+00	0	43	0	625999872	63	4321
2026-01-23 07:05:58.16	33.79	29.52	-46.4	-47.9	19.3	0.00e+00	0	43	0	628097024	63	4526
2026-01-23 07:05:59.17	33.46	29.54	-46.8	-48.5	18.7	0.00e+00	0	43	0	630194176	64	4588
2026-01-23 07:06:00.18	33.12	29.56	-47.1	-48.9	18.4	0.00e+00	0	43	0	631242752	64	4801
2026-01-23 07:06:01.19	32.78	29.58	-47.3	-49.2	18.1	0.00e+00	0	43	0	633339904	65	4661
2026-01-23 07:06:02.19	32.44	29.60	-47.0	-48.8	18.3	0.00e+00	0	43	0	635437056	65	4488
2026-01-23 07:06:03.20	32.10	29.62	-46.7	-48.4	18.7	0.00e+00	0	43	0	637534208	65	4276
2026-01-23 07:06:04.21	31.76	29.64	-46.7	-48.4	18.8	0.00e+00	0	43	0	638582784	65	4270
2026-01-23 07:06:05.22	31.42	29.66	-46.9	-48.6	18.6	0.00e+00	0	44	0	640679936	65	4389
2026-01-23 07:06:06.23	31.08	29.68	-47.1	-49.0	18.2	0.00e+00	0	43	0	642777088	65	4564
2026-01-23 07:06:07.23	30.75	29.69	-47.4	-49.4	17.8	0.00e+00	0	43	0	644874240	65	4786
2026-01-23 07:06:08.24	30.40	29.71	-47.6	-49.7	17.6	0.00e+00	0	44	0	646971392	65	4931
2026-01-23 07:06:09.25	30.06	29.72	-47.6	-49.6	17.6	0.00e+00	0	43	0	648019968	65	4921
2026-01-23 07:06:10.26	29.72	29.73	-47.5	-49.6	17.7	0.00e+00	0	43	0	650117120	65	4871
2026-01-23 07:06:11.27	29.38	29.74	-46.7	-48.4	18.9	0.00e+00	0	43	0	652214272	65	4244
2026-01-23 07:06:12.27	29.04	29.75	-46.2	-47.8	19.4	0.00e+00	0	43	0	654311424	64	4195
2026-01-23 07:06:13.28	28.70	29.76	-46.0	-47.5	19.7	0.00e+00	0	43	0	656408576	64	4069
2026-01-23 07:06:14.29	28.36	29.76	-45.9	-47.3	19.9	0.00e+00	0	43	0	658505728	63	4228
2026-01-23 07:06:15.30	28.01	29.77	-45.9	-47.3	19.9	0.00e+00	0	43	0	659554304	63	4217
2026-01-23 07:06:16.31	27.67	29.78	-46.3	-47.8	19.4	0.00e+00	0	43	0	661651456	63	4454
2026-01-23 07:06:17.31	27.33	29.78	-46.6	-48.2	19.0	0.00e+00	0	43	0	663748608	64	4401
2026-01-23 07:06:18.32	26.99	29.78	-46.9	-48.6	18.6	0.00e+00	0	43	0	665845760	64	4625
2026-01-23 07:06:19.33	26.65	29.78	-47.0	-48.8	18.5	0.00e+00	0	43	0	666894336	64	4713
2026-01-23 07:06:20.34	26.30	29.78	-47.2	-49.0	18.4	0.00e+00	0	43	0	668991488	64	4818
2026-01-23 07:06:21.35	25.96	29.78	-47.2	-48.9	18.4	0.00e+00	0	43	0	671088640	65	4517
2026-01-23 07:06:22.36	25.62	29.78	-47.1	-48.8	18.4	0.00e+00	0	43	0	673185792	65	4491
2026-01-23 07:06:23.36	25.28	29.78	-47.1	-48.8	18.5	0.00e+00	0	43	0	675282944	65	4478
2026-01-23 07:06:24.37	24.93	29.77	-46.6	-48.1	19.2	0.00e+00	0	43	0	677380096	65	4143
2026-01-23 07:06:25.38	24.59	29.77	-46.1	-47.6	19.6	0.00e+00	0	43	0	678428672	64	4126
2026-01-23 07:06:26.39	24.25	29.76	-46.2	-47.6	19.8	0.00e+00	0	43	0	680525824	63	4367
2026-01-23 07:06:27.40	23.91	29.75	-46.2	-47.7	19.7	0.00e+00	0	44	0	682622976	63	4395
2026-01-23 07:06:28.40	23.57	29.74	-46.5	-48.1	19.3	0.00e+00	0	43	0	684720128	63	4617
2026-01-23 07:06:29.41	23.23	29.73	-46.8	-48.5	18.8	0.00e+00	0	43	0	686817280	64	4582
2026-01-23 07:06:30.42	22.88	29.72	-46.8	-48.5	18.8	0.00e+00	0	44	0	687865856	64	4583
2026-01-23 07:06:31.43	22.54	29.71	-46.6	-48.2	19.1	0.00e+00	0	43	0	689963008	64	4420
2026-01-23 07:06:32.43	22.20	29.70	-46.6	-48.1	19.2	0.00e+00	0	43	0	692060160	64	4380
2026-01-23 07:06:33.44	21.86	29.68	-46.7	-48.3	19.1	0.00e+00	0	43	0	694157312	64	4449
2026-01-23 07:06:34.45	21.52	29.66	-46.3	-47.8	19.6	0.00e+00	0	43	0	695205888	64	4219
2026-01-23 07:06:35.46	21.18	29.65	-46.1	-47.6	19.8	0.00e+00	0	43	0	697303040	63	4348
2026-01-23 07:06:36.47	20.84	29.63	-46.5	-48.1	19.3	0.00e+00	0	43	0	699400192	63	4612
2026-01-23 07:06:37.48	20.50	29.61	-46.6	-48.3	19.0	0.00e+00	0	43	0	701497344	64	4447
2026-01-23 07:06:38.48	20.17	29.59	-46.8	-48.6	18.8	0.00e+00	0	43	0	703594496	64	4599
2026-01-23 07:06:39.49	19.83	29.57	-46.6	-48.2	19.1	0.00e+00	0	43	0	705691648	64	4404
2026-01-23 07:06:40.50	19.49	29.55	-46.3	-47.8	19.5	0.00e+00	0	43	0	706740224	64	4216
2026-01-23 07:06:41.51	19.15	29.52	-46.1	-47.6	19.6	0.00e+00	0	43	0	708837376	64	4132
2026-01-23 07:06:42.52	18.82	29.50	-46.1	-47.7	19.7	0.00e+00	0	43	0	710934528	63	4399
2026-01-23 07:06:43.52	18.48	29.47	-46.0	-47.5	19.8	0.00e+00	0	43	0	713031680	63	4321
2026-01-23 07:06:44.53	18.15	29.45	-45.5	-46.9	20.4	0.00e+00	0	43	0	715128832	63	4031
2026-01-23 07:06:45.54	17.81	29.42	-45.4	-46.8	20.4	0.00e+00	0	43	0	716177408	62	4198
2026-01-23 07:06:46.55	17.48	29.39	-45.6	-46.9	20.3	0.00e+00	0	43	0	718274560	62	4279
2026-01-23 07:06:47.55	17.15	29.36	-45.4	-46.8	20.4	0.00e+00	0	43	0	720371712	62	4208
2026-01-23 07:06:48.56	16.81	29.33	-45.5	-46.8	20.4	0.00e+00	0	43	0	722468864	62	4221
2026-01-23 07:06:49.57	16.48	29.30	-45.1	-46.4	20.7	0.00e+00	0	43	0	724566016	62	4034
2026-01-23 07:06:50.58	16.15	29.26	-44.9	-46.2	21.0	0.00e+00	0	43	0	725614592	61	4155
2026-01-23 07:06:51.59	15.82	29.23	-45.1	-46.4	20.8	0.00e+00	0	43	0	727711744	61	4244
2026-01-23 07:06:52.59	15.49	29.19	-45.2	-46.5	20.7	0.00e+00	0	43	0	729808896	61	4300
2026-01-23 07:06:53.60	15.16	29.16	-45.2	-46.5	20.7	0.00e+00	0	43	0	731906048	61	4310
2026-01-23 07:06:54.61	14.83	29.12	-45.3	-46.7	20.5	0.00e+00	0	43	0	734003200	61	4394
2026-01-23 07:06:55.62	14.50	29.08	-45.5	-46.9	20.4	0.00e+00	0	43	0	735051776	61	4515
2026-01-23 07:06:56.63	14.17	29.04	-46.0	-47.4	19.8	0.00e+00	0	43	0	737148928	62	4544
2026-01-23 07:06:57.63	13.85	29.00	-46.1	-47.6	19.7	0.00e+00	0	43	0	739246080	62	4628
2026-01-23 07:06:58.64	13.52	28.96	-46.1	-47.6	19.7	0.00e+00	0	43	0	741343232	62	4632
2026-01-23 07:06:59.65	13.20	28.92	-46.2	-47.6	19.7	0.00e+00	0	43	0	743440384	63	4383
2026-01-23 07:07:00.66	12.87	28.88	-46.1	-47.5	19.9	0.00e+00	0	43	0	744488960	63	4301
2026-01-23 07:07:01.67	12.55	28.83	-45.8	-47.2	20.2	0.00e+00	0	43	0	746586112	63	4163
2026-01-23 07:07:02.67	12.23	28.79	-45.7	-47.0	20.4	0.00e+00	0	43	0	748683264	63	4069
2026-01-23 07:07:03.68	11.91	28.74	-45.7	-47.0	20.3	0.00e+00	0	43	0	750780416	62	4322
2026-01-23 07:07:04.69	11.59	28.69	-45.8	-47.1	20.2	0.00e+00	0	43	0	752877568	62	4372
2026-01-23 07:07:05.69	11.27	28.65	-46.2	-47.6	19.8	0.00e+00	0	43	0	753926144	62	4620
2026-01-23 07:07:06.70	10.95	28.60	-46.4	-47.8	19.6	0.00e+00	0	43	0	756023296	63	4490
2026-01-23 07:07:07.71	10.64	28.55	-46.1	-47.6	19.8	0.00e+00	0	43	0	758120448	63	4350
2026-01-23 07:07:08.72	10.32	28.50	-45.9	-47.3	20.1	0.00e+00	0	43	0	760217600	63	4196
2026-01-23 07:07:09.73	10.00	28.45	-45.9	-47.2	20.2	0.00e+00	0	43	0	762314752	63	4171
2026-01-23 07:07:10.73	9.69	28.39	-45.9	-47.3	20.1	0.00e+00	0	43	0	763363328	63	4226
2026-01-23 07:07:11.74	9.38	28.34	-46.2	-47.6	19.8	0.00e+00	0	43	0	765460480	63	4365
2026-01-23 07:07:12.75	9.07	28.29	-46.3	-47.8	19.6	0.00e+00	0	43	0	767557632	63	4444
2026-01-23 07:07:13.76	8.75	28.23	-46.4	-47.8	19.6	0.00e+00	0	43	0	769654784	63	4483
2026-01-23 07:07:14.77	8.44	28.18	-46.5	-48.0	19.5	0.00e+00	0	43	0	771751936	63	4559
2026-01-23 07:07:15.77	8.14	28.12	-46.3	-47.7	19.7	0.00e+00	0	43	0	772800512	63	4414
2026-01-23 07:07:16.78	7.83	28.06	-46.2	-47.6	19.8	0.00e+00	0	43	0	774897664	63	4374
2026-01-23 07:07:17.79	7.52	28.00	-46.2	-47.7	19.7	0.00e+00	0	43	0	776994816	63	4401
2026-01-23 07:07:18.80	7.22	27.95	-46.7	-48.3	19.0	0.00e+00	0	43	0	779091968	64	4486
2026-01-23 07:07:19.81	6.91	27.89	-47.4	-49.2	18.2	0.00e+00	0	43	0	781189120	65	4660
2026-01-23 07:07:20.81	6.61	27.83	-47.9	-50.0	17.4	0.00e+00	0	43	0	782237696	66	4828
2026-01-23 07:07:21.82	6.31	27.77	-48.0	-50.1	17.3	0.00e+00	0	43	0	784334848	66	4897
2026-01-23 07:07:22.83	6.01	27.70	-48.2	-50.3	17.2	0.00e+00	0	43	0	786432000	67	4709
2026-01-23 07:07:23.84	5.71	27.64	-48.2	-50.3	17.0	0.00e+00	0	43	0	788529152	67	4759
2026-01-23 07:07:24.85	5.41	27.58	-48.6	-50.9	16.7	0.00e+00	0	43	0	790626304	67	5073
2026-01-23 07:07:25.85	5.11	27.51	-48.6	-51.0	16.4	0.00e+00	0	43	0	791674880	67	5140
2026-01-23 07:07:26.86	4.82	27.45	-48.5	-50.8	16.6	0.00e+00	0	43	0	793772032	67	4997
2026-01-23 07:07:27.87	4.52	27.38	-48.0	-50.0	17.3	0.00e+00	0	43	0	795869184	67	4592
2026-01-23 07:07:28.88	4.23	27.32	-48.0	-50.1	17.3	0.00e+00	0	43	0	797966336	67	4625
2026-01-23 07:07:29.89	3.93	27.25	-47.9	-50.1	17.3	0.00e+00	0	43	0	800063488	67	4606
2026-01-23 07:07:30.89	3.65	27.18	-47.5	-49.5	17.8	0.00e+00	0	43	0	801112064	67	4302
2026-01-23 07:07:31.90	3.35	27.11	-47.1	-48.9	18.3	0.00e+00	0	43	0	803209216	66	4253
2026-01-23 07:07:32.91	3.07	27.05	-46.5	-48.1	19.1	0.00e+00	0	43	0	805306368	64	4376
2026-01-23 07:07:33.92	2.78	26.98	-46.1	-47.6	19.7	0.00e+00	0	43	0	807403520	63	4369
2026-01-23 07:07:34.93	2.49	26.91	-45.8	-47.3	20.0	0.00e+00	0	43	0	809500672	63	4195
2026-01-23 07:07:35.94	2.21	26.84	-45.4	-46.7	20.5	0.00e+00	0	43	0	810549248	62	4151
2026-01-23 07:07:36.94	1.92	26.77	-45.0	-46.2	20.9	0.00e+00	0	43	0	812646400	62	3956
2026-01-23 07:07:37.95	1.64	26.69	-44.8	-46.0	21.1	0.00e+00	0	43	0	814743552	61	4058
2026-01-23 07:07:38.96	1.36	26.62	-44.8	-46.0	21.2	0.00e+00	0	43	0	816840704	61	4057
2026-01-23 07:07:39.97	1.08	26.55	-45.2	-46.5	20.7	0.00e+00	0	43	0	818937856	61	4295
2026-01-23 07:07:40.97	0.80	26.47	-45.1	-46.3	20.8	0.00e+00	0	43	0	821035008	61	4230
2026-01-23 07:07:41.98	0.53	26.40	-45.4	-46.8	20.4	0.00e+00	0	43	0	822083584	61	4445
2026-01-23 07:07:42.99	0.25	26.33	-45.2	-46.5	20.6	0.00e+00	0	43	0	824180736	61	4333
2026-01-23 07:07:44.00	359.98	26.25	-45.4	-46.7	20.4	0.00e+00	0	43	0	826277888	61	4433
2026-01-23 07:07:45.00	359.70	26.18	-45.5	-46.8	20.4	0.00e+00	0	43	0	828375040	61	4474
2026-01-23 07:07:46.01	359.43	26.10	-45.9	-47.4	19.8	0.00e+00	0	43	0	829423616	62	4528
2026-01-23 07:07:47.02	359.16	26.02	-46.5	-48.1	19.2	0.00e+00	0	43	0	831520768	63	4634
2026-01-23 07:07:48.03	358.89	25.95	-46.5	-48.1	19.2	0.00e+00	0	43	0	833617920	63	4640
2026-01-23 07:07:49.04	358.62	25.87	-46.3	-47.9	19.4	0.00e+00	0	43	0	835715072	63	4509
2026-01-23 07:07:50.05	358.36	25.79	-46.5	-48.2	19.1	0.00e+00	0	43	0	837812224	63	4675
2026-01-23 07:07:51.05	358.09	25.71	-46.7	-48.4	19.0	0.00e+00	0	43	0	838860800	63	4772
2026-01-23 07:07:52.06	357.83	25.63	-46.8	-48.6	18.7	0.00e+00	0	43	0	840957952	64	4623
2026-01-23 07:07:53.07	357.57	25.55	-47.0	-48.9	18.4	0.00e+00	0	43	0	843055104	64	4761
2026-01-23 07:07:54.07	357.31	25.47	-47.0	-48.8	18.5	0.00e+00	0	43	0	845152256	64	4737
2026-01-23 07:07:55.08	357.05	25.39	-47.5	-49.4	17.9	0.00e+00	0	43	0	847249408	65	4808
2026-01-23 07:07:56.09	356.79	25.31	-47.2	-49.1	18.2	0.00e+00	0	43	0	849346560	65	4619
2026-01-23 07:07:57.10	356.53	25.23	-47.0	-48.7	18.6	0.00e+00	0	43	0	850395136	65	4410
2026-01-23 07:07:58.11	356.27	25.15	-46.5	-48.1	19.1	0.00e+00	0	43	0	852492288	65	4106
2026-01-23 07:07:59.12	356.02	25.07	-46.1	-47.5	19.7	0.00e+00	0	43	0	854589440	64	4084
2026-01-23 07:08:00.13	355.76	24.99	-45.5	-46.8	20.4	0.00e+00	0	43	0	856686592	63	3975
2026-01-23 07:08:01.13	355.51	24.91	-45.4	-46.8	20.4	0.00e+00	0	43	0	857735168	62	4195
2026-01-23 07:08:02.14	355.26	24.82	-45.2	-46.5	20.6	0.00e+00	0	43	0	859832320	62	4090
2026-01-23 07:08:03.15	355.01	24.74	-45.3	-46.6	20.6	0.00e+00	0	43	0	861929472	62	4123
2026-01-23 07:08:04.16	354.76	24.66	-45.0	-46.3	20.8	0.00e+00	0	43	0	864026624	62	3977
2026-01-23 07:08:05.17	354.52	24.57	-44.9	-46.1	21.0	0.00e+00	0	43	0	866123776	61	4122
2026-01-23 07:08:06.17	354.27	24.49	-44.7	-45.9	21.0	0.00e+00	0	43	0	868220928	61	4026
2026-01-23 07:08:07.18	354.03	24.40	-44.5	-45.7	21.3	0.00e+00	0	43	0	869269504	61	3915
2026-01-23 07:08:08.19	353.79	24.32	-44.6	-45.7	21.3	0.00e+00	0	43	0	871366656	60	4189
2026-01-23 07:08:09.20	353.55	24.23	-44.7	-45.9	21.1	0.00e+00	0	43	0	873463808	60	4280
2026-01-23 07:08:10.21	353.31	24.15	-44.8	-46.0	21.0	0.00e+00	0	43	0	875560960	60	4322
2026-01-23 07:08:11.21	353.07	24.06	-44.6	-45.8	21.2	0.00e+00	0	43	0	877658112	60	4235
2026-01-23 07:08:12.22	352.83	23.98	-44.5	-45.7	21.2	0.00e+00	0	43	0	878706688	60	4179
2026-01-23 07:08:13.23	352.59	23.89	-44.3	-45.5	21.5	0.00e+00	0	43	0	880803840	60	4074
2026-01-23 07:08:14.24	352.36	23.81	-44.0	-45.1	21.8	0.00e+00	0	43	0	882900992	60	3912
2026-01-23 07:08:15.24	352.13	23.72	-44.2	-45.3	21.9	0.00e+00	0	43	0	884998144	59	4220
2026-01-23 07:08:16.25	351.89	23.63	-44.3	-45.4	21.8	0.00e+00	0	43	0	886046720	59	4269
2026-01-23 07:08:17.26	351.66	23.55	-44.4	-45.5	21.7	0.00e+00	0	43	0	888143872	59	4316
2026-01-23 07:08:18.27	351.43	23.46	-44.4	-45.6	21.4	0.00e+00	0	43	0	890241024	60	4112
2026-01-23 07:08:19.27	351.21	23.37	-44.6	-45.8	21.2	0.00e+00	0	43	0	892338176	60	4221
2026-01-23 07:08:20.28	350.98	23.28	-44.7	-46.0	21.1	0.00e+00	0	43	0	894435328	60	4297
2026-01-23 07:08:21.29	350.75	23.20	-44.8	-46.0	20.9	0.00e+00	0	43	0	896532480	60	4316
2026-01-23 07:08:22.30	350.53	23.11	-44.9	-46.2	20.8	0.00e+00	0	43	0	897581056	60	4412
2026-01-23 07:08:23.31	350.31	23.02	-45.0	-46.2	20.8	0.00e+00	0	43	0	899678208	60	4432
2026-01-23 07:08:24.31	350.09	22.93	-44.9	-46.1	20.8	0.00e+00	0	43	0	901775360	60	4387
2026-01-23 07:08:25.32	349.86	22.84	-44.9	-46.2	20.8	0.00e+00	0	43	0	903872512	60	4411
2026-01-23 07:08:26.33	349.65	22.76	-44.9	-46.2	20.8	0.00e+00	0	43	0	905969664	60	4423
2026-01-23 07:08:27.34	349.43	22.67	-44.9	-46.2	20.8	0.00e+00	0	43	0	907018240	60	4409
2026-01-23 07:08:28.35	349.21	22.58	-44.9	-46.2	20.9	0.00e+00	0	43	0	909115392	60	4396
2026-01-23 07:08:29.36	348.99	22.49	-44.7	-45.9	21.1	0.00e+00	0	43	0	911212544	60	4288
2026-01-23 07:08:30.36	348.78	22.40	-44.5	-45.7	21.3	0.00e+00	0	43	0	913309696	60	4187
2026-01-23 07:08:31.37	348.57	22.31	-44.3	-45.5	21.5	0.00e+00	0	43	0	915406848	60	4075
2026-01-23 07:08:32.38	348.36	22.22	-44.1	-45.2	21.7	0.00e+00	0	43	0	916455424	60	3930
2026-01-23 07:08:33.39	348.14	22.13	-44.2	-45.3	21.9	0.00e+00	0	43	0	918552576	59	4207
2026-01-23 07:08:34.39	347.94	22.04	-43.7	-44.8	22.3	0.00e+00	0	43	0	920649728	59	3976
2026-01-23 07:08:35.40	347.73	21.95	-43.6	-44.6	22.5	0.00e+00	0	43	0	922746880	59	3889
2026-01-23 07:08:36.41	347.52	21.86	-43.6	-44.6	22.5	0.00e+00	0	43	0	924844032	58	4121
2026-01-23 07:08:37.42	347.31	21.77	-43.6	-44.7	22.4	0.00e+00	0	43	0	925892608	58	4167
2026-01-23 07:08:38.43	347.11	21.68	-43.8	-44.9	22.2	0.00e+00	0	43	0	927989760	58	4285
2026-01-23 07:08:39.44	346.91	21.59	-44.1	-45.2	22.0	0.00e+00	0	43	0	930086912	58	4404
2026-01-23 07:08:40.44	346.71	21.51	-44.4	-45.5	21.7	0.00e+00	0	43	0	932184064	59	4334
2026-01-23 07:08:41.45	346.50	21.41	-44.4	-45.5	21.7	0.00e+00	0	43	0	934281216	59	4339
2026-01-23 07:08:42.46	346.30	21.32	-44.5	-45.6	21.6	0.00e+00	0	43	0	935329792	59	4381
2026-01-23 07:08:43.47	346.11	21.23	-44.4	-45.5	21.7	0.00e+00	0	43	0	937426944	59	4337
2026-01-23 07:08:44.48	345.91	21.14	-44.2	-45.3	21.9	0.00e+00	0	43	0	939524096	59	4231
2026-01-23 07:08:45.48	345.71	21.05	-44.3	-45.4	21.7	0.00e+00	0	43	0	941621248	59	4274
2026-01-23 07:08:46.49	345.52	20.96	-44.4	-45.5	21.7	0.00e+00	0	43	0	943718400	59	4330
2026-01-23 07:08:47.50	345.32	20.87	-44.6	-45.8	21.4	0.00e+00	0	43	0	944766976	59	4483
2026-01-23 07:08:48.51	345.13	20.78	-44.6	-45.8	21.5	0.00e+00	0	43	0	946864128	59	4454
2026-01-23 07:08:49.52	344.94	20.69	-44.6	-45.8	21.5	0.00e+00	0	43	0	948961280	59	4460
2026-01-23 07:08:50.52	344.75	20.60	-44.2	-45.4	21.5	0.00e+00	0	43	0	951058432	60	4022
2026-01-23 07:08:51.53	344.56	20.51	-44.4	-45.6	21.4	0.00e+00	0	43	0	953155584	60	4128
2026-01-23 07:08:52.54	344.37	20.42	-44.4	-45.6	21.4	0.00e+00	0	43	0	954204160	60	4117
2026-01-23 07:08:53.55	344.18	20.33	-44.6	-45.8	21.1	0.00e+00	0	43	0	956301312	60	4242
2026-01-23 07:08:54.56	344.00	20.24	-44.6	-45.7	21.2	0.00e+00	0	43	0	958398464	60	4189
2026-01-23 07:08:55.57	343.81	20.15	-44.5	-45.6	21.3	0.00e+00	0	43	0	960495616	60	4132
2026-01-23 07:08:56.57	343.63	20.06	-44.4	-45.6	21.4	0.00e+00	0	43	0	962592768	60	4107
2026-01-23 07:08:57.58	343.45	19.97	-44.3	-45.4	21.5	0.00e+00	0	43	0	964689920	60	4039
2026-01-23 07:08:58.59	343.27	19.88	-44.2	-45.2	22.0	0.00e+00	0	43	0	965738496	59	4193
2026-01-23 07:08:59.60	343.08	19.79	-44.1	-45.2	22.0	0.00e+00	0	43	0	967835648	59	4183
2026-01-23 07:09:00.61	342.91	19.70	-43.9	-45.0	22.1	0.00e+00	0	43	0	969932800	59	4072
2026-01-23 07:09:01.61	342.73	19.61	-44.0	-45.0	22.0	0.00e+00	0	43	0	972029952	59	4097
2026-01-23 07:09:02.62	342.55	19.52	-44.2	-45.3	21.9	0.00e+00	0	43	0	973078528	59	4205
2026-01-23 07:09:03.63	342.37	19.43	-44.6	-45.7	21.5	0.00e+00	0	43	0	975175680	59	4433
2026-01-23 07:09:04.64	342.20	19.34	-44.5	-45.7	21.2	0.00e+00	0	43	0	977272832	60	4171
2026-01-23 07:09:05.64	342.03	19.25	-44.8	-46.0	21.0	0.00e+00	0	43	0	979369984	60	4327
2026-01-23 07:09:06.65	341.85	19.16	-45.3	-46.6	20.4	0.00e+00	0	43	0	981467136	61	4364
2026-01-23 07:09:07.66	341.68	19.07	-45.2	-46.5	20.5	0.00e+00	0	43	0	982515712	61	4316
2026-01-23 07:09:08.67	341.51	18.98	-45.2	-46.5	20.5	0.00e+00	0	43	0	984612864	61	4321
2026-01-23 07:09:09.68	341.34	18.89	-45.0	-46.2	20.8	0.00e+00	0	43	0	986710016	61	4184
2026-01-23 07:09:10.68	341.17	18.80	-44.7	-45.9	21.1	0.00e+00	0	43	0	988807168	61	4009
2026-01-23 07:09:11.69	341.00	18.71	-44.3	-45.5	21.4	0.00e+00	0	43	0	990904320	60	4081
2026-01-23 07:09:12.70	340.84	18.62	-44.4	-45.6	21.4	0.00e+00	0	43	0	993001472	60	4109
2026-01-23 07:09:13.71	340.67	18.53	-44.3	-45.5	21.4	0.00e+00	0	43	0	994050048	60	4057
2026-01-23 07:09:14.72	340.50	18.44	-44.1	-45.3	21.6	0.00e+00	0	43	0	996147200	60	3961
2026-01-23 07:09:15.72	340.34	18.35	-44.3	-45.4	21.4	0.00e+00	0	43	0	998244352	60	4050
2026-01-23 07:09:16.73	340.18	18.26	-44.6	-45.7	21.2	0.00e+00	0	43	0	1000341504	60	4193
2026-01-23 07:09:17.74	340.02	18.17	-44.6	-45.8	21.1	0.00e+00	0	43	0	1001390080	60	4235
2026-01-23 07:09:18.75	339.86	18.08	-44.7	-45.9	21.1	0.00e+00	0	43	0	1003487232	60	4249
2026-01-23 07:09:19.75	339.70	18.00	-45.1	-46.4	20.6	0.00e+00	0	43	0	1005584384	61	4247
2026-01-23 07:09:20.76	339.54	17.91	-45.3	-46.6	20.4	0.00e+00	0	43	0	1007681536	61	4370
2026-01-23 07:09:21.77	339.38	17.82	-45.6	-46.9	20.1	0.00e+00	0	43	0	1009778688	61	4541
2026-01-23 07:09:22.78	339.22	17.73	-46.0	-47.5	19.6	0.00e+00	0	43	0	1011875840	62	4585
2026-01-23 07:09:23.79	339.06	17.64	-46.0	-47.5	19.6	0.00e+00	0	43	0	1012924416	62	4549
2026-01-23 07:09:24.79	338.91	17.55	-46.1	-47.6	19.6	0.00e+00	0	43	0	1015021568	62	4641
2026-01-23 07:09:25.80	338.76	17.46	-45.9	-47.4	19.7	0.00e+00	0	43	0	1017118720	62	4517
2026-01-23 07:09:26.81	338.60	17.37	-45.8	-47.3	19.8	0.00e+00	0	43	0	1019215872	62	4455
2026-01-23 07:09:27.82	338.45	17.29	-45.8	-47.2	19.9	0.00e+00	0	43	0	1021313024	62	4418
2026-01-23 07:09:28.83	338.30	17.20	-45.7	-47.1	19.9	0.00e+00	0	43	0	1022361600	62	4388
2026-01-23 07:09:29.83	338.15	17.11	-45.3	-46.6	20.4	0.00e+00	0	43	0	1024458752	62	4133
2026-01-23 07:09:30.84	338.00	17.02	-45.3	-46.6	20.4	0.00e+00	0	43	0	1026555904	62	4133
2026-01-23 07:09:31.85	337.85	16.93	-45.4	-46.7	20.3	0.00e+00	0	43	0	1028653056	62	4184
2026-01-23 07:09:32.86	337.70	16.85	-45.5	-46.9	20.1	0.00e+00	0	43	0	1029701632	62	4246
2026-01-23 07:09:33.87	337.55	16.76	-46.0	-47.4	19.6	0.00e+00	0	43	0	1031798784	62	4538
2026-01-23 07:09:34.87	337.41	16.67	-46.2	-47.7	19.4	0.00e+00	0	43	0	1033895936	62	4674
2026-01-23 07:09:35.88	337.26	16.58	-46.4	-48.0	19.1	0.00e+00	0	43	0	1035993088	63	4578
2026-01-23 07:09:36.89	337.12	16.50	-46.3	-47.9	19.3	0.00e+00	0	43	0	1038090240	63	4504
2026-01-23 07:09:37.89	336.97	16.41	-46.2	-47.8	19.4	0.00e+00	0	43	0	1040187392	63	4442
2026-01-23 07:09:38.90	336.83	16.32	-45.9	-47.4	19.7	0.00e+00	0	43	0	1041235968	63	4260
2026-01-23 07:09:39.91	336.69	16.24	-45.9	-47.3	19.7	0.00e+00	0	43	0	1043333120	63	4227
2026-01-23 07:09:40.92	336.55	16.15	-45.6	-46.9	19.9	0.00e+00	0	43	0	1045430272	63	4049
2026-01-23 07:09:41.93	336.41	16.06	-45.4	-46.8	20.2	0.00e+00	0	43	0	1047527424	62	4218
2026-01-23 07:09:42.93	336.27	15.98	-45.2	-46.5	20.4	0.00e+00	0	43	0	1049624576	62	4091
2026-01-23 07:09:43.94	336.13	15.89	-45.0	-46.2	20.7	0.00e+00	0	43	0	1050673152	61	4184
2026-01-23 07:09:44.95	335.99	15.80	-44.8	-46.0	20.9	2.20e-06	0	43	0	1052770304	61	4089
2026-01-23 07:09:45.96	335.85	15.72	-44.9	-46.1	20.8	0.00e+00	0	43	0	1054867456	61	4131
2026-01-23 07:09:46.97	335.72	15.63	-44.9	-46.1	20.8	0.00e+00	0	43	0	1056964608	61	4132
2026-01-23 07:09:47.97	335.58	15.55	-44.7	-45.9	21.0	0.00e+00	0	43	0	1059061760	61	4040
2026-01-23 07:09:48.98	335.45	15.46	-44.9	-46.2	20.8	0.00e+00	0	43	0	1060110336	61	4146
2026-01-23 07:09:49.99	335.31	15.37	-44.9	-46.1	20.8	0.00e+00	0	43	0	1062207488	61	4130
2026-01-23 07:09:51.00	335.18	15.29	-45.0	-46.2	20.6	0.00e+00	0	43	0	1064304640	61	4191
2026-01-23 07:09:52.01	335.05	15.20	-45.3	-46.6	20.3	0.00e+00	0	43	0	1066401792	61	4382
2026-01-23 07:09:53.01	334.92	15.12	-45.3	-46.7	20.3	0.00e+00	0	43	0	1068498944	61	4392
2026-01-23 07:09:54.02	334.79	15.03	-45.5	-46.8	20.1	0.00e+00	0	43	0	1069547520	61	4490
2026-01-23 07:09:55.03	334.66	14.95	-45.4	-46.7	20.2	0.00e+00	0	43	0	1071644672	61	4434
2026-01-23 07:09:56.04	334.53	14.86	-45.5	-46.8	20.1	0.00e+00	0	43	0	1073741824	61	4488
2026-01-23 07:09:57.04	334.40	14.78	-45.4	-46.8	20.2	0.00e+00	0	43	0	1075838976	61	4443
2026-01-23 07:09:58.05	334.27	14.70	-45.3	-46.7	20.3	0.00e+00	0	43	0	1077936128	61	4407
2026-01-23 07:09:59.06	334.14	14.61	-45.4	-46.7	20.2	0.00e+00	0	43	0	1078984704	61	4418
2026-01-23 07:10:00.07	334.02	14.53	-45.1	-46.4	20.5	0.00e+00	0	43	0	1081081856	61	4275
2026-01-23 07:10:01.08	333.89	14.44	-45.3	-46.6	20.3	6.10e-06	0	43	0	1083179008	61	4372
2026-01-23 07:10:02.08	333.77	14.36	-45.4	-46.8	20.2	0.00e+00	0	43	0	1085276160	61	4445
2026-01-23 07:10:03.09	333.64	14.28	-45.5	-46.8	20.1	0.00e+00	0	43	0	1087373312	61	4488
2026-01-23 07:10:04.10	333.52	14.19	-45.7	-47.1	19.9	0.00e+00	0	43	0	1088421888	61	4635
2026-01-23 07:10:05.11	333.40	14.11	-46.1	-47.6	19.5	0.00e+00	0	43	0	1090519040	62	4606
2026-01-23 07:10:06.12	333.27	14.02	-46.4	-48.0	19.0	0.00e+00	0	43	0	1092616192	63	4556
2026-01-23 07:10:07.12	333.15	13.94	-46.6	-48.3	18.7	0.00e+00	0	43	0	1094713344	63	4728
2026-01-23 07:10:08.13	333.03	13.86	-47.2	-49.1	17.8	0.00e+00	0	43	0	1096810496	65	4639
2026-01-23 07:10:09.14	332.91	13.78	-47.2	-49.1	17.9	3.00e-06	0	43	0	1097859072	65	4634
2026-01-23 07:10:10.15	332.79	13.69	-47.3	-49.1	17.8	0.00e+00	0	43	0	1099956224	65	4651
2026-01-23 07:10:11.15	332.68	13.61	-47.1	-48.9	18.0	0.00e+00	0	43	0	1102053376	65	4541
2026-01-23 07:10:12.16	332.56	13.53	-46.7	-48.5	18.5	0.00e+00	0	43	0	1104150528	65	4293
2026-01-23 07:10:13.17	332.44	13.45	-46.3	-47.9	19.0	0.00e+00	0	43	0	1106247680	64	4274
2026-01-23 07:10:14.17	332.32	13.37	-46.1	-47.6	19.3	0.00e+00	0	43	0	1107296256	64	4122
2026-01-23 07:10:15.18	332.21	13.28	-45.9	-47.3	19.6	0.00e+00	0	43	0	1109393408	63	4236
2026-01-23 07:10:16.19	332.09	13.20	-45.5	-46.9	20.0	0.00e+00	0	43	0	1111490560	62	4260
2026-01-23 07:10:17.20	331.98	13.12	-45.3	-46.7	20.2	0.00e+00	0	43	0	1113587712	62	4156
2026-01-23 07:10:18.21	331.86	13.04	-45.0	-46.3	20.6	0.00e+00	0	43	0	1115684864	61	4219
2026-01-23 07:10:19.22	331.75	12.96	-45.0	-46.3	20.5	0.00e+00	0	43	0	1116733440	61	4230
2026-01-23 07:10:20.23	331.64	12.88	-45.1	-46.5	20.4	0.00e+00	0	43	0	1118830592	61	4297
2026-01-23 07:10:21.24	331.53	12.80	-45.2	-46.6	20.3	0.00e+00	0	43	0	1120927744	61	4344
2026-01-23 07:10:22.24	331.42	12.72	-45.4	-46.8	20.1	0.00e+00	0	43	0	1123024896	61	4461
2026-01-23 07:10:23.25	331.30	12.63	-45.7	-47.2	19.7	3.00e-06	0	43	0	1125122048	61	4652
2026-01-23 07:10:24.26	331.19	12.55	-46.1	-47.6	19.3	0.00e+00	0	43	0	1126170624	62	4639
2026-01-23 07:10:25.27	331.08	12.47	-46.5	-48.1	18.8	0.00e+00	0	43	0	1128267776	63	4649
2026-01-23 07:10:26.28	330.98	12.39	-46.8	-48.6	18.3	0.00e+00	0	43	0	1130364928	64	4644
2026-01-23 07:10:27.28	330.87	12.31	-46.9	-48.7	18.2	0.00e+00	0	43	0	1132462080	64	4701
2026-01-23 07:10:28.29	330.76	12.23	-47.1	-48.9	18.0	0.00e+00	0	43	0	1134559232	64	4791
2026-01-23 07:10:29.30	330.65	12.15	-47.5	-49.5	17.4	0.00e+00	0	43	0	1135607808	65	4862
2026-01-23 07:10:30.31	330.55	12.07	-47.4	-49.4	17.6	0.00e+00	0	43	0	1137704960	65	4794
2026-01-23 07:10:31.32	330.44	12.00	-47.5	-49.4	17.6	0.00e+00	0	43	0	1139802112	65	4812
2026-01-23 07:10:32.33	330.33	11.92	-47.5	-49.4	17.5	0.00e+00	0	43	0	1141899264	65	4806
2026-01-23 07:10:33.34	330.23	11.84	-47.5	-49.5	17.4	0.00e+00	0	43	0	1143996416	65	4852
2026-01-23 07:10:34.34	330.13	11.76	-47.3	-49.3	17.7	0.00e+00	0	43	0	1145044992	65	4712
2026-01-23 07:10:35.35	330.02	11.68	-47.3	-49.1	17.7	0.00e+00	0	43	0	1147142144	65	4648
2026-01-23 07:10:36.36	329.92	11.60	-47.1	-48.9	17.9	0.00e+00	0	43	0	1149239296	65	4525
2026-01-23 07:10:37.37	329.82	11.52	-47.0	-48.9	18.0	0.00e+00	0	43	0	1151336448	65	4498
2026-01-23 07:10:38.38	329.71	11.44	-47.1	-48.9	18.0	0.00e+00	0	43	0	1153433600	65	4532
2026-01-23 07:10:39.39	329.61	11.37	-47.1	-48.9	18.0	0.00e+00	0	43	0	1155530752	65	4538
2026-01-23 07:10:40.40	329.51	11.29	-47.1	-48.9	17.9	0.00e+00	0	43	0	1156579328	65	4544
2026-01-23 07:10:41.40	329.41	11.21	-46.9	-48.7	18.2	0.00e+00	0	43	0	1158676480	65	4409
2026-01-23 07:10:42.41	329.31	11.13	-47.0	-48.8	18.1	0.00e+00	0	43	0	1160773632	65	4457
2026-01-23 07:10:43.42	329.21	11.06	-47.1	-49.0	18.0	0.00e+00	0	43	0	1162870784	65	4547
2026-01-23 07:10:44.43	329.12	10.98	-47.0	-48.8	18.1	0.00e+00	0	43	0	1163919360	65	4490
2026-01-23 07:10:45.44	329.02	10.90	-47.2	-49.0	17.8	0.00e+00	0	43	0	1166016512	65	4581
2026-01-23 07:10:46.45	328.92	10.82	-47.3	-49.2	17.6	0.00e+00	0	43	0	1168113664	65	4694
2026-01-23 07:10:47.46	328.82	10.75	-47.4	-49.4	17.5	0.00e+00	0	43	0	1170210816	65	4792
2026-01-23 07:10:48.46	328.73	10.67	-47.3	-49.3	17.6	0.00e+00	0	43	0	1172307968	65	4708
2026-01-23 07:10:49.47	328.63	10.59	-47.5	-49.5	17.3	0.00e+00	0	43	0	1173356544	65	4854
2026-01-23 07:10:50.48	328.53	10.52	-47.5	-49.5	17.3	0.00e+00	0	43	0	1175453696	65	4858
2026-01-23 07:10:51.48	328.44	10.44	-47.5	-49.5	17.3	0.00e+00	0	43	0	1177550848	65	4845
2026-01-23 07:10:52.49	328.35	10.37	-47.6	-49.6	17.3	0.00e+00	0	43	0	1179648000	65	4908
2026-01-23 07:10:53.50	328.25	10.29	-47.5	-49.5	17.4	0.00e+00	0	43	0	1181745152	65	4849
2026-01-23 07:10:54.51	328.16	10.21	-47.3	-49.3	17.5	0.00e+00	0	43	0	1183842304	65	4733
2026-01-23 07:10:55.51	328.07	10.14	-47.3	-49.2	17.7	0.00e+00	0	43	0	1184890880	65	4698
2026-01-23 07:10:56.52	327.97	10.06	-47.0	-48.8	18.0	0.00e+00	0	43	0	1186988032	65	4473
2026-01-23 07:10:57.53	327.88	9.99	-46.8	-48.6	18.1	0.00e+00	0	43	0	1189085184	65	4383
2026-01-23 07:10:58.54	327.79	9.91	-46.6	-48.3	18.4	0.00e+00	0	43	0	1191182336	65	4227
2026-01-23 07:10:59.55	327.70	9.84	-46.4	-48.1	18.7	0.00e+00	0	43	0	1192230912	64	4352
2026-01-23 07:11:00.55	327.61	9.76	-46.3	-47.9	18.8	0.00e+00	0	43	0	1194328064	64	4252
2026-01-23 07:11:01.56	327.52	9.69	-46.1	-47.7	19.0	0.00e+00	0	43	0	1196425216	64	4173
2026-01-23 07:11:02.57	327.43	9.62	-46.0	-47.5	19.3	0.00e+00	0	43	0	1198522368	63	4323
2026-01-23 07:11:03.58	327.34	9.54	-46.0	-47.5	19.3	0.00e+00	0	43	0	1200619520	63	4334
2026-01-23 07:11:04.59	327.25	9.47	-46.1	-47.6	19.1	0.00e+00	0	43	0	1202716672	63	4366
2026-01-23 07:11:05.60	327.16	9.39	-46.1	-47.6	19.1	0.00e+00	0	43	0	1203765248	63	4389
2026-01-23 07:11:06.61	327.08	9.32	-46.2	-47.8	18.9	0.00e+00	0	43	0	1205862400	63	4468
2026-01-23 07:11:07.61	326.99	9.25	-46.3	-47.9	18.8	0.00e+00	0	43	0	1207959552	63	4540
2026-01-23 07:11:08.62	326.90	9.17	-46.6	-48.3	18.5	0.00e+00	0	43	0	1210056704	63	4715
2026-01-23 07:11:09.63	326.82	9.10	-46.4	-48.1	18.7	0.00e+00	0	43	0	1212153856	63	4614
2026-01-23 07:11:10.64	326.73	9.02	-46.8	-48.6	18.1	0.00e+00	0	43	0	1213202432	64	4610
2026-01-23 07:11:11.65	326.65	8.95	-46.9	-48.7	18.0	0.00e+00	0	43	0	1215299584	64	4691
2026-01-23 07:11:12.66	326.56	8.88	-47.2	-49.1	17.6	0.00e+00	0	43	0	1217396736	65	4635
2026-01-23 07:11:13.66	326.48	8.81	-47.2	-49.1	17.6	0.00e+00	0	43	0	1219493888	65	4624
2026-01-23 07:11:14.67	326.39	8.73	-47.4	-49.4	17.3	0.00e+00	0	43	0	1221591040	65	4800
2026-01-23 07:11:15.68	326.31	8.66	-47.6	-49.6	17.1	0.00e+00	0	43	0	1222639616	65	4918
2026-01-23 07:11:16.68	326.23	8.59	-47.8	-49.9	16.8	0.00e+00	0	43	0	1224736768	66	4796
2026-01-23 07:11:17.69	326.14	8.52	-48.0	-50.2	16.5	0.00e+00	0	43	0	1226833920	66	4976
2026-01-23 07:11:18.70	326.06	8.44	-48.1	-50.4	16.4	0.00e+00	0	43	0	1228931072	66	5044
2026-01-23 07:11:19.71	325.98	8.37	-48.0	-50.3	16.5	0.00e+00	0	43	0	1231028224	66	5010
2026-01-23 07:11:20.71	325.90	8.30	-48.0	-50.3	16.4	0.00e+00	0	43	0	1232076800	66	5038
2026-01-23 07:11:21.72	325.82	8.23	-48.1	-50.5	16.3	0.00e+00	0	43	0	1234173952	66	5110
