passes_logs/2026/01/23/R3.2S_Murmansk/R3.2S_Murmansk__20260123_083846_SUOMI_NPP_rec.log

#Pass ID: 20260123_083846_SUOMI NPP
#Satellite: SUOMI NPP
#Configuration: NPP
#almurnet v.1.7.20251203
#Start time: 2026-01-23 08:38:47

#Version: 2.2.20231116
#Station: R3.2S_Murmansk
#Location: 33.079688 lon 68.888172 lat
#TLE: 1 37849U 11061A   26022.50498765  .00000208  00000+0  11976-3 0  9992
#TLE: 2 37849  98.7820 324.4892 0002275  50.8149 309.3229 14.19528284737775

#Time	Az	El	Level	Level2	SNR	BER	BlckErr	Temp	State	Recorded	gain1	gain2
2026-01-23 08:38:47.44	129.22	2.07	-54.4	-69.4	3.8	1.49e+00	0	41	0	0	79	21411
2026-01-23 08:38:48.44	129.20	2.13	-54.6	-69.6	3.8	1.49e+00	0	40	104	0	79	21972
2026-01-23 08:38:49.44	129.18	2.19	-54.6	-69.6	3.8	1.49e+00	0	40	104	0	79	21838
2026-01-23 08:38:50.46	129.15	2.26	-54.5	-69.5	3.8	1.49e+00	0	41	104	0	79	21704
2026-01-23 08:38:51.46	129.13	2.32	-54.5	-69.5	3.8	1.49e+00	0	41	104	0	79	21585
2026-01-23 08:38:52.47	129.11	2.39	-54.4	-69.4	3.8	1.49e+00	0	41	104	0	79	21490
2026-01-23 08:38:53.48	129.09	2.45	-54.4	-69.4	3.8	1.49e+00	0	41	104	0	79	21383
2026-01-23 08:38:54.49	129.07	2.52	-54.4	-69.4	3.8	1.49e+00	0	41	104	0	79	21297
2026-01-23 08:38:55.50	129.04	2.58	-54.3	-69.3	3.8	1.49e+00	0	41	104	0	79	21114
2026-01-23 08:38:56.51	129.02	2.65	-54.2	-69.2	3.8	1.49e+00	0	41	104	0	79	20972
2026-01-23 08:38:57.52	129.00	2.71	-54.2	-69.2	3.8	1.49e+00	0	41	104	0	79	20789
2026-01-23 08:38:58.53	128.98	2.78	-54.1	-69.1	3.8	1.49e+00	0	41	104	0	79	20709
2026-01-23 08:38:59.54	128.95	2.85	-54.0	-69.0	3.8	1.49e+00	0	41	104	0	79	20498
2026-01-23 08:39:00.54	128.93	2.91	-53.9	-68.9	3.8	1.49e+00	0	41	104	0	79	20202
2026-01-23 08:39:01.55	128.91	2.98	-53.7	-68.7	3.8	1.49e+00	0	41	104	0	79	19792
2026-01-23 08:39:02.56	128.89	3.04	-53.6	-68.6	3.8	1.49e+00	0	41	104	0	79	19422
2026-01-23 08:39:03.57	128.86	3.11	-53.4	-68.4	3.8	1.49e+00	0	41	104	0	78	20187
2026-01-23 08:39:04.57	128.84	3.18	-53.2	-68.2	3.8	1.49e+00	0	41	104	0	78	19694
2026-01-23 08:39:05.58	128.82	3.24	-53.1	-68.1	3.8	1.49e+00	0	41	104	0	78	19405
2026-01-23 08:39:06.59	128.79	3.31	-53.0	-68.0	3.8	1.49e+00	0	41	104	0	78	19244
2026-01-23 08:39:07.60	128.77	3.38	-52.9	-67.8	3.8	1.49e+00	0	41	104	0	77	19913
2026-01-23 08:39:08.61	128.75	3.44	-52.7	-67.7	3.8	1.49e+00	0	41	104	0	77	19760
2026-01-23 08:39:09.62	128.72	3.51	-52.6	-67.4	3.8	1.49e+00	0	41	104	0	77	19079
2026-01-23 08:39:10.62	128.70	3.58	-52.5	-67.1	3.8	1.49e+00	0	41	104	0	76	19409
2026-01-23 08:39:11.63	128.67	3.65	-52.4	-66.8	3.8	1.49e+00	0	41	104	0	76	18925
2026-01-23 08:39:12.64	128.65	3.71	-52.4	-66.8	3.8	1.49e+00	0	41	104	0	76	18732
2026-01-23 08:39:13.65	128.63	3.78	-52.4	-66.8	3.8	1.49e+00	0	41	104	0	76	18826
2026-01-23 08:39:14.66	128.60	3.85	-52.4	-67.1	3.8	1.49e+00	0	41	104	0	76	19408
2026-01-23 08:39:15.67	128.58	3.92	-52.4	-67.3	3.8	1.49e+00	0	41	104	0	76	19931
2026-01-23 08:39:16.68	128.55	3.99	-52.5	-67.2	3.8	1.49e+00	0	41	104	0	76	19804
2026-01-23 08:39:17.69	128.53	4.06	-52.4	-66.3	3.8	1.49e+00	0	42	104	0	76	17726
2026-01-23 08:39:18.70	128.50	4.13	-52.3	-64.1	4.1	1.47e+00	0	41	104	0	76	13803
2026-01-23 08:39:19.70	128.48	4.19	-52.1	-61.7	5.1	9.45e-01	0	41	0	1048576	76	10532
2026-01-23 08:39:20.71	128.45	4.26	-51.7	-59.3	6.8	3.70e-01	0	41	0	3145728	75	8384
2026-01-23 08:39:21.72	128.43	4.33	-51.1	-57.0	9.0	1.09e-01	0	41	0	4194304	74	6855
2026-01-23 08:39:22.73	128.40	4.40	-50.7	-55.7	10.5	8.52e-03	0	41	0	6291456	73	6203
2026-01-23 08:39:23.74	128.38	4.47	-50.0	-54.0	12.2	4.78e-04	0	41	0	8388608	72	5428
2026-01-23 08:39:24.75	128.35	4.54	-49.2	-52.3	14.1	4.50e-06	0	42	0	10485760	70	4987
2026-01-23 08:39:25.76	128.32	4.61	-48.4	-50.9	15.4	0.00e+00	0	41	0	12582912	68	4791
2026-01-23 08:39:26.76	128.30	4.68	-48.0	-50.3	16.0	0.00e+00	0	41	0	14680064	68	4472
2026-01-23 08:39:27.77	128.27	4.75	-47.5	-49.7	16.5	0.00e+00	0	42	0	15728640	67	4407
2026-01-23 08:39:28.78	128.25	4.82	-47.0	-49.0	17.2	0.00e+00	0	41	0	17825792	66	4325
2026-01-23 08:39:29.79	128.22	4.89	-46.9	-48.8	17.4	0.00e+00	0	41	0	19922944	65	4465
2026-01-23 08:39:30.80	128.19	4.97	-47.0	-48.9	17.3	0.00e+00	0	42	0	22020096	65	4543
2026-01-23 08:39:31.80	128.17	5.04	-46.7	-48.6	17.6	0.00e+00	0	42	0	23068672	65	4367
2026-01-23 08:39:32.81	128.14	5.11	-51.4	-57.9	8.7	1.37e-05	0	42	0	25165824	73	8017
2026-01-23 08:39:33.82	128.11	5.18	-49.9	-53.5	13.0	6.81e-02	0	42	0	27262976	71	5434
2026-01-23 08:39:34.83	128.09	5.25	-49.2	-52.3	14.3	8.30e-06	0	41	0	29360128	68	5604
2026-01-23 08:39:35.83	128.06	5.32	-47.0	-48.9	17.5	1.52e-05	0	41	0	31457280	65	4495
2026-01-23 08:39:36.84	128.03	5.39	-50.0	-53.8	12.8	0.00e+00	0	42	0	33554432	70	5958
2026-01-23 08:39:37.85	128.00	5.47	-46.4	-48.2	18.1	0.00e+00	0	42	0	34603008	64	4398
2026-01-23 08:39:38.86	127.98	5.54	-46.2	-47.8	18.4	0.00e+00	0	42	0	36700160	64	4222
2026-01-23 08:39:39.87	127.95	5.61	-46.1	-47.8	18.6	0.00e+00	0	42	0	38797312	64	4210
2026-01-23 08:39:40.88	127.92	5.68	-46.4	-48.1	18.2	0.00e+00	0	42	0	40894464	64	4347
2026-01-23 08:39:41.88	127.89	5.76	-46.2	-47.9	18.5	0.00e+00	0	42	0	42991616	64	4245
2026-01-23 08:39:42.89	127.86	5.83	-46.3	-48.0	18.3	0.00e+00	0	42	0	44040192	64	4322
2026-01-23 08:39:43.90	127.83	5.90	-46.3	-47.9	18.5	0.00e+00	0	42	0	46137344	63	4532
2026-01-23 08:39:44.91	127.81	5.98	-46.4	-48.0	18.4	0.00e+00	0	42	0	48234496	63	4596
2026-01-23 08:39:45.92	127.78	6.05	-46.2	-47.8	18.6	0.00e+00	0	42	0	50331648	63	4457
2026-01-23 08:39:46.93	127.75	6.13	-46.2	-47.8	18.6	0.00e+00	0	42	0	51380224	63	4468
2026-01-23 08:39:47.94	127.72	6.20	-46.3	-48.0	18.4	0.00e+00	0	42	0	53477376	63	4553
2026-01-23 08:39:48.95	127.69	6.27	-46.5	-48.2	18.3	0.00e+00	0	42	0	55574528	63	4656
2026-01-23 08:39:49.95	127.66	6.35	-46.3	-47.9	18.5	0.00e+00	0	41	0	57671680	63	4534
2026-01-23 08:39:50.96	127.63	6.42	-46.4	-48.1	18.4	0.00e+00	0	42	0	59768832	63	4612
2026-01-23 08:39:51.97	127.60	6.50	-46.5	-48.2	18.3	0.00e+00	0	42	0	61865984	63	4658
2026-01-23 08:39:52.98	127.57	6.57	-46.6	-48.3	18.2	0.00e+00	0	42	0	62914560	63	4752
2026-01-23 08:39:53.99	127.54	6.65	-46.7	-48.4	18.1	0.00e+00	0	42	0	65011712	63	4792
2026-01-23 08:39:55.00	127.51	6.73	-46.5	-48.2	18.3	0.00e+00	0	42	0	67108864	64	4407
2026-01-23 08:39:56.00	127.48	6.80	-46.3	-48.0	18.5	0.00e+00	0	42	0	69206016	64	4313
2026-01-23 08:39:57.01	127.45	6.88	-46.5	-48.2	18.3	0.00e+00	0	42	0	71303168	64	4413
2026-01-23 08:39:58.02	127.42	6.95	-46.1	-47.6	18.8	0.00e+00	0	42	0	72351744	64	4139
2026-01-23 08:39:59.03	127.39	7.03	-46.2	-47.8	18.7	0.00e+00	0	42	0	74448896	63	4473
2026-01-23 08:40:00.03	127.35	7.11	-46.1	-47.6	18.9	0.00e+00	0	42	0	76546048	63	4390
2026-01-23 08:40:01.04	127.32	7.18	-46.0	-47.5	19.1	0.00e+00	0	42	0	78643200	63	4321
2026-01-23 08:40:02.05	127.29	7.26	-46.0	-47.5	19.0	0.00e+00	0	42	0	80740352	63	4328
2026-01-23 08:40:03.06	127.26	7.34	-46.1	-47.7	18.9	0.00e+00	0	42	0	81788928	63	4414
2026-01-23 08:40:04.07	127.23	7.42	-46.0	-47.5	19.1	0.00e+00	0	42	0	83886080	63	4313
2026-01-23 08:40:05.07	127.20	7.49	-46.1	-47.6	19.0	0.00e+00	0	42	0	85983232	63	4379
2026-01-23 08:40:06.08	127.16	7.57	-46.1	-47.6	19.0	0.00e+00	0	42	0	88080384	63	4383
2026-01-23 08:40:07.09	127.13	7.65	-46.2	-47.8	18.8	0.00e+00	0	42	0	90177536	63	4457
2026-01-23 08:40:08.10	127.10	7.73	-45.9	-47.4	19.1	0.00e+00	0	42	0	91226112	63	4288
2026-01-23 08:40:09.11	127.06	7.81	-46.0	-47.5	19.0	0.00e+00	0	42	0	93323264	63	4337
2026-01-23 08:40:10.12	127.03	7.89	-46.1	-47.7	18.9	0.00e+00	0	42	0	95420416	63	4411
2026-01-23 08:40:11.12	127.00	7.97	-46.2	-47.8	18.9	0.00e+00	0	42	0	97517568	63	4455
2026-01-23 08:40:12.13	126.96	8.05	-46.0	-47.6	19.1	0.00e+00	0	42	0	99614720	63	4356
2026-01-23 08:40:13.14	126.93	8.13	-46.3	-47.9	18.8	0.00e+00	0	42	0	101711872	63	4502
2026-01-23 08:40:14.15	126.90	8.21	-46.4	-48.0	18.7	0.00e+00	0	42	0	102760448	63	4569
2026-01-23 08:40:15.16	126.86	8.29	-46.2	-47.8	18.9	0.00e+00	0	42	0	104857600	63	4478
2026-01-23 08:40:16.16	126.83	8.37	-46.3	-47.9	18.8	0.00e+00	0	42	0	106954752	63	4537
2026-01-23 08:40:17.17	126.79	8.45	-46.3	-47.9	18.8	0.00e+00	0	42	0	109051904	63	4497
2026-01-23 08:40:18.18	126.76	8.53	-46.2	-47.7	19.0	0.00e+00	0	42	0	110100480	63	4425
2026-01-23 08:40:19.19	126.72	8.61	-46.4	-48.0	18.8	0.00e+00	0	42	0	112197632	63	4566
2026-01-23 08:40:20.19	126.69	8.69	-46.4	-48.0	18.7	0.00e+00	0	42	0	114294784	63	4568
2026-01-23 08:40:21.20	126.65	8.77	-45.9	-47.4	19.3	0.00e+00	0	42	0	116391936	63	4285
2026-01-23 08:40:22.21	126.62	8.85	-46.0	-47.5	19.2	0.00e+00	0	42	0	118489088	63	4340
2026-01-23 08:40:23.22	126.58	8.94	-46.1	-47.6	19.1	0.00e+00	0	42	0	119537664	63	4359
2026-01-23 08:40:24.23	126.55	9.02	-45.7	-47.2	19.5	0.00e+00	0	42	0	121634816	63	4161
2026-01-23 08:40:25.24	126.51	9.10	-45.9	-47.3	19.4	0.00e+00	0	42	0	123731968	63	4236
2026-01-23 08:40:26.24	126.47	9.18	-45.9	-47.4	19.3	0.00e+00	0	42	0	125829120	63	4256
2026-01-23 08:40:27.25	126.44	9.27	-46.0	-47.5	19.2	0.00e+00	0	42	0	127926272	63	4308
2026-01-23 08:40:28.26	126.40	9.35	-46.1	-47.6	19.2	0.00e+00	0	42	0	130023424	63	4356
2026-01-23 08:40:29.27	126.36	9.44	-46.0	-47.5	19.3	0.00e+00	0	42	0	131072000	63	4296
2026-01-23 08:40:30.28	126.32	9.52	-46.1	-47.6	19.1	0.00e+00	0	42	0	133169152	63	4387
2026-01-23 08:40:31.28	126.29	9.60	-45.8	-47.2	19.5	0.00e+00	0	42	0	135266304	63	4187
2026-01-23 08:40:32.29	126.25	9.69	-45.9	-47.4	19.3	0.00e+00	0	42	0	137363456	63	4288
2026-01-23 08:40:33.30	126.21	9.77	-46.0	-47.6	19.2	0.00e+00	0	42	0	138412032	63	4353
2026-01-23 08:40:34.31	126.17	9.86	-45.8	-47.2	19.5	0.00e+00	0	42	0	140509184	63	4193
2026-01-23 08:40:35.31	126.13	9.94	-46.0	-47.5	19.3	0.00e+00	0	42	0	142606336	63	4313
2026-01-23 08:40:36.32	126.09	10.03	-46.0	-47.6	19.2	0.00e+00	0	42	0	144703488	63	4349
2026-01-23 08:40:37.33	126.06	10.12	-45.8	-47.2	19.6	0.00e+00	0	42	0	146800640	63	4172
2026-01-23 08:40:38.33	126.02	10.20	-45.9	-47.4	19.5	0.00e+00	0	42	0	147849216	63	4253
2026-01-23 08:40:39.34	125.98	10.29	-46.0	-47.6	19.3	0.00e+00	0	42	0	149946368	63	4344
2026-01-23 08:40:40.35	125.94	10.38	-46.1	-47.7	19.2	0.00e+00	0	42	0	152043520	63	4398
2026-01-23 08:40:41.36	125.90	10.46	-45.5	-46.9	19.9	0.00e+00	0	42	0	154140672	63	4030
2026-01-23 08:40:42.37	125.86	10.55	-45.4	-46.8	20.0	0.00e+00	0	42	0	156237824	62	4218
2026-01-23 08:40:43.38	125.81	10.64	-45.6	-47.0	19.8	0.00e+00	0	42	0	158334976	62	4292
2026-01-23 08:40:44.38	125.77	10.73	-45.3	-46.7	20.1	0.00e+00	0	42	0	159383552	62	4149
2026-01-23 08:40:45.39	125.73	10.81	-45.4	-46.8	20.0	0.00e+00	0	42	0	161480704	62	4203
2026-01-23 08:40:46.40	125.69	10.90	-45.7	-47.1	19.7	0.00e+00	0	42	0	163577856	62	4391
2026-01-23 08:40:47.41	125.65	10.99	-45.4	-46.7	20.1	0.00e+00	0	42	0	165675008	62	4167
2026-01-23 08:40:48.41	125.61	11.08	-45.4	-46.7	20.1	0.00e+00	0	42	0	166723584	62	4185
2026-01-23 08:40:49.42	125.57	11.17	-45.5	-46.9	19.9	0.00e+00	0	42	0	168820736	62	4245
2026-01-23 08:40:50.43	125.52	11.26	-45.3	-46.6	20.2	0.00e+00	0	42	0	170917888	62	4128
2026-01-23 08:40:51.44	125.48	11.35	-45.4	-46.8	20.1	0.00e+00	0	42	0	173015040	62	4206
2026-01-23 08:40:52.45	125.44	11.44	-45.4	-46.8	20.0	0.00e+00	0	42	0	175112192	62	4220
2026-01-23 08:40:53.46	125.39	11.53	-45.3	-46.6	20.2	0.00e+00	0	42	0	177209344	62	4120
2026-01-23 08:40:54.46	125.35	11.62	-45.2	-46.5	20.3	0.00e+00	0	42	0	178257920	62	4081
2026-01-23 08:40:55.47	125.31	11.71	-45.2	-46.5	20.3	0.00e+00	0	42	0	180355072	62	4068
2026-01-23 08:40:56.48	125.26	11.81	-45.2	-46.5	20.3	0.00e+00	0	42	0	182452224	62	4085
2026-01-23 08:40:57.49	125.22	11.90	-45.1	-46.4	20.4	0.00e+00	0	42	0	184549376	62	4040
2026-01-23 08:40:58.49	125.17	11.99	-44.9	-46.2	20.6	0.00e+00	0	42	0	186646528	61	4157
2026-01-23 08:40:59.50	125.13	12.08	-45.0	-46.3	20.5	0.00e+00	0	42	0	187695104	61	4226
2026-01-23 08:41:00.51	125.08	12.18	-45.0	-46.3	20.5	0.00e+00	0	42	0	189792256	61	4215
2026-01-23 08:41:01.52	125.03	12.27	-44.9	-46.1	20.7	0.00e+00	0	42	0	191889408	61	4127
2026-01-23 08:41:02.53	124.99	12.37	-44.9	-46.3	20.4	0.00e+00	0	42	0	193986560	61	4205
2026-01-23 08:41:03.54	124.94	12.46	-44.8	-46.1	20.6	0.00e+00	0	42	0	195035136	61	4100
2026-01-23 08:41:04.54	124.90	12.55	-44.8	-46.1	20.6	0.00e+00	0	42	0	197132288	61	4131
2026-01-23 08:41:05.55	124.85	12.65	-44.9	-46.3	20.5	0.00e+00	0	42	0	199229440	61	4196
2026-01-23 08:41:06.56	124.80	12.74	-44.9	-46.2	20.5	0.00e+00	0	42	0	201326592	61	4190
2026-01-23 08:41:07.57	124.75	12.84	-44.9	-46.2	20.5	0.00e+00	0	42	0	203423744	61	4170
2026-01-23 08:41:08.57	124.70	12.93	-44.8	-46.2	20.6	0.00e+00	0	42	0	205520896	61	4150
2026-01-23 08:41:09.58	124.66	13.03	-44.9	-46.2	20.5	0.00e+00	0	42	0	206569472	61	4192
2026-01-23 08:41:10.59	124.61	13.13	-44.7	-46.0	20.7	0.00e+00	0	42	0	208666624	61	4071
2026-01-23 08:41:11.60	124.56	13.23	-44.8	-46.1	20.6	0.00e+00	0	42	0	210763776	61	4134
2026-01-23 08:41:12.61	124.51	13.32	-44.7	-46.0	20.7	0.00e+00	0	42	0	212860928	61	4069
2026-01-23 08:41:13.62	124.46	13.42	-44.5	-45.8	20.9	0.00e+00	0	42	0	214958080	61	3971
2026-01-23 08:41:14.62	124.41	13.52	-44.6	-45.8	20.9	0.00e+00	0	42	0	216006656	61	3981
2026-01-23 08:41:15.63	124.36	13.62	-44.6	-45.8	20.9	0.00e+00	0	42	0	218103808	61	3999
2026-01-23 08:41:16.64	124.31	13.72	-44.6	-45.9	20.9	0.00e+00	0	42	0	220200960	61	4010
2026-01-23 08:41:17.65	124.26	13.82	-44.5	-45.8	20.9	0.00e+00	0	42	0	222298112	61	3976
2026-01-23 08:41:18.66	124.20	13.92	-44.6	-45.9	20.9	0.00e+00	0	43	0	224395264	61	4009
2026-01-23 08:41:19.67	124.15	14.02	-44.6	-45.9	20.8	0.00e+00	0	42	0	225443840	61	4032
2026-01-23 08:41:20.68	124.10	14.12	-44.8	-46.1	20.7	0.00e+00	0	42	0	227540992	61	4129
2026-01-23 08:41:21.68	124.05	14.22	-44.7	-46.0	20.8	0.00e+00	0	42	0	229638144	61	4083
2026-01-23 08:41:22.69	123.99	14.32	-44.8	-46.1	20.7	0.00e+00	0	42	0	231735296	61	4106
2026-01-23 08:41:23.70	123.94	14.42	-44.9	-46.2	20.6	0.00e+00	0	42	0	233832448	61	4176
2026-01-23 08:41:24.71	123.89	14.52	-44.8	-46.1	20.7	0.00e+00	0	42	0	234881024	61	4119
2026-01-23 08:41:25.72	123.83	14.62	-44.9	-46.1	20.7	0.00e+00	0	42	0	236978176	61	4143
2026-01-23 08:41:26.72	123.78	14.73	-44.5	-45.7	21.1	0.00e+00	0	42	0	239075328	61	3952
2026-01-23 08:41:27.73	123.72	14.83	-44.5	-45.7	21.0	0.00e+00	0	42	0	241172480	61	3950
2026-01-23 08:41:28.74	123.67	14.93	-44.6	-45.8	21.0	0.00e+00	0	42	0	243269632	61	3974
2026-01-23 08:41:29.75	123.61	15.04	-44.6	-45.8	21.0	0.00e+00	0	42	0	244318208	61	3980
2026-01-23 08:41:30.76	123.55	15.14	-44.7	-46.0	20.8	0.00e+00	0	42	0	246415360	61	4053
2026-01-23 08:41:31.76	123.50	15.25	-44.6	-45.9	20.9	0.00e+00	0	42	0	248512512	61	4026
2026-01-23 08:41:32.77	123.44	15.35	-44.5	-45.8	21.0	0.00e+00	0	42	0	250609664	61	3973
2026-01-23 08:41:33.78	123.38	15.46	-44.7	-45.9	20.9	0.00e+00	0	42	0	252706816	61	4042
2026-01-23 08:41:34.79	123.33	15.56	-44.7	-45.9	20.9	0.00e+00	0	42	0	253755392	61	4050
2026-01-23 08:41:35.79	123.27	15.67	-44.7	-46.0	20.9	0.00e+00	0	42	0	255852544	61	4065
2026-01-23 08:41:36.80	123.21	15.78	-44.9	-46.2	20.7	0.00e+00	0	42	0	257949696	61	4184
2026-01-23 08:41:37.81	123.15	15.88	-44.7	-46.0	20.9	0.00e+00	0	42	0	260046848	61	4078
2026-01-23 08:41:38.82	123.09	15.99	-44.7	-46.0	20.9	0.00e+00	0	42	0	262144000	61	4062
2026-01-23 08:41:39.83	123.03	16.10	-44.4	-45.6	21.2	0.00e+00	0	42	0	263192576	60	4122
2026-01-23 08:41:40.84	122.97	16.21	-44.5	-45.7	21.1	0.00e+00	0	42	0	265289728	60	4174
2026-01-23 08:41:41.85	122.91	16.32	-44.5	-45.7	21.2	0.00e+00	0	43	0	267386880	60	4152
2026-01-23 08:41:42.86	122.84	16.43	-44.3	-45.5	21.4	0.00e+00	0	42	0	269484032	60	4061
2026-01-23 08:41:43.86	122.78	16.54	-44.4	-45.6	21.3	0.00e+00	0	42	0	271581184	60	4107
2026-01-23 08:41:44.87	122.72	16.65	-44.4	-45.6	21.3	0.00e+00	0	43	0	272629760	60	4129
2026-01-23 08:41:45.88	122.66	16.76	-44.3	-45.5	21.4	0.00e+00	0	42	0	274726912	60	4058
2026-01-23 08:41:46.89	122.59	16.87	-44.6	-45.8	21.1	0.00e+00	0	42	0	276824064	60	4211
2026-01-23 08:41:47.89	122.53	16.98	-44.5	-45.7	21.2	0.00e+00	0	42	0	278921216	60	4165
2026-01-23 08:41:48.90	122.46	17.10	-44.5	-45.7	21.2	0.00e+00	0	42	0	281018368	60	4154
2026-01-23 08:41:49.91	122.40	17.21	-44.5	-45.7	21.2	0.00e+00	0	42	0	282066944	60	4174
2026-01-23 08:41:50.92	122.33	17.32	-44.6	-45.8	21.1	0.00e+00	0	42	0	284164096	60	4240
2026-01-23 08:41:51.93	122.27	17.44	-44.6	-45.9	21.0	0.00e+00	0	43	0	286261248	60	4258
2026-01-23 08:41:52.94	122.20	17.55	-44.5	-45.8	21.1	0.00e+00	0	42	0	288358400	60	4199
2026-01-23 08:41:53.95	122.13	17.67	-44.7	-46.0	21.0	0.00e+00	0	42	0	290455552	60	4313
2026-01-23 08:41:54.96	122.07	17.78	-44.7	-45.9	21.0	0.00e+00	0	42	0	292552704	60	4264
2026-01-23 08:41:55.96	122.00	17.90	-44.7	-45.9	21.0	0.00e+00	0	42	0	293601280	60	4275
2026-01-23 08:41:56.97	121.93	18.02	-44.8	-46.0	20.9	0.00e+00	0	42	0	295698432	60	4334
2026-01-23 08:41:57.98	121.86	18.13	-45.0	-46.3	20.7	0.00e+00	0	42	0	297795584	60	4461
2026-01-23 08:41:58.98	121.79	18.25	-44.8	-46.1	20.8	0.00e+00	0	42	0	299892736	60	4373
2026-01-23 08:41:59.99	121.72	18.37	-45.0	-46.3	20.6	0.00e+00	0	42	0	300941312	60	4491
2026-01-23 08:42:01.00	121.65	18.49	-44.9	-46.2	20.8	0.00e+00	0	42	0	303038464	60	4405
2026-01-23 08:42:02.00	121.58	18.60	-44.8	-46.1	20.9	0.00e+00	0	42	0	305135616	60	4362
2026-01-23 08:42:03.01	121.50	18.72	-44.7	-46.0	20.9	0.00e+00	0	42	0	307232768	60	4304
2026-01-23 08:42:04.02	121.43	18.84	-44.7	-45.9	21.0	0.00e+00	0	43	0	309329920	60	4272
2026-01-23 08:42:05.03	121.36	18.96	-44.5	-45.8	21.2	0.00e+00	0	42	0	310378496	60	4202
2026-01-23 08:42:06.03	121.28	19.08	-44.5	-45.7	21.2	0.00e+00	0	42	0	312475648	60	4158
2026-01-23 08:42:07.04	121.21	19.21	-44.5	-45.7	21.2	0.00e+00	0	42	0	314572800	60	4152
2026-01-23 08:42:08.05	121.13	19.33	-44.6	-45.9	21.1	0.00e+00	0	43	0	316669952	60	4249
2026-01-23 08:42:09.06	121.06	19.45	-44.7	-46.0	21.0	0.00e+00	0	43	0	318767104	60	4302
2026-01-23 08:42:10.07	120.98	19.58	-44.8	-46.1	20.9	0.00e+00	0	42	0	320864256	60	4360
2026-01-23 08:42:11.08	120.90	19.70	-44.8	-46.0	21.0	0.00e+00	0	42	0	321912832	60	4314
2026-01-23 08:42:12.09	120.83	19.82	-44.9	-46.2	20.9	0.00e+00	0	42	0	324009984	60	4396
2026-01-23 08:42:13.09	120.75	19.95	-45.1	-46.4	20.6	0.00e+00	0	43	0	326107136	60	4545
2026-01-23 08:42:14.10	120.67	20.07	-44.9	-46.2	20.9	0.00e+00	0	42	0	328204288	60	4396
2026-01-23 08:42:15.11	120.59	20.20	-45.1	-46.4	20.6	0.00e+00	0	43	0	329252864	60	4545
2026-01-23 08:42:16.12	120.51	20.33	-45.2	-46.5	20.6	0.00e+00	0	43	0	331350016	61	4338
2026-01-23 08:42:17.12	120.43	20.45	-45.1	-46.4	20.7	0.00e+00	0	42	0	333447168	61	4265
2026-01-23 08:42:18.13	120.35	20.58	-45.4	-46.8	20.4	0.00e+00	0	43	0	335544320	61	4442
2026-01-23 08:42:19.14	120.26	20.71	-45.5	-46.8	20.3	0.00e+00	0	42	0	337641472	61	4493
2026-01-23 08:42:20.15	120.18	20.84	-45.5	-46.8	20.3	0.00e+00	0	42	0	339738624	61	4486
2026-01-23 08:42:21.15	120.10	20.97	-45.8	-47.2	20.0	0.00e+00	0	42	0	340787200	62	4439
2026-01-23 08:42:22.16	120.01	21.10	-45.9	-47.3	19.9	0.00e+00	0	43	0	342884352	62	4478
2026-01-23 08:42:23.17	119.92	21.23	-45.8	-47.2	20.1	0.00e+00	0	42	0	344981504	62	4411
2026-01-23 08:42:24.18	119.84	21.36	-45.8	-47.3	19.9	0.00e+00	0	42	0	347078656	62	4465
2026-01-23 08:42:25.19	119.75	21.50	-46.0	-47.4	19.8	0.00e+00	0	43	0	349175808	62	4545
2026-01-23 08:42:26.19	119.66	21.63	-45.7	-47.0	20.1	0.00e+00	0	42	0	350224384	62	4340
2026-01-23 08:42:27.20	119.57	21.76	-45.6	-47.0	20.2	0.00e+00	0	43	0	352321536	62	4306
2026-01-23 08:42:28.21	119.49	21.89	-45.7	-47.1	20.2	0.00e+00	0	42	0	354418688	62	4357
2026-01-23 08:42:29.22	119.39	22.03	-45.9	-47.4	19.9	0.00e+00	0	42	0	356515840	62	4511
2026-01-23 08:42:30.23	119.30	22.16	-45.6	-47.0	20.2	0.00e+00	0	42	0	357564416	62	4332
2026-01-23 08:42:31.23	119.21	22.30	-45.8	-47.2	20.0	0.00e+00	0	42	0	359661568	62	4430
2026-01-23 08:42:32.24	119.12	22.44	-45.9	-47.3	19.9	0.00e+00	0	43	0	361758720	63	4223
2026-01-23 08:42:33.25	119.03	22.57	-46.0	-47.4	19.8	0.00e+00	0	42	0	363855872	63	4277
2026-01-23 08:42:34.26	118.93	22.71	-46.0	-47.4	19.8	0.00e+00	0	43	0	365953024	63	4290
2026-01-23 08:42:35.27	118.84	22.85	-46.0	-47.4	19.8	0.00e+00	0	42	0	368050176	63	4285
2026-01-23 08:42:36.28	118.74	22.99	-45.8	-47.2	20.0	0.00e+00	0	43	0	369098752	63	4193
2026-01-23 08:42:37.28	118.64	23.13	-46.0	-47.5	19.8	0.00e+00	0	43	0	371195904	63	4308
2026-01-23 08:42:38.29	118.54	23.27	-45.8	-47.2	20.0	0.00e+00	0	43	0	373293056	63	4193
2026-01-23 08:42:39.30	118.45	23.41	-45.6	-46.9	20.3	0.00e+00	0	43	0	375390208	63	4050
2026-01-23 08:42:40.31	118.35	23.55	-45.8	-47.1	20.1	0.00e+00	0	43	0	377487360	63	4141
2026-01-23 08:42:41.31	118.25	23.69	-46.0	-47.4	19.9	0.00e+00	0	43	0	378535936	63	4266
2026-01-23 08:42:42.32	118.14	23.84	-46.3	-47.8	19.6	0.00e+00	0	43	0	380633088	63	4456
2026-01-23 08:42:43.33	118.04	23.98	-46.4	-48.0	19.4	0.00e+00	0	42	0	382730240	63	4565
2026-01-23 08:42:44.34	117.94	24.13	-46.4	-48.0	19.3	0.00e+00	0	42	0	384827392	63	4590
2026-01-23 08:42:45.35	117.83	24.27	-46.4	-48.0	19.3	0.00e+00	0	43	0	386924544	63	4555
2026-01-23 08:42:46.35	117.73	24.42	-46.4	-47.9	19.4	0.00e+00	0	42	0	387973120	63	4545
2026-01-23 08:42:47.36	117.62	24.56	-46.4	-47.9	19.5	0.00e+00	0	43	0	390070272	63	4520
2026-01-23 08:42:48.37	117.51	24.71	-46.1	-47.6	19.8	0.00e+00	0	43	0	392167424	63	4359
2026-01-23 08:42:49.37	117.40	24.86	-46.3	-47.8	19.6	0.00e+00	0	43	0	394264576	63	4479
2026-01-23 08:42:50.38	117.29	25.01	-46.6	-48.2	19.2	0.00e+00	0	43	0	396361728	63	4672
2026-01-23 08:42:51.39	117.18	25.16	-46.2	-47.7	19.7	0.00e+00	0	43	0	397410304	63	4400
2026-01-23 08:42:52.40	117.07	25.31	-46.1	-47.6	19.8	0.00e+00	0	43	0	399507456	63	4355
2026-01-23 08:42:53.41	116.96	25.46	-46.3	-47.8	19.5	0.00e+00	0	43	0	401604608	63	4477
2026-01-23 08:42:54.42	116.84	25.61	-46.1	-47.6	19.8	0.00e+00	0	43	0	403701760	63	4346
2026-01-23 08:42:55.42	116.73	25.76	-46.1	-47.5	19.8	0.00e+00	0	42	0	405798912	63	4320
2026-01-23 08:42:56.43	116.61	25.92	-46.2	-47.7	19.7	0.00e+00	0	42	0	406847488	63	4399
2026-01-23 08:42:57.43	116.50	26.07	-46.2	-47.6	19.5	0.00e+00	0	42	0	408944640	63	4374
2026-01-23 08:42:58.44	116.38	26.22	-46.7	-48.2	19.2	0.00e+00	0	42	0	411041792	63	4704
2026-01-23 08:42:59.45	116.26	26.38	-46.5	-48.1	19.3	0.00e+00	0	43	0	413138944	63	4613
2026-01-23 08:43:00.46	116.14	26.54	-46.7	-48.2	19.1	0.00e+00	0	42	0	415236096	63	4704
2026-01-23 08:43:01.47	116.01	26.69	-46.8	-48.4	18.9	0.00e+00	0	43	0	416284672	64	4524
2026-01-23 08:43:02.47	115.89	26.85	-46.4	-47.9	19.3	0.00e+00	0	43	0	418381824	64	4288
2026-01-23 08:43:03.48	115.76	27.01	-46.4	-47.9	19.3	0.00e+00	0	43	0	420478976	64	4287
2026-01-23 08:43:04.49	115.64	27.17	-46.4	-48.0	19.3	0.00e+00	0	42	0	422576128	64	4301
2026-01-23 08:43:05.50	115.51	27.33	-46.1	-47.5	19.7	0.00e+00	0	43	0	424673280	64	4084
2026-01-23 08:43:06.51	115.38	27.49	-46.2	-47.7	19.6	0.00e+00	0	42	0	425721856	63	4420
2026-01-23 08:43:07.52	115.25	27.65	-45.6	-47.0	20.3	0.00e+00	0	42	0	427819008	63	4080
2026-01-23 08:43:08.52	115.12	27.81	-45.8	-47.2	20.1	0.00e+00	0	43	0	429916160	63	4158
2026-01-23 08:43:09.53	114.99	27.98	-45.8	-47.2	20.1	0.00e+00	0	42	0	432013312	63	4169
2026-01-23 08:43:10.54	114.85	28.14	-45.9	-47.3	20.0	0.00e+00	0	43	0	434110464	63	4207
2026-01-23 08:43:11.54	114.72	28.30	-45.9	-47.4	20.0	0.00e+00	0	43	0	436207616	63	4246
2026-01-23 08:43:12.55	114.58	28.47	-45.8	-47.2	20.1	0.00e+00	0	43	0	437256192	63	4168
2026-01-23 08:43:13.56	114.44	28.64	-45.9	-47.3	20.1	0.00e+00	0	43	0	439353344	63	4196
2026-01-23 08:43:14.57	114.30	28.80	-46.2	-47.7	19.7	0.00e+00	0	43	0	441450496	63	4416
2026-01-23 08:43:15.58	114.16	28.97	-46.1	-47.5	19.9	0.00e+00	0	43	0	443547648	63	4311
2026-01-23 08:43:16.59	114.02	29.14	-46.1	-47.5	19.9	0.00e+00	0	43	0	444596224	63	4334
2026-01-23 08:43:17.60	113.87	29.31	-46.4	-47.9	19.6	0.00e+00	0	42	0	446693376	63	4512
2026-01-23 08:43:18.61	113.73	29.48	-46.6	-48.2	19.2	0.00e+00	0	42	0	448790528	64	4429
2026-01-23 08:43:19.61	113.58	29.65	-46.7	-48.2	19.2	0.00e+00	0	42	0	450887680	64	4433
2026-01-23 08:43:20.62	113.43	29.83	-46.9	-48.5	18.9	0.00e+00	0	42	0	452984832	65	4320
2026-01-23 08:43:21.63	113.28	30.00	-46.8	-48.4	19.0	0.00e+00	0	43	0	454033408	65	4282
2026-01-23 08:43:22.64	113.13	30.17	-47.1	-48.8	18.6	0.00e+00	0	42	0	456130560	65	4490
2026-01-23 08:43:23.65	112.97	30.35	-46.8	-48.4	19.1	0.00e+00	0	43	0	458227712	65	4251
2026-01-23 08:43:24.66	112.81	30.52	-46.9	-48.6	18.8	0.00e+00	0	43	0	460324864	65	4366
2026-01-23 08:43:25.67	112.66	30.70	-47.2	-48.9	18.6	0.00e+00	0	43	0	462422016	65	4509
2026-01-23 08:43:26.67	112.50	30.87	-47.6	-49.5	18.0	0.00e+00	0	43	0	464519168	65	4829
2026-01-23 08:43:27.68	112.34	31.05	-47.7	-49.6	17.9	0.00e+00	0	43	0	465567744	65	4911
2026-01-23 08:43:28.69	112.17	31.23	-47.4	-49.2	18.3	0.00e+00	0	43	0	467664896	66	4411
2026-01-23 08:43:29.70	112.01	31.41	-47.4	-49.2	18.2	0.00e+00	0	43	0	469762048	66	4435
2026-01-23 08:43:30.71	111.84	31.59	-47.3	-49.0	18.4	0.00e+00	0	42	0	471859200	65	4557
2026-01-23 08:43:31.71	111.67	31.77	-46.9	-48.5	18.9	0.00e+00	0	43	0	472907776	65	4311
2026-01-23 08:43:32.72	111.50	31.95	-47.1	-48.8	18.7	0.00e+00	0	43	0	475004928	65	4477
2026-01-23 08:43:33.73	111.33	32.14	-47.4	-49.2	18.3	0.00e+00	0	42	0	477102080	66	4416
2026-01-23 08:43:34.74	111.15	32.32	-47.6	-49.5	17.9	0.00e+00	0	43	0	479199232	66	4552
2026-01-23 08:43:35.74	110.98	32.50	-48.3	-50.4	17.3	0.00e+00	0	43	0	481296384	67	4765
2026-01-23 08:43:36.75	110.80	32.69	-48.1	-50.1	17.5	0.00e+00	0	43	0	483393536	67	4633
2026-01-23 08:43:37.76	110.62	32.88	-48.1	-50.1	17.5	0.00e+00	0	43	0	484442112	67	4599
2026-01-23 08:43:38.77	110.43	33.06	-48.0	-50.0	17.6	0.00e+00	0	43	0	486539264	67	4575
2026-01-23 08:43:39.78	110.25	33.25	-48.0	-50.0	17.6	0.00e+00	0	43	0	488636416	67	4592
2026-01-23 08:43:40.79	110.06	33.44	-48.3	-50.4	17.1	0.00e+00	0	43	0	490733568	67	4798
2026-01-23 08:43:41.80	109.87	33.63	-48.6	-50.8	16.9	0.00e+00	0	43	0	492830720	68	4730
2026-01-23 08:43:42.80	109.68	33.82	-48.8	-51.1	16.6	0.00e+00	0	43	0	493879296	68	4890
2026-01-23 08:43:43.81	109.49	34.01	-49.4	-52.1	15.6	0.00e+00	0	43	0	495976448	69	5202
2026-01-23 08:43:44.82	109.29	34.20	-49.3	-51.8	15.8	0.00e+00	0	43	0	498073600	69	5038
2026-01-23 08:43:45.83	109.09	34.39	-49.3	-52.0	15.6	0.00e+00	0	43	0	500170752	69	5118
2026-01-23 08:43:46.84	108.89	34.59	-49.1	-51.7	15.8	0.00e+00	0	43	0	502267904	69	4966
2026-01-23 08:43:47.85	108.69	34.78	-49.5	-52.4	15.3	0.00e+00	0	43	0	503316480	69	5359
2026-01-23 08:43:48.86	108.48	34.98	-49.4	-52.3	15.6	0.00e+00	0	43	0	505413632	69	5307
2026-01-23 08:43:49.87	108.27	35.17	-49.2	-51.9	15.7	0.00e+00	0	43	0	507510784	69	5052
2026-01-23 08:43:50.87	108.06	35.37	-48.6	-51.0	16.6	0.00e+00	0	43	0	509607936	69	4557
2026-01-23 08:43:51.88	107.85	35.56	-47.8	-49.7	17.8	0.00e+00	0	43	0	511705088	67	4438
2026-01-23 08:43:52.89	107.63	35.76	-47.6	-49.5	17.9	0.00e+00	0	43	0	512753664	67	4339
2026-01-23 08:43:53.89	107.41	35.96	-47.4	-49.3	18.1	0.00e+00	0	43	0	514850816	66	4476
2026-01-23 08:43:54.90	107.19	36.16	-47.3	-49.1	18.4	0.00e+00	0	43	0	516947968	66	4353
2026-01-23 08:43:55.91	106.97	36.36	-47.1	-48.9	18.5	0.00e+00	0	43	0	519045120	66	4270
2026-01-23 08:43:56.92	106.74	36.56	-46.6	-48.3	19.1	0.00e+00	0	43	0	521142272	65	4201
2026-01-23 08:43:57.93	106.51	36.76	-46.2	-47.8	19.6	0.00e+00	0	43	0	522190848	64	4195
2026-01-23 08:43:58.94	106.27	36.97	-46.2	-47.7	19.7	0.00e+00	0	43	0	524288000	64	4156
2026-01-23 08:43:59.94	106.04	37.17	-45.9	-47.3	20.1	0.00e+00	0	43	0	526385152	63	4213
2026-01-23 08:44:00.95	105.80	37.37	-46.2	-47.7	19.7	0.00e+00	0	42	0	528482304	63	4399
2026-01-23 08:44:01.96	105.56	37.57	-46.5	-48.1	19.2	0.00e+00	0	43	0	530579456	64	4370
2026-01-23 08:44:02.97	105.31	37.78	-46.8	-48.4	19.0	0.00e+00	0	42	0	531628032	64	4526
2026-01-23 08:44:03.97	105.07	37.98	-47.1	-48.8	18.6	0.00e+00	0	43	0	533725184	64	4756
2026-01-23 08:44:04.99	104.81	38.19	-47.3	-49.1	18.3	0.00e+00	0	43	0	535822336	65	4644
2026-01-23 08:44:05.99	104.56	38.40	-47.5	-49.4	18.0	0.00e+00	0	43	0	537919488	65	4810
2026-01-23 08:44:07.00	104.30	38.61	-47.5	-49.5	17.9	0.00e+00	0	42	0	540016640	65	4826
2026-01-23 08:44:08.00	104.04	38.81	-47.7	-49.7	17.8	0.00e+00	0	43	0	541065216	67	4435
2026-01-23 08:44:09.01	103.78	39.02	-48.0	-50.1	17.4	0.00e+00	0	43	0	543162368	67	4626
2026-01-23 08:44:10.02	103.51	39.23	-47.7	-49.8	17.7	0.00e+00	0	43	0	545259520	67	4444
2026-01-23 08:44:11.03	103.24	39.44	-48.2	-50.5	16.9	0.00e+00	0	43	0	547356672	67	4870
2026-01-23 08:44:12.04	102.96	39.65	-47.7	-49.8	17.6	0.00e+00	0	43	0	549453824	67	4466
2026-01-23 08:44:13.05	102.68	39.86	-48.0	-50.1	17.4	0.00e+00	0	43	0	550502400	67	4646
2026-01-23 08:44:14.06	102.40	40.07	-48.0	-50.2	17.2	0.00e+00	0	43	0	552599552	67	4688
2026-01-23 08:44:15.06	102.11	40.28	-48.0	-50.1	17.4	0.00e+00	0	43	0	554696704	67	4604
2026-01-23 08:44:16.07	101.82	40.50	-48.2	-50.4	17.1	0.00e+00	0	43	0	556793856	67	4762
2026-01-23 08:44:17.08	101.53	40.71	-47.8	-49.9	17.5	0.00e+00	0	42	0	558891008	67	4529
2026-01-23 08:44:18.08	101.23	40.92	-48.1	-50.4	17.0	0.00e+00	0	43	0	559939584	67	4811
2026-01-23 08:44:19.09	100.93	41.13	-48.6	-51.1	16.3	0.00e+00	0	43	0	562036736	67	5211
2026-01-23 08:44:20.10	100.62	41.35	-48.4	-50.9	16.6	0.00e+00	0	43	0	564133888	67	5046
2026-01-23 08:44:21.11	100.31	41.56	-48.4	-50.8	16.5	0.00e+00	0	43	0	566231040	67	5015
2026-01-23 08:44:22.11	100.00	41.77	-47.6	-49.6	17.8	0.00e+00	0	43	0	568328192	67	4380
2026-01-23 08:44:23.12	99.68	41.99	-47.0	-48.8	18.6	0.00e+00	0	42	0	569376768	66	4197
2026-01-23 08:44:24.13	99.36	42.20	-46.8	-48.4	18.9	0.00e+00	0	43	0	571473920	65	4278
2026-01-23 08:44:25.14	99.03	42.42	-46.1	-47.6	19.8	0.00e+00	0	43	0	573571072	64	4101
2026-01-23 08:44:26.15	98.70	42.63	-46.4	-48.0	19.4	0.00e+00	0	43	0	575668224	64	4308
2026-01-23 08:44:27.15	98.37	42.85	-46.8	-48.6	18.8	0.00e+00	0	43	0	577765376	64	4616
2026-01-23 08:44:28.16	98.03	43.06	-46.9	-48.8	18.6	0.00e+00	0	43	0	578813952	64	4711
2026-01-23 08:44:29.17	97.68	43.28	-47.1	-49.0	18.4	0.00e+00	0	43	0	580911104	65	4571
2026-01-23 08:44:30.18	97.33	43.49	-47.4	-49.4	18.2	0.00e+00	0	43	0	583008256	65	4776
2026-01-23 08:44:31.19	96.97	43.71	-47.9	-49.9	17.6	0.00e+00	0	42	0	585105408	66	4791
2026-01-23 08:44:32.19	96.62	43.92	-48.5	-50.8	16.6	0.00e+00	0	43	0	587202560	67	5022
2026-01-23 08:44:33.20	96.25	44.14	-48.5	-50.9	16.7	0.00e+00	0	43	0	588251136	67	5045
2026-01-23 08:44:34.21	95.88	44.35	-48.5	-50.7	16.6	0.00e+00	0	43	0	590348288	67	4976
2026-01-23 08:44:35.22	95.51	44.57	-48.6	-51.0	16.4	0.00e+00	0	43	0	592445440	68	4837
2026-01-23 08:44:36.22	95.13	44.78	-49.0	-51.7	15.9	0.00e+00	0	43	0	594542592	68	5260
2026-01-23 08:44:37.23	94.75	45.00	-48.6	-51.2	16.3	0.00e+00	0	43	0	596639744	68	4933
2026-01-23 08:44:38.24	94.36	45.21	-47.4	-49.8	17.3	0.00e+00	0	42	0	598736896	67	4454
2026-01-23 08:44:39.25	93.96	45.42	-47.2	-49.0	18.3	0.00e+00	0	43	0	599785472	66	4325
2026-01-23 08:44:40.26	93.56	45.64	-47.3	-49.2	18.2	0.00e+00	0	43	0	601882624	66	4426
2026-01-23 08:44:41.27	93.15	45.85	-47.2	-49.0	18.3	0.00e+00	0	43	0	603979776	66	4329
2026-01-23 08:44:42.27	92.74	46.06	-46.7	-48.3	19.0	0.00e+00	0	43	0	606076928	65	4242
2026-01-23 08:44:43.28	92.33	46.27	-46.3	-47.8	19.4	0.00e+00	0	43	0	608174080	64	4237
2026-01-23 08:44:44.29	91.90	46.48	-46.2	-47.7	19.6	0.00e+00	0	43	0	609222656	64	4170
2026-01-23 08:44:45.30	91.47	46.69	-46.6	-48.2	19.2	0.00e+00	0	43	0	611319808	64	4395
2026-01-23 08:44:46.31	91.04	46.90	-47.0	-48.7	18.6	0.00e+00	0	42	0	613416960	64	4675
2026-01-23 08:44:47.32	90.60	47.11	-46.8	-48.5	18.8	0.00e+00	0	42	0	615514112	64	4563
2026-01-23 08:44:48.32	90.15	47.32	-46.8	-48.5	18.8	0.00e+00	0	43	0	616562688	64	4586
2026-01-23 08:44:49.33	89.70	47.53	-47.6	-49.6	17.8	0.00e+00	0	42	0	618659840	65	4920
2026-01-23 08:44:50.34	89.24	47.73	-48.2	-50.5	16.9	0.00e+00	0	43	0	620756992	67	4864
2026-01-23 08:44:51.35	88.78	47.94	-47.7	-49.7	17.7	0.00e+00	0	43	0	622854144	67	4416
2026-01-23 08:44:52.35	88.31	48.14	-46.8	-48.4	19.0	0.00e+00	0	43	0	624951296	65	4291
2026-01-23 08:44:53.36	87.83	48.34	-46.4	-47.9	19.3	0.00e+00	0	43	0	627048448	64	4279
2026-01-23 08:44:54.37	87.35	48.55	-46.4	-48.0	19.3	0.00e+00	0	43	0	628097024	64	4308
2026-01-23 08:44:55.38	86.86	48.75	-46.7	-48.5	18.8	0.00e+00	0	43	0	630194176	64	4550
2026-01-23 08:44:56.38	86.36	48.94	-46.2	-47.8	19.5	0.00e+00	0	43	0	632291328	64	4205
2026-01-23 08:44:57.39	85.86	49.14	-45.6	-46.9	20.4	0.00e+00	0	43	0	634388480	63	4038
2026-01-23 08:44:58.40	85.35	49.34	-45.2	-46.5	20.8	0.00e+00	0	42	0	636485632	62	4071
2026-01-23 08:44:59.41	84.84	49.53	-44.8	-46.0	21.3	0.00e+00	0	43	0	637534208	61	4055
2026-01-23 08:45:00.42	84.31	49.72	-44.6	-45.8	21.4	0.00e+00	0	43	0	639631360	60	4200
2026-01-23 08:45:01.42	83.79	49.91	-44.9	-46.1	21.1	0.00e+00	0	43	0	641728512	60	4356
2026-01-23 08:45:02.43	83.25	50.10	-45.6	-47.0	20.4	0.00e+00	0	43	0	643825664	61	4575
2026-01-23 08:45:03.44	82.71	50.29	-45.5	-46.9	20.3	0.00e+00	0	43	0	645922816	62	4264
2026-01-23 08:45:04.45	82.16	50.47	-44.9	-46.1	21.0	0.00e+00	0	43	0	646971392	61	4126
2026-01-23 08:45:05.46	81.60	50.66	-45.1	-46.3	20.8	0.00e+00	0	43	0	649068544	61	4231
2026-01-23 08:45:06.47	81.04	50.84	-46.0	-47.6	19.9	0.00e+00	0	43	0	651165696	62	4604
2026-01-23 08:45:07.48	80.47	51.02	-46.0	-47.6	19.8	0.00e+00	0	43	0	653262848	63	4347
2026-01-23 08:45:08.48	79.90	51.19	-45.6	-47.0	20.3	0.00e+00	0	43	0	655360000	63	4059
2026-01-23 08:45:09.49	79.31	51.36	-45.0	-46.2	21.0	0.00e+00	0	43	0	656408576	61	4174
2026-01-23 08:45:10.50	78.72	51.54	-44.6	-45.8	21.3	0.00e+00	0	43	0	658505728	61	3986
2026-01-23 08:45:11.51	78.13	51.70	-44.7	-45.9	21.2	0.00e+00	0	43	0	660602880	61	4032
2026-01-23 08:45:12.52	77.52	51.87	-45.1	-46.4	20.8	0.00e+00	0	42	0	662700032	61	4282
2026-01-23 08:45:13.52	76.92	52.03	-45.4	-46.8	20.4	0.00e+00	0	42	0	664797184	61	4491
2026-01-23 08:45:14.53	76.30	52.19	-46.0	-47.6	19.8	0.00e+00	0	43	0	665845760	62	4607
2026-01-23 08:45:15.54	75.68	52.35	-46.0	-47.6	19.8	0.00e+00	0	42	0	667942912	62	4602
2026-01-23 08:45:16.55	75.05	52.50	-45.5	-46.9	20.4	0.00e+00	0	43	0	670040064	62	4256
2026-01-23 08:45:17.56	74.41	52.65	-45.3	-46.7	20.5	0.00e+00	0	43	0	672137216	62	4163
2026-01-23 08:45:18.57	73.77	52.80	-45.4	-46.8	20.4	0.00e+00	0	43	0	674234368	62	4202
2026-01-23 08:45:19.58	73.12	52.95	-45.1	-46.5	20.5	0.00e+00	0	42	0	675282944	61	4306
2026-01-23 08:45:20.59	72.46	53.09	-44.8	-46.1	20.9	0.00e+00	0	43	0	677380096	61	4121
2026-01-23 08:45:21.60	71.80	53.22	-45.3	-46.7	20.5	0.00e+00	0	43	0	679477248	61	4429
2026-01-23 08:45:22.60	71.13	53.36	-45.4	-46.8	20.3	0.00e+00	0	42	0	681574400	61	4487
2026-01-23 08:45:23.61	70.46	53.49	-45.6	-47.0	20.2	0.00e+00	0	42	0	683671552	61	4567
2026-01-23 08:45:24.62	69.78	53.61	-45.4	-46.8	20.5	0.00e+00	0	43	0	684720128	61	4474
2026-01-23 08:45:25.63	69.09	53.74	-46.0	-47.6	19.7	0.00e+00	0	43	0	686817280	62	4638
2026-01-23 08:45:26.64	68.40	53.86	-45.9	-47.5	19.7	0.00e+00	0	42	0	688914432	63	4327
2026-01-23 08:45:27.64	67.71	53.97	-45.0	-46.4	20.7	0.00e+00	0	43	0	691011584	61	4275
2026-01-23 08:45:28.65	67.00	54.08	-44.8	-46.1	20.9	0.00e+00	0	43	0	693108736	61	4121
2026-01-23 08:45:29.66	66.29	54.19	-44.9	-46.3	20.8	0.00e+00	0	43	0	694157312	61	4223
2026-01-23 08:45:30.67	65.58	54.29	-44.8	-46.2	20.9	0.00e+00	0	43	0	696254464	61	4175
2026-01-23 08:45:31.68	64.86	54.39	-44.4	-45.6	21.4	0.00e+00	0	43	0	698351616	60	4143
2026-01-23 08:45:32.68	64.14	54.48	-44.1	-45.4	21.6	0.00e+00	0	43	0	700448768	60	4024
2026-01-23 08:45:33.69	63.41	54.57	-44.2	-45.4	21.6	0.00e+00	0	43	0	702545920	59	4291
2026-01-23 08:45:34.70	62.68	54.65	-43.9	-45.1	22.1	0.00e+00	0	42	0	703594496	59	4106
2026-01-23 08:45:35.71	61.94	54.73	-43.4	-44.5	22.5	0.00e+00	0	43	0	705691648	58	4083
2026-01-23 08:45:36.72	61.20	54.81	-42.8	-43.9	23.1	0.00e+00	0	43	0	707788800	57	4005
2026-01-23 08:45:37.72	60.46	54.88	-42.9	-44.0	23.0	0.00e+00	0	43	0	709885952	57	4056
2026-01-23 08:45:38.73	59.72	54.94	-43.3	-44.5	22.6	0.00e+00	0	43	0	711983104	57	4308
2026-01-23 08:45:39.74	58.96	55.00	-43.5	-44.7	22.4	0.00e+00	0	43	0	713031680	57	4402
2026-01-23 08:45:40.75	58.21	55.06	-43.6	-44.8	22.2	0.00e+00	0	43	0	715128832	58	4234
2026-01-23 08:45:41.75	57.46	55.11	-43.8	-45.1	22.0	0.00e+00	0	43	0	717225984	58	4364
2026-01-23 08:45:42.76	56.70	55.16	-43.5	-44.7	22.3	0.00e+00	0	43	0	719323136	58	4148
2026-01-23 08:45:43.77	55.93	55.20	-43.1	-44.2	22.8	0.00e+00	0	43	0	721420288	58	3945
2026-01-23 08:45:44.77	55.18	55.23	-42.6	-43.6	23.2	0.00e+00	0	43	0	722468864	57	3891
2026-01-23 08:45:45.78	54.41	55.26	-42.7	-43.8	23.1	0.00e+00	0	43	0	724566016	56	4208
2026-01-23 08:45:46.79	53.64	55.29	-43.2	-44.3	22.7	0.00e+00	0	43	0	726663168	57	4226
2026-01-23 08:45:47.80	52.87	55.31	-43.9	-45.2	22.1	0.00e+00	0	43	0	728760320	58	4395
2026-01-23 08:45:48.81	52.10	55.33	-44.1	-45.3	21.9	0.00e+00	0	42	0	730857472	59	4228
2026-01-23 08:45:49.82	51.33	55.34	-43.3	-44.4	22.7	0.00e+00	0	43	0	731906048	58	4043
2026-01-23 08:45:50.82	50.57	55.34	-43.1	-44.1	22.9	0.00e+00	0	43	0	734003200	57	4144
2026-01-23 08:45:51.83	49.79	55.34	-43.6	-44.7	22.5	0.00e+00	0	43	0	736100352	57	4409
2026-01-23 08:45:52.84	49.02	55.34	-43.6	-44.8	22.4	0.00e+00	0	43	0	738197504	58	4194
2026-01-23 08:45:53.85	48.25	55.33	-43.8	-45.0	22.3	0.00e+00	0	43	0	740294656	58	4297
2026-01-23 08:45:54.86	47.48	55.31	-43.9	-45.1	22.1	0.00e+00	0	43	0	742391808	58	4364
2026-01-23 08:45:55.87	46.71	55.29	-43.8	-44.9	22.3	0.00e+00	0	43	0	743440384	59	4050
2026-01-23 08:45:56.88	45.94	55.27	-43.4	-44.5	22.7	0.00e+00	0	43	0	745537536	58	4067
2026-01-23 08:45:57.88	45.18	55.24	-43.6	-44.8	22.4	0.00e+00	0	43	0	747634688	58	4205
2026-01-23 08:45:58.89	44.42	55.20	-44.1	-45.4	21.9	0.00e+00	0	43	0	749731840	58	4509
2026-01-23 08:45:59.90	43.65	55.16	-44.2	-45.4	21.9	0.00e+00	0	43	0	750780416	59	4278
2026-01-23 08:46:00.91	42.89	55.12	-43.9	-45.1	22.1	0.00e+00	0	43	0	752877568	59	4124
2026-01-23 08:46:01.91	42.14	55.07	-43.4	-44.5	22.6	0.00e+00	0	43	0	754974720	58	4075
2026-01-23 08:46:02.92	41.39	55.01	-43.0	-44.0	22.9	0.00e+00	0	43	0	757071872	58	3866
2026-01-23 08:46:03.93	40.63	54.95	-42.3	-43.3	23.6	0.00e+00	0	43	0	759169024	56	3981
2026-01-23 08:46:04.94	39.89	54.89	-42.4	-43.4	23.6	0.00e+00	0	42	0	761266176	56	4017
2026-01-23 08:46:05.94	39.15	54.82	-42.5	-43.5	23.4	0.00e+00	0	43	0	762314752	56	4093
2026-01-23 08:46:06.95	38.41	54.75	-42.5	-43.5	23.4	0.00e+00	0	43	0	764411904	56	4084
2026-01-23 08:46:07.96	37.67	54.67	-42.4	-43.4	23.5	0.00e+00	0	43	0	766509056	56	4030
2026-01-23 08:46:08.97	36.93	54.58	-42.2	-43.2	23.7	0.00e+00	0	42	0	768606208	56	3939
2026-01-23 08:46:09.98	36.21	54.49	-41.9	-42.8	23.8	0.00e+00	0	43	0	770703360	55	3995
2026-01-23 08:46:10.99	35.48	54.40	-42.2	-43.2	23.6	0.00e+00	0	43	0	771751936	55	4161
2026-01-23 08:46:11.99	34.77	54.31	-42.3	-43.3	23.5	0.00e+00	0	43	0	773849088	55	4204
2026-01-23 08:46:13.00	34.05	54.20	-41.7	-42.6	24.1	0.00e+00	0	43	0	775946240	55	3882
2026-01-23 08:46:14.01	33.34	54.10	-42.4	-43.3	23.4	0.00e+00	0	43	0	778043392	55	4226
2026-01-23 08:46:15.02	32.64	53.99	-43.5	-44.7	22.5	0.00e+00	0	42	0	779091968	57	4392
2026-01-23 08:46:16.03	31.94	53.88	-43.8	-44.9	22.3	0.00e+00	0	43	0	781189120	58	4275
2026-01-23 08:46:17.04	31.25	53.76	-43.2	-44.2	23.0	0.00e+00	0	42	0	783286272	58	3939
2026-01-23 08:46:18.05	30.56	53.64	-43.4	-44.5	22.8	0.00e+00	0	42	0	785383424	58	4057
2026-01-23 08:46:19.06	29.88	53.51	-44.2	-45.3	22.1	0.00e+00	0	43	0	787480576	58	4490
2026-01-23 08:46:20.06	29.21	53.38	-44.5	-45.7	21.6	0.00e+00	0	43	0	789577728	60	4191
2026-01-23 08:46:21.07	28.54	53.25	-44.5	-45.8	21.4	0.00e+00	0	42	0	790626304	60	4197
2026-01-23 08:46:22.08	27.88	53.11	-44.9	-46.1	21.2	0.00e+00	0	43	0	792723456	60	4366
2026-01-23 08:46:23.09	27.22	52.97	-45.1	-46.4	20.8	0.00e+00	0	43	0	794820608	60	4531
2026-01-23 08:46:24.10	26.57	52.83	-45.5	-46.9	20.4	0.00e+00	0	43	0	796917760	61	4524
2026-01-23 08:46:25.11	25.93	52.68	-44.7	-45.9	21.4	0.00e+00	0	43	0	799014912	61	4012
2026-01-23 08:46:26.11	25.30	52.53	-44.9	-46.1	21.1	0.00e+00	0	43	0	800063488	61	4136
2026-01-23 08:46:27.12	24.66	52.38	-46.1	-47.7	19.9	0.00e+00	0	42	0	802160640	62	4657
2026-01-23 08:46:28.13	24.04	52.22	-46.1	-47.6	19.9	0.00e+00	0	43	0	804257792	63	4384
2026-01-23 08:46:29.14	23.42	52.06	-45.5	-46.8	20.5	0.00e+00	0	43	0	806354944	62	4226
2026-01-23 08:46:30.15	22.81	51.90	-45.4	-46.7	20.6	0.00e+00	0	43	0	808452096	62	4193
2026-01-23 08:46:31.15	22.21	51.74	-45.4	-46.7	20.7	0.00e+00	0	43	0	809500672	62	4152
2026-01-23 08:46:32.16	21.62	51.57	-44.7	-45.9	21.4	0.00e+00	0	42	0	811597824	61	4016
2026-01-23 08:46:33.17	21.03	51.40	-44.7	-45.9	21.3	0.00e+00	0	42	0	813694976	61	4051
2026-01-23 08:46:34.18	20.44	51.23	-45.6	-47.0	20.4	0.00e+00	0	43	0	815792128	61	4577
2026-01-23 08:46:35.18	19.87	51.05	-45.8	-47.2	20.2	0.00e+00	0	43	0	817889280	62	4417
2026-01-23 08:46:36.19	19.30	50.88	-45.7	-47.0	20.4	0.00e+00	0	43	0	818937856	62	4335
2026-01-23 08:46:37.20	18.74	50.70	-45.2	-46.5	20.9	0.00e+00	0	43	0	821035008	62	4060
2026-01-23 08:46:38.21	18.18	50.51	-44.3	-45.4	21.8	0.00e+00	0	43	0	823132160	60	4020
2026-01-23 08:46:39.22	17.63	50.33	-44.4	-45.6	21.5	0.00e+00	0	43	0	825229312	60	4118
2026-01-23 08:46:40.22	17.09	50.14	-44.8	-46.1	21.1	0.00e+00	0	43	0	827326464	61	4123
2026-01-23 08:46:41.23	16.55	49.96	-45.7	-47.1	20.2	0.00e+00	0	43	0	828375040	62	4353
2026-01-23 08:46:42.24	16.02	49.77	-45.2	-46.4	20.7	0.00e+00	0	42	0	830472192	61	4288
2026-01-23 08:46:43.25	15.50	49.57	-45.3	-46.6	20.7	0.00e+00	0	43	0	832569344	61	4379
2026-01-23 08:46:44.26	14.98	49.38	-45.6	-47.0	20.3	0.00e+00	0	43	0	834666496	61	4584
2026-01-23 08:46:45.26	14.48	49.19	-46.5	-48.1	19.4	0.00e+00	0	43	0	836763648	63	4626
2026-01-23 08:46:46.27	13.97	48.99	-46.4	-47.9	19.6	0.00e+00	0	42	0	837812224	63	4530
2026-01-23 08:46:47.28	13.48	48.79	-46.5	-48.1	19.5	0.00e+00	0	42	0	839909376	63	4601
2026-01-23 08:46:48.29	12.99	48.59	-45.7	-47.0	20.4	0.00e+00	0	42	0	842006528	62	4334
2026-01-23 08:46:49.30	12.50	48.39	-46.6	-48.1	19.5	0.00e+00	0	42	0	844103680	63	4623
2026-01-23 08:46:50.30	12.03	48.19	-46.7	-48.3	19.2	0.00e+00	0	42	0	846200832	64	4458
2026-01-23 08:46:51.31	11.56	47.99	-48.0	-50.1	17.6	0.00e+00	0	43	0	847249408	66	4906
2026-01-23 08:46:52.32	11.09	47.78	-49.0	-51.5	16.3	0.00e+00	0	43	0	849346560	68	5137
2026-01-23 08:46:53.33	10.63	47.58	-50.1	-53.5	14.3	0.00e+00	0	43	0	851443712	71	5440
2026-01-23 08:46:54.34	10.18	47.37	-49.7	-52.6	15.1	3.80e-06	0	43	0	853540864	71	4892
2026-01-23 08:46:55.34	9.74	47.17	-49.3	-51.9	15.7	0.00e+00	0	43	0	855638016	70	4767
2026-01-23 08:46:56.35	9.29	46.96	-49.3	-52.0	15.8	0.00e+00	0	43	0	857735168	69	5109
2026-01-23 08:46:57.36	8.86	46.75	-48.1	-50.1	17.6	0.00e+00	0	43	0	858783744	68	4350
2026-01-23 08:46:58.37	8.43	46.54	-47.1	-48.7	18.8	0.00e+00	0	43	0	860880896	66	4186
2026-01-23 08:46:59.38	8.01	46.33	-47.1	-48.7	18.9	0.00e+00	0	43	0	862978048	66	4187
2026-01-23 08:47:00.38	7.59	46.12	-47.7	-49.6	18.1	0.00e+00	0	43	0	865075200	66	4623
2026-01-23 08:47:01.39	7.18	45.91	-48.2	-50.2	17.4	0.00e+00	0	43	0	866123776	67	4679
2026-01-23 08:47:02.40	6.77	45.69	-47.5	-49.2	18.3	0.00e+00	0	43	0	868220928	67	4192
2026-01-23 08:47:03.41	6.37	45.48	-46.6	-48.1	19.4	0.00e+00	0	43	0	870318080	65	4130
2026-01-23 08:47:04.42	5.97	45.27	-45.9	-47.3	20.3	0.00e+00	0	43	0	872415232	63	4198
2026-01-23 08:47:05.42	5.59	45.06	-45.6	-46.9	20.6	0.00e+00	0	43	0	874512384	63	4034
2026-01-23 08:47:06.43	5.20	44.84	-46.5	-48.1	19.4	0.00e+00	0	42	0	875560960	64	4362
2026-01-23 08:47:07.44	4.82	44.63	-48.4	-50.7	17.1	0.00e+00	0	43	0	877658112	67	4936
2026-01-23 08:47:08.45	4.45	44.41	-49.2	-51.7	16.1	0.00e+00	0	43	0	879755264	69	4977
2026-01-23 08:47:09.46	4.08	44.20	-47.9	-49.8	17.8	0.00e+00	0	43	0	881852416	67	4443
2026-01-23 08:47:10.47	3.71	43.98	-47.1	-48.8	18.8	0.00e+00	0	42	0	883949568	66	4206
2026-01-23 08:47:11.48	3.35	43.77	-47.1	-48.8	18.9	0.00e+00	0	43	0	886046720	65	4483
2026-01-23 08:47:12.48	3.00	43.56	-47.7	-49.6	18.0	0.00e+00	0	43	0	887095296	65	4907
2026-01-23 08:47:13.49	2.65	43.34	-48.5	-50.8	16.8	0.00e+00	0	43	0	889192448	67	5005
2026-01-23 08:47:14.50	2.30	43.13	-48.7	-51.1	16.6	0.00e+00	0	42	0	891289600	68	4877
2026-01-23 08:47:15.51	1.96	42.91	-47.5	-49.3	18.2	0.00e+00	0	43	0	893386752	67	4217
2026-01-23 08:47:16.52	1.62	42.70	-47.0	-48.6	18.8	0.00e+00	0	42	0	894435328	65	4366
2026-01-23 08:47:17.52	1.29	42.48	-45.9	-47.2	20.2	0.00e+00	0	43	0	896532480	63	4193
2026-01-23 08:47:18.53	0.97	42.27	-46.0	-47.3	20.2	0.00e+00	0	43	0	898629632	63	4227
2026-01-23 08:47:19.54	0.64	42.06	-46.1	-47.5	19.8	0.00e+00	0	43	0	900726784	63	4295
2026-01-23 08:47:20.55	0.32	41.84	-46.2	-47.7	19.8	0.00e+00	0	43	0	902823936	63	4404
2026-01-23 08:47:21.55	0.01	41.63	-46.7	-48.3	19.2	0.00e+00	0	43	0	904921088	63	4719
2026-01-23 08:47:22.56	359.70	41.42	-47.1	-48.9	18.6	0.00e+00	0	43	0	905969664	65	4502
2026-01-23 08:47:23.57	359.40	41.20	-47.4	-49.2	18.2	0.00e+00	0	43	0	908066816	65	4700
2026-01-23 08:47:24.58	359.09	40.99	-47.8	-49.8	17.8	0.00e+00	0	43	0	910163968	66	4736
2026-01-23 08:47:25.59	358.79	40.78	-48.0	-50.1	17.5	0.00e+00	0	42	0	912261120	66	4888
2026-01-23 08:47:26.60	358.50	40.56	-48.6	-50.9	16.8	0.00e+00	0	43	0	914358272	67	5078
2026-01-23 08:47:27.60	358.21	40.35	-48.3	-50.4	16.8	0.00e+00	0	43	0	915406848	68	4539
2026-01-23 08:47:28.61	357.93	40.14	-48.2	-50.4	17.3	0.00e+00	0	43	0	917504000	68	4538
2026-01-23 08:47:29.62	357.64	39.93	-48.2	-50.3	17.3	0.00e+00	0	43	0	919601152	68	4486
2026-01-23 08:47:30.63	357.36	39.72	-47.9	-49.9	17.6	0.00e+00	0	43	0	921698304	67	4537
2026-01-23 08:47:31.64	357.09	39.51	-47.8	-49.9	17.6	0.00e+00	0	43	0	922746880	67	4497
2026-01-23 08:47:32.64	356.82	39.30	-47.8	-49.9	17.6	0.00e+00	0	42	0	924844032	67	4502
2026-01-23 08:47:33.65	356.55	39.10	-47.4	-49.2	18.2	0.00e+00	0	43	0	926941184	66	4432
2026-01-23 08:47:34.66	356.28	38.89	-47.3	-49.2	18.3	0.00e+00	0	43	0	929038336	66	4392
2026-01-23 08:47:35.67	356.02	38.68	-47.7	-49.6	17.9	0.00e+00	0	43	0	931135488	66	4640
2026-01-23 08:47:36.67	355.77	38.47	-47.8	-49.8	17.7	0.00e+00	0	43	0	933232640	66	4719
2026-01-23 08:47:37.68	355.51	38.27	-47.7	-49.6	17.8	0.00e+00	0	43	0	934281216	66	4624
2026-01-23 08:47:38.69	355.26	38.06	-47.1	-48.8	18.7	0.00e+00	0	43	0	936378368	65	4489
2026-01-23 08:47:39.70	355.01	37.86	-47.1	-48.9	18.5	0.00e+00	0	43	0	938475520	65	4509
2026-01-23 08:47:40.71	354.76	37.65	-46.9	-48.5	18.7	0.00e+00	0	43	0	940572672	65	4322
2026-01-23 08:47:41.72	354.52	37.45	-47.0	-48.7	18.6	0.00e+00	0	43	0	942669824	65	4408
2026-01-23 08:47:42.72	354.28	37.25	-46.5	-48.1	19.2	0.00e+00	0	43	0	943718400	65	4124
2026-01-23 08:47:43.73	354.05	37.04	-46.7	-48.3	19.1	0.00e+00	0	43	0	945815552	64	4486
2026-01-23 08:47:44.74	353.81	36.84	-46.9	-48.6	18.8	0.00e+00	0	43	0	947912704	64	4633
2026-01-23 08:47:45.75	353.58	36.64	-47.4	-49.2	18.2	0.00e+00	0	43	0	950009856	65	4679
2026-01-23 08:47:46.75	353.36	36.44	-47.2	-49.0	18.5	0.00e+00	0	43	0	952107008	65	4546
2026-01-23 08:47:47.76	353.13	36.24	-47.5	-49.3	18.2	0.00e+00	0	43	0	953155584	65	4737
2026-01-23 08:47:48.77	352.91	36.04	-47.6	-49.6	17.9	0.00e+00	0	42	0	955252736	65	4885
2026-01-23 08:47:49.78	352.69	35.84	-48.0	-50.1	17.4	0.00e+00	0	43	0	957349888	66	4875
2026-01-23 08:47:50.79	352.48	35.65	-48.1	-50.2	17.4	0.00e+00	0	43	0	959447040	66	4958
2026-01-23 08:47:51.79	352.26	35.45	-47.9	-50.0	17.6	0.00e+00	0	43	0	961544192	66	4824
2026-01-23 08:47:52.80	352.05	35.25	-47.5	-49.3	18.3	0.00e+00	0	43	0	962592768	66	4464
2026-01-23 08:47:53.81	351.84	35.06	-46.9	-48.5	19.0	0.00e+00	0	43	0	964689920	65	4323
2026-01-23 08:47:54.82	351.64	34.86	-46.7	-48.3	19.2	0.00e+00	0	43	0	966787072	65	4206
2026-01-23 08:47:55.83	351.43	34.67	-47.4	-49.1	18.3	0.00e+00	0	43	0	968884224	65	4650
2026-01-23 08:47:56.83	351.23	34.48	-47.9	-49.8	17.7	0.00e+00	0	43	0	970981376	66	4751
2026-01-23 08:47:57.84	351.03	34.29	-48.1	-50.2	17.4	0.00e+00	0	43	0	972029952	66	4946
2026-01-23 08:47:58.85	350.84	34.10	-47.6	-49.5	18.0	0.00e+00	0	43	0	974127104	66	4577
2026-01-23 08:47:59.86	350.64	33.90	-47.4	-49.2	18.3	0.00e+00	0	43	0	976224256	66	4404
2026-01-23 08:48:00.87	350.45	33.71	-47.0	-48.7	18.8	0.00e+00	0	43	0	978321408	66	4152
2026-01-23 08:48:01.88	350.26	33.53	-47.1	-48.8	18.6	0.00e+00	0	43	0	980418560	65	4475
2026-01-23 08:48:02.88	350.08	33.34	-47.7	-49.7	17.9	0.00e+00	0	43	0	981467136	66	4664
2026-01-23 08:48:03.89	349.89	33.15	-47.8	-49.8	17.7	0.00e+00	0	43	0	983564288	66	4715
2026-01-23 08:48:04.90	349.71	32.96	-47.4	-49.2	18.0	0.00e+00	0	43	0	985661440	66	4416
2026-01-23 08:48:05.91	349.53	32.78	-47.2	-49.0	18.5	0.00e+00	0	43	0	987758592	66	4334
2026-01-23 08:48:06.92	349.35	32.59	-47.3	-49.1	18.4	0.00e+00	0	43	0	989855744	66	4371
2026-01-23 08:48:07.93	349.17	32.41	-47.1	-48.8	18.6	0.00e+00	0	43	0	990904320	65	4468
2026-01-23 08:48:08.93	349.00	32.23	-47.6	-49.5	18.0	0.00e+00	0	42	0	993001472	65	4828
2026-01-23 08:48:09.94	348.82	32.05	-47.6	-49.6	17.9	0.00e+00	0	43	0	995098624	65	4873
2026-01-23 08:48:10.95	348.65	31.86	-47.4	-49.2	18.3	0.00e+00	0	43	0	997195776	66	4417
2026-01-23 08:48:11.96	348.48	31.68	-46.8	-48.4	19.1	0.00e+00	0	43	0	999292928	65	4252
2026-01-23 08:48:12.97	348.32	31.50	-46.7	-48.3	19.2	0.00e+00	0	42	0	1000341504	64	4448
2026-01-23 08:48:13.98	348.15	31.32	-46.5	-48.0	19.4	0.00e+00	0	43	0	1002438656	64	4332
2026-01-23 08:48:14.98	347.99	31.15	-46.8	-48.4	19.1	0.00e+00	0	43	0	1004535808	64	4541
2026-01-23 08:48:15.99	347.83	30.97	-47.4	-49.3	18.2	0.00e+00	0	43	0	1006632960	65	4706
2026-01-23 08:48:17.00	347.67	30.79	-47.8	-49.7	17.8	0.00e+00	0	43	0	1008730112	66	4696
2026-01-23 08:48:18.01	347.51	30.62	-47.5	-49.3	18.1	0.00e+00	0	43	0	1009778688	66	4471
2026-01-23 08:48:19.02	347.35	30.44	-46.6	-48.2	19.2	0.00e+00	0	43	0	1011875840	65	4147
2026-01-23 08:48:20.02	347.20	30.27	-46.1	-47.5	19.8	0.00e+00	0	43	0	1013972992	64	4090
2026-01-23 08:48:21.03	347.05	30.09	-46.1	-47.5	19.9	0.00e+00	0	43	0	1016070144	63	4298
2026-01-23 08:48:22.04	346.90	29.92	-46.1	-47.6	19.9	0.00e+00	0	43	0	1018167296	63	4342
2026-01-23 08:48:23.05	346.75	29.75	-46.6	-48.1	19.4	0.00e+00	0	43	0	1020264448	63	4622
2026-01-23 08:48:24.06	346.60	29.58	-47.0	-48.7	18.8	0.00e+00	0	43	0	1021313024	64	4671
2026-01-23 08:48:25.06	346.45	29.41	-46.7	-48.3	19.1	0.00e+00	0	43	0	1023410176	64	4456
2026-01-23 08:48:26.07	346.31	29.24	-46.3	-47.8	19.6	0.00e+00	0	43	0	1025507328	64	4224
2026-01-23 08:48:27.08	346.17	29.07	-45.8	-47.2	20.1	0.00e+00	0	43	0	1027604480	63	4151
2026-01-23 08:48:28.09	346.03	28.90	-45.6	-46.9	20.5	0.00e+00	0	43	0	1028653056	63	4026
2026-01-23 08:48:29.10	345.89	28.74	-45.4	-46.7	20.6	0.00e+00	0	43	0	1030750208	62	4150
2026-01-23 08:48:30.10	345.75	28.57	-45.7	-47.0	20.3	0.00e+00	0	43	0	1032847360	62	4326
2026-01-23 08:48:31.11	345.61	28.41	-45.9	-47.2	20.1	0.00e+00	0	43	0	1034944512	62	4438
2026-01-23 08:48:32.12	345.47	28.24	-46.0	-47.4	20.0	0.00e+00	0	43	0	1037041664	62	4513
2026-01-23 08:48:33.13	345.34	28.08	-46.5	-48.1	19.4	0.00e+00	0	43	0	1038090240	63	4603
2026-01-23 08:48:34.13	345.21	27.92	-46.7	-48.3	19.1	0.00e+00	0	43	0	1040187392	64	4460
2026-01-23 08:48:35.14	345.08	27.75	-46.7	-48.3	19.0	0.00e+00	0	43	0	1042284544	64	4490
2026-01-23 08:48:36.15	344.95	27.59	-46.6	-48.2	19.1	0.00e+00	0	43	0	1044381696	64	4432
2026-01-23 08:48:37.16	344.82	27.43	-46.7	-48.4	19.0	0.00e+00	0	43	0	1046478848	64	4500
2026-01-23 08:48:38.17	344.69	27.27	-47.0	-48.7	18.7	0.00e+00	0	43	0	1048576000	64	4657
2026-01-23 08:48:39.18	344.56	27.11	-47.2	-49.0	18.4	0.00e+00	0	43	0	1049624576	64	4822
2026-01-23 08:48:40.18	344.44	26.95	-47.3	-49.1	18.3	0.00e+00	0	43	0	1051721728	65	4640
2026-01-23 08:48:41.19	344.32	26.80	-47.1	-48.9	18.5	0.00e+00	0	43	0	1053818880	65	4498
2026-01-23 08:48:42.20	344.19	26.64	-46.8	-48.4	18.8	0.00e+00	0	43	0	1055916032	65	4288
2026-01-23 08:48:43.21	344.07	26.48	-46.3	-47.8	19.5	0.00e+00	0	43	0	1056964608	64	4224
2026-01-23 08:48:44.22	343.95	26.33	-46.1	-47.5	19.9	0.00e+00	0	43	0	1059061760	63	4303
2026-01-23 08:48:45.23	343.83	26.17	-45.7	-47.0	20.3	0.00e+00	0	43	0	1061158912	63	4083
2026-01-23 08:48:46.24	343.72	26.02	-45.8	-47.2	20.1	0.00e+00	0	43	0	1063256064	63	4158
2026-01-23 08:48:47.24	343.60	25.87	-45.9	-47.3	20.1	0.00e+00	0	43	0	1065353216	63	4199
2026-01-23 08:48:48.25	343.49	25.72	-46.3	-47.8	19.6	0.00e+00	0	43	0	1067450368	63	4478
2026-01-23 08:48:49.26	343.37	25.56	-46.6	-48.2	19.1	0.00e+00	0	43	0	1068498944	64	4418
2026-01-23 08:48:50.27	343.26	25.41	-47.1	-48.9	18.5	0.00e+00	0	43	0	1070596096	65	4510
2026-01-23 08:48:51.28	343.15	25.26	-47.4	-49.3	18.1	0.00e+00	0	43	0	1072693248	65	4727
2026-01-23 08:48:52.29	343.04	25.11	-47.4	-49.2	18.1	0.00e+00	0	43	0	1074790400	65	4684
2026-01-23 08:48:53.30	342.93	24.96	-47.7	-49.6	17.8	0.00e+00	0	43	0	1076887552	66	4626
2026-01-23 08:48:54.31	342.82	24.82	-47.4	-49.1	18.2	0.00e+00	0	43	0	1077936128	66	4391
2026-01-23 08:48:55.32	342.71	24.67	-47.3	-49.0	18.3	0.00e+00	0	43	0	1080033280	66	4320
2026-01-23 08:48:56.33	342.60	24.52	-47.3	-49.1	18.3	0.00e+00	0	43	0	1082130432	66	4363
2026-01-23 08:48:57.34	342.50	24.38	-47.2	-48.9	18.4	0.00e+00	0	43	0	1084227584	66	4266
2026-01-23 08:48:58.34	342.39	24.23	-47.2	-49.0	18.3	0.00e+00	0	42	0	1086324736	66	4308
2026-01-23 08:48:59.35	342.29	24.09	-47.3	-49.0	18.2	0.00e+00	0	43	0	1087373312	66	4335
2026-01-23 08:49:00.36	342.19	23.94	-47.4	-49.1	18.1	0.00e+00	0	43	0	1089470464	66	4386
2026-01-23 08:49:01.37	342.09	23.80	-47.5	-49.3	17.9	0.00e+00	0	43	0	1091567616	66	4493
2026-01-23 08:49:02.38	341.99	23.66	-47.3	-49.1	18.2	0.00e+00	0	43	0	1093664768	66	4347
2026-01-23 08:49:03.39	341.89	23.52	-46.9	-48.6	18.6	0.00e+00	0	43	0	1095761920	65	4363
2026-01-23 08:49:04.40	341.79	23.37	-46.8	-48.4	18.8	0.00e+00	0	43	0	1096810496	65	4282
2026-01-23 08:49:05.41	341.69	23.23	-46.6	-48.2	19.0	0.00e+00	0	43	0	1098907648	64	4411
2026-01-23 08:49:06.42	341.59	23.09	-46.3	-47.8	19.3	0.00e+00	0	43	0	1101004800	64	4230
2026-01-23 08:49:07.42	341.50	22.96	-46.6	-48.1	19.1	0.00e+00	0	43	0	1103101952	64	4381
2026-01-23 08:49:08.43	341.40	22.82	-46.6	-48.2	19.0	0.00e+00	0	43	0	1105199104	64	4424
2026-01-23 08:49:09.44	341.31	22.68	-46.6	-48.2	19.0	0.00e+00	0	43	0	1106247680	64	4435
2026-01-23 08:49:10.45	341.21	22.54	-46.8	-48.4	18.9	0.00e+00	0	42	0	1108344832	64	4537
2026-01-23 08:49:11.46	341.12	22.41	-46.7	-48.2	18.9	0.00e+00	0	43	0	1110441984	64	4433
2026-01-23 08:49:12.47	341.03	22.27	-46.7	-48.3	18.9	0.00e+00	0	43	0	1112539136	64	4487
2026-01-23 08:49:13.48	340.94	22.14	-46.7	-48.3	18.9	0.00e+00	0	43	0	1114636288	64	4480
2026-01-23 08:49:14.48	340.85	22.00	-46.7	-48.3	19.0	0.00e+00	0	43	0	1115684864	64	4450
2026-01-23 08:49:15.49	340.76	21.87	-46.3	-47.7	19.5	0.00e+00	0	43	0	1117782016	64	4188
2026-01-23 08:49:16.50	340.67	21.73	-46.3	-47.7	19.6	0.00e+00	0	43	0	1119879168	63	4411
2026-01-23 08:49:17.51	340.58	21.60	-46.1	-47.5	19.8	0.00e+00	0	43	0	1121976320	63	4302
2026-01-23 08:49:18.52	340.50	21.47	-45.8	-47.2	20.0	0.00e+00	0	43	0	1124073472	63	4168
2026-01-23 08:49:19.53	340.41	21.34	-45.9	-47.2	20.0	0.00e+00	0	43	0	1125122048	63	4189
2026-01-23 08:49:20.53	340.33	21.21	-45.8	-47.2	20.1	0.00e+00	0	43	0	1127219200	63	4156
2026-01-23 08:49:21.54	340.24	21.08	-45.9	-47.3	19.9	0.00e+00	0	43	0	1129316352	63	4238
2026-01-23 08:49:22.55	340.16	20.95	-46.0	-47.4	19.7	0.00e+00	0	43	0	1131413504	63	4281
2026-01-23 08:49:23.56	340.07	20.82	-46.4	-48.0	19.4	0.00e+00	0	43	0	1133510656	63	4546
2026-01-23 08:49:24.57	339.99	20.69	-46.6	-48.2	19.1	0.00e+00	0	43	0	1134559232	63	4675
2026-01-23 08:49:25.58	339.91	20.56	-46.9	-48.7	18.5	0.00e+00	0	43	0	1136656384	64	4654
2026-01-23 08:49:26.58	339.83	20.44	-47.2	-49.1	18.2	0.00e+00	0	43	0	1138753536	65	4601
2026-01-23 08:49:27.59	339.75	20.31	-47.4	-49.3	17.9	0.00e+00	0	43	0	1140850688	65	4753
2026-01-23 08:49:28.60	339.67	20.18	-47.7	-49.7	17.6	0.00e+00	0	43	0	1142947840	66	4697
2026-01-23 08:49:29.61	339.59	20.06	-48.1	-50.3	17.0	0.00e+00	0	43	0	1143996416	66	5013
2026-01-23 08:49:30.62	339.51	19.93	-47.8	-49.8	17.5	0.00e+00	0	43	0	1146093568	66	4720
2026-01-23 08:49:31.63	339.43	19.81	-47.9	-50.0	17.3	0.00e+00	0	43	0	1148190720	66	4820
2026-01-23 08:49:32.64	339.36	19.69	-47.9	-49.9	17.3	0.00e+00	0	43	0	1150287872	66	4793
2026-01-23 08:49:33.65	339.28	19.56	-47.7	-49.6	17.6	0.00e+00	0	43	0	1152385024	66	4641
2026-01-23 08:49:34.65	339.21	19.44	-47.3	-49.2	18.0	0.00e+00	0	43	0	1154482176	66	4400
2026-01-23 08:49:35.67	339.13	19.32	-47.4	-49.2	18.0	0.00e+00	0	42	0	1155530752	66	4425
2026-01-23 08:49:36.67	339.06	19.20	-46.9	-48.6	18.5	0.00e+00	0	43	0	1157627904	65	4381
2026-01-23 08:49:37.68	338.98	19.07	-46.7	-48.4	18.8	0.00e+00	0	42	0	1159725056	65	4244
2026-01-23 08:49:38.69	338.91	18.95	-46.5	-48.1	19.1	0.00e+00	0	43	0	1161822208	64	4344
2026-01-23 08:49:39.69	338.84	18.84	-46.2	-47.7	19.4	0.00e+00	0	43	0	1162870784	64	4178
2026-01-23 08:49:40.70	338.77	18.72	-46.1	-47.6	19.6	0.00e+00	0	43	0	1164967936	63	4342
2026-01-23 08:49:41.71	338.69	18.60	-46.0	-47.5	19.7	0.00e+00	0	43	0	1167065088	63	4298
2026-01-23 08:49:42.72	338.62	18.48	-45.6	-47.0	20.1	0.00e+00	0	43	0	1169162240	63	4067
2026-01-23 08:49:43.73	338.55	18.36	-45.4	-46.6	20.4	0.00e+00	0	43	0	1171259392	62	4144
2026-01-23 08:49:44.73	338.48	18.24	-45.4	-46.7	20.4	0.00e+00	0	43	0	1172307968	62	4169
2026-01-23 08:49:45.74	338.41	18.13	-45.2	-46.4	20.6	0.00e+00	0	43	0	1174405120	62	4048
2026-01-23 08:49:46.75	338.35	18.01	-45.0	-46.3	20.7	0.00e+00	0	43	0	1176502272	61	4211
2026-01-23 08:49:47.76	338.28	17.89	-45.1	-46.4	20.6	0.00e+00	0	43	0	1178599424	61	4267
2026-01-23 08:49:48.77	338.21	17.78	-45.1	-46.4	20.6	0.00e+00	0	43	0	1180696576	61	4266
2026-01-23 08:49:49.78	338.14	17.66	-45.1	-46.3	20.6	0.00e+00	0	43	0	1182793728	61	4240
2026-01-23 08:49:50.78	338.08	17.55	-45.3	-46.7	20.3	0.00e+00	0	43	0	1183842304	61	4396
2026-01-23 08:49:51.79	338.01	17.44	-45.3	-46.5	20.5	0.00e+00	0	43	0	1185939456	61	4338
2026-01-23 08:49:52.80	337.95	17.32	-45.4	-46.7	20.3	0.00e+00	0	43	0	1188036608	61	4414
2026-01-23 08:49:53.81	337.88	17.21	-45.8	-47.2	19.9	0.00e+00	0	43	0	1190133760	62	4397
2026-01-23 08:49:54.82	337.82	17.10	-45.8	-47.2	19.9	0.00e+00	0	42	0	1191182336	62	4401
2026-01-23 08:49:55.83	337.75	16.99	-45.9	-47.3	19.7	0.00e+00	0	43	0	1193279488	62	4493
2026-01-23 08:49:56.83	337.69	16.88	-46.2	-47.6	19.5	0.00e+00	0	42	0	1195376640	62	4649
2026-01-23 08:49:57.84	337.63	16.76	-46.3	-47.8	19.3	0.00e+00	0	43	0	1197473792	63	4461
2026-01-23 08:49:58.85	337.57	16.65	-46.3	-47.9	19.3	0.00e+00	0	43	0	1199570944	63	4502
2026-01-23 08:49:59.86	337.50	16.54	-46.2	-47.7	19.4	0.00e+00	0	43	0	1201668096	63	4404
2026-01-23 08:50:00.87	337.44	16.43	-46.4	-47.9	19.2	0.00e+00	0	43	0	1202716672	63	4533
2026-01-23 08:50:01.88	337.38	16.32	-46.4	-48.0	19.1	0.00e+00	0	43	0	1204813824	63	4576
2026-01-23 08:50:02.88	337.32	16.22	-46.4	-47.9	19.2	0.00e+00	0	43	0	1206910976	63	4518
2026-01-23 08:50:03.89	337.26	16.11	-46.3	-47.8	19.2	0.00e+00	0	43	0	1209008128	63	4477
2026-01-23 08:50:04.90	337.20	16.00	-46.4	-48.0	19.2	0.00e+00	0	43	0	1211105280	63	4581
2026-01-23 08:50:05.91	337.14	15.89	-46.2	-47.8	19.3	0.00e+00	0	43	0	1212153856	63	4454
2026-01-23 08:50:06.92	337.08	15.79	-46.3	-47.8	19.3	0.00e+00	0	43	0	1214251008	63	4457
2026-01-23 08:50:07.92	337.03	15.68	-46.4	-48.0	19.1	0.00e+00	0	43	0	1216348160	63	4555
2026-01-23 08:50:08.93	336.97	15.57	-46.4	-48.0	19.1	0.00e+00	0	43	0	1218445312	63	4554
2026-01-23 08:50:09.94	336.91	15.47	-46.5	-48.1	19.0	0.00e+00	0	43	0	1220542464	63	4637
2026-01-23 08:50:10.95	336.85	15.36	-46.6	-48.3	18.8	0.00e+00	0	43	0	1221591040	63	4725
2026-01-23 08:50:11.96	336.80	15.26	-46.5	-48.1	19.0	0.00e+00	0	43	0	1223688192	63	4605
2026-01-23 08:50:12.96	336.74	15.15	-46.6	-48.3	18.7	0.00e+00	0	43	0	1225785344	64	4467
2026-01-23 08:50:13.97	336.69	15.05	-46.6	-48.3	18.6	0.00e+00	0	43	0	1227882496	64	4452
2026-01-23 08:50:14.98	336.63	14.95	-46.8	-48.5	18.4	0.00e+00	0	43	0	1229979648	64	4595
2026-01-23 08:50:15.99	336.58	14.84	-46.9	-48.7	18.2	0.00e+00	0	43	0	1231028224	64	4683
2026-01-23 08:50:17.00	336.52	14.74	-47.4	-49.3	17.7	0.00e+00	0	43	0	1233125376	65	4725
2026-01-23 08:50:18.01	336.47	14.64	-47.3	-49.2	17.8	0.00e+00	0	43	0	1235222528	65	4695
2026-01-23 08:50:19.02	336.42	14.54	-47.3	-49.1	17.8	0.00e+00	0	43	0	1237319680	65	4643
2026-01-23 08:50:20.02	336.36	14.44	-47.3	-49.2	17.8	0.00e+00	0	43	0	1239416832	65	4682
2026-01-23 08:50:21.03	336.31	14.33	-47.2	-49.0	17.9	0.00e+00	0	43	0	1240465408	65	4590
