passes_logs/2026/01/23/R3.2S_Murmansk/R3.2S_Murmansk__20260123_094907_NOAA_21_JPSS-2_rec.log

#Pass ID: 20260123_094907_NOAA 21 (JPSS-2)
#Satellite: NOAA 21 (JPSS-2)
#Configuration: NOAA-21
#almurnet v.1.7.20251203
#Start time: 2026-01-23 09:50:51

#Version: 2.2.20231116
#Station: R3.2S_Murmansk
#Location: 33.079688 lon 68.888172 lat
#TLE: 1 54234U 22150A   26022.41365820  .00000211  00000+0  12084-3 0  9990
#TLE: 2 54234  98.7507 323.2240 0000658 234.5287 125.5828 14.19537645165864

#Time	Az	El	Level	Level2	SNR	BER	BlckErr	Temp	State	Recorded	gain1	gain2
2026-01-23 09:50:51.61	160.14	9.62	-53.5	-65.4	3.8	8.46e-01	0	41	0	0	77	15200
2026-01-23 09:50:52.62	160.15	9.71	-54.4	-67.2	3.8	1.49e+00	0	43	104	0	79	16573
2026-01-23 09:50:53.63	160.17	9.80	-54.4	-67.2	3.8	1.49e+00	0	43	104	0	79	16635
2026-01-23 09:50:54.63	160.18	9.88	-54.5	-67.3	3.8	1.49e+00	0	42	104	0	79	16711
2026-01-23 09:50:55.64	160.20	9.97	-54.5	-67.3	3.8	1.49e+00	0	42	104	0	79	16730
2026-01-23 09:50:56.65	160.22	10.06	-54.5	-67.3	3.8	1.49e+00	0	42	104	0	79	16745
2026-01-23 09:50:57.66	160.23	10.15	-54.5	-67.3	3.8	1.49e+00	0	43	104	0	79	16816
2026-01-23 09:50:58.67	160.25	10.23	-54.5	-67.3	3.8	1.49e+00	0	42	104	0	79	16817
2026-01-23 09:50:59.68	160.27	10.32	-54.5	-67.3	3.8	1.49e+00	0	42	104	0	79	16874
2026-01-23 09:51:00.68	160.28	10.41	-54.6	-67.3	3.8	1.49e+00	0	42	104	0	79	16865
2026-01-23 09:51:01.69	160.30	10.50	-54.6	-67.4	3.8	1.49e+00	0	42	104	0	79	16930
2026-01-23 09:51:02.70	160.32	10.59	-54.6	-67.4	3.8	1.49e+00	0	42	104	0	79	16928
2026-01-23 09:51:03.71	160.33	10.68	-54.6	-67.4	3.8	1.49e+00	0	43	104	0	79	16975
2026-01-23 09:51:04.72	160.35	10.77	-54.6	-67.4	3.8	1.49e+00	0	42	104	0	79	16999
2026-01-23 09:51:05.73	160.37	10.86	-54.6	-67.4	3.8	1.49e+00	0	42	104	0	79	17010
2026-01-23 09:51:06.74	160.39	10.95	-54.6	-67.4	3.8	1.49e+00	0	43	104	0	79	17016
2026-01-23 09:51:07.74	160.40	11.04	-54.6	-67.4	3.8	1.49e+00	0	43	104	0	79	17013
2026-01-23 09:51:08.75	160.42	11.13	-54.6	-67.4	3.8	1.49e+00	0	42	104	0	79	17048
2026-01-23 09:51:09.76	160.44	11.22	-54.6	-67.4	3.8	1.49e+00	0	42	104	0	79	16994
2026-01-23 09:51:10.77	160.45	11.32	-54.6	-67.4	3.8	1.49e+00	0	43	104	0	79	17028
2026-01-23 09:51:11.78	160.47	11.41	-54.6	-67.4	3.8	1.49e+00	0	42	104	0	79	16982
2026-01-23 09:51:12.78	160.49	11.50	-54.6	-67.4	3.8	1.49e+00	0	42	104	0	79	16975
2026-01-23 09:51:13.79	160.51	11.60	-54.6	-67.4	3.8	1.49e+00	0	43	104	0	79	16969
2026-01-23 09:51:14.80	160.53	11.69	-54.6	-67.4	3.8	1.49e+00	0	42	104	0	79	16948
2026-01-23 09:51:15.81	160.54	11.78	-54.6	-67.4	3.8	1.49e+00	0	42	104	0	79	16998
2026-01-23 09:51:16.82	160.56	11.88	-54.6	-67.4	3.8	1.49e+00	0	43	104	0	79	16958
2026-01-23 09:51:17.83	160.58	11.97	-54.5	-67.3	3.8	1.49e+00	0	42	104	0	79	16850
2026-01-23 09:51:18.84	160.60	12.07	-54.5	-67.3	3.8	1.49e+00	0	43	104	0	79	16822
2026-01-23 09:51:19.84	160.62	12.16	-54.5	-67.3	3.8	1.49e+00	0	43	104	0	79	16823
2026-01-23 09:51:20.85	160.64	12.26	-54.5	-67.3	3.8	1.49e+00	0	42	104	0	79	16808
2026-01-23 09:51:21.86	160.65	12.35	-54.5	-67.3	3.8	1.49e+00	0	42	104	0	79	16773
2026-01-23 09:51:22.87	160.67	12.45	-54.5	-67.3	3.8	1.49e+00	0	42	104	0	79	16809
2026-01-23 09:51:23.88	160.69	12.55	-54.6	-67.3	3.8	1.49e+00	0	42	104	0	79	16870
2026-01-23 09:51:24.89	160.71	12.64	-54.6	-67.3	3.8	1.49e+00	0	42	104	0	79	16886
2026-01-23 09:51:25.90	160.73	12.74	-54.5	-67.3	3.8	1.49e+00	0	42	104	0	79	16794
2026-01-23 09:51:26.90	160.75	12.84	-54.5	-67.3	3.8	1.49e+00	0	43	104	0	79	16791
2026-01-23 09:51:27.91	160.77	12.94	-54.5	-67.3	3.8	1.49e+00	0	42	104	0	79	16752
2026-01-23 09:51:28.92	160.79	13.04	-54.5	-67.3	3.8	1.49e+00	0	43	104	0	79	16760
2026-01-23 09:51:29.93	160.81	13.14	-54.5	-67.3	3.8	1.49e+00	0	43	104	0	79	16757
2026-01-23 09:51:30.94	160.83	13.24	-54.5	-67.3	3.8	1.49e+00	0	43	104	0	79	16702
2026-01-23 09:51:31.94	160.85	13.34	-54.4	-67.2	3.8	1.49e+00	0	43	104	0	79	16663
2026-01-23 09:51:32.95	160.87	13.44	-54.4	-67.2	3.8	1.49e+00	0	42	104	0	79	16643
2026-01-23 09:51:33.96	160.89	13.54	-54.4	-67.2	3.8	1.49e+00	0	43	104	0	79	16636
2026-01-23 09:51:34.97	160.91	13.64	-54.4	-67.2	3.8	1.49e+00	0	43	104	0	79	16574
2026-01-23 09:51:35.97	160.93	13.74	-54.4	-67.2	3.8	1.49e+00	0	43	104	0	79	16592
2026-01-23 09:51:36.98	160.95	13.84	-54.3	-67.2	3.8	1.49e+00	0	42	104	0	79	16508
2026-01-23 09:51:37.99	160.97	13.94	-54.4	-67.2	3.8	1.49e+00	0	43	104	0	79	16541
2026-01-23 09:51:39.00	160.99	14.05	-54.4	-67.2	3.8	1.49e+00	0	42	104	0	79	16506
2026-01-23 09:51:40.00	161.01	14.15	-54.4	-67.2	3.8	1.49e+00	0	43	104	0	79	16521
2026-01-23 09:51:41.01	161.03	14.25	-54.4	-67.2	3.8	1.49e+00	0	42	104	0	79	16507
2026-01-23 09:51:42.02	161.05	14.36	-54.3	-67.1	3.8	1.49e+00	0	42	104	0	79	16479
2026-01-23 09:51:43.03	161.07	14.46	-54.3	-67.1	3.8	1.49e+00	0	43	104	0	79	16483
2026-01-23 09:51:44.04	161.09	14.57	-54.3	-67.1	3.8	1.49e+00	0	43	104	0	79	16485
2026-01-23 09:51:45.04	161.11	14.67	-54.5	-67.3	3.8	1.49e+00	0	42	104	0	79	16880
2026-01-23 09:51:46.05	161.13	14.78	-54.6	-67.4	3.8	1.49e+00	0	42	104	0	79	16919
2026-01-23 09:51:47.06	161.15	14.89	-54.6	-67.4	3.8	1.49e+00	0	42	104	0	79	16984
2026-01-23 09:51:48.07	161.18	14.99	-54.6	-67.4	3.8	1.49e+00	0	43	104	0	79	16905
2026-01-23 09:51:49.08	161.20	15.10	-54.6	-67.4	3.8	1.49e+00	0	43	104	0	79	16904
2026-01-23 09:51:50.09	161.22	15.21	-54.5	-67.3	3.8	1.49e+00	0	43	104	0	79	16795
2026-01-23 09:51:51.10	161.24	15.32	-54.5	-67.3	3.8	1.49e+00	0	43	104	0	79	16785
2026-01-23 09:51:52.11	161.26	15.43	-54.5	-67.3	3.8	1.49e+00	0	42	104	0	79	16729
2026-01-23 09:51:53.12	161.28	15.54	-54.4	-67.2	3.8	1.49e+00	0	43	104	0	79	16637
2026-01-23 09:51:54.12	161.31	15.65	-54.4	-67.2	3.8	1.49e+00	0	42	104	0	79	16549
2026-01-23 09:51:55.13	161.33	15.76	-54.3	-67.1	3.8	1.49e+00	0	43	104	0	79	16421
2026-01-23 09:51:56.14	161.35	15.87	-54.3	-67.0	3.8	1.49e+00	0	43	104	0	79	16280
2026-01-23 09:51:57.15	161.37	15.98	-54.2	-67.0	3.8	1.49e+00	0	43	104	0	79	16142
2026-01-23 09:51:58.15	161.40	16.09	-54.1	-66.9	3.8	1.49e+00	0	43	104	0	79	15995
2026-01-23 09:51:59.16	161.42	16.20	-54.1	-66.8	3.8	1.49e+00	0	42	104	0	79	15806
2026-01-23 09:52:00.17	161.44	16.32	-54.0	-66.8	3.8	1.49e+00	0	43	104	0	79	15837
2026-01-23 09:52:01.18	161.47	16.43	-53.9	-66.6	3.8	1.49e+00	0	43	104	0	79	15470
2026-01-23 09:52:02.19	161.49	16.54	-53.8	-66.5	3.8	1.49e+00	0	42	104	0	79	15229
2026-01-23 09:52:03.19	161.51	16.66	-44.4	-45.2	19.5	1.94e-02	0	43	0	0	60	3945
2026-01-23 09:52:04.20	161.54	16.77	-43.5	-44.4	20.8	0.00e+00	0	42	0	3145728	59	3787
2026-01-23 09:52:05.21	161.56	16.89	-53.9	-66.5	3.8	1.49e+00	0	43	104	4194304	78	16241
2026-01-23 09:52:06.22	161.59	17.00	-44.0	-44.9	19.7	0.00e+00	0	43	0	4194304	60	3807
2026-01-23 09:52:07.23	161.61	17.12	-46.7	-48.0	17.1	0.00e+00	0	42	0	7340032	65	4095
2026-01-23 09:52:08.24	161.63	17.24	-47.3	-48.8	16.3	1.60e-05	0	42	0	10485760	66	4222
2026-01-23 09:52:09.25	161.66	17.36	-46.2	-47.5	17.7	0.00e+00	0	42	0	13631488	64	4053
2026-01-23 09:52:10.25	161.68	17.47	-43.2	-44.1	21.1	0.00e+00	0	42	0	16777216	58	3891
2026-01-23 09:52:11.26	161.71	17.59	-43.2	-44.0	21.2	0.00e+00	0	43	0	19922944	58	3859
2026-01-23 09:52:12.27	161.73	17.71	-43.2	-44.1	21.1	0.00e+00	0	43	0	23068672	58	3875
2026-01-23 09:52:13.28	161.76	17.83	-43.2	-44.1	21.2	0.00e+00	0	43	0	26214400	58	3880
2026-01-23 09:52:14.29	161.78	17.95	-43.1	-44.0	21.2	0.00e+00	0	42	0	29360128	58	3845
2026-01-23 09:52:15.30	161.81	18.08	-43.1	-44.0	21.2	0.00e+00	0	43	0	32505856	58	3841
2026-01-23 09:52:16.30	161.84	18.20	-43.1	-44.0	21.2	0.00e+00	0	43	0	35651584	58	3856
2026-01-23 09:52:17.31	161.86	18.32	-43.2	-44.1	21.2	0.00e+00	0	43	0	38797312	58	3884
2026-01-23 09:52:18.32	161.89	18.44	-43.2	-44.1	21.2	0.00e+00	0	42	0	41943040	58	3881
2026-01-23 09:52:19.33	161.91	18.57	-43.1	-44.0	21.3	0.00e+00	0	42	0	45088768	58	3825
2026-01-23 09:52:20.34	161.94	18.69	-43.2	-44.0	21.2	0.00e+00	0	42	0	48234496	58	3859
2026-01-23 09:52:21.35	161.97	18.82	-43.0	-43.9	21.3	0.00e+00	0	43	0	51380224	58	3804
2026-01-23 09:52:22.36	161.99	18.94	-43.1	-43.9	21.3	0.00e+00	0	42	0	54525952	58	3817
2026-01-23 09:52:23.37	162.02	19.07	-43.2	-44.0	21.2	0.00e+00	0	42	0	57671680	58	3867
2026-01-23 09:52:24.38	162.05	19.20	-43.1	-44.0	21.3	0.00e+00	0	42	0	60817408	58	3836
2026-01-23 09:52:25.39	162.08	19.32	-43.2	-44.1	21.2	0.00e+00	0	42	0	63963136	58	3870
2026-01-23 09:52:26.40	162.10	19.45	-43.0	-43.9	21.3	0.00e+00	0	42	0	67108864	58	3795
2026-01-23 09:52:27.40	162.13	19.58	-43.0	-43.9	21.4	0.00e+00	0	42	0	70254592	58	3795
2026-01-23 09:52:28.41	162.16	19.71	-43.0	-43.9	21.4	0.00e+00	0	42	0	73400320	57	4025
2026-01-23 09:52:29.42	162.19	19.84	-42.9	-43.8	21.5	0.00e+00	0	42	0	76546048	57	3974
2026-01-23 09:52:30.43	162.22	19.97	-43.0	-43.9	21.4	0.00e+00	0	42	0	79691776	57	4006
2026-01-23 09:52:31.44	162.24	20.10	-43.0	-43.9	21.4	0.00e+00	0	42	0	82837504	57	4010
2026-01-23 09:52:32.44	162.27	20.23	-43.1	-43.9	21.3	0.00e+00	0	42	0	85983232	57	4043
2026-01-23 09:52:33.45	162.30	20.37	-42.9	-43.8	21.4	0.00e+00	0	42	0	89128960	57	3987
2026-01-23 09:52:34.46	162.33	20.50	-42.9	-43.8	21.5	0.00e+00	0	43	0	92274688	57	3965
2026-01-23 09:52:35.47	162.36	20.63	-42.8	-43.6	21.6	0.00e+00	0	42	0	95420416	57	3905
2026-01-23 09:52:36.47	162.39	20.77	-42.7	-43.6	21.7	0.00e+00	0	42	0	98566144	57	3873
2026-01-23 09:52:37.48	162.42	20.90	-42.7	-43.6	21.7	0.00e+00	0	42	0	101711872	57	3872
2026-01-23 09:52:38.49	162.45	21.04	-42.8	-43.7	21.6	0.00e+00	0	42	0	104857600	57	3914
2026-01-23 09:52:39.50	162.48	21.18	-42.8	-43.7	21.6	0.00e+00	0	42	0	108003328	57	3925
2026-01-23 09:52:40.51	162.51	21.32	-42.6	-43.4	21.8	0.00e+00	0	42	0	111149056	57	3807
2026-01-23 09:52:41.51	162.54	21.45	-42.6	-43.4	21.8	0.00e+00	0	42	0	114294784	57	3802
2026-01-23 09:52:42.52	162.57	21.59	-42.6	-43.4	21.8	0.00e+00	0	42	0	117440512	57	3806
2026-01-23 09:52:43.53	162.60	21.73	-42.4	-43.3	21.9	0.00e+00	0	42	0	120586240	56	3960
2026-01-23 09:52:44.54	162.64	21.88	-42.4	-43.2	21.9	0.00e+00	0	42	0	123731968	56	3950
2026-01-23 09:52:45.55	162.67	22.02	-42.4	-43.3	21.9	0.00e+00	0	42	0	126877696	56	3964
2026-01-23 09:52:46.56	162.70	22.16	-42.3	-43.1	22.0	0.00e+00	0	42	0	130023424	56	3897
2026-01-23 09:52:47.56	162.73	22.30	-42.3	-43.1	22.1	0.00e+00	0	42	0	133169152	56	3892
2026-01-23 09:52:48.57	162.77	22.45	-42.4	-43.2	22.0	0.00e+00	0	42	0	136314880	56	3942
2026-01-23 09:52:49.58	162.80	22.59	-42.3	-43.2	22.0	0.00e+00	0	42	0	139460608	56	3919
2026-01-23 09:52:50.59	162.83	22.74	-42.1	-42.9	22.2	0.00e+00	0	43	0	142606336	56	3812
2026-01-23 09:52:51.60	162.87	22.88	-41.9	-42.6	22.4	0.00e+00	0	42	0	145752064	55	3910
2026-01-23 09:52:52.60	162.90	23.03	-41.8	-42.6	22.3	0.00e+00	0	42	0	148897792	55	3904
2026-01-23 09:52:53.61	162.93	23.18	-41.8	-42.6	22.4	0.00e+00	0	42	0	152043520	55	3899
2026-01-23 09:52:54.62	162.97	23.33	-41.8	-42.6	22.3	0.00e+00	0	42	0	155189248	55	3890
2026-01-23 09:52:55.63	163.00	23.48	-41.6	-42.4	22.5	0.00e+00	0	42	0	158334976	55	3812
2026-01-23 09:52:56.64	163.04	23.63	-41.7	-42.4	22.5	0.00e+00	0	42	0	161480704	55	3821
2026-01-23 09:52:57.64	163.07	23.78	-41.6	-42.4	22.6	0.00e+00	0	42	0	164626432	55	3811
2026-01-23 09:52:58.65	163.11	23.93	-41.6	-42.4	22.6	0.00e+00	0	42	0	167772160	55	3786
2026-01-23 09:52:59.66	163.14	24.09	-41.6	-42.4	22.6	0.00e+00	0	42	0	170917888	55	3796
2026-01-23 09:53:00.67	163.18	24.24	-41.7	-42.4	22.6	0.00e+00	0	42	0	174063616	55	3820
2026-01-23 09:53:01.68	163.22	24.40	-41.6	-42.4	22.6	0.00e+00	0	43	0	177209344	55	3806
2026-01-23 09:53:02.69	163.25	24.55	-41.6	-42.4	22.6	0.00e+00	0	42	0	180355072	55	3818
2026-01-23 09:53:03.70	163.29	24.71	-41.7	-42.5	22.5	0.00e+00	0	42	0	183500800	55	3847
2026-01-23 09:53:04.70	163.33	24.87	-41.8	-42.6	22.5	0.00e+00	0	42	0	186646528	55	3870
2026-01-23 09:53:05.71	163.37	25.03	-41.9	-42.6	22.5	0.00e+00	0	42	0	189792256	55	3911
2026-01-23 09:53:06.72	163.40	25.19	-41.9	-42.7	22.4	0.00e+00	0	42	0	192937984	55	3935
2026-01-23 09:53:07.73	163.44	25.35	-41.9	-42.7	22.4	0.00e+00	0	42	0	196083712	55	3937
2026-01-23 09:53:08.74	163.48	25.51	-42.0	-42.8	22.3	0.00e+00	0	42	0	199229440	55	4003
2026-01-23 09:53:09.74	163.52	25.67	-42.2	-43.0	22.2	0.00e+00	0	42	0	202375168	55	4057
2026-01-23 09:53:10.75	163.56	25.84	-42.2	-43.0	22.2	0.00e+00	0	42	0	205520896	55	4080
2026-01-23 09:53:11.76	163.60	26.00	-42.3	-43.1	22.1	0.00e+00	0	42	0	208666624	55	4136
2026-01-23 09:53:12.77	163.64	26.17	-42.3	-43.2	22.0	0.00e+00	0	42	0	211812352	55	4155
2026-01-23 09:53:13.78	163.68	26.33	-42.5	-43.3	21.9	0.00e+00	0	42	0	214958080	55	4241
2026-01-23 09:53:14.79	163.72	26.50	-42.6	-43.4	21.8	0.00e+00	0	42	0	218103808	55	4290
2026-01-23 09:53:15.80	163.76	26.67	-42.6	-43.5	21.8	0.00e+00	0	42	0	221249536	55	4301
2026-01-23 09:53:16.80	163.81	26.84	-42.9	-43.8	21.6	0.00e+00	0	42	0	224395264	56	4211
2026-01-23 09:53:17.81	163.85	27.01	-43.0	-43.8	21.5	0.00e+00	0	42	0	227540992	56	4228
2026-01-23 09:53:18.82	163.89	27.18	-43.0	-43.8	21.5	0.00e+00	0	42	0	230686720	56	4227
2026-01-23 09:53:19.83	163.93	27.36	-43.1	-43.9	21.4	0.00e+00	0	42	0	233832448	56	4269
2026-01-23 09:53:20.83	163.98	27.53	-43.1	-43.9	21.4	0.00e+00	0	42	0	236978176	56	4291
2026-01-23 09:53:21.84	164.02	27.71	-43.0	-43.9	21.4	0.00e+00	0	42	0	240123904	56	4267
2026-01-23 09:53:22.85	164.07	27.88	-43.1	-44.0	21.4	0.00e+00	0	42	0	243269632	56	4307
2026-01-23 09:53:23.86	164.11	28.06	-43.1	-44.0	21.4	0.00e+00	0	43	0	246415360	56	4314
2026-01-23 09:53:24.87	164.16	28.24	-43.2	-44.1	21.3	0.00e+00	0	42	0	249561088	57	4119
2026-01-23 09:53:25.88	164.20	28.42	-43.3	-44.1	21.3	0.00e+00	0	42	0	252706816	57	4135
2026-01-23 09:53:26.88	164.25	28.60	-43.4	-44.2	21.2	0.00e+00	0	42	0	255852544	57	4187
2026-01-23 09:53:27.89	164.30	28.78	-43.2	-44.1	21.3	0.00e+00	0	42	0	258998272	57	4132
2026-01-23 09:53:28.90	164.34	28.97	-43.3	-44.1	21.3	0.00e+00	0	42	0	262144000	57	4136
2026-01-23 09:53:29.91	164.39	29.15	-43.3	-44.1	21.3	0.00e+00	0	42	0	265289728	57	4142
2026-01-23 09:53:30.91	164.44	29.33	-43.3	-44.2	21.2	0.00e+00	0	42	0	268435456	57	4156
2026-01-23 09:53:31.92	164.49	29.52	-43.1	-43.9	21.4	0.00e+00	0	42	0	271581184	57	4039
2026-01-23 09:53:32.93	164.54	29.71	-43.0	-43.9	21.4	0.00e+00	0	42	0	274726912	57	4031
2026-01-23 09:53:33.94	164.59	29.90	-43.0	-43.8	21.5	0.00e+00	0	42	0	277872640	57	3989
2026-01-23 09:53:34.95	164.64	30.09	-42.9	-43.8	21.6	0.00e+00	0	42	0	281018368	57	3971
2026-01-23 09:53:35.95	164.69	30.28	-42.8	-43.7	21.7	0.00e+00	0	42	0	284164096	57	3920
2026-01-23 09:53:36.96	164.74	30.47	-42.7	-43.5	21.8	0.00e+00	0	42	0	287309824	57	3853
2026-01-23 09:53:37.97	164.79	30.67	-42.6	-43.4	21.9	0.00e+00	0	42	0	290455552	57	3822
2026-01-23 09:53:38.98	164.84	30.87	-42.5	-43.3	22.0	0.00e+00	0	42	0	293601280	57	3764
2026-01-23 09:53:39.99	164.90	31.06	-42.3	-43.1	22.2	0.00e+00	0	42	0	296747008	56	3880
2026-01-23 09:53:41.00	164.95	31.26	-42.3	-43.1	22.2	0.00e+00	0	42	0	299892736	56	3903
2026-01-23 09:53:42.00	165.01	31.46	-42.2	-43.0	22.2	0.00e+00	0	42	0	303038464	56	3865
2026-01-23 09:53:43.01	165.06	31.66	-42.2	-43.0	22.3	0.00e+00	0	42	0	306184192	56	3840
2026-01-23 09:53:44.02	165.12	31.86	-42.3	-43.1	22.2	0.00e+00	0	42	0	309329920	56	3900
2026-01-23 09:53:45.03	165.17	32.07	-42.3	-43.1	22.3	0.00e+00	0	42	0	312475648	56	3870
2026-01-23 09:53:46.04	165.23	32.27	-42.4	-43.2	22.2	0.00e+00	0	42	0	315621376	56	3926
2026-01-23 09:53:47.05	165.29	32.48	-42.4	-43.2	22.1	0.00e+00	0	42	0	318767104	56	3950
2026-01-23 09:53:48.06	165.35	32.69	-42.4	-43.2	22.2	0.00e+00	0	42	0	321912832	56	3942
2026-01-23 09:53:49.06	165.41	32.90	-42.7	-43.5	21.9	0.00e+00	0	42	0	325058560	56	4095
2026-01-23 09:53:50.07	165.47	33.11	-42.7	-43.5	21.9	0.00e+00	0	42	0	328204288	56	4068
2026-01-23 09:53:51.08	165.53	33.32	-42.7	-43.5	21.9	0.00e+00	0	42	0	331350016	56	4097
2026-01-23 09:53:52.09	165.59	33.53	-42.9	-43.7	21.7	0.00e+00	0	42	0	334495744	56	4179
2026-01-23 09:53:53.10	165.65	33.75	-43.0	-43.8	21.6	0.00e+00	0	42	0	337641472	56	4235
2026-01-23 09:53:54.11	165.71	33.97	-43.0	-43.9	21.6	0.00e+00	0	42	0	340787200	56	4249
2026-01-23 09:53:55.12	165.78	34.18	-43.2	-44.0	21.5	0.00e+00	0	43	0	343932928	57	4083
2026-01-23 09:53:56.13	165.84	34.40	-43.3	-44.2	21.3	0.00e+00	0	42	0	347078656	57	4163
2026-01-23 09:53:57.14	165.91	34.62	-43.6	-44.5	21.0	0.00e+00	0	42	0	350224384	57	4334
2026-01-23 09:53:58.14	165.97	34.85	-43.7	-44.6	21.0	0.00e+00	0	42	0	353370112	57	4363
2026-01-23 09:53:59.15	166.04	35.07	-43.9	-44.8	20.8	0.00e+00	0	42	0	356515840	58	4208
2026-01-23 09:54:00.16	166.11	35.30	-44.1	-45.0	20.6	0.00e+00	0	42	0	359661568	58	4326
2026-01-23 09:54:01.17	166.18	35.52	-44.3	-45.2	20.4	0.00e+00	0	42	0	362807296	59	4168
2026-01-23 09:54:02.18	166.25	35.75	-44.4	-45.4	20.3	0.00e+00	0	42	0	365953024	59	4270
2026-01-23 09:54:03.19	166.32	35.98	-44.6	-45.6	20.1	0.00e+00	0	43	0	369098752	59	4342
2026-01-23 09:54:04.20	166.39	36.22	-44.3	-45.3	20.1	0.00e+00	0	42	0	372244480	60	3979
2026-01-23 09:54:05.20	166.46	36.45	-44.4	-45.4	20.0	0.00e+00	0	42	0	375390208	60	4031
2026-01-23 09:54:06.21	166.54	36.68	-44.5	-45.5	19.9	0.00e+00	0	42	0	379584512	60	4098
2026-01-23 09:54:07.22	166.61	36.92	-44.3	-45.3	20.0	0.00e+00	0	42	0	382730240	60	3976
2026-01-23 09:54:08.23	166.69	37.16	-44.3	-45.3	20.1	0.00e+00	0	42	0	385875968	60	3980
2026-01-23 09:54:09.24	166.76	37.40	-44.3	-45.2	20.1	0.00e+00	0	42	0	387973120	60	3946
2026-01-23 09:54:10.25	166.84	37.64	-44.2	-45.2	20.2	0.00e+00	0	42	0	391118848	60	3914
2026-01-23 09:54:11.26	166.92	37.89	-44.2	-45.1	20.2	0.00e+00	0	42	0	394264576	60	3908
2026-01-23 09:54:12.27	167.00	38.13	-44.2	-45.2	20.2	0.00e+00	0	42	0	397410304	60	3931
2026-01-23 09:54:13.28	167.08	38.38	-44.2	-45.2	20.3	0.00e+00	0	42	0	400556032	60	3914
2026-01-23 09:54:14.28	167.16	38.63	-44.3	-45.3	20.1	0.00e+00	0	42	0	403701760	60	3979
2026-01-23 09:54:15.29	167.25	38.88	-44.3	-45.3	20.1	0.00e+00	0	42	0	406847488	60	3978
2026-01-23 09:54:16.30	167.33	39.13	-44.3	-45.2	20.1	0.00e+00	0	42	0	409993216	60	3953
2026-01-23 09:54:17.31	167.42	39.39	-44.4	-45.3	20.0	0.00e+00	0	42	0	414187520	60	4001
2026-01-23 09:54:18.32	167.51	39.64	-44.5	-45.5	19.8	0.00e+00	0	42	0	417333248	60	4070
2026-01-23 09:54:19.33	167.59	39.90	-44.5	-45.5	19.8	0.00e+00	0	42	0	420478976	60	4082
2026-01-23 09:54:20.34	167.68	40.16	-44.5	-45.6	19.7	0.00e+00	0	42	0	423624704	60	4107
2026-01-23 09:54:21.35	167.78	40.43	-44.7	-45.8	19.5	0.00e+00	0	42	0	426770432	60	4214
2026-01-23 09:54:22.35	167.87	40.69	-44.8	-45.9	19.4	0.00e+00	0	42	0	429916160	60	4279
2026-01-23 09:54:23.36	167.96	40.95	-44.9	-46.0	19.4	0.00e+00	0	42	0	433061888	60	4319
2026-01-23 09:54:24.37	168.06	41.22	-45.0	-46.1	19.3	0.00e+00	0	42	0	436207616	60	4351
2026-01-23 09:54:25.38	168.16	41.49	-45.0	-46.1	19.3	0.00e+00	0	42	0	438304768	60	4366
2026-01-23 09:54:26.39	168.25	41.76	-45.2	-46.2	19.1	0.00e+00	0	43	0	441450496	60	4434
2026-01-23 09:54:27.40	168.36	42.04	-45.2	-46.3	19.2	0.00e+00	0	42	0	444596224	61	4209
2026-01-23 09:54:28.41	168.46	42.31	-45.4	-46.5	18.9	0.00e+00	0	42	0	447741952	61	4326
2026-01-23 09:54:29.42	168.56	42.59	-45.7	-46.8	18.6	0.00e+00	0	43	0	451936256	61	4486
2026-01-23 09:54:30.43	168.67	42.87	-45.7	-46.9	18.6	0.00e+00	0	42	0	455081984	62	4269
2026-01-23 09:54:31.44	168.78	43.15	-45.9	-47.1	18.4	0.00e+00	0	42	0	458227712	62	4344
2026-01-23 09:54:32.44	168.88	43.43	-45.8	-47.0	18.4	0.00e+00	0	42	0	461373440	62	4337
2026-01-23 09:54:33.45	168.99	43.72	-45.8	-47.0	18.4	0.00e+00	0	42	0	464519168	62	4303
2026-01-23 09:54:34.46	169.11	44.00	-45.7	-46.9	18.5	0.00e+00	0	42	0	467664896	62	4269
2026-01-23 09:54:35.47	169.22	44.29	-45.6	-46.7	18.7	0.00e+00	0	42	0	470810624	62	4182
2026-01-23 09:54:36.48	169.34	44.58	-45.4	-46.6	18.9	0.00e+00	0	42	0	473956352	62	4104
2026-01-23 09:54:37.49	169.46	44.88	-45.6	-46.7	18.7	0.00e+00	0	42	0	477102080	62	4188
2026-01-23 09:54:38.50	169.58	45.17	-45.5	-46.7	18.8	0.00e+00	0	42	0	480247808	62	4153
2026-01-23 09:54:39.50	169.70	45.47	-45.6	-46.7	18.8	0.00e+00	0	42	0	483393536	62	4188
2026-01-23 09:54:40.51	169.83	45.77	-45.7	-46.9	18.7	0.00e+00	0	42	0	486539264	62	4250
2026-01-23 09:54:41.52	169.96	46.07	-45.7	-46.9	18.7	0.00e+00	0	42	0	489684992	62	4281
2026-01-23 09:54:42.53	170.09	46.37	-45.7	-46.9	18.7	0.00e+00	0	42	0	492830720	62	4261
2026-01-23 09:54:43.54	170.22	46.68	-45.5	-46.7	18.9	0.00e+00	0	42	0	495976448	62	4156
2026-01-23 09:54:44.55	170.36	46.99	-45.3	-46.5	19.1	0.00e+00	0	42	0	499122176	62	4053
2026-01-23 09:54:45.55	170.49	47.29	-45.4	-46.5	19.1	0.00e+00	0	42	0	502267904	62	4090
2026-01-23 09:54:46.56	170.64	47.61	-45.5	-46.6	19.0	0.00e+00	0	43	0	505413632	62	4127
2026-01-23 09:54:47.57	170.78	47.92	-44.9	-46.0	19.6	0.00e+00	0	43	0	508559360	61	4070
2026-01-23 09:54:48.58	170.93	48.24	-44.4	-45.4	20.1	0.00e+00	0	42	0	511705088	60	4017
2026-01-23 09:54:49.59	171.08	48.55	-44.3	-45.3	20.5	0.00e+00	0	42	0	514850816	59	4215
2026-01-23 09:54:50.59	171.23	48.87	-44.3	-45.2	20.5	0.00e+00	0	42	0	517996544	59	4186
2026-01-23 09:54:51.60	171.38	49.19	-44.3	-45.3	20.4	0.00e+00	0	42	0	521142272	59	4205
2026-01-23 09:54:52.61	171.54	49.52	-44.3	-45.3	20.4	0.00e+00	0	42	0	524288000	59	4212
2026-01-23 09:54:53.62	171.70	49.85	-44.1	-45.1	20.6	0.00e+00	0	42	0	527433728	59	4109
2026-01-23 09:54:54.63	171.87	50.18	-44.1	-45.1	20.6	0.00e+00	0	42	0	530579456	59	4115
2026-01-23 09:54:55.64	172.04	50.51	-43.9	-44.8	20.9	0.00e+00	0	42	0	533725184	59	4001
2026-01-23 09:54:56.64	172.21	50.84	-43.9	-44.8	20.8	0.00e+00	0	42	0	536870912	59	4001
2026-01-23 09:54:57.65	172.39	51.17	-43.8	-44.6	21.0	0.00e+00	0	42	0	540016640	59	3904
2026-01-23 09:54:58.66	172.57	51.51	-43.9	-44.8	20.8	0.00e+00	0	42	0	543162368	59	3988
2026-01-23 09:54:59.67	172.75	51.85	-44.0	-44.9	20.6	0.00e+00	0	43	0	546308096	59	4048
2026-01-23 09:55:00.67	172.94	52.19	-44.2	-45.1	20.6	0.00e+00	0	43	0	549453824	59	4113
2026-01-23 09:55:01.68	173.13	52.53	-44.2	-45.2	20.5	0.00e+00	0	42	0	552599552	59	4150
2026-01-23 09:55:02.69	173.33	52.88	-44.0	-44.9	20.7	0.00e+00	0	42	0	555745280	59	4032
2026-01-23 09:55:03.69	173.53	53.22	-44.1	-45.0	20.5	0.00e+00	0	42	0	558891008	59	4071
2026-01-23 09:55:04.70	173.74	53.57	-44.2	-45.2	20.4	0.00e+00	0	43	0	562036736	59	4153
2026-01-23 09:55:05.71	173.95	53.93	-44.0	-45.0	20.6	0.00e+00	0	42	0	565182464	59	4066
2026-01-23 09:55:06.72	174.17	54.28	-43.7	-44.6	20.9	0.00e+00	0	42	0	568328192	59	3899
2026-01-23 09:55:07.73	174.39	54.64	-43.5	-44.3	21.1	0.00e+00	0	42	0	571473920	58	4003
2026-01-23 09:55:08.74	174.62	54.99	-43.6	-44.5	21.1	0.00e+00	0	42	0	574619648	58	4058
2026-01-23 09:55:09.75	174.85	55.35	-43.8	-44.8	20.9	0.00e+00	0	42	0	577765376	58	4199
2026-01-23 09:55:10.75	175.09	55.71	-44.0	-44.9	20.8	0.00e+00	0	42	0	580911104	58	4278
2026-01-23 09:55:11.76	175.34	56.08	-43.9	-44.9	20.8	0.00e+00	0	42	0	584056832	58	4246
2026-01-23 09:55:12.77	175.59	56.44	-43.7	-44.6	21.0	0.00e+00	0	42	0	587202560	58	4135
2026-01-23 09:55:13.78	175.85	56.81	-43.4	-44.3	21.3	0.00e+00	0	42	0	590348288	58	3990
2026-01-23 09:55:14.79	176.11	57.18	-43.5	-44.4	21.3	0.00e+00	0	42	0	593494016	58	4013
2026-01-23 09:55:15.80	176.39	57.55	-43.4	-44.3	21.3	0.00e+00	0	42	0	596639744	58	4003
2026-01-23 09:55:16.80	176.66	57.92	-43.2	-44.1	21.5	0.00e+00	0	42	0	599785472	58	3903
2026-01-23 09:55:17.81	176.95	58.30	-42.9	-43.8	21.8	0.00e+00	0	43	0	602931200	57	3981
2026-01-23 09:55:18.82	177.25	58.67	-42.8	-43.7	21.9	0.00e+00	0	42	0	606076928	57	3920
2026-01-23 09:55:19.83	177.55	59.05	-42.9	-43.7	21.8	0.00e+00	0	43	0	609222656	57	3953
2026-01-23 09:55:20.84	177.87	59.43	-42.6	-43.4	22.1	0.00e+00	0	42	0	612368384	57	3792
2026-01-23 09:55:21.85	178.19	59.81	-42.6	-43.4	22.0	0.00e+00	0	42	0	615514112	57	3818
2026-01-23 09:55:22.86	178.52	60.20	-42.7	-43.6	22.0	0.00e+00	0	43	0	618659840	57	3885
2026-01-23 09:55:23.86	178.86	60.58	-42.6	-43.5	22.1	0.00e+00	0	43	0	621805568	57	3840
2026-01-23 09:55:24.87	179.22	60.96	-42.6	-43.4	22.1	0.00e+00	0	42	0	624951296	57	3816
2026-01-23 09:55:25.88	179.58	61.35	-42.6	-43.4	22.2	0.00e+00	0	42	0	628097024	57	3799
2026-01-23 09:55:26.89	179.95	61.74	-42.5	-43.3	22.2	0.00e+00	0	42	0	631242752	56	3983
2026-01-23 09:55:27.90	180.34	62.13	-42.3	-43.1	22.4	0.00e+00	0	42	0	634388480	56	3881
2026-01-23 09:55:28.91	180.74	62.52	-42.2	-43.0	22.3	0.00e+00	0	42	0	637534208	56	3851
2026-01-23 09:55:29.92	181.15	62.91	-41.9	-42.7	22.5	0.00e+00	0	42	0	640679936	55	3939
2026-01-23 09:55:30.92	181.57	63.30	-41.7	-42.4	22.7	0.00e+00	0	42	0	643825664	55	3819
2026-01-23 09:55:31.93	182.01	63.70	-41.9	-42.7	22.6	0.00e+00	0	42	0	646971392	55	3937
2026-01-23 09:55:32.94	182.47	64.09	-41.6	-42.4	22.8	0.00e+00	0	42	0	650117120	55	3799
2026-01-23 09:55:33.95	182.94	64.49	-41.3	-42.0	23.2	0.00e+00	0	42	0	653262848	54	3867
2026-01-23 09:55:34.96	183.43	64.88	-41.2	-42.0	23.3	0.00e+00	0	42	0	656408576	54	3826
2026-01-23 09:55:35.97	183.93	65.28	-41.3	-42.0	23.2	0.00e+00	0	43	0	659554304	54	3864
2026-01-23 09:55:36.97	184.45	65.67	-41.2	-42.0	23.3	0.00e+00	0	42	0	662700032	54	3825
2026-01-23 09:55:37.98	184.99	66.07	-41.4	-42.2	23.1	0.00e+00	0	42	0	665845760	54	3917
2026-01-23 09:55:38.99	185.55	66.46	-41.5	-42.2	23.0	0.00e+00	0	43	0	668991488	54	3945
2026-01-23 09:55:40.00	186.13	66.86	-41.4	-42.2	23.2	0.00e+00	0	43	0	672137216	54	3921
2026-01-23 09:55:41.01	186.74	67.26	-41.3	-42.1	23.2	0.00e+00	0	42	0	675282944	54	3876
2026-01-23 09:55:42.02	187.37	67.65	-41.3	-42.0	23.2	0.00e+00	0	42	0	678428672	54	3856
2026-01-23 09:55:43.03	188.02	68.05	-41.4	-42.1	23.2	0.00e+00	0	42	0	681574400	54	3893
2026-01-23 09:55:44.04	188.69	68.44	-41.3	-42.1	23.2	0.00e+00	0	43	0	684720128	54	3882
2026-01-23 09:55:45.05	189.40	68.83	-41.3	-42.1	23.1	0.00e+00	0	42	0	687865856	54	3872
2026-01-23 09:55:46.06	190.13	69.22	-41.2	-42.0	23.1	0.00e+00	0	42	0	691011584	54	3827
2026-01-23 09:55:47.06	190.89	69.61	-41.6	-42.3	23.0	0.00e+00	0	42	0	694157312	54	3996
2026-01-23 09:55:48.07	191.68	70.00	-41.8	-42.5	22.7	0.00e+00	0	42	0	697303040	54	4098
2026-01-23 09:55:49.08	192.51	70.38	-41.9	-42.6	22.7	0.00e+00	0	43	0	700448768	54	4142
2026-01-23 09:55:50.08	193.37	70.76	-41.6	-42.3	22.9	0.00e+00	0	43	0	703594496	54	3999
2026-01-23 09:55:51.09	194.27	71.14	-41.4	-42.2	23.1	0.00e+00	0	43	0	706740224	54	3932
2026-01-23 09:55:52.10	195.20	71.52	-41.5	-42.3	23.0	0.00e+00	0	42	0	709885952	54	3967
2026-01-23 09:55:53.11	196.18	71.89	-41.3	-42.1	23.2	0.00e+00	0	42	0	713031680	54	3884
2026-01-23 09:55:54.12	197.21	72.26	-41.2	-42.0	23.3	0.00e+00	0	42	0	716177408	54	3828
2026-01-23 09:55:55.13	198.28	72.63	-41.2	-42.0	23.3	0.00e+00	0	42	0	719323136	54	3831
2026-01-23 09:55:56.13	199.38	72.98	-41.2	-41.9	23.3	0.00e+00	0	42	0	722468864	54	3790
2026-01-23 09:55:57.14	200.55	73.34	-40.9	-41.6	23.6	0.00e+00	0	43	0	725614592	53	3871
2026-01-23 09:55:58.15	201.77	73.69	-41.0	-41.7	23.5	0.00e+00	0	42	0	728760320	53	3931
2026-01-23 09:55:59.16	203.04	74.03	-41.1	-41.8	23.5	0.00e+00	0	43	0	731906048	53	3981
2026-01-23 09:56:00.17	204.37	74.37	-41.3	-42.0	23.3	0.00e+00	0	42	0	735051776	53	4089
2026-01-23 09:56:01.18	205.77	74.70	-41.3	-42.1	23.3	0.00e+00	0	42	0	738197504	53	4115
2026-01-23 09:56:02.19	207.22	75.02	-41.5	-42.3	23.1	0.00e+00	0	42	0	741343232	53	4219
2026-01-23 09:56:03.20	208.74	75.33	-41.5	-42.2	23.2	0.00e+00	0	42	0	744488960	53	4167
2026-01-23 09:56:04.20	210.31	75.63	-41.5	-42.2	23.1	0.00e+00	0	43	0	747634688	53	4192
2026-01-23 09:56:05.21	211.97	75.92	-41.7	-42.5	22.9	0.00e+00	0	42	0	750780416	54	4077
2026-01-23 09:56:06.22	213.69	76.20	-41.6	-42.3	23.1	0.00e+00	0	42	0	753926144	54	4003
2026-01-23 09:56:07.23	215.49	76.47	-41.3	-42.0	23.3	0.00e+00	0	42	0	757071872	54	3864
2026-01-23 09:56:08.24	217.37	76.73	-41.2	-41.9	23.2	0.00e+00	0	42	0	760217600	54	3808
2026-01-23 09:56:09.25	219.31	76.97	-41.7	-42.5	22.7	0.00e+00	0	42	0	763363328	54	4080
2026-01-23 09:56:10.26	221.33	77.20	-41.9	-42.7	22.7	0.00e+00	0	43	0	766509056	54	4177
2026-01-23 09:56:11.26	223.40	77.40	-41.9	-42.7	22.7	0.00e+00	0	42	0	769654784	54	4171
2026-01-23 09:56:12.27	225.56	77.60	-42.1	-42.9	22.1	0.00e+00	0	43	0	772800512	54	4257
2026-01-23 09:56:13.28	227.79	77.78	-42.2	-43.0	22.1	0.00e+00	0	42	0	775946240	55	4098
2026-01-23 09:56:14.29	230.08	77.94	-42.0	-42.8	22.5	0.00e+00	0	42	0	779091968	55	3985
2026-01-23 09:56:15.30	232.43	78.08	-41.9	-42.7	22.6	0.00e+00	0	42	0	782237696	55	3926
2026-01-23 09:56:16.31	234.83	78.20	-41.7	-42.4	22.4	0.00e+00	0	43	0	785383424	55	3822
2026-01-23 09:56:17.32	237.28	78.30	-41.6	-42.3	22.5	0.00e+00	0	42	0	788529152	55	3773
2026-01-23 09:56:18.32	239.74	78.38	-41.1	-41.8	23.1	0.00e+00	0	42	0	791674880	54	3773
2026-01-23 09:56:19.33	242.26	78.43	-41.3	-42.0	23.1	0.00e+00	0	42	0	794820608	54	3864
2026-01-23 09:56:20.34	244.80	78.47	-41.5	-42.3	23.0	0.00e+00	0	42	0	797966336	54	3960
2026-01-23 09:56:21.35	247.35	78.48	-41.7	-42.4	22.9	0.00e+00	0	42	0	801112064	54	4050
2026-01-23 09:56:22.35	249.87	78.47	-41.5	-42.2	23.1	0.00e+00	0	42	0	804257792	54	3958
2026-01-23 09:56:23.36	252.42	78.44	-41.4	-42.1	23.2	0.00e+00	0	42	0	807403520	54	3881
2026-01-23 09:56:24.37	254.94	78.39	-41.2	-41.9	23.4	0.00e+00	0	42	0	810549248	54	3799
2026-01-23 09:56:25.38	257.43	78.31	-40.7	-41.4	23.7	0.00e+00	0	42	0	813694976	53	3801
2026-01-23 09:56:26.39	259.89	78.22	-40.6	-41.3	23.9	0.00e+00	0	42	0	816840704	53	3739
2026-01-23 09:56:27.40	262.30	78.10	-40.6	-41.3	23.6	0.00e+00	0	42	0	819986432	53	3745
2026-01-23 09:56:28.40	264.64	77.97	-40.7	-41.4	23.7	0.00e+00	0	42	0	823132160	53	3785
2026-01-23 09:56:29.41	266.94	77.81	-40.7	-41.4	23.7	0.00e+00	0	42	0	826277888	53	3794
2026-01-23 09:56:30.42	269.18	77.64	-41.2	-41.9	23.2	0.00e+00	0	42	0	829423616	53	4018
2026-01-23 09:56:31.43	271.35	77.45	-41.4	-42.2	23.1	0.00e+00	0	42	0	832569344	53	4153
2026-01-23 09:56:32.44	273.46	77.24	-41.6	-42.3	23.0	0.00e+00	0	42	0	835715072	53	4242
2026-01-23 09:56:33.44	275.47	77.02	-41.6	-42.3	23.1	0.00e+00	0	42	0	838860800	53	4231
2026-01-23 09:56:34.45	277.43	76.78	-41.8	-42.6	22.8	0.00e+00	0	42	0	842006528	54	4115
2026-01-23 09:56:35.46	279.31	76.52	-41.8	-42.6	22.8	0.00e+00	0	42	0	845152256	54	4127
2026-01-23 09:56:36.47	281.13	76.26	-41.2	-41.9	23.4	0.00e+00	0	42	0	848297984	54	3801
2026-01-23 09:56:37.48	282.87	75.98	-41.1	-41.8	23.4	0.00e+00	0	42	0	851443712	54	3748
2026-01-23 09:56:38.48	284.52	75.69	-41.3	-42.0	23.0	0.00e+00	0	42	0	854589440	54	3853
2026-01-23 09:56:39.49	286.12	75.39	-41.4	-42.2	23.1	0.00e+00	0	42	0	857735168	54	3924
2026-01-23 09:56:40.50	287.65	75.08	-41.5	-42.2	23.1	0.00e+00	0	42	0	860880896	54	3957
2026-01-23 09:56:41.51	289.12	74.77	-41.8	-42.6	22.8	0.00e+00	0	42	0	864026624	54	4100
2026-01-23 09:56:42.52	290.52	74.44	-41.5	-42.2	23.1	0.00e+00	0	42	0	867172352	54	3940
2026-01-23 09:56:43.53	291.87	74.10	-41.0	-41.7	23.5	0.00e+00	0	42	0	870318080	53	3931
2026-01-23 09:56:44.54	293.15	73.76	-41.5	-42.3	23.2	0.00e+00	0	42	0	873463808	53	4204
2026-01-23 09:56:45.55	294.38	73.41	-41.8	-42.5	22.9	0.00e+00	0	42	0	876609536	54	4095
2026-01-23 09:56:46.56	295.56	73.06	-41.7	-42.4	22.9	0.00e+00	0	43	0	879755264	54	4047
2026-01-23 09:56:47.56	296.67	72.71	-41.4	-42.2	23.2	0.00e+00	0	42	0	882900992	54	3917
2026-01-23 09:56:48.57	297.75	72.34	-41.3	-42.1	23.3	0.00e+00	0	42	0	886046720	54	3869
2026-01-23 09:56:49.58	298.78	71.97	-40.8	-41.5	23.6	0.00e+00	0	42	0	889192448	53	3843
2026-01-23 09:56:50.59	299.77	71.60	-40.8	-41.5	23.2	0.00e+00	0	42	0	892338176	53	3850
2026-01-23 09:56:51.60	300.72	71.22	-41.4	-42.2	23.1	0.00e+00	0	42	0	895483904	53	4151
2026-01-23 09:56:52.60	301.61	70.85	-41.6	-42.4	23.0	0.00e+00	0	42	0	898629632	53	4247
2026-01-23 09:56:53.61	302.48	70.47	-41.6	-42.3	23.0	0.00e+00	0	42	0	901775360	53	4220
2026-01-23 09:56:54.62	303.32	70.08	-41.4	-42.2	23.0	0.00e+00	0	42	0	904921088	53	4151
2026-01-23 09:56:55.63	304.12	69.70	-41.5	-42.3	23.0	0.00e+00	0	42	0	908066816	53	4200
2026-01-23 09:56:56.64	304.89	69.31	-41.6	-42.4	22.7	0.00e+00	0	43	0	911212544	53	4246
2026-01-23 09:56:57.65	305.63	68.92	-41.6	-42.4	23.1	0.00e+00	0	42	0	914358272	53	4248
2026-01-23 09:56:58.66	306.34	68.53	-42.0	-42.7	22.8	0.00e+00	0	42	0	917504000	54	4183
2026-01-23 09:56:59.66	307.01	68.14	-41.8	-42.5	22.9	0.00e+00	0	42	0	920649728	54	4091
2026-01-23 09:57:00.67	307.67	67.74	-41.7	-42.5	22.8	0.00e+00	0	42	0	923795456	54	4052
2026-01-23 09:57:01.68	308.30	67.35	-41.4	-42.1	22.9	0.00e+00	0	42	0	926941184	54	3887
2026-01-23 09:57:02.69	308.91	66.95	-41.2	-41.9	23.3	0.00e+00	0	42	0	930086912	54	3790
2026-01-23 09:57:03.69	309.49	66.56	-40.9	-41.6	23.6	0.00e+00	0	42	0	933232640	53	3879
2026-01-23 09:57:04.70	310.06	66.17	-40.9	-41.6	23.7	0.00e+00	0	42	0	936378368	53	3872
2026-01-23 09:57:05.71	310.60	65.77	-41.5	-42.2	23.0	0.00e+00	0	42	0	940572672	53	4167
2026-01-23 09:57:06.72	311.13	65.37	-41.9	-42.7	22.8	0.00e+00	0	42	0	942669824	54	4148
2026-01-23 09:57:07.73	311.64	64.98	-41.6	-42.3	23.0	0.00e+00	0	42	0	945815552	54	3999
2026-01-23 09:57:08.74	312.13	64.58	-41.5	-42.2	23.2	0.00e+00	0	42	0	948961280	54	3937
2026-01-23 09:57:09.75	312.60	64.19	-41.5	-42.3	23.2	0.00e+00	0	42	0	952107008	54	3977
2026-01-23 09:57:10.76	313.06	63.80	-41.3	-42.1	23.2	0.00e+00	0	42	0	955252736	54	3870
2026-01-23 09:57:11.76	313.50	63.41	-41.2	-41.9	23.4	0.00e+00	0	42	0	958398464	54	3805
2026-01-23 09:57:12.77	313.92	63.01	-41.4	-42.1	23.3	0.00e+00	0	42	0	961544192	54	3909
2026-01-23 09:57:13.78	314.34	62.62	-42.2	-43.0	22.5	0.00e+00	0	42	0	964689920	54	4306
2026-01-23 09:57:14.79	314.74	62.23	-42.5	-43.3	22.2	0.00e+00	0	42	0	967835648	55	4212
2026-01-23 09:57:15.79	315.13	61.85	-42.1	-42.9	22.5	0.00e+00	0	42	0	970981376	55	4013
2026-01-23 09:57:16.80	315.50	61.46	-41.9	-42.7	22.6	0.00e+00	0	42	0	974127104	55	3921
2026-01-23 09:57:17.81	315.87	61.07	-42.0	-42.8	22.7	0.00e+00	0	42	0	977272832	55	3989
2026-01-23 09:57:18.82	316.23	60.69	-41.9	-42.6	22.7	0.00e+00	0	42	0	981467136	55	3897
2026-01-23 09:57:19.82	316.57	60.31	-41.6	-42.3	23.0	0.00e+00	0	42	0	984612864	55	3780
2026-01-23 09:57:20.83	316.90	59.92	-41.6	-42.4	23.1	0.00e+00	0	42	0	987758592	55	3785
2026-01-23 09:57:21.84	317.23	59.54	-42.4	-43.2	22.3	0.00e+00	0	42	0	989855744	55	4181
2026-01-23 09:57:22.85	317.54	59.16	-43.2	-44.1	21.5	0.00e+00	0	42	0	993001472	56	4352
2026-01-23 09:57:23.86	317.85	58.79	-43.3	-44.2	21.2	0.00e+00	0	42	0	996147200	57	4169
2026-01-23 09:57:24.87	318.15	58.41	-42.9	-43.8	21.8	0.00e+00	0	42	0	999292928	57	3961
2026-01-23 09:57:25.88	318.44	58.03	-42.5	-43.3	22.3	0.00e+00	0	42	0	1002438656	57	3758
2026-01-23 09:57:26.88	318.72	57.67	-42.3	-43.1	22.3	0.00e+00	0	42	0	1005584384	56	3886
2026-01-23 09:57:27.89	318.99	57.29	-42.5	-43.3	22.4	0.00e+00	0	42	0	1008730112	56	3960
2026-01-23 09:57:28.90	319.26	56.93	-43.1	-44.0	21.9	0.00e+00	0	42	0	1011875840	56	4292
2026-01-23 09:57:29.91	319.52	56.56	-43.5	-44.4	21.4	0.00e+00	0	42	0	1015021568	57	4283
2026-01-23 09:57:30.91	319.77	56.20	-43.9	-44.8	21.1	0.00e+00	0	42	0	1019215872	58	4232
2026-01-23 09:57:31.92	320.02	55.83	-44.0	-44.9	21.0	0.00e+00	0	42	0	1022361600	58	4276
2026-01-23 09:57:32.93	320.26	55.47	-44.0	-44.9	21.0	0.00e+00	0	43	0	1025507328	58	4286
2026-01-23 09:57:33.94	320.49	55.11	-43.9	-44.8	20.9	0.00e+00	0	42	0	1028653056	58	4241
2026-01-23 09:57:34.95	320.72	54.75	-43.6	-44.5	21.2	0.00e+00	0	42	0	1031798784	58	4064
2026-01-23 09:57:35.95	320.94	54.40	-43.1	-43.9	21.8	0.00e+00	0	42	0	1034944512	58	3811
2026-01-23 09:57:36.96	321.16	54.05	-42.9	-43.7	22.0	0.00e+00	0	42	0	1037041664	57	3922
2026-01-23 09:57:37.97	321.38	53.70	-43.1	-44.0	21.8	0.00e+00	0	42	0	1040187392	57	4064
2026-01-23 09:57:38.98	321.58	53.35	-44.0	-45.0	20.9	0.00e+00	0	43	0	1043333120	58	4304
2026-01-23 09:57:39.98	321.79	53.00	-44.5	-45.5	20.4	0.00e+00	0	42	0	1046478848	59	4316
2026-01-23 09:57:40.99	321.99	52.66	-44.5	-45.5	20.5	0.00e+00	0	42	0	1049624576	59	4301
2026-01-23 09:57:42.00	322.18	52.31	-44.2	-45.1	20.8	0.00e+00	0	42	0	1052770304	59	4117
2026-01-23 09:57:43.01	322.37	51.97	-44.3	-45.2	20.5	0.00e+00	0	42	0	1056964608	59	4186
2026-01-23 09:57:44.02	322.56	51.63	-44.4	-45.4	20.5	0.00e+00	0	42	0	1060110336	59	4258
2026-01-23 09:57:45.03	322.74	51.29	-44.6	-45.6	20.0	0.00e+00	0	42	0	1063256064	60	4132
2026-01-23 09:57:46.03	322.91	50.96	-44.8	-45.8	19.8	0.00e+00	0	43	0	1066401792	60	4217
2026-01-23 09:57:47.04	323.09	50.63	-44.5	-45.5	20.1	0.00e+00	0	43	0	1069547520	60	4086
2026-01-23 09:57:48.05	323.26	50.30	-44.4	-45.4	20.3	0.00e+00	0	42	0	1072693248	60	4006
2026-01-23 09:57:49.06	323.42	49.97	-44.2	-45.1	20.8	0.00e+00	0	42	0	1075838976	59	4133
2026-01-23 09:57:50.07	323.59	49.64	-44.3	-45.2	20.7	0.00e+00	0	42	0	1078984704	59	4166
2026-01-23 09:57:51.08	323.75	49.32	-44.5	-45.5	20.2	0.00e+00	0	42	0	1082130432	59	4308
2026-01-23 09:57:52.09	323.90	49.00	-44.7	-45.7	19.9	0.00e+00	0	42	0	1084227584	60	4149
2026-01-23 09:57:53.10	324.06	48.68	-44.9	-45.9	19.7	0.00e+00	0	43	0	1087373312	60	4290
2026-01-23 09:57:54.10	324.21	48.36	-44.7	-45.7	19.9	0.00e+00	0	42	0	1090519040	60	4156
2026-01-23 09:57:55.11	324.35	48.05	-44.2	-45.1	20.2	0.00e+00	0	42	0	1094713344	60	3913
2026-01-23 09:57:56.12	324.50	47.73	-44.0	-44.8	20.5	0.00e+00	0	42	0	1097859072	60	3770
2026-01-23 09:57:57.13	324.64	47.42	-44.2	-45.1	20.6	0.00e+00	0	42	0	1101004800	59	4115
2026-01-23 09:57:58.14	324.78	47.11	-44.3	-45.2	20.6	0.00e+00	0	42	0	1104150528	59	4165
2026-01-23 09:57:59.15	324.92	46.80	-44.6	-45.6	20.0	0.00e+00	0	42	0	1107296256	60	4100
2026-01-23 09:58:00.15	325.05	46.50	-45.1	-46.2	19.4	0.00e+00	0	42	0	1110441984	60	4429
2026-01-23 09:58:01.16	325.18	46.20	-45.4	-46.5	19.1	0.00e+00	0	42	0	1113587712	61	4305
2026-01-23 09:58:02.17	325.31	45.90	-45.0	-46.1	19.5	0.00e+00	0	43	0	1116733440	61	4101
2026-01-23 09:58:03.18	325.43	45.60	-45.0	-46.0	19.6	0.00e+00	0	42	0	1119879168	61	4094
2026-01-23 09:58:04.19	325.56	45.30	-45.1	-46.2	19.5	0.00e+00	0	43	0	1123024896	61	4162
2026-01-23 09:58:05.20	325.68	45.00	-45.0	-46.0	19.6	0.00e+00	0	42	0	1126170624	61	4059
2026-01-23 09:58:06.20	325.80	44.71	-45.2	-46.3	19.3	0.00e+00	0	42	0	1129316352	61	4202
2026-01-23 09:58:07.21	325.92	44.42	-45.5	-46.6	19.1	0.00e+00	0	42	0	1132462080	61	4376
2026-01-23 09:58:08.22	326.03	44.13	-45.7	-46.8	18.8	0.00e+00	0	43	0	1135607808	61	4480
2026-01-23 09:58:09.23	326.15	43.85	-45.6	-46.8	18.6	0.00e+00	0	42	0	1138753536	62	4210
2026-01-23 09:58:10.24	326.26	43.56	-45.7	-46.8	18.3	0.00e+00	0	42	0	1141899264	62	4239
2026-01-23 09:58:11.25	326.37	43.28	-45.5	-46.7	18.4	0.00e+00	0	43	0	1145044992	62	4150
2026-01-23 09:58:12.25	326.48	43.00	-45.0	-46.0	19.3	0.00e+00	0	42	0	1148190720	62	3850
2026-01-23 09:58:13.26	326.58	42.72	-44.4	-45.4	20.0	0.00e+00	0	42	0	1151336448	60	4006
2026-01-23 09:58:14.27	326.69	42.44	-44.0	-44.9	20.4	0.00e+00	0	42	0	1154482176	60	3821
2026-01-23 09:58:15.28	326.79	42.17	-44.2	-45.1	20.6	0.00e+00	0	42	0	1157627904	59	4122
2026-01-23 09:58:16.29	326.89	41.90	-44.5	-45.4	20.4	0.00e+00	0	42	0	1160773632	59	4284
2026-01-23 09:58:17.30	326.99	41.62	-44.5	-45.5	20.1	0.00e+00	0	42	0	1163919360	60	4086
2026-01-23 09:58:18.30	327.09	41.36	-44.7	-45.7	19.9	0.00e+00	0	43	0	1167065088	60	4164
2026-01-23 09:58:19.31	327.19	41.09	-44.7	-45.7	20.0	0.00e+00	0	42	0	1170210816	60	4166
2026-01-23 09:58:20.32	327.28	40.82	-44.8	-45.8	19.8	0.00e+00	0	42	0	1173356544	60	4199
2026-01-23 09:58:21.32	327.37	40.56	-44.4	-45.4	20.2	0.00e+00	0	42	0	1176502272	60	4018
2026-01-23 09:58:22.33	327.46	40.30	-44.6	-45.5	19.9	0.00e+00	0	42	0	1179648000	60	4095
2026-01-23 09:58:23.34	327.56	40.04	-44.8	-45.8	19.8	0.00e+00	0	42	0	1182793728	60	4215
2026-01-23 09:58:24.35	327.64	39.78	-45.2	-46.3	19.3	0.00e+00	0	42	0	1185939456	61	4242
2026-01-23 09:58:25.36	327.73	39.53	-45.6	-46.8	18.9	0.00e+00	0	42	0	1189085184	61	4467
2026-01-23 09:58:26.37	327.82	39.27	-45.9	-47.2	18.3	0.00e+00	0	42	0	1192230912	62	4440
2026-01-23 09:58:27.38	327.91	39.02	-46.1	-47.5	18.2	0.00e+00	0	42	0	1195376640	62	4549
2026-01-23 09:58:28.39	327.99	38.77	-45.9	-47.2	18.4	0.00e+00	0	42	0	1198522368	62	4423
2026-01-23 09:58:29.40	328.07	38.52	-45.7	-46.9	18.7	0.00e+00	0	42	0	1201668096	62	4289
2026-01-23 09:58:30.40	328.15	38.28	-45.4	-46.6	19.0	0.00e+00	0	42	0	1204813824	62	4124
2026-01-23 09:58:31.41	328.23	38.03	-45.2	-46.3	19.3	0.00e+00	0	42	0	1207959552	62	3994
2026-01-23 09:58:32.42	328.31	37.79	-44.7	-45.7	19.8	0.00e+00	0	43	0	1211105280	61	3920
2026-01-23 09:58:33.43	328.39	37.54	-44.1	-45.0	20.4	0.00e+00	0	42	0	1214251008	60	3852
2026-01-23 09:58:34.44	328.47	37.30	-43.9	-44.8	20.8	0.00e+00	0	42	0	1217396736	59	3971
2026-01-23 09:58:35.45	328.55	37.06	-43.8	-44.6	21.0	0.00e+00	0	42	0	1220542464	59	3903
2026-01-23 09:58:36.46	328.62	36.83	-43.8	-44.7	20.9	0.00e+00	0	42	0	1223688192	59	3951
2026-01-23 09:58:37.47	328.69	36.59	-43.4	-44.3	21.3	0.00e+00	0	42	0	1226833920	58	3972
2026-01-23 09:58:38.48	328.77	36.36	-43.5	-44.4	21.2	0.00e+00	0	43	0	1229979648	58	4030
2026-01-23 09:58:39.49	328.84	36.13	-43.8	-44.7	21.0	0.00e+00	0	42	0	1233125376	58	4153
2026-01-23 09:58:40.49	328.91	35.90	-43.8	-44.7	20.9	0.00e+00	0	42	0	1236271104	58	4184
2026-01-23 09:58:41.50	328.98	35.67	-43.8	-44.7	20.9	0.00e+00	0	42	0	1239416832	58	4172
2026-01-23 09:58:42.50	329.05	35.44	-43.8	-44.7	21.0	0.00e+00	0	42	0	1242562560	58	4164
2026-01-23 09:58:43.51	329.12	35.22	-43.7	-44.6	21.1	0.00e+00	0	42	0	1245708288	58	4114
2026-01-23 09:58:44.52	329.19	34.99	-43.8	-44.6	21.0	0.00e+00	0	42	0	1248854016	58	4142
2026-01-23 09:58:45.53	329.25	34.77	-43.7	-44.5	21.0	0.00e+00	0	43	0	1251999744	58	4095
2026-01-23 09:58:46.54	329.32	34.55	-43.8	-44.7	21.0	0.00e+00	0	42	0	1255145472	58	4150
2026-01-23 09:58:47.54	329.38	34.33	-43.8	-44.7	20.9	0.00e+00	0	42	0	1258291200	58	4162
2026-01-23 09:58:48.55	329.45	34.11	-43.8	-44.7	20.9	0.00e+00	0	42	0	1261436928	58	4179
2026-01-23 09:58:49.56	329.51	33.90	-43.9	-44.8	20.9	0.00e+00	0	42	0	1264582656	58	4198
2026-01-23 09:58:50.57	329.57	33.68	-44.0	-44.9	20.6	0.00e+00	0	42	0	1267728384	58	4286
2026-01-23 09:58:51.58	329.63	33.47	-44.1	-45.1	20.6	0.00e+00	0	42	0	1270874112	58	4362
2026-01-23 09:58:52.59	329.70	33.25	-44.1	-45.1	20.5	0.00e+00	0	42	0	1274019840	58	4356
2026-01-23 09:58:53.60	329.76	33.04	-44.1	-45.1	20.5	0.00e+00	0	42	0	1277165568	58	4355
2026-01-23 09:58:54.60	329.82	32.84	-44.1	-45.0	20.6	0.00e+00	0	42	0	1280311296	58	4327
2026-01-23 09:58:55.61	329.87	32.63	-43.7	-44.6	20.9	0.00e+00	0	42	0	1283457024	58	4143
2026-01-23 09:58:56.62	329.93	32.42	-43.4	-44.3	21.2	0.00e+00	0	43	0	1286602752	58	3986
2026-01-23 09:58:57.63	329.99	32.22	-43.2	-44.1	21.2	0.00e+00	0	42	0	1289748480	58	3897
2026-01-23 09:58:58.64	330.05	32.01	-43.1	-44.0	21.3	0.00e+00	0	42	0	1292894208	58	3827
2026-01-23 09:58:59.64	330.10	31.81	-42.9	-43.8	21.4	0.00e+00	0	42	0	1296039936	57	3968
2026-01-23 09:59:00.65	330.16	31.61	-43.0	-43.8	21.4	0.00e+00	0	42	0	1299185664	57	4001
2026-01-23 09:59:01.65	330.21	31.41	-43.0	-43.8	21.4	0.00e+00	0	42	0	1302331392	57	3994
2026-01-23 09:59:02.66	330.27	31.22	-43.0	-43.9	21.4	0.00e+00	0	42	0	1305477120	57	4017
2026-01-23 09:59:03.67	330.32	31.02	-42.9	-43.7	21.6	0.00e+00	0	42	0	1308622848	57	3946
2026-01-23 09:59:04.68	330.38	30.82	-42.6	-43.4	21.8	0.00e+00	0	42	0	1311768576	57	3817
2026-01-23 09:59:05.69	330.43	30.63	-42.5	-43.3	21.9	0.00e+00	0	42	0	1314914304	56	4001
2026-01-23 09:59:06.70	330.48	30.43	-42.5	-43.3	22.0	0.00e+00	0	43	0	1318060032	56	3979
2026-01-23 09:59:07.70	330.53	30.24	-42.5	-43.4	21.9	0.00e+00	0	42	0	1321205760	56	4007
2026-01-23 09:59:08.71	330.58	30.05	-42.6	-43.4	21.9	0.00e+00	0	42	0	1324351488	56	4050
2026-01-23 09:59:09.72	330.63	29.86	-42.6	-43.4	21.9	0.00e+00	0	42	0	1327497216	56	4051
2026-01-23 09:59:10.73	330.68	29.68	-42.6	-43.4	21.9	0.00e+00	0	42	0	1330642944	56	4041
2026-01-23 09:59:11.73	330.73	29.49	-42.7	-43.5	21.9	0.00e+00	0	42	0	1333788672	56	4085
2026-01-23 09:59:12.74	330.78	29.30	-42.6	-43.5	21.9	0.00e+00	0	42	0	1336934400	56	4053
2026-01-23 09:59:13.75	330.83	29.12	-42.7	-43.5	21.9	0.00e+00	0	42	0	1340080128	56	4065
2026-01-23 09:59:14.76	330.88	28.94	-42.7	-43.5	21.9	0.00e+00	0	42	0	1343225856	56	4076
2026-01-23 09:59:15.77	330.92	28.75	-42.8	-43.6	21.8	0.00e+00	0	42	0	1346371584	56	4129
2026-01-23 09:59:16.77	330.97	28.57	-42.9	-43.7	21.7	0.00e+00	0	42	0	1349517312	56	4192
2026-01-23 09:59:17.78	331.02	28.39	-43.1	-43.9	21.5	0.00e+00	0	42	0	1352663040	56	4282
2026-01-23 09:59:18.79	331.06	28.22	-43.3	-44.2	21.4	0.00e+00	0	42	0	1355808768	57	4146
2026-01-23 09:59:19.79	331.11	28.04	-43.4	-44.3	21.2	0.00e+00	0	43	0	1358954496	57	4201
2026-01-23 09:59:20.80	331.15	27.86	-43.3	-44.2	21.3	0.00e+00	0	42	0	1362100224	57	4184
2026-01-23 09:59:21.81	331.20	27.69	-43.4	-44.3	21.2	0.00e+00	0	43	0	1365245952	57	4214
2026-01-23 09:59:22.82	331.24	27.51	-43.4	-44.3	21.2	0.00e+00	0	42	0	1368391680	57	4219
2026-01-23 09:59:23.83	331.28	27.34	-43.2	-44.1	21.4	0.00e+00	0	42	0	1371537408	57	4130
2026-01-23 09:59:24.84	331.33	27.17	-43.4	-44.3	21.3	0.00e+00	0	43	0	1374683136	57	4204
2026-01-23 09:59:25.84	331.37	27.00	-43.1	-44.0	21.4	0.00e+00	0	42	0	1377828864	57	4072
2026-01-23 09:59:26.85	331.41	26.83	-43.2	-44.1	21.4	0.00e+00	0	42	0	1380974592	57	4102
2026-01-23 09:59:27.86	331.46	26.66	-43.0	-43.9	21.5	0.00e+00	0	42	0	1384120320	57	4032
2026-01-23 09:59:28.87	331.50	26.49	-42.9	-43.8	21.7	0.00e+00	0	42	0	1387266048	57	3960
2026-01-23 09:59:29.87	331.54	26.33	-43.0	-43.9	21.5	0.00e+00	0	42	0	1390411776	57	4005
2026-01-23 09:59:30.88	331.58	26.16	-42.9	-43.8	21.5	0.00e+00	0	42	0	1393557504	57	3988
2026-01-23 09:59:31.89	331.62	26.00	-42.8	-43.7	21.6	0.00e+00	0	42	0	1396703232	57	3948
2026-01-23 09:59:32.90	331.66	25.83	-42.8	-43.7	21.7	0.00e+00	0	42	0	1399848960	57	3916
2026-01-23 09:59:33.90	331.70	25.67	-42.9	-43.7	21.6	0.00e+00	0	43	0	1402994688	57	3951
2026-01-23 09:59:34.91	331.74	25.51	-42.7	-43.6	21.7	0.00e+00	0	42	0	1406140416	57	3892
2026-01-23 09:59:35.92	331.78	25.35	-42.8	-43.6	21.7	0.00e+00	0	43	0	1409286144	57	3905
2026-01-23 09:59:36.93	331.82	25.19	-42.8	-43.6	21.7	0.00e+00	0	42	0	1412431872	57	3895
2026-01-23 09:59:37.94	331.85	25.03	-42.7	-43.5	21.7	0.00e+00	0	42	0	1415577600	57	3859
2026-01-23 09:59:38.94	331.89	24.87	-42.8	-43.7	21.6	0.00e+00	0	42	0	1418723328	57	3938
2026-01-23 09:59:39.95	331.93	24.71	-42.6	-43.5	21.7	0.00e+00	0	42	0	1421869056	57	3833
2026-01-23 09:59:40.96	331.97	24.56	-42.8	-43.7	21.6	0.00e+00	0	42	0	1425014784	57	3917
2026-01-23 09:59:41.97	332.00	24.40	-42.6	-43.4	21.7	0.00e+00	0	42	0	1428160512	57	3800
2026-01-23 09:59:42.97	332.04	24.25	-42.7	-43.6	21.7	0.00e+00	0	43	0	1431306240	57	3881
2026-01-23 09:59:43.98	332.08	24.10	-42.7	-43.5	21.6	0.00e+00	0	43	0	1434451968	57	3866
2026-01-23 09:59:44.99	332.11	23.94	-42.8	-43.6	21.5	0.00e+00	0	42	0	1437597696	57	3902
2026-01-23 09:59:46.00	332.15	23.79	-42.8	-43.7	21.6	0.00e+00	0	42	0	1440743424	57	3924
2026-01-23 09:59:47.01	332.18	23.64	-42.6	-43.4	21.7	0.00e+00	0	42	0	1443889152	57	3822
2026-01-23 09:59:48.01	332.22	23.49	-42.5	-43.3	21.8	0.00e+00	0	43	0	1447034880	56	3983
2026-01-23 09:59:49.02	332.25	23.34	-42.5	-43.3	21.8	0.00e+00	0	42	0	1450180608	56	4001
2026-01-23 09:59:50.03	332.29	23.19	-42.5	-43.3	21.8	0.00e+00	0	42	0	1453326336	56	3982
2026-01-23 09:59:51.04	332.32	23.05	-42.4	-43.2	21.8	0.00e+00	0	42	0	1456472064	56	3947
2026-01-23 09:59:52.05	332.36	22.90	-42.3	-43.1	21.9	0.00e+00	0	43	0	1459617792	56	3900
2026-01-23 09:59:53.05	332.39	22.76	-42.4	-43.2	21.8	0.00e+00	0	42	0	1462763520	56	3927
2026-01-23 09:59:54.06	332.42	22.61	-42.4	-43.3	21.8	0.00e+00	0	43	0	1465909248	56	3959
2026-01-23 09:59:55.07	332.46	22.47	-42.2	-43.0	21.9	0.00e+00	0	42	0	1469054976	56	3867
2026-01-23 09:59:56.08	332.49	22.32	-42.3	-43.1	21.9	0.00e+00	0	42	0	1472200704	56	3876
2026-01-23 09:59:57.09	332.52	22.18	-42.1	-42.9	22.0	0.00e+00	0	42	0	1475346432	56	3820
2026-01-23 09:59:58.09	332.55	22.04	-42.2	-43.0	22.0	0.00e+00	0	42	0	1478492160	56	3846
2026-01-23 09:59:59.10	332.59	21.90	-42.1	-42.9	22.0	0.00e+00	0	42	0	1481637888	56	3816
2026-01-23 10:00:00.11	332.62	21.76	-42.1	-43.0	22.1	0.00e+00	0	42	0	1484783616	56	3825
2026-01-23 10:00:01.12	332.65	21.62	-42.2	-43.0	22.0	0.00e+00	0	42	0	1487929344	56	3856
2026-01-23 10:00:02.12	332.68	21.48	-42.3	-43.1	22.0	0.00e+00	0	42	0	1491075072	56	3871
2026-01-23 10:00:03.13	332.71	21.34	-42.3	-43.1	22.0	0.00e+00	0	43	0	1494220800	56	3873
2026-01-23 10:00:04.14	332.74	21.21	-42.3	-43.1	22.0	0.00e+00	0	42	0	1497366528	56	3876
2026-01-23 10:00:05.15	332.77	21.07	-42.3	-43.1	22.0	0.00e+00	0	42	0	1500512256	56	3903
2026-01-23 10:00:06.16	332.80	20.93	-42.3	-43.1	22.0	0.00e+00	0	42	0	1503657984	56	3891
2026-01-23 10:00:07.17	332.84	20.80	-42.3	-43.1	22.0	0.00e+00	0	43	0	1506803712	56	3892
2026-01-23 10:00:08.18	332.87	20.66	-42.4	-43.2	21.9	0.00e+00	0	42	0	1509949440	56	3921
2026-01-23 10:00:09.18	332.89	20.53	-42.4	-43.2	22.0	0.00e+00	0	42	0	1513095168	56	3923
2026-01-23 10:00:10.19	332.92	20.40	-42.4	-43.2	21.9	0.00e+00	0	43	0	1516240896	56	3957
2026-01-23 10:00:11.20	332.95	20.27	-42.5	-43.3	21.8	0.00e+00	0	42	0	1519386624	56	4000
2026-01-23 10:00:12.21	332.98	20.13	-42.4	-43.2	21.9	0.00e+00	0	42	0	1522532352	56	3925
2026-01-23 10:00:13.22	333.01	20.00	-42.5	-43.3	21.8	0.00e+00	0	42	0	1525678080	56	3979
2026-01-23 10:00:14.23	333.04	19.87	-42.5	-43.3	21.8	0.00e+00	0	42	0	1528823808	56	3987
2026-01-23 10:00:15.24	333.07	19.74	-42.6	-43.4	21.7	0.00e+00	0	42	0	1531969536	56	4025
2026-01-23 10:00:16.24	333.10	19.62	-42.7	-43.5	21.6	0.00e+00	0	42	0	1535115264	56	4087
2026-01-23 10:00:17.25	333.13	19.49	-42.7	-43.5	21.6	0.00e+00	0	43	0	1538260992	56	4089
2026-01-23 10:00:18.26	333.15	19.36	-42.9	-43.7	21.5	0.00e+00	0	42	0	1541406720	56	4183
2026-01-23 10:00:19.27	333.18	19.23	-42.9	-43.8	21.4	0.00e+00	0	42	0	1544552448	56	4198
2026-01-23 10:00:20.27	333.21	19.11	-42.9	-43.8	21.4	0.00e+00	0	42	0	1547698176	56	4217
2026-01-23 10:00:21.28	333.24	18.98	-43.0	-43.9	21.3	0.00e+00	0	42	0	1550843904	56	4279
2026-01-23 10:00:22.29	333.26	18.86	-43.1	-44.0	21.2	0.00e+00	0	42	0	1553989632	56	4331
2026-01-23 10:00:23.29	333.29	18.73	-43.1	-44.0	21.2	0.00e+00	0	42	0	1557135360	56	4319
2026-01-23 10:00:24.30	333.32	18.61	-43.2	-44.1	21.1	0.00e+00	0	43	0	1560281088	56	4352
2026-01-23 10:00:25.32	333.34	18.49	-43.2	-44.1	21.1	0.00e+00	0	42	0	1563426816	56	4363
2026-01-23 10:00:26.32	333.37	18.36	-43.2	-44.1	21.1	0.00e+00	0	42	0	1566572544	57	4137
2026-01-23 10:00:27.33	333.40	18.24	-43.2	-44.1	21.1	0.00e+00	0	42	0	1569718272	57	4122
2026-01-23 10:00:28.34	333.42	18.12	-43.2	-44.1	21.1	0.00e+00	0	42	0	1572864000	57	4141
2026-01-23 10:00:29.35	333.45	18.00	-43.3	-44.2	21.0	0.00e+00	0	42	0	1576009728	57	4153
2026-01-23 10:00:30.35	333.47	17.88	-43.2	-44.1	21.1	0.00e+00	0	42	0	1579155456	57	4141
2026-01-23 10:00:31.36	333.50	17.76	-43.2	-44.2	21.1	0.00e+00	0	43	0	1582301184	57	4146
2026-01-23 10:00:32.37	333.52	17.64	-43.2	-44.2	21.0	0.00e+00	0	42	0	1585446912	57	4147
2026-01-23 10:00:33.38	333.55	17.52	-43.4	-44.4	20.8	0.00e+00	0	42	0	1588592640	57	4245
2026-01-23 10:00:34.38	333.57	17.41	-43.3	-44.3	20.9	0.00e+00	0	42	0	1591738368	57	4196
2026-01-23 10:00:35.39	333.60	17.29	-43.3	-44.2	20.9	0.00e+00	0	42	0	1594884096	57	4164
2026-01-23 10:00:36.40	333.62	17.17	-43.4	-44.3	20.8	0.00e+00	0	42	0	1598029824	57	4227
2026-01-23 10:00:37.41	333.65	17.06	-43.5	-44.4	20.8	0.00e+00	0	42	0	1601175552	57	4270
2026-01-23 10:00:38.42	333.67	16.94	-43.4	-44.3	20.8	0.00e+00	0	42	0	1604321280	57	4240
2026-01-23 10:00:39.43	333.70	16.83	-43.5	-44.4	20.7	0.00e+00	0	42	0	1607467008	57	4283
2026-01-23 10:00:40.43	333.72	16.71	-43.6	-44.5	20.6	0.00e+00	0	42	0	1610612736	57	4317
2026-01-23 10:00:41.44	333.75	16.60	-43.6	-44.5	20.6	0.00e+00	0	42	0	1613758464	57	4332
2026-01-23 10:00:42.45	333.77	16.49	-43.7	-44.7	20.4	0.00e+00	0	42	0	1616904192	58	4183
2026-01-23 10:00:43.46	333.79	16.37	-43.6	-44.6	20.5	0.00e+00	0	42	0	1620049920	58	4124
2026-01-23 10:00:44.46	333.82	16.26	-43.7	-44.7	20.4	0.00e+00	0	43	0	1623195648	58	4155
2026-01-23 10:00:45.47	333.84	16.15	-43.9	-44.9	20.2	0.00e+00	0	42	0	1626341376	58	4281
2026-01-23 10:00:46.48	333.86	16.04	-43.9	-44.9	20.3	0.00e+00	0	42	0	1629487104	58	4252
2026-01-23 10:00:47.49	333.89	15.93	-43.9	-44.9	20.2	0.00e+00	0	42	0	1632632832	58	4291
2026-01-23 10:00:48.50	333.91	15.82	-43.7	-44.7	20.4	0.00e+00	0	42	0	1635778560	58	4169
2026-01-23 10:00:49.50	333.93	15.71	-43.8	-44.7	20.4	0.00e+00	0	42	0	1638924288	58	4188
2026-01-23 10:00:50.51	333.96	15.60	-43.7	-44.7	20.4	0.00e+00	0	42	0	1642070016	58	4169
2026-01-23 10:00:51.52	333.98	15.49	-43.7	-44.7	20.4	0.00e+00	0	42	0	1645215744	58	4147
2026-01-23 10:00:52.53	334.00	15.38	-43.6	-44.6	20.4	0.00e+00	0	42	0	1648361472	58	4123
2026-01-23 10:00:53.53	334.02	15.27	-43.7	-44.7	20.4	0.00e+00	0	42	0	1651507200	58	4164
2026-01-23 10:00:54.54	334.04	15.17	-43.8	-44.8	20.3	0.00e+00	0	42	0	1654652928	58	4196
2026-01-23 10:00:55.55	334.07	15.06	-43.7	-44.7	20.3	0.00e+00	0	42	0	1657798656	58	4171
2026-01-23 10:00:56.56	334.09	14.95	-43.8	-44.8	20.2	0.00e+00	0	42	0	1660944384	58	4225
2026-01-23 10:00:57.57	334.11	14.85	-43.8	-44.8	20.2	0.00e+00	0	43	0	1664090112	58	4220
2026-01-23 10:00:58.58	334.13	14.74	-43.9	-44.9	20.2	0.00e+00	0	42	0	1667235840	58	4256
2026-01-23 10:00:59.58	334.15	14.64	-43.6	-44.6	20.4	0.00e+00	0	42	0	1670381568	58	4123
2026-01-23 10:01:00.59	334.18	14.53	-43.7	-44.7	20.3	0.00e+00	0	42	0	1673527296	58	4173
2026-01-23 10:01:01.60	334.20	14.43	-43.8	-44.8	20.3	0.00e+00	0	43	0	1676673024	58	4201
2026-01-23 10:01:02.61	334.22	14.32	-43.7	-44.7	20.3	0.00e+00	0	42	0	1679818752	58	4178
2026-01-23 10:01:03.62	334.24	14.22	-43.8	-44.7	20.3	0.00e+00	0	43	0	1684013056	58	4183
2026-01-23 10:01:04.62	334.26	14.12	-43.7	-44.7	20.4	0.00e+00	0	42	0	1686110208	58	4148
2026-01-23 10:01:05.63	334.28	14.01	-43.7	-44.6	20.4	0.00e+00	0	43	0	1689255936	58	4130
2026-01-23 10:01:06.64	334.30	13.91	-43.7	-44.6	20.3	0.00e+00	0	42	0	1692401664	58	4142
2026-01-23 10:01:07.65	334.32	13.81	-43.7	-44.7	20.3	0.00e+00	0	42	0	1695547392	58	4167
2026-01-23 10:01:08.66	334.34	13.71	-43.8	-44.7	20.3	0.00e+00	0	43	0	1698693120	58	4181
2026-01-23 10:01:09.66	334.36	13.61	-43.8	-44.8	20.2	0.00e+00	0	42	0	1701838848	58	4195
2026-01-23 10:01:10.67	334.38	13.51	-43.6	-44.6	20.4	0.00e+00	0	43	0	1704984576	58	4127
2026-01-23 10:01:11.68	334.40	13.41	-43.7	-44.7	20.3	0.00e+00	0	42	0	1708130304	58	4160
2026-01-23 10:01:12.69	334.42	13.31	-43.8	-44.8	20.2	0.00e+00	0	42	0	1711276032	58	4199
2026-01-23 10:01:13.70	334.44	13.21	-43.8	-44.8	20.2	0.00e+00	0	43	0	1714421760	58	4221
2026-01-23 10:01:14.70	334.46	13.11	-43.7	-44.7	20.3	0.00e+00	0	42	0	1717567488	58	4147
2026-01-23 10:01:15.71	334.48	13.01	-43.7	-44.6	20.3	0.00e+00	0	43	0	1721761792	58	4132
2026-01-23 10:01:16.72	334.50	12.91	-43.8	-44.7	20.2	0.00e+00	0	42	0	1724907520	58	4183
2026-01-23 10:01:17.73	334.52	12.82	-43.7	-44.7	20.3	0.00e+00	0	42	0	1728053248	58	4155
2026-01-23 10:01:18.74	334.54	12.72	-43.8	-44.7	20.2	0.00e+00	0	42	0	1731198976	58	4185
2026-01-23 10:01:19.74	334.56	12.62	-43.6	-44.6	20.3	0.00e+00	0	42	0	1733296128	58	4124
2026-01-23 10:01:20.75	334.58	12.53	-43.7	-44.7	20.3	0.00e+00	0	42	0	1736441856	58	4169
2026-01-23 10:01:21.76	334.60	12.43	-43.7	-44.7	20.3	0.00e+00	0	43	0	1739587584	58	4167
2026-01-23 10:01:22.76	334.62	12.34	-43.7	-44.7	20.3	0.00e+00	0	43	0	1742733312	58	4160
2026-01-23 10:01:23.77	334.64	12.24	-43.8	-44.8	20.2	0.00e+00	0	42	0	1745879040	58	4208
2026-01-23 10:01:24.78	334.66	12.15	-43.7	-44.7	20.2	0.00e+00	0	43	0	1749024768	58	4180
2026-01-23 10:01:25.79	334.68	12.05	-43.8	-44.8	20.2	0.00e+00	0	43	0	1752170496	58	4220
2026-01-23 10:01:26.79	334.69	11.96	-43.8	-44.7	20.2	0.00e+00	0	43	0	1755316224	58	4183
2026-01-23 10:01:27.80	334.71	11.86	-43.6	-44.6	20.4	0.00e+00	0	42	0	1758461952	58	4104
2026-01-23 10:01:28.81	334.73	11.77	-43.7	-44.7	20.3	0.00e+00	0	42	0	1762656256	58	4154
2026-01-23 10:01:29.82	334.75	11.68	-43.6	-44.6	20.3	0.00e+00	0	42	0	1765801984	58	4126
2026-01-23 10:01:30.83	334.77	11.58	-43.6	-44.6	20.3	0.00e+00	0	42	0	1768947712	58	4129
2026-01-23 10:01:31.84	334.79	11.49	-43.8	-44.7	20.2	0.00e+00	0	42	0	1772093440	58	4185
2026-01-23 10:01:32.84	334.81	11.40	-43.7	-44.7	20.2	0.00e+00	0	42	0	1775239168	58	4170
2026-01-23 10:01:33.85	334.82	11.31	-43.8	-44.8	20.1	0.00e+00	0	42	0	1778384896	58	4231
2026-01-23 10:01:34.86	334.84	11.22	-43.7	-44.7	20.2	0.00e+00	0	42	0	1780482048	58	4160
2026-01-23 10:01:35.87	334.86	11.13	-43.7	-44.7	20.2	0.00e+00	0	42	0	1783627776	58	4163
2026-01-23 10:01:36.88	334.88	11.03	-43.8	-44.8	20.1	0.00e+00	0	42	0	1786773504	58	4200
2026-01-23 10:01:37.88	334.90	10.95	-43.9	-44.9	20.0	0.00e+00	0	42	0	1789919232	58	4252
2026-01-23 10:01:38.89	334.91	10.85	-43.8	-44.8	20.1	0.00e+00	0	42	0	1793064960	58	4203
2026-01-23 10:01:39.90	334.93	10.76	-43.8	-44.8	20.1	0.00e+00	0	43	0	1796210688	58	4205
2026-01-23 10:01:40.91	334.95	10.68	-43.8	-44.8	20.1	0.00e+00	0	42	0	1799356416	58	4227
2026-01-23 10:01:41.91	334.97	10.59	-43.8	-44.8	20.1	0.00e+00	0	43	0	1803550720	58	4234
2026-01-23 10:01:42.92	334.98	10.50	-43.9	-44.9	20.0	0.00e+00	0	42	0	1806696448	58	4282
2026-01-23 10:01:43.93	335.00	10.41	-44.1	-45.1	19.8	0.00e+00	0	43	0	1809842176	58	4361
2026-01-23 10:01:44.94	335.02	10.32	-43.9	-45.0	19.9	0.00e+00	0	43	0	1812987904	58	4301
2026-01-23 10:01:45.95	335.03	10.23	-44.0	-45.0	19.8	0.00e+00	0	42	0	1816133632	58	4338
2026-01-23 10:01:46.96	335.05	10.15	-44.1	-45.2	19.7	0.00e+00	0	43	0	1819279360	58	4404
2026-01-23 10:01:47.96	335.07	10.06	-44.2	-45.3	19.6	0.00e+00	0	42	0	1822425088	58	4452
2026-01-23 10:01:48.97	335.09	9.97	-44.1	-45.1	19.8	0.00e+00	0	42	0	1825570816	58	4380
2026-01-23 10:01:49.98	335.10	9.89	-44.1	-45.1	19.8	0.00e+00	0	42	0	1827667968	59	4139
2026-01-23 10:01:50.99	335.12	9.80	-44.2	-45.2	19.7	0.00e+00	0	42	0	1830813696	59	4189
2026-01-23 10:01:52.00	335.14	9.71	-44.2	-45.3	19.6	0.00e+00	0	42	0	1833959424	59	4209
2026-01-23 10:01:53.01	335.15	9.63	-44.3	-45.4	19.5	0.00e+00	0	42	0	1837105152	59	4263
2026-01-23 10:01:54.02	335.17	9.54	-44.3	-45.4	19.5	0.00e+00	0	42	0	1841299456	59	4254
2026-01-23 10:01:55.02	335.19	9.46	-44.3	-45.4	19.5	0.00e+00	0	42	0	1844445184	59	4258
2026-01-23 10:01:56.03	335.20	9.37	-44.4	-45.5	19.4	0.00e+00	0	42	0	1847590912	59	4300
2026-01-23 10:01:57.04	335.22	9.29	-44.5	-45.6	19.4	0.00e+00	0	42	0	1850736640	59	4344
2026-01-23 10:01:58.05	335.23	9.20	-44.5	-45.6	19.3	0.00e+00	0	42	0	1853882368	59	4365
2026-01-23 10:01:59.05	335.25	9.12	-44.6	-45.7	19.2	0.00e+00	0	43	0	1857028096	59	4406
2026-01-23 10:02:00.06	335.27	9.04	-44.5	-45.6	19.3	0.00e+00	0	42	0	1860173824	59	4354
2026-01-23 10:02:01.07	335.28	8.95	-44.6	-45.7	19.2	0.00e+00	0	42	0	1863319552	59	4420
2026-01-23 10:02:02.08	335.30	8.87	-44.5	-45.6	19.3	0.00e+00	0	42	0	1866465280	59	4377
2026-01-23 10:02:03.09	335.32	8.79	-44.5	-45.7	19.2	0.00e+00	0	42	0	1869611008	59	4392
2026-01-23 10:02:04.10	335.33	8.70	-44.6	-45.7	19.2	0.00e+00	0	42	0	1872756736	59	4396
2026-01-23 10:02:05.11	335.35	8.62	-44.6	-45.7	19.1	0.00e+00	0	42	0	1874853888	59	4440
2026-01-23 10:02:06.11	335.36	8.54	-44.2	-45.3	19.2	0.00e+00	0	42	0	1879048192	60	3996
2026-01-23 10:02:07.12	335.38	8.46	-44.4	-45.5	19.0	0.00e+00	0	42	0	1882193920	60	4082
2026-01-23 10:02:08.13	335.39	8.38	-44.3	-45.4	19.1	0.00e+00	0	42	0	1885339648	60	4043
2026-01-23 10:02:09.14	335.41	8.30	-44.4	-45.5	19.0	0.00e+00	0	42	0	1888485376	60	4089
2026-01-23 10:02:10.15	335.43	8.21	-44.3	-45.4	19.1	0.00e+00	0	42	0	1891631104	60	4034
2026-01-23 10:02:11.15	335.44	8.13	-44.4	-45.5	19.0	0.00e+00	0	43	0	1894776832	60	4095
2026-01-23 10:02:12.16	335.46	8.05	-44.6	-45.7	18.8	0.00e+00	0	42	0	1897922560	60	4186
2026-01-23 10:02:13.17	335.47	7.97	-44.5	-45.7	18.8	0.00e+00	0	42	0	1901068288	60	4161
2026-01-23 10:02:14.18	335.49	7.89	-44.7	-45.9	18.7	0.00e+00	0	42	0	1904214016	60	4252
2026-01-23 10:02:15.19	335.50	7.81	-44.5	-45.6	18.9	0.00e+00	0	42	0	1907359744	60	4139
2026-01-23 10:02:16.20	335.52	7.73	-44.5	-45.6	18.9	0.00e+00	0	42	0	1910505472	60	4144
2026-01-23 10:02:17.21	335.53	7.65	-44.6	-45.8	18.8	0.00e+00	0	42	0	1913651200	60	4199
2026-01-23 10:02:18.22	335.55	7.58	-44.6	-45.8	18.7	0.00e+00	0	42	0	1916796928	60	4216
2026-01-23 10:02:19.22	335.56	7.50	-44.6	-45.7	18.7	0.00e+00	0	42	0	1919942656	60	4191
2026-01-23 10:02:20.23	335.58	7.42	-44.7	-45.9	18.6	0.00e+00	0	42	0	1923088384	60	4249
2026-01-23 10:02:21.24	335.59	7.34	-44.5	-45.7	18.8	0.00e+00	0	42	0	1926234112	60	4161
2026-01-23 10:02:22.25	335.61	7.26	-44.7	-45.8	18.7	0.00e+00	0	42	0	1929379840	60	4227
