passes_logs/2026/01/23/R3.2S_Murmansk/R3.2S_Murmansk__20260123_121238_AQUA_rec.log

#Pass ID: 20260123_121238_AQUA
#Satellite: AQUA
#Configuration: AQUA
#almurnet v.1.7.20251203
#Start time: 2026-01-23 12:12:38

#Version: 2.2.20231116
#Station: R3.2S_Murmansk
#Location: 33.079688 lon 68.888172 lat
#TLE: 1 27424U 02022A   26022.49486490  .00002153  00000+0  44069-3 0  9997
#TLE: 2 27424  98.4099 349.0485 0001970  69.5876  43.4746 14.61847233261984

#Time	Az	El	Level	Level2	SNR	BER	BlckErr	Temp	State	Recorded	gain1	gain2
2026-01-23 12:12:38.18	175.66	1.96	-55.8	-73.6	3.8	7.44e-01	0	40	0	0	82	29097
2026-01-23 12:12:39.19	175.70	2.02	-56.0	-73.8	3.8	7.45e-01	0	40	104	0	82	29944
2026-01-23 12:12:40.20	175.73	2.09	-56.0	-73.8	3.8	7.44e-01	0	40	104	0	82	29941
2026-01-23 12:12:41.20	175.76	2.15	-56.0	-73.8	3.8	7.45e-01	0	40	104	0	82	29904
2026-01-23 12:12:42.21	175.80	2.22	-56.0	-73.8	3.8	7.42e-01	0	40	104	0	82	29762
2026-01-23 12:12:43.22	175.83	2.29	-56.0	-73.8	3.8	7.47e-01	0	40	104	0	82	29702
2026-01-23 12:12:44.23	175.87	2.35	-55.9	-73.8	3.8	7.45e-01	0	41	104	0	82	29742
2026-01-23 12:12:45.24	175.90	2.42	-55.9	-73.7	3.8	7.50e-01	0	41	104	0	82	29641
2026-01-23 12:12:46.25	175.94	2.49	-55.9	-73.7	3.8	7.45e-01	0	41	104	0	82	29491
2026-01-23 12:12:47.25	175.97	2.55	-55.9	-73.7	3.8	7.47e-01	0	40	104	0	82	29414
2026-01-23 12:12:48.27	176.00	2.62	-55.8	-73.7	3.8	7.46e-01	0	40	104	0	82	29446
2026-01-23 12:12:49.27	176.04	2.69	-55.8	-73.6	3.8	7.45e-01	0	41	104	0	82	29236
2026-01-23 12:12:50.28	176.07	2.76	-55.8	-73.6	3.8	7.46e-01	0	40	104	0	82	29181
2026-01-23 12:12:51.29	176.11	2.82	-55.7	-73.5	3.8	7.46e-01	0	41	104	0	82	28939
2026-01-23 12:12:52.30	176.14	2.89	-55.7	-73.5	3.8	7.43e-01	0	41	104	0	82	28778
2026-01-23 12:12:53.31	176.18	2.96	-55.6	-73.4	3.8	7.47e-01	0	41	104	0	82	28596
2026-01-23 12:12:54.32	176.22	3.03	-55.6	-73.4	3.8	7.44e-01	0	41	104	0	82	28427
2026-01-23 12:12:55.33	176.25	3.10	-55.4	-73.3	3.8	7.47e-01	0	41	104	0	82	28062
2026-01-23 12:12:56.34	176.29	3.16	-55.4	-73.2	3.8	7.44e-01	0	41	104	0	82	27863
2026-01-23 12:12:57.35	176.32	3.23	-55.3	-73.1	3.8	7.46e-01	0	41	104	0	82	27470
2026-01-23 12:12:58.36	176.36	3.30	-55.2	-72.9	3.8	7.46e-01	0	40	104	0	82	26822
2026-01-23 12:12:59.37	176.40	3.37	-55.0	-72.7	3.8	7.42e-01	0	41	104	0	82	26242
2026-01-23 12:13:00.38	176.43	3.44	-54.7	-72.5	3.8	7.49e-01	0	41	104	0	81	27164
2026-01-23 12:13:01.38	176.47	3.51	-54.3	-71.7	3.8	7.44e-01	0	41	104	0	80	26271
2026-01-23 12:13:02.39	176.51	3.58	-54.2	-70.9	3.8	7.43e-01	0	41	104	0	80	24023
2026-01-23 12:13:03.40	176.54	3.65	-54.2	-70.0	3.8	7.45e-01	0	41	104	0	80	21629
2026-01-23 12:13:04.41	176.58	3.72	-54.2	-69.1	4.1	7.35e-01	0	41	104	0	80	19415
2026-01-23 12:13:05.42	176.62	3.79	-54.2	-68.8	4.2	7.35e-01	0	41	104	0	80	18755
2026-01-23 12:13:06.43	176.66	3.86	-54.2	-69.0	4.1	7.38e-01	0	41	104	0	80	19346
2026-01-23 12:13:07.44	176.69	3.93	-54.2	-69.8	3.9	7.42e-01	0	41	104	0	80	21034
2026-01-23 12:13:08.45	176.73	4.00	-54.1	-68.6	4.1	7.33e-01	0	41	104	0	80	18455
2026-01-23 12:13:09.45	176.77	4.07	-54.0	-64.9	6.0	6.83e-01	140	41	0	0	79	12804
2026-01-23 12:13:10.46	176.81	4.14	-53.7	-62.8	7.9	6.48e-01	180	41	0	1572864	79	9988
2026-01-23 12:13:11.47	176.85	4.21	-53.1	-59.5	11.4	6.16e-01	0	41	0	3670016	78	7232
2026-01-23 12:13:12.48	176.89	4.29	-51.8	-56.1	14.8	6.08e-01	0	41	0	5767168	75	5817
2026-01-23 12:13:13.49	176.92	4.36	-51.0	-54.4	16.6	6.05e-01	0	41	0	7340032	74	5067
2026-01-23 12:13:14.50	176.96	4.43	-50.4	-53.4	17.6	6.07e-01	0	41	0	9437184	72	5058
2026-01-23 12:13:15.50	177.00	4.50	-49.0	-51.2	19.9	6.08e-01	0	41	0	11534336	69	4679
2026-01-23 12:13:16.51	177.04	4.57	-48.3	-50.3	20.8	6.07e-01	0	41	0	13107200	68	4453
2026-01-23 12:13:17.52	177.08	4.65	-47.2	-48.8	22.3	6.06e-01	0	41	0	15204352	66	4233
2026-01-23 12:13:18.53	177.12	4.72	-47.3	-49.0	22.2	6.07e-01	0	41	0	16777216	66	4296
2026-01-23 12:13:19.54	177.16	4.79	-46.6	-48.2	22.9	6.08e-01	0	41	0	18874368	65	4146
2026-01-23 12:13:20.54	177.20	4.87	-47.1	-48.8	22.3	6.07e-01	0	41	0	20447232	65	4465
2026-01-23 12:13:21.55	177.24	4.94	-46.9	-48.5	22.7	6.06e-01	0	41	0	22544384	65	4301
2026-01-23 12:13:22.56	177.28	5.01	-47.1	-48.8	22.4	6.09e-01	0	41	0	24641536	65	4453
2026-01-23 12:13:23.57	177.32	5.09	-46.8	-48.4	22.7	6.06e-01	0	41	0	26214400	65	4262
2026-01-23 12:13:24.58	177.37	5.16	-49.5	-51.9	19.7	6.04e-01	0	41	0	28311552	69	5074
2026-01-23 12:13:25.59	177.41	5.24	-46.7	-48.3	22.8	6.05e-01	0	41	0	30408704	65	4212
2026-01-23 12:13:26.59	177.45	5.31	-48.0	-49.8	21.7	6.04e-01	0	41	0	31981568	66	4752
2026-01-23 12:13:27.60	177.49	5.38	-48.2	-50.1	21.6	6.04e-01	0	41	0	34078720	66	4915
2026-01-23 12:13:28.61	177.53	5.46	-47.9	-49.8	20.9	6.06e-01	0	41	0	35651584	68	4220
2026-01-23 12:13:29.62	177.57	5.53	-47.3	-49.1	22.1	6.06e-01	0	41	0	37748736	65	4600
2026-01-23 12:13:30.62	177.62	5.61	-47.1	-48.7	22.4	6.05e-01	0	42	0	39845888	65	4437
2026-01-23 12:13:31.63	177.66	5.68	-46.9	-48.5	22.8	6.05e-01	0	42	0	41418752	65	4339
2026-01-23 12:13:32.64	177.70	5.76	-47.0	-48.6	22.7	6.07e-01	0	41	0	43515904	65	4370
2026-01-23 12:13:33.65	177.74	5.84	-47.5	-49.2	22.1	6.06e-01	0	41	0	45088768	65	4676
2026-01-23 12:13:34.65	177.79	5.91	-47.5	-49.3	22.0	6.04e-01	0	41	0	47185920	65	4728
2026-01-23 12:13:35.66	177.83	5.99	-47.1	-48.7	22.6	6.06e-01	0	41	0	48758784	65	4441
2026-01-23 12:13:36.67	177.88	6.07	-46.9	-48.5	22.8	6.04e-01	0	41	0	50855936	65	4312
2026-01-23 12:13:37.68	177.92	6.14	-47.3	-48.9	22.4	6.05e-01	0	41	0	52953088	65	4531
2026-01-23 12:13:38.69	177.96	6.22	-47.0	-48.6	22.8	6.05e-01	0	41	0	55050240	65	4344
2026-01-23 12:13:39.69	178.01	6.30	-47.2	-48.9	22.5	6.06e-01	0	42	0	56623104	65	4504
2026-01-23 12:13:40.70	178.05	6.38	-47.3	-49.0	22.4	6.05e-01	0	42	0	58720256	65	4585
2026-01-23 12:13:41.71	178.10	6.45	-46.8	-48.3	23.0	6.05e-01	0	41	0	60293120	65	4236
2026-01-23 12:13:42.71	178.14	6.53	-47.2	-48.9	22.5	6.06e-01	0	41	0	62390272	65	4499
2026-01-23 12:13:43.72	178.19	6.61	-46.4	-47.8	23.5	6.07e-01	0	42	0	63963136	64	4240
2026-01-23 12:13:44.73	178.23	6.69	-46.9	-48.5	22.8	6.03e-01	0	42	0	66060288	64	4576
2026-01-23 12:13:45.74	178.28	6.77	-46.4	-47.9	23.4	6.07e-01	0	41	0	68157440	64	4247
2026-01-23 12:13:46.74	178.32	6.85	-46.2	-47.6	23.7	6.05e-01	0	42	0	69730304	64	4134
2026-01-23 12:13:47.75	178.37	6.93	-46.5	-48.0	23.4	6.06e-01	0	41	0	71827456	64	4329
2026-01-23 12:13:48.76	178.42	7.01	-45.9	-47.3	24.1	6.04e-01	0	42	0	73400320	63	4241
2026-01-23 12:13:49.77	178.47	7.09	-45.9	-47.3	24.1	6.03e-01	0	42	0	75497472	63	4224
2026-01-23 12:13:50.78	178.51	7.17	-45.9	-47.3	24.1	6.06e-01	0	41	0	77594624	63	4203
2026-01-23 12:13:51.79	178.56	7.25	-46.5	-48.0	23.5	6.05e-01	0	42	0	79167488	63	4575
2026-01-23 12:13:52.79	178.61	7.33	-45.9	-47.2	24.2	6.05e-01	0	42	0	81264640	63	4191
2026-01-23 12:13:53.80	178.66	7.41	-46.2	-47.6	23.9	6.07e-01	0	42	0	83361792	63	4362
2026-01-23 12:13:54.81	178.70	7.49	-45.9	-47.3	24.2	6.06e-01	0	42	0	84934656	63	4225
2026-01-23 12:13:55.82	178.75	7.57	-46.3	-47.8	23.7	6.05e-01	0	42	0	87031808	63	4451
2026-01-23 12:13:56.83	178.80	7.66	-46.2	-47.6	23.9	6.06e-01	0	42	0	88604672	63	4352
2026-01-23 12:13:57.84	178.85	7.74	-45.9	-47.3	24.2	6.07e-01	0	42	0	90701824	63	4234
2026-01-23 12:13:58.85	178.90	7.82	-46.3	-47.7	23.8	6.07e-01	0	42	0	92274688	63	4408
2026-01-23 12:13:59.85	178.95	7.90	-46.2	-47.6	23.8	6.04e-01	0	42	0	94371840	63	4388
2026-01-23 12:14:00.86	179.00	7.99	-46.2	-47.6	23.9	6.06e-01	0	42	0	96468992	63	4380
2026-01-23 12:14:01.87	179.05	8.07	-46.0	-47.4	24.1	6.06e-01	0	42	0	98041856	63	4272
2026-01-23 12:14:02.88	179.10	8.15	-45.8	-47.1	24.4	6.07e-01	0	42	0	100139008	63	4130
2026-01-23 12:14:03.89	179.15	8.24	-45.8	-47.1	24.4	6.06e-01	0	42	0	102236160	63	4142
2026-01-23 12:14:04.90	179.20	8.32	-46.0	-47.4	24.2	6.06e-01	0	42	0	103809024	63	4252
2026-01-23 12:14:05.91	179.25	8.41	-45.9	-47.3	24.2	6.06e-01	0	42	0	105906176	63	4206
2026-01-23 12:14:06.91	179.30	8.49	-45.5	-46.8	24.7	6.07e-01	0	42	0	107479040	63	4001
2026-01-23 12:14:07.92	179.36	8.58	-45.9	-47.3	24.3	6.06e-01	0	42	0	109576192	63	4227
2026-01-23 12:14:08.93	179.41	8.66	-45.6	-47.0	24.5	6.04e-01	0	42	0	111673344	63	4069
2026-01-23 12:14:09.94	179.46	8.75	-45.8	-47.2	24.3	6.04e-01	0	42	0	113246208	63	4164
2026-01-23 12:14:10.95	179.51	8.84	-45.8	-47.1	24.5	6.08e-01	0	42	0	115343360	63	4130
2026-01-23 12:14:11.96	179.57	8.92	-45.9	-47.3	24.3	6.04e-01	0	42	0	116916224	63	4216
2026-01-23 12:14:12.96	179.62	9.01	-45.8	-47.1	24.4	6.05e-01	0	42	0	119013376	63	4145
2026-01-23 12:14:13.97	179.67	9.10	-45.6	-47.0	24.6	6.04e-01	0	42	0	120586240	63	4053
2026-01-23 12:14:14.98	179.73	9.18	-45.7	-47.0	24.5	6.06e-01	0	42	0	122683392	63	4089
2026-01-23 12:14:15.99	179.78	9.27	-45.8	-47.2	24.4	6.07e-01	0	42	0	124780544	63	4151
2026-01-23 12:14:17.00	179.84	9.36	-45.6	-47.0	24.6	6.05e-01	0	42	0	126353408	63	4068
2026-01-23 12:14:18.01	179.89	9.45	-45.7	-47.0	24.6	6.06e-01	0	42	0	128450560	62	4309
2026-01-23 12:14:19.01	179.95	9.54	-45.7	-47.0	24.6	6.05e-01	0	42	0	130547712	62	4313
2026-01-23 12:14:20.02	180.00	9.63	-45.7	-47.1	24.5	6.05e-01	0	42	0	132120576	62	4348
2026-01-23 12:14:21.03	180.06	9.72	-45.4	-46.7	24.9	6.04e-01	0	42	0	134217728	62	4192
2026-01-23 12:14:22.04	180.12	9.81	-45.6	-46.9	24.7	6.06e-01	0	42	0	135790592	62	4261
2026-01-23 12:14:23.05	180.17	9.90	-45.6	-46.9	24.7	6.06e-01	0	42	0	137887744	62	4265
2026-01-23 12:14:24.05	180.23	9.99	-45.5	-46.8	24.9	6.07e-01	0	42	0	139984896	62	4216
2026-01-23 12:14:25.06	180.29	10.08	-45.5	-46.8	24.8	6.04e-01	0	42	0	141557760	62	4227
2026-01-23 12:14:26.07	180.35	10.17	-45.3	-46.5	25.1	6.04e-01	0	42	0	143654912	62	4095
2026-01-23 12:14:27.08	180.40	10.26	-45.3	-46.6	25.1	6.08e-01	0	42	0	145752064	62	4116
2026-01-23 12:14:28.09	180.46	10.35	-45.3	-46.6	25.1	6.05e-01	0	42	0	147324928	62	4117
2026-01-23 12:14:29.09	180.52	10.44	-45.5	-46.8	24.8	6.05e-01	0	42	0	149422080	62	4218
2026-01-23 12:14:30.10	180.58	10.54	-45.7	-47.0	24.7	6.03e-01	0	42	0	150994944	62	4328
2026-01-23 12:14:31.11	180.64	10.63	-45.5	-46.8	24.8	6.06e-01	0	42	0	153092096	62	4222
2026-01-23 12:14:32.12	180.70	10.72	-45.5	-46.8	24.8	6.02e-01	0	42	0	155189248	62	4227
2026-01-23 12:14:33.13	180.76	10.82	-45.4	-46.7	24.9	6.06e-01	0	42	0	156762112	62	4182
2026-01-23 12:14:34.13	180.82	10.91	-45.4	-46.7	25.0	6.05e-01	0	42	0	158859264	62	4154
2026-01-23 12:14:35.14	180.88	11.00	-45.3	-46.6	25.0	6.05e-01	0	42	0	160432128	62	4133
2026-01-23 12:14:36.15	180.95	11.10	-45.5	-46.8	24.8	6.04e-01	0	42	0	162529280	62	4237
2026-01-23 12:14:37.16	181.01	11.20	-45.4	-46.7	25.0	6.06e-01	0	42	0	164102144	62	4156
2026-01-23 12:14:38.16	181.07	11.29	-45.3	-46.5	25.1	6.05e-01	0	42	0	166199296	62	4092
2026-01-23 12:14:39.17	181.13	11.39	-45.3	-46.5	25.1	6.07e-01	0	42	0	168296448	62	4085
2026-01-23 12:14:40.18	181.20	11.48	-45.3	-46.6	25.1	6.05e-01	0	42	0	169869312	62	4123
2026-01-23 12:14:41.19	181.26	11.58	-45.3	-46.6	25.1	6.04e-01	0	42	0	171966464	62	4130
2026-01-23 12:14:42.20	181.33	11.68	-45.4	-46.6	25.1	6.08e-01	0	42	0	174063616	62	4139
2026-01-23 12:14:43.20	181.39	11.77	-45.1	-46.4	25.3	6.06e-01	0	42	0	175636480	62	4014
2026-01-23 12:14:44.21	181.46	11.87	-45.2	-46.4	25.2	6.05e-01	0	42	0	177733632	62	4051
2026-01-23 12:14:45.22	181.52	11.97	-45.2	-46.5	25.2	6.04e-01	0	42	0	179306496	62	4069
2026-01-23 12:14:46.23	181.59	12.07	-45.4	-46.7	25.1	6.05e-01	0	42	0	181403648	62	4162
2026-01-23 12:14:47.24	181.65	12.17	-45.3	-46.6	25.1	6.05e-01	0	42	0	183500800	62	4121
2026-01-23 12:14:48.24	181.72	12.27	-45.3	-46.5	25.2	6.04e-01	0	42	0	185073664	62	4082
2026-01-23 12:14:49.25	181.79	12.37	-45.1	-46.4	25.3	6.05e-01	0	42	0	187170816	62	4020
2026-01-23 12:14:50.26	181.86	12.47	-45.2	-46.4	25.3	6.05e-01	0	42	0	188743680	62	4045
2026-01-23 12:14:51.27	181.92	12.57	-45.2	-46.4	25.3	6.06e-01	0	42	0	190840832	62	4032
2026-01-23 12:14:52.27	181.99	12.67	-45.1	-46.3	25.4	6.05e-01	0	42	0	192413696	62	3984
2026-01-23 12:14:53.28	182.06	12.77	-45.1	-46.3	25.4	6.04e-01	0	42	0	194510848	62	3998
2026-01-23 12:14:54.29	182.13	12.88	-44.8	-46.1	25.6	6.04e-01	0	42	0	196608000	61	4104
2026-01-23 12:14:55.30	182.20	12.98	-44.8	-46.0	25.7	6.04e-01	0	42	0	198180864	61	4074
2026-01-23 12:14:56.31	182.27	13.08	-44.8	-46.0	25.6	6.05e-01	0	42	0	200278016	61	4080
2026-01-23 12:14:57.31	182.34	13.18	-44.7	-45.9	25.8	6.06e-01	0	42	0	202375168	61	4011
2026-01-23 12:14:58.32	182.42	13.29	-44.9	-46.1	25.6	6.06e-01	0	42	0	203948032	61	4115
2026-01-23 12:14:59.33	182.49	13.39	-44.8	-46.0	25.7	6.06e-01	0	42	0	206045184	61	4064
2026-01-23 12:15:00.34	182.56	13.50	-44.8	-46.0	25.7	6.08e-01	0	42	0	207618048	61	4074
2026-01-23 12:15:01.35	182.63	13.60	-44.9	-46.1	25.6	6.07e-01	0	42	0	209715200	61	4103
2026-01-23 12:15:02.35	182.71	13.71	-44.8	-46.0	25.7	6.06e-01	0	42	0	211812352	61	4080
2026-01-23 12:15:03.36	182.78	13.82	-44.9	-46.1	25.6	6.05e-01	0	42	0	213385216	61	4136
2026-01-23 12:15:04.37	182.86	13.92	-44.7	-45.9	25.8	6.05e-01	0	42	0	215482368	61	4039
2026-01-23 12:15:05.38	182.93	14.03	-44.8	-46.0	25.7	6.05e-01	0	42	0	217579520	61	4087
2026-01-23 12:15:06.38	183.01	14.14	-45.0	-46.2	25.5	6.05e-01	0	42	0	219152384	61	4172
2026-01-23 12:15:07.39	183.09	14.25	-44.6	-45.8	25.9	6.04e-01	0	42	0	221249536	61	3989
2026-01-23 12:15:08.40	183.16	14.36	-44.8	-46.0	25.7	6.06e-01	0	42	0	222822400	61	4094
2026-01-23 12:15:09.41	183.24	14.46	-44.6	-45.8	26.0	6.03e-01	0	42	0	224919552	61	3959
2026-01-23 12:15:10.42	183.32	14.57	-44.7	-45.9	25.8	6.06e-01	0	42	0	226492416	61	4033
2026-01-23 12:15:11.43	183.40	14.69	-44.8	-46.0	25.8	6.06e-01	0	42	0	228589568	61	4052
2026-01-23 12:15:12.43	183.48	14.80	-44.8	-46.0	25.7	6.04e-01	0	42	0	230686720	61	4070
2026-01-23 12:15:13.44	183.56	14.91	-44.7	-45.9	25.8	6.06e-01	0	42	0	232259584	61	4034
2026-01-23 12:15:14.45	183.64	15.02	-44.6	-45.7	26.0	6.06e-01	0	42	0	234356736	61	3953
2026-01-23 12:15:15.46	183.72	15.13	-44.6	-45.8	25.9	6.04e-01	0	42	0	235929600	61	3998
2026-01-23 12:15:16.47	183.80	15.24	-44.8	-46.0	25.8	6.05e-01	0	42	0	238026752	61	4055
2026-01-23 12:15:17.48	183.88	15.36	-44.5	-45.6	26.1	6.07e-01	0	42	0	240123904	61	3907
2026-01-23 12:15:18.48	183.97	15.47	-44.6	-45.8	26.0	6.05e-01	0	42	0	241696768	60	4201
2026-01-23 12:15:19.49	184.05	15.59	-44.6	-45.7	25.9	6.04e-01	0	42	0	243793920	60	4189
2026-01-23 12:15:20.50	184.14	15.70	-44.6	-45.8	25.9	6.04e-01	0	42	0	245891072	60	4212
2026-01-23 12:15:21.51	184.22	15.82	-44.7	-45.9	25.9	6.06e-01	0	42	0	247463936	60	4256
2026-01-23 12:15:22.52	184.31	15.93	-44.6	-45.7	26.0	6.05e-01	0	42	0	249561088	60	4193
2026-01-23 12:15:23.52	184.39	16.05	-44.6	-45.7	26.0	6.04e-01	0	42	0	251133952	60	4191
2026-01-23 12:15:24.53	184.48	16.17	-44.6	-45.8	25.9	6.07e-01	0	42	0	253231104	60	4215
2026-01-23 12:15:25.54	184.57	16.29	-44.6	-45.8	26.0	6.04e-01	0	42	0	254803968	60	4223
2026-01-23 12:15:26.55	184.66	16.40	-44.5	-45.7	26.1	6.06e-01	0	42	0	256901120	60	4161
2026-01-23 12:15:27.56	184.75	16.52	-44.4	-45.6	26.1	6.06e-01	0	42	0	258998272	60	4118
2026-01-23 12:15:28.56	184.84	16.64	-44.6	-45.7	26.0	6.04e-01	0	42	0	260571136	60	4180
2026-01-23 12:15:29.57	184.93	16.76	-44.6	-45.8	26.0	6.05e-01	0	42	0	262668288	60	4203
2026-01-23 12:15:30.58	185.02	16.88	-44.5	-45.7	26.1	6.06e-01	0	42	0	264765440	60	4171
2026-01-23 12:15:31.59	185.11	17.00	-44.5	-45.6	26.2	6.05e-01	0	42	0	266338304	60	4135
2026-01-23 12:15:32.59	185.20	17.13	-44.5	-45.7	26.1	6.06e-01	0	42	0	268435456	60	4151
2026-01-23 12:15:33.60	185.30	17.25	-44.5	-45.7	26.1	6.03e-01	0	42	0	270008320	60	4165
2026-01-23 12:15:34.61	185.39	17.37	-44.5	-45.6	26.1	6.05e-01	0	42	0	272105472	60	4139
2026-01-23 12:15:35.62	185.49	17.50	-44.5	-45.6	26.1	6.05e-01	0	42	0	274202624	60	4144
2026-01-23 12:15:36.63	185.58	17.62	-44.4	-45.6	26.2	6.04e-01	0	42	0	275775488	60	4121
2026-01-23 12:15:37.64	185.68	17.75	-44.5	-45.7	26.0	6.05e-01	0	42	0	277872640	60	4156
2026-01-23 12:15:38.64	185.78	17.87	-44.3	-45.5	26.3	6.04e-01	0	42	0	279445504	60	4067
2026-01-23 12:15:39.65	185.88	18.00	-44.4	-45.6	26.2	6.03e-01	0	42	0	281542656	60	4109
2026-01-23 12:15:40.65	185.98	18.12	-44.5	-45.7	26.1	6.05e-01	0	42	0	283115520	60	4153
2026-01-23 12:15:41.66	186.08	18.25	-44.3	-45.4	26.4	6.07e-01	0	42	0	285212672	60	4044
2026-01-23 12:15:42.67	186.18	18.38	-44.4	-45.5	26.3	6.04e-01	0	42	0	287309824	60	4073
2026-01-23 12:15:43.68	186.28	18.51	-44.3	-45.4	26.3	6.04e-01	0	42	0	289406976	60	4048
2026-01-23 12:15:44.69	186.38	18.64	-44.4	-45.5	26.3	6.07e-01	0	42	0	290979840	60	4079
2026-01-23 12:15:45.69	186.49	18.77	-44.4	-45.5	26.3	6.03e-01	0	42	0	293076992	60	4097
2026-01-23 12:15:46.70	186.59	18.90	-44.4	-45.5	26.2	6.05e-01	0	42	0	294649856	60	4091
2026-01-23 12:15:47.71	186.70	19.03	-44.4	-45.5	26.2	6.05e-01	0	42	0	296747008	60	4097
2026-01-23 12:15:48.72	186.80	19.16	-44.3	-45.5	26.3	6.07e-01	0	42	0	298319872	60	4071
2026-01-23 12:15:49.73	186.91	19.30	-44.3	-45.5	26.3	6.05e-01	0	42	0	300417024	60	4063
2026-01-23 12:15:50.74	187.02	19.43	-44.4	-45.5	26.2	6.06e-01	0	42	0	302514176	60	4082
2026-01-23 12:15:51.75	187.13	19.57	-44.3	-45.4	26.4	6.05e-01	0	42	0	304087040	60	4050
2026-01-23 12:15:52.76	187.24	19.70	-44.3	-45.5	26.4	6.04e-01	0	42	0	306184192	60	4061
2026-01-23 12:15:53.76	187.35	19.84	-44.4	-45.5	26.3	6.06e-01	0	42	0	307757056	60	4091
2026-01-23 12:15:54.77	187.46	19.97	-44.5	-45.7	26.1	6.05e-01	0	42	0	309854208	60	4170
2026-01-23 12:15:55.78	187.58	20.11	-44.6	-45.7	26.1	6.06e-01	0	42	0	311951360	60	4189
2026-01-23 12:15:56.79	187.69	20.25	-44.5	-45.7	26.1	6.07e-01	0	42	0	313524224	60	4180
2026-01-23 12:15:57.80	187.81	20.39	-44.6	-45.8	26.1	6.04e-01	0	42	0	315621376	60	4200
2026-01-23 12:15:58.81	187.93	20.53	-44.5	-45.7	26.1	6.05e-01	0	42	0	317718528	60	4166
2026-01-23 12:15:59.81	188.04	20.67	-44.6	-45.7	26.1	6.06e-01	0	42	0	319291392	60	4187
2026-01-23 12:16:00.82	188.16	20.81	-44.5	-45.6	26.1	6.05e-01	0	42	0	321388544	60	4142
2026-01-23 12:16:01.83	188.28	20.95	-44.4	-45.5	26.4	6.04e-01	0	42	0	322961408	60	4078
2026-01-23 12:16:02.84	188.40	21.09	-44.4	-45.6	26.2	6.05e-01	0	42	0	325058560	60	4129
2026-01-23 12:16:03.85	188.52	21.24	-44.5	-45.7	26.2	6.07e-01	0	42	0	326631424	60	4163
2026-01-23 12:16:04.86	188.65	21.38	-44.5	-45.7	26.1	6.06e-01	0	42	0	328728576	60	4174
2026-01-23 12:16:05.86	188.77	21.52	-44.5	-45.7	26.2	6.04e-01	0	42	0	330825728	60	4166
2026-01-23 12:16:06.87	188.90	21.67	-44.5	-45.7	26.0	6.06e-01	0	42	0	332398592	60	4172
2026-01-23 12:16:07.88	189.02	21.82	-44.5	-45.6	26.2	6.05e-01	0	42	0	334495744	60	4138
2026-01-23 12:16:08.89	189.15	21.96	-44.5	-45.7	26.2	6.07e-01	0	42	0	336592896	60	4159
2026-01-23 12:16:09.90	189.28	22.11	-44.6	-45.7	26.1	6.05e-01	0	42	0	338165760	60	4188
2026-01-23 12:16:10.91	189.41	22.26	-44.5	-45.7	26.2	6.06e-01	0	42	0	340262912	60	4171
2026-01-23 12:16:11.92	189.55	22.41	-44.6	-45.8	26.1	6.04e-01	0	42	0	341835776	60	4205
2026-01-23 12:16:12.93	189.68	22.56	-44.6	-45.8	26.1	6.05e-01	0	42	0	343932928	60	4208
2026-01-23 12:16:13.94	189.81	22.71	-44.7	-45.9	26.0	6.05e-01	0	42	0	346030080	60	4258
2026-01-23 12:16:14.95	189.95	22.86	-44.8	-46.0	25.9	6.06e-01	0	42	0	347602944	60	4296
2026-01-23 12:16:15.95	190.09	23.02	-44.7	-45.9	26.0	6.04e-01	0	42	0	349700096	60	4280
2026-01-23 12:16:16.96	190.22	23.17	-44.7	-45.9	26.0	6.05e-01	0	42	0	351272960	60	4252
2026-01-23 12:16:17.97	190.36	23.32	-44.8	-45.9	25.9	6.06e-01	0	42	0	353370112	60	4291
2026-01-23 12:16:18.98	190.51	23.48	-44.8	-46.0	26.0	6.07e-01	0	42	0	355467264	60	4304
2026-01-23 12:16:19.99	190.65	23.64	-44.8	-45.9	26.0	6.07e-01	0	42	0	357040128	60	4280
2026-01-23 12:16:21.00	190.79	23.79	-44.8	-46.0	25.9	6.05e-01	0	42	0	359137280	60	4326
2026-01-23 12:16:22.01	190.94	23.95	-44.9	-46.1	25.9	6.07e-01	0	42	0	361234432	60	4343
2026-01-23 12:16:23.01	191.09	24.11	-44.8	-46.0	26.0	6.04e-01	0	42	0	362807296	60	4303
2026-01-23 12:16:24.02	191.23	24.27	-44.7	-45.9	26.0	6.04e-01	0	42	0	364904448	60	4272
2026-01-23 12:16:25.02	191.38	24.43	-44.7	-45.9	26.0	6.03e-01	0	42	0	366477312	60	4250
2026-01-23 12:16:26.03	191.54	24.59	-44.7	-45.9	26.0	6.05e-01	0	42	0	368574464	60	4280
2026-01-23 12:16:27.04	191.69	24.75	-44.9	-46.1	25.8	6.04e-01	0	42	0	370147328	60	4378
2026-01-23 12:16:28.05	191.84	24.92	-44.8	-46.0	25.9	6.06e-01	0	42	0	372244480	60	4308
2026-01-23 12:16:29.06	192.00	25.08	-44.7	-45.9	26.0	6.05e-01	0	42	0	374341632	60	4271
2026-01-23 12:16:30.06	192.16	25.24	-44.8	-46.0	26.0	6.04e-01	0	42	0	375914496	60	4294
2026-01-23 12:16:31.07	192.32	25.41	-44.7	-45.9	26.1	6.04e-01	0	42	0	378011648	60	4264
2026-01-23 12:16:32.08	192.48	25.58	-44.5	-45.6	26.3	6.07e-01	0	42	0	380108800	60	4125
2026-01-23 12:16:33.09	192.64	25.74	-44.5	-45.7	26.3	6.04e-01	0	42	0	381681664	60	4161
2026-01-23 12:16:34.10	192.81	25.91	-44.7	-45.9	26.0	6.04e-01	0	42	0	383778816	60	4269
2026-01-23 12:16:35.10	192.98	26.08	-44.8	-46.0	26.0	6.07e-01	0	42	0	385351680	60	4325
2026-01-23 12:16:36.11	193.14	26.25	-44.6	-45.8	26.1	6.07e-01	0	42	0	387448832	60	4223
2026-01-23 12:16:37.12	193.32	26.42	-44.6	-45.8	26.2	6.06e-01	0	42	0	389545984	60	4209
2026-01-23 12:16:38.13	193.49	26.60	-44.6	-45.8	26.1	6.05e-01	0	42	0	391118848	60	4215
2026-01-23 12:16:39.14	193.66	26.77	-44.7	-45.8	26.2	6.04e-01	0	42	0	393216000	60	4238
2026-01-23 12:16:40.14	193.84	26.94	-44.7	-45.9	26.1	6.06e-01	0	42	0	394788864	60	4271
2026-01-23 12:16:41.15	194.02	27.12	-44.6	-45.8	26.1	6.05e-01	0	42	0	396886016	60	4226
2026-01-23 12:16:42.16	194.20	27.29	-44.6	-45.8	26.2	6.05e-01	0	42	0	398458880	60	4201
2026-01-23 12:16:43.17	194.38	27.47	-44.5	-45.7	26.3	6.05e-01	0	42	0	400556032	60	4159
2026-01-23 12:16:44.17	194.56	27.65	-44.5	-45.6	26.3	6.04e-01	0	42	0	402653184	60	4128
2026-01-23 12:16:45.18	194.75	27.83	-44.6	-45.7	26.2	6.05e-01	0	42	0	404750336	60	4190
2026-01-23 12:16:46.19	194.94	28.01	-44.5	-45.6	26.3	6.07e-01	0	42	0	406323200	60	4134
2026-01-23 12:16:47.20	195.13	28.19	-44.3	-45.5	26.4	6.05e-01	0	42	0	408420352	60	4066
2026-01-23 12:16:48.21	195.32	28.37	-44.2	-45.3	26.7	6.05e-01	0	42	0	409993216	60	3968
2026-01-23 12:16:49.21	195.52	28.55	-44.2	-45.3	26.6	6.07e-01	0	42	0	412090368	60	3999
2026-01-23 12:16:50.22	195.71	28.73	-44.5	-45.7	26.3	6.05e-01	0	42	0	413663232	60	4154
2026-01-23 12:16:51.23	195.91	28.92	-44.4	-45.6	26.4	6.03e-01	0	42	0	415760384	60	4114
2026-01-23 12:16:52.24	196.12	29.10	-44.5	-45.7	26.3	6.05e-01	0	42	0	417857536	60	4151
2026-01-23 12:16:53.24	196.32	29.29	-44.6	-45.7	26.3	6.04e-01	0	42	0	419430400	60	4179
2026-01-23 12:16:54.25	196.53	29.48	-44.5	-45.7	26.3	6.07e-01	0	42	0	421527552	60	4154
2026-01-23 12:16:55.25	196.73	29.66	-44.4	-45.5	26.4	6.07e-01	0	42	0	423100416	60	4084
2026-01-23 12:16:56.27	196.95	29.85	-44.4	-45.5	26.4	6.06e-01	0	42	0	425197568	60	4082
2026-01-23 12:16:57.27	197.16	30.04	-44.4	-45.5	26.5	6.04e-01	0	42	0	426770432	60	4073
2026-01-23 12:16:58.28	197.38	30.23	-44.4	-45.5	26.5	6.05e-01	0	42	0	428867584	60	4077
2026-01-23 12:16:59.29	197.60	30.43	-44.4	-45.5	26.5	6.05e-01	0	42	0	430964736	60	4070
2026-01-23 12:17:00.30	197.82	30.62	-44.3	-45.5	26.4	6.05e-01	0	42	0	433061888	60	4057
2026-01-23 12:17:01.30	198.04	30.81	-44.4	-45.5	26.5	6.03e-01	0	42	0	434634752	60	4084
2026-01-23 12:17:02.31	198.27	31.01	-44.4	-45.5	26.4	6.05e-01	0	42	0	436731904	60	4094
2026-01-23 12:17:03.32	198.50	31.20	-44.6	-45.7	26.3	6.05e-01	0	42	0	438304768	60	4191
2026-01-23 12:17:04.33	198.73	31.40	-44.6	-45.8	26.3	6.05e-01	0	42	0	440401920	60	4212
2026-01-23 12:17:05.34	198.97	31.60	-44.7	-45.9	26.2	6.04e-01	0	42	0	441974784	60	4257
2026-01-23 12:17:06.34	199.21	31.79	-44.6	-45.7	26.3	6.05e-01	0	42	0	444071936	60	4191
2026-01-23 12:17:07.35	199.45	31.99	-44.6	-45.7	26.4	6.07e-01	0	42	0	446169088	60	4169
2026-01-23 12:17:08.36	199.69	32.19	-44.6	-45.7	26.3	6.04e-01	0	42	0	447741952	60	4180
2026-01-23 12:17:09.37	199.94	32.39	-44.7	-45.8	26.3	6.04e-01	0	43	0	449839104	60	4229
2026-01-23 12:17:10.38	200.19	32.60	-45.4	-46.6	25.5	6.05e-01	0	42	0	451936256	61	4365
2026-01-23 12:17:11.39	200.45	32.80	-44.7	-45.8	26.2	6.06e-01	0	42	0	453509120	61	4002
2026-01-23 12:17:12.39	200.70	33.00	-44.8	-46.0	26.1	6.06e-01	0	42	0	455606272	61	4053
2026-01-23 12:17:13.40	200.96	33.21	-44.9	-46.0	26.0	6.05e-01	0	42	0	457179136	61	4088
2026-01-23 12:17:14.41	201.23	33.41	-44.9	-46.0	26.0	6.05e-01	0	42	0	459276288	61	4095
2026-01-23 12:17:15.42	201.50	33.62	-44.8	-46.0	26.0	6.05e-01	0	42	0	461373440	61	4086
2026-01-23 12:17:16.43	201.77	33.83	-45.0	-46.2	25.9	6.05e-01	0	42	0	462946304	61	4169
2026-01-23 12:17:17.44	202.04	34.03	-45.0	-46.2	25.9	6.03e-01	0	42	0	465043456	61	4161
2026-01-23 12:17:18.45	202.32	34.24	-45.2	-46.5	25.7	6.06e-01	0	42	0	466616320	61	4295
2026-01-23 12:17:19.46	202.60	34.45	-45.3	-46.5	25.5	6.06e-01	0	42	0	468713472	61	4333
2026-01-23 12:17:20.46	202.89	34.66	-45.3	-46.6	25.5	6.05e-01	0	42	0	470286336	61	4349
2026-01-23 12:17:21.47	203.18	34.87	-45.5	-46.7	25.5	6.06e-01	0	42	0	472383488	61	4412
2026-01-23 12:17:22.48	203.47	35.08	-45.9	-47.1	25.0	6.04e-01	0	42	0	474480640	62	4385
2026-01-23 12:17:23.49	203.77	35.30	-45.7	-46.9	25.2	6.06e-01	0	42	0	476053504	62	4282
2026-01-23 12:17:24.50	204.07	35.51	-45.5	-46.7	25.4	6.07e-01	0	42	0	478150656	62	4182
2026-01-23 12:17:25.51	204.37	35.72	-45.7	-46.9	25.3	6.04e-01	0	42	0	480247808	62	4272
2026-01-23 12:17:26.52	204.68	35.94	-45.5	-46.8	25.4	6.05e-01	0	42	0	481820672	62	4197
2026-01-23 12:17:27.52	204.99	36.15	-45.6	-46.8	25.4	6.05e-01	0	42	0	483917824	62	4235
2026-01-23 12:17:28.53	205.31	36.37	-45.6	-46.9	25.3	6.06e-01	0	42	0	485490688	62	4267
2026-01-23 12:17:29.54	205.63	36.58	-45.7	-46.9	25.3	6.05e-01	0	42	0	487587840	62	4289
2026-01-23 12:17:30.55	205.96	36.80	-45.7	-46.9	25.3	6.04e-01	0	42	0	489684992	62	4264
2026-01-23 12:17:31.56	206.29	37.02	-45.8	-47.0	25.2	6.04e-01	0	42	0	491257856	62	4335
2026-01-23 12:17:32.56	206.62	37.23	-45.6	-46.8	25.4	6.06e-01	0	42	0	493355008	62	4233
2026-01-23 12:17:33.57	206.96	37.45	-45.4	-46.6	25.6	6.06e-01	0	42	0	494927872	62	4129
2026-01-23 12:17:34.58	207.30	37.67	-45.7	-47.0	25.3	6.07e-01	0	42	0	497025024	62	4297
2026-01-23 12:17:35.59	207.65	37.89	-45.7	-47.0	25.3	6.05e-01	0	42	0	499122176	62	4293
2026-01-23 12:17:36.59	208.00	38.11	-45.7	-46.9	25.3	6.05e-01	0	42	0	500695040	62	4279
2026-01-23 12:17:37.60	208.36	38.33	-45.5	-46.7	25.5	6.05e-01	0	42	0	502792192	62	4187
2026-01-23 12:17:38.61	208.72	38.55	-45.5	-46.8	25.4	6.04e-01	0	42	0	504365056	62	4203
2026-01-23 12:17:39.62	209.09	38.77	-45.6	-46.9	25.4	6.06e-01	0	42	0	506462208	62	4246
2026-01-23 12:17:40.63	209.46	38.99	-45.7	-47.0	25.2	6.06e-01	0	42	0	508559360	62	4314
2026-01-23 12:17:41.64	209.84	39.21	-45.5	-46.7	25.5	6.07e-01	0	42	0	510132224	62	4171
2026-01-23 12:17:42.65	210.22	39.43	-45.4	-46.7	25.5	6.06e-01	0	42	0	512229376	62	4155
2026-01-23 12:17:43.65	210.61	39.65	-45.3	-46.5	25.6	6.06e-01	0	42	0	513802240	62	4096
2026-01-23 12:17:44.66	211.00	39.87	-45.5	-46.7	25.5	6.03e-01	0	42	0	515899392	62	4177
2026-01-23 12:17:45.67	211.40	40.09	-45.3	-46.5	25.7	6.04e-01	0	42	0	517996544	62	4064
2026-01-23 12:17:46.68	211.80	40.31	-45.1	-46.3	25.9	6.06e-01	0	42	0	519569408	62	3964
2026-01-23 12:17:47.68	212.21	40.53	-45.0	-46.2	26.0	6.05e-01	0	42	0	521666560	61	4166
2026-01-23 12:17:48.69	212.63	40.75	-44.9	-46.0	26.1	6.06e-01	0	42	0	523763712	61	4094
2026-01-23 12:17:49.70	213.05	40.97	-44.8	-46.0	26.2	6.04e-01	0	42	0	525336576	61	4057
2026-01-23 12:17:50.71	213.48	41.19	-45.0	-46.2	26.0	6.05e-01	0	42	0	527433728	61	4170
2026-01-23 12:17:51.72	213.91	41.41	-44.4	-45.5	26.6	6.03e-01	0	42	0	529006592	60	4078
2026-01-23 12:17:52.72	214.34	41.62	-44.5	-45.6	26.5	6.05e-01	0	42	0	531103744	60	4125
2026-01-23 12:17:53.73	214.79	41.84	-44.2	-45.3	26.7	6.05e-01	0	42	0	532676608	60	3998
2026-01-23 12:17:54.74	215.24	42.06	-44.2	-45.3	26.8	6.06e-01	0	42	0	534773760	60	3988
2026-01-23 12:17:55.75	215.70	42.28	-44.3	-45.4	26.7	6.09e-01	0	42	0	536870912	60	4026
2026-01-23 12:17:56.75	216.16	42.49	-44.0	-45.1	26.9	6.06e-01	0	42	0	538443776	60	3910
2026-01-23 12:17:57.76	216.63	42.71	-44.0	-45.1	27.0	6.04e-01	0	42	0	540540928	60	3892
2026-01-23 12:17:58.77	217.10	42.93	-44.1	-45.2	26.8	6.06e-01	0	42	0	542113792	59	4151
2026-01-23 12:17:59.78	217.59	43.14	-44.0	-45.1	26.9	6.04e-01	0	42	0	544210944	59	4129
2026-01-23 12:18:00.78	218.07	43.35	-43.9	-45.0	26.9	6.07e-01	0	42	0	546308096	59	4077
2026-01-23 12:18:01.79	218.57	43.56	-44.1	-45.2	26.8	6.05e-01	0	42	0	547880960	59	4172
2026-01-23 12:18:02.80	219.07	43.78	-44.1	-45.3	26.7	6.07e-01	0	42	0	549978112	59	4203
2026-01-23 12:18:03.81	219.58	43.99	-43.9	-45.0	27.0	6.06e-01	0	42	0	552075264	59	4078
2026-01-23 12:18:04.82	220.09	44.19	-44.0	-45.1	26.9	6.04e-01	0	42	0	553648128	59	4113
2026-01-23 12:18:05.83	220.62	44.40	-43.8	-44.9	27.0	6.05e-01	0	42	0	555745280	59	4039
2026-01-23 12:18:06.83	221.14	44.61	-43.9	-45.0	27.0	6.05e-01	0	42	0	557318144	59	4062
2026-01-23 12:18:07.84	221.68	44.81	-43.9	-45.0	26.9	6.06e-01	0	42	0	559415296	59	4088
2026-01-23 12:18:08.85	222.22	45.01	-43.8	-44.9	27.1	6.07e-01	0	42	0	560988160	59	4025
2026-01-23 12:18:09.86	222.77	45.22	-43.9	-45.0	27.0	6.06e-01	0	42	0	563085312	59	4068
2026-01-23 12:18:10.86	223.32	45.41	-43.7	-44.8	27.2	6.04e-01	0	42	0	565182464	59	3977
2026-01-23 12:18:11.87	223.89	45.61	-43.9	-45.0	26.9	6.03e-01	0	42	0	566755328	59	4078
2026-01-23 12:18:12.88	224.46	45.81	-43.7	-44.8	27.1	6.05e-01	0	42	0	568852480	59	3986
2026-01-23 12:18:13.89	225.04	46.00	-43.9	-45.0	27.0	6.06e-01	0	42	0	570949632	59	4065
2026-01-23 12:18:14.90	225.62	46.19	-44.0	-45.1	26.9	6.05e-01	0	42	0	572522496	59	4108
2026-01-23 12:18:15.90	226.21	46.38	-43.7	-44.8	27.2	6.05e-01	0	42	0	574619648	59	3961
2026-01-23 12:18:16.91	226.81	46.57	-43.7	-44.8	27.1	6.05e-01	0	42	0	576192512	59	3980
2026-01-23 12:18:17.92	227.41	46.75	-43.8	-44.9	27.1	6.04e-01	0	42	0	578289664	59	4020
2026-01-23 12:18:18.93	228.03	46.93	-43.8	-44.9	27.1	6.05e-01	0	42	0	580386816	59	4031
2026-01-23 12:18:19.94	228.65	47.11	-43.8	-44.9	27.0	6.05e-01	0	42	0	581959680	59	4033
2026-01-23 12:18:20.95	229.28	47.29	-43.9	-45.0	27.0	6.04e-01	0	42	0	584056832	59	4054
2026-01-23 12:18:21.96	229.91	47.46	-44.0	-45.1	26.8	6.05e-01	0	42	0	585629696	59	4133
2026-01-23 12:18:22.96	230.55	47.63	-44.0	-45.1	26.9	6.05e-01	0	42	0	587726848	59	4114
2026-01-23 12:18:23.97	231.20	47.79	-44.1	-45.2	26.8	6.06e-01	0	42	0	589299712	59	4190
2026-01-23 12:18:24.98	231.85	47.96	-44.0	-45.0	27.0	6.03e-01	0	42	0	591396864	59	4098
2026-01-23 12:18:25.98	232.51	48.12	-44.0	-45.1	26.8	6.04e-01	0	42	0	593494016	59	4140
2026-01-23 12:18:26.99	233.18	48.27	-44.3	-45.4	26.6	6.04e-01	0	42	0	595591168	59	4276
2026-01-23 12:18:28.00	233.86	48.43	-44.1	-45.2	26.8	6.06e-01	0	42	0	597164032	59	4158
2026-01-23 12:18:29.01	234.54	48.58	-44.2	-45.3	26.7	6.04e-01	0	42	0	599261184	59	4230
2026-01-23 12:18:30.02	235.23	48.72	-44.2	-45.3	26.7	6.05e-01	0	42	0	600834048	59	4200
2026-01-23 12:18:31.02	235.92	48.86	-44.1	-45.2	26.8	6.06e-01	0	42	0	602931200	59	4168
2026-01-23 12:18:32.03	236.62	49.00	-44.3	-45.4	26.6	6.07e-01	0	42	0	604504064	59	4263
2026-01-23 12:18:33.04	237.33	49.13	-44.1	-45.2	26.9	6.04e-01	0	42	0	606601216	59	4190
2026-01-23 12:18:34.05	238.05	49.26	-44.2	-45.4	26.7	6.05e-01	0	42	0	608698368	59	4252
2026-01-23 12:18:35.06	238.77	49.39	-44.1	-45.2	26.8	6.05e-01	0	42	0	610271232	59	4180
2026-01-23 12:18:36.06	239.49	49.51	-44.4	-45.5	26.6	6.03e-01	0	42	0	612368384	59	4314
2026-01-23 12:18:37.07	240.22	49.62	-44.2	-45.3	26.8	6.06e-01	0	42	0	613941248	59	4226
2026-01-23 12:18:38.08	240.96	49.74	-44.5	-45.6	26.5	6.05e-01	0	42	0	616038400	59	4366
2026-01-23 12:18:39.09	241.70	49.84	-44.4	-45.5	26.5	6.06e-01	0	42	0	618135552	59	4337
2026-01-23 12:18:40.10	242.45	49.95	-44.9	-46.0	26.2	6.03e-01	0	42	0	619708416	60	4336
2026-01-23 12:18:41.10	243.20	50.04	-44.3	-45.4	26.8	6.04e-01	0	42	0	621805568	60	4026
2026-01-23 12:18:42.11	243.96	50.14	-44.5	-45.7	26.5	6.06e-01	0	42	0	623902720	60	4158
2026-01-23 12:18:43.12	244.72	50.22	-44.6	-45.7	26.6	6.04e-01	0	42	0	625475584	60	4179
2026-01-23 12:18:44.13	245.49	50.31	-44.6	-45.7	26.5	6.02e-01	0	42	0	627572736	60	4184
2026-01-23 12:18:45.13	246.25	50.38	-44.8	-46.0	26.3	6.05e-01	0	42	0	629145600	60	4323
2026-01-23 12:18:46.14	247.02	50.45	-44.3	-45.4	26.8	6.06e-01	0	42	0	631242752	60	4050
2026-01-23 12:18:47.15	247.80	50.52	-44.6	-45.7	26.5	6.04e-01	0	42	0	632815616	60	4182
2026-01-23 12:18:48.16	248.58	50.58	-44.5	-45.7	26.5	6.06e-01	0	42	0	634912768	60	4151
2026-01-23 12:18:49.17	249.37	50.64	-44.9	-46.0	26.3	6.05e-01	0	42	0	637009920	60	4335
2026-01-23 12:18:50.17	250.15	50.69	-44.9	-46.0	26.3	6.05e-01	0	42	0	638582784	60	4325
2026-01-23 12:18:51.18	250.94	50.73	-45.0	-46.2	26.1	6.06e-01	0	42	0	640679936	60	4403
2026-01-23 12:18:52.19	251.73	50.77	-44.7	-45.9	26.4	6.03e-01	0	42	0	642777088	61	4020
2026-01-23 12:18:53.20	252.52	50.81	-44.5	-45.6	26.6	6.06e-01	0	42	0	644349952	61	3899
2026-01-23 12:18:54.21	253.32	50.84	-44.6	-45.8	26.6	6.06e-01	0	42	0	646447104	61	3972
2026-01-23 12:18:55.21	254.11	50.86	-44.9	-46.0	26.3	6.06e-01	0	42	0	648019968	61	4077
2026-01-23 12:18:56.22	254.91	50.87	-44.8	-45.9	26.4	6.04e-01	0	42	0	650117120	61	4038
2026-01-23 12:18:57.23	255.71	50.89	-44.7	-45.9	26.4	6.04e-01	0	42	0	652214272	61	4014
2026-01-23 12:18:58.24	256.51	50.89	-44.9	-46.0	26.3	6.05e-01	0	42	0	653787136	61	4092
2026-01-23 12:18:59.25	257.30	50.89	-44.8	-45.9	26.4	6.06e-01	0	42	0	655884288	61	4024
2026-01-23 12:19:00.26	258.10	50.89	-44.8	-46.0	26.3	6.03e-01	0	42	0	657457152	61	4059
2026-01-23 12:19:01.26	258.89	50.87	-44.7	-45.8	26.5	6.06e-01	0	42	0	659554304	61	3989
2026-01-23 12:19:02.27	259.69	50.86	-44.9	-46.1	26.3	6.05e-01	0	42	0	661127168	61	4104
2026-01-23 12:19:03.28	260.49	50.83	-45.0	-46.2	26.2	6.05e-01	0	42	0	663224320	61	4168
2026-01-23 12:19:04.29	261.28	50.81	-44.8	-46.0	26.4	6.05e-01	0	42	0	665321472	61	4054
2026-01-23 12:19:05.29	262.07	50.77	-44.8	-45.9	26.5	6.05e-01	0	42	0	667418624	61	4026
2026-01-23 12:19:06.30	262.86	50.73	-44.9	-46.1	26.2	6.05e-01	0	42	0	668991488	61	4119
2026-01-23 12:19:07.31	263.65	50.69	-44.7	-45.8	26.5	6.04e-01	0	42	0	671088640	61	4000
2026-01-23 12:19:08.32	264.44	50.64	-45.0	-46.2	26.2	6.05e-01	0	42	0	672661504	61	4159
2026-01-23 12:19:09.33	265.22	50.58	-45.0	-46.2	26.2	6.05e-01	0	42	0	674758656	61	4146
2026-01-23 12:19:10.33	266.00	50.52	-45.1	-46.2	26.1	6.04e-01	0	42	0	676331520	61	4192
2026-01-23 12:19:11.34	266.77	50.45	-45.1	-46.3	26.1	6.04e-01	0	42	0	678428672	61	4195
2026-01-23 12:19:12.35	267.55	50.38	-44.9	-46.1	26.3	6.06e-01	0	42	0	680525824	61	4118
2026-01-23 12:19:13.36	268.32	50.30	-45.2	-46.4	26.0	6.05e-01	0	42	0	682098688	61	4267
2026-01-23 12:19:14.37	269.08	50.22	-45.1	-46.2	26.1	6.04e-01	0	42	0	684195840	61	4185
2026-01-23 12:19:15.37	269.84	50.13	-45.1	-46.3	26.0	6.08e-01	0	42	0	685768704	61	4220
2026-01-23 12:19:16.38	270.60	50.04	-45.2	-46.4	26.0	6.04e-01	0	42	0	687865856	61	4262
2026-01-23 12:19:17.39	271.35	49.94	-45.2	-46.4	25.9	6.04e-01	0	42	0	689963008	61	4268
2026-01-23 12:19:18.40	272.10	49.84	-45.3	-46.5	25.9	6.06e-01	0	42	0	691535872	61	4315
2026-01-23 12:19:19.41	272.84	49.73	-45.2	-46.4	26.0	6.04e-01	0	42	0	693633024	61	4248
2026-01-23 12:19:20.42	273.58	49.62	-45.1	-46.3	26.1	6.06e-01	0	42	0	695730176	61	4211
2026-01-23 12:19:21.42	274.30	49.51	-45.3	-46.5	25.9	6.05e-01	0	42	0	697303040	61	4299
2026-01-23 12:19:22.43	275.03	49.38	-45.4	-46.6	25.8	6.06e-01	0	42	0	699400192	61	4356
2026-01-23 12:19:23.44	275.75	49.26	-45.2	-46.4	26.0	6.06e-01	0	42	0	700973056	61	4258
2026-01-23 12:19:24.45	276.46	49.13	-45.0	-46.1	26.2	6.05e-01	0	42	0	703070208	61	4132
2026-01-23 12:19:25.46	277.17	49.00	-45.2	-46.4	26.0	6.03e-01	0	42	0	704643072	61	4264
2026-01-23 12:19:26.46	277.86	48.86	-45.5	-46.7	25.7	6.04e-01	0	42	0	706740224	61	4413
2026-01-23 12:19:27.47	278.56	48.72	-45.3	-46.5	25.8	6.06e-01	0	42	0	708837376	61	4334
2026-01-23 12:19:28.48	279.25	48.57	-45.2	-46.4	26.0	6.07e-01	0	42	0	710934528	61	4257
2026-01-23 12:19:29.49	279.93	48.42	-45.4	-46.6	25.8	6.07e-01	0	42	0	712507392	61	4364
2026-01-23 12:19:30.49	280.60	48.27	-45.5	-46.7	25.7	6.09e-01	0	42	0	714604544	61	4404
2026-01-23 12:19:31.50	281.27	48.12	-45.6	-46.8	25.6	6.06e-01	0	42	0	716177408	61	4481
2026-01-23 12:19:32.51	281.93	47.96	-45.0	-46.2	26.1	6.04e-01	0	42	0	718274560	61	4166
2026-01-23 12:19:33.52	282.58	47.79	-45.3	-46.4	25.9	6.06e-01	0	42	0	719847424	61	4289
2026-01-23 12:19:34.53	283.23	47.63	-45.5	-46.7	25.7	6.07e-01	0	42	0	721944576	61	4431
2026-01-23 12:19:35.53	283.87	47.46	-45.4	-46.6	25.8	6.05e-01	0	42	0	724041728	61	4383
2026-01-23 12:19:36.54	284.50	47.28	-45.4	-46.7	25.7	6.05e-01	0	42	0	725614592	61	4393
2026-01-23 12:19:37.55	285.13	47.11	-45.2	-46.3	26.0	6.05e-01	0	42	0	727711744	61	4235
2026-01-23 12:19:38.56	285.75	46.93	-45.0	-46.2	26.3	6.00e-01	0	42	0	729284608	61	4152
2026-01-23 12:19:39.57	286.36	46.75	-45.1	-46.3	26.1	6.03e-01	0	42	0	731381760	61	4224
2026-01-23 12:19:40.58	286.96	46.57	-45.3	-46.5	25.9	6.02e-01	0	42	0	732954624	61	4294
2026-01-23 12:19:41.58	287.56	46.38	-45.1	-46.2	26.2	6.03e-01	0	42	0	735051776	61	4181
2026-01-23 12:19:42.59	288.15	46.19	-45.0	-46.2	26.2	6.01e-01	0	42	0	737148928	61	4154
2026-01-23 12:19:43.60	288.73	46.00	-44.9	-46.1	26.3	6.01e-01	0	42	0	739246080	61	4113
2026-01-23 12:19:44.61	289.31	45.81	-45.2	-46.4	25.9	6.02e-01	0	42	0	740818944	61	4263
2026-01-23 12:19:45.62	289.88	45.61	-45.2	-46.3	26.1	6.04e-01	0	42	0	742916096	61	4232
2026-01-23 12:19:46.62	290.44	45.42	-45.1	-46.2	26.2	6.00e-01	0	42	0	744488960	61	4187
2026-01-23 12:19:47.63	290.99	45.22	-45.1	-46.3	26.2	6.05e-01	0	42	0	746586112	61	4195
2026-01-23 12:19:48.64	291.54	45.02	-45.2	-46.4	26.1	6.03e-01	0	42	0	748158976	61	4252
2026-01-23 12:19:49.65	292.08	44.82	-45.1	-46.3	26.2	6.03e-01	0	42	0	750256128	61	4209
2026-01-23 12:19:50.65	292.61	44.62	-45.0	-46.1	26.3	6.02e-01	0	42	0	752353280	61	4143
2026-01-23 12:19:51.66	293.14	44.41	-45.0	-46.2	26.3	6.03e-01	0	42	0	753926144	61	4151
2026-01-23 12:19:52.67	293.66	44.20	-45.1	-46.3	26.2	6.04e-01	0	42	0	756023296	61	4201
2026-01-23 12:19:53.68	294.18	43.99	-45.1	-46.2	26.2	6.01e-01	0	42	0	758120448	61	4175
2026-01-23 12:19:54.69	294.69	43.78	-45.1	-46.2	26.2	6.04e-01	0	42	0	759693312	61	4183
2026-01-23 12:19:55.69	295.18	43.58	-45.4	-46.6	25.8	6.04e-01	0	42	0	761790464	61	4380
2026-01-23 12:19:56.70	295.68	43.36	-45.3	-46.5	25.8	6.02e-01	0	42	0	763363328	61	4304
2026-01-23 12:19:57.71	296.16	43.15	-45.2	-46.3	26.1	6.03e-01	0	42	0	765460480	61	4229
2026-01-23 12:19:58.72	296.65	42.94	-45.2	-46.3	26.1	6.04e-01	0	42	0	767557632	61	4242
2026-01-23 12:19:59.73	297.12	42.72	-45.2	-46.4	26.1	6.03e-01	0	42	0	769130496	61	4246
2026-01-23 12:20:00.74	297.59	42.51	-45.2	-46.3	26.1	6.03e-01	0	42	0	771227648	61	4225
2026-01-23 12:20:01.74	298.05	42.29	-45.3	-46.5	26.0	6.02e-01	0	42	0	772800512	61	4321
2026-01-23 12:20:02.75	298.50	42.08	-45.5	-46.7	25.8	6.02e-01	0	42	0	774897664	61	4400
2026-01-23 12:20:03.76	298.95	41.86	-45.4	-46.6	25.9	6.03e-01	0	42	0	776470528	61	4341
2026-01-23 12:20:04.77	299.40	41.64	-45.4	-46.6	25.9	6.03e-01	0	42	0	778567680	61	4367
2026-01-23 12:20:05.78	299.84	41.42	-45.4	-46.6	25.8	6.04e-01	0	42	0	780664832	61	4371
2026-01-23 12:20:06.78	300.26	41.21	-45.6	-46.8	25.7	6.04e-01	0	42	0	782237696	61	4457
2026-01-23 12:20:07.79	300.69	40.99	-45.3	-46.5	25.9	6.01e-01	0	42	0	784334848	61	4327
2026-01-23 12:20:08.80	301.11	40.77	-45.3	-46.4	26.0	6.01e-01	0	42	0	786432000	61	4277
2026-01-23 12:20:09.81	301.53	40.55	-45.6	-46.9	25.5	6.03e-01	0	42	0	788004864	61	4503
2026-01-23 12:20:10.82	301.93	40.33	-46.0	-47.3	25.3	6.03e-01	0	42	0	790102016	62	4451
2026-01-23 12:20:11.83	302.34	40.11	-45.7	-46.9	25.6	6.02e-01	0	42	0	791674880	62	4257
2026-01-23 12:20:12.84	302.74	39.89	-45.5	-46.7	25.8	6.02e-01	0	42	0	793772032	62	4170
2026-01-23 12:20:13.84	303.13	39.67	-45.6	-46.8	25.6	6.03e-01	0	42	0	795869184	62	4242
2026-01-23 12:20:14.85	303.51	39.45	-45.6	-46.9	25.6	6.00e-01	0	42	0	797442048	62	4246
2026-01-23 12:20:15.86	303.90	39.23	-45.5	-46.7	25.7	6.02e-01	0	42	0	799539200	62	4193
2026-01-23 12:20:16.87	304.27	39.01	-45.4	-46.6	25.9	6.02e-01	0	42	0	801112064	62	4103
2026-01-23 12:20:17.88	304.64	38.79	-45.5	-46.7	25.7	6.04e-01	0	42	0	803209216	62	4162
2026-01-23 12:20:18.88	305.01	38.58	-45.5	-46.7	25.7	6.03e-01	0	42	0	805306368	62	4174
2026-01-23 12:20:19.89	305.37	38.36	-45.3	-46.5	26.0	6.02e-01	0	42	0	806879232	62	4056
2026-01-23 12:20:20.90	305.73	38.14	-45.3	-46.5	26.0	6.03e-01	0	42	0	808976384	62	4059
2026-01-23 12:20:21.90	306.08	37.92	-45.2	-46.4	26.0	6.02e-01	0	42	0	810549248	62	4037
2026-01-23 12:20:22.91	306.42	37.70	-45.4	-46.6	25.8	6.04e-01	0	42	0	812646400	62	4139
2026-01-23 12:20:23.92	306.77	37.49	-45.3	-46.5	25.9	6.04e-01	0	42	0	814743552	62	4054
2026-01-23 12:20:24.93	307.11	37.27	-45.3	-46.4	25.9	6.03e-01	0	42	0	816316416	62	4050
2026-01-23 12:20:25.94	307.44	37.05	-44.8	-46.0	26.3	6.05e-01	0	42	0	818413568	61	4064
2026-01-23 12:20:26.95	307.77	36.83	-44.6	-45.7	26.6	6.03e-01	0	42	0	819986432	61	3929
2026-01-23 12:20:27.96	308.09	36.62	-44.6	-45.8	26.5	6.02e-01	0	42	0	822083584	61	3975
2026-01-23 12:20:28.96	308.41	36.41	-44.7	-45.8	26.5	6.02e-01	0	42	0	824180736	61	3994
2026-01-23 12:20:29.97	308.73	36.19	-44.4	-45.5	26.8	6.01e-01	0	42	0	825753600	60	4061
2026-01-23 12:20:30.98	309.04	35.98	-44.3	-45.4	26.8	6.02e-01	0	42	0	827850752	60	4037
2026-01-23 12:20:31.99	309.35	35.76	-44.3	-45.4	26.9	6.03e-01	0	42	0	829947904	60	4044
2026-01-23 12:20:32.99	309.65	35.55	-44.2	-45.3	27.0	6.02e-01	0	42	0	831520768	60	3964
2026-01-23 12:20:34.00	309.95	35.34	-44.1	-45.2	27.0	6.02e-01	0	42	0	833617920	60	3934
2026-01-23 12:20:35.01	310.25	35.13	-44.1	-45.2	27.0	6.01e-01	0	42	0	835190784	60	3936
2026-01-23 12:20:36.02	310.54	34.92	-44.2	-45.3	27.0	6.03e-01	0	42	0	837287936	60	3973
2026-01-23 12:20:37.03	310.83	34.71	-43.9	-45.0	27.1	6.02e-01	0	42	0	838860800	59	4063
2026-01-23 12:20:38.03	311.11	34.50	-43.9	-45.0	27.0	6.01e-01	0	42	0	840957952	59	4078
2026-01-23 12:20:39.04	311.39	34.29	-43.9	-45.0	27.1	6.01e-01	0	42	0	843055104	59	4077
2026-01-23 12:20:40.05	311.67	34.08	-43.8	-44.9	27.1	6.03e-01	0	42	0	844627968	59	4040
2026-01-23 12:20:41.06	311.94	33.88	-44.0	-45.0	27.0	6.02e-01	0	42	0	846725120	59	4094
2026-01-23 12:20:42.07	312.22	33.67	-43.8	-44.9	27.1	6.00e-01	0	42	0	848297984	59	4013
2026-01-23 12:20:43.08	312.48	33.46	-43.7	-44.8	27.2	6.03e-01	0	42	0	850395136	59	3993
2026-01-23 12:20:44.08	312.74	33.26	-43.7	-44.8	27.2	6.03e-01	0	42	0	852492288	59	3966
2026-01-23 12:20:45.09	313.01	33.06	-43.6	-44.6	27.3	6.04e-01	0	42	0	854065152	59	3903
2026-01-23 12:20:46.10	313.26	32.86	-43.4	-44.5	27.2	6.05e-01	0	42	0	856162304	58	4070
2026-01-23 12:20:47.11	313.52	32.65	-43.5	-44.5	27.4	6.01e-01	0	42	0	858259456	58	4095
2026-01-23 12:20:48.11	313.77	32.45	-43.5	-44.5	27.4	6.01e-01	0	42	0	859832320	58	4089
2026-01-23 12:20:49.12	314.01	32.25	-43.4	-44.5	27.5	6.03e-01	0	42	0	861929472	58	4070
2026-01-23 12:20:50.13	314.26	32.05	-43.4	-44.4	27.5	6.02e-01	0	42	0	863502336	58	4045
2026-01-23 12:20:51.14	314.50	31.85	-43.3	-44.3	27.6	6.01e-01	0	42	0	865599488	58	3983
2026-01-23 12:20:52.15	314.74	31.66	-43.4	-44.4	27.5	6.03e-01	0	42	0	867172352	58	4051
2026-01-23 12:20:53.15	314.97	31.46	-43.3	-44.4	27.5	6.03e-01	0	42	0	869269504	58	4022
2026-01-23 12:20:54.16	315.21	31.27	-43.4	-44.5	27.4	6.03e-01	0	42	0	871366656	58	4074
2026-01-23 12:20:55.17	315.44	31.07	-43.4	-44.4	27.4	6.03e-01	0	43	0	872939520	58	4050
2026-01-23 12:20:56.18	315.66	30.88	-43.4	-44.5	27.4	6.02e-01	0	42	0	875036672	58	4052
2026-01-23 12:20:57.19	315.89	30.68	-43.5	-44.5	27.3	6.01e-01	0	42	0	877133824	58	4098
2026-01-23 12:20:58.19	316.11	30.49	-43.4	-44.5	27.3	6.02e-01	0	42	0	878706688	58	4065
2026-01-23 12:20:59.20	316.33	30.30	-43.5	-44.5	27.4	6.02e-01	0	42	0	880803840	58	4082
2026-01-23 12:21:00.21	316.54	30.11	-43.5	-44.6	27.3	6.03e-01	0	42	0	882376704	58	4099
2026-01-23 12:21:01.22	316.76	29.92	-43.6	-44.7	27.3	6.03e-01	0	42	0	884473856	58	4149
2026-01-23 12:21:02.23	316.97	29.73	-43.7	-44.8	27.1	6.02e-01	0	42	0	886571008	58	4208
2026-01-23 12:21:03.24	317.18	29.55	-43.8	-44.9	27.0	6.02e-01	0	43	0	888143872	58	4264
2026-01-23 12:21:04.25	317.39	29.36	-43.8	-44.9	26.9	6.05e-01	0	42	0	890241024	58	4285
2026-01-23 12:21:05.25	317.59	29.18	-43.7	-44.8	27.1	6.02e-01	0	42	0	891813888	58	4215
2026-01-23 12:21:06.26	317.79	28.99	-43.7	-44.7	27.1	6.02e-01	0	42	0	893911040	58	4188
2026-01-23 12:21:07.27	317.99	28.81	-43.5	-44.6	27.2	6.02e-01	0	42	0	895483904	58	4107
2026-01-23 12:21:08.28	318.19	28.62	-43.6	-44.7	27.1	6.03e-01	0	42	0	897581056	58	4171
2026-01-23 12:21:09.29	318.38	28.44	-43.6	-44.7	27.0	6.00e-01	0	42	0	899678208	58	4149
2026-01-23 12:21:10.30	318.58	28.26	-43.8	-44.9	26.8	6.01e-01	0	43	0	901775360	58	4244
2026-01-23 12:21:11.30	318.77	28.08	-43.9	-45.0	26.8	6.03e-01	0	42	0	903348224	58	4305
2026-01-23 12:21:12.31	318.95	27.90	-43.9	-45.0	26.8	6.01e-01	0	42	0	905445376	58	4305
2026-01-23 12:21:13.32	319.14	27.72	-43.9	-45.0	26.9	6.02e-01	0	42	0	907018240	58	4332
2026-01-23 12:21:14.33	319.33	27.55	-43.9	-45.0	26.9	6.03e-01	0	42	0	909115392	58	4302
2026-01-23 12:21:15.34	319.51	27.37	-44.0	-45.0	26.8	6.02e-01	0	42	0	910688256	58	4339
2026-01-23 12:21:16.34	319.69	27.20	-44.0	-45.1	26.8	6.04e-01	0	42	0	912785408	58	4349
2026-01-23 12:21:17.35	319.87	27.02	-44.1	-45.2	26.6	6.05e-01	0	42	0	914882560	58	4399
2026-01-23 12:21:18.36	320.04	26.85	-44.3	-45.4	26.4	6.02e-01	0	42	0	916455424	59	4272
2026-01-23 12:21:19.37	320.22	26.68	-44.3	-45.4	26.4	6.03e-01	0	42	0	918552576	59	4286
2026-01-23 12:21:20.38	320.39	26.51	-44.4	-45.6	26.3	6.02e-01	0	42	0	920649728	59	4341
2026-01-23 12:21:21.39	320.56	26.33	-44.3	-45.4	26.5	6.01e-01	0	42	0	922222592	59	4279
2026-01-23 12:21:22.40	320.73	26.16	-44.2	-45.3	26.5	6.02e-01	0	42	0	924319744	59	4238
2026-01-23 12:21:23.40	320.89	26.00	-44.3	-45.5	26.4	6.01e-01	0	43	0	925892608	59	4304
2026-01-23 12:21:24.41	321.06	25.83	-44.3	-45.4	26.3	6.02e-01	0	42	0	927989760	59	4277
2026-01-23 12:21:25.42	321.22	25.66	-44.4	-45.5	26.2	6.03e-01	0	42	0	930086912	59	4322
2026-01-23 12:21:26.43	321.39	25.50	-44.3	-45.5	26.2	6.02e-01	0	42	0	931659776	59	4307
2026-01-23 12:21:27.43	321.54	25.33	-44.5	-45.6	26.1	6.04e-01	0	43	0	933756928	59	4366
2026-01-23 12:21:28.44	321.70	25.17	-44.4	-45.5	26.1	6.02e-01	0	42	0	935329792	59	4335
2026-01-23 12:21:29.45	321.86	25.00	-44.2	-45.3	26.5	6.03e-01	0	42	0	937426944	59	4225
2026-01-23 12:21:30.46	322.01	24.84	-44.3	-45.4	26.4	6.01e-01	0	43	0	938999808	59	4257
2026-01-23 12:21:31.47	322.17	24.68	-44.4	-45.5	26.4	6.00e-01	0	42	0	941096960	59	4309
2026-01-23 12:21:32.47	322.32	24.52	-44.4	-45.6	26.3	6.02e-01	0	43	0	943194112	59	4358
2026-01-23 12:21:33.48	322.47	24.36	-44.6	-45.7	26.2	6.00e-01	0	43	0	945291264	59	4424
2026-01-23 12:21:34.49	322.62	24.20	-44.6	-45.8	26.1	6.03e-01	0	42	0	946864128	59	4463
2026-01-23 12:21:35.50	322.77	24.04	-44.5	-45.7	26.2	6.04e-01	0	43	0	948961280	59	4406
2026-01-23 12:21:36.50	322.91	23.89	-44.4	-45.6	26.3	6.03e-01	0	42	0	950534144	59	4354
2026-01-23 12:21:37.51	323.05	23.73	-44.4	-45.6	26.3	6.01e-01	0	42	0	952631296	59	4348
2026-01-23 12:21:38.52	323.20	23.57	-44.5	-45.7	26.2	6.01e-01	0	42	0	954204160	59	4414
2026-01-23 12:21:39.53	323.34	23.42	-44.5	-45.6	26.3	6.02e-01	0	42	0	956301312	59	4370
2026-01-23 12:21:40.54	323.48	23.27	-44.6	-45.8	26.1	6.03e-01	0	43	0	958398464	59	4471
2026-01-23 12:21:41.54	323.62	23.11	-44.6	-45.8	26.1	6.04e-01	0	42	0	959971328	59	4473
2026-01-23 12:21:42.55	323.75	22.96	-44.5	-45.7	26.2	6.02e-01	0	42	0	962068480	59	4398
2026-01-23 12:21:43.56	323.89	22.81	-44.5	-45.6	26.2	6.04e-01	0	42	0	963641344	59	4372
2026-01-23 12:21:44.57	324.03	22.66	-44.5	-45.6	26.2	6.03e-01	0	43	0	965738496	59	4376
2026-01-23 12:21:45.58	324.16	22.51	-44.6	-45.7	26.1	6.03e-01	0	42	0	967311360	59	4416
2026-01-23 12:21:46.58	324.29	22.36	-44.4	-45.5	26.2	6.03e-01	0	42	0	969408512	59	4303
2026-01-23 12:21:47.59	324.42	22.21	-44.4	-45.5	26.1	6.02e-01	0	43	0	971505664	59	4333
2026-01-23 12:21:48.60	324.55	22.07	-44.3	-45.5	26.3	6.03e-01	0	42	0	973602816	59	4300
2026-01-23 12:21:49.61	324.68	21.92	-44.4	-45.5	26.2	6.04e-01	0	42	0	975175680	59	4319
2026-01-23 12:21:50.62	324.81	21.77	-44.4	-45.6	26.2	6.01e-01	0	42	0	977272832	59	4363
2026-01-23 12:21:51.63	324.93	21.63	-44.4	-45.6	26.2	6.02e-01	0	43	0	978845696	59	4352
2026-01-23 12:21:52.64	325.06	21.48	-44.3	-45.5	26.3	6.02e-01	0	43	0	980942848	59	4300
2026-01-23 12:21:53.64	325.18	21.34	-44.2	-45.4	26.3	6.00e-01	0	43	0	982515712	59	4264
2026-01-23 12:21:54.65	325.30	21.20	-44.4	-45.6	26.2	6.03e-01	0	42	0	984612864	59	4362
2026-01-23 12:21:55.66	325.42	21.06	-44.1	-45.2	26.5	6.02e-01	0	42	0	986710016	59	4183
2026-01-23 12:21:56.67	325.54	20.91	-44.2	-45.3	26.4	6.06e-01	0	43	0	988282880	59	4213
2026-01-23 12:21:57.67	325.66	20.78	-44.2	-45.3	26.4	6.00e-01	0	42	0	990380032	59	4239
2026-01-23 12:21:58.68	325.78	20.64	-44.1	-45.2	26.5	6.04e-01	0	42	0	992477184	59	4164
2026-01-23 12:21:59.69	325.90	20.50	-44.1	-45.2	26.5	6.03e-01	0	42	0	994050048	59	4188
2026-01-23 12:22:00.70	326.01	20.36	-44.0	-45.1	26.6	6.03e-01	0	42	0	996147200	59	4144
2026-01-23 12:22:01.71	326.13	20.22	-44.0	-45.2	26.5	6.02e-01	0	42	0	997720064	59	4154
2026-01-23 12:22:02.71	326.24	20.08	-44.1	-45.2	26.5	6.03e-01	0	42	0	999817216	59	4179
2026-01-23 12:22:03.72	326.35	19.95	-44.0	-45.1	26.6	6.02e-01	0	42	0	1001914368	59	4135
2026-01-23 12:22:04.73	326.46	19.81	-44.0	-45.1	26.6	6.02e-01	0	43	0	1003487232	59	4138
2026-01-23 12:22:05.74	326.58	19.68	-44.0	-45.1	26.6	6.03e-01	0	43	0	1005584384	59	4123
2026-01-23 12:22:06.74	326.68	19.55	-44.0	-45.2	26.5	6.05e-01	0	42	0	1007157248	59	4148
2026-01-23 12:22:07.75	326.79	19.41	-44.1	-45.2	26.5	6.04e-01	0	43	0	1009254400	59	4169
2026-01-23 12:22:08.76	326.90	19.28	-44.0	-45.1	26.5	6.02e-01	0	43	0	1010827264	59	4131
2026-01-23 12:22:09.77	327.01	19.15	-43.9	-45.1	26.5	6.01e-01	0	43	0	1012924416	59	4103
2026-01-23 12:22:10.78	327.11	19.02	-44.0	-45.2	26.4	6.02e-01	0	42	0	1015021568	59	4154
2026-01-23 12:22:11.79	327.22	18.88	-44.0	-45.1	26.4	6.04e-01	0	43	0	1017118720	59	4135
2026-01-23 12:22:12.80	327.32	18.75	-43.8	-44.9	26.7	6.02e-01	0	43	0	1018691584	59	4022
2026-01-23 12:22:13.80	327.43	18.63	-43.8	-44.9	26.7	6.04e-01	0	43	0	1020788736	59	4042
2026-01-23 12:22:14.81	327.53	18.50	-43.9	-45.0	26.5	6.01e-01	0	43	0	1022361600	59	4073
2026-01-23 12:22:15.82	327.63	18.37	-43.8	-44.9	26.6	6.02e-01	0	43	0	1024458752	59	4050
2026-01-23 12:22:16.82	327.73	18.24	-43.9	-45.0	26.5	6.03e-01	0	42	0	1026031616	59	4096
2026-01-23 12:22:17.83	327.83	18.12	-43.8	-44.9	26.6	6.01e-01	0	43	0	1028128768	59	4049
2026-01-23 12:22:18.84	327.93	17.99	-43.9	-45.0	26.6	6.02e-01	0	43	0	1030225920	59	4056
2026-01-23 12:22:19.85	328.03	17.87	-43.8	-44.9	26.6	6.03e-01	0	42	0	1031798784	59	4038
2026-01-23 12:22:20.85	328.12	17.74	-43.9	-45.0	26.5	6.03e-01	0	42	0	1033895936	59	4076
2026-01-23 12:22:21.86	328.22	17.62	-44.0	-45.1	26.5	6.03e-01	0	42	0	1035468800	59	4134
2026-01-23 12:22:22.87	328.32	17.49	-43.9	-45.1	26.5	6.02e-01	0	43	0	1037565952	59	4103
2026-01-23 12:22:23.88	328.41	17.37	-44.0	-45.1	26.4	6.03e-01	0	43	0	1039663104	59	4114
2026-01-23 12:22:24.89	328.51	17.25	-43.9	-45.0	26.5	6.02e-01	0	43	0	1041235968	59	4092
2026-01-23 12:22:25.89	328.60	17.13	-44.0	-45.1	26.4	6.02e-01	0	43	0	1043333120	59	4132
2026-01-23 12:22:26.90	328.69	17.01	-44.1	-45.2	26.2	6.04e-01	0	43	0	1045430272	59	4166
2026-01-23 12:22:27.91	328.78	16.89	-44.0	-45.2	26.3	6.02e-01	0	43	0	1047003136	59	4162
2026-01-23 12:22:28.92	328.87	16.77	-44.0	-45.1	26.2	6.02e-01	0	42	0	1049100288	59	4136
2026-01-23 12:22:29.93	328.96	16.65	-44.0	-45.1	26.2	6.02e-01	0	42	0	1050673152	59	4130
2026-01-23 12:22:30.93	329.05	16.53	-44.0	-45.2	26.1	6.02e-01	0	43	0	1052770304	59	4150
2026-01-23 12:22:31.94	329.14	16.41	-44.1	-45.2	26.1	6.02e-01	0	42	0	1054343168	59	4180
2026-01-23 12:22:32.95	329.23	16.29	-44.1	-45.2	26.1	6.01e-01	0	42	0	1056440320	59	4165
2026-01-23 12:22:33.95	329.32	16.18	-44.0	-45.2	26.1	6.04e-01	0	42	0	1058537472	59	4151
2026-01-23 12:22:34.96	329.40	16.06	-44.0	-45.1	26.1	6.03e-01	0	42	0	1060110336	59	4133
2026-01-23 12:22:35.97	329.49	15.94	-44.0	-45.2	26.0	6.02e-01	0	43	0	1062207488	59	4153
2026-01-23 12:22:36.98	329.58	15.83	-43.9	-45.0	26.2	6.03e-01	0	43	0	1064304640	59	4073
2026-01-23 12:22:37.99	329.66	15.71	-44.0	-45.1	26.2	6.02e-01	0	43	0	1065877504	59	4126
2026-01-23 12:22:39.00	329.75	15.60	-43.9	-45.0	26.3	6.04e-01	0	43	0	1067974656	59	4080
2026-01-23 12:22:40.00	329.83	15.49	-44.0	-45.1	26.2	6.04e-01	0	43	0	1069547520	59	4124
2026-01-23 12:22:41.01	329.91	15.37	-44.0	-45.2	26.3	6.02e-01	0	42	0	1071644672	59	4147
2026-01-23 12:22:42.02	329.99	15.26	-44.1	-45.2	26.2	6.03e-01	0	43	0	1073741824	59	4182
2026-01-23 12:22:43.03	330.08	15.15	-44.1	-45.2	26.2	6.03e-01	0	43	0	1075314688	59	4183
2026-01-23 12:22:44.03	330.16	15.04	-44.0	-45.2	26.3	6.02e-01	0	43	0	1077411840	59	4155
2026-01-23 12:22:45.04	330.24	14.93	-43.9	-45.1	26.4	6.05e-01	0	43	0	1078984704	59	4104
2026-01-23 12:22:46.05	330.32	14.82	-43.9	-45.1	26.3	6.01e-01	0	43	0	1081081856	59	4108
2026-01-23 12:22:47.06	330.40	14.71	-44.1	-45.2	26.3	6.02e-01	0	42	0	1082654720	59	4180
2026-01-23 12:22:48.07	330.48	14.60	-43.9	-45.0	26.4	6.04e-01	0	43	0	1084751872	59	4077
2026-01-23 12:22:49.08	330.55	14.49	-44.0	-45.1	26.3	6.01e-01	0	43	0	1086849024	59	4123
2026-01-23 12:22:50.08	330.63	14.38	-44.1	-45.2	26.2	6.03e-01	0	42	0	1088421888	59	4186
2026-01-23 12:22:51.09	330.71	14.27	-44.0	-45.1	26.3	6.03e-01	0	43	0	1090519040	59	4139
2026-01-23 12:22:52.10	330.79	14.16	-43.9	-45.1	26.4	6.02e-01	0	43	0	1092616192	59	4111
2026-01-23 12:22:53.11	330.86	14.06	-44.0	-45.1	26.3	6.03e-01	0	43	0	1094189056	59	4129
2026-01-23 12:22:54.11	330.94	13.95	-44.0	-45.1	26.3	6.03e-01	0	43	0	1096286208	59	4123
2026-01-23 12:22:55.12	331.01	13.85	-44.1	-45.2	26.2	6.01e-01	0	43	0	1097859072	59	4174
2026-01-23 12:22:56.13	331.09	13.74	-44.1	-45.3	26.2	6.03e-01	0	42	0	1099956224	59	4196
2026-01-23 12:22:57.14	331.16	13.63	-44.2	-45.3	26.0	6.01e-01	0	42	0	1102053376	59	4236
2026-01-23 12:22:58.15	331.23	13.53	-44.0	-45.2	26.2	6.03e-01	0	42	0	1103626240	59	4157
2026-01-23 12:22:59.15	331.30	13.43	-44.1	-45.3	26.1	6.04e-01	0	42	0	1105723392	59	4207
2026-01-23 12:23:00.16	331.38	13.32	-44.1	-45.2	26.2	6.03e-01	0	43	0	1107296256	59	4181
2026-01-23 12:23:01.17	331.45	13.22	-44.1	-45.3	26.0	6.00e-01	0	43	0	1109393408	59	4203
2026-01-23 12:23:02.18	331.52	13.12	-44.1	-45.3	26.1	6.02e-01	0	43	0	1111490560	59	4199
2026-01-23 12:23:03.19	331.59	13.01	-44.3	-45.5	25.9	6.01e-01	0	43	0	1113063424	59	4312
2026-01-23 12:23:04.19	331.66	12.91	-44.2	-45.4	25.9	6.02e-01	0	42	0	1115160576	59	4246
2026-01-23 12:23:05.20	331.73	12.81	-44.2	-45.3	26.0	6.02e-01	0	43	0	1116733440	59	4234
2026-01-23 12:23:06.21	331.80	12.71	-44.2	-45.4	26.0	5.99e-01	0	43	0	1118830592	59	4260
2026-01-23 12:23:07.22	331.87	12.61	-44.4	-45.6	25.8	6.02e-01	0	43	0	1120927744	59	4385
2026-01-23 12:23:08.23	331.94	12.51	-44.3	-45.4	25.9	6.00e-01	0	43	0	1122500608	59	4290
2026-01-23 12:23:09.23	332.00	12.41	-44.4	-45.5	25.9	6.04e-01	0	43	0	1124597760	59	4334
2026-01-23 12:23:10.24	332.07	12.31	-44.3	-45.5	25.9	6.03e-01	0	43	0	1126170624	59	4326
2026-01-23 12:23:11.25	332.14	12.21	-44.1	-45.3	26.1	6.03e-01	0	43	0	1128267776	59	4214
2026-01-23 12:23:12.26	332.21	12.11	-44.3	-45.5	25.9	6.02e-01	0	43	0	1130364928	59	4306
2026-01-23 12:23:13.27	332.27	12.01	-44.4	-45.6	25.8	6.03e-01	0	43	0	1131937792	59	4358
2026-01-23 12:23:14.28	332.34	11.92	-44.3	-45.5	25.9	6.03e-01	0	43	0	1134034944	59	4307
2026-01-23 12:23:15.28	332.40	11.82	-44.4	-45.6	25.8	6.03e-01	0	43	0	1136132096	59	4366
2026-01-23 12:23:16.29	332.47	11.72	-44.5	-45.7	25.8	6.03e-01	0	43	0	1137704960	59	4402
2026-01-23 12:23:17.30	332.53	11.63	-44.5	-45.7	25.7	6.01e-01	0	43	0	1139802112	59	4408
2026-01-23 12:23:18.31	332.60	11.53	-44.6	-45.8	25.5	6.02e-01	0	43	0	1141374976	59	4487
2026-01-23 12:23:19.32	332.66	11.43	-44.6	-45.8	25.5	6.02e-01	0	43	0	1143472128	59	4491
2026-01-23 12:23:20.32	332.72	11.34	-44.5	-45.7	25.6	6.01e-01	0	43	0	1145044992	59	4439
2026-01-23 12:23:21.33	332.78	11.24	-44.6	-45.8	25.5	6.02e-01	0	43	0	1147142144	59	4492
2026-01-23 12:23:22.34	332.85	11.15	-44.7	-45.9	25.5	6.04e-01	0	43	0	1149239296	59	4513
2026-01-23 12:23:23.35	332.91	11.05	-44.6	-45.8	25.6	6.04e-01	0	43	0	1150812160	60	4237
2026-01-23 12:23:24.35	332.97	10.96	-44.7	-46.0	25.5	6.02e-01	0	43	0	1152909312	60	4306
2026-01-23 12:23:25.36	333.03	10.87	-44.6	-45.8	25.6	6.03e-01	0	43	0	1154482176	60	4209
2026-01-23 12:23:26.37	333.09	10.77	-44.4	-45.6	25.9	6.01e-01	0	43	0	1156579328	60	4105
2026-01-23 12:23:27.38	333.15	10.68	-44.6	-45.8	25.7	6.02e-01	0	43	0	1158676480	60	4199
2026-01-23 12:23:28.39	333.21	10.59	-44.5	-45.7	25.8	6.02e-01	0	43	0	1160249344	60	4154
2026-01-23 12:23:29.39	333.27	10.50	-44.6	-45.8	25.7	6.04e-01	0	42	0	1162346496	60	4204
2026-01-23 12:23:30.40	333.33	10.41	-44.6	-45.8	25.7	6.01e-01	0	43	0	1164443648	60	4210
2026-01-23 12:23:31.41	333.39	10.31	-44.4	-45.6	25.8	6.01e-01	0	43	0	1166016512	60	4142
2026-01-23 12:23:32.42	333.45	10.22	-44.4	-45.6	25.8	6.02e-01	0	43	0	1168113664	60	4129
2026-01-23 12:23:33.42	333.51	10.13	-44.5	-45.7	25.7	6.02e-01	0	42	0	1169686528	60	4179
2026-01-23 12:23:34.43	333.56	10.04	-44.6	-45.8	25.6	6.03e-01	0	43	0	1171783680	60	4207
2026-01-23 12:23:35.44	333.62	9.95	-44.6	-45.8	25.5	6.04e-01	0	42	0	1173356544	60	4236
2026-01-23 12:23:36.44	333.68	9.86	-44.7	-45.9	25.5	6.03e-01	0	42	0	1175453696	60	4254
2026-01-23 12:23:37.45	333.73	9.78	-44.7	-46.0	25.4	6.02e-01	0	43	0	1177550848	60	4300
2026-01-23 12:23:38.46	333.79	9.69	-44.7	-45.9	25.5	6.05e-01	0	42	0	1179123712	60	4277
2026-01-23 12:23:39.47	333.85	9.60	-44.7	-45.9	25.5	6.01e-01	0	43	0	1181220864	60	4283
2026-01-23 12:23:40.48	333.90	9.51	-44.7	-46.0	25.4	6.03e-01	0	43	0	1183318016	60	4303
2026-01-23 12:23:41.49	333.96	9.42	-44.6	-45.8	25.6	6.02e-01	0	43	0	1184890880	60	4209
2026-01-23 12:23:42.49	334.01	9.33	-44.8	-46.0	25.3	6.02e-01	0	43	0	1186988032	60	4327
2026-01-23 12:23:43.50	334.07	9.25	-44.8	-46.0	25.4	6.03e-01	0	43	0	1188560896	60	4320
2026-01-23 12:23:44.51	334.12	9.16	-44.9	-46.2	25.2	6.02e-01	0	43	0	1190658048	60	4413
2026-01-23 12:23:45.52	334.18	9.07	-44.5	-45.7	25.6	6.01e-01	0	43	0	1192755200	60	4180
2026-01-23 12:23:46.53	334.23	8.99	-45.0	-46.2	25.1	6.02e-01	0	42	0	1194328064	60	4425
2026-01-23 12:23:47.54	334.28	8.90	-44.9	-46.2	25.1	6.03e-01	0	43	0	1196425216	60	4408
2026-01-23 12:23:48.55	334.34	8.81	-45.0	-46.2	25.1	6.03e-01	0	43	0	1197998080	60	4432
2026-01-23 12:23:49.55	334.39	8.73	-45.0	-46.2	25.1	6.04e-01	0	43	0	1200095232	60	4435
2026-01-23 12:23:50.56	334.44	8.65	-44.8	-46.1	25.2	6.04e-01	0	43	0	1201668096	60	4358
2026-01-23 12:23:51.57	334.49	8.56	-44.8	-46.1	25.2	6.05e-01	0	43	0	1203765248	60	4358
2026-01-23 12:23:52.58	334.55	8.48	-45.1	-46.3	25.0	6.04e-01	0	43	0	1205862400	60	4490
2026-01-23 12:23:53.59	334.60	8.39	-44.9	-46.2	25.1	6.03e-01	0	43	0	1207959552	60	4405
2026-01-23 12:23:54.59	334.65	8.31	-45.1	-46.4	25.0	6.03e-01	0	43	0	1209532416	60	4503
2026-01-23 12:23:55.60	334.70	8.22	-45.0	-46.3	25.0	6.03e-01	0	43	0	1211629568	60	4472
2026-01-23 12:23:56.61	334.75	8.14	-45.2	-46.5	24.8	6.03e-01	0	43	0	1213202432	61	4311
2026-01-23 12:23:57.62	334.80	8.06	-45.2	-46.5	24.8	6.04e-01	0	43	0	1215299584	61	4298
2026-01-23 12:23:58.63	334.85	7.98	-45.4	-46.7	24.5	6.04e-01	0	43	0	1216872448	61	4441
2026-01-23 12:23:59.63	334.90	7.89	-45.4	-46.7	24.6	6.03e-01	0	43	0	1218969600	61	4428
2026-01-23 12:24:00.64	334.95	7.81	-45.1	-46.4	24.9	6.03e-01	0	43	0	1221066752	61	4256
2026-01-23 12:24:01.65	335.00	7.73	-45.3	-46.6	24.7	6.02e-01	0	43	0	1222639616	61	4355
2026-01-23 12:24:02.66	335.05	7.65	-45.3	-46.6	24.6	6.02e-01	0	43	0	1224736768	61	4370
2026-01-23 12:24:03.67	335.10	7.57	-45.4	-46.7	24.5	6.05e-01	0	43	0	1226309632	61	4423
2026-01-23 12:24:04.68	335.15	7.49	-45.3	-46.7	24.6	6.03e-01	0	43	0	1228406784	61	4406
2026-01-23 12:24:05.69	335.20	7.40	-45.4	-46.7	24.5	6.02e-01	0	43	0	1230503936	61	4438
2026-01-23 12:24:06.70	335.24	7.32	-45.4	-46.8	24.4	6.03e-01	0	43	0	1232076800	62	4205
2026-01-23 12:24:07.70	335.29	7.24	-45.5	-46.9	24.4	6.02e-01	0	43	0	1234173952	62	4256
2026-01-23 12:24:08.71	335.34	7.16	-45.4	-46.7	24.5	6.02e-01	0	43	0	1236271104	62	4183
2026-01-23 12:24:09.72	335.39	7.08	-45.4	-46.8	24.5	6.00e-01	0	43	0	1237843968	62	4209
