passes_logs/2026/01/23/R3.2S_Murmansk/R3.2S_Murmansk__20260123_074655_KANOPUS-V_5_rec.log

#Pass ID: 20260123_074655_KANOPUS-V 5
#Satellite: KANOPUS-V 5
#Configuration: KANOPUS-V_8320
#almurnet v.1.7.20251203
#Start time: 2026-01-23 07:46:55

#Version: 2.2.20231116
#Station: R3.2S_Murmansk
#Location: 33.079688 lon 68.888172 lat
#TLE: 1 43876U 18111A   26022.52701148  .00004818  00000+0  20478-3 0  9994
#TLE: 2 43876  97.3679 290.9053 0001819  88.4130 271.7316 15.23508812392615

#Time	Az	El	Level	Level2	SNR	BER	BlckErr	Temp	State	Recorded	gain1	gain2
2026-01-23 07:46:55.82	159.69	2.03	-55.3	-64.2	3.8	7.46e-01	0	41	0	0	81	10452
2026-01-23 07:46:56.82	159.70	2.10	-55.5	-64.3	3.8	7.45e-01	0	41	104	0	81	10655
2026-01-23 07:46:57.83	159.71	2.17	-55.5	-64.4	3.8	7.47e-01	0	41	104	0	81	10656
2026-01-23 07:46:58.84	159.72	2.25	-55.5	-64.3	3.8	7.45e-01	0	41	104	0	81	10619
2026-01-23 07:46:59.85	159.73	2.32	-55.5	-64.3	3.8	7.44e-01	0	41	104	0	81	10626
2026-01-23 07:47:00.86	159.73	2.39	-55.5	-64.3	3.8	7.46e-01	0	41	104	0	81	10623
2026-01-23 07:47:01.87	159.74	2.46	-55.4	-64.3	3.8	7.47e-01	0	41	104	0	81	10566
2026-01-23 07:47:02.88	159.75	2.53	-55.4	-64.2	3.8	7.46e-01	0	41	104	0	81	10525
2026-01-23 07:47:03.89	159.76	2.61	-55.4	-64.2	3.8	7.46e-01	0	41	104	0	81	10458
2026-01-23 07:47:04.89	159.77	2.68	-55.4	-64.2	3.8	7.46e-01	0	41	104	0	81	10469
2026-01-23 07:47:05.90	159.78	2.75	-55.3	-64.1	3.8	7.45e-01	0	41	104	0	81	10353
2026-01-23 07:47:06.91	159.79	2.83	-55.2	-64.1	3.8	7.46e-01	0	42	104	0	81	10354
2026-01-23 07:47:07.92	159.80	2.90	-55.2	-64.0	3.8	7.46e-01	0	41	104	0	81	10199
2026-01-23 07:47:08.92	159.81	2.97	-55.1	-64.0	3.8	7.45e-01	0	42	104	0	81	10199
2026-01-23 07:47:09.93	159.81	3.05	-55.1	-63.9	3.8	7.45e-01	0	42	104	0	81	10100
2026-01-23 07:47:10.94	159.82	3.12	-55.0	-63.9	3.8	7.43e-01	0	41	104	0	81	10064
2026-01-23 07:47:11.95	159.83	3.20	-54.9	-63.7	3.8	7.45e-01	0	41	104	0	81	9930
2026-01-23 07:47:12.95	159.84	3.27	-54.8	-63.6	3.8	7.46e-01	0	42	104	0	81	9773
2026-01-23 07:47:13.96	159.85	3.35	-54.6	-63.5	3.8	7.46e-01	0	42	104	0	81	9640
2026-01-23 07:47:14.97	159.86	3.42	-54.5	-63.3	3.8	7.46e-01	0	42	104	0	81	9417
2026-01-23 07:47:15.98	159.87	3.50	-54.2	-63.1	3.8	7.45e-01	0	42	104	0	80	9733
2026-01-23 07:47:16.99	159.88	3.58	-54.0	-62.8	3.8	7.45e-01	0	41	104	0	80	9468
2026-01-23 07:47:18.00	159.89	3.65	-53.8	-62.5	3.8	7.43e-01	0	42	104	0	79	9713
2026-01-23 07:47:19.01	159.90	3.73	-53.7	-62.3	3.8	7.45e-01	0	42	104	0	79	9459
2026-01-23 07:47:20.02	159.91	3.81	-53.6	-62.2	3.8	7.45e-01	0	42	104	0	79	9303
2026-01-23 07:47:21.02	159.92	3.88	-53.7	-62.3	3.8	7.45e-01	0	42	104	0	79	9413
2026-01-23 07:47:22.03	159.93	3.96	-53.7	-62.3	3.8	7.44e-01	0	42	104	0	79	9433
2026-01-23 07:47:23.04	159.94	4.04	-53.7	-62.3	3.8	7.43e-01	0	42	104	0	79	9473
2026-01-23 07:47:24.05	159.95	4.12	-53.6	-62.1	3.8	7.45e-01	0	42	104	0	79	9240
2026-01-23 07:47:25.06	159.95	4.20	-53.4	-61.2	3.8	7.45e-01	0	42	104	0	78	8793
2026-01-23 07:47:26.06	159.96	4.28	-53.0	-60.0	3.8	7.42e-01	0	42	104	0	78	7710
2026-01-23 07:47:27.07	159.97	4.35	-52.2	-57.6	4.6	7.20e-01	0	42	0	8388608	76	6548
2026-01-23 07:47:28.08	159.98	4.43	-51.2	-55.6	5.9	6.80e-01	0	42	0	25165824	74	5799
2026-01-23 07:47:29.09	159.99	4.51	-50.1	-53.7	7.4	6.54e-01	0	42	0	39845888	72	5237
2026-01-23 07:47:30.10	160.00	4.59	-49.3	-52.4	8.7	6.28e-01	0	42	0	54525952	70	5085
2026-01-23 07:47:31.10	160.01	4.67	-48.3	-51.1	10.0	6.18e-01	0	42	0	69206016	68	4910
2026-01-23 07:47:32.11	160.02	4.76	-47.9	-50.6	10.6	6.11e-01	0	42	0	85983232	67	4908
2026-01-23 07:47:33.12	160.03	4.84	-47.0	-49.6	11.7	6.07e-01	0	42	0	100663296	65	4875
2026-01-23 07:47:34.13	160.04	4.92	-46.6	-49.1	12.1	6.05e-01	0	42	0	117440512	65	4600
2026-01-23 07:47:35.14	160.05	5.00	-45.9	-48.3	13.0	6.01e-01	0	42	0	134217728	63	4711
2026-01-23 07:47:36.14	160.06	5.08	-46.3	-48.7	12.5	6.01e-01	0	42	0	148897792	63	4955
2026-01-23 07:47:37.15	160.07	5.16	-54.0	-62.8	3.8	7.47e-01	0	42	104	155189248	78	10578
2026-01-23 07:47:38.16	160.08	5.25	-50.0	-53.5	7.5	6.42e-01	0	42	104	155189248	72	5132
2026-01-23 07:47:39.17	160.09	5.33	-50.8	-54.9	6.4	6.64e-01	0	42	0	167772160	72	6031
2026-01-23 07:47:40.18	160.11	5.41	-47.2	-49.7	11.5	6.05e-01	0	42	0	184549376	66	4692
2026-01-23 07:47:41.18	160.12	5.50	-48.8	-51.9	9.3	6.20e-01	0	42	0	199229440	68	5366
2026-01-23 07:47:42.19	160.13	5.58	-45.7	-48.0	13.2	6.00e-01	0	42	0	213909504	63	4596
2026-01-23 07:47:43.20	160.14	5.67	-45.9	-48.3	12.9	6.04e-01	0	42	0	230686720	63	4715
2026-01-23 07:47:44.21	160.15	5.75	-45.8	-48.1	13.2	5.90e-01	0	42	0	245366784	63	4610
2026-01-23 07:47:45.22	160.16	5.84	-45.9	-48.2	13.1	6.02e-01	0	42	0	260046848	63	4667
2026-01-23 07:47:46.22	160.17	5.92	-46.1	-48.4	12.8	6.07e-01	0	42	0	276824064	63	4783
2026-01-23 07:47:47.23	160.18	6.01	-45.9	-48.2	13.0	6.03e-01	0	42	0	293601280	63	4699
2026-01-23 07:47:48.24	160.19	6.09	-46.0	-48.3	12.9	6.01e-01	0	43	0	308281344	63	4752
2026-01-23 07:47:49.25	160.20	6.18	-45.9	-48.2	13.1	6.01e-01	0	42	0	322961408	63	4670
2026-01-23 07:47:50.25	160.21	6.27	-46.1	-48.5	12.8	6.04e-01	0	42	0	339738624	63	4825
2026-01-23 07:47:51.26	160.22	6.36	-46.3	-48.6	12.7	6.04e-01	0	42	0	354418688	63	4911
2026-01-23 07:47:52.27	160.23	6.44	-46.2	-48.5	12.8	6.02e-01	0	43	0	369098752	63	4843
2026-01-23 07:47:53.28	160.24	6.53	-46.4	-48.8	12.6	6.04e-01	0	43	0	385875968	63	4985
2026-01-23 07:47:54.29	160.26	6.62	-46.2	-48.6	12.7	6.04e-01	0	42	0	400556032	63	4891
2026-01-23 07:47:55.30	160.27	6.71	-46.3	-48.6	12.7	6.04e-01	0	43	0	415236096	63	4914
2026-01-23 07:47:56.31	160.28	6.80	-45.7	-48.0	13.3	6.03e-01	0	42	0	432013312	63	4580
2026-01-23 07:47:57.32	160.29	6.89	-45.4	-47.7	13.6	6.04e-01	0	43	0	446693376	62	4668
2026-01-23 07:47:58.32	160.30	6.98	-45.7	-48.0	13.3	6.04e-01	0	42	0	461373440	62	4819
2026-01-23 07:47:59.33	160.31	7.07	-45.2	-47.4	13.9	6.02e-01	0	43	0	478150656	62	4513
2026-01-23 07:48:00.34	160.32	7.16	-45.4	-47.6	13.7	6.01e-01	0	43	0	494927872	62	4634
2026-01-23 07:48:01.35	160.33	7.26	-45.2	-47.4	13.8	6.00e-01	0	43	0	509607936	62	4537
2026-01-23 07:48:02.35	160.35	7.35	-45.2	-47.4	13.9	6.00e-01	0	43	0	524288000	62	4531
2026-01-23 07:48:03.36	160.36	7.44	-45.1	-47.3	14.0	5.99e-01	0	43	0	541065216	62	4477
2026-01-23 07:48:04.37	160.37	7.53	-45.1	-47.3	14.0	6.03e-01	0	43	0	555745280	62	4461
2026-01-23 07:48:05.38	160.38	7.63	-44.8	-47.0	14.2	6.03e-01	0	43	0	570425344	61	4563
2026-01-23 07:48:06.39	160.39	7.72	-45.0	-47.2	14.1	6.02e-01	0	43	0	587202560	61	4679
2026-01-23 07:48:07.40	160.41	7.82	-44.9	-47.0	14.2	6.02e-01	0	43	0	601882624	61	4589
2026-01-23 07:48:08.41	160.42	7.91	-44.8	-47.0	14.2	6.05e-01	0	43	0	616562688	61	4552
2026-01-23 07:48:09.42	160.43	8.01	-44.9	-47.1	14.1	6.01e-01	0	43	0	633339904	61	4637
2026-01-23 07:48:10.42	160.44	8.10	-45.1	-47.2	14.0	6.02e-01	0	43	0	648019968	61	4702
2026-01-23 07:48:11.43	160.45	8.20	-44.6	-46.8	14.5	6.03e-01	0	43	0	664797184	61	4446
2026-01-23 07:48:12.44	160.47	8.30	-44.6	-46.7	14.5	6.01e-01	0	43	0	679477248	61	4433
2026-01-23 07:48:13.45	160.48	8.39	-44.5	-46.7	14.6	6.02e-01	0	43	0	696254464	61	4398
2026-01-23 07:48:14.45	160.49	8.49	-44.6	-46.8	14.5	6.01e-01	0	43	0	710934528	60	4716
2026-01-23 07:48:15.46	160.50	8.59	-44.5	-46.6	14.6	6.00e-01	0	43	0	725614592	60	4619
2026-01-23 07:48:16.47	160.52	8.69	-44.4	-46.6	14.6	6.00e-01	0	43	0	742391808	60	4601
2026-01-23 07:48:17.48	160.53	8.79	-44.4	-46.5	14.7	6.02e-01	0	43	0	757071872	60	4577
2026-01-23 07:48:18.48	160.54	8.89	-44.2	-46.4	14.8	6.00e-01	0	43	0	771751936	60	4500
2026-01-23 07:48:19.49	160.55	8.99	-44.3	-46.5	14.7	6.02e-01	0	43	0	788529152	60	4558
2026-01-23 07:48:20.50	160.57	9.09	-44.2	-46.4	14.8	6.02e-01	0	43	0	803209216	60	4500
2026-01-23 07:48:21.51	160.58	9.19	-44.2	-46.4	14.9	6.00e-01	0	43	0	817889280	60	4496
2026-01-23 07:48:22.51	160.59	9.30	-44.2	-46.3	14.9	6.01e-01	0	43	0	834666496	60	4478
2026-01-23 07:48:23.52	160.61	9.40	-44.2	-46.3	14.9	6.05e-01	0	43	0	849346560	60	4468
2026-01-23 07:48:24.53	160.62	9.50	-44.1	-46.2	15.0	5.99e-01	0	43	0	866123776	60	4429
2026-01-23 07:48:25.54	160.63	9.61	-44.2	-46.3	15.0	6.01e-01	0	43	0	880803840	60	4460
2026-01-23 07:48:26.54	160.65	9.71	-44.0	-46.1	15.1	6.02e-01	0	43	0	897581056	59	4625
2026-01-23 07:48:27.55	160.66	9.82	-44.3	-46.5	14.7	6.01e-01	0	43	0	912261120	59	4851
2026-01-23 07:48:28.56	160.67	9.92	-44.1	-46.2	15.0	6.00e-01	0	43	0	926941184	59	4695
2026-01-23 07:48:29.57	160.69	10.03	-44.0	-46.2	15.1	6.01e-01	0	43	0	943718400	59	4653
2026-01-23 07:48:30.58	160.70	10.14	-43.9	-46.1	15.1	6.02e-01	0	43	0	958398464	59	4608
2026-01-23 07:48:31.58	160.71	10.24	-44.0	-46.1	15.1	6.00e-01	0	43	0	973078528	59	4619
2026-01-23 07:48:32.59	160.73	10.35	-44.0	-46.1	15.1	6.01e-01	0	43	0	989855744	59	4630
2026-01-23 07:48:33.60	160.74	10.46	-43.9	-46.1	15.2	6.00e-01	0	43	0	1004535808	59	4606
2026-01-23 07:48:34.61	160.76	10.57	-43.9	-46.0	15.2	6.00e-01	0	43	0	1019215872	59	4592
2026-01-23 07:48:35.62	160.77	10.68	-43.8	-45.9	15.3	6.00e-01	0	43	0	1033895936	59	4540
2026-01-23 07:48:36.63	160.78	10.79	-43.7	-45.8	15.4	6.02e-01	0	43	0	1052770304	59	4478
2026-01-23 07:48:37.64	160.80	10.90	-43.8	-45.9	15.4	6.02e-01	0	43	0	1067450368	59	4500
2026-01-23 07:48:38.64	160.81	11.02	-43.6	-45.7	15.5	6.06e-01	0	43	0	1082130432	59	4420
2026-01-23 07:48:39.65	160.83	11.13	-43.6	-45.7	15.6	5.99e-01	0	43	0	1098907648	59	4401
2026-01-23 07:48:40.66	160.84	11.24	-43.6	-45.6	15.6	6.02e-01	0	43	0	1113587712	59	4382
2026-01-23 07:48:41.67	160.86	11.36	-43.6	-45.7	15.6	6.01e-01	0	43	0	1128267776	59	4425
2026-01-23 07:48:42.67	160.87	11.47	-43.5	-45.5	15.7	6.01e-01	0	43	0	1142947840	59	4327
2026-01-23 07:48:43.68	160.89	11.59	-43.5	-45.6	15.7	6.00e-01	0	43	0	1159725056	59	4349
2026-01-23 07:48:44.69	160.90	11.71	-43.6	-45.6	15.7	5.99e-01	0	43	0	1174405120	59	4382
2026-01-23 07:48:45.70	160.92	11.82	-43.6	-45.7	15.6	6.01e-01	0	43	0	1189085184	59	4392
2026-01-23 07:48:46.71	160.93	11.94	-43.6	-45.7	15.6	5.99e-01	0	43	0	1205862400	58	4666
2026-01-23 07:48:47.72	160.95	12.06	-43.6	-45.7	15.6	5.98e-01	0	43	0	1220542464	58	4654
2026-01-23 07:48:48.72	160.96	12.18	-43.5	-45.5	15.8	6.00e-01	0	43	0	1237319680	58	4586
2026-01-23 07:48:49.73	160.98	12.30	-43.3	-45.3	15.9	5.99e-01	0	43	0	1251999744	58	4477
2026-01-23 07:48:50.74	161.00	12.42	-43.1	-45.1	16.1	6.00e-01	0	43	0	1268776960	58	4375
2026-01-23 07:48:51.75	161.01	12.54	-43.2	-45.2	16.0	6.01e-01	0	43	0	1283457024	58	4416
2026-01-23 07:48:52.76	161.03	12.67	-43.2	-45.2	16.1	6.00e-01	0	43	0	1298137088	58	4403
2026-01-23 07:48:53.77	161.04	12.79	-43.2	-45.2	16.0	6.06e-01	0	43	0	1314914304	58	4408
2026-01-23 07:48:54.78	161.06	12.92	-43.1	-45.1	16.1	5.99e-01	0	43	0	1329594368	58	4355
2026-01-23 07:48:55.78	161.08	13.04	-43.1	-45.0	16.1	6.00e-01	0	43	0	1344274432	58	4337
2026-01-23 07:48:56.79	161.09	13.17	-42.9	-44.9	16.3	5.99e-01	0	43	0	1361051648	57	4500
2026-01-23 07:48:57.80	161.11	13.29	-43.0	-44.9	16.3	6.00e-01	0	43	0	1375731712	57	4539
2026-01-23 07:48:58.81	161.13	13.42	-42.8	-44.8	16.4	5.99e-01	0	43	0	1390411776	57	4459
2026-01-23 07:48:59.82	161.14	13.55	-42.9	-44.8	16.3	5.98e-01	0	43	0	1407188992	57	4493
2026-01-23 07:49:00.82	161.16	13.68	-42.8	-44.7	16.5	5.99e-01	0	43	0	1421869056	57	4419
2026-01-23 07:49:01.83	161.18	13.81	-42.7	-44.6	16.6	6.00e-01	0	43	0	1438646272	57	4376
2026-01-23 07:49:02.84	161.20	13.94	-42.6	-44.5	16.6	5.98e-01	0	43	0	1453326336	57	4334
2026-01-23 07:49:03.85	161.21	14.08	-42.5	-44.4	16.7	5.99e-01	0	43	0	1470103552	57	4267
2026-01-23 07:49:04.86	161.23	14.21	-42.4	-44.3	16.8	5.99e-01	0	43	0	1484783616	56	4493
2026-01-23 07:49:05.86	161.25	14.34	-42.4	-44.4	16.7	5.99e-01	0	43	0	1499463680	56	4513
2026-01-23 07:49:06.87	161.27	14.48	-42.4	-44.3	16.8	5.99e-01	0	43	0	1516240896	56	4473
2026-01-23 07:49:07.88	161.29	14.61	-42.3	-44.2	17.0	5.99e-01	0	43	0	1530920960	56	4420
2026-01-23 07:49:08.88	161.30	14.75	-42.3	-44.2	16.9	6.06e-01	0	43	0	1545601024	56	4413
2026-01-23 07:49:09.89	161.32	14.89	-42.3	-44.2	16.9	6.01e-01	0	43	0	1562378240	56	4403
2026-01-23 07:49:10.90	161.34	15.03	-42.1	-44.1	17.0	6.03e-01	0	43	0	1577058304	56	4346
2026-01-23 07:49:11.91	161.36	15.17	-42.2	-44.1	17.0	5.99e-01	0	43	0	1591738368	56	4352
2026-01-23 07:49:12.92	161.38	15.31	-42.1	-44.1	17.2	6.00e-01	0	43	0	1608515584	55	4612
2026-01-23 07:49:13.93	161.40	15.46	-42.1	-44.1	17.2	5.99e-01	0	43	0	1625292800	55	4615
2026-01-23 07:49:14.93	161.42	15.60	-41.9	-43.8	17.3	6.00e-01	0	43	0	1639972864	55	4491
2026-01-23 07:49:15.94	161.44	15.74	-41.9	-43.8	17.4	6.01e-01	0	43	0	1654652928	55	4473
2026-01-23 07:49:16.95	161.46	15.89	-41.9	-43.8	17.4	6.02e-01	0	43	0	1671430144	55	4460
2026-01-23 07:49:17.96	161.48	16.04	-41.9	-43.7	17.4	6.02e-01	0	43	0	1686110208	55	4441
2026-01-23 07:49:18.97	161.50	16.19	-41.7	-43.6	17.6	6.01e-01	0	43	0	1700790272	55	4359
2026-01-23 07:49:19.98	161.52	16.34	-41.7	-43.6	17.6	6.00e-01	0	43	0	1717567488	55	4385
2026-01-23 07:49:20.99	161.54	16.49	-41.8	-43.6	17.5	6.01e-01	0	43	0	1732247552	55	4388
2026-01-23 07:49:22.00	161.56	16.64	-41.5	-43.4	17.8	6.00e-01	0	43	0	1746927616	55	4280
2026-01-23 07:49:23.00	161.58	16.79	-41.6	-43.5	17.7	6.00e-01	0	43	0	1763704832	55	4293
2026-01-23 07:49:24.01	161.60	16.95	-41.6	-43.4	17.7	6.05e-01	0	43	0	1778384896	55	4276
2026-01-23 07:49:25.02	161.62	17.10	-41.4	-43.3	17.8	6.00e-01	0	43	0	1793064960	54	4453
2026-01-23 07:49:26.03	161.64	17.26	-41.4	-43.3	17.9	6.04e-01	0	43	0	1809842176	54	4445
2026-01-23 07:49:27.03	161.66	17.42	-41.5	-43.3	17.8	6.02e-01	0	43	0	1826619392	54	4460
2026-01-23 07:49:28.04	161.69	17.58	-41.4	-43.2	17.9	6.02e-01	0	43	0	1841299456	54	4393
2026-01-23 07:49:29.05	161.71	17.74	-41.3	-43.1	17.9	6.03e-01	0	43	0	1855979520	54	4378
2026-01-23 07:49:30.06	161.73	17.90	-41.4	-43.2	18.0	6.03e-01	0	43	0	1872756736	54	4395
2026-01-23 07:49:31.07	161.75	18.06	-41.2	-43.0	18.1	6.03e-01	0	43	0	1887436800	54	4310
2026-01-23 07:49:32.07	161.78	18.23	-41.2	-43.0	18.1	6.01e-01	0	43	0	1902116864	54	4302
2026-01-23 07:49:33.08	161.80	18.40	-41.2	-43.0	18.1	6.02e-01	0	43	0	1918894080	54	4308
2026-01-23 07:49:34.09	161.82	18.56	-41.1	-42.8	18.1	6.01e-01	0	43	0	1933574144	54	4224
2026-01-23 07:49:35.10	161.85	18.73	-41.2	-42.9	18.1	6.00e-01	0	43	0	1948254208	54	4262
2026-01-23 07:49:36.11	161.87	18.90	-41.2	-42.9	18.1	6.01e-01	0	43	0	1965031424	54	4273
2026-01-23 07:49:37.11	161.89	19.08	-41.1	-42.8	18.2	6.00e-01	0	43	0	1979711488	54	4236
2026-01-23 07:49:38.12	161.92	19.25	-41.0	-42.8	18.2	6.00e-01	0	43	0	1996488704	54	4195
2026-01-23 07:49:39.13	161.94	19.43	-41.0	-42.7	18.3	6.00e-01	0	43	0	2011168768	53	4429
2026-01-23 07:49:40.14	161.97	19.60	-40.9	-42.7	18.3	6.00e-01	0	43	0	2027945984	53	4400
2026-01-23 07:49:41.15	161.99	19.78	-40.9	-42.6	18.3	6.04e-01	0	43	0	2042626048	53	4379
2026-01-23 07:49:42.16	162.02	19.96	-40.8	-42.6	18.4	6.00e-01	0	43	0	2057306112	53	4390
2026-01-23 07:49:43.16	162.05	20.14	-40.8	-42.6	18.4	6.02e-01	0	43	0	2074083328	53	4361
2026-01-23 07:49:44.17	162.07	20.33	-40.7	-42.6	18.4	6.00e-01	0	43	0	2088763392	53	4341
2026-01-23 07:49:45.18	162.10	20.51	-40.8	-42.7	18.3	6.00e-01	0	43	0	2103443456	53	4399
2026-01-23 07:49:46.19	162.13	20.70	-40.7	-42.6	18.4	6.00e-01	0	43	0	2120220672	53	4369
2026-01-23 07:49:47.20	162.15	20.89	-40.8	-42.6	18.3	6.01e-01	0	43	0	2134900736	53	4386
2026-01-23 07:49:48.20	162.18	21.08	-40.7	-42.6	18.4	6.02e-01	0	43	0	2149580800	53	4355
2026-01-23 07:49:49.21	162.21	21.27	-40.8	-42.7	18.3	6.02e-01	0	43	0	2166358016	53	4399
2026-01-23 07:49:50.22	162.24	21.47	-40.6	-42.5	18.4	6.02e-01	0	43	0	2181038080	53	4319
2026-01-23 07:49:51.23	162.26	21.67	-40.4	-42.3	18.6	6.01e-01	0	43	0	2197815296	52	4453
2026-01-23 07:49:52.24	162.29	21.86	-40.4	-42.3	18.5	6.01e-01	0	43	0	2212495360	52	4462
2026-01-23 07:49:53.24	162.32	22.06	-40.4	-42.2	18.6	6.01e-01	0	44	0	2229272576	52	4419
2026-01-23 07:49:54.25	162.35	22.27	-40.3	-42.2	18.6	6.02e-01	0	43	0	2243952640	52	4394
2026-01-23 07:49:55.26	162.38	22.47	-40.2	-42.0	18.7	6.01e-01	0	43	0	2258632704	52	4326
2026-01-23 07:49:56.26	162.41	22.67	-40.4	-42.2	18.7	6.01e-01	0	43	0	2275409920	52	4398
2026-01-23 07:49:57.27	162.44	22.88	-40.3	-42.1	18.7	6.03e-01	0	44	0	2290089984	52	4381
2026-01-23 07:49:58.28	162.47	23.09	-40.3	-42.1	18.7	6.02e-01	0	43	0	2304770048	52	4367
2026-01-23 07:49:59.29	162.51	23.31	-40.4	-42.2	18.7	6.03e-01	0	43	0	2321547264	52	4397
2026-01-23 07:50:00.30	162.54	23.52	-40.3	-42.0	18.7	5.98e-01	0	43	0	2336227328	52	4335
2026-01-23 07:50:01.31	162.57	23.74	-40.4	-42.1	18.7	5.98e-01	0	43	0	2350907392	52	4389
2026-01-23 07:50:02.32	162.60	23.96	-40.5	-42.3	18.6	6.02e-01	0	43	0	2367684608	52	4474
2026-01-23 07:50:03.32	162.64	24.18	-40.6	-42.4	18.5	6.01e-01	0	44	0	2382364672	52	4508
2026-01-23 07:50:04.33	162.67	24.40	-40.7	-42.5	18.5	6.01e-01	0	43	0	2399141888	52	4560
2026-01-23 07:50:05.34	162.70	24.63	-40.7	-42.5	18.5	6.02e-01	0	43	0	2413821952	52	4576
2026-01-23 07:50:06.35	162.74	24.86	-40.8	-42.6	18.4	5.99e-01	0	43	0	2430599168	52	4604
2026-01-23 07:50:07.35	162.77	25.09	-40.8	-42.5	18.5	6.01e-01	0	44	0	2445279232	52	4582
2026-01-23 07:50:08.37	162.81	25.33	-40.7	-42.5	18.5	6.02e-01	0	43	0	2459959296	52	4552
2026-01-23 07:50:09.37	162.85	25.56	-40.8	-42.5	18.4	6.01e-01	0	43	0	2476736512	52	4580
2026-01-23 07:50:10.38	162.88	25.80	-40.7	-42.5	18.5	5.98e-01	0	43	0	2491416576	52	4547
2026-01-23 07:50:11.39	162.92	26.04	-40.7	-42.5	18.5	5.99e-01	0	43	0	2506096640	52	4547
2026-01-23 07:50:12.39	162.96	26.28	-40.5	-42.2	18.7	6.02e-01	0	44	0	2520776704	52	4430
2026-01-23 07:50:13.40	163.00	26.53	-40.4	-42.1	18.7	6.00e-01	0	44	0	2537553920	52	4364
2026-01-23 07:50:14.41	163.04	26.78	-40.3	-42.0	18.8	5.96e-01	0	43	0	2552233984	52	4324
2026-01-23 07:50:15.42	163.08	27.03	-40.3	-42.1	18.7	6.01e-01	0	44	0	2566914048	52	4343
2026-01-23 07:50:16.43	163.12	27.29	-40.4	-42.1	18.7	5.99e-01	0	44	0	2585788416	52	4354
2026-01-23 07:50:17.44	163.16	27.55	-40.4	-42.1	18.7	5.91e-01	0	44	0	2600468480	52	4378
2026-01-23 07:50:18.44	163.20	27.81	-40.4	-42.2	18.7	5.91e-01	0	43	0	2615148544	52	4398
2026-01-23 07:50:19.45	163.24	28.07	-40.6	-42.3	18.6	5.89e-01	0	43	0	2629828608	52	4452
2026-01-23 07:50:20.46	163.29	28.34	-40.5	-42.3	18.7	5.83e-01	0	43	0	2646605824	52	4443
2026-01-23 07:50:21.47	163.33	28.61	-40.5	-42.2	18.7	5.92e-01	0	43	0	2661285888	52	4406
2026-01-23 07:50:22.48	163.37	28.88	-40.5	-42.2	18.7	5.99e-01	0	44	0	2675965952	52	4416
2026-01-23 07:50:23.49	163.42	29.16	-40.5	-42.2	18.6	6.01e-01	0	43	0	2692743168	52	4432
2026-01-23 07:50:24.49	163.47	29.44	-40.5	-42.3	18.6	5.96e-01	0	44	0	2707423232	52	4476
2026-01-23 07:50:25.50	163.51	29.72	-40.5	-42.3	18.6	5.92e-01	0	43	0	2722103296	52	4482
2026-01-23 07:50:26.51	163.56	30.01	-40.5	-42.4	18.6	5.92e-01	0	44	0	2738880512	52	4505
2026-01-23 07:50:27.52	163.61	30.30	-40.5	-42.4	18.5	6.01e-01	0	44	0	2753560576	52	4543
2026-01-23 07:50:28.53	163.66	30.59	-40.6	-42.6	18.5	5.70e-01	0	43	0	2770337792	52	4615
2026-01-23 07:50:29.54	163.71	30.89	-40.7	-42.7	18.3	5.91e-01	0	43	0	2785017856	52	4666
2026-01-23 07:50:30.55	163.76	31.19	-40.7	-42.7	18.3	5.98e-01	0	43	0	2801795072	52	4687
2026-01-23 07:50:31.56	163.81	31.49	-40.7	-42.8	18.3	5.99e-01	0	44	0	2816475136	52	4720
2026-01-23 07:50:32.56	163.87	31.80	-40.7	-42.8	18.3	5.85e-01	0	44	0	2831155200	52	4746
2026-01-23 07:50:33.57	163.92	32.11	-40.7	-42.8	18.3	5.91e-01	0	43	0	2847932416	52	4756
2026-01-23 07:50:34.58	163.98	32.43	-40.7	-42.8	18.4	5.81e-01	0	43	0	2862612480	52	4720
2026-01-23 07:50:35.59	164.03	32.75	-40.6	-42.6	18.4	5.90e-01	0	43	0	2877292544	52	4644
2026-01-23 07:50:36.60	164.09	33.07	-40.6	-42.7	18.4	5.99e-01	0	43	0	2894069760	52	4661
2026-01-23 07:50:37.60	164.15	33.40	-40.5	-42.5	18.6	5.98e-01	0	44	0	2908749824	52	4554
2026-01-23 07:50:38.61	164.21	33.73	-40.3	-42.3	18.8	5.75e-01	0	43	0	2923429888	52	4460
2026-01-23 07:50:39.62	164.27	34.07	-40.2	-42.2	18.7	5.74e-01	0	43	0	2940207104	52	4431
2026-01-23 07:50:40.63	164.33	34.41	-40.0	-42.1	18.9	5.76e-01	0	43	0	2956984320	52	4360
2026-01-23 07:50:41.63	164.40	34.75	-40.0	-42.1	18.9	5.75e-01	0	43	0	2971664384	51	4648
2026-01-23 07:50:42.64	164.46	35.10	-39.9	-42.1	18.9	5.74e-01	0	43	0	2986344448	51	4635
2026-01-23 07:50:43.65	164.53	35.45	-39.8	-41.9	19.0	5.74e-01	0	43	0	3003121664	51	4522
2026-01-23 07:50:44.66	164.60	35.81	-39.7	-41.8	19.0	5.75e-01	0	43	0	3017801728	51	4484
2026-01-23 07:50:45.67	164.67	36.18	-39.4	-41.5	19.2	5.77e-01	0	44	0	3032481792	50	4595
2026-01-23 07:50:46.67	164.74	36.54	-39.1	-41.2	19.4	5.76e-01	0	43	0	3049259008	50	4440
2026-01-23 07:50:47.68	164.81	36.91	-39.1	-41.3	19.4	5.76e-01	0	44	0	3063939072	50	4455
2026-01-23 07:50:48.69	164.89	37.29	-40.7	-41.3	19.3	5.77e-01	0	43	0	3078619136	52	4001
2026-01-23 07:50:49.69	164.96	37.67	-40.8	-41.5	19.3	5.76e-01	0	43	0	3095396352	52	4081
2026-01-23 07:50:50.70	165.04	38.06	-54.9	-63.8	3.8	7.46e-01	0	43	104	3097493504	80	10582
2026-01-23 07:50:51.71	165.12	38.45	-54.9	-63.8	3.8	7.45e-01	0	44	104	3097493504	80	10601
2026-01-23 07:50:52.72	165.20	38.85	-54.9	-63.7	3.8	7.47e-01	0	44	104	3097493504	80	10520
2026-01-23 07:50:53.73	165.29	39.25	-55.0	-63.8	3.8	7.45e-01	0	43	104	3097493504	80	10580
2026-01-23 07:50:54.74	165.37	39.66	-54.9	-63.8	3.8	7.45e-01	0	43	104	3097493504	80	10552
2026-01-23 07:50:55.74	165.46	40.07	-55.0	-63.8	3.8	7.45e-01	0	43	104	3097493504	80	10591
2026-01-23 07:50:56.75	165.55	40.49	-55.0	-63.8	3.8	7.45e-01	0	43	104	3097493504	80	10557
2026-01-23 07:50:57.76	165.65	40.92	-54.9	-63.8	3.8	7.46e-01	0	44	104	3097493504	80	10569
2026-01-23 07:50:58.77	165.74	41.35	-54.9	-63.7	3.8	7.44e-01	0	43	104	3097493504	80	10524
2026-01-23 07:50:59.78	165.84	41.79	-55.0	-63.8	3.8	7.45e-01	0	44	104	3097493504	80	10559
2026-01-23 07:51:00.79	165.94	42.23	-55.0	-63.8	3.8	7.45e-01	0	44	104	3097493504	80	10607
2026-01-23 07:51:01.80	166.04	42.68	-55.0	-63.8	3.8	7.45e-01	0	43	104	3097493504	80	10569
2026-01-23 07:51:02.80	166.15	43.13	-55.0	-63.8	3.8	7.45e-01	0	44	104	3097493504	80	10548
2026-01-23 07:51:03.81	166.26	43.59	-55.0	-63.8	3.8	7.47e-01	0	43	104	3097493504	80	10574
2026-01-23 07:51:04.82	166.37	44.06	-55.0	-63.9	3.8	7.44e-01	0	43	104	3097493504	80	10675
2026-01-23 07:51:05.82	166.49	44.53	-55.0	-63.8	3.8	7.45e-01	0	44	104	3097493504	80	10601
2026-01-23 07:51:06.83	166.61	45.01	-55.0	-63.8	3.8	7.45e-01	0	43	104	3097493504	80	10600
2026-01-23 07:51:07.84	166.73	45.49	-55.0	-63.8	3.8	7.45e-01	0	43	104	3097493504	80	10619
2026-01-23 07:51:08.84	166.86	45.98	-55.0	-63.8	3.8	7.44e-01	0	43	104	3097493504	80	10593
2026-01-23 07:51:09.85	166.99	46.48	-55.0	-63.8	3.8	7.46e-01	0	43	104	3097493504	80	10611
2026-01-23 07:51:10.86	167.13	46.98	-55.0	-63.8	3.8	7.45e-01	0	43	104	3097493504	80	10627
2026-01-23 07:51:11.86	167.27	47.49	-55.0	-63.8	3.8	7.45e-01	0	43	104	3097493504	80	10654
2026-01-23 07:51:12.87	167.41	48.01	-55.0	-63.8	3.8	7.46e-01	0	44	104	3097493504	80	10655
2026-01-23 07:51:13.88	167.56	48.54	-55.0	-63.8	3.8	7.45e-01	0	44	104	3097493504	80	10641
2026-01-23 07:51:14.89	167.72	49.07	-55.0	-63.8	3.8	7.46e-01	0	44	104	3097493504	80	10611
2026-01-23 07:51:15.90	167.88	49.61	-55.0	-63.9	3.8	7.45e-01	0	44	104	3097493504	80	10684
2026-01-23 07:51:16.90	168.05	50.15	-55.1	-63.9	3.8	7.45e-01	0	43	104	3097493504	80	10702
2026-01-23 07:51:17.91	168.22	50.71	-55.0	-63.9	3.8	7.46e-01	0	44	104	3097493504	80	10675
2026-01-23 07:51:18.92	168.40	51.27	-55.0	-63.9	3.8	7.45e-01	0	44	104	3097493504	80	10679
2026-01-23 07:51:19.93	168.58	51.84	-55.1	-63.9	3.8	7.45e-01	0	44	104	3097493504	80	10732
2026-01-23 07:51:20.94	168.78	52.41	-55.1	-63.9	3.8	7.44e-01	0	43	104	3097493504	80	10670
2026-01-23 07:51:21.95	168.98	53.00	-55.0	-63.8	3.8	7.45e-01	0	44	104	3097493504	80	10648
2026-01-23 07:51:22.95	169.19	53.58	-55.1	-63.9	3.8	7.44e-01	0	44	104	3097493504	80	10699
2026-01-23 07:51:23.96	169.41	54.18	-55.1	-63.9	3.8	7.45e-01	0	43	104	3097493504	80	10730
2026-01-23 07:51:24.97	169.63	54.78	-55.1	-63.9	3.8	7.47e-01	0	44	104	3097493504	80	10758
2026-01-23 07:51:25.98	169.87	55.40	-55.1	-63.9	3.8	7.44e-01	0	43	104	3097493504	80	10701
2026-01-23 07:51:26.99	170.12	56.02	-55.1	-63.9	3.8	7.45e-01	0	43	104	3097493504	80	10754
2026-01-23 07:51:28.00	170.38	56.64	-55.1	-63.9	3.8	7.45e-01	0	43	104	3097493504	80	10741
2026-01-23 07:51:29.00	170.65	57.27	-55.1	-63.9	3.8	7.45e-01	0	43	104	3097493504	80	10774
2026-01-23 07:51:30.01	170.94	57.91	-55.1	-63.9	3.8	7.44e-01	0	43	104	3097493504	80	10711
2026-01-23 07:51:31.02	171.23	58.56	-55.1	-63.9	3.8	7.46e-01	0	44	104	3097493504	80	10762
2026-01-23 07:51:32.03	171.55	59.21	-55.1	-64.0	3.8	7.47e-01	0	43	104	3097493504	80	10819
2026-01-23 07:51:33.03	171.88	59.87	-55.1	-64.0	3.8	7.46e-01	0	44	104	3097493504	80	10784
2026-01-23 07:51:34.04	172.22	60.54	-55.1	-63.9	3.8	7.45e-01	0	43	104	3097493504	80	10770
2026-01-23 07:51:35.05	172.59	61.21	-55.1	-64.0	3.8	7.45e-01	0	44	104	3097493504	80	10795
2026-01-23 07:51:36.06	172.98	61.90	-55.2	-64.0	3.8	7.44e-01	0	44	104	3097493504	80	10821
2026-01-23 07:51:37.07	173.39	62.58	-55.2	-64.0	3.8	7.46e-01	0	44	104	3097493504	80	10837
2026-01-23 07:51:38.07	173.81	63.27	-55.1	-64.0	3.8	7.45e-01	0	43	104	3097493504	80	10831
2026-01-23 07:51:39.08	174.27	63.97	-55.2	-64.0	3.8	7.44e-01	0	44	104	3097493504	80	10814
2026-01-23 07:51:40.08	174.76	64.67	-55.2	-64.0	3.8	7.47e-01	0	43	104	3097493504	80	10857
2026-01-23 07:51:41.09	175.28	65.38	-55.2	-64.0	3.8	7.45e-01	0	44	104	3097493504	80	10890
2026-01-23 07:51:42.10	175.83	66.10	-55.2	-64.0	3.8	7.44e-01	0	44	104	3097493504	80	10802
2026-01-23 07:51:43.11	176.42	66.82	-55.2	-64.0	3.8	7.43e-01	0	44	104	3097493504	80	10891
2026-01-23 07:51:44.12	177.05	67.55	-55.2	-64.1	3.8	7.45e-01	0	44	104	3097493504	81	10316
2026-01-23 07:51:45.12	177.73	68.27	-55.2	-64.0	3.8	7.45e-01	0	43	104	3097493504	81	10276
2026-01-23 07:51:46.13	178.46	69.01	-55.2	-64.0	3.8	7.44e-01	0	44	104	3097493504	81	10248
2026-01-23 07:51:47.14	179.25	69.74	-55.2	-64.0	3.8	7.44e-01	0	44	104	3097493504	81	10283
2026-01-23 07:51:48.15	180.10	70.48	-55.2	-64.1	3.8	7.45e-01	0	44	104	3097493504	81	10330
2026-01-23 07:51:49.15	181.02	71.22	-55.3	-64.1	3.8	7.46e-01	0	44	104	3097493504	81	10351
2026-01-23 07:51:50.16	182.02	71.96	-55.2	-64.0	3.8	7.46e-01	0	44	104	3097493504	81	10284
2026-01-23 07:51:51.17	183.12	72.70	-55.3	-64.1	3.8	7.45e-01	0	44	104	3097493504	81	10359
2026-01-23 07:51:52.18	184.31	73.44	-55.3	-64.1	3.8	7.46e-01	0	43	104	3097493504	81	10373
2026-01-23 07:51:53.19	185.63	74.18	-55.3	-64.1	3.8	7.44e-01	0	43	104	3097493504	81	10394
2026-01-23 07:51:54.20	187.08	74.91	-55.2	-64.1	3.8	7.47e-01	0	44	104	3097493504	81	10333
2026-01-23 07:51:55.20	188.67	75.63	-55.3	-64.1	3.8	7.46e-01	0	44	104	3097493504	81	10392
2026-01-23 07:51:56.21	190.45	76.35	-55.3	-64.1	3.8	7.47e-01	0	44	104	3097493504	81	10345
2026-01-23 07:51:57.22	192.43	77.06	-55.3	-64.1	3.8	7.46e-01	0	44	104	3097493504	81	10391
2026-01-23 07:51:58.23	194.65	77.76	-55.3	-64.1	3.8	7.47e-01	0	44	104	3097493504	81	10344
2026-01-23 07:51:59.24	197.14	78.44	-55.3	-64.2	3.8	7.46e-01	0	43	104	3097493504	81	10424
2026-01-23 07:52:00.24	199.91	79.09	-55.3	-64.1	3.8	7.45e-01	0	44	104	3097493504	81	10400
2026-01-23 07:52:01.25	203.07	79.72	-55.3	-64.1	3.8	7.45e-01	0	44	104	3097493504	81	10397
2026-01-23 07:52:02.26	206.64	80.32	-55.3	-64.1	3.8	7.45e-01	0	44	104	3097493504	81	10331
2026-01-23 07:52:03.26	210.63	80.88	-55.3	-64.1	3.8	7.44e-01	0	44	104	3097493504	81	10382
2026-01-23 07:52:04.27	215.16	81.39	-55.3	-64.2	3.8	7.45e-01	0	44	104	3097493504	81	10443
2026-01-23 07:52:05.28	220.24	81.84	-55.3	-64.2	3.8	7.47e-01	0	44	104	3097493504	81	10430
2026-01-23 07:52:06.29	225.88	82.23	-55.3	-64.1	3.8	7.47e-01	0	44	104	3097493504	81	10387
2026-01-23 07:52:07.30	232.04	82.53	-55.4	-64.2	3.8	7.44e-01	0	44	104	3097493504	81	10443
2026-01-23 07:52:08.30	238.58	82.74	-55.3	-64.1	3.8	7.45e-01	0	44	104	3097493504	81	10383
2026-01-23 07:52:09.31	245.48	82.85	-55.4	-64.2	3.8	7.46e-01	0	44	104	3097493504	81	10429
2026-01-23 07:52:10.32	252.50	82.86	-55.3	-64.1	3.8	7.45e-01	0	44	104	3097493504	81	10392
2026-01-23 07:52:11.33	259.42	82.76	-55.4	-64.2	3.8	7.45e-01	0	44	104	3097493504	81	10504
2026-01-23 07:52:12.33	266.00	82.56	-55.4	-64.2	3.8	7.46e-01	0	44	104	3097493504	81	10497
2026-01-23 07:52:13.34	272.23	82.27	-55.4	-64.2	3.8	7.46e-01	0	44	104	3097493504	81	10498
2026-01-23 07:52:14.35	277.93	81.89	-55.4	-64.2	3.8	7.46e-01	0	44	104	3097493504	81	10430
2026-01-23 07:52:15.35	283.03	81.45	-55.4	-64.2	3.8	7.47e-01	0	44	104	3097493504	81	10513
2026-01-23 07:52:16.36	287.64	80.95	-55.4	-64.2	3.8	7.45e-01	0	43	104	3097493504	81	10497
2026-01-23 07:52:17.37	291.73	80.40	-55.4	-64.2	3.8	7.45e-01	0	44	104	3097493504	81	10456
2026-01-23 07:52:18.38	295.35	79.80	-55.4	-64.2	3.8	7.45e-01	0	44	104	3097493504	81	10519
2026-01-23 07:52:19.38	298.53	79.18	-55.4	-64.3	3.8	7.45e-01	0	44	104	3097493504	81	10534
2026-01-23 07:52:20.39	301.37	78.52	-55.4	-64.3	3.8	7.45e-01	0	43	104	3097493504	81	10554
2026-01-23 07:52:21.40	303.90	77.85	-55.4	-64.2	3.8	7.43e-01	0	43	104	3097493504	81	10506
2026-01-23 07:52:22.41	306.14	77.15	-55.4	-64.2	3.8	7.45e-01	0	44	104	3097493504	81	10505
2026-01-23 07:52:23.42	308.15	76.45	-55.4	-64.3	3.8	7.45e-01	0	43	104	3097493504	81	10585
2026-01-23 07:52:24.43	309.96	75.73	-55.5	-64.3	3.8	7.45e-01	0	43	104	3097493504	81	10622
2026-01-23 07:52:25.43	311.57	75.01	-55.4	-64.2	3.8	7.45e-01	0	43	104	3097493504	81	10528
2026-01-23 07:52:26.44	313.03	74.28	-55.4	-64.3	3.8	7.44e-01	0	43	104	3097493504	81	10574
2026-01-23 07:52:27.45	314.37	73.54	-55.5	-64.3	3.8	7.45e-01	0	44	104	3097493504	81	10592
2026-01-23 07:52:28.46	315.58	72.80	-55.5	-64.3	3.8	7.45e-01	0	43	104	3097493504	81	10558
2026-01-23 07:52:29.46	316.68	72.07	-55.4	-64.3	3.8	7.44e-01	0	44	104	3097493504	81	10543
2026-01-23 07:52:30.47	317.69	71.33	-55.4	-64.3	3.8	7.45e-01	0	44	104	3097493504	81	10576
2026-01-23 07:52:31.48	318.63	70.59	-55.5	-64.3	3.8	7.44e-01	0	44	104	3097493504	81	10612
2026-01-23 07:52:32.49	319.49	69.85	-55.5	-64.3	3.8	7.46e-01	0	44	104	3097493504	81	10566
2026-01-23 07:52:33.50	320.28	69.11	-55.4	-64.3	3.8	7.45e-01	0	44	104	3097493504	81	10569
2026-01-23 07:52:34.50	321.02	68.39	-55.4	-64.2	3.8	7.47e-01	0	43	104	3097493504	81	10528
2026-01-23 07:52:35.51	321.70	67.66	-55.5	-64.3	3.8	7.45e-01	0	43	104	3097493504	81	10603
2026-01-23 07:52:36.52	322.34	66.93	-55.5	-64.3	3.8	7.46e-01	0	44	104	3097493504	81	10598
2026-01-23 07:52:37.53	322.94	66.21	-55.5	-64.3	3.8	7.46e-01	0	43	104	3097493504	81	10564
2026-01-23 07:52:38.54	323.50	65.50	-55.4	-64.2	3.8	7.45e-01	0	44	104	3097493504	81	10530
2026-01-23 07:52:39.55	324.02	64.78	-55.5	-64.3	3.8	7.44e-01	0	44	104	3097493504	81	10591
2026-01-23 07:52:40.56	324.51	64.08	-55.5	-64.3	3.8	7.46e-01	0	44	104	3097493504	81	10575
2026-01-23 07:52:41.56	324.97	63.39	-55.4	-64.2	3.8	7.45e-01	0	44	104	3097493504	81	10522
2026-01-23 07:52:42.57	325.41	62.69	-55.4	-64.2	3.8	7.46e-01	0	44	104	3097493504	81	10524
2026-01-23 07:52:43.58	325.82	62.00	-55.5	-64.3	3.8	7.44e-01	0	44	104	3097493504	81	10571
2026-01-23 07:52:44.59	326.21	61.32	-55.4	-64.2	3.8	7.46e-01	0	44	104	3097493504	81	10504
2026-01-23 07:52:45.60	326.58	60.65	-55.4	-64.3	3.8	7.46e-01	0	43	104	3097493504	81	10551
2026-01-23 07:52:46.60	326.92	59.99	-55.4	-64.2	3.8	7.47e-01	0	44	104	3097493504	81	10516
2026-01-23 07:52:47.61	327.25	59.33	-55.4	-64.3	3.8	7.43e-01	0	44	104	3097493504	81	10564
2026-01-23 07:52:48.62	327.57	58.67	-55.4	-64.3	3.8	7.45e-01	0	44	104	3097493504	81	10568
2026-01-23 07:52:49.63	327.87	58.02	-55.4	-64.2	3.8	7.43e-01	0	43	104	3097493504	81	10489
2026-01-23 07:52:50.64	328.16	57.38	-55.4	-64.2	3.8	7.44e-01	0	44	104	3097493504	81	10509
2026-01-23 07:52:51.64	328.43	56.76	-55.4	-64.2	3.8	7.46e-01	0	44	104	3097493504	81	10525
2026-01-23 07:52:52.65	328.69	56.13	-55.4	-64.2	3.8	7.46e-01	0	44	104	3097493504	81	10518
2026-01-23 07:52:53.66	328.94	55.51	-55.4	-64.2	3.8	7.45e-01	0	44	104	3097493504	81	10473
2026-01-23 07:52:54.67	329.18	54.90	-55.4	-64.2	3.8	7.47e-01	0	44	104	3097493504	81	10447
2026-01-23 07:52:55.68	329.41	54.30	-55.4	-64.2	3.8	7.44e-01	0	44	104	3097493504	81	10484
2026-01-23 07:52:56.68	329.63	53.71	-55.4	-64.2	3.8	7.44e-01	0	44	104	3097493504	81	10480
2026-01-23 07:52:57.69	329.84	53.12	-55.4	-64.2	3.8	7.47e-01	0	44	104	3097493504	81	10417
2026-01-23 07:52:58.70	330.04	52.53	-55.3	-64.2	3.8	7.45e-01	0	44	104	3097493504	81	10469
2026-01-23 07:52:59.71	330.23	51.96	-55.4	-64.2	3.8	7.44e-01	0	44	104	3097493504	81	10454
2026-01-23 07:53:00.72	330.42	51.39	-55.4	-64.2	3.8	7.45e-01	0	44	104	3097493504	81	10443
2026-01-23 07:53:01.72	330.60	50.83	-55.3	-64.1	3.8	7.44e-01	0	44	104	3097493504	81	10405
2026-01-23 07:53:02.73	330.77	50.28	-55.3	-64.2	3.8	7.43e-01	0	44	104	3097493504	81	10423
2026-01-23 07:53:03.74	330.94	49.73	-55.4	-64.2	3.8	7.45e-01	0	44	104	3097493504	81	10470
2026-01-23 07:53:04.75	331.10	49.19	-55.3	-64.2	3.8	7.43e-01	0	44	104	3097493504	81	10424
2026-01-23 07:53:05.76	331.26	48.66	-55.3	-64.1	3.8	7.44e-01	0	44	104	3097493504	81	10389
2026-01-23 07:53:06.76	331.41	48.14	-55.3	-64.1	3.8	7.44e-01	0	44	104	3097493504	81	10396
2026-01-23 07:53:07.77	331.56	47.62	-55.3	-64.2	3.8	7.45e-01	0	43	104	3097493504	81	10414
2026-01-23 07:53:08.78	331.70	47.11	-55.3	-64.1	3.8	7.45e-01	0	44	104	3097493504	81	10393
2026-01-23 07:53:09.79	331.83	46.60	-55.3	-64.1	3.8	7.46e-01	0	44	104	3097493504	81	10333
2026-01-23 07:53:10.79	331.97	46.11	-55.3	-64.1	3.8	7.45e-01	0	44	104	3097493504	81	10320
2026-01-23 07:53:11.80	332.09	45.62	-55.3	-64.1	3.8	7.45e-01	0	44	104	3097493504	81	10357
2026-01-23 07:53:12.81	332.22	45.13	-55.3	-64.1	3.8	7.45e-01	0	44	104	3097493504	81	10370
2026-01-23 07:53:13.82	332.34	44.65	-55.2	-64.0	3.8	7.44e-01	0	44	104	3097493504	81	10292
2026-01-23 07:53:14.83	332.46	44.18	-55.2	-64.0	3.8	7.43e-01	0	44	104	3097493504	81	10289
2026-01-23 07:53:15.84	332.57	43.71	-55.2	-64.1	3.8	7.46e-01	0	44	104	3097493504	81	10334
2026-01-23 07:53:16.84	332.68	43.26	-55.2	-64.0	3.8	7.46e-01	0	44	104	3097493504	81	10261
2026-01-23 07:53:17.85	332.79	42.80	-55.2	-64.0	3.8	7.45e-01	0	44	104	3097493504	81	10273
2026-01-23 07:53:18.86	332.89	42.35	-55.2	-64.0	3.8	7.44e-01	0	44	104	3097493504	81	10246
2026-01-23 07:53:19.87	332.99	41.91	-55.2	-64.0	3.8	7.45e-01	0	44	104	3097493504	81	10210
2026-01-23 07:53:20.87	333.09	41.48	-55.2	-64.0	3.8	7.46e-01	0	44	104	3097493504	81	10246
2026-01-23 07:53:21.88	333.19	41.05	-55.2	-64.0	3.8	7.46e-01	0	44	104	3097493504	81	10240
2026-01-23 07:53:22.89	333.28	40.62	-55.2	-64.0	3.8	7.45e-01	0	44	104	3097493504	81	10188
2026-01-23 07:53:23.90	333.37	40.20	-55.2	-64.0	3.8	7.44e-01	0	44	104	3097493504	81	10238
2026-01-23 07:53:24.90	333.46	39.79	-55.2	-64.0	3.8	7.45e-01	0	44	104	3097493504	81	10202
2026-01-23 07:53:25.92	333.55	39.38	-55.2	-63.9	3.8	7.44e-01	0	44	104	3097493504	81	10173
2026-01-23 07:53:26.92	333.63	38.98	-55.1	-64.0	3.8	7.44e-01	0	44	104	3097493504	81	10187
2026-01-23 07:53:27.93	333.71	38.58	-55.1	-64.0	3.8	7.47e-01	0	44	104	3097493504	81	10199
2026-01-23 07:53:28.94	333.79	38.19	-55.1	-63.9	3.8	7.46e-01	0	44	104	3097493504	81	10163
2026-01-23 07:53:29.95	333.87	37.80	-55.1	-63.9	3.8	7.45e-01	0	44	104	3097493504	81	10132
2026-01-23 07:53:30.95	333.95	37.43	-55.1	-63.9	3.8	7.44e-01	0	44	104	3097493504	81	10140
2026-01-23 07:53:31.96	334.02	37.05	-55.1	-64.0	3.8	7.45e-01	0	44	104	3097493504	81	10197
2026-01-23 07:53:32.97	334.10	36.68	-55.1	-63.9	3.8	7.43e-01	0	44	104	3097493504	81	10138
2026-01-23 07:53:33.98	334.17	36.31	-55.1	-63.9	3.8	7.45e-01	0	44	104	3097493504	81	10166
2026-01-23 07:53:34.99	334.24	35.94	-55.1	-63.9	3.8	7.45e-01	0	43	104	3097493504	81	10085
2026-01-23 07:53:35.99	334.31	35.59	-55.1	-63.9	3.8	7.46e-01	0	44	104	3097493504	81	10147
2026-01-23 07:53:37.00	334.38	35.24	-55.1	-63.9	3.8	7.44e-01	0	44	104	3097493504	81	10129
2026-01-23 07:53:38.01	334.44	34.89	-55.1	-63.9	3.8	7.44e-01	0	44	104	3097493504	81	10112
2026-01-23 07:53:39.02	334.51	34.54	-55.0	-63.8	3.8	7.45e-01	0	44	104	3097493504	81	10032
2026-01-23 07:53:40.02	334.57	34.20	-55.1	-63.9	3.8	7.45e-01	0	44	104	3097493504	81	10090
2026-01-23 07:53:41.03	334.63	33.87	-55.1	-63.9	3.8	7.44e-01	0	44	104	3097493504	81	10116
2026-01-23 07:53:42.04	334.69	33.54	-55.1	-63.9	3.8	7.46e-01	0	44	104	3097493504	81	10106
2026-01-23 07:53:43.05	334.75	33.21	-55.0	-63.8	3.8	7.47e-01	0	44	104	3097493504	81	10035
2026-01-23 07:53:44.05	334.81	32.89	-55.1	-63.9	3.8	7.45e-01	0	43	104	3097493504	81	10078
2026-01-23 07:53:45.06	334.86	32.57	-55.0	-63.9	3.8	7.48e-01	0	44	104	3097493504	81	10100
2026-01-23 07:53:46.07	334.92	32.25	-55.0	-63.8	3.8	7.45e-01	0	44	104	3097493504	81	10044
2026-01-23 07:53:47.08	334.97	31.94	-55.0	-63.8	3.8	7.45e-01	0	44	104	3097493504	81	10012
2026-01-23 07:53:48.09	335.03	31.63	-55.0	-63.8	3.8	7.45e-01	0	43	104	3097493504	81	10052
2026-01-23 07:53:49.09	335.08	31.33	-55.0	-63.8	3.8	7.45e-01	0	44	104	3097493504	81	10041
2026-01-23 07:53:50.10	335.13	31.03	-55.0	-63.8	3.8	7.48e-01	0	43	104	3097493504	81	10039
2026-01-23 07:53:51.11	335.18	30.73	-55.0	-63.8	3.8	7.45e-01	0	43	104	3097493504	81	9989
2026-01-23 07:53:52.12	335.23	30.44	-55.0	-63.8	3.8	7.47e-01	0	43	104	3097493504	81	9997
2026-01-23 07:53:53.13	335.28	30.15	-54.9	-63.7	3.8	7.45e-01	0	44	104	3097493504	81	9935
2026-01-23 07:53:54.13	335.33	29.86	-54.9	-63.7	3.8	7.42e-01	0	44	104	3097493504	81	9914
2026-01-23 07:53:55.14	335.38	29.58	-54.9	-63.7	3.8	7.45e-01	0	44	104	3097493504	81	9901
2026-01-23 07:53:56.15	335.42	29.30	-54.9	-63.7	3.8	7.46e-01	0	44	104	3097493504	81	9940
2026-01-23 07:53:57.16	335.47	29.02	-54.9	-63.7	3.8	7.45e-01	0	44	104	3097493504	81	9940
2026-01-23 07:53:58.17	335.52	28.75	-54.9	-63.7	3.8	7.46e-01	0	44	104	3097493504	81	9934
2026-01-23 07:53:59.18	335.56	28.48	-54.9	-63.7	3.8	7.45e-01	0	43	104	3097493504	81	9906
2026-01-23 07:54:00.18	335.60	28.22	-54.9	-63.8	3.8	7.45e-01	0	44	104	3097493504	81	9949
2026-01-23 07:54:01.19	335.65	27.95	-54.9	-63.7	3.8	7.45e-01	0	44	104	3097493504	81	9891
2026-01-23 07:54:02.20	335.69	27.69	-54.9	-63.7	3.8	7.46e-01	0	44	104	3097493504	81	9871
2026-01-23 07:54:03.21	335.73	27.43	-54.8	-63.7	3.8	7.45e-01	0	44	104	3097493504	81	9860
2026-01-23 07:54:04.22	335.77	27.18	-54.9	-63.7	3.8	7.46e-01	0	44	104	3097493504	81	9901
2026-01-23 07:54:05.23	335.81	26.92	-54.9	-63.7	3.8	7.46e-01	0	44	104	3097493504	81	9846
2026-01-23 07:54:06.24	335.85	26.67	-54.8	-63.6	3.8	7.46e-01	0	44	104	3097493504	81	9800
2026-01-23 07:54:07.24	335.89	26.43	-54.8	-63.6	3.8	7.45e-01	0	44	104	3097493504	81	9821
2026-01-23 07:54:08.25	335.93	26.19	-54.8	-63.7	3.8	7.47e-01	0	44	104	3097493504	81	9838
2026-01-23 07:54:09.26	335.97	25.94	-54.8	-63.6	3.8	7.44e-01	0	43	104	3097493504	81	9797
2026-01-23 07:54:10.26	336.00	25.71	-54.8	-63.6	3.8	7.44e-01	0	43	104	3097493504	81	9815
2026-01-23 07:54:11.27	336.04	25.47	-54.8	-63.6	3.8	7.44e-01	0	44	104	3097493504	81	9751
2026-01-23 07:54:12.28	336.08	25.24	-54.8	-63.6	3.8	7.45e-01	0	44	104	3097493504	81	9817
2026-01-23 07:54:13.29	336.11	25.01	-54.8	-63.6	3.8	7.44e-01	0	43	104	3097493504	81	9786
2026-01-23 07:54:14.29	336.15	24.78	-54.8	-63.6	3.8	7.45e-01	0	43	104	3097493504	81	9774
2026-01-23 07:54:15.30	336.18	24.55	-54.8	-63.6	3.8	7.47e-01	0	44	104	3097493504	81	9741
2026-01-23 07:54:16.31	336.21	24.33	-54.8	-63.6	3.8	7.44e-01	0	43	104	3097493504	81	9753
2026-01-23 07:54:17.32	336.25	24.11	-54.8	-63.5	3.8	7.44e-01	0	44	104	3097493504	81	9711
2026-01-23 07:54:18.33	336.28	23.89	-54.7	-63.5	3.8	7.44e-01	0	44	104	3097493504	81	9710
2026-01-23 07:54:19.34	336.31	23.67	-54.7	-63.6	3.8	7.45e-01	0	43	104	3097493504	81	9727
2026-01-23 07:54:20.35	336.35	23.46	-54.7	-63.6	3.8	7.44e-01	0	44	104	3097493504	81	9731
2026-01-23 07:54:21.36	336.38	23.24	-54.7	-63.6	3.8	7.44e-01	0	44	104	3097493504	81	9721
2026-01-23 07:54:22.36	336.41	23.03	-54.7	-63.5	3.8	7.45e-01	0	44	104	3097493504	81	9688
2026-01-23 07:54:23.37	336.44	22.82	-54.7	-63.5	3.8	7.44e-01	0	44	104	3097493504	81	9678
2026-01-23 07:54:24.38	336.47	22.62	-54.7	-63.5	3.8	7.44e-01	0	44	104	3097493504	81	9682
2026-01-23 07:54:25.39	336.50	22.41	-54.7	-63.5	3.8	7.44e-01	0	44	104	3097493504	81	9707
2026-01-23 07:54:26.39	336.53	22.21	-54.7	-63.5	3.8	7.46e-01	0	43	104	3097493504	81	9665
2026-01-23 07:54:27.40	336.56	22.01	-54.7	-63.5	3.8	7.44e-01	0	43	104	3097493504	81	9673
2026-01-23 07:54:28.41	336.59	21.81	-54.7	-63.5	3.8	7.46e-01	0	43	104	3097493504	81	9650
2026-01-23 07:54:29.42	336.62	21.62	-54.7	-63.5	3.8	7.45e-01	0	44	104	3097493504	81	9663
2026-01-23 07:54:30.43	336.65	21.42	-54.7	-63.5	3.8	7.45e-01	0	44	104	3097493504	81	9614
2026-01-23 07:54:31.44	336.68	21.23	-54.6	-63.5	3.8	7.44e-01	0	44	104	3097493504	81	9632
2026-01-23 07:54:32.45	336.70	21.04	-54.6	-63.5	3.8	7.46e-01	0	43	104	3097493504	81	9620
2026-01-23 07:54:33.45	336.73	20.85	-54.6	-63.4	3.8	7.44e-01	0	44	104	3097493504	81	9601
2026-01-23 07:54:34.46	336.76	20.66	-54.6	-63.4	3.8	7.46e-01	0	44	104	3097493504	81	9586
2026-01-23 07:54:35.47	336.79	20.48	-54.6	-63.4	3.8	7.45e-01	0	44	104	3097493504	81	9584
2026-01-23 07:54:36.48	336.81	20.29	-54.6	-63.5	3.8	7.46e-01	0	43	104	3097493504	81	9623
2026-01-23 07:54:37.49	336.84	20.11	-54.6	-63.4	3.8	7.45e-01	0	44	104	3097493504	81	9560
2026-01-23 07:54:38.50	336.86	19.93	-54.6	-63.4	3.8	7.46e-01	0	44	104	3097493504	81	9580
2026-01-23 07:54:39.50	336.89	19.75	-54.6	-63.4	3.8	7.47e-01	0	44	104	3097493504	81	9568
2026-01-23 07:54:40.51	336.91	19.58	-54.6	-63.4	3.8	7.46e-01	0	43	104	3097493504	81	9541
2026-01-23 07:54:41.52	336.94	19.40	-54.6	-63.4	3.8	7.46e-01	0	44	104	3097493504	81	9548
2026-01-23 07:54:42.53	336.96	19.23	-54.6	-63.4	3.8	7.45e-01	0	44	104	3097493504	81	9551
2026-01-23 07:54:43.54	336.99	19.05	-54.5	-63.3	3.8	7.45e-01	0	44	104	3097493504	81	9480
2026-01-23 07:54:44.54	337.01	18.88	-54.6	-63.4	3.8	7.43e-01	0	44	104	3097493504	81	9529
2026-01-23 07:54:45.55	337.04	18.72	-54.6	-63.4	3.8	7.46e-01	0	44	104	3097493504	81	9530
2026-01-23 07:54:46.56	337.06	18.55	-54.5	-63.4	3.8	7.46e-01	0	43	104	3097493504	81	9520
2026-01-23 07:54:47.57	337.08	18.38	-54.5	-63.3	3.8	7.47e-01	0	44	104	3097493504	81	9462
2026-01-23 07:54:48.57	337.11	18.22	-54.5	-63.3	3.8	7.44e-01	0	44	104	3097493504	81	9470
2026-01-23 07:54:49.58	337.13	18.05	-54.5	-63.4	3.8	7.45e-01	0	44	104	3097493504	81	9505
2026-01-23 07:54:50.59	337.15	17.89	-54.5	-63.3	3.8	7.45e-01	0	43	104	3097493504	81	9431
2026-01-23 07:54:51.60	337.18	17.73	-54.5	-63.3	3.8	7.46e-01	0	44	104	3097493504	80	9982
2026-01-23 07:54:52.61	337.20	17.57	-54.5	-63.3	3.8	7.43e-01	0	44	104	3097493504	80	10012
2026-01-23 07:54:53.62	337.22	17.41	-54.5	-63.3	3.8	7.43e-01	0	44	104	3097493504	80	9974
2026-01-23 07:54:54.63	337.24	17.25	-54.4	-63.3	3.8	7.45e-01	0	43	104	3097493504	80	9986
2026-01-23 07:54:55.64	337.26	17.10	-54.4	-63.2	3.8	7.45e-01	0	43	104	3097493504	80	9938
2026-01-23 07:54:56.64	337.29	16.94	-54.4	-63.3	3.8	7.44e-01	0	44	104	3097493504	80	9984
2026-01-23 07:54:57.65	337.31	16.79	-54.4	-63.3	3.8	7.47e-01	0	44	104	3097493504	80	9949
2026-01-23 07:54:58.66	337.33	16.64	-54.4	-63.3	3.8	7.46e-01	0	43	104	3097493504	80	9953
2026-01-23 07:54:59.67	337.35	16.49	-54.4	-63.2	3.8	7.45e-01	0	44	104	3097493504	80	9944
2026-01-23 07:55:00.68	337.37	16.34	-54.4	-63.2	3.8	7.47e-01	0	44	104	3097493504	80	9867
2026-01-23 07:55:01.68	337.39	16.19	-54.4	-63.2	3.8	7.44e-01	0	44	104	3097493504	80	9915
2026-01-23 07:55:02.69	337.41	16.04	-54.4	-63.2	3.8	7.44e-01	0	44	104	3097493504	80	9861
2026-01-23 07:55:03.69	337.43	15.90	-54.4	-63.2	3.8	7.44e-01	0	44	104	3097493504	80	9874
2026-01-23 07:55:04.70	337.45	15.75	-54.3	-63.2	3.8	7.47e-01	0	44	104	3097493504	80	9854
2026-01-23 07:55:05.71	337.47	15.61	-54.4	-63.2	3.8	7.45e-01	0	44	104	3097493504	80	9854
2026-01-23 07:55:06.72	337.49	15.47	-54.3	-63.1	3.8	7.45e-01	0	44	104	3097493504	80	9815
2026-01-23 07:55:07.73	337.51	15.32	-54.3	-63.2	3.8	7.45e-01	0	44	104	3097493504	80	9840
2026-01-23 07:55:08.74	337.53	15.18	-54.3	-63.2	3.8	7.45e-01	0	44	104	3097493504	80	9846
2026-01-23 07:55:09.74	337.55	15.05	-54.3	-63.2	3.8	7.46e-01	0	43	104	3097493504	80	9841
2026-01-23 07:55:10.75	337.57	14.91	-54.3	-63.1	3.8	7.45e-01	0	44	104	3097493504	80	9763
2026-01-23 07:55:11.76	337.58	14.77	-54.3	-63.1	3.8	7.44e-01	0	43	104	3097493504	80	9818
2026-01-23 07:55:12.77	337.60	14.63	-54.3	-63.1	3.8	7.45e-01	0	43	104	3097493504	80	9810
2026-01-23 07:55:13.77	337.62	14.50	-54.3	-63.1	3.8	7.45e-01	0	43	104	3097493504	80	9824
2026-01-23 07:55:14.79	337.64	14.36	-54.3	-63.1	3.8	7.47e-01	0	43	104	3097493504	80	9799
2026-01-23 07:55:15.79	337.66	14.23	-54.3	-63.1	3.8	7.46e-01	0	44	104	3097493504	80	9766
2026-01-23 07:55:16.80	337.68	14.10	-54.3	-63.1	3.8	7.44e-01	0	44	104	3097493504	80	9766
2026-01-23 07:55:17.81	337.69	13.97	-54.3	-63.1	3.8	7.44e-01	0	43	104	3097493504	80	9785
2026-01-23 07:55:18.82	337.71	13.83	-54.3	-63.1	3.8	7.45e-01	0	44	104	3097493504	80	9740
2026-01-23 07:55:19.83	337.73	13.71	-54.2	-63.1	3.8	7.46e-01	0	44	104	3097493504	80	9735
2026-01-23 07:55:20.84	337.75	13.58	-54.2	-63.1	3.8	7.45e-01	0	43	104	3097493504	80	9718
2026-01-23 07:55:21.85	337.76	13.45	-54.3	-63.1	3.8	7.44e-01	0	44	104	3097493504	80	9779
2026-01-23 07:55:22.86	337.78	13.32	-54.2	-63.0	3.8	7.48e-01	0	43	104	3097493504	80	9713
2026-01-23 07:55:23.86	337.80	13.20	-54.2	-63.0	3.8	7.46e-01	0	43	104	3097493504	80	9711
2026-01-23 07:55:24.87	337.82	13.07	-54.2	-63.0	3.8	7.44e-01	0	43	104	3097493504	80	9677
2026-01-23 07:55:25.88	337.83	12.95	-54.2	-63.1	3.8	7.45e-01	0	43	104	3097493504	80	9735
2026-01-23 07:55:26.89	337.85	12.82	-54.2	-63.0	3.8	7.44e-01	0	43	104	3097493504	80	9654
2026-01-23 07:55:27.89	337.87	12.70	-54.2	-63.0	3.8	7.44e-01	0	44	104	3097493504	80	9675
2026-01-23 07:55:28.90	337.88	12.58	-54.2	-63.0	3.8	7.44e-01	0	43	104	3097493504	80	9638
2026-01-23 07:55:29.91	337.90	12.46	-54.2	-63.0	3.8	7.43e-01	0	43	104	3097493504	80	9672
2026-01-23 07:55:30.92	337.91	12.34	-54.2	-63.0	3.8	7.45e-01	0	44	104	3097493504	80	9614
2026-01-23 07:55:31.93	337.93	12.22	-54.1	-62.9	3.8	7.45e-01	0	43	104	3097493504	80	9590
2026-01-23 07:55:32.94	337.95	12.10	-54.1	-62.9	3.8	7.45e-01	0	43	104	3097493504	80	9588
2026-01-23 07:55:33.94	337.96	11.98	-54.2	-63.0	3.8	7.45e-01	0	44	104	3097493504	80	9625
2026-01-23 07:55:34.95	337.98	11.86	-54.1	-62.9	3.8	7.45e-01	0	44	104	3097493504	80	9559
2026-01-23 07:55:35.96	337.99	11.75	-54.1	-62.9	3.8	7.45e-01	0	44	104	3097493504	80	9564
2026-01-23 07:55:36.97	338.01	11.63	-54.1	-62.9	3.8	7.45e-01	0	43	104	3097493504	80	9566
2026-01-23 07:55:37.98	338.02	11.51	-54.1	-63.0	3.8	7.44e-01	0	43	104	3097493504	80	9630
2026-01-23 07:55:38.98	338.04	11.40	-54.1	-62.9	3.8	7.47e-01	0	44	104	3097493504	80	9602
2026-01-23 07:55:39.99	338.05	11.29	-54.1	-62.9	3.8	7.45e-01	0	44	104	3097493504	80	9542
2026-01-23 07:55:41.00	338.07	11.17	-54.1	-62.9	3.8	7.44e-01	0	43	104	3097493504	80	9562
2026-01-23 07:55:42.01	338.08	11.06	-54.1	-62.9	3.8	7.46e-01	0	43	104	3097493504	80	9572
2026-01-23 07:55:43.01	338.10	10.95	-54.1	-62.9	3.8	7.45e-01	0	44	104	3097493504	80	9538
2026-01-23 07:55:44.02	338.11	10.84	-54.1	-62.9	3.8	7.46e-01	0	43	104	3097493504	80	9575
2026-01-23 07:55:45.03	338.13	10.73	-54.0	-62.9	3.8	7.47e-01	0	43	104	3097493504	80	9516
2026-01-23 07:55:46.04	338.14	10.62	-54.1	-62.9	3.8	7.46e-01	0	43	104	3097493504	80	9554
2026-01-23 07:55:47.05	338.16	10.51	-54.0	-62.8	3.8	7.46e-01	0	44	104	3097493504	80	9475
2026-01-23 07:55:48.06	338.17	10.40	-54.0	-62.9	3.8	7.45e-01	0	44	104	3097493504	80	9517
2026-01-23 07:55:49.06	338.19	10.29	-54.0	-62.8	3.8	7.46e-01	0	43	104	3097493504	80	9475
2026-01-23 07:55:50.07	338.20	10.19	-54.1	-62.8	3.8	7.46e-01	0	43	104	3097493504	80	9480
2026-01-23 07:55:51.08	338.21	10.08	-54.0	-62.8	3.8	7.46e-01	0	44	104	3097493504	80	9467
2026-01-23 07:55:52.09	338.23	9.97	-54.0	-62.8	3.8	7.45e-01	0	44	104	3097493504	80	9431
2026-01-23 07:55:53.10	338.24	9.87	-54.0	-62.8	3.8	7.45e-01	0	44	104	3097493504	80	9461
2026-01-23 07:55:54.11	338.26	9.76	-54.0	-62.8	3.8	7.46e-01	0	43	104	3097493504	80	9477
2026-01-23 07:55:55.12	338.27	9.66	-54.0	-62.9	3.8	7.46e-01	0	44	104	3097493504	79	10100
2026-01-23 07:55:56.12	338.28	9.56	-54.0	-62.9	3.8	7.46e-01	0	44	104	3097493504	79	10062
2026-01-23 07:55:57.13	338.30	9.45	-54.0	-62.9	3.8	7.45e-01	0	43	104	3097493504	79	10068
2026-01-23 07:55:58.14	338.31	9.35	-54.0	-62.9	3.8	7.46e-01	0	44	104	3097493504	79	10072
2026-01-23 07:55:59.15	338.32	9.25	-54.0	-62.8	3.8	7.47e-01	0	44	104	3097493504	79	10022
2026-01-23 07:56:00.16	338.34	9.15	-54.0	-62.8	3.8	7.47e-01	0	43	104	3097493504	79	10053
2026-01-23 07:56:01.17	338.35	9.05	-54.0	-62.8	3.8	7.45e-01	0	44	104	3097493504	79	10005
2026-01-23 07:56:02.18	338.36	8.95	-54.0	-62.8	3.8	7.45e-01	0	44	104	3097493504	79	10034
2026-01-23 07:56:03.19	338.38	8.85	-54.0	-62.8	3.8	7.44e-01	0	44	104	3097493504	79	9984
2026-01-23 07:56:04.20	338.39	8.75	-54.0	-62.8	3.8	7.44e-01	0	43	104	3097493504	79	9991
2026-01-23 07:56:05.20	338.40	8.65	-53.9	-62.7	3.8	7.47e-01	0	44	104	3097493504	79	9937
2026-01-23 07:56:06.21	338.42	8.55	-54.0	-62.8	3.8	7.45e-01	0	44	104	3097493504	79	10030
2026-01-23 07:56:07.22	338.43	8.45	-53.9	-62.7	3.8	7.47e-01	0	44	104	3097493504	79	9924
2026-01-23 07:56:08.23	338.44	8.36	-53.9	-62.7	3.8	7.47e-01	0	43	104	3097493504	79	9937
2026-01-23 07:56:09.24	338.45	8.26	-53.9	-62.7	3.8	7.45e-01	0	43	104	3097493504	79	9889
2026-01-23 07:56:10.24	338.47	8.17	-54.0	-62.8	3.8	7.44e-01	0	44	104	3097493504	79	9945
2026-01-23 07:56:11.25	338.48	8.07	-53.9	-62.7	3.8	7.44e-01	0	44	104	3097493504	79	9868
2026-01-23 07:56:12.26	338.49	7.97	-53.9	-62.7	3.8	7.46e-01	0	44	104	3097493504	79	9887
2026-01-23 07:56:13.26	338.50	7.88	-53.8	-62.7	3.8	7.45e-01	0	44	104	3097493504	79	9848
2026-01-23 07:56:14.27	338.52	7.79	-53.9	-62.7	3.8	7.44e-01	0	44	104	3097493504	79	9905
2026-01-23 07:56:15.28	338.53	7.69	-53.8	-62.6	3.8	7.44e-01	0	44	104	3097493504	79	9793
2026-01-23 07:56:16.29	338.54	7.60	-53.8	-62.7	3.8	7.45e-01	0	44	104	3097493504	79	9850
2026-01-23 07:56:17.30	338.55	7.51	-53.8	-62.6	3.8	7.46e-01	0	44	104	3097493504	79	9799
2026-01-23 07:56:18.30	338.57	7.42	-53.9	-62.7	3.8	7.47e-01	0	44	104	3097493504	79	9922
2026-01-23 07:56:19.31	338.58	7.32	-53.8	-62.6	3.8	7.44e-01	0	44	104	3097493504	79	9788
2026-01-23 07:56:20.32	338.59	7.23	-53.8	-62.6	3.8	7.45e-01	0	44	104	3097493504	79	9774
2026-01-23 07:56:21.33	338.60	7.14	-53.8	-62.6	3.8	7.44e-01	0	43	104	3097493504	79	9771
2026-01-23 07:56:22.34	338.61	7.05	-53.8	-62.6	3.8	7.44e-01	0	44	104	3097493504	79	9798
2026-01-23 07:56:23.35	338.63	6.96	-53.8	-62.6	3.8	7.46e-01	0	44	104	3097493504	79	9771
2026-01-23 07:56:24.35	338.64	6.87	-53.7	-62.6	3.8	7.45e-01	0	44	104	3097493504	79	9718
2026-01-23 07:56:25.36	338.65	6.78	-53.7	-62.5	3.8	7.45e-01	0	44	104	3097493504	79	9686
2026-01-23 07:56:26.37	338.66	6.69	-53.8	-62.6	3.8	7.45e-01	0	43	104	3097493504	79	9761
2026-01-23 07:56:27.38	338.67	6.60	-53.7	-62.5	3.8	7.44e-01	0	44	104	3097493504	79	9653
2026-01-23 07:56:28.39	338.68	6.52	-53.7	-62.5	3.8	7.45e-01	0	44	104	3097493504	79	9648
2026-01-23 07:56:29.39	338.70	6.43	-53.7	-62.5	3.8	7.45e-01	0	43	104	3097493504	79	9622
2026-01-23 07:56:30.40	338.71	6.34	-53.7	-62.5	3.8	7.45e-01	0	44	104	3097493504	79	9653
2026-01-23 07:56:31.41	338.72	6.25	-53.6	-62.4	3.8	7.44e-01	0	44	104	3097493504	79	9585
2026-01-23 07:56:32.42	338.73	6.17	-53.6	-62.4	3.8	7.47e-01	0	43	104	3097493504	79	9577
2026-01-23 07:56:33.43	338.74	6.08	-53.6	-62.5	3.8	7.46e-01	0	44	104	3097493504	79	9608
2026-01-23 07:56:34.43	338.75	6.00	-53.6	-62.5	3.8	7.45e-01	0	44	104	3097493504	79	9609
2026-01-23 07:56:35.44	338.76	5.91	-53.6	-62.4	3.8	7.46e-01	0	44	104	3097493504	79	9549
2026-01-23 07:56:36.45	338.77	5.83	-53.5	-62.3	3.8	7.44e-01	0	44	104	3097493504	79	9491
2026-01-23 07:56:37.46	338.79	5.74	-53.6	-62.4	3.8	7.46e-01	0	44	104	3097493504	79	9533
2026-01-23 07:56:38.47	338.80	5.66	-53.6	-62.4	3.8	7.44e-01	0	44	104	3097493504	79	9545
2026-01-23 07:56:39.48	338.81	5.57	-53.5	-62.3	3.8	7.46e-01	0	44	104	3097493504	79	9455
2026-01-23 07:56:40.48	338.82	5.49	-53.5	-62.3	3.8	7.46e-01	0	44	104	3097493504	79	9442
2026-01-23 07:56:41.49	338.83	5.41	-53.5	-62.3	3.8	7.46e-01	0	44	104	3097493504	78	10053
2026-01-23 07:56:42.50	338.84	5.33	-53.5	-62.3	3.8	7.45e-01	0	44	104	3097493504	78	10019
2026-01-23 07:56:43.51	338.85	5.24	-53.5	-62.3	3.8	7.46e-01	0	44	104	3097493504	78	9946
2026-01-23 07:56:44.52	338.86	5.16	-53.4	-62.2	3.8	7.47e-01	0	44	104	3097493504	78	9944
2026-01-23 07:56:45.52	338.87	5.08	-53.5	-62.3	3.8	7.44e-01	0	44	104	3097493504	78	9970
2026-01-23 07:56:46.53	338.88	5.00	-53.6	-62.4	3.8	7.46e-01	0	44	104	3097493504	78	10097
2026-01-23 07:56:47.54	338.89	4.92	-54.0	-62.8	3.8	7.47e-01	0	44	104	3097493504	78	10594
2026-01-23 07:56:48.55	338.90	4.84	-54.2	-63.0	3.8	7.45e-01	0	44	104	3097493504	78	10847
2026-01-23 07:56:49.56	338.91	4.76	-54.4	-63.2	3.8	7.44e-01	0	44	104	3097493504	79	10456
2026-01-23 07:56:50.56	338.93	4.68	-54.5	-63.3	3.8	7.45e-01	0	43	104	3097493504	79	10553
2026-01-23 07:56:51.57	338.94	4.60	-54.6	-63.4	3.8	7.45e-01	0	44	104	3097493504	79	10717
2026-01-23 07:56:52.58	338.95	4.52	-54.7	-63.5	3.8	7.45e-01	0	44	104	3097493504	79	10833
2026-01-23 07:56:53.58	338.96	4.44	-54.7	-63.5	3.8	7.46e-01	0	44	104	3097493504	80	10247
2026-01-23 07:56:54.59	338.97	4.36	-54.7	-63.5	3.8	7.44e-01	0	44	104	3097493504	80	10248
2026-01-23 07:56:55.60	338.98	4.28	-54.7	-63.5	3.8	7.45e-01	0	44	104	3097493504	80	10233
2026-01-23 07:56:56.61	338.99	4.20	-54.7	-63.5	3.8	7.45e-01	0	44	104	3097493504	80	10281
2026-01-23 07:56:57.62	339.00	4.12	-54.7	-63.5	3.8	7.45e-01	0	43	104	3097493504	80	10231
2026-01-23 07:56:58.63	339.01	4.05	-54.6	-63.4	3.8	7.44e-01	0	44	104	3097493504	80	10142
2026-01-23 07:56:59.63	339.02	3.97	-54.5	-63.3	3.8	7.45e-01	0	43	104	3097493504	80	10053
2026-01-23 07:57:00.64	339.03	3.89	-54.4	-63.2	3.8	7.45e-01	0	44	104	3097493504	80	9924
2026-01-23 07:57:01.65	339.04	3.82	-54.4	-63.3	3.8	7.45e-01	0	44	104	3097493504	80	9957
2026-01-23 07:57:02.66	339.05	3.74	-54.5	-63.3	3.8	7.45e-01	0	44	104	3097493504	80	9965
2026-01-23 07:57:03.67	339.06	3.66	-54.5	-63.3	3.8	7.47e-01	0	44	104	3097493504	80	10058
2026-01-23 07:57:04.68	339.07	3.59	-54.5	-63.3	3.8	7.45e-01	0	44	104	3097493504	80	10050
2026-01-23 07:57:05.68	339.08	3.51	-54.6	-63.4	3.8	7.44e-01	0	44	104	3097493504	80	10138
2026-01-23 07:57:06.69	339.09	3.44	-54.6	-63.4	3.8	7.44e-01	0	43	104	3097493504	80	10155
2026-01-23 07:57:07.70	339.10	3.36	-54.6	-63.4	3.8	7.46e-01	0	44	104	3097493504	80	10130
2026-01-23 07:57:08.71	339.11	3.29	-54.6	-63.4	3.8	7.45e-01	0	44	104	3097493504	80	10108
2026-01-23 07:57:09.71	339.12	3.21	-54.5	-63.4	3.8	7.46e-01	0	44	104	3097493504	80	10060
2026-01-23 07:57:10.72	339.13	3.14	-54.5	-63.4	3.8	7.45e-01	0	44	104	3097493504	80	10114
2026-01-23 07:57:11.73	339.14	3.06	-54.5	-63.4	3.8	7.46e-01	0	44	104	3097493504	80	10114
2026-01-23 07:57:12.74	339.15	2.99	-54.5	-63.4	3.8	7.44e-01	0	44	104	3097493504	80	10094
2026-01-23 07:57:13.74	339.16	2.92	-54.5	-63.4	3.8	7.45e-01	0	44	104	3097493504	80	10090
2026-01-23 07:57:14.75	339.17	2.84	-54.5	-63.4	3.8	7.44e-01	0	44	104	3097493504	80	10076
2026-01-23 07:57:15.76	339.17	2.77	-54.5	-63.4	3.8	7.47e-01	0	44	104	3097493504	80	10063
2026-01-23 07:57:16.77	339.18	2.70	-54.5	-63.3	3.8	7.45e-01	0	44	104	3097493504	80	10059
2026-01-23 07:57:17.78	339.19	2.63	-54.5	-63.3	3.8	7.47e-01	0	44	104	3097493504	80	10023
2026-01-23 07:57:18.79	339.20	2.55	-54.5	-63.3	3.8	7.46e-01	0	44	104	3097493504	80	10039
2026-01-23 07:57:19.79	339.21	2.48	-54.5	-63.4	3.8	7.46e-01	0	44	104	3097493504	80	10072
2026-01-23 07:57:20.80	339.22	2.41	-54.5	-63.3	3.8	7.45e-01	0	44	104	3097493504	80	10030
2026-01-23 07:57:21.81	339.23	2.34	-54.5	-63.3	3.8	7.45e-01	0	44	104	3097493504	80	10023
2026-01-23 07:57:22.82	339.24	2.27	-54.5	-63.3	3.8	7.46e-01	0	44	104	3097493504	80	10034
2026-01-23 07:57:23.83	339.25	2.20	-54.5	-63.3	3.8	7.46e-01	0	44	104	3097493504	80	10004
2026-01-23 07:57:24.84	339.26	2.13	-54.5	-63.3	3.8	7.45e-01	0	44	104	3097493504	80	10005
2026-01-23 07:57:25.85	339.27	2.05	-54.5	-63.3	3.8	7.46e-01	0	44	104	3097493504	80	10006
2026-01-23 07:57:26.85	339.28	1.99	-54.5	-63.3	3.8	7.44e-01	0	44	104	3097493504	80	10022

#Closed at: 2026-01-23 07:57:27
#Recorded file [3097 MB]: D:/lorett/data/31041_260123_104655.dat