passes_logs/2026/01/23/R3.2S_Murmansk/R3.2S_Murmansk__20260123_093704_FENGYUN_3D_rec.log

#Pass ID: 20260123_093704_FENGYUN 3D
#Satellite: FENGYUN 3D
#Configuration: FENGYUN 3D
#almurnet v.1.7.20251203
#Start time: 2026-01-23 09:37:05

#Version: 2.2.20231116
#Station: R3.2S_Murmansk
#Location: 33.079688 lon 68.888172 lat
#TLE: 1 43010U 17072A   26022.47411728  .00000617  00000+0  31375-3 0  9996
#TLE: 2 43010  98.9952 354.4060 0002481  95.7964 264.3494 14.19699924424319

#Time	Az	El	Level	Level2	SNR	BER	BlckErr	Temp	State	Recorded	gain1	gain2
2026-01-23 09:37:05.64	106.71	2.09	-54.3	-66.3	3.8	8.46e-01	0	40	0	0	79	14930
2026-01-23 09:37:06.65	106.67	2.15	-54.4	-66.4	3.8	8.47e-01	0	40	104	0	79	15145
2026-01-23 09:37:07.66	106.63	2.21	-54.5	-66.5	3.8	8.47e-01	0	40	104	0	79	15276
2026-01-23 09:37:08.66	106.58	2.27	-54.5	-66.5	3.8	8.46e-01	0	40	104	0	79	15298
2026-01-23 09:37:09.67	106.54	2.33	-54.5	-66.5	3.8	8.47e-01	0	40	104	0	79	15232
2026-01-23 09:37:10.68	106.50	2.40	-54.4	-66.4	3.8	8.44e-01	0	41	104	0	79	15216
2026-01-23 09:37:11.69	106.46	2.46	-54.4	-66.4	3.8	8.46e-01	0	41	104	0	79	15167
2026-01-23 09:37:12.70	106.41	2.52	-54.4	-66.4	3.8	8.45e-01	0	40	104	0	79	15123
2026-01-23 09:37:13.70	106.37	2.58	-54.4	-66.4	3.8	8.45e-01	0	41	104	0	79	15096
2026-01-23 09:37:14.71	106.33	2.65	-54.4	-66.4	3.8	8.46e-01	0	41	104	0	79	15058
2026-01-23 09:37:15.72	106.29	2.71	-54.3	-66.3	3.8	8.45e-01	0	41	104	0	79	14892
2026-01-23 09:37:16.73	106.24	2.77	-54.2	-66.2	3.8	8.45e-01	0	41	104	0	79	14774
2026-01-23 09:37:17.74	106.20	2.84	-54.1	-66.1	3.8	8.48e-01	0	41	104	0	79	14697
2026-01-23 09:37:18.74	106.15	2.90	-54.1	-66.1	3.8	8.46e-01	0	41	104	0	79	14569
2026-01-23 09:37:19.75	106.11	2.96	-54.0	-66.0	3.8	8.46e-01	0	41	104	0	79	14419
2026-01-23 09:37:20.76	106.07	3.03	-53.9	-65.9	3.8	8.46e-01	0	41	104	0	79	14317
2026-01-23 09:37:21.76	106.02	3.09	-53.9	-65.9	3.8	8.45e-01	0	41	104	0	79	14250
2026-01-23 09:37:22.77	105.98	3.16	-53.8	-65.8	3.8	8.45e-01	0	41	104	0	79	14117
2026-01-23 09:37:23.78	105.93	3.22	-53.8	-65.7	3.8	8.46e-01	0	41	104	0	79	14034
2026-01-23 09:37:24.79	105.89	3.28	-53.7	-65.7	3.8	8.46e-01	0	41	104	0	79	13912
2026-01-23 09:37:25.80	105.84	3.35	-53.6	-65.6	3.8	8.47e-01	0	41	104	0	79	13786
2026-01-23 09:37:26.81	105.80	3.41	-53.6	-65.6	3.8	8.46e-01	0	41	104	0	79	13727
2026-01-23 09:37:27.82	105.75	3.48	-53.5	-65.5	3.8	8.47e-01	0	41	104	0	79	13607
2026-01-23 09:37:28.83	105.70	3.54	-53.4	-65.4	3.8	8.47e-01	0	41	104	0	78	14299
2026-01-23 09:37:29.84	105.66	3.61	-53.4	-65.3	3.8	8.46e-01	0	41	104	0	78	14193
2026-01-23 09:37:30.85	105.61	3.67	-53.3	-65.2	3.8	8.47e-01	0	41	104	0	78	14034
2026-01-23 09:37:31.86	105.56	3.74	-53.2	-65.1	3.8	8.47e-01	0	41	104	0	78	13874
2026-01-23 09:37:32.86	105.52	3.80	-53.0	-65.0	3.8	8.46e-01	0	41	104	0	78	13617
2026-01-23 09:37:33.87	105.47	3.87	-52.8	-64.8	3.8	8.46e-01	0	41	104	0	77	14072
2026-01-23 09:37:34.88	105.42	3.93	-52.6	-64.5	3.8	8.46e-01	0	41	104	0	77	13678
2026-01-23 09:37:35.89	105.37	4.00	-52.1	-62.6	3.8	8.45e-01	0	41	104	0	76	11558
2026-01-23 09:37:36.89	105.33	4.07	-51.8	-60.6	4.2	8.38e-01	0	41	0	0	75	9721
2026-01-23 09:37:37.90	105.28	4.13	-51.8	-60.5	4.2	8.38e-01	0	42	0	0	75	9706
2026-01-23 09:37:38.91	105.23	4.20	-51.4	-58.4	5.1	7.92e-01	0	41	0	0	74	7992
2026-01-23 09:37:39.92	105.18	4.26	-51.0	-56.7	6.3	3.72e-01	0	41	0	2097152	74	6596
2026-01-23 09:37:40.93	105.13	4.33	-50.2	-54.6	8.2	1.42e-01	0	41	0	7340032	72	5806
2026-01-23 09:37:41.93	105.08	4.40	-49.7	-53.4	9.5	2.78e-02	0	41	0	13631488	71	5379
2026-01-23 09:37:42.95	105.03	4.46	-48.7	-51.5	11.4	2.89e-03	0	42	0	18874368	69	4868
2026-01-23 09:37:43.95	104.99	4.53	-47.7	-50.0	13.0	5.60e-05	0	41	0	25165824	67	4590
2026-01-23 09:37:44.96	104.94	4.60	-47.0	-49.0	14.0	5.70e-06	0	41	0	30408704	66	4319
2026-01-23 09:37:45.97	104.89	4.66	-46.6	-48.5	14.6	1.10e-06	0	41	0	36700160	65	4294
2026-01-23 09:37:46.98	104.84	4.73	-45.9	-47.5	15.6	0.00e+00	0	41	0	41943040	63	4331
2026-01-23 09:37:47.99	104.79	4.80	-46.2	-47.9	15.2	0.00e+00	0	41	0	47185920	63	4542
2026-01-23 09:37:48.99	104.73	4.87	-45.6	-47.2	15.9	0.00e+00	0	41	0	53477376	63	4183
2026-01-23 09:37:50.00	104.68	4.93	-46.0	-47.7	15.4	0.00e+00	0	41	0	58720256	63	4409
2026-01-23 09:37:51.01	104.63	5.00	-46.5	-48.3	14.8	0.00e+00	0	41	0	63963136	63	4737
2026-01-23 09:37:52.02	104.58	5.07	-45.9	-47.5	15.7	0.00e+00	0	42	0	70254592	63	4326
2026-01-23 09:37:53.03	104.53	5.14	-46.9	-48.9	14.3	0.00e+00	0	41	0	75497472	64	4780
2026-01-23 09:37:54.04	104.48	5.21	-50.7	-55.9	6.9	6.52e-02	0	41	0	81788928	72	6759
2026-01-23 09:37:55.05	104.42	5.28	-44.0	-45.2	18.4	0.00e+00	0	42	0	87031808	59	4167
2026-01-23 09:37:56.05	104.37	5.34	-52.0	-61.6	4.1	4.75e-02	0	42	0	92274688	74	11668
2026-01-23 09:37:57.06	104.32	5.41	-43.9	-45.0	18.6	0.00e+00	0	42	0	93323264	59	4088
2026-01-23 09:37:58.07	104.27	5.48	-43.8	-44.9	18.7	0.00e+00	0	42	0	99614720	59	4031
2026-01-23 09:37:59.08	104.21	5.55	-43.6	-44.8	18.8	0.00e+00	0	41	0	104857600	59	3979
2026-01-23 09:38:00.09	104.16	5.62	-43.6	-44.7	18.9	0.00e+00	0	41	0	110100480	58	4178
2026-01-23 09:38:01.10	104.11	5.69	-43.7	-44.8	18.8	0.00e+00	0	41	0	116391936	58	4228
2026-01-23 09:38:02.10	104.05	5.76	-43.9	-45.0	18.6	0.00e+00	0	42	0	121634816	58	4336
2026-01-23 09:38:03.11	104.00	5.83	-43.6	-44.7	18.8	0.00e+00	0	42	0	127926272	58	4184
2026-01-23 09:38:04.12	103.94	5.90	-43.6	-44.7	18.9	0.00e+00	0	42	0	133169152	58	4187
2026-01-23 09:38:05.13	103.89	5.97	-43.4	-44.5	19.1	0.00e+00	0	42	0	138412032	58	4063
2026-01-23 09:38:06.14	103.83	6.04	-43.5	-44.7	18.9	0.00e+00	0	42	0	144703488	58	4162
2026-01-23 09:38:07.14	103.78	6.11	-43.5	-44.6	19.0	0.00e+00	0	42	0	150994944	58	4144
2026-01-23 09:38:08.15	103.72	6.18	-43.6	-44.8	18.8	0.00e+00	0	42	0	156237824	58	4210
2026-01-23 09:38:09.16	103.67	6.25	-43.2	-44.3	19.4	0.00e+00	0	42	0	161480704	58	3967
2026-01-23 09:38:10.17	103.61	6.32	-43.5	-44.6	19.0	0.00e+00	0	42	0	167772160	58	4136
2026-01-23 09:38:11.17	103.55	6.39	-43.4	-44.5	19.1	0.00e+00	0	42	0	173015040	58	4080
2026-01-23 09:38:12.19	103.50	6.46	-43.5	-44.6	19.0	0.00e+00	0	42	0	178257920	58	4145
2026-01-23 09:38:13.20	103.44	6.54	-43.6	-44.8	18.9	0.00e+00	0	42	0	184549376	58	4200
2026-01-23 09:38:14.20	103.38	6.61	-43.5	-44.6	19.0	0.00e+00	0	42	0	189792256	58	4134
2026-01-23 09:38:15.21	103.32	6.68	-43.5	-44.7	19.0	0.00e+00	0	42	0	195035136	58	4152
2026-01-23 09:38:16.22	103.26	6.75	-43.8	-45.0	18.7	0.00e+00	0	42	0	201326592	58	4303
2026-01-23 09:38:17.23	103.21	6.82	-43.5	-44.7	19.0	0.00e+00	0	42	0	206569472	58	4155
2026-01-23 09:38:18.24	103.15	6.90	-43.4	-44.5	19.2	0.00e+00	0	42	0	212860928	58	4060
2026-01-23 09:38:19.25	103.09	6.97	-43.4	-44.5	19.2	0.00e+00	0	42	0	218103808	58	4064
2026-01-23 09:38:20.26	103.03	7.04	-43.2	-44.3	19.4	0.00e+00	0	42	0	224395264	58	3989
2026-01-23 09:38:21.26	102.97	7.11	-43.1	-44.1	19.6	0.00e+00	0	42	0	229638144	58	3910
2026-01-23 09:38:22.27	102.91	7.19	-43.0	-44.1	19.6	0.00e+00	0	42	0	235929600	58	3883
2026-01-23 09:38:23.28	102.85	7.26	-43.0	-44.0	19.7	0.00e+00	0	42	0	241172480	58	3857
2026-01-23 09:38:24.29	102.79	7.33	-43.1	-44.2	19.5	0.00e+00	0	42	0	246415360	57	4155
2026-01-23 09:38:25.30	102.73	7.41	-43.1	-44.2	19.6	0.00e+00	0	42	0	252706816	57	4149
2026-01-23 09:38:26.30	102.67	7.48	-42.9	-44.0	19.8	0.00e+00	0	42	0	257949696	57	4055
2026-01-23 09:38:27.31	102.60	7.55	-43.0	-44.1	19.6	0.00e+00	0	42	0	263192576	57	4120
2026-01-23 09:38:28.32	102.54	7.63	-43.0	-44.1	19.6	0.00e+00	0	42	0	269484032	57	4112
2026-01-23 09:38:29.33	102.48	7.70	-42.9	-43.9	19.8	0.00e+00	0	42	0	274726912	57	4036
2026-01-23 09:38:30.34	102.42	7.78	-42.9	-43.9	19.9	0.00e+00	0	42	0	279969792	57	4019
2026-01-23 09:38:31.34	102.36	7.85	-42.9	-43.9	19.9	0.00e+00	0	42	0	286261248	57	4025
2026-01-23 09:38:32.35	102.29	7.93	-42.8	-43.8	19.9	0.00e+00	0	42	0	292552704	57	3974
2026-01-23 09:38:33.36	102.23	8.00	-42.7	-43.7	20.0	0.00e+00	0	42	0	297795584	57	3948
2026-01-23 09:38:34.37	102.16	8.08	-42.7	-43.7	20.0	0.00e+00	0	42	0	303038464	57	3952
2026-01-23 09:38:35.38	102.10	8.15	-42.8	-43.8	19.9	0.00e+00	0	42	0	309329920	57	3992
2026-01-23 09:38:36.39	102.03	8.23	-42.4	-43.4	20.3	0.00e+00	0	42	0	314572800	56	4027
2026-01-23 09:38:37.39	101.97	8.30	-42.5	-43.4	20.3	0.00e+00	0	42	0	320864256	56	4044
2026-01-23 09:38:38.40	101.90	8.38	-42.4	-43.4	20.3	0.00e+00	0	42	0	326107136	56	4036
2026-01-23 09:38:39.41	101.84	8.45	-42.5	-43.5	20.3	0.00e+00	0	42	0	331350016	56	4078
2026-01-23 09:38:40.42	101.77	8.53	-42.6	-43.6	20.2	0.00e+00	0	42	0	337641472	56	4101
2026-01-23 09:38:41.43	101.71	8.61	-42.3	-43.3	20.4	0.00e+00	0	42	0	342884352	56	3993
2026-01-23 09:38:42.44	101.64	8.68	-42.4	-43.4	20.4	0.00e+00	0	42	0	348127232	56	4015
2026-01-23 09:38:43.44	101.57	8.76	-42.3	-43.3	20.5	0.00e+00	0	42	0	354418688	56	3969
2026-01-23 09:38:44.45	101.50	8.84	-42.3	-43.2	20.5	0.00e+00	0	42	0	360710144	56	3948
2026-01-23 09:38:45.46	101.44	8.92	-42.3	-43.2	20.5	0.00e+00	0	42	0	365953024	56	3944
2026-01-23 09:38:46.47	101.37	8.99	-42.2	-43.2	20.6	0.00e+00	0	42	0	371195904	56	3920
2026-01-23 09:38:47.48	101.30	9.07	-42.5	-43.5	20.3	0.00e+00	0	42	0	377487360	56	4059
2026-01-23 09:38:48.48	101.23	9.15	-42.3	-43.3	20.5	0.00e+00	0	42	0	382730240	56	3990
2026-01-23 09:38:49.49	101.16	9.23	-42.5	-43.5	20.3	0.00e+00	0	42	0	387973120	56	4072
2026-01-23 09:38:50.50	101.09	9.30	-42.5	-43.5	20.3	0.00e+00	0	42	0	394264576	56	4090
2026-01-23 09:38:51.51	101.02	9.38	-42.4	-43.4	20.4	0.00e+00	0	42	0	399507456	56	4024
2026-01-23 09:38:52.52	100.95	9.46	-42.5	-43.4	20.3	0.00e+00	0	42	0	405798912	56	4045
2026-01-23 09:38:53.52	100.88	9.54	-42.3	-43.3	20.5	0.00e+00	0	42	0	411041792	56	3972
2026-01-23 09:38:54.53	100.81	9.62	-42.4	-43.4	20.4	0.00e+00	0	42	0	416284672	56	4040
2026-01-23 09:38:55.54	100.74	9.70	-42.3	-43.3	20.5	0.00e+00	0	42	0	422576128	56	3963
2026-01-23 09:38:56.55	100.66	9.78	-42.2	-43.1	20.7	0.00e+00	0	42	0	428867584	56	3905
2026-01-23 09:38:57.56	100.59	9.86	-42.2	-43.2	20.7	0.00e+00	0	42	0	434110464	56	3915
2026-01-23 09:38:58.56	100.52	9.94	-42.1	-43.1	20.7	0.00e+00	0	42	0	439353344	56	3894
2026-01-23 09:38:59.57	100.44	10.02	-42.3	-43.3	20.5	0.00e+00	0	42	0	445644800	56	3987
2026-01-23 09:39:00.58	100.37	10.10	-42.2	-43.2	20.7	0.00e+00	0	42	0	450887680	56	3937
2026-01-23 09:39:01.59	100.30	10.18	-42.1	-43.1	20.8	0.00e+00	0	42	0	456130560	56	3895
2026-01-23 09:39:02.60	100.22	10.26	-42.1	-43.1	20.8	0.00e+00	0	42	0	462422016	56	3883
2026-01-23 09:39:03.61	100.15	10.34	-42.1	-43.0	20.9	0.00e+00	0	42	0	467664896	56	3850
2026-01-23 09:39:04.62	100.07	10.42	-42.1	-43.0	20.9	0.00e+00	0	42	0	472907776	56	3863
2026-01-23 09:39:05.62	99.99	10.50	-42.0	-43.0	20.9	0.00e+00	0	42	0	479199232	56	3839
2026-01-23 09:39:06.63	99.92	10.59	-42.1	-43.0	20.8	0.00e+00	0	42	0	484442112	56	3865
2026-01-23 09:39:07.64	99.84	10.67	-42.1	-43.1	20.8	0.00e+00	0	42	0	490733568	56	3879
2026-01-23 09:39:08.65	99.76	10.75	-42.1	-43.1	20.9	0.00e+00	0	42	0	495976448	56	3870
2026-01-23 09:39:09.65	99.69	10.83	-42.1	-43.0	20.9	0.00e+00	0	42	0	502267904	56	3859
2026-01-23 09:39:10.67	99.61	10.91	-42.0	-43.0	20.9	0.00e+00	0	42	0	507510784	56	3830
2026-01-23 09:39:11.67	99.53	11.00	-41.9	-42.8	21.0	0.00e+00	0	42	0	513802240	55	3990
2026-01-23 09:39:12.68	99.45	11.08	-42.0	-42.9	20.9	0.00e+00	0	42	0	519045120	55	4049
2026-01-23 09:39:13.69	99.37	11.16	-41.9	-42.9	21.0	0.00e+00	0	42	0	524288000	55	4027
2026-01-23 09:39:14.70	99.29	11.25	-41.9	-42.8	21.0	0.00e+00	0	42	0	530579456	55	4002
2026-01-23 09:39:15.70	99.21	11.33	-41.9	-42.9	21.0	0.00e+00	0	42	0	535822336	55	4005
2026-01-23 09:39:16.71	99.13	11.41	-41.8	-42.7	21.1	0.00e+00	0	42	0	541065216	55	3952
2026-01-23 09:39:17.72	99.05	11.50	-41.8	-42.7	21.2	0.00e+00	0	42	0	547356672	55	3931
2026-01-23 09:39:18.73	98.96	11.58	-41.7	-42.7	21.2	0.00e+00	0	42	0	552599552	55	3923
2026-01-23 09:39:19.73	98.88	11.67	-41.8	-42.8	21.1	0.00e+00	0	42	0	557842432	55	3963
2026-01-23 09:39:20.74	98.80	11.75	-41.8	-42.7	21.1	0.00e+00	0	42	0	564133888	55	3939
2026-01-23 09:39:21.75	98.71	11.84	-41.6	-42.5	21.4	0.00e+00	0	42	0	570425344	55	3843
2026-01-23 09:39:22.76	98.63	11.92	-41.5	-42.4	21.4	0.00e+00	0	42	0	575668224	55	3814
2026-01-23 09:39:23.77	98.55	12.01	-41.5	-42.4	21.5	0.00e+00	0	42	0	580911104	54	4010
2026-01-23 09:39:24.78	98.46	12.09	-41.5	-42.4	21.4	0.00e+00	0	42	0	587202560	54	4047
2026-01-23 09:39:25.78	98.38	12.18	-41.4	-42.3	21.5	0.00e+00	0	42	0	592445440	54	3983
2026-01-23 09:39:26.79	98.29	12.27	-41.5	-42.4	21.5	0.00e+00	0	42	0	598736896	54	4010
2026-01-23 09:39:27.80	98.20	12.35	-41.5	-42.4	21.4	0.00e+00	0	42	0	603979776	54	4037
2026-01-23 09:39:28.81	98.11	12.44	-41.4	-42.3	21.5	0.00e+00	0	42	0	609222656	54	3990
2026-01-23 09:39:29.82	98.03	12.53	-41.4	-42.3	21.6	0.00e+00	0	42	0	615514112	54	3963
2026-01-23 09:39:30.82	97.94	12.61	-41.3	-42.2	21.6	0.00e+00	0	42	0	620756992	54	3927
2026-01-23 09:39:31.83	97.85	12.70	-41.3	-42.2	21.6	0.00e+00	0	42	0	625999872	54	3946
2026-01-23 09:39:32.84	97.76	12.79	-41.3	-42.2	21.7	0.00e+00	0	42	0	632291328	54	3920
2026-01-23 09:39:33.85	97.67	12.88	-41.2	-42.1	21.8	0.00e+00	0	42	0	638582784	54	3878
2026-01-23 09:39:34.86	97.58	12.96	-41.2	-42.1	21.7	0.00e+00	0	42	0	643825664	54	3894
2026-01-23 09:39:35.87	97.49	13.05	-41.1	-42.0	21.8	0.00e+00	0	42	0	649068544	54	3849
2026-01-23 09:39:36.88	97.40	13.14	-41.2	-42.1	21.8	0.00e+00	0	42	0	655360000	54	3872
2026-01-23 09:39:37.88	97.31	13.23	-41.1	-42.0	21.8	0.00e+00	0	42	0	660602880	54	3859
2026-01-23 09:39:38.89	97.21	13.32	-41.1	-42.0	21.9	0.00e+00	0	42	0	665845760	54	3839
2026-01-23 09:39:39.90	97.12	13.41	-40.9	-41.8	22.0	0.00e+00	0	42	0	672137216	53	3982
2026-01-23 09:39:40.91	97.02	13.50	-41.0	-41.9	22.0	0.00e+00	0	42	0	677380096	53	4031
2026-01-23 09:39:41.91	96.93	13.59	-41.0	-41.9	22.0	0.00e+00	0	42	0	683671552	53	4021
2026-01-23 09:39:42.92	96.84	13.68	-41.1	-42.0	21.9	0.00e+00	0	42	0	688914432	53	4054
2026-01-23 09:39:43.93	96.74	13.77	-41.1	-42.0	21.8	0.00e+00	0	42	0	694157312	53	4089
2026-01-23 09:39:44.94	96.64	13.86	-41.1	-42.0	21.9	0.00e+00	0	42	0	700448768	53	4061
2026-01-23 09:39:45.95	96.55	13.95	-41.1	-42.0	21.9	0.00e+00	0	42	0	706740224	53	4062
2026-01-23 09:39:46.95	96.45	14.04	-41.1	-42.0	21.8	0.00e+00	0	42	0	711983104	53	4088
2026-01-23 09:39:47.96	96.35	14.13	-41.2	-42.0	21.8	0.00e+00	0	42	0	717225984	53	4091
2026-01-23 09:39:48.97	96.25	14.22	-41.2	-42.1	21.8	0.00e+00	0	42	0	723517440	53	4128
2026-01-23 09:39:49.98	96.15	14.32	-41.2	-42.0	21.8	0.00e+00	0	43	0	728760320	53	4095
2026-01-23 09:39:50.99	96.05	14.41	-41.0	-41.9	22.0	0.00e+00	0	42	0	734003200	53	4039
2026-01-23 09:39:51.99	95.95	14.50	-41.1	-42.0	21.9	0.00e+00	0	42	0	740294656	53	4058
2026-01-23 09:39:53.00	95.85	14.59	-41.2	-42.0	21.8	0.00e+00	0	42	0	745537536	53	4096
2026-01-23 09:39:54.01	95.75	14.69	-41.0	-41.9	21.9	0.00e+00	0	42	0	750780416	53	4038
2026-01-23 09:39:55.02	95.65	14.78	-41.0	-41.9	22.0	0.00e+00	0	43	0	757071872	53	4015
2026-01-23 09:39:56.03	95.54	14.87	-41.0	-41.9	22.0	0.00e+00	0	42	0	762314752	53	4005
2026-01-23 09:39:57.03	95.44	14.97	-41.1	-42.0	21.9	0.00e+00	0	42	0	768606208	53	4059
2026-01-23 09:39:58.04	95.33	15.06	-40.9	-41.8	22.1	0.00e+00	0	42	0	773849088	53	3963
2026-01-23 09:39:59.05	95.23	15.16	-41.0	-41.9	22.0	0.00e+00	0	42	0	780140544	53	4012
2026-01-23 09:40:00.06	95.12	15.25	-41.0	-41.9	22.0	0.00e+00	0	42	0	785383424	53	4018
2026-01-23 09:40:01.07	95.02	15.35	-40.9	-41.7	22.1	0.00e+00	0	42	0	791674880	53	3957
2026-01-23 09:40:02.07	94.91	15.44	-40.7	-41.6	22.3	0.00e+00	0	42	0	796917760	53	3883
2026-01-23 09:40:03.08	94.80	15.54	-40.7	-41.6	22.3	0.00e+00	0	42	0	802160640	53	3884
2026-01-23 09:40:04.09	94.69	15.63	-40.9	-41.7	22.2	0.00e+00	0	42	0	808452096	53	3944
2026-01-23 09:40:05.10	94.58	15.73	-40.6	-41.4	22.4	0.00e+00	0	42	0	813694976	53	3822
2026-01-23 09:40:06.11	94.47	15.82	-40.5	-41.4	22.5	0.00e+00	0	42	0	818937856	53	3787
2026-01-23 09:40:07.12	94.36	15.92	-40.5	-41.3	22.6	0.00e+00	0	42	0	825229312	52	3988
2026-01-23 09:40:08.12	94.25	16.02	-40.5	-41.3	22.6	0.00e+00	0	42	0	830472192	52	3979
2026-01-23 09:40:09.13	94.14	16.11	-40.5	-41.3	22.5	0.00e+00	0	42	0	835715072	52	3992
2026-01-23 09:40:10.14	94.02	16.21	-40.6	-41.4	22.7	0.00e+00	0	42	0	842006528	52	4044
2026-01-23 09:40:11.15	93.91	16.31	-40.4	-41.2	22.9	0.00e+00	0	42	0	848297984	52	3942
2026-01-23 09:40:12.15	93.79	16.41	-40.4	-41.2	22.9	0.00e+00	0	42	0	853540864	52	3927
2026-01-23 09:40:13.16	93.68	16.50	-40.4	-41.2	22.9	0.00e+00	0	42	0	858783744	52	3927
2026-01-23 09:40:14.17	93.56	16.60	-40.4	-41.2	23.0	0.00e+00	0	43	0	865075200	52	3929
2026-01-23 09:40:15.18	93.44	16.70	-40.3	-41.1	23.0	0.00e+00	0	42	0	870318080	52	3892
2026-01-23 09:40:16.19	93.33	16.80	-40.3	-41.1	23.1	0.00e+00	0	42	0	876609536	52	3872
2026-01-23 09:40:17.20	93.21	16.90	-40.3	-41.1	23.1	0.00e+00	0	42	0	881852416	52	3871
2026-01-23 09:40:18.20	93.09	17.00	-40.2	-41.0	23.2	0.00e+00	0	42	0	887095296	52	3841
2026-01-23 09:40:19.21	92.97	17.10	-40.4	-41.1	23.0	0.00e+00	0	42	0	893386752	52	3906
2026-01-23 09:40:20.22	92.85	17.20	-40.3	-41.1	23.1	0.00e+00	0	42	0	898629632	52	3886
2026-01-23 09:40:21.23	92.73	17.30	-40.4	-41.2	23.0	0.00e+00	0	42	0	903872512	52	3926
2026-01-23 09:40:22.24	92.60	17.40	-40.4	-41.2	23.0	0.00e+00	0	42	0	910163968	52	3934
2026-01-23 09:40:23.24	92.48	17.50	-40.3	-41.1	23.1	0.00e+00	0	42	0	916455424	52	3901
2026-01-23 09:40:24.25	92.35	17.60	-40.4	-41.2	23.0	0.00e+00	0	42	0	921698304	52	3914
2026-01-23 09:40:25.26	92.23	17.70	-40.3	-41.1	23.1	0.00e+00	0	43	0	926941184	52	3883
2026-01-23 09:40:26.27	92.10	17.81	-40.5	-41.3	22.9	0.00e+00	0	42	0	933232640	52	3960
2026-01-23 09:40:27.27	91.98	17.91	-40.3	-41.1	23.1	0.00e+00	0	42	0	938475520	52	3875
2026-01-23 09:40:28.28	91.85	18.01	-40.4	-41.2	23.0	0.00e+00	0	43	0	943718400	52	3947
2026-01-23 09:40:29.29	91.72	18.11	-40.3	-41.0	23.1	0.00e+00	0	42	0	950009856	52	3868
2026-01-23 09:40:30.30	91.59	18.21	-40.1	-40.8	23.4	0.00e+00	0	42	0	955252736	52	3774
2026-01-23 09:40:31.31	91.46	18.32	-40.0	-40.8	23.4	0.00e+00	0	42	0	961544192	52	3760
2026-01-23 09:40:32.32	91.33	18.42	-40.0	-40.7	23.4	0.00e+00	0	43	0	966787072	52	3735
2026-01-23 09:40:33.33	91.19	18.52	-40.1	-40.9	23.4	0.00e+00	0	42	0	972029952	51	4005
2026-01-23 09:40:34.34	91.06	18.63	-40.1	-40.9	23.4	0.00e+00	0	42	0	978321408	51	4017
2026-01-23 09:40:35.35	90.93	18.73	-40.0	-40.8	23.5	0.00e+00	0	43	0	984612864	51	3990
2026-01-23 09:40:36.36	90.79	18.84	-40.1	-40.9	23.4	0.00e+00	0	43	0	989855744	51	4019
2026-01-23 09:40:37.36	90.66	18.94	-40.0	-40.8	23.5	0.00e+00	0	42	0	995098624	51	3961
2026-01-23 09:40:38.37	90.52	19.05	-40.2	-40.9	23.3	0.00e+00	0	42	0	1001390080	51	4049
2026-01-23 09:40:39.38	90.38	19.15	-40.0	-40.8	23.5	0.00e+00	0	42	0	1006632960	51	3972
2026-01-23 09:40:40.39	90.24	19.26	-40.1	-40.8	23.5	0.00e+00	0	42	0	1011875840	51	3998
2026-01-23 09:40:41.40	90.10	19.36	-40.1	-40.9	23.5	0.00e+00	0	43	0	1018167296	51	4005
2026-01-23 09:40:42.40	89.96	19.47	-39.9	-40.6	23.7	0.00e+00	0	43	0	1023410176	51	3897
2026-01-23 09:40:43.41	89.82	19.58	-39.9	-40.7	23.6	0.00e+00	0	42	0	1028653056	51	3926
2026-01-23 09:40:44.42	89.67	19.68	-40.0	-40.7	23.6	0.00e+00	0	43	0	1034944512	51	3945
2026-01-23 09:40:45.43	89.53	19.79	-39.8	-40.5	23.8	0.00e+00	0	42	0	1040187392	51	3866
2026-01-23 09:40:46.43	89.39	19.90	-39.7	-40.5	23.8	0.00e+00	0	43	0	1046478848	51	3834
2026-01-23 09:40:47.44	89.24	20.00	-39.7	-40.5	23.8	0.00e+00	0	43	0	1051721728	51	3838
2026-01-23 09:40:48.45	89.09	20.11	-39.7	-40.4	23.9	0.00e+00	0	42	0	1058013184	51	3816
2026-01-23 09:40:49.46	88.94	20.22	-39.7	-40.4	23.8	0.00e+00	0	42	0	1063256064	51	3816
2026-01-23 09:40:50.47	88.79	20.33	-39.6	-40.4	23.9	0.00e+00	0	42	0	1069547520	51	3793
2026-01-23 09:40:51.48	88.64	20.44	-39.7	-40.4	23.9	0.00e+00	0	42	0	1074790400	51	3813
2026-01-23 09:40:52.48	88.49	20.54	-39.6	-40.3	23.9	0.00e+00	0	42	0	1080033280	51	3773
2026-01-23 09:40:53.49	88.34	20.65	-39.6	-40.3	24.0	0.00e+00	0	42	0	1086324736	51	3753
2026-01-23 09:40:54.50	88.19	20.76	-39.7	-40.5	23.8	0.00e+00	0	42	0	1091567616	51	3837
2026-01-23 09:40:55.51	88.03	20.87	-39.7	-40.4	23.9	0.00e+00	0	42	0	1096810496	51	3820
2026-01-23 09:40:56.51	87.88	20.98	-39.7	-40.5	23.8	0.00e+00	0	42	0	1103101952	51	3835
2026-01-23 09:40:57.52	87.72	21.09	-39.8	-40.5	23.8	0.00e+00	0	43	0	1108344832	51	3859
2026-01-23 09:40:58.53	87.56	21.20	-39.6	-40.4	24.0	0.00e+00	0	43	0	1113587712	51	3782
2026-01-23 09:40:59.54	87.40	21.31	-39.5	-40.3	24.0	0.00e+00	0	42	0	1119879168	51	3752
2026-01-23 09:41:00.55	87.24	21.42	-39.4	-40.2	24.1	0.00e+00	0	43	0	1126170624	50	3924
2026-01-23 09:41:01.56	87.08	21.53	-39.3	-40.1	24.2	0.00e+00	0	42	0	1131413504	50	3874
2026-01-23 09:41:02.56	86.92	21.64	-39.4	-40.1	24.2	0.00e+00	0	42	0	1136656384	50	3898
2026-01-23 09:41:03.57	86.75	21.75	-39.1	-39.8	24.5	0.00e+00	0	42	0	1142947840	50	3750
2026-01-23 09:41:04.58	86.59	21.87	-39.1	-39.8	24.5	0.00e+00	0	42	0	1148190720	50	3749
2026-01-23 09:41:05.59	86.42	21.98	-38.9	-39.6	24.6	0.00e+00	0	42	0	1154482176	49	3905
2026-01-23 09:41:06.60	86.25	22.09	-39.1	-39.9	24.4	0.00e+00	0	42	0	1159725056	49	4007
2026-01-23 09:41:07.61	86.08	22.20	-39.2	-39.9	24.3	0.00e+00	0	42	0	1164967936	49	4050
2026-01-23 09:41:08.61	85.91	22.31	-39.3	-40.0	24.2	0.00e+00	0	42	0	1171259392	49	4095
2026-01-23 09:41:09.62	85.74	22.43	-39.2	-39.9	24.4	0.00e+00	0	43	0	1176502272	49	4032
2026-01-23 09:41:10.63	85.57	22.54	-39.1	-39.8	24.4	0.00e+00	0	42	0	1181745152	49	4000
2026-01-23 09:41:11.64	85.39	22.65	-39.1	-39.8	24.5	0.00e+00	0	42	0	1188036608	49	3968
2026-01-23 09:41:12.65	85.22	22.77	-39.0	-39.8	24.5	0.00e+00	0	43	0	1194328064	49	3959
2026-01-23 09:41:13.66	85.04	22.88	-39.0	-39.7	24.5	0.00e+00	0	43	0	1199570944	49	3957
2026-01-23 09:41:14.66	84.86	22.99	-39.0	-39.7	24.6	0.00e+00	0	43	0	1204813824	49	3933
2026-01-23 09:41:15.67	84.68	23.11	-39.0	-39.7	24.6	0.00e+00	0	43	0	1211105280	49	3943
2026-01-23 09:41:16.68	84.50	23.22	-39.0	-39.7	24.6	0.00e+00	0	43	0	1216348160	49	3930
2026-01-23 09:41:17.69	84.32	23.34	-38.9	-39.7	24.6	0.00e+00	0	43	0	1221591040	49	3922
2026-01-23 09:41:18.69	84.14	23.45	-38.9	-39.6	24.7	0.00e+00	0	42	0	1227882496	49	3885
2026-01-23 09:41:19.70	83.95	23.57	-39.0	-39.8	24.5	0.00e+00	0	42	0	1233125376	49	3964
2026-01-23 09:41:20.71	83.77	23.68	-39.0	-39.8	24.5	0.00e+00	0	42	0	1239416832	49	3961
2026-01-23 09:41:21.72	83.58	23.80	-39.0	-39.8	24.6	0.00e+00	0	43	0	1244659712	49	3962
2026-01-23 09:41:22.73	83.39	23.91	-39.0	-39.7	24.6	0.00e+00	0	42	0	1249902592	49	3945
2026-01-23 09:41:23.73	83.20	24.03	-39.0	-39.7	24.6	0.00e+00	0	43	0	1256194048	49	3954
2026-01-23 09:41:24.74	83.01	24.14	-39.0	-39.8	24.6	0.00e+00	0	43	0	1262485504	49	3964
2026-01-23 09:41:25.75	82.82	24.26	-38.9	-39.7	24.6	0.00e+00	0	43	0	1267728384	49	3915
2026-01-23 09:41:26.76	82.62	24.37	-38.8	-39.6	24.7	0.00e+00	0	43	0	1272971264	49	3872
2026-01-23 09:41:27.77	82.43	24.49	-38.8	-39.6	24.8	0.00e+00	0	42	0	1279262720	49	3869
2026-01-23 09:41:28.78	82.23	24.61	-38.8	-39.5	24.8	0.00e+00	0	43	0	1284505600	49	3843
2026-01-23 09:41:29.79	82.03	24.72	-38.7	-39.4	24.9	0.00e+00	0	43	0	1289748480	49	3792
2026-01-23 09:41:30.80	81.83	24.84	-38.8	-39.5	24.8	0.00e+00	0	43	0	1296039936	49	3842
2026-01-23 09:41:31.81	81.63	24.96	-38.6	-39.3	25.0	0.00e+00	0	42	0	1301282816	49	3779
2026-01-23 09:41:32.81	81.42	25.07	-38.6	-39.3	25.0	0.00e+00	0	42	0	1306525696	49	3759
2026-01-23 09:41:33.82	81.22	25.19	-38.6	-39.3	25.0	0.00e+00	0	42	0	1312817152	49	3762
2026-01-23 09:41:34.83	81.01	25.31	-38.5	-39.2	25.1	0.00e+00	0	42	0	1318060032	49	3712
2026-01-23 09:41:35.84	80.80	25.42	-38.6	-39.3	25.1	0.00e+00	0	43	0	1324351488	49	3739
2026-01-23 09:41:36.85	80.59	25.54	-38.6	-39.3	25.0	0.00e+00	0	43	0	1329594368	49	3753
2026-01-23 09:41:37.86	80.38	25.66	-38.7	-39.4	24.9	0.00e+00	0	43	0	1335885824	49	3819
2026-01-23 09:41:38.87	80.17	25.78	-38.9	-39.6	24.8	0.00e+00	0	42	0	1341128704	49	3889
2026-01-23 09:41:39.88	79.95	25.89	-38.9	-39.6	24.8	0.00e+00	0	43	0	1347420160	49	3881
2026-01-23 09:41:40.88	79.74	26.01	-38.8	-39.5	24.8	0.00e+00	0	43	0	1352663040	49	3866
2026-01-23 09:41:41.89	79.52	26.13	-38.8	-39.5	24.9	0.00e+00	0	42	0	1357905920	49	3842
2026-01-23 09:41:42.90	79.30	26.25	-38.8	-39.6	24.8	0.00e+00	0	42	0	1364197376	49	3870
2026-01-23 09:41:43.91	79.08	26.36	-38.7	-39.4	24.9	0.00e+00	0	42	0	1369440256	49	3814
2026-01-23 09:41:44.91	78.86	26.48	-38.6	-39.3	25.0	0.00e+00	0	42	0	1374683136	49	3780
2026-01-23 09:41:45.93	78.63	26.60	-38.5	-39.2	25.1	0.00e+00	0	42	0	1380974592	49	3734
2026-01-23 09:41:46.93	78.41	26.72	-38.4	-39.1	25.2	0.00e+00	0	42	0	1386217472	48	3884
2026-01-23 09:41:47.94	78.18	26.83	-38.4	-39.1	25.2	0.00e+00	0	42	0	1392508928	48	3874
2026-01-23 09:41:48.95	77.95	26.95	-38.3	-39.0	25.3	0.00e+00	0	42	0	1397751808	48	3856
2026-01-23 09:41:49.96	77.72	27.07	-38.4	-39.1	25.2	0.00e+00	0	42	0	1404043264	48	3877
2026-01-23 09:41:50.97	77.49	27.19	-38.5	-39.2	25.2	0.00e+00	0	43	0	1409286144	48	3923
2026-01-23 09:41:51.98	77.25	27.31	-38.5	-39.2	25.2	0.00e+00	0	42	0	1414529024	48	3930
2026-01-23 09:41:52.98	77.02	27.42	-38.5	-39.2	25.1	0.00e+00	0	43	0	1420820480	48	3942
2026-01-23 09:41:53.99	76.78	27.54	-38.6	-39.3	25.1	0.00e+00	0	43	0	1426063360	48	3967
2026-01-23 09:41:55.00	76.54	27.66	-38.5	-39.2	25.1	0.00e+00	0	42	0	1432354816	48	3945
2026-01-23 09:41:56.01	76.30	27.78	-38.3	-39.0	25.3	0.00e+00	0	43	0	1437597696	48	3865
2026-01-23 09:41:57.02	76.05	27.89	-38.4	-39.1	25.3	0.00e+00	0	42	0	1442840576	48	3871
2026-01-23 09:41:58.03	75.81	28.01	-38.2	-38.9	25.4	0.00e+00	0	42	0	1449132032	48	3812
2026-01-23 09:41:59.04	75.56	28.13	-38.2	-38.9	25.4	0.00e+00	0	43	0	1455423488	48	3792
2026-01-23 09:42:00.05	75.31	28.24	-38.3	-39.0	25.3	0.00e+00	0	42	0	1460666368	48	3860
2026-01-23 09:42:01.06	75.06	28.36	-38.4	-39.1	25.3	0.00e+00	0	42	0	1465909248	48	3874
2026-01-23 09:42:02.07	74.80	28.48	-38.5	-39.2	25.2	0.00e+00	0	42	0	1472200704	48	3932
2026-01-23 09:42:03.07	74.55	28.59	-38.4	-39.1	25.2	0.00e+00	0	43	0	1477443584	48	3905
2026-01-23 09:42:04.08	74.30	28.71	-38.3	-39.0	25.3	0.00e+00	0	42	0	1482686464	48	3845
2026-01-23 09:42:05.09	74.04	28.83	-38.3	-39.0	25.4	0.00e+00	0	43	0	1488977920	48	3834
2026-01-23 09:42:06.10	73.78	28.94	-38.3	-39.0	25.3	0.00e+00	0	42	0	1494220800	48	3867
2026-01-23 09:42:07.11	73.51	29.06	-38.4	-39.1	25.3	0.00e+00	0	42	0	1499463680	48	3881
2026-01-23 09:42:08.12	73.25	29.18	-38.4	-39.1	25.2	0.00e+00	0	42	0	1505755136	48	3903
2026-01-23 09:42:09.12	72.99	29.29	-38.3	-39.1	25.3	0.00e+00	0	43	0	1510998016	48	3869
2026-01-23 09:42:10.13	72.72	29.41	-38.2	-38.9	25.4	0.00e+00	0	43	0	1517289472	48	3789
2026-01-23 09:42:11.14	72.45	29.52	-38.1	-38.8	25.5	0.00e+00	0	42	0	1522532352	48	3775
2026-01-23 09:42:12.15	72.18	29.64	-38.2	-38.9	25.5	0.00e+00	0	43	0	1528823808	48	3781
2026-01-23 09:42:13.15	71.90	29.75	-38.1	-38.8	25.5	0.00e+00	0	43	0	1534066688	48	3777
2026-01-23 09:42:14.16	71.63	29.87	-38.2	-38.9	25.4	0.00e+00	0	43	0	1540358144	48	3807
2026-01-23 09:42:15.17	71.35	29.98	-38.2	-38.9	25.5	0.00e+00	0	42	0	1545601024	48	3789
2026-01-23 09:42:16.18	71.07	30.09	-38.2	-38.9	25.4	0.00e+00	0	42	0	1550843904	48	3817
2026-01-23 09:42:17.18	70.79	30.21	-38.2	-38.9	25.4	0.00e+00	0	42	0	1557135360	48	3816
2026-01-23 09:42:18.19	70.51	30.32	-38.3	-39.0	25.3	0.00e+00	0	42	0	1562378240	48	3863
2026-01-23 09:42:19.20	70.22	30.43	-38.3	-39.0	25.3	0.00e+00	0	42	0	1567621120	48	3864
2026-01-23 09:42:20.21	69.93	30.54	-38.2	-38.9	25.5	0.00e+00	0	43	0	1573912576	48	3787
2026-01-23 09:42:21.22	69.64	30.66	-38.1	-38.7	25.6	0.00e+00	0	43	0	1579155456	48	3729
2026-01-23 09:42:22.23	69.35	30.77	-37.5	-38.2	25.6	0.00e+00	0	42	0	1584398336	47	3710
2026-01-23 09:42:23.24	69.06	30.88	-37.6	-38.3	25.5	0.00e+00	0	42	0	1590689792	47	3738
2026-01-23 09:42:24.24	68.76	30.99	-37.7	-38.4	25.4	0.00e+00	0	43	0	1596981248	47	3788
2026-01-23 09:42:25.25	68.46	31.10	-37.6	-38.3	25.5	0.00e+00	0	42	0	1602224128	47	3744
2026-01-23 09:42:26.26	68.16	31.21	-37.7	-38.4	25.4	0.00e+00	0	42	0	1607467008	47	3797
2026-01-23 09:42:27.27	67.86	31.32	-37.6	-38.3	25.5	0.00e+00	0	42	0	1613758464	47	3753
2026-01-23 09:42:28.28	67.56	31.43	-37.6	-38.2	25.6	0.00e+00	0	42	0	1619001344	47	3735
2026-01-23 09:42:29.29	67.25	31.54	-37.5	-38.2	25.6	0.00e+00	0	42	0	1625292800	47	3728
2026-01-23 09:42:30.30	66.94	31.64	-37.5	-38.2	25.6	0.00e+00	0	42	0	1630535680	47	3705
2026-01-23 09:42:31.31	66.63	31.75	-37.4	-38.1	25.7	0.00e+00	0	43	0	1635778560	46	3896
2026-01-23 09:42:32.32	66.32	31.86	-37.3	-38.0	25.8	0.00e+00	0	42	0	1642070016	46	3827
2026-01-23 09:42:33.32	66.01	31.96	-37.3	-38.0	25.8	0.00e+00	0	43	0	1647312896	46	3826
2026-01-23 09:42:34.33	65.69	32.07	-37.3	-38.0	25.7	0.00e+00	0	42	0	1652555776	46	3852
2026-01-23 09:42:35.34	65.37	32.17	-37.4	-38.1	25.7	0.00e+00	0	42	0	1658847232	46	3905
2026-01-23 09:42:36.35	65.05	32.28	-37.5	-38.2	25.6	0.00e+00	0	42	0	1665138688	46	3929
2026-01-23 09:42:37.36	64.73	32.38	-37.4	-38.1	25.6	0.00e+00	0	42	0	1670381568	46	3903
2026-01-23 09:42:38.37	64.40	32.49	-37.4	-38.1	25.7	0.00e+00	0	42	0	1675624448	46	3904
2026-01-23 09:42:39.38	64.08	32.59	-37.4	-38.1	25.7	0.00e+00	0	42	0	1681915904	46	3881
2026-01-23 09:42:40.39	63.75	32.69	-37.4	-38.1	25.6	0.00e+00	0	42	0	1687158784	46	3910
2026-01-23 09:42:41.39	63.42	32.79	-37.5	-38.2	25.6	0.00e+00	0	42	0	1692401664	46	3950
2026-01-23 09:42:42.40	63.09	32.89	-37.5	-38.2	25.6	0.00e+00	0	42	0	1698693120	46	3954
2026-01-23 09:42:43.41	62.75	32.99	-37.5	-38.2	25.6	0.00e+00	0	42	0	1703936000	46	3944
2026-01-23 09:42:44.42	62.41	33.09	-37.5	-38.2	25.7	0.00e+00	0	42	0	1710227456	46	3920
2026-01-23 09:42:45.42	62.08	33.18	-37.6	-38.3	25.5	0.00e+00	0	42	0	1715470336	46	3965
2026-01-23 09:42:46.43	61.74	33.28	-37.5	-38.2	25.6	0.00e+00	0	42	0	1720713216	46	3936
2026-01-23 09:42:47.44	61.39	33.38	-37.6	-38.3	25.6	0.00e+00	0	42	0	1727004672	46	3962
2026-01-23 09:42:48.45	61.05	33.47	-37.5	-38.2	25.6	0.00e+00	0	42	0	1733296128	46	3928
2026-01-23 09:42:49.46	60.70	33.57	-37.4	-38.1	25.7	0.00e+00	0	42	0	1738539008	46	3896
2026-01-23 09:42:50.47	60.35	33.66	-37.4	-38.2	25.7	0.00e+00	0	42	0	1743781888	46	3914
2026-01-23 09:42:51.47	60.00	33.75	-37.4	-38.2	25.7	0.00e+00	0	42	0	1750073344	46	3916
2026-01-23 09:42:52.48	59.65	33.84	-37.4	-38.1	25.7	0.00e+00	0	42	0	1755316224	46	3895
2026-01-23 09:42:53.49	59.29	33.93	-37.4	-38.1	25.7	0.00e+00	0	42	0	1760559104	46	3912
2026-01-23 09:42:54.50	58.94	34.02	-37.4	-38.1	25.7	0.00e+00	0	42	0	1766850560	46	3894
2026-01-23 09:42:55.51	58.58	34.11	-37.2	-37.9	25.9	0.00e+00	0	42	0	1772093440	46	3815
2026-01-23 09:42:56.52	58.21	34.20	-37.2	-37.9	25.9	0.00e+00	0	42	0	1777336320	46	3785
2026-01-23 09:42:57.52	57.85	34.28	-37.3	-38.0	25.8	0.00e+00	0	42	0	1783627776	46	3835
2026-01-23 09:42:58.53	57.49	34.37	-37.5	-38.2	25.7	0.00e+00	0	42	0	1788870656	46	3928
2026-01-23 09:42:59.54	57.12	34.45	-37.4	-38.1	25.7	0.00e+00	0	42	0	1795162112	46	3895
2026-01-23 09:43:00.55	56.75	34.53	-37.3	-38.0	25.8	0.00e+00	0	42	0	1800404992	46	3838
2026-01-23 09:43:01.56	56.38	34.62	-37.4	-38.1	25.8	0.00e+00	0	42	0	1806696448	46	3871
2026-01-23 09:43:02.56	56.01	34.70	-37.2	-37.9	25.9	0.00e+00	0	42	0	1811939328	46	3803
2026-01-23 09:43:03.57	55.64	34.77	-37.3	-38.0	25.8	0.00e+00	0	42	0	1818230784	46	3854
2026-01-23 09:43:04.58	55.26	34.85	-37.4	-38.1	25.8	0.00e+00	0	42	0	1823473664	46	3889
2026-01-23 09:43:05.59	54.88	34.93	-37.4	-38.1	25.7	0.00e+00	0	42	0	1828716544	46	3898
2026-01-23 09:43:06.60	54.50	35.01	-37.3	-38.0	25.9	0.00e+00	0	42	0	1835008000	46	3828
2026-01-23 09:43:07.60	54.13	35.08	-37.1	-37.8	26.0	0.00e+00	0	42	0	1840250880	46	3739
2026-01-23 09:43:08.61	53.74	35.15	-37.1	-37.7	26.1	0.00e+00	0	42	0	1845493760	46	3729
2026-01-23 09:43:09.62	53.36	35.22	-37.1	-37.7	26.1	0.00e+00	0	42	0	1851785216	46	3734
2026-01-23 09:43:10.63	52.97	35.30	-37.2	-37.8	26.0	0.00e+00	0	42	0	1857028096	46	3780
2026-01-23 09:43:11.64	52.58	35.36	-37.1	-37.8	26.0	0.00e+00	0	42	0	1862270976	46	3767
2026-01-23 09:43:12.64	52.19	35.43	-37.1	-37.7	26.1	0.00e+00	0	42	0	1868562432	46	3736
2026-01-23 09:43:13.65	51.80	35.50	-37.2	-37.8	26.0	0.00e+00	0	42	0	1874853888	46	3778
2026-01-23 09:43:14.66	51.41	35.56	-37.3	-38.0	25.9	0.00e+00	0	43	0	1880096768	46	3839
2026-01-23 09:43:15.67	51.01	35.63	-37.4	-38.1	25.8	0.00e+00	0	43	0	1885339648	46	3888
2026-01-23 09:43:16.68	50.62	35.69	-37.3	-38.0	25.8	0.00e+00	0	42	0	1891631104	46	3849
2026-01-23 09:43:17.69	50.22	35.75	-37.4	-38.1	25.8	0.00e+00	0	43	0	1896873984	46	3890
2026-01-23 09:43:18.70	49.82	35.81	-37.4	-38.1	25.8	0.00e+00	0	42	0	1903165440	46	3887
2026-01-23 09:43:19.71	49.42	35.87	-37.5	-38.2	25.7	0.00e+00	0	42	0	1908408320	46	3914
2026-01-23 09:43:20.71	49.02	35.92	-37.4	-38.1	25.7	0.00e+00	0	43	0	1913651200	46	3910
2026-01-23 09:43:21.72	48.62	35.98	-37.5	-38.2	25.7	0.00e+00	0	42	0	1919942656	46	3931
2026-01-23 09:43:22.73	48.21	36.03	-37.6	-38.2	25.6	0.00e+00	0	43	0	1925185536	46	3958
2026-01-23 09:43:23.74	47.81	36.08	-37.5	-38.2	25.7	0.00e+00	0	43	0	1931476992	46	3915
2026-01-23 09:43:24.75	47.40	36.13	-37.4	-38.1	25.8	0.00e+00	0	42	0	1936719872	46	3883
2026-01-23 09:43:25.76	46.99	36.18	-37.5	-38.2	25.7	0.00e+00	0	43	0	1943011328	46	3927
2026-01-23 09:43:26.77	46.58	36.23	-37.5	-38.1	25.7	0.00e+00	0	42	0	1948254208	46	3909
2026-01-23 09:43:27.78	46.17	36.27	-37.3	-38.0	25.9	0.00e+00	0	43	0	1953497088	46	3832
2026-01-23 09:43:28.78	45.76	36.32	-37.2	-37.9	26.0	0.00e+00	0	42	0	1959788544	46	3784
2026-01-23 09:43:29.79	45.35	36.36	-37.4	-38.1	25.8	0.00e+00	0	42	0	1965031424	46	3900
2026-01-23 09:43:30.80	44.93	36.40	-37.7	-38.4	25.5	0.00e+00	0	43	0	1970274304	46	4026
2026-01-23 09:43:31.81	44.52	36.44	-37.8	-38.5	25.4	0.00e+00	0	42	0	1976565760	46	4080
2026-01-23 09:43:32.82	44.10	36.47	-37.7	-38.4	25.5	0.00e+00	0	42	0	1981808640	46	4029
2026-01-23 09:43:33.83	43.68	36.51	-37.7	-38.4	25.5	0.00e+00	0	42	0	1988100096	46	4045
2026-01-23 09:43:34.83	43.27	36.54	-37.7	-38.4	25.5	0.00e+00	0	42	0	1993342976	46	4033
2026-01-23 09:43:35.84	42.85	36.58	-37.6	-38.3	25.6	0.00e+00	0	43	0	1999634432	46	3985
2026-01-23 09:43:36.85	42.43	36.61	-37.3	-38.0	25.9	0.00e+00	0	42	0	2004877312	46	3846
2026-01-23 09:43:37.86	42.01	36.63	-37.4	-38.1	25.8	0.00e+00	0	42	0	2011168768	46	3892
2026-01-23 09:43:38.87	41.59	36.66	-37.4	-38.1	25.8	0.00e+00	0	42	0	2016411648	46	3879
2026-01-23 09:43:39.88	41.16	36.69	-37.5	-38.2	25.7	0.00e+00	0	43	0	2021654528	46	3939
2026-01-23 09:43:40.88	40.75	36.71	-37.3	-38.0	25.8	0.00e+00	0	42	0	2027945984	46	3853
2026-01-23 09:43:41.89	40.32	36.73	-37.4	-38.1	25.8	0.00e+00	0	42	0	2033188864	46	3871
2026-01-23 09:43:42.90	39.90	36.75	-37.3	-38.0	25.9	0.00e+00	0	42	0	2038431744	46	3830
2026-01-23 09:43:43.91	39.47	36.77	-37.4	-38.1	25.8	0.00e+00	0	43	0	2044723200	46	3872
2026-01-23 09:43:44.92	39.05	36.78	-37.5	-38.2	25.7	0.00e+00	0	43	0	2049966080	46	3923
2026-01-23 09:43:45.92	38.63	36.80	-37.3	-38.0	25.8	0.00e+00	0	43	0	2055208960	46	3853
2026-01-23 09:43:46.93	38.20	36.81	-37.2	-37.9	25.9	0.00e+00	0	42	0	2061500416	46	3801
2026-01-23 09:43:47.94	37.78	36.82	-37.3	-38.0	25.9	0.00e+00	0	42	0	2067791872	46	3832
2026-01-23 09:43:48.95	37.35	36.83	-37.4	-38.1	25.8	0.00e+00	0	43	0	2073034752	46	3908
2026-01-23 09:43:49.96	36.93	36.84	-37.5	-38.2	25.7	0.00e+00	0	42	0	2078277632	46	3944
2026-01-23 09:43:50.96	36.50	36.84	-37.5	-38.2	25.7	0.00e+00	0	43	0	2084569088	46	3955
2026-01-23 09:43:51.97	36.08	36.85	-37.3	-38.0	25.8	0.00e+00	0	43	0	2089811968	46	3861
2026-01-23 09:43:52.98	35.65	36.85	-37.3	-38.0	25.9	0.00e+00	0	42	0	2096103424	46	3840
2026-01-23 09:43:53.99	35.22	36.85	-37.3	-37.9	25.9	0.00e+00	0	43	0	2101346304	46	3821
2026-01-23 09:43:55.00	34.80	36.85	-37.3	-38.0	25.9	0.00e+00	0	42	0	2106589184	46	3833
2026-01-23 09:43:56.01	34.37	36.84	-37.3	-38.0	25.9	0.00e+00	0	42	0	2112880640	46	3831
2026-01-23 09:43:57.02	33.94	36.84	-37.2	-37.9	26.0	0.00e+00	0	42	0	2118123520	46	3810
2026-01-23 09:43:58.02	33.52	36.83	-37.3	-37.9	25.9	0.00e+00	0	43	0	2123366400	46	3822
2026-01-23 09:43:59.03	33.10	36.82	-37.3	-38.0	25.9	0.00e+00	0	42	0	2129657856	46	3850
2026-01-23 09:44:00.04	32.67	36.81	-37.3	-38.0	25.9	0.00e+00	0	42	0	2135949312	46	3847
2026-01-23 09:44:01.05	32.25	36.80	-37.2	-37.9	26.0	0.00e+00	0	42	0	2141192192	46	3797
2026-01-23 09:44:02.06	31.82	36.78	-37.2	-37.8	26.0	0.00e+00	0	42	0	2146435072	46	3779
2026-01-23 09:44:03.07	31.40	36.77	-37.1	-37.8	26.0	0.00e+00	0	43	0	2152726528	46	3764
2026-01-23 09:44:04.08	30.97	36.75	-37.1	-37.8	26.1	0.00e+00	0	42	0	2157969408	46	3761
2026-01-23 09:44:05.08	30.55	36.73	-37.2	-37.9	26.0	0.00e+00	0	43	0	2163212288	46	3804
2026-01-23 09:44:06.09	30.13	36.71	-37.3	-38.1	25.8	0.00e+00	0	43	0	2169503744	46	3869
2026-01-23 09:44:07.10	29.71	36.69	-37.2	-37.9	25.9	0.00e+00	0	42	0	2174746624	46	3814
2026-01-23 09:44:08.11	29.28	36.66	-37.3	-38.0	25.9	0.00e+00	0	43	0	2181038080	46	3826
2026-01-23 09:44:09.12	28.86	36.63	-37.3	-37.9	25.9	0.00e+00	0	42	0	2186280960	46	3822
2026-01-23 09:44:10.13	28.44	36.60	-37.3	-38.0	25.8	0.00e+00	0	42	0	2191523840	46	3838
2026-01-23 09:44:11.13	28.03	36.57	-37.4	-38.1	25.8	0.00e+00	0	42	0	2197815296	46	3874
2026-01-23 09:44:12.14	27.61	36.54	-37.4	-38.1	25.8	0.00e+00	0	42	0	2204106752	46	3896
2026-01-23 09:44:13.15	27.19	36.51	-37.3	-38.0	25.9	0.00e+00	0	42	0	2209349632	46	3829
2026-01-23 09:44:14.16	26.77	36.47	-37.1	-37.8	26.0	0.00e+00	0	43	0	2214592512	46	3774
2026-01-23 09:44:15.17	26.36	36.44	-37.1	-37.8	26.0	0.00e+00	0	42	0	2220883968	46	3759
2026-01-23 09:44:16.17	25.95	36.40	-37.1	-37.8	26.0	0.00e+00	0	43	0	2226126848	46	3765
2026-01-23 09:44:17.18	25.53	36.36	-37.1	-37.7	26.1	0.00e+00	0	43	0	2231369728	46	3737
2026-01-23 09:44:18.19	25.12	36.32	-37.0	-37.6	26.2	0.00e+00	0	42	0	2237661184	45	3910
2026-01-23 09:44:19.20	24.71	36.27	-36.8	-37.5	26.2	0.00e+00	0	42	0	2242904064	45	3862
2026-01-23 09:44:20.21	24.30	36.23	-36.8	-37.5	26.3	0.00e+00	0	42	0	2248146944	45	3841
2026-01-23 09:44:21.22	23.89	36.18	-37.0	-37.7	26.1	0.00e+00	0	43	0	2254438400	45	3929
2026-01-23 09:44:22.22	23.48	36.13	-37.0	-37.7	26.1	0.00e+00	0	42	0	2259681280	45	3950
2026-01-23 09:44:23.23	23.07	36.08	-37.2	-37.9	26.0	0.00e+00	0	42	0	2265972736	45	4012
2026-01-23 09:44:24.24	22.67	36.03	-37.1	-37.8	26.0	0.00e+00	0	42	0	2271215616	45	3979
2026-01-23 09:44:25.25	22.26	35.98	-37.1	-37.8	26.0	0.00e+00	0	42	0	2277507072	45	3977
2026-01-23 09:44:26.26	21.86	35.92	-37.2	-37.9	26.0	0.00e+00	0	42	0	2282749952	45	4013
2026-01-23 09:44:27.27	21.46	35.86	-37.2	-37.8	26.0	0.00e+00	0	42	0	2289041408	45	3998
2026-01-23 09:44:28.27	21.06	35.81	-37.1	-37.8	26.0	0.00e+00	0	42	0	2294284288	45	3978
2026-01-23 09:44:29.28	20.66	35.75	-37.2	-37.9	25.9	0.00e+00	0	43	0	2299527168	45	4023
2026-01-23 09:44:30.29	20.26	35.69	-37.3	-38.0	25.9	0.00e+00	0	43	0	2305818624	45	4076
2026-01-23 09:44:31.30	19.87	35.63	-37.2	-37.9	25.9	0.00e+00	0	43	0	2311061504	45	4025
2026-01-23 09:44:32.31	19.47	35.56	-36.9	-37.6	26.2	0.00e+00	0	43	0	2316304384	45	3879
2026-01-23 09:44:33.32	19.08	35.50	-36.8	-37.4	26.3	0.00e+00	0	43	0	2322595840	45	3819
2026-01-23 09:44:34.32	18.69	35.43	-36.8	-37.5	26.3	0.00e+00	0	42	0	2327838720	45	3839
2026-01-23 09:44:35.33	18.30	35.36	-36.9	-37.6	26.2	0.00e+00	0	43	0	2333081600	45	3898
2026-01-23 09:44:36.34	17.92	35.29	-37.0	-37.6	26.2	0.00e+00	0	42	0	2339373056	45	3913
2026-01-23 09:44:37.35	17.53	35.22	-36.8	-37.5	26.3	0.00e+00	0	43	0	2345664512	45	3858
2026-01-23 09:44:38.36	17.14	35.15	-36.8	-37.5	26.3	0.00e+00	0	42	0	2350907392	45	3845
2026-01-23 09:44:39.36	16.76	35.08	-36.9	-37.6	26.2	0.00e+00	0	42	0	2356150272	45	3881
2026-01-23 09:44:40.37	16.38	35.00	-36.9	-37.6	26.3	0.00e+00	0	43	0	2362441728	45	3872
2026-01-23 09:44:41.38	16.00	34.93	-37.0	-37.6	26.2	0.00e+00	0	43	0	2367684608	45	3904
2026-01-23 09:44:42.39	15.63	34.85	-37.1	-37.8	26.1	0.00e+00	0	43	0	2373976064	45	3962
2026-01-23 09:44:43.39	15.25	34.77	-37.3	-38.0	25.8	0.00e+00	0	42	0	2379218944	45	4079
2026-01-23 09:44:44.40	14.88	34.70	-37.2	-37.9	26.0	0.00e+00	0	42	0	2384461824	45	4030
2026-01-23 09:44:45.41	14.51	34.61	-37.2	-37.9	26.0	0.00e+00	0	43	0	2390753280	45	4017
2026-01-23 09:44:46.42	14.14	34.53	-37.3	-38.0	25.9	0.00e+00	0	42	0	2395996160	45	4056
2026-01-23 09:44:47.43	13.77	34.45	-37.1	-37.8	26.0	0.00e+00	0	43	0	2401239040	45	3975
2026-01-23 09:44:48.44	13.40	34.37	-36.9	-37.6	26.2	0.00e+00	0	43	0	2407530496	45	3873
2026-01-23 09:44:49.45	13.04	34.28	-36.8	-37.5	26.2	0.00e+00	0	42	0	2413821952	45	3849
2026-01-23 09:44:50.45	12.68	34.20	-36.9	-37.6	26.2	0.00e+00	0	43	0	2419064832	45	3888
2026-01-23 09:44:51.46	12.32	34.11	-36.9	-37.5	26.2	0.00e+00	0	42	0	2424307712	45	3861
2026-01-23 09:44:52.47	11.96	34.02	-36.9	-37.6	26.2	0.00e+00	0	42	0	2430599168	45	3888
2026-01-23 09:44:53.48	11.60	33.93	-36.9	-37.5	26.2	0.00e+00	0	42	0	2435842048	45	3867
2026-01-23 09:44:54.49	11.25	33.84	-36.8	-37.5	26.3	0.00e+00	0	43	0	2441084928	45	3850
2026-01-23 09:44:55.50	10.89	33.75	-36.7	-37.3	26.4	0.00e+00	0	43	0	2447376384	45	3776
2026-01-23 09:44:56.51	10.54	33.66	-36.8	-37.5	26.3	0.00e+00	0	42	0	2452619264	45	3825
2026-01-23 09:44:57.52	10.19	33.56	-36.8	-37.5	26.2	0.00e+00	0	43	0	2458910720	45	3849
2026-01-23 09:44:58.52	9.85	33.47	-36.8	-37.5	26.3	0.00e+00	0	42	0	2464153600	45	3847
2026-01-23 09:44:59.53	9.50	33.38	-36.8	-37.4	26.3	0.00e+00	0	43	0	2469396480	45	3816
2026-01-23 09:45:00.54	9.16	33.28	-36.8	-37.5	26.3	0.00e+00	0	43	0	2475687936	45	3857
2026-01-23 09:45:01.55	8.82	33.18	-36.9	-37.6	26.2	0.00e+00	0	42	0	2481979392	45	3904
2026-01-23 09:45:02.56	8.48	33.09	-37.1	-37.8	26.1	0.00e+00	0	42	0	2487222272	45	3976
2026-01-23 09:45:03.57	8.14	32.99	-37.0	-37.7	26.1	0.00e+00	0	43	0	2492465152	45	3931
2026-01-23 09:45:04.57	7.81	32.89	-37.0	-37.7	26.1	0.00e+00	0	42	0	2498756608	45	3936
2026-01-23 09:45:05.58	7.48	32.79	-37.0	-37.7	26.1	0.00e+00	0	43	0	2503999488	45	3916
2026-01-23 09:45:06.59	7.15	32.69	-37.0	-37.7	26.1	0.00e+00	0	43	0	2509242368	45	3951
2026-01-23 09:45:07.59	6.82	32.59	-37.1	-37.8	26.0	0.00e+00	0	43	0	2515533824	45	3978
2026-01-23 09:45:08.61	6.49	32.49	-37.2	-37.8	26.0	0.00e+00	0	43	0	2520776704	45	4004
2026-01-23 09:45:09.61	6.17	32.38	-37.1	-37.8	26.0	0.00e+00	0	42	0	2526019584	45	3968
2026-01-23 09:45:10.62	5.85	32.28	-37.0	-37.7	26.1	0.00e+00	0	42	0	2532311040	45	3946
2026-01-23 09:45:11.63	5.53	32.18	-37.1	-37.8	26.0	0.00e+00	0	42	0	2537553920	45	3988
2026-01-23 09:45:12.63	5.22	32.07	-37.1	-37.8	26.0	0.00e+00	0	43	0	2543845376	45	3980
2026-01-23 09:45:13.64	4.90	31.97	-37.2	-37.9	25.9	0.00e+00	0	43	0	2549088256	45	4013
2026-01-23 09:45:14.65	4.59	31.86	-37.1	-37.8	26.0	0.00e+00	0	43	0	2555379712	45	3981
2026-01-23 09:45:15.66	4.27	31.75	-37.2	-37.9	25.9	0.00e+00	0	42	0	2560622592	45	4038
2026-01-23 09:45:16.67	3.96	31.65	-37.4	-38.1	25.7	0.00e+00	0	42	0	2566914048	45	4117
2026-01-23 09:45:17.67	3.66	31.54	-37.3	-38.0	25.8	0.00e+00	0	42	0	2572156928	45	4058
2026-01-23 09:45:18.68	3.35	31.43	-37.2	-37.8	25.9	0.00e+00	0	43	0	2577399808	45	4000
2026-01-23 09:45:19.69	3.05	31.32	-37.1	-37.8	26.0	0.00e+00	0	43	0	2583691264	45	3975
2026-01-23 09:45:20.70	2.75	31.21	-37.2	-37.8	26.0	0.00e+00	0	42	0	2588934144	45	4004
2026-01-23 09:45:21.71	2.45	31.11	-37.2	-37.9	25.9	0.00e+00	0	42	0	2594177024	45	4033
2026-01-23 09:45:22.72	2.15	30.99	-37.3	-38.0	25.8	0.00e+00	0	42	0	2600468480	45	4064
2026-01-23 09:45:23.73	1.85	30.88	-37.2	-37.9	25.9	0.00e+00	0	43	0	2605711360	45	4013
2026-01-23 09:45:24.74	1.56	30.77	-37.1	-37.7	26.1	0.00e+00	0	43	0	2610954240	45	3954
2026-01-23 09:45:25.74	1.27	30.66	-37.2	-37.8	26.0	0.00e+00	0	42	0	2617245696	45	3993
2026-01-23 09:45:26.75	0.98	30.55	-37.1	-37.8	26.0	0.00e+00	0	42	0	2623537152	45	3978
2026-01-23 09:45:27.76	0.70	30.44	-37.3	-38.0	25.8	0.00e+00	0	42	0	2628780032	45	4082
2026-01-23 09:45:28.77	0.41	30.33	-37.5	-38.2	25.7	0.00e+00	0	42	0	2634022912	45	4153
2026-01-23 09:45:29.78	0.13	30.21	-37.4	-38.1	25.7	0.00e+00	0	42	0	2640314368	45	4115
2026-01-23 09:45:30.79	359.84	30.10	-37.4	-38.1	25.7	0.00e+00	0	43	0	2645557248	45	4120
2026-01-23 09:45:31.80	359.57	29.99	-37.4	-38.1	25.8	0.00e+00	0	43	0	2651848704	45	4102
2026-01-23 09:45:32.80	359.29	29.87	-37.1	-37.8	25.9	0.00e+00	0	42	0	2657091584	45	4002
2026-01-23 09:45:33.81	359.02	29.76	-37.0	-37.7	26.0	0.00e+00	0	42	0	2662334464	45	3947
2026-01-23 09:45:34.82	358.74	29.64	-37.0	-37.7	26.1	0.00e+00	0	43	0	2668625920	45	3920
2026-01-23 09:45:35.82	358.47	29.53	-37.0	-37.6	26.1	0.00e+00	0	42	0	2673868800	45	3911
2026-01-23 09:45:36.83	358.20	29.42	-37.0	-37.7	26.1	0.00e+00	0	42	0	2679111680	45	3923
2026-01-23 09:45:37.84	357.94	29.30	-37.2	-37.9	25.9	0.00e+00	0	43	0	2685403136	45	4023
2026-01-23 09:45:38.85	357.67	29.18	-37.3	-38.0	25.8	0.00e+00	0	43	0	2691694592	45	4058
2026-01-23 09:45:39.86	357.41	29.07	-37.4	-38.1	25.7	0.00e+00	0	42	0	2696937472	45	4129
2026-01-23 09:45:40.87	357.14	28.95	-37.4	-38.1	25.7	0.00e+00	0	42	0	2702180352	45	4129
2026-01-23 09:45:41.87	356.89	28.84	-37.3	-38.0	25.8	0.00e+00	0	42	0	2708471808	45	4090
2026-01-23 09:45:42.88	356.63	28.72	-37.4	-38.1	25.7	0.00e+00	0	42	0	2713714688	45	4103
2026-01-23 09:45:43.89	356.37	28.60	-37.4	-38.1	25.7	0.00e+00	0	43	0	2718957568	45	4119
2026-01-23 09:45:44.90	356.12	28.49	-37.5	-38.1	25.7	0.00e+00	0	42	0	2725249024	45	4144
2026-01-23 09:45:45.91	355.87	28.37	-37.6	-38.3	25.6	0.00e+00	0	42	0	2730491904	45	4205
2026-01-23 09:45:46.91	355.62	28.26	-37.5	-38.2	25.6	0.00e+00	0	42	0	2736783360	45	4175
2026-01-23 09:45:47.92	355.37	28.14	-37.4	-38.1	25.7	0.00e+00	0	43	0	2742026240	45	4139
2026-01-23 09:45:48.93	355.12	28.02	-37.5	-38.2	25.6	0.00e+00	0	43	0	2747269120	45	4158
2026-01-23 09:45:49.94	354.88	27.90	-37.5	-38.2	25.6	0.00e+00	0	43	0	2753560576	45	4164
2026-01-23 09:45:50.95	354.63	27.79	-37.6	-38.3	25.5	0.00e+00	0	42	0	2759852032	45	4200
2026-01-23 09:45:51.96	354.39	27.67	-37.7	-38.4	25.4	0.00e+00	0	42	0	2765094912	45	4280
2026-01-23 09:45:52.96	354.15	27.55	-37.7	-38.4	25.4	0.00e+00	0	42	0	2770337792	46	4041
2026-01-23 09:45:53.97	353.92	27.44	-37.9	-38.6	25.3	0.00e+00	0	43	0	2776629248	46	4107
2026-01-23 09:45:54.98	353.68	27.32	-37.9	-38.6	25.3	0.00e+00	0	43	0	2781872128	46	4128
2026-01-23 09:45:55.99	353.45	27.20	-37.8	-38.5	25.3	0.00e+00	0	43	0	2787115008	46	4092
2026-01-23 09:45:56.99	353.22	27.08	-37.7	-38.4	25.4	0.00e+00	0	43	0	2793406464	46	4041
2026-01-23 09:45:58.00	352.98	26.97	-37.8	-38.5	25.3	0.00e+00	0	42	0	2798649344	46	4085
2026-01-23 09:45:59.01	352.76	26.85	-37.9	-38.6	25.3	0.00e+00	0	43	0	2803892224	46	4110
2026-01-23 09:46:00.02	352.53	26.73	-37.8	-38.5	25.3	0.00e+00	0	43	0	2810183680	46	4091
2026-01-23 09:46:01.02	352.30	26.61	-37.7	-38.4	25.4	0.00e+00	0	42	0	2815426560	46	4026
2026-01-23 09:46:02.03	352.08	26.50	-37.7	-38.4	25.4	0.00e+00	0	43	0	2821718016	46	4025
2026-01-23 09:46:03.04	351.86	26.38	-37.7	-38.4	25.4	0.00e+00	0	42	0	2826960896	46	4034
2026-01-23 09:46:04.05	351.64	26.26	-37.9	-38.6	25.3	0.00e+00	0	43	0	2833252352	46	4131
2026-01-23 09:46:05.06	351.42	26.14	-38.0	-38.7	25.2	0.00e+00	0	43	0	2838495232	46	4173
2026-01-23 09:46:06.06	351.20	26.03	-38.0	-38.7	25.1	0.00e+00	0	42	0	2844786688	46	4180
2026-01-23 09:46:07.07	350.99	25.91	-38.0	-38.7	25.1	0.00e+00	0	42	0	2850029568	46	4190
2026-01-23 09:46:08.08	350.77	25.79	-38.0	-38.7	25.1	0.00e+00	0	42	0	2855272448	46	4152
2026-01-23 09:46:09.09	350.56	25.68	-38.0	-38.7	25.1	0.00e+00	0	43	0	2861563904	46	4167
2026-01-23 09:46:10.09	350.35	25.56	-37.9	-38.6	25.3	0.00e+00	0	43	0	2866806784	46	4130
2026-01-23 09:46:11.10	350.14	25.44	-38.0	-38.7	25.1	0.00e+00	0	43	0	2872049664	46	4178
2026-01-23 09:46:12.11	349.93	25.33	-38.0	-38.7	25.1	0.00e+00	0	42	0	2878341120	46	4180
2026-01-23 09:46:13.12	349.73	25.21	-38.1	-38.8	25.0	0.00e+00	0	43	0	2883584000	46	4237
2026-01-23 09:46:14.13	349.52	25.09	-38.1	-38.8	25.1	0.00e+00	0	42	0	2888826880	47	4000
2026-01-23 09:46:15.14	349.32	24.98	-38.1	-38.8	25.1	0.00e+00	0	43	0	2895118336	47	3974
2026-01-23 09:46:16.14	349.12	24.86	-38.2	-38.9	25.0	0.00e+00	0	42	0	2901409792	47	4028
2026-01-23 09:46:17.15	348.92	24.74	-38.2	-38.9	25.0	0.00e+00	0	43	0	2906652672	47	4048
2026-01-23 09:46:18.16	348.72	24.63	-38.3	-39.0	24.9	0.00e+00	0	43	0	2911895552	47	4069
2026-01-23 09:46:19.17	348.52	24.51	-38.4	-39.1	24.8	0.00e+00	0	43	0	2918187008	47	4122
2026-01-23 09:46:20.17	348.33	24.40	-38.4	-39.1	24.8	0.00e+00	0	42	0	2923429888	47	4137
2026-01-23 09:46:21.18	348.13	24.28	-38.4	-39.2	24.8	0.00e+00	0	43	0	2929721344	47	4152
2026-01-23 09:46:22.19	347.94	24.17	-38.4	-39.1	24.8	0.00e+00	0	43	0	2934964224	47	4135
2026-01-23 09:46:23.20	347.75	24.05	-38.4	-39.2	24.8	0.00e+00	0	42	0	2940207104	47	4148
2026-01-23 09:46:24.20	347.56	23.94	-38.3	-39.0	24.9	0.00e+00	0	42	0	2946498560	47	4088
2026-01-23 09:46:25.21	347.37	23.82	-38.3	-39.0	24.9	0.00e+00	0	42	0	2951741440	47	4066
2026-01-23 09:46:26.22	347.18	23.71	-38.2	-39.0	24.9	0.00e+00	0	43	0	2956984320	47	4053
2026-01-23 09:46:27.23	347.00	23.59	-38.2	-38.9	24.9	0.00e+00	0	42	0	2963275776	47	4044
2026-01-23 09:46:28.24	346.81	23.48	-38.2	-38.9	25.0	0.00e+00	0	42	0	2968518656	47	4020
2026-01-23 09:46:29.24	346.63	23.36	-38.3	-39.0	24.9	0.00e+00	0	42	0	2974810112	47	4072
2026-01-23 09:46:30.25	346.45	23.25	-38.1	-38.8	25.1	0.00e+00	0	43	0	2980052992	47	3981
2026-01-23 09:46:31.26	346.27	23.13	-38.1	-38.8	25.0	0.00e+00	0	42	0	2986344448	47	3984
2026-01-23 09:46:32.27	346.09	23.02	-38.2	-38.9	25.0	0.00e+00	0	42	0	2991587328	47	4022
2026-01-23 09:46:33.27	345.92	22.91	-38.1	-38.8	25.1	0.00e+00	0	42	0	2996830208	47	3969
2026-01-23 09:46:34.28	345.74	22.79	-38.2	-38.9	24.9	0.00e+00	0	42	0	3003121664	47	4047
2026-01-23 09:46:35.29	345.56	22.68	-38.2	-38.9	24.9	0.00e+00	0	42	0	3008364544	47	4038
2026-01-23 09:46:36.30	345.39	22.57	-38.2	-38.9	24.9	0.00e+00	0	42	0	3014656000	47	4042
2026-01-23 09:46:37.31	345.22	22.45	-38.1	-38.8	25.0	0.00e+00	0	43	0	3019898880	47	4000
2026-01-23 09:46:38.31	345.05	22.34	-38.1	-38.8	25.0	0.00e+00	0	42	0	3025141760	47	3984
2026-01-23 09:46:39.32	344.88	22.23	-38.1	-38.9	25.0	0.00e+00	0	42	0	3031433216	47	4013
2026-01-23 09:46:40.33	344.71	22.12	-38.2	-38.9	24.9	0.00e+00	0	43	0	3036676096	47	4050
2026-01-23 09:46:41.34	344.54	22.01	-38.4	-39.2	24.7	0.00e+00	0	42	0	3042967552	47	4160
2026-01-23 09:46:42.35	344.37	21.89	-38.4	-39.1	24.8	0.00e+00	0	42	0	3048210432	47	4128
2026-01-23 09:46:43.36	344.21	21.78	-38.4	-39.2	24.7	0.00e+00	0	42	0	3054501888	47	4160
2026-01-23 09:46:44.36	344.05	21.67	-38.5	-39.2	24.6	0.00e+00	0	43	0	3059744768	47	4169
2026-01-23 09:46:45.37	343.88	21.56	-38.5	-39.2	24.6	0.00e+00	0	42	0	3064987648	47	4176
2026-01-23 09:46:46.38	343.72	21.45	-38.5	-39.2	24.6	0.00e+00	0	42	0	3071279104	47	4176
2026-01-23 09:46:47.39	343.56	21.34	-38.5	-39.3	24.6	0.00e+00	0	42	0	3076521984	47	4205
2026-01-23 09:46:48.39	343.40	21.23	-38.6	-39.3	24.5	0.00e+00	0	43	0	3081764864	47	4232
2026-01-23 09:46:49.40	343.25	21.12	-38.6	-39.3	24.6	0.00e+00	0	42	0	3088056320	47	4212
2026-01-23 09:46:50.41	343.09	21.01	-38.5	-39.2	24.6	0.00e+00	0	43	0	3093299200	47	4184
2026-01-23 09:46:51.42	342.93	20.90	-38.5	-39.3	24.6	0.00e+00	0	43	0	3099590656	47	4198
2026-01-23 09:46:52.42	342.78	20.79	-38.4	-39.1	24.7	0.00e+00	0	42	0	3104833536	47	4131
2026-01-23 09:46:53.43	342.63	20.68	-38.4	-39.1	24.7	0.00e+00	0	43	0	3110076416	47	4132
2026-01-23 09:46:54.44	342.47	20.58	-38.5	-39.2	24.7	0.00e+00	0	43	0	3116367872	47	4163
2026-01-23 09:46:55.45	342.32	20.47	-38.4	-39.2	24.7	0.00e+00	0	43	0	3122659328	47	4150
2026-01-23 09:46:56.46	342.17	20.36	-38.6	-39.4	24.5	0.00e+00	0	43	0	3127902208	47	4262
2026-01-23 09:46:57.47	342.02	20.25	-38.6	-39.4	24.5	0.00e+00	0	43	0	3133145088	47	4255
2026-01-23 09:46:58.47	341.88	20.14	-38.6	-39.3	24.5	0.00e+00	0	43	0	3139436544	47	4241
2026-01-23 09:46:59.48	341.73	20.04	-38.6	-39.3	24.5	0.00e+00	0	42	0	3144679424	47	4223
2026-01-23 09:47:00.49	341.58	19.93	-38.6	-39.4	24.5	0.00e+00	0	42	0	3149922304	47	4258
2026-01-23 09:47:01.50	341.44	19.82	-39.0	-39.7	24.7	0.00e+00	0	43	0	3156213760	48	4168
2026-01-23 09:47:02.51	341.29	19.72	-39.1	-39.8	24.6	0.00e+00	0	43	0	3161456640	48	4234
2026-01-23 09:47:03.52	341.15	19.61	-39.3	-40.0	24.4	0.00e+00	0	42	0	3166699520	49	4075
2026-01-23 09:47:04.52	341.01	19.50	-39.2	-39.9	24.5	0.00e+00	0	43	0	3172990976	49	4022
2026-01-23 09:47:05.53	340.87	19.40	-39.2	-39.9	24.5	0.00e+00	0	43	0	3178233856	49	4019
2026-01-23 09:47:06.54	340.73	19.29	-39.3	-40.0	24.4	0.00e+00	0	43	0	3184525312	49	4071
2026-01-23 09:47:07.55	340.59	19.19	-39.2	-39.9	24.5	0.00e+00	0	42	0	3189768192	49	4046
2026-01-23 09:47:08.55	340.45	19.08	-39.2	-39.9	24.5	0.00e+00	0	42	0	3196059648	49	4046
2026-01-23 09:47:09.56	340.32	18.98	-39.4	-40.1	24.3	0.00e+00	0	43	0	3201302528	49	4122
2026-01-23 09:47:10.57	340.18	18.87	-39.3	-40.0	24.4	0.00e+00	0	43	0	3207593984	49	4086
2026-01-23 09:47:11.58	340.05	18.77	-39.4	-40.2	24.3	0.00e+00	0	43	0	3212836864	49	4150
2026-01-23 09:47:12.59	339.91	18.66	-39.5	-40.2	24.2	0.00e+00	0	43	0	3218079744	49	4187
2026-01-23 09:47:13.60	339.78	18.56	-39.4	-40.1	24.3	0.00e+00	0	42	0	3224371200	49	4137
2026-01-23 09:47:14.60	339.65	18.46	-39.4	-40.2	24.3	0.00e+00	0	43	0	3229614080	49	4147
2026-01-23 09:47:15.61	339.52	18.35	-39.3	-40.1	24.3	0.00e+00	0	43	0	3234856960	49	4105
2026-01-23 09:47:16.62	339.39	18.25	-39.4	-40.1	24.3	0.00e+00	0	42	0	3241148416	49	4121
2026-01-23 09:47:17.63	339.26	18.15	-39.4	-40.1	24.3	0.00e+00	0	42	0	3246391296	49	4136
2026-01-23 09:47:18.64	339.13	18.05	-39.5	-40.2	24.2	0.00e+00	0	42	0	3251634176	49	4183
2026-01-23 09:47:19.64	339.00	17.95	-39.5	-40.3	24.1	0.00e+00	0	43	0	3257925632	49	4198
2026-01-23 09:47:20.65	338.87	17.84	-39.5	-40.2	24.2	0.00e+00	0	43	0	3264217088	49	4190
2026-01-23 09:47:21.66	338.75	17.74	-39.6	-40.3	24.1	0.00e+00	0	42	0	3269459968	49	4214
2026-01-23 09:47:22.67	338.62	17.64	-39.6	-40.3	24.1	0.00e+00	0	43	0	3274702848	49	4241
2026-01-23 09:47:23.68	338.50	17.54	-39.6	-40.3	24.0	0.00e+00	0	43	0	3280994304	49	4235
2026-01-23 09:47:24.69	338.38	17.44	-39.7	-40.4	24.0	0.00e+00	0	42	0	3286237184	50	4044
2026-01-23 09:47:25.70	338.25	17.34	-39.8	-40.6	23.8	0.00e+00	0	43	0	3292528640	50	4115
2026-01-23 09:47:26.70	338.13	17.24	-39.9	-40.7	23.7	0.00e+00	0	43	0	3297771520	50	4168
2026-01-23 09:47:27.71	338.01	17.14	-39.8	-40.6	23.8	0.00e+00	0	43	0	3303014400	50	4122
2026-01-23 09:47:28.72	337.89	17.04	-39.9	-40.6	23.8	0.00e+00	0	42	0	3309305856	50	4137
2026-01-23 09:47:29.73	337.77	16.94	-40.0	-40.7	23.7	0.00e+00	0	42	0	3314548736	50	4173
2026-01-23 09:47:30.74	337.65	16.84	-39.8	-40.6	23.8	0.00e+00	0	43	0	3319791616	50	4116
2026-01-23 09:47:31.74	337.54	16.74	-39.9	-40.7	23.8	0.00e+00	0	43	0	3326083072	50	4148
2026-01-23 09:47:32.75	337.42	16.64	-39.9	-40.7	23.7	0.00e+00	0	43	0	3332374528	50	4148
2026-01-23 09:47:33.76	337.30	16.55	-40.0	-40.7	23.7	0.00e+00	0	42	0	3337617408	50	4172
2026-01-23 09:47:34.77	337.19	16.45	-40.0	-40.7	23.7	0.00e+00	0	42	0	3342860288	50	4168
2026-01-23 09:47:35.78	337.07	16.35	-39.9	-40.7	23.7	0.00e+00	0	42	0	3349151744	50	4164
2026-01-23 09:47:36.79	336.96	16.25	-39.9	-40.6	23.7	0.00e+00	0	43	0	3354394624	50	4136
2026-01-23 09:47:37.79	336.85	16.16	-39.9	-40.6	23.8	0.00e+00	0	43	0	3359637504	50	4141
2026-01-23 09:47:38.80	336.74	16.06	-39.9	-40.6	23.7	0.00e+00	0	42	0	3365928960	50	4133
2026-01-23 09:47:39.81	336.62	15.96	-40.2	-41.0	23.5	0.00e+00	0	43	0	3371171840	51	4056
2026-01-23 09:47:40.82	336.51	15.87	-40.4	-41.2	23.3	0.00e+00	0	43	0	3377463296	51	4153
2026-01-23 09:47:41.83	336.40	15.77	-40.3	-41.1	23.4	0.00e+00	0	43	0	3382706176	51	4099
2026-01-23 09:47:42.84	336.29	15.67	-40.2	-41.0	23.3	0.00e+00	0	43	0	3387949056	51	4081
2026-01-23 09:47:43.84	336.19	15.58	-40.2	-41.0	23.4	0.00e+00	0	43	0	3394240512	51	4063
2026-01-23 09:47:44.85	336.08	15.48	-40.2	-41.0	23.4	0.00e+00	0	43	0	3400531968	51	4077
2026-01-23 09:47:45.86	335.97	15.39	-40.3	-41.1	23.3	0.00e+00	0	43	0	3405774848	51	4110
2026-01-23 09:47:46.87	335.86	15.29	-40.3	-41.1	23.3	0.00e+00	0	42	0	3411017728	51	4124
2026-01-23 09:47:47.88	335.76	15.20	-40.4	-41.2	23.2	0.00e+00	0	43	0	3417309184	51	4150
2026-01-23 09:47:48.88	335.65	15.10	-40.4	-41.2	23.2	0.00e+00	0	43	0	3422552064	51	4177
2026-01-23 09:47:49.89	335.55	15.01	-40.5	-41.3	23.2	0.00e+00	0	43	0	3427794944	51	4200
2026-01-23 09:47:50.90	335.45	14.92	-40.5	-41.3	23.2	0.00e+00	0	43	0	3434086400	51	4197
2026-01-23 09:47:51.91	335.34	14.82	-40.6	-41.4	23.0	0.00e+00	0	43	0	3439329280	51	4257
2026-01-23 09:47:52.91	335.24	14.73	-40.5	-41.3	23.2	0.00e+00	0	42	0	3444572160	51	4196
2026-01-23 09:47:53.92	335.14	14.64	-40.6	-41.4	23.0	0.00e+00	0	43	0	3450863616	51	4258
2026-01-23 09:47:54.93	335.04	14.55	-40.5	-41.3	23.1	0.00e+00	0	43	0	3456106496	51	4207
2026-01-23 09:47:55.94	334.94	14.45	-40.6	-41.4	23.0	0.00e+00	0	42	0	3462397952	51	4264
2026-01-23 09:47:56.95	334.84	14.36	-40.5	-41.3	23.1	0.00e+00	0	42	0	3467640832	51	4201
2026-01-23 09:47:57.96	334.74	14.27	-40.5	-41.2	23.1	0.00e+00	0	43	0	3473932288	51	4188
2026-01-23 09:47:58.96	334.64	14.18	-40.6	-41.3	23.0	0.00e+00	0	43	0	3479175168	51	4242
2026-01-23 09:47:59.97	334.54	14.09	-40.5	-41.2	23.1	0.00e+00	0	42	0	3485466624	51	4187
2026-01-23 09:48:00.98	334.45	14.00	-40.5	-41.3	23.1	0.00e+00	0	43	0	3490709504	51	4210
2026-01-23 09:48:01.99	334.35	13.90	-40.6	-41.4	23.0	0.00e+00	0	43	0	3495952384	51	4254
2026-01-23 09:48:02.99	334.25	13.81	-40.6	-41.4	23.0	0.00e+00	0	43	0	3502243840	51	4265
2026-01-23 09:48:04.00	334.16	13.72	-40.5	-41.3	23.0	0.00e+00	0	43	0	3507486720	52	3994
2026-01-23 09:48:05.01	334.06	13.63	-40.5	-41.3	23.0	0.00e+00	0	43	0	3512729600	52	3976
2026-01-23 09:48:06.02	333.97	13.54	-40.5	-41.3	22.9	0.00e+00	0	43	0	3519021056	52	4000
2026-01-23 09:48:07.02	333.88	13.46	-40.5	-41.3	23.0	0.00e+00	0	42	0	3524263936	52	3975
2026-01-23 09:48:08.03	333.78	13.37	-40.7	-41.5	22.8	0.00e+00	0	42	0	3529506816	52	4072
2026-01-23 09:48:09.04	333.69	13.28	-40.7	-41.5	22.7	0.00e+00	0	43	0	3535798272	52	4098
2026-01-23 09:48:10.05	333.60	13.19	-40.7	-41.5	22.7	0.00e+00	0	43	0	3542089728	52	4092
2026-01-23 09:48:11.05	333.51	13.10	-40.8	-41.7	22.6	0.00e+00	0	43	0	3547332608	52	4150
2026-01-23 09:48:12.06	333.42	13.01	-40.9	-41.7	22.6	0.00e+00	0	42	0	3552575488	52	4163
2026-01-23 09:48:13.07	333.33	12.92	-41.0	-41.9	22.5	0.00e+00	0	43	0	3558866944	52	4245
2026-01-23 09:48:14.08	333.24	12.84	-41.0	-41.8	22.5	0.00e+00	0	43	0	3564109824	52	4224
2026-01-23 09:48:15.09	333.15	12.75	-41.0	-41.9	22.4	0.00e+00	0	43	0	3570401280	52	4254
2026-01-23 09:48:16.10	333.06	12.66	-41.1	-41.9	22.4	0.00e+00	0	42	0	3575644160	52	4286
2026-01-23 09:48:17.11	332.97	12.57	-41.0	-41.8	22.4	0.00e+00	0	43	0	3580887040	52	4238
2026-01-23 09:48:18.12	332.89	12.49	-41.2	-42.0	22.3	0.00e+00	0	43	0	3587178496	52	4312
2026-01-23 09:48:19.13	332.80	12.40	-41.1	-41.9	22.3	0.00e+00	0	42	0	3592421376	52	4287
2026-01-23 09:48:20.14	332.71	12.31	-41.2	-42.0	22.3	0.00e+00	0	42	0	3597664256	52	4311
2026-01-23 09:48:21.14	332.63	12.23	-41.1	-42.0	22.3	0.00e+00	0	42	0	3603955712	52	4300
2026-01-23 09:48:22.15	332.54	12.14	-41.0	-41.8	22.4	0.00e+00	0	42	0	3610247168	52	4239
2026-01-23 09:48:23.16	332.46	12.06	-41.1	-41.9	22.3	0.00e+00	0	42	0	3615490048	52	4266
2026-01-23 09:48:24.17	332.37	11.97	-41.0	-41.8	22.4	0.00e+00	0	43	0	3620732928	52	4199
2026-01-23 09:48:25.18	332.29	11.88	-41.1	-41.9	22.3	0.00e+00	0	42	0	3627024384	52	4261
2026-01-23 09:48:26.19	332.21	11.80	-41.0	-41.8	22.4	0.00e+00	0	42	0	3632267264	52	4230
2026-01-23 09:48:27.20	332.12	11.72	-41.0	-41.8	22.4	0.00e+00	0	42	0	3637510144	52	4213
2026-01-23 09:48:28.20	332.04	11.63	-41.1	-41.9	22.3	0.00e+00	0	42	0	3643801600	52	4260
2026-01-23 09:48:29.21	331.96	11.55	-41.1	-42.0	22.3	0.00e+00	0	43	0	3649044480	52	4292
2026-01-23 09:48:30.22	331.88	11.46	-41.0	-41.8	22.4	0.00e+00	0	43	0	3655335936	52	4225
2026-01-23 09:48:31.23	331.80	11.38	-41.0	-41.8	22.4	0.00e+00	0	43	0	3660578816	52	4221
2026-01-23 09:48:32.24	331.72	11.30	-41.2	-42.0	22.2	0.00e+00	0	42	0	3665821696	52	4317
2026-01-23 09:48:33.24	331.64	11.21	-41.3	-42.1	22.1	0.00e+00	0	43	0	3672113152	53	4126
2026-01-23 09:48:34.25	331.56	11.13	-41.2	-42.0	22.2	0.00e+00	0	43	0	3678404608	53	4089
2026-01-23 09:48:35.26	331.48	11.05	-41.2	-42.0	22.2	0.00e+00	0	42	0	3683647488	53	4064
2026-01-23 09:48:36.27	331.40	10.96	-41.2	-42.0	22.1	0.00e+00	0	42	0	3688890368	53	4084
2026-01-23 09:48:37.27	331.32	10.88	-41.3	-42.1	22.1	0.00e+00	0	42	0	3695181824	53	4134
