passes_logs/2026/01/23/R3.2S_Murmansk/R3.2S_Murmansk__20260123_144009_FENGYUN_3D_rec.log

#Pass ID: 20260123_144009_FENGYUN 3D
#Satellite: FENGYUN 3D
#Configuration: FENGYUN 3D
#almurnet v.1.7.20251203
#Start time: 2026-01-23 14:40:11

#Version: 2.2.20231116
#Station: R3.2S_Murmansk
#Location: 33.079688 lon 68.888172 lat
#TLE: 1 43010U 17072A   26022.47411728  .00000617  00000+0  31375-3 0  9996
#TLE: 2 43010  98.9952 354.4060 0002481  95.7964 264.3494 14.19699924424319

#Time	Az	El	Level	Level2	SNR	BER	BlckErr	Temp	State	Recorded	gain1	gain2
2026-01-23 14:40:11.94	231.63	2.11	-53.8	-65.7	3.8	8.46e-01	0	41	0	0	79	14018
2026-01-23 14:40:12.95	231.72	2.16	-52.8	-64.8	3.8	8.46e-01	0	41	104	0	77	14148
2026-01-23 14:40:13.96	231.81	2.20	-52.8	-64.8	3.8	8.45e-01	0	41	104	0	77	14125
2026-01-23 14:40:14.97	231.90	2.25	-52.8	-64.8	3.8	8.46e-01	0	41	104	0	77	14106
2026-01-23 14:40:15.97	231.99	2.30	-52.8	-64.8	3.8	8.45e-01	0	41	104	0	77	14134
2026-01-23 14:40:16.98	232.09	2.35	-52.8	-64.8	3.8	8.45e-01	0	41	104	0	77	14083
2026-01-23 14:40:17.99	232.18	2.40	-52.8	-64.8	3.8	8.47e-01	0	41	104	0	77	14049
2026-01-23 14:40:19.00	232.27	2.45	-52.8	-64.8	3.8	8.46e-01	0	41	104	0	77	14061
2026-01-23 14:40:20.00	232.37	2.50	-52.8	-64.7	3.8	8.46e-01	0	41	104	0	77	14031
2026-01-23 14:40:21.01	232.46	2.55	-52.8	-64.8	3.8	8.48e-01	0	41	104	0	77	14055
2026-01-23 14:40:22.02	232.55	2.60	-52.8	-64.7	3.8	8.46e-01	0	42	104	0	77	14041
2026-01-23 14:40:23.03	232.65	2.65	-52.8	-64.8	3.8	8.47e-01	0	42	104	0	77	14074
2026-01-23 14:40:24.04	232.74	2.70	-52.8	-64.7	3.8	8.45e-01	0	42	104	0	77	14001
2026-01-23 14:40:25.04	232.84	2.75	-52.8	-64.8	3.8	8.46e-01	0	41	104	0	77	14110
2026-01-23 14:40:26.05	232.93	2.80	-52.8	-64.7	3.8	8.46e-01	0	42	104	0	77	14022
2026-01-23 14:40:27.06	233.03	2.85	-52.8	-64.7	3.8	8.46e-01	0	42	104	0	77	14043
2026-01-23 14:40:28.07	233.12	2.90	-52.8	-64.8	3.8	8.46e-01	0	42	104	0	77	14052
2026-01-23 14:40:29.08	233.22	2.94	-52.8	-64.8	3.8	8.46e-01	0	42	104	0	77	14080
2026-01-23 14:40:30.09	233.31	2.99	-52.8	-64.7	3.8	8.46e-01	0	42	104	0	77	14027
2026-01-23 14:40:31.09	233.41	3.04	-52.8	-64.7	3.8	8.45e-01	0	42	104	0	77	14003
2026-01-23 14:40:32.10	233.51	3.09	-52.8	-64.7	3.8	8.46e-01	0	42	104	0	77	13990
2026-01-23 14:40:33.11	233.61	3.14	-52.8	-64.7	3.8	8.47e-01	0	42	104	0	77	14038
2026-01-23 14:40:34.12	233.70	3.19	-52.8	-64.7	3.8	8.46e-01	0	42	104	0	77	14005
2026-01-23 14:40:35.13	233.80	3.24	-52.8	-64.7	3.8	8.46e-01	0	42	104	0	77	13999
2026-01-23 14:40:36.14	233.90	3.29	-52.8	-64.7	3.8	8.45e-01	0	42	104	0	77	13976
2026-01-23 14:40:37.14	234.00	3.34	-52.8	-64.7	3.8	8.47e-01	0	42	104	0	77	13981
2026-01-23 14:40:38.15	234.10	3.39	-52.8	-64.7	3.8	8.46e-01	0	42	104	0	77	13961
2026-01-23 14:40:39.16	234.20	3.44	-52.8	-64.7	3.8	8.46e-01	0	42	104	0	77	13979
2026-01-23 14:40:40.17	234.29	3.49	-52.8	-64.7	3.8	8.45e-01	0	42	104	0	77	13922
2026-01-23 14:40:41.18	234.39	3.54	-52.8	-64.7	3.8	8.46e-01	0	42	104	0	77	13914
2026-01-23 14:40:42.18	234.49	3.59	-52.8	-64.7	3.8	8.45e-01	0	42	104	0	77	13906
2026-01-23 14:40:43.19	234.59	3.64	-52.8	-64.7	3.8	8.45e-01	0	42	104	0	77	13895
2026-01-23 14:40:44.20	234.70	3.69	-52.8	-64.7	3.8	8.47e-01	0	42	104	0	77	13966
2026-01-23 14:40:45.21	234.80	3.74	-52.8	-64.7	3.8	8.45e-01	0	42	104	0	77	13973
2026-01-23 14:40:46.22	234.90	3.79	-52.8	-64.7	3.8	8.46e-01	0	42	104	0	77	13939
2026-01-23 14:40:47.23	235.00	3.84	-52.8	-64.7	3.8	8.45e-01	0	42	104	0	77	13899
2026-01-23 14:40:48.23	235.10	3.89	-52.7	-64.5	3.8	8.45e-01	0	42	104	0	77	13656
2026-01-23 14:40:49.24	235.20	3.94	-52.7	-64.5	3.8	8.46e-01	0	42	104	0	77	13575
2026-01-23 14:40:50.25	235.31	3.99	-52.7	-64.5	3.8	8.46e-01	0	42	104	0	77	13665
2026-01-23 14:40:51.26	235.41	4.04	-52.7	-64.6	3.8	8.46e-01	0	42	104	0	77	13773
2026-01-23 14:40:52.27	235.51	4.09	-52.8	-64.6	3.8	8.47e-01	0	42	104	0	77	13872
2026-01-23 14:40:53.27	235.62	4.14	-52.8	-64.6	3.8	8.46e-01	0	42	104	0	77	13867
2026-01-23 14:40:54.28	235.72	4.19	-52.8	-64.6	3.8	8.46e-01	0	42	104	0	77	13872
2026-01-23 14:40:55.29	235.83	4.24	-52.7	-64.6	3.8	8.47e-01	0	42	104	0	77	13834
2026-01-23 14:40:56.30	235.93	4.29	-52.7	-64.6	3.8	8.45e-01	0	42	104	0	77	13865
2026-01-23 14:40:57.30	236.03	4.34	-52.7	-64.7	3.8	8.46e-01	0	42	104	0	77	13888
2026-01-23 14:40:58.31	236.14	4.39	-52.7	-64.4	3.8	8.45e-01	0	42	104	0	77	13544
2026-01-23 14:40:59.32	236.25	4.44	-52.7	-63.7	3.8	8.46e-01	0	42	104	0	77	12493
2026-01-23 14:41:00.33	236.35	4.49	-52.6	-63.3	3.8	8.44e-01	0	43	104	0	77	11868
2026-01-23 14:41:01.34	236.46	4.54	-52.6	-62.8	3.8	8.45e-01	0	42	104	0	77	11180
2026-01-23 14:41:02.35	236.57	4.59	-52.6	-62.8	3.8	8.47e-01	0	43	104	0	77	11215
2026-01-23 14:41:03.35	236.67	4.64	-52.5	-62.2	3.8	8.43e-01	0	43	104	0	77	10466
2026-01-23 14:41:04.36	236.78	4.69	-52.1	-59.4	4.9	8.29e-01	0	43	0	0	76	8056
2026-01-23 14:41:05.37	236.89	4.74	-51.2	-56.1	7.3	2.66e-01	0	42	0	2097152	74	6163
2026-01-23 14:41:06.38	237.00	4.79	-49.3	-52.0	11.5	4.68e-03	0	42	0	7340032	70	4867
2026-01-23 14:41:07.38	237.10	4.84	-48.0	-50.1	13.6	1.14e-05	0	43	0	13631488	68	4356
2026-01-23 14:41:08.39	237.21	4.89	-46.3	-47.9	15.8	0.00e+00	0	43	0	18874368	64	4244
2026-01-23 14:41:09.40	237.32	4.94	-44.4	-45.5	18.2	0.00e+00	0	42	0	24117248	60	4093
2026-01-23 14:41:10.41	237.43	4.99	-43.9	-45.0	19.0	0.00e+00	0	43	0	30408704	59	4080
2026-01-23 14:41:11.42	237.54	5.04	-43.8	-44.9	19.1	0.00e+00	0	42	0	35651584	58	4280
2026-01-23 14:41:12.42	237.65	5.09	-45.8	-47.3	16.6	0.00e+00	0	43	0	40894464	62	4442
2026-01-23 14:41:13.43	237.76	5.14	-44.0	-45.1	18.6	0.00e+00	0	43	0	47185920	60	3893
2026-01-23 14:41:14.44	237.87	5.19	-44.0	-45.1	18.6	0.00e+00	0	43	0	53477376	60	3887
2026-01-23 14:41:15.45	237.99	5.24	-43.0	-44.0	20.0	0.00e+00	0	43	0	58720256	58	3845
2026-01-23 14:41:16.46	238.10	5.29	-45.1	-46.4	17.3	3.40e-06	0	43	0	63963136	62	4021
2026-01-23 14:41:17.46	238.21	5.34	-42.3	-43.2	20.7	0.00e+00	0	43	0	70254592	56	3948
2026-01-23 14:41:18.47	238.32	5.39	-42.7	-43.7	20.3	0.00e+00	0	42	0	75497472	56	4165
2026-01-23 14:41:19.48	238.44	5.44	-43.0	-44.0	20.0	0.00e+00	0	43	0	81788928	56	4327
2026-01-23 14:41:20.49	238.55	5.50	-43.9	-45.0	19.0	0.00e+00	0	43	0	87031808	58	4329
2026-01-23 14:41:21.50	238.66	5.55	-43.5	-44.5	19.5	0.00e+00	0	43	0	92274688	58	4077
2026-01-23 14:41:22.51	238.78	5.60	-43.1	-44.0	20.0	0.00e+00	0	43	0	98566144	58	3867
2026-01-23 14:41:23.51	238.89	5.65	-43.8	-44.9	19.2	0.00e+00	0	43	0	103809024	58	4253
2026-01-23 14:41:24.52	239.01	5.70	-43.0	-44.0	20.0	0.00e+00	0	43	0	109051904	57	4098
2026-01-23 14:41:25.53	239.12	5.75	-43.5	-44.6	19.5	0.00e+00	0	43	0	115343360	57	4353
2026-01-23 14:41:26.54	239.24	5.80	-42.9	-43.9	20.2	0.00e+00	0	43	0	121634816	57	4024
2026-01-23 14:41:27.55	239.35	5.85	-43.1	-44.2	19.9	0.00e+00	0	43	0	126877696	57	4151
2026-01-23 14:41:28.56	239.47	5.90	-43.1	-44.1	19.9	0.00e+00	0	43	0	132120576	57	4127
2026-01-23 14:41:29.57	239.59	5.95	-43.5	-44.6	19.5	0.00e+00	0	43	0	138412032	57	4363
2026-01-23 14:41:30.57	239.70	6.00	-43.2	-44.2	19.8	0.00e+00	0	43	0	143654912	57	4169
2026-01-23 14:41:31.58	239.82	6.05	-43.3	-44.3	19.7	0.00e+00	0	43	0	148897792	57	4222
2026-01-23 14:41:32.59	239.94	6.10	-43.0	-44.0	20.1	0.00e+00	0	43	0	155189248	57	4057
2026-01-23 14:41:33.60	240.06	6.15	-43.3	-44.4	19.7	0.00e+00	0	43	0	160432128	57	4249
2026-01-23 14:41:34.61	240.18	6.20	-43.0	-44.0	20.1	0.00e+00	0	43	0	166723584	57	4053
2026-01-23 14:41:35.61	240.30	6.25	-42.7	-43.7	20.4	0.00e+00	0	43	0	171966464	57	3926
2026-01-23 14:41:36.62	240.41	6.30	-43.1	-44.1	20.0	0.00e+00	0	43	0	177209344	57	4123
2026-01-23 14:41:37.63	240.53	6.35	-43.0	-44.0	20.1	0.00e+00	0	43	0	183500800	57	4079
2026-01-23 14:41:38.64	240.66	6.40	-43.1	-44.1	20.0	0.00e+00	0	43	0	189792256	57	4111
2026-01-23 14:41:39.65	240.78	6.45	-42.9	-43.9	20.3	0.00e+00	0	43	0	195035136	57	4016
2026-01-23 14:41:40.65	240.90	6.50	-43.0	-44.0	20.1	0.00e+00	0	43	0	200278016	57	4069
2026-01-23 14:41:41.66	241.02	6.55	-43.1	-44.1	20.1	0.00e+00	0	43	0	206569472	57	4116
2026-01-23 14:41:42.67	241.14	6.60	-42.8	-43.7	20.4	0.00e+00	0	43	0	211812352	57	3942
2026-01-23 14:41:43.68	241.26	6.65	-42.9	-43.9	20.3	0.00e+00	0	43	0	217055232	57	4020
2026-01-23 14:41:44.68	241.38	6.70	-42.7	-43.6	20.6	0.00e+00	0	43	0	223346688	57	3895
2026-01-23 14:41:45.69	241.51	6.75	-42.6	-43.6	20.6	0.00e+00	0	43	0	228589568	57	3873
2026-01-23 14:41:46.70	241.63	6.80	-42.6	-43.5	20.7	0.00e+00	0	43	0	233832448	56	4067
2026-01-23 14:41:47.71	241.76	6.85	-42.7	-43.6	20.6	0.00e+00	0	43	0	240123904	56	4127
2026-01-23 14:41:48.72	241.88	6.90	-42.8	-43.8	20.4	0.00e+00	0	43	0	245366784	56	4214
2026-01-23 14:41:49.73	242.01	6.95	-42.8	-43.7	20.4	0.00e+00	0	43	0	251658240	56	4193
2026-01-23 14:41:50.73	242.13	7.00	-42.5	-43.4	20.8	0.00e+00	0	43	0	256901120	56	4018
2026-01-23 14:41:51.74	242.26	7.05	-42.8	-43.7	20.5	0.00e+00	0	43	0	263192576	56	4182
2026-01-23 14:41:52.75	242.38	7.10	-42.6	-43.6	20.6	0.00e+00	0	43	0	268435456	56	4109
2026-01-23 14:41:53.76	242.51	7.15	-42.5	-43.5	20.7	0.00e+00	0	43	0	274726912	56	4063
2026-01-23 14:41:54.77	242.64	7.21	-42.7	-43.6	20.6	0.00e+00	0	43	0	279969792	56	4128
2026-01-23 14:41:55.77	242.76	7.25	-42.7	-43.6	20.6	0.00e+00	0	43	0	285212672	56	4132
2026-01-23 14:41:56.78	242.89	7.31	-42.7	-43.7	20.5	0.00e+00	0	43	0	291504128	56	4153
2026-01-23 14:41:57.79	243.02	7.36	-42.5	-43.4	20.8	0.00e+00	0	43	0	296747008	56	4019
2026-01-23 14:41:58.80	243.15	7.41	-42.7	-43.7	20.6	0.00e+00	0	43	0	301989888	56	4151
2026-01-23 14:41:59.80	243.27	7.45	-42.4	-43.3	20.9	0.00e+00	0	43	0	308281344	56	3992
2026-01-23 14:42:00.81	243.40	7.50	-42.4	-43.3	20.9	0.00e+00	0	43	0	313524224	56	3991
2026-01-23 14:42:01.82	243.53	7.56	-42.5	-43.4	20.9	0.00e+00	0	43	0	318767104	56	4021
2026-01-23 14:42:02.83	243.66	7.61	-42.4	-43.3	20.9	0.00e+00	0	43	0	325058560	56	3983
2026-01-23 14:42:03.84	243.80	7.66	-42.4	-43.3	20.9	0.00e+00	0	43	0	331350016	56	3996
2026-01-23 14:42:04.85	243.93	7.71	-42.8	-43.8	20.5	0.00e+00	0	43	0	336592896	56	4195
2026-01-23 14:42:05.85	244.06	7.75	-42.4	-43.3	21.0	0.00e+00	0	43	0	341835776	56	3979
2026-01-23 14:42:06.86	244.19	7.80	-42.6	-43.5	20.7	0.00e+00	0	43	0	348127232	56	4093
2026-01-23 14:42:07.88	244.32	7.85	-42.9	-43.9	20.4	0.00e+00	0	43	0	353370112	56	4282
2026-01-23 14:42:08.88	244.46	7.90	-43.1	-44.1	20.2	0.00e+00	0	43	0	359661568	56	4372
2026-01-23 14:42:09.89	244.59	7.95	-42.8	-43.8	20.5	0.00e+00	0	43	0	364904448	56	4218
2026-01-23 14:42:10.90	244.72	8.00	-42.6	-43.5	20.8	0.00e+00	0	43	0	370147328	56	4075
2026-01-23 14:42:11.91	244.86	8.05	-42.6	-43.5	20.8	0.00e+00	0	43	0	376438784	56	4083
2026-01-23 14:42:12.92	244.99	8.10	-42.7	-43.7	20.6	0.00e+00	0	43	0	381681664	56	4155
2026-01-23 14:42:13.93	245.13	8.15	-42.3	-43.3	21.0	0.00e+00	0	43	0	386924544	56	3959
2026-01-23 14:42:14.94	245.26	8.20	-42.4	-43.3	21.0	0.00e+00	0	43	0	393216000	56	3998
2026-01-23 14:42:15.94	245.40	8.25	-42.6	-43.5	20.7	0.00e+00	0	43	0	399507456	56	4095
2026-01-23 14:42:16.95	245.53	8.30	-42.5	-43.5	20.8	0.00e+00	0	43	0	404750336	56	4069
2026-01-23 14:42:17.96	245.67	8.35	-42.4	-43.3	21.0	0.00e+00	0	43	0	409993216	56	3999
2026-01-23 14:42:18.97	245.81	8.40	-42.2	-43.1	21.2	0.00e+00	0	43	0	416284672	56	3899
2026-01-23 14:42:19.98	245.95	8.45	-42.4	-43.3	21.0	0.00e+00	0	43	0	421527552	56	3990
2026-01-23 14:42:20.98	246.08	8.50	-42.3	-43.2	21.1	0.00e+00	0	43	0	426770432	56	3926
2026-01-23 14:42:21.99	246.22	8.55	-42.3	-43.2	21.1	0.00e+00	0	43	0	433061888	56	3931
2026-01-23 14:42:23.00	246.36	8.60	-42.1	-43.0	21.3	0.00e+00	0	43	0	438304768	56	3837
2026-01-23 14:42:24.01	246.50	8.65	-42.1	-43.0	21.3	0.00e+00	0	43	0	444596224	56	3862
2026-01-23 14:42:25.02	246.64	8.70	-42.0	-42.9	21.4	0.00e+00	0	43	0	449839104	56	3807
2026-01-23 14:42:26.02	246.78	8.74	-42.0	-42.9	21.4	0.00e+00	0	43	0	455081984	56	3787
2026-01-23 14:42:27.03	246.92	8.79	-41.8	-42.6	21.5	0.00e+00	0	43	0	461373440	55	3911
2026-01-23 14:42:28.04	247.06	8.84	-41.9	-42.8	21.5	0.00e+00	0	43	0	467664896	55	3962
2026-01-23 14:42:29.05	247.21	8.89	-41.8	-42.7	21.5	0.00e+00	0	43	0	472907776	55	3922
2026-01-23 14:42:30.06	247.35	8.94	-41.9	-42.7	21.5	0.00e+00	0	43	0	478150656	55	3952
2026-01-23 14:42:31.06	247.49	8.99	-41.8	-42.6	21.6	0.00e+00	0	43	0	484442112	55	3913
2026-01-23 14:42:32.07	247.63	9.04	-41.8	-42.7	21.5	0.00e+00	0	43	0	489684992	55	3942
2026-01-23 14:42:33.08	247.78	9.09	-42.0	-42.9	21.3	0.00e+00	0	43	0	494927872	55	4044
2026-01-23 14:42:34.09	247.92	9.13	-42.0	-42.9	21.3	0.00e+00	0	43	0	501219328	55	4025
2026-01-23 14:42:35.10	248.07	9.18	-41.9	-42.8	21.5	0.00e+00	0	43	0	506462208	55	3975
2026-01-23 14:42:36.10	248.21	9.23	-41.8	-42.7	21.6	0.00e+00	0	43	0	511705088	55	3919
2026-01-23 14:42:37.11	248.36	9.28	-41.9	-42.7	21.5	0.00e+00	0	43	0	517996544	55	3957
2026-01-23 14:42:38.12	248.50	9.33	-41.8	-42.7	21.6	0.00e+00	0	43	0	523239424	55	3933
2026-01-23 14:42:39.13	248.65	9.38	-41.7	-42.6	21.7	0.00e+00	0	43	0	529530880	55	3885
2026-01-23 14:42:40.14	248.80	9.43	-41.7	-42.5	21.7	0.00e+00	0	43	0	534773760	55	3866
2026-01-23 14:42:41.14	248.94	9.47	-41.8	-42.7	21.6	0.00e+00	0	43	0	541065216	55	3921
2026-01-23 14:42:42.15	249.09	9.52	-41.7	-42.6	21.6	0.00e+00	0	43	0	546308096	55	3902
2026-01-23 14:42:43.16	249.24	9.57	-41.7	-42.6	21.6	0.00e+00	0	43	0	552599552	55	3894
2026-01-23 14:42:44.17	249.39	9.62	-41.8	-42.7	21.6	0.00e+00	0	43	0	557842432	55	3929
2026-01-23 14:42:45.18	249.54	9.67	-41.7	-42.6	21.7	0.00e+00	0	43	0	563085312	55	3891
2026-01-23 14:42:46.19	249.69	9.71	-41.9	-42.8	21.5	0.00e+00	0	43	0	569376768	55	3988
2026-01-23 14:42:47.19	249.84	9.76	-41.9	-42.8	21.5	0.00e+00	0	43	0	574619648	55	3975
2026-01-23 14:42:48.20	249.99	9.81	-41.9	-42.8	21.5	0.00e+00	0	43	0	579862528	55	3989
2026-01-23 14:42:49.21	250.14	9.86	-41.9	-42.7	21.6	0.00e+00	0	43	0	586153984	55	3950
2026-01-23 14:42:50.22	250.29	9.90	-41.6	-42.5	21.8	0.00e+00	0	43	0	591396864	55	3838
2026-01-23 14:42:51.23	250.44	9.95	-41.6	-42.5	21.8	0.00e+00	0	43	0	596639744	55	3843
2026-01-23 14:42:52.24	250.60	10.00	-41.7	-42.6	21.7	0.00e+00	0	43	0	602931200	55	3885
2026-01-23 14:42:53.25	250.75	10.05	-41.8	-42.6	21.6	0.00e+00	0	43	0	609222656	55	3911
2026-01-23 14:42:54.25	250.90	10.09	-41.7	-42.5	21.8	0.00e+00	0	43	0	614465536	55	3854
2026-01-23 14:42:55.26	251.05	10.14	-41.6	-42.5	21.8	0.00e+00	0	43	0	619708416	55	3841
2026-01-23 14:42:56.27	251.21	10.19	-41.8	-42.6	21.7	0.00e+00	0	43	0	625999872	55	3909
2026-01-23 14:42:57.28	251.36	10.23	-41.5	-42.4	21.9	0.00e+00	0	43	0	631242752	55	3796
2026-01-23 14:42:58.28	251.52	10.28	-41.3	-42.2	22.1	0.00e+00	0	43	0	637534208	54	3920
2026-01-23 14:42:59.29	251.67	10.33	-41.6	-42.5	21.8	0.00e+00	0	43	0	642777088	54	4068
2026-01-23 14:43:00.30	251.83	10.37	-41.5	-42.4	21.9	0.00e+00	0	43	0	648019968	54	4021
2026-01-23 14:43:01.31	251.99	10.42	-41.6	-42.4	21.9	0.00e+00	0	43	0	654311424	54	4033
2026-01-23 14:43:02.32	252.15	10.47	-41.6	-42.4	21.9	0.00e+00	0	43	0	659554304	54	4030
2026-01-23 14:43:03.33	252.30	10.51	-41.4	-42.3	22.0	0.00e+00	0	43	0	664797184	54	3961
2026-01-23 14:43:04.34	252.46	10.56	-41.4	-42.2	22.1	0.00e+00	0	43	0	671088640	54	3935
2026-01-23 14:43:05.35	252.62	10.60	-41.3	-42.1	22.2	0.00e+00	0	43	0	677380096	54	3899
2026-01-23 14:43:06.35	252.78	10.65	-41.3	-42.1	22.2	0.00e+00	0	43	0	682622976	54	3897
2026-01-23 14:43:07.36	252.94	10.70	-41.3	-42.1	22.1	0.00e+00	0	43	0	687865856	54	3905
2026-01-23 14:43:08.37	253.10	10.74	-41.3	-42.1	22.2	0.00e+00	0	43	0	694157312	54	3884
2026-01-23 14:43:09.38	253.26	10.79	-41.4	-42.2	22.1	0.00e+00	0	43	0	699400192	54	3934
2026-01-23 14:43:10.39	253.42	10.83	-41.4	-42.2	22.1	0.00e+00	0	43	0	704643072	54	3949
2026-01-23 14:43:11.39	253.58	10.88	-41.5	-42.3	22.0	0.00e+00	0	43	0	710934528	54	3987
2026-01-23 14:43:12.40	253.75	10.92	-41.3	-42.1	22.2	0.00e+00	0	43	0	716177408	54	3884
2026-01-23 14:43:13.41	253.91	10.97	-41.5	-42.3	22.0	0.00e+00	0	43	0	722468864	54	3989
2026-01-23 14:43:14.42	254.07	11.01	-41.4	-42.2	22.1	0.00e+00	0	43	0	727711744	54	3938
2026-01-23 14:43:15.43	254.24	11.06	-41.3	-42.1	22.2	0.00e+00	0	43	0	732954624	54	3907
2026-01-23 14:43:16.43	254.40	11.10	-41.2	-42.1	22.3	0.00e+00	0	43	0	739246080	54	3870
2026-01-23 14:43:17.44	254.56	11.15	-41.4	-42.3	22.1	0.00e+00	0	43	0	745537536	54	3963
2026-01-23 14:43:18.45	254.73	11.19	-41.5	-42.3	22.0	0.00e+00	0	43	0	750780416	54	4003
2026-01-23 14:43:19.46	254.89	11.24	-41.5	-42.4	22.0	0.00e+00	0	43	0	756023296	54	4009
2026-01-23 14:43:20.46	255.06	11.28	-41.1	-41.9	22.4	0.00e+00	0	43	0	762314752	54	3797
2026-01-23 14:43:21.47	255.23	11.32	-41.0	-41.8	22.5	0.00e+00	0	43	0	767557632	53	3995
2026-01-23 14:43:22.48	255.39	11.37	-41.2	-42.0	22.3	0.00e+00	0	43	0	772800512	53	4066
2026-01-23 14:43:23.49	255.56	11.41	-41.1	-42.0	22.3	0.00e+00	0	43	0	779091968	53	4061
2026-01-23 14:43:24.50	255.73	11.46	-41.2	-42.1	22.2	0.00e+00	0	43	0	784334848	53	4106
2026-01-23 14:43:25.51	255.90	11.50	-41.1	-41.9	22.4	0.00e+00	0	43	0	789577728	53	4051
2026-01-23 14:43:26.52	256.07	11.54	-41.3	-42.1	22.2	0.00e+00	0	43	0	795869184	53	4133
2026-01-23 14:43:27.52	256.24	11.59	-41.1	-42.0	22.4	0.00e+00	0	43	0	801112064	53	4053
2026-01-23 14:43:28.53	256.41	11.63	-41.3	-42.1	22.2	0.00e+00	0	43	0	807403520	53	4142
2026-01-23 14:43:29.54	256.58	11.67	-41.2	-42.0	22.3	0.00e+00	0	43	0	812646400	53	4087
2026-01-23 14:43:30.55	256.75	11.72	-41.1	-42.0	22.4	0.00e+00	0	43	0	818937856	53	4056
2026-01-23 14:43:31.56	256.92	11.76	-40.9	-41.7	22.6	0.00e+00	0	43	0	824180736	53	3955
2026-01-23 14:43:32.57	257.09	11.80	-41.0	-41.8	22.5	0.00e+00	0	43	0	830472192	53	3992
2026-01-23 14:43:33.58	257.26	11.84	-41.0	-41.8	22.6	0.00e+00	0	43	0	835715072	53	3971
2026-01-23 14:43:34.58	257.43	11.89	-41.1	-41.9	22.5	0.00e+00	0	43	0	840957952	53	4008
2026-01-23 14:43:35.59	257.61	11.93	-41.3	-42.1	22.3	0.00e+00	0	43	0	847249408	53	4111
2026-01-23 14:43:36.60	257.78	11.97	-41.1	-41.9	22.4	0.00e+00	0	43	0	852492288	53	4032
2026-01-23 14:43:37.61	257.96	12.01	-40.8	-41.6	22.7	0.00e+00	0	43	0	857735168	53	3904
2026-01-23 14:43:38.62	258.13	12.05	-40.8	-41.6	22.8	0.00e+00	0	43	0	864026624	53	3873
2026-01-23 14:43:39.63	258.31	12.09	-40.8	-41.6	22.7	0.00e+00	0	43	0	869269504	53	3887
2026-01-23 14:43:40.64	258.48	12.14	-40.9	-41.7	22.6	0.00e+00	0	43	0	875560960	53	3920
2026-01-23 14:43:41.65	258.66	12.18	-41.0	-41.8	22.6	0.00e+00	0	43	0	880803840	53	3960
2026-01-23 14:43:42.65	258.83	12.22	-40.9	-41.7	22.7	0.00e+00	0	43	0	887095296	53	3918
2026-01-23 14:43:43.66	259.01	12.26	-40.7	-41.5	22.8	0.00e+00	0	43	0	892338176	53	3830
2026-01-23 14:43:44.67	259.19	12.30	-40.7	-41.5	22.8	0.00e+00	0	43	0	897581056	53	3837
2026-01-23 14:43:45.68	259.37	12.34	-40.7	-41.5	22.8	0.00e+00	0	43	0	903872512	53	3844
2026-01-23 14:43:46.68	259.54	12.38	-40.8	-41.6	22.7	0.00e+00	0	43	0	909115392	53	3899
2026-01-23 14:43:47.69	259.72	12.42	-40.8	-41.6	22.7	0.00e+00	0	43	0	915406848	53	3903
2026-01-23 14:43:48.70	259.90	12.46	-40.7	-41.5	22.8	0.00e+00	0	43	0	920649728	53	3853
2026-01-23 14:43:49.71	260.08	12.50	-40.9	-41.7	22.7	0.00e+00	0	43	0	925892608	53	3914
2026-01-23 14:43:50.72	260.26	12.54	-41.0	-41.8	22.6	0.00e+00	0	43	0	932184064	53	3974
2026-01-23 14:43:51.72	260.44	12.58	-40.9	-41.8	22.6	0.00e+00	0	43	0	937426944	53	3960
2026-01-23 14:43:52.73	260.63	12.62	-40.9	-41.7	22.7	0.00e+00	0	43	0	942669824	53	3935
2026-01-23 14:43:53.74	260.81	12.65	-40.9	-41.7	22.6	0.00e+00	0	43	0	948961280	53	3943
2026-01-23 14:43:54.75	260.99	12.69	-40.9	-41.7	22.7	0.00e+00	0	43	0	955252736	53	3933
2026-01-23 14:43:55.76	261.17	12.73	-40.8	-41.6	22.7	0.00e+00	0	43	0	960495616	53	3905
2026-01-23 14:43:56.76	261.35	12.77	-40.8	-41.6	22.7	0.00e+00	0	43	0	965738496	53	3912
2026-01-23 14:43:57.77	261.54	12.81	-40.8	-41.6	22.8	0.00e+00	0	43	0	972029952	53	3892
2026-01-23 14:43:58.78	261.72	12.85	-40.8	-41.6	22.8	0.00e+00	0	43	0	977272832	53	3875
2026-01-23 14:43:59.79	261.91	12.88	-40.7	-41.5	22.9	0.00e+00	0	43	0	982515712	53	3838
2026-01-23 14:44:00.80	262.09	12.92	-40.8	-41.6	22.8	0.00e+00	0	43	0	988807168	53	3873
2026-01-23 14:44:01.80	262.28	12.96	-40.6	-41.4	22.9	0.00e+00	0	43	0	994050048	53	3814
2026-01-23 14:44:02.81	262.46	12.99	-40.7	-41.5	22.9	0.00e+00	0	43	0	1000341504	53	3844
2026-01-23 14:44:03.81	262.65	13.03	-40.9	-41.7	22.7	0.00e+00	0	43	0	1005584384	53	3922
2026-01-23 14:44:04.82	262.83	13.07	-40.9	-41.7	22.6	0.00e+00	0	43	0	1010827264	53	3951
2026-01-23 14:44:05.83	263.02	13.10	-41.0	-41.9	22.5	0.00e+00	0	43	0	1017118720	53	4007
2026-01-23 14:44:06.84	263.21	13.14	-41.0	-41.8	22.5	0.00e+00	0	43	0	1023410176	53	3999
2026-01-23 14:44:07.85	263.40	13.18	-41.0	-41.8	22.5	0.00e+00	0	43	0	1028653056	53	4004
2026-01-23 14:44:08.86	263.59	13.21	-41.0	-41.8	22.6	0.00e+00	0	43	0	1033895936	53	3981
2026-01-23 14:44:09.87	263.78	13.25	-40.9	-41.7	22.6	0.00e+00	0	43	0	1040187392	53	3953
2026-01-23 14:44:10.87	263.96	13.28	-40.6	-41.3	23.0	0.00e+00	0	44	0	1045430272	53	3780
2026-01-23 14:44:11.88	264.15	13.32	-40.5	-41.3	23.0	0.00e+00	0	43	0	1050673152	53	3769
2026-01-23 14:44:12.89	264.34	13.35	-40.4	-41.1	23.2	0.00e+00	0	43	0	1056964608	52	3901
2026-01-23 14:44:13.90	264.54	13.39	-40.4	-41.1	23.2	0.00e+00	0	43	0	1062207488	52	3901
2026-01-23 14:44:14.91	264.73	13.42	-40.5	-41.2	23.1	0.00e+00	0	43	0	1067450368	52	3947
2026-01-23 14:44:15.91	264.92	13.45	-40.4	-41.2	23.1	0.00e+00	0	43	0	1073741824	52	3926
2026-01-23 14:44:16.92	265.11	13.49	-40.6	-41.4	23.0	0.00e+00	0	43	0	1078984704	52	4016
2026-01-23 14:44:17.93	265.30	13.52	-40.6	-41.4	22.9	0.00e+00	0	44	0	1085276160	52	4036
2026-01-23 14:44:18.94	265.49	13.55	-40.8	-41.6	22.8	0.00e+00	0	44	0	1090519040	52	4125
2026-01-23 14:44:19.95	265.69	13.59	-40.7	-41.5	22.8	0.00e+00	0	43	0	1096810496	52	4091
2026-01-23 14:44:20.96	265.88	13.62	-40.7	-41.5	22.9	0.00e+00	0	43	0	1102053376	52	4069
2026-01-23 14:44:21.97	266.08	13.65	-40.7	-41.5	22.9	0.00e+00	0	44	0	1108344832	52	4054
2026-01-23 14:44:22.97	266.27	13.68	-40.7	-41.5	22.8	0.00e+00	0	44	0	1113587712	52	4090
2026-01-23 14:44:23.98	266.46	13.72	-40.5	-41.2	23.1	0.00e+00	0	43	0	1118830592	52	3954
2026-01-23 14:44:24.99	266.66	13.75	-40.5	-41.2	23.1	0.00e+00	0	43	0	1125122048	52	3949
2026-01-23 14:44:26.00	266.86	13.78	-40.5	-41.3	23.0	0.00e+00	0	43	0	1130364928	52	3977
2026-01-23 14:44:27.00	267.05	13.81	-40.4	-41.1	23.2	0.00e+00	0	43	0	1135607808	52	3901
2026-01-23 14:44:28.01	267.25	13.84	-40.4	-41.1	23.2	0.00e+00	0	43	0	1141899264	52	3911
2026-01-23 14:44:29.02	267.44	13.87	-40.3	-41.1	23.3	0.00e+00	0	43	0	1147142144	52	3884
2026-01-23 14:44:30.03	267.64	13.90	-40.2	-41.0	23.3	0.00e+00	0	44	0	1152385024	52	3840
2026-01-23 14:44:31.04	267.84	13.93	-40.5	-41.3	23.0	0.00e+00	0	43	0	1158676480	52	3978
2026-01-23 14:44:32.05	268.04	13.96	-40.7	-41.4	22.9	0.00e+00	0	43	0	1164967936	52	4044
2026-01-23 14:44:33.05	268.23	13.99	-40.5	-41.3	23.0	0.00e+00	0	43	0	1170210816	52	3981
2026-01-23 14:44:34.07	268.44	14.02	-40.4	-41.1	23.2	0.00e+00	0	43	0	1175453696	52	3902
2026-01-23 14:44:35.07	268.63	14.05	-40.6	-41.4	23.0	0.00e+00	0	43	0	1181745152	52	4020
2026-01-23 14:44:36.08	268.83	14.08	-40.5	-41.3	23.1	0.00e+00	0	43	0	1186988032	52	3963
2026-01-23 14:44:37.09	269.03	14.11	-40.5	-41.3	23.0	0.00e+00	0	44	0	1193279488	52	3992
2026-01-23 14:44:38.10	269.23	14.14	-40.5	-41.3	23.1	0.00e+00	0	43	0	1198522368	52	3959
2026-01-23 14:44:39.11	269.43	14.16	-40.4	-41.2	23.1	0.00e+00	0	43	0	1203765248	52	3945
2026-01-23 14:44:40.12	269.64	14.19	-40.5	-41.2	23.1	0.00e+00	0	43	0	1210056704	52	3958
2026-01-23 14:44:41.13	269.84	14.22	-40.5	-41.3	23.1	0.00e+00	0	44	0	1215299584	52	3959
2026-01-23 14:44:42.13	270.04	14.24	-40.3	-41.1	23.2	0.00e+00	0	44	0	1220542464	52	3904
2026-01-23 14:44:43.14	270.24	14.27	-40.3	-41.1	23.2	0.00e+00	0	44	0	1226833920	52	3871
2026-01-23 14:44:44.15	270.44	14.30	-40.4	-41.1	23.2	0.00e+00	0	43	0	1233125376	52	3909
2026-01-23 14:44:45.16	270.65	14.32	-40.4	-41.2	23.2	0.00e+00	0	43	0	1238368256	52	3916
2026-01-23 14:44:46.17	270.85	14.35	-40.5	-41.3	23.1	0.00e+00	0	44	0	1243611136	52	3994
2026-01-23 14:44:47.18	271.05	14.38	-40.6	-41.4	23.0	0.00e+00	0	43	0	1249902592	52	4013
2026-01-23 14:44:48.18	271.25	14.40	-40.6	-41.4	22.9	0.00e+00	0	43	0	1255145472	52	4051
2026-01-23 14:44:49.19	271.46	14.42	-40.6	-41.4	23.0	0.00e+00	0	43	0	1260388352	52	4015
2026-01-23 14:44:50.20	271.66	14.45	-40.4	-41.2	23.1	0.00e+00	0	43	0	1266679808	52	3937
2026-01-23 14:44:51.21	271.87	14.47	-40.3	-41.1	23.2	0.00e+00	0	44	0	1271922688	52	3895
2026-01-23 14:44:52.22	272.07	14.50	-40.3	-41.1	23.2	0.00e+00	0	44	0	1278214144	52	3872
2026-01-23 14:44:53.22	272.28	14.52	-40.2	-41.0	23.3	0.00e+00	0	43	0	1283457024	52	3845
2026-01-23 14:44:54.23	272.48	14.54	-40.1	-40.9	23.5	0.00e+00	0	44	0	1288699904	52	3801
2026-01-23 14:44:55.24	272.69	14.57	-40.2	-41.0	23.4	0.00e+00	0	44	0	1294991360	52	3830
2026-01-23 14:44:56.25	272.90	14.59	-40.3	-41.1	23.3	0.00e+00	0	44	0	1301282816	52	3879
2026-01-23 14:44:57.26	273.10	14.61	-40.3	-41.1	23.3	0.00e+00	0	44	0	1306525696	52	3897
2026-01-23 14:44:58.27	273.31	14.63	-40.4	-41.2	23.2	0.00e+00	0	43	0	1311768576	52	3936
2026-01-23 14:44:59.28	273.52	14.66	-40.5	-41.3	23.1	0.00e+00	0	43	0	1318060032	52	3965
2026-01-23 14:45:00.29	273.73	14.68	-40.6	-41.4	23.0	0.00e+00	0	44	0	1323302912	52	4013
2026-01-23 14:45:01.29	273.93	14.70	-40.4	-41.2	23.2	0.00e+00	0	43	0	1328545792	52	3929
2026-01-23 14:45:02.30	274.14	14.72	-40.3	-41.1	23.3	0.00e+00	0	43	0	1334837248	52	3879
2026-01-23 14:45:03.31	274.35	14.74	-40.4	-41.1	23.2	0.00e+00	0	44	0	1340080128	52	3906
2026-01-23 14:45:04.32	274.56	14.76	-40.4	-41.2	23.2	0.00e+00	0	43	0	1345323008	52	3931
2026-01-23 14:45:05.33	274.77	14.78	-40.2	-41.0	23.4	0.00e+00	0	43	0	1351614464	52	3857
2026-01-23 14:45:06.34	274.98	14.80	-40.2	-41.0	23.4	0.00e+00	0	44	0	1357905920	52	3852
2026-01-23 14:45:07.34	275.18	14.82	-40.3	-41.0	23.4	0.00e+00	0	43	0	1363148800	52	3862
2026-01-23 14:45:08.35	275.39	14.83	-40.3	-41.0	23.4	0.00e+00	0	44	0	1368391680	52	3864
2026-01-23 14:45:09.36	275.60	14.85	-40.4	-41.1	23.3	0.00e+00	0	43	0	1374683136	52	3903
2026-01-23 14:45:10.37	275.81	14.87	-40.4	-41.2	23.2	0.00e+00	0	43	0	1379926016	52	3930
2026-01-23 14:45:11.38	276.03	14.89	-40.5	-41.2	23.2	0.00e+00	0	44	0	1386217472	52	3958
2026-01-23 14:45:12.39	276.24	14.91	-40.6	-41.4	23.0	0.00e+00	0	43	0	1391460352	52	4026
2026-01-23 14:45:13.40	276.45	14.92	-40.7	-41.6	22.9	0.00e+00	0	43	0	1396703232	52	4102
2026-01-23 14:45:14.41	276.66	14.94	-40.7	-41.6	22.9	0.00e+00	0	44	0	1402994688	52	4102
2026-01-23 14:45:15.42	276.87	14.96	-40.9	-41.7	22.8	0.00e+00	0	43	0	1408237568	52	4162
2026-01-23 14:45:16.42	277.08	14.97	-40.7	-41.5	22.9	0.00e+00	0	44	0	1413480448	52	4086
2026-01-23 14:45:17.43	277.29	14.99	-40.6	-41.4	23.0	0.00e+00	0	44	0	1419771904	52	4024
2026-01-23 14:45:18.44	277.50	15.00	-40.5	-41.3	23.2	0.00e+00	0	44	0	1426063360	52	3964
2026-01-23 14:45:19.45	277.72	15.02	-40.5	-41.3	23.1	0.00e+00	0	43	0	1431306240	52	3991
2026-01-23 14:45:20.46	277.93	15.03	-40.4	-41.1	23.3	0.00e+00	0	44	0	1436549120	52	3907
2026-01-23 14:45:21.47	278.14	15.04	-40.4	-41.1	23.3	0.00e+00	0	44	0	1442840576	52	3910
2026-01-23 14:45:22.48	278.36	15.06	-40.4	-41.1	23.3	0.00e+00	0	43	0	1448083456	52	3912
2026-01-23 14:45:23.49	278.57	15.07	-40.4	-41.1	23.3	0.00e+00	0	43	0	1453326336	52	3898
2026-01-23 14:45:24.49	278.78	15.08	-40.5	-41.3	23.2	0.00e+00	0	44	0	1459617792	52	3972
2026-01-23 14:45:25.50	278.99	15.10	-40.5	-41.3	23.2	0.00e+00	0	44	0	1464860672	52	3969
2026-01-23 14:45:26.51	279.21	15.11	-40.5	-41.3	23.2	0.00e+00	0	43	0	1471152128	52	3976
2026-01-23 14:45:27.52	279.42	15.12	-40.6	-41.4	23.1	0.00e+00	0	43	0	1476395008	52	4005
2026-01-23 14:45:28.53	279.63	15.13	-40.5	-41.3	23.2	0.00e+00	0	44	0	1481637888	52	3973
2026-01-23 14:45:29.54	279.85	15.14	-40.3	-41.1	23.4	0.00e+00	0	44	0	1487929344	52	3875
2026-01-23 14:45:30.55	280.06	15.15	-40.3	-41.1	23.3	0.00e+00	0	44	0	1494220800	52	3877
2026-01-23 14:45:31.56	280.28	15.17	-40.4	-41.2	23.3	0.00e+00	0	44	0	1499463680	52	3918
2026-01-23 14:45:32.56	280.49	15.18	-40.4	-41.2	23.2	0.00e+00	0	43	0	1504706560	52	3936
2026-01-23 14:45:33.57	280.70	15.18	-40.4	-41.2	23.2	0.00e+00	0	43	0	1510998016	52	3943
2026-01-23 14:45:34.58	280.92	15.19	-40.4	-41.2	23.3	0.00e+00	0	43	0	1516240896	52	3921
2026-01-23 14:45:35.59	281.13	15.20	-40.2	-41.0	23.5	0.00e+00	0	44	0	1521483776	52	3832
2026-01-23 14:45:36.60	281.35	15.21	-40.2	-41.0	23.4	0.00e+00	0	44	0	1527775232	52	3841
2026-01-23 14:45:37.60	281.56	15.22	-40.3	-41.0	23.4	0.00e+00	0	43	0	1533018112	52	3850
2026-01-23 14:45:38.61	281.78	15.23	-40.1	-40.9	23.6	0.00e+00	0	43	0	1538260992	52	3803
2026-01-23 14:45:39.62	281.99	15.23	-40.3	-41.0	23.4	0.00e+00	0	44	0	1544552448	52	3854
2026-01-23 14:45:40.63	282.21	15.24	-40.4	-41.2	23.3	0.00e+00	0	43	0	1549795328	52	3914
2026-01-23 14:45:41.64	282.42	15.25	-40.3	-41.1	23.4	0.00e+00	0	44	0	1556086784	52	3881
2026-01-23 14:45:42.64	282.64	15.25	-40.4	-41.1	23.3	0.00e+00	0	43	0	1561329664	52	3913
2026-01-23 14:45:43.65	282.85	15.26	-40.4	-41.1	23.4	0.00e+00	0	44	0	1567621120	52	3900
2026-01-23 14:45:44.66	283.07	15.27	-40.4	-41.1	23.4	0.00e+00	0	44	0	1572864000	52	3906
2026-01-23 14:45:45.67	283.29	15.27	-40.5	-41.3	23.3	0.00e+00	0	44	0	1579155456	52	3959
2026-01-23 14:45:46.68	283.50	15.28	-40.3	-41.1	23.4	0.00e+00	0	43	0	1584398336	52	3897
2026-01-23 14:45:47.69	283.72	15.28	-40.4	-41.2	23.3	0.00e+00	0	44	0	1589641216	52	3930
2026-01-23 14:45:48.70	283.93	15.28	-40.5	-41.3	23.3	0.00e+00	0	44	0	1595932672	52	3966
2026-01-23 14:45:49.71	284.15	15.29	-40.5	-41.3	23.2	0.00e+00	0	44	0	1601175552	52	3978
2026-01-23 14:45:50.72	284.37	15.29	-40.6	-41.4	23.1	0.00e+00	0	43	0	1606418432	52	4026
2026-01-23 14:45:51.73	284.58	15.29	-40.7	-41.5	23.1	0.00e+00	0	44	0	1612709888	52	4057
2026-01-23 14:45:52.74	284.80	15.30	-40.9	-41.7	22.9	0.00e+00	0	44	0	1619001344	52	4158
2026-01-23 14:45:53.74	285.01	15.30	-40.8	-41.6	23.0	0.00e+00	0	43	0	1624244224	52	4111
2026-01-23 14:45:54.75	285.23	15.30	-40.8	-41.6	22.9	0.00e+00	0	44	0	1629487104	52	4133
2026-01-23 14:45:55.76	285.45	15.30	-40.7	-41.5	23.1	0.00e+00	0	44	0	1635778560	52	4083
2026-01-23 14:45:56.77	285.66	15.30	-40.7	-41.5	23.1	0.00e+00	0	44	0	1641021440	52	4074
2026-01-23 14:45:57.78	285.88	15.30	-40.7	-41.5	23.1	0.00e+00	0	43	0	1646264320	52	4075
2026-01-23 14:45:58.79	286.10	15.30	-40.6	-41.4	23.1	0.00e+00	0	44	0	1652555776	52	4038
2026-01-23 14:45:59.79	286.31	15.30	-40.6	-41.4	23.2	0.00e+00	0	44	0	1657798656	52	4005
2026-01-23 14:46:00.80	286.53	15.30	-40.6	-41.4	23.2	0.00e+00	0	44	0	1664090112	52	4019
2026-01-23 14:46:01.81	286.74	15.30	-40.5	-41.3	23.3	0.00e+00	0	44	0	1669332992	52	3982
2026-01-23 14:46:02.82	286.96	15.30	-40.6	-41.3	23.2	0.00e+00	0	44	0	1674575872	52	3996
2026-01-23 14:46:03.83	287.18	15.30	-40.5	-41.3	23.3	0.00e+00	0	43	0	1680867328	52	3974
2026-01-23 14:46:04.84	287.39	15.30	-40.6	-41.4	23.2	0.00e+00	0	44	0	1687158784	52	4031
2026-01-23 14:46:05.85	287.61	15.30	-40.5	-41.3	23.2	0.00e+00	0	44	0	1692401664	52	3989
2026-01-23 14:46:06.85	287.82	15.29	-40.6	-41.3	23.2	0.00e+00	0	44	0	1697644544	52	3999
2026-01-23 14:46:07.86	288.04	15.29	-40.5	-41.3	23.2	0.00e+00	0	44	0	1703936000	52	4003
2026-01-23 14:46:08.87	288.25	15.29	-40.5	-41.4	23.2	0.00e+00	0	44	0	1709178880	52	4005
2026-01-23 14:46:09.88	288.47	15.28	-40.6	-41.4	23.2	0.00e+00	0	43	0	1714421760	52	4033
2026-01-23 14:46:10.89	288.69	15.28	-40.7	-41.5	23.1	0.00e+00	0	44	0	1720713216	52	4064
2026-01-23 14:46:11.90	288.90	15.27	-40.8	-41.6	23.0	0.00e+00	0	43	0	1725956096	52	4107
2026-01-23 14:46:12.90	289.12	15.27	-40.7	-41.5	23.1	0.00e+00	0	43	0	1731198976	52	4083
2026-01-23 14:46:13.91	289.33	15.26	-40.8	-41.6	23.0	0.00e+00	0	44	0	1737490432	52	4120
2026-01-23 14:46:14.92	289.55	15.26	-40.8	-41.6	23.0	0.00e+00	0	44	0	1742733312	52	4120
2026-01-23 14:46:15.93	289.76	15.25	-40.8	-41.6	23.0	0.00e+00	0	44	0	1749024768	52	4106
2026-01-23 14:46:16.94	289.98	15.24	-40.8	-41.6	23.0	0.00e+00	0	44	0	1754267648	52	4127
2026-01-23 14:46:17.95	290.19	15.24	-40.9	-41.7	22.9	0.00e+00	0	44	0	1760559104	52	4176
2026-01-23 14:46:18.96	290.41	15.23	-40.8	-41.6	23.0	0.00e+00	0	44	0	1765801984	52	4135
2026-01-23 14:46:19.97	290.62	15.22	-40.9	-41.7	23.0	0.00e+00	0	44	0	1772093440	52	4149
2026-01-23 14:46:20.97	290.84	15.21	-40.8	-41.6	23.0	0.00e+00	0	44	0	1777336320	52	4134
2026-01-23 14:46:21.98	291.05	15.21	-40.7	-41.5	23.1	0.00e+00	0	44	0	1782579200	52	4076
2026-01-23 14:46:22.99	291.27	15.20	-40.8	-41.6	23.1	0.00e+00	0	44	0	1788870656	52	4111
2026-01-23 14:46:24.00	291.48	15.19	-40.7	-41.5	23.2	0.00e+00	0	44	0	1794113536	52	4058
2026-01-23 14:46:25.01	291.70	15.18	-40.7	-41.5	23.1	0.00e+00	0	44	0	1799356416	52	4069
2026-01-23 14:46:26.02	291.91	15.17	-40.7	-41.4	23.2	0.00e+00	0	44	0	1805647872	52	4050
2026-01-23 14:46:27.03	292.13	15.16	-40.6	-41.4	23.2	0.00e+00	0	44	0	1810890752	52	4030
2026-01-23 14:46:28.04	292.34	15.15	-40.8	-41.6	23.1	0.00e+00	0	44	0	1817182208	52	4106
2026-01-23 14:46:29.04	292.55	15.14	-40.8	-41.5	23.1	0.00e+00	0	44	0	1822425088	52	4095
2026-01-23 14:46:30.05	292.77	15.12	-40.8	-41.5	23.1	0.00e+00	0	43	0	1828716544	52	4089
2026-01-23 14:46:31.06	292.98	15.11	-40.8	-41.6	23.0	0.00e+00	0	44	0	1833959424	52	4119
2026-01-23 14:46:32.07	293.19	15.10	-40.9	-41.7	22.9	0.00e+00	0	44	0	1839202304	52	4161
2026-01-23 14:46:33.08	293.41	15.09	-41.0	-41.8	22.9	0.00e+00	0	43	0	1845493760	52	4202
2026-01-23 14:46:34.09	293.62	15.08	-40.9	-41.7	22.9	0.00e+00	0	44	0	1850736640	52	4175
2026-01-23 14:46:35.10	293.83	15.06	-40.8	-41.7	23.0	0.00e+00	0	44	0	1857028096	52	4148
2026-01-23 14:46:36.10	294.04	15.05	-40.8	-41.6	23.0	0.00e+00	0	44	0	1862270976	52	4132
2026-01-23 14:46:37.11	294.26	15.04	-40.7	-41.5	23.1	0.00e+00	0	44	0	1867513856	52	4085
2026-01-23 14:46:38.12	294.47	15.02	-40.8	-41.6	23.1	0.00e+00	0	43	0	1873805312	52	4103
2026-01-23 14:46:39.13	294.68	15.01	-40.7	-41.5	23.1	0.00e+00	0	43	0	1879048192	52	4083
2026-01-23 14:46:40.13	294.89	14.99	-40.9	-41.7	22.9	0.00e+00	0	44	0	1885339648	52	4158
2026-01-23 14:46:41.14	295.10	14.98	-40.8	-41.6	23.0	0.00e+00	0	43	0	1890582528	52	4136
2026-01-23 14:46:42.15	295.31	14.96	-40.8	-41.6	23.0	0.00e+00	0	43	0	1896873984	52	4115
2026-01-23 14:46:43.15	295.52	14.94	-40.8	-41.6	23.0	0.00e+00	0	44	0	1902116864	52	4101
2026-01-23 14:46:44.16	295.73	14.93	-40.7	-41.5	23.1	0.00e+00	0	44	0	1907359744	52	4075
2026-01-23 14:46:45.17	295.94	14.91	-40.7	-41.5	23.1	0.00e+00	0	44	0	1913651200	52	4071
2026-01-23 14:46:46.18	296.16	14.89	-40.8	-41.6	23.0	0.00e+00	0	44	0	1918894080	52	4114
2026-01-23 14:46:47.19	296.37	14.88	-40.7	-41.5	23.1	0.00e+00	0	44	0	1924136960	52	4083
2026-01-23 14:46:48.19	296.57	14.86	-40.7	-41.5	23.0	0.00e+00	0	44	0	1930428416	52	4088
2026-01-23 14:46:49.20	296.78	14.84	-40.8	-41.6	23.0	0.00e+00	0	43	0	1935671296	52	4116
2026-01-23 14:46:50.21	296.99	14.82	-40.8	-41.6	22.9	0.00e+00	0	44	0	1941962752	52	4127
2026-01-23 14:46:51.22	297.20	14.80	-40.8	-41.6	23.0	0.00e+00	0	43	0	1947205632	52	4109
2026-01-23 14:46:52.23	297.41	14.78	-40.9	-41.7	22.9	0.00e+00	0	44	0	1952448512	52	4165
2026-01-23 14:46:53.24	297.62	14.77	-40.9	-41.7	22.8	0.00e+00	0	44	0	1958739968	52	4175
2026-01-23 14:46:54.25	297.83	14.75	-40.9	-41.7	22.9	0.00e+00	0	44	0	1965031424	52	4160
2026-01-23 14:46:55.25	298.04	14.73	-40.8	-41.6	22.9	0.00e+00	0	44	0	1970274304	52	4138
2026-01-23 14:46:56.27	298.25	14.70	-40.8	-41.6	23.0	0.00e+00	0	44	0	1975517184	52	4103
2026-01-23 14:46:57.28	298.45	14.68	-40.7	-41.5	23.0	0.00e+00	0	44	0	1981808640	52	4081
2026-01-23 14:46:58.28	298.66	14.66	-40.8	-41.6	22.9	0.00e+00	0	44	0	1987051520	52	4138
2026-01-23 14:46:59.29	298.87	14.64	-40.8	-41.6	22.9	0.00e+00	0	43	0	1992294400	52	4133
2026-01-23 14:47:00.30	299.07	14.62	-40.8	-41.6	22.9	0.00e+00	0	44	0	1998585856	52	4118
2026-01-23 14:47:01.31	299.28	14.60	-40.9	-41.7	22.8	0.00e+00	0	44	0	2003828736	52	4163
2026-01-23 14:47:02.32	299.49	14.58	-40.8	-41.6	22.9	0.00e+00	0	43	0	2009071616	52	4104
2026-01-23 14:47:03.33	299.69	14.55	-40.8	-41.6	22.9	0.00e+00	0	44	0	2015363072	52	4099
2026-01-23 14:47:04.34	299.90	14.53	-40.7	-41.5	23.0	0.00e+00	0	44	0	2021654528	52	4075
2026-01-23 14:47:05.35	300.10	14.51	-40.8	-41.5	22.9	0.00e+00	0	43	0	2026897408	52	4096
2026-01-23 14:47:06.35	300.31	14.48	-40.7	-41.5	23.0	0.00e+00	0	44	0	2032140288	52	4090
2026-01-23 14:47:07.36	300.51	14.46	-41.0	-41.8	22.7	0.00e+00	0	43	0	2038431744	52	4195
2026-01-23 14:47:08.37	300.72	14.43	-40.9	-41.7	22.8	0.00e+00	0	44	0	2043674624	52	4181
2026-01-23 14:47:09.38	300.92	14.41	-41.1	-41.9	22.6	0.00e+00	0	44	0	2049966080	52	4268
2026-01-23 14:47:10.39	301.12	14.38	-41.0	-41.9	22.6	0.00e+00	0	44	0	2055208960	52	4243
2026-01-23 14:47:11.40	301.33	14.36	-41.1	-41.9	22.6	0.00e+00	0	44	0	2060451840	52	4267
2026-01-23 14:47:12.40	301.53	14.33	-41.0	-41.8	22.7	0.00e+00	0	44	0	2066743296	52	4227
2026-01-23 14:47:13.41	301.73	14.31	-40.9	-41.8	22.7	0.00e+00	0	44	0	2071986176	52	4199
2026-01-23 14:47:14.42	301.93	14.28	-40.9	-41.7	22.8	0.00e+00	0	44	0	2077229056	52	4168
2026-01-23 14:47:15.43	302.13	14.26	-41.0	-41.8	22.7	0.00e+00	0	44	0	2083520512	52	4206
2026-01-23 14:47:16.44	302.34	14.23	-41.0	-41.8	22.7	0.00e+00	0	44	0	2089811968	52	4213
2026-01-23 14:47:17.45	302.54	14.20	-41.0	-41.9	22.6	0.00e+00	0	44	0	2095054848	52	4252
2026-01-23 14:47:18.45	302.74	14.17	-41.0	-41.8	22.7	0.00e+00	0	44	0	2100297728	52	4204
2026-01-23 14:47:19.46	302.94	14.15	-41.0	-41.8	22.6	0.00e+00	0	44	0	2106589184	52	4217
2026-01-23 14:47:20.47	303.14	14.12	-41.1	-41.9	22.6	0.00e+00	0	44	0	2111832064	52	4253
2026-01-23 14:47:21.48	303.34	14.09	-41.1	-41.9	22.6	0.00e+00	0	43	0	2117074944	52	4251
2026-01-23 14:47:22.49	303.54	14.06	-40.9	-41.7	22.7	0.00e+00	0	44	0	2123366400	52	4151
2026-01-23 14:47:23.50	303.74	14.03	-41.0	-41.8	22.6	0.00e+00	0	44	0	2128609280	52	4231
2026-01-23 14:47:24.51	303.93	14.00	-41.0	-41.8	22.6	0.00e+00	0	44	0	2134900736	52	4218
2026-01-23 14:47:25.52	304.13	13.98	-41.0	-41.8	22.6	0.00e+00	0	44	0	2140143616	52	4242
2026-01-23 14:47:26.52	304.33	13.95	-41.0	-41.8	22.6	0.00e+00	0	44	0	2145386496	52	4215
2026-01-23 14:47:27.53	304.53	13.92	-40.9	-41.8	22.7	0.00e+00	0	44	0	2151677952	52	4195
2026-01-23 14:47:28.54	304.72	13.89	-40.9	-41.7	22.8	0.00e+00	0	43	0	2157969408	52	4153
2026-01-23 14:47:29.55	304.92	13.86	-40.8	-41.6	22.8	0.00e+00	0	44	0	2163212288	52	4120
2026-01-23 14:47:30.56	305.12	13.82	-40.8	-41.6	22.7	0.00e+00	0	44	0	2168455168	52	4139
2026-01-23 14:47:31.57	305.31	13.79	-40.8	-41.6	22.8	0.00e+00	0	44	0	2174746624	52	4108
2026-01-23 14:47:32.58	305.51	13.76	-40.7	-41.5	22.9	0.00e+00	0	44	0	2179989504	52	4088
2026-01-23 14:47:33.59	305.70	13.73	-40.9	-41.7	22.7	0.00e+00	0	43	0	2185232384	52	4156
2026-01-23 14:47:34.59	305.90	13.70	-40.9	-41.7	22.7	0.00e+00	0	43	0	2191523840	52	4179
2026-01-23 14:47:35.60	306.09	13.67	-41.0	-41.8	22.6	0.00e+00	0	43	0	2196766720	52	4241
2026-01-23 14:47:36.61	306.28	13.64	-41.0	-41.8	22.6	0.00e+00	0	44	0	2202009600	52	4239
2026-01-23 14:47:37.62	306.48	13.60	-40.9	-41.7	22.7	0.00e+00	0	44	0	2208301056	52	4163
2026-01-23 14:47:38.63	306.67	13.57	-40.8	-41.6	22.7	0.00e+00	0	44	0	2213543936	52	4140
2026-01-23 14:47:39.64	306.86	13.54	-40.8	-41.6	22.8	0.00e+00	0	43	0	2219835392	52	4113
2026-01-23 14:47:40.64	307.05	13.50	-40.9	-41.7	22.7	0.00e+00	0	44	0	2225078272	52	4179
2026-01-23 14:47:41.65	307.25	13.47	-41.0	-41.8	22.6	0.00e+00	0	44	0	2231369728	52	4200
2026-01-23 14:47:42.66	307.44	13.44	-41.1	-41.9	22.5	0.00e+00	0	43	0	2236612608	52	4258
2026-01-23 14:47:43.67	307.63	13.40	-41.0	-41.8	22.6	0.00e+00	0	43	0	2242904064	52	4201
2026-01-23 14:47:44.68	307.82	13.37	-40.9	-41.7	22.6	0.00e+00	0	44	0	2248146944	52	4184
2026-01-23 14:47:45.69	308.01	13.33	-41.1	-41.9	22.5	0.00e+00	0	44	0	2253389824	52	4258
2026-01-23 14:47:46.69	308.20	13.30	-40.9	-41.7	22.7	0.00e+00	0	44	0	2259681280	52	4159
2026-01-23 14:47:47.70	308.39	13.26	-41.0	-41.8	22.6	0.00e+00	0	44	0	2264924160	52	4218
2026-01-23 14:47:48.71	308.57	13.23	-40.9	-41.7	22.7	0.00e+00	0	44	0	2270167040	52	4165
2026-01-23 14:47:49.72	308.76	13.19	-40.9	-41.7	22.6	0.00e+00	0	43	0	2276458496	52	4191
2026-01-23 14:47:50.73	308.95	13.16	-41.1	-41.9	22.5	0.00e+00	0	44	0	2281701376	52	4266
2026-01-23 14:47:51.74	309.14	13.12	-41.1	-41.9	22.4	0.00e+00	0	44	0	2287992832	52	4282
2026-01-23 14:47:52.75	309.33	13.09	-41.1	-42.0	22.4	0.00e+00	0	44	0	2293235712	52	4301
2026-01-23 14:47:53.76	309.51	13.05	-41.2	-42.0	22.4	0.00e+00	0	44	0	2299527168	53	4078
2026-01-23 14:47:54.76	309.70	13.01	-41.2	-42.1	22.3	0.00e+00	0	44	0	2304770048	53	4100
2026-01-23 14:47:55.77	309.88	12.98	-41.0	-41.8	22.5	0.00e+00	0	44	0	2310012928	53	3993
2026-01-23 14:47:56.78	310.07	12.94	-41.0	-41.8	22.6	0.00e+00	0	44	0	2316304384	53	3980
2026-01-23 14:47:57.79	310.25	12.90	-41.1	-41.9	22.5	0.00e+00	0	44	0	2321547264	53	4020
2026-01-23 14:47:58.80	310.44	12.87	-41.1	-41.9	22.5	0.00e+00	0	44	0	2327838720	53	4013
2026-01-23 14:47:59.81	310.62	12.83	-41.1	-41.9	22.4	0.00e+00	0	44	0	2333081600	53	4045
2026-01-23 14:48:00.82	310.80	12.79	-41.2	-42.0	22.3	0.00e+00	0	44	0	2338324480	53	4079
2026-01-23 14:48:01.83	310.99	12.75	-41.1	-42.0	22.4	0.00e+00	0	44	0	2344615936	53	4062
2026-01-23 14:48:02.84	311.17	12.71	-41.2	-42.0	22.3	0.00e+00	0	44	0	2350907392	53	4074
2026-01-23 14:48:03.85	311.35	12.68	-41.3	-42.1	22.2	0.00e+00	0	44	0	2356150272	53	4144
2026-01-23 14:48:04.86	311.53	12.64	-41.2	-42.1	22.2	0.00e+00	0	44	0	2361393152	53	4111
2026-01-23 14:48:05.87	311.71	12.60	-41.3	-42.2	22.2	0.00e+00	0	43	0	2367684608	53	4157
2026-01-23 14:48:06.87	311.89	12.56	-41.3	-42.1	22.2	0.00e+00	0	43	0	2372927488	53	4129
2026-01-23 14:48:07.88	312.07	12.52	-41.3	-42.1	22.2	0.00e+00	0	43	0	2378170368	53	4138
2026-01-23 14:48:08.89	312.25	12.48	-41.3	-42.1	22.2	0.00e+00	0	44	0	2384461824	53	4128
2026-01-23 14:48:09.90	312.43	12.44	-41.3	-42.1	22.2	0.00e+00	0	43	0	2389704704	53	4134
2026-01-23 14:48:10.91	312.61	12.40	-41.3	-42.2	22.1	0.00e+00	0	43	0	2394947584	53	4154
2026-01-23 14:48:11.92	312.79	12.36	-41.3	-42.2	22.1	0.00e+00	0	44	0	2401239040	53	4150
2026-01-23 14:48:12.93	312.97	12.32	-41.2	-42.0	22.3	0.00e+00	0	43	0	2406481920	53	4085
2026-01-23 14:48:13.93	313.14	12.28	-41.2	-42.0	22.3	0.00e+00	0	43	0	2412773376	53	4096
2026-01-23 14:48:14.94	313.32	12.24	-41.2	-42.0	22.3	0.00e+00	0	44	0	2418016256	53	4072
2026-01-23 14:48:15.95	313.50	12.20	-41.2	-42.1	22.2	0.00e+00	0	44	0	2424307712	53	4109
2026-01-23 14:48:16.96	313.67	12.16	-41.2	-42.0	22.3	0.00e+00	0	44	0	2429550592	53	4075
2026-01-23 14:48:17.97	313.85	12.12	-41.3	-42.1	22.2	0.00e+00	0	43	0	2435842048	53	4114
2026-01-23 14:48:18.98	314.02	12.08	-41.2	-42.1	22.2	0.00e+00	0	43	0	2441084928	53	4107
2026-01-23 14:48:19.98	314.20	12.04	-41.3	-42.1	22.2	0.00e+00	0	43	0	2446327808	53	4118
2026-01-23 14:48:20.99	314.37	12.00	-41.4	-42.3	22.0	0.00e+00	0	44	0	2452619264	53	4207
2026-01-23 14:48:22.00	314.54	11.95	-41.3	-42.1	22.2	0.00e+00	0	44	0	2457862144	53	4118
2026-01-23 14:48:23.01	314.72	11.91	-41.4	-42.2	22.0	0.00e+00	0	43	0	2463105024	53	4192
2026-01-23 14:48:24.02	314.89	11.87	-41.3	-42.1	22.1	0.00e+00	0	44	0	2469396480	53	4136
2026-01-23 14:48:25.03	315.06	11.83	-41.4	-42.2	22.0	0.00e+00	0	44	0	2474639360	53	4179
2026-01-23 14:48:26.03	315.23	11.79	-41.3	-42.2	22.1	0.00e+00	0	43	0	2479882240	53	4163
2026-01-23 14:48:27.04	315.40	11.74	-41.3	-42.1	22.1	0.00e+00	0	43	0	2486173696	53	4145
2026-01-23 14:48:28.05	315.57	11.70	-41.3	-42.1	22.1	0.00e+00	0	44	0	2492465152	53	4123
2026-01-23 14:48:29.06	315.74	11.66	-41.3	-42.2	22.1	0.00e+00	0	44	0	2497708032	53	4158
2026-01-23 14:48:30.07	315.91	11.62	-41.2	-42.1	22.2	0.00e+00	0	43	0	2502950912	53	4109
2026-01-23 14:48:31.08	316.08	11.57	-41.2	-42.1	22.2	0.00e+00	0	44	0	2509242368	53	4106
2026-01-23 14:48:32.09	316.25	11.53	-41.2	-42.0	22.2	0.00e+00	0	44	0	2514485248	53	4084
2026-01-23 14:48:33.10	316.42	11.49	-41.3	-42.1	22.1	0.00e+00	0	44	0	2520776704	53	4124
2026-01-23 14:48:34.11	316.59	11.44	-41.3	-42.1	22.1	0.00e+00	0	44	0	2526019584	53	4134
2026-01-23 14:48:35.11	316.75	11.40	-41.3	-42.1	22.1	0.00e+00	0	44	0	2531262464	53	4129
2026-01-23 14:48:36.12	316.92	11.36	-41.3	-42.2	22.1	0.00e+00	0	43	0	2537553920	53	4152
2026-01-23 14:48:37.13	317.09	11.31	-41.3	-42.1	22.1	0.00e+00	0	44	0	2542796800	53	4137
2026-01-23 14:48:38.14	317.25	11.27	-41.3	-42.2	22.1	0.00e+00	0	43	0	2549088256	53	4152
2026-01-23 14:48:39.15	317.42	11.22	-41.5	-42.4	21.9	0.00e+00	0	44	0	2554331136	53	4244
2026-01-23 14:48:40.16	317.58	11.18	-41.6	-42.4	21.8	0.00e+00	0	44	0	2560622592	53	4270
2026-01-23 14:48:41.17	317.75	11.14	-41.6	-42.5	21.8	0.00e+00	0	44	0	2565865472	53	4301
2026-01-23 14:48:42.18	317.91	11.09	-41.6	-42.5	21.7	0.00e+00	0	44	0	2571108352	53	4297
2026-01-23 14:48:43.19	318.07	11.05	-41.7	-42.5	21.7	0.00e+00	0	44	0	2577399808	53	4331
2026-01-23 14:48:44.20	318.24	11.00	-41.7	-42.5	21.7	0.00e+00	0	44	0	2582642688	53	4331
2026-01-23 14:48:45.21	318.40	10.96	-41.7	-42.5	21.7	0.00e+00	0	44	0	2587885568	53	4335
2026-01-23 14:48:46.21	318.56	10.91	-41.8	-42.7	21.6	0.00e+00	0	44	0	2594177024	54	4150
2026-01-23 14:48:47.22	318.72	10.87	-41.7	-42.6	21.6	0.00e+00	0	44	0	2599419904	54	4114
2026-01-23 14:48:48.23	318.88	10.82	-41.7	-42.6	21.6	0.00e+00	0	43	0	2605711360	54	4131
2026-01-23 14:48:49.24	319.04	10.78	-41.7	-42.6	21.6	0.00e+00	0	44	0	2610954240	54	4130
2026-01-23 14:48:50.25	319.20	10.73	-41.7	-42.6	21.6	0.00e+00	0	44	0	2617245696	54	4121
2026-01-23 14:48:51.26	319.36	10.69	-41.7	-42.6	21.6	0.00e+00	0	44	0	2622488576	54	4135
2026-01-23 14:48:52.27	319.52	10.64	-41.7	-42.6	21.6	0.00e+00	0	44	0	2628780032	54	4107
2026-01-23 14:48:53.28	319.68	10.59	-41.7	-42.5	21.6	0.00e+00	0	44	0	2634022912	54	4091
2026-01-23 14:48:54.29	319.84	10.55	-41.7	-42.6	21.6	0.00e+00	0	44	0	2639265792	54	4126
2026-01-23 14:48:55.29	320.00	10.50	-41.7	-42.6	21.6	0.00e+00	0	43	0	2645557248	54	4110
2026-01-23 14:48:56.30	320.15	10.46	-41.8	-42.7	21.5	0.00e+00	0	43	0	2650800128	54	4157
2026-01-23 14:48:57.31	320.31	10.41	-41.8	-42.6	21.5	0.00e+00	0	44	0	2656043008	54	4134
2026-01-23 14:48:58.32	320.47	10.36	-41.8	-42.7	21.5	0.00e+00	0	43	0	2662334464	54	4173
2026-01-23 14:48:59.33	320.62	10.32	-41.9	-42.8	21.4	0.00e+00	0	44	0	2667577344	54	4201
2026-01-23 14:49:00.34	320.78	10.27	-41.8	-42.7	21.5	0.00e+00	0	43	0	2673868800	54	4155
2026-01-23 14:49:01.35	320.93	10.22	-41.7	-42.6	21.6	0.00e+00	0	44	0	2679111680	54	4124
2026-01-23 14:49:02.35	321.08	10.18	-41.7	-42.6	21.6	0.00e+00	0	43	0	2685403136	54	4119
2026-01-23 14:49:03.36	321.24	10.13	-41.8	-42.6	21.5	0.00e+00	0	43	0	2690646016	54	4142
2026-01-23 14:49:04.37	321.39	10.08	-41.7	-42.6	21.5	0.00e+00	0	44	0	2695888896	54	4130
2026-01-23 14:49:05.38	321.54	10.04	-41.7	-42.6	21.5	0.00e+00	0	43	0	2702180352	54	4118
2026-01-23 14:49:06.39	321.70	9.99	-41.8	-42.6	21.5	0.00e+00	0	44	0	2707423232	54	4142
2026-01-23 14:49:07.40	321.85	9.94	-41.7	-42.5	21.6	0.00e+00	0	44	0	2713714688	54	4094
2026-01-23 14:49:08.41	322.00	9.90	-41.8	-42.6	21.5	0.00e+00	0	44	0	2718957568	54	4136
2026-01-23 14:49:09.42	322.15	9.85	-41.7	-42.6	21.5	0.00e+00	0	44	0	2724200448	54	4122
2026-01-23 14:49:10.43	322.30	9.80	-41.8	-42.7	21.5	0.00e+00	0	44	0	2730491904	54	4148
2026-01-23 14:49:11.43	322.45	9.76	-41.7	-42.6	21.5	0.00e+00	0	43	0	2736783360	54	4131
2026-01-23 14:49:12.44	322.60	9.71	-41.6	-42.5	21.6	0.00e+00	0	44	0	2742026240	54	4080
2026-01-23 14:49:13.45	322.75	9.66	-41.7	-42.6	21.5	0.00e+00	0	43	0	2747269120	54	4105
2026-01-23 14:49:14.46	322.90	9.61	-41.8	-42.6	21.5	0.00e+00	0	43	0	2753560576	54	4144
2026-01-23 14:49:15.47	323.05	9.56	-41.7	-42.5	21.6	0.00e+00	0	44	0	2758803456	54	4091
2026-01-23 14:49:16.48	323.19	9.52	-41.8	-42.6	21.5	0.00e+00	0	44	0	2764046336	54	4140
2026-01-23 14:49:17.49	323.34	9.47	-41.8	-42.7	21.4	0.00e+00	0	43	0	2770337792	54	4170
2026-01-23 14:49:18.49	323.49	9.42	-42.0	-42.9	21.2	0.00e+00	0	44	0	2775580672	54	4249
2026-01-23 14:49:19.50	323.63	9.37	-42.0	-42.9	21.2	0.00e+00	0	43	0	2780823552	54	4273
2026-01-23 14:49:20.51	323.78	9.33	-42.0	-42.9	21.2	0.00e+00	0	43	0	2787115008	54	4268
2026-01-23 14:49:21.52	323.92	9.28	-42.0	-42.9	21.1	0.00e+00	0	43	0	2792357888	54	4274
2026-01-23 14:49:22.53	324.07	9.23	-42.2	-43.1	21.0	0.00e+00	0	43	0	2798649344	55	4116
2026-01-23 14:49:23.54	324.21	9.18	-42.0	-42.9	21.2	0.00e+00	0	43	0	2803892224	55	4030
2026-01-23 14:49:24.54	324.36	9.13	-42.1	-43.0	21.1	0.00e+00	0	43	0	2810183680	55	4071
2026-01-23 14:49:25.55	324.50	9.08	-42.1	-43.0	21.0	0.00e+00	0	43	0	2815426560	55	4096
2026-01-23 14:49:26.56	324.64	9.04	-42.1	-43.0	21.0	0.00e+00	0	43	0	2821718016	55	4092
2026-01-23 14:49:27.57	324.79	8.99	-42.1	-43.0	21.0	0.00e+00	0	43	0	2826960896	55	4080
2026-01-23 14:49:28.58	324.93	8.94	-42.1	-43.0	21.0	0.00e+00	0	44	0	2832203776	55	4081
2026-01-23 14:49:29.59	325.07	8.89	-42.1	-43.0	21.0	0.00e+00	0	44	0	2838495232	55	4095
2026-01-23 14:49:30.60	325.21	8.84	-42.0	-42.9	21.1	0.00e+00	0	44	0	2843738112	55	4050
2026-01-23 14:49:31.61	325.35	8.79	-42.2	-43.1	21.0	0.00e+00	0	44	0	2848980992	55	4120
2026-01-23 14:49:32.61	325.49	8.75	-42.3	-43.2	20.8	0.00e+00	0	44	0	2855272448	55	4182
2026-01-23 14:49:33.62	325.63	8.70	-42.2	-43.2	20.9	0.00e+00	0	43	0	2860515328	55	4147
2026-01-23 14:49:34.63	325.77	8.65	-42.3	-43.2	20.9	0.00e+00	0	43	0	2865758208	55	4166
2026-01-23 14:49:35.64	325.91	8.60	-42.3	-43.2	20.9	0.00e+00	0	43	0	2872049664	55	4162
2026-01-23 14:49:36.65	326.05	8.55	-42.2	-43.1	20.9	0.00e+00	0	43	0	2878341120	55	4115
2026-01-23 14:49:37.65	326.19	8.50	-42.3	-43.2	20.9	0.00e+00	0	43	0	2883584000	55	4152
2026-01-23 14:49:38.66	326.32	8.45	-42.2	-43.1	21.0	0.00e+00	0	43	0	2888826880	55	4107
2026-01-23 14:49:39.67	326.46	8.40	-42.3	-43.2	20.8	0.00e+00	0	44	0	2895118336	55	4191
2026-01-23 14:49:40.68	326.60	8.35	-42.2	-43.1	20.9	0.00e+00	0	43	0	2900361216	55	4144
2026-01-23 14:49:41.68	326.73	8.31	-42.3	-43.2	20.9	0.00e+00	0	43	0	2906652672	55	4180
2026-01-23 14:49:42.69	326.87	8.26	-42.3	-43.3	20.8	0.00e+00	0	44	0	2911895552	55	4201
2026-01-23 14:49:43.70	327.00	8.21	-42.3	-43.3	20.7	0.00e+00	0	43	0	2917138432	55	4199
2026-01-23 14:49:44.71	327.14	8.16	-42.4	-43.3	20.7	0.00e+00	0	43	0	2923429888	55	4233
2026-01-23 14:49:45.72	327.27	8.11	-42.2	-43.2	20.8	0.00e+00	0	43	0	2928672768	55	4158
2026-01-23 14:49:46.73	327.41	8.06	-42.3	-43.2	20.8	0.00e+00	0	44	0	2933915648	55	4189
2026-01-23 14:49:47.73	327.54	8.01	-42.4	-43.4	20.6	0.00e+00	0	44	0	2940207104	55	4261
2026-01-23 14:49:48.75	327.67	7.96	-42.4	-43.4	20.6	0.00e+00	0	43	0	2946498560	55	4245
2026-01-23 14:49:49.75	327.81	7.91	-42.4	-43.4	20.6	0.00e+00	0	43	0	2951741440	55	4260
2026-01-23 14:49:50.76	327.94	7.86	-42.3	-43.2	20.7	0.00e+00	0	44	0	2956984320	55	4192
2026-01-23 14:49:51.77	328.07	7.81	-42.3	-43.2	20.7	0.00e+00	0	44	0	2963275776	55	4178
2026-01-23 14:49:52.78	328.20	7.76	-42.5	-43.5	20.5	0.00e+00	0	44	0	2968518656	55	4302
2026-01-23 14:49:53.78	328.33	7.71	-42.5	-43.4	20.6	0.00e+00	0	44	0	2973761536	55	4282
2026-01-23 14:49:54.79	328.46	7.66	-42.4	-43.3	20.7	0.00e+00	0	44	0	2980052992	55	4216
2026-01-23 14:49:55.80	328.59	7.61	-42.5	-43.5	20.5	0.00e+00	0	43	0	2985295872	55	4314
2026-01-23 14:49:56.81	328.72	7.56	-42.7	-43.6	20.4	0.00e+00	0	44	0	2991587328	56	4141
2026-01-23 14:49:57.82	328.85	7.51	-42.7	-43.6	20.4	0.00e+00	0	44	0	2996830208	56	4127
2026-01-23 14:49:58.83	328.98	7.47	-42.6	-43.6	20.5	0.00e+00	0	44	0	3002073088	56	4099
2026-01-23 14:49:59.83	329.11	7.42	-42.6	-43.5	20.5	0.00e+00	0	44	0	3008364544	56	4098
2026-01-23 14:50:00.84	329.24	7.37	-42.8	-43.8	20.4	0.00e+00	0	44	0	3014656000	56	4199
2026-01-23 14:50:01.85	329.36	7.32	-42.7	-43.6	20.4	0.00e+00	0	44	0	3019898880	56	4142
2026-01-23 14:50:02.85	329.49	7.27	-42.8	-43.7	20.3	0.00e+00	0	44	0	3025141760	56	4192
2026-01-23 14:50:03.86	329.62	7.22	-42.8	-43.8	20.3	0.00e+00	0	43	0	3031433216	56	4223
2026-01-23 14:50:04.87	329.74	7.17	-42.7	-43.7	20.3	0.00e+00	0	44	0	3036676096	56	4176
2026-01-23 14:50:05.88	329.87	7.12	-42.6	-43.6	20.5	0.00e+00	0	44	0	3041918976	56	4101
2026-01-23 14:50:06.89	330.00	7.07	-42.6	-43.6	20.4	0.00e+00	0	44	0	3048210432	56	4128
2026-01-23 14:50:07.90	330.12	7.02	-42.9	-43.9	20.1	0.00e+00	0	43	0	3053453312	56	4277
2026-01-23 14:50:08.90	330.25	6.97	-42.8	-43.8	20.3	0.00e+00	0	43	0	3058696192	56	4217
2026-01-23 14:50:09.91	330.37	6.92	-42.8	-43.7	20.3	0.00e+00	0	44	0	3064987648	56	4184
2026-01-23 14:50:10.92	330.49	6.87	-42.8	-43.8	20.2	0.00e+00	0	44	0	3070230528	56	4221
2026-01-23 14:50:11.92	330.62	6.82	-42.8	-43.7	20.3	0.00e+00	0	44	0	3076521984	56	4187
2026-01-23 14:50:12.93	330.74	6.77	-42.6	-43.5	20.4	0.00e+00	0	43	0	3081764864	56	4082
2026-01-23 14:50:13.94	330.86	6.72	-42.5	-43.4	20.4	0.00e+00	0	44	0	3088056320	56	4047
2026-01-23 14:50:14.95	330.98	6.67	-42.6	-43.6	20.4	0.00e+00	0	44	0	3093299200	56	4102
2026-01-23 14:50:15.96	331.11	6.62	-42.8	-43.8	20.1	0.00e+00	0	44	0	3099590656	56	4225
2026-01-23 14:50:16.96	331.23	6.57	-42.9	-43.9	20.0	0.00e+00	0	43	0	3104833536	56	4250
2026-01-23 14:50:17.97	331.35	6.52	-43.1	-44.1	19.8	0.00e+00	0	44	0	3110076416	56	4375
2026-01-23 14:50:18.98	331.47	6.47	-43.1	-44.1	19.9	0.00e+00	0	43	0	3116367872	57	4115
2026-01-23 14:50:19.99	331.59	6.42	-42.9	-43.9	20.1	0.00e+00	0	44	0	3121610752	57	4011
2026-01-23 14:50:21.00	331.71	6.37	-42.9	-43.8	20.0	0.00e+00	0	44	0	3126853632	57	4003
2026-01-23 14:50:22.00	331.83	6.32	-43.1	-44.1	19.8	0.00e+00	0	44	0	3133145088	57	4137
2026-01-23 14:50:23.01	331.95	6.27	-43.1	-44.1	19.8	0.00e+00	0	43	0	3138387968	57	4144
2026-01-23 14:50:24.02	332.07	6.22	-43.2	-44.3	19.7	0.00e+00	0	44	0	3143630848	57	4203
2026-01-23 14:50:25.03	332.18	6.17	-43.1	-44.1	19.8	0.00e+00	0	44	0	3149922304	57	4142
2026-01-23 14:50:26.04	332.30	6.12	-43.3	-44.3	19.6	0.00e+00	0	43	0	3156213760	57	4241
2026-01-23 14:50:27.04	332.42	6.07	-43.3	-44.3	19.5	0.00e+00	0	44	0	3161456640	57	4242
2026-01-23 14:50:28.05	332.54	6.02	-43.4	-44.4	19.4	0.00e+00	0	43	0	3166699520	57	4291
2026-01-23 14:50:29.06	332.65	5.97	-43.5	-44.6	19.4	0.00e+00	0	43	0	3172990976	57	4353
2026-01-23 14:50:30.07	332.77	5.92	-43.6	-44.7	19.2	0.00e+00	0	44	0	3178233856	57	4411
2026-01-23 14:50:31.08	332.89	5.87	-43.3	-44.3	19.5	0.00e+00	0	43	0	3184525312	58	3983
2026-01-23 14:50:32.08	333.00	5.82	-44.0	-45.1	18.8	0.00e+00	0	44	0	3189768192	58	4391
2026-01-23 14:50:33.09	333.12	5.77	-44.1	-45.3	18.6	0.00e+00	0	44	0	3195011072	59	4209
2026-01-23 14:50:34.10	333.23	5.72	-44.0	-45.1	18.7	0.00e+00	0	44	0	3201302528	58	4381
2026-01-23 14:50:35.11	333.35	5.67	-44.3	-45.5	18.1	0.00e+00	0	44	0	3206545408	60	4058
2026-01-23 14:50:36.12	333.46	5.62	-43.0	-44.0	19.8	0.00e+00	0	44	0	3211788288	58	3865
2026-01-23 14:50:37.13	333.57	5.57	-44.2	-45.3	18.5	0.00e+00	0	44	0	3218079744	58	4492
2026-01-23 14:50:38.13	333.69	5.52	-43.3	-44.3	19.5	0.00e+00	0	44	0	3224371200	58	3986
2026-01-23 14:50:39.14	333.80	5.47	-43.5	-44.5	19.3	0.00e+00	0	43	0	3229614080	58	4096
2026-01-23 14:50:40.15	333.91	5.42	-43.6	-44.7	19.1	0.00e+00	0	44	0	3234856960	58	4147
2026-01-23 14:50:41.16	334.03	5.37	-43.6	-44.7	19.1	0.00e+00	0	44	0	3241148416	59	3927
2026-01-23 14:50:42.17	334.14	5.32	-43.8	-44.9	18.8	0.00e+00	0	44	0	3246391296	58	4268
2026-01-23 14:50:43.17	334.25	5.27	-43.7	-44.8	18.8	0.00e+00	0	44	0	3251634176	58	4207
2026-01-23 14:50:44.18	334.36	5.22	-42.7	-43.7	19.8	0.00e+00	0	44	0	3257925632	57	3926
2026-01-23 14:50:45.19	334.47	5.17	-42.9	-44.0	19.4	0.00e+00	0	44	0	3263168512	57	4072
2026-01-23 14:50:46.20	334.58	5.12	-43.2	-44.3	19.0	0.00e+00	0	43	0	3269459968	57	4240
2026-01-23 14:50:47.21	334.69	5.07	-43.1	-44.3	18.9	0.00e+00	0	44	0	3274702848	57	4199
2026-01-23 14:50:48.22	334.80	5.02	-43.3	-44.5	18.7	0.00e+00	0	44	0	3279945728	57	4318
2026-01-23 14:50:49.22	334.91	4.97	-52.7	-64.7	3.8	8.44e-01	0	44	104	3283091456	75	15750
2026-01-23 14:50:50.23	335.02	4.92	-53.1	-65.1	3.8	8.47e-01	0	44	104	3283091456	76	15410
2026-01-23 14:50:51.24	335.13	4.87	-53.3	-65.3	3.8	8.47e-01	0	44	104	3283091456	77	14939
2026-01-23 14:50:52.25	335.24	4.82	-53.4	-65.3	3.8	8.46e-01	0	44	104	3283091456	77	15034
2026-01-23 14:50:53.26	335.34	4.77	-53.5	-65.5	3.8	8.45e-01	0	43	104	3283091456	77	15227
2026-01-23 14:50:54.27	335.45	4.72	-53.6	-65.5	3.8	8.47e-01	0	44	104	3283091456	77	15400
2026-01-23 14:50:55.28	335.56	4.67	-53.6	-65.6	3.8	8.46e-01	0	44	104	3283091456	77	15447
2026-01-23 14:50:56.28	335.67	4.62	-53.6	-65.6	3.8	8.46e-01	0	44	104	3283091456	77	15463
2026-01-23 14:50:57.29	335.77	4.57	-53.6	-65.6	3.8	8.46e-01	0	44	104	3283091456	77	15483
2026-01-23 14:50:58.30	335.88	4.52	-53.6	-65.6	3.8	8.45e-01	0	44	104	3283091456	77	15421
2026-01-23 14:50:59.31	335.99	4.47	-53.5	-65.5	3.8	8.46e-01	0	44	104	3283091456	77	15322
2026-01-23 14:51:00.32	336.09	4.42	-53.4	-65.4	3.8	8.45e-01	0	44	104	3283091456	77	15128
2026-01-23 14:51:01.33	336.20	4.38	-53.4	-65.3	3.8	8.46e-01	0	44	104	3283091456	77	14986
2026-01-23 14:51:02.33	336.30	4.33	-53.4	-65.3	3.8	8.46e-01	0	44	104	3283091456	77	15040
2026-01-23 14:51:03.34	336.41	4.28	-53.4	-65.4	3.8	8.46e-01	0	44	104	3283091456	77	15152
2026-01-23 14:51:04.35	336.51	4.23	-53.5	-65.4	3.8	8.47e-01	0	44	104	3283091456	77	15182
2026-01-23 14:51:05.36	336.61	4.18	-53.5	-65.4	3.8	8.47e-01	0	44	104	3283091456	77	15152
2026-01-23 14:51:06.36	336.72	4.13	-53.5	-65.5	3.8	8.46e-01	0	44	104	3283091456	77	15293
2026-01-23 14:51:07.37	336.82	4.08	-53.5	-65.5	3.8	8.46e-01	0	44	104	3283091456	77	15293
2026-01-23 14:51:08.38	336.92	4.03	-53.6	-65.5	3.8	8.46e-01	0	44	104	3283091456	77	15339
2026-01-23 14:51:09.39	337.03	3.98	-53.6	-65.5	3.8	8.46e-01	0	44	104	3283091456	77	15327
2026-01-23 14:51:10.40	337.13	3.93	-53.5	-65.5	3.8	8.46e-01	0	44	104	3283091456	77	15353
2026-01-23 14:51:11.40	337.23	3.88	-53.5	-65.5	3.8	8.46e-01	0	44	104	3283091456	77	15297
2026-01-23 14:51:12.41	337.33	3.83	-53.5	-65.5	3.8	8.47e-01	0	44	104	3283091456	77	15236
2026-01-23 14:51:13.42	337.43	3.78	-53.5	-65.4	3.8	8.46e-01	0	44	104	3283091456	77	15174
2026-01-23 14:51:14.43	337.53	3.73	-53.5	-65.4	3.8	8.47e-01	0	44	104	3283091456	77	15190
2026-01-23 14:51:15.43	337.63	3.68	-53.5	-65.4	3.8	8.45e-01	0	44	104	3283091456	77	15158
2026-01-23 14:51:16.44	337.73	3.63	-53.5	-65.4	3.8	8.46e-01	0	44	104	3283091456	77	15161
2026-01-23 14:51:17.45	337.83	3.58	-53.5	-65.4	3.8	8.47e-01	0	44	104	3283091456	77	15154
2026-01-23 14:51:18.46	337.93	3.53	-53.5	-65.5	3.8	8.46e-01	0	44	104	3283091456	77	15227
2026-01-23 14:51:19.47	338.03	3.48	-53.5	-65.4	3.8	8.45e-01	0	44	104	3283091456	77	15139
2026-01-23 14:51:20.47	338.13	3.44	-53.5	-65.4	3.8	8.47e-01	0	43	104	3283091456	77	15177
2026-01-23 14:51:21.48	338.23	3.39	-53.4	-65.4	3.8	8.46e-01	0	44	104	3283091456	77	15102
2026-01-23 14:51:22.49	338.33	3.34	-53.4	-65.4	3.8	8.46e-01	0	44	104	3283091456	77	15102
2026-01-23 14:51:23.50	338.43	3.29	-53.4	-65.4	3.8	8.46e-01	0	44	104	3283091456	77	15097
2026-01-23 14:51:24.50	338.52	3.24	-53.4	-65.4	3.8	8.46e-01	0	44	104	3283091456	77	15105
2026-01-23 14:51:25.51	338.62	3.19	-53.4	-65.4	3.8	8.46e-01	0	44	104	3283091456	77	15071
2026-01-23 14:51:26.52	338.72	3.14	-53.4	-65.4	3.8	8.46e-01	0	44	104	3283091456	77	15127
2026-01-23 14:51:27.53	338.81	3.09	-53.4	-65.4	3.8	8.45e-01	0	44	104	3283091456	77	15094
2026-01-23 14:51:28.54	338.91	3.04	-53.4	-65.3	3.8	8.46e-01	0	44	104	3283091456	77	15035
2026-01-23 14:51:29.55	339.01	2.99	-53.4	-65.4	3.8	8.46e-01	0	44	104	3283091456	77	15100
2026-01-23 14:51:30.55	339.10	2.94	-53.4	-65.4	3.8	8.46e-01	0	44	104	3283091456	77	15112
2026-01-23 14:51:31.56	339.20	2.89	-53.4	-65.3	3.8	8.45e-01	0	44	104	3283091456	77	15046
2026-01-23 14:51:32.57	339.29	2.85	-53.4	-65.4	3.8	8.45e-01	0	44	104	3283091456	77	15064
2026-01-23 14:51:33.57	339.39	2.80	-53.4	-65.4	3.8	8.47e-01	0	44	104	3283091456	77	15103
2026-01-23 14:51:34.58	339.48	2.75	-53.4	-65.4	3.8	8.47e-01	0	44	104	3283091456	77	15073
2026-01-23 14:51:35.59	339.58	2.70	-53.4	-65.3	3.8	8.47e-01	0	44	104	3283091456	77	15047
2026-01-23 14:51:36.60	339.67	2.65	-53.4	-65.3	3.8	8.47e-01	0	44	104	3283091456	77	15033
2026-01-23 14:51:37.61	339.77	2.60	-53.4	-65.3	3.8	8.47e-01	0	44	104	3283091456	77	15042
2026-01-23 14:51:38.61	339.86	2.55	-53.4	-65.3	3.8	8.46e-01	0	44	104	3283091456	77	14986
2026-01-23 14:51:39.62	339.95	2.50	-53.4	-65.3	3.8	8.46e-01	0	44	104	3283091456	77	15046
2026-01-23 14:51:40.63	340.05	2.45	-53.4	-65.3	3.8	8.46e-01	0	44	104	3283091456	77	15043
2026-01-23 14:51:41.64	340.14	2.41	-53.4	-65.3	3.8	8.47e-01	0	44	104	3283091456	77	15035
