passes_logs/2026/01/23/R3.2S_Murmansk/R3.2S_Murmansk__20260123_034142_SUOMI_NPP_rec.log

#Pass ID: 20260123_034142_SUOMI NPP
#Satellite: SUOMI NPP
#Configuration: NPP
#almurnet v.1.7.20251203
#Start time: 2026-01-23 03:41:42

#Version: 2.2.20231116
#Station: R3.2S_Murmansk
#Location: 33.079688 lon 68.888172 lat
#TLE: 1 37849U 11061A   26022.50498765  .00000208  00000+0  11976-3 0  9992
#TLE: 2 37849  98.7820 324.4892 0002275  50.8149 309.3229 14.19528284737775

#Time	Az	El	Level	Level2	SNR	BER	BlckErr	Temp	State	Recorded	gain1	gain2
2026-01-23 03:41:42.06	43.21	1.97	-54.0	-69.0	3.8	1.49e+00	0	41	0	0	79	20413
2026-01-23 03:41:43.06	43.15	2.03	-53.5	-68.5	3.8	1.49e+00	0	41	104	0	78	20439
2026-01-23 03:41:44.07	43.10	2.09	-53.3	-68.3	3.8	1.49e+00	0	41	104	0	78	19959
2026-01-23 03:41:45.08	43.04	2.15	-53.0	-68.0	3.8	1.49e+00	0	41	104	0	78	19300
2026-01-23 03:41:46.09	42.99	2.21	-52.5	-67.5	3.8	1.49e+00	0	41	104	0	77	19261
2026-01-23 03:41:47.10	42.93	2.27	-52.4	-67.4	3.8	1.49e+00	0	41	104	0	76	20128
2026-01-23 03:41:48.11	42.87	2.33	-52.4	-67.3	3.8	1.49e+00	0	41	104	0	76	20033
2026-01-23 03:41:49.11	42.82	2.39	-52.4	-67.3	3.8	1.49e+00	0	41	104	0	76	20059
2026-01-23 03:41:50.12	42.76	2.45	-52.4	-67.4	3.8	1.49e+00	0	42	104	0	76	20075
2026-01-23 03:41:51.13	42.70	2.50	-52.3	-67.3	3.8	1.49e+00	0	42	104	0	76	19970
2026-01-23 03:41:52.14	42.64	2.56	-52.4	-67.3	3.8	1.49e+00	0	41	104	0	76	19943
2026-01-23 03:41:53.15	42.59	2.62	-52.4	-67.3	3.8	1.49e+00	0	42	104	0	76	19956
2026-01-23 03:41:54.16	42.53	2.69	-52.4	-67.3	3.8	1.49e+00	0	42	104	0	76	19944
2026-01-23 03:41:55.17	42.47	2.75	-52.4	-67.3	3.8	1.49e+00	0	42	104	0	76	19999
2026-01-23 03:41:56.17	42.41	2.81	-52.4	-67.3	3.8	1.49e+00	0	42	104	0	76	19923
2026-01-23 03:41:57.18	42.35	2.87	-52.4	-67.3	3.8	1.49e+00	0	42	104	0	76	19983
2026-01-23 03:41:58.19	42.29	2.93	-52.3	-67.3	3.8	1.49e+00	0	42	104	0	76	19916
2026-01-23 03:41:59.20	42.23	2.99	-52.3	-67.3	3.8	1.49e+00	0	42	104	0	76	19909
2026-01-23 03:42:00.21	42.18	3.05	-52.4	-67.3	3.8	1.49e+00	0	42	104	0	76	19903
2026-01-23 03:42:01.22	42.12	3.11	-52.4	-67.2	3.8	1.49e+00	0	42	104	0	76	19819
2026-01-23 03:42:02.23	42.06	3.17	-52.3	-67.2	3.8	1.49e+00	0	42	104	0	76	19826
2026-01-23 03:42:03.24	41.99	3.23	-52.3	-67.3	3.8	1.49e+00	0	42	104	0	76	19864
2026-01-23 03:42:04.25	41.93	3.29	-52.4	-67.3	3.8	1.49e+00	0	42	104	0	76	19921
2026-01-23 03:42:05.26	41.87	3.35	-52.3	-67.3	3.8	1.49e+00	0	42	104	0	76	19997
2026-01-23 03:42:06.27	41.81	3.41	-52.4	-67.3	3.8	1.49e+00	0	42	104	0	76	19971
2026-01-23 03:42:07.27	41.75	3.48	-52.3	-67.2	3.8	1.49e+00	0	42	104	0	76	19838
2026-01-23 03:42:08.28	41.69	3.54	-52.3	-67.0	3.8	1.49e+00	0	42	104	0	76	19389
2026-01-23 03:42:09.29	41.63	3.60	-52.3	-66.8	3.8	1.49e+00	0	42	104	0	76	18739
2026-01-23 03:42:10.30	41.56	3.66	-52.3	-66.5	3.8	1.49e+00	0	42	104	0	76	18112
2026-01-23 03:42:11.31	41.50	3.72	-52.3	-66.2	3.8	1.49e+00	0	42	104	0	76	17557
2026-01-23 03:42:12.32	41.44	3.78	-52.3	-66.1	3.8	1.49e+00	0	42	104	0	76	17283
2026-01-23 03:42:13.33	41.38	3.85	-52.3	-65.9	3.8	1.49e+00	0	42	104	0	76	16959
2026-01-23 03:42:14.33	41.31	3.91	-52.3	-65.9	3.8	1.49e+00	0	42	104	0	76	17044
2026-01-23 03:42:15.34	41.25	3.97	-52.3	-65.5	3.8	1.49e+00	0	42	104	0	76	16275
2026-01-23 03:42:16.35	41.19	4.03	-52.2	-64.6	4.0	1.49e+00	0	42	104	0	76	14583
2026-01-23 03:42:17.36	41.12	4.10	-52.1	-63.7	4.2	1.41e+00	0	42	0	0	76	13178
2026-01-23 03:42:18.37	41.06	4.16	-52.0	-61.9	4.9	1.05e+00	0	42	0	1048576	76	10680
2026-01-23 03:42:19.37	40.99	4.22	-51.8	-60.3	5.9	4.13e-01	0	42	0	3145728	75	9491
2026-01-23 03:42:20.38	40.93	4.28	-51.6	-59.1	6.9	2.27e-01	0	42	0	4194304	75	8260
2026-01-23 03:42:21.39	40.86	4.35	-51.3	-58.1	7.8	1.22e-01	0	42	0	6291456	74	7779
2026-01-23 03:42:22.40	40.80	4.41	-51.0	-56.9	9.1	4.21e-02	0	42	0	8388608	74	6733
2026-01-23 03:42:23.41	40.73	4.47	-50.9	-56.6	9.4	1.71e-02	0	43	0	10485760	73	6888
2026-01-23 03:42:24.42	40.66	4.54	-50.8	-56.4	9.6	1.81e-02	0	43	0	12582912	73	6738
2026-01-23 03:42:25.43	40.60	4.60	-50.7	-56.1	9.9	8.55e-03	0	43	0	13631488	73	6529
2026-01-23 03:42:26.44	40.53	4.66	-50.9	-56.7	9.3	1.53e-02	0	43	0	15728640	73	7017
2026-01-23 03:42:27.45	40.46	4.73	-51.0	-56.9	9.1	1.81e-02	0	42	0	17825792	73	7163
2026-01-23 03:42:28.45	40.40	4.79	-51.2	-57.7	8.3	4.32e-02	0	43	0	19922944	73	7835
2026-01-23 03:42:29.46	40.33	4.85	-51.4	-58.6	7.4	1.02e-01	0	43	0	22020096	73	8716
2026-01-23 03:42:30.47	40.26	4.92	-51.8	-60.6	5.7	2.71e-01	0	43	0	23068672	74	10366
2026-01-23 03:42:31.48	40.19	4.98	-52.0	-62.1	4.8	5.70e-01	0	43	0	25165824	74	12291
2026-01-23 03:42:32.49	40.12	5.05	-50.8	-56.0	9.6	7.19e-01	0	43	0	27262976	73	6435
2026-01-23 03:42:33.50	40.05	5.11	-49.0	-52.1	14.3	0.00e+00	0	43	0	29360128	68	5478
2026-01-23 03:42:34.51	39.98	5.18	-52.0	-62.2	5.0	9.61e-03	0	43	0	31457280	74	12456
2026-01-23 03:42:35.52	39.91	5.24	-51.6	-59.3	6.0	1.49e+00	1	43	104	31457280	75	8368
2026-01-23 03:42:36.52	39.84	5.30	-50.5	-55.1	11.8	7.00e-07	0	43	0	32505856	71	6537
2026-01-23 03:42:37.53	39.77	5.37	-51.7	-59.4	4.5	1.49e+00	0	43	104	32505856	75	8499
2026-01-23 03:42:38.54	39.70	5.43	-47.7	-50.0	16.2	0.00e+00	0	43	0	33554432	67	4570
2026-01-23 03:42:39.55	39.63	5.50	-47.8	-50.2	16.0	0.00e+00	0	43	0	34603008	67	4699
2026-01-23 03:42:40.56	39.56	5.56	-47.9	-50.3	16.1	0.00e+00	0	43	0	36700160	67	4708
2026-01-23 03:42:41.57	39.49	5.63	-47.9	-50.2	16.1	0.00e+00	0	43	0	38797312	67	4702
2026-01-23 03:42:42.57	39.42	5.69	-48.0	-50.5	15.9	0.00e+00	0	43	0	40894464	67	4857
2026-01-23 03:42:43.58	39.34	5.76	-47.9	-50.3	16.2	0.00e+00	0	43	0	42991616	67	4707
2026-01-23 03:42:44.59	39.27	5.82	-47.9	-50.3	16.1	0.00e+00	0	43	0	45088768	67	4735
2026-01-23 03:42:45.60	39.20	5.89	-47.9	-50.4	16.1	0.00e+00	0	43	0	46137344	67	4760
2026-01-23 03:42:46.61	39.12	5.96	-47.9	-50.4	16.1	0.00e+00	0	43	0	48234496	67	4766
2026-01-23 03:42:47.61	39.05	6.02	-48.2	-50.7	15.7	0.00e+00	0	43	0	50331648	67	4956
2026-01-23 03:42:48.62	38.98	6.09	-48.1	-50.6	15.8	0.00e+00	0	43	0	52428800	67	4918
2026-01-23 03:42:49.63	38.90	6.15	-48.1	-50.6	15.9	0.00e+00	0	43	0	53477376	67	4926
2026-01-23 03:42:50.64	38.83	6.22	-48.2	-50.7	15.7	0.00e+00	0	43	0	55574528	67	4963
2026-01-23 03:42:51.64	38.75	6.29	-48.1	-50.5	16.0	0.00e+00	0	43	0	57671680	67	4849
2026-01-23 03:42:52.65	38.68	6.35	-48.0	-50.5	16.0	0.00e+00	0	43	0	59768832	67	4845
2026-01-23 03:42:53.66	38.60	6.42	-48.1	-50.5	16.0	0.00e+00	0	43	0	61865984	67	4864
2026-01-23 03:42:54.67	38.52	6.49	-48.0	-50.5	16.0	0.00e+00	0	43	0	63963136	67	4820
2026-01-23 03:42:55.68	38.45	6.55	-48.1	-50.6	16.0	0.00e+00	0	43	0	65011712	67	4890
2026-01-23 03:42:56.69	38.37	6.62	-47.9	-50.3	16.1	0.00e+00	0	43	0	67108864	67	4740
2026-01-23 03:42:57.69	38.29	6.69	-48.0	-50.4	16.1	0.00e+00	0	43	0	69206016	67	4809
2026-01-23 03:42:58.70	38.22	6.75	-48.1	-50.6	15.8	0.00e+00	0	43	0	71303168	67	4914
2026-01-23 03:42:59.71	38.14	6.82	-47.8	-50.1	16.4	0.00e+00	0	43	0	73400320	67	4626
2026-01-23 03:43:00.72	38.06	6.89	-47.7	-50.0	16.5	0.00e+00	0	43	0	74448896	67	4581
2026-01-23 03:43:01.73	37.98	6.96	-47.9	-50.3	16.2	0.00e+00	0	43	0	76546048	67	4713
2026-01-23 03:43:02.74	37.90	7.03	-47.7	-50.0	16.6	0.00e+00	0	43	0	78643200	67	4564
2026-01-23 03:43:03.74	37.82	7.09	-47.7	-50.0	16.6	0.00e+00	0	43	0	80740352	67	4548
2026-01-23 03:43:04.75	37.74	7.16	-47.7	-49.9	16.7	0.00e+00	0	43	0	82837504	67	4520
2026-01-23 03:43:05.76	37.66	7.23	-47.7	-49.9	16.6	0.00e+00	0	43	0	83886080	67	4518
2026-01-23 03:43:06.77	37.58	7.30	-47.5	-49.6	16.9	0.00e+00	0	43	0	85983232	67	4390
2026-01-23 03:43:07.78	37.50	7.37	-47.4	-49.6	17.0	0.00e+00	0	43	0	88080384	66	4602
2026-01-23 03:43:08.79	37.42	7.43	-47.4	-49.5	17.1	0.00e+00	0	43	0	90177536	66	4550
2026-01-23 03:43:09.79	37.33	7.50	-47.4	-49.5	17.1	0.00e+00	0	43	0	92274688	66	4590
2026-01-23 03:43:10.80	37.25	7.57	-47.5	-49.6	17.0	0.00e+00	0	43	0	93323264	66	4632
2026-01-23 03:43:11.81	37.17	7.64	-47.5	-49.7	16.9	0.00e+00	0	43	0	95420416	66	4674
2026-01-23 03:43:12.82	37.09	7.71	-47.3	-49.3	17.3	0.00e+00	0	43	0	97517568	66	4487
2026-01-23 03:43:13.83	37.00	7.78	-47.2	-49.1	17.5	0.00e+00	0	43	0	99614720	66	4383
2026-01-23 03:43:14.83	36.92	7.85	-47.3	-49.3	17.3	0.00e+00	0	43	0	101711872	66	4476
2026-01-23 03:43:15.84	36.83	7.92	-47.3	-49.3	17.3	0.00e+00	0	43	0	102760448	66	4446
2026-01-23 03:43:16.85	36.75	7.99	-47.1	-49.0	17.6	0.00e+00	0	43	0	104857600	66	4328
2026-01-23 03:43:17.86	36.66	8.06	-47.2	-49.2	17.5	0.00e+00	0	43	0	106954752	66	4399
2026-01-23 03:43:18.87	36.58	8.13	-46.9	-48.8	17.7	0.00e+00	0	43	0	109051904	65	4490
2026-01-23 03:43:19.88	36.49	8.20	-46.9	-48.8	17.8	0.00e+00	0	43	0	111149056	65	4481
2026-01-23 03:43:20.88	36.40	8.27	-46.9	-48.8	17.8	0.00e+00	0	43	0	112197632	65	4457
2026-01-23 03:43:21.89	36.32	8.34	-47.0	-49.0	17.7	0.00e+00	0	43	0	114294784	65	4552
2026-01-23 03:43:22.90	36.23	8.41	-47.0	-48.9	17.7	0.00e+00	0	43	0	116391936	65	4534
2026-01-23 03:43:23.91	36.14	8.48	-47.0	-48.9	17.7	0.00e+00	0	43	0	118489088	65	4541
2026-01-23 03:43:24.92	36.05	8.55	-47.1	-49.1	17.6	0.00e+00	0	43	0	120586240	65	4600
2026-01-23 03:43:25.93	35.96	8.62	-47.0	-48.9	17.7	0.00e+00	0	43	0	121634816	65	4523
2026-01-23 03:43:26.94	35.87	8.69	-46.9	-48.8	17.8	0.00e+00	0	43	0	123731968	65	4445
2026-01-23 03:43:27.94	35.79	8.76	-46.9	-48.8	17.9	0.00e+00	0	43	0	125829120	65	4446
2026-01-23 03:43:28.95	35.69	8.83	-47.0	-48.9	17.8	0.00e+00	0	43	0	127926272	65	4507
2026-01-23 03:43:29.96	35.60	8.90	-47.1	-49.1	17.6	0.00e+00	0	43	0	130023424	65	4635
2026-01-23 03:43:30.97	35.51	8.97	-47.2	-49.2	17.5	0.00e+00	0	43	0	132120576	65	4662
2026-01-23 03:43:31.98	35.42	9.04	-47.1	-49.0	17.7	0.00e+00	0	43	0	133169152	65	4577
2026-01-23 03:43:32.98	35.33	9.12	-47.3	-49.4	17.3	0.00e+00	0	43	0	135266304	65	4788
2026-01-23 03:43:33.99	35.24	9.19	-47.3	-49.3	17.4	0.00e+00	0	43	0	137363456	65	4743
2026-01-23 03:43:35.00	35.14	9.26	-47.3	-49.3	17.4	0.00e+00	0	43	0	139460608	65	4756
2026-01-23 03:43:36.01	35.05	9.33	-47.3	-49.3	17.5	0.00e+00	0	43	0	140509184	65	4725
2026-01-23 03:43:37.02	34.96	9.40	-47.2	-49.2	17.5	0.00e+00	0	43	0	142606336	65	4688
2026-01-23 03:43:38.02	34.86	9.48	-47.0	-48.9	17.8	0.00e+00	0	43	0	144703488	65	4541
2026-01-23 03:43:39.03	34.77	9.55	-47.3	-49.2	17.5	0.00e+00	0	43	0	146800640	65	4699
2026-01-23 03:43:40.04	34.67	9.62	-47.0	-48.9	17.8	0.00e+00	0	43	0	148897792	65	4534
2026-01-23 03:43:41.05	34.58	9.69	-47.0	-48.9	17.8	0.00e+00	0	43	0	149946368	65	4516
2026-01-23 03:43:42.06	34.48	9.77	-46.9	-48.7	18.0	0.00e+00	0	43	0	152043520	65	4429
2026-01-23 03:43:43.06	34.38	9.84	-47.0	-48.9	17.8	0.00e+00	0	43	0	154140672	65	4534
2026-01-23 03:43:44.07	34.28	9.91	-47.0	-48.9	17.9	0.00e+00	0	43	0	156237824	65	4501
2026-01-23 03:43:45.08	34.19	9.99	-47.0	-48.9	17.8	0.00e+00	0	43	0	158334976	65	4535
2026-01-23 03:43:46.09	34.09	10.06	-47.1	-49.0	17.8	0.00e+00	0	43	0	160432128	65	4560
2026-01-23 03:43:47.10	33.99	10.13	-47.1	-49.0	17.8	0.00e+00	0	43	0	161480704	65	4567
2026-01-23 03:43:48.10	33.89	10.21	-47.0	-48.9	17.9	0.00e+00	0	43	0	163577856	65	4512
2026-01-23 03:43:49.11	33.79	10.28	-46.8	-48.7	18.1	0.00e+00	0	43	0	165675008	65	4393
2026-01-23 03:43:50.12	33.69	10.35	-47.0	-48.9	17.9	0.00e+00	0	43	0	167772160	65	4513
2026-01-23 03:43:51.12	33.59	10.43	-46.9	-48.7	18.1	0.00e+00	0	43	0	168820736	65	4412
2026-01-23 03:43:52.13	33.49	10.50	-47.0	-48.9	17.9	0.00e+00	0	43	0	170917888	65	4511
2026-01-23 03:43:53.14	33.39	10.57	-46.9	-48.8	18.0	0.00e+00	0	43	0	173015040	65	4452
2026-01-23 03:43:54.15	33.28	10.65	-47.0	-48.8	17.9	0.00e+00	0	43	0	175112192	65	4475
2026-01-23 03:43:55.16	33.18	10.72	-46.9	-48.8	18.0	0.00e+00	0	43	0	177209344	65	4457
2026-01-23 03:43:56.17	33.08	10.80	-46.9	-48.7	18.1	0.00e+00	0	43	0	179306496	65	4435
2026-01-23 03:43:57.17	32.97	10.87	-46.8	-48.7	18.1	0.00e+00	0	43	0	180355072	65	4401
2026-01-23 03:43:58.18	32.87	10.95	-46.9	-48.7	18.1	0.00e+00	0	43	0	182452224	65	4439
2026-01-23 03:43:59.19	32.76	11.02	-47.0	-48.9	17.9	0.00e+00	0	43	0	184549376	65	4528
2026-01-23 03:44:00.19	32.66	11.10	-47.3	-49.3	17.6	0.00e+00	0	43	0	186646528	65	4712
2026-01-23 03:44:01.20	32.55	11.17	-47.1	-49.1	17.7	0.00e+00	0	43	0	188743680	65	4621
2026-01-23 03:44:02.21	32.44	11.25	-47.3	-49.2	17.7	0.00e+00	0	43	0	189792256	65	4702
2026-01-23 03:44:03.21	32.34	11.32	-47.1	-49.0	17.8	0.00e+00	0	43	0	191889408	65	4569
2026-01-23 03:44:04.22	32.23	11.40	-47.2	-49.2	17.7	0.00e+00	0	43	0	193986560	65	4682
2026-01-23 03:44:05.23	32.12	11.48	-47.0	-48.9	17.9	0.00e+00	0	43	0	196083712	65	4524
2026-01-23 03:44:06.24	32.01	11.55	-47.0	-48.9	17.9	0.00e+00	0	44	0	197132288	65	4526
2026-01-23 03:44:07.24	31.90	11.63	-46.9	-48.8	18.1	0.00e+00	0	44	0	199229440	65	4484
2026-01-23 03:44:08.25	31.79	11.70	-47.1	-49.0	17.8	0.00e+00	0	43	0	201326592	65	4581
2026-01-23 03:44:09.26	31.68	11.78	-47.2	-49.1	17.8	0.00e+00	0	43	0	203423744	65	4612
2026-01-23 03:44:10.27	31.57	11.86	-47.3	-49.3	17.5	0.00e+00	0	43	0	205520896	65	4734
2026-01-23 03:44:11.28	31.45	11.93	-47.1	-49.0	17.8	0.00e+00	0	43	0	207618048	65	4597
2026-01-23 03:44:12.29	31.34	12.01	-47.0	-48.8	18.0	0.00e+00	0	43	0	208666624	65	4476
2026-01-23 03:44:13.29	31.23	12.09	-46.9	-48.7	18.1	0.00e+00	0	44	0	210763776	65	4428
2026-01-23 03:44:14.30	31.11	12.16	-46.9	-48.7	18.1	0.00e+00	0	43	0	212860928	65	4432
2026-01-23 03:44:15.31	31.00	12.24	-47.0	-48.9	18.0	0.00e+00	0	43	0	214958080	65	4512
2026-01-23 03:44:16.31	30.88	12.32	-46.9	-48.7	18.1	0.00e+00	0	43	0	217055232	65	4417
2026-01-23 03:44:17.32	30.77	12.39	-46.8	-48.6	18.3	0.00e+00	0	43	0	218103808	65	4351
2026-01-23 03:44:18.33	30.65	12.47	-46.6	-48.3	18.5	0.00e+00	0	43	0	220200960	65	4201
2026-01-23 03:44:19.34	30.53	12.55	-46.6	-48.3	18.5	0.00e+00	0	43	0	222298112	65	4233
2026-01-23 03:44:20.35	30.41	12.63	-46.6	-48.2	18.6	0.00e+00	0	43	0	224395264	65	4188
2026-01-23 03:44:21.35	30.30	12.70	-46.5	-48.2	18.7	0.00e+00	0	43	0	226492416	64	4392
2026-01-23 03:44:22.36	30.18	12.78	-46.5	-48.1	18.7	0.00e+00	0	43	0	227540992	64	4384
2026-01-23 03:44:23.37	30.06	12.86	-46.4	-48.0	18.9	0.00e+00	0	44	0	229638144	64	4311
2026-01-23 03:44:24.38	29.94	12.94	-46.3	-47.9	19.0	0.00e+00	0	43	0	231735296	64	4257
2026-01-23 03:44:25.39	29.82	13.02	-46.4	-48.0	18.9	0.00e+00	0	43	0	233832448	64	4330
2026-01-23 03:44:26.40	29.69	13.10	-46.2	-47.8	19.1	0.00e+00	0	43	0	235929600	64	4205
2026-01-23 03:44:27.41	29.57	13.18	-46.3	-47.9	19.0	0.00e+00	0	43	0	236978176	64	4255
2026-01-23 03:44:28.41	29.45	13.25	-46.5	-48.2	18.7	0.00e+00	0	43	0	239075328	64	4405
2026-01-23 03:44:29.42	29.32	13.33	-46.6	-48.3	18.6	0.00e+00	0	43	0	241172480	64	4445
2026-01-23 03:44:30.43	29.20	13.41	-46.5	-48.1	18.8	0.00e+00	0	44	0	243269632	64	4383
2026-01-23 03:44:31.44	29.07	13.49	-46.6	-48.3	18.6	0.00e+00	0	43	0	245366784	64	4478
2026-01-23 03:44:32.45	28.95	13.57	-46.7	-48.5	18.5	0.00e+00	0	43	0	246415360	64	4553
2026-01-23 03:44:33.45	28.82	13.65	-46.9	-48.6	18.3	0.00e+00	0	43	0	248512512	64	4638
2026-01-23 03:44:34.46	28.70	13.73	-46.5	-48.2	18.7	0.00e+00	0	43	0	250609664	64	4416
2026-01-23 03:44:35.47	28.57	13.81	-46.9	-48.6	18.3	0.00e+00	0	44	0	252706816	64	4642
2026-01-23 03:44:36.48	28.44	13.89	-47.0	-48.7	18.2	0.00e+00	0	43	0	254803968	64	4705
2026-01-23 03:44:37.48	28.31	13.97	-47.0	-48.8	18.2	0.00e+00	0	43	0	255852544	64	4723
2026-01-23 03:44:38.49	28.18	14.05	-47.1	-48.9	18.0	0.00e+00	0	44	0	257949696	64	4803
2026-01-23 03:44:39.50	28.05	14.13	-47.1	-48.9	18.1	0.00e+00	0	43	0	260046848	64	4785
2026-01-23 03:44:40.51	27.92	14.21	-47.1	-48.9	18.1	0.00e+00	0	44	0	262144000	64	4793
2026-01-23 03:44:41.52	27.78	14.29	-47.1	-48.9	18.1	0.00e+00	0	43	0	264241152	65	4513
2026-01-23 03:44:42.53	27.65	14.37	-46.8	-48.5	18.5	0.00e+00	0	44	0	265289728	65	4320
2026-01-23 03:44:43.53	27.52	14.45	-46.9	-48.7	18.2	0.00e+00	0	43	0	267386880	65	4406
2026-01-23 03:44:44.54	27.38	14.53	-46.9	-48.6	18.4	0.00e+00	0	43	0	269484032	65	4369
2026-01-23 03:44:45.55	27.25	14.61	-46.7	-48.4	18.5	0.00e+00	0	43	0	271581184	65	4283
2026-01-23 03:44:46.56	27.11	14.69	-46.8	-48.5	18.4	0.00e+00	0	43	0	273678336	65	4340
2026-01-23 03:44:47.57	26.97	14.77	-46.7	-48.4	18.6	0.00e+00	0	44	0	274726912	65	4258
2026-01-23 03:44:48.57	26.84	14.85	-46.7	-48.4	18.5	0.00e+00	0	44	0	276824064	64	4537
2026-01-23 03:44:49.58	26.70	14.93	-46.4	-48.0	18.8	0.00e+00	0	43	0	278921216	64	4331
2026-01-23 03:44:50.59	26.56	15.01	-46.4	-48.0	19.0	0.00e+00	0	43	0	281018368	64	4315
2026-01-23 03:44:51.60	26.42	15.10	-46.3	-47.9	19.0	0.00e+00	0	43	0	283115520	64	4286
2026-01-23 03:44:52.61	26.28	15.18	-46.1	-47.7	19.2	0.00e+00	0	44	0	284164096	64	4156
2026-01-23 03:44:53.61	26.14	15.26	-46.2	-47.7	19.3	0.00e+00	0	43	0	286261248	63	4424
2026-01-23 03:44:54.62	26.00	15.34	-46.3	-47.8	19.2	0.00e+00	0	43	0	288358400	63	4474
2026-01-23 03:44:55.63	25.85	15.42	-46.3	-47.9	19.1	0.00e+00	0	43	0	290455552	63	4535
2026-01-23 03:44:56.63	25.71	15.50	-46.3	-47.9	19.1	0.00e+00	0	43	0	292552704	63	4504
2026-01-23 03:44:57.64	25.57	15.58	-46.2	-47.8	19.2	0.00e+00	0	43	0	293601280	63	4446
2026-01-23 03:44:58.65	25.42	15.67	-46.0	-47.5	19.5	0.00e+00	0	43	0	295698432	63	4304
2026-01-23 03:44:59.66	25.27	15.75	-45.9	-47.4	19.6	0.00e+00	0	43	0	297795584	63	4274
2026-01-23 03:45:00.67	25.13	15.83	-45.8	-47.3	19.7	0.00e+00	0	43	0	299892736	63	4207
2026-01-23 03:45:01.67	24.98	15.91	-45.8	-47.2	19.8	0.00e+00	0	43	0	301989888	63	4185
2026-01-23 03:45:02.69	24.83	16.00	-45.8	-47.2	19.8	0.00e+00	0	44	0	303038464	63	4166
2026-01-23 03:45:03.69	24.68	16.08	-45.5	-46.9	20.1	0.00e+00	0	43	0	305135616	63	4013
2026-01-23 03:45:04.70	24.53	16.16	-45.6	-47.1	19.9	0.00e+00	0	43	0	307232768	62	4346
2026-01-23 03:45:05.71	24.38	16.24	-45.9	-47.4	19.7	0.00e+00	0	43	0	309329920	62	4494
2026-01-23 03:45:06.72	24.23	16.32	-45.8	-47.3	19.7	0.00e+00	0	43	0	311427072	62	4458
2026-01-23 03:45:07.73	24.07	16.41	-45.9	-47.4	19.7	0.00e+00	0	43	0	312475648	62	4503
2026-01-23 03:45:08.73	23.92	16.49	-46.0	-47.4	19.6	0.00e+00	0	43	0	314572800	62	4535
2026-01-23 03:45:09.74	23.77	16.57	-45.8	-47.2	19.8	0.00e+00	0	43	0	316669952	62	4416
2026-01-23 03:45:10.75	23.61	16.66	-45.8	-47.2	19.8	0.00e+00	0	43	0	318767104	62	4430
2026-01-23 03:45:11.76	23.45	16.74	-45.8	-47.2	19.9	0.00e+00	0	43	0	320864256	62	4407
2026-01-23 03:45:12.76	23.30	16.82	-46.0	-47.5	19.6	0.00e+00	0	43	0	322961408	62	4567
2026-01-23 03:45:13.77	23.14	16.90	-46.0	-47.5	19.6	0.00e+00	0	44	0	324009984	62	4581
2026-01-23 03:45:14.78	22.98	16.99	-45.9	-47.4	19.6	0.00e+00	0	43	0	326107136	62	4525
2026-01-23 03:45:15.79	22.82	17.07	-46.3	-47.8	19.3	0.00e+00	0	43	0	328204288	63	4480
2026-01-23 03:45:16.80	22.66	17.15	-46.4	-48.0	19.1	0.00e+00	0	43	0	330301440	63	4547
2026-01-23 03:45:17.81	22.50	17.24	-46.2	-47.8	19.2	0.00e+00	0	43	0	332398592	63	4474
2026-01-23 03:45:18.82	22.33	17.32	-46.2	-47.7	19.3	0.00e+00	0	43	0	333447168	63	4438
2026-01-23 03:45:19.83	22.17	17.40	-45.9	-47.4	19.7	0.00e+00	0	43	0	335544320	63	4259
2026-01-23 03:45:20.83	22.01	17.49	-46.1	-47.6	19.4	0.00e+00	0	43	0	337641472	63	4374
2026-01-23 03:45:21.84	21.84	17.57	-46.2	-47.7	19.4	0.00e+00	0	43	0	339738624	63	4427
2026-01-23 03:45:22.85	21.67	17.65	-46.3	-47.9	19.2	0.00e+00	0	43	0	340787200	63	4512
2026-01-23 03:45:23.86	21.51	17.74	-46.4	-48.1	19.0	0.00e+00	0	43	0	342884352	63	4601
2026-01-23 03:45:24.87	21.34	17.82	-46.2	-47.7	19.3	0.00e+00	0	43	0	344981504	63	4421
2026-01-23 03:45:25.87	21.17	17.90	-46.0	-47.5	19.5	0.00e+00	0	43	0	347078656	63	4302
2026-01-23 03:45:26.88	21.00	17.99	-45.9	-47.4	19.5	0.00e+00	0	43	0	349175808	63	4285
2026-01-23 03:45:27.89	20.83	18.07	-46.2	-47.7	19.4	0.00e+00	0	43	0	351272960	63	4437
2026-01-23 03:45:28.90	20.65	18.15	-46.2	-47.7	19.4	0.00e+00	0	43	0	352321536	63	4420
2026-01-23 03:45:29.91	20.48	18.24	-46.2	-47.8	19.3	0.00e+00	0	43	0	354418688	63	4452
2026-01-23 03:45:30.92	20.31	18.32	-46.3	-47.9	19.2	0.00e+00	0	43	0	356515840	63	4506
2026-01-23 03:45:31.93	20.13	18.40	-46.3	-47.9	19.2	0.00e+00	0	44	0	358612992	63	4530
2026-01-23 03:45:32.93	19.96	18.49	-46.6	-48.3	18.8	0.00e+00	0	43	0	360710144	63	4732
2026-01-23 03:45:33.94	19.78	18.57	-46.3	-47.9	19.1	0.00e+00	0	43	0	361758720	64	4248
2026-01-23 03:45:34.95	19.60	18.65	-46.4	-48.0	19.0	0.00e+00	0	43	0	363855872	64	4327
2026-01-23 03:45:35.96	19.42	18.74	-46.5	-48.2	18.9	0.00e+00	0	43	0	365953024	64	4407
2026-01-23 03:45:36.97	19.24	18.82	-46.2	-47.8	19.2	0.00e+00	0	43	0	368050176	64	4217
2026-01-23 03:45:37.97	19.06	18.90	-46.4	-48.0	19.1	0.00e+00	0	43	0	370147328	64	4332
2026-01-23 03:45:38.97	18.88	18.99	-46.5	-48.2	18.9	0.00e+00	0	43	0	371195904	64	4404
2026-01-23 03:45:39.99	18.70	19.07	-46.5	-48.2	18.9	0.00e+00	0	43	0	373293056	64	4396
2026-01-23 03:45:41.00	18.51	19.15	-46.4	-48.0	19.1	0.00e+00	0	43	0	375390208	64	4302
2026-01-23 03:45:42.00	18.33	19.24	-46.6	-48.2	18.9	0.00e+00	0	43	0	377487360	64	4422
2026-01-23 03:45:43.01	18.14	19.32	-46.4	-48.0	19.0	0.00e+00	0	43	0	379584512	64	4320
2026-01-23 03:45:44.02	17.95	19.40	-46.5	-48.1	19.0	0.00e+00	0	43	0	380633088	64	4381
2026-01-23 03:45:45.02	17.77	19.49	-46.3	-47.9	19.2	0.00e+00	0	44	0	382730240	64	4249
2026-01-23 03:45:46.03	17.58	19.57	-46.3	-47.9	19.1	0.00e+00	0	43	0	384827392	64	4270
2026-01-23 03:45:47.04	17.39	19.65	-46.4	-48.0	19.0	0.00e+00	0	43	0	386924544	64	4326
2026-01-23 03:45:48.05	17.20	19.74	-46.7	-48.4	18.7	0.00e+00	0	43	0	389021696	64	4501
2026-01-23 03:45:49.05	17.01	19.82	-46.3	-47.8	19.2	0.00e+00	0	43	0	390070272	64	4242
2026-01-23 03:45:50.06	16.81	19.90	-46.5	-48.1	18.9	0.00e+00	0	43	0	392167424	64	4361
2026-01-23 03:45:51.07	16.62	19.99	-46.5	-48.1	19.0	0.00e+00	0	43	0	394264576	64	4363
2026-01-23 03:45:52.08	16.42	20.07	-46.6	-48.2	18.9	0.00e+00	0	43	0	396361728	64	4422
2026-01-23 03:45:53.08	16.23	20.15	-46.7	-48.4	18.8	0.00e+00	0	43	0	398458880	64	4495
2026-01-23 03:45:54.09	16.03	20.23	-46.5	-48.2	19.0	0.00e+00	0	43	0	399507456	64	4395
2026-01-23 03:45:55.10	15.83	20.32	-46.4	-48.0	19.1	0.00e+00	0	43	0	401604608	64	4307
2026-01-23 03:45:56.11	15.63	20.40	-46.1	-47.5	19.5	0.00e+00	0	43	0	403701760	64	4095
2026-01-23 03:45:57.12	15.43	20.48	-46.0	-47.5	19.6	0.00e+00	0	43	0	405798912	63	4324
2026-01-23 03:45:58.12	15.23	20.56	-45.7	-47.1	20.0	0.00e+00	0	43	0	407896064	63	4134
2026-01-23 03:45:59.13	15.02	20.64	-45.5	-46.8	20.3	0.00e+00	0	44	0	408944640	63	3995
2026-01-23 03:46:00.14	14.82	20.73	-45.5	-46.9	20.3	0.00e+00	0	44	0	411041792	62	4246
2026-01-23 03:46:01.15	14.61	20.81	-45.4	-46.7	20.4	0.00e+00	0	43	0	413138944	62	4184
2026-01-23 03:46:02.15	14.41	20.89	-45.6	-47.0	20.1	0.00e+00	0	44	0	415236096	62	4294
2026-01-23 03:46:03.16	14.20	20.97	-45.8	-47.2	20.0	0.00e+00	0	44	0	417333248	62	4414
2026-01-23 03:46:04.17	13.99	21.05	-45.8	-47.3	19.9	0.00e+00	0	43	0	418381824	62	4446
2026-01-23 03:46:05.18	13.78	21.13	-46.3	-47.8	19.4	0.00e+00	0	43	0	420478976	63	4465
2026-01-23 03:46:06.18	13.57	21.21	-46.2	-47.7	19.6	0.00e+00	0	43	0	422576128	63	4392
2026-01-23 03:46:07.19	13.36	21.30	-46.4	-47.9	19.3	0.00e+00	0	43	0	424673280	63	4540
2026-01-23 03:46:08.20	13.15	21.38	-46.2	-47.8	19.3	0.00e+00	0	43	0	426770432	64	4216
2026-01-23 03:46:09.21	12.93	21.46	-46.4	-48.0	19.2	0.00e+00	0	43	0	427819008	64	4313
2026-01-23 03:46:10.22	12.72	21.54	-46.4	-48.0	19.1	0.00e+00	0	44	0	429916160	64	4311
2026-01-23 03:46:11.23	12.50	21.62	-46.3	-47.9	19.2	0.00e+00	0	44	0	432013312	64	4243
2026-01-23 03:46:12.23	12.28	21.70	-46.1	-47.6	19.5	0.00e+00	0	43	0	434110464	64	4142
2026-01-23 03:46:13.24	12.06	21.78	-45.6	-47.0	20.1	0.00e+00	0	43	0	436207616	63	4081
2026-01-23 03:46:14.25	11.84	21.86	-45.1	-46.4	20.6	0.00e+00	0	43	0	438304768	62	4016
2026-01-23 03:46:15.26	11.62	21.94	-44.8	-46.1	20.9	0.00e+00	0	43	0	439353344	61	4104
2026-01-23 03:46:16.27	11.40	22.02	-44.8	-46.0	21.0	0.00e+00	0	43	0	441450496	61	4074
2026-01-23 03:46:17.28	11.18	22.10	-45.1	-46.4	20.6	0.00e+00	0	44	0	443547648	61	4278
2026-01-23 03:46:18.29	10.95	22.18	-45.0	-46.4	20.6	0.00e+00	0	43	0	445644800	61	4246
2026-01-23 03:46:19.29	10.73	22.25	-45.4	-46.8	20.3	0.00e+00	0	43	0	446693376	61	4447
2026-01-23 03:46:20.30	10.50	22.33	-45.2	-46.6	20.5	0.00e+00	0	43	0	448790528	61	4355
2026-01-23 03:46:21.31	10.27	22.41	-45.2	-46.6	20.5	0.00e+00	0	43	0	450887680	61	4345
2026-01-23 03:46:22.32	10.04	22.49	-45.1	-46.4	20.6	0.00e+00	0	43	0	452984832	61	4281
2026-01-23 03:46:23.33	9.81	22.57	-45.2	-46.6	20.5	0.00e+00	0	43	0	455081984	61	4350
2026-01-23 03:46:24.33	9.58	22.64	-45.4	-46.9	20.2	0.00e+00	0	44	0	456130560	61	4495
2026-01-23 03:46:25.34	9.35	22.72	-45.5	-46.9	20.2	0.00e+00	0	43	0	458227712	61	4519
2026-01-23 03:46:26.35	9.11	22.80	-45.5	-46.9	20.1	0.00e+00	0	43	0	460324864	61	4542
2026-01-23 03:46:27.36	8.88	22.87	-44.8	-46.1	20.9	0.00e+00	0	44	0	462422016	61	4118
2026-01-23 03:46:28.36	8.64	22.95	-44.5	-45.7	21.2	0.00e+00	0	43	0	464519168	61	3953
2026-01-23 03:46:29.37	8.41	23.03	-44.4	-45.6	21.4	0.00e+00	0	43	0	466616320	60	4100
2026-01-23 03:46:30.38	8.17	23.10	-44.4	-45.6	21.4	0.00e+00	0	44	0	467664896	60	4115
2026-01-23 03:46:31.38	7.93	23.18	-44.6	-45.8	21.2	0.00e+00	0	43	0	469762048	60	4213
2026-01-23 03:46:32.39	7.69	23.25	-44.7	-45.9	21.1	0.00e+00	0	44	0	471859200	60	4289
2026-01-23 03:46:33.40	7.45	23.33	-44.6	-45.8	21.2	0.00e+00	0	44	0	473956352	60	4230
2026-01-23 03:46:34.41	7.20	23.40	-44.6	-45.8	21.3	0.00e+00	0	43	0	475004928	60	4194
2026-01-23 03:46:35.42	6.96	23.47	-44.5	-45.7	21.3	0.00e+00	0	43	0	477102080	60	4154
2026-01-23 03:46:36.43	6.71	23.55	-44.2	-45.4	21.6	0.00e+00	0	44	0	479199232	60	4014
2026-01-23 03:46:37.44	6.47	23.62	-44.2	-45.4	21.5	0.00e+00	0	44	0	481296384	60	4024
2026-01-23 03:46:38.44	6.22	23.69	-44.2	-45.4	21.6	0.00e+00	0	44	0	483393536	60	4005
2026-01-23 03:46:39.44	5.97	23.77	-44.3	-45.4	21.5	0.00e+00	0	44	0	484442112	60	4048
2026-01-23 03:46:40.45	5.72	23.84	-44.3	-45.4	21.7	0.00e+00	0	44	0	486539264	59	4285
2026-01-23 03:46:41.46	5.47	23.91	-44.1	-45.3	21.8	0.00e+00	0	43	0	488636416	59	4197
2026-01-23 03:46:42.47	5.22	23.98	-44.2	-45.4	21.8	0.00e+00	0	43	0	490733568	59	4261
2026-01-23 03:46:43.48	4.96	24.05	-44.3	-45.5	21.7	0.00e+00	0	43	0	492830720	59	4301
2026-01-23 03:46:44.48	4.71	24.12	-44.6	-45.9	21.4	0.00e+00	0	44	0	494927872	59	4496
2026-01-23 03:46:45.49	4.45	24.19	-44.5	-45.7	21.3	0.00e+00	0	43	0	495976448	60	4160
2026-01-23 03:46:46.50	4.20	24.26	-44.4	-45.6	21.4	0.00e+00	0	44	0	498073600	60	4107
2026-01-23 03:46:47.51	3.94	24.33	-44.3	-45.5	21.5	0.00e+00	0	43	0	500170752	60	4062
2026-01-23 03:46:48.51	3.68	24.40	-44.2	-45.3	21.6	0.00e+00	0	44	0	502267904	60	3992
2026-01-23 03:46:49.52	3.42	24.47	-44.4	-45.6	21.4	0.00e+00	0	44	0	503316480	60	4105
2026-01-23 03:46:50.53	3.16	24.53	-44.6	-45.8	21.3	0.00e+00	0	44	0	505413632	60	4219
2026-01-23 03:46:51.54	2.89	24.60	-44.8	-46.1	21.0	0.00e+00	0	44	0	507510784	60	4348
2026-01-23 03:46:52.55	2.63	24.67	-45.1	-46.4	20.7	0.00e+00	0	44	0	509607936	60	4531
2026-01-23 03:46:53.56	2.36	24.74	-45.3	-46.6	20.6	0.00e+00	0	44	0	511705088	61	4367
2026-01-23 03:46:54.57	2.10	24.80	-45.2	-46.5	20.6	0.00e+00	0	44	0	513802240	61	4320
2026-01-23 03:46:55.57	1.83	24.87	-45.1	-46.4	20.8	0.00e+00	0	44	0	514850816	61	4248
2026-01-23 03:46:56.58	1.56	24.93	-44.9	-46.1	21.0	0.00e+00	0	44	0	516947968	61	4141
2026-01-23 03:46:57.59	1.29	25.00	-45.0	-46.3	20.8	0.00e+00	0	43	0	519045120	61	4230
2026-01-23 03:46:58.60	1.02	25.06	-45.2	-46.6	20.6	0.00e+00	0	44	0	521142272	61	4349
2026-01-23 03:46:59.61	0.75	25.12	-45.0	-46.3	20.8	0.00e+00	0	43	0	523239424	61	4224
2026-01-23 03:47:00.61	0.48	25.18	-44.9	-46.2	20.9	0.00e+00	0	44	0	524288000	61	4166
2026-01-23 03:47:01.62	0.20	25.25	-44.7	-45.9	21.2	0.00e+00	0	44	0	526385152	61	4044
2026-01-23 03:47:02.63	359.93	25.31	-44.6	-45.8	21.2	0.00e+00	0	43	0	528482304	61	3978
2026-01-23 03:47:03.64	359.65	25.37	-44.6	-45.8	21.3	0.00e+00	0	44	0	530579456	61	3965
2026-01-23 03:47:04.65	359.37	25.43	-44.9	-46.2	20.9	0.00e+00	0	44	0	531628032	61	4179
2026-01-23 03:47:05.65	359.10	25.49	-45.2	-46.5	20.6	0.00e+00	0	44	0	533725184	61	4325
2026-01-23 03:47:06.66	358.82	25.55	-45.0	-46.3	20.8	0.00e+00	0	43	0	535822336	61	4234
2026-01-23 03:47:07.67	358.54	25.61	-44.6	-45.8	21.3	0.00e+00	0	44	0	537919488	61	3991
2026-01-23 03:47:08.68	358.26	25.66	-44.3	-45.5	21.7	0.00e+00	0	44	0	540016640	60	4056
2026-01-23 03:47:09.68	357.98	25.72	-44.5	-45.7	21.4	0.00e+00	0	44	0	542113792	60	4170
2026-01-23 03:47:10.69	357.69	25.78	-44.5	-45.7	21.4	0.00e+00	0	44	0	543162368	60	4158
2026-01-23 03:47:11.70	357.41	25.83	-44.8	-46.0	21.1	0.00e+00	0	44	0	545259520	60	4313
2026-01-23 03:47:12.71	357.12	25.89	-44.6	-45.8	21.3	0.00e+00	0	44	0	547356672	60	4198
2026-01-23 03:47:13.71	356.84	25.94	-44.6	-45.8	21.3	0.00e+00	0	44	0	549453824	60	4237
2026-01-23 03:47:14.72	356.55	25.99	-44.0	-45.1	21.9	0.00e+00	0	44	0	551550976	60	3907
2026-01-23 03:47:15.73	356.26	26.05	-44.1	-45.2	21.9	0.00e+00	0	43	0	552599552	60	3917
2026-01-23 03:47:16.74	355.97	26.10	-44.2	-45.3	21.7	0.00e+00	0	44	0	554696704	60	3983
2026-01-23 03:47:17.75	355.68	26.15	-44.5	-45.6	21.5	0.00e+00	0	44	0	556793856	60	4129
2026-01-23 03:47:18.75	355.39	26.20	-44.6	-45.8	21.3	0.00e+00	0	44	0	558891008	60	4210
2026-01-23 03:47:19.76	355.10	26.25	-44.6	-45.8	21.2	0.00e+00	0	44	0	560988160	60	4237
2026-01-23 03:47:20.77	354.80	26.30	-44.5	-45.7	21.4	0.00e+00	0	44	0	562036736	60	4150
2026-01-23 03:47:21.78	354.51	26.35	-44.1	-45.2	21.7	0.00e+00	0	43	0	564133888	60	3954
2026-01-23 03:47:22.78	354.22	26.40	-44.3	-45.5	21.6	0.00e+00	0	43	0	566231040	60	4053
2026-01-23 03:47:23.79	353.92	26.45	-44.4	-45.6	21.5	0.00e+00	0	44	0	568328192	60	4112
2026-01-23 03:47:24.80	353.62	26.49	-44.7	-45.9	21.2	0.00e+00	0	44	0	570425344	60	4277
2026-01-23 03:47:25.81	353.33	26.54	-45.1	-46.3	20.9	0.00e+00	0	44	0	571473920	60	4477
2026-01-23 03:47:26.81	353.03	26.58	-45.1	-46.4	20.8	0.00e+00	0	43	0	573571072	60	4510
2026-01-23 03:47:27.82	352.73	26.63	-44.9	-46.2	20.9	0.00e+00	0	44	0	575668224	60	4410
2026-01-23 03:47:28.83	352.43	26.67	-45.0	-46.3	20.8	0.00e+00	0	44	0	577765376	61	4217
2026-01-23 03:47:29.84	352.13	26.71	-45.4	-46.8	20.4	0.00e+00	0	44	0	579862528	61	4449
2026-01-23 03:47:30.84	351.83	26.75	-46.0	-47.5	19.8	0.00e+00	0	44	0	580911104	62	4546
2026-01-23 03:47:31.85	351.52	26.80	-46.4	-48.0	19.5	0.00e+00	0	44	0	583008256	63	4546
2026-01-23 03:47:32.86	351.22	26.84	-46.4	-47.9	19.5	0.00e+00	0	44	0	585105408	63	4538
2026-01-23 03:47:33.87	350.92	26.88	-46.3	-47.9	19.5	0.00e+00	0	44	0	587202560	63	4494
2026-01-23 03:47:34.88	350.61	26.91	-46.0	-47.5	19.9	0.00e+00	0	44	0	589299712	63	4297
2026-01-23 03:47:35.88	350.31	26.95	-45.9	-47.3	20.0	0.00e+00	0	44	0	590348288	63	4214
2026-01-23 03:47:36.89	350.00	26.99	-46.0	-47.4	19.9	0.00e+00	0	44	0	592445440	63	4259
2026-01-23 03:47:37.90	349.69	27.02	-46.0	-47.4	19.8	0.00e+00	0	44	0	594542592	63	4282
2026-01-23 03:47:38.91	349.39	27.06	-45.9	-47.3	20.0	0.00e+00	0	44	0	596639744	63	4213
2026-01-23 03:47:39.92	349.08	27.09	-45.7	-47.0	20.2	0.00e+00	0	43	0	598736896	63	4098
2026-01-23 03:47:40.93	348.77	27.13	-45.7	-47.1	20.1	0.00e+00	0	44	0	599785472	63	4119
2026-01-23 03:47:41.93	348.46	27.16	-45.8	-47.2	20.1	0.00e+00	0	44	0	601882624	63	4157
2026-01-23 03:47:42.94	348.15	27.19	-46.2	-47.7	19.7	0.00e+00	0	44	0	603979776	63	4400
2026-01-23 03:47:43.95	347.84	27.22	-46.7	-48.4	19.1	0.00e+00	0	44	0	606076928	63	4768
2026-01-23 03:47:44.96	347.53	27.25	-46.9	-48.6	18.8	0.00e+00	0	44	0	608174080	64	4615
2026-01-23 03:47:45.97	347.21	27.28	-46.9	-48.6	18.8	0.00e+00	0	44	0	610271232	64	4644
2026-01-23 03:47:46.97	346.90	27.31	-46.8	-48.5	18.8	0.00e+00	0	44	0	611319808	64	4561
2026-01-23 03:47:47.98	346.59	27.33	-46.4	-48.0	19.2	0.00e+00	0	44	0	613416960	64	4330
2026-01-23 03:47:48.99	346.27	27.36	-46.3	-47.8	19.4	0.00e+00	0	44	0	615514112	64	4228
2026-01-23 03:47:50.00	345.96	27.38	-46.3	-47.9	19.4	0.00e+00	0	44	0	617611264	64	4245
2026-01-23 03:47:51.01	345.64	27.41	-46.2	-47.7	19.5	0.00e+00	0	44	0	618659840	64	4151
2026-01-23 03:47:52.01	345.33	27.43	-46.4	-47.9	19.4	0.00e+00	0	44	0	620756992	64	4277
2026-01-23 03:47:53.02	345.02	27.45	-46.4	-48.0	19.3	0.00e+00	0	43	0	622854144	64	4311
2026-01-23 03:47:54.03	344.70	27.47	-46.6	-48.2	19.0	0.00e+00	0	44	0	624951296	64	4414
2026-01-23 03:47:55.04	344.38	27.50	-46.6	-48.2	19.0	0.00e+00	0	44	0	627048448	64	4417
2026-01-23 03:47:56.05	344.06	27.51	-46.2	-47.7	19.5	0.00e+00	0	44	0	628097024	64	4180
2026-01-23 03:47:57.05	343.75	27.53	-46.2	-47.7	19.5	0.00e+00	0	44	0	630194176	64	4181
2026-01-23 03:47:58.06	343.43	27.55	-46.2	-47.7	19.5	0.00e+00	0	44	0	632291328	64	4172
2026-01-23 03:47:59.07	343.11	27.57	-46.3	-47.8	19.4	0.00e+00	0	44	0	634388480	64	4233
2026-01-23 03:48:00.07	342.80	27.58	-46.1	-47.6	19.5	0.00e+00	0	44	0	636485632	64	4115
2026-01-23 03:48:01.08	342.48	27.60	-46.1	-47.6	19.6	0.00e+00	0	44	0	638582784	63	4360
2026-01-23 03:48:02.09	342.16	27.61	-45.9	-47.4	19.8	0.00e+00	0	44	0	639631360	63	4257
2026-01-23 03:48:03.10	341.84	27.62	-46.0	-47.5	19.8	0.00e+00	0	44	0	641728512	63	4308
2026-01-23 03:48:04.11	341.52	27.63	-46.3	-47.9	19.3	0.00e+00	0	44	0	643825664	63	4524
2026-01-23 03:48:05.12	341.20	27.64	-46.5	-48.2	18.9	0.00e+00	0	44	0	645922816	64	4418
2026-01-23 03:48:06.12	340.88	27.65	-46.9	-48.7	18.5	0.00e+00	0	44	0	646971392	64	4693
2026-01-23 03:48:07.13	340.56	27.66	-47.3	-49.2	18.0	0.00e+00	0	44	0	649068544	65	4661
2026-01-23 03:48:08.14	340.24	27.67	-47.4	-49.3	18.0	0.00e+00	0	44	0	651165696	65	4731
2026-01-23 03:48:09.15	339.92	27.68	-47.1	-48.9	18.4	0.00e+00	0	44	0	653262848	65	4496
2026-01-23 03:48:10.16	339.60	27.68	-46.5	-48.1	19.3	0.00e+00	0	44	0	655360000	64	4365
2026-01-23 03:48:11.17	339.28	27.69	-46.1	-47.6	19.6	0.00e+00	0	44	0	657457152	64	4117
2026-01-23 03:48:12.17	338.96	27.69	-46.0	-47.4	19.9	0.00e+00	0	44	0	658505728	63	4274
2026-01-23 03:48:13.18	338.64	27.69	-45.9	-47.3	20.1	0.00e+00	0	44	0	660602880	63	4199
2026-01-23 03:48:14.19	338.32	27.70	-46.1	-47.6	19.8	0.00e+00	0	44	0	662700032	63	4363
2026-01-23 03:48:15.20	338.00	27.70	-46.1	-47.6	19.8	0.00e+00	0	44	0	664797184	63	4357
2026-01-23 03:48:16.20	337.68	27.70	-46.3	-47.8	19.6	0.00e+00	0	44	0	666894336	63	4467
2026-01-23 03:48:17.21	337.36	27.69	-46.3	-47.8	19.5	0.00e+00	0	44	0	667942912	63	4468
2026-01-23 03:48:18.22	337.04	27.69	-46.1	-47.6	19.6	0.00e+00	0	44	0	670040064	63	4355
2026-01-23 03:48:19.23	336.71	27.69	-46.3	-47.8	19.5	0.00e+00	0	44	0	672137216	63	4491
2026-01-23 03:48:20.24	336.39	27.68	-46.6	-48.2	19.2	0.00e+00	0	44	0	674234368	63	4659
2026-01-23 03:48:21.25	336.07	27.68	-46.6	-48.2	19.0	0.00e+00	0	44	0	675282944	64	4392
2026-01-23 03:48:22.25	335.75	27.67	-46.5	-48.1	19.2	0.00e+00	0	44	0	677380096	64	4348
2026-01-23 03:48:23.26	335.43	27.67	-46.1	-47.5	19.7	0.00e+00	0	44	0	679477248	64	4094
2026-01-23 03:48:24.27	335.11	27.66	-46.0	-47.5	19.9	0.00e+00	0	44	0	681574400	63	4310
2026-01-23 03:48:25.28	334.79	27.65	-45.8	-47.2	20.2	0.00e+00	0	44	0	683671552	63	4149
2026-01-23 03:48:26.29	334.47	27.64	-45.6	-47.0	20.3	0.00e+00	0	44	0	685768704	62	4323
2026-01-23 03:48:27.29	334.16	27.63	-45.6	-47.0	20.4	0.00e+00	0	44	0	686817280	62	4316
2026-01-23 03:48:28.30	333.84	27.61	-45.7	-47.1	20.2	0.00e+00	0	44	0	688914432	62	4353
2026-01-23 03:48:29.31	333.52	27.60	-45.7	-47.1	20.2	0.00e+00	0	44	0	691011584	62	4377
2026-01-23 03:48:30.32	333.20	27.59	-46.1	-47.6	19.8	0.00e+00	0	44	0	693108736	62	4605
2026-01-23 03:48:31.32	332.88	27.57	-46.4	-48.0	19.4	0.00e+00	0	44	0	695205888	63	4561
2026-01-23 03:48:32.33	332.56	27.56	-46.7	-48.3	19.2	0.00e+00	0	44	0	696254464	63	4736
2026-01-23 03:48:33.34	332.24	27.54	-46.5	-48.1	19.2	0.00e+00	0	44	0	698351616	64	4383
2026-01-23 03:48:34.35	331.93	27.52	-46.2	-47.7	19.4	0.00e+00	0	44	0	700448768	64	4177
2026-01-23 03:48:35.36	331.61	27.50	-45.6	-46.9	20.4	0.00e+00	0	44	0	702545920	63	4033
2026-01-23 03:48:36.37	331.29	27.48	-45.2	-46.5	20.8	0.00e+00	0	44	0	704643072	62	4052
2026-01-23 03:48:37.37	330.98	27.46	-44.5	-45.7	21.5	0.00e+00	0	44	0	705691648	61	3914
2026-01-23 03:48:38.38	330.66	27.44	-44.1	-45.2	21.9	0.00e+00	0	44	0	707788800	60	3943
2026-01-23 03:48:39.39	330.35	27.42	-44.2	-45.3	21.8	0.00e+00	0	44	0	709885952	60	3984
2026-01-23 03:48:40.40	330.03	27.39	-44.6	-45.7	21.5	0.00e+00	0	44	0	711983104	60	4186
2026-01-23 03:48:41.41	329.71	27.37	-44.8	-46.0	21.2	0.00e+00	0	44	0	714080256	60	4330
2026-01-23 03:48:42.41	329.40	27.34	-44.6	-45.8	21.4	0.00e+00	0	44	0	715128832	60	4217
2026-01-23 03:48:43.42	329.09	27.31	-44.7	-45.9	21.3	0.00e+00	0	44	0	717225984	60	4252
2026-01-23 03:48:44.43	328.78	27.29	-44.3	-45.4	21.7	0.00e+00	0	44	0	719323136	60	4022
2026-01-23 03:48:45.44	328.46	27.26	-44.1	-45.2	21.9	0.00e+00	0	44	0	721420288	60	3936
2026-01-23 03:48:46.45	328.15	27.23	-44.4	-45.5	21.9	0.00e+00	0	44	0	723517440	59	4323
2026-01-23 03:48:47.45	327.84	27.20	-44.6	-45.8	21.7	0.00e+00	0	44	0	724566016	59	4461
2026-01-23 03:48:48.46	327.53	27.17	-44.6	-45.7	21.4	0.00e+00	0	44	0	726663168	60	4186
2026-01-23 03:48:49.47	327.22	27.14	-44.8	-46.0	21.2	0.00e+00	0	44	0	728760320	60	4330
2026-01-23 03:48:50.48	326.91	27.10	-44.9	-46.1	21.0	0.00e+00	0	44	0	730857472	60	4390
2026-01-23 03:48:51.49	326.60	27.07	-45.5	-46.9	20.4	0.00e+00	0	44	0	732954624	61	4506
2026-01-23 03:48:52.49	326.30	27.03	-45.6	-47.0	20.4	0.00e+00	0	43	0	734003200	61	4550
2026-01-23 03:48:53.50	325.99	27.00	-45.3	-46.5	20.8	0.00e+00	0	44	0	736100352	61	4327
2026-01-23 03:48:54.51	325.68	26.96	-45.4	-46.6	20.6	0.00e+00	0	44	0	738197504	61	4383
2026-01-23 03:48:55.52	325.37	26.92	-45.4	-46.7	20.6	0.00e+00	0	44	0	740294656	61	4394
2026-01-23 03:48:56.52	325.07	26.89	-45.6	-46.9	20.5	0.00e+00	0	44	0	742391808	62	4256
2026-01-23 03:48:57.53	324.77	26.85	-45.6	-46.9	20.5	0.00e+00	0	44	0	743440384	62	4272
2026-01-23 03:48:58.54	324.46	26.81	-45.6	-46.9	20.5	0.00e+00	0	44	0	745537536	62	4249
2026-01-23 03:48:59.55	324.16	26.77	-45.5	-46.8	20.6	0.00e+00	0	44	0	747634688	62	4209
2026-01-23 03:49:00.56	323.86	26.73	-45.6	-46.9	20.5	0.00e+00	0	44	0	749731840	62	4278
2026-01-23 03:49:01.57	323.55	26.68	-45.7	-47.0	20.5	0.00e+00	0	44	0	751828992	62	4298
2026-01-23 03:49:02.57	323.26	26.64	-45.7	-47.1	20.3	0.00e+00	0	44	0	752877568	62	4341
2026-01-23 03:49:03.58	322.96	26.60	-45.6	-46.9	20.6	0.00e+00	0	44	0	754974720	62	4272
2026-01-23 03:49:04.59	322.66	26.55	-45.5	-46.8	20.6	0.00e+00	0	44	0	757071872	62	4199
2026-01-23 03:49:05.60	322.36	26.51	-45.4	-46.6	20.8	0.00e+00	0	44	0	759169024	62	4119
2026-01-23 03:49:06.61	322.06	26.46	-45.3	-46.6	20.8	0.00e+00	0	44	0	761266176	62	4108
2026-01-23 03:49:07.62	321.76	26.41	-45.5	-46.7	20.6	0.00e+00	0	44	0	762314752	62	4190
2026-01-23 03:49:08.63	321.47	26.36	-45.3	-46.6	20.8	0.00e+00	0	44	0	764411904	62	4113
2026-01-23 03:49:09.63	321.18	26.32	-45.1	-46.3	21.0	0.00e+00	0	44	0	766509056	62	3998
2026-01-23 03:49:10.64	320.88	26.27	-45.0	-46.2	21.0	0.00e+00	0	44	0	768606208	62	3946
2026-01-23 03:49:11.65	320.59	26.22	-44.9	-46.0	21.2	0.00e+00	0	44	0	770703360	61	4081
2026-01-23 03:49:12.66	320.30	26.17	-45.4	-46.7	20.6	0.00e+00	0	44	0	772800512	61	4441
2026-01-23 03:49:13.67	320.00	26.11	-45.8	-47.2	20.1	0.00e+00	0	44	0	773849088	62	4422
2026-01-23 03:49:14.67	319.72	26.06	-46.1	-47.5	19.9	0.00e+00	0	44	0	775946240	62	4589
2026-01-23 03:49:15.68	319.43	26.01	-46.5	-48.1	19.4	0.00e+00	0	44	0	778043392	63	4609
2026-01-23 03:49:16.69	319.14	25.96	-46.6	-48.2	19.2	0.00e+00	0	44	0	780140544	64	4437
2026-01-23 03:49:17.70	318.85	25.90	-47.1	-48.8	18.7	0.00e+00	0	44	0	781189120	64	4746
2026-01-23 03:49:18.71	318.57	25.85	-47.2	-49.1	18.3	0.00e+00	0	44	0	783286272	65	4606
2026-01-23 03:49:19.71	318.28	25.79	-47.4	-49.3	18.2	0.00e+00	0	44	0	785383424	65	4735
2026-01-23 03:49:20.72	318.00	25.74	-47.5	-49.4	18.0	0.00e+00	0	44	0	787480576	65	4802
2026-01-23 03:49:21.73	317.72	25.68	-47.3	-49.1	18.3	0.00e+00	0	44	0	789577728	65	4616
2026-01-23 03:49:22.74	317.43	25.62	-47.1	-48.9	18.5	0.00e+00	0	44	0	790626304	65	4515
2026-01-23 03:49:23.75	317.15	25.56	-46.9	-48.6	18.7	0.00e+00	0	44	0	792723456	65	4389
2026-01-23 03:49:24.76	316.87	25.50	-46.9	-48.5	18.9	0.00e+00	0	44	0	794820608	65	4325
2026-01-23 03:49:25.77	316.59	25.44	-46.9	-48.6	18.9	0.00e+00	0	44	0	796917760	65	4346
2026-01-23 03:49:26.77	316.32	25.38	-47.0	-48.7	18.7	0.00e+00	0	44	0	799014912	65	4419
2026-01-23 03:49:27.78	316.04	25.32	-46.7	-48.3	19.0	0.00e+00	0	44	0	801112064	65	4235
2026-01-23 03:49:28.79	315.76	25.26	-46.9	-48.5	18.8	0.00e+00	0	44	0	802160640	65	4321
2026-01-23 03:49:29.80	315.49	25.20	-46.7	-48.3	19.0	0.00e+00	0	44	0	804257792	65	4209
2026-01-23 03:49:30.81	315.21	25.14	-46.7	-48.3	19.0	0.00e+00	0	44	0	806354944	65	4213
2026-01-23 03:49:31.81	314.94	25.08	-46.6	-48.2	19.0	0.00e+00	0	44	0	808452096	65	4187
2026-01-23 03:49:32.82	314.67	25.01	-46.6	-48.1	19.1	0.00e+00	0	44	0	809500672	65	4140
2026-01-23 03:49:33.83	314.40	24.95	-46.2	-47.7	19.6	0.00e+00	0	44	0	811597824	64	4182
2026-01-23 03:49:34.84	314.13	24.88	-46.1	-47.5	19.7	0.00e+00	0	44	0	813694976	64	4091
2026-01-23 03:49:35.84	313.87	24.82	-45.9	-47.2	20.1	0.00e+00	0	44	0	815792128	63	4190
2026-01-23 03:49:36.85	313.60	24.75	-46.2	-47.7	19.6	0.00e+00	0	44	0	817889280	63	4405
2026-01-23 03:49:37.86	313.33	24.69	-46.2	-47.7	19.6	0.00e+00	0	44	0	819986432	63	4420
2026-01-23 03:49:38.86	313.07	24.62	-46.0	-47.4	19.8	0.00e+00	0	44	0	821035008	63	4285
2026-01-23 03:49:39.87	312.81	24.55	-45.6	-46.9	20.3	0.00e+00	0	44	0	823132160	63	4048
2026-01-23 03:49:40.88	312.55	24.48	-45.5	-46.8	20.5	0.00e+00	0	44	0	825229312	62	4218
2026-01-23 03:49:41.89	312.28	24.42	-45.3	-46.6	20.6	0.00e+00	0	44	0	827326464	62	4109
2026-01-23 03:49:42.90	312.02	24.35	-45.3	-46.7	20.6	0.00e+00	0	44	0	829423616	62	4158
2026-01-23 03:49:43.91	311.76	24.28	-45.5	-46.9	20.4	0.00e+00	0	44	0	830472192	62	4255
2026-01-23 03:49:44.92	311.51	24.21	-46.0	-47.5	19.8	0.00e+00	0	44	0	832569344	62	4549
2026-01-23 03:49:45.93	311.25	24.14	-46.4	-48.0	19.4	0.00e+00	0	43	0	834666496	63	4575
2026-01-23 03:49:46.93	311.00	24.07	-46.5	-48.1	19.2	0.00e+00	0	44	0	836763648	63	4625
2026-01-23 03:49:47.94	310.74	24.00	-46.6	-48.3	19.0	0.00e+00	0	44	0	837812224	64	4453
2026-01-23 03:49:48.95	310.49	23.93	-46.4	-48.1	19.2	0.00e+00	0	44	0	839909376	64	4361
2026-01-23 03:49:49.96	310.24	23.86	-46.5	-48.2	19.0	0.00e+00	0	44	0	842006528	64	4437
2026-01-23 03:49:50.97	309.98	23.78	-46.4	-48.1	19.2	0.00e+00	0	43	0	844103680	64	4366
2026-01-23 03:49:51.98	309.73	23.71	-46.4	-48.0	19.2	0.00e+00	0	44	0	846200832	64	4331
2026-01-23 03:49:52.98	309.49	23.64	-46.1	-47.7	19.6	0.00e+00	0	44	0	848297984	64	4161
2026-01-23 03:49:53.99	309.24	23.57	-46.0	-47.5	19.8	0.00e+00	0	44	0	849346560	63	4336
2026-01-23 03:49:55.00	308.99	23.49	-45.6	-47.0	20.2	0.00e+00	0	44	0	851443712	63	4086
2026-01-23 03:49:56.01	308.75	23.42	-45.9	-47.3	19.9	0.00e+00	0	44	0	853540864	63	4242
2026-01-23 03:49:57.02	308.50	23.34	-45.7	-47.1	20.2	0.00e+00	0	44	0	855638016	63	4122
2026-01-23 03:49:58.02	308.26	23.27	-46.0	-47.5	19.8	0.00e+00	0	44	0	857735168	63	4316
2026-01-23 03:49:59.03	308.02	23.19	-46.2	-47.8	19.5	0.00e+00	0	44	0	858783744	63	4472
2026-01-23 03:50:00.04	307.78	23.12	-46.5	-48.1	19.3	0.00e+00	0	44	0	860880896	63	4626
2026-01-23 03:50:01.05	307.54	23.04	-46.3	-47.9	19.5	0.00e+00	0	44	0	862978048	63	4509
2026-01-23 03:50:02.06	307.30	22.97	-46.1	-47.6	19.7	0.00e+00	0	44	0	865075200	63	4349
2026-01-23 03:50:03.07	307.07	22.89	-45.8	-47.3	20.0	0.00e+00	0	44	0	867172352	63	4202
2026-01-23 03:50:04.07	306.83	22.81	-45.7	-47.1	20.2	0.00e+00	0	43	0	868220928	63	4115
2026-01-23 03:50:05.08	306.60	22.74	-45.5	-46.9	20.3	0.00e+00	0	44	0	870318080	63	4034
2026-01-23 03:50:06.09	306.36	22.66	-45.2	-46.5	20.7	0.00e+00	0	44	0	872415232	62	4072
2026-01-23 03:50:07.10	306.13	22.58	-45.0	-46.3	20.9	0.00e+00	0	44	0	874512384	61	4230
2026-01-23 03:50:08.10	305.90	22.51	-44.6	-45.9	20.8	0.00e+00	0	44	0	876609536	61	4022
2026-01-23 03:50:09.11	305.67	22.43	-44.7	-46.0	21.1	0.00e+00	0	44	0	877658112	61	4075
2026-01-23 03:50:10.12	305.44	22.35	-45.0	-46.3	20.9	0.00e+00	0	43	0	879755264	61	4194
2026-01-23 03:50:11.13	305.22	22.27	-45.0	-46.3	20.9	0.00e+00	0	44	0	881852416	61	4218
2026-01-23 03:50:12.14	304.99	22.19	-44.9	-46.2	20.9	0.00e+00	0	44	0	883949568	61	4180
2026-01-23 03:50:13.14	304.77	22.11	-44.8	-46.1	21.0	0.00e+00	0	44	0	886046720	61	4118
2026-01-23 03:50:14.15	304.54	22.03	-44.8	-46.0	21.1	0.00e+00	0	44	0	888143872	61	4096
2026-01-23 03:50:15.16	304.32	21.96	-44.8	-46.0	21.1	0.00e+00	0	44	0	889192448	61	4085
2026-01-23 03:50:16.17	304.10	21.88	-44.7	-45.9	21.1	0.00e+00	0	44	0	891289600	61	4043
2026-01-23 03:50:17.18	303.87	21.80	-44.7	-45.9	21.1	0.00e+00	0	44	0	893386752	61	4047
2026-01-23 03:50:18.18	303.66	21.72	-44.6	-45.8	21.2	0.00e+00	0	44	0	895483904	61	3961
2026-01-23 03:50:19.19	303.44	21.64	-44.4	-45.6	21.4	0.00e+00	0	44	0	896532480	60	4127
2026-01-23 03:50:20.20	303.22	21.56	-44.4	-45.6	21.4	0.00e+00	0	44	0	898629632	60	4125
2026-01-23 03:50:21.21	303.00	21.47	-44.2	-45.4	21.6	0.00e+00	0	44	0	900726784	60	4009
2026-01-23 03:50:22.22	302.79	21.39	-44.3	-45.5	21.5	0.00e+00	0	44	0	902823936	60	4076
2026-01-23 03:50:23.23	302.58	21.31	-44.5	-45.7	21.3	0.00e+00	0	44	0	904921088	60	4156
2026-01-23 03:50:24.23	302.36	21.23	-45.0	-46.3	20.8	0.00e+00	0	44	0	905969664	60	4455
2026-01-23 03:50:25.24	302.15	21.15	-45.0	-46.3	20.8	0.00e+00	0	44	0	908066816	60	4464
2026-01-23 03:50:26.25	301.94	21.07	-45.2	-46.5	20.7	0.00e+00	0	44	0	910163968	60	4588
2026-01-23 03:50:27.26	301.73	20.99	-45.4	-46.7	20.4	0.00e+00	0	44	0	912261120	61	4441
2026-01-23 03:50:28.27	301.52	20.91	-45.5	-46.9	20.3	0.00e+00	0	44	0	914358272	61	4534
2026-01-23 03:50:29.28	301.32	20.82	-45.7	-47.2	20.0	0.00e+00	0	44	0	916455424	62	4403
2026-01-23 03:50:30.28	301.11	20.74	-45.7	-47.2	20.1	0.00e+00	0	44	0	917504000	62	4404
2026-01-23 03:50:31.29	300.91	20.66	-45.5	-46.9	20.2	0.00e+00	0	44	0	919601152	62	4262
2026-01-23 03:50:32.30	300.70	20.58	-45.1	-46.4	20.8	0.00e+00	0	44	0	921698304	61	4262
2026-01-23 03:50:33.31	300.50	20.50	-44.9	-46.1	20.9	0.00e+00	0	44	0	923795456	61	4130
2026-01-23 03:50:34.32	300.30	20.41	-44.7	-45.9	21.1	0.00e+00	0	44	0	924844032	61	4031
2026-01-23 03:50:35.33	300.10	20.33	-44.8	-46.0	21.0	0.00e+00	0	44	0	926941184	61	4087
2026-01-23 03:50:36.33	299.90	20.25	-44.9	-46.2	20.9	0.00e+00	0	44	0	929038336	61	4168
2026-01-23 03:50:37.34	299.70	20.17	-45.0	-46.2	20.9	0.00e+00	0	44	0	931135488	61	4186
2026-01-23 03:50:38.35	299.50	20.08	-45.1	-46.4	20.8	0.00e+00	0	44	0	933232640	61	4247
2026-01-23 03:50:39.36	299.31	20.00	-44.7	-45.9	21.1	0.00e+00	0	44	0	935329792	61	4034
2026-01-23 03:50:40.36	299.11	19.92	-44.5	-45.7	21.3	0.00e+00	0	44	0	936378368	60	4161
2026-01-23 03:50:41.37	298.92	19.84	-44.0	-45.1	21.9	0.00e+00	0	44	0	938475520	60	3897
2026-01-23 03:50:42.38	298.73	19.75	-44.0	-45.0	22.2	0.00e+00	0	44	0	940572672	59	4096
2026-01-23 03:50:43.39	298.53	19.67	-43.9	-44.9	22.3	0.00e+00	0	44	0	942669824	59	4037
2026-01-23 03:50:44.40	298.34	19.59	-43.7	-44.8	22.4	0.00e+00	0	44	0	944766976	59	3974
2026-01-23 03:50:45.41	298.15	19.50	-43.8	-44.8	22.3	0.00e+00	0	44	0	945815552	59	4002
2026-01-23 03:50:46.41	297.97	19.42	-43.9	-45.0	22.3	0.00e+00	0	44	0	947912704	59	4071
2026-01-23 03:50:47.42	297.78	19.34	-44.0	-45.1	22.2	0.00e+00	0	44	0	950009856	59	4110
2026-01-23 03:50:48.43	297.59	19.25	-44.2	-45.3	22.0	0.00e+00	0	44	0	952107008	59	4208
2026-01-23 03:50:49.44	297.41	19.17	-44.3	-45.4	21.9	0.00e+00	0	44	0	953155584	59	4285
2026-01-23 03:50:50.44	297.22	19.09	-44.5	-45.6	21.7	0.00e+00	0	44	0	955252736	59	4389
2026-01-23 03:50:51.45	297.04	19.00	-44.7	-45.8	21.6	0.00e+00	0	44	0	957349888	59	4483
2026-01-23 03:50:52.46	296.86	18.92	-44.5	-45.7	21.6	0.00e+00	0	44	0	959447040	59	4412
2026-01-23 03:50:53.47	296.67	18.84	-44.3	-45.4	21.6	0.00e+00	0	44	0	961544192	60	4045
2026-01-23 03:50:54.48	296.49	18.75	-44.1	-45.2	21.8	0.00e+00	0	44	0	963641344	60	3936
2026-01-23 03:50:55.49	296.31	18.67	-44.1	-45.3	21.8	0.00e+00	0	44	0	964689920	60	3963
2026-01-23 03:50:56.49	296.14	18.59	-44.1	-45.3	21.8	0.00e+00	0	44	0	966787072	60	3966
2026-01-23 03:50:57.50	295.96	18.50	-44.1	-45.3	21.8	0.00e+00	0	44	0	968884224	60	3969
2026-01-23 03:50:58.51	295.78	18.42	-44.3	-45.4	21.7	0.00e+00	0	44	0	970981376	60	4029
2026-01-23 03:50:59.52	295.61	18.33	-44.5	-45.7	21.4	0.00e+00	0	44	0	973078528	60	4159
2026-01-23 03:51:00.53	295.43	18.25	-44.7	-45.9	21.3	0.00e+00	0	44	0	974127104	60	4273
2026-01-23 03:51:01.53	295.26	18.17	-44.5	-45.7	21.4	0.00e+00	0	44	0	976224256	60	4185
2026-01-23 03:51:02.54	295.09	18.08	-44.7	-45.9	21.3	0.00e+00	0	44	0	978321408	60	4261
2026-01-23 03:51:03.55	294.91	18.00	-44.8	-46.0	21.1	0.00e+00	0	44	0	980418560	60	4324
2026-01-23 03:51:04.56	294.74	17.92	-45.0	-46.2	20.9	0.00e+00	0	44	0	982515712	60	4436
2026-01-23 03:51:05.57	294.57	17.83	-45.0	-46.2	21.0	0.00e+00	0	44	0	983564288	60	4410
2026-01-23 03:51:06.57	294.41	17.75	-45.3	-46.6	20.7	0.00e+00	0	44	0	985661440	61	4347
2026-01-23 03:51:07.58	294.24	17.67	-44.9	-46.1	21.0	0.00e+00	0	44	0	987758592	61	4139
2026-01-23 03:51:08.59	294.07	17.58	-44.7	-45.9	21.3	0.00e+00	0	44	0	989855744	61	4007
2026-01-23 03:51:09.60	293.90	17.50	-44.4	-45.5	21.5	0.00e+00	0	44	0	991952896	60	4076
2026-01-23 03:51:10.60	293.74	17.42	-44.4	-45.5	21.6	0.00e+00	0	44	0	993001472	60	4077
2026-01-23 03:51:11.61	293.58	17.33	-44.0	-45.1	21.9	0.00e+00	0	44	0	995098624	60	3899
2026-01-23 03:51:12.62	293.41	17.25	-44.4	-45.6	21.8	0.00e+00	0	44	0	997195776	59	4349
2026-01-23 03:51:13.63	293.25	17.17	-44.4	-45.5	21.5	0.00e+00	0	44	0	999292928	60	4098
2026-01-23 03:51:14.64	293.09	17.08	-44.6	-45.7	21.4	0.00e+00	0	44	0	1001390080	60	4191
2026-01-23 03:51:15.65	292.93	17.00	-45.1	-46.4	20.7	0.00e+00	0	44	0	1002438656	60	4529
2026-01-23 03:51:16.65	292.77	16.92	-45.2	-46.5	20.7	0.00e+00	0	44	0	1004535808	60	4563
2026-01-23 03:51:17.66	292.61	16.83	-45.5	-46.8	20.4	0.00e+00	0	44	0	1006632960	61	4472
2026-01-23 03:51:18.67	292.45	16.75	-45.4	-46.8	20.4	0.00e+00	0	44	0	1008730112	61	4456
2026-01-23 03:51:19.68	292.30	16.67	-45.6	-47.0	20.3	0.00e+00	0	44	0	1010827264	61	4546
2026-01-23 03:51:20.68	292.14	16.59	-45.4	-46.7	20.5	0.00e+00	0	44	0	1011875840	61	4428
2026-01-23 03:51:21.69	291.99	16.50	-45.4	-46.7	20.5	0.00e+00	0	44	0	1013972992	61	4410
2026-01-23 03:51:22.70	291.83	16.42	-45.3	-46.6	20.6	0.00e+00	0	44	0	1016070144	61	4371
2026-01-23 03:51:23.71	291.68	16.34	-45.0	-46.3	20.8	0.00e+00	0	44	0	1018167296	61	4207
2026-01-23 03:51:24.72	291.52	16.25	-45.0	-46.2	20.9	0.00e+00	0	44	0	1020264448	61	4184
2026-01-23 03:51:25.73	291.37	16.17	-44.8	-46.1	21.0	0.00e+00	0	44	0	1021313024	61	4105
2026-01-23 03:51:26.74	291.22	16.09	-45.0	-46.2	20.9	0.00e+00	0	44	0	1023410176	61	4174
2026-01-23 03:51:27.75	291.07	16.01	-44.9	-46.1	20.9	0.00e+00	0	44	0	1025507328	61	4142
2026-01-23 03:51:28.75	290.92	15.92	-44.9	-46.2	20.9	0.00e+00	0	44	0	1027604480	61	4160
2026-01-23 03:51:29.76	290.77	15.84	-45.1	-46.3	20.8	0.00e+00	0	44	0	1029701632	61	4234
2026-01-23 03:51:30.77	290.63	15.76	-45.3	-46.6	20.6	0.00e+00	0	44	0	1030750208	61	4346
2026-01-23 03:51:31.78	290.48	15.68	-45.4	-46.7	20.5	0.00e+00	0	44	0	1032847360	61	4397
2026-01-23 03:51:32.79	290.33	15.60	-45.7	-47.1	20.2	0.00e+00	0	44	0	1034944512	61	4623
2026-01-23 03:51:33.80	290.19	15.51	-46.1	-47.6	19.7	0.00e+00	0	44	0	1037041664	62	4603
2026-01-23 03:51:34.81	290.04	15.43	-46.1	-47.5	19.8	0.00e+00	0	44	0	1039138816	62	4584
2026-01-23 03:51:35.81	289.90	15.35	-46.4	-48.0	19.3	0.00e+00	0	44	0	1040187392	63	4561
2026-01-23 03:51:36.83	289.76	15.27	-46.3	-47.8	19.4	0.00e+00	0	44	0	1042284544	63	4491
2026-01-23 03:51:37.83	289.62	15.19	-46.1	-47.6	19.6	0.00e+00	0	44	0	1044381696	63	4378
2026-01-23 03:51:38.84	289.47	15.11	-46.0	-47.4	19.9	0.00e+00	0	44	0	1046478848	63	4254
2026-01-23 03:51:39.85	289.33	15.02	-45.9	-47.3	19.9	0.00e+00	0	44	0	1048576000	63	4208
2026-01-23 03:51:40.86	289.19	14.94	-45.6	-46.9	20.3	0.00e+00	0	44	0	1050673152	63	4029
2026-01-23 03:51:41.86	289.06	14.86	-45.3	-46.5	20.6	0.00e+00	0	44	0	1051721728	62	4098
2026-01-23 03:51:42.87	288.92	14.78	-45.1	-46.4	20.8	0.00e+00	0	44	0	1053818880	62	4026
2026-01-23 03:51:43.88	288.78	14.70	-44.8	-46.0	21.0	0.00e+00	0	44	0	1055916032	61	4091
2026-01-23 03:51:44.89	288.64	14.62	-45.2	-46.4	20.7	0.00e+00	0	44	0	1058013184	61	4280
2026-01-23 03:51:45.90	288.51	14.54	-45.3	-46.6	20.5	0.00e+00	0	44	0	1059061760	61	4380
2026-01-23 03:51:46.91	288.37	14.46	-45.4	-46.8	20.4	0.00e+00	0	44	0	1061158912	61	4443
2026-01-23 03:51:47.92	288.24	14.38	-45.6	-47.0	20.2	0.00e+00	0	44	0	1063256064	61	4555
2026-01-23 03:51:48.93	288.10	14.30	-45.8	-47.1	20.0	0.00e+00	0	44	0	1065353216	62	4389
2026-01-23 03:51:49.93	287.97	14.22	-45.7	-47.1	20.1	0.00e+00	0	44	0	1067450368	62	4358
2026-01-23 03:51:50.94	287.84	14.14	-45.7	-47.0	20.1	0.00e+00	0	44	0	1068498944	62	4322
2026-01-23 03:51:51.95	287.71	14.06	-45.6	-47.0	20.2	0.00e+00	0	44	0	1070596096	62	4300
2026-01-23 03:51:52.96	287.58	13.98	-45.6	-47.0	20.2	0.00e+00	0	44	0	1072693248	62	4302
2026-01-23 03:51:53.96	287.45	13.90	-45.4	-46.7	20.4	0.00e+00	0	44	0	1074790400	62	4192
2026-01-23 03:51:54.97	287.32	13.82	-45.3	-46.6	20.5	0.00e+00	0	44	0	1076887552	62	4110
2026-01-23 03:51:55.98	287.19	13.74	-45.5	-46.9	20.2	0.00e+00	0	44	0	1078984704	62	4263
2026-01-23 03:51:56.99	287.06	13.66	-45.4	-46.8	20.3	0.00e+00	0	44	0	1080033280	62	4194
2026-01-23 03:51:58.00	286.94	13.58	-45.5	-46.9	20.2	0.00e+00	0	44	0	1082130432	62	4257
2026-01-23 03:51:59.01	286.81	13.50	-45.6	-47.0	20.1	0.00e+00	0	44	0	1084227584	62	4306
2026-01-23 03:52:00.01	286.69	13.42	-45.5	-46.8	20.3	0.00e+00	0	44	0	1086324736	62	4222
2026-01-23 03:52:01.02	286.56	13.34	-45.5	-46.9	20.2	0.00e+00	0	44	0	1087373312	62	4252
2026-01-23 03:52:02.03	286.44	13.26	-45.6	-46.9	20.1	0.00e+00	0	44	0	1089470464	62	4289
2026-01-23 03:52:03.04	286.31	13.18	-45.7	-47.1	20.0	0.00e+00	0	44	0	1091567616	62	4375
2026-01-23 03:52:04.04	286.19	13.10	-45.6	-47.0	20.1	0.00e+00	0	44	0	1093664768	62	4329
2026-01-23 03:52:05.05	286.07	13.03	-45.9	-47.3	19.8	0.00e+00	0	44	0	1095761920	62	4479
2026-01-23 03:52:06.06	285.95	12.95	-45.8	-47.2	19.8	0.00e+00	0	44	0	1097859072	62	4437
2026-01-23 03:52:07.07	285.82	12.87	-46.1	-47.6	19.5	0.00e+00	0	44	0	1098907648	62	4628
2026-01-23 03:52:08.08	285.70	12.79	-46.6	-48.2	19.0	0.00e+00	0	44	0	1101004800	63	4679
2026-01-23 03:52:09.09	285.58	12.71	-46.4	-48.0	19.1	0.00e+00	0	44	0	1103101952	63	4566
2026-01-23 03:52:10.09	285.47	12.63	-46.4	-48.0	19.1	0.00e+00	0	44	0	1105199104	63	4587
2026-01-23 03:52:11.10	285.35	12.56	-46.5	-48.2	18.9	0.00e+00	0	44	0	1107296256	64	4392
2026-01-23 03:52:12.11	285.23	12.48	-46.5	-48.1	19.0	0.00e+00	0	44	0	1108344832	64	4344
2026-01-23 03:52:13.12	285.11	12.40	-46.3	-47.9	19.1	0.00e+00	0	44	0	1110441984	64	4244
2026-01-23 03:52:14.13	285.00	12.32	-46.4	-48.0	19.1	0.00e+00	0	44	0	1112539136	64	4311
2026-01-23 03:52:15.14	284.88	12.25	-46.4	-47.9	19.1	0.00e+00	0	44	0	1114636288	64	4286
2026-01-23 03:52:16.15	284.76	12.17	-46.0	-47.4	19.6	0.00e+00	0	44	0	1115684864	63	4269
2026-01-23 03:52:17.16	284.65	12.09	-46.1	-47.6	19.5	0.00e+00	0	44	0	1117782016	63	4356
2026-01-23 03:52:18.17	284.54	12.01	-46.1	-47.5	19.5	0.00e+00	0	44	0	1119879168	63	4313
2026-01-23 03:52:19.18	284.42	11.94	-45.9	-47.4	19.7	0.00e+00	0	44	0	1121976320	63	4257
2026-01-23 03:52:20.18	284.31	11.86	-46.1	-47.5	19.5	0.00e+00	0	44	0	1124073472	63	4331
2026-01-23 03:52:21.19	284.20	11.78	-46.3	-47.8	19.3	0.00e+00	0	44	0	1126170624	63	4473
2026-01-23 03:52:22.20	284.09	11.71	-46.3	-47.8	19.2	0.00e+00	0	44	0	1127219200	63	4483
2026-01-23 03:52:23.21	283.97	11.63	-46.4	-48.0	19.1	0.00e+00	0	44	0	1129316352	63	4563
2026-01-23 03:52:24.22	283.86	11.56	-46.7	-48.4	18.6	0.00e+00	0	43	0	1131413504	64	4511
2026-01-23 03:52:25.22	283.75	11.48	-46.7	-48.4	18.6	0.00e+00	0	44	0	1133510656	64	4509
2026-01-23 03:52:26.23	283.65	11.40	-46.8	-48.5	18.5	0.00e+00	0	44	0	1135607808	64	4561
2026-01-23 03:52:27.24	283.54	11.33	-47.0	-48.7	18.3	0.00e+00	0	44	0	1136656384	64	4688
2026-01-23 03:52:28.25	283.43	11.25	-46.9	-48.7	18.3	0.00e+00	0	44	0	1138753536	64	4680
2026-01-23 03:52:29.26	283.32	11.18	-46.9	-48.6	18.4	0.00e+00	0	44	0	1140850688	64	4613
2026-01-23 03:52:30.27	283.21	11.10	-46.7	-48.3	18.7	0.00e+00	0	44	0	1142947840	64	4473
2026-01-23 03:52:31.27	283.11	11.03	-46.3	-47.9	19.0	0.00e+00	0	44	0	1145044992	64	4277
2026-01-23 03:52:32.28	283.00	10.95	-46.1	-47.6	19.3	0.00e+00	0	44	0	1146093568	64	4109
2026-01-23 03:52:33.29	282.90	10.88	-46.1	-47.6	19.3	0.00e+00	0	44	0	1148190720	64	4119
2026-01-23 03:52:34.30	282.79	10.80	-46.0	-47.5	19.5	0.00e+00	0	44	0	1150287872	63	4304
2026-01-23 03:52:35.30	282.69	10.73	-45.8	-47.2	19.8	0.00e+00	0	44	0	1152385024	63	4156
2026-01-23 03:52:36.31	282.58	10.65	-45.7	-47.2	19.8	0.00e+00	0	44	0	1154482176	63	4149
2026-01-23 03:52:37.32	282.48	10.58	-45.8	-47.2	19.8	0.00e+00	0	44	0	1155530752	63	4166
2026-01-23 03:52:38.33	282.38	10.50	-45.8	-47.2	19.7	0.00e+00	0	44	0	1157627904	63	4188
2026-01-23 03:52:39.34	282.28	10.43	-46.0	-47.5	19.5	0.00e+00	0	44	0	1159725056	63	4303
2026-01-23 03:52:40.34	282.18	10.36	-46.3	-47.9	19.1	0.00e+00	0	44	0	1161822208	63	4524
2026-01-23 03:52:41.35	282.08	10.28	-46.3	-47.9	19.1	0.00e+00	0	44	0	1163919360	63	4512
2026-01-23 03:52:42.36	281.97	10.21	-46.6	-48.2	18.8	0.00e+00	0	44	0	1166016512	63	4691
2026-01-23 03:52:43.37	281.87	10.13	-46.9	-48.6	18.3	0.00e+00	0	44	0	1167065088	64	4633
2026-01-23 03:52:44.38	281.78	10.06	-46.9	-48.7	18.2	0.00e+00	0	44	0	1169162240	64	4670
2026-01-23 03:52:45.38	281.68	9.99	-47.0	-48.9	18.0	0.00e+00	0	44	0	1171259392	64	4777
2026-01-23 03:52:46.39	281.58	9.91	-47.3	-49.2	17.7	0.00e+00	0	44	0	1173356544	65	4684
2026-01-23 03:52:47.41	281.48	9.84	-47.4	-49.3	17.6	0.00e+00	0	44	0	1174405120	65	4753
2026-01-23 03:52:48.41	281.38	9.77	-47.6	-49.6	17.4	0.00e+00	0	44	0	1176502272	65	4877
2026-01-23 03:52:49.42	281.29	9.69	-47.7	-49.7	17.2	0.00e+00	0	44	0	1178599424	65	4958
2026-01-23 03:52:50.43	281.19	9.62	-47.8	-49.8	17.1	0.00e+00	0	44	0	1180696576	66	4750
2026-01-23 03:52:51.44	281.09	9.55	-47.8	-50.0	16.9	0.00e+00	0	44	0	1182793728	66	4825
2026-01-23 03:52:52.45	281.00	9.48	-47.8	-49.9	17.0	0.00e+00	0	44	0	1183842304	66	4810
2026-01-23 03:52:53.45	280.90	9.40	-47.8	-49.9	17.1	0.00e+00	0	44	0	1185939456	66	4761
2026-01-23 03:52:54.46	280.81	9.33	-47.8	-49.9	17.0	0.00e+00	0	44	0	1188036608	66	4794
2026-01-23 03:52:55.47	280.72	9.26	-47.8	-49.9	17.1	0.00e+00	0	44	0	1190133760	66	4790
2026-01-23 03:52:56.48	280.62	9.19	-47.7	-49.8	17.1	0.00e+00	0	44	0	1192230912	66	4742
2026-01-23 03:52:57.49	280.53	9.12	-47.6	-49.7	17.1	0.00e+00	0	43	0	1194328064	66	4659
2026-01-23 03:52:58.50	280.44	9.04	-47.8	-49.9	17.1	0.00e+00	0	44	0	1195376640	66	4773
2026-01-23 03:52:59.51	280.34	8.97	-47.6	-49.6	17.3	0.00e+00	0	44	0	1197473792	66	4645
2026-01-23 03:53:00.51	280.25	8.90	-47.8	-49.9	17.0	0.00e+00	0	44	0	1199570944	66	4783
2026-01-23 03:53:01.52	280.16	8.83	-47.7	-49.8	17.1	0.00e+00	0	44	0	1201668096	66	4712
2026-01-23 03:53:02.53	280.07	8.76	-47.5	-49.5	17.4	0.00e+00	0	44	0	1202716672	66	4568
2026-01-23 03:53:03.54	279.98	8.69	-47.7	-49.7	17.2	0.00e+00	0	44	0	1204813824	66	4684
2026-01-23 03:53:04.54	279.89	8.62	-47.7	-49.8	17.1	0.00e+00	0	44	0	1206910976	66	4717
2026-01-23 03:53:05.55	279.80	8.55	-47.7	-49.8	17.0	0.00e+00	0	44	0	1209008128	66	4747
2026-01-23 03:53:06.56	279.71	8.48	-47.8	-50.0	16.9	0.00e+00	0	44	0	1211105280	66	4816
2026-01-23 03:53:07.57	279.62	8.41	-48.1	-50.4	16.5	0.00e+00	0	44	0	1213202432	66	5060
2026-01-23 03:53:08.58	279.54	8.33	-48.1	-50.4	16.4	0.00e+00	0	44	0	1214251008	66	5077
2026-01-23 03:53:09.58	279.45	8.27	-48.3	-50.6	16.3	0.00e+00	0	44	0	1216348160	67	4882
2026-01-23 03:53:10.59	279.36	8.20	-48.3	-50.6	16.2	0.00e+00	0	44	0	1218445312	67	4896
2026-01-23 03:53:11.60	279.28	8.12	-48.4	-50.8	16.1	0.00e+00	0	43	0	1220542464	67	5025
2026-01-23 03:53:12.61	279.19	8.06	-48.5	-50.9	15.9	0.00e+00	0	44	0	1222639616	67	5072
2026-01-23 03:53:13.62	279.10	7.99	-48.6	-51.2	15.6	0.00e+00	0	43	0	1223688192	67	5241
2026-01-23 03:53:14.62	279.02	7.92	-48.5	-51.0	15.8	0.00e+00	0	44	0	1225785344	67	5159
2026-01-23 03:53:15.63	278.93	7.85	-48.2	-50.6	16.2	0.00e+00	0	44	0	1227882496	67	4875
2026-01-23 03:53:16.64	278.85	7.78	-48.3	-50.8	16.0	0.00e+00	0	44	0	1229979648	67	4985
2026-01-23 03:53:17.65	278.77	7.71	-48.1	-50.4	16.3	0.00e+00	0	44	0	1231028224	67	4808
2026-01-23 03:53:18.66	278.68	7.64	-47.9	-50.2	16.6	0.00e+00	0	44	0	1233125376	67	4658
