passes_logs/2026/01/23/R3.2S_Murmansk/R3.2S_Murmansk__20260123_224242_NOAA_20_JPSS-1_rec.log

#Pass ID: 20260123_224242_NOAA 20 (JPSS-1)
#Satellite: NOAA 20 (JPSS-1)
#Configuration: NOAA 20
#almurnet v.1.7.20251203
#Start time: 2026-01-23 22:42:42

#Version: 2.2.20231116
#Station: R3.2S_Murmansk
#Location: 33.079688 lon 68.888172 lat
#TLE: 1 43013U 17073A   26022.94240312  .00000200  00000+0  11574-3 0  9998
#TLE: 2 43013  98.7645 323.7982 0001179  28.0279 332.0961 14.19539020423863

#Time	Az	El	Level	Level2	SNR	BER	BlckErr	Temp	State	Recorded	gain1	gain2
2026-01-23 22:42:42.35	19.29	2.00	-52.2	-67.1	3.8	1.49e+00	0	42	0	0	76	19611
2026-01-23 22:42:43.36	19.35	2.06	-52.1	-67.1	3.8	1.49e+00	0	42	104	0	74	21908
2026-01-23 22:42:44.37	19.41	2.12	-52.1	-67.1	3.8	1.49e+00	0	42	104	0	74	21819
2026-01-23 22:42:45.37	19.47	2.17	-52.1	-67.1	3.8	1.49e+00	0	42	104	0	74	21808
2026-01-23 22:42:46.38	19.53	2.23	-52.1	-67.1	3.8	1.49e+00	0	42	104	0	74	21796
2026-01-23 22:42:47.39	19.59	2.29	-52.1	-67.1	3.8	1.49e+00	0	42	104	0	74	21791
2026-01-23 22:42:48.39	19.66	2.35	-52.1	-67.0	3.8	1.49e+00	0	42	104	0	74	21703
2026-01-23 22:42:49.40	19.72	2.41	-52.1	-67.0	3.8	1.49e+00	0	42	104	0	74	21734
2026-01-23 22:42:50.41	19.78	2.46	-52.1	-67.0	3.8	1.49e+00	0	42	104	0	74	21725
2026-01-23 22:42:51.42	19.84	2.52	-52.1	-67.0	3.8	1.49e+00	0	42	104	0	74	21695
2026-01-23 22:42:52.43	19.90	2.58	-52.1	-67.0	3.8	1.49e+00	0	42	104	0	74	21702
2026-01-23 22:42:53.44	19.96	2.64	-52.1	-67.0	3.8	1.49e+00	0	42	104	0	74	21585
2026-01-23 22:42:54.45	20.03	2.70	-52.1	-66.9	3.8	1.49e+00	0	42	104	0	74	21475
2026-01-23 22:42:55.45	20.09	2.76	-52.1	-66.9	3.8	1.49e+00	0	42	104	0	74	21391
2026-01-23 22:42:56.46	20.15	2.82	-52.1	-66.9	3.8	1.49e+00	0	42	104	0	74	21387
2026-01-23 22:42:57.47	20.21	2.88	-52.1	-66.9	3.8	1.49e+00	0	42	104	0	74	21365
2026-01-23 22:42:58.48	20.28	2.94	-52.1	-66.9	3.8	1.49e+00	0	42	104	0	74	21316
2026-01-23 22:42:59.49	20.34	3.00	-52.1	-66.9	3.8	1.49e+00	0	42	104	0	74	21408
2026-01-23 22:43:00.50	20.41	3.06	-52.1	-66.9	3.8	1.49e+00	0	42	104	0	74	21474
2026-01-23 22:43:01.51	20.47	3.12	-52.1	-66.9	3.8	1.49e+00	0	42	104	0	74	21506
2026-01-23 22:43:02.51	20.53	3.18	-52.1	-67.0	3.8	1.49e+00	0	42	104	0	74	21520
2026-01-23 22:43:03.52	20.60	3.24	-52.1	-67.0	3.8	1.49e+00	0	42	104	0	74	21516
2026-01-23 22:43:04.53	20.66	3.30	-52.1	-67.0	3.8	1.49e+00	0	42	104	0	74	21635
2026-01-23 22:43:05.54	20.73	3.36	-52.1	-67.0	3.8	1.49e+00	0	42	104	0	74	21699
2026-01-23 22:43:06.55	20.79	3.42	-52.1	-67.0	3.8	1.49e+00	0	42	104	0	74	21630
2026-01-23 22:43:07.56	20.86	3.48	-52.1	-67.0	3.8	1.49e+00	0	42	104	0	74	21542
2026-01-23 22:43:08.57	20.92	3.54	-52.1	-66.9	3.8	1.49e+00	0	42	104	0	74	21330
2026-01-23 22:43:09.58	20.99	3.60	-52.1	-66.6	3.8	1.49e+00	0	43	104	0	74	20667
2026-01-23 22:43:10.59	21.06	3.66	-52.1	-66.4	3.8	1.49e+00	0	42	104	0	74	20077
2026-01-23 22:43:11.59	21.12	3.72	-52.1	-66.0	3.8	1.49e+00	0	43	104	0	74	19229
2026-01-23 22:43:12.61	21.19	3.78	-52.0	-65.4	3.8	1.49e+00	0	43	104	0	74	18056
2026-01-23 22:43:13.61	21.26	3.84	-52.0	-65.2	3.8	1.49e+00	0	43	104	0	74	17539
2026-01-23 22:43:14.62	21.32	3.90	-52.0	-65.1	3.8	1.48e+00	0	43	104	0	74	17452
2026-01-23 22:43:15.63	21.39	3.96	-52.0	-64.9	3.9	1.48e+00	0	42	104	0	74	16898
2026-01-23 22:43:16.64	21.46	4.02	-51.9	-63.9	4.1	1.44e+00	0	43	0	0	74	15184
2026-01-23 22:43:17.64	21.53	4.09	-51.8	-62.3	4.6	1.28e+00	0	43	0	0	74	12580
2026-01-23 22:43:18.65	21.59	4.15	-51.6	-60.8	5.4	7.16e-01	0	43	0	2097152	74	10609
2026-01-23 22:43:19.66	21.66	4.21	-51.4	-59.0	6.8	2.34e-01	0	43	0	4194304	74	8614
2026-01-23 22:43:20.67	21.73	4.27	-50.8	-56.5	9.2	4.01e-02	0	43	0	6291456	73	6866
2026-01-23 22:43:21.67	21.80	4.33	-50.5	-55.7	10.1	1.02e-02	0	43	0	7340032	73	6261
2026-01-23 22:43:22.68	21.87	4.39	-50.2	-54.9	10.9	5.60e-03	0	43	0	9437184	72	6038
2026-01-23 22:43:23.69	21.94	4.46	-49.9	-54.0	11.9	6.65e-04	0	43	0	11534336	71	5783
2026-01-23 22:43:24.70	22.01	4.52	-49.5	-53.1	12.9	6.33e-05	0	43	0	13631488	70	5484
2026-01-23 22:43:25.71	22.08	4.58	-49.2	-52.6	13.4	3.96e-05	0	43	0	15728640	70	5214
2026-01-23 22:43:26.71	22.15	4.64	-49.1	-52.4	13.8	7.60e-06	0	43	0	16777216	70	5051
2026-01-23 22:43:27.72	22.22	4.71	-49.1	-52.3	13.8	6.80e-06	0	43	0	18874368	70	5027
2026-01-23 22:43:28.73	22.29	4.77	-49.4	-52.9	13.2	5.30e-06	0	43	0	20971520	70	5384
2026-01-23 22:43:29.74	22.36	4.83	-49.6	-53.5	12.5	6.71e-05	0	43	0	23068672	70	5746
2026-01-23 22:43:30.75	22.44	4.89	-50.3	-55.1	10.9	1.04e-03	0	43	0	25165824	71	6513
2026-01-23 22:43:31.76	22.51	4.96	-50.7	-56.4	9.5	4.15e-03	0	43	0	27262976	71	7556
2026-01-23 22:43:32.77	22.58	5.02	-51.2	-58.4	7.4	7.55e-02	0	43	0	28311552	72	9025
2026-01-23 22:43:33.77	22.65	5.08	-51.3	-58.8	7.1	1.85e-01	0	43	0	30408704	73	8865
2026-01-23 22:43:34.78	22.72	5.15	-52.0	-66.5	3.8	7.27e-01	0	43	104	31457280	74	20319
2026-01-23 22:43:35.79	22.80	5.21	-49.5	-53.1	5.7	1.49e+00	0	43	104	31457280	71	5214
2026-01-23 22:43:36.80	22.87	5.27	-47.2	-49.2	16.9	0.00e+00	0	43	0	32505856	66	4415
2026-01-23 22:43:37.81	22.94	5.34	-51.5	-59.4	6.8	5.30e-06	0	43	0	33554432	73	9541
2026-01-23 22:43:38.82	23.02	5.40	-47.2	-49.2	16.8	7.21e-01	0	43	0	35651584	66	4423
2026-01-23 22:43:39.83	23.09	5.46	-47.1	-49.2	17.0	0.00e+00	0	43	0	37748736	66	4411
2026-01-23 22:43:40.84	23.17	5.53	-46.9	-48.8	17.3	0.00e+00	0	43	0	39845888	65	4475
2026-01-23 22:43:41.84	23.24	5.59	-46.9	-48.9	17.2	0.00e+00	0	43	0	40894464	65	4522
2026-01-23 22:43:42.85	23.32	5.66	-46.8	-48.7	17.5	0.00e+00	0	43	0	42991616	65	4441
2026-01-23 22:43:43.85	23.39	5.72	-46.5	-48.4	17.8	0.00e+00	0	43	0	45088768	65	4256
2026-01-23 22:43:44.86	23.47	5.78	-46.7	-48.5	17.7	0.00e+00	0	43	0	47185920	65	4337
2026-01-23 22:43:45.87	23.54	5.85	-47.0	-49.0	17.1	0.00e+00	0	43	0	49283072	65	4587
2026-01-23 22:43:46.88	23.62	5.91	-46.7	-48.6	17.5	0.00e+00	0	43	0	50331648	65	4390
2026-01-23 22:43:47.88	23.70	5.98	-46.6	-48.4	17.8	0.00e+00	0	43	0	52428800	65	4265
2026-01-23 22:43:48.89	23.77	6.04	-46.7	-48.6	17.6	0.00e+00	0	43	0	54525952	64	4633
2026-01-23 22:43:49.90	23.85	6.11	-46.8	-48.7	17.5	0.00e+00	0	43	0	56623104	64	4686
2026-01-23 22:43:50.91	23.93	6.17	-46.8	-48.8	17.4	0.00e+00	0	43	0	58720256	64	4710
2026-01-23 22:43:51.91	24.01	6.24	-46.5	-48.3	17.9	0.00e+00	0	43	0	59768832	64	4487
2026-01-23 22:43:52.92	24.08	6.30	-46.7	-48.6	17.7	0.00e+00	0	43	0	61865984	64	4607
2026-01-23 22:43:53.93	24.16	6.37	-46.5	-48.4	17.9	0.00e+00	0	43	0	63963136	64	4499
2026-01-23 22:43:54.94	24.24	6.44	-46.7	-48.6	17.6	0.00e+00	0	43	0	66060288	64	4628
2026-01-23 22:43:55.95	24.32	6.50	-46.5	-48.3	17.9	0.00e+00	0	43	0	68157440	64	4489
2026-01-23 22:43:56.96	24.40	6.57	-46.6	-48.5	17.8	0.00e+00	0	43	0	70254592	64	4562
2026-01-23 22:43:57.96	24.48	6.63	-46.6	-48.4	17.8	0.00e+00	0	43	0	71303168	64	4505
2026-01-23 22:43:58.97	24.56	6.70	-46.7	-48.5	17.8	0.00e+00	0	43	0	73400320	64	4582
2026-01-23 22:43:59.98	24.64	6.77	-46.5	-48.3	18.0	0.00e+00	0	43	0	75497472	64	4453
2026-01-23 22:44:00.97	24.72	6.83	-46.6	-48.5	17.8	0.00e+00	0	43	0	77594624	64	4570
2026-01-23 22:44:01.98	24.80	6.90	-46.7	-48.5	17.8	0.00e+00	0	43	0	79691776	64	4566
2026-01-23 22:44:02.99	24.89	6.96	-46.6	-48.4	17.9	0.00e+00	0	43	0	80740352	64	4516
2026-01-23 22:44:03.99	24.97	7.03	-46.5	-48.3	18.0	0.00e+00	0	43	0	82837504	64	4490
2026-01-23 22:44:05.00	25.05	7.10	-46.5	-48.3	18.1	0.00e+00	0	43	0	84934656	64	4452
2026-01-23 22:44:06.01	25.13	7.17	-46.8	-48.7	17.7	0.00e+00	0	43	0	87031808	64	4665
2026-01-23 22:44:07.02	25.22	7.23	-46.4	-48.2	18.2	0.00e+00	0	43	0	88080384	64	4400
2026-01-23 22:44:08.03	25.30	7.30	-46.6	-48.5	17.9	0.00e+00	0	43	0	90177536	64	4548
2026-01-23 22:44:09.03	25.38	7.37	-46.5	-48.2	18.0	0.00e+00	0	43	0	92274688	64	4435
2026-01-23 22:44:10.04	25.47	7.43	-46.5	-48.3	18.1	0.00e+00	0	43	0	94371840	64	4452
2026-01-23 22:44:11.05	25.55	7.50	-46.4	-48.1	18.3	0.00e+00	0	43	0	96468992	64	4366
2026-01-23 22:44:12.06	25.64	7.57	-46.5	-48.3	18.0	0.00e+00	0	43	0	98566144	64	4472
2026-01-23 22:44:13.07	25.72	7.64	-46.3	-47.9	18.4	0.00e+00	0	43	0	99614720	64	4290
2026-01-23 22:44:14.07	25.81	7.71	-46.5	-48.3	18.1	0.00e+00	0	43	0	101711872	64	4445
2026-01-23 22:44:15.08	25.89	7.77	-46.4	-48.1	18.2	0.00e+00	0	43	0	103809024	64	4387
2026-01-23 22:44:16.09	25.98	7.84	-46.4	-48.2	18.2	0.00e+00	0	43	0	105906176	64	4411
2026-01-23 22:44:17.10	26.07	7.91	-46.3	-48.0	18.3	0.00e+00	0	43	0	108003328	64	4328
2026-01-23 22:44:18.11	26.15	7.98	-46.4	-48.2	18.2	0.00e+00	0	43	0	109051904	64	4407
2026-01-23 22:44:19.12	26.24	8.05	-46.3	-47.9	18.4	0.00e+00	0	43	0	111149056	64	4288
2026-01-23 22:44:20.12	26.33	8.12	-46.5	-48.2	18.2	0.00e+00	0	43	0	113246208	64	4436
2026-01-23 22:44:21.13	26.42	8.19	-46.4	-48.2	18.2	0.00e+00	0	43	0	115343360	64	4410
2026-01-23 22:44:22.14	26.51	8.26	-46.3	-48.0	18.5	0.00e+00	0	43	0	116391936	64	4325
2026-01-23 22:44:23.15	26.60	8.33	-46.5	-48.2	18.3	0.00e+00	0	43	0	118489088	64	4427
2026-01-23 22:44:24.16	26.69	8.39	-46.3	-48.0	18.4	0.00e+00	0	43	0	120586240	64	4317
2026-01-23 22:44:25.17	26.78	8.46	-46.4	-48.1	18.3	0.00e+00	0	43	0	122683392	64	4346
2026-01-23 22:44:26.17	26.87	8.53	-46.3	-47.9	18.6	0.00e+00	0	43	0	124780544	64	4288
2026-01-23 22:44:27.18	26.96	8.60	-46.4	-48.1	18.3	0.00e+00	0	43	0	126877696	64	4374
2026-01-23 22:44:28.19	27.05	8.67	-46.2	-47.9	18.6	0.00e+00	0	43	0	127926272	64	4265
2026-01-23 22:44:29.20	27.14	8.74	-46.3	-48.0	18.5	0.00e+00	0	43	0	130023424	64	4303
2026-01-23 22:44:30.21	27.23	8.81	-46.2	-47.8	18.6	0.00e+00	0	43	0	132120576	64	4242
2026-01-23 22:44:31.21	27.32	8.88	-46.3	-47.9	18.6	0.00e+00	0	43	0	134217728	64	4290
2026-01-23 22:44:32.22	27.42	8.95	-46.1	-47.8	18.7	0.00e+00	0	43	0	136314880	64	4198
2026-01-23 22:44:33.23	27.51	9.03	-46.2	-47.7	18.9	0.00e+00	0	43	0	137363456	63	4436
2026-01-23 22:44:34.24	27.60	9.10	-46.2	-47.8	18.9	0.00e+00	0	43	0	139460608	63	4467
2026-01-23 22:44:35.25	27.70	9.17	-46.1	-47.6	19.0	0.00e+00	0	43	0	141557760	63	4380
2026-01-23 22:44:36.25	27.79	9.24	-46.0	-47.5	19.1	0.00e+00	0	44	0	143654912	63	4336
2026-01-23 22:44:37.26	27.89	9.31	-46.0	-47.5	19.1	0.00e+00	0	43	0	145752064	63	4311
2026-01-23 22:44:38.27	27.98	9.38	-46.2	-47.8	18.9	0.00e+00	0	43	0	146800640	63	4445
2026-01-23 22:44:39.28	28.08	9.45	-46.0	-47.6	19.1	0.00e+00	0	43	0	148897792	63	4353
2026-01-23 22:44:40.28	28.17	9.52	-45.9	-47.4	19.2	0.00e+00	0	43	0	150994944	63	4265
2026-01-23 22:44:41.29	28.27	9.60	-45.9	-47.4	19.3	0.00e+00	0	43	0	153092096	63	4290
2026-01-23 22:44:42.30	28.37	9.67	-45.8	-47.3	19.4	0.00e+00	0	43	0	155189248	63	4198
2026-01-23 22:44:43.31	28.47	9.74	-45.7	-47.1	19.5	0.00e+00	0	43	0	156237824	63	4125
2026-01-23 22:44:44.32	28.57	9.81	-45.8	-47.2	19.4	0.00e+00	0	43	0	158334976	63	4188
2026-01-23 22:44:45.33	28.66	9.88	-45.7	-47.2	19.5	0.00e+00	0	43	0	160432128	63	4146
2026-01-23 22:44:46.34	28.76	9.96	-45.9	-47.4	19.3	0.00e+00	0	43	0	162529280	63	4248
2026-01-23 22:44:47.35	28.86	10.03	-45.9	-47.4	19.3	0.00e+00	0	43	0	164626432	63	4271
2026-01-23 22:44:48.36	28.96	10.10	-45.9	-47.4	19.4	0.00e+00	0	43	0	165675008	63	4261
2026-01-23 22:44:49.36	29.06	10.17	-46.0	-47.5	19.2	0.00e+00	0	43	0	167772160	63	4327
2026-01-23 22:44:50.37	29.16	10.25	-45.9	-47.3	19.4	0.00e+00	0	43	0	169869312	63	4235
2026-01-23 22:44:51.38	29.27	10.32	-45.9	-47.4	19.3	0.00e+00	0	43	0	171966464	63	4290
2026-01-23 22:44:52.39	29.37	10.39	-46.1	-47.6	19.2	0.00e+00	0	43	0	174063616	63	4362
2026-01-23 22:44:53.39	29.47	10.47	-46.0	-47.5	19.3	0.00e+00	0	43	0	175112192	63	4310
2026-01-23 22:44:54.40	29.57	10.54	-46.1	-47.7	19.1	0.00e+00	0	44	0	177209344	63	4413
2026-01-23 22:44:55.41	29.68	10.62	-46.2	-47.7	19.1	0.00e+00	0	43	0	179306496	63	4409
2026-01-23 22:44:56.42	29.78	10.69	-46.2	-47.7	19.1	0.00e+00	0	44	0	181403648	63	4425
2026-01-23 22:44:57.43	29.89	10.76	-46.3	-47.8	19.0	0.00e+00	0	43	0	183500800	63	4489
2026-01-23 22:44:58.44	29.99	10.84	-46.3	-47.9	18.9	0.00e+00	0	44	0	184549376	63	4494
2026-01-23 22:44:59.45	30.10	10.91	-46.4	-48.1	18.7	0.00e+00	0	44	0	186646528	63	4601
2026-01-23 22:45:00.45	30.20	10.99	-46.1	-47.7	19.1	0.00e+00	0	44	0	188743680	63	4410
2026-01-23 22:45:01.46	30.31	11.06	-46.2	-47.7	19.0	0.00e+00	0	43	0	190840832	63	4441
2026-01-23 22:45:02.47	30.42	11.14	-46.1	-47.6	19.2	0.00e+00	0	43	0	192937984	63	4371
2026-01-23 22:45:03.48	30.52	11.21	-46.1	-47.7	19.2	0.00e+00	0	44	0	193986560	63	4393
2026-01-23 22:45:04.49	30.63	11.29	-46.1	-47.6	19.2	0.00e+00	0	43	0	196083712	63	4378
2026-01-23 22:45:05.49	30.74	11.36	-45.9	-47.4	19.5	0.00e+00	0	44	0	198180864	63	4243
2026-01-23 22:45:06.50	30.85	11.44	-46.0	-47.5	19.4	0.00e+00	0	43	0	200278016	63	4293
2026-01-23 22:45:07.51	30.96	11.51	-46.0	-47.5	19.3	0.00e+00	0	44	0	202375168	63	4324
2026-01-23 22:45:08.52	31.07	11.59	-46.0	-47.5	19.4	0.00e+00	0	43	0	203423744	63	4308
2026-01-23 22:45:09.53	31.18	11.66	-45.8	-47.3	19.6	0.00e+00	0	44	0	205520896	63	4213
2026-01-23 22:45:10.53	31.29	11.74	-45.8	-47.3	19.6	0.00e+00	0	44	0	207618048	63	4212
2026-01-23 22:45:11.54	31.40	11.81	-45.8	-47.2	19.6	0.00e+00	0	43	0	209715200	63	4188
2026-01-23 22:45:12.55	31.51	11.89	-45.8	-47.2	19.7	0.00e+00	0	43	0	211812352	63	4184
2026-01-23 22:45:13.56	31.63	11.97	-45.8	-47.3	19.6	0.00e+00	0	43	0	213909504	63	4217
2026-01-23 22:45:14.57	31.74	12.04	-45.8	-47.2	19.6	0.00e+00	0	43	0	214958080	63	4169
2026-01-23 22:45:15.58	31.86	12.12	-45.8	-47.2	19.7	0.00e+00	0	43	0	217055232	63	4169
2026-01-23 22:45:16.59	31.97	12.20	-45.7	-47.2	19.7	0.00e+00	0	44	0	219152384	63	4151
2026-01-23 22:45:17.60	32.09	12.27	-45.9	-47.3	19.5	0.00e+00	0	43	0	221249536	63	4223
2026-01-23 22:45:18.61	32.20	12.35	-45.8	-47.3	19.5	0.00e+00	0	44	0	222298112	63	4212
2026-01-23 22:45:19.61	32.32	12.43	-45.8	-47.3	19.6	0.00e+00	0	43	0	224395264	63	4197
2026-01-23 22:45:20.62	32.43	12.51	-45.9	-47.4	19.6	0.00e+00	0	43	0	226492416	63	4253
2026-01-23 22:45:21.63	32.55	12.58	-45.8	-47.2	19.7	0.00e+00	0	44	0	228589568	63	4169
2026-01-23 22:45:22.64	32.67	12.66	-45.8	-47.3	19.6	0.00e+00	0	44	0	230686720	63	4208
2026-01-23 22:45:23.65	32.79	12.74	-45.7	-47.1	19.8	0.00e+00	0	44	0	232783872	63	4129
2026-01-23 22:45:24.65	32.91	12.82	-45.7	-47.1	19.9	0.00e+00	0	44	0	233832448	63	4114
2026-01-23 22:45:25.66	33.03	12.89	-45.7	-47.1	19.8	0.00e+00	0	44	0	235929600	63	4110
2026-01-23 22:45:26.67	33.15	12.97	-45.6	-47.0	19.9	0.00e+00	0	44	0	238026752	63	4081
2026-01-23 22:45:27.67	33.27	13.05	-45.5	-46.9	19.9	0.00e+00	0	44	0	240123904	63	4035
2026-01-23 22:45:28.68	33.39	13.13	-45.7	-47.1	19.8	0.00e+00	0	44	0	242221056	63	4135
2026-01-23 22:45:29.69	33.51	13.21	-45.8	-47.2	19.8	0.00e+00	0	44	0	243269632	63	4158
2026-01-23 22:45:30.70	33.64	13.29	-45.9	-47.4	19.6	0.00e+00	0	44	0	245366784	63	4256
2026-01-23 22:45:31.71	33.76	13.36	-45.9	-47.3	19.6	0.00e+00	0	44	0	247463936	63	4225
2026-01-23 22:45:32.72	33.89	13.44	-46.0	-47.4	19.6	0.00e+00	0	44	0	249561088	63	4275
2026-01-23 22:45:33.73	34.01	13.52	-46.0	-47.4	19.6	0.00e+00	0	44	0	250609664	63	4274
2026-01-23 22:45:34.73	34.14	13.60	-46.0	-47.4	19.5	0.00e+00	0	44	0	252706816	63	4286
2026-01-23 22:45:35.74	34.26	13.68	-45.9	-47.4	19.5	0.00e+00	0	44	0	254803968	63	4263
2026-01-23 22:45:36.75	34.39	13.76	-45.9	-47.4	19.6	0.00e+00	0	44	0	256901120	63	4244
2026-01-23 22:45:37.76	34.52	13.84	-45.9	-47.3	19.7	0.00e+00	0	44	0	258998272	63	4226
2026-01-23 22:45:38.77	34.64	13.92	-45.9	-47.4	19.6	0.00e+00	0	44	0	261095424	63	4267
2026-01-23 22:45:39.78	34.77	14.00	-46.0	-47.4	19.5	0.00e+00	0	44	0	262144000	63	4282
2026-01-23 22:45:40.79	34.90	14.08	-46.0	-47.4	19.5	0.00e+00	0	44	0	264241152	63	4291
2026-01-23 22:45:41.80	35.03	14.16	-45.9	-47.4	19.6	0.00e+00	0	44	0	266338304	63	4243
2026-01-23 22:45:42.81	35.17	14.24	-45.7	-47.1	19.8	0.00e+00	0	44	0	268435456	63	4134
2026-01-23 22:45:43.81	35.30	14.32	-45.8	-47.2	19.8	0.00e+00	0	44	0	270532608	63	4189
2026-01-23 22:45:44.82	35.43	14.40	-45.8	-47.2	19.8	0.00e+00	0	44	0	271581184	63	4162
2026-01-23 22:45:45.83	35.56	14.48	-45.8	-47.2	19.8	0.00e+00	0	44	0	273678336	63	4154
2026-01-23 22:45:46.84	35.70	14.56	-45.8	-47.3	19.7	0.00e+00	0	44	0	275775488	63	4202
2026-01-23 22:45:47.85	35.83	14.65	-45.9	-47.4	19.6	0.00e+00	0	44	0	277872640	63	4251
2026-01-23 22:45:48.86	35.97	14.73	-45.9	-47.4	19.5	0.00e+00	0	44	0	279969792	63	4261
2026-01-23 22:45:49.86	36.10	14.81	-45.9	-47.4	19.6	0.00e+00	0	44	0	281018368	63	4249
2026-01-23 22:45:50.87	36.24	14.89	-45.7	-47.1	19.8	0.00e+00	0	43	0	283115520	63	4144
2026-01-23 22:45:51.88	36.37	14.97	-45.6	-47.0	20.0	0.00e+00	0	44	0	285212672	63	4053
2026-01-23 22:45:52.89	36.51	15.05	-45.7	-47.1	19.9	0.00e+00	0	44	0	287309824	63	4117
2026-01-23 22:45:53.89	36.65	15.13	-45.6	-47.0	20.0	0.00e+00	0	44	0	289406976	63	4057
2026-01-23 22:45:54.90	36.79	15.21	-45.5	-46.8	20.2	0.00e+00	0	44	0	290455552	62	4215
2026-01-23 22:45:55.91	36.93	15.30	-45.6	-46.9	20.0	0.00e+00	0	44	0	292552704	62	4278
2026-01-23 22:45:56.92	37.07	15.38	-45.7	-47.1	19.9	0.00e+00	0	44	0	294649856	62	4368
2026-01-23 22:45:57.93	37.21	15.46	-45.7	-47.1	19.9	0.00e+00	0	43	0	296747008	62	4363
2026-01-23 22:45:58.93	37.35	15.54	-45.7	-47.2	19.8	0.00e+00	0	44	0	298844160	62	4394
2026-01-23 22:45:59.94	37.50	15.63	-45.7	-47.0	20.0	0.00e+00	0	44	0	299892736	62	4335
2026-01-23 22:46:00.94	37.64	15.71	-45.8	-47.2	19.8	0.00e+00	0	44	0	301989888	62	4403
2026-01-23 22:46:01.95	37.78	15.79	-45.8	-47.3	19.8	0.00e+00	0	44	0	304087040	62	4443
2026-01-23 22:46:02.96	37.93	15.87	-45.6	-47.0	20.0	0.00e+00	0	43	0	306184192	62	4304
2026-01-23 22:46:03.96	38.08	15.96	-45.6	-47.0	20.1	0.00e+00	0	44	0	308281344	62	4324
2026-01-23 22:46:04.97	38.22	16.04	-45.3	-46.6	20.3	0.00e+00	0	44	0	309329920	62	4144
2026-01-23 22:46:05.98	38.37	16.12	-45.4	-46.7	20.3	0.00e+00	0	44	0	311427072	62	4160
2026-01-23 22:46:06.99	38.52	16.21	-45.4	-46.7	20.3	0.00e+00	0	44	0	313524224	62	4161
2026-01-23 22:46:08.00	38.67	16.29	-45.2	-46.5	20.5	0.00e+00	0	44	0	315621376	62	4065
2026-01-23 22:46:09.01	38.82	16.37	-45.3	-46.6	20.4	0.00e+00	0	44	0	317718528	62	4100
2026-01-23 22:46:10.01	38.97	16.46	-45.3	-46.6	20.5	0.00e+00	0	44	0	318767104	62	4112
2026-01-23 22:46:11.02	39.12	16.54	-45.2	-46.5	20.5	0.00e+00	0	44	0	320864256	62	4056
2026-01-23 22:46:12.03	39.27	16.62	-45.2	-46.5	20.5	0.00e+00	0	44	0	322961408	62	4067
2026-01-23 22:46:13.04	39.43	16.71	-45.2	-46.5	20.5	0.00e+00	0	43	0	325058560	62	4076
2026-01-23 22:46:14.05	39.58	16.79	-45.1	-46.3	20.7	0.00e+00	0	44	0	327155712	62	3988
2026-01-23 22:46:15.06	39.74	16.88	-45.2	-46.5	20.6	0.00e+00	0	44	0	329252864	62	4057
2026-01-23 22:46:16.07	39.89	16.96	-45.2	-46.4	20.6	0.00e+00	0	44	0	330301440	62	4045
2026-01-23 22:46:17.07	40.05	17.04	-45.2	-46.4	20.7	0.00e+00	0	44	0	332398592	62	4042
2026-01-23 22:46:18.08	40.21	17.13	-45.1	-46.3	20.8	0.00e+00	0	44	0	334495744	62	3993
2026-01-23 22:46:19.09	40.37	17.21	-45.1	-46.3	20.7	0.00e+00	0	44	0	336592896	62	3983
2026-01-23 22:46:20.10	40.53	17.30	-45.0	-46.2	20.8	0.00e+00	0	44	0	337641472	62	3953
2026-01-23 22:46:21.11	40.69	17.38	-44.9	-46.2	20.9	0.00e+00	0	44	0	339738624	61	4150
2026-01-23 22:46:22.12	40.85	17.47	-44.9	-46.2	20.9	0.00e+00	0	44	0	341835776	61	4158
2026-01-23 22:46:23.13	41.01	17.55	-45.0	-46.2	20.8	0.00e+00	0	44	0	343932928	61	4188
2026-01-23 22:46:24.13	41.17	17.64	-44.9	-46.1	20.9	0.00e+00	0	44	0	346030080	61	4135
2026-01-23 22:46:25.14	41.34	17.72	-44.9	-46.1	21.0	0.00e+00	0	44	0	348127232	61	4129
2026-01-23 22:46:26.15	41.50	17.81	-45.1	-46.3	20.8	0.00e+00	0	44	0	349175808	61	4219
2026-01-23 22:46:27.16	41.67	17.89	-45.2	-46.4	20.7	0.00e+00	0	44	0	351272960	61	4273
2026-01-23 22:46:28.16	41.83	17.98	-45.0	-46.3	20.8	0.00e+00	0	44	0	353370112	61	4218
2026-01-23 22:46:29.17	42.00	18.06	-45.0	-46.3	20.8	0.00e+00	0	44	0	355467264	61	4206
2026-01-23 22:46:30.18	42.17	18.15	-45.1	-46.4	20.7	0.00e+00	0	44	0	357564416	61	4253
2026-01-23 22:46:31.19	42.34	18.23	-44.9	-46.1	21.0	0.00e+00	0	44	0	358612992	61	4115
2026-01-23 22:46:32.19	42.51	18.32	-44.9	-46.1	21.0	0.00e+00	0	44	0	360710144	61	4133
2026-01-23 22:46:33.20	42.68	18.40	-44.9	-46.1	20.9	0.00e+00	0	44	0	362807296	61	4135
2026-01-23 22:46:34.21	42.85	18.49	-44.7	-45.9	21.2	0.00e+00	0	44	0	364904448	61	4031
2026-01-23 22:46:35.22	43.02	18.57	-44.7	-45.8	21.2	0.00e+00	0	44	0	365953024	61	3995
2026-01-23 22:46:36.23	43.20	18.66	-44.7	-45.9	21.2	0.00e+00	0	44	0	368050176	61	4012
2026-01-23 22:46:37.23	43.37	18.74	-44.7	-45.9	21.2	0.00e+00	0	44	0	370147328	61	4018
2026-01-23 22:46:38.24	43.55	18.83	-44.8	-46.0	21.0	0.00e+00	0	44	0	372244480	61	4092
2026-01-23 22:46:39.25	43.72	18.91	-44.8	-46.0	21.1	0.00e+00	0	44	0	374341632	61	4077
2026-01-23 22:46:40.26	43.90	19.00	-44.9	-46.1	21.1	0.00e+00	0	44	0	376438784	61	4110
2026-01-23 22:46:41.26	44.08	19.09	-44.7	-45.9	21.2	0.00e+00	0	44	0	377487360	61	4040
2026-01-23 22:46:42.27	44.26	19.17	-44.8	-46.0	21.1	0.00e+00	0	44	0	379584512	61	4061
2026-01-23 22:46:43.28	44.44	19.26	-44.8	-46.0	21.1	0.00e+00	0	44	0	381681664	61	4059
2026-01-23 22:46:44.29	44.62	19.34	-44.5	-45.7	21.4	0.00e+00	0	44	0	383778816	61	3940
2026-01-23 22:46:45.30	44.80	19.43	-44.5	-45.6	21.4	0.00e+00	0	44	0	385875968	61	3913
2026-01-23 22:46:46.31	44.99	19.52	-44.6	-45.8	21.3	0.00e+00	0	44	0	386924544	60	4215
2026-01-23 22:46:47.32	45.17	19.60	-44.4	-45.5	21.6	0.00e+00	0	44	0	389021696	60	4096
2026-01-23 22:46:48.33	45.36	19.69	-44.4	-45.5	21.5	0.00e+00	0	44	0	391118848	60	4082
2026-01-23 22:46:49.34	45.55	19.77	-44.5	-45.7	21.4	0.00e+00	0	44	0	393216000	60	4156
2026-01-23 22:46:50.35	45.73	19.86	-44.5	-45.6	21.5	0.00e+00	0	44	0	395313152	60	4131
2026-01-23 22:46:51.36	45.92	19.95	-44.6	-45.7	21.3	0.00e+00	0	44	0	396361728	60	4192
2026-01-23 22:46:52.37	46.11	20.03	-44.5	-45.6	21.4	0.00e+00	0	44	0	398458880	60	4140
2026-01-23 22:46:53.37	46.30	20.12	-44.3	-45.4	21.6	0.00e+00	0	43	0	400556032	60	4049
2026-01-23 22:46:54.38	46.50	20.20	-44.4	-45.5	21.6	0.00e+00	0	44	0	402653184	60	4088
2026-01-23 22:46:55.39	46.69	20.29	-44.2	-45.3	21.7	0.00e+00	0	44	0	404750336	60	3987
2026-01-23 22:46:56.40	46.88	20.37	-44.2	-45.3	21.7	0.00e+00	0	44	0	405798912	60	3995
2026-01-23 22:46:57.41	47.08	20.46	-44.3	-45.4	21.6	0.00e+00	0	44	0	407896064	60	4041
2026-01-23 22:46:58.41	47.27	20.55	-44.2	-45.3	21.8	0.00e+00	0	44	0	409993216	60	3985
2026-01-23 22:46:59.42	47.47	20.63	-44.3	-45.5	21.6	0.00e+00	0	44	0	412090368	60	4056
2026-01-23 22:47:00.43	47.67	20.72	-44.1	-45.2	21.8	0.00e+00	0	44	0	414187520	60	3948
2026-01-23 22:47:01.44	47.87	20.80	-44.2	-45.3	21.8	0.00e+00	0	44	0	415236096	60	3984
2026-01-23 22:47:02.45	48.07	20.89	-44.3	-45.4	21.7	0.00e+00	0	44	0	417333248	60	4036
2026-01-23 22:47:03.45	48.27	20.97	-44.4	-45.5	21.7	0.00e+00	0	44	0	419430400	60	4072
2026-01-23 22:47:04.46	48.47	21.06	-44.4	-45.6	21.5	0.00e+00	0	44	0	421527552	60	4118
2026-01-23 22:47:05.47	48.68	21.14	-44.5	-45.7	21.4	0.00e+00	0	44	0	423624704	60	4150
2026-01-23 22:47:06.48	48.88	21.23	-44.4	-45.6	21.6	0.00e+00	0	44	0	424673280	60	4109
2026-01-23 22:47:07.49	49.09	21.32	-44.7	-45.8	21.5	0.00e+00	0	44	0	426770432	60	4242
2026-01-23 22:47:08.50	49.29	21.40	-44.4	-45.5	21.7	0.00e+00	0	44	0	428867584	60	4079
2026-01-23 22:47:09.51	49.50	21.49	-44.4	-45.6	21.7	0.00e+00	0	44	0	430964736	60	4110
2026-01-23 22:47:10.52	49.71	21.57	-44.4	-45.5	21.7	0.00e+00	0	44	0	433061888	60	4072
2026-01-23 22:47:11.53	49.92	21.66	-44.4	-45.5	21.7	0.00e+00	0	44	0	434110464	60	4074
2026-01-23 22:47:12.53	50.13	21.74	-44.4	-45.5	21.6	0.00e+00	0	44	0	436207616	60	4084
2026-01-23 22:47:13.54	50.35	21.83	-44.5	-45.6	21.5	0.00e+00	0	44	0	438304768	60	4145
2026-01-23 22:47:14.55	50.56	21.91	-44.7	-45.8	21.4	0.00e+00	0	44	0	440401920	60	4223
2026-01-23 22:47:15.56	50.77	21.99	-44.8	-46.0	21.3	0.00e+00	0	44	0	442499072	60	4298
2026-01-23 22:47:16.57	50.99	22.08	-44.7	-45.8	21.5	0.00e+00	0	44	0	443547648	60	4228
2026-01-23 22:47:17.57	51.21	22.16	-44.6	-45.7	21.5	0.00e+00	0	44	0	445644800	60	4191
2026-01-23 22:47:18.58	51.42	22.25	-44.4	-45.6	21.6	0.00e+00	0	44	0	447741952	60	4104
2026-01-23 22:47:19.59	51.64	22.33	-44.2	-45.3	21.8	0.00e+00	0	44	0	449839104	60	4003
2026-01-23 22:47:20.60	51.87	22.41	-44.1	-45.2	21.9	0.00e+00	0	44	0	451936256	60	3946
2026-01-23 22:47:21.61	52.09	22.50	-44.1	-45.1	22.0	0.00e+00	0	44	0	452984832	60	3903
2026-01-23 22:47:22.62	52.31	22.58	-44.2	-45.3	21.9	0.00e+00	0	44	0	455081984	60	3963
2026-01-23 22:47:23.63	52.54	22.67	-44.2	-45.2	21.9	0.00e+00	0	44	0	457179136	60	3954
2026-01-23 22:47:24.63	52.76	22.75	-44.3	-45.4	21.8	0.00e+00	0	44	0	459276288	60	4009
2026-01-23 22:47:25.64	52.99	22.83	-44.3	-45.4	21.8	0.00e+00	0	44	0	461373440	60	4041
2026-01-23 22:47:26.65	53.21	22.91	-44.4	-45.5	21.6	0.00e+00	0	44	0	463470592	60	4095
2026-01-23 22:47:27.66	53.44	23.00	-44.4	-45.6	21.6	0.00e+00	0	44	0	464519168	60	4108
2026-01-23 22:47:28.67	53.67	23.08	-44.5	-45.7	21.5	0.00e+00	0	44	0	466616320	60	4160
2026-01-23 22:47:29.67	53.90	23.16	-44.5	-45.6	21.5	0.00e+00	0	44	0	468713472	60	4135
2026-01-23 22:47:30.68	54.14	23.24	-44.4	-45.6	21.6	0.00e+00	0	44	0	470810624	60	4102
2026-01-23 22:47:31.69	54.37	23.32	-44.4	-45.5	21.7	0.00e+00	0	44	0	471859200	60	4080
2026-01-23 22:47:32.70	54.60	23.41	-44.5	-45.6	21.6	0.00e+00	0	44	0	473956352	60	4129
2026-01-23 22:47:33.70	54.84	23.49	-44.6	-45.7	21.5	0.00e+00	0	44	0	476053504	60	4176
2026-01-23 22:47:34.71	55.08	23.57	-44.8	-46.0	21.2	0.00e+00	0	44	0	478150656	60	4302
2026-01-23 22:47:35.72	55.32	23.65	-45.0	-46.2	21.0	0.00e+00	0	44	0	480247808	60	4408
2026-01-23 22:47:36.73	55.56	23.73	-45.1	-46.3	20.9	0.00e+00	0	44	0	481296384	60	4466
2026-01-23 22:47:37.74	55.80	23.81	-45.2	-46.4	20.8	0.00e+00	0	44	0	483393536	60	4536
2026-01-23 22:47:38.75	56.04	23.89	-45.1	-46.3	20.9	0.00e+00	0	44	0	485490688	61	4237
2026-01-23 22:47:39.76	56.28	23.97	-45.1	-46.4	20.8	0.00e+00	0	44	0	487587840	61	4252
2026-01-23 22:47:40.76	56.52	24.05	-45.1	-46.4	20.9	0.00e+00	0	44	0	489684992	61	4245
2026-01-23 22:47:41.77	56.77	24.13	-45.0	-46.3	21.0	0.00e+00	0	44	0	491782144	61	4194
2026-01-23 22:47:42.78	57.02	24.21	-45.1	-46.3	21.0	0.00e+00	0	44	0	492830720	61	4231
2026-01-23 22:47:43.79	57.27	24.29	-45.2	-46.4	20.9	0.00e+00	0	44	0	494927872	61	4275
2026-01-23 22:47:44.79	57.51	24.36	-45.2	-46.5	20.8	0.00e+00	0	44	0	497025024	61	4298
2026-01-23 22:47:45.80	57.76	24.44	-45.3	-46.5	20.8	0.00e+00	0	44	0	499122176	61	4318
2026-01-23 22:47:46.81	58.02	24.52	-45.5	-46.8	20.6	0.00e+00	0	44	0	500170752	61	4442
2026-01-23 22:47:47.82	58.27	24.60	-45.5	-46.7	20.6	0.00e+00	0	44	0	502267904	61	4432
2026-01-23 22:47:48.83	58.52	24.67	-45.3	-46.6	20.7	0.00e+00	0	44	0	504365056	61	4356
2026-01-23 22:47:49.84	58.78	24.75	-45.3	-46.5	20.8	0.00e+00	0	44	0	506462208	61	4328
2026-01-23 22:47:50.85	59.04	24.83	-45.4	-46.6	20.7	0.00e+00	0	44	0	508559360	61	4388
2026-01-23 22:47:51.85	59.29	24.90	-45.3	-46.5	20.8	0.00e+00	0	44	0	510656512	61	4335
2026-01-23 22:47:52.86	59.55	24.98	-45.3	-46.6	20.8	0.00e+00	0	44	0	511705088	61	4348
2026-01-23 22:47:53.87	59.81	25.05	-45.5	-46.8	20.5	0.00e+00	0	44	0	513802240	61	4464
2026-01-23 22:47:54.88	60.08	25.13	-45.8	-47.1	20.3	0.00e+00	0	44	0	515899392	62	4365
2026-01-23 22:47:55.89	60.34	25.20	-46.0	-47.4	20.0	0.00e+00	0	44	0	517996544	62	4517
2026-01-23 22:47:56.89	60.60	25.28	-46.1	-47.5	19.8	0.00e+00	0	44	0	520093696	62	4591
2026-01-23 22:47:57.90	60.87	25.35	-46.2	-47.6	19.8	0.00e+00	0	44	0	521142272	63	4380
2026-01-23 22:47:58.91	61.13	25.42	-46.1	-47.5	19.9	0.00e+00	0	44	0	523239424	63	4296
2026-01-23 22:47:59.92	61.40	25.49	-46.0	-47.4	19.9	0.00e+00	0	44	0	525336576	63	4263
2026-01-23 22:48:00.93	61.67	25.57	-46.0	-47.3	20.1	0.00e+00	0	44	0	527433728	63	4220
2026-01-23 22:48:01.93	61.94	25.64	-45.8	-47.2	20.3	0.00e+00	0	44	0	528482304	63	4151
2026-01-23 22:48:02.94	62.21	25.71	-46.0	-47.4	20.1	0.00e+00	0	44	0	530579456	63	4253
2026-01-23 22:48:03.95	62.48	25.78	-46.3	-47.7	19.7	0.00e+00	0	44	0	532676608	63	4413
2026-01-23 22:48:04.96	62.76	25.85	-46.5	-47.9	19.5	0.00e+00	0	44	0	534773760	63	4542
2026-01-23 22:48:05.96	63.03	25.92	-46.7	-48.2	19.1	0.00e+00	0	44	0	536870912	64	4431
2026-01-23 22:48:06.97	63.30	25.99	-46.8	-48.4	18.9	0.00e+00	0	44	0	538968064	64	4532
2026-01-23 22:48:07.98	63.58	26.06	-46.8	-48.4	19.0	0.00e+00	0	44	0	540016640	64	4531
2026-01-23 22:48:08.99	63.86	26.13	-46.7	-48.2	19.2	0.00e+00	0	44	0	542113792	64	4437
2026-01-23 22:48:10.00	64.14	26.19	-46.5	-48.0	19.4	0.00e+00	0	44	0	544210944	64	4304
2026-01-23 22:48:11.00	64.42	26.26	-46.4	-47.9	19.5	0.00e+00	0	44	0	546308096	64	4250
2026-01-23 22:48:12.01	64.70	26.33	-46.5	-48.0	19.4	0.00e+00	0	44	0	548405248	64	4313
2026-01-23 22:48:13.02	64.98	26.39	-46.7	-48.2	19.2	0.00e+00	0	44	0	549453824	64	4407
2026-01-23 22:48:14.03	65.27	26.46	-46.7	-48.2	19.2	0.00e+00	0	44	0	551550976	64	4439
2026-01-23 22:48:15.04	65.55	26.52	-46.9	-48.4	19.0	0.00e+00	0	44	0	553648128	64	4532
2026-01-23 22:48:16.05	65.84	26.59	-46.9	-48.5	18.8	0.00e+00	0	44	0	555745280	64	4593
2026-01-23 22:48:17.06	66.13	26.65	-47.0	-48.6	18.7	0.00e+00	0	44	0	557842432	64	4613
2026-01-23 22:48:18.07	66.42	26.71	-47.1	-48.7	18.7	0.00e+00	0	44	0	558891008	64	4681
2026-01-23 22:48:19.07	66.71	26.78	-47.0	-48.6	18.8	0.00e+00	0	44	0	560988160	64	4624
2026-01-23 22:48:20.08	67.00	26.84	-46.9	-48.5	18.8	0.00e+00	0	44	0	563085312	64	4593
2026-01-23 22:48:21.09	67.29	26.90	-46.8	-48.4	19.0	0.00e+00	0	44	0	565182464	64	4519
2026-01-23 22:48:22.10	67.58	26.96	-46.7	-48.3	19.1	0.00e+00	0	44	0	567279616	64	4443
2026-01-23 22:48:23.11	67.88	27.02	-46.8	-48.3	19.0	0.00e+00	0	44	0	568328192	64	4493
2026-01-23 22:48:24.11	68.17	27.08	-47.0	-48.6	18.8	0.00e+00	0	44	0	570425344	64	4607
2026-01-23 22:48:25.12	68.47	27.14	-47.1	-48.8	18.6	0.00e+00	0	44	0	572522496	64	4719
2026-01-23 22:48:26.13	68.77	27.20	-47.2	-48.9	18.5	0.00e+00	0	44	0	574619648	65	4529
2026-01-23 22:48:27.14	69.06	27.25	-47.1	-48.8	18.6	0.00e+00	0	44	0	576716800	65	4462
2026-01-23 22:48:28.15	69.36	27.31	-46.9	-48.5	18.8	0.00e+00	0	44	0	578813952	65	4331
2026-01-23 22:48:29.15	69.66	27.36	-46.8	-48.3	19.1	0.00e+00	0	44	0	579862528	65	4228
2026-01-23 22:48:30.16	69.96	27.42	-46.7	-48.2	19.2	0.00e+00	0	44	0	581959680	65	4163
2026-01-23 22:48:31.17	70.27	27.47	-46.5	-48.0	19.3	0.00e+00	0	44	0	584056832	65	4073
2026-01-23 22:48:32.18	70.57	27.53	-46.7	-48.2	19.2	0.00e+00	0	44	0	586153984	65	4183
2026-01-23 22:48:33.19	70.88	27.58	-47.2	-48.8	18.6	0.00e+00	0	44	0	587202560	65	4471
2026-01-23 22:48:34.20	71.18	27.63	-47.5	-49.2	18.2	0.00e+00	0	44	0	589299712	65	4693
2026-01-23 22:48:35.21	71.49	27.68	-47.8	-49.6	17.8	0.00e+00	0	44	0	591396864	66	4648
2026-01-23 22:48:36.21	71.79	27.73	-48.2	-50.2	17.3	0.00e+00	0	44	0	593494016	66	4929
2026-01-23 22:48:37.22	72.10	27.78	-48.2	-50.2	17.2	0.00e+00	0	44	0	595591168	67	4700
2026-01-23 22:48:38.23	72.41	27.83	-48.3	-50.4	17.1	0.00e+00	0	44	0	596639744	67	4787
2026-01-23 22:48:39.24	72.72	27.88	-48.2	-50.2	17.3	0.00e+00	0	44	0	598736896	67	4682
2026-01-23 22:48:40.24	73.03	27.93	-48.2	-50.1	17.3	0.00e+00	0	44	0	600834048	67	4633
2026-01-23 22:48:41.25	73.35	27.97	-48.2	-50.2	17.3	0.00e+00	0	44	0	602931200	67	4674
2026-01-23 22:48:42.26	73.66	28.02	-47.9	-49.8	17.7	0.00e+00	0	44	0	605028352	67	4464
2026-01-23 22:48:43.27	73.97	28.06	-47.7	-49.5	17.9	0.00e+00	0	44	0	607125504	67	4302
2026-01-23 22:48:44.27	74.29	28.11	-47.7	-49.6	17.9	0.00e+00	0	44	0	608174080	67	4357
2026-01-23 22:48:45.28	74.60	28.15	-47.5	-49.2	18.2	0.00e+00	0	44	0	610271232	67	4192
2026-01-23 22:48:46.29	74.92	28.19	-47.4	-49.1	18.3	0.00e+00	0	44	0	612368384	66	4371
2026-01-23 22:48:47.30	75.24	28.24	-47.3	-49.0	18.5	0.00e+00	0	44	0	614465536	66	4321
2026-01-23 22:48:48.30	75.55	28.28	-47.3	-48.9	18.5	0.00e+00	0	44	0	615514112	66	4280
2026-01-23 22:48:49.31	75.87	28.32	-47.2	-48.8	18.6	0.00e+00	0	44	0	617611264	66	4218
2026-01-23 22:48:50.32	76.19	28.35	-47.1	-48.7	18.7	0.00e+00	0	44	0	619708416	66	4180
2026-01-23 22:48:51.33	76.51	28.39	-47.0	-48.5	18.9	0.00e+00	0	44	0	621805568	65	4338
2026-01-23 22:48:52.34	76.83	28.43	-47.2	-48.9	18.6	0.00e+00	0	44	0	623902720	65	4517
2026-01-23 22:48:53.35	77.16	28.47	-47.3	-49.0	18.5	0.00e+00	0	44	0	625999872	65	4567
2026-01-23 22:48:54.36	77.48	28.50	-47.6	-49.4	18.1	0.00e+00	0	44	0	627048448	65	4793
2026-01-23 22:48:55.37	77.80	28.54	-47.9	-49.8	17.7	0.00e+00	0	44	0	629145600	66	4724
2026-01-23 22:48:56.37	78.12	28.57	-48.1	-50.1	17.4	0.00e+00	0	44	0	631242752	66	4876
2026-01-23 22:48:57.38	78.45	28.60	-48.1	-50.0	17.5	0.00e+00	0	44	0	633339904	66	4865
2026-01-23 22:48:58.39	78.78	28.63	-48.3	-50.2	17.5	0.00e+00	0	44	0	635437056	67	4690
2026-01-23 22:48:59.40	79.10	28.66	-48.1	-49.9	17.7	0.00e+00	0	44	0	636485632	67	4544
2026-01-23 22:49:00.41	79.43	28.69	-48.0	-49.8	17.9	0.00e+00	0	44	0	638582784	67	4492
2026-01-23 22:49:01.41	79.75	28.72	-47.9	-49.7	18.0	0.00e+00	0	44	0	640679936	67	4404
2026-01-23 22:49:02.42	80.08	28.75	-47.6	-49.3	18.3	0.00e+00	0	44	0	642777088	67	4231
2026-01-23 22:49:03.43	80.41	28.77	-47.4	-49.1	18.5	0.00e+00	0	44	0	643825664	66	4358
2026-01-23 22:49:04.44	80.74	28.80	-47.5	-49.2	18.5	0.00e+00	0	44	0	645922816	66	4421
2026-01-23 22:49:05.45	81.07	28.83	-47.4	-49.1	18.5	0.00e+00	0	44	0	648019968	66	4371
2026-01-23 22:49:06.45	81.40	28.85	-47.5	-49.2	18.3	0.00e+00	0	44	0	650117120	66	4420
2026-01-23 22:49:07.46	81.73	28.87	-47.4	-49.1	18.4	0.00e+00	0	44	0	652214272	66	4372
2026-01-23 22:49:08.47	82.06	28.89	-47.3	-48.9	18.6	0.00e+00	0	44	0	654311424	66	4272
2026-01-23 22:49:09.48	82.39	28.91	-47.3	-49.0	18.6	0.00e+00	0	44	0	655360000	66	4299
2026-01-23 22:49:10.49	82.72	28.93	-47.1	-48.7	18.8	0.00e+00	0	44	0	657457152	66	4193
2026-01-23 22:49:11.50	83.05	28.95	-47.3	-49.0	18.6	0.00e+00	0	44	0	659554304	66	4307
2026-01-23 22:49:12.51	83.39	28.97	-47.3	-49.0	18.5	0.00e+00	0	44	0	661651456	66	4316
2026-01-23 22:49:13.52	83.72	28.99	-47.1	-48.7	18.8	0.00e+00	0	44	0	663748608	66	4154
2026-01-23 22:49:14.53	84.05	29.00	-46.9	-48.5	19.0	0.00e+00	0	44	0	664797184	65	4296
2026-01-23 22:49:15.54	84.39	29.02	-46.5	-48.0	19.5	0.00e+00	0	44	0	666894336	65	4066
2026-01-23 22:49:16.54	84.72	29.03	-46.3	-47.7	19.8	0.00e+00	0	44	0	668991488	64	4173
2026-01-23 22:49:17.55	85.05	29.04	-46.8	-48.3	19.3	0.00e+00	0	44	0	671088640	64	4472
2026-01-23 22:49:18.56	85.39	29.05	-46.9	-48.5	19.0	0.00e+00	0	44	0	673185792	64	4574
2026-01-23 22:49:19.57	85.72	29.07	-47.3	-49.0	18.5	0.00e+00	0	44	0	674234368	65	4557
2026-01-23 22:49:20.58	86.06	29.07	-47.6	-49.4	18.1	0.00e+00	0	44	0	676331520	65	4769
2026-01-23 22:49:21.59	86.39	29.08	-47.6	-49.4	18.1	0.00e+00	0	44	0	678428672	65	4787
2026-01-23 22:49:22.59	86.72	29.09	-47.6	-49.3	18.2	0.00e+00	0	44	0	680525824	65	4737
2026-01-23 22:49:23.60	87.06	29.10	-47.4	-49.1	18.3	0.00e+00	0	44	0	682622976	65	4634
2026-01-23 22:49:24.61	87.40	29.10	-47.2	-48.8	18.6	0.00e+00	0	44	0	683671552	65	4466
2026-01-23 22:49:25.62	87.73	29.11	-47.2	-48.8	18.6	0.00e+00	0	44	0	685768704	65	4492
2026-01-23 22:49:26.63	88.07	29.11	-46.8	-48.3	19.1	0.00e+00	0	44	0	687865856	65	4198
2026-01-23 22:49:27.64	88.40	29.11	-46.4	-47.8	19.7	0.00e+00	0	44	0	689963008	64	4220
2026-01-23 22:49:28.65	88.74	29.11	-46.4	-47.8	19.7	0.00e+00	0	44	0	692060160	64	4235
2026-01-23 22:49:29.65	89.07	29.11	-46.7	-48.2	19.3	0.00e+00	0	44	0	693108736	64	4399
2026-01-23 22:49:30.66	89.41	29.11	-46.8	-48.4	19.2	0.00e+00	0	44	0	695205888	64	4497
2026-01-23 22:49:31.67	89.74	29.11	-46.9	-48.5	19.0	0.00e+00	0	44	0	697303040	64	4557
2026-01-23 22:49:32.68	90.08	29.11	-47.0	-48.6	18.9	0.00e+00	0	44	0	699400192	64	4628
2026-01-23 22:49:33.69	90.42	29.10	-46.9	-48.5	18.9	0.00e+00	0	44	0	701497344	64	4580
2026-01-23 22:49:34.70	90.75	29.10	-47.0	-48.6	19.0	0.00e+00	0	44	0	702545920	64	4609
2026-01-23 22:49:35.71	91.09	29.09	-46.8	-48.3	19.2	0.00e+00	0	44	0	704643072	64	4463
2026-01-23 22:49:36.72	91.42	29.08	-46.4	-47.8	19.6	0.00e+00	0	44	0	706740224	64	4224
2026-01-23 22:49:37.73	91.76	29.08	-46.3	-47.7	19.7	0.00e+00	0	44	0	708837376	64	4167
2026-01-23 22:49:38.73	92.09	29.07	-46.4	-47.9	19.5	0.00e+00	0	44	0	710934528	64	4250
2026-01-23 22:49:39.74	92.43	29.06	-46.7	-48.2	19.2	0.00e+00	0	44	0	713031680	64	4401
2026-01-23 22:49:40.75	92.76	29.04	-47.3	-49.0	18.4	0.00e+00	0	44	0	714080256	65	4572
2026-01-23 22:49:41.76	93.09	29.03	-47.8	-49.7	17.9	0.00e+00	0	44	0	716177408	66	4662
2026-01-23 22:49:42.77	93.43	29.02	-48.0	-49.9	17.6	0.00e+00	0	44	0	718274560	66	4772
2026-01-23 22:49:43.78	93.76	29.00	-48.3	-50.3	17.2	0.00e+00	0	44	0	720371712	67	4719
2026-01-23 22:49:44.79	94.10	28.99	-48.0	-50.0	17.6	0.00e+00	0	44	0	721420288	67	4552
2026-01-23 22:49:45.79	94.43	28.97	-47.6	-49.4	18.1	0.00e+00	0	44	0	723517440	67	4270
2026-01-23 22:49:46.80	94.76	28.95	-47.4	-49.1	18.4	0.00e+00	0	44	0	725614592	66	4379
2026-01-23 22:49:47.81	95.09	28.94	-47.2	-48.9	18.6	0.00e+00	0	44	0	727711744	66	4249
2026-01-23 22:49:48.82	95.42	28.92	-47.1	-48.6	18.8	0.00e+00	0	44	0	729808896	66	4140
2026-01-23 22:49:49.83	95.76	28.90	-47.2	-48.9	18.6	0.00e+00	0	44	0	730857472	65	4499
2026-01-23 22:49:50.84	96.09	28.87	-47.6	-49.3	18.1	0.00e+00	0	44	0	732954624	65	4748
2026-01-23 22:49:51.85	96.42	28.85	-48.1	-50.0	17.5	0.00e+00	0	44	0	735051776	66	4845
2026-01-23 22:49:52.86	96.75	28.83	-48.7	-50.9	16.7	0.00e+00	0	44	0	737148928	67	5058
2026-01-23 22:49:53.87	97.08	28.80	-49.0	-51.3	16.3	0.00e+00	0	44	0	739246080	68	5010
2026-01-23 22:49:54.87	97.41	28.78	-48.6	-50.7	16.9	0.00e+00	0	44	0	741343232	68	4691
2026-01-23 22:49:55.88	97.74	28.75	-47.8	-49.6	17.9	0.00e+00	0	44	0	742391808	67	4363
2026-01-23 22:49:56.88	98.06	28.72	-47.4	-49.1	18.4	0.00e+00	0	44	0	744488960	66	4351
2026-01-23 22:49:57.89	98.39	28.69	-47.6	-49.3	18.2	0.00e+00	0	44	0	746586112	66	4478
2026-01-23 22:49:58.90	98.72	28.67	-47.7	-49.5	18.0	0.00e+00	0	44	0	748683264	66	4591
2026-01-23 22:49:59.91	99.04	28.63	-47.8	-49.7	17.8	0.00e+00	0	44	0	749731840	66	4661
2026-01-23 22:50:00.92	99.37	28.60	-47.8	-49.6	17.8	0.00e+00	0	44	0	751828992	66	4620
2026-01-23 22:50:01.93	99.69	28.57	-47.8	-49.6	17.9	0.00e+00	0	44	0	753926144	66	4613
2026-01-23 22:50:02.93	100.02	28.54	-47.5	-49.3	18.2	0.00e+00	0	44	0	756023296	66	4464
2026-01-23 22:50:03.94	100.34	28.50	-47.5	-49.2	18.2	0.00e+00	0	44	0	758120448	66	4432
2026-01-23 22:50:04.95	100.66	28.47	-47.3	-49.0	18.5	0.00e+00	0	44	0	760217600	66	4293
2026-01-23 22:50:05.96	100.99	28.43	-47.4	-49.1	18.4	0.00e+00	0	44	0	761266176	66	4344
2026-01-23 22:50:06.97	101.31	28.39	-47.2	-48.9	18.6	0.00e+00	0	44	0	763363328	66	4247
2026-01-23 22:50:07.98	101.63	28.36	-47.2	-48.9	18.6	0.00e+00	0	44	0	765460480	66	4264
2026-01-23 22:50:08.99	101.95	28.32	-47.3	-48.9	18.6	0.00e+00	0	44	0	767557632	66	4277
2026-01-23 22:50:09.99	102.27	28.28	-47.2	-48.8	18.8	0.00e+00	0	44	0	769654784	66	4203
2026-01-23 22:50:11.00	102.59	28.24	-46.8	-48.3	19.2	0.00e+00	0	44	0	770703360	65	4215
2026-01-23 22:50:12.01	102.91	28.20	-46.5	-48.0	19.6	0.00e+00	0	44	0	772800512	65	4066
2026-01-23 22:50:13.02	103.22	28.15	-46.3	-47.7	19.8	0.00e+00	0	44	0	774897664	64	4188
2026-01-23 22:50:14.03	103.54	28.11	-46.3	-47.7	19.7	0.00e+00	0	44	0	776994816	64	4191
2026-01-23 22:50:15.04	103.86	28.07	-46.1	-47.4	20.0	0.00e+00	0	44	0	778043392	64	4050
2026-01-23 22:50:16.05	104.17	28.02	-45.7	-47.0	20.5	0.00e+00	0	44	0	780140544	63	4084
2026-01-23 22:50:17.05	104.48	27.98	-45.7	-46.9	20.6	0.00e+00	0	44	0	782237696	63	4038
2026-01-23 22:50:18.06	104.80	27.93	-45.8	-47.1	20.4	0.00e+00	0	44	0	784334848	63	4111
2026-01-23 22:50:19.07	105.11	27.88	-45.7	-46.9	20.6	0.00e+00	0	44	0	786432000	63	4044
2026-01-23 22:50:20.08	105.42	27.83	-45.8	-47.1	20.4	0.00e+00	0	44	0	788529152	63	4125
2026-01-23 22:50:21.09	105.73	27.79	-45.8	-47.1	20.4	0.00e+00	0	44	0	789577728	63	4137
2026-01-23 22:50:22.10	106.04	27.74	-46.1	-47.5	20.0	0.00e+00	0	44	0	791674880	63	4318
2026-01-23 22:50:23.11	106.35	27.68	-46.2	-47.7	19.9	0.00e+00	0	44	0	793772032	63	4394
2026-01-23 22:50:24.11	106.65	27.63	-46.4	-47.8	19.7	0.00e+00	0	44	0	795869184	63	4489
2026-01-23 22:50:25.12	106.96	27.58	-46.3	-47.8	19.7	0.00e+00	0	44	0	797966336	63	4447
2026-01-23 22:50:26.13	107.27	27.53	-46.2	-47.6	19.9	0.00e+00	0	44	0	799014912	63	4375
2026-01-23 22:50:27.14	107.57	27.47	-46.2	-47.6	19.9	0.00e+00	0	44	0	801112064	63	4353
2026-01-23 22:50:28.15	107.87	27.42	-45.9	-47.2	20.2	0.00e+00	0	44	0	803209216	63	4181
2026-01-23 22:50:29.15	108.17	27.37	-45.5	-46.8	20.6	0.00e+00	0	44	0	805306368	63	3972
2026-01-23 22:50:30.16	108.48	27.31	-45.4	-46.6	20.9	0.00e+00	0	44	0	807403520	62	4113
2026-01-23 22:50:31.17	108.78	27.25	-45.4	-46.6	20.8	0.00e+00	0	44	0	808452096	62	4127
2026-01-23 22:50:32.18	109.08	27.20	-45.4	-46.6	20.8	0.00e+00	0	44	0	810549248	62	4121
2026-01-23 22:50:33.19	109.37	27.14	-45.7	-47.0	20.6	0.00e+00	0	44	0	812646400	62	4300
2026-01-23 22:50:34.20	109.67	27.08	-45.8	-47.1	20.4	0.00e+00	0	44	0	814743552	62	4375
2026-01-23 22:50:35.21	109.97	27.02	-46.0	-47.3	20.2	0.00e+00	0	44	0	816840704	62	4489
2026-01-23 22:50:36.21	110.26	26.96	-46.1	-47.5	20.0	0.00e+00	0	44	0	817889280	62	4581
2026-01-23 22:50:37.22	110.55	26.90	-46.1	-47.5	20.0	0.00e+00	0	44	0	819986432	62	4549
2026-01-23 22:50:38.23	110.85	26.84	-46.2	-47.6	19.9	0.00e+00	0	44	0	822083584	62	4615
2026-01-23 22:50:39.23	111.14	26.78	-46.3	-47.7	19.8	0.00e+00	0	44	0	824180736	63	4404
2026-01-23 22:50:40.24	111.43	26.71	-46.4	-47.8	19.6	0.00e+00	0	44	0	826277888	63	4473
2026-01-23 22:50:41.25	111.72	26.65	-46.4	-47.9	19.6	0.00e+00	0	44	0	828375040	63	4507
2026-01-23 22:50:42.26	112.01	26.59	-46.3	-47.8	19.7	0.00e+00	0	44	0	829423616	63	4448
2026-01-23 22:50:43.27	112.29	26.52	-46.1	-47.5	19.9	0.00e+00	0	44	0	831520768	63	4327
2026-01-23 22:50:44.27	112.58	26.46	-46.1	-47.5	19.9	0.00e+00	0	44	0	833617920	63	4321
2026-01-23 22:50:45.28	112.86	26.39	-46.0	-47.4	20.1	0.00e+00	0	44	0	835715072	63	4243
2026-01-23 22:50:46.29	113.15	26.33	-46.0	-47.3	20.1	0.00e+00	0	44	0	836763648	63	4228
2026-01-23 22:50:47.30	113.43	26.26	-45.8	-47.2	20.2	0.00e+00	0	44	0	838860800	63	4155
2026-01-23 22:50:48.30	113.71	26.19	-45.7	-47.0	20.3	0.00e+00	0	44	0	840957952	63	4095
2026-01-23 22:50:49.31	113.99	26.12	-45.9	-47.3	20.2	0.00e+00	0	44	0	843055104	63	4211
2026-01-23 22:50:50.32	114.27	26.06	-46.2	-47.6	19.8	0.00e+00	0	44	0	845152256	63	4370
2026-01-23 22:50:51.33	114.55	25.99	-46.5	-48.0	19.4	0.00e+00	0	44	0	846200832	63	4570
2026-01-23 22:50:52.34	114.83	25.92	-46.6	-48.2	19.3	0.00e+00	0	44	0	848297984	63	4656
2026-01-23 22:50:53.35	115.10	25.85	-46.7	-48.3	19.1	0.00e+00	0	44	0	850395136	64	4450
2026-01-23 22:50:54.35	115.37	25.78	-46.6	-48.2	19.1	0.00e+00	0	44	0	852492288	64	4416
2026-01-23 22:50:55.36	115.65	25.71	-46.7	-48.3	19.0	0.00e+00	0	44	0	854589440	64	4444
2026-01-23 22:50:56.37	115.92	25.63	-46.6	-48.2	19.1	0.00e+00	0	44	0	856686592	64	4394
2026-01-23 22:50:57.38	116.19	25.56	-46.4	-47.9	19.4	0.00e+00	0	44	0	857735168	64	4277
2026-01-23 22:50:58.39	116.46	25.49	-46.3	-47.7	19.5	0.00e+00	0	44	0	859832320	64	4192
2026-01-23 22:50:59.39	116.73	25.42	-46.0	-47.4	19.8	0.00e+00	0	44	0	861929472	64	4048
2026-01-23 22:51:00.40	116.99	25.34	-46.0	-47.3	20.0	0.00e+00	0	44	0	864026624	63	4231
2026-01-23 22:51:01.41	117.26	25.27	-45.8	-47.1	20.2	0.00e+00	0	44	0	865075200	63	4124
2026-01-23 22:51:02.42	117.53	25.20	-45.8	-47.2	20.2	0.00e+00	0	44	0	867172352	63	4147
2026-01-23 22:51:03.42	117.79	25.12	-45.6	-46.9	20.5	0.00e+00	0	44	0	869269504	63	4015
2026-01-23 22:51:04.43	118.05	25.05	-45.5	-46.8	20.6	0.00e+00	0	44	0	871366656	62	4194
2026-01-23 22:51:05.44	118.31	24.97	-45.5	-46.8	20.6	0.00e+00	0	44	0	873463808	62	4196
2026-01-23 22:51:06.45	118.57	24.90	-45.1	-46.3	21.0	0.00e+00	0	44	0	875560960	62	3967
2026-01-23 22:51:07.46	118.83	24.82	-45.0	-46.2	21.0	0.00e+00	0	44	0	876609536	61	4176
2026-01-23 22:51:08.46	119.09	24.74	-45.2	-46.4	20.9	0.00e+00	0	44	0	878706688	61	4261
2026-01-23 22:51:09.47	119.34	24.67	-45.5	-46.8	20.5	0.00e+00	0	44	0	880803840	61	4457
2026-01-23 22:51:10.48	119.60	24.59	-45.7	-47.1	20.3	0.00e+00	0	44	0	882900992	62	4348
2026-01-23 22:51:11.49	119.85	24.51	-45.8	-47.2	20.2	0.00e+00	0	44	0	884998144	62	4398
2026-01-23 22:51:12.50	120.10	24.43	-45.8	-47.1	20.2	0.00e+00	0	44	0	886046720	62	4383
2026-01-23 22:51:13.50	120.35	24.35	-45.5	-46.8	20.4	0.00e+00	0	44	0	888143872	62	4216
2026-01-23 22:51:14.51	120.60	24.28	-45.4	-46.7	20.6	0.00e+00	0	44	0	890241024	62	4179
2026-01-23 22:51:15.52	120.85	24.20	-45.4	-46.6	20.7	0.00e+00	0	44	0	892338176	62	4123
2026-01-23 22:51:16.53	121.10	24.12	-45.5	-46.7	20.6	0.00e+00	0	44	0	893386752	62	4188
2026-01-23 22:51:17.54	121.35	24.04	-45.6	-46.9	20.4	0.00e+00	0	44	0	895483904	62	4265
2026-01-23 22:51:18.55	121.59	23.96	-45.7	-47.0	20.2	0.00e+00	0	44	0	897581056	62	4319
2026-01-23 22:51:19.56	121.84	23.88	-45.6	-47.0	20.3	0.00e+00	0	44	0	899678208	62	4295
2026-01-23 22:51:20.56	122.08	23.80	-45.3	-46.5	20.8	0.00e+00	0	44	0	901775360	62	4080
2026-01-23 22:51:21.57	122.32	23.72	-45.4	-46.6	20.7	0.00e+00	0	44	0	903872512	62	4123
2026-01-23 22:51:22.58	122.56	23.64	-45.2	-46.4	20.9	0.00e+00	0	44	0	904921088	62	4022
2026-01-23 22:51:23.59	122.80	23.55	-45.4	-46.7	20.6	0.00e+00	0	44	0	907018240	62	4163
2026-01-23 22:51:24.60	123.04	23.47	-45.7	-47.0	20.2	0.00e+00	0	43	0	909115392	62	4340
2026-01-23 22:51:25.61	123.28	23.39	-46.0	-47.4	19.9	0.00e+00	0	44	0	911212544	62	4510
2026-01-23 22:51:26.62	123.51	23.31	-46.2	-47.6	19.7	0.00e+00	0	44	0	913309696	62	4643
2026-01-23 22:51:27.63	123.75	23.23	-45.9	-47.3	19.9	0.00e+00	0	43	0	914358272	62	4482
2026-01-23 22:51:28.63	123.98	23.14	-45.7	-47.0	20.2	0.00e+00	0	44	0	916455424	62	4319
2026-01-23 22:51:29.64	124.21	23.06	-45.6	-47.0	20.3	0.00e+00	0	44	0	918552576	62	4303
2026-01-23 22:51:30.65	124.44	22.98	-45.6	-46.9	20.3	0.00e+00	0	44	0	920649728	62	4280
2026-01-23 22:51:31.66	124.67	22.90	-46.1	-47.5	19.7	0.00e+00	0	44	0	922746880	62	4588
2026-01-23 22:51:32.67	124.90	22.81	-46.5	-48.0	19.3	0.00e+00	0	44	0	923795456	63	4583
2026-01-23 22:51:33.68	125.13	22.73	-46.8	-48.5	18.7	0.00e+00	0	44	0	925892608	64	4567
2026-01-23 22:51:34.69	125.35	22.65	-47.0	-48.7	18.5	0.00e+00	0	44	0	927989760	64	4674
2026-01-23 22:51:35.69	125.58	22.56	-46.8	-48.4	18.7	0.00e+00	0	44	0	930086912	64	4527
2026-01-23 22:51:36.70	125.80	22.48	-46.5	-48.0	19.2	0.00e+00	0	44	0	932184064	64	4317
2026-01-23 22:51:37.71	126.02	22.39	-46.0	-47.4	19.7	0.00e+00	0	44	0	933232640	64	4030
2026-01-23 22:51:38.72	126.25	22.31	-45.9	-47.3	19.9	0.00e+00	0	44	0	935329792	63	4206
2026-01-23 22:51:39.73	126.47	22.22	-45.9	-47.3	19.9	0.00e+00	0	44	0	937426944	63	4214
2026-01-23 22:51:40.74	126.69	22.14	-46.3	-47.8	19.4	0.00e+00	0	44	0	939524096	63	4476
2026-01-23 22:51:41.75	126.90	22.06	-46.7	-48.3	19.0	0.00e+00	0	44	0	941621248	63	4706
2026-01-23 22:51:42.75	127.12	21.97	-46.6	-48.2	19.1	0.00e+00	0	44	0	942669824	63	4661
2026-01-23 22:51:43.76	127.33	21.89	-46.2	-47.6	19.5	0.00e+00	0	44	0	944766976	63	4381
2026-01-23 22:51:44.77	127.55	21.80	-45.8	-47.2	20.0	0.00e+00	0	44	0	946864128	63	4162
2026-01-23 22:51:45.78	127.76	21.72	-45.6	-46.9	20.2	0.00e+00	0	44	0	948961280	63	4040
2026-01-23 22:51:46.79	127.98	21.63	-45.3	-46.6	20.5	0.00e+00	0	44	0	951058432	62	4127
2026-01-23 22:51:47.80	128.19	21.54	-45.5	-46.8	20.3	0.00e+00	0	44	0	952107008	62	4201
2026-01-23 22:51:48.81	128.40	21.46	-45.6	-47.0	20.2	0.00e+00	0	44	0	954204160	62	4301
2026-01-23 22:51:49.81	128.60	21.37	-46.1	-47.6	19.6	0.00e+00	0	44	0	956301312	62	4622
2026-01-23 22:51:50.82	128.81	21.29	-46.4	-48.0	19.2	0.00e+00	0	44	0	958398464	63	4546
2026-01-23 22:51:51.83	129.02	21.20	-46.6	-48.1	19.1	0.00e+00	0	44	0	960495616	63	4633
2026-01-23 22:51:52.84	129.22	21.12	-46.2	-47.7	19.4	0.00e+00	0	44	0	961544192	63	4419
2026-01-23 22:51:53.85	129.43	21.03	-45.8	-47.1	20.0	0.00e+00	0	44	0	963641344	63	4135
2026-01-23 22:51:54.85	129.63	20.95	-45.7	-47.0	20.1	0.00e+00	0	44	0	965738496	63	4078
2026-01-23 22:51:55.86	129.83	20.86	-45.6	-46.9	20.2	0.00e+00	0	44	0	967835648	63	4035
2026-01-23 22:51:56.87	130.03	20.77	-45.9	-47.3	19.9	0.00e+00	0	44	0	969932800	63	4199
2026-01-23 22:51:57.88	130.23	20.69	-46.1	-47.5	19.6	0.00e+00	0	44	0	970981376	63	4330
2026-01-23 22:51:58.88	130.43	20.60	-46.3	-47.7	19.4	0.00e+00	0	44	0	973078528	63	4441
2026-01-23 22:51:59.89	130.63	20.51	-46.3	-47.8	19.3	0.00e+00	0	44	0	975175680	63	4469
2026-01-23 22:52:00.90	130.83	20.43	-46.1	-47.5	19.6	0.00e+00	0	44	0	977272832	63	4338
2026-01-23 22:52:01.91	131.02	20.34	-45.8	-47.2	19.9	0.00e+00	0	44	0	979369984	63	4156
2026-01-23 22:52:02.92	131.22	20.26	-45.7	-47.0	20.1	0.00e+00	0	44	0	980418560	63	4082
2026-01-23 22:52:03.93	131.41	20.17	-45.5	-46.8	20.3	0.00e+00	0	44	0	982515712	62	4210
2026-01-23 22:52:04.94	131.60	20.08	-45.2	-46.5	20.6	0.00e+00	0	44	0	984612864	62	4052
2026-01-23 22:52:05.95	131.79	20.00	-45.2	-46.5	20.5	0.00e+00	0	44	0	986710016	62	4087
2026-01-23 22:52:06.95	131.98	19.91	-45.4	-46.8	20.3	0.00e+00	0	44	0	988807168	62	4195
2026-01-23 22:52:07.96	132.17	19.82	-45.4	-46.8	20.3	0.00e+00	0	44	0	990904320	62	4210
2026-01-23 22:52:08.97	132.36	19.74	-45.5	-46.9	20.2	0.00e+00	0	44	0	991952896	62	4252
2026-01-23 22:52:09.98	132.55	19.65	-45.4	-46.8	20.2	0.00e+00	0	44	0	994050048	62	4198
2026-01-23 22:52:10.98	132.73	19.57	-45.4	-46.7	20.3	0.00e+00	0	44	0	996147200	62	4175
2026-01-23 22:52:11.99	132.92	19.48	-45.4	-46.8	20.3	0.00e+00	0	44	0	998244352	62	4203
2026-01-23 22:52:13.00	133.10	19.39	-44.9	-46.2	20.8	0.00e+00	0	44	0	999292928	61	4163
2026-01-23 22:52:14.01	133.29	19.31	-44.8	-46.0	21.0	0.00e+00	0	44	0	1001390080	61	4072
2026-01-23 22:52:15.02	133.47	19.22	-45.0	-46.2	20.8	0.00e+00	0	44	0	1003487232	61	4176
2026-01-23 22:52:16.03	133.65	19.13	-45.1	-46.4	20.6	0.00e+00	0	44	0	1005584384	61	4261
2026-01-23 22:52:17.04	133.83	19.05	-45.4	-46.7	20.3	0.00e+00	0	44	0	1007681536	61	4436
2026-01-23 22:52:18.05	134.01	18.96	-45.4	-46.7	20.2	0.00e+00	0	44	0	1009778688	61	4416
2026-01-23 22:52:19.05	134.19	18.87	-45.4	-46.7	20.3	0.00e+00	0	44	0	1010827264	61	4418
2026-01-23 22:52:20.06	134.36	18.79	-45.4	-46.7	20.3	0.00e+00	0	44	0	1012924416	61	4419
2026-01-23 22:52:21.07	134.54	18.70	-45.2	-46.5	20.5	0.00e+00	0	44	0	1015021568	61	4316
2026-01-23 22:52:22.08	134.72	18.62	-45.2	-46.5	20.5	0.00e+00	0	44	0	1017118720	61	4300
2026-01-23 22:52:23.09	134.89	18.53	-45.1	-46.4	20.6	0.00e+00	0	44	0	1019215872	61	4257
2026-01-23 22:52:24.09	135.06	18.44	-45.1	-46.3	20.6	0.00e+00	0	44	0	1020264448	61	4233
2026-01-23 22:52:25.10	135.24	18.36	-45.0	-46.3	20.7	0.00e+00	0	44	0	1022361600	61	4195
2026-01-23 22:52:26.11	135.41	18.27	-45.0	-46.2	20.7	0.00e+00	0	44	0	1024458752	61	4190
2026-01-23 22:52:27.12	135.58	18.19	-45.0	-46.2	20.7	0.00e+00	0	44	0	1026555904	61	4177
2026-01-23 22:52:28.13	135.75	18.10	-44.7	-45.9	21.0	0.00e+00	0	44	0	1027604480	61	4021
2026-01-23 22:52:29.14	135.92	18.01	-44.6	-45.9	21.0	0.00e+00	0	44	0	1029701632	61	4011
2026-01-23 22:52:30.15	136.09	17.93	-44.6	-45.8	21.0	0.00e+00	0	44	0	1031798784	61	3998
2026-01-23 22:52:31.15	136.25	17.84	-44.6	-45.9	21.0	0.00e+00	0	44	0	1033895936	61	4006
2026-01-23 22:52:32.16	136.42	17.76	-44.6	-45.8	21.1	0.00e+00	0	44	0	1035993088	61	3989
2026-01-23 22:52:33.17	136.58	17.67	-44.6	-45.8	21.0	0.00e+00	0	44	0	1038090240	61	4003
2026-01-23 22:52:34.18	136.75	17.59	-44.6	-45.8	21.0	0.00e+00	0	44	0	1039138816	61	3975
2026-01-23 22:52:35.19	136.91	17.50	-44.8	-46.0	20.9	0.00e+00	0	44	0	1041235968	61	4089
2026-01-23 22:52:36.20	137.07	17.42	-44.8	-46.0	20.9	0.00e+00	0	44	0	1043333120	61	4078
2026-01-23 22:52:37.21	137.23	17.33	-44.9	-46.1	20.7	0.00e+00	0	44	0	1045430272	61	4144
2026-01-23 22:52:38.21	137.39	17.25	-45.0	-46.3	20.6	0.00e+00	0	44	0	1047527424	61	4216
2026-01-23 22:52:39.22	137.55	17.16	-45.0	-46.2	20.6	0.00e+00	0	44	0	1048576000	61	4193
2026-01-23 22:52:40.23	137.71	17.08	-45.1	-46.4	20.5	0.00e+00	0	44	0	1050673152	61	4251
2026-01-23 22:52:41.24	137.87	16.99	-45.1	-46.4	20.5	0.00e+00	0	44	0	1052770304	61	4263
2026-01-23 22:52:42.25	138.03	16.91	-45.2	-46.5	20.4	0.00e+00	0	44	0	1054867456	61	4300
2026-01-23 22:52:43.26	138.18	16.82	-45.3	-46.6	20.3	0.00e+00	0	44	0	1056964608	61	4381
2026-01-23 22:52:44.27	138.34	16.74	-45.2	-46.5	20.3	0.00e+00	0	44	0	1058013184	61	4334
2026-01-23 22:52:45.27	138.49	16.65	-45.3	-46.6	20.2	0.00e+00	0	44	0	1060110336	61	4390
2026-01-23 22:52:46.28	138.65	16.57	-45.1	-46.4	20.4	0.00e+00	0	44	0	1062207488	61	4279
2026-01-23 22:52:47.29	138.80	16.48	-45.1	-46.4	20.5	0.00e+00	0	44	0	1064304640	61	4253
2026-01-23 22:52:48.30	138.95	16.40	-45.0	-46.3	20.6	0.00e+00	0	44	0	1066401792	61	4211
2026-01-23 22:52:49.31	139.10	16.31	-45.2	-46.5	20.3	0.00e+00	0	44	0	1067450368	61	4317
2026-01-23 22:52:50.31	139.25	16.23	-44.9	-46.1	20.7	0.00e+00	0	44	0	1069547520	61	4138
2026-01-23 22:52:51.32	139.40	16.15	-44.9	-46.1	20.7	0.00e+00	0	44	0	1071644672	61	4126
2026-01-23 22:52:52.33	139.55	16.06	-44.9	-46.2	20.6	0.00e+00	0	44	0	1073741824	61	4179
2026-01-23 22:52:53.34	139.70	15.98	-45.0	-46.3	20.6	0.00e+00	0	44	0	1075838976	61	4200
2026-01-23 22:52:54.35	139.85	15.90	-45.1	-46.3	20.5	0.00e+00	0	44	0	1077936128	61	4237
2026-01-23 22:52:55.36	140.00	15.81	-45.1	-46.4	20.4	0.00e+00	0	44	0	1078984704	61	4265
2026-01-23 22:52:56.37	140.14	15.73	-45.3	-46.6	20.2	0.00e+00	0	44	0	1081081856	61	4389
2026-01-23 22:52:57.37	140.28	15.65	-45.2	-46.5	20.4	0.00e+00	0	44	0	1083179008	61	4310
2026-01-23 22:52:58.38	140.43	15.56	-45.2	-46.5	20.3	0.00e+00	0	44	0	1085276160	61	4305
2026-01-23 22:52:59.39	140.57	15.48	-45.2	-46.5	20.3	0.00e+00	0	44	0	1086324736	61	4315
2026-01-23 22:53:00.40	140.72	15.40	-45.2	-46.5	20.3	0.00e+00	0	44	0	1088421888	61	4319
2026-01-23 22:53:01.41	140.86	15.31	-45.2	-46.6	20.2	0.00e+00	0	44	0	1090519040	61	4350
2026-01-23 22:53:02.41	141.00	15.23	-45.5	-46.9	19.9	0.00e+00	0	44	0	1092616192	61	4522
2026-01-23 22:53:03.42	141.14	15.15	-45.5	-46.9	20.0	0.00e+00	0	44	0	1094713344	61	4503
2026-01-23 22:53:04.43	141.28	15.07	-45.6	-47.1	19.8	0.00e+00	0	44	0	1095761920	61	4603
2026-01-23 22:53:05.44	141.42	14.98	-45.8	-47.2	19.6	0.00e+00	0	44	0	1097859072	62	4439
2026-01-23 22:53:06.45	141.55	14.90	-45.8	-47.3	19.6	0.00e+00	0	43	0	1099956224	62	4457
2026-01-23 22:53:07.45	141.69	14.82	-46.0	-47.5	19.3	0.00e+00	0	44	0	1102053376	62	4552
2026-01-23 22:53:08.46	141.83	14.74	-45.9	-47.4	19.4	0.00e+00	0	43	0	1104150528	62	4505
2026-01-23 22:53:09.47	141.96	14.66	-46.0	-47.5	19.3	0.00e+00	0	44	0	1106247680	62	4592
2026-01-23 22:53:10.48	142.10	14.58	-46.0	-47.4	19.4	0.00e+00	0	44	0	1107296256	62	4545
2026-01-23 22:53:11.49	142.23	14.49	-45.9	-47.4	19.4	0.00e+00	0	44	0	1109393408	62	4532
2026-01-23 22:53:12.49	142.37	14.41	-46.0	-47.5	19.3	0.00e+00	0	44	0	1111490560	62	4557
2026-01-23 22:53:13.50	142.50	14.33	-45.9	-47.3	19.5	0.00e+00	0	44	0	1113587712	62	4489
2026-01-23 22:53:14.51	142.63	14.25	-46.0	-47.5	19.3	0.00e+00	0	44	0	1114636288	62	4561
2026-01-23 22:53:15.52	142.76	14.17	-45.9	-47.4	19.4	0.00e+00	0	44	0	1116733440	62	4526
2026-01-23 22:53:16.53	142.90	14.09	-45.9	-47.4	19.4	0.00e+00	0	44	0	1118830592	62	4528
2026-01-23 22:53:17.53	143.02	14.01	-46.0	-47.5	19.3	0.00e+00	0	44	0	1120927744	62	4554
2026-01-23 22:53:18.54	143.15	13.93	-46.0	-47.5	19.3	0.00e+00	0	44	0	1123024896	62	4598
2026-01-23 22:53:19.55	143.28	13.85	-46.1	-47.7	19.2	0.00e+00	0	44	0	1125122048	62	4656
2026-01-23 22:53:20.56	143.41	13.77	-46.3	-47.8	19.0	0.00e+00	0	44	0	1126170624	63	4483
2026-01-23 22:53:21.57	143.54	13.69	-46.2	-47.8	19.0	0.00e+00	0	44	0	1128267776	63	4468
2026-01-23 22:53:22.58	143.67	13.61	-46.5	-48.1	18.7	0.00e+00	0	44	0	1130364928	63	4619
2026-01-23 22:53:23.58	143.79	13.53	-46.4	-48.0	18.8	0.00e+00	0	44	0	1132462080	63	4563
2026-01-23 22:53:24.59	143.92	13.45	-46.5	-48.2	18.6	0.00e+00	0	44	0	1134559232	63	4668
2026-01-23 22:53:25.60	144.04	13.37	-46.5	-48.2	18.6	0.00e+00	0	43	0	1135607808	63	4653
2026-01-23 22:53:26.60	144.17	13.29	-46.7	-48.4	18.4	0.00e+00	0	44	0	1137704960	63	4771
2026-01-23 22:53:27.61	144.29	13.21	-46.6	-48.3	18.4	0.00e+00	0	44	0	1139802112	64	4456
2026-01-23 22:53:28.62	144.41	13.13	-46.2	-47.8	18.9	0.00e+00	0	44	0	1141899264	64	4206
2026-01-23 22:53:29.63	144.54	13.05	-46.3	-47.9	18.8	0.00e+00	0	44	0	1142947840	64	4269
2026-01-23 22:53:30.64	144.66	12.97	-46.3	-47.9	18.7	0.00e+00	0	44	0	1145044992	64	4261
2026-01-23 22:53:31.65	144.78	12.89	-46.2	-47.8	18.8	0.00e+00	0	44	0	1147142144	64	4208
2026-01-23 22:53:32.66	144.90	12.81	-46.3	-47.9	18.7	0.00e+00	0	44	0	1149239296	64	4267
2026-01-23 22:53:33.67	145.02	12.74	-46.0	-47.6	19.0	0.00e+00	0	44	0	1151336448	64	4127
2026-01-23 22:53:34.68	145.14	12.66	-46.0	-47.5	19.1	0.00e+00	0	44	0	1153433600	63	4329
2026-01-23 22:53:35.69	145.26	12.58	-46.1	-47.6	19.0	0.00e+00	0	44	0	1154482176	63	4388
2026-01-23 22:53:36.69	145.38	12.50	-46.3	-47.9	18.8	0.00e+00	0	44	0	1156579328	63	4495
2026-01-23 22:53:37.70	145.49	12.42	-46.3	-48.0	18.8	0.00e+00	0	44	0	1158676480	63	4555
2026-01-23 22:53:38.71	145.61	12.35	-46.6	-48.3	18.2	0.00e+00	0	44	0	1160773632	64	4474
2026-01-23 22:53:39.72	145.73	12.27	-46.6	-48.4	18.2	0.00e+00	0	44	0	1162870784	64	4501
2026-01-23 22:53:40.73	145.84	12.19	-46.7	-48.4	18.2	0.00e+00	0	44	0	1163919360	64	4529
2026-01-23 22:53:41.74	145.96	12.11	-46.7	-48.5	18.0	0.00e+00	0	44	0	1166016512	64	4586
2026-01-23 22:53:42.75	146.07	12.03	-46.2	-47.8	18.7	0.00e+00	0	43	0	1168113664	64	4242
2026-01-23 22:53:43.76	146.19	11.96	-46.4	-48.1	18.4	0.00e+00	0	44	0	1170210816	64	4374
2026-01-23 22:53:44.76	146.30	11.88	-46.4	-48.1	18.5	0.00e+00	0	44	0	1172307968	64	4349
2026-01-23 22:53:45.77	146.41	11.80	-46.4	-48.1	18.5	0.00e+00	0	44	0	1173356544	64	4351
2026-01-23 22:53:46.78	146.53	11.73	-46.4	-48.1	18.4	0.00e+00	0	44	0	1175453696	64	4369
2026-01-23 22:53:47.79	146.64	11.65	-46.2	-47.8	18.7	0.00e+00	0	44	0	1177550848	64	4231
2026-01-23 22:53:48.80	146.75	11.57	-45.9	-47.4	19.1	0.00e+00	0	44	0	1179648000	63	4278
2026-01-23 22:53:49.81	146.86	11.50	-45.9	-47.5	19.1	0.00e+00	0	43	0	1181745152	63	4304
2026-01-23 22:53:50.81	146.97	11.42	-45.9	-47.4	19.2	0.00e+00	0	44	0	1182793728	63	4252
2026-01-23 22:53:51.82	147.08	11.35	-45.8	-47.2	19.3	0.00e+00	0	44	0	1184890880	63	4190
2026-01-23 22:53:52.83	147.19	11.27	-45.7	-47.2	19.4	0.00e+00	0	44	0	1186988032	63	4166
2026-01-23 22:53:53.83	147.30	11.20	-45.9	-47.4	19.2	0.00e+00	0	44	0	1189085184	63	4280
2026-01-23 22:53:54.84	147.40	11.12	-45.9	-47.4	19.1	0.00e+00	0	44	0	1191182336	63	4260
2026-01-23 22:53:55.85	147.51	11.04	-45.8	-47.4	19.2	0.00e+00	0	44	0	1192230912	63	4247
2026-01-23 22:53:56.86	147.62	10.97	-45.8	-47.3	19.3	0.00e+00	0	44	0	1194328064	63	4212
2026-01-23 22:53:57.87	147.73	10.89	-45.6	-47.1	19.5	0.00e+00	0	44	0	1196425216	63	4110
2026-01-23 22:53:58.87	147.83	10.82	-45.9	-47.5	19.0	0.00e+00	0	44	0	1198522368	63	4316
2026-01-23 22:53:59.88	147.94	10.75	-46.0	-47.6	19.0	0.00e+00	0	44	0	1200619520	63	4354
2026-01-23 22:54:00.89	148.04	10.67	-46.1	-47.7	18.9	0.00e+00	0	44	0	1201668096	63	4416
2026-01-23 22:54:01.90	148.14	10.60	-46.2	-47.8	18.8	0.00e+00	0	44	0	1203765248	63	4459
2026-01-23 22:54:02.90	148.25	10.52	-46.2	-47.8	18.8	0.00e+00	0	44	0	1205862400	63	4457
2026-01-23 22:54:03.91	148.35	10.45	-46.1	-47.7	18.9	0.00e+00	0	44	0	1207959552	63	4401
2026-01-23 22:54:04.92	148.45	10.37	-46.1	-47.7	18.9	0.00e+00	0	44	0	1210056704	63	4405
2026-01-23 22:54:05.93	148.56	10.30	-46.1	-47.6	18.9	0.00e+00	0	44	0	1211105280	63	4390
2026-01-23 22:54:06.94	148.66	10.23	-46.0	-47.5	19.0	0.00e+00	0	44	0	1213202432	63	4329
2026-01-23 22:54:07.95	148.76	10.15	-46.0	-47.6	18.9	0.00e+00	0	44	0	1215299584	63	4371
2026-01-23 22:54:08.95	148.86	10.08	-46.0	-47.6	18.9	0.00e+00	0	44	0	1217396736	63	4357
2026-01-23 22:54:09.96	148.96	10.01	-45.9	-47.4	19.1	0.00e+00	0	44	0	1219493888	63	4282
2026-01-23 22:54:10.97	149.06	9.93	-45.9	-47.4	19.1	0.00e+00	0	44	0	1220542464	63	4270
2026-01-23 22:54:11.98	149.16	9.86	-45.9	-47.4	19.1	0.00e+00	0	44	0	1222639616	63	4268
2026-01-23 22:54:12.99	149.26	9.79	-45.7	-47.2	19.3	0.00e+00	0	43	0	1224736768	63	4174
2026-01-23 22:54:13.99	149.36	9.71	-45.7	-47.2	19.3	0.00e+00	0	43	0	1226833920	63	4166
2026-01-23 22:54:15.00	149.46	9.64	-45.8	-47.3	19.2	0.00e+00	0	44	0	1228931072	63	4212
2026-01-23 22:54:16.01	149.55	9.57	-45.9	-47.5	19.0	0.00e+00	0	44	0	1229979648	63	4308
2026-01-23 22:54:17.02	149.65	9.50	-45.9	-47.5	19.0	0.00e+00	0	44	0	1232076800	63	4293
2026-01-23 22:54:18.03	149.75	9.42	-46.0	-47.6	18.9	0.00e+00	0	44	0	1234173952	63	4366
2026-01-23 22:54:19.03	149.84	9.35	-46.0	-47.6	18.9	0.00e+00	0	44	0	1236271104	63	4371
