passes_logs/2026/01/23/R3.2S_Murmansk/R3.2S_Murmansk__20260123_111628_FENGYUN_3D_rec.log

#Pass ID: 20260123_111628_FENGYUN 3D
#Satellite: FENGYUN 3D
#Configuration: FENGYUN 3D
#almurnet v.1.7.20251203
#Start time: 2026-01-23 11:16:28

#Version: 2.2.20231116
#Station: R3.2S_Murmansk
#Location: 33.079688 lon 68.888172 lat
#TLE: 1 43010U 17072A   26022.47411728  .00000617  00000+0  31375-3 0  9996
#TLE: 2 43010  98.9952 354.4060 0002481  95.7964 264.3494 14.19699924424319

#Time	Az	El	Level	Level2	SNR	BER	BlckErr	Temp	State	Recorded	gain1	gain2
2026-01-23 11:16:28.90	144.30	2.02	-54.2	-66.2	3.8	8.46e-01	0	40	0	0	79	14822
2026-01-23 11:16:29.91	144.29	2.09	-54.3	-66.3	3.8	8.46e-01	0	40	104	0	79	14937
2026-01-23 11:16:30.91	144.29	2.15	-54.3	-66.3	3.8	8.46e-01	0	40	104	0	79	14930
2026-01-23 11:16:31.92	144.28	2.22	-54.3	-66.3	3.8	8.47e-01	0	41	104	0	79	14880
2026-01-23 11:16:32.93	144.28	2.28	-54.3	-66.2	3.8	8.46e-01	0	40	104	0	79	14873
2026-01-23 11:16:33.94	144.28	2.35	-54.3	-66.2	3.8	8.47e-01	0	41	104	0	79	14806
2026-01-23 11:16:34.95	144.27	2.41	-54.4	-66.4	3.8	8.47e-01	0	41	104	0	79	15124
2026-01-23 11:16:35.96	144.27	2.48	-54.5	-66.5	3.8	8.46e-01	0	41	104	0	79	15292
2026-01-23 11:16:36.96	144.26	2.54	-54.5	-66.5	3.8	8.47e-01	0	41	104	0	79	15300
2026-01-23 11:16:37.97	144.26	2.61	-54.5	-66.5	3.8	8.45e-01	0	41	104	0	79	15335
2026-01-23 11:16:38.98	144.25	2.68	-54.5	-66.5	3.8	8.46e-01	0	41	104	0	79	15258
2026-01-23 11:16:39.99	144.25	2.74	-54.5	-66.4	3.8	8.46e-01	0	41	104	0	79	15216
2026-01-23 11:16:40.99	144.24	2.81	-54.4	-66.4	3.8	8.46e-01	0	41	104	0	79	15185
2026-01-23 11:16:42.00	144.24	2.88	-54.4	-66.4	3.8	8.47e-01	0	41	104	0	79	15143
2026-01-23 11:16:43.01	144.23	2.94	-54.4	-66.4	3.8	8.46e-01	0	41	104	0	79	15097
2026-01-23 11:16:44.02	144.23	3.01	-54.4	-66.3	3.8	8.46e-01	0	41	104	0	79	15039
2026-01-23 11:16:45.03	144.22	3.08	-54.3	-66.3	3.8	8.47e-01	0	41	104	0	79	14940
2026-01-23 11:16:46.04	144.22	3.14	-54.2	-66.2	3.8	8.46e-01	0	41	104	0	79	14806
2026-01-23 11:16:47.04	144.21	3.21	-54.2	-66.1	3.8	8.45e-01	0	41	104	0	79	14679
2026-01-23 11:16:48.05	144.21	3.28	-54.1	-66.1	3.8	8.45e-01	0	41	104	0	79	14543
2026-01-23 11:16:49.06	144.20	3.35	-54.0	-66.0	3.8	8.46e-01	0	41	104	0	79	14443
2026-01-23 11:16:50.07	144.20	3.42	-53.9	-65.9	3.8	8.46e-01	0	41	104	0	79	14279
2026-01-23 11:16:51.07	144.19	3.48	-53.8	-65.7	3.8	8.45e-01	0	41	104	0	79	14044
2026-01-23 11:16:52.08	144.18	3.55	-53.6	-65.6	3.8	8.45e-01	0	41	104	0	79	13751
2026-01-23 11:16:53.09	144.18	3.62	-53.5	-65.5	3.8	8.47e-01	0	41	104	0	79	13585
2026-01-23 11:16:54.10	144.17	3.69	-53.3	-65.2	3.8	8.46e-01	0	41	104	0	78	13969
2026-01-23 11:16:55.11	144.17	3.76	-53.0	-64.9	3.8	8.47e-01	0	41	104	0	78	13490
2026-01-23 11:16:56.11	144.16	3.83	-52.4	-63.1	3.8	8.48e-01	0	41	104	0	76	12336
2026-01-23 11:16:57.12	144.16	3.90	-52.3	-63.2	3.8	8.46e-01	0	41	104	0	76	12435
2026-01-23 11:16:58.13	144.15	3.97	-52.1	-61.5	4.0	8.43e-01	0	41	104	0	76	10237
2026-01-23 11:16:59.14	144.15	4.04	-51.7	-59.1	4.8	8.21e-01	0	41	0	0	75	8196
2026-01-23 11:17:00.15	144.14	4.11	-50.9	-56.0	7.0	3.42e-01	0	41	0	3145728	73	6434
2026-01-23 11:17:01.16	144.13	4.18	-50.1	-54.0	9.0	5.44e-02	0	41	0	9437184	72	5422
2026-01-23 11:17:02.16	144.13	4.24	-49.2	-52.3	11.0	1.01e-02	0	41	0	14680064	70	4985
2026-01-23 11:17:03.17	144.12	4.32	-48.1	-50.5	12.7	2.08e-04	0	41	0	19922944	68	4585
2026-01-23 11:17:04.18	144.12	4.39	-47.0	-48.9	14.3	4.50e-06	0	41	0	26214400	66	4289
2026-01-23 11:17:05.19	144.11	4.46	-46.3	-48.1	15.2	0.00e+00	0	41	0	31457280	64	4342
2026-01-23 11:17:06.20	144.11	4.53	-45.2	-46.7	16.7	0.00e+00	0	41	0	37748736	62	4150
2026-01-23 11:17:07.21	144.10	4.60	-45.1	-46.5	16.9	0.00e+00	0	42	0	42991616	62	4054
2026-01-23 11:17:08.22	144.09	4.67	-44.1	-45.4	17.9	0.00e+00	0	42	0	49283072	60	4024
2026-01-23 11:17:09.22	144.09	4.74	-44.1	-45.3	18.2	0.00e+00	0	41	0	54525952	59	4241
2026-01-23 11:17:10.23	144.08	4.81	-43.9	-45.1	18.5	0.00e+00	0	42	0	59768832	59	4126
2026-01-23 11:17:11.24	144.08	4.88	-43.3	-44.4	19.2	0.00e+00	0	41	0	66060288	58	4029
2026-01-23 11:17:12.25	144.07	4.96	-43.9	-45.1	18.5	0.00e+00	0	42	0	71303168	58	4367
2026-01-23 11:17:13.26	144.06	5.03	-44.1	-45.3	18.3	0.00e+00	0	42	0	76546048	58	4481
2026-01-23 11:17:14.27	144.06	5.10	-44.2	-45.5	18.2	0.00e+00	0	42	0	82837504	59	4302
2026-01-23 11:17:15.28	144.05	5.17	-45.6	-47.1	16.3	0.00e+00	0	42	0	88080384	63	4101
2026-01-23 11:17:16.28	144.04	5.25	-49.5	-52.8	10.2	1.77e-02	0	42	0	94371840	70	5321
2026-01-23 11:17:17.29	144.04	5.32	-44.7	-46.0	17.3	0.00e+00	0	42	0	99614720	61	4087
2026-01-23 11:17:18.30	144.03	5.39	-46.9	-48.8	14.3	6.86e-05	0	42	0	105906176	65	4482
2026-01-23 11:17:19.31	144.02	5.47	-44.2	-45.4	17.9	0.00e+00	0	42	0	111149056	60	4031
2026-01-23 11:17:20.32	144.02	5.54	-44.4	-45.7	17.9	0.00e+00	0	42	0	117440512	59	4418
2026-01-23 11:17:21.32	144.01	5.61	-44.2	-45.4	18.2	0.00e+00	0	42	0	122683392	59	4281
2026-01-23 11:17:22.33	144.00	5.69	-44.3	-45.5	17.8	0.00e+00	0	42	0	127926272	60	4096
2026-01-23 11:17:23.34	144.00	5.76	-44.1	-45.3	18.4	0.00e+00	0	42	0	134217728	59	4199
2026-01-23 11:17:24.35	143.99	5.84	-44.4	-45.6	18.1	0.00e+00	0	42	0	139460608	59	4369
2026-01-23 11:17:25.36	143.98	5.91	-43.7	-44.9	18.8	0.00e+00	0	42	0	144703488	59	4021
2026-01-23 11:17:26.36	143.98	5.99	-43.7	-44.9	18.9	0.00e+00	0	42	0	150994944	58	4243
2026-01-23 11:17:27.37	143.97	6.06	-43.3	-44.4	19.3	0.00e+00	0	42	0	156237824	58	4029
2026-01-23 11:17:28.38	143.96	6.14	-43.6	-44.7	19.1	0.00e+00	0	42	0	161480704	58	4173
2026-01-23 11:17:29.39	143.96	6.21	-43.2	-44.3	19.5	0.00e+00	0	42	0	167772160	58	3970
2026-01-23 11:17:30.40	143.95	6.29	-43.0	-44.1	19.7	0.00e+00	0	42	0	174063616	58	3884
2026-01-23 11:17:31.41	143.94	6.36	-43.2	-44.2	19.6	0.00e+00	0	42	0	179306496	58	3942
2026-01-23 11:17:32.42	143.93	6.44	-43.1	-44.1	19.7	0.00e+00	0	42	0	184549376	58	3898
2026-01-23 11:17:33.43	143.93	6.52	-43.0	-44.0	19.8	0.00e+00	0	42	0	190840832	57	4098
2026-01-23 11:17:34.44	143.92	6.59	-43.0	-44.1	19.8	0.00e+00	0	42	0	196083712	57	4111
2026-01-23 11:17:35.44	143.91	6.67	-43.1	-44.2	19.7	0.00e+00	0	42	0	202375168	57	4149
2026-01-23 11:17:36.45	143.91	6.75	-42.8	-43.8	20.0	0.00e+00	0	42	0	207618048	57	3993
2026-01-23 11:17:37.46	143.90	6.82	-43.0	-44.1	19.9	0.00e+00	0	42	0	212860928	57	4103
2026-01-23 11:17:38.47	143.89	6.90	-42.9	-43.9	20.0	0.00e+00	0	42	0	219152384	57	4020
2026-01-23 11:17:39.47	143.88	6.98	-43.0	-44.1	19.8	0.00e+00	0	42	0	224395264	57	4104
2026-01-23 11:17:40.48	143.87	7.06	-42.8	-43.9	20.1	0.00e+00	0	42	0	229638144	57	4007
2026-01-23 11:17:41.49	143.87	7.13	-42.8	-43.8	20.1	0.00e+00	0	42	0	235929600	57	3979
2026-01-23 11:17:42.50	143.86	7.21	-42.8	-43.8	20.1	0.00e+00	0	42	0	242221056	57	3991
2026-01-23 11:17:43.51	143.85	7.29	-42.7	-43.7	20.2	0.00e+00	0	42	0	247463936	57	3952
2026-01-23 11:17:44.52	143.84	7.37	-42.9	-43.9	20.1	0.00e+00	0	42	0	252706816	57	4027
2026-01-23 11:17:45.52	143.84	7.45	-42.6	-43.6	20.3	0.00e+00	0	42	0	258998272	57	3913
2026-01-23 11:17:46.53	143.83	7.53	-42.7	-43.8	20.2	0.00e+00	0	42	0	264241152	57	3964
2026-01-23 11:17:47.54	143.82	7.61	-42.6	-43.6	20.3	0.00e+00	0	42	0	269484032	57	3905
2026-01-23 11:17:48.55	143.81	7.69	-42.6	-43.6	20.4	0.00e+00	0	42	0	275775488	57	3898
2026-01-23 11:17:49.56	143.80	7.77	-42.6	-43.6	20.4	0.00e+00	0	42	0	281018368	57	3896
2026-01-23 11:17:50.56	143.79	7.85	-42.5	-43.5	20.6	0.00e+00	0	42	0	287309824	57	3831
2026-01-23 11:17:51.57	143.79	7.93	-42.5	-43.5	20.5	0.00e+00	0	42	0	292552704	57	3851
2026-01-23 11:17:52.58	143.78	8.01	-42.5	-43.5	20.5	0.00e+00	0	42	0	297795584	57	3849
2026-01-23 11:17:53.59	143.77	8.09	-42.4	-43.4	20.6	0.00e+00	0	42	0	304087040	56	4039
2026-01-23 11:17:54.60	143.76	8.17	-42.6	-43.6	20.4	0.00e+00	0	42	0	310378496	56	4120
2026-01-23 11:17:55.61	143.75	8.26	-42.5	-43.5	20.6	0.00e+00	0	42	0	315621376	56	4054
2026-01-23 11:17:56.62	143.74	8.34	-42.4	-43.4	20.7	0.00e+00	0	42	0	320864256	56	4018
2026-01-23 11:17:57.63	143.73	8.42	-42.3	-43.3	20.7	0.00e+00	0	42	0	327155712	56	3979
2026-01-23 11:17:58.63	143.73	8.50	-42.4	-43.4	20.7	0.00e+00	0	42	0	332398592	56	4016
2026-01-23 11:17:59.64	143.72	8.59	-42.3	-43.3	20.8	0.00e+00	0	42	0	337641472	56	3965
2026-01-23 11:18:00.65	143.71	8.67	-42.4	-43.4	20.7	0.00e+00	0	42	0	343932928	56	4014
2026-01-23 11:18:01.66	143.70	8.75	-42.4	-43.3	20.8	0.00e+00	0	42	0	349175808	56	3996
2026-01-23 11:18:02.67	143.69	8.84	-42.2	-43.1	20.9	0.00e+00	0	42	0	354418688	56	3899
2026-01-23 11:18:03.68	143.68	8.92	-42.1	-43.1	20.9	0.00e+00	0	42	0	360710144	56	3891
2026-01-23 11:18:04.68	143.67	9.00	-42.2	-43.2	20.9	0.00e+00	0	42	0	365953024	56	3919
2026-01-23 11:18:05.69	143.66	9.09	-42.2	-43.2	20.9	0.00e+00	0	42	0	372244480	56	3915
2026-01-23 11:18:06.70	143.65	9.17	-42.3	-43.3	20.8	0.00e+00	0	42	0	377487360	56	3979
2026-01-23 11:18:07.71	143.64	9.26	-42.1	-43.0	21.0	0.00e+00	0	42	0	383778816	56	3868
2026-01-23 11:18:08.72	143.63	9.34	-42.0	-42.9	21.2	0.00e+00	0	42	0	389021696	56	3805
2026-01-23 11:18:09.73	143.62	9.43	-42.0	-43.0	21.1	0.00e+00	0	42	0	395313152	56	3836
2026-01-23 11:18:10.74	143.61	9.52	-42.0	-42.9	21.2	0.00e+00	0	42	0	400556032	56	3805
2026-01-23 11:18:11.74	143.60	9.60	-42.0	-42.9	21.1	0.00e+00	0	42	0	405798912	56	3822
2026-01-23 11:18:12.76	143.59	9.69	-42.1	-43.0	21.1	0.00e+00	0	42	0	412090368	56	3861
2026-01-23 11:18:13.76	143.58	9.78	-42.0	-43.0	21.1	0.00e+00	0	42	0	417333248	56	3828
2026-01-23 11:18:14.77	143.57	9.86	-41.9	-42.8	21.2	0.00e+00	0	42	0	422576128	55	3996
2026-01-23 11:18:15.78	143.56	9.95	-41.9	-42.8	21.2	0.00e+00	0	42	0	428867584	55	3984
2026-01-23 11:18:16.79	143.55	10.04	-41.8	-42.7	21.4	0.00e+00	0	42	0	434110464	55	3919
2026-01-23 11:18:17.80	143.54	10.13	-41.7	-42.6	21.4	0.00e+00	0	42	0	440401920	55	3906
2026-01-23 11:18:18.81	143.53	10.22	-41.7	-42.6	21.5	0.00e+00	0	42	0	445644800	55	3873
2026-01-23 11:18:19.82	143.52	10.30	-41.8	-42.7	21.3	0.00e+00	0	42	0	451936256	55	3958
2026-01-23 11:18:20.82	143.51	10.39	-41.8	-42.7	21.4	0.00e+00	0	42	0	457179136	55	3922
2026-01-23 11:18:21.83	143.50	10.48	-41.7	-42.6	21.5	0.00e+00	0	42	0	462422016	55	3887
2026-01-23 11:18:22.84	143.49	10.57	-41.6	-42.5	21.6	0.00e+00	0	42	0	468713472	55	3828
2026-01-23 11:18:23.85	143.48	10.66	-41.6	-42.5	21.5	0.00e+00	0	42	0	473956352	55	3864
2026-01-23 11:18:24.86	143.47	10.75	-41.6	-42.5	21.5	0.00e+00	0	42	0	480247808	55	3867
2026-01-23 11:18:25.86	143.46	10.84	-41.6	-42.5	21.6	0.00e+00	0	42	0	485490688	55	3838
2026-01-23 11:18:26.87	143.45	10.93	-41.7	-42.6	21.5	0.00e+00	0	42	0	490733568	55	3885
2026-01-23 11:18:27.88	143.44	11.03	-41.6	-42.5	21.5	0.00e+00	0	42	0	497025024	55	3858
2026-01-23 11:18:28.89	143.43	11.12	-41.6	-42.5	21.6	0.00e+00	0	42	0	502267904	55	3857
2026-01-23 11:18:29.90	143.41	11.21	-41.5	-42.4	21.7	0.00e+00	0	42	0	508559360	55	3817
2026-01-23 11:18:30.91	143.40	11.30	-41.5	-42.3	21.7	0.00e+00	0	42	0	513802240	54	4004
2026-01-23 11:18:31.92	143.39	11.39	-41.5	-42.4	21.7	0.00e+00	0	42	0	520093696	54	4035
2026-01-23 11:18:32.93	143.38	11.49	-41.5	-42.4	21.6	0.00e+00	0	42	0	525336576	54	4030
2026-01-23 11:18:33.94	143.37	11.58	-41.4	-42.3	21.7	0.00e+00	0	42	0	530579456	54	3996
2026-01-23 11:18:34.94	143.36	11.67	-41.5	-42.4	21.7	0.00e+00	0	42	0	536870912	54	4008
2026-01-23 11:18:35.95	143.34	11.77	-41.5	-42.4	21.7	0.00e+00	0	42	0	542113792	54	4014
2026-01-23 11:18:36.96	143.33	11.86	-41.4	-42.3	21.7	0.00e+00	0	42	0	547356672	54	3994
2026-01-23 11:18:37.97	143.32	11.96	-41.5	-42.4	21.7	0.00e+00	0	42	0	553648128	54	4018
2026-01-23 11:18:38.98	143.31	12.05	-41.5	-42.4	21.7	0.00e+00	0	42	0	558891008	54	4010
2026-01-23 11:18:39.99	143.30	12.15	-41.3	-42.2	21.9	0.00e+00	0	42	0	565182464	54	3924
2026-01-23 11:18:41.00	143.28	12.25	-41.3	-42.2	21.9	0.00e+00	0	42	0	570425344	54	3936
2026-01-23 11:18:42.00	143.27	12.34	-41.4	-42.3	21.8	0.00e+00	0	42	0	576716800	54	3982
2026-01-23 11:18:43.01	143.26	12.44	-41.5	-42.3	21.8	0.00e+00	0	42	0	581959680	54	4002
2026-01-23 11:18:44.01	143.25	12.53	-41.4	-42.3	21.8	0.00e+00	0	42	0	588251136	54	3985
2026-01-23 11:18:45.02	143.23	12.63	-41.2	-42.1	21.9	0.00e+00	0	42	0	593494016	54	3907
2026-01-23 11:18:46.03	143.22	12.73	-41.2	-42.1	22.0	0.00e+00	0	42	0	598736896	54	3903
2026-01-23 11:18:47.04	143.21	12.83	-41.3	-42.1	22.0	0.00e+00	0	42	0	605028352	54	3909
2026-01-23 11:18:48.05	143.19	12.93	-41.2	-42.1	22.0	0.00e+00	0	42	0	610271232	54	3899
2026-01-23 11:18:49.06	143.18	13.03	-41.3	-42.2	21.9	0.00e+00	0	42	0	615514112	54	3926
2026-01-23 11:18:50.07	143.17	13.13	-41.3	-42.2	21.9	0.00e+00	0	42	0	621805568	54	3935
2026-01-23 11:18:51.08	143.15	13.23	-41.2	-42.1	22.0	0.00e+00	0	42	0	627048448	54	3902
2026-01-23 11:18:52.09	143.14	13.33	-41.1	-42.0	22.1	0.00e+00	0	42	0	632291328	54	3842
2026-01-23 11:18:53.10	143.13	13.43	-41.1	-42.0	22.1	0.00e+00	0	42	0	638582784	54	3855
2026-01-23 11:18:54.11	143.11	13.53	-41.2	-42.1	22.0	0.00e+00	0	42	0	644874240	54	3878
2026-01-23 11:18:55.11	143.10	13.63	-41.2	-42.1	22.0	0.00e+00	0	42	0	650117120	54	3895
2026-01-23 11:18:56.12	143.08	13.73	-41.3	-42.2	21.9	0.00e+00	0	42	0	655360000	54	3917
2026-01-23 11:18:57.13	143.07	13.84	-41.3	-42.1	22.0	0.00e+00	0	42	0	661651456	54	3912
2026-01-23 11:18:58.14	143.06	13.94	-41.3	-42.2	21.9	0.00e+00	0	42	0	666894336	54	3942
2026-01-23 11:18:59.15	143.04	14.04	-41.3	-42.2	21.9	0.00e+00	0	42	0	673185792	54	3933
2026-01-23 11:19:00.15	143.03	14.14	-41.2	-42.1	22.0	0.00e+00	0	42	0	678428672	54	3905
2026-01-23 11:19:01.16	143.01	14.25	-41.1	-41.9	22.1	0.00e+00	0	42	0	683671552	54	3824
2026-01-23 11:19:02.17	143.00	14.35	-41.0	-41.9	22.2	0.00e+00	0	42	0	689963008	54	3814
2026-01-23 11:19:03.18	142.98	14.46	-41.0	-41.9	22.2	0.00e+00	0	42	0	695205888	54	3810
2026-01-23 11:19:04.19	142.97	14.56	-40.9	-41.8	22.3	0.00e+00	0	42	0	700448768	53	3983
2026-01-23 11:19:05.20	142.95	14.67	-40.9	-41.8	22.3	0.00e+00	0	42	0	706740224	53	3980
2026-01-23 11:19:06.21	142.94	14.78	-41.0	-41.9	22.2	0.00e+00	0	42	0	713031680	53	4025
2026-01-23 11:19:07.22	142.92	14.88	-40.9	-41.8	22.3	0.00e+00	0	42	0	718274560	53	3973
2026-01-23 11:19:08.23	142.91	14.99	-40.8	-41.7	22.4	0.00e+00	0	42	0	723517440	53	3914
2026-01-23 11:19:09.24	142.89	15.10	-40.7	-41.5	22.6	0.00e+00	0	42	0	729808896	53	3856
2026-01-23 11:19:10.25	142.87	15.21	-40.8	-41.7	22.4	0.00e+00	0	42	0	735051776	53	3940
2026-01-23 11:19:11.25	142.86	15.32	-40.7	-41.6	22.5	0.00e+00	0	42	0	740294656	53	3871
2026-01-23 11:19:12.26	142.84	15.43	-40.6	-41.5	22.6	0.00e+00	0	42	0	746586112	53	3836
2026-01-23 11:19:13.27	142.83	15.54	-40.7	-41.5	22.6	0.00e+00	0	43	0	751828992	53	3855
2026-01-23 11:19:14.28	142.81	15.65	-40.6	-41.4	22.7	0.00e+00	0	42	0	758120448	53	3806
2026-01-23 11:19:15.29	142.79	15.76	-40.5	-41.3	22.8	0.00e+00	0	42	0	763363328	53	3770
2026-01-23 11:19:16.30	142.78	15.87	-40.4	-41.3	22.8	0.00e+00	0	42	0	769654784	52	3969
2026-01-23 11:19:17.31	142.76	15.98	-40.4	-41.2	22.8	0.00e+00	0	42	0	774897664	52	3951
2026-01-23 11:19:18.32	142.74	16.09	-40.2	-41.0	23.0	0.00e+00	0	42	0	781189120	52	3867
2026-01-23 11:19:19.33	142.72	16.21	-40.2	-41.0	23.0	0.00e+00	0	42	0	786432000	52	3867
2026-01-23 11:19:20.34	142.71	16.32	-40.2	-41.1	23.0	0.00e+00	0	42	0	791674880	52	3873
2026-01-23 11:19:21.34	142.69	16.43	-40.1	-40.9	23.1	0.00e+00	0	42	0	797966336	52	3824
2026-01-23 11:19:22.35	142.67	16.55	-40.1	-40.9	23.1	0.00e+00	0	42	0	803209216	52	3819
2026-01-23 11:19:23.36	142.65	16.66	-40.0	-40.8	23.2	0.00e+00	0	42	0	808452096	52	3769
2026-01-23 11:19:24.37	142.64	16.78	-40.0	-40.8	23.3	0.00e+00	0	42	0	814743552	51	3995
2026-01-23 11:19:25.38	142.62	16.90	-40.0	-40.8	23.3	0.00e+00	0	42	0	819986432	51	4002
2026-01-23 11:19:26.39	142.60	17.01	-40.0	-40.8	23.4	0.00e+00	0	42	0	825229312	51	3960
2026-01-23 11:19:27.40	142.58	17.13	-40.0	-40.8	23.3	0.00e+00	0	42	0	831520768	51	3984
2026-01-23 11:19:28.41	142.56	17.25	-40.0	-40.8	23.4	0.00e+00	0	42	0	837812224	51	3988
2026-01-23 11:19:29.42	142.54	17.37	-40.1	-40.9	23.3	0.00e+00	0	42	0	843055104	51	4005
2026-01-23 11:19:30.43	142.52	17.48	-39.9	-40.6	23.5	0.00e+00	0	42	0	848297984	51	3911
2026-01-23 11:19:31.44	142.51	17.60	-39.9	-40.7	23.5	0.00e+00	0	42	0	854589440	51	3917
2026-01-23 11:19:32.44	142.49	17.72	-39.8	-40.6	23.5	0.00e+00	0	42	0	859832320	51	3888
2026-01-23 11:19:33.45	142.47	17.84	-39.8	-40.6	23.5	0.00e+00	0	43	0	866123776	51	3895
2026-01-23 11:19:34.46	142.45	17.97	-39.8	-40.6	23.5	0.00e+00	0	42	0	871366656	51	3892
2026-01-23 11:19:35.47	142.43	18.09	-39.8	-40.6	23.5	0.00e+00	0	42	0	876609536	51	3908
2026-01-23 11:19:36.47	142.41	18.21	-39.7	-40.5	23.6	0.00e+00	0	42	0	882900992	51	3850
2026-01-23 11:19:37.48	142.39	18.33	-39.7	-40.5	23.6	0.00e+00	0	42	0	888143872	51	3858
2026-01-23 11:19:38.49	142.37	18.46	-39.7	-40.5	23.6	0.00e+00	0	42	0	893386752	51	3830
2026-01-23 11:19:39.50	142.35	18.58	-39.8	-40.6	23.5	0.00e+00	0	42	0	899678208	51	3902
2026-01-23 11:19:40.50	142.32	18.70	-39.7	-40.5	23.7	0.00e+00	0	42	0	905969664	51	3834
2026-01-23 11:19:41.51	142.30	18.83	-39.7	-40.5	23.6	0.00e+00	0	43	0	911212544	51	3857
2026-01-23 11:19:42.52	142.28	18.96	-39.7	-40.5	23.6	0.00e+00	0	42	0	916455424	51	3857
2026-01-23 11:19:43.53	142.26	19.08	-39.7	-40.5	23.6	0.00e+00	0	42	0	922746880	51	3863
2026-01-23 11:19:44.54	142.24	19.21	-39.7	-40.4	23.7	0.00e+00	0	42	0	927989760	51	3818
2026-01-23 11:19:45.54	142.22	19.34	-39.6	-40.4	23.7	0.00e+00	0	42	0	933232640	51	3809
2026-01-23 11:19:46.55	142.19	19.47	-39.7	-40.5	23.7	0.00e+00	0	42	0	939524096	51	3826
2026-01-23 11:19:47.56	142.17	19.60	-39.6	-40.4	23.7	0.00e+00	0	42	0	944766976	51	3805
2026-01-23 11:19:48.57	142.15	19.73	-39.6	-40.4	23.7	0.00e+00	0	42	0	951058432	51	3804
2026-01-23 11:19:49.58	142.13	19.86	-39.6	-40.4	23.7	0.00e+00	0	43	0	956301312	51	3807
2026-01-23 11:19:50.58	142.10	19.99	-39.6	-40.3	23.8	0.00e+00	0	42	0	961544192	51	3779
2026-01-23 11:19:51.59	142.08	20.12	-39.5	-40.3	23.8	0.00e+00	0	42	0	967835648	51	3746
2026-01-23 11:19:52.60	142.06	20.25	-39.5	-40.3	23.8	0.00e+00	0	42	0	974127104	51	3752
2026-01-23 11:19:53.61	142.03	20.39	-39.4	-40.2	23.9	0.00e+00	0	42	0	979369984	50	3947
2026-01-23 11:19:54.62	142.01	20.52	-39.6	-40.3	23.8	0.00e+00	0	42	0	984612864	50	4001
2026-01-23 11:19:55.62	141.99	20.65	-39.4	-40.2	23.9	0.00e+00	0	42	0	990904320	50	3933
2026-01-23 11:19:56.63	141.96	20.79	-39.4	-40.2	23.9	0.00e+00	0	42	0	996147200	50	3921
2026-01-23 11:19:57.64	141.94	20.93	-39.3	-40.0	24.0	0.00e+00	0	43	0	1001390080	50	3864
2026-01-23 11:19:58.64	141.91	21.06	-39.3	-40.0	24.1	0.00e+00	0	42	0	1007681536	50	3858
2026-01-23 11:19:59.65	141.89	21.20	-39.2	-40.0	24.1	0.00e+00	0	42	0	1012924416	50	3848
2026-01-23 11:20:00.66	141.86	21.34	-39.3	-40.1	24.0	0.00e+00	0	42	0	1018167296	50	3885
2026-01-23 11:20:01.66	141.84	21.48	-39.2	-39.9	24.2	0.00e+00	0	42	0	1024458752	50	3810
2026-01-23 11:20:02.67	141.81	21.62	-39.2	-40.0	24.1	0.00e+00	0	42	0	1029701632	50	3848
2026-01-23 11:20:03.68	141.78	21.76	-39.1	-39.9	24.3	0.00e+00	0	42	0	1035993088	50	3786
2026-01-23 11:20:04.69	141.76	21.90	-39.0	-39.7	24.4	0.00e+00	0	42	0	1041235968	50	3731
2026-01-23 11:20:05.69	141.73	22.04	-39.0	-39.7	24.4	0.00e+00	0	42	0	1047527424	49	3947
2026-01-23 11:20:06.70	141.70	22.19	-38.8	-39.5	24.5	0.00e+00	0	42	0	1052770304	49	3857
2026-01-23 11:20:07.71	141.68	22.33	-38.7	-39.5	24.6	0.00e+00	0	42	0	1059061760	49	3829
2026-01-23 11:20:08.72	141.65	22.48	-38.8	-39.5	24.5	0.00e+00	0	42	0	1064304640	49	3861
2026-01-23 11:20:09.72	141.62	22.62	-38.6	-39.4	24.7	0.00e+00	0	43	0	1069547520	49	3783
2026-01-23 11:20:10.73	141.59	22.77	-38.6	-39.4	24.7	0.00e+00	0	42	0	1075838976	49	3786
2026-01-23 11:20:11.74	141.56	22.91	-38.7	-39.4	24.6	0.00e+00	0	42	0	1081081856	49	3813
2026-01-23 11:20:12.75	141.53	23.06	-38.6	-39.4	24.6	0.00e+00	0	43	0	1086324736	49	3795
2026-01-23 11:20:13.76	141.51	23.21	-38.6	-39.4	24.7	0.00e+00	0	42	0	1092616192	49	3788
2026-01-23 11:20:14.76	141.48	23.36	-38.6	-39.4	24.7	0.00e+00	0	42	0	1097859072	49	3785
2026-01-23 11:20:15.78	141.45	23.51	-38.6	-39.3	24.7	0.00e+00	0	43	0	1104150528	49	3776
2026-01-23 11:20:16.78	141.42	23.66	-38.7	-39.4	24.6	0.00e+00	0	43	0	1109393408	49	3809
2026-01-23 11:20:17.79	141.39	23.82	-38.7	-39.5	24.6	0.00e+00	0	42	0	1114636288	49	3829
2026-01-23 11:20:18.80	141.35	23.97	-38.8	-39.6	24.5	0.00e+00	0	42	0	1120927744	49	3876
2026-01-23 11:20:19.81	141.32	24.13	-38.9	-39.6	24.5	0.00e+00	0	43	0	1126170624	49	3904
2026-01-23 11:20:20.82	141.29	24.28	-38.8	-39.6	24.5	0.00e+00	0	42	0	1132462080	49	3874
2026-01-23 11:20:21.82	141.26	24.44	-38.9	-39.7	24.4	0.00e+00	0	42	0	1137704960	49	3930
2026-01-23 11:20:22.83	141.23	24.59	-39.0	-39.8	24.4	0.00e+00	0	42	0	1143996416	49	3966
2026-01-23 11:20:23.84	141.20	24.75	-38.9	-39.7	24.4	0.00e+00	0	43	0	1149239296	49	3929
2026-01-23 11:20:24.85	141.16	24.91	-39.0	-39.8	24.3	0.00e+00	0	42	0	1154482176	49	3972
2026-01-23 11:20:25.86	141.13	25.07	-39.0	-39.7	24.4	0.00e+00	0	42	0	1160773632	49	3948
2026-01-23 11:20:26.87	141.10	25.23	-39.0	-39.8	24.4	0.00e+00	0	42	0	1166016512	49	3960
2026-01-23 11:20:27.87	141.06	25.39	-38.9	-39.7	24.4	0.00e+00	0	42	0	1171259392	49	3926
2026-01-23 11:20:28.88	141.03	25.55	-39.0	-39.8	24.4	0.00e+00	0	43	0	1177550848	49	3965
2026-01-23 11:20:29.89	140.99	25.72	-38.8	-39.5	24.6	0.00e+00	0	42	0	1182793728	49	3854
2026-01-23 11:20:30.90	140.96	25.88	-38.6	-39.4	24.7	0.00e+00	0	42	0	1189085184	49	3794
2026-01-23 11:20:31.91	140.92	26.05	-38.6	-39.3	24.8	0.00e+00	0	43	0	1194328064	49	3766
2026-01-23 11:20:32.91	140.89	26.22	-38.6	-39.3	24.7	0.00e+00	0	43	0	1200619520	49	3764
2026-01-23 11:20:33.92	140.85	26.38	-38.6	-39.4	24.7	0.00e+00	0	42	0	1205862400	49	3790
2026-01-23 11:20:34.93	140.81	26.55	-38.6	-39.3	24.8	0.00e+00	0	42	0	1212153856	49	3758
2026-01-23 11:20:35.94	140.78	26.72	-38.5	-39.3	24.8	0.00e+00	0	42	0	1217396736	49	3750
2026-01-23 11:20:36.95	140.74	26.89	-38.6	-39.3	24.8	0.00e+00	0	43	0	1222639616	49	3767
2026-01-23 11:20:37.96	140.70	27.07	-38.6	-39.4	24.7	0.00e+00	0	42	0	1228931072	49	3804
2026-01-23 11:20:38.97	140.66	27.24	-38.6	-39.3	24.8	0.00e+00	0	42	0	1234173952	49	3774
2026-01-23 11:20:39.98	140.62	27.41	-38.5	-39.3	24.8	0.00e+00	0	42	0	1239416832	49	3756
2026-01-23 11:20:40.98	140.58	27.59	-38.6	-39.3	24.8	0.00e+00	0	42	0	1245708288	49	3765
2026-01-23 11:20:41.99	140.54	27.76	-38.6	-39.3	24.8	0.00e+00	0	42	0	1250951168	49	3771
2026-01-23 11:20:43.00	140.50	27.94	-38.4	-39.2	24.9	0.00e+00	0	43	0	1257242624	48	3919
2026-01-23 11:20:44.01	140.46	28.12	-38.4	-39.2	24.9	0.00e+00	0	43	0	1262485504	48	3929
2026-01-23 11:20:45.02	140.42	28.30	-38.5	-39.2	24.9	0.00e+00	0	42	0	1268776960	48	3953
2026-01-23 11:20:46.02	140.38	28.48	-38.3	-39.1	25.0	0.00e+00	0	42	0	1274019840	48	3884
2026-01-23 11:20:47.03	140.34	28.66	-38.3	-39.0	25.1	0.00e+00	0	42	0	1279262720	48	3846
2026-01-23 11:20:48.04	140.29	28.85	-38.2	-38.9	25.2	0.00e+00	0	43	0	1285554176	48	3806
2026-01-23 11:20:49.04	140.25	29.03	-38.1	-38.9	25.2	0.00e+00	0	43	0	1290797056	48	3793
2026-01-23 11:20:50.05	140.21	29.22	-38.2	-38.9	25.1	0.00e+00	0	43	0	1297088512	48	3813
2026-01-23 11:20:51.06	140.16	29.40	-38.1	-38.8	25.2	0.00e+00	0	42	0	1302331392	48	3748
2026-01-23 11:20:52.07	140.12	29.59	-38.0	-38.8	25.2	0.00e+00	0	42	0	1307574272	48	3751
2026-01-23 11:20:53.08	140.07	29.78	-38.1	-38.8	25.2	0.00e+00	0	42	0	1313865728	48	3778
2026-01-23 11:20:54.08	140.02	29.97	-38.1	-38.8	25.2	0.00e+00	0	43	0	1319108608	48	3772
2026-01-23 11:20:55.09	139.98	30.16	-38.1	-38.9	25.2	0.00e+00	0	42	0	1324351488	48	3781
2026-01-23 11:20:56.10	139.93	30.36	-38.1	-38.9	25.1	0.00e+00	0	42	0	1330642944	48	3789
2026-01-23 11:20:57.11	139.88	30.55	-38.0	-38.8	25.2	0.00e+00	0	43	0	1336934400	48	3746
2026-01-23 11:20:58.11	139.83	30.74	-38.1	-38.8	25.2	0.00e+00	0	43	0	1342177280	48	3765
2026-01-23 11:20:59.12	139.78	30.94	-38.0	-38.8	25.2	0.00e+00	0	43	0	1347420160	48	3759
2026-01-23 11:21:00.13	139.73	31.14	-37.7	-38.4	25.0	0.00e+00	0	42	0	1353711616	47	3814
2026-01-23 11:21:01.14	139.68	31.34	-37.6	-38.4	25.0	0.00e+00	0	42	0	1358954496	47	3784
2026-01-23 11:21:02.15	139.63	31.54	-37.5	-38.3	25.1	0.00e+00	0	42	0	1364197376	47	3742
2026-01-23 11:21:03.16	139.58	31.74	-37.5	-38.2	25.2	0.00e+00	0	43	0	1370488832	46	3936
2026-01-23 11:21:04.16	139.53	31.95	-37.4	-38.2	25.2	0.00e+00	0	42	0	1375731712	46	3927
2026-01-23 11:21:05.17	139.47	32.15	-37.5	-38.3	25.2	0.00e+00	0	42	0	1382023168	46	3959
2026-01-23 11:21:06.18	139.42	32.36	-37.5	-38.2	25.2	0.00e+00	0	43	0	1387266048	46	3953
2026-01-23 11:21:07.19	139.36	32.57	-37.3	-38.1	25.3	0.00e+00	0	43	0	1392508928	46	3882
2026-01-23 11:21:08.19	139.31	32.77	-37.4	-38.2	25.2	0.00e+00	0	42	0	1398800384	46	3915
2026-01-23 11:21:09.20	139.25	32.98	-37.4	-38.2	25.2	0.00e+00	0	43	0	1405091840	46	3928
2026-01-23 11:21:10.21	139.19	33.20	-37.4	-38.1	25.3	0.00e+00	0	43	0	1410334720	46	3895
2026-01-23 11:21:11.22	139.14	33.41	-37.4	-38.2	25.2	0.00e+00	0	42	0	1415577600	46	3922
2026-01-23 11:21:12.23	139.08	33.63	-37.5	-38.3	25.2	0.00e+00	0	43	0	1421869056	46	3974
2026-01-23 11:21:13.24	139.02	33.84	-37.5	-38.3	25.2	0.00e+00	0	42	0	1427111936	46	3966
2026-01-23 11:21:14.24	138.96	34.06	-37.5	-38.3	25.2	0.00e+00	0	43	0	1432354816	46	3960
2026-01-23 11:21:15.25	138.90	34.28	-37.4	-38.1	25.4	0.00e+00	0	42	0	1438646272	46	3893
2026-01-23 11:21:16.27	138.83	34.50	-37.3	-38.0	25.5	0.00e+00	0	42	0	1443889152	46	3852
2026-01-23 11:21:17.27	138.77	34.72	-37.2	-38.0	25.5	0.00e+00	0	42	0	1449132032	46	3830
2026-01-23 11:21:18.28	138.71	34.95	-36.9	-37.7	25.7	0.00e+00	0	42	0	1455423488	45	3916
2026-01-23 11:21:19.29	138.64	35.17	-36.9	-37.6	25.8	0.00e+00	0	42	0	1460666368	45	3899
2026-01-23 11:21:20.30	138.58	35.40	-36.9	-37.6	25.8	0.00e+00	0	43	0	1466957824	45	3901
2026-01-23 11:21:21.30	138.51	35.63	-37.0	-37.7	25.7	0.00e+00	0	42	0	1472200704	45	3954
2026-01-23 11:21:22.31	138.44	35.86	-37.2	-37.9	26.0	0.00e+00	0	42	0	1478492160	45	4011
2026-01-23 11:21:23.32	138.37	36.09	-37.3	-38.0	25.9	0.00e+00	0	42	0	1483735040	45	4075
2026-01-23 11:21:24.33	138.30	36.33	-37.3	-38.0	25.8	0.00e+00	0	42	0	1490026496	45	4090
2026-01-23 11:21:25.34	138.23	36.56	-37.3	-38.0	25.9	0.00e+00	0	43	0	1495269376	45	4065
2026-01-23 11:21:26.34	138.16	36.80	-37.4	-38.0	25.8	0.00e+00	0	42	0	1500512256	45	4095
2026-01-23 11:21:27.35	138.09	37.04	-37.3	-37.9	25.9	0.00e+00	0	42	0	1506803712	45	4048
2026-01-23 11:21:28.36	138.01	37.28	-37.3	-38.0	25.8	0.00e+00	0	43	0	1512046592	45	4093
2026-01-23 11:21:29.37	137.94	37.52	-37.4	-38.1	25.8	0.00e+00	0	42	0	1517289472	45	4106
2026-01-23 11:21:30.38	137.86	37.76	-37.4	-38.1	25.8	0.00e+00	0	42	0	1523580928	45	4129
2026-01-23 11:21:31.38	137.78	38.01	-37.5	-38.1	25.8	0.00e+00	0	42	0	1528823808	45	4143
2026-01-23 11:21:32.39	137.70	38.25	-37.5	-38.2	25.7	0.00e+00	0	43	0	1534066688	45	4169
2026-01-23 11:21:33.40	137.62	38.50	-37.6	-38.3	25.6	0.00e+00	0	42	0	1540358144	45	4214
2026-01-23 11:21:34.41	137.54	38.75	-37.8	-38.5	25.5	0.00e+00	0	42	0	1546649600	46	4055
2026-01-23 11:21:35.42	137.46	39.01	-37.8	-38.5	25.4	0.00e+00	0	43	0	1551892480	46	4098
2026-01-23 11:21:36.42	137.37	39.26	-37.8	-38.6	25.4	0.00e+00	0	43	0	1557135360	46	4102
2026-01-23 11:21:37.43	137.29	39.52	-37.8	-38.5	25.5	0.00e+00	0	42	0	1563426816	46	4072
2026-01-23 11:21:38.44	137.20	39.77	-37.8	-38.5	25.5	0.00e+00	0	42	0	1568669696	46	4091
2026-01-23 11:21:39.45	137.11	40.04	-37.9	-38.6	25.4	0.00e+00	0	42	0	1574961152	46	4127
2026-01-23 11:21:40.46	137.02	40.30	-37.9	-38.6	25.4	0.00e+00	0	43	0	1580204032	46	4137
2026-01-23 11:21:41.46	136.93	40.56	-38.0	-38.7	25.3	0.00e+00	0	42	0	1585446912	46	4165
2026-01-23 11:21:42.47	136.83	40.82	-38.1	-38.9	25.2	0.00e+00	0	42	0	1591738368	46	4244
2026-01-23 11:21:43.48	136.74	41.09	-38.1	-38.8	25.2	0.00e+00	0	42	0	1596981248	46	4219
2026-01-23 11:21:44.49	136.64	41.36	-38.1	-38.8	25.2	0.00e+00	0	43	0	1602224128	46	4240
2026-01-23 11:21:45.49	136.55	41.63	-38.0	-38.7	25.3	0.00e+00	0	42	0	1608515584	46	4179
2026-01-23 11:21:46.50	136.45	41.90	-38.0	-38.7	25.3	0.00e+00	0	42	0	1614807040	46	4184
2026-01-23 11:21:47.51	136.34	42.18	-38.2	-38.9	25.1	0.00e+00	0	42	0	1620049920	46	4261
2026-01-23 11:21:48.52	136.24	42.46	-38.3	-39.0	25.1	0.00e+00	0	42	0	1625292800	47	4067
2026-01-23 11:21:49.53	136.13	42.74	-38.1	-38.8	25.3	0.00e+00	0	43	0	1631584256	47	3967
2026-01-23 11:21:50.54	136.03	43.02	-37.9	-38.6	25.4	0.00e+00	0	42	0	1636827136	47	3895
2026-01-23 11:21:51.54	135.92	43.30	-37.8	-38.5	25.5	0.00e+00	0	43	0	1642070016	47	3858
2026-01-23 11:21:52.55	135.81	43.58	-38.0	-38.7	25.4	0.00e+00	0	43	0	1648361472	47	3923
2026-01-23 11:21:53.56	135.69	43.87	-37.9	-38.6	25.4	0.00e+00	0	43	0	1653604352	47	3878
2026-01-23 11:21:54.57	135.58	44.16	-37.9	-38.7	25.4	0.00e+00	0	43	0	1659895808	47	3914
2026-01-23 11:21:55.58	135.46	44.45	-37.7	-38.4	25.6	0.00e+00	0	42	0	1665138688	47	3819
2026-01-23 11:21:56.58	135.34	44.74	-37.6	-38.3	25.7	0.00e+00	0	42	0	1670381568	47	3760
2026-01-23 11:21:57.59	135.22	45.03	-37.7	-38.4	25.7	0.00e+00	0	42	0	1676673024	47	3784
2026-01-23 11:21:58.60	135.09	45.33	-37.9	-38.6	25.4	0.00e+00	0	43	0	1682964480	47	3884
2026-01-23 11:21:59.60	134.97	45.63	-38.1	-38.8	25.2	0.00e+00	0	43	0	1688207360	47	3984
2026-01-23 11:22:00.61	134.84	45.93	-38.4	-39.1	25.0	0.00e+00	0	43	0	1693450240	47	4134
2026-01-23 11:22:01.62	134.71	46.23	-38.4	-39.1	25.0	0.00e+00	0	42	0	1699741696	47	4130
2026-01-23 11:22:02.63	134.57	46.54	-38.4	-39.2	25.0	0.00e+00	0	42	0	1704984576	47	4148
2026-01-23 11:22:03.64	134.43	46.85	-38.3	-39.0	25.0	0.00e+00	0	43	0	1710227456	47	4098
2026-01-23 11:22:04.64	134.29	47.15	-38.0	-38.7	25.4	0.00e+00	0	42	0	1716518912	47	3940
2026-01-23 11:22:05.65	134.15	47.46	-37.9	-38.6	25.5	0.00e+00	0	42	0	1721761792	47	3885
2026-01-23 11:22:06.66	134.00	47.78	-38.0	-38.7	25.4	0.00e+00	0	42	0	1727004672	47	3931
2026-01-23 11:22:07.67	133.86	48.09	-38.2	-38.9	25.2	0.00e+00	0	42	0	1733296128	47	4015
2026-01-23 11:22:08.68	133.70	48.41	-38.2	-38.9	25.2	0.00e+00	0	42	0	1738539008	47	4041
2026-01-23 11:22:09.68	133.55	48.73	-38.2	-38.9	25.2	0.00e+00	0	43	0	1744830464	47	4048
2026-01-23 11:22:10.69	133.39	49.05	-38.4	-39.2	25.0	0.00e+00	0	42	0	1750073344	47	4152
2026-01-23 11:22:11.70	133.23	49.38	-38.6	-39.3	24.8	0.00e+00	0	42	0	1756364800	47	4224
2026-01-23 11:22:12.71	133.06	49.70	-39.1	-39.8	24.9	0.00e+00	0	42	0	1761607680	48	4225
2026-01-23 11:22:13.72	132.89	50.03	-39.0	-39.7	25.0	0.00e+00	0	42	0	1767899136	48	4188
2026-01-23 11:22:14.72	132.72	50.36	-39.0	-39.7	25.0	0.00e+00	0	42	0	1773142016	48	4160
2026-01-23 11:22:15.73	132.54	50.69	-38.9	-39.6	25.1	0.00e+00	0	42	0	1778384896	48	4123
2026-01-23 11:22:16.74	132.36	51.03	-39.0	-39.7	25.0	0.00e+00	0	43	0	1784676352	48	4156
2026-01-23 11:22:17.75	132.17	51.36	-39.1	-39.8	24.9	0.00e+00	0	42	0	1789919232	48	4223
2026-01-23 11:22:18.76	131.98	51.70	-39.3	-40.0	24.8	0.00e+00	0	42	0	1795162112	49	4081
2026-01-23 11:22:19.76	131.79	52.04	-39.4	-40.1	24.7	0.00e+00	0	42	0	1801453568	49	4124
2026-01-23 11:22:20.77	131.59	52.38	-39.5	-40.2	24.6	0.00e+00	0	43	0	1806696448	49	4164
2026-01-23 11:22:21.78	131.39	52.73	-39.4	-40.1	24.7	0.00e+00	0	43	0	1811939328	49	4143
2026-01-23 11:22:22.79	131.18	53.07	-39.5	-40.2	24.6	0.00e+00	0	43	0	1818230784	49	4177
2026-01-23 11:22:23.79	130.97	53.42	-39.6	-40.3	24.5	0.00e+00	0	42	0	1824522240	49	4216
2026-01-23 11:22:24.80	130.75	53.77	-39.5	-40.2	24.6	0.00e+00	0	42	0	1829765120	49	4183
2026-01-23 11:22:25.81	130.53	54.12	-39.4	-40.1	24.7	0.00e+00	0	43	0	1835008000	49	4114
2026-01-23 11:22:26.82	130.29	54.48	-39.5	-40.2	24.6	0.00e+00	0	43	0	1841299456	49	4173
2026-01-23 11:22:27.83	130.06	54.83	-39.6	-40.4	24.5	0.00e+00	0	42	0	1846542336	49	4245
2026-01-23 11:22:28.83	129.82	55.19	-39.6	-40.4	24.5	0.00e+00	0	43	0	1852833792	49	4248
2026-01-23 11:22:29.84	129.57	55.55	-39.6	-40.4	24.5	0.00e+00	0	43	0	1858076672	50	4017
2026-01-23 11:22:30.85	129.32	55.91	-39.7	-40.4	24.5	0.00e+00	0	43	0	1863319552	50	4040
2026-01-23 11:22:31.86	129.05	56.28	-39.5	-40.2	24.7	0.00e+00	0	43	0	1869611008	50	3925
2026-01-23 11:22:32.87	128.78	56.64	-39.1	-39.8	25.0	0.00e+00	0	42	0	1874853888	50	3755
2026-01-23 11:22:33.88	128.51	57.01	-38.6	-39.3	25.5	0.00e+00	0	42	0	1880096768	49	3740
2026-01-23 11:22:34.88	128.23	57.38	-38.4	-39.1	25.6	0.00e+00	0	42	0	1886388224	48	3902
2026-01-23 11:22:35.89	127.94	57.75	-38.5	-39.2	25.5	0.00e+00	0	43	0	1891631104	48	3931
2026-01-23 11:22:36.90	127.64	58.12	-38.9	-39.6	25.2	0.00e+00	0	42	0	1897922560	48	4102
2026-01-23 11:22:37.91	127.33	58.50	-38.8	-39.5	25.2	0.00e+00	0	43	0	1903165440	48	4093
2026-01-23 11:22:38.92	127.01	58.87	-38.7	-39.4	25.3	0.00e+00	0	43	0	1909456896	48	4025
2026-01-23 11:22:39.92	126.69	59.25	-38.8	-39.4	25.3	0.00e+00	0	43	0	1914699776	48	4047
2026-01-23 11:22:40.93	126.35	59.63	-38.7	-39.4	25.3	0.00e+00	0	42	0	1919942656	48	4047
2026-01-23 11:22:41.94	126.00	60.01	-38.6	-39.3	25.4	0.00e+00	0	43	0	1926234112	48	3982
2026-01-23 11:22:42.95	125.65	60.39	-38.3	-39.0	25.7	0.00e+00	0	42	0	1931476992	48	3844
2026-01-23 11:22:43.95	125.28	60.77	-38.5	-39.1	25.6	0.00e+00	0	43	0	1937768448	48	3909
2026-01-23 11:22:44.96	124.90	61.15	-38.7	-39.4	25.4	0.00e+00	0	42	0	1943011328	48	4011
2026-01-23 11:22:45.97	124.51	61.54	-38.4	-39.1	25.6	0.00e+00	0	42	0	1948254208	48	3869
2026-01-23 11:22:46.98	124.11	61.92	-38.3	-39.0	25.7	0.00e+00	0	42	0	1954545664	48	3833
2026-01-23 11:22:47.99	123.69	62.31	-38.5	-39.2	25.6	0.00e+00	0	43	0	1959788544	48	3921
2026-01-23 11:22:48.99	123.26	62.70	-38.2	-38.9	25.7	0.00e+00	0	43	0	1966080000	48	3814
2026-01-23 11:22:50.00	122.82	63.08	-38.1	-38.8	25.8	0.00e+00	0	43	0	1971322880	48	3747
2026-01-23 11:22:51.01	122.36	63.47	-38.2	-38.9	25.8	0.00e+00	0	43	0	1977614336	48	3811
2026-01-23 11:22:52.02	121.88	63.86	-38.1	-38.8	25.9	0.00e+00	0	43	0	1982857216	48	3753
2026-01-23 11:22:53.03	121.39	64.25	-37.1	-37.8	26.2	0.00e+00	0	43	0	1988100096	46	3760
2026-01-23 11:22:54.03	120.89	64.64	-36.9	-37.6	26.3	0.00e+00	0	43	0	1994391552	45	3877
2026-01-23 11:22:55.04	120.36	65.03	-37.3	-38.0	26.0	0.00e+00	0	43	0	1999634432	45	4080
2026-01-23 11:22:56.05	119.82	65.42	-37.6	-38.3	25.8	0.00e+00	0	42	0	2004877312	45	4223
2026-01-23 11:22:57.06	119.25	65.81	-37.2	-37.9	26.1	0.00e+00	0	42	0	2011168768	45	4038
2026-01-23 11:22:58.07	118.67	66.20	-37.0	-37.7	26.3	0.00e+00	0	43	0	2016411648	45	3938
2026-01-23 11:22:59.07	118.07	66.59	-37.1	-37.7	26.2	0.00e+00	0	43	0	2022703104	45	3951
2026-01-23 11:23:00.08	117.44	66.98	-37.3	-38.0	26.0	0.00e+00	0	42	0	2027945984	45	4073
2026-01-23 11:23:01.09	116.78	67.37	-37.0	-37.7	26.2	0.00e+00	0	42	0	2033188864	45	3937
2026-01-23 11:23:02.10	116.11	67.76	-36.8	-37.5	26.4	0.00e+00	0	43	0	2039480320	45	3841
2026-01-23 11:23:03.11	115.40	68.14	-37.2	-37.9	26.1	0.00e+00	0	43	0	2045771776	45	4043
2026-01-23 11:23:04.11	114.68	68.52	-36.9	-37.6	26.4	0.00e+00	0	43	0	2051014656	45	3881
2026-01-23 11:23:05.12	113.92	68.91	-36.8	-37.5	26.4	0.00e+00	0	43	0	2056257536	45	3849
2026-01-23 11:23:06.13	113.12	69.29	-36.9	-37.6	26.4	0.00e+00	0	43	0	2062548992	45	3895
2026-01-23 11:23:07.14	112.30	69.66	-37.2	-37.9	26.2	0.00e+00	0	43	0	2067791872	45	4007
2026-01-23 11:23:08.15	111.44	70.04	-36.7	-37.4	26.6	0.00e+00	0	42	0	2073034752	45	3810
2026-01-23 11:23:09.15	110.56	70.41	-36.7	-37.4	26.5	0.00e+00	0	42	0	2079326208	45	3800
2026-01-23 11:23:10.16	109.63	70.78	-36.9	-37.5	26.4	0.00e+00	0	43	0	2084569088	45	3868
2026-01-23 11:23:11.17	108.67	71.15	-36.9	-37.6	26.4	0.00e+00	0	42	0	2089811968	45	3880
2026-01-23 11:23:12.18	107.66	71.51	-37.0	-37.7	26.3	0.00e+00	0	43	0	2096103424	45	3931
2026-01-23 11:23:13.19	106.61	71.87	-37.3	-37.9	26.1	0.00e+00	0	42	0	2101346304	45	4050
2026-01-23 11:23:14.20	105.51	72.22	-37.1	-37.8	26.2	0.00e+00	0	43	0	2107637760	45	3962
2026-01-23 11:23:15.20	104.38	72.56	-37.1	-37.8	26.2	0.00e+00	0	43	0	2112880640	45	3979
2026-01-23 11:23:16.21	103.19	72.90	-37.1	-37.8	26.2	0.00e+00	0	43	0	2119172096	45	3990
2026-01-23 11:23:17.22	101.95	73.24	-37.1	-37.8	26.2	0.00e+00	0	43	0	2124414976	45	3981
2026-01-23 11:23:18.23	100.66	73.57	-36.9	-37.6	26.4	0.00e+00	0	43	0	2130706432	45	3877
2026-01-23 11:23:19.23	99.32	73.89	-36.8	-37.5	26.4	0.00e+00	0	43	0	2135949312	45	3854
2026-01-23 11:23:20.24	97.92	74.20	-36.6	-37.3	26.7	0.00e+00	0	43	0	2141192192	45	3748
2026-01-23 11:23:21.25	96.46	74.50	-36.4	-37.0	26.9	0.00e+00	0	43	0	2147483648	44	3854
2026-01-23 11:23:22.26	94.94	74.80	-36.3	-37.0	26.9	0.00e+00	0	42	0	2152726528	44	3839
2026-01-23 11:23:23.27	93.35	75.08	-36.3	-37.0	26.9	0.00e+00	0	42	0	2157969408	44	3851
2026-01-23 11:23:24.28	91.70	75.36	-36.2	-36.8	27.0	0.00e+00	0	42	0	2164260864	44	3764
2026-01-23 11:23:25.29	89.99	75.62	-36.2	-36.8	27.0	0.00e+00	0	42	0	2169503744	44	3774
2026-01-23 11:23:26.30	88.22	75.87	-35.9	-36.5	27.2	0.00e+00	0	42	0	2175795200	43	3857
2026-01-23 11:23:27.30	86.40	76.10	-35.7	-36.4	27.3	0.00e+00	0	43	0	2181038080	43	3786
2026-01-23 11:23:28.31	84.49	76.32	-35.7	-36.3	27.4	0.00e+00	0	43	0	2187329536	43	3765
2026-01-23 11:23:29.32	82.53	76.53	-35.6	-36.2	27.4	0.00e+00	0	43	0	2192572416	43	3723
2026-01-23 11:23:30.33	80.50	76.72	-35.6	-36.3	27.4	0.00e+00	0	42	0	2197815296	43	3750
2026-01-23 11:23:31.34	78.42	76.90	-35.6	-36.2	27.4	0.00e+00	0	43	0	2204106752	43	3731
2026-01-23 11:23:32.35	76.27	77.06	-35.6	-36.2	27.5	0.00e+00	0	42	0	2209349632	43	3730
2026-01-23 11:23:33.35	74.10	77.20	-35.5	-36.1	27.5	0.00e+00	0	42	0	2215641088	42	3903
2026-01-23 11:23:34.36	71.86	77.32	-35.4	-36.0	27.6	0.00e+00	0	43	0	2220883968	42	3848
2026-01-23 11:23:35.37	69.58	77.42	-35.3	-36.0	27.6	0.00e+00	0	42	0	2226126848	42	3832
2026-01-23 11:23:36.38	67.27	77.50	-35.6	-36.3	27.4	0.00e+00	0	42	0	2232418304	42	3965
2026-01-23 11:23:37.39	64.93	77.57	-35.6	-36.2	27.4	0.00e+00	0	43	0	2237661184	42	3955
2026-01-23 11:23:38.40	62.56	77.61	-35.2	-35.9	27.7	0.00e+00	0	43	0	2243952640	42	3782
2026-01-23 11:23:39.41	60.19	77.63	-35.6	-36.3	27.4	0.00e+00	0	42	0	2249195520	42	3959
2026-01-23 11:23:40.42	57.81	77.63	-35.2	-35.9	27.7	0.00e+00	0	42	0	2255486976	42	3791
2026-01-23 11:23:41.43	55.43	77.61	-35.0	-35.6	27.8	0.00e+00	0	42	0	2260729856	42	3692
2026-01-23 11:23:42.44	53.07	77.57	-35.3	-35.9	27.6	0.00e+00	0	43	0	2265972736	42	3810
2026-01-23 11:23:43.44	50.74	77.51	-35.4	-36.1	27.5	0.00e+00	0	42	0	2272264192	42	3870
2026-01-23 11:23:44.45	48.43	77.43	-35.3	-35.9	27.6	0.00e+00	0	42	0	2277507072	42	3811
2026-01-23 11:23:45.46	46.14	77.33	-35.5	-36.2	27.5	0.00e+00	0	42	0	2282749952	42	3925
2026-01-23 11:23:46.47	43.90	77.21	-35.2	-35.8	27.7	0.00e+00	0	42	0	2289041408	42	3768
2026-01-23 11:23:47.47	41.73	77.07	-35.3	-35.9	27.7	0.00e+00	0	43	0	2294284288	42	3793
2026-01-23 11:23:48.48	39.58	76.92	-35.3	-36.0	27.7	0.00e+00	0	43	0	2300575744	42	3831
2026-01-23 11:23:49.49	37.49	76.74	-35.3	-35.9	27.6	0.00e+00	0	43	0	2305818624	42	3812
2026-01-23 11:23:50.50	35.46	76.55	-35.1	-35.7	27.8	0.00e+00	0	42	0	2312110080	42	3721
2026-01-23 11:23:51.51	33.49	76.35	-35.4	-36.0	27.6	0.00e+00	0	43	0	2317352960	42	3864
2026-01-23 11:23:52.52	31.58	76.12	-35.4	-36.1	27.6	0.00e+00	0	43	0	2323644416	42	3881
2026-01-23 11:23:53.52	29.75	75.89	-35.6	-36.2	27.5	0.00e+00	0	42	0	2328887296	42	3934
2026-01-23 11:23:54.53	27.97	75.64	-35.8	-36.4	27.3	0.00e+00	0	43	0	2334130176	42	4050
2026-01-23 11:23:55.54	26.25	75.38	-35.7	-36.4	27.4	0.00e+00	0	42	0	2340421632	42	4019
2026-01-23 11:23:56.55	24.60	75.11	-35.8	-36.4	27.3	0.00e+00	0	43	0	2345664512	42	4037
2026-01-23 11:23:57.56	23.01	74.83	-35.6	-36.2	27.4	0.00e+00	0	42	0	2350907392	42	3955
2026-01-23 11:23:58.56	21.50	74.54	-35.7	-36.3	27.4	0.00e+00	0	42	0	2357198848	42	3991
2026-01-23 11:23:59.57	20.03	74.23	-36.2	-36.9	27.0	0.00e+00	0	42	0	2362441728	42	4247
2026-01-23 11:24:00.58	18.62	73.92	-36.3	-36.9	26.9	0.00e+00	0	42	0	2367684608	43	4046
2026-01-23 11:24:01.59	17.26	73.60	-36.2	-36.8	27.0	0.00e+00	0	42	0	2373976064	43	4004
2026-01-23 11:24:02.60	15.97	73.28	-36.4	-37.0	26.8	0.00e+00	0	42	0	2380267520	43	4097
2026-01-23 11:24:03.61	14.72	72.94	-36.5	-37.1	26.7	0.00e+00	0	43	0	2385510400	43	4139
2026-01-23 11:24:04.62	13.53	72.60	-36.5	-37.2	26.7	0.00e+00	0	42	0	2390753280	43	4171
2026-01-23 11:24:05.62	12.39	72.26	-36.5	-37.2	26.7	0.00e+00	0	42	0	2397044736	43	4171
2026-01-23 11:24:06.63	11.29	71.91	-36.7	-37.4	26.5	0.00e+00	0	42	0	2402287616	43	4266
2026-01-23 11:24:07.64	10.24	71.55	-36.6	-37.2	26.6	0.00e+00	0	43	0	2408579072	43	4192
2026-01-23 11:24:08.65	9.23	71.19	-36.4	-37.0	26.8	0.00e+00	0	43	0	2413821952	43	4087
2026-01-23 11:24:09.66	8.26	70.82	-36.5	-37.1	26.7	0.00e+00	0	42	0	2419064832	43	4142
2026-01-23 11:24:10.67	7.32	70.45	-36.8	-37.5	26.5	0.00e+00	0	42	0	2425356288	44	4083
2026-01-23 11:24:11.68	6.43	70.08	-37.1	-37.8	26.3	0.00e+00	0	42	0	2430599168	44	4199
2026-01-23 11:24:12.69	5.57	69.71	-36.8	-37.5	26.5	0.00e+00	0	42	0	2435842048	44	4081
2026-01-23 11:24:13.70	4.74	69.33	-36.8	-37.4	26.5	0.00e+00	0	42	0	2442133504	44	4032
2026-01-23 11:24:14.70	3.96	68.95	-37.1	-37.8	26.3	0.00e+00	0	42	0	2448424960	44	4209
2026-01-23 11:24:15.71	3.19	68.57	-37.0	-37.7	26.2	0.00e+00	0	42	0	2453667840	44	4174
2026-01-23 11:24:16.72	2.46	68.19	-36.7	-37.4	26.6	0.00e+00	0	43	0	2458910720	44	4028
2026-01-23 11:24:17.73	1.75	67.80	-36.9	-37.5	26.5	0.00e+00	0	42	0	2465202176	44	4094
2026-01-23 11:24:18.74	1.07	67.42	-37.2	-37.9	26.2	0.00e+00	0	42	0	2470445056	44	4263
2026-01-23 11:24:19.74	0.42	67.03	-37.0	-37.7	26.4	0.00e+00	0	42	0	2475687936	45	3918
2026-01-23 11:24:20.75	359.79	66.64	-36.8	-37.5	26.5	0.00e+00	0	43	0	2481979392	45	3829
2026-01-23 11:24:21.76	359.18	66.25	-36.8	-37.4	26.6	0.00e+00	0	42	0	2487222272	45	3813
2026-01-23 11:24:22.77	358.60	65.86	-37.2	-37.9	26.2	0.00e+00	0	42	0	2493513728	45	4037
2026-01-23 11:24:23.78	358.03	65.47	-37.3	-38.0	26.1	0.00e+00	0	43	0	2498756608	45	4067
2026-01-23 11:24:24.79	357.48	65.08	-37.2	-37.8	26.2	0.00e+00	0	43	0	2503999488	45	4001
2026-01-23 11:24:25.80	356.96	64.69	-37.0	-37.7	26.4	0.00e+00	0	42	0	2510290944	45	3932
2026-01-23 11:24:26.80	356.45	64.31	-37.0	-37.7	26.4	0.00e+00	0	42	0	2516582400	45	3923
2026-01-23 11:24:27.81	355.96	63.92	-37.1	-37.8	26.3	0.00e+00	0	43	0	2521825280	45	3991
2026-01-23 11:24:28.82	355.48	63.53	-37.2	-37.9	26.2	0.00e+00	0	43	0	2527068160	45	4024
2026-01-23 11:24:29.83	355.02	63.14	-37.2	-37.9	26.2	0.00e+00	0	43	0	2533359616	45	4036
2026-01-23 11:24:30.84	354.58	62.75	-37.2	-37.8	26.3	0.00e+00	0	43	0	2538602496	45	3987
2026-01-23 11:24:31.85	354.15	62.36	-37.0	-37.7	26.4	0.00e+00	0	42	0	2543845376	45	3915
2026-01-23 11:24:32.86	353.73	61.98	-36.9	-37.5	26.5	0.00e+00	0	42	0	2550136832	45	3864
2026-01-23 11:24:33.86	353.33	61.59	-36.8	-37.5	26.5	0.00e+00	0	43	0	2555379712	45	3842
2026-01-23 11:24:34.87	352.93	61.21	-37.2	-37.9	26.2	0.00e+00	0	42	0	2560622592	45	4016
2026-01-23 11:24:35.88	352.55	60.83	-37.7	-38.4	25.8	0.00e+00	0	42	0	2566914048	45	4250
2026-01-23 11:24:36.89	352.19	60.44	-37.8	-38.6	25.6	0.00e+00	0	43	0	2572156928	46	4099
2026-01-23 11:24:37.90	351.83	60.06	-37.9	-38.6	25.6	0.00e+00	0	43	0	2578448384	46	4105
2026-01-23 11:24:38.91	351.48	59.68	-38.0	-38.7	25.5	0.00e+00	0	43	0	2583691264	46	4188
2026-01-23 11:24:39.92	351.14	59.30	-38.3	-39.0	25.3	0.00e+00	0	43	0	2589982720	47	4069
2026-01-23 11:24:40.92	350.82	58.93	-38.2	-38.9	25.4	0.00e+00	0	43	0	2595225600	47	4021
2026-01-23 11:24:41.93	350.50	58.55	-38.0	-38.7	25.6	0.00e+00	0	42	0	2601517056	47	3921
2026-01-23 11:24:42.94	350.19	58.18	-38.1	-38.8	25.5	0.00e+00	0	43	0	2606759936	47	3977
2026-01-23 11:24:43.95	349.89	57.81	-38.1	-38.8	25.4	0.00e+00	0	43	0	2612002816	47	3988
2026-01-23 11:24:44.96	349.60	57.44	-38.1	-38.8	25.4	0.00e+00	0	43	0	2618294272	47	3984
2026-01-23 11:24:45.97	349.32	57.07	-38.2	-38.8	25.4	0.00e+00	0	42	0	2623537152	47	4003
2026-01-23 11:24:46.98	349.04	56.70	-39.2	-39.9	25.0	0.00e+00	0	42	0	2628780032	48	4250
2026-01-23 11:24:47.99	348.77	56.34	-39.6	-40.3	24.6	0.00e+00	0	43	0	2635071488	49	4226
2026-01-23 11:24:49.00	348.51	55.97	-39.4	-40.2	24.8	0.00e+00	0	42	0	2641362944	49	4149
2026-01-23 11:24:50.00	348.25	55.61	-39.3	-40.0	24.9	0.00e+00	0	43	0	2646605824	49	4061
2026-01-23 11:24:51.01	348.01	55.25	-39.3	-40.1	24.9	0.00e+00	0	43	0	2651848704	49	4101
2026-01-23 11:24:52.02	347.76	54.89	-39.4	-40.1	24.8	0.00e+00	0	42	0	2658140160	49	4124
2026-01-23 11:24:53.03	347.53	54.54	-39.4	-40.1	24.8	0.00e+00	0	43	0	2663383040	49	4111
2026-01-23 11:24:54.04	347.30	54.18	-39.2	-39.8	25.0	0.00e+00	0	42	0	2668625920	49	3999
2026-01-23 11:24:55.05	347.07	53.83	-38.9	-39.6	25.2	0.00e+00	0	42	0	2674917376	49	3878
2026-01-23 11:24:56.05	346.85	53.48	-38.9	-39.6	25.2	0.00e+00	0	42	0	2680160256	49	3910
2026-01-23 11:24:57.06	346.64	53.14	-38.9	-39.6	25.2	0.00e+00	0	42	0	2686451712	49	3906
2026-01-23 11:24:58.07	346.43	52.79	-38.9	-39.6	25.3	0.00e+00	0	42	0	2691694592	49	3873
2026-01-23 11:24:59.08	346.23	52.45	-38.5	-39.2	25.6	0.00e+00	0	43	0	2696937472	49	3720
2026-01-23 11:25:00.09	346.03	52.10	-38.5	-39.2	25.6	0.00e+00	0	42	0	2703228928	49	3698
2026-01-23 11:25:01.09	345.84	51.77	-38.5	-39.2	25.6	0.00e+00	0	42	0	2708471808	48	3916
2026-01-23 11:25:02.10	345.65	51.43	-38.5	-39.2	25.6	0.00e+00	0	42	0	2714763264	48	3914
2026-01-23 11:25:03.11	345.46	51.09	-38.5	-39.2	25.6	0.00e+00	0	42	0	2720006144	48	3916
2026-01-23 11:25:04.12	345.28	50.76	-38.5	-39.1	25.6	0.00e+00	0	42	0	2726297600	48	3913
2026-01-23 11:25:05.13	345.10	50.43	-38.4	-39.1	25.6	0.00e+00	0	43	0	2731540480	48	3911
2026-01-23 11:25:06.14	344.93	50.10	-38.5	-39.2	25.6	0.00e+00	0	43	0	2736783360	48	3921
2026-01-23 11:25:07.15	344.76	49.77	-38.3	-39.0	25.7	0.00e+00	0	42	0	2743074816	48	3848
2026-01-23 11:25:08.16	344.59	49.44	-38.2	-38.9	25.9	0.00e+00	0	42	0	2748317696	48	3790
2026-01-23 11:25:09.16	344.43	49.12	-37.7	-38.4	25.8	0.00e+00	0	42	0	2753560576	47	3785
2026-01-23 11:25:10.17	344.27	48.80	-37.7	-38.4	25.8	0.00e+00	0	43	0	2759852032	47	3801
2026-01-23 11:25:11.18	344.11	48.48	-37.9	-38.6	25.5	0.00e+00	0	43	0	2765094912	47	3902
2026-01-23 11:25:12.19	343.96	48.16	-37.9	-38.6	25.5	0.00e+00	0	43	0	2771386368	47	3912
2026-01-23 11:25:13.19	343.81	47.85	-37.8	-38.5	25.6	0.00e+00	0	42	0	2776629248	47	3849
2026-01-23 11:25:14.20	343.67	47.54	-37.8	-38.5	25.7	0.00e+00	0	42	0	2782920704	47	3839
2026-01-23 11:25:15.21	343.52	47.23	-37.9	-38.6	25.6	0.00e+00	0	43	0	2788163584	47	3892
2026-01-23 11:25:16.22	343.38	46.92	-37.8	-38.5	25.6	0.00e+00	0	43	0	2794455040	47	3863
2026-01-23 11:25:17.23	343.25	46.61	-37.9	-38.6	25.5	0.00e+00	0	43	0	2799697920	47	3903
2026-01-23 11:25:18.23	343.11	46.31	-38.0	-38.7	25.4	0.00e+00	0	42	0	2804940800	47	3955
2026-01-23 11:25:19.24	342.98	46.01	-37.8	-38.5	25.7	0.00e+00	0	43	0	2811232256	47	3832
2026-01-23 11:25:20.25	342.85	45.70	-37.6	-38.3	25.8	0.00e+00	0	42	0	2816475136	47	3768
2026-01-23 11:25:21.26	342.72	45.41	-37.4	-38.1	26.0	0.00e+00	0	42	0	2821718016	46	3904
2026-01-23 11:25:22.26	342.60	45.11	-37.4	-38.1	25.9	0.00e+00	0	43	0	2828009472	46	3903
2026-01-23 11:25:23.27	342.48	44.82	-37.6	-38.2	25.8	0.00e+00	0	42	0	2833252352	46	3955
2026-01-23 11:25:24.28	342.36	44.52	-37.5	-38.2	25.9	0.00e+00	0	42	0	2838495232	46	3947
2026-01-23 11:25:25.28	342.24	44.24	-37.5	-38.2	25.9	0.00e+00	0	42	0	2844786688	46	3945
2026-01-23 11:25:26.29	342.13	43.95	-37.6	-38.3	25.8	0.00e+00	0	42	0	2850029568	46	3988
2026-01-23 11:25:27.30	342.01	43.66	-37.7	-38.4	25.7	0.00e+00	0	42	0	2856321024	46	4050
2026-01-23 11:25:28.31	341.90	43.38	-37.7	-38.4	25.7	0.00e+00	0	42	0	2861563904	46	4026
2026-01-23 11:25:29.31	341.79	43.10	-37.7	-38.4	25.7	0.00e+00	0	43	0	2867855360	46	4035
2026-01-23 11:25:30.32	341.69	42.82	-37.6	-38.3	25.8	0.00e+00	0	42	0	2873098240	46	3998
2026-01-23 11:25:31.33	341.58	42.54	-37.7	-38.4	25.7	0.00e+00	0	42	0	2879389696	46	4009
2026-01-23 11:25:32.34	341.48	42.26	-37.6	-38.3	25.7	0.00e+00	0	42	0	2884632576	46	3991
2026-01-23 11:25:33.35	341.37	41.99	-37.7	-38.3	25.7	0.00e+00	0	43	0	2889875456	46	3998
2026-01-23 11:25:34.36	341.27	41.71	-37.5	-38.2	25.9	0.00e+00	0	42	0	2896166912	46	3938
2026-01-23 11:25:35.36	341.18	41.45	-37.6	-38.3	25.8	0.00e+00	0	43	0	2901409792	46	3974
2026-01-23 11:25:36.37	341.08	41.18	-37.4	-38.1	26.0	0.00e+00	0	42	0	2906652672	46	3891
2026-01-23 11:25:37.38	340.99	40.91	-37.3	-38.0	26.1	0.00e+00	0	42	0	2912944128	46	3832
2026-01-23 11:25:38.39	340.89	40.64	-37.1	-37.7	26.2	0.00e+00	0	43	0	2918187008	46	3725
2026-01-23 11:25:39.40	340.80	40.38	-37.0	-37.6	26.3	0.00e+00	0	42	0	2924478464	46	3688
2026-01-23 11:25:40.41	340.71	40.12	-36.8	-37.5	26.4	0.00e+00	0	42	0	2929721344	45	3848
2026-01-23 11:25:41.41	340.62	39.86	-36.9	-37.6	26.4	0.00e+00	0	42	0	2936012800	45	3875
2026-01-23 11:25:42.42	340.54	39.60	-36.8	-37.5	26.4	0.00e+00	0	42	0	2941255680	45	3856
2026-01-23 11:25:43.43	340.45	39.35	-37.0	-37.6	26.3	0.00e+00	0	42	0	2946498560	45	3907
2026-01-23 11:25:44.44	340.36	39.09	-37.0	-37.6	26.3	0.00e+00	0	42	0	2952790016	45	3907
2026-01-23 11:25:45.45	340.28	38.84	-37.0	-37.7	26.3	0.00e+00	0	43	0	2958032896	45	3929
2026-01-23 11:25:46.45	340.20	38.59	-37.1	-37.8	26.2	0.00e+00	0	42	0	2964324352	45	3963
2026-01-23 11:25:47.46	340.12	38.34	-37.1	-37.8	26.1	0.00e+00	0	43	0	2969567232	45	4004
2026-01-23 11:25:48.47	340.04	38.10	-37.2	-37.9	26.1	0.00e+00	0	43	0	2974810112	45	4007
2026-01-23 11:25:49.48	339.96	37.85	-37.1	-37.8	26.2	0.00e+00	0	43	0	2981101568	45	3959
2026-01-23 11:25:50.49	339.89	37.61	-37.1	-37.7	26.2	0.00e+00	0	43	0	2986344448	45	3954
2026-01-23 11:25:51.49	339.81	37.37	-37.0	-37.7	26.2	0.00e+00	0	43	0	2991587328	45	3932
2026-01-23 11:25:52.50	339.74	37.13	-37.0	-37.7	26.2	0.00e+00	0	43	0	2997878784	45	3943
2026-01-23 11:25:53.51	339.66	36.89	-37.0	-37.7	26.2	0.00e+00	0	43	0	3004170240	45	3944
2026-01-23 11:25:54.52	339.59	36.65	-37.1	-37.7	26.2	0.00e+00	0	42	0	3009413120	45	3952
2026-01-23 11:25:55.53	339.52	36.42	-37.0	-37.7	26.3	0.00e+00	0	42	0	3014656000	45	3917
2026-01-23 11:25:56.54	339.45	36.18	-37.2	-37.8	26.1	0.00e+00	0	42	0	3020947456	45	3994
2026-01-23 11:25:57.55	339.38	35.95	-37.1	-37.8	26.1	0.00e+00	0	42	0	3026190336	45	3988
2026-01-23 11:25:58.56	339.31	35.72	-37.2	-37.9	26.1	0.00e+00	0	43	0	3031433216	45	4022
2026-01-23 11:25:59.57	339.25	35.49	-37.3	-38.0	26.0	0.00e+00	0	43	0	3037724672	45	4066
2026-01-23 11:26:00.57	339.18	35.27	-37.4	-38.1	25.9	0.00e+00	0	42	0	3042967552	45	4116
2026-01-23 11:26:01.58	339.12	35.04	-37.5	-38.2	25.8	0.00e+00	0	43	0	3049259008	45	4150
2026-01-23 11:26:02.59	339.05	34.82	-37.4	-38.1	25.8	0.00e+00	0	42	0	3054501888	45	4133
2026-01-23 11:26:03.60	338.99	34.59	-37.5	-38.2	25.7	0.00e+00	0	42	0	3060793344	45	4193
2026-01-23 11:26:04.61	338.93	34.37	-37.6	-38.3	25.7	0.00e+00	0	43	0	3066036224	45	4199
2026-01-23 11:26:05.62	338.87	34.15	-37.5	-38.2	25.8	0.00e+00	0	42	0	3072327680	45	4151
2026-01-23 11:26:06.62	338.81	33.94	-37.6	-38.3	25.7	0.00e+00	0	42	0	3077570560	45	4197
2026-01-23 11:26:07.63	338.75	33.72	-37.6	-38.3	25.7	0.00e+00	0	43	0	3082813440	45	4209
2026-01-23 11:26:08.64	338.69	33.51	-37.5	-38.2	25.7	0.00e+00	0	43	0	3089104896	45	4170
2026-01-23 11:26:09.65	338.63	33.29	-37.5	-38.2	25.7	0.00e+00	0	42	0	3094347776	45	4173
2026-01-23 11:26:10.65	338.57	33.08	-37.5	-38.2	25.8	0.00e+00	0	42	0	3099590656	45	4178
2026-01-23 11:26:11.66	338.52	32.87	-37.5	-38.2	25.7	0.00e+00	0	42	0	3105882112	45	4184
2026-01-23 11:26:12.67	338.46	32.66	-37.5	-38.2	25.8	0.00e+00	0	42	0	3111124992	45	4150
2026-01-23 11:26:13.67	338.41	32.46	-37.6	-38.3	25.7	0.00e+00	0	43	0	3116367872	45	4201
2026-01-23 11:26:14.68	338.35	32.25	-37.7	-38.4	25.6	0.00e+00	0	42	0	3122659328	45	4247
2026-01-23 11:26:15.69	338.30	32.05	-37.7	-38.4	25.6	0.00e+00	0	42	0	3127902208	46	4023
2026-01-23 11:26:16.70	338.25	31.84	-37.8	-38.5	25.5	0.00e+00	0	43	0	3134193664	46	4064
2026-01-23 11:26:17.71	338.20	31.64	-37.6	-38.3	25.7	0.00e+00	0	42	0	3139436544	46	3979
2026-01-23 11:26:18.72	338.14	31.44	-37.6	-38.3	25.7	0.00e+00	0	42	0	3145728000	46	3987
2026-01-23 11:26:19.72	338.09	31.24	-37.6	-38.3	25.7	0.00e+00	0	42	0	3150970880	46	3982
2026-01-23 11:26:20.73	338.04	31.04	-37.7	-38.4	25.6	0.00e+00	0	42	0	3157262336	46	4020
2026-01-23 11:26:21.74	338.00	30.85	-37.8	-38.5	25.5	0.00e+00	0	43	0	3162505216	46	4067
2026-01-23 11:26:22.75	337.95	30.65	-37.6	-38.3	25.7	0.00e+00	0	42	0	3167748096	46	3976
2026-01-23 11:26:23.76	337.90	30.46	-37.6	-38.3	25.6	0.00e+00	0	43	0	3174039552	46	3989
2026-01-23 11:26:24.76	337.85	30.27	-37.5	-38.2	25.7	0.00e+00	0	43	0	3179282432	46	3930
2026-01-23 11:26:25.77	337.81	30.07	-37.5	-38.2	25.8	0.00e+00	0	43	0	3184525312	46	3927
2026-01-23 11:26:26.78	337.76	29.88	-37.4	-38.1	25.8	0.00e+00	0	43	0	3190816768	46	3886
2026-01-23 11:26:27.79	337.71	29.69	-37.4	-38.1	25.8	0.00e+00	0	42	0	3196059648	46	3899
2026-01-23 11:26:28.79	337.67	29.51	-37.4	-38.1	25.8	0.00e+00	0	43	0	3201302528	46	3895
2026-01-23 11:26:29.80	337.62	29.32	-37.4	-38.1	25.8	0.00e+00	0	43	0	3207593984	46	3901
2026-01-23 11:26:30.81	337.58	29.13	-37.6	-38.3	25.7	0.00e+00	0	43	0	3213885440	46	3965
2026-01-23 11:26:31.82	337.54	28.95	-37.5	-38.2	25.7	0.00e+00	0	43	0	3219128320	46	3932
2026-01-23 11:26:32.82	337.50	28.77	-37.6	-38.3	25.7	0.00e+00	0	42	0	3224371200	46	3996
2026-01-23 11:26:33.83	337.45	28.59	-37.7	-38.4	25.5	0.00e+00	0	43	0	3230662656	46	4031
2026-01-23 11:26:34.84	337.41	28.41	-37.8	-38.5	25.5	0.00e+00	0	43	0	3235905536	46	4066
2026-01-23 11:26:35.85	337.37	28.23	-37.7	-38.4	25.5	0.00e+00	0	43	0	3242196992	46	4026
2026-01-23 11:26:36.85	337.33	28.05	-37.8	-38.5	25.4	0.00e+00	0	43	0	3247439872	46	4083
2026-01-23 11:26:37.86	337.29	27.87	-37.9	-38.6	25.3	0.00e+00	0	42	0	3252682752	46	4128
2026-01-23 11:26:38.87	337.25	27.69	-37.8	-38.5	25.4	0.00e+00	0	43	0	3258974208	46	4079
2026-01-23 11:26:39.88	337.21	27.52	-37.8	-38.5	25.4	0.00e+00	0	43	0	3264217088	46	4089
2026-01-23 11:26:40.88	337.17	27.35	-37.8	-38.5	25.4	0.00e+00	0	43	0	3269459968	46	4094
2026-01-23 11:26:41.89	337.13	27.17	-37.7	-38.4	25.5	0.00e+00	0	43	0	3275751424	46	4034
2026-01-23 11:26:42.90	337.10	27.00	-37.8	-38.5	25.5	0.00e+00	0	42	0	3282042880	46	4056
2026-01-23 11:26:43.91	337.06	26.83	-37.6	-38.4	25.5	0.00e+00	0	43	0	3287285760	46	4006
2026-01-23 11:26:44.91	337.02	26.66	-37.8	-38.5	25.4	0.00e+00	0	43	0	3292528640	46	4084
2026-01-23 11:26:45.92	336.99	26.49	-37.8	-38.5	25.4	0.00e+00	0	43	0	3298820096	46	4069
2026-01-23 11:26:46.93	336.95	26.33	-37.7	-38.4	25.5	0.00e+00	0	42	0	3304062976	46	4030
2026-01-23 11:26:47.94	336.91	26.16	-37.7	-38.4	25.5	0.00e+00	0	43	0	3309305856	46	4010
2026-01-23 11:26:48.95	336.88	25.99	-37.8	-38.4	25.5	0.00e+00	0	42	0	3315597312	46	4047
2026-01-23 11:26:49.96	336.84	25.83	-37.8	-38.5	25.4	0.00e+00	0	43	0	3320840192	46	4088
2026-01-23 11:26:50.97	336.81	25.66	-37.8	-38.5	25.4	0.00e+00	0	43	0	3327131648	46	4066
2026-01-23 11:26:51.97	336.77	25.50	-37.8	-38.5	25.4	0.00e+00	0	43	0	3332374528	46	4074
2026-01-23 11:26:52.98	336.74	25.34	-37.8	-38.6	25.3	0.00e+00	0	43	0	3337617408	46	4099
2026-01-23 11:26:53.99	336.71	25.18	-37.8	-38.4	25.4	0.00e+00	0	42	0	3343908864	46	4049
2026-01-23 11:26:55.00	336.68	25.02	-37.9	-38.6	25.3	0.00e+00	0	43	0	3350200320	46	4103
2026-01-23 11:26:56.01	336.64	24.86	-37.9	-38.6	25.3	0.00e+00	0	42	0	3355443200	46	4121
2026-01-23 11:26:57.02	336.61	24.70	-37.9	-38.6	25.3	0.00e+00	0	43	0	3360686080	46	4119
2026-01-23 11:26:58.03	336.58	24.55	-37.9	-38.6	25.3	0.00e+00	0	42	0	3366977536	46	4123
2026-01-23 11:26:59.04	336.55	24.39	-38.0	-38.7	25.1	0.00e+00	0	43	0	3372220416	46	4187
2026-01-23 11:27:00.05	336.52	24.24	-37.9	-38.7	25.2	0.00e+00	0	43	0	3377463296	46	4146
2026-01-23 11:27:01.05	336.49	24.08	-38.0	-38.7	25.2	0.00e+00	0	43	0	3383754752	46	4164
2026-01-23 11:27:02.06	336.45	23.93	-38.1	-38.8	25.1	0.00e+00	0	43	0	3388997632	46	4240
2026-01-23 11:27:03.07	336.42	23.78	-38.0	-38.7	25.2	0.00e+00	0	43	0	3394240512	46	4162
2026-01-23 11:27:04.07	336.40	23.63	-38.0	-38.7	25.1	0.00e+00	0	43	0	3400531968	46	4189
2026-01-23 11:27:05.08	336.37	23.48	-38.2	-38.9	25.0	0.00e+00	0	43	0	3405774848	46	4270
2026-01-23 11:27:06.09	336.34	23.33	-38.0	-38.8	25.1	0.00e+00	0	43	0	3412066304	46	4195
2026-01-23 11:27:07.10	336.31	23.18	-38.0	-38.8	25.1	0.00e+00	0	43	0	3417309184	46	4197
2026-01-23 11:27:08.11	336.28	23.03	-38.2	-38.9	25.0	0.00e+00	0	42	0	3423600640	46	4253
2026-01-23 11:27:09.12	336.25	22.88	-38.3	-39.0	24.9	0.00e+00	0	43	0	3428843520	47	4087
2026-01-23 11:27:10.12	336.22	22.74	-38.2	-39.0	24.9	0.00e+00	0	43	0	3435134976	47	4052
2026-01-23 11:27:11.13	336.20	22.59	-38.1	-38.8	25.1	0.00e+00	0	42	0	3440377856	47	3973
2026-01-23 11:27:12.14	336.17	22.45	-38.2	-38.9	25.0	0.00e+00	0	43	0	3445620736	47	4020
2026-01-23 11:27:13.15	336.14	22.30	-38.2	-39.0	24.9	0.00e+00	0	42	0	3451912192	47	4053
2026-01-23 11:27:14.16	336.11	22.16	-38.2	-39.0	24.9	0.00e+00	0	43	0	3457155072	47	4057
2026-01-23 11:27:15.17	336.09	22.02	-38.2	-38.9	25.0	0.00e+00	0	42	0	3462397952	47	4035
2026-01-23 11:27:16.18	336.06	21.87	-38.3	-39.0	24.9	0.00e+00	0	43	0	3468689408	47	4082
2026-01-23 11:27:17.19	336.04	21.73	-38.3	-39.0	24.8	0.00e+00	0	43	0	3473932288	47	4086
2026-01-23 11:27:18.19	336.01	21.59	-38.4	-39.1	24.7	0.00e+00	0	43	0	3480223744	47	4140
2026-01-23 11:27:19.20	335.99	21.46	-38.3	-39.0	24.8	0.00e+00	0	43	0	3485466624	47	4092
2026-01-23 11:27:20.21	335.96	21.32	-38.4	-39.1	24.8	0.00e+00	0	43	0	3491758080	47	4125
2026-01-23 11:27:21.22	335.94	21.18	-38.4	-39.2	24.7	0.00e+00	0	43	0	3497000960	47	4151
2026-01-23 11:27:22.23	335.91	21.04	-38.5	-39.3	24.6	0.00e+00	0	43	0	3502243840	47	4206
2026-01-23 11:27:23.24	335.89	20.91	-38.6	-39.4	24.5	0.00e+00	0	43	0	3508535296	47	4253
2026-01-23 11:27:24.24	335.86	20.77	-38.4	-39.2	24.7	0.00e+00	0	43	0	3513778176	47	4160
2026-01-23 11:27:25.25	335.84	20.64	-38.6	-39.4	24.5	0.00e+00	0	43	0	3520069632	47	4250
2026-01-23 11:27:26.26	335.82	20.50	-38.6	-39.4	24.5	0.00e+00	0	42	0	3525312512	47	4253
2026-01-23 11:27:27.27	335.79	20.37	-38.7	-39.4	24.5	0.00e+00	0	43	0	3530555392	47	4269
2026-01-23 11:27:28.28	335.77	20.24	-39.0	-39.7	24.7	0.00e+00	0	43	0	3536846848	48	4180
2026-01-23 11:27:29.29	335.75	20.10	-39.1	-39.8	24.6	0.00e+00	0	42	0	3542089728	48	4235
2026-01-23 11:27:30.29	335.72	19.97	-39.1	-39.8	24.5	0.00e+00	0	43	0	3548381184	48	4241
2026-01-23 11:27:31.30	335.70	19.84	-39.1	-39.8	24.6	0.00e+00	0	43	0	3553624064	48	4232
2026-01-23 11:27:32.31	335.68	19.71	-39.1	-39.9	24.5	0.00e+00	0	43	0	3559915520	48	4252
2026-01-23 11:27:33.32	335.66	19.58	-39.2	-39.9	24.5	0.00e+00	0	42	0	3565158400	48	4273
2026-01-23 11:27:34.33	335.64	19.45	-39.2	-39.9	24.5	0.00e+00	0	42	0	3570401280	49	4042
2026-01-23 11:27:35.34	335.61	19.33	-39.2	-39.9	24.5	0.00e+00	0	43	0	3576692736	49	4044
2026-01-23 11:27:36.35	335.59	19.20	-39.4	-40.1	24.3	0.00e+00	0	43	0	3581935616	49	4120
2026-01-23 11:27:37.36	335.57	19.07	-39.3	-40.1	24.4	0.00e+00	0	42	0	3587178496	49	4101
2026-01-23 11:27:38.36	335.55	18.95	-39.3	-40.0	24.4	0.00e+00	0	43	0	3593469952	49	4092
2026-01-23 11:27:39.37	335.53	18.82	-39.4	-40.1	24.3	0.00e+00	0	43	0	3598712832	49	4115
2026-01-23 11:27:40.38	335.51	18.70	-39.5	-40.2	24.2	0.00e+00	0	43	0	3605004288	49	4166
2026-01-23 11:27:41.39	335.49	18.57	-39.5	-40.2	24.2	0.00e+00	0	43	0	3610247168	49	4163
2026-01-23 11:27:42.39	335.47	18.45	-39.4	-40.1	24.3	0.00e+00	0	43	0	3616538624	49	4138
2026-01-23 11:27:43.40	335.45	18.33	-39.5	-40.2	24.2	0.00e+00	0	43	0	3621781504	49	4173
2026-01-23 11:27:44.41	335.43	18.20	-39.6	-40.3	24.1	0.00e+00	0	43	0	3628072960	49	4220
2026-01-23 11:27:45.42	335.41	18.08	-39.5	-40.3	24.1	0.00e+00	0	42	0	3633315840	49	4204
2026-01-23 11:27:46.43	335.39	17.96	-39.6	-40.4	24.0	0.00e+00	0	42	0	3638558720	49	4250
2026-01-23 11:27:47.44	335.37	17.84	-39.6	-40.4	24.1	0.00e+00	0	43	0	3644850176	49	4253
2026-01-23 11:27:48.45	335.35	17.72	-39.7	-40.4	24.0	0.00e+00	0	43	0	3650093056	49	4291
2026-01-23 11:27:49.46	335.33	17.60	-39.6	-40.4	24.0	0.00e+00	0	43	0	3655335936	49	4249
2026-01-23 11:27:50.47	335.31	17.48	-39.8	-40.6	23.9	0.00e+00	0	42	0	3661627392	50	4099
2026-01-23 11:27:51.48	335.30	17.36	-39.8	-40.6	23.9	0.00e+00	0	43	0	3666870272	50	4106
2026-01-23 11:27:52.48	335.28	17.25	-39.8	-40.6	23.9	0.00e+00	0	42	0	3672113152	50	4099
2026-01-23 11:27:53.49	335.26	17.13	-39.8	-40.5	23.9	0.00e+00	0	42	0	3678404608	50	4075
2026-01-23 11:27:54.50	335.24	17.01	-39.9	-40.6	23.8	0.00e+00	0	43	0	3684696064	50	4129
2026-01-23 11:27:55.51	335.22	16.90	-39.8	-40.6	23.8	0.00e+00	0	43	0	3689938944	50	4120
2026-01-23 11:27:56.52	335.21	16.78	-39.9	-40.7	23.7	0.00e+00	0	43	0	3695181824	50	4164
