passes_logs/2026/01/23/R3.2S_Murmansk/R3.2S_Murmansk__20260123_103505_AQUA_rec.log

#Pass ID: 20260123_103505_AQUA
#Satellite: AQUA
#Configuration: AQUA
#almurnet v.1.7.20251203
#Start time: 2026-01-23 10:35:06

#Version: 2.2.20231116
#Station: R3.2S_Murmansk
#Location: 33.079688 lon 68.888172 lat
#TLE: 1 27424U 02022A   26022.49486490  .00002153  00000+0  44069-3 0  9997
#TLE: 2 27424  98.4099 349.0485 0001970  69.5876  43.4746 14.61847233261984

#Time	Az	El	Level	Level2	SNR	BER	BlckErr	Temp	State	Recorded	gain1	gain2
2026-01-23 10:35:06.84	134.59	2.12	-55.8	-73.6	3.8	7.42e-01	0	42	0	0	82	29256
2026-01-23 10:35:07.85	134.57	2.19	-55.8	-73.6	3.8	7.44e-01	0	41	104	0	82	29219
2026-01-23 10:35:08.86	134.55	2.25	-55.8	-73.6	3.8	7.46e-01	0	42	104	0	82	29244
2026-01-23 10:35:09.86	134.53	2.32	-55.9	-73.8	3.8	7.44e-01	0	42	104	0	82	29811
2026-01-23 10:35:10.87	134.50	2.39	-56.0	-73.8	3.8	7.43e-01	0	42	104	0	82	30019
2026-01-23 10:35:11.88	134.48	2.46	-56.0	-73.9	3.8	7.44e-01	0	42	104	0	82	30065
2026-01-23 10:35:12.89	134.46	2.52	-56.0	-73.9	3.8	7.46e-01	0	42	104	0	82	30069
2026-01-23 10:35:13.90	134.44	2.59	-56.0	-73.8	3.8	7.47e-01	0	42	104	0	82	29994
2026-01-23 10:35:14.91	134.42	2.66	-56.0	-73.8	3.8	7.45e-01	0	42	104	0	82	29912
2026-01-23 10:35:15.92	134.40	2.73	-56.0	-73.8	3.8	7.44e-01	0	42	104	0	82	29848
2026-01-23 10:35:16.92	134.37	2.80	-55.9	-73.7	3.8	7.47e-01	0	42	104	0	82	29642
2026-01-23 10:35:17.93	134.35	2.87	-55.9	-73.7	3.8	7.47e-01	0	42	104	0	82	29538
2026-01-23 10:35:18.94	134.33	2.93	-55.8	-73.6	3.8	7.45e-01	0	42	104	0	82	29314
2026-01-23 10:35:19.95	134.31	3.00	-55.8	-73.6	3.8	7.46e-01	0	42	104	0	82	29176
2026-01-23 10:35:20.96	134.28	3.07	-55.7	-73.5	3.8	7.43e-01	0	42	104	0	82	28942
2026-01-23 10:35:21.96	134.26	3.14	-55.6	-73.5	3.8	7.45e-01	0	42	104	0	82	28732
2026-01-23 10:35:22.97	134.24	3.21	-55.6	-73.4	3.8	7.46e-01	0	42	104	0	82	28510
2026-01-23 10:35:23.98	134.22	3.28	-55.5	-73.3	3.8	7.45e-01	0	42	104	0	82	28123
2026-01-23 10:35:24.99	134.19	3.35	-55.4	-73.3	3.8	7.46e-01	0	42	104	0	82	28064
2026-01-23 10:35:26.00	134.17	3.42	-55.1	-67.6	6.6	6.87e-01	131	42	0	0	80	16441
2026-01-23 10:35:27.00	134.15	3.49	-55.1	-71.6	3.8	7.44e-01	0	42	104	0	81	24688
2026-01-23 10:35:28.01	134.12	3.56	-55.1	-72.8	3.8	7.44e-01	0	42	104	0	81	28027
2026-01-23 10:35:29.02	134.10	3.63	-54.8	-72.4	3.8	7.45e-01	0	42	104	0	81	27037
2026-01-23 10:35:30.03	134.08	3.70	-54.4	-72.2	3.8	7.53e-01	0	42	104	0	80	27941
2026-01-23 10:35:31.04	134.05	3.78	-54.2	-72.0	3.8	7.42e-01	0	42	104	0	80	27168
2026-01-23 10:35:32.04	134.03	3.85	-54.0	-71.7	3.8	7.45e-01	0	42	104	0	80	26187
2026-01-23 10:35:33.05	134.00	3.92	-53.9	-71.4	3.8	7.46e-01	0	42	104	0	79	26887
2026-01-23 10:35:34.06	133.98	3.99	-53.9	-70.6	3.8	7.46e-01	0	42	104	0	79	24490
2026-01-23 10:35:35.07	133.96	4.06	-53.8	-68.3	4.1	7.35e-01	0	42	104	0	79	18946
2026-01-23 10:35:36.08	133.93	4.13	-53.6	-65.3	5.5	6.95e-01	28	42	0	0	79	13356
2026-01-23 10:35:37.09	133.91	4.21	-53.3	-62.5	7.8	6.48e-01	181	42	0	1048576	78	10182
2026-01-23 10:35:38.10	133.88	4.28	-52.8	-59.6	10.8	6.18e-01	0	42	0	3145728	77	7775
2026-01-23 10:35:39.10	133.86	4.35	-51.9	-56.8	13.7	6.09e-01	0	42	0	4718592	75	6291
2026-01-23 10:35:40.11	133.83	4.42	-51.2	-55.2	15.4	6.07e-01	0	42	0	6815744	74	5534
2026-01-23 10:35:41.12	133.81	4.50	-50.0	-52.9	17.7	6.08e-01	0	42	0	8388608	71	5094
2026-01-23 10:35:42.13	133.78	4.57	-49.0	-51.4	19.3	6.08e-01	0	42	0	10485760	70	4505
2026-01-23 10:35:43.14	133.75	4.65	-48.0	-50.0	20.7	6.06e-01	0	42	0	12582912	67	4559
2026-01-23 10:35:44.14	133.73	4.72	-47.1	-48.9	21.8	6.05e-01	0	42	0	14680064	66	4267
2026-01-23 10:35:45.15	133.70	4.79	-46.8	-48.4	22.3	6.08e-01	0	42	0	16252928	65	4291
2026-01-23 10:35:46.16	133.68	4.87	-46.4	-48.0	22.7	6.08e-01	0	42	0	18350080	64	4309
2026-01-23 10:35:47.17	133.65	4.94	-46.2	-47.8	22.9	6.05e-01	0	42	0	19922944	64	4197
2026-01-23 10:35:48.18	133.62	5.02	-46.6	-48.2	22.5	6.06e-01	0	42	0	22020096	64	4427
2026-01-23 10:35:49.18	133.60	5.09	-47.3	-49.1	21.7	6.06e-01	0	42	0	23592960	65	4639
2026-01-23 10:35:50.19	133.57	5.17	-49.5	-52.1	18.4	6.06e-01	0	42	0	25690112	71	4644
2026-01-23 10:35:51.20	133.54	5.24	-50.7	-54.4	15.9	6.08e-01	0	42	0	27787264	72	5686
2026-01-23 10:35:52.21	133.52	5.32	-47.4	-49.2	21.6	6.06e-01	0	42	0	29360128	66	4402
2026-01-23 10:35:53.21	133.49	5.39	-49.5	-52.2	18.3	6.05e-01	0	42	0	31457280	70	4969
2026-01-23 10:35:54.22	133.46	5.47	-46.1	-47.6	23.1	6.03e-01	0	42	0	33030144	64	4110
2026-01-23 10:35:55.23	133.43	5.55	-46.2	-47.7	23.2	6.05e-01	0	42	0	35127296	63	4418
2026-01-23 10:35:56.24	133.41	5.62	-46.2	-47.7	23.2	6.04e-01	0	42	0	37224448	63	4411
2026-01-23 10:35:57.25	133.38	5.70	-46.3	-47.8	23.1	6.05e-01	0	42	0	38797312	63	4476
2026-01-23 10:35:58.25	133.35	5.78	-46.1	-47.6	23.4	6.02e-01	0	42	0	40894464	63	4365
2026-01-23 10:35:59.27	133.32	5.86	-45.7	-47.2	23.8	6.06e-01	0	42	0	42991616	63	4156
2026-01-23 10:36:00.27	133.29	5.93	-46.1	-47.6	23.4	6.05e-01	0	42	0	44564480	63	4359
2026-01-23 10:36:01.28	133.26	6.01	-46.1	-47.6	23.4	6.08e-01	0	42	0	46661632	63	4369
2026-01-23 10:36:02.29	133.23	6.09	-46.1	-47.6	23.4	6.08e-01	0	42	0	48234496	63	4350
2026-01-23 10:36:03.30	133.21	6.17	-45.9	-47.4	23.6	6.05e-01	0	42	0	50331648	63	4264
2026-01-23 10:36:04.30	133.18	6.25	-45.9	-47.4	23.6	6.06e-01	0	42	0	51904512	63	4255
2026-01-23 10:36:05.31	133.15	6.32	-46.1	-47.6	23.4	6.06e-01	0	42	0	54001664	63	4375
2026-01-23 10:36:06.32	133.12	6.40	-46.3	-47.8	23.2	6.06e-01	0	42	0	56098816	63	4486
2026-01-23 10:36:07.33	133.09	6.48	-46.3	-47.8	23.3	6.08e-01	0	42	0	57671680	63	4463
2026-01-23 10:36:08.33	133.06	6.56	-46.0	-47.5	23.6	6.06e-01	0	42	0	59768832	63	4322
2026-01-23 10:36:09.34	133.03	6.64	-46.0	-47.5	23.6	6.03e-01	0	42	0	61865984	63	4319
2026-01-23 10:36:10.35	133.00	6.72	-45.9	-47.4	23.8	6.05e-01	0	42	0	63438848	63	4243
2026-01-23 10:36:11.36	132.97	6.80	-46.1	-47.6	23.6	6.05e-01	0	42	0	65536000	63	4354
2026-01-23 10:36:12.37	132.93	6.89	-46.2	-47.6	23.5	6.04e-01	0	42	0	67108864	63	4382
2026-01-23 10:36:13.37	132.90	6.97	-45.8	-47.2	23.9	6.04e-01	0	42	0	69206016	63	4165
2026-01-23 10:36:14.38	132.87	7.05	-45.8	-47.3	23.8	6.06e-01	0	42	0	71303168	63	4211
2026-01-23 10:36:15.39	132.84	7.13	-45.9	-47.4	23.8	6.05e-01	0	42	0	72876032	63	4258
2026-01-23 10:36:16.40	132.81	7.21	-45.7	-47.1	24.1	6.05e-01	0	42	0	74973184	63	4139
2026-01-23 10:36:17.41	132.78	7.29	-45.7	-47.1	24.1	6.07e-01	0	42	0	76546048	63	4107
2026-01-23 10:36:18.42	132.74	7.38	-45.7	-47.1	24.1	6.07e-01	0	42	0	78643200	63	4130
2026-01-23 10:36:19.42	132.71	7.46	-45.6	-47.0	24.2	6.06e-01	0	42	0	80216064	63	4084
2026-01-23 10:36:20.43	132.68	7.54	-45.7	-47.0	24.1	6.06e-01	0	42	0	82313216	63	4096
2026-01-23 10:36:21.44	132.65	7.62	-45.6	-47.0	24.2	6.06e-01	0	42	0	84410368	63	4065
2026-01-23 10:36:22.45	132.61	7.71	-45.7	-47.2	24.1	6.07e-01	0	42	0	86507520	63	4147
2026-01-23 10:36:23.46	132.58	7.79	-45.6	-47.0	24.3	6.07e-01	0	42	0	88080384	63	4053
2026-01-23 10:36:24.46	132.55	7.88	-45.6	-46.9	24.2	6.08e-01	0	42	0	90177536	63	4051
2026-01-23 10:36:25.47	132.51	7.96	-45.6	-47.0	24.3	6.07e-01	0	42	0	91750400	63	4062
2026-01-23 10:36:26.48	132.48	8.05	-45.7	-47.1	24.1	6.06e-01	0	42	0	93847552	63	4143
2026-01-23 10:36:27.49	132.44	8.13	-45.6	-47.0	24.3	6.07e-01	0	42	0	95420416	63	4077
2026-01-23 10:36:28.50	132.41	8.22	-45.6	-47.0	24.3	6.06e-01	0	42	0	97517568	63	4059
2026-01-23 10:36:29.50	132.38	8.30	-45.6	-46.9	24.3	6.07e-01	0	42	0	99614720	63	4045
2026-01-23 10:36:30.51	132.34	8.39	-45.6	-47.0	24.3	6.06e-01	0	42	0	101187584	63	4087
2026-01-23 10:36:31.52	132.30	8.48	-45.6	-47.0	24.3	6.04e-01	0	42	0	103284736	63	4053
2026-01-23 10:36:32.53	132.27	8.56	-45.4	-46.8	24.5	6.03e-01	0	42	0	104857600	62	4218
2026-01-23 10:36:33.54	132.23	8.65	-45.4	-46.8	24.5	6.05e-01	0	42	0	106954752	62	4201
2026-01-23 10:36:34.54	132.20	8.74	-45.4	-46.7	24.6	6.06e-01	0	42	0	109051904	62	4166
2026-01-23 10:36:35.55	132.16	8.82	-45.4	-46.7	24.6	6.07e-01	0	42	0	110624768	62	4183
2026-01-23 10:36:36.56	132.12	8.91	-45.4	-46.7	24.6	6.06e-01	0	42	0	112721920	62	4179
2026-01-23 10:36:37.56	132.09	9.00	-45.3	-46.6	24.7	6.08e-01	0	42	0	114819072	62	4129
2026-01-23 10:36:38.57	132.05	9.09	-45.3	-46.7	24.7	6.06e-01	0	42	0	116391936	62	4149
2026-01-23 10:36:39.58	132.01	9.18	-45.3	-46.7	24.7	6.04e-01	0	42	0	118489088	62	4147
2026-01-23 10:36:40.59	131.98	9.27	-45.2	-46.6	24.8	6.07e-01	0	42	0	120061952	62	4099
2026-01-23 10:36:41.60	131.94	9.36	-45.2	-46.6	24.8	6.07e-01	0	42	0	122159104	62	4102
2026-01-23 10:36:42.60	131.90	9.45	-45.4	-46.7	24.6	6.05e-01	0	42	0	123731968	62	4165
2026-01-23 10:36:43.61	131.86	9.54	-45.3	-46.6	24.7	6.03e-01	0	42	0	125829120	62	4135
2026-01-23 10:36:44.62	131.82	9.63	-45.3	-46.6	24.8	6.07e-01	0	42	0	127926272	62	4122
2026-01-23 10:36:45.63	131.78	9.72	-45.2	-46.5	24.8	6.05e-01	0	42	0	129499136	62	4077
2026-01-23 10:36:46.64	131.74	9.81	-45.1	-46.4	24.9	6.04e-01	0	42	0	131596288	62	4042
2026-01-23 10:36:47.64	131.71	9.90	-45.0	-46.3	25.0	6.07e-01	0	42	0	133693440	62	3994
2026-01-23 10:36:48.65	131.67	10.00	-45.0	-46.2	25.1	6.07e-01	0	42	0	135266304	61	4187
2026-01-23 10:36:49.66	131.63	10.09	-44.9	-46.2	25.1	6.04e-01	0	42	0	137363456	61	4175
2026-01-23 10:36:50.67	131.58	10.18	-45.0	-46.3	25.0	6.05e-01	0	42	0	138936320	61	4230
2026-01-23 10:36:51.68	131.54	10.28	-45.1	-46.4	24.9	6.07e-01	0	42	0	141033472	61	4276
2026-01-23 10:36:52.69	131.50	10.37	-45.0	-46.2	25.1	6.05e-01	0	42	0	143130624	61	4193
2026-01-23 10:36:53.69	131.46	10.46	-44.8	-46.0	25.4	6.06e-01	0	42	0	144703488	61	4078
2026-01-23 10:36:54.70	131.42	10.56	-44.8	-46.0	25.3	6.05e-01	0	42	0	146800640	61	4096
2026-01-23 10:36:55.71	131.38	10.65	-44.8	-46.0	25.4	6.08e-01	0	42	0	148373504	61	4082
2026-01-23 10:36:56.72	131.34	10.75	-44.8	-46.1	25.3	6.06e-01	0	42	0	150470656	61	4117
2026-01-23 10:36:57.73	131.29	10.84	-44.7	-45.9	25.5	6.06e-01	0	42	0	152043520	61	4020
2026-01-23 10:36:58.73	131.25	10.94	-44.7	-45.9	25.4	6.07e-01	0	42	0	154140672	61	4030
2026-01-23 10:36:59.74	131.21	11.04	-44.6	-45.8	25.6	6.06e-01	0	42	0	156237824	61	3976
2026-01-23 10:37:00.74	131.16	11.13	-44.5	-45.7	25.6	6.06e-01	0	42	0	158334976	61	3953
2026-01-23 10:37:01.75	131.12	11.23	-44.5	-45.7	25.7	6.04e-01	0	42	0	159907840	60	4174
2026-01-23 10:37:02.76	131.08	11.33	-44.5	-45.7	25.7	6.06e-01	0	42	0	162004992	60	4157
2026-01-23 10:37:03.77	131.03	11.43	-44.6	-45.8	25.6	6.06e-01	0	42	0	163577856	60	4203
2026-01-23 10:37:04.78	130.99	11.53	-44.5	-45.7	25.7	6.05e-01	0	43	0	165675008	60	4167
2026-01-23 10:37:05.78	130.94	11.62	-44.4	-45.6	25.8	6.04e-01	0	42	0	167247872	60	4119
2026-01-23 10:37:06.79	130.89	11.72	-44.4	-45.7	25.7	6.06e-01	0	42	0	169345024	60	4146
2026-01-23 10:37:07.80	130.85	11.82	-44.4	-45.6	25.8	6.07e-01	0	42	0	171442176	60	4113
2026-01-23 10:37:08.81	130.80	11.92	-44.4	-45.6	25.8	6.05e-01	0	42	0	173015040	60	4104
2026-01-23 10:37:09.81	130.76	12.02	-44.4	-45.6	25.8	6.05e-01	0	42	0	175112192	60	4135
2026-01-23 10:37:10.82	130.71	12.13	-44.3	-45.5	25.2	6.07e-01	0	42	0	176685056	60	4070
2026-01-23 10:37:11.83	130.66	12.23	-44.3	-45.4	26.0	6.04e-01	0	42	0	178782208	60	4050
2026-01-23 10:37:12.84	130.61	12.33	-44.3	-45.5	25.8	6.05e-01	0	42	0	180879360	60	4080
2026-01-23 10:37:13.85	130.56	12.43	-44.2	-45.4	26.0	6.06e-01	0	42	0	182452224	60	4026
2026-01-23 10:37:14.86	130.52	12.54	-44.3	-45.4	25.9	6.04e-01	0	42	0	184549376	60	4051
2026-01-23 10:37:15.86	130.47	12.64	-44.1	-45.3	26.1	6.04e-01	0	42	0	186646528	60	3986
2026-01-23 10:37:16.87	130.42	12.74	-44.3	-45.4	26.0	6.07e-01	0	42	0	188219392	60	4050
2026-01-23 10:37:17.88	130.37	12.85	-44.2	-45.3	26.1	6.03e-01	0	42	0	190316544	60	4004
2026-01-23 10:37:18.89	130.32	12.95	-44.1	-45.3	26.1	6.06e-01	0	42	0	191889408	60	3966
2026-01-23 10:37:19.89	130.27	13.06	-44.1	-45.3	26.1	6.06e-01	0	42	0	193986560	60	3981
2026-01-23 10:37:20.90	130.22	13.16	-44.2	-45.4	26.1	6.08e-01	0	42	0	195559424	60	4014
2026-01-23 10:37:21.91	130.16	13.27	-44.2	-45.4	26.1	6.03e-01	0	42	0	197656576	60	4028
2026-01-23 10:37:22.92	130.11	13.38	-44.1	-45.3	26.1	6.04e-01	0	42	0	199753728	60	3983
2026-01-23 10:37:23.92	130.06	13.48	-44.2	-45.4	26.0	6.07e-01	0	42	0	201326592	60	4016
2026-01-23 10:37:24.93	130.01	13.59	-44.1	-45.3	26.1	6.07e-01	0	42	0	203423744	60	3980
2026-01-23 10:37:25.94	129.95	13.70	-44.2	-45.4	26.1	6.05e-01	0	42	0	205520896	60	4013
2026-01-23 10:37:26.95	129.90	13.81	-44.1	-45.3	26.2	6.06e-01	0	42	0	207093760	60	3961
2026-01-23 10:37:27.95	129.85	13.92	-44.1	-45.3	26.1	6.05e-01	0	42	0	209190912	60	3981
2026-01-23 10:37:28.96	129.79	14.03	-44.2	-45.4	26.1	6.06e-01	0	42	0	210763776	60	4026
2026-01-23 10:37:29.97	129.74	14.14	-44.1	-45.3	26.2	6.05e-01	0	42	0	212860928	60	3979
2026-01-23 10:37:30.98	129.68	14.25	-44.2	-45.3	26.1	6.07e-01	0	42	0	214958080	60	4002
2026-01-23 10:37:31.99	129.63	14.36	-44.3	-45.4	26.1	6.05e-01	0	42	0	216530944	60	4037
2026-01-23 10:37:32.99	129.57	14.47	-44.2	-45.4	26.1	6.05e-01	0	43	0	218628096	60	4019
2026-01-23 10:37:34.00	129.51	14.59	-44.2	-45.4	26.1	6.06e-01	0	42	0	220200960	60	4031
2026-01-23 10:37:35.01	129.45	14.70	-44.1	-45.3	26.2	6.06e-01	0	42	0	222298112	60	3983
2026-01-23 10:37:36.02	129.40	14.81	-44.2	-45.3	26.2	6.07e-01	0	42	0	223870976	60	3997
2026-01-23 10:37:37.02	129.34	14.93	-44.2	-45.4	26.1	6.06e-01	0	42	0	225968128	60	4020
2026-01-23 10:37:38.03	129.28	15.04	-44.2	-45.3	26.2	6.05e-01	0	42	0	228065280	60	3993
2026-01-23 10:37:39.04	129.22	15.16	-44.1	-45.3	26.2	6.04e-01	0	42	0	230162432	60	3975
2026-01-23 10:37:40.05	129.16	15.27	-44.2	-45.4	26.2	6.04e-01	0	42	0	231735296	60	4007
2026-01-23 10:37:41.06	129.10	15.39	-44.2	-45.4	26.2	6.07e-01	0	42	0	233832448	60	4006
2026-01-23 10:37:42.07	129.04	15.51	-44.1	-45.3	26.2	6.04e-01	0	42	0	235405312	60	3963
2026-01-23 10:37:43.07	128.98	15.63	-44.0	-45.2	26.4	6.05e-01	0	42	0	237502464	60	3921
2026-01-23 10:37:44.08	128.92	15.74	-44.1	-45.2	26.2	6.05e-01	0	42	0	239075328	59	4169
2026-01-23 10:37:45.09	128.85	15.86	-44.1	-45.3	26.2	6.05e-01	0	42	0	241172480	59	4200
2026-01-23 10:37:46.10	128.79	15.98	-44.1	-45.2	26.2	6.04e-01	0	42	0	243269632	59	4191
2026-01-23 10:37:47.11	128.73	16.10	-44.0	-45.1	26.3	6.05e-01	0	42	0	244842496	59	4123
2026-01-23 10:37:48.11	128.66	16.22	-44.0	-45.1	26.3	6.06e-01	0	42	0	246939648	59	4140
2026-01-23 10:37:49.12	128.60	16.35	-44.0	-45.1	26.3	6.03e-01	0	42	0	248512512	59	4138
2026-01-23 10:37:50.13	128.53	16.47	-43.9	-45.0	26.4	6.05e-01	0	42	0	250609664	59	4098
2026-01-23 10:37:51.14	128.46	16.59	-43.9	-45.1	26.4	6.04e-01	0	42	0	252706816	59	4103
2026-01-23 10:37:52.15	128.40	16.71	-44.0	-45.1	26.4	6.05e-01	0	42	0	254279680	59	4120
2026-01-23 10:37:53.16	128.33	16.84	-44.0	-45.1	26.3	6.05e-01	0	42	0	256376832	59	4138
2026-01-23 10:37:54.16	128.26	16.96	-43.9	-45.1	26.4	6.02e-01	0	42	0	258473984	59	4112
2026-01-23 10:37:55.17	128.19	17.09	-44.0	-45.1	26.4	6.06e-01	0	42	0	260046848	59	4123
2026-01-23 10:37:56.18	128.12	17.21	-43.9	-45.0	26.5	6.04e-01	0	42	0	262144000	59	4086
2026-01-23 10:37:57.19	128.05	17.34	-43.9	-45.1	26.5	6.05e-01	0	42	0	263716864	59	4103
2026-01-23 10:37:58.19	127.98	17.47	-43.8	-45.0	26.5	6.03e-01	0	42	0	265814016	59	4060
2026-01-23 10:37:59.20	127.91	17.60	-43.9	-45.1	26.4	6.05e-01	0	42	0	267386880	59	4103
2026-01-23 10:38:00.21	127.84	17.72	-44.0	-45.2	26.4	6.05e-01	0	42	0	269484032	59	4164
2026-01-23 10:38:01.22	127.77	17.85	-44.0	-45.2	26.4	6.04e-01	0	42	0	271581184	59	4150
2026-01-23 10:38:02.22	127.70	17.98	-44.1	-45.2	26.3	6.07e-01	0	42	0	273154048	59	4186
2026-01-23 10:38:03.23	127.62	18.11	-44.0	-45.2	26.4	6.05e-01	0	42	0	275251200	59	4156
2026-01-23 10:38:04.24	127.55	18.25	-44.2	-45.3	26.2	6.06e-01	0	42	0	277348352	59	4231
2026-01-23 10:38:05.25	127.47	18.38	-44.2	-45.4	26.2	6.04e-01	0	42	0	278921216	59	4243
2026-01-23 10:38:06.25	127.40	18.51	-44.2	-45.3	26.2	6.04e-01	0	42	0	281018368	59	4234
2026-01-23 10:38:07.26	127.32	18.65	-44.2	-45.4	26.1	6.04e-01	0	42	0	282591232	59	4261
2026-01-23 10:38:08.27	127.24	18.78	-44.2	-45.3	26.2	6.05e-01	0	42	0	284688384	59	4227
2026-01-23 10:38:09.28	127.16	18.92	-44.3	-45.4	26.2	6.05e-01	0	42	0	286785536	59	4269
2026-01-23 10:38:10.29	127.08	19.05	-44.3	-45.4	26.1	6.04e-01	0	42	0	288358400	59	4291
2026-01-23 10:38:11.30	127.00	19.19	-44.2	-45.3	26.2	6.04e-01	0	42	0	290455552	59	4221
2026-01-23 10:38:12.30	126.92	19.33	-44.3	-45.4	26.2	6.08e-01	0	42	0	292028416	59	4284
2026-01-23 10:38:13.31	126.84	19.46	-44.2	-45.4	26.1	6.05e-01	0	42	0	294125568	59	4264
2026-01-23 10:38:14.32	126.76	19.60	-44.2	-45.4	26.2	6.04e-01	0	42	0	295698432	59	4258
2026-01-23 10:38:15.32	126.68	19.74	-44.2	-45.4	26.2	6.04e-01	0	42	0	297795584	59	4244
2026-01-23 10:38:16.33	126.59	19.88	-44.1	-45.3	26.3	6.04e-01	0	42	0	299892736	59	4212
2026-01-23 10:38:17.34	126.51	20.02	-44.2	-45.4	26.2	6.04e-01	0	42	0	301465600	59	4248
2026-01-23 10:38:18.35	126.42	20.17	-44.2	-45.3	26.2	6.06e-01	0	42	0	303562752	59	4237
2026-01-23 10:38:19.35	126.34	20.31	-44.2	-45.3	26.3	6.04e-01	0	42	0	305659904	59	4217
2026-01-23 10:38:20.36	126.25	20.45	-44.2	-45.4	26.2	6.05e-01	0	42	0	307232768	59	4261
2026-01-23 10:38:21.37	126.16	20.60	-44.2	-45.4	26.3	6.05e-01	0	42	0	309329920	59	4254
2026-01-23 10:38:22.38	126.07	20.75	-44.3	-45.5	26.2	6.06e-01	0	42	0	310902784	59	4300
2026-01-23 10:38:23.39	125.98	20.89	-44.4	-45.6	26.1	6.04e-01	0	42	0	312999936	59	4342
2026-01-23 10:38:24.39	125.89	21.04	-44.4	-45.6	26.1	6.03e-01	0	42	0	315097088	59	4346
2026-01-23 10:38:25.40	125.80	21.19	-44.4	-45.5	26.1	6.05e-01	0	42	0	316669952	59	4332
2026-01-23 10:38:26.41	125.70	21.34	-44.4	-45.5	26.1	6.06e-01	0	42	0	318767104	59	4322
2026-01-23 10:38:27.42	125.61	21.49	-44.3	-45.5	26.2	6.05e-01	0	42	0	320339968	59	4312
2026-01-23 10:38:28.42	125.52	21.64	-44.2	-45.4	26.3	6.05e-01	0	42	0	322437120	59	4243
2026-01-23 10:38:29.43	125.42	21.79	-44.3	-45.4	26.2	6.05e-01	0	42	0	324009984	59	4290
2026-01-23 10:38:30.44	125.32	21.94	-44.2	-45.4	26.2	6.05e-01	0	42	0	326107136	59	4262
2026-01-23 10:38:31.45	125.22	22.10	-44.2	-45.4	26.3	6.04e-01	0	43	0	328204288	59	4258
2026-01-23 10:38:32.46	125.12	22.25	-44.2	-45.3	26.4	6.05e-01	0	42	0	329777152	59	4225
2026-01-23 10:38:33.46	125.03	22.40	-44.7	-55.5	3.8	7.47e-01	0	42	104	331350016	59	13602
2026-01-23 10:38:34.47	124.92	22.56	-44.6	-55.3	3.9	7.40e-01	0	43	104	331350016	59	13379
2026-01-23 10:38:35.48	124.82	22.72	-44.6	-55.4	3.8	7.44e-01	0	42	104	331350016	60	12775
2026-01-23 10:38:36.49	124.72	22.88	-45.1	-55.8	3.8	7.42e-01	0	42	104	331350016	60	13346
2026-01-23 10:38:37.50	124.61	23.04	-45.9	-56.6	3.9	7.42e-01	0	43	104	331350016	62	13021
2026-01-23 10:38:38.50	124.51	23.20	-50.1	-61.7	4.0	7.43e-01	0	43	104	331350016	71	13902
2026-01-23 10:38:39.51	124.40	23.36	-46.2	-57.1	3.8	7.44e-01	0	43	104	331350016	64	12296
2026-01-23 10:38:40.52	124.29	23.52	-45.9	-56.7	4.0	7.41e-01	0	42	104	331350016	63	12479
2026-01-23 10:38:41.53	124.18	23.68	-45.2	-55.9	3.9	7.46e-01	0	43	104	331350016	62	11968
2026-01-23 10:38:42.53	124.07	23.85	-44.9	-55.7	3.8	7.45e-01	0	43	104	331350016	61	12465
2026-01-23 10:38:43.54	123.96	24.01	-45.2	-55.9	3.9	7.40e-01	0	42	104	331350016	61	12777
2026-01-23 10:38:44.55	123.85	24.18	-46.0	-56.9	3.8	7.45e-01	0	42	104	331350016	62	13569
2026-01-23 10:38:45.56	123.73	24.35	-47.8	-58.6	3.9	7.44e-01	0	42	104	331350016	65	13872
2026-01-23 10:38:46.57	123.62	24.52	-47.0	-57.8	4.3	7.26e-01	0	43	104	331350016	66	11920
2026-01-23 10:38:47.58	123.50	24.69	-47.3	-58.1	3.8	7.43e-01	0	43	104	331350016	64	13833
2026-01-23 10:38:48.59	123.38	24.86	-46.7	-57.5	4.3	7.29e-01	0	42	104	331350016	65	12104
2026-01-23 10:38:49.59	123.26	25.03	-44.7	-55.3	3.8	7.45e-01	0	42	104	331350016	61	11914
2026-01-23 10:38:50.60	123.14	25.20	-44.7	-55.2	4.1	7.33e-01	0	43	104	331350016	61	11691
2026-01-23 10:38:51.61	123.02	25.37	-47.0	-57.9	3.8	7.43e-01	0	42	104	331350016	64	13539
2026-01-23 10:38:52.62	122.89	25.55	-48.1	-59.4	3.8	7.47e-01	0	42	104	331350016	68	12754
2026-01-23 10:38:53.63	122.77	25.72	-47.8	-58.8	3.8	7.44e-01	0	42	104	331350016	65	14116
2026-01-23 10:38:54.64	122.64	25.90	-52.1	-64.6	3.8	7.44e-01	0	42	104	331350016	74	16449
2026-01-23 10:38:55.64	122.51	26.08	-44.8	-55.5	3.8	7.48e-01	0	43	104	331350016	61	12172
2026-01-23 10:38:56.65	122.38	26.26	-44.9	-55.5	3.9	7.42e-01	0	42	104	331350016	61	12133
2026-01-23 10:38:57.66	122.25	26.44	-44.8	-55.5	3.8	7.41e-01	0	42	104	331350016	61	12191
2026-01-23 10:38:58.67	122.12	26.62	-44.5	-55.2	3.8	7.40e-01	0	42	104	331350016	61	11737
2026-01-23 10:38:59.68	121.98	26.80	-45.2	-56.0	3.8	7.45e-01	0	42	104	331350016	60	13584
2026-01-23 10:39:00.68	121.84	26.99	-45.7	-56.5	3.8	7.47e-01	0	42	104	331350016	61	13614
2026-01-23 10:39:01.69	121.71	27.17	-50.2	-61.7	3.8	7.47e-01	0	42	104	331350016	70	14855
2026-01-23 10:39:02.70	121.57	27.36	-45.9	-56.7	3.8	7.47e-01	0	42	104	331350016	63	12514
2026-01-23 10:39:03.71	121.42	27.55	-49.4	-61.0	3.8	7.46e-01	0	42	104	331350016	69	14460
2026-01-23 10:39:04.72	121.28	27.74	-45.0	-55.7	3.8	7.44e-01	0	43	104	331350016	62	11762
2026-01-23 10:39:05.73	121.13	27.93	-44.2	-54.9	3.9	7.44e-01	0	43	104	331350016	60	11990
2026-01-23 10:39:06.73	120.99	28.11	-44.1	-54.8	3.8	7.44e-01	0	43	104	331350016	60	11922
2026-01-23 10:39:07.74	120.84	28.31	-50.5	-62.2	3.8	7.44e-01	0	42	104	331350016	71	14838
2026-01-23 10:39:08.75	120.69	28.50	-46.8	-57.7	3.8	7.48e-01	0	43	104	331350016	65	12488
2026-01-23 10:39:09.76	120.53	28.70	-51.5	-63.7	3.8	7.44e-01	0	43	104	331350016	73	15608
2026-01-23 10:39:10.77	120.38	28.89	-53.1	-66.2	3.8	7.45e-01	0	42	104	331350016	76	17586
2026-01-23 10:39:11.77	120.22	29.09	-44.7	-55.4	3.8	7.45e-01	0	42	104	331350016	60	12670
2026-01-23 10:39:12.78	120.06	29.29	-44.3	-55.0	3.8	7.48e-01	0	43	104	331350016	60	12165
2026-01-23 10:39:13.79	119.90	29.49	-44.2	-55.0	3.8	7.41e-01	0	43	104	331350016	60	12151
2026-01-23 10:39:14.80	119.74	29.69	-44.1	-54.8	3.8	7.44e-01	0	42	104	331350016	60	11929
2026-01-23 10:39:15.81	119.57	29.89	-46.2	-57.0	3.8	7.46e-01	0	43	104	331350016	62	13617
2026-01-23 10:39:16.82	119.41	30.09	-46.5	-57.3	3.8	7.48e-01	0	43	104	331350016	63	13402
2026-01-23 10:39:17.82	119.24	30.30	-52.1	-64.6	3.8	7.45e-01	0	42	104	331350016	74	16345
2026-01-23 10:39:18.83	119.06	30.50	-53.7	-67.6	3.8	7.44e-01	0	42	104	331350016	77	19479
2026-01-23 10:39:19.84	118.89	30.71	-45.0	-55.6	3.8	7.44e-01	0	43	104	331350016	60	13091
2026-01-23 10:39:20.85	118.71	30.92	-44.6	-55.4	3.8	7.45e-01	0	42	104	331350016	61	12002
2026-01-23 10:39:21.86	118.53	31.13	-44.7	-55.4	3.8	7.45e-01	0	43	104	331350016	61	11981
2026-01-23 10:39:22.87	118.35	31.34	-44.4	-55.1	3.8	7.48e-01	0	42	104	331350016	60	12301
2026-01-23 10:39:23.88	118.17	31.55	-45.6	-56.3	3.8	7.46e-01	0	42	104	331350016	61	13397
2026-01-23 10:39:24.89	117.98	31.77	-47.1	-58.1	3.9	7.45e-01	0	43	104	331350016	64	13768
2026-01-23 10:39:25.89	117.79	31.98	-54.0	-68.2	3.7	7.42e-01	0	42	104	331350016	78	19668
2026-01-23 10:39:26.90	117.60	32.20	-44.7	-55.4	3.8	7.47e-01	0	43	104	331350016	61	12066
2026-01-23 10:39:27.91	117.40	32.42	-53.4	-67.0	3.8	7.47e-01	0	43	104	331350016	77	18297
2026-01-23 10:39:28.92	117.21	32.64	-45.1	-55.8	3.8	7.44e-01	0	42	104	331350016	62	11873
2026-01-23 10:39:29.93	117.01	32.86	-44.8	-55.6	3.8	7.45e-01	0	43	104	331350016	61	12316
2026-01-23 10:39:30.94	116.80	33.08	-44.4	-55.1	3.8	7.45e-01	0	43	104	331350016	60	12287
2026-01-23 10:39:31.95	116.60	33.30	-48.7	-60.0	3.8	7.45e-01	0	43	104	331350016	68	13588
2026-01-23 10:39:32.96	116.39	33.53	-46.5	-57.5	3.8	7.45e-01	0	43	104	331350016	65	12116
2026-01-23 10:39:33.97	116.17	33.75	-54.3	-69.2	3.8	7.44e-01	0	43	104	331350016	79	20903
2026-01-23 10:39:34.97	115.96	33.98	-54.1	-68.8	3.7	7.44e-01	0	43	104	331350016	79	19884
2026-01-23 10:39:35.98	115.74	34.21	-46.1	-56.8	3.9	7.46e-01	0	42	104	331350016	62	13403
2026-01-23 10:39:36.99	115.52	34.44	-45.5	-56.2	3.8	7.47e-01	0	42	104	331350016	62	12506
2026-01-23 10:39:38.00	115.30	34.67	-45.9	-56.8	3.8	7.43e-01	0	42	104	331350016	62	13325
2026-01-23 10:39:39.01	115.07	34.90	-46.0	-57.0	3.8	7.46e-01	0	43	104	331350016	62	13607
2026-01-23 10:39:40.02	114.83	35.13	-45.5	-56.3	3.8	7.42e-01	0	43	104	331350016	62	12640
2026-01-23 10:39:41.03	114.60	35.37	-48.7	-59.9	3.8	7.44e-01	0	43	104	331350016	67	14277
2026-01-23 10:39:42.03	114.36	35.60	-54.8	-71.0	3.8	7.40e-01	0	43	104	331350016	80	24182
2026-01-23 10:39:43.04	114.12	35.84	-46.8	-57.6	3.8	7.45e-01	0	43	104	331350016	65	12360
2026-01-23 10:39:44.05	113.87	36.08	-54.7	-70.5	3.8	7.47e-01	0	43	104	331350016	80	22897
2026-01-23 10:39:45.06	113.62	36.32	-46.8	-57.7	3.9	7.45e-01	0	43	104	331350016	65	12379
2026-01-23 10:39:46.07	113.37	36.56	-46.7	-57.5	3.8	7.48e-01	0	42	104	331350016	65	12224
2026-01-23 10:39:47.07	113.12	36.80	-46.8	-57.9	3.8	7.41e-01	0	43	104	331350016	65	12681
2026-01-23 10:39:48.08	112.85	37.05	-52.4	-65.3	3.8	7.45e-01	0	43	104	331350016	76	15786
2026-01-23 10:39:49.09	112.59	37.29	-47.3	-58.3	3.8	7.45e-01	0	43	104	331350016	66	12658
2026-01-23 10:39:50.10	112.32	37.54	-54.9	-71.0	3.8	7.46e-01	0	43	104	331350016	80	24392
2026-01-23 10:39:51.11	112.04	37.79	-54.4	-69.8	3.8	7.42e-01	0	43	104	331350016	80	21203
2026-01-23 10:39:52.12	111.76	38.04	-48.0	-59.0	3.9	7.46e-01	0	43	104	331350016	66	13685
2026-01-23 10:39:53.13	111.48	38.29	-47.1	-58.2	3.8	7.43e-01	0	43	104	331350016	66	12421
2026-01-23 10:39:54.14	111.19	38.54	-46.8	-57.7	3.8	7.45e-01	0	43	104	331350016	65	12441
2026-01-23 10:39:55.14	110.90	38.79	-46.2	-57.0	3.8	7.40e-01	0	43	104	331350016	64	12232
2026-01-23 10:39:56.15	110.61	39.04	-47.5	-58.6	3.8	7.41e-01	0	43	104	331350016	66	12981
2026-01-23 10:39:57.16	110.31	39.30	-49.1	-60.6	3.8	7.43e-01	0	43	104	331350016	70	13039
2026-01-23 10:39:58.17	110.00	39.55	-54.9	-71.4	3.8	7.40e-01	0	43	104	331350016	81	24008
2026-01-23 10:39:59.18	109.69	39.81	-47.3	-58.3	3.8	7.47e-01	0	42	104	331350016	66	12520
2026-01-23 10:40:00.18	109.37	40.07	-54.9	-71.2	3.9	7.46e-01	0	43	104	331350016	80	24932
2026-01-23 10:40:01.19	109.05	40.32	-48.2	-59.3	3.8	7.45e-01	0	43	104	331350016	68	12664
2026-01-23 10:40:02.20	108.73	40.58	-47.5	-58.5	3.8	7.46e-01	0	42	104	331350016	67	12224
2026-01-23 10:40:03.21	108.39	40.85	-46.7	-57.6	3.8	7.45e-01	0	43	104	331350016	65	12295
2026-01-23 10:40:04.22	108.05	41.11	-50.9	-62.6	3.8	7.43e-01	0	42	104	331350016	73	13816
2026-01-23 10:40:05.23	107.71	41.37	-47.5	-58.6	3.8	7.41e-01	0	43	104	331350016	67	12310
2026-01-23 10:40:06.24	107.36	41.63	-54.9	-71.0	3.9	7.47e-01	0	43	104	331350016	80	24339
2026-01-23 10:40:07.24	107.01	41.89	-52.7	-65.6	3.9	7.41e-01	0	43	104	331350016	77	15422
2026-01-23 10:40:08.25	106.65	42.16	-47.4	-58.5	3.8	7.45e-01	0	42	104	331350016	65	13632
2026-01-23 10:40:09.26	106.28	42.42	-46.6	-57.6	3.8	7.49e-01	0	42	104	331350016	64	13004
2026-01-23 10:40:10.27	105.91	42.69	-46.2	-57.0	3.8	7.43e-01	0	42	104	331350016	64	12234
2026-01-23 10:40:11.28	105.53	42.96	-45.8	-56.6	3.8	7.44e-01	0	43	104	331350016	63	12367
2026-01-23 10:40:12.28	105.14	43.22	-45.8	-56.8	3.8	7.45e-01	0	43	104	331350016	63	12545
2026-01-23 10:40:13.29	104.75	43.49	-48.0	-58.7	3.8	7.39e-01	0	42	104	331350016	67	12427
2026-01-23 10:40:14.30	104.35	43.76	-54.0	-68.6	3.9	7.43e-01	0	43	104	331350016	80	18354
2026-01-23 10:40:15.31	103.94	44.03	-45.5	-56.3	3.8	7.43e-01	0	42	104	331350016	62	12535
2026-01-23 10:40:16.31	103.53	44.29	-49.4	-70.0	4.1	7.39e-01	0	43	104	331350016	70	38348
2026-01-23 10:40:17.32	103.11	44.56	-45.6	-57.2	3.9	7.46e-01	0	42	104	331350016	63	13257
2026-01-23 10:40:18.33	102.68	44.83	-45.3	-56.3	3.8	7.42e-01	0	43	104	331350016	62	12577
2026-01-23 10:40:19.34	102.25	45.10	-45.6	-57.4	3.9	7.48e-01	0	43	104	331350016	61	15213
2026-01-23 10:40:20.34	101.81	45.37	-48.4	-63.3	3.8	7.47e-01	0	42	104	331350016	68	19910
2026-01-23 10:40:21.35	101.36	45.64	-45.4	-58.7	3.8	7.46e-01	0	42	104	331350016	61	17532
2026-01-23 10:40:22.36	100.90	45.91	-47.9	-69.6	3.8	7.47e-01	0	43	104	331350016	67	43467
2026-01-23 10:40:23.37	100.43	46.18	-44.5	-61.5	4.1	7.37e-01	0	43	104	331350016	59	27182
2026-01-23 10:40:24.38	99.95	46.45	-42.3	-56.9	3.9	7.49e-01	0	43	104	331350016	56	19069
2026-01-23 10:40:25.39	99.47	46.71	-44.9	-56.7	3.8	7.45e-01	0	43	104	331350016	60	14842
2026-01-23 10:40:26.40	98.98	46.98	-44.5	-56.7	3.9	7.43e-01	0	42	104	331350016	60	14857
2026-01-23 10:40:27.40	98.48	47.25	-45.4	-56.2	3.8	7.42e-01	0	43	104	331350016	61	13196
2026-01-23 10:40:28.41	97.97	47.51	-46.1	-56.9	3.8	7.47e-01	0	42	104	331350016	64	11966
2026-01-23 10:40:29.42	97.45	47.78	-48.6	-59.9	3.8	7.42e-01	0	43	104	331350016	68	13485
2026-01-23 10:40:30.43	96.92	48.05	-52.8	-65.7	3.9	7.45e-01	0	42	104	331350016	77	15624
2026-01-23 10:40:31.44	96.39	48.31	-48.3	-59.3	3.8	7.43e-01	0	42	104	331350016	66	14153
2026-01-23 10:40:32.45	95.84	48.57	-51.1	-63.2	3.9	7.42e-01	0	43	104	331350016	74	13915
2026-01-23 10:40:33.46	95.28	48.83	-46.0	-56.8	3.8	7.45e-01	0	42	104	331350016	64	11858
2026-01-23 10:40:34.47	94.72	49.10	-46.0	-56.9	3.8	7.43e-01	0	42	104	331350016	63	12760
2026-01-23 10:40:35.47	94.15	49.35	-50.3	-61.6	3.8	7.46e-01	0	43	104	331350016	70	14640
2026-01-23 10:40:36.48	93.56	49.61	-51.4	-64.1	3.9	7.42e-01	0	42	104	331350016	75	14674
2026-01-23 10:40:37.49	92.97	49.87	-50.2	-61.7	3.8	7.47e-01	0	43	104	331350016	70	14776
2026-01-23 10:40:38.50	92.36	50.12	-54.8	-70.7	3.9	7.47e-01	0	43	104	331350016	81	22218
2026-01-23 10:40:39.51	91.75	50.37	-47.6	-58.6	3.9	7.48e-01	0	43	104	331350016	67	12337
2026-01-23 10:40:40.51	91.13	50.62	-45.8	-56.7	3.8	7.45e-01	0	43	104	331350016	63	12390
2026-01-23 10:40:41.52	90.49	50.87	-45.5	-56.3	3.8	7.44e-01	0	43	104	331350016	62	12607
2026-01-23 10:40:42.53	89.84	51.11	-45.1	-55.8	3.8	7.44e-01	0	43	104	331350016	62	11829
2026-01-23 10:40:43.54	89.18	51.35	-46.2	-57.2	3.9	7.46e-01	0	43	104	331350016	62	13922
2026-01-23 10:40:44.55	88.51	51.59	-46.7	-57.4	3.8	7.45e-01	0	43	104	331350016	64	12746
2026-01-23 10:40:45.56	87.83	51.83	-53.3	-66.5	3.8	7.47e-01	0	43	104	331350016	76	18123
2026-01-23 10:40:46.56	87.15	52.06	-48.3	-59.2	3.8	7.43e-01	0	43	104	331350016	68	12468
2026-01-23 10:40:47.57	86.45	52.29	-52.2	-64.5	3.8	7.42e-01	0	42	104	331350016	74	16230
2026-01-23 10:40:48.58	85.73	52.52	-48.8	-59.7	3.9	7.43e-01	0	42	104	331350016	69	12516
2026-01-23 10:40:49.59	85.01	52.75	-45.5	-56.3	3.8	7.43e-01	0	43	104	331350016	62	12545
2026-01-23 10:40:50.59	84.28	52.96	-44.9	-55.6	3.8	7.43e-01	0	43	104	331350016	61	12348
2026-01-23 10:40:51.60	83.53	53.18	-52.7	-65.7	3.8	7.44e-01	0	43	104	331350016	75	17588
2026-01-23 10:40:52.61	82.78	53.39	-51.0	-63.3	3.9	7.46e-01	0	43	104	331350016	74	14129
2026-01-23 10:40:53.62	82.01	53.60	-53.2	-66.4	3.8	7.45e-01	0	42	104	331350016	76	18009
2026-01-23 10:40:54.62	81.24	53.80	-54.8	-70.9	3.9	7.46e-01	0	43	104	331350016	80	24040
2026-01-23 10:40:55.63	80.44	54.00	-45.1	-55.9	3.9	7.47e-01	0	43	104	331350016	62	12012
2026-01-23 10:40:56.64	79.64	54.20	-44.9	-55.5	3.8	7.46e-01	0	42	104	331350016	61	12208
2026-01-23 10:40:57.65	78.83	54.38	-45.0	-55.7	3.8	7.45e-01	0	42	104	331350016	61	12387
2026-01-23 10:40:58.66	78.01	54.57	-45.0	-55.8	3.9	7.46e-01	0	43	104	331350016	61	12575
2026-01-23 10:40:59.67	77.17	54.75	-46.8	-57.8	3.9	7.46e-01	0	43	104	331350016	64	13334
2026-01-23 10:41:00.68	76.33	54.92	-47.6	-58.7	3.8	7.47e-01	0	42	104	331350016	65	13934
2026-01-23 10:41:01.68	75.48	55.09	-55.2	-71.6	3.7	7.46e-01	0	43	104	331350016	80	26091
2026-01-23 10:41:02.69	74.62	55.25	-47.7	-58.8	3.8	7.45e-01	0	43	104	331350016	67	12606
2026-01-23 10:41:03.70	73.74	55.41	-54.8	-70.3	3.7	7.47e-01	0	43	104	331350016	80	22467
2026-01-23 10:41:04.71	72.86	55.55	-47.9	-59.0	3.8	7.43e-01	0	43	104	331350016	68	12233
2026-01-23 10:41:05.72	71.96	55.70	-46.0	-56.9	3.8	7.45e-01	0	43	104	331350016	63	12693
2026-01-23 10:41:06.72	71.07	55.83	-46.2	-57.1	3.8	7.47e-01	0	42	104	331350016	63	13063
2026-01-23 10:41:07.73	70.16	55.96	-55.1	-71.5	3.7	7.47e-01	0	43	104	331350016	80	25591
2026-01-23 10:41:08.74	69.24	56.09	-49.6	-61.1	3.9	7.41e-01	0	43	104	331350016	71	13003
2026-01-23 10:41:09.75	68.31	56.20	-55.4	-72.6	3.8	7.47e-01	0	43	104	331350016	81	27665
2026-01-23 10:41:10.76	67.37	56.31	-55.2	-72.0	3.8	7.44e-01	0	42	104	331350016	81	25704
2026-01-23 10:41:11.77	66.43	56.42	-45.7	-56.4	3.8	7.43e-01	0	42	104	331350016	63	11977
2026-01-23 10:41:12.78	65.48	56.51	-45.7	-56.5	3.9	7.47e-01	0	43	104	331350016	63	12128
2026-01-23 10:41:13.79	64.53	56.60	-45.8	-56.5	3.8	7.44e-01	0	43	104	331350016	63	12169
2026-01-23 10:41:14.79	63.57	56.68	-45.9	-56.9	3.8	7.45e-01	0	43	104	331350016	63	12667
2026-01-23 10:41:15.80	62.61	56.75	-47.8	-58.7	3.8	7.44e-01	0	43	104	331350016	66	13239
2026-01-23 10:41:16.81	61.63	56.81	-49.8	-61.1	3.9	7.46e-01	0	43	104	331350016	69	14552
2026-01-23 10:41:17.82	60.66	56.87	-55.3	-72.5	3.8	7.45e-01	0	43	104	331350016	81	27274
2026-01-23 10:41:18.83	59.68	56.92	-47.4	-58.4	3.8	7.40e-01	0	43	104	331350016	67	12006
2026-01-23 10:41:19.84	58.70	56.96	-55.4	-72.6	3.8	7.45e-01	0	43	104	331350016	81	27704
2026-01-23 10:41:20.84	57.72	56.99	-47.0	-57.9	3.8	7.45e-01	0	43	104	331350016	66	12076
2026-01-23 10:41:21.85	56.73	57.02	-46.5	-57.4	3.9	7.45e-01	0	43	104	331350016	64	12768
2026-01-23 10:41:22.86	55.74	57.03	-46.1	-56.7	3.8	7.45e-01	0	43	104	331350016	64	11807
2026-01-23 10:41:23.87	54.75	57.04	-55.1	-71.3	3.8	7.46e-01	0	43	104	331350016	80	25043
2026-01-23 10:41:24.87	53.77	57.04	-49.6	-60.9	3.8	7.44e-01	0	43	104	331350016	71	12768
2026-01-23 10:41:25.88	52.78	57.03	-55.4	-72.7	3.8	7.46e-01	0	43	104	331350016	81	27910
2026-01-23 10:41:26.89	51.79	57.02	-55.2	-71.5	3.8	7.46e-01	0	43	104	331350016	81	24149
2026-01-23 10:41:27.90	50.81	56.99	-45.9	-56.6	3.8	7.42e-01	0	43	104	331350016	63	12360
2026-01-23 10:41:28.91	49.82	56.96	-45.7	-56.4	3.8	7.46e-01	0	43	104	331350016	63	12038
2026-01-23 10:41:29.92	48.84	56.92	-45.7	-56.3	3.8	7.45e-01	0	43	104	331350016	63	11916
2026-01-23 10:41:30.93	47.86	56.87	-45.8	-56.6	3.9	7.43e-01	0	43	104	331350016	63	12340
2026-01-23 10:41:31.94	46.88	56.81	-47.9	-58.9	3.8	7.43e-01	0	43	104	331350016	66	13555
2026-01-23 10:41:32.94	45.92	56.75	-49.9	-61.3	3.8	7.47e-01	0	43	104	331350016	70	14119
2026-01-23 10:41:33.95	44.95	56.68	-55.3	-72.0	3.8	7.46e-01	0	43	104	331350016	81	25822
2026-01-23 10:41:34.96	43.99	56.60	-46.0	-56.8	3.8	7.44e-01	0	42	104	331350016	64	11847
2026-01-23 10:41:35.97	43.04	56.51	-55.4	-72.6	3.8	7.44e-01	0	43	104	331350016	81	27430
2026-01-23 10:41:36.98	42.09	56.42	-46.0	-56.7	3.8	7.43e-01	0	43	104	331350016	64	11723
2026-01-23 10:41:37.98	41.16	56.31	-46.3	-57.4	3.8	7.42e-01	0	43	104	331350016	63	13460
2026-01-23 10:41:38.99	40.22	56.21	-45.9	-56.6	3.8	7.43e-01	0	43	104	331350016	63	12319
2026-01-23 10:41:40.00	39.29	56.09	-53.6	-67.2	3.8	7.43e-01	0	43	104	331350016	78	17484
2026-01-23 10:41:41.01	38.37	55.97	-49.8	-61.4	3.8	7.42e-01	0	43	104	331350016	70	14263
2026-01-23 10:41:42.02	37.46	55.84	-55.2	-71.9	3.8	7.47e-01	0	42	104	331350016	81	25356
2026-01-23 10:41:43.03	36.56	55.70	-44.9	-55.4	3.8	7.43e-01	0	43	104	331350016	61	12036
2026-01-23 10:41:44.03	35.68	55.56	-55.3	-72.3	3.8	7.42e-01	0	43	104	331350016	81	26678
2026-01-23 10:41:45.04	34.79	55.41	-45.6	-56.5	3.8	7.43e-01	0	43	104	331350016	63	12122
2026-01-23 10:41:46.05	33.92	55.25	-44.9	-55.5	3.8	7.47e-01	0	43	104	331350016	61	12101
2026-01-23 10:41:47.06	33.05	55.09	-44.6	-55.1	3.8	7.49e-01	0	43	104	331350016	61	11595
2026-01-23 10:41:48.07	32.20	54.92	-50.3	-61.9	3.8	7.37e-01	0	43	104	331350016	72	13453
2026-01-23 10:41:49.08	31.36	54.75	-49.3	-60.7	3.8	7.43e-01	0	43	104	331350016	69	13927
2026-01-23 10:41:50.09	30.52	54.57	-55.2	-71.8	3.8	7.42e-01	0	43	104	331350016	81	25052
2026-01-23 10:41:51.10	29.70	54.39	-44.0	-54.4	3.8	7.42e-01	0	43	104	331350016	60	11415
2026-01-23 10:41:52.10	28.90	54.20	-55.3	-72.2	3.8	7.47e-01	0	43	104	331350016	81	26444
2026-01-23 10:41:53.11	28.10	54.01	-44.6	-55.5	3.8	7.51e-01	0	43	104	331350016	61	12150
2026-01-23 10:41:54.12	27.31	53.81	-44.3	-54.8	3.8	7.44e-01	0	43	104	331350016	60	11877
2026-01-23 10:41:55.13	26.53	53.60	-44.3	-54.8	3.8	7.46e-01	0	43	104	331350016	60	11938
2026-01-23 10:41:56.14	25.76	53.40	-50.8	-62.9	3.9	7.41e-01	0	43	104	331350016	73	14226
2026-01-23 10:41:57.14	25.01	53.19	-48.5	-59.5	3.8	7.44e-01	0	43	104	331350016	67	13680
2026-01-23 10:41:58.15	24.26	52.97	-55.2	-71.9	3.8	7.46e-01	0	43	104	331350016	81	25505
2026-01-23 10:41:59.16	23.53	52.75	-44.0	-54.6	3.9	7.45e-01	0	43	104	331350016	59	12342
2026-01-23 10:42:00.17	22.81	52.53	-55.1	-71.8	3.8	7.46e-01	0	43	104	331350016	81	25002
2026-01-23 10:42:01.18	22.09	52.30	-44.4	-55.0	3.8	7.41e-01	0	43	104	331350016	60	12210
2026-01-23 10:42:02.18	21.40	52.07	-44.3	-54.8	3.8	7.42e-01	0	43	104	331350016	60	11887
2026-01-23 10:42:03.19	20.71	51.84	-44.1	-55.1	3.8	7.46e-01	0	43	104	331350016	60	12313
2026-01-23 10:42:04.20	20.03	51.60	-48.6	-59.7	3.9	7.43e-01	0	43	104	331350016	69	12414
2026-01-23 10:42:05.21	19.36	51.36	-48.4	-59.5	3.9	7.45e-01	0	43	104	331350016	67	13652
2026-01-23 10:42:06.22	18.70	51.12	-55.2	-71.9	3.8	7.48e-01	0	43	104	331350016	81	25488
2026-01-23 10:42:07.23	18.06	50.88	-44.3	-54.8	3.8	7.45e-01	0	43	104	331350016	60	11830
2026-01-23 10:42:08.24	17.42	50.63	-54.9	-71.0	3.8	7.42e-01	0	43	104	331350016	81	22923
2026-01-23 10:42:09.25	16.80	50.38	-45.0	-55.9	3.8	7.43e-01	0	42	104	331350016	61	12667
2026-01-23 10:42:10.25	16.19	50.13	-44.6	-55.3	3.8	7.42e-01	0	43	104	331350016	61	11846
2026-01-23 10:42:11.26	15.58	49.88	-45.2	-55.7	3.8	7.41e-01	0	43	104	331350016	60	13214
2026-01-23 10:42:12.27	14.99	49.62	-52.7	-65.9	3.9	7.49e-01	0	43	104	331350016	77	16125
2026-01-23 10:42:13.28	14.40	49.37	-48.5	-59.7	3.8	7.45e-01	0	43	104	331350016	67	14042
2026-01-23 10:42:14.29	13.83	49.11	-55.4	-72.6	3.8	7.47e-01	0	43	104	331350016	81	27626
2026-01-23 10:42:15.30	13.26	48.85	-53.6	-67.6	3.8	7.43e-01	0	43	104	331350016	79	17397
2026-01-23 10:42:16.31	12.71	48.59	-44.3	-54.8	3.8	7.43e-01	0	43	104	331350016	60	11932
2026-01-23 10:42:17.31	12.17	48.33	-44.5	-55.1	3.8	7.44e-01	0	43	104	331350016	60	12362
2026-01-23 10:42:18.32	11.63	48.06	-44.4	-55.1	3.8	7.45e-01	0	42	104	331350016	60	12302
2026-01-23 10:42:19.33	11.10	47.80	-44.2	-54.9	3.8	7.43e-01	0	43	104	331350016	60	12056
2026-01-23 10:42:20.34	10.59	47.53	-45.5	-55.9	3.8	7.43e-01	0	43	104	331350016	62	12074
2026-01-23 10:42:21.35	10.08	47.27	-50.8	-62.5	3.8	7.44e-01	0	43	104	331350016	71	15233
2026-01-23 10:42:22.35	9.58	47.00	-53.5	-67.5	4.0	7.41e-01	0	43	104	331350016	79	17121
2026-01-23 10:42:23.36	9.09	46.73	-45.7	-56.4	3.8	7.45e-01	0	43	104	331350016	61	13505
2026-01-23 10:42:24.37	8.61	46.47	-51.9	-64.6	3.9	7.42e-01	0	43	104	331350016	76	14575
2026-01-23 10:42:25.38	8.13	46.20	-44.3	-54.9	3.8	7.46e-01	0	43	104	331350016	60	12003
2026-01-23 10:42:26.39	7.67	45.93	-44.5	-55.0	3.8	7.47e-01	0	43	104	331350016	60	12126
2026-01-23 10:42:27.40	7.21	45.66	-45.4	-56.4	3.8	7.43e-01	0	43	104	331350016	61	13468
2026-01-23 10:42:28.41	6.76	45.39	-49.8	-61.4	3.9	7.47e-01	0	42	104	331350016	71	13569
2026-01-23 10:42:29.41	6.32	45.13	-50.1	-61.6	3.8	7.48e-01	0	43	104	331350016	70	14699
2026-01-23 10:42:30.42	5.88	44.86	-53.6	-67.5	4.0	7.42e-01	0	43	104	331350016	79	17105
2026-01-23 10:42:31.43	5.45	44.59	-45.7	-56.3	3.8	7.45e-01	0	43	104	331350016	61	13322
2026-01-23 10:42:32.44	5.03	44.32	-49.7	-61.1	3.9	7.42e-01	0	43	104	331350016	71	13068
2026-01-23 10:42:33.44	4.62	44.06	-44.8	-55.4	3.8	7.45e-01	0	43	104	331350016	61	12002
2026-01-23 10:42:34.45	4.22	43.79	-44.8	-55.5	3.8	7.43e-01	0	43	104	331350016	61	12225
2026-01-23 10:42:35.46	3.82	43.52	-47.7	-58.6	3.8	7.46e-01	0	43	104	331350016	65	13732
2026-01-23 10:42:36.47	3.43	43.25	-48.9	-60.3	3.9	7.43e-01	0	43	104	331350016	70	12549
2026-01-23 10:42:37.47	3.04	42.99	-53.3	-66.0	3.8	7.48e-01	0	43	104	331350016	76	17119
2026-01-23 10:42:38.48	2.66	42.72	-50.3	-62.3	3.9	7.40e-01	0	43	104	331350016	73	13349
2026-01-23 10:42:39.49	2.29	42.46	-48.7	-60.2	3.8	7.48e-01	0	43	104	331350016	67	14807
2026-01-23 10:42:40.50	1.92	42.19	-49.9	-61.7	3.9	7.42e-01	0	43	104	331350016	72	13133
2026-01-23 10:42:41.51	1.56	41.93	-45.5	-56.0	3.8	7.45e-01	0	43	104	331350016	62	12141
2026-01-23 10:42:42.51	1.21	41.67	-45.6	-56.3	3.8	7.44e-01	0	43	104	331350016	62	12662
2026-01-23 10:42:43.52	0.86	41.41	-48.3	-59.4	3.8	7.43e-01	0	43	104	331350016	66	14297
2026-01-23 10:42:44.53	0.52	41.14	-48.3	-59.4	3.9	7.44e-01	0	43	104	331350016	68	12787
2026-01-23 10:42:45.54	0.18	40.88	-55.3	-72.2	3.7	7.51e-01	0	43	104	331350016	81	26426
2026-01-23 10:42:46.55	359.85	40.62	-48.8	-60.1	3.9	7.48e-01	0	43	104	331350016	69	13064
2026-01-23 10:42:47.55	359.53	40.37	-52.2	-64.8	3.8	7.50e-01	0	43	104	331350016	74	16816
2026-01-23 10:42:48.56	359.20	40.11	-48.3	-59.0	3.9	7.44e-01	0	43	104	331350016	68	12213
2026-01-23 10:42:49.57	358.89	39.85	-46.1	-56.7	3.8	7.44e-01	0	43	104	331350016	63	12379
2026-01-23 10:42:50.57	358.58	39.60	-46.1	-57.0	3.8	7.49e-01	0	43	104	331350016	63	12888
2026-01-23 10:42:51.58	358.27	39.34	-50.1	-61.9	3.8	7.43e-01	0	43	104	331350016	70	15057
2026-01-23 10:42:52.59	357.97	39.09	-48.4	-59.4	3.8	7.47e-01	0	43	104	331350016	68	12771
2026-01-23 10:42:53.60	357.68	38.84	-55.3	-72.5	3.7	7.51e-01	0	43	104	331350016	81	27267
2026-01-23 10:42:54.61	357.39	38.58	-49.1	-60.5	3.9	7.43e-01	0	43	104	331350016	70	12907
2026-01-23 10:42:55.62	357.10	38.33	-52.1	-64.7	3.8	7.45e-01	0	43	104	331350016	74	16517
2026-01-23 10:42:56.62	356.82	38.09	-48.3	-59.3	3.9	7.44e-01	0	43	104	331350016	68	12548
2026-01-23 10:42:57.63	356.54	37.84	-46.1	-56.7	3.9	7.43e-01	0	43	104	331350016	64	11724
2026-01-23 10:42:58.64	356.27	37.59	-46.0	-56.6	3.8	7.44e-01	0	43	104	331350016	63	12368
2026-01-23 10:42:59.65	356.00	37.34	-51.0	-62.6	3.8	7.44e-01	0	43	104	331350016	72	14608
2026-01-23 10:43:00.66	355.73	37.10	-48.4	-59.5	3.8	7.42e-01	0	43	104	331350016	68	12885
2026-01-23 10:43:01.67	355.47	36.86	-55.3	-73.0	3.7	7.47e-01	0	43	104	331350016	81	28718
2026-01-23 10:43:02.67	355.22	36.62	-47.5	-59.0	3.8	7.40e-01	0	43	104	331350016	67	12883
2026-01-23 10:43:03.68	354.96	36.38	-53.6	-67.2	3.8	7.44e-01	0	43	104	331350016	77	18520
2026-01-23 10:43:04.70	354.71	36.13	-47.7	-58.4	3.8	7.48e-01	0	43	104	331350016	67	12032
2026-01-23 10:43:05.70	354.47	35.90	-46.1	-56.7	3.8	7.46e-01	0	43	104	331350016	64	11692
2026-01-23 10:43:06.71	354.22	35.66	-45.7	-56.6	3.8	7.48e-01	0	43	104	331350016	63	12249
2026-01-23 10:43:07.72	353.99	35.42	-49.9	-61.8	3.8	7.42e-01	0	42	104	331350016	70	14912
2026-01-23 10:43:08.73	353.75	35.19	-47.4	-58.6	3.8	7.44e-01	0	43	104	331350016	66	13083
2026-01-23 10:43:09.74	353.52	34.96	-55.1	-72.1	3.9	7.45e-01	0	43	104	331350016	81	25869
2026-01-23 10:43:10.75	353.29	34.72	-45.9	-56.7	3.9	7.47e-01	0	43	104	331350016	63	12477
2026-01-23 10:43:11.76	353.07	34.49	-54.1	-68.5	3.8	7.44e-01	0	43	104	331350016	78	20406
2026-01-23 10:43:12.76	352.85	34.27	-46.1	-57.2	3.9	7.42e-01	0	43	104	331350016	64	12465
2026-01-23 10:43:13.77	352.63	34.04	-45.2	-56.1	3.8	7.43e-01	0	43	104	331350016	62	12288
2026-01-23 10:43:14.78	352.41	33.81	-44.9	-55.6	3.8	7.44e-01	0	43	104	331350016	61	12357
2026-01-23 10:43:15.79	352.20	33.59	-48.7	-60.1	3.9	7.48e-01	0	42	104	331350016	68	13839
2026-01-23 10:43:16.80	351.99	33.36	-46.4	-57.4	3.8	7.43e-01	0	43	104	331350016	64	12734
2026-01-23 10:43:17.81	351.79	33.14	-55.0	-71.6	3.9	7.42e-01	0	43	104	331350016	81	24674
2026-01-23 10:43:18.82	351.58	32.92	-45.6	-56.3	3.8	7.47e-01	0	43	104	331350016	63	11876
2026-01-23 10:43:19.82	351.39	32.70	-54.0	-68.1	3.8	7.47e-01	0	43	104	331350016	78	19604
2026-01-23 10:43:20.83	351.19	32.48	-45.7	-56.5	3.8	7.44e-01	0	43	104	331350016	63	12111
2026-01-23 10:43:21.84	350.99	32.26	-44.6	-55.3	3.8	7.48e-01	0	43	104	331350016	61	11901
2026-01-23 10:43:22.85	350.80	32.05	-44.4	-55.0	3.9	7.44e-01	0	43	104	331350016	60	12234
2026-01-23 10:43:23.86	350.61	31.83	-48.0	-59.0	3.8	7.46e-01	0	43	104	331350016	66	13675
2026-01-23 10:43:24.87	350.43	31.62	-46.2	-57.0	3.8	7.48e-01	0	43	104	331350016	64	12207
2026-01-23 10:43:25.88	350.24	31.41	-54.9	-71.2	3.8	7.47e-01	0	43	104	331350016	80	24978
2026-01-23 10:43:26.88	350.06	31.20	-44.9	-55.6	3.8	7.44e-01	0	43	104	331350016	61	12328
2026-01-23 10:43:27.89	349.88	30.99	-54.0	-68.2	3.7	7.45e-01	0	42	104	331350016	78	19747
2026-01-23 10:43:28.90	349.71	30.78	-44.6	-55.2	3.8	7.41e-01	0	43	104	331350016	61	11696
2026-01-23 10:43:29.91	349.53	30.57	-44.3	-54.9	3.8	7.45e-01	0	43	104	331350016	60	12032
2026-01-23 10:43:30.92	349.36	30.37	-44.1	-54.7	3.8	7.44e-01	0	43	104	331350016	60	11818
2026-01-23 10:43:31.92	349.19	30.17	-48.2	-59.4	3.8	7.43e-01	0	43	104	331350016	66	14268
2026-01-23 10:43:32.93	349.03	29.96	-45.8	-56.7	3.8	7.41e-01	0	42	104	331350016	63	12485
2026-01-23 10:43:33.94	348.86	29.76	-54.8	-71.0	3.8	7.47e-01	0	43	104	331350016	80	24296
2026-01-23 10:43:34.95	348.70	29.56	-45.0	-55.7	3.8	7.47e-01	0	43	104	331350016	61	12516
2026-01-23 10:43:35.96	348.54	29.36	-54.0	-68.5	3.8	7.46e-01	0	43	104	331350016	78	20386
2026-01-23 10:43:36.96	348.38	29.16	-44.6	-55.3	3.8	7.41e-01	0	42	104	331350016	61	11896
2026-01-23 10:43:37.97	348.22	28.97	-44.3	-55.0	3.8	7.42e-01	0	43	104	331350016	60	12203
2026-01-23 10:43:38.99	348.07	28.77	-44.3	-55.0	3.8	7.43e-01	0	43	104	331350016	60	12217
2026-01-23 10:43:39.99	347.91	28.58	-48.5	-59.7	3.8	7.45e-01	0	43	104	331350016	67	13948
2026-01-23 10:43:41.01	347.76	28.38	-45.9	-56.7	3.8	7.47e-01	0	43	104	331350016	63	12479
2026-01-23 10:43:42.02	347.61	28.19	-54.8	-71.0	3.8	7.46e-01	0	43	104	331350016	80	24389
2026-01-23 10:43:43.02	347.47	28.00	-45.3	-56.0	3.8	7.42e-01	0	43	104	331350016	62	12233
2026-01-23 10:43:44.03	347.32	27.81	-53.8	-68.1	3.8	7.45e-01	0	43	104	331350016	78	19571
2026-01-23 10:43:45.04	347.18	27.62	-44.6	-55.3	3.8	7.43e-01	0	43	104	331350016	61	11891
2026-01-23 10:43:46.05	347.04	27.44	-44.4	-55.0	3.9	7.38e-01	0	43	104	331350016	60	12120
2026-01-23 10:43:47.06	346.90	27.25	-44.6	-55.1	3.8	7.39e-01	0	43	104	331350016	60	12358
2026-01-23 10:43:48.07	346.76	27.07	-48.1	-59.2	3.8	7.42e-01	0	43	104	331350016	67	13198
2026-01-23 10:43:49.07	346.62	26.88	-45.9	-56.7	3.9	7.42e-01	0	43	104	331350016	63	12384
2026-01-23 10:43:50.08	346.49	26.70	-54.8	-71.3	3.8	7.45e-01	0	43	104	331350016	80	25222
2026-01-23 10:43:51.09	346.35	26.52	-45.4	-56.0	3.8	7.42e-01	0	43	104	331350016	62	12209
2026-01-23 10:43:52.10	346.22	26.34	-53.6	-67.8	3.8	7.43e-01	0	43	104	331350016	78	18837
2026-01-23 10:43:53.11	346.09	26.16	-45.1	-56.1	3.8	7.46e-01	0	43	104	331350016	62	12268
2026-01-23 10:43:54.12	345.96	25.98	-45.0	-55.9	3.8	7.46e-01	0	43	104	331350016	62	12080
2026-01-23 10:43:55.13	345.84	25.81	-45.1	-56.0	3.8	7.43e-01	0	43	104	331350016	61	12889
2026-01-23 10:43:56.14	345.71	25.63	-47.4	-58.2	3.9	7.46e-01	0	43	104	331350016	66	12484
2026-01-23 10:43:57.14	345.59	25.46	-46.4	-57.2	3.8	7.47e-01	0	43	104	331350016	63	13202
2026-01-23 10:43:58.15	345.47	25.28	-54.9	-71.7	3.8	7.45e-01	0	43	104	331350016	80	26319
2026-01-23 10:43:59.16	345.35	25.11	-45.2	-55.8	3.8	7.44e-01	0	43	104	331350016	62	11856
2026-01-23 10:44:00.17	345.23	24.94	-52.2	-64.9	3.9	7.41e-01	0	43	104	331350016	76	15159
2026-01-23 10:44:01.18	345.11	24.77	-44.9	-55.6	3.8	7.42e-01	0	43	104	331350016	61	12270
2026-01-23 10:44:02.19	344.99	24.60	-44.9	-55.6	3.8	7.47e-01	0	43	104	331350016	61	12318
2026-01-23 10:44:03.20	344.87	24.43	-44.9	-55.6	3.8	7.45e-01	0	42	104	331350016	61	12236
2026-01-23 10:44:04.20	344.76	24.27	-48.0	-59.0	3.8	7.43e-01	0	43	104	331350016	67	12838
2026-01-23 10:44:05.21	344.65	24.10	-46.5	-57.2	3.8	7.45e-01	0	43	104	331350016	63	13249
2026-01-23 10:44:06.22	344.54	23.93	-54.9	-71.6	3.8	7.47e-01	0	43	104	331350016	80	26056
2026-01-23 10:44:07.23	344.43	23.77	-45.0	-55.6	3.8	7.40e-01	0	42	104	331350016	62	11559
2026-01-23 10:44:08.24	344.32	23.61	-50.6	-62.4	3.9	7.39e-01	0	43	104	331350016	73	13430
2026-01-23 10:44:09.25	344.21	23.44	-45.0	-55.7	3.8	7.44e-01	0	43	104	331350016	62	11728
2026-01-23 10:44:10.26	344.10	23.28	-45.0	-55.8	3.8	7.44e-01	0	43	104	331350016	61	12575
2026-01-23 10:44:11.27	344.00	23.12	-45.3	-56.2	3.8	7.46e-01	0	43	104	331350016	61	13119
2026-01-23 10:44:12.27	343.89	22.97	-47.3	-58.4	3.9	7.48e-01	0	43	104	331350016	66	12761
2026-01-23 10:44:13.28	343.79	22.81	-47.4	-58.6	3.8	7.49e-01	0	43	104	331350016	65	13803
2026-01-23 10:44:14.29	343.69	22.65	-54.8	-71.8	3.8	7.42e-01	0	43	104	331350016	80	26674
2026-01-23 10:44:15.30	343.59	22.49	-45.1	-55.9	3.8	7.41e-01	0	43	104	331350016	62	11976
2026-01-23 10:44:16.31	343.49	22.34	-50.9	-62.7	3.8	7.42e-01	0	42	104	331350016	73	13898
2026-01-23 10:44:17.32	343.39	22.18	-45.6	-56.4	3.8	7.45e-01	0	43	104	331350016	63	12007
2026-01-23 10:44:18.32	343.29	22.03	-45.3	-56.0	3.8	7.44e-01	0	43	104	331350016	62	12104
2026-01-23 10:44:19.33	343.19	21.88	-45.1	-55.7	3.8	7.44e-01	0	43	104	331350016	62	11785
2026-01-23 10:44:20.34	343.10	21.73	-45.1	-55.8	3.8	7.45e-01	0	43	104	331350016	62	11869
2026-01-23 10:44:21.35	343.00	21.58	-49.6	-61.1	3.8	7.43e-01	0	43	104	331350016	69	14546
2026-01-23 10:44:22.35	342.91	21.43	-53.2	-67.1	4.0	7.42e-01	0	43	104	331350016	78	17375
2026-01-23 10:44:23.36	342.82	21.28	-45.1	-55.8	3.8	7.44e-01	0	43	104	331350016	61	12585
2026-01-23 10:44:24.37	342.73	21.13	-48.6	-60.0	3.8	7.42e-01	0	43	104	331350016	69	12899
2026-01-23 10:44:25.38	342.63	20.98	-45.0	-55.7	3.9	7.40e-01	0	43	104	331350016	61	12483
2026-01-23 10:44:26.39	342.54	20.84	-44.6	-46.5	5.3	7.03e-01	0	43	104	331350016	61	4305
2026-01-23 10:44:27.40	342.46	20.69	-44.6	-45.7	25.4	6.02e-01	0	43	0	332398592	61	3955
2026-01-23 10:44:28.41	342.37	20.55	-44.6	-45.7	26.0	6.04e-01	0	43	0	333971456	60	4184
2026-01-23 10:44:29.42	342.28	20.40	-44.6	-45.8	26.0	6.02e-01	0	43	0	336068608	60	4196
2026-01-23 10:44:30.42	342.20	20.26	-44.5	-45.7	26.0	6.01e-01	0	43	0	338165760	60	4147
2026-01-23 10:44:31.43	342.11	20.12	-44.5	-45.7	26.0	6.00e-01	0	43	0	339738624	60	4168
2026-01-23 10:44:32.44	342.03	19.98	-44.5	-45.7	26.0	6.05e-01	0	43	0	341835776	60	4171
2026-01-23 10:44:33.45	341.94	19.84	-44.5	-45.7	26.0	6.03e-01	0	43	0	343932928	60	4166
2026-01-23 10:44:34.46	341.86	19.70	-44.4	-45.6	26.1	6.02e-01	0	43	0	345505792	60	4129
2026-01-23 10:44:35.46	341.78	19.56	-44.4	-45.6	26.1	6.00e-01	0	43	0	347602944	60	4119
2026-01-23 10:44:36.47	341.70	19.42	-44.5	-45.7	26.0	6.00e-01	0	43	0	349175808	60	4149
2026-01-23 10:44:37.48	341.62	19.28	-44.5	-45.7	26.0	6.03e-01	0	43	0	351272960	60	4167
2026-01-23 10:44:38.49	341.54	19.15	-44.5	-45.7	25.9	5.98e-01	0	42	0	352845824	60	4186
2026-01-23 10:44:39.49	341.46	19.01	-44.6	-45.8	25.9	6.00e-01	0	43	0	354942976	60	4232
2026-01-23 10:44:40.50	341.38	18.88	-44.7	-45.9	25.9	6.04e-01	0	43	0	357040128	60	4246
2026-01-23 10:44:41.51	341.30	18.74	-44.7	-45.9	25.8	6.03e-01	0	42	0	358612992	60	4286
2026-01-23 10:44:42.52	341.23	18.61	-44.8	-46.0	25.7	6.01e-01	0	42	0	360710144	60	4298
2026-01-23 10:44:43.53	341.15	18.48	-44.7	-45.9	25.9	6.03e-01	0	42	0	362283008	60	4262
2026-01-23 10:44:44.54	341.08	18.34	-44.6	-45.8	25.9	5.99e-01	0	43	0	364380160	60	4209
2026-01-23 10:44:45.55	341.00	18.21	-44.5	-45.7	25.9	6.02e-01	0	42	0	366477312	60	4173
2026-01-23 10:44:46.56	340.93	18.08	-44.5	-45.7	25.9	6.00e-01	0	43	0	368050176	60	4153
2026-01-23 10:44:47.56	340.85	17.95	-44.5	-45.7	25.9	6.03e-01	0	43	0	370147328	60	4187
2026-01-23 10:44:48.57	340.78	17.82	-44.4	-45.6	26.1	6.01e-01	0	42	0	372244480	60	4115
2026-01-23 10:44:49.58	340.71	17.69	-44.5	-45.7	26.0	6.02e-01	0	42	0	373817344	60	4152
2026-01-23 10:44:50.59	340.64	17.57	-44.5	-45.7	25.9	5.99e-01	0	43	0	375914496	60	4185
2026-01-23 10:44:51.60	340.57	17.44	-44.5	-45.7	26.1	6.02e-01	0	42	0	377487360	60	4165
2026-01-23 10:44:52.61	340.50	17.31	-44.5	-45.7	25.8	6.03e-01	0	42	0	379584512	60	4185
2026-01-23 10:44:53.62	340.43	17.19	-44.4	-45.5	26.1	6.00e-01	0	43	0	381157376	60	4086
2026-01-23 10:44:54.62	340.36	17.06	-44.5	-45.7	25.9	6.02e-01	0	43	0	383254528	60	4153
2026-01-23 10:44:55.63	340.30	16.94	-44.4	-45.5	26.1	5.99e-01	0	42	0	385351680	60	4091
2026-01-23 10:44:56.64	340.23	16.81	-44.4	-45.5	26.0	6.01e-01	0	43	0	387448832	60	4080
2026-01-23 10:44:57.65	340.16	16.69	-44.2	-45.3	26.3	6.01e-01	0	42	0	389021696	60	3979
2026-01-23 10:44:58.65	340.10	16.57	-44.3	-45.4	26.2	6.01e-01	0	43	0	391118848	60	4033
2026-01-23 10:44:59.66	340.03	16.45	-44.3	-45.5	26.1	6.02e-01	0	43	0	392691712	60	4066
2026-01-23 10:45:00.67	339.97	16.32	-44.3	-45.5	26.2	5.99e-01	0	43	0	394788864	60	4060
2026-01-23 10:45:01.68	339.90	16.20	-44.4	-45.5	26.2	6.03e-01	0	43	0	396361728	60	4086
2026-01-23 10:45:02.69	339.84	16.08	-44.3	-45.5	26.0	6.01e-01	0	42	0	398458880	60	4084
2026-01-23 10:45:03.69	339.78	15.97	-44.3	-45.5	26.0	6.04e-01	0	42	0	400556032	60	4067
2026-01-23 10:45:04.70	339.72	15.85	-44.3	-45.5	26.1	5.99e-01	0	42	0	402128896	60	4052
2026-01-23 10:45:05.71	339.65	15.73	-44.4	-45.5	26.1	6.01e-01	0	42	0	404226048	60	4081
2026-01-23 10:45:06.72	339.59	15.61	-44.4	-45.5	26.1	6.02e-01	0	43	0	405798912	60	4086
2026-01-23 10:45:07.73	339.53	15.49	-44.2	-45.3	26.3	6.00e-01	0	43	0	407896064	60	3984
2026-01-23 10:45:08.74	339.47	15.38	-44.2	-45.3	26.2	6.04e-01	0	42	0	409993216	60	3995
2026-01-23 10:45:09.75	339.41	15.26	-44.3	-45.5	26.1	6.01e-01	0	42	0	411566080	60	4061
2026-01-23 10:45:10.76	339.35	15.15	-44.3	-45.4	26.1	6.03e-01	0	42	0	413663232	60	4044
2026-01-23 10:45:11.76	339.30	15.03	-44.4	-45.6	26.0	6.01e-01	0	42	0	415760384	60	4104
2026-01-23 10:45:12.77	339.24	14.92	-44.5	-45.7	25.9	6.03e-01	0	42	0	417333248	60	4153
2026-01-23 10:45:13.78	339.18	14.80	-44.5	-45.7	25.9	6.01e-01	0	42	0	419430400	60	4157
2026-01-23 10:45:14.79	339.12	14.69	-44.6	-45.8	25.8	6.02e-01	0	42	0	421003264	60	4194
2026-01-23 10:45:15.80	339.07	14.58	-44.5	-45.7	25.8	6.01e-01	0	42	0	423100416	60	4178
2026-01-23 10:45:16.81	339.01	14.47	-44.6	-45.8	25.7	6.01e-01	0	42	0	424673280	60	4225
2026-01-23 10:45:17.81	338.95	14.36	-44.6	-45.8	25.7	6.02e-01	0	42	0	426770432	60	4226
2026-01-23 10:45:18.82	338.90	14.24	-44.7	-45.9	25.7	6.01e-01	0	42	0	428867584	60	4291
2026-01-23 10:45:19.83	338.84	14.13	-44.8	-46.0	25.6	6.00e-01	0	42	0	430440448	60	4317
2026-01-23 10:45:20.84	338.79	14.02	-44.5	-45.7	25.8	6.01e-01	0	42	0	432537600	60	4159
2026-01-23 10:45:21.84	338.74	13.92	-44.7	-45.9	25.7	6.02e-01	0	42	0	434634752	60	4251
2026-01-23 10:45:22.85	338.68	13.81	-44.6	-45.8	25.7	6.02e-01	0	42	0	436207616	60	4205
2026-01-23 10:45:23.86	338.63	13.70	-44.6	-45.8	25.7	6.04e-01	0	42	0	438304768	60	4201
2026-01-23 10:45:24.87	338.58	13.59	-44.5	-45.7	25.7	6.01e-01	0	42	0	439877632	60	4183
2026-01-23 10:45:25.87	338.53	13.48	-44.5	-45.7	25.7	6.01e-01	0	42	0	441974784	60	4180
2026-01-23 10:45:26.88	338.48	13.38	-44.6	-45.8	25.7	6.02e-01	0	42	0	444071936	60	4240
2026-01-23 10:45:27.89	338.42	13.27	-44.6	-45.7	25.8	6.03e-01	0	42	0	445644800	60	4191
2026-01-23 10:45:28.90	338.37	13.16	-44.6	-45.8	25.7	6.01e-01	0	42	0	447741952	60	4227
2026-01-23 10:45:29.91	338.32	13.06	-44.6	-45.8	25.8	6.03e-01	0	42	0	449314816	60	4200
2026-01-23 10:45:30.91	338.27	12.96	-44.7	-45.9	25.7	6.03e-01	0	42	0	451411968	60	4255
2026-01-23 10:45:31.92	338.23	12.85	-44.6	-45.8	25.7	6.03e-01	0	42	0	452984832	60	4218
2026-01-23 10:45:32.93	338.18	12.75	-44.6	-45.8	25.7	6.05e-01	0	42	0	455081984	60	4231
2026-01-23 10:45:33.94	338.13	12.64	-44.7	-45.9	25.6	6.01e-01	0	42	0	457179136	60	4260
2026-01-23 10:45:34.94	338.08	12.54	-44.7	-45.9	25.5	6.04e-01	0	42	0	459276288	60	4290
2026-01-23 10:45:35.95	338.03	12.44	-44.8	-46.0	25.4	6.01e-01	0	42	0	460849152	60	4333
2026-01-23 10:45:36.96	337.98	12.34	-44.7	-45.9	25.6	6.03e-01	0	42	0	462946304	60	4269
2026-01-23 10:45:37.97	337.94	12.23	-44.9	-46.1	25.4	6.03e-01	0	42	0	464519168	60	4368
2026-01-23 10:45:38.97	337.89	12.13	-44.9	-46.1	25.4	6.05e-01	0	42	0	466616320	60	4375
2026-01-23 10:45:39.99	337.84	12.03	-44.8	-46.0	25.4	6.02e-01	0	42	0	468189184	60	4328
2026-01-23 10:45:40.99	337.80	11.93	-44.8	-46.1	25.4	6.04e-01	0	42	0	470286336	60	4341
2026-01-23 10:45:42.00	337.75	11.83	-44.8	-46.0	25.4	6.04e-01	0	42	0	472383488	60	4331
2026-01-23 10:45:43.01	337.71	11.73	-44.8	-46.1	25.4	6.00e-01	0	43	0	473956352	60	4351
2026-01-23 10:45:44.02	337.66	11.63	-44.9	-46.1	25.3	6.03e-01	0	42	0	476053504	60	4372
2026-01-23 10:45:45.02	337.62	11.54	-45.0	-46.3	25.1	6.00e-01	0	42	0	477626368	60	4459
2026-01-23 10:45:46.03	337.57	11.44	-44.9	-46.2	25.2	6.03e-01	0	43	0	479723520	60	4399
2026-01-23 10:45:47.04	337.53	11.34	-45.1	-46.4	25.0	6.02e-01	0	43	0	481820672	60	4502
2026-01-23 10:45:48.05	337.49	11.24	-44.8	-46.0	25.4	6.02e-01	0	42	0	483393536	60	4321
2026-01-23 10:45:49.06	337.44	11.15	-44.8	-46.1	25.3	6.03e-01	0	42	0	485490688	60	4345
2026-01-23 10:45:50.06	337.40	11.05	-44.9	-46.2	25.1	6.01e-01	0	43	0	487587840	60	4418
2026-01-23 10:45:51.07	337.36	10.95	-44.8	-46.1	25.2	6.01e-01	0	43	0	489160704	60	4348
2026-01-23 10:45:52.08	337.32	10.86	-44.6	-45.8	25.4	6.02e-01	0	43	0	491257856	60	4231
2026-01-23 10:45:53.09	337.27	10.76	-44.8	-46.0	25.3	6.06e-01	0	43	0	492830720	60	4327
2026-01-23 10:45:54.09	337.23	10.67	-44.9	-46.1	25.2	6.04e-01	0	43	0	494927872	60	4367
2026-01-23 10:45:55.10	337.19	10.58	-44.8	-46.0	25.3	6.03e-01	0	43	0	496500736	60	4307
2026-01-23 10:45:56.11	337.15	10.48	-44.8	-46.1	25.3	6.01e-01	0	43	0	498597888	60	4343
2026-01-23 10:45:57.12	337.11	10.39	-44.8	-46.1	25.3	6.03e-01	0	43	0	500695040	60	4342
2026-01-23 10:45:58.13	337.07	10.29	-45.0	-46.2	25.1	6.03e-01	0	43	0	502267904	60	4428
2026-01-23 10:45:59.14	337.03	10.20	-44.8	-46.0	25.3	6.02e-01	0	43	0	504365056	60	4332
2026-01-23 10:46:00.14	336.99	10.11	-44.9	-46.1	25.2	6.03e-01	0	42	0	506462208	60	4369
2026-01-23 10:46:01.15	336.95	10.02	-45.1	-46.4	25.0	6.04e-01	0	43	0	508035072	60	4497
2026-01-23 10:46:02.16	336.91	9.92	-45.0	-46.2	25.1	6.02e-01	0	43	0	510132224	60	4420
2026-01-23 10:46:03.17	336.87	9.83	-45.0	-46.2	25.1	6.02e-01	0	43	0	511705088	60	4439
2026-01-23 10:46:04.17	336.84	9.74	-45.2	-46.5	24.9	6.01e-01	0	43	0	513802240	60	4556
2026-01-23 10:46:05.18	336.80	9.65	-45.2	-46.5	24.8	5.99e-01	0	43	0	515899392	61	4322
2026-01-23 10:46:06.19	336.76	9.56	-45.1	-46.4	24.9	6.00e-01	0	43	0	517472256	61	4258
2026-01-23 10:46:07.20	336.72	9.47	-45.1	-46.4	25.0	6.02e-01	0	42	0	519569408	61	4254
2026-01-23 10:46:08.21	336.68	9.38	-45.1	-46.4	25.0	6.03e-01	0	43	0	521142272	61	4253
2026-01-23 10:46:09.21	336.65	9.29	-45.2	-46.5	24.8	6.02e-01	0	42	0	523239424	61	4329
2026-01-23 10:46:10.22	336.61	9.20	-45.3	-46.6	24.7	6.01e-01	0	43	0	524812288	61	4376
2026-01-23 10:46:11.23	336.57	9.11	-45.4	-46.7	24.6	6.01e-01	0	43	0	526909440	61	4426
2026-01-23 10:46:12.24	336.54	9.03	-45.3	-46.6	24.7	6.00e-01	0	43	0	529006592	61	4378
2026-01-23 10:46:13.25	336.50	8.94	-45.3	-46.6	24.7	6.01e-01	0	43	0	531103744	61	4384
2026-01-23 10:46:14.25	336.47	8.85	-45.5	-46.9	24.5	6.01e-01	0	43	0	532676608	61	4497
2026-01-23 10:46:15.26	336.43	8.76	-45.5	-46.9	24.4	6.02e-01	0	43	0	534773760	61	4521
2026-01-23 10:46:16.27	336.40	8.68	-45.3	-46.6	24.7	6.03e-01	0	43	0	536346624	61	4365
2026-01-23 10:46:17.28	336.36	8.59	-45.4	-46.8	24.6	6.00e-01	0	43	0	538443776	61	4454
2026-01-23 10:46:18.29	336.33	8.50	-45.4	-46.7	24.6	6.04e-01	0	43	0	540016640	61	4429
2026-01-23 10:46:19.29	336.29	8.42	-45.3	-46.6	24.7	6.03e-01	0	43	0	542113792	61	4372
2026-01-23 10:46:20.30	336.26	8.33	-45.5	-46.8	24.5	6.01e-01	0	43	0	544210944	61	4480
2026-01-23 10:46:21.31	336.22	8.25	-45.6	-47.0	24.4	6.03e-01	0	43	0	545783808	61	4558
2026-01-23 10:46:22.32	336.19	8.16	-45.4	-46.7	24.6	6.01e-01	0	43	0	547880960	61	4430
2026-01-23 10:46:23.32	336.16	8.08	-45.5	-46.8	24.4	6.01e-01	0	43	0	549453824	61	4482
2026-01-23 10:46:24.33	336.12	7.99	-45.5	-46.9	24.3	6.02e-01	0	43	0	551550976	61	4528
2026-01-23 10:46:25.34	336.09	7.91	-45.6	-47.0	24.3	6.01e-01	0	43	0	553648128	61	4560
2026-01-23 10:46:26.35	336.06	7.82	-45.9	-47.3	24.1	6.02e-01	0	43	0	555220992	62	4457
2026-01-23 10:46:27.35	336.03	7.74	-45.4	-46.8	24.6	6.02e-01	0	43	0	557318144	62	4199
2026-01-23 10:46:28.36	335.99	7.66	-45.6	-47.0	24.3	6.04e-01	0	43	0	559415296	62	4306
2026-01-23 10:46:29.37	335.96	7.58	-45.8	-47.2	23.8	5.99e-01	0	43	0	560988160	62	4439
2026-01-23 10:46:30.38	335.93	7.49	-45.4	-46.7	24.6	6.02e-01	0	43	0	563085312	62	4164
2026-01-23 10:46:31.39	335.90	7.41	-45.7	-47.1	24.2	6.01e-01	0	43	0	564658176	62	4367
2026-01-23 10:46:32.40	335.87	7.33	-45.7	-47.0	24.2	6.00e-01	0	43	0	566755328	62	4335
2026-01-23 10:46:33.40	335.83	7.25	-45.9	-47.4	23.9	5.99e-01	0	43	0	568328192	62	4494
