passes_logs/2026/01/23/R3.2S_Murmansk/R3.2S_Murmansk__20260123_013206_NOAA_21_JPSS-2_rec.log

#Pass ID: 20260123_013206_NOAA 21 (JPSS-2)
#Satellite: NOAA 21 (JPSS-2)
#Configuration: NOAA-21
#almurnet v.1.7.20251203
#Start time: 2026-01-23 01:32:08

#Version: 2.2.20231116
#Station: R3.2S_Murmansk
#Location: 33.079688 lon 68.888172 lat
#TLE: 1 54234U 22150A   26022.41365820  .00000211  00000+0  12084-3 0  9990
#TLE: 2 54234  98.7507 323.2240 0000658 234.5287 125.5828 14.19537645165864

#Time	Az	El	Level	Level2	SNR	BER	BlckErr	Temp	State	Recorded	gain1	gain2
2026-01-23 01:32:08.34	28.17	2.13	-54.4	-67.2	3.8	1.49e+00	0	42	0	0	79	16553
2026-01-23 01:32:09.36	28.15	2.19	-54.4	-67.2	3.8	1.49e+00	0	42	104	0	79	16654
2026-01-23 01:32:10.37	28.13	2.26	-54.4	-67.2	3.8	1.49e+00	0	41	104	0	79	16620
2026-01-23 01:32:11.37	28.11	2.32	-54.4	-67.2	3.8	1.49e+00	0	42	104	0	79	16579
2026-01-23 01:32:12.38	28.10	2.39	-54.3	-67.1	3.8	1.49e+00	0	41	104	0	79	16491
2026-01-23 01:32:13.39	28.08	2.45	-54.3	-67.1	3.8	1.49e+00	0	42	104	0	79	16410
2026-01-23 01:32:14.40	28.06	2.52	-54.3	-67.1	3.8	1.49e+00	0	42	104	0	79	16370
2026-01-23 01:32:15.41	28.04	2.58	-54.3	-67.1	3.8	1.49e+00	0	42	104	0	79	16344
2026-01-23 01:32:16.42	28.02	2.65	-54.2	-67.0	3.8	1.49e+00	0	42	104	0	79	16259
2026-01-23 01:32:17.43	28.00	2.71	-54.2	-67.0	3.8	1.49e+00	0	42	104	0	79	16223
2026-01-23 01:32:18.43	27.98	2.78	-54.2	-66.9	3.8	1.49e+00	0	42	104	0	79	16105
2026-01-23 01:32:19.44	27.97	2.84	-54.1	-66.9	3.8	1.49e+00	0	42	104	0	79	15998
2026-01-23 01:32:20.45	27.95	2.91	-54.0	-66.8	3.8	1.49e+00	0	42	104	0	79	15835
2026-01-23 01:32:21.46	27.93	2.97	-53.9	-66.7	3.8	1.49e+00	0	42	104	0	79	15682
2026-01-23 01:32:22.47	27.91	3.04	-53.8	-66.6	3.8	1.49e+00	0	42	104	0	79	15499
2026-01-23 01:32:23.47	27.89	3.11	-53.7	-66.5	3.8	1.49e+00	0	42	104	0	79	15284
2026-01-23 01:32:24.48	27.87	3.17	-53.5	-66.3	3.8	1.49e+00	0	42	104	0	79	14962
2026-01-23 01:32:25.49	27.85	3.24	-53.2	-66.0	3.8	1.49e+00	0	42	104	0	78	15326
2026-01-23 01:32:26.50	27.83	3.31	-52.8	-65.5	3.8	1.49e+00	0	42	104	0	77	15312
2026-01-23 01:32:27.51	27.81	3.37	-52.1	-63.6	3.8	1.49e+00	0	42	104	0	76	13067
2026-01-23 01:32:28.52	27.79	3.44	-52.1	-63.8	3.8	1.49e+00	0	42	104	0	76	13387
2026-01-23 01:32:29.53	27.77	3.51	-52.2	-64.3	3.8	1.49e+00	0	42	104	0	76	14087
2026-01-23 01:32:30.54	27.75	3.57	-52.2	-64.6	3.8	1.49e+00	0	42	104	0	76	14556
2026-01-23 01:32:31.55	27.73	3.64	-52.2	-64.3	3.8	1.49e+00	0	42	104	0	76	14104
2026-01-23 01:32:32.55	27.71	3.71	-52.1	-63.3	3.8	1.49e+00	0	42	104	0	76	12615
2026-01-23 01:32:33.56	27.69	3.78	-51.8	-61.1	4.3	1.48e+00	0	42	104	0	75	10370
2026-01-23 01:32:34.57	27.67	3.85	-51.5	-58.7	5.4	6.95e-01	0	42	0	1048576	74	8287
2026-01-23 01:32:35.58	27.65	3.91	-50.8	-56.3	7.3	1.94e-01	0	43	0	4194304	73	6693
2026-01-23 01:32:36.59	27.63	3.98	-50.2	-54.6	9.0	3.11e-02	0	43	0	7340032	72	5811
2026-01-23 01:32:37.60	27.60	4.05	-49.6	-53.2	10.6	4.62e-03	0	42	0	10485760	71	5251
2026-01-23 01:32:38.61	27.58	4.12	-49.1	-52.1	11.7	9.43e-04	0	42	0	13631488	70	4910
2026-01-23 01:32:39.61	27.56	4.19	-48.4	-51.0	12.8	9.46e-05	0	42	0	16777216	68	4856
2026-01-23 01:32:40.62	27.54	4.26	-47.7	-49.9	13.9	7.60e-06	0	43	0	19922944	67	4504
2026-01-23 01:32:41.63	27.52	4.33	-47.1	-49.0	14.8	0.00e+00	0	42	0	23068672	66	4338
2026-01-23 01:32:42.64	27.50	4.39	-46.4	-48.1	15.7	0.00e+00	0	43	0	26214400	64	4351
2026-01-23 01:32:43.64	27.48	4.46	-46.5	-48.3	15.5	0.00e+00	0	43	0	29360128	64	4467
2026-01-23 01:32:44.65	27.45	4.53	-46.5	-48.2	15.5	0.00e+00	0	43	0	32505856	64	4431
2026-01-23 01:32:45.66	27.43	4.60	-46.1	-47.7	16.2	0.00e+00	0	43	0	35651584	63	4415
2026-01-23 01:32:46.67	27.41	4.67	-47.0	-49.0	14.8	0.00e+00	0	43	0	38797312	64	4840
2026-01-23 01:32:47.68	27.39	4.74	-46.8	-48.6	15.2	0.00e+00	0	43	0	41943040	64	4635
2026-01-23 01:32:48.69	27.37	4.81	-47.1	-49.1	14.7	0.00e+00	0	43	0	45088768	64	4905
2026-01-23 01:32:49.69	27.34	4.88	-47.8	-50.1	13.7	1.50e-06	0	43	0	48234496	66	4881
2026-01-23 01:32:50.70	27.32	4.95	-48.3	-50.9	12.8	4.50e-05	0	43	0	51380224	67	5100
2026-01-23 01:32:51.71	27.30	5.03	-49.1	-52.1	11.7	3.03e-04	0	43	0	54525952	68	5518
2026-01-23 01:32:52.72	27.27	5.10	-45.3	-46.7	17.3	7.01e-05	0	43	0	57671680	62	4154
2026-01-23 01:32:53.73	27.25	5.17	-46.0	-47.6	16.4	0.00e+00	0	43	0	60817408	62	4628
2026-01-23 01:32:54.74	27.23	5.24	-51.6	-59.6	5.1	2.89e-03	0	43	0	63963136	73	9751
2026-01-23 01:32:55.75	27.20	5.31	-45.4	-46.8	16.7	1.37e+00	2	43	104	63963136	62	4195
2026-01-23 01:32:56.75	27.18	5.38	-49.3	-52.5	11.7	7.00e-07	0	43	0	66060288	69	5431
2026-01-23 01:32:57.76	27.16	5.46	-45.3	-46.7	17.3	0.00e+00	0	43	0	69206016	62	4150
2026-01-23 01:32:58.77	27.13	5.53	-45.2	-46.5	17.6	0.00e+00	0	43	0	72351744	62	4086
2026-01-23 01:32:59.78	27.11	5.60	-45.1	-46.4	17.7	0.00e+00	0	43	0	75497472	62	4034
2026-01-23 01:33:00.79	27.09	5.67	-45.1	-46.4	17.7	0.00e+00	0	43	0	78643200	62	4011
2026-01-23 01:33:01.80	27.06	5.75	-44.8	-46.0	18.1	0.00e+00	0	43	0	81788928	61	4086
2026-01-23 01:33:02.81	27.04	5.82	-44.7	-45.9	18.2	0.00e+00	0	43	0	84934656	61	4036
2026-01-23 01:33:03.81	27.01	5.89	-44.8	-46.0	18.1	0.00e+00	0	43	0	88080384	61	4079
2026-01-23 01:33:04.82	26.99	5.96	-44.8	-46.0	18.1	0.00e+00	0	43	0	91226112	61	4096
2026-01-23 01:33:05.83	26.96	6.04	-44.7	-45.9	18.2	0.00e+00	0	43	0	94371840	61	4034
2026-01-23 01:33:06.84	26.94	6.11	-44.6	-45.8	18.3	0.00e+00	0	43	0	97517568	61	3981
2026-01-23 01:33:07.85	26.91	6.19	-44.8	-46.1	18.1	0.00e+00	0	43	0	100663296	61	4111
2026-01-23 01:33:08.86	26.89	6.26	-44.6	-45.8	18.4	0.00e+00	0	43	0	103809024	60	4201
2026-01-23 01:33:09.86	26.86	6.33	-44.5	-45.7	18.4	0.00e+00	0	43	0	106954752	60	4180
2026-01-23 01:33:10.88	26.84	6.41	-44.9	-46.1	18.1	0.00e+00	0	43	0	110100480	60	4375
2026-01-23 01:33:11.88	26.81	6.48	-44.6	-45.8	18.3	0.00e+00	0	43	0	113246208	60	4237
2026-01-23 01:33:12.89	26.79	6.56	-44.6	-45.8	18.4	0.00e+00	0	43	0	116391936	60	4198
2026-01-23 01:33:13.90	26.76	6.63	-44.4	-45.6	18.6	0.00e+00	0	43	0	119537664	60	4131
2026-01-23 01:33:14.91	26.74	6.71	-44.4	-45.6	18.6	0.00e+00	0	43	0	122683392	60	4106
2026-01-23 01:33:15.92	26.71	6.79	-44.6	-45.7	18.5	0.00e+00	0	43	0	125829120	60	4190
2026-01-23 01:33:16.93	26.68	6.86	-44.3	-45.5	18.8	0.00e+00	0	43	0	128974848	60	4069
2026-01-23 01:33:17.93	26.66	6.94	-44.4	-45.6	18.7	0.00e+00	0	43	0	132120576	60	4103
2026-01-23 01:33:18.94	26.63	7.01	-44.3	-45.4	18.8	0.00e+00	0	43	0	135266304	60	4043
2026-01-23 01:33:19.95	26.60	7.09	-44.1	-45.2	19.1	0.00e+00	0	43	0	138412032	60	3940
2026-01-23 01:33:20.96	26.58	7.17	-44.5	-45.6	18.7	0.00e+00	0	43	0	141557760	60	4125
2026-01-23 01:33:21.96	26.55	7.24	-44.4	-45.6	18.8	0.00e+00	0	43	0	144703488	60	4115
2026-01-23 01:33:22.97	26.52	7.32	-44.2	-45.3	19.0	0.00e+00	0	43	0	147849216	60	3971
2026-01-23 01:33:23.98	26.49	7.40	-44.2	-45.3	19.0	0.00e+00	0	43	0	150994944	60	3973
2026-01-23 01:33:24.99	26.47	7.48	-44.3	-45.5	18.9	0.00e+00	0	43	0	154140672	60	4052
2026-01-23 01:33:26.00	26.44	7.55	-44.1	-45.2	19.2	0.00e+00	0	43	0	157286400	60	3915
2026-01-23 01:33:27.01	26.41	7.63	-44.3	-45.4	18.9	0.00e+00	0	43	0	160432128	60	4035
2026-01-23 01:33:28.02	26.38	7.71	-44.2	-45.3	19.0	0.00e+00	0	43	0	163577856	60	3988
2026-01-23 01:33:29.03	26.35	7.79	-44.0	-45.1	19.3	0.00e+00	0	43	0	166723584	60	3880
2026-01-23 01:33:30.03	26.32	7.87	-44.2	-45.3	19.1	0.00e+00	0	43	0	169869312	60	3981
2026-01-23 01:33:31.04	26.30	7.95	-44.2	-45.3	19.1	0.00e+00	0	43	0	173015040	60	3962
2026-01-23 01:33:32.05	26.27	8.03	-44.1	-45.2	19.2	0.00e+00	0	43	0	176160768	60	3938
2026-01-23 01:33:33.06	26.24	8.11	-44.3	-45.4	19.3	0.00e+00	0	43	0	179306496	59	4268
2026-01-23 01:33:34.07	26.21	8.19	-44.4	-45.5	19.2	0.00e+00	0	43	0	182452224	59	4321
2026-01-23 01:33:35.08	26.18	8.27	-44.3	-45.3	19.4	0.00e+00	0	44	0	185597952	59	4232
2026-01-23 01:33:36.09	26.15	8.35	-44.2	-45.3	19.4	0.00e+00	0	43	0	188743680	59	4222
2026-01-23 01:33:37.10	26.12	8.43	-44.3	-45.4	19.3	0.00e+00	0	43	0	191889408	59	4279
2026-01-23 01:33:38.10	26.09	8.51	-44.3	-45.3	19.4	0.00e+00	0	44	0	195035136	59	4239
2026-01-23 01:33:39.12	26.06	8.59	-44.2	-45.3	19.5	0.00e+00	0	43	0	198180864	59	4194
2026-01-23 01:33:40.13	26.03	8.67	-44.3	-45.3	19.4	0.00e+00	0	43	0	201326592	59	4236
2026-01-23 01:33:41.14	26.00	8.75	-44.2	-45.3	19.5	0.00e+00	0	43	0	204472320	59	4197
2026-01-23 01:33:42.15	25.97	8.83	-44.3	-45.3	19.4	0.00e+00	0	44	0	207618048	59	4236
2026-01-23 01:33:43.15	25.94	8.92	-44.3	-45.3	19.5	0.00e+00	0	43	0	210763776	59	4233
2026-01-23 01:33:44.16	25.91	9.00	-44.1	-45.2	19.6	0.00e+00	0	43	0	213909504	59	4168
2026-01-23 01:33:45.17	25.87	9.08	-44.2	-45.2	19.5	0.00e+00	0	43	0	217055232	59	4177
2026-01-23 01:33:46.18	25.84	9.16	-44.1	-45.1	19.6	0.00e+00	0	43	0	220200960	59	4137
2026-01-23 01:33:47.19	25.81	9.25	-44.0	-45.0	19.8	0.00e+00	0	43	0	223346688	59	4070
2026-01-23 01:33:48.20	25.78	9.33	-44.1	-45.1	19.7	0.00e+00	0	43	0	226492416	59	4134
2026-01-23 01:33:49.21	25.75	9.41	-44.0	-45.1	19.7	0.00e+00	0	43	0	229638144	59	4100
2026-01-23 01:33:50.21	25.71	9.50	-44.0	-45.1	19.7	0.00e+00	0	43	0	232783872	59	4116
2026-01-23 01:33:51.22	25.68	9.58	-44.0	-45.0	19.7	0.00e+00	0	43	0	235929600	59	4096
2026-01-23 01:33:52.23	25.65	9.67	-43.9	-44.9	19.9	0.00e+00	0	44	0	239075328	59	4020
2026-01-23 01:33:53.24	25.61	9.75	-43.9	-44.9	19.9	0.00e+00	0	43	0	242221056	59	4025
2026-01-23 01:33:54.25	25.58	9.84	-43.9	-45.0	19.8	0.00e+00	0	43	0	245366784	59	4066
2026-01-23 01:33:55.26	25.55	9.92	-43.8	-44.8	20.0	0.00e+00	0	43	0	248512512	59	3961
2026-01-23 01:33:56.27	25.51	10.01	-43.8	-44.8	19.9	0.00e+00	0	43	0	251658240	59	3991
2026-01-23 01:33:57.28	25.48	10.09	-43.9	-44.9	19.9	0.00e+00	0	43	0	254803968	59	4032
2026-01-23 01:33:58.28	25.45	10.18	-43.9	-45.0	19.8	0.00e+00	0	44	0	257949696	59	4062
2026-01-23 01:33:59.29	25.41	10.26	-43.6	-44.6	20.2	0.00e+00	0	43	0	261095424	59	3900
2026-01-23 01:34:00.30	25.38	10.35	-43.7	-44.7	20.2	0.00e+00	0	43	0	264241152	59	3930
2026-01-23 01:34:01.31	25.34	10.44	-43.6	-44.6	20.2	0.00e+00	0	43	0	267386880	59	3888
2026-01-23 01:34:02.32	25.31	10.53	-43.6	-44.6	20.2	0.00e+00	0	43	0	270532608	59	3880
2026-01-23 01:34:03.33	25.27	10.61	-43.6	-44.6	20.2	0.00e+00	0	44	0	273678336	59	3880
2026-01-23 01:34:04.34	25.24	10.70	-43.5	-44.5	20.3	0.00e+00	0	44	0	276824064	59	3839
2026-01-23 01:34:05.35	25.20	10.79	-43.5	-44.4	20.4	0.00e+00	0	43	0	279969792	58	4046
2026-01-23 01:34:06.35	25.16	10.88	-43.5	-44.4	20.4	0.00e+00	0	44	0	283115520	58	4046
2026-01-23 01:34:07.36	25.13	10.97	-43.4	-44.4	20.4	0.00e+00	0	44	0	286261248	58	4023
2026-01-23 01:34:08.37	25.09	11.06	-43.4	-44.3	20.5	0.00e+00	0	43	0	289406976	58	4003
2026-01-23 01:34:09.38	25.05	11.15	-43.3	-44.2	20.6	0.00e+00	0	44	0	292552704	58	3955
2026-01-23 01:34:10.38	25.02	11.23	-43.4	-44.3	20.5	0.00e+00	0	43	0	295698432	58	3992
2026-01-23 01:34:11.39	24.98	11.32	-43.3	-44.2	20.6	0.00e+00	0	43	0	298844160	58	3953
2026-01-23 01:34:12.40	24.94	11.42	-43.3	-44.2	20.6	0.00e+00	0	44	0	301989888	58	3948
2026-01-23 01:34:13.41	24.91	11.51	-43.2	-44.2	20.7	0.00e+00	0	43	0	305135616	58	3926
2026-01-23 01:34:14.42	24.87	11.60	-43.2	-44.2	20.7	0.00e+00	0	44	0	308281344	58	3918
2026-01-23 01:34:15.43	24.83	11.69	-43.2	-44.1	20.8	0.00e+00	0	43	0	311427072	58	3883
2026-01-23 01:34:16.44	24.79	11.78	-43.2	-44.1	20.8	0.00e+00	0	44	0	314572800	58	3905
2026-01-23 01:34:17.45	24.75	11.87	-43.1	-44.0	20.9	0.00e+00	0	44	0	318767104	58	3834
2026-01-23 01:34:18.46	24.71	11.97	-43.1	-44.0	20.9	0.00e+00	0	44	0	320864256	58	3852
2026-01-23 01:34:19.47	24.67	12.06	-43.1	-44.0	20.9	0.00e+00	0	44	0	324009984	58	3844
2026-01-23 01:34:20.47	24.63	12.15	-43.1	-44.0	20.9	0.00e+00	0	44	0	327155712	58	3854
2026-01-23 01:34:21.48	24.59	12.24	-43.0	-43.9	21.0	0.00e+00	0	44	0	330301440	58	3806
2026-01-23 01:34:22.49	24.55	12.34	-43.0	-43.9	21.0	0.00e+00	0	43	0	333447168	57	4018
2026-01-23 01:34:23.50	24.51	12.43	-43.0	-43.9	21.0	0.00e+00	0	44	0	336592896	57	4039
2026-01-23 01:34:24.50	24.47	12.53	-42.9	-43.8	21.1	0.00e+00	0	44	0	339738624	57	3971
2026-01-23 01:34:25.51	24.43	12.62	-42.9	-43.8	21.1	0.00e+00	0	44	0	342884352	57	3963
2026-01-23 01:34:26.52	24.39	12.72	-42.9	-43.8	21.1	0.00e+00	0	44	0	346030080	57	3996
2026-01-23 01:34:27.53	24.35	12.81	-43.0	-43.9	21.1	0.00e+00	0	44	0	349175808	57	4015
2026-01-23 01:34:28.54	24.31	12.91	-42.9	-43.8	21.1	0.00e+00	0	44	0	352321536	57	3984
2026-01-23 01:34:29.55	24.26	13.00	-43.0	-43.9	21.1	0.00e+00	0	43	0	356515840	57	4015
2026-01-23 01:34:30.55	24.22	13.10	-42.8	-43.7	21.2	0.00e+00	0	44	0	359661568	57	3939
2026-01-23 01:34:31.56	24.18	13.20	-42.9	-43.8	21.2	0.00e+00	0	43	0	362807296	57	3980
2026-01-23 01:34:32.57	24.14	13.29	-42.9	-43.8	21.2	0.00e+00	0	44	0	365953024	57	3965
2026-01-23 01:34:33.58	24.09	13.39	-42.8	-43.6	21.3	0.00e+00	0	44	0	369098752	57	3907
2026-01-23 01:34:34.59	24.05	13.49	-42.9	-43.8	21.2	0.00e+00	0	44	0	371195904	57	3978
2026-01-23 01:34:35.60	24.00	13.59	-42.9	-43.8	21.2	0.00e+00	0	44	0	374341632	57	3980
2026-01-23 01:34:36.61	23.96	13.69	-42.9	-43.8	21.1	0.00e+00	0	44	0	377487360	57	3983
2026-01-23 01:34:37.61	23.91	13.79	-42.9	-43.8	21.2	0.00e+00	0	44	0	380633088	57	3966
2026-01-23 01:34:38.62	23.87	13.88	-42.8	-43.6	21.3	0.00e+00	0	44	0	383778816	57	3909
2026-01-23 01:34:39.63	23.82	13.98	-42.8	-43.7	21.2	0.00e+00	0	44	0	386924544	57	3941
2026-01-23 01:34:40.64	23.78	14.09	-42.7	-43.6	21.3	0.00e+00	0	44	0	390070272	57	3900
2026-01-23 01:34:41.65	23.73	14.19	-42.7	-43.5	21.4	0.00e+00	0	44	0	394264576	57	3867
2026-01-23 01:34:42.66	23.69	14.29	-42.7	-43.6	21.3	0.00e+00	0	44	0	397410304	57	3887
2026-01-23 01:34:43.67	23.64	14.39	-42.7	-43.6	21.4	0.00e+00	0	44	0	400556032	57	3869
2026-01-23 01:34:44.67	23.59	14.49	-42.8	-43.6	21.3	0.00e+00	0	44	0	403701760	57	3904
2026-01-23 01:34:45.68	23.54	14.59	-42.7	-43.5	21.4	0.00e+00	0	44	0	406847488	57	3862
2026-01-23 01:34:46.69	23.50	14.70	-42.7	-43.5	21.4	0.00e+00	0	44	0	409993216	57	3868
2026-01-23 01:34:47.70	23.45	14.80	-42.7	-43.5	21.4	0.00e+00	0	44	0	413138944	57	3855
2026-01-23 01:34:48.71	23.40	14.90	-42.7	-43.6	21.4	0.00e+00	0	44	0	416284672	57	3878
2026-01-23 01:34:49.71	23.35	15.01	-42.6	-43.5	21.5	0.00e+00	0	44	0	418381824	57	3847
2026-01-23 01:34:50.72	23.30	15.11	-42.7	-43.5	21.4	0.00e+00	0	44	0	421527552	57	3868
2026-01-23 01:34:51.73	23.25	15.22	-42.9	-43.7	21.3	0.00e+00	0	44	0	424673280	57	3953
2026-01-23 01:34:52.74	23.20	15.32	-42.7	-43.6	21.4	0.00e+00	0	44	0	427819008	57	3889
2026-01-23 01:34:53.74	23.15	15.43	-42.7	-43.5	21.5	0.00e+00	0	44	0	430964736	57	3855
2026-01-23 01:34:54.75	23.10	15.53	-42.8	-43.7	21.4	0.00e+00	0	44	0	435159040	57	3924
2026-01-23 01:34:55.76	23.05	15.64	-42.8	-43.7	21.4	0.00e+00	0	44	0	438304768	57	3914
2026-01-23 01:34:56.77	23.00	15.75	-42.8	-43.6	21.4	0.00e+00	0	44	0	441450496	57	3898
2026-01-23 01:34:57.78	22.95	15.85	-42.9	-43.8	21.3	0.00e+00	0	43	0	444596224	57	3974
2026-01-23 01:34:58.79	22.89	15.96	-42.7	-43.6	21.4	0.00e+00	0	44	0	447741952	57	3885
2026-01-23 01:34:59.80	22.84	16.07	-42.8	-43.7	21.4	0.00e+00	0	44	0	450887680	57	3920
2026-01-23 01:35:00.81	22.79	16.18	-42.7	-43.5	21.5	0.00e+00	0	44	0	454033408	57	3861
2026-01-23 01:35:01.82	22.73	16.29	-42.7	-43.6	21.4	0.00e+00	0	44	0	457179136	57	3871
2026-01-23 01:35:02.82	22.68	16.40	-42.6	-43.5	21.6	0.00e+00	0	44	0	460324864	57	3829
2026-01-23 01:35:03.83	22.63	16.51	-42.7	-43.5	21.4	0.00e+00	0	44	0	463470592	57	3867
2026-01-23 01:35:04.84	22.57	16.62	-42.8	-43.6	21.4	0.00e+00	0	44	0	465567744	57	3898
2026-01-23 01:35:05.85	22.51	16.73	-42.8	-43.6	21.4	0.00e+00	0	44	0	469762048	57	3911
2026-01-23 01:35:06.86	22.46	16.84	-42.7	-43.6	21.4	0.00e+00	0	44	0	472907776	57	3898
2026-01-23 01:35:07.87	22.40	16.95	-42.8	-43.6	21.4	0.00e+00	0	44	0	476053504	57	3910
2026-01-23 01:35:08.87	22.35	17.07	-42.9	-43.8	21.2	0.00e+00	0	44	0	479199232	57	3963
2026-01-23 01:35:09.88	22.29	17.18	-42.9	-43.8	21.3	0.00e+00	0	44	0	482344960	57	3975
2026-01-23 01:35:10.89	22.23	17.29	-43.1	-44.0	21.1	0.00e+00	0	44	0	485490688	57	4052
2026-01-23 01:35:11.90	22.17	17.41	-43.0	-43.9	21.2	0.00e+00	0	44	0	488636416	57	4006
2026-01-23 01:35:12.91	22.11	17.52	-43.0	-43.9	21.2	0.00e+00	0	44	0	491782144	57	4008
2026-01-23 01:35:13.92	22.06	17.64	-42.9	-43.8	21.2	0.00e+00	0	44	0	494927872	57	3991
2026-01-23 01:35:14.93	22.00	17.75	-43.0	-43.9	21.2	0.00e+00	0	44	0	498073600	57	4015
2026-01-23 01:35:15.93	21.94	17.87	-43.0	-43.9	21.2	0.00e+00	0	44	0	501219328	57	4032
2026-01-23 01:35:16.94	21.88	17.98	-43.1	-44.0	21.1	0.00e+00	0	44	0	504365056	57	4069
2026-01-23 01:35:17.95	21.81	18.10	-43.1	-44.0	21.1	0.00e+00	0	44	0	507510784	57	4080
2026-01-23 01:35:18.96	21.75	18.22	-43.2	-44.1	21.0	0.00e+00	0	44	0	510656512	57	4118
2026-01-23 01:35:19.97	21.69	18.34	-43.1	-44.0	21.1	0.00e+00	0	44	0	513802240	57	4077
2026-01-23 01:35:20.98	21.63	18.46	-43.2	-44.1	21.0	0.00e+00	0	44	0	516947968	57	4114
2026-01-23 01:35:21.98	21.57	18.57	-43.1	-44.0	21.1	0.00e+00	0	44	0	520093696	57	4071
2026-01-23 01:35:22.99	21.50	18.69	-43.2	-44.1	21.1	0.00e+00	0	44	0	523239424	57	4102
2026-01-23 01:35:24.00	21.44	18.81	-43.1	-44.0	21.1	0.00e+00	0	44	0	526385152	57	4073
2026-01-23 01:35:25.01	21.37	18.94	-43.2	-44.1	21.1	0.00e+00	0	44	0	529530880	57	4131
2026-01-23 01:35:26.02	21.31	19.06	-43.1	-44.0	21.1	0.00e+00	0	44	0	532676608	57	4094
2026-01-23 01:35:27.03	21.24	19.18	-43.0	-43.9	21.2	0.00e+00	0	44	0	535822336	57	4032
2026-01-23 01:35:28.04	21.18	19.30	-43.0	-43.9	21.2	0.00e+00	0	44	0	538968064	57	4025
2026-01-23 01:35:29.05	21.11	19.43	-43.1	-44.0	21.1	0.00e+00	0	44	0	542113792	57	4090
2026-01-23 01:35:30.06	21.04	19.55	-42.8	-43.7	21.5	0.00e+00	0	44	0	545259520	57	3927
2026-01-23 01:35:31.07	20.97	19.67	-42.8	-43.7	21.5	0.00e+00	0	44	0	548405248	57	3923
2026-01-23 01:35:32.08	20.90	19.80	-42.7	-43.5	21.6	0.00e+00	0	44	0	551550976	57	3859
2026-01-23 01:35:33.09	20.84	19.92	-42.7	-43.5	21.6	0.00e+00	0	44	0	554696704	57	3852
2026-01-23 01:35:34.09	20.77	20.05	-42.7	-43.6	21.6	0.00e+00	0	44	0	557842432	57	3869
2026-01-23 01:35:35.10	20.70	20.18	-42.5	-43.3	21.8	0.00e+00	0	44	0	560988160	56	3978
2026-01-23 01:35:36.11	20.62	20.30	-42.5	-43.3	21.8	0.00e+00	0	44	0	564133888	56	3987
2026-01-23 01:35:37.11	20.55	20.43	-42.4	-43.2	21.9	0.00e+00	0	44	0	567279616	56	3941
2026-01-23 01:35:38.12	20.48	20.56	-42.3	-43.1	22.0	0.00e+00	0	44	0	570425344	56	3879
2026-01-23 01:35:39.14	20.41	20.69	-42.4	-43.3	21.8	0.00e+00	0	44	0	573571072	56	3970
2026-01-23 01:35:40.14	20.33	20.82	-42.2	-43.0	22.1	0.00e+00	0	44	0	576716800	56	3845
2026-01-23 01:35:41.15	20.26	20.95	-42.2	-43.0	22.0	0.00e+00	0	44	0	579862528	56	3847
2026-01-23 01:35:42.16	20.19	21.08	-42.2	-43.0	22.1	0.00e+00	0	44	0	583008256	56	3829
2026-01-23 01:35:43.17	20.11	21.21	-42.1	-42.9	22.1	0.00e+00	0	43	0	586153984	56	3797
2026-01-23 01:35:44.18	20.03	21.34	-41.9	-42.6	22.3	0.00e+00	0	44	0	589299712	55	3913
2026-01-23 01:35:45.19	19.96	21.48	-41.8	-42.6	22.3	0.00e+00	0	44	0	592445440	55	3903
2026-01-23 01:35:46.19	19.88	21.61	-41.8	-42.6	22.3	0.00e+00	0	44	0	595591168	55	3874
2026-01-23 01:35:47.20	19.80	21.74	-41.9	-42.7	22.2	0.00e+00	0	44	0	598736896	55	3933
2026-01-23 01:35:48.21	19.72	21.88	-41.8	-42.5	22.3	0.00e+00	0	44	0	601882624	55	3864
2026-01-23 01:35:49.22	19.64	22.01	-41.7	-42.5	22.4	0.00e+00	0	44	0	605028352	55	3837
2026-01-23 01:35:50.23	19.56	22.15	-41.8	-42.6	22.3	0.00e+00	0	44	0	608174080	55	3907
2026-01-23 01:35:51.24	19.48	22.29	-41.7	-42.5	22.4	0.00e+00	0	44	0	611319808	55	3843
2026-01-23 01:35:52.25	19.40	22.42	-41.6	-42.4	22.5	0.00e+00	0	44	0	614465536	55	3810
2026-01-23 01:35:53.26	19.31	22.56	-41.6	-42.4	22.5	0.00e+00	0	44	0	617611264	55	3791
2026-01-23 01:35:54.27	19.23	22.70	-41.5	-42.2	22.6	0.00e+00	0	44	0	620756992	54	3947
2026-01-23 01:35:55.28	19.15	22.84	-41.5	-42.3	22.5	0.00e+00	0	44	0	623902720	54	3988
2026-01-23 01:35:56.29	19.06	22.98	-41.6	-42.3	22.5	0.00e+00	0	44	0	627048448	54	4002
2026-01-23 01:35:57.29	18.98	23.12	-41.5	-42.2	22.6	0.00e+00	0	44	0	630194176	54	3958
2026-01-23 01:35:58.30	18.89	23.26	-41.3	-42.1	22.7	0.00e+00	0	44	0	633339904	54	3884
2026-01-23 01:35:59.31	18.80	23.40	-41.4	-42.1	22.7	0.00e+00	0	44	0	636485632	54	3909
2026-01-23 01:36:00.32	18.71	23.55	-41.4	-42.1	22.7	0.00e+00	0	44	0	639631360	54	3908
2026-01-23 01:36:01.33	18.62	23.69	-41.5	-42.3	22.6	0.00e+00	0	44	0	642777088	54	3960
2026-01-23 01:36:02.34	18.53	23.84	-41.5	-42.2	22.6	0.00e+00	0	43	0	645922816	54	3952
2026-01-23 01:36:03.35	18.44	23.98	-41.6	-42.4	22.5	0.00e+00	0	44	0	649068544	54	4021
2026-01-23 01:36:04.36	18.35	24.13	-41.7	-42.5	22.4	0.00e+00	0	44	0	652214272	54	4057
2026-01-23 01:36:05.37	18.26	24.27	-41.6	-42.4	22.5	0.00e+00	0	44	0	655360000	54	4025
2026-01-23 01:36:06.38	18.16	24.42	-41.7	-42.4	22.4	0.00e+00	0	44	0	658505728	54	4044
2026-01-23 01:36:07.38	18.07	24.57	-41.6	-42.4	22.5	0.00e+00	0	44	0	661651456	54	4006
2026-01-23 01:36:08.39	17.97	24.72	-41.7	-42.5	22.4	0.00e+00	0	44	0	664797184	54	4059
2026-01-23 01:36:09.40	17.88	24.87	-41.6	-42.4	22.5	0.00e+00	0	44	0	667942912	54	4019
2026-01-23 01:36:10.41	17.78	25.02	-41.7	-42.5	22.4	0.00e+00	0	43	0	671088640	54	4073
2026-01-23 01:36:11.42	17.68	25.17	-41.8	-42.5	22.4	0.00e+00	0	44	0	674234368	54	4098
2026-01-23 01:36:12.43	17.58	25.32	-41.8	-42.6	22.3	0.00e+00	0	44	0	677380096	54	4130
2026-01-23 01:36:13.44	17.48	25.47	-41.9	-42.7	22.3	0.00e+00	0	44	0	680525824	54	4170
2026-01-23 01:36:14.45	17.38	25.63	-41.8	-42.6	22.3	0.00e+00	0	44	0	683671552	54	4129
2026-01-23 01:36:15.46	17.28	25.78	-41.9	-42.7	22.3	0.00e+00	0	44	0	686817280	54	4150
2026-01-23 01:36:16.47	17.17	25.94	-42.0	-42.8	22.2	0.00e+00	0	44	0	689963008	54	4208
2026-01-23 01:36:17.48	17.07	26.09	-42.2	-43.0	22.0	0.00e+00	0	44	0	693108736	54	4298
2026-01-23 01:36:18.48	16.97	26.25	-42.2	-43.0	22.0	0.00e+00	0	44	0	696254464	54	4305
2026-01-23 01:36:19.49	16.86	26.40	-42.3	-43.1	21.9	0.00e+00	0	44	0	699400192	55	4136
2026-01-23 01:36:20.50	16.75	26.56	-42.3	-43.1	21.9	0.00e+00	0	44	0	702545920	55	4125
2026-01-23 01:36:21.51	16.64	26.72	-42.4	-43.3	21.8	0.00e+00	0	44	0	705691648	55	4204
2026-01-23 01:36:22.52	16.53	26.88	-42.5	-43.3	21.7	0.00e+00	0	44	0	708837376	55	4229
2026-01-23 01:36:23.53	16.42	27.04	-42.7	-43.5	21.5	0.00e+00	0	44	0	711983104	55	4324
2026-01-23 01:36:24.54	16.31	27.20	-42.8	-43.7	21.5	0.00e+00	0	44	0	715128832	56	4171
2026-01-23 01:36:25.55	16.19	27.37	-43.1	-43.9	21.3	0.00e+00	0	44	0	718274560	56	4289
2026-01-23 01:36:26.55	16.08	27.53	-43.1	-44.0	21.2	0.00e+00	0	44	0	721420288	56	4323
2026-01-23 01:36:27.56	15.96	27.69	-43.1	-44.0	21.2	0.00e+00	0	44	0	724566016	56	4328
2026-01-23 01:36:28.57	15.85	27.86	-43.2	-44.1	21.2	0.00e+00	0	44	0	727711744	57	4103
2026-01-23 01:36:29.58	15.73	28.02	-43.2	-44.1	21.2	0.00e+00	0	44	0	730857472	57	4100
2026-01-23 01:36:30.59	15.61	28.19	-43.1	-43.9	21.3	0.00e+00	0	44	0	734003200	57	4042
2026-01-23 01:36:31.60	15.49	28.36	-43.1	-44.0	21.3	0.00e+00	0	44	0	737148928	57	4061
2026-01-23 01:36:32.61	15.37	28.53	-43.0	-43.9	21.4	0.00e+00	0	44	0	740294656	57	4021
2026-01-23 01:36:33.62	15.24	28.70	-43.1	-43.9	21.4	0.00e+00	0	44	0	743440384	57	4047
2026-01-23 01:36:34.63	15.12	28.87	-43.1	-44.0	21.4	0.00e+00	0	44	0	746586112	57	4062
2026-01-23 01:36:35.64	14.99	29.04	-42.9	-43.8	21.5	0.00e+00	0	44	0	749731840	57	3979
2026-01-23 01:36:36.65	14.86	29.21	-42.9	-43.8	21.5	0.00e+00	0	44	0	752877568	57	3977
2026-01-23 01:36:37.65	14.73	29.38	-42.8	-43.6	21.7	0.00e+00	0	44	0	756023296	57	3907
2026-01-23 01:36:38.67	14.60	29.55	-42.6	-43.4	21.9	0.00e+00	0	44	0	759169024	57	3818
2026-01-23 01:36:39.67	14.47	29.73	-42.5	-43.3	21.9	0.00e+00	0	44	0	762314752	56	3987
2026-01-23 01:36:40.69	14.34	29.90	-42.4	-43.2	22.0	0.00e+00	0	44	0	765460480	56	3935
2026-01-23 01:36:41.69	14.20	30.08	-42.4	-43.2	22.0	0.00e+00	0	44	0	768606208	56	3915
2026-01-23 01:36:42.70	14.07	30.26	-42.2	-43.0	22.2	0.00e+00	0	44	0	771751936	56	3859
2026-01-23 01:36:43.71	13.93	30.44	-42.2	-43.0	22.2	0.00e+00	0	44	0	774897664	56	3854
2026-01-23 01:36:44.72	13.79	30.61	-42.4	-43.2	22.1	0.00e+00	0	44	0	778043392	56	3917
2026-01-23 01:36:45.73	13.65	30.79	-42.5	-43.4	21.9	0.00e+00	0	44	0	781189120	56	4007
2026-01-23 01:36:46.74	13.50	30.98	-42.5	-43.3	21.9	0.00e+00	0	44	0	784334848	56	4001
2026-01-23 01:36:47.75	13.36	31.16	-42.7	-43.5	21.8	0.00e+00	0	44	0	787480576	56	4075
2026-01-23 01:36:48.76	13.21	31.34	-42.6	-43.5	21.9	0.00e+00	0	44	0	790626304	56	4064
2026-01-23 01:36:49.77	13.06	31.52	-42.7	-43.5	21.8	0.00e+00	0	44	0	793772032	56	4079
2026-01-23 01:36:50.78	12.91	31.71	-42.7	-43.6	21.8	0.00e+00	0	44	0	796917760	56	4108
2026-01-23 01:36:51.79	12.76	31.89	-42.5	-43.3	22.0	0.00e+00	0	44	0	800063488	56	3995
2026-01-23 01:36:52.80	12.61	32.08	-42.5	-43.3	22.0	0.00e+00	0	44	0	803209216	56	3995
2026-01-23 01:36:53.80	12.46	32.27	-42.5	-43.4	21.9	0.00e+00	0	44	0	806354944	56	4007
2026-01-23 01:36:54.81	12.30	32.45	-42.5	-43.3	22.0	0.00e+00	0	44	0	809500672	56	3983
2026-01-23 01:36:55.82	12.14	32.64	-42.6	-43.4	21.8	0.00e+00	0	44	0	812646400	56	4042
2026-01-23 01:36:56.83	11.98	32.83	-42.8	-43.6	21.6	0.00e+00	0	44	0	815792128	56	4132
2026-01-23 01:36:57.84	11.82	33.03	-42.8	-43.6	21.7	0.00e+00	0	44	0	818937856	56	4116
2026-01-23 01:36:58.85	11.65	33.22	-43.0	-43.8	21.4	0.00e+00	0	44	0	823132160	56	4214
2026-01-23 01:36:59.86	11.48	33.41	-42.9	-43.8	21.5	0.00e+00	0	44	0	826277888	56	4201
2026-01-23 01:37:00.87	11.32	33.60	-43.1	-43.9	21.4	0.00e+00	0	44	0	828375040	56	4269
2026-01-23 01:37:01.87	11.15	33.80	-43.2	-44.1	21.2	0.00e+00	0	44	0	831520768	57	4106
2026-01-23 01:37:02.88	10.97	33.99	-43.2	-44.1	21.2	0.00e+00	0	44	0	834666496	57	4133
2026-01-23 01:37:03.89	10.80	34.19	-43.3	-44.2	21.2	0.00e+00	0	44	0	837812224	57	4164
2026-01-23 01:37:04.90	10.62	34.39	-43.5	-44.4	21.1	0.00e+00	0	44	0	840957952	57	4261
2026-01-23 01:37:05.91	10.44	34.59	-43.6	-44.5	21.0	0.00e+00	0	44	0	844103680	57	4322
2026-01-23 01:37:06.92	10.26	34.79	-43.9	-44.8	20.8	0.00e+00	0	44	0	847249408	58	4216
2026-01-23 01:37:07.93	10.08	34.99	-44.0	-44.9	20.7	0.00e+00	0	44	0	850395136	58	4285
2026-01-23 01:37:08.93	9.89	35.19	-44.1	-45.1	20.6	0.00e+00	0	44	0	853540864	58	4349
2026-01-23 01:37:09.94	9.70	35.39	-44.3	-45.2	20.4	0.00e+00	0	44	0	856686592	59	4192
2026-01-23 01:37:10.95	9.51	35.59	-44.3	-45.3	20.4	0.00e+00	0	44	0	860880896	59	4202
2026-01-23 01:37:11.96	9.32	35.80	-44.5	-45.5	20.2	0.00e+00	0	44	0	864026624	59	4307
2026-01-23 01:37:12.96	9.12	36.00	-44.5	-45.5	20.2	0.00e+00	0	44	0	867172352	59	4317
2026-01-23 01:37:13.97	8.93	36.21	-44.4	-45.3	20.3	0.00e+00	0	44	0	870318080	59	4234
2026-01-23 01:37:14.98	8.73	36.41	-44.6	-45.6	20.1	0.00e+00	0	44	0	873463808	59	4372
2026-01-23 01:37:15.99	8.52	36.62	-44.5	-45.4	20.2	0.00e+00	0	44	0	876609536	59	4290
2026-01-23 01:37:17.00	8.32	36.83	-44.3	-45.3	20.4	0.00e+00	0	44	0	878706688	59	4216
2026-01-23 01:37:18.01	8.11	37.04	-44.3	-45.3	20.4	0.00e+00	0	44	0	881852416	59	4216
2026-01-23 01:37:19.01	7.90	37.25	-44.2	-45.2	20.5	0.00e+00	0	44	0	884998144	59	4147
2026-01-23 01:37:20.02	7.68	37.46	-44.1	-45.1	20.6	0.00e+00	0	44	0	888143872	59	4106
2026-01-23 01:37:21.03	7.46	37.67	-44.4	-45.4	20.3	0.00e+00	0	44	0	891289600	59	4244
2026-01-23 01:37:22.04	7.24	37.89	-44.3	-45.3	20.4	0.00e+00	0	44	0	894435328	59	4218
2026-01-23 01:37:23.04	7.02	38.10	-44.6	-45.6	20.2	0.00e+00	0	44	0	897581056	59	4359
2026-01-23 01:37:24.05	6.80	38.31	-44.6	-45.6	20.1	0.00e+00	0	44	0	901775360	59	4383
2026-01-23 01:37:25.06	6.57	38.53	-44.4	-45.4	20.3	0.00e+00	0	44	0	904921088	59	4264
2026-01-23 01:37:26.07	6.33	38.75	-44.4	-45.4	20.3	0.00e+00	0	44	0	908066816	59	4247
2026-01-23 01:37:27.08	6.10	38.96	-44.2	-45.1	20.4	0.00e+00	0	44	0	911212544	59	4131
2026-01-23 01:37:28.09	5.86	39.18	-44.1	-45.0	20.6	0.00e+00	0	44	0	914358272	59	4070
2026-01-23 01:37:29.10	5.62	39.40	-44.2	-45.1	20.5	0.00e+00	0	44	0	917504000	59	4121
2026-01-23 01:37:30.11	5.37	39.62	-43.9	-44.8	20.8	0.00e+00	0	44	0	920649728	59	4003
2026-01-23 01:37:31.12	5.12	39.84	-43.9	-44.8	20.7	0.00e+00	0	44	0	923795456	59	4002
2026-01-23 01:37:32.13	4.87	40.06	-44.0	-45.0	20.7	0.00e+00	0	44	0	925892608	59	4059
2026-01-23 01:37:33.13	4.62	40.28	-44.3	-45.2	20.5	0.00e+00	0	44	0	929038336	59	4176
2026-01-23 01:37:34.14	4.36	40.51	-44.3	-45.2	20.5	0.00e+00	0	44	0	932184064	59	4180
2026-01-23 01:37:35.15	4.09	40.73	-44.3	-45.2	20.5	0.00e+00	0	44	0	936378368	59	4192
2026-01-23 01:37:36.16	3.83	40.96	-44.2	-45.1	20.5	0.00e+00	0	44	0	939524096	59	4128
2026-01-23 01:37:37.17	3.56	41.18	-44.1	-45.0	20.6	0.00e+00	0	44	0	942669824	59	4087
2026-01-23 01:37:38.18	3.28	41.41	-44.0	-44.9	20.8	0.00e+00	0	44	0	945815552	59	4034
2026-01-23 01:37:39.19	3.00	41.63	-44.1	-45.0	20.7	0.00e+00	0	44	0	948961280	59	4088
2026-01-23 01:37:40.20	2.72	41.86	-44.3	-45.3	20.4	0.00e+00	0	44	0	952107008	59	4197
2026-01-23 01:37:41.21	2.44	42.09	-44.6	-45.6	20.2	0.00e+00	0	44	0	955252736	59	4342
2026-01-23 01:37:42.21	2.15	42.31	-44.4	-45.4	20.1	0.00e+00	0	44	0	958398464	60	4022
2026-01-23 01:37:43.22	1.85	42.54	-44.8	-45.8	19.7	0.00e+00	0	44	0	961544192	60	4203
2026-01-23 01:37:44.23	1.55	42.77	-44.9	-46.0	19.5	0.00e+00	0	44	0	964689920	60	4303
2026-01-23 01:37:45.24	1.25	43.00	-45.0	-46.0	19.5	0.00e+00	0	44	0	967835648	60	4333
2026-01-23 01:37:46.25	0.94	43.23	-45.2	-46.2	19.3	0.00e+00	0	44	0	970981376	60	4436
2026-01-23 01:37:47.26	0.63	43.46	-45.2	-46.3	19.3	0.00e+00	0	44	0	974127104	61	4198
2026-01-23 01:37:48.27	0.31	43.69	-45.2	-46.3	19.2	0.00e+00	0	44	0	977272832	61	4230
2026-01-23 01:37:49.28	359.99	43.93	-45.4	-46.5	19.1	0.00e+00	0	44	0	980418560	61	4331
2026-01-23 01:37:50.29	359.67	44.16	-45.1	-46.1	19.5	0.00e+00	0	44	0	983564288	61	4143
2026-01-23 01:37:51.29	359.34	44.39	-45.1	-46.2	19.4	0.00e+00	0	44	0	986710016	61	4184
2026-01-23 01:37:52.30	359.00	44.62	-45.1	-46.2	19.4	0.00e+00	0	44	0	989855744	61	4146
2026-01-23 01:37:53.31	358.66	44.85	-45.3	-46.4	19.2	0.00e+00	0	44	0	993001472	61	4271
2026-01-23 01:37:54.32	358.31	45.09	-45.2	-46.3	19.3	0.00e+00	0	44	0	996147200	61	4214
2026-01-23 01:37:55.33	357.96	45.32	-45.1	-46.1	19.5	0.00e+00	0	44	0	999292928	61	4128
2026-01-23 01:37:56.33	357.61	45.55	-45.1	-46.1	19.4	0.00e+00	0	44	0	1002438656	61	4141
2026-01-23 01:37:57.34	357.25	45.78	-45.1	-46.2	19.2	0.00e+00	0	44	0	1005584384	61	4175
2026-01-23 01:37:58.35	356.88	46.02	-45.2	-46.3	19.2	0.00e+00	0	44	0	1008730112	61	4232
2026-01-23 01:37:59.35	356.51	46.25	-45.3	-46.5	19.1	0.00e+00	0	44	0	1011875840	61	4294
2026-01-23 01:38:00.36	356.13	46.48	-45.3	-46.5	19.0	0.00e+00	0	44	0	1015021568	61	4296
2026-01-23 01:38:01.37	355.75	46.72	-45.2	-46.3	19.2	0.00e+00	0	44	0	1018167296	61	4213
2026-01-23 01:38:02.38	355.36	46.95	-45.1	-46.2	19.3	0.00e+00	0	44	0	1021313024	61	4160
2026-01-23 01:38:03.39	354.96	47.18	-44.9	-45.9	19.6	0.00e+00	0	44	0	1024458752	61	4039
2026-01-23 01:38:04.39	354.57	47.41	-45.0	-46.1	19.5	0.00e+00	0	44	0	1027604480	61	4119
2026-01-23 01:38:05.40	354.16	47.65	-45.3	-46.4	19.2	0.00e+00	0	44	0	1030750208	61	4281
2026-01-23 01:38:06.41	353.74	47.88	-45.4	-46.6	19.0	0.00e+00	0	44	0	1033895936	61	4345
2026-01-23 01:38:07.42	353.32	48.11	-45.6	-46.8	18.9	0.00e+00	0	44	0	1037041664	61	4458
2026-01-23 01:38:08.43	352.90	48.34	-45.8	-47.0	18.8	0.00e+00	0	44	0	1040187392	62	4295
2026-01-23 01:38:09.43	352.47	48.57	-45.6	-46.8	18.9	0.00e+00	0	44	0	1043333120	62	4215
2026-01-23 01:38:10.44	352.03	48.80	-45.6	-46.8	19.0	0.00e+00	0	44	0	1046478848	62	4209
2026-01-23 01:38:11.45	351.58	49.03	-45.4	-46.5	19.2	0.00e+00	0	44	0	1049624576	62	4085
2026-01-23 01:38:12.46	351.13	49.26	-45.1	-46.1	19.5	0.00e+00	0	44	0	1052770304	62	3887
2026-01-23 01:38:13.47	350.67	49.49	-44.8	-45.8	19.8	0.00e+00	0	44	0	1055916032	61	3996
2026-01-23 01:38:14.47	350.21	49.71	-44.6	-45.6	20.0	0.00e+00	0	44	0	1059061760	61	3873
2026-01-23 01:38:15.48	349.73	49.94	-44.6	-45.6	19.8	0.00e+00	0	44	0	1062207488	61	3871
2026-01-23 01:38:16.49	349.25	50.16	-44.6	-45.6	20.0	0.00e+00	0	44	0	1065353216	60	4121
2026-01-23 01:38:17.50	348.76	50.39	-44.4	-45.4	20.2	0.00e+00	0	44	0	1068498944	60	4036
2026-01-23 01:38:18.51	348.27	50.61	-44.1	-45.0	20.6	0.00e+00	0	44	0	1071644672	60	3844
2026-01-23 01:38:19.51	347.77	50.83	-44.3	-45.2	20.6	0.00e+00	0	44	0	1074790400	59	4180
2026-01-23 01:38:20.52	347.26	51.05	-44.2	-45.1	20.5	0.00e+00	0	44	0	1077936128	59	4127
2026-01-23 01:38:21.53	346.74	51.27	-44.2	-45.1	20.5	0.00e+00	0	44	0	1081081856	59	4143
2026-01-23 01:38:22.54	346.21	51.48	-44.2	-45.2	20.6	0.00e+00	0	44	0	1084227584	59	4166
2026-01-23 01:38:23.54	345.69	51.70	-44.1	-45.0	20.8	0.00e+00	0	44	0	1087373312	59	4097
2026-01-23 01:38:24.55	345.14	51.91	-43.9	-44.8	21.0	0.00e+00	0	44	0	1090519040	59	3983
2026-01-23 01:38:25.56	344.60	52.13	-43.9	-44.7	21.0	0.00e+00	0	44	0	1093664768	59	3957
2026-01-23 01:38:26.57	344.04	52.34	-44.1	-45.0	20.7	0.00e+00	0	44	0	1096810496	59	4064
2026-01-23 01:38:27.58	343.47	52.54	-44.1	-45.1	20.5	0.00e+00	0	44	0	1099956224	59	4115
2026-01-23 01:38:28.58	342.91	52.75	-44.1	-45.0	20.7	0.00e+00	0	44	0	1103101952	59	4089
2026-01-23 01:38:29.59	342.32	52.95	-43.8	-44.7	21.0	0.00e+00	0	44	0	1106247680	59	3935
2026-01-23 01:38:30.60	341.73	53.16	-43.7	-44.6	21.1	0.00e+00	0	44	0	1109393408	59	3882
2026-01-23 01:38:31.61	341.14	53.36	-43.9	-44.8	21.0	0.00e+00	0	44	0	1112539136	59	3984
2026-01-23 01:38:32.62	340.53	53.55	-44.1	-45.1	20.7	0.00e+00	0	44	0	1115684864	59	4116
2026-01-23 01:38:33.63	339.92	53.75	-44.1	-45.0	20.8	0.00e+00	0	44	0	1118830592	59	4091
2026-01-23 01:38:34.63	339.30	53.94	-44.0	-44.9	20.8	0.00e+00	0	44	0	1121976320	59	4030
2026-01-23 01:38:35.64	338.67	54.13	-43.6	-44.4	21.2	0.00e+00	0	44	0	1125122048	59	3813
2026-01-23 01:38:36.65	338.03	54.31	-43.5	-44.3	21.4	0.00e+00	0	44	0	1128267776	58	3995
2026-01-23 01:38:37.66	337.38	54.50	-43.4	-44.3	21.5	0.00e+00	0	44	0	1131413504	58	3967
2026-01-23 01:38:38.67	336.73	54.68	-43.3	-44.1	21.6	0.00e+00	0	44	0	1134559232	58	3894
2026-01-23 01:38:39.67	336.07	54.85	-43.1	-43.9	21.8	0.00e+00	0	44	0	1137704960	58	3802
2026-01-23 01:38:40.68	335.40	55.03	-43.0	-43.8	21.7	0.00e+00	0	44	0	1140850688	57	3991
2026-01-23 01:38:41.69	334.72	55.20	-43.1	-43.9	21.6	0.00e+00	0	44	0	1143996416	57	4019
2026-01-23 01:38:42.70	334.03	55.37	-43.0	-43.8	21.6	0.00e+00	0	44	0	1147142144	57	3984
2026-01-23 01:38:43.71	333.33	55.53	-43.2	-44.1	21.3	0.00e+00	0	44	0	1150287872	57	4121
2026-01-23 01:38:44.71	332.63	55.69	-43.6	-44.5	21.1	0.00e+00	0	44	0	1153433600	57	4328
2026-01-23 01:38:45.72	331.92	55.84	-43.6	-44.4	21.3	0.00e+00	0	44	0	1156579328	57	4287
2026-01-23 01:38:46.73	331.20	56.00	-43.5	-44.4	21.3	0.00e+00	0	44	0	1159725056	57	4288
2026-01-23 01:38:47.74	330.47	56.14	-43.5	-44.4	21.4	0.00e+00	0	44	0	1162870784	57	4246
2026-01-23 01:38:48.74	329.74	56.29	-43.3	-44.1	21.6	0.00e+00	0	44	0	1166016512	57	4142
2026-01-23 01:38:49.75	328.99	56.43	-43.1	-44.0	21.7	0.00e+00	0	44	0	1169162240	57	4061
2026-01-23 01:38:50.76	328.24	56.56	-43.1	-44.0	21.7	0.00e+00	0	44	0	1172307968	57	4057
2026-01-23 01:38:51.77	327.48	56.69	-42.9	-43.7	21.8	0.00e+00	0	44	0	1175453696	57	3944
2026-01-23 01:38:52.78	326.72	56.82	-43.0	-43.8	21.7	0.00e+00	0	44	0	1178599424	57	4001
2026-01-23 01:38:53.78	325.95	56.94	-42.8	-43.6	22.0	0.00e+00	0	44	0	1181745152	57	3889
2026-01-23 01:38:54.79	325.17	57.05	-42.9	-43.7	21.8	0.00e+00	0	44	0	1184890880	57	3947
2026-01-23 01:38:55.80	324.39	57.16	-42.7	-43.6	22.0	0.00e+00	0	44	0	1188036608	57	3871
2026-01-23 01:38:56.80	323.60	57.27	-42.8	-43.6	21.9	0.00e+00	0	44	0	1191182336	57	3905
2026-01-23 01:38:57.81	322.80	57.37	-43.0	-43.8	21.8	0.00e+00	0	44	0	1194328064	57	3981
2026-01-23 01:38:58.82	322.00	57.47	-42.9	-43.8	21.9	0.00e+00	0	44	0	1197473792	57	3974
2026-01-23 01:38:59.83	321.19	57.56	-43.1	-44.0	21.7	0.00e+00	0	44	0	1200619520	57	4067
2026-01-23 01:39:00.84	320.37	57.64	-43.1	-44.0	21.7	0.00e+00	0	44	0	1203765248	57	4062
2026-01-23 01:39:01.85	319.55	57.72	-43.2	-44.0	21.7	0.00e+00	0	44	0	1206910976	57	4090
2026-01-23 01:39:02.85	318.73	57.80	-43.2	-44.0	21.6	0.00e+00	0	44	0	1210056704	57	4068
2026-01-23 01:39:03.86	317.90	57.87	-43.0	-43.8	21.8	0.00e+00	0	44	0	1213202432	57	3991
2026-01-23 01:39:04.87	317.07	57.93	-42.8	-43.6	21.9	0.00e+00	0	44	0	1216348160	57	3878
2026-01-23 01:39:05.88	316.23	57.99	-42.2	-43.0	22.6	0.00e+00	0	44	0	1219493888	56	3844
2026-01-23 01:39:06.89	315.39	58.04	-42.2	-43.0	22.6	0.00e+00	0	44	0	1222639616	56	3825
2026-01-23 01:39:07.89	314.56	58.09	-42.2	-43.0	22.6	0.00e+00	0	44	0	1225785344	56	3843
2026-01-23 01:39:08.90	313.71	58.13	-42.2	-42.9	22.6	0.00e+00	0	44	0	1228931072	56	3820
2026-01-23 01:39:09.91	312.86	58.16	-42.3	-43.0	22.6	0.00e+00	0	44	0	1232076800	56	3863
2026-01-23 01:39:10.92	312.01	58.19	-42.2	-43.0	22.6	0.00e+00	0	44	0	1235222528	56	3859
2026-01-23 01:39:11.93	311.16	58.21	-42.4	-43.2	22.4	0.00e+00	0	44	0	1238368256	56	3950
2026-01-23 01:39:12.93	310.31	58.23	-42.4	-43.2	22.4	0.00e+00	0	44	0	1241513984	56	3941
2026-01-23 01:39:13.94	309.45	58.24	-42.8	-43.6	22.1	0.00e+00	0	44	0	1244659712	56	4145
2026-01-23 01:39:14.95	308.60	58.25	-43.1	-44.0	21.8	0.00e+00	0	44	0	1247805440	56	4298
2026-01-23 01:39:15.96	307.74	58.24	-42.9	-43.7	21.9	0.00e+00	0	44	0	1250951168	56	4190
2026-01-23 01:39:16.97	306.89	58.24	-42.7	-43.5	22.2	0.00e+00	0	44	0	1254096896	56	4083
2026-01-23 01:39:17.97	306.04	58.22	-42.7	-43.5	22.0	0.00e+00	0	44	0	1257242624	56	4068
2026-01-23 01:39:18.98	305.19	58.21	-43.1	-44.0	21.7	0.00e+00	0	44	0	1260388352	56	4324
2026-01-23 01:39:19.99	304.33	58.18	-43.2	-44.1	21.7	0.00e+00	0	44	0	1263534080	57	4107
2026-01-23 01:39:21.00	303.48	58.15	-42.9	-43.8	21.9	0.00e+00	0	44	0	1266679808	57	3961
2026-01-23 01:39:22.01	302.63	58.11	-42.6	-43.5	22.3	0.00e+00	0	44	0	1269825536	57	3826
2026-01-23 01:39:23.01	301.80	58.07	-42.5	-43.2	22.4	0.00e+00	0	44	0	1272971264	57	3732
2026-01-23 01:39:24.02	300.95	58.02	-42.4	-43.2	22.5	0.00e+00	0	44	0	1276116992	56	3944
2026-01-23 01:39:25.03	300.11	57.97	-42.4	-43.2	22.5	0.00e+00	0	44	0	1279262720	56	3938
2026-01-23 01:39:26.03	299.28	57.91	-42.5	-43.3	22.4	0.00e+00	0	44	0	1282408448	56	4000
2026-01-23 01:39:27.04	298.45	57.84	-42.9	-43.8	21.9	0.00e+00	0	44	0	1285554176	56	4207
2026-01-23 01:39:28.05	297.62	57.77	-43.1	-44.0	21.7	0.00e+00	0	44	0	1288699904	56	4319
2026-01-23 01:39:29.06	296.80	57.69	-43.1	-43.9	21.8	0.00e+00	0	44	0	1291845632	57	4046
2026-01-23 01:39:30.07	295.98	57.61	-42.7	-43.6	22.2	0.00e+00	0	44	0	1294991360	57	3871
2026-01-23 01:39:31.07	295.17	57.53	-42.9	-43.7	22.0	0.00e+00	0	44	0	1298137088	57	3949
2026-01-23 01:39:32.08	294.36	57.43	-42.8	-43.6	21.9	0.00e+00	0	44	0	1301282816	57	3913
2026-01-23 01:39:33.09	293.56	57.33	-42.8	-43.6	22.1	0.00e+00	0	44	0	1304428544	57	3872
2026-01-23 01:39:34.10	292.76	57.23	-42.8	-43.7	22.1	0.00e+00	0	44	0	1307574272	57	3921
2026-01-23 01:39:35.10	291.98	57.12	-42.6	-43.4	22.3	0.00e+00	0	44	0	1310720000	57	3794
2026-01-23 01:39:36.11	291.20	57.01	-42.6	-43.4	22.4	0.00e+00	0	44	0	1313865728	56	4016
2026-01-23 01:39:37.12	290.42	56.89	-42.8	-43.6	22.2	0.00e+00	0	44	0	1317011456	56	4138
2026-01-23 01:39:38.13	289.65	56.77	-43.1	-43.9	21.8	0.00e+00	0	44	0	1320157184	56	4272
2026-01-23 01:39:39.14	288.88	56.64	-43.2	-44.0	21.7	0.00e+00	0	44	0	1323302912	56	4337
2026-01-23 01:39:40.14	288.13	56.51	-43.2	-44.1	21.6	0.00e+00	0	44	0	1326448640	57	4105
2026-01-23 01:39:41.15	287.38	56.37	-43.2	-44.1	21.8	0.00e+00	0	44	0	1329594368	57	4100
2026-01-23 01:39:42.16	286.64	56.23	-43.3	-44.1	21.7	0.00e+00	0	44	0	1332740096	57	4128
2026-01-23 01:39:43.17	285.91	56.09	-43.8	-44.7	21.3	0.00e+00	0	44	0	1335885824	58	4156
2026-01-23 01:39:44.18	285.18	55.94	-44.0	-45.0	21.0	0.00e+00	0	44	0	1339031552	58	4294
2026-01-23 01:39:45.19	284.46	55.78	-43.9	-44.8	21.1	0.00e+00	0	44	0	1342177280	58	4228
2026-01-23 01:39:46.19	283.76	55.63	-43.5	-44.4	21.5	0.00e+00	0	44	0	1345323008	58	4006
2026-01-23 01:39:47.20	283.06	55.47	-43.4	-44.3	21.5	0.00e+00	0	44	0	1348468736	58	3978
2026-01-23 01:39:48.21	282.36	55.30	-43.1	-43.9	21.9	0.00e+00	0	44	0	1351614464	58	3811
2026-01-23 01:39:49.22	281.67	55.13	-42.9	-43.8	22.0	0.00e+00	0	44	0	1354760192	57	3967
2026-01-23 01:39:50.22	281.00	54.96	-43.0	-43.8	21.9	0.00e+00	0	44	0	1357905920	57	4003
2026-01-23 01:39:51.23	280.33	54.79	-42.9	-43.7	22.0	0.00e+00	0	44	0	1361051648	57	3924
2026-01-23 01:39:52.24	279.67	54.61	-43.2	-44.0	21.7	0.00e+00	0	44	0	1364197376	57	4086
2026-01-23 01:39:53.25	279.02	54.43	-43.4	-44.3	21.5	0.00e+00	0	44	0	1367343104	57	4212
2026-01-23 01:39:54.26	278.37	54.24	-43.6	-44.5	21.0	0.00e+00	0	44	0	1370488832	57	4309
2026-01-23 01:39:55.27	277.73	54.05	-43.6	-44.4	21.0	0.00e+00	0	44	0	1373634560	57	4283
2026-01-23 01:39:56.28	277.11	53.86	-43.7	-44.6	21.1	0.00e+00	0	44	0	1376780288	58	4127
2026-01-23 01:39:57.29	276.49	53.67	-43.7	-44.5	21.3	0.00e+00	0	44	0	1379926016	58	4093
2026-01-23 01:39:58.29	275.88	53.47	-43.6	-44.4	21.4	0.00e+00	0	44	0	1383071744	58	4031
2026-01-23 01:39:59.30	275.28	53.27	-44.2	-45.1	20.7	0.00e+00	0	44	0	1386217472	58	4391
2026-01-23 01:40:00.31	274.68	53.07	-44.7	-45.7	20.4	0.00e+00	0	44	0	1389363200	59	4397
2026-01-23 01:40:01.32	274.09	52.87	-44.2	-45.1	20.6	0.00e+00	0	44	0	1392508928	60	3911
2026-01-23 01:40:02.33	273.51	52.66	-43.9	-44.8	21.1	0.00e+00	0	44	0	1395654656	59	3977
2026-01-23 01:40:03.34	272.94	52.46	-43.6	-44.4	21.4	0.00e+00	0	44	0	1398800384	59	3817
2026-01-23 01:40:04.34	272.39	52.25	-43.4	-44.2	21.6	0.00e+00	0	44	0	1401946112	58	3957
2026-01-23 01:40:05.35	271.83	52.04	-43.7	-44.6	21.3	0.00e+00	0	44	0	1405091840	58	4104
2026-01-23 01:40:06.36	271.28	51.82	-44.6	-45.6	20.4	0.00e+00	0	44	0	1408237568	59	4342
2026-01-23 01:40:07.37	270.74	51.61	-45.1	-46.1	19.7	0.00e+00	0	44	0	1411383296	60	4371
2026-01-23 01:40:08.38	270.21	51.39	-45.5	-46.6	19.2	0.00e+00	0	44	0	1414529024	61	4348
2026-01-23 01:40:09.39	269.69	51.17	-44.9	-45.9	19.8	0.00e+00	0	44	0	1417674752	61	4043
2026-01-23 01:40:10.39	269.18	50.95	-44.3	-45.2	20.4	0.00e+00	0	44	0	1420820480	59	4189
2026-01-23 01:40:11.40	268.67	50.73	-43.5	-44.4	21.0	0.00e+00	0	44	0	1423966208	59	3805
2026-01-23 01:40:12.41	268.17	50.51	-43.8	-44.7	21.2	0.00e+00	0	44	0	1427111936	58	4156
2026-01-23 01:40:13.42	267.68	50.29	-44.6	-45.6	20.1	0.00e+00	0	44	0	1430257664	59	4356
2026-01-23 01:40:14.43	267.19	50.06	-44.8	-45.8	19.5	0.00e+00	0	44	0	1433403392	60	4211
2026-01-23 01:40:15.43	266.71	49.84	-45.2	-46.3	19.3	0.00e+00	0	44	0	1436549120	61	4228
2026-01-23 01:40:16.44	266.24	49.61	-45.3	-46.4	19.3	0.00e+00	0	44	0	1439694848	61	4249
2026-01-23 01:40:17.45	265.78	49.38	-45.2	-46.3	19.5	0.00e+00	0	44	0	1442840576	61	4219
2026-01-23 01:40:18.46	265.32	49.15	-44.9	-45.9	19.8	0.00e+00	0	44	0	1445986304	61	4033
2026-01-23 01:40:19.47	264.87	48.92	-44.9	-45.9	19.9	0.00e+00	0	44	0	1449132032	61	4015
2026-01-23 01:40:20.47	264.43	48.70	-44.5	-45.4	20.2	0.00e+00	0	44	0	1452277760	61	3822
2026-01-23 01:40:21.48	263.99	48.46	-44.4	-45.3	20.0	0.00e+00	0	44	0	1455423488	60	4003
2026-01-23 01:40:22.49	263.56	48.23	-44.7	-45.7	19.4	0.00e+00	0	44	0	1458569216	60	4179
2026-01-23 01:40:23.50	263.13	48.00	-45.5	-46.7	18.6	0.00e+00	0	44	0	1461714944	61	4393
2026-01-23 01:40:24.51	262.72	47.77	-46.0	-47.2	18.4	0.00e+00	0	44	0	1464860672	62	4408
2026-01-23 01:40:25.52	262.30	47.54	-45.3	-46.4	18.8	0.00e+00	0	44	0	1468006400	62	4024
2026-01-23 01:40:26.52	261.90	47.30	-44.4	-45.4	19.8	0.00e+00	0	44	0	1471152128	60	4005
2026-01-23 01:40:27.53	261.50	47.07	-44.2	-45.1	20.1	0.00e+00	0	44	0	1474297856	60	3896
2026-01-23 01:40:28.54	261.11	46.84	-44.3	-45.3	20.3	0.00e+00	0	44	0	1477443584	60	3963
2026-01-23 01:40:29.55	260.72	46.60	-44.6	-45.5	20.1	0.00e+00	0	44	0	1480589312	60	4089
2026-01-23 01:40:30.56	260.34	46.37	-44.8	-45.8	19.9	0.00e+00	0	44	0	1483735040	60	4222
2026-01-23 01:40:31.57	259.96	46.14	-44.8	-45.8	19.8	0.00e+00	0	44	0	1486880768	60	4219
2026-01-23 01:40:32.57	259.59	45.90	-45.4	-46.5	19.1	0.00e+00	0	44	0	1490026496	61	4306
2026-01-23 01:40:33.58	259.22	45.67	-46.0	-47.2	18.4	0.00e+00	0	44	0	1493172224	62	4417
2026-01-23 01:40:34.59	258.86	45.44	-46.3	-47.6	18.2	0.00e+00	0	44	0	1496317952	63	4350
2026-01-23 01:40:35.59	258.51	45.20	-45.6	-46.7	18.7	0.00e+00	0	44	0	1499463680	63	3958
2026-01-23 01:40:36.60	258.16	44.97	-44.9	-46.0	19.3	0.00e+00	0	44	0	1502609408	61	4055
2026-01-23 01:40:37.61	257.82	44.74	-44.9	-45.9	19.5	0.00e+00	0	44	0	1505755136	61	4009
2026-01-23 01:40:38.62	257.48	44.50	-44.4	-45.4	20.2	0.00e+00	0	44	0	1508900864	60	4008
2026-01-23 01:40:39.63	257.14	44.27	-44.5	-45.5	20.1	0.00e+00	0	44	0	1512046592	60	4064
2026-01-23 01:40:40.64	256.81	44.04	-45.4	-46.5	19.2	0.00e+00	0	44	0	1515192320	61	4311
2026-01-23 01:40:41.65	256.49	43.81	-45.8	-47.0	18.8	0.00e+00	0	44	0	1518338048	62	4317
2026-01-23 01:40:42.65	256.17	43.58	-45.9	-47.1	18.8	0.00e+00	0	44	0	1522532352	62	4351
2026-01-23 01:40:43.66	255.86	43.34	-45.4	-46.5	19.2	0.00e+00	0	44	0	1524629504	62	4079
2026-01-23 01:40:44.67	255.55	43.11	-45.2	-46.2	19.4	0.00e+00	0	44	0	1527775232	62	3943
2026-01-23 01:40:45.68	255.24	42.88	-44.8	-45.8	19.8	0.00e+00	0	44	0	1530920960	61	3973
2026-01-23 01:40:46.69	254.94	42.65	-44.4	-45.3	20.0	0.00e+00	0	44	0	1534066688	60	3992
2026-01-23 01:40:47.69	254.64	42.42	-44.3	-45.2	20.4	0.00e+00	0	44	0	1537212416	59	4177
2026-01-23 01:40:48.70	254.35	42.19	-44.0	-44.9	20.7	0.00e+00	0	44	0	1540358144	59	4012
2026-01-23 01:40:49.71	254.06	41.97	-43.7	-44.6	21.1	0.00e+00	0	44	0	1543503872	59	3880
2026-01-23 01:40:50.72	253.77	41.74	-44.4	-45.3	20.5	0.00e+00	0	44	0	1546649600	59	4210
2026-01-23 01:40:51.73	253.49	41.51	-44.9	-46.0	19.5	0.00e+00	0	44	0	1549795328	60	4298
2026-01-23 01:40:52.73	253.22	41.29	-46.1	-47.4	18.2	0.00e+00	0	44	0	1552941056	62	4503
2026-01-23 01:40:53.74	252.94	41.06	-46.9	-48.3	17.4	0.00e+00	0	44	0	1556086784	64	4463
2026-01-23 01:40:54.75	252.67	40.83	-46.4	-47.7	17.8	0.00e+00	0	44	0	1560281088	64	4174
2026-01-23 01:40:55.76	252.41	40.61	-45.8	-46.9	18.6	0.00e+00	0	44	0	1563426816	63	4042
2026-01-23 01:40:56.76	252.15	40.39	-45.3	-46.3	19.3	0.00e+00	0	44	0	1566572544	62	3994
2026-01-23 01:40:57.77	251.89	40.16	-45.0	-46.0	19.6	0.00e+00	0	44	0	1569718272	61	4083
2026-01-23 01:40:58.78	251.63	39.94	-44.7	-45.7	19.9	0.00e+00	0	44	0	1572864000	61	3937
2026-01-23 01:40:59.79	251.38	39.72	-44.7	-45.7	19.8	0.00e+00	0	44	0	1574961152	61	3914
2026-01-23 01:41:00.79	251.14	39.50	-44.6	-45.5	19.9	0.00e+00	0	44	0	1578106880	61	3859
2026-01-23 01:41:01.80	250.89	39.28	-44.4	-45.4	20.1	0.00e+00	0	44	0	1581252608	60	4021
2026-01-23 01:41:02.81	250.65	39.06	-44.5	-45.5	20.0	0.00e+00	0	44	0	1584398336	60	4080
2026-01-23 01:41:03.82	250.41	38.84	-44.3	-45.2	20.3	0.00e+00	0	44	0	1587544064	60	3956
2026-01-23 01:41:04.83	250.18	38.62	-44.9	-46.0	19.6	0.00e+00	0	44	0	1590689792	60	4301
2026-01-23 01:41:05.83	249.95	38.41	-45.7	-46.9	18.7	0.00e+00	0	44	0	1593835520	61	4533
2026-01-23 01:41:06.84	249.72	38.19	-46.4	-47.8	17.9	0.00e+00	0	44	0	1596981248	63	4461
2026-01-23 01:41:07.85	249.49	37.98	-46.4	-47.8	17.8	0.00e+00	0	44	0	1601175552	63	4459
2026-01-23 01:41:08.86	249.27	37.76	-45.9	-47.1	18.3	0.00e+00	0	44	0	1604321280	63	4116
2026-01-23 01:41:09.86	249.05	37.55	-45.1	-46.2	19.2	0.00e+00	0	44	0	1607467008	62	3924
2026-01-23 01:41:10.87	248.84	37.34	-44.5	-45.4	20.0	0.00e+00	0	44	0	1610612736	60	4044
2026-01-23 01:41:11.88	248.62	37.13	-44.0	-44.9	20.4	0.00e+00	0	44	0	1613758464	60	3813
2026-01-23 01:41:12.89	248.41	36.91	-43.8	-44.7	20.9	0.00e+00	0	44	0	1616904192	59	3946
2026-01-23 01:41:13.90	248.20	36.70	-43.9	-44.8	20.7	0.00e+00	0	44	0	1619001344	59	3969
2026-01-23 01:41:14.90	248.00	36.50	-44.1	-45.0	20.6	0.00e+00	0	44	0	1622147072	59	4070
2026-01-23 01:41:15.91	247.80	36.29	-44.4	-45.4	20.2	0.00e+00	0	44	0	1625292800	59	4250
2026-01-23 01:41:16.92	247.60	36.08	-44.5	-45.5	20.2	0.00e+00	0	44	0	1628438528	59	4307
2026-01-23 01:41:17.93	247.40	35.87	-44.5	-45.5	20.2	0.00e+00	0	44	0	1631584256	59	4335
2026-01-23 01:41:18.94	247.20	35.67	-44.2	-45.2	20.5	0.00e+00	0	44	0	1634729984	59	4155
2026-01-23 01:41:19.94	247.01	35.47	-44.0	-44.9	20.7	0.00e+00	0	44	0	1637875712	59	4030
2026-01-23 01:41:20.95	246.82	35.26	-43.5	-44.4	21.2	0.00e+00	0	44	0	1642070016	58	4032
2026-01-23 01:41:21.96	246.63	35.06	-43.2	-44.1	21.5	0.00e+00	0	44	0	1645215744	58	3886
2026-01-23 01:41:22.97	246.45	34.86	-43.4	-44.2	21.4	0.00e+00	0	44	0	1648361472	58	3944
2026-01-23 01:41:23.98	246.26	34.66	-43.5	-44.4	21.2	0.00e+00	0	44	0	1651507200	58	4014
2026-01-23 01:41:24.99	246.08	34.46	-43.7	-44.7	20.9	0.00e+00	0	44	0	1654652928	58	4147
2026-01-23 01:41:26.00	245.90	34.26	-43.9	-44.8	20.7	0.00e+00	0	44	0	1657798656	58	4232
2026-01-23 01:41:27.01	245.72	34.06	-43.9	-44.9	20.7	0.00e+00	0	44	0	1660944384	58	4249
2026-01-23 01:41:28.02	245.55	33.86	-43.9	-44.8	20.7	0.00e+00	0	44	0	1664090112	58	4241
2026-01-23 01:41:29.03	245.38	33.67	-43.7	-44.7	20.9	0.00e+00	0	44	0	1667235840	58	4147
2026-01-23 01:41:30.03	245.21	33.47	-43.6	-44.5	21.0	0.00e+00	0	44	0	1669332992	58	4073
2026-01-23 01:41:31.04	245.04	33.28	-43.6	-44.5	21.1	0.00e+00	0	44	0	1672478720	58	4054
2026-01-23 01:41:32.05	244.87	33.09	-43.5	-44.4	21.2	0.00e+00	0	44	0	1676673024	58	4021
2026-01-23 01:41:33.06	244.71	32.89	-43.5	-44.4	21.1	0.00e+00	0	44	0	1679818752	58	4040
2026-01-23 01:41:34.07	244.55	32.70	-43.5	-44.4	21.1	0.00e+00	0	44	0	1682964480	58	4024
2026-01-23 01:41:35.08	244.39	32.51	-43.6	-44.5	21.0	0.00e+00	0	44	0	1686110208	58	4078
2026-01-23 01:41:36.09	244.23	32.32	-43.4	-44.3	21.2	0.00e+00	0	44	0	1689255936	58	3971
2026-01-23 01:41:37.10	244.07	32.13	-43.4	-44.3	21.2	0.00e+00	0	44	0	1692401664	58	3974
2026-01-23 01:41:38.11	243.92	31.95	-43.2	-44.1	21.4	0.00e+00	0	44	0	1695547392	58	3879
2026-01-23 01:41:39.11	243.76	31.76	-43.2	-44.1	21.4	0.00e+00	0	44	0	1698693120	58	3878
2026-01-23 01:41:40.12	243.61	31.58	-42.8	-43.6	21.8	0.00e+00	0	44	0	1701838848	57	3892
2026-01-23 01:41:41.13	243.46	31.39	-42.6	-43.4	22.0	0.00e+00	0	44	0	1704984576	57	3785
2026-01-23 01:41:42.14	243.32	31.21	-42.3	-43.1	22.2	0.00e+00	0	44	0	1708130304	56	3879
2026-01-23 01:41:43.15	243.17	31.02	-42.3	-43.1	22.2	0.00e+00	0	44	0	1711276032	56	3894
2026-01-23 01:41:44.16	243.03	30.84	-42.2	-43.0	22.4	0.00e+00	0	44	0	1714421760	56	3838
2026-01-23 01:41:45.17	242.88	30.66	-42.2	-43.0	22.4	0.00e+00	0	44	0	1717567488	56	3832
2026-01-23 01:41:46.18	242.74	30.48	-42.4	-43.2	22.2	0.00e+00	0	44	0	1720713216	56	3918
2026-01-23 01:41:47.18	242.60	30.30	-42.7	-43.5	21.9	0.00e+00	0	44	0	1723858944	56	4064
2026-01-23 01:41:48.19	242.47	30.12	-42.8	-43.7	21.8	0.00e+00	0	44	0	1727004672	56	4154
2026-01-23 01:41:49.20	242.33	29.95	-43.0	-43.9	21.5	0.00e+00	0	44	0	1730150400	56	4274
2026-01-23 01:41:50.21	242.19	29.77	-43.2	-44.1	21.3	0.00e+00	0	44	0	1733296128	57	4129
2026-01-23 01:41:51.22	242.06	29.60	-43.4	-44.3	21.2	0.00e+00	0	44	0	1736441856	57	4216
2026-01-23 01:41:52.23	241.93	29.42	-43.4	-44.4	21.1	0.00e+00	0	44	0	1739587584	57	4250
2026-01-23 01:41:53.24	241.80	29.25	-43.5	-44.4	21.1	0.00e+00	0	44	0	1742733312	57	4274
2026-01-23 01:41:54.25	241.67	29.07	-43.5	-44.4	21.1	0.00e+00	0	44	0	1745879040	57	4247
2026-01-23 01:41:55.26	241.54	28.90	-43.5	-44.4	21.1	0.00e+00	0	44	0	1749024768	57	4260
2026-01-23 01:41:56.27	241.41	28.73	-43.0	-43.9	21.5	0.00e+00	0	44	0	1752170496	57	4008
2026-01-23 01:41:57.27	241.29	28.56	-42.9	-43.8	21.6	0.00e+00	0	44	0	1755316224	57	3969
2026-01-23 01:41:58.29	241.17	28.39	-43.0	-43.9	21.5	0.00e+00	0	44	0	1758461952	57	4028
2026-01-23 01:41:59.29	241.04	28.22	-42.9	-43.8	21.6	0.00e+00	0	44	0	1761607680	57	3960
2026-01-23 01:42:00.30	240.92	28.06	-42.5	-43.3	22.0	0.00e+00	0	44	0	1764753408	57	3754
2026-01-23 01:42:01.32	240.80	27.89	-42.4	-43.2	22.1	0.00e+00	0	44	0	1767899136	56	3953
2026-01-23 01:42:02.32	240.69	27.72	-42.4	-43.2	22.1	0.00e+00	0	44	0	1771044864	56	3958
2026-01-23 01:42:03.33	240.57	27.56	-42.4	-43.2	22.1	0.00e+00	0	44	0	1774190592	56	3934
2026-01-23 01:42:04.34	240.45	27.39	-42.2	-43.0	22.3	0.00e+00	0	44	0	1777336320	56	3827
2026-01-23 01:42:05.35	240.34	27.23	-42.1	-42.9	22.3	0.00e+00	0	44	0	1780482048	56	3820
2026-01-23 01:42:06.36	240.22	27.07	-42.0	-42.8	22.4	0.00e+00	0	44	0	1783627776	56	3764
2026-01-23 01:42:07.37	240.11	26.91	-42.0	-42.8	22.4	0.00e+00	0	44	0	1786773504	56	3754
2026-01-23 01:42:08.38	240.00	26.75	-42.1	-42.9	22.4	0.00e+00	0	44	0	1789919232	56	3796
2026-01-23 01:42:09.38	239.89	26.59	-42.2	-43.0	22.3	0.00e+00	0	44	0	1793064960	56	3864
2026-01-23 01:42:10.39	239.78	26.43	-42.3	-43.1	22.2	0.00e+00	0	44	0	1796210688	56	3885
2026-01-23 01:42:11.40	239.67	26.27	-42.4	-43.2	22.1	0.00e+00	0	44	0	1799356416	56	3947
2026-01-23 01:42:12.41	239.57	26.11	-42.4	-43.2	22.1	0.00e+00	0	44	0	1802502144	56	3940
2026-01-23 01:42:13.42	239.46	25.95	-42.4	-43.2	22.1	0.00e+00	0	44	0	1805647872	56	3949
2026-01-23 01:42:14.43	239.36	25.80	-42.4	-43.2	22.1	0.00e+00	0	44	0	1808793600	56	3947
2026-01-23 01:42:15.44	239.25	25.64	-42.4	-43.2	22.1	0.00e+00	0	44	0	1811939328	56	3943
2026-01-23 01:42:16.45	239.15	25.49	-42.4	-43.2	22.1	0.00e+00	0	44	0	1815085056	56	3932
2026-01-23 01:42:17.46	239.05	25.33	-42.4	-43.2	22.1	0.00e+00	0	44	0	1818230784	56	3946
2026-01-23 01:42:18.46	238.95	25.18	-42.5	-43.3	22.0	0.00e+00	0	44	0	1821376512	56	3992
2026-01-23 01:42:19.47	238.85	25.03	-42.5	-43.3	22.0	0.00e+00	0	44	0	1824522240	56	3967
2026-01-23 01:42:20.48	238.75	24.88	-42.6	-43.4	21.9	0.00e+00	0	44	0	1827667968	56	4014
2026-01-23 01:42:21.49	238.65	24.73	-42.6	-43.4	21.8	0.00e+00	0	44	0	1830813696	56	4020
2026-01-23 01:42:22.50	238.56	24.58	-42.5	-43.3	21.9	0.00e+00	0	44	0	1833959424	56	3984
2026-01-23 01:42:23.51	238.46	24.43	-42.5	-43.4	21.8	0.00e+00	0	44	0	1837105152	56	4012
2026-01-23 01:42:24.52	238.37	24.28	-42.5	-43.3	21.8	0.00e+00	0	44	0	1840250880	56	3992
2026-01-23 01:42:25.53	238.27	24.13	-42.6	-43.5	21.7	0.00e+00	0	44	0	1843396608	56	4054
2026-01-23 01:42:26.54	238.18	23.99	-42.6	-43.4	21.7	0.00e+00	0	44	0	1846542336	56	4028
2026-01-23 01:42:27.55	238.09	23.84	-42.6	-43.4	21.7	0.00e+00	0	44	0	1849688064	56	4025
2026-01-23 01:42:28.55	238.00	23.70	-42.7	-43.5	21.6	0.00e+00	0	44	0	1852833792	56	4085
2026-01-23 01:42:29.56	237.91	23.55	-42.5	-43.3	21.8	0.00e+00	0	44	0	1855979520	56	3984
2026-01-23 01:42:30.57	237.82	23.41	-42.5	-43.3	21.8	0.00e+00	0	44	0	1859125248	56	3983
2026-01-23 01:42:31.58	237.73	23.27	-42.5	-43.3	21.8	0.00e+00	0	44	0	1862270976	56	4004
2026-01-23 01:42:32.58	237.64	23.13	-42.4	-43.3	21.9	0.00e+00	0	44	0	1865416704	56	3961
2026-01-23 01:42:33.59	237.56	22.98	-42.3	-43.1	22.0	0.00e+00	0	44	0	1868562432	56	3877
2026-01-23 01:42:34.60	237.47	22.84	-42.4	-43.2	21.9	0.00e+00	0	44	0	1871708160	56	3928
2026-01-23 01:42:35.61	237.38	22.70	-42.4	-43.2	21.9	0.00e+00	0	44	0	1874853888	56	3943
2026-01-23 01:42:36.62	237.30	22.56	-42.5	-43.3	21.8	0.00e+00	0	44	0	1877999616	56	3997
2026-01-23 01:42:37.63	237.22	22.42	-42.6	-43.4	21.7	0.00e+00	0	44	0	1881145344	56	4037
2026-01-23 01:42:38.64	237.13	22.29	-42.5	-43.3	21.8	0.00e+00	0	44	0	1884291072	56	3986
2026-01-23 01:42:39.65	237.05	22.15	-42.4	-43.2	21.9	0.00e+00	0	44	0	1887436800	56	3945
2026-01-23 01:42:40.66	236.97	22.01	-42.3	-43.2	22.0	0.00e+00	0	44	0	1890582528	56	3919
2026-01-23 01:42:41.67	236.89	21.87	-42.3	-43.1	22.1	0.00e+00	0	44	0	1893728256	56	3884
2026-01-23 01:42:42.68	236.81	21.74	-42.3	-43.1	22.0	0.00e+00	0	44	0	1896873984	56	3909
2026-01-23 01:42:43.69	236.73	21.60	-42.2	-43.0	22.1	0.00e+00	0	44	0	1900019712	56	3840
2026-01-23 01:42:44.70	236.65	21.47	-42.2	-43.0	22.2	0.00e+00	0	44	0	1903165440	56	3832
2026-01-23 01:42:45.71	236.57	21.34	-42.3	-43.1	22.1	0.00e+00	0	44	0	1906311168	56	3875
2026-01-23 01:42:46.72	236.50	21.20	-42.3	-43.1	22.1	0.00e+00	0	44	0	1909456896	56	3877
2026-01-23 01:42:47.73	236.42	21.07	-42.1	-42.9	22.2	0.00e+00	0	44	0	1912602624	56	3781
2026-01-23 01:42:48.73	236.34	20.94	-42.0	-42.8	22.3	0.00e+00	0	44	0	1915748352	56	3780
2026-01-23 01:42:49.74	236.27	20.81	-42.2	-43.0	22.2	0.00e+00	0	44	0	1918894080	56	3831
2026-01-23 01:42:50.75	236.19	20.68	-42.1	-42.9	22.2	0.00e+00	0	44	0	1922039808	56	3820
2026-01-23 01:42:51.76	236.12	20.55	-42.2	-43.0	22.1	0.00e+00	0	44	0	1925185536	56	3864
2026-01-23 01:42:52.76	236.05	20.42	-42.3	-43.1	22.0	0.00e+00	0	44	0	1928331264	56	3906
2026-01-23 01:42:53.77	235.98	20.29	-42.4	-43.2	22.0	0.00e+00	0	44	0	1931476992	56	3939
2026-01-23 01:42:54.78	235.90	20.16	-42.4	-43.2	22.0	0.00e+00	0	44	0	1934622720	56	3934
2026-01-23 01:42:55.79	235.83	20.04	-42.3	-43.1	22.1	0.00e+00	0	44	0	1937768448	56	3890
2026-01-23 01:42:56.80	235.76	19.91	-42.4	-43.2	21.9	0.00e+00	0	44	0	1940914176	56	3947
2026-01-23 01:42:57.81	235.69	19.78	-42.4	-43.2	21.9	0.00e+00	0	44	0	1944059904	56	3955
2026-01-23 01:42:58.81	235.62	19.66	-42.4	-43.3	21.8	0.00e+00	0	44	0	1947205632	56	3965
2026-01-23 01:42:59.82	235.55	19.53	-42.6	-43.4	21.7	0.00e+00	0	44	0	1950351360	56	4026
2026-01-23 01:43:00.83	235.49	19.41	-42.6	-43.4	21.6	0.00e+00	0	44	0	1953497088	56	4048
2026-01-23 01:43:01.84	235.42	19.29	-42.6	-43.4	21.6	0.00e+00	0	44	0	1956642816	56	4035
2026-01-23 01:43:02.85	235.35	19.16	-42.5	-43.4	21.7	0.00e+00	0	44	0	1959788544	56	4008
2026-01-23 01:43:03.85	235.28	19.04	-42.6	-43.5	21.6	0.00e+00	0	44	0	1962934272	56	4058
2026-01-23 01:43:04.86	235.22	18.92	-42.7	-43.5	21.5	0.00e+00	0	44	0	1966080000	56	4076
2026-01-23 01:43:05.87	235.15	18.80	-42.6	-43.4	21.5	0.00e+00	0	44	0	1969225728	56	4037
2026-01-23 01:43:06.88	235.09	18.68	-42.6	-43.4	21.5	0.00e+00	0	44	0	1972371456	56	4030
2026-01-23 01:43:07.89	235.02	18.55	-42.5	-43.3	21.6	0.00e+00	0	44	0	1975517184	56	3980
2026-01-23 01:43:08.90	234.96	18.43	-42.5	-43.3	21.6	0.00e+00	0	44	0	1978662912	56	3987
2026-01-23 01:43:09.91	234.90	18.32	-42.4	-43.3	21.6	0.00e+00	0	44	0	1981808640	56	3972
2026-01-23 01:43:10.91	234.83	18.20	-42.3	-43.2	21.7	0.00e+00	0	44	0	1984954368	56	3915
2026-01-23 01:43:11.92	234.77	18.08	-42.5	-43.3	21.6	0.00e+00	0	44	0	1988100096	56	4002
2026-01-23 01:43:12.93	234.71	17.96	-42.6	-43.4	21.5	0.00e+00	0	44	0	1991245824	56	4031
2026-01-23 01:43:13.94	234.65	17.84	-42.4	-43.2	21.7	0.00e+00	0	44	0	1994391552	56	3955
2026-01-23 01:43:14.95	234.59	17.73	-42.4	-43.2	21.8	0.00e+00	0	44	0	1997537280	56	3930
2026-01-23 01:43:15.96	234.53	17.61	-42.4	-43.3	21.7	0.00e+00	0	44	0	2000683008	56	3967
2026-01-23 01:43:16.97	234.47	17.49	-42.5	-43.3	21.7	0.00e+00	0	44	0	2003828736	56	3980
2026-01-23 01:43:17.98	234.41	17.38	-42.5	-43.3	21.7	0.00e+00	0	44	0	2006974464	56	3992
2026-01-23 01:43:18.99	234.35	17.26	-42.5	-43.4	21.6	0.00e+00	0	44	0	2010120192	56	4007
2026-01-23 01:43:20.00	234.29	17.15	-42.6	-43.4	21.6	0.00e+00	0	44	0	2013265920	56	4028
2026-01-23 01:43:21.01	234.23	17.04	-42.6	-43.4	21.6	0.00e+00	0	44	0	2016411648	56	4026
2026-01-23 01:43:22.02	234.18	16.92	-42.7	-43.5	21.5	0.00e+00	0	44	0	2019557376	56	4083
2026-01-23 01:43:23.03	234.12	16.81	-42.6	-43.5	21.5	0.00e+00	0	44	0	2022703104	56	4063
2026-01-23 01:43:24.04	234.06	16.70	-42.7	-43.6	21.5	0.00e+00	0	44	0	2025848832	56	4108
2026-01-23 01:43:25.04	234.01	16.59	-42.8	-43.7	21.4	0.00e+00	0	44	0	2028994560	56	4156
2026-01-23 01:43:26.05	233.95	16.48	-42.7	-43.6	21.5	0.00e+00	0	44	0	2032140288	56	4120
2026-01-23 01:43:27.06	233.89	16.37	-42.9	-43.7	21.3	0.00e+00	0	44	0	2035286016	56	4190
2026-01-23 01:43:28.07	233.84	16.25	-43.0	-43.9	21.2	0.00e+00	0	44	0	2038431744	56	4259
2026-01-23 01:43:29.08	233.79	16.15	-43.0	-43.8	21.2	0.00e+00	0	44	0	2041577472	56	4234
2026-01-23 01:43:30.09	233.73	16.04	-42.9	-43.8	21.3	0.00e+00	0	44	0	2044723200	56	4222
2026-01-23 01:43:31.10	233.68	15.93	-42.9	-43.8	21.3	0.00e+00	0	44	0	2047868928	56	4233
2026-01-23 01:43:32.11	233.62	15.82	-43.1	-43.9	21.1	0.00e+00	0	44	0	2051014656	56	4289
2026-01-23 01:43:33.12	233.57	15.71	-43.0	-43.9	21.2	0.00e+00	0	44	0	2054160384	56	4262
2026-01-23 01:43:34.12	233.52	15.60	-43.0	-43.9	21.2	0.00e+00	0	44	0	2057306112	56	4258
2026-01-23 01:43:35.13	233.47	15.50	-43.0	-43.9	21.2	0.00e+00	0	44	0	2060451840	56	4261
2026-01-23 01:43:36.14	233.42	15.39	-43.1	-43.9	21.1	0.00e+00	0	44	0	2063597568	56	4288
2026-01-23 01:43:37.15	233.37	15.28	-43.0	-43.9	21.2	0.00e+00	0	44	0	2067791872	56	4256
2026-01-23 01:43:38.16	233.31	15.18	-43.1	-43.9	21.1	0.00e+00	0	44	0	2070937600	56	4291
2026-01-23 01:43:39.17	233.26	15.07	-43.1	-44.0	21.1	0.00e+00	0	44	0	2074083328	56	4333
2026-01-23 01:43:40.18	233.21	14.97	-43.3	-44.2	20.9	0.00e+00	0	44	0	2077229056	57	4152
2026-01-23 01:43:41.19	233.16	14.86	-43.1	-43.9	21.1	0.00e+00	0	44	0	2079326208	57	4042
