passes_logs/2026/01/23/R3.2S_Murmansk/R3.2S_Murmansk__20260123_231934_FENGYUN_3D_rec.log

#Pass ID: 20260123_231934_FENGYUN 3D
#Satellite: FENGYUN 3D
#Configuration: FENGYUN 3D
#almurnet v.1.7.20251203
#Start time: 2026-01-23 23:19:36

#Version: 2.2.20231116
#Station: R3.2S_Murmansk
#Location: 33.079688 lon 68.888172 lat
#TLE: 1 43010U 17072A   26023.60174628  .00000324  00000+0  17481-3 0  9994
#TLE: 2 43010  98.9958 355.5514 0002482  93.7422 266.4037 14.19699955424476

#Time	Az	El	Level	Level2	SNR	BER	BlckErr	Temp	State	Recorded	gain1	gain2
2026-01-23 23:19:36.85	19.50	2.09	-52.1	-64.0	3.8	8.46e-01	0	42	0	0	76	13684
2026-01-23 23:19:37.86	19.61	2.14	-52.1	-64.0	3.8	8.46e-01	0	42	104	0	74	15235
2026-01-23 23:19:38.87	19.71	2.18	-52.1	-64.0	3.8	8.46e-01	0	42	104	0	74	15291
2026-01-23 23:19:39.88	19.81	2.22	-52.1	-63.9	3.8	8.46e-01	0	42	104	0	74	15166
2026-01-23 23:19:40.89	19.91	2.27	-52.1	-63.9	3.8	8.45e-01	0	42	104	0	74	15189
2026-01-23 23:19:41.90	20.02	2.31	-52.1	-63.9	3.8	8.46e-01	0	42	104	0	74	15110
2026-01-23 23:19:42.91	20.12	2.35	-52.1	-63.9	3.8	8.46e-01	0	42	104	0	74	15109
2026-01-23 23:19:43.92	20.22	2.40	-52.1	-63.9	3.8	8.46e-01	0	42	104	0	74	15076
2026-01-23 23:19:44.93	20.33	2.44	-52.1	-63.8	3.8	8.46e-01	0	42	104	0	74	15017
2026-01-23 23:19:45.93	20.43	2.48	-52.0	-63.7	3.8	8.46e-01	0	42	104	0	74	14818
2026-01-23 23:19:46.94	20.53	2.53	-52.0	-63.7	3.8	8.46e-01	0	42	104	0	74	14715
2026-01-23 23:19:47.95	20.64	2.57	-52.0	-63.7	3.8	8.46e-01	0	42	104	0	74	14770
2026-01-23 23:19:48.96	20.74	2.62	-52.1	-63.7	3.8	8.45e-01	0	42	104	0	74	14748
2026-01-23 23:19:49.97	20.85	2.66	-52.0	-63.6	3.8	8.46e-01	0	42	104	0	74	14570
2026-01-23 23:19:50.98	20.95	2.70	-52.0	-63.6	3.8	8.46e-01	0	42	104	0	74	14633
2026-01-23 23:19:51.99	21.06	2.75	-52.0	-63.6	3.8	8.45e-01	0	42	104	0	74	14669
2026-01-23 23:19:53.00	21.17	2.79	-52.0	-63.6	3.8	8.46e-01	0	42	104	0	74	14670
2026-01-23 23:19:54.01	21.27	2.83	-52.0	-63.6	3.8	8.46e-01	0	42	104	0	74	14622
2026-01-23 23:19:55.01	21.38	2.88	-52.0	-63.5	3.8	8.46e-01	0	42	104	0	74	14451
2026-01-23 23:19:56.02	21.49	2.92	-52.0	-63.7	3.8	8.45e-01	0	42	104	0	74	14724
2026-01-23 23:19:57.03	21.59	2.96	-52.0	-63.6	3.8	8.46e-01	0	42	104	0	74	14625
2026-01-23 23:19:58.04	21.70	3.01	-52.0	-63.5	3.8	8.46e-01	0	42	104	0	74	14475
2026-01-23 23:19:59.05	21.81	3.05	-52.0	-63.4	3.8	8.47e-01	0	42	104	0	74	14224
2026-01-23 23:20:00.06	21.92	3.10	-52.0	-63.5	3.8	8.46e-01	0	42	104	0	74	14404
2026-01-23 23:20:01.07	22.03	3.14	-52.0	-63.5	3.8	8.45e-01	0	43	104	0	74	14535
2026-01-23 23:20:02.08	22.13	3.18	-52.0	-63.5	3.8	8.46e-01	0	42	104	0	74	14385
2026-01-23 23:20:03.09	22.24	3.23	-52.0	-63.5	3.8	8.45e-01	0	43	104	0	74	14539
2026-01-23 23:20:04.09	22.35	3.27	-52.0	-63.6	3.8	8.46e-01	0	43	104	0	74	14643
2026-01-23 23:20:05.10	22.46	3.31	-52.0	-63.6	3.8	8.47e-01	0	42	104	0	74	14616
2026-01-23 23:20:06.11	22.57	3.36	-52.0	-63.4	3.8	8.46e-01	0	43	104	0	74	14370
2026-01-23 23:20:07.12	22.68	3.40	-52.0	-63.4	3.8	8.46e-01	0	43	104	0	74	14326
2026-01-23 23:20:08.13	22.79	3.44	-52.0	-63.3	3.8	8.46e-01	0	43	104	0	74	14197
2026-01-23 23:20:09.13	22.90	3.49	-52.0	-63.4	3.8	8.46e-01	0	43	104	0	74	14280
2026-01-23 23:20:10.14	23.02	3.53	-52.0	-63.4	3.8	8.46e-01	0	43	104	0	74	14333
2026-01-23 23:20:11.15	23.13	3.57	-52.0	-63.4	3.8	8.46e-01	0	43	104	0	74	14339
2026-01-23 23:20:12.16	23.24	3.62	-52.0	-63.5	3.8	8.46e-01	0	43	104	0	74	14449
2026-01-23 23:20:13.17	23.35	3.66	-52.0	-63.7	3.8	8.45e-01	0	43	104	0	74	14843
2026-01-23 23:20:14.18	23.46	3.70	-52.0	-63.8	3.8	8.46e-01	0	43	104	0	74	14913
2026-01-23 23:20:15.19	23.58	3.75	-52.0	-63.8	3.8	8.46e-01	0	43	104	0	74	15037
2026-01-23 23:20:16.19	23.69	3.79	-52.0	-63.9	3.8	8.47e-01	0	43	104	0	74	15115
2026-01-23 23:20:17.20	23.80	3.83	-52.0	-63.8	3.8	8.47e-01	0	43	104	0	74	15051
2026-01-23 23:20:18.21	23.92	3.88	-52.0	-63.8	3.8	8.47e-01	0	43	104	0	74	14897
2026-01-23 23:20:19.22	24.03	3.92	-52.0	-63.8	3.8	8.47e-01	0	43	104	0	74	14919
2026-01-23 23:20:20.23	24.15	3.96	-52.0	-63.6	3.8	8.46e-01	0	43	104	0	74	14683
2026-01-23 23:20:21.24	24.26	4.01	-52.0	-63.6	3.8	8.48e-01	0	43	104	0	74	14687
2026-01-23 23:20:22.25	24.38	4.05	-52.0	-63.6	3.8	8.47e-01	0	43	104	0	74	14678
2026-01-23 23:20:23.25	24.49	4.09	-52.0	-63.9	3.8	8.47e-01	0	43	104	0	74	15107
2026-01-23 23:20:24.26	24.61	4.14	-52.0	-63.9	3.8	8.46e-01	0	43	104	0	74	15110
2026-01-23 23:20:25.27	24.72	4.18	-52.1	-64.0	3.8	8.46e-01	0	43	104	0	74	15291
2026-01-23 23:20:26.28	24.84	4.22	-52.1	-64.0	3.8	8.47e-01	0	43	104	0	74	15274
2026-01-23 23:20:27.28	24.95	4.26	-52.0	-64.0	3.8	8.47e-01	0	43	104	0	74	15263
2026-01-23 23:20:28.29	25.07	4.31	-52.0	-64.0	3.8	8.45e-01	0	43	104	0	74	15228
2026-01-23 23:20:29.30	25.19	4.35	-52.0	-63.7	3.8	8.47e-01	0	43	104	0	74	14816
2026-01-23 23:20:30.31	25.31	4.39	-52.0	-63.1	3.8	8.47e-01	0	43	104	0	74	13856
2026-01-23 23:20:31.32	25.43	4.44	-51.9	-62.3	3.8	8.46e-01	0	43	104	0	74	12559
2026-01-23 23:20:32.33	25.54	4.48	-51.8	-61.2	3.9	8.44e-01	0	43	104	0	74	11107
2026-01-23 23:20:33.34	25.66	4.52	-51.6	-60.2	4.2	8.37e-01	0	43	0	0	74	9941
2026-01-23 23:20:34.35	25.78	4.57	-51.5	-59.5	4.5	8.30e-01	0	43	0	0	74	9073
2026-01-23 23:20:35.35	25.90	4.61	-51.2	-57.9	5.3	7.78e-01	0	43	0	0	74	7591
2026-01-23 23:20:36.36	26.02	4.65	-50.6	-55.7	7.0	2.61e-01	0	43	0	3145728	73	6255
2026-01-23 23:20:37.37	26.14	4.69	-49.4	-52.8	10.0	3.06e-02	0	43	0	9437184	70	5290
2026-01-23 23:20:38.38	26.26	4.74	-48.2	-50.7	12.2	5.17e-04	0	43	0	14680064	68	4680
2026-01-23 23:20:39.39	26.38	4.78	-46.8	-48.7	14.1	9.10e-06	0	43	0	19922944	65	4440
2026-01-23 23:20:40.39	26.50	4.82	-45.7	-47.2	15.8	0.00e+00	0	43	0	26214400	63	4176
2026-01-23 23:20:41.40	26.62	4.86	-44.9	-46.3	16.7	0.00e+00	0	43	0	31457280	61	4228
2026-01-23 23:20:42.41	26.74	4.91	-44.9	-46.3	16.8	0.00e+00	0	43	0	36700160	61	4208
2026-01-23 23:20:43.42	26.87	4.95	-45.0	-46.5	16.6	0.00e+00	0	43	0	42991616	61	4294
2026-01-23 23:20:44.43	26.99	4.99	-45.5	-47.0	16.0	0.00e+00	0	43	0	48234496	61	4570
2026-01-23 23:20:45.44	27.11	5.03	-44.8	-46.2	16.8	0.00e+00	0	43	0	54525952	61	4148
2026-01-23 23:20:46.45	27.24	5.08	-44.0	-45.2	18.2	0.00e+00	0	43	0	59768832	59	4187
2026-01-23 23:20:47.45	27.36	5.12	-46.0	-47.8	15.4	0.00e+00	0	43	0	66060288	62	4711
2026-01-23 23:20:48.46	27.48	5.16	-50.3	-55.1	7.7	3.05e-01	0	43	0	71303168	72	6145
2026-01-23 23:20:49.47	27.61	5.20	-45.2	-46.6	16.1	2.25e-01	0	43	0	74448896	62	4123
2026-01-23 23:20:50.48	27.73	5.25	-43.1	-44.2	19.2	0.00e+00	0	43	0	79691776	58	3936
2026-01-23 23:20:51.49	27.86	5.29	-43.1	-44.2	19.2	0.00e+00	0	43	0	85983232	57	4159
2026-01-23 23:20:52.49	27.98	5.33	-43.1	-44.2	19.2	0.00e+00	0	43	0	91226112	57	4172
2026-01-23 23:20:53.50	28.11	5.37	-43.2	-44.3	19.1	0.00e+00	0	43	0	96468992	57	4221
2026-01-23 23:20:54.51	28.23	5.41	-42.9	-44.0	19.4	0.00e+00	0	43	0	102760448	57	4082
2026-01-23 23:20:55.52	28.36	5.46	-42.7	-43.8	19.6	0.00e+00	0	43	0	108003328	57	3978
2026-01-23 23:20:56.53	28.48	5.50	-42.8	-43.8	19.6	0.00e+00	0	43	0	113246208	57	3993
2026-01-23 23:20:57.54	28.61	5.54	-42.6	-43.6	19.8	0.00e+00	0	43	0	119537664	57	3899
2026-01-23 23:20:58.55	28.74	5.58	-42.9	-44.0	19.4	0.00e+00	0	43	0	124780544	57	4056
2026-01-23 23:20:59.55	28.87	5.62	-42.7	-43.8	19.7	0.00e+00	0	43	0	131072000	57	3971
2026-01-23 23:21:00.56	28.99	5.67	-43.1	-44.2	19.3	0.00e+00	0	43	0	136314880	57	4169
2026-01-23 23:21:01.57	29.12	5.71	-42.6	-43.6	19.8	0.00e+00	0	43	0	142606336	57	3912
2026-01-23 23:21:02.58	29.25	5.75	-42.7	-43.7	19.8	0.00e+00	0	43	0	147849216	57	3939
2026-01-23 23:21:03.59	29.38	5.79	-42.5	-43.5	19.9	0.00e+00	0	43	0	154140672	56	4097
2026-01-23 23:21:04.60	29.51	5.83	-42.9	-43.9	19.6	0.00e+00	0	43	0	159383552	56	4265
2026-01-23 23:21:05.61	29.64	5.87	-42.8	-43.8	19.7	0.00e+00	0	43	0	164626432	56	4239
2026-01-23 23:21:06.61	29.77	5.92	-42.7	-43.7	19.8	0.00e+00	0	43	0	170917888	56	4163
2026-01-23 23:21:07.62	29.90	5.96	-42.6	-43.6	19.9	0.00e+00	0	43	0	176160768	56	4104
2026-01-23 23:21:08.63	30.03	6.00	-42.3	-43.3	20.3	0.00e+00	0	43	0	181403648	56	3968
2026-01-23 23:21:09.64	30.16	6.04	-42.3	-43.2	20.2	0.00e+00	0	43	0	187695104	56	3957
2026-01-23 23:21:10.65	30.29	6.08	-42.2	-43.1	20.4	0.00e+00	0	43	0	192937984	56	3896
2026-01-23 23:21:11.65	30.42	6.12	-42.3	-43.2	20.3	0.00e+00	0	43	0	199229440	56	3951
2026-01-23 23:21:12.66	30.56	6.16	-42.3	-43.3	20.3	0.00e+00	0	43	0	204472320	56	3982
2026-01-23 23:21:13.67	30.69	6.20	-42.2	-43.1	20.4	0.00e+00	0	43	0	210763776	56	3913
2026-01-23 23:21:14.68	30.82	6.25	-42.4	-43.3	20.3	0.00e+00	0	43	0	216006656	56	4000
2026-01-23 23:21:15.69	30.96	6.29	-42.3	-43.3	20.3	0.00e+00	0	43	0	221249536	56	3959
2026-01-23 23:21:16.69	31.09	6.33	-42.4	-43.4	20.1	0.00e+00	0	43	0	227540992	56	4022
2026-01-23 23:21:17.70	31.22	6.37	-42.4	-43.4	20.2	0.00e+00	0	43	0	232783872	56	4032
2026-01-23 23:21:18.71	31.36	6.41	-42.3	-43.3	20.3	0.00e+00	0	43	0	239075328	56	3988
2026-01-23 23:21:19.71	31.49	6.45	-42.4	-43.4	20.2	0.00e+00	0	43	0	244318208	56	4035
2026-01-23 23:21:20.72	31.63	6.49	-42.6	-43.6	20.1	0.00e+00	0	43	0	249561088	56	4111
2026-01-23 23:21:21.73	31.76	6.53	-42.5	-43.5	20.1	0.00e+00	0	43	0	255852544	56	4057
2026-01-23 23:21:22.74	31.90	6.57	-42.4	-43.3	20.2	0.00e+00	0	43	0	261095424	56	3991
2026-01-23 23:21:23.75	32.03	6.61	-42.1	-43.1	20.5	0.00e+00	0	43	0	267386880	56	3879
2026-01-23 23:21:24.76	32.17	6.65	-42.0	-43.0	20.7	0.00e+00	0	43	0	272629760	55	4052
2026-01-23 23:21:25.77	32.31	6.69	-42.2	-43.1	20.4	0.00e+00	0	43	0	278921216	55	4143
2026-01-23 23:21:26.78	32.44	6.73	-42.3	-43.3	20.3	0.00e+00	0	43	0	284164096	55	4203
2026-01-23 23:21:27.79	32.58	6.77	-42.3	-43.3	20.2	0.00e+00	0	43	0	289406976	55	4211
2026-01-23 23:21:28.79	32.72	6.81	-42.2	-43.2	20.4	0.00e+00	0	44	0	295698432	55	4168
2026-01-23 23:21:29.80	32.86	6.85	-42.2	-43.2	20.5	0.00e+00	0	43	0	300941312	55	4151
2026-01-23 23:21:30.81	33.00	6.89	-42.2	-43.1	20.5	0.00e+00	0	43	0	306184192	55	4142
2026-01-23 23:21:31.82	33.14	6.93	-42.3	-43.3	20.3	0.00e+00	0	43	0	312475648	55	4209
2026-01-23 23:21:32.83	33.28	6.97	-42.1	-43.1	20.5	0.00e+00	0	43	0	317718528	55	4122
2026-01-23 23:21:33.84	33.42	7.01	-42.1	-43.0	20.6	0.00e+00	0	43	0	324009984	55	4091
2026-01-23 23:21:34.84	33.55	7.05	-42.0	-42.9	20.6	0.00e+00	0	43	0	329252864	55	4049
2026-01-23 23:21:35.85	33.70	7.09	-42.0	-43.0	20.7	0.00e+00	0	43	0	335544320	55	4052
2026-01-23 23:21:36.86	33.84	7.13	-42.0	-42.9	20.7	0.00e+00	0	43	0	340787200	55	4030
2026-01-23 23:21:37.86	33.98	7.17	-41.8	-42.7	20.9	0.00e+00	0	43	0	347078656	55	3943
2026-01-23 23:21:38.87	34.12	7.21	-41.8	-42.7	20.9	0.00e+00	0	43	0	352321536	55	3955
2026-01-23 23:21:39.88	34.26	7.25	-41.7	-42.6	21.0	0.00e+00	0	43	0	357564416	55	3879
2026-01-23 23:21:40.89	34.40	7.29	-41.7	-42.6	21.1	0.00e+00	0	43	0	363855872	55	3875
2026-01-23 23:21:41.90	34.55	7.33	-41.8	-42.7	21.0	0.00e+00	0	44	0	369098752	55	3926
2026-01-23 23:21:42.91	34.69	7.37	-41.8	-42.7	21.0	0.00e+00	0	43	0	374341632	55	3928
2026-01-23 23:21:43.91	34.83	7.40	-41.6	-42.5	21.2	0.00e+00	0	43	0	380633088	55	3837
2026-01-23 23:21:44.92	34.98	7.44	-41.6	-42.5	21.2	0.00e+00	0	43	0	385875968	54	4054
2026-01-23 23:21:45.93	35.12	7.48	-41.8	-42.7	20.9	0.00e+00	0	43	0	391118848	54	4181
2026-01-23 23:21:46.94	35.27	7.52	-41.9	-42.8	20.9	0.00e+00	0	43	0	397410304	54	4237
2026-01-23 23:21:47.95	35.41	7.56	-41.9	-42.9	20.9	0.00e+00	0	44	0	402653184	54	4255
2026-01-23 23:21:48.96	35.56	7.60	-41.8	-42.8	21.0	0.00e+00	0	44	0	408944640	54	4202
2026-01-23 23:21:49.97	35.70	7.64	-41.8	-42.7	20.9	0.00e+00	0	44	0	414187520	54	4186
2026-01-23 23:21:50.98	35.85	7.67	-42.0	-42.9	20.8	0.00e+00	0	44	0	420478976	54	4259
2026-01-23 23:21:51.99	36.00	7.71	-42.1	-43.0	20.7	0.00e+00	0	44	0	425721856	54	4331
2026-01-23 23:21:52.99	36.14	7.75	-42.1	-43.0	20.7	0.00e+00	0	44	0	432013312	54	4310
2026-01-23 23:21:54.00	36.29	7.79	-41.7	-42.6	21.1	0.00e+00	0	43	0	437256192	54	4136
2026-01-23 23:21:55.01	36.44	7.83	-41.8	-42.7	21.0	0.00e+00	0	44	0	442499072	54	4171
2026-01-23 23:21:56.02	36.58	7.86	-41.8	-42.6	21.1	0.00e+00	0	43	0	448790528	54	4144
2026-01-23 23:21:57.03	36.73	7.90	-41.8	-42.7	21.1	0.00e+00	0	44	0	454033408	54	4152
2026-01-23 23:21:58.04	36.88	7.94	-41.6	-42.5	21.3	0.00e+00	0	43	0	459276288	54	4069
2026-01-23 23:21:59.05	37.03	7.98	-41.8	-42.7	21.0	0.00e+00	0	44	0	465567744	54	4174
2026-01-23 23:22:00.05	37.18	8.01	-41.7	-42.6	21.0	0.00e+00	0	44	0	471859200	54	4138
2026-01-23 23:22:01.06	37.33	8.05	-41.8	-42.7	21.0	0.00e+00	0	44	0	477102080	54	4168
2026-01-23 23:22:02.07	37.48	8.09	-41.8	-42.7	21.1	0.00e+00	0	44	0	482344960	54	4154
2026-01-23 23:22:03.08	37.63	8.12	-41.8	-42.7	21.1	0.00e+00	0	44	0	488636416	54	4168
2026-01-23 23:22:04.09	37.78	8.16	-41.8	-42.7	21.1	0.00e+00	0	44	0	493879296	54	4172
2026-01-23 23:22:05.09	37.93	8.20	-41.7	-42.6	21.2	0.00e+00	0	44	0	499122176	54	4121
2026-01-23 23:22:06.10	38.08	8.23	-41.8	-42.7	21.0	0.00e+00	0	44	0	505413632	54	4174
2026-01-23 23:22:07.11	38.24	8.27	-41.8	-42.7	21.0	0.00e+00	0	44	0	510656512	54	4189
2026-01-23 23:22:08.12	38.39	8.31	-41.7	-42.7	21.1	0.00e+00	0	44	0	516947968	54	4149
2026-01-23 23:22:09.13	38.54	8.34	-41.9	-42.8	20.9	0.00e+00	0	43	0	522190848	54	4239
2026-01-23 23:22:10.14	38.69	8.38	-41.8	-42.7	21.1	0.00e+00	0	44	0	527433728	54	4166
2026-01-23 23:22:11.15	38.85	8.42	-41.6	-42.5	21.3	0.00e+00	0	43	0	533725184	54	4085
2026-01-23 23:22:12.16	39.00	8.45	-41.6	-42.5	21.2	0.00e+00	0	44	0	540016640	54	4081
2026-01-23 23:22:13.17	39.16	8.49	-41.6	-42.5	21.2	0.00e+00	0	44	0	545259520	54	4063
2026-01-23 23:22:14.18	39.31	8.52	-41.7	-42.6	21.2	0.00e+00	0	44	0	550502400	54	4116
2026-01-23 23:22:15.19	39.47	8.56	-41.7	-42.6	21.1	0.00e+00	0	44	0	556793856	54	4144
2026-01-23 23:22:16.20	39.62	8.59	-41.8	-42.7	21.1	0.00e+00	0	44	0	562036736	54	4159
2026-01-23 23:22:17.21	39.78	8.63	-41.8	-42.7	21.1	0.00e+00	0	44	0	567279616	54	4175
2026-01-23 23:22:18.21	39.93	8.66	-41.6	-42.6	21.3	0.00e+00	0	44	0	573571072	54	4109
2026-01-23 23:22:19.22	40.09	8.70	-41.6	-42.5	21.3	0.00e+00	0	43	0	578813952	54	4081
2026-01-23 23:22:20.23	40.25	8.73	-41.7	-42.6	21.1	0.00e+00	0	44	0	584056832	54	4139
2026-01-23 23:22:21.24	40.40	8.77	-41.7	-42.6	21.2	0.00e+00	0	44	0	590348288	54	4102
2026-01-23 23:22:22.25	40.56	8.80	-41.6	-42.4	21.4	0.00e+00	0	44	0	595591168	54	4050
2026-01-23 23:22:23.26	40.72	8.84	-41.5	-42.4	21.4	0.00e+00	0	44	0	601882624	54	4008
2026-01-23 23:22:24.26	40.88	8.87	-41.3	-42.2	21.6	0.00e+00	0	44	0	607125504	54	3934
2026-01-23 23:22:25.28	41.04	8.91	-41.2	-42.1	21.8	0.00e+00	0	44	0	613416960	54	3873
2026-01-23 23:22:26.28	41.19	8.94	-41.1	-42.0	21.7	0.00e+00	0	44	0	618659840	54	3849
2026-01-23 23:22:27.29	41.35	8.97	-41.1	-42.0	21.8	0.00e+00	0	44	0	624951296	54	3849
2026-01-23 23:22:28.30	41.51	9.01	-41.2	-42.1	21.7	0.00e+00	0	44	0	630194176	54	3884
2026-01-23 23:22:29.31	41.67	9.04	-41.3	-42.1	21.6	0.00e+00	0	44	0	635437056	54	3911
2026-01-23 23:22:30.32	41.83	9.07	-41.3	-42.2	21.6	0.00e+00	0	44	0	641728512	54	3915
2026-01-23 23:22:31.33	42.00	9.11	-41.4	-42.3	21.5	0.00e+00	0	44	0	646971392	54	3977
2026-01-23 23:22:32.33	42.16	9.14	-41.5	-42.4	21.5	0.00e+00	0	44	0	652214272	54	4006
2026-01-23 23:22:33.34	42.32	9.17	-41.5	-42.4	21.4	0.00e+00	0	44	0	658505728	54	4040
2026-01-23 23:22:34.35	42.48	9.21	-41.6	-42.5	21.4	0.00e+00	0	44	0	663748608	54	4058
2026-01-23 23:22:35.36	42.64	9.24	-41.4	-42.3	21.6	0.00e+00	0	44	0	670040064	54	3978
2026-01-23 23:22:36.37	42.80	9.27	-41.3	-42.2	21.6	0.00e+00	0	44	0	675282944	54	3936
2026-01-23 23:22:37.38	42.97	9.30	-41.4	-42.3	21.5	0.00e+00	0	44	0	681574400	54	3959
2026-01-23 23:22:38.39	43.13	9.34	-41.1	-42.0	21.8	0.00e+00	0	44	0	686817280	54	3849
2026-01-23 23:22:39.40	43.29	9.37	-41.3	-42.1	21.7	0.00e+00	0	44	0	692060160	54	3889
2026-01-23 23:22:40.41	43.46	9.40	-41.3	-42.2	21.7	0.00e+00	0	44	0	698351616	54	3919
2026-01-23 23:22:41.42	43.62	9.43	-41.1	-42.0	21.8	0.00e+00	0	44	0	703594496	54	3844
2026-01-23 23:22:42.43	43.79	9.46	-41.3	-42.2	21.6	0.00e+00	0	44	0	709885952	54	3929
2026-01-23 23:22:43.43	43.95	9.49	-41.3	-42.2	21.6	0.00e+00	0	44	0	715128832	54	3938
2026-01-23 23:22:44.44	44.12	9.53	-41.3	-42.1	21.7	0.00e+00	0	44	0	720371712	54	3909
2026-01-23 23:22:45.45	44.28	9.56	-41.3	-42.2	21.6	0.00e+00	0	44	0	726663168	54	3940
2026-01-23 23:22:46.46	44.45	9.59	-41.2	-42.1	21.7	0.00e+00	0	44	0	732954624	54	3894
2026-01-23 23:22:47.47	44.62	9.62	-41.3	-42.2	21.7	0.00e+00	0	44	0	738197504	54	3918
2026-01-23 23:22:48.48	44.78	9.65	-41.5	-42.4	21.4	0.00e+00	0	44	0	743440384	54	4024
2026-01-23 23:22:49.49	44.95	9.68	-41.4	-42.3	21.5	0.00e+00	0	44	0	749731840	54	3998
2026-01-23 23:22:50.50	45.12	9.71	-41.4	-42.3	21.6	0.00e+00	0	44	0	754974720	54	3966
2026-01-23 23:22:51.51	45.28	9.74	-41.4	-42.3	21.6	0.00e+00	0	44	0	760217600	54	3978
2026-01-23 23:22:52.52	45.45	9.77	-41.4	-42.3	21.6	0.00e+00	0	44	0	766509056	54	3977
2026-01-23 23:22:53.53	45.62	9.80	-41.2	-42.1	21.7	0.00e+00	0	44	0	771751936	54	3890
2026-01-23 23:22:54.54	45.79	9.83	-41.1	-42.0	21.9	0.00e+00	0	44	0	776994816	54	3840
2026-01-23 23:22:55.55	45.96	9.86	-41.2	-42.1	21.7	0.00e+00	0	44	0	783286272	54	3891
2026-01-23 23:22:56.56	46.13	9.89	-41.3	-42.2	21.7	0.00e+00	0	44	0	789577728	54	3920
2026-01-23 23:22:57.56	46.30	9.92	-41.4	-42.3	21.6	0.00e+00	0	44	0	794820608	54	3981
2026-01-23 23:22:58.57	46.47	9.94	-41.3	-42.2	21.7	0.00e+00	0	44	0	800063488	54	3930
2026-01-23 23:22:59.58	46.64	9.97	-41.3	-42.2	21.7	0.00e+00	0	44	0	806354944	54	3920
2026-01-23 23:23:00.59	46.81	10.00	-41.3	-42.2	21.7	0.00e+00	0	44	0	811597824	54	3915
2026-01-23 23:23:01.60	46.98	10.03	-41.3	-42.1	21.7	0.00e+00	0	44	0	817889280	54	3912
2026-01-23 23:23:02.61	47.15	10.06	-41.3	-42.2	21.7	0.00e+00	0	44	0	823132160	54	3919
2026-01-23 23:23:03.61	47.32	10.09	-41.2	-42.1	21.7	0.00e+00	0	44	0	828375040	54	3901
2026-01-23 23:23:04.62	47.49	10.11	-41.1	-42.0	21.9	0.00e+00	0	44	0	834666496	54	3829
2026-01-23 23:23:05.63	47.67	10.14	-41.1	-41.9	22.0	0.00e+00	0	44	0	839909376	54	3804
2026-01-23 23:23:06.63	47.84	10.17	-41.1	-41.9	22.0	0.00e+00	0	44	0	845152256	54	3813
2026-01-23 23:23:07.64	48.01	10.19	-41.2	-42.0	21.8	0.00e+00	0	44	0	851443712	54	3867
2026-01-23 23:23:08.65	48.18	10.22	-41.2	-42.0	21.8	0.00e+00	0	44	0	857735168	54	3865
2026-01-23 23:23:09.66	48.36	10.25	-41.4	-42.2	21.7	0.00e+00	0	44	0	862978048	54	3948
2026-01-23 23:23:10.67	48.53	10.27	-41.4	-42.3	21.6	0.00e+00	0	44	0	868220928	54	3998
2026-01-23 23:23:11.67	48.70	10.30	-41.6	-42.5	21.4	0.00e+00	0	44	0	874512384	54	4076
2026-01-23 23:23:12.68	48.88	10.33	-41.4	-42.3	21.6	0.00e+00	0	44	0	879755264	54	3990
2026-01-23 23:23:13.69	49.05	10.35	-41.4	-42.3	21.6	0.00e+00	0	44	0	884998144	54	3983
2026-01-23 23:23:14.70	49.23	10.38	-41.5	-42.4	21.5	0.00e+00	0	44	0	891289600	54	4038
2026-01-23 23:23:15.71	49.40	10.40	-41.3	-42.2	21.7	0.00e+00	0	44	0	896532480	54	3938
2026-01-23 23:23:16.71	49.58	10.43	-41.2	-42.1	21.8	0.00e+00	0	44	0	902823936	54	3896
2026-01-23 23:23:17.72	49.75	10.45	-41.2	-42.0	21.9	0.00e+00	0	44	0	908066816	54	3864
2026-01-23 23:23:18.73	49.93	10.48	-41.2	-42.0	21.9	0.00e+00	0	44	0	913309696	54	3865
2026-01-23 23:23:19.74	50.11	10.50	-41.1	-42.0	21.9	0.00e+00	0	44	0	919601152	54	3834
2026-01-23 23:23:20.74	50.28	10.53	-41.1	-42.0	21.9	0.00e+00	0	44	0	924844032	54	3837
2026-01-23 23:23:21.75	50.46	10.55	-40.9	-41.8	22.1	0.00e+00	0	44	0	931135488	53	3966
2026-01-23 23:23:22.76	50.64	10.58	-40.9	-41.8	22.1	0.00e+00	0	44	0	936378368	53	3961
2026-01-23 23:23:23.77	50.82	10.60	-40.9	-41.7	22.1	0.00e+00	0	44	0	942669824	53	3951
2026-01-23 23:23:24.77	50.99	10.62	-40.9	-41.7	22.2	0.00e+00	0	44	0	947912704	53	3924
2026-01-23 23:23:25.78	51.17	10.65	-40.7	-41.6	22.3	0.00e+00	0	44	0	953155584	53	3873
2026-01-23 23:23:26.79	51.35	10.67	-40.8	-41.6	22.2	0.00e+00	0	44	0	959447040	53	3906
2026-01-23 23:23:27.80	51.53	10.69	-40.7	-41.5	22.3	0.00e+00	0	44	0	964689920	53	3862
2026-01-23 23:23:28.81	51.71	10.71	-40.7	-41.6	22.3	0.00e+00	0	44	0	969932800	53	3870
2026-01-23 23:23:29.82	51.89	10.74	-40.7	-41.6	22.2	0.00e+00	0	44	0	976224256	53	3870
2026-01-23 23:23:30.83	52.07	10.76	-40.7	-41.5	22.3	0.00e+00	0	44	0	981467136	53	3859
2026-01-23 23:23:31.83	52.24	10.78	-40.9	-41.7	22.1	0.00e+00	0	44	0	987758592	53	3945
2026-01-23 23:23:32.84	52.42	10.80	-40.7	-41.6	22.3	0.00e+00	0	44	0	993001472	53	3869
2026-01-23 23:23:33.85	52.61	10.82	-40.6	-41.4	22.4	0.00e+00	0	44	0	999292928	53	3821
2026-01-23 23:23:34.86	52.79	10.85	-40.6	-41.4	22.5	0.00e+00	0	44	0	1004535808	53	3802
2026-01-23 23:23:35.87	52.97	10.87	-40.6	-41.4	22.5	0.00e+00	0	44	0	1010827264	53	3783
2026-01-23 23:23:36.87	53.15	10.89	-40.6	-41.4	22.5	0.00e+00	0	44	0	1016070144	53	3789
2026-01-23 23:23:37.88	53.33	10.91	-40.6	-41.4	22.4	0.00e+00	0	44	0	1021313024	53	3821
2026-01-23 23:23:38.89	53.51	10.93	-40.6	-41.4	22.5	0.00e+00	0	44	0	1027604480	53	3793
2026-01-23 23:23:39.90	53.69	10.95	-40.5	-41.3	22.6	0.00e+00	0	44	0	1032847360	52	3969
2026-01-23 23:23:40.91	53.87	10.97	-40.6	-41.4	22.5	0.00e+00	0	44	0	1038090240	52	4025
2026-01-23 23:23:41.92	54.06	10.99	-40.7	-41.5	22.4	0.00e+00	0	44	0	1044381696	52	4052
2026-01-23 23:23:42.93	54.24	11.01	-40.7	-41.5	22.4	0.00e+00	0	44	0	1049624576	52	4056
2026-01-23 23:23:43.93	54.42	11.03	-40.8	-41.6	22.3	0.00e+00	0	44	0	1054867456	52	4126
2026-01-23 23:23:44.94	54.60	11.04	-40.8	-41.7	22.2	0.00e+00	0	44	0	1061158912	52	4149
2026-01-23 23:23:45.95	54.79	11.06	-40.9	-41.7	22.2	0.00e+00	0	44	0	1067450368	52	4178
2026-01-23 23:23:46.96	54.97	11.08	-40.9	-41.7	22.2	0.00e+00	0	44	0	1072693248	52	4172
2026-01-23 23:23:47.96	55.15	11.10	-40.9	-41.7	22.2	0.00e+00	0	44	0	1077936128	52	4165
2026-01-23 23:23:48.97	55.34	11.12	-40.8	-41.7	22.2	0.00e+00	0	44	0	1084227584	52	4147
2026-01-23 23:23:49.98	55.52	11.13	-40.7	-41.5	22.3	0.00e+00	0	44	0	1089470464	52	4095
2026-01-23 23:23:50.99	55.71	11.15	-40.8	-41.6	22.2	0.00e+00	0	44	0	1095761920	52	4142
2026-01-23 23:23:52.00	55.89	11.17	-40.8	-41.6	22.3	0.00e+00	0	44	0	1101004800	52	4111
2026-01-23 23:23:53.01	56.08	11.19	-40.7	-41.5	22.4	0.00e+00	0	44	0	1106247680	52	4089
2026-01-23 23:23:54.01	56.26	11.20	-40.7	-41.5	22.3	0.00e+00	0	44	0	1112539136	52	4091
2026-01-23 23:23:55.02	56.44	11.22	-40.7	-41.5	22.3	0.00e+00	0	44	0	1117782016	52	4094
2026-01-23 23:23:56.03	56.63	11.24	-40.6	-41.5	22.4	0.00e+00	0	44	0	1123024896	52	4054
2026-01-23 23:23:57.04	56.82	11.25	-40.7	-41.5	22.4	0.00e+00	0	44	0	1129316352	52	4072
2026-01-23 23:23:58.05	57.00	11.27	-40.7	-41.5	22.4	0.00e+00	0	44	0	1134559232	52	4081
2026-01-23 23:23:59.05	57.19	11.28	-40.7	-41.5	22.4	0.00e+00	0	44	0	1140850688	52	4088
2026-01-23 23:24:00.06	57.37	11.30	-40.8	-41.6	22.3	0.00e+00	0	44	0	1146093568	52	4145
2026-01-23 23:24:01.07	57.56	11.31	-40.8	-41.7	22.2	0.00e+00	0	44	0	1152385024	52	4150
2026-01-23 23:24:02.08	57.75	11.33	-40.7	-41.6	22.3	0.00e+00	0	44	0	1157627904	52	4104
2026-01-23 23:24:03.09	57.93	11.34	-40.9	-41.7	22.2	0.00e+00	0	44	0	1162870784	52	4173
2026-01-23 23:24:04.09	58.12	11.36	-41.0	-41.8	22.1	0.00e+00	0	44	0	1169162240	52	4225
2026-01-23 23:24:05.10	58.31	11.37	-40.9	-41.7	22.2	0.00e+00	0	44	0	1174405120	52	4184
2026-01-23 23:24:06.11	58.49	11.38	-40.9	-41.8	22.1	0.00e+00	0	44	0	1180696576	52	4211
2026-01-23 23:24:07.12	58.68	11.40	-41.0	-41.8	22.1	0.00e+00	0	44	0	1185939456	52	4216
2026-01-23 23:24:08.13	58.87	11.41	-40.8	-41.7	22.3	0.00e+00	0	44	0	1191182336	52	4147
2026-01-23 23:24:09.13	59.05	11.42	-40.9	-41.8	22.1	0.00e+00	0	44	0	1197473792	52	4205
2026-01-23 23:24:10.15	59.24	11.43	-40.9	-41.8	22.1	0.00e+00	0	44	0	1202716672	52	4197
2026-01-23 23:24:11.16	59.43	11.45	-40.8	-41.7	22.3	0.00e+00	0	44	0	1209008128	52	4153
2026-01-23 23:24:12.16	59.62	11.46	-40.8	-41.6	22.3	0.00e+00	0	44	0	1214251008	52	4137
2026-01-23 23:24:13.17	59.81	11.47	-40.8	-41.7	22.2	0.00e+00	0	44	0	1220542464	52	4148
2026-01-23 23:24:14.18	60.00	11.48	-40.7	-41.5	22.4	0.00e+00	0	44	0	1225785344	52	4071
2026-01-23 23:24:15.19	60.19	11.49	-40.7	-41.6	22.3	0.00e+00	0	44	0	1231028224	52	4100
2026-01-23 23:24:16.20	60.37	11.50	-40.6	-41.4	22.4	0.00e+00	0	44	0	1237319680	52	4050
2026-01-23 23:24:17.21	60.56	11.51	-40.6	-41.4	22.5	0.00e+00	0	44	0	1242562560	52	4019
2026-01-23 23:24:18.22	60.75	11.52	-40.6	-41.4	22.4	0.00e+00	0	44	0	1247805440	52	4050
2026-01-23 23:24:19.23	60.94	11.53	-40.6	-41.4	22.5	0.00e+00	0	44	0	1254096896	52	4032
2026-01-23 23:24:20.23	61.13	11.54	-40.6	-41.4	22.5	0.00e+00	0	44	0	1259339776	52	4039
2026-01-23 23:24:21.24	61.32	11.55	-40.7	-41.5	22.4	0.00e+00	0	44	0	1265631232	52	4082
2026-01-23 23:24:22.25	61.51	11.56	-40.7	-41.5	22.4	0.00e+00	0	44	0	1270874112	52	4097
2026-01-23 23:24:23.26	61.70	11.57	-40.9	-41.7	22.2	0.00e+00	0	44	0	1277165568	52	4166
2026-01-23 23:24:24.26	61.89	11.58	-40.8	-41.6	22.3	0.00e+00	0	44	0	1282408448	52	4116
2026-01-23 23:24:25.27	62.08	11.59	-40.7	-41.6	22.4	0.00e+00	0	44	0	1288699904	52	4102
2026-01-23 23:24:26.28	62.27	11.60	-40.8	-41.6	22.4	0.00e+00	0	44	0	1293942784	52	4113
2026-01-23 23:24:27.29	62.46	11.60	-40.8	-41.7	22.2	0.00e+00	0	44	0	1299185664	52	4147
2026-01-23 23:24:28.30	62.65	11.61	-40.8	-41.6	22.3	0.00e+00	0	44	0	1305477120	52	4138
2026-01-23 23:24:29.31	62.84	11.62	-40.8	-41.6	22.3	0.00e+00	0	44	0	1310720000	52	4132
2026-01-23 23:24:30.31	63.03	11.63	-40.9	-41.7	22.2	0.00e+00	0	44	0	1315962880	52	4175
2026-01-23 23:24:31.32	63.22	11.63	-40.8	-41.6	22.3	0.00e+00	0	44	0	1322254336	52	4117
2026-01-23 23:24:32.33	63.41	11.64	-40.6	-41.4	22.4	0.00e+00	0	44	0	1327497216	52	4038
2026-01-23 23:24:33.34	63.60	11.65	-40.5	-41.3	22.6	0.00e+00	0	44	0	1332740096	52	3994
2026-01-23 23:24:34.35	63.79	11.65	-40.7	-41.5	22.4	0.00e+00	0	44	0	1339031552	52	4059
2026-01-23 23:24:35.36	63.98	11.66	-40.5	-41.3	22.5	0.00e+00	0	44	0	1345323008	52	3995
2026-01-23 23:24:36.36	64.17	11.66	-40.6	-41.4	22.4	0.00e+00	0	44	0	1350565888	52	4036
2026-01-23 23:24:37.37	64.36	11.67	-40.6	-41.4	22.5	0.00e+00	0	44	0	1355808768	52	4037
2026-01-23 23:24:38.38	64.55	11.67	-40.7	-41.5	22.4	0.00e+00	0	44	0	1362100224	52	4089
2026-01-23 23:24:39.39	64.75	11.68	-40.7	-41.5	22.4	0.00e+00	0	44	0	1367343104	52	4091
2026-01-23 23:24:40.40	64.94	11.68	-40.7	-41.5	22.4	0.00e+00	0	44	0	1373634560	52	4071
2026-01-23 23:24:41.40	65.13	11.68	-40.7	-41.5	22.3	0.00e+00	0	44	0	1378877440	52	4090
2026-01-23 23:24:42.41	65.32	11.69	-40.7	-41.5	22.4	0.00e+00	0	44	0	1384120320	52	4081
2026-01-23 23:24:43.42	65.51	11.69	-40.7	-41.5	22.4	0.00e+00	0	44	0	1390411776	52	4092
2026-01-23 23:24:44.43	65.70	11.69	-40.7	-41.5	22.4	0.00e+00	0	44	0	1395654656	52	4078
2026-01-23 23:24:45.44	65.89	11.70	-40.6	-41.5	22.4	0.00e+00	0	44	0	1400897536	52	4060
2026-01-23 23:24:46.45	66.08	11.70	-40.6	-41.5	22.4	0.00e+00	0	44	0	1407188992	52	4053
2026-01-23 23:24:47.46	66.28	11.70	-40.8	-41.6	22.3	0.00e+00	0	44	0	1413480448	52	4135
2026-01-23 23:24:48.46	66.47	11.70	-40.9	-41.7	22.2	0.00e+00	0	44	0	1418723328	52	4174
2026-01-23 23:24:49.47	66.66	11.71	-40.7	-41.5	22.3	0.00e+00	0	44	0	1423966208	52	4091
2026-01-23 23:24:50.48	66.85	11.71	-40.8	-41.6	22.3	0.00e+00	0	44	0	1430257664	52	4122
2026-01-23 23:24:51.49	67.04	11.71	-40.8	-41.7	22.2	0.00e+00	0	44	0	1435500544	52	4148
2026-01-23 23:24:52.50	67.23	11.71	-40.8	-41.6	22.2	0.00e+00	0	44	0	1440743424	52	4134
2026-01-23 23:24:53.51	67.42	11.71	-40.8	-41.6	22.3	0.00e+00	0	44	0	1447034880	52	4130
2026-01-23 23:24:54.52	67.62	11.71	-40.8	-41.6	22.3	0.00e+00	0	44	0	1452277760	52	4137
2026-01-23 23:24:55.52	67.81	11.71	-40.8	-41.7	22.2	0.00e+00	0	44	0	1458569216	52	4164
2026-01-23 23:24:56.53	68.00	11.71	-40.8	-41.6	22.2	0.00e+00	0	44	0	1463812096	52	4145
2026-01-23 23:24:57.54	68.19	11.71	-40.7	-41.5	22.4	0.00e+00	0	44	0	1469054976	52	4061
2026-01-23 23:24:58.55	68.38	11.71	-40.7	-41.5	22.3	0.00e+00	0	44	0	1475346432	52	4089
2026-01-23 23:24:59.56	68.57	11.71	-40.6	-41.5	22.4	0.00e+00	0	44	0	1481637888	52	4060
2026-01-23 23:25:00.57	68.76	11.70	-40.6	-41.5	22.4	0.00e+00	0	44	0	1486880768	52	4054
2026-01-23 23:25:01.58	68.96	11.70	-40.8	-41.6	22.3	0.00e+00	0	44	0	1492123648	52	4125
2026-01-23 23:25:02.58	69.15	11.70	-40.7	-41.5	22.3	0.00e+00	0	44	0	1498415104	52	4092
2026-01-23 23:25:03.59	69.34	11.70	-40.9	-41.7	22.2	0.00e+00	0	44	0	1503657984	52	4188
2026-01-23 23:25:04.60	69.53	11.70	-40.8	-41.6	22.3	0.00e+00	0	44	0	1508900864	52	4120
2026-01-23 23:25:05.61	69.72	11.69	-40.8	-41.6	22.2	0.00e+00	0	44	0	1515192320	52	4139
2026-01-23 23:25:06.62	69.91	11.69	-40.8	-41.6	22.2	0.00e+00	0	44	0	1520435200	52	4137
2026-01-23 23:25:07.63	70.10	11.69	-40.7	-41.5	22.4	0.00e+00	0	44	0	1525678080	52	4076
2026-01-23 23:25:08.64	70.30	11.68	-40.7	-41.5	22.3	0.00e+00	0	44	0	1531969536	52	4069
2026-01-23 23:25:09.65	70.49	11.68	-40.8	-41.6	22.3	0.00e+00	0	44	0	1537212416	52	4111
2026-01-23 23:25:10.65	70.68	11.67	-40.8	-41.6	22.2	0.00e+00	0	44	0	1543503872	52	4118
2026-01-23 23:25:11.66	70.87	11.67	-40.8	-41.7	22.2	0.00e+00	0	44	0	1548746752	52	4155
2026-01-23 23:25:12.67	71.06	11.66	-40.9	-41.8	22.1	0.00e+00	0	44	0	1555038208	52	4197
2026-01-23 23:25:13.68	71.25	11.66	-41.1	-41.9	21.9	0.00e+00	0	44	0	1560281088	52	4288
2026-01-23 23:25:14.69	71.44	11.65	-41.0	-41.8	22.0	0.00e+00	0	44	0	1566572544	52	4230
2026-01-23 23:25:15.70	71.63	11.65	-40.9	-41.7	22.1	0.00e+00	0	44	0	1571815424	52	4175
2026-01-23 23:25:16.71	71.82	11.64	-40.9	-41.8	22.0	0.00e+00	0	44	0	1577058304	52	4209
2026-01-23 23:25:17.72	72.01	11.64	-41.0	-41.8	22.1	0.00e+00	0	44	0	1583349760	52	4240
2026-01-23 23:25:18.73	72.21	11.63	-41.0	-41.9	22.0	0.00e+00	0	44	0	1588592640	52	4257
2026-01-23 23:25:19.73	72.39	11.62	-40.9	-41.7	22.1	0.00e+00	0	44	0	1593835520	52	4191
2026-01-23 23:25:20.74	72.58	11.61	-40.9	-41.8	22.1	0.00e+00	0	44	0	1600126976	52	4196
2026-01-23 23:25:21.75	72.78	11.61	-40.8	-41.7	22.2	0.00e+00	0	44	0	1606418432	52	4158
2026-01-23 23:25:22.76	72.97	11.60	-40.9	-41.7	22.2	0.00e+00	0	44	0	1611661312	52	4186
2026-01-23 23:25:23.77	73.16	11.59	-40.8	-41.6	22.2	0.00e+00	0	44	0	1616904192	52	4143
2026-01-23 23:25:24.77	73.34	11.58	-40.8	-41.7	22.2	0.00e+00	0	44	0	1623195648	52	4164
2026-01-23 23:25:25.78	73.54	11.57	-40.9	-41.7	22.1	0.00e+00	0	44	0	1628438528	52	4180
2026-01-23 23:25:26.79	73.73	11.57	-40.9	-41.7	22.2	0.00e+00	0	44	0	1633681408	52	4177
2026-01-23 23:25:27.80	73.92	11.56	-40.7	-41.6	22.3	0.00e+00	0	44	0	1639972864	52	4100
2026-01-23 23:25:28.81	74.11	11.55	-40.6	-41.4	22.4	0.00e+00	0	44	0	1645215744	52	4016
2026-01-23 23:25:29.82	74.29	11.54	-40.6	-41.5	22.4	0.00e+00	0	44	0	1651507200	52	4053
2026-01-23 23:25:30.83	74.48	11.53	-40.6	-41.4	22.4	0.00e+00	0	44	0	1656750080	52	4049
2026-01-23 23:25:31.84	74.67	11.52	-40.7	-41.5	22.4	0.00e+00	0	44	0	1661992960	52	4054
2026-01-23 23:25:32.84	74.86	11.51	-40.6	-41.4	22.4	0.00e+00	0	44	0	1668284416	52	4032
2026-01-23 23:25:33.85	75.05	11.50	-40.7	-41.5	22.3	0.00e+00	0	44	0	1674575872	52	4079
2026-01-23 23:25:34.86	75.24	11.49	-40.8	-41.7	22.2	0.00e+00	0	44	0	1679818752	52	4149
2026-01-23 23:25:35.87	75.43	11.47	-41.0	-41.8	22.0	0.00e+00	0	44	0	1685061632	52	4225
2026-01-23 23:25:36.88	75.62	11.46	-40.9	-41.7	22.1	0.00e+00	0	44	0	1691353088	52	4192
2026-01-23 23:25:37.89	75.81	11.45	-40.9	-41.7	22.1	0.00e+00	0	44	0	1696595968	52	4193
2026-01-23 23:25:38.90	76.00	11.44	-40.8	-41.6	22.2	0.00e+00	0	44	0	1701838848	52	4136
2026-01-23 23:25:39.91	76.18	11.43	-40.8	-41.6	22.2	0.00e+00	0	44	0	1708130304	52	4121
2026-01-23 23:25:40.92	76.37	11.41	-40.7	-41.6	22.2	0.00e+00	0	44	0	1713373184	52	4099
2026-01-23 23:25:41.92	76.56	11.40	-40.6	-41.4	22.4	0.00e+00	0	44	0	1718616064	52	4030
2026-01-23 23:25:42.93	76.75	11.39	-40.7	-41.5	22.3	0.00e+00	0	44	0	1724907520	52	4066
2026-01-23 23:25:43.94	76.93	11.37	-40.7	-41.5	22.3	0.00e+00	0	44	0	1730150400	52	4093
2026-01-23 23:25:44.95	77.12	11.36	-40.7	-41.6	22.3	0.00e+00	0	44	0	1736441856	52	4103
2026-01-23 23:25:45.96	77.31	11.35	-40.7	-41.6	22.2	0.00e+00	0	44	0	1741684736	52	4108
2026-01-23 23:25:46.97	77.50	11.33	-40.9	-41.7	22.1	0.00e+00	0	44	0	1747976192	52	4183
2026-01-23 23:25:47.98	77.68	11.32	-40.9	-41.7	22.1	0.00e+00	0	44	0	1753219072	52	4175
2026-01-23 23:25:48.99	77.87	11.30	-41.0	-41.8	22.0	0.00e+00	0	44	0	1759510528	52	4219
2026-01-23 23:25:49.99	78.06	11.29	-41.0	-41.9	22.0	0.00e+00	0	44	0	1764753408	52	4255
2026-01-23 23:25:51.00	78.24	11.27	-40.9	-41.7	22.1	0.00e+00	0	44	0	1769996288	52	4172
2026-01-23 23:25:52.01	78.43	11.26	-40.9	-41.7	22.1	0.00e+00	0	44	0	1776287744	52	4171
2026-01-23 23:25:53.02	78.61	11.24	-40.9	-41.8	22.0	0.00e+00	0	44	0	1781530624	52	4219
2026-01-23 23:25:54.03	78.80	11.22	-40.7	-41.6	22.0	0.00e+00	0	44	0	1786773504	52	4124
2026-01-23 23:25:55.04	78.99	11.21	-41.0	-41.9	21.8	0.00e+00	0	44	0	1793064960	52	4245
2026-01-23 23:25:56.05	79.17	11.19	-40.8	-41.7	21.9	0.00e+00	0	44	0	1798307840	52	4182
2026-01-23 23:25:57.05	79.36	11.17	-41.0	-41.9	21.7	0.00e+00	0	44	0	1804599296	52	4246
2026-01-23 23:25:58.06	79.54	11.16	-41.0	-41.9	21.7	0.00e+00	0	44	0	1809842176	52	4254
2026-01-23 23:25:59.07	79.73	11.14	-41.1	-42.0	21.6	0.00e+00	0	44	0	1816133632	52	4310
2026-01-23 23:26:00.08	79.91	11.12	-41.1	-42.0	21.6	0.00e+00	0	44	0	1821376512	52	4334
2026-01-23 23:26:01.09	80.09	11.10	-41.1	-42.0	21.6	0.00e+00	0	44	0	1826619392	52	4323
2026-01-23 23:26:02.09	80.28	11.09	-41.0	-41.9	21.7	0.00e+00	0	44	0	1832910848	52	4291
2026-01-23 23:26:03.10	80.46	11.07	-40.9	-41.8	21.8	0.00e+00	0	44	0	1838153728	52	4205
2026-01-23 23:26:04.11	80.65	11.05	-41.0	-41.9	21.7	0.00e+00	0	44	0	1844445184	52	4270
2026-01-23 23:26:05.12	80.83	11.03	-41.0	-41.9	21.7	0.00e+00	0	44	0	1849688064	52	4269
2026-01-23 23:26:06.13	81.01	11.01	-41.0	-41.9	21.7	0.00e+00	0	44	0	1854930944	52	4273
2026-01-23 23:26:07.13	81.19	10.99	-40.9	-41.7	21.9	0.00e+00	0	44	0	1861222400	52	4187
2026-01-23 23:26:08.14	81.38	10.97	-40.9	-41.8	21.8	0.00e+00	0	44	0	1866465280	52	4217
2026-01-23 23:26:09.15	81.56	10.95	-41.0	-41.9	21.7	0.00e+00	0	44	0	1871708160	52	4246
2026-01-23 23:26:10.16	81.74	10.93	-40.9	-41.8	21.8	0.00e+00	0	44	0	1877999616	52	4229
2026-01-23 23:26:11.17	81.92	10.91	-40.9	-41.8	21.8	0.00e+00	0	44	0	1884291072	52	4238
2026-01-23 23:26:12.17	82.10	10.89	-40.8	-41.7	21.9	0.00e+00	0	44	0	1889533952	52	4168
2026-01-23 23:26:13.18	82.29	10.87	-40.8	-41.7	21.8	0.00e+00	0	44	0	1894776832	52	4171
2026-01-23 23:26:14.19	82.47	10.85	-40.8	-41.7	21.9	0.00e+00	0	44	0	1901068288	52	4184
2026-01-23 23:26:15.20	82.65	10.83	-41.0	-41.9	21.7	0.00e+00	0	44	0	1906311168	52	4268
2026-01-23 23:26:16.20	82.83	10.81	-40.9	-41.8	21.8	0.00e+00	0	44	0	1911554048	52	4224
2026-01-23 23:26:17.21	83.01	10.79	-41.0	-41.9	21.6	0.00e+00	0	44	0	1917845504	52	4290
2026-01-23 23:26:18.23	83.19	10.76	-41.2	-42.1	21.5	0.00e+00	0	44	0	1923088384	52	4351
2026-01-23 23:26:19.23	83.37	10.74	-41.1	-42.1	21.5	0.00e+00	0	44	0	1929379840	52	4342
2026-01-23 23:26:20.25	83.55	10.72	-41.1	-42.1	21.5	0.00e+00	0	44	0	1934622720	52	4345
2026-01-23 23:26:21.25	83.73	10.70	-41.1	-42.0	21.5	0.00e+00	0	44	0	1940914176	52	4336
2026-01-23 23:26:22.26	83.91	10.67	-41.1	-42.0	21.6	0.00e+00	0	44	0	1946157056	52	4328
2026-01-23 23:26:23.27	84.09	10.65	-41.2	-42.1	21.5	0.00e+00	0	44	0	1952448512	52	4384
2026-01-23 23:26:24.28	84.27	10.63	-41.3	-42.2	21.4	0.00e+00	0	44	0	1957691392	53	4176
2026-01-23 23:26:25.29	84.45	10.60	-41.2	-42.1	21.5	0.00e+00	0	44	0	1962934272	53	4123
2026-01-23 23:26:26.29	84.62	10.58	-41.2	-42.1	21.5	0.00e+00	0	44	0	1969225728	53	4121
2026-01-23 23:26:27.30	84.80	10.56	-41.3	-42.2	21.3	0.00e+00	0	44	0	1974468608	53	4188
2026-01-23 23:26:28.31	84.98	10.53	-41.3	-42.3	21.3	0.00e+00	0	44	0	1979711488	53	4201
2026-01-23 23:26:29.32	85.16	10.51	-41.4	-42.4	21.2	0.00e+00	0	44	0	1986002944	53	4261
2026-01-23 23:26:30.33	85.33	10.48	-41.3	-42.2	21.3	0.00e+00	0	44	0	1991245824	53	4187
2026-01-23 23:26:31.33	85.51	10.46	-41.2	-42.2	21.4	0.00e+00	0	44	0	1996488704	53	4152
2026-01-23 23:26:32.34	85.68	10.43	-41.3	-42.2	21.3	0.00e+00	0	44	0	2002780160	53	4173
2026-01-23 23:26:33.35	85.86	10.41	-41.3	-42.2	21.3	0.00e+00	0	44	0	2009071616	53	4171
2026-01-23 23:26:34.36	86.04	10.38	-41.3	-42.3	21.3	0.00e+00	0	44	0	2014314496	53	4200
2026-01-23 23:26:35.37	86.21	10.36	-41.4	-42.4	21.2	0.00e+00	0	44	0	2019557376	53	4264
2026-01-23 23:26:36.37	86.39	10.33	-41.4	-42.4	21.1	0.00e+00	0	44	0	2025848832	53	4259
2026-01-23 23:26:37.38	86.56	10.31	-41.4	-42.4	21.2	0.00e+00	0	44	0	2031091712	53	4256
2026-01-23 23:26:38.39	86.74	10.28	-41.3	-42.2	21.3	0.00e+00	0	44	0	2037383168	53	4181
2026-01-23 23:26:39.40	86.91	10.25	-41.2	-42.2	21.4	0.00e+00	0	44	0	2042626048	53	4154
2026-01-23 23:26:40.40	87.08	10.23	-41.2	-42.1	21.4	0.00e+00	0	44	0	2047868928	53	4137
2026-01-23 23:26:41.42	87.26	10.20	-41.2	-42.1	21.4	0.00e+00	0	44	0	2054160384	53	4115
2026-01-23 23:26:42.42	87.43	10.17	-41.1	-42.0	21.5	0.00e+00	0	44	0	2059403264	53	4086
2026-01-23 23:26:43.43	87.61	10.15	-41.1	-42.0	21.5	0.00e+00	0	44	0	2064646144	53	4074
2026-01-23 23:26:44.44	87.78	10.12	-41.1	-42.0	21.5	0.00e+00	0	44	0	2070937600	53	4080
2026-01-23 23:26:45.45	87.95	10.09	-41.2	-42.1	21.4	0.00e+00	0	44	0	2077229056	53	4121
2026-01-23 23:26:46.46	88.12	10.06	-41.2	-42.1	21.5	0.00e+00	0	44	0	2082471936	53	4108
2026-01-23 23:26:47.47	88.30	10.03	-41.3	-42.2	21.4	0.00e+00	0	44	0	2087714816	53	4161
2026-01-23 23:26:48.47	88.47	10.01	-41.3	-42.3	21.3	0.00e+00	0	44	0	2094006272	53	4211
2026-01-23 23:26:49.48	88.64	9.98	-41.3	-42.3	21.3	0.00e+00	0	44	0	2099249152	53	4204
2026-01-23 23:26:50.49	88.81	9.95	-41.3	-42.2	21.3	0.00e+00	0	44	0	2104492032	53	4188
2026-01-23 23:26:51.50	88.98	9.92	-41.3	-42.2	21.3	0.00e+00	0	44	0	2110783488	53	4192
2026-01-23 23:26:52.51	89.15	9.89	-41.3	-42.2	21.3	0.00e+00	0	44	0	2116026368	53	4166
2026-01-23 23:26:53.52	89.32	9.86	-41.4	-42.3	21.2	0.00e+00	0	44	0	2122317824	53	4216
2026-01-23 23:26:54.53	89.49	9.83	-41.3	-42.3	21.3	0.00e+00	0	44	0	2127560704	53	4203
2026-01-23 23:26:55.54	89.66	9.80	-41.4	-42.3	21.2	0.00e+00	0	44	0	2132803584	53	4224
2026-01-23 23:26:56.55	89.83	9.77	-41.4	-42.3	21.2	0.00e+00	0	44	0	2139095040	53	4221
2026-01-23 23:26:57.55	90.00	9.74	-41.4	-42.3	21.2	0.00e+00	0	44	0	2145386496	53	4236
2026-01-23 23:26:58.56	90.16	9.71	-41.5	-42.4	21.1	0.00e+00	0	44	0	2150629376	53	4275
2026-01-23 23:26:59.57	90.33	9.68	-41.6	-42.5	21.0	0.00e+00	0	44	0	2155872256	53	4319
2026-01-23 23:27:00.58	90.50	9.65	-41.6	-42.6	20.9	0.00e+00	0	44	0	2162163712	53	4359
2026-01-23 23:27:01.59	90.67	9.62	-41.7	-42.6	20.9	0.00e+00	0	44	0	2167406592	53	4378
2026-01-23 23:27:02.60	90.83	9.59	-41.6	-42.5	20.9	0.00e+00	0	44	0	2172649472	54	4088
2026-01-23 23:27:03.60	91.00	9.56	-41.6	-42.5	21.0	0.00e+00	0	44	0	2178940928	54	4087
2026-01-23 23:27:04.61	91.17	9.53	-41.4	-42.4	21.2	0.00e+00	0	44	0	2184183808	54	4011
2026-01-23 23:27:05.62	91.33	9.50	-41.3	-42.3	21.3	0.00e+00	0	44	0	2189426688	54	3966
2026-01-23 23:27:06.63	91.50	9.47	-41.3	-42.3	21.2	0.00e+00	0	44	0	2195718144	54	3967
2026-01-23 23:27:07.64	91.66	9.43	-41.4	-42.3	21.1	0.00e+00	0	44	0	2200961024	54	4002
2026-01-23 23:27:08.64	91.83	9.40	-41.5	-42.4	21.1	0.00e+00	0	44	0	2207252480	54	4023
2026-01-23 23:27:09.65	91.99	9.37	-41.7	-42.7	20.8	0.00e+00	0	44	0	2212495360	54	4170
2026-01-23 23:27:10.66	92.16	9.34	-41.7	-42.6	20.9	0.00e+00	0	44	0	2218786816	54	4135
2026-01-23 23:27:11.67	92.32	9.31	-41.7	-42.7	20.8	0.00e+00	0	44	0	2224029696	54	4158
2026-01-23 23:27:12.68	92.48	9.27	-41.9	-42.9	20.6	0.00e+00	0	44	0	2230321152	54	4260
2026-01-23 23:27:13.69	92.65	9.24	-42.1	-43.1	20.5	0.00e+00	0	44	0	2235564032	54	4341
2026-01-23 23:27:14.69	92.81	9.21	-41.9	-42.9	20.6	0.00e+00	0	44	0	2240806912	54	4280
2026-01-23 23:27:15.70	92.97	9.17	-41.9	-42.9	20.6	0.00e+00	0	44	0	2247098368	54	4267
2026-01-23 23:27:16.71	93.13	9.14	-42.0	-43.0	20.5	0.00e+00	0	44	0	2252341248	54	4306
2026-01-23 23:27:17.72	93.30	9.11	-41.8	-42.7	20.8	0.00e+00	0	44	0	2257584128	54	4179
2026-01-23 23:27:18.73	93.46	9.07	-41.7	-42.7	20.9	0.00e+00	0	44	0	2263875584	54	4148
2026-01-23 23:27:19.73	93.62	9.04	-41.6	-42.5	21.0	0.00e+00	0	44	0	2269118464	54	4083
2026-01-23 23:27:20.74	93.78	9.01	-41.7	-42.7	20.8	0.00e+00	0	44	0	2274361344	54	4154
2026-01-23 23:27:21.75	93.94	8.97	-41.8	-42.7	20.9	0.00e+00	0	44	0	2280652800	54	4172
2026-01-23 23:27:22.76	94.10	8.94	-41.8	-42.7	20.8	0.00e+00	0	44	0	2286944256	54	4181
2026-01-23 23:27:23.77	94.26	8.91	-41.7	-42.7	20.9	0.00e+00	0	44	0	2292187136	54	4170
2026-01-23 23:27:24.77	94.42	8.87	-41.7	-42.7	20.8	0.00e+00	0	44	0	2297430016	54	4158
2026-01-23 23:27:25.78	94.57	8.84	-42.0	-43.0	20.5	0.00e+00	0	44	0	2303721472	54	4321
2026-01-23 23:27:26.79	94.73	8.80	-42.0	-43.0	20.5	0.00e+00	0	44	0	2308964352	54	4329
2026-01-23 23:27:27.80	94.89	8.77	-42.1	-43.1	20.4	0.00e+00	0	44	0	2315255808	54	4377
2026-01-23 23:27:28.81	95.05	8.73	-41.8	-42.8	20.7	0.00e+00	0	44	0	2320498688	54	4209
2026-01-23 23:27:29.81	95.21	8.70	-41.9	-42.8	20.7	0.00e+00	0	44	0	2325741568	54	4224
2026-01-23 23:27:30.82	95.36	8.66	-41.8	-42.8	20.8	0.00e+00	0	44	0	2332033024	54	4200
2026-01-23 23:27:31.83	95.52	8.63	-41.9	-42.9	20.7	0.00e+00	0	44	0	2337275904	54	4270
2026-01-23 23:27:32.84	95.68	8.59	-41.8	-42.8	20.8	0.00e+00	0	44	0	2342518784	54	4196
2026-01-23 23:27:33.84	95.83	8.56	-41.5	-42.5	21.0	0.00e+00	0	44	0	2348810240	54	4069
2026-01-23 23:27:34.85	95.99	8.52	-41.6	-42.6	20.8	0.00e+00	0	44	0	2355101696	54	4119
2026-01-23 23:27:35.86	96.14	8.49	-41.6	-42.5	20.9	0.00e+00	0	44	0	2360344576	54	4084
2026-01-23 23:27:36.87	96.30	8.45	-41.6	-42.5	21.0	0.00e+00	0	44	0	2365587456	54	4066
2026-01-23 23:27:37.87	96.45	8.41	-41.7	-42.6	20.8	0.00e+00	0	44	0	2371878912	54	4134
2026-01-23 23:27:38.88	96.60	8.38	-41.8	-42.7	20.7	0.00e+00	0	44	0	2377121792	54	4193
2026-01-23 23:27:39.89	96.76	8.34	-42.0	-43.0	20.4	0.00e+00	0	44	0	2382364672	54	4336
2026-01-23 23:27:40.90	96.91	8.30	-42.2	-43.2	20.2	0.00e+00	0	44	0	2388656128	54	4418
2026-01-23 23:27:41.91	97.07	8.27	-42.3	-43.3	20.2	0.00e+00	0	44	0	2393899008	55	4209
2026-01-23 23:27:42.91	97.22	8.23	-42.2	-43.2	20.2	0.00e+00	0	44	0	2400190464	55	4193
2026-01-23 23:27:43.92	97.37	8.19	-42.4	-43.4	20.1	0.00e+00	0	44	0	2405433344	55	4283
2026-01-23 23:27:44.93	97.52	8.16	-42.3	-43.4	20.1	0.00e+00	0	44	0	2410676224	55	4250
2026-01-23 23:27:45.94	97.67	8.12	-42.3	-43.3	20.1	0.00e+00	0	44	0	2416967680	55	4233
2026-01-23 23:27:46.95	97.82	8.08	-42.3	-43.3	20.1	0.00e+00	0	44	0	2422210560	55	4235
2026-01-23 23:27:47.95	97.97	8.05	-42.2	-43.2	20.2	0.00e+00	0	44	0	2428502016	55	4166
2026-01-23 23:27:48.96	98.12	8.01	-42.3	-43.3	20.2	0.00e+00	0	44	0	2433744896	55	4221
2026-01-23 23:27:49.97	98.27	7.97	-42.1	-43.1	20.3	0.00e+00	0	44	0	2440036352	55	4129
2026-01-23 23:27:50.98	98.42	7.93	-42.3	-43.3	20.1	0.00e+00	0	44	0	2445279232	55	4238
2026-01-23 23:27:51.99	98.57	7.90	-42.3	-43.3	20.1	0.00e+00	0	44	0	2450522112	55	4234
2026-01-23 23:27:53.00	98.72	7.86	-42.4	-43.4	20.1	0.00e+00	0	44	0	2456813568	55	4253
2026-01-23 23:27:54.00	98.87	7.82	-42.3	-43.3	20.1	0.00e+00	0	44	0	2462056448	55	4221
2026-01-23 23:27:55.01	99.02	7.78	-42.5	-43.5	19.9	0.00e+00	0	44	0	2467299328	55	4332
2026-01-23 23:27:56.02	99.17	7.74	-42.4	-43.4	20.0	0.00e+00	0	44	0	2473590784	55	4261
2026-01-23 23:27:57.03	99.31	7.71	-42.6	-43.6	19.8	0.00e+00	0	44	0	2478833664	55	4373
2026-01-23 23:27:58.03	99.46	7.67	-42.5	-43.6	20.0	0.00e+00	0	44	0	2485125120	56	4101
2026-01-23 23:27:59.04	99.61	7.63	-42.5	-43.6	19.9	0.00e+00	0	44	0	2490368000	56	4119
2026-01-23 23:28:00.05	99.75	7.59	-42.7	-43.8	19.8	0.00e+00	0	44	0	2496659456	56	4207
2026-01-23 23:28:01.06	99.90	7.55	-42.7	-43.8	19.8	0.00e+00	0	44	0	2501902336	56	4198
2026-01-23 23:28:02.07	100.05	7.51	-42.2	-43.2	20.3	0.00e+00	0	44	0	2508193792	56	3931
2026-01-23 23:28:03.07	100.19	7.48	-42.4	-43.5	20.0	0.00e+00	0	44	0	2513436672	56	4063
2026-01-23 23:28:04.08	100.34	7.44	-42.6	-43.7	19.8	0.00e+00	0	44	0	2518679552	56	4170
2026-01-23 23:28:05.09	100.48	7.40	-42.6	-43.6	19.8	0.00e+00	0	44	0	2524971008	56	4136
2026-01-23 23:28:06.10	100.62	7.36	-42.3	-43.3	20.1	0.00e+00	0	44	0	2530213888	56	4000
2026-01-23 23:28:07.11	100.77	7.32	-42.2	-43.2	20.2	0.00e+00	0	44	0	2535456768	56	3937
2026-01-23 23:28:08.11	100.91	7.28	-41.9	-42.9	20.5	0.00e+00	0	44	0	2541748224	55	4020
2026-01-23 23:28:09.12	101.05	7.24	-42.2	-43.2	20.2	0.00e+00	0	44	0	2546991104	55	4149
2026-01-23 23:28:10.13	101.20	7.20	-42.4	-43.4	19.9	0.00e+00	0	44	0	2552233984	55	4264
2026-01-23 23:28:11.14	101.34	7.16	-42.4	-43.4	20.0	0.00e+00	0	44	0	2558525440	55	4253
2026-01-23 23:28:12.15	101.48	7.12	-42.1	-43.1	20.3	0.00e+00	0	44	0	2563768320	55	4103
2026-01-23 23:28:13.15	101.62	7.08	-42.2	-43.2	20.2	0.00e+00	0	44	0	2570059776	55	4171
2026-01-23 23:28:14.16	101.76	7.04	-42.3	-43.2	20.1	0.00e+00	0	44	0	2575302656	55	4193
2026-01-23 23:28:15.17	101.90	7.00	-42.3	-43.3	20.0	0.00e+00	0	44	0	2581594112	55	4211
2026-01-23 23:28:16.18	102.04	6.96	-42.3	-43.3	20.1	0.00e+00	0	44	0	2586836992	55	4229
2026-01-23 23:28:17.19	102.18	6.92	-42.1	-43.1	20.3	0.00e+00	0	44	0	2593128448	55	4107
2026-01-23 23:28:18.19	102.32	6.88	-42.1	-43.1	20.2	0.00e+00	0	44	0	2598371328	55	4102
2026-01-23 23:28:19.20	102.46	6.84	-42.4	-43.4	20.0	0.00e+00	0	44	0	2603614208	55	4268
2026-01-23 23:28:20.21	102.60	6.80	-42.6	-43.7	19.7	0.00e+00	0	44	0	2609905664	55	4402
2026-01-23 23:28:21.22	102.74	6.76	-42.5	-43.6	19.8	0.00e+00	0	44	0	2615148544	55	4352
2026-01-23 23:28:22.23	102.88	6.72	-42.8	-43.9	19.5	0.00e+00	0	44	0	2620391424	56	4280
2026-01-23 23:28:23.23	103.01	6.68	-43.0	-44.1	19.3	0.00e+00	0	44	0	2626682880	56	4386
2026-01-23 23:28:24.24	103.15	6.64	-42.8	-43.9	19.5	0.00e+00	0	44	0	2631925760	56	4253
2026-01-23 23:28:25.25	103.29	6.60	-42.8	-43.9	19.6	0.00e+00	0	44	0	2638217216	56	4248
2026-01-23 23:28:26.26	103.43	6.56	-42.7	-43.8	19.7	0.00e+00	0	44	0	2643460096	56	4200
2026-01-23 23:28:27.27	103.56	6.52	-42.9	-43.9	19.5	0.00e+00	0	44	0	2649751552	56	4289
2026-01-23 23:28:28.28	103.70	6.48	-42.5	-43.5	19.9	0.00e+00	0	44	0	2654994432	56	4081
2026-01-23 23:28:29.29	103.84	6.44	-42.7	-43.7	19.7	0.00e+00	0	44	0	2660237312	56	4181
2026-01-23 23:28:30.29	103.97	6.40	-42.8	-43.8	19.6	0.00e+00	0	44	0	2666528768	56	4222
2026-01-23 23:28:31.30	104.10	6.35	-42.9	-43.9	19.6	0.00e+00	0	44	0	2671771648	56	4276
2026-01-23 23:28:32.31	104.24	6.31	-42.6	-43.6	19.9	0.00e+00	0	44	0	2678063104	56	4139
2026-01-23 23:28:33.32	104.37	6.27	-42.7	-43.7	19.8	0.00e+00	0	44	0	2683305984	56	4168
2026-01-23 23:28:34.33	104.51	6.23	-42.8	-43.9	19.6	0.00e+00	0	44	0	2688548864	56	4252
2026-01-23 23:28:35.34	104.64	6.19	-42.6	-43.7	19.8	0.00e+00	0	44	0	2694840320	56	4156
2026-01-23 23:28:36.35	104.77	6.15	-42.9	-44.0	19.6	0.00e+00	0	44	0	2700083200	56	4297
2026-01-23 23:28:37.35	104.91	6.11	-43.3	-44.4	19.1	0.00e+00	0	44	0	2706374656	57	4290
2026-01-23 23:28:38.36	105.04	6.06	-43.3	-44.5	19.0	0.00e+00	0	44	0	2711617536	57	4296
2026-01-23 23:28:39.37	105.17	6.02	-43.1	-44.2	19.2	0.00e+00	0	44	0	2717908992	57	4174
2026-01-23 23:28:40.38	105.30	5.98	-43.1	-44.2	19.2	0.00e+00	0	44	0	2723151872	57	4169
2026-01-23 23:28:41.39	105.43	5.94	-43.1	-44.2	19.2	0.00e+00	0	44	0	2728394752	57	4181
2026-01-23 23:28:42.39	105.56	5.90	-43.3	-44.5	19.0	0.00e+00	0	44	0	2734686208	57	4307
2026-01-23 23:28:43.40	105.69	5.86	-43.4	-44.6	18.9	0.00e+00	0	44	0	2739929088	57	4343
2026-01-23 23:28:44.41	105.82	5.81	-43.3	-44.4	19.1	0.00e+00	0	44	0	2745171968	57	4275
2026-01-23 23:28:45.42	105.95	5.77	-43.2	-44.3	19.2	0.00e+00	0	44	0	2751463424	57	4215
2026-01-23 23:28:46.43	106.08	5.73	-43.4	-44.5	19.1	0.00e+00	0	44	0	2756706304	57	4320
2026-01-23 23:28:47.43	106.21	5.69	-43.1	-44.3	19.2	0.00e+00	0	44	0	2762997760	57	4196
2026-01-23 23:28:48.44	106.34	5.65	-43.4	-44.6	19.0	0.00e+00	0	44	0	2768240640	57	4348
2026-01-23 23:28:49.45	106.47	5.60	-43.4	-44.5	19.2	0.00e+00	0	44	0	2774532096	57	4328
2026-01-23 23:28:50.46	106.60	5.56	-43.2	-44.3	19.3	0.00e+00	0	44	0	2779774976	57	4213
2026-01-23 23:28:51.47	106.73	5.52	-43.2	-44.3	19.3	0.00e+00	0	44	0	2786066432	57	4215
2026-01-23 23:28:52.48	106.85	5.48	-43.1	-44.2	19.4	0.00e+00	0	44	0	2791309312	57	4153
2026-01-23 23:28:53.49	106.98	5.43	-43.4	-44.6	19.0	0.00e+00	0	44	0	2796552192	57	4348
2026-01-23 23:28:54.49	107.11	5.39	-43.5	-44.7	18.9	0.00e+00	0	44	0	2802843648	57	4396
2026-01-23 23:28:55.50	107.23	5.35	-43.5	-44.6	18.9	0.00e+00	0	44	0	2808086528	57	4371
2026-01-23 23:28:56.51	107.36	5.31	-43.5	-44.6	18.9	0.00e+00	0	44	0	2813329408	57	4365
2026-01-23 23:28:57.52	107.48	5.27	-43.3	-44.4	19.1	0.00e+00	0	44	0	2819620864	57	4282
2026-01-23 23:28:58.53	107.61	5.22	-43.5	-44.7	18.8	0.00e+00	0	44	0	2824863744	57	4407
2026-01-23 23:28:59.54	107.73	5.18	-43.5	-44.6	18.9	0.00e+00	0	44	0	2830106624	57	4374
2026-01-23 23:29:00.55	107.86	5.14	-43.6	-44.7	18.7	0.00e+00	0	44	0	2836398080	57	4438
2026-01-23 23:29:01.55	107.98	5.09	-43.0	-44.1	19.4	0.00e+00	0	44	0	2842689536	57	4119
2026-01-23 23:29:02.56	108.11	5.05	-43.5	-44.7	18.8	0.00e+00	0	44	0	2847932416	57	4410
2026-01-23 23:29:03.58	108.23	5.01	-46.6	-48.4	15.2	0.00e+00	0	44	0	2853175296	63	4802
2026-01-23 23:29:04.58	108.35	4.97	-52.7	-64.7	3.8	8.45e-01	0	44	104	2855272448	75	15665
2026-01-23 23:29:05.59	108.48	4.92	-53.0	-64.8	3.8	8.45e-01	0	44	104	2855272448	76	14958
2026-01-23 23:29:06.60	108.60	4.88	-53.1	-65.1	3.8	8.47e-01	0	44	104	2855272448	76	15496
2026-01-23 23:29:07.61	108.72	4.84	-53.4	-65.3	3.8	8.46e-01	0	44	104	2855272448	77	15019
2026-01-23 23:29:08.62	108.84	4.79	-53.5	-65.4	3.8	8.46e-01	0	44	104	2855272448	77	15171
2026-01-23 23:29:09.63	108.96	4.75	-53.6	-65.5	3.8	8.45e-01	0	44	104	2855272448	77	15383
2026-01-23 23:29:10.64	109.09	4.71	-53.7	-65.6	3.8	8.46e-01	0	44	104	2855272448	77	15534
2026-01-23 23:29:11.65	109.21	4.67	-53.8	-65.7	3.8	8.46e-01	0	44	104	2855272448	78	14868
2026-01-23 23:29:12.66	109.33	4.62	-53.9	-65.8	3.8	8.48e-01	0	44	104	2855272448	78	15005
2026-01-23 23:29:13.67	109.45	4.58	-53.9	-65.9	3.8	8.46e-01	0	44	104	2855272448	78	15088
2026-01-23 23:29:14.67	109.57	4.54	-53.9	-65.9	3.8	8.45e-01	0	44	104	2855272448	78	15188
2026-01-23 23:29:15.68	109.69	4.49	-54.0	-66.0	3.8	8.47e-01	0	44	104	2855272448	78	15252
2026-01-23 23:29:16.69	109.81	4.45	-54.0	-65.9	3.8	8.46e-01	0	44	104	2855272448	78	15202
2026-01-23 23:29:17.70	109.92	4.41	-54.0	-66.0	3.8	8.46e-01	0	44	104	2855272448	78	15247
2026-01-23 23:29:18.71	110.04	4.36	-54.0	-66.0	3.8	8.47e-01	0	44	104	2855272448	78	15308
2026-01-23 23:29:19.72	110.16	4.32	-54.1	-66.0	3.8	8.47e-01	0	44	104	2855272448	78	15334
2026-01-23 23:29:20.73	110.28	4.28	-54.1	-66.0	3.8	8.45e-01	0	44	104	2855272448	78	15389
2026-01-23 23:29:21.73	110.39	4.23	-54.1	-66.1	3.8	8.46e-01	0	44	104	2855272448	78	15432
2026-01-23 23:29:22.74	110.51	4.19	-54.1	-66.1	3.8	8.46e-01	0	44	104	2855272448	78	15487
2026-01-23 23:29:23.75	110.63	4.15	-54.1	-66.1	3.8	8.47e-01	0	44	104	2855272448	78	15441
2026-01-23 23:29:24.76	110.75	4.10	-54.1	-66.1	3.8	8.45e-01	0	44	104	2855272448	78	15548
2026-01-23 23:29:25.77	110.86	4.06	-54.2	-66.1	3.8	8.45e-01	0	44	104	2855272448	78	15468
2026-01-23 23:29:26.78	110.98	4.02	-54.2	-66.1	3.8	8.46e-01	0	44	104	2855272448	78	15574
2026-01-23 23:29:27.79	111.09	3.97	-54.2	-66.1	3.8	8.45e-01	0	44	104	2855272448	78	15549
2026-01-23 23:29:28.79	111.21	3.93	-54.2	-66.2	3.8	8.46e-01	0	44	104	2855272448	78	15594
2026-01-23 23:29:29.80	111.32	3.89	-54.2	-66.1	3.8	8.46e-01	0	44	104	2855272448	78	15553
2026-01-23 23:29:30.81	111.44	3.84	-54.2	-66.2	3.8	8.45e-01	0	44	104	2855272448	79	14798
2026-01-23 23:29:31.82	111.55	3.80	-54.2	-66.1	3.8	8.47e-01	0	44	104	2855272448	79	14704
2026-01-23 23:29:32.83	111.66	3.75	-54.2	-66.2	3.8	8.46e-01	0	44	104	2855272448	79	14793
2026-01-23 23:29:33.83	111.78	3.71	-54.2	-66.1	3.8	8.45e-01	0	44	104	2855272448	79	14682
2026-01-23 23:29:34.84	111.89	3.67	-54.1	-66.1	3.8	8.46e-01	0	44	104	2855272448	79	14673
2026-01-23 23:29:35.85	112.00	3.62	-54.1	-66.1	3.8	8.47e-01	0	44	104	2855272448	79	14574
2026-01-23 23:29:36.86	112.12	3.58	-54.1	-66.1	3.8	8.47e-01	0	44	104	2855272448	79	14564
2026-01-23 23:29:37.87	112.23	3.54	-54.1	-66.0	3.8	8.46e-01	0	44	104	2855272448	79	14530
2026-01-23 23:29:38.88	112.34	3.49	-54.1	-66.0	3.8	8.45e-01	0	44	104	2855272448	79	14537
2026-01-23 23:29:39.89	112.45	3.45	-54.1	-66.0	3.8	8.47e-01	0	44	104	2855272448	79	14493
2026-01-23 23:29:40.90	112.56	3.40	-54.0	-66.0	3.8	8.46e-01	0	44	104	2855272448	79	14492
2026-01-23 23:29:41.91	112.67	3.36	-54.0	-66.0	3.8	8.45e-01	0	44	104	2855272448	79	14477
2026-01-23 23:29:42.92	112.78	3.32	-54.0	-66.0	3.8	8.47e-01	0	44	104	2855272448	79	14467
2026-01-23 23:29:43.93	112.90	3.27	-54.0	-66.0	3.8	8.46e-01	0	44	104	2855272448	79	14432
2026-01-23 23:29:44.94	113.01	3.23	-54.1	-66.0	3.8	8.47e-01	0	44	104	2855272448	79	14503
2026-01-23 23:29:45.95	113.12	3.18	-54.1	-66.0	3.8	8.46e-01	0	44	104	2855272448	79	14476
2026-01-23 23:29:46.96	113.22	3.14	-54.0	-66.0	3.8	8.46e-01	0	44	104	2855272448	79	14425
2026-01-23 23:29:47.96	113.33	3.10	-54.0	-66.0	3.8	8.46e-01	0	44	104	2855272448	79	14421
2026-01-23 23:29:48.97	113.44	3.05	-54.0	-66.0	3.8	8.46e-01	0	44	104	2855272448	79	14434
2026-01-23 23:29:49.98	113.55	3.01	-54.0	-66.0	3.8	8.47e-01	0	44	104	2855272448	79	14443
2026-01-23 23:29:50.99	113.66	2.97	-54.0	-66.0	3.8	8.46e-01	0	44	104	2855272448	79	14440
2026-01-23 23:29:52.00	113.77	2.92	-54.0	-65.9	3.8	8.46e-01	0	44	104	2855272448	79	14348
2026-01-23 23:29:53.01	113.87	2.88	-54.0	-65.9	3.8	8.46e-01	0	44	104	2855272448	79	14330
2026-01-23 23:29:54.01	113.98	2.83	-54.0	-65.9	3.8	8.46e-01	0	44	104	2855272448	79	14333
2026-01-23 23:29:55.02	114.09	2.79	-54.0	-65.9	3.8	8.46e-01	0	44	104	2855272448	79	14342
2026-01-23 23:29:56.03	114.19	2.75	-53.9	-65.9	3.8	8.46e-01	0	44	104	2855272448	79	14329
2026-01-23 23:29:57.04	114.30	2.70	-53.9	-65.9	3.8	8.46e-01	0	44	104	2855272448	79	14296
2026-01-23 23:29:58.05	114.41	2.66	-53.9	-65.9	3.8	8.45e-01	0	44	104	2855272448	79	14281
2026-01-23 23:29:59.06	114.51	2.61	-53.9	-65.9	3.8	8.47e-01	0	44	104	2855272448	79	14243
2026-01-23 23:30:00.07	114.62	2.57	-53.9	-65.9	3.8	8.45e-01	0	44	104	2855272448	79	14271
2026-01-23 23:30:01.07	114.72	2.53	-54.0	-66.0	3.8	8.47e-01	0	44	104	2855272448	79	14460
2026-01-23 23:30:02.08	114.83	2.48	-54.3	-66.3	3.8	8.47e-01	0	44	104	2855272448	79	14880
2026-01-23 23:30:03.09	114.93	2.44	-54.2	-66.2	3.8	8.46e-01	0	44	104	2855272448	79	14719
2026-01-23 23:30:04.10	115.03	2.39	-54.1	-66.1	3.8	8.46e-01	0	44	104	2855272448	79	14609
2026-01-23 23:30:05.11	115.14	2.35	-54.0	-66.0	3.8	8.46e-01	0	44	104	2855272448	79	14466
2026-01-23 23:30:06.12	115.24	2.31	-54.1	-66.1	3.8	8.46e-01	0	44	104	2855272448	79	14548
2026-01-23 23:30:07.13	115.35	2.26	-54.0	-66.0	3.8	8.46e-01	0	44	104	2855272448	79	14483
2026-01-23 23:30:08.13	115.45	2.22	-54.0	-66.0	3.8	8.46e-01	0	44	104	2855272448	79	14412
2026-01-23 23:30:09.14	115.55	2.17	-54.0	-65.9	3.8	8.45e-01	0	44	104	2855272448	79	14304
2026-01-23 23:30:10.15	115.65	2.13	-53.9	-65.9	3.8	8.47e-01	0	44	104	2855272448	79	14287
2026-01-23 23:30:11.16	115.76	2.09	-53.9	-65.9	3.8	8.46e-01	0	44	104	2855272448	79	14251
2026-01-23 23:30:12.17	115.86	2.04	-53.9	-65.9	3.8	8.46e-01	0	44	104	2855272448	79	14210
2026-01-23 23:30:13.18	115.96	2.00	-53.9	-65.8	3.8	8.46e-01	0	44	104	2855272448	79	14181
2026-01-23 23:30:14.19	116.06	1.95	-54.1	-66.0	3.8	8.46e-01	0	44	104	2855272448	79	14474

#Closed at: 2026-01-23 23:30:14
#Recorded file [2855 MB]: D:/lorett/data/31041_260124_021936.dat