passes_logs/2026/01/23/R3.2S_Murmansk/R3.2S_Murmansk__20260123_054110_NOAA_20_JPSS-1_rec.log

#Pass ID: 20260123_054110_NOAA 20 (JPSS-1)
#Satellite: NOAA 20 (JPSS-1)
#Configuration: NOAA 20
#almurnet v.1.7.20251203
#Start time: 2026-01-23 05:41:09

#Version: 2.2.20231116
#Station: R3.2S_Murmansk
#Location: 33.079688 lon 68.888172 lat
#TLE: 1 43013U 17073A   26022.44900781  .00000193  00000+0  11233-3 0  9999
#TLE: 2 43013  98.7645 323.3100 0001197  28.8413 331.2829 14.19538802423792

#Time	Az	El	Level	Level2	SNR	BER	BlckErr	Temp	State	Recorded	gain1	gain2
2026-01-23 05:41:09.98	70.40	1.99	-54.4	-69.4	3.8	1.49e+00	0	41	0	0	79	21304
2026-01-23 05:41:10.98	70.34	2.05	-54.4	-69.4	3.8	1.49e+00	0	41	104	0	79	21390
2026-01-23 05:41:11.99	70.28	2.10	-54.4	-69.4	3.8	1.49e+00	0	41	104	0	79	21330
2026-01-23 05:41:13.00	70.21	2.16	-54.4	-69.4	3.8	1.49e+00	0	41	104	0	79	21326
2026-01-23 05:41:14.01	70.15	2.22	-54.4	-69.4	3.8	1.49e+00	0	41	104	0	79	21374
2026-01-23 05:41:15.02	70.09	2.28	-54.5	-69.5	3.8	1.49e+00	0	41	104	0	79	21633
2026-01-23 05:41:16.03	70.02	2.33	-54.5	-69.5	3.8	1.49e+00	0	41	104	0	79	21728
2026-01-23 05:41:17.03	69.96	2.39	-54.5	-69.6	3.8	1.49e+00	0	41	104	0	79	21804
2026-01-23 05:41:18.04	69.89	2.45	-54.5	-69.5	3.8	1.49e+00	0	42	104	0	79	21735
2026-01-23 05:41:19.05	69.83	2.51	-54.5	-69.5	3.8	1.49e+00	0	42	104	0	79	21677
2026-01-23 05:41:20.06	69.76	2.57	-54.5	-69.5	3.8	1.49e+00	0	42	104	0	79	21695
2026-01-23 05:41:21.07	69.69	2.62	-54.5	-69.5	3.8	1.49e+00	0	41	104	0	79	21586
2026-01-23 05:41:22.07	69.63	2.68	-54.4	-69.5	3.8	1.49e+00	0	42	104	0	79	21562
2026-01-23 05:41:23.08	69.56	2.74	-54.4	-69.4	3.8	1.49e+00	0	42	104	0	79	21451
2026-01-23 05:41:24.09	69.50	2.80	-54.3	-69.4	3.8	1.49e+00	0	42	104	0	79	21276
2026-01-23 05:41:25.10	69.43	2.86	-54.3	-69.2	3.8	1.49e+00	0	42	104	0	79	20998
2026-01-23 05:41:26.11	69.36	2.92	-54.2	-69.3	3.8	1.49e+00	0	42	104	0	79	21035
2026-01-23 05:41:27.11	69.29	2.97	-54.2	-69.2	3.8	1.49e+00	0	42	104	0	79	20825
2026-01-23 05:41:28.12	69.23	3.03	-54.1	-69.1	3.8	1.49e+00	0	42	104	0	79	20730
2026-01-23 05:41:29.13	69.16	3.09	-54.0	-69.0	3.8	1.49e+00	0	42	104	0	79	20491
2026-01-23 05:41:30.14	69.09	3.15	-53.9	-68.9	3.8	1.49e+00	0	42	104	0	79	20204
2026-01-23 05:41:31.14	69.02	3.21	-53.8	-68.8	3.8	1.49e+00	0	42	104	0	79	19914
2026-01-23 05:41:32.15	68.95	3.27	-53.7	-68.7	3.8	1.49e+00	0	42	104	0	79	19694
2026-01-23 05:41:33.16	68.88	3.33	-53.5	-68.5	3.8	1.49e+00	0	42	104	0	79	19325
2026-01-23 05:41:34.17	68.81	3.39	-53.4	-68.4	3.8	1.49e+00	0	42	104	0	78	20103
2026-01-23 05:41:35.18	68.74	3.45	-53.2	-68.1	3.8	1.49e+00	0	42	104	0	78	19549
2026-01-23 05:41:36.19	68.67	3.51	-52.7	-67.7	3.8	1.49e+00	0	42	104	0	77	19761
2026-01-23 05:41:37.19	68.60	3.57	-52.5	-67.5	3.8	1.49e+00	0	42	104	0	77	19168
2026-01-23 05:41:38.20	68.53	3.63	-52.5	-67.4	3.8	1.49e+00	0	42	104	0	77	19141
2026-01-23 05:41:39.21	68.46	3.69	-52.5	-67.4	3.8	1.49e+00	0	42	104	0	77	19135
2026-01-23 05:41:40.22	68.39	3.75	-52.5	-67.5	3.8	1.49e+00	0	42	104	0	77	19195
2026-01-23 05:41:41.23	68.32	3.81	-52.5	-67.5	3.8	1.49e+00	0	42	104	0	77	19189
2026-01-23 05:41:42.24	68.25	3.87	-52.5	-67.4	3.8	1.49e+00	0	42	104	0	77	19013
2026-01-23 05:41:43.25	68.17	3.93	-52.5	-67.3	3.8	1.49e+00	0	42	104	0	76	19909
2026-01-23 05:41:44.26	68.10	3.99	-52.5	-67.1	3.8	1.49e+00	0	42	104	0	76	19500
2026-01-23 05:41:45.27	68.03	4.05	-52.4	-66.8	3.8	1.49e+00	0	42	104	0	76	18778
2026-01-23 05:41:46.27	67.95	4.11	-52.4	-66.4	3.8	1.49e+00	0	42	104	0	76	18086
2026-01-23 05:41:47.28	67.88	4.17	-52.4	-66.1	3.8	1.49e+00	0	42	104	0	76	17464
2026-01-23 05:41:48.29	67.81	4.23	-52.4	-66.0	3.8	1.49e+00	0	43	104	0	76	17264
2026-01-23 05:41:49.30	67.73	4.29	-52.4	-66.0	3.8	1.49e+00	0	42	104	0	76	17168
2026-01-23 05:41:50.31	67.66	4.35	-52.4	-65.8	3.8	1.49e+00	0	42	104	0	76	16848
2026-01-23 05:41:51.32	67.58	4.41	-52.4	-65.7	3.8	1.49e+00	0	42	104	0	76	16556
2026-01-23 05:41:52.33	67.51	4.47	-52.3	-64.7	4.0	1.48e+00	0	42	104	0	76	14745
2026-01-23 05:41:53.33	67.43	4.53	-52.3	-63.7	4.3	1.46e+00	0	42	0	0	76	13138
2026-01-23 05:41:54.34	67.36	4.59	-52.1	-62.5	4.7	9.79e-01	0	43	0	1048576	76	11421
2026-01-23 05:41:55.35	67.28	4.65	-52.0	-61.2	5.4	6.29e-01	0	43	0	3145728	76	9893
2026-01-23 05:41:56.36	67.20	4.72	-51.8	-60.2	6.1	4.09e-01	0	43	0	4194304	75	9339
2026-01-23 05:41:57.37	67.13	4.78	-51.7	-59.4	6.8	2.56e-01	0	43	0	6291456	75	8487
2026-01-23 05:41:58.38	67.05	4.84	-51.7	-59.2	7.0	1.54e-01	0	42	0	8388608	75	8286
2026-01-23 05:41:59.38	66.97	4.90	-51.6	-58.8	7.3	1.37e-01	0	42	0	10485760	75	7946
2026-01-23 05:42:00.39	66.90	4.96	-51.7	-59.2	7.0	1.53e-01	0	43	0	12582912	75	8299
2026-01-23 05:42:01.40	66.82	5.02	-51.8	-59.7	6.5	1.94e-01	0	42	0	14680064	75	8819
2026-01-23 05:42:02.41	66.74	5.09	-51.0	-56.4	9.3	3.11e-01	0	43	0	15728640	74	6411
2026-01-23 05:42:03.42	66.66	5.15	-48.6	-51.2	15.4	7.00e-07	0	43	0	17825792	69	4662
2026-01-23 05:42:04.42	66.58	5.21	-50.7	-55.3	11.6	7.00e-07	0	43	0	19922944	71	6720
2026-01-23 05:42:05.43	66.50	5.27	-52.4	-65.4	3.8	1.49e+00	0	43	104	19922944	75	17068
2026-01-23 05:42:06.44	66.42	5.33	-48.7	-51.3	15.2	5.56e-05	0	43	0	20971520	69	4750
2026-01-23 05:42:07.45	66.34	5.40	-50.1	-54.1	12.1	4.73e-03	0	43	0	22020096	72	5481
2026-01-23 05:42:08.46	66.26	5.46	-48.6	-51.2	15.4	0.00e+00	0	43	0	24117248	69	4678
2026-01-23 05:42:09.46	66.18	5.52	-48.4	-50.8	15.9	0.00e+00	0	43	0	26214400	68	4733
2026-01-23 05:42:10.47	66.10	5.58	-48.4	-50.8	15.9	0.00e+00	0	43	0	28311552	68	4714
2026-01-23 05:42:11.48	66.02	5.65	-48.4	-50.7	15.9	0.00e+00	0	43	0	30408704	68	4705
2026-01-23 05:42:12.49	65.93	5.71	-48.3	-50.7	16.0	0.00e+00	0	43	0	32505856	68	4653
2026-01-23 05:42:13.50	65.85	5.77	-48.3	-50.7	16.0	0.00e+00	0	43	0	33554432	68	4696
2026-01-23 05:42:14.51	65.77	5.84	-48.4	-50.7	16.0	0.00e+00	0	43	0	35651584	68	4705
2026-01-23 05:42:15.51	65.69	5.90	-48.4	-50.8	16.0	0.00e+00	0	43	0	37748736	68	4710
2026-01-23 05:42:16.52	65.60	5.96	-48.3	-50.7	16.1	0.00e+00	0	43	0	39845888	68	4674
2026-01-23 05:42:17.53	65.52	6.02	-48.4	-50.7	16.0	0.00e+00	0	43	0	40894464	68	4704
2026-01-23 05:42:18.54	65.43	6.09	-48.3	-50.6	16.2	0.00e+00	0	43	0	42991616	68	4612
2026-01-23 05:42:19.55	65.35	6.15	-48.1	-50.4	16.4	0.00e+00	0	43	0	45088768	68	4512
2026-01-23 05:42:20.55	65.26	6.21	-48.2	-50.5	16.3	0.00e+00	0	43	0	47185920	68	4587
2026-01-23 05:42:21.56	65.18	6.28	-48.3	-50.6	16.2	0.00e+00	0	43	0	49283072	68	4626
2026-01-23 05:42:22.57	65.09	6.34	-48.2	-50.4	16.4	0.00e+00	0	43	0	50331648	68	4545
2026-01-23 05:42:23.58	65.01	6.41	-48.1	-50.4	16.5	0.00e+00	0	43	0	52428800	68	4508
2026-01-23 05:42:24.59	64.92	6.47	-48.2	-50.4	16.4	0.00e+00	0	43	0	54525952	68	4545
2026-01-23 05:42:25.59	64.83	6.53	-48.2	-50.5	16.4	0.00e+00	0	43	0	56623104	68	4563
2026-01-23 05:42:26.60	64.75	6.60	-48.1	-50.3	16.6	0.00e+00	0	43	0	58720256	68	4449
2026-01-23 05:42:27.61	64.66	6.66	-48.1	-50.4	16.5	0.00e+00	0	43	0	60817408	68	4501
2026-01-23 05:42:28.62	64.57	6.73	-48.2	-50.4	16.5	0.00e+00	0	43	0	61865984	68	4536
2026-01-23 05:42:29.63	64.48	6.79	-48.2	-50.5	16.4	0.00e+00	0	43	0	63963136	68	4546
2026-01-23 05:42:30.63	64.39	6.85	-48.1	-50.3	16.6	0.00e+00	0	43	0	66060288	68	4480
2026-01-23 05:42:31.64	64.30	6.92	-48.2	-50.4	16.5	0.00e+00	0	43	0	68157440	68	4528
2026-01-23 05:42:32.65	64.21	6.98	-48.2	-50.5	16.5	0.00e+00	0	43	0	69206016	68	4552
2026-01-23 05:42:33.65	64.12	7.05	-48.2	-50.4	16.5	0.00e+00	0	43	0	71303168	68	4517
2026-01-23 05:42:34.66	64.03	7.11	-48.3	-50.5	16.4	0.00e+00	0	43	0	73400320	68	4584
2026-01-23 05:42:35.67	63.94	7.18	-48.3	-50.6	16.3	0.00e+00	0	43	0	75497472	68	4630
2026-01-23 05:42:36.68	63.85	7.24	-48.1	-50.3	16.6	0.00e+00	0	43	0	77594624	68	4478
2026-01-23 05:42:37.69	63.76	7.31	-48.1	-50.3	16.7	0.00e+00	0	43	0	79691776	68	4467
2026-01-23 05:42:38.70	63.66	7.37	-48.2	-50.5	16.5	0.00e+00	0	43	0	80740352	68	4552
2026-01-23 05:42:39.71	63.57	7.44	-48.2	-50.4	16.5	0.00e+00	0	43	0	82837504	68	4542
2026-01-23 05:42:40.71	63.48	7.50	-48.3	-50.6	16.4	0.00e+00	0	43	0	84934656	68	4600
2026-01-23 05:42:41.72	63.39	7.57	-48.2	-50.4	16.5	0.00e+00	0	43	0	87031808	68	4535
2026-01-23 05:42:42.73	63.29	7.64	-48.1	-50.3	16.7	0.00e+00	0	43	0	89128960	68	4453
2026-01-23 05:42:43.73	63.20	7.70	-48.1	-50.3	16.7	0.00e+00	0	43	0	90177536	68	4478
2026-01-23 05:42:44.74	63.10	7.77	-48.2	-50.4	16.5	0.00e+00	0	43	0	92274688	68	4533
2026-01-23 05:42:45.75	63.01	7.83	-48.2	-50.3	16.6	0.00e+00	0	43	0	94371840	68	4493
2026-01-23 05:42:46.76	62.91	7.90	-48.2	-50.3	16.6	0.00e+00	0	43	0	96468992	68	4493
2026-01-23 05:42:47.77	62.81	7.96	-48.1	-50.2	16.8	0.00e+00	0	43	0	98566144	68	4423
2026-01-23 05:42:48.78	62.72	8.03	-48.1	-50.3	16.7	0.00e+00	0	43	0	99614720	68	4471
2026-01-23 05:42:49.79	62.62	8.10	-48.2	-50.4	16.6	0.00e+00	0	43	0	101711872	68	4520
2026-01-23 05:42:50.79	62.52	8.16	-48.2	-50.4	16.6	0.00e+00	0	43	0	103809024	68	4521
2026-01-23 05:42:51.81	62.42	8.23	-48.0	-50.2	16.9	0.00e+00	0	43	0	105906176	68	4400
2026-01-23 05:42:52.81	62.33	8.30	-47.9	-50.0	17.0	0.00e+00	0	43	0	108003328	67	4565
2026-01-23 05:42:53.82	62.23	8.36	-48.0	-50.2	16.8	0.00e+00	0	43	0	109051904	67	4671
2026-01-23 05:42:54.83	62.13	8.43	-47.8	-49.8	17.1	0.00e+00	0	43	0	111149056	67	4492
2026-01-23 05:42:55.84	62.03	8.50	-47.9	-50.0	17.0	0.00e+00	0	43	0	113246208	67	4572
2026-01-23 05:42:56.84	61.93	8.56	-47.8	-49.9	17.0	0.00e+00	0	43	0	115343360	67	4497
2026-01-23 05:42:57.85	61.83	8.63	-47.8	-49.8	17.2	0.00e+00	0	43	0	117440512	67	4478
2026-01-23 05:42:58.86	61.72	8.70	-47.8	-49.8	17.1	0.00e+00	0	43	0	118489088	67	4464
2026-01-23 05:42:59.87	61.62	8.76	-47.6	-49.5	17.4	0.00e+00	0	43	0	120586240	67	4331
2026-01-23 05:43:00.88	61.52	8.83	-47.6	-49.5	17.4	0.00e+00	0	43	0	122683392	66	4597
2026-01-23 05:43:01.89	61.42	8.90	-47.6	-49.6	17.4	0.00e+00	0	43	0	124780544	66	4602
2026-01-23 05:43:02.89	61.31	8.97	-47.5	-49.5	17.5	0.00e+00	0	43	0	126877696	66	4547
2026-01-23 05:43:03.90	61.21	9.03	-47.5	-49.4	17.6	0.00e+00	0	43	0	127926272	66	4511
2026-01-23 05:43:04.91	61.10	9.10	-47.5	-49.5	17.5	0.00e+00	0	43	0	130023424	66	4549
2026-01-23 05:43:05.92	61.00	9.17	-47.6	-49.5	17.5	0.00e+00	0	43	0	132120576	66	4587
2026-01-23 05:43:06.93	60.89	9.24	-47.5	-49.4	17.6	0.00e+00	0	43	0	134217728	66	4501
2026-01-23 05:43:07.93	60.79	9.30	-47.5	-49.4	17.6	0.00e+00	0	43	0	136314880	66	4539
2026-01-23 05:43:08.94	60.68	9.37	-47.4	-49.3	17.7	0.00e+00	0	43	0	137363456	66	4462
2026-01-23 05:43:09.95	60.58	9.44	-47.5	-49.5	17.6	0.00e+00	0	43	0	139460608	66	4546
2026-01-23 05:43:10.96	60.47	9.51	-47.6	-49.5	17.5	0.00e+00	0	43	0	141557760	66	4596
2026-01-23 05:43:11.97	60.36	9.58	-47.7	-49.6	17.4	0.00e+00	0	43	0	143654912	66	4642
2026-01-23 05:43:12.97	60.25	9.65	-47.7	-49.6	17.5	0.00e+00	0	43	0	145752064	66	4632
2026-01-23 05:43:13.98	60.14	9.71	-47.9	-49.9	17.1	0.00e+00	0	43	0	147849216	66	4794
2026-01-23 05:43:14.99	60.03	9.78	-47.7	-49.7	17.3	0.00e+00	0	43	0	148897792	66	4683
2026-01-23 05:43:15.99	59.92	9.85	-47.6	-49.6	17.5	0.00e+00	0	43	0	150994944	66	4610
2026-01-23 05:43:17.00	59.81	9.92	-47.7	-49.6	17.4	0.00e+00	0	43	0	153092096	66	4631
2026-01-23 05:43:18.01	59.70	9.99	-47.7	-49.7	17.3	0.00e+00	0	43	0	155189248	66	4677
2026-01-23 05:43:19.02	59.59	10.06	-47.7	-49.6	17.4	0.00e+00	0	43	0	156237824	66	4650
2026-01-23 05:43:20.02	59.48	10.13	-47.6	-49.6	17.5	0.00e+00	0	43	0	158334976	66	4609
2026-01-23 05:43:21.03	59.37	10.19	-47.8	-49.8	17.3	0.00e+00	0	43	0	160432128	66	4707
2026-01-23 05:43:22.04	59.25	10.26	-47.8	-49.8	17.3	0.00e+00	0	43	0	162529280	66	4706
2026-01-23 05:43:23.05	59.14	10.33	-47.7	-49.7	17.5	0.00e+00	0	44	0	164626432	66	4652
2026-01-23 05:43:24.05	59.03	10.40	-47.6	-49.6	17.5	0.00e+00	0	43	0	165675008	66	4601
2026-01-23 05:43:25.06	58.91	10.47	-47.8	-49.7	17.4	0.00e+00	0	43	0	167772160	66	4696
2026-01-23 05:43:26.07	58.79	10.54	-47.8	-49.8	17.3	0.00e+00	0	43	0	169869312	66	4726
2026-01-23 05:43:27.08	58.68	10.61	-47.7	-49.7	17.4	0.00e+00	0	43	0	171966464	66	4653
2026-01-23 05:43:28.09	58.56	10.68	-47.7	-49.6	17.5	0.00e+00	0	43	0	174063616	66	4612
2026-01-23 05:43:29.09	58.44	10.75	-47.6	-49.6	17.5	0.00e+00	0	43	0	176160768	66	4602
2026-01-23 05:43:30.10	58.33	10.82	-47.6	-49.4	17.7	0.00e+00	0	43	0	177209344	66	4537
2026-01-23 05:43:31.11	58.21	10.89	-47.5	-49.3	17.7	0.00e+00	0	43	0	179306496	66	4486
2026-01-23 05:43:32.12	58.09	10.96	-47.4	-49.2	17.9	0.00e+00	0	43	0	181403648	66	4427
2026-01-23 05:43:33.13	57.97	11.03	-47.4	-49.3	17.8	0.00e+00	0	43	0	183500800	66	4464
2026-01-23 05:43:34.13	57.85	11.10	-47.5	-49.4	17.8	0.00e+00	0	43	0	184549376	66	4503
2026-01-23 05:43:35.14	57.73	11.17	-47.4	-49.2	17.9	0.00e+00	0	43	0	186646528	66	4441
2026-01-23 05:43:36.15	57.61	11.24	-47.3	-49.1	18.0	0.00e+00	0	43	0	188743680	66	4381
2026-01-23 05:43:37.16	57.49	11.31	-47.3	-49.1	18.1	0.00e+00	0	43	0	190840832	66	4351
2026-01-23 05:43:38.16	57.36	11.38	-47.3	-49.1	18.0	0.00e+00	0	43	0	192937984	66	4373
2026-01-23 05:43:39.17	57.24	11.45	-47.4	-49.2	18.0	0.00e+00	0	43	0	193986560	66	4399
2026-01-23 05:43:40.18	57.12	11.52	-47.3	-49.0	18.0	0.00e+00	0	43	0	196083712	66	4328
2026-01-23 05:43:41.19	56.99	11.59	-47.3	-49.1	18.1	0.00e+00	0	43	0	198180864	66	4358
2026-01-23 05:43:42.19	56.87	11.66	-47.2	-49.0	18.2	0.00e+00	0	43	0	200278016	66	4297
2026-01-23 05:43:43.20	56.74	11.73	-47.3	-49.1	18.0	0.00e+00	0	43	0	202375168	66	4366
2026-01-23 05:43:44.21	56.62	11.80	-47.1	-48.8	18.3	0.00e+00	0	43	0	204472320	66	4238
2026-01-23 05:43:45.22	56.49	11.87	-47.1	-48.9	18.3	0.00e+00	0	43	0	205520896	66	4249
2026-01-23 05:43:46.22	56.36	11.94	-47.2	-48.9	18.2	0.00e+00	0	43	0	207618048	66	4284
2026-01-23 05:43:47.23	56.23	12.01	-47.1	-48.8	18.3	0.00e+00	0	43	0	209715200	66	4241
2026-01-23 05:43:48.24	56.11	12.09	-47.2	-48.9	18.2	0.00e+00	0	43	0	211812352	66	4282
2026-01-23 05:43:49.25	55.98	12.16	-47.0	-48.6	18.5	0.00e+00	0	43	0	212860928	66	4143
2026-01-23 05:43:50.26	55.85	12.23	-46.9	-48.6	18.6	0.00e+00	0	43	0	214958080	65	4360
2026-01-23 05:43:51.26	55.72	12.30	-47.1	-48.8	18.4	0.00e+00	0	43	0	217055232	65	4450
2026-01-23 05:43:52.27	55.59	12.37	-47.1	-48.8	18.3	0.00e+00	0	43	0	219152384	65	4488
2026-01-23 05:43:53.28	55.45	12.44	-47.1	-48.9	18.3	0.00e+00	0	43	0	221249536	65	4504
2026-01-23 05:43:54.29	55.32	12.51	-47.1	-48.9	18.3	0.00e+00	0	43	0	223346688	65	4502
2026-01-23 05:43:55.30	55.19	12.58	-47.2	-48.9	18.2	0.00e+00	0	43	0	224395264	65	4527
2026-01-23 05:43:56.30	55.05	12.65	-47.1	-48.8	18.4	0.00e+00	0	43	0	226492416	65	4480
2026-01-23 05:43:57.31	54.92	12.73	-47.0	-48.7	18.5	0.00e+00	0	43	0	228589568	65	4422
2026-01-23 05:43:58.32	54.78	12.80	-47.0	-48.7	18.5	0.00e+00	0	43	0	230686720	65	4408
2026-01-23 05:43:59.33	54.65	12.87	-46.9	-48.6	18.6	0.00e+00	0	43	0	232783872	65	4354
2026-01-23 05:44:00.34	54.51	12.94	-46.9	-48.5	18.7	0.00e+00	0	43	0	233832448	65	4324
2026-01-23 05:44:01.35	54.37	13.01	-46.8	-48.4	18.8	0.00e+00	0	43	0	235929600	65	4271
2026-01-23 05:44:02.35	54.24	13.08	-46.7	-48.3	18.9	0.00e+00	0	43	0	238026752	65	4209
2026-01-23 05:44:03.36	54.10	13.16	-46.8	-48.3	18.8	0.00e+00	0	43	0	240123904	65	4242
2026-01-23 05:44:04.37	53.96	13.23	-46.7	-48.3	18.8	0.00e+00	0	43	0	241172480	65	4219
2026-01-23 05:44:05.38	53.82	13.30	-46.9	-48.5	18.7	0.00e+00	0	43	0	243269632	65	4313
2026-01-23 05:44:06.38	53.68	13.37	-46.6	-48.1	19.1	0.00e+00	0	43	0	245366784	65	4123
2026-01-23 05:44:07.39	53.54	13.44	-46.5	-48.0	19.2	0.00e+00	0	43	0	247463936	64	4314
2026-01-23 05:44:08.40	53.40	13.52	-46.5	-48.0	19.2	0.00e+00	0	43	0	249561088	64	4321
2026-01-23 05:44:09.41	53.25	13.59	-46.5	-48.0	19.2	0.00e+00	0	43	0	251658240	64	4316
2026-01-23 05:44:10.41	53.11	13.66	-46.3	-47.8	19.4	0.00e+00	0	43	0	252706816	64	4238
2026-01-23 05:44:11.42	52.97	13.73	-46.4	-47.9	19.3	0.00e+00	0	43	0	254803968	64	4255
2026-01-23 05:44:12.43	52.82	13.80	-46.4	-47.9	19.3	0.00e+00	0	43	0	256901120	64	4273
2026-01-23 05:44:13.44	52.67	13.88	-46.5	-48.0	19.2	0.00e+00	0	43	0	258998272	64	4320
2026-01-23 05:44:14.45	52.53	13.95	-46.5	-48.1	19.1	0.00e+00	0	43	0	261095424	64	4343
2026-01-23 05:44:15.46	52.38	14.02	-46.4	-47.9	19.3	0.00e+00	0	43	0	262144000	64	4272
2026-01-23 05:44:16.47	52.23	14.09	-46.3	-47.8	19.4	0.00e+00	0	43	0	264241152	64	4224
2026-01-23 05:44:17.47	52.09	14.16	-46.5	-48.0	19.2	0.00e+00	0	43	0	266338304	64	4308
2026-01-23 05:44:18.48	51.94	14.24	-46.5	-48.0	19.3	0.00e+00	0	43	0	268435456	64	4301
2026-01-23 05:44:19.49	51.79	14.31	-46.6	-48.1	19.1	0.00e+00	0	43	0	270532608	64	4380
2026-01-23 05:44:20.50	51.63	14.38	-46.6	-48.1	19.1	0.00e+00	0	43	0	271581184	64	4363
2026-01-23 05:44:21.50	51.48	14.45	-46.6	-48.1	19.1	0.00e+00	0	43	0	273678336	64	4391
2026-01-23 05:44:22.51	51.33	14.53	-46.6	-48.2	19.1	0.00e+00	0	43	0	275775488	64	4398
2026-01-23 05:44:23.52	51.18	14.60	-46.7	-48.2	19.0	0.00e+00	0	43	0	277872640	64	4421
2026-01-23 05:44:24.52	51.03	14.67	-46.7	-48.3	18.9	0.00e+00	0	43	0	279969792	64	4480
2026-01-23 05:44:25.53	50.87	14.74	-46.9	-48.5	18.7	0.00e+00	0	43	0	281018368	64	4567
2026-01-23 05:44:26.54	50.72	14.82	-46.9	-48.5	18.8	0.00e+00	0	43	0	283115520	64	4569
2026-01-23 05:44:27.55	50.56	14.89	-46.7	-48.3	19.0	0.00e+00	0	43	0	285212672	64	4445
2026-01-23 05:44:28.56	50.40	14.96	-46.7	-48.3	19.0	0.00e+00	0	43	0	287309824	64	4463
2026-01-23 05:44:29.56	50.25	15.03	-46.8	-48.3	18.9	0.00e+00	0	43	0	289406976	64	4492
2026-01-23 05:44:30.57	50.09	15.10	-46.8	-48.4	18.8	0.00e+00	0	43	0	290455552	64	4533
2026-01-23 05:44:31.58	49.93	15.18	-46.8	-48.4	18.8	0.00e+00	0	43	0	292552704	64	4523
2026-01-23 05:44:32.59	49.77	15.25	-47.0	-48.6	18.7	0.00e+00	0	43	0	294649856	64	4641
2026-01-23 05:44:33.60	49.61	15.32	-46.9	-48.5	18.7	0.00e+00	0	43	0	296747008	64	4578
2026-01-23 05:44:34.60	49.45	15.39	-47.0	-48.6	18.7	0.00e+00	0	43	0	298844160	64	4624
2026-01-23 05:44:35.61	49.28	15.47	-47.1	-48.7	18.6	0.00e+00	0	43	0	299892736	64	4692
2026-01-23 05:44:36.62	49.12	15.54	-46.9	-48.6	18.7	0.00e+00	0	43	0	301989888	64	4605
2026-01-23 05:44:37.63	48.96	15.61	-47.1	-48.8	18.6	0.00e+00	0	43	0	304087040	64	4714
2026-01-23 05:44:38.63	48.79	15.68	-47.1	-48.7	18.6	0.00e+00	0	43	0	306184192	64	4688
2026-01-23 05:44:39.64	48.63	15.75	-47.1	-48.7	18.6	0.00e+00	0	43	0	308281344	64	4686
2026-01-23 05:44:40.65	48.46	15.83	-47.2	-48.8	18.5	0.00e+00	0	43	0	309329920	64	4754
2026-01-23 05:44:41.66	48.29	15.90	-47.0	-48.7	18.6	0.00e+00	0	43	0	311427072	64	4677
2026-01-23 05:44:42.67	48.12	15.97	-47.1	-48.8	18.5	0.00e+00	0	43	0	313524224	64	4739
2026-01-23 05:44:43.68	47.96	16.04	-47.0	-48.7	18.6	0.00e+00	0	43	0	315621376	65	4411
2026-01-23 05:44:44.68	47.79	16.11	-47.1	-48.8	18.6	0.00e+00	0	43	0	317718528	65	4442
2026-01-23 05:44:45.69	47.62	16.19	-47.1	-48.8	18.5	0.00e+00	0	43	0	319815680	65	4474
2026-01-23 05:44:46.70	47.44	16.26	-47.0	-48.6	18.7	0.00e+00	0	43	0	320864256	65	4389
2026-01-23 05:44:47.71	47.27	16.33	-47.1	-48.8	18.6	0.00e+00	0	43	0	322961408	65	4470
2026-01-23 05:44:48.72	47.10	16.40	-47.1	-48.8	18.6	0.00e+00	0	43	0	325058560	65	4465
2026-01-23 05:44:49.73	46.92	16.47	-47.1	-48.7	18.6	0.00e+00	0	43	0	327155712	65	4429
2026-01-23 05:44:50.73	46.75	16.54	-47.2	-48.9	18.4	0.00e+00	0	43	0	328204288	65	4515
2026-01-23 05:44:51.74	46.58	16.62	-47.2	-48.8	18.6	0.00e+00	0	43	0	330301440	65	4485
2026-01-23 05:44:52.75	46.40	16.69	-47.2	-48.9	18.4	0.00e+00	0	43	0	332398592	65	4540
2026-01-23 05:44:53.76	46.22	16.76	-47.1	-48.7	18.6	0.00e+00	0	43	0	334495744	65	4438
2026-01-23 05:44:54.77	46.04	16.83	-47.2	-48.9	18.5	0.00e+00	0	43	0	336592896	65	4508
2026-01-23 05:44:55.77	45.87	16.90	-47.1	-48.8	18.6	0.00e+00	0	43	0	337641472	65	4448
2026-01-23 05:44:56.78	45.69	16.97	-47.0	-48.7	18.7	0.00e+00	0	43	0	339738624	65	4403
2026-01-23 05:44:57.79	45.50	17.04	-47.0	-48.7	18.7	0.00e+00	0	43	0	341835776	65	4403
2026-01-23 05:44:58.80	45.32	17.12	-47.2	-48.9	18.5	0.00e+00	0	43	0	343932928	65	4504
2026-01-23 05:44:59.81	45.14	17.19	-47.1	-48.7	18.6	0.00e+00	0	43	0	346030080	65	4412
2026-01-23 05:45:00.81	44.96	17.26	-47.1	-48.7	18.6	0.00e+00	0	43	0	348127232	65	4421
2026-01-23 05:45:01.82	44.77	17.33	-47.1	-48.7	18.7	0.00e+00	0	43	0	349175808	65	4412
2026-01-23 05:45:02.82	44.59	17.40	-47.1	-48.7	18.7	0.00e+00	0	43	0	351272960	65	4418
2026-01-23 05:45:03.83	44.40	17.47	-47.1	-48.8	18.5	0.00e+00	0	43	0	353370112	65	4468
2026-01-23 05:45:04.84	44.22	17.54	-47.1	-48.7	18.6	0.00e+00	0	43	0	355467264	65	4429
2026-01-23 05:45:05.85	44.03	17.61	-47.0	-48.6	18.8	0.00e+00	0	43	0	356515840	65	4380
2026-01-23 05:45:06.86	43.84	17.68	-46.9	-48.5	18.8	0.00e+00	0	43	0	358612992	65	4337
2026-01-23 05:45:07.87	43.65	17.75	-46.8	-48.4	19.0	0.00e+00	0	43	0	360710144	65	4269
2026-01-23 05:45:08.87	43.46	17.82	-46.8	-48.3	19.1	0.00e+00	0	43	0	362807296	65	4217
2026-01-23 05:45:09.88	43.27	17.89	-46.6	-48.1	19.3	0.00e+00	0	43	0	364904448	65	4130
2026-01-23 05:45:10.89	43.08	17.96	-46.6	-48.1	19.3	0.00e+00	0	43	0	367001600	65	4104
2026-01-23 05:45:11.90	42.88	18.03	-46.5	-47.9	19.4	0.00e+00	0	43	0	368050176	64	4282
2026-01-23 05:45:12.91	42.69	18.10	-46.4	-47.8	19.5	0.00e+00	0	43	0	370147328	64	4230
2026-01-23 05:45:13.91	42.50	18.17	-46.3	-47.8	19.6	0.00e+00	0	43	0	372244480	64	4203
2026-01-23 05:45:14.92	42.30	18.24	-46.4	-47.9	19.5	0.00e+00	0	43	0	374341632	64	4246
2026-01-23 05:45:15.93	42.10	18.30	-46.2	-47.6	19.6	0.00e+00	0	43	0	376438784	64	4126
2026-01-23 05:45:16.94	41.91	18.37	-46.1	-47.4	19.9	0.00e+00	0	43	0	377487360	64	4049
2026-01-23 05:45:17.95	41.71	18.44	-45.9	-47.3	20.2	0.00e+00	0	43	0	379584512	63	4204
2026-01-23 05:45:18.95	41.51	18.51	-45.9	-47.2	20.3	0.00e+00	0	43	0	381681664	63	4168
2026-01-23 05:45:19.96	41.31	18.58	-45.8	-47.1	20.3	0.00e+00	0	43	0	383778816	63	4114
2026-01-23 05:45:20.97	41.11	18.65	-45.7	-47.0	20.5	0.00e+00	0	43	0	384827392	63	4071
2026-01-23 05:45:21.98	40.91	18.71	-45.7	-47.0	20.4	0.00e+00	0	43	0	386924544	63	4084
2026-01-23 05:45:22.99	40.70	18.78	-45.5	-46.7	20.7	0.00e+00	0	43	0	389021696	62	4180
2026-01-23 05:45:23.99	40.50	18.85	-45.3	-46.6	20.8	0.00e+00	0	43	0	391118848	62	4102
2026-01-23 05:45:25.00	40.30	18.92	-45.3	-46.6	20.9	0.00e+00	0	43	0	393216000	62	4099
2026-01-23 05:45:26.01	40.09	18.98	-45.2	-46.5	20.9	0.00e+00	0	43	0	395313152	62	4056
2026-01-23 05:45:27.02	39.88	19.05	-45.2	-46.4	21.0	0.00e+00	0	43	0	396361728	62	4023
2026-01-23 05:45:28.03	39.68	19.12	-45.2	-46.4	21.0	0.00e+00	0	43	0	398458880	62	4045
2026-01-23 05:45:29.03	39.47	19.18	-45.4	-46.6	20.8	0.00e+00	0	43	0	400556032	62	4126
2026-01-23 05:45:30.04	39.26	19.25	-45.2	-46.4	21.0	0.00e+00	0	43	0	402653184	62	4023
2026-01-23 05:45:31.05	39.05	19.32	-45.1	-46.3	21.1	0.00e+00	0	43	0	404750336	62	3975
2026-01-23 05:45:32.06	38.84	19.38	-45.0	-46.1	21.2	0.00e+00	0	43	0	405798912	61	4142
2026-01-23 05:45:33.07	38.62	19.45	-45.0	-46.1	21.3	0.00e+00	0	43	0	407896064	61	4134
2026-01-23 05:45:34.07	38.41	19.51	-44.9	-46.1	21.3	0.00e+00	0	43	0	409993216	61	4115
2026-01-23 05:45:35.08	38.20	19.58	-44.9	-46.1	21.3	0.00e+00	0	43	0	412090368	61	4125
2026-01-23 05:45:36.09	37.98	19.64	-44.9	-46.1	21.3	0.00e+00	0	43	0	414187520	61	4114
2026-01-23 05:45:37.10	37.77	19.71	-45.0	-46.2	21.2	0.00e+00	0	43	0	415236096	61	4179
2026-01-23 05:45:38.11	37.55	19.77	-45.0	-46.2	21.2	0.00e+00	0	44	0	417333248	61	4183
2026-01-23 05:45:39.12	37.33	19.83	-44.9	-46.0	21.4	0.00e+00	0	43	0	419430400	61	4092
2026-01-23 05:45:40.12	37.12	19.90	-44.8	-45.9	21.5	0.00e+00	0	43	0	421527552	61	4032
2026-01-23 05:45:41.13	36.90	19.96	-44.8	-46.0	21.4	0.00e+00	0	43	0	423624704	61	4064
2026-01-23 05:45:42.14	36.68	20.02	-44.7	-45.9	21.5	0.00e+00	0	43	0	424673280	61	4010
2026-01-23 05:45:43.14	36.46	20.09	-44.7	-45.8	21.5	0.00e+00	0	43	0	426770432	61	4004
2026-01-23 05:45:44.15	36.23	20.15	-44.7	-45.8	21.6	0.00e+00	0	43	0	428867584	61	4002
2026-01-23 05:45:45.15	36.01	20.21	-44.5	-45.7	21.8	0.00e+00	0	43	0	430964736	61	3914
2026-01-23 05:45:46.16	35.79	20.27	-44.6	-45.8	21.6	0.00e+00	0	43	0	433061888	61	3972
2026-01-23 05:45:47.17	35.56	20.34	-44.6	-45.8	21.6	0.00e+00	0	43	0	434110464	61	3972
2026-01-23 05:45:48.18	35.34	20.40	-44.6	-45.7	21.7	0.00e+00	0	43	0	436207616	61	3945
2026-01-23 05:45:49.19	35.11	20.46	-44.7	-45.8	21.6	0.00e+00	0	43	0	438304768	61	3980
2026-01-23 05:45:50.20	34.88	20.52	-44.7	-45.9	21.5	0.00e+00	0	43	0	440401920	61	4020
2026-01-23 05:45:51.20	34.65	20.58	-44.6	-45.7	21.7	0.00e+00	0	43	0	442499072	61	3958
2026-01-23 05:45:52.21	34.42	20.64	-44.7	-45.9	21.5	0.00e+00	0	43	0	443547648	61	4017
2026-01-23 05:45:53.22	34.19	20.70	-44.7	-45.9	21.5	0.00e+00	0	43	0	445644800	61	4014
2026-01-23 05:45:54.23	33.96	20.76	-44.8	-45.9	21.5	0.00e+00	0	43	0	447741952	61	4026
2026-01-23 05:45:55.24	33.73	20.82	-44.7	-45.9	21.5	0.00e+00	0	43	0	449839104	61	4009
2026-01-23 05:45:56.24	33.50	20.87	-44.8	-45.9	21.5	0.00e+00	0	43	0	451936256	61	4039
2026-01-23 05:45:57.25	33.26	20.93	-44.8	-45.9	21.5	0.00e+00	0	43	0	452984832	61	4050
2026-01-23 05:45:58.26	33.03	20.99	-44.8	-45.9	21.5	0.00e+00	0	43	0	455081984	61	4029
2026-01-23 05:45:59.27	32.79	21.05	-44.8	-45.9	21.5	0.00e+00	0	43	0	457179136	61	4031
2026-01-23 05:46:00.28	32.56	21.11	-44.8	-45.9	21.5	0.00e+00	0	43	0	459276288	61	4038
2026-01-23 05:46:01.28	32.32	21.16	-44.8	-46.0	21.5	0.00e+00	0	43	0	461373440	61	4062
2026-01-23 05:46:02.29	32.08	21.22	-44.9	-46.0	21.4	0.00e+00	0	43	0	462422016	61	4090
2026-01-23 05:46:03.30	31.84	21.27	-44.8	-45.9	21.5	0.00e+00	0	43	0	464519168	61	4049
2026-01-23 05:46:04.31	31.60	21.33	-44.8	-45.9	21.6	0.00e+00	0	43	0	466616320	61	4021
2026-01-23 05:46:05.32	31.36	21.38	-44.8	-46.0	21.4	0.00e+00	0	43	0	468713472	61	4065
2026-01-23 05:46:06.32	31.12	21.44	-44.7	-45.8	21.6	0.00e+00	0	43	0	470810624	61	3980
2026-01-23 05:46:07.33	30.88	21.49	-44.5	-45.7	21.8	0.00e+00	0	43	0	471859200	61	3916
2026-01-23 05:46:08.34	30.63	21.55	-44.7	-45.8	21.6	0.00e+00	0	43	0	473956352	61	3972
2026-01-23 05:46:09.35	30.39	21.60	-44.4	-45.5	21.8	0.00e+00	0	43	0	476053504	60	4078
2026-01-23 05:46:10.36	30.14	21.65	-44.3	-45.4	22.0	0.00e+00	0	43	0	478150656	60	4015
2026-01-23 05:46:11.36	29.90	21.71	-44.3	-45.4	22.0	0.00e+00	0	43	0	480247808	60	4027
2026-01-23 05:46:12.37	29.65	21.76	-44.2	-45.3	22.1	0.00e+00	0	43	0	481296384	60	3973
2026-01-23 05:46:13.38	29.40	21.81	-44.3	-45.4	22.1	0.00e+00	0	43	0	483393536	60	4020
2026-01-23 05:46:14.39	29.15	21.86	-44.4	-45.5	21.9	0.00e+00	0	43	0	485490688	60	4058
2026-01-23 05:46:15.39	28.91	21.91	-44.5	-45.6	21.8	0.00e+00	0	43	0	487587840	60	4124
2026-01-23 05:46:16.40	28.66	21.96	-44.4	-45.4	22.0	0.00e+00	0	43	0	489684992	60	4043
2026-01-23 05:46:17.41	28.40	22.01	-44.5	-45.6	21.9	0.00e+00	0	43	0	490733568	60	4109
2026-01-23 05:46:18.42	28.15	22.06	-44.5	-45.6	21.8	0.00e+00	0	43	0	492830720	60	4139
2026-01-23 05:46:19.43	27.90	22.11	-44.4	-45.5	22.0	0.00e+00	0	43	0	494927872	60	4063
2026-01-23 05:46:20.44	27.65	22.16	-44.2	-45.3	22.1	0.00e+00	0	43	0	497025024	60	3980
2026-01-23 05:46:21.44	27.39	22.20	-44.1	-45.2	22.2	0.00e+00	0	43	0	499122176	60	3929
2026-01-23 05:46:22.45	27.14	22.25	-44.1	-45.2	22.2	0.00e+00	0	43	0	500170752	60	3926
2026-01-23 05:46:23.46	26.88	22.30	-44.2	-45.2	22.2	0.00e+00	0	43	0	502267904	60	3945
2026-01-23 05:46:24.46	26.63	22.34	-44.1	-45.2	22.2	0.00e+00	0	43	0	504365056	60	3925
2026-01-23 05:46:25.47	26.37	22.39	-44.3	-45.3	22.1	0.00e+00	0	43	0	506462208	60	3998
2026-01-23 05:46:26.48	26.11	22.43	-44.2	-45.3	22.1	0.00e+00	0	43	0	508559360	60	3978
2026-01-23 05:46:27.49	25.85	22.48	-44.0	-45.1	22.4	0.00e+00	0	43	0	510656512	60	3872
2026-01-23 05:46:28.50	25.59	22.52	-44.1	-45.2	22.3	0.00e+00	0	43	0	511705088	60	3929
2026-01-23 05:46:29.50	25.33	22.56	-44.2	-45.3	22.2	0.00e+00	0	43	0	513802240	60	3976
2026-01-23 05:46:30.51	25.07	22.61	-44.3	-45.3	22.1	0.00e+00	0	43	0	515899392	60	3997
2026-01-23 05:46:31.52	24.81	22.65	-44.4	-45.5	22.0	0.00e+00	0	44	0	517996544	60	4067
2026-01-23 05:46:32.52	24.55	22.69	-44.4	-45.5	21.9	0.00e+00	0	43	0	519045120	60	4093
2026-01-23 05:46:33.53	24.29	22.73	-44.4	-45.5	22.0	0.00e+00	0	43	0	521142272	60	4069
2026-01-23 05:46:34.54	24.02	22.77	-44.5	-45.6	21.9	0.00e+00	0	43	0	523239424	60	4107
2026-01-23 05:46:35.55	23.76	22.81	-44.6	-45.7	21.8	0.00e+00	0	43	0	525336576	60	4165
2026-01-23 05:46:36.56	23.49	22.85	-44.5	-45.6	21.8	0.00e+00	0	43	0	527433728	60	4136
2026-01-23 05:46:37.57	23.23	22.89	-44.5	-45.6	21.8	0.00e+00	0	43	0	528482304	60	4140
2026-01-23 05:46:38.57	22.96	22.93	-44.4	-45.5	22.0	0.00e+00	0	43	0	530579456	60	4069
2026-01-23 05:46:39.58	22.69	22.96	-44.4	-45.5	22.0	0.00e+00	0	43	0	532676608	60	4066
2026-01-23 05:46:40.59	22.43	23.00	-44.5	-45.5	21.9	0.00e+00	0	43	0	534773760	60	4097
2026-01-23 05:46:41.59	22.16	23.04	-44.8	-45.9	21.6	0.00e+00	0	43	0	536870912	60	4261
2026-01-23 05:46:42.60	21.89	23.07	-44.9	-46.1	21.4	0.00e+00	0	43	0	538968064	60	4354
2026-01-23 05:46:43.61	21.62	23.11	-45.2	-46.3	21.2	0.00e+00	0	43	0	540016640	60	4487
2026-01-23 05:46:44.62	21.35	23.14	-45.3	-46.5	21.0	0.00e+00	0	43	0	542113792	61	4339
2026-01-23 05:46:45.63	21.08	23.17	-45.5	-46.7	20.8	0.00e+00	0	43	0	544210944	61	4436
2026-01-23 05:46:46.64	20.81	23.21	-45.6	-46.8	20.8	0.00e+00	0	43	0	546308096	61	4473
2026-01-23 05:46:47.65	20.53	23.24	-45.6	-46.9	20.7	0.00e+00	0	43	0	547356672	61	4511
2026-01-23 05:46:48.65	20.26	23.27	-45.7	-46.9	20.6	0.00e+00	0	43	0	549453824	61	4545
2026-01-23 05:46:49.66	19.99	23.30	-45.8	-47.0	20.5	0.00e+00	0	43	0	551550976	62	4329
2026-01-23 05:46:50.67	19.72	23.33	-45.8	-47.1	20.5	0.00e+00	0	43	0	553648128	62	4368
2026-01-23 05:46:51.68	19.44	23.36	-45.7	-46.9	20.6	0.00e+00	0	43	0	555745280	62	4287
2026-01-23 05:46:52.69	19.17	23.39	-45.8	-47.2	20.4	0.00e+00	0	43	0	557842432	62	4395
2026-01-23 05:46:53.69	18.89	23.42	-45.9	-47.2	20.4	0.00e+00	0	43	0	558891008	62	4419
2026-01-23 05:46:54.70	18.62	23.45	-46.0	-47.4	20.3	0.00e+00	0	43	0	560988160	62	4497
2026-01-23 05:46:55.71	18.34	23.47	-46.1	-47.4	20.2	0.00e+00	0	43	0	563085312	62	4525
2026-01-23 05:46:56.72	18.06	23.50	-46.0	-47.4	20.2	0.00e+00	0	43	0	565182464	62	4494
2026-01-23 05:46:57.73	17.79	23.52	-45.9	-47.3	20.3	0.00e+00	0	43	0	567279616	62	4446
2026-01-23 05:46:58.73	17.51	23.55	-46.1	-47.4	20.2	0.00e+00	0	43	0	568328192	62	4524
2026-01-23 05:46:59.74	17.23	23.57	-46.3	-47.7	20.0	0.00e+00	0	43	0	570425344	63	4402
2026-01-23 05:47:00.75	16.95	23.60	-46.5	-47.9	19.7	0.00e+00	0	43	0	572522496	63	4512
2026-01-23 05:47:01.76	16.68	23.62	-46.4	-47.8	19.8	0.00e+00	0	44	0	574619648	63	4480
2026-01-23 05:47:02.77	16.40	23.64	-46.3	-47.7	19.9	0.00e+00	0	43	0	575668224	63	4440
2026-01-23 05:47:03.77	16.12	23.66	-46.3	-47.7	20.0	0.00e+00	0	43	0	577765376	63	4398
2026-01-23 05:47:04.78	15.84	23.68	-46.3	-47.7	20.0	0.00e+00	0	43	0	579862528	63	4404
2026-01-23 05:47:05.79	15.56	23.70	-46.5	-48.0	19.7	0.00e+00	0	43	0	581959680	63	4550
2026-01-23 05:47:06.80	15.28	23.72	-46.6	-48.1	19.6	0.00e+00	0	43	0	584056832	63	4622
2026-01-23 05:47:07.81	15.00	23.74	-46.7	-48.2	19.5	0.00e+00	0	43	0	586153984	63	4673
2026-01-23 05:47:08.81	14.72	23.76	-46.5	-48.0	19.7	0.00e+00	0	43	0	587202560	63	4562
2026-01-23 05:47:09.82	14.43	23.77	-46.6	-48.0	19.6	0.00e+00	0	43	0	589299712	63	4573
2026-01-23 05:47:10.83	14.15	23.79	-46.3	-47.7	19.9	0.00e+00	0	44	0	591396864	63	4434
2026-01-23 05:47:11.84	13.87	23.81	-46.1	-47.5	20.2	0.00e+00	0	43	0	593494016	63	4309
2026-01-23 05:47:12.85	13.59	23.82	-46.1	-47.4	20.2	0.00e+00	0	43	0	595591168	63	4287
2026-01-23 05:47:13.85	13.31	23.83	-46.2	-47.5	20.1	0.00e+00	0	43	0	596639744	63	4323
2026-01-23 05:47:14.86	13.02	23.85	-46.2	-47.5	20.1	0.00e+00	0	43	0	598736896	63	4328
2026-01-23 05:47:15.87	12.74	23.86	-46.2	-47.5	20.1	0.00e+00	0	43	0	600834048	63	4325
2026-01-23 05:47:16.87	12.46	23.87	-46.2	-47.6	20.0	0.00e+00	0	43	0	602931200	63	4354
2026-01-23 05:47:17.88	12.17	23.88	-46.3	-47.6	20.0	0.00e+00	0	43	0	605028352	63	4381
2026-01-23 05:47:18.89	11.89	23.89	-46.3	-47.7	19.9	0.00e+00	0	43	0	606076928	63	4395
2026-01-23 05:47:19.90	11.61	23.90	-46.3	-47.7	19.9	0.00e+00	0	43	0	608174080	63	4428
2026-01-23 05:47:20.91	11.32	23.91	-46.3	-47.7	19.9	0.00e+00	0	43	0	610271232	63	4421
2026-01-23 05:47:21.92	11.04	23.92	-46.4	-47.8	19.8	0.00e+00	0	43	0	612368384	63	4463
2026-01-23 05:47:22.93	10.75	23.92	-46.3	-47.7	19.9	0.00e+00	0	43	0	614465536	63	4401
2026-01-23 05:47:23.94	10.47	23.93	-46.2	-47.5	20.1	0.00e+00	0	43	0	615514112	63	4337
2026-01-23 05:47:24.95	10.18	23.94	-46.1	-47.4	20.2	0.00e+00	0	43	0	617611264	63	4289
2026-01-23 05:47:25.95	9.90	23.94	-46.0	-47.3	20.3	0.00e+00	0	43	0	619708416	63	4233
2026-01-23 05:47:26.96	9.61	23.94	-46.0	-47.4	20.2	0.00e+00	0	43	0	621805568	63	4258
2026-01-23 05:47:27.97	9.33	23.95	-46.1	-47.4	20.2	0.00e+00	0	43	0	623902720	63	4286
2026-01-23 05:47:28.98	9.04	23.95	-46.2	-47.5	20.1	0.00e+00	0	43	0	624951296	63	4324
2026-01-23 05:47:29.99	8.76	23.95	-46.1	-47.4	20.2	0.00e+00	0	43	0	627048448	63	4270
2026-01-23 05:47:30.99	8.48	23.95	-45.9	-47.2	20.4	0.00e+00	0	43	0	629145600	63	4167
2026-01-23 05:47:32.00	8.19	23.95	-45.9	-47.2	20.4	0.00e+00	0	43	0	631242752	63	4189
2026-01-23 05:47:33.01	7.90	23.95	-45.8	-47.0	20.6	0.00e+00	0	43	0	633339904	63	4092
2026-01-23 05:47:34.02	7.62	23.95	-45.7	-47.0	20.7	0.00e+00	0	43	0	634388480	63	4055
2026-01-23 05:47:35.03	7.33	23.95	-45.7	-47.0	20.6	0.00e+00	0	43	0	636485632	63	4072
2026-01-23 05:47:36.04	7.05	23.94	-45.7	-46.9	20.7	0.00e+00	0	43	0	638582784	63	4035
2026-01-23 05:47:37.05	6.76	23.94	-45.5	-46.7	20.8	0.00e+00	0	43	0	640679936	63	3942
2026-01-23 05:47:38.05	6.48	23.94	-45.4	-46.6	20.9	0.00e+00	0	43	0	642777088	62	4137
2026-01-23 05:47:39.06	6.20	23.93	-45.3	-46.5	21.1	0.00e+00	0	43	0	643825664	62	4084
2026-01-23 05:47:40.07	5.91	23.92	-45.4	-46.6	21.0	0.00e+00	0	43	0	645922816	62	4117
2026-01-23 05:47:41.08	5.63	23.92	-45.4	-46.7	20.9	0.00e+00	0	43	0	648019968	62	4160
2026-01-23 05:47:42.09	5.34	23.91	-45.5	-46.8	20.8	0.00e+00	0	43	0	650117120	62	4200
2026-01-23 05:47:43.09	5.06	23.90	-45.3	-46.5	21.1	0.00e+00	0	43	0	652214272	62	4064
2026-01-23 05:47:44.10	4.78	23.89	-45.0	-46.2	21.4	0.00e+00	0	43	0	654311424	62	3944
2026-01-23 05:47:45.11	4.49	23.88	-45.0	-46.2	21.3	0.00e+00	0	43	0	655360000	61	4177
2026-01-23 05:47:46.12	4.21	23.87	-44.9	-46.0	21.5	0.00e+00	0	43	0	657457152	61	4089
2026-01-23 05:47:47.13	3.92	23.86	-44.6	-45.7	21.8	0.00e+00	0	43	0	659554304	61	3939
2026-01-23 05:47:48.14	3.64	23.85	-44.4	-45.5	22.0	0.00e+00	0	43	0	661651456	60	4077
2026-01-23 05:47:49.15	3.36	23.84	-44.3	-45.4	22.0	0.00e+00	0	43	0	662700032	60	4034
2026-01-23 05:47:50.16	3.07	23.82	-44.4	-45.4	22.1	0.00e+00	0	43	0	664797184	60	4046
2026-01-23 05:47:51.17	2.79	23.81	-44.1	-45.2	22.2	0.00e+00	0	43	0	666894336	60	3934
2026-01-23 05:47:52.18	2.51	23.79	-44.2	-45.2	22.2	0.00e+00	0	43	0	668991488	60	3942
2026-01-23 05:47:53.19	2.23	23.78	-44.1	-45.2	22.3	0.00e+00	0	43	0	671088640	60	3923
2026-01-23 05:47:54.19	1.95	23.76	-44.1	-45.2	22.3	0.00e+00	0	43	0	673185792	60	3916
2026-01-23 05:47:55.20	1.66	23.74	-44.2	-45.3	22.2	0.00e+00	0	43	0	674234368	60	3988
2026-01-23 05:47:56.21	1.38	23.72	-44.3	-45.4	22.4	0.00e+00	0	43	0	676331520	59	4250
2026-01-23 05:47:57.22	1.10	23.71	-44.4	-45.4	22.3	0.00e+00	0	43	0	678428672	59	4289
2026-01-23 05:47:58.23	0.82	23.69	-44.3	-45.3	22.4	0.00e+00	0	43	0	680525824	59	4240
2026-01-23 05:47:59.24	0.54	23.67	-44.2	-45.3	22.5	0.00e+00	0	43	0	682622976	59	4206
2026-01-23 05:48:00.24	0.26	23.65	-44.3	-45.4	22.4	0.00e+00	0	43	0	683671552	59	4275
2026-01-23 05:48:01.25	359.98	23.62	-44.2	-45.3	22.5	0.00e+00	0	43	0	685768704	59	4214
2026-01-23 05:48:02.26	359.71	23.60	-44.2	-45.2	22.5	0.00e+00	0	43	0	687865856	59	4191
2026-01-23 05:48:03.27	359.43	23.58	-44.0	-45.0	22.7	0.00e+00	0	43	0	689963008	59	4096
2026-01-23 05:48:04.28	359.15	23.55	-44.0	-45.1	22.7	0.00e+00	0	43	0	692060160	59	4102
2026-01-23 05:48:05.29	358.87	23.53	-44.0	-45.0	22.7	0.00e+00	0	43	0	693108736	59	4077
2026-01-23 05:48:06.30	358.59	23.50	-44.1	-45.2	22.5	0.00e+00	0	43	0	695205888	59	4163
2026-01-23 05:48:07.31	358.32	23.48	-44.2	-45.2	22.5	0.00e+00	0	43	0	697303040	59	4193
2026-01-23 05:48:08.31	358.04	23.45	-44.2	-45.3	22.5	0.00e+00	0	43	0	699400192	59	4211
2026-01-23 05:48:09.32	357.77	23.42	-44.3	-45.4	22.4	0.00e+00	0	43	0	701497344	59	4259
2026-01-23 05:48:10.33	357.49	23.40	-44.5	-45.6	22.2	0.00e+00	0	43	0	702545920	59	4366
2026-01-23 05:48:11.34	357.21	23.37	-44.5	-45.6	22.2	0.00e+00	0	43	0	704643072	59	4350
2026-01-23 05:48:12.35	356.94	23.34	-44.5	-45.6	22.2	0.00e+00	0	43	0	706740224	59	4369
2026-01-23 05:48:13.36	356.67	23.31	-44.5	-45.6	22.1	0.00e+00	0	43	0	708837376	59	4360
2026-01-23 05:48:14.36	356.40	23.28	-44.6	-45.7	22.1	0.00e+00	0	43	0	710934528	59	4396
2026-01-23 05:48:15.37	356.12	23.25	-44.5	-45.6	22.2	0.00e+00	0	43	0	711983104	59	4353
2026-01-23 05:48:16.38	355.85	23.21	-44.6	-45.7	22.2	0.00e+00	0	43	0	714080256	59	4393
2026-01-23 05:48:17.39	355.58	23.18	-44.3	-45.4	22.1	0.00e+00	0	43	0	716177408	60	4025
2026-01-23 05:48:18.39	355.31	23.15	-44.4	-45.4	22.0	0.00e+00	0	43	0	718274560	60	4043
2026-01-23 05:48:19.40	355.04	23.11	-44.5	-45.5	21.9	0.00e+00	0	43	0	720371712	60	4097
2026-01-23 05:48:20.41	354.77	23.08	-44.5	-45.6	21.9	0.00e+00	0	43	0	721420288	60	4130
2026-01-23 05:48:21.42	354.50	23.04	-44.7	-45.8	21.7	0.00e+00	0	43	0	723517440	60	4204
2026-01-23 05:48:22.43	354.23	23.01	-44.8	-45.9	21.6	0.00e+00	0	43	0	725614592	60	4261
2026-01-23 05:48:23.43	353.97	22.97	-44.9	-46.0	21.5	0.00e+00	0	43	0	727711744	60	4336
2026-01-23 05:48:24.44	353.70	22.93	-45.0	-46.1	21.4	0.00e+00	0	43	0	729808896	60	4377
2026-01-23 05:48:25.45	353.43	22.90	-45.0	-46.2	21.3	0.00e+00	0	43	0	730857472	60	4412
2026-01-23 05:48:26.46	353.16	22.86	-45.0	-46.2	21.3	0.00e+00	0	43	0	732954624	60	4422
2026-01-23 05:48:27.47	352.90	22.82	-44.9	-46.1	21.4	0.00e+00	0	43	0	735051776	60	4351
2026-01-23 05:48:28.47	352.64	22.78	-45.0	-46.1	21.4	0.00e+00	0	43	0	737148928	60	4386
2026-01-23 05:48:29.48	352.37	22.74	-45.1	-46.2	21.3	0.00e+00	0	43	0	739246080	60	4425
2026-01-23 05:48:30.49	352.11	22.70	-45.1	-46.3	21.2	0.00e+00	0	43	0	740294656	60	4457
2026-01-23 05:48:31.50	351.85	22.66	-45.2	-46.4	21.1	0.00e+00	0	43	0	742391808	60	4528
2026-01-23 05:48:32.51	351.58	22.61	-45.3	-46.5	21.0	0.00e+00	0	43	0	744488960	61	4316
2026-01-23 05:48:33.52	351.32	22.57	-45.5	-46.8	20.8	0.00e+00	0	44	0	746586112	61	4450
2026-01-23 05:48:34.52	351.06	22.53	-45.6	-46.9	20.7	0.00e+00	0	43	0	748683264	61	4505
2026-01-23 05:48:35.53	350.80	22.49	-45.7	-47.0	20.6	0.00e+00	0	43	0	749731840	62	4307
2026-01-23 05:48:36.54	350.55	22.44	-45.7	-47.0	20.6	0.00e+00	0	43	0	751828992	62	4306
2026-01-23 05:48:37.55	350.29	22.40	-45.7	-46.9	20.6	0.00e+00	0	43	0	753926144	62	4291
2026-01-23 05:48:38.56	350.03	22.35	-45.7	-46.9	20.6	0.00e+00	0	43	0	756023296	62	4287
2026-01-23 05:48:39.56	349.78	22.31	-45.6	-46.9	20.7	0.00e+00	0	43	0	758120448	62	4255
2026-01-23 05:48:40.57	349.52	22.26	-45.6	-46.9	20.7	0.00e+00	0	43	0	759169024	62	4257
2026-01-23 05:48:41.58	349.26	22.21	-45.6	-46.9	20.6	0.00e+00	0	43	0	761266176	62	4259
2026-01-23 05:48:42.59	349.01	22.16	-45.7	-47.0	20.5	0.00e+00	0	43	0	763363328	62	4332
2026-01-23 05:48:43.59	348.76	22.12	-45.7	-47.0	20.6	0.00e+00	0	43	0	765460480	62	4308
2026-01-23 05:48:44.60	348.50	22.07	-45.9	-47.2	20.3	0.00e+00	0	43	0	767557632	62	4438
2026-01-23 05:48:45.61	348.25	22.02	-45.9	-47.3	20.3	0.00e+00	0	43	0	768606208	62	4448
2026-01-23 05:48:46.62	348.00	21.97	-46.1	-47.5	20.1	0.00e+00	0	43	0	770703360	62	4561
2026-01-23 05:48:47.63	347.75	21.92	-46.0	-47.4	20.1	0.00e+00	0	43	0	772800512	62	4511
2026-01-23 05:48:48.63	347.50	21.87	-46.1	-47.4	20.1	0.00e+00	0	43	0	774897664	62	4535
2026-01-23 05:48:49.64	347.25	21.82	-46.2	-47.5	20.0	0.00e+00	0	43	0	776994816	62	4587
2026-01-23 05:48:50.65	347.01	21.77	-46.2	-47.5	20.1	0.00e+00	0	43	0	778043392	62	4592
2026-01-23 05:48:51.66	346.76	21.72	-46.2	-47.5	20.1	0.00e+00	0	43	0	780140544	62	4583
2026-01-23 05:48:52.67	346.51	21.66	-46.0	-47.4	20.2	0.00e+00	0	43	0	782237696	62	4504
2026-01-23 05:48:53.68	346.27	21.61	-46.1	-47.5	20.1	0.00e+00	0	43	0	784334848	62	4556
2026-01-23 05:48:54.68	346.02	21.56	-45.8	-47.1	20.3	0.00e+00	0	43	0	786432000	62	4387
2026-01-23 05:48:55.69	345.78	21.50	-45.9	-47.2	20.3	0.00e+00	0	43	0	788529152	62	4431
2026-01-23 05:48:56.70	345.54	21.45	-46.0	-47.4	20.2	0.00e+00	0	43	0	789577728	62	4503
2026-01-23 05:48:57.71	345.30	21.40	-46.2	-47.6	20.0	0.00e+00	0	43	0	791674880	63	4366
2026-01-23 05:48:58.72	345.05	21.34	-46.3	-47.6	19.9	0.00e+00	0	43	0	793772032	63	4391
2026-01-23 05:48:59.73	344.81	21.29	-46.2	-47.6	20.0	0.00e+00	0	43	0	795869184	63	4369
2026-01-23 05:49:00.74	344.57	21.23	-46.1	-47.5	20.1	0.00e+00	0	43	0	796917760	63	4306
2026-01-23 05:49:01.75	344.34	21.17	-46.0	-47.4	20.2	0.00e+00	0	43	0	799014912	63	4252
2026-01-23 05:49:02.75	344.10	21.12	-46.0	-47.3	20.2	0.00e+00	0	43	0	801112064	63	4210
2026-01-23 05:49:03.76	343.86	21.06	-45.9	-47.2	20.3	0.00e+00	0	43	0	803209216	63	4189
2026-01-23 05:49:04.77	343.63	21.00	-46.0	-47.3	20.3	0.00e+00	0	44	0	805306368	63	4212
2026-01-23 05:49:05.78	343.39	20.94	-45.9	-47.2	20.3	0.00e+00	0	44	0	806354944	63	4177
2026-01-23 05:49:06.79	343.16	20.89	-46.0	-47.3	20.3	0.00e+00	0	43	0	808452096	63	4223
2026-01-23 05:49:07.79	342.93	20.83	-46.1	-47.4	20.1	0.00e+00	0	43	0	810549248	63	4291
2026-01-23 05:49:08.80	342.69	20.77	-46.0	-47.3	20.2	0.00e+00	0	43	0	812646400	63	4234
2026-01-23 05:49:09.81	342.46	20.71	-45.9	-47.2	20.3	0.00e+00	0	43	0	814743552	63	4178
2026-01-23 05:49:10.82	342.23	20.65	-45.8	-47.1	20.4	0.00e+00	0	44	0	816840704	63	4141
2026-01-23 05:49:11.83	342.00	20.59	-45.8	-47.0	20.5	0.00e+00	0	43	0	817889280	63	4094
2026-01-23 05:49:12.84	341.77	20.53	-45.7	-46.9	20.6	0.00e+00	0	43	0	819986432	63	4041
2026-01-23 05:49:13.85	341.54	20.47	-45.6	-46.8	20.7	0.00e+00	0	43	0	822083584	63	3999
2026-01-23 05:49:14.85	341.32	20.41	-45.6	-46.8	20.7	0.00e+00	0	43	0	824180736	63	3996
2026-01-23 05:49:15.86	341.09	20.35	-45.6	-46.8	20.7	0.00e+00	0	43	0	825229312	63	3992
2026-01-23 05:49:16.87	340.87	20.29	-45.6	-46.9	20.6	0.00e+00	0	43	0	827326464	63	4023
2026-01-23 05:49:17.88	340.64	20.22	-45.5	-46.8	20.7	0.00e+00	0	43	0	829423616	63	3979
2026-01-23 05:49:18.88	340.42	20.16	-45.6	-46.8	20.6	0.00e+00	0	43	0	831520768	63	4000
2026-01-23 05:49:19.89	340.20	20.10	-45.5	-46.7	20.8	0.00e+00	0	43	0	833617920	63	3947
2026-01-23 05:49:20.90	339.98	20.04	-45.4	-46.7	20.8	0.00e+00	0	44	0	835715072	62	4152
2026-01-23 05:49:21.91	339.76	19.97	-45.5	-46.7	20.8	0.00e+00	0	44	0	836763648	62	4174
2026-01-23 05:49:22.92	339.54	19.91	-45.5	-46.7	20.7	0.00e+00	0	44	0	838860800	62	4187
2026-01-23 05:49:23.93	339.32	19.85	-45.4	-46.7	20.8	0.00e+00	0	43	0	840957952	62	4163
2026-01-23 05:49:24.93	339.10	19.78	-45.6	-46.8	20.7	0.00e+00	0	43	0	843055104	62	4230
2026-01-23 05:49:25.94	338.89	19.72	-45.7	-46.9	20.6	0.00e+00	0	43	0	845152256	62	4282
2026-01-23 05:49:26.95	338.67	19.65	-45.6	-46.9	20.6	0.00e+00	0	43	0	846200832	62	4250
2026-01-23 05:49:27.96	338.46	19.59	-45.6	-46.9	20.6	0.00e+00	0	43	0	848297984	62	4273
2026-01-23 05:49:28.97	338.24	19.53	-45.7	-46.9	20.5	0.00e+00	0	43	0	850395136	62	4283
2026-01-23 05:49:29.97	338.03	19.46	-45.7	-46.9	20.5	0.00e+00	0	43	0	852492288	62	4287
2026-01-23 05:49:30.98	337.82	19.39	-45.5	-46.7	20.7	0.00e+00	0	43	0	854589440	62	4193
2026-01-23 05:49:31.99	337.61	19.33	-45.5	-46.8	20.7	0.00e+00	0	43	0	855638016	62	4196
2026-01-23 05:49:33.00	337.40	19.26	-45.6	-46.9	20.6	0.00e+00	0	43	0	857735168	62	4254
2026-01-23 05:49:34.01	337.19	19.20	-45.5	-46.8	20.7	0.00e+00	0	43	0	859832320	62	4205
2026-01-23 05:49:35.02	336.98	19.13	-45.6	-46.8	20.6	0.00e+00	0	43	0	861929472	62	4238
2026-01-23 05:49:36.03	336.77	19.06	-45.6	-46.9	20.5	0.00e+00	0	43	0	864026624	62	4284
2026-01-23 05:49:37.04	336.56	19.00	-45.6	-46.9	20.5	0.00e+00	0	43	0	865075200	62	4285
2026-01-23 05:49:38.04	336.36	18.93	-45.7	-46.9	20.5	0.00e+00	0	43	0	867172352	62	4290
2026-01-23 05:49:39.06	336.15	18.86	-45.6	-46.9	20.6	0.00e+00	0	44	0	869269504	62	4260
2026-01-23 05:49:40.06	335.95	18.80	-45.6	-46.9	20.6	1.50e-06	0	43	0	871366656	62	4260
2026-01-23 05:49:41.08	335.74	18.73	-45.6	-46.8	20.7	0.00e+00	0	43	0	873463808	62	4227
2026-01-23 05:49:42.08	335.54	18.66	-45.7	-47.0	20.5	7.00e-07	0	43	0	875560960	62	4301
2026-01-23 05:49:43.09	335.34	18.59	-45.6	-46.9	20.5	0.00e+00	0	43	0	876609536	62	4286
2026-01-23 05:49:44.10	335.14	18.52	-45.7	-47.0	20.5	0.00e+00	0	43	0	878706688	62	4301
2026-01-23 05:49:45.11	334.94	18.46	-45.7	-47.0	20.4	0.00e+00	0	43	0	880803840	62	4334
2026-01-23 05:49:46.12	334.74	18.39	-45.7	-47.1	20.4	0.00e+00	0	43	0	882900992	62	4343
2026-01-23 05:49:47.13	334.55	18.32	-45.8	-47.1	20.3	1.50e-06	0	43	0	883949568	62	4371
2026-01-23 05:49:48.14	334.35	18.25	-45.7	-47.0	20.4	0.00e+00	0	43	0	886046720	62	4310
2026-01-23 05:49:49.15	334.15	18.18	-45.7	-47.0	20.5	0.00e+00	0	43	0	888143872	62	4306
2026-01-23 05:49:50.15	333.96	18.11	-45.7	-47.0	20.5	0.00e+00	0	44	0	890241024	62	4312
2026-01-23 05:49:51.16	333.77	18.04	-45.6	-46.9	20.5	0.00e+00	0	43	0	892338176	62	4258
2026-01-23 05:49:52.17	333.57	17.97	-45.5	-46.8	20.6	0.00e+00	0	43	0	893386752	62	4220
2026-01-23 05:49:53.18	333.38	17.90	-45.5	-46.8	20.7	0.00e+00	0	43	0	895483904	62	4210
2026-01-23 05:49:54.19	333.19	17.83	-45.6	-46.8	20.6	0.00e+00	0	43	0	897581056	62	4240
2026-01-23 05:49:55.20	333.00	17.76	-45.5	-46.8	20.7	0.00e+00	0	43	0	899678208	62	4195
2026-01-23 05:49:56.20	332.81	17.69	-45.4	-46.7	20.7	0.00e+00	0	43	0	901775360	62	4175
2026-01-23 05:49:57.21	332.62	17.62	-45.5	-46.8	20.7	0.00e+00	0	43	0	903872512	62	4197
2026-01-23 05:49:58.22	332.43	17.55	-45.6	-46.9	20.5	0.00e+00	0	43	0	904921088	62	4266
2026-01-23 05:49:59.23	332.25	17.48	-45.5	-46.7	20.7	0.00e+00	0	44	0	907018240	62	4179
2026-01-23 05:50:00.24	332.06	17.41	-45.5	-46.8	20.6	0.00e+00	0	43	0	909115392	62	4219
2026-01-23 05:50:01.25	331.88	17.34	-45.5	-46.8	20.7	0.00e+00	0	43	0	911212544	62	4216
2026-01-23 05:50:02.25	331.69	17.27	-45.4	-46.7	20.7	1.22e-05	0	43	0	912261120	62	4174
2026-01-23 05:50:03.26	331.51	17.20	-45.3	-46.5	20.9	0.00e+00	0	43	0	914358272	62	4069
2026-01-23 05:50:04.27	331.33	17.13	-45.1	-46.3	21.1	0.00e+00	0	43	0	916455424	62	3971
2026-01-23 05:50:05.28	331.15	17.06	-45.1	-46.3	21.1	0.00e+00	0	43	0	918552576	62	3974
2026-01-23 05:50:06.28	330.97	16.99	-45.0	-46.1	21.2	0.00e+00	0	44	0	920649728	61	4139
2026-01-23 05:50:07.29	330.79	16.92	-45.0	-46.1	21.2	0.00e+00	0	43	0	922746880	61	4139
2026-01-23 05:50:08.30	330.61	16.85	-45.1	-46.3	21.1	0.00e+00	0	43	0	923795456	61	4199
2026-01-23 05:50:09.31	330.43	16.77	-44.9	-46.1	21.2	0.00e+00	0	43	0	925892608	61	4137
2026-01-23 05:50:10.32	330.25	16.70	-45.0	-46.2	21.1	0.00e+00	0	43	0	927989760	61	4171
2026-01-23 05:50:11.32	330.08	16.63	-45.0	-46.2	21.1	0.00e+00	0	43	0	930086912	61	4191
2026-01-23 05:50:12.33	329.90	16.56	-45.0	-46.2	21.1	0.00e+00	0	43	0	932184064	61	4184
2026-01-23 05:50:13.34	329.73	16.49	-45.0	-46.2	21.1	0.00e+00	0	44	0	933232640	61	4190
2026-01-23 05:50:14.35	329.55	16.42	-45.0	-46.2	21.2	0.00e+00	0	43	0	935329792	61	4156
2026-01-23 05:50:15.36	329.38	16.35	-45.1	-46.3	21.0	7.00e-07	0	43	0	937426944	61	4203
2026-01-23 05:50:16.36	329.21	16.27	-44.9	-46.1	21.3	0.00e+00	0	43	0	939524096	61	4109
2026-01-23 05:50:17.37	329.04	16.20	-44.9	-46.1	21.3	1.50e-06	0	43	0	940572672	61	4100
2026-01-23 05:50:18.38	328.87	16.13	-44.8	-46.0	21.3	0.00e+00	0	43	0	942669824	61	4064
2026-01-23 05:50:19.39	328.70	16.06	-44.9	-46.1	21.3	0.00e+00	0	43	0	944766976	61	4108
2026-01-23 05:50:20.40	328.53	15.99	-44.7	-45.8	21.5	0.00e+00	0	43	0	946864128	61	3996
2026-01-23 05:50:21.41	328.36	15.91	-44.6	-45.8	21.5	0.00e+00	0	43	0	948961280	61	3976
2026-01-23 05:50:22.41	328.19	15.84	-44.6	-45.8	21.5	0.00e+00	0	43	0	951058432	61	3965
2026-01-23 05:50:23.42	328.03	15.77	-44.7	-45.9	21.4	0.00e+00	0	43	0	952107008	61	4020
2026-01-23 05:50:24.43	327.86	15.70	-44.8	-46.1	21.3	0.00e+00	0	43	0	954204160	61	4104
2026-01-23 05:50:25.43	327.70	15.63	-44.7	-46.0	21.3	0.00e+00	0	43	0	956301312	61	4056
2026-01-23 05:50:26.44	327.53	15.55	-44.7	-46.0	21.3	0.00e+00	0	43	0	958398464	61	4079
2026-01-23 05:50:27.45	327.37	15.48	-44.8	-46.1	21.2	0.00e+00	0	43	0	960495616	61	4101
2026-01-23 05:50:28.46	327.21	15.41	-44.7	-46.0	21.3	0.00e+00	0	43	0	961544192	61	4092
2026-01-23 05:50:29.47	327.05	15.34	-44.6	-46.0	21.2	0.00e+00	0	44	0	963641344	61	4075
2026-01-23 05:50:30.48	326.89	15.27	-44.5	-46.0	21.3	0.00e+00	0	43	0	965738496	61	4062
2026-01-23 05:50:31.49	326.73	15.19	-44.6	-46.0	21.2	0.00e+00	0	43	0	967835648	61	4086
2026-01-23 05:50:32.49	326.57	15.12	-44.5	-46.0	21.3	0.00e+00	0	43	0	969932800	60	4303
2026-01-23 05:50:33.50	326.41	15.05	-44.5	-46.0	21.3	0.00e+00	0	43	0	970981376	60	4301
2026-01-23 05:50:34.51	326.25	14.98	-44.5	-46.0	21.3	0.00e+00	0	43	0	973078528	60	4312
2026-01-23 05:50:35.52	326.09	14.90	-44.5	-46.1	21.1	4.50e-06	0	43	0	975175680	60	4363
2026-01-23 05:50:36.53	325.94	14.83	-44.6	-46.0	21.2	0.00e+00	0	43	0	977272832	60	4320
2026-01-23 05:50:37.53	325.78	14.76	-44.6	-46.0	21.1	0.00e+00	0	44	0	979369984	60	4339
2026-01-23 05:50:38.54	325.63	14.69	-44.6	-46.0	21.2	0.00e+00	0	43	0	980418560	60	4327
2026-01-23 05:50:39.55	325.48	14.62	-44.7	-46.1	21.1	0.00e+00	0	43	0	982515712	60	4359
2026-01-23 05:50:40.56	325.32	14.54	-44.7	-46.1	21.1	0.00e+00	0	44	0	984612864	60	4371
2026-01-23 05:50:41.57	325.17	14.47	-44.8	-46.2	21.1	0.00e+00	0	43	0	986710016	60	4405
2026-01-23 05:50:42.57	325.02	14.40	-44.9	-46.3	21.0	0.00e+00	0	43	0	988807168	60	4445
2026-01-23 05:50:43.58	324.87	14.33	-44.9	-46.2	21.0	0.00e+00	0	43	0	989855744	60	4438
2026-01-23 05:50:44.59	324.72	14.25	-45.0	-46.4	20.9	0.00e+00	0	43	0	991952896	60	4512
2026-01-23 05:50:45.59	324.57	14.18	-45.1	-46.5	20.8	0.00e+00	0	43	0	994050048	60	4548
2026-01-23 05:50:46.60	324.42	14.11	-45.2	-46.5	20.7	0.00e+00	0	43	0	996147200	61	4328
2026-01-23 05:50:47.60	324.28	14.04	-45.3	-46.6	20.7	0.00e+00	0	43	0	998244352	61	4366
2026-01-23 05:50:48.61	324.13	13.97	-45.5	-46.8	20.5	0.00e+00	0	43	0	999292928	61	4456
2026-01-23 05:50:49.62	323.98	13.90	-45.6	-46.9	20.4	0.00e+00	0	44	0	1001390080	61	4509
2026-01-23 05:50:50.63	323.84	13.82	-45.6	-47.0	20.3	0.00e+00	0	43	0	1003487232	61	4553
2026-01-23 05:50:51.64	323.69	13.75	-45.7	-47.0	20.3	0.00e+00	0	43	0	1005584384	61	4569
2026-01-23 05:50:52.65	323.55	13.68	-45.7	-47.1	20.2	0.00e+00	0	43	0	1007681536	62	4364
2026-01-23 05:50:53.65	323.40	13.61	-45.9	-47.2	20.1	0.00e+00	0	43	0	1008730112	62	4431
2026-01-23 05:50:54.66	323.26	13.54	-45.7	-47.0	20.3	0.00e+00	0	43	0	1010827264	62	4325
2026-01-23 05:50:55.67	323.12	13.46	-45.7	-47.0	20.2	0.00e+00	0	43	0	1012924416	62	4337
2026-01-23 05:50:56.68	322.98	13.39	-45.5	-46.8	20.4	0.00e+00	0	43	0	1015021568	62	4236
2026-01-23 05:50:57.69	322.84	13.32	-45.5	-46.8	20.5	0.00e+00	0	43	0	1017118720	62	4197
2026-01-23 05:50:58.69	322.70	13.25	-45.6	-46.9	20.4	0.00e+00	0	43	0	1018167296	62	4282
2026-01-23 05:50:59.70	322.56	13.18	-45.6	-46.9	20.4	0.00e+00	0	43	0	1020264448	62	4246
2026-01-23 05:51:00.71	322.42	13.10	-45.5	-46.8	20.4	0.00e+00	0	43	0	1022361600	62	4228
2026-01-23 05:51:01.71	322.28	13.03	-45.7	-47.0	20.3	0.00e+00	0	43	0	1024458752	62	4311
2026-01-23 05:51:02.72	322.15	12.96	-45.6	-46.9	20.4	0.00e+00	0	43	0	1026555904	62	4251
2026-01-23 05:51:03.73	322.01	12.89	-45.6	-46.9	20.3	0.00e+00	0	43	0	1027604480	62	4279
2026-01-23 05:51:04.74	321.87	12.82	-45.8	-47.2	20.1	0.00e+00	0	43	0	1029701632	62	4414
2026-01-23 05:51:05.75	321.74	12.75	-45.8	-47.2	20.1	0.00e+00	0	43	0	1031798784	62	4415
2026-01-23 05:51:06.75	321.60	12.68	-45.8	-47.2	20.0	0.00e+00	0	43	0	1033895936	62	4433
2026-01-23 05:51:07.76	321.47	12.60	-46.0	-47.4	19.9	0.00e+00	0	43	0	1035993088	62	4509
2026-01-23 05:51:08.77	321.34	12.53	-45.9	-47.3	20.0	0.00e+00	0	43	0	1037041664	62	4461
2026-01-23 05:51:09.78	321.20	12.46	-46.0	-47.4	19.8	0.00e+00	0	43	0	1039138816	62	4523
2026-01-23 05:51:10.78	321.07	12.39	-45.9	-47.3	19.9	0.00e+00	0	43	0	1041235968	62	4462
2026-01-23 05:51:11.79	320.94	12.32	-46.0	-47.4	19.9	0.00e+00	0	43	0	1043333120	62	4495
2026-01-23 05:51:12.80	320.81	12.25	-45.9	-47.3	19.9	0.00e+00	0	43	0	1045430272	62	4463
2026-01-23 05:51:13.81	320.68	12.18	-45.9	-47.2	20.0	0.00e+00	0	43	0	1046478848	62	4435
2026-01-23 05:51:14.81	320.55	12.11	-46.0	-47.5	19.8	0.00e+00	0	43	0	1048576000	62	4547
2026-01-23 05:51:15.82	320.42	12.04	-46.0	-47.5	19.8	0.00e+00	0	43	0	1050673152	62	4549
2026-01-23 05:51:16.83	320.30	11.96	-46.1	-47.5	19.7	0.00e+00	0	43	0	1052770304	62	4555
2026-01-23 05:51:17.83	320.17	11.89	-46.1	-47.5	19.7	0.00e+00	0	43	0	1054867456	62	4575
2026-01-23 05:51:18.84	320.04	11.82	-46.1	-47.5	19.7	0.00e+00	0	43	0	1055916032	62	4590
2026-01-23 05:51:19.85	319.92	11.75	-46.1	-47.5	19.7	0.00e+00	0	43	0	1058013184	62	4579
2026-01-23 05:51:20.86	319.79	11.68	-46.2	-47.6	19.6	0.00e+00	0	43	0	1060110336	62	4630
2026-01-23 05:51:21.87	319.67	11.61	-46.1	-47.5	19.7	0.00e+00	0	43	0	1062207488	62	4578
2026-01-23 05:51:22.87	319.54	11.54	-46.2	-47.6	19.6	0.00e+00	0	43	0	1064304640	62	4637
2026-01-23 05:51:23.88	319.42	11.47	-46.3	-47.8	19.5	0.00e+00	0	43	0	1065353216	63	4446
2026-01-23 05:51:24.89	319.30	11.40	-46.1	-47.6	19.6	0.00e+00	0	43	0	1067450368	63	4358
2026-01-23 05:51:25.90	319.17	11.33	-46.1	-47.6	19.6	0.00e+00	0	43	0	1069547520	63	4366
2026-01-23 05:51:26.90	319.05	11.26	-46.3	-47.8	19.4	0.00e+00	0	43	0	1071644672	63	4480
2026-01-23 05:51:27.91	318.93	11.19	-46.4	-47.9	19.2	0.00e+00	0	44	0	1073741824	63	4541
2026-01-23 05:51:28.92	318.81	11.12	-46.4	-47.9	19.2	0.00e+00	0	43	0	1074790400	63	4540
2026-01-23 05:51:29.93	318.69	11.05	-46.4	-47.9	19.3	0.00e+00	0	43	0	1076887552	63	4496
2026-01-23 05:51:30.94	318.57	10.98	-46.5	-48.0	19.2	0.00e+00	0	43	0	1078984704	63	4574
2026-01-23 05:51:31.95	318.45	10.91	-46.5	-48.0	19.2	0.00e+00	0	43	0	1081081856	63	4573
2026-01-23 05:51:32.95	318.33	10.84	-46.6	-48.1	19.0	0.00e+00	0	43	0	1083179008	63	4638
2026-01-23 05:51:33.96	318.22	10.77	-46.4	-47.9	19.2	0.00e+00	0	43	0	1084227584	63	4544
2026-01-23 05:51:34.97	318.10	10.70	-46.6	-48.2	19.0	0.00e+00	0	43	0	1086324736	63	4681
2026-01-23 05:51:35.97	317.98	10.63	-46.6	-48.1	19.0	0.00e+00	0	43	0	1088421888	63	4628
2026-01-23 05:51:36.99	317.87	10.56	-46.6	-48.2	19.0	0.00e+00	0	43	0	1090519040	63	4652
2026-01-23 05:51:37.99	317.75	10.49	-46.5	-48.0	19.1	0.00e+00	0	43	0	1092616192	63	4588
2026-01-23 05:51:39.00	317.64	10.42	-46.5	-48.0	19.1	0.00e+00	0	43	0	1094713344	63	4586
2026-01-23 05:51:40.01	317.52	10.35	-46.5	-48.1	19.1	0.00e+00	0	43	0	1095761920	63	4606
2026-01-23 05:51:41.02	317.41	10.29	-46.6	-48.1	19.0	0.00e+00	0	43	0	1097859072	63	4639
2026-01-23 05:51:42.02	317.30	10.22	-46.6	-48.2	18.8	0.00e+00	0	43	0	1099956224	64	4420
2026-01-23 05:51:43.03	317.18	10.15	-46.4	-47.9	19.1	0.00e+00	0	43	0	1102053376	64	4275
2026-01-23 05:51:44.04	317.07	10.08	-46.5	-48.1	19.0	0.00e+00	0	43	0	1103101952	64	4343
2026-01-23 05:51:45.05	316.96	10.01	-46.5	-48.1	18.9	0.00e+00	0	43	0	1105199104	64	4380
2026-01-23 05:51:46.06	316.85	9.94	-46.6	-48.3	18.8	0.00e+00	0	43	0	1107296256	64	4446
2026-01-23 05:51:47.07	316.74	9.87	-46.6	-48.1	18.9	0.00e+00	0	43	0	1109393408	64	4385
2026-01-23 05:51:48.07	316.63	9.80	-46.6	-48.2	18.8	0.00e+00	0	43	0	1111490560	64	4408
2026-01-23 05:51:49.08	316.52	9.74	-46.9	-48.6	18.5	0.00e+00	0	43	0	1113587712	64	4601
2026-01-23 05:51:50.09	316.41	9.67	-46.8	-48.5	18.5	0.00e+00	0	43	0	1114636288	64	4564
2026-01-23 05:51:51.09	316.30	9.60	-46.9	-48.6	18.4	0.00e+00	0	43	0	1116733440	64	4649
2026-01-23 05:51:52.11	316.19	9.53	-47.1	-48.8	18.2	0.00e+00	0	43	0	1118830592	64	4740
2026-01-23 05:51:53.11	316.09	9.46	-47.2	-48.9	18.1	0.00e+00	0	43	0	1120927744	64	4806
2026-01-23 05:51:54.12	315.98	9.39	-47.1	-48.8	18.2	0.00e+00	0	43	0	1123024896	64	4750
2026-01-23 05:51:55.13	315.87	9.33	-47.0	-48.8	18.2	0.00e+00	0	43	0	1124073472	64	4725
2026-01-23 05:51:56.14	315.77	9.26	-47.1	-48.9	18.1	0.00e+00	0	43	0	1126170624	64	4789
2026-01-23 05:51:57.15	315.66	9.19	-47.3	-49.1	17.9	0.00e+00	0	43	0	1128267776	65	4623
2026-01-23 05:51:58.15	315.56	9.12	-47.2	-49.0	18.0	0.00e+00	0	43	0	1130364928	65	4583
2026-01-23 05:51:59.16	315.45	9.06	-47.2	-49.0	18.0	0.00e+00	0	43	0	1131413504	65	4574
2026-01-23 05:52:00.17	315.35	8.99	-47.3	-49.1	17.9	0.00e+00	0	43	0	1133510656	65	4617
2026-01-23 05:52:01.17	315.25	8.92	-47.1	-48.9	18.0	0.00e+00	0	43	0	1135607808	65	4534
2026-01-23 05:52:02.19	315.14	8.85	-47.4	-49.2	17.8	0.00e+00	0	43	0	1137704960	65	4696
2026-01-23 05:52:03.19	315.04	8.79	-47.3	-49.1	17.8	0.00e+00	0	43	0	1139802112	65	4650
2026-01-23 05:52:04.20	314.94	8.72	-47.4	-49.3	17.7	0.00e+00	0	43	0	1141899264	65	4724
2026-01-23 05:52:05.21	314.84	8.65	-47.5	-49.4	17.5	0.00e+00	0	43	0	1142947840	65	4806
2026-01-23 05:52:06.22	314.74	8.59	-47.5	-49.4	17.5	0.00e+00	0	43	0	1145044992	65	4814
2026-01-23 05:52:07.23	314.64	8.52	-47.6	-49.6	17.3	0.00e+00	0	43	0	1147142144	65	4902
2026-01-23 05:52:08.23	314.54	8.45	-47.6	-49.5	17.4	0.00e+00	0	43	0	1149239296	65	4861
2026-01-23 05:52:09.24	314.44	8.39	-47.6	-49.5	17.4	0.00e+00	0	43	0	1151336448	65	4869
2026-01-23 05:52:10.25	314.34	8.32	-47.5	-49.5	17.5	0.00e+00	0	43	0	1152385024	65	4826
2026-01-23 05:52:11.26	314.24	8.25	-47.6	-49.5	17.4	0.00e+00	0	43	0	1154482176	65	4856
2026-01-23 05:52:12.27	314.14	8.19	-47.5	-49.4	17.5	0.00e+00	0	43	0	1156579328	65	4762
2026-01-23 05:52:13.27	314.04	8.12	-47.5	-49.4	17.5	0.00e+00	0	43	0	1158676480	65	4779
2026-01-23 05:52:14.28	313.95	8.05	-47.4	-49.3	17.6	0.00e+00	0	43	0	1159725056	65	4756
2026-01-23 05:52:15.29	313.85	7.99	-47.4	-49.2	17.6	0.00e+00	0	43	0	1161822208	65	4699
2026-01-23 05:52:16.29	313.75	7.92	-47.5	-49.4	17.5	0.00e+00	0	43	0	1163919360	65	4776
2026-01-23 05:52:17.30	313.66	7.86	-47.4	-49.3	17.5	0.00e+00	0	43	0	1166016512	65	4758
2026-01-23 05:52:18.31	313.56	7.79	-47.4	-49.3	17.5	0.00e+00	0	43	0	1168113664	65	4754
2026-01-23 05:52:19.32	313.47	7.72	-47.4	-49.3	17.6	0.00e+00	0	43	0	1170210816	65	4718
2026-01-23 05:52:20.33	313.37	7.66	-47.5	-49.4	17.4	0.00e+00	0	43	0	1171259392	65	4803
2026-01-23 05:52:21.33	313.28	7.59	-47.5	-49.4	17.5	0.00e+00	0	43	0	1173356544	65	4791
2026-01-23 05:52:22.34	313.19	7.53	-47.3	-49.2	17.7	0.00e+00	0	43	0	1175453696	65	4670
2026-01-23 05:52:23.35	313.09	7.46	-47.5	-49.4	17.4	0.00e+00	0	43	0	1177550848	65	4795
2026-01-23 05:52:24.36	313.00	7.40	-47.4	-49.4	17.5	0.00e+00	0	43	0	1179648000	65	4766
2026-01-23 05:52:25.37	312.91	7.33	-47.6	-49.6	17.2	0.00e+00	0	43	0	1180696576	65	4901
2026-01-23 05:52:26.37	312.82	7.27	-47.7	-49.7	17.1	0.00e+00	0	43	0	1182793728	65	4956
2026-01-23 05:52:27.38	312.72	7.20	-47.7	-49.7	17.1	0.00e+00	0	43	0	1184890880	65	4964
2026-01-23 05:52:28.39	312.63	7.14	-47.7	-49.8	17.1	0.00e+00	0	43	0	1186988032	66	4710
2026-01-23 05:52:29.40	312.54	7.07	-47.9	-50.0	16.8	0.00e+00	0	43	0	1189085184	66	4868
2026-01-23 05:52:30.40	312.45	7.01	-47.6	-49.6	17.2	0.00e+00	0	43	0	1190133760	66	4641
2026-01-23 05:52:31.41	312.36	6.94	-47.9	-50.0	16.8	0.00e+00	0	43	0	1192230912	66	4851
2026-01-23 05:52:32.42	312.27	6.88	-47.8	-49.9	16.9	0.00e+00	0	43	0	1194328064	66	4772
2026-01-23 05:52:33.43	312.18	6.81	-47.9	-50.0	16.7	0.00e+00	0	43	0	1196425216	66	4863
2026-01-23 05:52:34.44	312.10	6.75	-48.0	-50.1	16.7	0.00e+00	0	43	0	1198522368	66	4901
2026-01-23 05:52:35.45	312.01	6.69	-47.9	-50.0	16.6	0.00e+00	0	43	0	1199570944	66	4837
2026-01-23 05:52:36.46	311.92	6.62	-47.9	-50.1	16.7	0.00e+00	0	43	0	1201668096	66	4881
2026-01-23 05:52:37.47	311.83	6.56	-47.9	-50.1	16.7	0.00e+00	0	43	0	1203765248	66	4886
2026-01-23 05:52:38.47	311.75	6.49	-47.9	-50.1	16.6	0.00e+00	0	43	0	1205862400	66	4910
2026-01-23 05:52:39.48	311.66	6.43	-48.1	-50.3	16.4	0.00e+00	0	43	0	1207959552	66	5025
2026-01-23 05:52:40.49	311.57	6.37	-48.1	-50.3	16.4	0.00e+00	0	43	0	1210056704	66	5013
2026-01-23 05:52:41.50	311.49	6.30	-48.1	-50.4	16.3	0.00e+00	0	43	0	1211105280	66	5061
2026-01-23 05:52:42.50	311.40	6.24	-48.2	-50.6	16.1	0.00e+00	0	43	0	1213202432	67	4897
2026-01-23 05:52:43.51	311.32	6.18	-48.2	-50.6	16.1	0.00e+00	0	43	0	1215299584	67	4880
2026-01-23 05:52:44.52	311.23	6.11	-48.2	-50.5	16.2	0.00e+00	0	43	0	1217396736	67	4844
2026-01-23 05:52:45.52	311.15	6.05	-48.5	-50.9	15.7	0.00e+00	0	43	0	1218445312	67	5083
2026-01-23 05:52:46.53	311.07	5.99	-48.3	-50.7	16.0	0.00e+00	0	43	0	1220542464	67	4957
2026-01-23 05:52:47.54	310.98	5.92	-48.4	-50.9	15.7	0.00e+00	0	43	0	1222639616	67	5072
2026-01-23 05:52:48.55	310.90	5.86	-48.5	-51.1	15.5	0.00e+00	0	43	0	1224736768	67	5170
