passes_logs/2026/01/23/R3.2S_Murmansk/R3.2S_Murmansk__20260123_085911_NOAA_20_JPSS-1_rec.log

#Pass ID: 20260123_085911_NOAA 20 (JPSS-1)
#Satellite: NOAA 20 (JPSS-1)
#Configuration: NOAA 20
#almurnet v.1.7.20251203
#Start time: 2026-01-23 08:59:11

#Version: 2.2.20231116
#Station: R3.2S_Murmansk
#Location: 33.079688 lon 68.888172 lat
#TLE: 1 43013U 17073A   26022.44900781  .00000193  00000+0  11233-3 0  9999
#TLE: 2 43013  98.7645 323.3100 0001197  28.8413 331.2829 14.19538802423792

#Time	Az	El	Level	Level2	SNR	BER	BlckErr	Temp	State	Recorded	gain1	gain2
2026-01-23 08:59:11.36	138.86	1.99	-54.4	-69.5	3.8	1.49e+00	0	41	0	0	79	21525
2026-01-23 08:59:12.38	138.85	2.05	-54.4	-69.5	3.8	1.49e+00	0	41	104	0	79	21590
2026-01-23 08:59:13.38	138.84	2.12	-54.4	-69.5	3.8	1.49e+00	0	40	104	0	79	21514
2026-01-23 08:59:14.39	138.83	2.18	-54.4	-69.4	3.8	1.49e+00	0	41	104	0	79	21505
2026-01-23 08:59:15.40	138.82	2.25	-54.4	-69.4	3.8	1.49e+00	0	40	104	0	79	21460
2026-01-23 08:59:16.41	138.80	2.31	-54.4	-69.5	3.8	1.49e+00	0	41	104	0	79	21509
2026-01-23 08:59:17.42	138.79	2.38	-54.6	-69.6	3.8	1.49e+00	0	41	104	0	79	21977
2026-01-23 08:59:18.43	138.78	2.44	-54.6	-69.6	3.8	1.49e+00	0	41	104	0	79	21978
2026-01-23 08:59:19.44	138.77	2.51	-54.6	-69.7	3.8	1.49e+00	0	41	104	0	79	22067
2026-01-23 08:59:20.44	138.76	2.58	-54.6	-69.6	3.8	1.49e+00	0	41	104	0	79	21985
2026-01-23 08:59:21.45	138.75	2.64	-54.6	-69.6	3.8	1.49e+00	0	41	104	0	79	21894
2026-01-23 08:59:22.46	138.73	2.71	-54.6	-69.6	3.8	1.49e+00	0	41	104	0	79	21876
2026-01-23 08:59:23.47	138.72	2.77	-54.5	-69.5	3.8	1.49e+00	0	41	104	0	79	21723
2026-01-23 08:59:24.48	138.71	2.84	-54.5	-69.5	3.8	1.49e+00	0	41	104	0	79	21699
2026-01-23 08:59:25.49	138.70	2.91	-54.5	-69.5	3.8	1.49e+00	0	41	104	0	79	21588
2026-01-23 08:59:26.49	138.69	2.97	-54.4	-69.4	3.8	1.49e+00	0	41	104	0	79	21427
2026-01-23 08:59:27.50	138.67	3.04	-54.4	-69.4	3.8	1.49e+00	0	41	104	0	79	21364
2026-01-23 08:59:28.51	138.66	3.11	-54.3	-69.3	3.8	1.49e+00	0	41	104	0	79	21210
2026-01-23 08:59:29.52	138.65	3.18	-54.2	-69.2	3.8	1.49e+00	0	41	104	0	79	21000
2026-01-23 08:59:30.53	138.64	3.24	-54.2	-69.2	3.8	1.49e+00	0	41	104	0	79	20908
2026-01-23 08:59:31.54	138.62	3.31	-54.1	-69.1	3.8	1.49e+00	0	41	104	0	79	20669
2026-01-23 08:59:32.55	138.61	3.38	-54.0	-69.0	3.8	1.49e+00	0	41	104	0	79	20396
2026-01-23 08:59:33.55	138.60	3.45	-53.9	-68.9	3.8	1.49e+00	0	41	104	0	79	20079
2026-01-23 08:59:34.56	138.59	3.51	-53.7	-68.7	3.8	1.49e+00	0	41	104	0	79	19706
2026-01-23 08:59:35.57	138.57	3.58	-53.6	-68.6	3.8	1.49e+00	0	41	104	0	79	19407
2026-01-23 08:59:36.58	138.56	3.65	-53.2	-68.3	3.8	1.49e+00	0	41	104	0	78	19860
2026-01-23 08:59:37.59	138.55	3.72	-52.8	-67.8	3.8	1.49e+00	0	41	104	0	77	19856
2026-01-23 08:59:38.60	138.54	3.79	-52.6	-67.1	3.8	1.49e+00	0	41	104	0	77	18390
2026-01-23 08:59:39.60	138.52	3.86	-52.6	-67.4	3.8	1.49e+00	0	41	104	0	77	19057
2026-01-23 08:59:40.61	138.51	3.93	-52.6	-67.4	3.8	1.49e+00	0	42	104	0	77	18968
2026-01-23 08:59:41.62	138.50	3.99	-52.5	-66.6	3.8	1.49e+00	0	41	104	0	77	17477
2026-01-23 08:59:42.63	138.48	4.06	-52.4	-64.6	4.0	1.48e+00	0	41	104	0	76	14612
2026-01-23 08:59:43.64	138.47	4.13	-52.2	-62.1	4.9	1.24e+00	0	41	0	0	76	10940
2026-01-23 08:59:44.64	138.46	4.20	-51.8	-59.7	6.5	4.91e-01	0	42	0	2097152	75	8833
2026-01-23 08:59:45.65	138.44	4.27	-51.6	-58.4	7.8	1.37e-01	0	41	0	4194304	75	7615
2026-01-23 08:59:46.66	138.43	4.34	-51.0	-56.4	9.9	2.07e-02	0	41	0	6291456	74	6352
2026-01-23 08:59:47.67	138.42	4.41	-50.4	-54.8	11.5	3.54e-03	0	42	0	7340032	72	5991
2026-01-23 08:59:48.68	138.40	4.48	-49.9	-53.6	12.9	8.01e-05	0	42	0	9437184	71	5475
2026-01-23 08:59:49.69	138.39	4.55	-49.4	-52.6	13.9	6.10e-06	0	42	0	11534336	70	5203
2026-01-23 08:59:50.70	138.37	4.63	-48.8	-51.5	15.0	0.00e+00	0	41	0	13631488	69	4868
2026-01-23 08:59:51.70	138.36	4.70	-48.3	-50.8	15.8	0.00e+00	0	42	0	15728640	68	4718
2026-01-23 08:59:52.71	138.35	4.77	-48.1	-50.4	16.1	0.00e+00	0	41	0	16777216	68	4509
2026-01-23 08:59:53.72	138.33	4.84	-47.7	-49.8	16.6	0.00e+00	0	41	0	18874368	67	4481
2026-01-23 08:59:54.73	138.32	4.91	-47.8	-50.0	16.5	0.00e+00	0	42	0	20971520	67	4572
2026-01-23 08:59:55.73	138.30	4.98	-47.7	-49.9	16.6	0.00e+00	0	42	0	23068672	67	4515
2026-01-23 08:59:56.74	138.29	5.05	-49.6	-53.0	13.7	0.00e+00	0	42	0	25165824	69	5743
2026-01-23 08:59:57.75	138.27	5.13	-49.9	-53.4	13.4	1.90e-05	0	42	0	26214400	70	5708
2026-01-23 08:59:58.76	138.26	5.20	-49.2	-52.3	14.6	8.01e-05	0	42	0	28311552	68	5642
2026-01-23 08:59:59.76	138.24	5.27	-48.0	-50.3	16.3	2.56e-03	0	42	0	30408704	68	4457
2026-01-23 09:00:00.77	138.23	5.34	-48.7	-51.5	15.2	0.00e+00	0	42	0	32505856	67	5421
2026-01-23 09:00:01.78	138.21	5.42	-47.5	-49.5	16.9	2.20e-06	0	42	0	34603008	67	4329
2026-01-23 09:00:02.79	138.20	5.49	-47.6	-49.7	16.9	0.00e+00	0	42	0	35651584	66	4672
2026-01-23 09:00:03.80	138.18	5.56	-47.2	-49.2	17.4	0.00e+00	0	42	0	37748736	66	4407
2026-01-23 09:00:04.80	138.17	5.64	-47.3	-49.3	17.3	0.00e+00	0	42	0	39845888	66	4480
2026-01-23 09:00:05.81	138.15	5.71	-47.0	-48.8	17.8	0.00e+00	0	42	0	41943040	65	4485
2026-01-23 09:00:06.82	138.14	5.78	-47.3	-49.2	17.4	0.00e+00	0	42	0	44040192	65	4680
2026-01-23 09:00:07.83	138.12	5.86	-47.0	-48.9	17.7	0.00e+00	0	42	0	45088768	65	4521
2026-01-23 09:00:08.84	138.11	5.93	-47.1	-49.0	17.7	0.00e+00	0	42	0	47185920	65	4552
2026-01-23 09:00:09.85	138.09	6.01	-47.2	-49.1	17.6	0.00e+00	0	42	0	49283072	65	4607
2026-01-23 09:00:10.86	138.08	6.08	-47.0	-48.8	17.9	0.00e+00	0	42	0	51380224	65	4456
2026-01-23 09:00:11.87	138.06	6.16	-47.0	-48.8	17.9	0.00e+00	0	42	0	53477376	65	4475
2026-01-23 09:00:12.88	138.04	6.23	-47.2	-49.0	17.7	0.00e+00	0	42	0	55574528	65	4586
2026-01-23 09:00:13.89	138.03	6.31	-47.1	-48.9	17.8	0.00e+00	0	42	0	56623104	65	4521
2026-01-23 09:00:14.89	138.01	6.38	-47.1	-49.0	17.7	0.00e+00	0	42	0	58720256	65	4571
2026-01-23 09:00:15.90	138.00	6.46	-47.0	-48.8	17.9	0.00e+00	0	42	0	60817408	65	4483
2026-01-23 09:00:16.91	137.98	6.54	-47.0	-48.9	17.9	0.00e+00	0	42	0	62914560	65	4496
2026-01-23 09:00:17.92	137.96	6.61	-47.0	-48.8	17.9	0.00e+00	0	42	0	63963136	65	4479
2026-01-23 09:00:18.93	137.95	6.69	-47.1	-49.0	17.8	0.00e+00	0	42	0	66060288	65	4558
2026-01-23 09:00:19.94	137.93	6.77	-47.1	-48.9	17.9	0.00e+00	0	42	0	68157440	65	4526
2026-01-23 09:00:20.95	137.91	6.84	-47.0	-48.8	18.0	0.00e+00	0	42	0	70254592	65	4458
2026-01-23 09:00:21.96	137.90	6.92	-47.3	-49.2	17.6	0.00e+00	0	42	0	72351744	65	4686
2026-01-23 09:00:22.96	137.88	7.00	-47.2	-49.1	17.7	0.00e+00	0	42	0	74448896	65	4623
2026-01-23 09:00:23.97	137.86	7.08	-47.3	-49.1	17.7	0.00e+00	0	42	0	75497472	65	4644
2026-01-23 09:00:24.99	137.84	7.15	-47.4	-49.4	17.4	0.00e+00	0	42	0	77594624	65	4787
2026-01-23 09:00:25.99	137.83	7.23	-47.3	-49.3	17.6	0.00e+00	0	42	0	79691776	65	4706
2026-01-23 09:00:27.00	137.81	7.31	-47.4	-49.3	17.6	0.00e+00	0	42	0	81788928	65	4719
2026-01-23 09:00:28.01	137.79	7.39	-47.0	-48.8	18.1	0.00e+00	0	42	0	83886080	65	4449
2026-01-23 09:00:29.02	137.77	7.47	-46.8	-48.5	18.4	0.00e+00	0	42	0	84934656	65	4307
2026-01-23 09:00:30.02	137.76	7.55	-46.9	-48.7	18.2	0.00e+00	0	42	0	87031808	65	4397
2026-01-23 09:00:31.03	137.74	7.63	-46.7	-48.4	18.4	0.00e+00	0	42	0	89128960	65	4274
2026-01-23 09:00:32.03	137.72	7.70	-46.5	-48.1	18.7	0.00e+00	0	42	0	91226112	65	4131
2026-01-23 09:00:33.04	137.70	7.78	-46.5	-48.1	18.7	0.00e+00	0	42	0	92274688	65	4144
2026-01-23 09:00:34.05	137.68	7.86	-46.3	-47.8	19.0	0.00e+00	0	42	0	94371840	64	4239
2026-01-23 09:00:35.06	137.67	7.95	-46.3	-47.9	19.0	0.00e+00	0	42	0	96468992	64	4257
2026-01-23 09:00:36.07	137.65	8.03	-46.4	-48.0	18.9	0.00e+00	0	42	0	98566144	64	4297
2026-01-23 09:00:37.08	137.63	8.11	-46.4	-47.9	19.0	0.00e+00	0	42	0	100663296	64	4285
2026-01-23 09:00:38.08	137.61	8.19	-46.4	-48.0	19.0	0.00e+00	0	42	0	102760448	64	4301
2026-01-23 09:00:39.09	137.59	8.27	-46.4	-48.0	18.9	0.00e+00	0	42	0	103809024	64	4332
2026-01-23 09:00:40.10	137.57	8.35	-46.5	-48.1	18.8	0.00e+00	0	42	0	105906176	64	4353
2026-01-23 09:00:41.11	137.55	8.43	-46.6	-48.3	18.6	0.00e+00	0	42	0	108003328	64	4446
2026-01-23 09:00:42.11	137.53	8.51	-46.5	-48.2	18.8	0.00e+00	0	42	0	110100480	64	4405
2026-01-23 09:00:43.12	137.52	8.60	-46.5	-48.2	18.8	0.00e+00	0	42	0	112197632	64	4393
2026-01-23 09:00:44.13	137.50	8.68	-46.5	-48.1	18.8	0.00e+00	0	42	0	113246208	64	4386
2026-01-23 09:00:45.14	137.48	8.76	-46.5	-48.1	18.8	0.00e+00	0	42	0	115343360	64	4381
2026-01-23 09:00:46.15	137.46	8.85	-46.3	-47.8	19.1	0.00e+00	0	42	0	117440512	64	4239
2026-01-23 09:00:47.16	137.44	8.93	-46.2	-47.6	19.3	0.00e+00	0	42	0	119537664	64	4145
2026-01-23 09:00:48.16	137.42	9.01	-46.2	-47.7	19.3	0.00e+00	0	42	0	120586240	64	4173
2026-01-23 09:00:49.17	137.40	9.10	-46.1	-47.5	19.6	0.00e+00	0	42	0	122683392	63	4333
2026-01-23 09:00:50.18	137.38	9.18	-46.2	-47.7	19.4	0.00e+00	0	42	0	124780544	63	4395
2026-01-23 09:00:51.19	137.36	9.27	-46.1	-47.5	19.6	0.00e+00	0	42	0	126877696	63	4324
2026-01-23 09:00:52.19	137.34	9.35	-46.2	-47.7	19.4	0.00e+00	0	42	0	128974848	63	4407
2026-01-23 09:00:53.20	137.31	9.44	-46.0	-47.4	19.7	0.00e+00	0	42	0	131072000	63	4256
2026-01-23 09:00:54.21	137.29	9.52	-46.2	-47.7	19.4	0.00e+00	0	42	0	132120576	63	4408
2026-01-23 09:00:55.22	137.27	9.61	-46.0	-47.5	19.6	0.00e+00	0	42	0	134217728	63	4301
2026-01-23 09:00:56.23	137.25	9.69	-45.9	-47.3	19.8	0.00e+00	0	42	0	136314880	63	4220
2026-01-23 09:00:57.23	137.23	9.78	-46.0	-47.4	19.7	0.00e+00	0	42	0	138412032	63	4284
2026-01-23 09:00:58.24	137.21	9.87	-46.0	-47.5	19.7	0.00e+00	0	42	0	140509184	63	4303
2026-01-23 09:00:59.25	137.19	9.95	-45.9	-47.3	19.8	0.00e+00	0	42	0	141557760	63	4233
2026-01-23 09:01:00.26	137.17	10.04	-45.9	-47.3	19.8	0.00e+00	0	42	0	143654912	63	4217
2026-01-23 09:01:01.27	137.14	10.13	-46.2	-47.7	19.5	0.00e+00	0	42	0	145752064	63	4394
2026-01-23 09:01:02.27	137.12	10.21	-46.1	-47.5	19.6	0.00e+00	0	42	0	147849216	63	4331
2026-01-23 09:01:03.28	137.10	10.30	-46.0	-47.4	19.7	0.00e+00	0	42	0	149946368	63	4289
2026-01-23 09:01:04.29	137.08	10.39	-45.9	-47.3	19.9	0.00e+00	0	42	0	150994944	63	4206
2026-01-23 09:01:05.29	137.06	10.48	-45.8	-47.2	19.9	0.00e+00	0	42	0	153092096	63	4182
2026-01-23 09:01:06.30	137.03	10.57	-45.9	-47.2	19.9	0.00e+00	0	42	0	155189248	63	4189
2026-01-23 09:01:07.31	137.01	10.66	-46.0	-47.4	19.8	0.00e+00	0	42	0	157286400	63	4266
2026-01-23 09:01:08.32	136.99	10.75	-45.9	-47.3	19.8	0.00e+00	0	42	0	159383552	63	4237
2026-01-23 09:01:09.33	136.96	10.84	-45.7	-47.1	20.1	0.00e+00	0	42	0	160432128	63	4101
2026-01-23 09:01:10.34	136.94	10.93	-45.8	-47.2	20.0	0.00e+00	0	42	0	162529280	63	4162
2026-01-23 09:01:11.34	136.92	11.02	-45.6	-46.9	20.2	0.00e+00	0	42	0	164626432	63	4044
2026-01-23 09:01:12.35	136.89	11.11	-45.6	-47.0	20.2	0.00e+00	0	42	0	166723584	63	4067
2026-01-23 09:01:13.36	136.87	11.20	-45.7	-47.1	20.1	0.00e+00	0	42	0	168820736	63	4103
2026-01-23 09:01:14.37	136.85	11.29	-45.6	-47.0	20.2	0.00e+00	0	42	0	170917888	63	4053
2026-01-23 09:01:15.37	136.82	11.39	-45.6	-47.0	20.2	0.00e+00	0	42	0	171966464	63	4056
2026-01-23 09:01:16.38	136.80	11.48	-45.6	-46.9	20.3	0.00e+00	0	42	0	174063616	63	4022
2026-01-23 09:01:17.39	136.77	11.57	-45.5	-46.9	20.3	0.00e+00	0	42	0	176160768	63	4014
2026-01-23 09:01:18.40	136.75	11.66	-45.6	-46.9	20.3	0.00e+00	0	42	0	178257920	63	4036
2026-01-23 09:01:19.41	136.72	11.76	-45.4	-46.7	20.4	0.00e+00	0	42	0	179306496	62	4189
2026-01-23 09:01:20.42	136.70	11.85	-45.4	-46.7	20.4	0.00e+00	0	42	0	181403648	62	4191
2026-01-23 09:01:21.42	136.67	11.94	-45.4	-46.6	20.5	0.00e+00	0	42	0	183500800	62	4141
2026-01-23 09:01:22.43	136.65	12.04	-45.4	-46.7	20.4	0.00e+00	0	42	0	185597952	62	4186
2026-01-23 09:01:23.44	136.62	12.13	-45.4	-46.8	20.4	0.00e+00	0	42	0	187695104	62	4197
2026-01-23 09:01:24.45	136.60	12.23	-45.3	-46.6	20.6	0.00e+00	0	42	0	188743680	62	4102
2026-01-23 09:01:25.46	136.57	12.33	-45.4	-46.6	20.6	0.00e+00	0	42	0	190840832	62	4142
2026-01-23 09:01:26.46	136.55	12.42	-45.3	-46.6	20.6	0.00e+00	0	42	0	192937984	62	4119
2026-01-23 09:01:27.47	136.52	12.52	-45.3	-46.5	20.7	0.00e+00	0	42	0	195035136	62	4089
2026-01-23 09:01:28.48	136.49	12.61	-45.2	-46.5	20.7	0.00e+00	0	42	0	197132288	62	4061
2026-01-23 09:01:29.49	136.47	12.71	-45.2	-46.5	20.7	0.00e+00	0	42	0	199229440	62	4052
2026-01-23 09:01:30.50	136.44	12.81	-45.4	-46.6	20.6	0.00e+00	0	42	0	200278016	62	4137
2026-01-23 09:01:31.51	136.41	12.91	-45.1	-46.4	20.8	0.00e+00	0	42	0	202375168	62	4014
2026-01-23 09:01:32.52	136.38	13.01	-45.3	-46.5	20.7	0.00e+00	0	42	0	204472320	62	4094
2026-01-23 09:01:33.53	136.36	13.10	-45.1	-46.3	20.9	0.00e+00	0	42	0	206569472	62	3981
2026-01-23 09:01:34.53	136.33	13.20	-45.1	-46.3	20.9	0.00e+00	0	42	0	207618048	62	3975
2026-01-23 09:01:35.54	136.30	13.30	-45.1	-46.4	20.8	0.00e+00	0	42	0	209715200	62	4012
2026-01-23 09:01:36.55	136.27	13.40	-45.1	-46.4	20.9	0.00e+00	0	42	0	211812352	62	4006
2026-01-23 09:01:37.56	136.25	13.50	-45.2	-46.4	20.8	0.00e+00	0	42	0	213909504	62	4029
2026-01-23 09:01:38.57	136.22	13.60	-45.2	-46.5	20.8	0.00e+00	0	42	0	216006656	62	4053
2026-01-23 09:01:39.58	136.19	13.70	-45.1	-46.3	20.9	0.00e+00	0	42	0	218103808	62	3993
2026-01-23 09:01:40.59	136.16	13.81	-45.0	-46.2	21.0	0.00e+00	0	42	0	219152384	62	3954
2026-01-23 09:01:41.60	136.13	13.91	-44.9	-46.0	21.2	0.00e+00	0	43	0	221249536	61	4094
2026-01-23 09:01:42.61	136.10	14.01	-44.8	-46.0	21.2	0.00e+00	0	42	0	223346688	61	4074
2026-01-23 09:01:43.61	136.07	14.11	-44.9	-46.1	21.1	0.00e+00	0	42	0	225443840	61	4137
2026-01-23 09:01:44.62	136.04	14.22	-44.9	-46.1	21.2	0.00e+00	0	42	0	227540992	61	4109
2026-01-23 09:01:45.63	136.01	14.32	-44.9	-46.1	21.2	0.00e+00	0	42	0	228589568	61	4102
2026-01-23 09:01:46.64	135.98	14.42	-44.9	-46.1	21.1	0.00e+00	0	42	0	230686720	61	4134
2026-01-23 09:01:47.64	135.95	14.53	-44.8	-46.0	21.2	0.00e+00	0	42	0	232783872	61	4092
2026-01-23 09:01:48.65	135.92	14.63	-44.8	-46.0	21.3	0.00e+00	0	42	0	234881024	61	4059
2026-01-23 09:01:49.66	135.89	14.74	-44.9	-46.0	21.2	0.00e+00	0	43	0	235929600	61	4098
2026-01-23 09:01:50.67	135.86	14.84	-44.7	-45.9	21.4	0.00e+00	0	42	0	238026752	61	4011
2026-01-23 09:01:51.68	135.83	14.95	-44.8	-46.0	21.2	0.00e+00	0	42	0	240123904	61	4085
2026-01-23 09:01:52.68	135.79	15.06	-44.8	-46.0	21.3	0.00e+00	0	42	0	242221056	61	4052
2026-01-23 09:01:53.69	135.76	15.16	-44.7	-45.8	21.4	0.00e+00	0	42	0	244318208	61	3997
2026-01-23 09:01:54.70	135.73	15.27	-44.6	-45.8	21.5	0.00e+00	0	42	0	246415360	61	3961
2026-01-23 09:01:55.71	135.70	15.38	-44.6	-45.8	21.5	0.00e+00	0	42	0	247463936	61	3980
2026-01-23 09:01:56.72	135.66	15.49	-44.7	-45.8	21.4	0.00e+00	0	42	0	249561088	61	4000
2026-01-23 09:01:57.72	135.63	15.60	-44.5	-45.6	21.6	0.00e+00	0	42	0	251658240	61	3905
2026-01-23 09:01:58.73	135.60	15.71	-44.5	-45.6	21.6	0.00e+00	0	43	0	253755392	61	3913
2026-01-23 09:01:59.74	135.56	15.82	-44.6	-45.8	21.5	0.00e+00	0	42	0	255852544	61	3975
2026-01-23 09:02:00.75	135.53	15.93	-44.5	-45.7	21.6	0.00e+00	0	42	0	256901120	61	3919
2026-01-23 09:02:01.76	135.50	16.04	-44.6	-45.7	21.5	0.00e+00	0	42	0	258998272	61	3946
2026-01-23 09:02:02.76	135.46	16.15	-44.6	-45.8	21.5	0.00e+00	0	42	0	261095424	61	3964
2026-01-23 09:02:03.77	135.43	16.26	-44.5	-45.6	21.7	0.00e+00	0	42	0	263192576	61	3895
2026-01-23 09:02:04.78	135.39	16.37	-44.6	-45.7	21.6	0.00e+00	0	42	0	265289728	61	3945
2026-01-23 09:02:05.79	135.36	16.49	-44.6	-45.7	21.5	0.00e+00	0	42	0	266338304	61	3955
2026-01-23 09:02:06.80	135.32	16.60	-44.6	-45.7	21.6	0.00e+00	0	42	0	268435456	61	3943
2026-01-23 09:02:07.80	135.29	16.71	-44.6	-45.7	21.6	0.00e+00	0	42	0	270532608	61	3941
2026-01-23 09:02:08.81	135.25	16.83	-44.7	-45.8	21.5	0.00e+00	0	43	0	272629760	61	3993
2026-01-23 09:02:09.82	135.21	16.94	-44.6	-45.7	21.6	0.00e+00	0	42	0	274726912	61	3950
2026-01-23 09:02:10.83	135.18	17.06	-44.5	-45.7	21.6	0.00e+00	0	42	0	275775488	61	3923
2026-01-23 09:02:11.84	135.14	17.17	-44.6	-45.7	21.6	0.00e+00	0	42	0	277872640	60	4165
2026-01-23 09:02:12.85	135.10	17.29	-44.6	-45.7	21.6	0.00e+00	0	42	0	279969792	60	4180
2026-01-23 09:02:13.85	135.06	17.41	-44.5	-45.6	21.7	0.00e+00	0	42	0	282066944	60	4123
2026-01-23 09:02:14.86	135.03	17.53	-44.5	-45.7	21.6	0.00e+00	0	42	0	284164096	60	4155
2026-01-23 09:02:15.87	134.99	17.64	-44.6	-45.7	21.6	0.00e+00	0	42	0	286261248	60	4173
2026-01-23 09:02:16.88	134.95	17.76	-44.5	-45.6	21.7	0.00e+00	0	42	0	287309824	60	4129
2026-01-23 09:02:17.88	134.91	17.88	-44.5	-45.6	21.6	0.00e+00	0	42	0	289406976	60	4138
2026-01-23 09:02:18.89	134.87	18.00	-44.4	-45.5	21.8	0.00e+00	0	42	0	291504128	60	4082
2026-01-23 09:02:19.90	134.83	18.12	-44.4	-45.5	21.8	0.00e+00	0	42	0	293601280	60	4068
2026-01-23 09:02:20.91	134.79	18.24	-44.4	-45.5	21.8	0.00e+00	0	43	0	294649856	60	4093
2026-01-23 09:02:21.92	134.75	18.37	-44.4	-45.5	21.8	0.00e+00	0	42	0	296747008	60	4057
2026-01-23 09:02:22.92	134.71	18.49	-44.5	-45.6	21.7	0.00e+00	0	42	0	298844160	60	4112
2026-01-23 09:02:23.93	134.67	18.61	-44.4	-45.5	21.8	0.00e+00	0	42	0	300941312	60	4094
2026-01-23 09:02:24.94	134.63	18.73	-44.5	-45.6	21.7	0.00e+00	0	43	0	303038464	60	4122
2026-01-23 09:02:25.95	134.58	18.86	-44.5	-45.6	21.8	0.00e+00	0	42	0	304087040	60	4113
2026-01-23 09:02:26.96	134.54	18.98	-44.4	-45.5	21.9	0.00e+00	0	43	0	306184192	60	4061
2026-01-23 09:02:27.96	134.50	19.11	-44.4	-45.5	21.9	0.00e+00	0	42	0	308281344	60	4065
2026-01-23 09:02:28.97	134.46	19.23	-44.4	-45.6	21.8	0.00e+00	0	42	0	310378496	60	4100
2026-01-23 09:02:29.98	134.41	19.36	-44.5	-45.6	21.8	0.00e+00	0	42	0	312475648	60	4111
2026-01-23 09:02:30.99	134.37	19.49	-44.4	-45.5	21.9	0.00e+00	0	43	0	314572800	60	4061
2026-01-23 09:02:32.00	134.33	19.62	-44.4	-45.6	21.8	0.00e+00	0	42	0	315621376	60	4101
2026-01-23 09:02:33.00	134.28	19.74	-44.3	-45.4	21.9	0.00e+00	0	42	0	317718528	60	4051
2026-01-23 09:02:34.01	134.24	19.87	-44.4	-45.5	21.9	0.00e+00	0	42	0	319815680	60	4063
2026-01-23 09:02:35.02	134.19	20.00	-44.5	-45.6	21.8	0.00e+00	0	42	0	321912832	60	4105
2026-01-23 09:02:36.03	134.15	20.13	-44.3	-45.4	21.9	0.00e+00	0	43	0	322961408	60	4039
2026-01-23 09:02:37.04	134.10	20.26	-44.4	-45.5	21.8	0.00e+00	0	43	0	325058560	60	4097
2026-01-23 09:02:38.05	134.05	20.40	-44.4	-45.5	21.9	0.00e+00	0	42	0	327155712	60	4082
2026-01-23 09:02:39.05	134.01	20.53	-44.3	-45.4	21.9	0.00e+00	0	43	0	329252864	60	4040
2026-01-23 09:02:40.06	133.96	20.66	-44.3	-45.4	21.9	0.00e+00	0	42	0	331350016	60	4042
2026-01-23 09:02:41.07	133.91	20.79	-44.3	-45.4	22.0	0.00e+00	0	43	0	333447168	60	4024
2026-01-23 09:02:42.08	133.86	20.93	-44.2	-45.3	22.1	0.00e+00	0	42	0	334495744	60	3979
2026-01-23 09:02:43.09	133.81	21.06	-44.3	-45.4	22.0	0.00e+00	0	42	0	336592896	60	4009
2026-01-23 09:02:44.10	133.76	21.20	-44.2	-45.3	22.1	0.00e+00	0	43	0	338690048	60	3980
2026-01-23 09:02:45.11	133.71	21.34	-44.3	-45.3	22.0	0.00e+00	0	42	0	340787200	60	4000
2026-01-23 09:02:46.12	133.66	21.47	-44.2	-45.3	22.1	0.00e+00	0	43	0	342884352	60	3977
2026-01-23 09:02:47.12	133.61	21.61	-44.3	-45.3	22.0	0.00e+00	0	42	0	343932928	60	3999
2026-01-23 09:02:48.13	133.56	21.75	-44.3	-45.3	22.0	0.00e+00	0	43	0	346030080	60	4000
2026-01-23 09:02:49.14	133.51	21.89	-44.3	-45.4	22.0	0.00e+00	0	42	0	348127232	60	4020
2026-01-23 09:02:50.15	133.46	22.03	-44.4	-45.4	21.9	0.00e+00	0	43	0	350224384	60	4051
2026-01-23 09:02:51.15	133.41	22.17	-44.3	-45.4	22.0	0.00e+00	0	42	0	351272960	60	4023
2026-01-23 09:02:52.16	133.35	22.31	-44.3	-45.4	22.0	0.00e+00	0	42	0	353370112	60	4042
2026-01-23 09:02:53.17	133.30	22.45	-44.4	-45.4	21.9	0.00e+00	0	43	0	355467264	60	4050
2026-01-23 09:02:54.18	133.24	22.60	-44.3	-45.4	22.0	0.00e+00	0	43	0	357564416	60	4037
2026-01-23 09:02:55.19	133.19	22.74	-44.5	-45.6	21.9	0.00e+00	0	43	0	359661568	60	4112
2026-01-23 09:02:56.19	133.14	22.89	-44.4	-45.5	22.0	0.00e+00	0	42	0	361758720	60	4066
2026-01-23 09:02:57.20	133.08	23.03	-44.5	-45.6	21.9	0.00e+00	0	42	0	362807296	60	4106
2026-01-23 09:02:58.21	133.02	23.18	-44.4	-45.5	21.9	0.00e+00	0	43	0	364904448	60	4077
2026-01-23 09:02:59.22	132.97	23.33	-44.5	-45.6	21.8	0.00e+00	0	43	0	367001600	60	4130
2026-01-23 09:03:00.23	132.91	23.47	-44.6	-45.7	21.8	0.00e+00	0	43	0	369098752	60	4187
2026-01-23 09:03:01.24	132.85	23.62	-44.6	-45.7	21.8	0.00e+00	0	43	0	371195904	60	4175
2026-01-23 09:03:02.24	132.79	23.77	-44.6	-45.7	21.8	0.00e+00	0	43	0	372244480	60	4168
2026-01-23 09:03:03.25	132.73	23.92	-44.6	-45.7	21.7	0.00e+00	0	43	0	374341632	60	4181
2026-01-23 09:03:04.26	132.67	24.07	-44.7	-45.8	21.7	0.00e+00	0	43	0	376438784	60	4213
2026-01-23 09:03:05.27	132.61	24.23	-44.7	-45.8	21.7	0.00e+00	0	43	0	378535936	60	4214
2026-01-23 09:03:06.27	132.55	24.38	-44.8	-45.9	21.6	0.00e+00	0	43	0	380633088	60	4282
2026-01-23 09:03:07.28	132.49	24.53	-44.9	-46.1	21.4	0.00e+00	0	43	0	381681664	60	4352
2026-01-23 09:03:08.29	132.43	24.69	-44.9	-46.0	21.5	0.00e+00	0	43	0	383778816	60	4326
2026-01-23 09:03:09.29	132.37	24.84	-45.0	-46.2	21.3	0.00e+00	0	43	0	385875968	60	4406
2026-01-23 09:03:10.30	132.30	25.00	-45.0	-46.2	21.4	0.00e+00	0	43	0	387973120	60	4392
2026-01-23 09:03:11.31	132.24	25.16	-45.0	-46.2	21.3	0.00e+00	0	43	0	390070272	60	4419
2026-01-23 09:03:12.32	132.17	25.31	-45.2	-46.4	21.2	0.00e+00	0	42	0	391118848	60	4507
2026-01-23 09:03:13.33	132.11	25.47	-45.2	-46.4	21.2	0.00e+00	0	43	0	393216000	61	4244
2026-01-23 09:03:14.34	132.04	25.63	-45.3	-46.6	21.0	0.00e+00	0	43	0	395313152	61	4341
2026-01-23 09:03:15.34	131.97	25.79	-45.4	-46.6	20.9	0.00e+00	0	43	0	397410304	61	4369
2026-01-23 09:03:16.35	131.90	25.96	-45.4	-46.6	21.0	0.00e+00	0	43	0	399507456	61	4350
2026-01-23 09:03:17.36	131.84	26.12	-45.5	-46.7	20.9	0.00e+00	0	43	0	400556032	61	4405
2026-01-23 09:03:18.37	131.77	26.28	-45.6	-46.8	20.8	0.00e+00	0	42	0	402653184	61	4471
2026-01-23 09:03:19.38	131.70	26.45	-45.6	-46.9	20.8	0.00e+00	0	43	0	404750336	61	4501
2026-01-23 09:03:20.39	131.63	26.61	-45.7	-47.0	20.7	0.00e+00	0	43	0	406847488	61	4558
2026-01-23 09:03:21.40	131.55	26.78	-45.9	-47.2	20.5	0.00e+00	0	42	0	408944640	62	4404
2026-01-23 09:03:22.40	131.48	26.95	-45.9	-47.3	20.4	0.00e+00	0	43	0	409993216	62	4442
2026-01-23 09:03:23.41	131.41	27.12	-46.1	-47.4	20.2	0.00e+00	0	43	0	412090368	62	4529
2026-01-23 09:03:24.42	131.33	27.29	-46.3	-47.7	20.0	0.00e+00	0	43	0	414187520	63	4400
2026-01-23 09:03:25.43	131.26	27.46	-46.5	-47.9	19.8	0.00e+00	0	43	0	416284672	63	4497
2026-01-23 09:03:26.43	131.19	27.63	-46.6	-48.0	19.6	0.00e+00	0	43	0	418381824	63	4590
2026-01-23 09:03:27.44	131.11	27.80	-46.7	-48.2	19.4	0.00e+00	0	43	0	419430400	64	4429
2026-01-23 09:03:28.45	131.03	27.97	-46.9	-48.4	19.2	0.00e+00	0	43	0	421527552	64	4544
2026-01-23 09:03:29.46	130.95	28.15	-47.0	-48.6	19.0	0.00e+00	0	43	0	423624704	64	4623
2026-01-23 09:03:30.47	130.87	28.32	-47.1	-48.7	18.9	0.00e+00	0	43	0	425721856	64	4693
2026-01-23 09:03:31.47	130.79	28.50	-47.2	-48.8	18.8	0.00e+00	0	43	0	427819008	65	4468
2026-01-23 09:03:32.48	130.71	28.68	-47.4	-49.0	18.6	0.00e+00	0	43	0	428867584	65	4597
2026-01-23 09:03:33.49	130.63	28.86	-47.5	-49.2	18.5	0.00e+00	0	43	0	430964736	65	4668
2026-01-23 09:03:34.50	130.55	29.04	-47.5	-49.2	18.5	0.00e+00	0	43	0	433061888	65	4676
2026-01-23 09:03:35.51	130.46	29.22	-47.5	-49.2	18.5	0.00e+00	0	43	0	435159040	65	4669
2026-01-23 09:03:36.52	130.38	29.40	-47.5	-49.2	18.5	0.00e+00	0	43	0	437256192	65	4670
2026-01-23 09:03:37.52	130.29	29.58	-47.6	-49.3	18.4	0.00e+00	0	43	0	438304768	65	4737
2026-01-23 09:03:38.53	130.21	29.77	-47.6	-49.4	18.3	0.00e+00	0	43	0	440401920	65	4769
2026-01-23 09:03:39.54	130.12	29.95	-47.8	-49.6	18.1	0.00e+00	0	43	0	442499072	66	4614
2026-01-23 09:03:40.55	130.03	30.14	-47.6	-49.3	18.3	0.00e+00	0	43	0	444596224	66	4483
2026-01-23 09:03:41.55	129.94	30.33	-47.7	-49.4	18.3	0.00e+00	0	43	0	446693376	66	4514
2026-01-23 09:03:42.56	129.85	30.52	-47.8	-49.5	18.2	0.00e+00	0	43	0	447741952	66	4573
2026-01-23 09:03:43.57	129.76	30.71	-47.8	-49.6	18.1	0.00e+00	0	43	0	449839104	66	4604
2026-01-23 09:03:44.58	129.66	30.90	-48.0	-49.8	18.0	0.00e+00	0	43	0	451936256	66	4713
2026-01-23 09:03:45.59	129.57	31.09	-48.1	-50.0	17.7	0.00e+00	0	43	0	454033408	66	4842
2026-01-23 09:03:46.60	129.47	31.29	-48.3	-50.2	17.6	0.00e+00	0	43	0	456130560	67	4672
2026-01-23 09:03:47.60	129.38	31.48	-48.3	-50.3	17.5	0.00e+00	0	43	0	457179136	67	4728
2026-01-23 09:03:48.61	129.28	31.67	-48.5	-50.5	17.1	0.00e+00	0	43	0	459276288	67	4859
2026-01-23 09:03:49.62	129.18	31.87	-48.5	-50.5	17.2	0.00e+00	0	43	0	461373440	67	4818
2026-01-23 09:03:50.63	129.08	32.07	-48.6	-50.7	17.1	0.00e+00	0	43	0	463470592	67	4942
2026-01-23 09:03:51.63	128.98	32.27	-48.7	-50.7	17.0	0.00e+00	0	43	0	465567744	67	4980
2026-01-23 09:03:52.64	128.87	32.47	-48.9	-51.0	16.9	0.00e+00	0	43	0	466616320	68	4831
2026-01-23 09:03:53.65	128.77	32.67	-48.7	-50.8	17.0	0.00e+00	0	43	0	468713472	68	4730
2026-01-23 09:03:54.66	128.66	32.88	-48.8	-50.9	17.0	0.00e+00	0	43	0	470810624	68	4773
2026-01-23 09:03:55.67	128.56	33.08	-48.9	-51.1	16.8	0.00e+00	0	43	0	472907776	68	4889
2026-01-23 09:03:56.68	128.45	33.29	-48.9	-51.0	16.8	0.00e+00	0	43	0	475004928	68	4858
2026-01-23 09:03:57.68	128.34	33.49	-49.0	-51.2	16.7	0.00e+00	0	43	0	477102080	68	4940
2026-01-23 09:03:58.69	128.23	33.70	-49.1	-51.3	16.6	0.00e+00	0	43	0	478150656	68	4999
2026-01-23 09:03:59.70	128.11	33.91	-49.1	-51.3	16.5	0.00e+00	0	43	0	480247808	68	5036
2026-01-23 09:04:00.71	128.00	34.12	-49.2	-51.4	16.4	0.00e+00	0	43	0	482344960	68	5083
2026-01-23 09:04:01.72	127.88	34.34	-48.9	-51.0	16.8	0.00e+00	0	43	0	484442112	68	4867
2026-01-23 09:04:02.72	127.77	34.55	-48.9	-50.9	16.9	0.00e+00	0	43	0	485490688	68	4810
2026-01-23 09:04:03.73	127.65	34.76	-48.9	-51.0	16.9	0.00e+00	0	43	0	487587840	68	4816
2026-01-23 09:04:04.74	127.52	34.98	-48.8	-50.8	17.0	0.00e+00	0	43	0	489684992	68	4727
2026-01-23 09:04:05.75	127.40	35.20	-48.9	-51.0	16.9	0.00e+00	0	43	0	491782144	68	4821
2026-01-23 09:04:06.76	127.28	35.42	-48.9	-50.9	16.9	0.00e+00	0	43	0	493879296	68	4813
2026-01-23 09:04:07.76	127.15	35.64	-49.0	-51.1	16.7	0.00e+00	0	43	0	494927872	68	4911
2026-01-23 09:04:08.77	127.03	35.86	-49.1	-51.3	16.6	0.00e+00	0	43	0	497025024	68	4994
2026-01-23 09:04:09.78	126.90	36.08	-49.1	-51.3	16.6	0.00e+00	0	43	0	499122176	68	5028
2026-01-23 09:04:10.78	126.77	36.30	-49.2	-51.4	16.4	0.00e+00	0	43	0	501219328	69	4813
2026-01-23 09:04:11.79	126.63	36.53	-49.4	-51.7	16.2	0.00e+00	0	43	0	503316480	69	4970
2026-01-23 09:04:12.80	126.50	36.76	-49.5	-51.9	16.0	0.00e+00	0	43	0	505413632	69	5077
2026-01-23 09:04:13.81	126.36	36.99	-49.5	-51.9	16.0	0.00e+00	0	43	0	506462208	69	5096
2026-01-23 09:04:14.82	126.22	37.22	-49.4	-51.7	16.2	0.00e+00	0	43	0	508559360	69	4977
2026-01-23 09:04:15.82	126.08	37.45	-49.4	-51.7	16.2	0.00e+00	0	43	0	510656512	69	4954
2026-01-23 09:04:16.83	125.94	37.68	-49.2	-51.4	16.5	0.00e+00	0	43	0	512753664	69	4777
2026-01-23 09:04:17.84	125.79	37.92	-48.8	-50.9	17.0	0.00e+00	0	43	0	513802240	69	4502
2026-01-23 09:04:18.85	125.64	38.15	-48.8	-50.8	17.0	0.00e+00	0	43	0	515899392	69	4493
2026-01-23 09:04:19.86	125.49	38.39	-48.8	-50.8	17.1	0.00e+00	0	43	0	517996544	69	4467
2026-01-23 09:04:20.86	125.34	38.63	-48.9	-51.0	16.9	0.00e+00	0	43	0	520093696	69	4582
2026-01-23 09:04:21.87	125.19	38.87	-48.9	-51.0	16.9	0.00e+00	0	43	0	522190848	69	4587
2026-01-23 09:04:22.88	125.03	39.11	-48.9	-51.1	16.9	0.00e+00	0	43	0	524288000	69	4600
2026-01-23 09:04:23.89	124.87	39.35	-48.7	-50.7	17.2	0.00e+00	0	43	0	525336576	69	4434
2026-01-23 09:04:24.90	124.71	39.60	-48.5	-50.4	17.5	0.00e+00	0	43	0	527433728	68	4545
2026-01-23 09:04:25.90	124.55	39.84	-48.2	-50.0	17.9	0.00e+00	0	43	0	529530880	68	4318
2026-01-23 09:04:26.91	124.38	40.09	-48.1	-49.9	18.1	0.00e+00	0	43	0	531628032	68	4251
2026-01-23 09:04:27.92	124.21	40.34	-47.9	-49.6	18.3	0.00e+00	0	43	0	533725184	67	4349
2026-01-23 09:04:28.93	124.04	40.59	-47.8	-49.5	18.4	0.00e+00	0	43	0	534773760	67	4304
2026-01-23 09:04:29.94	123.87	40.84	-47.6	-49.2	18.6	0.00e+00	0	43	0	536870912	67	4180
2026-01-23 09:04:30.94	123.69	41.09	-47.4	-49.0	18.9	0.00e+00	0	43	0	538968064	66	4293
2026-01-23 09:04:31.95	123.51	41.35	-47.2	-48.8	19.1	0.00e+00	0	43	0	541065216	66	4195
2026-01-23 09:04:32.96	123.33	41.60	-47.1	-48.7	19.2	0.00e+00	0	43	0	542113792	66	4149
2026-01-23 09:04:33.97	123.14	41.86	-47.2	-48.7	19.2	0.00e+00	0	43	0	544210944	66	4153
2026-01-23 09:04:34.97	122.96	42.12	-47.3	-48.9	19.0	0.00e+00	0	43	0	546308096	66	4256
2026-01-23 09:04:35.98	122.76	42.38	-47.1	-48.5	19.3	0.00e+00	0	43	0	548405248	66	4098
2026-01-23 09:04:36.99	122.57	42.64	-47.1	-48.6	19.3	0.00e+00	0	43	0	550502400	66	4110
2026-01-23 09:04:38.00	122.37	42.90	-47.2	-48.7	19.1	0.00e+00	0	43	0	552599552	66	4187
2026-01-23 09:04:39.01	122.17	43.17	-47.3	-48.8	19.0	0.00e+00	0	43	0	553648128	66	4238
2026-01-23 09:04:40.01	121.96	43.43	-47.1	-48.6	19.2	0.00e+00	0	43	0	555745280	66	4138
2026-01-23 09:04:41.02	121.76	43.70	-46.9	-48.3	19.4	0.00e+00	0	43	0	557842432	65	4232
2026-01-23 09:04:42.03	121.54	43.97	-46.7	-48.1	19.7	0.00e+00	0	43	0	559939584	65	4132
2026-01-23 09:04:43.04	121.33	44.24	-46.3	-47.7	20.1	0.00e+00	0	43	0	562036736	64	4154
2026-01-23 09:04:44.05	121.11	44.51	-46.2	-47.5	20.2	0.00e+00	0	43	0	563085312	64	4090
2026-01-23 09:04:45.06	120.88	44.79	-46.2	-47.5	20.3	0.00e+00	0	43	0	565182464	64	4077
2026-01-23 09:04:46.07	120.66	45.06	-46.0	-47.3	20.5	0.00e+00	0	43	0	567279616	64	3983
2026-01-23 09:04:47.07	120.43	45.33	-45.7	-47.0	20.9	0.00e+00	0	43	0	569376768	63	4052
2026-01-23 09:04:48.08	120.19	45.61	-45.8	-47.1	20.8	0.00e+00	0	43	0	571473920	63	4114
2026-01-23 09:04:49.09	119.95	45.89	-46.0	-47.3	20.5	0.00e+00	0	43	0	572522496	63	4219
2026-01-23 09:04:50.10	119.70	46.17	-46.4	-47.7	20.2	0.00e+00	0	43	0	574619648	63	4432
2026-01-23 09:04:51.11	119.46	46.45	-46.4	-47.8	20.1	0.00e+00	0	43	0	576716800	63	4444
2026-01-23 09:04:52.12	119.20	46.74	-46.2	-47.5	20.4	0.00e+00	0	43	0	578813952	63	4338
2026-01-23 09:04:53.12	118.95	47.02	-46.1	-47.4	20.5	0.00e+00	0	43	0	580911104	63	4252
2026-01-23 09:04:54.13	118.68	47.30	-46.1	-47.3	20.6	0.00e+00	0	43	0	581959680	63	4229
2026-01-23 09:04:55.14	118.42	47.59	-46.4	-47.7	20.2	0.00e+00	0	43	0	584056832	63	4414
2026-01-23 09:04:56.15	118.14	47.88	-46.5	-47.9	20.0	0.00e+00	0	43	0	586153984	63	4518
2026-01-23 09:04:57.16	117.86	48.17	-46.6	-48.0	19.9	0.00e+00	0	43	0	588251136	63	4567
2026-01-23 09:04:58.17	117.58	48.46	-46.6	-47.9	20.0	0.00e+00	0	43	0	590348288	63	4539
2026-01-23 09:04:59.18	117.29	48.75	-46.5	-47.9	20.0	0.00e+00	0	43	0	592445440	63	4505
2026-01-23 09:05:00.18	117.00	49.04	-46.4	-47.8	20.1	0.00e+00	0	43	0	593494016	63	4461
2026-01-23 09:05:01.19	116.70	49.33	-46.2	-47.5	20.3	0.00e+00	0	43	0	595591168	63	4340
2026-01-23 09:05:02.20	116.39	49.63	-46.0	-47.3	20.6	0.00e+00	0	43	0	597688320	63	4228
2026-01-23 09:05:03.21	116.08	49.93	-45.9	-47.2	20.7	0.00e+00	0	43	0	599785472	63	4161
2026-01-23 09:05:04.22	115.76	50.22	-45.9	-47.1	20.8	0.00e+00	0	43	0	600834048	63	4139
2026-01-23 09:05:05.23	115.44	50.52	-45.3	-46.4	21.5	0.00e+00	0	42	0	602931200	62	4029
2026-01-23 09:05:06.24	115.11	50.82	-45.0	-46.1	21.8	0.00e+00	0	43	0	605028352	61	4115
2026-01-23 09:05:07.24	114.77	51.12	-45.1	-46.2	21.6	0.00e+00	0	43	0	607125504	61	4191
2026-01-23 09:05:08.25	114.43	51.42	-45.1	-46.2	21.6	0.00e+00	0	43	0	609222656	61	4179
2026-01-23 09:05:09.26	114.08	51.72	-44.9	-46.1	21.8	0.00e+00	0	43	0	610271232	61	4103
2026-01-23 09:05:10.27	113.72	52.02	-44.6	-45.7	22.2	0.00e+00	0	43	0	612368384	61	3919
2026-01-23 09:05:11.28	113.35	52.32	-44.6	-45.7	22.1	0.00e+00	0	43	0	614465536	61	3939
2026-01-23 09:05:12.28	112.98	52.62	-44.4	-45.5	22.3	0.00e+00	0	43	0	616562688	60	4061
2026-01-23 09:05:13.29	112.60	52.93	-44.4	-45.4	22.4	0.00e+00	0	43	0	618659840	60	4023
2026-01-23 09:05:14.30	112.21	53.23	-44.6	-45.7	22.1	0.00e+00	0	43	0	620756992	60	4160
2026-01-23 09:05:15.31	111.81	53.54	-44.7	-45.9	21.9	0.00e+00	0	43	0	621805568	60	4251
2026-01-23 09:05:16.32	111.40	53.84	-45.1	-46.3	21.6	0.00e+00	0	43	0	623902720	60	4449
2026-01-23 09:05:17.32	110.99	54.14	-45.2	-46.3	21.6	0.00e+00	0	43	0	625999872	61	4219
2026-01-23 09:05:18.33	110.57	54.45	-45.5	-46.7	21.2	0.00e+00	0	43	0	628097024	61	4408
2026-01-23 09:05:19.34	110.13	54.76	-46.0	-47.2	20.7	0.00e+00	0	43	0	629145600	62	4433
2026-01-23 09:05:20.35	109.69	55.06	-46.4	-47.7	20.2	0.00e+00	0	43	0	631242752	63	4440
2026-01-23 09:05:21.35	109.24	55.37	-46.7	-48.1	19.8	0.00e+00	0	43	0	633339904	64	4349
2026-01-23 09:05:22.36	108.78	55.67	-47.3	-48.9	19.1	0.00e+00	0	43	0	635437056	65	4507
2026-01-23 09:05:23.37	108.31	55.98	-48.0	-49.8	18.2	0.00e+00	0	43	0	637534208	66	4712
2026-01-23 09:05:24.38	107.82	56.28	-48.4	-50.3	17.7	0.00e+00	0	43	0	639631360	67	4718
2026-01-23 09:05:25.38	107.33	56.58	-48.4	-50.3	17.7	0.00e+00	0	43	0	640679936	67	4739
2026-01-23 09:05:26.39	106.83	56.89	-48.4	-50.3	17.6	0.00e+00	0	43	0	642777088	67	4754
2026-01-23 09:05:27.40	106.31	57.19	-48.5	-50.4	17.6	0.00e+00	0	43	0	644874240	67	4775
2026-01-23 09:05:28.41	105.78	57.50	-48.4	-50.3	17.7	0.00e+00	0	43	0	646971392	67	4706
2026-01-23 09:05:29.42	105.24	57.80	-48.4	-50.2	17.7	0.00e+00	0	43	0	649068544	67	4703
2026-01-23 09:05:30.42	104.69	58.10	-48.3	-50.1	17.8	0.00e+00	0	43	0	650117120	67	4647
2026-01-23 09:05:31.43	104.13	58.40	-48.0	-49.7	18.2	0.00e+00	0	43	0	652214272	67	4424
2026-01-23 09:05:32.44	103.55	58.70	-47.6	-49.2	18.7	0.00e+00	0	43	0	654311424	67	4191
2026-01-23 09:05:33.45	102.96	59.00	-47.4	-48.9	19.0	0.00e+00	0	43	0	656408576	66	4284
2026-01-23 09:05:34.45	102.36	59.29	-47.5	-49.0	18.9	0.00e+00	0	43	0	657457152	66	4339
2026-01-23 09:05:35.46	101.74	59.59	-47.1	-48.6	19.4	0.00e+00	0	43	0	659554304	66	4101
2026-01-23 09:05:36.47	101.11	59.88	-46.4	-47.7	20.2	0.00e+00	0	43	0	661651456	64	4160
2026-01-23 09:05:37.48	100.46	60.17	-46.0	-47.3	20.6	0.00e+00	0	43	0	663748608	64	3966
2026-01-23 09:05:38.49	99.79	60.46	-46.0	-47.3	20.7	0.00e+00	0	43	0	665845760	63	4210
2026-01-23 09:05:39.50	99.12	60.75	-45.4	-46.5	21.3	0.00e+00	0	43	0	667942912	62	4095
2026-01-23 09:05:40.50	98.43	61.03	-44.6	-45.6	22.2	0.00e+00	0	43	0	668991488	61	3913
2026-01-23 09:05:41.51	97.72	61.31	-44.5	-45.5	22.3	0.00e+00	0	42	0	671088640	60	4072
2026-01-23 09:05:42.52	96.99	61.59	-44.3	-45.3	22.5	0.00e+00	0	43	0	673185792	60	3995
2026-01-23 09:05:43.53	96.25	61.87	-44.1	-45.1	22.8	0.00e+00	0	43	0	675282944	60	3882
2026-01-23 09:05:44.54	95.49	62.14	-44.2	-45.2	22.6	0.00e+00	0	43	0	677380096	60	3955
2026-01-23 09:05:45.54	94.73	62.41	-44.3	-45.3	22.5	0.00e+00	0	43	0	678428672	60	3992
2026-01-23 09:05:46.55	93.93	62.68	-44.5	-45.5	22.4	0.00e+00	0	43	0	680525824	60	4076
2026-01-23 09:05:47.56	93.12	62.94	-44.3	-45.3	22.5	0.00e+00	0	43	0	682622976	60	3992
2026-01-23 09:05:48.57	92.29	63.20	-44.3	-45.3	22.8	0.00e+00	0	43	0	684720128	59	4224
2026-01-23 09:05:49.57	91.45	63.45	-44.4	-45.4	22.7	0.00e+00	0	43	0	686817280	59	4280
2026-01-23 09:05:50.58	90.59	63.70	-44.2	-45.2	22.8	0.00e+00	0	43	0	687865856	59	4189
2026-01-23 09:05:51.59	89.70	63.95	-44.3	-45.3	22.8	0.00e+00	0	42	0	689963008	59	4216
2026-01-23 09:05:52.60	88.80	64.19	-44.3	-45.4	22.8	0.00e+00	0	42	0	692060160	59	4244
2026-01-23 09:05:53.61	87.88	64.42	-44.6	-45.6	22.5	0.00e+00	0	43	0	694157312	59	4366
2026-01-23 09:05:54.62	86.94	64.65	-44.6	-45.6	22.3	0.00e+00	0	43	0	696254464	60	4122
2026-01-23 09:05:55.62	85.99	64.88	-44.9	-46.0	21.9	0.00e+00	0	43	0	697303040	60	4325
2026-01-23 09:05:56.63	85.01	65.10	-44.7	-45.9	22.0	0.00e+00	0	43	0	699400192	60	4249
2026-01-23 09:05:57.64	84.01	65.31	-45.1	-46.3	21.7	0.00e+00	0	43	0	701497344	60	4457
2026-01-23 09:05:58.65	82.99	65.52	-45.7	-46.9	21.1	0.00e+00	0	43	0	703594496	61	4532
2026-01-23 09:05:59.66	81.95	65.72	-46.2	-47.5	20.5	0.00e+00	0	43	0	705691648	62	4553
2026-01-23 09:06:00.66	80.91	65.91	-46.9	-48.4	19.5	0.00e+00	0	43	0	706740224	64	4528
2026-01-23 09:06:01.67	79.84	66.09	-47.2	-48.7	19.2	0.00e+00	0	43	0	708837376	65	4430
2026-01-23 09:06:02.68	78.75	66.27	-46.6	-48.0	19.9	0.00e+00	0	43	0	710934528	65	4083
2026-01-23 09:06:03.69	77.64	66.44	-46.6	-47.9	20.0	0.00e+00	0	43	0	713031680	64	4278
2026-01-23 09:06:04.69	76.52	66.61	-46.7	-48.1	19.8	0.00e+00	0	43	0	715128832	64	4388
2026-01-23 09:06:05.70	75.38	66.76	-47.1	-48.6	19.5	0.00e+00	0	43	0	716177408	64	4614
2026-01-23 09:06:06.71	74.22	66.91	-47.3	-48.8	19.2	0.00e+00	0	43	0	718274560	65	4474
2026-01-23 09:06:07.72	73.04	67.05	-47.5	-49.1	18.8	0.00e+00	0	43	0	720371712	65	4631
2026-01-23 09:06:08.72	71.86	67.17	-47.7	-49.4	18.7	0.00e+00	0	43	0	722468864	66	4501
2026-01-23 09:06:09.73	70.66	67.29	-47.9	-49.6	18.4	0.00e+00	0	43	0	724566016	66	4627
2026-01-23 09:06:10.74	69.44	67.41	-47.7	-49.3	18.6	0.00e+00	0	43	0	725614592	66	4485
2026-01-23 09:06:11.75	68.21	67.51	-47.4	-49.0	19.1	0.00e+00	0	43	0	727711744	66	4320
2026-01-23 09:06:12.76	66.96	67.60	-47.3	-48.8	19.1	0.00e+00	0	42	0	729808896	66	4241
2026-01-23 09:06:13.76	65.72	67.68	-46.8	-48.2	19.7	0.00e+00	0	43	0	731906048	65	4178
2026-01-23 09:06:14.77	64.46	67.76	-46.9	-48.3	19.7	0.00e+00	0	43	0	734003200	65	4231
2026-01-23 09:06:15.78	63.19	67.82	-47.0	-48.4	19.5	0.00e+00	0	43	0	735051776	65	4290
2026-01-23 09:06:16.79	61.91	67.87	-47.3	-48.8	19.2	0.00e+00	0	43	0	737148928	65	4460
2026-01-23 09:06:17.80	60.62	67.91	-47.3	-48.8	19.2	0.00e+00	0	43	0	739246080	65	4456
2026-01-23 09:06:18.81	59.33	67.95	-47.5	-49.1	19.0	0.00e+00	0	43	0	741343232	65	4621
2026-01-23 09:06:19.81	58.05	67.97	-47.3	-48.9	19.1	0.00e+00	0	43	0	743440384	65	4502
2026-01-23 09:06:20.82	56.76	67.98	-47.6	-49.3	18.7	0.00e+00	0	43	0	744488960	65	4720
2026-01-23 09:06:21.83	55.46	67.98	-48.0	-49.8	18.3	0.00e+00	0	43	0	746586112	66	4725
2026-01-23 09:06:22.84	54.17	67.97	-48.2	-50.0	18.1	0.00e+00	0	43	0	748683264	66	4821
2026-01-23 09:06:23.85	52.88	67.95	-48.0	-49.7	18.2	0.00e+00	0	43	0	750780416	66	4680
2026-01-23 09:06:24.85	51.60	67.92	-47.8	-49.4	18.6	0.00e+00	0	43	0	752877568	66	4544
2026-01-23 09:06:25.87	50.30	67.88	-47.5	-49.1	18.9	0.00e+00	0	43	0	754974720	66	4381
2026-01-23 09:06:26.87	49.03	67.83	-47.2	-48.6	19.4	0.00e+00	0	43	0	756023296	66	4135
2026-01-23 09:06:27.88	47.76	67.77	-47.1	-48.6	19.4	0.00e+00	0	43	0	758120448	66	4121
2026-01-23 09:06:28.88	46.51	67.70	-47.6	-49.2	18.8	0.00e+00	0	43	0	760217600	66	4431
2026-01-23 09:06:29.89	45.25	67.62	-47.7	-49.3	18.7	0.00e+00	0	43	0	762314752	66	4471
2026-01-23 09:06:30.90	44.01	67.53	-47.7	-49.3	18.8	0.00e+00	0	43	0	763363328	66	4453
2026-01-23 09:06:31.91	42.77	67.43	-47.3	-48.8	19.2	0.00e+00	0	43	0	765460480	66	4198
2026-01-23 09:06:32.92	41.55	67.32	-46.9	-48.3	19.7	0.00e+00	0	43	0	767557632	65	4217
2026-01-23 09:06:33.93	40.34	67.20	-46.6	-48.0	20.0	0.00e+00	0	43	0	769654784	65	4080
2026-01-23 09:06:34.93	39.16	67.08	-46.7	-48.1	19.7	0.00e+00	0	43	0	771751936	65	4141
2026-01-23 09:06:35.94	37.98	66.94	-46.7	-48.1	19.9	0.00e+00	0	43	0	772800512	65	4110
2026-01-23 09:06:36.95	36.82	66.80	-46.4	-47.8	20.2	0.00e+00	0	43	0	774897664	64	4197
2026-01-23 09:06:37.95	35.68	66.65	-46.4	-47.7	20.3	0.00e+00	0	43	0	776994816	64	4181
2026-01-23 09:06:38.96	34.55	66.49	-46.6	-47.9	20.1	0.00e+00	0	43	0	779091968	64	4291
2026-01-23 09:06:39.97	33.44	66.32	-46.2	-47.5	20.5	0.00e+00	0	43	0	781189120	64	4064
2026-01-23 09:06:40.98	32.34	66.14	-45.8	-47.1	20.9	0.00e+00	0	43	0	783286272	63	4110
2026-01-23 09:06:41.99	31.27	65.96	-45.7	-46.9	21.1	0.00e+00	0	43	0	784334848	63	4028
2026-01-23 09:06:43.00	30.21	65.76	-45.5	-46.7	21.3	0.00e+00	0	43	0	786432000	62	4153
2026-01-23 09:06:44.00	29.18	65.57	-45.2	-46.3	21.6	0.00e+00	0	43	0	788529152	62	3996
2026-01-23 09:06:45.01	28.16	65.36	-45.0	-46.1	21.9	0.00e+00	0	43	0	790626304	62	3892
2026-01-23 09:06:46.02	27.16	65.15	-44.7	-45.8	22.1	0.00e+00	0	43	0	791674880	61	3982
2026-01-23 09:06:47.03	26.17	64.94	-44.4	-45.4	22.5	0.00e+00	0	42	0	793772032	60	4036
2026-01-23 09:06:48.03	25.22	64.71	-44.3	-45.3	22.6	0.00e+00	0	42	0	795869184	60	3977
2026-01-23 09:06:49.04	24.27	64.49	-44.2	-45.2	22.7	0.00e+00	0	42	0	797966336	60	3917
2026-01-23 09:06:50.05	23.35	64.25	-44.2	-45.2	22.6	0.00e+00	0	43	0	800063488	60	3947
2026-01-23 09:06:51.06	22.44	64.01	-44.8	-45.9	22.1	0.00e+00	0	43	0	801112064	60	4256
2026-01-23 09:06:52.07	21.55	63.77	-44.9	-46.0	21.9	0.00e+00	0	43	0	803209216	60	4328
2026-01-23 09:06:53.08	20.68	63.52	-44.9	-45.9	22.0	0.00e+00	0	43	0	805306368	60	4291
2026-01-23 09:06:54.08	19.84	63.27	-45.0	-46.1	21.9	0.00e+00	0	43	0	807403520	60	4372
2026-01-23 09:06:55.09	19.01	63.01	-45.1	-46.2	21.7	0.00e+00	0	43	0	809500672	60	4428
2026-01-23 09:06:56.10	18.19	62.75	-45.7	-46.9	21.1	0.00e+00	0	43	0	811597824	61	4502
2026-01-23 09:06:57.11	17.40	62.48	-46.1	-47.3	20.7	0.00e+00	0	43	0	812646400	62	4472
2026-01-23 09:06:58.12	16.62	62.21	-46.2	-47.5	20.5	0.00e+00	0	43	0	814743552	63	4312
2026-01-23 09:06:59.12	15.86	61.94	-46.5	-47.8	20.3	0.00e+00	0	43	0	816840704	63	4464
2026-01-23 09:07:00.13	15.12	61.67	-46.4	-47.7	20.3	0.00e+00	0	43	0	818937856	63	4410
2026-01-23 09:07:01.14	14.39	61.39	-46.5	-47.8	20.2	0.00e+00	0	43	0	819986432	63	4476
2026-01-23 09:07:02.15	13.67	61.11	-46.7	-48.1	19.8	0.00e+00	0	42	0	822083584	64	4367
2026-01-23 09:07:03.15	12.98	60.83	-47.3	-48.8	19.1	0.00e+00	0	43	0	824180736	65	4480
2026-01-23 09:07:04.16	12.30	60.54	-47.6	-49.2	18.8	0.00e+00	0	43	0	826277888	65	4665
2026-01-23 09:07:05.17	11.64	60.25	-47.8	-49.4	18.6	0.00e+00	0	43	0	828375040	66	4545
2026-01-23 09:07:06.18	10.99	59.96	-47.7	-49.3	18.7	0.00e+00	0	42	0	830472192	66	4465
2026-01-23 09:07:07.19	10.35	59.67	-47.7	-49.4	18.6	0.00e+00	0	43	0	831520768	66	4516
2026-01-23 09:07:08.20	9.73	59.38	-48.1	-49.9	18.2	0.00e+00	0	43	0	833617920	66	4770
2026-01-23 09:07:09.20	9.13	59.08	-48.2	-50.0	18.1	0.00e+00	0	43	0	835715072	67	4563
2026-01-23 09:07:10.21	8.53	58.79	-48.5	-50.4	17.7	0.00e+00	0	43	0	837812224	67	4770
2026-01-23 09:07:11.22	7.95	58.49	-48.3	-50.1	18.0	0.00e+00	0	43	0	839909376	67	4619
2026-01-23 09:07:12.23	7.38	58.19	-47.9	-49.6	18.5	0.00e+00	0	43	0	840957952	67	4363
2026-01-23 09:07:13.24	6.83	57.89	-47.6	-49.2	18.8	0.00e+00	0	43	0	843055104	67	4171
2026-01-23 09:07:14.24	6.29	57.59	-47.7	-49.3	18.7	0.00e+00	0	43	0	845152256	67	4229
2026-01-23 09:07:15.25	5.76	57.29	-47.7	-49.4	18.6	0.00e+00	0	43	0	847249408	67	4251
2026-01-23 09:07:16.26	5.24	56.98	-47.3	-48.8	19.2	0.00e+00	0	43	0	848297984	66	4203
2026-01-23 09:07:17.27	4.73	56.68	-47.2	-48.7	19.3	0.00e+00	0	42	0	850395136	66	4163
2026-01-23 09:07:18.27	4.24	56.38	-47.0	-48.5	19.6	0.00e+00	0	43	0	852492288	65	4300
2026-01-23 09:07:19.28	3.75	56.07	-46.4	-47.8	20.1	0.00e+00	0	43	0	854589440	64	4198
2026-01-23 09:07:20.29	3.28	55.77	-46.0	-47.3	20.6	0.00e+00	0	43	0	856686592	64	3968
2026-01-23 09:07:21.30	2.81	55.46	-45.9	-47.1	20.8	0.00e+00	0	43	0	858783744	63	4128
2026-01-23 09:07:22.31	2.36	55.16	-45.5	-46.6	21.3	0.00e+00	0	42	0	859832320	63	3908
2026-01-23 09:07:23.32	1.91	54.85	-45.4	-46.6	21.4	0.00e+00	0	43	0	861929472	62	4121
2026-01-23 09:07:24.32	1.48	54.55	-45.2	-46.3	21.6	0.00e+00	0	43	0	864026624	62	3977
2026-01-23 09:07:25.33	1.06	54.24	-45.2	-46.3	21.7	0.00e+00	0	43	0	866123776	62	3970
2026-01-23 09:07:26.34	0.64	53.94	-45.0	-46.1	21.8	0.00e+00	0	43	0	868220928	61	4115
2026-01-23 09:07:27.35	0.23	53.64	-45.0	-46.1	21.7	0.00e+00	0	43	0	869269504	61	4139
2026-01-23 09:07:28.36	359.83	53.33	-45.1	-46.3	21.7	0.00e+00	0	43	0	871366656	61	4195
2026-01-23 09:07:29.36	359.44	53.03	-45.3	-46.4	21.6	0.00e+00	0	43	0	873463808	61	4267
2026-01-23 09:07:30.37	359.06	52.73	-45.2	-46.4	21.5	0.00e+00	0	43	0	875560960	61	4264
2026-01-23 09:07:31.38	358.68	52.42	-45.1	-46.2	21.7	0.00e+00	0	43	0	877658112	61	4173
2026-01-23 09:07:32.39	358.32	52.12	-45.2	-46.4	21.6	0.00e+00	0	43	0	878706688	61	4248
2026-01-23 09:07:33.39	357.96	51.82	-45.4	-46.6	21.3	0.00e+00	0	43	0	880803840	61	4346
2026-01-23 09:07:34.40	357.61	51.52	-45.5	-46.6	21.3	0.00e+00	0	43	0	882900992	61	4379
2026-01-23 09:07:35.41	357.26	51.22	-45.6	-46.8	21.1	0.00e+00	0	43	0	884998144	61	4468
2026-01-23 09:07:36.42	356.92	50.92	-45.8	-47.1	20.9	0.00e+00	0	43	0	887095296	62	4343
2026-01-23 09:07:37.43	356.59	50.63	-46.2	-47.4	20.6	0.00e+00	0	43	0	888143872	62	4539
2026-01-23 09:07:38.43	356.26	50.33	-46.3	-47.7	20.4	0.00e+00	0	43	0	890241024	63	4399
2026-01-23 09:07:39.44	355.95	50.04	-46.5	-47.9	20.2	0.00e+00	0	43	0	892338176	63	4502
2026-01-23 09:07:40.45	355.63	49.74	-46.6	-48.0	20.1	0.00e+00	0	43	0	894435328	63	4547
2026-01-23 09:07:41.46	355.33	49.45	-46.7	-48.1	19.9	0.00e+00	0	43	0	896532480	63	4632
2026-01-23 09:07:42.47	355.02	49.15	-46.9	-48.3	19.6	0.00e+00	0	43	0	898629632	64	4493
2026-01-23 09:07:43.47	354.73	48.86	-47.1	-48.5	19.3	0.00e+00	0	43	0	899678208	64	4597
2026-01-23 09:07:44.48	354.44	48.57	-47.0	-48.4	19.5	0.00e+00	0	43	0	901775360	64	4539
2026-01-23 09:07:45.49	354.16	48.28	-46.9	-48.4	19.6	0.00e+00	0	43	0	903872512	64	4516
2026-01-23 09:07:46.50	353.88	47.99	-46.7	-48.1	19.8	0.00e+00	0	43	0	905969664	64	4375
2026-01-23 09:07:47.51	353.60	47.70	-46.6	-48.0	19.9	0.00e+00	0	43	0	907018240	64	4313
2026-01-23 09:07:48.51	353.34	47.42	-46.5	-47.9	20.0	0.00e+00	0	43	0	909115392	64	4248
2026-01-23 09:07:49.52	353.07	47.14	-46.9	-48.3	19.7	0.00e+00	0	43	0	911212544	64	4467
2026-01-23 09:07:50.53	352.81	46.85	-47.2	-48.8	19.2	0.00e+00	0	43	0	913309696	65	4454
2026-01-23 09:07:51.54	352.56	46.57	-47.4	-48.9	19.0	0.00e+00	0	43	0	915406848	65	4537
2026-01-23 09:07:52.55	352.31	46.29	-47.6	-49.2	18.7	0.00e+00	0	43	0	916455424	65	4701
2026-01-23 09:07:53.56	352.07	46.01	-47.6	-49.3	18.7	0.00e+00	0	43	0	918552576	65	4725
2026-01-23 09:07:54.56	351.83	45.73	-47.6	-49.3	18.7	0.00e+00	0	43	0	920649728	66	4459
2026-01-23 09:07:55.57	351.59	45.45	-47.3	-48.9	19.1	0.00e+00	0	43	0	922746880	66	4251
2026-01-23 09:07:56.58	351.36	45.18	-47.0	-48.5	19.5	0.00e+00	0	43	0	924844032	66	4076
2026-01-23 09:07:57.59	351.13	44.90	-47.1	-48.5	19.3	0.00e+00	0	43	0	926941184	66	4088
2026-01-23 09:07:58.60	350.90	44.63	-47.1	-48.6	19.3	0.00e+00	0	43	0	927989760	66	4131
2026-01-23 09:07:59.61	350.68	44.36	-46.9	-48.4	19.6	0.00e+00	0	43	0	930086912	65	4258
2026-01-23 09:08:00.62	350.47	44.09	-47.0	-48.4	19.5	0.00e+00	0	43	0	932184064	65	4291
2026-01-23 09:08:01.62	350.26	43.82	-47.5	-49.1	18.9	0.00e+00	0	43	0	934281216	65	4627
2026-01-23 09:08:02.63	350.05	43.55	-48.1	-49.9	18.1	0.00e+00	0	43	0	935329792	66	4786
2026-01-23 09:08:03.64	349.84	43.29	-48.4	-50.2	17.7	0.00e+00	0	43	0	937426944	67	4697
2026-01-23 09:08:04.65	349.64	43.02	-48.4	-50.2	17.8	0.00e+00	0	43	0	939524096	67	4694
2026-01-23 09:08:05.66	349.44	42.76	-48.4	-50.2	17.7	0.00e+00	0	43	0	941621248	67	4698
2026-01-23 09:08:06.66	349.25	42.50	-48.3	-50.2	17.7	0.00e+00	0	43	0	943718400	67	4687
2026-01-23 09:08:07.67	349.05	42.24	-48.5	-50.4	17.6	0.00e+00	0	43	0	945815552	67	4779
2026-01-23 09:08:08.68	348.86	41.98	-48.9	-50.9	17.2	0.00e+00	0	43	0	946864128	68	4792
2026-01-23 09:08:09.69	348.68	41.72	-48.9	-51.0	17.1	0.00e+00	0	43	0	948961280	68	4838
2026-01-23 09:08:10.69	348.49	41.47	-49.0	-51.0	17.0	0.00e+00	0	43	0	951058432	68	4860
2026-01-23 09:08:11.70	348.31	41.22	-48.9	-50.9	17.2	0.00e+00	0	43	0	953155584	68	4794
2026-01-23 09:08:12.71	348.14	40.96	-49.0	-51.1	17.0	0.00e+00	0	43	0	955252736	68	4888
2026-01-23 09:08:13.72	347.96	40.71	-48.9	-50.9	17.1	0.00e+00	0	43	0	956301312	68	4810
2026-01-23 09:08:14.73	347.79	40.46	-48.8	-50.8	17.2	0.00e+00	0	43	0	958398464	68	4756
2026-01-23 09:08:15.73	347.62	40.21	-48.7	-50.7	17.4	0.00e+00	0	43	0	960495616	68	4674
2026-01-23 09:08:16.74	347.45	39.97	-48.7	-50.7	17.4	0.00e+00	0	43	0	962592768	68	4668
2026-01-23 09:08:17.75	347.29	39.72	-48.4	-50.3	17.7	0.00e+00	0	43	0	963641344	68	4468
2026-01-23 09:08:18.76	347.13	39.48	-48.5	-50.4	17.7	0.00e+00	0	43	0	965738496	68	4509
2026-01-23 09:08:19.77	346.97	39.23	-48.5	-50.4	17.6	0.00e+00	0	43	0	967835648	68	4534
2026-01-23 09:08:20.77	346.81	38.99	-48.5	-50.5	17.6	0.00e+00	0	43	0	969932800	68	4563
2026-01-23 09:08:21.78	346.66	38.75	-48.4	-50.3	17.8	0.00e+00	0	43	0	972029952	68	4453
2026-01-23 09:08:22.79	346.51	38.52	-48.2	-50.1	18.0	0.00e+00	0	43	0	974127104	68	4347
2026-01-23 09:08:23.80	346.36	38.28	-48.1	-49.8	18.2	0.00e+00	0	43	0	975175680	68	4217
2026-01-23 09:08:24.81	346.21	38.04	-48.1	-49.8	18.2	0.00e+00	0	43	0	977272832	68	4239
2026-01-23 09:08:25.81	346.06	37.81	-47.8	-49.4	18.5	0.00e+00	0	43	0	979369984	67	4283
2026-01-23 09:08:26.82	345.92	37.58	-48.0	-49.8	18.1	0.00e+00	0	43	0	981467136	67	4442
2026-01-23 09:08:27.83	345.78	37.35	-48.1	-49.9	18.0	0.00e+00	0	43	0	983564288	67	4507
2026-01-23 09:08:28.84	345.64	37.12	-47.9	-49.7	18.2	0.00e+00	0	43	0	984612864	67	4430
2026-01-23 09:08:29.85	345.50	36.89	-47.8	-49.5	18.4	0.00e+00	0	43	0	986710016	67	4296
2026-01-23 09:08:30.86	345.37	36.66	-47.4	-49.0	18.9	0.00e+00	0	43	0	988807168	66	4331
2026-01-23 09:08:31.86	345.24	36.44	-47.4	-49.0	18.9	0.00e+00	0	43	0	990904320	66	4329
2026-01-23 09:08:32.87	345.10	36.21	-47.3	-48.9	19.0	0.00e+00	0	43	0	993001472	66	4244
2026-01-23 09:08:33.88	344.97	35.99	-47.4	-49.0	18.8	0.00e+00	0	43	0	994050048	66	4333
2026-01-23 09:08:34.89	344.85	35.77	-47.6	-49.3	18.6	0.00e+00	0	43	0	996147200	66	4458
2026-01-23 09:08:35.90	344.72	35.55	-47.6	-49.2	18.6	0.00e+00	0	43	0	998244352	66	4431
2026-01-23 09:08:36.90	344.60	35.33	-47.3	-48.9	18.9	0.00e+00	0	43	0	1000341504	66	4247
2026-01-23 09:08:37.91	344.47	35.11	-47.4	-48.9	18.9	0.00e+00	0	43	0	1002438656	66	4287
2026-01-23 09:08:38.92	344.35	34.90	-47.2	-48.8	19.1	0.00e+00	0	43	0	1003487232	66	4194
2026-01-23 09:08:39.93	344.23	34.68	-47.4	-49.0	18.9	0.00e+00	0	43	0	1005584384	66	4328
2026-01-23 09:08:40.93	344.12	34.47	-47.8	-49.5	18.4	0.00e+00	0	43	0	1007681536	66	4559
2026-01-23 09:08:41.94	344.00	34.26	-47.9	-49.6	18.3	0.00e+00	0	43	0	1009778688	66	4617
2026-01-23 09:08:42.95	343.89	34.04	-48.0	-49.8	18.0	0.00e+00	0	43	0	1011875840	66	4716
2026-01-23 09:08:43.96	343.77	33.84	-48.0	-49.8	18.2	0.00e+00	0	43	0	1012924416	66	4718
2026-01-23 09:08:44.97	343.66	33.63	-47.9	-49.6	18.2	0.00e+00	0	43	0	1015021568	66	4612
2026-01-23 09:08:45.97	343.55	33.42	-47.8	-49.5	18.2	0.00e+00	0	43	0	1017118720	66	4592
2026-01-23 09:08:46.98	343.44	33.22	-48.0	-49.8	18.1	0.00e+00	0	43	0	1019215872	66	4733
2026-01-23 09:08:47.99	343.34	33.01	-48.3	-50.1	17.6	0.00e+00	0	43	0	1021313024	67	4646
2026-01-23 09:08:49.00	343.23	32.81	-48.5	-50.5	17.3	0.00e+00	0	43	0	1022361600	67	4841
2026-01-23 09:08:50.01	343.12	32.60	-48.8	-50.9	17.1	0.00e+00	0	43	0	1024458752	68	4780
2026-01-23 09:08:51.01	343.02	32.41	-49.0	-51.1	16.8	0.00e+00	0	43	0	1026555904	68	4921
2026-01-23 09:08:52.02	342.92	32.21	-49.1	-51.3	16.6	0.00e+00	0	43	0	1028653056	68	5032
2026-01-23 09:08:53.03	342.82	32.01	-49.3	-51.7	16.2	0.00e+00	0	43	0	1030750208	69	4935
2026-01-23 09:08:54.04	342.72	31.81	-49.4	-51.7	16.2	0.00e+00	0	43	0	1031798784	69	4946
2026-01-23 09:08:55.05	342.62	31.61	-49.5	-51.9	16.1	0.00e+00	0	43	0	1033895936	69	5065
2026-01-23 09:08:56.05	342.53	31.42	-49.5	-51.9	16.0	0.00e+00	0	43	0	1035993088	69	5062
2026-01-23 09:08:57.06	342.43	31.23	-49.5	-51.9	16.0	0.00e+00	0	43	0	1038090240	69	5085
2026-01-23 09:08:58.07	342.34	31.03	-49.4	-51.8	16.1	0.00e+00	0	43	0	1040187392	69	5011
2026-01-23 09:08:59.08	342.24	30.84	-49.5	-51.9	16.0	0.00e+00	0	43	0	1041235968	69	5086
2026-01-23 09:09:00.09	342.15	30.65	-49.5	-51.9	16.0	0.00e+00	0	43	0	1043333120	69	5083
2026-01-23 09:09:01.09	342.06	30.47	-49.5	-51.8	16.1	0.00e+00	0	43	0	1045430272	69	5026
2026-01-23 09:09:02.10	341.97	30.28	-49.3	-51.6	16.3	0.00e+00	0	43	0	1047527424	69	4906
2026-01-23 09:09:03.11	341.88	30.09	-49.3	-51.6	16.3	0.00e+00	0	43	0	1049624576	69	4912
2026-01-23 09:09:04.11	341.79	29.91	-49.4	-51.7	16.2	0.00e+00	0	43	0	1050673152	69	4953
2026-01-23 09:09:05.12	341.71	29.72	-49.1	-51.3	16.6	0.00e+00	0	43	0	1052770304	69	4753
2026-01-23 09:09:06.13	341.62	29.54	-49.1	-51.3	16.6	0.00e+00	0	43	0	1054867456	69	4745
2026-01-23 09:09:07.14	341.53	29.36	-49.1	-51.3	16.6	0.00e+00	0	43	0	1056964608	69	4756
2026-01-23 09:09:08.15	341.45	29.18	-49.0	-51.1	16.8	0.00e+00	0	43	0	1059061760	69	4628
2026-01-23 09:09:09.15	341.37	29.00	-48.9	-51.0	16.9	0.00e+00	0	43	0	1060110336	69	4573
2026-01-23 09:09:10.16	341.29	28.82	-48.9	-51.0	16.9	0.00e+00	0	43	0	1062207488	69	4583
2026-01-23 09:09:11.17	341.21	28.64	-48.7	-50.8	17.1	0.00e+00	0	43	0	1064304640	69	4442
2026-01-23 09:09:12.18	341.13	28.46	-48.7	-50.8	17.2	0.00e+00	0	43	0	1066401792	69	4448
2026-01-23 09:09:13.19	341.05	28.29	-48.8	-50.9	17.0	0.00e+00	0	43	0	1068498944	69	4500
2026-01-23 09:09:14.19	340.97	28.11	-48.5	-50.5	17.3	0.00e+00	0	43	0	1069547520	69	4330
2026-01-23 09:09:15.20	340.89	27.94	-48.5	-50.5	17.3	0.00e+00	0	43	0	1071644672	68	4577
2026-01-23 09:09:16.21	340.82	27.77	-48.5	-50.4	17.4	0.00e+00	0	43	0	1073741824	68	4527
2026-01-23 09:09:17.22	340.74	27.60	-48.4	-50.3	17.4	0.00e+00	0	43	0	1075838976	68	4492
2026-01-23 09:09:18.23	340.66	27.43	-48.3	-50.2	17.6	0.00e+00	0	43	0	1077936128	68	4408
2026-01-23 09:09:19.23	340.59	27.26	-48.3	-50.2	17.6	0.00e+00	0	43	0	1078984704	68	4434
2026-01-23 09:09:20.24	340.52	27.09	-48.2	-50.1	17.7	0.00e+00	0	43	0	1081081856	68	4347
2026-01-23 09:09:21.25	340.45	26.92	-48.1	-49.9	17.9	0.00e+00	0	43	0	1083179008	68	4272
2026-01-23 09:09:22.26	340.37	26.75	-48.1	-49.9	17.8	0.00e+00	0	43	0	1085276160	68	4282
2026-01-23 09:09:23.27	340.30	26.59	-47.8	-49.6	18.1	0.00e+00	0	43	0	1087373312	67	4351
2026-01-23 09:09:24.28	340.23	26.42	-47.7	-49.4	18.3	0.00e+00	0	43	0	1089470464	67	4284
2026-01-23 09:09:25.28	340.17	26.26	-47.5	-49.2	18.5	0.00e+00	0	43	0	1090519040	67	4181
2026-01-23 09:09:26.29	340.10	26.10	-47.4	-49.1	18.6	0.00e+00	0	43	0	1092616192	66	4375
2026-01-23 09:09:27.30	340.03	25.94	-47.3	-48.9	18.8	0.00e+00	0	43	0	1094713344	66	4268
2026-01-23 09:09:28.31	339.96	25.78	-47.3	-49.0	18.7	0.00e+00	0	43	0	1096810496	66	4301
2026-01-23 09:09:29.32	339.90	25.62	-47.2	-48.9	18.7	0.00e+00	0	43	0	1097859072	66	4243
2026-01-23 09:09:30.33	339.83	25.46	-47.3	-49.0	18.7	0.00e+00	0	43	0	1099956224	66	4308
2026-01-23 09:09:31.34	339.77	25.30	-47.5	-49.2	18.4	0.00e+00	0	43	0	1102053376	66	4429
2026-01-23 09:09:32.34	339.70	25.14	-47.4	-49.1	18.5	0.00e+00	0	43	0	1104150528	66	4353
2026-01-23 09:09:33.35	339.64	24.99	-47.6	-49.4	18.2	0.00e+00	0	43	0	1106247680	66	4519
2026-01-23 09:09:34.36	339.58	24.83	-47.7	-49.5	18.2	0.00e+00	0	43	0	1107296256	66	4568
2026-01-23 09:09:35.36	339.51	24.68	-47.5	-49.2	18.4	0.00e+00	0	43	0	1109393408	66	4422
2026-01-23 09:09:36.37	339.45	24.52	-47.5	-49.1	18.5	0.00e+00	0	43	0	1111490560	66	4391
2026-01-23 09:09:37.38	339.39	24.37	-47.3	-48.9	18.7	0.00e+00	0	43	0	1113587712	66	4256
2026-01-23 09:09:38.39	339.33	24.22	-47.3	-49.0	18.6	0.00e+00	0	43	0	1115684864	66	4320
2026-01-23 09:09:39.39	339.27	24.07	-47.1	-48.7	18.9	0.00e+00	0	43	0	1117782016	66	4170
2026-01-23 09:09:40.40	339.21	23.92	-46.9	-48.5	19.0	0.00e+00	0	43	0	1118830592	65	4309
2026-01-23 09:09:41.40	339.15	23.77	-46.9	-48.4	19.2	0.00e+00	0	43	0	1120927744	65	4267
2026-01-23 09:09:42.41	339.10	23.62	-46.5	-47.9	19.6	0.00e+00	0	43	0	1123024896	64	4271
2026-01-23 09:09:43.42	339.04	23.47	-46.3	-47.7	19.8	0.00e+00	0	43	0	1125122048	64	4182
2026-01-23 09:09:44.43	338.98	23.32	-46.3	-47.6	19.9	0.00e+00	0	43	0	1126170624	64	4141
2026-01-23 09:09:45.44	338.93	23.18	-46.1	-47.5	20.0	0.00e+00	0	43	0	1128267776	64	4073
2026-01-23 09:09:46.45	338.87	23.03	-46.1	-47.4	20.1	0.00e+00	0	43	0	1130364928	64	4033
2026-01-23 09:09:47.46	338.82	22.89	-46.1	-47.5	20.1	0.00e+00	0	43	0	1132462080	64	4052
2026-01-23 09:09:48.46	338.76	22.74	-46.0	-47.3	20.3	0.00e+00	0	43	0	1134559232	63	4215
2026-01-23 09:09:49.47	338.71	22.60	-46.0	-47.3	20.3	0.00e+00	0	43	0	1136656384	63	4213
2026-01-23 09:09:50.48	338.65	22.46	-46.0	-47.4	20.2	0.00e+00	0	43	0	1137704960	63	4249
2026-01-23 09:09:51.48	338.60	22.32	-45.9	-47.2	20.3	0.00e+00	0	43	0	1139802112	63	4171
2026-01-23 09:09:52.49	338.55	22.18	-45.9	-47.3	20.3	0.00e+00	0	43	0	1141899264	63	4199
2026-01-23 09:09:53.50	338.50	22.04	-46.0	-47.3	20.2	0.00e+00	0	43	0	1143996416	63	4241
2026-01-23 09:09:54.51	338.45	21.90	-45.9	-47.2	20.3	0.00e+00	0	43	0	1146093568	63	4189
2026-01-23 09:09:55.52	338.39	21.76	-46.1	-47.5	20.1	0.00e+00	0	43	0	1147142144	63	4297
2026-01-23 09:09:56.53	338.34	21.62	-46.0	-47.3	20.2	0.00e+00	0	43	0	1149239296	63	4241
2026-01-23 09:09:57.53	338.29	21.48	-46.0	-47.4	20.2	0.00e+00	0	43	0	1151336448	63	4247
2026-01-23 09:09:58.54	338.25	21.35	-46.0	-47.3	20.2	0.00e+00	0	43	0	1153433600	63	4238
2026-01-23 09:09:59.55	338.20	21.21	-46.1	-47.5	20.1	0.00e+00	0	43	0	1154482176	63	4293
2026-01-23 09:10:00.56	338.15	21.08	-46.1	-47.4	20.2	0.00e+00	0	43	0	1156579328	63	4262
2026-01-23 09:10:01.57	338.10	20.94	-46.2	-47.5	20.0	0.00e+00	0	43	0	1158676480	63	4334
2026-01-23 09:10:02.57	338.05	20.81	-46.3	-47.7	19.9	0.00e+00	0	43	0	1160773632	63	4394
2026-01-23 09:10:03.58	338.01	20.68	-46.4	-47.8	19.7	0.00e+00	0	43	0	1162870784	63	4467
2026-01-23 09:10:04.59	337.96	20.54	-46.5	-47.9	19.6	0.00e+00	0	43	0	1164967936	63	4537
2026-01-23 09:10:05.60	337.91	20.41	-46.3	-47.7	19.8	0.00e+00	0	43	0	1166016512	63	4422
2026-01-23 09:10:06.61	337.87	20.28	-46.4	-47.9	19.7	0.00e+00	0	43	0	1168113664	63	4505
2026-01-23 09:10:07.62	337.82	20.15	-46.5	-47.9	19.6	0.00e+00	0	43	0	1170210816	63	4527
2026-01-23 09:10:08.63	337.78	20.02	-46.4	-47.9	19.6	0.00e+00	0	43	0	1172307968	63	4518
2026-01-23 09:10:09.63	337.73	19.89	-46.4	-47.9	19.6	0.00e+00	0	43	0	1174405120	63	4504
2026-01-23 09:10:10.64	337.69	19.76	-46.5	-48.0	19.5	0.00e+00	0	43	0	1175453696	63	4573
2026-01-23 09:10:11.65	337.64	19.64	-46.5	-48.0	19.5	0.00e+00	0	43	0	1177550848	63	4585
2026-01-23 09:10:12.66	337.60	19.51	-46.5	-48.0	19.5	0.00e+00	0	43	0	1179648000	63	4573
2026-01-23 09:10:13.67	337.56	19.38	-46.6	-48.1	19.4	0.00e+00	0	43	0	1181745152	63	4636
2026-01-23 09:10:14.67	337.51	19.26	-46.6	-48.0	19.5	0.00e+00	0	43	0	1183842304	63	4589
2026-01-23 09:10:15.68	337.47	19.13	-46.6	-48.1	19.4	0.00e+00	0	43	0	1184890880	63	4619
2026-01-23 09:10:16.69	337.43	19.01	-46.7	-48.2	19.3	0.00e+00	0	43	0	1186988032	63	4687
2026-01-23 09:10:17.70	337.39	18.88	-46.5	-48.0	19.4	0.00e+00	0	43	0	1189085184	64	4330
2026-01-23 09:10:18.71	337.35	18.76	-46.5	-48.0	19.4	0.00e+00	0	43	0	1191182336	64	4297
2026-01-23 09:10:19.71	337.31	18.64	-46.6	-48.1	19.2	0.00e+00	0	43	0	1193279488	64	4386
2026-01-23 09:10:20.72	337.27	18.52	-46.7	-48.2	19.2	0.00e+00	0	43	0	1194328064	64	4416
2026-01-23 09:10:21.73	337.23	18.39	-46.7	-48.2	19.1	0.00e+00	0	43	0	1196425216	64	4435
2026-01-23 09:10:22.74	337.19	18.27	-46.6	-48.1	19.3	0.00e+00	0	43	0	1198522368	64	4351
2026-01-23 09:10:23.75	337.15	18.15	-46.6	-48.1	19.3	0.00e+00	0	43	0	1200619520	64	4365
2026-01-23 09:10:24.75	337.11	18.03	-46.5	-48.0	19.3	0.00e+00	0	43	0	1202716672	64	4334
2026-01-23 09:10:25.76	337.07	17.91	-46.6	-48.1	19.2	0.00e+00	0	43	0	1203765248	64	4365
2026-01-23 09:10:26.77	337.03	17.79	-46.6	-48.1	19.2	0.00e+00	0	43	0	1205862400	64	4371
2026-01-23 09:10:27.78	336.99	17.68	-46.6	-48.2	19.2	0.00e+00	0	43	0	1207959552	64	4396
2026-01-23 09:10:28.79	336.96	17.56	-46.8	-48.3	19.0	0.00e+00	0	43	0	1210056704	64	4485
2026-01-23 09:10:29.80	336.92	17.44	-46.7	-48.2	19.1	0.00e+00	0	43	0	1212153856	64	4433
2026-01-23 09:10:30.80	336.88	17.33	-46.8	-48.3	19.0	0.00e+00	0	43	0	1213202432	64	4485
2026-01-23 09:10:31.81	336.84	17.21	-46.8	-48.3	19.0	0.00e+00	0	43	0	1215299584	64	4491
2026-01-23 09:10:32.81	336.81	17.09	-46.8	-48.4	18.9	0.00e+00	0	43	0	1217396736	64	4540
2026-01-23 09:10:33.82	336.77	16.98	-46.9	-48.5	18.8	0.00e+00	0	43	0	1219493888	64	4582
2026-01-23 09:10:34.83	336.74	16.86	-47.0	-48.6	18.7	0.00e+00	0	43	0	1221591040	64	4617
2026-01-23 09:10:35.84	336.70	16.75	-46.9	-48.5	18.8	0.00e+00	0	43	0	1222639616	64	4559
2026-01-23 09:10:36.84	336.67	16.64	-46.9	-48.5	18.8	0.00e+00	0	43	0	1224736768	64	4580
2026-01-23 09:10:37.85	336.63	16.53	-46.9	-48.5	18.8	0.00e+00	0	43	0	1226833920	64	4552
2026-01-23 09:10:38.86	336.60	16.41	-47.0	-48.6	18.7	0.00e+00	0	43	0	1228931072	64	4644
2026-01-23 09:10:39.87	336.56	16.30	-46.9	-48.5	18.7	0.00e+00	0	43	0	1231028224	64	4591
2026-01-23 09:10:40.88	336.53	16.19	-46.9	-48.5	18.8	0.00e+00	0	43	0	1233125376	64	4569
2026-01-23 09:10:41.89	336.49	16.08	-46.9	-48.5	18.7	0.00e+00	0	43	0	1234173952	64	4594
2026-01-23 09:10:42.89	336.46	15.97	-46.9	-48.5	18.8	0.00e+00	0	43	0	1236271104	64	4573
2026-01-23 09:10:43.90	336.43	15.86	-46.9	-48.5	18.7	0.00e+00	0	43	0	1238368256	64	4594
