passes_logs/2026/01/23/XPeterburg/XPeterburg__20260123_003030_SUOMI_NPP_rec.log

#Pass ID: 20260123_003030_SUOMI NPP
#Satellite: SUOMI NPP
#Configuration: NPP
#Start time: 2026-01-23 00:30:25

#Version: 1.5.20200625
#Station: XPeterburg
#Location: 30.318091 lon 59.932769 lat
#TLE: 1 37849U 11061A   26021.51818991  .00000201  00000+0  11636-3 0  9995
#TLE: 2 37849  98.7819 323.5108 0002300  52.3548 307.7836 14.19527793737637

#Time	Az	El	Level	Level2	SNR	BER	Gain	Gain2
2026-01-23 00:30:25.05	18.65	67.71	-38.1	-44.9	3.3	15362236	94	2691
2026-01-23 00:30:25.25	18.65	67.80	-38.0	-49.6	3.6	0	87	4632
2026-01-23 00:30:25.45	18.64	67.89	-38.2	-46.5	3.6	15138427	93	3190
2026-01-23 00:30:25.65	18.64	67.98	-38.2	-45.7	3.4	15138427	93	2919
2026-01-23 00:30:25.85	18.64	68.08	-38.1	-45.1	3.4	15146278	93	2750
2026-01-23 00:30:26.06	18.64	68.17	-38.1	-46.2	3.6	15146278	93	3118
2026-01-23 00:30:26.26	18.63	68.26	-38.0	-45.7	3.6	15207969	93	2975
2026-01-23 00:30:26.46	18.63	68.35	-38.0	-44.7	3.5	15207969	93	2677
2026-01-23 00:30:26.66	18.63	68.44	-37.9	-43.9	3.4	15153663	93	2456
2026-01-23 00:30:26.86	18.62	68.54	-37.9	-44.7	3.2	15153663	93	2697
2026-01-23 00:30:27.06	18.62	68.63	-37.8	-44.3	3.6	15149780	93	2614
2026-01-23 00:30:27.26	18.62	68.72	-37.7	-43.3	3.8	15149780	93	2333
2026-01-23 00:30:27.46	18.61	68.81	-37.6	-42.4	3.8	15149780	93	2134
2026-01-23 00:30:27.66	18.61	68.90	-37.5	-41.7	3.9	14585121	93	1996
2026-01-23 00:30:27.86	18.61	68.99	-37.4	-41.1	4.0	14585121	93	1885
2026-01-23 00:30:28.07	18.60	69.09	-37.3	-40.8	4.2	13579956	93	1826
2026-01-23 00:30:28.27	18.60	69.18	-37.2	-40.8	4.3	13579956	92	1868
2026-01-23 00:30:28.47	18.59	69.28	-37.1	-40.4	4.5	9697769	92	1794
2026-01-23 00:30:28.67	18.59	69.37	-36.9	-39.9	4.7	9697769	92	1722
2026-01-23 00:30:28.87	18.59	69.46	-36.9	-39.8	4.7	7256828	92	1710
2026-01-23 00:30:29.07	18.58	69.55	-36.8	-39.7	5.1	7256828	91	1716
2026-01-23 00:30:29.27	18.58	69.65	-36.7	-39.3	5.3	5701812	91	1677
2026-01-23 00:30:29.47	18.58	69.74	-36.7	-39.5	5.3	5701812	91	1700
2026-01-23 00:30:29.67	18.57	69.83	-36.4	-38.5	5.8	4206398	91	1576
2026-01-23 00:30:29.87	18.57	69.92	-36.3	-38.4	6.1	4206398	91	1554
2026-01-23 00:30:30.07	18.56	70.02	-36.0	-38.0	6.3	4206398	90	1561
2026-01-23 00:30:30.28	18.56	70.11	-35.9	-37.9	6.4	2677970	90	1553
2026-01-23 00:30:30.48	18.56	70.21	-35.8	-38.1	6.6	2677970	89	1610
2026-01-23 00:30:30.68	18.55	70.30	-35.7	-37.9	6.8	2125427	89	1579
2026-01-23 00:30:30.88	18.55	70.39	-35.7	-37.9	6.8	2125427	89	1582
2026-01-23 00:30:31.08	18.54	70.49	-35.7	-37.9	6.9	1631843	89	1590
2026-01-23 00:30:31.28	18.54	70.58	-35.7	-38.0	6.9	1631843	89	1593
2026-01-23 00:30:31.48	18.53	70.67	-35.7	-37.9	6.8	1587394	89	1588
2026-01-23 00:30:31.68	18.53	70.77	-35.6	-37.5	7.1	1587394	89	1542
2026-01-23 00:30:31.88	18.53	70.86	-36.0	-38.6	6.3	1745964	89	1670
2026-01-23 00:30:32.08	18.52	70.95	-35.9	-38.5	6.3	1745964	89	1653
2026-01-23 00:30:32.28	18.52	71.05	-36.2	-39.3	6.0	1745964	89	1757
2026-01-23 00:30:32.48	18.51	71.14	-36.5	-39.7	5.3	2418357	90	1779
2026-01-23 00:30:32.69	18.51	71.24	-36.5	-39.6	5.2	2418357	90	1769
2026-01-23 00:30:32.89	18.50	71.34	-36.6	-39.9	5.2	4394950	90	1812
2026-01-23 00:30:33.09	18.50	71.43	-36.6	-39.9	5.0	4394950	90	1800
2026-01-23 00:30:33.29	18.49	71.52	-36.8	-40.6	4.7	5358078	90	1902
2026-01-23 00:30:33.49	18.49	71.62	-37.2	-41.1	4.3	5358078	91	1919
2026-01-23 00:30:33.69	18.48	71.71	-37.4	-41.7	4.1	7845710	91	2027
2026-01-23 00:30:33.89	18.48	71.81	-37.5	-42.0	4.0	7845710	91	2067
2026-01-23 00:30:34.09	18.47	71.90	-37.5	-41.9	4.1	11094787	91	2049
2026-01-23 00:30:34.29	18.47	72.00	-37.5	-41.8	3.9	11094787	92	2022
2026-01-23 00:30:34.49	18.46	72.09	-37.4	-41.1	4.0	12896987	92	1892
2026-01-23 00:30:34.70	18.46	72.19	-37.2	-40.6	4.3	12896987	92	1811
2026-01-23 00:30:34.90	18.45	72.29	-37.4	-41.1	4.1	12896987	92	1885
2026-01-23 00:30:35.10	18.45	72.38	-37.2	-40.5	4.3	9789299	92	1799
2026-01-23 00:30:35.30	18.44	72.48	-37.1	-40.1	4.5	9789299	92	1741
2026-01-23 00:30:35.50	18.44	72.57	-37.1	-40.1	4.6	8650253	92	1743
2026-01-23 00:30:35.70	18.43	72.67	-36.8	-39.6	5.2	8650253	91	1688
2026-01-23 00:30:35.90	18.42	72.76	-37.0	-40.1	5.0	6323974	91	1760
2026-01-23 00:30:36.10	18.42	72.86	-36.7	-39.1	5.6	6323974	91	1624
2026-01-23 00:30:36.30	18.41	72.95	-36.6	-39.0	5.8	4644798	91	1622
2026-01-23 00:30:36.51	18.41	73.05	-36.5	-38.6	6.1	4644798	91	1573
2026-01-23 00:30:36.71	18.40	73.15	-36.4	-38.5	6.2	3030296	91	1567
2026-01-23 00:30:36.91	18.39	73.25	-35.9	-37.8	6.4	3030296	90	1528
2026-01-23 00:30:37.11	18.39	73.34	-35.9	-37.9	6.7	2173416	90	1538
2026-01-23 00:30:37.31	18.38	73.44	-35.9	-37.9	6.9	2173416	90	1538
2026-01-23 00:30:37.51	18.38	73.53	-36.1	-38.4	6.5	2173416	90	1614
2026-01-23 00:30:37.71	18.37	73.63	-36.0	-38.1	6.7	1845939	90	1564
2026-01-23 00:30:37.91	18.36	73.73	-35.9	-38.0	6.9	1845939	90	1558
2026-01-23 00:30:38.11	18.36	73.82	-35.8	-37.7	7.0	1793945	90	1524
2026-01-23 00:30:38.32	18.35	73.92	-35.8	-38.1	7.2	1793945	89	1598
2026-01-23 00:30:38.52	18.34	74.02	-35.9	-38.4	7.0	1407997	89	1639
2026-01-23 00:30:38.72	18.34	74.12	-35.8	-38.0	7.2	1407997	89	1593
2026-01-23 00:30:38.92	18.33	74.21	-35.5	-37.1	7.9	1255737	89	1490
2026-01-23 00:30:39.12	18.32	74.31	-35.4	-37.0	8.0	1255737	89	1476
2026-01-23 00:30:39.32	18.31	74.41	-34.9	-36.4	8.7	621551	88	1449
2026-01-23 00:30:39.52	18.31	74.50	-35.0	-36.4	8.7	621551	88	1453
2026-01-23 00:30:39.72	18.30	74.60	-34.8	-36.4	9.2	311172	87	1479
2026-01-23 00:30:39.92	18.29	74.70	-34.7	-36.4	9.3	311172	87	1493
2026-01-23 00:30:40.13	18.28	74.80	-34.5	-35.8	9.8	311172	87	1422
2026-01-23 00:30:40.33	18.28	74.90	-34.5	-35.8	9.8	159896	87	1425
2026-01-23 00:30:40.53	18.27	74.99	-34.5	-35.9	9.7	159896	87	1445
2026-01-23 00:30:40.73	18.26	75.09	-34.6	-36.1	9.6	106994	87	1461
2026-01-23 00:30:40.93	18.25	75.19	-34.5	-35.9	9.7	106994	87	1438
2026-01-23 00:30:41.13	18.25	75.29	-34.9	-36.8	9.2	111953	87	1538
2026-01-23 00:30:41.33	18.24	75.38	-34.8	-36.6	9.5	111953	87	1512
2026-01-23 00:30:41.53	18.23	75.48	-35.3	-37.9	8.5	185585	87	1656
2026-01-23 00:30:41.73	18.22	75.58	-35.3	-37.9	8.5	185585	87	1657
2026-01-23 00:30:41.94	18.21	75.68	-35.4	-37.7	8.2	450546	88	1597
2026-01-23 00:30:42.14	18.20	75.78	-35.4	-37.5	8.3	450546	88	1577
2026-01-23 00:30:42.34	18.19	75.88	-35.6	-38.1	7.9	450546	88	1639
2026-01-23 00:30:42.54	18.18	75.97	-35.7	-38.4	7.6	526069	88	1679
2026-01-23 00:30:42.74	18.17	76.07	-35.7	-38.3	7.7	526069	88	1665
2026-01-23 00:30:42.94	18.17	76.17	-36.0	-39.1	7.2	835708	88	1760
2026-01-23 00:30:43.14	18.16	76.27	-35.9	-38.1	7.5	835708	89	1596
2026-01-23 00:30:43.34	18.15	76.37	-36.0	-38.5	7.2	1150016	89	1635
2026-01-23 00:30:43.54	18.14	76.46	-36.1	-38.6	7.0	1150016	89	1644
2026-01-23 00:30:43.74	18.13	76.56	-36.2	-39.0	6.7	1375534	89	1702
2026-01-23 00:30:43.94	18.12	76.66	-36.3	-39.3	6.4	1375534	89	1735
2026-01-23 00:30:44.15	18.11	76.76	-36.4	-39.6	6.1	2184448	89	1767
2026-01-23 00:30:44.35	18.09	76.86	-36.5	-39.7	6.0	2184448	89	1792
2026-01-23 00:30:44.55	18.08	76.96	-36.5	-39.2	6.0	2944160	90	1679
2026-01-23 00:30:44.75	18.07	77.06	-36.6	-39.4	5.7	2944160	90	1701
2026-01-23 00:30:44.95	18.06	77.16	-36.6	-39.3	5.6	3667762	90	1694
2026-01-23 00:30:45.15	18.05	77.26	-36.8	-40.0	5.3	3667762	90	1776
2026-01-23 00:30:45.35	18.04	77.36	-36.7	-39.8	5.3	3667762	90	1760
2026-01-23 00:30:45.55	18.03	77.46	-36.4	-38.8	5.9	4535072	90	1614
2026-01-23 00:30:45.75	18.02	77.55	-36.4	-38.9	6.0	4535072	90	1636
2026-01-23 00:30:45.96	18.00	77.66	-36.4	-38.7	6.2	3074462	90	1614
2026-01-23 00:30:46.16	17.99	77.76	-36.3	-38.6	6.2	3074462	90	1593
2026-01-23 00:30:46.36	17.98	77.86	-36.3	-38.4	6.4	2684379	90	1575
2026-01-23 00:30:46.56	17.97	77.96	-36.3	-38.5	6.4	2684379	90	1586
2026-01-23 00:30:46.76	17.95	78.06	-36.5	-38.9	6.0	2284339	90	1640
2026-01-23 00:30:46.96	17.94	78.15	-36.5	-39.1	6.0	2284339	90	1658
2026-01-23 00:30:47.16	17.93	78.25	-36.7	-39.8	5.7	2972770	90	1749
2026-01-23 00:30:47.36	17.91	78.35	-36.5	-39.2	6.0	2972770	90	1671
2026-01-23 00:30:47.56	17.90	78.45	-36.3	-38.3	6.5	2972770	90	1565
2026-01-23 00:30:47.76	17.88	78.55	-36.4	-38.9	6.1	3068862	90	1632
2026-01-23 00:30:47.97	17.87	78.66	-36.3	-38.4	6.5	3068862	90	1579
2026-01-23 00:30:48.17	17.85	78.76	-36.4	-38.9	6.1	2446060	90	1629
2026-01-23 00:30:48.37	17.84	78.86	-36.5	-39.0	6.0	2446060	90	1643
2026-01-23 00:30:48.57	17.82	78.96	-36.1	-37.9	6.8	2746620	90	1517
2026-01-23 00:30:48.77	17.81	79.06	-35.9	-37.3	7.2	2746620	90	1459
2026-01-23 00:30:48.97	17.79	79.16	-36.0	-37.7	7.2	1454956	90	1497
2026-01-23 00:30:49.17	17.78	79.26	-35.9	-37.5	7.2	1454956	90	1482
2026-01-23 00:30:49.37	17.76	79.36	-35.7	-37.6	7.6	1193138	89	1521
2026-01-23 00:30:49.57	17.74	79.46	-35.6	-37.4	7.9	1193138	89	1497
2026-01-23 00:30:49.78	17.72	79.56	-35.5	-36.9	8.3	653564	89	1456
2026-01-23 00:30:49.98	17.71	79.66	-35.4	-36.7	8.4	653564	89	1437
2026-01-23 00:30:50.18	17.69	79.76	-35.5	-37.0	8.3	653564	89	1472
2026-01-23 00:30:50.38	17.67	79.86	-35.6	-37.2	8.2	455345	89	1496
2026-01-23 00:30:50.58	17.65	79.96	-35.3	-36.6	8.6	455345	89	1430
2026-01-23 00:30:50.78	17.63	80.06	-35.3	-37.0	8.7	465866	88	1500
2026-01-23 00:30:50.98	17.61	80.16	-35.5	-37.7	8.2	465866	88	1581
2026-01-23 00:30:51.18	17.59	80.26	-35.4	-37.4	8.3	438117	88	1552
2026-01-23 00:30:51.38	17.57	80.36	-35.5	-37.5	8.2	438117	88	1563
2026-01-23 00:30:51.58	17.55	80.46	-35.3	-37.1	8.5	483795	88	1513
2026-01-23 00:30:51.78	17.53	80.57	-35.5	-37.6	8.2	483795	88	1573
2026-01-23 00:30:51.99	17.51	80.67	-35.4	-37.3	8.3	476661	88	1536
2026-01-23 00:30:52.19	17.49	80.77	-35.2	-36.9	8.6	476661	88	1502
2026-01-23 00:30:52.39	17.46	80.87	-35.2	-36.9	8.7	476661	88	1500
2026-01-23 00:30:52.59	17.44	80.97	-35.4	-37.4	8.3	366065	88	1553
2026-01-23 00:30:52.79	17.42	81.07	-35.5	-37.8	8.2	366065	88	1601
2026-01-23 00:30:52.99	17.39	81.18	-35.7	-38.4	8.1	490913	88	1667
2026-01-23 00:30:53.19	17.37	81.28	-35.9	-38.8	7.6	490913	88	1721
2026-01-23 00:30:53.39	17.34	81.38	-36.2	-39.1	6.9	767433	89	1712
2026-01-23 00:30:53.59	17.31	81.48	-36.1	-38.7	7.3	767433	89	1661
2026-01-23 00:30:53.79	17.29	81.58	-36.1	-39.0	7.4	1263526	89	1704
2026-01-23 00:30:54.00	17.26	81.69	-36.2	-39.1	7.1	1263526	89	1717
2026-01-23 00:30:54.20	17.23	81.79	-35.9	-38.3	7.3	1348358	89	1621
2026-01-23 00:30:54.40	17.20	81.89	-35.9	-38.2	7.7	1348358	89	1603
2026-01-23 00:30:54.60	17.17	81.99	-35.6	-37.4	8.2	775993	89	1519
2026-01-23 00:30:54.80	17.14	82.09	-35.6	-37.6	8.1	775993	89	1538
2026-01-23 00:30:55.00	17.11	82.19	-35.3	-36.8	8.7	490341	89	1454
2026-01-23 00:30:55.20	17.08	82.29	-34.9	-36.3	9.2	490341	88	1444
2026-01-23 00:30:55.40	17.04	82.39	-34.8	-36.6	9.6	490341	87	1510
2026-01-23 00:30:55.60	17.01	82.50	-34.8	-36.5	9.4	189476	87	1493
2026-01-23 00:30:55.81	16.97	82.60	-34.8	-36.5	9.6	189476	87	1505
2026-01-23 00:30:56.01	16.93	82.70	-34.5	-35.9	10.0	132339	87	1438
2026-01-23 00:30:56.21	16.90	82.81	-34.4	-35.7	10.2	132339	87	1417
2026-01-23 00:30:56.41	16.86	82.91	-34.5	-35.8	10.1	64834	87	1436
2026-01-23 00:30:56.61	16.82	83.01	-34.4	-35.6	10.2	64834	87	1417
2026-01-23 00:30:56.81	16.78	83.11	-34.5	-35.8	10.1	62736	87	1435
2026-01-23 00:30:57.01	16.74	83.21	-34.6	-36.1	9.9	62736	87	1460
2026-01-23 00:30:57.21	16.69	83.31	-34.5	-35.9	10.0	74356	87	1443
2026-01-23 00:30:57.41	16.65	83.42	-34.5	-35.7	10.0	74356	87	1422
2026-01-23 00:30:57.61	16.60	83.52	-34.6	-36.1	9.8	74356	87	1461
2026-01-23 00:30:57.82	16.55	83.62	-34.4	-35.6	10.2	75927	87	1412
2026-01-23 00:30:58.02	16.50	83.73	-34.4	-35.4	10.2	75927	87	1394
2026-01-23 00:30:58.22	16.45	83.83	-33.9	-35.0	10.5	68634	86	1392
2026-01-23 00:30:58.42	16.40	83.93	-33.8	-35.2	10.7	68634	85	1450
2026-01-23 00:30:58.62	16.34	84.03	-33.4	-34.3	11.3	30532	85	1360
2026-01-23 00:30:58.82	16.29	84.13	-33.4	-34.3	11.4	30532	85	1364
2026-01-23 00:30:59.02	16.23	84.24	-33.4	-34.4	11.3	11138	85	1370
2026-01-23 00:30:59.22	16.17	84.34	-33.6	-34.9	11.0	11138	85	1418
2026-01-23 00:30:59.42	16.11	84.44	-33.6	-34.8	11.1	15289	85	1414
2026-01-23 00:30:59.62	16.04	84.54	-33.8	-35.3	10.7	15289	85	1461
2026-01-23 00:30:59.82	15.97	84.64	-33.9	-35.4	10.7	25512	85	1468
2026-01-23 00:31:00.03	15.90	84.75	-34.0	-35.8	10.5	25512	85	1502
2026-01-23 00:31:00.23	15.83	84.85	-34.1	-36.0	10.3	25512	85	1523
2026-01-23 00:31:00.43	15.75	84.96	-34.2	-36.2	10.2	39955	85	1540
2026-01-23 00:31:00.63	15.67	85.06	-34.1	-35.9	10.4	39955	85	1510
2026-01-23 00:31:00.83	15.59	85.16	-34.0	-35.7	10.7	48423	85	1490
2026-01-23 00:31:01.03	15.50	85.26	-33.7	-34.8	11.2	48423	85	1407
2026-01-23 00:31:01.23	15.41	85.36	-33.7	-35.0	11.0	26382	85	1427
2026-01-23 00:31:01.43	15.31	85.47	-34.0	-35.6	10.5	26382	85	1481
2026-01-23 00:31:01.63	15.21	85.57	-33.7	-34.9	10.9	28022	85	1419
2026-01-23 00:31:01.83	15.11	85.67	-33.8	-35.1	10.7	28022	85	1431
2026-01-23 00:31:02.04	15.00	85.78	-33.8	-35.3	10.6	23597	85	1457
2026-01-23 00:31:02.24	14.88	85.88	-33.7	-34.9	10.8	23597	85	1410
2026-01-23 00:31:02.44	14.76	85.98	-33.9	-35.4	10.6	23597	85	1466
2026-01-23 00:31:02.64	14.63	86.09	-33.9	-35.5	10.4	30151	85	1477
2026-01-23 00:31:02.84	14.50	86.19	-33.9	-35.5	10.5	30151	85	1473
2026-01-23 00:31:03.04	14.36	86.29	-34.2	-36.1	10.1	44448	85	1525
2026-01-23 00:31:03.24	14.21	86.39	-34.4	-36.4	9.8	44448	85	1564
2026-01-23 00:31:03.44	14.05	86.49	-34.3	-36.3	9.8	79391	85	1551
2026-01-23 00:31:03.64	13.88	86.60	-34.2	-35.5	9.7	79391	86	1438
2026-01-23 00:31:03.84	13.70	86.70	-34.3	-35.8	9.7	103149	86	1466
2026-01-23 00:31:04.05	13.50	86.81	-34.3	-35.7	9.9	103149	86	1449
2026-01-23 00:31:04.25	13.30	86.91	-34.9	-37.3	9.1	104118	86	1618
2026-01-23 00:31:04.45	13.08	87.01	-35.4	-37.9	8.5	104118	87	1640
2026-01-23 00:31:04.65	12.85	87.11	-35.5	-37.6	8.3	388175	88	1574
2026-01-23 00:31:04.85	12.60	87.21	-35.6	-38.0	8.0	388175	88	1612
2026-01-23 00:31:05.05	12.33	87.32	-36.1	-38.6	7.3	781929	89	1640
2026-01-23 00:31:05.25	12.04	87.42	-36.2	-38.8	7.3	781929	89	1667
2026-01-23 00:31:05.45	11.73	87.52	-36.3	-39.1	7.0	781929	89	1700
2026-01-23 00:31:05.65	11.39	87.62	-36.1	-38.6	7.3	1272338	89	1637
2026-01-23 00:31:05.85	11.02	87.72	-36.4	-38.9	6.5	1272338	90	1637
2026-01-23 00:31:06.06	10.59	87.83	-36.1	-38.0	7.2	1491027	90	1533
2026-01-23 00:31:06.26	10.14	87.93	-36.0	-37.9	7.0	1491027	90	1528
2026-01-23 00:31:06.46	9.65	88.03	-36.0	-37.8	7.4	1210723	90	1507
2026-01-23 00:31:06.66	9.10	88.14	-36.2	-38.3	7.0	1210723	90	1572
2026-01-23 00:31:06.86	8.48	88.24	-36.1	-37.9	7.2	1314369	90	1520
2026-01-23 00:31:07.06	7.80	88.34	-35.9	-37.5	7.7	1314369	90	1481
2026-01-23 00:31:07.26	7.02	88.44	-36.1	-38.2	7.2	1064292	90	1569
2026-01-23 00:31:07.46	6.14	88.54	-35.9	-37.7	7.5	1064292	90	1501
2026-01-23 00:31:07.66	5.13	88.64	-36.0	-37.8	7.4	1064292	90	1513
2026-01-23 00:31:07.87	3.89	88.74	-36.3	-38.6	6.9	1095214	90	1609
2026-01-23 00:31:08.07	2.51	88.84	-36.2	-38.4	7.0	1095214	90	1585
2026-01-23 00:31:08.27	0.87	88.94	-36.3	-38.5	6.9	1495788	90	1597
2026-01-23 00:31:08.47	358.89	89.04	-36.2	-38.2	7.1	1495788	90	1558
2026-01-23 00:31:08.67	356.48	89.13	-36.1	-38.1	7.2	1482856	90	1539
2026-01-23 00:31:08.87	353.47	89.23	-35.9	-37.8	7.8	1482856	89	1539
2026-01-23 00:31:09.07	349.65	89.32	-35.9	-37.9	7.6	996673	89	1550
2026-01-23 00:31:09.27	344.69	89.40	-35.5	-37.0	8.6	996673	89	1453
2026-01-23 00:31:09.47	338.10	89.49	-35.1	-36.5	9.2	528396	88	1444
2026-01-23 00:31:09.67	329.21	89.56	-35.4	-37.2	8.7	528396	88	1520
2026-01-23 00:31:09.88	316.62	89.62	-35.1	-36.5	8.9	277305	88	1447
2026-01-23 00:31:10.08	301.34	89.65	-35.2	-36.8	8.9	277305	88	1473
2026-01-23 00:31:10.28	284.21	89.66	-35.4	-37.2	8.6	277305	88	1510
2026-01-23 00:31:10.48	267.99	89.63	-35.3	-36.9	8.9	280929	88	1491
2026-01-23 00:31:10.68	254.69	89.58	-35.4	-37.3	8.9	280929	88	1533
2026-01-23 00:31:10.88	244.62	89.52	-35.3	-36.9	9.0	293952	88	1489
2026-01-23 00:31:11.08	237.15	89.44	-35.3	-36.9	9.1	293952	88	1492
2026-01-23 00:31:11.28	231.57	89.35	-35.1	-36.6	9.4	249252	88	1461
2026-01-23 00:31:11.48	227.32	89.27	-34.8	-35.7	9.9	249252	88	1372
2026-01-23 00:31:11.68	224.01	89.17	-34.6	-35.7	10.1	116256	87	1407
2026-01-23 00:31:11.89	221.25	89.07	-34.6	-35.9	10.3	116256	87	1427
2026-01-23 00:31:12.09	219.13	88.98	-34.4	-35.4	10.5	52352	87	1384
2026-01-23 00:31:12.29	217.37	88.88	-33.6	-34.7	11.3	52352	85	1397
2026-01-23 00:31:12.49	215.90	88.78	-34.0	-35.6	10.8	52352	85	1479
2026-01-23 00:31:12.69	214.65	88.68	-33.9	-35.4	10.8	22178	85	1467
2026-01-23 00:31:12.89	213.58	88.58	-33.8	-35.2	11.0	22178	85	1442
2026-01-23 00:31:13.09	212.64	88.48	-33.9	-35.3	10.8	20835	85	1448
2026-01-23 00:31:13.29	211.82	88.38	-34.3	-36.2	10.2	20835	85	1542
2026-01-23 00:31:13.49	211.10	88.28	-34.4	-36.6	9.9	41519	85	1584
2026-01-23 00:31:13.69	210.46	88.18	-34.4	-36.0	9.9	41519	86	1486
2026-01-23 00:31:13.89	209.89	88.08	-34.6	-36.5	9.6	89904	86	1534
2026-01-23 00:31:14.10	209.34	87.97	-34.6	-36.5	9.5	89904	86	1529
2026-01-23 00:31:14.30	208.88	87.87	-34.7	-36.7	9.2	143455	86	1556
2026-01-23 00:31:14.50	208.46	87.77	-34.7	-36.7	9.3	143455	86	1551
2026-01-23 00:31:14.70	208.07	87.67	-34.7	-36.8	9.0	177879	86	1566
2026-01-23 00:31:14.90	207.72	87.56	-35.4	-37.9	8.4	177879	87	1640
2026-01-23 00:31:15.10	207.39	87.46	-34.9	-36.6	9.2	289573	87	1497
2026-01-23 00:31:15.30	207.09	87.36	-35.1	-37.0	9.0	289573	87	1536
2026-01-23 00:31:15.50	206.82	87.26	-35.2	-37.2	8.9	289573	87	1550
2026-01-23 00:31:15.70	206.56	87.16	-35.2	-37.2	8.9	235435	87	1559
2026-01-23 00:31:15.91	206.31	87.05	-35.2	-37.4	8.8	235435	87	1576
2026-01-23 00:31:16.11	206.09	86.95	-35.3	-37.7	8.6	294944	87	1618
2026-01-23 00:31:16.31	205.88	86.84	-35.5	-37.7	8.2	294944	88	1580
2026-01-23 00:31:16.51	205.68	86.74	-35.6	-37.8	8.1	454124	88	1588
2026-01-23 00:31:16.71	205.50	86.64	-35.6	-37.8	7.9	454124	88	1587
2026-01-23 00:31:16.91	205.33	86.54	-35.6	-37.9	7.8	629859	88	1598
2026-01-23 00:31:17.11	205.17	86.43	-35.4	-37.3	8.3	629859	88	1532
2026-01-23 00:31:17.31	205.01	86.33	-35.4	-37.2	8.3	585433	88	1521
2026-01-23 00:31:17.51	204.87	86.23	-35.0	-36.3	8.7	585433	88	1428
2026-01-23 00:31:17.72	204.72	86.12	-34.9	-36.2	9.0	585433	88	1417
2026-01-23 00:31:17.92	204.59	86.02	-34.8	-36.2	9.4	352104	87	1459
2026-01-23 00:31:18.12	204.47	85.92	-34.4	-35.2	9.9	352104	87	1359
2026-01-23 00:31:18.32	204.35	85.82	-34.3	-35.2	9.9	149253	87	1360
2026-01-23 00:31:18.52	204.24	85.71	-33.9	-34.7	10.3	149253	86	1362
2026-01-23 00:31:18.72	204.14	85.61	-33.8	-34.6	10.4	65032	86	1345
2026-01-23 00:31:18.92	204.04	85.51	-33.9	-34.8	10.3	65032	86	1368
2026-01-23 00:31:19.12	203.94	85.41	-33.9	-34.8	10.3	48095	86	1369
2026-01-23 00:31:19.32	203.85	85.30	-33.8	-35.1	10.5	48095	85	1425
2026-01-23 00:31:19.53	203.75	85.20	-33.6	-34.6	10.8	40748	85	1382
2026-01-23 00:31:19.73	203.67	85.09	-33.9	-35.4	10.3	40748	85	1466
2026-01-23 00:31:19.93	203.59	84.99	-33.7	-34.9	10.6	38459	85	1414
2026-01-23 00:31:20.13	203.51	84.89	-33.6	-34.6	10.7	38459	85	1389
2026-01-23 00:31:20.33	203.44	84.79	-33.8	-35.1	10.5	38459	85	1434
2026-01-23 00:31:20.53	203.36	84.69	-33.6	-34.7	10.6	37101	85	1394
2026-01-23 00:31:20.73	203.30	84.58	-33.7	-34.8	10.7	37101	85	1408
2026-01-23 00:31:20.93	203.23	84.48	-33.5	-34.5	10.8	31295	85	1375
2026-01-23 00:31:21.13	203.17	84.38	-33.3	-34.5	11.2	31295	84	1415
2026-01-23 00:31:21.33	203.10	84.28	-33.4	-34.9	10.9	19638	84	1447
2026-01-23 00:31:21.54	203.04	84.17	-33.6	-35.3	10.6	19638	84	1492
2026-01-23 00:31:21.74	202.98	84.07	-33.6	-35.2	10.8	24742	84	1480
2026-01-23 00:31:21.94	202.93	83.97	-33.8	-35.7	10.5	24742	84	1531
2026-01-23 00:31:22.14	202.88	83.86	-34.1	-35.8	10.1	41435	85	1507
2026-01-23 00:31:22.34	202.82	83.76	-34.3	-36.3	9.8	41435	85	1557
2026-01-23 00:31:22.54	202.77	83.66	-34.5	-36.4	9.5	41435	86	1535
2026-01-23 00:31:22.74	202.73	83.56	-34.9	-37.5	8.9	95207	86	1654
2026-01-23 00:31:22.94	202.68	83.46	-35.3	-37.9	8.6	95207	87	1649
2026-01-23 00:31:23.14	202.63	83.35	-35.5	-37.8	8.3	304328	88	1599
2026-01-23 00:31:23.35	202.59	83.25	-35.8	-38.6	7.7	304328	88	1700
2026-01-23 00:31:23.55	202.54	83.15	-35.8	-38.5	7.8	624893	88	1687
2026-01-23 00:31:23.75	202.50	83.04	-35.8	-38.5	7.8	624893	88	1681
2026-01-23 00:31:23.95	202.46	82.94	-35.8	-38.5	8.0	780929	88	1678
2026-01-23 00:31:24.15	202.42	82.84	-35.6	-37.8	8.2	780929	88	1589
2026-01-23 00:31:24.35	202.39	82.74	-35.5	-37.8	8.3	578170	88	1591
2026-01-23 00:31:24.55	202.35	82.64	-35.5	-37.7	8.4	578170	88	1591
2026-01-23 00:31:24.75	202.31	82.54	-35.6	-37.8	8.3	446113	88	1603
2026-01-23 00:31:24.95	202.28	82.43	-35.6	-38.1	8.1	446113	88	1641
2026-01-23 00:31:25.15	202.25	82.33	-35.8	-38.4	7.9	589103	88	1663
2026-01-23 00:31:25.36	202.21	82.23	-36.0	-38.5	7.4	589103	89	1644
2026-01-23 00:31:25.56	202.18	82.12	-36.3	-39.1	7.1	589103	89	1718
2026-01-23 00:31:25.76	202.15	82.02	-36.2	-38.9	7.1	1041374	89	1687
2026-01-23 00:31:25.96	202.12	81.92	-35.9	-38.2	7.7	1041374	89	1598
2026-01-23 00:31:26.16	202.09	81.82	-35.7	-37.7	8.0	1174736	89	1539
2026-01-23 00:31:26.36	202.06	81.72	-35.6	-37.3	8.2	1174736	89	1504
2026-01-23 00:31:26.56	202.03	81.62	-35.5	-37.1	8.4	604156	89	1477
2026-01-23 00:31:26.76	202.01	81.52	-35.6	-37.4	8.3	604156	89	1517
2026-01-23 00:31:26.97	201.98	81.41	-35.6	-37.4	8.3	459526	89	1515
2026-01-23 00:31:27.17	201.95	81.31	-35.8	-38.0	8.0	459526	89	1580
2026-01-23 00:31:27.37	201.93	81.21	-36.1	-38.9	7.4	639526	89	1700
2026-01-23 00:31:27.57	201.90	81.11	-36.3	-39.4	6.9	639526	89	1752
2026-01-23 00:31:27.77	201.88	81.01	-36.4	-39.6	6.9	639526	89	1785
2026-01-23 00:31:27.97	201.85	80.91	-36.7	-40.2	6.0	1411056	90	1828
2026-01-23 00:31:28.17	201.83	80.80	-36.7	-40.1	5.8	1411056	90	1816
2026-01-23 00:31:28.37	201.81	80.70	-36.9	-40.5	5.7	2927024	90	1874
2026-01-23 00:31:28.57	201.79	80.60	-36.9	-40.7	5.7	2927024	90	1895
2026-01-23 00:31:28.77	201.76	80.50	-36.8	-40.3	5.7	3580345	90	1830
2026-01-23 00:31:28.97	201.74	80.40	-36.8	-40.4	5.7	3580345	90	1848
2026-01-23 00:31:29.18	201.72	80.30	-36.6	-39.5	6.1	3540237	90	1717
2026-01-23 00:31:29.38	201.70	80.20	-36.5	-39.4	6.3	3540237	90	1705
2026-01-23 00:31:29.58	201.68	80.09	-36.4	-38.9	6.7	2420257	90	1643
2026-01-23 00:31:29.78	201.66	79.99	-36.3	-38.7	6.8	2420257	90	1624
2026-01-23 00:31:29.98	201.64	79.89	-36.3	-38.8	6.9	1651748	90	1639
2026-01-23 00:31:30.18	201.63	79.79	-36.2	-38.7	7.0	1651748	90	1627
2026-01-23 00:31:30.38	201.61	79.69	-36.4	-39.3	6.7	1651748	90	1712
2026-01-23 00:31:30.58	201.59	79.59	-36.6	-39.7	6.4	1564331	90	1762
2026-01-23 00:31:30.78	201.57	79.49	-36.8	-40.5	5.9	1564331	90	1873
2026-01-23 00:31:30.98	201.56	79.39	-37.0	-41.0	5.6	2565452	90	1951
2026-01-23 00:31:31.19	201.54	79.29	-37.0	-41.0	5.5	2565452	90	1956
2026-01-23 00:31:31.39	201.52	79.19	-36.9	-40.8	5.6	4002159	90	1928
2026-01-23 00:31:31.59	201.51	79.09	-36.8	-40.2	5.8	4002159	90	1830
2026-01-23 00:31:31.79	201.49	78.99	-36.7	-40.1	6.1	3554435	90	1814
2026-01-23 00:31:31.99	201.47	78.89	-36.5	-39.4	6.3	3554435	90	1709
2026-01-23 00:31:32.19	201.46	78.79	-36.3	-38.9	6.6	2595878	90	1654
2026-01-23 00:31:32.39	201.44	78.69	-36.1	-38.3	7.0	2595878	90	1584
2026-01-23 00:31:32.59	201.43	78.59	-35.9	-37.7	7.4	2595878	90	1509
2026-01-23 00:31:32.79	201.42	78.49	-35.8	-37.4	7.5	1525726	90	1477
2026-01-23 00:31:33.00	201.40	78.38	-35.9	-38.1	7.5	1525726	89	1596
2026-01-23 00:31:33.20	201.39	78.28	-35.8	-37.9	7.5	922874	89	1565
2026-01-23 00:31:33.40	201.37	78.18	-35.9	-38.2	7.5	922874	89	1601
2026-01-23 00:31:33.60	201.36	78.08	-35.8	-37.7	7.6	998847	89	1544
2026-01-23 00:31:33.80	201.35	77.99	-36.0	-38.3	7.1	998847	89	1617
2026-01-23 00:31:34.00	201.33	77.89	-36.3	-39.2	6.4	1168151	89	1719
2026-01-23 00:31:34.20	201.32	77.79	-36.5	-39.6	6.1	1168151	89	1769
2026-01-23 00:31:34.40	201.31	77.69	-36.6	-39.6	5.7	2490737	90	1741
2026-01-23 00:31:34.60	201.30	77.59	-37.0	-40.7	5.1	2490737	90	1892
2026-01-23 00:31:34.81	201.28	77.48	-36.8	-40.2	5.2	4590049	90	1807
2026-01-23 00:31:35.01	201.27	77.39	-37.3	-40.7	4.9	4590049	91	1830
2026-01-23 00:31:35.21	201.26	77.29	-37.3	-40.7	4.9	5731895	91	1828
2026-01-23 00:31:35.41	201.25	77.19	-37.2	-40.5	5.0	5731895	91	1804
2026-01-23 00:31:35.61	201.24	77.09	-37.1	-40.1	5.1	5731895	91	1741
2026-01-23 00:31:35.81	201.23	76.99	-37.1	-40.0	5.2	5870552	91	1732
2026-01-23 00:31:36.01	201.22	76.89	-37.2	-40.5	5.0	5870552	91	1802
2026-01-23 00:31:36.21	201.21	76.79	-37.3	-40.7	4.8	5407127	91	1829
2026-01-23 00:31:36.41	201.20	76.69	-37.3	-40.8	4.7	5407127	91	1843
2026-01-23 00:31:36.61	201.19	76.60	-37.4	-41.1	4.5	6802612	91	1898
2026-01-23 00:31:36.81	201.18	76.50	-37.4	-41.4	4.4	6802612	91	1941
2026-01-23 00:31:37.02	201.17	76.39	-37.4	-41.3	4.4	8123840	91	1928
2026-01-23 00:31:37.22	201.16	76.30	-37.5	-41.5	4.4	8123840	91	1961
2026-01-23 00:31:37.42	201.15	76.20	-37.5	-41.1	4.3	8416152	92	1873
2026-01-23 00:31:37.62	201.14	76.10	-37.4	-40.9	4.4	8416152	92	1836
2026-01-23 00:31:37.82	201.13	76.00	-37.2	-40.3	4.7	8108718	92	1752
2026-01-23 00:31:38.02	201.12	75.90	-37.1	-39.9	5.0	8108718	92	1703
2026-01-23 00:31:38.22	201.11	75.80	-37.0	-39.4	5.2	8108718	92	1633
2026-01-23 00:31:38.42	201.10	75.71	-37.0	-39.7	5.2	5729263	92	1673
2026-01-23 00:31:38.62	201.09	75.61	-37.0	-39.6	5.2	5729263	92	1661
2026-01-23 00:31:38.82	201.08	75.51	-36.8	-39.4	5.8	4993026	91	1661
2026-01-23 00:31:39.03	201.07	75.41	-36.6	-39.0	6.1	4993026	91	1622
2026-01-23 00:31:39.23	201.07	75.31	-36.4	-38.4	6.4	3150794	91	1550
2026-01-23 00:31:39.43	201.06	75.21	-36.4	-38.3	6.5	3150794	91	1540
2026-01-23 00:31:39.63	201.05	75.12	-36.0	-38.1	6.8	2116195	90	1569
2026-01-23 00:31:39.83	201.04	75.02	-36.2	-38.7	6.5	2116195	90	1637
2026-01-23 00:31:40.03	201.03	74.92	-36.1	-38.5	6.5	1981292	90	1608
2026-01-23 00:31:40.23	201.03	74.82	-36.2	-38.5	6.6	1981292	90	1616
2026-01-23 00:31:40.43	201.02	74.73	-36.2	-38.5	6.5	1981292	90	1616
2026-01-23 00:31:40.63	201.01	74.63	-36.2	-38.8	6.3	1958442	90	1655
2026-01-23 00:31:40.83	201.00	74.53	-36.2	-38.6	6.4	1958442	90	1632
2026-01-23 00:31:41.04	200.99	74.43	-36.2	-38.7	6.4	2315330	90	1642
2026-01-23 00:31:41.24	200.99	74.33	-36.1	-38.6	6.5	2315330	90	1633
2026-01-23 00:31:41.44	200.98	74.24	-35.8	-37.7	7.2	2053009	90	1529
2026-01-23 00:31:41.64	200.97	74.14	-35.9	-37.8	7.2	2053009	90	1536
2026-01-23 00:31:41.84	200.97	74.04	-35.8	-38.0	7.5	1261169	89	1597
2026-01-23 00:31:42.04	200.96	73.95	-35.6	-37.7	7.9	1261169	89	1565
2026-01-23 00:31:42.24	200.95	73.85	-35.4	-37.1	8.2	770668	89	1496
2026-01-23 00:31:42.44	200.95	73.75	-35.2	-37.2	8.5	770668	88	1556
2026-01-23 00:31:42.64	200.94	73.66	-35.3	-37.3	8.4	770668	88	1561
2026-01-23 00:31:42.84	200.93	73.56	-35.3	-37.5	8.3	468498	88	1586
2026-01-23 00:31:43.05	200.93	73.46	-35.3	-37.6	8.2	468498	88	1601
2026-01-23 00:31:43.25	200.92	73.36	-35.4	-37.8	8.1	480438	88	1616
2026-01-23 00:31:43.45	200.91	73.27	-35.6	-38.3	7.8	480438	88	1678
2026-01-23 00:31:43.65	200.91	73.17	-35.7	-38.6	7.5	691604	88	1724
2026-01-23 00:31:43.85	200.90	73.08	-36.0	-39.5	6.9	691604	88	1833
2026-01-23 00:31:44.05	200.90	72.98	-36.4	-40.0	6.1	1259887	89	1861
2026-01-23 00:31:44.25	200.89	72.88	-36.6	-40.2	5.6	1259887	90	1872
2026-01-23 00:31:44.45	200.88	72.79	-36.6	-40.2	5.5	3163002	90	1860
2026-01-23 00:31:44.65	200.88	72.69	-36.7	-40.4	5.4	3163002	90	1879
2026-01-23 00:31:44.86	200.87	72.59	-36.6	-40.1	5.3	4434020	90	1835
2026-01-23 00:31:45.06	200.87	72.50	-36.7	-40.4	5.3	4434020	90	1870
2026-01-23 00:31:45.26	200.86	72.40	-36.7	-40.2	5.3	4595481	90	1832
2026-01-23 00:31:45.46	200.86	72.31	-36.6	-39.9	5.3	4595481	90	1789
2026-01-23 00:31:45.66	200.85	72.21	-36.5	-39.6	5.5	4595481	90	1744
2026-01-23 00:31:45.86	200.85	72.12	-36.6	-39.6	5.3	4467262	90	1754
2026-01-23 00:31:46.06	200.84	72.02	-36.5	-39.5	5.4	4467262	90	1734
2026-01-23 00:31:46.26	200.84	71.93	-36.6	-39.9	5.3	4478958	90	1786
2026-01-23 00:31:46.47	200.83	71.83	-36.7	-40.1	4.9	4478958	90	1813
2026-01-23 00:31:46.67	200.82	71.73	-36.5	-39.3	5.3	5102844	90	1706
2026-01-23 00:31:46.87	200.82	71.64	-36.4	-39.1	5.4	5102844	90	1681
2026-01-23 00:31:47.07	200.81	71.54	-36.5	-39.4	5.3	4670280	90	1717
2026-01-23 00:31:47.27	200.81	71.45	-36.5	-39.4	5.1	4670280	90	1720
2026-01-23 00:31:47.47	200.81	71.35	-36.5	-39.4	5.1	5034065	90	1714
2026-01-23 00:31:47.67	200.80	71.26	-36.7	-40.0	4.8	5034065	90	1798
2026-01-23 00:31:47.87	200.80	71.17	-36.8	-40.3	4.6	6420593	90	1846
2026-01-23 00:31:48.07	200.79	71.07	-36.8	-40.4	4.6	6420593	90	1862
2026-01-23 00:31:48.27	200.79	70.98	-36.8	-40.5	4.6	6420593	90	1872
2026-01-23 00:31:48.47	200.78	70.88	-36.8	-40.4	4.6	7224205	90	1862
2026-01-23 00:31:48.67	200.78	70.79	-36.9	-40.7	4.5	7224205	90	1913
2026-01-23 00:31:48.88	200.77	70.69	-36.9	-40.9	4.6	7660835	90	1940
2026-01-23 00:31:49.08	200.77	70.60	-36.7	-40.1	4.9	7660835	90	1827
2026-01-23 00:31:49.28	200.76	70.50	-37.6	-41.9	4.0	7236526	92	2024
2026-01-23 00:31:49.48	200.76	70.41	-38.3	-46.2	3.6	7236526	93	3084

#Closed at: 2026-01-23 00:31:49