passes_logs/2025/01/24/LEX_test/LEX_test__20250124_170503_NOAA_19_rec.log

#Pass ID: 20250124_170503_NOAA 19
#Satellite: NOAA 19
#Configuration: NOAA 19
#Start time: 2025-01-24 17:05:08.923228

#LorettStation: 1.0.0 05.05.2024
#Station: LEX_test
#Location: 44.064575 lon 56.356522 lat
#TLE: 1 33591U 09005A   25024.42016610  .00000458  00000+0  26845-3 0  9992
#TLE: 2 33591  99.0181  88.2546 0014124  31.9823 328.2203 14.13268053822872

#Time	Az	El	Level	SNR
2025-01-24 17:05:18.153671	136.2	16.0	-73.9	4.2
2025-01-24 17:05:19.294264	136.1	16.1	-74.5	4.9
2025-01-24 17:05:20.423504	136.0	16.2	-75.0	6.1
2025-01-24 17:05:21.557849	136.0	16.3	-74.4	5.8
2025-01-24 17:05:22.696913	135.9	16.5	-75.5	5.7
2025-01-24 17:05:23.829364	135.8	16.6	-75.2	5.3
2025-01-24 17:05:24.968086	135.7	16.7	-74.5	5.6
2025-01-24 17:05:26.098055	135.7	16.8	-74.1	4.8
2025-01-24 17:05:27.229774	135.6	16.9	-74.6	7.3
2025-01-24 17:05:28.360712	135.5	17.1	-73.8	5.5
2025-01-24 17:05:29.496364	135.4	17.2	-75.1	5.0
2025-01-24 17:05:30.630256	135.4	17.3	-74.8	5.5
2025-01-24 17:05:31.776223	135.3	17.5	-74.1	5.2
2025-01-24 17:05:32.925043	135.2	17.6	-74.5	7.4
2025-01-24 17:05:34.062243	135.1	17.7	-74.9	6.1
2025-01-24 17:05:35.195092	135.0	17.8	-74.6	6.0
2025-01-24 17:05:36.334953	135.0	18.0	-74.2	6.6
2025-01-24 17:05:37.466260	134.9	18.1	-75.3	6.3
2025-01-24 17:05:38.596639	134.8	18.2	-75.1	4.8
2025-01-24 17:05:39.727526	134.7	18.4	-74.3	5.0
2025-01-24 17:05:40.878092	134.6	18.5	-75.2	5.1
2025-01-24 17:05:42.035139	134.5	18.6	-74.5	5.6
2025-01-24 17:05:43.165993	134.5	18.8	-74.8	5.5
2025-01-24 17:05:44.302429	134.4	18.9	-74.0	7.5
2025-01-24 17:05:45.446763	134.3	19.0	-74.8	5.5
2025-01-24 17:05:46.577799	134.2	19.2	-73.8	5.8
2025-01-24 17:05:47.723346	134.1	19.3	-74.9	6.4
2025-01-24 17:05:48.855420	134.0	19.4	-74.4	5.8
2025-01-24 17:05:49.985907	133.9	19.6	-75.5	5.3
2025-01-24 17:05:51.115517	133.8	19.7	-74.9	7.5
2025-01-24 17:05:52.255099	133.7	19.9	-74.6	5.6
2025-01-24 17:05:53.400156	133.7	20.0	-74.6	4.9
2025-01-24 17:05:54.538673	133.6	20.1	-73.9	6.1
2025-01-24 17:05:55.679649	133.5	20.3	-74.3	5.1
2025-01-24 17:05:56.821049	133.4	20.4	-74.1	5.2
2025-01-24 17:05:57.959743	133.3	20.6	-75.0	5.3
2025-01-24 17:05:59.091328	133.2	20.7	-73.7	4.3
2025-01-24 17:06:00.229807	133.1	20.8	-74.9	5.3
2025-01-24 17:06:01.360485	133.0	21.0	-74.3	5.6
2025-01-24 17:06:02.492933	132.9	21.1	-74.8	4.7
2025-01-24 17:06:03.634622	132.8	21.3	-75.1	7.9
2025-01-24 17:06:04.772829	132.7	21.4	-74.0	8.9
2025-01-24 17:06:05.908968	132.6	21.6	-75.2	6.7
2025-01-24 17:06:07.051313	132.5	21.7	-74.1	5.8
2025-01-24 17:06:08.195149	132.4	21.9	-75.1	6.4
2025-01-24 17:06:09.339832	132.2	22.0	-75.3	6.3
2025-01-24 17:06:10.488563	132.1	22.2	-75.0	6.3
2025-01-24 17:06:11.629219	132.0	22.3	-75.3	5.5
2025-01-24 17:06:12.759260	131.9	22.5	-75.3	5.4
2025-01-24 17:06:13.894164	131.8	22.6	-75.3	4.9
2025-01-24 17:06:15.026305	131.7	22.8	-75.1	6.2
2025-01-24 17:06:16.164298	131.6	22.9	-74.7	5.0
2025-01-24 17:06:17.296541	131.5	23.1	-73.9	5.3
2025-01-24 17:06:18.432862	131.4	23.3	-75.1	5.0
2025-01-24 17:06:19.569625	131.2	23.4	-74.3	4.5
2025-01-24 17:06:20.706994	131.1	23.6	-75.2	4.6
2025-01-24 17:06:21.855238	131.0	23.7	-74.5	5.0
2025-01-24 17:06:22.988151	130.9	23.9	-75.2	4.8
2025-01-24 17:06:24.129522	130.8	24.0	-74.4	6.8
2025-01-24 17:06:25.261176	130.6	24.2	-74.5	4.5
2025-01-24 17:06:26.397816	130.5	24.4	-74.2	3.2
2025-01-24 17:06:27.537487	130.4	24.5	-74.4	4.7
2025-01-24 17:06:28.674440	130.3	24.7	-75.2	4.3
2025-01-24 17:06:29.806434	130.1	24.9	-74.4	4.1
2025-01-24 17:06:30.955526	130.0	25.0	-74.8	5.0
2025-01-24 17:06:32.088163	129.9	25.2	-74.7	5.3
2025-01-24 17:06:33.221656	129.7	25.4	-75.2	3.0
2025-01-24 17:06:34.368433	129.6	25.5	-74.1	6.1
2025-01-24 17:06:35.505351	129.5	25.7	-75.1	3.1
2025-01-24 17:06:36.643306	129.3	25.9	-74.3	4.3
2025-01-24 17:06:37.774115	129.2	26.0	-74.6	3.8
2025-01-24 17:06:38.904738	129.1	26.2	-76.2	5.6
2025-01-24 17:06:40.037637	128.9	26.4	-75.4	4.2
2025-01-24 17:06:41.169527	128.8	26.6	-74.4	4.6
2025-01-24 17:06:42.301171	128.6	26.7	-74.4	4.1
2025-01-24 17:06:43.432370	128.5	26.9	-75.7	4.2
2025-01-24 17:06:44.563700	128.3	27.1	-74.9	3.9
2025-01-24 17:06:45.705659	128.2	27.3	-75.7	3.9
2025-01-24 17:06:46.848875	128.0	27.4	-74.7	5.8
2025-01-24 17:06:47.980328	127.9	27.6	-75.1	4.7
2025-01-24 17:06:49.112176	127.7	27.8	-75.0	6.1
2025-01-24 17:06:50.245028	127.6	28.0	-74.7	5.5
2025-01-24 17:06:51.386390	127.4	28.2	-76.0	3.4
2025-01-24 17:06:52.517733	127.3	28.3	-75.3	5.2
2025-01-24 17:06:53.660559	127.1	28.5	-75.3	4.1
2025-01-24 17:06:54.790863	126.9	28.7	-75.4	5.2
2025-01-24 17:06:55.921865	126.8	28.9	-74.5	4.7
2025-01-24 17:06:57.056424	126.6	29.1	-74.7	5.9
2025-01-24 17:06:58.186606	126.4	29.3	-75.9	5.2
2025-01-24 17:06:59.316899	126.3	29.4	-75.1	5.6
2025-01-24 17:07:00.449020	126.1	29.6	-74.9	5.0
2025-01-24 17:07:01.584196	125.9	29.8	-74.8	3.8
2025-01-24 17:07:02.713968	125.7	30.0	-75.7	4.8
2025-01-24 17:07:03.843927	125.6	30.2	-75.0	3.1
2025-01-24 17:07:04.975960	125.4	30.4	-74.4	3.9
2025-01-24 17:07:06.119012	125.2	30.6	-75.0	4.2
2025-01-24 17:07:07.252514	125.0	30.8	-74.7	6.1
2025-01-24 17:07:08.383505	124.8	31.0	-75.1	5.8
2025-01-24 17:07:09.518573	124.6	31.2	-74.7	5.5
2025-01-24 17:07:10.649039	124.4	31.4	-74.1	5.3
2025-01-24 17:07:11.779492	124.2	31.6	-75.8	6.0
2025-01-24 17:07:12.914580	124.0	31.8	-75.5	6.4
2025-01-24 17:07:14.053122	123.8	32.0	-74.8	7.8
2025-01-24 17:07:15.195229	123.6	32.2	-75.3	8.5
2025-01-24 17:07:16.326195	123.4	32.4	-74.6	6.4
2025-01-24 17:07:17.468168	123.2	32.6	-75.6	6.2
2025-01-24 17:07:18.611219	123.0	32.8	-75.1	5.8
2025-01-24 17:07:19.746673	122.8	33.0	-75.7	5.1
2025-01-24 17:07:20.878857	122.6	33.2	-75.4	4.6
2025-01-24 17:07:22.020676	122.4	33.4	-75.7	5.0
2025-01-24 17:07:23.166201	122.1	33.6	-75.0	5.5
2025-01-24 17:07:24.306415	121.9	33.8	-75.3	3.9
2025-01-24 17:07:25.440634	121.7	34.0	-75.4	6.3
2025-01-24 17:07:26.584946	121.5	34.2	-74.6	5.0
2025-01-24 17:07:27.713563	121.2	34.5	-76.0	4.4
2025-01-24 17:07:28.851043	121.0	34.7	-75.1	5.7
2025-01-24 17:07:29.984516	120.7	34.9	-75.6	5.0
2025-01-24 17:07:31.128859	120.5	35.1	-75.4	4.8
2025-01-24 17:07:32.275792	120.2	35.3	-74.9	4.1
2025-01-24 17:07:33.423267	120.0	35.5	-75.5	3.6
2025-01-24 17:07:34.553165	119.7	35.8	-74.9	5.5
2025-01-24 17:07:35.685181	119.5	36.0	-74.4	4.4
2025-01-24 17:07:36.815670	119.2	36.2	-75.2	5.3
2025-01-24 17:07:37.948040	119.0	36.4	-75.5	6.4
2025-01-24 17:07:39.078752	118.7	36.6	-74.8	6.6
2025-01-24 17:07:40.226523	118.4	36.8	-75.6	4.3
2025-01-24 17:07:41.369877	118.2	37.1	-75.4	7.2
2025-01-24 17:07:42.514161	117.9	37.3	-75.6	5.6
2025-01-24 17:07:43.651535	117.6	37.5	-74.5	5.8
2025-01-24 17:07:44.799491	117.3	37.7	-75.0	7.1
2025-01-24 17:07:45.942752	117.0	38.0	-75.6	5.1
2025-01-24 17:07:47.085720	116.7	38.2	-75.1	4.3
2025-01-24 17:07:48.221327	116.4	38.4	-75.1	4.8
2025-01-24 17:07:49.352797	116.1	38.6	-75.6	4.5
2025-01-24 17:07:50.490779	115.8	38.9	-75.1	5.5
2025-01-24 17:07:51.628962	115.5	39.1	-75.6	2.0
2025-01-24 17:07:52.774986	115.2	39.3	-75.0	5.7
2025-01-24 17:07:53.916879	114.9	39.6	-75.5	6.0
2025-01-24 17:07:55.048867	114.5	39.8	-74.9	2.3
2025-01-24 17:07:56.180033	114.2	40.0	-75.4	3.3
2025-01-24 17:07:57.316410	113.9	40.2	-75.2	5.2
2025-01-24 17:07:58.475647	113.5	40.5	-75.1	3.6
2025-01-24 17:07:59.607186	113.2	40.7	-74.6	4.1
2025-01-24 17:08:00.751459	112.8	40.9	-75.0	3.4
2025-01-24 17:08:01.886608	112.5	41.2	-74.8	5.3
2025-01-24 17:08:03.022313	112.1	41.4	-74.7	5.8
2025-01-24 17:08:04.168473	111.8	41.6	-74.8	6.7
2025-01-24 17:08:05.304324	111.4	41.9	-74.4	4.5
2025-01-24 17:08:06.434874	111.0	42.1	-75.5	7.3
2025-01-24 17:08:07.564982	110.6	42.3	-75.3	8.9
2025-01-24 17:08:08.710124	110.2	42.6	-75.6	12.5
2025-01-24 17:08:09.848413	109.9	42.8	-74.7	14.2
2025-01-24 17:08:10.978791	109.5	43.0	-75.2	13.5
2025-01-24 17:08:12.132768	109.0	43.2	-75.1	15.5
2025-01-24 17:08:13.265146	108.6	43.5	-75.1	13.1
2025-01-24 17:08:14.436158	108.2	43.7	-75.0	14.7
2025-01-24 17:08:15.595760	107.8	43.9	-74.9	12.6
2025-01-24 17:08:16.732414	107.4	44.2	-73.7	10.3
2025-01-24 17:08:17.876374	106.9	44.4	-74.9	6.8
2025-01-24 17:08:19.011663	106.5	44.6	-75.1	8.6
2025-01-24 17:08:20.156385	106.0	44.9	-74.9	9.9
2025-01-24 17:08:21.288952	105.6	45.1	-74.9	7.3
2025-01-24 17:08:22.424438	105.1	45.3	-74.8	8.0
2025-01-24 17:08:23.569261	104.7	45.5	-74.9	7.3
2025-01-24 17:08:24.719264	104.2	45.8	-75.5	11.3
2025-01-24 17:08:25.855598	103.7	46.0	-74.1	11.0
2025-01-24 17:08:26.988295	103.2	46.2	-75.7	14.4
2025-01-24 17:08:28.136348	102.7	46.4	-74.6	14.6
2025-01-24 17:08:29.286659	102.2	46.7	-75.2	15.0
2025-01-24 17:08:30.429270	101.7	46.9	-75.5	15.4
2025-01-24 17:08:31.574107	101.2	47.1	-74.9	14.0
2025-01-24 17:08:32.712201	100.7	47.3	-75.3	14.5
2025-01-24 17:08:33.843267	100.1	47.5	-74.9	11.5
2025-01-24 17:08:34.981897	99.6	47.7	-75.5	11.2
2025-01-24 17:08:36.132919	99.1	48.0	-74.9	9.9
2025-01-24 17:08:37.276766	98.5	48.2	-75.4	7.7
2025-01-24 17:08:38.419346	97.9	48.4	-75.7	5.5
2025-01-24 17:08:39.561572	97.4	48.6	-75.4	5.8
2025-01-24 17:08:40.696279	96.8	48.8	-75.1	6.9
2025-01-24 17:08:41.829561	96.2	49.0	-75.6	6.1
2025-01-24 17:08:42.971745	95.6	49.2	-74.9	5.5
2025-01-24 17:08:44.119122	95.0	49.4	-75.9	7.1
2025-01-24 17:08:45.263107	94.4	49.6	-74.7	6.1
2025-01-24 17:08:46.412077	93.8	49.8	-74.8	8.4
2025-01-24 17:08:47.558500	93.2	50.0	-75.5	8.6
2025-01-24 17:08:48.708997	92.5	50.1	-75.3	10.4
2025-01-24 17:08:49.850512	91.9	50.3	-75.0	9.1
2025-01-24 17:08:50.982645	91.3	50.5	-74.4	11.1
2025-01-24 17:08:52.124323	90.6	50.7	-74.3	13.4
2025-01-24 17:08:53.255303	90.0	50.9	-74.4	13.9
2025-01-24 17:08:54.401693	89.3	51.0	-75.1	14.1
2025-01-24 17:08:55.535987	88.6	51.2	-74.6	15.6
2025-01-24 17:08:56.678097	87.9	51.4	-75.2	17.1
2025-01-24 17:08:57.815558	87.2	51.5	-74.1	15.6
2025-01-24 17:08:58.959139	86.5	51.7	-74.6	16.4
2025-01-24 17:09:00.105416	85.8	51.8	-75.3	16.6
2025-01-24 17:09:01.239157	85.1	52.0	-75.3	15.2
2025-01-24 17:09:02.372035	84.4	52.1	-75.2	13.6
2025-01-24 17:09:03.506820	83.7	52.2	-75.4	14.8
2025-01-24 17:09:04.650891	83.0	52.4	-74.9	14.5
2025-01-24 17:09:05.782379	82.2	52.5	-75.7	11.9
2025-01-24 17:09:06.914061	81.5	52.6	-74.9	11.0
2025-01-24 17:09:08.045682	80.8	52.8	-74.1	13.2
2025-01-24 17:09:09.177117	80.0	52.9	-74.9	13.9
2025-01-24 17:09:10.307793	79.2	53.0	-75.5	8.9
2025-01-24 17:09:11.447744	78.5	53.1	-75.1	8.6
2025-01-24 17:09:12.606583	77.7	53.2	-74.9	12.3
2025-01-24 17:09:13.738195	76.9	53.3	-74.1	9.0
2025-01-24 17:09:14.879701	76.1	53.4	-74.5	7.6
2025-01-24 17:09:16.010299	75.4	53.5	-73.9	9.4
2025-01-24 17:09:17.157375	74.6	53.5	-75.0	10.8
2025-01-24 17:09:18.304639	73.8	53.6	-75.2	6.3
2025-01-24 17:09:19.444773	73.0	53.7	-74.4	10.4
2025-01-24 17:09:20.586141	72.2	53.7	-75.1	8.6
2025-01-24 17:09:21.726440	71.3	53.8	-74.2	6.8
2025-01-24 17:09:22.856905	70.5	53.8	-75.1	6.9
2025-01-24 17:09:24.000126	69.7	53.9	-75.7	7.6
2025-01-24 17:09:25.147478	68.9	53.9	-74.9	7.7
2025-01-24 17:09:26.293057	68.1	54.0	-74.7	5.9
2025-01-24 17:09:27.425996	67.3	54.0	-75.2	8.4
2025-01-24 17:09:28.560455	66.5	54.0	-75.0	8.5
2025-01-24 17:09:29.692209	65.6	54.0	-74.4	8.5
2025-01-24 17:09:30.824169	64.8	54.0	-75.5	4.7
2025-01-24 17:09:31.958554	64.0	54.0	-74.5	7.5
2025-01-24 17:09:33.099098	63.2	54.0	-75.1	8.6
2025-01-24 17:09:34.229731	62.4	54.0	-75.4	6.0
2025-01-24 17:09:35.366731	61.5	54.0	-74.8	5.5
2025-01-24 17:09:36.507142	60.7	54.0	-75.6	7.5
2025-01-24 17:09:37.638693	59.9	54.0	-74.7	7.6
2025-01-24 17:09:38.769090	59.1	53.9	-74.3	5.6
2025-01-24 17:09:39.902852	58.3	53.9	-75.0	4.1
2025-01-24 17:09:41.037639	57.5	53.9	-75.6	6.1
2025-01-24 17:09:42.175104	56.7	53.8	-74.5	6.5
2025-01-24 17:09:43.317457	55.9	53.8	-74.9	6.6
2025-01-24 17:09:44.464061	55.1	53.7	-74.4	7.6
2025-01-24 17:09:45.616893	54.2	53.6	-74.8	8.0
2025-01-24 17:09:46.764012	53.4	53.6	-74.9	6.7
2025-01-24 17:09:47.909310	52.7	53.5	-75.3	3.2
2025-01-24 17:09:49.055636	51.9	53.4	-75.6	8.1
2025-01-24 17:09:50.191384	51.1	53.3	-75.6	8.6
2025-01-24 17:09:51.338593	50.3	53.2	-74.9	6.6
2025-01-24 17:09:52.481019	49.5	53.1	-74.7	6.4
2025-01-24 17:09:53.623016	48.7	53.0	-75.0	6.1
2025-01-24 17:09:54.761716	48.0	52.9	-74.9	4.0
2025-01-24 17:09:55.921174	47.2	52.8	-74.7	6.6
2025-01-24 17:09:57.056348	46.5	52.7	-75.5	5.9
2025-01-24 17:09:58.204041	45.7	52.6	-74.9	6.9
2025-01-24 17:09:59.349335	45.0	52.4	-75.1	7.3
2025-01-24 17:10:00.494075	44.2	52.3	-74.9	6.7
2025-01-24 17:10:01.650305	43.5	52.2	-74.7	6.9
2025-01-24 17:10:02.790534	42.8	52.0	-75.4	6.9
2025-01-24 17:10:03.930171	42.1	51.9	-75.4	8.5
2025-01-24 17:10:05.078055	41.4	51.7	-74.4	9.3
2025-01-24 17:10:06.229670	40.7	51.6	-75.2	10.1
2025-01-24 17:10:07.378917	40.0	51.4	-75.6	9.2
2025-01-24 17:10:08.518936	39.3	51.2	-74.1	10.0
2025-01-24 17:10:09.649431	38.6	51.1	-74.9	9.4
2025-01-24 17:10:10.789802	38.0	50.9	-75.5	11.4
2025-01-24 17:10:11.929623	37.3	50.7	-74.2	11.4
2025-01-24 17:10:13.068620	36.6	50.6	-75.3	11.9
2025-01-24 17:10:14.202272	36.0	50.4	-74.3	9.8
2025-01-24 17:10:15.335748	35.4	50.2	-75.5	12.4
2025-01-24 17:10:16.485293	34.7	50.0	-74.7	11.4
2025-01-24 17:10:17.623335	34.1	49.8	-75.5	11.4
2025-01-24 17:10:18.767711	33.5	49.6	-74.6	10.0
2025-01-24 17:10:19.903946	32.9	49.4	-75.0	8.2
2025-01-24 17:10:21.034309	32.3	49.3	-74.6	10.7
2025-01-24 17:10:22.167096	31.7	49.1	-74.4	9.5
2025-01-24 17:10:23.295469	31.1	48.9	-75.6	6.5
2025-01-24 17:10:24.428065	30.6	48.7	-75.0	8.1
2025-01-24 17:10:25.556547	30.0	48.5	-74.7	8.3
2025-01-24 17:10:26.689016	29.5	48.3	-74.9	9.3
2025-01-24 17:10:27.820242	28.9	48.0	-75.2	5.0
2025-01-24 17:10:28.946307	28.4	47.8	-75.0	7.7
2025-01-24 17:10:30.088251	27.8	47.6	-74.4	8.0
2025-01-24 17:10:31.221033	27.3	47.4	-75.2	7.9
2025-01-24 17:10:32.351930	26.8	47.2	-75.2	7.2
2025-01-24 17:10:33.482980	26.3	47.0	-74.9	8.4
2025-01-24 17:10:34.615155	25.8	46.8	-74.4	10.3
2025-01-24 17:10:35.751773	25.3	46.5	-75.1	11.7
2025-01-24 17:10:36.885156	24.8	46.3	-75.1	9.8
2025-01-24 17:10:38.020649	24.3	46.1	-74.8	11.7
2025-01-24 17:10:39.159396	23.8	45.9	-74.8	9.3
2025-01-24 17:10:40.295324	23.3	45.7	-74.6	10.2
2025-01-24 17:10:41.428430	22.9	45.4	-75.9	10.8
2025-01-24 17:10:42.568250	22.4	45.2	-74.4	10.1
2025-01-24 17:10:43.692862	22.0	45.0	-75.9	7.5
2025-01-24 17:10:44.818953	21.5	44.8	-75.0	6.2
2025-01-24 17:10:45.945289	21.1	44.5	-76.0	6.7
2025-01-24 17:10:47.078992	20.6	44.3	-75.1	7.3
2025-01-24 17:10:48.221926	20.2	44.1	-75.4	5.1
2025-01-24 17:10:49.353367	19.8	43.9	-75.3	5.3
2025-01-24 17:10:50.483383	19.4	43.6	-75.0	5.0
2025-01-24 17:10:51.612995	19.0	43.4	-74.7	5.5
2025-01-24 17:10:52.738084	18.6	43.2	-75.4	5.9
2025-01-24 17:10:53.869555	18.2	43.0	-75.4	5.2
2025-01-24 17:10:54.996543	17.8	42.7	-75.6	8.2
2025-01-24 17:10:56.126684	17.4	42.5	-75.2	8.5
2025-01-24 17:10:57.258151	17.0	42.3	-74.5	8.9
2025-01-24 17:10:58.403294	16.6	42.0	-75.1	8.5
2025-01-24 17:10:59.533570	16.3	41.8	-74.6	9.0
2025-01-24 17:11:00.665715	15.9	41.6	-75.3	9.0
2025-01-24 17:11:01.798018	15.6	41.3	-74.9	5.9
2025-01-24 17:11:02.930084	15.2	41.1	-74.2	6.1
2025-01-24 17:11:04.062783	14.9	40.9	-75.5	7.5
2025-01-24 17:11:05.196605	14.5	40.7	-75.0	5.6
2025-01-24 17:11:06.343455	14.2	40.4	-75.7	4.8
2025-01-24 17:11:07.487966	13.8	40.2	-74.2	7.6
2025-01-24 17:11:08.626364	13.5	40.0	-75.4	6.5
2025-01-24 17:11:09.771374	13.2	39.7	-74.5	5.1
2025-01-24 17:11:10.908151	12.8	39.5	-75.3	6.6
2025-01-24 17:11:12.039794	12.5	39.3	-75.0	6.6
2025-01-24 17:11:13.176338	12.2	39.1	-74.5	6.1
2025-01-24 17:11:14.307797	11.9	38.8	-75.4	6.7
2025-01-24 17:11:15.433389	11.6	38.6	-75.4	5.6
2025-01-24 17:11:16.559279	11.3	38.4	-74.6	4.7
2025-01-24 17:11:17.700554	11.0	38.2	-75.0	4.7
2025-01-24 17:11:18.842889	10.7	38.0	-74.9	5.3
2025-01-24 17:11:19.966957	10.4	37.7	-74.6	5.5
2025-01-24 17:11:21.093755	10.2	37.5	-74.9	5.1
2025-01-24 17:11:22.228285	9.9	37.3	-74.3	5.4
2025-01-24 17:11:23.360280	9.6	37.1	-75.0	3.3
2025-01-24 17:11:24.492821	9.3	36.9	-74.5	3.3
2025-01-24 17:11:25.625559	9.1	36.6	-75.8	5.8
2025-01-24 17:11:26.756845	8.8	36.4	-75.2	6.5
2025-01-24 17:11:27.888569	8.5	36.2	-74.7	6.0
2025-01-24 17:11:29.026343	8.3	36.0	-74.5	7.9
2025-01-24 17:11:30.164880	8.0	35.8	-74.9	9.6
2025-01-24 17:11:31.299630	7.8	35.6	-74.4	9.5
2025-01-24 17:11:32.432641	7.5	35.3	-75.4	9.6
2025-01-24 17:11:33.564972	7.3	35.1	-74.8	9.7
2025-01-24 17:11:34.700112	7.0	34.9	-75.2	9.1
2025-01-24 17:11:35.838263	6.8	34.7	-75.3	7.7
2025-01-24 17:11:36.971864	6.6	34.5	-74.4	7.2
2025-01-24 17:11:38.107088	6.3	34.3	-75.1	8.3
2025-01-24 17:11:39.239884	6.1	34.1	-74.8	6.9
2025-01-24 17:11:40.380414	5.9	33.9	-74.0	9.7
2025-01-24 17:11:41.510278	5.7	33.7	-74.5	10.3
2025-01-24 17:11:42.637845	5.4	33.5	-75.2	12.1
2025-01-24 17:11:43.783618	5.2	33.2	-74.1	10.5
2025-01-24 17:11:44.926660	5.0	33.0	-74.6	10.3
2025-01-24 17:11:46.069847	4.8	32.8	-75.0	7.5
2025-01-24 17:11:47.207077	4.6	32.6	-75.3	6.1
2025-01-24 17:11:48.348244	4.4	32.4	-75.4	3.5
2025-01-24 17:11:49.479224	4.2	32.2	-74.9	4.6
2025-01-24 17:11:50.611103	4.0	32.0	-74.4	6.0
2025-01-24 17:11:51.746322	3.8	31.8	-74.6	4.4
2025-01-24 17:11:52.879765	3.6	31.6	-75.4	4.8
2025-01-24 17:11:54.009686	3.4	31.4	-74.6	7.3
2025-01-24 17:11:55.140365	3.2	31.2	-74.7	7.6
2025-01-24 17:11:56.269046	3.0	31.0	-74.6	9.2
2025-01-24 17:11:57.400067	2.8	30.9	-75.2	10.7
2025-01-24 17:11:58.540297	2.6	30.7	-74.2	7.9
2025-01-24 17:11:59.674938	2.5	30.5	-75.1	9.7
2025-01-24 17:12:00.803962	2.3	30.3	-74.6	7.1
2025-01-24 17:12:01.931044	2.1	30.1	-74.4	6.5
2025-01-24 17:12:03.065088	1.9	29.9	-75.0	6.6
2025-01-24 17:12:04.204842	1.8	29.7	-75.4	7.7
2025-01-24 17:12:05.343711	1.6	29.5	-74.5	8.4
2025-01-24 17:12:06.481609	1.4	29.3	-75.4	8.4
2025-01-24 17:12:07.611357	1.2	29.1	-74.9	9.0
2025-01-24 17:12:08.746716	1.1	29.0	-75.4	9.4
2025-01-24 17:12:09.877210	0.9	28.8	-75.1	9.2
2025-01-24 17:12:11.007216	0.8	28.6	-74.7	5.6
2025-01-24 17:12:12.142765	0.6	28.4	-74.0	5.3
2025-01-24 17:12:13.278556	0.4	28.2	-75.5	4.7
2025-01-24 17:12:14.409742	0.3	28.1	-75.1	3.8
2025-01-24 17:12:15.542614	0.1	27.9	-74.9	4.5
2025-01-24 17:12:16.674406	360.0	27.7	-74.9	5.4
2025-01-24 17:12:17.806299	359.8	27.5	-74.6	4.6
2025-01-24 17:12:18.937773	359.7	27.3	-74.0	6.3
2025-01-24 17:12:20.068258	359.5	27.2	-75.4	5.8
2025-01-24 17:12:21.200927	359.4	27.0	-75.1	7.8
2025-01-24 17:12:22.332726	359.2	26.8	-74.6	6.5
2025-01-24 17:12:23.465606	359.1	26.7	-73.8	7.7
2025-01-24 17:12:24.619399	359.0	26.5	-74.4	7.6
2025-01-24 17:12:25.752108	358.8	26.3	-75.1	5.0
2025-01-24 17:12:26.886119	358.7	26.1	-74.8	6.1
2025-01-24 17:12:28.024678	358.5	26.0	-74.3	7.6
2025-01-24 17:12:29.154498	358.4	25.8	-74.9	6.2
2025-01-24 17:12:30.283977	358.3	25.6	-75.2	5.0
2025-01-24 17:12:31.426917	358.1	25.5	-74.1	6.1
2025-01-24 17:12:32.563996	358.0	25.3	-75.1	9.5
2025-01-24 17:12:33.695638	357.9	25.1	-75.0	5.5
2025-01-24 17:12:34.823352	357.8	25.0	-74.6	3.9
2025-01-24 17:12:35.968527	357.6	24.8	-75.0	6.2
2025-01-24 17:12:37.094337	357.5	24.6	-74.3	5.1
2025-01-24 17:12:38.228674	357.4	24.5	-74.1	5.7
2025-01-24 17:12:39.366209	357.3	24.3	-75.2	6.2
2025-01-24 17:12:40.495408	357.1	24.2	-75.0	4.8
2025-01-24 17:12:41.627566	357.0	24.0	-74.6	4.1
2025-01-24 17:12:42.765086	356.9	23.8	-75.0	7.3
2025-01-24 17:12:43.898370	356.8	23.7	-75.2	6.4
2025-01-24 17:12:45.040985	356.7	23.5	-75.1	6.0
2025-01-24 17:12:46.186713	356.5	23.4	-74.9	8.4
2025-01-24 17:12:47.321589	356.4	23.2	-75.1	5.1
2025-01-24 17:12:48.451818	356.3	23.1	-74.8	4.8
2025-01-24 17:12:49.583850	356.2	22.9	-74.6	5.7
2025-01-24 17:12:50.725715	356.1	22.8	-74.9	6.4
2025-01-24 17:12:51.857880	356.0	22.6	-74.9	3.7
2025-01-24 17:12:52.989551	355.9	22.5	-74.6	6.6
2025-01-24 17:12:54.120204	355.8	22.3	-75.5	6.4
2025-01-24 17:12:55.260643	355.7	22.2	-74.0	7.2
2025-01-24 17:12:56.395485	355.6	22.0	-75.1	6.7
2025-01-24 17:12:57.528167	355.5	21.9	-75.4	7.1
2025-01-24 17:12:58.661480	355.3	21.7	-74.5	5.9
2025-01-24 17:12:59.798238	355.2	21.6	-75.4	4.4
2025-01-24 17:13:00.940884	355.1	21.4	-74.9	3.4
2025-01-24 17:13:02.071676	355.0	21.3	-74.7	3.6
2025-01-24 17:13:03.207242	354.9	21.1	-75.3	4.6
2025-01-24 17:13:04.340741	354.8	21.0	-74.1	5.3
2025-01-24 17:13:05.477796	354.7	20.8	-74.9	5.6
2025-01-24 17:13:06.609882	354.7	20.7	-75.6	7.2
2025-01-24 17:13:07.740201	354.6	20.6	-74.9	5.1
2025-01-24 17:13:08.870225	354.5	20.4	-74.5	7.1
2025-01-24 17:13:10.027414	354.4	20.3	-74.1	6.5
2025-01-24 17:13:11.173410	354.3	20.1	-74.8	6.3
2025-01-24 17:13:12.306603	354.2	20.0	-74.3	4.5
2025-01-24 17:13:13.443243	354.1	19.9	-74.8	4.9
2025-01-24 17:13:14.575647	354.0	19.7	-74.2	6.1
2025-01-24 17:13:15.706222	353.9	19.6	-74.7	3.6
2025-01-24 17:13:16.843197	353.8	19.5	-75.4	6.1
2025-01-24 17:13:17.987757	353.7	19.3	-74.5	6.1
2025-01-24 17:13:19.119656	353.6	19.2	-75.3	5.5
2025-01-24 17:13:20.258470	353.6	19.1	-74.9	4.8
2025-01-24 17:13:21.398953	353.5	18.9	-75.4	4.8
2025-01-24 17:13:22.537645	353.4	18.8	-75.2	3.6
2025-01-24 17:13:23.672094	353.3	18.7	-75.0	4.6
2025-01-24 17:13:24.807012	353.2	18.5	-74.9	5.0
2025-01-24 17:13:25.946265	353.1	18.4	-74.4	5.3
2025-01-24 17:13:27.078225	353.1	18.3	-75.4	5.3
2025-01-24 17:13:28.210683	353.0	18.1	-74.7	6.0
2025-01-24 17:13:29.348579	352.9	18.0	-74.4	5.4
2025-01-24 17:13:30.497407	352.8	17.9	-74.9	5.5
2025-01-24 17:13:31.634875	352.7	17.7	-75.0	4.6
2025-01-24 17:13:32.768837	352.7	17.6	-74.7	4.1
2025-01-24 17:13:33.910338	352.6	17.5	-74.4	4.4
2025-01-24 17:13:35.053914	352.5	17.4	-74.8	5.6
2025-01-24 17:13:36.185160	352.4	17.2	-74.9	6.3
2025-01-24 17:13:37.324894	352.4	17.1	-75.2	5.6
2025-01-24 17:13:38.471105	352.3	17.0	-73.9	5.2
2025-01-24 17:13:39.619008	352.2	16.9	-74.4	3.4
2025-01-24 17:13:40.767301	352.1	16.7	-75.3	2.3
2025-01-24 17:13:41.908361	352.1	16.6	-74.2	3.6
2025-01-24 17:13:43.049263	352.0	16.5	-75.8	4.8
2025-01-24 17:13:44.179876	351.9	16.4	-74.9	3.4
2025-01-24 17:13:45.320019	351.8	16.3	-75.5	5.3
2025-01-24 17:13:46.453657	351.8	16.1	-75.1	4.9
2025-01-24 17:13:47.600298	351.7	16.0	-76.1	4.2
2025-01-24 17:13:48.744045	351.6	15.9	-74.7	4.8
2025-01-24 17:13:49.873609	351.6	15.8	-74.4	5.8
2025-01-24 17:13:51.004541	351.5	15.7	-75.4	5.8
2025-01-24 17:13:52.140660	351.4	15.5	-75.0	3.0
2025-01-24 17:13:53.281653	351.4	15.4	-75.6	4.1
2025-01-24 17:13:54.426596	351.3	15.3	-74.2	5.3
2025-01-24 17:13:55.569655	351.2	15.2	-75.8	4.5
2025-01-24 17:13:56.709854	351.2	15.1	-74.4	5.0
2025-01-24 17:13:57.853763	351.1	15.0	-74.5	5.3
#Closed at: 2025-01-24 17:05:03.927059