passes_logs/2025/01/24/LEX_test/LEX_test__20250124_175638_METEOR-M2_3_rec.log

#Pass ID: 20250124_175638_METEOR-M2 3
#Satellite: METEOR-M2 3
#Configuration: METEOR-M2 3
#Start time: 2025-01-24 17:56:43.794810

#LorettStation: 1.0.0 05.05.2024
#Station: LEX_test
#Location: 44.064575 lon 56.356522 lat
#TLE: 1 57166U 23091A   25024.45873363  .00000104  00000+0  64435-4 0  9992
#TLE: 2 57166  98.6835  82.8058 0003683 193.2411 166.8672 14.23971765 82111

#Time	Az	El	Level	SNR
2025-01-24 17:56:44.956519	185.2	15.1	-74.1	0.0
2025-01-24 17:56:46.101590	185.3	15.2	-74.1	0.0
2025-01-24 17:56:47.247883	185.3	15.4	-73.8	0.0
2025-01-24 17:56:48.394798	185.4	15.5	-74.4	0.0
2025-01-24 17:56:49.543008	185.5	15.6	-74.8	0.0
2025-01-24 17:56:50.688531	185.6	15.7	-74.1	0.0
2025-01-24 17:56:51.835119	185.6	15.8	-74.2	0.0
2025-01-24 17:56:52.986031	185.7	16.0	-74.6	0.0
2025-01-24 17:56:54.133576	185.8	16.1	-73.7	0.0
2025-01-24 17:56:55.280446	185.9	16.2	-74.5	0.0
2025-01-24 17:56:56.427997	186.0	16.3	-74.2	0.0
2025-01-24 17:56:57.572688	186.1	16.5	-74.4	0.0
2025-01-24 17:56:58.721675	186.1	16.6	-74.0	0.0
2025-01-24 17:56:59.867563	186.2	16.7	-74.9	0.0
2025-01-24 17:57:01.014385	186.3	16.8	-73.3	0.0
2025-01-24 17:57:02.160775	186.4	17.0	-74.5	0.0
2025-01-24 17:57:03.310605	186.5	17.1	-74.2	0.0
2025-01-24 17:57:04.457626	186.6	17.2	-74.9	0.0
2025-01-24 17:57:05.604826	186.7	17.3	-74.2	0.0
2025-01-24 17:57:06.752961	186.8	17.5	-74.1	0.0
2025-01-24 17:57:07.902271	186.8	17.6	-75.0	0.0
2025-01-24 17:57:09.047978	186.9	17.7	-74.4	0.0
2025-01-24 17:57:10.194947	187.0	17.9	-73.8	0.0
2025-01-24 17:57:11.343140	187.1	18.0	-74.2	0.0
2025-01-24 17:57:12.490770	187.2	18.1	-75.0	0.0
2025-01-24 17:57:13.638091	187.3	18.3	-74.0	0.0
2025-01-24 17:57:14.785094	187.4	18.4	-74.7	0.0
2025-01-24 17:57:15.932996	187.5	18.5	-74.8	0.0
2025-01-24 17:57:17.079276	187.6	18.7	-73.8	0.0
2025-01-24 17:57:18.225779	187.7	18.8	-74.1	0.0
2025-01-24 17:57:19.373048	187.8	18.9	-75.1	0.0
2025-01-24 17:57:20.520511	187.9	19.1	-73.4	0.0
2025-01-24 17:57:21.667258	188.0	19.2	-74.8	0.0
2025-01-24 17:57:22.813834	188.1	19.3	-74.7	0.0
2025-01-24 17:57:23.957596	188.2	19.5	-73.8	0.0
2025-01-24 17:57:25.105336	188.3	19.6	-73.9	0.0
2025-01-24 17:57:26.252467	188.4	19.8	-74.7	0.0
2025-01-24 17:57:27.399473	188.5	19.9	-73.6	0.0
2025-01-24 17:57:28.546472	188.6	20.1	-73.9	0.0
2025-01-24 17:57:29.693474	188.7	20.2	-74.4	0.0
2025-01-24 17:57:30.841779	188.8	20.3	-74.5	0.0
2025-01-24 17:57:31.988610	188.9	20.5	-73.8	0.0
2025-01-24 17:57:33.135633	189.0	20.6	-74.8	0.0
2025-01-24 17:57:34.282798	189.2	20.8	-75.0	0.0
2025-01-24 17:57:35.431334	189.3	20.9	-74.4	0.0
2025-01-24 17:57:36.578370	189.4	21.1	-74.1	0.0
2025-01-24 17:57:37.725206	189.5	21.2	-74.8	0.0
2025-01-24 17:57:38.870928	189.6	21.4	-74.0	0.0
2025-01-24 17:57:40.018072	189.7	21.5	-74.8	0.0
2025-01-24 17:57:41.164889	189.8	21.7	-75.4	0.0
2025-01-24 17:57:42.312083	190.0	21.8	-74.7	0.0
2025-01-24 17:57:43.458024	190.1	22.0	-74.6	0.0
2025-01-24 17:57:44.605024	190.2	22.1	-75.3	0.0
2025-01-24 17:57:45.752026	190.3	22.3	-73.7	0.0
2025-01-24 17:57:46.898358	190.4	22.4	-74.6	0.0
2025-01-24 17:57:48.045190	190.6	22.6	-74.9	0.0
2025-01-24 17:57:49.193161	190.7	22.7	-73.9	0.0
2025-01-24 17:57:50.340163	190.8	22.9	-74.2	0.0
2025-01-24 17:57:51.486340	190.9	23.0	-75.2	0.0
2025-01-24 17:57:52.633071	191.1	23.2	-74.2	0.0
2025-01-24 17:57:53.779539	191.2	23.4	-75.1	0.0
2025-01-24 17:57:54.928305	191.3	23.5	-75.0	0.0
2025-01-24 17:57:56.076467	191.5	23.7	-74.6	0.0
2025-01-24 17:57:57.222323	191.6	23.8	-74.3	0.0
2025-01-24 17:57:58.369744	191.7	24.0	-74.6	0.0
2025-01-24 17:57:59.516625	191.9	24.2	-74.6	0.0
2025-01-24 17:58:00.663594	192.0	24.3	-74.4	0.0
2025-01-24 17:58:01.812575	192.1	24.5	-74.7	0.0
2025-01-24 17:58:02.960771	192.3	24.7	-74.4	0.0
2025-01-24 17:58:04.105882	192.4	24.8	-74.2	0.0
2025-01-24 17:58:05.251712	192.6	25.0	-74.8	0.0
2025-01-24 17:58:06.398715	192.7	25.2	-75.1	0.0
2025-01-24 17:58:07.544912	192.9	25.3	-74.6	0.0
2025-01-24 17:58:08.691466	193.0	25.5	-74.5	0.0
2025-01-24 17:58:09.837136	193.2	25.7	-74.4	0.0
2025-01-24 17:58:10.984571	193.3	25.9	-74.0	0.0
2025-01-24 17:58:12.130859	193.5	26.0	-74.9	0.0
2025-01-24 17:58:13.277844	193.6	26.2	-74.5	0.0
2025-01-24 17:58:14.422746	193.8	26.4	-74.9	0.0
2025-01-24 17:58:15.570144	193.9	26.6	-75.8	0.0
2025-01-24 17:58:16.717091	194.1	26.7	-74.3	0.0
2025-01-24 17:58:17.863962	194.2	26.9	-74.5	0.0
2025-01-24 17:58:19.008940	194.4	27.1	-75.0	0.0
2025-01-24 17:58:20.155664	194.6	27.3	-74.0	0.0
2025-01-24 17:58:21.303165	194.7	27.5	-74.3	0.0
2025-01-24 17:58:22.449755	194.9	27.6	-75.2	0.0
2025-01-24 17:58:23.596478	195.1	27.8	-73.7	0.0
2025-01-24 17:58:24.743630	195.2	28.0	-74.6	0.0
2025-01-24 17:58:25.891150	195.4	28.2	-75.2	0.0
2025-01-24 17:58:27.037953	195.6	28.4	-73.7	0.0
2025-01-24 17:58:28.184699	195.8	28.6	-74.5	0.0
2025-01-24 17:58:29.331980	196.0	28.7	-75.0	0.0
2025-01-24 17:58:30.479380	196.1	28.9	-74.2	0.0
2025-01-24 17:58:31.627469	196.3	29.1	-73.9	0.0
2025-01-24 17:58:32.771679	196.5	29.3	-74.9	0.0
2025-01-24 17:58:33.919166	196.7	29.5	-74.5	0.0
2025-01-24 17:58:35.072615	196.9	29.7	-74.2	0.0
2025-01-24 17:58:36.219868	197.1	29.9	-74.8	0.0
2025-01-24 17:58:37.364576	197.3	30.1	-74.3	0.0
2025-01-24 17:58:38.512788	197.5	30.3	-74.0	0.0
2025-01-24 17:58:39.655693	197.7	30.5	-74.3	0.0
2025-01-24 17:58:40.803209	197.9	30.7	-74.6	0.0
2025-01-24 17:58:41.949612	198.1	30.9	-74.4	0.0
2025-01-24 17:58:43.095912	198.3	31.1	-74.6	0.0
2025-01-24 17:58:44.244088	198.5	31.3	-74.8	0.0
2025-01-24 17:58:45.391567	198.7	31.5	-73.8	0.0
2025-01-24 17:58:46.538921	198.9	31.7	-74.5	0.0
2025-01-24 17:58:47.685936	199.1	31.9	-75.2	0.0
2025-01-24 17:58:48.832776	199.4	32.1	-73.9	0.0
2025-01-24 17:58:49.980998	199.6	32.3	-74.4	0.0
2025-01-24 17:58:51.127292	199.8	32.5	-75.3	0.0
2025-01-24 17:58:52.274521	200.0	32.7	-74.0	0.0
2025-01-24 17:58:53.421467	200.3	32.9	-74.2	0.0
2025-01-24 17:58:54.568258	200.5	33.1	-75.3	0.0
2025-01-24 17:58:55.715274	200.7	33.3	-74.1	0.0
2025-01-24 17:58:56.862250	201.0	33.5	-74.6	0.0
2025-01-24 17:58:58.007879	201.2	33.7	-74.9	0.0
2025-01-24 17:58:59.154706	201.5	34.0	-74.5	0.0
2025-01-24 17:59:00.302490	201.7	34.2	-73.9	0.0
2025-01-24 17:59:01.453405	202.0	34.4	-75.0	0.0
2025-01-24 17:59:02.600509	202.2	34.6	-74.2	0.0
2025-01-24 17:59:03.748875	202.5	34.8	-74.1	0.0
2025-01-24 17:59:04.895697	202.8	35.0	-74.5	0.0
2025-01-24 17:59:06.042595	203.0	35.3	-74.2	0.0
2025-01-24 17:59:07.188661	203.3	35.5	-74.4	0.0
2025-01-24 17:59:08.333625	203.6	35.7	-74.7	0.0
2025-01-24 17:59:09.479414	203.8	35.9	-74.7	0.0
2025-01-24 17:59:10.624393	204.1	36.1	-74.6	0.0
2025-01-24 17:59:11.780958	204.4	36.4	-74.4	0.0
2025-01-24 17:59:12.927923	204.7	36.6	-74.5	0.0
2025-01-24 17:59:14.073924	205.0	36.8	-75.6	0.0
2025-01-24 17:59:15.220236	205.3	37.0	-74.6	0.0
2025-01-24 17:59:16.368061	205.6	37.3	-74.5	0.0
2025-01-24 17:59:17.512985	205.9	37.5	-74.9	0.0
2025-01-24 17:59:18.659309	206.2	37.7	-74.6	0.0
2025-01-24 17:59:19.805197	206.5	37.9	-75.3	0.0
2025-01-24 17:59:20.951906	206.8	38.2	-74.6	0.0
2025-01-24 17:59:22.098950	207.2	38.4	-74.3	0.0
2025-01-24 17:59:23.246058	207.5	38.6	-75.3	0.0
2025-01-24 17:59:24.392085	207.8	38.8	-74.0	0.0
2025-01-24 17:59:25.538225	208.1	39.1	-74.7	0.0
2025-01-24 17:59:26.684370	208.5	39.3	-75.0	0.0
2025-01-24 17:59:27.830897	208.8	39.5	-74.2	0.0
2025-01-24 17:59:28.979967	209.2	39.8	-74.5	0.0
2025-01-24 17:59:30.125022	209.5	40.0	-75.1	0.0
2025-01-24 17:59:31.271160	209.9	40.2	-73.9	0.0
2025-01-24 17:59:32.418176	210.3	40.5	-74.4	0.0
2025-01-24 17:59:33.565177	210.6	40.7	-74.3	0.0
2025-01-24 17:59:34.709049	211.0	40.9	-74.4	0.0
2025-01-24 17:59:35.855077	211.4	41.1	-73.8	0.0
2025-01-24 17:59:37.003866	211.8	41.4	-74.7	0.0
2025-01-24 17:59:38.159513	212.2	41.6	-74.5	0.0
2025-01-24 17:59:39.305829	212.6	41.8	-73.9	0.0
2025-01-24 17:59:40.451599	213.0	42.1	-74.3	0.0
2025-01-24 17:59:41.597682	213.4	42.3	-75.1	0.0
2025-01-24 17:59:42.744773	213.8	42.5	-74.2	0.0
2025-01-24 17:59:43.892806	214.2	42.8	-74.8	0.0
2025-01-24 17:59:45.039898	214.6	43.0	-75.3	0.0
2025-01-24 17:59:46.185958	215.1	43.2	-74.3	0.0
2025-01-24 17:59:47.333055	215.5	43.5	-74.4	0.0
2025-01-24 17:59:48.479838	216.0	43.7	-75.2	0.0
2025-01-24 17:59:49.626925	216.4	43.9	-74.3	0.0
2025-01-24 17:59:50.773043	216.9	44.1	-74.4	0.0
2025-01-24 17:59:51.920445	217.3	44.4	-75.2	0.0
2025-01-24 17:59:53.070176	217.8	44.6	-73.8	0.0
2025-01-24 17:59:54.216253	218.3	44.8	-74.3	0.0
2025-01-24 17:59:55.362118	218.8	45.1	-74.9	0.0
2025-01-24 17:59:56.513481	219.3	45.3	-74.6	0.0
2025-01-24 17:59:57.661456	219.8	45.5	-74.6	0.0
2025-01-24 17:59:58.807588	220.3	45.7	-74.4	0.0
2025-01-24 17:59:59.954445	220.8	45.9	-74.7	0.0
2025-01-24 18:00:01.101573	221.3	46.2	-75.0	0.0
2025-01-24 18:00:02.248726	221.8	46.4	-74.3	0.0
2025-01-24 18:00:03.394735	222.4	46.6	-74.9	0.0
2025-01-24 18:00:04.540401	222.9	46.8	-74.1	0.0
2025-01-24 18:00:05.685504	223.4	47.0	-74.5	0.0
2025-01-24 18:00:06.834637	224.0	47.2	-75.4	0.0
2025-01-24 18:00:07.981482	224.6	47.5	-74.0	0.0
2025-01-24 18:00:09.126657	225.1	47.7	-75.0	0.0
2025-01-24 18:00:10.273756	225.7	47.9	-75.0	0.0
2025-01-24 18:00:11.419741	226.3	48.1	-73.8	0.0
2025-01-24 18:00:12.565690	226.9	48.3	-74.5	0.0
2025-01-24 18:00:13.713072	227.5	48.5	-75.3	0.0
2025-01-24 18:00:14.859223	228.1	48.7	-74.2	0.0
2025-01-24 18:00:16.006928	228.7	48.9	-74.6	0.0
2025-01-24 18:00:17.153028	229.3	49.1	-75.2	0.0
2025-01-24 18:00:18.300126	230.0	49.2	-74.5	0.0
2025-01-24 18:00:19.455272	230.6	49.4	-74.4	0.0
2025-01-24 18:00:20.602131	231.3	49.6	-74.4	0.0
2025-01-24 18:00:21.749456	231.9	49.8	-75.1	0.0
2025-01-24 18:00:22.905518	232.6	50.0	-74.2	0.0
2025-01-24 18:00:24.051943	233.3	50.1	-74.6	0.0
2025-01-24 18:00:25.199292	233.9	50.3	-74.9	0.0
2025-01-24 18:00:26.345991	234.6	50.5	-74.1	0.0
2025-01-24 18:00:27.497543	235.3	50.6	-74.2	0.0
2025-01-24 18:00:28.644538	236.0	50.8	-74.9	0.0
2025-01-24 18:00:29.789718	236.7	51.0	-75.0	0.0
2025-01-24 18:00:30.935689	237.4	51.1	-74.5	0.0
2025-01-24 18:00:32.081548	238.2	51.3	-74.7	0.0
2025-01-24 18:00:33.229087	238.9	51.4	-75.6	0.0
2025-01-24 18:00:34.375645	239.6	51.5	-74.0	0.0
2025-01-24 18:00:35.522179	240.4	51.7	-74.7	0.0
2025-01-24 18:00:36.668767	241.1	51.8	-75.3	0.0
2025-01-24 18:00:37.815791	241.9	51.9	-74.1	0.0
2025-01-24 18:00:38.963495	242.6	52.0	-74.6	0.0
2025-01-24 18:00:40.108624	243.4	52.2	-75.4	0.0
2025-01-24 18:00:41.254486	244.2	52.3	-74.3	0.0
2025-01-24 18:00:42.400604	245.0	52.4	-74.5	0.0
2025-01-24 18:00:43.547274	245.7	52.5	-75.2	0.0
2025-01-24 18:00:44.693720	246.5	52.6	-74.3	0.0
2025-01-24 18:00:45.840755	247.3	52.6	-74.7	0.0
2025-01-24 18:00:46.988795	248.1	52.7	-75.0	0.0
2025-01-24 18:00:48.135974	248.9	52.8	-74.6	0.0
2025-01-24 18:00:49.281550	249.7	52.9	-74.1	0.0
2025-01-24 18:00:50.429291	250.6	52.9	-75.0	0.0
2025-01-24 18:00:51.576838	251.4	53.0	-74.6	0.0
2025-01-24 18:00:52.722054	252.2	53.1	-73.8	0.0
2025-01-24 18:00:53.868742	253.0	53.1	-75.1	0.0
2025-01-24 18:00:55.015783	253.8	53.2	-75.2	0.0
2025-01-24 18:00:56.162756	254.6	53.2	-74.1	0.0
2025-01-24 18:00:57.309859	255.5	53.2	-74.7	0.0
2025-01-24 18:00:58.457392	256.3	53.2	-75.0	0.0
2025-01-24 18:00:59.601535	257.1	53.3	-74.5	0.0
2025-01-24 18:01:00.748510	258.0	53.3	-74.9	0.0
2025-01-24 18:01:01.895930	258.8	53.3	-75.2	0.0
2025-01-24 18:01:03.042698	259.6	53.3	-74.1	0.0
2025-01-24 18:01:04.189674	260.5	53.3	-74.8	0.0
2025-01-24 18:01:05.337648	261.3	53.3	-75.4	0.0
2025-01-24 18:01:06.483649	262.1	53.2	-74.1	0.0
2025-01-24 18:01:07.631655	262.9	53.2	-74.4	0.0
2025-01-24 18:01:08.776832	263.8	53.2	-75.2	0.0
2025-01-24 18:01:09.923789	264.6	53.2	-74.0	0.0
2025-01-24 18:01:11.071926	265.4	53.1	-74.4	0.0
2025-01-24 18:01:12.217952	266.2	53.1	-75.0	0.0
2025-01-24 18:01:13.359798	267.1	53.0	-75.3	0.0
2025-01-24 18:01:14.506881	267.9	53.0	-75.7	0.0
2025-01-24 18:01:15.654974	268.7	52.9	-74.3	0.0
2025-01-24 18:01:16.802858	269.5	52.8	-74.7	0.0
2025-01-24 18:01:17.949571	270.3	52.8	-75.2	0.0
2025-01-24 18:01:19.097758	271.1	52.7	-74.4	0.0
2025-01-24 18:01:20.249069	271.9	52.6	-74.3	0.0
2025-01-24 18:01:21.398496	272.7	52.5	-74.5	0.0
2025-01-24 18:01:22.545552	273.5	52.4	-74.9	0.0
2025-01-24 18:01:23.692032	274.2	52.3	-75.3	0.0
2025-01-24 18:01:24.839196	275.0	52.2	-73.9	0.0
2025-01-24 18:01:25.986411	275.8	52.1	-74.6	0.0
2025-01-24 18:01:27.133591	276.6	52.0	-74.4	0.0
2025-01-24 18:01:28.282061	277.3	51.8	-74.3	0.0
2025-01-24 18:01:29.429851	278.1	51.7	-74.8	0.0
2025-01-24 18:01:30.576169	278.8	51.6	-75.4	0.0
2025-01-24 18:01:31.722012	279.5	51.4	-74.1	0.0
2025-01-24 18:01:32.866675	280.3	51.3	-75.3	0.0
2025-01-24 18:01:34.014613	281.0	51.2	-75.1	0.0
2025-01-24 18:01:35.162073	281.7	51.0	-74.3	0.0
2025-01-24 18:01:36.309048	282.4	50.9	-75.0	0.0
2025-01-24 18:01:37.455013	283.1	50.7	-75.4	0.0
2025-01-24 18:01:38.600752	283.8	50.5	-73.9	0.0
2025-01-24 18:01:39.746754	284.5	50.4	-74.6	0.0
2025-01-24 18:01:40.893131	285.2	50.2	-74.4	0.0
2025-01-24 18:01:42.040254	285.9	50.0	-75.2	0.0
2025-01-24 18:01:43.196583	286.5	49.9	-74.1	0.0
2025-01-24 18:01:44.344648	287.2	49.7	-75.3	0.0
2025-01-24 18:01:45.491227	287.8	49.5	-74.2	0.0
2025-01-24 18:01:46.644539	288.5	49.3	-74.2	0.0
2025-01-24 18:01:47.791994	289.1	49.1	-74.5	0.0
2025-01-24 18:01:48.938042	289.7	48.9	-75.1	0.0
2025-01-24 18:01:50.086194	290.4	48.7	-75.1	0.0
2025-01-24 18:01:51.235683	291.0	48.5	-74.1	0.0
2025-01-24 18:01:52.381545	291.6	48.3	-75.0	0.0
2025-01-24 18:01:53.528854	292.2	48.1	-75.4	0.0
2025-01-24 18:01:54.675680	292.7	47.9	-73.9	0.0
2025-01-24 18:01:55.822679	293.3	47.7	-74.4	0.0
2025-01-24 18:01:56.971685	293.9	47.5	-75.5	0.0
2025-01-24 18:01:58.119193	294.5	47.3	-74.3	0.0
2025-01-24 18:01:59.267020	295.0	47.1	-74.5	0.0
2025-01-24 18:02:00.413247	295.6	46.9	-75.2	0.0
2025-01-24 18:02:01.559998	296.1	46.7	-74.3	0.0
2025-01-24 18:02:02.707370	296.6	46.5	-74.5	0.0
2025-01-24 18:02:03.854238	297.2	46.2	-75.1	0.0
2025-01-24 18:02:05.002107	297.7	46.0	-74.3	0.0
2025-01-24 18:02:06.149435	298.2	45.8	-74.4	0.0
2025-01-24 18:02:07.296493	298.7	45.6	-75.3	0.0
2025-01-24 18:02:08.444344	299.2	45.4	-75.0	0.0
2025-01-24 18:02:09.589906	299.7	45.1	-74.2	0.0
2025-01-24 18:02:10.737575	300.2	44.9	-75.9	0.0
2025-01-24 18:02:11.884758	300.7	44.7	-74.2	0.0
2025-01-24 18:02:13.032989	301.1	44.5	-74.3	0.0
2025-01-24 18:02:14.178325	301.6	44.2	-74.7	0.0
2025-01-24 18:02:15.324908	302.1	44.0	-74.6	0.0
2025-01-24 18:02:16.470372	302.5	43.8	-74.2	0.0
2025-01-24 18:02:17.624854	303.0	43.6	-75.2	0.0
2025-01-24 18:02:18.771390	303.4	43.3	-75.4	0.0
2025-01-24 18:02:19.918437	303.8	43.1	-74.2	0.0
2025-01-24 18:02:21.067375	304.3	42.9	-74.3	0.0
2025-01-24 18:02:22.214712	304.7	42.6	-75.2	0.0
2025-01-24 18:02:23.360271	305.1	42.4	-74.2	0.0
2025-01-24 18:02:24.506489	305.5	42.2	-74.5	0.0
2025-01-24 18:02:25.660195	305.9	41.9	-74.2	0.0
2025-01-24 18:02:26.806680	306.3	41.7	-74.5	0.0
2025-01-24 18:02:27.954069	306.7	41.5	-74.9	0.0
2025-01-24 18:02:29.105990	307.1	41.2	-74.2	0.0
2025-01-24 18:02:30.252494	307.5	41.0	-75.2	0.0
2025-01-24 18:02:31.398641	307.9	40.8	-74.3	0.0
2025-01-24 18:02:32.544330	308.2	40.6	-74.5	0.0
2025-01-24 18:02:33.697907	308.6	40.3	-74.5	0.0
2025-01-24 18:02:34.844820	309.0	40.1	-74.7	0.0
2025-01-24 18:02:35.993934	309.3	39.9	-74.2	0.0
2025-01-24 18:02:37.146360	309.7	39.6	-74.5	0.0
2025-01-24 18:02:38.291957	310.0	39.4	-74.9	0.0
2025-01-24 18:02:39.437707	310.4	39.2	-74.4	0.0
2025-01-24 18:02:40.583696	310.7	38.9	-74.3	0.0
2025-01-24 18:02:41.729683	311.0	38.7	-75.3	0.0
2025-01-24 18:02:42.878584	311.3	38.5	-74.3	0.0
2025-01-24 18:02:44.025319	311.7	38.3	-74.4	0.0
2025-01-24 18:02:45.171657	312.0	38.0	-75.0	0.0
2025-01-24 18:02:46.317595	312.3	37.8	-73.9	0.0
2025-01-24 18:02:47.464967	312.6	37.6	-74.8	0.0
2025-01-24 18:02:48.612150	312.9	37.4	-75.5	0.0
2025-01-24 18:02:49.760040	313.2	37.1	-74.0	0.0
2025-01-24 18:02:50.908109	313.5	36.9	-74.7	0.0
2025-01-24 18:02:52.055860	313.8	36.7	-75.7	0.0
2025-01-24 18:02:53.204328	314.1	36.5	-74.0	0.0
2025-01-24 18:02:54.352538	314.4	36.3	-75.0	0.0
2025-01-24 18:02:55.499413	314.7	36.0	-74.9	0.0
2025-01-24 18:02:56.647362	314.9	35.8	-74.7	0.0
2025-01-24 18:02:57.794504	315.2	35.6	-75.1	0.0
2025-01-24 18:02:58.940141	315.5	35.4	-75.3	0.0
2025-01-24 18:03:00.085245	315.8	35.2	-74.4	0.0
2025-01-24 18:03:01.232515	316.0	34.9	-74.5	0.0
2025-01-24 18:03:02.378361	316.3	34.7	-74.9	0.0
2025-01-24 18:03:03.524192	316.5	34.5	-75.2	0.0
2025-01-24 18:03:04.667879	316.8	34.3	-74.3	0.0
2025-01-24 18:03:05.815282	317.0	34.1	-74.9	0.0
2025-01-24 18:03:06.962490	317.3	33.9	-75.1	0.0
2025-01-24 18:03:08.109123	317.5	33.7	-74.4	0.0
2025-01-24 18:03:09.257378	317.8	33.5	-75.0	0.0
2025-01-24 18:03:10.405385	318.0	33.2	-75.5	0.0
2025-01-24 18:03:11.551937	318.2	33.0	-74.2	0.0
2025-01-24 18:03:12.698660	318.5	32.8	-74.4	0.0
2025-01-24 18:03:13.844331	318.7	32.6	-75.5	0.0
2025-01-24 18:03:14.993600	318.9	32.4	-73.9	0.0
2025-01-24 18:03:16.140490	319.2	32.2	-74.9	0.0
2025-01-24 18:03:17.287693	319.4	32.0	-75.3	0.0
2025-01-24 18:03:18.434477	319.6	31.8	-75.0	0.0
2025-01-24 18:03:19.580917	319.8	31.6	-74.3	0.0
2025-01-24 18:03:20.726454	320.0	31.4	-74.7	0.0
2025-01-24 18:03:21.873630	320.2	31.2	-74.6	0.0
2025-01-24 18:03:23.020953	320.4	31.0	-74.7	0.0
2025-01-24 18:03:24.166257	320.7	30.8	-75.1	0.0
2025-01-24 18:03:25.312885	320.9	30.6	-74.5	0.0
2025-01-24 18:03:26.461594	321.1	30.4	-74.7	0.0
2025-01-24 18:03:27.608723	321.3	30.2	-75.0	0.0
2025-01-24 18:03:28.756215	321.5	30.0	-74.5	0.0
2025-01-24 18:03:29.903746	321.6	29.8	-74.0	0.0
2025-01-24 18:03:31.051233	321.8	29.7	-74.6	0.0
2025-01-24 18:03:32.198199	322.0	29.5	-75.0	0.0
2025-01-24 18:03:33.345319	322.2	29.3	-74.3	0.0
2025-01-24 18:03:34.499783	322.4	29.1	-74.2	0.0
2025-01-24 18:03:35.645601	322.6	28.9	-74.5	0.0
2025-01-24 18:03:36.792281	322.8	28.7	-73.9	0.0
2025-01-24 18:03:37.939375	322.9	28.5	-74.5	0.0
2025-01-24 18:03:39.085586	323.1	28.3	-75.3	0.0
2025-01-24 18:03:40.230638	323.3	28.2	-74.1	0.0
2025-01-24 18:03:41.376852	323.5	28.0	-74.8	0.0
2025-01-24 18:03:42.523044	323.6	27.8	-75.4	0.0
2025-01-24 18:03:43.672776	323.8	27.6	-74.0	0.0
2025-01-24 18:03:44.818923	324.0	27.4	-74.4	0.0
2025-01-24 18:03:45.965884	324.1	27.2	-75.2	0.0
2025-01-24 18:03:47.111475	324.3	27.1	-74.2	0.0
2025-01-24 18:03:48.259984	324.5	26.9	-74.2	0.0
2025-01-24 18:03:49.405811	324.6	26.7	-75.2	0.0
2025-01-24 18:03:50.551499	324.8	26.5	-74.0	0.0
2025-01-24 18:03:51.700156	324.9	26.4	-74.4	0.0
2025-01-24 18:03:52.845802	325.1	26.2	-74.8	0.0
2025-01-24 18:03:53.992683	325.2	26.0	-74.3	0.0
2025-01-24 18:03:55.138402	325.4	25.8	-74.4	0.0
2025-01-24 18:03:56.285717	325.5	25.7	-75.1	0.0
2025-01-24 18:03:57.431637	325.7	25.5	-75.1	0.0
2025-01-24 18:03:58.577714	325.8	25.3	-74.4	0.0
2025-01-24 18:03:59.727784	326.0	25.2	-75.2	0.0
2025-01-24 18:04:00.874516	326.1	25.0	-74.7	0.0
2025-01-24 18:04:02.021712	326.3	24.8	-74.4	0.0
2025-01-24 18:04:03.168812	326.4	24.7	-74.5	0.0
2025-01-24 18:04:04.315283	326.6	24.5	-75.0	0.0
2025-01-24 18:04:05.461936	326.7	24.3	-74.5	0.0
2025-01-24 18:04:06.609822	326.8	24.2	-74.8	0.0
2025-01-24 18:04:07.756810	327.0	24.0	-75.3	0.0
2025-01-24 18:04:08.903853	327.1	23.9	-74.2	0.0
2025-01-24 18:04:10.051018	327.2	23.7	-74.8	0.0
2025-01-24 18:04:11.198211	327.4	23.5	-75.4	0.0
2025-01-24 18:04:12.344752	327.5	23.4	-74.5	0.0
2025-01-24 18:04:13.492955	327.6	23.2	-74.8	0.0
2025-01-24 18:04:14.639774	327.8	23.1	-75.4	0.0
2025-01-24 18:04:15.786940	327.9	22.9	-74.1	0.0
2025-01-24 18:04:16.934254	328.0	22.7	-74.7	0.0
2025-01-24 18:04:18.086303	328.1	22.6	-75.1	0.0
2025-01-24 18:04:19.233082	328.3	22.4	-74.9	0.0
2025-01-24 18:04:20.379768	328.4	22.3	-74.1	0.0
2025-01-24 18:04:21.527295	328.5	22.1	-75.2	0.0
2025-01-24 18:04:22.674238	328.6	22.0	-74.5	0.0
2025-01-24 18:04:23.819080	328.7	21.8	-74.3	0.0
2025-01-24 18:04:24.964755	328.9	21.7	-75.3	0.0
2025-01-24 18:04:26.109714	329.0	21.5	-74.4	0.0
2025-01-24 18:04:27.256106	329.1	21.4	-74.1	0.0
2025-01-24 18:04:28.403047	329.2	21.2	-75.0	0.0
2025-01-24 18:04:29.549822	329.3	21.1	-74.4	0.0
2025-01-24 18:04:30.696939	329.4	20.9	-73.9	0.0
2025-01-24 18:04:31.844211	329.5	20.8	-74.7	0.0
2025-01-24 18:04:32.991067	329.6	20.7	-74.8	0.0
2025-01-24 18:04:34.138090	329.8	20.5	-74.3	0.0
2025-01-24 18:04:35.282101	329.9	20.4	-75.2	0.0
2025-01-24 18:04:36.427449	330.0	20.2	-75.2	0.0
2025-01-24 18:04:37.574771	330.1	20.1	-74.4	0.0
2025-01-24 18:04:38.720956	330.2	19.9	-74.2	0.0
2025-01-24 18:04:39.866628	330.3	19.8	-75.5	0.0
2025-01-24 18:04:41.011641	330.4	19.7	-73.9	0.0
2025-01-24 18:04:42.157902	330.5	19.5	-75.0	0.0
2025-01-24 18:04:43.304689	330.6	19.4	-74.0	0.0
2025-01-24 18:04:44.451907	330.7	19.3	-74.2	0.0
2025-01-24 18:04:45.599341	330.8	19.1	-73.7	0.0
2025-01-24 18:04:46.744463	330.9	19.0	-74.2	0.0
2025-01-24 18:04:47.889110	331.0	18.8	-74.4	0.0
2025-01-24 18:04:49.035648	331.1	18.7	-75.1	0.0
2025-01-24 18:04:50.181152	331.2	18.6	-74.3	0.0
2025-01-24 18:04:51.328513	331.3	18.4	-74.5	0.0
2025-01-24 18:04:52.475113	331.4	18.3	-75.2	0.0
2025-01-24 18:04:53.624864	331.5	18.2	-73.8	0.0
2025-01-24 18:04:54.782853	331.6	18.0	-74.4	0.0
2025-01-24 18:04:55.929617	331.7	17.9	-73.9	0.0
2025-01-24 18:04:57.077579	331.7	17.8	-74.3	0.0
2025-01-24 18:04:58.232502	331.8	17.7	-75.0	0.0
2025-01-24 18:04:59.379481	331.9	17.5	-75.0	0.0
2025-01-24 18:05:00.525402	332.0	17.4	-74.7	0.0
2025-01-24 18:05:01.672366	332.1	17.3	-74.9	0.0
2025-01-24 18:05:02.816784	332.2	17.1	-73.7	0.0
2025-01-24 18:05:03.963400	332.3	17.0	-74.4	0.0
2025-01-24 18:05:05.110456	332.4	16.9	-75.4	0.0
2025-01-24 18:05:06.255831	332.5	16.8	-73.8	0.0
2025-01-24 18:05:07.401016	332.5	16.6	-74.3	0.0
2025-01-24 18:05:08.546999	332.6	16.5	-75.1	0.0
2025-01-24 18:05:09.693171	332.7	16.4	-74.1	0.0
2025-01-24 18:05:10.839943	332.8	16.3	-74.3	0.0
2025-01-24 18:05:11.986225	332.9	16.2	-75.2	0.0
2025-01-24 18:05:13.132578	333.0	16.0	-73.6	0.0
2025-01-24 18:05:14.281288	333.0	15.9	-74.0	0.0
2025-01-24 18:05:15.428385	333.1	15.8	-74.8	0.0
2025-01-24 18:05:16.583774	333.2	15.7	-73.9	0.0
2025-01-24 18:05:17.730893	333.3	15.5	-74.0	0.0
2025-01-24 18:05:18.879194	333.4	15.4	-75.0	0.0
2025-01-24 18:05:20.026958	333.4	15.3	-74.8	0.0
2025-01-24 18:05:21.174833	333.5	15.2	-74.6	0.0
2025-01-24 18:05:22.322360	333.6	15.1	-73.9	0.0
#Closed at: 2025-01-24 17:56:38.799896