passes_logs/2026/01/03/PlanumMoscow/PlanumMoscow__20260103_072523_METOP-C_rec.log

#Pass ID: 20260103_072523_METOP-C
#Satellite: METOP-C
#Configuration: METOP-C
#Start time: 2026-01-03 07:25:28.240061

#LorettStation: 1.0.0 05.05.2024
#Station: PlanumMoscow
#Location: 37.6253844 lon 55.6713361 lat
#TLE: 1 43689U 18087A   25293.88981035  .00000265  00000+0  14109-3 0  9997
#TLE: 2 43689  98.7006 352.4487 0002041 122.1097 238.0279 14.21482740360838

#Time	Az	El	Level	SNR
2026-01-03 07:29:06.700061	28.4	28.6	-65.8	5.7
2026-01-03 07:29:07.817817	28.5	28.8	-66.0	5.3
2026-01-03 07:29:08.936069	28.6	29.0	-66.5	5.4
2026-01-03 07:29:10.052824	28.7	29.2	-66.2	5.3
2026-01-03 07:29:11.168076	28.8	29.4	-65.8	4.5
2026-01-03 07:29:12.284337	28.9	29.6	-66.7	5.8
2026-01-03 07:29:13.402589	29.0	29.8	-66.7	5.5
2026-01-03 07:29:14.518849	29.1	30.0	-66.0	4.7
2026-01-03 07:29:15.636605	29.2	30.2	-66.5	5.0
2026-01-03 07:29:16.755361	29.3	30.4	-65.7	3.9
2026-01-03 07:29:17.871622	29.5	30.6	-66.0	5.0
2026-01-03 07:29:18.987873	29.6	30.8	-66.0	4.8
2026-01-03 07:29:20.104124	29.7	31.0	-65.9	5.3
2026-01-03 07:29:21.222881	29.8	31.2	-66.2	4.2
2026-01-03 07:29:22.339637	29.9	31.4	-66.1	4.3
2026-01-03 07:29:23.457392	30.1	31.6	-65.5	4.2
2026-01-03 07:29:24.575644	30.2	31.9	-66.0	2.4
2026-01-03 07:29:25.692400	30.3	32.1	-66.6	3.5
2026-01-03 07:29:26.810652	30.4	32.3	-66.2	3.8
2026-01-03 07:29:27.927408	30.6	32.5	-66.1	3.8
2026-01-03 07:29:29.044660	30.7	32.7	-65.7	3.6
2026-01-03 07:29:30.159911	30.8	33.0	-66.6	3.8
2026-01-03 07:29:31.275162	31.0	33.2	-66.4	3.7
2026-01-03 07:29:32.392423	31.1	33.4	-65.5	1.1
2026-01-03 07:29:33.511178	31.2	33.6	-65.7	3.2
2026-01-03 07:29:34.629430	31.4	33.9	-66.0	4.0
2026-01-03 07:29:35.746690	31.5	34.1	-65.8	3.2
2026-01-03 07:29:36.867943	31.7	34.3	-65.5	3.7
2026-01-03 07:29:37.984707	31.8	34.6	-65.5	3.4
2026-01-03 07:29:39.103465	32.0	34.8	-64.8	2.5
2026-01-03 07:29:40.219716	32.1	35.0	-65.3	3.1
2026-01-03 07:29:41.335471	32.3	35.3	-64.8	0.0
2026-01-03 07:29:42.452722	32.4	35.5	-64.0	0.0
2026-01-03 07:29:43.570478	32.6	35.8	-65.9	0.0
2026-01-03 07:29:44.687740	32.8	36.0	-63.1	0.0
2026-01-03 07:29:45.803495	32.9	36.2	-65.3	0.0
2026-01-03 07:29:46.920251	33.1	36.5	-63.7	0.0
2026-01-03 07:29:48.037007	33.2	36.7	-64.1	0.0
2026-01-03 07:29:49.152762	33.4	37.0	-64.9	1.0
2026-01-03 07:29:50.269518	33.6	37.2	-64.0	0.2
2026-01-03 07:29:51.384769	33.8	37.5	-64.2	0.0
2026-01-03 07:29:52.501525	33.9	37.7	-65.2	0.0
2026-01-03 07:29:53.621778	34.1	38.0	-64.2	0.0
2026-01-03 07:29:54.743038	34.3	38.3	-64.8	0.0
2026-01-03 07:29:55.859289	34.5	38.5	-65.2	0.0
2026-01-03 07:29:56.979054	34.7	38.8	-64.0	0.0
2026-01-03 07:29:58.095811	34.9	39.1	-63.7	0.0
2026-01-03 07:29:59.213062	35.1	39.3	-63.0	0.0
2026-01-03 07:30:00.332314	35.3	39.6	-61.9	0.0
2026-01-03 07:30:01.450575	35.5	39.9	-62.5	0.0
2026-01-03 07:30:02.566827	35.7	40.1	-64.3	0.0
2026-01-03 07:30:03.688584	35.9	40.4	-63.4	0.0
2026-01-03 07:30:04.805844	36.1	40.7	-63.9	0.0
2026-01-03 07:30:05.921599	36.3	40.9	-64.1	0.0
2026-01-03 07:30:07.038851	36.5	41.2	-62.5	0.0
2026-01-03 07:30:08.153606	36.7	41.5	-63.2	0.0
2026-01-03 07:30:09.270362	37.0	41.8	-62.5	0.0
2026-01-03 07:30:10.388120	37.2	42.1	-63.6	0.0
2026-01-03 07:30:11.506381	37.4	42.4	-62.8	0.0
2026-01-03 07:30:12.627139	37.7	42.6	-64.3	0.0
2026-01-03 07:30:13.745399	37.9	42.9	-64.0	0.0
2026-01-03 07:30:14.860155	38.2	43.2	-63.3	0.0
2026-01-03 07:30:15.976910	38.4	43.5	-62.7	0.0
2026-01-03 07:30:17.096667	38.7	43.8	-63.4	0.0
2026-01-03 07:30:18.213423	38.9	44.1	-62.7	0.0
2026-01-03 07:30:19.331675	39.2	44.4	-63.8	0.0
2026-01-03 07:30:20.449927	39.5	44.7	-63.6	0.0
2026-01-03 07:30:21.567187	39.7	45.0	-63.0	0.0
2026-01-03 07:30:22.686440	40.0	45.3	-61.4	0.0
2026-01-03 07:30:23.805701	40.3	45.6	-60.8	0.0
2026-01-03 07:30:24.921952	40.6	45.9	-63.0	0.0
2026-01-03 07:30:26.040205	40.9	46.2	-61.1	0.0
2026-01-03 07:30:27.155465	41.2	46.5	-64.3	0.0
2026-01-03 07:30:28.272221	41.5	46.8	-62.0	0.0
2026-01-03 07:30:29.387472	41.8	47.1	-63.7	0.0
2026-01-03 07:30:30.505724	42.1	47.4	-64.5	0.0
2026-01-03 07:30:31.625481	42.5	47.7	-64.2	0.0
2026-01-03 07:30:32.746733	42.8	48.1	-62.4	0.0
2026-01-03 07:30:33.867498	43.1	48.4	-64.3	0.0
2026-01-03 07:30:34.984254	43.5	48.7	-63.8	0.0
2026-01-03 07:30:36.100010	43.8	49.0	-62.8	0.0
2026-01-03 07:30:37.219262	44.2	49.3	-64.9	0.0
2026-01-03 07:30:38.337523	44.6	49.6	-62.5	0.0
2026-01-03 07:30:39.453279	44.9	50.0	-63.9	0.0
2026-01-03 07:30:40.570531	45.3	50.3	-65.6	0.0
2026-01-03 07:30:41.688287	45.7	50.6	-61.6	0.0
2026-01-03 07:30:42.804538	46.1	50.9	-66.1	0.0
2026-01-03 07:30:43.928791	46.5	51.3	-66.7	0.0
2026-01-03 07:30:45.044548	47.0	51.6	-63.8	0.0
2026-01-03 07:30:46.160304	47.4	51.9	-63.2	0.0
2026-01-03 07:30:47.277059	47.8	52.2	-62.3	0.0
2026-01-03 07:30:48.395816	48.3	52.6	-62.4	0.0
2026-01-03 07:30:49.513077	48.7	52.9	-65.3	0.0
2026-01-03 07:30:50.630328	49.2	53.2	-65.3	0.0
2026-01-03 07:30:51.749590	49.7	53.5	-65.6	0.0
2026-01-03 07:30:52.867346	50.2	53.9	-63.5	0.0
2026-01-03 07:30:53.983102	50.7	54.2	-62.3	0.0
2026-01-03 07:30:55.101858	51.2	54.5	-62.5	0.0
2026-01-03 07:30:56.216109	51.7	54.8	-64.3	0.0
2026-01-03 07:30:57.334379	52.2	55.2	-65.2	0.0
2026-01-03 07:30:58.453631	52.8	55.5	-63.5	0.0
2026-01-03 07:30:59.570387	53.3	55.8	-65.6	0.0
2026-01-03 07:31:00.686647	53.9	56.2	-66.6	0.0
2026-01-03 07:31:01.804907	54.5	56.5	-65.7	0.0
2026-01-03 07:31:02.919167	55.1	56.8	-66.7	0.0
2026-01-03 07:31:04.039429	55.7	57.1	-67.1	0.0
2026-01-03 07:31:05.154689	56.3	57.4	-67.2	0.0
2026-01-03 07:31:06.271949	57.0	57.8	-65.5	0.0
2026-01-03 07:31:07.388201	57.6	58.1	-64.9	0.0
2026-01-03 07:31:08.504460	58.3	58.4	-64.9	0.0
2026-01-03 07:31:09.621216	59.0	58.7	-66.0	0.0
2026-01-03 07:31:10.738973	59.7	59.0	-67.3	0.0
2026-01-03 07:31:11.857224	60.4	59.3	-68.1	0.0
2026-01-03 07:31:12.972475	61.2	59.6	-67.0	0.0
2026-01-03 07:31:14.090232	61.9	59.9	-67.6	0.0
2026-01-03 07:31:15.204483	62.7	60.2	-66.9	0.0
2026-01-03 07:31:16.322248	63.5	60.5	-66.5	0.0
2026-01-03 07:31:17.438500	64.3	60.8	-67.1	0.0
2026-01-03 07:31:18.556752	65.2	61.1	-67.5	0.0
2026-01-03 07:31:19.678013	66.0	61.4	-68.0	0.0
2026-01-03 07:31:20.799770	66.9	61.7	-65.8	0.0
2026-01-03 07:31:21.922023	67.8	62.0	-66.1	0.0
2026-01-03 07:31:23.043284	68.7	62.2	-68.7	0.0
2026-01-03 07:31:24.165041	69.6	62.5	-67.5	0.0
2026-01-03 07:31:25.286302	70.6	62.8	-67.9	0.0
2026-01-03 07:31:26.409060	71.6	63.0	-67.4	0.0
2026-01-03 07:31:27.523815	72.6	63.3	-68.4	0.0
2026-01-03 07:31:28.641067	73.6	63.5	-68.9	0.0
2026-01-03 07:31:29.756822	74.6	63.7	-67.0	0.0
2026-01-03 07:31:30.873578	75.7	64.0	-68.8	0.0
2026-01-03 07:31:31.991830	76.7	64.2	-68.9	0.0
2026-01-03 07:31:33.110596	77.8	64.4	-68.6	0.0
2026-01-03 07:31:34.226847	79.0	64.6	-69.5	0.0
2026-01-03 07:31:35.342098	80.1	64.8	-67.6	0.0
2026-01-03 07:31:36.457349	81.2	65.0	-68.5	0.0
2026-01-03 07:31:37.576106	82.4	65.2	-67.3	0.0
2026-01-03 07:31:38.692871	83.6	65.4	-69.4	0.0
2026-01-03 07:31:39.811140	84.8	65.5	-68.3	0.0
2026-01-03 07:31:40.928392	86.1	65.7	-67.4	0.0
2026-01-03 07:31:42.045643	87.3	65.8	-67.7	0.0
2026-01-03 07:31:43.162400	88.6	65.9	-67.0	0.0
2026-01-03 07:31:44.280651	89.9	66.1	-65.3	0.0
2026-01-03 07:31:45.398903	91.2	66.2	-68.2	0.0
2026-01-03 07:31:46.520661	92.5	66.3	-69.0	0.0
2026-01-03 07:31:47.642913	93.8	66.4	-68.9	0.0
2026-01-03 07:31:48.763165	95.1	66.5	-68.7	0.0
2026-01-03 07:31:49.885923	96.5	66.5	-68.6	0.0
2026-01-03 07:31:51.007681	97.8	66.6	-69.3	0.0
2026-01-03 07:31:52.129934	99.2	66.6	-68.8	0.0
2026-01-03 07:31:53.251194	100.5	66.7	-69.8	0.0
2026-01-03 07:31:54.364445	101.9	66.7	-68.6	0.0
2026-01-03 07:31:55.480201	103.2	66.7	-68.7	0.0
2026-01-03 07:31:56.597453	104.6	66.7	-66.8	0.0
2026-01-03 07:31:57.714713	106.0	66.7	-67.7	0.0
2026-01-03 07:31:58.830974	107.3	66.6	-67.4	0.0
2026-01-03 07:31:59.947225	108.7	66.6	-69.0	0.0
2026-01-03 07:32:01.063982	110.0	66.5	-69.4	0.0
2026-01-03 07:32:02.185739	111.4	66.5	-69.1	0.0
2026-01-03 07:32:03.300495	112.7	66.4	-69.2	0.0
2026-01-03 07:32:04.416251	114.0	66.3	-69.3	0.0
2026-01-03 07:32:05.534007	115.3	66.2	-69.0	0.0
2026-01-03 07:32:06.651764	116.6	66.1	-69.1	0.0
2026-01-03 07:32:07.767024	117.9	66.0	-68.8	0.0
2026-01-03 07:32:08.883284	119.2	65.9	-67.7	0.0
2026-01-03 07:32:09.999536	120.4	65.7	-68.2	0.0
2026-01-03 07:32:11.115787	121.6	65.6	-69.5	0.0
2026-01-03 07:32:12.230047	122.9	65.4	-69.2	0.0
2026-01-03 07:32:13.349315	124.1	65.3	-69.1	0.0
2026-01-03 07:32:14.466567	125.3	65.1	-69.1	0.0
2026-01-03 07:32:15.581818	126.4	64.9	-69.4	0.0
2026-01-03 07:32:16.699079	127.6	64.7	-69.3	0.0
2026-01-03 07:32:17.815835	128.7	64.5	-69.1	0.0
2026-01-03 07:32:18.932086	129.8	64.3	-69.1	0.9
2026-01-03 07:32:20.049842	130.9	64.1	-69.0	0.1
2026-01-03 07:32:21.167094	132.0	63.8	-69.0	0.0
2026-01-03 07:32:22.282850	133.0	63.6	-70.0	0.0
2026-01-03 07:32:23.400606	134.0	63.4	-69.6	0.0
2026-01-03 07:32:24.517858	135.0	63.1	-70.0	0.0
2026-01-03 07:32:25.634109	136.0	62.9	-70.1	0.0
2026-01-03 07:32:26.751361	137.0	62.6	-70.0	0.0
2026-01-03 07:32:27.867117	137.9	62.3	-70.2	0.0
2026-01-03 07:32:28.981873	138.8	62.1	-70.3	0.0
2026-01-03 07:32:30.098124	139.7	61.8	-70.6	0.0
2026-01-03 07:32:31.212880	140.6	61.5	-70.3	0.0
2026-01-03 07:32:32.328140	141.5	61.2	-70.5	0.0
2026-01-03 07:32:33.443896	142.3	60.9	-70.3	0.0
2026-01-03 07:32:34.560652	143.1	60.6	-70.2	0.0
2026-01-03 07:32:35.678912	143.9	60.3	-70.5	0.0
2026-01-03 07:32:36.794668	144.7	60.0	-70.7	0.0
2026-01-03 07:32:37.912425	145.5	59.7	-70.9	0.0
2026-01-03 07:32:39.029181	146.2	59.4	-71.0	0.0
2026-01-03 07:32:40.144938	147.0	59.1	-71.0	0.0
2026-01-03 07:32:41.260189	147.7	58.8	-70.2	0.0
2026-01-03 07:32:42.374944	148.4	58.5	-70.5	0.0
2026-01-03 07:32:43.491196	149.1	58.2	-70.6	0.0
2026-01-03 07:32:44.607960	149.7	57.9	-70.8	0.0
2026-01-03 07:32:45.723716	150.4	57.6	-70.7	0.0
2026-01-03 07:32:46.840977	151.0	57.2	-70.9	0.0
2026-01-03 07:32:47.955732	151.6	56.9	-71.1	0.0
2026-01-03 07:32:49.072489	152.2	56.6	-70.8	0.0
2026-01-03 07:32:50.188741	152.8	56.3	-70.9	0.0
2026-01-03 07:32:51.304992	153.4	55.9	-70.9	0.0
2026-01-03 07:32:52.419748	154.0	55.6	-70.9	0.0
2026-01-03 07:32:53.539000	154.5	55.3	-70.8	0.0
2026-01-03 07:32:54.654261	155.1	55.0	-71.2	0.0
2026-01-03 07:32:55.770522	155.6	54.6	-71.1	0.0
2026-01-03 07:32:56.887277	156.1	54.3	-70.9	0.0
2026-01-03 07:32:58.004529	156.6	54.0	-71.1	0.0
2026-01-03 07:32:59.123781	157.1	53.6	-71.1	0.0
2026-01-03 07:33:00.239537	157.6	53.3	-71.1	0.0
2026-01-03 07:33:01.356788	158.1	53.0	-70.9	0.0
2026-01-03 07:33:02.474040	158.5	52.7	-71.2	0.0
2026-01-03 07:33:03.590796	159.0	52.3	-71.0	0.0
2026-01-03 07:33:04.708048	159.4	52.0	-71.4	0.0
2026-01-03 07:33:05.823299	159.9	51.7	-71.3	0.0
2026-01-03 07:33:06.941056	160.3	51.3	-70.8	0.0
2026-01-03 07:33:08.058317	160.7	51.0	-70.9	0.0
2026-01-03 07:33:09.177579	161.1	50.7	-71.1	0.0
2026-01-03 07:33:10.298850	161.5	50.4	-71.3	0.0
2026-01-03 07:33:11.420606	161.9	50.0	-70.7	0.0
2026-01-03 07:33:12.542859	162.3	49.7	-71.0	0.0
2026-01-03 07:33:13.664615	162.7	49.4	-70.7	0.0
2026-01-03 07:33:14.786373	163.0	49.1	-71.2	0.0
2026-01-03 07:33:15.908130	163.4	48.8	-71.3	0.0
2026-01-03 07:33:17.026391	163.7	48.4	-71.0	0.0
2026-01-03 07:33:18.143642	164.1	48.1	-71.1	0.0
2026-01-03 07:33:19.258397	164.4	47.8	-71.1	0.0
2026-01-03 07:33:20.372648	164.7	47.5	-70.5	0.0
2026-01-03 07:33:21.489405	165.1	47.2	-70.7	0.0
2026-01-03 07:33:22.604665	165.4	46.9	-70.9	0.0
2026-01-03 07:33:23.727926	165.7	46.6	-70.5	0.0
2026-01-03 07:33:24.846187	166.0	46.3	-70.9	0.0
2026-01-03 07:33:25.967440	166.3	45.9	-70.8	0.0
2026-01-03 07:33:27.089692	166.6	45.6	-70.9	0.0
2026-01-03 07:33:28.210954	166.9	45.3	-71.0	0.0
2026-01-03 07:33:29.333207	167.2	45.0	-70.7	0.0
2026-01-03 07:33:30.454964	167.4	44.7	-70.3	0.0
2026-01-03 07:33:31.576721	167.7	44.4	-69.8	0.0
2026-01-03 07:33:32.697486	168.0	44.1	-69.8	0.0
2026-01-03 07:33:33.814746	168.2	43.8	-70.1	0.0
2026-01-03 07:33:34.930997	168.5	43.5	-70.5	0.0
2026-01-03 07:33:36.048249	168.7	43.2	-70.7	0.0
2026-01-03 07:33:37.163500	169.0	43.0	-69.8	0.0
2026-01-03 07:33:38.279761	169.2	42.7	-70.8	0.0
2026-01-03 07:33:39.395011	169.5	42.4	-69.9	0.0
2026-01-03 07:33:40.511262	169.7	42.1	-70.2	0.0
2026-01-03 07:33:41.634020	169.9	41.8	-69.6	0.0
2026-01-03 07:33:42.750271	170.2	41.5	-69.4	0.0
2026-01-03 07:33:43.867027	170.4	41.2	-69.8	0.0
2026-01-03 07:33:44.982782	170.6	41.0	-70.3	0.0
2026-01-03 07:33:46.098043	170.8	40.7	-70.3	0.0
2026-01-03 07:33:47.212799	171.0	40.4	-69.8	0.0
2026-01-03 07:33:48.330554	171.3	40.1	-70.2	0.0
2026-01-03 07:33:49.449311	171.5	39.9	-69.7	0.0
2026-01-03 07:33:50.565066	171.7	39.6	-69.7	0.0
2026-01-03 07:33:51.689330	171.9	39.3	-69.6	0.0
2026-01-03 07:33:52.806581	172.1	39.1	-69.1	0.0
2026-01-03 07:33:53.922841	172.3	38.8	-68.9	0.0
2026-01-03 07:33:55.039101	172.4	38.5	-69.1	0.0
2026-01-03 07:33:56.155858	172.6	38.3	-68.8	0.6
2026-01-03 07:33:57.271109	172.8	38.0	-68.8	0.5
2026-01-03 07:33:58.387360	173.0	37.7	-69.2	4.4
2026-01-03 07:33:59.505621	173.2	37.5	-68.9	2.7
2026-01-03 07:34:00.621872	173.3	37.2	-69.2	3.7
2026-01-03 07:34:01.741124	173.5	37.0	-68.6	2.8
2026-01-03 07:34:02.856384	173.7	36.7	-69.1	4.4
2026-01-03 07:34:03.974636	173.9	36.5	-69.0	6.1
2026-01-03 07:34:05.091897	174.0	36.2	-68.6	5.2
2026-01-03 07:34:06.209653	174.2	36.0	-68.1	5.5
2026-01-03 07:34:07.326905	174.3	35.7	-68.2	4.9
2026-01-03 07:34:08.442661	174.5	35.5	-68.3	5.0
2026-01-03 07:34:09.559913	174.7	35.2	-67.9	4.8
2026-01-03 07:34:10.676164	174.8	35.0	-68.2	4.2
2026-01-03 07:34:11.795920	175.0	34.8	-68.4	5.5
2026-01-03 07:34:12.912676	175.1	34.5	-68.7	5.3
2026-01-03 07:34:14.029937	175.3	34.3	-68.1	5.3
2026-01-03 07:34:15.146693	175.4	34.1	-67.4	4.5
2026-01-03 07:34:16.262944	175.6	33.8	-67.8	5.4
2026-01-03 07:34:17.378195	175.7	33.6	-67.9	6.2
2026-01-03 07:34:18.494951	175.8	33.4	-67.5	6.9
2026-01-03 07:34:19.612203	176.0	33.1	-66.9	5.6
2026-01-03 07:34:20.728959	176.1	32.9	-67.1	5.6
2026-01-03 07:34:21.847211	176.2	32.7	-66.8	5.3
2026-01-03 07:34:22.966472	176.4	32.5	-67.9	6.9
2026-01-03 07:34:24.082227	176.5	32.2	-67.6	6.7
2026-01-03 07:34:25.198479	176.6	32.0	-67.3	6.0
2026-01-03 07:34:26.315235	176.8	31.8	-67.0	5.8
2026-01-03 07:34:27.430991	176.9	31.6	-67.0	7.0
2026-01-03 07:34:28.548243	177.0	31.4	-67.0	6.6
2026-01-03 07:34:29.664502	177.1	31.1	-67.1	6.4
2026-01-03 07:34:30.782763	177.2	30.9	-67.2	6.8
2026-01-03 07:34:31.899529	177.4	30.7	-66.7	7.2
2026-01-03 07:34:33.019285	177.5	30.5	-66.8	8.2
2026-01-03 07:34:34.136537	177.6	30.3	-66.9	7.9
2026-01-03 07:34:35.251797	177.7	30.1	-66.7	8.4
2026-01-03 07:34:36.367562	177.8	29.9	-67.1	8.2
2026-01-03 07:34:37.482822	177.9	29.7	-66.6	6.8
2026-01-03 07:34:38.600073	178.0	29.5	-66.8	6.7
2026-01-03 07:34:39.715325	178.2	29.3	-67.0	8.0
2026-01-03 07:34:40.833576	178.3	29.1	-66.8	6.8
2026-01-03 07:34:41.950332	178.4	28.9	-67.1	7.6
2026-01-03 07:34:43.067592	178.5	28.7	-66.5	8.3
2026-01-03 07:34:44.185854	178.6	28.5	-66.7	8.3
2026-01-03 07:34:45.307114	178.7	28.3	-66.6	7.6
2026-01-03 07:34:46.429367	178.8	28.1	-66.9	9.2
2026-01-03 07:34:47.548633	178.9	27.9	-66.9	9.0
2026-01-03 07:34:48.670391	179.0	27.7	-66.3	8.3
2026-01-03 07:34:49.791652	179.1	27.5	-66.4	8.6
2026-01-03 07:34:50.913417	179.2	27.3	-66.5	9.3
2026-01-03 07:34:52.035175	179.3	27.1	-66.5	7.6
2026-01-03 07:34:53.156941	179.4	26.9	-66.6	8.1
2026-01-03 07:34:54.279194	179.5	26.8	-66.6	7.9
2026-01-03 07:34:55.400952	179.6	26.6	-66.3	7.5
2026-01-03 07:34:56.520215	179.7	26.4	-66.6	9.0
2026-01-03 07:34:57.642467	179.7	26.2	-66.3	8.6
2026-01-03 07:34:58.763233	179.8	26.0	-66.6	8.8
2026-01-03 07:34:59.883494	179.9	25.8	-66.3	9.1
2026-01-03 07:35:01.001259	180.0	25.7	-66.5	8.2
2026-01-03 07:35:02.118016	180.1	25.5	-65.9	8.9
2026-01-03 07:35:03.235267	180.2	25.3	-66.1	9.2
2026-01-03 07:35:04.353023	180.3	25.1	-66.1	8.9
2026-01-03 07:35:05.470275	180.4	25.0	-66.0	8.6
2026-01-03 07:35:06.586536	180.4	24.8	-66.0	9.2
2026-01-03 07:35:07.704292	180.5	24.6	-66.1	9.5
2026-01-03 07:35:08.820048	180.6	24.5	-66.5	9.8
2026-01-03 07:35:09.938308	180.7	24.3	-66.6	10.0
2026-01-03 07:35:11.056065	180.8	24.1	-66.4	9.7
2026-01-03 07:35:12.170316	180.8	23.9	-66.2	8.8
2026-01-03 07:35:13.284567	180.9	23.8	-66.2	9.0
2026-01-03 07:35:14.400323	181.0	23.6	-66.4	9.5
2026-01-03 07:35:15.515574	181.1	23.4	-66.0	8.3
2026-01-03 07:35:16.632826	181.1	23.3	-66.0	8.3
2026-01-03 07:35:17.751086	181.2	23.1	-66.0	9.3
2026-01-03 07:35:18.868842	181.3	23.0	-66.3	9.6
2026-01-03 07:35:19.986094	181.4	22.8	-66.2	9.4
2026-01-03 07:35:21.106347	181.4	22.6	-66.3	10.4
2026-01-03 07:35:22.223607	181.5	22.5	-65.6	5.2
2026-01-03 07:35:23.340868	181.6	22.3	-66.3	9.7
2026-01-03 07:35:24.459634	181.7	22.2	-66.3	9.7
2026-01-03 07:35:25.575895	181.7	22.0	-65.7	8.8
2026-01-03 07:35:26.694156	181.8	21.9	-65.9	9.3
2026-01-03 07:35:27.808920	181.9	21.7	-66.0	7.6
2026-01-03 07:35:28.928173	181.9	21.5	-65.8	9.0
2026-01-03 07:35:30.045929	182.0	21.4	-66.4	9.7
2026-01-03 07:35:31.164190	182.1	21.2	-65.9	8.4
2026-01-03 07:35:32.280441	182.1	21.1	-65.8	8.5
2026-01-03 07:35:33.398205	182.2	20.9	-65.7	8.2
2026-01-03 07:35:34.516457	182.3	20.8	-66.1	8.5
2026-01-03 07:35:35.631709	182.3	20.6	-65.7	9.3
2026-01-03 07:35:36.752961	182.4	20.5	-66.4	8.4
2026-01-03 07:35:37.870213	182.5	20.4	-65.7	7.8
2026-01-03 07:35:38.989465	182.5	20.2	-66.2	8.8
2026-01-03 07:35:40.105717	182.6	20.1	-66.1	8.1
2026-01-03 07:35:41.222473	182.6	19.9	-66.2	8.6
2026-01-03 07:35:42.337724	182.7	19.8	-66.2	8.3
2026-01-03 07:35:43.454975	182.8	19.6	-66.3	8.5
2026-01-03 07:35:44.574227	182.8	19.5	-65.9	7.9
2026-01-03 07:35:45.691488	182.9	19.3	-65.6	8.0
2026-01-03 07:35:46.808740	182.9	19.2	-65.9	8.5
2026-01-03 07:35:47.925000	183.0	19.1	-65.8	9.1
2026-01-03 07:35:49.045252	183.1	18.9	-65.0	7.6
2026-01-03 07:35:50.162009	183.1	18.8	-65.5	7.4
2026-01-03 07:35:51.283766	183.2	18.7	-66.2	8.8
2026-01-03 07:35:52.401017	183.2	18.5	-65.9	9.1
2026-01-03 07:35:53.517773	183.3	18.4	-65.5	8.4
2026-01-03 07:35:54.636547	183.3	18.2	-65.7	9.2
2026-01-03 07:35:55.753808	183.4	18.1	-65.8	9.9
2026-01-03 07:35:56.872060	183.5	18.0	-65.6	9.5
2026-01-03 07:35:57.990312	183.5	17.8	-65.7	9.3
2026-01-03 07:35:59.109067	183.6	17.7	-65.9	9.6
2026-01-03 07:36:00.227824	183.6	17.6	-65.9	9.6
2026-01-03 07:36:01.347086	183.7	17.5	-65.9	9.0
2026-01-03 07:36:02.468844	183.7	17.3	-65.7	9.0
2026-01-03 07:36:03.591097	183.8	17.2	-66.3	9.9
2026-01-03 07:36:04.711863	183.8	17.1	-66.0	8.6
2026-01-03 07:36:05.833620	183.9	16.9	-65.7	9.1
2026-01-03 07:36:06.955377	183.9	16.8	-65.8	9.5
2026-01-03 07:36:08.076638	184.0	16.7	-65.7	7.4
2026-01-03 07:36:09.193395	184.0	16.6	-65.8	8.9
2026-01-03 07:36:10.314656	184.1	16.4	-66.0	9.4
2026-01-03 07:36:11.436413	184.1	16.3	-65.8	8.8
2026-01-03 07:36:12.559170	184.2	16.2	-65.9	8.6
2026-01-03 07:36:13.678927	184.2	16.1	-65.8	9.1
2026-01-03 07:36:14.801685	184.3	15.9	-65.9	8.5
2026-01-03 07:36:15.922947	184.3	15.8	-65.7	7.1
2026-01-03 07:36:17.045199	184.4	15.7	-65.5	8.6
2026-01-03 07:36:18.165451	184.4	15.6	-65.5	6.9
2026-01-03 07:36:19.281253	184.5	15.4	-64.9	7.0
2026-01-03 07:36:20.398513	184.5	15.3	-65.1	7.1
2026-01-03 07:36:21.514781	184.6	15.2	-65.8	8.2
2026-01-03 07:36:22.632567	184.6	15.1	-66.1	9.8
2026-01-03 07:36:23.749818	184.7	15.0	-65.7	9.4
2026-01-03 07:36:24.866115	184.7	14.8	-65.4	8.3
2026-01-03 07:36:25.984367	184.7	14.7	-65.5	9.5
2026-01-03 07:36:27.100628	184.8	14.6	-65.7	8.8
2026-01-03 07:36:28.217440	184.8	14.5	-65.8	8.9
2026-01-03 07:36:29.334196	184.9	14.4	-65.6	8.1
2026-01-03 07:36:30.448494	184.9	14.3	-65.8	9.0
2026-01-03 07:36:31.566259	185.0	14.2	-65.0	7.1
2026-01-03 07:36:32.681066	185.0	14.0	-65.5	7.8
2026-01-03 07:36:33.795313	185.0	13.9	-66.0	7.9
2026-01-03 07:36:34.913069	185.1	13.8	-65.5	8.2
2026-01-03 07:36:36.030321	185.1	13.7	-65.7	8.1
2026-01-03 07:36:37.148573	185.2	13.6	-65.3	7.6
2026-01-03 07:36:38.270331	185.2	13.5	-65.9	8.9
2026-01-03 07:36:39.386582	185.3	13.4	-65.3	7.5
2026-01-03 07:36:40.502338	185.3	13.3	-65.4	7.4
2026-01-03 07:36:41.620094	185.3	13.1	-65.3	7.7
2026-01-03 07:36:42.735850	185.4	13.0	-65.6	8.4
2026-01-03 07:36:43.854606	185.4	12.9	-64.8	6.4
2026-01-03 07:36:44.969912	185.5	12.8	-65.2	6.5
2026-01-03 07:36:46.087668	185.5	12.7	-65.1	8.6
2026-01-03 07:36:47.202928	185.5	12.6	-65.2	6.2
2026-01-03 07:36:48.325695	185.6	12.5	-64.8	5.8
2026-01-03 07:36:49.441946	185.6	12.4	-64.4	6.4
2026-01-03 07:36:50.559253	185.6	12.3	-65.4	7.5
2026-01-03 07:36:51.676009	185.7	12.2	-65.6	6.1
2026-01-03 07:36:52.794270	185.7	12.1	-64.8	6.3
2026-01-03 07:36:53.911530	185.8	12.0	-65.3	7.4
2026-01-03 07:36:55.029791	185.8	11.9	-65.7	6.7
2026-01-03 07:36:56.147042	185.8	11.8	-65.5	7.2
2026-01-03 07:36:57.263799	185.9	11.7	-64.7	5.5
2026-01-03 07:36:58.380050	185.9	11.6	-65.8	7.3
2026-01-03 07:36:59.497302	185.9	11.4	-65.8	6.3
2026-01-03 07:37:00.614553	186.0	11.3	-65.5	6.4
2026-01-03 07:37:01.733310	186.0	11.2	-65.3	4.5
2026-01-03 07:37:02.852562	186.1	11.1	-65.9	6.3
2026-01-03 07:37:03.969823	186.1	11.0	-65.6	6.5
2026-01-03 07:37:05.087083	186.1	10.9	-66.0	6.2
2026-01-03 07:37:06.206335	186.2	10.8	-65.7	6.6
2026-01-03 07:37:07.325091	186.2	10.7	-65.5	6.1
2026-01-03 07:37:08.442352	186.2	10.6	-65.4	4.8
2026-01-03 07:37:09.556611	186.3	10.5	-65.4	5.9
2026-01-03 07:37:10.673367	186.3	10.4	-65.8	5.2
2026-01-03 07:37:11.792620	186.3	10.3	-65.8	5.9
2026-01-03 07:37:12.907375	186.4	10.2	-65.4	5.8
2026-01-03 07:37:14.026132	186.4	10.2	-65.1	3.6
2026-01-03 07:37:15.141383	186.4	10.1	-65.4	5.0
2026-01-03 07:37:16.258139	186.5	10.0	-65.3	6.8
2026-01-03 07:37:17.372895	186.5	9.9	-65.3	5.8
2026-01-03 07:37:18.493661	186.5	9.8	-64.6	5.6
2026-01-03 07:37:19.611427	186.6	9.7	-65.2	5.2
2026-01-03 07:37:20.729679	186.6	9.6	-65.3	4.8
2026-01-03 07:37:21.847931	186.6	9.5	-65.5	5.5
2026-01-03 07:37:22.964687	186.7	9.4	-65.2	5.8
2026-01-03 07:37:24.079939	186.7	9.3	-65.4	5.2
2026-01-03 07:37:25.196694	186.7	9.2	-64.9	5.6
2026-01-03 07:37:26.313450	186.8	9.1	-65.5	6.3
2026-01-03 07:37:27.430711	186.8	9.0	-65.5	5.9
2026-01-03 07:37:28.545972	186.8	8.9	-65.1	3.8
2026-01-03 07:37:29.663223	186.9	8.8	-64.7	4.7
2026-01-03 07:37:30.780475	186.9	8.7	-65.8	4.7
2026-01-03 07:37:31.898231	186.9	8.6	-65.8	5.7
2026-01-03 07:37:33.019494	186.9	8.6	-65.0	3.2
2026-01-03 07:37:34.141251	187.0	8.5	-65.7	5.4
2026-01-03 07:37:35.262512	187.0	8.4	-65.8	3.9
2026-01-03 07:37:36.384765	187.0	8.3	-65.3	4.0
2026-01-03 07:37:37.501529	187.1	8.2	-65.0	3.7
2026-01-03 07:37:38.621285	187.1	8.1	-65.5	5.4
2026-01-03 07:37:39.743043	187.1	8.0	-65.4	6.5
2026-01-03 07:37:40.864800	187.2	7.9	-65.2	4.8
2026-01-03 07:37:41.986558	187.2	7.8	-65.6	5.0
2026-01-03 07:37:43.103810	187.2	7.7	-65.4	2.9
2026-01-03 07:37:44.221061	187.2	7.7	-65.2	3.2
2026-01-03 07:37:45.339321	187.3	7.6	-64.7	4.0
2026-01-03 07:37:46.458581	187.3	7.5	-65.0	3.1
2026-01-03 07:37:47.575337	187.3	7.4	-64.8	5.0
2026-01-03 07:37:48.694598	187.4	7.3	-65.6	4.1
2026-01-03 07:37:49.817851	187.4	7.2	-64.8	1.5
2026-01-03 07:37:50.940104	187.4	7.1	-65.1	2.9
2026-01-03 07:37:52.061862	187.4	7.0	-65.3	3.9
2026-01-03 07:37:53.184114	187.5	7.0	-64.3	3.7
2026-01-03 07:37:54.305871	187.5	6.9	-65.5	3.4
2026-01-03 07:37:55.427628	187.5	6.8	-64.2	2.1
2026-01-03 07:37:56.549881	187.5	6.7	-64.8	4.7
2026-01-03 07:37:57.667141	187.6	6.6	-64.7	0.5
2026-01-03 07:37:58.784392	187.6	6.5	-64.8	4.3
2026-01-03 07:37:59.900653	187.6	6.4	-65.5	5.0
2026-01-03 07:38:01.017409	187.7	6.4	-64.9	4.3
2026-01-03 07:38:02.133165	187.7	6.3	-65.4	2.9
2026-01-03 07:38:03.248416	187.7	6.2	-65.0	3.7
2026-01-03 07:38:04.363677	187.7	6.1	-65.2	1.4
2026-01-03 07:38:05.481442	187.8	6.0	-64.8	2.3
2026-01-03 07:38:06.596198	187.8	5.9	-66.6	5.9
2026-01-03 07:38:07.713449	187.8	5.9	-68.7	0.9
2026-01-03 07:38:08.829700	187.8	5.8	-71.0	0.0
2026-01-03 07:38:09.943960	187.9	5.7	-71.0	0.0
2026-01-03 07:38:11.060717	187.9	5.6	-71.6	0.0
2026-01-03 07:38:12.175473	187.9	5.5	-72.2	0.0
2026-01-03 07:38:13.290237	187.9	5.5	-71.6	0.0
2026-01-03 07:38:14.406993	188.0	5.4	-71.7	0.0
2026-01-03 07:38:15.523244	188.0	5.3	-72.2	0.0
2026-01-03 07:38:16.639505	188.0	5.2	-72.0	0.0
2026-01-03 07:38:17.754756	188.0	5.1	-72.3	0.0
2026-01-03 07:38:18.871017	188.1	5.1	-72.6	0.0
2026-01-03 07:38:19.986269	188.1	5.0	-72.7	0.0
#Closed at: 2026-01-03 07:25:23.241646