passes_logs/2026/01/04/planumMaritime01/planumMaritime01__20260104_084657_METOP-C_rec.log

#Pass ID: 20260104_084657_METOP-C
#Satellite: METOP-C
#Configuration: METOP-C
#Start time: 2026-01-04 08:47:02.139367

#LorettStation: 1.0.0 05.05.2024
#Station: planumMaritime01
#Location: 37.49445 lon 55.92918 lat
#TLE: 1 43689U 18087A   26003.64214103  .00000255  00000+0  13641-3 0  9995
#TLE: 2 43689  98.6897  66.0725 0000140 327.1769  32.9399 14.21494298371454

#Time	Az	El	Level	SNR
2026-01-04 08:47:04.317974	6.3	10.2	-66.6	0.0
2026-01-04 08:47:05.444630	6.2	10.3	-68.0	0.0
2026-01-04 08:47:06.571855	6.1	10.4	-66.3	0.0
2026-01-04 08:47:07.698548	6.1	10.4	-66.9	0.0
2026-01-04 08:47:08.825159	6.0	10.5	-66.9	0.0
2026-01-04 08:47:09.951226	5.9	10.6	-66.7	0.0
2026-01-04 08:47:11.082784	5.8	10.7	-65.4	0.0
2026-01-04 08:47:12.207614	5.7	10.8	-66.0	0.0
2026-01-04 08:47:13.334972	5.6	10.9	-61.8	0.0
2026-01-04 08:47:14.461829	5.6	11.0	-65.0	0.0
2026-01-04 08:47:15.589423	5.5	11.1	-63.7	0.0
2026-01-04 08:47:16.715363	5.4	11.2	-66.9	0.0
2026-01-04 08:47:17.842127	5.3	11.3	-64.7	0.0
2026-01-04 08:47:18.969007	5.2	11.4	-65.6	0.0
2026-01-04 08:47:20.093901	5.1	11.5	-65.5	0.0
2026-01-04 08:47:21.219719	5.1	11.6	-66.6	0.0
2026-01-04 08:47:22.346677	5.0	11.7	-67.5	0.0
2026-01-04 08:47:23.474128	4.9	11.8	-62.2	0.0
2026-01-04 08:47:24.598396	4.8	11.9	-65.1	0.0
2026-01-04 08:47:25.724154	4.7	12.0	-66.3	0.0
2026-01-04 08:47:26.850251	4.6	12.1	-66.8	0.0
2026-01-04 08:47:27.977332	4.5	12.1	-67.4	0.0
2026-01-04 08:47:29.104479	4.4	12.2	-65.9	0.0
2026-01-04 08:47:30.234140	4.3	12.3	-66.7	0.0
2026-01-04 08:47:31.364018	4.3	12.4	-65.9	0.0
2026-01-04 08:47:32.490393	4.2	12.5	-67.2	0.0
2026-01-04 08:47:33.616802	4.1	12.6	-66.2	0.0
2026-01-04 08:47:34.743757	4.0	12.7	-66.9	0.0
2026-01-04 08:47:35.869583	3.9	12.8	-68.0	0.0
2026-01-04 08:47:36.995643	3.8	12.9	-69.2	0.0
2026-01-04 08:47:38.120822	3.7	13.0	-67.6	0.0
2026-01-04 08:47:39.244490	3.6	13.1	-67.9	0.0
2026-01-04 08:47:40.370114	3.5	13.2	-67.5	0.0
2026-01-04 08:47:41.497983	3.4	13.3	-64.4	0.0
2026-01-04 08:47:42.627929	3.3	13.4	-69.5	0.0
2026-01-04 08:47:43.754289	3.2	13.5	-69.7	0.0
2026-01-04 08:47:44.878209	3.1	13.6	-66.4	0.0
2026-01-04 08:47:46.003148	3.0	13.7	-68.7	0.0
2026-01-04 08:47:47.128574	2.9	13.8	-66.4	0.0
2026-01-04 08:47:48.255289	2.8	13.9	-68.7	0.0
2026-01-04 08:47:49.380729	2.7	14.1	-68.2	0.0
2026-01-04 08:47:50.506413	2.6	14.2	-69.0	0.0
2026-01-04 08:47:51.632397	2.5	14.3	-67.7	0.0
2026-01-04 08:47:52.757484	2.4	14.4	-68.6	0.0
2026-01-04 08:47:53.883707	2.3	14.5	-66.3	0.0
2026-01-04 08:47:55.008276	2.2	14.6	-66.2	0.0
2026-01-04 08:47:56.139084	2.1	14.7	-66.3	0.0
2026-01-04 08:47:57.266083	2.0	14.8	-66.6	0.0
2026-01-04 08:47:58.393379	1.8	14.9	-64.6	0.0
2026-01-04 08:47:59.519877	1.7	15.0	-66.1	0.0
2026-01-04 08:48:00.646043	1.6	15.1	-65.8	0.0
2026-01-04 08:48:01.774198	1.5	15.2	-66.4	0.0
2026-01-04 08:48:02.898663	1.4	15.3	-65.9	0.0
2026-01-04 08:48:04.026415	1.3	15.4	-65.7	0.0
2026-01-04 08:48:05.151812	1.2	15.5	-65.1	0.0
2026-01-04 08:48:06.278612	1.1	15.6	-67.7	0.0
2026-01-04 08:48:07.403742	0.9	15.8	-67.0	0.0
2026-01-04 08:48:08.529967	0.8	15.9	-66.4	0.0
2026-01-04 08:48:09.656579	0.7	16.0	-64.6	0.0
2026-01-04 08:48:10.785305	0.6	16.1	-67.4	0.0
2026-01-04 08:48:11.910254	0.5	16.2	-66.1	0.0
2026-01-04 08:48:13.037190	0.4	16.3	-66.1	0.0
2026-01-04 08:48:14.163903	0.2	16.4	-67.5	0.0
2026-01-04 08:48:15.290378	0.1	16.5	-64.6	0.0
2026-01-04 08:48:16.416882	360.0	16.6	-66.3	0.0
2026-01-04 08:48:17.542992	359.9	16.8	-66.9	0.0
2026-01-04 08:48:18.668668	359.7	16.9	-66.3	0.0
2026-01-04 08:48:19.795970	359.6	17.0	-66.4	0.0
2026-01-04 08:48:20.922134	359.5	17.1	-62.3	0.0
2026-01-04 08:48:22.047767	359.4	17.2	-66.7	0.0
2026-01-04 08:48:23.174020	359.2	17.3	-66.9	0.0
2026-01-04 08:48:24.300621	359.1	17.4	-65.8	0.0
2026-01-04 08:48:25.426547	359.0	17.5	-67.1	0.0
2026-01-04 08:48:26.553500	358.8	17.7	-67.3	0.0
2026-01-04 08:48:27.680706	358.7	17.8	-66.9	0.0
2026-01-04 08:48:28.807374	358.6	17.9	-67.5	0.0
2026-01-04 08:48:29.933715	358.4	18.0	-68.0	0.0
2026-01-04 08:48:31.062030	358.3	18.1	-67.0	0.0
2026-01-04 08:48:32.189543	358.2	18.2	-66.5	0.0
2026-01-04 08:48:33.314802	358.0	18.4	-67.5	0.0
2026-01-04 08:48:34.439791	357.9	18.5	-66.9	0.0
2026-01-04 08:48:35.569210	357.7	18.6	-68.3	0.0
2026-01-04 08:48:36.694091	357.6	18.7	-66.6	0.0
2026-01-04 08:48:37.821651	357.5	18.8	-68.8	0.0
2026-01-04 08:48:38.946574	357.3	19.0	-67.0	0.0
2026-01-04 08:48:40.073864	357.2	19.1	-66.2	0.0
2026-01-04 08:48:41.201299	357.0	19.2	-64.9	0.0
2026-01-04 08:48:42.326702	356.9	19.3	-67.2	0.0
2026-01-04 08:48:43.452417	356.7	19.4	-66.8	0.0
2026-01-04 08:48:44.579841	356.6	19.6	-66.1	0.0
2026-01-04 08:48:45.707281	356.4	19.7	-65.6	0.0
2026-01-04 08:48:46.831612	356.3	19.8	-66.6	0.0
2026-01-04 08:48:47.958177	356.1	19.9	-66.1	0.0
2026-01-04 08:48:49.085053	356.0	20.1	-66.7	0.0
2026-01-04 08:48:50.211279	355.8	20.2	-67.9	0.0
2026-01-04 08:48:51.335958	355.6	20.3	-66.9	0.0
2026-01-04 08:48:52.462511	355.5	20.4	-68.0	0.0
2026-01-04 08:48:53.589353	355.3	20.6	-67.1	0.0
2026-01-04 08:48:54.716447	355.2	20.7	-66.8	0.0
2026-01-04 08:48:55.842867	355.0	20.8	-66.0	0.0
2026-01-04 08:48:56.970900	354.8	20.9	-66.3	0.0
2026-01-04 08:48:58.097221	354.7	21.1	-67.7	0.0
2026-01-04 08:48:59.223080	354.5	21.2	-67.3	0.0
2026-01-04 08:49:00.351323	354.3	21.3	-67.6	0.0
2026-01-04 08:49:01.478951	354.2	21.4	-67.1	0.0
2026-01-04 08:49:02.604751	354.0	21.6	-66.6	0.0
2026-01-04 08:49:03.733386	353.8	21.7	-65.9	0.0
2026-01-04 08:49:04.859989	353.6	21.8	-65.2	0.0
2026-01-04 08:49:05.987239	353.5	21.9	-67.9	0.0
2026-01-04 08:49:07.112747	353.3	22.1	-65.9	0.0
2026-01-04 08:49:08.238933	353.1	22.2	-67.9	0.0
2026-01-04 08:49:09.366967	352.9	22.3	-65.0	0.0
2026-01-04 08:49:10.500270	352.8	22.5	-68.4	0.0
2026-01-04 08:49:11.626692	352.6	22.6	-67.8	0.0
2026-01-04 08:49:12.754661	352.4	22.7	-66.8	0.0
2026-01-04 08:49:13.880679	352.2	22.9	-67.3	0.0
2026-01-04 08:49:15.009664	352.0	23.0	-67.0	0.0
2026-01-04 08:49:16.133531	351.8	23.1	-67.4	0.0
2026-01-04 08:49:17.261417	351.6	23.3	-67.4	0.0
2026-01-04 08:49:18.387046	351.4	23.4	-67.5	0.0
2026-01-04 08:49:19.514600	351.2	23.5	-66.3	0.0
2026-01-04 08:49:20.640082	351.0	23.7	-67.8	0.0
2026-01-04 08:49:21.769304	350.8	23.8	-66.7	0.0
2026-01-04 08:49:22.895683	350.6	23.9	-67.5	0.0
2026-01-04 08:49:24.022103	350.4	24.1	-68.0	0.0
2026-01-04 08:49:25.149653	350.2	24.2	-67.7	0.0
2026-01-04 08:49:26.277107	350.0	24.3	-67.8	0.0
2026-01-04 08:49:27.404052	349.8	24.5	-67.9	0.0
2026-01-04 08:49:28.530917	349.6	24.6	-67.4	0.0
2026-01-04 08:49:29.656114	349.4	24.7	-68.2	0.0
2026-01-04 08:49:30.784757	349.2	24.9	-67.1	0.0
2026-01-04 08:49:31.909023	349.0	25.0	-65.9	0.0
2026-01-04 08:49:33.035299	348.8	25.1	-67.2	0.0
2026-01-04 08:49:34.161622	348.5	25.3	-68.6	0.0
2026-01-04 08:49:35.289638	348.3	25.4	-67.5	0.0
2026-01-04 08:49:36.416811	348.1	25.6	-66.3	0.0
2026-01-04 08:49:37.544113	347.9	25.7	-67.5	0.0
2026-01-04 08:49:38.672689	347.6	25.8	-67.3	0.0
2026-01-04 08:49:39.797847	347.4	26.0	-66.7	0.0
2026-01-04 08:49:40.925332	347.2	26.1	-65.6	0.0
2026-01-04 08:49:42.052580	347.0	26.2	-67.8	0.0
2026-01-04 08:49:43.178732	346.7	26.4	-66.7	0.0
2026-01-04 08:49:44.303984	346.5	26.5	-66.9	0.0
2026-01-04 08:49:45.430060	346.2	26.7	-67.0	0.0
2026-01-04 08:49:46.556798	346.0	26.8	-68.0	0.0
2026-01-04 08:49:47.682947	345.8	26.9	-67.7	0.0
2026-01-04 08:49:48.809125	345.5	27.1	-66.4	0.0
2026-01-04 08:49:49.934941	345.3	27.2	-68.8	0.0
2026-01-04 08:49:51.062618	345.0	27.4	-68.0	0.0
2026-01-04 08:49:52.188549	344.8	27.5	-68.1	0.0
2026-01-04 08:49:53.313818	344.5	27.6	-66.5	0.0
2026-01-04 08:49:54.442539	344.3	27.8	-69.4	0.0
2026-01-04 08:49:55.569623	344.0	27.9	-68.6	0.0
2026-01-04 08:49:56.697905	343.7	28.1	-68.5	0.0
2026-01-04 08:49:57.823444	343.5	28.2	-68.1	0.0
2026-01-04 08:49:58.950793	343.2	28.3	-66.5	0.0
2026-01-04 08:50:00.078239	342.9	28.5	-67.4	0.0
2026-01-04 08:50:01.206184	342.7	28.6	-66.6	0.0
2026-01-04 08:50:02.331909	342.4	28.8	-66.9	0.0
2026-01-04 08:50:03.458502	342.1	28.9	-67.1	0.0
2026-01-04 08:50:04.582530	341.8	29.0	-68.1	0.0
2026-01-04 08:50:05.708978	341.6	29.2	-68.2	0.0
2026-01-04 08:50:06.834612	341.3	29.3	-68.3	0.0
2026-01-04 08:50:07.961746	341.0	29.5	-68.0	0.0
2026-01-04 08:50:09.088157	340.7	29.6	-67.5	0.0
2026-01-04 08:50:10.214760	340.4	29.7	-67.9	0.0
2026-01-04 08:50:11.340437	340.1	29.9	-66.6	0.0
2026-01-04 08:50:12.467415	339.8	30.0	-67.1	0.0
2026-01-04 08:50:13.591969	339.5	30.2	-67.7	0.0
2026-01-04 08:50:14.716128	339.2	30.3	-68.4	0.0
2026-01-04 08:50:15.846021	338.9	30.4	-67.1	0.0
2026-01-04 08:50:16.971724	338.6	30.6	-67.2	0.0
2026-01-04 08:50:18.100620	338.3	30.7	-68.8	0.0
2026-01-04 08:50:19.226080	338.0	30.9	-67.0	0.0
2026-01-04 08:50:20.352892	337.7	31.0	-68.5	0.0
2026-01-04 08:50:21.480736	337.4	31.1	-69.0	0.0
2026-01-04 08:50:22.605089	337.1	31.3	-69.1	0.0
2026-01-04 08:50:23.732126	336.7	31.4	-67.4	0.0
2026-01-04 08:50:24.857779	336.4	31.5	-66.9	0.0
2026-01-04 08:50:25.982341	336.1	31.7	-68.8	0.0
2026-01-04 08:50:27.108396	335.7	31.8	-67.8	0.0
2026-01-04 08:50:28.239972	335.4	31.9	-67.9	1.4
2026-01-04 08:50:29.367485	335.1	32.1	-68.9	0.0
2026-01-04 08:50:30.494580	334.7	32.2	-69.7	0.0
2026-01-04 08:50:31.620412	334.4	32.3	-68.9	1.3
2026-01-04 08:50:32.745885	334.1	32.5	-69.3	0.8
2026-01-04 08:50:33.874730	333.7	32.6	-69.9	1.8
2026-01-04 08:50:35.001419	333.4	32.7	-69.3	0.1
2026-01-04 08:50:36.128060	333.0	32.9	-70.1	0.0
2026-01-04 08:50:37.253923	332.6	33.0	-70.3	1.9
2026-01-04 08:50:38.380881	332.3	33.1	-70.4	4.6
2026-01-04 08:50:39.506872	331.9	33.3	-69.7	0.2
2026-01-04 08:50:40.635713	331.6	33.4	-70.4	2.8
2026-01-04 08:50:41.761725	331.2	33.5	-70.6	1.8
2026-01-04 08:50:42.889113	330.8	33.6	-70.7	3.4
2026-01-04 08:50:44.013738	330.4	33.8	-70.1	3.6
2026-01-04 08:50:45.138257	330.1	33.9	-70.6	2.8
2026-01-04 08:50:46.264205	329.7	34.0	-70.4	3.2
2026-01-04 08:50:47.390439	329.3	34.1	-70.9	4.8
2026-01-04 08:50:48.516494	328.9	34.3	-70.4	4.0
2026-01-04 08:50:49.641359	328.5	34.4	-70.3	7.0
2026-01-04 08:50:50.768514	328.1	34.5	-70.9	5.4
2026-01-04 08:50:51.895217	327.8	34.6	-70.4	2.9
2026-01-04 08:50:53.022346	327.4	34.7	-70.6	6.7
2026-01-04 08:50:54.148332	327.0	34.9	-71.1	5.5
2026-01-04 08:50:55.274611	326.6	35.0	-71.5	5.7
2026-01-04 08:50:56.399660	326.1	35.1	-70.7	7.4
2026-01-04 08:50:57.526740	325.7	35.2	-70.5	4.8
2026-01-04 08:50:58.652643	325.3	35.3	-70.8	4.3
2026-01-04 08:50:59.779917	324.9	35.4	-69.1	1.3
2026-01-04 08:51:00.904285	324.5	35.5	-70.2	6.0
2026-01-04 08:51:02.030128	324.1	35.6	-70.3	4.1
2026-01-04 08:51:03.156998	323.7	35.7	-70.4	5.8
2026-01-04 08:51:04.283243	323.2	35.9	-70.2	5.4
2026-01-04 08:51:05.410516	322.8	36.0	-70.2	4.9
2026-01-04 08:51:06.535653	322.4	36.1	-70.4	4.2
2026-01-04 08:51:07.661215	321.9	36.2	-70.6	5.1
2026-01-04 08:51:08.788247	321.5	36.3	-70.6	3.7
2026-01-04 08:51:09.914402	321.1	36.4	-71.5	4.5
2026-01-04 08:51:11.041239	320.6	36.4	-71.6	5.9
2026-01-04 08:51:12.167122	320.2	36.5	-72.5	8.7
2026-01-04 08:51:13.294786	319.7	36.6	-72.0	4.2
2026-01-04 08:51:14.422208	319.3	36.7	-73.0	9.4
2026-01-04 08:51:15.548030	318.8	36.8	-72.9	8.1
2026-01-04 08:51:16.673666	318.4	36.9	-72.6	6.9
2026-01-04 08:51:17.800749	317.9	37.0	-72.6	8.5
2026-01-04 08:51:18.929147	317.5	37.1	-72.5	5.5
2026-01-04 08:51:20.054816	317.0	37.1	-73.0	6.1
2026-01-04 08:51:21.182466	316.5	37.2	-73.2	7.3
2026-01-04 08:51:22.309883	316.1	37.3	-73.8	9.0
2026-01-04 08:51:23.435706	315.6	37.4	-73.7	9.0
2026-01-04 08:51:24.561277	315.1	37.5	-73.5	8.6
2026-01-04 08:51:25.691094	314.7	37.5	-73.6	8.0
2026-01-04 08:51:26.818013	314.2	37.6	-73.8	8.9
2026-01-04 08:51:27.944973	313.7	37.7	-73.7	10.5
2026-01-04 08:51:29.069453	313.2	37.7	-72.7	7.6
2026-01-04 08:51:30.195651	312.7	37.8	-72.4	8.5
2026-01-04 08:51:31.322305	312.3	37.9	-72.4	8.1
2026-01-04 08:51:32.449354	311.8	37.9	-72.4	6.9
2026-01-04 08:51:33.573809	311.3	38.0	-72.9	9.7
2026-01-04 08:51:34.702876	310.8	38.0	-72.1	7.8
2026-01-04 08:51:35.828646	310.3	38.1	-70.5	3.1
2026-01-04 08:51:36.955443	309.8	38.1	-70.9	5.3
2026-01-04 08:51:38.081375	309.3	38.2	-72.9	10.0
2026-01-04 08:51:39.208145	308.8	38.2	-72.9	8.2
2026-01-04 08:51:40.333747	308.4	38.3	-72.9	9.1
2026-01-04 08:51:41.461383	307.9	38.3	-71.4	4.9
2026-01-04 08:51:42.586350	307.4	38.3	-72.8	9.4
2026-01-04 08:51:43.713723	306.9	38.4	-73.1	7.7
2026-01-04 08:51:44.842613	306.4	38.4	-72.3	4.8
2026-01-04 08:51:45.966838	305.9	38.4	-71.5	5.2
2026-01-04 08:51:47.091730	305.4	38.5	-72.4	3.2
2026-01-04 08:51:48.219325	304.9	38.5	-72.5	6.9
2026-01-04 08:51:49.345189	304.4	38.5	-72.1	6.6
2026-01-04 08:51:50.471797	303.8	38.5	-71.8	8.0
2026-01-04 08:51:51.597700	303.3	38.5	-72.2	5.0
2026-01-04 08:51:52.724182	302.8	38.6	-71.4	5.9
2026-01-04 08:51:53.851671	302.3	38.6	-71.2	8.1
2026-01-04 08:51:54.977937	301.8	38.6	-71.9	6.5
2026-01-04 08:51:56.108162	301.3	38.6	-71.8	4.9
2026-01-04 08:51:57.234337	300.8	38.6	-72.5	9.5
2026-01-04 08:51:58.360476	300.3	38.6	-72.5	8.3
2026-01-04 08:51:59.487542	299.8	38.6	-72.1	9.5
2026-01-04 08:52:00.613735	299.3	38.6	-71.8	5.3
2026-01-04 08:52:01.740093	298.8	38.6	-72.9	6.9
2026-01-04 08:52:02.867236	298.3	38.6	-71.4	5.4
2026-01-04 08:52:03.992965	297.8	38.6	-70.2	3.7
2026-01-04 08:52:05.119366	297.3	38.6	-69.3	2.7
2026-01-04 08:52:06.245881	296.8	38.5	-72.3	7.8
2026-01-04 08:52:07.370739	296.3	38.5	-71.9	7.9
2026-01-04 08:52:08.497911	295.8	38.5	-72.3	5.8
2026-01-04 08:52:09.622435	295.3	38.5	-72.3	5.1
2026-01-04 08:52:10.749293	294.8	38.5	-72.0	6.1
2026-01-04 08:52:11.876997	294.3	38.4	-71.6	4.0
2026-01-04 08:52:13.006379	293.8	38.4	-72.3	5.9
2026-01-04 08:52:14.131968	293.3	38.4	-72.6	6.4
2026-01-04 08:52:15.257278	292.8	38.3	-72.0	6.8
2026-01-04 08:52:16.385063	292.3	38.3	-72.6	6.3
2026-01-04 08:52:17.510709	291.8	38.3	-72.1	5.7
2026-01-04 08:52:18.635922	291.3	38.2	-71.6	3.7
2026-01-04 08:52:19.761866	290.8	38.2	-72.3	4.8
2026-01-04 08:52:20.889184	290.3	38.1	-71.3	3.3
2026-01-04 08:52:22.018722	289.8	38.1	-71.9	4.3
2026-01-04 08:52:23.143576	289.3	38.0	-71.8	2.6
2026-01-04 08:52:24.269569	288.8	38.0	-72.8	4.6
2026-01-04 08:52:25.394617	288.3	37.9	-73.0	7.2
2026-01-04 08:52:26.520332	287.8	37.9	-72.8	6.5
2026-01-04 08:52:27.645799	287.4	37.8	-73.4	7.7
2026-01-04 08:52:28.770605	286.9	37.7	-71.7	5.3
2026-01-04 08:52:29.896111	286.4	37.7	-71.4	3.5
2026-01-04 08:52:31.023485	285.9	37.6	-71.8	6.8
2026-01-04 08:52:32.150116	285.4	37.5	-73.4	7.0
2026-01-04 08:52:33.276519	285.0	37.5	-72.4	6.5
2026-01-04 08:52:34.405169	284.5	37.4	-73.0	7.2
2026-01-04 08:52:35.531316	284.0	37.3	-71.6	4.6
2026-01-04 08:52:36.657874	283.6	37.2	-71.6	5.1
2026-01-04 08:52:37.784396	283.1	37.2	-72.0	5.6
2026-01-04 08:52:38.910136	282.6	37.1	-71.6	6.9
2026-01-04 08:52:40.034284	282.2	37.0	-72.1	5.5
2026-01-04 08:52:41.159207	281.7	36.9	-73.0	7.6
2026-01-04 08:52:42.286132	281.3	36.8	-72.5	6.3
2026-01-04 08:52:43.412083	280.8	36.7	-73.0	7.5
2026-01-04 08:52:44.536877	280.4	36.6	-72.5	6.5
2026-01-04 08:52:45.663268	279.9	36.5	-73.6	9.1
2026-01-04 08:52:46.787701	279.5	36.4	-72.9	10.0
2026-01-04 08:52:47.917686	279.0	36.4	-73.2	10.0
2026-01-04 08:52:49.043374	278.6	36.3	-72.9	5.9
2026-01-04 08:52:50.170532	278.2	36.2	-72.9	10.5
2026-01-04 08:52:51.295252	277.7	36.1	-73.7	9.2
2026-01-04 08:52:52.423559	277.3	36.0	-73.7	8.8
2026-01-04 08:52:53.552267	276.9	35.9	-73.7	8.7
2026-01-04 08:52:54.677745	276.4	35.7	-73.3	7.7
2026-01-04 08:52:55.805131	276.0	35.6	-73.2	7.5
2026-01-04 08:52:56.931766	275.6	35.5	-73.2	7.9
2026-01-04 08:52:58.058254	275.2	35.4	-73.6	9.5
2026-01-04 08:52:59.184189	274.8	35.3	-73.7	9.6
2026-01-04 08:53:00.315756	274.3	35.2	-73.0	8.1
2026-01-04 08:53:01.440192	273.9	35.1	-74.0	9.5
2026-01-04 08:53:02.565933	273.5	35.0	-74.0	10.2
2026-01-04 08:53:03.690608	273.1	34.9	-73.6	9.8
2026-01-04 08:53:04.817283	272.7	34.7	-73.8	8.5
2026-01-04 08:53:05.944011	272.3	34.6	-73.6	9.5
2026-01-04 08:53:07.071113	271.9	34.5	-73.6	9.3
2026-01-04 08:53:08.197683	271.5	34.4	-74.0	10.2
2026-01-04 08:53:09.323269	271.1	34.3	-74.0	9.6
2026-01-04 08:53:10.448881	270.8	34.1	-72.1	6.3
2026-01-04 08:53:11.575742	270.4	34.0	-73.9	9.8
2026-01-04 08:53:12.704045	270.0	33.9	-73.5	7.5
2026-01-04 08:53:13.828906	269.6	33.8	-73.8	8.9
2026-01-04 08:53:14.952739	269.2	33.6	-74.2	10.1
2026-01-04 08:53:16.078298	268.9	33.5	-74.0	9.3
2026-01-04 08:53:17.203928	268.5	33.4	-74.2	9.1
2026-01-04 08:53:18.330931	268.1	33.3	-73.6	6.5
2026-01-04 08:53:19.456889	267.8	33.1	-74.2	9.6
2026-01-04 08:53:20.583306	267.4	33.0	-73.8	9.4
2026-01-04 08:53:21.709972	267.1	32.9	-73.9	9.6
2026-01-04 08:53:22.836509	266.7	32.7	-73.5	6.9
2026-01-04 08:53:23.962672	266.3	32.6	-73.6	8.0
2026-01-04 08:53:25.088601	266.0	32.5	-73.5	7.3
2026-01-04 08:53:26.213597	265.7	32.3	-74.6	9.9
2026-01-04 08:53:27.341606	265.3	32.2	-74.1	8.1
2026-01-04 08:53:28.468191	265.0	32.1	-74.1	8.0
2026-01-04 08:53:29.592894	264.6	31.9	-73.8	7.1
2026-01-04 08:53:30.718673	264.3	31.8	-73.9	8.7
2026-01-04 08:53:31.844809	264.0	31.7	-74.2	8.1
2026-01-04 08:53:32.970589	263.6	31.5	-74.1	8.6
2026-01-04 08:53:34.097451	263.3	31.4	-74.4	9.6
2026-01-04 08:53:35.222757	263.0	31.3	-74.5	8.5
2026-01-04 08:53:36.348573	262.7	31.1	-74.3	9.1
2026-01-04 08:53:37.475806	262.3	31.0	-74.4	8.5
2026-01-04 08:53:38.600306	262.0	30.8	-74.6	8.8
2026-01-04 08:53:39.727533	261.7	30.7	-74.2	9.6
2026-01-04 08:53:40.853239	261.4	30.6	-74.5	8.6
2026-01-04 08:53:41.979642	261.1	30.4	-74.5	8.4
2026-01-04 08:53:43.106457	260.8	30.3	-74.7	9.2
2026-01-04 08:53:44.232360	260.5	30.1	-74.7	8.5
2026-01-04 08:53:45.357703	260.2	30.0	-74.8	8.6
2026-01-04 08:53:46.484589	259.9	29.9	-74.9	8.3
2026-01-04 08:53:47.611454	259.6	29.7	-74.3	7.7
2026-01-04 08:53:48.736886	259.3	29.6	-74.7	7.5
2026-01-04 08:53:49.862636	259.0	29.4	-74.8	9.0
2026-01-04 08:53:50.989784	258.7	29.3	-74.5	7.6
2026-01-04 08:53:52.115895	258.5	29.2	-74.5	8.5
2026-01-04 08:53:53.242416	258.2	29.0	-74.4	8.9
2026-01-04 08:53:54.367254	257.9	28.9	-74.3	8.7
2026-01-04 08:53:55.494256	257.6	28.7	-74.6	9.8
2026-01-04 08:53:56.621692	257.3	28.6	-74.9	10.1
2026-01-04 08:53:57.748730	257.1	28.5	-74.6	10.7
2026-01-04 08:53:58.873985	256.8	28.3	-74.6	9.4
2026-01-04 08:54:00.002164	256.5	28.2	-74.7	11.1
2026-01-04 08:54:01.127937	256.3	28.0	-74.5	9.6
2026-01-04 08:54:02.255285	256.0	27.9	-74.4	9.5
2026-01-04 08:54:03.377492	255.7	27.8	-74.5	9.4
2026-01-04 08:54:04.504510	255.5	27.6	-74.7	10.2
2026-01-04 08:54:05.632282	255.2	27.5	-74.4	10.1
2026-01-04 08:54:06.760672	255.0	27.3	-74.2	9.8
2026-01-04 08:54:07.886782	254.7	27.2	-74.5	10.7
2026-01-04 08:54:09.013250	254.5	27.0	-74.4	8.9
2026-01-04 08:54:10.140631	254.2	26.9	-74.5	9.9
2026-01-04 08:54:11.266625	254.0	26.8	-74.6	9.4
2026-01-04 08:54:12.393234	253.7	26.6	-74.6	9.3
2026-01-04 08:54:13.518845	253.5	26.5	-75.0	9.7
2026-01-04 08:54:14.643964	253.3	26.3	-74.9	9.3
2026-01-04 08:54:15.766337	253.0	26.2	-74.9	9.2
2026-01-04 08:54:16.892628	252.8	26.1	-74.4	7.9
2026-01-04 08:54:18.019116	252.6	25.9	-74.9	8.6
2026-01-04 08:54:19.144459	252.3	25.8	-74.7	7.6
2026-01-04 08:54:20.270083	252.1	25.7	-74.9	8.2
2026-01-04 08:54:21.397178	251.9	25.5	-74.8	9.0
2026-01-04 08:54:22.522718	251.7	25.4	-75.1	9.8
2026-01-04 08:54:23.648989	251.4	25.2	-75.2	9.4
2026-01-04 08:54:24.775645	251.2	25.1	-74.8	9.0
2026-01-04 08:54:25.902082	251.0	25.0	-75.0	9.7
2026-01-04 08:54:27.027441	250.8	24.8	-75.1	8.6
2026-01-04 08:54:28.153494	250.6	24.7	-75.0	9.9
2026-01-04 08:54:29.278914	250.4	24.6	-75.5	10.4
2026-01-04 08:54:30.404391	250.2	24.4	-75.3	10.3
2026-01-04 08:54:31.530680	249.9	24.3	-75.5	10.5
2026-01-04 08:54:32.656200	249.7	24.1	-75.3	10.6
2026-01-04 08:54:33.780956	249.5	24.0	-75.3	9.4
2026-01-04 08:54:34.905638	249.3	23.9	-75.1	10.3
2026-01-04 08:54:36.029165	249.1	23.7	-75.0	10.0
2026-01-04 08:54:37.154355	248.9	23.6	-75.0	9.9
2026-01-04 08:54:38.279868	248.7	23.5	-75.2	10.2
2026-01-04 08:54:39.404843	248.5	23.3	-75.1	10.4
2026-01-04 08:54:40.528851	248.3	23.2	-75.2	10.1
2026-01-04 08:54:41.654728	248.2	23.1	-74.9	10.1
2026-01-04 08:54:42.781785	248.0	22.9	-75.1	10.9
2026-01-04 08:54:43.908960	247.8	22.8	-74.9	9.6
2026-01-04 08:54:45.034491	247.6	22.7	-75.2	9.9
2026-01-04 08:54:46.161109	247.4	22.5	-75.3	9.9
2026-01-04 08:54:47.287105	247.2	22.4	-75.1	8.8
2026-01-04 08:54:48.414884	247.0	22.3	-75.1	9.5
2026-01-04 08:54:49.541406	246.8	22.2	-75.1	9.5
2026-01-04 08:54:50.667960	246.7	22.0	-75.0	9.6
2026-01-04 08:54:51.793659	246.5	21.9	-75.1	9.0
2026-01-04 08:54:52.918161	246.3	21.8	-75.0	9.5
2026-01-04 08:54:54.047187	246.1	21.6	-75.0	9.4
2026-01-04 08:54:55.171923	246.0	21.5	-74.9	7.8
2026-01-04 08:54:56.297572	245.8	21.4	-75.1	9.5
2026-01-04 08:54:57.423294	245.6	21.3	-74.9	9.3
2026-01-04 08:54:58.550363	245.4	21.1	-74.8	8.5
2026-01-04 08:54:59.677386	245.3	21.0	-75.2	9.4
2026-01-04 08:55:00.808082	245.1	20.9	-75.3	8.7
2026-01-04 08:55:01.937188	244.9	20.7	-75.6	9.2
2026-01-04 08:55:03.064137	244.8	20.6	-75.0	7.8
2026-01-04 08:55:04.190599	244.6	20.5	-75.4	8.3
2026-01-04 08:55:05.316668	244.5	20.4	-75.6	8.2
2026-01-04 08:55:06.446289	244.3	20.2	-75.4	8.7
2026-01-04 08:55:07.572016	244.1	20.1	-75.3	9.0
2026-01-04 08:55:08.698720	244.0	20.0	-75.0	6.2
2026-01-04 08:55:09.824333	243.8	19.9	-75.8	9.2
2026-01-04 08:55:10.950584	243.7	19.7	-75.7	7.9
2026-01-04 08:55:12.076471	243.5	19.6	-75.6	8.9
2026-01-04 08:55:13.205998	243.4	19.5	-75.7	7.5
2026-01-04 08:55:14.332705	243.2	19.4	-75.4	7.5
2026-01-04 08:55:15.457874	243.1	19.3	-75.0	7.6
2026-01-04 08:55:16.583627	242.9	19.1	-75.7	8.5
2026-01-04 08:55:17.709250	242.8	19.0	-75.7	7.6
2026-01-04 08:55:18.836045	242.6	18.9	-75.6	8.4
2026-01-04 08:55:19.962363	242.5	18.8	-75.7	7.4
2026-01-04 08:55:21.087430	242.3	18.7	-75.8	7.5
2026-01-04 08:55:22.214790	242.2	18.5	-75.7	7.2
2026-01-04 08:55:23.340560	242.0	18.4	-75.7	7.2
2026-01-04 08:55:24.467913	241.9	18.3	-75.8	7.2
2026-01-04 08:55:25.597442	241.8	18.2	-76.1	7.0
2026-01-04 08:55:26.724930	241.6	18.1	-75.2	7.4
2026-01-04 08:55:27.851820	241.5	17.9	-74.8	7.2
2026-01-04 08:55:28.977795	241.4	17.8	-74.4	5.0
2026-01-04 08:55:30.105532	241.2	17.7	-74.1	6.9
2026-01-04 08:55:31.232189	241.1	17.6	-74.5	4.9
2026-01-04 08:55:32.362656	241.0	17.5	-76.0	7.7
2026-01-04 08:55:33.488350	240.8	17.4	-75.9	7.1
2026-01-04 08:55:34.615952	240.7	17.2	-75.4	7.2
2026-01-04 08:55:35.739406	240.6	17.1	-75.4	7.5
2026-01-04 08:55:36.866750	240.4	17.0	-75.5	7.0
2026-01-04 08:55:37.997337	240.3	16.9	-75.7	7.0
2026-01-04 08:55:39.123004	240.2	16.8	-75.8	6.4
2026-01-04 08:55:40.248929	240.0	16.7	-75.9	6.5
2026-01-04 08:55:41.374018	239.9	16.6	-75.3	4.4
2026-01-04 08:55:42.502497	239.8	16.4	-75.2	6.9
2026-01-04 08:55:43.627387	239.7	16.3	-75.1	6.2
2026-01-04 08:55:44.752973	239.6	16.2	-74.9	6.5
2026-01-04 08:55:45.881498	239.4	16.1	-75.5	7.7
2026-01-04 08:55:47.007419	239.3	16.0	-76.0	6.7
2026-01-04 08:55:48.133442	239.2	15.9	-74.6	3.5
2026-01-04 08:55:49.262748	239.1	15.8	-75.9	6.3
2026-01-04 08:55:50.392291	239.0	15.7	-75.6	6.5
2026-01-04 08:55:51.519789	238.8	15.6	-75.7	6.6
2026-01-04 08:55:52.647761	238.7	15.4	-76.0	7.1
2026-01-04 08:55:53.775800	238.6	15.3	-75.8	6.8
2026-01-04 08:55:54.901989	238.5	15.2	-75.8	6.8
2026-01-04 08:55:56.032627	238.4	15.1	-75.6	6.1
2026-01-04 08:55:57.159113	238.3	15.0	-75.9	6.3
2026-01-04 08:55:58.285110	238.2	14.9	-76.0	7.1
2026-01-04 08:55:59.410358	238.0	14.8	-75.7	6.8
2026-01-04 08:56:00.536897	237.9	14.7	-76.1	6.7
2026-01-04 08:56:01.663720	237.8	14.6	-75.9	7.1
2026-01-04 08:56:02.792000	237.7	14.5	-76.1	6.9
2026-01-04 08:56:03.919005	237.6	14.4	-76.2	5.9
2026-01-04 08:56:05.045749	237.5	14.3	-76.0	5.7
2026-01-04 08:56:06.173138	237.4	14.2	-75.7	5.2
2026-01-04 08:56:07.301193	237.3	14.1	-75.9	5.9
2026-01-04 08:56:08.429149	237.2	14.0	-75.7	6.4
2026-01-04 08:56:09.556080	237.1	13.9	-75.9	5.3
2026-01-04 08:56:10.681498	237.0	13.8	-75.8	3.4
2026-01-04 08:56:11.809859	236.9	13.6	-76.0	5.9
2026-01-04 08:56:12.934523	236.8	13.5	-75.7	6.9
2026-01-04 08:56:14.060589	236.7	13.4	-75.6	5.5
2026-01-04 08:56:15.187364	236.6	13.3	-75.6	5.9
2026-01-04 08:56:16.313482	236.5	13.2	-75.8	5.6
2026-01-04 08:56:17.441085	236.4	13.1	-75.6	4.2
2026-01-04 08:56:18.565169	236.3	13.0	-76.1	5.3
2026-01-04 08:56:19.690645	236.2	12.9	-76.0	5.1
2026-01-04 08:56:20.816192	236.1	12.8	-76.0	4.7
2026-01-04 08:56:21.941547	236.0	12.7	-74.9	0.7
2026-01-04 08:56:23.068836	235.9	12.6	-76.0	5.6
2026-01-04 08:56:24.196250	235.8	12.5	-76.2	5.1
2026-01-04 08:56:25.320801	235.7	12.4	-75.6	0.0
2026-01-04 08:56:26.449848	235.6	12.3	-76.1	3.8
2026-01-04 08:56:27.574651	235.5	12.2	-76.1	5.0
2026-01-04 08:56:28.700292	235.4	12.1	-76.2	5.1
2026-01-04 08:56:29.826345	235.3	12.0	-76.1	5.5
2026-01-04 08:56:30.952264	235.2	12.0	-75.7	5.2
2026-01-04 08:56:32.079156	235.2	11.9	-76.0	5.7
2026-01-04 08:56:33.207421	235.1	11.8	-75.1	4.0
2026-01-04 08:56:34.333785	235.0	11.7	-76.2	3.3
2026-01-04 08:56:35.458228	234.9	11.6	-75.6	4.7
2026-01-04 08:56:36.585201	234.8	11.5	-75.6	4.6
2026-01-04 08:56:37.710499	234.7	11.4	-75.9	1.6
2026-01-04 08:56:38.837230	234.6	11.3	-76.0	4.3
2026-01-04 08:56:39.961930	234.5	11.2	-76.0	6.1
2026-01-04 08:56:41.087841	234.4	11.1	-75.9	5.2
2026-01-04 08:56:42.215052	234.4	11.0	-75.7	4.5
2026-01-04 08:56:43.339784	234.3	10.9	-75.9	5.5
2026-01-04 08:56:44.466617	234.2	10.8	-76.3	6.3
2026-01-04 08:56:45.592112	234.1	10.7	-76.6	5.5
2026-01-04 08:56:46.719667	234.0	10.6	-77.3	4.5
2026-01-04 08:56:47.846276	233.9	10.5	-78.8	4.0
2026-01-04 08:56:48.973086	233.9	10.4	-79.6	0.0
2026-01-04 08:56:50.101576	233.8	10.3	-80.3	0.0
2026-01-04 08:56:51.228255	233.7	10.3	-80.7	0.0
2026-01-04 08:56:52.354246	233.6	10.2	-80.8	0.0
2026-01-04 08:56:53.481308	233.5	10.1	-81.0	0.0
#Closed at: 2026-01-04 08:46:57.144295