passes_logs/2026/01/04/planumMaritime01/planumMaritime01__20260104_165716_METOP-C_rec.log

#Pass ID: 20260104_165716_METOP-C
#Satellite: METOP-C
#Configuration: METOP-C
#Start time: 2026-01-04 16:57:21.186697

#LorettStation: 1.0.0 05.05.2024
#Station: planumMaritime01
#Location: 37.49445 lon 55.92918 lat
#TLE: 1 43689U 18087A   26003.64214103  .00000255  00000+0  13641-3 0  9995
#TLE: 2 43689  98.6897  66.0725 0000140 327.1769  32.9399 14.21494298371454

#Time	Az	El	Level	SNR
2026-01-04 16:57:23.361192	121.3	10.2	-76.8	0.0
2026-01-04 16:57:24.488149	121.2	10.3	-76.0	0.0
2026-01-04 16:57:25.614650	121.1	10.3	-76.0	0.0
2026-01-04 16:57:26.740903	121.0	10.4	-75.7	0.0
2026-01-04 16:57:27.867395	120.9	10.5	-75.0	0.0
2026-01-04 16:57:28.993440	120.8	10.6	-74.9	2.4
2026-01-04 16:57:30.120255	120.7	10.7	-75.2	1.8
2026-01-04 16:57:31.248446	120.6	10.8	-75.0	2.0
2026-01-04 16:57:32.373920	120.6	10.9	-74.2	1.8
2026-01-04 16:57:33.501401	120.5	11.0	-74.4	3.1
2026-01-04 16:57:34.627298	120.4	11.1	-74.2	1.3
2026-01-04 16:57:35.754310	120.3	11.2	-73.3	2.1
2026-01-04 16:57:36.880912	120.2	11.3	-73.9	1.8
2026-01-04 16:57:38.008381	120.1	11.4	-74.0	3.6
2026-01-04 16:57:39.135585	120.0	11.4	-73.5	1.9
2026-01-04 16:57:40.261234	119.9	11.5	-73.2	2.6
2026-01-04 16:57:41.387330	119.8	11.6	-73.0	1.1
2026-01-04 16:57:42.513046	119.7	11.7	-73.8	2.4
2026-01-04 16:57:43.640218	119.6	11.8	-73.4	2.8
2026-01-04 16:57:44.767472	119.5	11.9	-72.9	1.3
2026-01-04 16:57:45.893111	119.4	12.0	-74.1	2.8
2026-01-04 16:57:47.020351	119.3	12.1	-73.1	2.0
2026-01-04 16:57:48.148585	119.1	12.2	-74.0	2.8
2026-01-04 16:57:49.275396	119.0	12.3	-74.0	3.3
2026-01-04 16:57:50.401832	118.9	12.4	-73.9	1.8
2026-01-04 16:57:51.529141	118.8	12.5	-74.3	0.0
2026-01-04 16:57:52.657234	118.7	12.6	-73.6	3.9
2026-01-04 16:57:53.784829	118.6	12.7	-73.9	0.1
2026-01-04 16:57:54.910233	118.5	12.8	-74.0	3.6
2026-01-04 16:57:56.036454	118.4	12.9	-74.0	2.4
2026-01-04 16:57:57.162377	118.3	13.0	-74.2	3.7
2026-01-04 16:57:58.290835	118.2	13.1	-74.6	3.5
2026-01-04 16:57:59.417114	118.1	13.2	-73.7	3.2
2026-01-04 16:58:00.542187	117.9	13.3	-73.9	4.6
2026-01-04 16:58:01.669813	117.8	13.4	-74.5	4.8
2026-01-04 16:58:02.796403	117.7	13.4	-73.9	3.5
2026-01-04 16:58:03.925452	117.6	13.5	-73.7	4.1
2026-01-04 16:58:05.051818	117.5	13.6	-73.0	1.2
2026-01-04 16:58:06.178067	117.4	13.7	-74.0	4.2
2026-01-04 16:58:07.304771	117.3	13.8	-74.1	4.8
2026-01-04 16:58:08.432034	117.1	13.9	-73.9	2.9
2026-01-04 16:58:09.559234	117.0	14.0	-73.7	4.0
2026-01-04 16:58:10.686878	116.9	14.1	-73.9	2.0
2026-01-04 16:58:11.813998	116.8	14.2	-73.2	0.9
2026-01-04 16:58:12.941682	116.7	14.3	-74.1	4.0
2026-01-04 16:58:14.067026	116.5	14.4	-73.7	4.6
2026-01-04 16:58:15.194665	116.4	14.5	-73.6	3.4
2026-01-04 16:58:16.321823	116.3	14.7	-73.7	5.1
2026-01-04 16:58:17.448340	116.2	14.8	-73.7	4.2
2026-01-04 16:58:18.575827	116.0	14.9	-73.9	3.3
2026-01-04 16:58:19.702490	115.9	15.0	-73.4	2.0
2026-01-04 16:58:20.828117	115.8	15.1	-72.9	2.6
2026-01-04 16:58:21.952330	115.7	15.2	-74.3	3.0
2026-01-04 16:58:23.078026	115.5	15.3	-73.1	3.1
2026-01-04 16:58:24.205868	115.4	15.4	-73.9	4.0
2026-01-04 16:58:25.332227	115.3	15.5	-73.4	3.5
2026-01-04 16:58:26.458847	115.1	15.6	-73.7	2.8
2026-01-04 16:58:27.587956	115.0	15.7	-73.5	2.0
2026-01-04 16:58:28.712982	114.9	15.8	-73.7	2.2
2026-01-04 16:58:29.839817	114.7	15.9	-73.7	0.8
2026-01-04 16:58:30.966718	114.6	16.0	-73.7	3.7
2026-01-04 16:58:32.093165	114.5	16.1	-73.5	3.8
2026-01-04 16:58:33.218866	114.3	16.2	-72.3	2.7
2026-01-04 16:58:34.345287	114.2	16.3	-74.0	5.0
2026-01-04 16:58:35.471948	114.0	16.4	-73.3	1.5
2026-01-04 16:58:36.596514	113.9	16.5	-73.2	0.0
2026-01-04 16:58:37.722638	113.8	16.6	-72.7	0.0
2026-01-04 16:58:38.849546	113.6	16.7	-73.8	4.6
2026-01-04 16:58:39.975564	113.5	16.9	-73.9	4.4
2026-01-04 16:58:41.102694	113.3	17.0	-73.6	1.4
2026-01-04 16:58:42.232442	113.2	17.1	-74.1	3.1
2026-01-04 16:58:43.358970	113.0	17.2	-73.9	3.9
2026-01-04 16:58:44.485419	112.9	17.3	-72.8	0.0
2026-01-04 16:58:45.610279	112.7	17.4	-73.2	0.8
2026-01-04 16:58:46.735985	112.6	17.5	-71.9	0.0
2026-01-04 16:58:47.863548	112.4	17.6	-74.3	3.4
2026-01-04 16:58:48.988372	112.3	17.7	-74.5	3.9
2026-01-04 16:58:50.114873	112.1	17.8	-74.8	4.7
2026-01-04 16:58:51.242305	112.0	18.0	-72.8	0.2
2026-01-04 16:58:52.371012	111.8	18.1	-73.2	2.3
2026-01-04 16:58:53.497097	111.7	18.2	-72.9	0.0
2026-01-04 16:58:54.623007	111.5	18.3	-73.9	1.6
2026-01-04 16:58:55.750570	111.3	18.4	-73.2	0.0
2026-01-04 16:58:56.877485	111.2	18.5	-74.0	3.6
2026-01-04 16:58:58.005648	111.0	18.6	-74.7	4.9
2026-01-04 16:58:59.130512	110.8	18.7	-74.6	3.4
2026-01-04 16:59:00.259966	110.7	18.8	-74.5	3.7
2026-01-04 16:59:01.387284	110.5	19.0	-74.1	0.9
2026-01-04 16:59:02.515148	110.3	19.1	-74.1	4.4
2026-01-04 16:59:03.641602	110.2	19.2	-73.6	1.0
2026-01-04 16:59:04.768970	110.0	19.3	-73.0	2.8
2026-01-04 16:59:05.894166	109.8	19.4	-72.8	2.3
2026-01-04 16:59:07.021691	109.7	19.5	-73.4	5.0
2026-01-04 16:59:08.150612	109.5	19.6	-73.0	2.5
2026-01-04 16:59:09.278282	109.3	19.8	-74.2	4.7
2026-01-04 16:59:10.404002	109.1	19.9	-73.9	5.3
2026-01-04 16:59:11.533431	109.0	20.0	-73.6	5.1
2026-01-04 16:59:12.658742	108.8	20.1	-73.9	5.7
2026-01-04 16:59:13.786115	108.6	20.2	-72.9	3.8
2026-01-04 16:59:14.911694	108.4	20.3	-72.8	4.8
2026-01-04 16:59:16.040189	108.2	20.5	-73.4	4.4
2026-01-04 16:59:17.166884	108.1	20.6	-72.7	3.5
2026-01-04 16:59:18.296425	107.9	20.7	-72.9	5.4
2026-01-04 16:59:19.423137	107.7	20.8	-73.1	5.4
2026-01-04 16:59:20.549502	107.5	20.9	-72.2	1.9
2026-01-04 16:59:21.674487	107.3	21.0	-71.3	0.3
2026-01-04 16:59:22.799744	107.1	21.2	-72.4	2.2
2026-01-04 16:59:23.930006	106.9	21.3	-72.8	4.0
2026-01-04 16:59:25.057935	106.7	21.4	-72.9	5.6
2026-01-04 16:59:26.185251	106.5	21.5	-73.3	5.9
2026-01-04 16:59:27.310973	106.3	21.6	-71.9	1.0
2026-01-04 16:59:28.436917	106.1	21.8	-72.3	4.4
2026-01-04 16:59:29.565745	105.9	21.9	-73.1	6.6
2026-01-04 16:59:30.693918	105.7	22.0	-73.1	5.7
2026-01-04 16:59:31.819366	105.5	22.1	-72.9	5.7
2026-01-04 16:59:32.945284	105.3	22.2	-72.2	3.3
2026-01-04 16:59:34.071653	105.1	22.4	-71.7	3.2
2026-01-04 16:59:35.199473	104.9	22.5	-72.5	4.2
2026-01-04 16:59:36.327464	104.7	22.6	-73.0	5.0
2026-01-04 16:59:37.454143	104.5	22.7	-72.3	3.8
2026-01-04 16:59:38.578720	104.3	22.8	-72.2	4.0
2026-01-04 16:59:39.704066	104.0	23.0	-73.2	6.6
2026-01-04 16:59:40.831219	103.8	23.1	-72.3	3.2
2026-01-04 16:59:41.957824	103.6	23.2	-72.7	5.2
2026-01-04 16:59:43.083603	103.4	23.3	-72.6	5.5
2026-01-04 16:59:44.209016	103.2	23.4	-72.3	3.7
2026-01-04 16:59:45.335280	102.9	23.6	-72.2	4.9
2026-01-04 16:59:46.461959	102.7	23.7	-72.7	5.8
2026-01-04 16:59:47.589802	102.5	23.8	-72.8	4.5
2026-01-04 16:59:48.718824	102.3	23.9	-72.7	6.4
2026-01-04 16:59:49.844782	102.0	24.0	-72.7	5.9
2026-01-04 16:59:50.974187	101.8	24.2	-72.1	6.5
2026-01-04 16:59:52.100311	101.6	24.3	-72.5	4.5
2026-01-04 16:59:53.227802	101.3	24.4	-72.0	3.7
2026-01-04 16:59:54.354610	101.1	24.5	-71.9	5.6
2026-01-04 16:59:55.483854	100.8	24.7	-71.8	4.9
2026-01-04 16:59:56.611419	100.6	24.8	-71.6	4.8
2026-01-04 16:59:57.738710	100.3	24.9	-71.7	6.5
2026-01-04 16:59:58.864632	100.1	25.0	-72.5	7.1
2026-01-04 16:59:59.990292	99.9	25.1	-71.8	7.8
2026-01-04 17:00:01.119034	99.6	25.3	-71.6	4.4
2026-01-04 17:00:02.244196	99.4	25.4	-71.2	5.6
2026-01-04 17:00:03.370592	99.1	25.5	-71.9	6.5
2026-01-04 17:00:04.496256	98.8	25.6	-71.5	6.5
2026-01-04 17:00:05.622556	98.6	25.7	-71.8	4.4
2026-01-04 17:00:06.751107	98.3	25.9	-71.5	5.2
2026-01-04 17:00:07.882479	98.1	26.0	-72.1	6.7
2026-01-04 17:00:09.008586	97.8	26.1	-72.0	6.6
2026-01-04 17:00:10.134164	97.5	26.2	-72.5	6.6
2026-01-04 17:00:11.261097	97.3	26.4	-72.1	6.6
2026-01-04 17:00:12.388093	97.0	26.5	-71.7	5.0
2026-01-04 17:00:13.515657	96.7	26.6	-72.4	7.1
2026-01-04 17:00:14.641224	96.4	26.7	-72.0	5.8
2026-01-04 17:00:15.766964	96.2	26.8	-71.5	4.6
2026-01-04 17:00:16.892682	95.9	27.0	-71.7	6.0
2026-01-04 17:00:18.018463	95.6	27.1	-71.5	5.1
2026-01-04 17:00:19.143973	95.3	27.2	-72.7	5.6
2026-01-04 17:00:20.268785	95.0	27.3	-72.2	5.9
2026-01-04 17:00:21.395481	94.8	27.4	-72.1	4.2
2026-01-04 17:00:22.522615	94.5	27.5	-72.8	7.6
2026-01-04 17:00:23.648510	94.2	27.7	-72.2	7.0
2026-01-04 17:00:24.773829	93.9	27.8	-72.6	6.4
2026-01-04 17:00:25.900020	93.6	27.9	-72.5	4.9
2026-01-04 17:00:27.026405	93.3	28.0	-72.8	5.3
2026-01-04 17:00:28.153011	93.0	28.1	-73.0	6.4
2026-01-04 17:00:29.278987	92.7	28.3	-71.6	3.0
2026-01-04 17:00:30.405457	92.4	28.4	-71.8	4.4
2026-01-04 17:00:31.532918	92.1	28.5	-72.0	4.2
2026-01-04 17:00:32.659855	91.8	28.6	-72.0	4.3
2026-01-04 17:00:33.788712	91.5	28.7	-72.0	2.7
2026-01-04 17:00:34.915618	91.1	28.8	-71.4	2.9
2026-01-04 17:00:36.042782	90.8	28.9	-71.6	5.0
2026-01-04 17:00:37.170446	90.5	29.1	-71.8	4.9
2026-01-04 17:00:38.296904	90.2	29.2	-71.5	3.7
2026-01-04 17:00:39.424801	89.9	29.3	-70.9	2.1
2026-01-04 17:00:40.549650	89.5	29.4	-71.7	4.3
2026-01-04 17:00:41.675419	89.2	29.5	-71.6	5.3
2026-01-04 17:00:42.799888	88.9	29.6	-71.1	2.4
2026-01-04 17:00:43.925738	88.6	29.7	-71.5	3.4
2026-01-04 17:00:45.052191	88.2	29.8	-71.4	4.5
2026-01-04 17:00:46.177012	87.9	29.9	-71.0	3.5
2026-01-04 17:00:47.303000	87.5	30.0	-71.1	5.8
2026-01-04 17:00:48.430302	87.2	30.2	-71.4	4.9
2026-01-04 17:00:49.557066	86.9	30.3	-71.5	4.4
2026-01-04 17:00:50.683773	86.5	30.4	-71.0	2.7
2026-01-04 17:00:51.810267	86.2	30.5	-71.0	3.4
2026-01-04 17:00:52.936293	85.8	30.6	-72.2	4.5
2026-01-04 17:00:54.063040	85.5	30.7	-72.4	6.5
2026-01-04 17:00:55.190142	85.1	30.8	-70.6	0.0
2026-01-04 17:00:56.316791	84.8	30.9	-72.4	5.7
2026-01-04 17:00:57.443729	84.4	31.0	-71.3	5.6
2026-01-04 17:00:58.568539	84.0	31.1	-71.4	1.6
2026-01-04 17:00:59.694727	83.7	31.2	-71.0	2.9
2026-01-04 17:01:00.822339	83.3	31.3	-72.2	5.6
2026-01-04 17:01:01.948584	82.9	31.4	-72.9	8.7
2026-01-04 17:01:03.073291	82.6	31.5	-72.7	5.1
2026-01-04 17:01:04.200038	82.2	31.6	-72.3	4.4
2026-01-04 17:01:05.326058	81.8	31.7	-71.3	3.2
2026-01-04 17:01:06.453592	81.5	31.7	-72.5	5.7
2026-01-04 17:01:07.580714	81.1	31.8	-71.7	5.6
2026-01-04 17:01:08.710385	80.7	31.9	-70.9	5.3
2026-01-04 17:01:09.835917	80.3	32.0	-71.7	5.9
2026-01-04 17:01:10.963069	79.9	32.1	-69.5	4.8
2026-01-04 17:01:12.090422	79.5	32.2	-71.4	6.4
2026-01-04 17:01:13.219359	79.2	32.3	-70.8	6.4
2026-01-04 17:01:14.348301	78.8	32.4	-71.2	3.0
2026-01-04 17:01:15.474603	78.4	32.4	-69.9	0.0
2026-01-04 17:01:16.600847	78.0	32.5	-70.4	4.8
2026-01-04 17:01:17.727391	77.6	32.6	-69.9	2.6
2026-01-04 17:01:18.854289	77.2	32.7	-71.1	0.0
2026-01-04 17:01:19.979607	76.8	32.8	-71.0	5.1
2026-01-04 17:01:21.108798	76.4	32.8	-70.7	4.3
2026-01-04 17:01:22.234788	76.0	32.9	-70.4	6.9
2026-01-04 17:01:23.362189	75.6	33.0	-70.9	5.9
2026-01-04 17:01:24.489998	75.2	33.1	-70.7	7.1
2026-01-04 17:01:25.617116	74.7	33.1	-69.8	2.9
2026-01-04 17:01:26.742782	74.3	33.2	-70.6	4.7
2026-01-04 17:01:27.868339	73.9	33.3	-70.5	2.6
2026-01-04 17:01:28.995071	73.5	33.3	-70.6	3.8
2026-01-04 17:01:30.121582	73.1	33.4	-70.1	3.4
2026-01-04 17:01:31.248277	72.7	33.5	-70.7	5.6
2026-01-04 17:01:32.377469	72.3	33.5	-69.5	2.3
2026-01-04 17:01:33.503484	71.8	33.6	-70.7	3.8
2026-01-04 17:01:34.630559	71.4	33.6	-70.8	5.2
2026-01-04 17:01:35.758099	71.0	33.7	-70.1	6.0
2026-01-04 17:01:36.885281	70.6	33.7	-70.2	5.5
2026-01-04 17:01:38.009761	70.1	33.8	-69.7	2.8
2026-01-04 17:01:39.137327	69.7	33.8	-70.4	3.0
2026-01-04 17:01:40.264432	69.3	33.9	-69.2	1.8
2026-01-04 17:01:41.390672	68.8	33.9	-66.9	0.0
2026-01-04 17:01:42.519033	68.4	34.0	-68.7	1.6
2026-01-04 17:01:43.646111	68.0	34.0	-69.0	0.0
2026-01-04 17:01:44.771721	67.5	34.1	-69.5	4.4
2026-01-04 17:01:45.897066	67.1	34.1	-69.3	3.0
2026-01-04 17:01:47.024862	66.7	34.1	-69.5	5.1
2026-01-04 17:01:48.153024	66.2	34.2	-70.9	6.5
2026-01-04 17:01:49.282952	65.8	34.2	-70.0	4.7
2026-01-04 17:01:50.409348	65.4	34.2	-69.3	4.5
2026-01-04 17:01:51.536595	64.9	34.3	-69.2	3.8
2026-01-04 17:01:52.663242	64.5	34.3	-68.2	0.0
2026-01-04 17:01:53.789364	64.0	34.3	-68.9	0.0
2026-01-04 17:01:54.914030	63.6	34.4	-67.5	0.0
2026-01-04 17:01:56.040241	63.1	34.4	-68.9	0.0
2026-01-04 17:01:57.166289	62.7	34.4	-69.5	3.3
2026-01-04 17:01:58.292783	62.3	34.4	-70.9	3.8
2026-01-04 17:01:59.418576	61.8	34.4	-68.8	1.5
2026-01-04 17:02:00.545104	61.4	34.5	-68.8	0.0
2026-01-04 17:02:01.672474	60.9	34.5	-68.4	0.0
2026-01-04 17:02:02.798621	60.5	34.5	-68.7	2.5
2026-01-04 17:02:03.924140	60.0	34.5	-69.3	1.4
2026-01-04 17:02:05.050354	59.6	34.5	-68.6	0.0
2026-01-04 17:02:06.178779	59.1	34.5	-68.5	1.2
2026-01-04 17:02:07.306304	58.7	34.5	-68.2	0.0
2026-01-04 17:02:08.431618	58.2	34.5	-68.6	0.8
2026-01-04 17:02:09.558414	57.8	34.5	-68.0	0.8
2026-01-04 17:02:10.684147	57.4	34.5	-69.3	0.0
2026-01-04 17:02:11.810790	56.9	34.5	-68.5	0.0
2026-01-04 17:02:12.937547	56.5	34.5	-68.0	0.0
2026-01-04 17:02:14.063604	56.0	34.5	-66.6	0.0
2026-01-04 17:02:15.189279	55.6	34.5	-68.4	0.0
2026-01-04 17:02:16.314494	55.1	34.5	-68.0	0.0
2026-01-04 17:02:17.438928	54.7	34.4	-67.4	0.0
2026-01-04 17:02:18.564824	54.2	34.4	-68.5	0.5
2026-01-04 17:02:19.692605	53.8	34.4	-67.7	0.0
2026-01-04 17:02:20.818277	53.3	34.4	-66.8	0.0
2026-01-04 17:02:21.947384	52.9	34.4	-69.0	1.7
2026-01-04 17:02:23.075196	52.5	34.3	-67.1	0.0
2026-01-04 17:02:24.201679	52.0	34.3	-68.2	0.0
2026-01-04 17:02:25.328348	51.6	34.3	-68.1	0.0
2026-01-04 17:02:26.455653	51.1	34.3	-67.6	0.0
2026-01-04 17:02:27.580350	50.7	34.2	-68.7	1.0
2026-01-04 17:02:28.706951	50.3	34.2	-68.4	2.1
2026-01-04 17:02:29.834142	49.8	34.2	-68.2	2.0
2026-01-04 17:02:30.958699	49.4	34.1	-67.8	0.0
2026-01-04 17:02:32.085098	49.0	34.1	-67.7	0.0
2026-01-04 17:02:33.210497	48.5	34.0	-68.5	0.9
2026-01-04 17:02:34.342270	48.1	34.0	-68.6	0.9
2026-01-04 17:02:35.468374	47.6	34.0	-68.7	0.0
2026-01-04 17:02:36.594743	47.2	33.9	-66.6	0.0
2026-01-04 17:02:37.722417	46.8	33.9	-67.9	0.0
2026-01-04 17:02:38.849298	46.4	33.8	-68.2	0.4
2026-01-04 17:02:39.976907	45.9	33.8	-67.7	0.0
2026-01-04 17:02:41.102599	45.5	33.7	-68.5	0.0
2026-01-04 17:02:42.230876	45.1	33.7	-68.2	1.6
2026-01-04 17:02:43.356946	44.7	33.6	-68.2	2.1
2026-01-04 17:02:44.483728	44.2	33.5	-67.6	0.0
2026-01-04 17:02:45.610275	43.8	33.5	-67.9	0.0
2026-01-04 17:02:46.735497	43.4	33.4	-65.5	0.0
2026-01-04 17:02:47.861433	43.0	33.4	-67.1	0.0
2026-01-04 17:02:48.987119	42.6	33.3	-66.1	0.0
2026-01-04 17:02:50.116864	42.2	33.2	-65.9	0.0
2026-01-04 17:02:51.242407	41.7	33.2	-62.3	0.0
2026-01-04 17:02:52.372741	41.3	33.1	-65.4	0.0
2026-01-04 17:02:53.499815	40.9	33.0	-66.5	0.0
2026-01-04 17:02:54.626389	40.5	32.9	-66.8	0.0
2026-01-04 17:02:55.753407	40.1	32.9	-67.5	0.0
2026-01-04 17:02:56.882848	39.7	32.8	-67.2	0.0
2026-01-04 17:02:58.009976	39.3	32.7	-67.4	0.0
2026-01-04 17:02:59.138641	38.9	32.6	-65.5	0.0
2026-01-04 17:03:00.266482	38.5	32.6	-66.2	0.0
2026-01-04 17:03:01.391951	38.1	32.5	-66.8	0.0
2026-01-04 17:03:02.519371	37.7	32.4	-67.1	0.0
2026-01-04 17:03:03.647442	37.3	32.3	-65.8	0.0
2026-01-04 17:03:04.780223	37.0	32.2	-66.5	0.0
2026-01-04 17:03:05.904814	36.6	32.1	-66.7	0.0
2026-01-04 17:03:07.031507	36.2	32.1	-66.4	0.0
2026-01-04 17:03:08.157802	35.8	32.0	-65.0	0.0
2026-01-04 17:03:09.286695	35.4	31.9	-67.3	0.0
2026-01-04 17:03:10.412298	35.0	31.8	-67.0	0.0
2026-01-04 17:03:11.539117	34.7	31.7	-65.7	0.0
2026-01-04 17:03:12.664020	34.3	31.6	-66.5	0.0
2026-01-04 17:03:13.792293	33.9	31.5	-67.8	0.0
2026-01-04 17:03:14.918390	33.6	31.4	-64.9	0.0
2026-01-04 17:03:16.045826	33.2	31.3	-65.9	0.0
2026-01-04 17:03:17.173173	32.8	31.2	-65.5	0.0
2026-01-04 17:03:18.300202	32.5	31.1	-65.7	0.0
2026-01-04 17:03:19.425008	32.1	31.0	-65.4	0.0
2026-01-04 17:03:20.550689	31.7	30.9	-64.2	0.0
2026-01-04 17:03:21.680129	31.4	30.8	-65.9	0.0
2026-01-04 17:03:22.807865	31.0	30.7	-65.9	0.0
2026-01-04 17:03:23.934618	30.7	30.6	-65.4	0.0
2026-01-04 17:03:25.063437	30.3	30.5	-66.3	0.0
2026-01-04 17:03:26.191686	30.0	30.4	-64.9	0.0
2026-01-04 17:03:27.318686	29.6	30.3	-62.9	0.0
2026-01-04 17:03:28.447084	29.3	30.2	-62.7	0.0
2026-01-04 17:03:29.574148	29.0	30.1	-63.3	0.0
2026-01-04 17:03:30.702737	28.6	30.0	-65.9	0.0
2026-01-04 17:03:31.829103	28.3	29.9	-64.7	0.0
2026-01-04 17:03:32.957134	27.9	29.8	-65.0	0.0
2026-01-04 17:03:34.082890	27.6	29.7	-63.7	0.0
2026-01-04 17:03:35.208118	27.3	29.6	-63.9	0.0
2026-01-04 17:03:36.335229	27.0	29.4	-64.5	0.0
2026-01-04 17:03:37.462900	26.6	29.3	-62.0	0.0
2026-01-04 17:03:38.590065	26.3	29.2	-63.3	0.0
2026-01-04 17:03:39.717471	26.0	29.1	-63.4	0.0
2026-01-04 17:03:40.843283	25.7	29.0	-62.3	0.0
2026-01-04 17:03:41.969842	25.4	28.9	-62.3	0.0
2026-01-04 17:03:43.095662	25.0	28.8	-64.3	0.0
2026-01-04 17:03:44.223414	24.7	28.7	-63.8	0.0
2026-01-04 17:03:45.349946	24.4	28.5	-65.1	0.0
2026-01-04 17:03:46.477251	24.1	28.4	-63.5	0.0
2026-01-04 17:03:47.603875	23.8	28.3	-63.5	0.0
2026-01-04 17:03:48.732904	23.5	28.2	-62.3	0.0
2026-01-04 17:03:49.858647	23.2	28.1	-64.4	0.0
2026-01-04 17:03:50.984198	22.9	28.0	-62.2	0.0
2026-01-04 17:03:52.113595	22.6	27.8	-60.7	0.0
2026-01-04 17:03:53.238851	22.3	27.7	-62.2	0.0
2026-01-04 17:03:54.367681	22.0	27.6	-64.8	0.0
2026-01-04 17:03:55.494609	21.7	27.5	-62.5	0.0
2026-01-04 17:03:56.621290	21.5	27.4	-62.6	0.0
2026-01-04 17:03:57.748767	21.2	27.3	-62.1	0.0
2026-01-04 17:03:58.875937	20.9	27.1	-63.9	0.0
2026-01-04 17:04:00.001378	20.6	27.0	-63.2	0.0
2026-01-04 17:04:01.128726	20.3	26.9	-61.8	0.0
2026-01-04 17:04:02.257371	20.1	26.8	-62.0	0.0
2026-01-04 17:04:03.385460	19.8	26.7	-62.4	0.0
2026-01-04 17:04:04.511187	19.5	26.5	-65.5	0.0
2026-01-04 17:04:05.636002	19.2	26.4	-65.5	0.0
2026-01-04 17:04:06.762803	19.0	26.3	-64.7	0.0
2026-01-04 17:04:07.890238	18.7	26.2	-65.2	0.0
2026-01-04 17:04:09.018247	18.4	26.1	-62.3	0.0
2026-01-04 17:04:10.144258	18.2	25.9	-63.9	0.0
2026-01-04 17:04:11.273401	17.9	25.8	-63.0	0.0
2026-01-04 17:04:12.399879	17.7	25.7	-63.8	0.0
2026-01-04 17:04:13.528195	17.4	25.6	-66.2	0.0
2026-01-04 17:04:14.654445	17.2	25.5	-63.4	0.0
2026-01-04 17:04:15.782409	16.9	25.3	-64.4	0.0
2026-01-04 17:04:16.909527	16.7	25.2	-62.6	0.0
2026-01-04 17:04:18.038238	16.4	25.1	-63.8	0.0
2026-01-04 17:04:19.166242	16.2	25.0	-63.2	0.0
2026-01-04 17:04:20.290575	15.9	24.9	-63.7	0.0
2026-01-04 17:04:21.416402	15.7	24.7	-62.8	0.0
2026-01-04 17:04:22.543482	15.4	24.6	-64.5	0.0
2026-01-04 17:04:23.667636	15.2	24.5	-62.5	0.0
2026-01-04 17:04:24.794436	15.0	24.4	-63.6	0.0
2026-01-04 17:04:25.919343	14.7	24.2	-63.6	0.0
2026-01-04 17:04:27.045447	14.5	24.1	-61.8	0.0
2026-01-04 17:04:28.172000	14.3	24.0	-64.1	0.0
2026-01-04 17:04:29.299762	14.0	23.9	-63.9	0.0
2026-01-04 17:04:30.424887	13.8	23.8	-62.3	0.0
2026-01-04 17:04:31.550682	13.6	23.6	-63.6	0.0
2026-01-04 17:04:32.677150	13.4	23.5	-63.9	0.0
2026-01-04 17:04:33.802672	13.1	23.4	-63.8	0.0
2026-01-04 17:04:34.929650	12.9	23.3	-59.9	0.0
2026-01-04 17:04:36.055755	12.7	23.2	-64.8	0.0
2026-01-04 17:04:37.181605	12.5	23.0	-64.6	0.0
2026-01-04 17:04:38.310701	12.3	22.9	-63.9	0.0
2026-01-04 17:04:39.437646	12.1	22.8	-63.2	0.0
2026-01-04 17:04:40.563991	11.8	22.7	-64.9	0.0
2026-01-04 17:04:41.692369	11.6	22.6	-65.1	0.0
2026-01-04 17:04:42.818202	11.4	22.4	-65.9	0.0
2026-01-04 17:04:43.944281	11.2	22.3	-65.9	0.0
2026-01-04 17:04:45.071467	11.0	22.2	-64.9	0.0
2026-01-04 17:04:46.197505	10.8	22.1	-65.4	0.0
2026-01-04 17:04:47.326376	10.6	22.0	-64.5	0.0
2026-01-04 17:04:48.452911	10.4	21.8	-62.1	0.0
2026-01-04 17:04:49.579262	10.2	21.7	-63.9	0.0
2026-01-04 17:04:50.708827	10.0	21.6	-65.5	0.0
2026-01-04 17:04:51.834501	9.8	21.5	-61.1	0.0
2026-01-04 17:04:52.959938	9.6	21.4	-66.0	0.0
2026-01-04 17:04:54.086044	9.4	21.3	-65.4	0.0
2026-01-04 17:04:55.212314	9.2	21.1	-65.3	0.0
2026-01-04 17:04:56.338742	9.0	21.0	-64.7	0.0
2026-01-04 17:04:57.464358	8.9	20.9	-64.1	0.0
2026-01-04 17:04:58.591572	8.7	20.8	-64.6	0.0
2026-01-04 17:04:59.717834	8.5	20.7	-65.6	0.0
2026-01-04 17:05:00.845140	8.3	20.6	-65.0	0.0
2026-01-04 17:05:01.971120	8.1	20.4	-65.9	0.0
2026-01-04 17:05:03.097018	7.9	20.3	-64.4	0.0
2026-01-04 17:05:04.224576	7.8	20.2	-65.0	0.0
2026-01-04 17:05:05.352967	7.6	20.1	-64.3	0.0
2026-01-04 17:05:06.479215	7.4	20.0	-66.0	0.0
2026-01-04 17:05:07.612008	7.2	19.9	-65.8	0.0
2026-01-04 17:05:08.737094	7.1	19.7	-63.6	0.0
2026-01-04 17:05:09.865547	6.9	19.6	-62.9	0.0
2026-01-04 17:05:10.992045	6.7	19.5	-63.0	0.0
2026-01-04 17:05:12.119379	6.5	19.4	-63.2	0.0
2026-01-04 17:05:13.243754	6.4	19.3	-64.5	0.0
2026-01-04 17:05:14.369888	6.2	19.2	-63.2	0.0
2026-01-04 17:05:15.496771	6.0	19.1	-63.4	0.0
2026-01-04 17:05:16.623180	5.9	19.0	-64.5	0.0
2026-01-04 17:05:17.749299	5.7	18.8	-65.5	0.0
2026-01-04 17:05:18.873837	5.5	18.7	-63.7	0.0
2026-01-04 17:05:20.000525	5.4	18.6	-64.3	0.0
2026-01-04 17:05:21.126477	5.2	18.5	-63.9	0.0
2026-01-04 17:05:22.252488	5.1	18.4	-65.1	0.0
2026-01-04 17:05:23.379780	4.9	18.3	-66.9	0.0
2026-01-04 17:05:24.504610	4.7	18.2	-65.9	0.0
2026-01-04 17:05:25.632075	4.6	18.1	-65.9	0.0
2026-01-04 17:05:26.756446	4.4	17.9	-65.7	0.0
2026-01-04 17:05:27.883236	4.3	17.8	-63.4	0.0
2026-01-04 17:05:29.010760	4.1	17.7	-65.0	0.0
2026-01-04 17:05:30.139716	4.0	17.6	-65.7	0.0
2026-01-04 17:05:31.266772	3.8	17.5	-66.2	0.0
2026-01-04 17:05:32.395769	3.7	17.4	-66.8	0.0
2026-01-04 17:05:33.523293	3.5	17.3	-65.6	0.0
2026-01-04 17:05:34.651460	3.4	17.2	-66.9	0.0
2026-01-04 17:05:35.778915	3.2	17.1	-65.3	0.0
2026-01-04 17:05:36.903085	3.1	17.0	-67.1	0.0
2026-01-04 17:05:38.031054	3.0	16.9	-66.0	0.0
2026-01-04 17:05:39.159161	2.8	16.8	-66.0	0.0
2026-01-04 17:05:40.286579	2.7	16.6	-65.0	0.0
2026-01-04 17:05:41.413681	2.5	16.5	-64.9	0.0
2026-01-04 17:05:42.540511	2.4	16.4	-65.0	0.0
2026-01-04 17:05:43.670642	2.2	16.3	-64.7	0.0
2026-01-04 17:05:44.798306	2.1	16.2	-66.4	0.0
2026-01-04 17:05:45.925053	2.0	16.1	-65.7	0.0
2026-01-04 17:05:47.052351	1.8	16.0	-65.7	0.0
2026-01-04 17:05:48.180512	1.7	15.9	-67.3	0.0
2026-01-04 17:05:49.306800	1.6	15.8	-66.6	0.0
2026-01-04 17:05:50.435387	1.4	15.7	-66.1	0.0
2026-01-04 17:05:51.561670	1.3	15.6	-65.6	0.0
2026-01-04 17:05:52.688957	1.2	15.5	-64.8	0.0
2026-01-04 17:05:53.817553	1.0	15.4	-65.1	0.0
2026-01-04 17:05:54.943245	0.9	15.3	-62.7	0.0
2026-01-04 17:05:56.070365	0.8	15.2	-64.9	0.0
2026-01-04 17:05:57.198850	0.7	15.1	-64.7	0.0
2026-01-04 17:05:58.324490	0.5	15.0	-64.5	0.0
2026-01-04 17:05:59.452569	0.4	14.9	-63.5	0.0
2026-01-04 17:06:00.578218	0.3	14.8	-65.6	0.0
2026-01-04 17:06:01.706274	0.2	14.7	-64.9	0.0
2026-01-04 17:06:02.833538	0.0	14.6	-67.6	0.0
2026-01-04 17:06:03.961309	359.9	14.5	-66.1	0.0
2026-01-04 17:06:05.087770	359.8	14.4	-63.8	0.0
2026-01-04 17:06:06.215303	359.7	14.3	-65.5	0.0
2026-01-04 17:06:07.342507	359.6	14.2	-64.8	0.0
2026-01-04 17:06:08.469204	359.4	14.1	-65.5	0.0
2026-01-04 17:06:09.595532	359.3	14.0	-67.5	0.0
2026-01-04 17:06:10.723640	359.2	13.9	-67.1	0.0
2026-01-04 17:06:11.849928	359.1	13.8	-68.1	0.0
2026-01-04 17:06:12.977682	359.0	13.7	-65.0	0.0
2026-01-04 17:06:14.104216	358.9	13.6	-68.5	0.0
2026-01-04 17:06:15.230284	358.8	13.5	-67.8	0.0
2026-01-04 17:06:16.357154	358.6	13.4	-67.2	0.0
2026-01-04 17:06:17.483267	358.5	13.3	-68.1	0.0
2026-01-04 17:06:18.609791	358.4	13.2	-68.1	0.0
2026-01-04 17:06:19.736770	358.3	13.1	-67.1	0.0
2026-01-04 17:06:20.861161	358.2	13.0	-67.4	0.0
2026-01-04 17:06:21.987591	358.1	12.9	-67.8	0.0
2026-01-04 17:06:23.114562	358.0	12.8	-68.8	0.0
2026-01-04 17:06:24.242233	357.9	12.7	-69.1	0.0
2026-01-04 17:06:25.368910	357.8	12.6	-67.5	0.0
2026-01-04 17:06:26.495507	357.7	12.5	-69.6	0.0
2026-01-04 17:06:27.621745	357.6	12.4	-67.6	0.0
2026-01-04 17:06:28.748599	357.4	12.3	-65.4	0.0
2026-01-04 17:06:29.873827	357.3	12.2	-66.6	0.0
2026-01-04 17:06:30.999704	357.2	12.1	-66.9	0.0
2026-01-04 17:06:32.128070	357.1	12.0	-64.1	0.0
2026-01-04 17:06:33.254864	357.0	11.9	-67.1	0.0
2026-01-04 17:06:34.381332	356.9	11.8	-67.1	0.0
2026-01-04 17:06:35.508652	356.8	11.8	-66.7	0.0
2026-01-04 17:06:36.633098	356.7	11.7	-66.7	0.0
2026-01-04 17:06:37.759138	356.6	11.6	-67.3	0.0
2026-01-04 17:06:38.888479	356.5	11.5	-65.0	0.0
2026-01-04 17:06:40.015349	356.4	11.4	-66.0	0.0
2026-01-04 17:06:41.144273	356.3	11.3	-66.9	0.0
2026-01-04 17:06:42.270604	356.2	11.2	-67.0	0.0
2026-01-04 17:06:43.396555	356.2	11.1	-68.3	0.0
2026-01-04 17:06:44.522803	356.1	11.0	-68.3	0.0
2026-01-04 17:06:45.649336	356.0	10.9	-67.2	0.0
2026-01-04 17:06:46.775735	355.9	10.8	-65.7	0.0
2026-01-04 17:06:47.903635	355.8	10.7	-64.1	0.0
2026-01-04 17:06:49.028292	355.7	10.7	-66.4	0.0
2026-01-04 17:06:50.153865	355.6	10.6	-65.5	0.0
2026-01-04 17:06:51.281254	355.5	10.5	-67.1	0.0
2026-01-04 17:06:52.407504	355.4	10.4	-68.2	0.0
2026-01-04 17:06:53.534896	355.3	10.3	-70.3	0.0
2026-01-04 17:06:54.660967	355.2	10.2	-72.9	0.0
2026-01-04 17:06:55.787698	355.1	10.1	-75.0	0.0
2026-01-04 17:06:56.913490	355.0	10.0	-73.7	0.0
#Closed at: 2026-01-04 16:57:16.192985