passes_logs/2026/01/04/planumMaritime01/planumMaritime01__20260104_062711_METOP-B_rec.log

#Pass ID: 20260104_062711_METOP-B
#Satellite: METOP-B
#Configuration: METOP-B
#Start time: 2026-01-04 06:27:16.319935

#LorettStation: 1.0.0 05.05.2024
#Station: planumMaritime01
#Location: 37.49445 lon 55.92918 lat
#TLE: 1 38771U 12049A   26003.61460481  .00000266  00000+0  14170-3 0  9992
#TLE: 2 38771  98.6767  58.1993 0003374  99.4318 260.7241 14.21418299689889

#Time	Az	El	Level	SNR
2026-01-04 06:27:18.499777	26.5	10.2	-73.0	0.0
2026-01-04 06:27:19.626070	26.6	10.3	-72.7	0.0
2026-01-04 06:27:20.751243	26.7	10.4	-71.4	0.0
2026-01-04 06:27:21.878312	26.8	10.5	-71.7	0.0
2026-01-04 06:27:23.008428	26.8	10.5	-64.9	0.0
2026-01-04 06:27:24.134667	26.9	10.6	-66.4	0.0
2026-01-04 06:27:25.261967	27.0	10.7	-68.7	0.0
2026-01-04 06:27:26.390391	27.1	10.8	-66.9	0.0
2026-01-04 06:27:27.515793	27.2	10.9	-65.8	0.0
2026-01-04 06:27:28.642253	27.2	11.0	-66.2	0.0
2026-01-04 06:27:29.769511	27.3	11.1	-65.1	0.0
2026-01-04 06:27:30.895068	27.4	11.2	-64.1	0.0
2026-01-04 06:27:32.023717	27.5	11.3	-62.9	0.0
2026-01-04 06:27:33.149878	27.6	11.4	-60.7	0.0
2026-01-04 06:27:34.277297	27.7	11.5	-65.4	0.0
2026-01-04 06:27:35.404789	27.7	11.6	-63.2	0.0
2026-01-04 06:27:36.531168	27.8	11.7	-65.6	0.0
2026-01-04 06:27:37.656260	27.9	11.8	-62.6	0.0
2026-01-04 06:27:38.783913	28.0	11.9	-62.5	0.0
2026-01-04 06:27:39.909842	28.1	12.0	-64.9	0.0
2026-01-04 06:27:41.035570	28.2	12.1	-62.2	0.0
2026-01-04 06:27:42.161518	28.3	12.2	-64.6	0.0
2026-01-04 06:27:43.288632	28.3	12.3	-61.8	0.0
2026-01-04 06:27:44.414308	28.4	12.4	-60.6	0.0
2026-01-04 06:27:45.540795	28.5	12.5	-61.7	0.0
2026-01-04 06:27:46.666246	28.6	12.6	-59.3	0.0
2026-01-04 06:27:47.790321	28.7	12.7	-60.0	0.0
2026-01-04 06:27:48.917023	28.8	12.8	-64.2	0.0
2026-01-04 06:27:50.042974	28.9	12.9	-63.7	0.0
2026-01-04 06:27:51.170804	29.0	13.0	-64.7	0.0
2026-01-04 06:27:52.297384	29.1	13.1	-62.0	0.0
2026-01-04 06:27:53.423987	29.2	13.2	-63.6	0.0
2026-01-04 06:27:54.551244	29.3	13.3	-58.6	0.0
2026-01-04 06:27:55.678301	29.3	13.4	-62.8	0.0
2026-01-04 06:27:56.804457	29.4	13.5	-61.1	0.0
2026-01-04 06:27:57.932699	29.5	13.6	-63.7	0.0
2026-01-04 06:27:59.059576	29.6	13.7	-63.5	0.0
2026-01-04 06:28:00.187985	29.7	13.8	-61.8	0.0
2026-01-04 06:28:01.315036	29.8	13.9	-58.6	0.0
2026-01-04 06:28:02.441538	29.9	14.0	-64.0	0.0
2026-01-04 06:28:03.567819	30.0	14.1	-61.5	0.0
2026-01-04 06:28:04.693394	30.1	14.2	-62.1	0.0
2026-01-04 06:28:05.821386	30.2	14.3	-62.1	0.0
2026-01-04 06:28:06.948793	30.3	14.4	-60.5	0.0
2026-01-04 06:28:08.077567	30.4	14.5	-62.2	0.0
2026-01-04 06:28:09.205814	30.5	14.6	-63.1	0.0
2026-01-04 06:28:10.332043	30.6	14.7	-63.3	0.0
2026-01-04 06:28:11.458415	30.7	14.8	-63.1	0.0
2026-01-04 06:28:12.584839	30.8	14.9	-58.1	0.0
2026-01-04 06:28:13.711163	30.9	15.0	-59.8	0.0
2026-01-04 06:28:14.838931	31.1	15.2	-64.5	0.0
2026-01-04 06:28:15.965412	31.2	15.3	-63.7	0.0
2026-01-04 06:28:17.091659	31.3	15.4	-64.4	0.0
2026-01-04 06:28:18.218247	31.4	15.5	-60.9	0.0
2026-01-04 06:28:19.345527	31.5	15.6	-61.7	0.0
2026-01-04 06:28:20.472616	31.6	15.7	-61.4	0.0
2026-01-04 06:28:21.599144	31.7	15.8	-61.8	0.0
2026-01-04 06:28:22.726943	31.8	15.9	-61.7	0.0
2026-01-04 06:28:23.853181	31.9	16.0	-58.9	0.0
2026-01-04 06:28:24.982053	32.0	16.1	-61.1	0.0
2026-01-04 06:28:26.109469	32.2	16.3	-61.8	0.0
2026-01-04 06:28:27.236630	32.3	16.4	-61.6	0.0
2026-01-04 06:28:28.363943	32.4	16.5	-61.5	0.0
2026-01-04 06:28:29.491408	32.5	16.6	-59.7	0.0
2026-01-04 06:28:30.617076	32.6	16.7	-61.5	0.0
2026-01-04 06:28:31.744119	32.7	16.8	-62.3	0.0
2026-01-04 06:28:32.870188	32.9	16.9	-63.9	0.0
2026-01-04 06:28:33.998966	33.0	17.1	-62.8	0.0
2026-01-04 06:28:35.125629	33.1	17.2	-60.9	0.0
2026-01-04 06:28:36.253608	33.2	17.3	-64.4	0.0
2026-01-04 06:28:37.380736	33.3	17.4	-64.5	0.0
2026-01-04 06:28:38.507372	33.5	17.5	-63.5	0.0
2026-01-04 06:28:39.633914	33.6	17.6	-63.2	0.0
2026-01-04 06:28:40.761049	33.7	17.8	-60.9	0.0
2026-01-04 06:28:41.888801	33.8	17.9	-65.2	0.0
2026-01-04 06:28:43.016176	34.0	18.0	-64.2	0.0
2026-01-04 06:28:44.143548	34.1	18.1	-63.9	0.0
2026-01-04 06:28:45.274098	34.2	18.2	-65.0	0.0
2026-01-04 06:28:46.401024	34.4	18.4	-62.9	0.0
2026-01-04 06:28:47.527648	34.5	18.5	-64.8	0.0
2026-01-04 06:28:48.656011	34.6	18.6	-63.7	0.0
2026-01-04 06:28:49.783750	34.7	18.7	-60.7	0.0
2026-01-04 06:28:50.909079	34.9	18.9	-62.5	0.0
2026-01-04 06:28:52.036711	35.0	19.0	-61.7	0.0
2026-01-04 06:28:53.163977	35.2	19.1	-61.7	0.0
2026-01-04 06:28:54.290157	35.3	19.2	-62.3	0.0
2026-01-04 06:28:55.415750	35.4	19.3	-63.0	0.0
2026-01-04 06:28:56.543500	35.6	19.5	-63.6	0.0
2026-01-04 06:28:57.670971	35.7	19.6	-63.2	0.0
2026-01-04 06:28:58.800101	35.9	19.7	-63.1	0.0
2026-01-04 06:28:59.927671	36.0	19.8	-64.0	0.0
2026-01-04 06:29:01.053947	36.1	20.0	-64.2	0.0
2026-01-04 06:29:02.184025	36.3	20.1	-63.8	0.0
2026-01-04 06:29:03.312463	36.4	20.2	-63.7	0.0
2026-01-04 06:29:04.439333	36.6	20.4	-63.6	0.0
2026-01-04 06:29:05.565813	36.7	20.5	-62.7	0.0
2026-01-04 06:29:06.692296	36.9	20.6	-59.0	0.0
2026-01-04 06:29:07.818335	37.0	20.7	-64.5	0.0
2026-01-04 06:29:08.946352	37.2	20.9	-63.8	0.0
2026-01-04 06:29:10.076248	37.3	21.0	-64.9	0.0
2026-01-04 06:29:11.204962	37.5	21.1	-65.9	0.0
2026-01-04 06:29:12.332463	37.6	21.3	-60.1	0.0
2026-01-04 06:29:13.459200	37.8	21.4	-65.5	0.0
2026-01-04 06:29:14.586039	38.0	21.5	-65.3	0.0
2026-01-04 06:29:15.711213	38.1	21.7	-65.8	0.0
2026-01-04 06:29:16.838820	38.3	21.8	-65.2	0.0
2026-01-04 06:29:17.965752	38.4	21.9	-65.4	0.0
2026-01-04 06:29:19.093830	38.6	22.1	-67.8	0.0
2026-01-04 06:29:20.220678	38.8	22.2	-64.5	0.0
2026-01-04 06:29:21.350512	38.9	22.3	-66.9	0.0
2026-01-04 06:29:22.478599	39.1	22.5	-67.1	0.0
2026-01-04 06:29:23.604248	39.3	22.6	-67.0	0.0
2026-01-04 06:29:24.730880	39.5	22.8	-66.8	0.0
2026-01-04 06:29:25.857811	39.6	22.9	-66.8	0.0
2026-01-04 06:29:26.987247	39.8	23.0	-65.9	0.0
2026-01-04 06:29:28.114912	40.0	23.2	-67.0	0.0
2026-01-04 06:29:29.240269	40.2	23.3	-64.7	0.0
2026-01-04 06:29:30.367929	40.3	23.4	-67.9	0.0
2026-01-04 06:29:31.495523	40.5	23.6	-66.5	0.0
2026-01-04 06:29:32.622812	40.7	23.7	-68.6	0.0
2026-01-04 06:29:33.751140	40.9	23.9	-68.7	0.0
2026-01-04 06:29:34.877051	41.1	24.0	-68.0	0.0
2026-01-04 06:29:36.002694	41.3	24.1	-66.9	0.0
2026-01-04 06:29:37.128861	41.4	24.3	-67.9	0.0
2026-01-04 06:29:38.255784	41.6	24.4	-68.6	0.0
2026-01-04 06:29:39.384598	41.8	24.6	-68.2	0.0
2026-01-04 06:29:40.510453	42.0	24.7	-67.6	0.0
2026-01-04 06:29:41.636322	42.2	24.9	-68.2	0.0
2026-01-04 06:29:42.763294	42.4	25.0	-69.7	0.0
2026-01-04 06:29:43.890038	42.6	25.2	-68.3	0.0
2026-01-04 06:29:45.017093	42.8	25.3	-67.6	0.0
2026-01-04 06:29:46.145654	43.0	25.4	-68.7	0.0
2026-01-04 06:29:47.272100	43.2	25.6	-67.8	0.0
2026-01-04 06:29:48.397649	43.4	25.7	-67.0	0.0
2026-01-04 06:29:49.522878	43.6	25.9	-67.0	0.0
2026-01-04 06:29:50.650244	43.8	26.0	-66.6	0.0
2026-01-04 06:29:51.777356	44.1	26.2	-68.0	0.0
2026-01-04 06:29:52.903498	44.3	26.3	-68.8	0.0
2026-01-04 06:29:54.029365	44.5	26.5	-69.1	0.0
2026-01-04 06:29:55.156949	44.7	26.6	-67.1	0.0
2026-01-04 06:29:56.284437	44.9	26.8	-68.9	0.0
2026-01-04 06:29:57.411760	45.1	26.9	-69.3	0.0
2026-01-04 06:29:58.540017	45.4	27.1	-68.6	1.1
2026-01-04 06:29:59.665662	45.6	27.2	-69.4	0.0
2026-01-04 06:30:00.793016	45.8	27.4	-68.8	0.0
2026-01-04 06:30:01.919152	46.1	27.5	-67.3	0.0
2026-01-04 06:30:03.046789	46.3	27.7	-69.5	0.9
2026-01-04 06:30:04.174493	46.5	27.8	-69.1	1.6
2026-01-04 06:30:05.301732	46.8	28.0	-69.0	0.0
2026-01-04 06:30:06.430313	47.0	28.1	-68.1	0.0
2026-01-04 06:30:07.557621	47.2	28.3	-69.5	0.7
2026-01-04 06:30:08.687223	47.5	28.4	-68.7	0.4
2026-01-04 06:30:09.812479	47.7	28.6	-68.9	0.0
2026-01-04 06:30:10.940011	48.0	28.8	-68.1	0.0
2026-01-04 06:30:12.069003	48.2	28.9	-68.3	0.0
2026-01-04 06:30:13.195670	48.5	29.1	-68.7	0.0
2026-01-04 06:30:14.323136	48.7	29.2	-68.3	0.0
2026-01-04 06:30:15.450547	49.0	29.4	-69.2	0.0
2026-01-04 06:30:16.578659	49.3	29.5	-70.0	2.3
2026-01-04 06:30:17.705234	49.5	29.7	-70.5	3.1
2026-01-04 06:30:18.833027	49.8	29.8	-70.1	0.0
2026-01-04 06:30:19.960372	50.1	30.0	-69.2	0.0
2026-01-04 06:30:21.087520	50.3	30.2	-70.0	3.8
2026-01-04 06:30:22.215107	50.6	30.3	-68.5	1.1
2026-01-04 06:30:23.342565	50.9	30.5	-69.2	0.6
2026-01-04 06:30:24.469872	51.1	30.6	-70.2	3.7
2026-01-04 06:30:25.596844	51.4	30.8	-70.2	3.0
2026-01-04 06:30:26.723786	51.7	30.9	-69.3	0.8
2026-01-04 06:30:27.849242	52.0	31.1	-69.6	1.2
2026-01-04 06:30:28.977373	52.3	31.3	-70.9	3.1
2026-01-04 06:30:30.104012	52.6	31.4	-70.9	3.3
2026-01-04 06:30:31.230913	52.9	31.6	-70.0	2.2
2026-01-04 06:30:32.355530	53.2	31.7	-71.1	3.0
2026-01-04 06:30:33.479682	53.5	31.9	-71.8	4.0
2026-01-04 06:30:34.604882	53.8	32.0	-71.3	4.1
2026-01-04 06:30:35.732920	54.1	32.2	-71.4	3.3
2026-01-04 06:30:36.859625	54.4	32.4	-70.4	4.8
2026-01-04 06:30:37.987441	54.7	32.5	-71.6	4.3
2026-01-04 06:30:39.114629	55.0	32.7	-71.4	5.5
2026-01-04 06:30:40.240609	55.3	32.8	-71.7	5.9
2026-01-04 06:30:41.366565	55.7	33.0	-71.5	6.1
2026-01-04 06:30:42.492357	56.0	33.1	-71.5	5.5
2026-01-04 06:30:43.619943	56.3	33.3	-70.3	3.9
2026-01-04 06:30:44.744172	56.6	33.5	-71.5	6.4
2026-01-04 06:30:45.869675	57.0	33.6	-71.9	7.3
2026-01-04 06:30:46.996410	57.3	33.8	-71.3	3.6
2026-01-04 06:30:48.120220	57.7	33.9	-71.1	6.1
2026-01-04 06:30:49.245898	58.0	34.1	-69.9	4.1
2026-01-04 06:30:50.374150	58.3	34.2	-71.7	8.3
2026-01-04 06:30:51.498276	58.7	34.4	-71.4	5.3
2026-01-04 06:30:52.623456	59.0	34.5	-71.1	5.1
2026-01-04 06:30:53.750656	59.4	34.7	-71.3	4.9
2026-01-04 06:30:54.877298	59.8	34.9	-70.9	4.4
2026-01-04 06:30:56.003118	60.1	35.0	-70.5	5.6
2026-01-04 06:30:57.128977	60.5	35.2	-71.1	6.0
2026-01-04 06:30:58.254264	60.9	35.3	-71.3	7.2
2026-01-04 06:30:59.379996	61.2	35.5	-71.9	6.3
2026-01-04 06:31:00.504450	61.6	35.6	-71.7	6.4
2026-01-04 06:31:01.628695	62.0	35.8	-71.3	5.7
2026-01-04 06:31:02.754287	62.4	35.9	-71.4	5.2
2026-01-04 06:31:03.885649	62.8	36.1	-71.9	7.3
2026-01-04 06:31:05.011687	63.1	36.2	-71.0	7.4
2026-01-04 06:31:06.137458	63.5	36.4	-72.0	7.7
2026-01-04 06:31:07.265669	63.9	36.5	-72.2	8.3
2026-01-04 06:31:08.392380	64.3	36.6	-71.9	8.5
2026-01-04 06:31:09.518329	64.7	36.8	-72.6	7.8
2026-01-04 06:31:10.643834	65.2	36.9	-71.0	5.6
2026-01-04 06:31:11.771938	65.6	37.1	-71.6	5.6
2026-01-04 06:31:12.896999	66.0	37.2	-71.9	7.8
2026-01-04 06:31:14.023801	66.4	37.4	-71.4	8.3
2026-01-04 06:31:15.149632	66.8	37.5	-71.7	6.3
2026-01-04 06:31:16.276893	67.3	37.6	-71.5	5.7
2026-01-04 06:31:17.403104	67.7	37.8	-71.9	5.4
2026-01-04 06:31:18.529575	68.1	37.9	-71.2	5.4
2026-01-04 06:31:19.655968	68.6	38.0	-72.4	7.5
2026-01-04 06:31:20.782759	69.0	38.2	-72.0	7.7
2026-01-04 06:31:21.910435	69.4	38.3	-72.7	9.1
2026-01-04 06:31:23.036827	69.9	38.4	-71.9	7.0
2026-01-04 06:31:24.163977	70.3	38.6	-72.0	8.4
2026-01-04 06:31:25.290332	70.8	38.7	-71.5	8.1
2026-01-04 06:31:26.415790	71.2	38.8	-71.3	6.4
2026-01-04 06:31:27.543768	71.7	38.9	-71.5	6.5
2026-01-04 06:31:28.670064	72.2	39.1	-71.0	6.4
2026-01-04 06:31:29.797580	72.6	39.2	-69.3	4.7
2026-01-04 06:31:30.924778	73.1	39.3	-72.0	7.8
2026-01-04 06:31:32.051813	73.6	39.4	-71.7	5.9
2026-01-04 06:31:33.177029	74.1	39.5	-70.9	6.7
2026-01-04 06:31:34.303421	74.6	39.7	-70.7	8.0
2026-01-04 06:31:35.433662	75.0	39.8	-71.3	9.9
2026-01-04 06:31:36.560215	75.5	39.9	-71.2	9.2
2026-01-04 06:31:37.685984	76.0	40.0	-71.3	8.6
2026-01-04 06:31:38.812649	76.5	40.1	-71.3	7.6
2026-01-04 06:31:39.938557	77.0	40.2	-70.9	7.6
2026-01-04 06:31:41.066948	77.5	40.3	-72.2	4.4
2026-01-04 06:31:42.194953	78.0	40.4	-71.3	7.6
2026-01-04 06:31:43.319787	78.5	40.5	-71.5	7.3
2026-01-04 06:31:44.446541	79.0	40.6	-71.9	8.0
2026-01-04 06:31:45.573029	79.6	40.7	-71.6	6.9
2026-01-04 06:31:46.697681	80.1	40.8	-71.7	6.2
2026-01-04 06:31:47.822907	80.6	40.9	-71.6	7.5
2026-01-04 06:31:48.949079	81.1	41.0	-71.6	6.9
2026-01-04 06:31:50.074928	81.6	41.0	-70.6	5.7
2026-01-04 06:31:51.202807	82.2	41.1	-72.4	7.7
2026-01-04 06:31:52.330975	82.7	41.2	-71.9	7.4
2026-01-04 06:31:53.455988	83.2	41.3	-72.3	7.8
2026-01-04 06:31:54.583198	83.8	41.3	-70.8	6.7
2026-01-04 06:31:55.709318	84.3	41.4	-71.9	6.5
2026-01-04 06:31:56.834733	84.9	41.5	-70.5	5.3
2026-01-04 06:31:57.961241	85.4	41.6	-72.2	6.2
2026-01-04 06:31:59.088879	85.9	41.6	-72.4	8.2
2026-01-04 06:32:00.213298	86.5	41.7	-72.2	7.0
2026-01-04 06:32:01.340038	87.0	41.7	-71.3	6.8
2026-01-04 06:32:02.466708	87.6	41.8	-72.1	7.6
2026-01-04 06:32:03.594912	88.1	41.8	-71.9	7.7
2026-01-04 06:32:04.721221	88.7	41.9	-70.9	6.1
2026-01-04 06:32:05.844728	89.3	41.9	-71.4	6.2
2026-01-04 06:32:06.970977	89.8	42.0	-71.5	7.2
2026-01-04 06:32:08.095963	90.4	42.0	-71.3	7.1
2026-01-04 06:32:09.222241	90.9	42.1	-71.1	4.8
2026-01-04 06:32:10.348830	91.5	42.1	-71.7	6.8
2026-01-04 06:32:11.475760	92.1	42.1	-71.5	7.0
2026-01-04 06:32:12.603765	92.6	42.2	-70.9	6.8
2026-01-04 06:32:13.732194	93.2	42.2	-71.2	6.2
2026-01-04 06:32:14.857644	93.8	42.2	-71.2	5.4
2026-01-04 06:32:15.984006	94.3	42.2	-71.9	4.5
2026-01-04 06:32:17.110525	94.9	42.2	-71.7	5.8
2026-01-04 06:32:18.236988	95.5	42.2	-71.8	7.5
2026-01-04 06:32:19.364213	96.0	42.3	-71.4	6.7
2026-01-04 06:32:20.489887	96.6	42.3	-71.7	7.0
2026-01-04 06:32:21.616254	97.2	42.3	-71.7	6.9
2026-01-04 06:32:22.741981	97.7	42.3	-71.7	6.4
2026-01-04 06:32:23.869974	98.3	42.3	-69.7	0.0
2026-01-04 06:32:24.996357	98.9	42.3	-71.6	6.2
2026-01-04 06:32:26.123006	99.4	42.3	-71.7	7.4
2026-01-04 06:32:27.247746	100.0	42.2	-71.9	7.2
2026-01-04 06:32:28.375181	100.6	42.2	-71.0	7.1
2026-01-04 06:32:29.500606	101.1	42.2	-72.0	7.2
2026-01-04 06:32:30.625182	101.7	42.2	-69.5	1.2
2026-01-04 06:32:31.751228	102.3	42.2	-72.0	8.2
2026-01-04 06:32:32.881945	102.8	42.1	-70.7	5.3
2026-01-04 06:32:34.010268	103.4	42.1	-71.7	4.7
2026-01-04 06:32:35.136242	104.0	42.1	-71.3	8.4
2026-01-04 06:32:36.261909	104.5	42.0	-69.4	4.6
2026-01-04 06:32:37.390686	105.1	42.0	-69.3	1.7
2026-01-04 06:32:38.517399	105.6	42.0	-71.4	7.1
2026-01-04 06:32:39.643112	106.2	41.9	-71.4	6.9
2026-01-04 06:32:40.768951	106.8	41.9	-71.5	8.9
2026-01-04 06:32:41.895139	107.3	41.8	-70.5	6.0
2026-01-04 06:32:43.021898	107.9	41.8	-71.5	8.2
2026-01-04 06:32:44.148006	108.4	41.7	-71.6	8.4
2026-01-04 06:32:45.272822	109.0	41.6	-71.7	7.3
2026-01-04 06:32:46.400300	109.5	41.6	-71.8	8.7
2026-01-04 06:32:47.527293	110.1	41.5	-71.5	6.6
2026-01-04 06:32:48.653340	110.6	41.5	-72.0	8.4
2026-01-04 06:32:49.781373	111.1	41.4	-72.3	8.5
2026-01-04 06:32:50.907892	111.7	41.3	-72.2	8.6
2026-01-04 06:32:52.035262	112.2	41.2	-72.5	7.1
2026-01-04 06:32:53.160378	112.7	41.2	-72.6	8.7
2026-01-04 06:32:54.287970	113.3	41.1	-72.7	8.7
2026-01-04 06:32:55.412666	113.8	41.0	-72.5	6.9
2026-01-04 06:32:56.538688	114.3	40.9	-72.7	8.3
2026-01-04 06:32:57.665950	114.9	40.8	-72.2	8.1
2026-01-04 06:32:58.791309	115.4	40.7	-73.0	8.2
2026-01-04 06:32:59.918661	115.9	40.6	-73.0	9.4
2026-01-04 06:33:01.044833	116.4	40.5	-72.8	10.1
2026-01-04 06:33:02.171690	116.9	40.4	-72.3	6.4
2026-01-04 06:33:03.296976	117.4	40.3	-72.3	8.9
2026-01-04 06:33:04.423255	117.9	40.2	-72.4	7.0
2026-01-04 06:33:05.550394	118.4	40.1	-72.8	6.8
2026-01-04 06:33:06.676300	118.9	40.0	-73.0	8.6
2026-01-04 06:33:07.802235	119.4	39.9	-72.9	9.8
2026-01-04 06:33:08.929106	119.9	39.8	-73.2	9.1
2026-01-04 06:33:10.055655	120.4	39.7	-73.1	10.0
2026-01-04 06:33:11.182578	120.9	39.6	-72.9	9.3
2026-01-04 06:33:12.310612	121.4	39.5	-73.2	9.5
2026-01-04 06:33:13.437506	121.8	39.4	-73.1	9.4
2026-01-04 06:33:14.563348	122.3	39.2	-73.6	8.4
2026-01-04 06:33:15.689051	122.8	39.1	-73.5	9.8
2026-01-04 06:33:16.817121	123.3	39.0	-73.8	9.8
2026-01-04 06:33:17.945430	123.7	38.9	-73.8	10.0
2026-01-04 06:33:19.072876	124.2	38.7	-73.6	9.9
2026-01-04 06:33:20.200516	124.6	38.6	-73.6	9.9
2026-01-04 06:33:21.326357	125.1	38.5	-73.2	9.8
2026-01-04 06:33:22.452321	125.6	38.4	-73.7	10.3
2026-01-04 06:33:23.579370	126.0	38.2	-73.6	9.9
2026-01-04 06:33:24.706165	126.4	38.1	-73.7	10.8
2026-01-04 06:33:25.832684	126.9	38.0	-73.6	10.4
2026-01-04 06:33:26.960402	127.3	37.8	-73.7	10.3
2026-01-04 06:33:28.087319	127.8	37.7	-73.5	9.1
2026-01-04 06:33:29.213989	128.2	37.5	-73.7	8.9
2026-01-04 06:33:30.338506	128.6	37.4	-73.6	9.9
2026-01-04 06:33:31.466237	129.0	37.3	-73.4	10.0
2026-01-04 06:33:32.592207	129.4	37.1	-73.4	9.5
2026-01-04 06:33:33.719557	129.9	37.0	-73.4	10.8
2026-01-04 06:33:34.847445	130.3	36.8	-72.6	9.9
2026-01-04 06:33:35.973551	130.7	36.7	-72.8	10.2
2026-01-04 06:33:37.101296	131.1	36.5	-73.5	10.7
2026-01-04 06:33:38.227137	131.5	36.4	-73.3	10.2
2026-01-04 06:33:39.354067	131.9	36.3	-73.1	9.5
2026-01-04 06:33:40.481301	132.3	36.1	-73.2	10.6
2026-01-04 06:33:41.607457	132.7	36.0	-73.3	10.2
2026-01-04 06:33:42.734362	133.1	35.8	-73.4	10.3
2026-01-04 06:33:43.861587	133.4	35.7	-72.8	10.5
2026-01-04 06:33:44.988251	133.8	35.5	-73.3	9.9
2026-01-04 06:33:46.115396	134.2	35.4	-73.3	10.2
2026-01-04 06:33:47.241844	134.6	35.2	-73.4	10.4
2026-01-04 06:33:48.372016	134.9	35.0	-72.8	9.2
2026-01-04 06:33:49.497872	135.3	34.9	-73.5	9.4
2026-01-04 06:33:50.623174	135.7	34.7	-73.6	9.9
2026-01-04 06:33:51.751661	136.0	34.6	-73.6	9.6
2026-01-04 06:33:52.881164	136.4	34.4	-73.5	9.3
2026-01-04 06:33:54.008747	136.7	34.3	-72.7	8.4
2026-01-04 06:33:55.135888	137.1	34.1	-73.3	9.1
2026-01-04 06:33:56.261423	137.4	34.0	-73.3	8.3
2026-01-04 06:33:57.389428	137.8	33.8	-73.8	8.4
2026-01-04 06:33:58.516966	138.1	33.7	-73.9	8.0
2026-01-04 06:33:59.642431	138.4	33.5	-73.8	8.1
2026-01-04 06:34:00.771024	138.8	33.3	-73.8	8.8
2026-01-04 06:34:01.897498	139.1	33.2	-74.0	9.2
2026-01-04 06:34:03.023719	139.4	33.0	-74.3	9.2
2026-01-04 06:34:04.149794	139.8	32.9	-73.4	7.6
2026-01-04 06:34:05.274347	140.1	32.7	-74.1	8.6
2026-01-04 06:34:06.402823	140.4	32.5	-74.1	7.8
2026-01-04 06:34:07.529338	140.7	32.4	-73.8	7.7
2026-01-04 06:34:08.655833	141.0	32.2	-73.8	8.3
2026-01-04 06:34:09.783121	141.3	32.1	-73.8	8.2
2026-01-04 06:34:10.910182	141.6	31.9	-73.5	7.1
2026-01-04 06:34:12.037113	141.9	31.8	-73.9	7.9
2026-01-04 06:34:13.165111	142.2	31.6	-73.8	8.9
2026-01-04 06:34:14.291096	142.5	31.4	-73.9	9.0
2026-01-04 06:34:15.417351	142.8	31.3	-73.8	7.6
2026-01-04 06:34:16.541476	143.1	31.1	-73.7	8.4
2026-01-04 06:34:17.669877	143.4	31.0	-73.5	8.9
2026-01-04 06:34:18.798733	143.7	30.8	-73.8	8.7
2026-01-04 06:34:19.925832	144.0	30.6	-73.5	8.4
2026-01-04 06:34:21.052109	144.3	30.5	-73.9	8.7
2026-01-04 06:34:22.179114	144.5	30.3	-73.7	8.4
2026-01-04 06:34:23.306067	144.8	30.2	-73.9	9.0
2026-01-04 06:34:24.431388	145.1	30.0	-73.8	8.2
2026-01-04 06:34:25.557838	145.4	29.9	-73.4	8.4
2026-01-04 06:34:26.683228	145.6	29.7	-73.5	8.3
2026-01-04 06:34:27.807705	145.9	29.5	-73.4	7.9
2026-01-04 06:34:28.934918	146.1	29.4	-73.5	8.7
2026-01-04 06:34:30.063260	146.4	29.2	-73.4	8.0
2026-01-04 06:34:31.193549	146.7	29.1	-73.1	7.8
2026-01-04 06:34:32.319243	146.9	28.9	-73.4	8.5
2026-01-04 06:34:33.444786	147.2	28.8	-73.3	8.3
2026-01-04 06:34:34.572915	147.4	28.6	-73.2	7.1
2026-01-04 06:34:35.701153	147.7	28.5	-73.1	9.1
2026-01-04 06:34:36.828801	147.9	28.3	-73.2	8.6
2026-01-04 06:34:37.963067	148.2	28.1	-73.6	8.7
2026-01-04 06:34:39.088979	148.4	28.0	-73.4	7.7
2026-01-04 06:34:40.218839	148.6	27.8	-73.2	7.6
2026-01-04 06:34:41.346725	148.9	27.7	-73.2	8.6
2026-01-04 06:34:42.473731	149.1	27.5	-73.4	8.0
2026-01-04 06:34:43.601662	149.3	27.4	-73.7	8.3
2026-01-04 06:34:44.728273	149.6	27.2	-73.7	8.5
2026-01-04 06:34:45.855233	149.8	27.1	-74.0	8.2
2026-01-04 06:34:46.981702	150.0	26.9	-73.7	8.1
2026-01-04 06:34:48.109227	150.2	26.8	-73.7	7.0
2026-01-04 06:34:49.234020	150.5	26.6	-74.0	7.0
2026-01-04 06:34:50.362929	150.7	26.5	-73.9	8.3
2026-01-04 06:34:51.488756	150.9	26.3	-73.9	8.6
2026-01-04 06:34:52.617216	151.1	26.2	-74.0	7.5
2026-01-04 06:34:53.744873	151.3	26.0	-74.3	8.4
2026-01-04 06:34:54.871186	151.5	25.9	-73.9	7.9
2026-01-04 06:34:55.996946	151.7	25.7	-74.0	7.2
2026-01-04 06:34:57.124797	152.0	25.6	-74.1	7.9
2026-01-04 06:34:58.251143	152.2	25.4	-74.1	8.0
2026-01-04 06:34:59.376650	152.4	25.3	-74.1	7.5
2026-01-04 06:35:00.502806	152.6	25.1	-73.9	7.7
2026-01-04 06:35:01.630304	152.8	25.0	-74.1	8.1
2026-01-04 06:35:02.757961	153.0	24.8	-74.2	7.7
2026-01-04 06:35:03.883615	153.2	24.7	-74.0	7.1
2026-01-04 06:35:05.010757	153.4	24.5	-74.1	7.5
2026-01-04 06:35:06.135953	153.5	24.4	-74.2	7.5
2026-01-04 06:35:07.259716	153.7	24.3	-74.1	7.3
2026-01-04 06:35:08.387076	153.9	24.1	-74.0	6.1
2026-01-04 06:35:09.514641	154.1	24.0	-74.0	7.2
2026-01-04 06:35:10.640400	154.3	23.8	-74.0	7.4
2026-01-04 06:35:11.766886	154.5	23.7	-74.1	7.8
2026-01-04 06:35:12.893663	154.7	23.5	-73.5	6.0
2026-01-04 06:35:14.018704	154.8	23.4	-73.7	5.6
2026-01-04 06:35:15.146355	155.0	23.3	-74.1	6.8
2026-01-04 06:35:16.273466	155.2	23.1	-73.9	6.2
2026-01-04 06:35:17.398961	155.4	23.0	-73.6	6.0
2026-01-04 06:35:18.524210	155.6	22.8	-73.9	7.5
2026-01-04 06:35:19.651528	155.7	22.7	-73.8	7.0
2026-01-04 06:35:20.778172	155.9	22.6	-74.1	7.0
2026-01-04 06:35:21.905346	156.1	22.4	-74.1	7.0
2026-01-04 06:35:23.032776	156.2	22.3	-72.9	4.4
2026-01-04 06:35:24.158717	156.4	22.2	-74.1	7.0
2026-01-04 06:35:25.284604	156.6	22.0	-73.9	6.1
2026-01-04 06:35:26.410175	156.7	21.9	-74.0	6.7
2026-01-04 06:35:27.537263	156.9	21.8	-74.1	6.4
2026-01-04 06:35:28.663811	157.1	21.6	-74.0	6.0
2026-01-04 06:35:29.790854	157.2	21.5	-74.3	6.0
2026-01-04 06:35:30.917816	157.4	21.4	-74.3	6.6
2026-01-04 06:35:32.045827	157.5	21.2	-74.3	6.1
2026-01-04 06:35:33.173519	157.7	21.1	-74.0	6.6
2026-01-04 06:35:34.301258	157.9	21.0	-74.2	6.4
2026-01-04 06:35:35.430693	158.0	20.8	-74.0	5.8
2026-01-04 06:35:36.558882	158.2	20.7	-74.0	6.6
2026-01-04 06:35:37.686233	158.3	20.6	-74.4	5.9
2026-01-04 06:35:38.814771	158.5	20.4	-74.5	4.8
2026-01-04 06:35:39.943085	158.6	20.3	-74.4	4.4
2026-01-04 06:35:41.068758	158.8	20.2	-74.3	4.9
2026-01-04 06:35:42.194811	158.9	20.0	-74.4	5.2
2026-01-04 06:35:43.322248	159.1	19.9	-74.4	5.0
2026-01-04 06:35:44.449552	159.2	19.8	-74.5	6.4
2026-01-04 06:35:45.574047	159.3	19.7	-74.0	5.9
2026-01-04 06:35:46.701891	159.5	19.5	-74.3	6.3
2026-01-04 06:35:47.828841	159.6	19.4	-74.1	6.3
2026-01-04 06:35:48.956375	159.8	19.3	-74.3	6.5
2026-01-04 06:35:50.081588	159.9	19.2	-73.9	6.4
2026-01-04 06:35:51.209779	160.0	19.0	-74.4	5.7
2026-01-04 06:35:52.336118	160.2	18.9	-74.3	4.0
2026-01-04 06:35:53.462567	160.3	18.8	-74.5	4.6
2026-01-04 06:35:54.588930	160.4	18.7	-74.2	5.2
2026-01-04 06:35:55.715797	160.6	18.5	-74.4	4.0
2026-01-04 06:35:56.840210	160.7	18.4	-74.3	4.7
2026-01-04 06:35:57.966414	160.8	18.3	-73.9	6.3
2026-01-04 06:35:59.092169	161.0	18.2	-73.8	5.3
2026-01-04 06:36:00.218164	161.1	18.0	-73.9	4.0
2026-01-04 06:36:01.343656	161.2	17.9	-74.0	5.7
2026-01-04 06:36:02.471177	161.4	17.8	-74.3	4.7
2026-01-04 06:36:03.596431	161.5	17.7	-73.8	6.0
2026-01-04 06:36:04.723228	161.6	17.6	-74.2	5.8
2026-01-04 06:36:05.852210	161.7	17.4	-74.4	3.0
2026-01-04 06:36:06.976410	161.9	17.3	-74.0	4.9
2026-01-04 06:36:08.105026	162.0	17.2	-74.5	4.7
2026-01-04 06:36:09.229521	162.1	17.1	-74.2	4.7
2026-01-04 06:36:10.359410	162.2	17.0	-74.4	4.5
2026-01-04 06:36:11.486416	162.3	16.9	-74.4	4.2
2026-01-04 06:36:12.613559	162.5	16.7	-74.5	4.4
2026-01-04 06:36:13.740889	162.6	16.6	-74.3	4.8
2026-01-04 06:36:14.866999	162.7	16.5	-74.5	4.4
2026-01-04 06:36:15.995093	162.8	16.4	-74.4	4.7
2026-01-04 06:36:17.122927	162.9	16.3	-74.5	5.3
2026-01-04 06:36:18.250039	163.0	16.2	-74.5	5.6
2026-01-04 06:36:19.376252	163.2	16.1	-74.4	5.1
2026-01-04 06:36:20.504796	163.3	15.9	-74.3	4.7
2026-01-04 06:36:21.629728	163.4	15.8	-74.2	3.9
2026-01-04 06:36:22.756771	163.5	15.7	-74.5	5.0
2026-01-04 06:36:23.883807	163.6	15.6	-74.3	4.7
2026-01-04 06:36:25.010184	163.7	15.5	-74.2	4.8
2026-01-04 06:36:26.135574	163.8	15.4	-74.6	3.9
2026-01-04 06:36:27.262234	163.9	15.3	-74.7	4.8
2026-01-04 06:36:28.388742	164.0	15.2	-74.3	4.8
2026-01-04 06:36:29.517714	164.1	15.1	-74.5	3.8
2026-01-04 06:36:30.643349	164.2	14.9	-73.7	3.9
2026-01-04 06:36:31.769215	164.3	14.8	-74.0	4.6
2026-01-04 06:36:32.893743	164.5	14.7	-73.9	4.0
2026-01-04 06:36:34.020017	164.6	14.6	-73.8	4.7
2026-01-04 06:36:35.145561	164.7	14.5	-74.1	5.0
2026-01-04 06:36:36.271233	164.8	14.4	-74.1	4.9
2026-01-04 06:36:37.398263	164.9	14.3	-74.3	4.8
2026-01-04 06:36:38.526135	165.0	14.2	-74.4	4.6
2026-01-04 06:36:39.655653	165.1	14.1	-74.7	2.9
2026-01-04 06:36:40.784098	165.2	14.0	-74.6	4.1
2026-01-04 06:36:41.911018	165.3	13.9	-75.2	5.2
2026-01-04 06:36:43.037902	165.4	13.8	-75.5	4.8
2026-01-04 06:36:44.165160	165.5	13.7	-75.3	5.0
2026-01-04 06:36:45.290829	165.6	13.6	-75.2	5.0
2026-01-04 06:36:46.415914	165.6	13.5	-75.2	5.3
2026-01-04 06:36:47.541213	165.7	13.4	-75.6	5.2
2026-01-04 06:36:48.666986	165.8	13.2	-75.5	5.1
2026-01-04 06:36:49.792983	165.9	13.1	-75.1	5.0
2026-01-04 06:36:50.917993	166.0	13.0	-75.5	5.0
2026-01-04 06:36:52.043848	166.1	12.9	-75.2	5.1
2026-01-04 06:36:53.170822	166.2	12.8	-75.2	5.0
2026-01-04 06:36:54.298275	166.3	12.7	-75.4	4.6
2026-01-04 06:36:55.426193	166.4	12.6	-74.6	4.0
2026-01-04 06:36:56.552877	166.5	12.5	-75.3	3.3
2026-01-04 06:36:57.678249	166.6	12.4	-75.4	4.0
2026-01-04 06:36:58.806070	166.7	12.3	-75.4	3.8
2026-01-04 06:36:59.930747	166.8	12.2	-74.9	3.9
2026-01-04 06:37:01.057133	166.8	12.1	-75.5	2.4
2026-01-04 06:37:02.184309	166.9	12.0	-74.8	2.4
2026-01-04 06:37:03.309924	167.0	11.9	-75.5	3.4
2026-01-04 06:37:04.436632	167.1	11.8	-75.2	2.5
2026-01-04 06:37:05.562696	167.2	11.7	-74.5	2.4
2026-01-04 06:37:06.689577	167.3	11.6	-75.0	3.4
2026-01-04 06:37:07.817859	167.4	11.6	-75.3	3.0
2026-01-04 06:37:08.946630	167.4	11.5	-75.3	2.6
2026-01-04 06:37:10.073507	167.5	11.4	-75.0	3.3
2026-01-04 06:37:11.202249	167.6	11.3	-75.1	2.5
2026-01-04 06:37:12.327977	167.7	11.2	-75.3	3.3
2026-01-04 06:37:13.454010	167.8	11.1	-75.2	3.8
2026-01-04 06:37:14.580779	167.9	11.0	-75.6	3.0
2026-01-04 06:37:15.706351	167.9	10.9	-76.4	1.9
2026-01-04 06:37:16.832516	168.0	10.8	-76.0	0.0
2026-01-04 06:37:17.957759	168.1	10.7	-76.1	0.0
2026-01-04 06:37:19.084696	168.2	10.6	-76.3	0.0
2026-01-04 06:37:20.210966	168.3	10.5	-75.6	0.0
2026-01-04 06:37:21.336482	168.3	10.4	-77.5	0.0
2026-01-04 06:37:22.463098	168.4	10.3	-79.3	0.0
2026-01-04 06:37:23.588932	168.5	10.2	-81.5	0.0
2026-01-04 06:37:24.715513	168.6	10.1	-82.1	0.0
2026-01-04 06:37:25.841782	168.6	10.0	-81.5	0.0
2026-01-04 06:37:26.970931	168.7	9.9	-80.5	0.0
#Closed at: 2026-01-04 06:27:11.326499