passes_logs/2026/01/04/planumMaritime01/planumMaritime01__20260104_003515_METEOR-M2_4_rec.log

#Pass ID: 20260104_003515_METEOR-M2 4
#Satellite: METEOR-M2 4
#Configuration: METEOR-M2 4
#Start time: 2026-01-04 00:35:20.548787

#LorettStation: 1.0.0 05.05.2024
#Station: planumMaritime01
#Location: 37.49445 lon 55.92918 lat
#TLE: 1 59051U 24039A   26003.65226437  .00000074  00000+0  52640-4 0  9995
#TLE: 2 59051  98.6797 325.2209 0006055 289.8349  70.2176 14.22405521 95878

#Time	Az	El	Level	SNR
2026-01-04 00:35:22.725444	22.1	10.2	-77.7	0.0
2026-01-04 00:35:23.856921	22.1	10.3	-76.8	0.0
2026-01-04 00:35:24.992227	22.2	10.4	-77.6	0.0
2026-01-04 00:35:26.127848	22.2	10.5	-77.5	0.0
2026-01-04 00:35:27.268113	22.3	10.6	-76.5	0.0
2026-01-04 00:35:28.406180	22.3	10.7	-74.1	0.0
2026-01-04 00:35:29.543988	22.4	10.8	-71.4	0.0
2026-01-04 00:35:30.682872	22.4	10.9	-73.0	0.0
2026-01-04 00:35:31.819933	22.5	11.0	-71.6	0.0
2026-01-04 00:35:32.957400	22.5	11.1	-70.9	0.0
2026-01-04 00:35:34.091281	22.6	11.2	-69.0	0.0
2026-01-04 00:35:35.228005	22.6	11.3	-70.8	0.0
2026-01-04 00:35:36.364128	22.7	11.4	-70.1	0.0
2026-01-04 00:35:37.495266	22.7	11.5	-71.8	0.0
2026-01-04 00:35:38.624821	22.8	11.6	-70.3	0.0
2026-01-04 00:35:39.754514	22.8	11.7	-72.1	0.0
2026-01-04 00:35:40.887463	22.9	11.8	-71.7	0.0
2026-01-04 00:35:42.021602	22.9	11.9	-70.1	0.0
2026-01-04 00:35:43.151347	23.0	12.0	-70.1	0.0
2026-01-04 00:35:44.285783	23.0	12.1	-70.9	0.0
2026-01-04 00:35:45.417103	23.1	12.2	-70.5	0.0
2026-01-04 00:35:46.549307	23.1	12.3	-70.7	0.0
2026-01-04 00:35:47.686996	23.2	12.4	-71.5	0.0
2026-01-04 00:35:48.817028	23.3	12.5	-69.1	0.0
2026-01-04 00:35:49.951391	23.3	12.6	-70.1	0.0
2026-01-04 00:35:51.083005	23.4	12.7	-70.0	0.0
2026-01-04 00:35:52.213871	23.4	12.8	-70.1	0.0
2026-01-04 00:35:53.346822	23.5	12.9	-70.3	0.0
2026-01-04 00:35:54.479745	23.5	13.0	-70.3	0.0
2026-01-04 00:35:55.610235	23.6	13.1	-69.9	0.0
2026-01-04 00:35:56.743184	23.6	13.3	-67.9	0.0
2026-01-04 00:35:57.883995	23.7	13.4	-69.0	0.0
2026-01-04 00:35:59.020054	23.8	13.5	-67.2	0.0
2026-01-04 00:36:00.154763	23.8	13.6	-68.2	0.0
2026-01-04 00:36:01.288305	23.9	13.7	-70.1	0.0
2026-01-04 00:36:02.426016	23.9	13.8	-68.9	0.0
2026-01-04 00:36:03.562699	24.0	13.9	-68.9	0.0
2026-01-04 00:36:04.699250	24.1	14.0	-70.6	0.0
2026-01-04 00:36:05.838825	24.1	14.1	-70.2	0.0
2026-01-04 00:36:06.975071	24.2	14.3	-70.7	0.0
2026-01-04 00:36:08.112222	24.2	14.4	-71.5	0.0
2026-01-04 00:36:09.248917	24.3	14.5	-70.9	0.0
2026-01-04 00:36:10.384738	24.4	14.6	-68.5	0.0
2026-01-04 00:36:11.522771	24.4	14.7	-69.7	0.0
2026-01-04 00:36:12.658499	24.5	14.8	-70.5	0.0
2026-01-04 00:36:13.800485	24.6	14.9	-71.7	0.0
2026-01-04 00:36:14.938815	24.6	15.1	-68.4	0.0
2026-01-04 00:36:16.075989	24.7	15.2	-70.1	0.0
2026-01-04 00:36:17.211999	24.7	15.3	-71.5	0.0
2026-01-04 00:36:18.350390	24.8	15.4	-71.3	0.0
2026-01-04 00:36:19.489720	24.9	15.5	-72.0	0.0
2026-01-04 00:36:20.625849	24.9	15.7	-71.7	0.0
2026-01-04 00:36:21.763686	25.0	15.8	-70.0	0.0
2026-01-04 00:36:22.898406	25.1	15.9	-70.4	0.0
2026-01-04 00:36:24.038464	25.1	16.0	-72.1	0.0
2026-01-04 00:36:25.170926	25.2	16.1	-71.3	0.0
2026-01-04 00:36:26.304264	25.3	16.3	-72.1	0.0
2026-01-04 00:36:27.435940	25.3	16.4	-71.2	0.0
2026-01-04 00:36:28.565902	25.4	16.5	-69.3	0.0
2026-01-04 00:36:29.698344	25.5	16.6	-69.1	0.0
2026-01-04 00:36:30.837859	25.6	16.8	-70.9	0.0
2026-01-04 00:36:31.974358	25.6	16.9	-71.7	0.0
2026-01-04 00:36:33.110723	25.7	17.0	-72.2	0.0
2026-01-04 00:36:34.248008	25.8	17.1	-72.7	0.0
2026-01-04 00:36:35.384467	25.8	17.3	-70.7	0.0
2026-01-04 00:36:36.517748	25.9	17.4	-71.5	0.0
2026-01-04 00:36:37.655808	26.0	17.5	-72.4	0.0
2026-01-04 00:36:38.791042	26.1	17.6	-72.7	0.0
2026-01-04 00:36:39.928602	26.1	17.8	-71.0	0.0
2026-01-04 00:36:41.066376	26.2	17.9	-70.9	0.0
2026-01-04 00:36:42.201175	26.3	18.0	-72.1	0.0
2026-01-04 00:36:43.338765	26.4	18.2	-70.6	0.0
2026-01-04 00:36:44.475194	26.5	18.3	-69.6	0.0
2026-01-04 00:36:45.615574	26.5	18.4	-73.1	0.0
2026-01-04 00:36:46.750766	26.6	18.6	-70.9	0.0
2026-01-04 00:36:47.887665	26.7	18.7	-71.1	0.0
2026-01-04 00:36:49.025960	26.8	18.8	-72.3	0.0
2026-01-04 00:36:50.158614	26.9	19.0	-73.1	0.0
2026-01-04 00:36:51.292943	26.9	19.1	-71.6	0.0
2026-01-04 00:36:52.424779	27.0	19.2	-72.0	0.0
2026-01-04 00:36:53.561338	27.1	19.4	-73.4	0.0
2026-01-04 00:36:54.694440	27.2	19.5	-73.4	0.0
2026-01-04 00:36:55.828540	27.3	19.7	-73.9	0.0
2026-01-04 00:36:56.959954	27.4	19.8	-71.9	0.0
2026-01-04 00:36:58.095785	27.4	19.9	-73.6	0.0
2026-01-04 00:36:59.232587	27.5	20.1	-72.2	0.0
2026-01-04 00:37:00.365636	27.6	20.2	-72.5	0.0
2026-01-04 00:37:01.500912	27.7	20.4	-74.1	0.0
2026-01-04 00:37:02.633324	27.8	20.5	-72.0	0.0
2026-01-04 00:37:03.762345	27.9	20.7	-72.4	0.0
2026-01-04 00:37:04.888557	28.0	20.8	-74.5	0.0
2026-01-04 00:37:06.022313	28.1	20.9	-68.0	0.0
2026-01-04 00:37:07.151940	28.2	21.1	-70.2	0.0
2026-01-04 00:37:08.279538	28.2	21.2	-72.1	0.0
2026-01-04 00:37:09.406102	28.3	21.4	-72.2	0.0
2026-01-04 00:37:10.534936	28.4	21.5	-73.2	0.0
2026-01-04 00:37:11.665661	28.5	21.7	-73.0	0.0
2026-01-04 00:37:12.793675	28.6	21.8	-71.2	0.0
2026-01-04 00:37:13.921931	28.7	22.0	-71.9	0.0
2026-01-04 00:37:15.049792	28.8	22.1	-70.0	0.0
2026-01-04 00:37:16.182507	28.9	22.3	-73.2	0.0
2026-01-04 00:37:17.311063	29.0	22.4	-74.3	0.0
2026-01-04 00:37:18.437263	29.1	22.6	-73.1	0.0
2026-01-04 00:37:19.564879	29.2	22.7	-72.2	0.0
2026-01-04 00:37:20.694714	29.3	22.9	-73.0	0.0
2026-01-04 00:37:21.825204	29.4	23.1	-74.4	0.0
2026-01-04 00:37:22.952412	29.5	23.2	-72.1	0.0
2026-01-04 00:37:24.078821	29.6	23.4	-72.2	0.0
2026-01-04 00:37:25.208286	29.7	23.5	-71.4	0.0
2026-01-04 00:37:26.335388	29.9	23.7	-70.7	0.0
2026-01-04 00:37:27.468314	30.0	23.9	-72.3	0.0
2026-01-04 00:37:28.598047	30.1	24.0	-70.9	0.0
2026-01-04 00:37:29.733493	30.2	24.2	-72.5	0.0
2026-01-04 00:37:30.869631	30.3	24.3	-69.2	0.0
2026-01-04 00:37:32.004887	30.4	24.5	-72.4	0.0
2026-01-04 00:37:33.140962	30.5	24.7	-72.6	0.0
2026-01-04 00:37:34.273892	30.6	24.8	-72.2	0.0
2026-01-04 00:37:35.408947	30.8	25.0	-72.9	0.0
2026-01-04 00:37:36.542653	30.9	25.2	-71.3	0.0
2026-01-04 00:37:37.674946	31.0	25.4	-73.0	0.0
2026-01-04 00:37:38.808458	31.1	25.5	-73.0	0.0
2026-01-04 00:37:39.943103	31.2	25.7	-73.5	0.0
2026-01-04 00:37:41.074742	31.4	25.9	-72.8	0.0
2026-01-04 00:37:42.210124	31.5	26.0	-73.3	0.0
2026-01-04 00:37:43.344787	31.6	26.2	-72.1	0.0
2026-01-04 00:37:44.481407	31.7	26.4	-69.0	0.0
2026-01-04 00:37:45.615239	31.9	26.6	-73.6	0.0
2026-01-04 00:37:46.750174	32.0	26.8	-74.1	0.0
2026-01-04 00:37:47.883228	32.1	26.9	-72.2	0.0
2026-01-04 00:37:49.018601	32.3	27.1	-72.5	0.0
2026-01-04 00:37:50.152690	32.4	27.3	-73.5	0.6
2026-01-04 00:37:51.287089	32.5	27.5	-71.9	0.0
2026-01-04 00:37:52.421761	32.7	27.7	-72.9	0.4
2026-01-04 00:37:53.555483	32.8	27.8	-73.8	0.0
2026-01-04 00:37:54.687239	33.0	28.0	-72.1	0.0
2026-01-04 00:37:55.823062	33.1	28.2	-73.1	0.0
2026-01-04 00:37:56.957353	33.2	28.4	-74.1	1.1
2026-01-04 00:37:58.091729	33.4	28.6	-74.3	0.0
2026-01-04 00:37:59.226269	33.5	28.8	-75.0	0.0
2026-01-04 00:38:00.363611	33.7	29.0	-75.3	2.2
2026-01-04 00:38:01.501791	33.8	29.2	-75.9	0.0
2026-01-04 00:38:02.634078	34.0	29.4	-74.3	0.8
2026-01-04 00:38:03.770880	34.1	29.6	-75.6	1.4
2026-01-04 00:38:04.905402	34.3	29.8	-75.0	2.8
2026-01-04 00:38:06.037438	34.5	30.0	-74.8	0.0
2026-01-04 00:38:07.168421	34.6	30.2	-75.4	3.2
2026-01-04 00:38:08.300463	34.8	30.3	-75.2	0.2
2026-01-04 00:38:09.434332	34.9	30.6	-75.8	4.0
2026-01-04 00:38:10.568725	35.1	30.8	-74.9	2.8
2026-01-04 00:38:11.701701	35.3	31.0	-75.3	4.2
2026-01-04 00:38:12.836975	35.4	31.2	-75.1	0.0
2026-01-04 00:38:13.968302	35.6	31.4	-75.8	4.4
2026-01-04 00:38:15.104300	35.8	31.6	-75.1	2.3
2026-01-04 00:38:16.235007	36.0	31.8	-76.3	3.6
2026-01-04 00:38:17.368051	36.1	32.0	-76.6	5.3
2026-01-04 00:38:18.505564	36.3	32.2	-75.3	2.8
2026-01-04 00:38:19.642706	36.5	32.4	-75.6	3.9
2026-01-04 00:38:20.777054	36.7	32.6	-74.4	2.3
2026-01-04 00:38:21.912900	36.9	32.8	-73.8	0.0
2026-01-04 00:38:23.048669	37.1	33.0	-76.8	7.0
2026-01-04 00:38:24.187842	37.3	33.3	-77.2	7.6
2026-01-04 00:38:25.324578	37.5	33.5	-75.9	6.3
2026-01-04 00:38:26.464183	37.7	33.7	-76.8	7.5
2026-01-04 00:38:27.602910	37.9	33.9	-77.0	6.8
2026-01-04 00:38:28.740788	38.1	34.1	-76.3	8.7
2026-01-04 00:38:29.880885	38.3	34.4	-76.1	5.1
2026-01-04 00:38:31.020166	38.5	34.6	-76.4	6.2
2026-01-04 00:38:32.162868	38.7	34.8	-76.6	7.8
2026-01-04 00:38:33.302158	38.9	35.0	-76.5	7.8
2026-01-04 00:38:34.441646	39.1	35.3	-76.5	7.9
2026-01-04 00:38:35.580288	39.4	35.5	-76.8	7.2
2026-01-04 00:38:36.716991	39.6	35.7	-76.3	7.2
2026-01-04 00:38:37.855566	39.8	36.0	-76.2	6.2
2026-01-04 00:38:38.993525	40.0	36.2	-75.7	5.7
2026-01-04 00:38:40.129944	40.3	36.4	-76.2	5.4
2026-01-04 00:38:41.267954	40.5	36.7	-76.5	6.6
2026-01-04 00:38:42.407072	40.7	36.9	-77.1	8.1
2026-01-04 00:38:43.544786	41.0	37.1	-76.8	8.1
2026-01-04 00:38:44.683955	41.2	37.4	-76.5	8.1
2026-01-04 00:38:45.821584	41.5	37.6	-76.7	5.2
2026-01-04 00:38:46.959903	41.7	37.9	-77.2	9.0
2026-01-04 00:38:48.097974	42.0	38.1	-76.8	5.0
2026-01-04 00:38:49.234361	42.3	38.3	-77.2	7.9
2026-01-04 00:38:50.373690	42.5	38.6	-75.7	4.0
2026-01-04 00:38:51.512498	42.8	38.8	-76.6	7.3
2026-01-04 00:38:52.653179	43.1	39.1	-77.6	9.7
2026-01-04 00:38:53.792258	43.4	39.3	-76.6	6.6
2026-01-04 00:38:54.932797	43.6	39.6	-77.1	7.5
2026-01-04 00:38:56.068583	43.9	39.8	-77.5	9.1
2026-01-04 00:38:57.206855	44.2	40.1	-76.4	7.3
2026-01-04 00:38:58.344031	44.5	40.3	-76.0	4.3
2026-01-04 00:38:59.481479	44.8	40.6	-75.7	7.9
2026-01-04 00:39:00.617774	45.1	40.8	-76.2	7.0
2026-01-04 00:39:01.755201	45.4	41.1	-74.6	4.9
2026-01-04 00:39:02.891651	45.7	41.3	-75.6	6.3
2026-01-04 00:39:04.028108	46.1	41.6	-77.1	8.5
2026-01-04 00:39:05.165573	46.4	41.8	-76.0	5.8
2026-01-04 00:39:06.302293	46.7	42.1	-74.5	6.6
2026-01-04 00:39:07.438665	47.0	42.4	-76.7	8.4
2026-01-04 00:39:08.573462	47.4	42.6	-76.4	3.2
2026-01-04 00:39:09.703629	47.7	42.9	-76.5	6.5
2026-01-04 00:39:10.832770	48.1	43.1	-75.8	2.1
2026-01-04 00:39:11.962526	48.4	43.4	-77.5	7.4
2026-01-04 00:39:13.096117	48.8	43.7	-76.5	4.1
2026-01-04 00:39:14.225611	49.2	43.9	-74.2	1.9
2026-01-04 00:39:15.354845	49.5	44.2	-76.3	4.8
2026-01-04 00:39:16.484973	49.9	44.4	-76.4	2.2
2026-01-04 00:39:17.615694	50.3	44.7	-74.7	2.5
2026-01-04 00:39:18.743133	50.7	45.0	-76.7	4.2
2026-01-04 00:39:19.872906	51.1	45.2	-77.3	5.0
2026-01-04 00:39:21.002471	51.5	45.5	-74.9	0.0
2026-01-04 00:39:22.133832	51.9	45.7	-74.7	0.0
2026-01-04 00:39:23.263372	52.3	46.0	-77.2	5.5
2026-01-04 00:39:24.390883	52.7	46.3	-76.3	4.7
2026-01-04 00:39:25.521064	53.2	46.5	-77.9	6.3
2026-01-04 00:39:26.650617	53.6	46.8	-77.6	6.2
2026-01-04 00:39:27.780048	54.0	47.1	-77.5	5.2
2026-01-04 00:39:28.909289	54.5	47.3	-77.7	5.4
2026-01-04 00:39:30.039006	55.0	47.6	-74.1	0.0
2026-01-04 00:39:31.167078	55.4	47.8	-76.4	2.4
2026-01-04 00:39:32.295126	55.9	48.1	-77.5	6.5
2026-01-04 00:39:33.430576	56.4	48.4	-76.9	4.1
2026-01-04 00:39:34.568970	56.9	48.6	-75.6	1.8
2026-01-04 00:39:35.708717	57.4	48.9	-76.2	4.8
2026-01-04 00:39:36.846869	57.9	49.2	-76.7	4.8
2026-01-04 00:39:37.985350	58.4	49.4	-74.3	0.0
2026-01-04 00:39:39.124309	59.0	49.7	-74.5	0.0
2026-01-04 00:39:40.263628	59.5	49.9	-74.2	3.0
2026-01-04 00:39:41.397967	60.0	50.2	-77.7	5.9
2026-01-04 00:39:42.536981	60.6	50.4	-76.8	6.5
2026-01-04 00:39:43.673777	61.2	50.7	-77.8	5.9
2026-01-04 00:39:44.813775	61.7	50.9	-74.2	0.0
2026-01-04 00:39:45.948743	62.3	51.2	-74.4	0.0
2026-01-04 00:39:47.081356	62.9	51.4	-75.3	0.4
2026-01-04 00:39:48.218792	63.5	51.7	-75.1	0.5
2026-01-04 00:39:49.357290	64.1	51.9	-77.5	5.0
2026-01-04 00:39:50.495078	64.8	52.2	-77.9	3.9
2026-01-04 00:39:51.633934	65.4	52.4	-76.7	0.0
2026-01-04 00:39:52.774001	66.0	52.6	-76.3	4.5
2026-01-04 00:39:53.913304	66.7	52.9	-74.8	0.0
2026-01-04 00:39:55.052291	67.4	53.1	-76.0	0.5
2026-01-04 00:39:56.193656	68.1	53.3	-75.6	0.0
2026-01-04 00:39:57.330456	68.7	53.6	-77.9	3.3
2026-01-04 00:39:58.469011	69.4	53.8	-76.9	0.0
2026-01-04 00:39:59.610269	70.2	54.0	-71.0	0.0
2026-01-04 00:40:00.746365	70.9	54.2	-72.3	0.0
2026-01-04 00:40:01.883178	71.6	54.4	-74.8	0.0
2026-01-04 00:40:03.019488	72.3	54.6	-77.8	4.6
2026-01-04 00:40:04.159803	73.1	54.9	-75.6	0.0
2026-01-04 00:40:05.294638	73.9	55.1	-78.7	5.2
2026-01-04 00:40:06.428998	74.6	55.3	-76.5	2.7
2026-01-04 00:40:07.563794	75.4	55.4	-76.8	4.9
2026-01-04 00:40:08.695788	76.2	55.6	-78.0	4.9
2026-01-04 00:40:09.830020	77.0	55.8	-74.9	0.0
2026-01-04 00:40:10.965929	77.8	56.0	-75.5	0.0
2026-01-04 00:40:12.098680	78.7	56.2	-78.2	2.9
2026-01-04 00:40:13.235293	79.5	56.3	-78.3	4.8
2026-01-04 00:40:14.371189	80.3	56.5	-77.6	3.2
2026-01-04 00:40:15.504927	81.2	56.6	-78.4	3.2
2026-01-04 00:40:16.637970	82.0	56.8	-78.1	4.1
2026-01-04 00:40:17.772406	82.9	56.9	-78.9	3.0
2026-01-04 00:40:18.908608	83.8	57.1	-77.5	3.5
2026-01-04 00:40:20.049867	84.7	57.2	-75.5	0.0
2026-01-04 00:40:21.185091	85.6	57.3	-78.1	3.7
2026-01-04 00:40:22.320649	86.5	57.5	-77.1	3.7
2026-01-04 00:40:23.454688	87.4	57.6	-76.2	0.0
2026-01-04 00:40:24.588359	88.3	57.7	-79.6	5.6
2026-01-04 00:40:25.722135	89.3	57.8	-78.9	5.5
2026-01-04 00:40:26.854692	90.2	57.9	-77.0	0.4
2026-01-04 00:40:27.987595	91.1	58.0	-79.5	5.1
2026-01-04 00:40:29.121471	92.1	58.0	-78.7	3.5
2026-01-04 00:40:30.254670	93.0	58.1	-76.9	1.4
2026-01-04 00:40:31.385562	94.0	58.2	-78.9	4.1
2026-01-04 00:40:32.517200	95.0	58.2	-78.9	2.6
2026-01-04 00:40:33.649612	95.9	58.3	-79.6	6.5
2026-01-04 00:40:34.784426	96.9	58.3	-79.5	7.6
2026-01-04 00:40:35.917383	97.9	58.3	-80.1	6.6
2026-01-04 00:40:37.050638	98.8	58.4	-78.9	6.7
2026-01-04 00:40:38.184018	99.8	58.4	-79.6	5.4
2026-01-04 00:40:39.316477	100.8	58.4	-79.3	6.3
2026-01-04 00:40:40.453993	101.8	58.4	-79.5	7.4
2026-01-04 00:40:41.592900	102.8	58.4	-78.3	2.9
2026-01-04 00:40:42.727447	103.7	58.4	-80.2	6.3
2026-01-04 00:40:43.860957	104.7	58.4	-79.0	5.3
2026-01-04 00:40:44.999255	105.7	58.3	-79.9	7.5
2026-01-04 00:40:46.137446	106.7	58.3	-78.1	3.5
2026-01-04 00:40:47.275296	107.6	58.3	-79.7	6.1
2026-01-04 00:40:48.409923	108.6	58.2	-78.6	5.1
2026-01-04 00:40:49.548196	109.6	58.2	-80.2	8.4
2026-01-04 00:40:50.686485	110.5	58.1	-80.3	8.7
2026-01-04 00:40:51.820692	111.5	58.0	-80.1	9.2
2026-01-04 00:40:52.957997	112.4	57.9	-80.3	8.9
2026-01-04 00:40:54.095785	113.4	57.9	-79.9	8.8
2026-01-04 00:40:55.234661	114.3	57.8	-80.6	8.0
2026-01-04 00:40:56.369965	115.3	57.7	-80.6	8.1
2026-01-04 00:40:57.507078	116.2	57.6	-80.7	8.4
2026-01-04 00:40:58.640592	117.1	57.4	-80.0	9.1
2026-01-04 00:40:59.778664	118.0	57.3	-80.0	5.7
2026-01-04 00:41:00.914027	118.9	57.2	-80.2	6.8
2026-01-04 00:41:02.050035	119.8	57.1	-79.8	6.8
2026-01-04 00:41:03.186161	120.7	56.9	-80.4	7.1
2026-01-04 00:41:04.322986	121.6	56.8	-80.9	7.3
2026-01-04 00:41:05.456921	122.4	56.6	-81.0	5.8
2026-01-04 00:41:06.590100	123.3	56.5	-80.7	7.7
2026-01-04 00:41:07.726852	124.1	56.3	-81.1	7.5
2026-01-04 00:41:08.863741	125.0	56.1	-81.2	8.4
2026-01-04 00:41:09.999746	125.8	56.0	-80.9	6.6
2026-01-04 00:41:11.134096	126.6	55.8	-81.0	8.9
2026-01-04 00:41:12.268714	127.4	55.6	-80.7	8.5
2026-01-04 00:41:13.396349	128.2	55.4	-80.7	9.0
2026-01-04 00:41:14.526791	129.0	55.2	-79.9	7.9
2026-01-04 00:41:15.655015	129.7	55.0	-80.6	9.3
2026-01-04 00:41:16.784873	130.5	54.8	-80.4	9.9
2026-01-04 00:41:17.914387	131.2	54.6	-80.2	8.1
2026-01-04 00:41:19.045113	132.0	54.4	-80.8	7.6
2026-01-04 00:41:20.173671	132.7	54.2	-80.9	10.3
2026-01-04 00:41:21.300472	133.4	54.0	-80.6	10.7
2026-01-04 00:41:22.429579	134.1	53.8	-80.0	9.9
2026-01-04 00:41:23.558035	134.8	53.6	-80.2	7.5
2026-01-04 00:41:24.688713	135.5	53.3	-81.1	10.2
2026-01-04 00:41:25.817484	136.2	53.1	-80.6	10.2
2026-01-04 00:41:26.950140	136.8	52.9	-81.0	8.0
2026-01-04 00:41:28.087699	137.5	52.6	-81.0	9.9
2026-01-04 00:41:29.223406	138.2	52.4	-80.9	9.2
2026-01-04 00:41:30.357744	138.8	52.2	-81.0	9.7
2026-01-04 00:41:31.490984	139.4	51.9	-81.1	8.6
2026-01-04 00:41:32.628011	140.0	51.7	-81.2	10.4
2026-01-04 00:41:33.763313	140.6	51.4	-80.6	8.8
2026-01-04 00:41:34.901692	141.2	51.2	-80.9	9.9
2026-01-04 00:41:36.039792	141.8	50.9	-81.0	9.2
2026-01-04 00:41:37.175954	142.4	50.7	-81.0	9.3
2026-01-04 00:41:38.312779	143.0	50.4	-80.9	10.9
2026-01-04 00:41:39.451310	143.5	50.2	-80.8	9.5
2026-01-04 00:41:40.588758	144.1	49.9	-80.9	10.4
2026-01-04 00:41:41.726193	144.6	49.6	-80.5	8.8
2026-01-04 00:41:42.864354	145.1	49.4	-80.7	10.9
2026-01-04 00:41:43.998846	145.7	49.1	-80.9	10.7
2026-01-04 00:41:45.133076	146.2	48.9	-80.9	11.2
2026-01-04 00:41:46.267439	146.7	48.6	-80.5	11.4
2026-01-04 00:41:47.398579	147.2	48.3	-80.4	12.0
2026-01-04 00:41:48.527993	147.7	48.1	-80.5	11.6
2026-01-04 00:41:49.657622	148.1	47.8	-80.3	12.1
2026-01-04 00:41:50.794671	148.6	47.5	-80.2	12.4
2026-01-04 00:41:51.932219	149.1	47.3	-80.1	12.1
2026-01-04 00:41:53.068345	149.5	47.0	-79.7	11.8
2026-01-04 00:41:54.202420	150.0	46.8	-79.8	12.0
2026-01-04 00:41:55.340978	150.4	46.5	-79.9	13.1
2026-01-04 00:41:56.478934	150.9	46.2	-79.8	12.9
2026-01-04 00:41:57.613389	151.3	46.0	-79.8	12.7
2026-01-04 00:41:58.750524	151.7	45.7	-79.9	12.5
2026-01-04 00:41:59.889563	152.1	45.4	-79.9	12.1
2026-01-04 00:42:01.025157	152.5	45.2	-80.0	12.2
2026-01-04 00:42:02.165089	152.9	44.9	-79.9	12.8
2026-01-04 00:42:03.301590	153.3	44.6	-79.7	12.1
2026-01-04 00:42:04.437598	153.7	44.4	-79.8	11.8
2026-01-04 00:42:05.569489	154.1	44.1	-80.0	12.5
2026-01-04 00:42:06.702913	154.5	43.8	-79.8	12.3
2026-01-04 00:42:07.835453	154.8	43.6	-79.7	12.6
2026-01-04 00:42:08.969347	155.2	43.3	-79.7	12.7
2026-01-04 00:42:10.108503	155.5	43.1	-79.7	12.0
2026-01-04 00:42:11.245289	155.9	42.8	-79.6	11.7
2026-01-04 00:42:12.382124	156.2	42.5	-79.9	11.6
2026-01-04 00:42:13.519746	156.6	42.3	-80.0	12.2
2026-01-04 00:42:14.658102	156.9	42.0	-79.7	12.5
2026-01-04 00:42:15.793895	157.2	41.8	-79.7	12.5
2026-01-04 00:42:16.930503	157.6	41.5	-79.5	11.2
2026-01-04 00:42:18.068544	157.9	41.2	-79.6	11.0
2026-01-04 00:42:19.204828	158.2	41.0	-79.7	11.9
2026-01-04 00:42:20.342652	158.5	40.7	-79.6	11.8
2026-01-04 00:42:21.482899	158.8	40.5	-79.7	11.7
2026-01-04 00:42:22.623457	159.1	40.2	-79.5	11.4
2026-01-04 00:42:23.759729	159.4	40.0	-79.6	12.1
2026-01-04 00:42:24.895757	159.7	39.7	-79.3	12.0
2026-01-04 00:42:26.032180	160.0	39.5	-79.1	11.6
2026-01-04 00:42:27.168957	160.3	39.2	-79.3	11.4
2026-01-04 00:42:28.307585	160.5	39.0	-79.2	11.7
2026-01-04 00:42:29.442023	160.8	38.7	-79.4	11.9
2026-01-04 00:42:30.578017	161.1	38.5	-79.5	12.3
2026-01-04 00:42:31.715641	161.4	38.2	-79.4	12.0
2026-01-04 00:42:32.855641	161.6	38.0	-79.5	12.2
2026-01-04 00:42:33.993019	161.9	37.7	-79.3	11.8
2026-01-04 00:42:35.130274	162.1	37.5	-79.5	11.8
2026-01-04 00:42:36.266231	162.4	37.3	-79.1	11.7
2026-01-04 00:42:37.402444	162.6	37.0	-78.9	12.1
2026-01-04 00:42:38.538845	162.9	36.8	-79.2	11.1
2026-01-04 00:42:39.672828	163.1	36.5	-79.0	11.6
2026-01-04 00:42:40.811621	163.3	36.3	-79.3	11.6
2026-01-04 00:42:41.947531	163.6	36.1	-78.6	11.9
2026-01-04 00:42:43.085700	163.8	35.8	-78.7	10.5
2026-01-04 00:42:44.219695	164.0	35.6	-78.5	11.4
2026-01-04 00:42:45.354313	164.3	35.4	-78.6	10.5
2026-01-04 00:42:46.491895	164.5	35.2	-78.5	11.3
2026-01-04 00:42:47.628204	164.7	34.9	-78.7	12.1
2026-01-04 00:42:48.766023	164.9	34.7	-78.4	11.9
2026-01-04 00:42:49.903071	165.1	34.5	-78.1	11.9
2026-01-04 00:42:51.040220	165.3	34.2	-78.4	11.0
2026-01-04 00:42:52.177901	165.5	34.0	-78.3	11.3
2026-01-04 00:42:53.314016	165.7	33.8	-78.3	11.1
2026-01-04 00:42:54.451290	165.9	33.6	-78.2	11.2
2026-01-04 00:42:55.588409	166.1	33.4	-78.4	11.3
2026-01-04 00:42:56.723162	166.3	33.1	-78.6	10.9
2026-01-04 00:42:57.861049	166.5	32.9	-78.3	10.1
2026-01-04 00:42:58.997763	166.7	32.7	-78.3	10.9
2026-01-04 00:43:00.132333	166.9	32.5	-78.2	11.3
2026-01-04 00:43:01.272232	167.1	32.3	-78.4	10.9
2026-01-04 00:43:02.410077	167.3	32.1	-78.0	9.7
2026-01-04 00:43:03.547876	167.5	31.8	-78.3	10.8
2026-01-04 00:43:04.682445	167.6	31.6	-78.2	11.0
2026-01-04 00:43:05.821184	167.8	31.4	-78.4	11.3
2026-01-04 00:43:06.959443	168.0	31.2	-78.5	10.8
2026-01-04 00:43:08.100003	168.2	31.0	-78.1	10.9
2026-01-04 00:43:09.238536	168.3	30.8	-78.4	9.6
2026-01-04 00:43:10.375118	168.5	30.6	-78.4	11.0
2026-01-04 00:43:11.508040	168.7	30.4	-78.2	11.3
2026-01-04 00:43:12.637755	168.8	30.2	-78.1	10.5
2026-01-04 00:43:13.766977	169.0	30.0	-78.3	11.3
2026-01-04 00:43:14.895629	169.1	29.8	-78.3	10.4
2026-01-04 00:43:16.026207	169.3	29.6	-78.6	10.0
2026-01-04 00:43:17.156204	169.5	29.4	-78.1	11.1
2026-01-04 00:43:18.283994	169.6	29.2	-78.3	10.8
2026-01-04 00:43:19.414644	169.8	29.0	-78.6	6.3
2026-01-04 00:43:20.543454	169.9	28.8	-78.1	11.6
2026-01-04 00:43:21.677273	170.1	28.6	-77.8	10.4
2026-01-04 00:43:22.808343	170.2	28.4	-78.1	11.4
2026-01-04 00:43:23.939023	170.4	28.3	-78.1	10.9
2026-01-04 00:43:25.070530	170.5	28.1	-78.2	10.5
2026-01-04 00:43:26.200154	170.6	27.9	-77.9	11.0
2026-01-04 00:43:27.330113	170.8	27.7	-78.1	11.1
2026-01-04 00:43:28.461469	170.9	27.5	-78.2	11.1
2026-01-04 00:43:29.591474	171.1	27.3	-78.2	12.0
2026-01-04 00:43:30.720733	171.2	27.1	-78.2	11.9
2026-01-04 00:43:31.848818	171.3	27.0	-78.1	10.7
2026-01-04 00:43:32.978782	171.5	26.8	-77.9	11.3
2026-01-04 00:43:34.105647	171.6	26.6	-78.0	11.4
2026-01-04 00:43:35.238482	171.7	26.4	-77.8	10.4
2026-01-04 00:43:36.374677	171.8	26.2	-78.1	10.4
2026-01-04 00:43:37.507885	172.0	26.1	-78.3	11.2
2026-01-04 00:43:38.645870	172.1	25.9	-78.3	11.5
2026-01-04 00:43:39.782140	172.2	25.7	-78.3	10.3
2026-01-04 00:43:40.916353	172.3	25.5	-78.3	11.1
2026-01-04 00:43:42.055630	172.5	25.4	-78.3	10.4
2026-01-04 00:43:43.189437	172.6	25.2	-78.2	11.8
2026-01-04 00:43:44.322353	172.7	25.0	-78.4	11.7
2026-01-04 00:43:45.458913	172.8	24.8	-78.3	11.0
2026-01-04 00:43:46.594544	172.9	24.7	-78.3	11.5
2026-01-04 00:43:47.731064	173.1	24.5	-78.4	11.1
2026-01-04 00:43:48.870771	173.2	24.3	-78.5	10.5
2026-01-04 00:43:50.006427	173.3	24.2	-78.4	11.0
2026-01-04 00:43:51.141572	173.4	24.0	-78.4	10.1
2026-01-04 00:43:52.277270	173.5	23.8	-78.0	10.1
2026-01-04 00:43:53.411521	173.6	23.7	-78.2	11.1
2026-01-04 00:43:54.544321	173.7	23.5	-78.2	11.3
2026-01-04 00:43:55.680973	173.8	23.4	-78.0	8.7
2026-01-04 00:43:56.815891	173.9	23.2	-78.4	10.9
2026-01-04 00:43:57.953101	174.0	23.0	-78.6	10.7
2026-01-04 00:43:59.087507	174.2	22.9	-78.7	10.7
2026-01-04 00:44:00.220938	174.3	22.7	-78.7	10.6
2026-01-04 00:44:01.354383	174.4	22.6	-78.3	10.6
2026-01-04 00:44:02.493923	174.5	22.4	-78.2	10.9
2026-01-04 00:44:03.631583	174.6	22.2	-78.3	10.8
2026-01-04 00:44:04.766797	174.7	22.1	-78.5	10.6
2026-01-04 00:44:05.904207	174.8	21.9	-78.3	9.8
2026-01-04 00:44:07.037446	174.9	21.8	-78.5	10.4
2026-01-04 00:44:08.176177	175.0	21.6	-78.6	9.7
2026-01-04 00:44:09.313694	175.1	21.5	-78.5	9.6
2026-01-04 00:44:10.454218	175.1	21.3	-78.7	10.5
2026-01-04 00:44:11.592314	175.2	21.2	-78.6	9.7
2026-01-04 00:44:12.728623	175.3	21.0	-78.6	10.4
2026-01-04 00:44:13.866509	175.4	20.9	-78.5	10.2
2026-01-04 00:44:15.001928	175.5	20.7	-78.4	10.1
2026-01-04 00:44:16.141229	175.6	20.6	-78.7	10.2
2026-01-04 00:44:17.279513	175.7	20.4	-78.6	9.2
2026-01-04 00:44:18.414961	175.8	20.3	-78.8	10.1
2026-01-04 00:44:19.553758	175.9	20.2	-78.6	10.0
2026-01-04 00:44:20.691159	176.0	20.0	-78.9	9.9
2026-01-04 00:44:21.829703	176.1	19.9	-78.8	10.2
2026-01-04 00:44:22.967420	176.1	19.7	-78.6	10.3
2026-01-04 00:44:24.105445	176.2	19.6	-78.5	10.7
2026-01-04 00:44:25.238165	176.3	19.4	-78.5	10.1
2026-01-04 00:44:26.375215	176.4	19.3	-78.6	10.3
2026-01-04 00:44:27.510834	176.5	19.2	-78.8	9.5
2026-01-04 00:44:28.645931	176.6	19.0	-79.0	10.0
2026-01-04 00:44:29.780167	176.6	18.9	-78.9	9.7
2026-01-04 00:44:30.913114	176.7	18.8	-78.9	9.6
2026-01-04 00:44:32.046854	176.8	18.6	-79.1	9.4
2026-01-04 00:44:33.180629	176.9	18.5	-79.0	10.1
2026-01-04 00:44:34.316669	177.0	18.3	-79.1	9.7
2026-01-04 00:44:35.450895	177.0	18.2	-79.1	9.4
2026-01-04 00:44:36.584932	177.1	18.1	-79.1	9.0
2026-01-04 00:44:37.722514	177.2	17.9	-78.9	9.2
2026-01-04 00:44:38.856046	177.3	17.8	-79.2	9.8
2026-01-04 00:44:39.990380	177.3	17.7	-79.1	9.5
2026-01-04 00:44:41.126155	177.4	17.6	-79.4	10.0
2026-01-04 00:44:42.262839	177.5	17.4	-79.3	9.7
2026-01-04 00:44:43.396302	177.6	17.3	-79.0	9.3
2026-01-04 00:44:44.533255	177.6	17.2	-79.0	9.5
2026-01-04 00:44:45.667952	177.7	17.0	-79.2	9.2
2026-01-04 00:44:46.803695	177.8	16.9	-79.4	8.7
2026-01-04 00:44:47.938322	177.9	16.8	-79.4	9.1
2026-01-04 00:44:49.073759	177.9	16.7	-79.2	9.3
2026-01-04 00:44:50.211003	178.0	16.5	-79.3	9.4
2026-01-04 00:44:51.345755	178.1	16.4	-79.3	9.2
2026-01-04 00:44:52.481840	178.1	16.3	-79.5	9.3
2026-01-04 00:44:53.614291	178.2	16.2	-79.1	9.8
2026-01-04 00:44:54.747586	178.3	16.0	-79.0	9.4
2026-01-04 00:44:55.884011	178.3	15.9	-79.3	9.3
2026-01-04 00:44:57.022763	178.4	15.8	-79.1	9.7
2026-01-04 00:44:58.161289	178.5	15.7	-79.1	9.2
2026-01-04 00:44:59.298881	178.5	15.5	-79.0	9.2
2026-01-04 00:45:00.432508	178.6	15.4	-79.1	7.9
2026-01-04 00:45:01.567965	178.7	15.3	-79.1	9.5
2026-01-04 00:45:02.705488	178.7	15.2	-79.0	8.9
2026-01-04 00:45:03.842772	178.8	15.1	-79.0	9.4
2026-01-04 00:45:04.981185	178.9	14.9	-79.0	8.9
2026-01-04 00:45:06.119652	178.9	14.8	-78.9	9.7
2026-01-04 00:45:07.260022	179.0	14.7	-79.0	9.2
2026-01-04 00:45:08.399660	179.1	14.6	-78.9	9.3
2026-01-04 00:45:09.537443	179.1	14.5	-79.1	9.3
2026-01-04 00:45:10.674118	179.2	14.4	-78.9	9.1
2026-01-04 00:45:11.811982	179.2	14.2	-79.2	9.0
2026-01-04 00:45:12.937561	179.3	14.1	-78.9	9.0
2026-01-04 00:45:14.068891	179.4	14.0	-78.7	8.3
2026-01-04 00:45:15.198091	179.4	13.9	-78.8	8.6
2026-01-04 00:45:16.325703	179.5	13.8	-79.0	9.3
2026-01-04 00:45:17.453924	179.5	13.7	-79.3	9.0
2026-01-04 00:45:18.582876	179.6	13.6	-78.9	8.8
2026-01-04 00:45:19.711763	179.6	13.5	-79.0	8.9
2026-01-04 00:45:20.842322	179.7	13.4	-79.1	8.3
2026-01-04 00:45:21.972953	179.8	13.2	-78.5	9.2
2026-01-04 00:45:23.101475	179.8	13.1	-79.2	7.7
2026-01-04 00:45:24.230701	179.9	13.0	-78.6	9.0
2026-01-04 00:45:25.360014	179.9	12.9	-78.7	8.0
2026-01-04 00:45:26.489007	180.0	12.8	-78.5	9.2
2026-01-04 00:45:27.618052	180.0	12.7	-78.9	8.3
2026-01-04 00:45:28.748016	180.1	12.6	-78.5	8.3
2026-01-04 00:45:29.878030	180.1	12.5	-78.8	7.9
2026-01-04 00:45:31.006028	180.2	12.4	-78.7	7.3
2026-01-04 00:45:32.133713	180.3	12.3	-78.9	7.4
2026-01-04 00:45:33.263358	180.3	12.2	-79.3	7.5
2026-01-04 00:45:34.393375	180.4	12.1	-78.5	8.0
2026-01-04 00:45:35.520240	180.4	12.0	-79.2	5.5
2026-01-04 00:45:36.655641	180.5	11.9	-78.8	7.5
2026-01-04 00:45:37.791021	180.5	11.8	-78.7	7.1
2026-01-04 00:45:38.925269	180.6	11.6	-78.5	6.8
2026-01-04 00:45:40.061102	180.6	11.5	-78.6	6.2
2026-01-04 00:45:41.196119	180.7	11.4	-78.8	5.3
2026-01-04 00:45:42.334203	180.7	11.3	-78.2	6.8
2026-01-04 00:45:43.471658	180.8	11.2	-78.5	5.1
2026-01-04 00:45:44.611524	180.8	11.1	-78.4	6.4
2026-01-04 00:45:45.750725	180.9	11.0	-78.6	7.4
2026-01-04 00:45:46.890521	180.9	10.9	-79.3	6.7
2026-01-04 00:45:48.028185	181.0	10.8	-79.6	6.5
2026-01-04 00:45:49.166827	181.0	10.7	-80.0	4.5
2026-01-04 00:45:50.305861	181.1	10.6	-81.7	0.0
2026-01-04 00:45:51.445746	181.1	10.5	-81.5	0.0
2026-01-04 00:45:52.583961	181.2	10.4	-82.8	0.0
2026-01-04 00:45:53.720867	181.2	10.3	-83.1	0.0
2026-01-04 00:45:54.860614	181.3	10.2	-84.4	0.0
2026-01-04 00:45:56.000331	181.3	10.1	-85.9	0.0
2026-01-04 00:45:57.139216	181.4	10.0	-85.9	0.0
#Closed at: 2026-01-04 00:35:15.555346