passes_logs/2026/01/04/planumMaritime01/planumMaritime01__20260104_183644_METOP-C_rec.log

#Pass ID: 20260104_183644_METOP-C
#Satellite: METOP-C
#Configuration: METOP-C
#Start time: 2026-01-04 18:36:49.105352

#LorettStation: 1.0.0 05.05.2024
#Station: planumMaritime01
#Location: 37.49445 lon 55.92918 lat
#TLE: 1 43689U 18087A   26003.64214103  .00000255  00000+0  13641-3 0  9995
#TLE: 2 43689  98.6897  66.0725 0000140 327.1769  32.9399 14.21494298371454

#Time	Az	El	Level	SNR
2026-01-04 18:36:51.272975	181.0	10.2	-73.2	0.0
2026-01-04 18:36:52.398759	181.1	10.3	-73.6	0.0
2026-01-04 18:36:53.523449	181.1	10.4	-73.6	0.0
2026-01-04 18:36:54.648824	181.2	10.5	-72.6	0.0
2026-01-04 18:36:55.774074	181.2	10.6	-72.5	0.0
2026-01-04 18:36:56.899289	181.3	10.7	-71.8	0.0
2026-01-04 18:36:58.024084	181.3	10.8	-72.3	0.0
2026-01-04 18:36:59.152318	181.4	10.9	-73.0	1.8
2026-01-04 18:37:00.277936	181.4	11.0	-71.8	1.8
2026-01-04 18:37:01.404883	181.5	11.1	-71.8	0.6
2026-01-04 18:37:02.531734	181.6	11.2	-71.7	1.9
2026-01-04 18:37:03.660276	181.6	11.3	-71.6	1.7
2026-01-04 18:37:04.787730	181.7	11.4	-71.5	0.0
2026-01-04 18:37:05.915611	181.7	11.5	-72.2	1.9
2026-01-04 18:37:07.041417	181.8	11.6	-72.3	2.9
2026-01-04 18:37:08.166987	181.8	11.7	-72.0	0.8
2026-01-04 18:37:09.292930	181.9	11.8	-72.0	0.9
2026-01-04 18:37:10.419240	182.0	11.9	-72.0	0.0
2026-01-04 18:37:11.545077	182.0	12.0	-72.0	0.7
2026-01-04 18:37:12.672070	182.1	12.1	-71.9	0.8
2026-01-04 18:37:13.797259	182.1	12.2	-72.3	1.4
2026-01-04 18:37:14.922806	182.2	12.3	-71.9	2.6
2026-01-04 18:37:16.049723	182.2	12.4	-72.5	2.0
2026-01-04 18:37:17.174476	182.3	12.5	-71.9	1.8
2026-01-04 18:37:18.303913	182.4	12.6	-72.4	3.4
2026-01-04 18:37:19.431057	182.4	12.7	-72.4	1.8
2026-01-04 18:37:20.555409	182.5	12.8	-72.4	2.9
2026-01-04 18:37:21.681055	182.6	12.9	-72.4	1.9
2026-01-04 18:37:22.807330	182.6	13.0	-72.3	0.1
2026-01-04 18:37:23.933420	182.7	13.1	-71.6	2.2
2026-01-04 18:37:25.063354	182.7	13.2	-71.6	0.0
2026-01-04 18:37:26.189217	182.8	13.4	-72.0	1.5
2026-01-04 18:37:27.314870	182.9	13.5	-71.9	1.9
2026-01-04 18:37:28.441475	182.9	13.6	-72.1	2.8
2026-01-04 18:37:29.568301	183.0	13.7	-71.8	2.8
2026-01-04 18:37:30.694742	183.1	13.8	-71.8	2.1
2026-01-04 18:37:31.822649	183.1	13.9	-71.8	0.3
2026-01-04 18:37:32.950686	183.2	14.0	-70.7	0.0
2026-01-04 18:37:34.077695	183.3	14.1	-71.3	1.7
2026-01-04 18:37:35.205812	183.3	14.2	-72.2	2.3
2026-01-04 18:37:36.331917	183.4	14.4	-72.1	2.9
2026-01-04 18:37:37.457697	183.5	14.5	-71.8	1.9
2026-01-04 18:37:38.584506	183.5	14.6	-71.4	3.0
2026-01-04 18:37:39.709981	183.6	14.7	-72.2	2.4
2026-01-04 18:37:40.835434	183.7	14.8	-71.0	2.1
2026-01-04 18:37:41.962749	183.7	14.9	-71.2	0.4
2026-01-04 18:37:43.090177	183.8	15.0	-72.1	2.1
2026-01-04 18:37:44.215211	183.9	15.2	-71.4	1.3
2026-01-04 18:37:45.342107	184.0	15.3	-70.4	0.0
2026-01-04 18:37:46.468410	184.0	15.4	-71.7	0.0
2026-01-04 18:37:47.594934	184.1	15.5	-71.1	0.2
2026-01-04 18:37:48.721804	184.2	15.6	-71.8	1.8
2026-01-04 18:37:49.846349	184.3	15.8	-71.2	1.5
2026-01-04 18:37:50.979133	184.3	15.9	-71.9	2.9
2026-01-04 18:37:52.105311	184.4	16.0	-71.7	1.1
2026-01-04 18:37:53.231051	184.5	16.1	-71.9	2.4
2026-01-04 18:37:54.359471	184.6	16.2	-72.3	1.6
2026-01-04 18:37:55.488986	184.6	16.4	-71.9	0.8
2026-01-04 18:37:56.618540	184.7	16.5	-72.5	0.1
2026-01-04 18:37:57.745770	184.8	16.6	-71.6	0.0
2026-01-04 18:37:58.873115	184.9	16.7	-72.0	0.0
2026-01-04 18:38:00.000956	184.9	16.9	-71.6	0.5
2026-01-04 18:38:01.127432	185.0	17.0	-72.1	2.0
2026-01-04 18:38:02.253490	185.1	17.1	-72.1	1.4
2026-01-04 18:38:03.379722	185.2	17.2	-71.5	0.0
2026-01-04 18:38:04.505447	185.3	17.4	-71.8	1.6
2026-01-04 18:38:05.630195	185.4	17.5	-71.9	0.0
2026-01-04 18:38:06.756965	185.4	17.6	-71.3	0.0
2026-01-04 18:38:07.882867	185.5	17.7	-71.2	0.6
2026-01-04 18:38:09.008452	185.6	17.9	-71.2	0.5
2026-01-04 18:38:10.136467	185.7	18.0	-71.0	0.4
2026-01-04 18:38:11.263685	185.8	18.1	-71.6	1.1
2026-01-04 18:38:12.391741	185.9	18.3	-71.5	0.0
2026-01-04 18:38:13.519696	186.0	18.4	-70.9	0.0
2026-01-04 18:38:14.647095	186.0	18.5	-70.8	0.0
2026-01-04 18:38:15.774143	186.1	18.7	-70.9	4.8
2026-01-04 18:38:16.899706	186.2	18.8	-70.9	3.3
2026-01-04 18:38:18.025491	186.3	18.9	-70.9	2.1
2026-01-04 18:38:19.152018	186.4	19.1	-70.5	0.7
2026-01-04 18:38:20.279893	186.5	19.2	-70.8	0.8
2026-01-04 18:38:21.407406	186.6	19.3	-70.7	1.9
2026-01-04 18:38:22.533902	186.7	19.5	-71.1	2.4
2026-01-04 18:38:23.660541	186.8	19.6	-70.9	1.8
2026-01-04 18:38:24.787917	186.9	19.7	-70.5	2.2
2026-01-04 18:38:25.914399	187.0	19.9	-70.7	1.5
2026-01-04 18:38:27.041529	187.1	20.0	-70.6	0.0
2026-01-04 18:38:28.169162	187.2	20.2	-69.7	1.1
2026-01-04 18:38:29.297890	187.3	20.3	-70.2	0.1
2026-01-04 18:38:30.427623	187.4	20.4	-70.1	0.9
2026-01-04 18:38:31.556396	187.5	20.6	-69.9	0.0
2026-01-04 18:38:32.684304	187.6	20.7	-70.6	1.7
2026-01-04 18:38:33.810534	187.7	20.9	-71.2	2.3
2026-01-04 18:38:34.936202	187.8	21.0	-71.4	3.0
2026-01-04 18:38:36.062677	187.9	21.2	-71.2	0.9
2026-01-04 18:38:37.190540	188.0	21.3	-70.4	0.0
2026-01-04 18:38:38.318690	188.1	21.5	-70.3	0.7
2026-01-04 18:38:39.445077	188.2	21.6	-70.4	0.8
2026-01-04 18:38:40.571611	188.3	21.8	-69.8	0.0
2026-01-04 18:38:41.698684	188.4	21.9	-70.0	0.2
2026-01-04 18:38:42.826883	188.5	22.1	-69.8	1.4
2026-01-04 18:38:43.953198	188.6	22.2	-70.0	1.3
2026-01-04 18:38:45.077391	188.7	22.4	-70.0	0.7
2026-01-04 18:38:46.208913	188.9	22.5	-70.2	0.8
2026-01-04 18:38:47.334481	189.0	22.7	-69.9	1.0
2026-01-04 18:38:48.461376	189.1	22.8	-70.1	1.1
2026-01-04 18:38:49.590828	189.2	23.0	-70.0	0.4
2026-01-04 18:38:50.718560	189.3	23.1	-70.5	2.9
2026-01-04 18:38:51.845217	189.4	23.3	-70.0	2.8
2026-01-04 18:38:52.974372	189.6	23.4	-69.9	3.1
2026-01-04 18:38:54.104335	189.7	23.6	-70.4	2.5
2026-01-04 18:38:55.232138	189.8	23.8	-69.9	4.0
2026-01-04 18:38:56.359773	189.9	23.9	-69.3	2.8
2026-01-04 18:38:57.486252	190.1	24.1	-70.1	4.2
2026-01-04 18:38:58.615688	190.2	24.3	-69.5	3.8
2026-01-04 18:38:59.743929	190.3	24.4	-69.8	4.0
2026-01-04 18:39:00.872958	190.4	24.6	-69.6	2.2
2026-01-04 18:39:01.999751	190.6	24.7	-70.3	4.7
2026-01-04 18:39:03.129108	190.7	24.9	-69.5	2.4
2026-01-04 18:39:04.256825	190.8	25.1	-69.8	2.8
2026-01-04 18:39:05.384807	191.0	25.2	-69.9	2.6
2026-01-04 18:39:06.512611	191.1	25.4	-70.0	3.7
2026-01-04 18:39:07.638312	191.2	25.6	-69.7	3.2
2026-01-04 18:39:08.766778	191.4	25.7	-69.9	2.9
2026-01-04 18:39:09.894601	191.5	25.9	-69.8	2.9
2026-01-04 18:39:11.019460	191.7	26.1	-70.6	3.1
2026-01-04 18:39:12.145680	191.8	26.3	-70.0	3.7
2026-01-04 18:39:13.272293	191.9	26.4	-70.1	3.6
2026-01-04 18:39:14.398498	192.1	26.6	-70.2	3.7
2026-01-04 18:39:15.523673	192.2	26.8	-70.1	1.9
2026-01-04 18:39:16.648873	192.4	27.0	-70.7	3.4
2026-01-04 18:39:17.776567	192.5	27.1	-71.1	5.2
2026-01-04 18:39:18.904907	192.7	27.3	-70.1	3.2
2026-01-04 18:39:20.030837	192.8	27.5	-70.7	2.7
2026-01-04 18:39:21.158571	193.0	27.7	-70.9	3.1
2026-01-04 18:39:22.284861	193.2	27.9	-70.8	4.5
2026-01-04 18:39:23.411386	193.3	28.0	-70.5	3.2
2026-01-04 18:39:24.537778	193.5	28.2	-71.1	4.7
2026-01-04 18:39:25.664302	193.6	28.4	-70.9	4.6
2026-01-04 18:39:26.791875	193.8	28.6	-70.9	5.5
2026-01-04 18:39:27.919284	194.0	28.8	-70.7	6.2
2026-01-04 18:39:29.045828	194.1	29.0	-70.8	4.5
2026-01-04 18:39:30.172562	194.3	29.2	-70.8	4.9
2026-01-04 18:39:31.298726	194.5	29.3	-71.1	6.5
2026-01-04 18:39:32.426204	194.7	29.5	-71.0	5.2
2026-01-04 18:39:33.553070	194.8	29.7	-70.9	5.9
2026-01-04 18:39:34.680378	195.0	29.9	-71.4	6.2
2026-01-04 18:39:35.808023	195.2	30.1	-71.2	6.8
2026-01-04 18:39:36.936427	195.4	30.3	-71.7	7.2
2026-01-04 18:39:38.062616	195.6	30.5	-71.3	6.6
2026-01-04 18:39:39.189881	195.7	30.7	-71.5	5.9
2026-01-04 18:39:40.315053	195.9	30.9	-71.3	5.7
2026-01-04 18:39:41.441630	196.1	31.1	-71.5	5.9
2026-01-04 18:39:42.567195	196.3	31.3	-71.6	4.8
2026-01-04 18:39:43.694015	196.5	31.5	-71.5	5.5
2026-01-04 18:39:44.820602	196.7	31.7	-71.8	5.6
2026-01-04 18:39:45.948778	196.9	31.9	-72.1	5.5
2026-01-04 18:39:47.076768	197.1	32.1	-72.4	6.1
2026-01-04 18:39:48.206234	197.3	32.3	-72.4	6.5
2026-01-04 18:39:49.333793	197.5	32.5	-72.1	5.6
2026-01-04 18:39:50.459585	197.7	32.7	-72.3	4.8
2026-01-04 18:39:51.585576	198.0	32.9	-72.4	6.6
2026-01-04 18:39:52.712177	198.2	33.1	-72.6	8.0
2026-01-04 18:39:53.839654	198.4	33.3	-72.5	8.4
2026-01-04 18:39:54.965244	198.6	33.6	-72.9	9.0
2026-01-04 18:39:56.091668	198.8	33.8	-72.5	8.1
2026-01-04 18:39:57.218971	199.1	34.0	-72.3	8.9
2026-01-04 18:39:58.344170	199.3	34.2	-72.3	9.6
2026-01-04 18:39:59.471722	199.5	34.4	-72.4	9.5
2026-01-04 18:40:00.602556	199.8	34.6	-72.4	9.7
2026-01-04 18:40:01.728291	200.0	34.8	-72.1	9.7
2026-01-04 18:40:02.853991	200.3	35.1	-72.2	10.5
2026-01-04 18:40:03.980987	200.5	35.3	-72.3	9.5
2026-01-04 18:40:05.108087	200.7	35.5	-72.8	10.3
2026-01-04 18:40:06.238288	201.0	35.7	-72.3	11.1
2026-01-04 18:40:07.367420	201.3	35.9	-72.3	10.5
2026-01-04 18:40:08.494556	201.5	36.2	-72.6	10.8
2026-01-04 18:40:09.620705	201.8	36.4	-72.4	11.3
2026-01-04 18:40:10.746708	202.0	36.6	-72.6	10.6
2026-01-04 18:40:11.874424	202.3	36.8	-72.6	12.4
2026-01-04 18:40:13.001782	202.6	37.1	-72.6	12.2
2026-01-04 18:40:14.130543	202.9	37.3	-72.7	12.5
2026-01-04 18:40:15.257457	203.1	37.5	-72.5	12.6
2026-01-04 18:40:16.384513	203.4	37.7	-72.9	12.8
2026-01-04 18:40:17.510390	203.7	38.0	-72.5	11.7
2026-01-04 18:40:18.637618	204.0	38.2	-73.0	13.5
2026-01-04 18:40:19.764282	204.3	38.4	-72.9	13.1
2026-01-04 18:40:20.890599	204.6	38.7	-73.1	13.2
2026-01-04 18:40:22.018139	204.9	38.9	-72.9	13.1
2026-01-04 18:40:23.145124	205.2	39.1	-73.3	13.7
2026-01-04 18:40:24.271705	205.5	39.4	-73.2	13.2
2026-01-04 18:40:25.399368	205.9	39.6	-73.3	12.7
2026-01-04 18:40:26.527209	206.2	39.8	-73.5	12.7
2026-01-04 18:40:27.653747	206.5	40.1	-73.5	13.7
2026-01-04 18:40:28.780413	206.8	40.3	-73.1	13.3
2026-01-04 18:40:29.907829	207.2	40.5	-73.4	14.3
2026-01-04 18:40:31.032909	207.5	40.8	-73.7	14.1
2026-01-04 18:40:32.159375	207.9	41.0	-73.6	14.1
2026-01-04 18:40:33.287042	208.2	41.2	-73.5	13.6
2026-01-04 18:40:34.414286	208.6	41.5	-73.5	13.4
2026-01-04 18:40:35.540997	208.9	41.7	-73.7	13.9
2026-01-04 18:40:36.666632	209.3	41.9	-73.6	13.7
2026-01-04 18:40:37.794792	209.7	42.2	-73.7	13.7
2026-01-04 18:40:38.921283	210.1	42.4	-73.6	13.4
2026-01-04 18:40:40.048449	210.4	42.7	-73.6	13.6
2026-01-04 18:40:41.173759	210.8	42.9	-73.5	13.5
2026-01-04 18:40:42.302843	211.2	43.1	-73.3	13.5
2026-01-04 18:40:43.428761	211.6	43.4	-73.1	13.4
2026-01-04 18:40:44.553613	212.0	43.6	-73.3	13.6
2026-01-04 18:40:45.682887	212.5	43.9	-73.2	13.6
2026-01-04 18:40:46.808899	212.9	44.1	-73.1	13.2
2026-01-04 18:40:47.937443	213.3	44.3	-72.5	12.1
2026-01-04 18:40:49.065672	213.7	44.6	-72.8	13.3
2026-01-04 18:40:50.191284	214.2	44.8	-72.9	13.8
2026-01-04 18:40:51.317266	214.6	45.0	-72.6	12.9
2026-01-04 18:40:52.444076	215.1	45.3	-72.8	13.4
2026-01-04 18:40:53.570665	215.5	45.5	-72.8	12.0
2026-01-04 18:40:54.701237	216.0	45.7	-72.5	11.9
2026-01-04 18:40:55.828390	216.5	46.0	-72.7	12.7
2026-01-04 18:40:56.956805	216.9	46.2	-72.6	12.2
2026-01-04 18:40:58.082042	217.4	46.4	-72.8	12.7
2026-01-04 18:40:59.209532	217.9	46.7	-73.0	13.4
2026-01-04 18:41:00.339166	218.4	46.9	-72.8	13.7
2026-01-04 18:41:01.465510	218.9	47.1	-72.6	12.6
2026-01-04 18:41:02.591540	219.5	47.4	-72.7	12.7
2026-01-04 18:41:03.718167	220.0	47.6	-72.6	13.4
2026-01-04 18:41:04.843508	220.5	47.8	-72.3	13.4
2026-01-04 18:41:05.968930	221.0	48.0	-71.9	12.6
2026-01-04 18:41:07.098510	221.6	48.3	-72.5	14.5
2026-01-04 18:41:08.225819	222.1	48.5	-72.3	13.9
2026-01-04 18:41:09.352676	222.7	48.7	-72.1	13.3
2026-01-04 18:41:10.478802	223.3	48.9	-72.5	13.5
2026-01-04 18:41:11.605522	223.8	49.1	-72.2	12.7
2026-01-04 18:41:12.730912	224.4	49.4	-72.3	12.5
2026-01-04 18:41:13.854848	225.0	49.6	-72.1	12.5
2026-01-04 18:41:14.980573	225.6	49.8	-72.9	12.6
2026-01-04 18:41:16.107627	226.2	50.0	-72.7	12.9
2026-01-04 18:41:17.234041	226.9	50.2	-73.1	12.5
2026-01-04 18:41:18.361762	227.5	50.4	-72.8	11.7
2026-01-04 18:41:19.487784	228.1	50.6	-72.8	12.2
2026-01-04 18:41:20.614569	228.8	50.8	-73.2	12.5
2026-01-04 18:41:21.742729	229.4	51.0	-72.8	11.9
2026-01-04 18:41:22.868117	230.1	51.2	-72.9	12.0
2026-01-04 18:41:23.994754	230.7	51.3	-73.1	12.8
2026-01-04 18:41:25.121648	231.4	51.5	-72.8	12.7
2026-01-04 18:41:26.248465	232.1	51.7	-72.6	11.8
2026-01-04 18:41:27.373560	232.8	51.9	-72.7	11.7
2026-01-04 18:41:28.500944	233.5	52.1	-72.8	11.4
2026-01-04 18:41:29.627478	234.2	52.2	-72.6	10.9
2026-01-04 18:41:30.755968	234.9	52.4	-72.5	12.0
2026-01-04 18:41:31.883043	235.6	52.6	-72.7	11.4
2026-01-04 18:41:33.011564	236.4	52.7	-72.9	12.4
2026-01-04 18:41:34.139914	237.1	52.9	-72.8	11.6
2026-01-04 18:41:35.265514	237.9	53.0	-73.0	12.0
2026-01-04 18:41:36.393034	238.6	53.2	-72.8	11.9
2026-01-04 18:41:37.518922	239.4	53.3	-72.5	12.1
2026-01-04 18:41:38.645420	240.1	53.4	-72.2	10.1
2026-01-04 18:41:39.772099	240.9	53.6	-72.5	11.9
2026-01-04 18:41:40.901080	241.7	53.7	-72.7	11.7
2026-01-04 18:41:42.027918	242.5	53.8	-72.1	10.7
2026-01-04 18:41:43.154118	243.3	53.9	-72.9	11.4
2026-01-04 18:41:44.281943	244.1	54.0	-72.4	10.8
2026-01-04 18:41:45.409598	244.9	54.1	-72.9	12.4
2026-01-04 18:41:46.535570	245.7	54.2	-72.7	12.0
2026-01-04 18:41:47.661897	246.5	54.3	-72.9	12.3
2026-01-04 18:41:48.788035	247.4	54.4	-72.3	10.6
2026-01-04 18:41:49.915042	248.2	54.5	-73.3	13.2
2026-01-04 18:41:51.039249	249.0	54.6	-73.2	13.7
2026-01-04 18:41:52.166609	249.8	54.6	-72.1	10.8
2026-01-04 18:41:53.294210	250.7	54.7	-72.2	11.1
2026-01-04 18:41:54.421695	251.5	54.8	-72.8	13.1
2026-01-04 18:41:55.549429	252.4	54.8	-72.1	10.0
2026-01-04 18:41:56.677051	253.2	54.8	-72.7	13.1
2026-01-04 18:41:57.803865	254.1	54.9	-72.2	11.9
2026-01-04 18:41:58.931624	254.9	54.9	-72.7	12.9
2026-01-04 18:42:00.059513	255.8	54.9	-73.1	13.3
2026-01-04 18:42:01.186418	256.7	55.0	-73.1	13.2
2026-01-04 18:42:02.316550	257.5	55.0	-72.5	12.7
2026-01-04 18:42:03.442705	258.4	55.0	-71.9	11.0
2026-01-04 18:42:04.570974	259.2	55.0	-72.3	13.2
2026-01-04 18:42:05.696569	260.1	55.0	-71.9	9.6
2026-01-04 18:42:06.821048	261.0	55.0	-71.6	11.9
2026-01-04 18:42:07.946995	261.8	55.0	-72.5	11.5
2026-01-04 18:42:09.074829	262.7	54.9	-72.1	8.8
2026-01-04 18:42:10.202430	263.5	54.9	-72.0	11.7
2026-01-04 18:42:11.329998	264.4	54.9	-71.9	11.0
2026-01-04 18:42:12.454023	265.2	54.8	-71.8	10.5
2026-01-04 18:42:13.579492	266.1	54.8	-71.3	7.3
2026-01-04 18:42:14.707020	266.9	54.7	-72.2	11.5
2026-01-04 18:42:15.835133	267.8	54.7	-71.8	8.6
2026-01-04 18:42:16.961751	268.6	54.6	-72.3	11.5
2026-01-04 18:42:18.092042	269.4	54.5	-72.2	11.7
2026-01-04 18:42:19.216657	270.3	54.4	-71.7	10.2
2026-01-04 18:42:20.344115	271.1	54.4	-72.5	12.2
2026-01-04 18:42:21.471389	271.9	54.3	-71.4	9.6
2026-01-04 18:42:22.597328	272.7	54.2	-71.7	9.4
2026-01-04 18:42:23.724312	273.5	54.1	-71.9	9.9
2026-01-04 18:42:24.850994	274.3	54.0	-72.3	11.7
2026-01-04 18:42:25.980494	275.1	53.9	-71.5	10.7
2026-01-04 18:42:27.106636	275.9	53.7	-71.0	10.9
2026-01-04 18:42:28.232979	276.7	53.6	-71.6	9.3
2026-01-04 18:42:29.360441	277.5	53.5	-71.0	8.5
2026-01-04 18:42:30.487579	278.3	53.4	-71.7	9.0
2026-01-04 18:42:31.616629	279.0	53.2	-70.7	7.5
2026-01-04 18:42:32.748452	279.8	53.1	-70.3	7.6
2026-01-04 18:42:33.875925	280.5	52.9	-70.0	4.1
2026-01-04 18:42:35.002303	281.3	52.8	-70.4	7.0
2026-01-04 18:42:36.128475	282.0	52.6	-70.8	8.3
2026-01-04 18:42:37.255894	282.7	52.5	-70.3	6.9
2026-01-04 18:42:38.382947	283.5	52.3	-70.5	6.3
2026-01-04 18:42:39.509285	284.2	52.1	-70.9	9.3
2026-01-04 18:42:40.634976	284.9	52.0	-70.5	6.0
2026-01-04 18:42:41.761526	285.6	51.8	-70.9	10.2
2026-01-04 18:42:42.888413	286.3	51.6	-70.0	7.7
2026-01-04 18:42:44.016608	286.9	51.4	-70.3	7.2
2026-01-04 18:42:45.144599	287.6	51.3	-71.1	8.9
2026-01-04 18:42:46.271969	288.3	51.1	-71.2	8.4
2026-01-04 18:42:47.401253	288.9	50.9	-70.9	9.4
2026-01-04 18:42:48.526715	289.6	50.7	-70.5	6.7
2026-01-04 18:42:49.654902	290.2	50.5	-70.1	6.2
2026-01-04 18:42:50.782266	290.8	50.3	-71.0	9.7
2026-01-04 18:42:51.910438	291.4	50.1	-69.2	0.0
2026-01-04 18:42:53.037190	292.1	49.9	-70.6	6.1
2026-01-04 18:42:54.165249	292.7	49.7	-69.6	5.1
2026-01-04 18:42:55.293290	293.3	49.5	-68.9	4.4
2026-01-04 18:42:56.421775	293.9	49.2	-70.7	8.4
2026-01-04 18:42:57.550825	294.4	49.0	-70.0	2.8
2026-01-04 18:42:58.677995	295.0	48.8	-68.5	3.1
2026-01-04 18:42:59.806076	295.6	48.6	-70.8	8.3
2026-01-04 18:43:00.932421	296.1	48.4	-71.1	7.5
2026-01-04 18:43:02.060315	296.7	48.2	-70.4	2.2
2026-01-04 18:43:03.189399	297.2	47.9	-70.2	1.5
2026-01-04 18:43:04.315576	297.7	47.7	-71.2	9.1
2026-01-04 18:43:05.441675	298.3	47.5	-69.6	6.5
2026-01-04 18:43:06.567877	298.8	47.3	-70.5	8.4
2026-01-04 18:43:07.695352	299.3	47.0	-70.6	5.1
2026-01-04 18:43:08.823271	299.8	46.8	-71.4	10.6
2026-01-04 18:43:09.949711	300.3	46.6	-70.9	6.2
2026-01-04 18:43:11.079351	300.8	46.3	-71.3	7.5
2026-01-04 18:43:12.207926	301.3	46.1	-69.7	5.5
2026-01-04 18:43:13.333588	301.7	45.9	-70.9	5.2
2026-01-04 18:43:14.459712	302.2	45.6	-70.9	9.9
2026-01-04 18:43:15.587470	302.7	45.4	-70.1	8.6
2026-01-04 18:43:16.714558	303.1	45.2	-70.2	7.2
2026-01-04 18:43:17.840553	303.6	44.9	-69.5	8.2
2026-01-04 18:43:18.967166	304.0	44.7	-70.2	6.8
2026-01-04 18:43:20.092174	304.4	44.5	-70.6	7.8
2026-01-04 18:43:21.219802	304.9	44.2	-70.4	7.3
2026-01-04 18:43:22.345881	305.3	44.0	-70.0	6.7
2026-01-04 18:43:23.471842	305.7	43.8	-70.0	4.1
2026-01-04 18:43:24.598623	306.1	43.5	-72.1	10.8
2026-01-04 18:43:25.724700	306.5	43.3	-71.1	8.6
2026-01-04 18:43:26.852169	306.9	43.0	-71.0	10.1
2026-01-04 18:43:27.979681	307.3	42.8	-71.0	9.1
2026-01-04 18:43:29.107493	307.7	42.6	-70.8	7.3
2026-01-04 18:43:30.232506	308.1	42.3	-70.7	6.6
2026-01-04 18:43:31.359864	308.4	42.1	-71.9	10.1
2026-01-04 18:43:32.486128	308.8	41.9	-71.7	10.3
2026-01-04 18:43:33.613527	309.2	41.6	-70.6	7.7
2026-01-04 18:43:34.737902	309.5	41.4	-71.7	9.1
2026-01-04 18:43:35.865415	309.9	41.2	-72.5	11.4
2026-01-04 18:43:36.992122	310.2	40.9	-72.1	11.1
2026-01-04 18:43:38.118723	310.6	40.7	-70.4	7.4
2026-01-04 18:43:39.244438	310.9	40.4	-70.5	8.7
2026-01-04 18:43:40.371869	311.3	40.2	-72.3	9.4
2026-01-04 18:43:41.498753	311.6	40.0	-71.7	9.2
2026-01-04 18:43:42.624860	311.9	39.7	-72.0	9.4
2026-01-04 18:43:43.752718	312.2	39.5	-72.3	10.3
2026-01-04 18:43:44.878670	312.5	39.3	-72.4	6.6
2026-01-04 18:43:46.003653	312.9	39.1	-70.4	7.3
2026-01-04 18:43:47.129701	313.2	38.8	-72.1	6.8
2026-01-04 18:43:48.255678	313.5	38.6	-70.8	5.6
2026-01-04 18:43:49.381302	313.8	38.4	-70.6	3.5
2026-01-04 18:43:50.507372	314.1	38.1	-72.3	9.4
2026-01-04 18:43:51.634951	314.4	37.9	-71.8	6.6
2026-01-04 18:43:52.762873	314.6	37.7	-71.1	6.5
2026-01-04 18:43:53.888885	314.9	37.5	-71.1	7.8
2026-01-04 18:43:55.016746	315.2	37.2	-71.0	6.3
2026-01-04 18:43:56.141572	315.5	37.0	-69.4	4.1
2026-01-04 18:43:57.270854	315.7	36.8	-69.5	3.1
2026-01-04 18:43:58.396741	316.0	36.6	-70.7	7.7
2026-01-04 18:43:59.525290	316.3	36.3	-70.6	5.6
2026-01-04 18:44:00.652917	316.5	36.1	-70.9	7.3
2026-01-04 18:44:01.780652	316.8	35.9	-69.8	3.0
2026-01-04 18:44:02.907428	317.1	35.7	-70.7	7.7
2026-01-04 18:44:04.033851	317.3	35.5	-70.1	4.7
2026-01-04 18:44:05.160970	317.5	35.2	-69.9	4.0
2026-01-04 18:44:06.285657	317.8	35.0	-69.0	2.8
2026-01-04 18:44:07.413777	318.0	34.8	-70.0	6.5
2026-01-04 18:44:08.540841	318.3	34.6	-69.8	5.1
2026-01-04 18:44:09.667490	318.5	34.4	-69.4	4.2
2026-01-04 18:44:10.795872	318.7	34.2	-69.2	3.1
2026-01-04 18:44:11.922084	319.0	34.0	-68.6	2.8
2026-01-04 18:44:13.046532	319.2	33.7	-69.1	1.5
2026-01-04 18:44:14.177973	319.4	33.5	-69.2	2.1
2026-01-04 18:44:15.305031	319.6	33.3	-68.4	3.0
2026-01-04 18:44:16.431142	319.9	33.1	-69.3	3.0
2026-01-04 18:44:17.558695	320.1	32.9	-69.4	2.4
2026-01-04 18:44:18.684868	320.3	32.7	-67.9	1.3
2026-01-04 18:44:19.813322	320.5	32.5	-68.4	1.6
2026-01-04 18:44:20.940057	320.7	32.3	-68.2	1.9
2026-01-04 18:44:22.066830	320.9	32.1	-68.9	1.6
2026-01-04 18:44:23.194647	321.1	31.9	-68.6	0.0
2026-01-04 18:44:24.321023	321.3	31.7	-69.4	2.3
2026-01-04 18:44:25.447044	321.5	31.5	-68.6	2.5
2026-01-04 18:44:26.575062	321.7	31.3	-69.7	3.9
2026-01-04 18:44:27.701096	321.9	31.1	-69.1	1.9
2026-01-04 18:44:28.827615	322.1	30.9	-70.3	2.2
2026-01-04 18:44:29.954661	322.3	30.7	-69.6	2.5
2026-01-04 18:44:31.080905	322.4	30.5	-70.0	5.5
2026-01-04 18:44:32.210036	322.6	30.3	-70.0	1.2
2026-01-04 18:44:33.336368	322.8	30.1	-69.5	3.9
2026-01-04 18:44:34.464885	323.0	29.9	-69.0	0.0
2026-01-04 18:44:35.590663	323.2	29.7	-68.5	2.4
2026-01-04 18:44:36.717511	323.3	29.6	-68.8	1.1
2026-01-04 18:44:37.848152	323.5	29.4	-68.5	1.1
2026-01-04 18:44:38.972597	323.7	29.2	-67.3	0.0
2026-01-04 18:44:40.098164	323.9	29.0	-68.9	2.5
2026-01-04 18:44:41.224664	324.0	28.8	-67.3	0.0
2026-01-04 18:44:42.352560	324.2	28.6	-69.1	0.0
2026-01-04 18:44:43.478676	324.4	28.4	-68.9	0.0
2026-01-04 18:44:44.606815	324.5	28.3	-70.3	2.6
2026-01-04 18:44:45.732557	324.7	28.1	-67.5	0.0
2026-01-04 18:44:46.861722	324.8	27.9	-69.1	0.0
2026-01-04 18:44:47.988362	325.0	27.7	-68.7	0.0
2026-01-04 18:44:49.115595	325.1	27.5	-68.0	0.0
2026-01-04 18:44:50.241746	325.3	27.4	-67.3	0.0
2026-01-04 18:44:51.371019	325.5	27.2	-68.1	0.0
2026-01-04 18:44:52.497473	325.6	27.0	-67.1	0.0
2026-01-04 18:44:53.623930	325.8	26.8	-68.4	0.0
2026-01-04 18:44:54.750159	325.9	26.6	-63.0	0.0
2026-01-04 18:44:55.876934	326.0	26.5	-68.5	0.0
2026-01-04 18:44:57.003473	326.2	26.3	-68.7	0.0
2026-01-04 18:44:58.129876	326.3	26.1	-68.1	0.0
2026-01-04 18:44:59.255960	326.5	26.0	-68.4	0.0
2026-01-04 18:45:00.382467	326.6	25.8	-67.4	0.0
2026-01-04 18:45:01.508864	326.7	25.6	-67.9	0.0
2026-01-04 18:45:02.637259	326.9	25.5	-66.9	0.0
2026-01-04 18:45:03.765137	327.0	25.3	-59.8	0.0
2026-01-04 18:45:04.890114	327.2	25.1	-65.3	0.0
2026-01-04 18:45:06.017725	327.3	25.0	-65.5	0.0
2026-01-04 18:45:07.145912	327.4	24.8	-67.6	0.0
2026-01-04 18:45:08.274450	327.5	24.6	-68.4	0.0
2026-01-04 18:45:09.401767	327.7	24.5	-70.3	0.0
2026-01-04 18:45:10.528505	327.8	24.3	-65.8	0.0
2026-01-04 18:45:11.654963	327.9	24.1	-63.0	0.0
2026-01-04 18:45:12.783542	328.1	24.0	-66.0	0.0
2026-01-04 18:45:13.911652	328.2	23.8	-66.2	0.0
2026-01-04 18:45:15.036917	328.3	23.7	-66.8	0.0
2026-01-04 18:45:16.163259	328.4	23.5	-61.0	0.0
2026-01-04 18:45:17.290470	328.5	23.4	-66.9	0.0
2026-01-04 18:45:18.416385	328.7	23.2	-65.7	0.0
2026-01-04 18:45:19.542909	328.8	23.0	-67.2	0.0
2026-01-04 18:45:20.670369	328.9	22.9	-67.2	0.0
2026-01-04 18:45:21.797694	329.0	22.7	-65.9	0.0
2026-01-04 18:45:22.925485	329.1	22.6	-66.1	0.0
2026-01-04 18:45:24.052093	329.2	22.4	-65.7	0.0
2026-01-04 18:45:25.178769	329.4	22.3	-66.8	0.0
2026-01-04 18:45:26.306784	329.5	22.1	-67.6	0.0
2026-01-04 18:45:27.434083	329.6	22.0	-61.1	0.0
2026-01-04 18:45:28.561267	329.7	21.8	-66.6	0.0
2026-01-04 18:45:29.688925	329.8	21.7	-66.6	0.0
2026-01-04 18:45:30.814837	329.9	21.5	-65.1	0.0
2026-01-04 18:45:31.945277	330.0	21.4	-61.8	0.0
2026-01-04 18:45:33.070812	330.1	21.2	-66.3	0.0
2026-01-04 18:45:34.198749	330.2	21.1	-67.3	0.0
2026-01-04 18:45:35.325933	330.3	21.0	-65.3	0.0
2026-01-04 18:45:36.451898	330.4	20.8	-67.1	0.0
2026-01-04 18:45:37.579044	330.5	20.7	-65.7	0.0
2026-01-04 18:45:38.704591	330.6	20.5	-66.0	0.0
2026-01-04 18:45:39.831073	330.7	20.4	-63.5	0.0
2026-01-04 18:45:40.956567	330.8	20.3	-66.9	0.0
2026-01-04 18:45:42.083863	330.9	20.1	-65.1	0.0
2026-01-04 18:45:43.210238	331.0	20.0	-66.1	0.0
2026-01-04 18:45:44.336289	331.1	19.8	-64.4	0.0
2026-01-04 18:45:45.462194	331.2	19.7	-65.9	0.0
2026-01-04 18:45:46.588650	331.3	19.6	-66.8	0.0
2026-01-04 18:45:47.714849	331.4	19.4	-66.5	0.0
2026-01-04 18:45:48.840318	331.5	19.3	-63.8	0.0
2026-01-04 18:45:49.966856	331.6	19.2	-63.3	0.0
2026-01-04 18:45:51.094431	331.7	19.0	-64.7	0.0
2026-01-04 18:45:52.222463	331.8	18.9	-65.1	0.0
2026-01-04 18:45:53.347797	331.9	18.8	-63.7	0.0
2026-01-04 18:45:54.472819	331.9	18.6	-66.0	0.0
2026-01-04 18:45:55.600233	332.0	18.5	-65.3	0.0
2026-01-04 18:45:56.725065	332.1	18.4	-64.7	0.0
2026-01-04 18:45:57.854592	332.2	18.2	-63.3	0.0
2026-01-04 18:45:58.981939	332.3	18.1	-65.9	0.0
2026-01-04 18:46:00.108113	332.4	18.0	-64.0	0.0
2026-01-04 18:46:01.235370	332.5	17.8	-64.9	0.0
2026-01-04 18:46:02.364196	332.6	17.7	-64.4	0.0
2026-01-04 18:46:03.491722	332.6	17.6	-63.8	0.0
2026-01-04 18:46:04.619806	332.7	17.5	-64.5	0.0
2026-01-04 18:46:05.745189	332.8	17.3	-62.6	0.0
2026-01-04 18:46:06.872595	332.9	17.2	-63.9	0.0
2026-01-04 18:46:07.999081	333.0	17.1	-64.0	0.0
2026-01-04 18:46:09.125572	333.0	17.0	-65.1	0.0
2026-01-04 18:46:10.253864	333.1	16.8	-60.2	0.0
2026-01-04 18:46:11.382273	333.2	16.7	-66.5	0.0
2026-01-04 18:46:12.508392	333.3	16.6	-60.2	0.0
2026-01-04 18:46:13.637085	333.4	16.5	-64.4	0.0
2026-01-04 18:46:14.762492	333.4	16.4	-65.4	0.0
2026-01-04 18:46:15.889575	333.5	16.2	-63.7	0.0
2026-01-04 18:46:17.016785	333.6	16.1	-65.1	0.0
2026-01-04 18:46:18.145587	333.7	16.0	-66.7	0.0
2026-01-04 18:46:19.272396	333.7	15.9	-65.9	0.0
2026-01-04 18:46:20.399308	333.8	15.8	-64.9	0.0
2026-01-04 18:46:21.528853	333.9	15.6	-63.4	0.0
2026-01-04 18:46:22.655816	334.0	15.5	-63.1	0.0
2026-01-04 18:46:23.781701	334.0	15.4	-65.3	0.0
2026-01-04 18:46:24.908573	334.1	15.3	-64.5	0.0
2026-01-04 18:46:26.036990	334.2	15.2	-64.4	0.0
2026-01-04 18:46:27.167202	334.3	15.1	-63.9	0.0
2026-01-04 18:46:28.293095	334.3	14.9	-66.2	0.0
2026-01-04 18:46:29.423005	334.4	14.8	-66.0	0.0
2026-01-04 18:46:30.549778	334.5	14.7	-63.3	0.0
2026-01-04 18:46:31.676790	334.5	14.6	-66.0	0.0
2026-01-04 18:46:32.807085	334.6	14.5	-62.3	0.0
2026-01-04 18:46:33.936584	334.7	14.4	-65.3	0.0
2026-01-04 18:46:35.063382	334.7	14.3	-67.0	0.0
2026-01-04 18:46:36.188843	334.8	14.2	-66.5	0.0
2026-01-04 18:46:37.316390	334.9	14.0	-66.6	0.0
2026-01-04 18:46:38.445112	334.9	13.9	-64.0	0.0
2026-01-04 18:46:39.573810	335.0	13.8	-66.5	0.0
2026-01-04 18:46:40.699980	335.1	13.7	-67.0	0.0
2026-01-04 18:46:41.826878	335.1	13.6	-66.3	0.0
2026-01-04 18:46:42.952385	335.2	13.5	-67.9	0.0
2026-01-04 18:46:44.078161	335.3	13.4	-68.3	0.0
2026-01-04 18:46:45.204838	335.3	13.3	-66.2	0.0
2026-01-04 18:46:46.332425	335.4	13.2	-67.4	0.0
2026-01-04 18:46:47.460526	335.5	13.1	-69.3	0.0
2026-01-04 18:46:48.587233	335.5	13.0	-69.0	0.0
2026-01-04 18:46:49.712567	335.6	12.9	-66.2	0.0
2026-01-04 18:46:50.840361	335.6	12.7	-67.9	0.0
2026-01-04 18:46:51.966974	335.7	12.6	-68.3	0.0
2026-01-04 18:46:53.094098	335.8	12.5	-69.0	0.0
2026-01-04 18:46:54.222510	335.8	12.4	-70.2	0.0
2026-01-04 18:46:55.348856	335.9	12.3	-70.1	0.0
2026-01-04 18:46:56.477787	336.0	12.2	-70.2	0.0
2026-01-04 18:46:57.602329	336.0	12.1	-69.8	0.0
2026-01-04 18:46:58.730043	336.1	12.0	-70.8	0.0
2026-01-04 18:46:59.858561	336.1	11.9	-70.2	0.0
2026-01-04 18:47:00.984612	336.2	11.8	-70.3	0.0
2026-01-04 18:47:02.110893	336.2	11.7	-70.0	0.0
2026-01-04 18:47:03.236838	336.3	11.6	-70.5	0.0
2026-01-04 18:47:04.365153	336.4	11.5	-68.8	0.0
2026-01-04 18:47:05.494076	336.4	11.4	-68.6	0.0
2026-01-04 18:47:06.621475	336.5	11.3	-69.4	0.0
2026-01-04 18:47:07.749484	336.5	11.2	-68.9	0.0
2026-01-04 18:47:08.879548	336.6	11.1	-67.9	0.0
2026-01-04 18:47:10.005915	336.6	11.0	-67.2	0.0
2026-01-04 18:47:11.130434	336.7	10.9	-69.0	0.0
2026-01-04 18:47:12.258867	336.8	10.8	-67.4	0.0
2026-01-04 18:47:13.385600	336.8	10.7	-64.9	0.0
2026-01-04 18:47:14.512318	336.9	10.6	-65.3	0.0
2026-01-04 18:47:15.640456	336.9	10.5	-66.6	0.0
2026-01-04 18:47:16.766191	337.0	10.4	-67.5	0.0
2026-01-04 18:47:17.894713	337.0	10.3	-68.7	0.0
2026-01-04 18:47:19.020783	337.1	10.2	-69.0	0.0
2026-01-04 18:47:20.145576	337.1	10.1	-72.2	0.0
#Closed at: 2026-01-04 18:36:44.110138