passes_logs/2026/01/17/planumMaritime01/planumMaritime01__20260117_083940_METOP-B_rec.log

#Pass ID: 20260117_083940_METOP-B
#Satellite: METOP-B
#Configuration: METOP-B
#Start time: 2026-01-17 08:39:45.044469

#LorettStation: 1.0.0 05.05.2024
#Station: planumMaritime01
#Location: 37.49445 lon 55.92918 lat
#TLE: 1 38771U 12049A   26016.56671284  .00000095  00000+0  63334-4 0  9992
#TLE: 2 38771  98.6748  70.9267 0003245  73.6608 286.4926 14.21422866691723

#Time	Az	El	Level	SNR
2026-01-17 08:39:47.212834	1.9	10.2	-73.8	0.0
2026-01-17 08:39:48.336577	1.8	10.2	-72.1	0.0
2026-01-17 08:39:49.459102	1.7	10.3	-71.8	0.0
2026-01-17 08:39:50.582396	1.6	10.4	-71.0	0.0
2026-01-17 08:39:51.703611	1.5	10.5	-71.5	0.0
2026-01-17 08:39:52.828048	1.3	10.6	-71.8	0.0
2026-01-17 08:39:53.948987	1.2	10.7	-73.0	0.0
2026-01-17 08:39:55.070084	1.1	10.7	-73.3	0.0
2026-01-17 08:39:56.192686	1.0	10.8	-73.1	0.0
2026-01-17 08:39:57.315246	0.9	10.9	-71.1	0.0
2026-01-17 08:39:58.438872	0.8	11.0	-71.6	0.0
2026-01-17 08:39:59.563705	0.7	11.1	-70.8	0.0
2026-01-17 08:40:00.687287	0.5	11.2	-70.9	0.0
2026-01-17 08:40:01.812006	0.4	11.2	-71.9	0.0
2026-01-17 08:40:02.934724	0.3	11.3	-72.2	0.0
2026-01-17 08:40:04.056940	0.2	11.4	-71.0	0.0
2026-01-17 08:40:05.177290	0.1	11.5	-70.6	0.0
2026-01-17 08:40:06.300074	359.9	11.6	-71.7	0.0
2026-01-17 08:40:07.423149	359.8	11.7	-72.3	0.0
2026-01-17 08:40:08.547416	359.7	11.8	-72.0	0.0
2026-01-17 08:40:09.670142	359.6	11.8	-72.5	0.0
2026-01-17 08:40:10.793975	359.5	11.9	-73.1	0.0
2026-01-17 08:40:11.915406	359.3	12.0	-72.2	0.0
2026-01-17 08:40:13.038209	359.2	12.1	-71.6	0.0
2026-01-17 08:40:14.160728	359.1	12.2	-73.0	0.0
2026-01-17 08:40:15.283246	359.0	12.3	-73.1	0.0
2026-01-17 08:40:16.405909	358.8	12.4	-72.4	0.0
2026-01-17 08:40:17.527884	358.7	12.5	-72.8	3.3
2026-01-17 08:40:18.651604	358.6	12.5	-72.9	1.7
2026-01-17 08:40:19.775127	358.4	12.6	-72.5	1.7
2026-01-17 08:40:20.898820	358.3	12.7	-72.9	0.0
2026-01-17 08:40:22.021082	358.2	12.8	-73.1	0.0
2026-01-17 08:40:23.142149	358.0	12.9	-73.1	0.0
2026-01-17 08:40:24.264747	357.9	13.0	-72.3	1.5
2026-01-17 08:40:25.389733	357.8	13.1	-72.5	2.9
2026-01-17 08:40:26.512105	357.6	13.2	-72.8	2.7
2026-01-17 08:40:27.638022	357.5	13.3	-73.0	0.1
2026-01-17 08:40:28.760526	357.4	13.3	-73.6	2.4
2026-01-17 08:40:29.881895	357.2	13.4	-72.2	3.7
2026-01-17 08:40:31.003547	357.1	13.5	-72.0	0.0
2026-01-17 08:40:32.123701	357.0	13.6	-71.9	2.7
2026-01-17 08:40:33.245863	356.8	13.7	-72.7	0.0
2026-01-17 08:40:34.367949	356.7	13.8	-72.4	3.2
2026-01-17 08:40:35.490840	356.5	13.9	-73.1	5.0
2026-01-17 08:40:36.616261	356.4	14.0	-72.9	3.6
2026-01-17 08:40:37.737333	356.2	14.1	-73.1	2.1
2026-01-17 08:40:38.860547	356.1	14.1	-73.1	2.1
2026-01-17 08:40:39.983964	356.0	14.2	-73.1	3.4
2026-01-17 08:40:41.106637	355.8	14.3	-72.6	0.8
2026-01-17 08:40:42.224983	355.7	14.4	-72.3	1.0
2026-01-17 08:40:43.350491	355.5	14.5	-73.4	1.3
2026-01-17 08:40:44.473372	355.4	14.6	-72.7	2.9
2026-01-17 08:40:45.595009	355.2	14.7	-72.8	3.2
2026-01-17 08:40:46.715590	355.1	14.8	-72.5	4.4
2026-01-17 08:40:47.838152	354.9	14.9	-72.7	4.0
2026-01-17 08:40:48.958621	354.8	15.0	-73.0	2.2
2026-01-17 08:40:50.084864	354.6	15.1	-73.0	3.5
2026-01-17 08:40:51.208299	354.5	15.2	-72.4	1.6
2026-01-17 08:40:52.330824	354.3	15.2	-72.5	1.2
2026-01-17 08:40:53.455236	354.1	15.3	-72.0	2.3
2026-01-17 08:40:54.580586	354.0	15.4	-72.1	3.6
2026-01-17 08:40:55.704681	353.8	15.5	-72.0	2.4
2026-01-17 08:40:56.829984	353.7	15.6	-71.2	0.0
2026-01-17 08:40:57.952908	353.5	15.7	-72.4	3.8
2026-01-17 08:40:59.076951	353.3	15.8	-70.7	0.5
2026-01-17 08:41:00.198802	353.2	15.9	-71.2	0.0
2026-01-17 08:41:01.322254	353.0	16.0	-70.3	0.0
2026-01-17 08:41:02.445709	352.8	16.1	-71.6	1.8
2026-01-17 08:41:03.566978	352.7	16.2	-70.9	0.0
2026-01-17 08:41:04.691073	352.5	16.3	-70.6	0.0
2026-01-17 08:41:05.813679	352.3	16.4	-70.8	0.2
2026-01-17 08:41:06.936474	352.2	16.5	-70.3	0.0
2026-01-17 08:41:08.058777	352.0	16.5	-71.6	0.5
2026-01-17 08:41:09.181640	351.8	16.6	-70.3	0.0
2026-01-17 08:41:10.304756	351.7	16.7	-69.7	0.0
2026-01-17 08:41:11.426114	351.5	16.8	-70.7	0.0
2026-01-17 08:41:12.550513	351.3	16.9	-70.4	0.0
2026-01-17 08:41:13.672739	351.1	17.0	-70.4	1.2
2026-01-17 08:41:14.796418	351.0	17.1	-70.2	0.0
2026-01-17 08:41:15.921925	350.8	17.2	-70.5	1.3
2026-01-17 08:41:17.044193	350.6	17.3	-71.1	0.0
2026-01-17 08:41:18.166405	350.4	17.4	-71.0	0.8
2026-01-17 08:41:19.289495	350.2	17.5	-70.9	0.6
2026-01-17 08:41:20.412116	350.1	17.6	-72.1	0.4
2026-01-17 08:41:21.534374	349.9	17.7	-71.4	0.0
2026-01-17 08:41:22.656389	349.7	17.8	-71.5	0.4
2026-01-17 08:41:23.779224	349.5	17.9	-72.4	1.8
2026-01-17 08:41:24.900978	349.3	18.0	-72.8	2.7
2026-01-17 08:41:26.023184	349.1	18.1	-71.4	0.0
2026-01-17 08:41:27.144095	348.9	18.2	-72.6	3.2
2026-01-17 08:41:28.268799	348.7	18.3	-73.0	2.2
2026-01-17 08:41:29.391250	348.6	18.3	-71.9	0.0
2026-01-17 08:41:30.515995	348.4	18.4	-71.7	0.1
2026-01-17 08:41:31.639005	348.2	18.5	-72.1	2.4
2026-01-17 08:41:32.762112	348.0	18.6	-72.3	1.5
2026-01-17 08:41:33.883552	347.8	18.7	-72.2	3.0
2026-01-17 08:41:35.007021	347.6	18.8	-72.6	2.4
2026-01-17 08:41:36.129486	347.4	18.9	-72.5	3.4
2026-01-17 08:41:37.253877	347.2	19.0	-72.0	2.4
2026-01-17 08:41:38.376720	347.0	19.1	-72.4	3.0
2026-01-17 08:41:39.499214	346.8	19.2	-72.3	2.8
2026-01-17 08:41:40.622510	346.6	19.3	-72.4	3.5
2026-01-17 08:41:41.744646	346.4	19.4	-71.2	1.3
2026-01-17 08:41:42.866910	346.1	19.5	-71.8	2.1
2026-01-17 08:41:43.988268	345.9	19.6	-71.8	3.2
2026-01-17 08:41:45.113862	345.7	19.7	-72.4	3.4
2026-01-17 08:41:46.236911	345.5	19.8	-71.4	0.9
2026-01-17 08:41:47.359286	345.3	19.9	-72.0	4.6
2026-01-17 08:41:48.482928	345.1	20.0	-71.8	3.0
2026-01-17 08:41:49.604314	344.9	20.1	-71.8	2.1
2026-01-17 08:41:50.727721	344.7	20.2	-72.2	3.6
2026-01-17 08:41:51.849116	344.4	20.3	-71.1	3.7
2026-01-17 08:41:52.972248	344.2	20.3	-71.9	2.8
2026-01-17 08:41:54.094333	344.0	20.4	-71.2	1.8
2026-01-17 08:41:55.216501	343.8	20.5	-71.0	1.4
2026-01-17 08:41:56.339757	343.6	20.6	-71.7	3.7
2026-01-17 08:41:57.465351	343.3	20.7	-71.7	0.8
2026-01-17 08:41:58.587915	343.1	20.8	-71.1	2.0
2026-01-17 08:41:59.711110	342.9	20.9	-71.6	3.0
2026-01-17 08:42:00.834519	342.6	21.0	-70.8	2.9
2026-01-17 08:42:01.955928	342.4	21.1	-71.5	2.3
2026-01-17 08:42:03.077914	342.2	21.2	-72.2	4.4
2026-01-17 08:42:04.202132	341.9	21.3	-72.5	2.6
2026-01-17 08:42:05.324435	341.7	21.4	-71.9	3.9
2026-01-17 08:42:06.448658	341.5	21.5	-72.0	2.4
2026-01-17 08:42:07.569070	341.2	21.6	-71.5	2.9
2026-01-17 08:42:08.690866	341.0	21.7	-72.2	3.4
2026-01-17 08:42:09.816990	340.7	21.8	-71.3	0.0
2026-01-17 08:42:10.940107	340.5	21.8	-71.2	1.4
2026-01-17 08:42:12.062739	340.3	21.9	-71.7	4.8
2026-01-17 08:42:13.184761	340.0	22.0	-72.2	5.0
2026-01-17 08:42:14.308047	339.8	22.1	-71.8	2.3
2026-01-17 08:42:15.429620	339.5	22.2	-72.7	3.1
2026-01-17 08:42:16.551609	339.3	22.3	-72.4	2.8
2026-01-17 08:42:17.676366	339.0	22.4	-72.2	4.0
2026-01-17 08:42:18.797208	338.8	22.5	-72.8	5.4
2026-01-17 08:42:19.922348	338.5	22.6	-72.2	5.7
2026-01-17 08:42:21.045422	338.3	22.7	-72.9	6.7
2026-01-17 08:42:22.170655	338.0	22.8	-73.2	5.2
2026-01-17 08:42:23.295178	337.7	22.9	-72.6	5.0
2026-01-17 08:42:24.416437	337.5	22.9	-73.5	6.4
2026-01-17 08:42:25.539752	337.2	23.0	-72.6	4.9
2026-01-17 08:42:26.662344	336.9	23.1	-73.1	5.8
2026-01-17 08:42:27.784693	336.7	23.2	-73.2	5.0
2026-01-17 08:42:28.907790	336.4	23.3	-72.7	6.3
2026-01-17 08:42:30.027741	336.1	23.4	-73.0	6.3
2026-01-17 08:42:31.149953	335.9	23.5	-72.4	5.9
2026-01-17 08:42:32.275952	335.6	23.6	-72.5	5.6
2026-01-17 08:42:33.402046	335.3	23.6	-73.3	8.6
2026-01-17 08:42:34.527962	335.1	23.7	-72.0	6.0
2026-01-17 08:42:35.651403	334.8	23.8	-72.9	5.8
2026-01-17 08:42:36.776986	334.5	23.9	-73.0	8.3
2026-01-17 08:42:37.899394	334.2	24.0	-72.4	6.7
2026-01-17 08:42:39.021521	333.9	24.1	-72.5	7.6
2026-01-17 08:42:40.143426	333.7	24.2	-72.1	5.8
2026-01-17 08:42:41.262662	333.4	24.2	-72.0	5.6
2026-01-17 08:42:42.385109	333.1	24.3	-72.4	7.3
2026-01-17 08:42:43.507939	332.8	24.4	-71.7	6.7
2026-01-17 08:42:44.629064	332.5	24.5	-72.9	6.0
2026-01-17 08:42:45.751098	332.2	24.6	-72.6	6.8
2026-01-17 08:42:46.874518	331.9	24.6	-72.9	8.1
2026-01-17 08:42:47.997173	331.6	24.7	-72.7	6.6
2026-01-17 08:42:49.119731	331.3	24.8	-72.5	6.3
2026-01-17 08:42:50.241280	331.1	24.9	-72.5	5.3
2026-01-17 08:42:51.364337	330.8	25.0	-73.3	4.9
2026-01-17 08:42:52.484648	330.5	25.0	-73.0	7.1
2026-01-17 08:42:53.606829	330.2	25.1	-73.0	6.7
2026-01-17 08:42:54.730745	329.9	25.2	-72.9	4.7
2026-01-17 08:42:55.855822	329.6	25.3	-73.2	5.7
2026-01-17 08:42:56.978359	329.2	25.3	-73.5	7.1
2026-01-17 08:42:58.098470	328.9	25.4	-73.2	6.4
2026-01-17 08:42:59.219674	328.6	25.5	-73.2	5.2
2026-01-17 08:43:00.345368	328.3	25.6	-73.7	7.1
2026-01-17 08:43:01.465803	328.0	25.6	-72.9	3.2
2026-01-17 08:43:02.590162	327.7	25.7	-73.1	6.3
2026-01-17 08:43:03.711991	327.4	25.8	-73.6	6.9
2026-01-17 08:43:04.835126	327.1	25.8	-73.2	6.3
2026-01-17 08:43:05.960186	326.8	25.9	-72.7	5.7
2026-01-17 08:43:07.083919	326.4	26.0	-73.6	6.4
2026-01-17 08:43:08.209656	326.1	26.1	-73.4	5.5
2026-01-17 08:43:09.332829	325.8	26.1	-72.8	5.9
2026-01-17 08:43:10.455921	325.5	26.2	-73.7	6.7
2026-01-17 08:43:11.581269	325.2	26.3	-73.3	7.3
2026-01-17 08:43:12.703181	324.8	26.3	-73.0	6.8
2026-01-17 08:43:13.826078	324.5	26.4	-72.7	5.8
2026-01-17 08:43:14.949118	324.2	26.4	-73.7	7.5
2026-01-17 08:43:16.070841	323.8	26.5	-73.3	5.2
2026-01-17 08:43:17.193684	323.5	26.6	-73.6	7.2
2026-01-17 08:43:18.314776	323.2	26.6	-73.5	7.1
2026-01-17 08:43:19.437409	322.9	26.7	-73.6	8.3
2026-01-17 08:43:20.559837	322.5	26.7	-73.7	6.9
2026-01-17 08:43:21.682268	322.2	26.8	-73.8	7.0
2026-01-17 08:43:22.805090	321.9	26.9	-74.1	7.6
2026-01-17 08:43:23.926785	321.5	26.9	-74.1	7.3
2026-01-17 08:43:25.048965	321.2	27.0	-73.9	7.8
2026-01-17 08:43:26.172347	320.8	27.0	-73.9	5.3
2026-01-17 08:43:27.293385	320.5	27.1	-73.8	7.3
2026-01-17 08:43:28.416059	320.2	27.1	-73.8	7.5
2026-01-17 08:43:29.538221	319.8	27.2	-73.6	6.7
2026-01-17 08:43:30.664390	319.5	27.2	-73.7	5.5
2026-01-17 08:43:31.786630	319.1	27.3	-73.8	8.0
2026-01-17 08:43:32.908566	318.8	27.3	-73.9	6.3
2026-01-17 08:43:34.031557	318.4	27.4	-73.9	6.3
2026-01-17 08:43:35.154722	318.1	27.4	-73.2	6.3
2026-01-17 08:43:36.276127	317.7	27.4	-73.4	5.7
2026-01-17 08:43:37.401026	317.4	27.5	-73.6	7.0
2026-01-17 08:43:38.522671	317.0	27.5	-73.2	6.3
2026-01-17 08:43:39.645671	316.7	27.6	-73.7	6.8
2026-01-17 08:43:40.766402	316.3	27.6	-74.2	7.5
2026-01-17 08:43:41.889286	316.0	27.6	-73.0	5.2
2026-01-17 08:43:43.009971	315.6	27.7	-73.7	7.2
2026-01-17 08:43:44.135293	315.3	27.7	-73.4	6.9
2026-01-17 08:43:45.256546	314.9	27.8	-73.5	6.6
2026-01-17 08:43:46.380804	314.6	27.8	-73.5	6.6
2026-01-17 08:43:47.503083	314.2	27.8	-73.2	6.5
2026-01-17 08:43:48.625074	313.8	27.9	-73.5	6.9
2026-01-17 08:43:49.747130	313.5	27.9	-73.4	5.4
2026-01-17 08:43:50.869997	313.1	27.9	-72.7	5.7
2026-01-17 08:43:51.992145	312.8	27.9	-74.0	7.5
2026-01-17 08:43:53.116004	312.4	28.0	-73.6	7.2
2026-01-17 08:43:54.240522	312.0	28.0	-73.3	7.5
2026-01-17 08:43:55.362108	311.7	28.0	-72.5	5.0
2026-01-17 08:43:56.484960	311.3	28.0	-73.8	7.3
2026-01-17 08:43:57.607449	310.9	28.1	-73.4	7.0
2026-01-17 08:43:58.729529	310.6	28.1	-73.6	6.2
2026-01-17 08:43:59.850239	310.2	28.1	-73.6	6.6
2026-01-17 08:44:00.972281	309.9	28.1	-73.5	8.1
2026-01-17 08:44:02.094078	309.5	28.1	-73.5	6.8
2026-01-17 08:44:03.215760	309.1	28.1	-73.1	6.8
2026-01-17 08:44:04.337774	308.8	28.2	-73.6	7.2
2026-01-17 08:44:05.462281	308.4	28.2	-73.1	5.9
2026-01-17 08:44:06.584482	308.0	28.2	-73.5	6.8
2026-01-17 08:44:07.707003	307.7	28.2	-73.7	6.8
2026-01-17 08:44:08.829124	307.3	28.2	-73.4	5.5
2026-01-17 08:44:09.952191	306.9	28.2	-74.2	8.1
2026-01-17 08:44:11.073440	306.6	28.2	-74.2	7.8
2026-01-17 08:44:12.197306	306.2	28.2	-74.0	8.6
2026-01-17 08:44:13.320388	305.8	28.2	-73.8	8.1
2026-01-17 08:44:14.440803	305.5	28.2	-74.0	7.8
2026-01-17 08:44:15.563971	305.1	28.2	-74.1	8.3
2026-01-17 08:44:16.686602	304.7	28.2	-74.1	8.2
2026-01-17 08:44:17.809575	304.4	28.2	-74.2	8.6
2026-01-17 08:44:18.933927	304.0	28.2	-74.0	8.1
2026-01-17 08:44:20.057211	303.6	28.2	-74.3	8.1
2026-01-17 08:44:21.180661	303.3	28.2	-74.6	8.1
2026-01-17 08:44:22.303478	302.9	28.2	-74.4	6.0
2026-01-17 08:44:23.428483	302.5	28.2	-74.3	8.7
2026-01-17 08:44:24.550942	302.2	28.2	-74.6	8.5
2026-01-17 08:44:25.675980	301.8	28.2	-74.5	7.6
2026-01-17 08:44:26.798789	301.4	28.2	-74.0	7.0
2026-01-17 08:44:27.922466	301.1	28.1	-74.3	8.8
2026-01-17 08:44:29.044587	300.7	28.1	-74.7	9.1
2026-01-17 08:44:30.170244	300.3	28.1	-74.6	8.2
2026-01-17 08:44:31.293580	300.0	28.1	-74.7	8.8
2026-01-17 08:44:32.416108	299.6	28.1	-75.1	9.4
2026-01-17 08:44:33.537697	299.2	28.0	-74.9	8.9
2026-01-17 08:44:34.661065	298.9	28.0	-75.3	9.1
2026-01-17 08:44:35.786898	298.5	28.0	-75.1	8.6
2026-01-17 08:44:36.909693	298.1	28.0	-74.9	9.3
2026-01-17 08:44:38.031479	297.8	28.0	-74.8	8.9
2026-01-17 08:44:39.154212	297.4	27.9	-75.0	9.6
2026-01-17 08:44:40.276133	297.1	27.9	-74.9	10.4
2026-01-17 08:44:41.396898	296.7	27.9	-74.9	9.9
2026-01-17 08:44:42.519008	296.3	27.8	-74.9	8.8
2026-01-17 08:44:43.641425	296.0	27.8	-74.3	9.0
2026-01-17 08:44:44.762218	295.6	27.8	-74.7	10.4
2026-01-17 08:44:45.883498	295.3	27.7	-74.6	9.5
2026-01-17 08:44:47.008531	294.9	27.7	-74.9	10.2
2026-01-17 08:44:48.129990	294.6	27.7	-74.8	9.9
2026-01-17 08:44:49.250009	294.2	27.6	-74.7	9.6
2026-01-17 08:44:50.372218	293.9	27.6	-75.0	10.1
2026-01-17 08:44:51.494627	293.5	27.6	-75.0	9.3
2026-01-17 08:44:52.617356	293.1	27.5	-75.2	9.3
2026-01-17 08:44:53.739962	292.8	27.5	-74.9	8.7
2026-01-17 08:44:54.864013	292.4	27.4	-74.9	9.3
2026-01-17 08:44:55.988128	292.1	27.4	-75.2	8.9
2026-01-17 08:44:57.111101	291.7	27.3	-74.3	7.8
2026-01-17 08:44:58.233466	291.4	27.3	-75.2	9.3
2026-01-17 08:44:59.358497	291.1	27.2	-75.2	9.7
2026-01-17 08:45:00.483309	290.7	27.2	-75.0	8.6
2026-01-17 08:45:01.606370	290.4	27.2	-75.3	8.6
2026-01-17 08:45:02.727031	290.0	27.1	-75.1	8.8
2026-01-17 08:45:03.849684	289.7	27.0	-75.0	8.6
2026-01-17 08:45:04.973605	289.3	27.0	-74.9	5.5
2026-01-17 08:45:06.098960	289.0	26.9	-74.9	8.1
2026-01-17 08:45:07.222108	288.7	26.9	-75.0	7.9
2026-01-17 08:45:08.344210	288.3	26.8	-75.2	8.3
2026-01-17 08:45:09.468317	288.0	26.8	-75.2	8.6
2026-01-17 08:45:10.589657	287.7	26.7	-75.1	8.4
2026-01-17 08:45:11.713155	287.3	26.7	-75.1	8.3
2026-01-17 08:45:12.834840	287.0	26.6	-75.3	9.0
2026-01-17 08:45:13.957073	286.7	26.5	-75.0	8.8
2026-01-17 08:45:15.077664	286.3	26.5	-75.1	8.8
2026-01-17 08:45:16.199229	286.0	26.4	-75.2	8.7
2026-01-17 08:45:17.322251	285.7	26.4	-74.8	7.5
2026-01-17 08:45:18.447222	285.3	26.3	-74.7	7.4
2026-01-17 08:45:19.569907	285.0	26.2	-74.7	7.7
2026-01-17 08:45:20.692755	284.7	26.2	-75.2	8.6
2026-01-17 08:45:21.814367	284.4	26.1	-75.2	8.9
2026-01-17 08:45:22.936306	284.1	26.0	-74.8	8.0
2026-01-17 08:45:24.062490	283.7	26.0	-74.7	8.2
2026-01-17 08:45:25.186300	283.4	25.9	-74.6	8.1
2026-01-17 08:45:26.310247	283.1	25.8	-74.8	8.5
2026-01-17 08:45:27.433407	282.8	25.7	-74.7	7.5
2026-01-17 08:45:28.555957	282.5	25.7	-74.8	8.1
2026-01-17 08:45:29.679343	282.2	25.6	-74.8	9.5
2026-01-17 08:45:30.802255	281.8	25.5	-74.6	8.8
2026-01-17 08:45:31.923914	281.5	25.5	-74.3	8.5
2026-01-17 08:45:33.049131	281.2	25.4	-74.5	7.9
2026-01-17 08:45:34.172257	280.9	25.3	-74.6	8.4
2026-01-17 08:45:35.297672	280.6	25.2	-74.5	7.5
2026-01-17 08:45:36.419317	280.3	25.2	-74.8	8.2
2026-01-17 08:45:37.541313	280.0	25.1	-74.8	7.7
2026-01-17 08:45:38.662535	279.7	25.0	-74.4	7.2
2026-01-17 08:45:39.784922	279.4	24.9	-75.1	8.2
2026-01-17 08:45:40.906398	279.1	24.8	-74.8	8.3
2026-01-17 08:45:42.027399	278.8	24.8	-74.6	8.5
2026-01-17 08:45:43.148985	278.5	24.7	-75.1	9.1
2026-01-17 08:45:44.271336	278.2	24.6	-74.9	8.6
2026-01-17 08:45:45.394444	277.9	24.5	-75.0	8.8
2026-01-17 08:45:46.518213	277.6	24.4	-75.0	8.7
2026-01-17 08:45:47.639098	277.4	24.4	-75.0	8.5
2026-01-17 08:45:48.763081	277.1	24.3	-74.7	8.3
2026-01-17 08:45:49.885484	276.8	24.2	-74.6	7.9
2026-01-17 08:45:51.008992	276.5	24.1	-75.0	8.8
2026-01-17 08:45:52.132110	276.2	24.0	-74.8	7.5
2026-01-17 08:45:53.254767	275.9	23.9	-74.9	8.0
2026-01-17 08:45:54.377759	275.7	23.9	-74.7	8.5
2026-01-17 08:45:55.500057	275.4	23.8	-73.8	6.4
2026-01-17 08:45:56.621694	275.1	23.7	-74.3	7.3
2026-01-17 08:45:57.743752	274.8	23.6	-74.0	6.1
2026-01-17 08:45:58.866039	274.6	23.5	-75.1	8.5
2026-01-17 08:45:59.988868	274.3	23.4	-75.0	7.6
2026-01-17 08:46:01.111629	274.0	23.3	-75.2	6.6
2026-01-17 08:46:02.236375	273.7	23.3	-74.8	8.1
2026-01-17 08:46:03.358017	273.5	23.2	-75.0	6.9
2026-01-17 08:46:04.481042	273.2	23.1	-75.2	8.2
2026-01-17 08:46:05.603802	272.9	23.0	-74.9	8.3
2026-01-17 08:46:06.727115	272.7	22.9	-74.2	7.4
2026-01-17 08:46:07.847709	272.4	22.8	-74.2	6.9
2026-01-17 08:46:08.970659	272.2	22.7	-74.3	7.3
2026-01-17 08:46:10.093294	271.9	22.6	-74.8	6.5
2026-01-17 08:46:11.218173	271.6	22.5	-74.3	6.7
2026-01-17 08:46:12.341859	271.4	22.4	-74.4	6.1
2026-01-17 08:46:13.463424	271.1	22.4	-74.6	8.0
2026-01-17 08:46:14.586496	270.9	22.3	-74.6	7.8
2026-01-17 08:46:15.711358	270.6	22.2	-74.9	7.8
2026-01-17 08:46:16.833904	270.4	22.1	-74.9	8.1
2026-01-17 08:46:17.956066	270.1	22.0	-74.0	6.6
2026-01-17 08:46:19.083377	269.9	21.9	-74.1	5.9
2026-01-17 08:46:20.206707	269.6	21.8	-74.4	7.5
2026-01-17 08:46:21.327848	269.4	21.7	-73.5	7.5
2026-01-17 08:46:22.450959	269.2	21.6	-74.1	6.8
2026-01-17 08:46:23.574632	268.9	21.5	-74.2	7.6
2026-01-17 08:46:24.694308	268.7	21.4	-74.3	7.3
2026-01-17 08:46:25.816607	268.4	21.3	-74.0	7.3
2026-01-17 08:46:26.939550	268.2	21.2	-73.8	6.8
2026-01-17 08:46:28.061670	268.0	21.1	-74.1	7.9
2026-01-17 08:46:29.182483	267.7	21.1	-74.0	8.1
2026-01-17 08:46:30.303210	267.5	21.0	-73.9	6.2
2026-01-17 08:46:31.424987	267.3	20.9	-73.8	6.8
2026-01-17 08:46:32.547842	267.0	20.8	-73.9	6.7
2026-01-17 08:46:33.669579	266.8	20.7	-73.6	7.7
2026-01-17 08:46:34.792555	266.6	20.6	-73.7	6.8
2026-01-17 08:46:35.916511	266.4	20.5	-73.8	7.4
2026-01-17 08:46:37.038087	266.1	20.4	-73.7	6.0
2026-01-17 08:46:38.160693	265.9	20.3	-74.5	8.2
2026-01-17 08:46:39.282196	265.7	20.2	-73.7	6.6
2026-01-17 08:46:40.404064	265.5	20.1	-73.8	5.5
2026-01-17 08:46:41.525708	265.3	20.0	-74.1	6.8
2026-01-17 08:46:42.646803	265.0	19.9	-74.3	6.5
2026-01-17 08:46:43.768983	264.8	19.8	-74.4	7.5
2026-01-17 08:46:44.890784	264.6	19.7	-75.0	6.8
2026-01-17 08:46:46.013266	264.4	19.6	-74.6	6.6
2026-01-17 08:46:47.135972	264.2	19.5	-74.2	5.4
2026-01-17 08:46:48.257645	264.0	19.4	-74.7	5.6
2026-01-17 08:46:49.381858	263.8	19.3	-75.0	5.7
2026-01-17 08:46:50.505357	263.6	19.2	-74.9	5.0
2026-01-17 08:46:51.630699	263.4	19.2	-74.4	3.2
2026-01-17 08:46:52.753054	263.2	19.1	-74.9	6.2
2026-01-17 08:46:53.877658	263.0	19.0	-74.8	6.3
2026-01-17 08:46:55.000762	262.8	18.9	-74.6	5.8
2026-01-17 08:46:56.122671	262.6	18.8	-74.6	5.9
2026-01-17 08:46:57.246457	262.4	18.7	-74.1	4.0
2026-01-17 08:46:58.372048	262.2	18.6	-74.7	5.5
2026-01-17 08:46:59.495924	262.0	18.5	-74.6	5.5
2026-01-17 08:47:00.620960	261.8	18.4	-74.2	4.4
2026-01-17 08:47:01.743812	261.6	18.3	-74.7	5.9
2026-01-17 08:47:02.868492	261.4	18.2	-74.8	6.3
2026-01-17 08:47:03.991487	261.2	18.1	-74.6	6.5
2026-01-17 08:47:05.115083	261.0	18.0	-74.9	6.3
2026-01-17 08:47:06.236356	260.8	17.9	-74.1	6.3
2026-01-17 08:47:07.359667	260.6	17.8	-74.8	7.1
2026-01-17 08:47:08.484293	260.4	17.7	-75.1	6.7
2026-01-17 08:47:09.606967	260.2	17.6	-74.8	6.7
2026-01-17 08:47:10.728837	260.1	17.5	-74.4	5.3
2026-01-17 08:47:11.849335	259.9	17.4	-74.8	5.2
2026-01-17 08:47:12.974033	259.7	17.3	-75.1	7.2
2026-01-17 08:47:14.097293	259.5	17.2	-75.1	7.2
2026-01-17 08:47:15.222110	259.3	17.1	-75.1	5.6
2026-01-17 08:47:16.344143	259.2	17.0	-75.2	5.7
2026-01-17 08:47:17.466971	259.0	17.0	-75.0	6.2
2026-01-17 08:47:18.589862	258.8	16.9	-75.0	4.7
2026-01-17 08:47:19.709068	258.6	16.8	-75.4	5.7
2026-01-17 08:47:20.832008	258.4	16.7	-75.5	6.4
2026-01-17 08:47:21.955706	258.3	16.6	-75.1	5.2
2026-01-17 08:47:23.078956	258.1	16.5	-75.2	6.0
2026-01-17 08:47:24.201404	257.9	16.4	-75.4	6.5
2026-01-17 08:47:25.325572	257.8	16.3	-75.1	6.5
2026-01-17 08:47:26.448415	257.6	16.2	-75.3	6.6
2026-01-17 08:47:27.569939	257.4	16.1	-75.6	7.0
2026-01-17 08:47:28.692196	257.3	16.0	-75.4	6.7
2026-01-17 08:47:29.815543	257.1	15.9	-75.7	5.8
2026-01-17 08:47:30.938557	256.9	15.8	-75.5	5.8
2026-01-17 08:47:32.060048	256.8	15.7	-75.4	5.9
2026-01-17 08:47:33.181462	256.6	15.6	-75.6	4.3
2026-01-17 08:47:34.304630	256.4	15.5	-75.4	5.6
2026-01-17 08:47:35.428065	256.3	15.5	-75.7	5.5
2026-01-17 08:47:36.549308	256.1	15.4	-75.1	4.0
2026-01-17 08:47:37.672770	256.0	15.3	-75.5	5.7
2026-01-17 08:47:38.796317	255.8	15.2	-75.5	6.1
2026-01-17 08:47:39.921716	255.6	15.1	-75.7	5.5
2026-01-17 08:47:41.044358	255.5	15.0	-75.4	5.7
2026-01-17 08:47:42.169103	255.3	14.9	-75.4	5.1
2026-01-17 08:47:43.293607	255.2	14.8	-75.8	4.7
2026-01-17 08:47:44.418405	255.0	14.7	-75.5	5.8
2026-01-17 08:47:45.539339	254.9	14.6	-75.6	4.9
2026-01-17 08:47:46.662381	254.7	14.5	-75.5	4.4
2026-01-17 08:47:47.784969	254.6	14.4	-75.5	5.7
2026-01-17 08:47:48.908326	254.4	14.3	-75.9	5.4
2026-01-17 08:47:50.031322	254.3	14.3	-75.0	4.8
2026-01-17 08:47:51.155869	254.1	14.2	-74.8	4.9
2026-01-17 08:47:52.278036	254.0	14.1	-75.3	6.1
2026-01-17 08:47:53.399297	253.8	14.0	-75.7	5.3
2026-01-17 08:47:54.521320	253.7	13.9	-75.6	3.9
2026-01-17 08:47:55.643165	253.6	13.8	-75.6	6.1
2026-01-17 08:47:56.766049	253.4	13.7	-75.6	5.4
2026-01-17 08:47:57.887525	253.3	13.6	-75.8	4.8
2026-01-17 08:47:59.009854	253.1	13.5	-75.7	6.1
2026-01-17 08:48:00.131708	253.0	13.4	-75.9	5.5
2026-01-17 08:48:01.255541	252.9	13.4	-75.5	4.6
2026-01-17 08:48:02.380832	252.7	13.3	-75.9	5.5
2026-01-17 08:48:03.504105	252.6	13.2	-75.3	5.4
2026-01-17 08:48:04.625616	252.4	13.1	-75.5	4.8
2026-01-17 08:48:05.746372	252.3	13.0	-75.5	3.6
2026-01-17 08:48:06.870242	252.2	12.9	-75.5	3.0
2026-01-17 08:48:07.993112	252.0	12.8	-76.0	5.8
2026-01-17 08:48:09.117627	251.9	12.7	-75.7	3.9
2026-01-17 08:48:10.240794	251.8	12.6	-76.4	5.4
2026-01-17 08:48:11.362194	251.6	12.6	-75.6	5.3
2026-01-17 08:48:12.485234	251.5	12.5	-75.6	6.0
2026-01-17 08:48:13.608869	251.4	12.4	-75.8	4.9
2026-01-17 08:48:14.733226	251.3	12.3	-76.2	5.0
2026-01-17 08:48:15.859026	251.1	12.2	-76.5	4.5
2026-01-17 08:48:16.983106	251.0	12.1	-75.8	4.8
2026-01-17 08:48:18.109073	250.9	12.0	-76.6	5.5
2026-01-17 08:48:19.232880	250.7	11.9	-75.6	4.1
2026-01-17 08:48:20.358164	250.6	11.9	-75.9	4.9
2026-01-17 08:48:21.480473	250.5	11.8	-76.1	1.9
2026-01-17 08:48:22.604048	250.4	11.7	-76.8	5.2
2026-01-17 08:48:23.726468	250.2	11.6	-76.3	5.0
2026-01-17 08:48:24.850293	250.1	11.5	-76.5	5.5
2026-01-17 08:48:25.974717	250.0	11.4	-76.0	4.2
2026-01-17 08:48:27.097148	249.9	11.3	-76.3	3.8
2026-01-17 08:48:28.218255	249.8	11.3	-76.0	5.3
2026-01-17 08:48:29.343252	249.6	11.2	-76.0	5.0
2026-01-17 08:48:30.467355	249.5	11.1	-75.1	3.9
2026-01-17 08:48:31.589389	249.4	11.0	-75.4	4.3
2026-01-17 08:48:32.713106	249.3	10.9	-75.6	3.2
2026-01-17 08:48:33.834875	249.2	10.8	-76.2	0.9
2026-01-17 08:48:34.957442	249.1	10.7	-76.7	0.0
2026-01-17 08:48:36.079529	248.9	10.7	-76.9	0.0
2026-01-17 08:48:37.200254	248.8	10.6	-77.5	0.0
2026-01-17 08:48:38.322860	248.7	10.5	-78.4	0.0
2026-01-17 08:48:39.445038	248.6	10.4	-79.0	0.0
2026-01-17 08:48:40.567362	248.5	10.3	-79.6	0.0
2026-01-17 08:48:41.688370	248.4	10.2	-79.4	0.0
2026-01-17 08:48:42.810297	248.3	10.2	-79.3	0.0
2026-01-17 08:48:43.931280	248.2	10.1	-79.2	0.0
#Closed at: 2026-01-17 08:39:40.050604