passes_logs/2026/01/17/planumMaritime01/planumMaritime01__20260117_190822_METOP-C_rec.log

#Pass ID: 20260117_190822_METOP-C
#Satellite: METOP-C
#Configuration: METOP-C
#Start time: 2026-01-17 19:08:27.355388

#LorettStation: 1.0.0 05.05.2024
#Station: planumMaritime01
#Location: 37.49445 lon 55.92918 lat
#TLE: 1 43689U 18087A   26016.59355496  .00000086  00000+0  59208-4 0  9996
#TLE: 2 43689  98.6876  78.8199 0000623 181.1520 178.9656 14.21498808373298

#Time	Az	El	Level	SNR
2026-01-17 19:08:29.517751	201.0	10.2	-78.0	0.0
2026-01-17 19:08:30.643568	201.1	10.3	-77.6	0.0
2026-01-17 19:08:31.767798	201.2	10.3	-76.5	0.0
2026-01-17 19:08:32.892919	201.3	10.4	-75.7	0.0
2026-01-17 19:08:34.017823	201.4	10.5	-74.0	0.0
2026-01-17 19:08:35.139213	201.5	10.6	-73.1	0.0
2026-01-17 19:08:36.260378	201.6	10.7	-72.1	0.0
2026-01-17 19:08:37.381081	201.7	10.8	-71.5	0.0
2026-01-17 19:08:38.506097	201.8	10.9	-70.5	0.0
2026-01-17 19:08:39.626919	201.9	11.0	-71.9	0.0
2026-01-17 19:08:40.753580	202.0	11.0	-69.6	0.0
2026-01-17 19:08:41.875505	202.1	11.1	-70.0	0.0
2026-01-17 19:08:42.998262	202.2	11.2	-70.1	0.0
2026-01-17 19:08:44.120157	202.3	11.3	-69.8	0.0
2026-01-17 19:08:45.243664	202.5	11.4	-70.3	0.0
2026-01-17 19:08:46.367032	202.6	11.5	-69.8	0.0
2026-01-17 19:08:47.488618	202.7	11.6	-70.6	0.0
2026-01-17 19:08:48.613390	202.8	11.7	-70.5	0.0
2026-01-17 19:08:49.739052	202.9	11.8	-69.7	0.0
2026-01-17 19:08:50.862423	203.0	11.9	-69.5	0.0
2026-01-17 19:08:51.983581	203.1	12.0	-70.4	0.0
2026-01-17 19:08:53.105263	203.2	12.0	-68.9	0.0
2026-01-17 19:08:54.226035	203.3	12.1	-69.2	0.0
2026-01-17 19:08:55.348865	203.4	12.2	-70.7	0.0
2026-01-17 19:08:56.471183	203.6	12.3	-69.4	0.0
2026-01-17 19:08:57.594488	203.7	12.4	-69.9	0.0
2026-01-17 19:08:58.714793	203.8	12.5	-69.8	0.0
2026-01-17 19:08:59.836153	203.9	12.6	-70.6	0.0
2026-01-17 19:09:00.958819	204.0	12.7	-70.9	0.0
2026-01-17 19:09:02.080800	204.1	12.8	-70.6	0.0
2026-01-17 19:09:03.203362	204.2	12.9	-70.0	0.0
2026-01-17 19:09:04.326525	204.4	13.0	-70.6	0.0
2026-01-17 19:09:05.449931	204.5	13.1	-70.3	0.0
2026-01-17 19:09:06.572967	204.6	13.2	-70.4	0.0
2026-01-17 19:09:07.696676	204.7	13.3	-70.8	0.0
2026-01-17 19:09:08.824106	204.8	13.4	-70.3	0.0
2026-01-17 19:09:09.948001	205.0	13.5	-70.4	0.0
2026-01-17 19:09:11.069856	205.1	13.6	-69.8	0.0
2026-01-17 19:09:12.193400	205.2	13.6	-70.2	0.0
2026-01-17 19:09:13.315789	205.3	13.7	-69.8	0.0
2026-01-17 19:09:14.438460	205.5	13.8	-70.2	0.0
2026-01-17 19:09:15.561230	205.6	13.9	-70.8	0.0
2026-01-17 19:09:16.687407	205.7	14.0	-70.2	0.0
2026-01-17 19:09:17.811372	205.8	14.1	-69.9	0.0
2026-01-17 19:09:18.933193	206.0	14.2	-70.6	0.0
2026-01-17 19:09:20.056203	206.1	14.3	-71.1	0.0
2026-01-17 19:09:21.179531	206.2	14.4	-70.4	0.0
2026-01-17 19:09:22.303549	206.4	14.5	-70.1	0.0
2026-01-17 19:09:23.429312	206.5	14.6	-69.9	0.0
2026-01-17 19:09:24.552903	206.6	14.7	-69.7	0.0
2026-01-17 19:09:25.677879	206.8	14.8	-70.6	0.0
2026-01-17 19:09:26.798510	206.9	14.9	-70.4	0.0
2026-01-17 19:09:27.922394	207.0	15.0	-71.0	0.0
2026-01-17 19:09:29.046264	207.2	15.1	-70.4	0.0
2026-01-17 19:09:30.168541	207.3	15.2	-71.5	0.0
2026-01-17 19:09:31.292352	207.4	15.3	-70.7	0.0
2026-01-17 19:09:32.416723	207.6	15.4	-70.5	0.0
2026-01-17 19:09:33.540876	207.7	15.5	-71.3	0.0
2026-01-17 19:09:34.664345	207.9	15.6	-70.5	0.0
2026-01-17 19:09:35.787546	208.0	15.7	-71.3	0.0
2026-01-17 19:09:36.910389	208.1	15.8	-70.4	0.0
2026-01-17 19:09:38.034078	208.3	15.9	-71.1	0.0
2026-01-17 19:09:39.155467	208.4	16.0	-70.3	0.0
2026-01-17 19:09:40.279304	208.6	16.1	-71.7	0.0
2026-01-17 19:09:41.402640	208.7	16.2	-71.2	0.0
2026-01-17 19:09:42.529523	208.9	16.4	-71.4	1.0
2026-01-17 19:09:43.653934	209.0	16.5	-71.5	0.0
2026-01-17 19:09:44.775024	209.2	16.6	-71.2	0.0
2026-01-17 19:09:45.897095	209.3	16.7	-71.3	0.0
2026-01-17 19:09:47.019136	209.5	16.8	-71.0	0.0
2026-01-17 19:09:48.144766	209.6	16.9	-71.0	0.0
2026-01-17 19:09:49.269675	209.8	17.0	-71.3	0.0
2026-01-17 19:09:50.394267	209.9	17.1	-71.3	0.0
2026-01-17 19:09:51.515546	210.1	17.2	-71.6	0.5
2026-01-17 19:09:52.637303	210.2	17.3	-70.9	0.0
2026-01-17 19:09:53.760503	210.4	17.4	-71.3	0.0
2026-01-17 19:09:54.885771	210.6	17.5	-71.6	0.2
2026-01-17 19:09:56.009682	210.7	17.6	-71.6	0.0
2026-01-17 19:09:57.134038	210.9	17.7	-71.3	0.2
2026-01-17 19:09:58.256333	211.0	17.8	-71.0	0.0
2026-01-17 19:09:59.377782	211.2	17.9	-71.4	0.6
2026-01-17 19:10:00.502024	211.4	18.0	-71.6	2.1
2026-01-17 19:10:01.625422	211.5	18.2	-71.6	1.9
2026-01-17 19:10:02.750452	211.7	18.3	-71.5	1.0
2026-01-17 19:10:03.874378	211.9	18.4	-71.8	1.7
2026-01-17 19:10:04.997365	212.0	18.5	-71.6	2.8
2026-01-17 19:10:06.122659	212.2	18.6	-71.3	1.2
2026-01-17 19:10:07.243739	212.4	18.7	-72.0	1.8
2026-01-17 19:10:08.366576	212.5	18.8	-71.7	2.6
2026-01-17 19:10:09.489761	212.7	18.9	-71.4	1.3
2026-01-17 19:10:10.611470	212.9	19.0	-71.8	2.8
2026-01-17 19:10:11.734236	213.1	19.1	-71.5	2.4
2026-01-17 19:10:12.856908	213.2	19.2	-71.8	4.2
2026-01-17 19:10:13.979922	213.4	19.4	-72.0	3.9
2026-01-17 19:10:15.101207	213.6	19.5	-71.9	3.3
2026-01-17 19:10:16.224321	213.8	19.6	-71.8	3.7
2026-01-17 19:10:17.346080	214.0	19.7	-71.9	4.7
2026-01-17 19:10:18.469217	214.2	19.8	-71.8	4.3
2026-01-17 19:10:19.591632	214.3	19.9	-72.3	4.4
2026-01-17 19:10:20.716108	214.5	20.0	-72.4	4.7
2026-01-17 19:10:21.838367	214.7	20.1	-72.6	5.8
2026-01-17 19:10:22.961826	214.9	20.2	-72.3	5.7
2026-01-17 19:10:24.084645	215.1	20.4	-72.4	5.9
2026-01-17 19:10:25.208477	215.3	20.5	-72.3	4.9
2026-01-17 19:10:26.332163	215.5	20.6	-72.1	5.7
2026-01-17 19:10:27.453302	215.7	20.7	-71.7	5.7
2026-01-17 19:10:28.575459	215.9	20.8	-71.9	4.0
2026-01-17 19:10:29.697941	216.1	20.9	-72.1	5.9
2026-01-17 19:10:30.820262	216.3	21.0	-72.2	6.7
2026-01-17 19:10:31.941408	216.5	21.2	-71.9	6.2
2026-01-17 19:10:33.064208	216.7	21.3	-71.7	4.9
2026-01-17 19:10:34.186566	216.9	21.4	-72.2	7.3
2026-01-17 19:10:35.309521	217.1	21.5	-71.9	6.6
2026-01-17 19:10:36.433530	217.3	21.6	-72.1	4.6
2026-01-17 19:10:37.557766	217.5	21.7	-72.2	7.0
2026-01-17 19:10:38.679734	217.7	21.8	-72.0	6.7
2026-01-17 19:10:39.803602	217.9	22.0	-72.4	7.0
2026-01-17 19:10:40.926616	218.1	22.1	-72.1	7.1
2026-01-17 19:10:42.048324	218.3	22.2	-72.1	7.6
2026-01-17 19:10:43.173082	218.5	22.3	-72.0	4.8
2026-01-17 19:10:44.297028	218.8	22.4	-72.3	7.4
2026-01-17 19:10:45.419940	219.0	22.5	-72.5	9.1
2026-01-17 19:10:46.542140	219.2	22.6	-72.5	7.8
2026-01-17 19:10:47.666544	219.4	22.8	-72.4	7.2
2026-01-17 19:10:48.788335	219.6	22.9	-72.6	7.1
2026-01-17 19:10:49.908924	219.9	23.0	-71.5	7.1
2026-01-17 19:10:51.031334	220.1	23.1	-72.8	8.5
2026-01-17 19:10:52.154410	220.3	23.2	-72.6	8.0
2026-01-17 19:10:53.276064	220.5	23.3	-73.0	8.7
2026-01-17 19:10:54.400332	220.8	23.5	-73.1	9.1
2026-01-17 19:10:55.523520	221.0	23.6	-73.1	11.1
2026-01-17 19:10:56.649845	221.2	23.7	-73.0	10.3
2026-01-17 19:10:57.772258	221.5	23.8	-72.0	8.3
2026-01-17 19:10:58.895779	221.7	23.9	-73.1	8.5
2026-01-17 19:11:00.021457	222.0	24.0	-73.1	8.8
2026-01-17 19:11:01.144569	222.2	24.2	-73.4	9.6
2026-01-17 19:11:02.267978	222.4	24.3	-73.4	9.3
2026-01-17 19:11:03.390641	222.7	24.4	-73.4	10.0
2026-01-17 19:11:04.512576	222.9	24.5	-73.3	8.9
2026-01-17 19:11:05.636479	223.2	24.6	-73.5	9.1
2026-01-17 19:11:06.759972	223.4	24.7	-73.6	9.1
2026-01-17 19:11:07.882498	223.7	24.8	-73.4	10.0
2026-01-17 19:11:09.004437	223.9	25.0	-73.6	10.5
2026-01-17 19:11:10.127621	224.2	25.1	-73.4	10.1
2026-01-17 19:11:11.251320	224.5	25.2	-73.7	9.5
2026-01-17 19:11:12.373620	224.7	25.3	-73.4	9.4
2026-01-17 19:11:13.495932	225.0	25.4	-73.5	10.5
2026-01-17 19:11:14.617911	225.2	25.5	-73.4	9.4
2026-01-17 19:11:15.740516	225.5	25.7	-73.4	9.9
2026-01-17 19:11:16.863616	225.8	25.8	-73.4	11.0
2026-01-17 19:11:17.985145	226.0	25.9	-73.5	10.2
2026-01-17 19:11:19.105287	226.3	26.0	-73.7	10.9
2026-01-17 19:11:20.227938	226.6	26.1	-73.5	9.4
2026-01-17 19:11:21.349952	226.9	26.2	-73.4	9.8
2026-01-17 19:11:22.473895	227.1	26.3	-73.3	9.7
2026-01-17 19:11:23.596321	227.4	26.5	-73.1	9.7
2026-01-17 19:11:24.718537	227.7	26.6	-73.4	9.7
2026-01-17 19:11:25.843432	228.0	26.7	-73.4	10.7
2026-01-17 19:11:26.966631	228.3	26.8	-73.2	9.4
2026-01-17 19:11:28.089719	228.5	26.9	-73.2	9.5
2026-01-17 19:11:29.211173	228.8	27.0	-73.0	9.4
2026-01-17 19:11:30.332425	229.1	27.1	-72.9	9.2
2026-01-17 19:11:31.453619	229.4	27.3	-73.1	10.4
2026-01-17 19:11:32.577027	229.7	27.4	-73.0	9.5
2026-01-17 19:11:33.701300	230.0	27.5	-73.3	9.8
2026-01-17 19:11:34.822712	230.3	27.6	-73.1	9.5
2026-01-17 19:11:35.943293	230.6	27.7	-73.2	10.3
2026-01-17 19:11:37.066246	230.9	27.8	-72.7	10.8
2026-01-17 19:11:38.186786	231.2	27.9	-73.0	10.6
2026-01-17 19:11:39.310927	231.5	28.0	-72.8	9.7
2026-01-17 19:11:40.435363	231.8	28.1	-73.0	10.3
2026-01-17 19:11:41.557678	232.1	28.2	-72.8	10.1
2026-01-17 19:11:42.678873	232.4	28.4	-72.8	10.7
2026-01-17 19:11:43.803222	232.8	28.5	-72.6	10.7
2026-01-17 19:11:44.925411	233.1	28.6	-72.6	9.6
2026-01-17 19:11:46.048812	233.4	28.7	-72.5	10.3
2026-01-17 19:11:47.172234	233.7	28.8	-72.3	9.8
2026-01-17 19:11:48.297999	234.0	28.9	-72.7	10.3
2026-01-17 19:11:49.421809	234.4	29.0	-73.1	11.1
2026-01-17 19:11:50.541198	234.7	29.1	-72.9	11.3
2026-01-17 19:11:51.666525	235.0	29.2	-72.6	9.9
2026-01-17 19:11:52.788824	235.4	29.3	-72.7	10.6
2026-01-17 19:11:53.910972	235.7	29.4	-72.6	10.1
2026-01-17 19:11:55.034783	236.0	29.5	-72.7	11.0
2026-01-17 19:11:56.159040	236.4	29.6	-72.8	10.9
2026-01-17 19:11:57.280216	236.7	29.7	-72.2	8.7
2026-01-17 19:11:58.402304	237.0	29.8	-71.8	9.1
2026-01-17 19:11:59.524304	237.4	29.9	-72.6	10.9
2026-01-17 19:12:00.647326	237.7	30.0	-72.2	9.5
2026-01-17 19:12:01.771113	238.1	30.1	-72.2	9.1
2026-01-17 19:12:02.894869	238.4	30.2	-72.2	11.1
2026-01-17 19:12:04.017934	238.8	30.3	-72.2	10.5
2026-01-17 19:12:05.143903	239.1	30.4	-72.5	11.6
2026-01-17 19:12:06.268616	239.5	30.5	-72.3	10.6
2026-01-17 19:12:07.390671	239.9	30.6	-72.5	11.7
2026-01-17 19:12:08.511629	240.2	30.7	-72.2	10.7
2026-01-17 19:12:09.637005	240.6	30.8	-72.2	11.4
2026-01-17 19:12:10.763718	240.9	30.8	-72.4	12.1
2026-01-17 19:12:11.888187	241.3	30.9	-72.4	12.2
2026-01-17 19:12:13.012378	241.7	31.0	-72.7	12.5
2026-01-17 19:12:14.135005	242.1	31.1	-72.9	11.3
2026-01-17 19:12:15.260114	242.4	31.2	-72.7	11.7
2026-01-17 19:12:16.383334	242.8	31.3	-72.6	10.3
2026-01-17 19:12:17.505191	243.2	31.4	-72.7	10.9
2026-01-17 19:12:18.627925	243.6	31.5	-72.1	10.9
2026-01-17 19:12:19.750227	243.9	31.5	-72.9	12.0
2026-01-17 19:12:20.873800	244.3	31.6	-73.0	11.4
2026-01-17 19:12:21.996913	244.7	31.7	-72.6	10.7
2026-01-17 19:12:23.119396	245.1	31.8	-72.3	10.4
2026-01-17 19:12:24.241867	245.5	31.8	-72.6	10.4
2026-01-17 19:12:25.365511	245.9	31.9	-73.0	11.2
2026-01-17 19:12:26.489120	246.3	32.0	-73.0	10.6
2026-01-17 19:12:27.611889	246.6	32.1	-73.0	10.6
2026-01-17 19:12:28.734257	247.0	32.1	-72.8	10.8
2026-01-17 19:12:29.859141	247.4	32.2	-72.8	10.2
2026-01-17 19:12:30.983712	247.8	32.3	-72.9	10.4
2026-01-17 19:12:32.107645	248.2	32.4	-72.8	10.8
2026-01-17 19:12:33.229936	248.6	32.4	-72.9	9.7
2026-01-17 19:12:34.352426	249.0	32.5	-72.8	11.1
2026-01-17 19:12:35.476371	249.4	32.5	-72.5	10.2
2026-01-17 19:12:36.598049	249.8	32.6	-72.8	11.9
2026-01-17 19:12:37.724400	250.3	32.7	-72.3	9.6
2026-01-17 19:12:38.844987	250.7	32.7	-72.5	10.2
2026-01-17 19:12:39.968486	251.1	32.8	-72.4	10.3
2026-01-17 19:12:41.091367	251.5	32.8	-72.3	10.1
2026-01-17 19:12:42.215316	251.9	32.9	-72.6	10.7
2026-01-17 19:12:43.337052	252.3	33.0	-72.6	11.3
2026-01-17 19:12:44.459266	252.7	33.0	-72.5	10.6
2026-01-17 19:12:45.580045	253.1	33.1	-72.3	10.9
2026-01-17 19:12:46.701258	253.6	33.1	-72.0	10.7
2026-01-17 19:12:47.823933	254.0	33.2	-72.3	11.7
2026-01-17 19:12:48.947107	254.4	33.2	-72.1	10.8
2026-01-17 19:12:50.069397	254.8	33.2	-72.1	10.8
2026-01-17 19:12:51.191789	255.2	33.3	-72.4	10.9
2026-01-17 19:12:52.317305	255.7	33.3	-71.5	10.2
2026-01-17 19:12:53.439546	256.1	33.4	-72.0	9.5
2026-01-17 19:12:54.563304	256.5	33.4	-72.4	10.7
2026-01-17 19:12:55.685763	257.0	33.4	-71.9	11.0
2026-01-17 19:12:56.807185	257.4	33.5	-71.6	10.3
2026-01-17 19:12:57.929819	257.8	33.5	-72.1	11.3
2026-01-17 19:12:59.052663	258.2	33.5	-72.4	10.8
2026-01-17 19:13:00.173324	258.7	33.6	-72.1	10.3
2026-01-17 19:13:01.297343	259.1	33.6	-72.4	9.9
2026-01-17 19:13:02.419824	259.5	33.6	-72.2	11.5
2026-01-17 19:13:03.545219	260.0	33.6	-71.8	10.3
2026-01-17 19:13:04.667613	260.4	33.7	-71.8	11.5
2026-01-17 19:13:05.788945	260.8	33.7	-71.8	11.5
2026-01-17 19:13:06.914751	261.3	33.7	-71.8	11.0
2026-01-17 19:13:08.036092	261.7	33.7	-70.9	6.5
2026-01-17 19:13:09.157976	262.1	33.7	-71.7	9.5
2026-01-17 19:13:10.279363	262.6	33.7	-72.0	11.1
2026-01-17 19:13:11.402422	263.0	33.8	-71.5	10.7
2026-01-17 19:13:12.525047	263.4	33.8	-70.4	7.8
2026-01-17 19:13:13.649214	263.9	33.8	-69.3	6.9
2026-01-17 19:13:14.768329	264.3	33.8	-70.2	7.8
2026-01-17 19:13:15.891254	264.7	33.8	-71.2	8.8
2026-01-17 19:13:17.013675	265.2	33.8	-70.8	8.7
2026-01-17 19:13:18.135570	265.6	33.8	-69.6	9.1
2026-01-17 19:13:19.260783	266.0	33.8	-69.8	7.6
2026-01-17 19:13:20.381723	266.5	33.8	-68.2	3.6
2026-01-17 19:13:21.504840	266.9	33.8	-70.1	8.6
2026-01-17 19:13:22.627777	267.4	33.8	-69.6	6.4
2026-01-17 19:13:23.751468	267.8	33.8	-69.0	4.8
2026-01-17 19:13:24.873506	268.2	33.7	-70.7	9.2
2026-01-17 19:13:25.995485	268.7	33.7	-70.0	7.8
2026-01-17 19:13:27.117476	269.1	33.7	-69.5	5.7
2026-01-17 19:13:28.239947	269.5	33.7	-70.1	7.6
2026-01-17 19:13:29.363340	270.0	33.7	-70.9	7.5
2026-01-17 19:13:30.485373	270.4	33.7	-70.9	6.3
2026-01-17 19:13:31.607791	270.8	33.6	-71.6	9.4
2026-01-17 19:13:32.730083	271.3	33.6	-70.9	8.2
2026-01-17 19:13:33.851409	271.7	33.6	-71.0	7.9
2026-01-17 19:13:34.973600	272.1	33.6	-71.0	7.1
2026-01-17 19:13:36.096084	272.5	33.5	-71.0	9.5
2026-01-17 19:13:37.218463	273.0	33.5	-70.5	6.5
2026-01-17 19:13:38.344312	273.4	33.5	-68.2	1.1
2026-01-17 19:13:39.467134	273.8	33.4	-71.7	6.2
2026-01-17 19:13:40.590487	274.3	33.4	-71.3	7.5
2026-01-17 19:13:41.714666	274.7	33.4	-71.6	6.9
2026-01-17 19:13:42.837019	275.1	33.3	-71.4	8.3
2026-01-17 19:13:43.960226	275.5	33.3	-71.6	8.1
2026-01-17 19:13:45.082643	276.0	33.2	-71.9	8.7
2026-01-17 19:13:46.205377	276.4	33.2	-71.1	7.0
2026-01-17 19:13:47.327157	276.8	33.2	-71.6	8.2
2026-01-17 19:13:48.449398	277.2	33.1	-70.9	6.6
2026-01-17 19:13:49.571810	277.6	33.1	-71.8	8.5
2026-01-17 19:13:50.694237	278.0	33.0	-71.7	6.6
2026-01-17 19:13:51.815651	278.5	33.0	-71.0	5.8
2026-01-17 19:13:52.935172	278.9	32.9	-70.2	5.3
2026-01-17 19:13:54.057082	279.3	32.9	-70.1	0.9
2026-01-17 19:13:55.180188	279.7	32.8	-69.9	4.6
2026-01-17 19:13:56.301863	280.1	32.7	-68.3	0.0
2026-01-17 19:13:57.423652	280.5	32.7	-70.0	6.6
2026-01-17 19:13:58.544940	280.9	32.6	-69.8	5.0
2026-01-17 19:13:59.670503	281.3	32.6	-68.8	2.9
2026-01-17 19:14:00.793603	281.7	32.5	-69.8	3.2
2026-01-17 19:14:01.915159	282.1	32.4	-71.1	6.5
2026-01-17 19:14:03.039498	282.5	32.4	-69.2	4.7
2026-01-17 19:14:04.161823	282.9	32.3	-70.3	4.1
2026-01-17 19:14:05.286242	283.3	32.2	-69.9	2.0
2026-01-17 19:14:06.409508	283.7	32.2	-70.2	5.6
2026-01-17 19:14:07.532257	284.1	32.1	-69.1	3.5
2026-01-17 19:14:08.655184	284.5	32.0	-70.9	1.2
2026-01-17 19:14:09.775920	284.9	31.9	-70.6	5.5
2026-01-17 19:14:10.897682	285.3	31.9	-70.6	6.0
2026-01-17 19:14:12.018845	285.7	31.8	-70.6	2.2
2026-01-17 19:14:13.140600	286.1	31.7	-70.0	2.8
2026-01-17 19:14:14.263787	286.4	31.6	-70.7	4.0
2026-01-17 19:14:15.387040	286.8	31.6	-69.5	3.2
2026-01-17 19:14:16.509143	287.2	31.5	-70.0	2.3
2026-01-17 19:14:17.630463	287.6	31.4	-70.1	2.2
2026-01-17 19:14:18.750708	287.9	31.3	-69.4	2.5
2026-01-17 19:14:19.870571	288.3	31.2	-69.4	1.2
2026-01-17 19:14:20.992375	288.7	31.1	-69.0	3.0
2026-01-17 19:14:22.115132	289.1	31.1	-68.4	1.0
2026-01-17 19:14:23.239842	289.4	31.0	-69.9	3.6
2026-01-17 19:14:24.365663	289.8	30.9	-66.3	0.0
2026-01-17 19:14:25.484540	290.2	30.8	-69.0	3.9
2026-01-17 19:14:26.606817	290.5	30.7	-68.0	0.0
2026-01-17 19:14:27.726828	290.9	30.6	-68.6	2.5
2026-01-17 19:14:28.850483	291.2	30.5	-69.4	3.6
2026-01-17 19:14:29.970958	291.6	30.4	-68.1	3.2
2026-01-17 19:14:31.094734	291.9	30.3	-68.5	2.9
2026-01-17 19:14:32.216791	292.3	30.2	-67.9	0.0
2026-01-17 19:14:33.338699	292.6	30.1	-68.9	0.0
2026-01-17 19:14:34.463317	293.0	30.0	-68.8	0.7
2026-01-17 19:14:35.585340	293.3	29.9	-67.6	0.0
2026-01-17 19:14:36.708521	293.7	29.8	-68.3	0.3
2026-01-17 19:14:37.830655	294.0	29.7	-68.7	3.1
2026-01-17 19:14:38.953155	294.4	29.6	-69.1	3.8
2026-01-17 19:14:40.072685	294.7	29.5	-69.7	3.3
2026-01-17 19:14:41.196996	295.0	29.4	-69.5	4.0
2026-01-17 19:14:42.320179	295.4	29.3	-70.2	4.7
2026-01-17 19:14:43.443498	295.7	29.2	-68.9	3.2
2026-01-17 19:14:44.566895	296.0	29.1	-69.0	2.0
2026-01-17 19:14:45.689098	296.4	29.0	-69.4	0.3
2026-01-17 19:14:46.810352	296.7	28.9	-68.0	0.0
2026-01-17 19:14:47.932643	297.0	28.8	-69.1	2.5
2026-01-17 19:14:49.056328	297.3	28.7	-69.9	1.8
2026-01-17 19:14:50.175471	297.6	28.6	-69.1	3.4
2026-01-17 19:14:51.298018	298.0	28.5	-69.6	3.4
2026-01-17 19:14:52.424300	298.3	28.4	-68.6	1.3
2026-01-17 19:14:53.545864	298.6	28.3	-70.2	3.6
2026-01-17 19:14:54.668706	298.9	28.2	-70.1	0.2
2026-01-17 19:14:55.791318	299.2	28.1	-69.9	4.5
2026-01-17 19:14:56.912337	299.5	28.0	-68.7	3.8
2026-01-17 19:14:58.034356	299.8	27.9	-69.8	3.4
2026-01-17 19:14:59.155642	300.1	27.7	-69.6	0.0
2026-01-17 19:15:00.280545	300.4	27.6	-67.8	0.0
2026-01-17 19:15:01.403549	300.7	27.5	-69.1	6.4
2026-01-17 19:15:02.525824	301.0	27.4	-70.1	4.4
2026-01-17 19:15:03.651069	301.3	27.3	-68.6	0.5
2026-01-17 19:15:04.777225	301.6	27.2	-68.6	0.0
2026-01-17 19:15:05.899677	301.9	27.1	-69.9	3.8
2026-01-17 19:15:07.019509	302.2	27.0	-70.1	2.1
2026-01-17 19:15:08.141254	302.5	26.9	-69.8	3.0
2026-01-17 19:15:09.265849	302.7	26.7	-69.1	1.4
2026-01-17 19:15:10.388224	303.0	26.6	-69.0	0.0
2026-01-17 19:15:11.512230	303.3	26.5	-68.9	2.3
2026-01-17 19:15:12.634123	303.6	26.4	-68.8	0.0
2026-01-17 19:15:13.756778	303.9	26.3	-69.8	2.6
2026-01-17 19:15:14.878642	304.1	26.2	-70.0	0.8
2026-01-17 19:15:16.001034	304.4	26.1	-70.5	3.9
2026-01-17 19:15:17.124629	304.7	26.0	-68.9	0.0
2026-01-17 19:15:18.247753	304.9	25.8	-69.6	3.9
2026-01-17 19:15:19.371563	305.2	25.7	-67.8	0.0
2026-01-17 19:15:20.493604	305.5	25.6	-69.3	0.0
2026-01-17 19:15:21.617246	305.7	25.5	-70.2	2.4
2026-01-17 19:15:22.737648	306.0	25.4	-70.4	0.6
2026-01-17 19:15:23.859277	306.3	25.3	-70.6	0.8
2026-01-17 19:15:24.982521	306.5	25.2	-69.4	0.0
2026-01-17 19:15:26.105330	306.8	25.0	-68.9	0.0
2026-01-17 19:15:27.227699	307.0	24.9	-70.2	0.0
2026-01-17 19:15:28.350963	307.3	24.8	-69.1	0.0
2026-01-17 19:15:29.474291	307.5	24.7	-71.5	1.9
2026-01-17 19:15:30.596797	307.8	24.6	-68.5	0.0
2026-01-17 19:15:31.720322	308.0	24.5	-70.1	0.0
2026-01-17 19:15:32.842870	308.3	24.3	-70.0	0.6
2026-01-17 19:15:33.965405	308.5	24.2	-69.6	0.0
2026-01-17 19:15:35.087829	308.7	24.1	-70.7	3.2
2026-01-17 19:15:36.210298	309.0	24.0	-69.6	0.0
2026-01-17 19:15:37.334351	309.2	23.9	-68.6	0.0
2026-01-17 19:15:38.457094	309.5	23.8	-65.0	0.0
2026-01-17 19:15:39.581249	309.7	23.7	-66.6	0.0
2026-01-17 19:15:40.701246	309.9	23.5	-64.2	0.0
2026-01-17 19:15:41.825389	310.2	23.4	-68.4	0.0
2026-01-17 19:15:42.946327	310.4	23.3	-69.7	0.0
2026-01-17 19:15:44.069101	310.6	23.2	-67.7	0.0
2026-01-17 19:15:45.189826	310.8	23.1	-67.7	0.0
2026-01-17 19:15:46.315768	311.1	23.0	-67.5	0.0
2026-01-17 19:15:47.438532	311.3	22.9	-68.2	0.0
2026-01-17 19:15:48.560934	311.5	22.7	-66.8	0.0
2026-01-17 19:15:49.682895	311.7	22.6	-67.3	0.0
2026-01-17 19:15:50.806134	311.9	22.5	-67.5	0.0
2026-01-17 19:15:51.931348	312.2	22.4	-65.9	0.0
2026-01-17 19:15:53.052389	312.4	22.3	-67.7	0.0
2026-01-17 19:15:54.174322	312.6	22.2	-68.1	0.0
2026-01-17 19:15:55.295366	312.8	22.1	-69.9	1.0
2026-01-17 19:15:56.419695	313.0	21.9	-67.8	0.0
2026-01-17 19:15:57.542329	313.2	21.8	-68.2	0.0
2026-01-17 19:15:58.663850	313.4	21.7	-68.3	0.0
2026-01-17 19:15:59.785918	313.6	21.6	-68.4	0.0
2026-01-17 19:16:00.905981	313.8	21.5	-65.6	0.0
2026-01-17 19:16:02.028237	314.0	21.4	-67.9	0.0
2026-01-17 19:16:03.150387	314.2	21.3	-68.9	0.0
2026-01-17 19:16:04.272851	314.4	21.1	-67.5	0.0
2026-01-17 19:16:05.396081	314.6	21.0	-67.1	0.0
2026-01-17 19:16:06.518311	314.8	20.9	-67.9	0.0
2026-01-17 19:16:07.642255	315.0	20.8	-68.2	0.0
2026-01-17 19:16:08.765053	315.2	20.7	-67.0	0.0
2026-01-17 19:16:09.887970	315.4	20.6	-68.6	0.0
2026-01-17 19:16:11.011339	315.6	20.5	-67.3	0.0
2026-01-17 19:16:12.131672	315.8	20.4	-68.2	0.0
2026-01-17 19:16:13.255187	316.0	20.2	-68.4	0.0
2026-01-17 19:16:14.380380	316.2	20.1	-69.0	0.0
2026-01-17 19:16:15.502657	316.4	20.0	-68.5	0.0
2026-01-17 19:16:16.627370	316.5	19.9	-68.1	0.0
2026-01-17 19:16:17.749777	316.7	19.8	-65.3	0.0
2026-01-17 19:16:18.872974	316.9	19.7	-68.2	0.0
2026-01-17 19:16:19.995933	317.1	19.6	-68.1	0.0
2026-01-17 19:16:21.117903	317.3	19.5	-68.5	0.0
2026-01-17 19:16:22.239301	317.4	19.4	-67.7	0.0
2026-01-17 19:16:23.363663	317.6	19.3	-67.3	0.0
2026-01-17 19:16:24.486058	317.8	19.1	-64.1	0.0
2026-01-17 19:16:25.607957	318.0	19.0	-63.8	0.0
2026-01-17 19:16:26.729994	318.1	18.9	-64.5	0.0
2026-01-17 19:16:27.856801	318.3	18.8	-64.8	0.0
2026-01-17 19:16:28.979624	318.5	18.7	-64.9	0.0
2026-01-17 19:16:30.101974	318.7	18.6	-67.8	0.0
2026-01-17 19:16:31.223522	318.8	18.5	-67.1	0.0
2026-01-17 19:16:32.345476	319.0	18.4	-67.5	0.0
2026-01-17 19:16:33.468365	319.2	18.3	-68.3	0.0
2026-01-17 19:16:34.589180	319.3	18.2	-68.8	0.0
2026-01-17 19:16:35.711057	319.5	18.1	-67.4	0.0
2026-01-17 19:16:36.832157	319.7	18.0	-66.0	0.0
2026-01-17 19:16:37.954885	319.8	17.9	-67.3	0.0
2026-01-17 19:16:39.076939	320.0	17.7	-67.0	0.0
2026-01-17 19:16:40.198960	320.1	17.6	-62.7	0.0
2026-01-17 19:16:41.321448	320.3	17.5	-68.5	0.0
2026-01-17 19:16:42.446321	320.5	17.4	-67.6	0.0
2026-01-17 19:16:43.570152	320.6	17.3	-67.7	0.0
2026-01-17 19:16:44.695531	320.8	17.2	-68.5	0.0
2026-01-17 19:16:45.818574	320.9	17.1	-69.0	0.0
2026-01-17 19:16:46.942032	321.1	17.0	-67.2	0.0
2026-01-17 19:16:48.064677	321.2	16.9	-70.0	0.0
2026-01-17 19:16:49.186395	321.4	16.8	-70.0	0.0
2026-01-17 19:16:50.308241	321.5	16.7	-68.8	0.0
2026-01-17 19:16:51.431188	321.7	16.6	-67.2	0.0
2026-01-17 19:16:52.552256	321.8	16.5	-68.1	0.0
2026-01-17 19:16:53.674540	322.0	16.4	-68.5	0.0
2026-01-17 19:16:54.797935	322.1	16.3	-66.0	0.0
2026-01-17 19:16:55.919086	322.3	16.2	-68.3	0.0
2026-01-17 19:16:57.041805	322.4	16.1	-67.4	0.0
2026-01-17 19:16:58.164264	322.6	16.0	-69.4	0.0
2026-01-17 19:16:59.287589	322.7	15.9	-67.6	0.0
2026-01-17 19:17:00.410531	322.8	15.8	-68.8	0.0
2026-01-17 19:17:01.531535	323.0	15.7	-62.3	0.0
2026-01-17 19:17:02.654983	323.1	15.6	-68.7	0.0
2026-01-17 19:17:03.776980	323.3	15.5	-68.0	0.0
2026-01-17 19:17:04.899276	323.4	15.4	-65.5	0.0
2026-01-17 19:17:06.023419	323.5	15.3	-68.5	0.0
2026-01-17 19:17:07.147388	323.7	15.2	-68.9	0.0
2026-01-17 19:17:08.269889	323.8	15.1	-68.5	0.0
2026-01-17 19:17:09.394099	323.9	15.0	-68.7	0.0
2026-01-17 19:17:10.515135	324.1	14.9	-68.3	0.0
2026-01-17 19:17:11.636582	324.2	14.8	-68.2	0.0
2026-01-17 19:17:12.757919	324.3	14.7	-68.1	0.0
2026-01-17 19:17:13.882725	324.5	14.6	-67.7	0.0
2026-01-17 19:17:15.004950	324.6	14.5	-67.9	0.0
2026-01-17 19:17:16.129027	324.7	14.4	-66.1	0.0
2026-01-17 19:17:17.251330	324.9	14.3	-67.2	0.0
2026-01-17 19:17:18.372523	325.0	14.2	-68.3	0.0
2026-01-17 19:17:19.495692	325.1	14.1	-67.8	0.0
2026-01-17 19:17:20.617234	325.2	14.0	-67.9	0.0
2026-01-17 19:17:21.738689	325.4	13.9	-67.7	0.0
2026-01-17 19:17:22.859643	325.5	13.8	-66.8	0.0
2026-01-17 19:17:23.981279	325.6	13.7	-66.7	0.0
2026-01-17 19:17:25.105684	325.7	13.6	-67.2	0.0
2026-01-17 19:17:26.229380	325.9	13.5	-67.7	0.0
2026-01-17 19:17:27.350797	326.0	13.4	-66.2	0.0
2026-01-17 19:17:28.472830	326.1	13.3	-66.5	0.0
2026-01-17 19:17:29.594256	326.2	13.2	-63.7	0.0
2026-01-17 19:17:30.716299	326.3	13.1	-65.6	0.0
2026-01-17 19:17:31.838879	326.5	13.1	-64.2	0.0
2026-01-17 19:17:32.960752	326.6	13.0	-67.8	0.0
2026-01-17 19:17:34.082732	326.7	12.9	-66.9	0.0
2026-01-17 19:17:35.205915	326.8	12.8	-68.5	0.0
2026-01-17 19:17:36.327268	326.9	12.7	-68.7	0.0
2026-01-17 19:17:37.448599	327.0	12.6	-67.2	0.0
2026-01-17 19:17:38.570252	327.2	12.5	-67.8	0.0
2026-01-17 19:17:39.694147	327.3	12.4	-67.6	0.0
2026-01-17 19:17:40.817350	327.4	12.3	-63.1	0.0
2026-01-17 19:17:41.940264	327.5	12.2	-62.7	0.0
2026-01-17 19:17:43.064860	327.6	12.1	-63.5	0.0
2026-01-17 19:17:44.188397	327.7	12.0	-63.5	0.0
2026-01-17 19:17:45.313268	327.8	11.9	-63.4	0.0
2026-01-17 19:17:46.436124	327.9	11.9	-65.7	0.0
2026-01-17 19:17:47.558404	328.0	11.8	-65.2	0.0
2026-01-17 19:17:48.682366	328.2	11.7	-65.8	0.0
2026-01-17 19:17:49.804182	328.3	11.6	-66.1	0.0
2026-01-17 19:17:50.924438	328.4	11.5	-66.6	0.0
2026-01-17 19:17:52.046711	328.5	11.4	-63.8	0.0
2026-01-17 19:17:53.168219	328.6	11.3	-64.4	0.0
2026-01-17 19:17:54.291360	328.7	11.2	-64.9	0.0
2026-01-17 19:17:55.414479	328.8	11.1	-64.6	0.0
2026-01-17 19:17:56.538351	328.9	11.1	-63.9	0.0
2026-01-17 19:17:57.661946	329.0	11.0	-65.9	0.0
2026-01-17 19:17:58.788723	329.1	10.9	-66.3	0.0
2026-01-17 19:17:59.908656	329.2	10.8	-67.8	0.0
2026-01-17 19:18:01.030854	329.3	10.7	-68.8	0.0
2026-01-17 19:18:02.152301	329.4	10.6	-68.2	0.0
2026-01-17 19:18:03.272364	329.5	10.5	-72.2	0.0
2026-01-17 19:18:04.396055	329.6	10.4	-69.6	0.0
2026-01-17 19:18:05.518805	329.7	10.4	-72.0	0.0
2026-01-17 19:18:06.641907	329.8	10.3	-72.1	0.0
2026-01-17 19:18:07.765058	329.9	10.2	-73.4	0.0
2026-01-17 19:18:08.887670	330.0	10.1	-73.6	0.0
#Closed at: 2026-01-17 19:08:22.361182