passes_logs/2026/01/17/planumMaritime01/planumMaritime01__20260117_005425_METEOR-M2_4_rec.log

#Pass ID: 20260117_005425_METEOR-M2 4
#Satellite: METEOR-M2 4
#Configuration: METEOR-M2 4
#Start time: 2026-01-17 00:54:30.438868

#LorettStation: 1.0.0 05.05.2024
#Station: planumMaritime01
#Location: 37.49445 lon 55.92918 lat
#TLE: 1 59051U 24039A   26016.59540353  .00000004  00000+0  21269-4 0  9994
#TLE: 2 59051  98.6815 337.9666 0006025 245.7664 114.2884 14.22407426 97710

#Time	Az	El	Level	SNR
2026-01-17 00:54:32.603792	18.3	10.2	-77.7	0.0
2026-01-17 00:54:33.725924	18.4	10.3	-78.1	0.0
2026-01-17 00:54:34.850923	18.4	10.4	-76.2	0.0
2026-01-17 00:54:35.973454	18.4	10.5	-78.1	0.0
2026-01-17 00:54:37.096713	18.4	10.6	-76.5	0.0
2026-01-17 00:54:38.221525	18.4	10.7	-74.8	0.0
2026-01-17 00:54:39.344375	18.5	10.8	-71.6	0.0
2026-01-17 00:54:40.468702	18.5	10.9	-73.0	0.0
2026-01-17 00:54:41.594309	18.5	11.0	-70.4	0.0
2026-01-17 00:54:42.718294	18.5	11.1	-71.2	0.0
2026-01-17 00:54:43.840963	18.5	11.2	-71.3	0.0
2026-01-17 00:54:44.964923	18.6	11.3	-71.0	0.0
2026-01-17 00:54:46.087999	18.6	11.4	-70.0	0.0
2026-01-17 00:54:47.212522	18.6	11.5	-72.0	0.0
2026-01-17 00:54:48.336703	18.6	11.6	-70.5	0.0
2026-01-17 00:54:49.459646	18.6	11.7	-70.7	0.0
2026-01-17 00:54:50.584327	18.7	11.8	-70.6	0.0
2026-01-17 00:54:51.709018	18.7	11.9	-70.7	0.0
2026-01-17 00:54:52.833708	18.7	12.0	-68.7	0.0
2026-01-17 00:54:53.960553	18.7	12.1	-72.2	0.0
2026-01-17 00:54:55.083262	18.7	12.2	-73.3	0.0
2026-01-17 00:54:56.205709	18.8	12.3	-71.3	0.0
2026-01-17 00:54:57.331046	18.8	12.4	-71.3	0.0
2026-01-17 00:54:58.454435	18.8	12.5	-71.1	0.0
2026-01-17 00:54:59.581674	18.8	12.7	-72.2	0.0
2026-01-17 00:55:00.704770	18.8	12.8	-71.0	0.0
2026-01-17 00:55:01.829554	18.9	12.9	-73.1	0.0
2026-01-17 00:55:02.954789	18.9	13.0	-73.5	0.0
2026-01-17 00:55:04.079029	18.9	13.1	-71.1	0.0
2026-01-17 00:55:05.204691	18.9	13.2	-69.6	0.0
2026-01-17 00:55:06.327191	18.9	13.3	-72.9	0.0
2026-01-17 00:55:07.452872	19.0	13.4	-72.8	0.0
2026-01-17 00:55:08.576762	19.0	13.5	-70.8	0.0
2026-01-17 00:55:09.703656	19.0	13.6	-71.5	0.0
2026-01-17 00:55:10.827419	19.0	13.8	-71.6	0.0
2026-01-17 00:55:11.952662	19.1	13.9	-71.8	0.0
2026-01-17 00:55:13.076291	19.1	14.0	-70.4	0.0
2026-01-17 00:55:14.199443	19.1	14.1	-69.4	0.0
2026-01-17 00:55:15.324195	19.1	14.2	-69.6	0.0
2026-01-17 00:55:16.448810	19.1	14.3	-67.9	0.0
2026-01-17 00:55:17.575676	19.2	14.4	-71.6	0.0
2026-01-17 00:55:18.701662	19.2	14.6	-70.6	0.0
2026-01-17 00:55:19.826108	19.2	14.7	-69.1	0.0
2026-01-17 00:55:20.949662	19.2	14.8	-71.6	0.0
2026-01-17 00:55:22.073432	19.3	14.9	-71.6	0.0
2026-01-17 00:55:23.198290	19.3	15.0	-71.2	0.0
2026-01-17 00:55:24.322442	19.3	15.2	-71.7	0.0
2026-01-17 00:55:25.444283	19.3	15.3	-70.4	0.0
2026-01-17 00:55:26.567229	19.4	15.4	-71.2	0.0
2026-01-17 00:55:27.692575	19.4	15.5	-70.9	0.0
2026-01-17 00:55:28.816976	19.4	15.6	-70.7	0.0
2026-01-17 00:55:29.939294	19.4	15.8	-71.2	0.0
2026-01-17 00:55:31.061846	19.5	15.9	-71.5	0.0
2026-01-17 00:55:32.186786	19.5	16.0	-69.5	0.0
2026-01-17 00:55:33.310841	19.5	16.1	-71.5	0.0
2026-01-17 00:55:34.435534	19.5	16.3	-70.3	0.0
2026-01-17 00:55:35.559095	19.6	16.4	-71.4	0.0
2026-01-17 00:55:36.682358	19.6	16.5	-71.4	0.0
2026-01-17 00:55:37.807741	19.6	16.6	-71.6	0.0
2026-01-17 00:55:38.930980	19.6	16.8	-70.2	0.0
2026-01-17 00:55:40.056664	19.7	16.9	-72.8	0.0
2026-01-17 00:55:41.179345	19.7	17.0	-71.4	0.0
2026-01-17 00:55:42.302654	19.7	17.2	-73.1	0.0
2026-01-17 00:55:43.426702	19.8	17.3	-72.3	0.0
2026-01-17 00:55:44.549376	19.8	17.4	-73.4	0.0
2026-01-17 00:55:45.672856	19.8	17.5	-72.2	0.0
2026-01-17 00:55:46.797317	19.8	17.7	-72.5	0.0
2026-01-17 00:55:47.919804	19.9	17.8	-73.0	0.0
2026-01-17 00:55:49.043404	19.9	17.9	-72.7	0.0
2026-01-17 00:55:50.169127	19.9	18.1	-71.7	0.0
2026-01-17 00:55:51.293771	19.9	18.2	-73.2	0.0
2026-01-17 00:55:52.414370	20.0	18.4	-69.8	0.0
2026-01-17 00:55:53.537570	20.0	18.5	-73.1	0.0
2026-01-17 00:55:54.662510	20.0	18.6	-73.3	0.0
2026-01-17 00:55:55.785604	20.1	18.8	-72.8	0.0
2026-01-17 00:55:56.910619	20.1	18.9	-73.0	0.0
2026-01-17 00:55:58.036668	20.1	19.0	-70.4	0.0
2026-01-17 00:55:59.162423	20.2	19.2	-73.5	0.0
2026-01-17 00:56:00.284539	20.2	19.3	-72.4	0.0
2026-01-17 00:56:01.406829	20.2	19.5	-74.0	0.0
2026-01-17 00:56:02.531823	20.2	19.6	-73.4	0.0
2026-01-17 00:56:03.654178	20.3	19.8	-72.2	0.0
2026-01-17 00:56:04.777970	20.3	19.9	-71.6	0.0
2026-01-17 00:56:05.902920	20.3	20.1	-72.2	0.0
2026-01-17 00:56:07.027191	20.4	20.2	-70.3	0.0
2026-01-17 00:56:08.151982	20.4	20.3	-73.5	0.0
2026-01-17 00:56:09.275944	20.4	20.5	-72.2	0.0
2026-01-17 00:56:10.400800	20.5	20.6	-73.5	0.9
2026-01-17 00:56:11.524681	20.5	20.8	-72.5	0.0
2026-01-17 00:56:12.653073	20.5	20.9	-70.2	0.0
2026-01-17 00:56:13.777731	20.6	21.1	-74.0	0.0
2026-01-17 00:56:14.905227	20.6	21.3	-73.3	0.0
2026-01-17 00:56:16.030480	20.6	21.4	-73.6	0.0
2026-01-17 00:56:17.153745	20.7	21.6	-72.3	0.0
2026-01-17 00:56:18.277190	20.7	21.7	-71.7	0.0
2026-01-17 00:56:19.400402	20.7	21.9	-74.1	0.0
2026-01-17 00:56:20.523617	20.8	22.0	-73.8	0.0
2026-01-17 00:56:21.648493	20.8	22.2	-71.9	0.0
2026-01-17 00:56:22.773047	20.8	22.4	-72.8	0.0
2026-01-17 00:56:23.897116	20.9	22.5	-73.9	0.0
2026-01-17 00:56:25.020410	20.9	22.7	-72.2	0.0
2026-01-17 00:56:26.144619	21.0	22.8	-73.8	0.0
2026-01-17 00:56:27.267363	21.0	23.0	-74.9	0.0
2026-01-17 00:56:28.393041	21.0	23.2	-70.9	0.0
2026-01-17 00:56:29.516679	21.1	23.3	-71.2	0.0
2026-01-17 00:56:30.641220	21.1	23.5	-72.3	2.1
2026-01-17 00:56:31.764897	21.1	23.7	-71.3	0.0
2026-01-17 00:56:32.890670	21.2	23.8	-72.8	0.6
2026-01-17 00:56:34.013331	21.2	24.0	-72.0	0.0
2026-01-17 00:56:35.136573	21.3	24.2	-74.2	0.0
2026-01-17 00:56:36.261271	21.3	24.4	-71.3	0.0
2026-01-17 00:56:37.386910	21.3	24.5	-72.3	0.0
2026-01-17 00:56:38.511429	21.4	24.7	-74.1	0.0
2026-01-17 00:56:39.634449	21.4	24.9	-73.0	0.0
2026-01-17 00:56:40.759126	21.5	25.1	-72.1	0.0
2026-01-17 00:56:41.882366	21.5	25.2	-74.7	0.0
2026-01-17 00:56:43.005894	21.6	25.4	-73.2	0.0
2026-01-17 00:56:44.131228	21.6	25.6	-73.8	2.1
2026-01-17 00:56:45.255584	21.6	25.8	-74.3	1.4
2026-01-17 00:56:46.378591	21.7	26.0	-70.8	0.0
2026-01-17 00:56:47.502939	21.7	26.1	-74.7	4.2
2026-01-17 00:56:48.627596	21.8	26.3	-73.7	0.7
2026-01-17 00:56:49.754345	21.8	26.5	-75.3	3.0
2026-01-17 00:56:50.878004	21.9	26.7	-75.1	1.6
2026-01-17 00:56:52.002275	21.9	26.9	-74.7	0.6
2026-01-17 00:56:53.125071	22.0	27.1	-75.7	4.4
2026-01-17 00:56:54.247427	22.0	27.3	-73.3	4.6
2026-01-17 00:56:55.373767	22.1	27.5	-74.5	0.8
2026-01-17 00:56:56.499171	22.1	27.7	-76.0	2.2
2026-01-17 00:56:57.623513	22.2	27.9	-75.7	5.7
2026-01-17 00:56:58.747060	22.2	28.1	-71.3	0.0
2026-01-17 00:56:59.870641	22.3	28.3	-74.8	3.7
2026-01-17 00:57:00.993697	22.3	28.5	-76.0	5.4
2026-01-17 00:57:02.116923	22.4	28.7	-72.6	0.0
2026-01-17 00:57:03.241683	22.4	28.9	-75.5	5.5
2026-01-17 00:57:04.365714	22.5	29.1	-74.4	2.8
2026-01-17 00:57:05.490964	22.5	29.3	-71.9	0.0
2026-01-17 00:57:06.616286	22.6	29.5	-75.7	5.9
2026-01-17 00:57:07.740691	22.6	29.7	-74.8	2.6
2026-01-17 00:57:08.865011	22.7	29.9	-75.8	6.4
2026-01-17 00:57:09.989553	22.7	30.1	-76.2	6.0
2026-01-17 00:57:11.113720	22.8	30.3	-76.5	5.7
2026-01-17 00:57:12.238240	22.8	30.6	-75.5	5.3
2026-01-17 00:57:13.361466	22.9	30.8	-76.2	5.2
2026-01-17 00:57:14.484348	23.0	31.0	-76.4	8.0
2026-01-17 00:57:15.609301	23.0	31.2	-75.0	3.2
2026-01-17 00:57:16.734595	23.1	31.4	-75.6	3.9
2026-01-17 00:57:17.857502	23.1	31.7	-75.4	0.0
2026-01-17 00:57:18.981691	23.2	31.9	-74.6	3.3
2026-01-17 00:57:20.106028	23.3	32.1	-74.5	3.4
2026-01-17 00:57:21.231130	23.3	32.3	-74.6	4.2
2026-01-17 00:57:22.353907	23.4	32.6	-74.8	5.4
2026-01-17 00:57:23.477359	23.5	32.8	-74.6	4.0
2026-01-17 00:57:24.604790	23.5	33.0	-75.8	6.0
2026-01-17 00:57:25.730447	23.6	33.3	-75.7	6.6
2026-01-17 00:57:26.854177	23.7	33.5	-76.3	6.9
2026-01-17 00:57:27.978279	23.7	33.8	-76.0	5.4
2026-01-17 00:57:29.105237	23.8	34.0	-76.4	9.0
2026-01-17 00:57:30.230845	23.9	34.3	-75.7	6.9
2026-01-17 00:57:31.354145	23.9	34.5	-76.6	9.1
2026-01-17 00:57:32.478214	24.0	34.7	-76.4	7.7
2026-01-17 00:57:33.604147	24.1	35.0	-76.7	9.7
2026-01-17 00:57:34.728223	24.2	35.3	-75.6	7.5
2026-01-17 00:57:35.854133	24.2	35.5	-76.0	8.3
2026-01-17 00:57:36.979266	24.3	35.8	-76.4	8.2
2026-01-17 00:57:38.102491	24.4	36.0	-76.1	8.3
2026-01-17 00:57:39.224080	24.5	36.3	-76.4	10.6
2026-01-17 00:57:40.348007	24.6	36.5	-77.1	6.6
2026-01-17 00:57:41.471585	24.6	36.8	-76.6	10.9
2026-01-17 00:57:42.597742	24.7	37.1	-76.3	9.3
2026-01-17 00:57:43.723093	24.8	37.3	-76.3	9.3
2026-01-17 00:57:44.846131	24.9	37.6	-77.0	8.5
2026-01-17 00:57:45.970330	25.0	37.9	-76.9	9.3
2026-01-17 00:57:47.093880	25.1	38.2	-77.0	10.8
2026-01-17 00:57:48.220077	25.2	38.4	-77.1	11.1
2026-01-17 00:57:49.342925	25.2	38.7	-77.1	10.9
2026-01-17 00:57:50.467229	25.3	39.0	-75.7	6.6
2026-01-17 00:57:51.589354	25.4	39.3	-76.8	8.5
2026-01-17 00:57:52.712852	25.5	39.6	-77.2	10.9
2026-01-17 00:57:53.838018	25.6	39.9	-77.2	10.0
2026-01-17 00:57:54.962380	25.7	40.1	-77.6	11.0
2026-01-17 00:57:56.086809	25.8	40.4	-77.1	10.1
2026-01-17 00:57:57.210521	25.9	40.7	-77.2	6.8
2026-01-17 00:57:58.334705	26.0	41.0	-77.6	9.8
2026-01-17 00:57:59.461362	26.1	41.3	-76.5	6.8
2026-01-17 00:58:00.585437	26.3	41.6	-77.6	8.5
2026-01-17 00:58:01.711005	26.4	41.9	-78.1	9.7
2026-01-17 00:58:02.834274	26.5	42.3	-77.9	8.3
2026-01-17 00:58:03.958577	26.6	42.6	-77.8	7.3
2026-01-17 00:58:05.083805	26.7	42.9	-78.4	10.4
2026-01-17 00:58:06.208350	26.8	43.2	-78.5	9.1
2026-01-17 00:58:07.332273	27.0	43.5	-77.0	6.0
2026-01-17 00:58:08.457238	27.1	43.8	-78.5	9.5
2026-01-17 00:58:09.580384	27.2	44.2	-76.9	5.5
2026-01-17 00:58:10.702702	27.3	44.5	-77.6	6.1
2026-01-17 00:58:11.826405	27.5	44.8	-77.6	9.1
2026-01-17 00:58:12.951315	27.6	45.1	-78.1	8.7
2026-01-17 00:58:14.074722	27.7	45.5	-79.0	9.9
2026-01-17 00:58:15.199355	27.9	45.8	-78.7	9.9
2026-01-17 00:58:16.322963	28.0	46.1	-78.5	10.5
2026-01-17 00:58:17.446225	28.2	46.5	-79.2	10.0
2026-01-17 00:58:18.570020	28.3	46.8	-79.1	9.8
2026-01-17 00:58:19.693680	28.5	47.2	-77.8	6.8
2026-01-17 00:58:20.816353	28.6	47.5	-78.7	8.8
2026-01-17 00:58:21.938589	28.8	47.9	-77.8	7.5
2026-01-17 00:58:23.066052	28.9	48.2	-78.9	9.1
2026-01-17 00:58:24.189906	29.1	48.6	-77.1	4.8
2026-01-17 00:58:25.313737	29.3	48.9	-78.7	7.5
2026-01-17 00:58:26.439087	29.4	49.3	-79.2	9.1
2026-01-17 00:58:27.565598	29.6	49.7	-78.7	7.4
2026-01-17 00:58:28.690722	29.8	50.0	-78.5	8.6
2026-01-17 00:58:29.813853	30.0	50.4	-79.4	8.6
2026-01-17 00:58:30.937229	30.2	50.8	-78.8	7.9
2026-01-17 00:58:32.060381	30.4	51.2	-79.1	7.7
2026-01-17 00:58:33.183374	30.6	51.5	-79.1	8.2
2026-01-17 00:58:34.307588	30.8	51.9	-79.1	8.4
2026-01-17 00:58:35.432153	31.0	52.3	-78.9	7.9
2026-01-17 00:58:36.553744	31.2	52.7	-79.1	9.1
2026-01-17 00:58:37.679577	31.4	53.1	-79.5	9.5
2026-01-17 00:58:38.803025	31.7	53.5	-78.3	6.6
2026-01-17 00:58:39.927023	31.9	53.9	-78.1	6.6
2026-01-17 00:58:41.049899	32.1	54.3	-78.9	8.6
2026-01-17 00:58:42.173791	32.4	54.7	-79.0	8.0
2026-01-17 00:58:43.299441	32.6	55.1	-78.6	6.9
2026-01-17 00:58:44.423743	32.9	55.5	-78.3	5.8
2026-01-17 00:58:45.546353	33.2	55.9	-79.4	8.8
2026-01-17 00:58:46.671530	33.4	56.3	-78.4	6.2
2026-01-17 00:58:47.794161	33.7	56.7	-79.3	7.6
2026-01-17 00:58:48.917896	34.0	57.1	-79.5	7.5
2026-01-17 00:58:50.042714	34.3	57.5	-79.3	7.6
2026-01-17 00:58:51.166347	34.6	58.0	-79.1	7.1
2026-01-17 00:58:52.289134	35.0	58.4	-79.5	6.2
2026-01-17 00:58:53.412104	35.3	58.8	-79.8	6.9
2026-01-17 00:58:54.536814	35.6	59.2	-79.4	8.3
2026-01-17 00:58:55.662596	36.0	59.7	-79.2	7.5
2026-01-17 00:58:56.787263	36.4	60.1	-79.5	7.7
2026-01-17 00:58:57.911425	36.7	60.5	-79.5	7.1
2026-01-17 00:58:59.034365	37.1	61.0	-79.7	8.8
2026-01-17 00:59:00.160149	37.5	61.4	-79.3	8.4
2026-01-17 00:59:01.285984	38.0	61.8	-79.6	9.0
2026-01-17 00:59:02.411318	38.4	62.3	-79.2	6.7
2026-01-17 00:59:03.534545	38.8	62.7	-78.2	8.4
2026-01-17 00:59:04.658314	39.3	63.2	-78.9	4.2
2026-01-17 00:59:05.784687	39.8	63.6	-78.1	3.6
2026-01-17 00:59:06.908994	40.3	64.1	-79.0	7.3
2026-01-17 00:59:08.035242	40.8	64.5	-78.9	7.2
2026-01-17 00:59:09.159588	41.4	64.9	-78.5	7.7
2026-01-17 00:59:10.282540	41.9	65.4	-79.5	8.2
2026-01-17 00:59:11.405668	42.5	65.8	-79.4	7.9
2026-01-17 00:59:12.531647	43.1	66.3	-78.3	7.4
2026-01-17 00:59:13.654787	43.8	66.7	-79.5	6.1
2026-01-17 00:59:14.780457	44.4	67.2	-79.6	7.8
2026-01-17 00:59:15.905127	45.1	67.6	-78.7	5.8
2026-01-17 00:59:17.028162	45.9	68.1	-79.4	8.0
2026-01-17 00:59:18.151924	46.6	68.5	-79.5	7.4
2026-01-17 00:59:19.278481	47.4	69.0	-79.6	8.0
2026-01-17 00:59:20.405046	48.2	69.4	-79.5	7.4
2026-01-17 00:59:21.528513	49.1	69.8	-80.1	7.1
2026-01-17 00:59:22.651391	50.0	70.3	-79.0	6.2
2026-01-17 00:59:23.775094	51.0	70.7	-79.1	4.1
2026-01-17 00:59:24.900572	52.0	71.1	-79.5	7.8
2026-01-17 00:59:26.024703	53.0	71.6	-79.0	7.5
2026-01-17 00:59:27.147822	54.1	72.0	-79.5	6.6
2026-01-17 00:59:28.271717	55.3	72.4	-79.3	9.1
2026-01-17 00:59:29.395441	56.5	72.8	-79.5	7.8
2026-01-17 00:59:30.518825	57.8	73.2	-79.3	9.7
2026-01-17 00:59:31.644589	59.1	73.6	-78.9	9.2
2026-01-17 00:59:32.770251	60.5	74.0	-79.4	9.5
2026-01-17 00:59:33.894230	62.0	74.4	-79.5	10.3
2026-01-17 00:59:35.018671	63.6	74.8	-79.3	8.1
2026-01-17 00:59:36.143941	65.2	75.1	-79.2	10.7
2026-01-17 00:59:37.267381	67.0	75.5	-79.2	10.7
2026-01-17 00:59:38.391600	68.8	75.8	-78.1	7.4
2026-01-17 00:59:39.515429	70.7	76.2	-77.6	9.2
2026-01-17 00:59:40.638812	72.7	76.5	-78.6	8.8
2026-01-17 00:59:41.767190	74.8	76.8	-79.1	10.4
2026-01-17 00:59:42.890451	77.0	77.0	-79.4	11.7
2026-01-17 00:59:44.017872	79.3	77.3	-79.2	10.9
2026-01-17 00:59:45.142305	81.7	77.5	-79.4	11.1
2026-01-17 00:59:46.266110	84.1	77.8	-79.1	10.6
2026-01-17 00:59:47.392168	86.7	78.0	-78.9	10.3
2026-01-17 00:59:48.515779	89.3	78.1	-78.0	9.7
2026-01-17 00:59:49.638978	92.0	78.3	-78.9	9.9
2026-01-17 00:59:50.762754	94.8	78.4	-79.2	12.1
2026-01-17 00:59:51.887887	97.6	78.5	-79.1	10.2
2026-01-17 00:59:53.013026	100.5	78.6	-79.2	11.6
2026-01-17 00:59:54.138045	103.4	78.6	-78.9	12.3
2026-01-17 00:59:55.263725	106.3	78.6	-78.9	11.7
2026-01-17 00:59:56.386643	109.2	78.6	-79.0	11.3
2026-01-17 00:59:57.511568	112.1	78.5	-79.4	11.3
2026-01-17 00:59:58.636274	115.0	78.5	-79.5	12.8
2026-01-17 00:59:59.760403	117.8	78.3	-79.6	12.3
2026-01-17 01:00:00.885275	120.5	78.2	-79.9	12.2
2026-01-17 01:00:02.009215	123.2	78.1	-79.5	12.1
2026-01-17 01:00:03.133468	125.8	77.9	-79.6	12.4
2026-01-17 01:00:04.257931	128.3	77.7	-78.7	10.1
2026-01-17 01:00:05.381700	130.8	77.4	-79.8	11.8
2026-01-17 01:00:06.506077	133.1	77.2	-79.9	12.4
2026-01-17 01:00:07.630118	135.4	76.9	-80.0	11.6
2026-01-17 01:00:08.754310	137.5	76.6	-79.9	11.6
2026-01-17 01:00:09.879844	139.6	76.3	-79.8	12.3
2026-01-17 01:00:11.006258	141.6	76.0	-79.7	12.0
2026-01-17 01:00:12.130515	143.4	75.7	-79.8	11.1
2026-01-17 01:00:13.256897	145.2	75.3	-80.0	12.5
2026-01-17 01:00:14.380963	146.9	75.0	-80.1	12.8
2026-01-17 01:00:15.505549	148.5	74.6	-80.1	10.7
2026-01-17 01:00:16.630634	150.1	74.2	-80.4	12.0
2026-01-17 01:00:17.754828	151.5	73.9	-80.1	11.7
2026-01-17 01:00:18.877845	152.9	73.5	-80.4	11.2
2026-01-17 01:00:20.002286	154.2	73.1	-80.6	10.9
2026-01-17 01:00:21.127663	155.5	72.6	-80.9	11.4
2026-01-17 01:00:22.251729	156.7	72.2	-81.1	11.5
2026-01-17 01:00:23.375867	157.8	71.8	-81.3	11.4
2026-01-17 01:00:24.501003	158.9	71.4	-80.7	11.0
2026-01-17 01:00:25.626903	159.9	71.0	-80.6	12.1
2026-01-17 01:00:26.750467	160.9	70.5	-81.0	12.1
2026-01-17 01:00:27.872624	161.8	70.1	-81.0	12.3
2026-01-17 01:00:28.997301	162.7	69.6	-80.7	11.5
2026-01-17 01:00:30.123059	163.6	69.2	-81.0	11.2
2026-01-17 01:00:31.249786	164.4	68.8	-81.0	12.1
2026-01-17 01:00:32.373615	165.2	68.3	-80.4	10.5
2026-01-17 01:00:33.497470	165.9	67.9	-81.1	11.5
2026-01-17 01:00:34.619890	166.6	67.4	-81.2	11.4
2026-01-17 01:00:35.745209	167.3	67.0	-81.2	11.3
2026-01-17 01:00:36.870836	168.0	66.5	-81.6	11.2
2026-01-17 01:00:37.994637	168.6	66.1	-81.8	10.4
2026-01-17 01:00:39.118171	169.2	65.6	-81.7	10.8
2026-01-17 01:00:40.243378	169.8	65.2	-81.5	11.1
2026-01-17 01:00:41.367740	170.3	64.7	-81.5	10.8
2026-01-17 01:00:42.491396	170.9	64.3	-81.7	12.2
2026-01-17 01:00:43.614308	171.4	63.8	-81.5	11.6
2026-01-17 01:00:44.738563	171.9	63.4	-81.9	11.3
2026-01-17 01:00:45.862257	172.4	62.9	-81.6	10.7
2026-01-17 01:00:46.986678	172.8	62.5	-81.5	11.1
2026-01-17 01:00:48.113003	173.3	62.1	-81.7	12.0
2026-01-17 01:00:49.236425	173.7	61.6	-81.6	11.1
2026-01-17 01:00:50.362408	174.1	61.2	-81.3	12.1
2026-01-17 01:00:51.487006	174.5	60.7	-81.4	11.3
2026-01-17 01:00:52.612528	174.9	60.3	-81.7	11.8
2026-01-17 01:00:53.733722	175.3	59.9	-81.3	11.3
2026-01-17 01:00:54.859764	175.6	59.4	-81.6	11.7
2026-01-17 01:00:55.983915	176.0	59.0	-81.5	11.1
2026-01-17 01:00:57.109344	176.3	58.6	-81.7	11.6
2026-01-17 01:00:58.234138	176.6	58.2	-81.7	11.4
2026-01-17 01:00:59.357146	177.0	57.7	-81.8	11.7
2026-01-17 01:01:00.480204	177.3	57.3	-81.7	11.9
2026-01-17 01:01:01.605089	177.6	56.9	-81.2	11.4
2026-01-17 01:01:02.728160	177.9	56.5	-81.6	11.0
2026-01-17 01:01:03.854874	178.1	56.1	-81.4	11.2
2026-01-17 01:01:04.978626	178.4	55.6	-81.3	11.5
2026-01-17 01:01:06.103757	178.7	55.2	-81.6	12.2
2026-01-17 01:01:07.226797	178.9	54.8	-81.8	11.4
2026-01-17 01:01:08.351932	179.2	54.4	-81.1	11.3
2026-01-17 01:01:09.476362	179.4	54.0	-81.4	11.7
2026-01-17 01:01:10.599216	179.7	53.6	-81.5	12.0
2026-01-17 01:01:11.723711	179.9	53.2	-81.4	12.0
2026-01-17 01:01:12.846969	180.1	52.8	-81.0	12.8
2026-01-17 01:01:13.971748	180.4	52.4	-81.0	12.5
2026-01-17 01:01:15.098649	180.6	52.1	-80.9	12.6
2026-01-17 01:01:16.223843	180.8	51.7	-81.2	11.7
2026-01-17 01:01:17.347437	181.0	51.3	-81.1	12.7
2026-01-17 01:01:18.473476	181.2	50.9	-81.4	11.6
2026-01-17 01:01:19.597050	181.4	50.5	-81.3	12.5
2026-01-17 01:01:20.722021	181.6	50.2	-81.2	12.6
2026-01-17 01:01:21.845778	181.7	49.8	-81.2	12.2
2026-01-17 01:01:22.969946	181.9	49.4	-81.2	12.1
2026-01-17 01:01:24.096685	182.1	49.1	-81.1	12.2
2026-01-17 01:01:25.221554	182.3	48.7	-81.2	12.6
2026-01-17 01:01:26.348079	182.4	48.3	-81.2	12.1
2026-01-17 01:01:27.470572	182.6	48.0	-81.0	12.1
2026-01-17 01:01:28.595094	182.8	47.6	-81.0	12.3
2026-01-17 01:01:29.718819	182.9	47.3	-80.9	13.0
2026-01-17 01:01:30.841212	183.1	46.9	-80.8	12.5
2026-01-17 01:01:31.965468	183.2	46.6	-81.1	12.5
2026-01-17 01:01:33.089983	183.4	46.2	-81.0	12.2
2026-01-17 01:01:34.212444	183.5	45.9	-80.9	12.5
2026-01-17 01:01:35.335808	183.7	45.5	-80.8	12.8
2026-01-17 01:01:36.460155	183.8	45.2	-80.6	13.4
2026-01-17 01:01:37.586622	183.9	44.9	-80.6	13.1
2026-01-17 01:01:38.712206	184.1	44.5	-80.8	13.5
2026-01-17 01:01:39.836367	184.2	44.2	-80.4	12.8
2026-01-17 01:01:40.958551	184.3	43.9	-80.3	12.8
2026-01-17 01:01:42.082721	184.4	43.6	-80.2	12.4
2026-01-17 01:01:43.208344	184.6	43.2	-80.0	12.4
2026-01-17 01:01:44.332596	184.7	42.9	-79.8	12.4
2026-01-17 01:01:45.459696	184.8	42.6	-79.9	13.4
2026-01-17 01:01:46.584673	184.9	42.3	-79.9	14.0
2026-01-17 01:01:47.709778	185.0	42.0	-80.0	13.7
2026-01-17 01:01:48.832913	185.1	41.7	-79.6	13.8
2026-01-17 01:01:49.959418	185.3	41.4	-79.9	12.5
2026-01-17 01:01:51.085183	185.4	41.1	-79.9	13.5
2026-01-17 01:01:52.208650	185.5	40.8	-79.8	13.3
2026-01-17 01:01:53.335744	185.6	40.5	-79.7	12.8
2026-01-17 01:01:54.459993	185.7	40.2	-79.6	13.3
2026-01-17 01:01:55.584109	185.8	39.9	-79.7	13.6
2026-01-17 01:01:56.709762	185.9	39.6	-79.6	12.6
2026-01-17 01:01:57.831761	186.0	39.3	-79.5	12.4
2026-01-17 01:01:58.956996	186.1	39.0	-79.6	12.9
2026-01-17 01:02:00.082888	186.2	38.7	-79.7	12.8
2026-01-17 01:02:01.207064	186.3	38.4	-79.4	13.2
2026-01-17 01:02:02.330646	186.3	38.2	-79.4	11.4
2026-01-17 01:02:03.453906	186.4	37.9	-79.3	12.1
2026-01-17 01:02:04.575982	186.5	37.6	-79.2	11.6
2026-01-17 01:02:05.699828	186.6	37.3	-79.2	11.5
2026-01-17 01:02:06.821591	186.7	37.1	-79.3	13.0
2026-01-17 01:02:07.948111	186.8	36.8	-79.1	12.3
2026-01-17 01:02:09.071757	186.9	36.5	-79.4	13.7
2026-01-17 01:02:10.198929	186.9	36.3	-79.3	13.6
2026-01-17 01:02:11.324282	187.0	36.0	-79.5	12.8
2026-01-17 01:02:12.448511	187.1	35.7	-79.1	12.9
2026-01-17 01:02:13.573443	187.2	35.5	-79.4	12.8
2026-01-17 01:02:14.697097	187.2	35.2	-79.3	12.8
2026-01-17 01:02:15.820360	187.3	35.0	-79.4	12.3
2026-01-17 01:02:16.945024	187.4	34.7	-79.3	10.1
2026-01-17 01:02:18.067513	187.5	34.5	-79.4	11.8
2026-01-17 01:02:19.191649	187.5	34.2	-79.3	11.7
2026-01-17 01:02:20.316140	187.6	34.0	-79.4	13.2
2026-01-17 01:02:21.439050	187.7	33.7	-79.1	12.1
2026-01-17 01:02:22.562742	187.8	33.5	-78.9	11.0
2026-01-17 01:02:23.686734	187.8	33.2	-79.1	12.3
2026-01-17 01:02:24.811797	187.9	33.0	-78.8	10.6
2026-01-17 01:02:25.934873	188.0	32.8	-79.1	11.7
2026-01-17 01:02:27.060397	188.0	32.5	-79.1	10.6
2026-01-17 01:02:28.186483	188.1	32.3	-79.0	12.1
2026-01-17 01:02:29.312629	188.1	32.1	-79.3	13.4
2026-01-17 01:02:30.437363	188.2	31.8	-79.2	12.9
2026-01-17 01:02:31.560282	188.3	31.6	-79.1	13.5
2026-01-17 01:02:32.685127	188.3	31.4	-78.7	9.4
2026-01-17 01:02:33.809406	188.4	31.2	-78.6	9.9
2026-01-17 01:02:34.934101	188.5	30.9	-78.5	9.9
2026-01-17 01:02:36.058653	188.5	30.7	-79.2	11.2
2026-01-17 01:02:37.182881	188.6	30.5	-78.5	11.7
2026-01-17 01:02:38.308321	188.6	30.3	-78.8	11.4
2026-01-17 01:02:39.433751	188.7	30.1	-78.4	12.2
2026-01-17 01:02:40.558647	188.7	29.8	-78.9	12.1
2026-01-17 01:02:41.684936	188.8	29.6	-78.7	10.1
2026-01-17 01:02:42.810166	188.8	29.4	-78.5	12.3
2026-01-17 01:02:43.931984	188.9	29.2	-78.1	8.6
2026-01-17 01:02:45.055591	189.0	29.0	-78.7	10.9
2026-01-17 01:02:46.179582	189.0	28.8	-78.5	10.2
2026-01-17 01:02:47.304901	189.1	28.6	-78.9	11.8
2026-01-17 01:02:48.427961	189.1	28.4	-78.6	11.8
2026-01-17 01:02:49.551178	189.2	28.2	-78.9	10.0
2026-01-17 01:02:50.676769	189.2	28.0	-78.8	9.0
2026-01-17 01:02:51.800382	189.3	27.8	-78.4	10.6
2026-01-17 01:02:52.925064	189.3	27.6	-78.8	10.5
2026-01-17 01:02:54.048030	189.4	27.4	-78.5	9.0
2026-01-17 01:02:55.173009	189.4	27.2	-78.5	8.1
2026-01-17 01:02:56.298386	189.4	27.0	-78.0	12.4
2026-01-17 01:02:57.423900	189.5	26.8	-78.0	10.1
2026-01-17 01:02:58.547784	189.5	26.6	-77.7	11.3
2026-01-17 01:02:59.673607	189.6	26.4	-77.9	11.8
2026-01-17 01:03:00.797781	189.6	26.2	-78.3	8.4
2026-01-17 01:03:01.921753	189.7	26.0	-78.7	11.5
2026-01-17 01:03:03.045633	189.7	25.9	-78.2	8.8
2026-01-17 01:03:04.168439	189.8	25.7	-78.2	8.5
2026-01-17 01:03:05.291576	189.8	25.5	-78.1	11.0
2026-01-17 01:03:06.415903	189.9	25.3	-78.3	12.8
2026-01-17 01:03:07.540570	189.9	25.1	-78.3	11.7
2026-01-17 01:03:08.665943	189.9	24.9	-78.3	9.7
2026-01-17 01:03:09.789254	190.0	24.8	-78.3	11.2
2026-01-17 01:03:10.916034	190.0	24.6	-78.8	11.4
2026-01-17 01:03:12.039308	190.1	24.4	-78.7	9.1
2026-01-17 01:03:13.165656	190.1	24.2	-78.3	12.1
2026-01-17 01:03:14.290536	190.1	24.1	-78.7	10.1
2026-01-17 01:03:15.414972	190.2	23.9	-78.1	8.1
2026-01-17 01:03:16.538564	190.2	23.7	-78.8	9.5
2026-01-17 01:03:17.661207	190.3	23.5	-79.0	10.9
2026-01-17 01:03:18.783999	190.3	23.4	-78.7	11.0
2026-01-17 01:03:19.908527	190.3	23.2	-79.0	11.7
2026-01-17 01:03:21.034140	190.4	23.0	-79.0	12.6
2026-01-17 01:03:22.157071	190.4	22.9	-78.5	11.9
2026-01-17 01:03:23.280965	190.4	22.7	-79.2	9.4
2026-01-17 01:03:24.403776	190.5	22.5	-78.6	9.6
2026-01-17 01:03:25.528065	190.5	22.4	-78.9	11.7
2026-01-17 01:03:26.652064	190.6	22.2	-79.0	10.4
2026-01-17 01:03:27.774987	190.6	22.1	-78.9	8.7
2026-01-17 01:03:28.899405	190.6	21.9	-78.9	9.8
2026-01-17 01:03:30.022028	190.7	21.7	-78.9	11.6
2026-01-17 01:03:31.145010	190.7	21.6	-78.3	8.3
2026-01-17 01:03:32.268582	190.7	21.4	-78.9	8.7
2026-01-17 01:03:33.392162	190.8	21.3	-78.9	11.0
2026-01-17 01:03:34.515406	190.8	21.1	-78.9	8.7
2026-01-17 01:03:35.641698	190.8	21.0	-78.8	9.0
2026-01-17 01:03:36.766085	190.9	20.8	-78.9	11.7
2026-01-17 01:03:37.889572	190.9	20.6	-78.7	11.1
2026-01-17 01:03:39.015165	190.9	20.5	-79.0	11.6
2026-01-17 01:03:40.138959	191.0	20.3	-78.9	11.2
2026-01-17 01:03:41.263783	191.0	20.2	-79.0	11.2
2026-01-17 01:03:42.389856	191.0	20.0	-78.6	11.8
2026-01-17 01:03:43.514748	191.1	19.9	-78.3	9.6
2026-01-17 01:03:44.638721	191.1	19.8	-78.7	12.7
2026-01-17 01:03:45.763447	191.1	19.6	-79.2	9.8
2026-01-17 01:03:46.887185	191.1	19.5	-78.6	10.7
2026-01-17 01:03:48.010355	191.2	19.3	-78.9	9.5
2026-01-17 01:03:49.135869	191.2	19.2	-78.2	8.1
2026-01-17 01:03:50.259267	191.2	19.0	-78.8	10.5
2026-01-17 01:03:51.383260	191.3	18.9	-78.7	8.6
2026-01-17 01:03:52.508107	191.3	18.7	-78.8	10.7
2026-01-17 01:03:53.630142	191.3	18.6	-78.8	10.7
2026-01-17 01:03:54.754783	191.3	18.5	-79.2	11.4
2026-01-17 01:03:55.877884	191.4	18.3	-78.8	10.4
2026-01-17 01:03:57.003602	191.4	18.2	-78.9	9.4
2026-01-17 01:03:58.125924	191.4	18.1	-79.2	11.6
2026-01-17 01:03:59.251764	191.5	17.9	-79.2	10.2
2026-01-17 01:04:00.376101	191.5	17.8	-79.2	9.3
2026-01-17 01:04:01.498732	191.5	17.6	-79.4	7.6
2026-01-17 01:04:02.621948	191.5	17.5	-79.1	9.6
2026-01-17 01:04:03.745128	191.6	17.4	-79.5	9.6
2026-01-17 01:04:04.867840	191.6	17.2	-79.4	9.1
2026-01-17 01:04:05.991601	191.6	17.1	-79.3	10.3
2026-01-17 01:04:07.115707	191.6	17.0	-79.1	10.2
2026-01-17 01:04:08.240387	191.7	16.9	-79.4	11.7
2026-01-17 01:04:09.361831	191.7	16.7	-79.3	7.8
2026-01-17 01:04:10.485683	191.7	16.6	-79.3	10.0
2026-01-17 01:04:11.612507	191.8	16.5	-79.3	11.3
2026-01-17 01:04:12.735534	191.8	16.3	-79.4	9.7
2026-01-17 01:04:13.858344	191.8	16.2	-79.2	8.6
2026-01-17 01:04:14.985161	191.8	16.1	-79.6	9.6
2026-01-17 01:04:16.111027	191.9	16.0	-79.0	10.2
2026-01-17 01:04:17.234277	191.9	15.8	-79.1	9.2
2026-01-17 01:04:18.358222	191.9	15.7	-79.2	10.5
2026-01-17 01:04:19.482564	191.9	15.6	-78.9	10.5
2026-01-17 01:04:20.605442	192.0	15.5	-79.5	10.0
2026-01-17 01:04:21.730667	192.0	15.3	-79.2	9.1
2026-01-17 01:04:22.855210	192.0	15.2	-79.0	10.0
2026-01-17 01:04:23.979393	192.0	15.1	-79.1	10.1
2026-01-17 01:04:25.101263	192.0	15.0	-79.8	10.2
2026-01-17 01:04:26.225232	192.1	14.8	-79.7	9.3
2026-01-17 01:04:27.349544	192.1	14.7	-79.4	11.0
2026-01-17 01:04:28.473779	192.1	14.6	-79.5	9.1
2026-01-17 01:04:29.597141	192.1	14.5	-79.0	8.5
2026-01-17 01:04:30.720716	192.2	14.4	-79.0	11.1
2026-01-17 01:04:31.846355	192.2	14.3	-78.9	9.3
2026-01-17 01:04:32.972119	192.2	14.1	-79.3	8.8
2026-01-17 01:04:34.101375	192.2	14.0	-79.6	11.6
2026-01-17 01:04:35.225377	192.2	13.9	-79.2	8.9
2026-01-17 01:04:36.347560	192.3	13.8	-79.5	9.1
2026-01-17 01:04:37.471626	192.3	13.7	-79.2	9.5
2026-01-17 01:04:38.595289	192.3	13.6	-79.2	9.1
2026-01-17 01:04:39.718965	192.3	13.4	-79.8	10.2
2026-01-17 01:04:40.842793	192.4	13.3	-79.6	9.4
2026-01-17 01:04:41.968530	192.4	13.2	-79.3	9.6
2026-01-17 01:04:43.091448	192.4	13.1	-79.5	8.0
2026-01-17 01:04:44.216893	192.4	13.0	-79.2	9.0
2026-01-17 01:04:45.342131	192.4	12.9	-79.7	8.3
2026-01-17 01:04:46.465785	192.5	12.8	-79.4	7.7
2026-01-17 01:04:47.589826	192.5	12.7	-79.5	9.7
2026-01-17 01:04:48.714135	192.5	12.6	-79.6	10.3
2026-01-17 01:04:49.838407	192.5	12.5	-79.9	8.4
2026-01-17 01:04:50.962727	192.5	12.3	-78.6	7.6
2026-01-17 01:04:52.086549	192.6	12.2	-80.0	6.3
2026-01-17 01:04:53.211610	192.6	12.1	-79.5	10.2
2026-01-17 01:04:54.334758	192.6	12.0	-79.6	7.0
2026-01-17 01:04:55.458034	192.6	11.9	-79.5	8.0
2026-01-17 01:04:56.581843	192.6	11.8	-79.4	7.6
2026-01-17 01:04:57.707741	192.7	11.7	-79.4	7.4
2026-01-17 01:04:58.831435	192.7	11.6	-79.4	7.8
2026-01-17 01:04:59.955451	192.7	11.5	-78.8	6.1
2026-01-17 01:05:01.079124	192.7	11.4	-79.5	6.5
2026-01-17 01:05:02.201798	192.7	11.3	-79.0	7.8
2026-01-17 01:05:03.325884	192.8	11.2	-79.1	4.7
2026-01-17 01:05:04.449890	192.8	11.1	-79.7	5.9
2026-01-17 01:05:05.574067	192.8	11.0	-79.5	9.3
2026-01-17 01:05:06.698592	192.8	10.9	-79.8	6.7
2026-01-17 01:05:07.824608	192.8	10.8	-80.4	3.3
2026-01-17 01:05:08.949441	192.9	10.7	-81.9	3.4
2026-01-17 01:05:10.074540	192.9	10.6	-83.6	0.0
2026-01-17 01:05:11.198309	192.9	10.5	-84.6	0.0
2026-01-17 01:05:12.321029	192.9	10.4	-84.7	1.6
2026-01-17 01:05:13.445009	192.9	10.3	-85.3	2.0
2026-01-17 01:05:14.566928	192.9	10.2	-85.8	0.0
2026-01-17 01:05:15.690685	193.0	10.1	-86.1	0.0
2026-01-17 01:05:16.814687	193.0	10.0	-86.5	0.0
#Closed at: 2026-01-17 00:54:25.444618