passes_logs/2026/01/06/R4.6S_Anadyr_2ch/R4.6S_Anadyr_2ch__20260106_155322_SUOMI_NPP_rec.log

#Pass ID: 20260106_155322_SUOMI NPP
#Satellite: SUOMI NPP
#Configuration: NPP
#almurnet v.1.7.20251203
#Start time: 2026-01-06 15:53:25

#Version: 2.2.20231116
#Station: R4.6S_Anadyr_2ch
#Location: 177.4865 lon 64.73178 lat
#TLE: 1 37849U 11061A   25350.92281687  .00000071  00000+0  54882-4 0  9996
#TLE: 2 37849  98.7777 288.2268 0002366 112.8570 247.2856 14.19515404732588

#Time	Az	El	Level	Level2	SNR	BER	BlckErr	Temp	State	Recorded	gain1	gain2
2026-01-06 15:53:25.52	23.52	0.20	-51.1	-65.0	3.3	1.54e+00	0	31	0	0	60	86507
2026-01-06 15:53:26.52	23.49	0.26	-51.1	-66.5	3.6	1.51e+00	0	31	104	0	60	102699
2026-01-06 15:53:27.53	23.46	0.31	-51.1	-66.5	3.6	1.51e+00	0	31	104	0	60	102891
2026-01-06 15:53:28.54	23.44	0.37	-51.1	-66.5	3.6	1.51e+00	0	31	104	0	60	103214
2026-01-06 15:53:29.55	23.41	0.43	-51.2	-66.5	3.6	1.51e+00	0	31	104	0	60	103325
2026-01-06 15:53:30.56	23.39	0.49	-51.2	-66.6	3.6	1.51e+00	0	31	104	0	60	103658
2026-01-06 15:53:31.57	23.36	0.55	-51.1	-66.5	3.6	1.51e+00	0	31	104	0	60	103137
2026-01-06 15:53:32.58	23.34	0.61	-51.1	-66.4	3.6	1.51e+00	0	31	104	0	60	102140
2026-01-06 15:53:33.59	23.31	0.67	-51.0	-66.4	3.6	1.51e+00	0	31	104	0	60	101290
2026-01-06 15:53:34.61	23.28	0.74	-50.9	-66.3	3.6	1.51e+00	0	31	104	0	60	100166
2026-01-06 15:53:35.62	23.26	0.80	-50.7	-66.0	3.6	1.51e+00	0	31	104	0	60	97710
2026-01-06 15:53:36.63	23.23	0.86	-50.5	-65.9	3.6	1.51e+00	0	31	104	0	60	96301
2026-01-06 15:53:37.64	23.20	0.92	-50.3	-65.7	3.6	1.51e+00	0	31	104	0	60	93836
2026-01-06 15:53:38.65	23.18	0.98	-50.1	-65.4	3.6	1.51e+00	0	31	104	0	60	90715
2026-01-06 15:53:39.66	23.15	1.04	-49.7	-64.9	3.6	1.51e+00	0	31	104	0	60	85808
2026-01-06 15:53:40.67	23.12	1.10	-49.7	-65.0	3.6	1.51e+00	0	31	104	0	60	86924
2026-01-06 15:53:41.68	23.09	1.16	-49.7	-65.0	3.6	1.51e+00	0	31	104	0	60	86791
2026-01-06 15:53:42.69	23.07	1.22	-49.7	-65.0	3.6	1.51e+00	0	31	104	0	60	86916
2026-01-06 15:53:43.70	23.04	1.28	-49.7	-65.0	3.6	1.51e+00	0	31	104	0	60	86756
2026-01-06 15:53:44.71	23.01	1.35	-49.7	-65.0	3.6	1.51e+00	0	31	104	0	60	86213
2026-01-06 15:53:45.72	22.98	1.41	-49.7	-65.0	3.6	1.51e+00	0	31	104	0	60	86926
2026-01-06 15:53:46.74	22.96	1.47	-49.7	-64.9	3.6	1.51e+00	0	31	104	0	60	86087
2026-01-06 15:53:47.75	22.93	1.53	-49.7	-65.0	3.6	1.51e+00	0	31	104	0	60	86239
2026-01-06 15:53:48.76	22.90	1.59	-49.7	-65.1	3.6	1.51e+00	0	31	104	0	60	87211
2026-01-06 15:53:49.77	22.87	1.66	-49.7	-65.0	3.6	1.51e+00	0	31	104	0	60	87157
2026-01-06 15:53:50.78	22.84	1.72	-49.7	-65.0	3.6	1.51e+00	0	31	104	0	60	86468
2026-01-06 15:53:51.79	22.81	1.78	-49.7	-64.8	3.6	1.51e+00	0	31	104	0	60	85204
2026-01-06 15:53:52.80	22.78	1.84	-49.7	-64.7	3.6	1.51e+00	0	31	104	0	60	83433
2026-01-06 15:53:53.81	22.76	1.91	-49.7	-64.6	3.6	1.51e+00	0	31	104	0	60	83083
2026-01-06 15:53:54.82	22.73	1.97	-49.7	-64.6	3.6	1.51e+00	0	31	104	0	60	82496
2026-01-06 15:53:55.83	22.70	2.03	-49.6	-64.5	3.6	1.51e+00	0	31	104	0	60	82178
2026-01-06 15:53:56.85	22.67	2.10	-49.7	-64.6	3.6	1.51e+00	0	31	104	0	60	82736
2026-01-06 15:53:57.86	22.64	2.16	-49.7	-64.8	3.6	1.51e+00	0	31	104	0	60	84741
2026-01-06 15:53:58.87	22.61	2.22	-49.7	-65.0	3.6	1.51e+00	0	31	104	0	60	86633
2026-01-06 15:53:59.88	22.58	2.29	-49.7	-65.0	3.6	1.51e+00	0	31	104	0	60	87028
2026-01-06 15:54:00.89	22.55	2.35	-49.7	-65.0	3.6	1.51e+00	0	31	104	0	60	87158
2026-01-06 15:54:01.90	22.52	2.41	-49.7	-64.9	3.6	1.51e+00	0	32	104	0	60	85796
2026-01-06 15:54:02.91	22.49	2.48	-49.7	-64.8	3.5	1.51e+00	0	31	104	0	60	84789
2026-01-06 15:54:03.92	22.46	2.54	-49.7	-64.7	3.6	1.51e+00	0	31	104	0	60	83444
2026-01-06 15:54:04.94	22.43	2.61	-49.7	-64.5	3.6	1.51e+00	0	31	104	0	60	81730
2026-01-06 15:54:05.94	22.40	2.67	-49.6	-64.3	3.6	1.51e+00	0	31	104	0	60	79953
2026-01-06 15:54:06.96	22.37	2.74	-49.6	-64.0	3.5	1.51e+00	0	32	104	0	60	77147
2026-01-06 15:54:07.97	22.34	2.80	-49.6	-63.7	3.6	1.51e+00	0	32	104	0	60	75063
2026-01-06 15:54:08.98	22.30	2.87	-49.6	-63.5	3.6	1.51e+00	0	32	104	0	60	73013
2026-01-06 15:54:09.94	22.27	2.93	-49.6	-63.6	3.6	1.51e+00	0	32	104	0	60	73517
2026-01-06 15:54:10.95	22.24	2.99	-49.6	-64.0	3.6	1.51e+00	0	32	104	0	60	76845
2026-01-06 15:54:11.96	22.21	3.06	-49.7	-64.7	3.6	1.51e+00	0	32	104	0	60	83290
2026-01-06 15:54:12.97	22.18	3.12	-49.7	-65.0	3.6	1.51e+00	0	32	104	0	60	86582
2026-01-06 15:54:13.98	22.15	3.19	-49.6	-64.1	3.6	1.51e+00	0	32	104	0	60	77990
2026-01-06 15:54:15.00	22.12	3.25	-49.5	-61.6	4.0	1.50e+00	0	32	104	0	60	58339
2026-01-06 15:54:16.01	22.08	3.32	-49.3	-57.8	5.1	7.21e-01	0	32	0	0	60	37821
2026-01-06 15:54:17.01	22.05	3.39	-49.0	-56.2	6.7	2.85e-01	92	32	102	1048576	60	31435
2026-01-06 15:54:18.03	22.02	3.45	-48.7	-54.8	8.4	9.83e-02	0	32	102	1048576	60	26774
2026-01-06 15:54:19.04	21.99	3.52	-48.4	-53.8	9.6	1.54e-02	0	32	102	1048576	60	23902
2026-01-06 15:54:20.05	21.95	3.58	-48.2	-53.4	10.0	8.78e-03	0	32	102	1048576	60	22866
2026-01-06 15:54:21.06	21.92	3.65	-48.2	-53.3	10.1	5.46e-03	0	32	102	1048576	60	22462
2026-01-06 15:54:22.07	21.89	3.72	-48.2	-53.4	9.6	6.28e-03	51	32	102	1048576	60	22816
2026-01-06 15:54:23.08	21.85	3.78	-49.7	-63.6	3.6	1.50e+00	0	32	104	1048576	60	74120
2026-01-06 15:54:24.09	21.82	3.85	-41.9	-43.2	19.0	6.84e-01	92	32	104	1048576	60	7014
2026-01-06 15:54:25.10	21.79	3.92	-49.5	-63.0	3.7	5.08e-01	0	32	104	1048576	60	68699
2026-01-06 15:54:26.11	21.75	3.99	-49.1	-56.3	10.7	4.36e-02	33	32	0	1048576	60	31881
2026-01-06 15:54:27.12	21.72	4.05	-47.5	-51.6	13.1	0.00e+00	0	32	0	1048576	60	18549
2026-01-06 15:54:28.13	21.68	4.12	-43.6	-45.3	18.7	0.00e+00	0	32	0	1048576	60	8980
2026-01-06 15:54:29.14	21.65	4.19	-42.6	-44.0	20.0	0.00e+00	47	32	0	1048576	60	7718
2026-01-06 15:54:30.15	21.61	4.26	-42.1	-43.4	20.3	0.00e+00	0	32	0	1048576	60	7242
2026-01-06 15:54:31.17	21.58	4.32	-42.5	-43.8	20.1	0.00e+00	50	32	0	1048576	60	7575
2026-01-06 15:54:32.18	21.54	4.39	-42.0	-43.3	20.5	0.00e+00	33	32	0	1048576	60	7118
2026-01-06 15:54:33.19	21.51	4.46	-42.0	-43.3	20.7	0.00e+00	0	32	0	1048576	60	7128
2026-01-06 15:54:34.20	21.47	4.53	-41.8	-43.1	20.8	0.00e+00	0	32	0	1048576	60	6947
2026-01-06 15:54:35.21	21.44	4.60	-41.8	-43.1	20.9	0.00e+00	0	32	0	1048576	60	6938
2026-01-06 15:54:36.22	21.40	4.67	-41.3	-42.5	21.4	0.00e+00	41	32	0	1048576	60	6467
2026-01-06 15:54:37.23	21.37	4.74	-41.3	-42.4	21.5	0.00e+00	0	32	0	1048576	60	6458
2026-01-06 15:54:38.24	21.33	4.81	-41.3	-42.5	21.3	0.00e+00	92	32	0	1048576	60	6510
2026-01-06 15:54:39.25	21.29	4.88	-41.3	-42.4	21.4	0.00e+00	0	32	0	1048576	60	6461
2026-01-06 15:54:40.26	21.26	4.94	-41.3	-42.5	21.3	0.00e+00	90	32	0	1048576	60	6479
2026-01-06 15:54:41.27	21.22	5.01	-41.4	-42.6	21.3	0.00e+00	0	32	0	1048576	60	6557
2026-01-06 15:54:42.28	21.18	5.08	-41.3	-42.5	21.4	0.00e+00	0	32	0	1048576	60	6490
2026-01-06 15:54:43.30	21.15	5.15	-41.4	-42.5	21.4	0.00e+00	9	32	0	1048576	60	6528
2026-01-06 15:54:44.31	21.11	5.23	-41.4	-42.6	21.3	0.00e+00	0	31	101	1048576	60	6580
2026-01-06 15:54:45.32	21.07	5.30	-41.4	-42.5	21.3	0.00e+00	47	32	101	1048576	60	6530
2026-01-06 15:54:46.33	21.03	5.37	-41.4	-42.5	21.4	0.00e+00	0	32	101	1048576	60	6532
2026-01-06 15:54:47.34	20.99	5.44	-41.4	-42.6	21.4	0.00e+00	56	32	101	1048576	60	6540
2026-01-06 15:54:48.35	20.96	5.51	-41.4	-42.6	21.4	0.00e+00	0	32	101	1048576	60	6580
2026-01-06 15:54:49.36	20.92	5.58	-41.5	-42.7	21.2	0.00e+00	0	32	101	1048576	60	6643
2026-01-06 15:54:50.37	20.88	5.65	-41.7	-42.9	21.1	0.00e+00	0	32	101	1048576	60	6811
2026-01-06 15:54:51.38	20.84	5.72	-42.0	-43.2	20.8	0.00e+00	0	32	101	1048576	60	7088
2026-01-06 15:54:52.39	20.80	5.79	-42.0	-43.3	20.9	0.00e+00	43	32	101	1048576	60	7091
2026-01-06 15:54:53.40	20.76	5.87	-41.3	-42.5	21.4	0.00e+00	0	32	101	1048576	60	6491
2026-01-06 15:54:54.41	20.72	5.94	-41.4	-42.6	21.4	0.00e+00	80	32	101	1048576	60	6576
2026-01-06 15:54:55.42	20.68	6.01	-41.5	-42.7	21.3	0.00e+00	0	32	101	1048576	60	6656
2026-01-06 15:54:56.44	20.64	6.08	-41.4	-42.5	21.5	0.00e+00	0	32	101	1048576	60	6538
2026-01-06 15:54:57.45	20.60	6.15	-41.4	-42.6	21.4	0.00e+00	0	32	101	1048576	60	6550
2026-01-06 15:54:58.46	20.56	6.23	-41.5	-42.7	21.4	0.00e+00	0	32	101	1048576	60	6631
2026-01-06 15:54:59.47	20.52	6.30	-41.4	-42.5	21.4	0.00e+00	43	32	101	1048576	60	6528
2026-01-06 15:55:00.48	20.48	6.37	-41.3	-42.4	21.6	0.00e+00	0	32	101	1048576	60	6461
2026-01-06 15:55:01.49	20.44	6.45	-41.3	-42.4	21.6	0.00e+00	92	32	101	1048576	60	6436
2026-01-06 15:55:02.50	20.40	6.52	-41.4	-42.6	21.4	0.00e+00	0	32	101	1048576	60	6548
2026-01-06 15:55:03.51	20.36	6.59	-41.2	-42.4	21.7	0.00e+00	0	32	101	1048576	60	6405
2026-01-06 15:55:04.52	20.32	6.67	-41.3	-42.5	21.3	0.00e+00	0	32	101	1048576	60	6504
2026-01-06 15:55:05.53	20.28	6.74	-41.2	-42.4	21.6	0.00e+00	0	32	101	1048576	60	6396
2026-01-06 15:55:06.55	20.23	6.82	-41.3	-42.5	21.5	0.00e+00	49	32	101	1048576	60	6472
2026-01-06 15:55:07.56	20.19	6.89	-41.4	-42.5	21.4	0.00e+00	0	32	101	1048576	60	6535
2026-01-06 15:55:08.57	20.15	6.97	-41.4	-42.6	21.2	0.00e+00	46	32	101	1048576	60	6565
2026-01-06 15:55:09.58	20.11	7.04	-41.5	-42.6	21.1	0.00e+00	0	32	101	1048576	60	6607
2026-01-06 15:55:10.59	20.06	7.12	-41.5	-42.7	21.1	0.00e+00	2	32	101	1048576	60	6651
2026-01-06 15:55:11.60	20.02	7.19	-41.3	-42.4	21.3	0.00e+00	0	32	101	1048576	60	6438
2026-01-06 15:55:12.61	19.98	7.27	-41.3	-42.4	21.4	0.00e+00	0	32	101	1048576	60	6463
2026-01-06 15:55:13.62	19.93	7.34	-41.1	-42.2	21.8	0.00e+00	48	32	101	1048576	60	6272
2026-01-06 15:55:14.63	19.89	7.42	-41.2	-42.4	21.6	0.00e+00	0	32	101	1048576	60	6414
2026-01-06 15:55:15.64	19.84	7.50	-41.1	-42.3	21.8	0.00e+00	45	32	101	1048576	60	6324
2026-01-06 15:55:16.64	19.80	7.57	-41.2	-42.3	21.7	0.00e+00	0	32	101	1048576	60	6350
2026-01-06 15:55:17.65	19.75	7.65	-41.1	-42.2	21.9	0.00e+00	92	32	101	1048576	60	6308
2026-01-06 15:55:18.65	19.71	7.72	-41.1	-42.3	21.8	0.00e+00	0	32	101	1048576	60	6322
2026-01-06 15:55:19.66	19.66	7.80	-40.9	-42.0	22.0	0.00e+00	0	32	101	1048576	60	6146
2026-01-06 15:55:20.66	19.62	7.88	-41.0	-42.1	22.0	0.00e+00	0	32	101	1048576	60	6219
2026-01-06 15:55:21.67	19.57	7.95	-41.0	-42.1	21.9	0.00e+00	0	32	101	1048576	60	6241
2026-01-06 15:55:22.67	19.53	8.03	-40.8	-41.8	22.1	0.00e+00	41	32	101	1048576	60	6033
2026-01-06 15:55:23.68	19.48	8.11	-41.0	-42.1	22.0	0.00e+00	0	32	101	1048576	60	6196
2026-01-06 15:55:24.69	19.43	8.19	-40.9	-42.0	22.2	0.00e+00	92	32	101	1048576	60	6146
2026-01-06 15:55:25.70	19.39	8.27	-40.9	-41.9	22.2	0.00e+00	0	32	101	1048576	60	6097
2026-01-06 15:55:26.71	19.34	8.34	-40.8	-41.8	22.3	0.00e+00	0	32	101	1048576	60	6018
2026-01-06 15:55:27.72	19.29	8.42	-40.9	-41.9	22.1	0.00e+00	0	32	101	1048576	60	6091
2026-01-06 15:55:28.73	19.25	8.50	-40.9	-41.9	22.2	0.00e+00	0	32	101	1048576	60	6101
2026-01-06 15:55:29.75	19.20	8.58	-40.7	-41.7	22.3	0.00e+00	48	32	101	1048576	60	5953
2026-01-06 15:55:30.76	19.15	8.66	-40.7	-41.8	22.3	0.00e+00	0	32	101	1048576	60	5993
2026-01-06 15:55:31.77	19.10	8.74	-41.0	-42.1	22.2	0.00e+00	92	32	101	1048576	60	6185
2026-01-06 15:55:32.78	19.05	8.82	-40.7	-41.7	22.5	0.00e+00	0	32	101	1048576	60	5924
2026-01-06 15:55:33.79	19.00	8.90	-40.7	-41.7	22.4	0.00e+00	0	32	101	1048576	60	5929
2026-01-06 15:55:34.80	18.95	8.98	-40.7	-41.7	22.4	0.00e+00	0	32	101	1048576	60	5925
2026-01-06 15:55:35.81	18.90	9.06	-40.4	-41.5	22.6	0.00e+00	0	32	101	1048576	60	5762
2026-01-06 15:55:36.82	18.85	9.14	-40.5	-41.5	22.5	0.00e+00	50	32	101	1048576	60	5817
2026-01-06 15:55:37.83	18.80	9.22	-40.7	-41.8	22.4	0.00e+00	0	32	101	1048576	60	5969
2026-01-06 15:55:38.85	18.75	9.31	-40.5	-41.5	22.7	0.00e+00	92	32	101	1048576	60	5803
2026-01-06 15:55:39.86	18.70	9.39	-40.4	-41.4	22.7	0.00e+00	0	32	101	1048576	60	5721
2026-01-06 15:55:40.87	18.65	9.47	-40.5	-41.5	22.5	0.00e+00	0	32	101	1048576	60	5791
2026-01-06 15:55:41.88	18.60	9.55	-40.4	-41.4	22.7	0.00e+00	0	32	101	1048576	60	5721
2026-01-06 15:55:42.89	18.55	9.63	-40.3	-41.3	22.8	0.00e+00	0	32	101	1048576	60	5668
2026-01-06 15:55:43.90	18.49	9.72	-40.4	-41.5	22.6	0.00e+00	54	32	101	1048576	60	5763
2026-01-06 15:55:44.91	18.44	9.80	-40.4	-41.4	22.7	0.00e+00	0	32	101	1048576	60	5699
2026-01-06 15:55:45.92	18.39	9.88	-40.3	-41.3	22.8	0.00e+00	92	32	101	1048576	60	5668
2026-01-06 15:55:46.93	18.33	9.96	-40.3	-41.3	22.9	0.00e+00	0	32	101	1048576	60	5671
2026-01-06 15:55:47.94	18.28	10.05	-40.3	-41.3	22.9	0.00e+00	0	32	101	1048576	60	5650
2026-01-06 15:55:48.96	18.23	10.13	-40.3	-41.3	22.8	0.00e+00	0	32	101	1048576	60	5668
2026-01-06 15:55:49.96	18.17	10.22	-40.4	-41.4	22.8	0.00e+00	0	32	101	1048576	60	5708
2026-01-06 15:55:50.97	18.12	10.30	-40.4	-41.4	22.6	0.00e+00	9	32	101	1048576	60	5759
2026-01-06 15:55:51.99	18.06	10.39	-40.4	-41.4	22.6	0.00e+00	0	32	101	1048576	60	5760
2026-01-06 15:55:53.00	18.01	10.47	-40.3	-41.3	22.9	0.00e+00	92	32	101	1048576	60	5683
2026-01-06 15:55:54.01	17.95	10.56	-40.2	-41.2	22.9	0.00e+00	0	32	101	1048576	60	5570
2026-01-06 15:55:55.02	17.90	10.64	-40.2	-41.2	22.9	0.00e+00	57	32	101	1048576	60	5613
2026-01-06 15:55:56.03	17.84	10.73	-40.2	-41.2	22.9	0.00e+00	0	32	101	1048576	58	6252
2026-01-06 15:55:57.04	17.78	10.81	-40.4	-41.4	22.7	0.00e+00	0	32	101	1048576	58	6442
2026-01-06 15:55:58.05	17.73	10.90	-40.5	-41.5	22.6	0.00e+00	0	32	101	1048576	58	6469
2026-01-06 15:55:59.06	17.67	10.98	-40.5	-41.5	22.6	0.00e+00	0	32	101	1048576	58	6535
2026-01-06 15:56:00.07	17.61	11.07	-40.8	-41.8	22.5	0.00e+00	90	32	101	1048576	58	6743
2026-01-06 15:56:01.08	17.55	11.16	-40.4	-41.4	22.7	0.00e+00	0	32	101	1048576	58	6443
2026-01-06 15:56:02.10	17.49	11.25	-40.8	-41.8	22.4	0.00e+00	90	32	101	1048576	58	6744
2026-01-06 15:56:03.11	17.44	11.33	-40.5	-41.5	22.6	0.00e+00	33	32	101	1048576	58	6515
2026-01-06 15:56:04.12	17.38	11.42	-40.4	-41.4	22.7	0.00e+00	0	32	101	1048576	58	6450
2026-01-06 15:56:05.13	17.32	11.51	-40.4	-41.4	22.7	0.00e+00	0	32	101	1048576	58	6443
2026-01-06 15:56:06.14	17.26	11.60	-40.1	-41.1	23.1	0.00e+00	0	32	101	1048576	58	6180
2026-01-06 15:56:07.15	17.20	11.69	-40.0	-40.9	23.0	0.00e+00	50	32	101	1048576	58	6079
2026-01-06 15:56:08.16	17.14	11.78	-40.1	-41.1	22.9	0.00e+00	0	32	101	1048576	58	6218
2026-01-06 15:56:09.17	17.07	11.87	-40.1	-41.0	23.0	0.00e+00	92	32	101	1048576	58	6165
2026-01-06 15:56:10.18	17.01	11.96	-40.2	-41.1	23.0	0.00e+00	0	32	101	1048576	58	6233
2026-01-06 15:56:11.19	16.95	12.05	-40.0	-41.0	23.1	0.00e+00	0	32	101	1048576	58	6123
2026-01-06 15:56:12.20	16.89	12.14	-40.1	-41.0	23.0	0.00e+00	0	32	101	1048576	58	6172
2026-01-06 15:56:13.21	16.83	12.23	-40.1	-41.1	23.0	0.00e+00	0	32	101	1048576	58	6213
2026-01-06 15:56:14.23	16.76	12.32	-39.9	-40.8	23.2	0.00e+00	16	32	101	1048576	58	5995
2026-01-06 15:56:15.24	16.70	12.41	-40.0	-40.9	23.1	0.00e+00	0	32	101	1048576	58	6072
2026-01-06 15:56:16.25	16.63	12.50	-39.9	-40.9	23.1	0.00e+00	92	32	101	1048576	58	6051
2026-01-06 15:56:17.26	16.57	12.59	-39.9	-40.8	23.2	0.00e+00	0	32	101	1048576	58	6023
2026-01-06 15:56:18.27	16.51	12.68	-40.1	-41.0	23.1	0.00e+00	0	32	101	1048576	58	6155
2026-01-06 15:56:19.28	16.44	12.78	-40.1	-41.0	23.1	0.00e+00	0	32	101	1048576	58	6172
2026-01-06 15:56:20.29	16.37	12.87	-40.0	-40.9	23.2	0.00e+00	0	32	101	1048576	58	6088
2026-01-06 15:56:21.30	16.31	12.96	-40.0	-40.9	23.1	0.00e+00	54	32	101	1048576	58	6076
2026-01-06 15:56:22.31	16.24	13.05	-40.0	-41.0	23.1	0.00e+00	0	32	101	1048576	58	6120
2026-01-06 15:56:23.32	16.18	13.15	-39.9	-40.8	23.2	0.00e+00	90	32	101	1048576	58	5993
2026-01-06 15:56:24.34	16.11	13.24	-40.0	-41.0	23.2	0.00e+00	0	32	101	1048576	58	6106
2026-01-06 15:56:25.35	16.04	13.34	-40.0	-40.9	23.1	0.00e+00	0	32	101	1048576	58	6091
2026-01-06 15:56:26.36	15.97	13.43	-40.1	-41.0	23.1	0.00e+00	0	32	101	1048576	58	6152
2026-01-06 15:56:27.37	15.90	13.53	-39.9	-40.9	23.2	0.00e+00	0	32	101	1048576	58	6044
2026-01-06 15:56:28.38	15.83	13.62	-40.0	-40.9	23.1	0.00e+00	53	32	101	1048576	58	6095
2026-01-06 15:56:29.39	15.76	13.72	-40.1	-41.1	23.1	0.00e+00	0	32	101	1048576	58	6190
2026-01-06 15:56:30.40	15.69	13.81	-39.9	-40.9	23.2	0.00e+00	91	32	101	1048576	58	6059
2026-01-06 15:56:31.41	15.62	13.91	-40.2	-41.2	23.0	0.00e+00	0	32	101	1048576	58	6298
2026-01-06 15:56:32.42	15.55	14.01	-40.3	-41.3	23.0	0.00e+00	86	32	101	1048576	58	6365
2026-01-06 15:56:33.43	15.48	14.10	-40.0	-41.0	23.1	0.00e+00	0	32	101	1048576	58	6144
2026-01-06 15:56:34.44	15.41	14.20	-40.0	-41.0	23.1	0.00e+00	0	32	101	1048576	58	6106
2026-01-06 15:56:35.45	15.33	14.30	-40.2	-41.2	23.0	0.00e+00	17	32	101	1048576	58	6252
2026-01-06 15:56:36.46	15.26	14.40	-40.1	-41.0	23.1	0.00e+00	0	32	101	1048576	58	6156
2026-01-06 15:56:37.48	15.19	14.49	-40.0	-41.0	23.1	0.00e+00	36	32	101	1048576	58	6127
2026-01-06 15:56:38.49	15.11	14.59	-40.2	-41.2	23.0	0.00e+00	0	32	101	1048576	58	6301
2026-01-06 15:56:39.50	15.04	14.69	-40.3	-41.3	22.9	0.00e+00	92	32	101	1048576	58	6372
2026-01-06 15:56:40.51	14.96	14.79	-40.0	-41.0	23.2	0.00e+00	0	32	101	1048576	58	6107
2026-01-06 15:56:41.52	14.89	14.89	-40.0	-41.0	23.3	0.00e+00	0	32	101	1048576	58	6111
2026-01-06 15:56:42.53	14.81	14.99	-39.9	-40.9	23.2	0.00e+00	0	32	101	1048576	58	6054
2026-01-06 15:56:43.54	14.73	15.09	-40.2	-41.1	23.1	0.00e+00	0	32	101	1048576	58	6235
2026-01-06 15:56:44.55	14.66	15.19	-40.1	-41.1	23.1	0.00e+00	90	32	101	1048576	58	6190
2026-01-06 15:56:45.56	14.58	15.29	-40.2	-41.2	23.0	0.00e+00	0	32	101	1048576	58	6308
2026-01-06 15:56:46.57	14.50	15.39	-40.1	-41.0	23.1	0.00e+00	90	32	101	1048576	58	6157
2026-01-06 15:56:47.58	14.42	15.50	-40.1	-41.1	23.2	0.00e+00	0	32	101	1048576	58	6179
2026-01-06 15:56:48.59	14.34	15.60	-40.2	-41.2	23.1	0.00e+00	0	32	101	1048576	58	6299
2026-01-06 15:56:49.61	14.26	15.70	-40.1	-41.0	23.1	0.00e+00	0	32	101	1048576	58	6168
2026-01-06 15:56:50.62	14.18	15.80	-40.0	-40.9	23.2	0.00e+00	0	32	101	1048576	58	6081
2026-01-06 15:56:51.63	14.10	15.91	-40.4	-41.4	22.9	0.00e+00	32	32	101	1048576	58	6402
2026-01-06 15:56:52.64	14.01	16.01	-40.3	-41.3	23.0	0.00e+00	0	32	101	1048576	58	6346
2026-01-06 15:56:53.65	13.93	16.12	-40.4	-41.4	22.9	0.00e+00	74	32	101	1048576	58	6429
2026-01-06 15:56:54.66	13.85	16.22	-40.4	-41.4	22.9	0.00e+00	0	32	101	1048576	58	6432
2026-01-06 15:56:55.67	13.77	16.32	-40.0	-41.0	23.2	0.00e+00	0	32	101	1048576	58	6125
2026-01-06 15:56:56.68	13.68	16.43	-40.4	-41.4	22.8	0.00e+00	0	32	101	1048576	58	6458
2026-01-06 15:56:57.69	13.60	16.54	-40.4	-41.3	23.0	0.00e+00	0	32	101	1048576	58	6390
2026-01-06 15:56:58.70	13.51	16.64	-40.5	-41.5	22.9	0.00e+00	50	32	101	1048576	58	6474
2026-01-06 15:56:59.71	13.42	16.75	-40.3	-41.3	23.0	0.00e+00	0	32	101	1048576	58	6347
2026-01-06 15:57:00.72	13.34	16.85	-40.3	-41.3	23.0	0.00e+00	92	32	101	1048576	58	6335
2026-01-06 15:57:01.73	13.25	16.96	-40.2	-41.2	23.1	0.00e+00	0	32	101	1048576	58	6269
2026-01-06 15:57:02.74	13.16	17.07	-40.3	-41.2	23.0	0.00e+00	0	32	101	1048576	58	6311
2026-01-06 15:57:03.75	13.07	17.18	-40.0	-41.0	23.2	0.00e+00	0	32	101	1048576	58	6119
2026-01-06 15:57:04.77	12.98	17.29	-40.2	-41.2	23.1	0.00e+00	0	32	101	1048576	58	6251
2026-01-06 15:57:05.78	12.89	17.40	-40.0	-41.0	23.3	0.00e+00	53	32	101	1048576	58	6130
2026-01-06 15:57:06.79	12.80	17.50	-40.2	-41.2	23.1	0.00e+00	0	32	101	1048576	58	6249
2026-01-06 15:57:07.80	12.71	17.61	-39.9	-40.8	23.3	0.00e+00	58	32	101	1048576	58	6003
2026-01-06 15:57:08.81	12.62	17.72	-40.0	-41.0	23.2	0.00e+00	0	32	101	1048576	58	6118
2026-01-06 15:57:09.82	12.52	17.83	-40.0	-40.9	23.1	0.00e+00	0	32	101	1048576	58	6098
2026-01-06 15:57:10.83	12.43	17.95	-40.1	-41.0	23.3	0.00e+00	0	32	101	1048576	58	6173
2026-01-06 15:57:11.84	12.34	18.06	-39.6	-40.5	23.6	0.00e+00	0	32	101	1048576	58	5778
2026-01-06 15:57:12.85	12.24	18.17	-40.0	-40.9	23.4	0.00e+00	11	32	101	1048576	58	6062
2026-01-06 15:57:13.86	12.14	18.28	-39.9	-40.8	23.4	0.00e+00	0	32	101	1048576	58	5997
2026-01-06 15:57:14.87	12.05	18.39	-39.9	-40.8	23.4	0.00e+00	52	32	101	1048576	58	6013
2026-01-06 15:57:15.88	11.95	18.51	-39.9	-40.9	23.3	0.00e+00	0	32	101	1048576	58	6054
2026-01-06 15:57:16.89	11.85	18.62	-40.1	-41.0	23.4	0.00e+00	0	32	101	1048576	58	6160
2026-01-06 15:57:17.90	11.75	18.73	-40.0	-40.9	23.2	0.00e+00	0	32	101	1048576	58	6083
2026-01-06 15:57:18.91	11.65	18.85	-39.8	-40.7	23.5	0.00e+00	0	32	101	1048576	58	5950
2026-01-06 15:57:19.92	11.55	18.96	-39.9	-40.8	23.3	0.00e+00	49	32	101	1048576	58	5996
2026-01-06 15:57:20.93	11.45	19.08	-40.0	-41.0	23.4	0.00e+00	0	32	101	1048576	58	6113
2026-01-06 15:57:21.94	11.35	19.19	-40.1	-41.0	23.2	0.00e+00	92	32	101	1048576	58	6153
2026-01-06 15:57:22.95	11.25	19.31	-40.1	-41.0	23.3	0.00e+00	0	32	101	1048576	58	6147
2026-01-06 15:57:23.97	11.14	19.43	-40.1	-41.0	23.4	0.00e+00	85	32	101	1048576	58	6141
2026-01-06 15:57:24.98	11.04	19.54	-40.1	-41.0	23.5	0.00e+00	0	32	101	1048576	58	6154
2026-01-06 15:57:25.99	10.93	19.66	-40.2	-41.1	23.2	0.00e+00	0	32	101	1048576	58	6215
2026-01-06 15:57:27.00	10.83	19.78	-40.2	-41.1	23.2	0.00e+00	9	32	101	1048576	58	6233
2026-01-06 15:57:28.01	10.72	19.90	-40.3	-41.3	23.0	0.00e+00	0	32	101	1048576	58	6364
2026-01-06 15:57:29.02	10.61	20.01	-40.5	-41.4	22.9	0.00e+00	20	32	101	1048576	58	6464
2026-01-06 15:57:30.03	10.50	20.13	-40.7	-41.7	22.7	0.00e+00	0	32	101	1048576	58	6638
2026-01-06 15:57:31.04	10.39	20.25	-40.8	-41.9	22.6	0.00e+00	90	32	101	1048576	58	6770
2026-01-06 15:57:32.05	10.28	20.37	-40.9	-41.9	22.6	0.00e+00	0	32	101	1048576	58	6787
2026-01-06 15:57:33.06	10.17	20.49	-40.8	-41.8	22.6	0.00e+00	0	32	101	1048576	58	6760
2026-01-06 15:57:34.07	10.06	20.62	-41.3	-42.4	22.3	0.00e+00	0	32	101	1048576	60	6408
2026-01-06 15:57:35.08	9.95	20.74	-41.1	-42.1	22.6	0.00e+00	0	32	101	1048576	60	6215
2026-01-06 15:57:36.09	9.83	20.86	-40.9	-41.9	22.7	0.00e+00	57	32	101	1048576	60	6060
2026-01-06 15:57:37.11	9.71	20.98	-40.8	-41.8	22.7	0.00e+00	0	32	101	1048576	60	5999
2026-01-06 15:57:38.12	9.60	21.11	-41.1	-42.1	22.5	0.00e+00	70	32	101	1048576	60	6243
2026-01-06 15:57:39.13	9.48	21.23	-40.8	-41.9	22.6	0.00e+00	0	32	101	1048576	60	6037
2026-01-06 15:57:40.14	9.36	21.35	-40.7	-41.7	22.5	0.00e+00	0	32	101	1048576	60	5946
2026-01-06 15:57:41.15	9.25	21.48	-40.5	-41.5	22.8	0.00e+00	0	32	101	1048576	60	5791
2026-01-06 15:57:42.16	9.13	21.60	-40.5	-41.5	23.0	0.00e+00	0	32	101	1048576	60	5808
2026-01-06 15:57:43.17	9.00	21.73	-40.4	-41.3	23.1	0.00e+00	45	32	101	1048576	60	5680
2026-01-06 15:57:44.18	8.88	21.85	-40.7	-41.7	22.8	0.00e+00	0	32	101	1048576	60	5905
2026-01-06 15:57:45.19	8.76	21.98	-40.8	-41.8	22.7	0.00e+00	84	32	101	1048576	60	5989
2026-01-06 15:57:46.20	8.64	22.11	-40.9	-41.9	22.8	0.00e+00	0	32	101	1048576	60	6086
2026-01-06 15:57:47.21	8.51	22.23	-41.0	-42.0	22.5	0.00e+00	0	32	101	1048576	60	6134
2026-01-06 15:57:48.22	8.38	22.36	-41.2	-42.3	22.5	0.00e+00	0	32	101	1048576	60	6330
2026-01-06 15:57:49.23	8.26	22.49	-41.2	-42.2	22.4	0.00e+00	0	32	101	1048576	60	6317
2026-01-06 15:57:50.25	8.13	22.62	-41.2	-42.2	22.4	0.00e+00	27	32	101	1048576	60	6299
2026-01-06 15:57:51.26	8.00	22.75	-41.1	-42.1	22.5	0.00e+00	0	32	101	1048576	60	6224
2026-01-06 15:57:52.27	7.87	22.88	-41.0	-42.0	22.5	0.00e+00	70	32	101	1048576	60	6135
2026-01-06 15:57:53.28	7.74	23.01	-41.2	-42.2	22.5	0.00e+00	0	32	101	1048576	60	6297
2026-01-06 15:57:54.29	7.60	23.14	-40.8	-41.8	22.8	0.00e+00	8	32	101	1048576	60	6020
2026-01-06 15:57:55.30	7.47	23.27	-40.9	-41.9	22.6	0.00e+00	0	32	101	1048576	60	6075
2026-01-06 15:57:56.31	7.33	23.40	-41.0	-42.0	22.6	0.00e+00	0	32	101	1048576	60	6157
2026-01-06 15:57:57.32	7.20	23.53	-40.9	-42.0	22.6	0.00e+00	57	32	101	1048576	60	6115
2026-01-06 15:57:58.33	7.06	23.66	-40.9	-41.9	22.7	0.00e+00	0	32	101	1048576	60	6056
2026-01-06 15:57:59.35	6.92	23.80	-41.0	-42.0	22.7	0.00e+00	55	32	101	1048576	60	6168
2026-01-06 15:58:00.35	6.78	23.93	-41.1	-42.1	22.7	0.00e+00	0	32	101	1048576	60	6243
2026-01-06 15:58:01.37	6.64	24.07	-41.1	-42.1	22.6	0.00e+00	26	32	101	1048576	60	6219
2026-01-06 15:58:02.38	6.50	24.20	-41.4	-42.5	22.3	0.00e+00	0	32	101	1048576	60	6470
2026-01-06 15:58:03.39	6.35	24.34	-41.4	-42.4	22.2	0.00e+00	0	32	101	1048576	60	6463
2026-01-06 15:58:04.40	6.21	24.47	-41.2	-42.3	22.4	0.00e+00	0	32	101	1048576	60	6336
2026-01-06 15:58:05.41	6.06	24.61	-41.6	-42.8	22.0	0.00e+00	0	32	101	1048576	60	6702
2026-01-06 15:58:06.42	5.92	24.74	-41.6	-42.6	22.0	0.00e+00	75	32	101	1048576	60	6610
2026-01-06 15:58:07.43	5.77	24.88	-41.6	-42.7	22.2	0.00e+00	0	32	101	1048576	60	6630
2026-01-06 15:58:08.44	5.62	25.02	-41.5	-42.6	22.2	0.00e+00	88	32	101	1048576	60	6557
2026-01-06 15:58:09.45	5.47	25.16	-41.5	-42.6	22.1	0.00e+00	0	32	101	1048576	60	6596
2026-01-06 15:58:10.46	5.31	25.30	-41.5	-42.6	22.1	0.00e+00	0	32	101	1048576	60	6605
2026-01-06 15:58:11.47	5.16	25.43	-41.3	-42.4	22.4	0.00e+00	0	32	101	1048576	60	6427
2026-01-06 15:58:12.48	5.00	25.57	-41.0	-42.0	22.6	0.00e+00	0	32	101	1048576	60	6171
2026-01-06 15:58:13.49	4.85	25.71	-41.1	-42.1	22.5	0.00e+00	60	32	101	1048576	60	6237
2026-01-06 15:58:14.50	4.69	25.86	-40.8	-41.8	22.9	0.00e+00	0	32	101	1048576	60	6023
2026-01-06 15:58:15.51	4.53	26.00	-40.6	-41.6	22.6	0.00e+00	85	32	101	1048576	60	5843
2026-01-06 15:58:16.52	4.37	26.14	-40.8	-41.7	22.9	0.00e+00	0	32	101	1048576	60	5960
2026-01-06 15:58:17.53	4.20	26.28	-40.8	-41.8	22.8	0.00e+00	0	32	101	1048576	60	5986
2026-01-06 15:58:18.55	4.04	26.42	-41.1	-42.1	22.6	0.00e+00	0	32	101	1048576	60	6202
2026-01-06 15:58:19.56	3.87	26.57	-41.2	-42.3	22.4	0.00e+00	0	32	101	1048576	60	6323
2026-01-06 15:58:20.56	3.71	26.71	-41.1	-42.1	22.5	0.00e+00	50	32	101	1048576	60	6227
2026-01-06 15:58:21.57	3.54	26.85	-41.0	-42.0	22.2	0.00e+00	0	32	101	1048576	60	6154
2026-01-06 15:58:22.58	3.37	27.00	-41.3	-42.3	22.4	0.00e+00	75	32	101	1048576	60	6347
2026-01-06 15:58:23.60	3.19	27.14	-41.2	-42.2	22.4	0.00e+00	0	32	101	1048576	60	6279
2026-01-06 15:58:24.61	3.02	27.29	-41.0	-42.0	22.7	0.00e+00	0	32	101	1048576	60	6109
2026-01-06 15:58:25.62	2.84	27.43	-40.9	-41.9	22.7	0.00e+00	0	32	101	1048576	60	6071
2026-01-06 15:58:26.63	2.67	27.58	-40.6	-41.6	23.0	0.00e+00	0	32	101	1048576	60	5830
2026-01-06 15:58:27.64	2.49	27.73	-40.5	-41.5	23.1	0.00e+00	12	32	101	1048576	60	5809
2026-01-06 15:58:28.64	2.31	27.87	-40.8	-41.8	23.0	0.00e+00	0	32	101	1048576	60	5986
2026-01-06 15:58:29.66	2.13	28.02	-40.7	-41.7	22.8	0.00e+00	76	32	101	1048576	60	5899
2026-01-06 15:58:30.67	1.94	28.17	-40.9	-42.0	22.7	0.00e+00	0	32	101	1048576	60	6113
2026-01-06 15:58:31.68	1.76	28.32	-41.0	-42.1	22.5	0.00e+00	0	32	101	1048576	60	6199
2026-01-06 15:58:32.69	1.57	28.47	-41.3	-42.4	22.3	0.00e+00	0	32	101	1048576	60	6429
2026-01-06 15:58:33.70	1.38	28.62	-41.6	-42.7	22.1	0.00e+00	0	32	101	1048576	60	6669
2026-01-06 15:58:34.71	1.19	28.77	-41.7	-42.8	22.1	0.00e+00	55	32	101	1048576	60	6741
2026-01-06 15:58:35.72	1.00	28.92	-41.6	-42.8	21.9	0.00e+00	0	32	101	1048576	60	6696
2026-01-06 15:58:36.73	0.80	29.07	-41.6	-42.7	22.0	0.00e+00	92	32	101	1048576	60	6685
2026-01-06 15:58:37.74	0.61	29.22	-41.3	-42.3	22.5	0.00e+00	0	32	101	1048576	60	6355
2026-01-06 15:58:38.75	0.41	29.37	-41.2	-42.3	22.3	0.00e+00	72	32	101	1048576	60	6325
2026-01-06 15:58:39.77	0.21	29.53	-41.2	-42.2	22.4	0.00e+00	0	32	101	1048576	60	6312
2026-01-06 15:58:40.78	0.01	29.68	-41.4	-42.4	22.2	0.00e+00	0	32	101	1048576	60	6427
2026-01-06 15:58:41.79	359.80	29.83	-41.2	-42.2	22.3	0.00e+00	57	32	101	1048576	60	6271
2026-01-06 15:58:42.80	359.60	29.99	-41.2	-42.2	22.3	0.00e+00	0	32	101	1048576	60	6312
2026-01-06 15:58:43.81	359.39	30.14	-41.3	-42.3	22.4	0.00e+00	55	32	101	1048576	60	6379
2026-01-06 15:58:44.82	359.18	30.30	-42.0	-43.1	21.7	0.00e+00	0	32	101	1048576	60	6951
2026-01-06 15:58:45.83	358.97	30.45	-42.0	-43.1	21.8	0.00e+00	91	32	101	1048576	60	6945
2026-01-06 15:58:46.84	358.75	30.61	-42.3	-43.5	21.4	0.00e+00	0	32	101	1048576	60	7292
2026-01-06 15:58:47.85	358.54	30.76	-42.5	-43.7	21.2	0.00e+00	0	32	101	1048576	60	7471
2026-01-06 15:58:48.86	358.32	30.92	-42.5	-43.7	21.1	0.00e+00	0	32	101	1048576	60	7469
2026-01-06 15:58:49.87	358.10	31.07	-42.5	-43.7	21.1	0.00e+00	0	32	101	1048576	60	7487
2026-01-06 15:58:50.88	357.87	31.23	-42.6	-43.8	21.2	0.00e+00	58	32	101	1048576	60	7553
2026-01-06 15:58:51.89	357.65	31.39	-42.6	-43.8	20.8	0.00e+00	0	32	101	1048576	60	7513
2026-01-06 15:58:52.90	357.42	31.54	-42.5	-43.7	21.2	0.00e+00	92	32	101	1048576	60	7493
2026-01-06 15:58:53.91	357.19	31.70	-42.3	-43.4	21.4	0.00e+00	0	32	101	1048576	60	7242
2026-01-06 15:58:54.92	356.96	31.86	-42.4	-43.6	21.3	0.00e+00	0	32	101	1048576	60	7414
2026-01-06 15:58:55.92	356.73	32.02	-42.1	-43.2	21.5	0.00e+00	0	32	101	1048576	60	7086
2026-01-06 15:58:56.93	356.49	32.17	-42.3	-43.5	21.5	0.00e+00	0	32	101	1048576	60	7300
2026-01-06 15:58:57.94	356.25	32.33	-41.8	-42.9	21.9	0.00e+00	55	32	101	1048576	60	6822
2026-01-06 15:58:58.95	356.01	32.49	-42.0	-43.1	21.7	0.00e+00	0	32	101	1048576	60	6963
2026-01-06 15:58:59.96	355.77	32.65	-42.1	-43.3	21.5	0.00e+00	92	32	101	1048576	60	7131
2026-01-06 15:59:00.97	355.52	32.81	-42.7	-43.9	21.2	0.00e+00	0	32	101	1048576	60	7667
2026-01-06 15:59:01.98	355.28	32.97	-42.9	-44.2	20.8	0.00e+00	0	32	101	1048576	60	7924
2026-01-06 15:59:02.99	355.03	33.13	-42.7	-44.0	21.2	0.00e+00	0	32	101	1048576	60	7703
2026-01-06 15:59:03.99	354.77	33.29	-42.6	-43.9	20.9	0.00e+00	0	32	101	1048576	60	7626
2026-01-06 15:59:05.00	354.52	33.45	-42.7	-44.0	21.1	0.00e+00	25	32	101	1048576	60	7687
2026-01-06 15:59:06.01	354.26	33.61	-42.2	-43.4	21.4	0.00e+00	0	32	101	1048576	60	7223
2026-01-06 15:59:07.01	354.00	33.77	-42.3	-43.4	21.6	0.00e+00	57	32	101	1048576	60	7228
2026-01-06 15:59:08.02	353.74	33.93	-41.9	-43.0	21.8	0.00e+00	0	32	101	1048576	60	6859
2026-01-06 15:59:09.03	353.47	34.09	-41.8	-42.9	21.9	0.00e+00	60	32	101	1048576	60	6798
2026-01-06 15:59:10.04	353.20	34.25	-42.7	-43.9	21.0	0.00e+00	0	32	101	1048576	60	7625
2026-01-06 15:59:11.05	352.93	34.41	-43.3	-44.7	20.4	0.00e+00	0	32	101	1048576	60	8384
2026-01-06 15:59:12.06	352.66	34.57	-44.1	-45.6	19.5	0.00e+00	20	32	101	1048576	60	9310
2026-01-06 15:59:13.08	352.38	34.74	-44.0	-45.6	19.5	0.00e+00	0	32	101	1048576	60	9274
2026-01-06 15:59:14.08	352.10	34.90	-44.1	-45.8	19.3	0.00e+00	90	32	101	1048576	60	9453
2026-01-06 15:59:15.10	351.82	35.06	-44.3	-46.0	19.2	0.00e+00	0	32	101	1048576	60	9715
2026-01-06 15:59:16.11	351.53	35.22	-44.4	-46.1	19.0	0.00e+00	11	32	101	1048576	60	9837
2026-01-06 15:59:17.11	351.24	35.38	-44.0	-45.5	19.7	0.00e+00	0	32	101	1048576	60	9199
2026-01-06 15:59:18.12	350.95	35.54	-43.0	-44.3	20.7	0.00e+00	0	32	101	1048576	60	8035
2026-01-06 15:59:19.13	350.66	35.70	-42.5	-43.7	21.3	0.00e+00	33	32	101	1048576	60	7445
2026-01-06 15:59:20.14	350.36	35.87	-41.9	-43.1	21.7	0.00e+00	0	32	101	1048576	60	6946
2026-01-06 15:59:21.15	350.06	36.03	-41.7	-42.7	22.2	0.00e+00	90	32	101	1048576	60	6674
2026-01-06 15:59:22.17	349.76	36.19	-41.8	-43.0	21.9	0.00e+00	0	32	101	1048576	60	6886
2026-01-06 15:59:23.18	349.45	36.35	-41.1	-42.1	22.5	0.00e+00	90	32	101	1048576	60	6208
2026-01-06 15:59:24.19	349.14	36.51	-41.5	-42.6	22.2	0.00e+00	0	32	101	1048576	60	6583
2026-01-06 15:59:25.20	348.83	36.67	-41.2	-42.2	22.2	0.00e+00	0	32	101	1048576	60	6307
2026-01-06 15:59:26.21	348.51	36.83	-41.2	-42.3	22.5	0.00e+00	0	32	101	1048576	60	6322
2026-01-06 15:59:27.22	348.19	36.99	-41.1	-42.2	22.5	0.00e+00	0	32	101	1048576	60	6255
2026-01-06 15:59:28.23	347.87	37.15	-41.0	-41.9	22.6	0.00e+00	56	32	101	1048576	60	6102
2026-01-06 15:59:29.24	347.55	37.31	-41.4	-42.5	22.2	0.00e+00	0	32	101	1048576	60	6496
2026-01-06 15:59:30.25	347.22	37.47	-42.4	-43.6	21.3	0.00e+00	92	32	101	1048576	60	7406
2026-01-06 15:59:31.26	346.89	37.63	-42.7	-44.0	21.1	0.00e+00	0	32	101	1048576	60	7739
2026-01-06 15:59:32.27	346.55	37.79	-42.9	-44.3	20.7	0.00e+00	0	32	101	1048576	60	7990
2026-01-06 15:59:33.29	346.21	37.95	-43.1	-44.6	20.5	0.00e+00	0	32	101	1048576	60	8255
2026-01-06 15:59:34.30	345.87	38.11	-43.5	-45.0	20.2	0.00e+00	0	32	101	1048576	60	8643
2026-01-06 15:59:35.31	345.52	38.27	-43.4	-44.9	20.2	0.00e+00	59	32	101	1048576	60	8584
2026-01-06 15:59:36.32	345.17	38.43	-42.9	-44.3	20.7	0.00e+00	0	32	101	1048576	60	7979
2026-01-06 15:59:37.33	344.82	38.58	-42.8	-44.1	20.9	0.00e+00	85	32	101	1048576	60	7833
2026-01-06 15:59:38.34	344.47	38.74	-41.9	-43.1	22.0	0.00e+00	0	32	101	1048576	60	6936
2026-01-06 15:59:39.35	344.11	38.89	-41.0	-42.0	22.7	0.00e+00	0	32	101	1048576	60	6136
2026-01-06 15:59:40.36	343.75	39.05	-40.9	-41.8	22.9	0.00e+00	0	32	101	1048576	60	6028
2026-01-06 15:59:41.37	343.38	39.20	-41.3	-42.3	22.3	0.00e+00	0	32	101	1048576	60	6386
2026-01-06 15:59:42.39	343.01	39.36	-42.4	-43.6	21.3	0.00e+00	23	32	101	1048576	60	7377
2026-01-06 15:59:43.40	342.64	39.51	-43.5	-45.0	19.9	0.00e+00	0	32	101	1048576	60	8675
2026-01-06 15:59:44.41	342.26	39.66	-43.7	-45.3	19.9	0.00e+00	92	32	101	1048576	60	8955
2026-01-06 15:59:45.42	341.88	39.82	-42.9	-44.2	20.7	0.00e+00	0	32	101	1048576	60	7909
2026-01-06 15:59:46.43	341.50	39.97	-41.8	-42.9	22.0	0.00e+00	0	32	101	1048576	60	6820
2026-01-06 15:59:47.44	341.11	40.12	-41.3	-42.4	22.4	0.00e+00	0	32	101	1048576	60	6404
2026-01-06 15:59:48.45	340.72	40.27	-41.0	-42.0	22.7	0.00e+00	0	32	101	1048576	60	6162
2026-01-06 15:59:49.46	340.33	40.41	-40.9	-41.9	22.8	0.00e+00	54	32	101	1048576	60	6080
2026-01-06 15:59:50.47	339.93	40.56	-41.2	-42.3	22.4	0.00e+00	0	32	101	1048576	60	6323
2026-01-06 15:59:51.48	339.53	40.71	-41.4	-42.4	22.1	0.00e+00	51	32	101	1048576	60	6437
2026-01-06 15:59:52.49	339.12	40.85	-41.6	-42.7	22.2	0.00e+00	0	32	101	1048576	60	6645
2026-01-06 15:59:53.50	338.71	41.00	-41.4	-42.6	22.2	0.00e+00	0	32	101	1048576	60	6561
2026-01-06 15:59:54.51	338.30	41.14	-41.2	-42.2	22.7	0.00e+00	0	32	101	1048576	60	6311
2026-01-06 15:59:55.52	337.88	41.28	-40.5	-41.5	23.1	0.00e+00	0	32	101	1048576	60	5812
2026-01-06 15:59:56.53	337.46	41.42	-40.7	-41.7	23.0	0.00e+00	15	32	101	1048576	60	5898
2026-01-06 15:59:57.54	337.04	41.56	-40.9	-42.0	22.7	0.00e+00	0	32	101	1048576	60	6127
2026-01-06 15:59:58.55	336.61	41.70	-41.2	-42.3	22.4	0.00e+00	54	32	101	1048576	60	6389
2026-01-06 15:59:59.56	336.18	41.84	-40.7	-41.7	23.0	0.00e+00	0	32	101	1048576	60	5922
2026-01-06 16:00:00.58	335.74	41.97	-40.5	-41.5	23.0	0.00e+00	72	32	101	1048576	60	5784
2026-01-06 16:00:01.59	335.30	42.11	-40.4	-41.4	23.2	0.00e+00	0	32	101	1048576	60	5732
2026-01-06 16:00:02.60	334.86	42.24	-40.3	-41.2	23.3	0.00e+00	0	32	101	1048576	58	6315
2026-01-06 16:00:03.61	334.42	42.37	-40.4	-41.3	23.2	0.00e+00	0	32	101	1048576	58	6366
2026-01-06 16:00:04.62	333.97	42.50	-40.6	-41.6	23.0	0.00e+00	0	32	101	1048576	58	6559
2026-01-06 16:00:05.63	333.51	42.63	-40.8	-41.8	22.7	0.00e+00	51	32	101	1048576	58	6756
2026-01-06 16:00:06.64	333.06	42.76	-41.5	-42.6	22.2	0.00e+00	0	32	101	1048576	60	6565
2026-01-06 16:00:07.65	332.60	42.88	-40.8	-41.8	22.9	0.00e+00	83	32	101	1048576	60	5981
2026-01-06 16:00:08.66	332.13	43.01	-40.4	-41.4	23.2	0.00e+00	0	32	101	1048576	60	5720
2026-01-06 16:00:09.67	331.67	43.13	-39.5	-40.4	23.8	0.00e+00	0	32	101	1048576	58	5745
2026-01-06 16:00:10.68	331.20	43.25	-39.1	-39.9	24.1	0.00e+00	0	32	101	1048576	56	6095
2026-01-06 16:00:11.70	330.72	43.37	-39.2	-40.0	24.0	0.00e+00	0	32	101	1048576	56	6152
2026-01-06 16:00:12.71	330.24	43.48	-39.3	-40.2	23.9	0.00e+00	54	32	101	1048576	56	6302
2026-01-06 16:00:13.72	329.76	43.60	-38.6	-39.4	24.5	0.00e+00	0	32	101	1048576	56	5743
2026-01-06 16:00:14.73	329.27	43.71	-38.7	-39.5	24.5	0.00e+00	74	32	101	1048576	56	5811
2026-01-06 16:00:15.74	328.78	43.82	-39.6	-40.5	23.7	0.00e+00	0	32	101	1048576	56	6522
2026-01-06 16:00:16.75	328.29	43.93	-40.4	-41.4	23.0	0.00e+00	0	32	101	1048576	58	6454
2026-01-06 16:00:17.76	327.80	44.03	-41.4	-42.5	22.3	0.00e+00	0	32	101	1048576	60	6526
2026-01-06 16:00:18.77	327.30	44.14	-41.3	-42.4	22.3	0.00e+00	0	32	101	1048576	60	6422
2026-01-06 16:00:19.78	326.80	44.24	-41.5	-42.7	21.9	0.00e+00	59	32	101	1048576	60	6626
2026-01-06 16:00:20.79	326.29	44.34	-41.8	-42.9	21.9	0.00e+00	0	32	101	1048576	60	6844
2026-01-06 16:00:21.80	325.78	44.44	-43.0	-44.4	20.6	0.00e+00	62	32	101	1048576	60	8080
2026-01-06 16:00:22.81	325.27	44.53	-43.3	-44.8	20.1	0.00e+00	0	32	101	1048576	60	8482
2026-01-06 16:00:23.82	324.76	44.62	-43.6	-45.2	19.7	0.00e+00	0	32	101	1048576	60	8906
2026-01-06 16:00:24.83	324.24	44.71	-43.7	-45.3	19.9	0.00e+00	0	32	101	1048576	60	9027
2026-01-06 16:00:25.84	323.72	44.80	-42.2	-43.4	21.4	0.00e+00	0	32	101	1048576	60	7226
2026-01-06 16:00:26.85	323.20	44.89	-40.5	-41.4	23.1	0.00e+00	20	32	101	1048576	60	5748
2026-01-06 16:00:27.86	322.67	44.97	-39.5	-40.3	23.9	0.00e+00	0	32	101	1048576	58	5681
2026-01-06 16:00:28.87	322.14	45.05	-39.5	-40.3	23.6	0.00e+00	59	32	101	1048576	58	5663
2026-01-06 16:00:29.88	321.61	45.13	-40.1	-41.0	23.4	0.00e+00	0	32	101	1048576	58	6156
2026-01-06 16:00:30.89	321.08	45.20	-41.3	-42.4	22.2	0.00e+00	0	32	101	1048576	60	6407
2026-01-06 16:00:31.90	320.54	45.28	-41.9	-43.0	21.9	0.00e+00	0	32	101	1048576	60	6892
2026-01-06 16:00:32.91	320.00	45.35	-41.1	-42.1	22.6	0.00e+00	0	32	101	1048576	60	6215
2026-01-06 16:00:33.92	319.46	45.41	-40.9	-41.9	22.7	0.00e+00	61	32	101	1048576	60	6084
2026-01-06 16:00:34.93	318.92	45.48	-41.5	-42.6	22.1	0.00e+00	0	32	101	1048576	60	6582
2026-01-06 16:00:35.94	318.37	45.54	-43.0	-44.4	20.6	0.00e+00	76	32	101	1048576	60	8113
2026-01-06 16:00:36.95	317.83	45.60	-43.9	-45.6	19.4	0.00e+00	0	32	101	1048576	60	9287
2026-01-06 16:00:37.96	317.28	45.66	-43.9	-45.5	19.9	0.00e+00	12	32	101	1048576	60	9230
2026-01-06 16:00:38.97	316.73	45.71	-43.0	-44.3	20.6	0.00e+00	0	32	101	1048576	60	8045
2026-01-06 16:00:39.99	316.17	45.76	-42.2	-43.4	21.6	0.00e+00	0	32	101	1048576	60	7224
2026-01-06 16:00:40.99	315.62	45.81	-41.5	-42.7	22.1	0.00e+00	0	32	101	1048576	60	6620
2026-01-06 16:00:42.01	315.05	45.85	-41.4	-42.5	22.4	0.00e+00	0	32	101	1048576	60	6511
2026-01-06 16:00:43.02	314.50	45.89	-41.5	-42.6	22.1	0.00e+00	69	32	101	1048576	60	6563
2026-01-06 16:00:44.03	313.94	45.93	-41.4	-42.4	22.3	0.00e+00	0	32	101	1048576	60	6439
2026-01-06 16:00:45.04	313.38	45.97	-41.8	-43.0	21.8	0.00e+00	68	32	101	1048576	60	6853
2026-01-06 16:00:46.05	312.81	46.00	-42.5	-43.8	21.0	0.00e+00	0	32	101	1048576	60	7572
2026-01-06 16:00:47.06	312.25	46.03	-43.4	-44.9	20.4	0.00e+00	0	32	101	1048576	60	8559
2026-01-06 16:00:48.07	311.69	46.06	-43.4	-45.0	20.2	0.00e+00	0	32	101	1048576	60	8630
2026-01-06 16:00:49.08	311.12	46.08	-42.7	-44.1	20.9	0.00e+00	0	32	101	1048576	60	7840
2026-01-06 16:00:50.09	310.55	46.10	-42.0	-43.3	21.6	0.00e+00	80	32	101	1048576	60	7116
2026-01-06 16:00:51.10	309.99	46.12	-41.9	-43.1	21.7	0.00e+00	0	32	101	1048576	60	6938
2026-01-06 16:00:52.11	309.42	46.13	-41.1	-42.1	22.6	0.00e+00	92	32	101	1048576	60	6224
2026-01-06 16:00:53.12	308.85	46.14	-41.6	-42.8	21.9	0.00e+00	0	32	101	1048576	60	6733
2026-01-06 16:00:54.13	308.28	46.15	-42.4	-43.7	21.2	0.00e+00	0	32	101	1048576	60	7501
2026-01-06 16:00:55.14	307.72	46.15	-42.1	-43.4	21.6	0.00e+00	0	32	101	1048576	60	7177
2026-01-06 16:00:56.15	307.15	46.16	-41.7	-42.8	22.0	0.00e+00	0	32	101	1048576	60	6761
2026-01-06 16:00:57.17	306.57	46.15	-41.3	-42.4	22.3	0.00e+00	62	32	101	1048576	60	6410
2026-01-06 16:00:58.18	306.00	46.15	-41.8	-43.1	22.0	0.00e+00	0	32	101	1048576	60	6931
2026-01-06 16:00:59.19	305.44	46.14	-41.5	-42.6	22.2	0.00e+00	77	32	101	1048576	60	6587
2026-01-06 16:01:00.20	304.87	46.13	-40.9	-41.9	22.8	0.00e+00	0	32	101	1048576	60	6059
2026-01-06 16:01:01.21	304.30	46.12	-40.4	-41.3	23.0	0.00e+00	0	32	101	1048576	60	5694
2026-01-06 16:01:02.22	303.73	46.10	-41.2	-42.3	22.4	0.00e+00	0	32	101	1048576	60	6376
2026-01-06 16:01:03.23	303.17	46.08	-41.4	-42.5	22.0	0.00e+00	0	32	101	1048576	60	6512
2026-01-06 16:01:04.24	302.60	46.06	-42.0	-43.1	21.7	0.00e+00	30	32	101	1048576	60	6994
2026-01-06 16:01:05.25	302.04	46.03	-42.7	-44.0	21.0	0.00e+00	0	32	101	1048576	60	7702
2026-01-06 16:01:06.27	301.47	46.00	-42.0	-43.1	21.9	0.00e+00	92	32	101	1048576	60	6987
2026-01-06 16:01:07.28	300.90	45.97	-41.6	-42.7	21.9	0.00e+00	0	32	101	1048576	60	6634
2026-01-06 16:01:08.29	300.34	45.93	-41.6	-42.7	22.1	0.00e+00	0	32	101	1048576	60	6684
2026-01-06 16:01:09.30	299.78	45.90	-41.9	-43.0	21.9	0.00e+00	0	32	101	1048576	60	6896
2026-01-06 16:01:10.31	299.22	45.85	-41.2	-42.3	22.4	0.00e+00	0	32	101	1048576	60	6357
2026-01-06 16:01:11.32	298.67	45.81	-41.0	-42.0	22.7	0.00e+00	60	32	101	1048576	60	6149
2026-01-06 16:01:12.33	298.11	45.76	-41.1	-42.2	22.6	0.00e+00	0	32	101	1048576	60	6297
2026-01-06 16:01:13.34	297.56	45.71	-41.9	-43.2	21.8	0.00e+00	82	32	101	1048576	60	7023
2026-01-06 16:01:14.35	297.01	45.66	-41.4	-42.5	22.4	0.00e+00	0	32	101	1048576	60	6539
2026-01-06 16:01:15.36	296.46	45.60	-41.7	-42.9	22.1	0.00e+00	0	32	101	1048576	60	6823
2026-01-06 16:01:16.37	295.91	45.54	-41.5	-42.6	22.0	0.00e+00	0	32	101	1048576	60	6571
2026-01-06 16:01:17.38	295.36	45.48	-41.4	-42.5	22.3	0.00e+00	0	32	101	1048576	60	6497
2026-01-06 16:01:18.40	294.81	45.42	-40.3	-41.3	23.3	0.00e+00	0	32	101	1048576	60	5640
2026-01-06 16:01:19.41	294.27	45.35	-40.7	-41.6	22.7	0.00e+00	0	32	101	1048576	60	5884
2026-01-06 16:01:20.42	293.73	45.28	-42.0	-43.2	21.7	0.00e+00	91	32	101	1048576	60	7022
2026-01-06 16:01:21.43	293.19	45.21	-41.8	-42.8	21.9	0.00e+00	0	32	101	1048576	60	6769
2026-01-06 16:01:22.44	292.66	45.13	-40.5	-41.5	22.7	0.00e+00	0	32	101	1048576	60	5770
2026-01-06 16:01:23.45	292.13	45.06	-40.2	-41.1	23.4	0.00e+00	0	32	101	1048576	60	5565
2026-01-06 16:01:24.46	291.60	44.98	-40.2	-41.1	23.4	0.00e+00	0	32	101	1048576	58	6214
2026-01-06 16:01:25.47	291.07	44.89	-40.9	-41.9	22.8	0.00e+00	0	32	101	1048576	60	6044
2026-01-06 16:01:26.48	290.55	44.81	-41.1	-42.1	22.5	0.00e+00	0	32	101	1048576	60	6240
2026-01-06 16:01:27.49	290.03	44.72	-41.6	-42.7	22.3	0.00e+00	90	32	101	1048576	60	6649
2026-01-06 16:01:28.50	289.51	44.63	-41.5	-42.6	22.1	0.00e+00	0	32	101	1048576	60	6597
2026-01-06 16:01:29.52	288.99	44.54	-41.9	-43.1	21.8	0.00e+00	90	32	101	1048576	60	6939
2026-01-06 16:01:30.53	288.48	44.44	-41.9	-43.1	21.6	0.00e+00	0	32	101	1048576	60	6936
2026-01-06 16:01:31.54	287.97	44.34	-41.7	-42.9	22.0	0.00e+00	0	32	101	1048576	60	6793
2026-01-06 16:01:32.55	287.46	44.24	-41.0	-42.1	22.6	0.00e+00	0	32	101	1048576	60	6190
2026-01-06 16:01:33.56	286.96	44.14	-40.9	-42.0	22.7	0.00e+00	0	33	101	1048576	60	6112
2026-01-06 16:01:34.57	286.46	44.04	-41.5	-42.7	22.1	0.00e+00	54	32	101	1048576	60	6668
2026-01-06 16:01:35.58	285.97	43.93	-41.4	-42.5	22.7	0.00e+00	0	32	101	1048576	60	6481
2026-01-06 16:01:36.59	285.47	43.82	-40.5	-41.4	23.0	0.00e+00	92	32	101	1048576	60	5734
2026-01-06 16:01:37.60	284.98	43.71	-39.8	-40.7	23.7	0.00e+00	0	32	101	1048576	58	5932
2026-01-06 16:01:38.61	284.50	43.60	-39.6	-40.5	23.9	0.00e+00	0	32	101	1048576	58	5765
2026-01-06 16:01:39.63	284.01	43.48	-40.0	-40.9	23.5	0.00e+00	0	32	101	1048576	58	6094
2026-01-06 16:01:40.64	283.53	43.37	-40.5	-41.5	23.0	0.00e+00	0	32	101	1048576	58	6528
2026-01-06 16:01:41.65	283.06	43.25	-41.2	-42.3	22.4	0.00e+00	66	32	101	1048576	60	6353
2026-01-06 16:01:42.66	282.59	43.13	-41.3	-42.5	22.4	0.00e+00	0	32	101	1048576	60	6473
2026-01-06 16:01:43.67	282.12	43.01	-40.4	-41.3	23.3	0.00e+00	92	32	101	1048576	60	5675
2026-01-06 16:01:44.68	281.65	42.89	-39.1	-40.0	24.3	0.00e+00	0	32	101	1048576	58	5447
2026-01-06 16:01:45.69	281.19	42.76	-39.1	-40.0	24.3	0.00e+00	0	32	101	1048576	56	6131
2026-01-06 16:01:46.70	280.73	42.63	-40.0	-40.9	23.7	0.00e+00	0	32	101	1048576	56	6819
2026-01-06 16:01:47.71	280.28	42.51	-40.1	-41.0	23.3	0.00e+00	0	32	101	1048576	58	6155
2026-01-06 16:01:48.72	279.83	42.38	-39.1	-40.0	24.3	0.00e+00	17	32	101	1048576	56	6148
2026-01-06 16:01:49.73	279.38	42.24	-38.6	-39.5	23.9	0.00e+00	0	32	101	1048576	56	5764
2026-01-06 16:01:50.74	278.94	42.11	-38.6	-39.4	24.6	0.00e+00	90	32	101	1048576	56	5734
2026-01-06 16:01:51.75	278.50	41.98	-38.6	-39.4	24.3	0.00e+00	0	32	101	1048576	56	5749
2026-01-06 16:01:52.77	278.06	41.84	-37.8	-38.6	25.2	0.00e+00	0	32	101	1048576	54	5866
2026-01-06 16:01:53.78	277.63	41.70	-37.2	-37.9	25.6	0.00e+00	0	32	101	1048576	54	5412
2026-01-06 16:01:54.79	277.20	41.56	-37.0	-37.8	25.7	0.00e+00	0	32	101	1048576	52	5975
2026-01-06 16:01:55.80	276.78	41.42	-36.9	-37.6	25.7	0.00e+00	58	32	101	1048576	52	5865
2026-01-06 16:01:56.81	276.36	41.28	-37.0	-37.8	25.5	0.00e+00	0	32	101	1048576	52	5968
2026-01-06 16:01:57.82	275.94	41.14	-37.5	-38.3	25.2	0.00e+00	82	32	101	1048576	52	6333
2026-01-06 16:01:58.83	275.52	41.00	-37.9	-38.7	24.9	0.00e+00	0	32	101	1048576	52	6679
2026-01-06 16:01:59.84	275.12	40.85	-37.9	-38.7	25.0	0.00e+00	0	32	101	1048576	54	5961
2026-01-06 16:02:00.85	274.71	40.71	-37.8	-38.6	25.2	0.00e+00	0	32	101	1048576	54	5848
2026-01-06 16:02:01.87	274.30	40.56	-37.6	-38.3	25.3	0.00e+00	0	32	101	1048576	54	5680
2026-01-06 16:02:02.88	273.90	40.41	-38.0	-38.8	25.0	0.00e+00	41	32	101	1048576	54	5968
2026-01-06 16:02:03.89	273.51	40.26	-38.3	-39.1	24.7	0.00e+00	0	32	101	1048576	54	6220
2026-01-06 16:02:04.90	273.12	40.11	-38.2	-39.0	24.8	0.00e+00	80	32	101	1048576	54	6159
2026-01-06 16:02:05.91	272.73	39.96	-38.5	-39.4	24.6	0.00e+00	0	32	101	1048576	54	6402
2026-01-06 16:02:06.92	272.35	39.81	-39.6	-40.5	23.9	0.00e+00	0	32	101	1048576	56	6491
2026-01-06 16:02:07.93	271.96	39.66	-40.2	-41.2	23.3	0.00e+00	0	32	101	1048576	58	6300
2026-01-06 16:02:08.94	271.59	39.51	-40.1	-41.1	23.5	0.00e+00	0	32	101	1048576	58	6175
2026-01-06 16:02:09.95	271.21	39.35	-39.6	-40.5	23.8	0.00e+00	9	32	101	1048576	58	5787
2026-01-06 16:02:10.96	270.84	39.20	-39.6	-40.5	23.8	0.00e+00	0	32	101	1048576	58	5775
2026-01-06 16:02:11.97	270.48	39.04	-40.0	-40.9	23.5	0.00e+00	92	32	101	1048576	58	6071
2026-01-06 16:02:12.98	270.11	38.89	-39.9	-40.9	23.5	0.00e+00	0	32	101	1048576	58	6039
2026-01-06 16:02:13.99	269.75	38.73	-39.8	-40.7	23.7	0.00e+00	91	32	101	1048576	58	5914
2026-01-06 16:02:15.01	269.40	38.58	-39.7	-40.6	23.8	0.00e+00	0	32	101	1048576	58	5854
2026-01-06 16:02:16.01	269.05	38.42	-40.1	-41.1	23.2	0.00e+00	0	32	101	1048576	58	6195
2026-01-06 16:02:17.03	268.69	38.26	-40.9	-42.0	22.6	0.00e+00	33	32	101	1048576	58	6914
2026-01-06 16:02:18.04	268.35	38.10	-40.6	-41.6	23.0	0.00e+00	0	32	101	1048576	58	6601
2026-01-06 16:02:19.05	268.01	37.94	-39.9	-40.8	23.7	0.00e+00	92	32	101	1048576	58	6026
2026-01-06 16:02:20.06	267.67	37.79	-39.6	-40.5	23.9	0.00e+00	0	32	101	1048576	58	5762
2026-01-06 16:02:21.07	267.33	37.63	-40.2	-41.2	23.3	0.00e+00	92	32	101	1048576	58	6254
2026-01-06 16:02:22.08	267.00	37.47	-40.0	-40.9	23.5	0.00e+00	0	32	101	1048576	58	6058
2026-01-06 16:02:23.09	266.67	37.31	-39.5	-40.4	23.9	0.00e+00	0	32	101	1048576	58	5715
2026-01-06 16:02:24.10	266.34	37.15	-39.1	-40.0	24.4	0.00e+00	0	32	101	1048576	56	6107
2026-01-06 16:02:25.10	266.02	36.99	-39.4	-40.3	23.8	0.00e+00	0	32	101	1048576	56	6341
2026-01-06 16:02:26.11	265.70	36.83	-39.5	-40.4	23.7	0.00e+00	54	32	101	1048576	56	6392
2026-01-06 16:02:27.12	265.39	36.66	-40.0	-40.9	23.5	0.00e+00	0	32	101	1048576	56	6823
2026-01-06 16:02:28.12	265.08	36.51	-40.1	-41.0	23.6	0.00e+00	70	32	101	1048576	56	6864
2026-01-06 16:02:29.13	264.77	36.34	-40.5	-41.4	23.2	0.00e+00	0	32	101	1048576	58	6460
2026-01-06 16:02:30.14	264.46	36.18	-41.4	-42.4	22.3	0.00e+00	0	32	101	1048576	60	6440
2026-01-06 16:02:31.15	264.15	36.02	-42.2	-43.3	21.7	0.00e+00	0	32	101	1048576	60	7162
2026-01-06 16:02:32.15	263.86	35.86	-41.9	-42.9	22.0	0.00e+00	0	32	101	1048576	60	6843
2026-01-06 16:02:33.16	263.56	35.70	-41.2	-42.2	22.7	0.00e+00	56	32	101	1048576	60	6252
2026-01-06 16:02:34.16	263.27	35.54	-41.1	-42.1	22.7	0.00e+00	0	32	101	1048576	60	6186
2026-01-06 16:02:35.17	262.97	35.38	-41.2	-42.2	22.3	0.00e+00	92	32	101	1048576	60	6285
2026-01-06 16:02:36.17	262.69	35.22	-41.9	-43.0	21.8	0.00e+00	0	32	101	1048576	60	6867
2026-01-06 16:02:37.18	262.40	35.05	-42.2	-43.3	21.7	0.00e+00	92	32	101	1048576	60	7144
2026-01-06 16:02:38.18	262.12	34.89	-42.3	-43.4	21.3	0.00e+00	0	32	101	1048576	60	7218
2026-01-06 16:02:39.19	261.84	34.73	-42.5	-43.7	21.2	0.00e+00	0	32	101	1048576	60	7493
2026-01-06 16:02:40.20	261.56	34.57	-43.9	-45.4	19.8	0.00e+00	0	32	101	1048576	60	9072
2026-01-06 16:02:41.20	261.29	34.41	-44.3	-45.9	19.3	0.00e+00	0	32	101	1048576	60	9620
2026-01-06 16:02:42.21	261.02	34.25	-44.4	-46.0	19.5	0.00e+00	91	32	101	1048576	60	9705
2026-01-06 16:02:43.21	260.75	34.09	-43.5	-44.9	20.4	0.00e+00	0	32	101	1048576	60	8558
2026-01-06 16:02:44.22	260.48	33.93	-43.1	-44.4	20.7	0.00e+00	90	32	101	1048576	60	8128
2026-01-06 16:02:45.23	260.22	33.76	-43.0	-44.3	20.8	0.00e+00	0	32	101	1048576	60	7960
2026-01-06 16:02:46.23	259.96	33.60	-43.8	-45.2	19.9	0.00e+00	0	32	101	1048576	60	8885
2026-01-06 16:02:47.24	259.70	33.44	-44.5	-46.1	19.1	0.00e+00	0	32	101	1048576	60	9846
2026-01-06 16:02:48.24	259.44	33.28	-44.6	-46.3	18.9	0.00e+00	0	32	101	1048576	60	10053
2026-01-06 16:02:49.25	259.19	33.12	-44.4	-45.9	19.3	0.00e+00	50	32	101	1048576	60	9663
2026-01-06 16:02:50.26	258.94	32.96	-44.9	-46.7	19.1	0.00e+00	0	32	101	1048576	60	10487
2026-01-06 16:02:51.27	258.69	32.80	-43.8	-45.2	20.2	0.00e+00	92	32	101	1048576	60	8902
2026-01-06 16:02:52.27	258.44	32.64	-43.5	-44.8	20.2	0.00e+00	0	32	101	1048576	60	8469
2026-01-06 16:02:53.28	258.20	32.48	-43.7	-45.1	20.4	0.00e+00	0	32	101	1048576	60	8745
2026-01-06 16:02:54.29	257.96	32.33	-42.8	-44.0	21.0	0.00e+00	0	32	101	1048576	60	7716
2026-01-06 16:02:55.30	257.72	32.17	-42.5	-43.6	21.4	0.00e+00	0	32	101	1048576	60	7387
2026-01-06 16:02:56.30	257.48	32.01	-42.2	-43.3	21.4	0.00e+00	9	32	101	1048576	60	7120
2026-01-06 16:02:57.30	257.25	31.85	-42.4	-43.5	21.4	0.00e+00	0	32	101	1048576	60	7296
2026-01-06 16:02:58.31	257.02	31.69	-42.2	-43.3	21.7	0.00e+00	91	32	101	1048576	60	7089
2026-01-06 16:02:59.32	256.79	31.54	-42.1	-43.1	21.7	0.00e+00	0	32	101	1048576	60	7005
2026-01-06 16:03:00.32	256.56	31.38	-41.9	-42.9	21.9	0.00e+00	0	32	101	1048576	60	6823
2026-01-06 16:03:01.33	256.34	31.22	-42.0	-43.1	21.7	0.00e+00	0	32	101	1048576	60	6961
2026-01-06 16:03:02.34	256.11	31.06	-41.5	-42.6	22.2	0.00e+00	0	32	101	1048576	60	6548
2026-01-06 16:03:03.35	255.89	30.91	-41.7	-42.8	21.8	0.00e+00	57	32	101	1048576	60	6726
2026-01-06 16:03:04.35	255.67	30.75	-42.4	-43.6	21.5	0.00e+00	0	32	101	1048576	60	7405
2026-01-06 16:03:05.36	255.46	30.60	-42.8	-44.0	21.0	0.00e+00	92	32	101	1048576	60	7731
2026-01-06 16:03:06.36	255.24	30.44	-42.2	-43.4	21.4	0.00e+00	0	32	101	1048576	60	7201
2026-01-06 16:03:07.37	255.03	30.29	-42.1	-43.3	21.6	0.00e+00	92	32	101	1048576	60	7089
2026-01-06 16:03:08.38	254.82	30.13	-41.9	-43.0	21.5	0.00e+00	0	32	101	1048576	60	6900
2026-01-06 16:03:09.38	254.61	29.98	-42.0	-43.1	21.8	0.00e+00	0	32	101	1048576	60	6941
2026-01-06 16:03:10.39	254.41	29.83	-41.9	-43.0	21.7	0.00e+00	33	32	101	1048576	60	6890
2026-01-06 16:03:11.40	254.20	29.67	-42.1	-43.2	21.3	0.00e+00	0	32	101	1048576	60	7020
2026-01-06 16:03:12.41	254.00	29.52	-42.5	-43.6	21.3	0.00e+00	41	32	101	1048576	60	7403
2026-01-06 16:03:13.42	253.80	29.37	-42.7	-43.9	21.0	0.00e+00	0	33	101	1048576	60	7661
2026-01-06 16:03:14.43	253.60	29.21	-42.1	-43.3	21.6	0.00e+00	71	32	101	1048576	60	7113
2026-01-06 16:03:15.44	253.40	29.06	-42.6	-43.9	21.2	0.00e+00	0	32	101	1048576	60	7597
2026-01-06 16:03:16.45	253.20	28.91	-42.5	-43.6	21.5	0.00e+00	0	32	101	1048576	60	7412
2026-01-06 16:03:17.46	253.01	28.76	-42.0	-43.1	21.8	0.00e+00	0	32	101	1048576	60	6943
2026-01-06 16:03:18.47	252.82	28.61	-42.0	-43.1	21.7	0.00e+00	0	32	101	1048576	60	6986
2026-01-06 16:03:19.48	252.63	28.46	-42.1	-43.2	21.7	0.00e+00	31	33	101	1048576	60	7034
2026-01-06 16:03:20.49	252.44	28.31	-42.3	-43.4	21.5	0.00e+00	0	32	101	1048576	60	7230
2026-01-06 16:03:21.50	252.25	28.16	-42.0	-43.1	21.7	0.00e+00	52	32	101	1048576	60	6981
2026-01-06 16:03:22.51	252.07	28.01	-42.3	-43.4	21.5	0.00e+00	0	32	101	1048576	60	7240
2026-01-06 16:03:23.53	251.89	27.86	-41.8	-42.9	22.0	0.00e+00	0	32	101	1048576	60	6796
2026-01-06 16:03:24.54	251.70	27.71	-41.5	-42.6	22.3	0.00e+00	0	32	101	1048576	60	6567
2026-01-06 16:03:25.55	251.52	27.57	-41.4	-42.4	22.4	0.00e+00	0	32	101	1048576	60	6433
2026-01-06 16:03:26.56	251.35	27.42	-41.4	-42.4	22.3	0.00e+00	44	32	101	1048576	60	6455
2026-01-06 16:03:27.57	251.17	27.27	-40.9	-41.9	22.6	0.00e+00	0	32	101	1048576	60	6047
2026-01-06 16:03:28.58	251.00	27.13	-41.0	-42.0	22.6	0.00e+00	92	32	101	1048576	60	6119
2026-01-06 16:03:29.59	250.82	26.98	-41.1	-42.1	22.7	0.00e+00	0	32	101	1048576	60	6220
2026-01-06 16:03:30.60	250.65	26.84	-41.3	-42.4	22.5	0.00e+00	0	32	101	1048576	60	6413
2026-01-06 16:03:31.61	250.48	26.69	-41.5	-42.6	22.2	0.00e+00	0	32	101	1048576	60	6580
2026-01-06 16:03:32.62	250.31	26.55	-42.1	-43.2	21.6	0.00e+00	0	32	101	1048576	60	7039
2026-01-06 16:03:33.63	250.15	26.40	-42.5	-43.8	21.2	0.00e+00	52	32	101	1048576	60	7509
2026-01-06 16:03:34.64	249.98	26.26	-42.3	-43.5	21.3	0.00e+00	0	32	101	1048576	60	7328
2026-01-06 16:03:35.65	249.82	26.12	-42.4	-43.6	21.3	0.00e+00	61	32	101	1048576	60	7381
2026-01-06 16:03:36.66	249.66	25.98	-41.6	-42.6	22.1	0.00e+00	0	32	101	1048576	60	6612
2026-01-06 16:03:37.67	249.50	25.83	-41.3	-42.4	22.4	0.00e+00	92	32	101	1048576	60	6400
2026-01-06 16:03:38.69	249.34	25.69	-40.4	-41.3	23.4	0.00e+00	0	32	101	1048576	60	5694
2026-01-06 16:03:39.70	249.18	25.55	-40.0	-40.9	23.5	0.00e+00	0	32	101	1048576	58	6052
2026-01-06 16:03:40.70	249.02	25.41	-40.0	-40.9	23.5	0.00e+00	0	32	101	1048576	58	6065
2026-01-06 16:03:41.71	248.87	25.27	-40.1	-41.1	23.3	0.00e+00	0	32	101	1048576	58	6178
2026-01-06 16:03:42.73	248.71	25.13	-40.3	-41.3	23.1	0.00e+00	52	32	101	1048576	58	6329
2026-01-06 16:03:43.74	248.56	24.99	-40.7	-41.6	22.8	0.00e+00	0	32	101	1048576	58	6580
2026-01-06 16:03:44.75	248.41	24.86	-41.3	-42.3	22.5	0.00e+00	77	32	101	1048576	60	6345
2026-01-06 16:03:45.76	248.26	24.72	-41.2	-42.2	22.4	0.00e+00	0	32	101	1048576	60	6259
2026-01-06 16:03:46.77	248.11	24.58	-41.7	-42.8	21.9	0.00e+00	0	32	101	1048576	60	6719
2026-01-06 16:03:47.78	247.96	24.44	-41.6	-42.6	22.1	0.00e+00	0	32	101	1048576	60	6575
2026-01-06 16:03:48.79	247.82	24.31	-41.4	-42.4	22.2	0.00e+00	0	32	101	1048576	60	6407
2026-01-06 16:03:49.80	247.67	24.17	-41.7	-42.7	22.0	0.00e+00	59	32	101	1048576	60	6663
2026-01-06 16:03:50.81	247.53	24.04	-41.8	-42.9	21.9	0.00e+00	0	32	101	1048576	60	6820
2026-01-06 16:03:51.82	247.39	23.90	-42.0	-43.1	21.6	0.00e+00	92	32	101	1048576	60	6996
2026-01-06 16:03:52.84	247.25	23.77	-42.7	-44.0	21.0	0.00e+00	0	32	101	1048576	60	7719
2026-01-06 16:03:53.85	247.11	23.63	-43.0	-44.3	20.7	0.00e+00	0	32	101	1048576	60	7971
2026-01-06 16:03:54.86	246.97	23.50	-42.8	-44.1	20.9	0.00e+00	0	32	101	1048576	60	7802
2026-01-06 16:03:55.87	246.83	23.37	-43.0	-44.3	20.8	0.00e+00	0	32	101	1048576	60	7961
2026-01-06 16:03:56.88	246.70	23.24	-42.8	-44.0	21.0	0.00e+00	42	32	101	1048576	60	7758
2026-01-06 16:03:57.89	246.56	23.11	-42.2	-43.4	21.6	0.00e+00	0	32	101	1048576	60	7189
2026-01-06 16:03:58.90	246.43	22.97	-42.1	-43.2	21.7	0.00e+00	62	32	101	1048576	60	7012
2026-01-06 16:03:59.91	246.30	22.84	-41.6	-42.7	22.2	0.00e+00	0	32	101	1048576	60	6626
2026-01-06 16:04:00.92	246.17	22.71	-40.9	-41.9	22.7	0.00e+00	0	32	101	1048576	60	6051
2026-01-06 16:04:01.93	246.03	22.58	-40.8	-41.8	22.8	0.00e+00	0	32	101	1048576	60	5988
2026-01-06 16:04:02.94	245.91	22.46	-40.6	-41.6	23.0	0.00e+00	0	32	101	1048576	60	5840
2026-01-06 16:04:03.95	245.78	22.33	-40.6	-41.6	23.0	0.00e+00	19	32	101	1048576	60	5839
2026-01-06 16:04:04.97	245.65	22.20	-40.6	-41.5	23.0	0.00e+00	0	32	101	1048576	60	5823
2026-01-06 16:04:05.98	245.52	22.07	-40.5	-41.4	23.1	0.00e+00	87	32	101	1048576	60	5724
2026-01-06 16:04:06.99	245.40	21.94	-40.5	-41.4	23.1	0.00e+00	0	32	101	1048576	60	5739
2026-01-06 16:04:08.00	245.28	21.82	-40.4	-41.3	23.1	0.00e+00	0	32	101	1048576	60	5691
2026-01-06 16:04:09.01	245.15	21.69	-40.4	-41.4	23.0	0.00e+00	0	32	101	1048576	60	5704
2026-01-06 16:04:10.02	245.03	21.56	-40.5	-41.5	22.9	0.00e+00	0	32	101	1048576	60	5790
2026-01-06 16:04:11.03	244.91	21.44	-40.9	-41.9	22.7	0.00e+00	25	32	101	1048576	60	6035
2026-01-06 16:04:12.04	244.79	21.31	-40.9	-41.9	22.6	0.00e+00	0	32	101	1048576	60	6052
2026-01-06 16:04:13.05	244.67	21.19	-41.0	-42.0	22.5	0.00e+00	31	32	101	1048576	60	6116
2026-01-06 16:04:14.06	244.55	21.07	-41.2	-42.2	22.5	0.00e+00	0	32	101	1048576	60	6288
2026-01-06 16:04:15.07	244.44	20.94	-41.2	-42.3	22.4	0.00e+00	47	32	101	1048576	60	6335
2026-01-06 16:04:16.08	244.32	20.82	-41.5	-42.6	22.0	0.00e+00	0	32	101	1048576	60	6592
2026-01-06 16:04:17.09	244.21	20.70	-41.0	-41.9	22.7	0.00e+00	0	32	101	1048576	60	6103
2026-01-06 16:04:18.10	244.09	20.58	-40.7	-41.7	22.9	0.00e+00	55	32	101	1048576	60	5923
2026-01-06 16:04:19.11	243.98	20.45	-40.9	-41.9	22.7	0.00e+00	0	32	101	1048576	60	6041
2026-01-06 16:04:20.13	243.87	20.33	-40.7	-41.7	22.8	0.00e+00	91	33	101	1048576	60	5923
2026-01-06 16:04:21.14	243.76	20.21	-40.8	-41.7	22.8	0.00e+00	0	32	101	1048576	60	5948
2026-01-06 16:04:22.15	243.64	20.09	-40.8	-41.8	22.9	0.00e+00	92	32	101	1048576	60	5974
2026-01-06 16:04:23.16	243.54	19.97	-40.9	-41.9	22.5	0.00e+00	0	32	101	1048576	60	6086
2026-01-06 16:04:24.17	243.43	19.85	-41.1	-42.2	22.3	0.00e+00	0	32	101	1048576	60	6252
2026-01-06 16:04:25.18	243.32	19.73	-41.7	-42.8	21.9	0.00e+00	0	32	101	1048576	60	6708
2026-01-06 16:04:26.19	243.21	19.62	-41.9	-43.1	21.6	0.00e+00	0	32	101	1048576	60	6934
2026-01-06 16:04:27.20	243.11	19.50	-42.2	-43.4	21.2	0.00e+00	69	32	101	1048576	60	7195
2026-01-06 16:04:28.22	243.00	19.38	-42.3	-43.5	21.3	0.00e+00	0	33	101	1048576	60	7320
2026-01-06 16:04:29.23	242.90	19.26	-42.6	-43.8	21.1	0.00e+00	90	32	101	1048576	60	7553
2026-01-06 16:04:30.24	242.79	19.15	-42.6	-43.8	20.9	0.00e+00	0	32	101	1048576	60	7587
2026-01-06 16:04:31.25	242.69	19.03	-42.5	-43.7	21.0	0.00e+00	0	32	101	1048576	60	7508
2026-01-06 16:04:32.26	242.59	18.92	-42.6	-43.8	20.9	0.00e+00	0	32	101	1048576	60	7578
2026-01-06 16:04:33.27	242.49	18.80	-42.4	-43.6	21.1	0.00e+00	0	32	101	1048576	60	7388
2026-01-06 16:04:34.28	242.39	18.69	-42.2	-43.3	21.4	0.00e+00	76	32	101	1048576	60	7168
2026-01-06 16:04:35.29	242.29	18.57	-42.2	-43.3	21.4	0.00e+00	0	33	101	1048576	60	7144
2026-01-06 16:04:36.30	242.19	18.46	-42.3	-43.5	21.3	0.00e+00	92	32	101	1048576	60	7312
2026-01-06 16:04:37.31	242.09	18.34	-42.3	-43.5	21.4	0.00e+00	0	32	101	1048576	60	7254
2026-01-06 16:04:38.33	241.99	18.23	-42.1	-43.2	21.5	0.00e+00	0	32	101	1048576	60	7077
2026-01-06 16:04:39.34	241.89	18.12	-42.1	-43.2	21.5	0.00e+00	0	32	101	1048576	60	7078
2026-01-06 16:04:40.35	241.80	18.01	-41.9	-43.0	21.6	0.00e+00	0	32	101	1048576	60	6927
2026-01-06 16:04:41.36	241.70	17.89	-41.6	-42.7	21.9	0.00e+00	53	32	101	1048576	60	6641
2026-01-06 16:04:42.37	241.61	17.78	-41.6	-42.7	22.1	0.00e+00	0	32	101	1048576	60	6628
2026-01-06 16:04:43.38	241.51	17.67	-41.3	-42.3	22.3	0.00e+00	91	32	101	1048576	60	6366
2026-01-06 16:04:44.39	241.42	17.56	-41.2	-42.2	22.4	0.00e+00	0	32	101	1048576	60	6261
2026-01-06 16:04:45.40	241.33	17.45	-40.9	-41.9	22.6	0.00e+00	0	32	101	1048576	60	6038
2026-01-06 16:04:46.41	241.24	17.34	-40.9	-41.9	22.7	0.00e+00	0	32	101	1048576	60	6067
2026-01-06 16:04:47.42	241.15	17.23	-41.0	-42.0	22.5	0.00e+00	0	32	101	1048576	60	6138
2026-01-06 16:04:48.43	241.06	17.13	-41.2	-42.2	22.3	0.00e+00	47	32	101	1048576	60	6278
2026-01-06 16:04:49.44	240.97	17.02	-41.3	-42.3	22.2	0.00e+00	0	32	101	1048576	60	6380
2026-01-06 16:04:50.45	240.88	16.91	-41.4	-42.4	22.1	0.00e+00	92	32	101	1048576	60	6458
2026-01-06 16:04:51.47	240.79	16.80	-41.7	-42.8	21.9	0.00e+00	0	32	101	1048576	60	6732
2026-01-06 16:04:52.48	240.70	16.69	-41.9	-43.0	21.6	0.00e+00	26	32	101	1048576	60	6912
2026-01-06 16:04:53.49	240.61	16.59	-42.1	-43.2	21.5	0.00e+00	0	32	101	1048576	60	7088
2026-01-06 16:04:54.50	240.53	16.48	-42.1	-43.3	21.5	0.00e+00	0	32	101	1048576	60	7098
2026-01-06 16:04:55.51	240.44	16.37	-41.9	-43.0	21.9	0.00e+00	9	32	101	1048576	60	6882
2026-01-06 16:04:56.52	240.36	16.27	-41.8	-43.0	21.7	0.00e+00	0	32	101	1048576	60	6873
2026-01-06 16:04:57.53	240.27	16.16	-41.7	-42.8	21.8	0.00e+00	91	32	101	1048576	60	6767
2026-01-06 16:04:58.54	240.19	16.06	-41.7	-42.8	21.8	0.00e+00	0	32	101	1048576	60	6744
2026-01-06 16:04:59.55	240.10	15.96	-41.5	-42.6	22.0	0.00e+00	30	32	101	1048576	60	6568
2026-01-06 16:05:00.56	240.02	15.85	-41.5	-42.7	22.0	0.00e+00	0	32	101	1048576	60	6616
2026-01-06 16:05:01.57	239.94	15.75	-41.4	-42.5	22.1	0.00e+00	0	32	101	1048576	60	6521
2026-01-06 16:05:02.58	239.86	15.64	-41.3	-42.4	22.2	0.00e+00	25	32	101	1048576	60	6427
2026-01-06 16:05:03.59	239.78	15.54	-41.7	-42.8	21.9	0.00e+00	0	32	101	1048576	60	6699
