passes_logs/2026/01/06/R4.6S_Anadyr_2ch/R4.6S_Anadyr_2ch__20260106_134321_NOAA_21_JPSS-2_rec.log

#Pass ID: 20260106_134321_NOAA 21 (JPSS-2)
#Satellite: NOAA 21 (JPSS-2)
#Configuration: NOAA-21
#almurnet v.1.7.20251203
#Start time: 2026-01-06 13:43:22

#Version: 2.2.20231116
#Station: R4.6S_Anadyr_2ch
#Location: 177.4865 lon 64.73178 lat
#TLE: 1 54234U 22150A   25350.97269056  .00000057  00000+0  47676-4 0  9992
#TLE: 2 54234  98.7466 287.2282 0002043  29.8355 330.2937 14.19525482160692

#Time	Az	El	Level	Level2	SNR	BER	BlckErr	Temp	State	Recorded	gain1	gain2
2026-01-06 13:43:22.40	19.02	0.07	-51.3	-66.3	3.6	1.51e+00	0	30	0	0	60	100200
2026-01-06 13:43:23.41	19.05	0.13	-51.4	-64.3	3.5	1.52e+00	0	32	104	0	60	77755
2026-01-06 13:43:24.42	19.09	0.19	-51.5	-64.4	3.5	1.52e+00	0	32	104	0	60	78322
2026-01-06 13:43:25.44	19.12	0.25	-51.4	-64.4	3.5	1.52e+00	0	32	104	0	60	78894
2026-01-06 13:43:26.44	19.16	0.31	-51.5	-64.4	3.5	1.52e+00	0	32	104	0	60	78874
2026-01-06 13:43:27.46	19.19	0.37	-51.5	-64.4	3.5	1.52e+00	0	32	104	0	60	78863
2026-01-06 13:43:28.47	19.23	0.43	-51.5	-64.4	3.5	1.52e+00	0	32	104	0	60	78395
2026-01-06 13:43:29.48	19.26	0.48	-51.4	-64.4	3.5	1.52e+00	0	32	104	0	60	78165
2026-01-06 13:43:30.49	19.30	0.54	-51.3	-64.2	3.5	1.52e+00	0	32	104	0	60	77144
2026-01-06 13:43:31.50	19.33	0.60	-51.2	-64.2	3.5	1.52e+00	0	32	104	0	60	76441
2026-01-06 13:43:32.51	19.37	0.66	-51.1	-64.1	3.5	1.52e+00	0	32	104	0	60	75551
2026-01-06 13:43:33.52	19.40	0.72	-50.9	-63.8	3.5	1.52e+00	0	32	104	0	60	73605
2026-01-06 13:43:34.53	19.44	0.78	-50.7	-63.7	3.5	1.52e+00	0	32	104	0	60	72153
2026-01-06 13:43:35.54	19.47	0.84	-50.5	-63.4	3.5	1.52e+00	0	32	104	0	60	70266
2026-01-06 13:43:36.55	19.51	0.90	-50.1	-63.0	3.5	1.52e+00	0	32	104	0	60	66941
2026-01-06 13:43:37.56	19.55	0.96	-50.0	-62.9	3.5	1.51e+00	0	32	104	0	60	65954
2026-01-06 13:43:38.57	19.58	1.02	-50.0	-62.9	3.5	1.52e+00	0	32	104	0	60	66273
2026-01-06 13:43:39.58	19.62	1.08	-50.0	-62.9	3.5	1.52e+00	0	32	104	0	60	66467
2026-01-06 13:43:40.59	19.65	1.14	-50.0	-62.9	3.5	1.52e+00	0	32	104	0	60	66041
2026-01-06 13:43:41.60	19.69	1.20	-50.0	-62.8	3.5	1.51e+00	0	32	104	0	60	65599
2026-01-06 13:43:42.62	19.73	1.26	-50.0	-62.9	3.5	1.52e+00	0	32	104	0	60	65799
2026-01-06 13:43:43.63	19.76	1.32	-50.0	-62.8	3.5	1.51e+00	0	32	104	0	60	65326
2026-01-06 13:43:44.64	19.80	1.38	-50.0	-62.8	3.5	1.52e+00	0	32	104	0	60	65089
2026-01-06 13:43:45.65	19.84	1.44	-50.0	-62.7	3.5	1.52e+00	0	32	104	0	60	64981
2026-01-06 13:43:46.66	19.87	1.50	-50.0	-62.8	3.5	1.52e+00	0	32	104	0	60	65406
2026-01-06 13:43:47.67	19.91	1.56	-50.0	-62.9	3.5	1.52e+00	0	32	104	0	60	65795
2026-01-06 13:43:48.68	19.95	1.63	-50.0	-62.9	3.5	1.52e+00	0	32	104	0	60	65895
2026-01-06 13:43:49.69	19.99	1.69	-50.0	-62.8	3.5	1.51e+00	0	32	104	0	60	65533
2026-01-06 13:43:50.70	20.02	1.75	-50.0	-62.9	3.5	1.52e+00	0	33	104	0	60	65929
2026-01-06 13:43:51.71	20.06	1.81	-50.0	-62.9	3.5	1.52e+00	0	32	104	0	60	66042
2026-01-06 13:43:52.72	20.10	1.87	-50.0	-62.9	3.5	1.52e+00	0	32	104	0	60	65807
2026-01-06 13:43:53.74	20.14	1.93	-50.0	-62.9	3.5	1.52e+00	0	32	104	0	60	66084
2026-01-06 13:43:54.75	20.18	1.99	-50.0	-62.7	3.5	1.52e+00	0	32	104	0	60	64698
2026-01-06 13:43:55.76	20.21	2.06	-49.9	-62.3	3.5	1.52e+00	0	33	104	0	60	61983
2026-01-06 13:43:56.77	20.25	2.12	-49.9	-61.9	3.5	1.52e+00	0	33	104	0	60	59163
2026-01-06 13:43:57.78	20.29	2.18	-49.9	-61.4	3.5	1.52e+00	0	33	104	0	60	55356
2026-01-06 13:43:58.79	20.33	2.24	-49.9	-61.4	3.5	1.51e+00	0	33	104	0	60	55577
2026-01-06 13:43:59.80	20.37	2.31	-49.9	-61.8	3.5	1.52e+00	0	33	104	0	60	57960
2026-01-06 13:44:00.81	20.41	2.37	-49.9	-62.2	3.5	1.52e+00	0	33	104	0	60	61088
2026-01-06 13:44:01.82	20.45	2.43	-49.9	-61.8	3.5	1.51e+00	0	33	104	0	60	58162
2026-01-06 13:44:02.83	20.48	2.49	-49.6	-59.1	4.4	1.51e+00	2	33	104	0	60	42665
2026-01-06 13:44:03.84	20.52	2.56	-48.9	-54.6	7.0	3.08e-01	0	33	0	0	60	25316
2026-01-06 13:44:04.85	20.56	2.62	-47.6	-51.4	10.5	1.04e-02	0	33	102	1048576	60	17523
2026-01-06 13:44:05.86	20.60	2.68	-46.4	-49.2	13.1	1.45e-04	0	33	102	1048576	60	13720
2026-01-06 13:44:06.87	20.64	2.75	-45.1	-47.3	15.2	0.00e+00	0	33	102	1048576	60	10978
2026-01-06 13:44:07.88	20.68	2.81	-43.9	-45.7	16.8	0.00e+00	0	33	102	1048576	60	9167
2026-01-06 13:44:08.90	20.72	2.87	-43.0	-44.6	17.8	0.00e+00	0	33	102	1048576	60	8002
2026-01-06 13:44:09.91	20.76	2.94	-42.2	-43.6	18.7	0.00e+00	0	33	102	1048576	60	7165
2026-01-06 13:44:10.92	20.80	3.00	-42.2	-43.6	18.6	0.00e+00	0	33	102	1048576	60	7206
2026-01-06 13:44:11.93	20.84	3.06	-42.1	-43.5	18.6	0.00e+00	0	33	102	1048576	60	7099
2026-01-06 13:44:12.94	20.89	3.13	-42.6	-44.2	18.0	0.00e+00	0	33	102	1048576	60	7641
2026-01-06 13:44:13.95	20.93	3.19	-43.1	-44.7	17.5	0.00e+00	0	33	102	1048576	60	8154
2026-01-06 13:44:14.96	20.97	3.26	-44.0	-45.8	16.4	0.00e+00	0	33	102	1048576	60	9266
2026-01-06 13:44:15.97	21.01	3.32	-45.3	-47.6	14.5	1.50e-06	0	33	102	1048576	60	11382
2026-01-06 13:44:16.98	21.05	3.39	-46.7	-49.8	12.2	4.95e-05	0	33	102	1048576	60	14583
2026-01-06 13:44:17.99	21.09	3.45	-48.1	-52.5	9.0	8.93e-03	0	33	102	1048576	60	19962
2026-01-06 13:44:19.00	21.13	3.52	-41.6	-43.0	19.4	0.00e+00	0	33	102	1048576	60	6656
2026-01-06 13:44:20.02	21.18	3.58	-49.8	-61.3	3.5	9.48e-01	0	33	104	1048576	60	54840
2026-01-06 13:44:21.03	21.22	3.65	-50.0	-62.0	3.5	1.50e+00	0	33	104	1048576	60	59487
2026-01-06 13:44:22.04	21.26	3.71	-46.7	-50.0	12.7	4.14e-01	0	33	104	1048576	60	14938
2026-01-06 13:44:23.05	21.30	3.78	-49.9	-60.9	3.7	1.51e+00	0	33	104	1048576	60	52762
2026-01-06 13:44:24.06	21.34	3.84	-46.4	-49.1	13.1	4.16e-03	0	33	0	1048576	60	13540
2026-01-06 13:44:25.07	21.39	3.91	-45.1	-47.2	15.4	1.50e-06	0	33	0	1048576	60	10808
2026-01-06 13:44:26.08	21.43	3.98	-43.8	-45.6	17.0	0.00e+00	0	33	0	1048576	60	8980
2026-01-06 13:44:27.09	21.47	4.04	-42.9	-44.5	18.0	0.00e+00	0	33	0	1048576	60	7924
2026-01-06 13:44:28.10	21.52	4.11	-42.3	-43.7	18.7	0.00e+00	0	33	0	1048576	60	7252
2026-01-06 13:44:29.11	21.56	4.18	-42.0	-43.4	19.1	0.00e+00	0	33	0	1048576	60	7022
2026-01-06 13:44:30.12	21.60	4.24	-41.5	-42.8	19.6	0.00e+00	0	33	0	1048576	60	6504
2026-01-06 13:44:31.13	21.65	4.31	-41.0	-42.2	20.2	0.00e+00	0	33	0	1048576	60	6110
2026-01-06 13:44:32.14	21.69	4.38	-40.9	-42.2	20.2	0.00e+00	0	33	0	1048576	60	6069
2026-01-06 13:44:33.15	21.73	4.44	-40.8	-42.0	20.3	0.00e+00	0	33	0	1048576	60	5994
2026-01-06 13:44:34.16	21.78	4.51	-40.8	-42.0	20.3	0.00e+00	0	33	0	1048576	60	5972
2026-01-06 13:44:35.17	21.82	4.58	-40.7	-41.9	20.5	0.00e+00	0	33	101	1048576	60	5900
2026-01-06 13:44:36.18	21.87	4.64	-40.7	-41.9	20.4	0.00e+00	0	33	101	1048576	60	5919
2026-01-06 13:44:37.19	21.91	4.71	-40.8	-42.1	20.4	0.00e+00	0	33	101	1048576	60	6008
2026-01-06 13:44:38.20	21.96	4.78	-40.7	-41.9	20.5	0.00e+00	0	33	101	1048576	60	5914
2026-01-06 13:44:39.21	22.00	4.85	-40.7	-41.9	20.4	0.00e+00	0	33	101	1048576	60	5925
2026-01-06 13:44:40.22	22.05	4.92	-40.5	-41.7	20.7	0.00e+00	0	33	101	1048576	60	5757
2026-01-06 13:44:41.24	22.09	4.99	-40.6	-41.8	20.6	0.00e+00	0	33	101	1048576	60	5823
2026-01-06 13:44:42.25	22.14	5.05	-40.7	-41.9	20.5	0.00e+00	0	33	101	1048576	60	5871
2026-01-06 13:44:43.26	22.19	5.12	-40.6	-41.8	20.6	0.00e+00	0	33	101	1048576	60	5792
2026-01-06 13:44:44.27	22.23	5.19	-40.7	-41.9	20.6	0.00e+00	0	33	101	1048576	60	5904
2026-01-06 13:44:45.28	22.28	5.26	-40.7	-41.9	20.5	0.00e+00	0	33	101	1048576	60	5904
2026-01-06 13:44:46.29	22.32	5.33	-40.5	-41.7	20.7	0.00e+00	0	33	101	1048576	60	5749
2026-01-06 13:44:47.30	22.37	5.40	-40.3	-41.5	21.0	0.00e+00	0	33	101	1048576	60	5600
2026-01-06 13:44:48.31	22.42	5.47	-40.3	-41.4	21.0	0.00e+00	0	33	101	1048576	60	5572
2026-01-06 13:44:49.32	22.46	5.54	-40.4	-41.5	21.1	0.00e+00	0	33	101	1048576	60	5631
2026-01-06 13:44:50.33	22.51	5.61	-40.3	-41.5	21.0	0.00e+00	0	33	101	1048576	60	5621
2026-01-06 13:44:51.34	22.56	5.68	-40.0	-41.1	21.3	0.00e+00	0	33	101	1048576	58	6064
2026-01-06 13:44:52.36	22.61	5.75	-40.2	-41.3	21.1	0.00e+00	0	33	101	1048576	58	6169
2026-01-06 13:44:53.36	22.66	5.82	-40.2	-41.3	21.2	0.00e+00	0	33	101	1048576	58	6157
2026-01-06 13:44:54.38	22.70	5.89	-39.9	-41.1	21.3	0.00e+00	0	33	101	1048576	58	6006
2026-01-06 13:44:55.39	22.75	5.96	-40.0	-41.1	21.4	0.00e+00	0	33	101	1048576	58	6039
2026-01-06 13:44:56.40	22.80	6.03	-40.0	-41.2	21.3	0.00e+00	0	33	101	1048576	58	6082
2026-01-06 13:44:57.41	22.85	6.10	-39.9	-41.0	21.4	0.00e+00	0	33	101	1048576	58	5927
2026-01-06 13:44:58.42	22.90	6.17	-39.9	-40.9	21.6	0.00e+00	0	33	101	1048576	58	5922
2026-01-06 13:44:59.43	22.95	6.25	-39.8	-40.9	21.5	0.00e+00	0	33	101	1048576	58	5895
2026-01-06 13:45:00.44	23.00	6.32	-39.8	-40.9	21.5	0.00e+00	0	33	101	1048576	58	5914
2026-01-06 13:45:01.45	23.05	6.39	-40.0	-41.1	21.4	0.00e+00	0	33	101	1048576	58	6061
2026-01-06 13:45:02.46	23.10	6.46	-39.7	-40.8	21.7	0.00e+00	0	33	101	1048576	58	5835
2026-01-06 13:45:03.47	23.15	6.53	-39.7	-40.8	21.7	0.00e+00	0	33	101	1048576	58	5831
2026-01-06 13:45:04.48	23.20	6.61	-39.8	-40.9	21.5	0.00e+00	0	33	101	1048576	58	5861
2026-01-06 13:45:05.49	23.25	6.68	-39.9	-41.0	21.5	0.00e+00	0	33	101	1048576	58	5940
2026-01-06 13:45:06.50	23.30	6.75	-39.7	-40.7	21.7	0.00e+00	0	33	101	1048576	58	5780
2026-01-06 13:45:07.51	23.35	6.82	-39.7	-40.8	21.7	0.00e+00	0	33	101	1048576	58	5797
2026-01-06 13:45:08.52	23.40	6.90	-39.6	-40.7	21.8	0.00e+00	0	33	101	1048576	58	5740
2026-01-06 13:45:09.53	23.45	6.97	-39.6	-40.7	21.7	0.00e+00	0	33	101	1048576	58	5740
2026-01-06 13:45:10.55	23.50	7.04	-39.5	-40.6	21.9	0.00e+00	0	33	101	1048576	58	5670
2026-01-06 13:45:11.56	23.56	7.12	-39.4	-40.5	22.0	0.00e+00	0	33	101	1048576	58	5616
2026-01-06 13:45:12.57	23.61	7.19	-39.5	-40.5	22.0	0.00e+00	0	33	101	1048576	58	5647
2026-01-06 13:45:13.58	23.66	7.27	-39.5	-40.5	21.9	0.00e+00	0	33	101	1048576	58	5653
2026-01-06 13:45:14.59	23.71	7.34	-39.6	-40.7	21.9	0.00e+00	0	33	101	1048576	58	5749
2026-01-06 13:45:15.60	23.77	7.41	-39.5	-40.6	21.9	0.00e+00	0	33	101	1048576	58	5673
2026-01-06 13:45:16.61	23.82	7.49	-39.4	-40.5	22.0	0.00e+00	0	33	101	1048576	58	5616
2026-01-06 13:45:17.62	23.87	7.56	-39.3	-40.4	22.1	0.00e+00	0	33	101	1048576	58	5532
2026-01-06 13:45:18.63	23.93	7.64	-39.3	-40.4	22.1	0.00e+00	0	33	101	1048576	58	5533
2026-01-06 13:45:19.63	23.98	7.71	-39.3	-40.3	22.1	0.00e+00	0	33	101	1048576	58	5517
2026-01-06 13:45:20.64	24.03	7.79	-39.3	-40.3	22.2	0.00e+00	0	33	101	1048576	58	5515
2026-01-06 13:45:21.65	24.09	7.87	-39.4	-40.4	22.0	0.00e+00	0	33	101	1048576	58	5591
2026-01-06 13:45:22.66	24.14	7.94	-39.4	-40.4	22.1	0.00e+00	0	33	101	1048576	58	5583
2026-01-06 13:45:23.67	24.20	8.02	-39.1	-40.2	22.3	0.00e+00	0	33	101	1048576	58	5420
2026-01-06 13:45:24.68	24.25	8.09	-39.2	-40.2	22.3	0.00e+00	0	33	101	1048576	56	6130
2026-01-06 13:45:25.69	24.31	8.17	-39.2	-40.2	22.3	0.00e+00	0	33	101	1048576	56	6104
2026-01-06 13:45:26.69	24.36	8.25	-39.1	-40.1	22.4	0.00e+00	0	33	101	1048576	56	6062
2026-01-06 13:45:27.70	24.42	8.32	-39.1	-40.1	22.4	0.00e+00	0	33	101	1048576	56	6027
2026-01-06 13:45:28.71	24.48	8.40	-39.1	-40.1	22.5	0.00e+00	0	33	101	1048576	56	6020
2026-01-06 13:45:29.72	24.53	8.48	-39.2	-40.2	22.3	0.00e+00	0	33	101	1048576	56	6104
2026-01-06 13:45:30.73	24.59	8.56	-39.1	-40.1	22.5	0.00e+00	0	33	101	1048576	56	6053
2026-01-06 13:45:31.73	24.65	8.63	-39.1	-40.1	22.4	0.00e+00	0	33	101	1048576	56	6052
2026-01-06 13:45:32.74	24.70	8.71	-39.0	-40.0	22.6	0.00e+00	0	33	101	1048576	56	5960
2026-01-06 13:45:33.75	24.76	8.79	-38.9	-39.9	22.6	0.00e+00	0	33	101	1048576	56	5877
2026-01-06 13:45:34.76	24.82	8.87	-39.0	-40.0	22.5	0.00e+00	0	33	101	1048576	56	5951
2026-01-06 13:45:35.77	24.88	8.95	-38.8	-39.8	22.6	0.00e+00	0	33	101	1048576	56	5857
2026-01-06 13:45:36.78	24.94	9.02	-38.8	-39.8	22.6	0.00e+00	0	33	101	1048576	56	5857
2026-01-06 13:45:37.79	24.99	9.10	-38.8	-39.9	22.7	0.00e+00	0	33	101	1048576	56	5868
2026-01-06 13:45:38.80	25.05	9.18	-38.7	-39.7	22.8	0.00e+00	0	33	101	1048576	56	5762
2026-01-06 13:45:39.81	25.11	9.26	-38.7	-39.7	22.9	0.00e+00	0	33	101	1048576	56	5749
2026-01-06 13:45:40.82	25.17	9.34	-38.7	-39.7	22.8	0.00e+00	0	33	101	1048576	56	5780
2026-01-06 13:45:41.83	25.23	9.42	-38.6	-39.6	22.9	0.00e+00	0	33	101	1048576	56	5719
2026-01-06 13:45:42.83	25.29	9.50	-38.7	-39.7	22.8	0.00e+00	0	33	101	1048576	56	5762
2026-01-06 13:45:43.84	25.35	9.58	-38.6	-39.6	22.9	0.00e+00	0	33	101	1048576	56	5693
2026-01-06 13:45:44.85	25.41	9.66	-38.6	-39.6	23.0	0.00e+00	0	33	101	1048576	56	5666
2026-01-06 13:45:45.86	25.48	9.74	-38.6	-39.6	22.9	0.00e+00	0	33	101	1048576	56	5677
2026-01-06 13:45:46.87	25.54	9.83	-38.5	-39.5	23.0	0.00e+00	0	33	101	1048576	56	5626
2026-01-06 13:45:47.87	25.60	9.91	-38.5	-39.4	23.1	0.00e+00	0	33	101	1048576	56	5587
2026-01-06 13:45:48.88	25.66	9.99	-38.4	-39.3	23.1	0.00e+00	0	33	101	1048576	56	5519
2026-01-06 13:45:49.89	25.72	10.07	-38.4	-39.4	23.1	0.00e+00	0	33	101	1048576	56	5564
2026-01-06 13:45:50.90	25.79	10.15	-38.5	-39.5	23.0	0.00e+00	0	33	101	1048576	56	5648
2026-01-06 13:45:51.91	25.85	10.24	-38.4	-39.4	23.1	0.00e+00	0	33	101	1048576	56	5532
2026-01-06 13:45:52.92	25.91	10.32	-38.4	-39.4	23.1	0.00e+00	0	33	101	1048576	56	5571
2026-01-06 13:45:53.92	25.97	10.40	-38.3	-39.3	23.2	0.00e+00	0	33	101	1048576	56	5498
2026-01-06 13:45:54.93	26.04	10.48	-38.4	-39.3	23.2	0.00e+00	0	33	101	1048576	56	5518
2026-01-06 13:45:55.94	26.10	10.57	-38.3	-39.3	23.2	0.00e+00	0	33	101	1048576	56	5477
2026-01-06 13:45:56.94	26.17	10.65	-38.2	-39.2	23.3	0.00e+00	0	33	101	1048576	56	5407
2026-01-06 13:45:57.95	26.23	10.73	-38.1	-39.1	23.3	0.00e+00	0	33	101	1048576	54	6015
2026-01-06 13:45:58.96	26.30	10.82	-38.1	-39.1	23.3	0.00e+00	0	33	101	1048576	54	6009
2026-01-06 13:45:59.97	26.36	10.90	-38.2	-39.1	23.3	0.00e+00	0	33	101	1048576	54	6041
2026-01-06 13:46:00.98	26.43	10.99	-38.1	-39.0	23.3	0.00e+00	0	33	101	1048576	54	5985
2026-01-06 13:46:01.98	26.50	11.07	-38.0	-38.9	23.5	0.00e+00	0	33	101	1048576	54	5912
2026-01-06 13:46:02.99	26.56	11.16	-37.9	-38.9	23.5	0.00e+00	0	33	101	1048576	54	5866
2026-01-06 13:46:04.00	26.63	11.24	-38.0	-38.9	23.4	0.00e+00	0	33	101	1048576	54	5925
2026-01-06 13:46:05.01	26.70	11.33	-37.9	-38.9	23.5	0.00e+00	0	33	101	1048576	54	5879
2026-01-06 13:46:06.02	26.77	11.41	-38.0	-38.9	23.5	0.00e+00	0	33	101	1048576	54	5895
2026-01-06 13:46:07.03	26.83	11.50	-37.9	-38.9	23.6	0.00e+00	0	33	101	1048576	54	5872
2026-01-06 13:46:08.04	26.90	11.59	-37.9	-38.9	23.5	0.00e+00	0	33	101	1048576	54	5884
2026-01-06 13:46:09.05	26.97	11.67	-38.0	-38.9	23.5	0.00e+00	0	34	101	1048576	54	5910
2026-01-06 13:46:10.05	27.04	11.76	-37.7	-38.6	23.7	0.00e+00	0	33	101	1048576	54	5711
2026-01-06 13:46:11.06	27.11	11.85	-37.7	-38.7	23.7	0.00e+00	0	33	101	1048576	54	5747
2026-01-06 13:46:12.07	27.18	11.94	-37.9	-38.8	23.5	0.00e+00	0	33	101	1048576	54	5850
2026-01-06 13:46:13.08	27.25	12.02	-37.8	-38.7	23.5	0.00e+00	0	34	101	1048576	54	5787
2026-01-06 13:46:14.09	27.32	12.11	-37.6	-38.6	23.8	0.00e+00	0	34	101	1048576	54	5668
2026-01-06 13:46:15.10	27.39	12.20	-37.5	-38.5	23.8	0.00e+00	0	33	101	1048576	54	5622
2026-01-06 13:46:16.11	27.47	12.29	-37.7	-38.6	23.7	0.00e+00	0	33	101	1048576	54	5714
2026-01-06 13:46:17.12	27.54	12.38	-37.6	-38.5	23.8	0.00e+00	0	33	101	1048576	54	5659
2026-01-06 13:46:18.12	27.61	12.47	-37.4	-38.4	23.9	0.00e+00	0	33	101	1048576	54	5537
2026-01-06 13:46:19.13	27.68	12.56	-37.6	-38.6	23.8	0.00e+00	0	33	101	1048576	54	5678
2026-01-06 13:46:20.14	27.76	12.65	-37.4	-38.3	23.9	0.00e+00	0	33	101	1048576	54	5530
2026-01-06 13:46:21.15	27.83	12.74	-37.5	-38.4	23.8	0.00e+00	0	33	101	1048576	54	5582
2026-01-06 13:46:22.16	27.91	12.83	-37.4	-38.3	24.0	0.00e+00	0	33	101	1048576	54	5482
2026-01-06 13:46:23.17	27.98	12.92	-37.4	-38.3	24.0	0.00e+00	0	33	101	1048576	54	5496
2026-01-06 13:46:24.18	28.06	13.01	-37.4	-38.3	24.0	0.00e+00	0	34	101	1048576	54	5483
2026-01-06 13:46:25.19	28.13	13.10	-37.2	-38.1	24.0	0.00e+00	0	34	101	1048576	54	5399
2026-01-06 13:46:26.20	28.21	13.19	-37.3	-38.2	24.1	0.00e+00	0	33	101	1048576	54	5435
2026-01-06 13:46:27.20	28.28	13.28	-37.3	-38.3	24.1	0.00e+00	0	34	101	1048576	54	5469
2026-01-06 13:46:28.21	28.36	13.38	-37.2	-38.1	24.1	0.00e+00	0	34	101	1048576	54	5391
2026-01-06 13:46:29.22	28.44	13.47	-37.3	-38.2	24.0	0.00e+00	0	33	101	1048576	54	5426
2026-01-06 13:46:30.23	28.52	13.56	-37.4	-38.3	24.1	0.00e+00	0	33	101	1048576	54	5479
2026-01-06 13:46:31.24	28.59	13.66	-37.4	-38.3	24.1	0.00e+00	0	34	101	1048576	54	5512
2026-01-06 13:46:32.24	28.67	13.75	-37.5	-38.4	24.0	0.00e+00	0	33	101	1048576	54	5550
2026-01-06 13:46:33.25	28.75	13.84	-37.4	-38.3	24.0	0.00e+00	0	33	101	1048576	54	5501
2026-01-06 13:46:34.26	28.83	13.94	-37.3	-38.3	24.1	0.00e+00	0	34	101	1048576	54	5477
2026-01-06 13:46:35.27	28.91	14.03	-37.3	-38.2	24.1	0.00e+00	0	34	101	1048576	54	5457
2026-01-06 13:46:36.28	28.99	14.13	-37.4	-38.3	24.0	0.00e+00	0	33	101	1048576	54	5497
2026-01-06 13:46:37.28	29.07	14.22	-37.3	-38.3	24.0	0.00e+00	0	33	101	1048576	54	5475
2026-01-06 13:46:38.29	29.15	14.32	-37.4	-38.3	24.0	0.00e+00	0	34	101	1048576	54	5497
2026-01-06 13:46:39.30	29.24	14.41	-37.4	-38.3	24.0	0.00e+00	0	33	101	1048576	54	5495
2026-01-06 13:46:40.31	29.32	14.51	-37.3	-38.3	24.1	0.00e+00	0	33	101	1048576	54	5474
2026-01-06 13:46:41.32	29.40	14.61	-37.3	-38.2	24.1	0.00e+00	0	34	101	1048576	54	5454
2026-01-06 13:46:42.33	29.49	14.70	-37.3	-38.3	24.1	0.00e+00	0	34	101	1048576	54	5469
2026-01-06 13:46:43.34	29.57	14.80	-37.3	-38.2	24.1	0.00e+00	0	33	101	1048576	54	5459
2026-01-06 13:46:44.34	29.66	14.90	-37.5	-38.4	24.0	0.00e+00	0	33	101	1048576	54	5577
2026-01-06 13:46:45.36	29.74	15.00	-37.5	-38.5	23.9	0.00e+00	0	33	101	1048576	54	5601
2026-01-06 13:46:46.36	29.83	15.09	-37.5	-38.4	24.0	0.00e+00	0	33	101	1048576	54	5547
2026-01-06 13:46:47.37	29.91	15.19	-37.5	-38.4	24.0	0.00e+00	0	34	101	1048576	54	5552
2026-01-06 13:46:48.38	30.00	15.29	-37.5	-38.4	24.1	0.00e+00	0	34	101	1048576	54	5557
2026-01-06 13:46:49.39	30.09	15.39	-37.6	-38.5	24.0	0.00e+00	0	34	101	1048576	54	5628
2026-01-06 13:46:50.40	30.18	15.49	-37.7	-38.6	23.9	0.00e+00	0	34	101	1048576	54	5690
2026-01-06 13:46:51.40	30.26	15.59	-37.6	-38.6	23.8	0.00e+00	0	34	101	1048576	54	5673
2026-01-06 13:46:52.41	30.35	15.69	-37.7	-38.7	23.8	0.00e+00	0	33	101	1048576	54	5745
2026-01-06 13:46:53.42	30.44	15.79	-37.8	-38.8	23.7	0.00e+00	0	33	101	1048576	54	5800
2026-01-06 13:46:54.43	30.53	15.89	-37.8	-38.7	23.7	0.00e+00	0	34	101	1048576	54	5778
2026-01-06 13:46:55.44	30.62	15.99	-37.9	-38.8	23.7	0.00e+00	0	34	101	1048576	54	5830
2026-01-06 13:46:56.45	30.71	16.09	-37.8	-38.7	23.8	0.00e+00	0	34	101	1048576	54	5741
2026-01-06 13:46:57.46	30.81	16.20	-37.9	-38.8	23.7	0.00e+00	0	34	101	1048576	54	5853
2026-01-06 13:46:58.47	30.90	16.30	-37.9	-38.9	23.7	0.00e+00	0	33	101	1048576	54	5859
2026-01-06 13:46:59.47	30.99	16.40	-38.0	-38.9	23.7	0.00e+00	0	33	101	1048576	54	5909
2026-01-06 13:47:00.48	31.09	16.50	-38.0	-39.0	23.6	0.00e+00	0	34	101	1048576	54	5946
2026-01-06 13:47:01.49	31.18	16.61	-38.2	-39.2	23.4	0.00e+00	0	34	101	1048576	54	6068
2026-01-06 13:47:02.50	31.27	16.71	-38.0	-38.9	23.6	0.00e+00	0	34	101	1048576	54	5908
2026-01-06 13:47:03.51	31.37	16.82	-38.0	-39.0	23.6	0.00e+00	0	34	101	1048576	54	5935
2026-01-06 13:47:04.52	31.47	16.92	-38.1	-39.0	23.6	0.00e+00	0	33	101	1048576	54	5967
2026-01-06 13:47:05.52	31.56	17.02	-38.1	-39.0	23.6	0.00e+00	0	34	101	1048576	54	5994
2026-01-06 13:47:06.53	31.66	17.13	-38.1	-39.1	23.5	0.00e+00	0	34	101	1048576	54	6017
2026-01-06 13:47:07.54	31.76	17.24	-38.2	-39.1	23.5	0.00e+00	0	34	101	1048576	54	6062
2026-01-06 13:47:08.55	31.86	17.34	-38.1	-39.0	23.6	0.00e+00	0	34	101	1048576	54	5960
2026-01-06 13:47:09.56	31.96	17.45	-38.1	-39.1	23.5	0.00e+00	0	33	101	1048576	54	6037
2026-01-06 13:47:10.57	32.06	17.56	-38.2	-39.2	23.4	0.00e+00	0	34	101	1048576	54	6079
2026-01-06 13:47:11.58	32.16	17.66	-38.0	-39.0	23.6	0.00e+00	0	34	101	1048576	54	5968
2026-01-06 13:47:12.58	32.26	17.77	-38.2	-39.2	23.4	0.00e+00	0	34	101	1048576	54	6076
2026-01-06 13:47:13.59	32.36	17.88	-38.0	-39.0	23.6	0.00e+00	0	34	101	1048576	54	5940
2026-01-06 13:47:14.60	32.46	17.99	-38.2	-39.1	23.5	0.00e+00	0	34	101	1048576	54	6025
2026-01-06 13:47:15.61	32.57	18.10	-38.1	-39.1	23.6	0.00e+00	0	33	101	1048576	54	6001
2026-01-06 13:47:16.62	32.67	18.20	-38.1	-39.0	23.6	0.00e+00	0	34	101	1048576	54	5974
2026-01-06 13:47:17.63	32.78	18.31	-38.0	-39.0	23.6	0.00e+00	0	33	101	1048576	54	5954
2026-01-06 13:47:18.63	32.88	18.42	-38.2	-39.1	23.5	0.00e+00	0	34	101	1048576	54	6056
2026-01-06 13:47:19.64	32.99	18.53	-38.1	-39.0	23.6	0.00e+00	0	34	101	1048576	54	5979
2026-01-06 13:47:20.65	33.10	18.65	-38.1	-39.0	23.7	0.00e+00	0	34	101	1048576	54	5974
2026-01-06 13:47:21.66	33.20	18.76	-37.9	-38.9	23.7	0.00e+00	0	34	101	1048576	54	5884
2026-01-06 13:47:22.67	33.31	18.87	-37.8	-38.7	23.8	0.00e+00	0	34	101	1048576	54	5775
2026-01-06 13:47:23.67	33.42	18.98	-37.7	-38.7	23.8	0.00e+00	0	34	101	1048576	54	5732
2026-01-06 13:47:24.68	33.53	19.09	-37.6	-38.5	23.9	0.00e+00	0	34	101	1048576	54	5652
2026-01-06 13:47:25.69	33.64	19.21	-37.4	-38.3	24.0	0.00e+00	0	34	101	1048576	54	5524
2026-01-06 13:47:26.70	33.76	19.32	-37.5	-38.4	24.1	0.00e+00	0	34	101	1048576	54	5556
2026-01-06 13:47:27.70	33.87	19.43	-37.5	-38.4	24.0	0.00e+00	0	34	101	1048576	54	5591
2026-01-06 13:47:28.71	33.98	19.55	-37.6	-38.5	24.0	0.00e+00	0	34	101	1048576	54	5657
2026-01-06 13:47:29.72	34.10	19.66	-37.3	-38.2	24.2	0.00e+00	0	33	101	1048576	54	5430
2026-01-06 13:47:30.73	34.21	19.78	-37.3	-38.2	24.1	0.00e+00	0	34	101	1048576	54	5423
2026-01-06 13:47:31.74	34.33	19.89	-37.2	-38.1	24.3	0.00e+00	0	34	101	1048576	54	5353
2026-01-06 13:47:32.75	34.44	20.01	-36.9	-37.8	24.4	0.00e+00	0	34	101	1048576	52	5837
2026-01-06 13:47:33.76	34.56	20.12	-37.0	-37.9	24.4	0.00e+00	0	34	101	1048576	52	5914
2026-01-06 13:47:34.77	34.68	20.24	-36.9	-37.8	24.5	0.00e+00	0	33	101	1048576	52	5817
2026-01-06 13:47:35.77	34.80	20.36	-37.1	-38.0	24.3	0.00e+00	0	34	101	1048576	52	5949
2026-01-06 13:47:36.78	34.92	20.47	-36.8	-37.7	24.6	0.00e+00	0	33	101	1048576	52	5747
2026-01-06 13:47:37.79	35.04	20.59	-36.6	-37.5	24.7	0.00e+00	0	34	101	1048576	52	5624
2026-01-06 13:47:38.80	35.16	20.71	-36.6	-37.5	24.7	0.00e+00	0	34	101	1048576	52	5617
2026-01-06 13:47:39.81	35.29	20.83	-36.5	-37.4	24.7	0.00e+00	0	34	101	1048576	52	5565
2026-01-06 13:47:40.81	35.41	20.95	-36.5	-37.4	24.7	0.00e+00	0	34	101	1048576	52	5560
2026-01-06 13:47:41.82	35.53	21.07	-36.6	-37.5	24.7	0.00e+00	0	33	101	1048576	52	5603
2026-01-06 13:47:42.83	35.66	21.19	-36.2	-37.1	25.0	0.00e+00	0	34	101	1048576	52	5380
2026-01-06 13:47:43.84	35.79	21.31	-36.2	-37.1	24.9	0.00e+00	0	34	101	1048576	52	5375
2026-01-06 13:47:44.85	35.91	21.43	-36.1	-37.0	25.0	0.00e+00	0	33	101	1048576	50	5928
2026-01-06 13:47:45.86	36.04	21.55	-36.2	-37.1	24.9	0.00e+00	0	34	101	1048576	50	6006
2026-01-06 13:47:46.87	36.17	21.67	-36.1	-37.0	25.1	0.00e+00	0	33	101	1048576	50	5939
2026-01-06 13:47:47.88	36.30	21.80	-36.0	-36.9	25.1	0.00e+00	0	34	101	1048576	50	5890
2026-01-06 13:47:48.89	36.43	21.92	-36.1	-37.0	25.0	0.00e+00	0	34	101	1048576	50	5959
2026-01-06 13:47:49.89	36.57	22.04	-36.2	-37.1	25.0	0.00e+00	0	34	101	1048576	50	6015
2026-01-06 13:47:50.90	36.70	22.17	-36.0	-36.9	25.1	0.00e+00	0	34	101	1048576	50	5893
2026-01-06 13:47:51.91	36.83	22.29	-36.2	-37.0	25.0	0.00e+00	0	34	101	1048576	50	5988
2026-01-06 13:47:52.92	36.97	22.42	-36.1	-37.0	25.1	0.00e+00	0	34	101	1048576	50	5951
2026-01-06 13:47:53.93	37.11	22.54	-36.2	-37.0	25.1	0.00e+00	0	34	101	1048576	50	5990
2026-01-06 13:47:54.94	37.24	22.67	-36.0	-36.9	25.2	0.00e+00	0	34	101	1048576	50	5894
2026-01-06 13:47:55.95	37.38	22.79	-35.7	-36.6	25.3	0.00e+00	0	33	101	1048576	50	5686
2026-01-06 13:47:56.96	37.52	22.92	-35.8	-36.7	25.3	0.00e+00	0	34	101	1048576	50	5745
2026-01-06 13:47:57.97	37.67	23.05	-35.7	-36.6	25.4	0.00e+00	0	34	101	1048576	50	5663
2026-01-06 13:47:58.97	37.81	23.17	-35.9	-36.8	25.3	0.00e+00	0	34	101	1048576	50	5814
2026-01-06 13:47:59.98	37.95	23.30	-35.7	-36.5	25.4	0.00e+00	0	34	101	1048576	50	5657
2026-01-06 13:48:00.99	38.09	23.43	-35.7	-36.5	25.4	0.00e+00	0	34	101	1048576	50	5652
2026-01-06 13:48:02.00	38.24	23.56	-35.7	-36.6	25.5	0.00e+00	0	34	101	1048576	50	5682
2026-01-06 13:48:03.01	38.39	23.69	-35.8	-36.7	25.2	0.00e+00	0	34	101	1048576	50	5745
2026-01-06 13:48:04.02	38.53	23.82	-36.0	-36.8	25.2	0.00e+00	0	34	101	1048576	50	5858
2026-01-06 13:48:05.03	38.68	23.95	-36.0	-36.9	25.2	0.00e+00	0	34	101	1048576	50	5861
2026-01-06 13:48:06.04	38.83	24.08	-36.1	-37.0	25.1	0.00e+00	0	34	101	1048576	50	5952
2026-01-06 13:48:07.04	38.98	24.21	-36.1	-37.0	25.2	0.00e+00	0	34	101	1048576	50	5961
2026-01-06 13:48:08.05	39.14	24.34	-36.2	-37.0	25.2	0.00e+00	0	34	101	1048576	50	5993
2026-01-06 13:48:09.06	39.29	24.47	-36.2	-37.1	25.2	0.00e+00	0	34	101	1048576	50	6039
2026-01-06 13:48:10.07	39.45	24.60	-36.3	-37.1	25.1	0.00e+00	0	34	101	1048576	50	6056
2026-01-06 13:48:11.08	39.60	24.74	-36.4	-37.3	25.1	0.00e+00	0	34	101	1048576	50	6147
2026-01-06 13:48:12.09	39.76	24.87	-36.5	-37.4	24.9	0.00e+00	0	34	101	1048576	50	6214
2026-01-06 13:48:13.10	39.92	25.01	-36.6	-37.4	24.8	0.00e+00	0	34	101	1048576	50	6268
2026-01-06 13:48:14.10	40.08	25.14	-36.7	-37.6	24.8	0.00e+00	0	34	101	1048576	50	6361
2026-01-06 13:48:15.11	40.24	25.27	-36.8	-37.7	24.8	0.00e+00	0	34	101	1048576	50	6431
2026-01-06 13:48:16.12	40.41	25.41	-36.9	-37.8	24.6	0.00e+00	0	34	101	1048576	50	6520
2026-01-06 13:48:17.13	40.57	25.54	-36.8	-37.7	24.7	0.00e+00	0	34	101	1048576	50	6454
2026-01-06 13:48:18.14	40.74	25.68	-36.8	-37.7	24.7	0.00e+00	0	34	101	1048576	50	6468
2026-01-06 13:48:19.15	40.90	25.82	-36.7	-37.6	24.8	0.00e+00	0	34	101	1048576	50	6392
2026-01-06 13:48:20.15	41.07	25.95	-36.9	-37.8	24.7	0.00e+00	0	34	101	1048576	50	6506
2026-01-06 13:48:21.16	41.24	26.09	-37.0	-37.9	24.6	0.00e+00	0	34	101	1048576	50	6590
2026-01-06 13:48:22.17	41.41	26.23	-36.9	-37.8	24.7	0.00e+00	0	34	101	1048576	50	6540
2026-01-06 13:48:23.18	41.59	26.37	-36.9	-37.9	24.6	0.00e+00	0	34	101	1048576	50	6574
2026-01-06 13:48:24.19	41.76	26.51	-36.8	-37.7	24.7	0.00e+00	0	34	101	1048576	50	6495
2026-01-06 13:48:25.20	41.94	26.65	-36.8	-37.6	24.7	0.00e+00	0	34	101	1048576	50	6423
2026-01-06 13:48:26.21	42.11	26.79	-36.8	-37.7	24.7	0.00e+00	0	34	101	1048576	50	6439
2026-01-06 13:48:27.21	42.29	26.92	-36.8	-37.7	24.7	0.00e+00	0	34	101	1048576	50	6440
2026-01-06 13:48:28.22	42.47	27.07	-36.9	-37.8	24.7	0.00e+00	0	34	101	1048576	50	6510
2026-01-06 13:48:29.23	42.66	27.21	-37.1	-37.9	24.6	0.00e+00	0	34	101	1048576	50	6645
2026-01-06 13:48:30.24	42.84	27.35	-37.1	-38.0	24.5	0.00e+00	0	33	101	1048576	50	6682
2026-01-06 13:48:31.25	43.02	27.49	-37.1	-38.0	24.4	0.00e+00	0	34	101	1048576	52	5994
2026-01-06 13:48:32.26	43.21	27.63	-37.2	-38.1	24.4	0.00e+00	0	34	101	1048576	52	6061
2026-01-06 13:48:33.27	43.40	27.78	-37.4	-38.3	24.2	0.00e+00	0	34	101	1048576	52	6181
2026-01-06 13:48:34.28	43.59	27.92	-37.1	-38.0	24.5	0.00e+00	0	34	101	1048576	52	5977
2026-01-06 13:48:35.29	43.78	28.06	-37.1	-38.0	24.5	0.00e+00	0	34	101	1048576	52	5970
2026-01-06 13:48:36.30	43.98	28.21	-37.0	-37.9	24.6	0.00e+00	0	34	101	1048576	52	5878
2026-01-06 13:48:37.31	44.17	28.35	-37.1	-38.0	24.6	0.00e+00	0	34	101	1048576	52	5958
2026-01-06 13:48:38.31	44.37	28.50	-37.2	-38.1	24.5	0.00e+00	0	34	101	1048576	52	6028
2026-01-06 13:48:39.32	44.57	28.64	-37.2	-38.1	24.4	0.00e+00	0	34	101	1048576	52	6048
2026-01-06 13:48:40.33	44.77	28.79	-37.1	-38.0	24.5	0.00e+00	0	34	101	1048576	52	5975
2026-01-06 13:48:41.34	44.97	28.93	-37.3	-38.2	24.4	0.00e+00	0	34	101	1048576	52	6108
2026-01-06 13:48:42.35	45.17	29.08	-37.0	-37.9	24.7	0.00e+00	0	34	101	1048576	52	5871
2026-01-06 13:48:43.36	45.38	29.23	-36.9	-37.8	24.7	0.00e+00	0	34	101	1048576	52	5831
2026-01-06 13:48:44.36	45.59	29.37	-37.0	-37.9	24.5	0.00e+00	0	34	101	1048576	52	5919
2026-01-06 13:48:45.37	45.80	29.52	-36.7	-37.6	24.8	0.00e+00	0	34	101	1048576	52	5696
2026-01-06 13:48:46.38	46.01	29.67	-36.8	-37.6	24.8	0.00e+00	0	34	101	1048576	52	5715
2026-01-06 13:48:47.39	46.22	29.82	-36.8	-37.7	24.8	0.00e+00	0	34	101	1048576	52	5762
2026-01-06 13:48:48.39	46.43	29.96	-37.0	-37.9	24.6	0.00e+00	0	34	101	1048576	52	5859
2026-01-06 13:48:49.40	46.65	30.11	-37.0	-37.9	24.7	0.00e+00	0	34	101	1048576	52	5887
2026-01-06 13:48:50.41	46.87	30.26	-37.0	-37.9	24.7	0.00e+00	0	34	101	1048576	52	5906
2026-01-06 13:48:51.42	47.09	30.41	-37.1	-38.0	24.5	0.00e+00	0	34	101	1048576	52	5988
2026-01-06 13:48:52.43	47.32	30.56	-37.3	-38.3	24.3	0.00e+00	0	34	101	1048576	52	6144
2026-01-06 13:48:53.44	47.54	30.71	-37.6	-38.5	24.1	0.00e+00	0	34	101	1048576	52	6325
2026-01-06 13:48:54.45	47.77	30.86	-37.7	-38.6	24.1	0.00e+00	0	34	101	1048576	52	6400
2026-01-06 13:48:55.46	48.00	31.01	-37.7	-38.7	24.0	0.00e+00	0	34	101	1048576	52	6426
2026-01-06 13:48:56.46	48.23	31.16	-37.6	-38.6	24.1	0.00e+00	0	34	101	1048576	52	6373
2026-01-06 13:48:57.47	48.46	31.31	-37.8	-38.7	24.0	0.00e+00	0	34	101	1048576	52	6473
2026-01-06 13:48:58.48	48.70	31.47	-37.8	-38.7	23.9	0.00e+00	0	34	101	1048576	52	6470
2026-01-06 13:48:59.49	48.94	31.62	-37.9	-38.8	23.7	0.00e+00	0	34	101	1048576	52	6560
2026-01-06 13:49:00.50	49.18	31.77	-37.8	-38.8	23.9	0.00e+00	0	34	101	1048576	52	6517
2026-01-06 13:49:01.51	49.42	31.92	-38.0	-39.0	23.8	0.00e+00	0	34	101	1048576	52	6663
2026-01-06 13:49:02.52	49.66	32.08	-38.1	-39.1	23.8	0.00e+00	0	34	101	1048576	54	6011
2026-01-06 13:49:03.53	49.91	32.23	-38.2	-39.2	23.7	0.00e+00	0	34	101	1048576	54	6107
2026-01-06 13:49:04.54	50.16	32.38	-38.3	-39.2	23.6	0.00e+00	0	34	101	1048576	54	6113
2026-01-06 13:49:05.55	50.41	32.54	-38.2	-39.1	23.7	0.00e+00	0	34	101	1048576	54	6032
2026-01-06 13:49:06.55	50.66	32.69	-38.2	-39.1	23.8	0.00e+00	0	34	101	1048576	54	6025
2026-01-06 13:49:07.56	50.92	32.84	-37.8	-38.8	24.0	0.00e+00	0	34	101	1048576	54	5804
2026-01-06 13:49:08.57	51.18	33.00	-37.8	-38.7	24.0	0.00e+00	0	34	101	1048576	54	5740
2026-01-06 13:49:09.58	51.44	33.15	-37.8	-38.7	24.1	0.00e+00	0	34	101	1048576	54	5748
2026-01-06 13:49:10.59	51.70	33.30	-37.9	-38.8	24.0	0.00e+00	0	34	101	1048576	54	5842
2026-01-06 13:49:11.60	51.97	33.46	-38.1	-39.0	23.8	0.00e+00	0	34	101	1048576	54	5961
2026-01-06 13:49:12.61	52.24	33.61	-38.2	-39.1	23.7	0.00e+00	0	34	101	1048576	54	6027
2026-01-06 13:49:13.62	52.51	33.77	-38.2	-39.1	23.7	0.00e+00	0	34	101	1048576	54	6031
2026-01-06 13:49:14.62	52.78	33.92	-38.0	-38.9	23.8	0.00e+00	0	34	101	1048576	54	5916
2026-01-06 13:49:15.63	53.06	34.08	-38.0	-38.9	23.8	0.00e+00	0	34	101	1048576	54	5917
2026-01-06 13:49:16.64	53.34	34.23	-38.0	-38.9	23.9	0.00e+00	0	34	101	1048576	54	5896
2026-01-06 13:49:17.65	53.62	34.39	-38.1	-39.0	23.8	0.00e+00	0	34	101	1048576	54	5989
2026-01-06 13:49:18.66	53.90	34.54	-38.2	-39.1	23.7	0.00e+00	0	34	101	1048576	54	6062
2026-01-06 13:49:19.67	54.19	34.70	-38.2	-39.2	23.7	0.00e+00	0	34	101	1048576	54	6102
2026-01-06 13:49:20.68	54.48	34.85	-38.3	-39.3	23.6	0.00e+00	0	34	101	1048576	54	6158
2026-01-06 13:49:21.68	54.77	35.00	-38.5	-39.5	23.5	0.00e+00	0	34	101	1048576	54	6278
2026-01-06 13:49:22.69	55.06	35.16	-38.6	-39.5	23.4	0.00e+00	0	34	101	1048576	54	6344
2026-01-06 13:49:23.70	55.36	35.31	-38.7	-39.6	23.3	0.00e+00	0	34	101	1048576	54	6398
2026-01-06 13:49:24.71	55.66	35.47	-38.5	-39.4	23.5	0.00e+00	0	34	101	1048576	54	6260
2026-01-06 13:49:25.72	55.97	35.62	-38.4	-39.4	23.5	0.00e+00	0	34	101	1048576	54	6238
2026-01-06 13:49:26.73	56.27	35.78	-38.3	-39.2	23.5	0.00e+00	0	34	101	1048576	54	6120
2026-01-06 13:49:27.74	56.58	35.93	-38.3	-39.2	23.5	0.00e+00	0	34	101	1048576	54	6121
2026-01-06 13:49:28.75	56.89	36.09	-38.3	-39.2	23.5	0.00e+00	0	34	101	1048576	54	6134
2026-01-06 13:49:29.76	57.21	36.24	-38.5	-39.4	23.4	0.00e+00	0	34	101	1048576	54	6242
2026-01-06 13:49:30.77	57.53	36.39	-38.6	-39.6	23.3	0.00e+00	0	34	101	1048576	54	6399
2026-01-06 13:49:31.78	57.85	36.55	-38.6	-39.6	23.4	0.00e+00	0	34	101	1048576	54	6392
2026-01-06 13:49:32.79	58.17	36.70	-38.6	-39.5	23.4	0.00e+00	0	34	101	1048576	54	6342
2026-01-06 13:49:33.80	58.50	36.85	-38.4	-39.4	23.5	0.00e+00	0	34	101	1048576	54	6230
2026-01-06 13:49:34.81	58.83	37.00	-38.4	-39.4	23.5	0.00e+00	0	34	101	1048576	54	6221
2026-01-06 13:49:35.83	59.16	37.16	-38.6	-39.5	23.4	0.00e+00	0	34	101	1048576	54	6317
2026-01-06 13:49:36.84	59.50	37.31	-38.5	-39.5	23.4	0.00e+00	0	34	101	1048576	54	6305
2026-01-06 13:49:37.85	59.84	37.46	-38.8	-39.8	23.2	0.00e+00	0	34	101	1048576	54	6531
2026-01-06 13:49:38.86	60.18	37.61	-38.8	-39.8	23.1	0.00e+00	0	34	101	1048576	54	6501
2026-01-06 13:49:39.87	60.52	37.76	-39.0	-40.0	22.9	0.00e+00	0	34	101	1048576	54	6656
2026-01-06 13:49:40.88	60.87	37.91	-38.6	-39.5	23.3	0.00e+00	0	34	101	1048576	54	6350
2026-01-06 13:49:41.89	61.23	38.06	-38.8	-39.7	23.2	0.00e+00	0	34	101	1048576	54	6491
2026-01-06 13:49:42.90	61.58	38.21	-38.8	-39.8	23.1	0.00e+00	0	34	101	1048576	54	6557
2026-01-06 13:49:43.91	61.94	38.36	-38.8	-39.8	23.2	0.00e+00	0	34	101	1048576	54	6544
2026-01-06 13:49:44.92	62.30	38.51	-38.8	-39.7	23.2	0.00e+00	0	34	101	1048576	54	6480
2026-01-06 13:49:45.93	62.66	38.66	-38.6	-39.6	23.4	0.00e+00	0	34	101	1048576	54	6358
2026-01-06 13:49:46.94	63.03	38.80	-38.8	-39.7	23.2	0.00e+00	0	34	101	1048576	54	6481
2026-01-06 13:49:47.95	63.40	38.95	-38.7	-39.6	23.4	0.00e+00	0	34	101	1048576	54	6405
2026-01-06 13:49:48.97	63.78	39.09	-38.8	-39.8	23.2	0.00e+00	0	34	101	1048576	54	6510
2026-01-06 13:49:49.98	64.16	39.24	-38.8	-39.7	23.3	0.00e+00	0	34	101	1048576	54	6477
2026-01-06 13:49:50.99	64.54	39.38	-38.8	-39.8	23.2	0.00e+00	0	34	101	1048576	54	6510
2026-01-06 13:49:52.00	64.92	39.53	-38.9	-39.8	23.2	0.00e+00	0	34	101	1048576	54	6543
2026-01-06 13:49:53.01	65.31	39.67	-38.9	-39.8	23.2	0.00e+00	0	34	101	1048576	54	6557
2026-01-06 13:49:54.02	65.70	39.81	-39.2	-40.1	22.9	0.00e+00	0	34	101	1048576	54	6784
2026-01-06 13:49:55.03	66.10	39.95	-39.7	-40.7	22.5	0.00e+00	0	34	101	1048576	56	6460
2026-01-06 13:49:56.04	66.50	40.09	-39.9	-41.0	22.3	0.00e+00	0	34	101	1048576	56	6664
2026-01-06 13:49:57.05	66.90	40.23	-39.9	-41.0	22.4	0.00e+00	0	34	101	1048576	56	6672
2026-01-06 13:49:58.07	67.31	40.37	-40.1	-41.1	22.1	0.00e+00	0	34	101	1048576	58	6060
2026-01-06 13:49:59.07	67.71	40.50	-39.8	-40.9	22.4	0.00e+00	0	34	101	1048576	58	5873
2026-01-06 13:50:00.09	68.12	40.64	-39.7	-40.7	22.5	0.00e+00	0	34	101	1048576	58	5778
2026-01-06 13:50:01.09	68.54	40.77	-39.7	-40.7	22.5	0.00e+00	0	34	101	1048576	58	5787
2026-01-06 13:50:02.11	68.96	40.90	-39.8	-40.8	22.4	0.00e+00	0	34	101	1048576	58	5812
2026-01-06 13:50:03.12	69.38	41.04	-39.6	-40.6	22.6	0.00e+00	0	34	101	1048576	58	5680
2026-01-06 13:50:04.13	69.80	41.17	-39.8	-40.8	22.4	0.00e+00	0	34	101	1048576	58	5824
2026-01-06 13:50:05.14	70.23	41.30	-40.2	-41.2	22.1	0.00e+00	0	34	101	1048576	58	6095
2026-01-06 13:50:06.15	70.66	41.42	-40.2	-41.2	22.0	0.00e+00	0	34	101	1048576	58	6117
2026-01-06 13:50:07.16	71.10	41.55	-40.2	-41.3	21.9	0.00e+00	0	34	101	1048576	58	6168
2026-01-06 13:50:08.17	71.54	41.68	-40.5	-41.6	21.6	0.00e+00	0	34	101	1048576	58	6368
2026-01-06 13:50:09.18	71.98	41.80	-40.5	-41.6	21.4	0.00e+00	0	34	101	1048576	58	6402
2026-01-06 13:50:10.19	72.43	41.92	-40.6	-41.7	21.6	0.00e+00	0	34	101	1048576	58	6438
2026-01-06 13:50:11.21	72.88	42.04	-40.7	-41.8	21.5	0.00e+00	0	34	101	1048576	58	6534
2026-01-06 13:50:12.22	73.33	42.16	-40.6	-41.7	21.6	0.00e+00	0	34	101	1048576	58	6482
2026-01-06 13:50:13.23	73.79	42.28	-40.2	-41.2	22.0	0.00e+00	0	34	101	1048576	58	6131
2026-01-06 13:50:14.24	74.24	42.40	-40.3	-41.3	21.8	0.00e+00	0	34	101	1048576	58	6187
2026-01-06 13:50:15.25	74.71	42.51	-40.3	-41.3	21.8	0.00e+00	0	34	101	1048576	58	6204
2026-01-06 13:50:16.26	75.17	42.62	-40.4	-41.5	21.6	0.00e+00	0	34	101	1048576	58	6314
2026-01-06 13:50:17.27	75.64	42.73	-40.3	-41.4	21.9	0.00e+00	0	34	101	1048576	58	6264
2026-01-06 13:50:18.28	76.11	42.84	-40.1	-41.1	22.1	0.00e+00	0	34	101	1048576	58	6056
2026-01-06 13:50:19.29	76.59	42.95	-39.5	-40.6	22.6	0.00e+00	0	34	101	1048576	58	5661
2026-01-06 13:50:20.30	77.06	43.06	-39.4	-40.5	22.5	0.00e+00	0	34	101	1048576	58	5599
2026-01-06 13:50:21.31	77.54	43.16	-39.7	-40.8	21.9	0.00e+00	0	34	101	1048576	58	5829
2026-01-06 13:50:22.32	78.03	43.26	-40.0	-41.1	21.7	0.00e+00	0	34	101	1048576	58	6008
2026-01-06 13:50:23.33	78.52	43.36	-40.2	-41.3	21.9	0.00e+00	0	34	101	1048576	58	6175
2026-01-06 13:50:24.35	79.01	43.46	-40.0	-41.1	22.2	0.00e+00	0	34	101	1048576	58	6020
2026-01-06 13:50:25.36	79.50	43.56	-39.8	-40.8	22.2	0.00e+00	0	34	101	1048576	58	5836
2026-01-06 13:50:26.37	80.00	43.65	-40.3	-41.4	21.9	0.00e+00	0	34	101	1048576	58	6208
2026-01-06 13:50:27.38	80.50	43.74	-40.7	-41.9	21.3	0.00e+00	0	34	101	1048576	58	6586
2026-01-06 13:50:28.39	81.00	43.83	-40.9	-42.1	21.1	0.00e+00	0	34	101	1048576	58	6738
2026-01-06 13:50:29.40	81.50	43.92	-41.3	-42.5	20.9	0.00e+00	0	34	101	1048576	60	6327
2026-01-06 13:50:30.41	82.01	44.00	-41.4	-42.6	20.9	0.00e+00	0	34	101	1048576	60	6416
2026-01-06 13:50:31.42	82.52	44.08	-40.5	-41.5	21.8	0.00e+00	0	34	101	1048576	60	5656
2026-01-06 13:50:32.43	83.03	44.16	-39.7	-40.7	22.3	0.00e+00	0	34	101	1048576	58	5780
2026-01-06 13:50:33.45	83.55	44.24	-39.7	-40.7	22.3	0.00e+00	0	34	101	1048576	58	5777
2026-01-06 13:50:34.46	84.07	44.32	-39.8	-40.8	22.5	0.00e+00	0	34	101	1048576	58	5826
2026-01-06 13:50:35.47	84.59	44.39	-39.9	-40.9	22.4	0.00e+00	0	34	101	1048576	58	5892
2026-01-06 13:50:36.48	85.11	44.46	-39.7	-40.7	22.4	0.00e+00	0	34	101	1048576	58	5790
2026-01-06 13:50:37.49	85.64	44.53	-39.8	-40.8	22.4	0.00e+00	0	34	101	1048576	58	5829
2026-01-06 13:50:38.50	86.16	44.60	-39.6	-40.6	22.7	0.00e+00	0	34	101	1048576	58	5665
2026-01-06 13:50:39.51	86.69	44.66	-39.8	-40.8	22.4	0.00e+00	0	34	101	1048576	58	5826
2026-01-06 13:50:40.52	87.22	44.72	-39.6	-40.7	22.6	0.00e+00	0	34	101	1048576	58	5733
2026-01-06 13:50:41.53	87.75	44.78	-39.6	-40.6	22.6	0.00e+00	0	34	101	1048576	58	5665
2026-01-06 13:50:42.54	88.29	44.83	-39.8	-40.8	22.3	0.00e+00	0	34	101	1048576	58	5845
2026-01-06 13:50:43.55	88.83	44.89	-39.9	-40.9	22.3	0.00e+00	0	34	101	1048576	58	5899
2026-01-06 13:50:44.56	89.36	44.94	-39.9	-40.9	22.3	0.00e+00	0	34	101	1048576	58	5925
2026-01-06 13:50:45.58	89.91	44.98	-39.8	-40.8	22.3	0.00e+00	0	34	101	1048576	58	5835
2026-01-06 13:50:46.59	90.45	45.03	-39.8	-40.8	22.2	0.00e+00	0	34	101	1048576	58	5856
2026-01-06 13:50:47.60	90.99	45.07	-39.9	-40.9	21.8	0.00e+00	0	34	101	1048576	58	5923
2026-01-06 13:50:48.61	91.54	45.11	-40.1	-41.2	21.9	0.00e+00	0	34	101	1048576	58	6073
2026-01-06 13:50:49.62	92.08	45.15	-40.0	-41.0	22.2	0.00e+00	0	34	101	1048576	58	5971
2026-01-06 13:50:50.63	92.63	45.18	-39.9	-40.9	22.4	0.00e+00	0	34	101	1048576	58	5907
2026-01-06 13:50:51.64	93.18	45.21	-39.7	-40.7	22.4	0.00e+00	0	34	101	1048576	58	5747
2026-01-06 13:50:52.65	93.73	45.24	-39.8	-40.8	22.3	0.00e+00	0	34	101	1048576	58	5828
2026-01-06 13:50:53.66	94.28	45.26	-39.8	-40.8	22.4	0.00e+00	0	34	101	1048576	58	5858
2026-01-06 13:50:54.68	94.83	45.29	-39.6	-40.6	22.5	0.00e+00	0	34	101	1048576	58	5697
2026-01-06 13:50:55.69	95.38	45.31	-39.7	-40.7	22.3	0.00e+00	0	34	101	1048576	58	5778
2026-01-06 13:50:56.69	95.93	45.32	-39.7	-40.7	22.4	0.00e+00	0	34	101	1048576	58	5755
2026-01-06 13:50:57.70	96.48	45.34	-39.6	-40.6	22.4	0.00e+00	0	34	101	1048576	58	5725
2026-01-06 13:50:58.72	97.04	45.35	-39.7	-40.7	22.1	0.00e+00	0	34	101	1048576	58	5788
2026-01-06 13:50:59.73	97.59	45.36	-39.8	-40.9	22.1	0.00e+00	0	34	101	1048576	58	5872
2026-01-06 13:51:00.74	98.15	45.36	-40.0	-41.1	22.0	0.00e+00	0	34	101	1048576	58	6038
2026-01-06 13:51:01.75	98.70	45.36	-40.2	-41.3	21.7	0.00e+00	0	34	101	1048576	58	6197
2026-01-06 13:51:02.76	99.25	45.36	-39.9	-40.9	22.1	0.00e+00	0	34	101	1048576	58	5913
2026-01-06 13:51:03.77	99.81	45.36	-39.4	-40.4	22.5	0.00e+00	0	34	101	1048576	58	5592
2026-01-06 13:51:04.78	100.36	45.35	-39.3	-40.3	22.7	0.00e+00	0	34	101	1048576	58	5475
2026-01-06 13:51:05.79	100.91	45.34	-39.2	-40.2	22.8	0.00e+00	0	34	101	1048576	58	5440
2026-01-06 13:51:06.80	101.47	45.33	-39.3	-40.3	22.8	0.00e+00	0	34	101	1048576	58	5505
2026-01-06 13:51:07.81	102.02	45.32	-39.3	-40.3	22.9	0.00e+00	0	34	101	1048576	58	5479
2026-01-06 13:51:08.82	102.57	45.30	-39.3	-40.3	22.8	0.00e+00	0	34	101	1048576	58	5512
2026-01-06 13:51:09.83	103.12	45.28	-39.4	-40.4	22.7	0.00e+00	0	34	101	1048576	58	5587
2026-01-06 13:51:10.84	103.67	45.25	-39.6	-40.6	22.6	0.00e+00	0	34	101	1048576	58	5680
2026-01-06 13:51:11.85	104.22	45.23	-39.6	-40.6	22.5	0.00e+00	0	34	101	1048576	58	5713
2026-01-06 13:51:12.86	104.77	45.20	-39.8	-40.8	22.3	0.00e+00	0	34	101	1048576	58	5806
2026-01-06 13:51:13.87	105.32	45.17	-39.4	-40.4	22.7	0.00e+00	0	34	101	1048576	58	5562
2026-01-06 13:51:14.88	105.87	45.13	-39.6	-40.6	22.6	0.00e+00	0	34	101	1048576	58	5721
2026-01-06 13:51:15.89	106.41	45.09	-39.7	-40.7	22.5	0.00e+00	0	34	101	1048576	58	5768
2026-01-06 13:51:16.90	106.96	45.05	-39.8	-40.8	22.4	0.00e+00	0	34	101	1048576	58	5817
2026-01-06 13:51:17.91	107.50	45.01	-39.5	-40.5	22.5	0.00e+00	0	34	101	1048576	58	5622
2026-01-06 13:51:18.92	108.04	44.96	-39.2	-40.2	22.6	0.00e+00	0	34	101	1048576	58	5442
2026-01-06 13:51:19.93	108.58	44.92	-39.2	-40.2	22.7	0.00e+00	0	34	101	1048576	56	6131
2026-01-06 13:51:20.95	109.12	44.86	-39.2	-40.2	22.8	0.00e+00	0	34	101	1048576	56	6110
2026-01-06 13:51:21.96	109.66	44.81	-39.3	-40.4	22.6	0.00e+00	0	34	101	1048576	56	6216
2026-01-06 13:51:22.97	110.19	44.75	-39.7	-40.8	22.4	0.00e+00	0	34	101	1048576	56	6506
2026-01-06 13:51:23.98	110.72	44.69	-39.9	-40.9	22.4	0.00e+00	0	34	101	1048576	56	6618
2026-01-06 13:51:24.99	111.25	44.63	-39.8	-40.8	22.5	0.00e+00	0	34	101	1048576	56	6517
2026-01-06 13:51:26.00	111.78	44.57	-39.8	-40.8	22.4	0.00e+00	0	34	101	1048576	56	6543
2026-01-06 13:51:27.01	112.31	44.50	-39.7	-40.7	22.5	0.00e+00	0	34	101	1048576	56	6435
2026-01-06 13:51:28.02	112.83	44.43	-39.3	-40.3	22.7	0.00e+00	0	34	101	1048576	56	6169
2026-01-06 13:51:29.03	113.35	44.36	-39.4	-40.4	22.7	0.00e+00	0	34	101	1048576	56	6265
2026-01-06 13:51:30.04	113.87	44.29	-39.6	-40.6	22.7	0.00e+00	0	34	101	1048576	56	6383
2026-01-06 13:51:31.05	114.39	44.21	-39.7	-40.7	22.6	0.00e+00	0	34	101	1048576	56	6435
2026-01-06 13:51:32.07	114.91	44.13	-40.1	-41.2	22.2	0.00e+00	0	34	101	1048576	56	6834
2026-01-06 13:51:33.08	115.42	44.05	-40.1	-41.1	22.0	0.00e+00	0	34	101	1048576	58	6062
2026-01-06 13:51:34.09	115.93	43.96	-39.8	-40.9	22.4	0.00e+00	0	34	101	1048576	58	5870
2026-01-06 13:51:35.10	116.44	43.88	-39.0	-39.9	23.2	0.00e+00	0	34	101	1048576	56	5893
2026-01-06 13:51:36.11	116.94	43.79	-38.7	-39.7	23.4	0.00e+00	0	34	101	1048576	56	5727
2026-01-06 13:51:37.12	117.44	43.70	-39.0	-40.0	23.1	0.00e+00	0	34	101	1048576	56	5929
2026-01-06 13:51:38.13	117.94	43.61	-39.5	-40.5	22.7	0.00e+00	0	34	101	1048576	56	6308
2026-01-06 13:51:39.14	118.44	43.51	-39.6	-40.6	22.6	0.00e+00	0	34	101	1048576	56	6370
2026-01-06 13:51:40.16	118.93	43.41	-39.5	-40.4	22.6	0.00e+00	0	34	101	1048576	56	6274
2026-01-06 13:51:41.17	119.42	43.32	-39.6	-40.6	22.4	0.00e+00	0	34	101	1048576	56	6378
2026-01-06 13:51:42.18	119.91	43.22	-39.8	-40.8	22.5	0.00e+00	0	34	101	1048576	56	6520
2026-01-06 13:51:43.19	120.39	43.11	-39.7	-40.7	22.6	0.00e+00	0	34	101	1048576	56	6483
2026-01-06 13:51:44.20	120.87	43.01	-39.7	-40.7	22.6	0.00e+00	0	34	101	1048576	56	6429
2026-01-06 13:51:45.21	121.35	42.90	-39.8	-40.8	22.5	0.00e+00	0	34	101	1048576	56	6514
2026-01-06 13:51:46.22	121.83	42.79	-39.9	-41.0	22.1	0.00e+00	0	34	101	1048576	56	6658
2026-01-06 13:51:47.23	122.30	42.68	-40.1	-41.2	21.9	0.00e+00	0	34	101	1048576	56	6807
2026-01-06 13:51:48.24	122.76	42.57	-39.9	-41.0	22.1	0.00e+00	0	34	101	1048576	56	6666
2026-01-06 13:51:49.25	123.23	42.46	-39.6	-40.7	22.4	0.00e+00	0	34	101	1048576	56	6433
2026-01-06 13:51:50.26	123.69	42.34	-39.3	-40.4	22.8	0.00e+00	0	34	101	1048576	56	6207
2026-01-06 13:51:51.27	124.15	42.22	-39.0	-39.9	23.2	0.00e+00	0	34	101	1048576	56	5926
2026-01-06 13:51:52.28	124.60	42.11	-39.0	-40.0	23.2	0.00e+00	0	34	101	1048576	56	5936
2026-01-06 13:51:53.29	125.05	41.99	-39.2	-40.1	23.0	0.00e+00	0	34	101	1048576	56	6042
2026-01-06 13:51:54.30	125.50	41.86	-39.0	-40.0	23.2	0.00e+00	0	34	101	1048576	56	5939
2026-01-06 13:51:55.31	125.95	41.74	-39.3	-40.2	23.0	0.00e+00	0	34	101	1048576	56	6128
2026-01-06 13:51:56.33	126.39	41.61	-39.2	-40.2	23.0	0.00e+00	0	34	101	1048576	56	6095
2026-01-06 13:51:57.34	126.83	41.49	-39.1	-40.1	23.0	0.00e+00	0	34	101	1048576	56	6051
2026-01-06 13:51:58.35	127.27	41.36	-38.9	-39.9	23.2	0.00e+00	0	34	101	1048576	56	5899
2026-01-06 13:51:59.36	127.70	41.23	-38.7	-39.6	23.3	0.00e+00	0	34	101	1048576	56	5707
2026-01-06 13:52:00.37	128.13	41.10	-38.5	-39.5	23.5	0.00e+00	0	34	101	1048576	56	5610
2026-01-06 13:52:01.38	128.55	40.97	-39.0	-39.9	23.0	0.00e+00	0	34	101	1048576	56	5916
2026-01-06 13:52:02.39	128.97	40.84	-39.1	-40.1	22.7	0.00e+00	0	34	101	1048576	56	6027
2026-01-06 13:52:03.40	129.39	40.70	-39.5	-40.6	22.7	0.00e+00	0	34	101	1048576	56	6363
2026-01-06 13:52:04.41	129.80	40.57	-39.3	-40.3	23.0	0.00e+00	0	34	101	1048576	56	6145
2026-01-06 13:52:05.42	130.21	40.43	-39.2	-40.2	23.0	0.00e+00	0	34	101	1048576	56	6074
2026-01-06 13:52:06.43	130.62	40.29	-39.5	-40.6	22.7	0.00e+00	0	34	101	1048576	56	6351
2026-01-06 13:52:07.44	131.03	40.16	-39.5	-40.5	22.8	0.00e+00	0	34	101	1048576	56	6303
2026-01-06 13:52:08.45	131.43	40.02	-39.6	-40.6	22.7	0.00e+00	0	34	101	1048576	56	6372
2026-01-06 13:52:09.46	131.82	39.88	-39.6	-40.6	22.6	0.00e+00	0	34	101	1048576	56	6365
2026-01-06 13:52:10.47	132.22	39.73	-40.0	-41.0	22.3	0.00e+00	0	34	101	1048576	56	6701
2026-01-06 13:52:11.48	132.61	39.59	-40.1	-41.2	22.1	0.00e+00	0	34	101	1048576	58	6078
2026-01-06 13:52:12.50	133.00	39.45	-40.0	-41.0	22.3	0.00e+00	0	34	101	1048576	58	5959
2026-01-06 13:52:13.51	133.38	39.30	-40.0	-41.0	22.3	0.00e+00	0	34	101	1048576	58	5963
2026-01-06 13:52:14.52	133.76	39.16	-39.7	-40.7	22.5	0.00e+00	0	34	101	1048576	58	5759
2026-01-06 13:52:15.53	134.14	39.01	-39.8	-40.8	22.4	0.00e+00	0	34	101	1048576	58	5813
2026-01-06 13:52:16.54	134.51	38.87	-39.3	-40.3	22.9	0.00e+00	0	34	101	1048576	58	5520
2026-01-06 13:52:17.55	134.88	38.72	-39.3	-40.3	22.9	0.00e+00	0	34	101	1048576	58	5513
2026-01-06 13:52:18.56	135.25	38.57	-39.2	-40.2	23.0	0.00e+00	0	34	101	1048576	56	6087
2026-01-06 13:52:19.57	135.62	38.43	-39.3	-40.2	22.9	0.00e+00	0	34	101	1048576	56	6129
2026-01-06 13:52:20.58	135.98	38.28	-39.2	-40.1	23.0	0.00e+00	0	34	101	1048576	56	6050
2026-01-06 13:52:21.59	136.33	38.13	-39.0	-39.9	23.1	0.00e+00	0	34	101	1048576	56	5924
2026-01-06 13:52:22.61	136.69	37.98	-38.9	-39.8	23.2	0.00e+00	0	34	101	1048576	56	5838
2026-01-06 13:52:23.62	137.04	37.83	-38.6	-39.6	23.4	0.00e+00	0	34	101	1048576	56	5678
2026-01-06 13:52:24.63	137.39	37.67	-38.5	-39.5	23.4	0.00e+00	0	34	101	1048576	56	5618
2026-01-06 13:52:25.64	137.74	37.52	-38.4	-39.4	23.6	0.00e+00	0	34	101	1048576	56	5550
2026-01-06 13:52:26.65	138.08	37.37	-38.1	-39.0	23.8	0.00e+00	0	34	101	1048576	54	5965
2026-01-06 13:52:27.66	138.42	37.22	-38.1	-39.1	23.8	0.00e+00	0	34	101	1048576	54	5996
2026-01-06 13:52:28.67	138.75	37.07	-38.1	-39.0	23.9	0.00e+00	0	34	101	1048576	54	5979
2026-01-06 13:52:29.68	139.08	36.91	-38.2	-39.1	23.8	0.00e+00	0	34	101	1048576	54	6064
2026-01-06 13:52:30.69	139.41	36.76	-38.1	-39.0	23.9	0.00e+00	0	34	101	1048576	54	5959
2026-01-06 13:52:31.70	139.74	36.61	-38.1	-39.0	23.9	0.00e+00	0	34	101	1048576	54	5963
2026-01-06 13:52:32.71	140.06	36.45	-37.8	-38.7	24.0	0.00e+00	0	34	101	1048576	54	5762
2026-01-06 13:52:33.72	140.38	36.30	-37.9	-38.8	23.9	0.00e+00	0	34	101	1048576	54	5813
2026-01-06 13:52:34.73	140.70	36.14	-37.8	-38.7	24.0	0.00e+00	0	34	101	1048576	54	5745
2026-01-06 13:52:35.74	141.01	35.99	-37.6	-38.5	24.2	0.00e+00	0	34	101	1048576	54	5629
2026-01-06 13:52:36.75	141.33	35.83	-37.5	-38.4	24.3	0.00e+00	0	34	101	1048576	54	5571
2026-01-06 13:52:37.76	141.63	35.68	-37.6	-38.5	24.3	0.00e+00	0	34	101	1048576	54	5616
2026-01-06 13:52:38.77	141.94	35.52	-37.6	-38.5	24.2	0.00e+00	0	34	101	1048576	54	5606
2026-01-06 13:52:39.78	142.24	35.37	-37.6	-38.5	24.1	0.00e+00	0	34	101	1048576	54	5650
2026-01-06 13:52:40.79	142.54	35.21	-38.0	-38.9	23.8	0.00e+00	0	34	101	1048576	54	5900
2026-01-06 13:52:41.80	142.84	35.06	-38.0	-38.9	23.8	0.00e+00	0	34	101	1048576	54	5925
2026-01-06 13:52:42.81	143.13	34.90	-38.0	-38.9	23.8	0.00e+00	0	34	101	1048576	54	5899
2026-01-06 13:52:43.83	143.43	34.75	-38.0	-38.9	23.7	0.00e+00	0	34	101	1048576	54	5900
2026-01-06 13:52:44.84	143.72	34.59	-38.0	-38.9	23.8	0.00e+00	0	34	101	1048576	54	5899
2026-01-06 13:52:45.85	144.00	34.43	-37.8	-38.7	23.9	0.00e+00	0	34	101	1048576	54	5787
2026-01-06 13:52:46.86	144.29	34.28	-37.8	-38.8	23.9	0.00e+00	0	34	101	1048576	54	5801
2026-01-06 13:52:47.87	144.57	34.12	-37.7	-38.6	23.9	0.00e+00	0	34	101	1048576	54	5690
2026-01-06 13:52:48.88	144.85	33.97	-37.7	-38.6	24.1	0.00e+00	0	34	101	1048576	54	5696
2026-01-06 13:52:49.89	145.12	33.81	-37.8	-38.7	24.0	0.00e+00	0	34	101	1048576	54	5745
2026-01-06 13:52:50.90	145.40	33.66	-38.0	-39.0	23.9	0.00e+00	0	34	101	1048576	54	5940
2026-01-06 13:52:51.91	145.67	33.50	-38.1	-39.1	23.7	0.00e+00	0	34	101	1048576	54	6011
2026-01-06 13:52:52.92	145.93	33.35	-38.1	-39.0	23.8	0.00e+00	0	34	101	1048576	54	5965
2026-01-06 13:52:53.93	146.20	33.19	-38.0	-39.0	23.8	0.00e+00	0	34	101	1048576	54	5942
2026-01-06 13:52:54.94	146.46	33.04	-38.2	-39.1	23.8	0.00e+00	0	34	101	1048576	54	6040
2026-01-06 13:52:55.95	146.72	32.88	-37.8	-38.7	24.1	0.00e+00	0	34	101	1048576	54	5760
2026-01-06 13:52:56.96	146.98	32.73	-37.6	-38.5	24.2	0.00e+00	0	34	101	1048576	54	5629
2026-01-06 13:52:57.97	147.24	32.57	-37.6	-38.5	24.1	0.00e+00	0	34	101	1048576	54	5648
2026-01-06 13:52:58.98	147.49	32.42	-37.6	-38.5	24.2	0.00e+00	0	34	101	1048576	54	5631
2026-01-06 13:53:00.00	147.75	32.26	-37.5	-38.5	24.3	0.00e+00	0	34	101	1048576	54	5601
2026-01-06 13:53:01.01	147.99	32.11	-37.2	-38.1	24.6	0.00e+00	0	34	101	1048576	54	5356
2026-01-06 13:53:02.02	148.24	31.95	-37.2	-38.1	24.6	0.00e+00	0	34	101	1048576	52	6048
2026-01-06 13:53:03.03	148.48	31.80	-37.1	-38.0	24.6	0.00e+00	0	34	101	1048576	52	5950
2026-01-06 13:53:04.04	148.73	31.65	-36.8	-37.7	24.8	0.00e+00	0	34	101	1048576	52	5734
2026-01-06 13:53:05.05	148.97	31.49	-36.8	-37.7	24.8	0.00e+00	0	34	101	1048576	52	5745
2026-01-06 13:53:06.06	149.20	31.34	-36.6	-37.5	24.9	0.00e+00	0	34	101	1048576	52	5634
2026-01-06 13:53:07.07	149.44	31.19	-36.6	-37.5	24.9	0.00e+00	0	34	101	1048576	52	5629
2026-01-06 13:53:08.08	149.67	31.04	-36.7	-37.6	24.9	0.00e+00	0	34	101	1048576	52	5660
2026-01-06 13:53:09.09	149.90	30.88	-36.7	-37.6	24.8	0.00e+00	0	34	101	1048576	52	5716
2026-01-06 13:53:10.10	150.13	30.73	-36.9	-37.8	24.7	0.00e+00	0	34	101	1048576	52	5804
2026-01-06 13:53:11.11	150.36	30.58	-36.8	-37.7	24.8	0.00e+00	0	34	101	1048576	52	5767
2026-01-06 13:53:12.12	150.58	30.43	-36.8	-37.7	24.6	0.00e+00	0	34	101	1048576	52	5743
2026-01-06 13:53:13.14	150.81	30.28	-37.0	-37.9	24.5	0.00e+00	0	34	101	1048576	52	5860
2026-01-06 13:53:14.15	151.03	30.13	-37.0	-37.9	24.5	0.00e+00	0	34	101	1048576	52	5868
2026-01-06 13:53:15.16	151.25	29.98	-37.0	-37.8	24.5	0.00e+00	0	34	101	1048576	52	5856
2026-01-06 13:53:16.17	151.47	29.83	-37.0	-37.9	24.5	0.00e+00	0	34	101	1048576	52	5924
2026-01-06 13:53:17.18	151.68	29.68	-37.1	-38.0	24.5	0.00e+00	0	34	101	1048576	52	5980
2026-01-06 13:53:18.19	151.89	29.53	-37.2	-38.1	24.4	0.00e+00	0	34	101	1048576	52	6052
2026-01-06 13:53:19.19	152.10	29.38	-37.3	-38.2	24.3	0.00e+00	0	34	101	1048576	52	6114
2026-01-06 13:53:20.20	152.31	29.23	-37.5	-38.4	24.1	0.00e+00	0	34	101	1048576	52	6249
2026-01-06 13:53:21.21	152.52	29.09	-37.7	-38.6	24.1	0.00e+00	0	34	101	1048576	52	6401
2026-01-06 13:53:22.22	152.72	28.94	-37.4	-38.3	24.3	0.00e+00	0	34	101	1048576	52	6159
2026-01-06 13:53:23.23	152.93	28.79	-37.4	-38.3	24.2	0.00e+00	0	34	101	1048576	52	6199
2026-01-06 13:53:24.23	153.13	28.65	-37.4	-38.3	24.2	0.00e+00	0	34	101	1048576	52	6142
2026-01-06 13:53:25.24	153.33	28.50	-37.3	-38.2	24.2	0.00e+00	0	34	101	1048576	52	6124
2026-01-06 13:53:26.25	153.53	28.35	-37.4	-38.4	24.1	0.00e+00	0	34	101	1048576	52	6206
2026-01-06 13:53:27.26	153.72	28.21	-37.1	-38.0	24.3	0.00e+00	0	34	101	1048576	52	5980
2026-01-06 13:53:28.27	153.92	28.06	-37.2	-38.1	24.3	0.00e+00	0	34	101	1048576	52	6020
2026-01-06 13:53:29.28	154.11	27.92	-37.1	-38.0	24.5	0.00e+00	0	34	101	1048576	52	5933
2026-01-06 13:53:30.29	154.30	27.77	-37.1	-38.0	24.4	0.00e+00	0	34	101	1048576	52	5941
2026-01-06 13:53:31.30	154.49	27.63	-37.0	-37.9	24.6	0.00e+00	0	34	101	1048576	52	5913
2026-01-06 13:53:32.30	154.68	27.49	-37.1	-38.0	24.6	0.00e+00	0	34	101	1048576	52	5933
2026-01-06 13:53:33.31	154.86	27.35	-36.7	-37.6	24.8	0.00e+00	0	34	101	1048576	52	5684
2026-01-06 13:53:34.32	155.05	27.20	-36.8	-37.7	24.8	0.00e+00	0	34	101	1048576	52	5735
2026-01-06 13:53:35.33	155.23	27.06	-36.6	-37.4	24.9	0.00e+00	0	34	101	1048576	52	5567
2026-01-06 13:53:36.34	155.41	26.92	-36.5	-37.4	24.9	0.00e+00	0	34	101	1048576	52	5566
2026-01-06 13:53:37.34	155.59	26.78	-36.5	-37.3	24.9	0.00e+00	0	34	101	1048576	52	5524
2026-01-06 13:53:38.35	155.77	26.64	-36.4	-37.3	24.9	0.00e+00	0	34	101	1048576	52	5504
2026-01-06 13:53:39.36	155.95	26.50	-36.6	-37.4	24.9	0.00e+00	0	34	101	1048576	52	5588
2026-01-06 13:53:40.37	156.12	26.36	-36.7	-37.6	24.8	0.00e+00	0	34	101	1048576	52	5671
2026-01-06 13:53:41.38	156.30	26.22	-36.8	-37.7	24.7	0.00e+00	0	34	101	1048576	52	5789
2026-01-06 13:53:42.39	156.47	26.08	-36.8	-37.7	24.7	0.00e+00	0	34	101	1048576	52	5774
2026-01-06 13:53:43.40	156.64	25.94	-36.9	-37.8	24.7	0.00e+00	0	34	101	1048576	52	5835
2026-01-06 13:53:44.41	156.81	25.80	-36.8	-37.7	24.7	0.00e+00	0	34	101	1048576	52	5746
2026-01-06 13:53:45.41	156.98	25.67	-36.7	-37.6	24.8	0.00e+00	0	34	101	1048576	52	5689
2026-01-06 13:53:46.42	157.14	25.53	-36.7	-37.6	24.7	0.00e+00	0	34	101	1048576	52	5705
2026-01-06 13:53:47.43	157.31	25.39	-36.3	-37.2	24.9	0.00e+00	0	34	101	1048576	52	5435
2026-01-06 13:53:48.44	157.47	25.26	-36.3	-37.2	25.0	0.00e+00	0	34	101	1048576	52	5413
2026-01-06 13:53:49.44	157.63	25.12	-36.2	-37.0	24.9	0.00e+00	0	34	101	1048576	52	5329
2026-01-06 13:53:50.45	157.80	24.99	-36.2	-37.1	24.8	0.00e+00	0	34	101	1048576	52	5358
2026-01-06 13:53:51.46	157.96	24.85	-36.2	-37.1	25.0	0.00e+00	0	34	101	1048576	52	5348
2026-01-06 13:53:52.47	158.11	24.72	-36.2	-37.1	24.9	0.00e+00	0	34	101	1048576	52	5383
2026-01-06 13:53:53.48	158.27	24.58	-36.2	-37.1	24.8	0.00e+00	0	34	101	1048576	52	5388
2026-01-06 13:53:54.49	158.43	24.45	-36.3	-37.2	24.8	0.00e+00	0	34	101	1048576	52	5459
2026-01-06 13:53:55.50	158.58	24.32	-36.5	-37.4	24.8	0.00e+00	0	34	101	1048576	52	5536
2026-01-06 13:53:56.51	158.74	24.18	-36.5	-37.4	24.8	0.00e+00	0	34	101	1048576	52	5577
2026-01-06 13:53:57.51	158.89	24.05	-36.5	-37.4	24.7	0.00e+00	0	34	101	1048576	52	5547
2026-01-06 13:53:58.52	159.04	23.92	-36.6	-37.5	24.8	0.00e+00	0	34	101	1048576	52	5637
2026-01-06 13:53:59.53	159.19	23.79	-36.5	-37.4	24.8	0.00e+00	0	34	101	1048576	52	5563
2026-01-06 13:54:00.54	159.34	23.66	-36.4	-37.3	25.0	0.00e+00	0	34	101	1048576	52	5480
2026-01-06 13:54:01.55	159.48	23.53	-36.4	-37.2	24.9	0.00e+00	0	34	101	1048576	52	5462
2026-01-06 13:54:02.56	159.63	23.40	-36.5	-37.4	24.7	0.00e+00	0	34	101	1048576	52	5538
2026-01-06 13:54:03.56	159.77	23.27	-36.5	-37.4	24.7	0.00e+00	0	34	101	1048576	52	5576
2026-01-06 13:54:04.57	159.92	23.14	-36.5	-37.4	24.6	0.00e+00	0	34	101	1048576	52	5537
2026-01-06 13:54:05.58	160.06	23.01	-36.6	-37.5	24.5	0.00e+00	0	34	101	1048576	52	5602
2026-01-06 13:54:06.59	160.20	22.89	-36.6	-37.5	24.5	0.00e+00	0	34	101	1048576	52	5632
2026-01-06 13:54:07.60	160.34	22.76	-36.7	-37.6	24.5	0.00e+00	0	34	101	1048576	52	5682
2026-01-06 13:54:08.61	160.48	22.63	-36.7	-37.6	24.5	0.00e+00	0	34	101	1048576	52	5661
2026-01-06 13:54:09.86	160.65	22.47	-36.8	-37.6	24.5	0.00e+00	0	34	101	1048576	52	5723
2026-01-06 13:54:10.61	160.75	22.38	-36.7	-37.6	24.6	0.00e+00	0	34	101	1048576	52	5698
2026-01-06 13:54:11.91	160.93	22.22	-36.7	-37.6	24.7	0.00e+00	0	34	101	1048576	52	5685
2026-01-06 13:54:12.63	161.03	22.13	-36.7	-37.6	24.7	0.00e+00	0	34	101	1048576	52	5708
2026-01-06 13:54:13.92	161.20	21.97	-36.8	-37.7	24.6	0.00e+00	0	34	101	1048576	52	5734
2026-01-06 13:54:14.65	161.29	21.88	-36.8	-37.7	24.6	0.00e+00	0	34	101	1048576	52	5773
2026-01-06 13:54:15.94	161.46	21.72	-37.1	-38.0	24.4	0.00e+00	0	34	101	1048576	52	5954
2026-01-06 13:54:16.67	161.56	21.63	-37.2	-38.1	24.3	0.00e+00	0	34	101	1048576	52	6006
2026-01-06 13:54:17.96	161.72	21.48	-37.4	-38.3	24.2	0.00e+00	0	34	101	1048576	52	6180
2026-01-06 13:54:18.68	161.81	21.39	-37.4	-38.3	24.1	0.00e+00	0	34	101	1048576	52	6192
2026-01-06 13:54:19.98	161.98	21.23	-37.6	-38.5	24.1	0.00e+00	0	34	101	1048576	52	6316
2026-01-06 13:54:20.70	162.07	21.15	-37.6	-38.6	24.1	0.00e+00	0	34	101	1048576	52	6358
2026-01-06 13:54:21.99	162.23	20.99	-37.6	-38.6	24.1	0.00e+00	0	34	101	1048576	52	6364
2026-01-06 13:54:22.71	162.32	20.90	-37.6	-38.5	24.1	0.00e+00	0	34	101	1048576	52	6333
2026-01-06 13:54:24.01	162.48	20.75	-37.5	-38.5	24.1	0.00e+00	0	34	101	1048576	52	6301
2026-01-06 13:54:24.73	162.57	20.66	-37.4	-38.4	24.2	0.00e+00	0	34	101	1048576	52	6226
2026-01-06 13:54:26.03	162.72	20.51	-37.4	-38.4	24.1	0.00e+00	0	34	101	1048576	52	6217
2026-01-06 13:54:26.75	162.81	20.43	-37.5	-38.4	24.1	0.00e+00	0	34	101	1048576	52	6252
2026-01-06 13:54:28.04	162.96	20.27	-37.0	-37.9	24.4	0.00e+00	0	34	101	1048576	52	5910
2026-01-06 13:54:28.76	163.05	20.19	-37.0	-37.9	24.3	0.00e+00	0	34	101	1048576	52	5920
2026-01-06 13:54:30.06	163.20	20.04	-36.9	-37.8	24.4	0.00e+00	0	34	101	1048576	52	5853
2026-01-06 13:54:30.78	163.29	19.96	-36.8	-37.7	24.4	0.00e+00	0	34	101	1048576	52	5772
2026-01-06 13:54:32.08	163.44	19.81	-36.9	-37.8	24.3	0.00e+00	0	34	101	1048576	52	5815
2026-01-06 13:54:32.80	163.52	19.72	-36.8	-37.7	24.5	0.00e+00	0	34	101	1048576	52	5735
2026-01-06 13:54:34.09	163.67	19.57	-36.6	-37.5	24.5	0.00e+00	0	34	101	1048576	52	5630
2026-01-06 13:54:34.81	163.75	19.49	-36.7	-37.6	24.4	0.00e+00	0	34	101	1048576	52	5705
2026-01-06 13:54:36.11	163.90	19.34	-36.6	-37.5	24.6	0.00e+00	0	34	101	1048576	52	5635
2026-01-06 13:54:36.83	163.98	19.26	-36.6	-37.5	24.7	0.00e+00	0	34	101	1048576	52	5643
2026-01-06 13:54:38.13	164.12	19.12	-36.6	-37.4	24.7	0.00e+00	0	34	101	1048576	52	5591
2026-01-06 13:54:38.84	164.20	19.04	-36.6	-37.5	24.8	0.00e+00	0	34	101	1048576	52	5598
2026-01-06 13:54:40.14	164.34	18.89	-36.5	-37.4	24.8	0.00e+00	0	34	101	1048576	52	5576
2026-01-06 13:54:40.86	164.42	18.81	-36.4	-37.3	24.9	0.00e+00	0	34	101	1048576	52	5491
2026-01-06 13:54:42.16	164.56	18.66	-36.4	-37.2	25.0	0.00e+00	0	34	101	1048576	52	5463
2026-01-06 13:54:42.88	164.64	18.58	-36.5	-37.4	24.9	0.00e+00	0	34	101	1048576	52	5542
2026-01-06 13:54:44.18	164.77	18.44	-36.5	-37.4	24.9	0.00e+00	0	34	101	1048576	52	5567
2026-01-06 13:54:44.90	164.85	18.36	-36.6	-37.5	24.8	0.00e+00	0	34	101	1048576	52	5602
2026-01-06 13:54:46.19	164.99	18.22	-36.8	-37.6	24.7	0.00e+00	0	34	101	1048576	52	5716
2026-01-06 13:54:46.91	165.06	18.14	-36.8	-37.7	24.6	0.00e+00	0	34	101	1048576	52	5768
2026-01-06 13:54:48.21	165.19	18.00	-37.1	-38.0	24.5	0.00e+00	0	34	101	1048576	52	5927
2026-01-06 13:54:48.93	165.27	17.92	-37.1	-38.0	24.3	0.00e+00	0	34	101	1048576	52	5977
2026-01-06 13:54:50.23	165.40	17.78	-37.3	-38.2	24.2	0.00e+00	0	34	101	1048576	52	6112
2026-01-06 13:54:50.95	165.47	17.70	-37.4	-38.3	24.2	0.00e+00	0	34	101	1048576	52	6172
2026-01-06 13:54:52.24	165.60	17.56	-37.6	-38.5	24.0	0.00e+00	0	34	101	1048576	52	6325
2026-01-06 13:54:52.96	165.68	17.49	-37.5	-38.5	24.1	0.00e+00	0	34	101	1048576	52	6293
2026-01-06 13:54:54.25	165.80	17.35	-37.7	-38.6	23.9	0.00e+00	0	34	101	1048576	52	6387
2026-01-06 13:54:54.97	165.87	17.27	-37.6	-38.6	23.9	0.00e+00	0	34	101	1048576	52	6363
2026-01-06 13:54:56.27	166.00	17.14	-37.7	-38.7	23.9	0.00e+00	0	34	101	1048576	52	6434
2026-01-06 13:54:56.99	166.07	17.06	-37.8	-38.7	23.8	0.00e+00	0	34	101	1048576	52	6478
2026-01-06 13:54:58.28	166.20	16.92	-37.8	-38.7	23.7	0.00e+00	0	34	101	1048576	52	6484
2026-01-06 13:54:59.01	166.27	16.85	-37.8	-38.7	23.8	0.00e+00	0	34	101	1048576	52	6461
2026-01-06 13:55:00.30	166.39	16.71	-37.6	-38.6	23.8	0.00e+00	0	34	101	1048576	52	6355
2026-01-06 13:55:01.03	166.46	16.64	-37.5	-38.5	23.8	0.00e+00	0	34	101	1048576	52	6279
2026-01-06 13:55:02.32	166.58	16.50	-37.4	-38.3	24.0	0.00e+00	0	34	101	1048576	52	6196
