passes_logs/2026/01/06/R4.6S_Anadyr_2ch/R4.6S_Anadyr_2ch__20260106_175356_AQUA_rec.log

#Pass ID: 20260106_175356_AQUA
#Satellite: AQUA
#Configuration: AQUA
#almurnet v.1.7.20251203
#Start time: 2026-01-06 17:53:57

#Version: 2.2.20231116
#Station: R4.6S_Anadyr_2ch
#Location: 177.4865 lon 64.73178 lat
#TLE: 1 27424U 02022A   25351.00450321  .00000925  00000+0  19503-3 0  9992
#TLE: 2 27424  98.4041 311.9529 0001248 113.7180 322.1616 14.61819266256652

#Time	Az	El	Level	Level2	SNR	BER	BlckErr	Temp	State	Recorded	gain1	gain2
2026-01-06 17:53:57.08	22.75	0.05	-51.0	-66.0	3.5	1.51e+00	0	28	0	0	60	97670
2026-01-06 17:53:58.08	22.71	0.11	-51.3	-69.1	3.5	3.02e+01	0	30	104	0	60	147726
2026-01-06 17:53:59.09	22.67	0.16	-51.3	-69.1	3.5	3.02e+01	0	30	104	0	60	148735
2026-01-06 17:54:00.10	22.62	0.22	-51.3	-69.1	3.5	3.02e+01	0	30	104	0	60	147793
2026-01-06 17:54:01.11	22.58	0.28	-51.3	-69.1	3.5	3.02e+01	0	30	104	0	60	147606
2026-01-06 17:54:02.12	22.53	0.34	-51.3	-69.1	3.5	3.02e+01	0	30	104	0	60	147828
2026-01-06 17:54:03.13	22.49	0.40	-51.3	-69.1	3.5	3.02e+01	0	30	104	0	60	148177
2026-01-06 17:54:04.13	22.44	0.46	-51.3	-69.1	3.6	3.02e+01	0	30	104	0	60	147356
2026-01-06 17:54:05.14	22.40	0.52	-51.2	-69.1	3.5	3.02e+01	0	30	104	0	60	147190
2026-01-06 17:54:06.15	22.35	0.58	-51.2	-69.1	3.5	3.02e+01	0	30	104	0	60	147280
2026-01-06 17:54:07.16	22.30	0.64	-51.3	-69.1	3.5	3.02e+01	0	30	104	0	60	147436
2026-01-06 17:54:08.16	22.26	0.70	-51.3	-69.1	3.5	3.02e+01	0	30	104	0	60	148034
2026-01-06 17:54:09.17	22.21	0.76	-51.3	-69.1	3.5	3.02e+01	0	30	104	0	60	147671
2026-01-06 17:54:10.18	22.16	0.82	-51.3	-69.1	3.5	3.02e+01	0	30	104	0	60	147972
2026-01-06 17:54:10.91	22.13	0.87	-51.3	-69.1	3.5	3.02e+01	0	30	104	0	60	147816
2026-01-06 17:54:12.20	22.07	0.94	-51.3	-69.1	3.5	3.02e+01	0	30	104	0	60	147985
2026-01-06 17:54:12.92	22.04	0.99	-51.3	-69.1	3.5	3.02e+01	0	30	104	0	60	147526
2026-01-06 17:54:14.21	21.97	1.06	-51.3	-69.1	3.5	3.02e+01	0	30	104	0	60	147680
2026-01-06 17:54:14.93	21.94	1.11	-51.3	-69.1	3.5	3.02e+01	0	30	104	0	60	147694
2026-01-06 17:54:16.23	21.88	1.19	-51.3	-69.1	3.5	3.02e+01	0	30	104	0	60	148359
2026-01-06 17:54:16.95	21.84	1.23	-51.3	-69.2	3.5	3.02e+01	0	30	104	0	60	149044
2026-01-06 17:54:18.25	21.78	1.31	-51.3	-69.1	3.5	3.02e+01	0	30	104	0	60	148301
2026-01-06 17:54:18.97	21.75	1.35	-51.3	-69.1	3.5	3.02e+01	0	30	104	0	60	148159
2026-01-06 17:54:20.26	21.68	1.43	-51.3	-69.1	3.5	3.02e+01	0	30	104	0	60	148147
2026-01-06 17:54:20.98	21.65	1.48	-51.3	-69.1	3.5	3.02e+01	0	30	104	0	60	148162
2026-01-06 17:54:22.27	21.58	1.55	-51.3	-69.1	3.5	3.02e+01	0	30	104	0	60	147964
2026-01-06 17:54:22.99	21.55	1.60	-51.3	-69.2	3.5	3.02e+01	0	30	104	0	60	149492
2026-01-06 17:54:24.29	21.48	1.68	-51.3	-69.2	3.5	3.02e+01	0	30	104	0	60	148870
2026-01-06 17:54:25.01	21.45	1.72	-51.3	-69.1	3.5	3.02e+01	0	30	104	0	60	148148
2026-01-06 17:54:26.30	21.38	1.80	-51.3	-69.1	3.5	3.02e+01	0	30	104	0	60	148271
2026-01-06 17:54:27.02	21.35	1.85	-51.3	-69.1	3.5	3.02e+01	0	30	104	0	60	147380
2026-01-06 17:54:28.32	21.28	1.93	-51.4	-69.2	3.5	3.02e+01	0	30	104	0	60	148906
2026-01-06 17:54:29.04	21.24	1.97	-51.3	-69.1	3.5	3.02e+01	0	30	104	0	60	148262
2026-01-06 17:54:30.33	21.18	2.05	-51.3	-69.2	3.5	3.02e+01	0	30	104	0	60	148894
2026-01-06 17:54:31.05	21.14	2.10	-51.3	-69.1	3.5	3.02e+01	0	30	104	0	60	148045
2026-01-06 17:54:32.34	21.07	2.18	-51.3	-69.2	3.5	3.02e+01	0	30	104	0	60	149384
2026-01-06 17:54:33.07	21.04	2.22	-51.3	-69.1	3.5	3.02e+01	0	30	104	0	60	148470
2026-01-06 17:54:34.36	20.97	2.31	-51.3	-69.1	3.5	3.02e+01	0	30	104	0	60	148348
2026-01-06 17:54:35.08	20.93	2.35	-51.3	-69.1	3.5	3.02e+01	0	30	104	0	60	148076
2026-01-06 17:54:36.38	20.86	2.43	-51.4	-69.2	3.5	3.02e+01	0	30	104	0	60	149712
2026-01-06 17:54:37.09	20.83	2.48	-51.3	-69.1	3.5	3.02e+01	0	30	104	0	60	148091
2026-01-06 17:54:38.39	20.76	2.56	-51.3	-69.1	3.5	3.02e+01	0	30	104	0	60	147908
2026-01-06 17:54:39.11	20.72	2.61	-51.3	-69.2	3.5	3.02e+01	0	30	104	0	60	148866
2026-01-06 17:54:40.41	20.65	2.69	-51.3	-69.1	3.5	3.02e+01	0	30	104	0	60	148122
2026-01-06 17:54:41.13	20.61	2.73	-51.3	-69.1	3.5	3.02e+01	0	30	104	0	60	148203
2026-01-06 17:54:42.42	20.54	2.82	-51.3	-69.1	3.5	3.02e+01	0	30	104	0	60	148170
2026-01-06 17:54:43.14	20.50	2.86	-51.3	-69.1	3.5	3.02e+01	0	30	104	0	60	147958
2026-01-06 17:54:44.44	20.43	2.95	-51.3	-69.1	3.5	3.02e+01	0	30	104	0	60	148101
2026-01-06 17:54:45.16	20.39	2.99	-51.3	-69.1	3.5	3.02e+01	0	30	104	0	60	148730
2026-01-06 17:54:46.45	20.32	3.08	-51.3	-69.1	3.5	3.02e+01	0	30	104	0	60	148784
2026-01-06 17:54:47.17	20.28	3.12	-51.3	-69.1	3.5	3.02e+01	0	30	104	0	60	148224
2026-01-06 17:54:48.46	20.20	3.21	-51.3	-69.1	3.5	3.02e+01	0	30	104	0	60	147670
2026-01-06 17:54:49.18	20.16	3.25	-51.3	-69.1	3.5	3.02e+01	0	30	104	0	60	148320
2026-01-06 17:54:50.48	20.09	3.34	-51.3	-69.1	3.5	3.02e+01	0	30	104	0	60	147713
2026-01-06 17:54:51.20	20.05	3.38	-51.3	-69.2	3.5	3.02e+01	0	30	104	0	60	149157
2026-01-06 17:54:52.49	19.97	3.47	-51.3	-69.1	3.5	3.02e+01	0	31	104	0	60	147896
2026-01-06 17:54:53.21	19.93	3.52	-51.3	-69.2	3.5	3.02e+01	0	30	104	0	60	148906
2026-01-06 17:54:54.51	19.86	3.60	-51.3	-69.2	3.5	3.02e+01	0	30	104	0	60	149556
2026-01-06 17:54:55.23	19.82	3.65	-51.4	-69.2	3.5	3.02e+01	0	30	104	0	60	150565
2026-01-06 17:54:56.52	19.74	3.73	-51.4	-69.2	3.5	3.02e+01	0	30	104	0	60	149872
2026-01-06 17:54:57.24	19.70	3.78	-51.4	-69.2	3.5	3.02e+01	0	31	104	0	60	150154
2026-01-06 17:54:58.54	19.62	3.87	-51.4	-69.2	3.5	3.02e+01	0	31	104	0	60	150192
2026-01-06 17:54:59.26	19.58	3.92	-51.4	-69.4	3.5	3.02e+01	0	31	104	0	60	152541
2026-01-06 17:55:00.55	19.50	4.00	-51.4	-69.3	3.5	3.02e+01	0	30	104	0	60	151323
2026-01-06 17:55:01.27	19.46	4.05	-51.3	-69.3	3.5	3.02e+01	0	30	104	0	60	151276
2026-01-06 17:55:02.57	19.38	4.14	-51.4	-69.2	3.5	3.02e+01	0	31	104	0	60	150195
2026-01-06 17:55:03.29	19.34	4.18	-51.2	-69.2	3.5	3.02e+01	0	31	104	0	60	148980
2026-01-06 17:55:04.58	19.26	4.27	-50.7	-69.0	3.5	3.02e+01	0	31	104	0	60	146696
2026-01-06 17:55:05.31	19.21	4.32	-51.1	-69.0	3.5	3.02e+01	0	31	104	0	60	145693
2026-01-06 17:55:06.60	19.13	4.41	-50.5	-68.7	3.5	3.02e+01	0	30	104	0	60	141147
2026-01-06 17:55:07.32	19.09	4.46	-50.6	-68.6	3.5	3.02e+01	0	31	104	0	60	139467
2026-01-06 17:55:08.61	19.01	4.54	-50.4	-68.3	3.5	3.02e+01	0	31	104	0	60	134885
2026-01-06 17:55:09.33	18.96	4.59	-50.1	-68.0	3.5	3.02e+01	0	31	104	0	60	130847
2026-01-06 17:55:10.63	18.88	4.68	-50.0	-67.9	3.5	3.02e+01	0	31	104	0	60	128615
2026-01-06 17:55:11.35	18.83	4.73	-50.0	-67.8	3.5	3.02e+01	0	31	104	0	60	127617
2026-01-06 17:55:12.64	18.75	4.82	-49.9	-67.8	3.5	3.02e+01	0	31	104	0	60	128003
2026-01-06 17:55:13.36	18.71	4.87	-49.9	-67.8	3.5	3.02e+01	0	31	104	0	60	127605
2026-01-06 17:55:14.66	18.62	4.96	-49.9	-67.9	3.5	3.02e+01	0	31	104	0	60	128687
2026-01-06 17:55:15.38	18.57	5.01	-49.9	-67.8	3.5	3.02e+01	0	31	104	0	60	128125
2026-01-06 17:55:16.68	18.49	5.10	-49.9	-67.9	3.4	3.02e+01	0	31	104	0	60	128458
2026-01-06 17:55:17.40	18.44	5.15	-49.9	-67.8	3.5	3.02e+01	0	31	104	0	60	128025
2026-01-06 17:55:18.69	18.36	5.24	-49.9	-67.8	3.5	3.02e+01	0	31	104	0	60	127775
2026-01-06 17:55:19.41	18.31	5.29	-49.9	-67.9	3.5	3.02e+01	0	31	104	0	60	128546
2026-01-06 17:55:20.71	18.22	5.38	-49.9	-67.8	3.5	3.02e+01	0	31	104	0	60	128129
2026-01-06 17:55:21.43	18.17	5.43	-49.9	-67.8	3.5	3.02e+01	0	31	104	0	60	127696
2026-01-06 17:55:22.72	18.09	5.52	-49.9	-67.9	3.5	3.02e+01	0	31	104	0	60	128872
2026-01-06 17:55:23.44	18.04	5.57	-49.9	-67.8	3.5	3.02e+01	0	31	104	0	60	127600
2026-01-06 17:55:24.74	17.95	5.66	-49.9	-67.8	3.5	3.02e+01	0	31	104	0	60	127997
2026-01-06 17:55:25.46	17.90	5.71	-49.9	-67.8	3.5	3.02e+01	0	31	104	0	60	127305
2026-01-06 17:55:26.75	17.81	5.80	-49.9	-67.8	3.5	3.02e+01	0	31	104	0	60	127659
2026-01-06 17:55:27.47	17.76	5.85	-49.9	-67.8	3.5	3.02e+01	0	31	104	0	60	127800
2026-01-06 17:55:28.77	17.67	5.94	-49.9	-67.7	3.5	3.02e+01	0	31	104	0	60	126029
2026-01-06 17:55:29.49	17.62	6.00	-49.9	-67.7	3.5	3.02e+01	0	31	104	0	60	126013
2026-01-06 17:55:30.78	17.53	6.09	-49.9	-67.6	3.5	3.02e+01	0	31	104	0	60	125095
2026-01-06 17:55:31.50	17.48	6.14	-49.9	-67.6	3.5	3.02e+01	0	31	104	0	60	124675
2026-01-06 17:55:32.80	17.39	6.23	-49.9	-67.6	3.5	3.02e+01	0	31	104	0	60	125119
2026-01-06 17:55:33.52	17.33	6.29	-49.9	-67.7	3.5	3.02e+01	0	31	104	0	60	126651
2026-01-06 17:55:34.81	17.24	6.38	-49.9	-67.8	3.5	3.02e+01	0	31	104	0	60	127330
2026-01-06 17:55:35.53	17.19	6.43	-49.9	-67.9	3.5	3.02e+01	0	31	104	0	60	128282
2026-01-06 17:55:36.83	17.09	6.52	-49.9	-67.8	3.5	3.02e+01	0	31	104	0	60	126907
2026-01-06 17:55:37.55	17.04	6.58	-49.9	-67.8	3.5	3.02e+01	0	31	104	0	60	126722
2026-01-06 17:55:38.84	16.95	6.67	-49.9	-67.8	3.5	3.02e+01	0	31	104	0	60	127470
2026-01-06 17:55:39.56	16.89	6.72	-49.9	-67.8	3.5	3.02e+01	0	31	104	0	60	126916
2026-01-06 17:55:40.86	16.80	6.82	-49.9	-67.6	3.5	3.02e+01	0	31	104	0	60	124404
2026-01-06 17:55:41.58	16.74	6.87	-49.8	-67.4	3.5	3.02e+01	0	31	104	0	60	121525
2026-01-06 17:55:42.87	16.64	6.97	-49.8	-67.1	3.5	3.02e+01	0	31	104	0	60	117423
2026-01-06 17:55:43.59	16.59	7.02	-49.8	-67.1	3.5	3.02e+01	0	31	104	0	60	117965
2026-01-06 17:55:44.89	16.49	7.12	-49.8	-67.4	3.5	3.02e+01	0	31	104	0	60	121543
2026-01-06 17:55:45.61	16.43	7.17	-49.9	-67.6	3.5	3.02e+01	0	31	104	0	60	124989
2026-01-06 17:55:46.90	16.33	7.27	-49.8	-67.2	3.5	3.02e+01	0	31	104	0	60	118663
2026-01-06 17:55:47.62	16.28	7.32	-49.5	-65.9	3.5	3.02e+01	0	31	104	0	60	102707
2026-01-06 17:55:48.91	16.18	7.42	-49.0	-64.0	3.5	3.02e+01	0	31	104	0	60	82023
2026-01-06 17:55:49.64	16.12	7.47	-48.6	-62.7	3.5	3.02e+01	0	31	104	0	60	70633
2026-01-06 17:55:50.93	16.02	7.57	-48.2	-61.7	3.5	3.02e+01	0	31	104	0	60	63356
2026-01-06 17:55:51.65	15.96	7.62	-49.5	-65.4	3.5	3.02e+01	0	31	104	0	60	97168
2026-01-06 17:55:52.95	15.86	7.72	-50.0	-67.7	3.5	3.02e+01	0	31	104	0	60	126494
2026-01-06 17:55:53.67	15.80	7.78	-48.5	-62.3	3.5	3.02e+01	0	31	104	0	60	67415
2026-01-06 17:55:54.97	15.69	7.88	-39.7	-50.1	3.5	3.02e+01	0	31	104	0	60	16600
2026-01-06 17:55:55.69	15.63	7.93	-49.9	-67.6	3.5	3.02e+01	0	31	104	0	60	124430
2026-01-06 17:55:56.99	15.53	8.03	-40.3	-50.7	3.5	3.02e+01	0	31	104	0	60	17826
2026-01-06 17:55:57.71	15.47	8.08	-39.8	-50.3	3.5	3.02e+01	0	31	104	0	60	16922
2026-01-06 17:55:59.01	15.36	8.18	-40.0	-50.4	3.5	3.02e+01	0	31	104	0	60	17147
2026-01-06 17:55:59.74	15.30	8.24	-39.9	-50.3	3.5	3.02e+01	0	31	104	0	60	17064
2026-01-06 17:56:01.03	15.19	8.34	-48.9	-63.2	3.5	3.02e+01	0	31	104	0	60	74703
2026-01-06 17:56:01.76	15.13	8.40	-42.9	-53.7	3.5	3.02e+01	0	31	104	0	60	25270
2026-01-06 17:56:03.06	15.02	8.50	-50.0	-67.4	3.5	3.02e+01	0	31	104	0	60	122146
2026-01-06 17:56:03.78	14.96	8.55	-49.8	-65.9	3.5	3.02e+01	0	31	104	0	60	101884
2026-01-06 17:56:05.08	14.84	8.66	-43.6	-54.6	3.5	3.02e+01	0	31	104	0	60	27749
2026-01-06 17:56:05.80	14.78	8.71	-41.7	-52.3	3.5	3.02e+01	0	31	104	0	60	21454
2026-01-06 17:56:07.10	14.67	8.81	-41.2	-51.8	3.5	3.02e+01	0	31	104	0	60	20106
2026-01-06 17:56:07.82	14.60	8.87	-41.0	-51.5	3.5	3.02e+01	0	31	104	0	60	19507
2026-01-06 17:56:09.11	14.49	8.97	-40.3	-50.7	3.5	3.02e+01	0	31	104	0	60	17869
2026-01-06 17:56:09.84	14.43	9.03	-40.7	-51.2	3.5	3.02e+01	0	31	104	0	60	18761
2026-01-06 17:56:11.14	14.31	9.13	-41.0	-51.5	3.5	3.02e+01	0	31	104	0	60	19428
2026-01-06 17:56:11.86	14.24	9.19	-50.0	-67.1	3.5	3.02e+01	0	31	104	0	60	117439
2026-01-06 17:56:13.16	14.13	9.30	-49.9	-65.9	3.6	3.02e+01	0	31	104	0	60	102784
2026-01-06 17:56:13.88	14.06	9.35	-41.5	-52.1	3.5	3.02e+01	0	31	104	0	60	20905
2026-01-06 17:56:15.18	13.94	9.46	-41.5	-52.0	3.6	3.02e+01	0	31	104	0	60	20553
2026-01-06 17:56:15.90	13.88	9.52	-41.1	-51.6	3.5	3.02e+01	0	31	104	0	60	19820
2026-01-06 17:56:17.20	13.75	9.62	-41.0	-51.5	3.5	3.02e+01	0	31	104	0	60	19547
2026-01-06 17:56:17.92	13.69	9.68	-40.3	-50.7	3.5	3.02e+01	0	31	104	0	60	17822
2026-01-06 17:56:19.22	13.57	9.78	-40.0	-50.4	3.5	3.02e+01	0	31	104	0	60	17250
2026-01-06 17:56:19.94	13.50	9.84	-41.3	-51.8	3.5	3.02e+01	0	31	104	0	60	20239
2026-01-06 17:56:21.24	13.37	9.95	-50.1	-67.2	3.5	3.02e+01	0	31	104	0	60	119191
2026-01-06 17:56:21.96	13.30	10.01	-50.2	-67.7	3.5	3.02e+01	0	31	104	0	60	126667
2026-01-06 17:56:23.26	13.18	10.12	-45.2	-56.6	3.5	3.02e+01	0	31	104	0	60	34967
2026-01-06 17:56:23.98	13.11	10.17	-43.3	-54.1	3.5	3.02e+01	0	31	104	0	60	26334
2026-01-06 17:56:25.28	12.98	10.28	-43.5	-54.4	3.5	3.02e+01	0	31	104	0	60	27126
2026-01-06 17:56:26.00	12.91	10.34	-43.6	-54.5	3.5	3.02e+01	0	31	104	0	60	27556
2026-01-06 17:56:27.30	12.78	10.45	-43.1	-53.8	3.5	3.02e+01	0	31	104	0	60	25531
2026-01-06 17:56:28.02	12.71	10.51	-48.4	-61.8	3.5	3.02e+01	0	31	104	0	60	64122
2026-01-06 17:56:29.32	12.58	10.62	-48.4	-61.6	3.5	3.02e+01	0	31	104	0	60	62651
2026-01-06 17:56:30.05	12.51	10.68	-50.5	-68.2	3.5	3.02e+01	0	31	104	0	60	133086
2026-01-06 17:56:31.35	12.37	10.79	-43.1	-53.8	3.5	3.02e+01	0	31	104	0	60	25434
2026-01-06 17:56:32.07	12.30	10.85	-50.1	-67.1	3.5	3.02e+01	0	31	104	0	60	118174
2026-01-06 17:56:33.37	12.17	10.96	-45.0	-56.3	3.5	3.02e+01	0	31	104	0	60	33929
2026-01-06 17:56:34.09	12.09	11.02	-43.8	-54.7	3.5	3.02e+01	0	31	104	0	60	28074
2026-01-06 17:56:35.39	11.96	11.13	-42.5	-53.2	3.5	3.02e+01	0	31	104	0	60	23686
2026-01-06 17:56:36.11	11.88	11.19	-42.2	-52.9	3.5	3.02e+01	0	31	104	0	60	22908
2026-01-06 17:56:37.41	11.74	11.30	-48.0	-60.9	3.5	3.02e+01	0	31	104	0	60	57525
2026-01-06 17:56:38.13	11.67	11.36	-40.6	-51.0	3.5	3.02e+01	0	31	104	0	60	18487
2026-01-06 17:56:39.43	11.53	11.48	-50.2	-67.3	3.5	3.02e+01	0	31	104	0	60	120908
2026-01-06 17:56:40.15	11.45	11.54	-49.9	-65.8	3.5	3.02e+01	0	31	104	0	60	101775
2026-01-06 17:56:41.45	11.31	11.65	-41.4	-51.9	3.5	3.02e+01	0	31	104	0	60	20490
2026-01-06 17:56:42.17	11.23	11.71	-40.2	-50.6	3.5	3.02e+01	0	31	104	0	60	17611
2026-01-06 17:56:43.47	11.09	11.83	-40.2	-50.6	3.5	3.02e+01	0	31	104	0	60	17494
2026-01-06 17:56:44.19	11.01	11.89	-39.5	-49.8	3.5	3.02e+01	0	31	104	0	60	16111
2026-01-06 17:56:45.49	10.86	12.00	-38.5	-48.8	3.5	3.02e+01	0	31	104	0	58	16064
2026-01-06 17:56:46.21	10.78	12.07	-39.3	-49.6	3.6	3.02e+01	0	31	104	0	58	17637
2026-01-06 17:56:47.51	10.64	12.18	-43.5	-54.3	3.5	3.02e+01	0	31	104	0	60	26832
2026-01-06 17:56:48.23	10.56	12.24	-50.0	-66.6	3.5	3.02e+01	0	31	104	0	60	110516
2026-01-06 17:56:49.53	10.41	12.36	-43.7	-54.5	3.5	3.02e+01	0	31	104	0	60	27602
2026-01-06 17:56:50.25	10.32	12.42	-44.2	-55.2	3.5	3.02e+01	0	31	104	0	60	29858
2026-01-06 17:56:51.55	10.17	12.54	-41.9	-52.5	3.6	3.02e+01	0	31	104	0	60	21777
2026-01-06 17:56:52.27	10.09	12.60	-41.9	-52.4	3.5	3.02e+01	0	31	104	0	60	21705
2026-01-06 17:56:53.57	9.94	12.72	-42.5	-53.1	3.5	3.02e+01	0	31	104	0	60	23557
2026-01-06 17:56:54.29	9.85	12.78	-41.1	-51.5	3.6	3.02e+01	0	31	104	0	60	19565
2026-01-06 17:56:55.59	9.70	12.90	-43.8	-54.6	3.5	3.02e+01	0	31	104	0	60	27844
2026-01-06 17:56:56.31	9.61	12.96	-47.9	-60.5	3.5	3.02e+01	0	31	104	0	60	55304
2026-01-06 17:56:57.61	9.45	13.08	-46.1	-57.8	3.5	3.02e+01	0	31	104	0	60	40165
2026-01-06 17:56:58.33	9.37	13.15	-42.3	-52.9	3.5	3.02e+01	0	31	104	0	60	22979
2026-01-06 17:56:59.63	9.21	13.26	-49.5	-64.1	3.6	3.02e+01	0	31	104	0	60	83613
2026-01-06 17:57:00.35	9.12	13.33	-43.6	-54.4	3.6	3.02e+01	0	31	104	0	60	27368
2026-01-06 17:57:01.65	8.96	13.45	-43.3	-54.0	3.5	3.02e+01	0	31	104	0	60	26148
2026-01-06 17:57:02.37	8.87	13.52	-42.7	-53.4	3.5	3.02e+01	0	31	104	0	60	24246
2026-01-06 17:57:03.67	8.70	13.63	-50.0	-65.6	3.5	3.02e+01	0	31	104	0	60	99274
2026-01-06 17:57:04.39	8.61	13.70	-50.2	-66.3	3.6	3.02e+01	0	31	104	0	60	106664
2026-01-06 17:57:05.69	8.45	13.82	-50.1	-66.6	3.5	3.02e+01	0	31	104	0	60	110836
2026-01-06 17:57:06.41	8.35	13.89	-50.3	-67.3	3.5	3.02e+01	0	31	104	0	60	120159
2026-01-06 17:57:07.71	8.19	14.01	-38.8	-49.1	3.5	3.02e+01	0	31	104	0	56	18585
2026-01-06 17:57:08.44	8.09	14.08	-40.8	-51.2	3.5	3.02e+01	0	31	104	0	60	18929
2026-01-06 17:57:09.74	7.92	14.20	-39.8	-50.1	3.6	3.02e+01	0	31	104	0	60	16626
2026-01-06 17:57:10.46	7.82	14.27	-39.5	-49.8	3.6	3.02e+01	0	31	104	0	58	18082
2026-01-06 17:57:11.76	7.65	14.39	-39.0	-49.3	3.5	3.02e+01	0	31	104	0	58	17013
2026-01-06 17:57:12.48	7.56	14.46	-38.9	-49.2	3.5	3.02e+01	0	31	104	0	58	16806
2026-01-06 17:57:13.78	7.38	14.58	-47.0	-58.8	3.5	3.02e+01	0	31	104	0	60	45306
2026-01-06 17:57:14.50	7.28	14.65	-45.8	-57.1	3.5	3.02e+01	0	31	104	0	60	37087
2026-01-06 17:57:15.80	7.10	14.77	-44.0	-55.3	3.5	3.02e+01	0	31	104	0	60	30115
2026-01-06 17:57:16.52	7.00	14.84	-44.5	-55.5	3.5	3.02e+01	0	31	104	0	60	30992
2026-01-06 17:57:17.82	6.82	14.96	-45.6	-57.2	3.5	3.02e+01	0	31	104	0	60	37400
2026-01-06 17:57:18.54	6.72	15.03	-43.4	-54.5	3.5	3.02e+01	0	31	104	0	60	27403
2026-01-06 17:57:19.84	6.54	15.16	-43.0	-53.9	3.5	3.02e+01	0	31	104	0	60	25605
2026-01-06 17:57:20.56	6.44	15.23	-43.1	-53.9	3.5	3.02e+01	0	31	104	0	60	25788
2026-01-06 17:57:21.86	6.25	15.35	-46.0	-57.5	3.5	3.02e+01	0	31	104	0	60	38870
2026-01-06 17:57:22.58	6.15	15.42	-42.5	-53.2	3.5	3.02e+01	0	31	104	0	60	23644
2026-01-06 17:57:23.88	5.96	15.55	-49.8	-66.5	3.5	3.02e+01	0	31	104	0	60	109935
2026-01-06 17:57:24.60	5.86	15.62	-50.6	-67.8	3.5	3.02e+01	0	31	104	0	60	127465
2026-01-06 17:57:25.90	5.67	15.74	-42.7	-53.4	3.5	3.02e+01	0	31	104	0	60	24245
2026-01-06 17:57:26.62	5.56	15.81	-42.4	-52.9	3.5	3.02e+01	0	31	104	0	60	23050
2026-01-06 17:57:27.92	5.37	15.94	-41.8	-52.3	3.5	3.02e+01	0	31	104	0	60	21434
2026-01-06 17:57:28.64	5.26	16.01	-41.1	-51.5	3.5	3.02e+01	0	31	104	0	60	19424
2026-01-06 17:57:29.94	5.06	16.14	-39.7	-50.0	3.5	3.02e+01	0	31	104	0	60	16418
2026-01-06 17:57:30.66	4.95	16.21	-37.7	-47.9	3.5	3.02e+01	0	31	104	0	56	16214
2026-01-06 17:57:31.96	4.75	16.34	-48.6	-61.8	3.5	3.02e+01	0	31	104	0	60	64043
2026-01-06 17:57:32.69	4.64	16.41	-47.6	-59.7	3.5	3.02e+01	0	31	104	0	60	50436
2026-01-06 17:57:33.98	4.44	16.54	-42.7	-53.4	3.5	3.02e+01	0	31	104	0	60	24189
2026-01-06 17:57:34.71	4.32	16.61	-50.6	-67.5	3.6	3.02e+01	0	31	104	0	60	122824
2026-01-06 17:57:36.01	4.12	16.74	-43.5	-54.3	3.5	3.02e+01	0	31	104	0	60	26800
2026-01-06 17:57:36.72	4.01	16.81	-42.1	-52.6	3.5	3.02e+01	0	31	104	0	60	22088
2026-01-06 17:57:38.02	3.80	16.95	-41.7	-52.2	3.5	3.02e+01	0	31	104	0	60	21151
2026-01-06 17:57:38.74	3.68	17.02	-41.5	-52.0	3.5	3.02e+01	0	31	104	0	60	20737
2026-01-06 17:57:40.04	3.47	17.15	-50.3	-66.9	3.5	3.02e+01	0	31	104	0	60	114252
2026-01-06 17:57:40.76	3.35	17.22	-42.0	-52.6	3.5	3.02e+01	0	31	104	0	60	22071
2026-01-06 17:57:42.06	3.14	17.35	-50.6	-67.4	3.5	3.02e+01	0	31	104	0	60	121520
2026-01-06 17:57:42.78	3.02	17.43	-49.5	-63.7	3.5	3.02e+01	0	31	104	0	60	79644
2026-01-06 17:57:44.08	2.80	17.56	-41.6	-52.2	3.6	3.02e+01	0	31	104	0	60	21099
2026-01-06 17:57:44.80	2.68	17.63	-39.5	-49.9	3.5	3.02e+01	0	31	104	0	60	16227
2026-01-06 17:57:46.10	2.46	17.76	-39.2	-49.5	3.6	3.02e+01	0	31	104	0	58	17426
2026-01-06 17:57:46.82	2.33	17.84	-38.6	-48.9	3.5	3.02e+01	0	31	104	0	58	16310
2026-01-06 17:57:48.12	2.11	17.97	-38.1	-48.3	3.5	3.02e+01	0	31	104	0	56	17060
2026-01-06 17:57:48.84	1.98	18.05	-39.4	-49.7	3.5	3.02e+01	0	31	104	0	56	20035
2026-01-06 17:57:50.14	1.76	18.18	-38.8	-49.0	3.5	3.02e+01	0	31	104	0	58	16506
2026-01-06 17:57:50.87	1.63	18.26	-50.4	-66.3	3.5	3.02e+01	0	31	104	0	60	107424
2026-01-06 17:57:52.16	1.40	18.39	-48.5	-61.3	3.6	3.02e+01	0	31	104	0	60	60560
2026-01-06 17:57:52.88	1.27	18.46	-42.6	-53.2	3.5	3.02e+01	0	31	104	0	60	23862
2026-01-06 17:57:54.18	1.04	18.60	-40.3	-50.7	3.6	3.02e+01	0	31	104	0	60	17797
2026-01-06 17:57:54.90	0.91	18.67	-40.4	-50.8	3.5	3.02e+01	0	31	104	0	60	17948
2026-01-06 17:57:56.20	0.67	18.81	-41.2	-51.6	3.5	3.02e+01	0	31	104	0	60	19700
2026-01-06 17:57:56.92	0.53	18.88	-41.5	-51.9	3.5	3.02e+01	0	31	104	0	60	20512
2026-01-06 17:57:58.22	0.29	19.02	-41.1	-51.5	3.5	3.02e+01	0	31	104	0	60	19510
2026-01-06 17:57:58.94	0.16	19.10	-49.3	-63.2	3.5	3.02e+01	0	31	104	0	60	75168
2026-01-06 17:58:00.24	359.91	19.23	-50.3	-65.9	3.5	3.02e+01	0	31	104	0	60	102818
2026-01-06 17:58:00.96	359.78	19.31	-41.5	-52.0	3.5	3.02e+01	0	31	104	0	60	20563
2026-01-06 17:58:02.26	359.53	19.45	-50.4	-66.4	3.5	3.02e+01	0	31	104	0	60	108842
2026-01-06 17:58:02.98	359.39	19.52	-42.1	-52.7	3.5	3.02e+01	0	31	104	0	60	22376
2026-01-06 17:58:04.28	359.14	19.66	-40.4	-50.7	3.5	3.02e+01	0	31	104	0	60	17869
2026-01-06 17:58:05.00	359.00	19.74	-39.8	-50.2	3.5	3.02e+01	0	31	104	0	60	16783
2026-01-06 17:58:06.30	358.74	19.87	-40.5	-50.8	3.5	3.02e+01	0	31	104	0	58	20301
2026-01-06 17:58:07.02	358.60	19.95	-50.7	-67.4	3.5	3.02e+01	0	31	104	0	60	121027
2026-01-06 17:58:08.32	358.34	20.09	-38.6	-48.8	3.5	3.02e+01	0	31	104	0	56	18032
2026-01-06 17:58:09.04	358.19	20.16	-50.5	-67.2	3.5	3.02e+01	0	31	104	0	60	119103
2026-01-06 17:58:10.34	357.93	20.30	-45.1	-56.4	3.6	3.02e+01	0	31	104	0	60	34322
2026-01-06 17:58:11.06	357.78	20.38	-42.2	-52.8	3.5	3.02e+01	0	31	104	0	60	22649
2026-01-06 17:58:12.36	357.51	20.52	-39.2	-49.6	3.5	3.02e+01	0	31	104	0	58	17499
2026-01-06 17:58:13.08	357.36	20.60	-39.2	-49.5	3.5	3.02e+01	0	31	104	0	58	17387
2026-01-06 17:58:14.38	357.09	20.73	-39.1	-49.5	3.5	3.02e+01	0	31	104	0	58	17344
2026-01-06 17:58:15.10	356.94	20.81	-38.6	-48.8	3.5	3.02e+01	0	31	104	0	58	15983
2026-01-06 17:58:16.40	356.66	20.95	-37.8	-48.1	3.5	3.02e+01	0	31	104	0	56	16587
2026-01-06 17:58:17.12	356.51	21.03	-38.2	-48.4	3.5	3.02e+01	0	31	104	0	56	17239
2026-01-06 17:58:18.42	356.23	21.17	-50.5	-66.8	3.5	3.02e+01	0	31	104	0	60	113902
2026-01-06 17:58:19.15	356.07	21.25	-48.6	-61.7	3.6	3.02e+01	0	31	104	0	60	63163
2026-01-06 17:58:20.44	355.78	21.39	-43.8	-54.6	3.6	3.02e+01	0	31	104	0	60	27778
2026-01-06 17:58:21.17	355.62	21.46	-40.6	-51.0	3.5	3.02e+01	0	31	104	0	60	18472
2026-01-06 17:58:22.46	355.34	21.60	-41.0	-51.5	3.5	3.02e+01	0	31	104	0	60	19489
2026-01-06 17:58:23.19	355.17	21.68	-39.9	-50.2	3.5	3.02e+01	0	31	104	0	60	16853
2026-01-06 17:58:24.48	354.88	21.82	-39.2	-49.5	3.6	3.02e+01	0	31	104	0	60	15476
2026-01-06 17:58:25.21	354.72	21.90	-39.6	-49.9	3.5	3.02e+01	0	31	104	0	58	18155
2026-01-06 17:58:26.51	354.42	22.04	-45.5	-56.8	3.5	3.02e+01	0	31	104	0	60	35935
2026-01-06 17:58:27.23	354.25	22.12	-49.5	-63.4	3.6	3.02e+01	0	31	104	0	60	76961
2026-01-06 17:58:28.53	353.95	22.26	-46.3	-57.6	3.5	3.02e+01	0	31	104	0	60	39181
2026-01-06 17:58:29.25	353.78	22.34	-50.6	-66.9	3.5	3.02e+01	0	31	104	0	60	114236
2026-01-06 17:58:30.55	353.47	22.48	-40.4	-50.7	3.5	3.02e+01	0	31	104	0	60	17840
2026-01-06 17:58:31.27	353.30	22.55	-40.3	-50.6	3.5	3.02e+01	0	31	104	0	60	17612
2026-01-06 17:58:32.57	352.99	22.69	-40.1	-50.4	3.5	3.02e+01	0	31	104	0	60	17144
2026-01-06 17:58:33.29	352.82	22.77	-39.3	-49.6	3.5	3.02e+01	0	31	104	0	60	15735
2026-01-06 17:58:34.59	352.50	22.91	-41.2	-51.7	3.6	3.02e+01	0	31	104	0	60	20015
2026-01-06 17:58:35.31	352.32	22.99	-37.1	-47.2	3.5	3.02e+01	0	31	104	0	54	16826
2026-01-06 17:58:36.61	352.00	23.13	-48.6	-61.3	3.6	3.02e+01	0	31	104	0	60	60609
2026-01-06 17:58:37.33	351.82	23.21	-43.2	-54.0	3.5	3.02e+01	0	31	104	0	60	26063
2026-01-06 17:58:38.63	351.50	23.35	-41.3	-51.8	3.5	3.02e+01	0	31	104	0	60	20224
2026-01-06 17:58:39.35	351.32	23.42	-40.7	-51.1	3.5	3.02e+01	0	31	104	0	60	18719
2026-01-06 17:58:40.65	350.99	23.56	-40.3	-50.6	3.6	3.02e+01	0	31	104	0	60	17585
2026-01-06 17:58:41.36	350.81	23.64	-39.0	-49.3	3.5	3.02e+01	0	31	104	0	58	16992
2026-01-06 17:58:42.66	350.47	23.78	-37.6	-47.8	3.5	3.02e+01	0	31	104	0	56	16101
2026-01-06 17:58:43.38	350.28	23.86	-37.5	-47.6	3.6	3.02e+01	0	31	104	0	56	15757
2026-01-06 17:58:44.68	349.94	24.00	-50.8	-68.1	3.5	3.02e+01	0	31	104	0	60	131221
2026-01-06 17:58:45.41	349.75	24.07	-50.7	-67.8	3.5	3.02e+01	0	31	104	0	60	127494
2026-01-06 17:58:46.70	349.41	24.21	-40.8	-51.2	3.5	3.02e+01	0	31	104	0	58	21040
2026-01-06 17:58:47.43	349.21	24.29	-45.5	-56.8	3.6	3.02e+01	0	31	104	0	60	35901
2026-01-06 17:58:48.73	348.86	24.43	-41.8	-52.3	3.5	3.02e+01	0	31	104	0	60	21480
2026-01-06 17:58:49.45	348.67	24.50	-41.0	-51.4	3.5	3.02e+01	0	31	104	0	60	19227
2026-01-06 17:58:50.75	348.31	24.64	-39.8	-50.1	3.5	3.02e+01	0	31	104	0	60	16683
2026-01-06 17:58:51.47	348.11	24.72	-39.4	-49.6	3.5	3.02e+01	0	31	104	0	60	15727
2026-01-06 17:58:52.77	347.75	24.85	-37.9	-48.1	3.5	3.02e+01	0	31	104	0	56	16550
2026-01-06 17:58:53.49	347.55	24.93	-39.5	-49.8	3.5	3.02e+01	0	31	104	0	54	22685
2026-01-06 17:58:54.79	347.19	25.07	-47.0	-58.8	3.5	3.02e+01	0	31	104	0	60	45223
2026-01-06 17:58:55.51	346.98	25.14	-39.2	-49.5	3.5	3.02e+01	0	31	104	0	60	15490
2026-01-06 17:58:56.81	346.61	25.28	-40.6	-51.0	3.5	3.02e+01	0	31	104	0	60	18402
2026-01-06 17:58:57.53	346.40	25.35	-40.2	-50.5	3.5	3.02e+01	0	31	104	0	60	17342
2026-01-06 17:58:58.83	346.03	25.49	-38.2	-48.4	3.5	3.02e+01	0	31	104	0	56	17224
2026-01-06 17:58:59.55	345.82	25.56	-37.7	-47.8	3.5	3.02e+01	0	31	104	0	56	16103
2026-01-06 17:59:00.85	345.44	25.69	-40.0	-50.3	3.6	3.02e+01	0	31	104	0	56	21397
2026-01-06 17:59:01.57	345.23	25.77	-38.4	-48.6	3.5	3.02e+01	0	31	104	0	58	15733
2026-01-06 17:59:02.87	344.84	25.90	-50.8	-67.4	3.5	3.02e+01	0	31	104	0	60	121642
2026-01-06 17:59:03.59	344.62	25.97	-47.1	-58.8	3.5	3.02e+01	0	31	104	0	60	44981
2026-01-06 17:59:04.89	344.23	26.10	-43.0	-53.7	3.5	3.02e+01	0	31	104	0	60	25081
2026-01-06 17:59:05.61	344.01	26.18	-40.1	-50.5	3.6	3.02e+01	0	31	104	0	60	17417
2026-01-06 17:59:06.91	343.62	26.31	-37.6	-47.8	3.5	3.02e+01	0	31	104	0	56	16024
2026-01-06 17:59:07.63	343.39	26.38	-37.4	-47.6	3.6	3.02e+01	0	31	104	0	56	15683
2026-01-06 17:59:08.93	342.99	26.51	-37.2	-47.4	3.5	3.02e+01	0	31	104	0	54	17218
2026-01-06 17:59:09.65	342.77	26.58	-39.5	-49.9	3.5	3.02e+01	0	31	104	0	54	22874
2026-01-06 17:59:10.95	342.36	26.71	-37.8	-48.1	3.5	3.02e+01	0	31	104	0	56	16545
2026-01-06 17:59:11.67	342.13	26.78	-51.0	-68.7	3.5	3.02e+01	0	31	104	0	60	141717
2026-01-06 17:59:12.97	341.72	26.90	-45.5	-56.7	3.5	3.02e+01	0	31	104	0	60	35689
2026-01-06 17:59:13.69	341.49	26.97	-41.5	-52.0	3.5	3.02e+01	0	31	104	0	58	23251
2026-01-06 17:59:14.99	341.07	27.10	-39.9	-50.2	3.5	3.02e+01	0	31	104	0	60	16859
2026-01-06 17:59:15.71	340.84	27.17	-39.9	-50.2	3.5	3.02e+01	0	31	104	0	60	16803
2026-01-06 17:59:17.01	340.41	27.29	-39.3	-49.6	3.5	3.02e+01	0	31	104	0	60	15589
2026-01-06 17:59:17.73	340.18	27.36	-38.5	-48.8	3.5	3.02e+01	0	31	104	0	58	15981
2026-01-06 17:59:19.03	339.75	27.48	-40.2	-50.5	3.6	3.02e+01	0	31	104	0	58	19582
2026-01-06 17:59:19.76	339.51	27.55	-38.1	-48.4	3.5	3.02e+01	0	31	104	0	56	17134
2026-01-06 17:59:21.05	339.07	27.66	-51.0	-68.2	3.5	3.02e+01	0	31	104	0	60	134209
2026-01-06 17:59:21.78	338.83	27.73	-44.9	-55.9	3.5	3.02e+01	0	31	104	0	60	32255
2026-01-06 17:59:23.08	338.39	27.85	-49.4	-63.2	3.5	3.02e+01	0	31	104	0	60	75224
2026-01-06 17:59:23.80	338.14	27.91	-41.1	-51.5	3.5	3.02e+01	0	31	104	0	60	19543
2026-01-06 17:59:25.10	337.70	28.03	-39.5	-49.8	3.5	3.02e+01	0	31	104	0	60	16089
2026-01-06 17:59:25.82	337.45	28.09	-39.5	-49.8	3.5	3.02e+01	0	31	104	0	58	17959
2026-01-06 17:59:27.12	337.00	28.21	-38.6	-48.8	3.5	3.02e+01	0	31	104	0	58	16126
2026-01-06 17:59:27.84	336.75	28.27	-45.0	-56.1	3.5	3.02e+01	0	31	104	0	60	33248
2026-01-06 17:59:29.13	336.30	28.38	-38.1	-48.3	3.5	3.02e+01	0	31	104	0	56	17081
2026-01-06 17:59:29.86	336.04	28.44	-51.0	-68.2	3.5	3.02e+01	0	31	104	0	60	132821
2026-01-06 17:59:31.15	335.58	28.55	-44.0	-54.8	3.5	3.02e+01	0	31	104	0	60	28652
2026-01-06 17:59:31.87	335.33	28.61	-47.3	-59.3	3.5	3.02e+01	0	31	104	0	60	47687
2026-01-06 17:59:33.17	334.86	28.71	-40.2	-50.5	3.5	3.02e+01	0	31	104	0	60	17405
2026-01-06 17:59:33.89	334.60	28.77	-39.8	-50.1	3.5	3.02e+01	0	31	104	0	60	16557
2026-01-06 17:59:35.19	334.13	28.88	-39.2	-49.4	3.5	3.02e+01	0	31	104	0	60	15337
2026-01-06 17:59:35.91	333.87	28.93	-38.6	-48.8	3.5	3.02e+01	0	31	104	0	58	16000
2026-01-06 17:59:37.20	333.40	29.03	-42.1	-52.7	3.6	3.02e+01	0	31	104	0	60	22305
2026-01-06 17:59:37.92	333.14	29.09	-38.6	-48.8	3.5	3.02e+01	0	31	104	0	56	18095
2026-01-06 17:59:39.22	332.66	29.19	-51.1	-68.2	3.5	3.02e+01	0	31	104	0	60	132711
2026-01-06 17:59:39.94	332.39	29.24	-43.8	-54.6	3.5	3.02e+01	0	31	104	0	60	27750
2026-01-06 17:59:41.23	331.91	29.33	-50.2	-65.3	3.5	3.02e+01	0	31	104	0	60	95481
2026-01-06 17:59:41.95	331.64	29.39	-40.6	-51.0	3.5	3.02e+01	0	31	104	0	60	18367
2026-01-06 17:59:43.25	331.15	29.48	-38.9	-49.2	3.5	3.02e+01	0	31	104	0	58	16766
2026-01-06 17:59:43.97	330.88	29.53	-38.4	-48.6	3.6	3.02e+01	0	31	104	0	58	15634
2026-01-06 17:59:45.27	330.38	29.62	-38.2	-48.5	3.5	3.02e+01	0	31	104	0	56	17325
2026-01-06 17:59:45.99	330.11	29.67	-47.1	-59.0	3.5	3.02e+01	0	31	104	0	60	46269
2026-01-06 17:59:47.28	329.61	29.75	-38.1	-48.3	3.5	3.02e+01	0	31	104	0	56	17058
2026-01-06 17:59:48.00	329.34	29.80	-51.0	-68.2	3.5	3.02e+01	0	31	104	0	60	133925
2026-01-06 17:59:49.29	328.84	29.88	-39.8	-50.2	3.5	3.02e+01	0	31	104	0	60	16832
2026-01-06 17:59:50.01	328.56	29.93	-50.5	-66.1	3.5	3.02e+01	0	31	104	0	60	104699
2026-01-06 17:59:51.31	328.05	30.01	-40.1	-50.4	3.5	3.02e+01	0	31	104	0	60	17196
2026-01-06 17:59:52.03	327.77	30.05	-40.4	-50.7	3.5	3.02e+01	0	31	104	0	60	17767
2026-01-06 17:59:53.32	327.26	30.13	-38.9	-49.2	3.5	3.02e+01	0	31	104	0	58	16841
2026-01-06 17:59:54.04	326.98	30.17	-38.4	-48.6	3.5	3.02e+01	0	31	104	0	58	15734
2026-01-06 17:59:55.34	326.46	30.24	-41.3	-51.8	3.5	3.02e+01	0	31	104	0	60	20255
2026-01-06 17:59:56.06	326.18	30.28	-39.3	-49.5	3.5	3.02e+01	0	31	104	0	56	19597
2026-01-06 17:59:57.35	325.66	30.35	-51.1	-68.4	3.5	3.02e+01	0	31	104	0	60	135803
2026-01-06 17:59:58.07	325.38	30.38	-42.1	-52.5	3.5	3.02e+01	0	31	104	0	60	21953
2026-01-06 17:59:59.37	324.85	30.45	-47.6	-59.6	3.6	3.02e+01	0	31	104	0	60	49519
2026-01-06 18:00:00.09	324.56	30.48	-37.9	-48.1	3.5	3.02e+01	0	31	104	0	56	16600
2026-01-06 18:00:01.39	324.04	30.55	-37.9	-48.0	3.5	3.02e+01	0	31	104	0	56	16439
2026-01-06 18:00:02.11	323.75	30.58	-37.7	-47.9	3.5	3.02e+01	0	31	104	0	56	16178
2026-01-06 18:00:03.40	323.22	30.64	-37.3	-47.4	3.5	3.02e+01	0	31	104	0	54	17279
2026-01-06 18:00:04.12	322.93	30.67	-48.1	-60.4	3.6	3.02e+01	0	31	104	0	60	54538
2026-01-06 18:00:05.42	322.40	30.72	-38.3	-48.5	3.5	3.02e+01	0	31	104	0	56	17461
2026-01-06 18:00:06.14	322.10	30.75	-51.0	-68.1	3.5	3.02e+01	0	31	104	0	60	131522
2026-01-06 18:00:07.43	321.57	30.80	-40.1	-50.4	3.5	3.02e+01	0	31	104	0	60	17177
2026-01-06 18:00:08.16	321.27	30.82	-51.0	-67.7	3.5	3.02e+01	0	31	104	0	60	126061
2026-01-06 18:00:09.45	320.74	30.87	-43.0	-53.7	3.5	3.02e+01	0	31	104	0	60	25069
2026-01-06 18:00:10.17	320.44	30.89	-41.8	-52.3	3.5	3.02e+01	0	31	104	0	60	21406
2026-01-06 18:00:11.46	319.91	30.93	-40.3	-50.6	3.5	3.02e+01	0	31	104	0	60	17641
2026-01-06 18:00:12.18	319.61	30.96	-39.8	-50.2	3.5	3.02e+01	0	31	104	0	60	16737
2026-01-06 18:00:13.47	319.07	30.99	-46.1	-57.4	3.5	3.02e+01	0	31	104	0	60	38581
2026-01-06 18:00:14.19	318.77	31.01	-43.0	-53.6	3.6	3.02e+01	0	31	104	0	60	24732
2026-01-06 18:00:15.49	318.23	31.04	-45.7	-57.0	3.6	3.02e+01	0	31	104	0	60	36925
2026-01-06 18:00:16.21	317.93	31.06	-39.2	-49.5	3.5	3.02e+01	0	31	104	0	58	17345
2026-01-06 18:00:17.51	317.39	31.09	-50.9	-67.5	3.6	3.02e+01	0	31	104	0	60	123130
2026-01-06 18:00:18.22	317.09	31.10	-40.3	-50.6	3.5	3.02e+01	0	31	104	0	60	17645
2026-01-06 18:00:19.52	316.54	31.13	-39.8	-50.0	3.5	3.02e+01	0	31	104	0	60	16451
2026-01-06 18:00:20.24	316.24	31.14	-38.6	-48.8	3.5	3.02e+01	0	31	104	0	58	16047
2026-01-06 18:00:21.53	315.70	31.16	-36.8	-47.0	3.5	3.02e+01	0	31	104	0	54	16372
2026-01-06 18:00:22.25	315.39	31.17	-41.0	-51.4	3.5	3.02e+01	0	31	104	0	60	19211
2026-01-06 18:00:23.54	314.85	31.18	-39.5	-49.8	3.5	3.02e+01	0	31	104	0	56	20295
2026-01-06 18:00:24.26	314.55	31.19	-51.1	-68.0	3.5	3.02e+01	0	31	104	0	60	130899
2026-01-06 18:00:25.56	314.00	31.20	-40.0	-50.3	3.5	3.02e+01	0	31	104	0	60	17007
2026-01-06 18:00:26.28	313.69	31.21	-50.9	-67.4	3.5	3.02e+01	0	31	104	0	60	122365
2026-01-06 18:00:27.57	313.15	31.21	-39.9	-50.2	3.5	3.02e+01	0	31	104	0	60	16872
2026-01-06 18:00:28.29	312.85	31.21	-39.6	-49.8	3.5	3.02e+01	0	31	104	0	60	16066
2026-01-06 18:00:29.58	312.30	31.22	-39.4	-49.7	3.5	3.02e+01	0	31	104	0	58	17741
2026-01-06 18:00:30.31	311.99	31.22	-39.6	-49.9	3.5	3.02e+01	0	31	104	0	58	18282
2026-01-06 18:00:31.60	311.45	31.21	-48.7	-61.5	3.5	3.02e+01	0	31	104	0	60	61560
2026-01-06 18:00:32.32	311.14	31.21	-40.0	-50.3	3.5	3.02e+01	0	31	104	0	60	17082
2026-01-06 18:00:33.62	310.59	31.20	-42.5	-53.0	3.5	3.02e+01	0	31	104	0	60	23297
2026-01-06 18:00:34.34	310.29	31.20	-41.0	-51.4	3.5	3.02e+01	0	31	104	0	60	19353
2026-01-06 18:00:35.63	309.74	31.19	-50.8	-67.5	3.5	3.02e+01	0	31	104	0	60	122460
2026-01-06 18:00:36.35	309.44	31.18	-48.7	-61.5	3.5	3.02e+01	0	31	104	0	60	62020
2026-01-06 18:00:37.65	308.89	31.16	-49.3	-62.7	3.5	3.02e+01	0	31	104	0	60	70962
2026-01-06 18:00:38.37	308.59	31.15	-48.0	-60.2	3.5	3.02e+01	0	31	104	0	60	52827
2026-01-06 18:00:39.67	308.04	31.13	-37.9	-48.2	3.5	3.02e+01	0	31	104	0	58	14897
2026-01-06 18:00:40.39	307.74	31.12	-38.7	-49.0	3.5	3.02e+01	0	31	104	0	54	20560
2026-01-06 18:00:41.68	307.20	31.09	-39.5	-49.7	3.5	3.02e+01	0	31	104	0	60	15819
2026-01-06 18:00:42.40	306.90	31.08	-39.6	-50.0	3.5	3.02e+01	0	31	104	0	60	16346
2026-01-06 18:00:43.69	306.36	31.05	-48.2	-61.1	3.4	3.02e+01	0	31	104	0	60	58911
2026-01-06 18:00:44.41	306.06	31.03	-49.9	-65.3	3.5	3.02e+01	0	31	104	0	60	95385
2026-01-06 18:00:45.70	305.52	31.00	-40.0	-50.5	3.5	3.02e+01	0	31	104	0	60	17329
2026-01-06 18:00:46.42	305.22	30.98	-39.9	-50.3	3.5	3.02e+01	0	31	104	0	60	16981
2026-01-06 18:00:47.72	304.68	30.94	-38.5	-48.7	3.5	3.02e+01	0	31	104	0	58	15936
2026-01-06 18:00:48.44	304.38	30.92	-38.9	-49.2	3.5	3.02e+01	0	31	104	0	56	18804
2026-01-06 18:00:49.74	303.84	30.88	-44.4	-55.2	3.5	3.02e+01	0	31	104	0	60	29755
2026-01-06 18:00:50.45	303.55	30.85	-39.3	-49.5	3.5	3.02e+01	0	31	104	0	60	15565
2026-01-06 18:00:51.75	303.01	30.81	-39.6	-49.9	3.5	3.02e+01	0	31	104	0	60	16142
2026-01-06 18:00:52.47	302.71	30.78	-37.6	-47.8	3.4	3.02e+01	0	31	104	0	56	16130
2026-01-06 18:00:53.77	302.18	30.73	-42.2	-52.7	3.5	3.02e+01	0	31	104	0	60	22417
2026-01-06 18:00:54.49	301.89	30.70	-39.6	-49.9	3.5	3.02e+01	0	31	104	0	60	16218
2026-01-06 18:00:55.78	301.36	30.64	-38.0	-48.2	3.5	3.02e+01	0	31	104	0	56	16841
2026-01-06 18:00:56.50	301.07	30.61	-37.5	-47.7	3.5	3.02e+01	0	31	104	0	56	15922
2026-01-06 18:00:57.80	300.54	30.55	-40.1	-50.4	3.5	3.02e+01	0	31	104	0	56	21555
2026-01-06 18:00:58.52	300.25	30.52	-39.1	-49.3	3.5	3.02e+01	0	31	104	0	58	17016
2026-01-06 18:00:59.82	299.72	30.46	-51.0	-67.7	3.5	3.02e+01	0	31	104	0	60	126662
2026-01-06 18:01:00.54	299.43	30.42	-49.7	-63.5	3.5	3.02e+01	0	31	104	0	60	77571
2026-01-06 18:01:01.84	298.91	30.36	-51.1	-68.5	3.5	3.02e+01	0	31	104	0	60	137614
2026-01-06 18:01:02.56	298.62	30.32	-50.6	-66.3	3.5	3.02e+01	0	31	104	0	60	107290
2026-01-06 18:01:03.85	298.11	30.25	-47.7	-59.6	3.6	3.02e+01	0	31	104	0	60	49571
2026-01-06 18:01:04.57	297.82	30.21	-47.4	-51.0	17.5	3.02e+01	57	31	104	0	60	18383
2026-01-06 18:01:05.87	297.31	30.14	-48.0	-51.7	17.3	3.02e+01	57	31	102	524288	60	19914
2026-01-06 18:01:06.59	297.03	30.09	-47.6	-50.9	17.5	3.02e+01	58	31	102	524288	60	18301
2026-01-06 18:01:07.88	296.52	30.02	-47.8	-51.3	16.9	3.02e+01	46	31	102	524288	60	19089
2026-01-06 18:01:08.60	296.24	29.97	-47.9	-51.4	17.5	3.02e+01	60	31	102	524288	60	19285
2026-01-06 18:01:09.89	295.73	29.89	-48.0	-51.6	16.8	3.02e+01	60	31	102	524288	60	19819
2026-01-06 18:01:10.61	295.46	29.85	-46.9	-49.9	19.0	3.02e+01	46	31	102	524288	60	16243
2026-01-06 18:01:11.90	294.96	29.77	-44.5	-46.6	22.2	3.02e+01	59	31	102	524288	60	11053
2026-01-06 18:01:12.62	294.68	29.72	-43.8	-45.7	22.6	3.02e+01	57	31	102	524288	60	9985
2026-01-06 18:01:13.92	294.18	29.63	-43.6	-45.4	23.1	3.02e+01	59	31	102	524288	60	9630
2026-01-06 18:01:14.64	293.91	29.58	-43.8	-45.6	23.1	3.02e+01	58	31	102	524288	60	9897
2026-01-06 18:01:15.94	293.41	29.49	-42.7	-44.4	24.1	3.02e+01	49	31	102	524288	60	8597
2026-01-06 18:01:16.65	293.15	29.44	-42.9	-44.5	23.9	3.02e+01	61	31	102	524288	60	8765
2026-01-06 18:01:17.95	292.66	29.35	-41.6	-43.2	25.2	3.02e+01	61	31	102	524288	60	7464
2026-01-06 18:01:18.67	292.39	29.29	-40.8	-42.2	26.5	3.02e+01	53	31	102	524288	60	6699
2026-01-06 18:01:19.96	291.91	29.20	-38.3	-39.5	28.7	3.02e+01	53	31	102	524288	58	5509
2026-01-06 18:01:20.68	291.64	29.14	-37.8	-39.1	29.1	3.02e+01	57	31	102	524288	56	5864
2026-01-06 18:01:21.98	291.16	29.05	-37.1	-38.3	29.7	3.02e+01	58	31	102	524288	54	6021
2026-01-06 18:01:22.70	290.89	28.99	-36.6	-37.8	30.0	3.02e+01	60	31	102	524288	54	5692
2026-01-06 18:01:23.99	290.42	28.89	-36.9	-38.1	29.8	3.02e+01	48	31	102	524288	54	5897
2026-01-06 18:01:24.71	290.16	28.83	-36.2	-37.3	30.4	3.02e+01	60	31	102	524288	52	6023
2026-01-06 18:01:26.01	289.69	28.73	-36.2	-37.3	30.4	3.02e+01	60	31	102	524288	52	6032
2026-01-06 18:01:26.73	289.43	28.67	-37.5	-38.8	29.1	3.02e+01	45	31	102	524288	54	6355
2026-01-06 18:01:28.02	288.97	28.56	-37.1	-38.3	29.3	3.02e+01	63	31	102	524288	52	6791
2026-01-06 18:01:28.74	288.71	28.50	-36.4	-37.5	29.7	3.02e+01	61	31	102	524288	52	6199
2026-01-06 18:01:30.04	288.25	28.39	-36.4	-37.6	29.7	3.02e+01	58	31	102	524288	52	6231
2026-01-06 18:01:30.75	288.00	28.33	-36.3	-37.5	30.3	3.02e+01	56	31	102	524288	54	5469
2026-01-06 18:01:32.05	287.55	28.22	-36.2	-37.3	30.4	3.02e+01	47	31	102	524288	54	5401
2026-01-06 18:01:32.77	287.30	28.16	-37.4	-38.7	29.2	3.02e+01	62	31	102	524288	52	7116
2026-01-06 18:01:34.07	286.85	28.04	-37.3	-38.5	29.3	3.02e+01	59	31	102	524288	52	6959
2026-01-06 18:01:34.79	286.60	27.98	-35.9	-37.0	30.5	3.02e+01	61	31	102	524288	52	5853
2026-01-06 18:01:36.08	286.16	27.86	-36.2	-37.4	30.3	3.02e+01	57	31	102	524288	52	6084
2026-01-06 18:01:36.80	285.91	27.80	-37.1	-38.3	29.2	3.02e+01	54	31	102	524288	54	6061
2026-01-06 18:01:38.10	285.47	27.68	-37.2	-38.5	29.2	3.02e+01	57	31	102	524288	54	6160
2026-01-06 18:01:38.81	285.24	27.61	-36.3	-37.5	29.9	3.02e+01	62	31	102	524288	52	6176
2026-01-06 18:01:40.11	284.80	27.49	-36.9	-38.1	29.5	3.02e+01	59	31	102	524288	52	6578
2026-01-06 18:01:40.83	284.56	27.43	-36.8	-37.9	29.7	3.02e+01	61	31	102	524288	54	5785
2026-01-06 18:01:42.13	284.13	27.30	-36.5	-37.7	30.0	3.02e+01	61	31	102	524288	54	5617
2026-01-06 18:01:42.85	283.90	27.24	-37.1	-38.3	29.6	3.02e+01	60	31	102	524288	52	6794
2026-01-06 18:01:44.14	283.48	27.11	-36.9	-38.2	29.8	3.02e+01	56	31	102	524288	52	6667
2026-01-06 18:01:44.86	283.24	27.04	-37.0	-38.2	29.8	3.02e+01	55	31	102	524288	52	6658
2026-01-06 18:01:46.15	282.83	26.92	-37.1	-38.3	29.7	3.02e+01	58	31	102	524288	52	6787
2026-01-06 18:01:46.87	282.60	26.85	-37.0	-38.2	29.9	3.02e+01	61	31	102	524288	52	6689
2026-01-06 18:01:48.17	282.19	26.72	-36.5	-37.6	30.0	3.02e+01	61	31	102	524288	54	5593
2026-01-06 18:01:48.88	281.96	26.65	-37.3	-38.6	29.3	3.02e+01	57	31	102	524288	54	6208
2026-01-06 18:01:50.18	281.55	26.53	-37.6	-38.9	29.0	3.02e+01	45	31	102	524288	54	6444
2026-01-06 18:01:50.89	281.33	26.45	-36.8	-38.0	29.6	3.02e+01	58	31	102	524288	54	5853
2026-01-06 18:01:52.19	280.93	26.32	-36.8	-38.0	29.8	3.02e+01	59	31	102	524288	54	5809
2026-01-06 18:01:52.91	280.71	26.25	-36.9	-38.2	29.7	3.02e+01	49	31	102	524288	54	5936
2026-01-06 18:01:54.21	280.31	26.12	-37.4	-38.7	29.4	3.02e+01	57	31	102	524288	54	6279
2026-01-06 18:01:54.92	280.10	26.05	-37.1	-38.3	29.5	3.02e+01	63	31	102	524288	54	6058
2026-01-06 18:01:56.22	279.70	25.92	-37.6	-38.8	29.2	3.02e+01	58	31	102	524288	54	6405
2026-01-06 18:01:56.94	279.49	25.84	-38.1	-39.4	28.6	3.02e+01	52	31	102	524288	54	6859
2026-01-06 18:01:58.23	279.11	25.71	-37.5	-38.7	29.3	3.02e+01	45	31	102	524288	54	6304
2026-01-06 18:01:58.95	278.89	25.64	-37.9	-39.2	28.6	3.02e+01	59	31	102	524288	54	6660
2026-01-06 18:02:00.24	278.51	25.50	-38.9	-40.2	27.7	3.02e+01	60	31	102	524288	56	6699
2026-01-06 18:02:00.96	278.30	25.43	-37.8	-39.1	28.4	3.02e+01	58	31	102	524288	56	5861
2026-01-06 18:02:02.26	277.93	25.29	-37.7	-38.9	29.1	3.02e+01	60	31	102	524288	56	5779
2026-01-06 18:02:02.98	277.72	25.22	-37.5	-38.7	29.4	3.02e+01	57	31	102	524288	56	5622
2026-01-06 18:02:04.28	277.35	25.08	-37.0	-38.2	29.6	3.02e+01	52	31	102	524288	54	5962
2026-01-06 18:02:04.99	277.15	25.01	-37.0	-38.3	29.2	3.02e+01	60	31	102	524288	54	6001
2026-01-06 18:02:06.28	276.79	24.87	-36.9	-38.1	29.2	3.02e+01	55	31	102	524288	52	6599
2026-01-06 18:02:07.00	276.59	24.80	-37.8	-39.0	28.4	3.02e+01	60	31	102	524288	54	6550
2026-01-06 18:02:08.30	276.23	24.66	-39.0	-40.5	27.2	3.02e+01	59	31	102	524288	56	6907
2026-01-06 18:02:09.02	276.03	24.58	-36.8	-37.9	29.5	3.02e+01	55	31	102	524288	54	5780
2026-01-06 18:02:10.31	275.67	24.45	-36.1	-37.1	30.3	3.02e+01	61	31	102	524288	52	5925
2026-01-06 18:02:11.03	275.48	24.37	-37.6	-38.9	29.0	3.02e+01	60	31	102	524288	54	6424
2026-01-06 18:02:12.33	275.13	24.23	-37.6	-38.9	28.6	3.02e+01	58	31	102	524288	54	6428
2026-01-06 18:02:13.05	274.94	24.15	-37.5	-38.7	29.1	3.02e+01	58	31	102	524288	54	6291
2026-01-06 18:02:14.35	274.59	24.02	-37.9	-39.1	28.5	3.02e+01	48	31	102	524288	56	5884
2026-01-06 18:02:15.06	274.40	23.94	-37.0	-38.2	29.4	3.02e+01	60	31	102	524288	54	5934
2026-01-06 18:02:16.36	274.06	23.80	-37.2	-38.3	29.3	3.02e+01	58	31	102	524288	54	6054
2026-01-06 18:02:17.08	273.88	23.72	-38.1	-39.3	28.5	3.02e+01	49	31	102	524288	54	6802
2026-01-06 18:02:18.37	273.54	23.58	-38.0	-39.2	28.7	3.02e+01	58	31	102	524288	54	6724
2026-01-06 18:02:19.09	273.36	23.51	-37.1	-38.3	29.2	3.02e+01	55	31	102	524288	54	6002
2026-01-06 18:02:20.38	273.03	23.37	-37.9	-39.2	28.2	3.02e+01	57	31	102	524288	54	6707
2026-01-06 18:02:21.10	272.85	23.29	-36.7	-37.8	29.8	3.02e+01	63	31	102	524288	54	5696
2026-01-06 18:02:22.40	272.52	23.15	-37.4	-38.6	29.2	3.02e+01	47	31	102	524288	54	6232
2026-01-06 18:02:23.12	272.34	23.07	-37.6	-38.8	29.0	3.02e+01	57	31	102	524288	54	6412
2026-01-06 18:02:24.42	272.02	22.93	-37.5	-38.7	29.2	3.02e+01	60	31	102	524288	54	6340
2026-01-06 18:02:25.14	271.84	22.85	-37.8	-39.0	29.0	3.02e+01	54	31	102	524288	54	6531
2026-01-06 18:02:26.43	271.53	22.71	-37.2	-38.4	29.4	3.02e+01	52	31	102	524288	54	6113
2026-01-06 18:02:27.16	271.35	22.63	-37.4	-38.6	29.3	3.02e+01	59	31	102	524288	54	6255
2026-01-06 18:02:28.45	271.05	22.49	-37.3	-38.4	29.5	3.02e+01	59	31	102	524288	54	6127
2026-01-06 18:02:29.17	270.87	22.42	-37.3	-38.5	29.4	3.02e+01	59	31	102	524288	54	6172
2026-01-06 18:02:30.47	270.57	22.28	-37.2	-38.4	29.4	3.02e+01	53	31	102	524288	54	6111
2026-01-06 18:02:31.19	270.40	22.20	-37.5	-38.7	29.0	3.02e+01	59	31	102	524288	54	6306
2026-01-06 18:02:32.48	270.10	22.06	-37.6	-38.8	28.8	3.02e+01	63	31	102	524288	56	5717
2026-01-06 18:02:33.20	269.93	21.98	-36.8	-37.9	29.7	3.02e+01	46	31	102	524288	54	5789
2026-01-06 18:02:34.50	269.63	21.84	-37.9	-39.2	28.4	3.02e+01	61	31	102	524288	54	6659
2026-01-06 18:02:35.22	269.47	21.76	-37.2	-38.4	29.5	3.02e+01	60	31	102	524288	54	6086
2026-01-06 18:02:36.51	269.18	21.62	-38.6	-39.8	28.3	3.02e+01	60	31	102	524288	56	6420
2026-01-06 18:02:37.23	269.02	21.54	-38.3	-39.5	28.7	3.02e+01	61	31	102	524288	56	6177
2026-01-06 18:02:38.52	268.73	21.40	-37.7	-38.9	29.1	3.02e+01	47	31	102	524288	56	5732
2026-01-06 18:02:39.24	268.57	21.33	-37.7	-38.9	29.1	3.02e+01	61	31	102	524288	56	5737
2026-01-06 18:02:40.54	268.28	21.19	-38.0	-39.2	28.6	3.02e+01	60	31	102	524288	56	5969
2026-01-06 18:02:41.26	268.13	21.11	-37.5	-38.6	29.3	3.02e+01	38	31	102	524288	56	5586
2026-01-06 18:02:42.55	267.85	20.97	-38.1	-39.4	28.8	3.02e+01	61	31	102	524288	56	6105
2026-01-06 18:02:43.27	267.69	20.89	-38.4	-39.6	28.5	3.02e+01	61	31	102	524288	56	6271
2026-01-06 18:02:44.57	267.42	20.75	-37.7	-38.9	29.1	3.02e+01	60	31	102	524288	56	5736
2026-01-06 18:02:45.29	267.27	20.67	-37.9	-39.1	28.9	3.02e+01	59	31	102	524288	56	5919
2026-01-06 18:02:46.58	266.99	20.54	-37.4	-38.6	29.3	3.02e+01	46	31	102	524288	56	5531
2026-01-06 18:02:47.30	266.84	20.46	-37.5	-38.7	29.2	3.02e+01	61	31	102	524288	54	6335
2026-01-06 18:02:48.59	266.58	20.32	-38.3	-39.6	28.4	3.02e+01	50	31	102	524288	56	6236
2026-01-06 18:02:49.31	266.43	20.24	-38.1	-39.4	28.5	3.02e+01	44	31	102	524288	56	6073
2026-01-06 18:02:50.60	266.17	20.10	-37.8	-39.0	29.1	3.02e+01	58	31	102	524288	56	5814
2026-01-06 18:02:51.32	266.02	20.03	-37.6	-38.9	29.1	3.02e+01	62	31	102	524288	56	5732
2026-01-06 18:02:52.62	265.76	19.89	-37.5	-38.7	29.3	3.02e+01	60	31	102	524288	56	5637
2026-01-06 18:02:53.34	265.62	19.81	-37.9	-39.2	28.9	3.02e+01	60	31	102	524288	56	5959
2026-01-06 18:02:54.63	265.36	19.68	-37.7	-38.9	29.0	3.02e+01	52	31	102	524288	56	5749
2026-01-06 18:02:55.36	265.22	19.60	-37.5	-38.7	29.2	3.02e+01	58	31	102	524288	56	5628
2026-01-06 18:02:56.65	264.97	19.46	-38.1	-39.4	28.7	3.02e+01	56	31	102	524288	56	6083
2026-01-06 18:02:57.37	264.83	19.38	-38.1	-39.3	28.6	3.02e+01	46	31	102	524288	56	6061
2026-01-06 18:02:58.66	264.58	19.25	-38.1	-39.3	28.8	3.02e+01	59	31	102	524288	56	6025
2026-01-06 18:02:59.38	264.45	19.17	-38.3	-39.5	28.5	3.02e+01	58	31	102	524288	56	6177
2026-01-06 18:03:00.68	264.20	19.04	-38.6	-39.9	28.0	3.02e+01	58	31	102	524288	56	6452
2026-01-06 18:03:01.40	264.06	18.96	-38.6	-39.8	28.3	3.02e+01	62	31	102	524288	56	6422
2026-01-06 18:03:02.69	263.82	18.82	-38.3	-39.5	28.6	3.02e+01	53	31	102	524288	56	6181
2026-01-06 18:03:03.41	263.69	18.75	-38.3	-39.6	28.5	3.02e+01	54	31	102	524288	56	6248
2026-01-06 18:03:04.70	263.45	18.61	-37.4	-38.5	29.2	3.02e+01	59	31	102	524288	56	5510
2026-01-06 18:03:05.43	263.32	18.54	-37.4	-38.5	29.2	3.02e+01	47	31	102	524288	54	6192
2026-01-06 18:03:06.72	263.09	18.40	-38.5	-39.8	28.3	3.02e+01	57	31	102	524288	56	6411
2026-01-06 18:03:07.44	262.96	18.33	-38.2	-39.5	28.3	3.02e+01	56	31	102	524288	56	6148
2026-01-06 18:03:08.74	262.73	18.19	-37.4	-38.6	29.2	3.02e+01	57	31	102	524288	56	5532
2026-01-06 18:03:09.46	262.60	18.12	-37.4	-38.6	29.2	3.02e+01	59	31	102	524288	54	6217
2026-01-06 18:03:10.75	262.37	17.99	-38.3	-39.6	28.5	3.02e+01	45	31	102	524288	54	6975
2026-01-06 18:03:11.47	262.25	17.91	-38.0	-39.3	28.3	3.02e+01	60	31	102	524288	54	6750
2026-01-06 18:03:12.76	262.03	17.78	-37.0	-38.2	29.5	3.02e+01	61	31	102	524288	54	5950
2026-01-06 18:03:13.48	261.90	17.70	-37.4	-38.6	29.1	3.02e+01	59	31	102	524288	54	6218
2026-01-06 18:03:14.78	261.68	17.57	-38.1	-39.4	28.5	3.02e+01	57	31	102	524288	54	6852
2026-01-06 18:03:15.50	261.56	17.50	-38.0	-39.3	28.4	3.02e+01	47	31	102	524288	54	6752
2026-01-06 18:03:16.80	261.34	17.36	-38.0	-39.2	28.5	3.02e+01	62	31	102	524288	54	6658
2026-01-06 18:03:17.52	261.22	17.29	-37.7	-38.8	29.0	3.02e+01	60	31	102	524288	54	6407
2026-01-06 18:03:18.82	261.00	17.16	-38.5	-39.8	26.6	3.02e+01	58	31	102	524288	54	7191
2026-01-06 18:03:19.54	260.89	17.09	-39.2	-40.6	27.5	3.02e+01	58	31	102	524288	56	6976
2026-01-06 18:03:20.84	260.67	16.95	-38.5	-39.8	27.9	3.02e+01	54	31	102	524288	56	6421
2026-01-06 18:03:21.56	260.56	16.88	-37.6	-38.8	28.9	3.02e+01	59	31	102	524288	56	5673
2026-01-06 18:03:22.86	260.35	16.75	-37.1	-38.2	29.5	3.02e+01	62	31	102	524288	54	5980
2026-01-06 18:03:23.58	260.23	16.68	-37.2	-38.4	29.4	3.02e+01	56	31	102	524288	54	6089
2026-01-06 18:03:24.87	260.03	16.55	-37.8	-39.0	28.9	3.02e+01	60	31	102	524288	54	6537
2026-01-06 18:03:25.60	259.91	16.48	-37.8	-39.1	28.8	3.02e+01	60	31	102	524288	54	6585
2026-01-06 18:03:26.89	259.71	16.35	-37.9	-39.1	28.6	3.02e+01	57	31	102	524288	54	6606
2026-01-06 18:03:27.62	259.60	16.27	-37.7	-38.8	28.9	3.02e+01	57	31	102	524288	54	6422
2026-01-06 18:03:28.91	259.40	16.15	-37.3	-38.5	29.4	3.02e+01	49	31	102	524288	54	6169
2026-01-06 18:03:29.64	259.29	16.07	-37.3	-38.5	29.2	3.02e+01	61	31	102	524288	54	6182
2026-01-06 18:03:30.94	259.09	15.95	-37.6	-38.8	29.0	3.02e+01	56	31	102	524288	54	6418
2026-01-06 18:03:31.66	258.98	15.88	-37.7	-38.9	28.9	3.02e+01	57	31	102	524288	54	6475
2026-01-06 18:03:32.96	258.79	15.75	-37.9	-39.1	28.7	3.02e+01	56	31	102	524288	54	6639
2026-01-06 18:03:33.68	258.68	15.68	-37.8	-39.0	28.8	3.02e+01	61	31	102	524288	54	6568
2026-01-06 18:03:34.98	258.49	15.55	-37.6	-38.8	29.0	3.02e+01	61	31	102	524288	54	6379
2026-01-06 18:03:35.70	258.39	15.48	-37.5	-38.7	29.1	3.02e+01	60	31	102	524288	54	6348
2026-01-06 18:03:37.00	258.20	15.35	-37.3	-38.5	29.3	3.02e+01	53	31	102	524288	54	6162
2026-01-06 18:03:37.72	258.09	15.28	-37.2	-38.4	29.4	3.02e+01	61	31	102	524288	54	6121
2026-01-06 18:03:39.02	257.91	15.16	-37.5	-38.7	29.1	3.02e+01	55	31	102	524288	54	6331
2026-01-06 18:03:39.74	257.80	15.09	-37.5	-38.7	29.1	3.02e+01	57	31	102	524288	54	6347
2026-01-06 18:03:41.04	257.62	14.96	-37.7	-38.9	28.9	3.02e+01	60	31	102	524288	54	6480
2026-01-06 18:03:41.76	257.52	14.89	-37.5	-38.7	29.1	3.02e+01	62	31	102	524288	54	6343
2026-01-06 18:03:43.06	257.34	14.77	-37.4	-38.7	29.1	3.02e+01	59	31	102	524288	54	6280
2026-01-06 18:03:43.78	257.24	14.70	-37.5	-38.7	29.0	3.02e+01	58	31	102	524288	54	6337
2026-01-06 18:03:45.08	257.06	14.58	-37.4	-38.6	29.2	3.02e+01	57	31	102	524288	54	6225
2026-01-06 18:03:45.80	256.96	14.51	-37.6	-38.8	29.0	3.02e+01	60	31	102	524288	54	6387
2026-01-06 18:03:47.10	256.79	14.39	-37.5	-38.7	29.1	3.02e+01	59	31	102	524288	54	6329
2026-01-06 18:03:47.82	256.69	14.32	-37.4	-38.6	29.2	3.02e+01	46	31	102	524288	54	6250
2026-01-06 18:03:49.12	256.52	14.19	-37.5	-38.7	29.1	3.02e+01	57	31	102	524288	54	6297
2026-01-06 18:03:49.84	256.42	14.13	-37.5	-38.7	29.1	3.02e+01	61	31	102	524288	54	6307
2026-01-06 18:03:51.14	256.25	14.01	-37.5	-38.7	29.1	3.02e+01	61	31	102	524288	54	6295
2026-01-06 18:03:51.86	256.16	13.94	-37.3	-38.5	29.3	3.02e+01	59	31	102	524288	54	6162
2026-01-06 18:03:53.16	255.99	13.82	-37.4	-38.6	29.2	3.02e+01	56	31	102	524288	54	6242
2026-01-06 18:03:53.88	255.89	13.75	-37.4	-38.6	29.2	3.02e+01	57	31	102	524288	54	6260
2026-01-06 18:03:55.18	255.73	13.63	-37.7	-38.9	29.0	3.02e+01	59	31	102	524288	54	6466
2026-01-06 18:03:55.90	255.64	13.56	-37.7	-38.9	28.9	3.02e+01	45	31	102	524288	54	6455
2026-01-06 18:03:57.20	255.47	13.44	-37.6	-38.8	29.0	3.02e+01	57	31	102	524288	54	6397
2026-01-06 18:03:57.92	255.38	13.38	-37.8	-39.0	28.9	3.02e+01	58	31	102	524288	54	6531
2026-01-06 18:03:59.22	255.22	13.26	-37.4	-38.7	29.1	3.02e+01	59	31	102	524288	54	6279
2026-01-06 18:03:59.94	255.13	13.19	-37.4	-38.6	29.1	3.02e+01	61	31	102	524288	54	6214
2026-01-06 18:04:01.24	254.97	13.07	-37.2	-38.4	29.3	3.02e+01	44	31	102	524288	54	6092
2026-01-06 18:04:01.96	254.88	13.01	-37.2	-38.4	29.3	3.02e+01	64	31	102	524288	54	6066
2026-01-06 18:04:03.26	254.72	12.89	-37.2	-38.4	29.3	3.02e+01	61	31	102	524288	54	6084
2026-01-06 18:04:03.98	254.64	12.83	-37.4	-38.6	29.1	3.02e+01	42	31	102	524288	54	6240
2026-01-06 18:04:05.28	254.48	12.71	-37.4	-38.6	29.1	3.02e+01	60	31	102	524288	54	6262
2026-01-06 18:04:06.00	254.40	12.64	-37.4	-38.6	29.1	3.02e+01	57	31	102	524288	54	6262
2026-01-06 18:04:07.30	254.24	12.53	-37.5	-38.7	29.0	3.02e+01	59	31	102	524288	54	6290
2026-01-06 18:04:08.02	254.16	12.46	-37.5	-38.7	29.1	3.02e+01	58	31	102	524288	54	6318
2026-01-06 18:04:09.32	254.01	12.35	-37.5	-38.7	29.0	3.02e+01	55	31	102	524288	54	6335
2026-01-06 18:04:10.04	253.92	12.28	-37.5	-38.7	29.0	3.02e+01	58	31	102	524288	54	6318
2026-01-06 18:04:11.34	253.77	12.17	-37.5	-38.7	28.9	3.02e+01	54	31	102	524288	54	6329
2026-01-06 18:04:12.06	253.69	12.10	-37.4	-38.6	29.1	3.02e+01	47	31	102	524288	54	6229
2026-01-06 18:04:13.36	253.55	11.99	-37.4	-38.6	29.1	3.02e+01	59	31	102	524288	54	6264
2026-01-06 18:04:14.08	253.46	11.93	-37.2	-38.4	29.2	3.02e+01	62	31	102	524288	54	6122
2026-01-06 18:04:15.38	253.32	11.81	-37.4	-38.6	29.1	3.02e+01	59	31	102	524288	54	6243
2026-01-06 18:04:16.10	253.24	11.75	-37.4	-38.6	29.1	3.02e+01	57	31	102	524288	54	6227
2026-01-06 18:04:17.40	253.10	11.64	-37.5	-38.7	29.1	3.02e+01	45	31	102	524288	54	6296
2026-01-06 18:04:18.12	253.02	11.57	-37.5	-38.7	29.0	3.02e+01	58	31	102	524288	54	6314
2026-01-06 18:04:19.42	252.87	11.46	-37.5	-38.7	29.0	3.02e+01	62	31	102	524288	54	6334
2026-01-06 18:04:20.14	252.80	11.40	-37.5	-38.7	29.0	3.02e+01	60	31	102	524288	54	6298
2026-01-06 18:04:21.44	252.66	11.29	-37.6	-38.8	29.0	3.02e+01	58	31	102	524288	54	6363
2026-01-06 18:04:22.16	252.58	11.23	-37.4	-38.6	29.0	3.02e+01	47	31	102	524288	54	6272
2026-01-06 18:04:23.46	252.44	11.11	-37.6	-38.9	28.8	3.02e+01	59	31	102	524288	54	6430
2026-01-06 18:04:24.18	252.37	11.05	-37.4	-38.6	29.0	3.02e+01	58	31	102	524288	54	6243
2026-01-06 18:04:25.48	252.23	10.94	-37.4	-38.6	29.1	3.02e+01	49	31	102	524288	54	6220
2026-01-06 18:04:26.21	252.15	10.88	-37.5	-38.7	29.0	3.02e+01	59	31	102	524288	54	6297
2026-01-06 18:04:27.51	252.02	10.77	-37.5	-38.7	29.0	3.02e+01	47	31	102	524288	54	6345
2026-01-06 18:04:28.23	251.95	10.71	-37.6	-38.8	28.9	3.02e+01	59	31	102	524288	54	6415
2026-01-06 18:04:29.53	251.81	10.60	-37.7	-38.9	28.9	3.02e+01	57	31	102	524288	54	6449
2026-01-06 18:04:30.25	251.74	10.54	-37.6	-38.8	28.9	3.02e+01	54	31	102	524288	54	6374
2026-01-06 18:04:31.55	251.61	10.43	-37.5	-38.7	28.9	3.02e+01	61	31	102	524288	54	6326
2026-01-06 18:04:32.27	251.54	10.37	-37.6	-38.8	28.9	3.02e+01	61	31	102	524288	54	6366
2026-01-06 18:04:33.57	251.41	10.26	-37.4	-38.6	29.0	3.02e+01	60	31	102	524288	54	6263
2026-01-06 18:04:34.29	251.34	10.20	-37.3	-38.5	29.1	3.02e+01	57	31	102	524288	54	6148
2026-01-06 18:04:35.59	251.21	10.09	-37.2	-38.4	29.3	3.02e+01	47	31	102	524288	54	6071
2026-01-06 18:04:36.31	251.14	10.04	-37.2	-38.4	29.2	3.02e+01	56	31	102	524288	54	6110
2026-01-06 18:04:37.61	251.01	9.93	-37.3	-38.5	29.2	3.02e+01	57	31	102	524288	54	6141
2026-01-06 18:04:38.33	250.94	9.87	-37.4	-38.6	29.1	3.02e+01	49	31	102	524288	54	6261
2026-01-06 18:04:39.63	250.82	9.76	-37.5	-38.8	29.0	3.02e+01	58	31	102	524288	54	6355
2026-01-06 18:04:40.35	250.75	9.70	-37.5	-38.8	28.9	3.02e+01	58	31	102	524288	54	6361
2026-01-06 18:04:41.65	250.63	9.60	-37.6	-38.9	28.9	3.02e+01	57	31	102	524288	54	6445
2026-01-06 18:04:42.37	250.56	9.54	-37.5	-38.8	28.9	3.02e+01	58	31	102	524288	54	6355
2026-01-06 18:04:43.67	250.44	9.43	-37.5	-38.7	28.9	3.02e+01	44	31	102	524288	54	6328
2026-01-06 18:04:44.39	250.37	9.38	-37.6	-38.8	28.9	3.02e+01	61	31	102	524288	54	6419
2026-01-06 18:04:45.69	250.25	9.27	-37.5	-38.7	29.0	3.02e+01	61	31	102	524288	54	6313
2026-01-06 18:04:46.41	250.18	9.21	-37.5	-38.7	29.0	3.02e+01	55	31	102	524288	54	6326
2026-01-06 18:04:47.71	250.07	9.11	-37.5	-38.8	28.9	3.02e+01	59	31	102	524288	54	6363
2026-01-06 18:04:48.43	250.00	9.05	-37.6	-38.8	28.9	3.02e+01	58	31	102	524288	54	6397
2026-01-06 18:04:49.73	249.88	8.95	-37.6	-38.8	28.9	3.02e+01	58	31	102	524288	54	6403
2026-01-06 18:04:50.45	249.82	8.89	-37.6	-38.9	28.8	3.02e+01	60	31	102	524288	54	6436
2026-01-06 18:04:51.75	249.70	8.79	-37.6	-38.8	28.9	3.02e+01	59	31	102	524288	54	6395
2026-01-06 18:04:52.48	249.64	8.73	-37.6	-38.9	28.8	3.02e+01	58	31	102	524288	54	6438
2026-01-06 18:04:53.77	249.53	8.63	-37.7	-38.9	28.8	3.02e+01	58	31	102	524288	54	6471
2026-01-06 18:04:54.50	249.46	8.57	-37.8	-39.0	28.8	3.02e+01	51	31	102	524288	54	6520
2026-01-06 18:04:55.79	249.35	8.47	-37.7	-38.9	28.7	3.02e+01	60	31	102	524288	54	6488
2026-01-06 18:04:56.52	249.29	8.41	-37.6	-38.8	28.8	3.02e+01	59	31	102	524288	54	6413
2026-01-06 18:04:57.81	249.18	8.31	-37.7	-38.9	28.7	3.02e+01	59	31	102	524288	54	6496
2026-01-06 18:04:58.54	249.11	8.26	-37.8	-39.1	28.6	3.02e+01	60	31	102	524288	54	6596
2026-01-06 18:04:59.83	249.00	8.16	-37.6	-38.8	28.8	3.02e+01	45	31	102	524288	54	6401
2026-01-06 18:05:00.56	248.94	8.10	-37.8	-39.0	28.7	3.02e+01	59	31	102	524288	54	6528
2026-01-06 18:05:01.85	248.83	8.00	-37.9	-39.1	28.4	3.02e+01	61	31	102	524288	54	6619
2026-01-06 18:05:02.58	248.77	7.94	-37.7	-38.9	28.7	3.02e+01	46	31	102	524288	54	6479
2026-01-06 18:05:03.88	248.67	7.85	-37.7	-38.9	28.7	3.02e+01	58	31	102	524288	54	6494
2026-01-06 18:05:04.60	248.61	7.79	-37.8	-39.0	28.6	3.02e+01	61	31	102	524288	54	6538
2026-01-06 18:05:05.90	248.50	7.69	-37.7	-38.9	28.7	3.02e+01	58	31	102	524288	54	6462
2026-01-06 18:05:06.62	248.44	7.64	-37.7	-38.9	28.6	3.02e+01	59	31	102	524288	54	6490
2026-01-06 18:05:07.92	248.34	7.54	-37.7	-39.0	28.6	3.02e+01	47	31	102	524288	54	6511
2026-01-06 18:05:08.64	248.28	7.48	-37.8	-39.0	28.5	3.02e+01	58	31	102	524288	54	6543
2026-01-06 18:05:09.94	248.18	7.39	-38.0	-39.2	28.4	3.02e+01	60	31	102	524288	54	6694
2026-01-06 18:05:10.66	248.12	7.33	-37.9	-39.2	28.4	3.02e+01	44	31	102	524288	54	6666
2026-01-06 18:05:11.96	248.02	7.23	-38.0	-39.3	28.4	3.02e+01	60	31	102	524288	54	6732
2026-01-06 18:05:12.68	247.96	7.18	-38.1	-39.4	28.3	3.02e+01	56	31	102	524288	54	6821
2026-01-06 18:05:13.98	247.86	7.08	-38.1	-39.4	28.2	3.02e+01	58	31	102	524288	54	6819
2026-01-06 18:05:14.71	247.80	7.03	-38.2	-39.5	28.1	3.02e+01	60	31	102	524288	54	6907
2026-01-06 18:05:16.01	247.70	6.93	-38.0	-39.2	28.3	3.02e+01	52	31	102	524288	54	6723
2026-01-06 18:05:16.73	247.65	6.88	-38.0	-39.2	28.3	3.02e+01	58	31	102	524288	54	6713
2026-01-06 18:05:18.03	247.55	6.78	-37.9	-39.2	28.4	3.02e+01	59	31	102	524288	54	6667
2026-01-06 18:05:18.75	247.49	6.73	-38.0	-39.2	28.4	3.02e+01	45	31	102	524288	54	6703
2026-01-06 18:05:20.05	247.39	6.63	-37.8	-39.0	28.6	3.02e+01	61	31	102	524288	54	6554
2026-01-06 18:05:20.77	247.34	6.58	-37.9	-39.1	28.5	3.02e+01	53	31	102	524288	54	6620
2026-01-06 18:05:22.07	247.24	6.49	-38.0	-39.2	28.4	3.02e+01	58	31	102	524288	54	6695
2026-01-06 18:05:22.79	247.19	6.43	-37.9	-39.2	28.4	3.02e+01	60	31	102	524288	54	6672
2026-01-06 18:05:24.09	247.10	6.34	-38.0	-39.3	28.2	3.02e+01	47	31	102	524288	54	6760
2026-01-06 18:05:24.81	247.04	6.29	-38.1	-39.4	28.2	3.02e+01	59	31	102	524288	54	6816
2026-01-06 18:05:26.11	246.95	6.19	-38.2	-39.4	28.2	3.02e+01	58	31	102	524288	54	6863
2026-01-06 18:05:26.83	246.90	6.14	-38.2	-39.5	28.1	3.02e+01	57	31	102	524288	54	6915
2026-01-06 18:05:28.13	246.80	6.05	-38.3	-39.6	28.0	3.02e+01	53	31	102	524288	54	7010
2026-01-06 18:05:28.86	246.75	5.99	-38.2	-39.5	28.1	3.02e+01	56	31	102	524288	54	6911
2026-01-06 18:05:30.15	246.66	5.90	-38.2	-39.5	28.1	3.02e+01	61	31	102	524288	54	6904
2026-01-06 18:05:30.88	246.61	5.85	-38.3	-39.6	28.0	3.02e+01	59	31	102	524288	54	6977
2026-01-06 18:05:32.17	246.52	5.76	-38.4	-39.6	28.0	3.02e+01	57	31	102	524288	56	6262
2026-01-06 18:05:32.90	246.46	5.71	-38.3	-39.6	28.0	3.02e+01	58	31	102	524288	56	6224
2026-01-06 18:05:34.19	246.38	5.62	-38.3	-39.6	28.1	3.02e+01	47	31	102	524288	56	6216
2026-01-06 18:05:34.92	246.32	5.56	-38.3	-39.6	28.1	3.02e+01	58	31	102	524288	56	6218
2026-01-06 18:05:36.22	246.24	5.47	-38.5	-39.7	27.9	3.02e+01	56	31	102	524288	56	6347
2026-01-06 18:05:36.94	246.19	5.42	-38.4	-39.6	28.1	3.02e+01	48	31	102	524288	56	6264
2026-01-06 18:05:38.24	246.10	5.33	-38.5	-39.8	27.8	3.02e+01	58	31	102	524288	56	6377
2026-01-06 18:05:38.96	246.05	5.28	-38.4	-39.7	27.9	3.02e+01	63	31	102	524288	56	6316
2026-01-06 18:05:40.26	245.96	5.19	-38.6	-39.9	27.8	3.02e+01	56	31	102	524288	56	6426
2026-01-06 18:05:40.98	245.91	5.14	-38.5	-39.7	27.9	3.02e+01	57	31	102	524288	56	6349
2026-01-06 18:05:42.28	245.83	5.05	-38.6	-39.9	27.8	3.02e+01	51	31	102	524288	56	6444
2026-01-06 18:05:43.00	245.78	5.00	-38.5	-39.8	27.9	3.02e+01	59	31	102	524288	56	6368
2026-01-06 18:05:44.30	245.69	4.91	-38.6	-39.9	27.8	3.02e+01	59	31	102	524288	56	6430
2026-01-06 18:05:45.02	245.65	4.86	-38.6	-39.8	27.8	3.02e+01	46	31	102	524288	56	6418
2026-01-06 18:05:46.32	245.56	4.77	-38.6	-39.9	27.8	3.02e+01	60	31	102	524288	56	6472
2026-01-06 18:05:47.04	245.51	4.72	-38.6	-39.9	27.7	3.02e+01	58	31	102	524288	56	6436
2026-01-06 18:05:48.34	245.43	4.63	-38.7	-39.9	27.6	3.02e+01	59	31	102	524288	56	6498
2026-01-06 18:05:49.06	245.38	4.58	-38.7	-40.0	27.6	3.02e+01	61	31	102	524288	56	6520
2026-01-06 18:05:50.36	245.30	4.49	-38.8	-40.1	27.5	3.02e+01	52	31	102	524288	56	6603
2026-01-06 18:05:51.08	245.26	4.44	-38.9	-40.2	27.5	3.02e+01	57	31	102	524288	56	6677
2026-01-06 18:05:52.38	245.17	4.36	-38.9	-40.2	27.5	3.02e+01	57	31	102	524288	56	6685
2026-01-06 18:05:53.11	245.13	4.31	-38.8	-40.1	27.5	3.02e+01	57	31	102	524288	56	6613
2026-01-06 18:05:54.41	245.05	4.22	-38.8	-40.1	27.5	3.02e+01	61	31	102	524288	56	6626
2026-01-06 18:05:55.13	245.00	4.17	-38.9	-40.2	27.4	3.02e+01	60	31	102	524288	56	6673
2026-01-06 18:05:56.43	244.92	4.08	-38.9	-40.2	27.4	3.02e+01	60	31	102	524288	56	6691
2026-01-06 18:05:57.15	244.88	4.03	-38.9	-40.2	27.4	3.02e+01	55	31	102	524288	56	6693
2026-01-06 18:05:58.45	244.80	3.95	-39.0	-40.3	27.3	3.02e+01	52	31	102	524288	56	6753
2026-01-06 18:05:59.17	244.76	3.90	-39.0	-40.3	27.3	3.02e+01	53	31	102	524288	56	6770
2026-01-06 18:06:00.47	244.68	3.81	-39.1	-40.4	27.2	3.02e+01	59	31	102	524288	56	6853
