passes_logs/2026/01/06/R4.6S_Anadyr_2ch/R4.6S_Anadyr_2ch__20260106_152347_NOAA_21_JPSS-2_rec.log

#Pass ID: 20260106_152347_NOAA 21 (JPSS-2)
#Satellite: NOAA 21 (JPSS-2)
#Configuration: NOAA-21
#almurnet v.1.7.20251203
#Start time: 2026-01-06 15:23:48

#Version: 2.2.20231116
#Station: R4.6S_Anadyr_2ch
#Location: 177.4865 lon 64.73178 lat
#TLE: 1 54234U 22150A   25350.97269056  .00000057  00000+0  47676-4 0  9992
#TLE: 2 54234  98.7466 287.2282 0002043  29.8355 330.2937 14.19525482160692

#Time	Az	El	Level	Level2	SNR	BER	BlckErr	Temp	State	Recorded	gain1	gain2
2026-01-06 15:23:48.81	22.15	0.08	-51.2	-66.3	3.5	1.51e+00	0	30	0	0	60	100239
2026-01-06 15:23:49.81	22.14	0.14	-51.1	-64.1	3.5	1.52e+00	0	32	104	0	60	75918
2026-01-06 15:23:50.82	22.13	0.20	-51.1	-64.1	3.5	1.52e+00	0	32	104	0	60	76051
2026-01-06 15:23:51.83	22.11	0.26	-51.2	-64.2	3.5	1.52e+00	0	32	104	0	60	76423
2026-01-06 15:23:52.84	22.10	0.32	-51.2	-64.2	3.5	1.52e+00	0	32	104	0	60	76467
2026-01-06 15:23:53.84	22.08	0.38	-51.2	-64.2	3.5	1.52e+00	0	32	104	0	60	76594
2026-01-06 15:23:54.85	22.07	0.44	-51.2	-64.2	3.5	1.52e+00	0	32	104	0	60	76902
2026-01-06 15:23:55.86	22.05	0.50	-51.2	-64.2	3.5	1.52e+00	0	32	104	0	60	76504
2026-01-06 15:23:56.87	22.04	0.56	-51.2	-64.2	3.5	1.52e+00	0	32	104	0	60	76378
2026-01-06 15:23:57.87	22.02	0.62	-51.1	-64.1	3.5	1.52e+00	0	32	104	0	60	75828
2026-01-06 15:23:58.88	22.01	0.68	-51.0	-64.0	3.5	1.52e+00	0	32	104	0	60	75075
2026-01-06 15:23:59.89	21.99	0.74	-51.0	-63.9	3.5	1.52e+00	0	32	104	0	60	74501
2026-01-06 15:24:00.89	21.98	0.81	-50.8	-63.7	3.5	1.52e+00	0	32	104	0	60	72461
2026-01-06 15:24:01.90	21.96	0.87	-50.6	-63.5	3.5	1.52e+00	0	32	104	0	60	71200
2026-01-06 15:24:02.91	21.95	0.93	-50.4	-63.3	3.5	1.52e+00	0	32	104	0	60	69625
2026-01-06 15:24:03.91	21.93	0.99	-50.1	-63.1	3.5	1.52e+00	0	32	104	0	60	67554
2026-01-06 15:24:04.93	21.92	1.05	-49.8	-62.7	3.5	1.52e+00	0	32	104	0	60	64722
2026-01-06 15:24:05.93	21.90	1.11	-49.8	-62.7	3.5	1.52e+00	0	32	104	0	60	64704
2026-01-06 15:24:06.94	21.88	1.18	-49.7	-62.7	3.5	1.52e+00	0	32	104	0	60	64273
2026-01-06 15:24:07.95	21.87	1.24	-49.7	-62.7	3.5	1.52e+00	0	32	104	0	60	64491
2026-01-06 15:24:08.95	21.85	1.30	-49.7	-62.7	3.5	1.52e+00	0	32	104	0	60	64289
2026-01-06 15:24:09.93	21.84	1.36	-49.7	-62.6	3.5	1.52e+00	0	32	104	0	60	64051
2026-01-06 15:24:10.93	21.82	1.42	-49.7	-62.5	3.5	1.51e+00	0	32	104	0	60	62989
2026-01-06 15:24:11.94	21.80	1.48	-49.7	-62.5	3.5	1.52e+00	0	32	104	0	60	63129
2026-01-06 15:24:12.95	21.79	1.55	-49.7	-62.3	3.5	1.52e+00	0	32	104	0	60	61758
2026-01-06 15:24:13.96	21.77	1.61	-49.7	-62.3	3.5	1.51e+00	0	32	104	0	60	61551
2026-01-06 15:24:14.97	21.76	1.67	-49.7	-62.2	3.5	1.52e+00	0	32	104	0	60	61176
2026-01-06 15:24:15.97	21.74	1.74	-49.7	-62.3	3.5	1.52e+00	0	33	104	0	60	61451
2026-01-06 15:24:16.98	21.72	1.80	-49.7	-62.3	3.5	1.52e+00	0	32	104	0	60	61370
2026-01-06 15:24:17.99	21.71	1.86	-49.7	-62.4	3.6	1.52e+00	0	32	104	0	60	62643
2026-01-06 15:24:19.00	21.69	1.93	-49.7	-62.6	3.5	1.52e+00	0	32	104	0	60	63645
2026-01-06 15:24:20.00	21.67	1.99	-49.7	-62.6	3.5	1.52e+00	0	32	104	0	60	64175
2026-01-06 15:24:21.01	21.66	2.05	-49.7	-62.7	3.5	1.52e+00	0	32	104	0	60	64291
2026-01-06 15:24:22.02	21.64	2.12	-49.7	-62.6	3.5	1.52e+00	0	32	104	0	60	63996
2026-01-06 15:24:23.03	21.62	2.18	-49.7	-62.6	3.5	1.52e+00	0	33	104	0	60	63699
2026-01-06 15:24:24.04	21.60	2.25	-49.7	-62.5	3.5	1.52e+00	0	32	104	0	60	62780
2026-01-06 15:24:25.05	21.59	2.31	-49.7	-62.3	3.5	1.52e+00	0	33	104	0	60	61958
2026-01-06 15:24:26.05	21.57	2.38	-49.7	-62.2	3.5	1.51e+00	0	32	104	0	60	60647
2026-01-06 15:24:27.05	21.55	2.44	-49.6	-61.9	3.5	1.52e+00	0	32	104	0	60	58933
2026-01-06 15:24:28.06	21.54	2.50	-49.6	-61.7	3.5	1.52e+00	0	32	104	0	60	57744
2026-01-06 15:24:29.07	21.52	2.57	-49.6	-61.5	3.5	1.51e+00	0	33	104	0	60	56062
2026-01-06 15:24:30.07	21.50	2.63	-49.6	-61.1	3.5	1.51e+00	0	33	104	0	60	53457
2026-01-06 15:24:31.08	21.48	2.70	-49.6	-61.1	3.5	1.51e+00	0	33	104	0	60	53904
2026-01-06 15:24:32.09	21.46	2.77	-49.6	-61.5	3.5	1.51e+00	0	33	104	0	60	56103
2026-01-06 15:24:33.09	21.45	2.83	-49.6	-61.9	3.5	1.52e+00	0	33	104	0	60	58724
2026-01-06 15:24:34.10	21.43	2.90	-49.7	-62.2	3.5	1.52e+00	0	33	104	0	60	61206
2026-01-06 15:24:35.10	21.41	2.96	-49.6	-62.0	3.5	1.52e+00	0	33	104	0	60	59521
2026-01-06 15:24:36.11	21.39	3.03	-49.5	-60.4	3.5	1.51e+00	0	33	104	0	60	49674
2026-01-06 15:24:37.12	21.37	3.09	-49.3	-58.6	4.5	1.47e+00	123	33	104	0	60	40414
2026-01-06 15:24:38.13	21.35	3.16	-48.8	-56.0	4.1	1.16e+00	0	33	104	0	60	29925
2026-01-06 15:24:39.14	21.34	3.23	-48.3	-53.5	8.0	9.59e-02	123	33	0	0	60	22327
2026-01-06 15:24:40.14	21.32	3.29	-48.0	-52.6	8.8	3.70e-02	122	33	102	1048576	60	20186
2026-01-06 15:24:41.15	21.30	3.36	-47.6	-51.6	10.0	1.09e-02	120	33	102	1048576	60	18000
2026-01-06 15:24:42.16	21.28	3.43	-47.3	-51.1	10.5	3.93e-03	121	33	102	1048576	60	16937
2026-01-06 15:24:43.16	21.26	3.49	-47.2	-50.9	10.8	3.74e-03	123	33	102	1048576	60	16579
2026-01-06 15:24:44.17	21.24	3.56	-47.2	-50.8	10.8	2.10e-03	122	33	102	1048576	60	16492
2026-01-06 15:24:45.17	21.22	3.63	-47.4	-51.2	10.4	3.18e-03	123	33	102	1048576	60	17214
2026-01-06 15:24:46.18	21.20	3.70	-48.1	-52.9	8.2	1.42e-02	123	33	102	1048576	60	21023
2026-01-06 15:24:47.19	21.18	3.76	-49.5	-60.3	3.7	1.49e+00	0	33	104	1048576	60	49228
2026-01-06 15:24:48.19	21.16	3.83	-48.6	-54.7	4.5	1.47e+00	0	33	104	1048576	60	25867
2026-01-06 15:24:49.20	21.14	3.90	-49.6	-61.8	3.5	1.51e+00	0	33	104	1048576	60	58000
2026-01-06 15:24:50.21	21.12	3.97	-40.8	-42.4	18.7	1.42e+00	114	33	104	1048576	60	6236
2026-01-06 15:24:51.22	21.10	4.04	-49.5	-60.4	3.8	1.51e+00	0	33	104	1048576	60	49615
2026-01-06 15:24:52.23	21.08	4.10	-40.3	-41.5	20.6	0.00e+00	122	33	0	1048576	60	5596
2026-01-06 15:24:53.24	21.06	4.17	-40.0	-41.1	20.7	0.00e+00	123	33	0	1048576	58	6054
2026-01-06 15:24:54.25	21.04	4.24	-39.9	-41.1	20.8	0.00e+00	123	33	0	1048576	58	6017
2026-01-06 15:24:55.26	21.02	4.31	-39.9	-41.1	20.8	0.00e+00	120	33	0	1048576	58	6020
2026-01-06 15:24:56.27	21.00	4.38	-39.8	-40.9	20.9	0.00e+00	122	33	0	1048576	58	5925
2026-01-06 15:24:57.28	20.98	4.45	-39.9	-41.1	20.8	0.00e+00	123	33	0	1048576	58	6008
2026-01-06 15:24:58.29	20.96	4.52	-39.9	-41.0	20.9	0.00e+00	122	33	0	1048576	58	5985
2026-01-06 15:24:59.30	20.94	4.59	-39.8	-40.9	21.1	0.00e+00	122	33	0	1048576	58	5898
2026-01-06 15:25:00.30	20.92	4.66	-39.8	-41.0	21.0	0.00e+00	120	33	0	1048576	58	5945
2026-01-06 15:25:01.31	20.90	4.73	-39.7	-40.8	21.2	0.00e+00	122	33	0	1048576	58	5834
2026-01-06 15:25:02.32	20.88	4.80	-39.7	-40.8	21.1	0.00e+00	123	33	0	1048576	58	5815
2026-01-06 15:25:03.33	20.85	4.87	-39.7	-40.9	21.1	0.00e+00	123	33	101	1048576	58	5869
2026-01-06 15:25:04.33	20.83	4.94	-39.6	-40.8	21.2	0.00e+00	123	33	101	1048576	58	5794
2026-01-06 15:25:05.34	20.81	5.01	-39.6	-40.7	21.3	0.00e+00	123	33	101	1048576	58	5753
2026-01-06 15:25:06.35	20.79	5.08	-39.5	-40.6	21.4	0.00e+00	121	33	101	1048576	58	5695
2026-01-06 15:25:07.36	20.77	5.16	-39.4	-40.5	21.4	0.00e+00	120	33	101	1048576	58	5643
2026-01-06 15:25:08.36	20.75	5.23	-39.5	-40.6	21.4	0.00e+00	123	33	101	1048576	58	5686
2026-01-06 15:25:09.37	20.72	5.30	-39.5	-40.6	21.4	0.00e+00	124	33	101	1048576	58	5690
2026-01-06 15:25:10.37	20.70	5.37	-39.4	-40.5	21.5	0.00e+00	123	33	101	1048576	58	5605
2026-01-06 15:25:11.38	20.68	5.44	-39.4	-40.5	21.5	0.00e+00	123	33	101	1048576	58	5617
2026-01-06 15:25:12.38	20.66	5.51	-39.5	-40.6	21.4	0.00e+00	121	33	101	1048576	58	5683
2026-01-06 15:25:13.39	20.63	5.59	-39.4	-40.5	21.5	0.00e+00	123	33	101	1048576	58	5602
2026-01-06 15:25:14.40	20.61	5.66	-39.4	-40.5	21.5	0.00e+00	123	33	101	1048576	58	5648
2026-01-06 15:25:15.40	20.59	5.73	-39.5	-40.6	21.4	0.00e+00	122	33	101	1048576	58	5696
2026-01-06 15:25:16.41	20.57	5.80	-39.5	-40.6	21.5	0.00e+00	123	33	101	1048576	58	5684
2026-01-06 15:25:17.42	20.54	5.88	-39.3	-40.3	21.7	0.00e+00	123	33	101	1048576	58	5524
2026-01-06 15:25:18.42	20.52	5.95	-39.3	-40.4	21.7	0.00e+00	123	33	101	1048576	56	6226
2026-01-06 15:25:19.43	20.50	6.02	-39.4	-40.4	21.6	0.00e+00	121	33	101	1048576	56	6273
2026-01-06 15:25:20.43	20.47	6.10	-39.4	-40.4	21.6	0.00e+00	123	33	101	1048576	56	6266
2026-01-06 15:25:21.44	20.45	6.17	-39.2	-40.2	21.8	0.00e+00	123	33	101	1048576	56	6110
2026-01-06 15:25:22.45	20.42	6.24	-39.2	-40.2	21.9	0.00e+00	122	33	101	1048576	56	6115
2026-01-06 15:25:23.45	20.40	6.32	-39.2	-40.3	21.9	0.00e+00	123	33	101	1048576	56	6144
2026-01-06 15:25:24.45	20.38	6.39	-39.0	-40.1	22.0	0.00e+00	123	33	101	1048576	56	6013
2026-01-06 15:25:25.46	20.35	6.47	-39.1	-40.1	21.9	0.00e+00	123	33	101	1048576	56	6045
2026-01-06 15:25:26.47	20.33	6.54	-39.1	-40.2	22.0	0.00e+00	120	33	101	1048576	56	6085
2026-01-06 15:25:27.47	20.30	6.62	-39.1	-40.1	22.0	0.00e+00	123	33	101	1048576	56	6056
2026-01-06 15:25:28.48	20.28	6.69	-39.0	-40.0	22.0	0.00e+00	123	33	101	1048576	56	5990
2026-01-06 15:25:29.48	20.25	6.77	-39.1	-40.2	22.0	0.00e+00	123	33	101	1048576	56	6067
2026-01-06 15:25:30.49	20.23	6.84	-39.1	-40.1	22.0	0.00e+00	123	33	101	1048576	56	6049
2026-01-06 15:25:31.50	20.20	6.92	-39.2	-40.2	22.0	0.00e+00	122	33	101	1048576	56	6125
2026-01-06 15:25:32.50	20.18	7.00	-39.1	-40.1	22.0	0.00e+00	120	33	101	1048576	56	6052
2026-01-06 15:25:33.51	20.15	7.07	-39.0	-40.1	22.1	0.00e+00	123	33	101	1048576	56	6008
2026-01-06 15:25:34.52	20.13	7.15	-39.0	-40.1	22.1	0.00e+00	124	33	101	1048576	56	6013
2026-01-06 15:25:35.52	20.10	7.23	-38.9	-39.9	22.2	0.00e+00	123	33	101	1048576	56	5900
2026-01-06 15:25:36.53	20.07	7.30	-38.8	-39.8	22.3	0.00e+00	123	33	101	1048576	56	5833
2026-01-06 15:25:37.54	20.05	7.38	-38.8	-39.9	22.2	0.00e+00	123	33	101	1048576	56	5881
2026-01-06 15:25:38.54	20.02	7.46	-38.8	-39.9	22.3	0.00e+00	123	33	101	1048576	56	5867
2026-01-06 15:25:39.55	20.00	7.54	-39.0	-40.1	22.2	0.00e+00	123	33	101	1048576	56	6026
2026-01-06 15:25:40.55	19.97	7.61	-38.7	-39.7	22.5	0.00e+00	122	33	101	1048576	56	5735
2026-01-06 15:25:41.56	19.94	7.69	-38.8	-39.9	22.4	0.00e+00	123	33	101	1048576	56	5859
2026-01-06 15:25:42.58	19.91	7.77	-38.7	-39.8	22.4	0.00e+00	122	33	101	1048576	56	5802
2026-01-06 15:25:43.59	19.89	7.85	-38.7	-39.7	22.5	0.00e+00	123	33	101	1048576	56	5739
2026-01-06 15:25:44.60	19.86	7.93	-38.6	-39.6	22.5	0.00e+00	123	33	101	1048576	56	5670
2026-01-06 15:25:45.61	19.83	8.01	-38.6	-39.6	22.6	0.00e+00	123	33	101	1048576	56	5717
2026-01-06 15:25:46.62	19.80	8.09	-38.6	-39.6	22.6	0.00e+00	122	33	101	1048576	56	5715
2026-01-06 15:25:47.62	19.78	8.17	-38.6	-39.6	22.5	0.00e+00	123	33	101	1048576	56	5701
2026-01-06 15:25:48.63	19.75	8.25	-38.4	-39.4	22.7	0.00e+00	122	33	101	1048576	56	5587
2026-01-06 15:25:49.64	19.72	8.33	-38.4	-39.4	22.7	0.00e+00	121	33	101	1048576	56	5589
2026-01-06 15:25:50.65	19.69	8.41	-38.4	-39.4	22.8	0.00e+00	123	33	101	1048576	56	5574
2026-01-06 15:25:51.66	19.66	8.49	-38.4	-39.4	22.8	0.00e+00	123	33	101	1048576	56	5549
2026-01-06 15:25:52.67	19.63	8.57	-38.5	-39.5	22.7	0.00e+00	123	33	101	1048576	56	5614
2026-01-06 15:25:53.68	19.61	8.65	-38.3	-39.3	22.8	0.00e+00	123	33	101	1048576	56	5523
2026-01-06 15:25:54.69	19.58	8.73	-38.3	-39.3	22.9	0.00e+00	123	33	101	1048576	56	5472
2026-01-06 15:25:55.70	19.55	8.82	-38.3	-39.3	23.0	0.00e+00	122	33	101	1048576	56	5479
2026-01-06 15:25:56.71	19.52	8.90	-38.3	-39.3	22.9	0.00e+00	121	33	101	1048576	56	5483
2026-01-06 15:25:57.72	19.49	8.98	-38.2	-39.2	23.0	0.00e+00	123	33	101	1048576	56	5423
2026-01-06 15:25:58.72	19.46	9.06	-38.2	-39.2	23.0	0.00e+00	123	33	101	1048576	54	6081
2026-01-06 15:25:59.74	19.43	9.15	-38.2	-39.2	22.8	0.00e+00	121	33	101	1048576	54	6081
2026-01-06 15:26:00.75	19.40	9.23	-38.1	-39.1	23.0	0.00e+00	122	33	101	1048576	54	6050
2026-01-06 15:26:01.76	19.37	9.31	-38.1	-39.1	23.0	0.00e+00	122	33	101	1048576	54	6038
2026-01-06 15:26:02.77	19.34	9.40	-38.1	-39.1	22.9	0.00e+00	122	33	101	1048576	54	6016
2026-01-06 15:26:03.78	19.30	9.48	-38.0	-39.0	23.1	0.00e+00	120	33	101	1048576	54	5942
2026-01-06 15:26:04.79	19.27	9.57	-38.0	-39.0	23.1	0.00e+00	122	33	101	1048576	54	5966
2026-01-06 15:26:05.80	19.24	9.65	-38.1	-39.1	23.0	0.00e+00	123	33	101	1048576	54	6034
2026-01-06 15:26:06.81	19.21	9.74	-38.1	-39.1	23.0	0.00e+00	123	33	101	1048576	54	6007
2026-01-06 15:26:07.82	19.18	9.82	-38.2	-39.2	23.0	0.00e+00	122	33	101	1048576	54	6082
2026-01-06 15:26:08.83	19.15	9.91	-38.0	-39.0	23.1	0.00e+00	120	33	101	1048576	54	5936
2026-01-06 15:26:09.84	19.11	9.99	-38.0	-39.0	23.1	0.00e+00	122	33	101	1048576	54	5971
2026-01-06 15:26:10.85	19.08	10.08	-38.1	-39.0	23.2	0.00e+00	123	33	101	1048576	54	5981
2026-01-06 15:26:11.86	19.05	10.16	-37.8	-38.7	23.3	0.00e+00	122	33	101	1048576	54	5791
2026-01-06 15:26:12.88	19.02	10.25	-37.7	-38.7	23.4	0.00e+00	120	33	101	1048576	54	5744
2026-01-06 15:26:13.88	18.98	10.34	-37.5	-38.5	23.5	0.00e+00	122	33	101	1048576	54	5602
2026-01-06 15:26:14.90	18.95	10.43	-37.6	-38.5	23.5	0.00e+00	123	33	101	1048576	54	5629
2026-01-06 15:26:15.91	18.92	10.51	-37.6	-38.6	23.5	0.00e+00	122	33	101	1048576	54	5663
2026-01-06 15:26:16.92	18.88	10.60	-37.4	-38.4	23.6	0.00e+00	122	33	101	1048576	54	5554
2026-01-06 15:26:17.93	18.85	10.69	-37.6	-38.5	23.5	0.00e+00	123	33	101	1048576	54	5651
2026-01-06 15:26:18.94	18.81	10.78	-37.4	-38.4	23.7	0.00e+00	122	33	101	1048576	54	5538
2026-01-06 15:26:19.95	18.78	10.87	-37.4	-38.4	23.6	0.00e+00	123	33	101	1048576	54	5537
2026-01-06 15:26:20.96	18.75	10.96	-37.4	-38.4	23.6	0.00e+00	123	33	101	1048576	54	5543
2026-01-06 15:26:21.97	18.71	11.04	-37.5	-38.4	23.6	0.00e+00	123	33	101	1048576	54	5573
2026-01-06 15:26:22.98	18.68	11.13	-37.4	-38.3	23.7	0.00e+00	123	33	101	1048576	54	5517
2026-01-06 15:26:23.99	18.64	11.22	-37.5	-38.4	23.6	0.00e+00	122	33	101	1048576	54	5579
2026-01-06 15:26:25.00	18.60	11.31	-37.2	-38.2	23.8	0.00e+00	123	33	101	1048576	54	5408
2026-01-06 15:26:26.01	18.57	11.40	-37.3	-38.2	23.8	0.00e+00	123	33	101	1048576	54	5458
2026-01-06 15:26:27.02	18.53	11.50	-37.3	-38.2	23.8	0.00e+00	122	33	101	1048576	54	5466
2026-01-06 15:26:28.03	18.50	11.59	-37.2	-38.1	23.9	0.00e+00	122	33	101	1048576	52	6047
2026-01-06 15:26:29.04	18.46	11.68	-37.2	-38.1	23.9	0.00e+00	123	33	101	1048576	52	6061
2026-01-06 15:26:30.04	18.42	11.77	-37.2	-38.2	23.9	0.00e+00	120	33	101	1048576	52	6086
2026-01-06 15:26:31.06	18.39	11.86	-37.1	-38.0	24.0	0.00e+00	122	33	101	1048576	52	5966
2026-01-06 15:26:32.07	18.35	11.96	-37.2	-38.1	23.9	0.00e+00	122	33	101	1048576	52	6039
2026-01-06 15:26:33.08	18.31	12.05	-37.2	-38.1	23.9	0.00e+00	122	33	101	1048576	52	6043
2026-01-06 15:26:34.09	18.27	12.14	-37.2	-38.1	24.0	0.00e+00	121	33	101	1048576	52	6060
2026-01-06 15:26:35.10	18.23	12.24	-37.2	-38.1	24.0	0.00e+00	123	33	101	1048576	52	6058
2026-01-06 15:26:36.11	18.20	12.33	-37.2	-38.1	23.9	0.00e+00	122	33	101	1048576	52	6052
2026-01-06 15:26:37.12	18.16	12.42	-37.0	-38.0	24.1	0.00e+00	123	33	101	1048576	52	5937
2026-01-06 15:26:38.13	18.12	12.52	-37.0	-37.9	24.2	0.00e+00	122	33	101	1048576	52	5888
2026-01-06 15:26:39.14	18.08	12.61	-37.1	-38.0	24.0	0.00e+00	123	33	101	1048576	52	5959
2026-01-06 15:26:40.16	18.04	12.71	-37.1	-38.0	24.1	0.00e+00	123	33	101	1048576	52	5941
2026-01-06 15:26:41.17	18.00	12.81	-36.9	-37.9	24.2	0.00e+00	123	33	101	1048576	52	5872
2026-01-06 15:26:42.18	17.96	12.90	-37.0	-37.9	24.1	0.00e+00	122	33	101	1048576	52	5884
2026-01-06 15:26:43.19	17.92	13.00	-37.1	-38.0	24.1	0.00e+00	122	33	101	1048576	52	5957
2026-01-06 15:26:44.20	17.88	13.09	-36.9	-37.8	24.2	0.00e+00	123	33	101	1048576	52	5830
2026-01-06 15:26:45.21	17.84	13.19	-37.0	-37.9	24.1	0.00e+00	123	33	101	1048576	52	5922
2026-01-06 15:26:46.22	17.80	13.29	-36.9	-37.8	24.2	0.00e+00	123	33	101	1048576	52	5797
2026-01-06 15:26:47.23	17.75	13.39	-37.0	-38.0	24.2	0.00e+00	121	33	101	1048576	52	5929
2026-01-06 15:26:48.24	17.71	13.49	-36.9	-37.8	24.3	0.00e+00	122	33	101	1048576	52	5800
2026-01-06 15:26:49.25	17.67	13.58	-37.0	-37.9	24.2	0.00e+00	123	33	101	1048576	52	5887
2026-01-06 15:26:50.26	17.63	13.68	-37.0	-37.9	24.2	0.00e+00	122	33	101	1048576	52	5885
2026-01-06 15:26:51.27	17.58	13.78	-37.0	-37.9	24.2	0.00e+00	123	33	101	1048576	52	5870
2026-01-06 15:26:52.28	17.54	13.88	-36.9	-37.9	24.2	0.00e+00	123	33	101	1048576	52	5859
2026-01-06 15:26:53.29	17.50	13.98	-36.9	-37.8	24.3	0.00e+00	123	33	101	1048576	52	5797
2026-01-06 15:26:54.30	17.45	14.08	-36.9	-37.8	24.2	0.00e+00	122	33	101	1048576	52	5819
2026-01-06 15:26:55.31	17.41	14.18	-36.9	-37.8	24.2	0.00e+00	120	33	101	1048576	52	5819
2026-01-06 15:26:56.32	17.37	14.29	-37.0	-37.9	24.1	0.00e+00	123	33	101	1048576	52	5874
2026-01-06 15:26:57.33	17.32	14.39	-37.0	-37.9	24.2	0.00e+00	122	33	101	1048576	52	5917
2026-01-06 15:26:58.34	17.28	14.49	-37.0	-37.9	24.2	0.00e+00	122	33	101	1048576	52	5868
2026-01-06 15:26:59.35	17.23	14.59	-37.0	-37.9	24.1	0.00e+00	123	33	101	1048576	52	5916
2026-01-06 15:27:00.36	17.18	14.70	-36.9	-37.8	24.2	0.00e+00	123	33	101	1048576	52	5849
2026-01-06 15:27:01.37	17.14	14.80	-36.9	-37.8	24.2	0.00e+00	123	33	101	1048576	52	5853
2026-01-06 15:27:02.38	17.09	14.90	-37.0	-38.0	24.1	0.00e+00	122	33	101	1048576	52	5931
2026-01-06 15:27:03.39	17.04	15.01	-36.9	-37.8	24.2	0.00e+00	123	33	101	1048576	52	5836
2026-01-06 15:27:04.40	17.00	15.11	-37.0	-37.9	24.2	0.00e+00	122	33	101	1048576	52	5903
2026-01-06 15:27:05.41	16.95	15.22	-36.9	-37.8	24.2	0.00e+00	123	33	101	1048576	52	5850
2026-01-06 15:27:06.42	16.90	15.32	-36.9	-37.8	24.2	0.00e+00	122	33	101	1048576	52	5856
2026-01-06 15:27:07.43	16.85	15.43	-36.9	-37.8	24.2	0.00e+00	123	33	101	1048576	52	5817
2026-01-06 15:27:08.44	16.80	15.54	-37.0	-37.9	24.1	0.00e+00	122	33	101	1048576	52	5908
2026-01-06 15:27:09.45	16.76	15.64	-37.0	-37.9	24.2	0.00e+00	122	33	101	1048576	52	5871
2026-01-06 15:27:10.46	16.71	15.75	-37.1	-38.0	24.0	0.00e+00	123	33	101	1048576	52	5973
2026-01-06 15:27:11.47	16.66	15.86	-37.0	-38.0	24.1	0.00e+00	122	33	101	1048576	52	5937
2026-01-06 15:27:12.48	16.61	15.97	-37.0	-37.9	24.2	0.00e+00	122	33	101	1048576	52	5886
2026-01-06 15:27:13.49	16.56	16.08	-36.9	-37.9	24.2	0.00e+00	123	33	101	1048576	52	5862
2026-01-06 15:27:14.51	16.50	16.19	-36.9	-37.9	24.2	0.00e+00	123	33	101	1048576	52	5865
2026-01-06 15:27:15.52	16.45	16.30	-37.0	-37.9	24.2	0.00e+00	123	33	101	1048576	52	5922
2026-01-06 15:27:16.53	16.40	16.41	-37.1	-38.0	24.1	0.00e+00	120	33	101	1048576	52	5945
2026-01-06 15:27:17.54	16.35	16.52	-37.1	-38.0	24.1	0.00e+00	122	33	101	1048576	52	5986
2026-01-06 15:27:18.55	16.30	16.63	-37.2	-38.1	24.1	0.00e+00	122	33	101	1048576	52	6024
2026-01-06 15:27:19.56	16.24	16.74	-37.1	-38.0	24.1	0.00e+00	123	33	101	1048576	52	5991
2026-01-06 15:27:20.57	16.19	16.85	-37.0	-37.9	24.2	0.00e+00	123	33	101	1048576	52	5924
2026-01-06 15:27:21.58	16.14	16.96	-37.0	-37.9	24.2	0.00e+00	122	33	101	1048576	52	5925
2026-01-06 15:27:22.59	16.08	17.08	-37.1	-38.0	24.1	0.00e+00	122	33	101	1048576	52	5977
2026-01-06 15:27:23.60	16.03	17.19	-37.0	-37.9	24.2	0.00e+00	123	33	101	1048576	52	5919
2026-01-06 15:27:24.61	15.97	17.30	-37.1	-38.0	24.2	0.00e+00	122	33	101	1048576	52	5973
2026-01-06 15:27:25.62	15.92	17.42	-37.0	-37.9	24.3	0.00e+00	120	33	101	1048576	52	5910
2026-01-06 15:27:26.63	15.86	17.53	-37.1	-38.0	24.2	0.00e+00	122	33	101	1048576	52	5967
2026-01-06 15:27:27.65	15.80	17.65	-36.9	-37.8	24.2	0.00e+00	123	33	101	1048576	52	5852
2026-01-06 15:27:28.65	15.75	17.77	-37.0	-37.9	24.2	0.00e+00	123	33	101	1048576	52	5883
2026-01-06 15:27:29.67	15.69	17.88	-36.9	-37.9	24.3	0.00e+00	120	33	101	1048576	52	5860
2026-01-06 15:27:30.68	15.63	18.00	-37.0	-37.9	24.2	0.00e+00	122	33	101	1048576	52	5889
2026-01-06 15:27:31.69	15.57	18.12	-37.1	-38.0	24.2	0.00e+00	120	33	101	1048576	52	5960
2026-01-06 15:27:32.70	15.51	18.24	-37.0	-37.9	24.2	0.00e+00	122	33	101	1048576	52	5879
2026-01-06 15:27:33.71	15.45	18.36	-37.0	-37.9	24.3	0.00e+00	123	33	101	1048576	52	5875
2026-01-06 15:27:34.71	15.39	18.47	-37.0	-37.9	24.2	0.00e+00	123	33	101	1048576	52	5907
2026-01-06 15:27:35.73	15.33	18.59	-37.0	-37.9	24.2	0.00e+00	123	33	101	1048576	52	5911
2026-01-06 15:27:36.74	15.27	18.72	-37.1	-38.0	24.2	0.00e+00	120	33	101	1048576	52	5956
2026-01-06 15:27:37.75	15.21	18.84	-37.1	-38.0	24.1	0.00e+00	122	33	101	1048576	52	5956
2026-01-06 15:27:38.76	15.15	18.96	-37.0	-37.9	24.2	0.00e+00	122	33	101	1048576	52	5922
2026-01-06 15:27:39.77	15.08	19.08	-37.0	-37.9	24.2	0.00e+00	122	33	101	1048576	52	5891
2026-01-06 15:27:40.78	15.02	19.20	-36.9	-37.8	24.2	0.00e+00	121	33	101	1048576	52	5846
2026-01-06 15:27:41.79	14.96	19.33	-37.0	-37.9	24.2	0.00e+00	122	33	101	1048576	52	5890
2026-01-06 15:27:42.80	14.89	19.45	-36.9	-37.8	24.3	0.00e+00	122	33	101	1048576	52	5813
2026-01-06 15:27:43.81	14.83	19.57	-36.9	-37.8	24.3	0.00e+00	120	33	101	1048576	52	5815
2026-01-06 15:27:44.82	14.76	19.70	-36.9	-37.8	24.3	0.00e+00	122	33	101	1048576	52	5832
2026-01-06 15:27:45.83	14.70	19.82	-36.8	-37.7	24.3	0.00e+00	122	33	101	1048576	52	5777
2026-01-06 15:27:46.85	14.63	19.95	-36.9	-37.8	24.2	0.00e+00	123	33	101	1048576	52	5829
2026-01-06 15:27:47.86	14.56	20.08	-36.7	-37.6	24.4	0.00e+00	123	33	101	1048576	52	5692
2026-01-06 15:27:48.87	14.50	20.21	-36.8	-37.7	24.3	0.00e+00	122	33	101	1048576	52	5752
2026-01-06 15:27:49.88	14.43	20.33	-36.7	-37.6	24.4	0.00e+00	123	33	101	1048576	52	5675
2026-01-06 15:27:50.89	14.36	20.46	-36.5	-37.4	24.6	0.00e+00	120	33	101	1048576	52	5588
2026-01-06 15:27:51.90	14.29	20.59	-36.5	-37.5	24.5	0.00e+00	123	33	101	1048576	52	5599
2026-01-06 15:27:52.91	14.22	20.72	-36.3	-37.2	24.7	0.00e+00	120	33	101	1048576	52	5460
2026-01-06 15:27:53.92	14.15	20.85	-36.4	-37.3	24.7	0.00e+00	122	33	101	1048576	52	5516
2026-01-06 15:27:54.93	14.08	20.98	-36.6	-37.5	24.5	0.00e+00	123	33	101	1048576	52	5614
2026-01-06 15:27:55.94	14.01	21.11	-36.2	-37.1	24.9	0.00e+00	122	33	101	1048576	52	5369
2026-01-06 15:27:56.95	13.93	21.25	-36.1	-37.0	25.0	0.00e+00	120	33	101	1048576	50	5969
2026-01-06 15:27:57.96	13.86	21.38	-36.1	-37.0	24.9	0.00e+00	123	33	101	1048576	50	5946
2026-01-06 15:27:58.97	13.79	21.51	-36.1	-37.0	25.0	0.00e+00	123	33	101	1048576	50	5930
2026-01-06 15:27:59.98	13.71	21.65	-36.1	-37.0	25.0	0.00e+00	120	33	101	1048576	50	5937
2026-01-06 15:28:00.99	13.64	21.78	-35.8	-36.7	25.2	0.00e+00	123	33	101	1048576	50	5770
2026-01-06 15:28:02.00	13.56	21.92	-35.8	-36.7	25.2	0.00e+00	120	33	101	1048576	50	5748
2026-01-06 15:28:03.01	13.48	22.05	-35.8	-36.7	25.1	0.00e+00	122	33	101	1048576	50	5758
2026-01-06 15:28:04.02	13.41	22.19	-35.6	-36.5	25.3	0.00e+00	123	33	101	1048576	50	5623
2026-01-06 15:28:05.04	13.33	22.33	-35.7	-36.5	25.2	0.00e+00	123	33	101	1048576	50	5648
2026-01-06 15:28:06.05	13.25	22.47	-35.7	-36.5	25.3	0.00e+00	123	33	101	1048576	50	5650
2026-01-06 15:28:07.06	13.17	22.61	-35.5	-36.4	25.4	0.00e+00	122	33	101	1048576	50	5534
2026-01-06 15:28:08.07	13.09	22.75	-35.5	-36.4	25.3	0.00e+00	122	33	101	1048576	50	5555
2026-01-06 15:28:09.08	13.01	22.89	-35.6	-36.5	25.3	0.00e+00	123	33	101	1048576	50	5601
2026-01-06 15:28:10.09	12.93	23.03	-35.5	-36.4	25.4	0.00e+00	122	33	101	1048576	50	5543
2026-01-06 15:28:11.10	12.84	23.17	-35.5	-36.4	25.3	0.00e+00	123	33	101	1048576	50	5564
2026-01-06 15:28:12.11	12.76	23.31	-35.5	-36.4	25.4	0.00e+00	120	33	101	1048576	50	5553
2026-01-06 15:28:13.12	12.68	23.46	-35.6	-36.4	25.4	0.00e+00	122	33	101	1048576	50	5578
2026-01-06 15:28:14.13	12.59	23.60	-35.4	-36.3	25.4	0.00e+00	123	33	101	1048576	50	5507
2026-01-06 15:28:15.14	12.50	23.74	-35.5	-36.3	25.4	0.00e+00	123	33	101	1048576	50	5511
2026-01-06 15:28:16.15	12.42	23.89	-35.4	-36.3	25.5	0.00e+00	123	33	101	1048576	50	5479
2026-01-06 15:28:17.16	12.33	24.04	-35.7	-36.5	25.3	0.00e+00	120	33	101	1048576	50	5652
2026-01-06 15:28:18.17	12.24	24.18	-35.5	-36.4	25.3	0.00e+00	122	33	101	1048576	50	5540
2026-01-06 15:28:19.18	12.15	24.33	-35.7	-36.5	25.3	0.00e+00	120	33	101	1048576	50	5638
2026-01-06 15:28:20.19	12.06	24.48	-35.7	-36.5	25.3	0.00e+00	122	33	101	1048576	50	5659
2026-01-06 15:28:21.21	11.97	24.63	-35.9	-36.8	25.1	0.00e+00	120	33	101	1048576	50	5799
2026-01-06 15:28:22.22	11.88	24.78	-35.8	-36.6	25.2	0.00e+00	123	33	101	1048576	50	5721
2026-01-06 15:28:23.23	11.79	24.93	-36.0	-36.9	25.0	0.00e+00	123	33	101	1048576	50	5887
2026-01-06 15:28:24.24	11.69	25.08	-35.9	-36.7	25.2	0.00e+00	122	33	101	1048576	50	5769
2026-01-06 15:28:25.25	11.60	25.23	-36.0	-36.8	25.1	0.00e+00	123	33	101	1048576	50	5845
2026-01-06 15:28:26.26	11.50	25.39	-36.1	-36.9	25.0	0.00e+00	122	33	101	1048576	50	5924
2026-01-06 15:28:27.27	11.40	25.54	-36.2	-37.1	24.9	0.00e+00	123	33	101	1048576	50	6006
2026-01-06 15:28:28.28	11.31	25.70	-36.2	-37.0	24.9	0.00e+00	120	33	101	1048576	50	5977
2026-01-06 15:28:29.29	11.21	25.85	-36.3	-37.2	24.8	0.00e+00	122	33	101	1048576	50	6081
2026-01-06 15:28:30.30	11.11	26.01	-36.3	-37.2	24.8	0.00e+00	120	33	101	1048576	50	6114
2026-01-06 15:28:31.31	11.01	26.16	-36.5	-37.4	24.7	0.00e+00	123	33	101	1048576	50	6234
2026-01-06 15:28:32.33	10.91	26.32	-36.6	-37.5	24.6	0.00e+00	120	33	101	1048576	50	6308
2026-01-06 15:28:33.34	10.80	26.48	-36.8	-37.7	24.4	0.00e+00	122	33	101	1048576	50	6455
2026-01-06 15:28:34.35	10.70	26.64	-36.9	-37.8	24.4	0.00e+00	123	33	101	1048576	50	6555
2026-01-06 15:28:35.36	10.59	26.80	-37.1	-38.0	24.2	0.00e+00	123	33	101	1048576	50	6677
2026-01-06 15:28:36.37	10.49	26.96	-37.2	-38.1	24.1	0.00e+00	123	33	101	1048576	50	6763
2026-01-06 15:28:37.38	10.38	27.13	-37.1	-38.0	24.2	0.00e+00	122	33	101	1048576	52	5970
2026-01-06 15:28:38.39	10.27	27.29	-37.2	-38.1	24.2	0.00e+00	123	33	101	1048576	52	6027
2026-01-06 15:28:39.40	10.16	27.45	-37.2	-38.1	24.2	0.00e+00	123	33	101	1048576	52	6048
2026-01-06 15:28:40.41	10.05	27.62	-37.2	-38.1	24.2	0.00e+00	122	33	101	1048576	52	6023
2026-01-06 15:28:41.42	9.94	27.78	-37.1	-38.0	24.4	0.00e+00	123	33	101	1048576	52	5961
2026-01-06 15:28:42.44	9.83	27.95	-37.1	-38.1	24.2	0.00e+00	120	33	101	1048576	52	6006
2026-01-06 15:28:43.45	9.71	28.12	-37.2	-38.1	24.3	0.00e+00	122	33	101	1048576	52	6015
2026-01-06 15:28:44.46	9.60	28.29	-37.1	-38.0	24.3	0.00e+00	122	33	101	1048576	52	5953
2026-01-06 15:28:45.47	9.48	28.46	-37.2	-38.1	24.2	0.00e+00	122	33	101	1048576	52	5998
2026-01-06 15:28:46.48	9.36	28.63	-37.1	-38.0	24.4	0.00e+00	122	33	101	1048576	52	5975
2026-01-06 15:28:47.49	9.24	28.80	-37.2	-38.1	24.3	0.00e+00	123	34	101	1048576	52	6003
2026-01-06 15:28:48.50	9.12	28.97	-37.2	-38.1	24.2	0.00e+00	120	33	101	1048576	52	6064
2026-01-06 15:28:49.51	9.00	29.14	-36.9	-37.8	24.4	0.00e+00	123	33	101	1048576	52	5811
2026-01-06 15:28:50.52	8.88	29.32	-36.9	-37.8	24.5	0.00e+00	121	33	101	1048576	52	5833
2026-01-06 15:28:51.53	8.75	29.49	-36.9	-37.8	24.5	0.00e+00	123	33	101	1048576	52	5792
2026-01-06 15:28:52.54	8.63	29.67	-36.8	-37.7	24.6	0.00e+00	123	33	101	1048576	52	5752
2026-01-06 15:28:53.55	8.50	29.84	-36.8	-37.7	24.6	0.00e+00	123	33	101	1048576	52	5762
2026-01-06 15:28:54.56	8.37	30.02	-36.7	-37.6	24.7	0.00e+00	123	33	101	1048576	52	5663
2026-01-06 15:28:55.57	8.24	30.20	-36.5	-37.4	24.8	0.00e+00	121	33	101	1048576	52	5558
2026-01-06 15:28:56.58	8.11	30.38	-36.5	-37.4	24.8	0.00e+00	123	33	101	1048576	52	5572
2026-01-06 15:28:57.60	7.97	30.56	-36.2	-37.1	25.0	0.00e+00	123	33	101	1048576	52	5360
2026-01-06 15:28:58.61	7.84	30.74	-36.2	-37.1	25.1	0.00e+00	122	33	101	1048576	52	5351
2026-01-06 15:28:59.62	7.70	30.92	-35.9	-36.8	25.2	0.00e+00	122	33	101	1048576	50	5806
2026-01-06 15:29:00.63	7.56	31.11	-36.1	-36.9	25.2	0.00e+00	123	33	101	1048576	50	5904
2026-01-06 15:29:01.64	7.42	31.29	-35.9	-36.8	25.2	0.00e+00	123	33	101	1048576	50	5803
2026-01-06 15:29:02.65	7.28	31.47	-36.2	-37.0	25.1	0.00e+00	123	33	101	1048576	50	5984
2026-01-06 15:29:03.66	7.14	31.66	-36.2	-37.1	25.0	0.00e+00	122	33	101	1048576	50	6010
2026-01-06 15:29:04.67	6.99	31.85	-36.3	-37.2	24.9	0.00e+00	120	33	101	1048576	50	6098
2026-01-06 15:29:05.68	6.85	32.03	-36.5	-37.3	24.8	0.00e+00	123	33	101	1048576	50	6201
2026-01-06 15:29:06.69	6.70	32.22	-36.5	-37.4	24.7	0.00e+00	120	33	101	1048576	50	6261
2026-01-06 15:29:07.70	6.55	32.41	-36.6	-37.5	24.7	0.00e+00	123	33	101	1048576	50	6301
2026-01-06 15:29:08.71	6.40	32.60	-36.8	-37.7	24.6	0.00e+00	122	33	101	1048576	50	6450
2026-01-06 15:29:09.72	6.24	32.80	-36.9	-37.8	24.5	0.00e+00	123	33	101	1048576	50	6562
2026-01-06 15:29:10.73	6.09	32.99	-36.8	-37.7	24.5	0.00e+00	125	33	101	1048576	50	6436
2026-01-06 15:29:11.74	5.93	33.18	-36.8	-37.7	24.5	0.00e+00	122	33	101	1048576	50	6432
2026-01-06 15:29:12.75	5.77	33.38	-36.8	-37.7	24.4	0.00e+00	123	33	101	1048576	50	6463
2026-01-06 15:29:13.76	5.61	33.57	-36.8	-37.7	24.4	0.00e+00	122	33	101	1048576	50	6466
2026-01-06 15:29:14.77	5.45	33.77	-37.0	-37.8	24.3	0.00e+00	122	33	101	1048576	50	6560
2026-01-06 15:29:15.78	5.28	33.97	-37.0	-37.9	24.3	0.00e+00	120	33	101	1048576	50	6579
2026-01-06 15:29:16.79	5.11	34.17	-37.2	-38.0	24.3	0.00e+00	120	33	101	1048576	52	5984
2026-01-06 15:29:17.79	4.95	34.36	-37.3	-38.2	24.2	0.00e+00	123	33	101	1048576	52	6109
2026-01-06 15:29:18.80	4.77	34.56	-37.5	-38.4	24.0	0.00e+00	120	33	101	1048576	52	6238
2026-01-06 15:29:19.80	4.60	34.76	-37.7	-38.6	23.9	0.00e+00	120	33	101	1048576	52	6414
2026-01-06 15:29:20.81	4.43	34.97	-37.9	-38.8	23.7	0.00e+00	122	33	101	1048576	52	6534
2026-01-06 15:29:21.81	4.25	35.17	-38.1	-39.0	23.5	0.00e+00	121	33	101	1048576	52	6689
2026-01-06 15:29:22.82	4.07	35.37	-38.3	-39.3	23.3	0.00e+00	122	33	101	1048576	54	6157
2026-01-06 15:29:23.83	3.89	35.58	-38.4	-39.4	23.2	0.00e+00	122	33	101	1048576	54	6221
2026-01-06 15:29:24.83	3.70	35.78	-38.6	-39.6	23.1	0.00e+00	122	33	101	1048576	54	6360
2026-01-06 15:29:25.84	3.51	35.99	-38.7	-39.7	22.9	0.00e+00	123	33	101	1048576	54	6474
2026-01-06 15:29:26.85	3.32	36.20	-38.9	-39.9	22.8	0.00e+00	123	33	101	1048576	54	6627
2026-01-06 15:29:27.85	3.13	36.41	-38.6	-39.6	23.1	0.00e+00	120	33	101	1048576	54	6387
2026-01-06 15:29:28.86	2.94	36.62	-38.5	-39.5	23.1	0.00e+00	123	33	101	1048576	54	6311
2026-01-06 15:29:29.87	2.74	36.83	-38.6	-39.5	23.2	0.00e+00	123	33	101	1048576	54	6348
2026-01-06 15:29:30.88	2.54	37.04	-38.5	-39.5	23.1	0.00e+00	122	33	101	1048576	54	6319
2026-01-06 15:29:31.88	2.34	37.25	-38.5	-39.4	23.2	0.00e+00	121	33	101	1048576	54	6258
2026-01-06 15:29:32.89	2.13	37.47	-38.7	-39.6	23.0	0.00e+00	123	33	101	1048576	54	6417
2026-01-06 15:29:33.90	1.93	37.68	-38.6	-39.6	23.1	0.00e+00	123	33	101	1048576	54	6392
2026-01-06 15:29:34.90	1.72	37.90	-38.6	-39.6	23.2	0.00e+00	123	33	101	1048576	54	6373
2026-01-06 15:29:35.90	1.50	38.11	-38.6	-39.5	23.1	0.00e+00	123	33	101	1048576	54	6337
2026-01-06 15:29:36.91	1.29	38.33	-38.8	-39.8	23.0	0.00e+00	122	33	101	1048576	54	6505
2026-01-06 15:29:37.92	1.07	38.55	-38.6	-39.6	23.0	0.00e+00	120	33	101	1048576	54	6397
2026-01-06 15:29:38.93	0.84	38.77	-38.8	-39.8	23.0	0.00e+00	120	33	101	1048576	54	6505
2026-01-06 15:29:39.93	0.62	38.99	-38.7	-39.7	23.0	0.00e+00	123	33	101	1048576	54	6426
2026-01-06 15:29:40.94	0.39	39.21	-38.7	-39.7	23.0	0.00e+00	123	33	101	1048576	54	6443
2026-01-06 15:29:41.94	0.16	39.43	-38.7	-39.7	23.0	0.00e+00	123	33	101	1048576	54	6469
2026-01-06 15:29:42.95	359.92	39.65	-38.6	-39.6	23.0	0.00e+00	122	33	101	1048576	54	6374
2026-01-06 15:29:43.96	359.69	39.88	-38.5	-39.4	23.3	0.00e+00	120	33	101	1048576	54	6270
2026-01-06 15:29:44.97	359.44	40.10	-38.4	-39.3	23.3	0.00e+00	123	33	101	1048576	54	6196
2026-01-06 15:29:45.98	359.20	40.33	-38.0	-39.0	23.6	0.00e+00	123	33	101	1048576	54	5934
2026-01-06 15:29:46.98	358.95	40.55	-37.7	-38.6	23.8	0.00e+00	123	33	101	1048576	54	5720
2026-01-06 15:29:47.99	358.70	40.78	-37.6	-38.5	23.9	0.00e+00	124	33	101	1048576	54	5642
2026-01-06 15:29:49.00	358.44	41.01	-37.9	-38.9	23.6	0.00e+00	121	33	101	1048576	54	5868
2026-01-06 15:29:50.01	358.18	41.24	-38.3	-39.3	23.1	0.00e+00	122	33	101	1048576	54	6187
2026-01-06 15:29:51.02	357.92	41.47	-38.7	-39.7	23.0	0.00e+00	121	33	101	1048576	54	6461
2026-01-06 15:29:52.02	357.65	41.70	-38.9	-39.9	22.8	0.00e+00	123	33	101	1048576	54	6645
2026-01-06 15:29:53.03	357.38	41.93	-39.0	-40.1	22.7	0.00e+00	123	33	101	1048576	54	6744
2026-01-06 15:29:54.04	357.10	42.16	-39.4	-40.4	22.5	0.00e+00	122	33	101	1048576	56	6242
2026-01-06 15:29:55.04	356.83	42.39	-39.6	-40.6	22.3	0.00e+00	123	33	101	1048576	56	6397
2026-01-06 15:29:56.05	356.54	42.63	-39.9	-41.0	22.0	0.00e+00	123	33	101	1048576	56	6683
2026-01-06 15:29:57.06	356.25	42.86	-40.0	-41.1	21.9	0.00e+00	120	33	101	1048576	56	6748
2026-01-06 15:29:58.07	355.96	43.10	-40.0	-41.1	21.9	0.00e+00	120	33	101	1048576	56	6742
2026-01-06 15:29:59.08	355.67	43.33	-39.9	-41.0	21.9	0.00e+00	123	33	101	1048576	56	6681
2026-01-06 15:30:00.09	355.36	43.57	-39.7	-40.7	22.2	0.00e+00	123	33	101	1048576	56	6488
2026-01-06 15:30:01.09	355.06	43.80	-39.6	-40.6	22.3	0.00e+00	118	33	101	1048576	56	6391
2026-01-06 15:30:02.10	354.75	44.04	-39.7	-40.7	22.2	0.00e+00	123	33	101	1048576	56	6482
2026-01-06 15:30:03.11	354.44	44.28	-39.6	-40.7	22.3	0.00e+00	122	33	101	1048576	56	6466
2026-01-06 15:30:04.11	354.12	44.52	-39.3	-40.3	22.5	0.00e+00	120	33	101	1048576	56	6178
2026-01-06 15:30:05.12	353.79	44.75	-39.0	-40.0	22.7	0.00e+00	122	33	101	1048576	56	5953
2026-01-06 15:30:06.13	353.46	44.99	-38.8	-39.8	22.9	0.00e+00	123	33	101	1048576	56	5833
2026-01-06 15:30:07.14	353.13	45.23	-38.6	-39.5	23.1	0.00e+00	122	33	101	1048576	56	5644
2026-01-06 15:30:08.15	352.79	45.47	-38.6	-39.5	23.2	0.00e+00	120	33	101	1048576	56	5654
2026-01-06 15:30:09.15	352.45	45.71	-38.9	-39.9	22.8	0.00e+00	121	33	101	1048576	56	5881
2026-01-06 15:30:10.16	352.10	45.95	-38.9	-39.9	23.0	0.00e+00	123	33	101	1048576	56	5863
2026-01-06 15:30:11.17	351.74	46.19	-38.7	-39.7	23.0	0.00e+00	121	33	101	1048576	56	5762
2026-01-06 15:30:12.18	351.38	46.43	-38.6	-39.6	23.1	0.00e+00	123	33	101	1048576	56	5694
2026-01-06 15:30:13.18	351.02	46.67	-38.5	-39.4	23.2	0.00e+00	120	33	101	1048576	56	5573
2026-01-06 15:30:14.19	350.64	46.91	-38.4	-39.4	23.2	0.00e+00	122	33	101	1048576	56	5572
2026-01-06 15:30:15.20	350.27	47.15	-38.6	-39.6	23.0	0.00e+00	123	33	101	1048576	56	5683
2026-01-06 15:30:16.21	349.88	47.39	-38.8	-39.8	22.8	0.00e+00	123	33	101	1048576	56	5801
2026-01-06 15:30:17.21	349.49	47.63	-38.9	-39.9	22.8	0.00e+00	122	33	101	1048576	56	5891
2026-01-06 15:30:18.22	349.10	47.87	-39.0	-39.9	22.8	0.00e+00	123	33	101	1048576	56	5926
2026-01-06 15:30:19.22	348.70	48.11	-38.9	-39.9	22.7	0.00e+00	120	33	101	1048576	56	5862
2026-01-06 15:30:20.23	348.29	48.35	-39.3	-40.3	22.3	0.00e+00	122	33	101	1048576	56	6200
2026-01-06 15:30:21.24	347.87	48.59	-39.4	-40.4	22.0	0.00e+00	121	33	101	1048576	56	6268
2026-01-06 15:30:22.25	347.45	48.83	-39.2	-40.2	22.3	0.00e+00	123	34	101	1048576	56	6113
2026-01-06 15:30:23.25	347.03	49.07	-38.9	-40.0	22.5	0.00e+00	123	33	101	1048576	56	5933
2026-01-06 15:30:24.26	346.59	49.30	-38.8	-39.8	22.8	0.00e+00	122	33	101	1048576	56	5844
2026-01-06 15:30:25.27	346.15	49.54	-38.6	-39.6	23.1	0.00e+00	123	33	101	1048576	56	5661
2026-01-06 15:30:26.27	345.70	49.78	-38.3	-39.3	23.3	0.00e+00	120	33	101	1048576	56	5490
2026-01-06 15:30:27.28	345.25	50.02	-38.5	-39.5	23.1	0.00e+00	123	33	101	1048576	56	5638
2026-01-06 15:30:28.28	344.79	50.25	-38.8	-39.9	23.0	0.00e+00	123	33	101	1048576	56	5861
2026-01-06 15:30:29.29	344.32	50.48	-39.1	-40.2	22.6	0.00e+00	121	33	101	1048576	56	6074
2026-01-06 15:30:30.30	343.84	50.72	-39.0	-40.0	22.7	0.00e+00	122	34	101	1048576	56	5956
2026-01-06 15:30:31.30	343.36	50.95	-39.1	-40.1	22.7	0.00e+00	123	33	101	1048576	56	6053
2026-01-06 15:30:32.31	342.86	51.18	-38.8	-39.9	22.9	0.00e+00	123	33	101	1048576	56	5869
2026-01-06 15:30:33.31	342.37	51.41	-38.9	-39.9	23.0	0.00e+00	122	33	101	1048576	56	5882
2026-01-06 15:30:34.32	341.86	51.64	-38.4	-39.3	23.3	0.00e+00	121	33	101	1048576	56	5527
2026-01-06 15:30:35.32	341.35	51.87	-38.4	-39.4	23.3	0.00e+00	123	33	101	1048576	56	5534
2026-01-06 15:30:36.33	340.82	52.10	-37.9	-38.9	23.7	0.00e+00	123	33	101	1048576	54	5870
2026-01-06 15:30:37.34	340.29	52.32	-38.0	-38.9	23.6	0.00e+00	122	33	101	1048576	54	5893
2026-01-06 15:30:38.35	339.75	52.55	-38.3	-39.2	23.3	0.00e+00	122	33	101	1048576	54	6114
2026-01-06 15:30:39.36	339.20	52.77	-38.4	-39.4	23.3	0.00e+00	123	33	101	1048576	54	6252
2026-01-06 15:30:40.37	338.64	52.99	-38.1	-39.0	23.6	0.00e+00	123	33	101	1048576	54	5984
2026-01-06 15:30:41.37	338.08	53.21	-37.6	-38.6	23.9	0.00e+00	122	33	101	1048576	54	5664
2026-01-06 15:30:42.38	337.50	53.42	-37.2	-38.1	24.2	0.00e+00	123	33	101	1048576	52	6014
2026-01-06 15:30:43.39	336.92	53.64	-37.4	-38.3	23.8	0.00e+00	123	33	101	1048576	52	6196
2026-01-06 15:30:44.39	336.33	53.85	-37.8	-38.8	23.7	0.00e+00	120	33	101	1048576	52	6521
2026-01-06 15:30:45.40	335.73	54.06	-37.9	-38.9	23.5	0.00e+00	120	33	101	1048576	52	6642
2026-01-06 15:30:46.41	335.12	54.27	-38.0	-39.0	23.7	0.00e+00	123	33	101	1048576	52	6668
2026-01-06 15:30:47.41	334.51	54.47	-37.8	-38.8	23.7	0.00e+00	123	33	101	1048576	52	6510
2026-01-06 15:30:48.42	333.88	54.68	-37.6	-38.6	23.6	0.00e+00	122	33	101	1048576	52	6401
2026-01-06 15:30:49.43	333.24	54.88	-37.5	-38.5	23.5	0.00e+00	120	33	101	1048576	52	6316
2026-01-06 15:30:50.44	332.60	55.07	-37.7	-38.7	23.5	0.00e+00	122	33	101	1048576	52	6460
2026-01-06 15:30:51.45	331.94	55.27	-37.8	-38.8	23.6	0.00e+00	122	33	101	1048576	52	6527
2026-01-06 15:30:52.46	331.28	55.46	-37.4	-38.4	24.1	0.00e+00	120	33	101	1048576	52	6224
2026-01-06 15:30:53.46	330.61	55.65	-37.3	-38.3	24.1	0.00e+00	123	33	101	1048576	52	6136
2026-01-06 15:30:54.47	329.93	55.83	-37.3	-38.2	24.2	0.00e+00	122	33	101	1048576	52	6113
2026-01-06 15:30:55.48	329.24	56.01	-37.0	-37.9	24.5	0.00e+00	123	33	101	1048576	52	5878
2026-01-06 15:30:56.49	328.54	56.19	-36.9	-37.8	24.4	0.00e+00	123	33	101	1048576	52	5812
2026-01-06 15:30:57.49	327.83	56.36	-36.5	-37.4	24.6	0.00e+00	120	33	101	1048576	52	5545
2026-01-06 15:30:58.50	327.12	56.53	-36.3	-37.1	24.9	0.00e+00	120	33	101	1048576	52	5392
2026-01-06 15:30:59.51	326.39	56.70	-36.0	-36.9	25.2	0.00e+00	122	33	101	1048576	50	5866
2026-01-06 15:31:00.51	325.66	56.86	-35.8	-36.7	25.2	0.00e+00	123	33	101	1048576	50	5731
2026-01-06 15:31:01.52	324.92	57.02	-36.0	-36.9	25.0	0.00e+00	123	33	101	1048576	50	5872
2026-01-06 15:31:02.52	324.17	57.17	-36.1	-37.0	25.1	0.00e+00	122	33	101	1048576	50	5946
2026-01-06 15:31:03.53	323.41	57.32	-36.0	-36.9	25.0	0.00e+00	123	33	101	1048576	50	5896
2026-01-06 15:31:04.54	322.64	57.47	-36.0	-36.9	25.0	0.00e+00	122	33	101	1048576	50	5884
2026-01-06 15:31:05.54	321.87	57.61	-35.9	-36.8	25.1	0.00e+00	123	33	101	1048576	50	5797
2026-01-06 15:31:06.55	321.08	57.75	-35.8	-36.6	25.1	0.00e+00	123	33	101	1048576	50	5711
2026-01-06 15:31:07.56	320.29	57.88	-35.9	-36.7	25.2	0.00e+00	122	33	101	1048576	50	5787
2026-01-06 15:31:08.56	319.49	58.00	-36.1	-37.0	24.9	0.00e+00	123	33	101	1048576	50	5982
2026-01-06 15:31:09.57	318.69	58.12	-36.4	-37.3	24.8	0.00e+00	120	33	101	1048576	50	6145
2026-01-06 15:31:10.58	317.87	58.24	-36.3	-37.2	24.8	0.00e+00	123	33	101	1048576	50	6111
2026-01-06 15:31:11.58	317.05	58.35	-36.1	-37.0	25.0	0.00e+00	120	33	101	1048576	50	5972
2026-01-06 15:31:12.59	316.22	58.45	-36.2	-37.1	24.9	0.00e+00	123	33	101	1048576	50	6040
2026-01-06 15:31:13.60	315.39	58.55	-36.5	-37.4	24.7	0.00e+00	123	33	101	1048576	50	6270
2026-01-06 15:31:14.61	314.54	58.65	-36.5	-37.4	24.7	0.00e+00	122	33	101	1048576	50	6234
2026-01-06 15:31:15.61	313.70	58.74	-36.3	-37.2	24.9	0.00e+00	122	33	101	1048576	50	6113
2026-01-06 15:31:16.62	312.85	58.82	-36.2	-37.2	24.6	0.00e+00	122	33	101	1048576	50	6082
2026-01-06 15:31:17.63	311.99	58.90	-36.2	-37.1	24.6	0.00e+00	122	33	101	1048576	50	6025
2026-01-06 15:31:18.64	311.13	58.97	-36.3	-37.2	24.6	0.00e+00	123	33	101	1048576	50	6101
2026-01-06 15:31:19.65	310.26	59.03	-36.3	-37.2	24.7	0.00e+00	120	33	101	1048576	50	6131
2026-01-06 15:31:20.65	309.39	59.09	-36.4	-37.3	24.5	0.00e+00	120	33	101	1048576	50	6157
2026-01-06 15:31:21.66	308.52	59.15	-36.6	-37.5	24.4	0.00e+00	122	33	101	1048576	50	6310
2026-01-06 15:31:22.67	307.64	59.19	-36.6	-37.6	24.6	0.00e+00	123	33	101	1048576	50	6356
2026-01-06 15:31:23.68	306.75	59.24	-36.5	-37.4	24.7	0.00e+00	123	33	101	1048576	50	6245
2026-01-06 15:31:24.69	305.87	59.27	-36.6	-37.5	24.6	0.00e+00	123	33	101	1048576	50	6344
2026-01-06 15:31:25.69	304.99	59.30	-36.6	-37.5	24.6	0.00e+00	123	33	101	1048576	50	6331
2026-01-06 15:31:26.70	304.10	59.32	-36.3	-37.2	24.9	0.00e+00	123	33	101	1048576	50	6090
2026-01-06 15:31:27.71	303.21	59.34	-36.3	-37.2	24.9	0.00e+00	123	33	101	1048576	50	6103
2026-01-06 15:31:28.71	302.33	59.35	-35.7	-36.5	25.3	0.00e+00	121	33	101	1048576	50	5637
2026-01-06 15:31:29.72	301.43	59.35	-35.8	-36.7	25.2	0.00e+00	120	33	101	1048576	50	5734
2026-01-06 15:31:30.73	300.54	59.35	-35.7	-36.5	25.4	0.00e+00	123	33	101	1048576	50	5641
2026-01-06 15:31:31.74	299.65	59.34	-35.7	-36.6	25.3	0.00e+00	123	33	101	1048576	50	5708
2026-01-06 15:31:32.74	298.77	59.32	-35.1	-36.0	25.5	0.00e+00	123	33	101	1048576	50	5317
2026-01-06 15:31:33.75	297.88	59.30	-35.4	-36.3	25.2	0.00e+00	122	33	101	1048576	48	6143
2026-01-06 15:31:34.76	296.99	59.27	-35.8	-36.7	25.1	0.00e+00	121	33	101	1048576	48	6483
2026-01-06 15:31:35.77	296.10	59.24	-36.1	-37.0	25.0	0.00e+00	123	33	101	1048576	48	6710
2026-01-06 15:31:36.77	295.23	59.20	-36.2	-37.1	25.0	0.00e+00	123	33	101	1048576	50	6036
2026-01-06 15:31:37.78	294.35	59.15	-36.3	-37.2	24.8	0.00e+00	123	33	101	1048576	50	6099
2026-01-06 15:31:38.79	293.47	59.09	-36.7	-37.6	24.5	0.00e+00	123	33	101	1048576	50	6415
2026-01-06 15:31:39.79	292.61	59.04	-36.4	-37.3	24.9	0.00e+00	122	33	101	1048576	50	6161
2026-01-06 15:31:40.80	291.74	58.97	-36.0	-36.8	25.2	0.00e+00	120	33	101	1048576	50	5851
2026-01-06 15:31:41.81	290.87	58.90	-35.9	-36.7	25.2	0.00e+00	123	33	101	1048576	50	5790
2026-01-06 15:31:42.82	290.01	58.82	-36.1	-37.0	25.0	0.00e+00	123	33	101	1048576	50	5934
2026-01-06 15:31:43.82	289.17	58.74	-36.1	-37.0	24.9	0.00e+00	123	33	101	1048576	50	5935
2026-01-06 15:31:44.83	288.32	58.65	-36.3	-37.2	24.4	0.00e+00	123	33	101	1048576	50	6112
2026-01-06 15:31:45.84	287.48	58.56	-36.6	-37.5	24.6	0.00e+00	123	33	101	1048576	50	6339
2026-01-06 15:31:46.84	286.65	58.46	-36.8	-37.7	24.5	0.00e+00	122	33	101	1048576	50	6472
2026-01-06 15:31:47.85	285.82	58.35	-36.6	-37.5	24.6	0.00e+00	121	33	101	1048576	50	6307
2026-01-06 15:31:48.86	284.99	58.24	-36.4	-37.4	24.5	0.00e+00	121	33	101	1048576	50	6209
2026-01-06 15:31:49.86	284.18	58.13	-36.6	-37.5	24.5	0.00e+00	123	33	101	1048576	50	6333
2026-01-06 15:31:50.87	283.37	58.00	-36.7	-37.7	24.5	0.00e+00	122	33	101	1048576	50	6431
2026-01-06 15:31:51.87	282.58	57.88	-36.9	-37.9	24.5	0.00e+00	120	33	101	1048576	50	6592
2026-01-06 15:31:52.88	281.78	57.75	-36.9	-37.8	24.5	0.00e+00	123	33	101	1048576	50	6566
2026-01-06 15:31:53.88	281.00	57.61	-36.3	-37.2	25.0	0.00e+00	123	33	101	1048576	50	6120
2026-01-06 15:31:54.89	280.22	57.47	-36.2	-37.1	24.9	0.00e+00	123	33	101	1048576	50	6033
2026-01-06 15:31:55.89	279.46	57.33	-36.4	-37.3	24.8	0.00e+00	122	33	101	1048576	50	6187
2026-01-06 15:31:56.90	278.70	57.18	-36.6	-37.5	24.7	0.00e+00	121	33	101	1048576	50	6290
2026-01-06 15:31:57.91	277.94	57.02	-36.8	-37.7	24.5	0.00e+00	122	33	101	1048576	50	6495
2026-01-06 15:31:58.91	277.21	56.87	-36.9	-37.8	24.5	0.00e+00	123	33	101	1048576	50	6528
2026-01-06 15:31:59.92	276.47	56.70	-36.9	-37.8	24.5	0.00e+00	123	33	101	1048576	50	6544
2026-01-06 15:32:00.93	275.74	56.54	-37.0	-37.9	24.3	0.00e+00	123	33	101	1048576	50	6621
2026-01-06 15:32:01.93	275.03	56.37	-36.7	-37.6	24.5	0.00e+00	120	33	101	1048576	50	6417
2026-01-06 15:32:02.94	274.32	56.19	-37.0	-37.9	24.4	0.00e+00	122	33	101	1048576	50	6605
2026-01-06 15:32:03.95	273.62	56.02	-37.4	-38.3	24.2	0.00e+00	122	33	101	1048576	52	6198
2026-01-06 15:32:04.95	272.93	55.84	-37.7	-38.6	23.9	0.00e+00	120	33	101	1048576	52	6412
2026-01-06 15:32:05.96	272.25	55.65	-37.3	-38.2	24.2	0.00e+00	120	33	101	1048576	52	6134
2026-01-06 15:32:06.97	271.57	55.46	-36.8	-37.7	24.6	0.00e+00	123	33	101	1048576	52	5744
2026-01-06 15:32:07.98	270.91	55.27	-36.5	-37.4	24.6	0.00e+00	122	33	101	1048576	52	5568
2026-01-06 15:32:08.99	270.25	55.07	-36.4	-37.2	24.8	0.00e+00	122	33	101	1048576	52	5454
2026-01-06 15:32:09.99	269.61	54.88	-36.7	-37.6	24.6	0.00e+00	120	33	101	1048576	52	5690
2026-01-06 15:32:11.00	268.97	54.68	-37.7	-38.6	23.8	0.00e+00	122	33	101	1048576	52	6398
2026-01-06 15:32:12.00	268.35	54.48	-38.4	-39.4	23.1	0.00e+00	123	33	101	1048576	54	6250
2026-01-06 15:32:13.01	267.73	54.27	-38.2	-39.2	23.2	0.00e+00	122	33	101	1048576	54	6087
2026-01-06 15:32:14.02	267.12	54.06	-37.8	-38.7	23.5	0.00e+00	123	33	101	1048576	54	5780
2026-01-06 15:32:15.02	266.52	53.85	-37.9	-38.9	23.6	0.00e+00	120	33	101	1048576	54	5890
2026-01-06 15:32:16.02	265.93	53.64	-38.4	-39.4	23.0	0.00e+00	119	33	101	1048576	54	6236
2026-01-06 15:32:17.03	265.35	53.43	-38.5	-39.5	22.4	0.00e+00	122	33	101	1048576	54	6349
2026-01-06 15:32:18.04	264.77	53.21	-38.6	-39.6	22.4	0.00e+00	123	33	101	1048576	54	6370
2026-01-06 15:32:19.04	264.21	52.99	-38.1	-39.1	23.1	0.00e+00	122	33	101	1048576	54	6032
2026-01-06 15:32:20.05	263.65	52.77	-38.1	-39.0	23.5	0.00e+00	120	33	101	1048576	54	5958
2026-01-06 15:32:21.06	263.10	52.55	-37.8	-38.8	23.5	0.00e+00	123	33	101	1048576	54	5795
2026-01-06 15:32:22.07	262.55	52.32	-37.4	-38.3	23.8	0.00e+00	122	33	101	1048576	54	5496
2026-01-06 15:32:23.07	262.03	52.10	-37.2	-38.1	24.1	0.00e+00	120	33	101	1048576	54	5376
2026-01-06 15:32:24.08	261.50	51.87	-37.4	-38.3	24.0	0.00e+00	123	33	101	1048576	52	6186
2026-01-06 15:32:25.08	260.99	51.64	-38.5	-39.5	23.0	0.00e+00	123	33	101	1048576	54	6278
2026-01-06 15:32:26.09	260.48	51.41	-40.2	-41.4	21.4	0.00e+00	124	33	101	1048576	58	6234
2026-01-06 15:32:27.10	259.97	51.18	-40.8	-42.2	20.4	0.00e+00	120	33	101	1048576	58	6822
2026-01-06 15:32:28.10	259.48	50.95	-40.3	-41.6	20.8	0.00e+00	123	33	101	1048576	58	6388
2026-01-06 15:32:29.11	259.00	50.72	-39.4	-40.5	21.8	0.00e+00	123	33	101	1048576	58	5627
2026-01-06 15:32:30.12	258.52	50.48	-39.2	-40.2	22.2	0.00e+00	122	33	101	1048576	56	6130
2026-01-06 15:32:31.13	258.04	50.25	-38.3	-39.3	23.2	0.00e+00	123	33	101	1048576	56	5489
2026-01-06 15:32:32.13	257.58	50.01	-37.8	-38.7	23.7	0.00e+00	122	33	101	1048576	54	5786
2026-01-06 15:32:33.14	257.13	49.77	-38.0	-39.0	23.6	0.00e+00	123	33	101	1048576	54	5930
2026-01-06 15:32:34.15	256.68	49.54	-39.2	-40.2	22.5	0.00e+00	120	33	101	1048576	54	6839
2026-01-06 15:32:35.15	256.24	49.30	-40.5	-41.7	20.9	0.00e+00	123	33	101	1048576	58	6447
2026-01-06 15:32:36.16	255.80	49.06	-41.4	-42.6	20.3	0.00e+00	123	33	101	1048576	60	6423
2026-01-06 15:32:37.17	255.37	48.82	-40.6	-41.8	21.2	0.00e+00	122	33	101	1048576	60	5848
2026-01-06 15:32:38.17	254.95	48.58	-39.5	-40.6	22.1	0.00e+00	123	33	101	1048576	58	5662
2026-01-06 15:32:39.18	254.53	48.34	-38.6	-39.6	23.2	0.00e+00	120	33	101	1048576	56	5696
2026-01-06 15:32:40.18	254.13	48.10	-38.0	-38.9	23.8	0.00e+00	122	33	101	1048576	54	5908
2026-01-06 15:32:41.19	253.72	47.86	-38.0	-38.9	23.6	0.00e+00	123	33	101	1048576	54	5892
2026-01-06 15:32:42.19	253.33	47.62	-38.4	-39.4	23.2	0.00e+00	123	33	101	1048576	54	6213
2026-01-06 15:32:43.20	252.94	47.38	-39.1	-40.1	22.8	0.00e+00	122	33	101	1048576	54	6745
2026-01-06 15:32:44.21	252.55	47.14	-39.8	-40.8	22.1	0.00e+00	123	33	101	1048576	56	6565
2026-01-06 15:32:45.22	252.17	46.90	-40.2	-41.3	21.7	0.00e+00	122	33	101	1048576	58	6201
2026-01-06 15:32:46.23	251.80	46.66	-40.4	-41.6	20.9	0.00e+00	120	33	101	1048576	58	6370
2026-01-06 15:32:47.23	251.44	46.42	-40.1	-41.3	20.9	0.00e+00	122	33	101	1048576	58	6154
2026-01-06 15:32:48.24	251.07	46.18	-39.1	-40.1	22.1	0.00e+00	123	33	101	1048576	56	6062
2026-01-06 15:32:49.24	250.72	45.94	-38.4	-39.4	23.2	0.00e+00	122	33	101	1048576	56	5558
2026-01-06 15:32:50.25	250.37	45.70	-38.1	-39.0	23.6	0.00e+00	121	33	101	1048576	54	5969
2026-01-06 15:32:51.26	250.02	45.45	-38.4	-39.3	23.2	0.00e+00	123	33	101	1048576	54	6179
2026-01-06 15:32:52.27	249.68	45.21	-38.8	-39.8	22.8	0.00e+00	120	33	101	1048576	54	6536
2026-01-06 15:32:53.28	249.35	44.97	-39.0	-40.0	22.7	0.00e+00	122	33	101	1048576	54	6669
2026-01-06 15:32:54.29	249.02	44.73	-39.0	-40.0	22.8	0.00e+00	122	33	101	1048576	54	6665
2026-01-06 15:32:55.30	248.69	44.50	-39.3	-40.3	22.5	0.00e+00	123	33	101	1048576	56	6194
2026-01-06 15:32:56.31	248.37	44.26	-39.6	-40.6	22.3	0.00e+00	123	33	101	1048576	56	6406
2026-01-06 15:32:57.32	248.05	44.02	-39.9	-41.0	21.9	0.00e+00	121	33	101	1048576	56	6694
2026-01-06 15:32:58.33	247.74	43.78	-39.5	-40.6	22.3	0.00e+00	123	33	101	1048576	56	6352
2026-01-06 15:32:59.34	247.44	43.54	-39.2	-40.2	22.7	0.00e+00	120	33	101	1048576	56	6109
2026-01-06 15:33:00.35	247.13	43.31	-38.9	-39.9	22.8	0.00e+00	123	33	101	1048576	56	5872
2026-01-06 15:33:01.36	246.84	43.07	-38.6	-39.5	23.2	0.00e+00	122	33	101	1048576	56	5632
2026-01-06 15:33:02.37	246.54	42.83	-38.8	-39.8	22.7	0.00e+00	122	33	101	1048576	56	5833
2026-01-06 15:33:03.38	246.25	42.60	-39.6	-40.6	21.8	0.00e+00	121	33	101	1048576	56	6412
2026-01-06 15:33:04.39	245.97	42.36	-40.8	-42.0	20.9	0.00e+00	123	33	101	1048576	58	6692
2026-01-06 15:33:05.40	245.69	42.13	-41.1	-42.4	20.5	0.00e+00	123	33	101	1048576	60	6238
2026-01-06 15:33:06.41	245.41	41.90	-40.8	-42.0	20.4	0.00e+00	122	33	101	1048576	60	5992
2026-01-06 15:33:07.43	245.14	41.66	-40.0	-41.2	21.2	0.00e+00	123	33	101	1048576	58	6098
2026-01-06 15:33:08.44	244.87	41.43	-39.5	-40.6	22.0	0.00e+00	122	33	101	1048576	58	5675
2026-01-06 15:33:09.45	244.60	41.20	-39.1	-40.1	22.8	0.00e+00	122	33	101	1048576	56	6005
2026-01-06 15:33:10.46	244.34	40.97	-38.9	-39.9	23.0	0.00e+00	123	33	101	1048576	56	5882
2026-01-06 15:33:11.47	244.09	40.74	-39.1	-40.1	22.8	0.00e+00	122	33	101	1048576	56	6045
2026-01-06 15:33:12.48	243.83	40.51	-39.3	-40.4	22.6	0.00e+00	123	33	101	1048576	56	6232
2026-01-06 15:33:13.49	243.58	40.28	-39.6	-40.6	22.4	0.00e+00	122	33	101	1048576	56	6415
2026-01-06 15:33:14.50	243.34	40.06	-39.6	-40.6	22.3	0.00e+00	123	33	101	1048576	56	6422
2026-01-06 15:33:15.51	243.09	39.83	-39.6	-40.7	22.1	0.00e+00	120	33	101	1048576	56	6434
2026-01-06 15:33:16.52	242.85	39.61	-39.6	-40.7	22.1	0.00e+00	123	33	101	1048576	56	6448
2026-01-06 15:33:17.54	242.62	39.38	-39.7	-40.7	22.1	0.00e+00	122	33	101	1048576	56	6492
2026-01-06 15:33:18.55	242.38	39.16	-39.6	-40.7	22.2	0.00e+00	123	33	101	1048576	56	6472
2026-01-06 15:33:19.56	242.15	38.93	-39.4	-40.5	22.0	0.00e+00	122	33	101	1048576	56	6336
2026-01-06 15:33:20.57	241.93	38.71	-39.1	-40.1	22.3	0.00e+00	123	33	101	1048576	56	6062
2026-01-06 15:33:21.58	241.70	38.49	-38.3	-39.3	23.1	0.00e+00	121	33	101	1048576	56	5495
2026-01-06 15:33:22.59	241.48	38.27	-37.8	-38.7	23.7	0.00e+00	122	33	101	1048576	54	5760
2026-01-06 15:33:23.60	241.27	38.05	-37.8	-38.7	23.8	0.00e+00	122	33	101	1048576	54	5790
2026-01-06 15:33:24.61	241.05	37.83	-37.8	-38.8	23.7	0.00e+00	122	33	101	1048576	54	5793
2026-01-06 15:33:25.62	240.84	37.62	-38.1	-39.0	23.4	0.00e+00	122	33	101	1048576	54	5988
2026-01-06 15:33:26.63	240.63	37.40	-38.4	-39.4	23.2	0.00e+00	123	33	101	1048576	54	6218
2026-01-06 15:33:27.64	240.42	37.19	-38.8	-39.7	23.0	0.00e+00	120	33	101	1048576	54	6482
2026-01-06 15:33:28.65	240.22	36.97	-38.8	-39.8	22.9	0.00e+00	122	33	101	1048576	54	6571
2026-01-06 15:33:29.66	240.02	36.76	-38.8	-39.8	23.0	0.00e+00	122	33	101	1048576	54	6520
2026-01-06 15:33:30.67	239.82	36.55	-38.4	-39.4	23.3	0.00e+00	122	33	101	1048576	54	6234
2026-01-06 15:33:31.68	239.63	36.34	-38.1	-39.1	23.4	0.00e+00	122	33	101	1048576	54	6005
2026-01-06 15:33:32.69	239.43	36.13	-38.1	-39.0	23.3	0.00e+00	122	33	101	1048576	54	5964
2026-01-06 15:33:33.70	239.24	35.92	-38.0	-39.0	23.2	0.00e+00	123	33	101	1048576	54	5940
2026-01-06 15:33:34.71	239.06	35.71	-37.7	-38.7	23.2	0.00e+00	122	33	101	1048576	54	5744
2026-01-06 15:33:35.72	238.87	35.50	-37.4	-38.3	23.7	0.00e+00	123	33	101	1048576	54	5489
2026-01-06 15:33:36.73	238.69	35.30	-37.1	-38.0	24.0	0.00e+00	120	33	101	1048576	52	5987
2026-01-06 15:33:37.75	238.50	35.09	-37.1	-38.0	24.3	0.00e+00	123	33	101	1048576	52	5927
2026-01-06 15:33:38.76	238.33	34.88	-36.9	-37.8	24.5	0.00e+00	120	33	101	1048576	52	5822
2026-01-06 15:33:39.77	238.15	34.68	-37.0	-37.9	24.4	0.00e+00	123	33	101	1048576	52	5867
2026-01-06 15:33:40.78	237.98	34.48	-37.1	-38.0	24.2	0.00e+00	122	33	101	1048576	52	5940
2026-01-06 15:33:41.79	237.80	34.28	-37.3	-38.2	24.2	0.00e+00	120	33	101	1048576	52	6082
2026-01-06 15:33:42.80	237.63	34.08	-37.4	-38.3	24.1	0.00e+00	123	33	101	1048576	52	6160
2026-01-06 15:33:43.81	237.47	33.88	-37.5	-38.4	24.1	0.00e+00	122	33	101	1048576	52	6255
2026-01-06 15:33:44.82	237.30	33.68	-37.3	-38.2	24.2	0.00e+00	120	33	101	1048576	52	6106
2026-01-06 15:33:45.83	237.14	33.48	-37.2	-38.1	24.3	0.00e+00	123	33	101	1048576	52	6052
2026-01-06 15:33:46.84	236.98	33.29	-37.3	-38.2	24.2	0.00e+00	123	33	101	1048576	52	6083
2026-01-06 15:33:47.85	236.82	33.09	-36.9	-37.8	24.4	0.00e+00	123	33	101	1048576	52	5845
2026-01-06 15:33:48.85	236.66	32.90	-36.9	-37.8	24.5	0.00e+00	123	33	101	1048576	52	5792
2026-01-06 15:33:49.86	236.50	32.71	-36.6	-37.5	24.7	0.00e+00	123	33	101	1048576	52	5642
2026-01-06 15:33:50.87	236.35	32.51	-36.8	-37.7	24.6	0.00e+00	123	33	101	1048576	52	5739
2026-01-06 15:33:51.88	236.20	32.32	-36.8	-37.6	24.6	0.00e+00	123	33	101	1048576	52	5725
2026-01-06 15:33:52.90	236.05	32.13	-36.9	-37.8	24.4	0.00e+00	122	33	101	1048576	52	5844
2026-01-06 15:33:53.91	235.90	31.94	-37.1	-38.0	24.1	0.00e+00	123	33	101	1048576	52	5967
2026-01-06 15:33:54.92	235.75	31.75	-37.2	-38.2	23.9	0.00e+00	127	33	101	1048576	52	6080
2026-01-06 15:33:55.93	235.61	31.57	-37.2	-38.1	23.9	0.00e+00	123	33	101	1048576	52	6041
2026-01-06 15:33:56.94	235.46	31.38	-37.1	-38.0	23.9	0.00e+00	122	33	101	1048576	52	5976
2026-01-06 15:33:57.95	235.32	31.19	-37.1	-38.0	24.1	0.00e+00	120	33	101	1048576	52	5987
2026-01-06 15:33:58.96	235.18	31.01	-37.0	-37.9	24.2	0.00e+00	123	33	101	1048576	52	5921
2026-01-06 15:33:59.97	235.04	30.83	-37.1	-38.1	24.3	0.00e+00	121	33	101	1048576	52	5998
2026-01-06 15:34:00.99	234.90	30.64	-37.0	-37.9	24.3	0.00e+00	122	33	101	1048576	52	5882
2026-01-06 15:34:02.00	234.77	30.46	-37.0	-37.9	24.2	0.00e+00	123	33	101	1048576	52	5924
2026-01-06 15:34:03.01	234.64	30.28	-37.2	-38.1	24.1	0.00e+00	121	33	101	1048576	52	6022
2026-01-06 15:34:04.02	234.50	30.10	-36.9	-37.8	24.2	0.00e+00	123	33	101	1048576	52	5833
2026-01-06 15:34:05.03	234.37	29.92	-36.8	-37.8	24.2	0.00e+00	123	33	101	1048576	52	5796
2026-01-06 15:34:06.04	234.24	29.74	-37.0	-37.9	24.1	0.00e+00	123	33	101	1048576	52	5886
2026-01-06 15:34:07.05	234.12	29.57	-36.8	-37.7	24.2	0.00e+00	123	33	101	1048576	52	5768
2026-01-06 15:34:08.06	233.99	29.39	-36.9	-37.8	24.2	0.00e+00	123	33	101	1048576	52	5842
2026-01-06 15:34:09.07	233.86	29.22	-36.9	-37.8	24.3	0.00e+00	124	33	101	1048576	52	5846
2026-01-06 15:34:10.08	233.74	29.04	-36.8	-37.8	24.4	0.00e+00	122	33	101	1048576	52	5806
2026-01-06 15:34:11.09	233.62	28.87	-36.8	-37.8	24.4	0.00e+00	120	33	101	1048576	52	5793
2026-01-06 15:34:12.10	233.50	28.70	-36.8	-37.7	24.5	0.00e+00	123	33	101	1048576	52	5749
2026-01-06 15:34:13.11	233.38	28.53	-36.6	-37.5	24.7	0.00e+00	122	33	101	1048576	52	5642
2026-01-06 15:34:14.12	233.26	28.35	-36.5	-37.4	24.8	0.00e+00	123	33	101	1048576	52	5570
2026-01-06 15:34:15.13	233.14	28.19	-36.4	-37.3	24.8	0.00e+00	120	33	101	1048576	52	5507
2026-01-06 15:34:16.14	233.03	28.02	-36.5	-37.4	24.8	0.00e+00	123	33	101	1048576	52	5573
2026-01-06 15:34:17.15	232.91	27.85	-36.5	-37.4	24.8	0.00e+00	123	33	101	1048576	52	5558
2026-01-06 15:34:18.16	232.80	27.68	-36.5	-37.5	24.7	0.00e+00	123	33	101	1048576	52	5603
2026-01-06 15:34:19.17	232.69	27.52	-36.4	-37.3	24.8	0.00e+00	122	33	101	1048576	52	5493
2026-01-06 15:34:20.18	232.58	27.35	-36.4	-37.2	24.8	0.00e+00	122	33	101	1048576	52	5465
2026-01-06 15:34:21.19	232.47	27.19	-36.1	-37.0	25.1	0.00e+00	123	33	101	1048576	50	5968
2026-01-06 15:34:22.20	232.36	27.02	-36.3	-37.2	24.9	0.00e+00	123	33	101	1048576	50	6074
2026-01-06 15:34:23.21	232.25	26.86	-36.1	-37.0	25.0	0.00e+00	122	33	101	1048576	50	5957
2026-01-06 15:34:24.22	232.14	26.70	-36.3	-37.1	24.9	0.00e+00	122	33	101	1048576	50	6064
2026-01-06 15:34:25.24	232.04	26.54	-36.3	-37.2	24.9	0.00e+00	120	33	101	1048576	50	6102
2026-01-06 15:34:26.25	231.93	26.38	-36.4	-37.2	24.8	0.00e+00	122	33	101	1048576	50	6128
2026-01-06 15:34:27.26	231.83	26.22	-36.4	-37.2	24.8	0.00e+00	123	33	101	1048576	50	6128
2026-01-06 15:34:28.27	231.73	26.06	-36.4	-37.3	24.8	0.00e+00	123	33	101	1048576	50	6149
2026-01-06 15:34:29.28	231.63	25.90	-36.4	-37.2	24.6	0.00e+00	122	33	101	1048576	50	6131
2026-01-06 15:34:30.29	231.53	25.75	-36.4	-37.3	24.7	0.00e+00	120	33	101	1048576	50	6136
2026-01-06 15:34:31.30	231.43	25.59	-36.3	-37.2	24.8	0.00e+00	123	33	101	1048576	50	6072
2026-01-06 15:34:32.31	231.33	25.44	-36.3	-37.2	24.8	0.00e+00	123	33	101	1048576	50	6095
2026-01-06 15:34:33.32	231.23	25.28	-36.4	-37.3	24.8	0.00e+00	123	33	101	1048576	50	6142
2026-01-06 15:34:34.33	231.14	25.13	-36.2	-37.1	24.9	0.00e+00	122	33	101	1048576	50	6010
2026-01-06 15:34:35.34	231.04	24.97	-36.3	-37.1	24.9	0.00e+00	120	33	101	1048576	50	6062
2026-01-06 15:34:36.35	230.95	24.82	-36.2	-37.0	24.9	0.00e+00	122	33	101	1048576	50	5987
2026-01-06 15:34:37.37	230.85	24.67	-36.1	-37.0	24.9	0.00e+00	122	33	101	1048576	50	5972
2026-01-06 15:34:38.38	230.76	24.52	-36.0	-36.9	25.0	0.00e+00	123	33	101	1048576	50	5876
2026-01-06 15:34:39.39	230.67	24.37	-36.2	-37.1	24.8	0.00e+00	123	33	101	1048576	50	5996
2026-01-06 15:34:40.40	230.58	24.22	-36.0	-36.9	25.0	0.00e+00	123	33	101	1048576	50	5891
2026-01-06 15:34:41.41	230.49	24.07	-35.9	-36.8	25.0	0.00e+00	122	33	101	1048576	50	5808
2026-01-06 15:34:42.42	230.40	23.93	-35.9	-36.8	25.0	0.00e+00	122	33	101	1048576	50	5833
2026-01-06 15:34:43.43	230.31	23.78	-36.1	-37.0	24.9	0.00e+00	122	33	101	1048576	50	5945
2026-01-06 15:34:44.44	230.23	23.63	-35.8	-36.7	25.1	0.00e+00	123	33	101	1048576	50	5767
2026-01-06 15:34:45.45	230.14	23.49	-35.9	-36.7	25.1	0.00e+00	123	33	101	1048576	50	5766
2026-01-06 15:34:46.46	230.05	23.35	-35.9	-36.8	25.0	0.00e+00	120	33	101	1048576	50	5816
2026-01-06 15:34:47.47	229.97	23.20	-36.0	-36.9	25.1	0.00e+00	122	33	101	1048576	50	5860
2026-01-06 15:34:48.48	229.89	23.06	-36.1	-37.0	25.0	0.00e+00	120	33	101	1048576	50	5970
2026-01-06 15:34:49.49	229.80	22.92	-36.1	-37.0	24.9	0.00e+00	123	33	101	1048576	50	5963
2026-01-06 15:34:50.50	229.72	22.78	-36.3	-37.1	24.9	0.00e+00	123	33	101	1048576	50	6049
2026-01-06 15:34:51.51	229.64	22.64	-36.4	-37.3	24.8	0.00e+00	123	33	101	1048576	50	6174
2026-01-06 15:34:52.53	229.56	22.49	-36.5	-37.4	24.7	0.00e+00	123	33	101	1048576	50	6207
2026-01-06 15:34:53.53	229.48	22.36	-36.5	-37.4	24.7	0.00e+00	120	33	101	1048576	50	6270
2026-01-06 15:34:54.55	229.40	22.22	-36.4	-37.3	24.8	0.00e+00	123	33	101	1048576	50	6176
2026-01-06 15:34:55.55	229.32	22.08	-36.6	-37.5	24.6	0.00e+00	123	33	101	1048576	50	6302
2026-01-06 15:34:56.57	229.24	21.94	-36.4	-37.3	24.7	0.00e+00	120	33	101	1048576	50	6170
2026-01-06 15:34:57.57	229.16	21.81	-36.6	-37.5	24.7	0.00e+00	122	33	101	1048576	50	6282
2026-01-06 15:34:58.59	229.09	21.67	-36.4	-37.3	24.8	0.00e+00	121	33	101	1048576	50	6147
2026-01-06 15:34:59.60	229.01	21.53	-36.6	-37.5	24.6	0.00e+00	122	33	101	1048576	50	6294
2026-01-06 15:35:00.61	228.94	21.40	-36.3	-37.2	24.8	0.00e+00	122	33	101	1048576	50	6118
2026-01-06 15:35:01.62	228.86	21.27	-36.4	-37.2	24.8	0.00e+00	123	33	101	1048576	50	6124
2026-01-06 15:35:02.63	228.79	21.13	-36.3	-37.2	24.8	0.00e+00	123	33	101	1048576	50	6126
2026-01-06 15:35:03.64	228.72	21.00	-36.4	-37.3	24.8	0.00e+00	120	33	101	1048576	50	6136
2026-01-06 15:35:04.65	228.64	20.87	-36.3	-37.1	24.9	0.00e+00	123	33	101	1048576	50	6053
2026-01-06 15:35:05.66	228.57	20.74	-36.2	-37.1	24.8	0.00e+00	122	33	101	1048576	50	6042
2026-01-06 15:35:06.67	228.50	20.61	-36.3	-37.2	24.8	0.00e+00	122	33	101	1048576	50	6099
2026-01-06 15:35:07.68	228.43	20.48	-36.3	-37.2	24.7	0.00e+00	123	33	101	1048576	50	6074
2026-01-06 15:35:08.69	228.36	20.35	-36.3	-37.2	24.8	0.00e+00	122	33	101	1048576	50	6095
2026-01-06 15:35:09.70	228.29	20.22	-36.5	-37.4	24.6	0.00e+00	123	33	101	1048576	50	6216
2026-01-06 15:35:10.71	228.22	20.09	-36.5	-37.4	24.6	0.00e+00	122	33	101	1048576	50	6211
2026-01-06 15:35:11.72	228.15	19.96	-36.5	-37.4	24.6	0.00e+00	123	33	101	1048576	50	6216
2026-01-06 15:35:12.73	228.09	19.83	-36.4	-37.3	24.6	0.00e+00	123	33	101	1048576	50	6187
