passes_logs/2026/01/06/R4.6S_Anadyr_2ch/R4.6S_Anadyr_2ch__20260106_233849_NOAA_21_JPSS-2_rec.log

#Pass ID: 20260106_233849_NOAA 21 (JPSS-2)
#Satellite: NOAA 21 (JPSS-2)
#Configuration: NOAA-21
#almurnet v.1.7.20251203
#Start time: 2026-01-06 23:38:54

#Version: 2.2.20231116
#Station: R4.6S_Anadyr_2ch
#Location: 177.4865 lon 64.73178 lat
#TLE: 1 54234U 22150A   25350.97269056  .00000057  00000+0  47676-4 0  9992
#TLE: 2 54234  98.7466 287.2282 0002043  29.8355 330.2937 14.19525482160692

#Time	Az	El	Level	Level2	SNR	BER	BlckErr	Temp	State	Recorded	gain1	gain2
2026-01-06 23:38:54.04	142.19	0.26	-51.2	-52.8	5.7	0.00e+00	0	29	0	0	60	73007
2026-01-06 23:38:55.05	142.18	0.32	-51.6	-64.6	3.5	1.52e+00	0	31	104	0	60	80585
2026-01-06 23:38:56.06	142.17	0.38	-51.6	-64.6	3.5	1.52e+00	0	31	104	0	60	80852
2026-01-06 23:38:57.07	142.16	0.45	-51.7	-64.7	3.5	1.52e+00	0	31	104	0	60	81301
2026-01-06 23:38:58.08	142.14	0.51	-51.6	-64.6	3.5	1.52e+00	0	31	104	0	60	80701
2026-01-06 23:38:59.08	142.13	0.57	-51.6	-64.6	3.5	1.52e+00	0	31	104	0	60	80345
2026-01-06 23:39:00.09	142.12	0.63	-51.5	-64.5	3.5	1.52e+00	0	31	104	0	60	79090
2026-01-06 23:39:01.10	142.10	0.69	-51.4	-64.4	3.5	1.52e+00	0	31	104	0	60	78478
2026-01-06 23:39:02.11	142.09	0.75	-51.2	-64.3	3.5	1.52e+00	0	31	104	0	60	77711
2026-01-06 23:39:03.11	142.08	0.81	-51.0	-64.0	3.5	1.52e+00	0	31	104	0	60	75331
2026-01-06 23:39:04.12	142.06	0.88	-50.5	-63.5	3.5	1.52e+00	0	31	104	0	60	71202
2026-01-06 23:39:05.13	142.05	0.94	-50.1	-63.2	3.5	1.52e+00	0	31	104	0	60	68127
2026-01-06 23:39:06.14	142.04	1.00	-48.8	-60.9	3.4	1.52e+00	0	31	104	0	60	52433
2026-01-06 23:39:07.15	142.02	1.06	-48.2	-61.4	3.5	1.52e+00	0	31	104	0	60	55691
2026-01-06 23:39:08.16	142.01	1.13	-48.2	-61.2	3.5	1.52e+00	0	31	104	0	60	54657
2026-01-06 23:39:09.16	142.00	1.19	-48.2	-61.5	3.5	1.52e+00	0	31	104	0	60	56291
2026-01-06 23:39:10.17	141.98	1.25	-48.2	-61.3	3.5	1.52e+00	0	31	104	0	60	55056
2026-01-06 23:39:11.18	141.97	1.31	-48.2	-61.4	3.5	1.52e+00	0	31	104	0	60	55898
2026-01-06 23:39:12.18	141.95	1.38	-48.2	-61.4	3.5	1.52e+00	0	31	104	0	60	55817
2026-01-06 23:39:13.19	141.94	1.44	-48.2	-61.4	3.5	1.52e+00	0	31	104	0	60	55773
2026-01-06 23:39:14.20	141.93	1.50	-48.2	-61.2	3.5	1.52e+00	0	31	104	0	60	54098
2026-01-06 23:39:15.21	141.91	1.57	-48.3	-61.2	3.5	1.52e+00	0	31	104	0	60	54363
2026-01-06 23:39:16.22	141.90	1.63	-48.2	-61.4	3.4	1.52e+00	0	31	104	0	60	55816
2026-01-06 23:39:17.22	141.88	1.69	-48.2	-61.3	3.5	1.52e+00	0	31	104	0	60	55109
2026-01-06 23:39:18.23	141.87	1.76	-48.2	-61.5	3.5	1.52e+00	0	31	104	0	60	55976
2026-01-06 23:39:19.24	141.85	1.82	-48.1	-61.2	3.5	1.52e+00	0	31	104	0	60	54235
2026-01-06 23:39:20.25	141.84	1.89	-48.1	-61.4	3.5	1.52e+00	0	31	104	0	60	55911
2026-01-06 23:39:21.25	141.83	1.95	-48.2	-61.4	3.5	1.52e+00	0	31	104	0	60	55592
2026-01-06 23:39:22.26	141.81	2.01	-48.1	-61.1	3.5	1.52e+00	0	31	104	0	60	54028
2026-01-06 23:39:23.27	141.80	2.08	-48.0	-61.2	3.5	1.52e+00	0	31	104	0	60	54168
2026-01-06 23:39:24.28	141.78	2.14	-48.2	-61.3	3.5	1.52e+00	0	31	104	0	60	55047
2026-01-06 23:39:25.29	141.77	2.21	-47.5	-61.1	3.5	1.52e+00	0	31	104	0	60	53782
2026-01-06 23:39:26.29	141.75	2.27	-48.1	-59.7	3.5	1.39e+00	0	31	104	0	60	45660
2026-01-06 23:39:27.30	141.74	2.34	-47.9	-61.3	3.5	1.51e+00	0	31	104	0	60	54969
2026-01-06 23:39:28.31	141.72	2.40	-47.8	-61.2	3.5	1.52e+00	0	31	104	0	60	54368
2026-01-06 23:39:29.32	141.71	2.47	-48.0	-61.2	3.5	1.52e+00	0	32	104	0	60	54316
2026-01-06 23:39:30.33	141.69	2.53	-48.1	-61.3	3.5	1.52e+00	0	31	104	0	60	55161
2026-01-06 23:39:31.34	141.68	2.60	-48.0	-61.3	3.5	1.52e+00	0	32	104	0	60	55255
2026-01-06 23:39:32.34	141.66	2.67	-47.8	-61.3	3.5	1.52e+00	0	31	104	0	60	54865
2026-01-06 23:39:33.35	141.64	2.73	-47.8	-61.1	3.5	1.52e+00	0	31	104	0	60	54017
2026-01-06 23:39:34.36	141.63	2.80	-48.1	-61.0	3.5	1.52e+00	0	31	104	0	60	53136
2026-01-06 23:39:35.37	141.61	2.86	-48.1	-60.9	3.5	1.52e+00	0	31	104	0	60	52635
2026-01-06 23:39:36.38	141.60	2.93	-48.1	-60.8	3.5	1.52e+00	0	31	104	0	60	52190
2026-01-06 23:39:37.39	141.58	3.00	-48.1	-60.5	3.5	1.52e+00	0	32	104	0	60	50042
2026-01-06 23:39:38.39	141.57	3.06	-48.1	-60.2	3.4	1.51e+00	0	32	104	0	60	48286
2026-01-06 23:39:39.40	141.55	3.13	-48.1	-60.2	3.5	1.51e+00	0	32	104	0	60	48350
2026-01-06 23:39:40.41	141.53	3.20	-48.1	-60.4	3.5	1.52e+00	0	32	104	0	60	49582
2026-01-06 23:39:41.42	141.52	3.27	-48.1	-60.5	3.5	1.52e+00	0	32	104	0	60	50121
2026-01-06 23:39:42.43	141.50	3.33	-48.1	-60.7	3.5	1.52e+00	0	32	104	0	60	51293
2026-01-06 23:39:43.44	141.48	3.40	-48.1	-60.6	3.5	1.52e+00	0	32	104	0	60	50858
2026-01-06 23:39:44.45	141.47	3.47	-48.1	-60.9	3.5	1.51e+00	0	32	104	0	60	52664
2026-01-06 23:39:45.46	141.45	3.54	-48.2	-61.0	3.5	1.52e+00	0	32	104	0	60	53400
2026-01-06 23:39:46.47	141.43	3.61	-48.2	-61.0	3.5	1.51e+00	0	32	104	0	60	53381
2026-01-06 23:39:47.48	141.42	3.67	-48.2	-61.3	3.5	1.52e+00	0	32	104	0	60	54887
2026-01-06 23:39:48.48	141.40	3.74	-48.2	-61.3	3.5	1.52e+00	0	32	104	0	60	55225
2026-01-06 23:39:49.49	141.38	3.81	-48.6	-61.0	3.5	1.52e+00	0	32	104	0	60	53324
2026-01-06 23:39:50.50	141.37	3.88	-48.6	-58.8	3.5	1.52e+00	0	32	104	0	60	41358
2026-01-06 23:39:51.51	141.35	3.95	-48.1	-60.9	3.5	1.49e+00	0	32	104	0	60	52486
2026-01-06 23:39:52.52	141.33	4.02	-48.5	-61.1	3.5	1.51e+00	0	32	104	0	60	53694
2026-01-06 23:39:53.53	141.32	4.09	-47.4	-54.3	4.2	1.50e+00	0	32	104	0	60	24693
2026-01-06 23:39:54.54	141.30	4.16	-48.0	-57.3	4.5	1.46e+00	2	32	104	0	60	34644
2026-01-06 23:39:55.55	141.28	4.23	-47.7	-55.8	5.4	5.74e-01	0	32	104	0	60	29182
2026-01-06 23:39:56.56	141.26	4.30	-47.5	-53.5	6.3	2.64e-01	0	32	102	1048576	60	22490
2026-01-06 23:39:57.56	141.24	4.37	-47.4	-52.9	7.1	1.64e-01	0	32	102	1048576	60	20915
2026-01-06 23:39:58.57	141.23	4.44	-47.3	-52.7	7.0	1.23e-01	0	32	102	1048576	60	20365
2026-01-06 23:39:59.58	141.21	4.51	-47.1	-52.1	7.4	1.07e-01	0	32	102	1048576	60	18966
2026-01-06 23:40:00.59	141.19	4.58	-47.2	-52.0	7.4	1.01e-01	0	32	102	1048576	60	18884
2026-01-06 23:40:01.60	141.17	4.65	-47.2	-51.9	7.3	1.37e-01	0	32	102	1048576	60	18740
2026-01-06 23:40:02.61	141.15	4.72	-47.1	-51.7	7.4	1.36e-01	0	32	102	1048576	60	18276
2026-01-06 23:40:03.62	141.14	4.79	-47.0	-52.0	8.2	1.79e-01	0	32	102	1048576	60	18821
2026-01-06 23:40:04.63	141.12	4.86	-46.9	-51.4	6.5	1.65e-01	0	32	102	1048576	60	17515
2026-01-06 23:40:05.64	141.10	4.93	-47.0	-51.4	6.8	2.74e-01	0	32	102	1048576	60	17672
2026-01-06 23:40:06.65	141.08	5.01	-47.0	-51.5	6.6	2.81e-01	0	32	102	1048576	60	17792
2026-01-06 23:40:07.66	141.06	5.08	-47.0	-51.7	6.6	2.63e-01	0	32	102	1048576	60	18165
2026-01-06 23:40:08.66	141.04	5.15	-46.7	-51.4	6.8	2.65e-01	0	32	102	1048576	60	17588
2026-01-06 23:40:09.67	141.02	5.22	-46.9	-51.5	8.8	4.13e-02	0	32	102	1048576	60	17814
2026-01-06 23:40:10.68	141.00	5.29	-46.8	-51.5	6.9	2.50e-01	0	32	102	1048576	60	17786
2026-01-06 23:40:11.69	140.99	5.37	-46.9	-51.2	8.8	1.68e-01	0	32	102	1048576	60	17209
2026-01-06 23:40:12.70	140.97	5.44	-46.6	-50.4	7.2	2.22e-01	0	32	102	1048576	60	15627
2026-01-06 23:40:13.71	140.95	5.51	-46.7	-50.7	8.9	2.16e-02	0	32	102	1048576	60	16231
2026-01-06 23:40:14.71	140.93	5.59	-46.3	-50.3	7.6	1.92e-01	0	32	102	1048576	60	15517
2026-01-06 23:40:15.72	140.91	5.66	-46.5	-50.3	9.5	1.87e-03	0	32	102	1048576	60	15436
2026-01-06 23:40:16.73	140.89	5.73	-46.5	-49.9	9.6	6.09e-02	0	32	102	1048576	60	14716
2026-01-06 23:40:17.74	140.87	5.81	-46.4	-50.0	10.9	4.13e-02	0	32	102	1048576	60	14902
2026-01-06 23:40:18.75	140.85	5.88	-46.3	-49.9	11.0	5.60e-02	0	32	102	1048576	60	14760
2026-01-06 23:40:19.75	140.83	5.95	-46.0	-49.6	9.9	7.99e-03	0	32	102	1048576	60	14217
2026-01-06 23:40:20.76	140.81	6.03	-45.8	-49.1	10.2	3.18e-02	0	32	102	1048576	60	13575
2026-01-06 23:40:21.77	140.79	6.10	-45.7	-48.8	12.1	5.00e-03	0	32	102	1048576	60	12987
2026-01-06 23:40:22.78	140.77	6.18	-45.5	-48.4	9.8	3.07e-02	0	32	102	1048576	60	12411
2026-01-06 23:40:23.79	140.75	6.25	-45.5	-48.1	12.1	3.05e-02	0	32	102	1048576	60	12006
2026-01-06 23:40:24.80	140.73	6.33	-45.3	-48.0	12.3	6.16e-03	0	32	102	1048576	60	11955
2026-01-06 23:40:25.80	140.71	6.40	-45.1	-47.8	13.3	3.29e-02	0	32	102	1048576	60	11579
2026-01-06 23:40:26.81	140.68	6.48	-44.8	-47.6	9.5	5.99e-02	0	32	102	1048576	60	11356
2026-01-06 23:40:27.82	140.66	6.56	-44.6	-47.1	10.7	3.75e-02	0	32	102	1048576	60	10751
2026-01-06 23:40:28.83	140.64	6.63	-44.6	-47.0	14.3	7.05e-04	0	32	102	1048576	60	10612
2026-01-06 23:40:29.84	140.62	6.71	-44.5	-46.9	14.4	1.61e-02	0	32	102	1048576	60	10448
2026-01-06 23:40:30.84	140.60	6.79	-44.2	-46.2	12.5	2.10e-02	0	32	102	1048576	60	9661
2026-01-06 23:40:31.85	140.58	6.86	-44.2	-46.3	15.2	5.04e-03	0	32	102	1048576	60	9766
2026-01-06 23:40:32.86	140.56	6.94	-43.9	-45.7	11.4	2.02e-02	0	32	102	1048576	60	9170
2026-01-06 23:40:33.87	140.53	7.02	-43.8	-45.7	12.6	1.15e-02	0	32	102	1048576	60	9131
2026-01-06 23:40:34.88	140.51	7.09	-43.7	-45.7	12.5	1.03e-02	0	32	102	1048576	60	9119
2026-01-06 23:40:35.88	140.49	7.17	-43.2	-44.9	14.8	5.21e-03	0	32	102	1048576	60	8356
2026-01-06 23:40:36.89	140.47	7.25	-43.0	-44.6	14.3	3.52e-03	0	32	102	1048576	60	8077
2026-01-06 23:40:37.90	140.45	7.33	-42.7	-44.3	13.4	1.30e-03	0	32	102	1048576	60	7756
2026-01-06 23:40:38.90	140.42	7.41	-42.8	-44.3	14.8	8.11e-04	0	32	102	1048576	60	7783
2026-01-06 23:40:39.91	140.40	7.48	-42.6	-44.1	15.8	2.44e-05	0	32	102	1048576	60	7588
2026-01-06 23:40:40.92	140.38	7.56	-42.3	-43.8	17.3	2.20e-06	0	32	102	1048576	60	7336
2026-01-06 23:40:41.93	140.35	7.64	-42.2	-43.7	18.0	0.00e+00	0	32	102	1048576	60	7209
2026-01-06 23:40:42.94	140.33	7.72	-42.0	-43.5	18.0	7.00e-07	0	32	102	1048576	60	7060
2026-01-06 23:40:43.95	140.31	7.80	-41.8	-43.2	17.8	0.00e+00	0	32	102	1048576	60	6848
2026-01-06 23:40:44.96	140.29	7.88	-41.6	-43.0	19.1	0.00e+00	0	32	102	1048576	60	6696
2026-01-06 23:40:45.96	140.26	7.96	-41.4	-42.7	18.5	0.00e+00	0	32	102	1048576	60	6497
2026-01-06 23:40:46.97	140.24	8.04	-41.4	-42.7	19.0	0.00e+00	0	32	102	1048576	60	6482
2026-01-06 23:40:47.98	140.21	8.12	-41.1	-42.4	19.1	0.00e+00	0	32	102	1048576	60	6234
2026-01-06 23:40:48.99	140.19	8.20	-41.0	-42.3	19.9	0.00e+00	0	32	102	1048576	60	6168
2026-01-06 23:40:50.00	140.17	8.29	-40.8	-42.1	20.2	0.00e+00	0	32	102	1048576	60	5996
2026-01-06 23:40:51.01	140.14	8.37	-40.9	-42.2	20.2	0.00e+00	0	32	102	1048576	60	6083
2026-01-06 23:40:52.01	140.12	8.45	-40.7	-41.9	20.5	0.00e+00	0	32	102	1048576	60	5921
2026-01-06 23:40:53.02	140.09	8.53	-40.5	-41.7	20.7	0.00e+00	0	32	102	1048576	60	5781
2026-01-06 23:40:54.03	140.07	8.61	-40.4	-41.5	20.8	0.00e+00	0	32	102	1048576	60	5655
2026-01-06 23:40:55.04	140.04	8.70	-40.2	-41.4	20.9	0.00e+00	0	32	102	1048576	60	5562
2026-01-06 23:40:56.04	140.02	8.78	-40.1	-41.3	21.1	0.00e+00	0	32	102	1048576	60	5482
2026-01-06 23:40:57.05	139.99	8.86	-40.1	-41.2	21.2	0.00e+00	0	32	102	1048576	58	6106
2026-01-06 23:40:58.06	139.97	8.94	-40.0	-41.1	21.4	0.00e+00	0	32	102	1048576	58	6024
2026-01-06 23:40:59.07	139.94	9.03	-39.9	-41.1	21.3	0.00e+00	0	32	102	1048576	58	5997
2026-01-06 23:41:00.07	139.92	9.11	-39.9	-41.0	21.5	0.00e+00	0	32	102	1048576	58	5942
2026-01-06 23:41:01.07	139.89	9.19	-39.8	-40.9	21.5	0.00e+00	0	32	102	1048576	58	5863
2026-01-06 23:41:02.08	139.87	9.28	-39.8	-40.9	21.6	0.00e+00	0	32	102	1048576	58	5876
2026-01-06 23:41:03.09	139.84	9.36	-39.6	-40.7	21.8	0.00e+00	0	32	102	1048576	58	5763
2026-01-06 23:41:04.09	139.81	9.45	-39.5	-40.6	21.9	0.00e+00	0	32	102	1048576	58	5691
2026-01-06 23:41:05.10	139.79	9.53	-39.4	-40.5	21.9	0.00e+00	0	32	102	1048576	58	5621
2026-01-06 23:41:06.11	139.76	9.62	-39.5	-40.5	22.0	0.00e+00	0	32	102	1048576	58	5644
2026-01-06 23:41:07.12	139.73	9.70	-39.5	-40.5	22.0	0.00e+00	0	32	102	1048576	58	5658
2026-01-06 23:41:08.12	139.71	9.79	-39.3	-40.4	22.1	0.00e+00	0	32	102	1048576	58	5545
2026-01-06 23:41:09.13	139.68	9.88	-39.3	-40.4	22.0	0.00e+00	0	32	102	1048576	58	5561
2026-01-06 23:41:10.14	139.65	9.96	-39.1	-40.2	22.3	0.00e+00	0	32	102	1048576	58	5419
2026-01-06 23:41:11.15	139.62	10.05	-39.2	-40.3	22.2	0.00e+00	0	32	102	1048576	56	6151
2026-01-06 23:41:12.15	139.60	10.14	-39.2	-40.2	22.4	0.00e+00	0	32	102	1048576	56	6087
2026-01-06 23:41:13.16	139.57	10.22	-39.1	-40.1	22.4	0.00e+00	0	32	102	1048576	56	6031
2026-01-06 23:41:14.17	139.54	10.31	-39.1	-40.1	22.4	0.00e+00	0	32	102	1048576	56	6021
2026-01-06 23:41:15.18	139.51	10.40	-39.1	-40.1	22.4	0.00e+00	0	32	102	1048576	56	6035
2026-01-06 23:41:16.18	139.48	10.49	-39.0	-40.0	22.5	0.00e+00	0	32	102	1048576	56	5987
2026-01-06 23:41:17.19	139.45	10.58	-38.8	-39.9	22.7	0.00e+00	0	32	102	1048576	56	5868
2026-01-06 23:41:18.20	139.43	10.67	-38.9	-39.9	22.7	0.00e+00	0	32	102	1048576	56	5874
2026-01-06 23:41:19.21	139.40	10.76	-38.7	-39.7	22.8	0.00e+00	0	32	102	1048576	56	5749
2026-01-06 23:41:20.22	139.37	10.85	-38.8	-39.8	22.7	0.00e+00	0	32	102	1048576	56	5813
2026-01-06 23:41:21.22	139.34	10.94	-38.6	-39.6	23.0	0.00e+00	0	32	102	1048576	56	5676
2026-01-06 23:41:22.23	139.31	11.03	-38.5	-39.5	23.0	0.00e+00	0	32	102	1048576	56	5641
2026-01-06 23:41:23.23	139.28	11.12	-38.6	-39.5	23.0	0.00e+00	0	32	102	1048576	56	5659
2026-01-06 23:41:24.24	139.25	11.21	-38.6	-39.6	23.0	0.00e+00	0	32	102	1048576	56	5666
2026-01-06 23:41:25.25	139.22	11.30	-38.4	-39.4	23.2	0.00e+00	0	32	102	1048576	56	5533
2026-01-06 23:41:26.26	139.19	11.39	-38.5	-39.4	23.1	0.00e+00	0	32	102	1048576	56	5592
2026-01-06 23:41:27.27	139.16	11.48	-38.3	-39.3	23.2	0.00e+00	0	32	102	1048576	56	5482
2026-01-06 23:41:28.27	139.13	11.58	-38.2	-39.2	23.3	0.00e+00	0	32	102	1048576	56	5449
2026-01-06 23:41:29.28	139.10	11.67	-38.3	-39.3	23.3	0.00e+00	0	32	102	1048576	56	5511
2026-01-06 23:41:30.29	139.06	11.76	-38.0	-39.0	23.5	0.00e+00	0	32	102	1048576	54	5927
2026-01-06 23:41:31.29	139.03	11.85	-38.1	-39.1	23.4	0.00e+00	0	32	102	1048576	54	5995
2026-01-06 23:41:32.30	139.00	11.95	-38.0	-39.0	23.5	0.00e+00	0	32	102	1048576	54	5946
2026-01-06 23:41:33.31	138.97	12.04	-37.9	-38.8	23.7	0.00e+00	0	32	102	1048576	54	5824
2026-01-06 23:41:34.32	138.94	12.14	-37.8	-38.7	23.7	0.00e+00	0	32	102	1048576	54	5770
2026-01-06 23:41:35.32	138.90	12.23	-38.0	-38.9	23.6	0.00e+00	0	32	102	1048576	54	5903
2026-01-06 23:41:36.33	138.87	12.33	-37.9	-38.8	23.6	0.00e+00	0	32	102	1048576	54	5816
2026-01-06 23:41:37.33	138.84	12.42	-37.6	-38.6	23.9	0.00e+00	0	32	102	1048576	54	5671
2026-01-06 23:41:38.34	138.81	12.52	-37.7	-38.6	23.8	0.00e+00	0	32	102	1048576	54	5692
2026-01-06 23:41:39.35	138.77	12.61	-37.7	-38.7	23.7	0.00e+00	0	32	102	1048576	54	5731
2026-01-06 23:41:40.36	138.74	12.71	-37.7	-38.6	23.9	0.00e+00	0	32	102	1048576	54	5684
2026-01-06 23:41:41.36	138.70	12.81	-37.7	-38.7	23.8	0.00e+00	0	32	102	1048576	54	5732
2026-01-06 23:41:42.37	138.67	12.90	-37.5	-38.4	23.9	0.00e+00	0	32	102	1048576	54	5587
2026-01-06 23:41:43.38	138.64	13.00	-37.4	-38.3	24.1	0.00e+00	0	32	102	1048576	54	5505
2026-01-06 23:41:44.39	138.60	13.10	-37.4	-38.4	23.9	0.00e+00	0	32	102	1048576	54	5539
2026-01-06 23:41:45.40	138.57	13.20	-37.5	-38.4	24.0	0.00e+00	0	32	102	1048576	54	5559
2026-01-06 23:41:46.41	138.53	13.30	-37.4	-38.3	24.0	0.00e+00	0	32	102	1048576	54	5502
2026-01-06 23:41:47.41	138.50	13.40	-37.5	-38.4	24.0	0.00e+00	0	32	102	1048576	54	5543
2026-01-06 23:41:48.42	138.46	13.50	-37.3	-38.2	24.1	0.00e+00	0	32	102	1048576	54	5463
2026-01-06 23:41:49.43	138.42	13.60	-37.4	-38.3	24.1	0.00e+00	0	32	102	1048576	54	5479
2026-01-06 23:41:50.44	138.39	13.70	-37.2	-38.1	24.2	0.00e+00	0	32	102	1048576	54	5375
2026-01-06 23:41:51.45	138.35	13.80	-37.2	-38.2	24.2	0.00e+00	0	32	102	1048576	54	5407
2026-01-06 23:41:52.45	138.32	13.90	-37.3	-38.2	24.1	0.00e+00	0	32	102	1048576	54	5442
2026-01-06 23:41:53.46	138.28	14.00	-37.2	-38.0	24.3	0.00e+00	0	32	102	1048576	54	5343
2026-01-06 23:41:54.47	138.24	14.10	-37.2	-38.1	24.2	0.00e+00	0	32	102	1048576	52	6064
2026-01-06 23:41:55.48	138.20	14.21	-37.2	-38.1	24.3	0.00e+00	0	32	102	1048576	52	6014
2026-01-06 23:41:56.49	138.17	14.31	-37.3	-38.2	24.2	0.00e+00	0	32	102	1048576	52	6074
2026-01-06 23:41:57.50	138.13	14.41	-37.3	-38.2	24.2	0.00e+00	0	32	102	1048576	52	6112
2026-01-06 23:41:58.50	138.09	14.52	-37.2	-38.1	24.3	0.00e+00	0	32	102	1048576	52	6011
2026-01-06 23:41:59.51	138.05	14.62	-37.2	-38.1	24.3	0.00e+00	0	32	102	1048576	52	6028
2026-01-06 23:42:00.52	138.01	14.72	-37.2	-38.1	24.3	0.00e+00	0	32	102	1048576	52	6000
2026-01-06 23:42:01.53	137.97	14.83	-37.2	-38.1	24.4	0.00e+00	0	32	102	1048576	52	6020
2026-01-06 23:42:02.54	137.93	14.94	-37.1	-38.0	24.3	0.00e+00	0	32	102	1048576	52	5965
2026-01-06 23:42:03.55	137.89	15.04	-37.1	-38.0	24.4	0.00e+00	0	32	102	1048576	52	5963
2026-01-06 23:42:04.56	137.85	15.15	-37.2	-38.1	24.3	0.00e+00	0	32	102	1048576	52	6008
2026-01-06 23:42:05.57	137.81	15.26	-37.1	-38.0	24.3	0.00e+00	0	32	102	1048576	52	5990
2026-01-06 23:42:06.58	137.77	15.36	-37.2	-38.1	24.3	0.00e+00	0	32	102	1048576	52	6020
2026-01-06 23:42:07.59	137.73	15.47	-37.1	-38.0	24.4	0.00e+00	0	32	102	1048576	52	5947
2026-01-06 23:42:08.59	137.69	15.58	-37.2	-38.1	24.4	0.00e+00	0	32	102	1048576	52	6056
2026-01-06 23:42:09.60	137.65	15.69	-37.2	-38.1	24.3	0.00e+00	0	32	102	1048576	52	6040
2026-01-06 23:42:10.61	137.61	15.80	-37.3	-38.2	24.2	0.00e+00	0	32	102	1048576	52	6101
2026-01-06 23:42:11.62	137.56	15.91	-37.2	-38.1	24.3	0.00e+00	0	32	102	1048576	52	6044
2026-01-06 23:42:12.63	137.52	16.02	-37.2	-38.1	24.3	0.00e+00	0	32	102	1048576	52	6038
2026-01-06 23:42:13.63	137.48	16.13	-37.2	-38.1	24.3	0.00e+00	0	32	102	1048576	52	6012
2026-01-06 23:42:14.64	137.43	16.24	-37.2	-38.1	24.3	0.00e+00	0	32	102	1048576	52	6019
2026-01-06 23:42:15.65	137.39	16.35	-37.2	-38.1	24.4	0.00e+00	0	32	102	1048576	52	6004
2026-01-06 23:42:16.66	137.35	16.46	-37.2	-38.1	24.2	0.00e+00	0	32	102	1048576	52	6059
2026-01-06 23:42:17.67	137.30	16.58	-37.2	-38.1	24.2	0.00e+00	0	32	102	1048576	52	6060
2026-01-06 23:42:18.68	137.26	16.69	-37.3	-38.2	24.3	0.00e+00	0	32	102	1048576	52	6092
2026-01-06 23:42:19.69	137.21	16.80	-37.2	-38.1	24.3	0.00e+00	0	32	102	1048576	52	6032
2026-01-06 23:42:20.69	137.17	16.92	-37.4	-38.3	24.2	0.00e+00	0	32	102	1048576	52	6146
2026-01-06 23:42:21.70	137.12	17.03	-37.4	-38.3	24.2	0.00e+00	0	32	102	1048576	52	6174
2026-01-06 23:42:22.71	137.07	17.15	-37.3	-38.2	24.2	0.00e+00	0	32	102	1048576	52	6116
2026-01-06 23:42:23.72	137.03	17.26	-37.5	-38.4	24.1	0.00e+00	0	32	102	1048576	52	6233
2026-01-06 23:42:24.73	136.98	17.38	-37.4	-38.4	24.1	0.00e+00	0	32	102	1048576	52	6210
2026-01-06 23:42:25.73	136.93	17.49	-37.3	-38.3	24.2	0.00e+00	0	32	102	1048576	52	6135
2026-01-06 23:42:26.74	136.88	17.61	-37.5	-38.4	24.0	0.00e+00	0	32	102	1048576	52	6223
2026-01-06 23:42:27.75	136.84	17.73	-37.4	-38.3	24.1	0.00e+00	0	32	102	1048576	52	6172
2026-01-06 23:42:28.76	136.79	17.85	-37.6	-38.5	24.0	0.00e+00	0	32	102	1048576	52	6309
2026-01-06 23:42:29.77	136.74	17.97	-37.5	-38.4	24.1	0.00e+00	0	32	102	1048576	52	6272
2026-01-06 23:42:30.78	136.69	18.09	-37.6	-38.5	24.0	0.00e+00	0	32	102	1048576	52	6331
2026-01-06 23:42:31.78	136.64	18.21	-37.6	-38.5	24.0	0.00e+00	0	32	102	1048576	52	6307
2026-01-06 23:42:32.79	136.59	18.33	-37.6	-38.5	24.1	0.00e+00	0	32	102	1048576	52	6294
2026-01-06 23:42:33.80	136.54	18.45	-37.5	-38.5	24.1	0.00e+00	0	32	102	1048576	52	6285
2026-01-06 23:42:34.81	136.49	18.57	-37.7	-38.6	24.0	0.00e+00	0	32	102	1048576	52	6376
2026-01-06 23:42:35.82	136.44	18.69	-37.6	-38.5	24.1	0.00e+00	0	32	102	1048576	52	6305
2026-01-06 23:42:36.83	136.38	18.82	-37.6	-38.5	24.0	0.00e+00	0	32	102	1048576	52	6326
2026-01-06 23:42:37.84	136.33	18.94	-37.7	-38.7	24.0	0.00e+00	0	32	102	1048576	52	6456
2026-01-06 23:42:38.85	136.28	19.06	-37.8	-38.7	24.0	0.00e+00	0	32	102	1048576	52	6448
2026-01-06 23:42:39.86	136.22	19.19	-37.5	-38.4	24.1	0.00e+00	0	32	102	1048576	52	6240
2026-01-06 23:42:40.87	136.17	19.31	-37.4	-38.3	24.1	0.00e+00	0	32	102	1048576	52	6188
2026-01-06 23:42:41.88	136.12	19.44	-37.4	-38.3	24.2	0.00e+00	0	32	102	1048576	52	6201
2026-01-06 23:42:42.89	136.06	19.57	-37.4	-38.3	24.2	0.00e+00	0	32	102	1048576	52	6185
2026-01-06 23:42:43.90	136.01	19.69	-37.4	-38.3	24.3	0.00e+00	0	32	102	1048576	52	6156
2026-01-06 23:42:44.91	135.95	19.82	-37.3	-38.2	24.3	0.00e+00	0	32	102	1048576	52	6098
2026-01-06 23:42:45.92	135.89	19.95	-37.2	-38.1	24.4	0.00e+00	0	32	102	1048576	52	6045
2026-01-06 23:42:46.93	135.84	20.08	-37.1	-38.0	24.5	0.00e+00	0	32	102	1048576	52	5947
2026-01-06 23:42:47.94	135.78	20.21	-37.1	-38.0	24.5	0.00e+00	0	32	102	1048576	52	5948
2026-01-06 23:42:48.95	135.72	20.34	-36.9	-37.8	24.6	0.00e+00	0	32	102	1048576	52	5808
2026-01-06 23:42:49.96	135.66	20.47	-36.9	-37.8	24.6	0.00e+00	0	32	102	1048576	52	5810
2026-01-06 23:42:50.97	135.60	20.60	-36.8	-37.7	24.6	0.00e+00	0	32	102	1048576	52	5780
2026-01-06 23:42:51.98	135.54	20.74	-36.9	-37.8	24.7	0.00e+00	0	32	102	1048576	52	5795
2026-01-06 23:42:52.99	135.48	20.87	-36.7	-37.5	24.9	0.00e+00	0	32	102	1048576	52	5652
2026-01-06 23:42:54.00	135.42	21.00	-36.5	-37.4	24.9	0.00e+00	0	32	102	1048576	52	5569
2026-01-06 23:42:55.01	135.36	21.14	-36.6	-37.5	24.9	0.00e+00	0	32	102	1048576	52	5598
2026-01-06 23:42:56.02	135.30	21.27	-36.4	-37.2	25.1	0.00e+00	0	32	102	1048576	52	5459
2026-01-06 23:42:57.04	135.24	21.41	-36.3	-37.2	25.0	0.00e+00	0	32	102	1048576	52	5408
2026-01-06 23:42:58.05	135.18	21.55	-36.2	-37.1	25.1	0.00e+00	0	32	102	1048576	52	5359
2026-01-06 23:42:59.06	135.11	21.68	-36.2	-37.1	25.1	0.00e+00	0	32	102	1048576	52	5376
2026-01-06 23:43:00.07	135.05	21.82	-36.2	-37.0	25.2	0.00e+00	0	32	102	1048576	52	5340
2026-01-06 23:43:01.08	134.98	21.96	-36.1	-36.9	25.2	0.00e+00	0	32	102	1048576	50	5916
2026-01-06 23:43:02.09	134.92	22.10	-36.1	-37.0	25.2	0.00e+00	0	32	102	1048576	50	5931
2026-01-06 23:43:03.10	134.85	22.24	-35.9	-36.7	25.3	0.00e+00	0	32	102	1048576	50	5767
2026-01-06 23:43:04.11	134.79	22.38	-35.8	-36.7	25.4	0.00e+00	0	32	102	1048576	50	5744
2026-01-06 23:43:05.12	134.72	22.52	-35.9	-36.7	25.2	0.00e+00	0	32	102	1048576	50	5765
2026-01-06 23:43:06.13	134.65	22.67	-35.9	-36.8	25.3	0.00e+00	0	32	102	1048576	50	5830
2026-01-06 23:43:07.14	134.58	22.81	-35.9	-36.8	25.3	0.00e+00	0	32	102	1048576	50	5799
2026-01-06 23:43:08.15	134.51	22.95	-35.9	-36.8	25.3	0.00e+00	0	32	102	1048576	50	5807
2026-01-06 23:43:09.16	134.44	23.10	-35.7	-36.6	25.4	0.00e+00	0	32	102	1048576	50	5683
2026-01-06 23:43:10.17	134.37	23.24	-35.7	-36.6	25.5	0.00e+00	0	32	102	1048576	50	5663
2026-01-06 23:43:11.18	134.30	23.39	-35.7	-36.5	25.5	0.00e+00	0	32	102	1048576	50	5631
2026-01-06 23:43:12.19	134.23	23.54	-35.8	-36.6	25.4	0.00e+00	0	32	102	1048576	50	5717
2026-01-06 23:43:13.20	134.16	23.68	-35.8	-36.7	25.4	0.00e+00	0	32	102	1048576	50	5728
2026-01-06 23:43:14.21	134.09	23.83	-35.8	-36.6	25.4	0.00e+00	0	32	102	1048576	50	5724
2026-01-06 23:43:15.22	134.01	23.98	-35.8	-36.7	25.4	0.00e+00	0	32	102	1048576	50	5737
2026-01-06 23:43:16.23	133.94	24.13	-36.0	-36.8	25.4	0.00e+00	0	32	102	1048576	50	5844
2026-01-06 23:43:17.24	133.86	24.28	-35.9	-36.8	25.4	0.00e+00	0	32	102	1048576	50	5802
2026-01-06 23:43:18.25	133.79	24.43	-36.0	-36.9	25.3	0.00e+00	0	32	102	1048576	50	5878
2026-01-06 23:43:19.26	133.71	24.59	-36.2	-37.1	25.2	0.00e+00	0	32	102	1048576	50	5995
2026-01-06 23:43:20.27	133.63	24.74	-36.1	-37.0	25.2	0.00e+00	0	32	102	1048576	50	5958
2026-01-06 23:43:21.28	133.55	24.89	-36.3	-37.1	25.1	0.00e+00	0	32	102	1048576	50	6061
2026-01-06 23:43:22.29	133.47	25.05	-36.4	-37.2	25.0	0.00e+00	0	32	102	1048576	50	6130
2026-01-06 23:43:23.30	133.39	25.20	-36.6	-37.4	24.9	0.00e+00	0	32	102	1048576	50	6277
2026-01-06 23:43:24.32	133.31	25.36	-36.6	-37.4	24.8	0.00e+00	0	32	102	1048576	50	6276
2026-01-06 23:43:25.33	133.23	25.52	-36.6	-37.5	24.8	0.00e+00	0	32	102	1048576	50	6316
2026-01-06 23:43:26.34	133.15	25.68	-36.7	-37.5	24.8	0.00e+00	0	32	102	1048576	50	6345
2026-01-06 23:43:27.35	133.06	25.84	-36.8	-37.7	24.7	0.00e+00	0	32	102	1048576	50	6455
2026-01-06 23:43:28.36	132.98	26.00	-36.9	-37.8	24.6	0.00e+00	0	32	102	1048576	50	6550
2026-01-06 23:43:29.37	132.89	26.16	-37.0	-37.9	24.5	0.00e+00	0	32	102	1048576	50	6615
2026-01-06 23:43:30.38	132.81	26.32	-37.2	-38.1	24.4	0.00e+00	0	32	102	1048576	52	6024
2026-01-06 23:43:31.39	132.72	26.48	-37.3	-38.3	24.3	0.00e+00	0	32	102	1048576	52	6147
2026-01-06 23:43:32.40	132.63	26.65	-37.4	-38.3	24.3	0.00e+00	0	32	102	1048576	52	6181
2026-01-06 23:43:33.41	132.54	26.81	-37.5	-38.4	24.3	0.00e+00	0	32	102	1048576	52	6251
2026-01-06 23:43:34.42	132.45	26.98	-37.6	-38.6	24.1	0.00e+00	0	32	102	1048576	52	6361
2026-01-06 23:43:35.43	132.36	27.15	-37.7	-38.7	24.1	0.00e+00	0	32	102	1048576	52	6435
2026-01-06 23:43:36.44	132.27	27.31	-37.9	-38.9	23.9	0.00e+00	0	32	102	1048576	52	6589
2026-01-06 23:43:37.45	132.18	27.48	-37.8	-38.7	23.9	0.00e+00	0	32	102	1048576	52	6498
2026-01-06 23:43:38.46	132.08	27.65	-38.0	-38.9	23.9	0.00e+00	0	32	102	1048576	52	6593
2026-01-06 23:43:39.47	131.99	27.82	-37.9	-38.8	23.9	0.00e+00	0	32	102	1048576	52	6561
2026-01-06 23:43:40.48	131.89	27.99	-37.6	-38.6	24.2	0.00e+00	0	32	102	1048576	52	6368
2026-01-06 23:43:41.50	131.80	28.17	-37.7	-38.6	24.1	0.00e+00	0	32	102	1048576	52	6393
2026-01-06 23:43:42.50	131.70	28.34	-37.7	-38.6	24.2	0.00e+00	0	32	102	1048576	52	6375
2026-01-06 23:43:43.51	131.60	28.51	-37.6	-38.5	24.2	0.00e+00	0	32	102	1048576	52	6324
2026-01-06 23:43:44.52	131.50	28.69	-37.7	-38.6	24.2	0.00e+00	0	32	102	1048576	52	6367
2026-01-06 23:43:45.53	131.40	28.86	-37.5	-38.4	24.2	0.00e+00	0	32	102	1048576	52	6245
2026-01-06 23:43:46.54	131.30	29.04	-37.6	-38.5	24.1	0.00e+00	0	32	102	1048576	52	6332
2026-01-06 23:43:47.55	131.19	29.22	-37.7	-38.6	24.1	0.00e+00	0	32	102	1048576	52	6398
2026-01-06 23:43:48.56	131.09	29.40	-37.6	-38.5	24.3	0.00e+00	0	32	102	1048576	52	6302
2026-01-06 23:43:49.58	130.98	29.58	-37.3	-38.2	24.4	0.00e+00	0	32	102	1048576	52	6108
2026-01-06 23:43:50.59	130.87	29.76	-37.1	-38.0	24.5	0.00e+00	0	32	102	1048576	52	5975
2026-01-06 23:43:51.60	130.76	29.95	-37.0	-37.9	24.6	0.00e+00	0	32	102	1048576	52	5899
2026-01-06 23:43:52.61	130.65	30.13	-36.9	-37.8	24.7	0.00e+00	0	32	102	1048576	52	5850
2026-01-06 23:43:53.62	130.54	30.31	-36.8	-37.7	24.8	0.00e+00	0	32	102	1048576	52	5780
2026-01-06 23:43:54.63	130.43	30.50	-36.9	-37.8	24.8	0.00e+00	0	32	102	1048576	52	5806
2026-01-06 23:43:55.64	130.32	30.69	-37.0	-37.8	24.7	0.00e+00	0	32	102	1048576	52	5850
2026-01-06 23:43:56.65	130.20	30.87	-36.8	-37.7	24.8	0.00e+00	0	32	102	1048576	52	5757
2026-01-06 23:43:57.66	130.08	31.06	-36.9	-37.8	24.7	0.00e+00	0	32	102	1048576	52	5815
2026-01-06 23:43:58.67	129.97	31.25	-37.0	-37.8	24.7	0.00e+00	0	32	102	1048576	52	5854
2026-01-06 23:43:59.68	129.85	31.44	-37.0	-37.9	24.7	0.00e+00	0	32	102	1048576	52	5900
2026-01-06 23:44:00.69	129.73	31.64	-36.8	-37.7	24.8	0.00e+00	0	32	102	1048576	52	5781
2026-01-06 23:44:01.70	129.60	31.83	-36.9	-37.8	24.6	0.00e+00	0	32	102	1048576	52	5854
2026-01-06 23:44:02.71	129.48	32.02	-37.0	-37.9	24.5	0.00e+00	0	32	102	1048576	52	5883
2026-01-06 23:44:03.72	129.35	32.22	-37.0	-37.9	24.4	0.00e+00	0	32	102	1048576	52	5912
2026-01-06 23:44:04.73	129.23	32.42	-37.0	-37.9	24.5	0.00e+00	0	32	102	1048576	52	5874
2026-01-06 23:44:05.74	129.10	32.61	-37.1	-38.0	24.5	0.00e+00	0	32	102	1048576	52	5970
2026-01-06 23:44:06.75	128.97	32.81	-37.2	-38.0	24.4	0.00e+00	0	32	102	1048576	52	5993
2026-01-06 23:44:07.76	128.84	33.01	-37.3	-38.2	24.4	0.00e+00	0	32	102	1048576	52	6076
2026-01-06 23:44:08.76	128.70	33.21	-37.4	-38.3	24.4	0.00e+00	0	32	102	1048576	52	6184
2026-01-06 23:44:09.77	128.57	33.41	-37.6	-38.5	24.3	0.00e+00	0	32	102	1048576	52	6294
2026-01-06 23:44:10.78	128.43	33.62	-37.7	-38.7	24.2	0.00e+00	0	32	102	1048576	52	6433
2026-01-06 23:44:11.79	128.29	33.82	-37.9	-38.8	24.0	0.00e+00	0	32	102	1048576	52	6556
2026-01-06 23:44:12.80	128.15	34.03	-37.9	-38.8	24.0	0.00e+00	0	32	102	1048576	52	6535
2026-01-06 23:44:13.81	128.01	34.24	-38.0	-38.9	23.8	0.00e+00	0	32	102	1048576	52	6647
2026-01-06 23:44:14.82	127.87	34.44	-38.1	-39.0	23.7	0.00e+00	0	32	102	1048576	52	6707
2026-01-06 23:44:15.83	127.72	34.65	-38.1	-39.0	23.7	0.00e+00	0	32	102	1048576	54	5990
2026-01-06 23:44:16.84	127.57	34.86	-38.3	-39.2	23.6	0.00e+00	0	32	102	1048576	54	6118
2026-01-06 23:44:17.85	127.42	35.08	-38.6	-39.5	23.4	0.00e+00	0	32	102	1048576	54	6326
2026-01-06 23:44:18.86	127.27	35.29	-38.8	-39.8	23.2	0.00e+00	0	32	102	1048576	54	6505
2026-01-06 23:44:19.87	127.12	35.50	-38.9	-39.9	23.2	0.00e+00	0	32	102	1048576	54	6577
2026-01-06 23:44:20.88	126.96	35.72	-39.0	-40.0	23.1	0.00e+00	0	32	102	1048576	54	6664
2026-01-06 23:44:21.89	126.80	35.93	-39.3	-40.3	22.9	0.00e+00	0	32	102	1048576	56	6157
2026-01-06 23:44:22.90	126.64	36.15	-39.1	-40.1	23.0	0.00e+00	0	32	102	1048576	56	6031
2026-01-06 23:44:23.91	126.48	36.37	-39.2	-40.2	22.9	0.00e+00	0	32	102	1048576	56	6092
2026-01-06 23:44:24.92	126.31	36.59	-39.3	-40.3	22.9	0.00e+00	0	32	102	1048576	56	6170
2026-01-06 23:44:25.93	126.15	36.81	-39.4	-40.4	22.7	0.00e+00	0	32	102	1048576	56	6246
2026-01-06 23:44:26.94	125.98	37.03	-39.7	-40.7	22.5	0.00e+00	0	32	102	1048576	56	6478
2026-01-06 23:44:27.95	125.81	37.26	-39.5	-40.5	22.7	0.00e+00	0	32	102	1048576	56	6296
2026-01-06 23:44:28.96	125.63	37.48	-39.5	-40.5	22.7	0.00e+00	0	32	102	1048576	56	6310
2026-01-06 23:44:29.97	125.46	37.71	-39.5	-40.5	22.6	0.00e+00	0	32	102	1048576	56	6332
2026-01-06 23:44:30.99	125.28	37.94	-39.5	-40.5	22.7	0.00e+00	0	32	102	1048576	56	6340
2026-01-06 23:44:32.00	125.09	38.17	-39.6	-40.6	22.7	0.00e+00	0	32	102	1048576	56	6384
2026-01-06 23:44:33.01	124.91	38.40	-39.6	-40.7	22.5	0.00e+00	0	32	102	1048576	56	6424
2026-01-06 23:44:34.02	124.72	38.63	-39.9	-40.9	22.5	0.00e+00	0	33	102	1048576	56	6605
2026-01-06 23:44:35.03	124.53	38.86	-40.0	-41.0	22.3	0.00e+00	0	32	102	1048576	56	6694
2026-01-06 23:44:36.03	124.34	39.09	-39.8	-40.8	22.4	0.00e+00	0	32	102	1048576	56	6562
2026-01-06 23:44:37.04	124.15	39.33	-39.9	-40.9	22.3	0.00e+00	0	32	102	1048576	56	6635
2026-01-06 23:44:38.05	123.95	39.56	-39.8	-40.8	22.5	0.00e+00	0	32	102	1048576	56	6523
2026-01-06 23:44:39.06	123.75	39.80	-39.8	-40.9	22.5	0.00e+00	0	33	102	1048576	56	6579
2026-01-06 23:44:40.07	123.54	40.04	-39.5	-40.5	22.7	0.00e+00	0	33	102	1048576	56	6347
2026-01-06 23:44:41.08	123.34	40.28	-39.3	-40.3	22.9	0.00e+00	0	33	102	1048576	56	6176
2026-01-06 23:44:42.09	123.13	40.52	-38.9	-39.9	23.1	0.00e+00	0	33	102	1048576	56	5870
2026-01-06 23:44:43.10	122.91	40.76	-38.8	-39.8	23.2	0.00e+00	0	32	102	1048576	56	5792
2026-01-06 23:44:44.11	122.70	41.00	-38.8	-39.7	23.3	0.00e+00	0	32	102	1048576	56	5790
2026-01-06 23:44:45.12	122.48	41.25	-38.7	-39.7	23.4	0.00e+00	0	32	102	1048576	56	5735
2026-01-06 23:44:46.13	122.25	41.49	-39.0	-39.9	23.1	0.00e+00	0	32	102	1048576	56	5919
2026-01-06 23:44:47.14	122.03	41.74	-39.2	-40.2	23.0	0.00e+00	0	33	102	1048576	56	6090
2026-01-06 23:44:48.15	121.79	41.99	-39.4	-40.4	22.9	0.00e+00	0	32	102	1048576	56	6236
2026-01-06 23:44:49.16	121.56	42.24	-39.6	-40.6	22.6	0.00e+00	0	32	102	1048576	56	6366
2026-01-06 23:44:50.17	121.32	42.49	-39.6	-40.7	22.6	0.00e+00	0	33	102	1048576	56	6428
2026-01-06 23:44:51.18	121.08	42.74	-40.0	-41.1	22.1	0.00e+00	0	33	102	1048576	56	6773
2026-01-06 23:44:52.19	120.84	42.99	-40.2	-41.3	21.9	0.00e+00	0	32	102	1048576	58	6142
2026-01-06 23:44:53.20	120.59	43.24	-40.5	-41.7	21.4	0.00e+00	0	32	102	1048576	58	6425
2026-01-06 23:44:54.21	120.33	43.50	-40.7	-41.8	21.3	0.00e+00	0	33	102	1048576	58	6553
2026-01-06 23:44:55.22	120.08	43.75	-40.6	-41.7	21.6	0.00e+00	0	32	102	1048576	58	6466
2026-01-06 23:44:56.23	119.81	44.01	-40.6	-41.7	21.6	0.00e+00	0	33	102	1048576	58	6445
2026-01-06 23:44:57.24	119.55	44.26	-40.3	-41.4	21.8	0.00e+00	0	32	102	1048576	58	6263
2026-01-06 23:44:58.25	119.28	44.52	-39.7	-40.8	22.3	0.00e+00	0	32	102	1048576	58	5794
2026-01-06 23:44:59.26	119.00	44.78	-39.9	-41.0	22.3	0.00e+00	0	33	102	1048576	58	5950
2026-01-06 23:45:00.27	118.72	45.04	-39.9	-41.0	22.2	0.00e+00	0	33	102	1048576	58	5943
2026-01-06 23:45:01.28	118.44	45.30	-39.6	-40.7	22.6	0.00e+00	0	33	102	1048576	58	5737
2026-01-06 23:45:02.29	118.15	45.56	-39.6	-40.6	22.6	0.00e+00	0	33	102	1048576	58	5725
2026-01-06 23:45:03.30	117.86	45.83	-39.6	-40.6	22.6	0.00e+00	0	33	102	1048576	58	5665
2026-01-06 23:45:04.31	117.56	46.09	-39.5	-40.5	22.7	0.00e+00	0	33	102	1048576	58	5604
2026-01-06 23:45:05.32	117.26	46.36	-39.4	-40.4	22.8	0.00e+00	0	33	102	1048576	58	5591
2026-01-06 23:45:06.33	116.95	46.62	-39.0	-40.0	23.1	0.00e+00	0	32	102	1048576	56	5961
2026-01-06 23:45:07.34	116.63	46.89	-38.6	-39.5	23.5	0.00e+00	0	32	102	1048576	56	5649
2026-01-06 23:45:08.35	116.31	47.15	-38.2	-39.1	23.9	0.00e+00	0	33	102	1048576	56	5373
2026-01-06 23:45:09.36	115.99	47.42	-38.2	-39.1	23.8	0.00e+00	0	33	102	1048576	56	5363
2026-01-06 23:45:10.37	115.66	47.69	-38.4	-39.3	23.7	0.00e+00	0	33	102	1048576	56	5524
2026-01-06 23:45:11.38	115.32	47.96	-38.7	-39.6	23.5	0.00e+00	0	32	102	1048576	56	5693
2026-01-06 23:45:12.39	114.98	48.23	-38.8	-39.8	23.3	0.00e+00	0	33	102	1048576	56	5818
2026-01-06 23:45:13.40	114.63	48.50	-39.1	-40.1	23.0	0.00e+00	0	32	102	1048576	56	6019
2026-01-06 23:45:14.41	114.27	48.77	-39.0	-40.0	23.1	0.00e+00	0	33	102	1048576	56	5950
2026-01-06 23:45:15.42	113.91	49.04	-39.0	-40.0	23.1	0.00e+00	0	33	102	1048576	56	5960
2026-01-06 23:45:16.44	113.54	49.31	-38.8	-39.7	23.4	0.00e+00	0	32	102	1048576	56	5758
2026-01-06 23:45:17.45	113.17	49.58	-38.7	-39.6	23.4	0.00e+00	0	32	102	1048576	56	5703
2026-01-06 23:45:18.46	112.79	49.85	-38.9	-39.9	22.9	0.00e+00	0	32	102	1048576	56	5883
2026-01-06 23:45:19.47	112.40	50.13	-39.3	-40.3	22.5	0.00e+00	0	33	102	1048576	56	6158
2026-01-06 23:45:20.48	112.00	50.40	-39.3	-40.3	22.5	0.00e+00	0	32	102	1048576	56	6189
2026-01-06 23:45:21.49	111.60	50.67	-39.2	-40.2	22.9	0.00e+00	0	32	102	1048576	56	6120
2026-01-06 23:45:22.50	111.19	50.94	-38.9	-39.9	23.1	0.00e+00	0	32	102	1048576	56	5888
2026-01-06 23:45:23.51	110.77	51.22	-38.8	-39.8	23.4	0.00e+00	0	32	102	1048576	56	5815
2026-01-06 23:45:24.52	110.35	51.49	-38.3	-39.3	23.6	0.00e+00	0	32	102	1048576	56	5489
2026-01-06 23:45:25.53	109.91	51.76	-38.5	-39.5	23.4	0.00e+00	0	32	102	1048576	56	5619
2026-01-06 23:45:26.54	109.47	52.03	-38.8	-39.8	22.9	0.00e+00	0	32	102	1048576	56	5853
2026-01-06 23:45:27.55	109.02	52.30	-38.8	-39.8	23.1	0.00e+00	0	32	102	1048576	56	5809
2026-01-06 23:45:28.56	108.57	52.57	-38.8	-39.8	23.3	0.00e+00	0	32	102	1048576	56	5809
2026-01-06 23:45:29.57	108.10	52.85	-38.3	-39.2	23.8	0.00e+00	0	33	102	1048576	56	5464
2026-01-06 23:45:30.58	107.63	53.12	-37.5	-38.4	24.2	0.00e+00	0	33	102	1048576	54	5560
2026-01-06 23:45:31.59	107.14	53.39	-37.3	-38.3	24.1	0.00e+00	0	33	102	1048576	54	5480
2026-01-06 23:45:32.60	106.65	53.65	-37.6	-38.5	23.9	0.00e+00	0	32	102	1048576	54	5649
2026-01-06 23:45:33.61	106.15	53.92	-37.8	-38.8	23.9	0.00e+00	0	32	102	1048576	54	5832
2026-01-06 23:45:34.62	105.64	54.19	-37.8	-38.7	24.0	0.00e+00	0	32	102	1048576	54	5790
2026-01-06 23:45:35.63	105.12	54.46	-37.5	-38.4	24.2	0.00e+00	0	32	102	1048576	54	5586
2026-01-06 23:45:36.64	104.59	54.72	-37.3	-38.2	24.5	0.00e+00	0	33	102	1048576	54	5460
2026-01-06 23:45:37.65	104.04	54.98	-37.5	-38.4	24.2	0.00e+00	0	32	102	1048576	54	5541
2026-01-06 23:45:38.66	103.49	55.25	-37.2	-38.2	24.4	0.00e+00	0	32	102	1048576	54	5407
2026-01-06 23:45:39.67	102.93	55.51	-37.5	-38.4	24.3	0.00e+00	0	33	102	1048576	52	6208
2026-01-06 23:45:40.68	102.36	55.77	-37.6	-38.6	24.2	0.00e+00	0	33	102	1048576	52	6375
2026-01-06 23:45:41.69	101.78	56.03	-37.3	-38.2	24.6	0.00e+00	0	32	102	1048576	52	6073
2026-01-06 23:45:42.70	101.18	56.28	-36.7	-37.5	24.9	0.00e+00	0	32	102	1048576	52	5647
2026-01-06 23:45:43.71	100.58	56.54	-36.8	-37.6	24.8	0.00e+00	0	32	102	1048576	52	5718
2026-01-06 23:45:44.72	99.96	56.79	-36.4	-37.3	24.8	0.00e+00	0	32	102	1048576	52	5499
2026-01-06 23:45:45.73	99.34	57.04	-36.8	-37.7	24.8	0.00e+00	0	32	102	1048576	52	5726
2026-01-06 23:45:46.74	98.70	57.29	-36.8	-37.7	24.8	0.00e+00	0	32	102	1048576	52	5727
2026-01-06 23:45:47.75	98.05	57.53	-36.9	-37.8	24.8	0.00e+00	0	32	102	1048576	52	5809
2026-01-06 23:45:48.76	97.39	57.78	-36.8	-37.7	24.8	0.00e+00	0	33	102	1048576	52	5775
2026-01-06 23:45:49.77	96.71	58.02	-37.0	-37.9	24.7	0.00e+00	0	33	102	1048576	52	5875
2026-01-06 23:45:50.78	96.02	58.26	-37.1	-38.0	24.5	0.00e+00	0	32	102	1048576	52	5951
2026-01-06 23:45:51.79	95.33	58.49	-37.1	-38.0	24.4	0.00e+00	0	32	102	1048576	52	5977
2026-01-06 23:45:52.80	94.61	58.72	-37.0	-37.9	24.7	0.00e+00	0	33	102	1048576	52	5891
2026-01-06 23:45:53.81	93.89	58.95	-36.7	-37.5	24.8	0.00e+00	0	33	102	1048576	52	5656
2026-01-06 23:45:54.82	93.16	59.17	-36.4	-37.2	25.1	0.00e+00	0	33	102	1048576	52	5455
2026-01-06 23:45:55.83	92.41	59.40	-36.1	-36.9	25.3	0.00e+00	0	33	102	1048576	50	5899
2026-01-06 23:45:56.84	91.64	59.61	-36.3	-37.2	25.2	0.00e+00	0	33	102	1048576	50	6096
2026-01-06 23:45:57.85	90.87	59.83	-36.1	-36.9	25.3	0.00e+00	0	32	102	1048576	50	5906
2026-01-06 23:45:58.86	90.08	60.03	-36.0	-36.9	25.4	0.00e+00	0	32	102	1048576	50	5874
2026-01-06 23:45:59.87	89.28	60.24	-35.7	-36.6	25.6	0.00e+00	0	32	102	1048576	50	5685
2026-01-06 23:46:00.88	88.47	60.44	-35.8	-36.7	25.5	0.00e+00	0	33	102	1048576	50	5748
2026-01-06 23:46:01.90	87.64	60.64	-35.8	-36.7	25.5	0.00e+00	0	33	102	1048576	50	5735
2026-01-06 23:46:02.91	86.80	60.83	-36.1	-36.9	25.4	0.00e+00	0	32	102	1048576	50	5908
2026-01-06 23:46:03.92	85.95	61.01	-36.1	-37.0	25.2	0.00e+00	0	33	102	1048576	50	5928
2026-01-06 23:46:04.93	85.08	61.20	-36.0	-36.9	25.3	0.00e+00	0	33	102	1048576	50	5886
2026-01-06 23:46:05.94	84.21	61.37	-35.9	-36.8	25.4	0.00e+00	0	32	102	1048576	50	5824
2026-01-06 23:46:06.95	83.32	61.54	-35.9	-36.7	25.3	0.00e+00	0	33	102	1048576	50	5781
2026-01-06 23:46:07.96	82.42	61.71	-35.7	-36.6	25.4	0.00e+00	0	33	102	1048576	50	5661
2026-01-06 23:46:08.97	81.51	61.86	-36.1	-37.0	25.2	0.00e+00	0	33	102	1048576	50	5966
2026-01-06 23:46:09.98	80.58	62.02	-36.5	-37.4	25.1	0.00e+00	0	33	102	1048576	50	6210
2026-01-06 23:46:10.99	79.65	62.16	-36.5	-37.4	25.1	0.00e+00	0	33	102	1048576	50	6227
2026-01-06 23:46:12.00	78.70	62.30	-36.2	-37.1	25.3	0.00e+00	0	33	102	1048576	50	6025
2026-01-06 23:46:13.01	77.75	62.44	-36.3	-37.2	25.1	0.00e+00	0	33	102	1048576	50	6067
2026-01-06 23:46:14.02	76.78	62.56	-36.1	-37.0	25.4	0.00e+00	0	33	102	1048576	50	5934
2026-01-06 23:46:15.03	75.80	62.68	-36.0	-36.8	25.4	0.00e+00	0	33	102	1048576	50	5843
2026-01-06 23:46:16.03	74.82	62.80	-35.8	-36.6	25.6	0.00e+00	0	33	102	1048576	50	5704
2026-01-06 23:46:17.04	73.83	62.90	-35.6	-36.5	25.7	0.00e+00	0	33	102	1048576	50	5607
2026-01-06 23:46:18.05	72.82	63.00	-35.6	-36.4	25.5	0.00e+00	0	33	102	1048576	50	5570
2026-01-06 23:46:19.06	71.81	63.09	-35.5	-36.4	25.4	0.00e+00	0	33	102	1048576	50	5546
2026-01-06 23:46:20.07	70.79	63.18	-35.6	-36.5	25.3	0.00e+00	0	33	102	1048576	50	5599
2026-01-06 23:46:21.08	69.76	63.26	-35.7	-36.6	25.4	0.00e+00	0	33	102	1048576	50	5667
2026-01-06 23:46:22.09	68.73	63.33	-35.9	-36.8	25.3	0.00e+00	0	32	102	1048576	50	5819
2026-01-06 23:46:23.10	67.69	63.39	-36.0	-36.9	25.3	0.00e+00	0	33	102	1048576	50	5883
2026-01-06 23:46:24.11	66.65	63.44	-36.1	-36.9	25.4	0.00e+00	0	33	102	1048576	50	5922
2026-01-06 23:46:25.11	65.61	63.49	-36.1	-36.9	25.3	0.00e+00	0	33	102	1048576	50	5917
2026-01-06 23:46:26.12	64.56	63.52	-36.2	-37.1	25.0	0.00e+00	0	33	102	1048576	50	6013
2026-01-06 23:46:27.13	63.50	63.55	-35.9	-36.7	25.4	0.00e+00	0	33	102	1048576	50	5777
2026-01-06 23:46:28.14	62.45	63.58	-35.8	-36.7	25.5	0.00e+00	0	33	102	1048576	50	5759
2026-01-06 23:46:29.15	61.39	63.59	-36.1	-37.0	25.3	0.00e+00	0	33	102	1048576	50	5942
2026-01-06 23:46:30.15	60.34	63.60	-36.0	-36.8	25.4	0.00e+00	0	33	102	1048576	50	5850
2026-01-06 23:46:31.16	59.28	63.59	-35.8	-36.6	25.5	0.00e+00	0	33	102	1048576	50	5716
2026-01-06 23:46:32.17	58.22	63.58	-35.9	-36.8	25.4	0.00e+00	0	33	102	1048576	50	5826
2026-01-06 23:46:33.18	57.16	63.57	-35.8	-36.7	25.6	0.00e+00	0	33	102	1048576	50	5729
2026-01-06 23:46:34.19	56.10	63.54	-35.7	-36.6	25.6	0.00e+00	0	33	102	1048576	50	5678
2026-01-06 23:46:35.19	55.06	63.51	-35.8	-36.7	25.5	0.00e+00	0	33	102	1048576	50	5744
2026-01-06 23:46:36.20	54.01	63.47	-36.0	-36.9	25.3	0.00e+00	0	33	102	1048576	50	5889
2026-01-06 23:46:37.21	52.96	63.42	-35.8	-36.6	25.4	0.00e+00	0	33	102	1048576	50	5679
2026-01-06 23:46:38.22	51.92	63.36	-35.5	-36.4	25.6	0.00e+00	0	33	102	1048576	50	5550
2026-01-06 23:46:39.23	50.88	63.29	-35.3	-36.1	25.8	0.00e+00	0	33	102	1048576	50	5367
2026-01-06 23:46:40.24	49.86	63.22	-35.8	-36.7	25.3	0.00e+00	0	33	102	1048576	50	5775
2026-01-06 23:46:41.24	48.84	63.14	-36.3	-37.2	25.2	0.00e+00	0	33	102	1048576	50	6085
2026-01-06 23:46:42.25	47.83	63.05	-36.0	-36.9	25.5	0.00e+00	0	33	102	1048576	50	5882
2026-01-06 23:46:43.26	46.82	62.96	-36.2	-37.0	25.2	0.00e+00	0	33	102	1048576	50	5974
2026-01-06 23:46:44.27	45.82	62.85	-36.6	-37.5	24.9	0.00e+00	0	33	102	1048576	50	6344
2026-01-06 23:46:45.28	44.83	62.74	-36.5	-37.4	25.0	0.00e+00	0	32	102	1048576	50	6258
2026-01-06 23:46:46.29	43.85	62.63	-36.7	-37.6	25.0	0.00e+00	0	33	102	1048576	50	6371
2026-01-06 23:46:47.29	42.88	62.51	-36.8	-37.7	24.8	0.00e+00	0	33	102	1048576	50	6478
2026-01-06 23:46:48.30	41.92	62.38	-36.9	-37.8	24.8	0.00e+00	0	33	102	1048576	50	6540
2026-01-06 23:46:49.31	40.97	62.24	-36.5	-37.4	25.0	0.00e+00	0	33	102	1048576	50	6208
2026-01-06 23:46:50.32	40.03	62.10	-36.1	-37.0	25.1	0.00e+00	0	33	102	1048576	50	5982
2026-01-06 23:46:51.33	39.10	61.95	-36.5	-37.4	25.0	0.00e+00	0	33	102	1048576	50	6225
2026-01-06 23:46:52.33	38.19	61.79	-36.9	-37.8	24.7	0.00e+00	0	33	102	1048576	50	6516
2026-01-06 23:46:53.34	37.29	61.63	-37.0	-37.9	24.7	0.00e+00	0	33	102	1048576	50	6575
2026-01-06 23:46:54.35	36.40	61.47	-36.6	-37.4	25.0	0.00e+00	0	33	102	1048576	50	6277
2026-01-06 23:46:55.36	35.51	61.29	-36.0	-36.9	25.4	0.00e+00	0	33	102	1048576	50	5883
2026-01-06 23:46:56.37	34.64	61.12	-35.8	-36.7	25.5	0.00e+00	0	33	102	1048576	50	5746
2026-01-06 23:46:57.38	33.79	60.93	-35.8	-36.6	25.6	0.00e+00	0	33	102	1048576	50	5691
2026-01-06 23:46:58.38	32.95	60.75	-36.0	-36.8	25.3	0.00e+00	0	33	102	1048576	50	5850
2026-01-06 23:46:59.39	32.12	60.55	-36.5	-37.3	25.0	0.00e+00	0	33	102	1048576	50	6182
2026-01-06 23:47:00.40	31.30	60.36	-36.5	-37.4	24.9	0.00e+00	0	33	102	1048576	50	6248
2026-01-06 23:47:01.40	30.50	60.16	-36.5	-37.4	24.7	0.00e+00	0	33	102	1048576	50	6272
2026-01-06 23:47:02.41	29.71	59.95	-36.5	-37.4	24.7	0.00e+00	0	33	102	1048576	50	6270
2026-01-06 23:47:03.42	28.93	59.74	-36.4	-37.3	25.1	0.00e+00	0	33	102	1048576	50	6154
2026-01-06 23:47:04.43	28.16	59.52	-36.4	-37.3	25.1	0.00e+00	0	33	102	1048576	50	6178
2026-01-06 23:47:05.44	27.41	59.31	-36.3	-37.2	25.2	0.00e+00	0	33	102	1048576	50	6092
2026-01-06 23:47:06.44	26.67	59.09	-36.7	-37.6	24.9	0.00e+00	0	33	102	1048576	50	6415
2026-01-06 23:47:07.45	25.94	58.86	-37.1	-38.0	24.5	0.00e+00	0	33	102	1048576	50	6659
2026-01-06 23:47:08.46	25.23	58.63	-36.7	-37.6	24.4	0.00e+00	0	33	102	1048576	50	6407
2026-01-06 23:47:09.47	24.52	58.40	-36.4	-37.3	24.6	0.00e+00	0	33	102	1048576	50	6202
2026-01-06 23:47:10.48	23.83	58.16	-36.1	-37.0	25.3	0.00e+00	0	33	102	1048576	50	5935
2026-01-06 23:47:11.48	23.16	57.93	-36.5	-37.4	25.0	0.00e+00	0	33	102	1048576	50	6234
2026-01-06 23:47:12.49	22.49	57.69	-37.5	-38.4	24.3	0.00e+00	0	33	102	1048576	52	6232
2026-01-06 23:47:13.50	21.83	57.44	-37.7	-38.6	24.1	0.00e+00	0	33	102	1048576	52	6394
2026-01-06 23:47:14.51	21.19	57.20	-38.0	-39.0	23.8	0.00e+00	0	33	102	1048576	52	6691
2026-01-06 23:47:15.51	20.56	56.95	-38.2	-39.2	23.7	0.00e+00	0	32	102	1048576	54	6088
2026-01-06 23:47:16.52	19.94	56.70	-37.8	-38.8	23.7	0.00e+00	0	33	102	1048576	54	5822
2026-01-06 23:47:17.53	19.33	56.45	-37.6	-38.5	24.3	0.00e+00	0	33	102	1048576	54	5635
2026-01-06 23:47:18.54	18.73	56.19	-36.9	-37.8	24.7	0.00e+00	0	33	102	1048576	52	5832
2026-01-06 23:47:19.55	18.14	55.94	-37.3	-38.2	24.5	0.00e+00	0	33	102	1048576	52	6120
2026-01-06 23:47:20.56	17.56	55.68	-38.1	-39.0	23.4	0.00e+00	0	33	102	1048576	52	6703
2026-01-06 23:47:21.57	17.00	55.42	-38.3	-39.3	23.6	0.00e+00	0	33	102	1048576	54	6153
2026-01-06 23:47:22.58	16.44	55.16	-37.9	-38.8	24.0	0.00e+00	0	33	102	1048576	54	5855
2026-01-06 23:47:23.58	15.90	54.90	-37.6	-38.5	24.2	0.00e+00	0	33	102	1048576	54	5618
2026-01-06 23:47:24.59	15.36	54.64	-37.4	-38.3	24.3	0.00e+00	0	33	102	1048576	54	5485
2026-01-06 23:47:25.60	14.84	54.37	-37.0	-37.9	24.8	0.00e+00	0	33	102	1048576	52	5864
2026-01-06 23:47:26.61	14.32	54.11	-37.0	-37.9	24.7	0.00e+00	0	33	102	1048576	52	5898
2026-01-06 23:47:27.62	13.81	53.84	-37.3	-38.2	24.2	0.00e+00	0	33	102	1048576	52	6117
2026-01-06 23:47:28.63	13.32	53.57	-38.5	-39.5	23.4	0.00e+00	0	33	102	1048576	54	6281
2026-01-06 23:47:29.63	12.83	53.30	-40.1	-41.3	21.9	0.00e+00	0	33	102	1048576	56	6913
2026-01-06 23:47:30.64	12.35	53.04	-40.3	-41.5	20.9	0.00e+00	0	33	102	1048576	58	6296
2026-01-06 23:47:31.64	11.89	52.77	-39.9	-41.0	21.2	0.00e+00	0	33	102	1048576	58	5984
2026-01-06 23:47:32.65	11.43	52.50	-39.7	-40.8	22.0	0.00e+00	0	33	102	1048576	58	5819
2026-01-06 23:47:33.66	10.97	52.23	-39.2	-40.2	22.9	0.00e+00	0	33	102	1048576	58	5420
2026-01-06 23:47:34.67	10.53	51.96	-38.4	-39.4	23.7	0.00e+00	0	33	102	1048576	56	5555
2026-01-06 23:47:35.68	10.09	51.69	-38.3	-39.2	23.8	0.00e+00	0	33	102	1048576	56	5433
2026-01-06 23:47:36.69	9.66	51.42	-38.6	-39.6	23.5	0.00e+00	0	33	102	1048576	56	5682
2026-01-06 23:47:37.70	9.24	51.14	-39.4	-40.4	22.7	0.00e+00	0	33	102	1048576	56	6252
2026-01-06 23:47:38.70	8.83	50.88	-40.1	-41.1	22.2	0.00e+00	0	33	102	1048576	56	6791
2026-01-06 23:47:39.71	8.42	50.60	-40.4	-41.5	21.9	0.00e+00	0	33	102	1048576	58	6295
2026-01-06 23:47:40.72	8.03	50.33	-39.5	-40.5	22.7	0.00e+00	0	33	102	1048576	58	5626
2026-01-06 23:47:41.72	7.64	50.06	-38.9	-39.9	23.1	0.00e+00	0	33	102	1048576	56	5868
2026-01-06 23:47:42.73	7.25	49.79	-38.5	-39.4	23.6	0.00e+00	0	33	102	1048576	56	5566
2026-01-06 23:47:43.74	6.87	49.52	-38.4	-39.3	23.7	0.00e+00	0	33	102	1048576	56	5501
2026-01-06 23:47:44.74	6.51	49.26	-38.9	-39.9	23.2	0.00e+00	0	33	102	1048576	56	5881
2026-01-06 23:47:45.75	6.14	48.99	-39.3	-40.4	22.8	0.00e+00	0	33	102	1048576	56	6217
2026-01-06 23:47:46.76	5.78	48.72	-39.8	-40.8	22.5	0.00e+00	0	33	102	1048576	56	6545
2026-01-06 23:47:47.77	5.43	48.45	-40.1	-41.1	22.1	0.00e+00	0	33	102	1048576	56	6792
2026-01-06 23:47:48.78	5.09	48.18	-40.7	-41.9	21.4	0.00e+00	0	33	102	1048576	58	6598
2026-01-06 23:47:49.79	4.75	47.91	-41.1	-42.3	21.0	0.00e+00	0	33	102	1048576	58	6940
2026-01-06 23:47:50.80	4.41	47.64	-41.1	-42.3	21.2	0.00e+00	0	33	102	1048576	60	6161
2026-01-06 23:47:51.81	4.08	47.38	-41.0	-42.1	21.3	0.00e+00	0	33	102	1048576	60	6027
2026-01-06 23:47:52.81	3.76	47.11	-40.7	-41.8	21.7	0.00e+00	0	33	102	1048576	60	5835
2026-01-06 23:47:53.82	3.45	46.85	-40.1	-41.2	22.1	0.00e+00	0	33	102	1048576	60	5420
2026-01-06 23:47:54.83	3.13	46.58	-39.3	-40.3	22.5	0.00e+00	0	33	102	1048576	58	5473
2026-01-06 23:47:55.84	2.83	46.32	-39.4	-40.4	22.2	0.00e+00	0	33	102	1048576	58	5568
2026-01-06 23:47:56.85	2.53	46.05	-39.5	-40.6	22.0	0.00e+00	0	33	102	1048576	58	5692
2026-01-06 23:47:57.86	2.23	45.79	-39.8	-40.9	22.3	0.00e+00	0	33	102	1048576	58	5882
2026-01-06 23:47:58.87	1.94	45.53	-39.7	-40.7	22.5	0.00e+00	0	33	102	1048576	58	5781
2026-01-06 23:47:59.88	1.65	45.27	-39.5	-40.5	22.7	0.00e+00	0	33	102	1048576	58	5614
2026-01-06 23:48:00.89	1.37	45.01	-39.3	-40.2	23.0	0.00e+00	0	33	102	1048576	58	5466
2026-01-06 23:48:01.90	1.09	44.75	-38.9	-39.8	23.3	0.00e+00	0	33	102	1048576	56	5846
2026-01-06 23:48:02.91	0.82	44.49	-39.2	-40.1	23.0	0.00e+00	0	33	102	1048576	56	6049
2026-01-06 23:48:03.92	0.55	44.24	-39.1	-40.1	23.0	0.00e+00	0	33	102	1048576	56	6038
2026-01-06 23:48:04.92	0.29	43.98	-39.2	-40.2	22.7	0.00e+00	0	33	102	1048576	56	6104
2026-01-06 23:48:05.93	0.03	43.73	-39.0	-40.0	22.9	0.00e+00	0	33	102	1048576	56	5935
2026-01-06 23:48:06.94	359.77	43.47	-38.9	-39.9	23.1	0.00e+00	0	33	102	1048576	56	5880
2026-01-06 23:48:07.95	359.52	43.22	-38.8	-39.7	23.4	0.00e+00	0	33	102	1048576	56	5787
2026-01-06 23:48:08.96	359.28	42.97	-39.0	-40.0	23.1	0.00e+00	0	33	102	1048576	56	5953
2026-01-06 23:48:09.97	359.03	42.72	-40.0	-41.1	22.2	0.00e+00	0	33	102	1048576	56	6780
2026-01-06 23:48:10.98	358.79	42.47	-40.7	-41.9	21.5	0.00e+00	0	33	102	1048576	58	6580
2026-01-06 23:48:11.98	358.56	42.22	-40.9	-42.1	21.3	0.00e+00	0	33	102	1048576	58	6746
2026-01-06 23:48:12.99	358.33	41.98	-40.7	-41.9	21.3	0.00e+00	0	33	102	1048576	58	6583
2026-01-06 23:48:14.00	358.10	41.73	-40.7	-41.8	21.3	0.00e+00	0	33	102	1048576	58	6567
2026-01-06 23:48:15.00	357.87	41.49	-40.4	-41.5	21.6	0.00e+00	0	33	102	1048576	58	6313
2026-01-06 23:48:16.01	357.65	41.24	-40.1	-41.1	22.2	0.00e+00	0	33	102	1048576	58	6036
2026-01-06 23:48:17.02	357.43	41.00	-39.3	-40.4	22.9	0.00e+00	0	33	102	1048576	58	5537
2026-01-06 23:48:18.03	357.22	40.76	-39.2	-40.2	23.0	0.00e+00	0	33	102	1048576	56	6100
2026-01-06 23:48:19.04	357.01	40.52	-39.1	-40.1	22.9	0.00e+00	0	33	102	1048576	56	6035
2026-01-06 23:48:20.04	356.80	40.28	-39.1	-40.1	23.1	0.00e+00	0	33	102	1048576	56	6011
2026-01-06 23:48:21.05	356.59	40.04	-39.2	-40.2	23.0	0.00e+00	0	33	102	1048576	56	6079
2026-01-06 23:48:22.06	356.39	39.80	-38.5	-39.5	23.5	0.00e+00	0	33	102	1048576	56	5606
2026-01-06 23:48:23.07	356.19	39.57	-38.7	-39.6	23.4	0.00e+00	0	33	102	1048576	56	5706
2026-01-06 23:48:24.07	356.00	39.34	-38.6	-39.5	23.4	0.00e+00	0	33	102	1048576	56	5649
2026-01-06 23:48:25.08	355.80	39.10	-38.7	-39.7	23.3	0.00e+00	0	33	102	1048576	56	5750
2026-01-06 23:48:26.09	355.61	38.87	-39.0	-39.9	23.1	0.00e+00	0	33	102	1048576	56	5916
2026-01-06 23:48:27.10	355.42	38.64	-39.4	-40.4	22.8	0.00e+00	0	33	102	1048576	56	6208
2026-01-06 23:48:28.11	355.24	38.41	-39.7	-40.7	22.5	0.00e+00	0	33	102	1048576	56	6491
2026-01-06 23:48:29.11	355.06	38.18	-39.7	-40.8	22.5	0.00e+00	0	33	102	1048576	56	6513
2026-01-06 23:48:30.11	354.88	37.96	-39.7	-40.8	22.5	0.00e+00	0	33	102	1048576	56	6501
2026-01-06 23:48:31.12	354.70	37.73	-39.4	-40.4	22.8	0.00e+00	0	33	102	1048576	56	6227
2026-01-06 23:48:32.13	354.52	37.51	-38.8	-39.8	23.4	0.00e+00	0	33	102	1048576	56	5792
2026-01-06 23:48:33.14	354.35	37.28	-38.4	-39.4	23.7	0.00e+00	0	33	102	1048576	56	5534
2026-01-06 23:48:34.15	354.18	37.06	-38.5	-39.4	23.6	0.00e+00	0	33	102	1048576	56	5575
2026-01-06 23:48:35.15	354.01	36.84	-38.4	-39.3	23.6	0.00e+00	0	33	102	1048576	56	5505
2026-01-06 23:48:36.16	353.85	36.62	-38.7	-39.7	23.3	0.00e+00	0	33	102	1048576	56	5755
2026-01-06 23:48:37.17	353.68	36.40	-39.1	-40.2	22.8	0.00e+00	0	33	102	1048576	56	6068
2026-01-06 23:48:38.18	353.52	36.18	-39.4	-40.4	22.7	0.00e+00	0	33	102	1048576	56	6272
2026-01-06 23:48:39.19	353.36	35.97	-39.4	-40.5	22.7	0.00e+00	0	33	102	1048576	56	6280
2026-01-06 23:48:40.20	353.21	35.75	-39.4	-40.5	22.7	0.00e+00	0	33	102	1048576	56	6290
2026-01-06 23:48:41.21	353.05	35.54	-39.0	-40.0	23.1	0.00e+00	0	33	102	1048576	56	5930
2026-01-06 23:48:42.22	352.90	35.32	-38.7	-39.6	23.3	0.00e+00	0	33	102	1048576	56	5705
2026-01-06 23:48:43.22	352.75	35.11	-38.8	-39.7	23.4	0.00e+00	0	33	102	1048576	56	5774
2026-01-06 23:48:44.23	352.60	34.90	-38.2	-39.1	23.8	0.00e+00	0	33	102	1048576	56	5386
2026-01-06 23:48:45.24	352.45	34.69	-37.9	-38.8	24.0	0.00e+00	0	33	102	1048576	54	5838
2026-01-06 23:48:46.25	352.31	34.49	-37.7	-38.6	24.1	0.00e+00	0	33	102	1048576	54	5723
2026-01-06 23:48:47.26	352.16	34.28	-37.7	-38.6	24.1	0.00e+00	0	33	102	1048576	54	5719
2026-01-06 23:48:48.26	352.02	34.08	-37.8	-38.7	24.1	0.00e+00	0	33	102	1048576	54	5763
2026-01-06 23:48:49.27	351.88	33.87	-38.1	-39.0	23.9	0.00e+00	0	33	102	1048576	54	5956
2026-01-06 23:48:50.28	351.75	33.67	-38.2	-39.1	23.8	0.00e+00	0	33	102	1048576	54	6035
2026-01-06 23:48:51.29	351.61	33.46	-38.3	-39.2	23.7	0.00e+00	0	33	102	1048576	54	6110
2026-01-06 23:48:52.29	351.48	33.27	-38.3	-39.3	23.6	0.00e+00	0	33	102	1048576	54	6168
2026-01-06 23:48:53.30	351.34	33.06	-38.4	-39.3	23.5	0.00e+00	0	33	102	1048576	54	6180
2026-01-06 23:48:54.31	351.21	32.87	-38.3	-39.2	23.6	0.00e+00	0	33	102	1048576	54	6110
2026-01-06 23:48:55.32	351.08	32.67	-38.0	-39.0	23.8	0.00e+00	0	33	102	1048576	54	5930
2026-01-06 23:48:56.33	350.96	32.47	-38.0	-39.0	23.7	0.00e+00	0	33	102	1048576	54	5961
2026-01-06 23:48:57.34	350.83	32.28	-37.9	-38.9	23.9	0.00e+00	0	33	102	1048576	54	5884
2026-01-06 23:48:58.34	350.71	32.08	-37.9	-38.8	23.9	0.00e+00	0	33	102	1048576	54	5827
2026-01-06 23:48:59.35	350.58	31.89	-37.8	-38.8	24.0	0.00e+00	0	33	102	1048576	54	5803
2026-01-06 23:49:00.36	350.46	31.70	-37.9	-38.8	24.0	0.00e+00	0	33	102	1048576	54	5846
2026-01-06 23:49:01.37	350.34	31.51	-37.7	-38.7	24.0	0.00e+00	0	33	102	1048576	54	5750
2026-01-06 23:49:02.38	350.22	31.32	-37.6	-38.5	24.2	0.00e+00	0	33	102	1048576	54	5653
2026-01-06 23:49:03.38	350.11	31.13	-37.6	-38.5	24.3	0.00e+00	0	33	102	1048576	54	5641
2026-01-06 23:49:04.39	349.99	30.94	-37.2	-38.2	24.5	0.00e+00	0	33	102	1048576	54	5415
2026-01-06 23:49:05.40	349.88	30.75	-37.2	-38.1	24.5	0.00e+00	0	33	102	1048576	54	5396
2026-01-06 23:49:06.41	349.76	30.57	-37.0	-37.9	24.7	0.00e+00	0	33	102	1048576	52	5896
2026-01-06 23:49:07.42	349.65	30.38	-37.1	-38.0	24.6	0.00e+00	0	33	102	1048576	52	5940
2026-01-06 23:49:08.43	349.54	30.20	-36.8	-37.7	24.9	0.00e+00	0	32	102	1048576	52	5735
2026-01-06 23:49:09.43	349.43	30.02	-36.7	-37.6	25.0	0.00e+00	0	33	102	1048576	52	5683
2026-01-06 23:49:10.44	349.32	29.84	-36.6	-37.5	24.9	0.00e+00	0	33	102	1048576	52	5604
2026-01-06 23:49:11.45	349.22	29.66	-36.6	-37.5	25.0	0.00e+00	0	33	102	1048576	52	5599
2026-01-06 23:49:12.46	349.11	29.48	-36.5	-37.3	25.1	0.00e+00	0	33	102	1048576	52	5528
2026-01-06 23:49:13.47	349.01	29.30	-36.5	-37.4	25.0	0.00e+00	0	33	102	1048576	52	5547
2026-01-06 23:49:14.47	348.91	29.12	-36.7	-37.5	25.0	0.00e+00	0	33	102	1048576	52	5646
2026-01-06 23:49:15.48	348.80	28.95	-36.7	-37.6	24.8	0.00e+00	0	33	102	1048576	52	5716
2026-01-06 23:49:16.49	348.70	28.77	-36.9	-37.8	24.7	0.00e+00	0	33	102	1048576	52	5815
2026-01-06 23:49:17.50	348.60	28.60	-37.1	-38.0	24.7	0.00e+00	0	33	102	1048576	52	5953
2026-01-06 23:49:18.50	348.51	28.42	-37.3	-38.2	24.5	0.00e+00	0	33	102	1048576	52	6088
2026-01-06 23:49:19.51	348.41	28.25	-37.4	-38.3	24.4	0.00e+00	0	33	102	1048576	52	6173
2026-01-06 23:49:20.52	348.31	28.08	-37.5	-38.4	24.3	0.00e+00	0	33	102	1048576	52	6231
2026-01-06 23:49:21.53	348.22	27.91	-37.6	-38.5	24.3	0.00e+00	0	33	102	1048576	52	6306
2026-01-06 23:49:22.54	348.12	27.74	-37.7	-38.6	24.1	0.00e+00	0	33	102	1048576	52	6406
2026-01-06 23:49:23.54	348.03	27.57	-37.6	-38.5	24.3	0.00e+00	0	33	102	1048576	52	6339
2026-01-06 23:49:24.55	347.94	27.40	-37.4	-38.4	24.3	0.00e+00	0	33	102	1048576	52	6222
2026-01-06 23:49:25.55	347.85	27.24	-37.4	-38.3	24.4	0.00e+00	0	33	102	1048576	52	6181
2026-01-06 23:49:26.56	347.76	27.07	-37.3	-38.3	24.4	0.00e+00	0	33	102	1048576	52	6141
2026-01-06 23:49:27.57	347.67	26.91	-37.2	-38.1	24.5	0.00e+00	0	33	102	1048576	52	6008
2026-01-06 23:49:28.58	347.58	26.74	-37.1	-38.1	24.5	0.00e+00	0	33	102	1048576	52	6000
2026-01-06 23:49:29.58	347.49	26.58	-37.1	-38.0	24.6	0.00e+00	0	33	102	1048576	52	5938
2026-01-06 23:49:30.59	347.41	26.42	-36.8	-37.7	24.8	0.00e+00	0	33	102	1048576	52	5755
2026-01-06 23:49:31.60	347.32	26.26	-36.9	-37.7	24.7	0.00e+00	0	33	102	1048576	52	5789
2026-01-06 23:49:32.61	347.24	26.10	-36.8	-37.7	24.8	0.00e+00	0	33	102	1048576	52	5726
2026-01-06 23:49:33.61	347.15	25.94	-36.5	-37.3	25.1	0.00e+00	0	33	102	1048576	52	5516
2026-01-06 23:49:34.62	347.07	25.78	-36.5	-37.4	25.0	0.00e+00	0	33	102	1048576	52	5566
2026-01-06 23:49:35.63	346.99	25.62	-36.4	-37.3	25.1	0.00e+00	0	33	102	1048576	52	5507
2026-01-06 23:49:36.64	346.91	25.47	-36.4	-37.2	25.1	0.00e+00	0	33	102	1048576	52	5461
2026-01-06 23:49:37.65	346.83	25.31	-36.2	-37.1	25.2	0.00e+00	0	33	102	1048576	52	5361
2026-01-06 23:49:38.66	346.75	25.15	-36.4	-37.2	25.2	0.00e+00	0	33	102	1048576	52	5447
2026-01-06 23:49:39.66	346.67	25.00	-36.4	-37.2	25.1	0.00e+00	0	33	102	1048576	52	5457
2026-01-06 23:49:40.67	346.59	24.85	-36.3	-37.2	25.1	0.00e+00	0	33	102	1048576	52	5431
2026-01-06 23:49:41.68	346.52	24.70	-36.5	-37.3	25.0	0.00e+00	0	33	102	1048576	52	5509
2026-01-06 23:49:42.69	346.44	24.54	-36.6	-37.4	25.0	0.00e+00	0	33	102	1048576	52	5591
2026-01-06 23:49:43.70	346.36	24.39	-36.6	-37.5	24.9	0.00e+00	0	33	102	1048576	52	5641
2026-01-06 23:49:44.70	346.29	24.24	-36.7	-37.5	24.8	0.00e+00	0	33	102	1048576	52	5641
2026-01-06 23:49:45.71	346.22	24.09	-36.7	-37.6	24.8	0.00e+00	0	33	102	1048576	52	5717
2026-01-06 23:49:46.72	346.14	23.95	-36.8	-37.7	24.8	0.00e+00	0	33	102	1048576	52	5765
2026-01-06 23:49:47.73	346.07	23.80	-36.9	-37.8	24.6	0.00e+00	0	33	102	1048576	52	5829
2026-01-06 23:49:48.74	346.00	23.65	-36.8	-37.7	24.8	0.00e+00	0	33	102	1048576	52	5788
2026-01-06 23:49:49.74	345.93	23.51	-36.9	-37.8	24.8	0.00e+00	0	33	102	1048576	52	5807
2026-01-06 23:49:50.75	345.86	23.36	-36.8	-37.7	24.7	0.00e+00	0	33	102	1048576	52	5766
2026-01-06 23:49:51.76	345.79	23.21	-36.9	-37.8	24.6	0.00e+00	0	33	102	1048576	52	5844
2026-01-06 23:49:52.77	345.72	23.07	-36.8	-37.7	24.8	0.00e+00	0	33	102	1048576	52	5755
2026-01-06 23:49:53.78	345.65	22.93	-36.9	-37.8	24.8	0.00e+00	0	33	102	1048576	52	5802
2026-01-06 23:49:54.79	345.58	22.78	-36.9	-37.8	24.6	0.00e+00	0	33	102	1048576	52	5840
2026-01-06 23:49:55.80	345.51	22.64	-37.0	-37.9	24.7	0.00e+00	0	33	102	1048576	52	5871
2026-01-06 23:49:56.81	345.45	22.50	-36.9	-37.8	24.6	0.00e+00	0	33	102	1048576	52	5831
2026-01-06 23:49:57.82	345.38	22.36	-36.9	-37.8	24.6	0.00e+00	0	33	102	1048576	52	5854
2026-01-06 23:49:58.84	345.32	22.22	-36.9	-37.8	24.7	0.00e+00	0	33	102	1048576	52	5843
2026-01-06 23:49:59.85	345.25	22.08	-37.0	-37.9	24.6	0.00e+00	0	33	102	1048576	52	5896
2026-01-06 23:50:00.86	345.19	21.94	-36.9	-37.8	24.6	0.00e+00	0	33	102	1048576	52	5831
2026-01-06 23:50:01.87	345.12	21.81	-37.0	-37.9	24.6	0.00e+00	0	33	102	1048576	52	5917
2026-01-06 23:50:02.88	345.06	21.67	-37.1	-38.0	24.5	0.00e+00	0	33	102	1048576	52	5944
2026-01-06 23:50:03.89	345.00	21.53	-37.1	-38.0	24.5	0.00e+00	0	33	102	1048576	52	5949
2026-01-06 23:50:04.90	344.94	21.40	-37.1	-38.0	24.5	0.00e+00	0	33	102	1048576	52	5986
2026-01-06 23:50:05.91	344.88	21.26	-37.0	-37.9	24.6	0.00e+00	0	33	102	1048576	52	5881
2026-01-06 23:50:06.91	344.82	21.13	-37.1	-38.1	24.4	0.00e+00	0	33	102	1048576	52	6000
2026-01-06 23:50:07.92	344.76	21.00	-37.1	-38.0	24.5	0.00e+00	0	33	102	1048576	52	5954
2026-01-06 23:50:08.94	344.70	20.86	-37.1	-38.0	24.5	0.00e+00	0	33	102	1048576	52	5988
2026-01-06 23:50:09.94	344.64	20.73	-37.1	-38.0	24.5	0.00e+00	0	33	102	1048576	52	5949
2026-01-06 23:50:10.95	344.58	20.60	-37.2	-38.1	24.4	0.00e+00	0	33	102	1048576	52	6033
2026-01-06 23:50:11.96	344.52	20.47	-37.1	-38.0	24.5	0.00e+00	0	33	102	1048576	52	5993
2026-01-06 23:50:12.97	344.46	20.34	-37.2	-38.1	24.4	0.00e+00	0	33	102	1048576	52	6028
2026-01-06 23:50:13.98	344.41	20.21	-37.1	-38.0	24.5	0.00e+00	0	33	102	1048576	52	5987
2026-01-06 23:50:14.99	344.35	20.08	-37.3	-38.2	24.3	0.00e+00	0	33	102	1048576	52	6091
2026-01-06 23:50:16.00	344.30	19.95	-37.3	-38.2	24.3	0.00e+00	0	33	102	1048576	52	6085
2026-01-06 23:50:17.01	344.24	19.83	-37.3	-38.2	24.3	0.00e+00	0	33	102	1048576	52	6132
2026-01-06 23:50:18.02	344.19	19.70	-37.2	-38.2	24.4	0.00e+00	0	33	102	1048576	52	6074
2026-01-06 23:50:19.03	344.13	19.57	-37.3	-38.2	24.4	0.00e+00	0	33	102	1048576	52	6089
2026-01-06 23:50:20.04	344.08	19.45	-37.4	-38.4	24.2	0.00e+00	0	33	102	1048576	52	6236
2026-01-06 23:50:21.05	344.02	19.32	-37.2	-38.1	24.4	0.00e+00	0	33	102	1048576	52	6052
2026-01-06 23:50:22.06	343.97	19.20	-37.3	-38.2	24.3	0.00e+00	0	33	102	1048576	52	6126
2026-01-06 23:50:23.07	343.92	19.07	-37.3	-38.2	24.3	0.00e+00	0	33	102	1048576	52	6127
2026-01-06 23:50:24.08	343.87	18.95	-37.3	-38.2	24.3	0.00e+00	0	33	102	1048576	52	6117
2026-01-06 23:50:25.09	343.81	18.83	-37.3	-38.2	24.3	0.00e+00	0	33	102	1048576	52	6131
2026-01-06 23:50:26.10	343.76	18.70	-37.4	-38.3	24.2	0.00e+00	0	33	102	1048576	52	6177
2026-01-06 23:50:27.11	343.71	18.58	-37.2	-38.2	24.4	0.00e+00	0	33	102	1048576	52	6072
2026-01-06 23:50:28.12	343.66	18.46	-37.3	-38.2	24.2	0.00e+00	0	32	102	1048576	52	6132
2026-01-06 23:50:29.14	343.61	18.34	-37.3	-38.2	24.2	0.00e+00	0	33	102	1048576	52	6130
2026-01-06 23:50:30.15	343.56	18.22	-37.3	-38.3	24.2	0.00e+00	0	33	102	1048576	52	6136
