passes_logs/2026/01/06/R4.6S_Anadyr_2ch/R4.6S_Anadyr_2ch__20260106_063628_FENGYUN_3E_rec.log

#Pass ID: 20260106_063628_FENGYUN 3E
#Satellite: FENGYUN 3E
#Configuration: FENGYUN 3E
#almurnet v.1.7.20251203
#Start time: 2026-01-06 06:36:30

#Version: 2.2.20231116
#Station: R4.6S_Anadyr_2ch
#Location: 177.4865 lon 64.73178 lat
#TLE: 1 49008U 21062A   25350.97288215  .00000176  00000+0  10353-3 0  9997
#TLE: 2 49008  98.7477 351.4440 0000638 234.3856 125.7261 14.19881381230726

#Time	Az	El	Level	Level2	SNR	BER	BlckErr	Temp	State	Recorded	gain1	gain2
2026-01-06 06:36:30.99	211.34	0.12	-51.1	-62.0	3.5	8.46e-01	0	30	0	0	60	62139
2026-01-06 06:36:32.00	211.41	0.17	-50.9	-62.4	3.6	8.45e-01	0	31	104	0	60	64986
2026-01-06 06:36:33.01	211.47	0.23	-50.9	-62.4	3.6	8.46e-01	0	31	104	0	60	65032
2026-01-06 06:36:34.03	211.54	0.28	-50.9	-62.4	3.6	8.45e-01	0	31	104	0	60	65007
2026-01-06 06:36:35.04	211.61	0.33	-50.9	-62.4	3.6	8.44e-01	0	31	104	0	60	64792
2026-01-06 06:36:36.05	211.68	0.38	-50.9	-62.4	3.6	8.45e-01	0	31	104	0	60	64876
2026-01-06 06:36:37.06	211.75	0.44	-50.4	-62.5	3.6	8.46e-01	0	31	104	0	60	65649
2026-01-06 06:36:38.07	211.82	0.49	-50.8	-62.6	3.5	8.45e-01	0	31	104	0	60	66818
2026-01-06 06:36:39.08	211.88	0.54	-50.9	-62.6	3.6	8.46e-01	0	31	104	0	60	66263
2026-01-06 06:36:40.09	211.95	0.59	-50.9	-62.6	3.6	8.45e-01	0	32	104	0	60	66481
2026-01-06 06:36:41.10	212.02	0.65	-50.6	-62.6	3.6	8.46e-01	0	32	104	0	60	66560
2026-01-06 06:36:42.11	212.09	0.70	-50.6	-62.6	3.6	8.45e-01	0	32	104	0	60	66462
2026-01-06 06:36:43.12	212.16	0.75	-50.9	-62.5	3.6	8.45e-01	0	32	104	0	60	66153
2026-01-06 06:36:44.13	212.23	0.81	-51.0	-62.6	3.6	8.45e-01	0	32	104	0	60	66661
2026-01-06 06:36:45.14	212.30	0.86	-50.9	-62.6	3.6	8.46e-01	0	32	104	0	60	66567
2026-01-06 06:36:46.15	212.37	0.91	-51.0	-62.5	3.6	8.46e-01	0	32	104	0	60	66107
2026-01-06 06:36:47.16	212.44	0.97	-51.0	-62.5	3.6	8.44e-01	0	32	104	0	60	65415
2026-01-06 06:36:48.17	212.51	1.02	-51.0	-62.5	3.6	8.45e-01	0	32	104	0	60	65408
2026-01-06 06:36:49.19	212.58	1.07	-50.9	-62.4	3.6	8.43e-01	0	32	104	0	60	65109
2026-01-06 06:36:50.20	212.66	1.13	-50.8	-62.3	3.6	8.46e-01	0	32	104	0	60	64313
2026-01-06 06:36:51.21	212.73	1.18	-50.4	-62.2	3.6	8.46e-01	0	32	104	0	60	63454
2026-01-06 06:36:52.22	212.80	1.23	-50.3	-61.8	3.6	8.45e-01	0	32	104	0	60	60573
2026-01-06 06:36:53.23	212.87	1.29	-49.8	-61.1	3.6	8.46e-01	0	32	104	0	60	55900
2026-01-06 06:36:54.24	212.94	1.34	-49.6	-61.1	3.6	8.45e-01	0	32	104	0	60	56151
2026-01-06 06:36:55.25	213.02	1.39	-49.6	-61.2	3.6	8.45e-01	0	32	104	0	60	56324
2026-01-06 06:36:56.26	213.09	1.45	-49.6	-61.1	3.6	8.45e-01	0	32	104	0	60	55960
2026-01-06 06:36:57.27	213.16	1.50	-49.6	-61.0	3.6	8.45e-01	0	32	104	0	60	55465
2026-01-06 06:36:58.28	213.23	1.56	-49.6	-61.0	3.6	8.45e-01	0	32	104	0	60	55475
2026-01-06 06:36:59.29	213.31	1.61	-49.6	-61.1	3.6	8.46e-01	0	32	104	0	60	55725
2026-01-06 06:37:00.30	213.38	1.66	-49.6	-61.0	3.6	8.47e-01	0	32	104	0	60	55448
2026-01-06 06:37:01.31	213.46	1.72	-49.6	-61.0	3.6	8.47e-01	0	32	104	0	60	55584
2026-01-06 06:37:02.32	213.53	1.77	-49.6	-61.0	3.6	8.44e-01	0	32	104	0	60	55557
2026-01-06 06:37:03.33	213.60	1.83	-49.6	-61.0	3.6	8.46e-01	0	32	104	0	60	55558
2026-01-06 06:37:04.34	213.68	1.88	-49.6	-61.1	3.5	8.45e-01	0	32	104	0	60	56078
2026-01-06 06:37:05.35	213.75	1.93	-49.6	-61.1	3.6	8.45e-01	0	32	104	0	60	55954
2026-01-06 06:37:06.36	213.83	1.99	-49.6	-61.1	3.6	8.46e-01	0	32	104	0	60	56242
2026-01-06 06:37:07.38	213.91	2.04	-49.6	-61.2	3.6	8.45e-01	0	32	104	0	60	56387
2026-01-06 06:37:08.39	213.98	2.10	-49.7	-61.1	3.6	8.46e-01	0	32	104	0	60	55965
2026-01-06 06:37:09.40	214.06	2.15	-49.7	-61.1	3.6	8.45e-01	0	32	104	0	60	56023
2026-01-06 06:37:10.41	214.13	2.21	-49.6	-61.1	3.6	8.45e-01	0	32	104	0	60	55723
2026-01-06 06:37:11.42	214.21	2.26	-49.6	-61.0	3.6	8.46e-01	0	32	104	0	60	55580
2026-01-06 06:37:12.43	214.29	2.32	-49.6	-60.9	3.6	8.46e-01	0	32	104	0	60	54597
2026-01-06 06:37:13.44	214.37	2.37	-49.6	-60.9	3.6	8.46e-01	0	32	104	0	60	54466
2026-01-06 06:37:14.45	214.44	2.43	-49.6	-60.8	3.6	8.45e-01	0	32	104	0	60	54141
2026-01-06 06:37:15.46	214.52	2.48	-49.6	-60.9	3.6	8.46e-01	0	32	104	0	60	54993
2026-01-06 06:37:16.48	214.60	2.54	-49.6	-61.0	3.6	8.46e-01	0	32	104	0	60	55405
2026-01-06 06:37:17.49	214.68	2.59	-49.6	-60.9	3.6	8.45e-01	0	32	104	0	60	54727
2026-01-06 06:37:18.50	214.76	2.65	-49.6	-60.9	3.6	8.47e-01	0	32	104	0	60	54841
2026-01-06 06:37:19.51	214.84	2.70	-49.6	-61.0	3.6	8.45e-01	0	32	104	0	60	55269
2026-01-06 06:37:20.52	214.91	2.76	-49.6	-61.1	3.6	8.46e-01	0	32	104	0	60	56124
2026-01-06 06:37:21.53	214.99	2.81	-49.6	-60.8	3.6	8.46e-01	0	32	104	0	60	53935
2026-01-06 06:37:22.54	215.07	2.87	-49.5	-59.8	3.6	8.45e-01	0	32	104	0	60	48275
2026-01-06 06:37:23.55	215.15	2.93	-49.4	-59.2	3.6	8.45e-01	0	32	104	0	60	44926
2026-01-06 06:37:24.56	215.23	2.98	-49.3	-58.3	3.8	8.42e-01	0	32	104	0	60	40354
2026-01-06 06:37:25.58	215.31	3.04	-49.5	-59.6	3.6	8.44e-01	0	32	104	0	60	46930
2026-01-06 06:37:26.59	215.40	3.09	-49.6	-60.5	3.6	8.44e-01	0	32	104	0	60	52141
2026-01-06 06:37:27.60	215.48	3.15	-49.1	-56.8	3.9	8.43e-01	0	32	104	0	60	34205
2026-01-06 06:37:28.61	215.56	3.20	-47.3	-50.8	8.7	9.79e-02	0	32	0	0	60	17127
2026-01-06 06:37:29.62	215.64	3.26	-45.4	-47.6	12.4	1.89e-03	0	33	102	1048576	60	11842
2026-01-06 06:37:30.63	215.72	3.32	-43.5	-45.1	14.8	2.20e-06	0	32	102	1048576	60	8827
2026-01-06 06:37:31.64	215.80	3.37	-42.0	-43.3	16.4	0.00e+00	0	32	102	1048576	60	7191
2026-01-06 06:37:32.65	215.89	3.43	-40.7	-41.8	17.5	0.00e+00	0	32	102	1048576	60	6079
2026-01-06 06:37:33.67	215.97	3.49	-40.7	-41.8	17.6	0.00e+00	0	32	102	1048576	60	6068
2026-01-06 06:37:34.68	216.05	3.54	-41.7	-42.9	16.1	0.00e+00	0	32	102	1048576	56	8692
2026-01-06 06:37:35.69	216.14	3.60	-48.7	-54.5	4.0	0.00e+00	0	32	102	1048576	60	26159
2026-01-06 06:37:36.70	216.22	3.65	-37.1	-38.0	19.3	6.77e-02	0	32	104	1048576	54	5519
2026-01-06 06:37:37.71	216.31	3.71	-44.1	-45.8	13.1	0.00e+00	0	32	0	1048576	60	9639
2026-01-06 06:37:38.72	216.39	3.77	-38.5	-39.4	18.9	0.00e+00	0	32	0	1048576	54	6516
2026-01-06 06:37:39.73	216.48	3.82	-38.8	-39.7	19.6	0.00e+00	0	32	0	1048576	56	6001
2026-01-06 06:37:40.74	216.56	3.88	-38.6	-39.5	19.5	0.00e+00	0	32	0	1048576	56	5872
2026-01-06 06:37:41.75	216.65	3.94	-38.3	-39.1	19.9	0.00e+00	0	32	101	1048576	56	5622
2026-01-06 06:37:42.77	216.73	4.00	-38.3	-39.2	19.8	0.00e+00	0	32	101	1048576	56	5639
2026-01-06 06:37:43.78	216.82	4.05	-38.4	-39.2	19.9	0.00e+00	0	33	101	1048576	54	6362
2026-01-06 06:37:44.79	216.90	4.11	-38.1	-38.9	20.0	0.00e+00	0	33	101	1048576	54	6147
2026-01-06 06:37:45.80	216.99	4.17	-38.0	-38.8	20.2	0.00e+00	0	33	101	1048576	54	6062
2026-01-06 06:37:46.81	217.08	4.22	-38.3	-39.1	19.9	0.00e+00	0	33	101	1048576	54	6302
2026-01-06 06:37:47.82	217.17	4.28	-38.5	-39.4	19.6	0.00e+00	0	32	101	1048576	54	6495
2026-01-06 06:37:48.83	217.25	4.34	-38.5	-39.4	19.9	0.00e+00	0	32	101	1048576	54	6475
2026-01-06 06:37:49.84	217.34	4.40	-37.8	-38.6	20.4	0.00e+00	0	33	101	1048576	54	5912
2026-01-06 06:37:50.85	217.43	4.45	-37.6	-38.4	20.5	0.00e+00	0	33	101	1048576	54	5766
2026-01-06 06:37:51.86	217.52	4.51	-37.7	-38.5	20.4	0.00e+00	0	33	101	1048576	54	5874
2026-01-06 06:37:52.87	217.61	4.57	-37.8	-38.6	20.4	0.00e+00	0	33	101	1048576	54	5907
2026-01-06 06:37:53.88	217.70	4.63	-37.9	-38.7	20.3	0.00e+00	0	33	101	1048576	54	5988
2026-01-06 06:37:54.89	217.79	4.68	-37.8	-38.6	20.6	0.00e+00	0	33	101	1048576	54	5910
2026-01-06 06:37:55.90	217.88	4.74	-37.8	-38.6	20.5	0.00e+00	0	33	101	1048576	54	5903
2026-01-06 06:37:56.92	217.97	4.80	-37.5	-38.3	20.8	0.00e+00	0	33	101	1048576	54	5698
2026-01-06 06:37:57.93	218.06	4.86	-37.5	-38.3	20.8	0.00e+00	0	33	101	1048576	54	5757
2026-01-06 06:37:58.94	218.15	4.91	-37.5	-38.3	20.9	0.00e+00	0	33	101	1048576	54	5722
2026-01-06 06:37:59.95	218.24	4.97	-37.1	-37.9	21.0	0.00e+00	0	33	101	1048576	54	5483
2026-01-06 06:38:00.96	218.33	5.03	-37.1	-37.9	21.0	0.00e+00	0	33	101	1048576	54	5491
2026-01-06 06:38:01.97	218.42	5.09	-37.3	-38.1	20.9	0.00e+00	0	33	101	1048576	54	5592
2026-01-06 06:38:02.98	218.52	5.15	-37.4	-38.2	20.8	0.00e+00	0	33	101	1048576	54	5692
2026-01-06 06:38:03.99	218.61	5.21	-37.6	-38.5	20.6	0.00e+00	0	33	101	1048576	54	5853
2026-01-06 06:38:05.00	218.70	5.26	-37.1	-37.9	21.0	0.00e+00	0	33	101	1048576	54	5482
2026-01-06 06:38:06.01	218.80	5.32	-37.3	-38.1	20.8	0.00e+00	0	33	101	1048576	54	5601
2026-01-06 06:38:07.03	218.89	5.38	-37.1	-37.9	21.1	0.00e+00	0	33	101	1048576	54	5466
2026-01-06 06:38:08.04	218.99	5.44	-37.0	-37.8	21.1	0.00e+00	0	33	101	1048576	52	6098
2026-01-06 06:38:09.05	219.08	5.50	-37.1	-37.9	21.1	0.00e+00	0	33	101	1048576	52	6127
2026-01-06 06:38:10.06	219.17	5.56	-36.9	-37.7	21.2	0.00e+00	0	33	101	1048576	52	5965
2026-01-06 06:38:11.07	219.27	5.62	-37.1	-37.9	21.1	0.00e+00	0	33	101	1048576	52	6172
2026-01-06 06:38:12.08	219.37	5.67	-36.9	-37.7	21.2	0.00e+00	0	33	101	1048576	52	5991
2026-01-06 06:38:13.09	219.46	5.73	-36.8	-37.6	21.3	0.00e+00	0	33	101	1048576	52	5919
2026-01-06 06:38:14.10	219.56	5.79	-36.7	-37.5	21.4	0.00e+00	0	33	101	1048576	52	5854
2026-01-06 06:38:15.11	219.65	5.85	-36.7	-37.4	21.4	0.00e+00	0	33	101	1048576	52	5824
2026-01-06 06:38:16.12	219.75	5.91	-36.6	-37.3	21.5	0.00e+00	0	33	101	1048576	52	5752
2026-01-06 06:38:17.13	219.85	5.97	-36.7	-37.5	21.5	0.00e+00	0	33	101	1048576	52	5839
2026-01-06 06:38:18.14	219.95	6.03	-36.5	-37.3	21.5	0.00e+00	0	33	101	1048576	52	5731
2026-01-06 06:38:19.16	220.05	6.09	-36.5	-37.3	21.6	0.00e+00	0	33	101	1048576	52	5721
2026-01-06 06:38:20.17	220.15	6.15	-36.6	-37.4	21.4	0.00e+00	0	33	101	1048576	52	5800
2026-01-06 06:38:21.18	220.24	6.21	-36.7	-37.5	21.5	0.00e+00	0	33	101	1048576	52	5840
2026-01-06 06:38:22.19	220.34	6.27	-36.6	-37.4	21.5	0.00e+00	0	33	101	1048576	52	5808
2026-01-06 06:38:23.20	220.44	6.33	-36.8	-37.5	21.3	0.00e+00	0	33	101	1048576	52	5889
2026-01-06 06:38:24.21	220.54	6.39	-36.6	-37.4	21.4	0.00e+00	0	33	101	1048576	52	5769
2026-01-06 06:38:25.22	220.64	6.45	-36.5	-37.3	21.5	0.00e+00	0	33	101	1048576	52	5733
2026-01-06 06:38:26.23	220.75	6.51	-36.6	-37.4	21.5	0.00e+00	0	33	101	1048576	52	5762
2026-01-06 06:38:27.24	220.85	6.57	-36.8	-37.5	21.4	0.00e+00	0	33	101	1048576	52	5896
2026-01-06 06:38:28.25	220.95	6.63	-36.5	-37.2	21.6	0.00e+00	0	33	101	1048576	52	5687
2026-01-06 06:38:29.26	221.05	6.68	-36.4	-37.2	21.5	0.00e+00	0	33	101	1048576	52	5663
2026-01-06 06:38:30.28	221.15	6.75	-36.5	-37.3	21.5	0.00e+00	0	33	101	1048576	52	5705
2026-01-06 06:38:31.29	221.26	6.81	-36.3	-37.1	21.6	0.00e+00	0	33	101	1048576	52	5575
2026-01-06 06:38:32.30	221.36	6.87	-36.2	-37.0	21.7	0.00e+00	0	33	101	1048576	52	5547
2026-01-06 06:38:33.31	221.46	6.93	-36.4	-37.2	21.6	0.00e+00	0	33	101	1048576	52	5655
2026-01-06 06:38:34.32	221.57	6.99	-36.4	-37.2	21.6	0.00e+00	0	33	101	1048576	52	5669
2026-01-06 06:38:35.33	221.67	7.05	-36.4	-37.2	21.5	0.00e+00	0	33	101	1048576	52	5665
2026-01-06 06:38:36.34	221.78	7.11	-36.6	-37.4	21.4	0.00e+00	0	33	101	1048576	52	5810
2026-01-06 06:38:37.35	221.88	7.17	-36.3	-37.1	21.6	0.00e+00	0	33	101	1048576	52	5589
2026-01-06 06:38:38.36	221.99	7.23	-36.4	-37.2	21.5	0.00e+00	0	33	101	1048576	52	5686
2026-01-06 06:38:39.38	222.10	7.29	-36.4	-37.3	21.4	0.00e+00	0	33	101	1048576	52	5697
2026-01-06 06:38:40.39	222.20	7.35	-36.5	-37.3	21.3	0.00e+00	0	33	101	1048576	52	5712
2026-01-06 06:38:41.40	222.31	7.41	-36.5	-37.3	21.2	0.00e+00	0	33	101	1048576	52	5722
2026-01-06 06:38:42.41	222.42	7.47	-36.5	-37.3	21.3	0.00e+00	0	33	101	1048576	52	5747
2026-01-06 06:38:43.42	222.53	7.53	-36.5	-37.4	21.3	0.00e+00	0	33	101	1048576	52	5762
2026-01-06 06:38:44.43	222.64	7.59	-36.6	-37.5	21.2	0.00e+00	0	33	101	1048576	52	5861
2026-01-06 06:38:45.44	222.75	7.65	-36.6	-37.5	21.2	0.00e+00	0	33	101	1048576	52	5850
2026-01-06 06:38:46.45	222.85	7.71	-36.5	-37.4	21.2	0.00e+00	0	33	101	1048576	52	5762
2026-01-06 06:38:47.46	222.96	7.78	-36.5	-37.3	21.2	0.00e+00	0	33	101	1048576	52	5744
2026-01-06 06:38:48.47	223.07	7.84	-36.5	-37.4	21.3	0.00e+00	0	33	101	1048576	52	5773
2026-01-06 06:38:49.49	223.19	7.90	-36.4	-37.2	21.4	0.00e+00	0	33	101	1048576	52	5653
2026-01-06 06:38:50.50	223.30	7.96	-36.3	-37.1	21.4	0.00e+00	0	33	101	1048576	52	5603
2026-01-06 06:38:51.51	223.41	8.02	-36.3	-37.1	21.5	0.00e+00	0	33	101	1048576	52	5603
2026-01-06 06:38:52.52	223.52	8.08	-36.3	-37.1	21.5	0.00e+00	0	33	101	1048576	52	5626
2026-01-06 06:38:53.53	223.63	8.14	-36.3	-37.1	21.5	0.00e+00	0	33	101	1048576	52	5581
2026-01-06 06:38:54.54	223.75	8.21	-36.3	-37.1	21.5	0.00e+00	0	33	101	1048576	52	5570
2026-01-06 06:38:55.55	223.86	8.27	-36.4	-37.2	21.3	0.00e+00	0	33	101	1048576	52	5664
2026-01-06 06:38:56.56	223.97	8.33	-36.4	-37.2	21.4	0.00e+00	0	33	101	1048576	52	5655
2026-01-06 06:38:57.57	224.09	8.39	-36.4	-37.2	21.4	0.00e+00	0	33	101	1048576	52	5686
2026-01-06 06:38:58.59	224.20	8.45	-36.5	-37.3	21.3	0.00e+00	0	33	101	1048576	52	5737
2026-01-06 06:38:59.60	224.32	8.51	-36.5	-37.3	21.3	0.00e+00	0	33	101	1048576	52	5712
2026-01-06 06:39:00.61	224.44	8.58	-36.6	-37.4	21.2	0.00e+00	0	33	101	1048576	52	5816
2026-01-06 06:39:01.62	224.55	8.64	-36.6	-37.4	21.3	0.00e+00	0	33	101	1048576	52	5813
2026-01-06 06:39:02.63	224.67	8.70	-36.8	-37.5	21.2	0.00e+00	0	33	101	1048576	52	5890
2026-01-06 06:39:03.64	224.79	8.76	-36.8	-37.6	21.2	0.00e+00	0	33	101	1048576	52	5905
2026-01-06 06:39:04.65	224.90	8.82	-36.8	-37.6	21.1	0.00e+00	0	33	101	1048576	52	5952
2026-01-06 06:39:05.66	225.02	8.89	-36.8	-37.6	21.2	0.00e+00	0	33	101	1048576	52	5953
2026-01-06 06:39:06.67	225.14	8.95	-36.7	-37.6	21.3	0.00e+00	0	33	101	1048576	52	5904
2026-01-06 06:39:07.68	225.26	9.01	-36.7	-37.6	21.3	0.00e+00	0	33	101	1048576	52	5950
2026-01-06 06:39:08.69	225.38	9.07	-36.8	-37.7	21.2	0.00e+00	0	33	101	1048576	52	6017
2026-01-06 06:39:09.71	225.50	9.13	-36.8	-37.7	21.3	0.00e+00	0	33	101	1048576	52	6001
2026-01-06 06:39:10.72	225.62	9.20	-36.8	-37.7	21.3	0.00e+00	0	33	101	1048576	52	5983
2026-01-06 06:39:11.73	225.74	9.26	-36.8	-37.6	21.3	0.00e+00	0	33	101	1048576	52	5935
2026-01-06 06:39:12.74	225.86	9.32	-36.9	-37.7	21.3	0.00e+00	0	33	101	1048576	52	6010
2026-01-06 06:39:13.75	225.99	9.38	-36.8	-37.7	21.4	0.00e+00	0	33	101	1048576	52	5968
2026-01-06 06:39:14.76	226.11	9.45	-36.8	-37.6	21.4	0.00e+00	0	33	101	1048576	52	5944
2026-01-06 06:39:15.77	226.23	9.51	-36.8	-37.6	21.5	0.00e+00	0	33	101	1048576	52	5938
2026-01-06 06:39:16.78	226.35	9.57	-36.8	-37.6	21.5	0.00e+00	0	33	101	1048576	52	5932
2026-01-06 06:39:17.79	226.48	9.63	-36.8	-37.6	21.7	0.00e+00	0	33	101	1048576	52	5920
2026-01-06 06:39:18.80	226.60	9.70	-36.7	-37.5	21.7	0.00e+00	0	33	101	1048576	52	5849
2026-01-06 06:39:19.81	226.73	9.76	-36.6	-37.4	21.7	0.00e+00	0	33	101	1048576	52	5771
2026-01-06 06:39:20.83	226.86	9.82	-36.6	-37.4	21.8	0.00e+00	0	33	101	1048576	52	5769
2026-01-06 06:39:21.84	226.98	9.89	-36.6	-37.4	21.6	0.00e+00	0	33	101	1048576	52	5803
2026-01-06 06:39:22.85	227.11	9.95	-36.7	-37.5	21.7	0.00e+00	0	33	101	1048576	52	5854
2026-01-06 06:39:23.86	227.24	10.01	-36.6	-37.3	21.8	0.00e+00	0	33	101	1048576	52	5754
2026-01-06 06:39:24.87	227.36	10.07	-36.7	-37.5	21.8	0.00e+00	0	33	101	1048576	52	5860
2026-01-06 06:39:25.88	227.49	10.14	-36.7	-37.4	21.7	0.00e+00	0	33	101	1048576	52	5808
2026-01-06 06:39:26.89	227.62	10.20	-36.5	-37.3	21.9	0.00e+00	0	33	101	1048576	52	5708
2026-01-06 06:39:27.90	227.75	10.26	-36.7	-37.5	21.6	0.00e+00	0	33	101	1048576	52	5830
2026-01-06 06:39:28.91	227.88	10.33	-36.6	-37.4	21.6	0.00e+00	0	33	101	1048576	52	5810
2026-01-06 06:39:29.92	228.01	10.39	-36.7	-37.5	21.5	0.00e+00	0	33	101	1048576	52	5881
2026-01-06 06:39:30.94	228.14	10.45	-36.7	-37.5	21.5	0.00e+00	0	33	101	1048576	52	5877
2026-01-06 06:39:31.95	228.27	10.52	-36.7	-37.6	21.5	0.00e+00	0	33	101	1048576	52	5918
2026-01-06 06:39:32.96	228.41	10.58	-36.8	-37.6	21.4	0.00e+00	0	33	101	1048576	52	5933
2026-01-06 06:39:33.97	228.54	10.64	-36.8	-37.7	21.4	0.00e+00	0	33	101	1048576	52	5968
2026-01-06 06:39:34.98	228.67	10.70	-36.7	-37.5	21.4	0.00e+00	0	33	101	1048576	52	5882
2026-01-06 06:39:35.99	228.81	10.77	-36.7	-37.5	21.4	0.00e+00	0	33	101	1048576	52	5844
2026-01-06 06:39:37.00	228.94	10.83	-36.8	-37.6	21.4	0.00e+00	0	33	101	1048576	52	5932
2026-01-06 06:39:38.01	229.07	10.89	-36.7	-37.5	21.4	0.00e+00	0	33	101	1048576	52	5872
2026-01-06 06:39:39.02	229.21	10.96	-36.8	-37.6	21.4	0.00e+00	0	33	101	1048576	52	5910
2026-01-06 06:39:40.03	229.35	11.02	-36.7	-37.5	21.3	0.00e+00	0	33	101	1048576	52	5859
2026-01-06 06:39:41.05	229.48	11.08	-36.7	-37.5	21.2	0.00e+00	0	33	101	1048576	52	5882
2026-01-06 06:39:42.06	229.62	11.15	-36.8	-37.6	21.2	0.00e+00	0	33	101	1048576	52	5960
2026-01-06 06:39:43.07	229.76	11.21	-36.8	-37.6	21.1	0.00e+00	0	33	101	1048576	52	5963
2026-01-06 06:39:44.08	229.90	11.27	-36.8	-37.7	20.9	0.00e+00	0	33	101	1048576	52	5988
2026-01-06 06:39:45.09	230.04	11.34	-36.7	-37.6	21.1	0.00e+00	0	33	101	1048576	52	5910
2026-01-06 06:39:46.10	230.18	11.40	-36.7	-37.6	21.2	0.00e+00	0	33	101	1048576	52	5912
2026-01-06 06:39:47.11	230.32	11.46	-36.9	-37.7	21.2	0.00e+00	0	33	101	1048576	52	5980
2026-01-06 06:39:48.12	230.46	11.53	-36.8	-37.6	21.2	0.00e+00	0	33	101	1048576	52	5919
2026-01-06 06:39:49.13	230.60	11.59	-36.6	-37.4	21.4	0.00e+00	0	33	101	1048576	52	5780
2026-01-06 06:39:50.14	230.74	11.66	-36.5	-37.3	21.4	0.00e+00	0	33	101	1048576	52	5724
2026-01-06 06:39:51.15	230.88	11.72	-36.5	-37.3	21.4	0.00e+00	0	33	101	1048576	52	5757
2026-01-06 06:39:52.17	231.03	11.78	-36.6	-37.4	21.4	0.00e+00	0	33	101	1048576	52	5811
2026-01-06 06:39:53.18	231.17	11.85	-36.4	-37.1	21.6	0.00e+00	0	33	101	1048576	52	5629
2026-01-06 06:39:54.19	231.31	11.91	-36.5	-37.3	21.5	0.00e+00	0	33	101	1048576	52	5731
2026-01-06 06:39:55.20	231.46	11.97	-36.5	-37.3	21.5	0.00e+00	0	33	101	1048576	52	5698
2026-01-06 06:39:56.21	231.60	12.04	-36.5	-37.3	21.5	0.00e+00	0	33	101	1048576	52	5699
2026-01-06 06:39:57.22	231.75	12.10	-36.5	-37.3	21.5	0.00e+00	0	33	101	1048576	52	5711
2026-01-06 06:39:58.23	231.90	12.16	-36.5	-37.2	21.5	0.00e+00	0	33	101	1048576	52	5691
2026-01-06 06:39:59.24	232.04	12.23	-36.5	-37.3	21.4	0.00e+00	0	33	101	1048576	52	5721
2026-01-06 06:40:00.25	232.19	12.29	-36.5	-37.3	21.4	0.00e+00	0	33	101	1048576	52	5720
2026-01-06 06:40:01.26	232.34	12.35	-36.5	-37.3	21.4	0.00e+00	0	33	101	1048576	52	5733
2026-01-06 06:40:02.27	232.49	12.42	-36.2	-37.0	21.7	0.00e+00	0	33	101	1048576	52	5509
2026-01-06 06:40:03.28	232.64	12.48	-36.3	-37.0	21.6	0.00e+00	0	33	101	1048576	52	5563
2026-01-06 06:40:04.29	232.79	12.54	-36.3	-37.0	21.8	0.00e+00	0	33	101	1048576	52	5540
2026-01-06 06:40:05.30	232.94	12.61	-35.9	-36.7	22.1	0.00e+00	0	33	101	1048576	50	5993
2026-01-06 06:40:06.32	233.09	12.67	-35.9	-36.7	22.1	0.00e+00	0	33	101	1048576	50	5976
2026-01-06 06:40:07.33	233.25	12.74	-36.0	-36.7	22.1	0.00e+00	0	33	101	1048576	50	6033
2026-01-06 06:40:08.34	233.40	12.80	-36.0	-36.8	22.0	0.00e+00	0	33	101	1048576	50	6047
2026-01-06 06:40:09.35	233.55	12.86	-36.1	-36.9	22.0	0.00e+00	0	33	101	1048576	50	6133
2026-01-06 06:40:10.36	233.71	12.93	-35.9	-36.6	22.0	0.00e+00	0	33	101	1048576	50	5937
2026-01-06 06:40:11.37	233.86	12.99	-36.1	-36.8	22.0	0.00e+00	0	33	101	1048576	50	6101
2026-01-06 06:40:12.38	234.02	13.05	-36.0	-36.8	22.0	0.00e+00	0	33	101	1048576	50	6046
2026-01-06 06:40:13.39	234.17	13.12	-36.1	-36.8	21.9	0.00e+00	0	33	101	1048576	50	6079
2026-01-06 06:40:14.40	234.33	13.18	-36.0	-36.7	22.1	0.00e+00	0	33	101	1048576	50	6012
2026-01-06 06:40:15.42	234.49	13.24	-35.9	-36.6	22.1	0.00e+00	0	33	101	1048576	50	5929
2026-01-06 06:40:16.43	234.65	13.31	-35.8	-36.5	22.2	0.00e+00	0	33	101	1048576	50	5865
2026-01-06 06:40:17.44	234.80	13.37	-35.9	-36.6	22.1	0.00e+00	0	33	101	1048576	50	5917
2026-01-06 06:40:18.45	234.96	13.43	-35.8	-36.5	22.2	0.00e+00	0	33	101	1048576	50	5858
2026-01-06 06:40:19.46	235.12	13.49	-35.6	-36.3	22.3	0.00e+00	0	33	101	1048576	50	5740
2026-01-06 06:40:20.47	235.28	13.56	-35.6	-36.3	22.4	0.00e+00	0	33	101	1048576	50	5726
2026-01-06 06:40:21.48	235.44	13.62	-35.4	-36.1	22.5	0.00e+00	0	33	101	1048576	50	5570
2026-01-06 06:40:22.49	235.61	13.68	-35.4	-36.1	22.6	0.00e+00	0	33	101	1048576	50	5578
2026-01-06 06:40:23.50	235.77	13.75	-35.3	-36.0	22.6	0.00e+00	0	33	101	1048576	50	5540
2026-01-06 06:40:24.51	235.93	13.81	-35.4	-36.1	22.5	0.00e+00	0	33	101	1048576	50	5616
2026-01-06 06:40:25.52	236.10	13.87	-35.1	-35.9	22.6	0.00e+00	0	33	101	1048576	50	5444
2026-01-06 06:40:26.53	236.26	13.93	-35.0	-35.7	22.8	0.00e+00	0	33	101	1048576	48	6010
2026-01-06 06:40:27.54	236.43	14.00	-35.0	-35.7	22.7	0.00e+00	0	33	101	1048576	48	5998
2026-01-06 06:40:28.56	236.59	14.06	-35.0	-35.7	22.7	0.00e+00	0	33	101	1048576	48	6020
2026-01-06 06:40:29.56	236.76	14.12	-34.9	-35.6	22.7	0.00e+00	0	33	101	1048576	48	5913
2026-01-06 06:40:30.58	236.93	14.19	-34.7	-35.4	22.8	0.00e+00	0	33	101	1048576	48	5787
2026-01-06 06:40:31.59	237.10	14.25	-34.8	-35.5	22.7	0.00e+00	0	33	101	1048576	48	5855
2026-01-06 06:40:32.60	237.26	14.31	-34.6	-35.3	22.8	0.00e+00	0	33	101	1048576	48	5740
2026-01-06 06:40:33.61	237.43	14.37	-34.7	-35.4	22.8	0.00e+00	0	33	101	1048576	48	5770
2026-01-06 06:40:34.62	237.60	14.44	-34.5	-35.2	22.8	0.00e+00	0	33	101	1048576	48	5684
2026-01-06 06:40:35.63	237.77	14.50	-34.5	-35.3	22.7	0.00e+00	0	33	101	1048576	48	5699
2026-01-06 06:40:36.64	237.95	14.56	-34.5	-35.2	22.7	0.00e+00	0	33	101	1048576	48	5657
2026-01-06 06:40:37.65	238.12	14.62	-34.5	-35.2	22.6	0.00e+00	0	33	101	1048576	48	5680
2026-01-06 06:40:38.66	238.29	14.68	-34.5	-35.2	22.6	0.00e+00	0	33	101	1048576	48	5652
2026-01-06 06:40:39.67	238.46	14.75	-34.4	-35.1	22.7	0.00e+00	0	33	101	1048576	48	5610
2026-01-06 06:40:40.69	238.64	14.81	-34.3	-35.0	22.8	0.00e+00	0	33	101	1048576	48	5534
2026-01-06 06:40:41.69	238.81	14.87	-34.4	-35.1	22.8	0.00e+00	0	33	101	1048576	48	5629
2026-01-06 06:40:42.70	238.99	14.93	-34.4	-35.1	22.8	0.00e+00	0	33	101	1048576	48	5604
2026-01-06 06:40:43.72	239.17	14.99	-34.3	-35.0	22.9	0.00e+00	0	33	101	1048576	48	5519
2026-01-06 06:40:44.73	239.34	15.05	-34.1	-34.8	23.0	0.00e+00	0	33	101	1048576	48	5396
2026-01-06 06:40:45.74	239.52	15.11	-34.1	-34.8	23.0	0.00e+00	0	33	101	1048576	46	6061
2026-01-06 06:40:46.75	239.70	15.18	-33.9	-34.6	23.1	0.00e+00	0	33	101	1048576	46	5931
2026-01-06 06:40:47.76	239.88	15.24	-34.0	-34.7	23.1	0.00e+00	0	33	101	1048576	46	6017
2026-01-06 06:40:48.77	240.06	15.30	-34.0	-34.7	23.1	0.00e+00	0	33	101	1048576	46	5997
2026-01-06 06:40:49.78	240.24	15.36	-33.8	-34.5	23.2	0.00e+00	0	33	101	1048576	46	5836
2026-01-06 06:40:50.79	240.42	15.42	-33.8	-34.5	23.3	0.00e+00	0	33	101	1048576	46	5833
2026-01-06 06:40:51.80	240.60	15.48	-33.8	-34.5	23.3	0.00e+00	0	33	101	1048576	46	5852
2026-01-06 06:40:52.82	240.79	15.54	-33.6	-34.3	23.4	0.00e+00	0	33	101	1048576	46	5717
2026-01-06 06:40:53.83	240.97	15.60	-33.5	-34.2	23.5	0.00e+00	0	33	101	1048576	46	5632
2026-01-06 06:40:54.84	241.16	15.66	-33.4	-34.1	23.5	0.00e+00	0	33	101	1048576	46	5587
2026-01-06 06:40:55.85	241.34	15.72	-33.4	-34.1	23.6	0.00e+00	0	33	101	1048576	46	5599
2026-01-06 06:40:56.86	241.53	15.78	-33.5	-34.1	23.6	0.00e+00	0	33	101	1048576	46	5625
2026-01-06 06:40:57.87	241.71	15.84	-33.5	-34.1	23.6	0.00e+00	0	33	101	1048576	46	5600
2026-01-06 06:40:58.88	241.90	15.90	-33.4	-34.0	23.7	0.00e+00	0	33	101	1048576	46	5545
2026-01-06 06:40:59.89	242.09	15.96	-33.4	-34.0	23.7	0.00e+00	0	33	101	1048576	46	5537
2026-01-06 06:41:00.90	242.28	16.02	-33.4	-34.1	23.8	0.00e+00	0	33	101	1048576	46	5572
2026-01-06 06:41:01.92	242.47	16.08	-33.3	-33.9	23.7	0.00e+00	0	33	101	1048576	46	5492
2026-01-06 06:41:02.93	242.66	16.14	-33.3	-34.0	23.8	0.00e+00	0	33	101	1048576	46	5504
2026-01-06 06:41:03.94	242.85	16.20	-33.5	-34.1	23.7	0.00e+00	0	33	101	1048576	46	5606
2026-01-06 06:41:04.95	243.04	16.26	-33.4	-34.0	23.6	0.00e+00	0	33	101	1048576	46	5535
2026-01-06 06:41:05.96	243.23	16.32	-33.3	-34.0	23.6	0.00e+00	0	33	101	1048576	46	5516
2026-01-06 06:41:06.97	243.42	16.37	-33.4	-34.0	23.6	0.00e+00	0	33	101	1048576	46	5556
2026-01-06 06:41:07.98	243.62	16.43	-33.3	-33.9	23.7	0.00e+00	0	33	101	1048576	46	5486
2026-01-06 06:41:08.99	243.81	16.49	-33.3	-34.0	23.7	0.00e+00	0	33	101	1048576	46	5504
2026-01-06 06:41:10.00	244.01	16.55	-33.3	-33.9	23.8	0.00e+00	0	33	101	1048576	46	5492
2026-01-06 06:41:11.01	244.20	16.61	-33.2	-33.9	23.7	0.00e+00	0	33	101	1048576	46	5477
2026-01-06 06:41:12.02	244.40	16.66	-33.3	-34.0	23.6	0.00e+00	0	33	101	1048576	46	5543
2026-01-06 06:41:13.04	244.60	16.72	-33.5	-34.2	23.4	0.00e+00	0	33	101	1048576	46	5638
2026-01-06 06:41:14.05	244.80	16.78	-33.2	-33.9	23.5	0.00e+00	0	33	101	1048576	46	5476
2026-01-06 06:41:15.06	245.00	16.84	-33.4	-34.1	23.3	0.00e+00	0	33	101	1048576	46	5568
2026-01-06 06:41:16.07	245.20	16.89	-33.4	-34.1	23.4	0.00e+00	0	33	101	1048576	46	5606
2026-01-06 06:41:17.08	245.40	16.95	-33.2	-33.9	23.4	0.00e+00	0	33	101	1048576	46	5479
2026-01-06 06:41:18.09	245.60	17.01	-33.2	-33.9	23.6	0.00e+00	0	33	101	1048576	46	5448
2026-01-06 06:41:19.10	245.80	17.06	-33.1	-33.8	23.5	0.00e+00	0	33	101	1048576	46	5416
2026-01-06 06:41:20.11	246.00	17.12	-33.3	-34.0	23.5	0.00e+00	0	33	101	1048576	46	5510
2026-01-06 06:41:21.12	246.20	17.17	-33.2	-33.9	23.5	0.00e+00	0	33	101	1048576	46	5451
2026-01-06 06:41:22.13	246.41	17.23	-33.2	-33.9	23.5	0.00e+00	0	33	101	1048576	46	5488
2026-01-06 06:41:23.15	246.61	17.29	-33.1	-33.8	23.6	0.00e+00	0	33	101	1048576	46	5404
2026-01-06 06:41:24.16	246.82	17.34	-33.3	-33.9	23.6	0.00e+00	0	33	101	1048576	46	5479
2026-01-06 06:41:25.17	247.03	17.40	-33.2	-33.9	23.5	0.00e+00	0	33	101	1048576	46	5473
2026-01-06 06:41:26.18	247.23	17.45	-33.0	-33.7	23.7	0.00e+00	0	33	101	1048576	44	5989
2026-01-06 06:41:27.19	247.44	17.50	-32.9	-33.5	23.8	0.00e+00	0	33	101	1048576	44	5883
2026-01-06 06:41:28.20	247.65	17.56	-32.9	-33.5	23.8	0.00e+00	0	33	101	1048576	44	5865
2026-01-06 06:41:29.21	247.86	17.61	-32.9	-33.5	23.9	0.00e+00	0	33	101	1048576	44	5866
2026-01-06 06:41:30.22	248.07	17.67	-32.8	-33.5	23.9	0.00e+00	0	33	101	1048576	44	5834
2026-01-06 06:41:31.23	248.28	17.72	-33.0	-33.6	23.9	0.00e+00	0	33	101	1048576	44	5938
2026-01-06 06:41:32.24	248.49	17.77	-33.2	-33.8	23.7	0.00e+00	0	33	101	1048576	44	6095
2026-01-06 06:41:33.25	248.70	17.83	-33.1	-33.8	23.7	0.00e+00	0	33	101	1048576	44	6073
2026-01-06 06:41:34.27	248.91	17.88	-33.2	-33.9	23.6	0.00e+00	0	33	101	1048576	44	6104
2026-01-06 06:41:35.28	249.13	17.93	-33.1	-33.8	23.7	0.00e+00	0	33	101	1048576	44	6045
2026-01-06 06:41:36.29	249.34	17.98	-33.2	-33.9	23.5	0.00e+00	0	33	101	1048576	44	6123
2026-01-06 06:41:37.30	249.56	18.04	-33.0	-33.7	23.7	0.00e+00	0	33	101	1048576	44	5968
2026-01-06 06:41:38.31	249.77	18.09	-33.0	-33.7	23.8	0.00e+00	0	33	101	1048576	44	5971
2026-01-06 06:41:39.32	249.99	18.14	-33.0	-33.6	23.8	0.00e+00	0	33	101	1048576	44	5956
2026-01-06 06:41:40.33	250.20	18.19	-32.8	-33.4	24.0	0.00e+00	0	33	101	1048576	44	5827
2026-01-06 06:41:41.34	250.42	18.24	-33.0	-33.6	23.9	0.00e+00	0	33	101	1048576	44	5929
2026-01-06 06:41:42.35	250.64	18.29	-33.0	-33.6	23.8	0.00e+00	0	33	101	1048576	44	5948
2026-01-06 06:41:43.36	250.86	18.34	-33.0	-33.7	23.6	0.00e+00	0	33	101	1048576	44	5983
2026-01-06 06:41:44.37	251.08	18.39	-33.1	-33.8	23.5	0.00e+00	0	33	101	1048576	44	6047
2026-01-06 06:41:45.38	251.30	18.44	-33.2	-33.8	23.5	0.00e+00	0	33	101	1048576	44	6096
2026-01-06 06:41:46.39	251.52	18.49	-33.2	-33.8	23.4	0.00e+00	0	33	101	1048576	44	6098
2026-01-06 06:41:47.40	251.74	18.54	-33.0	-33.7	23.4	0.00e+00	0	33	101	1048576	44	6011
2026-01-06 06:41:48.41	251.96	18.59	-32.9	-33.6	23.6	0.00e+00	0	33	101	1048576	44	5922
2026-01-06 06:41:49.42	252.19	18.63	-32.8	-33.5	23.6	0.00e+00	0	33	101	1048576	44	5861
2026-01-06 06:41:50.44	252.41	18.68	-32.9	-33.6	23.6	0.00e+00	0	33	101	1048576	44	5909
2026-01-06 06:41:51.45	252.64	18.73	-32.8	-33.5	23.6	0.00e+00	0	33	101	1048576	44	5829
2026-01-06 06:41:52.46	252.86	18.78	-32.8	-33.4	23.6	0.00e+00	0	33	101	1048576	44	5807
2026-01-06 06:41:53.47	253.09	18.82	-32.9	-33.5	23.6	0.00e+00	0	33	101	1048576	44	5890
2026-01-06 06:41:54.48	253.32	18.87	-32.8	-33.5	23.7	0.00e+00	0	33	101	1048576	44	5853
2026-01-06 06:41:55.49	253.54	18.92	-32.6	-33.3	23.8	0.00e+00	0	33	101	1048576	44	5725
2026-01-06 06:41:56.50	253.77	18.96	-32.7	-33.4	23.9	0.00e+00	0	33	101	1048576	44	5775
2026-01-06 06:41:57.51	254.00	19.01	-32.6	-33.2	23.9	0.00e+00	0	33	101	1048576	44	5676
2026-01-06 06:41:58.52	254.23	19.05	-32.6	-33.2	23.9	0.00e+00	0	33	101	1048576	44	5679
2026-01-06 06:41:59.54	254.46	19.10	-32.5	-33.2	24.0	0.00e+00	0	33	101	1048576	44	5643
2026-01-06 06:42:00.54	254.69	19.14	-32.6	-33.3	23.9	0.00e+00	0	33	101	1048576	44	5722
2026-01-06 06:42:01.56	254.92	19.19	-32.7	-33.4	23.9	0.00e+00	0	33	101	1048576	44	5778
2026-01-06 06:42:02.57	255.15	19.23	-32.8	-33.4	23.8	0.00e+00	0	33	101	1048576	44	5798
2026-01-06 06:42:03.58	255.39	19.27	-32.8	-33.5	23.8	0.00e+00	0	33	101	1048576	44	5857
2026-01-06 06:42:04.59	255.62	19.32	-32.8	-33.5	23.7	0.00e+00	0	33	101	1048576	44	5857
2026-01-06 06:42:05.60	255.85	19.36	-32.9	-33.6	23.7	0.00e+00	0	33	101	1048576	44	5918
2026-01-06 06:42:06.61	256.09	19.40	-32.8	-33.5	23.7	0.00e+00	0	33	101	1048576	44	5871
2026-01-06 06:42:07.62	256.32	19.44	-32.8	-33.5	23.7	0.00e+00	0	33	101	1048576	44	5841
2026-01-06 06:42:08.63	256.56	19.48	-32.9	-33.5	23.7	0.00e+00	0	33	101	1048576	44	5877
2026-01-06 06:42:09.65	256.80	19.53	-32.7	-33.3	23.8	0.00e+00	0	33	101	1048576	44	5745
2026-01-06 06:42:10.66	257.03	19.57	-32.8	-33.5	23.7	0.00e+00	0	33	101	1048576	44	5836
2026-01-06 06:42:11.67	257.27	19.61	-32.7	-33.4	23.7	0.00e+00	0	33	101	1048576	44	5808
2026-01-06 06:42:12.67	257.51	19.64	-32.8	-33.5	23.7	0.00e+00	0	33	101	1048576	44	5869
2026-01-06 06:42:13.68	257.74	19.68	-32.8	-33.5	23.6	0.00e+00	0	33	101	1048576	44	5836
2026-01-06 06:42:14.70	257.99	19.72	-32.8	-33.5	23.5	0.00e+00	0	33	101	1048576	44	5834
2026-01-06 06:42:15.71	258.22	19.76	-32.9	-33.6	23.4	0.00e+00	0	33	101	1048576	44	5900
2026-01-06 06:42:16.72	258.47	19.80	-32.8	-33.5	23.3	0.00e+00	0	33	101	1048576	44	5850
2026-01-06 06:42:17.73	258.71	19.84	-32.8	-33.5	23.4	0.00e+00	0	33	101	1048576	44	5847
2026-01-06 06:42:18.74	258.95	19.87	-32.7	-33.4	23.5	0.00e+00	0	33	101	1048576	44	5806
2026-01-06 06:42:19.75	259.19	19.91	-32.4	-33.1	23.5	0.00e+00	0	33	101	1048576	44	5609
2026-01-06 06:42:20.76	259.43	19.95	-32.5	-33.1	23.5	0.00e+00	0	33	101	1048576	44	5628
2026-01-06 06:42:21.77	259.68	19.98	-32.6	-33.3	23.5	0.00e+00	0	33	101	1048576	44	5700
2026-01-06 06:42:22.79	259.92	20.02	-32.6	-33.3	23.5	0.00e+00	0	33	101	1048576	44	5722
2026-01-06 06:42:23.80	260.17	20.05	-32.7	-33.4	23.5	0.00e+00	0	33	101	1048576	44	5817
2026-01-06 06:42:24.81	260.41	20.09	-32.7	-33.4	23.5	0.00e+00	0	33	101	1048576	44	5772
2026-01-06 06:42:25.82	260.66	20.12	-32.7	-33.4	23.5	0.00e+00	0	33	101	1048576	44	5779
2026-01-06 06:42:26.83	260.90	20.15	-32.7	-33.4	23.5	0.00e+00	0	33	101	1048576	44	5791
2026-01-06 06:42:27.84	261.15	20.19	-32.8	-33.4	23.5	0.00e+00	0	33	101	1048576	44	5814
2026-01-06 06:42:28.85	261.39	20.22	-32.7	-33.4	23.5	0.00e+00	0	33	101	1048576	44	5776
2026-01-06 06:42:29.86	261.64	20.25	-32.7	-33.3	23.6	0.00e+00	0	33	101	1048576	44	5754
2026-01-06 06:42:30.87	261.89	20.28	-32.5	-33.1	23.8	0.00e+00	0	33	101	1048576	44	5608
2026-01-06 06:42:31.88	262.14	20.31	-32.4	-33.1	23.9	0.00e+00	0	33	101	1048576	44	5573
2026-01-06 06:42:32.90	262.39	20.34	-32.5	-33.1	23.9	0.00e+00	0	33	101	1048576	44	5615
2026-01-06 06:42:33.91	262.64	20.37	-32.5	-33.1	24.0	0.00e+00	0	33	101	1048576	44	5605
2026-01-06 06:42:34.92	262.89	20.40	-32.4	-33.0	24.0	0.00e+00	0	33	101	1048576	44	5542
2026-01-06 06:42:35.93	263.14	20.43	-32.5	-33.2	23.9	0.00e+00	0	33	101	1048576	44	5634
2026-01-06 06:42:36.94	263.39	20.46	-32.5	-33.2	23.8	0.00e+00	0	33	101	1048576	44	5644
2026-01-06 06:42:37.95	263.64	20.49	-32.6	-33.2	23.8	0.00e+00	0	33	101	1048576	44	5685
2026-01-06 06:42:38.96	263.89	20.51	-32.6	-33.3	23.8	0.00e+00	0	33	101	1048576	44	5707
2026-01-06 06:42:39.97	264.14	20.54	-32.6	-33.3	23.7	0.00e+00	0	33	101	1048576	44	5721
2026-01-06 06:42:40.98	264.40	20.57	-32.4	-33.1	23.9	0.00e+00	0	33	101	1048576	44	5595
2026-01-06 06:42:41.99	264.65	20.59	-32.4	-33.1	23.9	0.00e+00	0	33	101	1048576	44	5591
2026-01-06 06:42:43.00	264.90	20.62	-32.4	-33.0	23.9	0.00e+00	0	33	101	1048576	44	5546
2026-01-06 06:42:44.01	265.15	20.64	-32.3	-33.0	24.0	0.00e+00	0	33	101	1048576	44	5510
2026-01-06 06:42:45.02	265.41	20.67	-32.5	-33.1	23.9	0.00e+00	0	33	101	1048576	44	5615
2026-01-06 06:42:46.04	265.67	20.69	-32.4	-33.1	23.9	0.00e+00	0	33	101	1048576	44	5590
2026-01-06 06:42:47.05	265.92	20.71	-32.4	-33.1	23.7	0.00e+00	0	33	101	1048576	44	5588
2026-01-06 06:42:48.06	266.17	20.74	-32.6	-33.3	23.6	0.00e+00	0	33	101	1048576	44	5714
2026-01-06 06:42:49.07	266.43	20.76	-32.5	-33.2	23.5	0.00e+00	0	33	101	1048576	44	5658
2026-01-06 06:42:50.08	266.69	20.78	-32.5	-33.2	23.4	0.00e+00	0	33	101	1048576	44	5649
2026-01-06 06:42:51.09	266.94	20.80	-32.5	-33.1	23.4	0.00e+00	0	33	101	1048576	44	5621
2026-01-06 06:42:52.10	267.20	20.82	-32.5	-33.2	23.3	0.00e+00	0	33	101	1048576	44	5688
2026-01-06 06:42:53.11	267.46	20.84	-32.5	-33.2	23.3	0.00e+00	0	33	101	1048576	44	5673
2026-01-06 06:42:54.13	267.71	20.86	-32.3	-33.0	23.5	0.00e+00	0	33	101	1048576	44	5513
2026-01-06 06:42:55.14	267.97	20.88	-32.4	-33.1	23.6	0.00e+00	0	33	101	1048576	44	5588
2026-01-06 06:42:56.15	268.23	20.90	-32.2	-32.9	23.8	0.00e+00	0	33	101	1048576	44	5471
2026-01-06 06:42:57.16	268.49	20.91	-32.3	-33.0	23.8	0.00e+00	0	33	101	1048576	44	5509
2026-01-06 06:42:58.17	268.75	20.93	-32.1	-32.8	23.8	0.00e+00	0	33	101	1048576	44	5417
2026-01-06 06:42:59.18	269.00	20.95	-32.2	-32.9	23.8	0.00e+00	0	33	101	1048576	44	5475
2026-01-06 06:43:00.19	269.26	20.96	-32.3	-32.9	23.8	0.00e+00	0	33	101	1048576	44	5501
2026-01-06 06:43:01.20	269.52	20.98	-32.3	-32.9	23.8	0.00e+00	0	33	101	1048576	44	5499
2026-01-06 06:43:02.21	269.78	20.99	-32.4	-33.0	23.8	0.00e+00	0	33	101	1048576	44	5553
2026-01-06 06:43:03.22	270.04	21.01	-32.3	-33.0	23.8	0.00e+00	0	33	101	1048576	44	5528
2026-01-06 06:43:04.24	270.30	21.02	-32.5	-33.1	23.8	0.00e+00	0	33	101	1048576	44	5619
2026-01-06 06:43:05.25	270.56	21.03	-32.4	-33.1	23.8	0.00e+00	0	33	101	1048576	44	5590
2026-01-06 06:43:06.26	270.82	21.05	-32.5	-33.2	23.7	0.00e+00	0	33	101	1048576	44	5667
2026-01-06 06:43:07.27	271.08	21.06	-32.4	-33.1	23.7	0.00e+00	0	33	101	1048576	44	5611
2026-01-06 06:43:08.28	271.34	21.07	-32.5	-33.2	23.7	0.00e+00	0	33	101	1048576	44	5648
2026-01-06 06:43:09.29	271.60	21.08	-32.5	-33.2	23.7	0.00e+00	0	33	101	1048576	44	5672
2026-01-06 06:43:10.30	271.86	21.09	-32.6	-33.3	23.6	0.00e+00	0	33	101	1048576	44	5710
2026-01-06 06:43:11.31	272.13	21.10	-32.6	-33.2	23.6	0.00e+00	0	33	101	1048576	44	5693
2026-01-06 06:43:12.32	272.39	21.11	-32.7	-33.4	23.5	0.00e+00	0	33	101	1048576	44	5780
2026-01-06 06:43:13.33	272.65	21.12	-32.7	-33.4	23.6	0.00e+00	0	33	101	1048576	44	5812
2026-01-06 06:43:14.35	272.91	21.12	-32.5	-33.2	23.5	0.00e+00	0	33	101	1048576	44	5660
2026-01-06 06:43:15.36	273.17	21.13	-32.6	-33.3	23.5	0.00e+00	0	33	101	1048576	44	5715
2026-01-06 06:43:16.37	273.44	21.14	-32.4	-33.0	23.6	0.00e+00	0	33	101	1048576	44	5565
2026-01-06 06:43:17.38	273.70	21.14	-32.5	-33.2	23.5	0.00e+00	0	33	101	1048576	44	5684
2026-01-06 06:43:18.39	273.96	21.15	-32.6	-33.3	23.3	0.00e+00	0	33	101	1048576	44	5759
2026-01-06 06:43:19.40	274.22	21.15	-32.4	-33.1	23.3	0.00e+00	0	33	101	1048576	44	5621
2026-01-06 06:43:20.41	274.48	21.16	-32.6	-33.3	23.2	0.00e+00	0	33	101	1048576	44	5747
2026-01-06 06:43:21.42	274.74	21.16	-32.5	-33.2	23.3	0.00e+00	0	33	101	1048576	44	5681
2026-01-06 06:43:22.43	275.01	21.16	-32.3	-33.0	23.5	0.00e+00	0	33	101	1048576	44	5562
2026-01-06 06:43:23.44	275.27	21.17	-32.2	-32.9	23.6	0.00e+00	0	33	101	1048576	44	5486
2026-01-06 06:43:24.45	275.53	21.17	-32.2	-32.9	23.6	0.00e+00	0	33	101	1048576	44	5460
2026-01-06 06:43:25.46	275.79	21.17	-32.3	-33.0	23.6	0.00e+00	0	33	101	1048576	44	5511
2026-01-06 06:43:26.47	276.05	21.17	-32.3	-33.0	23.7	0.00e+00	0	33	101	1048576	44	5535
2026-01-06 06:43:27.49	276.32	21.17	-32.4	-33.0	23.6	0.00e+00	0	33	101	1048576	44	5554
2026-01-06 06:43:28.50	276.58	21.17	-32.2	-32.9	23.7	0.00e+00	0	33	101	1048576	44	5471
2026-01-06 06:43:29.51	276.84	21.17	-32.3	-33.0	23.7	0.00e+00	0	33	101	1048576	44	5517
2026-01-06 06:43:30.52	277.11	21.17	-32.3	-33.0	23.6	0.00e+00	0	33	101	1048576	44	5525
2026-01-06 06:43:31.53	277.37	21.16	-32.3	-33.0	23.6	0.00e+00	0	33	101	1048576	44	5506
2026-01-06 06:43:32.54	277.63	21.16	-32.3	-33.0	23.5	0.00e+00	0	33	101	1048576	44	5546
2026-01-06 06:43:33.55	277.89	21.16	-32.3	-33.0	23.6	0.00e+00	0	33	101	1048576	44	5520
2026-01-06 06:43:34.56	278.15	21.15	-32.3	-33.0	23.6	0.00e+00	0	33	101	1048576	44	5543
2026-01-06 06:43:35.57	278.41	21.15	-32.3	-32.9	23.6	0.00e+00	0	33	101	1048576	44	5497
2026-01-06 06:43:36.58	278.68	21.14	-32.4	-33.1	23.6	0.00e+00	0	33	101	1048576	44	5583
2026-01-06 06:43:37.59	278.94	21.13	-32.4	-33.1	23.6	0.00e+00	0	33	101	1048576	44	5571
2026-01-06 06:43:38.60	279.20	21.13	-32.4	-33.1	23.5	0.00e+00	0	33	101	1048576	44	5629
2026-01-06 06:43:39.61	279.46	21.12	-32.7	-33.4	23.5	0.00e+00	0	33	101	1048576	44	5768
2026-01-06 06:43:40.63	279.72	21.11	-32.6	-33.2	23.5	0.00e+00	0	33	101	1048576	44	5695
2026-01-06 06:43:41.64	279.99	21.10	-32.7	-33.4	23.5	0.00e+00	0	33	101	1048576	44	5799
2026-01-06 06:43:42.65	280.25	21.10	-32.7	-33.4	23.5	0.00e+00	0	33	101	1048576	44	5792
2026-01-06 06:43:43.66	280.51	21.09	-32.6	-33.3	23.5	0.00e+00	0	33	101	1048576	44	5750
2026-01-06 06:43:44.67	280.77	21.08	-32.7	-33.4	23.4	0.00e+00	0	33	101	1048576	44	5768
2026-01-06 06:43:45.68	281.03	21.06	-32.6	-33.3	23.4	0.00e+00	0	33	101	1048576	44	5755
2026-01-06 06:43:46.69	281.29	21.05	-32.7	-33.4	23.3	0.00e+00	0	33	101	1048576	44	5786
2026-01-06 06:43:47.70	281.55	21.04	-32.6	-33.4	23.3	0.00e+00	0	33	101	1048576	44	5764
2026-01-06 06:43:48.71	281.81	21.03	-32.7	-33.4	23.3	0.00e+00	0	33	101	1048576	44	5774
2026-01-06 06:43:49.72	282.07	21.02	-32.5	-33.2	23.4	0.00e+00	0	33	101	1048576	44	5651
2026-01-06 06:43:50.74	282.33	21.00	-32.4	-33.1	23.4	0.00e+00	0	33	101	1048576	44	5587
2026-01-06 06:43:51.75	282.59	20.99	-32.3	-33.0	23.6	0.00e+00	0	33	101	1048576	44	5527
2026-01-06 06:43:52.76	282.85	20.97	-32.4	-33.1	23.5	0.00e+00	0	33	101	1048576	44	5578
2026-01-06 06:43:53.77	283.11	20.96	-32.4	-33.1	23.4	0.00e+00	0	33	101	1048576	44	5625
2026-01-06 06:43:54.78	283.36	20.94	-32.4	-33.1	23.4	0.00e+00	0	33	101	1048576	44	5611
2026-01-06 06:43:55.79	283.62	20.92	-32.6	-33.3	23.2	0.00e+00	0	33	101	1048576	44	5725
2026-01-06 06:43:56.80	283.88	20.91	-32.4	-33.1	23.3	0.00e+00	0	33	101	1048576	44	5619
2026-01-06 06:43:57.81	284.14	20.89	-32.4	-33.1	23.4	0.00e+00	0	33	101	1048576	44	5627
2026-01-06 06:43:58.82	284.39	20.87	-32.3	-33.0	23.5	0.00e+00	0	33	101	1048576	44	5536
2026-01-06 06:43:59.84	284.65	20.85	-32.2	-32.9	23.6	0.00e+00	0	33	101	1048576	44	5486
2026-01-06 06:44:00.85	284.91	20.83	-32.2	-32.9	23.7	0.00e+00	0	33	101	1048576	44	5468
2026-01-06 06:44:01.86	285.17	20.81	-32.3	-32.9	23.7	0.00e+00	0	33	101	1048576	44	5496
2026-01-06 06:44:02.87	285.42	20.79	-32.3	-33.0	23.7	0.00e+00	0	33	101	1048576	44	5515
2026-01-06 06:44:03.88	285.68	20.77	-32.3	-33.0	23.6	0.00e+00	0	33	101	1048576	44	5516
2026-01-06 06:44:04.89	285.93	20.75	-32.4	-33.1	23.6	0.00e+00	0	33	101	1048576	44	5575
2026-01-06 06:44:05.90	286.19	20.73	-32.4	-33.0	23.5	0.00e+00	0	33	101	1048576	44	5547
2026-01-06 06:44:06.91	286.44	20.71	-32.4	-33.0	23.5	0.00e+00	0	33	101	1048576	44	5557
2026-01-06 06:44:07.92	286.70	20.68	-32.3	-33.0	23.6	0.00e+00	0	33	101	1048576	44	5522
2026-01-06 06:44:08.94	286.95	20.66	-32.4	-33.1	23.5	0.00e+00	0	33	101	1048576	44	5609
2026-01-06 06:44:09.95	287.21	20.63	-32.4	-33.1	23.5	0.00e+00	0	33	101	1048576	44	5616
2026-01-06 06:44:10.96	287.46	20.61	-32.5	-33.2	23.4	0.00e+00	0	33	101	1048576	44	5683
2026-01-06 06:44:11.97	287.71	20.58	-32.6	-33.3	23.4	0.00e+00	0	33	101	1048576	44	5749
2026-01-06 06:44:12.98	287.96	20.56	-32.7	-33.4	23.3	0.00e+00	0	33	101	1048576	44	5770
2026-01-06 06:44:13.99	288.21	20.53	-32.6	-33.3	23.4	0.00e+00	0	33	101	1048576	44	5735
2026-01-06 06:44:15.00	288.47	20.50	-32.7	-33.4	23.4	0.00e+00	0	33	101	1048576	44	5786
2026-01-06 06:44:16.01	288.72	20.48	-32.6	-33.3	23.5	0.00e+00	0	33	101	1048576	44	5737
2026-01-06 06:44:17.02	288.97	20.45	-32.5	-33.2	23.6	0.00e+00	0	33	101	1048576	44	5642
2026-01-06 06:44:18.03	289.22	20.42	-32.5	-33.1	23.7	0.00e+00	0	33	101	1048576	44	5620
2026-01-06 06:44:19.05	289.47	20.39	-32.4	-33.1	23.7	0.00e+00	0	33	101	1048576	44	5583
2026-01-06 06:44:20.06	289.72	20.36	-32.5	-33.1	23.8	0.00e+00	0	33	101	1048576	44	5626
2026-01-06 06:44:21.07	289.97	20.33	-32.6	-33.2	23.7	0.00e+00	0	33	101	1048576	44	5688
2026-01-06 06:44:22.08	290.21	20.30	-32.6	-33.3	23.7	0.00e+00	0	33	101	1048576	44	5708
2026-01-06 06:44:23.09	290.46	20.27	-32.6	-33.3	23.6	0.00e+00	0	33	101	1048576	44	5707
2026-01-06 06:44:24.10	290.71	20.24	-32.6	-33.2	23.6	0.00e+00	0	33	101	1048576	44	5692
2026-01-06 06:44:25.11	290.96	20.21	-32.7	-33.4	23.6	0.00e+00	0	33	101	1048576	44	5783
2026-01-06 06:44:26.12	291.20	20.17	-32.7	-33.4	23.6	0.00e+00	0	33	101	1048576	44	5766
2026-01-06 06:44:27.13	291.45	20.14	-32.7	-33.4	23.6	0.00e+00	0	33	101	1048576	44	5772
2026-01-06 06:44:28.14	291.69	20.11	-32.6	-33.3	23.6	0.00e+00	0	33	101	1048576	44	5722
2026-01-06 06:44:29.15	291.94	20.07	-32.6	-33.2	23.7	0.00e+00	0	33	101	1048576	44	5682
2026-01-06 06:44:30.17	292.18	20.04	-32.5	-33.2	23.7	0.00e+00	0	33	101	1048576	44	5636
2026-01-06 06:44:31.18	292.43	20.01	-32.4	-33.1	23.7	0.00e+00	0	33	101	1048576	44	5588
2026-01-06 06:44:32.19	292.67	19.97	-32.5	-33.2	23.7	0.00e+00	0	33	101	1048576	44	5642
2026-01-06 06:44:33.20	292.91	19.93	-32.7	-33.4	23.6	0.00e+00	0	33	101	1048576	44	5768
2026-01-06 06:44:34.21	293.15	19.90	-32.5	-33.2	23.5	0.00e+00	0	33	101	1048576	44	5657
2026-01-06 06:44:35.22	293.39	19.86	-32.7	-33.4	23.4	0.00e+00	0	33	101	1048576	44	5808
2026-01-06 06:44:36.23	293.63	19.83	-32.7	-33.4	23.4	0.00e+00	0	33	101	1048576	44	5823
2026-01-06 06:44:37.24	293.87	19.79	-32.9	-33.6	23.5	0.00e+00	0	33	101	1048576	44	5903
2026-01-06 06:44:38.25	294.11	19.75	-32.8	-33.5	23.4	0.00e+00	0	33	101	1048576	44	5868
2026-01-06 06:44:39.26	294.35	19.71	-32.9	-33.6	23.4	0.00e+00	0	33	101	1048576	44	5907
2026-01-06 06:44:40.27	294.59	19.67	-32.8	-33.5	23.3	0.00e+00	0	33	101	1048576	44	5880
2026-01-06 06:44:41.28	294.83	19.63	-32.9	-33.6	23.1	0.00e+00	0	33	101	1048576	44	5921
2026-01-06 06:44:42.29	295.07	19.59	-32.9	-33.6	23.1	0.00e+00	0	33	101	1048576	44	5931
2026-01-06 06:44:43.30	295.30	19.55	-33.0	-33.7	23.1	0.00e+00	0	33	101	1048576	44	6007
2026-01-06 06:44:44.32	295.54	19.51	-33.0	-33.7	23.0	0.00e+00	0	33	101	1048576	44	5998
2026-01-06 06:44:45.33	295.77	19.47	-33.0	-33.7	23.1	0.00e+00	0	33	101	1048576	44	6030
2026-01-06 06:44:46.34	296.01	19.43	-33.1	-33.8	23.1	0.00e+00	0	33	101	1048576	44	6042
2026-01-06 06:44:47.35	296.24	19.39	-33.0	-33.7	23.3	0.00e+00	0	33	101	1048576	44	6019
2026-01-06 06:44:48.36	296.48	19.35	-32.7	-33.4	23.5	0.00e+00	0	33	101	1048576	44	5801
2026-01-06 06:44:49.37	296.71	19.31	-32.7	-33.4	23.6	0.00e+00	0	33	101	1048576	44	5772
2026-01-06 06:44:50.38	296.94	19.26	-32.7	-33.4	23.5	0.00e+00	0	33	101	1048576	44	5797
2026-01-06 06:44:51.39	297.17	19.22	-32.9	-33.5	23.5	0.00e+00	0	33	101	1048576	44	5896
2026-01-06 06:44:52.40	297.40	19.18	-32.9	-33.5	23.4	0.00e+00	0	33	101	1048576	44	5895
2026-01-06 06:44:53.41	297.63	19.13	-32.8	-33.5	23.2	0.00e+00	0	33	101	1048576	44	5879
2026-01-06 06:44:54.42	297.86	19.09	-32.9	-33.6	23.2	0.00e+00	0	33	101	1048576	44	5956
2026-01-06 06:44:55.43	298.09	19.04	-32.8	-33.5	23.3	0.00e+00	0	33	101	1048576	44	5848
2026-01-06 06:44:56.44	298.32	19.00	-32.8	-33.5	23.3	0.00e+00	0	33	101	1048576	44	5858
2026-01-06 06:44:57.45	298.55	18.95	-33.1	-33.5	27.0	0.00e+00	0	33	101	1048576	44	5889
2026-01-06 06:44:58.46	298.77	18.91	-33.0	-33.5	27.0	0.00e+00	0	33	101	1048576	44	5878
2026-01-06 06:44:59.48	299.00	18.86	-33.1	-33.6	26.9	0.00e+00	0	33	101	1048576	44	5912
2026-01-06 06:45:00.49	299.23	18.81	-33.1	-33.6	26.9	0.00e+00	0	33	101	1048576	44	5930
2026-01-06 06:45:01.50	299.45	18.77	-33.3	-33.8	26.8	0.00e+00	0	33	101	1048576	44	6063
2026-01-06 06:45:02.51	299.68	18.72	-33.2	-33.7	26.9	0.00e+00	0	33	101	1048576	44	5999
2026-01-06 06:45:03.52	299.90	18.67	-33.3	-33.8	26.7	0.00e+00	0	33	101	1048576	44	6091
2026-01-06 06:45:04.53	300.12	18.63	-33.4	-33.9	26.5	0.00e+00	0	33	101	1048576	44	6153
2026-01-06 06:45:05.54	300.35	18.58	-33.4	-33.9	26.6	0.00e+00	0	33	101	1048576	44	6127
2026-01-06 06:45:06.55	300.57	18.53	-33.4	-33.9	26.7	0.00e+00	0	33	101	1048576	44	6107
2026-01-06 06:45:07.57	300.79	18.48	-33.4	-33.9	26.6	0.00e+00	0	33	101	1048576	44	6169
2026-01-06 06:45:08.58	301.01	18.43	-33.6	-34.1	26.5	0.00e+00	0	33	101	1048576	44	6269
2026-01-06 06:45:09.59	301.23	18.38	-33.6	-34.1	26.5	0.00e+00	0	33	101	1048576	44	6265
2026-01-06 06:45:10.60	301.45	18.33	-33.4	-33.9	26.7	0.00e+00	0	33	101	1048576	44	6152
2026-01-06 06:45:11.61	301.67	18.28	-33.6	-34.1	26.5	0.00e+00	0	33	101	1048576	44	6265
2026-01-06 06:45:12.62	301.88	18.23	-33.4	-33.9	26.7	0.00e+00	0	33	101	1048576	44	6112
2026-01-06 06:45:13.63	302.10	18.18	-33.3	-33.8	26.7	0.00e+00	0	33	101	1048576	44	6053
2026-01-06 06:45:14.64	302.31	18.13	-33.3	-33.8	26.8	0.00e+00	0	33	101	1048576	44	6063
2026-01-06 06:45:15.65	302.53	18.08	-33.2	-33.7	26.8	0.00e+00	0	33	101	1048576	44	5970
2026-01-06 06:45:16.66	302.74	18.03	-33.2	-33.7	26.8	0.00e+00	0	33	101	1048576	44	6010
2026-01-06 06:45:17.67	302.96	17.98	-33.3	-33.8	26.8	0.00e+00	0	33	101	1048576	44	6034
2026-01-06 06:45:18.69	303.17	17.92	-33.3	-33.8	26.7	0.00e+00	0	33	101	1048576	44	6070
2026-01-06 06:45:19.70	303.39	17.87	-33.5	-34.0	26.6	0.00e+00	0	33	101	1048576	44	6213
2026-01-06 06:45:20.71	303.60	17.82	-33.5	-34.0	26.5	0.00e+00	0	33	101	1048576	44	6231
2026-01-06 06:45:21.72	303.81	17.77	-33.5	-34.0	26.6	0.00e+00	0	33	101	1048576	44	6180
2026-01-06 06:45:22.73	304.02	17.71	-33.4	-34.0	26.6	0.00e+00	0	33	101	1048576	44	6177
2026-01-06 06:45:23.74	304.23	17.66	-33.5	-34.0	26.4	0.00e+00	0	33	101	1048576	44	6241
2026-01-06 06:45:24.75	304.44	17.61	-33.7	-34.2	26.4	0.00e+00	0	33	101	1048576	44	6365
2026-01-06 06:45:25.76	304.64	17.55	-33.7	-34.2	26.4	0.00e+00	0	33	101	1048576	44	6334
2026-01-06 06:45:26.77	304.85	17.50	-33.7	-34.2	26.4	0.00e+00	0	33	101	1048576	44	6350
2026-01-06 06:45:27.78	305.06	17.45	-33.8	-34.3	26.3	0.00e+00	0	33	101	1048576	44	6428
2026-01-06 06:45:28.79	305.26	17.39	-33.7	-34.2	26.4	0.00e+00	0	33	101	1048576	44	6379
2026-01-06 06:45:29.81	305.47	17.34	-33.8	-34.3	26.3	0.00e+00	0	33	101	1048576	44	6408
2026-01-06 06:45:30.81	305.67	17.28	-33.6	-34.1	26.5	0.00e+00	0	33	101	1048576	44	6291
2026-01-06 06:45:31.83	305.88	17.23	-33.7	-34.2	26.4	0.00e+00	0	33	101	1048576	44	6347
2026-01-06 06:45:32.84	306.08	17.17	-33.7	-34.2	26.4	0.00e+00	0	33	101	1048576	44	6356
2026-01-06 06:45:33.85	306.28	17.12	-33.6	-34.2	26.3	0.00e+00	0	33	101	1048576	44	6329
2026-01-06 06:45:34.86	306.48	17.06	-33.8	-34.3	26.3	0.00e+00	0	33	101	1048576	44	6425
2026-01-06 06:45:35.87	306.68	17.00	-33.7	-34.2	26.3	0.00e+00	0	33	101	1048576	44	6388
2026-01-06 06:45:36.88	306.88	16.95	-33.7	-34.3	26.4	0.00e+00	0	33	101	1048576	44	6394
2026-01-06 06:45:37.89	307.08	16.89	-33.8	-34.3	26.3	0.00e+00	0	33	101	1048576	44	6414
2026-01-06 06:45:38.90	307.28	16.83	-33.6	-34.1	26.5	0.00e+00	0	33	101	1048576	44	6308
2026-01-06 06:45:39.92	307.48	16.78	-33.6	-34.1	26.4	0.00e+00	0	33	101	1048576	44	6314
2026-01-06 06:45:40.92	307.68	16.72	-33.8	-34.3	26.3	0.00e+00	0	33	101	1048576	44	6419
2026-01-06 06:45:41.94	307.87	16.66	-33.5	-34.1	26.4	0.00e+00	0	33	101	1048576	44	6247
2026-01-06 06:45:42.95	308.07	16.61	-33.3	-33.8	26.7	0.00e+00	0	33	101	1048576	44	6089
2026-01-06 06:45:43.96	308.26	16.55	-33.3	-33.8	26.7	0.00e+00	0	33	101	1048576	44	6080
2026-01-06 06:45:44.97	308.46	16.49	-33.4	-33.9	26.7	0.00e+00	0	33	101	1048576	44	6136
2026-01-06 06:45:45.98	308.65	16.43	-33.5	-34.0	26.4	0.00e+00	0	33	101	1048576	44	6233
2026-01-06 06:45:46.99	308.84	16.38	-33.5	-34.0	26.4	0.00e+00	0	33	101	1048576	44	6219
2026-01-06 06:45:48.00	309.04	16.32	-33.6	-34.1	26.5	0.00e+00	0	33	101	1048576	44	6255
2026-01-06 06:45:49.01	309.23	16.26	-33.7	-34.2	26.4	0.00e+00	0	33	101	1048576	44	6363
2026-01-06 06:45:50.03	309.42	16.20	-33.8	-34.3	26.3	0.00e+00	0	33	101	1048576	44	6412
2026-01-06 06:45:51.04	309.61	16.14	-33.8	-34.3	26.3	0.00e+00	0	33	101	1048576	44	6408
2026-01-06 06:45:52.05	309.80	16.08	-33.9	-34.4	26.2	0.00e+00	0	33	101	1048576	44	6512
2026-01-06 06:45:53.06	309.99	16.02	-34.0	-34.5	26.0	0.00e+00	0	33	101	1048576	44	6587
2026-01-06 06:45:54.07	310.17	15.97	-34.1	-34.7	26.0	0.00e+00	0	33	101	1048576	46	5967
2026-01-06 06:45:55.08	310.36	15.91	-34.2	-34.7	25.9	0.00e+00	0	33	101	1048576	46	6017
2026-01-06 06:45:56.09	310.55	15.85	-34.3	-34.8	25.8	0.00e+00	0	33	101	1048576	46	6070
2026-01-06 06:45:57.10	310.73	15.79	-34.2	-34.8	25.9	0.00e+00	0	33	101	1048576	46	6034
2026-01-06 06:45:58.11	310.92	15.73	-34.3	-34.8	25.9	0.00e+00	0	33	101	1048576	46	6042
2026-01-06 06:45:59.12	311.10	15.67	-34.1	-34.6	26.0	0.00e+00	0	33	101	1048576	46	5956
2026-01-06 06:46:00.14	311.29	15.61	-34.2	-34.8	25.9	0.00e+00	0	33	101	1048576	46	6036
2026-01-06 06:46:01.15	311.47	15.55	-34.2	-34.7	26.1	0.00e+00	0	33	101	1048576	46	5987
2026-01-06 06:46:02.16	311.65	15.49	-34.1	-34.6	26.0	0.00e+00	0	33	101	1048576	46	5955
2026-01-06 06:46:03.17	311.83	15.43	-34.2	-34.7	26.0	0.00e+00	0	33	101	1048576	46	5985
2026-01-06 06:46:04.18	312.01	15.37	-34.0	-34.5	26.2	0.00e+00	0	33	101	1048576	46	5860
2026-01-06 06:46:05.19	312.19	15.31	-33.9	-34.4	26.1	0.00e+00	0	33	101	1048576	46	5826
2026-01-06 06:46:06.20	312.37	15.25	-34.0	-34.5	26.1	0.00e+00	0	33	101	1048576	46	5877
2026-01-06 06:46:07.21	312.55	15.19	-34.0	-34.5	26.0	0.00e+00	0	33	101	1048576	46	5862
2026-01-06 06:46:08.22	312.73	15.13	-34.0	-34.6	26.0	0.00e+00	0	33	101	1048576	46	5908
2026-01-06 06:46:09.23	312.90	15.06	-34.0	-34.5	26.2	0.00e+00	0	33	101	1048576	46	5843
2026-01-06 06:46:10.25	313.08	15.00	-34.1	-34.6	26.1	0.00e+00	0	33	101	1048576	46	5897
2026-01-06 06:46:11.26	313.26	14.94	-34.1	-34.7	26.0	0.00e+00	0	33	101	1048576	46	5967
2026-01-06 06:46:12.27	313.43	14.88	-34.3	-34.8	25.8	0.00e+00	0	33	101	1048576	46	6067
2026-01-06 06:46:13.28	313.61	14.82	-34.4	-34.9	25.8	0.00e+00	0	33	101	1048576	46	6115
2026-01-06 06:46:14.29	313.78	14.76	-34.5	-35.0	25.7	0.00e+00	0	33	101	1048576	46	6224
2026-01-06 06:46:15.30	313.95	14.70	-34.5	-35.0	25.7	0.00e+00	0	33	101	1048576	46	6233
2026-01-06 06:46:16.31	314.12	14.64	-34.5	-35.0	25.7	0.00e+00	0	33	101	1048576	46	6220
2026-01-06 06:46:17.32	314.30	14.57	-34.5	-35.0	25.6	0.00e+00	0	33	101	1048576	46	6223
2026-01-06 06:46:18.33	314.47	14.51	-34.6	-35.1	25.6	0.00e+00	0	33	101	1048576	46	6276
2026-01-06 06:46:19.35	314.64	14.45	-34.6	-35.2	25.6	0.00e+00	0	33	101	1048576	46	6333
2026-01-06 06:46:20.36	314.81	14.39	-34.6	-35.1	25.6	0.00e+00	0	33	101	1048576	46	6283
2026-01-06 06:46:21.37	314.98	14.33	-34.6	-35.2	25.6	0.00e+00	0	33	101	1048576	46	6322
2026-01-06 06:46:22.38	315.14	14.26	-34.6	-35.2	25.6	0.00e+00	0	33	101	1048576	46	6324
2026-01-06 06:46:23.39	315.31	14.20	-34.7	-35.2	25.5	0.00e+00	0	33	101	1048576	46	6373
2026-01-06 06:46:24.40	315.48	14.14	-34.7	-35.2	25.5	0.00e+00	0	33	101	1048576	46	6349
2026-01-06 06:46:25.41	315.64	14.08	-34.6	-35.1	25.6	0.00e+00	0	33	101	1048576	46	6297
2026-01-06 06:46:26.42	315.81	14.02	-34.5	-35.1	25.6	0.00e+00	0	33	101	1048576	46	6250
2026-01-06 06:46:27.43	315.97	13.95	-34.6	-35.1	25.6	0.00e+00	0	33	101	1048576	46	6271
2026-01-06 06:46:28.44	316.14	13.89	-34.5	-35.0	25.7	0.00e+00	0	33	101	1048576	46	6194
2026-01-06 06:46:29.46	316.30	13.83	-34.5	-35.0	25.6	0.00e+00	0	33	101	1048576	46	6238
2026-01-06 06:46:30.47	316.46	13.77	-34.2	-34.8	25.8	0.00e+00	0	33	101	1048576	46	6045
2026-01-06 06:46:31.48	316.63	13.70	-34.4	-34.9	25.7	0.00e+00	0	33	101	1048576	46	6162
2026-01-06 06:46:32.49	316.79	13.64	-34.4	-34.9	25.7	0.00e+00	0	33	101	1048576	46	6134
2026-01-06 06:46:33.50	316.95	13.58	-34.5	-35.0	25.7	0.00e+00	0	33	101	1048576	46	6208
2026-01-06 06:46:34.51	317.11	13.52	-34.6	-35.2	25.6	0.00e+00	0	33	101	1048576	46	6341
2026-01-06 06:46:35.52	317.27	13.45	-34.6	-35.1	25.5	0.00e+00	0	33	101	1048576	46	6284
2026-01-06 06:46:36.53	317.42	13.39	-34.7	-35.2	25.4	0.00e+00	0	33	101	1048576	46	6359
2026-01-06 06:46:37.54	317.58	13.33	-34.8	-35.4	25.3	0.00e+00	0	33	101	1048576	46	6476
2026-01-06 06:46:38.55	317.74	13.27	-34.9	-35.5	25.2	0.00e+00	0	33	101	1048576	46	6550
2026-01-06 06:46:39.56	317.90	13.20	-34.9	-35.4	25.1	0.00e+00	0	33	101	1048576	48	5783
2026-01-06 06:46:40.58	318.05	13.14	-35.0	-35.6	25.2	0.00e+00	0	33	101	1048576	48	5903
2026-01-06 06:46:41.59	318.21	13.08	-35.0	-35.5	25.2	0.00e+00	0	33	101	1048576	48	5856
2026-01-06 06:46:42.60	318.36	13.01	-35.1	-35.6	25.0	0.00e+00	0	33	101	1048576	48	5961
2026-01-06 06:46:43.61	318.52	12.95	-35.0	-35.6	25.1	0.00e+00	0	33	101	1048576	48	5899
2026-01-06 06:46:44.62	318.67	12.89	-34.9	-35.5	25.1	0.00e+00	0	33	101	1048576	48	5829
2026-01-06 06:46:45.63	318.82	12.83	-34.8	-35.3	25.3	0.00e+00	0	34	101	1048576	48	5743
2026-01-06 06:46:46.64	318.98	12.76	-34.6	-35.2	25.4	0.00e+00	0	33	101	1048576	48	5634
2026-01-06 06:46:47.65	319.13	12.70	-34.6	-35.1	25.5	0.00e+00	0	33	101	1048576	48	5567
2026-01-06 06:46:48.66	319.28	12.64	-34.4	-34.9	25.7	0.00e+00	0	33	101	1048576	48	5495
2026-01-06 06:46:49.67	319.43	12.58	-34.5	-35.0	25.6	0.00e+00	0	33	101	1048576	48	5506
2026-01-06 06:46:50.69	319.58	12.51	-34.3	-34.8	25.8	0.00e+00	0	33	101	1048576	48	5404
2026-01-06 06:46:51.70	319.73	12.45	-34.4	-34.9	25.7	0.00e+00	0	33	101	1048576	48	5463
2026-01-06 06:46:52.71	319.88	12.39	-34.4	-34.9	25.6	0.00e+00	0	33	101	1048576	48	5502
2026-01-06 06:46:53.72	320.03	12.32	-34.6	-35.1	25.6	0.00e+00	0	33	101	1048576	48	5592
2026-01-06 06:46:54.73	320.17	12.26	-34.7	-35.2	25.3	0.00e+00	0	33	101	1048576	48	5689
2026-01-06 06:46:55.74	320.32	12.20	-34.8	-35.3	25.4	0.00e+00	0	33	101	1048576	48	5716
2026-01-06 06:46:56.75	320.47	12.13	-34.9	-35.4	25.1	0.00e+00	0	33	101	1048576	48	5790
2026-01-06 06:46:57.76	320.61	12.07	-34.7	-35.3	25.3	0.00e+00	0	33	101	1048576	48	5708
2026-01-06 06:46:58.78	320.76	12.01	-34.7	-35.2	25.3	0.00e+00	0	33	101	1048576	48	5672
2026-01-06 06:46:59.79	320.90	11.94	-34.9	-35.4	25.2	0.00e+00	0	33	101	1048576	48	5783
2026-01-06 06:47:00.80	321.04	11.88	-34.9	-35.4	25.2	0.00e+00	0	33	101	1048576	48	5804
2026-01-06 06:47:01.81	321.19	11.82	-35.0	-35.6	25.2	0.00e+00	0	33	101	1048576	48	5910
2026-01-06 06:47:02.82	321.33	11.76	-35.0	-35.5	24.9	0.00e+00	0	33	101	1048576	48	5876
2026-01-06 06:47:03.83	321.47	11.69	-35.1	-35.7	25.0	0.00e+00	0	33	101	1048576	48	5989
2026-01-06 06:47:04.84	321.61	11.63	-35.4	-35.9	24.8	0.00e+00	0	33	101	1048576	48	6152
2026-01-06 06:47:05.85	321.75	11.57	-35.2	-35.8	24.9	0.00e+00	0	33	101	1048576	48	6035
2026-01-06 06:47:06.86	321.89	11.50	-35.3	-35.9	24.7	0.00e+00	0	33	101	1048576	48	6138
2026-01-06 06:47:07.87	322.03	11.44	-35.3	-35.9	24.8	0.00e+00	0	33	101	1048576	48	6107
2026-01-06 06:47:08.88	322.17	11.38	-35.3	-35.9	24.8	0.00e+00	0	33	101	1048576	48	6123
2026-01-06 06:47:09.89	322.31	11.32	-35.2	-35.8	24.8	0.00e+00	0	33	101	1048576	48	6053
2026-01-06 06:47:10.90	322.45	11.25	-35.3	-35.9	24.7	0.00e+00	0	33	101	1048576	48	6126
2026-01-06 06:47:11.92	322.59	11.19	-35.2	-35.7	24.9	0.00e+00	0	33	101	1048576	48	6007
2026-01-06 06:47:12.93	322.72	11.13	-35.3	-35.8	24.7	0.00e+00	0	33	101	1048576	48	6084
2026-01-06 06:47:13.94	322.86	11.06	-35.2	-35.7	24.9	0.00e+00	0	33	101	1048576	48	6005
2026-01-06 06:47:14.95	322.99	11.00	-35.4	-35.9	24.7	0.00e+00	0	33	101	1048576	48	6141
2026-01-06 06:47:15.96	323.13	10.94	-35.2	-35.7	25.0	0.00e+00	0	33	101	1048576	48	5991
2026-01-06 06:47:16.97	323.26	10.88	-35.1	-35.6	25.0	0.00e+00	0	33	101	1048576	48	5935
2026-01-06 06:47:17.98	323.40	10.81	-35.2	-35.7	24.8	0.00e+00	0	33	101	1048576	48	6010
2026-01-06 06:47:18.99	323.53	10.75	-35.1	-35.7	24.9	0.00e+00	0	33	101	1048576	48	5981
2026-01-06 06:47:20.00	323.66	10.69	-35.3	-35.8	24.7	0.00e+00	0	33	101	1048576	48	6103
2026-01-06 06:47:21.02	323.80	10.62	-35.2	-35.7	24.9	0.00e+00	0	33	101	1048576	48	6017
2026-01-06 06:47:22.03	323.93	10.56	-35.3	-35.8	24.9	0.00e+00	0	33	101	1048576	48	6062
2026-01-06 06:47:23.04	324.06	10.50	-35.4	-35.9	24.7	0.00e+00	0	33	101	1048576	48	6169
2026-01-06 06:47:24.05	324.19	10.44	-35.3	-35.9	24.7	0.00e+00	0	33	101	1048576	48	6117
2026-01-06 06:47:25.06	324.32	10.37	-35.5	-36.0	24.6	0.00e+00	0	33	101	1048576	48	6227
2026-01-06 06:47:26.07	324.45	10.31	-35.5	-36.0	24.6	0.00e+00	0	33	101	1048576	48	6240
2026-01-06 06:47:27.08	324.58	10.25	-35.6	-36.1	24.5	0.00e+00	0	33	101	1048576	48	6303
2026-01-06 06:47:28.09	324.71	10.19	-35.6	-36.1	24.4	0.00e+00	0	33	101	1048576	48	6312
2026-01-06 06:47:29.10	324.84	10.12	-35.6	-36.2	24.4	0.00e+00	0	33	101	1048576	48	6344
2026-01-06 06:47:30.12	324.96	10.06	-35.8	-36.4	24.2	0.00e+00	0	33	101	1048576	48	6494
2026-01-06 06:47:31.13	325.09	10.00	-35.9	-36.4	24.1	0.00e+00	0	33	101	1048576	48	6517
2026-01-06 06:47:32.14	325.22	9.94	-35.8	-36.3	24.2	0.00e+00	0	33	101	1048576	48	6457
2026-01-06 06:47:33.15	325.34	9.88	-35.7	-36.3	24.3	0.00e+00	0	33	101	1048576	48	6412
2026-01-06 06:47:34.16	325.47	9.81	-35.7	-36.3	24.4	0.00e+00	0	33	101	1048576	48	6393
2026-01-06 06:47:35.17	325.59	9.75	-35.7	-36.3	24.4	0.00e+00	0	33	101	1048576	48	6396
2026-01-06 06:47:36.18	325.72	9.69	-35.8	-36.3	24.3	0.00e+00	0	33	101	1048576	48	6450
2026-01-06 06:47:37.19	325.84	9.63	-35.5	-36.1	24.3	0.00e+00	0	33	101	1048576	48	6270
2026-01-06 06:47:38.20	325.97	9.57	-35.6	-36.1	24.4	0.00e+00	0	33	101	1048576	48	6311
2026-01-06 06:47:39.21	326.09	9.50	-35.5	-36.1	24.5	0.00e+00	0	33	101	1048576	48	6248
2026-01-06 06:47:40.23	326.21	9.44	-35.6	-36.1	24.4	0.00e+00	0	33	101	1048576	48	6289
2026-01-06 06:47:41.24	326.33	9.38	-35.6	-36.1	24.4	0.00e+00	0	33	101	1048576	48	6286
2026-01-06 06:47:42.25	326.45	9.32	-35.7	-36.2	24.3	0.00e+00	0	33	101	1048576	48	6347
2026-01-06 06:47:43.26	326.58	9.26	-35.7	-36.3	24.2	0.00e+00	0	33	101	1048576	48	6394
2026-01-06 06:47:44.27	326.70	9.19	-35.8	-36.4	24.0	0.00e+00	0	33	101	1048576	48	6481
2026-01-06 06:47:45.28	326.82	9.13	-35.8	-36.3	24.1	0.00e+00	0	33	101	1048576	48	6459
2026-01-06 06:47:46.29	326.94	9.07	-35.8	-36.3	24.2	0.00e+00	0	33	101	1048576	48	6438
2026-01-06 06:47:47.30	327.05	9.01	-35.8	-36.4	24.2	0.00e+00	0	33	101	1048576	48	6468
2026-01-06 06:47:48.31	327.17	8.95	-35.8	-36.3	24.1	0.00e+00	0	33	101	1048576	48	6452
2026-01-06 06:47:49.33	327.29	8.88	-35.9	-36.4	23.9	0.00e+00	0	33	101	1048576	48	6507
2026-01-06 06:47:50.34	327.41	8.82	-35.8	-36.3	24.1	0.00e+00	0	33	101	1048576	48	6435
2026-01-06 06:47:51.35	327.53	8.76	-35.8	-36.3	24.1	0.00e+00	0	33	101	1048576	48	6434
2026-01-06 06:47:52.36	327.64	8.70	-35.7	-36.2	24.2	0.00e+00	0	33	101	1048576	48	6387
2026-01-06 06:47:53.37	327.76	8.64	-35.7	-36.2	24.2	0.00e+00	0	33	101	1048576	48	6348
2026-01-06 06:47:54.38	327.87	8.58	-35.6	-36.2	24.3	0.00e+00	0	33	101	1048576	48	6330
2026-01-06 06:47:55.39	327.99	8.52	-35.7	-36.2	24.3	0.00e+00	0	33	101	1048576	48	6377
2026-01-06 06:47:56.40	328.10	8.46	-35.7	-36.2	24.1	0.00e+00	0	33	101	1048576	48	6364
2026-01-06 06:47:57.41	328.22	8.40	-35.8	-36.4	23.6	0.00e+00	0	33	101	1048576	48	6473
2026-01-06 06:47:58.42	328.33	8.33	-35.8	-36.4	24.1	0.00e+00	0	33	101	1048576	48	6494
2026-01-06 06:47:59.44	328.45	8.27	-35.9	-36.4	24.0	0.00e+00	0	33	101	1048576	48	6518
2026-01-06 06:48:00.45	328.56	8.21	-35.7	-36.3	24.1	0.00e+00	0	33	101	1048576	48	6407
2026-01-06 06:48:01.46	328.67	8.15	-35.9	-36.5	24.0	0.00e+00	0	33	101	1048576	48	6573
2026-01-06 06:48:02.47	328.78	8.09	-35.9	-36.4	23.8	0.00e+00	0	33	101	1048576	48	6530
2026-01-06 06:48:03.48	328.89	8.03	-35.9	-36.4	24.0	0.00e+00	0	33	101	1048576	48	6512
2026-01-06 06:48:04.49	329.01	7.97	-35.9	-36.5	23.9	0.00e+00	0	33	101	1048576	48	6570
2026-01-06 06:48:05.50	329.12	7.91	-36.0	-36.5	23.7	0.00e+00	0	33	101	1048576	48	6600
2026-01-06 06:48:06.51	329.23	7.85	-36.0	-36.6	23.8	0.00e+00	0	33	101	1048576	48	6668
2026-01-06 06:48:07.52	329.34	7.79	-36.1	-36.6	23.8	0.00e+00	0	33	101	1048576	50	5941
