passes_logs/2026/01/06/R4.6S_Anadyr_2ch/R4.6S_Anadyr_2ch__20260106_023011_NOAA_20_JPSS-1_rec.log

#Pass ID: 20260106_023011_NOAA 20 (JPSS-1)
#Satellite: NOAA 20 (JPSS-1)
#Configuration: NOAA 20
#almurnet v.1.7.20251203
#Start time: 2026-01-06 02:30:12

#Version: 2.2.20231116
#Station: R4.6S_Anadyr_2ch
#Location: 177.4865 lon 64.73178 lat
#TLE: 1 43013U 17073A   25350.93759711  .00000080  00000+0  58734-4 0  9994
#TLE: 2 43013  98.7603 287.1885 0002156  81.1496 278.9924 14.19526878418610

#Time	Az	El	Level	Level2	SNR	BER	BlckErr	Temp	State	Recorded	gain1	gain2
2026-01-06 02:30:12.00	216.16	0.03	-51.1	-66.3	3.5	1.51e+00	0	29	0	0	60	100315
2026-01-06 02:30:13.01	216.23	0.08	-51.1	-66.5	3.6	1.51e+00	0	30	104	0	60	102800
2026-01-06 02:30:14.02	216.30	0.13	-51.1	-66.5	3.6	1.51e+00	0	30	104	0	60	103235
2026-01-06 02:30:15.04	216.37	0.18	-51.1	-66.5	3.6	1.51e+00	0	30	104	0	60	102870
2026-01-06 02:30:16.05	216.45	0.23	-51.1	-66.5	3.6	1.51e+00	0	30	104	0	60	102792
2026-01-06 02:30:17.06	216.52	0.28	-51.1	-66.5	3.6	1.51e+00	0	30	104	0	60	103140
2026-01-06 02:30:18.07	216.59	0.33	-51.1	-66.5	3.6	1.51e+00	0	30	104	0	60	103199
2026-01-06 02:30:19.08	216.67	0.38	-51.1	-66.5	3.6	1.51e+00	0	30	104	0	60	103146
2026-01-06 02:30:20.09	216.74	0.43	-51.1	-66.5	3.6	1.51e+00	0	30	104	0	60	103330
2026-01-06 02:30:21.10	216.81	0.49	-51.1	-66.5	3.6	1.51e+00	0	30	104	0	60	103385
2026-01-06 02:30:22.11	216.89	0.54	-51.1	-66.5	3.6	1.51e+00	0	31	104	0	60	102724
2026-01-06 02:30:23.12	216.96	0.59	-51.1	-66.5	3.6	1.51e+00	0	31	104	0	60	103169
2026-01-06 02:30:24.13	217.04	0.64	-51.1	-66.5	3.6	1.51e+00	0	31	104	0	60	102527
2026-01-06 02:30:25.14	217.11	0.69	-51.1	-66.5	3.6	1.51e+00	0	31	104	0	60	103368
2026-01-06 02:30:26.15	217.19	0.74	-51.1	-66.5	3.6	1.51e+00	0	31	104	0	60	102848
2026-01-06 02:30:27.16	217.26	0.79	-51.1	-66.5	3.6	1.51e+00	0	31	104	0	60	103251
2026-01-06 02:30:28.17	217.34	0.84	-51.1	-66.5	3.6	1.51e+00	0	31	104	0	60	102881
2026-01-06 02:30:29.19	217.41	0.90	-51.1	-66.5	3.6	1.51e+00	0	31	104	0	60	102593
2026-01-06 02:30:30.20	217.49	0.95	-51.1	-66.5	3.6	1.51e+00	0	31	104	0	60	102933
2026-01-06 02:30:31.21	217.56	1.00	-51.1	-66.5	3.6	1.51e+00	0	31	104	0	60	103097
2026-01-06 02:30:32.22	217.64	1.05	-51.1	-66.5	3.6	1.51e+00	0	31	104	0	60	103086
2026-01-06 02:30:33.23	217.72	1.10	-51.1	-66.5	3.6	1.51e+00	0	31	104	0	60	102744
2026-01-06 02:30:34.24	217.79	1.15	-51.1	-66.5	3.6	1.51e+00	0	31	104	0	60	102850
2026-01-06 02:30:35.25	217.87	1.21	-51.1	-66.5	3.6	1.51e+00	0	31	104	0	60	102668
2026-01-06 02:30:36.26	217.95	1.26	-51.1	-66.5	3.6	1.51e+00	0	31	104	0	60	103263
2026-01-06 02:30:37.27	218.03	1.31	-51.1	-66.5	3.6	1.51e+00	0	31	104	0	60	103380
2026-01-06 02:30:38.29	218.11	1.36	-51.1	-66.5	3.6	1.51e+00	0	31	104	0	60	102941
2026-01-06 02:30:39.30	218.18	1.41	-51.1	-66.4	3.6	1.51e+00	0	31	104	0	60	102436
2026-01-06 02:30:40.31	218.26	1.47	-51.1	-66.5	3.6	1.51e+00	0	31	104	0	60	102532
2026-01-06 02:30:41.32	218.34	1.52	-51.1	-66.5	3.6	1.51e+00	0	31	104	0	60	102684
2026-01-06 02:30:42.33	218.42	1.57	-51.1	-66.5	3.6	1.51e+00	0	31	104	0	60	103172
2026-01-06 02:30:43.34	218.50	1.62	-51.1	-66.5	3.6	1.51e+00	0	31	104	0	60	102611
2026-01-06 02:30:44.35	218.58	1.68	-51.1	-66.5	3.6	1.51e+00	0	31	104	0	60	102997
2026-01-06 02:30:45.36	218.66	1.73	-51.1	-66.5	3.6	1.51e+00	0	31	104	0	60	102498
2026-01-06 02:30:46.37	218.74	1.78	-51.1	-66.4	3.6	1.51e+00	0	31	104	0	60	102385
2026-01-06 02:30:47.38	218.82	1.83	-51.1	-66.5	3.6	1.51e+00	0	31	104	0	60	102774
2026-01-06 02:30:48.40	218.90	1.89	-51.1	-66.5	3.6	1.51e+00	0	31	104	0	60	102980
2026-01-06 02:30:49.41	218.98	1.94	-51.0	-66.5	3.6	1.51e+00	0	31	104	0	60	102637
2026-01-06 02:30:50.42	219.06	1.99	-51.1	-66.5	3.6	1.51e+00	0	31	104	0	60	102803
2026-01-06 02:30:51.43	219.14	2.04	-51.1	-66.5	3.6	1.51e+00	0	31	104	0	60	102712
2026-01-06 02:30:52.44	219.23	2.10	-51.1	-66.5	3.6	1.51e+00	0	31	104	0	60	102613
2026-01-06 02:30:53.45	219.31	2.15	-51.1	-66.5	3.6	1.51e+00	0	31	104	0	60	102696
2026-01-06 02:30:54.46	219.39	2.20	-51.1	-66.5	3.6	1.51e+00	0	31	104	0	60	103385
2026-01-06 02:30:55.47	219.47	2.25	-51.1	-66.5	3.6	1.51e+00	0	31	104	0	60	102965
2026-01-06 02:30:56.48	219.56	2.31	-51.1	-66.5	3.6	1.51e+00	0	31	104	0	60	102732
2026-01-06 02:30:57.49	219.64	2.36	-51.1	-66.5	3.6	1.51e+00	0	31	104	0	60	103070
2026-01-06 02:30:58.51	219.72	2.41	-51.1	-66.5	3.6	1.51e+00	0	31	104	0	60	102845
2026-01-06 02:30:59.52	219.81	2.47	-51.1	-66.5	3.6	1.51e+00	0	31	104	0	60	103012
2026-01-06 02:31:00.53	219.89	2.52	-51.1	-66.5	3.6	1.51e+00	0	31	104	0	60	102602
2026-01-06 02:31:01.54	219.98	2.57	-51.1	-66.5	3.6	1.51e+00	0	31	104	0	60	103048
2026-01-06 02:31:02.55	220.06	2.63	-51.1	-66.5	3.6	1.51e+00	0	31	104	0	60	102660
2026-01-06 02:31:03.56	220.14	2.68	-51.1	-66.4	3.6	1.51e+00	0	31	104	0	60	102357
2026-01-06 02:31:04.57	220.23	2.73	-51.1	-66.4	3.6	1.51e+00	0	31	104	0	60	102439
2026-01-06 02:31:05.58	220.32	2.79	-51.1	-66.5	3.6	1.51e+00	0	31	104	0	60	102658
2026-01-06 02:31:06.59	220.40	2.84	-51.1	-66.5	3.6	1.51e+00	0	31	104	0	60	102747
2026-01-06 02:31:07.60	220.49	2.89	-51.1	-66.5	3.6	1.51e+00	0	31	104	0	60	102805
2026-01-06 02:31:08.61	220.57	2.95	-51.1	-66.4	3.6	1.51e+00	0	31	104	0	60	102416
2026-01-06 02:31:09.62	220.66	3.00	-51.1	-66.4	3.6	1.51e+00	0	31	104	0	60	102353
2026-01-06 02:31:10.63	220.75	3.05	-51.1	-66.5	3.6	1.51e+00	0	31	104	0	60	102721
2026-01-06 02:31:11.64	220.83	3.11	-51.1	-66.5	3.6	1.51e+00	0	31	104	0	60	102522
2026-01-06 02:31:12.65	220.92	3.16	-51.1	-66.5	3.6	1.51e+00	0	31	104	0	60	102599
2026-01-06 02:31:13.66	221.01	3.22	-51.1	-66.4	3.6	1.51e+00	0	31	104	0	60	102358
2026-01-06 02:31:14.68	221.10	3.27	-51.1	-66.5	3.6	1.51e+00	0	31	104	0	60	103386
2026-01-06 02:31:15.69	221.19	3.32	-51.1	-66.5	3.6	1.51e+00	0	31	104	0	60	102957
2026-01-06 02:31:16.70	221.28	3.38	-51.1	-66.5	3.6	1.51e+00	0	31	104	0	60	103001
2026-01-06 02:31:17.71	221.36	3.43	-51.1	-66.5	3.6	1.51e+00	0	31	104	0	60	102578
2026-01-06 02:31:18.72	221.45	3.49	-51.1	-66.4	3.6	1.51e+00	0	31	104	0	60	102399
2026-01-06 02:31:19.73	221.54	3.54	-51.1	-66.5	3.6	1.51e+00	0	31	104	0	60	102761
2026-01-06 02:31:20.74	221.63	3.59	-51.1	-66.5	3.6	1.51e+00	0	31	104	0	60	103151
2026-01-06 02:31:21.75	221.72	3.65	-51.1	-66.5	3.6	1.51e+00	0	31	104	0	60	102930
2026-01-06 02:31:22.76	221.82	3.70	-51.1	-66.5	3.6	1.51e+00	0	31	104	0	60	102832
2026-01-06 02:31:23.77	221.91	3.76	-51.1	-66.5	3.6	1.51e+00	0	31	104	0	60	102972
2026-01-06 02:31:24.78	222.00	3.81	-51.1	-66.5	3.6	1.51e+00	0	31	104	0	60	102586
2026-01-06 02:31:25.80	222.09	3.87	-51.1	-66.5	3.6	1.51e+00	0	31	104	0	60	103049
2026-01-06 02:31:26.81	222.18	3.92	-51.1	-66.4	3.6	1.51e+00	0	31	104	0	60	102429
2026-01-06 02:31:27.82	222.27	3.97	-51.1	-66.5	3.6	1.51e+00	0	31	104	0	60	102724
2026-01-06 02:31:28.83	222.37	4.03	-51.1	-66.5	3.6	1.51e+00	0	31	104	0	60	103025
2026-01-06 02:31:29.84	222.46	4.08	-51.1	-66.4	3.6	1.51e+00	0	31	104	0	60	102361
2026-01-06 02:31:30.85	222.55	4.14	-51.0	-66.5	3.6	1.51e+00	0	31	104	0	60	103011
2026-01-06 02:31:31.86	222.65	4.19	-51.0	-66.4	3.6	1.51e+00	0	31	104	0	60	102332
2026-01-06 02:31:32.87	222.74	4.25	-51.0	-66.5	3.6	1.51e+00	0	31	104	0	60	102878
2026-01-06 02:31:33.88	222.83	4.30	-51.0	-66.5	3.6	1.51e+00	0	31	104	0	60	102858
2026-01-06 02:31:34.89	222.93	4.36	-51.0	-66.5	3.6	1.51e+00	0	31	104	0	60	102883
2026-01-06 02:31:35.90	223.02	4.41	-51.0	-66.4	3.6	1.51e+00	0	31	104	0	60	102316
2026-01-06 02:31:36.91	223.12	4.47	-51.1	-66.6	3.6	1.51e+00	0	31	104	0	60	104659
2026-01-06 02:31:37.93	223.22	4.52	-51.0	-66.6	3.6	1.51e+00	0	31	104	0	60	104388
2026-01-06 02:31:38.94	223.31	4.58	-51.0	-66.6	3.6	1.51e+00	0	31	104	0	60	103807
2026-01-06 02:31:39.95	223.41	4.63	-51.0	-66.6	3.6	1.51e+00	0	31	104	0	60	103704
2026-01-06 02:31:40.96	223.51	4.69	-51.0	-66.5	3.6	1.51e+00	0	31	104	0	60	103351
2026-01-06 02:31:41.97	223.60	4.74	-51.0	-66.5	3.6	1.51e+00	0	31	104	0	60	103640
2026-01-06 02:31:42.98	223.70	4.80	-51.1	-66.5	3.6	1.51e+00	0	31	104	0	60	103345
2026-01-06 02:31:43.99	223.80	4.85	-51.1	-66.6	3.6	1.51e+00	0	31	104	0	60	104007
2026-01-06 02:31:45.00	223.90	4.91	-51.1	-66.6	3.5	1.51e+00	0	31	104	0	60	103824
2026-01-06 02:31:46.01	223.99	4.96	-51.1	-66.5	3.6	1.51e+00	0	31	104	0	60	103462
2026-01-06 02:31:47.02	224.09	5.02	-51.1	-66.5	3.6	1.51e+00	0	31	104	0	60	103512
2026-01-06 02:31:48.03	224.19	5.08	-51.1	-66.5	3.6	1.51e+00	0	31	104	0	60	103360
2026-01-06 02:31:49.04	224.29	5.13	-51.1	-66.5	3.6	1.51e+00	0	31	104	0	60	102945
2026-01-06 02:31:50.05	224.39	5.19	-51.1	-66.5	3.6	1.51e+00	0	31	104	0	60	103162
2026-01-06 02:31:51.06	224.49	5.24	-51.1	-66.6	3.6	1.51e+00	0	31	104	0	60	103802
2026-01-06 02:31:52.07	224.59	5.30	-51.2	-66.5	3.6	1.51e+00	0	31	104	0	60	102556
2026-01-06 02:31:53.09	224.69	5.35	-51.2	-66.5	3.6	1.51e+00	0	31	104	0	60	103074
2026-01-06 02:31:54.10	224.80	5.41	-51.2	-66.5	3.6	1.51e+00	0	31	104	0	60	102983
2026-01-06 02:31:55.11	224.90	5.47	-51.1	-66.5	3.6	1.51e+00	0	31	104	0	60	103637
2026-01-06 02:31:56.12	225.00	5.52	-51.1	-66.5	3.6	1.51e+00	0	31	104	0	60	102849
2026-01-06 02:31:57.13	225.10	5.58	-51.1	-66.5	3.6	1.51e+00	0	31	104	0	60	103009
2026-01-06 02:31:58.14	225.21	5.63	-51.1	-66.6	3.6	1.51e+00	0	31	104	0	60	103840
2026-01-06 02:31:59.15	225.31	5.69	-51.1	-66.5	3.6	1.51e+00	0	31	104	0	60	103608
2026-01-06 02:32:00.16	225.41	5.75	-51.1	-66.5	3.6	1.51e+00	0	31	104	0	60	102991
2026-01-06 02:32:01.18	225.52	5.80	-51.1	-66.6	3.6	1.51e+00	0	31	104	0	60	103818
2026-01-06 02:32:02.19	225.62	5.86	-51.1	-66.5	3.6	1.51e+00	0	31	104	0	60	102807
2026-01-06 02:32:03.20	225.73	5.91	-51.1	-66.5	3.6	1.51e+00	0	31	104	0	60	103268
2026-01-06 02:32:04.21	225.83	5.97	-51.1	-66.5	3.6	1.51e+00	0	31	104	0	60	103085
2026-01-06 02:32:05.22	225.94	6.03	-51.1	-66.5	3.6	1.51e+00	0	31	104	0	60	103419
2026-01-06 02:32:06.23	226.04	6.08	-51.1	-66.5	3.6	1.51e+00	0	31	104	0	60	102944
2026-01-06 02:32:07.24	226.15	6.14	-51.1	-66.5	3.6	1.51e+00	0	31	104	0	60	103632
2026-01-06 02:32:08.25	226.26	6.20	-51.1	-66.5	3.6	1.51e+00	0	31	104	0	60	103347
2026-01-06 02:32:09.26	226.36	6.25	-51.1	-66.5	3.6	1.51e+00	0	31	104	0	60	103390
2026-01-06 02:32:10.27	226.47	6.31	-51.1	-66.5	3.6	1.51e+00	0	31	104	0	60	103561
2026-01-06 02:32:11.28	226.58	6.36	-51.1	-66.5	3.6	1.51e+00	0	31	104	0	60	102966
2026-01-06 02:32:12.30	226.69	6.42	-51.1	-66.5	3.6	1.51e+00	0	31	104	0	60	103129
2026-01-06 02:32:13.31	226.80	6.48	-51.1	-66.5	3.6	1.51e+00	0	31	104	0	60	103099
2026-01-06 02:32:14.32	226.91	6.53	-51.1	-66.5	3.6	1.51e+00	0	31	104	0	60	103556
2026-01-06 02:32:15.33	227.02	6.59	-51.1	-66.5	3.6	1.51e+00	0	32	104	0	60	103032
2026-01-06 02:32:16.34	227.13	6.65	-51.1	-66.5	3.6	1.51e+00	0	31	104	0	60	103540
2026-01-06 02:32:17.35	227.24	6.70	-51.1	-66.5	3.6	1.51e+00	0	31	104	0	60	103301
2026-01-06 02:32:18.36	227.35	6.76	-51.1	-66.5	3.6	1.51e+00	0	31	104	0	60	103017
2026-01-06 02:32:19.37	227.46	6.82	-51.1	-66.6	3.6	1.51e+00	0	31	104	0	60	103881
2026-01-06 02:32:20.38	227.57	6.87	-51.1	-66.5	3.6	1.51e+00	0	31	104	0	60	103575
2026-01-06 02:32:21.39	227.68	6.93	-51.1	-66.5	3.6	1.51e+00	0	31	104	0	60	103232
2026-01-06 02:32:22.40	227.79	6.99	-51.1	-66.5	3.6	1.51e+00	0	31	104	0	60	103226
2026-01-06 02:32:23.41	227.91	7.05	-51.1	-66.5	3.6	1.51e+00	0	32	104	0	60	102980
2026-01-06 02:32:24.42	228.02	7.10	-51.1	-66.5	3.6	1.51e+00	0	31	104	0	60	103095
2026-01-06 02:32:25.43	228.13	7.16	-51.1	-66.5	3.6	1.51e+00	0	31	104	0	60	103525
2026-01-06 02:32:26.45	228.25	7.22	-51.1	-66.5	3.6	1.51e+00	0	31	104	0	60	102527
2026-01-06 02:32:27.46	228.36	7.27	-51.1	-66.5	3.6	1.51e+00	0	31	104	0	60	103200
2026-01-06 02:32:28.47	228.48	7.33	-51.1	-66.5	3.6	1.51e+00	0	31	104	0	60	103305
2026-01-06 02:32:29.48	228.59	7.39	-51.1	-66.5	3.6	1.51e+00	0	31	104	0	60	103276
2026-01-06 02:32:30.49	228.71	7.45	-51.1	-66.4	3.6	1.51e+00	0	31	104	0	60	102396
2026-01-06 02:32:31.50	228.83	7.50	-51.1	-66.5	3.6	1.51e+00	0	32	104	0	60	103095
2026-01-06 02:32:32.51	228.94	7.56	-51.1	-66.5	3.6	1.51e+00	0	32	104	0	60	103349
2026-01-06 02:32:33.53	229.06	7.62	-51.1	-66.5	3.6	1.51e+00	0	31	104	0	60	103019
2026-01-06 02:32:34.53	229.18	7.67	-51.1	-66.5	3.6	1.51e+00	0	31	104	0	60	103201
2026-01-06 02:32:35.55	229.30	7.73	-51.1	-66.5	3.6	1.51e+00	0	31	104	0	60	103512
2026-01-06 02:32:36.56	229.42	7.79	-51.1	-66.5	3.6	1.51e+00	0	32	104	0	60	102837
2026-01-06 02:32:37.57	229.53	7.85	-51.1	-66.5	3.6	1.51e+00	0	32	104	0	60	102920
2026-01-06 02:32:38.58	229.65	7.90	-51.1	-66.5	3.6	1.51e+00	0	32	104	0	60	103429
2026-01-06 02:32:39.59	229.77	7.96	-51.1	-66.5	3.6	1.51e+00	0	32	104	0	60	103225
2026-01-06 02:32:40.60	229.89	8.02	-51.1	-66.5	3.6	1.51e+00	0	32	104	0	60	103211
2026-01-06 02:32:41.61	230.01	8.08	-51.1	-66.5	3.6	1.51e+00	0	32	104	0	60	103018
2026-01-06 02:32:42.62	230.14	8.13	-51.1	-66.5	3.6	1.51e+00	0	32	104	0	60	103194
2026-01-06 02:32:43.63	230.26	8.19	-51.1	-66.5	3.6	1.51e+00	0	32	104	0	60	102892
2026-01-06 02:32:44.64	230.38	8.25	-51.1	-66.5	3.6	1.51e+00	0	32	104	0	60	103461
2026-01-06 02:32:45.65	230.50	8.31	-51.1	-66.6	3.6	1.51e+00	0	32	104	0	60	103739
2026-01-06 02:32:46.66	230.63	8.36	-51.1	-66.5	3.6	1.51e+00	0	32	104	0	60	103029
2026-01-06 02:32:47.67	230.75	8.42	-51.1	-66.5	3.6	1.51e+00	0	32	104	0	60	102842
2026-01-06 02:32:48.69	230.87	8.48	-51.1	-66.5	3.6	1.51e+00	0	31	104	0	60	103314
2026-01-06 02:32:49.69	231.00	8.54	-51.1	-66.5	3.6	1.51e+00	0	32	104	0	60	103234
2026-01-06 02:32:50.71	231.12	8.59	-51.1	-66.5	3.6	1.51e+00	0	32	104	0	60	103326
2026-01-06 02:32:51.72	231.25	8.65	-51.1	-66.5	3.6	1.51e+00	0	32	104	0	60	102960
2026-01-06 02:32:52.73	231.38	8.71	-51.1	-66.5	3.6	1.51e+00	0	31	104	0	60	103054
2026-01-06 02:32:53.74	231.50	8.77	-51.1	-66.5	3.6	1.51e+00	0	31	104	0	60	103461
2026-01-06 02:32:54.75	231.63	8.82	-51.1	-66.5	3.6	1.51e+00	0	32	104	0	60	102805
2026-01-06 02:32:55.76	231.76	8.88	-51.1	-66.5	3.6	1.51e+00	0	32	104	0	60	103296
2026-01-06 02:32:56.77	231.88	8.94	-51.1	-66.5	3.6	1.51e+00	0	32	104	0	60	103500
2026-01-06 02:32:57.78	232.01	9.00	-51.1	-66.5	3.6	1.51e+00	0	32	104	0	60	102864
2026-01-06 02:32:58.79	232.14	9.06	-51.1	-66.5	3.6	1.51e+00	0	32	104	0	60	102577
2026-01-06 02:32:59.80	232.27	9.11	-51.1	-66.5	3.6	1.51e+00	0	32	104	0	60	102952
2026-01-06 02:33:00.80	232.40	9.17	-51.1	-66.5	3.6	1.51e+00	0	32	104	0	60	103034
2026-01-06 02:33:01.82	232.53	9.23	-51.1	-66.5	3.6	1.51e+00	0	32	104	0	60	103258
2026-01-06 02:33:02.83	232.66	9.29	-51.0	-66.5	3.6	1.51e+00	0	32	104	0	60	102648
2026-01-06 02:33:03.84	232.79	9.34	-51.0	-66.5	3.6	1.51e+00	0	32	104	0	60	103148
2026-01-06 02:33:04.85	232.93	9.40	-51.0	-66.5	3.6	1.51e+00	0	32	104	0	60	103125
2026-01-06 02:33:05.86	233.06	9.46	-51.0	-66.5	3.6	1.51e+00	0	32	104	0	60	103208
2026-01-06 02:33:06.87	233.19	9.52	-51.0	-66.5	3.6	1.51e+00	0	32	104	0	60	103182
2026-01-06 02:33:07.88	233.32	9.57	-51.1	-66.5	3.6	1.51e+00	0	32	104	0	60	103263
2026-01-06 02:33:08.89	233.46	9.63	-51.1	-66.5	3.6	1.51e+00	0	32	104	0	60	103564
2026-01-06 02:33:09.90	233.59	9.69	-51.1	-66.5	3.6	1.51e+00	0	32	104	0	60	103051
2026-01-06 02:33:10.91	233.73	9.75	-51.1	-66.5	3.6	1.51e+00	0	32	104	0	60	103005
2026-01-06 02:33:11.92	233.86	9.81	-51.1	-66.5	3.6	1.51e+00	0	32	104	0	60	103580
2026-01-06 02:33:12.94	234.00	9.86	-51.1	-66.5	3.6	1.51e+00	0	32	104	0	60	103003
2026-01-06 02:33:13.95	234.14	9.92	-51.1	-66.5	3.6	1.51e+00	0	32	104	0	60	103576
2026-01-06 02:33:14.96	234.27	9.98	-51.1	-66.6	3.6	1.51e+00	0	32	104	0	60	103724
2026-01-06 02:33:15.97	234.41	10.04	-51.1	-66.5	3.6	1.51e+00	0	32	104	0	60	103489
2026-01-06 02:33:16.98	234.55	10.09	-51.1	-66.5	3.6	1.51e+00	0	32	104	0	60	103367
2026-01-06 02:33:17.99	234.69	10.15	-51.1	-66.5	3.6	1.51e+00	0	32	104	0	60	103203
2026-01-06 02:33:19.00	234.83	10.21	-51.1	-66.5	3.6	1.51e+00	0	32	104	0	60	103397
2026-01-06 02:33:20.01	234.97	10.27	-51.1	-66.6	3.6	1.51e+00	0	32	104	0	60	103705
2026-01-06 02:33:21.02	235.11	10.33	-51.1	-66.5	3.6	1.51e+00	0	32	104	0	60	103215
2026-01-06 02:33:22.03	235.25	10.38	-51.1	-66.5	3.6	1.51e+00	0	32	104	0	60	103315
2026-01-06 02:33:23.05	235.39	10.44	-51.1	-66.5	3.6	1.51e+00	0	32	104	0	60	103328
2026-01-06 02:33:24.06	235.53	10.50	-51.1	-66.5	3.6	1.51e+00	0	31	104	0	60	103504
2026-01-06 02:33:25.07	235.67	10.56	-51.0	-66.5	3.6	1.51e+00	0	32	104	0	60	103545
2026-01-06 02:33:26.08	235.82	10.61	-51.0	-66.5	3.6	1.51e+00	0	32	104	0	60	103114
2026-01-06 02:33:27.09	235.96	10.67	-51.0	-66.5	3.6	1.51e+00	0	32	104	0	60	103072
2026-01-06 02:33:28.10	236.10	10.73	-51.0	-66.6	3.6	1.51e+00	0	32	104	0	60	103745
2026-01-06 02:33:29.11	236.25	10.79	-51.0	-66.5	3.6	1.51e+00	0	32	104	0	60	103234
2026-01-06 02:33:30.12	236.39	10.84	-51.0	-66.5	3.6	1.51e+00	0	32	104	0	60	103598
2026-01-06 02:33:31.13	236.54	10.90	-51.0	-66.5	3.6	1.51e+00	0	32	104	0	60	103423
2026-01-06 02:33:32.15	236.69	10.96	-51.0	-66.6	3.6	1.51e+00	0	32	104	0	60	103914
2026-01-06 02:33:33.16	236.83	11.02	-51.0	-66.5	3.6	1.51e+00	0	32	104	0	60	103525
2026-01-06 02:33:34.17	236.98	11.07	-51.0	-66.5	3.5	1.51e+00	0	32	104	0	60	103484
2026-01-06 02:33:35.18	237.13	11.13	-51.1	-66.6	3.6	1.51e+00	0	32	104	0	60	103706
2026-01-06 02:33:36.19	237.28	11.19	-51.1	-66.5	3.6	1.51e+00	0	32	104	0	60	103077
2026-01-06 02:33:37.20	237.42	11.25	-51.1	-66.6	3.6	1.51e+00	0	32	104	0	60	104098
2026-01-06 02:33:38.21	237.57	11.30	-51.1	-66.5	3.6	1.51e+00	0	32	104	0	60	103486
2026-01-06 02:33:39.22	237.72	11.36	-51.1	-66.5	3.6	1.51e+00	0	32	104	0	60	103203
2026-01-06 02:33:40.23	237.87	11.42	-51.1	-66.5	3.5	1.51e+00	0	32	104	0	60	103488
2026-01-06 02:33:41.25	238.03	11.48	-51.1	-66.6	3.6	1.51e+00	0	32	104	0	60	103716
2026-01-06 02:33:42.26	238.18	11.53	-51.1	-66.6	3.6	1.51e+00	0	32	104	0	60	103800
2026-01-06 02:33:43.27	238.33	11.59	-51.1	-66.5	3.6	1.51e+00	0	32	104	0	60	103621
2026-01-06 02:33:44.28	238.48	11.65	-51.1	-66.6	3.6	1.51e+00	0	32	104	0	60	103975
2026-01-06 02:33:45.29	238.64	11.70	-51.1	-66.5	3.6	1.51e+00	0	32	104	0	60	103401
2026-01-06 02:33:46.30	238.79	11.76	-51.1	-66.5	3.6	1.51e+00	0	32	104	0	60	103045
2026-01-06 02:33:47.31	238.95	11.82	-51.1	-66.5	3.6	1.51e+00	0	32	104	0	60	103235
2026-01-06 02:33:48.32	239.10	11.87	-51.1	-66.5	3.6	1.51e+00	0	32	104	0	60	103466
2026-01-06 02:33:49.33	239.26	11.93	-51.2	-66.6	3.6	1.51e+00	0	31	104	0	60	103722
2026-01-06 02:33:50.34	239.41	11.99	-51.2	-66.5	3.6	1.51e+00	0	32	104	0	60	103161
2026-01-06 02:33:51.35	239.57	12.04	-51.2	-66.6	3.6	1.51e+00	0	32	104	0	60	103819
2026-01-06 02:33:52.36	239.73	12.10	-51.2	-66.5	3.6	1.51e+00	0	32	104	0	60	103436
2026-01-06 02:33:53.38	239.89	12.16	-51.2	-66.5	3.6	1.51e+00	0	32	104	0	60	103457
2026-01-06 02:33:54.39	240.05	12.21	-51.2	-66.6	3.6	1.51e+00	0	32	104	0	60	103884
2026-01-06 02:33:55.40	240.20	12.27	-51.2	-66.6	3.6	1.51e+00	0	32	104	0	60	103704
2026-01-06 02:33:56.41	240.36	12.33	-51.2	-66.6	3.6	1.51e+00	0	32	104	0	60	103719
2026-01-06 02:33:57.42	240.53	12.38	-51.2	-66.5	3.6	1.51e+00	0	32	104	0	60	103171
2026-01-06 02:33:58.43	240.69	12.44	-51.2	-66.5	3.6	1.51e+00	0	32	104	0	60	103413
2026-01-06 02:33:59.44	240.85	12.49	-51.2	-66.6	3.6	1.51e+00	0	32	104	0	60	103904
2026-01-06 02:34:00.45	241.01	12.55	-51.2	-66.5	3.6	1.51e+00	0	32	104	0	60	103456
2026-01-06 02:34:01.46	241.17	12.61	-51.2	-66.6	3.6	1.51e+00	0	32	104	0	60	103842
2026-01-06 02:34:02.47	241.34	12.66	-51.2	-66.6	3.6	1.51e+00	0	32	104	0	60	104010
2026-01-06 02:34:03.48	241.50	12.72	-51.2	-66.5	3.6	1.51e+00	0	32	104	0	60	103642
2026-01-06 02:34:04.50	241.67	12.77	-51.2	-66.5	3.6	1.51e+00	0	32	104	0	60	103046
2026-01-06 02:34:05.51	241.83	12.83	-51.1	-66.5	3.6	1.51e+00	0	32	104	0	60	103523
2026-01-06 02:34:06.52	242.00	12.88	-51.1	-66.5	3.6	1.51e+00	0	32	104	0	60	103474
2026-01-06 02:34:07.53	242.16	12.94	-51.1	-66.6	3.6	1.51e+00	0	32	104	0	60	103816
2026-01-06 02:34:08.54	242.33	12.99	-51.1	-66.5	3.6	1.51e+00	0	32	104	0	60	103624
2026-01-06 02:34:09.55	242.50	13.05	-51.1	-66.5	3.6	1.51e+00	0	32	104	0	60	103558
2026-01-06 02:34:10.56	242.67	13.10	-51.1	-66.5	3.5	1.51e+00	0	32	104	0	60	103335
2026-01-06 02:34:11.57	242.84	13.16	-51.1	-66.5	3.6	1.51e+00	0	32	104	0	60	103357
2026-01-06 02:34:12.58	243.00	13.21	-51.1	-66.5	3.6	1.51e+00	0	32	104	0	60	103627
2026-01-06 02:34:13.59	243.17	13.27	-51.1	-66.5	3.6	1.51e+00	0	32	104	0	60	103231
2026-01-06 02:34:14.61	243.35	13.32	-51.0	-66.6	3.6	1.51e+00	0	32	104	0	60	103911
2026-01-06 02:34:15.62	243.52	13.38	-51.0	-66.5	3.6	1.51e+00	0	32	104	0	60	103384
2026-01-06 02:34:16.63	243.69	13.43	-51.0	-66.6	3.6	1.51e+00	0	32	104	0	60	104109
2026-01-06 02:34:17.64	243.86	13.49	-51.0	-66.5	3.6	1.51e+00	0	32	104	0	60	103501
2026-01-06 02:34:18.65	244.04	13.54	-51.0	-66.5	3.6	1.51e+00	0	32	104	0	60	103346
2026-01-06 02:34:19.66	244.21	13.60	-51.0	-66.5	3.6	1.51e+00	0	32	104	0	60	103395
2026-01-06 02:34:20.67	244.38	13.65	-51.0	-66.5	3.6	1.51e+00	0	32	104	0	60	103150
2026-01-06 02:34:21.68	244.56	13.70	-51.0	-66.5	3.6	1.51e+00	0	32	104	0	60	103567
2026-01-06 02:34:22.69	244.73	13.76	-51.0	-66.5	3.6	1.51e+00	0	32	104	0	60	102874
2026-01-06 02:34:23.71	244.91	13.81	-51.0	-66.5	3.5	1.51e+00	0	32	104	0	60	103329
2026-01-06 02:34:24.71	245.09	13.86	-51.0	-66.5	3.6	1.51e+00	0	32	104	0	60	103461
2026-01-06 02:34:25.73	245.27	13.92	-51.0	-66.5	3.6	1.51e+00	0	32	104	0	60	103177
2026-01-06 02:34:26.74	245.44	13.97	-51.0	-66.5	3.6	1.51e+00	0	32	104	0	60	103517
2026-01-06 02:34:27.75	245.62	14.02	-51.0	-66.5	3.5	1.51e+00	0	32	104	0	60	102733
2026-01-06 02:34:28.76	245.80	14.08	-51.1	-66.6	3.6	1.51e+00	0	32	104	0	60	103919
2026-01-06 02:34:29.77	245.98	14.13	-51.1	-66.5	3.6	1.51e+00	0	32	104	0	60	103417
2026-01-06 02:34:30.78	246.16	14.18	-51.1	-66.5	3.6	1.51e+00	0	32	104	0	60	103110
2026-01-06 02:34:31.79	246.34	14.23	-51.0	-66.5	3.6	1.51e+00	0	32	104	0	60	103512
2026-01-06 02:34:32.80	246.53	14.29	-51.0	-66.5	3.6	1.51e+00	0	32	104	0	60	103619
2026-01-06 02:34:33.81	246.71	14.34	-51.0	-66.5	3.6	1.51e+00	0	32	104	0	60	103140
2026-01-06 02:34:34.82	246.89	14.39	-51.0	-66.6	3.6	1.51e+00	0	32	104	0	60	103878
2026-01-06 02:34:35.83	247.07	14.44	-51.0	-66.5	3.6	1.51e+00	0	32	104	0	60	103457
2026-01-06 02:34:36.85	247.26	14.49	-51.0	-66.5	3.6	1.51e+00	0	32	104	0	60	102697
2026-01-06 02:34:37.86	247.44	14.55	-51.0	-66.5	3.6	1.51e+00	0	32	104	0	60	103361
2026-01-06 02:34:38.87	247.63	14.60	-51.0	-66.5	3.6	1.51e+00	0	32	104	0	60	102906
2026-01-06 02:34:39.88	247.82	14.65	-51.0	-66.5	3.6	1.51e+00	0	32	104	0	60	103411
2026-01-06 02:34:40.89	248.00	14.70	-51.0	-66.5	3.6	1.51e+00	0	32	104	0	60	103310
2026-01-06 02:34:41.90	248.19	14.75	-51.0	-66.5	3.6	1.51e+00	0	32	104	0	60	103329
2026-01-06 02:34:42.91	248.38	14.80	-51.0	-66.5	3.6	1.51e+00	0	32	104	0	60	103305
2026-01-06 02:34:43.92	248.57	14.85	-51.0	-66.5	3.6	1.51e+00	0	32	104	0	60	102685
2026-01-06 02:34:44.93	248.76	14.90	-51.0	-66.5	3.6	1.51e+00	0	32	104	0	60	103318
2026-01-06 02:34:45.94	248.95	14.95	-51.0	-66.5	3.6	1.51e+00	0	32	104	0	60	103450
2026-01-06 02:34:46.95	249.14	15.00	-51.0	-66.6	3.6	1.51e+00	0	32	104	0	60	103704
2026-01-06 02:34:47.97	249.33	15.05	-51.1	-66.6	3.6	1.51e+00	0	32	104	0	60	103712
2026-01-06 02:34:48.98	249.52	15.10	-51.1	-66.5	3.6	1.51e+00	0	32	104	0	60	103493
2026-01-06 02:34:49.99	249.71	15.15	-51.1	-66.5	3.6	1.51e+00	0	32	104	0	60	103356
2026-01-06 02:34:51.00	249.91	15.20	-51.1	-66.6	3.6	1.51e+00	0	32	104	0	60	103690
2026-01-06 02:34:52.01	250.10	15.25	-51.1	-66.5	3.6	1.51e+00	0	32	104	0	60	103569
2026-01-06 02:34:53.02	250.29	15.30	-51.1	-66.5	3.6	1.51e+00	0	32	104	0	60	103431
2026-01-06 02:34:54.03	250.49	15.35	-51.1	-66.5	3.6	1.51e+00	0	32	104	0	60	103171
2026-01-06 02:34:55.04	250.68	15.39	-51.0	-66.6	3.6	1.51e+00	0	32	104	0	60	103755
2026-01-06 02:34:56.05	250.88	15.44	-51.0	-66.6	3.6	1.51e+00	0	32	104	0	60	103912
2026-01-06 02:34:57.07	251.08	15.49	-51.0	-66.5	3.6	1.51e+00	0	32	104	0	60	103242
2026-01-06 02:34:58.08	251.27	15.54	-51.0	-66.5	3.6	1.51e+00	0	32	104	0	60	103392
2026-01-06 02:34:59.09	251.47	15.59	-51.0	-66.5	3.6	1.51e+00	0	32	104	0	60	102930
2026-01-06 02:35:00.10	251.67	15.63	-51.0	-66.5	3.6	1.51e+00	0	32	104	0	60	103322
2026-01-06 02:35:01.10	251.87	15.68	-51.0	-66.5	3.6	1.51e+00	0	32	104	0	60	103093
2026-01-06 02:35:02.11	252.07	15.73	-51.0	-66.6	3.6	1.51e+00	0	32	104	0	60	103978
2026-01-06 02:35:03.12	252.27	15.77	-51.0	-66.5	3.6	1.51e+00	0	32	104	0	60	103401
2026-01-06 02:35:04.13	252.47	15.82	-51.0	-66.5	3.6	1.51e+00	0	32	104	0	60	103487
2026-01-06 02:35:05.14	252.67	15.86	-51.0	-66.5	3.6	1.51e+00	0	32	104	0	60	103421
2026-01-06 02:35:06.16	252.87	15.91	-51.0	-66.5	3.6	1.51e+00	0	32	104	0	60	103118
2026-01-06 02:35:07.17	253.08	15.96	-51.0	-66.5	3.6	1.51e+00	0	32	104	0	60	103377
2026-01-06 02:35:08.18	253.28	16.00	-51.0	-66.5	3.6	1.51e+00	0	32	104	0	60	103300
2026-01-06 02:35:09.19	253.48	16.05	-51.0	-66.5	3.6	1.51e+00	0	32	104	0	60	103308
2026-01-06 02:35:10.20	253.69	16.09	-51.0	-66.5	3.6	1.51e+00	0	32	104	0	60	103335
2026-01-06 02:35:11.21	253.89	16.13	-51.0	-66.6	3.6	1.51e+00	0	32	104	0	60	103829
2026-01-06 02:35:12.22	254.10	16.18	-51.0	-66.5	3.6	1.51e+00	0	32	104	0	60	103631
2026-01-06 02:35:13.23	254.30	16.22	-51.0	-66.5	3.6	1.51e+00	0	32	104	0	60	103145
2026-01-06 02:35:14.24	254.51	16.27	-51.0	-66.5	3.6	1.51e+00	0	32	104	0	60	103622
2026-01-06 02:35:15.26	254.72	16.31	-51.0	-66.5	3.6	1.51e+00	0	32	104	0	60	103029
2026-01-06 02:35:16.27	254.93	16.35	-51.0	-66.6	3.6	1.51e+00	0	32	104	0	60	103676
2026-01-06 02:35:17.28	255.14	16.40	-51.0	-66.6	3.6	1.51e+00	0	32	104	0	60	103905
2026-01-06 02:35:18.29	255.34	16.44	-51.0	-66.5	3.6	1.51e+00	0	32	104	0	60	103626
2026-01-06 02:35:19.30	255.55	16.48	-51.0	-66.6	3.6	1.51e+00	0	32	104	0	60	103875
2026-01-06 02:35:20.31	255.76	16.52	-51.0	-66.5	3.6	1.51e+00	0	32	104	0	60	103245
2026-01-06 02:35:21.32	255.97	16.56	-51.1	-66.5	3.6	1.51e+00	0	32	104	0	60	103568
2026-01-06 02:35:22.33	256.19	16.61	-51.1	-66.5	3.6	1.51e+00	0	32	104	0	60	103437
2026-01-06 02:35:23.35	256.40	16.65	-51.1	-66.5	3.6	1.51e+00	0	32	104	0	60	103608
2026-01-06 02:35:24.36	256.61	16.69	-51.1	-66.5	3.6	1.51e+00	0	32	104	0	60	103588
2026-01-06 02:35:25.37	256.83	16.73	-51.1	-66.5	3.6	1.51e+00	0	32	104	0	60	103506
2026-01-06 02:35:26.38	257.04	16.77	-51.1	-66.5	3.6	1.51e+00	0	32	104	0	60	102918
2026-01-06 02:35:27.39	257.25	16.81	-51.1	-66.5	3.6	1.51e+00	0	32	104	0	60	103289
2026-01-06 02:35:28.40	257.47	16.85	-51.1	-66.5	3.6	1.51e+00	0	32	104	0	60	103497
2026-01-06 02:35:29.41	257.68	16.89	-51.1	-66.5	3.6	1.51e+00	0	32	104	0	60	103338
2026-01-06 02:35:30.42	257.90	16.92	-51.1	-66.5	3.6	1.51e+00	0	32	104	0	60	103236
2026-01-06 02:35:31.43	258.11	16.96	-51.1	-66.5	3.6	1.51e+00	0	32	104	0	60	103466
2026-01-06 02:35:32.44	258.33	17.00	-51.1	-66.5	3.6	1.51e+00	0	32	104	0	60	103082
2026-01-06 02:35:33.46	258.55	17.04	-51.1	-66.5	3.6	1.51e+00	0	32	104	0	60	102919
2026-01-06 02:35:34.47	258.77	17.08	-51.1	-66.5	3.6	1.51e+00	0	32	104	0	60	103301
2026-01-06 02:35:35.48	258.99	17.11	-51.1	-66.5	3.6	1.51e+00	0	32	104	0	60	102910
2026-01-06 02:35:36.49	259.20	17.15	-51.1	-66.5	3.6	1.51e+00	0	32	104	0	60	103299
2026-01-06 02:35:37.50	259.42	17.19	-51.1	-66.5	3.6	1.51e+00	0	32	104	0	60	103223
2026-01-06 02:35:38.51	259.64	17.22	-51.1	-66.5	3.6	1.51e+00	0	32	104	0	60	103220
2026-01-06 02:35:39.52	259.86	17.26	-51.1	-66.5	3.6	1.51e+00	0	32	104	0	60	103622
2026-01-06 02:35:40.53	260.09	17.29	-51.1	-66.5	3.6	1.51e+00	0	32	104	0	60	103297
2026-01-06 02:35:41.54	260.31	17.33	-51.1	-66.5	3.6	1.51e+00	0	32	104	0	60	103571
2026-01-06 02:35:42.56	260.53	17.36	-51.1	-66.5	3.6	1.51e+00	0	32	104	0	60	103299
2026-01-06 02:35:43.57	260.75	17.40	-51.1	-66.5	3.6	1.51e+00	0	32	104	0	60	103600
2026-01-06 02:35:44.58	260.98	17.43	-51.1	-66.5	3.6	1.51e+00	0	32	104	0	60	102990
2026-01-06 02:35:45.59	261.20	17.47	-51.1	-66.5	3.6	1.51e+00	0	32	104	0	60	102964
2026-01-06 02:35:46.60	261.42	17.50	-51.1	-66.5	3.6	1.51e+00	0	32	104	0	60	102984
2026-01-06 02:35:47.61	261.65	17.53	-51.1	-66.5	3.6	1.51e+00	0	32	104	0	60	103578
2026-01-06 02:35:48.62	261.87	17.56	-51.1	-66.5	3.6	1.51e+00	0	32	104	0	60	102766
2026-01-06 02:35:49.63	262.10	17.60	-51.1	-66.5	3.6	1.51e+00	0	32	104	0	60	102983
2026-01-06 02:35:50.64	262.32	17.63	-51.1	-66.6	3.6	1.51e+00	0	32	104	0	60	103716
2026-01-06 02:35:51.66	262.55	17.66	-51.1	-66.5	3.6	1.51e+00	0	32	104	0	60	103377
2026-01-06 02:35:52.67	262.78	17.69	-51.1	-66.5	3.6	1.51e+00	0	32	104	0	60	103532
2026-01-06 02:35:53.68	263.00	17.72	-51.1	-66.5	3.6	1.51e+00	0	32	104	0	60	102805
2026-01-06 02:35:54.69	263.23	17.75	-51.1	-66.5	3.6	1.51e+00	0	32	104	0	60	102980
2026-01-06 02:35:55.70	263.46	17.78	-51.1	-66.5	3.6	1.51e+00	0	32	104	0	60	103485
2026-01-06 02:35:56.71	263.69	17.81	-51.1	-66.5	3.6	1.51e+00	0	32	104	0	60	103297
2026-01-06 02:35:57.72	263.92	17.84	-51.1	-66.5	3.6	1.51e+00	0	32	104	0	60	103455
2026-01-06 02:35:58.73	264.15	17.87	-51.1	-66.5	3.6	1.51e+00	0	32	104	0	60	103140
2026-01-06 02:35:59.74	264.37	17.90	-51.1	-66.5	3.6	1.51e+00	0	32	104	0	60	103290
2026-01-06 02:36:00.75	264.60	17.92	-51.1	-66.5	3.6	1.51e+00	0	32	104	0	60	103173
2026-01-06 02:36:01.76	264.84	17.95	-51.1	-66.5	3.6	1.51e+00	0	32	104	0	60	103517
2026-01-06 02:36:02.78	265.07	17.98	-51.1	-66.5	3.6	1.51e+00	0	32	104	0	60	103019
2026-01-06 02:36:03.79	265.30	18.00	-51.1	-66.5	3.6	1.51e+00	0	32	104	0	60	103240
2026-01-06 02:36:04.80	265.53	18.03	-51.1	-66.5	3.6	1.51e+00	0	32	104	0	60	103549
2026-01-06 02:36:05.81	265.76	18.06	-51.1	-66.5	3.6	1.51e+00	0	32	104	0	60	103028
2026-01-06 02:36:06.82	265.99	18.08	-51.1	-66.4	3.6	1.51e+00	0	32	104	0	60	102221
2026-01-06 02:36:07.83	266.23	18.11	-51.1	-66.5	3.6	1.51e+00	0	32	104	0	60	103006
2026-01-06 02:36:08.84	266.46	18.13	-51.1	-66.5	3.6	1.51e+00	0	32	104	0	60	103212
2026-01-06 02:36:09.85	266.69	18.15	-51.1	-66.5	3.6	1.51e+00	0	32	104	0	60	103174
2026-01-06 02:36:10.86	266.93	18.18	-51.1	-66.5	3.6	1.51e+00	0	32	104	0	60	103109
2026-01-06 02:36:11.87	267.16	18.20	-51.1	-66.5	3.6	1.51e+00	0	32	104	0	60	102704
2026-01-06 02:36:12.88	267.40	18.22	-51.1	-66.5	3.6	1.51e+00	0	32	104	0	60	102778
2026-01-06 02:36:13.90	267.63	18.25	-51.1	-66.4	3.6	1.51e+00	0	32	104	0	60	102420
2026-01-06 02:36:14.91	267.87	18.27	-51.1	-66.5	3.6	1.51e+00	0	32	104	0	60	103340
2026-01-06 02:36:15.92	268.10	18.29	-51.1	-66.5	3.6	1.51e+00	0	32	104	0	60	103583
2026-01-06 02:36:16.93	268.34	18.31	-51.1	-66.4	3.6	1.51e+00	0	32	104	0	60	102418
2026-01-06 02:36:17.94	268.58	18.33	-51.1	-66.5	3.6	1.51e+00	0	32	104	0	60	102804
2026-01-06 02:36:18.95	268.81	18.35	-51.1	-66.5	3.6	1.51e+00	0	32	104	0	60	103440
2026-01-06 02:36:19.96	269.05	18.37	-51.1	-66.5	3.6	1.51e+00	0	32	104	0	60	102872
2026-01-06 02:36:20.97	269.28	18.39	-51.1	-66.5	3.6	1.51e+00	0	32	104	0	60	102741
2026-01-06 02:36:21.98	269.52	18.41	-51.1	-66.5	3.5	1.51e+00	0	32	104	0	60	102958
2026-01-06 02:36:22.99	269.76	18.42	-51.1	-66.4	3.6	1.51e+00	0	32	104	0	60	102353
2026-01-06 02:36:24.01	270.00	18.44	-51.0	-66.5	3.6	1.51e+00	0	32	104	0	60	102525
2026-01-06 02:36:25.02	270.24	18.46	-51.0	-66.5	3.6	1.51e+00	0	32	104	0	60	102753
2026-01-06 02:36:26.03	270.48	18.48	-51.0	-66.5	3.6	1.51e+00	0	32	104	0	60	102957
2026-01-06 02:36:27.04	270.71	18.49	-51.0	-66.5	3.6	1.51e+00	0	32	104	0	60	102611
2026-01-06 02:36:28.05	270.95	18.51	-51.0	-66.5	3.6	1.51e+00	0	32	104	0	60	102597
2026-01-06 02:36:29.06	271.19	18.52	-51.0	-66.5	3.6	1.51e+00	0	32	104	0	60	102641
2026-01-06 02:36:30.07	271.43	18.54	-51.0	-66.5	3.6	1.51e+00	0	32	104	0	60	103044
2026-01-06 02:36:31.08	271.67	18.55	-51.0	-66.5	3.6	1.51e+00	0	32	104	0	60	103228
2026-01-06 02:36:32.09	271.91	18.56	-51.0	-66.5	3.6	1.51e+00	0	32	104	0	60	102624
2026-01-06 02:36:33.11	272.15	18.58	-51.0	-66.4	3.6	1.51e+00	0	32	104	0	60	102440
2026-01-06 02:36:34.12	272.39	18.59	-51.0	-66.5	3.6	1.51e+00	0	32	104	0	60	102847
2026-01-06 02:36:35.13	272.63	18.60	-51.0	-66.5	3.6	1.51e+00	0	32	104	0	60	102781
2026-01-06 02:36:36.14	272.87	18.62	-51.0	-66.4	3.6	1.51e+00	0	32	104	0	60	102426
2026-01-06 02:36:37.15	273.11	18.63	-51.0	-66.5	3.6	1.51e+00	0	32	104	0	60	102968
2026-01-06 02:36:38.16	273.35	18.64	-51.1	-66.4	3.6	1.51e+00	0	32	104	0	60	102155
2026-01-06 02:36:39.17	273.59	18.65	-51.1	-66.5	3.6	1.51e+00	0	32	104	0	60	102661
2026-01-06 02:36:40.18	273.83	18.66	-51.1	-66.5	3.6	1.51e+00	0	32	104	0	60	102561
2026-01-06 02:36:41.19	274.08	18.67	-51.1	-66.5	3.6	1.51e+00	0	32	104	0	60	102915
2026-01-06 02:36:42.20	274.32	18.68	-51.1	-66.5	3.6	1.51e+00	0	32	104	0	60	102815
2026-01-06 02:36:43.22	274.56	18.68	-51.1	-66.5	3.6	1.51e+00	0	32	104	0	60	102788
2026-01-06 02:36:44.23	274.80	18.69	-51.1	-66.5	3.6	1.51e+00	0	32	104	0	60	102706
2026-01-06 02:36:45.24	275.04	18.70	-51.1	-66.5	3.6	1.51e+00	0	32	104	0	60	102750
2026-01-06 02:36:46.25	275.29	18.71	-51.1	-66.5	3.6	1.51e+00	0	32	104	0	60	102960
2026-01-06 02:36:47.26	275.53	18.71	-51.1	-66.5	3.6	1.51e+00	0	32	104	0	60	102608
2026-01-06 02:36:48.27	275.77	18.72	-51.1	-66.5	3.6	1.51e+00	0	32	104	0	60	103180
2026-01-06 02:36:49.28	276.01	18.72	-51.1	-66.5	3.6	1.51e+00	0	32	104	0	60	102572
2026-01-06 02:36:50.29	276.25	18.73	-51.1	-66.5	3.6	1.51e+00	0	32	104	0	60	102778
2026-01-06 02:36:51.30	276.50	18.73	-51.1	-66.4	3.6	1.51e+00	0	32	104	0	60	102442
2026-01-06 02:36:52.31	276.74	18.74	-51.1	-66.5	3.6	1.51e+00	0	32	104	0	60	103290
2026-01-06 02:36:53.33	276.98	18.74	-51.1	-66.5	3.6	1.51e+00	0	32	104	0	60	103053
2026-01-06 02:36:54.33	277.22	18.74	-51.1	-66.5	3.6	1.51e+00	0	32	104	0	60	102518
2026-01-06 02:36:55.35	277.47	18.75	-51.1	-66.5	3.6	1.51e+00	0	32	104	0	60	102508
2026-01-06 02:36:56.36	277.71	18.75	-51.1	-66.4	3.6	1.51e+00	0	32	104	0	60	102434
2026-01-06 02:36:57.37	277.95	18.75	-51.0	-66.4	3.5	1.51e+00	0	32	104	0	60	102134
2026-01-06 02:36:58.38	278.19	18.75	-51.0	-66.5	3.6	1.51e+00	0	32	104	0	60	102463
2026-01-06 02:36:59.39	278.44	18.75	-51.0	-66.5	3.6	1.51e+00	0	32	104	0	60	102794
2026-01-06 02:37:00.40	278.68	18.75	-51.0	-66.5	3.6	1.51e+00	0	32	104	0	60	103224
2026-01-06 02:37:01.41	278.92	18.75	-51.0	-66.4	3.6	1.51e+00	0	32	104	0	60	102286
2026-01-06 02:37:02.42	279.16	18.75	-51.0	-66.4	3.5	1.51e+00	0	32	104	0	60	102263
2026-01-06 02:37:03.44	279.41	18.75	-50.9	-66.5	3.6	1.51e+00	0	32	104	0	60	102955
2026-01-06 02:37:04.45	279.65	18.75	-50.9	-66.4	3.6	1.51e+00	0	32	104	0	60	102349
2026-01-06 02:37:05.46	279.89	18.74	-50.9	-66.4	3.6	1.51e+00	0	32	104	0	60	102460
2026-01-06 02:37:06.47	280.13	18.74	-50.9	-66.5	3.6	1.51e+00	0	32	104	0	60	102742
2026-01-06 02:37:07.48	280.38	18.74	-50.9	-66.4	3.6	1.51e+00	0	32	104	0	60	102365
2026-01-06 02:37:08.49	280.62	18.73	-50.9	-66.4	3.6	1.51e+00	0	32	104	0	60	102119
2026-01-06 02:37:09.50	280.86	18.73	-50.9	-66.5	3.6	1.51e+00	0	32	104	0	60	102545
2026-01-06 02:37:10.51	281.10	18.72	-50.9	-66.4	3.6	1.51e+00	0	32	104	0	60	102359
2026-01-06 02:37:11.52	281.34	18.72	-50.9	-66.4	3.6	1.51e+00	0	32	104	0	60	102201
2026-01-06 02:37:12.53	281.59	18.71	-50.9	-66.5	3.6	1.51e+00	0	32	104	0	60	102865
2026-01-06 02:37:13.55	281.83	18.71	-50.9	-66.4	3.6	1.51e+00	0	32	104	0	60	102379
2026-01-06 02:37:14.56	282.07	18.70	-50.9	-66.4	3.5	1.51e+00	0	32	104	0	60	101963
2026-01-06 02:37:15.57	282.31	18.69	-50.9	-66.4	3.6	1.51e+00	0	32	104	0	60	102216
2026-01-06 02:37:16.58	282.55	18.68	-50.9	-66.4	3.6	1.51e+00	0	32	104	0	60	102323
2026-01-06 02:37:17.59	282.80	18.67	-50.8	-66.5	3.5	1.51e+00	0	32	104	0	60	102706
2026-01-06 02:37:18.60	283.04	18.67	-50.8	-66.4	3.6	1.51e+00	0	32	104	0	60	102252
2026-01-06 02:37:19.61	283.28	18.66	-50.8	-66.5	3.6	1.51e+00	0	32	104	0	60	103014
2026-01-06 02:37:20.62	283.52	18.65	-50.8	-66.4	3.6	1.51e+00	0	32	104	0	60	102334
2026-01-06 02:37:21.63	283.76	18.64	-50.8	-66.4	3.6	1.51e+00	0	32	104	0	60	102426
2026-01-06 02:37:22.64	284.00	18.62	-50.8	-66.5	3.6	1.51e+00	0	32	104	0	60	102755
2026-01-06 02:37:23.65	284.24	18.61	-50.8	-66.4	3.6	1.51e+00	0	32	104	0	60	102195
2026-01-06 02:37:24.67	284.48	18.60	-50.8	-66.5	3.6	1.51e+00	0	32	104	0	60	102584
2026-01-06 02:37:25.68	284.72	18.59	-50.7	-66.4	3.6	1.51e+00	0	32	104	0	60	101840
2026-01-06 02:37:26.69	284.96	18.58	-50.7	-66.4	3.6	1.51e+00	0	32	104	0	60	102226
2026-01-06 02:37:27.70	285.20	18.56	-50.7	-66.4	3.6	1.51e+00	0	32	104	0	60	102422
2026-01-06 02:37:28.71	285.44	18.55	-50.8	-66.4	3.6	1.51e+00	0	32	104	0	60	102396
2026-01-06 02:37:29.72	285.68	18.53	-50.8	-66.4	3.6	1.51e+00	0	32	104	0	60	102371
2026-01-06 02:37:30.73	285.92	18.52	-50.9	-66.4	3.6	1.51e+00	0	32	104	0	60	102417
2026-01-06 02:37:31.74	286.16	18.50	-50.9	-66.4	3.6	1.51e+00	0	32	104	0	60	101750
2026-01-06 02:37:32.75	286.39	18.49	-50.9	-66.4	3.5	1.51e+00	0	32	104	0	60	102384
2026-01-06 02:37:33.76	286.63	18.47	-50.9	-66.4	3.6	1.51e+00	0	32	104	0	60	102163
2026-01-06 02:37:34.77	286.87	18.46	-50.9	-66.4	3.6	1.51e+00	0	32	104	0	60	102378
2026-01-06 02:37:35.79	287.11	18.44	-50.9	-66.4	3.6	1.51e+00	0	32	104	0	60	102050
2026-01-06 02:37:36.80	287.35	18.42	-50.9	-66.4	3.6	1.51e+00	0	32	104	0	60	102155
2026-01-06 02:37:37.81	287.58	18.40	-50.9	-66.5	3.6	1.51e+00	0	32	104	0	60	102561
2026-01-06 02:37:38.82	287.82	18.39	-50.9	-66.5	3.6	1.51e+00	0	32	104	0	60	102633
2026-01-06 02:37:39.83	288.06	18.37	-50.9	-66.4	3.6	1.51e+00	0	32	104	0	60	102216
2026-01-06 02:37:40.84	288.29	18.35	-50.9	-66.4	3.6	1.51e+00	0	32	104	0	60	102156
2026-01-06 02:37:41.85	288.53	18.33	-50.9	-66.4	3.6	1.51e+00	0	32	104	0	60	101971
2026-01-06 02:37:42.87	288.77	18.31	-50.9	-66.4	3.6	1.51e+00	0	32	104	0	60	102143
2026-01-06 02:37:43.87	289.00	18.29	-50.9	-66.4	3.6	1.51e+00	0	32	104	0	60	101918
2026-01-06 02:37:44.89	289.24	18.26	-50.9	-66.4	3.6	1.51e+00	0	32	104	0	60	101697
2026-01-06 02:37:45.89	289.47	18.24	-50.9	-66.4	3.6	1.51e+00	0	32	104	0	60	102249
2026-01-06 02:37:46.91	289.71	18.22	-50.9	-66.4	3.6	1.51e+00	0	32	104	0	60	101927
2026-01-06 02:37:47.92	289.94	18.20	-50.9	-66.4	3.6	1.51e+00	0	32	104	0	60	102191
2026-01-06 02:37:48.93	290.17	18.18	-50.9	-66.4	3.6	1.51e+00	0	32	104	0	60	101921
2026-01-06 02:37:49.94	290.41	18.15	-50.9	-66.4	3.6	1.51e+00	0	32	104	0	60	101678
2026-01-06 02:37:50.95	290.64	18.13	-50.8	-66.4	3.6	1.51e+00	0	32	104	0	60	101426
2026-01-06 02:37:51.96	290.87	18.10	-50.8	-66.4	3.6	1.51e+00	0	32	104	0	60	101364
2026-01-06 02:37:52.97	291.10	18.08	-50.8	-66.4	3.6	1.51e+00	0	32	104	0	60	102053
2026-01-06 02:37:53.98	291.33	18.05	-50.8	-66.4	3.6	1.51e+00	0	32	104	0	60	102079
2026-01-06 02:37:54.99	291.57	18.03	-50.8	-66.4	3.6	1.51e+00	0	32	104	0	60	101933
2026-01-06 02:37:56.00	291.80	18.00	-50.8	-66.4	3.6	1.51e+00	0	32	104	0	60	101483
2026-01-06 02:37:57.02	292.03	17.98	-50.8	-66.4	3.6	1.51e+00	0	32	104	0	60	101606
2026-01-06 02:37:58.03	292.26	17.95	-50.8	-66.4	3.6	1.51e+00	0	32	104	0	60	101768
2026-01-06 02:37:59.04	292.49	17.92	-50.8	-66.4	3.6	1.51e+00	0	32	104	0	60	101636
2026-01-06 02:38:00.05	292.72	17.89	-50.8	-66.3	3.6	1.51e+00	0	32	104	0	60	101100
2026-01-06 02:38:01.06	292.95	17.87	-50.7	-66.4	3.6	1.51e+00	0	32	104	0	60	101891
2026-01-06 02:38:02.07	293.18	17.84	-50.7	-66.4	3.6	1.51e+00	0	32	104	0	60	101677
2026-01-06 02:38:03.08	293.40	17.81	-50.8	-66.4	3.6	1.51e+00	0	32	104	0	60	101731
2026-01-06 02:38:04.09	293.63	17.78	-50.7	-66.4	3.6	1.51e+00	0	32	104	0	60	101954
2026-01-06 02:38:05.10	293.86	17.75	-50.7	-66.4	3.6	1.51e+00	0	32	104	0	60	101353
2026-01-06 02:38:06.11	294.09	17.72	-50.7	-66.4	3.6	1.51e+00	0	32	104	0	60	101379
2026-01-06 02:38:07.12	294.31	17.69	-50.7	-66.4	3.6	1.51e+00	0	32	104	0	60	101573
2026-01-06 02:38:08.13	294.54	17.66	-50.7	-66.3	3.6	1.51e+00	0	32	104	0	60	101264
2026-01-06 02:38:09.15	294.76	17.63	-50.7	-66.4	3.6	1.51e+00	0	32	104	0	60	101719
2026-01-06 02:38:10.16	294.99	17.60	-50.7	-66.4	3.6	1.51e+00	0	32	104	0	60	101702
2026-01-06 02:38:11.17	295.21	17.56	-50.7	-66.4	3.6	1.51e+00	0	32	104	0	60	101569
2026-01-06 02:38:12.18	295.44	17.53	-50.6	-66.4	3.6	1.51e+00	0	32	104	0	60	101824
2026-01-06 02:38:13.19	295.66	17.50	-50.6	-66.3	3.6	1.51e+00	0	32	104	0	60	101146
2026-01-06 02:38:14.20	295.88	17.47	-50.6	-66.4	3.6	1.51e+00	0	32	104	0	60	101844
2026-01-06 02:38:15.21	296.11	17.43	-50.6	-66.4	3.6	1.51e+00	0	32	104	0	60	102241
2026-01-06 02:38:16.22	296.33	17.40	-50.6	-66.4	3.6	1.51e+00	0	32	104	0	60	101496
2026-01-06 02:38:17.24	296.55	17.36	-50.6	-66.4	3.6	1.51e+00	0	32	104	0	60	101719
2026-01-06 02:38:18.24	296.77	17.33	-50.6	-66.4	3.6	1.51e+00	0	32	104	0	60	101933
2026-01-06 02:38:19.26	296.99	17.29	-50.6	-66.4	3.6	1.51e+00	0	32	104	0	60	101392
2026-01-06 02:38:20.27	297.21	17.26	-50.6	-66.4	3.6	1.51e+00	0	32	104	0	60	101852
2026-01-06 02:38:21.28	297.43	17.22	-50.6	-66.4	3.6	1.51e+00	0	32	104	0	60	101416
2026-01-06 02:38:22.29	297.65	17.19	-50.6	-66.4	3.6	1.51e+00	0	32	104	0	60	101980
2026-01-06 02:38:23.30	297.87	17.15	-50.6	-66.4	3.6	1.51e+00	0	32	104	0	60	101892
2026-01-06 02:38:24.31	298.09	17.12	-50.6	-66.4	3.6	1.51e+00	0	32	104	0	60	101487
2026-01-06 02:38:25.32	298.31	17.08	-50.6	-66.4	3.6	1.51e+00	0	32	104	0	60	101912
2026-01-06 02:38:26.33	298.52	17.04	-50.6	-66.3	3.6	1.51e+00	0	32	104	0	60	101167
2026-01-06 02:38:27.34	298.74	17.00	-50.6	-66.4	3.6	1.51e+00	0	32	104	0	60	102079
2026-01-06 02:38:28.35	298.96	16.97	-50.5	-66.4	3.6	1.51e+00	0	32	104	0	60	101629
2026-01-06 02:38:29.37	299.17	16.93	-50.5	-66.4	3.6	1.51e+00	0	32	104	0	60	101585
2026-01-06 02:38:30.37	299.39	16.89	-50.5	-66.3	3.6	1.51e+00	0	32	104	0	60	101287
2026-01-06 02:38:31.39	299.60	16.85	-50.5	-66.4	3.6	1.51e+00	0	32	104	0	60	101612
2026-01-06 02:38:32.40	299.82	16.81	-50.5	-66.3	3.6	1.51e+00	0	32	104	0	60	100999
2026-01-06 02:38:33.41	300.03	16.77	-50.5	-66.4	3.6	1.51e+00	0	32	104	0	60	101373
2026-01-06 02:38:34.42	300.24	16.73	-50.5	-66.4	3.6	1.51e+00	0	32	104	0	60	101411
2026-01-06 02:38:35.43	300.45	16.69	-50.4	-66.4	3.6	1.51e+00	0	32	104	0	60	101564
2026-01-06 02:38:36.44	300.67	16.65	-50.4	-66.4	3.6	1.51e+00	0	32	104	0	60	101625
2026-01-06 02:38:37.45	300.88	16.61	-50.4	-66.4	3.6	1.51e+00	0	32	104	0	60	101620
2026-01-06 02:38:38.46	301.09	16.57	-50.4	-66.4	3.6	1.51e+00	0	32	104	0	60	101387
2026-01-06 02:38:39.47	301.30	16.53	-50.5	-66.3	3.6	1.51e+00	0	32	104	0	60	100795
2026-01-06 02:38:40.48	301.51	16.48	-50.5	-66.4	3.6	1.51e+00	0	32	104	0	60	101471
2026-01-06 02:38:41.49	301.71	16.44	-50.5	-66.3	3.6	1.51e+00	0	32	104	0	60	101257
2026-01-06 02:38:42.50	301.92	16.40	-50.5	-66.3	3.6	1.51e+00	0	32	104	0	60	100896
2026-01-06 02:38:43.52	302.13	16.36	-50.5	-66.3	3.6	1.51e+00	0	32	104	0	60	101088
2026-01-06 02:38:44.53	302.34	16.32	-50.5	-66.3	3.6	1.51e+00	0	32	104	0	60	100940
2026-01-06 02:38:45.54	302.54	16.27	-50.5	-66.3	3.6	1.51e+00	0	32	104	0	60	101044
2026-01-06 02:38:46.55	302.75	16.23	-50.6	-66.4	3.6	1.51e+00	0	32	104	0	60	101560
2026-01-06 02:38:47.56	302.96	16.19	-50.6	-66.3	3.6	1.51e+00	0	32	104	0	60	101240
2026-01-06 02:38:48.57	303.16	16.14	-50.6	-66.3	3.6	1.51e+00	0	32	104	0	60	101091
2026-01-06 02:38:49.58	303.36	16.10	-50.6	-66.4	3.6	1.51e+00	0	32	104	0	60	101480
2026-01-06 02:38:50.59	303.57	16.05	-50.6	-66.3	3.6	1.51e+00	0	32	104	0	60	100994
2026-01-06 02:38:51.60	303.77	16.01	-50.7	-66.3	3.6	1.51e+00	0	32	104	0	60	100973
2026-01-06 02:38:52.61	303.97	15.96	-50.7	-66.3	3.6	1.51e+00	0	32	104	0	60	100725
2026-01-06 02:38:53.62	304.17	15.92	-50.7	-66.3	3.6	1.51e+00	0	32	104	0	60	101199
2026-01-06 02:38:54.63	304.38	15.87	-50.7	-66.3	3.6	1.51e+00	0	32	104	0	60	100728
2026-01-06 02:38:55.65	304.58	15.83	-50.7	-66.3	3.6	1.51e+00	0	32	104	0	60	101278
2026-01-06 02:38:56.66	304.78	15.78	-50.8	-66.3	3.6	1.51e+00	0	32	104	0	60	100896
2026-01-06 02:38:57.67	304.98	15.73	-50.8	-66.3	3.6	1.51e+00	0	32	104	0	60	101006
2026-01-06 02:38:58.68	305.18	15.69	-50.8	-66.3	3.6	1.51e+00	0	32	104	0	60	101107
2026-01-06 02:38:59.69	305.37	15.64	-50.8	-66.4	3.6	1.51e+00	0	32	104	0	60	101469
2026-01-06 02:39:00.70	305.57	15.59	-50.8	-66.3	3.6	1.51e+00	0	32	104	0	60	101164
2026-01-06 02:39:01.71	305.77	15.55	-50.8	-66.3	3.6	1.51e+00	0	32	104	0	60	100785
2026-01-06 02:39:02.72	305.96	15.50	-50.8	-66.4	3.6	1.51e+00	0	32	104	0	60	101589
2026-01-06 02:39:03.73	306.16	15.45	-50.9	-66.3	3.6	1.51e+00	0	32	104	0	60	101078
2026-01-06 02:39:04.74	306.35	15.41	-50.9	-66.3	3.6	1.51e+00	0	32	104	0	60	100591
2026-01-06 02:39:05.75	306.55	15.36	-50.9	-66.3	3.6	1.51e+00	0	32	104	0	60	100528
2026-01-06 02:39:06.77	306.74	15.31	-50.9	-66.3	3.6	1.51e+00	0	32	104	0	60	100777
2026-01-06 02:39:07.78	306.94	15.26	-50.9	-66.3	3.6	1.51e+00	0	32	104	0	60	100589
2026-01-06 02:39:08.79	307.13	15.21	-50.9	-66.3	3.6	1.51e+00	0	32	104	0	60	101181
2026-01-06 02:39:09.80	307.32	15.16	-50.9	-66.3	3.6	1.51e+00	0	32	104	0	60	100429
2026-01-06 02:39:10.81	307.51	15.11	-50.9	-66.3	3.6	1.51e+00	0	32	104	0	60	101064
2026-01-06 02:39:11.82	307.70	15.07	-50.9	-66.3	3.6	1.51e+00	0	32	104	0	60	100389
2026-01-06 02:39:12.83	307.89	15.02	-50.9	-66.3	3.6	1.51e+00	0	32	104	0	60	100459
2026-01-06 02:39:13.84	308.08	14.97	-50.9	-66.3	3.6	1.51e+00	0	32	104	0	60	100885
2026-01-06 02:39:14.86	308.27	14.92	-50.9	-66.3	3.6	1.51e+00	0	32	104	0	60	100726
2026-01-06 02:39:15.87	308.46	14.87	-50.9	-66.3	3.6	1.51e+00	0	32	104	0	60	100603
2026-01-06 02:39:16.88	308.65	14.82	-50.9	-66.3	3.6	1.51e+00	0	32	104	0	60	100769
2026-01-06 02:39:17.89	308.84	14.77	-50.9	-66.3	3.6	1.51e+00	0	32	104	0	60	100546
2026-01-06 02:39:18.90	309.02	14.72	-50.8	-66.3	3.6	1.51e+00	0	32	104	0	60	100797
2026-01-06 02:39:19.91	309.21	14.67	-50.8	-66.3	3.6	1.51e+00	0	32	104	0	60	100296
2026-01-06 02:39:20.92	309.39	14.61	-50.8	-66.3	3.6	1.51e+00	0	32	104	0	60	100469
2026-01-06 02:39:21.93	309.58	14.56	-50.8	-66.3	3.5	1.51e+00	0	32	104	0	60	100464
2026-01-06 02:39:22.94	309.76	14.51	-50.8	-66.3	3.6	1.51e+00	0	32	104	0	60	100624
2026-01-06 02:39:23.95	309.95	14.46	-50.8	-66.3	3.6	1.51e+00	0	32	104	0	60	100649
2026-01-06 02:39:24.96	310.13	14.41	-50.8	-66.2	3.6	1.51e+00	0	32	104	0	60	100083
2026-01-06 02:39:25.97	310.31	14.36	-50.8	-66.3	3.6	1.51e+00	0	32	104	0	60	100220
2026-01-06 02:39:26.99	310.49	14.31	-50.8	-66.3	3.6	1.51e+00	0	32	104	0	60	100264
2026-01-06 02:39:28.00	310.68	14.25	-50.8	-66.3	3.6	1.51e+00	0	32	104	0	60	100414
2026-01-06 02:39:29.01	310.86	14.20	-50.8	-66.3	3.6	1.51e+00	0	32	104	0	60	100170
2026-01-06 02:39:30.02	311.04	14.15	-50.8	-66.3	3.6	1.51e+00	0	32	104	0	60	100416
2026-01-06 02:39:31.03	311.21	14.10	-50.8	-66.2	3.6	1.51e+00	0	32	104	0	60	100095
2026-01-06 02:39:32.04	311.39	14.05	-50.8	-66.2	3.6	1.51e+00	0	32	104	0	60	99937
2026-01-06 02:39:33.05	311.57	13.99	-50.8	-66.2	3.6	1.51e+00	0	32	104	0	60	99938
2026-01-06 02:39:34.06	311.75	13.94	-50.7	-66.2	3.6	1.51e+00	0	32	104	0	60	99635
2026-01-06 02:39:35.07	311.92	13.89	-50.7	-66.2	3.6	1.51e+00	0	32	104	0	60	99861
2026-01-06 02:39:36.08	312.10	13.83	-50.7	-66.2	3.6	1.51e+00	0	32	104	0	60	99903
2026-01-06 02:39:37.10	312.28	13.78	-50.7	-66.2	3.5	1.51e+00	0	32	104	0	60	99933
2026-01-06 02:39:38.11	312.45	13.73	-50.7	-66.2	3.6	1.51e+00	0	32	104	0	60	99878
2026-01-06 02:39:39.12	312.63	13.67	-50.7	-66.2	3.6	1.51e+00	0	32	104	0	60	99528
2026-01-06 02:39:40.13	312.80	13.62	-50.7	-66.3	3.6	1.51e+00	0	32	104	0	60	100221
2026-01-06 02:39:41.14	312.97	13.57	-50.7	-66.2	3.6	1.51e+00	0	32	104	0	60	99748
2026-01-06 02:39:42.15	313.14	13.51	-50.7	-66.2	3.6	1.51e+00	0	32	104	0	60	99376
2026-01-06 02:39:43.16	313.32	13.46	-50.7	-66.2	3.6	1.51e+00	0	32	104	0	60	99358
2026-01-06 02:39:44.18	313.49	13.41	-50.7	-66.2	3.6	1.51e+00	0	32	104	0	60	99639
2026-01-06 02:39:45.19	313.66	13.35	-50.7	-66.2	3.6	1.51e+00	0	32	104	0	60	100019
2026-01-06 02:39:46.20	313.83	13.30	-50.7	-66.1	3.6	1.51e+00	0	32	104	0	60	98571
2026-01-06 02:39:47.21	314.00	13.24	-50.7	-66.1	3.6	1.51e+00	0	32	104	0	60	98954
2026-01-06 02:39:48.22	314.17	13.19	-50.7	-66.2	3.6	1.51e+00	0	32	104	0	60	99599
2026-01-06 02:39:49.23	314.34	13.13	-50.7	-66.2	3.6	1.51e+00	0	32	104	0	60	99051
2026-01-06 02:39:50.24	314.50	13.08	-50.7	-66.2	3.6	1.51e+00	0	32	104	0	60	99416
2026-01-06 02:39:51.25	314.67	13.02	-50.6	-66.2	3.6	1.51e+00	0	32	104	0	60	99328
2026-01-06 02:39:52.26	314.84	12.97	-50.6	-66.2	3.6	1.51e+00	0	32	104	0	60	99170
2026-01-06 02:39:53.27	315.00	12.92	-50.6	-66.2	3.6	1.51e+00	0	32	104	0	60	99153
2026-01-06 02:39:54.28	315.17	12.86	-50.6	-66.1	3.6	1.51e+00	0	32	104	0	60	98737
2026-01-06 02:39:55.29	315.33	12.81	-50.6	-66.2	3.6	1.51e+00	0	32	104	0	60	99084
2026-01-06 02:39:56.31	315.50	12.75	-50.6	-66.2	3.6	1.51e+00	0	32	104	0	60	99046
2026-01-06 02:39:57.32	315.66	12.69	-50.6	-66.1	3.6	1.51e+00	0	32	104	0	60	98893
2026-01-06 02:39:58.33	315.82	12.64	-50.6	-66.2	3.6	1.51e+00	0	32	104	0	60	99017
2026-01-06 02:39:59.34	315.98	12.58	-50.6	-66.2	3.6	1.51e+00	0	32	104	0	60	99252
2026-01-06 02:40:00.35	316.15	12.53	-50.6	-66.1	3.6	1.51e+00	0	32	104	0	60	98763
2026-01-06 02:40:01.36	316.31	12.47	-50.6	-66.1	3.6	1.51e+00	0	32	104	0	60	98384
2026-01-06 02:40:02.37	316.47	12.42	-50.6	-66.1	3.6	1.51e+00	0	32	104	0	60	98697
2026-01-06 02:40:03.38	316.63	12.36	-50.6	-66.1	3.6	1.51e+00	0	32	104	0	60	98726
2026-01-06 02:40:04.39	316.79	12.31	-50.6	-66.1	3.6	1.51e+00	0	32	104	0	60	98261
2026-01-06 02:40:05.40	316.94	12.25	-50.6	-66.1	3.6	1.51e+00	0	32	104	0	60	98655
2026-01-06 02:40:06.41	317.10	12.19	-50.6	-66.1	3.6	1.51e+00	0	32	104	0	60	98366
2026-01-06 02:40:07.42	317.26	12.14	-50.6	-66.1	3.6	1.51e+00	0	32	104	0	60	98648
2026-01-06 02:40:08.43	317.42	12.08	-50.6	-66.1	3.6	1.51e+00	0	32	104	0	60	98318
2026-01-06 02:40:09.45	317.57	12.03	-50.6	-66.1	3.6	1.51e+00	0	32	104	0	60	98505
2026-01-06 02:40:10.45	317.73	11.97	-50.6	-66.0	3.6	1.51e+00	0	32	104	0	60	97749
2026-01-06 02:40:11.47	317.88	11.91	-50.6	-66.1	3.6	1.51e+00	0	32	104	0	60	98447
2026-01-06 02:40:12.48	318.04	11.86	-50.6	-66.1	3.6	1.51e+00	0	32	104	0	60	98018
2026-01-06 02:40:13.49	318.19	11.80	-50.6	-66.1	3.6	1.51e+00	0	32	104	0	60	98129
2026-01-06 02:40:14.50	318.35	11.75	-50.6	-66.1	3.6	1.51e+00	0	32	104	0	60	98023
2026-01-06 02:40:15.51	318.50	11.69	-50.6	-66.1	3.6	1.51e+00	0	32	104	0	60	97985
2026-01-06 02:40:16.52	318.65	11.63	-50.6	-66.1	3.6	1.51e+00	0	32	104	0	60	98175
2026-01-06 02:40:17.53	318.80	11.58	-50.6	-66.1	3.6	1.51e+00	0	32	104	0	60	98038
2026-01-06 02:40:18.54	318.95	11.52	-50.6	-66.0	3.6	1.51e+00	0	32	104	0	60	97756
2026-01-06 02:40:19.55	319.10	11.46	-50.6	-66.0	3.6	1.51e+00	0	32	104	0	60	97499
2026-01-06 02:40:20.56	319.25	11.41	-50.6	-66.0	3.6	1.51e+00	0	32	104	0	60	97504
2026-01-06 02:40:21.57	319.40	11.35	-50.6	-66.0	3.6	1.51e+00	0	32	104	0	60	97451
2026-01-06 02:40:22.58	319.55	11.29	-50.6	-66.0	3.6	1.51e+00	0	32	104	0	60	97502
2026-01-06 02:40:23.59	319.70	11.24	-50.6	-65.9	3.6	1.51e+00	0	32	104	0	60	96494
2026-01-06 02:40:24.60	319.85	11.18	-50.6	-66.0	3.6	1.51e+00	0	32	104	0	60	97259
2026-01-06 02:40:25.61	320.00	11.12	-50.6	-66.1	3.6	1.51e+00	0	32	104	0	60	97955
2026-01-06 02:40:26.63	320.14	11.07	-50.6	-66.0	3.6	1.51e+00	0	32	104	0	60	96977
2026-01-06 02:40:27.64	320.29	11.01	-50.6	-66.0	3.6	1.51e+00	0	32	104	0	60	97042
2026-01-06 02:40:28.65	320.44	10.95	-50.6	-66.0	3.6	1.51e+00	0	32	104	0	60	97098
2026-01-06 02:40:29.66	320.58	10.90	-50.6	-66.0	3.6	1.51e+00	0	32	104	0	60	97061
2026-01-06 02:40:30.67	320.72	10.84	-50.6	-66.0	3.6	1.51e+00	0	32	104	0	60	96826
2026-01-06 02:40:31.68	320.87	10.78	-50.6	-66.0	3.6	1.51e+00	0	32	104	0	60	96961
2026-01-06 02:40:32.69	321.01	10.72	-50.5	-66.0	3.6	1.51e+00	0	32	104	0	60	96858
2026-01-06 02:40:33.70	321.15	10.67	-50.5	-65.9	3.6	1.51e+00	0	32	104	0	60	96648
2026-01-06 02:40:34.71	321.30	10.61	-50.5	-65.9	3.6	1.51e+00	0	32	104	0	60	96362
2026-01-06 02:40:35.73	321.44	10.55	-50.5	-65.9	3.6	1.51e+00	0	32	104	0	60	96623
2026-01-06 02:40:36.74	321.58	10.50	-50.5	-66.0	3.6	1.51e+00	0	32	104	0	60	97023
2026-01-06 02:40:37.75	321.72	10.44	-50.5	-65.9	3.6	1.51e+00	0	32	104	0	60	95625
2026-01-06 02:40:38.76	321.86	10.38	-50.5	-65.9	3.6	1.51e+00	0	32	104	0	60	96147
2026-01-06 02:40:39.77	322.00	10.32	-50.5	-65.9	3.6	1.51e+00	0	32	104	0	60	95837
2026-01-06 02:40:40.78	322.14	10.27	-50.5	-65.9	3.6	1.51e+00	0	32	104	0	60	95882
2026-01-06 02:40:41.79	322.28	10.21	-50.5	-65.9	3.6	1.51e+00	0	32	104	0	60	95862
2026-01-06 02:40:42.80	322.42	10.15	-50.5	-65.9	3.5	1.51e+00	0	32	104	0	60	96292
2026-01-06 02:40:43.81	322.55	10.10	-50.5	-65.9	3.6	1.51e+00	0	32	104	0	60	95684
2026-01-06 02:40:44.83	322.69	10.04	-50.5	-65.8	3.6	1.51e+00	0	32	104	0	60	95371
2026-01-06 02:40:45.84	322.83	9.98	-50.4	-65.8	3.6	1.51e+00	0	32	104	0	60	95534
2026-01-06 02:40:46.85	322.97	9.92	-50.4	-65.8	3.5	1.51e+00	0	32	104	0	60	95546
2026-01-06 02:40:47.86	323.10	9.87	-50.4	-65.8	3.6	1.51e+00	0	32	104	0	60	94798
2026-01-06 02:40:48.87	323.24	9.81	-50.4	-65.8	3.6	1.51e+00	0	32	104	0	60	94826
2026-01-06 02:40:49.88	323.37	9.75	-50.4	-65.8	3.6	1.51e+00	0	32	104	0	60	94963
2026-01-06 02:40:50.89	323.50	9.70	-50.4	-65.8	3.6	1.51e+00	0	32	104	0	60	94838
2026-01-06 02:40:51.90	323.64	9.64	-50.4	-65.8	3.6	1.51e+00	0	32	104	0	60	94730
2026-01-06 02:40:52.91	323.77	9.58	-50.4	-65.7	3.6	1.51e+00	0	32	104	0	60	94400
2026-01-06 02:40:53.93	323.90	9.52	-50.4	-65.7	3.6	1.51e+00	0	32	104	0	60	94307
2026-01-06 02:40:54.94	324.04	9.47	-50.3	-65.7	3.6	1.51e+00	0	32	104	0	60	94491
2026-01-06 02:40:55.95	324.17	9.41	-50.3	-65.7	3.6	1.51e+00	0	32	104	0	60	93968
2026-01-06 02:40:56.96	324.30	9.35	-50.3	-65.7	3.6	1.51e+00	0	32	104	0	60	93552
2026-01-06 02:40:57.97	324.43	9.29	-50.3	-65.7	3.6	1.51e+00	0	32	104	0	60	93848
2026-01-06 02:40:58.98	324.56	9.24	-50.3	-65.7	3.6	1.51e+00	0	32	104	0	60	94075
2026-01-06 02:40:59.99	324.69	9.18	-50.3	-65.6	3.6	1.51e+00	0	32	104	0	60	93150
2026-01-06 02:41:01.00	324.82	9.12	-50.3	-65.6	3.6	1.51e+00	0	32	104	0	60	93353
2026-01-06 02:41:02.01	324.95	9.07	-50.2	-65.6	3.6	1.51e+00	0	32	104	0	60	93095
2026-01-06 02:41:03.02	325.07	9.01	-50.2	-65.6	3.6	1.51e+00	0	32	104	0	60	92712
2026-01-06 02:41:04.04	325.20	8.95	-50.2	-65.6	3.6	1.51e+00	0	32	104	0	60	92657
2026-01-06 02:41:05.05	325.33	8.89	-50.2	-65.6	3.6	1.51e+00	0	32	104	0	60	92897
2026-01-06 02:41:06.06	325.46	8.84	-50.2	-65.6	3.6	1.51e+00	0	32	104	0	60	92548
2026-01-06 02:41:07.07	325.58	8.78	-50.2	-65.6	3.6	1.51e+00	0	32	104	0	60	92416
2026-01-06 02:41:08.08	325.71	8.72	-50.1	-65.5	3.6	1.51e+00	0	32	104	0	60	92016
2026-01-06 02:41:09.09	325.83	8.67	-50.1	-65.5	3.6	1.51e+00	0	32	104	0	60	91604
2026-01-06 02:41:10.10	325.96	8.61	-50.1	-65.5	3.6	1.51e+00	0	32	104	0	60	91515
2026-01-06 02:41:11.11	326.08	8.55	-50.1	-65.4	3.6	1.51e+00	0	32	104	0	60	91317
2026-01-06 02:41:12.12	326.21	8.50	-50.0	-65.4	3.6	1.51e+00	0	32	104	0	60	91318
2026-01-06 02:41:13.14	326.33	8.44	-50.0	-65.4	3.6	1.51e+00	0	32	104	0	60	91056
2026-01-06 02:41:14.15	326.45	8.38	-50.0	-65.4	3.6	1.51e+00	0	32	104	0	60	90997
2026-01-06 02:41:15.16	326.58	8.32	-50.0	-65.4	3.6	1.51e+00	0	32	104	0	60	90549
2026-01-06 02:41:16.17	326.70	8.27	-50.0	-65.4	3.6	1.51e+00	0	32	104	0	60	90363
2026-01-06 02:41:17.18	326.82	8.21	-49.9	-65.3	3.6	1.51e+00	0	32	104	0	60	90179
2026-01-06 02:41:18.19	326.94	8.15	-49.9	-65.3	3.6	1.51e+00	0	32	104	0	60	90146
2026-01-06 02:41:19.20	327.06	8.10	-49.9	-65.3	3.6	1.51e+00	0	32	104	0	60	89577
2026-01-06 02:41:20.21	327.18	8.04	-49.9	-65.3	3.6	1.51e+00	0	32	104	0	60	89470
2026-01-06 02:41:21.22	327.30	7.98	-49.8	-65.2	3.6	1.51e+00	0	32	104	0	60	89112
2026-01-06 02:41:22.23	327.42	7.93	-49.8	-65.2	3.6	1.51e+00	0	32	104	0	60	89106
2026-01-06 02:41:23.24	327.54	7.87	-49.8	-65.2	3.6	1.51e+00	0	32	104	0	60	88457
2026-01-06 02:41:24.26	327.66	7.81	-49.8	-65.2	3.6	1.51e+00	0	32	104	0	60	88276
2026-01-06 02:41:25.27	327.78	7.76	-49.7	-65.2	3.6	1.51e+00	0	32	104	0	60	88494
2026-01-06 02:41:26.28	327.89	7.70	-49.7	-65.1	3.6	1.51e+00	0	32	104	0	60	88045
2026-01-06 02:41:27.29	328.01	7.64	-49.7	-65.1	3.6	1.51e+00	0	32	104	0	60	87538
2026-01-06 02:41:28.30	328.13	7.59	-49.7	-65.0	3.6	1.51e+00	0	32	104	0	60	87190
2026-01-06 02:41:29.31	328.24	7.53	-49.6	-65.0	3.6	1.51e+00	0	32	104	0	60	86789
2026-01-06 02:41:30.32	328.36	7.47	-49.6	-65.0	3.6	1.51e+00	0	32	104	0	60	87011
2026-01-06 02:41:31.33	328.47	7.42	-49.6	-65.0	3.6	1.51e+00	0	32	104	0	60	86551
2026-01-06 02:41:32.34	328.59	7.36	-49.6	-65.0	3.6	1.51e+00	0	32	104	0	60	86597
2026-01-06 02:41:33.35	328.70	7.30	-49.5	-64.9	3.6	1.51e+00	0	32	104	0	60	85676
2026-01-06 02:41:34.36	328.82	7.25	-49.5	-64.9	3.6	1.51e+00	0	32	104	0	60	85783
2026-01-06 02:41:35.37	328.93	7.19	-49.5	-64.8	3.6	1.51e+00	0	32	104	0	60	85130
2026-01-06 02:41:36.38	329.04	7.13	-49.5	-64.8	3.6	1.51e+00	0	32	104	0	60	84643
2026-01-06 02:41:37.39	329.16	7.08	-49.4	-64.7	3.6	1.51e+00	0	32	104	0	60	84239
2026-01-06 02:41:38.40	329.27	7.02	-49.4	-64.7	3.6	1.51e+00	0	32	104	0	60	83824
2026-01-06 02:41:39.41	329.38	6.96	-49.5	-64.8	3.6	1.51e+00	0	32	104	0	60	85113
2026-01-06 02:41:40.42	329.49	6.91	-50.3	-65.7	3.6	1.51e+00	0	32	104	0	60	94077
2026-01-06 02:41:41.43	329.60	6.85	-50.7	-66.1	3.6	1.51e+00	0	32	104	0	60	98349
2026-01-06 02:41:42.44	329.71	6.80	-50.6	-66.0	3.6	1.51e+00	0	32	104	0	60	97193
2026-01-06 02:41:43.45	329.82	6.74	-50.7	-66.1	3.5	1.51e+00	0	32	104	0	60	98463
2026-01-06 02:41:44.47	329.93	6.68	-50.9	-66.3	3.6	1.51e+00	0	32	104	0	60	100344
2026-01-06 02:41:45.48	330.04	6.63	-50.9	-66.2	3.6	1.51e+00	0	32	104	0	60	100128
2026-01-06 02:41:46.49	330.15	6.57	-50.9	-66.3	3.6	1.51e+00	0	32	104	0	60	100366
2026-01-06 02:41:47.50	330.26	6.52	-50.9	-66.3	3.6	1.51e+00	0	32	104	0	60	100142
2026-01-06 02:41:48.51	330.37	6.46	-50.9	-66.3	3.6	1.51e+00	0	32	104	0	60	100516
2026-01-06 02:41:49.52	330.48	6.40	-50.9	-66.3	3.6	1.51e+00	0	32	104	0	60	100403
2026-01-06 02:41:50.53	330.59	6.35	-50.9	-66.3	3.6	1.51e+00	0	32	104	0	60	100695
2026-01-06 02:41:51.54	330.69	6.29	-50.9	-66.3	3.6	1.51e+00	0	32	104	0	60	100379
2026-01-06 02:41:52.55	330.80	6.24	-50.9	-66.2	3.6	1.51e+00	0	32	104	0	60	99903
2026-01-06 02:41:53.56	330.91	6.18	-50.8	-66.2	3.6	1.51e+00	0	32	104	0	60	99572
2026-01-06 02:41:54.57	331.01	6.12	-50.8	-66.2	3.6	1.51e+00	0	32	104	0	60	99977
2026-01-06 02:41:55.58	331.12	6.07	-50.8	-66.1	3.6	1.51e+00	0	32	104	0	60	98829
2026-01-06 02:41:56.59	331.22	6.01	-50.7	-66.1	3.6	1.51e+00	0	32	104	0	60	97956
2026-01-06 02:41:57.60	331.33	5.96	-50.6	-66.0	3.6	1.51e+00	0	32	104	0	60	97380
2026-01-06 02:41:58.62	331.43	5.90	-50.6	-65.9	3.6	1.51e+00	0	32	104	0	60	96575
2026-01-06 02:41:59.63	331.54	5.85	-50.4	-65.8	3.6	1.51e+00	0	32	104	0	60	95435
2026-01-06 02:42:00.64	331.64	5.79	-50.3	-65.6	3.6	1.51e+00	0	32	104	0	60	92941
2026-01-06 02:42:01.65	331.74	5.74	-45.0	-47.1	16.9	8.18e-01	5	32	104	0	60	11053
2026-01-06 02:42:02.66	331.85	5.68	-44.1	-45.9	18.6	0.00e+00	86	32	0	0	60	9602
2026-01-06 02:42:03.67	331.95	5.62	-49.3	-63.4	3.6	2.93e-01	0	32	104	1048576	60	72131
2026-01-06 02:42:04.68	332.05	5.57	-49.0	-63.0	3.6	1.51e+00	0	32	104	1048576	60	68882
2026-01-06 02:42:05.69	332.15	5.51	-43.9	-45.6	17.6	1.50e+00	0	32	104	1048576	60	9309
2026-01-06 02:42:06.70	332.25	5.46	-48.5	-55.0	8.1	1.22e-05	4	32	0	1048576	60	27390
2026-01-06 02:42:07.72	332.36	5.40	-45.4	-47.6	16.5	6.62e-02	13	32	0	1048576	60	11751
2026-01-06 02:42:08.73	332.46	5.35	-46.4	-49.3	15.1	1.14e-05	5	32	0	1048576	60	14260
2026-01-06 02:42:09.74	332.56	5.29	-46.2	-48.9	15.2	0.00e+00	8	32	0	1048576	60	13649
2026-01-06 02:42:10.75	332.66	5.24	-45.8	-48.5	15.3	0.00e+00	78	32	0	1048576	60	13022
2026-01-06 02:42:11.76	332.76	5.18	-45.3	-47.9	15.7	0.00e+00	0	32	0	1048576	60	12061
2026-01-06 02:42:12.77	332.86	5.13	-44.9	-47.6	15.5	0.00e+00	92	32	0	1048576	60	11660
2026-01-06 02:42:13.78	332.95	5.07	-45.3	-48.3	14.7	0.00e+00	81	32	0	1048576	60	12612
2026-01-06 02:42:14.79	333.05	5.02	-45.4	-48.9	13.4	3.80e-06	11	32	0	1048576	60	13534
2026-01-06 02:42:15.80	333.15	4.96	-45.6	-49.8	12.0	5.41e-05	0	32	0	1048576	60	15023
2026-01-06 02:42:16.81	333.25	4.91	-45.9	-50.7	10.8	1.62e-03	0	32	0	1048576	60	16756
2026-01-06 02:42:17.82	333.35	4.85	-46.1	-51.8	9.4	9.75e-03	0	32	0	1048576	60	18883
2026-01-06 02:42:18.84	333.44	4.80	-46.1	-52.6	8.1	3.09e-02	0	32	0	1048576	60	20698
2026-01-06 02:42:19.85	333.54	4.74	-46.2	-53.5	6.7	1.41e-01	92	32	0	1048576	60	23128
2026-01-06 02:42:20.86	333.64	4.69	-46.1	-54.4	5.4	2.91e-01	83	32	0	1048576	60	25579
2026-01-06 02:42:21.87	333.73	4.64	-46.1	-55.0	4.8	5.19e-01	92	32	0	1048576	60	27316
2026-01-06 02:42:22.88	333.83	4.58	-46.1	-55.7	4.3	8.68e-01	0	32	0	1048576	60	29715
2026-01-06 02:42:23.89	333.93	4.53	-46.0	-56.6	3.8	1.36e+00	0	32	0	1048576	60	33099
2026-01-06 02:42:24.90	334.02	4.47	-46.0	-58.6	3.8	1.47e+00	0	32	104	1048576	60	41397
2026-01-06 02:42:25.91	334.12	4.42	-45.9	-59.2	3.6	1.49e+00	0	32	104	1048576	60	44251
2026-01-06 02:42:26.92	334.21	4.36	-45.9	-59.7	3.6	1.51e+00	0	32	104	1048576	60	47062
2026-01-06 02:42:27.93	334.30	4.31	-45.9	-59.9	3.6	1.51e+00	0	32	104	1048576	60	48297
