passes_logs/2026/01/06/R4.6S_Anadyr_2ch/R4.6S_Anadyr_2ch__20260106_222332_TY-41_rec.log

#Pass ID: 20260106_222332_TY-41
#Satellite: TY-41
#Configuration: TY-39_900M
#almurnet v.1.7.20251203
#Start time: 2026-01-06 22:24:03

#Version: 2.2.20231116
#Station: R4.6S_Anadyr_2ch
#Location: 177.4865 lon 64.73178 lat
#TLE: 1 61231U 24173E   25350.69767361  .00008010  00000-0  38191-3 0 09994
#TLE: 2 61231 097.4116 061.2842 0001674 094.3615 204.6766 15.19171214 68043

#Time	Az	El	Level	Level2	SNR	BER	BlckErr	Temp	State	Recorded	gain1	gain2
2026-01-06 22:24:03.05	22.01	1.89	-51.5	-64.1	3.4	1.52e+00	0	29	0	0	60	76007
2026-01-06 22:24:04.05	22.08	1.96	-51.4	-53.9	6.1	0.00e+00	0	31	104	0	60	83233
2026-01-06 22:24:05.06	22.15	2.02	-51.5	-53.9	6.1	0.00e+00	0	31	104	0	60	83200
2026-01-06 22:24:06.07	22.21	2.09	-51.5	-54.0	6.1	0.00e+00	0	31	104	0	60	83337
2026-01-06 22:24:07.09	22.28	2.15	-51.5	-53.9	6.1	0.00e+00	0	31	104	0	60	83260
2026-01-06 22:24:08.10	22.35	2.22	-51.5	-53.9	6.1	0.00e+00	0	31	104	0	60	83201
2026-01-06 22:24:09.11	22.42	2.28	-51.5	-53.9	6.1	0.00e+00	0	31	104	0	60	82752
2026-01-06 22:24:10.12	22.49	2.35	-51.5	-53.9	6.1	0.00e+00	0	31	104	0	60	83094
2026-01-06 22:24:11.13	22.56	2.42	-51.5	-53.9	6.1	0.00e+00	0	31	104	0	60	83258
2026-01-06 22:24:12.09	22.63	2.48	-51.5	-54.0	6.1	0.00e+00	0	31	104	0	60	83588
2026-01-06 22:24:13.10	22.70	2.55	-51.5	-53.9	6.1	0.00e+00	0	31	104	0	60	83245
2026-01-06 22:24:14.11	22.77	2.61	-51.5	-53.9	6.1	0.00e+00	0	31	104	0	60	83053
2026-01-06 22:24:15.12	22.84	2.68	-51.5	-53.9	6.1	0.00e+00	0	31	104	0	60	83156
2026-01-06 22:24:16.13	22.92	2.75	-51.5	-53.9	6.1	0.00e+00	0	31	104	0	60	83207
2026-01-06 22:24:17.14	22.99	2.81	-51.5	-54.0	6.1	0.00e+00	0	31	104	0	60	83474
2026-01-06 22:24:18.15	23.06	2.88	-51.5	-54.0	6.1	0.00e+00	0	32	104	0	60	83309
2026-01-06 22:24:19.16	23.13	2.95	-51.5	-54.0	6.1	0.00e+00	0	31	104	0	60	83443
2026-01-06 22:24:20.17	23.21	3.02	-51.5	-53.9	6.1	0.00e+00	0	31	104	0	60	82719
2026-01-06 22:24:21.18	23.28	3.08	-51.5	-53.9	6.1	0.00e+00	0	31	104	0	60	83221
2026-01-06 22:24:22.19	23.36	3.15	-51.5	-54.0	6.1	0.00e+00	0	31	104	0	60	83299
2026-01-06 22:24:23.20	23.43	3.22	-51.5	-53.9	6.1	0.00e+00	0	31	104	0	60	83168
2026-01-06 22:24:24.21	23.51	3.29	-51.5	-54.0	6.1	0.00e+00	0	32	104	0	60	83308
2026-01-06 22:24:25.23	23.58	3.36	-51.5	-54.0	6.1	0.00e+00	0	32	104	0	60	83355
2026-01-06 22:24:26.24	23.66	3.43	-51.5	-54.0	6.1	0.00e+00	0	32	104	0	60	83532
2026-01-06 22:24:27.25	23.73	3.50	-51.5	-54.0	6.1	0.00e+00	0	32	104	0	60	83421
2026-01-06 22:24:28.26	23.81	3.57	-51.5	-54.0	6.1	0.00e+00	0	32	104	0	60	83591
2026-01-06 22:24:29.27	23.89	3.63	-51.5	-53.9	6.1	0.00e+00	0	32	104	0	60	83080
2026-01-06 22:24:30.28	23.97	3.70	-51.5	-54.0	6.1	0.00e+00	0	32	104	0	60	83685
2026-01-06 22:24:31.29	24.05	3.77	-51.5	-53.9	6.1	0.00e+00	0	32	104	0	60	83258
2026-01-06 22:24:32.30	24.12	3.84	-51.5	-54.0	6.1	0.00e+00	0	32	104	0	60	83515
2026-01-06 22:24:33.31	24.20	3.91	-51.5	-53.9	6.1	0.00e+00	0	32	104	0	60	83067
2026-01-06 22:24:34.32	24.28	3.99	-51.5	-53.9	6.1	0.00e+00	0	32	104	0	60	83200
2026-01-06 22:24:35.33	24.36	4.06	-51.5	-53.9	6.1	0.00e+00	0	32	104	0	60	83180
2026-01-06 22:24:36.34	24.44	4.13	-51.5	-53.9	6.1	0.00e+00	0	32	104	0	60	82937
2026-01-06 22:24:37.35	24.52	4.20	-51.5	-53.9	6.1	0.00e+00	0	32	104	0	60	83266
2026-01-06 22:24:38.36	24.61	4.27	-51.5	-54.0	6.1	0.00e+00	0	32	104	0	60	83467
2026-01-06 22:24:39.37	24.69	4.34	-51.5	-54.0	6.1	0.00e+00	0	32	104	0	60	83743
2026-01-06 22:24:40.38	24.77	4.41	-51.5	-54.0	6.1	0.00e+00	0	32	104	0	60	83410
2026-01-06 22:24:41.39	24.85	4.48	-51.5	-54.0	6.1	0.00e+00	0	32	104	0	60	83375
2026-01-06 22:24:42.40	24.94	4.56	-51.5	-53.9	6.1	0.00e+00	0	32	104	0	60	83261
2026-01-06 22:24:43.42	25.02	4.63	-51.5	-53.9	6.1	0.00e+00	0	32	104	0	60	83114
2026-01-06 22:24:44.43	25.11	4.70	-51.5	-53.9	6.1	0.00e+00	0	32	104	0	60	82867
2026-01-06 22:24:45.44	25.19	4.78	-51.5	-53.9	6.1	0.00e+00	0	32	104	0	60	83097
2026-01-06 22:24:46.45	25.28	4.85	-51.5	-53.9	6.1	0.00e+00	0	32	104	0	60	82798
2026-01-06 22:24:47.46	25.36	4.92	-51.5	-53.9	6.1	0.00e+00	0	32	104	0	60	82876
2026-01-06 22:24:48.47	25.45	5.00	-51.5	-53.9	6.1	0.00e+00	0	32	104	0	60	83047
2026-01-06 22:24:49.48	25.53	5.07	-51.5	-53.9	6.1	0.00e+00	0	32	104	0	60	83191
2026-01-06 22:24:50.49	25.62	5.14	-51.5	-53.9	6.1	0.00e+00	0	32	104	0	60	82716
2026-01-06 22:24:51.50	25.71	5.22	-51.5	-54.0	6.1	0.00e+00	0	32	104	0	60	83644
2026-01-06 22:24:52.51	25.80	5.29	-51.5	-53.9	6.1	0.00e+00	0	32	104	0	60	83124
2026-01-06 22:24:53.52	25.89	5.37	-51.5	-53.9	6.1	0.00e+00	0	32	104	0	60	82905
2026-01-06 22:24:54.53	25.98	5.44	-51.5	-53.9	6.1	0.00e+00	0	32	104	0	60	83057
2026-01-06 22:24:55.54	26.07	5.52	-51.5	-53.9	6.1	0.00e+00	0	32	104	0	60	82990
2026-01-06 22:24:56.56	26.16	5.59	-51.5	-53.9	6.1	0.00e+00	0	33	104	0	60	83102
2026-01-06 22:24:57.57	26.25	5.67	-51.5	-53.9	6.0	0.00e+00	0	33	104	0	60	82903
2026-01-06 22:24:58.58	26.34	5.74	-51.5	-53.9	6.1	0.00e+00	0	32	104	0	60	83220
2026-01-06 22:24:59.59	26.43	5.82	-51.5	-53.9	6.1	0.00e+00	0	32	104	0	60	83142
2026-01-06 22:25:00.60	26.53	5.90	-51.5	-53.9	6.1	0.00e+00	0	32	104	0	60	83087
2026-01-06 22:25:01.61	26.62	5.97	-51.5	-54.0	6.1	0.00e+00	0	33	104	0	60	83524
2026-01-06 22:25:02.62	26.72	6.05	-51.5	-53.9	6.1	0.00e+00	0	32	104	0	60	83237
2026-01-06 22:25:03.63	26.81	6.13	-51.5	-54.0	6.1	0.00e+00	0	32	104	0	60	83499
2026-01-06 22:25:04.64	26.91	6.20	-51.5	-54.0	6.1	0.00e+00	0	33	104	0	60	83636
2026-01-06 22:25:05.66	27.00	6.28	-51.5	-54.0	6.1	0.00e+00	0	32	104	0	60	83467
2026-01-06 22:25:06.67	27.10	6.36	-51.5	-53.9	6.1	0.00e+00	0	33	104	0	60	83259
2026-01-06 22:25:07.68	27.20	6.44	-51.5	-53.9	6.1	0.00e+00	0	32	104	0	60	83104
2026-01-06 22:25:08.69	27.29	6.52	-51.5	-53.9	6.1	0.00e+00	0	33	104	0	60	83042
2026-01-06 22:25:09.70	27.39	6.60	-51.5	-54.0	6.1	0.00e+00	0	32	104	0	60	83388
2026-01-06 22:25:10.71	27.49	6.67	-51.5	-53.9	6.1	0.00e+00	0	32	104	0	60	83055
2026-01-06 22:25:11.72	27.59	6.75	-51.5	-54.0	6.1	0.00e+00	0	32	104	0	60	83334
2026-01-06 22:25:12.73	27.69	6.83	-51.5	-53.9	6.1	0.00e+00	0	32	104	0	60	83009
2026-01-06 22:25:13.74	27.79	6.91	-51.5	-53.9	6.1	0.00e+00	0	33	104	0	60	83248
2026-01-06 22:25:14.75	27.89	6.99	-51.5	-54.0	6.1	0.00e+00	0	33	104	0	60	83429
2026-01-06 22:25:15.76	28.00	7.07	-51.5	-53.9	6.1	0.00e+00	0	32	104	0	60	83279
2026-01-06 22:25:16.77	28.10	7.15	-51.5	-53.9	6.1	0.00e+00	0	33	104	0	60	82921
2026-01-06 22:25:17.78	28.20	7.23	-51.5	-54.0	6.1	0.00e+00	0	33	104	0	60	83520
2026-01-06 22:25:18.79	28.31	7.31	-51.5	-53.9	6.1	0.00e+00	0	33	104	0	60	83102
2026-01-06 22:25:19.80	28.41	7.40	-51.5	-53.9	6.1	0.00e+00	0	33	104	0	60	83277
2026-01-06 22:25:20.81	28.52	7.48	-51.5	-54.0	6.1	0.00e+00	0	33	104	0	60	83328
2026-01-06 22:25:21.82	28.63	7.56	-51.5	-54.0	6.1	0.00e+00	0	33	104	0	60	83399
2026-01-06 22:25:22.84	28.73	7.64	-51.5	-53.9	6.1	0.00e+00	0	33	104	0	60	83094
2026-01-06 22:25:23.84	28.84	7.72	-51.5	-53.9	6.1	0.00e+00	0	33	104	0	60	83269
2026-01-06 22:25:24.86	28.95	7.81	-51.5	-54.0	6.1	0.00e+00	0	33	104	0	60	83369
2026-01-06 22:25:25.87	29.06	7.89	-51.5	-54.0	6.1	0.00e+00	0	33	104	0	60	83471
2026-01-06 22:25:26.88	29.17	7.97	-51.5	-53.9	6.1	0.00e+00	0	33	104	0	60	83212
2026-01-06 22:25:27.89	29.28	8.06	-51.5	-54.0	6.1	0.00e+00	0	33	104	0	60	83305
2026-01-06 22:25:28.90	29.39	8.14	-51.5	-53.9	6.1	0.00e+00	0	33	104	0	60	83173
2026-01-06 22:25:29.91	29.51	8.23	-51.5	-54.0	6.1	0.00e+00	0	33	104	0	60	83391
2026-01-06 22:25:30.92	29.62	8.31	-51.5	-53.9	6.1	0.00e+00	0	33	104	0	60	83261
2026-01-06 22:25:31.92	29.73	8.39	-51.5	-53.9	6.1	0.00e+00	0	33	104	0	60	83088
2026-01-06 22:25:32.94	29.85	8.48	-51.5	-54.0	6.1	0.00e+00	0	33	104	0	60	83301
2026-01-06 22:25:33.95	29.96	8.56	-51.5	-54.0	6.1	0.00e+00	0	33	104	0	60	83749
2026-01-06 22:25:34.96	30.08	8.65	-51.5	-53.9	6.1	0.00e+00	0	33	104	0	60	83197
2026-01-06 22:25:35.97	30.20	8.74	-51.5	-54.0	6.1	0.00e+00	0	33	104	0	60	83300
2026-01-06 22:25:36.98	30.31	8.82	-51.5	-53.9	6.1	0.00e+00	0	33	104	0	60	83155
2026-01-06 22:25:37.99	30.43	8.91	-51.5	-53.9	6.1	0.00e+00	0	33	104	0	60	83170
2026-01-06 22:25:39.00	30.55	9.00	-51.5	-54.0	6.1	0.00e+00	0	33	104	0	60	83363
2026-01-06 22:25:40.01	30.67	9.08	-51.5	-54.0	6.1	0.00e+00	0	33	104	0	60	83291
2026-01-06 22:25:41.02	30.79	9.17	-51.5	-54.0	6.1	0.00e+00	0	33	104	0	60	83424
2026-01-06 22:25:42.03	30.92	9.26	-51.5	-53.9	6.1	0.00e+00	0	33	104	0	60	83146
2026-01-06 22:25:43.04	31.04	9.35	-51.5	-54.0	6.1	0.00e+00	0	33	104	0	60	83326
2026-01-06 22:25:44.05	31.16	9.44	-51.5	-54.0	6.1	0.00e+00	0	33	104	0	60	83623
2026-01-06 22:25:45.06	31.29	9.52	-51.5	-54.0	6.1	0.00e+00	0	33	104	0	60	83553
2026-01-06 22:25:46.07	31.41	9.61	-51.5	-54.0	6.1	0.00e+00	0	33	104	0	60	83540
2026-01-06 22:25:47.08	31.54	9.70	-51.5	-53.9	6.1	0.00e+00	0	33	104	0	60	83135
2026-01-06 22:25:48.09	31.67	9.79	-51.5	-54.0	6.1	0.00e+00	0	33	104	0	60	83720
2026-01-06 22:25:49.10	31.80	9.88	-51.5	-54.0	6.1	0.00e+00	0	33	104	0	60	83453
2026-01-06 22:25:50.11	31.93	9.97	-51.5	-53.9	6.1	0.00e+00	0	33	104	0	60	83232
2026-01-06 22:25:51.12	32.06	10.06	-51.5	-54.0	6.1	0.00e+00	0	33	104	0	60	83291
2026-01-06 22:25:52.13	32.19	10.15	-51.5	-54.0	6.1	0.00e+00	0	33	104	0	60	83384
2026-01-06 22:25:53.15	32.32	10.25	-51.5	-54.0	6.1	0.00e+00	0	33	104	0	60	83374
2026-01-06 22:25:54.16	32.46	10.34	-51.5	-53.9	6.1	0.00e+00	0	33	104	0	60	83128
2026-01-06 22:25:55.17	32.59	10.43	-51.5	-53.9	6.1	0.00e+00	0	33	104	0	60	83173
2026-01-06 22:25:56.18	32.73	10.52	-51.5	-53.9	6.1	0.00e+00	0	33	104	0	60	83248
2026-01-06 22:25:57.19	32.86	10.62	-51.5	-54.0	6.1	0.00e+00	0	33	104	0	60	83783
2026-01-06 22:25:58.20	33.00	10.71	-51.5	-53.9	6.1	0.00e+00	0	33	104	0	60	83281
2026-01-06 22:25:59.21	33.14	10.80	-51.5	-53.9	6.1	0.00e+00	0	33	104	0	60	83220
2026-01-06 22:26:00.22	33.28	10.90	-51.5	-54.0	6.1	0.00e+00	0	33	104	0	60	83592
2026-01-06 22:26:01.23	33.42	10.99	-51.5	-53.9	6.1	0.00e+00	0	33	104	0	60	83276
2026-01-06 22:26:02.24	33.56	11.08	-51.5	-54.0	6.1	0.00e+00	0	33	104	0	60	83342
2026-01-06 22:26:03.25	33.70	11.18	-51.5	-54.0	6.1	0.00e+00	0	33	104	0	60	83387
2026-01-06 22:26:04.26	33.85	11.27	-51.5	-54.0	6.1	0.00e+00	0	33	104	0	60	83561
2026-01-06 22:26:05.28	33.99	11.37	-51.5	-53.9	6.1	0.00e+00	0	33	104	0	60	83013
2026-01-06 22:26:06.29	34.14	11.47	-51.5	-54.0	6.1	0.00e+00	0	33	104	0	60	83292
2026-01-06 22:26:07.30	34.28	11.56	-51.5	-54.0	6.1	0.00e+00	0	33	104	0	60	83783
2026-01-06 22:26:08.31	34.43	11.66	-51.5	-53.9	6.1	0.00e+00	0	33	104	0	60	82643
2026-01-06 22:26:09.31	34.58	11.75	-51.5	-54.0	6.1	0.00e+00	0	33	104	0	60	83435
2026-01-06 22:26:10.33	34.73	11.85	-51.5	-54.0	6.1	0.00e+00	0	33	104	0	60	83373
2026-01-06 22:26:11.34	34.88	11.95	-51.5	-53.9	6.1	0.00e+00	0	33	104	0	60	83161
2026-01-06 22:26:12.35	35.04	12.05	-51.5	-54.0	6.1	0.00e+00	0	33	104	0	60	83338
2026-01-06 22:26:13.36	35.19	12.15	-51.5	-53.9	6.1	0.00e+00	0	33	104	0	60	83074
2026-01-06 22:26:14.37	35.35	12.25	-51.5	-54.0	6.1	0.00e+00	0	33	104	0	60	83422
2026-01-06 22:26:15.38	35.50	12.34	-51.5	-54.0	6.1	0.00e+00	0	33	104	0	60	83610
2026-01-06 22:26:16.39	35.66	12.44	-51.5	-54.0	6.1	0.00e+00	0	33	104	0	60	83507
2026-01-06 22:26:17.40	35.82	12.54	-51.5	-53.9	6.1	0.00e+00	0	33	104	0	60	83131
2026-01-06 22:26:18.41	35.98	12.64	-51.5	-54.0	6.1	0.00e+00	0	33	104	0	60	83563
2026-01-06 22:26:19.42	36.14	12.74	-51.5	-54.0	6.1	0.00e+00	0	33	104	0	60	83397
2026-01-06 22:26:20.43	36.30	12.85	-51.5	-53.9	6.1	0.00e+00	0	33	104	0	60	83006
2026-01-06 22:26:21.44	36.47	12.95	-51.5	-53.9	6.1	0.00e+00	0	33	104	0	60	83143
2026-01-06 22:26:22.45	36.63	13.05	-51.5	-53.9	6.1	0.00e+00	0	33	104	0	60	83171
2026-01-06 22:26:23.46	36.80	13.15	-51.5	-54.0	6.1	0.00e+00	0	34	104	0	60	83341
2026-01-06 22:26:24.48	36.97	13.25	-51.5	-54.0	6.1	0.00e+00	0	33	104	0	60	83421
2026-01-06 22:26:25.49	37.14	13.36	-51.5	-53.9	6.1	0.00e+00	0	34	104	0	60	83241
2026-01-06 22:26:26.50	37.31	13.46	-51.5	-53.9	6.1	0.00e+00	0	33	104	0	60	83262
2026-01-06 22:26:27.51	37.48	13.56	-51.5	-53.9	6.1	0.00e+00	0	33	104	0	60	83183
2026-01-06 22:26:28.52	37.66	13.67	-51.5	-54.0	6.1	0.00e+00	0	34	104	0	60	83799
2026-01-06 22:26:29.53	37.83	13.77	-51.5	-54.0	6.1	0.00e+00	0	34	104	0	60	83716
2026-01-06 22:26:30.54	38.01	13.88	-51.5	-53.9	6.1	0.00e+00	0	34	104	0	60	83230
2026-01-06 22:26:31.55	38.19	13.98	-51.5	-53.9	6.1	0.00e+00	0	34	104	0	60	83264
2026-01-06 22:26:32.56	38.37	14.09	-51.5	-53.9	6.1	0.00e+00	0	34	104	0	60	83068
2026-01-06 22:26:33.57	38.55	14.19	-51.5	-53.9	6.1	0.00e+00	0	34	104	0	60	83234
2026-01-06 22:26:34.58	38.73	14.30	-51.5	-53.9	6.1	0.00e+00	0	34	104	0	60	82977
2026-01-06 22:26:35.59	38.91	14.40	-51.5	-54.0	6.1	0.00e+00	0	34	104	0	60	83526
2026-01-06 22:26:36.60	39.10	14.51	-51.5	-54.0	6.1	0.00e+00	0	34	104	0	60	83503
2026-01-06 22:26:37.61	39.29	14.62	-51.5	-54.0	6.0	0.00e+00	0	34	104	0	60	83460
2026-01-06 22:26:38.62	39.47	14.73	-51.5	-54.0	6.1	0.00e+00	0	34	104	0	60	83436
2026-01-06 22:26:39.63	39.66	14.83	-51.5	-54.0	6.1	0.00e+00	0	34	104	0	60	83354
2026-01-06 22:26:40.64	39.86	14.94	-51.5	-53.9	6.1	0.00e+00	0	34	104	0	60	83257
2026-01-06 22:26:41.65	40.05	15.05	-51.5	-54.0	6.1	0.00e+00	0	34	104	0	60	83475
2026-01-06 22:26:42.66	40.24	15.16	-51.5	-54.0	6.1	0.00e+00	0	34	104	0	60	83427
2026-01-06 22:26:43.68	40.44	15.27	-51.5	-54.0	6.1	0.00e+00	0	34	104	0	60	83745
2026-01-06 22:26:44.69	40.64	15.38	-51.5	-53.9	6.1	0.00e+00	0	34	104	0	60	83254
2026-01-06 22:26:45.70	40.84	15.49	-51.5	-54.0	6.1	0.00e+00	0	34	104	0	60	83359
2026-01-06 22:26:46.71	41.04	15.60	-51.5	-54.0	6.1	0.00e+00	0	34	104	0	60	83601
2026-01-06 22:26:47.72	41.25	15.71	-51.5	-54.0	6.1	0.00e+00	0	34	104	0	60	83522
2026-01-06 22:26:48.73	41.45	15.82	-51.5	-54.0	6.1	0.00e+00	0	34	104	0	60	83675
2026-01-06 22:26:49.74	41.66	15.93	-51.5	-54.0	6.1	0.00e+00	0	34	104	0	60	83563
2026-01-06 22:26:50.75	41.87	16.04	-51.5	-53.9	6.1	0.00e+00	0	34	104	0	60	83096
2026-01-06 22:26:51.76	42.08	16.16	-51.5	-54.0	6.1	0.00e+00	0	34	104	0	60	83640
2026-01-06 22:26:52.77	42.29	16.27	-51.5	-54.0	6.1	0.00e+00	0	34	104	0	60	83722
2026-01-06 22:26:53.78	42.50	16.38	-51.5	-53.9	6.1	0.00e+00	0	34	104	0	60	83277
2026-01-06 22:26:54.79	42.72	16.50	-51.5	-54.0	6.1	0.00e+00	0	34	104	0	60	83442
2026-01-06 22:26:55.80	42.94	16.61	-51.5	-54.0	6.1	0.00e+00	0	34	104	0	60	83682
2026-01-06 22:26:56.81	43.16	16.72	-51.5	-53.9	6.1	0.00e+00	0	34	104	0	60	83120
2026-01-06 22:26:57.82	43.38	16.84	-51.5	-54.0	6.1	0.00e+00	0	34	104	0	60	83366
2026-01-06 22:26:58.83	43.60	16.95	-51.5	-54.0	6.1	0.00e+00	0	34	104	0	60	83368
2026-01-06 22:26:59.84	43.83	17.07	-51.5	-54.0	6.1	0.00e+00	0	34	104	0	60	83357
2026-01-06 22:27:00.85	44.06	17.18	-51.5	-54.0	6.1	0.00e+00	0	34	104	0	60	83515
2026-01-06 22:27:01.86	44.28	17.30	-51.5	-54.0	6.1	0.00e+00	0	34	104	0	60	83597
2026-01-06 22:27:02.87	44.52	17.41	-51.5	-54.0	6.1	0.00e+00	0	34	104	0	60	83723
2026-01-06 22:27:03.88	44.75	17.53	-51.5	-54.0	6.1	0.00e+00	0	34	104	0	60	83491
2026-01-06 22:27:04.89	44.99	17.64	-51.5	-54.0	6.1	0.00e+00	0	34	104	0	60	83453
2026-01-06 22:27:05.90	45.22	17.76	-51.5	-53.9	6.1	0.00e+00	0	34	104	0	60	83230
2026-01-06 22:27:06.91	45.46	17.88	-51.5	-54.0	6.1	0.00e+00	0	34	104	0	60	83655
2026-01-06 22:27:07.92	45.70	18.00	-51.5	-54.0	6.1	0.00e+00	0	34	104	0	60	83583
2026-01-06 22:27:08.94	45.95	18.11	-51.5	-54.0	6.1	0.00e+00	0	34	104	0	60	83472
2026-01-06 22:27:09.94	46.19	18.23	-51.5	-53.9	6.1	0.00e+00	0	34	104	0	60	83000
2026-01-06 22:27:10.95	46.44	18.35	-51.5	-54.0	6.1	0.00e+00	0	34	104	0	60	83493
2026-01-06 22:27:11.97	46.70	18.47	-51.5	-53.9	6.1	0.00e+00	0	34	104	0	60	83144
2026-01-06 22:27:12.98	46.95	18.59	-51.5	-54.0	6.1	0.00e+00	0	34	104	0	60	83606
2026-01-06 22:27:13.99	47.20	18.70	-51.5	-54.0	6.1	0.00e+00	0	34	104	0	60	83449
2026-01-06 22:27:15.00	47.46	18.82	-51.5	-53.9	6.1	0.00e+00	0	34	104	0	60	83212
2026-01-06 22:27:16.01	47.72	18.94	-51.5	-54.0	6.1	0.00e+00	0	34	104	0	60	83689
2026-01-06 22:27:17.02	47.98	19.06	-51.5	-54.0	6.1	0.00e+00	0	34	104	0	60	83369
2026-01-06 22:27:18.03	48.25	19.18	-51.5	-54.0	6.0	0.00e+00	0	34	104	0	60	83377
2026-01-06 22:27:19.04	48.51	19.30	-51.5	-54.0	6.1	0.00e+00	0	34	104	0	60	83533
2026-01-06 22:27:20.05	48.78	19.42	-51.5	-54.0	6.1	0.00e+00	0	34	104	0	60	83347
2026-01-06 22:27:21.06	49.05	19.54	-51.5	-54.0	6.1	0.00e+00	0	34	104	0	60	83691
2026-01-06 22:27:22.07	49.33	19.66	-51.5	-54.0	6.1	0.00e+00	0	34	104	0	60	83400
2026-01-06 22:27:23.09	49.60	19.78	-51.5	-54.0	6.1	0.00e+00	0	34	104	0	60	83307
2026-01-06 22:27:24.09	49.88	19.90	-51.5	-53.9	6.1	0.00e+00	0	34	104	0	60	83135
2026-01-06 22:27:25.11	50.16	20.02	-51.5	-54.0	6.1	0.00e+00	0	34	104	0	60	83311
2026-01-06 22:27:26.12	50.45	20.14	-51.5	-54.0	6.1	0.00e+00	0	34	104	0	60	83620
2026-01-06 22:27:27.13	50.73	20.26	-51.5	-54.0	6.1	0.00e+00	0	34	104	0	60	83305
2026-01-06 22:27:28.14	51.02	20.39	-51.5	-54.0	6.1	0.00e+00	0	34	104	0	60	83569
2026-01-06 22:27:29.15	51.31	20.51	-51.5	-54.0	6.1	0.00e+00	0	34	104	0	60	83640
2026-01-06 22:27:30.16	51.61	20.63	-51.5	-54.0	6.1	0.00e+00	0	34	104	0	60	83444
2026-01-06 22:27:31.17	51.90	20.75	-51.5	-53.9	6.1	0.00e+00	0	34	104	0	60	83042
2026-01-06 22:27:32.18	52.20	20.87	-51.5	-54.0	6.1	0.00e+00	0	34	104	0	60	83599
2026-01-06 22:27:33.19	52.50	20.99	-51.5	-53.9	6.1	0.00e+00	0	34	104	0	60	83278
2026-01-06 22:27:34.20	52.81	21.11	-51.5	-54.0	6.1	0.00e+00	0	34	104	0	60	83399
2026-01-06 22:27:35.21	53.11	21.23	-51.5	-54.0	6.1	0.00e+00	0	34	104	0	60	83483
2026-01-06 22:27:36.22	53.42	21.35	-51.5	-54.0	6.1	0.00e+00	0	34	104	0	60	83592
2026-01-06 22:27:37.23	53.74	21.48	-51.5	-54.0	6.1	0.00e+00	0	34	104	0	60	83510
2026-01-06 22:27:38.25	54.05	21.60	-51.5	-54.0	6.1	0.00e+00	0	34	104	0	60	83811
2026-01-06 22:27:39.26	54.37	21.72	-51.5	-54.0	6.1	0.00e+00	0	34	104	0	60	83459
2026-01-06 22:27:40.27	54.69	21.84	-51.5	-53.9	6.1	0.00e+00	0	34	104	0	60	82794
2026-01-06 22:27:41.28	55.02	21.96	-51.5	-54.0	6.1	0.00e+00	0	34	104	0	60	83401
2026-01-06 22:27:42.29	55.34	22.08	-51.5	-54.0	6.1	0.00e+00	0	34	104	0	60	83402
2026-01-06 22:27:43.30	55.67	22.20	-51.5	-53.9	6.1	0.00e+00	0	34	104	0	60	83220
2026-01-06 22:27:44.30	56.00	22.32	-51.5	-54.0	6.1	0.00e+00	0	34	104	0	60	83366
2026-01-06 22:27:45.32	56.34	22.44	-51.5	-53.9	6.1	0.00e+00	0	34	104	0	60	82822
2026-01-06 22:27:46.33	56.67	22.56	-51.5	-53.9	6.1	0.00e+00	0	34	104	0	60	83183
2026-01-06 22:27:47.33	57.01	22.68	-51.5	-54.0	6.1	0.00e+00	0	34	104	0	60	83471
2026-01-06 22:27:48.34	57.35	22.80	-51.5	-54.0	6.1	0.00e+00	0	34	104	0	60	83292
2026-01-06 22:27:49.35	57.70	22.92	-51.5	-53.9	6.1	0.00e+00	0	34	104	0	60	83009
2026-01-06 22:27:50.36	58.05	23.04	-51.5	-53.9	6.1	0.00e+00	0	34	104	0	60	83269
2026-01-06 22:27:51.37	58.40	23.16	-51.5	-53.9	6.1	0.00e+00	0	34	104	0	60	82779
2026-01-06 22:27:52.38	58.76	23.27	-51.5	-54.0	6.1	0.00e+00	0	34	104	0	60	83371
2026-01-06 22:27:53.39	59.12	23.39	-51.5	-54.0	6.1	0.00e+00	0	34	104	0	60	83581
2026-01-06 22:27:54.40	59.48	23.51	-51.5	-54.0	6.1	0.00e+00	0	34	104	0	60	83514
2026-01-06 22:27:55.41	59.84	23.63	-51.5	-54.0	6.1	0.00e+00	0	34	104	0	60	83668
2026-01-06 22:27:56.42	60.21	23.74	-51.5	-53.9	6.0	0.00e+00	0	34	104	0	60	83230
2026-01-06 22:27:57.42	60.57	23.86	-51.5	-54.0	6.1	0.00e+00	0	34	104	0	60	83298
2026-01-06 22:27:58.43	60.95	23.97	-51.5	-54.0	6.1	0.00e+00	0	34	104	0	60	83636
2026-01-06 22:27:59.44	61.32	24.09	-51.5	-54.0	6.1	0.00e+00	0	34	104	0	60	83533
2026-01-06 22:28:00.45	61.70	24.20	-51.5	-54.0	6.1	0.00e+00	0	34	104	0	60	83318
2026-01-06 22:28:01.45	62.08	24.31	-51.5	-54.0	6.1	0.00e+00	0	34	104	0	60	83587
2026-01-06 22:28:02.47	62.47	24.43	-51.5	-54.0	6.1	0.00e+00	0	34	104	0	60	83413
2026-01-06 22:28:03.48	62.86	24.54	-51.5	-54.0	6.1	0.00e+00	0	34	104	0	60	83645
2026-01-06 22:28:04.49	63.25	24.65	-51.5	-53.9	6.1	0.00e+00	0	34	104	0	60	83167
2026-01-06 22:28:05.50	63.64	24.76	-51.5	-54.0	6.1	0.00e+00	0	34	104	0	60	83463
2026-01-06 22:28:06.51	64.04	24.87	-51.5	-54.0	6.1	0.00e+00	0	34	104	0	60	83421
2026-01-06 22:28:07.52	64.44	24.98	-51.5	-54.0	6.1	0.00e+00	0	34	104	0	60	83561
2026-01-06 22:28:08.53	64.84	25.09	-51.5	-54.0	6.1	0.00e+00	0	34	104	0	60	83408
2026-01-06 22:28:09.54	65.25	25.20	-51.5	-54.0	6.1	0.00e+00	0	34	104	0	60	83456
2026-01-06 22:28:10.55	65.66	25.31	-51.5	-53.9	6.1	0.00e+00	0	34	104	0	60	83210
2026-01-06 22:28:11.56	66.07	25.41	-51.5	-53.9	6.1	0.00e+00	0	34	104	0	60	83032
2026-01-06 22:28:12.58	66.49	25.52	-51.5	-53.9	6.1	0.00e+00	0	34	104	0	60	83010
2026-01-06 22:28:13.59	66.91	25.62	-51.5	-53.9	6.1	0.00e+00	0	34	104	0	60	83114
2026-01-06 22:28:14.60	67.33	25.73	-51.5	-54.0	6.1	0.00e+00	0	34	104	0	60	83584
2026-01-06 22:28:15.61	67.76	25.83	-51.5	-53.9	6.1	0.00e+00	0	34	104	0	60	83282
2026-01-06 22:28:16.62	68.19	25.93	-51.5	-54.0	6.1	0.00e+00	0	34	104	0	60	83567
2026-01-06 22:28:17.63	68.62	26.03	-51.5	-54.0	6.1	0.00e+00	0	34	104	0	60	83617
2026-01-06 22:28:18.64	69.05	26.13	-51.5	-54.0	6.1	0.00e+00	0	34	104	0	60	83556
2026-01-06 22:28:19.65	69.49	26.23	-51.5	-54.0	6.1	0.00e+00	0	34	104	0	60	83487
2026-01-06 22:28:20.66	69.93	26.32	-51.5	-53.9	6.1	0.00e+00	0	34	104	0	60	83202
2026-01-06 22:28:21.67	70.37	26.42	-51.5	-54.0	6.1	0.00e+00	0	34	104	0	60	83352
2026-01-06 22:28:22.68	70.81	26.51	-51.5	-54.0	6.1	0.00e+00	0	34	104	0	60	83299
2026-01-06 22:28:23.69	71.26	26.61	-51.5	-54.0	6.1	0.00e+00	0	34	104	0	60	83487
2026-01-06 22:28:24.70	71.71	26.70	-51.5	-54.0	6.1	0.00e+00	0	34	104	0	60	83339
2026-01-06 22:28:25.71	72.17	26.79	-51.5	-54.0	6.1	0.00e+00	0	34	104	0	60	83568
2026-01-06 22:28:26.73	72.63	26.88	-51.5	-54.0	6.1	0.00e+00	0	34	104	0	60	83354
2026-01-06 22:28:27.74	73.09	26.96	-51.5	-54.0	6.1	0.00e+00	0	34	104	0	60	83459
2026-01-06 22:28:28.75	73.55	27.05	-51.5	-54.0	6.1	0.00e+00	0	34	104	0	60	83343
2026-01-06 22:28:29.76	74.01	27.13	-51.5	-54.0	6.1	0.00e+00	0	34	104	0	60	83662
2026-01-06 22:28:30.77	74.48	27.22	-51.5	-53.9	6.1	0.00e+00	0	34	104	0	60	83113
2026-01-06 22:28:31.78	74.95	27.30	-51.5	-53.9	6.1	0.00e+00	0	34	104	0	60	83219
2026-01-06 22:28:32.79	75.42	27.38	-51.5	-53.9	6.1	0.00e+00	0	34	104	0	60	83212
2026-01-06 22:28:33.80	75.90	27.45	-51.5	-54.0	6.1	0.00e+00	0	34	104	0	60	83619
2026-01-06 22:28:34.81	76.38	27.53	-51.5	-54.0	6.1	0.00e+00	0	34	104	0	60	83490
2026-01-06 22:28:35.82	76.86	27.60	-51.5	-53.9	6.1	0.00e+00	0	34	104	0	60	83220
2026-01-06 22:28:36.83	77.34	27.68	-51.5	-54.0	6.1	0.00e+00	0	34	104	0	60	83721
2026-01-06 22:28:37.85	77.83	27.75	-51.5	-53.9	6.1	0.00e+00	0	34	104	0	60	83230
2026-01-06 22:28:38.86	78.32	27.82	-51.5	-54.0	6.1	0.00e+00	0	34	104	0	60	83526
2026-01-06 22:28:39.86	78.80	27.88	-51.5	-54.0	6.1	0.00e+00	0	34	104	0	60	83388
2026-01-06 22:28:40.87	79.29	27.95	-51.5	-53.9	6.1	0.00e+00	0	34	104	0	60	83266
2026-01-06 22:28:41.89	79.79	28.01	-51.5	-54.0	6.1	0.00e+00	0	34	104	0	60	83478
2026-01-06 22:28:42.90	80.29	28.07	-51.5	-53.9	6.1	0.00e+00	0	34	104	0	60	83265
2026-01-06 22:28:43.91	80.79	28.13	-51.5	-54.0	6.1	0.00e+00	0	34	104	0	60	83316
2026-01-06 22:28:44.92	81.29	28.19	-51.5	-54.0	6.1	0.00e+00	0	34	104	0	60	83542
2026-01-06 22:28:45.93	81.79	28.24	-51.5	-54.0	6.1	0.00e+00	0	34	104	0	60	83433
2026-01-06 22:28:46.94	82.29	28.30	-51.5	-54.0	6.1	0.00e+00	0	34	104	0	60	83552
2026-01-06 22:28:47.95	82.80	28.35	-51.5	-54.0	6.1	0.00e+00	0	34	104	0	60	83526
2026-01-06 22:28:48.96	83.30	28.40	-51.5	-53.9	6.1	0.00e+00	0	34	104	0	60	83138
2026-01-06 22:28:49.97	83.81	28.44	-51.5	-53.9	6.1	0.00e+00	0	34	104	0	60	83102
2026-01-06 22:28:50.98	84.32	28.49	-51.5	-54.0	6.1	0.00e+00	0	34	104	0	60	83478
2026-01-06 22:28:51.99	84.84	28.53	-51.5	-54.0	6.1	0.00e+00	0	34	104	0	60	83555
2026-01-06 22:28:53.01	85.35	28.57	-51.5	-53.9	6.1	0.00e+00	0	34	104	0	60	83179
2026-01-06 22:28:54.02	85.87	28.61	-51.5	-53.9	6.1	0.00e+00	0	34	104	0	60	83251
2026-01-06 22:28:55.03	86.38	28.64	-51.5	-54.0	6.1	0.00e+00	0	34	104	0	60	83821
2026-01-06 22:28:56.04	86.90	28.68	-51.5	-53.9	6.1	0.00e+00	0	34	104	0	60	83152
2026-01-06 22:28:57.05	87.42	28.71	-51.5	-54.0	6.1	0.00e+00	0	34	104	0	60	83873
2026-01-06 22:28:58.06	87.94	28.74	-51.5	-54.0	6.1	0.00e+00	0	34	104	0	60	83345
2026-01-06 22:28:59.07	88.46	28.76	-51.5	-54.0	6.1	0.00e+00	0	34	104	0	60	83365
2026-01-06 22:29:00.08	88.98	28.79	-51.5	-53.9	6.1	0.00e+00	0	34	104	0	60	83171
2026-01-06 22:29:01.09	89.50	28.81	-51.5	-53.9	6.1	0.00e+00	0	34	104	0	60	83172
2026-01-06 22:29:02.10	90.03	28.83	-51.6	-54.1	6.1	0.00e+00	0	34	104	0	60	84495
2026-01-06 22:29:03.11	90.55	28.84	-51.6	-54.1	6.1	0.00e+00	0	34	104	0	60	84699
2026-01-06 22:29:04.12	91.07	28.86	-51.6	-54.1	6.1	0.00e+00	0	34	104	0	60	85027
2026-01-06 22:29:05.13	91.60	28.87	-51.6	-54.1	6.1	0.00e+00	0	34	104	0	60	84690
2026-01-06 22:29:06.14	92.12	28.88	-51.7	-54.2	6.1	0.00e+00	0	34	104	0	60	85387
2026-01-06 22:29:07.15	92.65	28.89	-51.7	-54.1	6.1	0.00e+00	0	34	104	0	60	85109
2026-01-06 22:29:08.16	93.17	28.89	-51.7	-54.2	6.1	0.00e+00	0	34	104	0	60	85330
2026-01-06 22:29:09.17	93.70	28.89	-51.7	-54.2	6.1	0.00e+00	0	34	104	0	60	85442
2026-01-06 22:29:10.18	94.23	28.89	-51.4	-53.9	6.1	0.00e+00	0	34	104	0	60	82841
2026-01-06 22:29:11.20	94.76	28.89	-51.6	-54.1	6.1	0.00e+00	0	34	104	0	60	84660
2026-01-06 22:29:12.21	95.28	28.89	-51.6	-54.1	6.1	0.00e+00	0	34	104	0	60	84318
2026-01-06 22:29:13.22	95.81	28.88	-51.2	-53.7	6.1	0.00e+00	0	34	104	0	60	80596
2026-01-06 22:29:14.23	96.33	28.87	-51.4	-53.9	6.1	0.00e+00	0	34	104	0	60	82639
2026-01-06 22:29:15.24	96.86	28.86	-51.4	-53.8	6.1	0.00e+00	0	34	104	0	60	82149
2026-01-06 22:29:16.25	97.38	28.84	-51.2	-53.7	6.1	0.00e+00	0	34	104	0	60	80598
2026-01-06 22:29:17.26	97.90	28.82	-50.9	-53.4	6.1	0.00e+00	0	34	104	0	60	78470
2026-01-06 22:29:18.27	98.43	28.81	-50.1	-52.6	6.1	0.00e+00	0	34	104	0	60	70891
2026-01-06 22:29:19.28	98.95	28.78	-49.5	-52.0	6.1	0.00e+00	0	34	104	0	60	66394
2026-01-06 22:29:20.29	99.47	28.76	-49.5	-51.9	6.1	0.00e+00	0	34	104	0	60	65932
2026-01-06 22:29:21.30	99.99	28.73	-49.5	-52.0	6.1	0.00e+00	0	34	104	0	60	66319
2026-01-06 22:29:22.31	100.51	28.70	-49.5	-51.9	6.1	0.00e+00	0	34	104	0	60	66082
2026-01-06 22:29:23.32	101.03	28.67	-49.5	-51.9	6.1	0.00e+00	0	34	104	0	60	66132
2026-01-06 22:29:24.33	101.55	28.64	-49.5	-52.0	6.1	0.00e+00	0	34	104	0	60	66369
2026-01-06 22:29:25.34	102.06	28.60	-49.5	-52.0	6.1	0.00e+00	0	34	104	0	60	66394
2026-01-06 22:29:26.35	102.58	28.57	-49.5	-51.9	6.1	0.00e+00	0	34	104	0	60	66151
2026-01-06 22:29:27.36	103.09	28.53	-49.5	-51.9	6.1	0.00e+00	0	34	104	0	60	66034
2026-01-06 22:29:28.37	103.61	28.48	-49.5	-52.0	6.1	0.00e+00	0	34	104	0	60	66224
2026-01-06 22:29:29.38	104.12	28.44	-49.5	-51.9	6.1	0.00e+00	0	34	104	0	60	66023
2026-01-06 22:29:30.40	104.63	28.39	-49.5	-51.9	6.1	0.00e+00	0	34	104	0	60	65951
2026-01-06 22:29:31.41	105.14	28.34	-49.5	-52.0	6.1	0.00e+00	0	34	104	0	60	66429
2026-01-06 22:29:32.42	105.65	28.29	-49.5	-52.0	6.1	0.00e+00	0	34	104	0	60	66189
2026-01-06 22:29:33.43	106.15	28.24	-49.5	-51.9	6.1	0.00e+00	0	34	104	0	60	66137
2026-01-06 22:29:34.44	106.65	28.18	-49.5	-51.9	6.1	0.00e+00	0	34	104	0	60	65859
2026-01-06 22:29:35.45	107.15	28.12	-49.5	-51.9	6.1	0.00e+00	0	34	104	0	60	65980
2026-01-06 22:29:36.46	107.65	28.06	-49.5	-52.0	6.1	0.00e+00	0	34	104	0	60	66250
2026-01-06 22:29:37.47	108.15	28.00	-49.5	-52.0	6.1	0.00e+00	0	34	104	0	60	66260
2026-01-06 22:29:38.49	108.65	27.94	-49.5	-51.9	6.1	0.00e+00	0	34	104	0	60	66011
2026-01-06 22:29:39.50	109.14	27.87	-49.5	-52.0	6.1	0.00e+00	0	34	104	0	60	66175
2026-01-06 22:29:40.51	109.63	27.81	-49.5	-52.0	6.1	0.00e+00	0	34	104	0	60	66407
2026-01-06 22:29:41.52	110.12	27.74	-49.5	-51.9	6.1	0.00e+00	0	34	104	0	60	66140
2026-01-06 22:29:42.52	110.60	27.67	-49.5	-52.0	6.1	0.00e+00	0	34	104	0	60	66465
2026-01-06 22:29:43.53	111.08	27.59	-49.5	-51.9	6.1	0.00e+00	0	34	104	0	60	66098
2026-01-06 22:29:44.55	111.57	27.52	-49.5	-51.9	6.1	0.00e+00	0	34	104	0	60	66051
2026-01-06 22:29:45.56	112.05	27.44	-49.5	-51.9	6.1	0.00e+00	0	34	104	0	60	65451
2026-01-06 22:29:46.57	112.52	27.36	-49.5	-51.9	6.1	0.00e+00	0	34	104	0	60	66028
2026-01-06 22:29:47.58	113.00	27.28	-49.5	-52.0	6.1	0.00e+00	0	34	104	0	60	66222
2026-01-06 22:29:48.59	113.47	27.20	-49.5	-51.9	6.1	0.00e+00	0	34	104	0	60	65871
2026-01-06 22:29:49.60	113.94	27.12	-49.5	-51.9	6.1	0.00e+00	0	34	104	0	60	66045
2026-01-06 22:29:50.61	114.40	27.03	-49.5	-52.0	6.1	0.00e+00	0	34	104	0	60	66251
2026-01-06 22:29:51.62	114.87	26.95	-49.4	-51.9	6.1	0.00e+00	0	34	104	0	60	66001
2026-01-06 22:29:52.63	115.33	26.86	-49.5	-51.9	6.1	0.00e+00	0	34	104	0	60	65658
2026-01-06 22:29:53.64	115.78	26.77	-49.5	-52.0	6.1	0.00e+00	0	34	104	0	60	66271
2026-01-06 22:29:54.65	116.24	26.68	-49.4	-51.9	6.1	0.00e+00	0	34	104	0	60	66015
2026-01-06 22:29:55.67	116.69	26.59	-49.4	-51.8	6.1	0.00e+00	0	34	104	0	60	64734
2026-01-06 22:29:56.68	117.14	26.50	-49.2	-51.5	6.1	0.00e+00	0	34	104	0	60	63102
2026-01-06 22:29:57.69	117.59	26.40	-48.9	-51.1	6.1	0.00e+00	0	34	104	0	60	59692
2026-01-06 22:29:58.70	118.03	26.30	-48.4	-50.4	6.1	0.00e+00	0	34	104	0	60	55376
2026-01-06 22:29:59.71	118.47	26.21	-49.4	-51.9	6.1	0.00e+00	0	34	104	0	60	65956
2026-01-06 22:30:00.72	118.91	26.11	-48.2	-49.9	6.2	0.00e+00	0	34	104	0	60	52396
2026-01-06 22:30:01.73	119.35	26.01	-49.2	-51.7	6.1	0.00e+00	0	34	104	0	60	64009
2026-01-06 22:30:02.74	119.78	25.91	-49.6	-52.1	6.1	0.00e+00	0	34	104	0	60	67604
2026-01-06 22:30:03.75	120.21	25.81	-47.2	-48.7	6.4	0.00e+00	0	34	104	0	60	45561
2026-01-06 22:30:04.76	120.63	25.70	-47.6	-49.3	6.3	0.00e+00	0	34	104	0	60	48553
2026-01-06 22:30:05.77	121.06	25.60	-48.0	-49.7	6.2	0.00e+00	0	34	104	0	60	51268
2026-01-06 22:30:06.78	121.48	25.50	-47.8	-49.6	6.3	0.00e+00	0	34	104	0	60	50286
2026-01-06 22:30:07.79	121.89	25.39	-47.8	-49.5	6.3	0.00e+00	0	34	104	0	60	49816
2026-01-06 22:30:08.80	122.31	25.28	-47.7	-49.4	6.2	0.00e+00	0	34	104	0	60	49118
2026-01-06 22:30:09.81	122.72	25.17	-47.8	-49.5	6.2	0.00e+00	0	34	104	0	60	49998
2026-01-06 22:30:10.82	123.12	25.07	-47.4	-49.0	6.3	0.00e+00	0	34	104	0	60	46863
2026-01-06 22:30:11.83	123.53	24.96	-47.4	-49.0	6.4	0.00e+00	0	34	104	0	60	46920
2026-01-06 22:30:12.84	123.93	24.85	-47.6	-49.2	6.3	0.00e+00	0	34	104	0	60	48041
2026-01-06 22:30:13.86	124.33	24.73	-47.5	-49.1	6.4	0.00e+00	0	34	104	0	60	47701
2026-01-06 22:30:14.87	124.73	24.62	-47.2	-48.6	6.4	0.00e+00	0	34	104	0	60	45218
2026-01-06 22:30:15.87	125.12	24.51	-46.1	-47.2	7.0	0.00e+00	0	34	104	0	60	38306
2026-01-06 22:30:16.89	125.51	24.40	-45.2	-46.0	7.6	0.00e+00	0	34	104	0	60	33539
2026-01-06 22:30:17.90	125.90	24.28	-44.4	-45.1	8.1	0.00e+00	0	34	104	0	60	30155
2026-01-06 22:30:18.91	126.28	24.17	-44.0	-44.7	8.3	0.00e+00	0	34	104	0	60	28627
2026-01-06 22:30:19.92	126.66	24.05	-44.0	-44.6	8.3	0.00e+00	0	34	104	0	60	28490
2026-01-06 22:30:20.93	127.04	23.94	-43.8	-44.5	8.4	0.00e+00	0	34	104	0	60	27947
2026-01-06 22:30:21.94	127.41	23.82	-43.8	-43.4	8.5	0.00e+00	0	34	0	0	60	24671
2026-01-06 22:30:22.95	127.78	23.70	-43.7	-44.2	8.9	0.00e+00	0	34	104	0	60	27110
2026-01-06 22:30:23.96	128.15	23.59	-43.7	-44.3	8.7	0.00e+00	0	34	104	0	60	27400
2026-01-06 22:30:24.97	128.51	23.47	-43.6	-44.1	8.5	0.00e+00	0	34	104	0	60	26877
2026-01-06 22:30:25.98	128.88	23.35	-43.5	-42.8	8.8	0.00e+00	0	34	0	0	60	23199
2026-01-06 22:30:26.99	129.23	23.23	-43.5	-42.8	8.8	0.00e+00	0	34	0	0	60	23178
2026-01-06 22:30:28.01	129.59	23.11	-43.4	-42.7	8.8	0.00e+00	0	35	0	0	60	22761
2026-01-06 22:30:29.02	129.95	22.99	-43.6	-42.9	8.8	0.00e+00	0	34	0	0	60	23314
2026-01-06 22:30:30.03	130.30	22.87	-43.2	-42.6	8.9	0.00e+00	0	34	0	0	60	22418
2026-01-06 22:30:31.04	130.64	22.75	-43.2	-42.5	9.0	0.00e+00	0	35	0	0	60	22171
2026-01-06 22:30:32.05	130.99	22.63	-43.3	-42.6	8.9	0.00e+00	0	35	0	0	60	22609
2026-01-06 22:30:33.06	131.33	22.51	-43.4	-42.7	8.8	0.00e+00	0	34	0	0	60	22757
2026-01-06 22:30:34.07	131.67	22.39	-43.3	-42.6	8.9	0.00e+00	0	35	0	0	60	22446
2026-01-06 22:30:35.08	132.00	22.27	-43.4	-42.7	8.9	0.00e+00	0	35	0	0	60	22907
2026-01-06 22:30:36.09	132.34	22.15	-42.9	-42.3	9.0	0.00e+00	0	34	0	0	60	21669
2026-01-06 22:30:37.10	132.67	22.03	-43.1	-42.4	9.0	0.00e+00	0	34	0	0	60	21911
2026-01-06 22:30:38.11	132.99	21.91	-42.9	-42.2	9.1	0.00e+00	0	35	0	0	60	21554
2026-01-06 22:30:39.12	133.32	21.79	-42.9	-42.2	9.0	0.00e+00	0	35	0	0	60	21509
2026-01-06 22:30:40.13	133.64	21.67	-43.2	-42.5	8.9	0.00e+00	0	35	0	0	60	22306
2026-01-06 22:30:41.14	133.96	21.54	-42.9	-42.1	9.1	0.00e+00	0	35	0	0	60	21407
2026-01-06 22:30:42.15	134.27	21.42	-42.6	-41.9	9.1	0.00e+00	0	34	0	0	60	20735
2026-01-06 22:30:43.17	134.59	21.30	-42.7	-41.9	9.2	0.00e+00	0	34	0	0	60	20799
2026-01-06 22:30:44.18	134.90	21.18	-42.6	-41.9	9.2	0.00e+00	0	34	0	0	60	20727
2026-01-06 22:30:45.19	135.21	21.06	-42.7	-42.0	9.2	0.00e+00	0	35	0	0	60	21007
2026-01-06 22:30:46.20	135.51	20.93	-42.6	-41.9	9.2	0.00e+00	0	34	0	0	60	20737
2026-01-06 22:30:47.21	135.81	20.81	-42.6	-41.9	9.2	0.00e+00	0	34	0	0	60	20812
2026-01-06 22:30:48.22	136.11	20.69	-42.7	-42.0	9.2	0.00e+00	0	34	0	0	60	20933
2026-01-06 22:30:49.23	136.41	20.57	-42.7	-42.0	9.2	0.00e+00	0	35	0	0	60	20987
2026-01-06 22:30:50.24	136.70	20.45	-42.6	-41.9	9.2	0.00e+00	0	34	0	0	60	20693
2026-01-06 22:30:51.25	137.00	20.32	-42.7	-42.0	9.1	0.00e+00	0	34	0	0	60	20999
2026-01-06 22:30:52.26	137.29	20.20	-42.5	-41.7	9.3	0.00e+00	0	34	0	0	60	20343
2026-01-06 22:30:53.27	137.57	20.08	-42.5	-41.8	9.3	0.00e+00	0	34	0	0	60	20510
2026-01-06 22:30:54.28	137.86	19.96	-42.5	-41.7	9.3	0.00e+00	0	35	0	0	60	20421
2026-01-06 22:30:55.29	138.14	19.84	-42.6	-41.8	9.3	0.00e+00	0	35	0	0	60	20595
2026-01-06 22:30:56.30	138.42	19.72	-42.6	-41.9	9.2	0.00e+00	0	35	0	0	60	20682
2026-01-06 22:30:57.32	138.70	19.59	-42.5	-41.7	9.3	0.00e+00	0	35	0	0	60	20366
2026-01-06 22:30:58.33	138.97	19.47	-42.5	-41.7	9.3	0.00e+00	0	34	0	0	60	20362
2026-01-06 22:30:59.34	139.24	19.35	-42.7	-41.9	9.2	0.00e+00	0	35	0	0	60	20861
2026-01-06 22:31:00.35	139.51	19.23	-42.6	-41.9	9.3	0.00e+00	0	35	0	0	60	20783
2026-01-06 22:31:01.36	139.78	19.11	-42.5	-41.7	9.3	0.00e+00	0	34	0	0	60	20242
2026-01-06 22:31:02.37	140.04	18.99	-42.5	-41.8	9.3	0.00e+00	0	35	0	0	60	20507
2026-01-06 22:31:03.38	140.31	18.87	-42.5	-41.7	9.3	0.00e+00	0	35	0	0	60	20359
2026-01-06 22:31:04.39	140.57	18.75	-42.6	-41.8	9.3	0.00e+00	0	35	0	0	60	20597
2026-01-06 22:31:05.40	140.82	18.63	-42.6	-41.8	9.3	0.00e+00	0	34	0	0	60	20589
2026-01-06 22:31:06.41	141.08	18.51	-42.4	-41.7	9.3	0.00e+00	0	34	0	0	60	20251
2026-01-06 22:31:07.42	141.33	18.39	-42.5	-41.8	9.3	0.00e+00	0	35	0	0	60	20501
2026-01-06 22:31:08.43	141.58	18.27	-42.5	-41.8	9.2	0.00e+00	0	34	0	0	60	20563
2026-01-06 22:31:09.44	141.83	18.16	-42.5	-41.7	9.5	0.00e+00	0	34	0	0	60	20399
2026-01-06 22:31:10.45	142.08	18.04	-42.7	-42.0	9.4	0.00e+00	0	35	0	0	60	21053
2026-01-06 22:31:11.47	142.33	17.92	-42.5	-41.7	9.4	0.00e+00	0	35	0	0	60	20415
2026-01-06 22:31:12.48	142.57	17.80	-42.7	-42.0	9.4	0.00e+00	0	35	0	0	60	20926
2026-01-06 22:31:13.49	142.81	17.68	-42.7	-41.9	9.4	0.00e+00	0	35	0	0	60	20913
2026-01-06 22:31:14.50	143.05	17.57	-42.6	-41.8	9.4	0.00e+00	0	34	0	0	60	20670
2026-01-06 22:31:15.51	143.28	17.45	-42.7	-41.9	9.4	0.00e+00	0	35	0	0	60	20868
2026-01-06 22:31:16.52	143.52	17.33	-42.8	-42.0	9.3	0.00e+00	0	35	0	0	60	21014
2026-01-06 22:31:17.53	143.75	17.22	-42.9	-42.1	9.3	0.00e+00	0	34	0	0	60	21292
2026-01-06 22:31:18.54	143.98	17.10	-42.7	-41.9	9.4	0.00e+00	0	34	0	0	60	20871
2026-01-06 22:31:19.55	144.21	16.98	-42.5	-41.7	9.4	0.00e+00	0	35	0	0	60	20350
2026-01-06 22:31:20.56	144.43	16.87	-42.6	-41.9	9.4	0.00e+00	0	35	0	0	60	20721
2026-01-06 22:31:21.57	144.65	16.75	-42.4	-41.7	9.5	0.00e+00	0	35	0	0	60	20238
2026-01-06 22:31:22.59	144.88	16.64	-42.4	-41.6	9.5	0.00e+00	0	35	0	0	60	20196
2026-01-06 22:31:23.60	145.10	16.52	-42.5	-41.7	9.5	0.00e+00	0	34	0	0	60	20400
2026-01-06 22:31:24.61	145.32	16.41	-42.3	-41.6	9.5	0.00e+00	0	34	0	0	60	20085
2026-01-06 22:31:25.62	145.53	16.29	-42.4	-41.6	9.5	0.00e+00	0	34	0	0	60	20126
2026-01-06 22:31:26.63	145.75	16.18	-42.1	-41.4	9.6	0.00e+00	0	35	0	0	60	19552
2026-01-06 22:31:27.64	145.96	16.07	-42.3	-41.5	9.5	0.00e+00	0	35	0	0	60	19844
2026-01-06 22:31:28.65	146.17	15.95	-42.2	-41.4	9.6	0.00e+00	0	35	0	0	60	19588
2026-01-06 22:31:29.66	146.38	15.84	-42.0	-41.2	9.7	0.00e+00	0	35	0	0	60	19080
2026-01-06 22:31:30.67	146.59	15.73	-42.0	-41.2	9.6	0.00e+00	0	35	0	0	60	19232
2026-01-06 22:31:31.68	146.79	15.62	-41.9	-41.1	9.7	0.00e+00	0	35	0	0	60	18905
2026-01-06 22:31:32.69	147.00	15.51	-41.8	-41.0	9.7	0.00e+00	0	35	0	0	60	18696
2026-01-06 22:31:33.70	147.20	15.40	-42.0	-41.2	9.6	0.00e+00	0	35	0	0	60	19126
2026-01-06 22:31:34.71	147.40	15.28	-42.0	-41.2	9.7	0.00e+00	0	35	0	0	60	19130
2026-01-06 22:31:35.72	147.60	15.17	-42.0	-41.2	9.6	0.00e+00	0	34	0	0	60	19143
2026-01-06 22:31:36.74	147.80	15.06	-42.0	-41.2	9.7	0.00e+00	0	35	0	0	60	19084
2026-01-06 22:31:37.75	147.99	14.95	-41.9	-41.2	9.7	0.00e+00	0	35	0	0	60	19097
2026-01-06 22:31:38.76	148.18	14.84	-42.2	-41.4	9.6	0.00e+00	0	35	0	0	60	19655
2026-01-06 22:31:39.77	148.38	14.74	-42.2	-41.5	9.6	0.00e+00	0	35	0	0	60	19785
2026-01-06 22:31:40.78	148.57	14.63	-42.3	-41.5	9.5	0.00e+00	0	35	0	0	60	19851
2026-01-06 22:31:41.79	148.76	14.52	-42.1	-41.4	9.6	0.00e+00	0	35	0	0	60	19552
2026-01-06 22:31:42.80	148.94	14.41	-42.4	-41.6	9.5	0.00e+00	0	35	0	0	60	20053
2026-01-06 22:31:43.81	149.13	14.30	-42.5	-41.7	9.5	0.00e+00	0	34	0	0	60	20339
2026-01-06 22:31:44.82	149.31	14.20	-42.5	-41.8	9.5	0.00e+00	0	35	0	0	60	20494
2026-01-06 22:31:45.83	149.49	14.09	-42.6	-41.8	9.4	0.00e+00	0	35	0	0	60	20584
2026-01-06 22:31:46.84	149.68	13.98	-42.8	-42.0	9.4	0.00e+00	0	34	0	0	60	21080
2026-01-06 22:31:47.86	149.86	13.88	-42.8	-42.0	9.4	0.00e+00	0	34	0	0	60	21076
2026-01-06 22:31:48.87	150.04	13.77	-42.7	-42.0	9.4	0.00e+00	0	35	0	0	60	20921
2026-01-06 22:31:49.88	150.21	13.67	-42.9	-42.1	9.3	0.00e+00	0	34	0	0	60	21328
2026-01-06 22:31:50.89	150.39	13.56	-43.2	-42.4	9.3	0.00e+00	0	35	0	0	60	22114
2026-01-06 22:31:51.90	150.56	13.46	-42.8	-42.0	9.4	0.00e+00	0	34	0	0	60	21010
2026-01-06 22:31:52.91	150.73	13.35	-43.0	-42.2	9.4	0.00e+00	0	34	0	0	60	21546
2026-01-06 22:31:53.92	150.90	13.25	-43.1	-42.3	9.3	0.00e+00	0	35	0	0	60	21712
2026-01-06 22:31:54.93	151.07	13.15	-42.8	-42.0	9.4	0.00e+00	0	34	0	0	60	21152
2026-01-06 22:31:55.94	151.24	13.04	-43.0	-42.2	9.4	0.00e+00	0	35	0	0	60	21521
2026-01-06 22:31:56.95	151.41	12.94	-42.7	-42.0	9.4	0.00e+00	0	35	0	0	60	20958
2026-01-06 22:31:57.96	151.57	12.84	-42.9	-42.2	9.4	0.00e+00	0	35	0	0	60	21470
2026-01-06 22:31:58.98	151.74	12.74	-42.9	-42.1	9.4	0.00e+00	0	35	0	0	60	21324
2026-01-06 22:31:59.99	151.90	12.63	-42.7	-41.9	9.4	0.00e+00	0	35	0	0	60	20847
2026-01-06 22:32:01.00	152.06	12.53	-42.9	-42.2	9.4	0.00e+00	0	35	0	0	60	21431
2026-01-06 22:32:02.01	152.22	12.43	-42.8	-42.0	9.4	0.00e+00	0	35	0	0	60	21031
2026-01-06 22:32:03.02	152.38	12.33	-42.7	-41.9	9.4	0.00e+00	0	35	0	0	60	20792
2026-01-06 22:32:04.03	152.54	12.23	-42.7	-42.0	9.5	0.00e+00	0	35	0	0	60	20980
2026-01-06 22:32:05.04	152.70	12.13	-42.8	-42.0	9.5	0.00e+00	0	35	0	0	60	21073
2026-01-06 22:32:06.05	152.85	12.03	-42.7	-41.9	9.5	0.00e+00	0	35	0	0	60	20740
2026-01-06 22:32:07.06	153.01	11.93	-42.7	-41.9	9.5	0.00e+00	0	35	0	0	60	20781
2026-01-06 22:32:08.08	153.16	11.83	-42.6	-41.9	9.5	0.00e+00	0	35	0	0	60	20760
2026-01-06 22:32:09.09	153.31	11.74	-42.4	-41.6	9.6	0.00e+00	0	35	0	0	60	20024
2026-01-06 22:32:10.10	153.46	11.64	-42.2	-41.4	9.6	0.00e+00	0	35	0	0	60	19738
2026-01-06 22:32:11.11	153.61	11.54	-42.3	-41.5	9.6	0.00e+00	0	35	0	0	60	19908
2026-01-06 22:32:12.12	153.76	11.44	-42.0	-41.2	9.7	0.00e+00	0	35	0	0	60	19148
2026-01-06 22:32:13.13	153.91	11.35	-42.3	-41.5	9.6	0.00e+00	0	35	0	0	60	19791
2026-01-06 22:32:14.14	154.05	11.25	-41.9	-41.1	9.7	0.00e+00	0	35	0	0	60	18947
2026-01-06 22:32:15.15	154.20	11.16	-41.8	-41.0	9.7	0.00e+00	0	34	0	0	60	18743
2026-01-06 22:32:16.16	154.34	11.06	-41.8	-41.0	9.8	0.00e+00	0	35	0	0	60	18772
2026-01-06 22:32:17.18	154.48	10.96	-41.4	-40.6	9.8	0.00e+00	0	35	0	0	60	17946
2026-01-06 22:32:18.19	154.63	10.87	-41.6	-40.9	9.8	0.00e+00	0	34	0	0	60	18444
2026-01-06 22:32:19.20	154.77	10.77	-41.4	-40.6	9.8	0.00e+00	0	35	0	0	60	17967
2026-01-06 22:32:20.21	154.91	10.68	-41.3	-40.6	9.9	0.00e+00	0	35	0	0	60	17925
2026-01-06 22:32:21.22	155.04	10.59	-41.4	-40.7	9.9	0.00e+00	0	35	0	0	60	18091
2026-01-06 22:32:22.23	155.18	10.49	-41.6	-40.9	9.8	0.00e+00	0	35	0	0	60	18535
2026-01-06 22:32:23.24	155.32	10.40	-41.8	-41.0	9.8	0.00e+00	0	35	0	0	60	18677
2026-01-06 22:32:24.25	155.45	10.31	-42.1	-41.3	9.7	0.00e+00	0	35	0	0	60	19441
2026-01-06 22:32:25.26	155.59	10.21	-42.3	-41.6	9.6	0.00e+00	0	35	0	0	60	20048
2026-01-06 22:32:26.27	155.72	10.12	-42.3	-41.6	9.6	0.00e+00	0	35	0	0	60	19999
2026-01-06 22:32:27.28	155.85	10.03	-42.7	-41.9	9.6	0.00e+00	0	35	0	0	60	20832
2026-01-06 22:32:28.29	155.98	9.94	-42.8	-42.1	9.6	0.00e+00	0	35	0	0	60	21284
2026-01-06 22:32:29.30	156.11	9.85	-42.2	-41.5	9.8	0.00e+00	0	35	0	0	60	19764
2026-01-06 22:32:30.31	156.24	9.76	-42.6	-41.9	9.7	0.00e+00	0	35	0	0	60	20719
2026-01-06 22:32:31.32	156.37	9.67	-42.7	-41.9	9.6	0.00e+00	0	35	0	0	60	20823
2026-01-06 22:32:32.33	156.50	9.58	-42.6	-41.8	9.7	0.00e+00	0	35	0	0	60	20518
2026-01-06 22:32:33.34	156.63	9.49	-42.7	-41.9	9.6	0.00e+00	0	35	0	0	60	20784
2026-01-06 22:32:34.36	156.75	9.40	-42.6	-41.8	9.7	0.00e+00	0	35	0	0	60	20655
2026-01-06 22:32:35.36	156.88	9.31	-42.9	-42.1	9.6	0.00e+00	0	35	0	0	60	21299
2026-01-06 22:32:36.38	157.00	9.22	-42.8	-42.0	9.6	0.00e+00	0	35	0	0	60	21022
2026-01-06 22:32:37.39	157.12	9.13	-42.9	-42.2	9.6	0.00e+00	0	35	0	0	60	21464
2026-01-06 22:32:38.40	157.25	9.04	-43.2	-42.4	9.5	0.00e+00	0	35	0	0	60	22142
2026-01-06 22:32:39.40	157.37	8.95	-43.1	-42.4	9.5	0.00e+00	0	35	0	0	60	21967
2026-01-06 22:32:40.42	157.49	8.86	-43.1	-42.3	9.5	0.00e+00	0	35	0	0	60	21854
2026-01-06 22:32:41.42	157.60	8.78	-43.0	-42.2	9.6	0.00e+00	0	35	0	0	60	21500
2026-01-06 22:32:42.44	157.72	8.69	-43.1	-42.3	9.5	0.00e+00	0	35	0	0	60	21787
2026-01-06 22:32:43.45	157.84	8.60	-42.8	-42.1	9.6	0.00e+00	0	35	0	0	60	21293
2026-01-06 22:32:44.46	157.96	8.52	-42.7	-42.0	9.7	0.00e+00	0	35	0	0	60	20938
2026-01-06 22:32:45.47	158.08	8.43	-42.9	-42.1	9.6	0.00e+00	0	35	0	0	60	21238
2026-01-06 22:32:46.48	158.19	8.35	-42.5	-41.8	9.8	0.00e+00	0	35	0	0	60	20474
2026-01-06 22:32:47.49	158.30	8.26	-42.4	-41.6	9.8	0.00e+00	0	35	0	0	60	20101
2026-01-06 22:32:48.50	158.42	8.18	-42.3	-41.5	9.8	0.00e+00	0	35	0	0	60	19929
2026-01-06 22:32:49.51	158.53	8.09	-42.2	-41.4	9.8	0.00e+00	0	35	0	0	60	19679
2026-01-06 22:32:50.52	158.64	8.01	-42.2	-41.4	9.9	0.00e+00	0	35	0	0	60	19637
2026-01-06 22:32:51.53	158.75	7.92	-42.2	-41.4	9.8	0.00e+00	0	35	0	0	60	19679
2026-01-06 22:32:52.55	158.87	7.84	-42.3	-41.5	9.8	0.00e+00	0	35	0	0	60	19806
2026-01-06 22:32:53.56	158.98	7.75	-42.4	-41.6	9.8	0.00e+00	0	35	0	0	60	20057
2026-01-06 22:32:54.57	159.09	7.67	-42.3	-41.6	9.8	0.00e+00	0	35	0	0	60	20064
2026-01-06 22:32:55.58	159.19	7.59	-42.0	-41.2	10.0	0.00e+00	0	35	0	0	60	19183
2026-01-06 22:32:56.59	159.30	7.50	-42.2	-41.4	9.9	0.00e+00	0	35	0	0	60	19666
2026-01-06 22:32:57.60	159.41	7.42	-42.2	-41.4	9.9	0.00e+00	0	35	0	0	60	19651
2026-01-06 22:32:58.61	159.51	7.34	-42.1	-41.3	9.9	0.00e+00	0	35	0	0	60	19337
2026-01-06 22:32:59.62	159.62	7.26	-42.1	-41.3	9.9	0.00e+00	0	35	0	0	60	19433
2026-01-06 22:33:00.63	159.72	7.18	-42.0	-41.2	9.9	0.00e+00	0	35	0	0	60	19256
2026-01-06 22:33:01.65	159.83	7.09	-41.8	-41.0	10.0	0.00e+00	0	35	0	0	60	18733
2026-01-06 22:33:02.66	159.93	7.01	-41.8	-41.0	9.9	0.00e+00	0	35	0	0	60	18796
2026-01-06 22:33:03.67	160.04	6.93	-41.6	-40.8	10.1	0.00e+00	0	35	0	0	60	18304
2026-01-06 22:33:04.68	160.14	6.85	-41.8	-40.9	10.0	0.00e+00	0	35	0	0	60	18624
2026-01-06 22:33:05.69	160.24	6.77	-41.8	-40.9	10.0	0.00e+00	0	35	0	0	60	18639
2026-01-06 22:33:06.70	160.34	6.69	-42.0	-41.2	9.9	0.00e+00	0	35	0	0	60	19084
2026-01-06 22:33:07.71	160.44	6.61	-42.1	-41.3	9.9	0.00e+00	0	35	0	0	60	19354
2026-01-06 22:33:08.72	160.54	6.53	-42.3	-41.6	9.8	0.00e+00	0	35	0	0	60	19984
2026-01-06 22:33:09.73	160.64	6.45	-42.4	-41.6	9.8	0.00e+00	0	35	0	0	60	20141
2026-01-06 22:33:10.74	160.74	6.37	-42.6	-41.8	9.7	0.00e+00	0	35	0	0	60	20548
2026-01-06 22:33:11.75	160.83	6.29	-42.9	-42.1	9.6	0.00e+00	0	35	0	0	60	21264
2026-01-06 22:33:12.77	160.93	6.21	-42.8	-42.0	9.6	0.00e+00	0	34	0	0	60	21114
2026-01-06 22:33:13.78	161.03	6.14	-42.7	-41.9	9.6	0.00e+00	0	35	0	0	60	20916
2026-01-06 22:33:14.79	161.12	6.06	-43.0	-42.2	9.6	0.00e+00	0	35	0	0	60	21512
2026-01-06 22:33:15.80	161.22	5.98	-43.0	-42.2	9.5	0.00e+00	0	35	0	0	60	21646
2026-01-06 22:33:16.81	161.31	5.90	-43.0	-42.3	9.5	0.00e+00	0	35	0	0	60	21776
2026-01-06 22:33:17.82	161.40	5.83	-43.2	-42.4	9.4	0.00e+00	0	35	0	0	60	22105
2026-01-06 22:33:18.83	161.50	5.75	-43.3	-42.5	9.5	0.00e+00	0	35	0	0	60	22261
2026-01-06 22:33:19.84	161.59	5.67	-43.1	-42.3	9.5	0.00e+00	0	35	0	0	60	21800
2026-01-06 22:33:20.85	161.68	5.60	-43.1	-42.3	9.6	0.00e+00	0	35	0	0	60	21833
2026-01-06 22:33:21.86	161.77	5.52	-42.9	-42.1	9.6	0.00e+00	0	35	0	0	60	21179
2026-01-06 22:33:22.87	161.86	5.44	-42.6	-41.8	9.8	0.00e+00	0	35	0	0	60	20561
2026-01-06 22:33:23.89	161.96	5.37	-42.3	-41.4	9.9	0.00e+00	0	35	0	0	60	19702
2026-01-06 22:33:24.90	162.05	5.29	-42.0	-41.2	10.0	0.00e+00	0	35	0	0	60	19081
2026-01-06 22:33:25.91	162.13	5.22	-41.8	-41.0	10.1	0.00e+00	0	35	0	0	60	18670
2026-01-06 22:33:26.92	162.22	5.14	-41.6	-40.8	10.2	0.00e+00	0	35	0	0	60	18226
2026-01-06 22:33:27.93	162.31	5.07	-41.2	-40.3	10.3	0.00e+00	0	35	0	0	60	17399
2026-01-06 22:33:28.94	162.40	4.99	-41.3	-40.5	10.3	0.00e+00	0	34	0	0	60	17665
2026-01-06 22:33:29.95	162.49	4.92	-41.2	-40.3	10.3	0.00e+00	0	35	0	0	60	17399
2026-01-06 22:33:30.96	162.57	4.84	-41.3	-40.5	10.2	0.00e+00	0	35	0	0	60	17693
2026-01-06 22:33:31.97	162.66	4.77	-41.2	-40.3	10.3	0.00e+00	0	35	0	0	60	17316
2026-01-06 22:33:32.98	162.74	4.70	-41.1	-40.2	10.3	0.00e+00	0	35	0	0	60	17178
2026-01-06 22:33:34.00	162.83	4.62	-40.8	-39.9	10.4	0.00e+00	0	35	0	0	60	16543
2026-01-06 22:33:35.00	162.91	4.55	-41.0	-40.2	10.3	0.00e+00	0	35	0	0	60	17029
2026-01-06 22:33:36.02	163.00	4.48	-41.2	-40.3	10.3	0.00e+00	0	35	0	0	60	17342
2026-01-06 22:33:37.03	163.08	4.40	-41.1	-40.2	10.4	0.00e+00	0	35	0	0	60	17041
2026-01-06 22:33:38.04	163.16	4.33	-41.2	-40.4	10.3	0.00e+00	0	35	0	0	60	17531
2026-01-06 22:33:39.05	163.25	4.26	-41.6	-40.8	10.2	0.00e+00	0	34	0	0	60	18273
2026-01-06 22:33:40.06	163.33	4.19	-41.7	-40.9	10.1	0.00e+00	0	35	0	0	60	18568
2026-01-06 22:33:41.07	163.41	4.12	-42.1	-41.2	10.0	0.00e+00	0	34	0	0	60	19288
2026-01-06 22:33:42.08	163.49	4.04	-42.3	-41.6	9.9	0.00e+00	0	35	0	0	60	20019
2026-01-06 22:33:43.09	163.57	3.97	-42.6	-41.9	9.8	0.00e+00	0	35	0	0	60	20750
2026-01-06 22:33:44.10	163.65	3.90	-42.6	-41.8	9.8	0.00e+00	0	35	0	0	60	20676
2026-01-06 22:33:45.11	163.73	3.83	-43.0	-42.2	9.7	0.00e+00	0	35	0	0	60	21555
2026-01-06 22:33:46.13	163.81	3.76	-42.8	-42.0	9.8	0.00e+00	0	35	0	0	60	20961
2026-01-06 22:33:47.14	163.89	3.69	-42.9	-42.1	9.7	0.00e+00	0	35	0	0	60	21244
2026-01-06 22:33:48.15	163.97	3.62	-42.5	-41.7	9.9	0.00e+00	0	35	0	0	60	20420
2026-01-06 22:33:49.16	164.04	3.55	-42.4	-41.6	9.9	0.00e+00	0	35	0	0	60	20185
2026-01-06 22:33:50.17	164.12	3.48	-42.3	-41.5	9.9	0.00e+00	0	35	0	0	60	19870
2026-01-06 22:33:51.18	164.20	3.41	-42.3	-41.5	9.9	0.00e+00	0	35	0	0	60	19758
2026-01-06 22:33:52.19	164.27	3.34	-42.5	-41.6	9.8	0.00e+00	0	35	0	0	60	20201
2026-01-06 22:33:53.20	164.35	3.27	-42.3	-41.5	9.9	0.00e+00	0	35	0	0	60	19955
2026-01-06 22:33:54.21	164.43	3.20	-42.6	-41.9	9.8	0.00e+00	0	35	0	0	60	20718
2026-01-06 22:33:55.22	164.50	3.13	-42.5	-41.8	9.8	0.00e+00	0	35	0	0	60	20484
2026-01-06 22:33:56.24	164.58	3.06	-42.5	-41.7	9.8	0.00e+00	0	35	0	0	60	20328
2026-01-06 22:33:57.25	164.65	2.99	-42.7	-41.9	9.7	0.00e+00	0	35	0	0	60	20909
2026-01-06 22:33:58.26	164.72	2.92	-42.6	-41.8	9.8	0.00e+00	0	35	0	0	60	20596
2026-01-06 22:33:59.27	164.80	2.86	-42.6	-41.8	9.8	0.00e+00	0	35	0	0	60	20610
2026-01-06 22:34:00.28	164.87	2.79	-42.6	-41.8	9.8	0.00e+00	0	35	0	0	60	20605
2026-01-06 22:34:01.29	164.94	2.72	-42.6	-41.8	9.8	0.00e+00	0	35	0	0	60	20546
2026-01-06 22:34:02.30	165.01	2.65	-42.6	-41.8	9.8	0.00e+00	0	35	0	0	60	20617
2026-01-06 22:34:03.31	165.09	2.58	-42.9	-42.1	9.7	0.00e+00	0	35	0	0	60	21167
2026-01-06 22:34:04.32	165.16	2.52	-43.2	-42.4	9.5	0.00e+00	0	35	0	0	60	22048
2026-01-06 22:34:05.33	165.23	2.45	-43.3	-42.5	9.5	0.00e+00	0	35	0	0	60	22364
2026-01-06 22:34:06.34	165.30	2.38	-43.8	-43.1	9.2	0.00e+00	0	35	0	0	60	23883
2026-01-06 22:34:07.35	165.37	2.32	-44.1	-43.4	9.1	0.00e+00	0	35	0	0	60	24777
2026-01-06 22:34:08.37	165.44	2.25	-44.1	-43.4	9.1	0.00e+00	0	35	0	0	60	24840
2026-01-06 22:34:09.38	165.51	2.18	-44.1	-43.5	9.2	0.00e+00	0	35	0	0	60	24990
2026-01-06 22:34:10.39	165.58	2.12	-44.1	-43.5	9.1	0.00e+00	0	35	0	0	60	25011
2026-01-06 22:34:11.40	165.65	2.05	-44.2	-43.6	9.2	0.00e+00	0	35	0	0	60	25256
2026-01-06 22:34:12.41	165.72	1.98	-44.2	-43.5	9.2	0.00e+00	0	35	0	0	60	25017
2026-01-06 22:34:13.42	165.78	1.92	-44.0	-43.2	9.3	0.00e+00	0	35	0	0	60	24199
2026-01-06 22:34:14.43	165.85	1.85	-43.4	-42.6	9.6	0.00e+00	0	35	0	0	60	22598
2026-01-06 22:34:15.44	165.92	1.79	-43.0	-42.3	9.6	0.00e+00	0	35	0	0	60	21769
2026-01-06 22:34:16.45	165.98	1.72	-42.6	-41.8	9.8	0.00e+00	0	35	0	0	60	20676
2026-01-06 22:34:17.46	166.05	1.66	-42.5	-41.7	9.8	0.00e+00	0	35	0	0	60	20365
2026-01-06 22:34:18.47	166.12	1.59	-42.5	-41.7	9.9	0.00e+00	0	35	0	0	60	20222
2026-01-06 22:34:19.48	166.18	1.53	-42.2	-41.3	10.1	0.00e+00	0	35	0	0	60	19458
2026-01-06 22:34:20.50	166.25	1.46	-42.0	-41.2	10.2	0.00e+00	0	35	0	0	60	19128
2026-01-06 22:34:21.51	166.31	1.40	-41.6	-40.8	10.3	0.00e+00	0	35	0	0	60	18303
2026-01-06 22:34:22.52	166.38	1.33	-41.5	-40.7	10.3	0.00e+00	0	35	0	0	60	18165
2026-01-06 22:34:23.53	166.44	1.27	-41.3	-40.4	10.4	0.00e+00	0	35	0	0	60	17458
2026-01-06 22:34:24.54	166.51	1.21	-41.3	-40.4	10.4	0.00e+00	0	35	0	0	60	17533
2026-01-06 22:34:25.55	166.57	1.14	-41.5	-40.6	10.3	0.00e+00	0	35	0	0	60	17945
2026-01-06 22:34:26.56	166.63	1.08	-41.1	-40.3	10.5	0.00e+00	0	35	0	0	60	17237
2026-01-06 22:34:27.57	166.70	1.02	-41.4	-40.5	10.4	0.00e+00	0	35	0	0	60	17730
2026-01-06 22:34:28.58	166.76	0.95	-41.3	-40.4	10.4	0.00e+00	0	35	0	0	60	17501
2026-01-06 22:34:29.59	166.82	0.89	-41.2	-40.4	10.4	0.00e+00	0	35	0	0	60	17445
2026-01-06 22:34:30.60	166.89	0.83	-41.1	-40.2	10.5	0.00e+00	0	35	0	0	60	17146
2026-01-06 22:34:31.62	166.95	0.76	-41.2	-40.4	10.5	0.00e+00	0	35	0	0	60	17405
2026-01-06 22:34:32.63	167.01	0.70	-41.0	-40.2	10.5	0.00e+00	0	35	0	0	60	17033
2026-01-06 22:34:33.64	167.07	0.64	-41.0	-40.2	10.5	0.00e+00	0	35	0	0	60	17126
2026-01-06 22:34:34.65	167.13	0.58	-41.4	-40.6	10.4	0.00e+00	0	35	0	0	60	17898
2026-01-06 22:34:35.66	167.19	0.51	-41.5	-40.7	10.3	0.00e+00	0	35	0	0	60	18046
2026-01-06 22:34:36.67	167.25	0.45	-41.6	-40.8	10.3	0.00e+00	0	35	0	0	60	18320
2026-01-06 22:34:37.68	167.31	0.39	-41.4	-40.6	10.4	0.00e+00	0	35	0	0	60	17809
2026-01-06 22:34:38.69	167.37	0.33	-41.5	-40.6	10.3	0.00e+00	0	35	0	0	60	17949
2026-01-06 22:34:39.70	167.43	0.27	-41.2	-40.4	10.4	0.00e+00	0	35	0	0	60	17422
2026-01-06 22:34:40.71	167.49	0.21	-41.2	-40.4	10.4	0.00e+00	0	35	0	0	60	17505
2026-01-06 22:34:41.72	167.55	0.14	-41.1	-40.2	10.4	0.00e+00	0	35	0	0	60	17150
2026-01-06 22:34:42.73	167.61	0.08	-41.1	-40.3	10.4	0.00e+00	0	35	0	0	60	17243
2026-01-06 22:34:43.74	167.67	0.02	-41.3	-40.5	10.4	0.00e+00	0	35	0	0	60	17614
2026-01-06 22:34:44.75	167.72	-0.04	-41.5	-40.6	10.3	0.00e+00	0	35	0	0	60	17955
2026-01-06 22:34:45.76	167.78	-0.10	-41.6	-40.7	10.3	0.00e+00	0	35	0	0	60	18199
2026-01-06 22:34:46.78	167.84	-0.16	-41.2	-40.3	10.4	0.00e+00	0	35	0	0	60	17370

#Closed at: 2026-01-06 22:34:46
#Recorded file [0 MB]: D:/lorett/data/35034_260107_012403.dat