passes_logs/2026/01/06/R4.6S_Anadyr_2ch/R4.6S_Anadyr_2ch__20260106_202031_FENGYUN_3E_rec.log

#Pass ID: 20260106_202031_FENGYUN 3E
#Satellite: FENGYUN 3E
#Configuration: FENGYUN 3E
#almurnet v.1.7.20251203
#Start time: 2026-01-06 20:20:33

#Version: 2.2.20231116
#Station: R4.6S_Anadyr_2ch
#Location: 177.4865 lon 64.73178 lat
#TLE: 1 49008U 21062A   25350.97288215  .00000176  00000+0  10353-3 0  9997
#TLE: 2 49008  98.7477 351.4440 0000638 234.3856 125.7261 14.19881381230726

#Time	Az	El	Level	Level2	SNR	BER	BlckErr	Temp	State	Recorded	gain1	gain2
2026-01-06 20:20:33.61	24.39	0.15	-50.7	-68.5	3.5	3.02e+01	0	28	0	0	60	137977
2026-01-06 20:20:34.62	24.36	0.20	-50.8	-62.4	3.6	8.45e-01	0	30	104	0	60	64665
2026-01-06 20:20:35.63	24.32	0.26	-50.8	-62.3	3.6	8.46e-01	0	30	104	0	60	64249
2026-01-06 20:20:36.64	24.29	0.32	-50.8	-62.3	3.6	8.45e-01	0	30	104	0	60	64431
2026-01-06 20:20:37.65	24.26	0.38	-50.9	-62.4	3.6	8.45e-01	0	30	104	0	60	65029
2026-01-06 20:20:38.66	24.23	0.44	-50.9	-62.5	3.6	8.44e-01	0	30	104	0	60	65527
2026-01-06 20:20:39.67	24.20	0.50	-50.9	-62.5	3.6	8.45e-01	0	30	104	0	60	65519
2026-01-06 20:20:40.68	24.16	0.56	-50.8	-62.5	3.6	8.45e-01	0	30	104	0	60	65862
2026-01-06 20:20:41.69	24.13	0.62	-51.0	-62.5	3.6	8.44e-01	0	30	104	0	60	65988
2026-01-06 20:20:42.70	24.10	0.68	-51.0	-62.5	3.6	8.46e-01	0	30	104	0	60	65608
2026-01-06 20:20:43.71	24.07	0.74	-51.0	-62.6	3.6	8.45e-01	0	30	104	0	60	66289
2026-01-06 20:20:44.72	24.03	0.80	-50.7	-62.5	3.6	8.46e-01	0	30	104	0	60	65938
2026-01-06 20:20:45.73	24.00	0.86	-50.7	-62.5	3.6	8.45e-01	0	30	104	0	60	66007
2026-01-06 20:20:46.74	23.97	0.92	-50.8	-62.4	3.6	8.45e-01	0	30	104	0	60	64991
2026-01-06 20:20:47.75	23.93	0.98	-50.8	-62.3	3.6	8.46e-01	0	30	104	0	60	64346
2026-01-06 20:20:48.76	23.90	1.04	-50.7	-62.2	3.6	8.45e-01	0	30	104	0	60	63609
2026-01-06 20:20:49.77	23.87	1.10	-50.5	-62.1	3.6	8.46e-01	0	30	104	0	60	62640
2026-01-06 20:20:50.78	23.83	1.16	-50.0	-61.9	3.6	8.46e-01	0	30	104	0	60	61214
2026-01-06 20:20:51.79	23.80	1.22	-50.2	-61.7	3.6	8.47e-01	0	30	104	0	60	60100
2026-01-06 20:20:52.80	23.76	1.28	-49.9	-61.4	3.6	8.45e-01	0	30	104	0	60	57732
2026-01-06 20:20:53.81	23.73	1.34	-49.5	-60.9	3.6	8.45e-01	0	30	104	0	60	54887
2026-01-06 20:20:54.82	23.70	1.40	-49.5	-60.9	3.6	8.46e-01	0	30	104	0	60	54935
2026-01-06 20:20:55.84	23.66	1.46	-49.5	-61.0	3.6	8.46e-01	0	30	104	0	60	55160
2026-01-06 20:20:56.85	23.63	1.52	-49.5	-61.0	3.6	8.46e-01	0	30	104	0	60	55509
2026-01-06 20:20:57.86	23.59	1.59	-49.5	-60.9	3.6	8.45e-01	0	30	104	0	60	54949
2026-01-06 20:20:58.87	23.56	1.65	-49.5	-60.9	3.6	8.45e-01	0	30	104	0	60	54664
2026-01-06 20:20:59.88	23.52	1.71	-49.5	-60.9	3.6	8.47e-01	0	31	104	0	60	54727
2026-01-06 20:21:00.89	23.48	1.77	-49.5	-60.9	3.6	8.45e-01	0	30	104	0	60	54510
2026-01-06 20:21:01.90	23.45	1.83	-49.5	-60.9	3.6	8.46e-01	0	30	104	0	60	54918
2026-01-06 20:21:02.91	23.41	1.89	-49.5	-61.0	3.6	8.46e-01	0	31	104	0	60	55073
2026-01-06 20:21:03.92	23.38	1.96	-49.5	-61.0	3.6	8.47e-01	0	30	104	0	60	55340
2026-01-06 20:21:04.93	23.34	2.02	-49.5	-61.0	3.6	8.45e-01	0	31	104	0	60	55393
2026-01-06 20:21:05.94	23.30	2.08	-49.5	-60.9	3.6	8.46e-01	0	30	104	0	60	54873
2026-01-06 20:21:06.95	23.27	2.14	-49.5	-60.7	3.6	8.45e-01	0	31	104	0	60	53765
2026-01-06 20:21:07.96	23.23	2.21	-49.5	-60.6	3.6	8.45e-01	0	31	104	0	60	53017
2026-01-06 20:21:08.97	23.19	2.27	-49.4	-60.4	3.6	8.46e-01	0	31	104	0	60	51758
2026-01-06 20:21:09.98	23.16	2.33	-49.4	-60.4	3.6	8.45e-01	0	31	104	0	60	51611
2026-01-06 20:21:10.99	23.12	2.39	-49.4	-60.4	3.5	8.44e-01	0	31	104	0	60	51721
2026-01-06 20:21:12.00	23.08	2.46	-49.4	-60.6	3.6	8.46e-01	0	31	104	0	60	52938
2026-01-06 20:21:13.01	23.05	2.52	-49.5	-60.8	3.6	8.46e-01	0	31	104	0	60	54369
2026-01-06 20:21:14.02	23.01	2.58	-49.5	-60.9	3.6	8.44e-01	0	31	104	0	60	54843
2026-01-06 20:21:15.03	22.97	2.65	-49.5	-60.9	3.6	8.44e-01	0	31	104	0	60	55015
2026-01-06 20:21:16.04	22.93	2.71	-49.5	-61.0	3.6	8.44e-01	0	31	104	0	60	55129
2026-01-06 20:21:17.05	22.89	2.77	-49.5	-60.9	3.6	8.46e-01	0	31	104	0	60	54435
2026-01-06 20:21:18.06	22.85	2.84	-49.5	-60.7	3.6	8.45e-01	0	31	104	0	60	53759
2026-01-06 20:21:19.07	22.82	2.90	-49.5	-60.8	3.5	8.44e-01	0	31	104	0	60	53817
2026-01-06 20:21:20.07	22.78	2.96	-49.5	-60.6	3.6	8.45e-01	0	31	104	0	60	53119
2026-01-06 20:21:21.09	22.74	3.03	-49.4	-60.5	3.6	8.45e-01	0	31	104	0	60	52206
2026-01-06 20:21:22.10	22.70	3.09	-49.4	-60.1	3.6	8.46e-01	0	31	104	0	60	49906
2026-01-06 20:21:23.11	22.66	3.16	-49.4	-59.9	3.6	8.45e-01	0	31	104	0	60	48764
2026-01-06 20:21:24.12	22.62	3.22	-49.4	-60.0	3.6	8.45e-01	0	31	104	0	60	49278
2026-01-06 20:21:25.12	22.58	3.29	-49.4	-60.2	3.6	8.45e-01	0	31	104	0	60	50712
2026-01-06 20:21:26.13	22.54	3.35	-49.5	-60.9	3.6	8.45e-01	0	31	104	0	60	54450
2026-01-06 20:21:27.15	22.50	3.42	-49.5	-60.9	3.6	8.45e-01	0	31	104	0	60	54605
2026-01-06 20:21:28.16	22.46	3.48	-49.3	-59.6	3.6	8.46e-01	0	31	104	0	60	47119
2026-01-06 20:21:29.17	22.42	3.55	-49.0	-57.0	3.8	8.43e-01	0	31	104	0	60	35091
2026-01-06 20:21:30.18	22.38	3.61	-48.4	-53.6	5.6	7.24e-01	0	31	0	0	60	23680
2026-01-06 20:21:31.19	22.34	3.68	-47.8	-51.7	7.4	1.75e-01	0	31	102	1048576	60	18880
2026-01-06 20:21:32.20	22.30	3.74	-47.2	-50.5	8.8	5.15e-02	0	31	102	1048576	60	16547
2026-01-06 20:21:33.21	22.25	3.81	-46.7	-49.5	9.9	1.37e-02	0	31	102	1048576	60	14680
2026-01-06 20:21:34.22	22.21	3.88	-46.5	-49.2	10.3	6.90e-03	0	31	102	1048576	60	14218
2026-01-06 20:21:35.23	22.17	3.94	-47.0	-50.2	8.8	7.33e-03	0	31	102	1048576	60	15872
2026-01-06 20:21:36.23	22.13	4.01	-48.7	-55.2	8.0	7.68e-01	0	31	104	1048576	60	28446
2026-01-06 20:21:37.24	22.09	4.07	-38.5	-39.3	19.9	0.00e+00	0	31	0	1048576	56	5749
2026-01-06 20:21:38.25	22.04	4.14	-49.2	-58.3	3.6	8.45e-01	0	31	104	1048576	60	40599
2026-01-06 20:21:39.26	22.00	4.21	-46.0	-48.5	14.2	2.30e-01	0	31	104	1048576	60	13075
2026-01-06 20:21:40.27	21.96	4.27	-43.0	-44.5	15.8	0.00e+00	0	31	0	1048576	60	8242
2026-01-06 20:21:41.28	21.92	4.34	-40.1	-41.1	19.1	0.00e+00	0	31	0	1048576	60	5599
2026-01-06 20:21:42.30	21.87	4.41	-39.6	-40.5	19.6	0.00e+00	0	31	0	1048576	58	5877
2026-01-06 20:21:43.31	21.83	4.48	-38.4	-39.3	20.9	0.00e+00	0	31	0	1048576	56	5704
2026-01-06 20:21:44.32	21.79	4.54	-37.9	-38.7	21.1	0.00e+00	0	31	101	1048576	54	5966
2026-01-06 20:21:45.33	21.74	4.61	-37.8	-38.5	21.6	0.00e+00	0	31	101	1048576	54	5894
2026-01-06 20:21:46.33	21.70	4.68	-37.7	-38.5	21.5	0.00e+00	0	31	101	1048576	54	5850
2026-01-06 20:21:47.34	21.65	4.75	-37.5	-38.3	21.9	0.00e+00	0	31	101	1048576	54	5706
2026-01-06 20:21:48.35	21.61	4.81	-37.5	-38.3	21.8	0.00e+00	0	31	101	1048576	54	5732
2026-01-06 20:21:49.36	21.56	4.88	-37.9	-38.7	21.4	0.00e+00	0	31	101	1048576	54	5987
2026-01-06 20:21:50.37	21.52	4.95	-37.7	-38.4	21.6	0.00e+00	0	31	101	1048576	54	5817
2026-01-06 20:21:51.38	21.47	5.02	-37.8	-38.5	21.5	0.00e+00	0	31	101	1048576	54	5892
2026-01-06 20:21:52.39	21.43	5.09	-37.9	-38.7	21.4	0.00e+00	0	31	101	1048576	54	5991
2026-01-06 20:21:53.40	21.38	5.16	-37.5	-38.3	21.9	0.00e+00	0	31	101	1048576	54	5703
2026-01-06 20:21:54.41	21.34	5.23	-37.5	-38.2	21.8	0.00e+00	0	31	101	1048576	54	5681
2026-01-06 20:21:55.42	21.29	5.30	-37.2	-38.0	22.2	0.00e+00	0	31	101	1048576	54	5504
2026-01-06 20:21:56.43	21.24	5.37	-36.8	-37.5	22.6	0.00e+00	0	31	101	1048576	52	5896
2026-01-06 20:21:57.44	21.20	5.43	-36.9	-37.6	22.5	0.00e+00	0	31	101	1048576	52	5960
2026-01-06 20:21:58.45	21.15	5.50	-36.7	-37.4	22.7	0.00e+00	0	31	101	1048576	52	5819
2026-01-06 20:21:59.46	21.10	5.57	-36.8	-37.5	22.7	0.00e+00	0	31	101	1048576	52	5891
2026-01-06 20:22:00.47	21.05	5.64	-36.8	-37.5	22.6	0.00e+00	0	31	101	1048576	52	5860
2026-01-06 20:22:01.48	21.01	5.71	-36.5	-37.2	22.9	0.00e+00	0	31	101	1048576	52	5688
2026-01-06 20:22:02.49	20.96	5.78	-36.6	-37.3	22.9	0.00e+00	0	31	101	1048576	52	5716
2026-01-06 20:22:03.50	20.91	5.86	-36.6	-37.3	22.8	0.00e+00	0	31	101	1048576	52	5761
2026-01-06 20:22:04.51	20.86	5.93	-36.6	-37.4	22.9	0.00e+00	0	31	101	1048576	52	5763
2026-01-06 20:22:05.52	20.81	6.00	-36.7	-37.5	22.7	0.00e+00	0	31	101	1048576	52	5832
2026-01-06 20:22:06.53	20.76	6.07	-36.5	-37.3	23.0	0.00e+00	0	31	101	1048576	52	5704
2026-01-06 20:22:07.54	20.72	6.14	-36.8	-37.6	22.7	0.00e+00	0	31	101	1048576	52	5909
2026-01-06 20:22:08.55	20.67	6.21	-37.2	-37.9	22.4	0.00e+00	0	31	101	1048576	52	6153
2026-01-06 20:22:09.56	20.62	6.28	-36.7	-37.4	22.8	0.00e+00	0	31	101	1048576	52	5784
2026-01-06 20:22:10.57	20.57	6.35	-36.9	-37.6	22.6	0.00e+00	0	31	101	1048576	52	5944
2026-01-06 20:22:11.58	20.52	6.43	-36.9	-37.6	22.8	0.00e+00	0	31	101	1048576	52	5925
2026-01-06 20:22:12.59	20.47	6.50	-36.7	-37.4	22.9	0.00e+00	0	31	101	1048576	52	5815
2026-01-06 20:22:13.60	20.41	6.57	-36.4	-37.1	23.1	0.00e+00	0	31	101	1048576	52	5586
2026-01-06 20:22:14.61	20.36	6.64	-36.4	-37.2	23.0	0.00e+00	0	31	101	1048576	52	5635
2026-01-06 20:22:15.62	20.31	6.71	-36.5	-37.2	23.1	0.00e+00	0	31	101	1048576	52	5647
2026-01-06 20:22:16.63	20.26	6.79	-36.4	-37.1	23.2	0.00e+00	0	31	101	1048576	52	5613
2026-01-06 20:22:17.64	20.21	6.86	-36.3	-37.0	23.3	0.00e+00	0	31	101	1048576	52	5542
2026-01-06 20:22:18.65	20.16	6.93	-36.5	-37.2	23.2	0.00e+00	0	31	101	1048576	52	5648
2026-01-06 20:22:19.66	20.10	7.01	-36.2	-37.0	23.3	0.00e+00	0	31	101	1048576	52	5503
2026-01-06 20:22:20.66	20.05	7.08	-36.3	-37.0	23.3	0.00e+00	0	31	101	1048576	52	5544
2026-01-06 20:22:21.67	20.00	7.15	-36.4	-37.1	23.3	0.00e+00	0	31	101	1048576	52	5577
2026-01-06 20:22:22.68	19.94	7.23	-36.3	-37.0	23.3	0.00e+00	0	31	101	1048576	52	5560
2026-01-06 20:22:23.69	19.89	7.30	-36.4	-37.1	23.2	0.00e+00	0	31	101	1048576	52	5617
2026-01-06 20:22:24.70	19.84	7.38	-36.2	-36.9	23.5	0.00e+00	0	31	101	1048576	52	5500
2026-01-06 20:22:25.71	19.78	7.45	-36.2	-36.9	23.4	0.00e+00	0	31	101	1048576	52	5458
2026-01-06 20:22:26.72	19.73	7.53	-36.2	-36.9	23.5	0.00e+00	0	31	101	1048576	52	5493
2026-01-06 20:22:27.73	19.67	7.60	-36.2	-37.0	23.4	0.00e+00	0	31	101	1048576	52	5509
2026-01-06 20:22:28.74	19.62	7.67	-36.3	-37.0	23.4	0.00e+00	0	31	101	1048576	52	5510
2026-01-06 20:22:29.75	19.56	7.75	-36.2	-36.9	23.4	0.00e+00	0	31	101	1048576	52	5455
2026-01-06 20:22:30.76	19.51	7.83	-36.2	-36.9	23.5	0.00e+00	0	31	101	1048576	52	5464
2026-01-06 20:22:31.77	19.45	7.90	-36.3	-37.0	23.5	0.00e+00	0	31	101	1048576	52	5552
2026-01-06 20:22:32.78	19.39	7.98	-35.9	-36.6	23.7	0.00e+00	0	31	101	1048576	50	5921
2026-01-06 20:22:33.79	19.34	8.05	-35.9	-36.6	23.7	0.00e+00	0	31	101	1048576	50	5928
2026-01-06 20:22:34.79	19.28	8.13	-35.8	-36.5	23.9	0.00e+00	0	31	101	1048576	50	5843
2026-01-06 20:22:35.80	19.22	8.21	-35.9	-36.6	23.7	0.00e+00	0	31	101	1048576	50	5943
2026-01-06 20:22:36.81	19.17	8.28	-35.9	-36.6	23.8	0.00e+00	0	31	101	1048576	50	5932
2026-01-06 20:22:37.82	19.11	8.36	-35.9	-36.6	23.8	0.00e+00	0	31	101	1048576	50	5941
2026-01-06 20:22:38.83	19.05	8.44	-35.8	-36.5	23.9	0.00e+00	0	31	101	1048576	50	5871
2026-01-06 20:22:39.84	18.99	8.51	-35.8	-36.4	23.9	0.00e+00	0	31	101	1048576	50	5816
2026-01-06 20:22:40.85	18.93	8.59	-35.8	-36.5	23.9	0.00e+00	0	31	101	1048576	50	5869
2026-01-06 20:22:41.86	18.87	8.67	-35.8	-36.5	24.0	0.00e+00	0	31	101	1048576	50	5884
2026-01-06 20:22:42.87	18.81	8.75	-35.9	-36.6	23.8	0.00e+00	0	31	101	1048576	50	5938
2026-01-06 20:22:43.88	18.75	8.82	-35.9	-36.6	23.9	0.00e+00	0	31	101	1048576	50	5916
2026-01-06 20:22:44.89	18.69	8.90	-35.5	-36.2	24.2	0.00e+00	0	31	101	1048576	50	5656
2026-01-06 20:22:45.91	18.63	8.98	-35.7	-36.4	23.9	0.00e+00	0	31	101	1048576	50	5788
2026-01-06 20:22:46.92	18.57	9.06	-35.8	-36.5	24.0	0.00e+00	0	31	101	1048576	50	5860
2026-01-06 20:22:47.93	18.51	9.14	-35.6	-36.3	24.1	0.00e+00	0	31	101	1048576	50	5719
2026-01-06 20:22:48.94	18.45	9.22	-35.7	-36.4	24.0	0.00e+00	0	31	101	1048576	50	5775
2026-01-06 20:22:49.95	18.39	9.30	-35.8	-36.4	24.1	0.00e+00	0	31	101	1048576	50	5818
2026-01-06 20:22:50.96	18.32	9.38	-35.5	-36.2	24.3	0.00e+00	0	31	101	1048576	50	5659
2026-01-06 20:22:51.97	18.26	9.46	-35.7	-36.4	24.1	0.00e+00	0	31	101	1048576	50	5763
2026-01-06 20:22:52.97	18.20	9.54	-35.4	-36.1	24.3	0.00e+00	0	31	101	1048576	50	5608
2026-01-06 20:22:53.98	18.13	9.62	-35.6	-36.3	24.2	0.00e+00	0	31	101	1048576	50	5716
2026-01-06 20:22:54.99	18.07	9.70	-35.3	-36.0	24.5	0.00e+00	0	31	101	1048576	50	5523
2026-01-06 20:22:56.00	18.01	9.78	-35.4	-36.1	24.3	0.00e+00	0	31	101	1048576	50	5585
2026-01-06 20:22:57.01	17.94	9.86	-35.3	-36.0	24.5	0.00e+00	0	31	101	1048576	50	5511
2026-01-06 20:22:58.02	17.88	9.94	-35.3	-35.9	24.4	0.00e+00	0	31	101	1048576	50	5493
2026-01-06 20:22:59.03	17.81	10.02	-35.3	-36.0	24.4	0.00e+00	0	31	101	1048576	50	5541
2026-01-06 20:23:00.05	17.74	10.10	-35.3	-36.0	24.4	0.00e+00	0	31	101	1048576	50	5507
2026-01-06 20:23:01.06	17.68	10.19	-35.2	-35.9	24.6	0.00e+00	0	31	101	1048576	50	5447
2026-01-06 20:23:02.06	17.61	10.27	-35.3	-36.0	24.5	0.00e+00	0	31	101	1048576	50	5549
2026-01-06 20:23:03.07	17.54	10.35	-35.2	-35.9	24.5	0.00e+00	0	31	101	1048576	50	5472
2026-01-06 20:23:04.08	17.48	10.43	-35.5	-36.2	24.4	0.00e+00	0	31	101	1048576	50	5663
2026-01-06 20:23:05.09	17.41	10.51	-35.2	-35.9	24.6	0.00e+00	0	31	101	1048576	50	5486
2026-01-06 20:23:06.10	17.34	10.60	-35.3	-35.9	24.5	0.00e+00	0	31	101	1048576	50	5496
2026-01-06 20:23:07.11	17.27	10.68	-35.0	-35.7	24.6	0.00e+00	0	31	101	1048576	50	5331
2026-01-06 20:23:08.12	17.20	10.76	-35.2	-35.9	24.6	0.00e+00	0	31	101	1048576	48	6112
2026-01-06 20:23:09.13	17.13	10.85	-35.1	-35.8	24.7	0.00e+00	0	31	101	1048576	48	6036
2026-01-06 20:23:10.14	17.06	10.93	-35.1	-35.7	24.7	0.00e+00	0	31	101	1048576	48	6023
2026-01-06 20:23:11.15	16.99	11.02	-35.0	-35.7	24.8	0.00e+00	0	31	101	1048576	48	5984
2026-01-06 20:23:12.16	16.92	11.10	-35.1	-35.7	24.7	0.00e+00	0	31	101	1048576	48	6024
2026-01-06 20:23:13.17	16.85	11.19	-34.9	-35.6	24.9	0.00e+00	0	31	101	1048576	48	5919
2026-01-06 20:23:14.18	16.78	11.27	-35.0	-35.7	24.9	0.00e+00	0	31	101	1048576	48	5974
2026-01-06 20:23:15.19	16.71	11.36	-35.0	-35.7	24.8	0.00e+00	0	31	101	1048576	48	5975
2026-01-06 20:23:16.20	16.64	11.44	-34.8	-35.5	25.0	0.00e+00	0	31	101	1048576	48	5853
2026-01-06 20:23:17.21	16.56	11.53	-34.7	-35.4	25.0	0.00e+00	0	31	101	1048576	48	5784
2026-01-06 20:23:18.22	16.49	11.61	-34.7	-35.3	25.1	0.00e+00	0	31	101	1048576	48	5752
2026-01-06 20:23:19.23	16.41	11.70	-34.8	-35.4	25.0	0.00e+00	0	31	101	1048576	48	5824
2026-01-06 20:23:20.24	16.34	11.79	-34.6	-35.3	25.1	0.00e+00	0	31	101	1048576	48	5731
2026-01-06 20:23:21.25	16.27	11.87	-34.6	-35.2	25.3	0.00e+00	0	31	101	1048576	48	5691
2026-01-06 20:23:22.26	16.19	11.96	-34.3	-35.0	25.5	0.00e+00	0	31	101	1048576	48	5503
2026-01-06 20:23:23.27	16.11	12.05	-34.5	-35.1	25.3	0.00e+00	0	31	101	1048576	48	5615
2026-01-06 20:23:24.28	16.04	12.13	-34.4	-35.0	25.4	0.00e+00	0	31	101	1048576	48	5550
2026-01-06 20:23:25.29	15.96	12.22	-34.5	-35.2	25.3	0.00e+00	0	31	101	1048576	48	5644
2026-01-06 20:23:26.30	15.88	12.31	-34.5	-35.1	25.3	0.00e+00	0	31	101	1048576	48	5600
2026-01-06 20:23:27.31	15.81	12.40	-34.5	-35.1	25.4	0.00e+00	0	31	101	1048576	48	5595
2026-01-06 20:23:28.32	15.73	12.49	-34.5	-35.2	25.3	0.00e+00	0	31	101	1048576	48	5640
2026-01-06 20:23:29.32	15.65	12.57	-34.4	-35.0	25.4	0.00e+00	0	31	101	1048576	48	5543
2026-01-06 20:23:30.33	15.57	12.66	-34.3	-35.0	25.4	0.00e+00	0	31	101	1048576	48	5513
2026-01-06 20:23:31.34	15.49	12.75	-34.3	-34.9	25.4	0.00e+00	0	31	101	1048576	48	5487
2026-01-06 20:23:32.35	15.41	12.84	-34.2	-34.9	25.6	0.00e+00	0	31	101	1048576	48	5449
2026-01-06 20:23:33.36	15.33	12.93	-34.2	-34.9	25.6	0.00e+00	0	31	101	1048576	48	5456
2026-01-06 20:23:34.37	15.25	13.02	-34.5	-35.1	25.3	0.00e+00	0	31	101	1048576	48	5599
2026-01-06 20:23:35.38	15.17	13.11	-34.2	-34.8	25.6	0.00e+00	0	31	101	1048576	48	5427
2026-01-06 20:23:36.39	15.09	13.20	-34.2	-34.8	25.5	0.00e+00	0	31	101	1048576	48	5438
2026-01-06 20:23:37.39	15.00	13.29	-34.2	-34.8	25.6	0.00e+00	0	31	101	1048576	48	5404
2026-01-06 20:23:38.40	14.92	13.38	-33.9	-34.6	25.4	0.00e+00	0	31	101	1048576	46	5914
2026-01-06 20:23:39.41	14.84	13.48	-34.1	-34.8	25.6	0.00e+00	0	31	101	1048576	46	6056
2026-01-06 20:23:40.42	14.75	13.57	-34.3	-34.9	25.6	0.00e+00	0	31	101	1048576	46	6162
2026-01-06 20:23:41.43	14.67	13.66	-34.2	-34.8	25.7	0.00e+00	0	31	101	1048576	46	6056
2026-01-06 20:23:42.44	14.58	13.75	-34.1	-34.7	25.7	0.00e+00	0	31	101	1048576	46	6020
2026-01-06 20:23:43.45	14.50	13.85	-33.9	-34.5	25.8	0.00e+00	0	31	101	1048576	46	5877
2026-01-06 20:23:44.46	14.41	13.94	-34.1	-34.7	25.7	0.00e+00	0	31	101	1048576	46	6027
2026-01-06 20:23:45.47	14.32	14.03	-34.1	-34.7	25.8	0.00e+00	0	31	101	1048576	46	5989
2026-01-06 20:23:46.48	14.24	14.13	-34.0	-34.6	25.8	0.00e+00	0	31	101	1048576	46	5939
2026-01-06 20:23:47.49	14.15	14.22	-33.9	-34.5	25.9	0.00e+00	0	31	101	1048576	46	5887
2026-01-06 20:23:48.50	14.06	14.31	-34.0	-34.7	25.8	0.00e+00	0	31	101	1048576	46	5967
2026-01-06 20:23:49.51	13.97	14.41	-33.9	-34.5	25.9	0.00e+00	0	31	101	1048576	46	5892
2026-01-06 20:23:50.52	13.88	14.50	-34.0	-34.6	25.9	0.00e+00	0	31	101	1048576	46	5912
2026-01-06 20:23:51.53	13.79	14.60	-33.8	-34.5	25.9	0.00e+00	0	31	101	1048576	46	5835
2026-01-06 20:23:52.54	13.70	14.69	-33.8	-34.4	26.0	0.00e+00	0	31	101	1048576	46	5820
2026-01-06 20:23:53.55	13.60	14.79	-34.0	-34.6	25.9	0.00e+00	0	31	101	1048576	46	5915
2026-01-06 20:23:54.56	13.51	14.88	-34.0	-34.6	26.0	0.00e+00	0	31	101	1048576	46	5910
2026-01-06 20:23:55.57	13.42	14.98	-33.7	-34.4	26.1	0.00e+00	0	31	101	1048576	46	5765
2026-01-06 20:23:56.58	13.32	15.08	-33.8	-34.4	26.1	0.00e+00	0	31	101	1048576	46	5811
2026-01-06 20:23:57.59	13.23	15.17	-33.7	-34.3	26.3	0.00e+00	0	31	101	1048576	46	5729
2026-01-06 20:23:58.60	13.14	15.27	-33.9	-34.5	26.1	0.00e+00	0	31	101	1048576	46	5852
2026-01-06 20:23:59.61	13.04	15.37	-33.8	-34.4	26.1	0.00e+00	0	31	101	1048576	46	5822
2026-01-06 20:24:00.62	12.94	15.47	-33.8	-34.4	26.1	0.00e+00	0	31	101	1048576	46	5816
2026-01-06 20:24:01.63	12.85	15.56	-33.6	-34.3	26.2	0.00e+00	0	31	101	1048576	46	5709
2026-01-06 20:24:02.64	12.75	15.66	-33.6	-34.2	26.3	0.00e+00	0	31	101	1048576	46	5672
2026-01-06 20:24:03.64	12.65	15.76	-33.6	-34.3	26.2	0.00e+00	0	31	101	1048576	46	5711
2026-01-06 20:24:04.65	12.55	15.86	-33.8	-34.4	26.1	0.00e+00	0	31	101	1048576	46	5788
2026-01-06 20:24:05.66	12.45	15.96	-33.8	-34.5	26.1	0.00e+00	0	31	101	1048576	46	5834
2026-01-06 20:24:06.67	12.35	16.06	-33.8	-34.4	26.1	0.00e+00	0	31	101	1048576	46	5795
2026-01-06 20:24:07.68	12.25	16.16	-34.1	-34.7	26.0	0.00e+00	0	31	101	1048576	46	5991
2026-01-06 20:24:08.69	12.15	16.26	-33.7	-34.4	26.0	0.00e+00	0	31	101	1048576	46	5773
2026-01-06 20:24:09.70	12.05	16.36	-33.5	-34.1	26.3	0.00e+00	0	31	101	1048576	46	5581
2026-01-06 20:24:10.70	11.94	16.46	-33.8	-34.4	26.1	0.00e+00	0	31	101	1048576	46	5806
2026-01-06 20:24:11.98	11.81	16.59	-33.7	-34.3	26.1	0.00e+00	0	31	101	1048576	46	5729
2026-01-06 20:24:12.70	11.74	16.66	-33.7	-34.3	26.1	0.00e+00	0	31	101	1048576	46	5736
2026-01-06 20:24:13.99	11.60	16.79	-33.7	-34.3	26.1	0.00e+00	0	31	101	1048576	46	5742
2026-01-06 20:24:14.72	11.53	16.86	-33.6	-34.3	26.3	0.00e+00	0	31	101	1048576	46	5708
2026-01-06 20:24:16.02	11.39	17.00	-33.6	-34.2	26.2	0.00e+00	0	31	101	1048576	46	5672
2026-01-06 20:24:16.74	11.31	17.07	-33.5	-34.2	26.3	0.00e+00	0	31	101	1048576	46	5644
2026-01-06 20:24:18.03	11.17	17.20	-33.7	-34.3	26.3	0.00e+00	0	31	101	1048576	46	5723
2026-01-06 20:24:18.75	11.10	17.27	-33.5	-34.1	26.3	0.00e+00	0	31	101	1048576	46	5595
2026-01-06 20:24:20.05	10.95	17.41	-33.5	-34.1	26.4	0.00e+00	0	31	101	1048576	46	5579
2026-01-06 20:24:20.76	10.88	17.48	-33.4	-34.0	26.5	0.00e+00	0	31	101	1048576	46	5564
2026-01-06 20:24:22.06	10.73	17.62	-33.4	-34.0	26.5	0.00e+00	0	31	101	1048576	46	5523
2026-01-06 20:24:22.78	10.65	17.69	-33.3	-33.9	26.6	0.00e+00	0	31	101	1048576	46	5458
2026-01-06 20:24:24.08	10.51	17.83	-33.4	-34.0	26.5	0.00e+00	0	31	101	1048576	46	5522
2026-01-06 20:24:24.80	10.43	17.90	-33.4	-34.1	26.4	0.00e+00	0	31	101	1048576	46	5572
2026-01-06 20:24:26.09	10.28	18.04	-33.4	-34.0	26.4	0.00e+00	0	31	101	1048576	46	5564
2026-01-06 20:24:26.82	10.20	18.11	-33.3	-33.9	26.6	0.00e+00	0	31	101	1048576	46	5483
2026-01-06 20:24:28.11	10.05	18.25	-33.2	-33.8	26.5	0.00e+00	0	31	101	1048576	46	5439
2026-01-06 20:24:28.83	9.96	18.33	-33.2	-33.9	26.6	0.00e+00	0	31	101	1048576	46	5455
2026-01-06 20:24:30.13	9.81	18.46	-33.3	-33.9	26.6	0.00e+00	0	31	101	1048576	46	5456
2026-01-06 20:24:30.85	9.73	18.54	-33.0	-33.7	26.6	0.00e+00	0	31	101	1048576	46	5327
2026-01-06 20:24:32.15	9.57	18.68	-33.3	-33.9	26.5	0.00e+00	0	31	101	1048576	44	6148
2026-01-06 20:24:32.87	9.49	18.76	-33.1	-33.7	26.6	0.00e+00	0	31	101	1048576	44	6030
2026-01-06 20:24:34.17	9.33	18.90	-33.2	-33.8	26.6	0.00e+00	0	31	101	1048576	44	6056
2026-01-06 20:24:34.89	9.24	18.97	-33.2	-33.8	26.6	0.00e+00	0	31	101	1048576	44	6056
2026-01-06 20:24:36.19	9.08	19.11	-33.3	-33.9	26.7	0.00e+00	0	31	101	1048576	44	6135
2026-01-06 20:24:36.91	8.99	19.19	-33.1	-33.8	26.8	0.00e+00	0	31	101	1048576	44	6043
2026-01-06 20:24:38.21	8.83	19.33	-33.1	-33.7	26.7	0.00e+00	0	31	101	1048576	44	6002
2026-01-06 20:24:38.93	8.74	19.41	-33.2	-33.8	26.6	0.00e+00	0	31	101	1048576	44	6101
2026-01-06 20:24:40.23	8.58	19.55	-33.0	-33.6	26.7	0.00e+00	0	31	101	1048576	44	5923
2026-01-06 20:24:40.95	8.49	19.63	-33.2	-33.8	26.6	0.00e+00	0	31	101	1048576	44	6047
2026-01-06 20:24:42.25	8.32	19.78	-33.0	-33.6	26.8	0.00e+00	0	31	101	1048576	44	5919
2026-01-06 20:24:42.97	8.23	19.86	-32.9	-33.5	26.9	0.00e+00	0	31	101	1048576	44	5870
2026-01-06 20:24:44.27	8.06	20.00	-32.8	-33.4	27.0	0.00e+00	0	31	101	1048576	44	5769
2026-01-06 20:24:44.99	7.97	20.08	-32.8	-33.4	27.0	0.00e+00	0	31	101	1048576	44	5789
2026-01-06 20:24:46.28	7.80	20.22	-32.5	-33.1	27.2	0.00e+00	0	31	101	1048576	44	5590
2026-01-06 20:24:47.01	7.70	20.31	-32.7	-33.3	27.0	0.00e+00	0	31	101	1048576	44	5704
2026-01-06 20:24:48.31	7.52	20.45	-32.5	-33.1	27.2	0.00e+00	0	31	101	1048576	44	5614
2026-01-06 20:24:49.03	7.43	20.53	-32.5	-33.1	27.2	0.00e+00	0	31	101	1048576	44	5578
2026-01-06 20:24:50.32	7.25	20.68	-32.3	-32.9	27.3	0.00e+00	0	31	101	1048576	44	5487
2026-01-06 20:24:51.05	7.15	20.76	-32.3	-32.9	27.4	0.00e+00	0	31	101	1048576	44	5452
2026-01-06 20:24:52.34	6.97	20.91	-32.2	-32.8	27.6	0.00e+00	0	31	101	1048576	42	6052
2026-01-06 20:24:53.06	6.87	20.99	-32.1	-32.7	27.5	0.00e+00	0	31	101	1048576	42	6013
2026-01-06 20:24:54.36	6.69	21.14	-32.1	-32.7	27.4	0.00e+00	0	31	101	1048576	42	6009
2026-01-06 20:24:55.08	6.59	21.22	-32.1	-32.7	27.5	0.00e+00	0	31	101	1048576	42	6012
2026-01-06 20:24:56.38	6.41	21.37	-32.2	-32.8	27.5	0.00e+00	0	31	101	1048576	42	6073
2026-01-06 20:24:57.10	6.30	21.45	-32.4	-32.9	27.5	0.00e+00	0	31	101	1048576	42	6169
2026-01-06 20:24:58.40	6.12	21.60	-32.3	-32.9	27.5	0.00e+00	0	31	101	1048576	42	6165
2026-01-06 20:24:59.12	6.01	21.69	-32.4	-33.1	27.3	0.00e+00	0	31	101	1048576	42	6249
2026-01-06 20:25:00.42	5.82	21.84	-32.3	-32.9	27.4	0.00e+00	0	31	101	1048576	42	6172
2026-01-06 20:25:01.14	5.71	21.92	-32.5	-33.1	27.3	0.00e+00	0	31	101	1048576	42	6258
2026-01-06 20:25:02.44	5.52	22.07	-32.1	-32.7	27.2	0.00e+00	0	31	101	1048576	42	6020
2026-01-06 20:25:03.16	5.41	22.16	-32.5	-33.1	27.3	0.00e+00	0	32	101	1048576	42	6291
2026-01-06 20:25:04.46	5.22	22.31	-32.4	-33.0	27.4	0.00e+00	0	31	101	1048576	42	6229
2026-01-06 20:25:05.17	5.11	22.39	-32.6	-33.2	27.3	0.00e+00	0	31	101	1048576	42	6338
2026-01-06 20:25:06.47	4.91	22.55	-32.4	-33.0	27.4	0.00e+00	0	31	101	1048576	42	6187
2026-01-06 20:25:07.19	4.80	22.63	-32.1	-32.6	27.6	0.00e+00	0	31	101	1048576	42	5959
2026-01-06 20:25:08.49	4.59	22.79	-32.2	-32.8	27.7	0.00e+00	0	31	101	1048576	42	6099
2026-01-06 20:25:09.21	4.48	22.87	-32.0	-32.6	27.7	0.00e+00	0	31	101	1048576	42	5945
2026-01-06 20:25:10.51	4.27	23.03	-31.9	-32.5	27.8	0.00e+00	0	31	101	1048576	42	5852
2026-01-06 20:25:11.23	4.16	23.11	-31.9	-32.5	27.9	0.00e+00	0	31	101	1048576	42	5848
2026-01-06 20:25:12.53	3.95	23.27	-31.8	-32.5	27.8	0.00e+00	0	31	101	1048576	42	5831
2026-01-06 20:25:13.25	3.83	23.36	-31.7	-32.2	28.1	0.00e+00	0	31	101	1048576	42	5694
2026-01-06 20:25:14.55	3.62	23.51	-31.8	-32.4	27.9	0.00e+00	0	31	101	1048576	42	5783
2026-01-06 20:25:15.27	3.50	23.60	-31.7	-32.3	27.9	0.00e+00	0	31	101	1048576	42	5699
2026-01-06 20:25:16.57	3.28	23.76	-31.7	-32.3	27.9	0.00e+00	0	31	101	1048576	42	5756
2026-01-06 20:25:17.29	3.16	23.85	-31.7	-32.3	27.9	0.00e+00	0	31	101	1048576	42	5742
2026-01-06 20:25:18.58	2.95	24.00	-31.7	-32.3	27.8	0.00e+00	0	31	101	1048576	42	5755
2026-01-06 20:25:19.30	2.82	24.09	-31.9	-32.5	27.7	0.00e+00	0	31	101	1048576	42	5846
2026-01-06 20:25:20.60	2.60	24.25	-32.0	-32.6	27.7	0.00e+00	0	31	101	1048576	42	5952
2026-01-06 20:25:21.32	2.48	24.34	-32.0	-32.6	27.7	0.00e+00	0	31	101	1048576	42	5951
2026-01-06 20:25:22.62	2.25	24.50	-32.1	-32.7	27.7	0.00e+00	0	31	101	1048576	42	5972
2026-01-06 20:25:23.34	2.12	24.59	-32.1	-32.7	27.5	0.00e+00	0	31	101	1048576	42	5971
2026-01-06 20:25:24.64	1.89	24.75	-32.1	-32.7	27.6	0.00e+00	0	31	101	1048576	42	5995
2026-01-06 20:25:25.36	1.76	24.84	-32.0	-32.6	27.6	0.00e+00	0	31	101	1048576	42	5930
2026-01-06 20:25:26.66	1.53	25.00	-32.0	-32.6	27.7	0.00e+00	0	31	101	1048576	42	5937
2026-01-06 20:25:27.38	1.40	25.09	-32.0	-32.6	27.7	0.00e+00	0	31	101	1048576	42	5923
2026-01-06 20:25:28.68	1.16	25.25	-32.0	-32.7	27.6	0.00e+00	0	31	101	1048576	42	5974
2026-01-06 20:25:29.40	1.03	25.34	-32.1	-32.7	27.7	0.00e+00	0	31	101	1048576	42	5982
2026-01-06 20:25:30.70	0.79	25.50	-32.1	-32.7	27.7	0.00e+00	0	31	101	1048576	42	5986
2026-01-06 20:25:31.42	0.65	25.59	-32.1	-32.7	27.6	0.00e+00	0	31	101	1048576	42	5994
2026-01-06 20:25:32.71	0.41	25.76	-31.9	-32.5	27.8	0.00e+00	0	31	101	1048576	42	5851
2026-01-06 20:25:33.44	0.27	25.85	-32.0	-32.6	27.8	0.00e+00	0	31	101	1048576	42	5935
2026-01-06 20:25:34.73	0.02	26.01	-31.7	-32.3	27.9	0.00e+00	0	31	101	1048576	42	5755
2026-01-06 20:25:35.46	359.88	26.10	-31.7	-32.3	27.9	0.00e+00	0	31	101	1048576	42	5716
2026-01-06 20:25:36.76	359.62	26.27	-31.8	-32.4	27.9	0.00e+00	0	31	101	1048576	42	5762
2026-01-06 20:25:37.48	359.48	26.36	-31.8	-32.4	27.8	0.00e+00	0	31	101	1048576	42	5779
2026-01-06 20:25:38.78	359.22	26.53	-31.8	-32.4	27.8	0.00e+00	0	32	101	1048576	42	5823
2026-01-06 20:25:39.50	359.08	26.62	-31.7	-32.3	27.9	0.00e+00	0	31	101	1048576	42	5733
2026-01-06 20:25:40.80	358.82	26.78	-31.9	-32.5	27.8	0.00e+00	0	31	101	1048576	42	5846
2026-01-06 20:25:41.52	358.67	26.88	-31.8	-32.4	27.8	0.00e+00	0	31	101	1048576	42	5817
2026-01-06 20:25:42.82	358.40	27.04	-31.9	-32.5	27.8	0.00e+00	0	31	101	1048576	42	5877
2026-01-06 20:25:43.54	358.25	27.13	-32.0	-32.6	27.7	0.00e+00	0	31	101	1048576	42	5904
2026-01-06 20:25:44.84	357.98	27.30	-32.0	-32.6	27.7	0.00e+00	0	31	101	1048576	42	5954
2026-01-06 20:25:45.56	357.83	27.39	-32.1	-32.7	27.5	0.00e+00	0	31	101	1048576	42	6022
2026-01-06 20:25:46.85	357.56	27.56	-32.3	-32.9	27.6	0.00e+00	0	31	101	1048576	42	6137
2026-01-06 20:25:47.57	357.40	27.65	-32.1	-32.7	27.6	0.00e+00	0	31	101	1048576	42	6022
2026-01-06 20:25:48.87	357.12	27.82	-32.1	-32.7	27.7	0.00e+00	0	31	101	1048576	42	6014
2026-01-06 20:25:49.59	356.96	27.91	-32.1	-32.7	27.6	0.00e+00	0	31	101	1048576	42	6015
2026-01-06 20:25:50.89	356.68	28.08	-32.1	-32.7	27.6	0.00e+00	0	31	101	1048576	42	5997
2026-01-06 20:25:51.61	356.52	28.17	-32.1	-32.7	27.6	0.00e+00	0	31	101	1048576	42	6026
2026-01-06 20:25:52.91	356.23	28.34	-32.1	-32.7	27.6	0.00e+00	0	31	101	1048576	42	5989
2026-01-06 20:25:53.63	356.07	28.44	-32.2	-32.8	27.6	0.00e+00	0	31	101	1048576	42	6086
2026-01-06 20:25:54.93	355.77	28.61	-31.8	-32.4	27.7	0.00e+00	0	31	101	1048576	42	5816
2026-01-06 20:25:55.65	355.61	28.70	-31.9	-32.5	27.8	0.00e+00	0	31	101	1048576	42	5851
2026-01-06 20:25:56.95	355.31	28.87	-32.0	-32.6	27.7	0.00e+00	0	31	101	1048576	42	5923
2026-01-06 20:25:57.67	355.14	28.96	-31.8	-32.4	27.8	0.00e+00	0	31	101	1048576	42	5798
2026-01-06 20:25:58.97	354.84	29.13	-31.9	-32.5	27.8	0.00e+00	0	31	101	1048576	42	5880
2026-01-06 20:25:59.69	354.67	29.22	-31.8	-32.4	27.8	0.00e+00	0	31	101	1048576	42	5767
2026-01-06 20:26:00.99	354.36	29.39	-31.7	-32.3	27.9	0.00e+00	0	31	101	1048576	42	5718
2026-01-06 20:26:01.71	354.18	29.49	-31.7	-32.3	27.9	0.00e+00	0	31	101	1048576	42	5728
2026-01-06 20:26:03.00	353.87	29.66	-31.6	-32.2	28.0	0.00e+00	0	31	101	1048576	42	5676
2026-01-06 20:26:03.73	353.69	29.75	-31.7	-32.3	28.0	0.00e+00	0	31	101	1048576	42	5714
2026-01-06 20:26:05.02	353.37	29.92	-31.7	-32.2	28.0	0.00e+00	0	31	101	1048576	42	5695
2026-01-06 20:26:05.74	353.20	30.01	-31.5	-32.1	28.2	0.00e+00	0	31	101	1048576	42	5570
2026-01-06 20:26:07.04	352.87	30.18	-31.3	-31.9	28.3	0.00e+00	0	31	101	1048576	42	5496
2026-01-06 20:26:07.76	352.69	30.28	-31.4	-32.0	28.1	0.00e+00	0	31	101	1048576	42	5524
2026-01-06 20:26:09.06	352.36	30.45	-31.2	-31.8	28.3	0.00e+00	0	31	101	1048576	42	5392
2026-01-06 20:26:09.78	352.17	30.54	-31.3	-31.9	28.3	0.00e+00	0	31	101	1048576	42	5462
2026-01-06 20:26:11.08	351.84	30.71	-31.0	-31.6	28.4	0.00e+00	0	31	101	1048576	40	5928
2026-01-06 20:26:11.80	351.65	30.80	-31.0	-31.5	28.4	0.00e+00	0	31	101	1048576	40	5894
2026-01-06 20:26:13.10	351.31	30.97	-31.1	-31.7	28.1	0.00e+00	0	31	101	1048576	40	6006
2026-01-06 20:26:13.82	351.11	31.07	-31.0	-31.6	28.3	0.00e+00	0	31	101	1048576	40	5932
2026-01-06 20:26:15.12	350.77	31.23	-30.9	-31.5	28.5	0.00e+00	0	31	101	1048576	40	5858
2026-01-06 20:26:15.84	350.57	31.33	-31.1	-31.7	28.3	0.00e+00	0	31	101	1048576	40	5993
2026-01-06 20:26:17.14	350.22	31.50	-31.1	-31.7	28.4	0.00e+00	0	31	101	1048576	40	6023
2026-01-06 20:26:17.86	350.02	31.59	-31.2	-31.8	28.2	0.00e+00	0	31	101	1048576	40	6067
2026-01-06 20:26:19.16	349.66	31.76	-31.2	-31.8	28.3	0.00e+00	0	31	101	1048576	40	6047
2026-01-06 20:26:19.88	349.46	31.85	-31.2	-31.8	28.2	0.00e+00	0	31	101	1048576	40	6063
2026-01-06 20:26:21.17	349.10	32.01	-31.1	-31.7	28.1	0.00e+00	0	31	101	1048576	40	6010
2026-01-06 20:26:21.90	348.89	32.11	-31.2	-31.8	28.3	0.00e+00	0	31	101	1048576	40	6072
2026-01-06 20:26:23.19	348.52	32.27	-31.2	-31.8	28.1	0.00e+00	0	31	101	1048576	40	6082
2026-01-06 20:26:23.91	348.32	32.37	-31.4	-32.0	28.3	0.00e+00	0	31	101	1048576	40	6177
2026-01-06 20:26:25.21	347.94	32.53	-31.4	-32.0	28.2	0.00e+00	0	31	101	1048576	40	6233
2026-01-06 20:26:25.93	347.73	32.62	-31.5	-32.2	28.2	0.00e+00	0	31	101	1048576	40	6321
2026-01-06 20:26:27.23	347.35	32.79	-31.6	-32.2	28.0	0.00e+00	0	31	101	1048576	40	6373
2026-01-06 20:26:27.95	347.13	32.88	-31.7	-32.3	27.9	0.00e+00	0	31	101	1048576	40	6451
2026-01-06 20:26:29.25	346.74	33.04	-31.7	-32.3	28.0	0.00e+00	0	31	101	1048576	40	6432
2026-01-06 20:26:29.97	346.52	33.13	-32.0	-32.6	27.8	0.00e+00	0	31	101	1048576	40	6678
2026-01-06 20:26:31.27	346.13	33.30	-31.7	-32.3	28.1	0.00e+00	0	32	101	1048576	40	6454
2026-01-06 20:26:31.99	345.91	33.39	-32.0	-32.5	27.9	0.00e+00	0	31	101	1048576	40	6613
2026-01-06 20:26:33.29	345.51	33.55	-31.9	-32.5	27.9	0.00e+00	0	31	101	1048576	40	6597
2026-01-06 20:26:34.01	345.28	33.64	-32.0	-32.6	27.8	0.00e+00	0	31	101	1048576	42	5918
2026-01-06 20:26:35.31	344.87	33.80	-32.0	-32.6	27.9	0.00e+00	0	31	101	1048576	42	5941
2026-01-06 20:26:36.03	344.65	33.89	-31.9	-32.5	27.7	0.00e+00	0	31	101	1048576	42	5873
2026-01-06 20:26:37.33	344.23	34.05	-31.9	-32.5	27.8	0.00e+00	0	31	101	1048576	42	5893
2026-01-06 20:26:38.05	344.00	34.14	-32.2	-32.8	27.8	0.00e+00	0	31	101	1048576	42	6050
2026-01-06 20:26:39.35	343.58	34.29	-32.0	-32.6	27.9	0.00e+00	0	31	101	1048576	42	5922
2026-01-06 20:26:40.07	343.34	34.38	-31.8	-32.4	28.0	0.00e+00	0	31	101	1048576	42	5826
2026-01-06 20:26:41.37	342.92	34.54	-31.3	-31.9	28.3	0.00e+00	0	31	101	1048576	42	5488
2026-01-06 20:26:42.09	342.68	34.62	-31.3	-31.8	28.4	0.00e+00	0	31	101	1048576	42	5439
2026-01-06 20:26:43.39	342.24	34.78	-31.3	-31.9	28.4	0.00e+00	0	31	101	1048576	42	5464
2026-01-06 20:26:44.11	342.00	34.86	-31.0	-31.6	28.5	0.00e+00	0	31	101	1048576	42	5291
2026-01-06 20:26:45.41	341.56	35.02	-31.2	-31.8	28.4	0.00e+00	0	31	101	1048576	40	6069
2026-01-06 20:26:46.13	341.31	35.10	-31.1	-31.7	28.4	0.00e+00	0	31	101	1048576	40	6017
2026-01-06 20:26:47.43	340.87	35.25	-31.1	-31.7	28.4	0.00e+00	0	31	101	1048576	40	6015
2026-01-06 20:26:48.15	340.62	35.34	-31.0	-31.6	28.5	0.00e+00	0	31	101	1048576	40	5906
2026-01-06 20:26:49.45	340.17	35.49	-30.9	-31.5	28.6	0.00e+00	0	31	101	1048576	40	5864
2026-01-06 20:26:50.17	339.91	35.57	-31.1	-31.7	28.5	0.00e+00	0	31	101	1048576	40	5988
2026-01-06 20:26:51.47	339.45	35.71	-31.0	-31.6	28.6	0.00e+00	0	31	101	1048576	40	5903
2026-01-06 20:26:52.19	339.20	35.80	-31.2	-31.8	28.6	0.00e+00	0	31	101	1048576	40	6047
2026-01-06 20:26:53.49	338.73	35.94	-31.3	-31.9	28.3	0.00e+00	0	31	101	1048576	40	6157
2026-01-06 20:26:54.21	338.47	36.02	-31.5	-32.1	28.2	0.00e+00	0	31	101	1048576	40	6287
2026-01-06 20:26:55.51	338.00	36.16	-31.7	-32.3	28.0	0.00e+00	0	31	101	1048576	40	6420
2026-01-06 20:26:56.23	337.73	36.24	-31.7	-32.3	28.0	0.00e+00	0	31	101	1048576	40	6450
2026-01-06 20:26:57.53	337.25	36.38	-31.7	-32.3	28.0	0.00e+00	0	31	101	1048576	40	6400
2026-01-06 20:26:58.25	336.99	36.46	-31.6	-32.2	28.1	0.00e+00	0	32	101	1048576	40	6363
2026-01-06 20:26:59.54	336.50	36.59	-31.6	-32.2	28.1	0.00e+00	0	32	101	1048576	40	6336
2026-01-06 20:27:00.26	336.23	36.67	-31.5	-32.1	28.2	0.00e+00	0	31	101	1048576	40	6280
2026-01-06 20:27:01.56	335.74	36.80	-31.7	-32.3	28.0	0.00e+00	0	31	101	1048576	40	6436
2026-01-06 20:27:02.29	335.46	36.88	-31.7	-32.3	28.0	0.00e+00	0	31	101	1048576	40	6393
2026-01-06 20:27:03.58	334.97	37.01	-31.8	-32.5	27.8	0.00e+00	0	31	101	1048576	40	6552
2026-01-06 20:27:04.30	334.69	37.08	-31.7	-32.3	28.1	0.00e+00	0	31	101	1048576	40	6459
2026-01-06 20:27:05.60	334.19	37.21	-31.8	-32.4	28.0	0.00e+00	0	31	101	1048576	40	6478
2026-01-06 20:27:06.32	333.90	37.28	-31.7	-32.3	28.0	0.00e+00	0	31	101	1048576	40	6407
2026-01-06 20:27:07.62	333.39	37.40	-31.7	-32.3	28.1	0.00e+00	0	31	101	1048576	40	6439
2026-01-06 20:27:08.34	333.11	37.47	-31.6	-32.2	28.1	0.00e+00	0	31	101	1048576	40	6373
2026-01-06 20:27:09.64	332.59	37.59	-31.5	-32.1	28.2	0.00e+00	0	31	101	1048576	40	6288
2026-01-06 20:27:10.36	332.30	37.66	-31.4	-31.9	28.3	0.00e+00	0	31	101	1048576	40	6166
2026-01-06 20:27:11.66	331.78	37.78	-31.4	-32.0	28.3	0.00e+00	0	31	101	1048576	40	6177
2026-01-06 20:27:12.38	331.49	37.84	-31.4	-32.0	28.2	0.00e+00	0	31	101	1048576	40	6195
2026-01-06 20:27:13.67	330.96	37.95	-31.5	-32.1	28.1	0.00e+00	0	31	101	1048576	40	6296
2026-01-06 20:27:14.40	330.67	38.02	-31.7	-32.2	28.1	0.00e+00	0	31	101	1048576	40	6390
2026-01-06 20:27:15.70	330.13	38.13	-31.8	-32.4	28.0	0.00e+00	0	31	101	1048576	40	6480
2026-01-06 20:27:16.42	329.83	38.19	-31.7	-32.3	28.0	0.00e+00	0	32	101	1048576	40	6453
2026-01-06 20:27:17.71	329.30	38.29	-31.7	-32.2	28.1	0.00e+00	0	31	101	1048576	40	6389
2026-01-06 20:27:18.44	328.99	38.35	-31.7	-32.3	28.1	0.00e+00	0	31	101	1048576	40	6395
2026-01-06 20:27:19.73	328.45	38.45	-31.6	-32.2	28.0	0.00e+00	0	32	101	1048576	40	6382
2026-01-06 20:27:20.45	328.15	38.51	-31.7	-32.3	28.0	0.00e+00	0	31	101	1048576	40	6399
2026-01-06 20:27:21.75	327.60	38.61	-31.7	-32.3	28.0	0.00e+00	0	31	101	1048576	40	6426
2026-01-06 20:27:22.47	327.29	38.66	-31.9	-32.5	27.9	0.00e+00	0	31	101	1048576	40	6555
2026-01-06 20:27:23.77	326.73	38.76	-31.7	-32.3	28.1	0.00e+00	0	31	101	1048576	40	6425
2026-01-06 20:27:24.49	326.42	38.81	-31.7	-32.3	28.0	0.00e+00	0	32	101	1048576	40	6437
2026-01-06 20:27:25.79	325.86	38.90	-31.8	-32.3	28.1	0.00e+00	0	31	101	1048576	40	6462
2026-01-06 20:27:26.51	325.55	38.95	-31.6	-32.1	28.1	0.00e+00	0	32	101	1048576	40	6303
2026-01-06 20:27:27.81	324.98	39.03	-31.6	-32.2	28.2	0.00e+00	0	32	101	1048576	40	6319
2026-01-06 20:27:28.53	324.67	39.08	-31.6	-32.2	28.1	0.00e+00	0	31	101	1048576	40	6379
2026-01-06 20:27:29.83	324.10	39.16	-31.6	-32.2	28.1	0.00e+00	0	31	101	1048576	40	6363
2026-01-06 20:27:30.55	323.78	39.20	-31.5	-32.1	28.1	0.00e+00	0	32	101	1048576	40	6313
2026-01-06 20:27:31.85	323.21	39.28	-31.5	-32.1	28.2	0.00e+00	0	31	101	1048576	40	6302
2026-01-06 20:27:32.57	322.89	39.32	-31.6	-32.2	28.2	0.00e+00	0	31	101	1048576	40	6344
2026-01-06 20:27:33.87	322.31	39.39	-31.7	-32.3	28.2	0.00e+00	0	31	101	1048576	40	6432
2026-01-06 20:27:34.59	321.99	39.42	-31.6	-32.2	28.1	0.00e+00	0	31	101	1048576	40	6335
2026-01-06 20:27:35.89	321.40	39.49	-31.7	-32.3	28.1	0.00e+00	0	32	101	1048576	40	6403
2026-01-06 20:27:36.61	321.08	39.53	-31.7	-32.3	28.0	0.00e+00	0	32	101	1048576	40	6395
2026-01-06 20:27:37.91	320.49	39.59	-31.7	-32.3	28.0	0.00e+00	0	32	101	1048576	40	6423
2026-01-06 20:27:38.63	320.17	39.62	-31.6	-32.2	28.2	0.00e+00	0	31	101	1048576	40	6384
2026-01-06 20:27:39.93	319.58	39.67	-31.7	-32.3	28.1	0.00e+00	0	31	101	1048576	40	6462
2026-01-06 20:27:40.65	319.25	39.70	-31.7	-32.3	28.1	0.00e+00	0	31	101	1048576	40	6401
2026-01-06 20:27:41.95	318.66	39.75	-31.7	-32.3	28.1	0.00e+00	0	31	101	1048576	40	6408
2026-01-06 20:27:42.67	318.33	39.78	-31.7	-32.3	28.1	0.00e+00	0	31	101	1048576	40	6420
2026-01-06 20:27:43.97	317.74	39.82	-31.6	-32.2	28.0	0.00e+00	0	32	101	1048576	40	6375
2026-01-06 20:27:44.69	317.40	39.85	-31.7	-32.3	28.0	0.00e+00	0	31	101	1048576	40	6431
2026-01-06 20:27:45.99	316.81	39.89	-31.7	-32.3	28.0	0.00e+00	0	32	101	1048576	40	6452
2026-01-06 20:27:46.71	316.48	39.91	-31.7	-32.3	28.0	0.00e+00	0	31	101	1048576	40	6395
2026-01-06 20:27:48.01	315.88	39.94	-31.5	-32.1	28.2	0.00e+00	0	32	101	1048576	40	6265
2026-01-06 20:27:48.73	315.54	39.96	-31.6	-32.2	28.2	0.00e+00	0	31	101	1048576	40	6318
2026-01-06 20:27:50.02	314.95	39.99	-31.5	-32.1	28.1	0.00e+00	0	31	101	1048576	40	6301
2026-01-06 20:27:50.75	314.61	40.00	-31.6	-32.2	28.1	0.00e+00	0	32	101	1048576	40	6353
2026-01-06 20:27:52.04	314.01	40.02	-31.8	-32.4	28.0	0.00e+00	0	32	101	1048576	40	6509
2026-01-06 20:27:52.76	313.67	40.04	-31.8	-32.4	28.0	0.00e+00	0	31	101	1048576	40	6486
2026-01-06 20:27:54.06	313.07	40.05	-31.8	-32.4	27.9	0.00e+00	0	31	101	1048576	40	6472
2026-01-06 20:27:54.78	312.73	40.06	-31.8	-32.4	28.0	0.00e+00	0	31	101	1048576	40	6477
2026-01-06 20:27:56.08	312.13	40.07	-31.7	-32.3	28.1	0.00e+00	0	32	101	1048576	40	6456
2026-01-06 20:27:56.80	311.79	40.08	-31.8	-32.4	27.9	0.00e+00	0	31	101	1048576	40	6507
2026-01-06 20:27:58.10	311.19	40.08	-32.0	-32.6	27.8	0.00e+00	0	31	101	1048576	40	6630
2026-01-06 20:27:58.82	310.85	40.09	-31.7	-32.3	28.0	0.00e+00	0	31	101	1048576	40	6449
2026-01-06 20:28:00.12	310.25	40.09	-31.6	-32.2	28.1	0.00e+00	0	31	101	1048576	40	6351
2026-01-06 20:28:00.84	309.91	40.08	-31.6	-32.2	28.2	0.00e+00	0	31	101	1048576	40	6351
2026-01-06 20:28:02.14	309.30	40.08	-31.5	-32.1	28.2	0.00e+00	0	31	101	1048576	40	6259
2026-01-06 20:28:02.86	308.97	40.08	-31.5	-32.1	28.2	0.00e+00	0	31	101	1048576	40	6255
2026-01-06 20:28:04.16	308.36	40.06	-31.3	-31.9	28.4	0.00e+00	0	32	101	1048576	40	6117
2026-01-06 20:28:04.88	308.03	40.06	-31.2	-31.8	28.3	0.00e+00	0	32	101	1048576	40	6069
2026-01-06 20:28:06.17	307.43	40.04	-31.3	-31.9	28.4	0.00e+00	0	31	101	1048576	40	6133
2026-01-06 20:28:06.89	307.09	40.03	-31.4	-32.0	28.2	0.00e+00	0	31	101	1048576	40	6214
2026-01-06 20:28:08.19	306.49	40.01	-31.6	-32.2	28.2	0.00e+00	0	31	101	1048576	40	6334
2026-01-06 20:28:08.91	306.16	39.99	-31.6	-32.2	28.1	0.00e+00	0	31	101	1048576	40	6342
2026-01-06 20:28:10.21	305.55	39.97	-31.7	-32.3	28.0	0.00e+00	0	31	101	1048576	40	6446
2026-01-06 20:28:10.93	305.22	39.95	-31.8	-32.4	28.0	0.00e+00	0	31	101	1048576	40	6470
2026-01-06 20:28:12.23	304.62	39.92	-31.7	-32.3	28.0	0.00e+00	0	31	101	1048576	40	6454
2026-01-06 20:28:12.95	304.29	39.90	-31.6	-32.2	27.9	0.00e+00	0	31	101	1048576	40	6332
2026-01-06 20:28:14.24	303.69	39.86	-31.5	-32.1	28.2	0.00e+00	0	31	101	1048576	40	6296
2026-01-06 20:28:14.97	303.36	39.83	-31.6	-32.2	28.0	0.00e+00	0	32	101	1048576	40	6349
2026-01-06 20:28:16.26	302.77	39.79	-31.8	-32.4	28.0	0.00e+00	0	31	101	1048576	40	6497
2026-01-06 20:28:16.99	302.43	39.76	-31.8	-32.4	27.9	0.00e+00	0	31	101	1048576	40	6512
2026-01-06 20:28:18.28	301.84	39.71	-31.8	-32.5	27.6	0.00e+00	0	32	101	1048576	40	6544
2026-01-06 20:28:19.00	301.52	39.69	-31.7	-32.2	27.8	0.00e+00	0	31	101	1048576	40	6381
2026-01-06 20:28:20.30	300.93	39.63	-31.8	-32.4	27.9	0.00e+00	0	32	101	1048576	40	6487
2026-01-06 20:28:21.02	300.60	39.60	-31.8	-32.3	28.0	0.00e+00	0	32	101	1048576	40	6460
2026-01-06 20:28:22.32	300.01	39.54	-31.2	-31.8	28.2	0.00e+00	0	32	101	1048576	40	6063
2026-01-06 20:28:23.04	299.69	39.50	-31.2	-31.8	28.3	0.00e+00	0	32	101	1048576	40	6066
2026-01-06 20:28:24.34	299.10	39.44	-31.5	-32.1	28.2	0.00e+00	0	32	101	1048576	40	6289
2026-01-06 20:28:25.06	298.78	39.40	-31.6	-32.2	28.2	0.00e+00	0	32	101	1048576	40	6339
2026-01-06 20:28:26.35	298.21	39.33	-32.0	-32.6	27.8	0.00e+00	0	31	101	1048576	40	6672
2026-01-06 20:28:27.07	297.89	39.29	-32.1	-32.7	27.8	0.00e+00	0	31	101	1048576	42	5982
2026-01-06 20:28:28.37	297.31	39.22	-31.8	-32.4	28.1	0.00e+00	0	32	101	1048576	42	5771
2026-01-06 20:28:29.09	296.99	39.17	-31.7	-32.2	28.2	0.00e+00	0	32	101	1048576	42	5692
2026-01-06 20:28:30.39	296.42	39.09	-31.7	-32.3	28.0	0.00e+00	0	31	101	1048576	42	5735
2026-01-06 20:28:31.11	296.10	39.05	-31.5	-32.1	28.3	0.00e+00	0	31	101	1048576	42	5624
2026-01-06 20:28:32.41	295.54	38.96	-31.6	-32.2	28.1	0.00e+00	0	31	101	1048576	42	5640
2026-01-06 20:28:33.13	295.22	38.92	-31.7	-32.3	28.1	0.00e+00	0	32	101	1048576	42	5700
2026-01-06 20:28:34.43	294.66	38.83	-31.9	-32.5	28.0	0.00e+00	0	32	101	1048576	42	5880
2026-01-06 20:28:35.15	294.35	38.78	-31.7	-32.3	28.1	0.00e+00	0	32	101	1048576	42	5760
2026-01-06 20:28:36.45	293.79	38.68	-31.7	-32.3	28.3	0.00e+00	0	32	101	1048576	42	5700
2026-01-06 20:28:37.17	293.49	38.63	-31.5	-32.1	28.2	0.00e+00	0	32	101	1048576	42	5597
2026-01-06 20:28:38.46	292.94	38.53	-31.2	-31.8	28.5	0.00e+00	0	31	101	1048576	42	5382
2026-01-06 20:28:39.18	292.63	38.48	-31.2	-31.8	28.4	0.00e+00	0	32	101	1048576	42	5406
2026-01-06 20:28:40.48	292.09	38.37	-31.5	-32.1	28.3	0.00e+00	0	32	101	1048576	42	5588
2026-01-06 20:28:41.20	291.78	38.32	-31.6	-32.2	28.2	0.00e+00	0	31	101	1048576	42	5656
2026-01-06 20:28:42.50	291.24	38.21	-31.7	-32.3	28.0	0.00e+00	0	31	101	1048576	42	5712
2026-01-06 20:28:43.23	290.94	38.15	-31.7	-32.3	27.9	0.00e+00	0	31	101	1048576	42	5740
2026-01-06 20:28:44.53	290.40	38.04	-31.7	-32.3	28.0	0.00e+00	0	31	101	1048576	42	5721
2026-01-06 20:28:45.25	290.11	37.98	-31.7	-32.3	28.1	0.00e+00	0	31	101	1048576	42	5714
2026-01-06 20:28:46.54	289.58	37.86	-31.6	-32.2	28.2	0.00e+00	0	31	101	1048576	42	5672
2026-01-06 20:28:47.26	289.29	37.80	-31.3	-31.9	28.3	0.00e+00	0	31	101	1048576	42	5469
2026-01-06 20:28:48.56	288.76	37.68	-31.2	-31.7	28.4	0.00e+00	0	31	101	1048576	42	5365
2026-01-06 20:28:49.28	288.47	37.62	-31.2	-31.7	28.5	0.00e+00	0	32	101	1048576	42	5374
2026-01-06 20:28:50.58	287.96	37.49	-31.1	-31.7	28.4	0.00e+00	0	31	101	1048576	40	5979
2026-01-06 20:28:51.30	287.67	37.43	-31.3	-31.9	28.4	0.00e+00	0	31	101	1048576	40	6110
2026-01-06 20:28:52.60	287.16	37.30	-31.3	-31.9	28.3	0.00e+00	0	31	101	1048576	40	6139
2026-01-06 20:28:53.32	286.87	37.23	-31.4	-32.0	28.2	0.00e+00	0	32	101	1048576	40	6233
2026-01-06 20:28:54.62	286.37	37.10	-31.4	-32.0	28.3	0.00e+00	0	31	101	1048576	40	6203
2026-01-06 20:28:55.35	286.09	37.03	-31.3	-31.9	28.3	0.00e+00	0	31	101	1048576	40	6165
2026-01-06 20:28:56.65	285.58	36.90	-31.6	-32.2	28.3	0.00e+00	0	31	101	1048576	40	6320
2026-01-06 20:28:57.37	285.31	36.83	-31.5	-32.1	28.1	0.00e+00	0	31	101	1048576	40	6261
2026-01-06 20:28:58.66	284.82	36.69	-31.3	-31.9	28.4	0.00e+00	0	31	101	1048576	40	6129
2026-01-06 20:28:59.39	284.54	36.62	-31.4	-32.0	28.4	0.00e+00	0	31	101	1048576	40	6196
2026-01-06 20:29:00.68	284.06	36.48	-31.2	-31.8	28.3	0.00e+00	0	31	101	1048576	40	6078
2026-01-06 20:29:01.40	283.79	36.40	-31.3	-31.9	28.4	0.00e+00	0	31	101	1048576	40	6115
2026-01-06 20:29:02.70	283.31	36.26	-31.2	-31.8	28.5	0.00e+00	0	31	101	1048576	40	6075
2026-01-06 20:29:03.42	283.04	36.19	-31.1	-31.7	28.5	0.00e+00	0	31	101	1048576	40	6018
2026-01-06 20:29:04.72	282.57	36.04	-31.3	-31.9	28.3	0.00e+00	0	31	101	1048576	40	6142
2026-01-06 20:29:05.44	282.31	35.96	-31.4	-31.9	28.3	0.00e+00	0	31	101	1048576	40	6166
2026-01-06 20:29:06.74	281.84	35.82	-31.5	-32.0	28.3	0.00e+00	0	31	101	1048576	40	6242
2026-01-06 20:29:07.46	281.58	35.74	-31.5	-32.1	28.3	0.00e+00	0	31	101	1048576	40	6289
2026-01-06 20:29:08.76	281.12	35.59	-31.7	-32.3	28.1	0.00e+00	0	31	101	1048576	40	6393
2026-01-06 20:29:09.48	280.87	35.51	-31.7	-32.3	28.2	0.00e+00	0	31	101	1048576	40	6416
2026-01-06 20:29:10.78	280.41	35.36	-31.7	-32.3	28.1	0.00e+00	0	31	101	1048576	40	6395
2026-01-06 20:29:11.50	280.16	35.28	-31.7	-32.3	28.1	0.00e+00	0	31	101	1048576	40	6436
2026-01-06 20:29:12.80	279.71	35.13	-31.4	-32.0	27.9	0.00e+00	0	31	101	1048576	40	6224
2026-01-06 20:29:13.52	279.47	35.04	-31.4	-32.0	28.3	0.00e+00	0	32	101	1048576	40	6236
2026-01-06 20:29:14.82	279.02	34.89	-31.6	-32.2	28.2	0.00e+00	0	31	101	1048576	40	6371
2026-01-06 20:29:15.54	278.78	34.80	-31.6	-32.2	28.2	0.00e+00	0	32	101	1048576	40	6324
2026-01-06 20:29:16.84	278.34	34.65	-31.6	-32.2	28.2	0.00e+00	0	32	101	1048576	40	6356
2026-01-06 20:29:17.56	278.10	34.56	-31.4	-32.0	28.2	0.00e+00	0	32	101	1048576	40	6236
2026-01-06 20:29:18.86	277.67	34.40	-31.4	-32.0	28.4	0.00e+00	0	32	101	1048576	40	6215
2026-01-06 20:29:19.58	277.44	34.32	-31.6	-32.2	28.2	0.00e+00	0	32	101	1048576	40	6354
2026-01-06 20:29:20.87	277.02	34.16	-31.8	-32.3	28.1	0.00e+00	0	32	101	1048576	40	6460
2026-01-06 20:29:21.59	276.79	34.07	-31.7	-32.3	28.1	0.00e+00	0	31	101	1048576	40	6445
2026-01-06 20:29:22.89	276.37	33.91	-31.6	-32.2	28.1	0.00e+00	0	32	101	1048576	40	6347
2026-01-06 20:29:23.61	276.14	33.82	-31.6	-32.2	27.5	0.00e+00	0	31	101	1048576	40	6373
2026-01-06 20:29:24.91	275.73	33.66	-31.3	-31.9	28.3	0.00e+00	0	31	101	1048576	40	6157
2026-01-06 20:29:25.63	275.50	33.57	-31.4	-32.0	28.3	0.00e+00	0	31	101	1048576	40	6187
2026-01-06 20:29:26.93	275.10	33.41	-31.3	-31.9	28.4	0.00e+00	0	32	101	1048576	40	6124
2026-01-06 20:29:27.65	274.88	33.32	-31.4	-32.0	28.3	0.00e+00	0	32	101	1048576	40	6188
2026-01-06 20:29:28.95	274.48	33.15	-31.5	-32.1	28.2	0.00e+00	0	32	101	1048576	40	6256
2026-01-06 20:29:29.67	274.26	33.06	-31.5	-32.1	28.2	0.00e+00	0	31	101	1048576	40	6255
2026-01-06 20:29:30.97	273.87	32.90	-31.6	-32.2	28.1	0.00e+00	0	32	101	1048576	40	6358
2026-01-06 20:29:31.69	273.66	32.81	-31.7	-32.3	28.0	0.00e+00	0	32	101	1048576	40	6407
2026-01-06 20:29:32.98	273.27	32.64	-31.7	-32.3	28.1	0.00e+00	0	31	101	1048576	40	6420
2026-01-06 20:29:33.70	273.06	32.55	-31.7	-32.3	27.6	0.00e+00	0	32	101	1048576	40	6454
2026-01-06 20:29:35.00	272.68	32.39	-31.6	-32.2	28.1	0.00e+00	0	32	101	1048576	40	6366
2026-01-06 20:29:35.72	272.47	32.29	-31.6	-32.2	28.1	0.00e+00	0	32	101	1048576	40	6360
2026-01-06 20:29:37.02	272.10	32.13	-31.5	-32.1	28.3	0.00e+00	0	31	101	1048576	40	6295
2026-01-06 20:29:37.75	271.89	32.03	-31.4	-32.0	28.2	0.00e+00	0	32	101	1048576	40	6231
2026-01-06 20:29:39.04	271.53	31.87	-31.1	-31.7	28.4	0.00e+00	0	31	101	1048576	40	5987
2026-01-06 20:29:39.77	271.32	31.77	-31.3	-31.9	28.4	0.00e+00	0	31	101	1048576	40	6116
2026-01-06 20:29:41.06	270.97	31.60	-31.2	-31.8	28.3	0.00e+00	0	31	101	1048576	40	6083
2026-01-06 20:29:41.79	270.76	31.51	-31.3	-31.9	28.3	0.00e+00	0	31	101	1048576	40	6131
2026-01-06 20:29:43.08	270.41	31.34	-31.3	-31.9	28.4	0.00e+00	0	31	101	1048576	40	6158
2026-01-06 20:29:43.81	270.21	31.25	-31.4	-32.0	28.3	0.00e+00	0	31	101	1048576	40	6203
2026-01-06 20:29:45.10	269.87	31.08	-31.5	-32.1	28.2	0.00e+00	0	31	101	1048576	40	6297
2026-01-06 20:29:45.82	269.67	30.99	-31.3	-31.9	28.3	0.00e+00	0	31	101	1048576	40	6162
2026-01-06 20:29:47.12	269.33	30.82	-31.4	-32.0	28.2	0.00e+00	0	31	101	1048576	40	6203
2026-01-06 20:29:47.84	269.14	30.72	-31.4	-32.0	28.2	0.00e+00	0	31	101	1048576	40	6208
2026-01-06 20:29:49.14	268.80	30.55	-31.4	-31.9	28.4	0.00e+00	0	32	101	1048576	40	6166
2026-01-06 20:29:49.86	268.62	30.46	-31.5	-32.0	28.1	0.00e+00	0	31	101	1048576	40	6231
2026-01-06 20:29:51.16	268.28	30.29	-31.6	-32.2	28.0	0.00e+00	0	32	101	1048576	40	6340
2026-01-06 20:29:51.88	268.10	30.19	-31.4	-32.3	23.7	0.00e+00	0	31	101	1048576	40	6391
2026-01-06 20:29:53.18	267.77	30.02	-31.6	-32.4	23.7	0.00e+00	0	31	101	1048576	40	6505
2026-01-06 20:29:53.90	267.59	29.93	-31.6	-32.4	23.6	0.00e+00	0	31	101	1048576	40	6495
2026-01-06 20:29:55.20	267.27	29.76	-31.4	-32.3	23.8	0.00e+00	0	31	101	1048576	40	6404
2026-01-06 20:29:55.92	267.09	29.67	-31.5	-32.3	23.7	0.00e+00	0	31	101	1048576	40	6418
2026-01-06 20:29:57.21	266.78	29.50	-31.4	-32.3	23.9	0.00e+00	0	31	101	1048576	40	6398
2026-01-06 20:29:57.94	266.60	29.40	-31.4	-32.3	23.8	0.00e+00	0	31	101	1048576	40	6391
2026-01-06 20:29:59.23	266.29	29.23	-31.5	-32.3	23.8	0.00e+00	0	32	101	1048576	40	6427
2026-01-06 20:29:59.95	266.12	29.14	-31.5	-32.3	23.8	0.00e+00	0	31	101	1048576	40	6409
2026-01-06 20:30:01.25	265.82	28.97	-31.4	-32.2	23.8	0.00e+00	0	31	101	1048576	40	6373
2026-01-06 20:30:01.97	265.65	28.87	-31.5	-32.3	23.8	0.00e+00	0	31	101	1048576	40	6431
2026-01-06 20:30:03.27	265.35	28.70	-31.4	-32.1	23.8	0.00e+00	0	32	101	1048576	40	6317
2026-01-06 20:30:03.99	265.18	28.61	-31.4	-32.2	23.9	0.00e+00	0	31	101	1048576	40	6339
2026-01-06 20:30:05.28	264.89	28.44	-31.4	-32.1	23.9	0.00e+00	0	31	101	1048576	40	6317
2026-01-06 20:30:06.01	264.72	28.35	-31.5	-32.3	23.9	0.00e+00	0	31	101	1048576	40	6435
2026-01-06 20:30:07.31	264.43	28.18	-31.6	-32.4	23.9	0.00e+00	0	31	101	1048576	40	6535
2026-01-06 20:30:08.03	264.27	28.08	-31.6	-32.4	23.9	0.00e+00	0	31	101	1048576	40	6497
2026-01-06 20:30:09.32	263.98	27.92	-31.6	-32.4	23.9	0.00e+00	0	31	101	1048576	40	6510
2026-01-06 20:30:10.05	263.82	27.82	-31.6	-32.4	24.0	0.00e+00	0	32	101	1048576	40	6501
2026-01-06 20:30:11.35	263.54	27.65	-31.4	-32.2	24.1	0.00e+00	0	32	101	1048576	40	6376
2026-01-06 20:30:12.07	263.39	27.56	-31.6	-32.4	23.8	0.00e+00	0	31	101	1048576	42	5765
2026-01-06 20:30:13.36	263.11	27.39	-31.5	-32.3	24.1	0.00e+00	0	32	101	1048576	42	5736
2026-01-06 20:30:14.09	262.96	27.30	-31.5	-32.3	24.0	0.00e+00	0	32	101	1048576	42	5744
2026-01-06 20:30:15.38	262.69	27.13	-31.8	-32.6	23.8	0.00e+00	0	32	101	1048576	42	5950
2026-01-06 20:30:16.11	262.53	27.04	-31.7	-32.5	23.8	0.00e+00	0	32	101	1048576	42	5888
2026-01-06 20:30:17.40	262.27	26.87	-32.2	-33.0	23.6	0.00e+00	0	31	101	1048576	42	6195
2026-01-06 20:30:18.12	262.12	26.78	-32.2	-33.0	23.6	0.00e+00	0	31	101	1048576	42	6199
2026-01-06 20:30:19.42	261.86	26.61	-32.1	-32.9	23.6	0.00e+00	0	32	101	1048576	42	6145
2026-01-06 20:30:20.14	261.71	26.52	-32.1	-32.9	23.6	0.00e+00	0	32	101	1048576	42	6121
2026-01-06 20:30:21.44	261.45	26.36	-31.9	-32.7	23.6	0.00e+00	0	32	101	1048576	42	6008
2026-01-06 20:30:22.16	261.31	26.26	-31.9	-32.7	23.7	0.00e+00	0	31	101	1048576	42	6019
2026-01-06 20:30:23.46	261.05	26.10	-31.8	-32.7	23.8	0.00e+00	0	31	101	1048576	42	5972
2026-01-06 20:30:24.18	260.91	26.01	-31.7	-32.5	23.9	0.00e+00	0	31	101	1048576	42	5890
2026-01-06 20:30:25.48	260.66	25.84	-31.7	-32.5	23.7	0.00e+00	0	31	101	1048576	42	5870
2026-01-06 20:30:26.20	260.52	25.75	-31.8	-32.6	23.8	0.00e+00	0	31	101	1048576	42	5943
2026-01-06 20:30:27.50	260.27	25.59	-31.7	-32.6	23.7	0.00e+00	0	31	101	1048576	42	5899
2026-01-06 20:30:28.22	260.14	25.50	-31.9	-32.7	23.6	0.00e+00	0	32	101	1048576	42	5988
2026-01-06 20:30:29.52	259.89	25.33	-31.9	-32.7	23.6	0.00e+00	0	32	101	1048576	42	6017
2026-01-06 20:30:30.24	259.76	25.24	-31.6	-32.5	23.8	0.00e+00	0	31	101	1048576	42	5840
2026-01-06 20:30:31.53	259.52	25.08	-31.7	-32.5	23.8	0.00e+00	0	31	101	1048576	42	5885
2026-01-06 20:30:32.25	259.39	24.99	-31.7	-32.5	23.9	0.00e+00	0	31	101	1048576	42	5854
2026-01-06 20:30:33.55	259.16	24.83	-31.6	-32.4	23.8	0.00e+00	0	31	101	1048576	42	5816
2026-01-06 20:30:34.27	259.03	24.74	-31.7	-32.5	23.8	0.00e+00	0	32	101	1048576	42	5844
2026-01-06 20:30:35.57	258.79	24.58	-31.7	-32.5	23.7	0.00e+00	0	31	101	1048576	42	5855
2026-01-06 20:30:36.29	258.67	24.49	-31.8	-32.6	23.6	0.00e+00	0	31	101	1048576	42	5909
2026-01-06 20:30:37.59	258.44	24.33	-31.9	-32.7	23.4	0.00e+00	0	31	101	1048576	42	5997
2026-01-06 20:30:38.31	258.31	24.24	-32.0	-32.8	23.6	0.00e+00	0	32	101	1048576	42	6080
2026-01-06 20:30:39.61	258.09	24.08	-31.9	-32.7	23.4	0.00e+00	0	31	101	1048576	42	5990
2026-01-06 20:30:40.33	257.97	23.99	-31.9	-32.7	23.5	0.00e+00	0	31	101	1048576	42	6011
2026-01-06 20:30:41.63	257.74	23.83	-31.7	-32.5	23.7	0.00e+00	0	32	101	1048576	42	5893
2026-01-06 20:30:42.35	257.62	23.74	-31.7	-32.5	23.8	0.00e+00	0	32	101	1048576	42	5869
2026-01-06 20:30:43.65	257.41	23.58	-31.6	-32.4	23.9	0.00e+00	0	32	101	1048576	42	5790
2026-01-06 20:30:44.37	257.29	23.50	-31.6	-32.4	24.0	0.00e+00	0	31	101	1048576	42	5790
2026-01-06 20:30:45.67	257.07	23.34	-31.7	-32.5	23.8	0.00e+00	0	31	101	1048576	42	5852
2026-01-06 20:30:46.40	256.95	23.25	-31.7	-32.5	24.0	0.00e+00	0	31	101	1048576	42	5836
2026-01-06 20:30:47.69	256.74	23.09	-32.0	-32.8	23.9	0.00e+00	0	31	101	1048576	42	6039
2026-01-06 20:30:48.41	256.63	23.01	-31.8	-32.6	23.8	0.00e+00	0	31	101	1048576	42	5957
2026-01-06 20:30:49.71	256.42	22.85	-32.0	-32.8	23.7	0.00e+00	0	31	101	1048576	42	6068
2026-01-06 20:30:50.43	256.31	22.77	-32.1	-33.0	23.6	0.00e+00	0	31	101	1048576	42	6175
2026-01-06 20:30:51.72	256.10	22.61	-32.1	-32.9	23.5	0.00e+00	0	32	101	1048576	42	6170
2026-01-06 20:30:52.44	255.99	22.53	-32.3	-33.1	23.7	0.00e+00	0	31	101	1048576	42	6275
2026-01-06 20:30:53.74	255.79	22.37	-32.1	-32.9	23.8	0.00e+00	0	31	101	1048576	42	6142
2026-01-06 20:30:54.46	255.68	22.29	-32.0	-32.8	23.7	0.00e+00	0	31	101	1048576	42	6069
2026-01-06 20:30:55.76	255.48	22.13	-31.9	-32.7	23.9	0.00e+00	0	31	101	1048576	42	5993
2026-01-06 20:30:56.48	255.37	22.05	-32.1	-32.9	23.6	0.00e+00	0	31	101	1048576	42	6118
2026-01-06 20:30:57.78	255.18	21.90	-31.9	-32.7	23.8	0.00e+00	0	31	101	1048576	42	5986
2026-01-06 20:30:58.50	255.07	21.81	-31.9	-32.7	23.7	0.00e+00	0	31	101	1048576	42	6019
2026-01-06 20:30:59.79	254.88	21.66	-32.0	-32.8	23.7	0.00e+00	0	31	101	1048576	42	6053
2026-01-06 20:31:00.51	254.77	21.58	-31.9	-32.7	23.8	0.00e+00	0	32	101	1048576	42	5981
2026-01-06 20:31:01.81	254.59	21.43	-31.8	-32.6	23.8	0.00e+00	0	32	101	1048576	42	5929
2026-01-06 20:31:02.53	254.48	21.34	-31.8	-32.6	23.8	0.00e+00	0	32	101	1048576	42	5939
2026-01-06 20:31:03.83	254.30	21.19	-31.9	-32.7	23.8	0.00e+00	0	32	101	1048576	42	5966
2026-01-06 20:31:04.55	254.19	21.11	-32.0	-32.8	23.7	0.00e+00	0	32	101	1048576	42	6064
2026-01-06 20:31:05.85	254.01	20.96	-32.0	-32.8	23.8	0.00e+00	0	31	101	1048576	42	6075
2026-01-06 20:31:06.57	253.91	20.88	-32.0	-32.8	23.8	0.00e+00	0	32	101	1048576	42	6096
2026-01-06 20:31:07.87	253.73	20.73	-32.2	-33.0	23.6	0.00e+00	0	31	101	1048576	42	6241
2026-01-06 20:31:08.59	253.63	20.65	-32.2	-33.0	23.7	0.00e+00	0	31	101	1048576	42	6221
2026-01-06 20:31:09.88	253.45	20.50	-32.3	-33.1	23.7	0.00e+00	0	31	101	1048576	42	6301
2026-01-06 20:31:10.60	253.36	20.42	-32.2	-33.0	23.8	0.00e+00	0	31	101	1048576	42	6239
2026-01-06 20:31:11.90	253.18	20.27	-32.1	-33.0	23.9	0.00e+00	0	32	101	1048576	42	6177
2026-01-06 20:31:12.62	253.08	20.19	-32.2	-33.0	23.9	0.00e+00	0	31	101	1048576	42	6214
2026-01-06 20:31:13.92	252.91	20.05	-32.0	-32.8	24.1	0.00e+00	0	31	101	1048576	42	6040
2026-01-06 20:31:14.64	252.82	19.97	-32.0	-32.8	24.1	0.00e+00	0	31	101	1048576	42	6073
2026-01-06 20:31:15.93	252.65	19.82	-32.0	-32.7	24.1	0.00e+00	0	32	101	1048576	42	6026
2026-01-06 20:31:16.66	252.55	19.74	-32.0	-32.7	24.2	0.00e+00	0	31	101	1048576	42	6016
2026-01-06 20:31:17.95	252.39	19.60	-32.0	-32.8	24.0	0.00e+00	0	31	101	1048576	42	6088
2026-01-06 20:31:18.67	252.30	19.52	-32.2	-32.9	24.0	0.00e+00	0	31	101	1048576	42	6165
2026-01-06 20:31:19.97	252.13	19.38	-32.3	-33.1	23.9	0.00e+00	0	31	101	1048576	42	6274
2026-01-06 20:31:20.69	252.04	19.30	-32.4	-33.2	23.8	0.00e+00	0	31	101	1048576	42	6368
2026-01-06 20:31:21.99	251.88	19.16	-32.6	-33.5	23.5	0.00e+00	0	31	101	1048576	42	6542
2026-01-06 20:31:22.70	251.79	19.08	-32.7	-33.5	23.5	0.00e+00	0	31	101	1048576	42	6580
2026-01-06 20:31:24.00	251.63	18.94	-32.8	-33.6	23.3	0.00e+00	0	31	101	1048576	42	6680
2026-01-06 20:31:24.72	251.54	18.86	-32.8	-33.6	23.2	0.00e+00	0	31	101	1048576	42	6680
2026-01-06 20:31:26.02	251.38	18.72	-32.9	-33.7	23.3	0.00e+00	0	31	101	1048576	42	6740
2026-01-06 20:31:26.73	251.30	18.64	-32.8	-33.7	23.3	0.00e+00	0	31	101	1048576	42	6712
2026-01-06 20:31:28.03	251.14	18.51	-32.9	-33.8	23.2	0.00e+00	0	32	101	1048576	44	6036
2026-01-06 20:31:28.75	251.06	18.43	-32.9	-33.7	23.3	0.00e+00	0	31	101	1048576	44	6027
2026-01-06 20:31:30.05	250.90	18.29	-32.8	-33.7	23.4	0.00e+00	0	32	101	1048576	44	5970
2026-01-06 20:31:30.77	250.82	18.21	-32.9	-33.7	23.3	0.00e+00	0	31	101	1048576	44	6027
2026-01-06 20:31:32.07	250.67	18.08	-33.0	-33.9	23.3	0.00e+00	0	32	101	1048576	44	6105
2026-01-06 20:31:32.79	250.58	18.00	-33.1	-33.9	23.4	0.00e+00	0	31	101	1048576	44	6160
2026-01-06 20:31:34.08	250.44	17.86	-33.1	-33.9	23.2	0.00e+00	0	32	101	1048576	44	6130
2026-01-06 20:31:34.80	250.35	17.79	-33.2	-34.0	23.3	0.00e+00	0	31	101	1048576	44	6240
2026-01-06 20:31:36.10	250.21	17.65	-33.2	-34.1	23.2	0.00e+00	0	32	101	1048576	44	6265
2026-01-06 20:31:36.82	250.13	17.58	-33.3	-34.2	23.2	0.00e+00	0	31	101	1048576	44	6333
2026-01-06 20:31:38.12	249.98	17.44	-33.2	-34.0	23.3	0.00e+00	0	32	101	1048576	44	6212
2026-01-06 20:31:38.84	249.90	17.37	-33.2	-34.0	23.3	0.00e+00	0	31	101	1048576	44	6222
2026-01-06 20:31:40.13	249.76	17.23	-33.2	-34.1	23.3	0.00e+00	0	31	101	1048576	44	6255
2026-01-06 20:31:40.85	249.68	17.16	-33.1	-33.9	23.4	0.00e+00	0	32	101	1048576	44	6145
2026-01-06 20:31:42.15	249.54	17.03	-33.3	-34.1	23.4	0.00e+00	0	32	101	1048576	44	6269
2026-01-06 20:31:42.87	249.46	16.95	-33.2	-34.0	23.5	0.00e+00	0	32	101	1048576	44	6192
2026-01-06 20:31:44.17	249.33	16.82	-33.1	-34.0	23.5	0.00e+00	0	32	101	1048576	44	6175
2026-01-06 20:31:44.88	249.25	16.75	-33.2	-34.0	23.4	0.00e+00	0	32	101	1048576	44	6200
2026-01-06 20:31:46.18	249.11	16.62	-33.1	-33.9	23.5	0.00e+00	0	32	101	1048576	44	6122
2026-01-06 20:31:46.90	249.04	16.54	-33.1	-33.9	23.5	0.00e+00	0	31	101	1048576	44	6137
2026-01-06 20:31:48.20	248.90	16.41	-33.1	-33.9	23.4	0.00e+00	0	32	101	1048576	44	6165
2026-01-06 20:31:48.92	248.83	16.34	-33.2	-34.0	23.3	0.00e+00	0	32	101	1048576	44	6212
2026-01-06 20:31:50.22	248.70	16.21	-33.3	-34.1	23.4	0.00e+00	0	31	101	1048576	44	6272
2026-01-06 20:31:50.94	248.62	16.14	-33.3	-34.2	23.4	0.00e+00	0	32	101	1048576	44	6327
2026-01-06 20:31:52.23	248.49	16.01	-33.4	-34.2	23.4	0.00e+00	0	32	101	1048576	44	6369
2026-01-06 20:31:52.96	248.42	15.94	-33.3	-34.2	23.4	0.00e+00	0	32	101	1048576	44	6329
2026-01-06 20:31:54.25	248.29	15.81	-33.5	-34.3	23.3	0.00e+00	0	32	101	1048576	44	6440
2026-01-06 20:31:54.97	248.22	15.74	-33.4	-34.3	23.2	0.00e+00	0	32	101	1048576	44	6402
2026-01-06 20:31:56.27	248.09	15.61	-33.4	-34.3	23.4	0.00e+00	0	32	101	1048576	44	6402
2026-01-06 20:31:56.99	248.02	15.54	-33.5	-34.3	23.4	0.00e+00	0	32	101	1048576	44	6439
2026-01-06 20:31:58.29	247.89	15.42	-33.6	-34.4	23.3	0.00e+00	0	32	101	1048576	44	6500
2026-01-06 20:31:59.01	247.83	15.35	-33.6	-34.4	23.1	0.00e+00	0	32	101	1048576	44	6531
2026-01-06 20:32:00.31	247.70	15.22	-33.7	-34.6	23.2	0.00e+00	0	32	101	1048576	44	6618
2026-01-06 20:32:01.03	247.63	15.15	-33.7	-34.6	23.2	0.00e+00	0	32	101	1048576	44	6635
2026-01-06 20:32:02.33	247.51	15.02	-33.8	-34.6	23.1	0.00e+00	0	32	101	1048576	44	6659
2026-01-06 20:32:03.05	247.44	14.96	-33.9	-34.7	23.1	0.00e+00	0	32	101	1048576	44	6740
2026-01-06 20:32:04.35	247.32	14.83	-34.0	-34.8	23.0	0.00e+00	0	32	101	1048576	44	6819
2026-01-06 20:32:05.07	247.25	14.76	-33.9	-34.7	23.1	0.00e+00	0	32	101	1048576	44	6759
2026-01-06 20:32:06.36	247.14	14.64	-33.9	-34.8	23.1	0.00e+00	0	32	101	1048576	44	6777
2026-01-06 20:32:07.09	247.07	14.57	-34.0	-34.8	23.0	0.00e+00	0	32	101	1048576	44	6809
2026-01-06 20:32:08.38	246.95	14.45	-34.2	-35.0	22.9	0.00e+00	0	32	101	1048576	46	6212
2026-01-06 20:32:09.10	246.89	14.38	-34.1	-35.0	23.0	0.00e+00	0	32	101	1048576	46	6195
2026-01-06 20:32:10.40	246.77	14.26	-34.1	-35.0	23.0	0.00e+00	0	32	101	1048576	46	6179
2026-01-06 20:32:11.12	246.71	14.19	-34.0	-34.9	23.1	0.00e+00	0	32	101	1048576	46	6108
2026-01-06 20:32:12.42	246.59	14.07	-34.1	-35.0	23.0	0.00e+00	0	32	101	1048576	46	6183
2026-01-06 20:32:13.14	246.53	14.00	-34.1	-35.0	23.0	0.00e+00	0	32	101	1048576	46	6185
