passes_logs/2026/01/06/R4.6S_Anadyr_2ch/R4.6S_Anadyr_2ch__20260106_193104_AQUA_rec.log

#Pass ID: 20260106_193104_AQUA
#Satellite: AQUA
#Configuration: AQUA
#almurnet v.1.7.20251203
#Start time: 2026-01-06 19:31:06

#Version: 2.2.20231116
#Station: R4.6S_Anadyr_2ch
#Location: 177.4865 lon 64.73178 lat
#TLE: 1 27424U 02022A   25351.00450321  .00000925  00000+0  19503-3 0  9992
#TLE: 2 27424  98.4041 311.9529 0001248 113.7180 322.1616 14.61819266256652

#Time	Az	El	Level	Level2	SNR	BER	BlckErr	Temp	State	Recorded	gain1	gain2
2026-01-06 19:31:06.76	30.78	0.12	-51.1	-66.1	3.5	1.51e+00	0	29	0	0	60	98671
2026-01-06 19:31:07.77	30.70	0.17	-51.3	-69.1	3.5	3.02e+01	0	30	104	0	60	147499
2026-01-06 19:31:08.78	30.62	0.22	-51.3	-69.1	3.5	3.02e+01	0	30	104	0	60	147789
2026-01-06 19:31:09.79	30.54	0.27	-51.3	-69.1	3.6	3.02e+01	0	30	104	0	60	147950
2026-01-06 19:31:10.80	30.45	0.32	-51.3	-69.1	3.5	3.02e+01	0	30	104	0	60	148435
2026-01-06 19:31:11.81	30.37	0.37	-51.3	-69.1	3.5	3.02e+01	0	30	104	0	60	148274
2026-01-06 19:31:12.83	30.29	0.43	-51.3	-69.1	3.5	3.02e+01	0	30	104	0	60	148094
2026-01-06 19:31:13.83	30.21	0.48	-51.3	-69.1	3.5	3.02e+01	0	30	104	0	60	147799
2026-01-06 19:31:14.85	30.12	0.53	-51.3	-69.1	3.5	3.02e+01	0	30	104	0	60	148425
2026-01-06 19:31:15.86	30.04	0.58	-51.3	-69.1	3.5	3.02e+01	0	30	104	0	60	148035
2026-01-06 19:31:16.87	29.95	0.63	-51.3	-69.1	3.5	3.02e+01	0	30	104	0	60	148282
2026-01-06 19:31:17.88	29.87	0.69	-51.3	-69.1	3.5	3.02e+01	0	30	104	0	60	148077
2026-01-06 19:31:18.89	29.79	0.74	-51.3	-69.1	3.5	3.02e+01	0	30	104	0	60	148288
2026-01-06 19:31:19.90	29.70	0.79	-51.3	-69.1	3.5	3.02e+01	0	30	104	0	60	148547
2026-01-06 19:31:20.91	29.62	0.84	-51.3	-69.1	3.5	3.02e+01	0	30	104	0	60	148235
2026-01-06 19:31:21.92	29.53	0.89	-51.3	-69.1	3.5	3.02e+01	0	30	104	0	60	147996
2026-01-06 19:31:22.93	29.44	0.95	-51.3	-69.1	3.5	3.02e+01	0	30	104	0	60	147609
2026-01-06 19:31:23.94	29.36	1.00	-51.3	-69.1	3.5	3.02e+01	0	30	104	0	60	147942
2026-01-06 19:31:24.95	29.27	1.05	-51.3	-69.1	3.5	3.02e+01	0	30	104	0	60	148827
2026-01-06 19:31:25.96	29.18	1.10	-51.3	-69.1	3.5	3.02e+01	0	30	104	0	60	148727
2026-01-06 19:31:26.98	29.10	1.16	-51.3	-69.2	3.5	3.02e+01	0	30	104	0	60	148985
2026-01-06 19:31:27.99	29.01	1.21	-51.3	-69.2	3.5	3.02e+01	0	30	104	0	60	149125
2026-01-06 19:31:29.00	28.92	1.26	-51.3	-69.2	3.5	3.02e+01	0	30	104	0	60	148881
2026-01-06 19:31:30.01	28.83	1.31	-51.3	-69.2	3.5	3.02e+01	0	30	104	0	60	149012
2026-01-06 19:31:31.02	28.74	1.37	-51.3	-69.2	3.5	3.02e+01	0	30	104	0	60	149057
2026-01-06 19:31:32.03	28.65	1.42	-51.3	-69.2	3.5	3.02e+01	0	30	104	0	60	149347
2026-01-06 19:31:33.04	28.57	1.47	-51.3	-69.1	3.5	3.02e+01	0	30	104	0	60	148221
2026-01-06 19:31:34.05	28.48	1.52	-51.3	-69.1	3.5	3.02e+01	0	30	104	0	60	147647
2026-01-06 19:31:35.06	28.39	1.58	-51.3	-69.1	3.5	3.02e+01	0	30	104	0	60	148402
2026-01-06 19:31:36.08	28.29	1.63	-51.3	-69.1	3.5	3.02e+01	0	31	104	0	60	148467
2026-01-06 19:31:37.09	28.20	1.68	-51.3	-69.1	3.5	3.02e+01	0	30	104	0	60	148586
2026-01-06 19:31:38.10	28.11	1.74	-51.3	-69.1	3.5	3.02e+01	0	31	104	0	60	148466
2026-01-06 19:31:39.11	28.02	1.79	-51.3	-69.1	3.5	3.02e+01	0	31	104	0	60	148410
2026-01-06 19:31:40.12	27.93	1.84	-51.3	-69.1	3.5	3.02e+01	0	31	104	0	60	148474
2026-01-06 19:31:41.13	27.84	1.89	-51.3	-69.1	3.5	3.02e+01	0	30	104	0	60	148806
2026-01-06 19:31:42.14	27.74	1.95	-51.3	-69.1	3.5	3.02e+01	0	30	104	0	60	148203
2026-01-06 19:31:43.15	27.65	2.00	-51.3	-69.1	3.5	3.02e+01	0	30	104	0	60	148695
2026-01-06 19:31:44.16	27.56	2.05	-51.3	-69.1	3.5	3.02e+01	0	30	104	0	60	148566
2026-01-06 19:31:45.18	27.46	2.11	-51.3	-69.2	3.5	3.02e+01	0	30	104	0	60	148926
2026-01-06 19:31:46.19	27.37	2.16	-51.3	-69.1	3.5	3.02e+01	0	31	104	0	60	148441
2026-01-06 19:31:47.20	27.27	2.21	-51.3	-69.2	3.5	3.02e+01	0	30	104	0	60	148988
2026-01-06 19:31:48.21	27.18	2.27	-51.3	-69.1	3.5	3.02e+01	0	31	104	0	60	148002
2026-01-06 19:31:49.22	27.08	2.32	-51.3	-69.1	3.5	3.02e+01	0	31	104	0	60	148428
2026-01-06 19:31:50.23	26.99	2.37	-51.3	-69.1	3.5	3.02e+01	0	31	104	0	60	148758
2026-01-06 19:31:51.24	26.89	2.43	-51.3	-69.1	3.5	3.02e+01	0	31	104	0	60	148202
2026-01-06 19:31:52.25	26.79	2.48	-51.3	-69.1	3.5	3.02e+01	0	31	104	0	60	148679
2026-01-06 19:31:53.26	26.70	2.53	-51.3	-69.1	3.5	3.02e+01	0	31	104	0	60	147865
2026-01-06 19:31:54.27	26.60	2.59	-51.3	-69.1	3.5	3.02e+01	0	31	104	0	60	148401
2026-01-06 19:31:55.28	26.50	2.64	-51.3	-69.1	3.5	3.02e+01	0	31	104	0	60	148354
2026-01-06 19:31:56.30	26.40	2.70	-51.3	-69.1	3.5	3.02e+01	0	31	104	0	60	148102
2026-01-06 19:31:57.31	26.30	2.75	-51.3	-69.1	3.5	3.02e+01	0	31	104	0	60	148714
2026-01-06 19:31:58.32	26.20	2.80	-51.3	-69.1	3.5	3.02e+01	0	31	104	0	60	148432
2026-01-06 19:31:59.33	26.10	2.86	-51.3	-69.1	3.5	3.02e+01	0	31	104	0	60	148661
2026-01-06 19:32:00.34	26.01	2.91	-51.3	-69.1	3.5	3.02e+01	0	31	104	0	60	148236
2026-01-06 19:32:01.35	25.90	2.96	-51.3	-69.1	3.5	3.02e+01	0	31	104	0	60	148428
2026-01-06 19:32:02.36	25.80	3.02	-51.3	-69.1	3.5	3.02e+01	0	31	104	0	60	148533
2026-01-06 19:32:03.37	25.70	3.07	-51.3	-69.1	3.5	3.02e+01	0	31	104	0	60	147803
2026-01-06 19:32:04.38	25.60	3.13	-51.3	-69.1	3.5	3.02e+01	0	31	104	0	60	147744
2026-01-06 19:32:05.40	25.50	3.18	-51.3	-69.1	3.5	3.02e+01	0	31	104	0	60	148447
2026-01-06 19:32:06.41	25.40	3.24	-51.3	-69.1	3.5	3.02e+01	0	31	104	0	60	148311
2026-01-06 19:32:07.42	25.29	3.29	-51.3	-69.1	3.5	3.02e+01	0	31	104	0	60	147467
2026-01-06 19:32:08.43	25.19	3.34	-51.3	-69.2	3.5	3.02e+01	0	31	104	0	60	149318
2026-01-06 19:32:09.44	25.09	3.40	-51.3	-69.1	3.5	3.02e+01	0	31	104	0	60	148032
2026-01-06 19:32:10.45	24.98	3.45	-51.3	-69.1	3.5	3.02e+01	0	31	104	0	60	147188
2026-01-06 19:32:11.46	24.88	3.51	-51.3	-69.1	3.5	3.02e+01	0	31	104	0	60	147794
2026-01-06 19:32:12.47	24.77	3.56	-51.3	-69.1	3.5	3.02e+01	0	31	104	0	60	148622
2026-01-06 19:32:13.48	24.67	3.61	-51.3	-69.1	3.5	3.02e+01	0	31	104	0	60	148321
2026-01-06 19:32:14.50	24.56	3.67	-51.3	-69.1	3.5	3.02e+01	0	31	104	0	60	148694
2026-01-06 19:32:15.51	24.45	3.72	-51.3	-69.1	3.5	3.02e+01	0	31	104	0	60	148375
2026-01-06 19:32:16.52	24.35	3.78	-51.3	-69.2	3.5	3.02e+01	0	31	104	0	60	149099
2026-01-06 19:32:17.53	24.24	3.83	-51.3	-69.1	3.5	3.02e+01	0	31	104	0	60	148242
2026-01-06 19:32:18.54	24.13	3.89	-51.3	-69.1	3.5	3.02e+01	0	31	104	0	60	147776
2026-01-06 19:32:19.55	24.02	3.94	-51.3	-69.1	3.5	3.02e+01	0	31	104	0	60	148418
2026-01-06 19:32:20.56	23.91	4.00	-51.3	-69.1	3.5	3.02e+01	0	31	104	0	60	147581
2026-01-06 19:32:21.57	23.81	4.05	-51.3	-69.1	3.5	3.02e+01	0	31	104	0	60	147910
2026-01-06 19:32:22.58	23.70	4.10	-51.3	-69.1	3.5	3.02e+01	0	31	104	0	60	147897
2026-01-06 19:32:23.59	23.59	4.16	-51.3	-69.1	3.5	3.02e+01	0	31	104	0	60	148722
2026-01-06 19:32:24.60	23.48	4.21	-51.3	-69.1	3.5	3.02e+01	0	31	104	0	60	148386
2026-01-06 19:32:25.61	23.36	4.27	-51.3	-69.2	3.5	3.02e+01	0	31	104	0	60	148892
2026-01-06 19:32:26.62	23.25	4.32	-51.3	-69.1	3.5	3.02e+01	0	31	104	0	60	148773
2026-01-06 19:32:27.63	23.14	4.38	-51.3	-69.2	3.5	3.02e+01	0	31	104	0	60	148988
2026-01-06 19:32:28.65	23.03	4.43	-51.3	-69.1	3.5	3.02e+01	0	31	104	0	60	147956
2026-01-06 19:32:29.66	22.92	4.49	-51.3	-69.1	3.5	3.02e+01	0	31	104	0	60	148114
2026-01-06 19:32:30.67	22.80	4.54	-51.3	-69.1	3.5	3.02e+01	0	31	104	0	60	148322
2026-01-06 19:32:31.68	22.69	4.60	-51.3	-69.1	3.5	3.02e+01	0	31	104	0	60	147680
2026-01-06 19:32:32.69	22.57	4.65	-51.3	-69.1	3.5	3.02e+01	0	31	104	0	60	148765
2026-01-06 19:32:33.70	22.46	4.71	-51.3	-69.1	3.5	3.02e+01	0	31	104	0	60	147783
2026-01-06 19:32:34.71	22.34	4.76	-51.3	-69.1	3.5	3.02e+01	0	31	104	0	60	148685
2026-01-06 19:32:35.72	22.23	4.82	-51.3	-69.1	3.5	3.02e+01	0	31	104	0	60	147398
2026-01-06 19:32:36.73	22.11	4.87	-51.3	-69.1	3.5	3.02e+01	0	31	104	0	60	148641
2026-01-06 19:32:37.74	22.00	4.93	-51.3	-69.1	3.5	3.02e+01	0	31	104	0	60	148747
2026-01-06 19:32:38.76	21.88	4.98	-51.3	-69.1	3.5	3.02e+01	0	31	104	0	60	148732
2026-01-06 19:32:39.77	21.76	5.04	-51.3	-69.1	3.5	3.02e+01	0	31	104	0	60	147750
2026-01-06 19:32:40.78	21.64	5.09	-51.3	-69.1	3.5	3.02e+01	0	31	104	0	60	148461
2026-01-06 19:32:41.79	21.52	5.15	-51.3	-69.1	3.5	3.02e+01	0	31	104	0	60	147841
2026-01-06 19:32:42.80	21.40	5.20	-51.3	-69.1	3.5	3.02e+01	0	31	104	0	60	148849
2026-01-06 19:32:43.81	21.28	5.26	-51.3	-69.1	3.5	3.02e+01	0	31	104	0	60	148797
2026-01-06 19:32:44.82	21.16	5.31	-51.3	-69.1	3.5	3.02e+01	0	31	104	0	60	148539
2026-01-06 19:32:45.83	21.04	5.37	-51.3	-69.1	3.5	3.02e+01	0	31	104	0	60	148569
2026-01-06 19:32:46.84	20.92	5.42	-51.3	-69.1	3.5	3.02e+01	0	31	104	0	60	148048
2026-01-06 19:32:47.85	20.80	5.48	-51.3	-69.1	3.5	3.02e+01	0	31	104	0	60	148859
2026-01-06 19:32:48.86	20.68	5.53	-51.3	-69.1	3.5	3.02e+01	0	31	104	0	60	147843
2026-01-06 19:32:49.87	20.55	5.59	-51.3	-69.1	3.5	3.02e+01	0	31	104	0	60	148421
2026-01-06 19:32:50.89	20.43	5.64	-51.3	-69.1	3.5	3.02e+01	0	31	104	0	60	148316
2026-01-06 19:32:51.90	20.31	5.70	-51.3	-69.2	3.5	3.02e+01	0	31	104	0	60	149324
2026-01-06 19:32:52.91	20.18	5.75	-51.3	-69.2	3.5	3.02e+01	0	31	104	0	60	148882
2026-01-06 19:32:53.92	20.06	5.81	-51.3	-69.1	3.5	3.02e+01	0	31	104	0	60	148736
2026-01-06 19:32:54.93	19.93	5.87	-51.3	-69.1	3.5	3.02e+01	0	31	104	0	60	148769
2026-01-06 19:32:55.94	19.81	5.92	-51.4	-69.2	3.5	3.02e+01	0	31	104	0	60	150121
2026-01-06 19:32:56.95	19.68	5.98	-51.4	-69.3	3.5	3.02e+01	0	31	104	0	60	150932
2026-01-06 19:32:57.96	19.55	6.03	-51.4	-69.2	3.5	3.02e+01	0	31	104	0	60	150147
2026-01-06 19:32:58.97	19.42	6.09	-51.4	-69.3	3.5	3.02e+01	0	31	104	0	60	151675
2026-01-06 19:32:59.98	19.30	6.14	-51.4	-69.3	3.5	3.02e+01	0	31	104	0	60	151708
2026-01-06 19:33:00.99	19.17	6.20	-51.5	-69.3	3.5	3.02e+01	0	31	104	0	60	152065
2026-01-06 19:33:02.00	19.04	6.25	-51.5	-69.4	3.5	3.02e+01	0	31	104	0	60	152810
2026-01-06 19:33:03.01	18.91	6.31	-51.0	-69.3	3.5	3.02e+01	0	31	104	0	60	151952
2026-01-06 19:33:04.02	18.78	6.36	-51.5	-69.3	3.5	3.02e+01	0	31	104	0	60	151098
2026-01-06 19:33:05.04	18.65	6.42	-50.5	-69.3	3.6	3.02e+01	0	31	104	0	60	151294
2026-01-06 19:33:06.04	18.52	6.47	-51.4	-69.3	3.5	3.02e+01	0	31	104	0	60	150875
2026-01-06 19:33:07.05	18.38	6.53	-51.2	-69.3	3.5	3.02e+01	0	31	104	0	60	150754
2026-01-06 19:33:08.06	18.25	6.58	-51.3	-69.2	3.5	3.02e+01	0	31	104	0	60	149323
2026-01-06 19:33:09.07	18.12	6.64	-51.1	-69.1	3.5	3.02e+01	0	31	104	0	60	147715
2026-01-06 19:33:10.09	17.98	6.69	-49.7	-68.9	3.5	3.02e+01	0	31	104	0	60	145120
2026-01-06 19:33:11.10	17.85	6.75	-50.4	-68.8	3.5	3.02e+01	0	31	104	0	60	142236
2026-01-06 19:33:12.11	17.71	6.80	-49.6	-68.2	3.5	3.02e+01	0	31	104	0	60	133948
2026-01-06 19:33:13.11	17.58	6.86	-49.2	-67.8	3.5	3.02e+01	0	31	104	0	60	127625
2026-01-06 19:33:14.12	17.44	6.91	-49.2	-67.8	3.5	3.02e+01	0	31	104	0	60	127903
2026-01-06 19:33:15.14	17.31	6.97	-49.2	-67.8	3.5	3.02e+01	0	31	104	0	60	127366
2026-01-06 19:33:16.15	17.17	7.03	-49.2	-67.8	3.5	3.02e+01	0	31	104	0	60	127500
2026-01-06 19:33:17.16	17.03	7.08	-49.2	-67.8	3.5	3.02e+01	0	31	104	0	60	127054
2026-01-06 19:33:18.17	16.89	7.14	-49.2	-67.8	3.5	3.02e+01	0	31	104	0	60	127317
2026-01-06 19:33:19.17	16.76	7.19	-49.2	-67.8	3.5	3.02e+01	0	31	104	0	60	127098
2026-01-06 19:33:20.19	16.62	7.25	-49.2	-67.9	3.5	3.02e+01	0	31	104	0	60	128427
2026-01-06 19:33:21.20	16.48	7.30	-49.1	-67.8	3.5	3.02e+01	0	31	104	0	60	127400
2026-01-06 19:33:22.20	16.34	7.36	-49.2	-67.8	3.5	3.02e+01	0	31	104	0	60	127424
2026-01-06 19:33:23.21	16.20	7.41	-49.2	-67.8	3.5	3.02e+01	0	31	104	0	60	127756
2026-01-06 19:33:24.22	16.05	7.47	-49.2	-67.8	3.5	3.02e+01	0	31	104	0	60	128108
2026-01-06 19:33:25.23	15.91	7.52	-49.2	-67.8	3.5	3.02e+01	0	31	104	0	60	128072
2026-01-06 19:33:26.24	15.77	7.58	-49.2	-67.8	3.5	3.02e+01	0	31	104	0	60	127090
2026-01-06 19:33:27.25	15.62	7.63	-49.2	-67.8	3.5	3.02e+01	0	31	104	0	60	127846
2026-01-06 19:33:28.26	15.48	7.69	-49.2	-67.8	3.5	3.02e+01	0	31	104	0	60	127371
2026-01-06 19:33:29.27	15.34	7.74	-49.2	-67.8	3.5	3.02e+01	0	31	104	0	60	127959
2026-01-06 19:33:30.28	15.19	7.79	-49.2	-67.8	3.5	3.02e+01	0	31	104	0	60	127503
2026-01-06 19:33:31.29	15.04	7.85	-49.2	-67.8	3.5	3.02e+01	0	31	104	0	60	127635
2026-01-06 19:33:32.30	14.90	7.90	-49.2	-67.8	3.5	3.02e+01	0	31	104	0	60	127249
2026-01-06 19:33:33.31	14.75	7.96	-49.2	-67.8	3.5	3.02e+01	0	31	104	0	60	127462
2026-01-06 19:33:34.32	14.60	8.01	-49.1	-67.8	3.5	3.02e+01	0	31	104	0	60	127124
2026-01-06 19:33:35.33	14.45	8.07	-49.1	-67.8	3.5	3.02e+01	0	31	104	0	60	127475
2026-01-06 19:33:36.34	14.30	8.12	-49.2	-67.8	3.5	3.02e+01	0	31	104	0	60	127351
2026-01-06 19:33:37.35	14.16	8.18	-49.1	-67.8	3.5	3.02e+01	0	31	104	0	60	126835
2026-01-06 19:33:38.36	14.00	8.23	-49.1	-67.8	3.5	3.02e+01	0	31	104	0	60	126950
2026-01-06 19:33:39.37	13.85	8.29	-49.1	-67.8	3.5	3.02e+01	0	31	104	0	60	127593
2026-01-06 19:33:40.38	13.70	8.34	-49.1	-67.8	3.5	3.02e+01	0	31	104	0	60	127215
2026-01-06 19:33:41.39	13.55	8.40	-49.1	-67.8	3.5	3.02e+01	0	31	104	0	60	127746
2026-01-06 19:33:42.40	13.40	8.45	-49.1	-67.8	3.5	3.02e+01	0	31	104	0	60	127481
2026-01-06 19:33:43.41	13.24	8.50	-49.1	-67.8	3.5	3.02e+01	0	31	104	0	60	127257
2026-01-06 19:33:44.42	13.09	8.56	-49.1	-67.8	3.5	3.02e+01	0	31	104	0	60	127509
2026-01-06 19:33:45.43	12.93	8.61	-49.1	-67.8	3.5	3.02e+01	0	31	104	0	60	127094
2026-01-06 19:33:46.44	12.78	8.67	-49.1	-67.8	3.5	3.02e+01	0	31	104	0	60	127499
2026-01-06 19:33:47.44	12.63	8.72	-49.1	-67.8	3.5	3.02e+01	0	31	104	0	60	126815
2026-01-06 19:33:48.46	12.47	8.77	-49.1	-67.8	3.5	3.02e+01	0	31	104	0	60	128166
2026-01-06 19:33:49.46	12.31	8.83	-49.1	-67.8	3.5	3.02e+01	0	31	104	0	60	127422
2026-01-06 19:33:50.47	12.15	8.88	-49.1	-67.8	3.5	3.02e+01	0	31	104	0	60	127470
2026-01-06 19:33:51.48	11.99	8.94	-49.1	-67.8	3.5	3.02e+01	0	31	104	0	60	127339
2026-01-06 19:33:52.49	11.84	8.99	-49.1	-67.8	3.5	3.02e+01	0	31	104	0	60	127549
2026-01-06 19:33:53.50	11.68	9.04	-49.1	-67.8	3.5	3.02e+01	0	31	104	0	60	127543
2026-01-06 19:33:54.51	11.52	9.10	-49.5	-67.9	3.5	3.02e+01	0	31	104	0	60	128418
2026-01-06 19:33:55.52	11.35	9.15	-49.5	-67.9	3.5	3.02e+01	0	31	104	0	60	129127
2026-01-06 19:33:56.53	11.19	9.20	-49.2	-67.8	3.5	3.02e+01	0	31	104	0	60	127626
2026-01-06 19:33:57.54	11.03	9.26	-49.7	-67.8	3.5	3.02e+01	0	31	104	0	60	127240
2026-01-06 19:33:58.55	10.87	9.31	-49.5	-67.8	3.5	3.02e+01	0	31	104	0	60	128153
2026-01-06 19:33:59.55	10.70	9.36	-49.2	-67.8	3.5	3.02e+01	0	31	104	0	60	127223
2026-01-06 19:34:00.56	10.54	9.42	-49.4	-67.8	3.5	3.02e+01	0	31	104	0	60	127632
2026-01-06 19:34:01.57	10.37	9.47	-49.5	-67.8	3.5	3.02e+01	0	31	104	0	60	128059
2026-01-06 19:34:02.59	10.21	9.52	-49.7	-67.9	3.5	3.02e+01	0	31	104	0	60	128307
2026-01-06 19:34:03.60	10.04	9.57	-49.9	-67.9	3.5	3.02e+01	0	31	104	0	60	128279
2026-01-06 19:34:04.60	9.88	9.63	-50.0	-67.9	3.5	3.02e+01	0	31	104	0	60	128971
2026-01-06 19:34:05.61	9.71	9.68	-49.9	-67.9	3.5	3.02e+01	0	31	104	0	60	128978
2026-01-06 19:34:06.62	9.54	9.73	-49.8	-67.9	3.5	3.02e+01	0	31	104	0	60	128434
2026-01-06 19:34:07.63	9.37	9.78	-49.9	-68.0	3.5	3.02e+01	0	31	104	0	60	129671
2026-01-06 19:34:08.65	9.20	9.84	-50.0	-67.9	3.5	3.02e+01	0	31	104	0	60	129156
2026-01-06 19:34:09.65	9.03	9.89	-49.9	-68.0	3.5	3.02e+01	0	31	104	0	60	130120
2026-01-06 19:34:10.66	8.86	9.94	-49.9	-68.0	3.5	3.02e+01	0	31	104	0	60	130435
2026-01-06 19:34:11.67	8.69	9.99	-49.8	-68.0	3.5	3.02e+01	0	31	104	0	60	130860
2026-01-06 19:34:12.69	8.51	10.05	-49.5	-68.0	3.5	3.02e+01	0	31	104	0	60	130692
2026-01-06 19:34:13.70	8.34	10.10	-49.3	-68.1	3.5	3.02e+01	0	31	104	0	60	131805
2026-01-06 19:34:14.71	8.17	10.15	-49.3	-68.1	3.5	3.02e+01	0	31	104	0	60	131543
2026-01-06 19:34:15.72	7.99	10.20	-49.2	-68.1	3.5	3.02e+01	0	31	104	0	60	132474
2026-01-06 19:34:16.73	7.82	10.25	-49.3	-68.1	3.5	3.02e+01	0	31	104	0	60	132261
2026-01-06 19:34:17.74	7.64	10.30	-49.5	-68.2	3.5	3.02e+01	0	31	104	0	60	132690
2026-01-06 19:34:18.75	7.46	10.35	-49.7	-68.1	3.5	3.02e+01	0	31	104	0	60	132079
2026-01-06 19:34:19.76	7.29	10.40	-49.9	-68.2	3.5	3.02e+01	0	31	104	0	60	132854
2026-01-06 19:34:20.77	7.11	10.46	-50.0	-68.1	3.5	3.02e+01	0	31	104	0	60	132138
2026-01-06 19:34:21.78	6.93	10.51	-49.9	-68.1	3.5	3.02e+01	0	31	104	0	60	132524
2026-01-06 19:34:22.79	6.75	10.56	-49.8	-68.2	3.5	3.02e+01	0	31	104	0	60	132675
2026-01-06 19:34:23.80	6.57	10.61	-49.7	-68.2	3.5	3.02e+01	0	31	104	0	60	132719
2026-01-06 19:34:24.81	6.39	10.66	-49.7	-68.2	3.5	3.02e+01	0	31	104	0	60	133624
2026-01-06 19:34:25.81	6.21	10.71	-49.9	-68.2	3.5	3.02e+01	0	31	104	0	60	133658
2026-01-06 19:34:26.82	6.03	10.76	-49.9	-68.2	3.5	3.02e+01	0	31	104	0	60	133714
2026-01-06 19:34:27.83	5.85	10.81	-50.0	-68.2	3.5	3.02e+01	0	31	104	0	60	133700
2026-01-06 19:34:28.84	5.66	10.86	-49.9	-68.2	3.5	3.02e+01	0	31	104	0	60	133445
2026-01-06 19:34:29.85	5.48	10.91	-49.8	-68.2	3.5	3.02e+01	0	31	104	0	60	133461
2026-01-06 19:34:30.86	5.29	10.96	-49.8	-68.2	3.5	3.02e+01	0	31	104	0	60	134071
2026-01-06 19:34:31.87	5.11	11.00	-49.9	-68.2	3.5	3.02e+01	0	31	104	0	60	133298
2026-01-06 19:34:32.88	4.92	11.05	-50.0	-68.3	3.5	3.02e+01	0	31	104	0	60	134627
2026-01-06 19:34:33.89	4.74	11.10	-49.9	-68.2	3.5	3.02e+01	0	31	104	0	60	133742
2026-01-06 19:34:34.90	4.55	11.15	-49.8	-68.3	3.5	3.02e+01	0	31	104	0	60	134520
2026-01-06 19:34:35.91	4.36	11.20	-49.7	-68.2	3.5	3.02e+01	0	31	104	0	60	134016
2026-01-06 19:34:36.92	4.17	11.25	-49.6	-68.3	3.5	3.02e+01	0	31	104	0	60	134810
2026-01-06 19:34:37.93	3.98	11.30	-49.6	-68.3	3.5	3.02e+01	0	31	104	0	60	134603
2026-01-06 19:34:38.94	3.79	11.34	-49.7	-68.3	3.5	3.02e+01	0	31	104	0	60	134974
2026-01-06 19:34:39.95	3.60	11.39	-49.8	-68.3	3.5	3.02e+01	0	31	104	0	60	135230
2026-01-06 19:34:40.96	3.41	11.44	-49.9	-68.3	3.5	3.02e+01	0	31	104	0	60	135010
2026-01-06 19:34:41.97	3.22	11.49	-50.0	-68.3	3.5	3.02e+01	0	31	104	0	60	135745
2026-01-06 19:34:42.97	3.03	11.53	-50.0	-68.4	3.5	3.02e+01	0	31	104	0	60	135794
2026-01-06 19:34:43.98	2.83	11.58	-50.1	-68.3	3.6	3.02e+01	0	31	104	0	60	135576
2026-01-06 19:34:45.00	2.64	11.63	-50.2	-68.3	3.5	3.02e+01	0	31	104	0	60	135328
2026-01-06 19:34:46.01	2.44	11.67	-50.2	-68.4	3.5	3.02e+01	0	31	104	0	60	135771
2026-01-06 19:34:47.02	2.25	11.72	-50.2	-68.4	3.5	3.02e+01	0	31	104	0	60	135998
2026-01-06 19:34:48.03	2.05	11.77	-50.0	-68.4	3.5	3.02e+01	0	31	104	0	60	136344
2026-01-06 19:34:49.04	1.85	11.81	-50.1	-68.4	3.5	3.02e+01	0	31	104	0	60	135873
2026-01-06 19:34:50.05	1.66	11.86	-50.2	-68.4	3.5	3.02e+01	0	31	104	0	60	135849
2026-01-06 19:34:51.06	1.46	11.90	-50.0	-68.4	3.6	3.02e+01	0	31	104	0	60	136191
2026-01-06 19:34:52.07	1.26	11.95	-50.0	-68.4	3.5	3.02e+01	0	31	104	0	60	136523
2026-01-06 19:34:53.08	1.06	11.99	-50.0	-68.4	3.5	3.02e+01	0	31	104	0	60	136284
2026-01-06 19:34:54.08	0.86	12.04	-50.0	-68.4	3.5	3.02e+01	0	31	104	0	60	136009
2026-01-06 19:34:55.09	0.66	12.08	-50.0	-68.4	3.5	3.02e+01	0	31	104	0	60	136813
2026-01-06 19:34:56.10	0.46	12.13	-50.1	-68.4	3.5	3.02e+01	0	31	104	0	60	136825
2026-01-06 19:34:57.11	0.26	12.17	-50.2	-68.4	3.5	3.02e+01	0	31	104	0	60	137135
2026-01-06 19:34:58.12	0.05	12.22	-50.3	-68.4	3.5	3.02e+01	0	31	104	0	60	136511
2026-01-06 19:34:59.13	359.85	12.26	-50.3	-68.5	3.5	3.02e+01	0	31	104	0	60	137353
2026-01-06 19:35:00.14	359.65	12.30	-50.0	-68.4	3.5	3.02e+01	0	31	104	0	60	137287
2026-01-06 19:35:01.15	359.44	12.35	-49.6	-68.5	3.5	3.02e+01	0	31	104	0	60	137484
2026-01-06 19:35:02.16	359.24	12.39	-49.7	-68.4	3.5	3.02e+01	0	31	104	0	60	136624
2026-01-06 19:35:03.17	359.03	12.43	-49.8	-68.4	3.5	3.02e+01	0	31	104	0	60	136681
2026-01-06 19:35:04.18	358.82	12.47	-50.2	-68.4	3.5	3.02e+01	0	31	104	0	60	137335
2026-01-06 19:35:05.19	358.61	12.52	-50.4	-68.5	3.5	3.02e+01	0	31	104	0	60	138038
2026-01-06 19:35:06.20	358.41	12.56	-50.4	-68.5	3.5	3.02e+01	0	31	104	0	60	137871
2026-01-06 19:35:07.21	358.20	12.60	-50.1	-68.5	3.5	3.02e+01	0	31	104	0	60	138489
2026-01-06 19:35:08.22	357.99	12.64	-49.8	-68.4	3.5	3.02e+01	0	31	104	0	60	136495
2026-01-06 19:35:09.23	357.78	12.68	-50.1	-68.5	3.5	3.02e+01	0	31	104	0	60	137635
2026-01-06 19:35:10.24	357.57	12.72	-50.3	-68.5	3.5	3.02e+01	0	31	104	0	60	137862
2026-01-06 19:35:11.25	357.36	12.76	-50.2	-68.4	3.5	3.02e+01	0	31	104	0	60	137321
2026-01-06 19:35:12.26	357.14	12.80	-49.9	-68.5	3.5	3.02e+01	0	31	104	0	60	137776
2026-01-06 19:35:13.27	356.93	12.84	-50.1	-68.5	3.5	3.02e+01	0	31	104	0	60	137960
2026-01-06 19:35:14.28	356.72	12.88	-50.0	-68.5	3.5	3.02e+01	0	31	104	0	60	138272
2026-01-06 19:35:15.28	356.51	12.92	-50.1	-68.5	3.5	3.02e+01	0	31	104	0	60	138378
2026-01-06 19:35:16.30	356.29	12.96	-50.1	-68.5	3.5	3.02e+01	0	32	104	0	60	138027
2026-01-06 19:35:17.30	356.08	13.00	-49.8	-68.6	3.5	3.02e+01	0	31	104	0	60	139340
2026-01-06 19:35:18.31	355.86	13.04	-49.9	-68.5	3.5	3.02e+01	0	31	104	0	60	138392
2026-01-06 19:35:19.32	355.65	13.07	-49.6	-68.5	3.5	3.02e+01	0	31	104	0	60	138289
2026-01-06 19:35:20.33	355.43	13.11	-49.7	-68.5	3.5	3.02e+01	0	31	104	0	60	138428
2026-01-06 19:35:21.34	355.21	13.15	-49.9	-68.5	3.5	3.02e+01	0	31	104	0	60	138280
2026-01-06 19:35:22.35	354.99	13.19	-50.1	-68.6	3.5	3.02e+01	0	31	104	0	60	139123
2026-01-06 19:35:23.36	354.77	13.22	-49.6	-68.6	3.5	3.02e+01	0	31	104	0	60	139610
2026-01-06 19:35:24.37	354.56	13.26	-49.3	-68.6	3.5	3.02e+01	0	31	104	0	60	139490
2026-01-06 19:35:25.38	354.34	13.30	-49.2	-68.6	3.5	3.02e+01	0	31	104	0	60	139233
2026-01-06 19:35:26.39	354.12	13.33	-49.5	-68.5	3.5	3.02e+01	0	31	104	0	60	138884
2026-01-06 19:35:27.40	353.89	13.37	-49.6	-68.5	3.5	3.02e+01	0	31	104	0	60	138873
2026-01-06 19:35:28.41	353.67	13.40	-49.7	-68.6	3.5	3.02e+01	0	31	104	0	60	138988
2026-01-06 19:35:29.42	353.45	13.44	-49.7	-68.6	3.5	3.02e+01	0	31	104	0	60	139358
2026-01-06 19:35:30.43	353.23	13.47	-49.7	-68.6	3.5	3.02e+01	0	31	104	0	60	139033
2026-01-06 19:35:31.44	353.00	13.50	-49.6	-68.6	3.5	3.02e+01	0	31	104	0	60	139096
2026-01-06 19:35:32.44	352.78	13.54	-49.8	-68.6	3.5	3.02e+01	0	31	104	0	60	140333
2026-01-06 19:35:33.46	352.56	13.57	-49.9	-68.6	3.5	3.02e+01	0	31	104	0	60	139771
2026-01-06 19:35:34.46	352.33	13.60	-49.9	-68.6	3.5	3.02e+01	0	31	104	0	60	140510
2026-01-06 19:35:35.47	352.11	13.64	-49.9	-68.6	3.5	3.02e+01	0	31	104	0	60	139676
2026-01-06 19:35:36.48	351.88	13.67	-49.9	-68.6	3.5	3.02e+01	0	31	104	0	60	139458
2026-01-06 19:35:37.49	351.66	13.70	-50.0	-68.6	3.5	3.02e+01	0	31	104	0	60	140025
2026-01-06 19:35:38.50	351.43	13.73	-50.2	-68.6	3.5	3.02e+01	0	31	104	0	60	139749
2026-01-06 19:35:39.51	351.20	13.76	-50.4	-68.6	3.5	3.02e+01	0	31	104	0	60	139334
2026-01-06 19:35:40.52	350.97	13.79	-50.2	-68.6	3.5	3.02e+01	0	31	104	0	60	139074
2026-01-06 19:35:41.53	350.75	13.82	-49.7	-68.6	3.5	3.02e+01	0	31	104	0	60	139564
2026-01-06 19:35:42.54	350.52	13.85	-49.9	-68.6	3.5	3.02e+01	0	31	104	0	60	139965
2026-01-06 19:35:43.55	350.29	13.88	-49.4	-68.6	3.5	3.02e+01	0	31	104	0	60	139906
2026-01-06 19:35:44.56	350.06	13.91	-49.2	-68.6	3.5	3.02e+01	0	31	104	0	60	140253
2026-01-06 19:35:45.57	349.83	13.94	-49.4	-68.6	3.5	3.02e+01	0	31	104	0	60	140368
2026-01-06 19:35:46.59	349.59	13.97	-49.6	-68.7	3.5	3.02e+01	0	31	104	0	60	141001
2026-01-06 19:35:47.59	349.36	14.00	-50.1	-68.7	3.5	3.02e+01	0	31	104	0	60	140744
2026-01-06 19:35:48.60	349.13	14.02	-50.3	-68.6	3.5	3.02e+01	0	31	104	0	60	140402
2026-01-06 19:35:49.61	348.90	14.05	-50.2	-68.7	3.5	3.02e+01	0	31	104	0	60	140895
2026-01-06 19:35:50.62	348.67	14.08	-50.0	-68.6	3.5	3.02e+01	0	31	104	0	60	140144
2026-01-06 19:35:51.63	348.43	14.10	-50.0	-68.7	3.5	3.02e+01	0	31	104	0	60	141458
2026-01-06 19:35:52.64	348.20	14.13	-50.0	-68.7	3.5	3.02e+01	0	31	104	0	60	140821
2026-01-06 19:35:53.65	347.96	14.16	-50.0	-68.7	3.6	3.02e+01	0	31	104	0	60	141338
2026-01-06 19:35:54.66	347.73	14.18	-50.1	-68.7	3.5	3.02e+01	0	31	104	0	60	140594
2026-01-06 19:35:55.67	347.50	14.20	-50.0	-68.6	3.5	3.02e+01	0	31	104	0	60	140057
2026-01-06 19:35:56.69	347.26	14.23	-50.1	-68.6	3.5	3.02e+01	0	31	104	0	60	140289
2026-01-06 19:35:57.70	347.02	14.25	-50.3	-68.6	3.5	3.02e+01	0	31	104	0	60	140518
2026-01-06 19:35:58.71	346.79	14.28	-50.4	-68.7	3.5	3.02e+01	0	31	104	0	60	140687
2026-01-06 19:35:59.72	346.55	14.30	-50.4	-68.7	3.5	3.02e+01	0	31	104	0	60	141277
2026-01-06 19:36:00.73	346.31	14.32	-50.1	-68.7	3.5	3.02e+01	0	31	104	0	60	140916
2026-01-06 19:36:01.74	346.07	14.34	-50.1	-68.7	3.5	3.02e+01	0	31	104	0	60	141122
2026-01-06 19:36:02.75	345.84	14.36	-50.2	-68.7	3.5	3.02e+01	0	31	104	0	60	141790
2026-01-06 19:36:03.75	345.60	14.39	-50.1	-68.7	3.5	3.02e+01	0	31	104	0	60	141340
2026-01-06 19:36:04.76	345.36	14.41	-50.0	-68.7	3.5	3.02e+01	0	31	104	0	60	141903
2026-01-06 19:36:05.77	345.12	14.43	-50.1	-68.7	3.5	3.02e+01	0	31	104	0	60	142001
2026-01-06 19:36:06.78	344.88	14.45	-50.4	-68.7	3.5	3.02e+01	0	31	104	0	60	141511
2026-01-06 19:36:07.79	344.64	14.46	-50.5	-68.7	3.5	3.02e+01	0	31	104	0	60	142140
2026-01-06 19:36:08.80	344.40	14.48	-50.5	-68.8	3.5	3.02e+01	0	31	104	0	60	142425
2026-01-06 19:36:09.81	344.16	14.50	-50.4	-68.7	3.5	3.02e+01	0	31	104	0	60	141960
2026-01-06 19:36:10.82	343.92	14.52	-50.2	-68.7	3.5	3.02e+01	0	31	104	0	60	141626
2026-01-06 19:36:11.83	343.68	14.54	-50.0	-68.8	3.5	3.02e+01	0	31	104	0	60	142662
2026-01-06 19:36:12.84	343.44	14.55	-49.8	-68.7	3.5	3.02e+01	0	31	104	0	60	142148
2026-01-06 19:36:13.85	343.20	14.57	-50.1	-68.8	3.5	3.02e+01	0	32	104	0	60	142890
2026-01-06 19:36:14.86	342.96	14.59	-50.0	-68.7	3.5	3.02e+01	0	31	104	0	60	141280
2026-01-06 19:36:15.87	342.72	14.60	-50.2	-68.7	3.5	3.02e+01	0	31	104	0	60	142073
2026-01-06 19:36:16.88	342.47	14.62	-50.6	-68.7	3.5	3.02e+01	0	32	104	0	60	140826
2026-01-06 19:36:17.88	342.23	14.63	-50.8	-68.8	3.5	3.02e+01	0	32	104	0	60	142320
2026-01-06 19:36:18.89	341.99	14.64	-50.6	-68.8	3.5	3.02e+01	0	31	104	0	60	143092
2026-01-06 19:36:19.90	341.75	14.66	-50.6	-68.8	3.5	3.02e+01	0	32	104	0	60	142509
2026-01-06 19:36:20.91	341.50	14.67	-50.5	-68.7	3.5	3.02e+01	0	32	104	0	60	141819
2026-01-06 19:36:21.92	341.26	14.68	-50.6	-68.7	3.5	3.02e+01	0	32	104	0	60	142122
2026-01-06 19:36:22.93	341.02	14.70	-50.4	-68.8	3.5	3.02e+01	0	31	104	0	60	142384
2026-01-06 19:36:23.94	340.77	14.71	-50.4	-68.8	3.5	3.02e+01	0	31	104	0	60	142686
2026-01-06 19:36:24.95	340.53	14.72	-50.7	-68.8	3.5	3.02e+01	0	31	104	0	60	143107
2026-01-06 19:36:25.96	340.28	14.73	-50.8	-68.8	3.5	3.02e+01	0	31	104	0	60	142511
2026-01-06 19:36:26.97	340.04	14.74	-50.7	-68.7	3.5	3.02e+01	0	32	104	0	60	142115
2026-01-06 19:36:27.98	339.79	14.75	-50.6	-68.8	3.5	3.02e+01	0	32	104	0	60	143180
2026-01-06 19:36:28.99	339.55	14.76	-50.6	-68.8	3.5	3.02e+01	0	31	104	0	60	142353
2026-01-06 19:36:30.00	339.30	14.77	-50.7	-68.8	3.5	3.02e+01	0	31	104	0	60	143447
2026-01-06 19:36:31.01	339.06	14.78	-50.6	-68.8	3.6	3.02e+01	0	31	104	0	60	143536
2026-01-06 19:36:32.02	338.81	14.78	-50.6	-68.8	3.5	3.02e+01	0	31	104	0	60	143610
2026-01-06 19:36:33.03	338.57	14.79	-50.6	-68.8	3.5	3.02e+01	0	31	104	0	60	143051
2026-01-06 19:36:34.04	338.32	14.80	-50.7	-68.8	3.5	3.02e+01	0	31	104	0	60	143131
2026-01-06 19:36:35.04	338.08	14.80	-50.8	-68.8	3.5	3.02e+01	0	31	104	0	60	142307
2026-01-06 19:36:36.05	337.83	14.81	-50.7	-68.8	3.5	3.02e+01	0	32	104	0	60	142772
2026-01-06 19:36:37.06	337.59	14.81	-50.6	-68.8	3.5	3.02e+01	0	32	104	0	60	143021
2026-01-06 19:36:38.07	337.34	14.82	-50.6	-68.8	3.5	3.02e+01	0	32	104	0	60	143506
2026-01-06 19:36:39.08	337.10	14.82	-50.6	-68.8	3.5	3.02e+01	0	32	104	0	60	143006
2026-01-06 19:36:40.09	336.85	14.83	-50.5	-68.8	3.5	3.02e+01	0	32	104	0	60	143508
2026-01-06 19:36:41.10	336.60	14.83	-50.3	-68.8	3.5	3.02e+01	0	32	104	0	60	142996
2026-01-06 19:36:42.11	336.36	14.83	-50.3	-68.9	3.5	3.02e+01	0	31	104	0	60	144135
2026-01-06 19:36:43.12	336.11	14.83	-50.6	-68.8	3.5	3.02e+01	0	31	104	0	60	143031
2026-01-06 19:36:44.13	335.86	14.84	-50.9	-68.8	3.5	3.02e+01	0	31	104	0	60	143439
2026-01-06 19:36:45.13	335.62	14.84	-50.9	-68.8	3.5	3.02e+01	0	31	104	0	60	143513
2026-01-06 19:36:46.14	335.37	14.84	-50.9	-68.8	3.5	3.02e+01	0	32	104	0	60	143768
2026-01-06 19:36:47.15	335.13	14.84	-50.9	-68.8	3.5	3.02e+01	0	31	104	0	60	142896
2026-01-06 19:36:48.16	334.88	14.84	-50.8	-68.8	3.5	3.02e+01	0	31	104	0	60	143298
2026-01-06 19:36:49.17	334.63	14.84	-50.7	-68.8	3.5	3.02e+01	0	31	104	0	60	143496
2026-01-06 19:36:50.18	334.39	14.84	-50.6	-68.8	3.5	3.02e+01	0	31	104	0	60	143433
2026-01-06 19:36:51.19	334.14	14.83	-50.7	-68.9	3.5	3.02e+01	0	32	104	0	60	144486
2026-01-06 19:36:52.20	333.90	14.83	-50.8	-68.9	3.5	3.02e+01	0	31	104	0	60	143867
2026-01-06 19:36:53.21	333.65	14.83	-50.9	-68.9	3.5	3.02e+01	0	31	104	0	60	144059
2026-01-06 19:36:54.23	333.40	14.82	-50.8	-68.9	3.5	3.02e+01	0	31	104	0	60	144007
2026-01-06 19:36:55.24	333.15	14.82	-50.6	-68.8	3.5	3.02e+01	0	32	104	0	60	143252
2026-01-06 19:36:56.25	332.91	14.82	-50.2	-68.8	3.5	3.02e+01	0	31	104	0	60	143535
2026-01-06 19:36:57.26	332.66	14.81	-50.0	-68.9	3.5	3.02e+01	0	32	104	0	60	144129
2026-01-06 19:36:58.27	332.42	14.81	-50.2	-68.9	3.5	3.02e+01	0	32	104	0	60	143976
2026-01-06 19:36:59.28	332.17	14.80	-50.6	-68.9	3.5	3.02e+01	0	32	104	0	60	143969
2026-01-06 19:37:00.29	331.92	14.79	-50.7	-68.8	3.5	3.02e+01	0	31	104	0	60	143299
2026-01-06 19:37:01.30	331.68	14.79	-50.9	-68.9	3.5	3.02e+01	0	32	104	0	60	143961
2026-01-06 19:37:02.30	331.44	14.78	-50.8	-68.8	3.5	3.02e+01	0	32	104	0	60	143648
2026-01-06 19:37:03.31	331.19	14.77	-50.8	-68.8	3.5	3.02e+01	0	32	104	0	60	143461
2026-01-06 19:37:04.32	330.94	14.76	-50.8	-68.8	3.5	3.02e+01	0	32	104	0	60	143502
2026-01-06 19:37:05.33	330.70	14.75	-50.9	-68.8	3.5	3.02e+01	0	32	104	0	60	143585
2026-01-06 19:37:06.34	330.45	14.75	-50.9	-68.8	3.5	3.02e+01	0	32	104	0	60	143507
2026-01-06 19:37:07.35	330.21	14.74	-50.8	-68.8	3.5	3.02e+01	0	32	104	0	60	143685
2026-01-06 19:37:08.36	329.97	14.73	-50.9	-68.8	3.5	3.02e+01	0	32	104	0	60	143484
2026-01-06 19:37:09.36	329.72	14.71	-50.9	-68.9	3.5	3.02e+01	0	31	104	0	60	144034
2026-01-06 19:37:10.38	329.48	14.70	-50.9	-68.9	3.5	3.02e+01	0	32	104	0	60	143818
2026-01-06 19:37:11.38	329.24	14.69	-50.9	-68.9	3.5	3.02e+01	0	31	104	0	60	143820
2026-01-06 19:37:12.40	328.99	14.68	-50.9	-68.8	3.5	3.02e+01	0	32	104	0	60	143783
2026-01-06 19:37:13.40	328.75	14.67	-50.9	-68.8	3.5	3.02e+01	0	31	104	0	60	143603
2026-01-06 19:37:14.41	328.50	14.65	-50.9	-68.9	3.5	3.02e+01	0	32	104	0	60	144045
2026-01-06 19:37:15.42	328.26	14.64	-50.9	-68.9	3.5	3.02e+01	0	32	104	0	60	144175
2026-01-06 19:37:16.44	328.02	14.62	-50.9	-68.9	3.5	3.02e+01	0	31	104	0	60	144438
2026-01-06 19:37:17.45	327.77	14.61	-50.9	-68.9	3.5	3.02e+01	0	32	104	0	60	144818
2026-01-06 19:37:18.46	327.53	14.59	-50.8	-68.9	3.5	3.02e+01	0	32	104	0	60	144653
2026-01-06 19:37:19.47	327.29	14.58	-50.8	-68.8	3.5	3.02e+01	0	32	104	0	60	143445
2026-01-06 19:37:20.48	327.05	14.56	-50.9	-68.9	3.5	3.02e+01	0	31	104	0	60	144727
2026-01-06 19:37:21.49	326.81	14.55	-50.9	-68.9	3.5	3.02e+01	0	32	104	0	60	144463
2026-01-06 19:37:22.50	326.56	14.53	-51.0	-68.9	3.5	3.02e+01	0	31	104	0	60	144184
2026-01-06 19:37:23.51	326.32	14.51	-51.0	-68.9	3.5	3.02e+01	0	31	104	0	60	144678
2026-01-06 19:37:24.52	326.08	14.49	-50.9	-68.9	3.5	3.02e+01	0	32	104	0	60	145154
2026-01-06 19:37:25.53	325.84	14.48	-50.9	-68.9	3.5	3.02e+01	0	32	104	0	60	143985
2026-01-06 19:37:26.54	325.60	14.46	-51.0	-68.9	3.5	3.02e+01	0	32	104	0	60	144374
2026-01-06 19:37:27.55	325.36	14.44	-51.0	-68.8	3.5	3.02e+01	0	31	104	0	60	143555
2026-01-06 19:37:28.56	325.12	14.42	-51.0	-68.9	3.5	3.02e+01	0	32	104	0	60	144866
2026-01-06 19:37:29.57	324.88	14.40	-51.0	-68.9	3.5	3.02e+01	0	31	104	0	60	144428
2026-01-06 19:37:30.58	324.65	14.38	-50.9	-68.8	3.5	3.02e+01	0	32	104	0	60	143749
2026-01-06 19:37:31.59	324.41	14.36	-50.9	-68.9	3.5	3.02e+01	0	31	104	0	60	144115
2026-01-06 19:37:32.61	324.17	14.33	-50.9	-68.9	3.5	3.02e+01	0	31	104	0	60	144064
2026-01-06 19:37:33.62	323.93	14.31	-50.9	-68.9	3.5	3.02e+01	0	32	104	0	60	144318
2026-01-06 19:37:34.63	323.69	14.29	-50.9	-68.9	3.5	3.02e+01	0	32	104	0	60	144762
2026-01-06 19:37:35.64	323.46	14.27	-51.0	-68.9	3.5	3.02e+01	0	31	104	0	60	144032
2026-01-06 19:37:36.65	323.22	14.24	-51.0	-68.9	3.5	3.02e+01	0	31	104	0	60	144417
2026-01-06 19:37:37.66	322.98	14.22	-50.9	-68.9	3.5	3.02e+01	0	32	104	0	60	144653
2026-01-06 19:37:38.67	322.75	14.19	-51.0	-68.9	3.5	3.02e+01	0	31	104	0	60	144628
2026-01-06 19:37:39.68	322.51	14.17	-51.0	-68.9	3.5	3.02e+01	0	32	104	0	60	144772
2026-01-06 19:37:40.69	322.28	14.14	-50.9	-68.9	3.5	3.02e+01	0	31	104	0	60	144872
2026-01-06 19:37:41.71	322.04	14.12	-50.9	-68.9	3.5	3.02e+01	0	32	104	0	60	144326
2026-01-06 19:37:42.72	321.81	14.09	-50.9	-68.9	3.5	3.02e+01	0	32	104	0	60	144653
2026-01-06 19:37:43.73	321.57	14.07	-50.9	-68.9	3.5	3.02e+01	0	32	104	0	60	144395
2026-01-06 19:37:44.74	321.34	14.04	-50.9	-69.0	3.5	3.02e+01	0	31	104	0	60	145553
2026-01-06 19:37:45.75	321.11	14.01	-50.9	-68.9	3.5	3.02e+01	0	32	104	0	60	145199
2026-01-06 19:37:46.76	320.88	13.98	-51.0	-68.9	3.5	3.02e+01	0	32	104	0	60	144372
2026-01-06 19:37:47.77	320.65	13.96	-51.0	-68.9	3.5	3.02e+01	0	32	104	0	60	144915
2026-01-06 19:37:48.78	320.41	13.93	-51.0	-68.9	3.5	3.02e+01	0	32	104	0	60	144749
2026-01-06 19:37:49.79	320.18	13.90	-51.0	-68.9	3.5	3.02e+01	0	32	104	0	60	144811
2026-01-06 19:37:50.80	319.95	13.87	-51.0	-68.9	3.5	3.02e+01	0	32	104	0	60	144175
2026-01-06 19:37:51.81	319.72	13.84	-51.0	-69.0	3.5	3.02e+01	0	31	104	0	60	145614
2026-01-06 19:37:52.82	319.50	13.81	-51.0	-68.9	3.5	3.02e+01	0	31	104	0	60	145420
2026-01-06 19:37:53.83	319.27	13.78	-51.0	-68.9	3.5	3.02e+01	0	32	104	0	60	145187
2026-01-06 19:37:54.85	319.04	13.75	-51.0	-68.9	3.5	3.02e+01	0	32	104	0	60	145023
2026-01-06 19:37:55.86	318.81	13.72	-51.0	-68.9	3.5	3.02e+01	0	32	104	0	60	145139
2026-01-06 19:37:56.87	318.58	13.69	-50.9	-68.9	3.5	3.02e+01	0	31	104	0	60	144736
2026-01-06 19:37:57.88	318.36	13.65	-50.9	-69.0	3.5	3.02e+01	0	31	104	0	60	145506
2026-01-06 19:37:58.89	318.13	13.62	-50.9	-68.9	3.5	3.02e+01	0	31	104	0	60	144909
2026-01-06 19:37:59.90	317.90	13.59	-50.9	-68.9	3.5	3.02e+01	0	32	104	0	60	144432
2026-01-06 19:38:00.91	317.68	13.56	-51.0	-68.9	3.5	3.02e+01	0	32	104	0	60	144974
2026-01-06 19:38:01.92	317.45	13.52	-51.0	-68.9	3.5	3.02e+01	0	32	104	0	60	145366
2026-01-06 19:38:02.93	317.23	13.49	-51.0	-69.0	3.5	3.02e+01	0	32	104	0	60	145517
2026-01-06 19:38:03.94	317.01	13.45	-51.0	-68.9	3.5	3.02e+01	0	31	104	0	60	145357
2026-01-06 19:38:04.96	316.78	13.42	-51.0	-69.0	3.5	3.02e+01	0	32	104	0	60	145994
2026-01-06 19:38:05.97	316.56	13.38	-50.9	-68.9	3.5	3.02e+01	0	32	104	0	60	145187
2026-01-06 19:38:06.98	316.34	13.35	-50.9	-69.0	3.5	3.02e+01	0	32	104	0	60	145850
2026-01-06 19:38:07.99	316.12	13.31	-51.0	-68.9	3.5	3.02e+01	0	32	104	0	60	145304
2026-01-06 19:38:09.00	315.90	13.28	-51.0	-68.9	3.5	3.02e+01	0	32	104	0	60	144939
2026-01-06 19:38:10.01	315.68	13.24	-51.0	-68.9	3.5	3.02e+01	0	32	104	0	60	145168
2026-01-06 19:38:11.02	315.46	13.21	-51.0	-68.9	3.5	3.02e+01	0	31	104	0	60	145332
2026-01-06 19:38:12.03	315.24	13.17	-51.0	-68.9	3.5	3.02e+01	0	32	104	0	60	144328
2026-01-06 19:38:13.04	315.02	13.13	-51.0	-69.0	3.5	3.02e+01	0	32	104	0	60	146002
2026-01-06 19:38:14.05	314.80	13.09	-51.0	-69.0	3.5	3.02e+01	0	32	104	0	60	145733
2026-01-06 19:38:15.07	314.58	13.06	-51.0	-69.0	3.5	3.02e+01	0	32	104	0	60	145476
2026-01-06 19:38:16.08	314.37	13.02	-50.9	-69.0	3.5	3.02e+01	0	32	104	0	60	145615
2026-01-06 19:38:17.09	314.15	12.98	-50.9	-69.0	3.5	3.02e+01	0	32	104	0	60	145495
2026-01-06 19:38:18.10	313.94	12.94	-50.9	-68.9	3.5	3.02e+01	0	32	104	0	60	145206
2026-01-06 19:38:19.11	313.72	12.90	-50.9	-68.9	3.5	3.02e+01	0	32	104	0	60	144426
2026-01-06 19:38:20.12	313.51	12.86	-50.9	-68.9	3.5	3.02e+01	0	32	104	0	60	145029
2026-01-06 19:38:21.13	313.30	12.82	-50.9	-68.9	3.5	3.02e+01	0	32	104	0	60	144971
2026-01-06 19:38:22.14	313.08	12.78	-50.9	-69.0	3.5	3.02e+01	0	32	104	0	60	145888
2026-01-06 19:38:23.15	312.87	12.74	-51.1	-69.0	3.5	3.02e+01	0	32	104	0	60	145763
2026-01-06 19:38:24.16	312.66	12.70	-51.0	-69.0	3.5	3.02e+01	0	32	104	0	60	145492
2026-01-06 19:38:25.18	312.45	12.66	-51.0	-69.0	3.5	3.02e+01	0	32	104	0	60	145544
2026-01-06 19:38:26.19	312.24	12.62	-51.0	-68.9	3.5	3.02e+01	0	32	104	0	60	145391
2026-01-06 19:38:27.20	312.03	12.58	-51.0	-69.0	3.5	3.02e+01	0	32	104	0	60	146854
2026-01-06 19:38:28.21	311.82	12.54	-51.0	-69.0	3.5	3.02e+01	0	32	104	0	60	145599
2026-01-06 19:38:29.22	311.61	12.49	-51.0	-69.0	3.5	3.02e+01	0	32	104	0	60	145504
2026-01-06 19:38:30.23	311.40	12.45	-51.0	-69.0	3.5	3.02e+01	0	32	104	0	60	145630
2026-01-06 19:38:31.24	311.20	12.41	-51.0	-68.9	3.5	3.02e+01	0	32	104	0	60	145383
2026-01-06 19:38:32.25	310.99	12.37	-51.1	-68.9	3.5	3.02e+01	0	32	104	0	60	144708
2026-01-06 19:38:33.27	310.78	12.32	-51.1	-68.9	3.5	3.02e+01	0	32	104	0	60	145436
2026-01-06 19:38:34.28	310.58	12.28	-51.0	-68.9	3.5	3.02e+01	0	32	104	0	60	145158
2026-01-06 19:38:35.29	310.37	12.24	-51.0	-68.9	3.5	3.02e+01	0	32	104	0	60	145311
2026-01-06 19:38:36.30	310.17	12.19	-51.0	-69.0	3.5	3.02e+01	0	32	104	0	60	145940
2026-01-06 19:38:37.31	309.97	12.15	-50.9	-69.0	3.5	3.02e+01	0	32	104	0	60	145800
2026-01-06 19:38:38.32	309.76	12.10	-51.0	-68.9	3.5	3.02e+01	0	32	104	0	60	145413
2026-01-06 19:38:39.33	309.56	12.06	-51.0	-69.0	3.5	3.02e+01	0	32	104	0	60	146142
2026-01-06 19:38:40.34	309.36	12.01	-51.0	-69.0	3.5	3.02e+01	0	32	104	0	60	146174
2026-01-06 19:38:41.35	309.16	11.97	-51.0	-69.0	3.5	3.02e+01	0	32	104	0	60	146193
2026-01-06 19:38:42.36	308.96	11.92	-51.0	-69.0	3.5	3.02e+01	0	32	104	0	60	145845
2026-01-06 19:38:43.37	308.76	11.88	-51.0	-69.0	3.5	3.02e+01	0	32	104	0	60	146174
2026-01-06 19:38:44.38	308.56	11.83	-51.0	-69.0	3.5	3.02e+01	0	31	104	0	60	145790
2026-01-06 19:38:45.39	308.37	11.79	-51.0	-69.0	3.5	3.02e+01	0	32	104	0	60	145896
2026-01-06 19:38:46.40	308.17	11.74	-51.0	-69.0	3.5	3.02e+01	0	32	104	0	60	145938
2026-01-06 19:38:47.42	307.97	11.69	-51.0	-69.0	3.5	3.02e+01	0	32	104	0	60	146072
2026-01-06 19:38:48.43	307.78	11.65	-51.0	-69.0	3.5	3.02e+01	0	32	104	0	60	145982
2026-01-06 19:38:49.44	307.58	11.60	-51.1	-69.0	3.5	3.02e+01	0	31	104	0	60	146414
2026-01-06 19:38:50.45	307.39	11.55	-51.0	-69.0	3.5	3.02e+01	0	32	104	0	60	146125
2026-01-06 19:38:51.46	307.19	11.51	-51.0	-69.0	3.5	3.02e+01	0	32	104	0	60	146292
2026-01-06 19:38:52.47	307.00	11.46	-51.1	-69.0	3.5	3.02e+01	0	32	104	0	60	146160
2026-01-06 19:38:53.48	306.81	11.41	-51.0	-69.0	3.5	3.02e+01	0	32	104	0	60	146137
2026-01-06 19:38:54.49	306.62	11.36	-51.0	-69.0	3.5	3.02e+01	0	32	104	0	60	146995
2026-01-06 19:38:55.50	306.43	11.32	-51.0	-69.0	3.5	3.02e+01	0	32	104	0	60	145939
2026-01-06 19:38:56.51	306.24	11.27	-51.0	-69.0	3.5	3.02e+01	0	32	104	0	60	146401
2026-01-06 19:38:57.52	306.05	11.22	-51.1	-69.0	3.5	3.02e+01	0	32	104	0	60	145966
2026-01-06 19:38:58.53	305.86	11.17	-51.1	-69.0	3.5	3.02e+01	0	32	104	0	60	146357
2026-01-06 19:38:59.54	305.67	11.12	-51.1	-69.0	3.5	3.02e+01	0	32	104	0	60	146697
2026-01-06 19:39:00.54	305.48	11.07	-51.0	-69.0	3.5	3.02e+01	0	32	104	0	60	146240
2026-01-06 19:39:01.55	305.30	11.02	-51.1	-69.0	3.5	3.02e+01	0	31	104	0	60	146597
2026-01-06 19:39:02.56	305.11	10.98	-51.1	-69.0	3.5	3.02e+01	0	32	104	0	60	147084
2026-01-06 19:39:03.57	304.92	10.93	-51.1	-69.0	3.5	3.02e+01	0	32	104	0	60	146402
2026-01-06 19:39:04.58	304.74	10.88	-51.1	-69.0	3.5	3.02e+01	0	32	104	0	60	146257
2026-01-06 19:39:05.59	304.56	10.83	-50.8	-69.1	3.5	3.02e+01	0	32	104	0	60	147192
2026-01-06 19:39:06.60	304.37	10.78	-50.9	-69.0	3.5	3.02e+01	0	32	104	0	60	146916
2026-01-06 19:39:07.61	304.19	10.73	-51.0	-69.0	3.5	3.02e+01	0	32	104	0	60	147098
2026-01-06 19:39:08.62	304.01	10.68	-51.0	-69.0	3.5	3.02e+01	0	32	104	0	60	146307
2026-01-06 19:39:09.63	303.83	10.63	-51.1	-69.0	3.5	3.02e+01	0	32	104	0	60	146949
2026-01-06 19:39:10.64	303.65	10.58	-51.1	-69.0	3.5	3.02e+01	0	32	104	0	60	146381
2026-01-06 19:39:11.66	303.46	10.53	-51.1	-69.0	3.5	3.02e+01	0	31	104	0	60	147093
2026-01-06 19:39:12.67	303.28	10.47	-51.1	-69.0	3.5	3.02e+01	0	32	104	0	60	147055
2026-01-06 19:39:13.68	303.11	10.42	-51.0	-69.0	3.5	3.02e+01	0	32	104	0	60	146375
2026-01-06 19:39:14.69	302.93	10.37	-51.1	-69.0	3.5	3.02e+01	0	32	104	0	60	147050
2026-01-06 19:39:15.70	302.75	10.32	-51.4	-69.3	3.5	3.02e+01	0	32	104	0	60	151339
2026-01-06 19:39:16.71	302.57	10.27	-51.2	-69.2	3.5	3.02e+01	0	32	104	0	60	149131
2026-01-06 19:39:17.72	302.40	10.22	-51.2	-69.1	3.5	3.02e+01	0	32	104	0	60	148494
2026-01-06 19:39:18.73	302.22	10.17	-51.2	-69.1	3.5	3.02e+01	0	31	104	0	60	148364
2026-01-06 19:39:19.74	302.05	10.12	-51.1	-69.1	3.5	3.02e+01	0	31	104	0	60	147957
2026-01-06 19:39:20.75	301.87	10.06	-51.1	-69.0	3.5	3.02e+01	0	31	104	0	60	146800
2026-01-06 19:39:21.76	301.70	10.01	-51.1	-69.1	3.5	3.02e+01	0	31	104	0	60	147416
2026-01-06 19:39:22.78	301.53	9.96	-51.1	-69.1	3.5	3.02e+01	0	32	104	0	60	147207
2026-01-06 19:39:23.79	301.36	9.91	-51.1	-69.0	3.5	3.02e+01	0	32	104	0	60	146881
2026-01-06 19:39:24.80	301.18	9.86	-51.1	-69.0	3.5	3.02e+01	0	31	104	0	60	145619
2026-01-06 19:39:25.81	301.01	9.80	-51.1	-69.0	3.5	3.02e+01	0	32	104	0	60	145773
2026-01-06 19:39:26.82	300.84	9.75	-51.1	-69.0	3.5	3.02e+01	0	32	104	0	60	146349
2026-01-06 19:39:27.83	300.67	9.70	-51.1	-69.0	3.5	3.02e+01	0	32	104	0	60	146342
2026-01-06 19:39:28.84	300.51	9.65	-51.0	-69.0	3.5	3.02e+01	0	31	104	0	60	146640
2026-01-06 19:39:29.85	300.34	9.59	-50.8	-69.0	3.5	3.02e+01	0	32	104	0	60	146908
2026-01-06 19:39:30.86	300.17	9.54	-50.9	-69.1	3.5	3.02e+01	0	31	104	0	60	147175
2026-01-06 19:39:31.87	300.00	9.49	-51.0	-69.0	3.5	3.02e+01	0	31	104	0	60	146348
2026-01-06 19:39:32.88	299.84	9.43	-51.0	-69.0	3.5	3.02e+01	0	32	104	0	60	146268
2026-01-06 19:39:33.89	299.67	9.38	-51.1	-69.0	3.5	3.02e+01	0	32	104	0	60	146132
2026-01-06 19:39:34.90	299.51	9.33	-51.0	-69.0	3.5	3.02e+01	0	32	104	0	60	146021
2026-01-06 19:39:35.91	299.34	9.27	-51.0	-69.0	3.5	3.02e+01	0	32	104	0	60	146692
2026-01-06 19:39:36.92	299.18	9.22	-51.0	-69.0	3.5	3.02e+01	0	31	104	0	60	146667
2026-01-06 19:39:37.93	299.02	9.17	-51.0	-69.0	3.5	3.02e+01	0	32	104	0	60	146161
2026-01-06 19:39:38.94	298.86	9.11	-51.0	-69.0	3.5	3.02e+01	0	32	104	0	60	146429
2026-01-06 19:39:39.95	298.70	9.06	-51.1	-69.0	3.5	3.02e+01	0	31	104	0	60	145988
2026-01-06 19:39:40.96	298.54	9.01	-51.1	-69.0	3.5	3.02e+01	0	32	104	0	60	145994
2026-01-06 19:39:41.97	298.38	8.95	-51.1	-69.0	3.5	3.02e+01	0	32	104	0	60	146252
2026-01-06 19:39:42.99	298.21	8.90	-51.1	-69.0	3.5	3.02e+01	0	32	104	0	60	145784
2026-01-06 19:39:44.00	298.06	8.84	-51.0	-69.0	3.5	3.02e+01	0	32	104	0	60	146758
2026-01-06 19:39:45.01	297.90	8.79	-51.0	-69.0	3.5	3.02e+01	0	32	104	0	60	145693
2026-01-06 19:39:46.02	297.74	8.74	-51.1	-69.0	3.5	3.02e+01	0	31	104	0	60	146571
2026-01-06 19:39:47.03	297.58	8.68	-51.1	-69.0	3.5	3.02e+01	0	32	104	0	60	146796
2026-01-06 19:39:48.04	297.43	8.63	-51.1	-69.0	3.5	3.02e+01	0	32	104	0	60	146747
2026-01-06 19:39:49.05	297.27	8.57	-51.1	-69.0	3.5	3.02e+01	0	32	104	0	60	146682
2026-01-06 19:39:50.06	297.12	8.52	-51.1	-69.0	3.5	3.02e+01	0	32	104	0	60	146418
2026-01-06 19:39:51.07	296.96	8.47	-51.2	-69.1	3.5	3.02e+01	0	32	104	0	60	147359
2026-01-06 19:39:52.08	296.81	8.41	-51.1	-69.1	3.5	3.02e+01	0	32	104	0	60	147396
2026-01-06 19:39:53.09	296.66	8.36	-51.1	-69.0	3.5	3.02e+01	0	32	104	0	60	146891
2026-01-06 19:39:54.10	296.50	8.30	-51.0	-69.0	3.5	3.02e+01	0	32	104	0	60	146731
2026-01-06 19:39:55.11	296.35	8.25	-51.1	-69.0	3.5	3.02e+01	0	32	104	0	60	146291
2026-01-06 19:39:56.13	296.20	8.19	-51.1	-69.0	3.5	3.02e+01	0	32	104	0	60	146836
2026-01-06 19:39:57.14	296.05	8.14	-51.0	-69.0	3.5	3.02e+01	0	32	104	0	60	146040
2026-01-06 19:39:58.15	295.90	8.08	-51.0	-69.0	3.5	3.02e+01	0	32	104	0	60	146976
2026-01-06 19:39:59.16	295.75	8.03	-51.0	-69.0	3.5	3.02e+01	0	32	104	0	60	145686
2026-01-06 19:40:00.17	295.60	7.97	-50.9	-69.0	3.5	3.02e+01	0	32	104	0	60	146019
2026-01-06 19:40:01.18	295.45	7.92	-51.0	-69.0	3.5	3.02e+01	0	32	104	0	60	146965
2026-01-06 19:40:02.19	295.31	7.86	-51.0	-69.0	3.5	3.02e+01	0	32	104	0	60	145479
2026-01-06 19:40:03.20	295.16	7.81	-50.9	-69.0	3.5	3.02e+01	0	32	104	0	60	145846
2026-01-06 19:40:04.21	295.01	7.75	-51.0	-69.0	3.5	3.02e+01	0	32	104	0	60	145749
2026-01-06 19:40:05.22	294.87	7.70	-51.0	-68.9	3.5	3.02e+01	0	32	104	0	60	145294
2026-01-06 19:40:06.24	294.72	7.64	-51.1	-68.9	3.5	3.02e+01	0	32	104	0	60	145277
2026-01-06 19:40:07.25	294.58	7.59	-51.1	-68.9	3.5	3.02e+01	0	32	104	0	60	145222
2026-01-06 19:40:08.26	294.43	7.53	-51.0	-69.0	3.5	3.02e+01	0	32	104	0	60	145844
2026-01-06 19:40:09.27	294.29	7.48	-51.0	-68.9	3.5	3.02e+01	0	32	104	0	60	145445
2026-01-06 19:40:10.28	294.15	7.42	-51.0	-68.9	3.5	3.02e+01	0	32	104	0	60	145277
2026-01-06 19:40:11.29	294.01	7.37	-51.0	-69.0	3.5	3.02e+01	0	32	104	0	60	145668
2026-01-06 19:40:12.30	293.86	7.31	-51.0	-68.9	3.5	3.02e+01	0	32	104	0	60	145029
2026-01-06 19:40:13.31	293.72	7.26	-51.0	-68.9	3.5	3.02e+01	0	32	104	0	60	144457
2026-01-06 19:40:14.32	293.58	7.20	-51.0	-69.0	3.5	3.02e+01	0	32	104	0	60	146012
2026-01-06 19:40:15.34	293.44	7.15	-51.0	-68.9	3.5	3.02e+01	0	31	104	0	60	144598
2026-01-06 19:40:16.35	293.30	7.09	-51.0	-68.9	3.5	3.02e+01	0	32	104	0	60	144382
2026-01-06 19:40:17.36	293.17	7.04	-51.0	-68.9	3.5	3.02e+01	0	32	104	0	60	145129
2026-01-06 19:40:18.37	293.03	6.98	-51.0	-68.9	3.5	3.02e+01	0	32	104	0	60	145209
2026-01-06 19:40:19.38	292.89	6.93	-51.0	-68.9	3.5	3.02e+01	0	32	104	0	60	144943
2026-01-06 19:40:20.39	292.75	6.87	-51.0	-68.9	3.5	3.02e+01	0	32	104	0	60	144979
2026-01-06 19:40:21.40	292.62	6.82	-50.9	-68.9	3.5	3.02e+01	0	32	104	0	60	145380
2026-01-06 19:40:22.41	292.48	6.76	-51.0	-68.9	3.5	3.02e+01	0	32	104	0	60	145219
2026-01-06 19:40:23.42	292.35	6.71	-51.0	-68.9	3.5	3.02e+01	0	32	104	0	60	144611
2026-01-06 19:40:24.43	292.21	6.65	-51.0	-68.9	3.5	3.02e+01	0	31	104	0	60	144643
2026-01-06 19:40:25.45	292.08	6.59	-51.0	-69.0	3.5	3.02e+01	0	31	104	0	60	145545
2026-01-06 19:40:26.46	291.94	6.54	-50.9	-68.9	3.5	3.02e+01	0	32	104	0	60	144548
2026-01-06 19:40:27.47	291.81	6.48	-50.9	-68.9	3.5	3.02e+01	0	31	104	0	60	145212
2026-01-06 19:40:28.48	291.68	6.43	-51.0	-68.9	3.5	3.02e+01	0	32	104	0	60	145386
2026-01-06 19:40:29.49	291.55	6.37	-50.9	-68.9	3.5	3.02e+01	0	32	104	0	60	144678
2026-01-06 19:40:30.50	291.42	6.32	-50.9	-68.9	3.5	3.02e+01	0	32	104	0	60	144575
2026-01-06 19:40:31.51	291.29	6.26	-50.9	-68.9	3.5	3.02e+01	0	32	104	0	60	144422
2026-01-06 19:40:32.52	291.16	6.21	-51.0	-68.9	3.5	3.02e+01	0	32	104	0	60	144755
2026-01-06 19:40:33.53	291.03	6.15	-50.9	-68.9	3.5	3.02e+01	0	32	104	0	60	144397
2026-01-06 19:40:34.55	290.90	6.10	-50.9	-68.9	3.5	3.02e+01	0	32	104	0	60	144550
2026-01-06 19:40:35.56	290.77	6.04	-50.8	-68.9	3.5	3.02e+01	0	32	104	0	60	144938
2026-01-06 19:40:36.57	290.64	5.98	-51.0	-68.9	3.5	3.02e+01	0	32	104	0	60	145160
2026-01-06 19:40:37.58	290.51	5.93	-50.9	-68.9	3.5	3.02e+01	0	31	104	0	60	144355
2026-01-06 19:40:38.59	290.39	5.87	-51.0	-68.9	3.5	3.02e+01	0	32	104	0	60	144507
2026-01-06 19:40:39.60	290.26	5.82	-51.0	-68.9	3.5	3.02e+01	0	31	104	0	60	145367
2026-01-06 19:40:40.61	290.14	5.76	-50.8	-68.9	3.5	3.02e+01	0	31	104	0	60	144934
2026-01-06 19:40:41.62	290.01	5.71	-50.9	-68.9	3.5	3.02e+01	0	32	104	0	60	144693
2026-01-06 19:40:42.63	289.89	5.65	-50.8	-68.9	3.5	3.02e+01	0	32	104	0	60	144357
2026-01-06 19:40:43.64	289.76	5.60	-51.0	-68.9	3.5	3.02e+01	0	32	104	0	60	144738
2026-01-06 19:40:44.65	289.64	5.54	-50.9	-68.9	3.5	3.02e+01	0	32	104	0	60	144458
2026-01-06 19:40:45.67	289.52	5.49	-50.9	-69.0	3.5	3.02e+01	0	32	104	0	60	145497
2026-01-06 19:40:46.68	289.39	5.43	-50.9	-68.9	3.5	3.02e+01	0	31	104	0	60	145229
2026-01-06 19:40:47.69	289.27	5.38	-50.9	-68.9	3.5	3.02e+01	0	32	104	0	60	145305
2026-01-06 19:40:48.70	289.15	5.32	-50.9	-68.9	3.5	3.02e+01	0	32	104	0	60	144223
2026-01-06 19:40:49.71	289.03	5.27	-50.9	-68.9	3.5	3.02e+01	0	32	104	0	60	144974
2026-01-06 19:40:50.72	288.91	5.21	-50.9	-68.9	3.5	3.02e+01	0	32	104	0	60	144588
2026-01-06 19:40:51.73	288.79	5.16	-50.9	-68.8	3.5	3.02e+01	0	32	104	0	60	143563
2026-01-06 19:40:52.74	288.67	5.10	-51.0	-68.9	3.5	3.02e+01	0	32	104	0	60	144671
2026-01-06 19:40:53.75	288.55	5.05	-51.0	-68.9	3.5	3.02e+01	0	32	104	0	60	144308
2026-01-06 19:40:54.76	288.43	4.99	-50.9	-68.8	3.5	3.02e+01	0	32	104	0	60	143548
2026-01-06 19:40:55.78	288.31	4.93	-50.9	-68.9	3.5	3.02e+01	0	32	104	0	60	144735
2026-01-06 19:40:56.79	288.20	4.88	-51.0	-68.9	3.5	3.02e+01	0	32	104	0	60	144206
2026-01-06 19:40:57.80	288.08	4.82	-50.9	-68.9	3.5	3.02e+01	0	32	104	0	60	145102
2026-01-06 19:40:58.81	287.96	4.77	-50.9	-68.9	3.5	3.02e+01	0	32	104	0	60	144237
2026-01-06 19:40:59.82	287.85	4.71	-50.9	-68.9	3.5	3.02e+01	0	32	104	0	60	145244
2026-01-06 19:41:00.83	287.73	4.66	-50.8	-68.9	3.5	3.02e+01	0	32	104	0	60	144804
2026-01-06 19:41:01.84	287.62	4.60	-50.7	-69.0	3.5	3.02e+01	0	32	104	0	60	145488
2026-01-06 19:41:02.85	287.50	4.55	-50.7	-68.9	3.5	3.02e+01	0	32	104	0	60	144648
2026-01-06 19:41:03.86	287.39	4.50	-50.6	-68.9	3.5	3.02e+01	0	32	104	0	60	144134
2026-01-06 19:41:04.87	287.27	4.44	-50.7	-68.9	3.5	3.02e+01	0	32	104	0	60	144805
2026-01-06 19:41:05.88	287.16	4.39	-50.8	-68.9	3.5	3.02e+01	0	32	104	0	60	143905
2026-01-06 19:41:06.89	287.05	4.33	-50.6	-68.9	3.5	3.02e+01	0	32	104	0	60	144571
2026-01-06 19:41:07.90	286.94	4.28	-50.6	-68.9	3.5	3.02e+01	0	32	104	0	60	144632
2026-01-06 19:41:08.91	286.82	4.22	-50.7	-68.9	3.5	3.02e+01	0	32	104	0	60	143825
2026-01-06 19:41:09.93	286.71	4.17	-50.7	-68.8	3.5	3.02e+01	0	32	104	0	60	143766
2026-01-06 19:41:10.93	286.60	4.11	-50.7	-68.8	3.5	3.02e+01	0	32	104	0	60	143149
2026-01-06 19:41:11.95	286.49	4.06	-50.8	-68.8	3.5	3.02e+01	0	32	104	0	60	143611
2026-01-06 19:41:12.96	286.38	4.00	-50.6	-68.9	3.5	3.02e+01	0	32	104	0	60	144145
2026-01-06 19:41:13.97	286.27	3.95	-50.0	-68.8	3.5	3.02e+01	0	32	104	0	60	143557
2026-01-06 19:41:14.98	286.16	3.89	-50.2	-68.8	3.5	3.02e+01	0	32	104	0	60	143335
2026-01-06 19:41:15.99	286.06	3.84	-50.3	-68.9	3.5	3.02e+01	0	32	104	0	60	144364
2026-01-06 19:41:17.00	285.95	3.78	-50.5	-68.8	3.5	3.02e+01	0	32	104	0	60	143170
2026-01-06 19:41:18.01	285.84	3.73	-50.7	-68.9	3.5	3.02e+01	0	32	104	0	60	143935
2026-01-06 19:41:19.02	285.73	3.67	-50.8	-68.8	3.5	3.02e+01	0	32	104	0	60	143432
2026-01-06 19:41:20.03	285.63	3.62	-50.8	-68.8	3.5	3.02e+01	0	32	104	0	60	143324
2026-01-06 19:41:21.03	285.52	3.57	-50.8	-68.8	3.5	3.02e+01	0	32	104	0	60	143453
2026-01-06 19:41:22.04	285.42	3.51	-50.8	-68.8	3.5	3.02e+01	0	32	104	0	60	143574
2026-01-06 19:41:23.05	285.31	3.46	-50.8	-68.8	3.5	3.02e+01	0	32	104	0	60	143381
2026-01-06 19:41:24.06	285.21	3.40	-50.8	-68.8	3.5	3.02e+01	0	32	104	0	60	143574
2026-01-06 19:41:25.07	285.10	3.35	-50.8	-68.8	3.5	3.02e+01	0	32	104	0	60	143523
2026-01-06 19:41:26.08	285.00	3.30	-50.8	-68.8	3.5	3.02e+01	0	32	104	0	60	142498
2026-01-06 19:41:27.09	284.89	3.24	-50.8	-68.8	3.5	3.02e+01	0	32	104	0	60	142445
2026-01-06 19:41:28.10	284.79	3.19	-50.8	-68.8	3.5	3.02e+01	0	32	104	0	60	142633
2026-01-06 19:41:29.11	284.69	3.13	-50.8	-68.8	3.5	3.02e+01	0	32	104	0	60	142920
2026-01-06 19:41:30.12	284.59	3.08	-50.9	-68.8	3.5	3.02e+01	0	32	104	0	60	143269
2026-01-06 19:41:31.13	284.48	3.02	-50.9	-68.8	3.5	3.02e+01	0	31	104	0	60	142851
2026-01-06 19:41:32.14	284.38	2.97	-50.9	-68.8	3.5	3.02e+01	0	32	104	0	60	143473
2026-01-06 19:41:33.14	284.28	2.92	-50.9	-68.8	3.5	3.02e+01	0	32	104	0	60	142849
2026-01-06 19:41:34.15	284.18	2.86	-50.8	-68.8	3.5	3.02e+01	0	31	104	0	60	142285
2026-01-06 19:41:35.16	284.08	2.81	-50.8	-68.8	3.5	3.02e+01	0	32	104	0	60	142829
2026-01-06 19:41:36.17	283.98	2.76	-50.7	-68.8	3.5	3.02e+01	0	32	104	0	60	142493
2026-01-06 19:41:37.18	283.88	2.70	-50.8	-68.8	3.5	3.02e+01	0	32	104	0	60	143002
2026-01-06 19:41:38.19	283.78	2.65	-50.7	-68.8	3.5	3.02e+01	0	32	104	0	60	142836
2026-01-06 19:41:39.20	283.69	2.59	-50.7	-68.8	3.5	3.02e+01	0	32	104	0	60	142795
2026-01-06 19:41:40.20	283.59	2.54	-50.7	-68.7	3.5	3.02e+01	0	32	104	0	60	141941
2026-01-06 19:41:41.21	283.49	2.49	-50.8	-68.7	3.5	3.02e+01	0	32	104	0	60	141568
2026-01-06 19:41:42.22	283.39	2.43	-50.8	-68.7	3.5	3.02e+01	0	32	104	0	60	141732
2026-01-06 19:41:43.23	283.30	2.38	-50.8	-68.8	3.5	3.02e+01	0	32	104	0	60	142349
2026-01-06 19:41:44.24	283.20	2.33	-50.9	-68.8	3.5	3.02e+01	0	32	104	0	60	142455
2026-01-06 19:41:45.25	283.10	2.27	-50.9	-68.8	3.5	3.02e+01	0	32	104	0	60	142854
2026-01-06 19:41:46.26	283.01	2.22	-50.9	-68.7	3.5	3.02e+01	0	32	104	0	60	141266
2026-01-06 19:41:47.27	282.91	2.17	-50.8	-68.7	3.5	3.02e+01	0	32	104	0	60	141941
2026-01-06 19:41:48.28	282.82	2.11	-50.8	-68.7	3.5	3.02e+01	0	32	104	0	60	141659
2026-01-06 19:41:49.29	282.72	2.06	-50.8	-68.7	3.5	3.02e+01	0	32	104	0	60	141846
2026-01-06 19:41:50.30	282.63	2.01	-50.8	-68.7	3.5	3.02e+01	0	32	104	0	60	141253
2026-01-06 19:41:51.30	282.54	1.95	-50.6	-68.7	3.5	3.02e+01	0	32	104	0	60	141709
2026-01-06 19:41:52.31	282.44	1.90	-50.6	-68.7	3.5	3.02e+01	0	32	104	0	60	141451
2026-01-06 19:41:53.32	282.35	1.85	-50.7	-68.7	3.5	3.02e+01	0	32	104	0	60	141803
2026-01-06 19:41:54.33	282.26	1.80	-50.7	-68.7	3.5	3.02e+01	0	32	104	0	60	141656
2026-01-06 19:41:55.34	282.17	1.74	-50.7	-68.7	3.5	3.02e+01	0	32	104	0	60	142086
2026-01-06 19:41:56.35	282.07	1.69	-50.8	-68.7	3.5	3.02e+01	0	32	104	0	60	141678
2026-01-06 19:41:57.36	281.98	1.64	-50.8	-68.7	3.5	3.02e+01	0	32	104	0	60	141255
2026-01-06 19:41:58.37	281.89	1.58	-50.8	-68.8	3.5	3.02e+01	0	32	104	0	60	142321
2026-01-06 19:41:59.38	281.80	1.53	-50.8	-68.7	3.5	3.02e+01	0	32	104	0	60	141513
2026-01-06 19:42:00.39	281.71	1.48	-50.7	-68.7	3.5	3.02e+01	0	32	104	0	60	141687
2026-01-06 19:42:01.40	281.62	1.43	-50.8	-68.7	3.5	3.02e+01	0	32	104	0	60	142008
2026-01-06 19:42:02.41	281.53	1.37	-50.7	-68.7	3.5	3.02e+01	0	32	104	0	60	141696
2026-01-06 19:42:03.42	281.44	1.32	-50.7	-68.7	3.5	3.02e+01	0	32	104	0	60	141364
2026-01-06 19:42:04.43	281.35	1.27	-50.7	-68.7	3.5	3.02e+01	0	32	104	0	60	141696
2026-01-06 19:42:05.44	281.26	1.21	-50.5	-68.7	3.5	3.02e+01	0	32	104	0	60	141667
2026-01-06 19:42:06.45	281.17	1.16	-50.6	-68.7	3.5	3.02e+01	0	32	104	0	60	141486
2026-01-06 19:42:07.46	281.09	1.11	-50.8	-68.7	3.5	3.02e+01	0	32	104	0	60	141014
2026-01-06 19:42:08.47	281.00	1.06	-50.7	-68.7	3.5	3.02e+01	0	32	104	0	60	140767
2026-01-06 19:42:09.48	280.91	1.01	-50.8	-68.7	3.5	3.02e+01	0	32	104	0	60	141467
2026-01-06 19:42:10.49	280.82	0.95	-50.8	-68.7	3.5	3.02e+01	0	32	104	0	60	141281
2026-01-06 19:42:11.50	280.74	0.90	-50.7	-68.6	3.5	3.02e+01	0	31	104	0	60	140003
2026-01-06 19:42:12.51	280.65	0.85	-50.8	-68.7	3.5	3.02e+01	0	32	104	0	60	141363
2026-01-06 19:42:13.52	280.57	0.80	-50.8	-68.7	3.5	3.02e+01	0	32	104	0	60	141102
2026-01-06 19:42:14.53	280.48	0.74	-50.8	-68.7	3.5	3.02e+01	0	32	104	0	60	141043
2026-01-06 19:42:15.54	280.40	0.69	-50.8	-68.6	3.5	3.02e+01	0	32	104	0	60	140390
2026-01-06 19:42:16.55	280.31	0.64	-50.8	-68.7	3.5	3.02e+01	0	32	104	0	60	140831
2026-01-06 19:42:17.56	280.23	0.59	-50.8	-68.6	3.5	3.02e+01	0	32	104	0	60	140486
2026-01-06 19:42:18.57	280.14	0.54	-50.8	-68.7	3.5	3.02e+01	0	32	104	0	60	140658
2026-01-06 19:42:19.58	280.06	0.48	-50.8	-68.7	3.5	3.02e+01	0	32	104	0	60	140808
2026-01-06 19:42:20.59	279.97	0.43	-50.7	-68.6	3.5	3.02e+01	0	32	104	0	60	140507
2026-01-06 19:42:21.60	279.89	0.38	-50.7	-68.7	3.5	3.02e+01	0	32	104	0	60	140672
2026-01-06 19:42:22.61	279.81	0.33	-50.8	-68.7	3.5	3.02e+01	0	32	104	0	60	140678
2026-01-06 19:42:23.62	279.73	0.28	-50.7	-68.6	3.5	3.02e+01	0	32	104	0	60	139844
2026-01-06 19:42:24.63	279.64	0.22	-50.6	-68.6	3.5	3.02e+01	0	32	104	0	60	140141
2026-01-06 19:42:25.64	279.56	0.17	-50.6	-68.6	3.5	3.02e+01	0	32	104	0	60	140365
2026-01-06 19:42:26.65	279.48	0.12	-50.7	-68.6	3.5	3.02e+01	0	32	104	0	60	140228
2026-01-06 19:42:27.66	279.40	0.07	-50.7	-68.7	3.5	3.02e+01	0	31	104	0	60	140627
2026-01-06 19:42:28.67	279.32	0.02	-50.7	-68.6	3.5	3.02e+01	0	32	104	0	60	139870
2026-01-06 19:42:29.68	279.24	-0.03	-50.7	-68.6	3.5	3.02e+01	0	32	104	0	60	139856

#Closed at: 2026-01-06 19:42:29
#Recorded file [0 MB]: D:/lorett/data/35034_260106_223106.dat