passes_logs/2026/01/06/R4.6S_Anadyr_2ch/R4.6S_Anadyr_2ch__20260106_002704_SUOMI_NPP_rec.log

#Pass ID: 20260106_002704_SUOMI NPP
#Satellite: SUOMI NPP
#Configuration: NPP
#almurnet v.1.7.20251203
#Start time: 2026-01-06 00:27:06

#Version: 2.2.20231116
#Station: R4.6S_Anadyr_2ch
#Location: 177.4865 lon 64.73178 lat
#TLE: 1 37849U 11061A   25350.92281687  .00000071  00000+0  54882-4 0  9996
#TLE: 2 37849  98.7777 288.2268 0002366 112.8570 247.2856 14.19515404732588

#Time	Az	El	Level	Level2	SNR	BER	BlckErr	Temp	State	Recorded	gain1	gain2
2026-01-06 00:27:06.97	160.34	0.12	-51.2	-63.9	3.4	1.52e+00	0	29	0	0	60	73895
2026-01-06 00:27:07.98	160.35	0.18	-51.4	-66.7	3.6	1.51e+00	0	30	104	0	60	105914
2026-01-06 00:27:08.99	160.36	0.24	-51.3	-66.8	3.6	1.51e+00	0	30	104	0	60	106394
2026-01-06 00:27:10.00	160.37	0.30	-51.5	-66.8	3.6	1.51e+00	0	30	104	0	60	106922
2026-01-06 00:27:11.01	160.38	0.37	-51.5	-66.8	3.6	1.51e+00	0	30	104	0	60	107123
2026-01-06 00:27:12.02	160.38	0.43	-51.4	-66.8	3.6	1.51e+00	0	30	104	0	60	107147
2026-01-06 00:27:13.03	160.39	0.49	-51.4	-66.7	3.6	1.51e+00	0	30	104	0	60	105994
2026-01-06 00:27:14.04	160.40	0.55	-51.2	-66.7	3.6	1.51e+00	0	30	104	0	60	104936
2026-01-06 00:27:15.05	160.41	0.61	-51.2	-66.6	3.6	1.51e+00	0	30	104	0	60	103688
2026-01-06 00:27:16.06	160.42	0.67	-51.1	-66.5	3.6	1.51e+00	0	30	104	0	60	102503
2026-01-06 00:27:17.07	160.43	0.74	-50.9	-66.2	3.6	1.51e+00	0	30	104	0	60	99905
2026-01-06 00:27:18.09	160.44	0.80	-49.3	-64.7	3.6	1.51e+00	0	30	104	0	60	83629
2026-01-06 00:27:19.10	160.44	0.86	-50.2	-65.5	3.6	1.51e+00	0	30	104	0	60	91683
2026-01-06 00:27:20.11	160.45	0.92	-50.0	-65.4	3.6	1.51e+00	0	31	104	0	60	90351
2026-01-06 00:27:21.12	160.46	0.99	-50.0	-65.4	3.6	1.51e+00	0	30	104	0	60	90356
2026-01-06 00:27:22.13	160.47	1.05	-50.0	-65.4	3.6	1.51e+00	0	30	104	0	60	90429
2026-01-06 00:27:23.14	160.48	1.11	-50.0	-65.3	3.6	1.51e+00	0	30	104	0	60	89645
2026-01-06 00:27:24.15	160.49	1.17	-50.0	-65.3	3.6	1.51e+00	0	31	104	0	60	89505
2026-01-06 00:27:25.16	160.50	1.24	-50.0	-65.3	3.6	1.51e+00	0	31	104	0	60	89367
2026-01-06 00:27:26.17	160.51	1.30	-50.0	-65.2	3.6	1.51e+00	0	31	104	0	60	89198
2026-01-06 00:27:27.18	160.52	1.36	-50.0	-65.1	3.6	1.51e+00	0	31	104	0	60	87847
2026-01-06 00:27:28.19	160.52	1.43	-50.0	-65.2	3.6	1.51e+00	0	31	104	0	60	88450
2026-01-06 00:27:29.20	160.53	1.49	-50.0	-65.1	3.6	1.51e+00	0	31	104	0	60	88020
2026-01-06 00:27:30.22	160.54	1.55	-50.0	-65.1	3.6	1.51e+00	0	31	104	0	60	87793
2026-01-06 00:27:31.23	160.55	1.62	-50.0	-65.2	3.6	1.51e+00	0	31	104	0	60	88572
2026-01-06 00:27:32.24	160.56	1.68	-50.0	-65.2	3.6	1.51e+00	0	31	104	0	60	89169
2026-01-06 00:27:33.25	160.57	1.75	-50.0	-65.3	3.6	1.51e+00	0	31	104	0	60	89907
2026-01-06 00:27:34.26	160.58	1.81	-50.0	-65.4	3.6	1.51e+00	0	31	104	0	60	90478
2026-01-06 00:27:35.27	160.59	1.88	-50.0	-65.4	3.6	1.51e+00	0	31	104	0	60	90400
2026-01-06 00:27:36.28	160.60	1.94	-50.0	-65.3	3.6	1.51e+00	0	31	104	0	60	90149
2026-01-06 00:27:37.29	160.61	2.00	-50.0	-65.3	3.6	1.51e+00	0	31	104	0	60	89942
2026-01-06 00:27:38.30	160.62	2.07	-50.0	-65.3	3.6	1.51e+00	0	31	104	0	60	89768
2026-01-06 00:27:39.31	160.62	2.13	-50.0	-65.2	3.6	1.51e+00	0	31	104	0	60	88745
2026-01-06 00:27:40.32	160.63	2.20	-50.0	-65.1	3.6	1.51e+00	0	31	104	0	60	87829
2026-01-06 00:27:41.33	160.64	2.27	-50.0	-65.0	3.6	1.51e+00	0	31	104	0	60	86398
2026-01-06 00:27:42.34	160.65	2.33	-50.0	-64.8	3.6	1.51e+00	0	31	104	0	60	84928
2026-01-06 00:27:43.36	160.66	2.40	-50.0	-64.6	3.6	1.51e+00	0	31	104	0	60	83079
2026-01-06 00:27:44.37	160.67	2.46	-50.0	-64.3	3.6	1.51e+00	0	31	104	0	60	79738
2026-01-06 00:27:45.38	160.68	2.53	-50.0	-64.1	3.6	1.51e+00	0	31	104	0	60	78058
2026-01-06 00:27:46.39	160.69	2.59	-49.9	-64.2	3.6	1.51e+00	0	31	104	0	60	78682
2026-01-06 00:27:47.40	160.70	2.66	-50.0	-64.6	3.6	1.51e+00	0	31	104	0	60	82449
2026-01-06 00:27:48.41	160.71	2.73	-50.0	-64.9	3.5	1.51e+00	0	31	104	0	60	85299
2026-01-06 00:27:49.42	160.72	2.79	-50.0	-64.6	3.6	1.51e+00	0	31	104	0	60	82982
2026-01-06 00:27:50.43	160.73	2.86	-49.9	-63.0	3.6	1.51e+00	0	31	104	0	60	69227
2026-01-06 00:27:51.44	160.74	2.93	-49.8	-61.0	4.2	1.38e+00	92	31	104	0	60	54602
2026-01-06 00:27:52.45	160.75	2.99	-49.5	-57.3	5.9	5.36e-01	0	31	102	1048576	60	35594
2026-01-06 00:27:53.47	160.76	3.06	-49.2	-55.9	7.7	2.15e-01	0	31	102	1048576	60	30444
2026-01-06 00:27:54.48	160.77	3.13	-48.8	-54.6	9.2	5.71e-02	0	31	102	1048576	60	26318
2026-01-06 00:27:55.49	160.78	3.20	-48.4	-53.2	10.7	5.55e-03	0	31	102	1048576	60	22388
2026-01-06 00:27:56.50	160.79	3.27	-47.9	-52.1	12.0	4.87e-04	0	31	102	1048576	60	19631
2026-01-06 00:27:57.51	160.80	3.33	-47.8	-51.8	12.3	3.17e-04	0	31	102	1048576	60	19074
2026-01-06 00:27:58.52	160.81	3.40	-47.4	-51.1	13.0	3.43e-05	0	31	102	1048576	60	17528
2026-01-06 00:27:59.53	160.82	3.47	-47.2	-50.6	13.4	1.83e-05	0	31	102	1048576	60	16612
2026-01-06 00:28:00.54	160.83	3.54	-47.7	-51.6	12.5	8.16e-05	0	31	102	1048576	60	18528
2026-01-06 00:28:01.55	160.84	3.61	-47.8	-51.8	12.2	1.40e-04	0	31	102	1048576	60	19051
2026-01-06 00:28:02.56	160.85	3.68	-49.2	-56.2	6.3	2.65e-03	0	31	102	1048576	60	31430
2026-01-06 00:28:03.58	160.86	3.74	-49.9	-60.6	4.2	1.51e+00	0	31	104	1048576	60	52367
2026-01-06 00:28:04.59	160.87	3.81	-49.5	-58.6	5.2	7.61e-03	0	31	104	1048576	60	41501
2026-01-06 00:28:05.60	160.88	3.88	-48.5	-53.8	5.8	1.50e+00	0	31	104	1048576	60	23896
2026-01-06 00:28:06.61	160.89	3.95	-48.3	-53.4	6.4	1.60e-01	0	31	104	1048576	60	22695
2026-01-06 00:28:07.62	160.90	4.02	-48.6	-53.9	5.7	1.51e+00	0	31	104	1048576	60	24243
2026-01-06 00:28:08.63	160.91	4.09	-45.8	-48.2	15.8	0.00e+00	0	31	104	1048576	60	12601
2026-01-06 00:28:09.64	160.92	4.16	-45.4	-47.5	17.0	0.00e+00	0	31	0	1048576	60	11607
2026-01-06 00:28:10.65	160.93	4.23	-45.3	-47.4	17.1	0.00e+00	0	31	0	1048576	60	11481
2026-01-06 00:28:11.66	160.94	4.30	-45.2	-47.2	17.2	0.00e+00	0	31	0	1048576	60	11186
2026-01-06 00:28:12.68	160.95	4.37	-44.9	-46.8	17.5	0.00e+00	0	31	0	1048576	60	10697
2026-01-06 00:28:13.69	160.96	4.44	-44.9	-46.8	17.6	0.00e+00	0	31	0	1048576	60	10654
2026-01-06 00:28:14.70	160.97	4.52	-44.2	-45.9	18.6	0.00e+00	0	31	0	1048576	60	9598
2026-01-06 00:28:15.71	160.98	4.59	-44.5	-46.2	18.2	0.00e+00	0	31	0	1048576	60	10008
2026-01-06 00:28:16.72	160.99	4.66	-44.3	-46.0	18.4	0.00e+00	0	31	0	1048576	60	9709
2026-01-06 00:28:17.73	161.00	4.73	-44.2	-45.9	18.6	0.00e+00	0	31	0	1048576	60	9642
2026-01-06 00:28:18.74	161.01	4.80	-44.5	-46.3	18.1	0.00e+00	0	31	0	1048576	60	10101
2026-01-06 00:28:19.75	161.02	4.87	-44.3	-46.0	18.4	0.00e+00	0	31	0	1048576	60	9770
2026-01-06 00:28:20.76	161.03	4.94	-44.6	-46.5	17.8	0.00e+00	0	31	0	1048576	60	10266
2026-01-06 00:28:21.78	161.04	5.02	-44.7	-46.5	18.1	0.00e+00	0	31	0	1048576	60	10346
2026-01-06 00:28:22.78	161.05	5.09	-44.6	-46.4	18.1	0.00e+00	0	31	0	1048576	60	10168
2026-01-06 00:28:23.79	161.06	5.16	-44.8	-46.6	17.9	0.00e+00	0	31	0	1048576	60	10468
2026-01-06 00:28:24.80	161.07	5.23	-44.5	-46.3	18.2	0.00e+00	0	31	0	1048576	60	10120
2026-01-06 00:28:25.81	161.08	5.31	-44.6	-46.4	18.1	0.00e+00	0	31	0	1048576	60	10172
2026-01-06 00:28:26.82	161.09	5.38	-44.4	-46.1	18.4	0.00e+00	0	31	101	1048576	60	9864
2026-01-06 00:28:27.84	161.11	5.46	-44.4	-46.1	18.3	0.00e+00	0	31	101	1048576	60	9859
2026-01-06 00:28:28.85	161.12	5.53	-44.7	-46.5	18.2	0.00e+00	0	31	101	1048576	60	10309
2026-01-06 00:28:29.86	161.13	5.60	-44.3	-46.1	18.5	0.00e+00	0	31	101	1048576	60	9807
2026-01-06 00:28:30.87	161.14	5.68	-44.1	-45.7	18.8	0.00e+00	0	31	101	1048576	60	9410
2026-01-06 00:28:31.88	161.15	5.75	-44.2	-45.9	18.7	0.00e+00	0	31	101	1048576	60	9573
2026-01-06 00:28:32.89	161.16	5.83	-44.1	-45.8	18.8	0.00e+00	0	31	101	1048576	60	9465
2026-01-06 00:28:33.90	161.17	5.90	-44.0	-45.6	18.9	0.00e+00	0	31	101	1048576	60	9337
2026-01-06 00:28:34.91	161.18	5.98	-44.1	-45.7	18.8	0.00e+00	0	31	101	1048576	60	9435
2026-01-06 00:28:35.92	161.19	6.05	-44.0	-45.6	18.9	0.00e+00	0	31	101	1048576	60	9267
2026-01-06 00:28:36.93	161.20	6.13	-44.0	-45.6	18.9	0.00e+00	0	31	101	1048576	60	9305
2026-01-06 00:28:37.94	161.22	6.20	-44.1	-45.7	18.9	0.00e+00	0	31	101	1048576	60	9396
2026-01-06 00:28:38.96	161.23	6.28	-43.8	-45.3	19.2	0.00e+00	0	31	101	1048576	60	9007
2026-01-06 00:28:39.97	161.24	6.35	-44.1	-45.7	19.0	0.00e+00	0	31	101	1048576	60	9367
2026-01-06 00:28:40.98	161.25	6.43	-43.9	-45.5	19.1	0.00e+00	0	31	101	1048576	60	9197
2026-01-06 00:28:41.99	161.26	6.51	-44.0	-45.6	19.0	0.00e+00	0	31	101	1048576	60	9303
2026-01-06 00:28:43.00	161.27	6.58	-44.0	-45.5	19.0	0.00e+00	0	31	101	1048576	60	9231
2026-01-06 00:28:44.01	161.28	6.66	-43.9	-45.5	19.2	0.00e+00	0	31	101	1048576	60	9136
2026-01-06 00:28:45.02	161.30	6.74	-44.1	-45.7	18.9	0.00e+00	0	31	101	1048576	60	9395
2026-01-06 00:28:46.03	161.31	6.81	-44.1	-45.7	19.0	0.00e+00	0	31	101	1048576	60	9346
2026-01-06 00:28:47.04	161.32	6.89	-44.0	-45.5	19.1	0.00e+00	0	31	101	1048576	60	9220
2026-01-06 00:28:48.06	161.33	6.97	-44.2	-45.8	18.9	0.00e+00	0	31	101	1048576	60	9501
2026-01-06 00:28:49.07	161.34	7.05	-43.9	-45.4	19.2	0.00e+00	0	31	101	1048576	60	9104
2026-01-06 00:28:50.08	161.35	7.13	-43.8	-45.4	19.1	0.00e+00	0	31	101	1048576	60	9064
2026-01-06 00:28:51.09	161.37	7.21	-44.0	-45.6	19.2	0.00e+00	0	31	101	1048576	60	9241
2026-01-06 00:28:52.10	161.38	7.28	-43.9	-45.4	19.4	0.00e+00	0	31	101	1048576	60	9081
2026-01-06 00:28:53.11	161.39	7.36	-43.8	-45.3	19.4	0.00e+00	0	31	101	1048576	60	9015
2026-01-06 00:28:54.12	161.40	7.44	-43.7	-45.2	19.5	0.00e+00	0	31	101	1048576	60	8840
2026-01-06 00:28:55.13	161.41	7.52	-43.7	-45.1	19.6	0.00e+00	0	31	101	1048576	60	8815
2026-01-06 00:28:56.14	161.42	7.60	-43.5	-45.0	19.7	0.00e+00	0	31	101	1048576	60	8645
2026-01-06 00:28:57.15	161.44	7.68	-43.5	-44.9	19.8	0.00e+00	0	31	101	1048576	60	8610
2026-01-06 00:28:58.17	161.45	7.76	-43.5	-45.0	19.7	0.00e+00	0	31	101	1048576	60	8678
2026-01-06 00:28:59.18	161.46	7.84	-43.5	-44.9	19.7	0.00e+00	0	31	101	1048576	60	8621
2026-01-06 00:29:00.19	161.47	7.93	-43.6	-45.0	19.7	0.00e+00	0	31	101	1048576	60	8679
2026-01-06 00:29:01.20	161.49	8.01	-43.4	-44.9	19.8	0.00e+00	0	31	101	1048576	60	8529
2026-01-06 00:29:02.21	161.50	8.09	-43.4	-44.8	19.7	0.00e+00	0	31	101	1048576	60	8436
2026-01-06 00:29:03.22	161.51	8.17	-43.4	-44.8	19.9	0.00e+00	0	31	101	1048576	60	8486
2026-01-06 00:29:04.23	161.52	8.25	-43.4	-44.8	19.9	0.00e+00	0	31	101	1048576	60	8447
2026-01-06 00:29:05.24	161.54	8.33	-43.4	-44.8	19.9	0.00e+00	0	31	101	1048576	60	8476
2026-01-06 00:29:06.25	161.55	8.42	-43.5	-44.9	19.8	0.00e+00	0	31	101	1048576	60	8572
2026-01-06 00:29:07.26	161.56	8.50	-43.4	-44.8	20.0	0.00e+00	0	31	101	1048576	60	8463
2026-01-06 00:29:08.28	161.57	8.58	-43.3	-44.7	20.0	0.00e+00	0	31	101	1048576	60	8371
2026-01-06 00:29:09.29	161.59	8.67	-43.3	-44.7	20.1	0.00e+00	0	31	101	1048576	60	8389
2026-01-06 00:29:10.30	161.60	8.75	-43.4	-44.9	20.0	0.00e+00	0	31	101	1048576	60	8533
2026-01-06 00:29:11.31	161.61	8.83	-43.2	-44.6	20.0	0.00e+00	0	31	101	1048576	60	8288
2026-01-06 00:29:12.32	161.62	8.92	-43.4	-44.8	20.0	0.00e+00	0	31	101	1048576	60	8453
2026-01-06 00:29:13.33	161.64	9.00	-43.3	-44.7	20.0	0.00e+00	0	31	101	1048576	60	8405
2026-01-06 00:29:14.34	161.65	9.09	-43.3	-44.7	20.1	0.00e+00	0	31	101	1048576	60	8336
2026-01-06 00:29:15.35	161.66	9.17	-43.0	-44.4	20.4	0.00e+00	0	31	101	1048576	60	8050
2026-01-06 00:29:16.36	161.68	9.26	-43.2	-44.5	20.3	0.00e+00	0	31	101	1048576	60	8198
2026-01-06 00:29:17.37	161.69	9.34	-42.9	-44.2	20.4	0.00e+00	0	31	101	1048576	60	7953
2026-01-06 00:29:18.38	161.70	9.43	-43.0	-44.4	20.3	0.00e+00	0	31	101	1048576	60	8075
2026-01-06 00:29:19.39	161.72	9.51	-43.1	-44.4	20.3	0.00e+00	0	31	101	1048576	60	8131
2026-01-06 00:29:20.41	161.73	9.60	-43.2	-44.5	20.2	0.00e+00	0	31	101	1048576	60	8208
2026-01-06 00:29:21.41	161.74	9.69	-43.0	-44.3	20.5	0.00e+00	0	31	101	1048576	60	8019
2026-01-06 00:29:22.43	161.76	9.77	-42.6	-43.9	20.9	0.00e+00	0	31	101	1048576	60	7623
2026-01-06 00:29:23.44	161.77	9.86	-42.6	-43.9	20.8	0.00e+00	0	31	101	1048576	60	7624
2026-01-06 00:29:24.45	161.78	9.95	-42.5	-43.8	20.9	0.00e+00	0	31	101	1048576	60	7532
2026-01-06 00:29:25.46	161.80	10.04	-42.6	-43.8	20.9	0.00e+00	0	31	101	1048576	60	7576
2026-01-06 00:29:26.47	161.81	10.13	-42.6	-43.8	20.9	0.00e+00	0	31	101	1048576	60	7569
2026-01-06 00:29:27.48	161.82	10.21	-42.5	-43.8	20.9	0.00e+00	0	31	101	1048576	60	7526
2026-01-06 00:29:28.49	161.84	10.30	-42.3	-43.5	21.1	0.00e+00	0	31	101	1048576	60	7301
2026-01-06 00:29:29.50	161.85	10.39	-42.2	-43.4	21.2	0.00e+00	0	31	101	1048576	60	7232
2026-01-06 00:29:30.51	161.87	10.48	-42.2	-43.4	21.3	0.00e+00	0	31	101	1048576	60	7183
2026-01-06 00:29:31.53	161.88	10.57	-42.2	-43.4	21.3	0.00e+00	0	31	101	1048576	60	7183
2026-01-06 00:29:32.54	161.89	10.66	-42.2	-43.3	21.3	0.00e+00	0	31	101	1048576	60	7169
2026-01-06 00:29:33.55	161.91	10.75	-42.0	-43.2	21.4	0.00e+00	0	31	101	1048576	60	7017
2026-01-06 00:29:34.56	161.92	10.84	-42.2	-43.3	21.4	0.00e+00	0	31	101	1048576	60	7159
2026-01-06 00:29:35.57	161.94	10.93	-41.9	-43.1	21.5	0.00e+00	0	31	101	1048576	60	6959
2026-01-06 00:29:36.58	161.95	11.03	-41.9	-43.1	21.6	0.00e+00	0	31	101	1048576	60	6948
2026-01-06 00:29:37.59	161.96	11.12	-41.9	-43.0	21.6	0.00e+00	0	31	101	1048576	60	6871
2026-01-06 00:29:38.60	161.98	11.21	-41.8	-42.9	21.7	0.00e+00	0	31	101	1048576	60	6814
2026-01-06 00:29:39.62	161.99	11.30	-41.8	-43.0	21.6	0.00e+00	0	31	101	1048576	60	6891
2026-01-06 00:29:40.63	162.01	11.40	-41.8	-42.9	21.5	0.00e+00	0	31	101	1048576	60	6844
2026-01-06 00:29:41.64	162.02	11.49	-41.6	-42.8	21.8	0.00e+00	0	31	101	1048576	60	6703
2026-01-06 00:29:42.65	162.04	11.58	-41.6	-42.7	21.8	0.00e+00	0	31	101	1048576	60	6686
2026-01-06 00:29:43.66	162.05	11.68	-41.6	-42.7	21.9	0.00e+00	0	31	101	1048576	60	6645
2026-01-06 00:29:44.67	162.07	11.77	-41.5	-42.7	22.0	0.00e+00	0	31	101	1048576	60	6617
2026-01-06 00:29:45.68	162.08	11.87	-41.5	-42.6	21.9	0.00e+00	0	31	101	1048576	60	6607
2026-01-06 00:29:46.69	162.10	11.96	-41.5	-42.6	21.9	0.00e+00	0	31	101	1048576	60	6552
2026-01-06 00:29:47.70	162.11	12.06	-41.6	-42.8	21.7	0.00e+00	0	31	101	1048576	60	6708
2026-01-06 00:29:48.71	162.13	12.15	-41.5	-42.6	22.0	0.00e+00	0	31	101	1048576	60	6555
2026-01-06 00:29:49.72	162.14	12.25	-41.6	-42.7	21.9	0.00e+00	0	31	101	1048576	60	6653
2026-01-06 00:29:50.73	162.16	12.35	-41.2	-42.3	22.3	0.00e+00	0	31	101	1048576	60	6354
2026-01-06 00:29:51.74	162.17	12.44	-41.2	-42.3	22.2	0.00e+00	0	31	101	1048576	60	6319
2026-01-06 00:29:52.76	162.19	12.54	-41.2	-42.3	22.3	0.00e+00	0	31	101	1048576	60	6345
2026-01-06 00:29:53.77	162.21	12.64	-41.1	-42.2	22.2	0.00e+00	0	31	101	1048576	60	6282
2026-01-06 00:29:54.78	162.22	12.74	-40.9	-41.9	22.5	0.00e+00	0	31	101	1048576	60	6079
2026-01-06 00:29:55.79	162.24	12.84	-40.9	-41.9	22.5	0.00e+00	0	31	101	1048576	60	6100
2026-01-06 00:29:56.80	162.25	12.93	-40.9	-41.9	22.5	0.00e+00	0	31	101	1048576	60	6071
2026-01-06 00:29:57.81	162.27	13.03	-40.8	-41.8	22.6	0.00e+00	0	31	101	1048576	60	6006
2026-01-06 00:29:58.82	162.28	13.13	-40.7	-41.8	22.6	0.00e+00	0	31	101	1048576	60	5981
2026-01-06 00:29:59.83	162.30	13.23	-40.8	-41.9	22.7	0.00e+00	0	31	101	1048576	60	6043
2026-01-06 00:30:00.84	162.32	13.33	-40.6	-41.6	22.8	0.00e+00	0	31	101	1048576	60	5873
2026-01-06 00:30:01.85	162.33	13.44	-40.5	-41.5	22.8	0.00e+00	0	31	101	1048576	60	5827
2026-01-06 00:30:02.87	162.35	13.54	-40.5	-41.5	22.9	0.00e+00	0	31	101	1048576	60	5812
2026-01-06 00:30:03.88	162.37	13.64	-40.4	-41.4	23.0	0.00e+00	0	31	101	1048576	60	5708
2026-01-06 00:30:04.89	162.38	13.74	-40.3	-41.3	22.9	0.00e+00	0	31	101	1048576	60	5658
2026-01-06 00:30:05.90	162.40	13.84	-40.3	-41.3	23.1	0.00e+00	0	31	101	1048576	60	5659
2026-01-06 00:30:06.91	162.42	13.95	-40.2	-41.2	23.1	0.00e+00	0	31	101	1048576	60	5578
2026-01-06 00:30:07.92	162.43	14.05	-40.0	-40.9	23.3	0.00e+00	0	31	101	1048576	58	6066
2026-01-06 00:30:08.93	162.45	14.16	-40.0	-41.0	23.3	0.00e+00	0	31	101	1048576	58	6114
2026-01-06 00:30:09.94	162.47	14.26	-39.9	-40.9	23.4	0.00e+00	0	31	101	1048576	58	6051
2026-01-06 00:30:10.95	162.48	14.36	-40.0	-40.9	23.3	0.00e+00	0	31	101	1048576	58	6096
2026-01-06 00:30:11.96	162.50	14.47	-40.0	-41.0	23.3	0.00e+00	0	31	101	1048576	58	6105
2026-01-06 00:30:12.97	162.52	14.58	-39.8	-40.8	23.4	0.00e+00	0	31	101	1048576	58	5984
2026-01-06 00:30:13.98	162.54	14.68	-39.9	-40.8	23.5	0.00e+00	0	31	101	1048576	58	6009
2026-01-06 00:30:14.99	162.55	14.79	-39.7	-40.7	23.5	0.00e+00	0	31	101	1048576	58	5903
2026-01-06 00:30:16.01	162.57	14.90	-39.8	-40.8	23.5	0.00e+00	0	31	101	1048576	58	5992
2026-01-06 00:30:17.02	162.59	15.00	-39.8	-40.8	23.4	0.00e+00	0	31	101	1048576	58	5965
2026-01-06 00:30:18.03	162.61	15.11	-39.8	-40.8	23.5	0.00e+00	0	31	101	1048576	58	5969
2026-01-06 00:30:19.04	162.62	15.22	-39.8	-40.7	23.5	0.00e+00	0	31	101	1048576	58	5937
2026-01-06 00:30:20.05	162.64	15.33	-39.8	-40.7	23.4	0.00e+00	0	31	101	1048576	58	5949
2026-01-06 00:30:21.06	162.66	15.44	-39.7	-40.7	23.3	0.00e+00	0	31	101	1048576	58	5926
2026-01-06 00:30:22.07	162.68	15.55	-39.9	-40.8	23.5	0.00e+00	0	31	101	1048576	58	6008
2026-01-06 00:30:23.08	162.70	15.66	-39.9	-40.8	23.1	0.00e+00	0	31	101	1048576	58	6000
2026-01-06 00:30:24.09	162.72	15.77	-39.9	-40.8	23.4	0.00e+00	0	31	101	1048576	58	6027
2026-01-06 00:30:25.10	162.73	15.88	-39.7	-40.6	23.1	0.00e+00	0	31	101	1048576	58	5883
2026-01-06 00:30:26.11	162.75	16.00	-39.8	-40.8	23.5	0.00e+00	0	31	101	1048576	58	5968
2026-01-06 00:30:27.12	162.77	16.11	-39.7	-40.6	23.5	0.00e+00	0	31	101	1048576	58	5853
2026-01-06 00:30:28.14	162.79	16.22	-39.5	-40.5	23.5	0.00e+00	0	31	101	1048576	58	5762
2026-01-06 00:30:29.15	162.81	16.34	-39.6	-40.6	23.5	0.00e+00	0	31	101	1048576	58	5829
2026-01-06 00:30:30.16	162.83	16.45	-39.5	-40.4	23.6	0.00e+00	0	31	101	1048576	58	5734
2026-01-06 00:30:31.17	162.85	16.57	-39.5	-40.4	23.6	0.00e+00	0	31	101	1048576	58	5759
2026-01-06 00:30:32.18	162.87	16.68	-39.8	-40.7	23.5	0.00e+00	0	31	101	1048576	58	5925
2026-01-06 00:30:33.19	162.89	16.80	-39.6	-40.6	23.5	0.00e+00	0	31	101	1048576	58	5836
2026-01-06 00:30:34.20	162.91	16.91	-39.8	-40.7	23.5	0.00e+00	0	31	101	1048576	58	5944
2026-01-06 00:30:35.21	162.93	17.03	-39.5	-40.4	23.7	0.00e+00	0	31	101	1048576	58	5753
2026-01-06 00:30:36.22	162.95	17.15	-39.7	-40.6	23.6	0.00e+00	0	31	101	1048576	58	5878
2026-01-06 00:30:37.23	162.97	17.27	-39.3	-40.2	23.9	0.00e+00	0	31	101	1048576	58	5616
2026-01-06 00:30:38.24	162.99	17.38	-39.3	-40.2	23.9	0.00e+00	0	31	101	1048576	58	5607
2026-01-06 00:30:39.25	163.01	17.50	-39.4	-40.3	23.9	0.00e+00	0	31	101	1048576	58	5632
2026-01-06 00:30:40.26	163.03	17.62	-39.3	-40.2	23.9	0.00e+00	0	31	101	1048576	58	5580
2026-01-06 00:30:41.27	163.05	17.74	-39.3	-40.2	24.0	0.00e+00	0	31	101	1048576	58	5568
2026-01-06 00:30:42.28	163.07	17.86	-39.4	-40.3	23.9	0.00e+00	0	31	101	1048576	58	5692
2026-01-06 00:30:43.29	163.09	17.99	-39.2	-40.1	24.0	0.00e+00	0	31	101	1048576	58	5535
2026-01-06 00:30:44.31	163.11	18.11	-39.3	-40.2	23.9	0.00e+00	0	31	101	1048576	58	5603
2026-01-06 00:30:45.32	163.13	18.23	-39.4	-40.3	23.9	0.00e+00	0	31	101	1048576	58	5643
2026-01-06 00:30:46.33	163.15	18.36	-39.4	-40.3	23.8	0.00e+00	0	31	101	1048576	58	5653
2026-01-06 00:30:47.34	163.17	18.48	-39.4	-40.3	23.8	0.00e+00	0	31	101	1048576	58	5649
2026-01-06 00:30:48.35	163.19	18.60	-39.5	-40.4	23.8	0.00e+00	0	31	101	1048576	58	5756
2026-01-06 00:30:49.36	163.22	18.73	-39.6	-40.6	23.6	0.00e+00	0	31	101	1048576	58	5829
2026-01-06 00:30:50.37	163.24	18.86	-39.6	-40.5	23.8	0.00e+00	0	31	101	1048576	58	5818
2026-01-06 00:30:51.38	163.26	18.98	-39.5	-40.4	23.8	0.00e+00	0	31	101	1048576	58	5748
2026-01-06 00:30:52.39	163.28	19.11	-39.6	-40.5	23.7	0.00e+00	0	31	101	1048576	58	5824
2026-01-06 00:30:53.40	163.30	19.24	-39.7	-40.6	23.7	0.00e+00	0	31	101	1048576	58	5853
2026-01-06 00:30:54.42	163.33	19.37	-39.7	-40.6	23.7	0.00e+00	0	31	101	1048576	58	5840
2026-01-06 00:30:55.43	163.35	19.50	-39.7	-40.6	23.6	0.00e+00	0	31	101	1048576	58	5879
2026-01-06 00:30:56.44	163.37	19.63	-39.6	-40.5	23.8	0.00e+00	0	31	101	1048576	58	5803
2026-01-06 00:30:57.45	163.40	19.76	-39.6	-40.5	23.7	0.00e+00	0	31	101	1048576	58	5785
2026-01-06 00:30:58.46	163.42	19.89	-39.7	-40.6	23.7	0.00e+00	0	31	101	1048576	58	5858
2026-01-06 00:30:59.47	163.44	20.02	-39.7	-40.6	23.7	0.00e+00	0	31	101	1048576	58	5853
2026-01-06 00:31:00.48	163.47	20.15	-39.8	-40.7	23.6	0.00e+00	0	31	101	1048576	58	5923
2026-01-06 00:31:01.49	163.49	20.29	-39.8	-40.7	23.7	0.00e+00	0	31	101	1048576	58	5934
2026-01-06 00:31:02.50	163.51	20.42	-40.0	-40.9	23.6	0.00e+00	0	31	101	1048576	58	6093
2026-01-06 00:31:03.51	163.54	20.56	-40.1	-41.0	23.5	0.00e+00	0	31	101	1048576	58	6133
2026-01-06 00:31:04.53	163.56	20.69	-40.1	-41.0	23.5	0.00e+00	0	31	101	1048576	58	6134
2026-01-06 00:31:05.54	163.59	20.83	-40.2	-41.1	23.3	0.00e+00	0	31	101	1048576	58	6214
2026-01-06 00:31:06.55	163.61	20.97	-40.4	-41.3	23.1	0.00e+00	0	31	101	1048576	58	6388
2026-01-06 00:31:07.56	163.63	21.10	-40.4	-41.4	23.1	0.00e+00	0	31	101	1048576	58	6401
2026-01-06 00:31:08.57	163.66	21.24	-40.6	-41.6	23.0	0.00e+00	0	31	101	1048576	58	6562
2026-01-06 00:31:09.58	163.68	21.38	-40.7	-41.7	22.7	0.00e+00	0	31	101	1048576	58	6690
2026-01-06 00:31:10.59	163.71	21.52	-40.8	-41.8	22.8	0.00e+00	0	31	101	1048576	58	6715
2026-01-06 00:31:11.60	163.74	21.66	-40.7	-41.8	22.8	0.00e+00	0	31	101	1048576	58	6696
2026-01-06 00:31:12.61	163.76	21.80	-40.7	-41.8	22.8	0.00e+00	0	31	101	1048576	58	6693
2026-01-06 00:31:13.62	163.79	21.95	-40.9	-42.0	22.7	0.00e+00	0	31	101	1048576	58	6867
2026-01-06 00:31:14.63	163.81	22.09	-40.8	-41.9	22.7	0.00e+00	0	31	101	1048576	58	6793
2026-01-06 00:31:15.64	163.84	22.23	-41.0	-42.0	22.7	0.00e+00	0	31	101	1048576	58	6896
2026-01-06 00:31:16.65	163.87	22.38	-41.0	-42.0	22.5	0.00e+00	0	31	101	1048576	58	6907
2026-01-06 00:31:17.66	163.89	22.52	-41.1	-42.2	22.5	0.00e+00	0	31	101	1048576	60	6260
2026-01-06 00:31:18.68	163.92	22.67	-41.0	-42.1	22.6	0.00e+00	0	31	101	1048576	60	6184
2026-01-06 00:31:19.69	163.95	22.82	-41.0	-42.1	22.6	0.00e+00	0	31	101	1048576	60	6179
2026-01-06 00:31:20.70	163.97	22.97	-41.1	-42.2	22.6	0.00e+00	0	31	101	1048576	60	6258
2026-01-06 00:31:21.71	164.00	23.12	-41.0	-42.1	22.5	0.00e+00	0	31	101	1048576	60	6201
2026-01-06 00:31:22.72	164.03	23.27	-41.1	-42.1	22.5	0.00e+00	0	32	101	1048576	60	6216
2026-01-06 00:31:23.73	164.06	23.42	-41.2	-42.2	22.5	0.00e+00	0	31	101	1048576	60	6307
2026-01-06 00:31:24.74	164.09	23.57	-41.2	-42.2	22.5	0.00e+00	0	31	101	1048576	60	6280
2026-01-06 00:31:25.76	164.12	23.72	-41.4	-42.4	22.3	0.00e+00	0	31	101	1048576	60	6464
2026-01-06 00:31:26.76	164.14	23.87	-41.5	-42.6	22.2	0.00e+00	0	31	101	1048576	60	6549
2026-01-06 00:31:27.78	164.17	24.03	-41.0	-42.0	22.7	0.00e+00	0	31	101	1048576	60	6125
2026-01-06 00:31:28.79	164.20	24.19	-41.1	-42.1	22.6	0.00e+00	0	31	101	1048576	60	6233
2026-01-06 00:31:29.80	164.23	24.34	-41.1	-42.1	22.6	0.00e+00	0	32	101	1048576	60	6216
2026-01-06 00:31:30.81	164.26	24.50	-41.0	-42.1	22.8	0.00e+00	0	32	101	1048576	60	6174
2026-01-06 00:31:31.82	164.29	24.66	-41.0	-42.0	22.7	0.00e+00	0	31	101	1048576	60	6148
2026-01-06 00:31:32.83	164.32	24.82	-41.2	-42.2	22.7	0.00e+00	0	31	101	1048576	60	6292
2026-01-06 00:31:33.84	164.35	24.98	-41.2	-42.2	22.5	0.00e+00	0	31	101	1048576	60	6302
2026-01-06 00:31:34.85	164.38	25.14	-41.1	-42.1	22.7	0.00e+00	0	31	101	1048576	60	6212
2026-01-06 00:31:35.86	164.41	25.30	-41.1	-42.1	22.7	0.00e+00	0	31	101	1048576	60	6197
2026-01-06 00:31:36.87	164.45	25.46	-41.5	-42.5	22.5	0.00e+00	0	31	101	1048576	60	6531
2026-01-06 00:31:37.88	164.48	25.62	-41.4	-42.5	22.4	0.00e+00	0	31	101	1048576	60	6508
2026-01-06 00:31:38.89	164.51	25.79	-41.4	-42.4	22.5	0.00e+00	0	31	101	1048576	60	6448
2026-01-06 00:31:39.91	164.54	25.96	-41.4	-42.5	22.4	0.00e+00	0	31	101	1048576	60	6493
2026-01-06 00:31:40.92	164.58	26.12	-41.5	-42.5	22.4	0.00e+00	0	31	101	1048576	60	6519
2026-01-06 00:31:41.93	164.61	26.29	-41.0	-42.0	22.8	0.00e+00	0	31	101	1048576	60	6168
2026-01-06 00:31:42.94	164.64	26.46	-40.9	-41.9	22.9	0.00e+00	0	31	101	1048576	60	6048
2026-01-06 00:31:43.95	164.68	26.63	-41.1	-42.1	22.7	0.00e+00	0	31	101	1048576	60	6208
2026-01-06 00:31:44.96	164.71	26.80	-40.7	-41.7	23.0	0.00e+00	0	31	101	1048576	60	5911
2026-01-06 00:31:45.97	164.74	26.97	-40.8	-41.8	23.0	0.00e+00	0	31	101	1048576	60	5975
2026-01-06 00:31:46.98	164.78	27.15	-40.9	-41.9	22.8	0.00e+00	0	31	101	1048576	60	6066
2026-01-06 00:31:47.99	164.81	27.32	-40.9	-41.9	22.9	0.00e+00	0	31	101	1048576	60	6051
2026-01-06 00:31:49.00	164.85	27.50	-41.2	-42.2	22.6	0.00e+00	0	31	101	1048576	60	6291
2026-01-06 00:31:50.01	164.88	27.67	-41.1	-42.1	22.7	0.00e+00	0	31	101	1048576	60	6234
2026-01-06 00:31:51.02	164.92	27.85	-41.0	-42.0	22.8	0.00e+00	0	31	101	1048576	60	6155
2026-01-06 00:31:52.03	164.96	28.03	-41.3	-42.3	22.6	0.00e+00	0	31	101	1048576	60	6377
2026-01-06 00:31:53.04	164.99	28.21	-41.2	-42.2	22.6	0.00e+00	0	31	101	1048576	60	6287
2026-01-06 00:31:54.06	165.03	28.39	-41.2	-42.2	22.4	0.00e+00	0	31	101	1048576	60	6311
2026-01-06 00:31:55.07	165.07	28.58	-41.3	-42.3	22.6	0.00e+00	0	31	101	1048576	60	6362
2026-01-06 00:31:56.08	165.11	28.76	-41.0	-42.0	22.8	0.00e+00	0	31	101	1048576	60	6106
2026-01-06 00:31:57.09	165.14	28.94	-41.1	-42.1	22.7	0.00e+00	0	31	101	1048576	60	6197
2026-01-06 00:31:58.10	165.18	29.13	-41.3	-42.3	22.5	0.00e+00	0	31	101	1048576	60	6384
2026-01-06 00:31:59.11	165.22	29.32	-41.1	-42.1	22.7	0.00e+00	0	31	101	1048576	60	6241
2026-01-06 00:32:00.12	165.26	29.51	-41.3	-42.3	22.5	0.00e+00	0	31	101	1048576	60	6383
2026-01-06 00:32:01.13	165.30	29.70	-41.5	-42.6	22.4	0.00e+00	0	31	101	1048576	60	6550
2026-01-06 00:32:02.14	165.34	29.89	-41.4	-42.5	22.3	0.00e+00	0	31	101	1048576	60	6503
2026-01-06 00:32:03.15	165.38	30.08	-41.6	-42.7	22.2	0.00e+00	0	31	101	1048576	60	6660
2026-01-06 00:32:04.16	165.42	30.27	-42.1	-43.2	21.7	0.00e+00	0	31	101	1048576	60	7070
2026-01-06 00:32:05.17	165.46	30.47	-41.8	-42.8	22.4	0.00e+00	0	31	101	1048576	60	6768
2026-01-06 00:32:06.19	165.51	30.67	-41.9	-43.0	22.0	0.00e+00	0	31	101	1048576	60	6905
2026-01-06 00:32:07.20	165.55	30.86	-42.0	-43.1	21.9	0.00e+00	0	31	101	1048576	60	6964
2026-01-06 00:32:08.21	165.59	31.06	-41.6	-42.7	22.2	0.00e+00	0	31	101	1048576	60	6664
2026-01-06 00:32:09.22	165.64	31.26	-41.8	-42.9	22.2	0.00e+00	0	31	101	1048576	60	6771
2026-01-06 00:32:10.23	165.68	31.46	-42.0	-43.1	22.0	0.00e+00	0	31	101	1048576	60	6974
2026-01-06 00:32:11.23	165.72	31.66	-42.2	-43.3	21.7	0.00e+00	0	31	101	1048576	60	7145
2026-01-06 00:32:12.24	165.77	31.87	-42.4	-43.5	21.5	0.00e+00	0	31	101	1048576	60	7336
2026-01-06 00:32:13.25	165.81	32.07	-42.8	-44.0	21.4	0.00e+00	0	31	101	1048576	60	7723
2026-01-06 00:32:14.26	165.86	32.28	-42.8	-44.0	20.9	0.00e+00	0	31	101	1048576	60	7704
2026-01-06 00:32:15.27	165.91	32.49	-43.0	-44.3	20.9	0.00e+00	0	31	101	1048576	60	7975
2026-01-06 00:32:16.28	165.95	32.70	-43.2	-44.5	20.7	0.00e+00	0	31	101	1048576	60	8201
2026-01-06 00:32:17.29	166.00	32.91	-43.2	-44.5	20.6	0.00e+00	0	32	101	1048576	60	8171
2026-01-06 00:32:18.31	166.05	33.13	-43.2	-44.5	20.8	0.00e+00	0	31	101	1048576	60	8148
2026-01-06 00:32:19.32	166.10	33.34	-43.2	-44.6	20.8	0.00e+00	0	31	101	1048576	60	8257
2026-01-06 00:32:20.33	166.15	33.56	-42.9	-44.2	20.9	0.00e+00	0	31	101	1048576	60	7900
2026-01-06 00:32:21.34	166.20	33.77	-43.0	-44.3	20.9	0.00e+00	0	31	101	1048576	60	7984
2026-01-06 00:32:22.35	166.25	33.99	-43.1	-44.4	20.8	0.00e+00	0	31	101	1048576	60	8105
2026-01-06 00:32:23.36	166.30	34.21	-42.5	-43.7	21.2	0.00e+00	0	32	101	1048576	60	7501
2026-01-06 00:32:24.37	166.35	34.44	-42.1	-43.3	21.8	0.00e+00	0	31	101	1048576	60	7094
2026-01-06 00:32:25.38	166.41	34.66	-41.8	-42.9	22.0	0.00e+00	0	32	101	1048576	60	6824
2026-01-06 00:32:26.39	166.46	34.88	-41.5	-42.6	22.2	0.00e+00	0	32	101	1048576	60	6580
2026-01-06 00:32:27.40	166.51	35.11	-41.5	-42.6	22.5	0.00e+00	0	31	101	1048576	60	6575
2026-01-06 00:32:28.41	166.57	35.34	-40.8	-41.9	22.7	0.00e+00	0	31	101	1048576	60	6040
2026-01-06 00:32:29.43	166.63	35.57	-40.7	-41.7	23.0	0.00e+00	0	31	101	1048576	60	5956
2026-01-06 00:32:30.44	166.68	35.80	-40.4	-41.4	23.2	0.00e+00	0	31	101	1048576	60	5731
2026-01-06 00:32:31.45	166.74	36.04	-40.1	-41.1	23.4	0.00e+00	0	31	101	1048576	60	5527
2026-01-06 00:32:32.46	166.80	36.27	-40.0	-41.0	23.4	0.00e+00	0	31	101	1048576	58	6136
2026-01-06 00:32:33.47	166.86	36.51	-40.2	-41.2	23.3	0.00e+00	0	31	101	1048576	58	6310
2026-01-06 00:32:34.48	166.91	36.75	-39.9	-40.8	23.7	0.00e+00	0	31	101	1048576	58	5998
2026-01-06 00:32:35.49	166.97	36.99	-39.3	-40.2	24.1	0.00e+00	0	31	101	1048576	58	5618
2026-01-06 00:32:36.50	167.04	37.23	-39.2	-40.1	24.2	0.00e+00	0	31	101	1048576	58	5515
2026-01-06 00:32:37.51	167.10	37.47	-39.0	-39.8	24.3	0.00e+00	0	32	101	1048576	56	6028
2026-01-06 00:32:38.53	167.16	37.72	-39.0	-39.8	24.3	0.00e+00	0	31	101	1048576	56	6016
2026-01-06 00:32:39.54	167.22	37.97	-39.0	-39.8	24.3	0.00e+00	0	31	101	1048576	56	5995
2026-01-06 00:32:40.55	167.29	38.22	-39.1	-39.9	24.2	0.00e+00	0	31	101	1048576	56	6096
2026-01-06 00:32:41.56	167.35	38.47	-39.0	-39.9	24.4	0.00e+00	0	31	101	1048576	56	6040
2026-01-06 00:32:42.57	167.42	38.72	-39.3	-40.2	24.2	0.00e+00	0	31	101	1048576	56	6247
2026-01-06 00:32:43.58	167.49	38.97	-39.1	-39.9	24.3	0.00e+00	0	31	101	1048576	56	6096
2026-01-06 00:32:44.59	167.56	39.23	-39.1	-40.0	24.2	0.00e+00	0	31	101	1048576	56	6115
2026-01-06 00:32:45.60	167.63	39.49	-39.4	-40.2	24.1	0.00e+00	0	31	101	1048576	56	6305
2026-01-06 00:32:46.61	167.70	39.75	-39.4	-40.3	23.9	0.00e+00	0	32	101	1048576	56	6340
2026-01-06 00:32:47.62	167.77	40.01	-39.5	-40.3	23.9	0.00e+00	0	31	101	1048576	56	6380
2026-01-06 00:32:48.63	167.84	40.27	-40.3	-41.2	23.3	0.00e+00	0	31	101	1048576	58	6289
2026-01-06 00:32:49.64	167.92	40.54	-40.3	-41.2	23.2	0.00e+00	0	32	101	1048576	58	6315
2026-01-06 00:32:50.65	167.99	40.81	-40.5	-41.5	22.9	0.00e+00	0	31	101	1048576	58	6486
2026-01-06 00:32:51.67	168.07	41.08	-40.8	-41.7	23.0	0.00e+00	0	31	101	1048576	58	6667
2026-01-06 00:32:52.68	168.15	41.35	-40.7	-41.7	23.0	0.00e+00	0	31	101	1048576	58	6623
2026-01-06 00:32:53.69	168.22	41.63	-41.0	-42.0	22.7	0.00e+00	0	32	101	1048576	60	6115
2026-01-06 00:32:54.70	168.30	41.90	-40.9	-41.9	22.7	0.00e+00	0	31	101	1048576	60	6079
2026-01-06 00:32:55.71	168.39	42.18	-40.9	-42.0	22.8	0.00e+00	0	31	101	1048576	60	6120
2026-01-06 00:32:56.72	168.47	42.46	-40.9	-41.9	22.9	0.00e+00	0	32	101	1048576	60	6097
2026-01-06 00:32:57.73	168.55	42.74	-40.7	-41.7	23.0	0.00e+00	0	31	101	1048576	60	5936
2026-01-06 00:32:58.74	168.64	43.02	-40.0	-40.9	23.5	0.00e+00	0	31	101	1048576	58	6083
2026-01-06 00:32:59.75	168.72	43.31	-40.3	-41.3	23.3	0.00e+00	0	31	101	1048576	58	6331
2026-01-06 00:33:00.77	168.81	43.60	-40.1	-41.1	23.4	0.00e+00	0	31	101	1048576	58	6187
2026-01-06 00:33:01.78	168.90	43.89	-40.1	-41.0	23.2	0.00e+00	0	31	101	1048576	58	6167
2026-01-06 00:33:02.79	169.00	44.18	-40.3	-41.3	23.3	0.00e+00	0	31	101	1048576	58	6370
2026-01-06 00:33:03.80	169.09	44.48	-40.6	-41.6	23.0	0.00e+00	0	31	101	1048576	58	6574
2026-01-06 00:33:04.81	169.18	44.77	-41.4	-42.5	22.4	0.00e+00	0	31	101	1048576	60	6470
2026-01-06 00:33:05.82	169.28	45.07	-41.8	-43.0	22.0	0.00e+00	0	31	101	1048576	60	6849
2026-01-06 00:33:06.83	169.38	45.37	-42.7	-44.0	21.2	0.00e+00	0	31	101	1048576	60	7753
2026-01-06 00:33:07.84	169.48	45.68	-43.0	-44.4	20.8	0.00e+00	0	32	101	1048576	60	8116
2026-01-06 00:33:08.85	169.58	45.98	-43.6	-45.1	20.4	0.00e+00	0	32	101	1048576	60	8762
2026-01-06 00:33:09.87	169.69	46.29	-43.5	-45.0	20.3	0.00e+00	0	32	101	1048576	60	8711
2026-01-06 00:33:10.88	169.79	46.60	-43.7	-45.2	19.9	0.00e+00	0	31	101	1048576	60	8900
2026-01-06 00:33:11.89	169.90	46.91	-43.7	-45.2	20.0	0.00e+00	0	31	101	1048576	60	8918
2026-01-06 00:33:12.90	170.01	47.23	-43.3	-44.7	20.5	0.00e+00	0	32	101	1048576	60	8409
2026-01-06 00:33:13.91	170.12	47.54	-42.8	-44.1	21.0	0.00e+00	0	32	101	1048576	60	7806
2026-01-06 00:33:14.92	170.24	47.86	-42.5	-43.8	21.2	0.00e+00	0	32	101	1048576	60	7529
2026-01-06 00:33:15.93	170.35	48.18	-42.6	-43.9	21.4	0.00e+00	0	31	101	1048576	60	7619
2026-01-06 00:33:16.94	170.47	48.51	-41.6	-42.7	22.2	0.00e+00	0	31	101	1048576	60	6682
2026-01-06 00:33:17.96	170.60	48.84	-40.8	-41.8	23.0	0.00e+00	0	32	101	1048576	60	6006
2026-01-06 00:33:18.97	170.72	49.16	-39.7	-40.6	23.7	0.00e+00	0	31	101	1048576	58	5872
2026-01-06 00:33:19.98	170.85	49.49	-39.1	-39.9	24.2	0.00e+00	0	31	101	1048576	58	5439
2026-01-06 00:33:20.99	170.98	49.83	-38.7	-39.5	24.8	0.00e+00	0	31	101	1048576	56	5781
2026-01-06 00:33:22.00	171.11	50.16	-38.1	-38.9	24.9	0.00e+00	0	31	101	1048576	56	5395
2026-01-06 00:33:23.01	171.24	50.50	-38.1	-38.9	24.9	0.00e+00	0	31	101	1048576	54	6093
2026-01-06 00:33:24.02	171.38	50.84	-38.3	-39.1	24.7	0.00e+00	0	31	101	1048576	54	6182
2026-01-06 00:33:25.03	171.52	51.18	-38.8	-39.7	24.3	0.00e+00	0	31	101	1048576	54	6619
2026-01-06 00:33:26.04	171.67	51.52	-38.7	-39.6	24.4	0.00e+00	0	31	101	1048576	54	6550
2026-01-06 00:33:27.06	171.82	51.87	-38.7	-39.6	24.4	0.00e+00	0	31	101	1048576	54	6574
2026-01-06 00:33:28.07	171.97	52.22	-38.2	-39.0	24.9	0.00e+00	0	31	101	1048576	54	6164
2026-01-06 00:33:29.08	172.12	52.57	-38.7	-39.5	24.5	0.00e+00	0	31	101	1048576	54	6515
2026-01-06 00:33:30.09	172.28	52.92	-38.6	-39.4	24.8	0.00e+00	0	32	101	1048576	54	6439
2026-01-06 00:33:31.10	172.44	53.28	-38.4	-39.2	24.8	0.00e+00	0	31	101	1048576	54	6284
2026-01-06 00:33:32.11	172.61	53.64	-38.1	-38.9	24.8	0.00e+00	0	31	101	1048576	54	6100
2026-01-06 00:33:33.12	172.78	54.00	-38.2	-39.0	24.9	0.00e+00	0	31	101	1048576	54	6149
2026-01-06 00:33:34.13	172.95	54.36	-38.0	-38.8	24.9	0.00e+00	0	31	101	1048576	54	6008
2026-01-06 00:33:35.14	173.13	54.72	-37.7	-38.5	25.2	0.00e+00	0	31	101	1048576	54	5825
2026-01-06 00:33:36.16	173.32	55.09	-37.5	-38.2	25.6	0.00e+00	0	31	101	1048576	54	5618
2026-01-06 00:33:37.17	173.50	55.46	-37.3	-38.0	25.5	0.00e+00	0	31	101	1048576	54	5472
2026-01-06 00:33:38.18	173.70	55.83	-37.0	-37.7	25.8	0.00e+00	0	32	101	1048576	52	5953
2026-01-06 00:33:39.19	173.90	56.21	-37.3	-38.1	25.6	0.00e+00	0	31	101	1048576	52	6175
2026-01-06 00:33:40.20	174.10	56.58	-38.1	-38.9	25.0	0.00e+00	0	31	101	1048576	52	6822
2026-01-06 00:33:41.21	174.31	56.96	-38.2	-39.0	24.9	0.00e+00	0	32	101	1048576	54	6142
2026-01-06 00:33:42.22	174.52	57.34	-38.4	-39.2	24.8	0.00e+00	0	31	101	1048576	54	6279
2026-01-06 00:33:43.23	174.74	57.72	-38.0	-38.8	25.1	0.00e+00	0	32	101	1048576	54	6003
2026-01-06 00:33:44.24	174.97	58.11	-37.7	-38.5	25.3	0.00e+00	0	32	101	1048576	54	5808
2026-01-06 00:33:45.25	175.20	58.50	-37.5	-38.3	25.3	0.00e+00	0	31	101	1048576	54	5652
2026-01-06 00:33:46.27	175.44	58.89	-37.9	-38.7	25.2	0.00e+00	0	32	101	1048576	54	5936
2026-01-06 00:33:47.28	175.69	59.28	-38.3	-39.2	24.8	0.00e+00	0	32	101	1048576	54	6255
2026-01-06 00:33:48.29	175.95	59.67	-38.6	-39.4	24.6	0.00e+00	0	32	101	1048576	54	6453
2026-01-06 00:33:49.30	176.21	60.07	-38.0	-38.8	25.0	0.00e+00	0	32	101	1048576	54	6002
2026-01-06 00:33:50.31	176.48	60.46	-38.0	-38.8	25.1	0.00e+00	0	32	101	1048576	54	5972
2026-01-06 00:33:51.32	176.76	60.86	-37.9	-38.6	25.2	0.00e+00	0	32	101	1048576	54	5893
2026-01-06 00:33:52.33	177.04	61.26	-37.5	-38.3	25.3	0.00e+00	0	32	101	1048576	54	5663
2026-01-06 00:33:53.34	177.34	61.66	-37.3	-38.1	25.5	0.00e+00	0	31	101	1048576	54	5532
2026-01-06 00:33:54.35	177.65	62.07	-37.2	-37.9	25.6	0.00e+00	0	31	101	1048576	54	5433
2026-01-06 00:33:55.36	177.96	62.47	-37.6	-38.4	25.4	0.00e+00	0	32	101	1048576	54	5713
2026-01-06 00:33:56.38	178.29	62.89	-38.0	-38.8	25.1	0.00e+00	0	31	101	1048576	54	6011
2026-01-06 00:33:57.39	178.63	63.29	-37.9	-38.7	25.0	0.00e+00	0	31	101	1048576	54	5950
2026-01-06 00:33:58.40	178.98	63.70	-38.2	-39.0	24.1	0.00e+00	0	31	101	1048576	54	6170
2026-01-06 00:33:59.41	179.35	64.12	-38.5	-39.3	24.6	0.00e+00	0	32	101	1048576	54	6347
2026-01-06 00:34:00.42	179.72	64.53	-38.6	-39.5	24.6	0.00e+00	0	31	101	1048576	54	6492
2026-01-06 00:34:01.43	180.11	64.94	-38.5	-39.3	24.7	0.00e+00	0	32	101	1048576	54	6346
2026-01-06 00:34:02.44	180.51	65.36	-38.0	-38.8	25.4	0.00e+00	0	32	101	1048576	54	5975
2026-01-06 00:34:03.46	180.94	65.78	-38.1	-38.8	25.0	0.00e+00	0	32	101	1048576	54	6017
2026-01-06 00:34:04.47	181.37	66.20	-38.4	-39.2	24.9	0.00e+00	0	32	101	1048576	54	6270
2026-01-06 00:34:05.48	181.83	66.62	-39.5	-40.4	23.8	0.00e+00	0	32	101	1048576	56	6425
2026-01-06 00:34:06.49	182.30	67.04	-40.8	-41.7	23.0	0.00e+00	0	32	101	1048576	58	6689
2026-01-06 00:34:07.50	182.79	67.46	-41.4	-42.5	22.4	0.00e+00	0	31	101	1048576	60	6494
2026-01-06 00:34:08.51	183.30	67.88	-40.6	-41.5	23.2	0.00e+00	0	31	101	1048576	60	5806
2026-01-06 00:34:09.52	183.83	68.30	-39.9	-40.7	23.7	0.00e+00	0	32	101	1048576	58	5959
2026-01-06 00:34:10.53	184.38	68.72	-41.0	-42.0	22.7	0.00e+00	0	32	101	1048576	58	6907
2026-01-06 00:34:11.54	184.96	69.14	-42.6	-43.9	21.2	0.00e+00	0	32	101	1048576	60	7617
2026-01-06 00:34:12.55	185.56	69.56	-44.4	-46.1	19.3	0.00e+00	0	32	101	1048576	60	9868
2026-01-06 00:34:13.56	186.19	69.98	-44.7	-46.5	18.9	0.00e+00	0	32	101	1048576	60	10292
2026-01-06 00:34:14.57	186.85	70.40	-44.0	-45.5	19.8	0.00e+00	0	32	101	1048576	60	9183
2026-01-06 00:34:15.58	187.54	70.82	-44.1	-45.7	19.5	0.00e+00	0	32	101	1048576	60	9410
2026-01-06 00:34:16.59	188.26	71.24	-43.3	-44.7	20.4	0.00e+00	0	31	101	1048576	60	8383
2026-01-06 00:34:17.61	189.03	71.66	-42.4	-43.6	21.6	0.00e+00	0	31	101	1048576	60	7348
2026-01-06 00:34:18.62	189.82	72.08	-41.1	-42.1	22.6	0.00e+00	0	32	101	1048576	60	6211
2026-01-06 00:34:19.63	190.66	72.49	-40.9	-42.0	22.9	0.00e+00	0	31	101	1048576	60	6114
2026-01-06 00:34:20.64	191.53	72.91	-42.1	-43.4	21.4	0.00e+00	0	31	101	1048576	60	7172
2026-01-06 00:34:21.65	192.46	73.31	-42.7	-43.9	21.2	0.00e+00	0	32	101	1048576	60	7682
2026-01-06 00:34:22.66	193.43	73.72	-42.0	-43.2	21.9	0.00e+00	0	32	101	1048576	60	7014
2026-01-06 00:34:23.67	194.45	74.12	-40.6	-41.5	23.3	0.00e+00	0	32	101	1048576	60	5824
2026-01-06 00:34:24.68	195.52	74.52	-40.6	-41.6	23.1	0.00e+00	0	32	101	1048576	60	5856
2026-01-06 00:34:25.69	196.66	74.92	-40.9	-41.8	23.0	0.00e+00	0	32	101	1048576	60	6014
2026-01-06 00:34:26.71	197.87	75.31	-41.0	-42.0	22.8	0.00e+00	0	32	101	1048576	60	6110
2026-01-06 00:34:27.72	199.14	75.70	-41.6	-42.6	22.3	0.00e+00	0	32	101	1048576	60	6581
2026-01-06 00:34:28.73	200.48	76.08	-43.1	-44.5	20.9	0.00e+00	0	32	101	1048576	60	8165
2026-01-06 00:34:29.74	201.89	76.45	-42.8	-44.0	21.0	0.00e+00	0	32	101	1048576	60	7754
2026-01-06 00:34:30.75	203.39	76.82	-41.5	-42.5	22.4	0.00e+00	0	32	101	1048576	60	6502
2026-01-06 00:34:31.76	204.97	77.17	-41.6	-42.7	21.7	0.00e+00	0	32	101	1048576	60	6635
2026-01-06 00:34:32.77	206.64	77.52	-42.0	-43.1	21.5	0.00e+00	0	32	101	1048576	60	6980
2026-01-06 00:34:33.78	208.41	77.86	-40.9	-41.8	23.1	0.00e+00	0	32	101	1048576	60	6018
2026-01-06 00:34:34.79	210.29	78.18	-41.6	-42.5	22.3	0.00e+00	0	32	101	1048576	60	6534
2026-01-06 00:34:35.80	212.27	78.50	-43.1	-44.3	20.8	0.00e+00	0	32	101	1048576	60	8008
2026-01-06 00:34:36.81	214.36	78.80	-43.6	-45.0	20.3	0.00e+00	0	32	101	1048576	60	8656
2026-01-06 00:34:37.83	216.58	79.08	-42.6	-43.9	21.2	0.00e+00	0	32	101	1048576	60	7601
2026-01-06 00:34:38.84	218.90	79.35	-42.5	-43.7	21.6	0.00e+00	0	31	101	1048576	60	7446
2026-01-06 00:34:39.85	221.34	79.60	-42.8	-44.2	20.8	0.00e+00	0	32	101	1048576	60	7940
2026-01-06 00:34:40.86	223.90	79.84	-43.0	-44.5	20.8	0.00e+00	0	32	101	1048576	60	8185
2026-01-06 00:34:41.87	226.58	80.05	-43.2	-44.7	20.4	0.00e+00	0	32	101	1048576	60	8377
2026-01-06 00:34:42.88	229.36	80.24	-44.0	-45.6	19.6	0.00e+00	0	32	101	1048576	60	9272
2026-01-06 00:34:43.89	232.25	80.40	-43.7	-45.1	20.0	0.00e+00	0	32	101	1048576	60	8792
2026-01-06 00:34:44.90	235.24	80.54	-43.2	-44.5	21.0	0.00e+00	0	32	101	1048576	60	8228
2026-01-06 00:34:45.91	238.31	80.66	-43.1	-44.3	20.6	0.00e+00	0	32	101	1048576	60	8032
2026-01-06 00:34:46.92	241.44	80.75	-43.0	-44.2	20.7	0.00e+00	0	32	101	1048576	60	7943
2026-01-06 00:34:47.94	244.67	80.81	-42.4	-43.6	21.7	0.00e+00	0	32	101	1048576	60	7379
2026-01-06 00:34:48.95	247.89	80.84	-42.4	-43.5	21.6	0.00e+00	0	32	101	1048576	60	7313
2026-01-06 00:34:49.96	251.12	80.85	-42.6	-43.8	21.4	0.00e+00	0	32	101	1048576	60	7550
2026-01-06 00:34:50.97	254.35	80.82	-43.0	-44.3	20.9	0.00e+00	0	32	101	1048576	60	7955
2026-01-06 00:34:51.98	257.55	80.77	-43.0	-44.3	20.8	0.00e+00	0	32	101	1048576	60	8038
2026-01-06 00:34:52.99	260.70	80.69	-42.9	-44.2	20.9	0.00e+00	0	32	101	1048576	60	7877
2026-01-06 00:34:54.00	263.79	80.58	-44.5	-46.2	19.2	0.00e+00	0	32	101	1048576	60	9929
2026-01-06 00:34:55.01	266.80	80.44	-43.5	-44.9	20.3	0.00e+00	0	32	101	1048576	60	8545
2026-01-06 00:34:56.02	269.72	80.28	-42.6	-43.7	21.6	0.00e+00	0	32	101	1048576	60	7488
2026-01-06 00:34:57.03	272.53	80.10	-43.3	-44.7	20.3	0.00e+00	0	32	101	1048576	60	8377
2026-01-06 00:34:58.04	275.24	79.89	-45.1	-47.0	18.1	0.00e+00	0	32	101	1048576	60	10974
2026-01-06 00:34:59.05	277.82	79.67	-43.5	-44.8	20.6	0.00e+00	0	32	101	1048576	60	8501
2026-01-06 00:35:00.07	280.32	79.42	-43.2	-44.6	20.7	0.00e+00	0	32	101	1048576	60	8237
2026-01-06 00:35:01.08	282.67	79.16	-42.3	-43.5	21.4	0.00e+00	0	32	101	1048576	60	7295
2026-01-06 00:35:02.09	284.91	78.88	-42.4	-43.5	21.6	0.00e+00	0	32	101	1048576	60	7333
2026-01-06 00:35:03.10	287.02	78.58	-42.8	-44.1	20.9	0.00e+00	0	32	101	1048576	60	7813
2026-01-06 00:35:04.11	289.03	78.27	-43.9	-45.4	20.0	0.00e+00	0	32	101	1048576	60	9123
2026-01-06 00:35:05.12	290.93	77.95	-43.0	-44.3	20.8	0.00e+00	0	32	101	1048576	60	7991
2026-01-06 00:35:06.13	292.73	77.61	-43.1	-44.5	20.3	0.00e+00	0	32	101	1048576	60	8151
2026-01-06 00:35:07.14	294.43	77.27	-41.5	-42.6	22.6	0.00e+00	0	32	101	1048576	60	6561
2026-01-06 00:35:08.16	296.05	76.91	-39.1	-39.9	24.2	0.00e+00	0	32	101	1048576	56	6091
2026-01-06 00:35:09.17	297.57	76.55	-39.6	-40.4	23.5	0.00e+00	0	32	101	1048576	56	6456
2026-01-06 00:35:10.18	299.00	76.18	-39.9	-40.8	23.5	0.00e+00	0	32	101	1048576	56	6705
2026-01-06 00:35:11.19	300.36	75.80	-40.2	-41.1	23.5	0.00e+00	0	32	101	1048576	58	6239
2026-01-06 00:35:12.20	301.64	75.42	-41.7	-42.9	21.9	0.00e+00	0	32	101	1048576	60	6780
2026-01-06 00:35:13.21	302.86	75.03	-42.8	-44.1	21.2	0.00e+00	0	32	101	1048576	60	7790
2026-01-06 00:35:14.22	304.01	74.64	-42.4	-43.6	21.4	0.00e+00	0	32	101	1048576	60	7392
2026-01-06 00:35:15.23	305.10	74.24	-42.2	-43.5	21.7	0.00e+00	0	32	101	1048576	60	7268
2026-01-06 00:35:16.24	306.14	73.84	-39.4	-40.2	24.3	0.00e+00	0	32	101	1048576	58	5595
2026-01-06 00:35:17.26	307.13	73.43	-38.0	-38.8	25.1	0.00e+00	0	32	101	1048576	54	5980
2026-01-06 00:35:18.27	308.07	73.02	-39.8	-40.6	23.9	0.00e+00	0	32	101	1048576	56	6607
2026-01-06 00:35:19.28	308.95	72.61	-41.7	-42.7	22.1	0.00e+00	0	32	101	1048576	60	6677
2026-01-06 00:35:20.29	309.80	72.20	-42.4	-43.6	21.3	0.00e+00	0	32	101	1048576	60	7338
2026-01-06 00:35:21.30	310.60	71.78	-43.4	-44.8	20.3	0.00e+00	0	32	101	1048576	60	8461
2026-01-06 00:35:22.31	311.37	71.37	-44.4	-46.0	19.4	0.00e+00	0	32	101	1048576	60	9760
2026-01-06 00:35:23.32	312.10	70.95	-43.1	-44.3	20.8	0.00e+00	0	32	101	1048576	60	8042
2026-01-06 00:35:24.33	312.80	70.53	-44.9	-46.7	18.9	0.00e+00	0	32	101	1048576	60	10515
2026-01-06 00:35:25.34	313.47	70.11	-44.9	-46.6	18.7	0.00e+00	0	32	101	1048576	60	10417
2026-01-06 00:35:26.35	314.10	69.69	-43.2	-44.5	20.6	0.00e+00	0	32	101	1048576	60	8208
2026-01-06 00:35:27.37	314.72	69.27	-43.7	-45.1	19.7	0.00e+00	0	32	101	1048576	60	8806
2026-01-06 00:35:28.37	315.30	68.85	-45.2	-47.2	17.7	0.00e+00	0	32	101	1048576	60	11164
2026-01-06 00:35:29.39	315.86	68.43	-44.6	-46.3	19.1	0.00e+00	0	32	101	1048576	60	10058
2026-01-06 00:35:30.40	316.40	68.01	-40.4	-41.4	23.3	0.00e+00	0	32	101	1048576	60	5707
2026-01-06 00:35:31.41	316.92	67.59	-38.8	-39.6	24.6	0.00e+00	0	32	101	1048576	56	5855
2026-01-06 00:35:32.42	317.41	67.17	-38.5	-39.3	24.8	0.00e+00	0	32	101	1048576	56	5691
2026-01-06 00:35:33.43	317.89	66.75	-39.4	-40.2	24.1	0.00e+00	0	32	101	1048576	56	6296
2026-01-06 00:35:34.44	318.34	66.33	-40.0	-41.0	23.5	0.00e+00	0	31	101	1048576	58	6141
2026-01-06 00:35:35.45	318.78	65.91	-39.6	-40.5	24.1	0.00e+00	0	32	101	1048576	58	5803
2026-01-06 00:35:36.46	319.21	65.50	-39.2	-40.0	24.3	0.00e+00	0	32	101	1048576	56	6159
2026-01-06 00:35:37.47	319.61	65.08	-37.6	-38.3	25.4	0.00e+00	0	31	101	1048576	54	5684
2026-01-06 00:35:38.48	320.01	64.67	-38.0	-38.8	24.9	0.00e+00	0	31	101	1048576	54	5999
2026-01-06 00:35:39.49	320.39	64.26	-39.9	-40.9	23.7	0.00e+00	0	32	101	1048576	56	6791
2026-01-06 00:35:40.50	320.75	63.84	-40.1	-41.2	23.7	0.00e+00	0	32	101	1048576	58	6265
2026-01-06 00:35:41.51	321.11	63.43	-38.8	-39.6	24.6	0.00e+00	0	32	101	1048576	56	5867
2026-01-06 00:35:42.53	321.45	63.02	-38.4	-39.2	24.7	0.00e+00	0	32	101	1048576	56	5613
2026-01-06 00:35:43.54	321.78	62.62	-39.5	-40.5	24.0	0.00e+00	0	32	101	1048576	56	6488
2026-01-06 00:35:44.55	322.10	62.21	-39.6	-40.5	23.9	0.00e+00	0	32	101	1048576	58	5815
2026-01-06 00:35:45.56	322.41	61.81	-38.7	-39.5	24.8	0.00e+00	0	32	101	1048576	56	5795
2026-01-06 00:35:46.57	322.71	61.41	-38.8	-39.6	24.5	0.00e+00	0	32	101	1048576	56	5862
2026-01-06 00:35:47.58	323.00	61.01	-38.6	-39.4	24.7	0.00e+00	0	32	101	1048576	56	5739
2026-01-06 00:35:48.59	323.28	60.61	-38.4	-39.2	24.8	0.00e+00	0	32	101	1048576	56	5592
2026-01-06 00:35:49.60	323.55	60.21	-38.5	-39.3	24.9	0.00e+00	0	32	101	1048576	56	5659
2026-01-06 00:35:50.61	323.82	59.82	-40.4	-41.4	23.0	0.00e+00	0	32	101	1048576	58	6419
2026-01-06 00:35:51.63	324.08	59.42	-42.5	-43.9	21.2	0.00e+00	0	32	101	1048576	60	7600
2026-01-06 00:35:52.64	324.33	59.03	-42.9	-44.4	21.1	0.00e+00	0	32	101	1048576	60	8066
2026-01-06 00:35:53.65	324.57	58.64	-41.7	-42.9	22.1	0.00e+00	0	32	101	1048576	60	6820
2026-01-06 00:35:54.66	324.80	58.26	-41.5	-42.6	22.5	0.00e+00	0	32	101	1048576	60	6584
2026-01-06 00:35:55.67	325.03	57.87	-40.6	-41.6	23.0	0.00e+00	0	32	101	1048576	60	5856
2026-01-06 00:35:56.68	325.25	57.49	-40.4	-41.4	23.2	0.00e+00	0	32	101	1048576	60	5731
2026-01-06 00:35:57.69	325.47	57.11	-40.0	-41.0	23.4	0.00e+00	0	32	101	1048576	58	6116
2026-01-06 00:35:58.70	325.68	56.73	-39.5	-40.4	24.0	0.00e+00	0	32	101	1048576	58	5713
2026-01-06 00:35:59.71	325.88	56.36	-38.8	-39.7	24.5	0.00e+00	0	31	101	1048576	56	5923
2026-01-06 00:36:00.72	326.08	55.99	-39.0	-39.9	24.4	0.00e+00	0	32	101	1048576	56	6053
2026-01-06 00:36:01.73	326.28	55.61	-38.7	-39.6	24.5	0.00e+00	0	32	101	1048576	56	5847
2026-01-06 00:36:02.74	326.47	55.25	-38.1	-39.0	24.8	0.00e+00	0	32	101	1048576	56	5468
2026-01-06 00:36:03.75	326.65	54.88	-38.8	-39.6	24.6	0.00e+00	0	32	101	1048576	54	6611
2026-01-06 00:36:04.77	326.83	54.51	-39.7	-40.6	23.7	0.00e+00	0	31	101	1048576	56	6607
2026-01-06 00:36:05.77	327.01	54.15	-39.6	-40.5	23.9	0.00e+00	0	32	101	1048576	56	6524
2026-01-06 00:36:06.79	327.18	53.79	-39.1	-40.0	24.5	0.00e+00	0	32	101	1048576	56	6143
2026-01-06 00:36:07.80	327.35	53.43	-37.9	-38.6	25.2	0.00e+00	0	31	101	1048576	54	5893
2026-01-06 00:36:08.81	327.51	53.08	-38.6	-39.5	24.6	0.00e+00	0	31	101	1048576	54	6466
2026-01-06 00:36:09.82	327.67	52.73	-39.6	-40.6	23.9	0.00e+00	0	32	101	1048576	56	6556
2026-01-06 00:36:10.83	327.83	52.38	-39.6	-40.5	23.8	0.00e+00	0	32	101	1048576	56	6526
2026-01-06 00:36:11.84	327.98	52.03	-40.6	-41.7	22.9	0.00e+00	0	32	101	1048576	58	6645
2026-01-06 00:36:12.85	328.13	51.68	-41.6	-42.7	22.2	0.00e+00	0	31	101	1048576	60	6666
2026-01-06 00:36:13.86	328.27	51.34	-42.1	-43.4	21.6	0.00e+00	0	32	101	1048576	60	7205
2026-01-06 00:36:14.87	328.41	51.00	-42.0	-43.2	21.8	0.00e+00	0	32	101	1048576	60	7076
2026-01-06 00:36:15.88	328.55	50.66	-41.9	-43.0	22.0	0.00e+00	0	32	101	1048576	60	6926
2026-01-06 00:36:16.89	328.69	50.32	-41.6	-42.7	22.3	0.00e+00	0	32	101	1048576	60	6659
2026-01-06 00:36:17.91	328.82	49.98	-41.7	-42.9	22.1	0.00e+00	0	32	101	1048576	60	6796
2026-01-06 00:36:18.92	328.96	49.65	-42.2	-43.4	21.7	0.00e+00	0	32	101	1048576	60	7235
2026-01-06 00:36:19.93	329.08	49.32	-42.8	-44.0	21.1	0.00e+00	0	32	101	1048576	60	7765
2026-01-06 00:36:20.94	329.21	49.00	-42.8	-44.1	21.3	0.00e+00	0	32	101	1048576	60	7826
2026-01-06 00:36:21.95	329.33	48.67	-43.0	-44.3	21.1	0.00e+00	0	32	101	1048576	60	7966
2026-01-06 00:36:22.96	329.45	48.35	-42.4	-43.6	21.4	0.00e+00	0	32	101	1048576	60	7411
2026-01-06 00:36:23.97	329.57	48.03	-41.5	-42.7	22.4	0.00e+00	0	32	101	1048576	60	6643
2026-01-06 00:36:24.98	329.68	47.71	-41.7	-42.9	22.2	0.00e+00	0	31	101	1048576	60	6813
2026-01-06 00:36:25.99	329.80	47.39	-43.7	-45.3	20.0	0.00e+00	0	32	101	1048576	60	8960
2026-01-06 00:36:27.00	329.91	47.08	-45.6	-47.8	17.8	0.00e+00	0	32	101	1048576	60	12036
2026-01-06 00:36:28.01	330.02	46.77	-45.0	-47.0	18.4	0.00e+00	0	32	101	1048576	60	10978
2026-01-06 00:36:29.02	330.12	46.46	-45.3	-47.4	18.2	0.00e+00	0	32	101	1048576	60	11393
2026-01-06 00:36:30.03	330.23	46.15	-44.2	-45.8	19.8	0.00e+00	0	32	101	1048576	60	9554
2026-01-06 00:36:31.04	330.33	45.85	-42.6	-43.8	21.1	0.00e+00	0	31	101	1048576	60	7553
2026-01-06 00:36:32.05	330.43	45.54	-41.4	-42.5	22.5	0.00e+00	0	32	101	1048576	60	6496
2026-01-06 00:36:33.06	330.53	45.24	-41.1	-42.1	22.6	0.00e+00	0	32	101	1048576	60	6244
2026-01-06 00:36:34.08	330.63	44.94	-40.5	-41.5	23.3	0.00e+00	0	31	101	1048576	60	5800
2026-01-06 00:36:35.09	330.73	44.65	-39.8	-40.8	23.7	0.00e+00	0	32	101	1048576	58	5991
2026-01-06 00:36:36.10	330.82	44.35	-40.0	-41.0	23.4	0.00e+00	0	31	101	1048576	58	6142
2026-01-06 00:36:37.11	330.91	44.06	-41.2	-42.4	22.4	0.00e+00	0	31	101	1048576	60	6401
2026-01-06 00:36:38.12	331.00	43.77	-42.8	-44.2	21.1	0.00e+00	0	32	101	1048576	60	7943
2026-01-06 00:36:39.13	331.09	43.48	-43.4	-44.9	20.4	0.00e+00	0	32	101	1048576	60	8616
2026-01-06 00:36:40.14	331.18	43.20	-43.3	-44.8	20.5	0.00e+00	0	32	101	1048576	60	8478
2026-01-06 00:36:41.15	331.27	42.91	-41.6	-42.7	22.4	0.00e+00	0	32	101	1048576	60	6657
2026-01-06 00:36:42.16	331.35	42.63	-40.6	-41.5	23.2	0.00e+00	0	32	101	1048576	60	5794
2026-01-06 00:36:43.17	331.43	42.35	-39.4	-40.3	24.1	0.00e+00	0	32	101	1048576	58	5631
2026-01-06 00:36:44.18	331.52	42.08	-39.1	-39.9	24.4	0.00e+00	0	31	101	1048576	56	6078
2026-01-06 00:36:45.20	331.60	41.80	-38.9	-39.7	24.5	0.00e+00	0	32	101	1048576	56	5957
2026-01-06 00:36:46.21	331.68	41.52	-39.9	-40.8	23.6	0.00e+00	0	32	101	1048576	56	6727
2026-01-06 00:36:47.22	331.75	41.25	-40.8	-41.9	23.0	0.00e+00	0	32	101	1048576	58	6771
2026-01-06 00:36:48.23	331.83	40.98	-40.5	-41.6	23.0	0.00e+00	0	31	101	1048576	58	6545
2026-01-06 00:36:49.24	331.91	40.72	-41.1	-42.2	22.8	0.00e+00	0	32	101	1048576	58	7020
2026-01-06 00:36:50.25	331.98	40.45	-40.0	-41.0	23.5	0.00e+00	0	32	101	1048576	58	6119
2026-01-06 00:36:51.26	332.05	40.19	-40.0	-41.0	23.6	0.00e+00	0	32	101	1048576	58	6150
2026-01-06 00:36:52.27	332.13	39.93	-39.3	-40.2	24.0	0.00e+00	0	32	101	1048576	58	5609
2026-01-06 00:36:53.28	332.20	39.67	-39.5	-40.3	24.2	0.00e+00	0	32	101	1048576	56	6390
2026-01-06 00:36:54.29	332.27	39.41	-39.4	-40.3	24.2	0.00e+00	0	32	101	1048576	56	6324
2026-01-06 00:36:55.30	332.34	39.15	-39.9	-40.8	23.8	0.00e+00	0	32	101	1048576	56	6725
2026-01-06 00:36:56.31	332.41	38.90	-40.7	-41.7	23.1	0.00e+00	0	32	101	1048576	58	6618
2026-01-06 00:36:57.32	332.47	38.64	-41.0	-42.0	22.8	0.00e+00	0	32	101	1048576	58	6870
2026-01-06 00:36:58.33	332.54	38.39	-40.8	-41.8	23.0	0.00e+00	0	32	101	1048576	60	5995
2026-01-06 00:36:59.34	332.60	38.15	-41.1	-42.1	22.7	0.00e+00	0	31	101	1048576	60	6219
2026-01-06 00:37:00.36	332.67	37.90	-41.5	-42.6	22.2	0.00e+00	0	31	101	1048576	60	6580
2026-01-06 00:37:01.37	332.73	37.65	-41.7	-42.9	22.3	0.00e+00	0	32	101	1048576	60	6786
2026-01-06 00:37:02.38	332.79	37.41	-42.4	-43.6	21.6	0.00e+00	0	32	101	1048576	60	7411
2026-01-06 00:37:03.39	332.86	37.17	-43.1	-44.6	20.8	0.00e+00	0	32	101	1048576	60	8266
2026-01-06 00:37:04.40	332.92	36.93	-42.4	-43.7	21.3	0.00e+00	0	32	101	1048576	60	7499
2026-01-06 00:37:05.41	332.98	36.69	-42.7	-44.1	21.1	0.00e+00	0	32	101	1048576	60	7828
2026-01-06 00:37:06.42	333.04	36.45	-42.6	-44.0	21.2	0.00e+00	0	32	101	1048576	60	7695
2026-01-06 00:37:07.43	333.09	36.22	-42.8	-44.2	21.1	0.00e+00	0	32	101	1048576	60	7913
2026-01-06 00:37:08.44	333.15	35.98	-42.3	-43.5	21.8	0.00e+00	0	32	101	1048576	60	7284
2026-01-06 00:37:09.45	333.21	35.75	-41.8	-42.9	22.2	0.00e+00	0	32	101	1048576	60	6806
2026-01-06 00:37:10.46	333.26	35.52	-40.8	-41.8	23.0	0.00e+00	0	32	101	1048576	60	6020
2026-01-06 00:37:11.47	333.32	35.29	-40.5	-41.5	23.3	0.00e+00	0	32	101	1048576	60	5787
2026-01-06 00:37:12.48	333.37	35.07	-40.6	-41.5	23.3	0.00e+00	0	32	101	1048576	60	5827
2026-01-06 00:37:13.50	333.43	34.84	-40.2	-41.1	23.5	0.00e+00	0	32	101	1048576	60	5539
2026-01-06 00:37:14.51	333.48	34.62	-40.5	-41.4	23.2	0.00e+00	0	32	101	1048576	58	6440
2026-01-06 00:37:15.52	333.53	34.40	-41.7	-42.8	22.2	0.00e+00	0	32	101	1048576	60	6756
2026-01-06 00:37:16.53	333.59	34.18	-42.7	-44.0	21.1	0.00e+00	0	32	101	1048576	60	7729
2026-01-06 00:37:17.54	333.64	33.96	-43.7	-45.1	19.9	0.00e+00	0	32	101	1048576	60	8814
2026-01-06 00:37:18.55	333.69	33.74	-44.6	-46.3	18.8	0.00e+00	0	32	101	1048576	60	10083
2026-01-06 00:37:19.56	333.74	33.52	-44.6	-46.3	19.1	0.00e+00	0	32	101	1048576	60	10082
2026-01-06 00:37:20.57	333.79	33.31	-44.9	-46.7	18.8	0.00e+00	0	32	101	1048576	60	10500
2026-01-06 00:37:21.58	333.84	33.10	-44.4	-46.0	19.4	0.00e+00	0	32	101	1048576	60	9782
2026-01-06 00:37:22.59	333.89	32.89	-43.5	-44.9	20.4	0.00e+00	0	32	101	1048576	60	8613
2026-01-06 00:37:23.61	333.93	32.67	-43.1	-44.5	20.8	0.00e+00	0	32	101	1048576	60	8169
2026-01-06 00:37:24.62	333.98	32.47	-42.8	-44.1	21.1	0.00e+00	0	32	101	1048576	60	7847
2026-01-06 00:37:25.63	334.03	32.26	-42.3	-43.5	21.6	0.00e+00	0	32	101	1048576	60	7292
2026-01-06 00:37:26.64	334.07	32.05	-42.1	-43.3	21.9	0.00e+00	0	32	101	1048576	60	7097
2026-01-06 00:37:27.65	334.12	31.85	-41.8	-42.9	22.1	0.00e+00	0	32	101	1048576	60	6812
2026-01-06 00:37:28.66	334.16	31.65	-41.5	-42.6	22.5	0.00e+00	0	32	101	1048576	60	6548
2026-01-06 00:37:29.67	334.21	31.45	-40.7	-41.7	23.1	0.00e+00	0	32	101	1048576	60	5931
2026-01-06 00:37:30.68	334.25	31.25	-40.5	-41.5	23.3	0.00e+00	0	32	101	1048576	60	5774
2026-01-06 00:37:31.69	334.30	31.05	-40.2	-41.2	23.5	0.00e+00	0	32	101	1048576	60	5571
2026-01-06 00:37:32.70	334.34	30.85	-40.2	-41.1	23.4	0.00e+00	0	32	101	1048576	58	6189
2026-01-06 00:37:33.71	334.38	30.65	-40.3	-41.2	23.5	0.00e+00	0	32	101	1048576	58	6283
2026-01-06 00:37:34.73	334.42	30.46	-39.9	-40.8	23.6	0.00e+00	0	32	101	1048576	58	5990
2026-01-06 00:37:35.74	334.47	30.26	-40.0	-41.0	23.5	0.00e+00	0	32	101	1048576	58	6104
2026-01-06 00:37:36.75	334.51	30.07	-40.0	-40.9	23.6	0.00e+00	0	32	101	1048576	58	6044
2026-01-06 00:37:37.76	334.55	29.88	-39.9	-40.8	23.8	0.00e+00	0	32	101	1048576	58	5974
2026-01-06 00:37:38.77	334.59	29.69	-40.1	-41.0	23.5	0.00e+00	0	32	101	1048576	58	6158
2026-01-06 00:37:39.78	334.63	29.50	-40.4	-41.3	23.2	0.00e+00	0	32	101	1048576	58	6378
2026-01-06 00:37:40.79	334.67	29.32	-40.8	-41.8	22.8	0.00e+00	0	32	101	1048576	58	6714
2026-01-06 00:37:41.80	334.71	29.13	-41.0	-42.0	22.5	0.00e+00	0	31	101	1048576	58	6919
2026-01-06 00:37:42.81	334.75	28.95	-41.9	-42.9	22.1	0.00e+00	0	32	101	1048576	60	6848
2026-01-06 00:37:43.83	334.78	28.76	-42.4	-43.6	21.5	0.00e+00	0	32	101	1048576	60	7351
2026-01-06 00:37:44.84	334.82	28.58	-43.0	-44.3	20.8	0.00e+00	0	32	101	1048576	60	8019
2026-01-06 00:37:45.85	334.86	28.40	-43.0	-44.3	21.0	0.00e+00	0	32	101	1048576	60	7976
2026-01-06 00:37:46.86	334.90	28.22	-43.0	-44.3	20.8	0.00e+00	0	32	101	1048576	60	8009
2026-01-06 00:37:47.87	334.93	28.04	-43.2	-44.5	20.7	0.00e+00	0	32	101	1048576	60	8225
2026-01-06 00:37:48.88	334.97	27.86	-42.7	-43.9	21.0	0.00e+00	0	32	101	1048576	60	7656
2026-01-06 00:37:49.89	335.01	27.69	-43.0	-44.3	21.0	0.00e+00	0	31	101	1048576	60	7974
2026-01-06 00:37:50.90	335.04	27.51	-42.5	-43.7	21.4	0.00e+00	0	32	101	1048576	60	7473
2026-01-06 00:37:51.91	335.08	27.34	-42.0	-43.2	21.8	0.00e+00	0	32	101	1048576	60	7049
2026-01-06 00:37:52.92	335.11	27.16	-41.6	-42.7	22.2	0.00e+00	0	32	101	1048576	60	6691
2026-01-06 00:37:53.93	335.15	26.99	-41.2	-42.3	22.6	0.00e+00	0	32	101	1048576	60	6355
2026-01-06 00:37:54.94	335.18	26.82	-40.9	-41.9	22.9	0.00e+00	0	32	101	1048576	60	6091
2026-01-06 00:37:55.96	335.22	26.65	-40.6	-41.6	23.2	0.00e+00	0	32	101	1048576	60	5839
2026-01-06 00:37:56.97	335.25	26.48	-40.2	-41.1	23.4	0.00e+00	0	32	101	1048576	58	6217
2026-01-06 00:37:57.98	335.28	26.31	-39.7	-40.6	23.9	0.00e+00	0	32	101	1048576	58	5852
2026-01-06 00:37:58.99	335.32	26.14	-39.7	-40.6	23.7	0.00e+00	0	32	101	1048576	58	5846
2026-01-06 00:38:00.00	335.35	25.98	-39.5	-40.4	24.1	0.00e+00	0	32	101	1048576	58	5755
2026-01-06 00:38:01.01	335.38	25.81	-39.4	-40.3	24.0	0.00e+00	0	32	101	1048576	58	5665
2026-01-06 00:38:02.02	335.41	25.65	-39.3	-40.2	24.2	0.00e+00	0	32	101	1048576	58	5573
2026-01-06 00:38:03.03	335.45	25.49	-39.3	-40.2	24.1	0.00e+00	0	32	101	1048576	56	6247
2026-01-06 00:38:04.04	335.48	25.33	-39.2	-40.1	24.2	0.00e+00	0	31	101	1048576	56	6198
2026-01-06 00:38:05.05	335.51	25.17	-39.0	-39.9	24.2	0.00e+00	0	32	101	1048576	56	6048
2026-01-06 00:38:06.07	335.54	25.00	-39.3	-40.2	24.1	0.00e+00	0	32	101	1048576	56	6253
2026-01-06 00:38:07.08	335.57	24.85	-38.8	-39.7	24.4	0.00e+00	0	32	101	1048576	56	5932
2026-01-06 00:38:08.09	335.60	24.69	-38.8	-39.6	24.5	0.00e+00	0	31	101	1048576	56	5866
2026-01-06 00:38:09.10	335.63	24.53	-38.9	-39.8	24.4	0.00e+00	0	32	101	1048576	56	5978
2026-01-06 00:38:10.11	335.66	24.37	-38.5	-39.4	24.8	0.00e+00	0	31	101	1048576	56	5700
2026-01-06 00:38:11.12	335.69	24.22	-38.3	-39.2	24.9	0.00e+00	0	32	101	1048576	56	5573
2026-01-06 00:38:12.13	335.72	24.07	-38.4	-39.2	24.9	0.00e+00	0	32	101	1048576	56	5583
2026-01-06 00:38:13.14	335.75	23.91	-38.1	-38.9	25.0	0.00e+00	0	32	101	1048576	54	6076
2026-01-06 00:38:14.16	335.78	23.76	-38.3	-39.1	24.8	0.00e+00	0	32	101	1048576	54	6216
2026-01-06 00:38:15.17	335.81	23.61	-38.4	-39.2	24.8	0.00e+00	0	31	101	1048576	54	6269
2026-01-06 00:38:16.18	335.84	23.46	-38.5	-39.3	24.7	0.00e+00	0	31	101	1048576	54	6361
2026-01-06 00:38:17.19	335.87	23.31	-38.6	-39.5	24.6	0.00e+00	0	32	101	1048576	54	6483
2026-01-06 00:38:18.20	335.90	23.16	-38.8	-39.6	24.5	0.00e+00	0	32	101	1048576	54	6592
2026-01-06 00:38:19.21	335.92	23.01	-39.1	-40.0	24.3	0.00e+00	0	31	101	1048576	56	6109
2026-01-06 00:38:20.22	335.95	22.86	-39.4	-40.3	24.1	0.00e+00	0	32	101	1048576	56	6353
2026-01-06 00:38:21.23	335.98	22.72	-39.4	-40.3	24.0	0.00e+00	0	31	101	1048576	56	6378
2026-01-06 00:38:22.24	336.01	22.57	-39.8	-40.7	23.7	0.00e+00	0	31	101	1048576	56	6637
2026-01-06 00:38:23.26	336.03	22.43	-39.9	-40.8	23.6	0.00e+00	0	31	101	1048576	56	6727
2026-01-06 00:38:24.27	336.06	22.28	-40.0	-40.9	23.6	0.00e+00	0	32	101	1048576	56	6795
2026-01-06 00:38:25.28	336.09	22.14	-39.7	-40.5	23.8	0.00e+00	0	32	101	1048576	56	6538
2026-01-06 00:38:26.29	336.11	22.00	-39.5	-40.3	24.0	0.00e+00	0	32	101	1048576	56	6370
2026-01-06 00:38:27.30	336.14	21.85	-39.5	-40.3	24.1	0.00e+00	0	32	101	1048576	56	6372
2026-01-06 00:38:28.31	336.17	21.71	-39.4	-40.2	24.0	0.00e+00	0	32	101	1048576	56	6291
2026-01-06 00:38:29.32	336.19	21.57	-39.5	-40.4	24.1	0.00e+00	0	32	101	1048576	56	6396
2026-01-06 00:38:30.33	336.22	21.44	-39.0	-39.8	24.4	0.00e+00	0	32	101	1048576	56	5987
2026-01-06 00:38:31.34	336.24	21.30	-38.7	-39.5	24.6	0.00e+00	0	32	101	1048576	56	5824
2026-01-06 00:38:32.35	336.27	21.16	-38.5	-39.3	24.7	0.00e+00	0	31	101	1048576	56	5651
2026-01-06 00:38:33.37	336.29	21.02	-38.6	-39.5	24.6	0.00e+00	0	31	101	1048576	56	5771
2026-01-06 00:38:34.38	336.32	20.88	-38.7	-39.5	24.5	0.00e+00	0	31	101	1048576	56	5793
2026-01-06 00:38:35.39	336.34	20.75	-38.4	-39.2	24.8	0.00e+00	0	32	101	1048576	56	5601
2026-01-06 00:38:36.40	336.37	20.61	-38.6	-39.5	24.5	0.00e+00	0	32	101	1048576	56	5765
2026-01-06 00:38:37.41	336.39	20.48	-38.7	-39.6	24.5	0.00e+00	0	32	101	1048576	56	5836
2026-01-06 00:38:38.42	336.42	20.35	-38.8	-39.6	24.5	0.00e+00	0	31	101	1048576	56	5851
2026-01-06 00:38:39.43	336.44	20.22	-38.8	-39.7	24.5	0.00e+00	0	32	101	1048576	56	5900
2026-01-06 00:38:40.44	336.46	20.08	-38.7	-39.5	24.6	0.00e+00	0	32	101	1048576	56	5793
2026-01-06 00:38:41.45	336.49	19.95	-38.9	-39.7	24.5	0.00e+00	0	31	101	1048576	56	5928
2026-01-06 00:38:42.46	336.51	19.82	-38.9	-39.8	24.4	0.00e+00	0	32	101	1048576	56	5976
