passes_logs/2026/01/06/R4.6S_Anadyr_2ch/R4.6S_Anadyr_2ch__20260106_143345_NOAA_20_JPSS-1_rec.log

#Pass ID: 20260106_143345_NOAA 20 (JPSS-1)
#Satellite: NOAA 20 (JPSS-1)
#Configuration: NOAA 20
#almurnet v.1.7.20251203
#Start time: 2026-01-06 14:33:48

#Version: 2.2.20231116
#Station: R4.6S_Anadyr_2ch
#Location: 177.4865 lon 64.73178 lat
#TLE: 1 43013U 17073A   25350.93759711  .00000080  00000+0  58734-4 0  9994
#TLE: 2 43013  98.7603 287.1885 0002156  81.1496 278.9924 14.19526878418610

#Time	Az	El	Level	Level2	SNR	BER	BlckErr	Temp	State	Recorded	gain1	gain2
2026-01-06 14:33:48.85	20.22	0.20	-51.3	-65.2	3.3	1.54e+00	0	32	0	0	60	88608
2026-01-06 14:33:49.85	20.23	0.26	-51.3	-66.6	3.6	1.51e+00	0	32	104	0	60	104372
2026-01-06 14:33:50.86	20.23	0.32	-51.3	-66.6	3.6	1.51e+00	0	32	104	0	60	104696
2026-01-06 14:33:51.87	20.24	0.38	-51.4	-66.7	3.6	1.51e+00	0	32	104	0	60	105508
2026-01-06 14:33:52.88	20.25	0.44	-51.4	-66.7	3.5	1.51e+00	0	32	104	0	60	105541
2026-01-06 14:33:53.89	20.26	0.51	-51.3	-66.7	3.6	1.51e+00	0	32	104	0	60	105157
2026-01-06 14:33:54.90	20.27	0.57	-51.3	-66.6	3.6	1.51e+00	0	32	104	0	60	104441
2026-01-06 14:33:55.92	20.28	0.63	-51.3	-66.6	3.6	1.51e+00	0	32	104	0	60	104375
2026-01-06 14:33:56.93	20.29	0.69	-51.2	-66.5	3.6	1.51e+00	0	32	104	0	60	103001
2026-01-06 14:33:57.94	20.30	0.75	-51.1	-66.4	3.6	1.51e+00	0	32	104	0	60	102119
2026-01-06 14:33:58.95	20.31	0.81	-50.9	-66.2	3.6	1.51e+00	0	32	104	0	60	99313
2026-01-06 14:33:59.96	20.32	0.87	-50.7	-66.1	3.6	1.51e+00	0	32	104	0	60	97979
2026-01-06 14:34:00.97	20.33	0.94	-50.5	-65.8	3.6	1.51e+00	0	32	104	0	60	95238
2026-01-06 14:34:01.98	20.34	1.00	-50.2	-65.5	3.6	1.51e+00	0	32	104	0	60	91741
2026-01-06 14:34:02.99	20.35	1.06	-49.9	-65.2	3.6	1.51e+00	0	32	104	0	60	88933
2026-01-06 14:34:04.00	20.36	1.12	-49.9	-65.3	3.5	1.51e+00	0	32	104	0	60	89344
2026-01-06 14:34:05.02	20.37	1.19	-49.9	-65.2	3.6	1.51e+00	0	32	104	0	60	88723
2026-01-06 14:34:06.03	20.38	1.25	-49.9	-65.2	3.6	1.51e+00	0	32	104	0	60	88979
2026-01-06 14:34:07.04	20.39	1.31	-49.9	-65.2	3.6	1.51e+00	0	32	104	0	60	88472
2026-01-06 14:34:08.05	20.40	1.37	-49.9	-65.1	3.6	1.51e+00	0	32	104	0	60	87852
2026-01-06 14:34:09.06	20.41	1.44	-49.9	-65.0	3.6	1.51e+00	0	32	104	0	60	87184
2026-01-06 14:34:10.07	20.42	1.50	-49.9	-65.1	3.6	1.51e+00	0	32	104	0	60	87254
2026-01-06 14:34:11.08	20.43	1.56	-49.9	-65.1	3.6	1.51e+00	0	32	104	0	60	87307
2026-01-06 14:34:12.09	20.43	1.63	-49.9	-65.1	3.6	1.51e+00	0	32	104	0	60	87889
2026-01-06 14:34:13.10	20.44	1.69	-49.9	-65.1	3.5	1.51e+00	0	32	104	0	60	88045
2026-01-06 14:34:14.11	20.45	1.75	-49.9	-65.2	3.6	1.51e+00	0	33	104	0	60	88902
2026-01-06 14:34:15.12	20.46	1.82	-49.9	-65.2	3.6	1.51e+00	0	32	104	0	60	88642
2026-01-06 14:34:16.14	20.47	1.88	-49.9	-65.2	3.6	1.51e+00	0	32	104	0	60	88396
2026-01-06 14:34:17.15	20.48	1.95	-49.9	-65.3	3.6	1.51e+00	0	32	104	0	60	89450
2026-01-06 14:34:18.16	20.49	2.01	-49.9	-65.2	3.6	1.51e+00	0	33	104	0	60	88524
2026-01-06 14:34:19.17	20.50	2.07	-49.9	-65.2	3.6	1.51e+00	0	32	104	0	60	88940
2026-01-06 14:34:20.18	20.51	2.14	-49.9	-65.1	3.6	1.51e+00	0	32	104	0	60	87512
2026-01-06 14:34:21.19	20.52	2.20	-49.9	-64.9	3.6	1.51e+00	0	33	104	0	60	85748
2026-01-06 14:34:22.20	20.53	2.27	-49.9	-64.7	3.6	1.51e+00	0	33	104	0	60	83621
2026-01-06 14:34:23.21	20.54	2.33	-49.9	-64.1	3.6	1.51e+00	0	33	104	0	60	78477
2026-01-06 14:34:24.22	20.55	2.40	-49.8	-63.7	3.6	1.51e+00	0	33	104	0	60	74348
2026-01-06 14:34:25.23	20.56	2.46	-49.8	-63.4	3.6	1.51e+00	0	33	104	0	60	72125
2026-01-06 14:34:26.24	20.57	2.53	-49.8	-62.9	3.6	1.50e+00	0	33	104	0	60	68332
2026-01-06 14:34:27.25	20.58	2.59	-49.8	-63.1	3.6	1.50e+00	0	33	104	0	60	69376
2026-01-06 14:34:28.26	20.59	2.66	-49.8	-63.2	3.6	1.50e+00	0	33	104	0	60	70780
2026-01-06 14:34:29.28	20.60	2.73	-49.8	-62.8	3.7	1.51e+00	0	33	104	0	60	67593
2026-01-06 14:34:30.29	20.61	2.79	-49.8	-62.1	4.0	1.48e+00	0	33	104	0	60	61923
2026-01-06 14:34:31.30	20.62	2.86	-49.6	-59.3	4.5	9.04e-01	13	33	0	0	60	45020
2026-01-06 14:34:32.31	20.63	2.93	-49.3	-56.9	6.3	4.65e-01	0	33	102	1048576	60	34170
2026-01-06 14:34:33.32	20.64	2.99	-48.9	-55.0	8.4	1.43e-01	0	33	102	1048576	60	27491
2026-01-06 14:34:34.33	20.65	3.06	-48.5	-53.8	10.2	1.47e-02	0	33	102	1048576	60	23777
2026-01-06 14:34:35.34	20.67	3.13	-48.0	-52.3	11.8	1.92e-03	0	33	102	1048576	60	20165
2026-01-06 14:34:36.35	20.68	3.19	-47.4	-51.0	13.1	2.28e-04	0	33	102	1048576	60	17331
2026-01-06 14:34:37.36	20.69	3.26	-47.1	-50.4	13.7	6.80e-06	0	33	102	1048576	60	16201
2026-01-06 14:34:38.37	20.70	3.33	-46.9	-50.2	14.1	2.20e-06	0	33	102	1048576	60	15715
2026-01-06 14:34:39.38	20.71	3.39	-46.8	-49.9	14.4	3.00e-06	0	33	102	1048576	60	15190
2026-01-06 14:34:40.39	20.72	3.46	-46.9	-50.2	14.1	1.50e-06	0	33	102	1048576	60	15724
2026-01-06 14:34:41.40	20.73	3.53	-47.2	-50.7	13.5	6.10e-06	0	33	102	1048576	60	16717
2026-01-06 14:34:42.42	20.74	3.60	-47.6	-51.6	12.5	4.73e-05	0	33	102	1048576	60	18432
2026-01-06 14:34:43.43	20.75	3.67	-48.1	-52.8	11.0	8.48e-04	0	33	102	1048576	60	21263
2026-01-06 14:34:44.44	20.76	3.73	-48.7	-54.4	9.1	8.30e-03	0	33	102	1048576	60	25733
2026-01-06 14:34:45.45	20.77	3.80	-47.5	-51.0	14.5	4.61e-02	0	33	102	1048576	60	17343
2026-01-06 14:34:46.46	20.78	3.87	-45.4	-47.6	16.5	0.00e+00	0	33	102	1048576	60	11722
2026-01-06 14:34:47.47	20.79	3.94	-47.9	-52.4	11.3	8.30e-06	0	33	102	1048576	60	20263
2026-01-06 14:34:48.48	20.80	4.01	-49.9	-64.9	3.6	1.51e+00	0	33	104	1048576	60	85573
2026-01-06 14:34:49.49	20.81	4.08	-45.3	-47.5	14.8	5.06e-01	0	33	104	1048576	60	11576
2026-01-06 14:34:50.50	20.82	4.15	-49.8	-61.6	4.8	1.51e+00	0	33	104	1048576	60	58885
2026-01-06 14:34:51.51	20.83	4.22	-45.2	-47.3	16.5	5.32e-01	0	33	104	1048576	60	11295
2026-01-06 14:34:52.53	20.84	4.29	-44.7	-46.6	17.8	0.00e+00	0	33	0	1048576	60	10481
2026-01-06 14:34:53.54	20.85	4.36	-44.5	-46.3	18.1	0.00e+00	0	33	0	1048576	60	10112
2026-01-06 14:34:54.55	20.87	4.43	-44.3	-46.1	18.4	0.00e+00	0	33	0	1048576	60	9844
2026-01-06 14:34:55.56	20.88	4.50	-44.5	-46.4	18.2	0.00e+00	0	33	0	1048576	60	10134
2026-01-06 14:34:56.57	20.89	4.57	-44.6	-46.4	18.4	0.00e+00	0	33	0	1048576	60	10177
2026-01-06 14:34:57.58	20.90	4.64	-44.5	-46.4	18.3	0.00e+00	0	33	0	1048576	60	10136
2026-01-06 14:34:58.59	20.91	4.71	-43.7	-45.2	19.4	0.00e+00	0	33	0	1048576	60	8886
2026-01-06 14:34:59.60	20.92	4.78	-43.4	-44.9	19.6	0.00e+00	0	33	0	1048576	60	8599
2026-01-06 14:35:00.61	20.93	4.85	-43.4	-44.8	19.7	0.00e+00	0	33	0	1048576	60	8519
2026-01-06 14:35:01.63	20.94	4.92	-43.3	-44.8	19.8	0.00e+00	0	33	0	1048576	60	8468
2026-01-06 14:35:02.64	20.95	5.00	-43.4	-44.8	19.6	0.00e+00	0	33	0	1048576	60	8506
2026-01-06 14:35:03.65	20.96	5.07	-43.4	-44.9	19.7	0.00e+00	0	33	0	1048576	60	8583
2026-01-06 14:35:04.66	20.98	5.14	-43.4	-44.9	19.7	0.00e+00	0	33	0	1048576	60	8565
2026-01-06 14:35:05.67	20.99	5.21	-43.3	-44.8	19.8	0.00e+00	0	33	0	1048576	60	8463
2026-01-06 14:35:06.68	21.00	5.28	-43.3	-44.7	19.9	0.00e+00	0	33	0	1048576	60	8414
2026-01-06 14:35:07.69	21.01	5.36	-43.3	-44.7	19.8	0.00e+00	0	33	0	1048576	60	8377
2026-01-06 14:35:08.70	21.02	5.43	-43.1	-44.5	20.2	0.00e+00	0	33	0	1048576	60	8140
2026-01-06 14:35:09.71	21.03	5.50	-43.0	-44.4	20.2	0.00e+00	0	33	101	1048576	60	8098
2026-01-06 14:35:10.72	21.04	5.57	-43.0	-44.4	20.3	0.00e+00	0	33	101	1048576	60	8081
2026-01-06 14:35:11.73	21.05	5.65	-42.9	-44.2	20.4	0.00e+00	0	33	101	1048576	60	7936
2026-01-06 14:35:12.74	21.06	5.72	-42.9	-44.2	20.4	0.00e+00	0	33	101	1048576	60	7943
2026-01-06 14:35:13.75	21.08	5.80	-42.9	-44.3	20.4	0.00e+00	0	33	101	1048576	60	7971
2026-01-06 14:35:14.76	21.09	5.87	-42.8	-44.2	20.5	0.00e+00	0	33	101	1048576	60	7876
2026-01-06 14:35:15.77	21.10	5.94	-43.0	-44.3	20.3	0.00e+00	0	33	101	1048576	60	8026
2026-01-06 14:35:16.78	21.11	6.02	-42.8	-44.1	20.6	0.00e+00	0	33	101	1048576	60	7793
2026-01-06 14:35:17.79	21.12	6.09	-42.9	-44.3	20.3	0.00e+00	0	33	101	1048576	60	7984
2026-01-06 14:35:18.81	21.13	6.17	-43.0	-44.3	20.4	0.00e+00	0	33	101	1048576	60	8037
2026-01-06 14:35:19.82	21.15	6.24	-43.3	-44.7	20.0	0.00e+00	0	33	101	1048576	60	8356
2026-01-06 14:35:20.83	21.16	6.32	-43.3	-44.7	20.1	0.00e+00	0	33	101	1048576	60	8369
2026-01-06 14:35:21.84	21.17	6.39	-43.2	-44.6	20.1	0.00e+00	0	33	101	1048576	60	8285
2026-01-06 14:35:22.85	21.18	6.47	-43.3	-44.7	20.1	0.00e+00	0	33	101	1048576	60	8406
2026-01-06 14:35:23.86	21.19	6.55	-42.7	-44.0	20.7	0.00e+00	0	33	101	1048576	60	7704
2026-01-06 14:35:24.87	21.20	6.62	-42.8	-44.1	20.7	0.00e+00	0	33	101	1048576	60	7833
2026-01-06 14:35:25.88	21.22	6.70	-42.7	-44.0	20.8	0.00e+00	0	33	101	1048576	60	7734
2026-01-06 14:35:26.89	21.23	6.77	-42.6	-43.9	20.9	0.00e+00	0	33	101	1048576	60	7598
2026-01-06 14:35:27.90	21.24	6.85	-42.5	-43.8	21.0	0.00e+00	0	33	101	1048576	60	7528
2026-01-06 14:35:28.91	21.25	6.93	-42.4	-43.6	21.1	0.00e+00	0	33	101	1048576	60	7406
2026-01-06 14:35:29.92	21.26	7.01	-42.5	-43.7	21.0	0.00e+00	0	33	101	1048576	60	7495
2026-01-06 14:35:30.93	21.28	7.08	-42.5	-43.7	21.2	0.00e+00	0	33	101	1048576	60	7450
2026-01-06 14:35:31.94	21.29	7.16	-42.3	-43.5	21.2	0.00e+00	0	33	101	1048576	60	7312
2026-01-06 14:35:32.95	21.30	7.24	-42.4	-43.6	21.2	0.00e+00	0	33	101	1048576	60	7381
2026-01-06 14:35:33.97	21.31	7.32	-42.5	-43.7	21.1	0.00e+00	0	33	101	1048576	60	7446
2026-01-06 14:35:34.98	21.32	7.40	-42.3	-43.5	21.3	0.00e+00	0	33	101	1048576	60	7308
2026-01-06 14:35:35.99	21.34	7.47	-42.4	-43.6	21.2	0.00e+00	0	33	101	1048576	60	7396
2026-01-06 14:35:37.00	21.35	7.55	-42.3	-43.4	21.3	0.00e+00	0	33	101	1048576	60	7236
2026-01-06 14:35:38.01	21.36	7.63	-42.2	-43.3	21.5	0.00e+00	0	33	101	1048576	60	7167
2026-01-06 14:35:39.02	21.37	7.71	-42.2	-43.4	21.4	0.00e+00	0	33	101	1048576	60	7225
2026-01-06 14:35:40.03	21.39	7.79	-42.2	-43.4	21.5	0.00e+00	0	33	101	1048576	60	7219
2026-01-06 14:35:41.04	21.40	7.87	-42.1	-43.3	21.6	0.00e+00	0	33	101	1048576	60	7101
2026-01-06 14:35:42.05	21.41	7.95	-42.0	-43.2	21.5	0.00e+00	0	33	101	1048576	60	7043
2026-01-06 14:35:43.06	21.42	8.03	-42.3	-43.5	21.3	0.00e+00	0	33	101	1048576	60	7315
2026-01-06 14:35:44.07	21.44	8.11	-42.6	-43.8	20.9	0.00e+00	0	33	101	1048576	60	7583
2026-01-06 14:35:45.08	21.45	8.19	-42.1	-43.3	21.6	0.00e+00	0	33	101	1048576	60	7117
2026-01-06 14:35:46.09	21.46	8.28	-42.1	-43.2	21.6	0.00e+00	0	33	101	1048576	60	7074
2026-01-06 14:35:47.10	21.47	8.36	-42.1	-43.2	21.6	0.00e+00	0	33	101	1048576	60	7088
2026-01-06 14:35:48.11	21.49	8.44	-42.2	-43.3	21.4	0.00e+00	0	33	101	1048576	60	7167
2026-01-06 14:35:49.12	21.50	8.52	-42.4	-43.6	21.3	0.00e+00	0	33	101	1048576	60	7355
2026-01-06 14:35:50.13	21.51	8.60	-41.9	-43.0	21.8	0.00e+00	0	33	101	1048576	60	6899
2026-01-06 14:35:51.14	21.53	8.69	-42.0	-43.1	21.7	0.00e+00	0	33	101	1048576	60	7002
2026-01-06 14:35:52.15	21.54	8.77	-41.8	-43.0	21.9	0.00e+00	0	33	101	1048576	60	6852
2026-01-06 14:35:53.16	21.55	8.85	-41.8	-42.9	22.0	0.00e+00	0	33	101	1048576	60	6780
2026-01-06 14:35:54.18	21.56	8.94	-41.8	-42.9	22.0	0.00e+00	0	33	101	1048576	60	6846
2026-01-06 14:35:55.19	21.58	9.02	-41.7	-42.8	22.0	0.00e+00	0	33	101	1048576	60	6743
2026-01-06 14:35:56.20	21.59	9.10	-41.8	-42.9	22.0	0.00e+00	0	33	101	1048576	60	6822
2026-01-06 14:35:57.21	21.60	9.19	-41.7	-42.7	22.1	0.00e+00	0	33	101	1048576	60	6691
2026-01-06 14:35:58.22	21.62	9.27	-41.6	-42.7	22.2	0.00e+00	0	33	101	1048576	60	6650
2026-01-06 14:35:59.23	21.63	9.36	-41.7	-42.8	22.1	0.00e+00	0	33	101	1048576	60	6707
2026-01-06 14:36:00.24	21.64	9.44	-41.8	-42.9	22.1	0.00e+00	0	33	101	1048576	60	6777
2026-01-06 14:36:01.25	21.66	9.53	-41.6	-42.6	22.2	0.00e+00	0	33	101	1048576	60	6607
2026-01-06 14:36:02.26	21.67	9.61	-41.7	-42.8	22.1	0.00e+00	0	33	101	1048576	60	6720
2026-01-06 14:36:03.27	21.68	9.70	-41.6	-42.6	22.3	0.00e+00	0	33	101	1048576	60	6598
2026-01-06 14:36:04.28	21.70	9.78	-41.6	-42.6	22.2	0.00e+00	0	33	101	1048576	60	6610
2026-01-06 14:36:05.29	21.71	9.87	-41.5	-42.5	22.4	0.00e+00	0	33	101	1048576	60	6529
2026-01-06 14:36:06.30	21.72	9.96	-41.4	-42.5	22.4	0.00e+00	0	33	101	1048576	60	6484
2026-01-06 14:36:07.31	21.74	10.04	-41.5	-42.6	22.4	0.00e+00	0	33	101	1048576	60	6546
2026-01-06 14:36:08.32	21.75	10.13	-41.5	-42.6	22.3	0.00e+00	0	33	101	1048576	60	6563
2026-01-06 14:36:09.33	21.77	10.22	-41.6	-42.7	22.3	0.00e+00	0	33	101	1048576	60	6672
2026-01-06 14:36:10.34	21.78	10.31	-41.6	-42.6	22.3	0.00e+00	0	33	101	1048576	60	6597
2026-01-06 14:36:11.35	21.79	10.40	-41.6	-42.6	22.4	0.00e+00	0	33	101	1048576	60	6599
2026-01-06 14:36:12.37	21.81	10.49	-41.5	-42.6	22.3	0.00e+00	0	33	101	1048576	60	6556
2026-01-06 14:36:13.38	21.82	10.58	-41.5	-42.5	22.3	0.00e+00	0	33	101	1048576	60	6519
2026-01-06 14:36:14.39	21.84	10.66	-41.2	-42.3	22.6	0.00e+00	0	33	101	1048576	60	6323
2026-01-06 14:36:15.40	21.85	10.75	-41.4	-42.4	22.7	0.00e+00	0	33	101	1048576	60	6458
2026-01-06 14:36:16.41	21.86	10.84	-41.4	-42.4	22.6	0.00e+00	0	33	101	1048576	60	6429
2026-01-06 14:36:17.42	21.88	10.93	-41.4	-42.4	22.5	0.00e+00	0	33	101	1048576	60	6451
2026-01-06 14:36:18.43	21.89	11.03	-41.3	-42.4	22.5	0.00e+00	0	33	101	1048576	60	6413
2026-01-06 14:36:19.44	21.91	11.12	-41.5	-42.5	22.6	0.00e+00	0	33	101	1048576	60	6506
2026-01-06 14:36:20.45	21.92	11.21	-41.2	-42.3	22.6	0.00e+00	0	33	101	1048576	60	6326
2026-01-06 14:36:21.46	21.94	11.30	-41.5	-42.6	22.6	0.00e+00	0	33	101	1048576	60	6556
2026-01-06 14:36:22.47	21.95	11.39	-41.6	-42.6	22.5	0.00e+00	0	33	101	1048576	60	6600
2026-01-06 14:36:23.48	21.97	11.48	-41.1	-42.1	22.8	0.00e+00	0	33	101	1048576	60	6232
2026-01-06 14:36:24.49	21.98	11.58	-41.2	-42.2	22.8	0.00e+00	0	33	101	1048576	60	6275
2026-01-06 14:36:25.50	22.00	11.67	-41.0	-42.0	22.9	0.00e+00	0	33	101	1048576	60	6156
2026-01-06 14:36:26.51	22.01	11.76	-41.0	-42.0	22.9	0.00e+00	0	33	101	1048576	60	6131
2026-01-06 14:36:27.52	22.03	11.86	-41.0	-42.0	22.9	0.00e+00	0	33	101	1048576	60	6163
2026-01-06 14:36:28.53	22.04	11.95	-41.0	-42.0	23.0	0.00e+00	0	33	101	1048576	60	6127
2026-01-06 14:36:29.54	22.06	12.05	-41.2	-42.2	22.8	0.00e+00	0	33	101	1048576	60	6288
2026-01-06 14:36:30.55	22.07	12.14	-41.0	-42.0	22.9	0.00e+00	0	33	101	1048576	60	6155
2026-01-06 14:36:31.56	22.09	12.24	-40.9	-41.8	23.1	0.00e+00	0	33	101	1048576	60	6021
2026-01-06 14:36:32.57	22.10	12.33	-40.9	-41.8	23.1	0.00e+00	0	33	101	1048576	60	6025
2026-01-06 14:36:33.58	22.12	12.43	-40.9	-41.8	23.1	0.00e+00	0	33	101	1048576	60	6033
2026-01-06 14:36:34.59	22.13	12.52	-40.8	-41.8	23.1	0.00e+00	0	33	101	1048576	60	6004
2026-01-06 14:36:35.60	22.15	12.62	-40.9	-41.8	23.1	0.00e+00	0	33	101	1048576	60	6032
2026-01-06 14:36:36.61	22.16	12.72	-40.8	-41.8	23.1	0.00e+00	0	33	101	1048576	60	5995
2026-01-06 14:36:37.62	22.18	12.82	-40.8	-41.7	23.3	0.00e+00	0	33	101	1048576	60	5948
2026-01-06 14:36:38.63	22.19	12.91	-40.9	-41.8	23.1	0.00e+00	0	33	101	1048576	60	6024
2026-01-06 14:36:39.64	22.21	13.01	-40.7	-41.6	23.3	0.00e+00	0	33	101	1048576	60	5893
2026-01-06 14:36:40.65	22.23	13.11	-40.8	-41.7	23.2	0.00e+00	0	33	101	1048576	60	5964
2026-01-06 14:36:41.66	22.24	13.21	-40.7	-41.7	23.3	0.00e+00	0	33	101	1048576	60	5922
2026-01-06 14:36:42.67	22.26	13.31	-40.7	-41.6	23.4	0.00e+00	0	33	101	1048576	60	5874
2026-01-06 14:36:43.68	22.27	13.41	-40.7	-41.6	23.3	0.00e+00	0	33	101	1048576	60	5894
2026-01-06 14:36:44.69	22.29	13.51	-40.6	-41.5	23.5	0.00e+00	0	33	101	1048576	60	5818
2026-01-06 14:36:45.70	22.31	13.61	-40.6	-41.6	23.3	0.00e+00	0	33	101	1048576	60	5846
2026-01-06 14:36:46.71	22.32	13.71	-40.6	-41.6	23.3	0.00e+00	0	33	101	1048576	60	5859
2026-01-06 14:36:47.72	22.34	13.81	-40.5	-41.5	23.5	0.00e+00	0	33	101	1048576	60	5775
2026-01-06 14:36:48.73	22.36	13.91	-40.6	-41.5	23.5	0.00e+00	0	33	101	1048576	60	5806
2026-01-06 14:36:49.74	22.37	14.02	-40.6	-41.5	23.4	0.00e+00	0	33	101	1048576	60	5795
2026-01-06 14:36:50.75	22.39	14.12	-40.6	-41.5	23.4	0.00e+00	0	33	101	1048576	60	5828
2026-01-06 14:36:51.76	22.41	14.22	-40.7	-41.6	23.5	0.00e+00	0	33	101	1048576	60	5865
2026-01-06 14:36:52.77	22.42	14.33	-40.5	-41.4	23.5	0.00e+00	0	33	101	1048576	60	5729
2026-01-06 14:36:53.78	22.44	14.43	-40.6	-41.6	23.4	0.00e+00	0	33	101	1048576	60	5849
2026-01-06 14:36:54.79	22.46	14.54	-40.6	-41.5	23.5	0.00e+00	0	33	101	1048576	60	5823
2026-01-06 14:36:55.81	22.47	14.64	-40.6	-41.5	23.5	0.00e+00	0	33	101	1048576	60	5797
2026-01-06 14:36:56.82	22.49	14.75	-40.5	-41.4	23.6	0.00e+00	0	33	101	1048576	60	5732
2026-01-06 14:36:57.83	22.51	14.85	-40.6	-41.5	23.4	0.00e+00	0	33	101	1048576	60	5805
2026-01-06 14:36:58.84	22.53	14.96	-40.7	-41.6	23.4	0.00e+00	0	33	101	1048576	60	5855
2026-01-06 14:36:59.85	22.54	15.07	-40.6	-41.6	23.5	0.00e+00	0	33	101	1048576	60	5838
2026-01-06 14:37:00.86	22.56	15.17	-40.5	-41.4	23.6	0.00e+00	0	33	101	1048576	60	5723
2026-01-06 14:37:01.87	22.58	15.28	-40.5	-41.4	23.6	0.00e+00	0	33	101	1048576	60	5733
2026-01-06 14:37:02.88	22.60	15.39	-40.5	-41.4	23.6	0.00e+00	0	33	101	1048576	60	5751
2026-01-06 14:37:03.89	22.61	15.50	-40.5	-41.5	23.6	0.00e+00	0	33	101	1048576	60	5764
2026-01-06 14:37:04.90	22.63	15.61	-40.5	-41.4	23.6	0.00e+00	0	33	101	1048576	60	5746
2026-01-06 14:37:05.91	22.65	15.72	-40.6	-41.5	23.5	0.00e+00	0	33	101	1048576	60	5807
2026-01-06 14:37:06.92	22.67	15.83	-40.5	-41.4	23.6	0.00e+00	0	33	101	1048576	60	5760
2026-01-06 14:37:07.93	22.69	15.94	-40.9	-41.8	23.2	0.00e+00	0	33	101	1048576	60	6009
2026-01-06 14:37:08.94	22.70	16.05	-40.6	-41.5	23.6	0.00e+00	0	33	101	1048576	60	5791
2026-01-06 14:37:09.95	22.72	16.16	-40.6	-41.5	23.5	0.00e+00	0	33	101	1048576	60	5819
2026-01-06 14:37:10.96	22.74	16.28	-40.6	-41.5	23.6	0.00e+00	0	33	101	1048576	60	5801
2026-01-06 14:37:11.97	22.76	16.39	-40.5	-41.5	23.5	0.00e+00	0	33	101	1048576	60	5784
2026-01-06 14:37:12.98	22.78	16.50	-40.5	-41.5	23.5	0.00e+00	0	33	101	1048576	60	5764
2026-01-06 14:37:13.99	22.80	16.62	-40.6	-41.5	23.5	0.00e+00	0	33	101	1048576	60	5800
2026-01-06 14:37:15.00	22.82	16.73	-40.5	-41.4	23.6	0.00e+00	0	33	101	1048576	60	5723
2026-01-06 14:37:16.01	22.84	16.85	-40.7	-41.6	23.4	0.00e+00	0	33	101	1048576	60	5855
2026-01-06 14:37:17.02	22.86	16.96	-40.6	-41.5	23.6	0.00e+00	0	33	101	1048576	60	5797
2026-01-06 14:37:18.03	22.88	17.08	-40.7	-41.6	23.4	0.00e+00	0	33	101	1048576	60	5868
2026-01-06 14:37:19.04	22.89	17.19	-40.8	-41.7	23.3	0.00e+00	0	33	101	1048576	60	5960
2026-01-06 14:37:20.05	22.91	17.31	-40.8	-41.8	23.4	0.00e+00	0	33	101	1048576	60	5976
2026-01-06 14:37:21.07	22.93	17.43	-40.7	-41.6	23.4	0.00e+00	0	33	101	1048576	60	5881
2026-01-06 14:37:22.08	22.95	17.55	-40.7	-41.7	23.4	0.00e+00	0	33	101	1048576	60	5922
2026-01-06 14:37:23.09	22.97	17.67	-40.7	-41.6	23.4	0.00e+00	0	33	101	1048576	60	5866
2026-01-06 14:37:24.10	22.99	17.79	-40.7	-41.7	23.4	0.00e+00	0	33	101	1048576	60	5903
2026-01-06 14:37:25.11	23.01	17.91	-40.8	-41.7	23.4	0.00e+00	0	33	101	1048576	60	5948
2026-01-06 14:37:26.12	23.03	18.03	-40.9	-41.8	23.3	0.00e+00	0	33	101	1048576	60	6000
2026-01-06 14:37:27.12	23.05	18.15	-40.8	-41.8	23.3	0.00e+00	0	33	101	1048576	60	6001
2026-01-06 14:37:28.13	23.08	18.27	-40.8	-41.8	23.2	0.00e+00	0	33	101	1048576	60	5982
2026-01-06 14:37:29.14	23.10	18.39	-40.9	-41.9	23.2	0.00e+00	0	33	101	1048576	60	6034
2026-01-06 14:37:30.15	23.12	18.52	-40.9	-41.8	23.2	0.00e+00	0	33	101	1048576	60	6022
2026-01-06 14:37:31.16	23.14	18.64	-41.0	-41.9	23.3	0.00e+00	0	33	101	1048576	60	6083
2026-01-06 14:37:32.17	23.16	18.76	-40.9	-41.9	23.3	0.00e+00	0	33	101	1048576	60	6063
2026-01-06 14:37:33.18	23.18	18.89	-41.0	-42.0	23.2	0.00e+00	0	33	101	1048576	60	6111
2026-01-06 14:37:34.18	23.20	19.01	-40.9	-41.9	23.2	0.00e+00	0	33	101	1048576	60	6070
2026-01-06 14:37:35.19	23.22	19.14	-41.1	-42.1	23.1	0.00e+00	0	33	101	1048576	60	6227
2026-01-06 14:37:36.20	23.24	19.27	-41.2	-42.2	23.0	0.00e+00	0	33	101	1048576	60	6262
2026-01-06 14:37:37.21	23.27	19.39	-41.1	-42.0	23.2	0.00e+00	0	33	101	1048576	60	6147
2026-01-06 14:37:38.21	23.29	19.52	-41.1	-42.1	23.1	0.00e+00	0	33	101	1048576	60	6176
2026-01-06 14:37:39.22	23.31	19.65	-41.1	-42.1	23.1	0.00e+00	0	33	101	1048576	60	6200
2026-01-06 14:37:40.23	23.33	19.78	-41.1	-42.1	23.1	0.00e+00	0	33	101	1048576	60	6192
2026-01-06 14:37:41.24	23.36	19.91	-41.1	-42.1	23.1	0.00e+00	0	33	101	1048576	60	6226
2026-01-06 14:37:42.25	23.38	20.04	-41.1	-42.1	23.1	0.00e+00	0	33	101	1048576	60	6228
2026-01-06 14:37:43.26	23.40	20.17	-41.2	-42.2	23.0	0.00e+00	0	33	101	1048576	60	6284
2026-01-06 14:37:44.27	23.42	20.30	-41.3	-42.3	22.9	0.00e+00	0	33	101	1048576	60	6340
2026-01-06 14:37:45.28	23.45	20.44	-41.2	-42.1	23.0	0.00e+00	0	33	101	1048576	60	6234
2026-01-06 14:37:46.29	23.47	20.57	-41.2	-42.2	23.0	0.00e+00	0	33	101	1048576	60	6303
2026-01-06 14:37:47.30	23.49	20.70	-41.4	-42.4	22.9	0.00e+00	0	33	101	1048576	60	6410
2026-01-06 14:37:48.31	23.52	20.84	-41.4	-42.4	22.8	0.00e+00	0	33	101	1048576	60	6431
2026-01-06 14:37:49.32	23.54	20.98	-41.2	-42.2	23.0	0.00e+00	0	33	101	1048576	60	6272
2026-01-06 14:37:50.33	23.56	21.11	-41.3	-42.3	22.9	0.00e+00	0	33	101	1048576	60	6367
2026-01-06 14:37:51.33	23.59	21.25	-41.5	-42.5	22.7	0.00e+00	0	33	101	1048576	60	6507
2026-01-06 14:37:52.34	23.61	21.39	-41.5	-42.5	22.8	0.00e+00	0	33	101	1048576	60	6483
2026-01-06 14:37:53.35	23.64	21.52	-41.4	-42.5	22.8	0.00e+00	0	33	101	1048576	60	6465
2026-01-06 14:37:54.36	23.66	21.66	-41.4	-42.4	22.8	0.00e+00	0	33	101	1048576	60	6437
2026-01-06 14:37:55.37	23.69	21.80	-41.4	-42.5	22.8	0.00e+00	0	33	101	1048576	60	6471
2026-01-06 14:37:56.38	23.71	21.95	-41.5	-42.5	22.7	0.00e+00	0	33	101	1048576	60	6509
2026-01-06 14:37:57.39	23.74	22.09	-41.6	-42.6	22.7	0.00e+00	0	33	101	1048576	60	6586
2026-01-06 14:37:58.40	23.76	22.23	-41.5	-42.5	22.7	0.00e+00	0	33	101	1048576	60	6521
2026-01-06 14:37:59.40	23.79	22.37	-41.5	-42.5	22.8	0.00e+00	0	33	101	1048576	60	6539
2026-01-06 14:38:00.40	23.81	22.52	-41.6	-42.6	22.7	0.00e+00	0	33	101	1048576	60	6606
2026-01-06 14:38:01.41	23.84	22.66	-41.7	-42.7	22.6	0.00e+00	0	33	101	1048576	60	6686
2026-01-06 14:38:02.42	23.86	22.81	-41.8	-42.9	22.5	0.00e+00	0	33	101	1048576	60	6806
2026-01-06 14:38:03.42	23.89	22.95	-41.5	-42.5	22.8	0.00e+00	0	33	101	1048576	60	6531
2026-01-06 14:38:04.43	23.92	23.10	-41.7	-42.7	22.6	0.00e+00	0	33	101	1048576	60	6642
2026-01-06 14:38:05.45	23.94	23.25	-41.6	-42.6	22.7	0.00e+00	0	33	101	1048576	60	6559
2026-01-06 14:38:06.46	23.97	23.40	-41.6	-42.6	22.6	0.00e+00	0	33	101	1048576	60	6567
2026-01-06 14:38:07.46	24.00	23.55	-41.7	-42.7	22.6	0.00e+00	0	33	101	1048576	60	6674
2026-01-06 14:38:08.47	24.03	23.70	-41.6	-42.7	22.6	0.00e+00	0	33	101	1048576	60	6630
2026-01-06 14:38:09.48	24.05	23.85	-41.6	-42.6	22.7	0.00e+00	0	33	101	1048576	60	6574
2026-01-06 14:38:10.49	24.08	24.00	-41.5	-42.6	22.7	0.00e+00	0	33	101	1048576	60	6544
2026-01-06 14:38:11.50	24.11	24.16	-41.5	-42.5	22.8	0.00e+00	0	33	101	1048576	60	6483
2026-01-06 14:38:12.51	24.14	24.31	-41.6	-42.6	22.7	0.00e+00	0	33	101	1048576	60	6586
2026-01-06 14:38:13.52	24.17	24.47	-41.3	-42.3	23.0	0.00e+00	0	33	101	1048576	60	6374
2026-01-06 14:38:14.53	24.20	24.62	-41.3	-42.3	22.9	0.00e+00	0	33	101	1048576	60	6380
2026-01-06 14:38:15.54	24.22	24.78	-41.3	-42.3	23.0	0.00e+00	0	33	101	1048576	60	6324
2026-01-06 14:38:16.55	24.25	24.94	-41.3	-42.3	23.0	0.00e+00	0	33	101	1048576	60	6379
2026-01-06 14:38:17.56	24.28	25.10	-41.1	-42.1	23.1	0.00e+00	0	33	101	1048576	60	6222
2026-01-06 14:38:18.57	24.31	25.26	-41.1	-42.1	23.1	0.00e+00	0	33	101	1048576	60	6208
2026-01-06 14:38:19.58	24.34	25.42	-41.0	-42.0	23.2	0.00e+00	0	33	101	1048576	60	6132
2026-01-06 14:38:20.58	24.37	25.58	-41.2	-42.1	23.2	0.00e+00	0	33	101	1048576	60	6223
2026-01-06 14:38:21.59	24.40	25.74	-41.1	-42.0	23.2	0.00e+00	0	33	101	1048576	60	6161
2026-01-06 14:38:22.60	24.43	25.91	-41.1	-42.1	23.1	0.00e+00	0	33	101	1048576	60	6209
2026-01-06 14:38:23.61	24.47	26.07	-41.2	-42.1	23.2	0.00e+00	0	33	101	1048576	60	6229
2026-01-06 14:38:24.62	24.50	26.24	-41.1	-42.0	23.2	0.00e+00	0	33	101	1048576	60	6166
2026-01-06 14:38:25.63	24.53	26.41	-41.2	-42.2	23.1	0.00e+00	0	33	101	1048576	60	6267
2026-01-06 14:38:26.63	24.56	26.57	-41.1	-42.1	23.2	0.00e+00	0	33	101	1048576	60	6211
2026-01-06 14:38:27.64	24.59	26.74	-41.0	-42.0	23.3	0.00e+00	0	33	101	1048576	60	6114
2026-01-06 14:38:28.65	24.63	26.91	-41.1	-42.1	23.2	0.00e+00	0	33	101	1048576	60	6212
2026-01-06 14:38:29.66	24.66	27.08	-41.1	-42.1	23.2	0.00e+00	0	33	101	1048576	60	6184
2026-01-06 14:38:30.67	24.69	27.26	-41.2	-42.2	22.9	0.00e+00	0	33	101	1048576	60	6291
2026-01-06 14:38:31.68	24.73	27.43	-41.2	-42.2	23.1	0.00e+00	0	33	101	1048576	60	6260
2026-01-06 14:38:32.69	24.76	27.61	-41.4	-42.4	23.0	0.00e+00	0	33	101	1048576	60	6420
2026-01-06 14:38:33.70	24.79	27.78	-41.4	-42.4	22.9	0.00e+00	0	33	101	1048576	60	6404
2026-01-06 14:38:34.70	24.83	27.96	-41.5	-42.5	22.9	0.00e+00	0	33	101	1048576	60	6493
2026-01-06 14:38:35.71	24.86	28.13	-41.5	-42.5	22.8	0.00e+00	0	33	101	1048576	60	6500
2026-01-06 14:38:36.72	24.90	28.31	-41.6	-42.6	22.6	0.00e+00	0	33	101	1048576	60	6598
2026-01-06 14:38:37.73	24.93	28.49	-41.8	-42.9	22.5	0.00e+00	0	33	101	1048576	60	6783
2026-01-06 14:38:38.74	24.97	28.68	-41.6	-42.6	22.6	0.00e+00	0	33	101	1048576	60	6566
2026-01-06 14:38:39.75	25.01	28.86	-41.7	-42.8	22.6	0.00e+00	0	33	101	1048576	60	6718
2026-01-06 14:38:40.75	25.04	29.04	-41.9	-43.0	22.4	0.00e+00	0	33	101	1048576	60	6874
2026-01-06 14:38:41.77	25.08	29.23	-42.0	-43.1	22.3	0.00e+00	0	33	101	1048576	60	6963
2026-01-06 14:38:42.77	25.12	29.41	-42.1	-43.2	22.2	0.00e+00	0	33	101	1048576	60	7024
2026-01-06 14:38:43.78	25.15	29.60	-42.2	-43.3	22.1	0.00e+00	0	33	101	1048576	60	7109
2026-01-06 14:38:44.79	25.19	29.79	-42.4	-43.5	21.9	0.00e+00	0	33	101	1048576	60	7330
2026-01-06 14:38:45.80	25.23	29.98	-42.6	-43.7	21.7	0.00e+00	0	33	101	1048576	60	7487
2026-01-06 14:38:46.80	25.27	30.17	-42.5	-43.7	21.8	0.00e+00	0	33	101	1048576	60	7429
2026-01-06 14:38:47.81	25.31	30.36	-42.6	-43.8	21.7	0.00e+00	0	33	101	1048576	60	7546
2026-01-06 14:38:48.82	25.35	30.55	-42.6	-43.8	21.6	0.00e+00	0	33	101	1048576	60	7562
2026-01-06 14:38:49.83	25.39	30.75	-42.6	-43.8	21.7	0.00e+00	0	33	101	1048576	60	7522
2026-01-06 14:38:50.83	25.43	30.94	-42.7	-43.8	21.6	0.00e+00	0	33	101	1048576	60	7563
2026-01-06 14:38:51.84	25.47	31.14	-42.7	-43.8	21.6	0.00e+00	0	33	101	1048576	60	7553
2026-01-06 14:38:52.85	25.51	31.34	-42.8	-43.9	21.6	0.00e+00	0	33	101	1048576	60	7663
2026-01-06 14:38:53.86	25.55	31.54	-42.8	-44.0	21.5	0.00e+00	0	33	101	1048576	60	7705
2026-01-06 14:38:54.86	25.60	31.74	-42.8	-44.0	21.5	0.00e+00	0	33	101	1048576	60	7736
2026-01-06 14:38:55.87	25.64	31.94	-42.8	-44.0	21.5	0.00e+00	0	33	101	1048576	60	7728
2026-01-06 14:38:56.88	25.68	32.15	-42.8	-43.9	21.6	0.00e+00	0	33	101	1048576	60	7660
2026-01-06 14:38:57.89	25.73	32.36	-42.7	-43.8	21.7	0.00e+00	0	33	101	1048576	60	7560
2026-01-06 14:38:58.90	25.77	32.56	-42.5	-43.6	21.7	0.00e+00	0	33	101	1048576	60	7416
2026-01-06 14:38:59.91	25.82	32.77	-42.6	-43.7	21.8	0.00e+00	0	33	101	1048576	60	7473
2026-01-06 14:39:00.92	25.86	32.98	-42.6	-43.7	21.7	0.00e+00	0	33	101	1048576	60	7475
2026-01-06 14:39:01.93	25.91	33.19	-42.2	-43.3	22.1	0.00e+00	0	33	101	1048576	60	7090
2026-01-06 14:39:02.94	25.96	33.41	-42.2	-43.3	22.2	0.00e+00	0	33	101	1048576	60	7114
2026-01-06 14:39:03.94	26.00	33.62	-41.9	-43.0	22.4	0.00e+00	0	33	101	1048576	60	6853
2026-01-06 14:39:04.95	26.05	33.84	-41.7	-42.7	22.7	0.00e+00	0	33	101	1048576	60	6675
2026-01-06 14:39:05.96	26.10	34.05	-41.3	-42.3	23.0	0.00e+00	0	33	101	1048576	60	6354
2026-01-06 14:39:06.97	26.15	34.27	-41.2	-42.2	23.2	0.00e+00	0	33	101	1048576	60	6264
2026-01-06 14:39:07.98	26.20	34.49	-40.8	-41.7	23.5	0.00e+00	0	33	101	1048576	60	5951
2026-01-06 14:39:08.98	26.25	34.71	-40.9	-41.8	23.5	0.00e+00	0	33	101	1048576	60	6010
2026-01-06 14:39:09.99	26.30	34.94	-40.5	-41.4	23.8	0.00e+00	0	33	101	1048576	60	5743
2026-01-06 14:39:11.00	26.35	35.16	-40.6	-41.5	23.7	0.00e+00	0	33	101	1048576	60	5764
2026-01-06 14:39:12.01	26.40	35.39	-40.5	-41.3	23.8	0.00e+00	0	33	101	1048576	60	5694
2026-01-06 14:39:13.02	26.45	35.62	-40.4	-41.3	23.9	0.00e+00	0	33	101	1048576	60	5675
2026-01-06 14:39:14.03	26.51	35.85	-40.4	-41.3	23.9	0.00e+00	0	33	101	1048576	60	5651
2026-01-06 14:39:15.04	26.56	36.08	-40.5	-41.4	23.8	0.00e+00	0	33	101	1048576	60	5700
2026-01-06 14:39:16.05	26.62	36.32	-40.3	-41.2	24.0	0.00e+00	0	33	101	1048576	60	5572
2026-01-06 14:39:17.06	26.67	36.55	-40.3	-41.2	24.0	0.00e+00	0	33	101	1048576	60	5579
2026-01-06 14:39:18.06	26.73	36.79	-40.0	-40.9	24.1	0.00e+00	0	33	101	1048576	58	6078
2026-01-06 14:39:19.07	26.79	37.02	-40.1	-41.0	24.2	0.00e+00	0	33	101	1048576	58	6129
2026-01-06 14:39:20.08	26.84	37.26	-40.0	-40.9	24.2	0.00e+00	0	33	101	1048576	58	6067
2026-01-06 14:39:21.09	26.90	37.51	-39.9	-40.7	24.3	0.00e+00	0	33	101	1048576	58	5953
2026-01-06 14:39:22.10	26.96	37.75	-39.9	-40.8	24.2	0.00e+00	0	33	101	1048576	58	5995
2026-01-06 14:39:23.11	27.02	38.00	-40.0	-40.9	24.2	0.00e+00	0	33	101	1048576	58	6041
2026-01-06 14:39:24.12	27.08	38.24	-40.0	-40.9	24.2	0.00e+00	0	33	101	1048576	58	6075
2026-01-06 14:39:25.12	27.15	38.49	-40.3	-41.2	23.9	0.00e+00	0	33	101	1048576	58	6254
2026-01-06 14:39:26.13	27.21	38.74	-40.3	-41.2	24.0	0.00e+00	0	33	101	1048576	58	6262
2026-01-06 14:39:27.14	27.27	39.00	-40.7	-41.6	23.7	0.00e+00	0	33	101	1048576	58	6549
2026-01-06 14:39:28.15	27.34	39.25	-40.8	-41.7	23.4	0.00e+00	0	33	101	1048576	58	6657
2026-01-06 14:39:29.16	27.40	39.51	-41.0	-42.0	23.2	0.00e+00	0	33	101	1048576	58	6855
2026-01-06 14:39:30.17	27.47	39.77	-41.3	-42.3	23.1	0.00e+00	0	33	101	1048576	60	6370
2026-01-06 14:39:31.17	27.54	40.02	-41.4	-42.3	23.0	0.00e+00	0	33	101	1048576	60	6386
2026-01-06 14:39:32.18	27.61	40.29	-41.6	-42.6	22.8	0.00e+00	0	33	101	1048576	60	6551
2026-01-06 14:39:33.19	27.68	40.55	-41.7	-42.7	22.7	0.00e+00	0	33	101	1048576	60	6655
2026-01-06 14:39:34.20	27.75	40.82	-41.7	-42.7	22.7	0.00e+00	0	33	101	1048576	60	6671
2026-01-06 14:39:35.21	27.82	41.08	-41.8	-42.8	22.5	0.00e+00	0	33	101	1048576	60	6712
2026-01-06 14:39:36.22	27.89	41.35	-41.6	-42.6	22.8	0.00e+00	0	33	101	1048576	60	6600
2026-01-06 14:39:37.23	27.97	41.63	-41.6	-42.7	22.7	0.00e+00	0	33	101	1048576	60	6618
2026-01-06 14:39:38.23	28.04	41.90	-41.7	-42.7	22.7	0.00e+00	0	33	101	1048576	60	6638
2026-01-06 14:39:39.24	28.12	42.17	-41.5	-42.5	22.9	0.00e+00	0	33	101	1048576	60	6490
2026-01-06 14:39:40.25	28.20	42.45	-41.5	-42.5	22.9	0.00e+00	0	33	101	1048576	60	6538
2026-01-06 14:39:41.26	28.28	42.73	-41.2	-42.2	23.3	0.00e+00	0	33	101	1048576	60	6248
2026-01-06 14:39:42.26	28.36	43.01	-40.8	-41.7	23.6	0.00e+00	0	33	101	1048576	60	5940
2026-01-06 14:39:43.27	28.44	43.30	-40.8	-41.7	23.6	0.00e+00	0	33	101	1048576	60	5919
2026-01-06 14:39:44.28	28.52	43.58	-40.8	-41.7	23.6	0.00e+00	0	33	101	1048576	60	5947
2026-01-06 14:39:45.29	28.61	43.87	-40.9	-41.8	23.5	0.00e+00	0	33	101	1048576	60	6032
2026-01-06 14:39:46.30	28.69	44.16	-41.0	-42.0	23.3	0.00e+00	0	33	101	1048576	60	6127
2026-01-06 14:39:47.31	28.78	44.45	-41.4	-42.4	22.7	0.00e+00	0	33	101	1048576	60	6435
2026-01-06 14:39:48.32	28.87	44.75	-41.7	-42.8	22.6	0.00e+00	0	33	101	1048576	60	6706
2026-01-06 14:39:49.33	28.96	45.05	-42.1	-43.1	22.2	0.00e+00	0	33	101	1048576	60	6996
2026-01-06 14:39:50.34	29.06	45.34	-42.4	-43.5	22.0	0.00e+00	0	33	101	1048576	60	7285
2026-01-06 14:39:51.35	29.15	45.65	-42.8	-44.0	21.5	0.00e+00	0	33	101	1048576	60	7742
2026-01-06 14:39:52.36	29.25	45.95	-42.7	-43.9	21.5	0.00e+00	0	33	101	1048576	60	7618
2026-01-06 14:39:53.36	29.34	46.25	-42.8	-44.0	21.5	0.00e+00	0	33	101	1048576	60	7738
2026-01-06 14:39:54.37	29.44	46.56	-42.7	-43.9	21.5	0.00e+00	0	33	101	1048576	60	7648
2026-01-06 14:39:55.38	29.54	46.87	-42.8	-44.0	21.5	0.00e+00	0	33	101	1048576	60	7704
2026-01-06 14:39:56.39	29.65	47.18	-42.3	-43.4	22.1	0.00e+00	0	33	101	1048576	60	7206
2026-01-06 14:39:57.40	29.75	47.50	-42.4	-43.5	22.0	0.00e+00	0	33	101	1048576	60	7307
2026-01-06 14:39:58.41	29.86	47.81	-42.4	-43.5	22.0	0.00e+00	0	33	101	1048576	60	7318
2026-01-06 14:39:59.41	29.97	48.13	-41.9	-43.0	22.5	0.00e+00	0	33	101	1048576	60	6853
2026-01-06 14:40:00.43	30.08	48.45	-42.0	-43.1	22.4	0.00e+00	0	33	101	1048576	60	6930
2026-01-06 14:40:01.43	30.20	48.77	-41.9	-42.9	22.5	0.00e+00	0	33	101	1048576	60	6821
2026-01-06 14:40:02.44	30.31	49.10	-41.7	-42.7	22.6	0.00e+00	0	33	101	1048576	60	6692
2026-01-06 14:40:03.45	30.43	49.43	-41.2	-42.2	23.2	0.00e+00	0	33	101	1048576	60	6257
2026-01-06 14:40:04.46	30.56	49.76	-41.0	-41.9	23.5	0.00e+00	0	33	101	1048576	60	6074
2026-01-06 14:40:05.47	30.68	50.09	-40.7	-41.7	23.6	0.00e+00	0	33	101	1048576	60	5903
2026-01-06 14:40:06.48	30.81	50.43	-40.1	-41.0	24.2	0.00e+00	0	33	101	1048576	58	6105
2026-01-06 14:40:07.48	30.93	50.76	-39.6	-40.4	24.7	0.00e+00	0	34	101	1048576	58	5735
2026-01-06 14:40:08.49	31.07	51.10	-39.2	-40.0	25.1	0.00e+00	0	33	101	1048576	58	5448
2026-01-06 14:40:09.50	31.20	51.44	-38.8	-39.6	25.5	0.00e+00	0	33	101	1048576	56	5880
2026-01-06 14:40:10.51	31.34	51.79	-38.0	-38.7	26.0	0.00e+00	0	33	101	1048576	54	5925
2026-01-06 14:40:11.52	31.48	52.13	-37.7	-38.4	26.2	0.00e+00	0	33	101	1048576	54	5719
2026-01-06 14:40:12.53	31.63	52.48	-37.2	-37.9	26.6	0.00e+00	0	33	101	1048576	54	5404
2026-01-06 14:40:13.54	31.78	52.83	-37.2	-37.9	26.7	0.00e+00	0	33	101	1048576	52	6048
2026-01-06 14:40:14.54	31.93	53.18	-37.1	-37.8	26.6	0.00e+00	0	33	101	1048576	52	5984
2026-01-06 14:40:15.55	32.08	53.54	-37.1	-37.8	26.7	0.00e+00	0	33	101	1048576	52	6017
2026-01-06 14:40:16.56	32.24	53.90	-37.0	-37.7	26.3	0.00e+00	0	33	101	1048576	52	5922
2026-01-06 14:40:17.57	32.41	54.26	-37.1	-37.8	26.7	0.00e+00	0	33	101	1048576	52	5987
2026-01-06 14:40:18.58	32.57	54.62	-37.1	-37.8	26.6	0.00e+00	0	33	101	1048576	52	6029
2026-01-06 14:40:19.59	32.74	54.99	-37.2	-37.9	26.6	0.00e+00	0	33	101	1048576	52	6096
2026-01-06 14:40:20.60	32.92	55.35	-37.5	-38.2	26.4	0.00e+00	0	33	101	1048576	52	6272
2026-01-06 14:40:21.61	33.10	55.72	-37.5	-38.2	26.4	0.00e+00	0	33	101	1048576	52	6264
2026-01-06 14:40:22.62	33.29	56.10	-37.9	-38.7	26.0	0.00e+00	0	33	101	1048576	52	6622
2026-01-06 14:40:23.63	33.48	56.47	-38.3	-39.1	25.7	0.00e+00	0	33	101	1048576	54	6175
2026-01-06 14:40:24.64	33.67	56.85	-38.5	-39.3	25.5	0.00e+00	0	33	101	1048576	54	6346
2026-01-06 14:40:25.64	33.87	57.22	-38.7	-39.5	25.4	0.00e+00	0	33	101	1048576	54	6480
2026-01-06 14:40:26.65	34.08	57.60	-38.9	-39.7	25.2	0.00e+00	0	33	101	1048576	54	6654
2026-01-06 14:40:27.66	34.29	57.99	-39.1	-40.0	25.1	0.00e+00	0	33	101	1048576	56	6104
2026-01-06 14:40:28.67	34.51	58.37	-39.3	-40.1	25.0	0.00e+00	0	33	101	1048576	56	6216
2026-01-06 14:40:29.68	34.73	58.76	-39.2	-40.0	25.0	0.00e+00	0	33	101	1048576	56	6150
2026-01-06 14:40:30.69	34.96	59.15	-39.0	-39.8	25.1	0.00e+00	0	33	101	1048576	56	5966
2026-01-06 14:40:31.69	35.20	59.54	-38.4	-39.2	25.7	0.00e+00	0	34	101	1048576	56	5584
2026-01-06 14:40:32.70	35.44	59.93	-38.5	-39.2	25.7	0.00e+00	0	33	101	1048576	56	5612
2026-01-06 14:40:33.71	35.69	60.33	-38.3	-39.0	25.8	0.00e+00	0	33	101	1048576	56	5477
2026-01-06 14:40:34.72	35.95	60.72	-37.7	-38.5	26.1	0.00e+00	0	33	101	1048576	54	5780
2026-01-06 14:40:35.73	36.22	61.12	-37.7	-38.5	26.2	0.00e+00	0	33	101	1048576	54	5780
2026-01-06 14:40:36.74	36.50	61.52	-37.4	-38.1	26.3	0.00e+00	0	33	101	1048576	54	5560
2026-01-06 14:40:37.75	36.78	61.93	-37.8	-38.5	26.1	0.00e+00	0	33	101	1048576	54	5826
2026-01-06 14:40:38.76	37.08	62.33	-38.0	-38.7	25.9	0.00e+00	0	33	101	1048576	54	5963
2026-01-06 14:40:39.77	37.38	62.74	-38.1	-38.8	25.8	0.00e+00	0	33	101	1048576	54	6008
2026-01-06 14:40:40.77	37.70	63.15	-38.4	-39.1	25.6	0.00e+00	0	33	101	1048576	54	6225
2026-01-06 14:40:41.79	38.03	63.56	-38.8	-39.6	25.3	0.00e+00	0	33	101	1048576	54	6544
2026-01-06 14:40:42.79	38.36	63.97	-39.3	-40.1	24.9	0.00e+00	0	33	101	1048576	56	6240
2026-01-06 14:40:43.80	38.71	64.38	-39.8	-40.6	24.3	0.00e+00	0	33	101	1048576	56	6605
2026-01-06 14:40:44.81	39.07	64.80	-40.1	-40.9	24.2	0.00e+00	0	33	101	1048576	56	6847
2026-01-06 14:40:45.82	39.45	65.21	-40.2	-41.1	24.0	0.00e+00	0	33	101	1048576	58	6229
2026-01-06 14:40:46.83	39.84	65.63	-40.4	-41.3	23.8	0.00e+00	0	33	101	1048576	58	6384
2026-01-06 14:40:47.84	40.24	66.05	-40.8	-41.7	23.5	0.00e+00	0	33	101	1048576	58	6639
2026-01-06 14:40:48.84	40.66	66.46	-41.1	-42.0	23.1	0.00e+00	0	33	101	1048576	60	6156
2026-01-06 14:40:49.85	41.10	66.89	-41.7	-42.7	22.2	0.00e+00	0	33	101	1048576	60	6647
2026-01-06 14:40:50.86	41.55	67.31	-41.6	-42.6	22.7	0.00e+00	0	33	101	1048576	60	6608
2026-01-06 14:40:51.87	42.03	67.73	-41.5	-42.5	22.7	0.00e+00	0	33	101	1048576	60	6538
2026-01-06 14:40:52.88	42.52	68.15	-40.9	-41.9	23.4	0.00e+00	0	33	101	1048576	60	6064
2026-01-06 14:40:53.89	43.04	68.58	-40.7	-41.7	23.3	0.00e+00	0	33	101	1048576	60	5906
2026-01-06 14:40:54.90	43.57	69.00	-40.6	-41.5	23.7	0.00e+00	0	33	101	1048576	60	5797
2026-01-06 14:40:55.90	44.13	69.42	-40.3	-41.2	23.8	0.00e+00	0	33	101	1048576	60	5597
2026-01-06 14:40:56.91	44.72	69.85	-40.3	-41.2	23.9	0.00e+00	0	33	101	1048576	58	6271
2026-01-06 14:40:57.92	45.33	70.27	-40.3	-41.2	23.9	0.00e+00	0	33	101	1048576	58	6275
2026-01-06 14:40:58.93	45.97	70.69	-40.5	-41.4	23.8	0.00e+00	0	33	101	1048576	58	6424
2026-01-06 14:40:59.94	46.64	71.12	-40.9	-41.8	23.2	0.00e+00	0	33	101	1048576	58	6742
2026-01-06 14:41:00.95	47.35	71.54	-41.6	-42.6	22.7	0.00e+00	0	33	101	1048576	60	6587
2026-01-06 14:41:01.96	48.09	71.96	-41.7	-42.7	22.6	0.00e+00	0	33	101	1048576	60	6678
2026-01-06 14:41:02.97	48.86	72.38	-41.3	-42.3	23.1	0.00e+00	0	33	101	1048576	60	6359
2026-01-06 14:41:03.97	49.67	72.80	-41.7	-42.7	22.6	0.00e+00	0	33	101	1048576	60	6664
2026-01-06 14:41:04.98	50.53	73.21	-42.8	-43.9	21.5	0.00e+00	0	33	101	1048576	60	7648
2026-01-06 14:41:05.99	51.43	73.63	-43.8	-45.2	20.0	0.00e+00	0	33	101	1048576	60	8889
2026-01-06 14:41:07.00	52.39	74.04	-43.9	-45.3	20.1	0.00e+00	0	33	101	1048576	60	9000
2026-01-06 14:41:08.01	53.39	74.45	-42.8	-43.9	21.6	0.00e+00	0	33	101	1048576	60	7683
2026-01-06 14:41:09.02	54.45	74.85	-42.1	-43.1	22.2	0.00e+00	0	34	101	1048576	60	6983
2026-01-06 14:41:10.03	55.57	75.26	-42.5	-43.7	21.9	0.00e+00	0	33	101	1048576	60	7429
2026-01-06 14:41:11.04	56.76	75.65	-42.6	-43.8	21.5	0.00e+00	0	33	101	1048576	60	7529
2026-01-06 14:41:12.05	58.02	76.05	-43.2	-44.5	21.0	0.00e+00	0	33	101	1048576	60	8166
2026-01-06 14:41:13.06	59.35	76.43	-43.9	-45.3	20.3	0.00e+00	0	33	101	1048576	60	8930
2026-01-06 14:41:14.07	60.76	76.81	-44.6	-46.1	19.5	0.00e+00	0	34	101	1048576	60	9897
2026-01-06 14:41:15.08	62.25	77.18	-44.3	-45.8	19.7	0.00e+00	0	33	101	1048576	60	9487
2026-01-06 14:41:16.09	63.84	77.55	-44.1	-45.5	20.0	0.00e+00	0	33	101	1048576	60	9175
2026-01-06 14:41:17.10	65.52	77.90	-43.1	-44.3	21.3	0.00e+00	0	33	101	1048576	60	7981
2026-01-06 14:41:18.11	67.30	78.25	-42.1	-43.2	22.0	0.00e+00	0	33	101	1048576	60	7045
2026-01-06 14:41:19.12	69.20	78.58	-41.6	-42.6	22.8	0.00e+00	0	34	101	1048576	60	6563
2026-01-06 14:41:20.13	71.21	78.91	-41.2	-42.2	22.9	0.00e+00	0	33	101	1048576	60	6287
2026-01-06 14:41:21.14	73.33	79.21	-41.8	-42.9	22.4	0.00e+00	0	33	101	1048576	60	6832
2026-01-06 14:41:22.15	75.59	79.51	-41.1	-42.1	23.1	0.00e+00	0	33	101	1048576	60	6221
2026-01-06 14:41:23.16	77.97	79.79	-40.6	-41.5	23.7	0.00e+00	0	33	101	1048576	60	5803
2026-01-06 14:41:24.17	80.48	80.04	-40.3	-41.2	24.0	0.00e+00	0	33	101	1048576	60	5576
2026-01-06 14:41:25.18	83.12	80.28	-40.1	-41.0	24.2	0.00e+00	0	34	101	1048576	60	5456
2026-01-06 14:41:26.19	85.90	80.50	-40.2	-41.1	23.9	0.00e+00	0	33	101	1048576	58	6209
2026-01-06 14:41:27.20	88.79	80.70	-40.9	-41.8	23.4	0.00e+00	0	33	101	1048576	58	6750
2026-01-06 14:41:28.21	91.81	80.87	-41.0	-42.0	23.3	0.00e+00	0	33	101	1048576	58	6894
2026-01-06 14:41:29.22	94.94	81.02	-40.6	-41.5	23.7	0.00e+00	0	33	101	1048576	58	6470
2026-01-06 14:41:30.23	98.16	81.14	-41.0	-41.9	23.3	0.00e+00	0	33	101	1048576	58	6825
2026-01-06 14:41:31.24	101.46	81.23	-40.6	-41.6	23.7	0.00e+00	0	33	101	1048576	58	6551
2026-01-06 14:41:32.25	104.82	81.29	-40.6	-41.5	23.6	0.00e+00	0	33	101	1048576	58	6475
2026-01-06 14:41:33.27	108.25	81.32	-41.6	-42.6	22.8	0.00e+00	0	33	101	1048576	60	6580
2026-01-06 14:41:34.28	111.66	81.33	-41.5	-42.5	22.8	0.00e+00	0	33	101	1048576	60	6520
2026-01-06 14:41:35.29	115.06	81.30	-41.6	-42.6	22.1	0.00e+00	0	33	101	1048576	60	6568
2026-01-06 14:41:36.30	118.42	81.24	-41.4	-42.4	22.8	0.00e+00	0	33	101	1048576	60	6440
2026-01-06 14:41:37.31	121.73	81.15	-41.2	-42.2	23.3	0.00e+00	0	33	101	1048576	60	6249
2026-01-06 14:41:38.32	124.97	81.04	-41.0	-41.9	23.4	0.00e+00	0	33	101	1048576	60	6066
2026-01-06 14:41:39.33	128.11	80.89	-41.1	-42.1	23.4	0.00e+00	0	33	101	1048576	60	6182
2026-01-06 14:41:40.34	131.14	80.72	-39.7	-40.5	24.5	0.00e+00	0	33	101	1048576	58	5812
2026-01-06 14:41:41.35	134.05	80.53	-39.0	-39.8	25.1	0.00e+00	0	33	101	1048576	56	5999
2026-01-06 14:41:42.36	136.84	80.31	-39.7	-40.5	24.6	0.00e+00	0	33	101	1048576	56	6537
2026-01-06 14:41:43.37	139.50	80.08	-40.0	-40.9	24.3	0.00e+00	0	33	101	1048576	56	6772
2026-01-06 14:41:44.38	142.03	79.82	-40.0	-40.9	24.2	0.00e+00	0	33	101	1048576	58	6070
2026-01-06 14:41:45.40	144.46	79.54	-40.3	-41.2	24.0	0.00e+00	0	33	101	1048576	58	6247
2026-01-06 14:41:46.41	146.72	79.25	-40.2	-41.1	24.0	0.00e+00	0	33	101	1048576	58	6232
2026-01-06 14:41:47.42	148.87	78.94	-40.5	-41.4	23.7	0.00e+00	0	33	101	1048576	58	6441
2026-01-06 14:41:48.43	150.89	78.62	-41.4	-42.4	22.9	0.00e+00	0	33	101	1048576	60	6452
2026-01-06 14:41:49.44	152.80	78.29	-41.4	-42.4	22.9	0.00e+00	0	33	101	1048576	60	6425
2026-01-06 14:41:50.45	154.60	77.94	-41.3	-42.2	23.1	0.00e+00	0	33	101	1048576	60	6315
2026-01-06 14:41:51.46	156.29	77.59	-41.6	-42.6	22.8	0.00e+00	0	33	101	1048576	60	6578
2026-01-06 14:41:52.47	157.89	77.22	-41.9	-42.9	22.5	0.00e+00	0	33	101	1048576	60	6837
2026-01-06 14:41:53.48	159.39	76.85	-42.0	-43.0	22.5	0.00e+00	0	33	101	1048576	60	6905
2026-01-06 14:41:54.49	160.81	76.47	-41.9	-43.0	22.3	0.00e+00	0	33	101	1048576	60	6880
2026-01-06 14:41:55.50	162.15	76.09	-42.8	-44.0	21.4	0.00e+00	0	33	101	1048576	60	7719
2026-01-06 14:41:56.51	163.42	75.70	-43.9	-45.2	20.2	0.00e+00	0	33	101	1048576	60	8924
2026-01-06 14:41:57.52	164.61	75.30	-44.2	-45.7	19.8	0.00e+00	0	33	101	1048576	60	9376
2026-01-06 14:41:58.53	165.74	74.90	-44.1	-45.5	20.3	0.00e+00	0	33	101	1048576	60	9221
2026-01-06 14:41:59.55	166.82	74.49	-43.1	-44.3	21.3	0.00e+00	0	33	101	1048576	60	8020
2026-01-06 14:42:00.55	167.82	74.08	-42.8	-44.0	21.3	0.00e+00	0	33	101	1048576	60	7758
2026-01-06 14:42:01.56	168.78	73.67	-42.9	-44.1	21.3	0.00e+00	0	33	101	1048576	60	7845
2026-01-06 14:42:02.57	169.69	73.26	-42.6	-43.7	21.8	0.00e+00	0	33	101	1048576	60	7466
2026-01-06 14:42:03.58	170.56	72.84	-41.8	-42.9	22.5	0.00e+00	0	33	101	1048576	60	6794
2026-01-06 14:42:04.60	171.39	72.41	-40.9	-41.8	23.5	0.00e+00	0	33	101	1048576	60	6015
2026-01-06 14:42:05.61	172.17	71.99	-40.6	-41.5	23.8	0.00e+00	0	34	101	1048576	60	5820
2026-01-06 14:42:06.62	172.91	71.57	-41.3	-42.3	23.1	0.00e+00	0	34	101	1048576	60	6350
2026-01-06 14:42:07.63	173.62	71.15	-41.3	-42.3	23.0	0.00e+00	0	33	101	1048576	60	6341
2026-01-06 14:42:08.64	174.29	70.72	-41.3	-42.2	23.0	0.00e+00	0	33	101	1048576	60	6302
2026-01-06 14:42:09.65	174.94	70.30	-41.8	-42.8	22.6	0.00e+00	0	34	101	1048576	60	6760
2026-01-06 14:42:10.66	175.55	69.88	-42.0	-43.1	22.3	0.00e+00	0	33	101	1048576	60	6928
2026-01-06 14:42:11.67	176.14	69.45	-43.0	-44.2	21.0	0.00e+00	0	33	101	1048576	60	7927
2026-01-06 14:42:12.68	176.70	69.02	-43.4	-44.7	20.9	0.00e+00	0	34	101	1048576	60	8409
2026-01-06 14:42:13.69	177.24	68.60	-42.7	-43.9	21.6	0.00e+00	0	34	101	1048576	60	7615
2026-01-06 14:42:14.70	177.76	68.18	-42.0	-43.0	22.5	0.00e+00	0	34	101	1048576	60	6927
2026-01-06 14:42:15.71	178.26	67.75	-42.4	-43.5	22.0	0.00e+00	0	33	101	1048576	60	7258
2026-01-06 14:42:16.72	178.73	67.33	-42.9	-44.1	21.4	0.00e+00	0	33	101	1048576	60	7801
2026-01-06 14:42:17.73	179.19	66.91	-42.0	-43.0	22.4	0.00e+00	0	34	101	1048576	60	6916
2026-01-06 14:42:18.74	179.63	66.48	-41.5	-42.5	22.9	0.00e+00	0	33	101	1048576	60	6532
2026-01-06 14:42:19.75	180.05	66.06	-40.6	-41.5	23.8	0.00e+00	0	33	101	1048576	60	5781
2026-01-06 14:42:20.76	180.46	65.64	-40.4	-41.3	24.0	0.00e+00	0	33	101	1048576	60	5632
2026-01-06 14:42:21.77	180.85	65.22	-41.0	-41.9	23.3	0.00e+00	0	33	101	1048576	60	6093
2026-01-06 14:42:22.78	181.23	64.81	-42.1	-43.2	22.2	0.00e+00	0	34	101	1048576	60	7086
2026-01-06 14:42:23.79	181.59	64.39	-41.0	-42.0	23.6	0.00e+00	0	33	101	1048576	60	6107
2026-01-06 14:42:24.81	181.94	63.97	-39.4	-40.2	24.7	0.00e+00	0	33	101	1048576	58	5624
2026-01-06 14:42:25.82	182.28	63.56	-38.9	-39.6	25.3	0.00e+00	0	33	101	1048576	56	5888
2026-01-06 14:42:26.83	182.61	63.15	-39.1	-39.9	25.1	0.00e+00	0	33	101	1048576	56	6076
2026-01-06 14:42:27.84	182.93	62.74	-39.1	-40.0	25.0	0.00e+00	0	33	101	1048576	56	6114
2026-01-06 14:42:28.85	183.23	62.33	-39.1	-39.9	25.1	0.00e+00	0	33	101	1048576	56	6088
2026-01-06 14:42:29.86	183.53	61.92	-39.2	-40.0	25.0	0.00e+00	0	33	101	1048576	56	6128
2026-01-06 14:42:30.87	183.81	61.52	-39.3	-40.1	25.0	0.00e+00	0	33	101	1048576	56	6197
2026-01-06 14:42:31.88	184.09	61.12	-39.3	-40.1	24.9	0.00e+00	0	33	101	1048576	56	6188
2026-01-06 14:42:32.89	184.36	60.72	-40.1	-40.9	24.1	0.00e+00	0	33	101	1048576	56	6831
2026-01-06 14:42:33.90	184.62	60.32	-41.5	-42.6	22.8	0.00e+00	0	33	101	1048576	60	6550
2026-01-06 14:42:34.91	184.87	59.92	-42.5	-43.6	21.8	0.00e+00	0	33	101	1048576	60	7421
2026-01-06 14:42:35.92	185.12	59.53	-41.9	-43.0	22.6	0.00e+00	0	33	101	1048576	60	6890
2026-01-06 14:42:36.93	185.35	59.13	-41.4	-42.4	23.0	0.00e+00	0	33	101	1048576	60	6413
2026-01-06 14:42:37.95	185.59	58.74	-41.8	-42.9	22.5	0.00e+00	0	34	101	1048576	60	6774
2026-01-06 14:42:38.96	185.81	58.35	-42.3	-43.4	22.2	0.00e+00	0	34	101	1048576	60	7223
2026-01-06 14:42:39.97	186.03	57.96	-41.7	-42.8	22.7	0.00e+00	0	34	101	1048576	60	6708
2026-01-06 14:42:40.98	186.24	57.58	-41.3	-42.3	23.1	0.00e+00	0	34	101	1048576	60	6333
2026-01-06 14:42:41.99	186.45	57.20	-41.2	-42.2	23.1	0.00e+00	0	33	101	1048576	60	6246
2026-01-06 14:42:43.00	186.65	56.82	-40.8	-41.8	23.7	0.00e+00	0	33	101	1048576	60	5993
2026-01-06 14:42:44.01	186.84	56.44	-40.0	-40.9	24.4	0.00e+00	0	34	101	1048576	58	6039
2026-01-06 14:42:45.02	187.03	56.06	-39.9	-40.7	24.4	0.00e+00	0	33	101	1048576	58	5954
2026-01-06 14:42:46.03	187.22	55.69	-39.2	-40.1	25.1	0.00e+00	0	33	101	1048576	58	5505
2026-01-06 14:42:47.04	187.40	55.32	-39.1	-39.9	25.1	0.00e+00	0	33	101	1048576	56	6074
2026-01-06 14:42:48.05	187.58	54.95	-39.2	-40.0	25.0	0.00e+00	0	33	101	1048576	56	6124
2026-01-06 14:42:49.06	187.75	54.59	-38.7	-39.5	25.3	0.00e+00	0	33	101	1048576	56	5802
2026-01-06 14:42:50.07	187.91	54.22	-38.7	-39.5	25.5	0.00e+00	0	33	101	1048576	56	5764
2026-01-06 14:42:51.08	188.08	53.86	-39.2	-40.0	24.9	0.00e+00	0	33	101	1048576	56	6117
2026-01-06 14:42:52.09	188.24	53.50	-39.6	-40.4	24.7	0.00e+00	0	33	101	1048576	56	6443
2026-01-06 14:42:53.10	188.39	53.14	-39.6	-40.4	24.7	0.00e+00	0	33	101	1048576	56	6456
2026-01-06 14:42:54.11	188.54	52.79	-39.9	-40.7	24.5	0.00e+00	0	33	101	1048576	56	6685
2026-01-06 14:42:55.12	188.69	52.44	-40.2	-41.1	24.1	0.00e+00	0	33	101	1048576	58	6176
2026-01-06 14:42:56.13	188.84	52.09	-40.9	-41.8	23.4	0.00e+00	0	33	101	1048576	58	6723
2026-01-06 14:42:57.14	188.98	51.74	-42.4	-43.6	21.9	0.00e+00	0	33	101	1048576	60	7353
2026-01-06 14:42:58.15	189.12	51.39	-43.8	-45.2	20.4	0.00e+00	0	33	101	1048576	60	8884
2026-01-06 14:42:59.16	189.25	51.05	-45.0	-46.6	19.0	0.00e+00	0	33	101	1048576	60	10425
2026-01-06 14:43:00.17	189.39	50.71	-45.6	-47.5	18.2	0.00e+00	0	33	101	1048576	60	11513
2026-01-06 14:43:01.18	189.52	50.37	-45.5	-47.3	18.4	0.00e+00	0	33	101	1048576	60	11351
2026-01-06 14:43:02.18	189.64	50.04	-45.0	-46.6	19.1	0.00e+00	0	33	101	1048576	60	10400
2026-01-06 14:43:03.20	189.77	49.70	-44.5	-45.9	19.8	0.00e+00	0	33	101	1048576	60	9639
2026-01-06 14:43:04.20	189.89	49.38	-44.4	-45.8	20.0	0.00e+00	0	33	101	1048576	60	9455
2026-01-06 14:43:05.21	190.01	49.05	-45.5	-47.3	18.3	0.00e+00	0	33	101	1048576	60	11256
2026-01-06 14:43:06.22	190.12	48.72	-46.8	-49.3	16.0	0.00e+00	0	33	101	1048576	60	14250
2026-01-06 14:43:07.23	190.24	48.39	-48.2	-51.8	13.5	7.00e-07	0	33	101	1048576	60	19052
2026-01-06 14:43:08.24	190.35	48.07	-47.3	-50.1	15.7	9.90e-06	0	33	101	1048576	60	15539
2026-01-06 14:43:09.25	190.46	47.75	-45.0	-46.7	18.8	0.00e+00	0	33	101	1048576	60	10574
2026-01-06 14:43:10.26	190.57	47.44	-44.2	-45.6	20.2	0.00e+00	0	33	101	1048576	60	9278
2026-01-06 14:43:11.27	190.67	47.12	-43.0	-44.2	21.4	0.00e+00	0	33	101	1048576	60	7875
2026-01-06 14:43:12.28	190.78	46.81	-42.5	-43.6	22.1	0.00e+00	0	33	101	1048576	60	7389
2026-01-06 14:43:13.30	190.88	46.49	-41.6	-42.6	22.9	0.00e+00	0	33	101	1048576	60	6586
2026-01-06 14:43:14.31	190.98	46.18	-41.8	-42.8	22.5	0.00e+00	0	33	101	1048576	60	6718
2026-01-06 14:43:15.32	191.08	45.88	-42.4	-43.5	21.9	0.00e+00	0	33	101	1048576	60	7315
2026-01-06 14:43:16.33	191.17	45.57	-42.8	-43.9	21.7	0.00e+00	0	33	101	1048576	60	7635
2026-01-06 14:43:17.34	191.27	45.27	-42.4	-43.5	22.1	0.00e+00	0	33	101	1048576	60	7283
2026-01-06 14:43:18.35	191.36	44.97	-42.8	-44.0	21.6	0.00e+00	0	33	101	1048576	60	7698
2026-01-06 14:43:19.36	191.45	44.67	-41.8	-42.9	22.6	0.00e+00	0	33	101	1048576	60	6794
2026-01-06 14:43:20.37	191.54	44.38	-41.4	-42.4	23.0	0.00e+00	0	33	101	1048576	60	6427
2026-01-06 14:43:21.38	191.63	44.08	-40.4	-41.3	24.1	0.00e+00	0	33	101	1048576	60	5660
2026-01-06 14:43:22.39	191.71	43.79	-39.2	-40.0	25.1	0.00e+00	0	33	101	1048576	58	5465
2026-01-06 14:43:23.40	191.80	43.50	-38.3	-39.1	25.8	0.00e+00	0	33	101	1048576	56	5520
2026-01-06 14:43:24.41	191.88	43.22	-37.8	-38.5	26.3	0.00e+00	0	33	101	1048576	54	5776
2026-01-06 14:43:25.42	191.96	42.93	-37.9	-38.6	26.0	0.00e+00	0	33	101	1048576	54	5848
2026-01-06 14:43:26.43	192.04	42.65	-38.3	-39.0	25.7	0.00e+00	0	33	101	1048576	54	6156
2026-01-06 14:43:27.44	192.12	42.37	-39.2	-40.0	24.8	0.00e+00	0	33	101	1048576	54	6917
2026-01-06 14:43:28.45	192.20	42.09	-40.5	-41.4	23.7	0.00e+00	0	33	101	1048576	58	6436
2026-01-06 14:43:29.46	192.28	41.81	-41.4	-42.5	22.9	0.00e+00	0	33	101	1048576	60	6499
2026-01-06 14:43:30.47	192.35	41.54	-41.7	-42.8	22.7	0.00e+00	0	33	101	1048576	60	6708
2026-01-06 14:43:31.48	192.43	41.27	-41.6	-42.7	22.7	0.00e+00	0	33	101	1048576	60	6651
2026-01-06 14:43:32.50	192.50	40.99	-41.1	-42.0	23.3	0.00e+00	0	33	101	1048576	60	6159
2026-01-06 14:43:33.51	192.57	40.72	-40.7	-41.6	23.7	0.00e+00	0	33	101	1048576	60	5873
2026-01-06 14:43:34.52	192.64	40.46	-40.5	-41.4	23.9	0.00e+00	0	33	101	1048576	60	5738
2026-01-06 14:43:35.52	192.71	40.19	-40.0	-40.8	24.3	0.00e+00	0	33	101	1048576	58	6028
2026-01-06 14:43:36.54	192.78	39.93	-40.0	-40.8	24.3	0.00e+00	0	33	101	1048576	58	6027
2026-01-06 14:43:37.55	192.85	39.67	-40.5	-41.4	23.9	0.00e+00	0	33	101	1048576	58	6393
2026-01-06 14:43:38.56	192.91	39.41	-41.1	-42.0	23.2	0.00e+00	0	33	101	1048576	58	6904
2026-01-06 14:43:39.57	192.98	39.15	-41.8	-42.8	22.5	0.00e+00	0	34	101	1048576	60	6741
2026-01-06 14:43:40.58	193.04	38.90	-42.7	-43.9	21.4	0.00e+00	0	33	101	1048576	60	7676
2026-01-06 14:43:41.59	193.11	38.64	-43.9	-45.3	20.0	0.00e+00	0	34	101	1048576	60	9024
2026-01-06 14:43:42.60	193.17	38.39	-45.0	-46.7	18.8	0.00e+00	0	34	101	1048576	60	10581
2026-01-06 14:43:43.61	193.23	38.14	-45.5	-47.5	18.2	0.00e+00	0	34	101	1048576	60	11512
2026-01-06 14:43:44.62	193.29	37.89	-45.3	-47.1	18.5	0.00e+00	0	33	101	1048576	60	11099
2026-01-06 14:43:45.63	193.35	37.65	-44.3	-45.9	19.7	0.00e+00	0	33	101	1048576	60	9620
2026-01-06 14:43:46.64	193.41	37.40	-43.7	-45.1	20.4	0.00e+00	0	34	101	1048576	60	8750
2026-01-06 14:43:47.65	193.47	37.16	-43.1	-44.4	21.1	0.00e+00	0	34	101	1048576	60	8094
2026-01-06 14:43:48.66	193.53	36.92	-43.1	-44.3	21.2	0.00e+00	0	34	101	1048576	60	7988
2026-01-06 14:43:49.67	193.59	36.68	-42.1	-43.1	22.4	0.00e+00	0	34	101	1048576	60	6978
2026-01-06 14:43:50.68	193.64	36.44	-41.6	-42.6	22.7	0.00e+00	0	33	101	1048576	60	6564
2026-01-06 14:43:51.69	193.70	36.21	-41.4	-42.3	23.0	0.00e+00	0	34	101	1048576	60	6359
2026-01-06 14:43:52.70	193.75	35.97	-41.1	-42.0	23.3	0.00e+00	0	34	101	1048576	60	6152
2026-01-06 14:43:53.71	193.81	35.74	-41.4	-42.4	22.9	0.00e+00	0	34	101	1048576	60	6397
2026-01-06 14:43:54.72	193.86	35.51	-41.9	-42.9	22.4	0.00e+00	0	33	101	1048576	60	6838
2026-01-06 14:43:55.73	193.91	35.28	-42.5	-43.6	21.7	0.00e+00	0	34	101	1048576	60	7398
2026-01-06 14:43:56.74	193.96	35.05	-43.5	-44.8	20.7	0.00e+00	0	34	101	1048576	60	8439
2026-01-06 14:43:57.75	194.01	34.82	-44.6	-46.2	19.5	0.00e+00	0	33	101	1048576	60	9937
2026-01-06 14:43:58.76	194.06	34.60	-45.8	-47.8	17.8	0.00e+00	0	34	101	1048576	60	12002
2026-01-06 14:43:59.77	194.11	34.38	-46.5	-48.9	16.8	0.00e+00	0	34	101	1048576	60	13530
2026-01-06 14:44:00.79	194.16	34.15	-47.0	-49.5	16.2	0.00e+00	0	33	101	1048576	60	14609
2026-01-06 14:44:01.80	194.21	33.93	-46.9	-49.4	16.3	0.00e+00	0	34	101	1048576	60	14319
2026-01-06 14:44:02.81	194.26	33.72	-46.6	-48.9	17.1	0.00e+00	0	34	101	1048576	60	13588
2026-01-06 14:44:03.82	194.31	33.50	-45.9	-47.9	17.7	0.00e+00	0	34	101	1048576	60	12067
2026-01-06 14:44:04.83	194.36	33.28	-45.5	-47.3	18.3	0.00e+00	0	34	101	1048576	60	11309
2026-01-06 14:44:05.84	194.40	33.07	-44.6	-46.1	19.6	0.00e+00	0	34	101	1048576	60	9805
2026-01-06 14:44:06.85	194.45	32.86	-43.9	-45.2	20.4	0.00e+00	0	33	101	1048576	60	8883
2026-01-06 14:44:07.86	194.49	32.65	-43.7	-45.0	20.6	0.00e+00	0	33	101	1048576	60	8692
2026-01-06 14:44:08.87	194.54	32.44	-43.3	-44.5	21.1	0.00e+00	0	33	101	1048576	60	8192
2026-01-06 14:44:09.88	194.58	32.23	-43.3	-44.6	20.9	0.00e+00	0	34	101	1048576	60	8279
2026-01-06 14:44:10.89	194.62	32.02	-43.3	-44.5	21.0	0.00e+00	0	34	101	1048576	60	8215
2026-01-06 14:44:11.90	194.67	31.82	-43.4	-44.6	20.9	0.00e+00	0	33	101	1048576	60	8300
2026-01-06 14:44:12.91	194.71	31.62	-43.5	-44.8	20.8	0.00e+00	0	33	101	1048576	60	8434
2026-01-06 14:44:13.92	194.75	31.41	-43.6	-44.9	20.6	0.00e+00	0	33	101	1048576	60	8563
2026-01-06 14:44:14.93	194.79	31.21	-43.5	-44.8	20.7	0.00e+00	0	33	101	1048576	60	8448
2026-01-06 14:44:15.94	194.84	31.01	-43.6	-44.8	20.7	0.00e+00	0	33	101	1048576	60	8514
2026-01-06 14:44:16.95	194.88	30.82	-43.6	-44.9	20.6	0.00e+00	0	33	101	1048576	60	8538
2026-01-06 14:44:17.96	194.92	30.62	-43.6	-44.9	20.7	0.00e+00	0	33	101	1048576	60	8544
2026-01-06 14:44:18.97	194.96	30.42	-43.6	-44.9	20.7	0.00e+00	0	33	101	1048576	60	8608
2026-01-06 14:44:19.98	195.00	30.23	-43.6	-44.9	20.7	0.00e+00	0	34	101	1048576	60	8544
2026-01-06 14:44:21.00	195.04	30.03	-43.6	-45.0	20.5	0.00e+00	0	34	101	1048576	60	8636
2026-01-06 14:44:22.01	195.07	29.84	-43.6	-45.0	20.6	0.00e+00	0	33	101	1048576	60	8640
2026-01-06 14:44:23.02	195.11	29.65	-43.6	-44.9	20.7	0.00e+00	0	33	101	1048576	60	8546
2026-01-06 14:44:24.03	195.15	29.46	-43.1	-44.4	21.2	0.00e+00	0	33	101	1048576	60	8074
2026-01-06 14:44:25.04	195.19	29.27	-43.0	-44.3	21.2	0.00e+00	0	33	101	1048576	60	7970
2026-01-06 14:44:26.05	195.22	29.09	-42.8	-44.0	21.5	0.00e+00	0	33	101	1048576	60	7727
2026-01-06 14:44:27.06	195.26	28.90	-42.6	-43.8	21.6	0.00e+00	0	34	101	1048576	60	7532
2026-01-06 14:44:28.07	195.30	28.72	-42.3	-43.4	22.1	0.00e+00	0	34	101	1048576	60	7191
2026-01-06 14:44:29.08	195.33	28.54	-42.3	-43.3	22.0	0.00e+00	0	33	101	1048576	60	7161
2026-01-06 14:44:30.09	195.37	28.35	-42.1	-43.1	22.3	0.00e+00	0	34	101	1048576	60	6999
2026-01-06 14:44:31.10	195.40	28.17	-41.7	-42.7	22.6	0.00e+00	0	34	101	1048576	60	6692
2026-01-06 14:44:32.11	195.44	27.99	-41.7	-42.7	22.7	0.00e+00	0	33	101	1048576	60	6667
2026-01-06 14:44:33.12	195.47	27.82	-41.2	-42.1	23.2	0.00e+00	0	33	101	1048576	60	6243
2026-01-06 14:44:34.13	195.51	27.64	-41.1	-42.0	23.3	0.00e+00	0	33	101	1048576	60	6155
2026-01-06 14:44:35.14	195.54	27.46	-40.7	-41.6	23.5	0.00e+00	0	33	101	1048576	60	5843
2026-01-06 14:44:36.15	195.57	27.29	-40.4	-41.3	23.9	0.00e+00	0	33	101	1048576	60	5682
2026-01-06 14:44:37.16	195.61	27.11	-40.6	-41.5	23.7	0.00e+00	0	33	101	1048576	60	5789
2026-01-06 14:44:38.17	195.64	26.94	-40.5	-41.4	23.8	0.00e+00	0	34	101	1048576	60	5710
2026-01-06 14:44:39.19	195.67	26.77	-40.6	-41.5	23.7	0.00e+00	0	33	101	1048576	60	5782
2026-01-06 14:44:40.20	195.70	26.60	-40.6	-41.5	23.7	0.00e+00	0	33	101	1048576	60	5789
2026-01-06 14:44:41.21	195.74	26.43	-40.6	-41.6	23.7	0.00e+00	0	33	101	1048576	60	5834
2026-01-06 14:44:42.22	195.77	26.26	-40.5	-41.5	23.7	0.00e+00	0	34	101	1048576	60	5764
2026-01-06 14:44:43.23	195.80	26.09	-40.7	-41.6	23.6	0.00e+00	0	33	101	1048576	60	5880
2026-01-06 14:44:44.24	195.83	25.92	-40.6	-41.5	23.7	0.00e+00	0	33	101	1048576	60	5789
2026-01-06 14:44:45.25	195.86	25.76	-40.7	-41.6	23.6	0.00e+00	0	33	101	1048576	60	5895
2026-01-06 14:44:46.26	195.89	25.59	-40.7	-41.6	23.4	0.00e+00	0	33	101	1048576	60	5896
2026-01-06 14:44:47.27	195.92	25.43	-40.5	-41.4	23.8	0.00e+00	0	33	101	1048576	60	5750
2026-01-06 14:44:48.27	195.95	25.27	-40.6	-41.6	23.7	0.00e+00	0	33	101	1048576	60	5851
2026-01-06 14:44:49.28	195.98	25.11	-40.5	-41.4	23.8	0.00e+00	0	33	101	1048576	60	5742
2026-01-06 14:44:50.29	196.01	24.95	-40.2	-41.1	24.0	0.00e+00	0	33	101	1048576	60	5558
2026-01-06 14:44:51.30	196.04	24.79	-40.3	-41.1	24.0	0.00e+00	0	33	101	1048576	60	5563
2026-01-06 14:44:52.31	196.07	24.63	-40.2	-41.1	24.1	0.00e+00	0	33	101	1048576	60	5506
2026-01-06 14:44:53.32	196.10	24.47	-39.8	-40.7	24.4	0.00e+00	0	33	101	1048576	58	5899
2026-01-06 14:44:54.33	196.12	24.32	-39.5	-40.3	24.6	0.00e+00	0	33	101	1048576	58	5659
2026-01-06 14:44:55.33	196.15	24.16	-39.4	-40.3	24.6	0.00e+00	0	33	101	1048576	58	5651
2026-01-06 14:44:56.34	196.18	24.01	-39.3	-40.1	24.8	0.00e+00	0	34	101	1048576	58	5533
2026-01-06 14:44:57.35	196.21	23.85	-39.2	-40.1	24.8	0.00e+00	0	33	101	1048576	58	5515
2026-01-06 14:44:58.36	196.24	23.70	-39.3	-40.1	24.7	0.00e+00	0	33	101	1048576	58	5549
2026-01-06 14:44:59.36	196.26	23.55	-39.2	-40.0	24.8	0.00e+00	0	33	101	1048576	58	5473
2026-01-06 14:45:00.37	196.29	23.40	-39.1	-39.9	25.0	0.00e+00	0	33	101	1048576	56	6051
2026-01-06 14:45:01.38	196.32	23.25	-39.1	-39.9	24.8	0.00e+00	0	33	101	1048576	56	6076
2026-01-06 14:45:02.39	196.34	23.10	-39.2	-40.0	24.9	0.00e+00	0	33	101	1048576	56	6164
2026-01-06 14:45:03.40	196.37	22.95	-39.2	-40.0	24.6	0.00e+00	0	33	101	1048576	56	6139
2026-01-06 14:45:04.41	196.39	22.80	-39.3	-40.1	24.7	0.00e+00	0	33	101	1048576	56	6225
2026-01-06 14:45:05.42	196.42	22.66	-39.2	-40.0	24.9	0.00e+00	0	33	101	1048576	56	6113
2026-01-06 14:45:06.43	196.45	22.51	-39.3	-40.1	24.8	0.00e+00	0	33	101	1048576	56	6204
2026-01-06 14:45:07.44	196.47	22.36	-39.4	-40.2	24.7	0.00e+00	0	34	101	1048576	56	6298
2026-01-06 14:45:08.45	196.50	22.22	-39.5	-40.3	24.6	0.00e+00	0	33	101	1048576	56	6371
2026-01-06 14:45:09.45	196.52	22.08	-39.6	-40.5	24.5	0.00e+00	0	33	101	1048576	56	6488
2026-01-06 14:45:10.47	196.55	21.93	-39.5	-40.4	24.6	0.00e+00	0	33	101	1048576	56	6406
2026-01-06 14:45:11.48	196.57	21.79	-39.7	-40.5	24.4	0.00e+00	0	33	101	1048576	56	6533
2026-01-06 14:45:12.49	196.60	21.65	-39.8	-40.6	24.3	0.00e+00	0	33	101	1048576	56	6610
2026-01-06 14:45:13.49	196.62	21.51	-39.8	-40.7	24.3	0.00e+00	0	33	101	1048576	56	6662
2026-01-06 14:45:14.50	196.64	21.37	-40.0	-40.9	24.1	0.00e+00	0	33	101	1048576	56	6797
2026-01-06 14:45:15.51	196.67	21.23	-40.0	-40.8	24.1	0.00e+00	0	33	101	1048576	56	6768
2026-01-06 14:45:16.52	196.69	21.09	-40.1	-41.0	24.0	0.00e+00	0	33	101	1048576	56	6852
2026-01-06 14:45:17.53	196.71	20.96	-40.1	-40.9	24.1	0.00e+00	0	33	101	1048576	58	6095
2026-01-06 14:45:18.54	196.74	20.82	-40.0	-40.9	24.0	0.00e+00	0	33	101	1048576	58	6059
2026-01-06 14:45:19.54	196.76	20.68	-40.1	-41.0	24.0	0.00e+00	0	33	101	1048576	58	6107
2026-01-06 14:45:20.55	196.78	20.55	-40.1	-41.0	24.0	0.00e+00	0	33	101	1048576	58	6129
2026-01-06 14:45:21.56	196.81	20.41	-40.2	-41.1	23.9	0.00e+00	0	33	101	1048576	58	6203
2026-01-06 14:45:22.57	196.83	20.28	-40.1	-41.0	24.0	0.00e+00	0	33	101	1048576	58	6148
2026-01-06 14:45:23.57	196.85	20.15	-40.2	-41.1	23.9	0.00e+00	0	33	101	1048576	58	6220
2026-01-06 14:45:24.58	196.87	20.02	-40.3	-41.2	23.8	0.00e+00	0	33	101	1048576	58	6256
2026-01-06 14:45:25.59	196.90	19.88	-40.4	-41.4	23.7	0.00e+00	0	33	101	1048576	58	6395
2026-01-06 14:45:26.60	196.92	19.75	-40.3	-41.2	23.8	0.00e+00	0	33	101	1048576	58	6291
2026-01-06 14:45:27.61	196.94	19.62	-40.2	-41.1	23.9	0.00e+00	0	33	101	1048576	58	6199
