passes_logs/2026/01/06/R4.6S_Anadyr_2ch/R4.6S_Anadyr_2ch__20260106_205051_SUOMI_NPP_rec.log

#Pass ID: 20260106_205051_SUOMI NPP
#Satellite: SUOMI NPP
#Configuration: NPP
#almurnet v.1.7.20251203
#Start time: 2026-01-06 20:50:51

#Version: 2.2.20231116
#Station: R4.6S_Anadyr_2ch
#Location: 177.4865 lon 64.73178 lat
#TLE: 1 37849U 11061A   25350.92281687  .00000071  00000+0  54882-4 0  9996
#TLE: 2 37849  98.7777 288.2268 0002366 112.8570 247.2856 14.19515404732588

#Time	Az	El	Level	Level2	SNR	BER	BlckErr	Temp	State	Recorded	gain1	gain2
2026-01-06 20:50:51.77	76.70	0.03	-51.0	-62.0	3.5	8.45e-01	0	29	0	0	60	61756
2026-01-06 20:50:52.77	76.63	0.08	-51.4	-66.7	3.6	1.51e+00	0	30	104	0	60	105275
2026-01-06 20:50:53.78	76.56	0.13	-51.4	-66.7	3.6	1.51e+00	0	30	104	0	60	105163
2026-01-06 20:50:54.79	76.49	0.18	-51.4	-66.7	3.6	1.51e+00	0	30	104	0	60	105455
2026-01-06 20:50:55.80	76.42	0.23	-51.4	-66.7	3.6	1.51e+00	0	30	104	0	60	105506
2026-01-06 20:50:56.81	76.35	0.29	-51.4	-66.7	3.5	1.51e+00	0	30	104	0	60	105987
2026-01-06 20:50:57.82	76.28	0.34	-51.4	-66.7	3.6	1.51e+00	0	30	104	0	60	105190
2026-01-06 20:50:58.83	76.21	0.39	-51.4	-66.7	3.6	1.51e+00	0	30	104	0	60	105357
2026-01-06 20:50:59.84	76.14	0.44	-51.4	-66.7	3.6	1.51e+00	0	30	104	0	60	105146
2026-01-06 20:51:00.85	76.07	0.49	-51.4	-66.7	3.6	1.51e+00	0	30	104	0	60	105371
2026-01-06 20:51:01.87	75.99	0.54	-51.4	-66.7	3.6	1.51e+00	0	30	104	0	60	105920
2026-01-06 20:51:02.88	75.92	0.59	-51.4	-66.7	3.6	1.51e+00	0	30	104	0	60	105330
2026-01-06 20:51:03.89	75.85	0.65	-51.4	-66.7	3.6	1.51e+00	0	30	104	0	60	105034
2026-01-06 20:51:04.90	75.78	0.70	-51.4	-66.7	3.6	1.51e+00	0	30	104	0	60	105350
2026-01-06 20:51:05.91	75.70	0.75	-51.4	-66.7	3.6	1.51e+00	0	30	104	0	60	105065
2026-01-06 20:51:06.92	75.63	0.80	-51.4	-66.7	3.6	1.51e+00	0	30	104	0	60	105597
2026-01-06 20:51:07.93	75.56	0.85	-51.4	-66.7	3.6	1.51e+00	0	30	104	0	60	105033
2026-01-06 20:51:08.94	75.48	0.91	-51.4	-66.7	3.6	1.51e+00	0	30	104	0	60	105523
2026-01-06 20:51:09.95	75.41	0.96	-51.4	-66.6	3.6	1.51e+00	0	30	104	0	60	104714
2026-01-06 20:51:10.96	75.33	1.01	-51.4	-66.7	3.5	1.51e+00	0	30	104	0	60	105773
2026-01-06 20:51:11.98	75.26	1.06	-51.4	-66.7	3.6	1.51e+00	0	30	104	0	60	105677
2026-01-06 20:51:12.99	75.18	1.11	-51.4	-66.7	3.6	1.51e+00	0	30	104	0	60	105181
2026-01-06 20:51:14.00	75.11	1.17	-51.4	-66.7	3.6	1.51e+00	0	30	104	0	60	105636
2026-01-06 20:51:15.01	75.03	1.22	-51.4	-66.7	3.6	1.51e+00	0	30	104	0	60	104870
2026-01-06 20:51:16.02	74.96	1.27	-51.4	-66.7	3.6	1.51e+00	0	30	104	0	60	104906
2026-01-06 20:51:17.03	74.88	1.32	-51.4	-66.7	3.6	1.51e+00	0	30	104	0	60	105001
2026-01-06 20:51:18.04	74.80	1.37	-51.4	-66.7	3.6	1.51e+00	0	31	104	0	60	105495
2026-01-06 20:51:19.05	74.73	1.43	-51.4	-66.7	3.6	1.51e+00	0	30	104	0	60	105133
2026-01-06 20:51:20.06	74.65	1.48	-51.4	-66.7	3.6	1.51e+00	0	30	104	0	60	105685
2026-01-06 20:51:21.08	74.57	1.53	-51.4	-66.7	3.6	1.51e+00	0	30	104	0	60	105824
2026-01-06 20:51:22.09	74.50	1.58	-51.4	-66.7	3.6	1.51e+00	0	30	104	0	60	105372
2026-01-06 20:51:23.10	74.42	1.64	-51.4	-66.7	3.6	1.51e+00	0	31	104	0	60	105246
2026-01-06 20:51:24.11	74.34	1.69	-51.4	-66.7	3.6	1.51e+00	0	30	104	0	60	105663
2026-01-06 20:51:25.12	74.26	1.74	-51.4	-66.7	3.6	1.51e+00	0	30	104	0	60	105553
2026-01-06 20:51:26.13	74.18	1.79	-51.4	-66.7	3.6	1.51e+00	0	31	104	0	60	105449
2026-01-06 20:51:27.14	74.10	1.85	-51.4	-66.7	3.6	1.51e+00	0	31	104	0	60	105398
2026-01-06 20:51:28.15	74.03	1.90	-51.4	-66.7	3.6	1.51e+00	0	31	104	0	60	105480
2026-01-06 20:51:29.16	73.95	1.95	-51.4	-66.7	3.6	1.51e+00	0	31	104	0	60	105700
2026-01-06 20:51:30.17	73.87	2.01	-51.4	-66.7	3.6	1.51e+00	0	31	104	0	60	105494
2026-01-06 20:51:31.18	73.79	2.06	-51.4	-66.7	3.6	1.51e+00	0	31	104	0	60	105726
2026-01-06 20:51:32.19	73.71	2.11	-51.4	-66.7	3.6	1.51e+00	0	31	104	0	60	105588
2026-01-06 20:51:33.20	73.63	2.16	-51.4	-66.7	3.6	1.51e+00	0	31	104	0	60	105233
2026-01-06 20:51:34.21	73.54	2.22	-51.4	-66.7	3.6	1.51e+00	0	31	104	0	60	105497
2026-01-06 20:51:35.23	73.46	2.27	-51.4	-66.7	3.6	1.51e+00	0	31	104	0	60	104936
2026-01-06 20:51:36.24	73.38	2.32	-51.4	-66.7	3.6	1.51e+00	0	31	104	0	60	105366
2026-01-06 20:51:37.25	73.30	2.38	-51.4	-66.7	3.6	1.51e+00	0	31	104	0	60	105337
2026-01-06 20:51:38.26	73.22	2.43	-51.4	-66.7	3.6	1.51e+00	0	31	104	0	60	105186
2026-01-06 20:51:39.27	73.13	2.48	-51.4	-66.7	3.6	1.51e+00	0	31	104	0	60	104948
2026-01-06 20:51:40.28	73.05	2.54	-51.4	-66.7	3.6	1.51e+00	0	31	104	0	60	105112
2026-01-06 20:51:41.29	72.97	2.59	-51.4	-66.7	3.6	1.51e+00	0	31	104	0	60	105117
2026-01-06 20:51:42.30	72.89	2.64	-51.4	-66.7	3.6	1.51e+00	0	31	104	0	60	104946
2026-01-06 20:51:43.31	72.80	2.70	-51.4	-66.7	3.6	1.51e+00	0	31	104	0	60	105522
2026-01-06 20:51:44.32	72.72	2.75	-51.4	-66.7	3.6	1.51e+00	0	31	104	0	60	105003
2026-01-06 20:51:45.34	72.63	2.80	-51.4	-66.7	3.6	1.51e+00	0	31	104	0	60	105274
2026-01-06 20:51:46.35	72.55	2.86	-51.4	-66.7	3.6	1.51e+00	0	31	104	0	60	105386
2026-01-06 20:51:47.36	72.46	2.91	-51.4	-66.7	3.6	1.51e+00	0	31	104	0	60	105093
2026-01-06 20:51:48.37	72.38	2.96	-51.4	-66.7	3.6	1.51e+00	0	31	104	0	60	105118
2026-01-06 20:51:49.38	72.29	3.02	-51.4	-66.7	3.6	1.51e+00	0	31	104	0	60	104873
2026-01-06 20:51:50.39	72.21	3.07	-51.4	-66.7	3.6	1.51e+00	0	31	104	0	60	105295
2026-01-06 20:51:51.40	72.12	3.13	-51.4	-66.7	3.6	1.51e+00	0	31	104	0	60	105387
2026-01-06 20:51:52.41	72.03	3.18	-51.4	-66.7	3.6	1.51e+00	0	31	104	0	60	105303
2026-01-06 20:51:53.42	71.95	3.23	-51.4	-66.7	3.6	1.51e+00	0	31	104	0	60	105363
2026-01-06 20:51:54.43	71.86	3.29	-51.4	-66.7	3.6	1.51e+00	0	31	104	0	60	105301
2026-01-06 20:51:55.44	71.77	3.34	-51.4	-66.7	3.6	1.51e+00	0	31	104	0	60	105251
2026-01-06 20:51:56.45	71.68	3.39	-51.4	-66.7	3.6	1.51e+00	0	31	104	0	60	105582
2026-01-06 20:51:57.46	71.60	3.45	-51.4	-66.7	3.6	1.51e+00	0	31	104	0	60	105465
2026-01-06 20:51:58.48	71.51	3.50	-51.4	-66.7	3.5	1.51e+00	0	31	104	0	60	105638
2026-01-06 20:51:59.49	71.42	3.56	-51.4	-66.7	3.6	1.51e+00	0	31	104	0	60	105584
2026-01-06 20:52:00.50	71.33	3.61	-51.4	-66.7	3.6	1.51e+00	0	31	104	0	60	105104
2026-01-06 20:52:01.51	71.24	3.67	-51.4	-66.7	3.6	1.51e+00	0	31	104	0	60	105427
2026-01-06 20:52:02.52	71.15	3.72	-51.4	-66.7	3.6	1.51e+00	0	31	104	0	60	105501
2026-01-06 20:52:03.53	71.06	3.77	-51.4	-66.7	3.6	1.51e+00	0	31	104	0	60	105576
2026-01-06 20:52:04.54	70.97	3.83	-51.4	-66.7	3.6	1.51e+00	0	31	104	0	60	105578
2026-01-06 20:52:05.55	70.88	3.88	-51.4	-66.7	3.6	1.51e+00	0	31	104	0	60	105519
2026-01-06 20:52:06.56	70.79	3.94	-51.4	-66.7	3.6	1.51e+00	0	31	104	0	60	105054
2026-01-06 20:52:07.57	70.69	3.99	-51.4	-66.7	3.6	1.51e+00	0	31	104	0	60	105005
2026-01-06 20:52:08.59	70.60	4.05	-51.4	-66.7	3.6	1.51e+00	0	31	104	0	60	105164
2026-01-06 20:52:09.60	70.51	4.10	-51.4	-66.7	3.6	1.51e+00	0	31	104	0	60	105101
2026-01-06 20:52:10.61	70.42	4.16	-51.4	-66.7	3.6	1.51e+00	0	31	104	0	60	105514
2026-01-06 20:52:11.62	70.32	4.21	-51.4	-66.7	3.6	1.51e+00	0	31	104	0	60	105043
2026-01-06 20:52:12.63	70.23	4.26	-51.4	-66.7	3.6	1.51e+00	0	31	104	0	60	105822
2026-01-06 20:52:13.64	70.14	4.32	-51.4	-66.7	3.6	1.51e+00	0	31	104	0	60	105243
2026-01-06 20:52:14.65	70.04	4.37	-51.4	-66.7	3.6	1.51e+00	0	31	104	0	60	105643
2026-01-06 20:52:15.66	69.95	4.43	-51.4	-66.7	3.6	1.51e+00	0	31	104	0	60	105390
2026-01-06 20:52:16.68	69.85	4.48	-51.4	-66.7	3.6	1.51e+00	0	31	104	0	60	105321
2026-01-06 20:52:17.69	69.76	4.54	-51.4	-66.7	3.6	1.51e+00	0	31	104	0	60	105443
2026-01-06 20:52:18.70	69.66	4.59	-51.4	-66.7	3.6	1.51e+00	0	31	104	0	60	104976
2026-01-06 20:52:19.71	69.56	4.65	-51.4	-66.7	3.6	1.51e+00	0	31	104	0	60	105162
2026-01-06 20:52:20.72	69.47	4.70	-51.4	-66.7	3.6	1.51e+00	0	31	104	0	60	105678
2026-01-06 20:52:21.73	69.37	4.76	-51.4	-66.7	3.6	1.51e+00	0	31	104	0	60	105260
2026-01-06 20:52:22.74	69.27	4.81	-51.4	-66.7	3.6	1.51e+00	0	31	104	0	60	105298
2026-01-06 20:52:23.75	69.18	4.87	-51.4	-66.7	3.6	1.51e+00	0	31	104	0	60	105212
2026-01-06 20:52:24.76	69.08	4.92	-51.4	-66.7	3.6	1.51e+00	0	31	104	0	60	105540
2026-01-06 20:52:25.77	68.98	4.98	-51.4	-66.7	3.6	1.51e+00	0	31	104	0	60	105728
2026-01-06 20:52:26.78	68.88	5.03	-51.4	-66.7	3.6	1.51e+00	0	31	104	0	60	104943
2026-01-06 20:52:27.79	68.78	5.09	-51.4	-66.7	3.6	1.51e+00	0	31	104	0	60	105927
2026-01-06 20:52:28.80	68.68	5.14	-51.4	-66.7	3.6	1.51e+00	0	31	104	0	60	105035
2026-01-06 20:52:29.82	68.58	5.20	-51.4	-66.7	3.6	1.51e+00	0	31	104	0	60	105630
2026-01-06 20:52:30.83	68.48	5.25	-51.4	-66.7	3.6	1.51e+00	0	31	104	0	60	105070
2026-01-06 20:52:31.84	68.38	5.31	-51.4	-66.7	3.6	1.51e+00	0	31	104	0	60	104938
2026-01-06 20:52:32.85	68.28	5.37	-51.4	-66.7	3.5	1.51e+00	0	31	104	0	60	105105
2026-01-06 20:52:33.86	68.18	5.42	-51.4	-66.6	3.6	1.51e+00	0	31	104	0	60	104810
2026-01-06 20:52:34.87	68.08	5.48	-51.4	-66.7	3.6	1.51e+00	0	31	104	0	60	105211
2026-01-06 20:52:35.88	67.97	5.53	-51.4	-66.7	3.6	1.51e+00	0	31	104	0	60	105632
2026-01-06 20:52:36.89	67.87	5.59	-51.4	-66.7	3.6	1.51e+00	0	31	104	0	60	105678
2026-01-06 20:52:37.90	67.77	5.64	-51.4	-66.7	3.6	1.51e+00	0	31	104	0	60	105190
2026-01-06 20:52:38.91	67.67	5.70	-51.4	-66.7	3.6	1.51e+00	0	31	104	0	60	105709
2026-01-06 20:52:39.92	67.56	5.75	-51.4	-66.7	3.6	1.51e+00	0	31	104	0	60	105674
2026-01-06 20:52:40.93	67.46	5.81	-51.4	-66.7	3.6	1.51e+00	0	31	104	0	60	105007
2026-01-06 20:52:41.94	67.35	5.86	-51.4	-66.7	3.6	1.51e+00	0	31	104	0	60	105185
2026-01-06 20:52:42.95	67.25	5.92	-51.4	-66.7	3.6	1.51e+00	0	31	104	0	60	105033
2026-01-06 20:52:43.96	67.14	5.98	-51.4	-66.7	3.6	1.51e+00	0	31	104	0	60	105130
2026-01-06 20:52:44.98	67.04	6.03	-51.4	-66.8	3.6	1.51e+00	0	31	104	0	60	106120
2026-01-06 20:52:45.99	66.93	6.09	-51.4	-66.7	3.6	1.51e+00	0	31	104	0	60	104851
2026-01-06 20:52:47.00	66.82	6.14	-51.4	-66.7	3.6	1.51e+00	0	31	104	0	60	105520
2026-01-06 20:52:48.01	66.72	6.20	-51.4	-66.7	3.6	1.51e+00	0	31	104	0	60	105405
2026-01-06 20:52:49.02	66.61	6.26	-51.4	-66.7	3.6	1.51e+00	0	31	104	0	60	105541
2026-01-06 20:52:50.03	66.50	6.31	-51.4	-66.7	3.6	1.51e+00	0	31	104	0	60	105385
2026-01-06 20:52:51.04	66.39	6.37	-51.4	-66.7	3.6	1.51e+00	0	31	104	0	60	105656
2026-01-06 20:52:52.05	66.28	6.42	-51.4	-66.6	3.6	1.51e+00	0	31	104	0	60	104765
2026-01-06 20:52:53.06	66.17	6.48	-51.4	-66.7	3.6	1.51e+00	0	31	104	0	60	105399
2026-01-06 20:52:54.08	66.06	6.53	-51.4	-66.7	3.6	1.51e+00	0	31	104	0	60	105580
2026-01-06 20:52:55.09	65.95	6.59	-51.4	-66.7	3.6	1.51e+00	0	31	104	0	60	105404
2026-01-06 20:52:56.10	65.84	6.65	-51.4	-66.7	3.6	1.51e+00	0	31	104	0	60	105341
2026-01-06 20:52:57.11	65.73	6.70	-51.4	-66.7	3.6	1.51e+00	0	31	104	0	60	105531
2026-01-06 20:52:58.12	65.62	6.76	-51.4	-66.7	3.6	1.51e+00	0	31	104	0	60	104979
2026-01-06 20:52:59.13	65.51	6.81	-51.4	-66.7	3.6	1.51e+00	0	31	104	0	60	105234
2026-01-06 20:53:00.14	65.40	6.87	-51.4	-66.7	3.6	1.51e+00	0	31	104	0	60	105200
2026-01-06 20:53:01.15	65.28	6.93	-51.4	-66.7	3.6	1.51e+00	0	31	104	0	60	105340
2026-01-06 20:53:02.16	65.17	6.98	-51.4	-66.6	3.6	1.51e+00	0	32	104	0	60	104790
2026-01-06 20:53:03.17	65.06	7.04	-51.4	-66.6	3.6	1.51e+00	0	31	104	0	60	104576
2026-01-06 20:53:04.18	64.94	7.09	-51.4	-66.7	3.6	1.51e+00	0	31	104	0	60	105584
2026-01-06 20:53:05.20	64.83	7.15	-51.4	-66.7	3.6	1.51e+00	0	31	104	0	60	104920
2026-01-06 20:53:06.21	64.71	7.21	-51.4	-66.6	3.6	1.51e+00	0	31	104	0	60	104782
2026-01-06 20:53:07.22	64.60	7.26	-51.4	-66.6	3.6	1.51e+00	0	31	104	0	60	104731
2026-01-06 20:53:08.23	64.48	7.32	-51.4	-66.7	3.6	1.51e+00	0	31	104	0	60	105311
2026-01-06 20:53:09.24	64.36	7.38	-51.4	-66.7	3.6	1.51e+00	0	31	104	0	60	105883
2026-01-06 20:53:10.25	64.25	7.43	-51.4	-66.7	3.6	1.51e+00	0	31	104	0	60	104993
2026-01-06 20:53:11.26	64.13	7.49	-51.4	-66.7	3.6	1.51e+00	0	31	104	0	60	105591
2026-01-06 20:53:12.27	64.01	7.54	-51.4	-66.7	3.6	1.51e+00	0	31	104	0	60	105314
2026-01-06 20:53:13.28	63.89	7.60	-51.4	-66.7	3.6	1.51e+00	0	31	104	0	60	105066
2026-01-06 20:53:14.29	63.78	7.66	-51.4	-66.7	3.6	1.51e+00	0	31	104	0	60	105807
2026-01-06 20:53:15.30	63.66	7.71	-51.4	-66.7	3.6	1.51e+00	0	31	104	0	60	105414
2026-01-06 20:53:16.31	63.54	7.77	-51.4	-66.7	3.6	1.51e+00	0	31	104	0	60	104936
2026-01-06 20:53:17.32	63.42	7.83	-51.4	-66.7	3.6	1.51e+00	0	31	104	0	60	105459
2026-01-06 20:53:18.33	63.30	7.88	-51.4	-66.7	3.6	1.51e+00	0	31	104	0	60	105620
2026-01-06 20:53:19.35	63.17	7.94	-51.4	-66.7	3.5	1.51e+00	0	31	104	0	60	105041
2026-01-06 20:53:20.36	63.05	7.99	-51.4	-66.7	3.6	1.51e+00	0	31	104	0	60	105083
2026-01-06 20:53:21.37	62.93	8.05	-51.4	-66.7	3.6	1.51e+00	0	31	104	0	60	105260
2026-01-06 20:53:22.38	62.81	8.11	-51.4	-66.7	3.6	1.51e+00	0	31	104	0	60	105009
2026-01-06 20:53:23.39	62.68	8.16	-51.4	-66.6	3.6	1.51e+00	0	32	104	0	60	104828
2026-01-06 20:53:24.40	62.56	8.22	-51.4	-66.7	3.6	1.51e+00	0	31	104	0	60	105318
2026-01-06 20:53:25.41	62.44	8.28	-51.4	-66.7	3.6	1.51e+00	0	32	104	0	60	105397
2026-01-06 20:53:26.42	62.31	8.33	-51.4	-66.7	3.6	1.51e+00	0	31	104	0	60	105088
2026-01-06 20:53:27.43	62.19	8.39	-51.4	-66.7	3.6	1.51e+00	0	31	104	0	60	104895
2026-01-06 20:53:28.44	62.06	8.44	-51.4	-66.7	3.6	1.51e+00	0	31	104	0	60	105278
2026-01-06 20:53:29.45	61.94	8.50	-51.4	-66.7	3.6	1.51e+00	0	31	104	0	60	105797
2026-01-06 20:53:30.46	61.81	8.56	-51.4	-66.7	3.6	1.51e+00	0	31	104	0	60	104878
2026-01-06 20:53:31.47	61.68	8.61	-51.4	-66.7	3.6	1.51e+00	0	31	104	0	60	104880
2026-01-06 20:53:32.48	61.56	8.67	-51.4	-66.7	3.6	1.51e+00	0	31	104	0	60	104994
2026-01-06 20:53:33.49	61.43	8.72	-51.4	-66.7	3.5	1.51e+00	0	31	104	0	60	105428
2026-01-06 20:53:34.51	61.30	8.78	-51.4	-66.7	3.6	1.51e+00	0	31	104	0	60	105163
2026-01-06 20:53:35.52	61.17	8.84	-51.4	-66.7	3.6	1.51e+00	0	31	104	0	60	105024
2026-01-06 20:53:36.53	61.04	8.89	-51.4	-66.7	3.6	1.51e+00	0	31	104	0	60	105171
2026-01-06 20:53:37.54	60.91	8.95	-51.4	-66.7	3.6	1.51e+00	0	31	104	0	60	105473
2026-01-06 20:53:38.55	60.78	9.01	-51.4	-66.7	3.6	1.51e+00	0	31	104	0	60	104992
2026-01-06 20:53:39.56	60.65	9.06	-51.4	-66.6	3.6	1.51e+00	0	31	104	0	60	104726
2026-01-06 20:53:40.57	60.52	9.12	-51.4	-66.7	3.6	1.51e+00	0	31	104	0	60	105315
2026-01-06 20:53:41.58	60.39	9.17	-51.4	-66.6	3.6	1.51e+00	0	31	104	0	60	104841
2026-01-06 20:53:42.59	60.25	9.23	-51.4	-66.7	3.6	1.51e+00	0	31	104	0	60	105282
2026-01-06 20:53:43.60	60.12	9.29	-51.4	-66.7	3.6	1.51e+00	0	31	104	0	60	105124
2026-01-06 20:53:44.62	59.98	9.34	-51.4	-66.7	3.6	1.51e+00	0	31	104	0	60	104970
2026-01-06 20:53:45.63	59.85	9.40	-51.4	-66.7	3.6	1.51e+00	0	31	104	0	60	105274
2026-01-06 20:53:46.64	59.72	9.45	-51.4	-66.7	3.6	1.51e+00	0	31	104	0	60	105839
2026-01-06 20:53:47.65	59.58	9.51	-51.4	-66.7	3.6	1.51e+00	0	31	104	0	60	105107
2026-01-06 20:53:48.66	59.45	9.57	-51.4	-66.6	3.6	1.51e+00	0	31	104	0	60	104626
2026-01-06 20:53:49.67	59.31	9.62	-51.4	-66.7	3.6	1.51e+00	0	31	104	0	60	105505
2026-01-06 20:53:50.68	59.17	9.68	-51.4	-66.7	3.6	1.51e+00	0	31	104	0	60	104871
2026-01-06 20:53:51.69	59.04	9.73	-51.4	-66.7	3.6	1.51e+00	0	31	104	0	60	105353
2026-01-06 20:53:52.70	58.90	9.79	-51.4	-66.7	3.6	1.51e+00	0	31	104	0	60	104877
2026-01-06 20:53:53.71	58.76	9.84	-51.4	-66.7	3.5	1.51e+00	0	31	104	0	60	105148
2026-01-06 20:53:54.72	58.62	9.90	-51.4	-66.6	3.6	1.51e+00	0	32	104	0	60	104822
2026-01-06 20:53:55.74	58.48	9.96	-51.4	-66.7	3.6	1.51e+00	0	32	104	0	60	105062
2026-01-06 20:53:56.75	58.34	10.01	-51.4	-66.6	3.6	1.51e+00	0	31	104	0	60	104847
2026-01-06 20:53:57.76	58.20	10.07	-51.4	-66.6	3.6	1.51e+00	0	31	104	0	60	104363
2026-01-06 20:53:58.77	58.06	10.12	-51.4	-66.7	3.6	1.51e+00	0	31	104	0	60	105243
2026-01-06 20:53:59.78	57.92	10.18	-51.4	-66.7	3.6	1.51e+00	0	31	104	0	60	105122
2026-01-06 20:54:00.79	57.77	10.23	-51.4	-66.7	3.6	1.51e+00	0	31	104	0	60	105260
2026-01-06 20:54:01.80	57.63	10.29	-51.4	-66.7	3.6	1.51e+00	0	32	104	0	60	104971
2026-01-06 20:54:02.81	57.49	10.34	-51.4	-66.7	3.6	1.51e+00	0	31	104	0	60	105377
2026-01-06 20:54:03.82	57.34	10.40	-51.4	-66.7	3.6	1.51e+00	0	32	104	0	60	105100
2026-01-06 20:54:04.83	57.20	10.45	-51.4	-66.7	3.6	1.51e+00	0	32	104	0	60	105663
2026-01-06 20:54:05.84	57.06	10.51	-51.4	-66.7	3.6	1.51e+00	0	31	104	0	60	105159
2026-01-06 20:54:06.85	56.91	10.56	-51.4	-66.7	3.6	1.51e+00	0	31	104	0	60	105122
2026-01-06 20:54:07.86	56.76	10.62	-51.4	-66.7	3.6	1.51e+00	0	31	104	0	60	105597
2026-01-06 20:54:08.87	56.62	10.67	-51.4	-66.7	3.6	1.51e+00	0	32	104	0	60	105301
2026-01-06 20:54:09.88	56.47	10.73	-51.4	-66.7	3.6	1.51e+00	0	31	104	0	60	105915
2026-01-06 20:54:10.89	56.32	10.78	-51.4	-66.7	3.6	1.51e+00	0	31	104	0	60	104977
2026-01-06 20:54:11.71	56.20	10.83	-51.4	-66.7	3.6	1.51e+00	0	31	104	0	60	105042
2026-01-06 20:54:12.86	56.03	10.89	-51.4	-66.7	3.6	1.51e+00	0	31	104	0	60	105445
2026-01-06 20:54:13.73	55.90	10.94	-51.4	-66.7	3.6	1.51e+00	0	31	104	0	60	105542
2026-01-06 20:54:14.89	55.73	11.00	-51.4	-66.6	3.6	1.51e+00	0	32	104	0	60	104767
2026-01-06 20:54:15.75	55.60	11.05	-51.4	-66.7	3.5	1.51e+00	0	31	104	0	60	105596
2026-01-06 20:54:16.91	55.43	11.11	-51.4	-66.7	3.6	1.51e+00	0	31	104	0	60	104998
2026-01-06 20:54:17.77	55.30	11.16	-51.4	-66.7	3.6	1.51e+00	0	32	104	0	60	104981
2026-01-06 20:54:18.93	55.13	11.22	-51.4	-66.7	3.6	1.51e+00	0	32	104	0	60	104916
2026-01-06 20:54:19.80	54.99	11.27	-51.4	-66.7	3.6	1.51e+00	0	32	104	0	60	104990
2026-01-06 20:54:20.95	54.82	11.33	-51.4	-66.6	3.6	1.51e+00	0	32	104	0	60	104766
2026-01-06 20:54:21.82	54.69	11.37	-51.4	-66.7	3.6	1.51e+00	0	32	104	0	60	105124
2026-01-06 20:54:22.97	54.51	11.43	-51.4	-66.7	3.6	1.51e+00	0	31	104	0	60	105183
2026-01-06 20:54:23.84	54.38	11.48	-51.4	-66.6	3.6	1.51e+00	0	32	104	0	60	104775
2026-01-06 20:54:24.99	54.20	11.54	-51.4	-66.7	3.6	1.51e+00	0	31	104	0	60	105075
2026-01-06 20:54:25.86	54.07	11.59	-51.4	-66.7	3.6	1.51e+00	0	32	104	0	60	105604
2026-01-06 20:54:27.02	53.89	11.65	-51.4	-66.6	3.6	1.51e+00	0	32	104	0	60	104845
2026-01-06 20:54:27.88	53.75	11.70	-51.4	-66.7	3.6	1.51e+00	0	32	104	0	60	105120
2026-01-06 20:54:29.04	53.57	11.76	-51.4	-66.7	3.6	1.51e+00	0	32	104	0	60	105292
2026-01-06 20:54:29.90	53.44	11.80	-51.4	-66.7	3.6	1.51e+00	0	31	104	0	60	105414
2026-01-06 20:54:31.06	53.25	11.86	-51.4	-66.7	3.6	1.51e+00	0	31	104	0	60	105102
2026-01-06 20:54:31.92	53.12	11.91	-51.4	-66.7	3.6	1.51e+00	0	31	104	0	60	105408
2026-01-06 20:54:33.07	52.93	11.97	-51.4	-66.7	3.6	1.51e+00	0	31	104	0	60	105224
2026-01-06 20:54:33.94	52.80	12.01	-51.4	-66.7	3.6	1.51e+00	0	31	104	0	60	105166
2026-01-06 20:54:35.09	52.61	12.07	-51.4	-66.6	3.6	1.51e+00	0	32	104	0	60	104839
2026-01-06 20:54:35.96	52.47	12.12	-51.4	-66.7	3.6	1.51e+00	0	32	104	0	60	105287
2026-01-06 20:54:37.11	52.29	12.18	-51.4	-66.7	3.6	1.51e+00	0	31	104	0	60	104969
2026-01-06 20:54:37.98	52.15	12.23	-51.4	-66.6	3.6	1.51e+00	0	32	104	0	60	104483
2026-01-06 20:54:39.13	51.96	12.28	-51.4	-66.6	3.6	1.51e+00	0	31	104	0	60	104824
2026-01-06 20:54:40.00	51.82	12.33	-51.4	-66.6	3.6	1.51e+00	0	32	104	0	60	104752
2026-01-06 20:54:41.15	51.63	12.39	-51.4	-66.7	3.6	1.51e+00	0	32	104	0	60	105121
2026-01-06 20:54:42.02	51.49	12.43	-51.4	-66.6	3.6	1.51e+00	0	31	104	0	60	104530
2026-01-06 20:54:43.17	51.30	12.49	-51.4	-66.7	3.6	1.51e+00	0	32	104	0	60	105343
2026-01-06 20:54:44.03	51.16	12.54	-51.4	-66.7	3.6	1.51e+00	0	32	104	0	60	105307
2026-01-06 20:54:45.19	50.97	12.60	-51.4	-66.6	3.6	1.51e+00	0	32	104	0	60	104788
2026-01-06 20:54:46.05	50.82	12.64	-51.4	-66.7	3.6	1.51e+00	0	31	104	0	60	105516
2026-01-06 20:54:47.21	50.63	12.70	-51.4	-66.7	3.6	1.51e+00	0	32	104	0	60	105080
2026-01-06 20:54:48.07	50.48	12.74	-51.4	-66.7	3.6	1.51e+00	0	31	104	0	60	105491
2026-01-06 20:54:49.23	50.29	12.80	-51.4	-66.7	3.6	1.51e+00	0	31	104	0	60	105476
2026-01-06 20:54:50.09	50.14	12.84	-51.4	-66.7	3.6	1.51e+00	0	31	104	0	60	105533
2026-01-06 20:54:51.25	49.95	12.90	-51.4	-66.7	3.6	1.51e+00	0	32	104	0	60	105020
2026-01-06 20:54:52.11	49.80	12.95	-51.4	-66.6	3.6	1.51e+00	0	32	104	0	60	104507
2026-01-06 20:54:53.26	49.61	13.00	-51.4	-66.7	3.6	1.51e+00	0	32	104	0	60	104915
2026-01-06 20:54:54.13	49.46	13.05	-51.4	-66.7	3.6	1.51e+00	0	32	104	0	60	105016
2026-01-06 20:54:55.28	49.26	13.10	-51.4	-66.7	3.6	1.51e+00	0	32	104	0	60	105064
2026-01-06 20:54:56.14	49.11	13.15	-51.4	-66.6	3.6	1.51e+00	0	32	104	0	60	104588
2026-01-06 20:54:57.30	48.91	13.20	-51.4	-66.7	3.6	1.51e+00	0	31	104	0	60	105068
2026-01-06 20:54:58.16	48.76	13.25	-51.4	-66.7	3.6	1.51e+00	0	31	104	0	60	105147
2026-01-06 20:54:59.32	48.56	13.30	-51.4	-66.7	3.6	1.51e+00	0	31	104	0	60	105348
2026-01-06 20:55:00.18	48.41	13.34	-51.4	-66.7	3.6	1.51e+00	0	32	104	0	60	105317
2026-01-06 20:55:01.33	48.21	13.40	-51.4	-66.7	3.6	1.51e+00	0	32	104	0	60	105132
2026-01-06 20:55:02.20	48.06	13.44	-51.4	-66.7	3.5	1.51e+00	0	32	104	0	60	104875
2026-01-06 20:55:03.35	47.85	13.50	-51.4	-66.7	3.6	1.51e+00	0	32	104	0	60	105002
2026-01-06 20:55:04.22	47.70	13.54	-51.4	-66.7	3.6	1.51e+00	0	32	104	0	60	104946
2026-01-06 20:55:05.37	47.50	13.59	-51.4	-66.7	3.6	1.51e+00	0	32	104	0	60	105440
2026-01-06 20:55:06.24	47.34	13.64	-51.4	-66.6	3.6	1.51e+00	0	32	104	0	60	104812
2026-01-06 20:55:07.39	47.14	13.69	-51.4	-66.6	3.6	1.51e+00	0	32	104	0	60	104841
2026-01-06 20:55:08.25	46.98	13.73	-51.4	-66.7	3.6	1.51e+00	0	32	104	0	60	105845
2026-01-06 20:55:09.40	46.77	13.79	-51.4	-66.7	3.6	1.51e+00	0	32	104	0	60	104935
2026-01-06 20:55:10.27	46.62	13.83	-51.4	-66.7	3.6	1.51e+00	0	32	104	0	60	104929
2026-01-06 20:55:11.42	46.41	13.88	-51.4	-66.7	3.6	1.51e+00	0	32	104	0	60	104989
2026-01-06 20:55:12.28	46.25	13.92	-51.4	-66.7	3.6	1.51e+00	0	32	104	0	60	104903
2026-01-06 20:55:13.44	46.04	13.97	-51.4	-66.7	3.6	1.51e+00	0	32	104	0	60	105109
2026-01-06 20:55:14.30	45.88	14.01	-51.4	-66.7	3.6	1.51e+00	0	31	104	0	60	105488
2026-01-06 20:55:15.46	45.67	14.07	-51.4	-66.7	3.6	1.51e+00	0	32	104	0	60	105005
2026-01-06 20:55:16.32	45.51	14.11	-51.4	-66.7	3.6	1.51e+00	0	32	104	0	60	105475
2026-01-06 20:55:17.47	45.30	14.16	-51.4	-66.7	3.6	1.51e+00	0	32	104	0	60	104969
2026-01-06 20:55:18.34	45.14	14.20	-51.4	-66.7	3.6	1.51e+00	0	32	104	0	60	105221
2026-01-06 20:55:19.49	44.93	14.25	-51.4	-66.7	3.6	1.51e+00	0	32	104	0	60	105431
2026-01-06 20:55:20.36	44.76	14.29	-51.4	-66.7	3.6	1.51e+00	0	32	104	0	60	104850
2026-01-06 20:55:21.51	44.55	14.34	-51.4	-66.7	3.6	1.51e+00	0	32	104	0	60	105223
2026-01-06 20:55:22.38	44.39	14.38	-51.4	-66.7	3.6	1.51e+00	0	31	104	0	60	105366
2026-01-06 20:55:23.53	44.17	14.43	-51.4	-66.7	3.6	1.51e+00	0	31	104	0	60	104931
2026-01-06 20:55:24.40	44.01	14.47	-51.4	-66.7	3.6	1.51e+00	0	31	104	0	60	105249
2026-01-06 20:55:25.55	43.79	14.52	-51.4	-66.7	3.6	1.51e+00	0	32	104	0	60	105255
2026-01-06 20:55:26.42	43.62	14.56	-51.4	-66.7	3.6	1.51e+00	0	31	104	0	60	105218
2026-01-06 20:55:27.57	43.41	14.61	-51.4	-66.7	3.6	1.51e+00	0	32	104	0	60	105818
2026-01-06 20:55:28.44	43.24	14.65	-51.4	-66.7	3.6	1.51e+00	0	32	104	0	60	104881
2026-01-06 20:55:29.59	43.02	14.69	-51.4	-66.7	3.6	1.51e+00	0	32	104	0	60	105417
2026-01-06 20:55:30.45	42.85	14.73	-51.4	-66.6	3.6	1.51e+00	0	31	104	0	60	104784
2026-01-06 20:55:31.61	42.63	14.78	-51.4	-66.7	3.6	1.51e+00	0	31	104	0	60	105442
2026-01-06 20:55:32.47	42.47	14.82	-51.4	-66.7	3.5	1.51e+00	0	32	104	0	60	105001
2026-01-06 20:55:33.62	42.24	14.86	-51.4	-66.7	3.6	1.51e+00	0	32	104	0	60	104924
2026-01-06 20:55:34.49	42.07	14.90	-51.4	-66.7	3.6	1.51e+00	0	31	104	0	60	105216
2026-01-06 20:55:35.64	41.85	14.95	-51.4	-66.7	3.6	1.51e+00	0	31	104	0	60	105663
2026-01-06 20:55:36.51	41.68	14.98	-51.4	-66.7	3.6	1.51e+00	0	31	104	0	60	104859
2026-01-06 20:55:37.66	41.46	15.03	-51.4	-66.6	3.6	1.51e+00	0	32	104	0	60	104361
2026-01-06 20:55:38.53	41.28	15.07	-51.4	-66.7	3.6	1.51e+00	0	31	104	0	60	105341
2026-01-06 20:55:39.68	41.06	15.11	-51.4	-66.6	3.6	1.51e+00	0	31	104	0	60	104766
2026-01-06 20:55:40.55	40.89	15.15	-51.4	-66.6	3.6	1.51e+00	0	31	104	0	60	104736
2026-01-06 20:55:41.70	40.66	15.19	-51.4	-66.7	3.6	1.51e+00	0	31	104	0	60	105264
2026-01-06 20:55:42.57	40.49	15.23	-51.4	-66.7	3.6	1.51e+00	0	32	104	0	60	105002
2026-01-06 20:55:43.72	40.26	15.27	-51.4	-66.6	3.6	1.51e+00	0	32	104	0	60	104786
2026-01-06 20:55:44.58	40.09	15.30	-51.4	-66.7	3.6	1.51e+00	0	31	104	0	60	104926
2026-01-06 20:55:45.74	39.85	15.35	-51.4	-66.7	3.6	1.51e+00	0	31	104	0	60	105425
2026-01-06 20:55:46.60	39.68	15.38	-51.4	-66.7	3.6	1.51e+00	0	32	104	0	60	105444
2026-01-06 20:55:47.75	39.45	15.43	-51.4	-66.7	3.6	1.51e+00	0	32	104	0	60	105314
2026-01-06 20:55:48.62	39.27	15.46	-51.4	-66.7	3.6	1.51e+00	0	31	104	0	60	105304
2026-01-06 20:55:49.78	39.04	15.50	-51.4	-66.7	3.6	1.51e+00	0	31	104	0	60	104850
2026-01-06 20:55:50.64	38.87	15.53	-51.4	-66.7	3.6	1.51e+00	0	31	104	0	60	105031
2026-01-06 20:55:51.79	38.63	15.58	-51.4	-66.7	3.6	1.51e+00	0	32	104	0	60	105390
2026-01-06 20:55:52.66	38.46	15.61	-51.4	-66.7	3.6	1.51e+00	0	31	104	0	60	105467
2026-01-06 20:55:53.81	38.22	15.65	-51.4	-66.7	3.6	1.51e+00	0	32	104	0	60	105213
2026-01-06 20:55:54.68	38.04	15.68	-51.4	-66.6	3.6	1.51e+00	0	31	104	0	60	104620
2026-01-06 20:55:55.83	37.81	15.72	-51.4	-66.7	3.6	1.51e+00	0	31	104	0	60	105380
2026-01-06 20:55:56.70	37.63	15.75	-51.4	-66.7	3.6	1.51e+00	0	31	104	0	60	105056
2026-01-06 20:55:57.85	37.39	15.79	-51.4	-66.7	3.6	1.51e+00	0	31	104	0	60	104886
2026-01-06 20:55:58.72	37.21	15.82	-51.4	-66.7	3.6	1.51e+00	0	32	104	0	60	105399
2026-01-06 20:55:59.87	36.97	15.86	-51.4	-66.7	3.6	1.51e+00	0	32	104	0	60	105223
2026-01-06 20:56:00.74	36.79	15.89	-51.4	-66.7	3.6	1.51e+00	0	32	104	0	60	105183
2026-01-06 20:56:01.89	36.55	15.93	-51.4	-66.6	3.6	1.51e+00	0	32	104	0	60	104711
2026-01-06 20:56:02.76	36.37	15.96	-51.4	-66.7	3.6	1.51e+00	0	32	104	0	60	105145
2026-01-06 20:56:03.91	36.13	15.99	-51.4	-66.7	3.6	1.51e+00	0	32	104	0	60	105176
2026-01-06 20:56:04.77	35.95	16.02	-51.4	-66.7	3.6	1.51e+00	0	32	104	0	60	105427
2026-01-06 20:56:05.92	35.71	16.06	-51.4	-66.7	3.6	1.51e+00	0	32	104	0	60	105420
2026-01-06 20:56:06.79	35.53	16.09	-51.4	-66.7	3.6	1.51e+00	0	32	104	0	60	105197
2026-01-06 20:56:07.94	35.28	16.12	-51.4	-66.7	3.6	1.51e+00	0	31	104	0	60	105216
2026-01-06 20:56:08.81	35.10	16.15	-51.4	-66.7	3.6	1.51e+00	0	31	104	0	60	105192
2026-01-06 20:56:09.96	34.86	16.18	-51.4	-66.7	3.6	1.51e+00	0	32	104	0	60	105324
2026-01-06 20:56:10.83	34.67	16.21	-51.4	-66.7	3.6	1.51e+00	0	32	104	0	60	105119
2026-01-06 20:56:11.98	34.43	16.25	-51.4	-66.7	3.6	1.51e+00	0	32	104	0	60	104894
2026-01-06 20:56:12.85	34.24	16.27	-51.4	-66.7	3.6	1.51e+00	0	32	104	0	60	105014
2026-01-06 20:56:14.00	34.00	16.30	-51.4	-66.7	3.6	1.51e+00	0	31	104	0	60	105753
2026-01-06 20:56:14.87	33.81	16.33	-51.4	-66.7	3.6	1.51e+00	0	32	104	0	60	105113
2026-01-06 20:56:16.02	33.56	16.36	-51.4	-66.7	3.6	1.51e+00	0	31	104	0	60	105077
2026-01-06 20:56:16.89	33.38	16.39	-51.4	-66.7	3.6	1.51e+00	0	32	104	0	60	105779
2026-01-06 20:56:18.05	33.13	16.42	-51.4	-66.7	3.6	1.51e+00	0	31	104	0	60	105539
2026-01-06 20:56:18.91	32.94	16.44	-51.4	-66.7	3.6	1.51e+00	0	32	104	0	60	105085
2026-01-06 20:56:20.06	32.69	16.47	-51.4	-66.7	3.6	1.51e+00	0	31	104	0	60	105440
2026-01-06 20:56:20.93	32.51	16.50	-51.4	-66.7	3.6	1.51e+00	0	32	104	0	60	105168
2026-01-06 20:56:22.08	32.26	16.53	-51.4	-66.7	3.6	1.51e+00	0	32	104	0	60	105462
2026-01-06 20:56:22.95	32.07	16.55	-51.4	-66.6	3.6	1.51e+00	0	31	104	0	60	104721
2026-01-06 20:56:24.10	31.82	16.58	-51.4	-66.7	3.6	1.51e+00	0	32	104	0	60	105233
2026-01-06 20:56:24.97	31.63	16.60	-51.4	-66.7	3.6	1.51e+00	0	32	104	0	60	105259
2026-01-06 20:56:26.12	31.38	16.63	-51.4	-66.6	3.6	1.51e+00	0	32	104	0	60	104581
2026-01-06 20:56:26.99	31.19	16.65	-51.4	-66.7	3.6	1.51e+00	0	31	104	0	60	105159
2026-01-06 20:56:28.14	30.94	16.67	-51.4	-66.7	3.6	1.51e+00	0	32	104	0	60	104992
2026-01-06 20:56:29.01	30.75	16.69	-51.4	-66.7	3.6	1.51e+00	0	32	104	0	60	105274
2026-01-06 20:56:30.16	30.49	16.72	-51.4	-66.7	3.6	1.51e+00	0	31	104	0	60	104852
2026-01-06 20:56:31.02	30.30	16.74	-51.4	-66.7	3.6	1.51e+00	0	31	104	0	60	105344
2026-01-06 20:56:32.17	30.05	16.77	-51.4	-66.7	3.6	1.51e+00	0	32	104	0	60	105336
2026-01-06 20:56:33.04	29.86	16.78	-51.4	-66.7	3.6	1.51e+00	0	32	104	0	60	105468
2026-01-06 20:56:34.19	29.61	16.81	-51.4	-66.7	3.6	1.51e+00	0	32	104	0	60	105359
2026-01-06 20:56:35.06	29.41	16.83	-51.4	-66.7	3.6	1.51e+00	0	32	104	0	60	105482
2026-01-06 20:56:36.21	29.16	16.85	-51.4	-66.7	3.6	1.51e+00	0	32	104	0	60	105180
2026-01-06 20:56:37.08	28.97	16.87	-51.4	-66.7	3.6	1.51e+00	0	31	104	0	60	105140
2026-01-06 20:56:38.23	28.71	16.89	-51.4	-66.7	3.6	1.51e+00	0	32	104	0	60	105290
2026-01-06 20:56:39.10	28.52	16.91	-51.4	-66.7	3.6	1.51e+00	0	32	104	0	60	105212
2026-01-06 20:56:40.25	28.26	16.93	-51.4	-66.7	3.6	1.51e+00	0	32	104	0	60	105117
2026-01-06 20:56:41.11	28.07	16.94	-51.4	-66.7	3.6	1.51e+00	0	32	104	0	60	105085
2026-01-06 20:56:42.27	27.81	16.96	-51.4	-66.7	3.6	1.51e+00	0	32	104	0	60	104892
2026-01-06 20:56:43.13	27.62	16.98	-51.4	-66.7	3.6	1.51e+00	0	32	104	0	60	105078
2026-01-06 20:56:44.29	27.36	17.00	-51.4	-66.7	3.6	1.51e+00	0	32	104	0	60	105175
2026-01-06 20:56:45.15	27.17	17.01	-51.4	-66.7	3.6	1.51e+00	0	32	104	0	60	104891
2026-01-06 20:56:46.31	26.91	17.03	-51.4	-66.6	3.6	1.51e+00	0	32	104	0	60	104702
2026-01-06 20:56:47.17	26.71	17.04	-51.4	-66.7	3.6	1.51e+00	0	32	104	0	60	105101
2026-01-06 20:56:48.33	26.45	17.06	-51.4	-66.7	3.6	1.51e+00	0	32	104	0	60	104894
2026-01-06 20:56:49.19	26.26	17.07	-51.4	-66.6	3.5	1.51e+00	0	32	104	0	60	104756
2026-01-06 20:56:50.35	26.00	17.09	-51.4	-66.7	3.6	1.51e+00	0	32	104	0	60	105154
2026-01-06 20:56:51.21	25.81	17.10	-51.4	-66.7	3.6	1.51e+00	0	32	104	0	60	105239
2026-01-06 20:56:52.37	25.54	17.12	-51.4	-66.7	3.6	1.51e+00	0	32	104	0	60	105380
2026-01-06 20:56:53.23	25.35	17.13	-51.4	-66.7	3.6	1.51e+00	0	31	104	0	60	105220
2026-01-06 20:56:54.39	25.09	17.14	-51.4	-66.7	3.6	1.51e+00	0	32	104	0	60	105268
2026-01-06 20:56:55.25	24.89	17.15	-51.4	-66.7	3.6	1.51e+00	0	32	104	0	60	104957
2026-01-06 20:56:56.41	24.63	17.17	-51.4	-66.7	3.6	1.51e+00	0	31	104	0	60	105393
2026-01-06 20:56:57.27	24.44	17.18	-51.4	-66.7	3.6	1.51e+00	0	31	104	0	60	105194
2026-01-06 20:56:58.43	24.17	17.19	-51.4	-66.7	3.6	1.51e+00	0	31	104	0	60	105203
2026-01-06 20:56:59.29	23.98	17.20	-51.4	-66.7	3.6	1.51e+00	0	32	104	0	60	105014
2026-01-06 20:57:00.45	23.72	17.21	-51.4	-66.7	3.6	1.51e+00	0	32	104	0	60	105001
2026-01-06 20:57:01.31	23.52	17.22	-51.4	-66.7	3.6	1.51e+00	0	32	104	0	60	105410
2026-01-06 20:57:02.47	23.26	17.23	-51.4	-66.7	3.6	1.51e+00	0	32	104	0	60	105227
2026-01-06 20:57:03.33	23.06	17.23	-51.4	-66.7	3.6	1.51e+00	0	32	104	0	60	105627
2026-01-06 20:57:04.49	22.80	17.24	-51.4	-66.7	3.6	1.51e+00	0	31	104	0	60	105497
2026-01-06 20:57:05.35	22.60	17.25	-51.4	-66.7	3.6	1.51e+00	0	32	104	0	60	104896
2026-01-06 20:57:06.51	22.34	17.26	-51.4	-66.7	3.6	1.51e+00	0	32	104	0	60	105072
2026-01-06 20:57:07.37	22.14	17.26	-51.4	-66.7	3.6	1.51e+00	0	32	104	0	60	105335
2026-01-06 20:57:08.52	21.88	17.27	-51.4	-66.7	3.6	1.51e+00	0	32	104	0	60	105212
2026-01-06 20:57:09.39	21.68	17.27	-51.4	-66.7	3.6	1.51e+00	0	32	104	0	60	105289
2026-01-06 20:57:10.54	21.42	17.28	-51.4	-66.7	3.6	1.51e+00	0	32	104	0	60	105146
2026-01-06 20:57:11.41	21.22	17.28	-51.4	-66.7	3.6	1.51e+00	0	32	104	0	60	105033
2026-01-06 20:57:12.56	20.96	17.29	-51.4	-66.7	3.6	1.51e+00	0	31	104	0	60	104925
2026-01-06 20:57:13.43	20.76	17.29	-51.4	-66.7	3.6	1.51e+00	0	32	104	0	60	105375
2026-01-06 20:57:14.58	20.50	17.29	-51.4	-66.7	3.6	1.51e+00	0	31	104	0	60	105439
2026-01-06 20:57:15.45	20.30	17.30	-51.4	-66.7	3.6	1.51e+00	0	32	104	0	60	104962
2026-01-06 20:57:16.60	20.04	17.30	-51.4	-66.7	3.6	1.51e+00	0	32	104	0	60	105367
2026-01-06 20:57:17.46	19.84	17.30	-51.4	-66.7	3.6	1.51e+00	0	32	104	0	60	104866
2026-01-06 20:57:18.62	19.58	17.30	-51.4	-66.7	3.6	1.51e+00	0	31	104	0	60	105199
2026-01-06 20:57:19.48	19.38	17.30	-51.4	-66.7	3.6	1.51e+00	0	31	104	0	60	105301
2026-01-06 20:57:20.64	19.11	17.30	-51.4	-66.7	3.6	1.51e+00	0	31	104	0	60	105452
2026-01-06 20:57:21.50	18.92	17.30	-51.4	-66.7	3.6	1.51e+00	0	31	104	0	60	105199
2026-01-06 20:57:22.65	18.66	17.30	-51.4	-66.6	3.6	1.51e+00	0	31	104	0	60	104555
2026-01-06 20:57:23.52	18.46	17.30	-51.4	-66.7	3.6	1.51e+00	0	31	104	0	60	105043
2026-01-06 20:57:24.68	18.19	17.30	-51.4	-66.7	3.6	1.51e+00	0	32	104	0	60	105062
2026-01-06 20:57:25.54	18.00	17.30	-51.4	-66.7	3.6	1.51e+00	0	32	104	0	60	104853
2026-01-06 20:57:26.70	17.73	17.29	-51.4	-66.7	3.6	1.51e+00	0	32	104	0	60	105207
2026-01-06 20:57:27.56	17.53	17.29	-51.4	-66.7	3.6	1.51e+00	0	31	104	0	60	105446
2026-01-06 20:57:28.72	17.27	17.29	-51.4	-66.6	3.6	1.51e+00	0	32	104	0	60	104756
2026-01-06 20:57:29.58	17.07	17.28	-51.4	-66.7	3.6	1.51e+00	0	32	104	0	60	105391
2026-01-06 20:57:30.73	16.81	17.28	-51.4	-66.7	3.6	1.51e+00	0	32	104	0	60	105049
2026-01-06 20:57:31.60	16.61	17.28	-51.4	-66.6	3.6	1.51e+00	0	31	104	0	60	104785
2026-01-06 20:57:32.76	16.35	17.27	-51.4	-66.7	3.6	1.51e+00	0	32	104	0	60	105561
2026-01-06 20:57:33.62	16.15	17.26	-51.4	-66.7	3.6	1.51e+00	0	32	104	0	60	105082
2026-01-06 20:57:34.78	15.89	17.26	-51.4	-66.7	3.6	1.51e+00	0	31	104	0	60	104938
2026-01-06 20:57:35.64	15.69	17.25	-51.4	-66.7	3.6	1.51e+00	0	32	104	0	60	105022
2026-01-06 20:57:36.79	15.43	17.24	-51.4	-66.7	3.6	1.51e+00	0	31	104	0	60	104905
2026-01-06 20:57:37.66	15.23	17.24	-51.4	-66.6	3.6	1.51e+00	0	31	104	0	60	104816
2026-01-06 20:57:38.81	14.97	17.23	-51.4	-66.7	3.6	1.51e+00	0	32	104	0	60	105327
2026-01-06 20:57:39.68	14.78	17.22	-51.4	-66.6	3.6	1.51e+00	0	32	104	0	60	104348
2026-01-06 20:57:40.83	14.51	17.21	-51.4	-66.7	3.6	1.51e+00	0	32	104	0	60	105168
2026-01-06 20:57:41.69	14.32	17.20	-51.4	-66.7	3.6	1.51e+00	0	32	104	0	60	105155
2026-01-06 20:57:42.85	14.06	17.19	-51.4	-66.7	3.6	1.51e+00	0	32	104	0	60	105229
2026-01-06 20:57:43.71	13.86	17.18	-51.4	-66.7	3.6	1.51e+00	0	31	104	0	60	104983
2026-01-06 20:57:44.87	13.60	17.17	-51.4	-66.7	3.6	1.51e+00	0	31	104	0	60	105057
2026-01-06 20:57:45.73	13.40	17.16	-51.4	-66.6	3.6	1.51e+00	0	32	104	0	60	104588
2026-01-06 20:57:46.88	13.14	17.14	-51.4	-66.6	3.6	1.51e+00	0	31	104	0	60	104812
2026-01-06 20:57:47.75	12.95	17.13	-51.4	-66.7	3.6	1.51e+00	0	31	104	0	60	105199
2026-01-06 20:57:48.91	12.69	17.12	-51.4	-66.7	3.6	1.51e+00	0	32	104	0	60	105082
2026-01-06 20:57:49.77	12.49	17.11	-51.4	-66.7	3.6	1.51e+00	0	32	104	0	60	104923
2026-01-06 20:57:50.92	12.23	17.09	-51.4	-66.7	3.6	1.51e+00	0	32	104	0	60	105331
2026-01-06 20:57:51.78	12.04	17.08	-51.4	-66.7	3.6	1.51e+00	0	31	104	0	60	105007
2026-01-06 20:57:52.94	11.78	17.06	-51.4	-66.7	3.6	1.51e+00	0	32	104	0	60	105655
2026-01-06 20:57:53.80	11.59	17.05	-51.4	-66.7	3.6	1.51e+00	0	32	104	0	60	105232
2026-01-06 20:57:54.95	11.33	17.03	-51.4	-66.7	3.6	1.51e+00	0	32	104	0	60	105028
2026-01-06 20:57:55.82	11.13	17.02	-51.4	-66.7	3.6	1.51e+00	0	32	104	0	60	105401
2026-01-06 20:57:56.97	10.88	17.00	-51.4	-66.7	3.6	1.51e+00	0	32	104	0	60	105368
2026-01-06 20:57:57.84	10.68	16.98	-51.4	-66.7	3.6	1.51e+00	0	32	104	0	60	105060
2026-01-06 20:57:58.99	10.43	16.96	-51.4	-66.6	3.6	1.51e+00	0	32	104	0	60	104665
2026-01-06 20:57:59.86	10.23	16.95	-51.4	-66.7	3.6	1.51e+00	0	32	104	0	60	104867
2026-01-06 20:58:01.01	9.98	16.93	-51.4	-66.7	3.6	1.51e+00	0	32	104	0	60	105146
2026-01-06 20:58:01.88	9.78	16.91	-51.4	-66.6	3.6	1.51e+00	0	32	104	0	60	104659
2026-01-06 20:58:03.03	9.53	16.89	-51.4	-66.7	3.6	1.51e+00	0	32	104	0	60	104991
2026-01-06 20:58:03.90	9.33	16.87	-51.4	-66.7	3.6	1.51e+00	0	32	104	0	60	104963
2026-01-06 20:58:05.05	9.08	16.85	-51.4	-66.7	3.6	1.51e+00	0	31	104	0	60	105114
2026-01-06 20:58:05.91	8.89	16.83	-51.4	-66.6	3.6	1.51e+00	0	32	104	0	60	104809
2026-01-06 20:58:07.07	8.63	16.81	-51.4	-66.7	3.6	1.51e+00	0	32	104	0	60	104936
2026-01-06 20:58:07.93	8.44	16.79	-51.4	-66.7	3.6	1.51e+00	0	32	104	0	60	104863
2026-01-06 20:58:09.08	8.19	16.77	-51.4	-66.7	3.6	1.51e+00	0	32	104	0	60	104972
2026-01-06 20:58:09.95	8.00	16.75	-51.4	-66.7	3.6	1.51e+00	0	32	104	0	60	104967
2026-01-06 20:58:11.10	7.74	16.72	-51.4	-66.7	3.6	1.51e+00	0	32	104	0	60	105233
2026-01-06 20:58:11.97	7.55	16.70	-51.4	-66.7	3.6	1.51e+00	0	32	104	0	60	105227
2026-01-06 20:58:13.12	7.30	16.68	-51.4	-66.7	3.6	1.51e+00	0	31	104	0	60	105472
2026-01-06 20:58:13.99	7.11	16.65	-51.4	-66.7	3.6	1.51e+00	0	32	104	0	60	105133
2026-01-06 20:58:15.14	6.86	16.63	-51.4	-66.7	3.6	1.51e+00	0	32	104	0	60	105275
2026-01-06 20:58:16.01	6.67	16.61	-51.4	-66.7	3.6	1.51e+00	0	32	104	0	60	105580
2026-01-06 20:58:17.16	6.42	16.58	-51.4	-66.7	3.6	1.51e+00	0	32	104	0	60	105157
2026-01-06 20:58:18.03	6.23	16.56	-51.4	-66.6	3.6	1.51e+00	0	32	104	0	60	104791
2026-01-06 20:58:19.18	5.98	16.53	-51.4	-66.7	3.6	1.51e+00	0	32	104	0	60	105235
2026-01-06 20:58:20.05	5.79	16.50	-51.4	-66.7	3.6	1.51e+00	0	32	104	0	60	105052
2026-01-06 20:58:21.20	5.55	16.47	-51.4	-66.7	3.6	1.51e+00	0	32	104	0	60	105273
2026-01-06 20:58:22.07	5.36	16.45	-51.4	-66.6	3.6	1.51e+00	0	32	104	0	60	104664
2026-01-06 20:58:23.22	5.11	16.42	-51.4	-66.6	3.6	1.51e+00	0	32	104	0	60	104746
2026-01-06 20:58:24.09	4.92	16.39	-51.4	-66.7	3.6	1.51e+00	0	32	104	0	60	105322
2026-01-06 20:58:25.24	4.68	16.36	-51.4	-66.7	3.6	1.51e+00	0	32	104	0	60	105159
2026-01-06 20:58:26.11	4.49	16.34	-51.4	-66.6	3.5	1.51e+00	0	32	104	0	60	104753
2026-01-06 20:58:27.27	4.24	16.31	-51.4	-66.6	3.6	1.51e+00	0	32	104	0	60	104506
2026-01-06 20:58:28.13	4.06	16.28	-51.4	-66.7	3.6	1.51e+00	0	32	104	0	60	104989
2026-01-06 20:58:29.29	3.81	16.25	-51.4	-66.6	3.6	1.51e+00	0	31	104	0	60	104830
2026-01-06 20:58:30.16	3.63	16.22	-51.4	-66.6	3.6	1.51e+00	0	32	104	0	60	104496
2026-01-06 20:58:31.31	3.38	16.19	-51.4	-66.6	3.6	1.51e+00	0	32	104	0	60	104755
2026-01-06 20:58:32.18	3.20	16.16	-51.4	-66.7	3.6	1.51e+00	0	32	104	0	60	105073
2026-01-06 20:58:33.33	2.96	16.12	-51.4	-66.7	3.6	1.51e+00	0	32	104	0	60	105361
2026-01-06 20:58:34.20	2.77	16.10	-51.4	-66.7	3.6	1.51e+00	0	32	104	0	60	105318
2026-01-06 20:58:35.36	2.53	16.06	-51.4	-66.7	3.7	1.51e+00	0	32	104	0	60	105080
2026-01-06 20:58:36.22	2.35	16.03	-51.4	-66.7	3.6	1.51e+00	0	32	104	0	60	105128
2026-01-06 20:58:37.38	2.11	15.99	-51.4	-66.7	3.6	1.51e+00	0	32	104	0	60	105151
2026-01-06 20:58:38.25	1.93	15.97	-51.4	-66.7	3.6	1.51e+00	0	32	104	0	60	104892
2026-01-06 20:58:39.40	1.69	15.93	-51.4	-66.7	3.6	1.51e+00	0	32	104	0	60	104936
2026-01-06 20:58:40.27	1.50	15.90	-51.4	-66.7	3.6	1.51e+00	0	32	104	0	60	105225
2026-01-06 20:58:41.42	1.27	15.86	-51.4	-66.6	3.6	1.51e+00	0	32	104	0	60	104276
2026-01-06 20:58:42.29	1.09	15.83	-51.4	-66.6	3.6	1.51e+00	0	32	104	0	60	104446
2026-01-06 20:58:43.45	0.85	15.79	-51.4	-66.7	3.6	1.51e+00	0	32	104	0	60	105812
2026-01-06 20:58:44.31	0.67	15.76	-51.4	-66.6	3.6	1.51e+00	0	32	104	0	60	104594
2026-01-06 20:58:45.47	0.43	15.72	-51.4	-66.6	3.6	1.51e+00	0	32	104	0	60	104618
2026-01-06 20:58:46.34	0.25	15.69	-51.4	-66.7	3.6	1.51e+00	0	32	104	0	60	104888
2026-01-06 20:58:47.49	0.02	15.65	-51.4	-66.6	3.6	1.51e+00	0	32	104	0	60	104769
2026-01-06 20:58:48.36	359.84	15.62	-51.4	-66.7	3.6	1.51e+00	0	32	104	0	60	105423
2026-01-06 20:58:49.51	359.61	15.58	-51.4	-66.7	3.6	1.51e+00	0	32	104	0	60	105307
2026-01-06 20:58:50.38	359.43	15.54	-51.4	-66.7	3.6	1.51e+00	0	32	104	0	60	105439
2026-01-06 20:58:51.53	359.20	15.50	-51.4	-66.7	3.6	1.51e+00	0	32	104	0	60	105381
2026-01-06 20:58:52.40	359.02	15.47	-51.4	-66.7	3.6	1.51e+00	0	32	104	0	60	104943
2026-01-06 20:58:53.56	358.79	15.43	-51.4	-66.7	3.6	1.51e+00	0	32	104	0	60	105252
2026-01-06 20:58:54.42	358.62	15.39	-51.4	-66.7	3.6	1.51e+00	0	32	104	0	60	104917
2026-01-06 20:58:55.58	358.38	15.35	-51.4	-66.7	3.6	1.51e+00	0	32	104	0	60	105631
2026-01-06 20:58:56.45	358.21	15.32	-51.4	-66.7	3.6	1.51e+00	0	32	104	0	60	105171
2026-01-06 20:58:57.60	357.98	15.27	-51.4	-66.6	3.6	1.51e+00	0	32	104	0	60	104659
2026-01-06 20:58:58.47	357.81	15.24	-51.4	-66.7	3.6	1.51e+00	0	32	104	0	60	105171
2026-01-06 20:58:59.62	357.58	15.19	-51.4	-66.6	3.6	1.51e+00	0	32	104	0	60	104844
2026-01-06 20:59:00.49	357.41	15.16	-51.4	-66.7	3.6	1.51e+00	0	32	104	0	60	104954
2026-01-06 20:59:01.64	357.18	15.11	-51.4	-66.7	3.6	1.51e+00	0	32	104	0	60	104851
2026-01-06 20:59:02.51	357.01	15.08	-51.4	-66.7	3.6	1.51e+00	0	32	104	0	60	105316
2026-01-06 20:59:03.67	356.78	15.03	-51.4	-66.7	3.6	1.51e+00	0	32	104	0	60	105015
2026-01-06 20:59:04.53	356.61	15.00	-51.4	-66.6	3.6	1.51e+00	0	32	104	0	60	104655
2026-01-06 20:59:05.69	356.39	14.95	-51.4	-66.7	3.6	1.51e+00	0	32	104	0	60	104958
2026-01-06 20:59:06.56	356.22	14.91	-51.4	-66.6	3.6	1.51e+00	0	32	104	0	60	104664
2026-01-06 20:59:07.71	356.00	14.86	-51.4	-66.7	3.6	1.51e+00	0	32	104	0	60	105124
2026-01-06 20:59:08.58	355.83	14.83	-51.4	-66.6	3.6	1.51e+00	0	32	104	0	60	104840
2026-01-06 20:59:09.73	355.61	14.78	-51.4	-66.7	3.6	1.51e+00	0	32	104	0	60	105233
2026-01-06 20:59:10.60	355.44	14.74	-51.4	-66.7	3.6	1.51e+00	0	32	104	0	60	105418
2026-01-06 20:59:11.75	355.22	14.69	-51.4	-66.7	3.6	1.51e+00	0	32	104	0	60	105650
2026-01-06 20:59:12.62	355.05	14.66	-51.4	-66.7	3.6	1.51e+00	0	32	104	0	60	105635
2026-01-06 20:59:13.77	354.83	14.61	-51.4	-66.7	3.6	1.51e+00	0	32	104	0	60	105222
2026-01-06 20:59:14.64	354.67	14.57	-51.4	-66.7	3.6	1.51e+00	0	32	104	0	60	105377
2026-01-06 20:59:15.80	354.45	14.52	-51.4	-66.7	3.6	1.51e+00	0	32	104	0	60	105245
2026-01-06 20:59:16.66	354.29	14.48	-51.4	-66.7	3.6	1.51e+00	0	32	104	0	60	104881
2026-01-06 20:59:17.82	354.07	14.43	-51.4	-66.7	3.6	1.51e+00	0	32	104	0	60	105611
2026-01-06 20:59:18.68	353.91	14.39	-51.4	-66.7	3.6	1.51e+00	0	32	104	0	60	105663
2026-01-06 20:59:19.84	353.69	14.34	-51.4	-66.7	3.6	1.51e+00	0	32	104	0	60	104947
2026-01-06 20:59:20.71	353.53	14.30	-51.4	-66.6	3.6	1.51e+00	0	32	104	0	60	104839
2026-01-06 20:59:21.86	353.31	14.25	-51.4	-66.7	3.6	1.51e+00	0	32	104	0	60	105080
2026-01-06 20:59:22.73	353.15	14.21	-51.4	-66.7	3.6	1.51e+00	0	32	104	0	60	105173
2026-01-06 20:59:23.88	352.94	14.16	-51.4	-66.7	3.6	1.51e+00	0	32	104	0	60	104972
2026-01-06 20:59:24.75	352.78	14.12	-51.4	-66.7	3.6	1.51e+00	0	32	104	0	60	105123
2026-01-06 20:59:25.91	352.57	14.07	-51.4	-66.7	3.6	1.51e+00	0	32	104	0	60	105129
2026-01-06 20:59:26.77	352.41	14.03	-51.4	-66.6	3.6	1.51e+00	0	32	104	0	60	104606
2026-01-06 20:59:27.93	352.20	13.97	-51.4	-66.7	3.6	1.51e+00	0	32	104	0	60	105084
2026-01-06 20:59:28.80	352.04	13.93	-51.4	-66.7	3.6	1.51e+00	0	32	104	0	60	105192
2026-01-06 20:59:29.95	351.83	13.88	-51.4	-66.6	3.6	1.51e+00	0	32	104	0	60	104392
2026-01-06 20:59:30.82	351.67	13.84	-51.4	-66.7	3.6	1.51e+00	0	32	104	0	60	105075
2026-01-06 20:59:31.97	351.47	13.79	-51.4	-66.7	3.6	1.51e+00	0	32	104	0	60	104861
2026-01-06 20:59:32.84	351.31	13.75	-51.4	-66.6	3.6	1.51e+00	0	32	104	0	60	104731
2026-01-06 20:59:33.99	351.11	13.69	-51.4	-66.7	3.6	1.51e+00	0	32	104	0	60	104940
2026-01-06 20:59:34.86	350.95	13.65	-51.4	-66.7	3.6	1.51e+00	0	32	104	0	60	105158
2026-01-06 20:59:36.01	350.75	13.59	-51.4	-66.6	3.6	1.51e+00	0	32	104	0	60	104668
2026-01-06 20:59:36.88	350.59	13.55	-51.4	-66.7	3.6	1.51e+00	0	32	104	0	60	104984
2026-01-06 20:59:38.04	350.39	13.50	-51.4	-66.6	3.6	1.51e+00	0	32	104	0	60	104786
2026-01-06 20:59:38.90	350.24	13.46	-51.4	-66.7	3.6	1.51e+00	0	32	104	0	60	105009
2026-01-06 20:59:40.06	350.03	13.40	-51.4	-66.6	3.6	1.51e+00	0	32	104	0	60	104686
2026-01-06 20:59:40.92	349.88	13.36	-51.4	-66.7	3.5	1.51e+00	0	32	104	0	60	105089
2026-01-06 20:59:42.08	349.68	13.30	-51.4	-66.7	3.6	1.51e+00	0	32	104	0	60	105001
2026-01-06 20:59:42.95	349.53	13.26	-51.4	-66.7	3.6	1.51e+00	0	32	104	0	60	105361
2026-01-06 20:59:44.10	349.33	13.20	-51.4	-66.6	3.6	1.51e+00	0	32	104	0	60	104584
2026-01-06 20:59:44.97	349.18	13.16	-51.4	-66.7	3.6	1.51e+00	0	32	104	0	60	104890
2026-01-06 20:59:46.13	348.98	13.10	-51.4	-66.7	3.6	1.51e+00	0	32	104	0	60	105316
2026-01-06 20:59:46.99	348.83	13.06	-51.4	-66.7	3.6	1.51e+00	0	32	104	0	60	104976
2026-01-06 20:59:48.15	348.64	13.00	-51.4	-66.7	3.6	1.51e+00	0	32	104	0	60	105063
2026-01-06 20:59:49.01	348.49	12.96	-51.4	-66.7	3.6	1.51e+00	0	32	104	0	60	104947
2026-01-06 20:59:50.17	348.29	12.90	-51.4	-66.7	3.6	1.51e+00	0	32	104	0	60	105494
2026-01-06 20:59:51.03	348.15	12.86	-51.4	-66.7	3.6	1.51e+00	0	32	104	0	60	104860
2026-01-06 20:59:52.19	347.95	12.80	-51.4	-66.7	3.6	1.51e+00	0	32	104	0	60	105380
2026-01-06 20:59:53.06	347.81	12.76	-51.4	-66.6	3.6	1.51e+00	0	32	104	0	60	104582
2026-01-06 20:59:54.21	347.61	12.70	-51.4	-66.7	3.6	1.51e+00	0	32	104	0	60	105191
2026-01-06 20:59:55.08	347.47	12.65	-51.4	-66.7	3.6	1.51e+00	0	32	104	0	60	104920
2026-01-06 20:59:56.24	347.28	12.59	-51.4	-66.7	3.6	1.51e+00	0	32	104	0	60	105184
2026-01-06 20:59:57.10	347.14	12.55	-51.4	-66.6	3.6	1.51e+00	0	32	104	0	60	104817
2026-01-06 20:59:58.26	346.94	12.49	-51.4	-66.7	3.6	1.51e+00	0	32	104	0	60	105073
2026-01-06 20:59:59.13	346.80	12.45	-51.4	-66.7	3.6	1.51e+00	0	32	104	0	60	105341
2026-01-06 21:00:00.28	346.61	12.39	-51.4	-66.7	3.6	1.51e+00	0	32	104	0	60	104867
2026-01-06 21:00:01.15	346.47	12.34	-51.4	-66.7	3.6	1.51e+00	0	32	104	0	60	105284
2026-01-06 21:00:02.30	346.28	12.28	-51.4	-66.7	3.6	1.51e+00	0	32	104	0	60	105225
2026-01-06 21:00:03.17	346.14	12.24	-51.4	-66.7	3.6	1.51e+00	0	32	104	0	60	105332
2026-01-06 21:00:04.32	345.96	12.18	-51.4	-66.7	3.6	1.51e+00	0	32	104	0	60	104979
2026-01-06 21:00:05.19	345.82	12.13	-51.4	-66.7	3.6	1.51e+00	0	32	104	0	60	105416
2026-01-06 21:00:06.35	345.63	12.07	-51.4	-66.7	3.6	1.51e+00	0	32	104	0	60	105212
2026-01-06 21:00:07.21	345.50	12.03	-51.4	-66.7	3.6	1.51e+00	0	32	104	0	60	105054
2026-01-06 21:00:08.37	345.31	11.97	-51.4	-66.7	3.6	1.51e+00	0	32	104	0	60	105346
2026-01-06 21:00:09.23	345.18	11.92	-51.4	-66.7	3.6	1.51e+00	0	32	104	0	60	105385
2026-01-06 21:00:10.39	344.99	11.86	-51.4	-66.7	3.6	1.51e+00	0	32	104	0	60	105315
2026-01-06 21:00:11.26	344.86	11.82	-51.4	-66.7	3.6	1.51e+00	0	32	104	0	60	104924
2026-01-06 21:00:12.41	344.68	11.76	-51.4	-66.6	3.6	1.51e+00	0	32	104	0	60	104797
2026-01-06 21:00:13.27	344.54	11.71	-51.4	-66.6	3.6	1.51e+00	0	32	104	0	60	104757
2026-01-06 21:00:14.43	344.36	11.65	-51.4	-66.7	3.6	1.51e+00	0	32	104	0	60	105000
2026-01-06 21:00:15.29	344.23	11.60	-51.4	-66.7	3.6	1.51e+00	0	32	104	0	60	104899
2026-01-06 21:00:16.45	344.05	11.54	-51.4	-66.7	3.6	1.51e+00	0	32	104	0	60	105286
2026-01-06 21:00:17.32	343.92	11.50	-51.4	-66.6	3.6	1.51e+00	0	31	104	0	60	104745
2026-01-06 21:00:18.47	343.74	11.43	-51.4	-66.7	3.6	1.51e+00	0	32	104	0	60	104905
2026-01-06 21:00:19.34	343.61	11.39	-51.4	-66.7	3.6	1.51e+00	0	32	104	0	60	105343
2026-01-06 21:00:20.49	343.43	11.33	-51.4	-66.7	3.6	1.51e+00	0	32	104	0	60	105072
2026-01-06 21:00:21.36	343.30	11.28	-51.4	-66.7	3.6	1.51e+00	0	32	104	0	60	105203
2026-01-06 21:00:22.51	343.13	11.22	-51.4	-66.7	3.6	1.51e+00	0	32	104	0	60	105472
2026-01-06 21:00:23.38	343.00	11.17	-51.4	-66.7	3.6	1.51e+00	0	32	104	0	60	105256
2026-01-06 21:00:24.54	342.82	11.11	-51.4	-66.7	3.6	1.51e+00	0	32	104	0	60	105077
2026-01-06 21:00:25.40	342.69	11.06	-51.4	-66.7	3.6	1.51e+00	0	32	104	0	60	104881
2026-01-06 21:00:26.56	342.52	11.00	-51.4	-66.7	3.6	1.51e+00	0	32	104	0	60	105768
2026-01-06 21:00:27.43	342.39	10.95	-51.4	-66.7	3.6	1.51e+00	0	32	104	0	60	105182
2026-01-06 21:00:28.58	342.22	10.89	-51.4	-66.7	3.6	1.51e+00	0	32	104	0	60	105186
2026-01-06 21:00:29.45	342.10	10.84	-51.4	-66.6	3.6	1.51e+00	0	32	104	0	60	104551
2026-01-06 21:00:30.60	341.93	10.78	-51.4	-66.7	3.6	1.51e+00	0	32	104	0	60	105310
2026-01-06 21:00:31.47	341.80	10.74	-51.4	-66.7	3.6	1.51e+00	0	32	104	0	60	105415
2026-01-06 21:00:32.62	341.63	10.67	-51.4	-66.7	3.6	1.51e+00	0	32	104	0	60	105206
2026-01-06 21:00:33.49	341.51	10.63	-51.4	-66.6	3.6	1.51e+00	0	32	104	0	60	104845
2026-01-06 21:00:34.65	341.34	10.56	-51.4	-66.7	3.6	1.51e+00	0	32	104	0	60	105278
2026-01-06 21:00:35.51	341.22	10.52	-51.4	-66.7	3.6	1.51e+00	0	32	104	0	60	105441
2026-01-06 21:00:36.67	341.05	10.45	-51.4	-66.6	3.6	1.51e+00	0	32	104	0	60	104500
2026-01-06 21:00:37.54	340.93	10.41	-51.4	-66.6	3.6	1.51e+00	0	32	104	0	60	104766
2026-01-06 21:00:38.69	340.77	10.34	-51.4	-66.7	3.6	1.51e+00	0	32	104	0	60	104980
2026-01-06 21:00:39.56	340.64	10.29	-51.4	-66.7	3.6	1.51e+00	0	32	104	0	60	104865
2026-01-06 21:00:40.71	340.48	10.23	-51.4	-66.7	3.6	1.51e+00	0	32	104	0	60	105201
2026-01-06 21:00:41.58	340.36	10.18	-51.4	-66.7	3.6	1.51e+00	0	32	104	0	60	105731
2026-01-06 21:00:42.73	340.20	10.12	-51.4	-66.6	3.6	1.51e+00	0	32	104	0	60	104287
2026-01-06 21:00:43.60	340.08	10.07	-51.4	-66.7	3.6	1.51e+00	0	32	104	0	60	104890
2026-01-06 21:00:44.75	339.92	10.01	-51.4	-66.7	3.6	1.51e+00	0	32	104	0	60	105306
2026-01-06 21:00:45.62	339.80	9.96	-51.4	-66.7	3.6	1.51e+00	0	31	104	0	60	105616
2026-01-06 21:00:46.77	339.64	9.90	-51.4	-66.7	3.5	1.51e+00	0	32	104	0	60	105028
2026-01-06 21:00:47.64	339.52	9.85	-51.4	-66.6	3.6	1.51e+00	0	32	104	0	60	104508
2026-01-06 21:00:48.80	339.36	9.79	-51.4	-66.7	3.6	1.51e+00	0	32	104	0	60	105295
2026-01-06 21:00:49.66	339.24	9.74	-51.4	-66.7	3.6	1.51e+00	0	32	104	0	60	105132
2026-01-06 21:00:50.82	339.09	9.68	-51.4	-66.7	3.6	1.51e+00	0	32	104	0	60	105458
2026-01-06 21:00:51.69	338.97	9.63	-51.4	-66.6	3.6	1.51e+00	0	32	104	0	60	104798
2026-01-06 21:00:52.84	338.82	9.57	-51.4	-66.7	3.6	1.51e+00	0	32	104	0	60	105676
2026-01-06 21:00:53.71	338.70	9.52	-51.4	-66.7	3.6	1.51e+00	0	32	104	0	60	105122
2026-01-06 21:00:54.86	338.55	9.45	-51.4	-66.6	3.6	1.51e+00	0	32	104	0	60	104533
2026-01-06 21:00:55.73	338.43	9.41	-51.4	-66.6	3.6	1.51e+00	0	32	104	0	60	104539
2026-01-06 21:00:56.88	338.28	9.34	-51.4	-66.7	3.6	1.51e+00	0	32	104	0	60	105663
2026-01-06 21:00:57.75	338.16	9.29	-51.4	-66.6	3.6	1.51e+00	0	32	104	0	60	104586
2026-01-06 21:00:58.91	338.01	9.23	-51.4	-66.6	3.6	1.51e+00	0	32	104	0	60	104776
2026-01-06 21:00:59.77	337.90	9.18	-51.4	-66.7	3.6	1.51e+00	0	32	104	0	60	104972
2026-01-06 21:01:00.93	337.75	9.12	-51.4	-66.6	3.6	1.51e+00	0	32	104	0	60	104494
2026-01-06 21:01:01.80	337.64	9.07	-51.4	-66.7	3.6	1.51e+00	0	32	104	0	60	105221
2026-01-06 21:01:02.95	337.49	9.01	-51.4	-66.7	3.6	1.51e+00	0	32	104	0	60	105051
2026-01-06 21:01:03.82	337.37	8.96	-51.4	-66.7	3.6	1.51e+00	0	32	104	0	60	105032
2026-01-06 21:01:04.97	337.23	8.89	-51.4	-66.7	3.6	1.51e+00	0	32	104	0	60	105267
2026-01-06 21:01:05.84	337.12	8.85	-51.4	-66.7	3.6	1.51e+00	0	32	104	0	60	104974
2026-01-06 21:01:06.99	336.97	8.78	-51.4	-66.7	3.6	1.51e+00	0	32	104	0	60	105023
2026-01-06 21:01:07.86	336.86	8.73	-51.4	-66.7	3.6	1.51e+00	0	31	104	0	60	104858
2026-01-06 21:01:09.01	336.71	8.67	-51.4	-66.7	3.6	1.51e+00	0	32	104	0	60	104964
2026-01-06 21:01:09.88	336.61	8.62	-51.4	-66.6	3.6	1.51e+00	0	32	104	0	60	104739
2026-01-06 21:01:11.03	336.46	8.56	-51.4	-66.6	3.6	1.51e+00	0	32	104	0	60	104842
2026-01-06 21:01:11.90	336.35	8.51	-51.4	-66.7	3.6	1.51e+00	0	32	104	0	60	104938
2026-01-06 21:01:13.06	336.21	8.45	-51.4	-66.6	3.6	1.51e+00	0	32	104	0	60	104781
2026-01-06 21:01:13.92	336.10	8.40	-51.4	-66.7	3.6	1.51e+00	0	32	104	0	60	105556
2026-01-06 21:01:15.08	335.96	8.33	-51.4	-66.7	3.6	1.51e+00	0	32	104	0	60	105162
2026-01-06 21:01:15.95	335.85	8.28	-51.4	-66.7	3.6	1.51e+00	0	32	104	0	60	105156
2026-01-06 21:01:17.10	335.71	8.22	-51.4	-66.7	3.6	1.51e+00	0	32	104	0	60	104915
2026-01-06 21:01:17.96	335.61	8.17	-51.4	-66.7	3.6	1.51e+00	0	32	104	0	60	104908
2026-01-06 21:01:19.12	335.47	8.11	-51.4	-66.6	3.6	1.51e+00	0	32	104	0	60	104691
2026-01-06 21:01:19.99	335.36	8.06	-51.4	-66.6	3.6	1.51e+00	0	32	104	0	60	104423
2026-01-06 21:01:21.14	335.22	8.00	-51.4	-66.7	3.6	1.51e+00	0	31	104	0	60	105074
2026-01-06 21:01:22.01	335.12	7.95	-51.4	-66.7	3.6	1.51e+00	0	32	104	0	60	104997
2026-01-06 21:01:23.16	334.98	7.88	-51.4	-66.6	3.6	1.51e+00	0	32	104	0	60	104845
2026-01-06 21:01:24.03	334.88	7.84	-51.4	-66.7	3.6	1.51e+00	0	32	104	0	60	104940
2026-01-06 21:01:25.18	334.74	7.77	-51.4	-66.7	3.6	1.51e+00	0	32	104	0	60	104952
2026-01-06 21:01:26.05	334.64	7.72	-51.4	-66.7	3.6	1.51e+00	0	32	104	0	60	104913
2026-01-06 21:01:27.21	334.50	7.66	-51.4	-66.7	3.6	1.51e+00	0	32	104	0	60	105072
2026-01-06 21:01:28.07	334.40	7.61	-51.4	-66.6	3.6	1.51e+00	0	31	104	0	60	104673
2026-01-06 21:01:29.22	334.27	7.55	-51.4	-66.6	3.6	1.51e+00	0	32	104	0	60	104756
2026-01-06 21:01:30.09	334.17	7.50	-51.4	-66.7	3.6	1.51e+00	0	32	104	0	60	104878
2026-01-06 21:01:31.25	334.03	7.44	-51.4	-66.7	3.6	1.51e+00	0	32	104	0	60	105000
2026-01-06 21:01:32.11	333.93	7.39	-51.4	-66.7	3.6	1.51e+00	0	32	104	0	60	104900
2026-01-06 21:01:33.26	333.80	7.32	-51.4	-66.6	3.6	1.51e+00	0	32	104	0	60	104577
2026-01-06 21:01:34.13	333.70	7.28	-51.4	-66.7	3.6	1.51e+00	0	32	104	0	60	104871
2026-01-06 21:01:35.29	333.57	7.21	-51.4	-66.7	3.6	1.51e+00	0	32	104	0	60	104978
2026-01-06 21:01:36.15	333.47	7.16	-51.4	-66.7	3.5	1.51e+00	0	32	104	0	60	105216
2026-01-06 21:01:37.31	333.34	7.10	-51.4	-66.7	3.6	1.51e+00	0	32	104	0	60	104980
2026-01-06 21:01:38.17	333.25	7.05	-51.4	-66.7	3.6	1.51e+00	0	32	104	0	60	104960
2026-01-06 21:01:39.33	333.12	6.99	-51.4	-66.6	3.5	1.51e+00	0	32	104	0	60	104546
2026-01-06 21:01:40.20	333.02	6.94	-51.4	-66.6	3.6	1.51e+00	0	32	104	0	60	104727
2026-01-06 21:01:41.35	332.89	6.88	-51.4	-66.7	3.6	1.51e+00	0	32	104	0	60	105213
2026-01-06 21:01:42.22	332.79	6.83	-51.4	-66.7	3.6	1.51e+00	0	32	104	0	60	104860
2026-01-06 21:01:43.38	332.67	6.76	-51.4	-66.7	3.6	1.51e+00	0	32	104	0	60	105056
2026-01-06 21:01:44.24	332.57	6.72	-51.4	-66.6	3.6	1.51e+00	0	32	104	0	60	104664
2026-01-06 21:01:45.40	332.45	6.65	-51.4	-66.7	3.6	1.51e+00	0	32	104	0	60	105144
2026-01-06 21:01:46.27	332.35	6.60	-51.4	-66.6	3.6	1.51e+00	0	32	104	0	60	104803
2026-01-06 21:01:47.42	332.23	6.54	-51.4	-66.7	3.6	1.51e+00	0	32	104	0	60	105186
2026-01-06 21:01:48.29	332.13	6.49	-51.4	-66.7	3.6	1.51e+00	0	32	104	0	60	104859
2026-01-06 21:01:49.44	332.01	6.43	-51.4	-66.7	3.6	1.51e+00	0	32	104	0	60	105076
2026-01-06 21:01:50.31	331.91	6.38	-51.4	-66.6	3.6	1.51e+00	0	32	104	0	60	104754
2026-01-06 21:01:51.46	331.79	6.32	-51.4	-66.7	3.6	1.51e+00	0	32	104	0	60	105315
2026-01-06 21:01:52.33	331.70	6.27	-51.4	-66.7	3.6	1.51e+00	0	32	104	0	60	105056
2026-01-06 21:01:53.49	331.58	6.20	-51.4	-66.7	3.6	1.51e+00	0	32	104	0	60	105322
2026-01-06 21:01:54.35	331.49	6.16	-51.4	-66.7	3.6	1.51e+00	0	32	104	0	60	105037
2026-01-06 21:01:55.51	331.36	6.09	-51.4	-66.6	3.6	1.51e+00	0	32	104	0	60	104692
2026-01-06 21:01:56.37	331.27	6.05	-51.4	-66.6	3.6	1.51e+00	0	31	104	0	60	104551
2026-01-06 21:01:57.53	331.15	5.98	-51.4	-66.7	3.6	1.51e+00	0	32	104	0	60	105021
2026-01-06 21:01:58.40	331.06	5.93	-51.4	-66.7	3.6	1.51e+00	0	32	104	0	60	104912
2026-01-06 21:01:59.55	330.94	5.87	-51.4	-66.7	3.6	1.51e+00	0	32	104	0	60	104893
2026-01-06 21:02:00.42	330.85	5.82	-51.4	-66.6	3.6	1.51e+00	0	32	104	0	60	104740
2026-01-06 21:02:01.57	330.74	5.76	-51.4	-66.6	3.6	1.51e+00	0	32	104	0	60	104452
2026-01-06 21:02:02.44	330.65	5.71	-51.4	-66.7	3.6	1.51e+00	0	32	104	0	60	105390
2026-01-06 21:02:03.59	330.53	5.65	-51.4	-66.6	3.6	1.51e+00	0	32	104	0	60	104786
2026-01-06 21:02:04.46	330.44	5.60	-51.4	-66.6	3.6	1.51e+00	0	32	104	0	60	104609
2026-01-06 21:02:05.61	330.32	5.54	-51.4	-66.7	3.6	1.51e+00	0	32	104	0	60	104881
2026-01-06 21:02:06.48	330.24	5.49	-51.4	-66.6	3.6	1.51e+00	0	31	104	0	60	104766
2026-01-06 21:02:07.63	330.12	5.43	-51.4	-66.7	3.6	1.51e+00	0	32	104	0	60	105111
2026-01-06 21:02:08.49	330.04	5.38	-51.4	-66.7	3.6	1.51e+00	0	31	104	0	60	104858
2026-01-06 21:02:09.65	329.92	5.32	-51.4	-66.6	3.6	1.51e+00	0	32	104	0	60	104323
2026-01-06 21:02:10.51	329.84	5.27	-51.4	-66.7	3.6	1.51e+00	0	32	104	0	60	105276
2026-01-06 21:02:11.67	329.72	5.21	-51.4	-66.7	3.6	1.51e+00	0	32	104	0	60	104891
2026-01-06 21:02:12.53	329.64	5.16	-51.4	-66.7	3.6	1.51e+00	0	32	104	0	60	105298
2026-01-06 21:02:13.69	329.52	5.10	-51.4	-66.6	3.6	1.51e+00	0	32	104	0	60	104764
2026-01-06 21:02:14.56	329.44	5.05	-51.4	-66.7	3.6	1.51e+00	0	32	104	0	60	104949
2026-01-06 21:02:15.71	329.33	4.99	-51.3	-66.7	3.6	1.51e+00	0	32	104	0	60	105068
2026-01-06 21:02:16.57	329.24	4.94	-51.4	-66.7	3.6	1.51e+00	0	32	104	0	60	104912
2026-01-06 21:02:17.73	329.13	4.88	-51.4	-66.7	3.6	1.51e+00	0	32	104	0	60	104874
2026-01-06 21:02:18.59	329.05	4.83	-51.4	-66.7	3.6	1.51e+00	0	32	104	0	60	105280
2026-01-06 21:02:19.75	328.94	4.77	-51.4	-66.6	3.6	1.51e+00	0	32	104	0	60	104705
2026-01-06 21:02:20.61	328.85	4.72	-51.4	-66.7	3.6	1.51e+00	0	32	104	0	60	105103
2026-01-06 21:02:21.77	328.74	4.66	-51.4	-66.7	3.6	1.51e+00	0	32	104	0	60	105108
2026-01-06 21:02:22.63	328.66	4.61	-51.4	-66.7	3.6	1.51e+00	0	32	104	0	60	105264
2026-01-06 21:02:23.78	328.55	4.55	-51.3	-66.6	3.6	1.51e+00	0	32	104	0	60	104141
2026-01-06 21:02:24.65	328.47	4.50	-51.4	-66.6	3.6	1.51e+00	0	32	104	0	60	104726
2026-01-06 21:02:25.80	328.37	4.44	-51.4	-66.6	3.6	1.51e+00	0	32	104	0	60	104671
2026-01-06 21:02:26.66	328.29	4.39	-51.4	-66.7	3.6	1.51e+00	0	32	104	0	60	105094
2026-01-06 21:02:27.81	328.18	4.33	-51.4	-66.7	3.6	1.51e+00	0	32	104	0	60	105207
2026-01-06 21:02:28.68	328.10	4.28	-51.4	-66.6	3.6	1.51e+00	0	32	104	0	60	104476
2026-01-06 21:02:29.83	327.99	4.22	-51.3	-66.6	3.6	1.51e+00	0	32	104	0	60	104772
2026-01-06 21:02:30.70	327.91	4.17	-51.4	-66.7	3.6	1.51e+00	0	32	104	0	60	104856
2026-01-06 21:02:31.85	327.81	4.11	-51.4	-66.7	3.6	1.51e+00	0	32	104	0	60	104881
2026-01-06 21:02:32.72	327.73	4.07	-51.3	-66.6	3.6	1.51e+00	0	32	104	0	60	104673
2026-01-06 21:02:33.87	327.62	4.00	-51.4	-66.7	3.6	1.51e+00	0	32	104	0	60	105050
2026-01-06 21:02:34.74	327.55	3.96	-51.4	-66.6	3.6	1.51e+00	0	32	104	0	60	104664
2026-01-06 21:02:35.89	327.44	3.89	-51.3	-66.6	3.6	1.51e+00	0	32	104	0	60	104772
2026-01-06 21:02:36.76	327.36	3.85	-51.4	-66.7	3.6	1.51e+00	0	32	104	0	60	104895
2026-01-06 21:02:37.91	327.26	3.79	-51.4	-66.6	3.6	1.51e+00	0	32	104	0	60	104694
2026-01-06 21:02:38.78	327.18	3.74	-51.4	-66.7	3.6	1.51e+00	0	32	104	0	60	104919
2026-01-06 21:02:39.93	327.08	3.68	-51.3	-66.7	3.6	1.51e+00	0	32	104	0	60	105275
2026-01-06 21:02:40.80	327.01	3.63	-51.4	-66.6	3.6	1.51e+00	0	32	104	0	60	104509
2026-01-06 21:02:41.95	326.90	3.57	-51.4	-66.7	3.6	1.51e+00	0	32	104	0	60	105234
2026-01-06 21:02:42.82	326.83	3.52	-51.4	-66.7	3.6	1.51e+00	0	32	104	0	60	105519
2026-01-06 21:02:43.97	326.73	3.46	-51.4	-66.6	3.6	1.51e+00	0	32	104	0	60	104390
2026-01-06 21:02:44.84	326.65	3.42	-51.4	-66.7	3.6	1.51e+00	0	32	104	0	60	104986
2026-01-06 21:02:45.99	326.55	3.35	-51.4	-66.7	3.6	1.51e+00	0	32	104	0	60	105201
2026-01-06 21:02:46.86	326.48	3.31	-51.4	-66.6	3.6	1.51e+00	0	32	104	0	60	104704
2026-01-06 21:02:48.01	326.38	3.25	-51.4	-66.7	3.6	1.51e+00	0	32	104	0	60	105331
2026-01-06 21:02:48.88	326.30	3.20	-51.4	-66.6	3.6	1.51e+00	0	32	104	0	60	104822
2026-01-06 21:02:50.03	326.21	3.14	-51.4	-66.7	3.6	1.51e+00	0	32	104	0	60	105170
2026-01-06 21:02:50.90	326.13	3.09	-51.4	-66.6	3.6	1.51e+00	0	32	104	0	60	104311
2026-01-06 21:02:52.05	326.04	3.03	-51.4	-66.7	3.6	1.51e+00	0	32	104	0	60	105165
2026-01-06 21:02:52.91	325.96	2.99	-51.4	-66.7	3.6	1.51e+00	0	32	104	0	60	104933
2026-01-06 21:02:54.07	325.87	2.93	-51.4	-66.7	3.6	1.51e+00	0	32	104	0	60	105266
2026-01-06 21:02:54.93	325.79	2.88	-51.4	-66.7	3.6	1.51e+00	0	32	104	0	60	105085
2026-01-06 21:02:56.08	325.70	2.82	-51.4	-66.6	3.6	1.51e+00	0	32	104	0	60	104665
2026-01-06 21:02:56.95	325.63	2.77	-51.4	-66.7	3.6	1.51e+00	0	32	104	0	60	104854
2026-01-06 21:02:58.10	325.53	2.71	-51.4	-66.6	3.6	1.51e+00	0	32	104	0	60	104662
2026-01-06 21:02:58.97	325.46	2.67	-51.4	-66.6	3.6	1.51e+00	0	32	104	0	60	104565
2026-01-06 21:03:00.12	325.36	2.61	-51.3	-66.7	3.6	1.51e+00	0	32	104	0	60	104935
2026-01-06 21:03:00.98	325.29	2.56	-51.4	-66.7	3.6	1.51e+00	0	32	104	0	60	104985
2026-01-06 21:03:02.14	325.20	2.50	-51.3	-66.6	3.6	1.51e+00	0	32	104	0	60	104758
2026-01-06 21:03:03.01	325.13	2.45	-51.4	-66.6	3.6	1.51e+00	0	32	104	0	60	104664
2026-01-06 21:03:04.16	325.04	2.39	-51.4	-66.6	3.6	1.51e+00	0	32	104	0	60	104786
2026-01-06 21:03:05.02	324.97	2.35	-51.3	-66.7	3.6	1.51e+00	0	32	104	0	60	104950
2026-01-06 21:03:06.18	324.87	2.29	-51.4	-66.7	3.6	1.51e+00	0	32	104	0	60	105187
2026-01-06 21:03:07.04	324.80	2.24	-51.4	-66.6	3.6	1.51e+00	0	32	104	0	60	104835
2026-01-06 21:03:08.20	324.71	2.18	-51.4	-66.7	3.6	1.51e+00	0	32	104	0	60	105151
2026-01-06 21:03:09.06	324.64	2.14	-51.4	-66.7	3.6	1.51e+00	0	32	104	0	60	105044
2026-01-06 21:03:10.22	324.55	2.08	-51.3	-66.7	3.6	1.51e+00	0	32	104	0	60	104857
2026-01-06 21:03:11.08	324.48	2.03	-51.4	-66.7	3.6	1.51e+00	0	32	104	0	60	104864
2026-01-06 21:03:12.24	324.39	1.97	-51.3	-66.6	3.6	1.51e+00	0	32	104	0	60	104821
2026-01-06 21:03:13.10	324.33	1.92	-51.4	-66.6	3.6	1.51e+00	0	32	104	0	60	104729
2026-01-06 21:03:14.26	324.24	1.86	-51.3	-66.6	3.6	1.51e+00	0	32	104	0	60	104646
