passes_logs/2026/01/06/R4.6S_Anadyr_2ch/R4.6S_Anadyr_2ch__20260106_211101_NOAA_20_JPSS-1_rec.log

#Pass ID: 20260106_211101_NOAA 20 (JPSS-1)
#Satellite: NOAA 20 (JPSS-1)
#Configuration: NOAA 20
#almurnet v.1.7.20251203
#Start time: 2026-01-06 21:11:04

#Version: 2.2.20231116
#Station: R4.6S_Anadyr_2ch
#Location: 177.4865 lon 64.73178 lat
#TLE: 1 43013U 17073A   25350.93759711  .00000080  00000+0  58734-4 0  9994
#TLE: 2 43013  98.7603 287.1885 0002156  81.1496 278.9924 14.19526878418610

#Time	Az	El	Level	Level2	SNR	BER	BlckErr	Temp	State	Recorded	gain1	gain2
2026-01-06 21:11:04.43	84.93	0.16	-51.4	-65.3	3.3	1.54e+00	0	30	0	0	60	89489
2026-01-06 21:11:05.44	84.86	0.21	-51.4	-66.8	3.6	1.51e+00	0	30	104	0	60	106848
2026-01-06 21:11:06.44	84.80	0.26	-51.4	-66.8	3.6	1.51e+00	0	30	104	0	60	107005
2026-01-06 21:11:07.45	84.73	0.31	-51.4	-66.8	3.6	1.51e+00	0	30	104	0	60	107010
2026-01-06 21:11:08.46	84.66	0.37	-51.4	-66.8	3.6	1.51e+00	0	30	104	0	60	106453
2026-01-06 21:11:09.47	84.60	0.42	-51.5	-66.8	3.6	1.51e+00	0	30	104	0	60	106955
2026-01-06 21:11:10.48	84.53	0.47	-51.4	-66.9	3.6	1.51e+00	0	30	104	0	60	107985
2026-01-06 21:11:11.48	84.47	0.52	-51.4	-66.9	3.6	1.51e+00	0	30	104	0	60	107630
2026-01-06 21:11:12.49	84.40	0.58	-51.5	-66.9	3.6	1.51e+00	0	30	104	0	60	107434
2026-01-06 21:11:13.50	84.33	0.63	-51.5	-66.9	3.6	1.51e+00	0	30	104	0	60	107726
2026-01-06 21:11:14.51	84.26	0.68	-51.5	-66.9	3.6	1.51e+00	0	30	104	0	60	107603
2026-01-06 21:11:15.52	84.20	0.74	-51.4	-66.8	3.6	1.51e+00	0	30	104	0	60	106868
2026-01-06 21:11:16.53	84.13	0.79	-51.4	-66.7	3.6	1.51e+00	0	30	104	0	60	105738
2026-01-06 21:11:17.53	84.06	0.84	-50.7	-66.6	3.6	1.51e+00	0	30	104	0	60	104551
2026-01-06 21:11:18.54	83.99	0.90	-51.1	-66.5	3.6	1.51e+00	0	30	104	0	60	102957
2026-01-06 21:11:19.55	83.92	0.95	-50.4	-66.2	3.6	1.51e+00	0	30	104	0	60	99837
2026-01-06 21:11:20.56	83.85	1.00	-50.1	-65.5	3.6	1.51e+00	0	30	104	0	60	91857
2026-01-06 21:11:21.56	83.78	1.06	-49.8	-65.3	3.6	1.51e+00	0	30	104	0	60	90103
2026-01-06 21:11:22.57	83.71	1.11	-49.8	-65.3	3.6	1.51e+00	0	30	104	0	60	90137
2026-01-06 21:11:23.58	83.64	1.16	-49.8	-65.3	3.6	1.51e+00	0	30	104	0	60	89833
2026-01-06 21:11:24.59	83.57	1.22	-49.8	-65.3	3.6	1.51e+00	0	30	104	0	60	89909
2026-01-06 21:11:25.59	83.50	1.27	-49.8	-65.3	3.6	1.51e+00	0	30	104	0	60	89657
2026-01-06 21:11:26.60	83.43	1.32	-49.8	-65.3	3.6	1.51e+00	0	30	104	0	60	89670
2026-01-06 21:11:27.61	83.36	1.38	-49.8	-65.3	3.6	1.51e+00	0	30	104	0	60	89806
2026-01-06 21:11:28.62	83.29	1.43	-49.8	-65.3	3.6	1.51e+00	0	30	104	0	60	89667
2026-01-06 21:11:29.63	83.22	1.49	-49.8	-65.3	3.6	1.51e+00	0	31	104	0	60	89544
2026-01-06 21:11:30.63	83.15	1.54	-49.8	-65.3	3.6	1.51e+00	0	31	104	0	60	89448
2026-01-06 21:11:31.64	83.08	1.59	-49.8	-65.2	3.6	1.51e+00	0	30	104	0	60	89065
2026-01-06 21:11:32.65	83.00	1.65	-49.8	-65.2	3.6	1.51e+00	0	31	104	0	60	88655
2026-01-06 21:11:33.66	82.93	1.70	-49.8	-65.3	3.6	1.51e+00	0	31	104	0	60	89501
2026-01-06 21:11:34.66	82.86	1.76	-49.8	-65.3	3.6	1.51e+00	0	31	104	0	60	89498
2026-01-06 21:11:35.67	82.79	1.81	-49.8	-65.3	3.6	1.51e+00	0	31	104	0	60	89864
2026-01-06 21:11:36.68	82.71	1.86	-49.8	-65.3	3.6	1.51e+00	0	31	104	0	60	89939
2026-01-06 21:11:37.69	82.64	1.92	-49.8	-65.3	3.6	1.51e+00	0	31	104	0	60	89520
2026-01-06 21:11:38.69	82.56	1.97	-49.8	-65.3	3.6	1.51e+00	0	31	104	0	60	89411
2026-01-06 21:11:39.70	82.49	2.03	-49.8	-65.2	3.6	1.51e+00	0	31	104	0	60	89194
2026-01-06 21:11:40.71	82.42	2.08	-49.8	-65.2	3.6	1.51e+00	0	31	104	0	60	88552
2026-01-06 21:11:41.72	82.34	2.14	-49.8	-65.1	3.6	1.51e+00	0	31	104	0	60	88199
2026-01-06 21:11:42.73	82.27	2.19	-49.8	-65.0	3.6	1.51e+00	0	31	104	0	60	87151
2026-01-06 21:11:43.74	82.19	2.25	-49.8	-65.0	3.6	1.51e+00	0	31	104	0	60	86652
2026-01-06 21:11:44.74	82.11	2.30	-49.8	-65.1	3.6	1.51e+00	0	31	104	0	60	87362
2026-01-06 21:11:45.75	82.04	2.36	-49.8	-65.2	3.6	1.51e+00	0	31	104	0	60	88903
2026-01-06 21:11:46.76	81.96	2.41	-49.8	-65.3	3.6	1.51e+00	0	31	104	0	60	89536
2026-01-06 21:11:47.77	81.89	2.47	-49.8	-65.3	3.6	1.51e+00	0	31	104	0	60	89785
2026-01-06 21:11:48.78	81.81	2.52	-49.8	-65.2	3.6	1.51e+00	0	31	104	0	60	89003
2026-01-06 21:11:49.79	81.73	2.58	-49.8	-65.2	3.6	1.51e+00	0	31	104	0	60	88444
2026-01-06 21:11:50.79	81.65	2.63	-49.8	-65.3	3.6	1.51e+00	0	31	104	0	60	89471
2026-01-06 21:11:51.80	81.58	2.69	-49.8	-65.3	3.6	1.51e+00	0	31	104	0	60	89268
2026-01-06 21:11:52.81	81.50	2.74	-49.8	-65.1	3.6	1.51e+00	0	31	104	0	60	87376
2026-01-06 21:11:53.81	81.42	2.80	-49.7	-64.6	3.6	1.51e+00	0	31	104	0	60	82961
2026-01-06 21:11:54.82	81.34	2.85	-49.7	-64.3	3.6	1.51e+00	0	31	104	0	60	79556
2026-01-06 21:11:55.83	81.26	2.91	-49.7	-64.6	3.6	1.51e+00	0	31	104	0	60	83187
2026-01-06 21:11:56.84	81.18	2.96	-49.8	-65.0	3.6	1.51e+00	0	31	104	0	60	87110
2026-01-06 21:11:57.85	81.10	3.02	-49.7	-64.1	3.6	1.51e+00	0	31	104	0	60	77758
2026-01-06 21:11:58.85	81.02	3.07	-49.5	-60.6	4.6	1.21e+00	92	31	104	0	60	52296
2026-01-06 21:11:59.86	80.94	3.13	-49.1	-56.4	7.0	2.66e-01	92	31	0	0	60	32381
2026-01-06 21:12:00.87	80.86	3.18	-48.6	-54.3	9.4	5.56e-02	92	31	102	1048576	60	25433
2026-01-06 21:12:01.87	80.78	3.24	-49.0	-55.4	8.0	1.01e-02	54	31	102	1048576	60	28700
2026-01-06 21:12:02.88	80.70	3.30	-50.0	-65.2	3.6	1.29e+00	0	31	104	1048576	60	89001
2026-01-06 21:12:03.88	80.62	3.35	-47.7	-52.3	11.6	1.46e+00	20	31	104	1048576	60	20069
2026-01-06 21:12:04.89	80.54	3.41	-44.7	-46.6	17.8	4.71e-04	92	31	0	1048576	60	10444
2026-01-06 21:12:05.90	80.46	3.46	-49.7	-64.3	3.6	7.46e-01	0	31	104	1048576	60	80373
2026-01-06 21:12:06.91	80.37	3.52	-45.0	-47.1	17.8	8.68e-01	92	31	0	1048576	60	11042
2026-01-06 21:12:07.92	80.29	3.58	-44.5	-46.3	18.2	0.00e+00	92	31	0	1048576	60	10120
2026-01-06 21:12:08.93	80.21	3.63	-44.3	-46.1	18.3	0.00e+00	92	31	0	1048576	60	9884
2026-01-06 21:12:09.94	80.12	3.69	-44.4	-46.2	18.3	0.00e+00	92	31	0	1048576	60	10012
2026-01-06 21:12:10.94	80.04	3.74	-44.5	-46.3	18.2	0.00e+00	0	31	0	1048576	60	10111
2026-01-06 21:12:11.95	79.96	3.80	-44.3	-46.1	18.4	0.00e+00	91	31	0	1048576	60	9845
2026-01-06 21:12:12.96	79.87	3.86	-44.3	-46.1	18.5	0.00e+00	8	31	0	1048576	60	9855
2026-01-06 21:12:13.97	79.79	3.91	-44.4	-46.2	18.4	0.00e+00	91	31	0	1048576	60	9939
2026-01-06 21:12:14.98	79.70	3.97	-44.3	-46.1	18.5	0.00e+00	92	31	0	1048576	60	9827
2026-01-06 21:12:15.99	79.62	4.03	-44.4	-46.2	18.4	0.00e+00	92	31	0	1048576	60	9943
2026-01-06 21:12:17.00	79.53	4.08	-44.4	-46.1	18.5	0.00e+00	92	31	0	1048576	60	9871
2026-01-06 21:12:18.01	79.44	4.14	-44.3	-46.1	18.5	0.00e+00	36	31	0	1048576	60	9798
2026-01-06 21:12:19.01	79.36	4.20	-44.3	-46.1	18.5	0.00e+00	92	31	0	1048576	60	9801
2026-01-06 21:12:20.02	79.27	4.25	-44.5	-46.3	18.3	0.00e+00	0	31	0	1048576	60	10097
2026-01-06 21:12:21.03	79.18	4.31	-44.4	-46.1	18.4	0.00e+00	92	31	0	1048576	60	9887
2026-01-06 21:12:22.04	79.10	4.37	-44.3	-46.0	18.6	0.00e+00	92	31	0	1048576	60	9756
2026-01-06 21:12:23.04	79.01	4.43	-44.3	-46.0	18.7	0.00e+00	92	31	0	1048576	60	9699
2026-01-06 21:12:24.05	78.92	4.48	-44.3	-46.0	18.7	0.00e+00	92	31	0	1048576	60	9689
2026-01-06 21:12:25.06	78.83	4.54	-44.3	-46.1	18.7	0.00e+00	2	31	101	1048576	60	9814
2026-01-06 21:12:26.06	78.74	4.60	-44.3	-46.0	18.7	0.00e+00	92	31	101	1048576	60	9721
2026-01-06 21:12:27.07	78.65	4.65	-44.3	-46.0	18.7	0.00e+00	0	31	101	1048576	60	9692
2026-01-06 21:12:28.07	78.57	4.71	-44.4	-46.1	18.6	0.00e+00	89	31	101	1048576	60	9847
2026-01-06 21:12:29.08	78.47	4.77	-44.1	-45.7	19.0	0.00e+00	92	31	101	1048576	60	9402
2026-01-06 21:12:30.09	78.38	4.83	-44.2	-45.9	18.8	0.00e+00	92	31	101	1048576	60	9591
2026-01-06 21:12:31.09	78.29	4.88	-44.1	-45.7	19.0	0.00e+00	93	31	101	1048576	60	9408
2026-01-06 21:12:32.10	78.20	4.94	-44.2	-45.9	18.8	0.00e+00	91	31	101	1048576	60	9582
2026-01-06 21:12:33.11	78.11	5.00	-44.2	-45.8	18.9	0.00e+00	92	31	101	1048576	60	9555
2026-01-06 21:12:34.11	78.02	5.05	-44.2	-45.8	18.9	0.00e+00	0	31	101	1048576	60	9481
2026-01-06 21:12:35.12	77.93	5.11	-44.2	-45.9	18.9	0.00e+00	92	31	101	1048576	60	9606
2026-01-06 21:12:36.12	77.84	5.17	-44.1	-45.7	19.1	0.00e+00	18	31	101	1048576	60	9353
2026-01-06 21:12:37.13	77.74	5.23	-44.3	-45.9	18.9	0.00e+00	92	31	101	1048576	60	9630
2026-01-06 21:12:38.14	77.65	5.29	-44.1	-45.7	19.1	0.00e+00	90	31	101	1048576	60	9437
2026-01-06 21:12:39.14	77.56	5.34	-44.1	-45.7	19.1	0.00e+00	92	31	101	1048576	60	9412
2026-01-06 21:12:40.15	77.46	5.40	-44.1	-45.7	19.2	0.00e+00	90	31	101	1048576	60	9352
2026-01-06 21:12:41.15	77.37	5.46	-44.1	-45.7	19.1	0.00e+00	0	31	101	1048576	60	9409
2026-01-06 21:12:42.16	77.27	5.52	-44.1	-45.7	19.1	0.00e+00	92	31	101	1048576	60	9439
2026-01-06 21:12:43.17	77.18	5.57	-44.3	-46.0	18.8	0.00e+00	0	31	101	1048576	60	9703
2026-01-06 21:12:44.17	77.08	5.63	-44.1	-45.7	19.1	0.00e+00	92	31	101	1048576	60	9389
2026-01-06 21:12:45.18	76.99	5.69	-44.3	-45.9	18.9	0.00e+00	92	31	101	1048576	60	9617
2026-01-06 21:12:46.19	76.89	5.75	-44.4	-46.1	18.6	0.00e+00	92	31	101	1048576	60	9828
2026-01-06 21:12:47.20	76.79	5.81	-44.2	-45.9	19.0	0.00e+00	92	31	101	1048576	60	9596
2026-01-06 21:12:48.20	76.70	5.87	-44.2	-45.8	19.1	0.00e+00	35	31	101	1048576	60	9481
2026-01-06 21:12:49.21	76.60	5.92	-44.2	-45.8	19.0	0.00e+00	92	31	101	1048576	60	9524
2026-01-06 21:12:50.22	76.50	5.98	-44.2	-45.8	19.1	0.00e+00	2	31	101	1048576	60	9507
2026-01-06 21:12:51.22	76.40	6.04	-44.2	-45.8	19.1	0.00e+00	90	31	101	1048576	60	9534
2026-01-06 21:12:52.23	76.30	6.10	-44.2	-45.8	19.2	0.00e+00	0	31	101	1048576	60	9469
2026-01-06 21:12:53.23	76.20	6.16	-44.3	-46.0	19.0	0.00e+00	90	31	101	1048576	60	9703
2026-01-06 21:12:54.24	76.10	6.22	-44.2	-45.8	19.1	0.00e+00	91	31	101	1048576	60	9490
2026-01-06 21:12:55.25	76.00	6.28	-44.3	-45.9	19.0	0.00e+00	90	31	101	1048576	60	9572
2026-01-06 21:12:56.26	75.90	6.33	-44.3	-46.0	19.0	0.00e+00	90	31	101	1048576	60	9688
2026-01-06 21:12:57.27	75.80	6.39	-44.3	-45.9	19.1	0.00e+00	45	31	101	1048576	60	9587
2026-01-06 21:12:58.27	75.70	6.45	-44.1	-45.6	19.3	0.00e+00	92	31	101	1048576	60	9335
2026-01-06 21:12:59.28	75.60	6.51	-44.1	-45.7	19.2	0.00e+00	0	31	101	1048576	60	9402
2026-01-06 21:13:00.29	75.50	6.57	-44.2	-45.8	19.1	0.00e+00	92	31	101	1048576	60	9543
2026-01-06 21:13:01.30	75.39	6.63	-44.2	-45.7	19.2	0.00e+00	92	31	101	1048576	60	9437
2026-01-06 21:13:02.30	75.29	6.69	-44.1	-45.7	19.2	0.00e+00	92	31	101	1048576	60	9407
2026-01-06 21:13:03.31	75.19	6.75	-44.2	-45.8	19.2	0.00e+00	92	31	101	1048576	60	9507
2026-01-06 21:13:04.32	75.08	6.81	-44.2	-45.8	19.2	0.00e+00	23	31	101	1048576	60	9489
2026-01-06 21:13:05.32	74.98	6.86	-44.2	-45.8	19.2	0.00e+00	92	31	101	1048576	60	9496
2026-01-06 21:13:06.33	74.88	6.92	-44.0	-45.6	19.4	0.00e+00	0	31	101	1048576	60	9268
2026-01-06 21:13:07.34	74.77	6.98	-44.2	-45.7	19.2	0.00e+00	92	31	101	1048576	60	9426
2026-01-06 21:13:08.34	74.66	7.04	-44.2	-45.7	19.2	0.00e+00	0	31	101	1048576	60	9450
2026-01-06 21:13:09.35	74.56	7.10	-43.9	-45.4	19.6	0.00e+00	92	31	101	1048576	60	9064
2026-01-06 21:13:10.35	74.45	7.16	-43.9	-45.4	19.6	0.00e+00	92	31	101	1048576	60	9128
2026-01-06 21:13:11.36	74.35	7.22	-44.0	-45.6	19.5	0.00e+00	93	31	101	1048576	60	9247
2026-01-06 21:13:12.36	74.24	7.28	-44.0	-45.5	19.5	0.00e+00	92	31	101	1048576	60	9167
2026-01-06 21:13:13.37	74.13	7.34	-43.9	-45.4	19.6	0.00e+00	40	31	101	1048576	60	9128
2026-01-06 21:13:14.38	74.02	7.40	-44.0	-45.6	19.4	0.00e+00	92	31	101	1048576	60	9268
2026-01-06 21:13:15.38	73.91	7.46	-44.1	-45.7	19.3	0.00e+00	0	31	101	1048576	60	9365
2026-01-06 21:13:16.39	73.80	7.52	-44.2	-45.8	19.2	0.00e+00	92	31	101	1048576	60	9476
2026-01-06 21:13:17.39	73.70	7.58	-44.0	-45.5	19.5	0.00e+00	92	31	101	1048576	60	9202
2026-01-06 21:13:18.40	73.59	7.64	-44.1	-45.7	19.4	0.00e+00	91	31	101	1048576	60	9363
2026-01-06 21:13:19.41	73.47	7.70	-43.9	-45.4	19.6	0.00e+00	92	31	101	1048576	60	9060
2026-01-06 21:13:20.41	73.36	7.76	-43.9	-45.4	19.6	0.00e+00	34	31	101	1048576	60	9122
2026-01-06 21:13:21.42	73.25	7.82	-43.8	-45.3	19.7	0.00e+00	92	31	101	1048576	60	8983
2026-01-06 21:13:22.43	73.14	7.88	-43.9	-45.4	19.7	0.00e+00	0	31	101	1048576	60	9091
2026-01-06 21:13:23.44	73.03	7.94	-43.8	-45.2	19.8	0.00e+00	92	31	101	1048576	60	8921
2026-01-06 21:13:24.45	72.91	8.00	-43.7	-45.2	19.8	0.00e+00	92	31	101	1048576	60	8872
2026-01-06 21:13:25.46	72.80	8.06	-43.8	-45.2	19.9	0.00e+00	92	31	101	1048576	60	8895
2026-01-06 21:13:26.46	72.69	8.12	-43.7	-45.2	19.9	0.00e+00	90	31	101	1048576	60	8864
2026-01-06 21:13:27.47	72.57	8.18	-43.8	-45.3	19.9	0.00e+00	66	31	101	1048576	60	8975
2026-01-06 21:13:28.48	72.46	8.24	-43.6	-45.1	20.0	0.00e+00	90	31	101	1048576	60	8737
2026-01-06 21:13:29.49	72.34	8.30	-43.6	-45.0	20.1	0.00e+00	44	31	101	1048576	60	8681
2026-01-06 21:13:30.49	72.23	8.36	-43.5	-44.9	20.2	0.00e+00	92	31	101	1048576	60	8527
2026-01-06 21:13:31.50	72.11	8.42	-43.3	-44.6	20.5	0.00e+00	0	31	101	1048576	60	8268
2026-01-06 21:13:32.51	71.99	8.48	-43.2	-44.6	20.5	0.00e+00	92	31	101	1048576	60	8258
2026-01-06 21:13:33.51	71.88	8.54	-43.1	-44.4	20.6	0.00e+00	93	31	101	1048576	60	8085
2026-01-06 21:13:34.52	71.76	8.60	-43.1	-44.4	20.7	0.00e+00	92	31	101	1048576	60	8096
2026-01-06 21:13:35.52	71.64	8.66	-43.2	-44.5	20.6	0.00e+00	92	31	101	1048576	60	8201
2026-01-06 21:13:36.53	71.52	8.72	-43.2	-44.5	20.6	0.00e+00	0	31	101	1048576	60	8183
2026-01-06 21:13:37.53	71.40	8.78	-43.0	-44.3	20.8	0.00e+00	92	31	101	1048576	60	7978
2026-01-06 21:13:38.54	71.28	8.84	-43.1	-44.3	20.7	0.00e+00	0	31	101	1048576	60	8044
2026-01-06 21:13:39.54	71.16	8.90	-43.0	-44.3	20.8	0.00e+00	92	31	101	1048576	60	7987
2026-01-06 21:13:40.55	71.04	8.96	-43.1	-44.3	20.7	0.00e+00	92	31	101	1048576	60	8037
2026-01-06 21:13:41.56	70.92	9.02	-42.9	-44.2	20.9	0.00e+00	90	31	101	1048576	60	7922
2026-01-06 21:13:42.57	70.80	9.08	-42.9	-44.1	21.0	0.00e+00	92	31	101	1048576	60	7818
2026-01-06 21:13:43.58	70.68	9.14	-42.9	-44.1	20.9	0.00e+00	40	31	101	1048576	60	7836
2026-01-06 21:13:44.58	70.55	9.20	-42.8	-44.1	21.0	0.00e+00	93	31	101	1048576	60	7802
2026-01-06 21:13:45.59	70.43	9.26	-42.7	-44.0	20.9	0.00e+00	6	31	101	1048576	60	7729
2026-01-06 21:13:46.60	70.31	9.32	-42.8	-44.1	21.0	0.00e+00	91	31	101	1048576	60	7811
2026-01-06 21:13:47.60	70.18	9.38	-42.9	-44.1	21.0	0.00e+00	0	31	101	1048576	60	7822
2026-01-06 21:13:48.61	70.06	9.44	-43.0	-44.3	20.8	0.00e+00	92	31	101	1048576	60	8016
2026-01-06 21:13:49.61	69.93	9.50	-42.7	-44.0	21.1	0.00e+00	91	31	101	1048576	60	7716
2026-01-06 21:13:50.62	69.81	9.56	-42.7	-44.0	21.1	0.00e+00	70	31	101	1048576	60	7714
2026-01-06 21:13:51.63	69.68	9.62	-42.7	-43.9	21.2	0.00e+00	92	31	101	1048576	60	7618
2026-01-06 21:13:52.63	69.55	9.68	-42.7	-43.9	21.2	0.00e+00	37	31	101	1048576	60	7614
2026-01-06 21:13:53.64	69.42	9.74	-42.6	-43.8	21.2	0.00e+00	92	31	101	1048576	60	7583
2026-01-06 21:13:54.65	69.30	9.80	-42.6	-43.8	21.3	0.00e+00	49	31	101	1048576	60	7578
2026-01-06 21:13:55.66	69.17	9.87	-42.5	-43.7	21.4	0.00e+00	91	31	101	1048576	60	7460
2026-01-06 21:13:56.66	69.04	9.93	-42.6	-43.8	21.3	0.00e+00	92	31	101	1048576	60	7543
2026-01-06 21:13:57.67	68.91	9.99	-42.6	-43.8	21.3	0.00e+00	80	31	101	1048576	60	7570
2026-01-06 21:13:58.68	68.78	10.05	-42.7	-43.9	21.2	0.00e+00	90	31	101	1048576	60	7627
2026-01-06 21:13:59.68	68.65	10.11	-42.8	-44.0	21.2	0.00e+00	7	31	101	1048576	60	7702
2026-01-06 21:14:00.69	68.52	10.17	-42.7	-43.9	21.1	0.00e+00	92	31	101	1048576	60	7682
2026-01-06 21:14:01.70	68.38	10.23	-42.8	-44.0	21.1	0.00e+00	14	31	101	1048576	60	7754
2026-01-06 21:14:02.70	68.25	10.29	-42.9	-44.2	21.0	0.00e+00	92	31	101	1048576	60	7876
2026-01-06 21:14:03.71	68.12	10.35	-42.8	-44.0	21.1	0.00e+00	0	31	101	1048576	60	7744
2026-01-06 21:14:04.71	67.98	10.41	-42.8	-44.0	21.1	0.00e+00	91	31	101	1048576	60	7740
2026-01-06 21:14:05.72	67.85	10.47	-42.8	-44.1	21.1	0.00e+00	92	31	101	1048576	60	7803
2026-01-06 21:14:06.73	67.71	10.53	-42.9	-44.1	21.0	0.00e+00	0	31	101	1048576	60	7832
2026-01-06 21:14:07.74	67.58	10.59	-42.9	-44.2	21.0	0.00e+00	92	31	101	1048576	60	7885
2026-01-06 21:14:08.74	67.44	10.65	-42.9	-44.2	21.0	0.00e+00	13	31	101	1048576	60	7897
2026-01-06 21:14:09.75	67.31	10.71	-42.8	-44.1	21.1	0.00e+00	92	31	101	1048576	60	7814
2026-01-06 21:14:10.76	67.17	10.77	-42.8	-44.1	21.2	0.00e+00	0	31	101	1048576	60	7794
2026-01-06 21:14:11.77	67.03	10.84	-42.8	-44.0	21.1	0.00e+00	67	31	101	1048576	60	7724
2026-01-06 21:14:12.77	66.89	10.90	-42.8	-44.0	21.1	0.00e+00	92	31	101	1048576	60	7772
2026-01-06 21:14:13.78	66.75	10.96	-42.9	-44.2	21.0	0.00e+00	82	31	101	1048576	60	7876
2026-01-06 21:14:14.79	66.61	11.02	-42.7	-43.9	21.3	0.00e+00	90	31	101	1048576	60	7666
2026-01-06 21:14:15.79	66.48	11.08	-42.8	-44.0	21.1	0.00e+00	47	31	101	1048576	60	7767
2026-01-06 21:14:16.80	66.33	11.14	-42.8	-44.0	21.3	0.00e+00	92	31	101	1048576	60	7708
2026-01-06 21:14:17.81	66.19	11.20	-42.7	-43.9	21.2	0.00e+00	49	31	101	1048576	60	7627
2026-01-06 21:14:18.82	66.05	11.26	-42.8	-44.0	21.1	0.00e+00	91	31	101	1048576	60	7769
2026-01-06 21:14:19.82	65.91	11.32	-42.8	-44.1	21.1	0.00e+00	50	31	101	1048576	60	7779
2026-01-06 21:14:20.83	65.77	11.38	-42.7	-43.9	21.3	0.00e+00	69	31	101	1048576	60	7653
2026-01-06 21:14:21.84	65.62	11.44	-42.7	-43.9	21.4	0.00e+00	90	31	101	1048576	60	7631
2026-01-06 21:14:22.85	65.48	11.50	-42.6	-43.8	21.4	0.00e+00	34	31	101	1048576	60	7532
2026-01-06 21:14:23.86	65.33	11.56	-42.6	-43.7	21.4	0.00e+00	92	31	101	1048576	60	7499
2026-01-06 21:14:24.86	65.19	11.62	-42.6	-43.8	21.3	0.00e+00	0	31	101	1048576	60	7584
2026-01-06 21:14:25.87	65.04	11.68	-42.7	-43.9	21.3	0.00e+00	92	31	101	1048576	60	7631
2026-01-06 21:14:26.88	64.89	11.74	-42.9	-44.1	21.2	0.00e+00	0	31	101	1048576	60	7815
2026-01-06 21:14:27.89	64.75	11.80	-42.8	-44.1	21.2	0.00e+00	2	31	101	1048576	60	7799
2026-01-06 21:14:28.89	64.60	11.86	-42.8	-44.0	21.3	0.00e+00	92	31	101	1048576	60	7740
2026-01-06 21:14:29.90	64.45	11.92	-42.8	-44.0	21.3	0.00e+00	0	31	101	1048576	60	7749
2026-01-06 21:14:30.90	64.30	11.98	-42.8	-44.1	21.1	0.00e+00	92	31	101	1048576	60	7800
2026-01-06 21:14:31.90	64.15	12.04	-42.8	-44.1	21.2	0.00e+00	0	31	101	1048576	60	7780
2026-01-06 21:14:32.91	64.00	12.10	-43.1	-44.3	21.0	0.00e+00	90	31	101	1048576	60	8030
2026-01-06 21:14:33.92	63.85	12.16	-43.0	-44.2	21.0	0.00e+00	0	31	101	1048576	60	7941
2026-01-06 21:14:34.93	63.70	12.22	-42.9	-44.1	21.1	0.00e+00	66	31	101	1048576	60	7839
2026-01-06 21:14:35.94	63.55	12.28	-42.9	-44.2	21.1	0.00e+00	92	31	101	1048576	60	7880
2026-01-06 21:14:36.94	63.39	12.34	-42.8	-44.0	21.3	0.00e+00	25	31	101	1048576	60	7731
2026-01-06 21:14:37.95	63.24	12.40	-42.9	-44.2	21.2	0.00e+00	90	31	101	1048576	60	7863
2026-01-06 21:14:38.96	63.09	12.46	-42.8	-44.0	21.2	0.00e+00	0	31	101	1048576	60	7749
2026-01-06 21:14:39.97	62.93	12.52	-42.7	-43.9	21.4	0.00e+00	92	31	101	1048576	60	7617
2026-01-06 21:14:40.97	62.78	12.58	-42.7	-43.8	21.3	0.00e+00	0	31	101	1048576	60	7588
2026-01-06 21:14:41.98	62.62	12.64	-42.6	-43.8	21.4	0.00e+00	92	31	101	1048576	60	7561
2026-01-06 21:14:42.99	62.46	12.70	-42.4	-43.5	21.7	0.00e+00	0	31	101	1048576	60	7290
2026-01-06 21:14:43.99	62.31	12.76	-42.4	-43.6	21.7	0.00e+00	49	31	101	1048576	60	7346
2026-01-06 21:14:45.00	62.15	12.82	-42.5	-43.6	21.6	0.00e+00	92	31	101	1048576	60	7415
2026-01-06 21:14:46.00	61.99	12.88	-42.6	-43.8	21.5	0.00e+00	49	31	101	1048576	60	7540
2026-01-06 21:14:47.01	61.83	12.93	-42.6	-43.8	21.4	0.00e+00	92	31	101	1048576	60	7589
2026-01-06 21:14:48.02	61.67	12.99	-42.8	-44.0	21.3	0.00e+00	50	31	101	1048576	60	7689
2026-01-06 21:14:49.04	61.51	13.05	-42.6	-43.8	21.5	0.00e+00	92	31	101	1048576	60	7544
2026-01-06 21:14:50.05	61.35	13.11	-42.7	-43.9	21.4	0.00e+00	0	31	101	1048576	60	7604
2026-01-06 21:14:51.06	61.18	13.17	-42.7	-43.9	21.4	0.00e+00	0	31	101	1048576	60	7635
2026-01-06 21:14:52.07	61.02	13.23	-42.6	-43.8	21.4	0.00e+00	92	31	101	1048576	60	7561
2026-01-06 21:14:53.08	60.86	13.29	-42.6	-43.8	21.5	0.00e+00	0	31	101	1048576	60	7557
2026-01-06 21:14:54.09	60.69	13.35	-42.4	-43.6	21.7	0.00e+00	92	31	101	1048576	60	7352
2026-01-06 21:14:55.10	60.53	13.41	-42.4	-43.5	21.8	0.00e+00	2	31	101	1048576	60	7300
2026-01-06 21:14:56.11	60.36	13.46	-42.4	-43.5	21.8	0.00e+00	91	31	101	1048576	60	7328
2026-01-06 21:14:57.12	60.20	13.52	-42.2	-43.3	21.9	0.00e+00	2	31	101	1048576	60	7110
2026-01-06 21:14:58.13	60.03	13.58	-42.2	-43.3	21.9	0.00e+00	92	31	101	1048576	60	7166
2026-01-06 21:14:59.14	59.86	13.64	-42.1	-43.2	22.1	0.00e+00	92	31	101	1048576	60	7029
2026-01-06 21:15:00.15	59.69	13.70	-42.1	-43.1	22.1	0.00e+00	49	31	101	1048576	60	7006
2026-01-06 21:15:01.16	59.52	13.76	-41.9	-43.0	22.2	0.00e+00	92	31	101	1048576	60	6904
2026-01-06 21:15:02.17	59.35	13.81	-41.9	-42.9	22.4	0.00e+00	50	31	101	1048576	60	6822
2026-01-06 21:15:03.18	59.18	13.87	-41.7	-42.8	22.4	0.00e+00	90	31	101	1048576	60	6699
2026-01-06 21:15:04.19	59.01	13.93	-41.8	-42.9	22.4	0.00e+00	51	31	101	1048576	60	6782
2026-01-06 21:15:05.20	58.84	13.99	-41.7	-42.8	22.4	0.00e+00	92	31	101	1048576	60	6720
2026-01-06 21:15:06.21	58.67	14.04	-41.7	-42.7	22.5	0.00e+00	0	31	101	1048576	60	6680
2026-01-06 21:15:07.22	58.50	14.10	-41.6	-42.7	22.4	0.00e+00	0	31	101	1048576	60	6636
2026-01-06 21:15:08.23	58.32	14.16	-41.7	-42.7	22.5	0.00e+00	92	31	101	1048576	60	6679
2026-01-06 21:15:09.24	58.15	14.22	-41.6	-42.7	22.6	0.00e+00	31	31	101	1048576	60	6623
2026-01-06 21:15:10.25	57.97	14.27	-41.5	-42.5	22.7	0.00e+00	90	31	101	1048576	60	6506
2026-01-06 21:15:11.26	57.80	14.33	-41.5	-42.6	22.7	0.00e+00	31	31	101	1048576	60	6553
2026-01-06 21:15:12.27	57.62	14.39	-41.4	-42.4	22.7	0.00e+00	90	31	101	1048576	60	6449
2026-01-06 21:15:13.28	57.44	14.44	-41.3	-42.3	23.0	0.00e+00	0	31	101	1048576	60	6318
2026-01-06 21:15:14.29	57.27	14.50	-41.2	-42.2	23.0	0.00e+00	0	31	101	1048576	60	6281
2026-01-06 21:15:15.30	57.09	14.55	-41.2	-42.2	23.0	0.00e+00	91	31	101	1048576	60	6271
2026-01-06 21:15:16.32	56.91	14.61	-41.0	-41.9	23.3	0.00e+00	2	31	101	1048576	60	6087
2026-01-06 21:15:17.33	56.73	14.67	-41.1	-42.1	23.1	0.00e+00	92	31	101	1048576	60	6217
2026-01-06 21:15:18.34	56.55	14.72	-41.1	-42.0	23.1	0.00e+00	0	31	101	1048576	60	6160
2026-01-06 21:15:19.35	56.37	14.78	-41.0	-42.0	23.2	0.00e+00	92	31	101	1048576	60	6128
2026-01-06 21:15:20.36	56.18	14.83	-41.1	-42.1	23.1	0.00e+00	0	31	101	1048576	60	6192
2026-01-06 21:15:21.37	56.00	14.89	-41.0	-41.9	23.3	0.00e+00	92	31	101	1048576	60	6090
2026-01-06 21:15:22.38	55.82	14.94	-40.9	-41.9	23.3	0.00e+00	10	31	101	1048576	60	6064
2026-01-06 21:15:23.39	55.63	15.00	-40.8	-41.8	23.4	0.00e+00	0	31	101	1048576	60	5983
2026-01-06 21:15:24.40	55.45	15.05	-40.6	-41.6	23.6	0.00e+00	92	31	101	1048576	60	5855
2026-01-06 21:15:25.41	55.26	15.11	-40.6	-41.5	23.6	0.00e+00	32	31	101	1048576	60	5814
2026-01-06 21:15:26.42	55.08	15.16	-40.6	-41.5	23.6	0.00e+00	92	31	101	1048576	60	5798
2026-01-06 21:15:27.43	54.89	15.22	-40.4	-41.3	23.9	0.00e+00	32	31	101	1048576	60	5665
2026-01-06 21:15:28.44	54.70	15.27	-40.3	-41.2	23.9	0.00e+00	92	31	101	1048576	60	5589
2026-01-06 21:15:29.46	54.51	15.32	-40.3	-41.2	24.0	0.00e+00	92	31	101	1048576	60	5568
2026-01-06 21:15:30.47	54.33	15.38	-40.2	-41.1	24.0	0.00e+00	0	31	101	1048576	60	5553
2026-01-06 21:15:31.48	54.14	15.43	-40.2	-41.0	24.0	0.00e+00	92	31	101	1048576	60	5500
2026-01-06 21:15:32.49	53.95	15.48	-40.3	-41.2	23.9	0.00e+00	31	31	101	1048576	60	5573
2026-01-06 21:15:33.50	53.76	15.54	-40.2	-41.1	23.9	0.00e+00	92	31	101	1048576	60	5539
2026-01-06 21:15:34.51	53.56	15.59	-40.1	-41.0	24.0	0.00e+00	5	31	101	1048576	58	6133
2026-01-06 21:15:35.52	53.37	15.64	-40.2	-41.1	23.9	0.00e+00	90	31	101	1048576	58	6212
2026-01-06 21:15:36.53	53.18	15.69	-40.2	-41.1	23.4	0.00e+00	5	31	101	1048576	58	6188
2026-01-06 21:15:37.54	52.99	15.75	-40.1	-41.0	23.7	0.00e+00	92	31	101	1048576	58	6165
2026-01-06 21:15:38.55	52.79	15.80	-40.0	-40.9	24.1	0.00e+00	92	31	101	1048576	58	6060
2026-01-06 21:15:39.56	52.60	15.85	-40.1	-41.0	24.0	0.00e+00	49	31	101	1048576	58	6121
2026-01-06 21:15:40.58	52.40	15.90	-40.4	-41.3	23.8	0.00e+00	92	31	101	1048576	58	6361
2026-01-06 21:15:41.59	52.20	15.95	-40.1	-41.0	24.0	0.00e+00	0	31	101	1048576	58	6131
2026-01-06 21:15:42.60	52.01	16.00	-40.2	-41.1	23.9	0.00e+00	92	31	101	1048576	58	6231
2026-01-06 21:15:43.61	51.81	16.05	-40.2	-41.1	23.9	0.00e+00	45	31	101	1048576	58	6209
2026-01-06 21:15:44.62	51.61	16.10	-40.4	-41.4	23.8	0.00e+00	92	31	101	1048576	58	6396
2026-01-06 21:15:45.63	51.41	16.15	-40.3	-41.2	23.8	0.00e+00	92	31	101	1048576	58	6309
2026-01-06 21:15:46.64	51.21	16.20	-40.4	-41.4	23.7	0.00e+00	36	31	101	1048576	58	6399
2026-01-06 21:15:47.65	51.01	16.25	-40.4	-41.4	23.8	0.00e+00	92	31	101	1048576	58	6393
2026-01-06 21:15:48.66	50.81	16.30	-40.6	-41.5	23.7	0.00e+00	36	31	101	1048576	58	6494
2026-01-06 21:15:49.67	50.61	16.35	-40.6	-41.6	23.5	0.00e+00	92	31	101	1048576	58	6546
2026-01-06 21:15:50.68	50.41	16.40	-40.6	-41.5	23.2	0.00e+00	37	31	101	1048576	58	6537
2026-01-06 21:15:51.70	50.20	16.45	-40.5	-41.5	23.6	0.00e+00	92	31	101	1048576	58	6466
2026-01-06 21:15:52.71	50.00	16.50	-40.8	-41.7	23.4	0.00e+00	90	31	101	1048576	58	6656
2026-01-06 21:15:53.72	49.79	16.55	-40.6	-41.5	23.6	0.00e+00	0	31	101	1048576	58	6503
2026-01-06 21:15:54.73	49.59	16.60	-40.7	-41.6	23.5	0.00e+00	92	31	101	1048576	58	6578
2026-01-06 21:15:55.74	49.38	16.64	-40.5	-41.5	23.7	0.00e+00	6	31	101	1048576	58	6478
2026-01-06 21:15:56.75	49.18	16.69	-40.6	-41.5	23.6	0.00e+00	92	31	101	1048576	58	6480
2026-01-06 21:15:57.76	48.97	16.74	-40.5	-41.4	23.7	0.00e+00	0	31	101	1048576	58	6400
2026-01-06 21:15:58.77	48.76	16.78	-40.4	-41.3	23.8	0.00e+00	92	31	101	1048576	58	6376
2026-01-06 21:15:59.78	48.56	16.83	-40.5	-41.4	23.7	0.00e+00	0	31	101	1048576	58	6449
2026-01-06 21:16:00.79	48.35	16.88	-40.4	-41.3	23.8	0.00e+00	50	31	101	1048576	58	6389
2026-01-06 21:16:01.80	48.14	16.92	-40.2	-41.1	24.0	0.00e+00	92	31	101	1048576	58	6231
2026-01-06 21:16:02.81	47.93	16.97	-40.0	-40.9	24.1	0.00e+00	50	31	101	1048576	58	6078
2026-01-06 21:16:03.82	47.72	17.01	-40.0	-40.8	24.2	0.00e+00	91	31	101	1048576	58	6032
2026-01-06 21:16:04.84	47.50	17.06	-39.8	-40.7	24.3	0.00e+00	52	31	101	1048576	58	5926
2026-01-06 21:16:05.85	47.29	17.10	-39.9	-40.8	24.2	0.00e+00	92	31	101	1048576	58	5976
2026-01-06 21:16:06.86	47.08	17.15	-39.6	-40.4	24.6	0.00e+00	0	31	101	1048576	58	5736
2026-01-06 21:16:07.87	46.87	17.19	-39.7	-40.5	24.5	0.00e+00	0	31	101	1048576	58	5807
2026-01-06 21:16:08.88	46.65	17.23	-39.8	-40.6	24.4	0.00e+00	92	31	101	1048576	58	5876
2026-01-06 21:16:09.89	46.44	17.28	-39.7	-40.6	24.5	0.00e+00	2	31	101	1048576	58	5844
2026-01-06 21:16:10.90	46.22	17.32	-39.7	-40.6	24.4	0.00e+00	90	31	101	1048576	58	5847
2026-01-06 21:16:11.91	46.01	17.36	-39.7	-40.6	24.4	0.00e+00	0	31	101	1048576	58	5851
2026-01-06 21:16:12.92	45.79	17.40	-39.8	-40.6	24.3	0.00e+00	92	31	101	1048576	58	5867
2026-01-06 21:16:13.93	45.57	17.45	-39.7	-40.6	24.4	0.00e+00	0	31	101	1048576	58	5834
2026-01-06 21:16:14.94	45.36	17.49	-39.8	-40.7	24.4	0.00e+00	92	31	101	1048576	58	5903
2026-01-06 21:16:15.95	45.14	17.53	-39.8	-40.7	24.3	0.00e+00	92	31	101	1048576	58	5905
2026-01-06 21:16:16.96	44.92	17.57	-39.8	-40.7	24.3	0.00e+00	50	31	101	1048576	58	5911
2026-01-06 21:16:17.97	44.70	17.61	-39.9	-40.7	24.4	0.00e+00	92	31	101	1048576	58	5963
2026-01-06 21:16:18.99	44.48	17.65	-39.8	-40.7	24.3	0.00e+00	0	31	101	1048576	58	5917
2026-01-06 21:16:20.00	44.26	17.69	-39.6	-40.5	24.5	0.00e+00	90	31	101	1048576	58	5779
2026-01-06 21:16:21.01	44.04	17.73	-39.7	-40.5	24.5	0.00e+00	31	31	101	1048576	58	5797
2026-01-06 21:16:22.02	43.81	17.77	-39.6	-40.5	24.5	0.00e+00	92	31	101	1048576	58	5796
2026-01-06 21:16:23.03	43.59	17.81	-39.7	-40.5	24.5	0.00e+00	10	31	101	1048576	58	5804
2026-01-06 21:16:24.04	43.37	17.84	-39.4	-40.3	24.7	0.00e+00	51	31	101	1048576	58	5634
2026-01-06 21:16:25.05	43.15	17.88	-39.4	-40.2	24.8	0.00e+00	92	31	101	1048576	58	5582
2026-01-06 21:16:26.06	42.92	17.92	-39.5	-40.3	24.8	0.00e+00	31	31	101	1048576	58	5661
2026-01-06 21:16:27.07	42.70	17.96	-39.4	-40.3	24.7	0.00e+00	91	31	101	1048576	58	5638
2026-01-06 21:16:28.08	42.47	17.99	-39.5	-40.4	24.4	0.00e+00	2	31	101	1048576	58	5718
2026-01-06 21:16:29.10	42.25	18.03	-39.6	-40.4	24.5	0.00e+00	0	31	101	1048576	58	5748
2026-01-06 21:16:30.11	42.02	18.07	-39.7	-40.5	24.5	0.00e+00	0	31	101	1048576	58	5792
2026-01-06 21:16:31.12	41.79	18.10	-39.7	-40.6	24.4	0.00e+00	0	31	101	1048576	58	5856
2026-01-06 21:16:32.13	41.57	18.14	-39.8	-40.7	24.3	0.00e+00	92	31	101	1048576	58	5920
2026-01-06 21:16:33.14	41.34	18.17	-40.0	-40.9	24.2	0.00e+00	0	31	101	1048576	58	6066
2026-01-06 21:16:34.15	41.11	18.20	-39.9	-40.8	24.2	0.00e+00	90	31	101	1048576	58	5993
2026-01-06 21:16:35.16	40.88	18.24	-40.1	-41.0	24.1	0.00e+00	0	31	101	1048576	58	6131
2026-01-06 21:16:36.17	40.65	18.27	-40.0	-40.9	24.2	0.00e+00	0	31	101	1048576	58	6058
2026-01-06 21:16:37.18	40.42	18.30	-40.0	-40.9	24.2	0.00e+00	39	31	101	1048576	58	6048
2026-01-06 21:16:38.19	40.19	18.34	-40.0	-40.8	24.3	0.00e+00	51	31	101	1048576	58	6013
2026-01-06 21:16:39.20	39.96	18.37	-39.9	-40.7	24.3	0.00e+00	92	31	101	1048576	58	5955
2026-01-06 21:16:40.21	39.73	18.40	-40.0	-40.9	24.2	0.00e+00	52	31	101	1048576	58	6034
2026-01-06 21:16:41.22	39.50	18.43	-40.1	-41.0	24.0	0.00e+00	92	31	101	1048576	58	6161
2026-01-06 21:16:42.24	39.26	18.46	-40.1	-41.0	24.1	0.00e+00	0	31	101	1048576	58	6149
2026-01-06 21:16:43.25	39.03	18.49	-39.9	-40.7	24.3	0.00e+00	0	31	101	1048576	58	5947
2026-01-06 21:16:44.26	38.80	18.52	-40.0	-40.8	24.2	0.00e+00	2	31	101	1048576	58	6002
2026-01-06 21:16:45.27	38.56	18.55	-40.1	-41.0	24.1	0.00e+00	29	31	101	1048576	58	6158
2026-01-06 21:16:46.28	38.33	18.58	-40.3	-41.2	23.9	0.00e+00	92	31	101	1048576	58	6281
2026-01-06 21:16:47.29	38.10	18.61	-40.4	-41.3	23.8	0.00e+00	0	31	101	1048576	58	6364
2026-01-06 21:16:48.30	37.86	18.63	-40.4	-41.3	23.8	0.00e+00	92	31	101	1048576	58	6380
2026-01-06 21:16:49.31	37.63	18.66	-40.6	-41.5	23.7	0.00e+00	0	31	101	1048576	58	6472
2026-01-06 21:16:50.32	37.39	18.69	-40.6	-41.5	23.6	0.00e+00	92	31	101	1048576	58	6491
2026-01-06 21:16:51.33	37.15	18.72	-40.7	-41.6	23.6	0.00e+00	0	31	101	1048576	58	6585
2026-01-06 21:16:52.34	36.92	18.74	-40.8	-41.7	23.5	0.00e+00	0	31	101	1048576	58	6670
2026-01-06 21:16:53.35	36.68	18.77	-40.8	-41.7	23.4	0.00e+00	0	31	101	1048576	58	6667
2026-01-06 21:16:54.36	36.44	18.79	-40.8	-41.7	23.5	0.00e+00	49	31	101	1048576	58	6677
2026-01-06 21:16:55.37	36.21	18.82	-40.7	-41.6	23.6	0.00e+00	90	31	101	1048576	58	6566
2026-01-06 21:16:56.39	35.97	18.84	-40.6	-41.5	23.6	0.00e+00	49	31	101	1048576	58	6493
2026-01-06 21:16:57.40	35.73	18.86	-40.7	-41.7	23.5	0.00e+00	92	31	101	1048576	58	6627
2026-01-06 21:16:58.41	35.49	18.89	-40.7	-41.6	23.6	0.00e+00	0	31	101	1048576	58	6611
2026-01-06 21:16:59.42	35.25	18.91	-40.8	-41.7	23.5	0.00e+00	0	31	101	1048576	58	6675
2026-01-06 21:17:00.43	35.01	18.93	-40.9	-41.8	23.4	0.00e+00	48	31	101	1048576	58	6754
2026-01-06 21:17:01.44	34.77	18.95	-40.8	-41.7	23.4	0.00e+00	31	31	101	1048576	58	6646
2026-01-06 21:17:02.45	34.53	18.97	-40.8	-41.8	23.5	0.00e+00	91	31	101	1048576	58	6709
2026-01-06 21:17:03.46	34.29	18.99	-40.8	-41.7	23.5	0.00e+00	30	31	101	1048576	58	6688
2026-01-06 21:17:04.47	34.05	19.01	-40.9	-41.9	23.4	0.00e+00	92	31	101	1048576	58	6783
2026-01-06 21:17:05.48	33.81	19.03	-41.1	-42.1	23.2	0.00e+00	31	31	101	1048576	58	6940
2026-01-06 21:17:06.49	33.57	19.05	-41.2	-42.2	23.2	0.00e+00	7	31	101	1048576	60	6272
2026-01-06 21:17:07.50	33.32	19.07	-41.3	-42.3	23.1	0.00e+00	0	31	101	1048576	60	6376
2026-01-06 21:17:08.51	33.08	19.09	-41.3	-42.3	23.1	0.00e+00	6	31	101	1048576	60	6353
2026-01-06 21:17:09.52	32.84	19.11	-41.4	-42.4	22.9	0.00e+00	69	31	101	1048576	60	6398
2026-01-06 21:17:10.53	32.60	19.12	-41.5	-42.5	22.9	0.00e+00	7	31	101	1048576	60	6483
2026-01-06 21:17:11.55	32.35	19.14	-41.6	-42.6	22.7	0.00e+00	92	31	101	1048576	60	6608
2026-01-06 21:17:12.56	32.11	19.15	-41.7	-42.8	22.6	0.00e+00	51	31	101	1048576	60	6713
2026-01-06 21:17:13.57	31.87	19.17	-41.6	-42.6	22.7	0.00e+00	78	31	101	1048576	60	6595
2026-01-06 21:17:14.58	31.62	19.18	-41.5	-42.6	22.9	0.00e+00	51	31	101	1048576	60	6547
2026-01-06 21:17:15.59	31.38	19.20	-41.3	-42.2	23.1	0.00e+00	49	31	101	1048576	60	6313
2026-01-06 21:17:16.60	31.14	19.21	-41.4	-42.3	22.9	0.00e+00	16	31	101	1048576	60	6386
2026-01-06 21:17:17.61	30.89	19.23	-41.3	-42.3	23.1	0.00e+00	34	31	101	1048576	60	6339
2026-01-06 21:17:18.62	30.65	19.24	-41.3	-42.3	23.0	0.00e+00	92	31	101	1048576	60	6376
2026-01-06 21:17:19.63	30.40	19.25	-41.5	-42.5	22.9	0.00e+00	37	31	101	1048576	60	6498
2026-01-06 21:17:20.64	30.16	19.26	-41.6	-42.6	22.7	0.00e+00	92	31	101	1048576	60	6587
2026-01-06 21:17:21.65	29.91	19.27	-41.4	-42.4	23.1	0.00e+00	7	31	101	1048576	60	6405
2026-01-06 21:17:22.66	29.67	19.28	-41.4	-42.4	22.9	0.00e+00	39	31	101	1048576	60	6393
2026-01-06 21:17:23.67	29.42	19.29	-41.4	-42.4	22.9	0.00e+00	39	31	101	1048576	60	6424
2026-01-06 21:17:24.68	29.18	19.30	-41.4	-42.4	23.0	0.00e+00	7	31	101	1048576	60	6430
2026-01-06 21:17:25.70	28.93	19.31	-41.5	-42.5	22.9	0.00e+00	92	31	101	1048576	60	6487
2026-01-06 21:17:26.71	28.68	19.32	-41.5	-42.5	22.9	0.00e+00	7	31	101	1048576	60	6522
2026-01-06 21:17:27.72	28.44	19.33	-41.5	-42.5	22.8	0.00e+00	92	31	101	1048576	60	6528
2026-01-06 21:17:28.73	28.19	19.33	-41.5	-42.5	22.9	0.00e+00	0	31	101	1048576	60	6504
2026-01-06 21:17:29.74	27.94	19.34	-41.4	-42.4	23.0	0.00e+00	0	31	101	1048576	60	6436
2026-01-06 21:17:30.75	27.70	19.35	-41.3	-42.2	23.1	0.00e+00	0	31	101	1048576	60	6312
2026-01-06 21:17:31.76	27.45	19.35	-41.3	-42.3	23.0	0.00e+00	51	31	101	1048576	60	6339
2026-01-06 21:17:32.77	27.21	19.36	-41.3	-42.3	23.1	0.00e+00	22	31	101	1048576	60	6335
2026-01-06 21:17:33.79	26.96	19.36	-41.3	-42.3	23.0	0.00e+00	0	31	101	1048576	60	6349
2026-01-06 21:17:34.80	26.71	19.36	-41.2	-42.2	23.1	0.00e+00	92	31	101	1048576	60	6280
2026-01-06 21:17:35.81	26.46	19.37	-41.3	-42.3	23.0	0.00e+00	32	31	101	1048576	60	6360
2026-01-06 21:17:36.82	26.22	19.37	-41.5	-42.5	23.0	0.00e+00	29	31	101	1048576	60	6471
2026-01-06 21:17:37.83	25.97	19.37	-41.3	-42.3	23.1	0.00e+00	49	31	101	1048576	60	6348
2026-01-06 21:17:38.84	25.72	19.37	-41.4	-42.4	22.9	0.00e+00	30	31	101	1048576	60	6438
2026-01-06 21:17:39.85	25.48	19.38	-41.3	-42.3	23.0	0.00e+00	31	31	101	1048576	60	6354
2026-01-06 21:17:40.86	25.23	19.38	-41.2	-42.1	23.2	0.00e+00	0	31	101	1048576	60	6231
2026-01-06 21:17:41.87	24.98	19.38	-41.3	-42.2	23.2	0.00e+00	92	31	101	1048576	60	6310
2026-01-06 21:17:42.88	24.74	19.37	-40.9	-41.8	23.5	0.00e+00	0	31	101	1048576	60	5986
2026-01-06 21:17:43.89	24.49	19.37	-40.7	-41.6	23.6	0.00e+00	92	31	101	1048576	60	5886
2026-01-06 21:17:44.90	24.24	19.37	-40.7	-41.7	23.5	0.00e+00	0	31	101	1048576	60	5903
2026-01-06 21:17:45.92	24.00	19.37	-40.6	-41.5	23.7	0.00e+00	0	31	101	1048576	60	5768
2026-01-06 21:17:46.93	23.75	19.37	-40.5	-41.4	23.6	0.00e+00	0	31	101	1048576	60	5755
2026-01-06 21:17:47.94	23.50	19.36	-40.6	-41.5	23.8	0.00e+00	2	31	101	1048576	60	5780
2026-01-06 21:17:48.95	23.26	19.36	-40.7	-41.7	23.6	0.00e+00	92	31	101	1048576	60	5904
2026-01-06 21:17:49.96	23.01	19.35	-40.7	-41.6	23.6	0.00e+00	51	31	101	1048576	60	5884
2026-01-06 21:17:50.97	22.76	19.35	-40.6	-41.6	23.7	0.00e+00	90	31	101	1048576	60	5835
2026-01-06 21:17:51.98	22.52	19.34	-40.7	-41.6	23.7	0.00e+00	50	31	101	1048576	60	5843
2026-01-06 21:17:52.99	22.27	19.34	-40.7	-41.6	23.8	0.00e+00	51	31	101	1048576	60	5847
2026-01-06 21:17:54.00	22.03	19.33	-40.3	-41.1	24.1	0.00e+00	32	31	101	1048576	60	5550
2026-01-06 21:17:55.01	21.78	19.32	-40.3	-41.2	24.0	0.00e+00	0	31	101	1048576	60	5591
2026-01-06 21:17:56.03	21.53	19.32	-40.3	-41.1	24.1	0.00e+00	92	31	101	1048576	60	5553
2026-01-06 21:17:57.04	21.29	19.31	-40.2	-41.1	24.0	0.00e+00	32	31	101	1048576	60	5533
2026-01-06 21:17:58.05	21.04	19.30	-40.2	-41.1	24.1	0.00e+00	92	31	101	1048576	60	5519
2026-01-06 21:17:59.06	20.79	19.29	-40.2	-41.0	24.2	0.00e+00	0	31	101	1048576	60	5498
2026-01-06 21:18:00.07	20.55	19.28	-40.1	-41.0	24.2	0.00e+00	67	31	101	1048576	58	6136
2026-01-06 21:18:01.08	20.30	19.27	-40.0	-40.9	24.2	0.00e+00	30	31	101	1048576	58	6062
2026-01-06 21:18:02.09	20.06	19.26	-39.8	-40.7	24.4	0.00e+00	2	31	101	1048576	58	5908
2026-01-06 21:18:03.10	19.82	19.25	-39.9	-40.8	24.2	0.00e+00	51	31	101	1048576	58	5992
2026-01-06 21:18:04.11	19.57	19.23	-39.9	-40.8	24.4	0.00e+00	0	31	101	1048576	58	5972
2026-01-06 21:18:05.12	19.33	19.22	-39.7	-40.5	24.5	0.00e+00	92	31	101	1048576	58	5807
2026-01-06 21:18:06.13	19.08	19.21	-39.7	-40.5	24.5	0.00e+00	0	31	101	1048576	58	5822
2026-01-06 21:18:07.14	18.84	19.19	-39.8	-40.6	24.5	0.00e+00	92	31	101	1048576	58	5887
2026-01-06 21:18:08.15	18.60	19.18	-39.8	-40.7	24.4	0.00e+00	51	32	101	1048576	58	5904
2026-01-06 21:18:09.16	18.35	19.16	-39.8	-40.7	24.4	0.00e+00	52	31	101	1048576	58	5910
2026-01-06 21:18:10.18	18.11	19.15	-39.7	-40.6	24.5	0.00e+00	0	31	101	1048576	58	5830
2026-01-06 21:18:11.19	17.86	19.13	-39.4	-40.2	24.8	0.00e+00	0	31	101	1048576	58	5620
2026-01-06 21:18:12.20	17.62	19.12	-39.4	-40.2	24.8	0.00e+00	92	31	101	1048576	58	5590
2026-01-06 21:18:13.21	17.38	19.10	-39.2	-40.1	24.9	0.00e+00	52	31	101	1048576	58	5510
2026-01-06 21:18:14.22	17.14	19.08	-39.3	-40.1	24.9	0.00e+00	91	31	101	1048576	58	5546
2026-01-06 21:18:15.23	16.90	19.06	-39.3	-40.1	24.9	0.00e+00	30	31	101	1048576	58	5536
2026-01-06 21:18:16.24	16.65	19.05	-39.3	-40.1	24.7	0.00e+00	30	31	101	1048576	58	5547
2026-01-06 21:18:17.25	16.41	19.03	-39.2	-40.1	24.9	0.00e+00	0	31	101	1048576	58	5511
2026-01-06 21:18:18.26	16.17	19.01	-39.3	-40.2	24.8	0.00e+00	0	31	101	1048576	58	5576
2026-01-06 21:18:19.27	15.93	18.99	-39.4	-40.3	24.8	0.00e+00	92	31	101	1048576	58	5641
2026-01-06 21:18:20.27	15.69	18.97	-39.5	-40.3	24.7	0.00e+00	29	31	101	1048576	58	5692
2026-01-06 21:18:21.28	15.45	18.95	-39.6	-40.4	24.6	0.00e+00	92	31	101	1048576	58	5727
2026-01-06 21:18:22.29	15.21	18.92	-39.5	-40.3	24.7	0.00e+00	31	31	101	1048576	58	5684
2026-01-06 21:18:23.29	14.98	18.90	-39.6	-40.5	24.6	0.00e+00	0	31	101	1048576	58	5779
2026-01-06 21:18:24.30	14.74	18.88	-39.5	-40.3	24.7	0.00e+00	0	31	101	1048576	58	5682
2026-01-06 21:18:25.31	14.50	18.86	-39.6	-40.4	24.5	0.00e+00	0	32	101	1048576	58	5745
2026-01-06 21:18:26.32	14.26	18.83	-39.5	-40.4	24.6	0.00e+00	37	31	101	1048576	58	5708
2026-01-06 21:18:27.32	14.03	18.81	-39.7	-40.5	24.4	0.00e+00	0	31	101	1048576	58	5805
2026-01-06 21:18:28.33	13.79	18.78	-39.8	-40.7	24.4	0.00e+00	92	31	101	1048576	58	5909
2026-01-06 21:18:29.33	13.56	18.76	-39.8	-40.7	24.3	0.00e+00	0	31	101	1048576	58	5907
2026-01-06 21:18:30.34	13.32	18.73	-40.0	-40.9	24.3	0.00e+00	90	31	101	1048576	58	6046
2026-01-06 21:18:31.35	13.08	18.71	-39.9	-40.7	24.3	0.00e+00	48	31	101	1048576	58	5944
2026-01-06 21:18:32.35	12.85	18.68	-40.0	-40.9	24.2	0.00e+00	0	31	101	1048576	58	6062
2026-01-06 21:18:33.36	12.61	18.65	-40.0	-40.8	24.3	0.00e+00	0	31	101	1048576	58	6027
2026-01-06 21:18:34.36	12.38	18.63	-39.9	-40.8	24.3	0.00e+00	0	31	101	1048576	58	5984
2026-01-06 21:18:35.37	12.15	18.60	-40.0	-40.8	24.3	0.00e+00	92	31	101	1048576	58	6013
2026-01-06 21:18:36.37	11.92	18.57	-40.1	-41.0	24.1	0.00e+00	0	31	101	1048576	58	6144
2026-01-06 21:18:37.38	11.68	18.54	-40.2	-41.1	24.1	0.00e+00	92	31	101	1048576	58	6179
2026-01-06 21:18:38.39	11.45	18.51	-40.4	-41.2	23.9	0.00e+00	43	31	101	1048576	58	6312
2026-01-06 21:18:39.39	11.22	18.48	-40.6	-41.6	23.6	0.00e+00	43	31	101	1048576	58	6556
2026-01-06 21:18:40.40	10.99	18.45	-40.6	-41.5	23.7	0.00e+00	45	32	101	1048576	58	6522
2026-01-06 21:18:41.41	10.76	18.42	-40.8	-41.7	23.5	0.00e+00	40	31	101	1048576	58	6655
2026-01-06 21:18:42.41	10.53	18.39	-40.6	-41.5	23.7	0.00e+00	92	31	101	1048576	58	6476
2026-01-06 21:18:43.42	10.30	18.36	-40.6	-41.5	23.6	0.00e+00	0	31	101	1048576	58	6506
2026-01-06 21:18:44.43	10.07	18.33	-40.5	-41.4	23.8	0.00e+00	91	31	101	1048576	58	6448
2026-01-06 21:18:45.44	9.84	18.30	-40.5	-41.4	23.8	0.00e+00	31	31	101	1048576	58	6461
2026-01-06 21:18:46.44	9.61	18.26	-40.6	-41.6	23.6	0.00e+00	26	31	101	1048576	58	6558
2026-01-06 21:18:47.45	9.38	18.23	-40.7	-41.7	23.6	0.00e+00	32	31	101	1048576	58	6631
2026-01-06 21:18:48.46	9.15	18.20	-40.8	-41.7	23.5	0.00e+00	32	31	101	1048576	58	6691
2026-01-06 21:18:49.47	8.92	18.16	-40.8	-41.7	23.5	0.00e+00	39	31	101	1048576	58	6680
2026-01-06 21:18:50.47	8.70	18.13	-40.9	-41.8	23.4	0.00e+00	0	31	101	1048576	58	6741
2026-01-06 21:18:51.48	8.47	18.09	-40.8	-41.7	23.5	0.00e+00	90	32	101	1048576	58	6670
2026-01-06 21:18:52.48	8.25	18.06	-40.8	-41.7	23.5	0.00e+00	33	31	101	1048576	58	6649
2026-01-06 21:18:53.49	8.02	18.02	-40.7	-41.6	23.5	0.00e+00	92	31	101	1048576	58	6610
2026-01-06 21:18:54.49	7.80	17.99	-40.8	-41.7	23.5	0.00e+00	6	31	101	1048576	58	6668
2026-01-06 21:18:55.50	7.58	17.95	-40.7	-41.6	23.6	0.00e+00	6	31	101	1048576	58	6573
2026-01-06 21:18:56.51	7.35	17.91	-40.6	-41.5	23.7	0.00e+00	0	31	101	1048576	58	6508
2026-01-06 21:18:57.52	7.13	17.88	-40.6	-41.5	23.7	0.00e+00	6	31	101	1048576	58	6523
2026-01-06 21:18:58.52	6.91	17.84	-40.6	-41.5	23.6	0.00e+00	92	31	101	1048576	58	6523
2026-01-06 21:18:59.53	6.69	17.80	-40.6	-41.6	23.6	0.00e+00	5	31	101	1048576	58	6554
2026-01-06 21:19:00.53	6.47	17.76	-40.6	-41.5	23.6	0.00e+00	92	31	101	1048576	58	6520
2026-01-06 21:19:01.54	6.25	17.72	-40.7	-41.6	23.5	0.00e+00	8	31	101	1048576	58	6563
2026-01-06 21:19:02.55	6.02	17.69	-40.6	-41.5	23.6	0.00e+00	49	32	101	1048576	58	6515
2026-01-06 21:19:03.55	5.81	17.65	-40.6	-41.5	23.7	0.00e+00	0	31	101	1048576	58	6500
2026-01-06 21:19:04.56	5.59	17.61	-40.5	-41.5	23.7	0.00e+00	50	31	101	1048576	58	6467
2026-01-06 21:19:05.57	5.37	17.57	-40.6	-41.5	23.6	0.00e+00	0	31	101	1048576	58	6519
2026-01-06 21:19:06.58	5.15	17.53	-40.8	-41.7	23.5	0.00e+00	43	31	101	1048576	58	6684
2026-01-06 21:19:07.58	4.94	17.48	-40.8	-41.7	23.5	0.00e+00	90	31	101	1048576	58	6688
2026-01-06 21:19:08.59	4.72	17.44	-40.8	-41.8	23.4	0.00e+00	0	31	101	1048576	58	6711
2026-01-06 21:19:09.59	4.50	17.40	-40.9	-41.9	23.3	0.00e+00	92	31	101	1048576	58	6797
2026-01-06 21:19:10.59	4.29	17.36	-40.8	-41.7	23.5	0.00e+00	0	31	101	1048576	58	6677
2026-01-06 21:19:11.60	4.08	17.32	-40.9	-41.8	23.5	0.00e+00	43	31	101	1048576	58	6756
2026-01-06 21:19:12.61	3.86	17.27	-40.8	-41.8	23.4	0.00e+00	42	31	101	1048576	58	6697
2026-01-06 21:19:13.61	3.65	17.23	-41.0	-41.9	23.0	0.00e+00	5	31	101	1048576	58	6826
2026-01-06 21:19:14.61	3.44	17.19	-40.9	-41.8	23.4	0.00e+00	92	31	101	1048576	58	6728
2026-01-06 21:19:15.62	3.22	17.15	-41.0	-42.0	23.3	0.00e+00	49	31	101	1048576	58	6851
2026-01-06 21:19:16.63	3.01	17.10	-41.3	-42.2	23.1	0.00e+00	92	31	101	1048576	60	6317
2026-01-06 21:19:17.63	2.80	17.06	-41.1	-42.0	23.2	0.00e+00	37	31	101	1048576	60	6160
2026-01-06 21:19:18.64	2.59	17.01	-41.2	-42.2	23.2	0.00e+00	45	31	101	1048576	60	6264
2026-01-06 21:19:19.65	2.38	16.97	-41.3	-42.3	23.1	0.00e+00	38	31	101	1048576	60	6355
2026-01-06 21:19:20.65	2.17	16.92	-41.3	-42.3	23.1	0.00e+00	6	32	101	1048576	60	6363
2026-01-06 21:19:21.66	1.97	16.88	-41.3	-42.3	23.0	0.00e+00	36	32	101	1048576	60	6379
2026-01-06 21:19:22.67	1.76	16.83	-41.3	-42.3	23.1	0.00e+00	6	31	101	1048576	60	6346
2026-01-06 21:19:23.68	1.55	16.78	-41.2	-42.2	23.2	0.00e+00	92	31	101	1048576	60	6251
2026-01-06 21:19:24.68	1.35	16.74	-41.3	-42.3	23.1	0.00e+00	37	31	101	1048576	60	6319
2026-01-06 21:19:25.69	1.14	16.69	-41.2	-42.2	23.1	0.00e+00	91	31	101	1048576	60	6290
2026-01-06 21:19:26.70	0.93	16.64	-41.3	-42.3	23.0	0.00e+00	0	31	101	1048576	60	6331
2026-01-06 21:19:27.70	0.73	16.60	-41.4	-42.4	23.0	0.00e+00	7	31	101	1048576	60	6431
2026-01-06 21:19:28.71	0.53	16.55	-41.5	-42.5	22.8	0.00e+00	5	31	101	1048576	60	6483
2026-01-06 21:19:29.71	0.32	16.50	-41.5	-42.5	22.8	0.00e+00	6	31	101	1048576	60	6500
2026-01-06 21:19:30.72	0.12	16.45	-41.5	-42.6	22.8	0.00e+00	92	32	101	1048576	60	6543
2026-01-06 21:19:31.73	359.92	16.41	-41.9	-42.9	22.9	0.00e+00	8	31	101	1048576	60	6814
2026-01-06 21:19:32.73	359.72	16.36	-41.6	-42.7	22.7	0.00e+00	90	31	101	1048576	60	6627
2026-01-06 21:19:33.74	359.52	16.31	-41.4	-42.4	23.0	0.00e+00	0	31	101	1048576	60	6433
2026-01-06 21:19:34.75	359.32	16.26	-41.4	-42.4	22.9	0.00e+00	0	31	101	1048576	60	6463
2026-01-06 21:19:35.75	359.12	16.21	-41.4	-42.4	22.9	0.00e+00	48	31	101	1048576	60	6449
2026-01-06 21:19:36.76	358.92	16.16	-41.5	-42.5	22.9	0.00e+00	0	31	101	1048576	60	6522
2026-01-06 21:19:37.76	358.72	16.11	-41.6	-42.6	22.8	0.00e+00	43	32	101	1048576	60	6568
2026-01-06 21:19:38.77	358.53	16.06	-41.4	-42.4	22.9	0.00e+00	44	31	101	1048576	60	6406
2026-01-06 21:19:39.78	358.33	16.01	-41.4	-42.4	22.8	0.00e+00	92	32	101	1048576	60	6429
2026-01-06 21:19:40.78	358.14	15.96	-41.5	-42.5	22.8	0.00e+00	44	31	101	1048576	60	6532
2026-01-06 21:19:41.79	357.94	15.91	-41.4	-42.4	22.9	0.00e+00	90	31	101	1048576	60	6413
2026-01-06 21:19:42.79	357.75	15.86	-41.5	-42.6	22.8	0.00e+00	0	32	101	1048576	60	6552
2026-01-06 21:19:43.80	357.55	15.81	-41.7	-42.7	22.6	0.00e+00	38	31	101	1048576	60	6647
2026-01-06 21:19:44.81	357.36	15.75	-41.6	-42.6	22.7	0.00e+00	31	32	101	1048576	60	6588
2026-01-06 21:19:45.81	357.17	15.70	-41.6	-42.7	22.7	0.00e+00	49	32	101	1048576	60	6627
2026-01-06 21:19:46.81	356.98	15.65	-41.6	-42.6	22.7	0.00e+00	90	31	101	1048576	60	6607
2026-01-06 21:19:47.82	356.79	15.60	-41.7	-42.8	22.6	0.00e+00	49	31	101	1048576	60	6715
2026-01-06 21:19:48.83	356.59	15.55	-41.7	-42.7	22.6	0.00e+00	92	31	101	1048576	60	6686
2026-01-06 21:19:49.83	356.41	15.49	-41.7	-42.8	22.6	0.00e+00	31	31	101	1048576	60	6693
2026-01-06 21:19:50.84	356.22	15.44	-41.5	-42.5	22.7	0.00e+00	48	31	101	1048576	60	6528
2026-01-06 21:19:51.85	356.03	15.39	-41.6	-42.7	22.6	0.00e+00	32	31	101	1048576	60	6628
2026-01-06 21:19:52.85	355.84	15.33	-41.4	-42.4	22.9	0.00e+00	32	31	101	1048576	60	6456
2026-01-06 21:19:53.86	355.65	15.28	-41.4	-42.5	22.8	0.00e+00	30	31	101	1048576	60	6465
2026-01-06 21:19:54.87	355.47	15.23	-41.3	-42.3	22.9	0.00e+00	0	31	101	1048576	60	6360
2026-01-06 21:19:55.87	355.28	15.17	-41.2	-42.2	23.0	0.00e+00	90	32	101	1048576	60	6315
2026-01-06 21:19:56.88	355.10	15.12	-41.4	-42.4	22.8	0.00e+00	0	31	101	1048576	60	6448
2026-01-06 21:19:57.88	354.91	15.07	-41.6	-42.7	22.6	0.00e+00	92	31	101	1048576	60	6616
2026-01-06 21:19:58.89	354.73	15.01	-41.8	-42.8	22.4	0.00e+00	0	31	101	1048576	60	6734
2026-01-06 21:19:59.90	354.55	14.96	-41.9	-43.0	22.3	0.00e+00	0	31	101	1048576	60	6885
2026-01-06 21:20:00.90	354.37	14.90	-42.0	-43.1	22.2	0.00e+00	0	31	101	1048576	60	6984
2026-01-06 21:20:01.91	354.18	14.85	-42.0	-43.1	22.2	0.00e+00	0	31	101	1048576	60	6948
2026-01-06 21:20:02.91	354.00	14.79	-42.1	-43.2	22.1	0.00e+00	93	31	101	1048576	60	7060
2026-01-06 21:20:03.92	353.82	14.74	-42.1	-43.2	22.2	0.00e+00	0	31	101	1048576	60	7017
2026-01-06 21:20:04.93	353.64	14.68	-42.1	-43.3	22.0	0.00e+00	92	31	101	1048576	60	7097
2026-01-06 21:20:05.93	353.47	14.63	-42.2	-43.3	22.0	0.00e+00	0	31	101	1048576	60	7130
2026-01-06 21:20:06.94	353.29	14.57	-42.3	-43.4	22.0	0.00e+00	0	31	101	1048576	60	7216
2026-01-06 21:20:07.95	353.11	14.51	-42.4	-43.5	21.9	0.00e+00	42	31	101	1048576	60	7303
2026-01-06 21:20:08.95	352.93	14.46	-42.4	-43.6	21.8	0.00e+00	0	31	101	1048576	60	7340
2026-01-06 21:20:09.96	352.76	14.40	-42.3	-43.4	21.9	0.00e+00	92	31	101	1048576	60	7248
2026-01-06 21:20:10.97	352.58	14.35	-42.3	-43.4	21.9	0.00e+00	0	31	101	1048576	60	7253
2026-01-06 21:20:11.97	352.41	14.29	-42.4	-43.6	21.8	0.00e+00	92	31	101	1048576	60	7340
2026-01-06 21:20:12.97	352.23	14.23	-42.3	-43.4	22.0	0.00e+00	0	31	101	1048576	60	7211
2026-01-06 21:20:13.98	352.06	14.18	-42.2	-43.3	22.0	0.00e+00	84	31	101	1048576	60	7169
2026-01-06 21:20:14.98	351.89	14.12	-42.2	-43.2	22.1	0.00e+00	43	31	101	1048576	60	7076
2026-01-06 21:20:15.99	351.72	14.06	-42.2	-43.3	22.1	0.00e+00	50	31	101	1048576	60	7124
2026-01-06 21:20:17.00	351.54	14.01	-42.3	-43.4	22.0	0.00e+00	0	31	101	1048576	60	7175
2026-01-06 21:20:18.01	351.37	13.95	-42.3	-43.4	21.9	0.00e+00	33	31	101	1048576	60	7214
2026-01-06 21:20:19.01	351.20	13.89	-42.3	-43.4	21.9	0.00e+00	93	32	101	1048576	60	7235
2026-01-06 21:20:20.02	351.03	13.84	-42.4	-43.6	21.7	0.00e+00	32	32	101	1048576	60	7359
2026-01-06 21:20:21.02	350.87	13.78	-42.4	-43.6	21.8	0.00e+00	92	32	101	1048576	60	7357
2026-01-06 21:20:22.03	350.70	13.72	-42.4	-43.5	21.8	0.00e+00	32	31	101	1048576	60	7331
2026-01-06 21:20:23.03	350.53	13.66	-42.3	-43.5	21.8	0.00e+00	32	31	101	1048576	60	7256
2026-01-06 21:20:24.04	350.36	13.61	-42.3	-43.4	21.9	0.00e+00	34	32	101	1048576	60	7219
2026-01-06 21:20:25.05	350.20	13.55	-42.2	-43.3	22.0	0.00e+00	2	32	101	1048576	60	7135
2026-01-06 21:20:26.05	350.03	13.49	-42.1	-43.2	22.0	0.00e+00	35	32	101	1048576	60	7084
2026-01-06 21:20:27.06	349.87	13.43	-42.1	-43.1	22.0	0.00e+00	0	31	101	1048576	60	6998
2026-01-06 21:20:28.07	349.70	13.37	-41.8	-42.8	22.4	0.00e+00	93	32	101	1048576	60	6747
2026-01-06 21:20:29.07	349.54	13.31	-41.7	-42.7	22.6	0.00e+00	0	32	101	1048576	60	6657
2026-01-06 21:20:30.07	349.38	13.26	-41.7	-42.7	22.4	0.00e+00	90	32	101	1048576	60	6677
2026-01-06 21:20:31.08	349.22	13.20	-41.7	-42.8	22.3	0.00e+00	34	32	101	1048576	60	6714
2026-01-06 21:20:32.09	349.06	13.14	-41.6	-42.6	22.6	0.00e+00	0	31	101	1048576	60	6571
2026-01-06 21:20:33.09	348.90	13.08	-41.6	-42.6	22.6	0.00e+00	35	31	101	1048576	60	6588
2026-01-06 21:20:34.10	348.74	13.02	-41.6	-42.6	22.6	0.00e+00	0	32	101	1048576	60	6586
2026-01-06 21:20:35.10	348.58	12.96	-41.6	-42.7	22.6	0.00e+00	90	32	101	1048576	60	6631
2026-01-06 21:20:36.11	348.42	12.90	-41.6	-42.7	22.5	0.00e+00	0	32	101	1048576	60	6632
2026-01-06 21:20:37.12	348.26	12.85	-41.5	-42.5	22.7	0.00e+00	92	32	101	1048576	60	6502
2026-01-06 21:20:38.13	348.10	12.79	-41.7	-42.7	22.5	0.00e+00	0	31	101	1048576	60	6687
2026-01-06 21:20:39.13	347.95	12.73	-41.7	-42.7	22.4	0.00e+00	0	32	101	1048576	60	6669
2026-01-06 21:20:40.14	347.79	12.67	-41.8	-42.9	22.5	0.00e+00	0	32	101	1048576	60	6784
2026-01-06 21:20:41.15	347.63	12.61	-41.5	-42.5	22.6	0.00e+00	0	31	101	1048576	60	6518
2026-01-06 21:20:42.15	347.48	12.55	-41.4	-42.4	22.8	0.00e+00	92	31	101	1048576	60	6448
2026-01-06 21:20:43.16	347.32	12.49	-41.3	-42.4	22.8	0.00e+00	0	32	101	1048576	60	6408
2026-01-06 21:20:44.17	347.17	12.43	-41.3	-42.3	22.9	0.00e+00	90	31	101	1048576	60	6351
2026-01-06 21:20:45.18	347.02	12.37	-41.1	-42.1	22.9	0.00e+00	49	31	101	1048576	60	6231
2026-01-06 21:20:46.18	346.86	12.31	-41.0	-42.0	23.1	0.00e+00	58	32	101	1048576	60	6165
2026-01-06 21:20:47.19	346.71	12.25	-41.0	-42.0	23.1	0.00e+00	49	32	101	1048576	60	6105
2026-01-06 21:20:48.20	346.56	12.19	-40.8	-41.8	23.3	0.00e+00	30	31	101	1048576	60	6002
2026-01-06 21:20:49.20	346.41	12.13	-40.8	-41.8	23.3	0.00e+00	16	32	101	1048576	60	5986
2026-01-06 21:20:50.21	346.26	12.07	-40.7	-41.7	23.3	0.00e+00	0	32	101	1048576	60	5919
2026-01-06 21:20:51.22	346.11	12.01	-40.8	-41.8	23.3	0.00e+00	90	32	101	1048576	60	5976
2026-01-06 21:20:52.23	345.96	11.95	-40.7	-41.6	23.4	0.00e+00	33	32	101	1048576	60	5875
2026-01-06 21:20:53.23	345.81	11.89	-40.7	-41.7	23.4	0.00e+00	90	32	101	1048576	60	5935
2026-01-06 21:20:54.24	345.67	11.83	-40.8	-41.8	23.3	0.00e+00	49	32	101	1048576	60	5979
2026-01-06 21:20:55.25	345.52	11.77	-40.7	-41.6	23.4	0.00e+00	34	32	101	1048576	60	5883
2026-01-06 21:20:56.25	345.37	11.71	-40.6	-41.6	23.4	0.00e+00	32	32	101	1048576	60	5829
2026-01-06 21:20:57.26	345.23	11.65	-40.7	-41.6	23.4	0.00e+00	2	31	101	1048576	60	5881
2026-01-06 21:20:58.26	345.08	11.59	-40.7	-41.6	23.4	0.00e+00	92	32	101	1048576	60	5893
2026-01-06 21:20:59.27	344.94	11.53	-40.5	-41.4	23.6	0.00e+00	0	32	101	1048576	60	5754
2026-01-06 21:21:00.28	344.79	11.47	-40.6	-41.6	23.5	0.00e+00	92	32	101	1048576	60	5839
2026-01-06 21:21:01.28	344.65	11.41	-40.4	-41.4	23.6	0.00e+00	34	32	101	1048576	60	5723
2026-01-06 21:21:02.29	344.51	11.35	-40.4	-41.4	23.6	0.00e+00	73	32	101	1048576	60	5719
2026-01-06 21:21:03.30	344.37	11.29	-40.4	-41.3	23.7	0.00e+00	2	32	101	1048576	60	5669
2026-01-06 21:21:04.30	344.23	11.23	-40.4	-41.3	23.6	0.00e+00	0	32	101	1048576	60	5663
2026-01-06 21:21:05.31	344.09	11.17	-40.5	-41.4	23.5	0.00e+00	28	32	101	1048576	60	5755
2026-01-06 21:21:06.31	343.95	11.11	-40.4	-41.4	23.2	0.00e+00	0	32	101	1048576	60	5720
2026-01-06 21:21:07.32	343.81	11.05	-40.6	-41.6	23.5	0.00e+00	90	31	101	1048576	60	5830
2026-01-06 21:21:08.32	343.67	10.99	-40.4	-41.3	23.6	0.00e+00	2	32	101	1048576	60	5665
2026-01-06 21:21:09.33	343.53	10.93	-40.5	-41.5	23.5	0.00e+00	92	31	101	1048576	60	5771
2026-01-06 21:21:10.34	343.39	10.87	-40.5	-41.5	23.3	0.00e+00	0	32	101	1048576	60	5778
2026-01-06 21:21:11.35	343.25	10.81	-40.6	-41.5	23.4	0.00e+00	0	31	101	1048576	60	5788
2026-01-06 21:21:12.35	343.12	10.75	-40.7	-41.7	23.0	0.00e+00	0	31	101	1048576	60	5898
2026-01-06 21:21:13.36	342.98	10.69	-40.7	-41.7	23.3	0.00e+00	0	32	101	1048576	60	5926
2026-01-06 21:21:14.37	342.84	10.63	-40.8	-41.8	23.2	0.00e+00	92	32	101	1048576	60	5987
2026-01-06 21:21:15.37	342.71	10.57	-40.9	-41.9	23.2	0.00e+00	0	32	101	1048576	60	6040
2026-01-06 21:21:16.38	342.58	10.51	-40.9	-41.9	23.1	0.00e+00	90	32	101	1048576	60	6057
2026-01-06 21:21:17.39	342.44	10.45	-40.9	-41.9	23.1	0.00e+00	47	31	101	1048576	60	6085
2026-01-06 21:21:18.40	342.31	10.39	-41.0	-42.0	22.9	0.00e+00	35	32	101	1048576	60	6160
2026-01-06 21:21:19.40	342.18	10.33	-41.1	-42.2	23.0	0.00e+00	46	32	101	1048576	60	6246
2026-01-06 21:21:20.41	342.04	10.27	-41.2	-42.3	22.7	0.00e+00	48	32	101	1048576	60	6350
2026-01-06 21:21:21.42	341.91	10.21	-41.3	-42.3	22.7	0.00e+00	92	31	101	1048576	60	6347
2026-01-06 21:21:22.42	341.78	10.15	-41.3	-42.4	22.7	0.00e+00	0	31	101	1048576	60	6425
2026-01-06 21:21:23.43	341.65	10.08	-41.2	-42.3	22.7	0.00e+00	92	31	101	1048576	60	6363
2026-01-06 21:21:24.43	341.52	10.02	-41.1	-42.2	22.9	0.00e+00	40	32	101	1048576	60	6260
2026-01-06 21:21:25.44	341.39	9.96	-41.2	-42.3	22.8	0.00e+00	92	32	101	1048576	60	6318
2026-01-06 21:21:26.44	341.26	9.90	-41.2	-42.3	22.8	0.00e+00	44	32	101	1048576	60	6326
2026-01-06 21:21:27.45	341.13	9.84	-41.2	-42.2	22.8	0.00e+00	6	31	101	1048576	60	6297
2026-01-06 21:21:28.46	341.01	9.78	-41.0	-42.0	22.9	0.00e+00	0	32	101	1048576	60	6171
2026-01-06 21:21:29.46	340.88	9.72	-41.1	-42.1	22.9	0.00e+00	36	32	101	1048576	60	6202
2026-01-06 21:21:30.47	340.75	9.66	-41.0	-42.0	22.9	0.00e+00	92	32	101	1048576	60	6156
2026-01-06 21:21:31.47	340.63	9.60	-41.1	-42.1	22.9	0.00e+00	0	32	101	1048576	60	6206
2026-01-06 21:21:32.48	340.50	9.54	-41.0	-42.1	22.9	0.00e+00	92	32	101	1048576	60	6195
2026-01-06 21:21:33.49	340.38	9.48	-41.2	-42.2	22.7	0.00e+00	5	31	101	1048576	60	6296
2026-01-06 21:21:34.49	340.25	9.42	-41.0	-42.1	22.9	0.00e+00	6	32	101	1048576	60	6195
2026-01-06 21:21:35.50	340.13	9.36	-41.1	-42.1	22.9	0.00e+00	0	32	101	1048576	60	6223
2026-01-06 21:21:36.51	340.00	9.30	-41.2	-42.2	22.7	0.00e+00	0	32	101	1048576	60	6288
2026-01-06 21:21:37.51	339.88	9.24	-41.2	-42.2	22.7	0.00e+00	91	31	101	1048576	60	6316
2026-01-06 21:21:38.51	339.76	9.18	-41.4	-42.5	22.5	0.00e+00	6	31	101	1048576	60	6501
2026-01-06 21:21:39.52	339.64	9.12	-41.3	-42.4	22.6	0.00e+00	92	31	101	1048576	60	6424
2026-01-06 21:21:40.52	339.52	9.06	-41.4	-42.4	22.5	0.00e+00	6	31	101	1048576	60	6442
2026-01-06 21:21:41.53	339.40	9.00	-41.4	-42.5	22.4	0.00e+00	90	32	101	1048576	60	6517
2026-01-06 21:21:42.54	339.28	8.94	-41.5	-42.6	22.4	0.00e+00	7	32	101	1048576	60	6558
2026-01-06 21:21:43.55	339.15	8.88	-41.5	-42.6	22.4	0.00e+00	0	32	101	1048576	60	6576
2026-01-06 21:21:44.56	339.04	8.82	-41.6	-42.7	22.3	0.00e+00	0	31	101	1048576	60	6646
2026-01-06 21:21:45.56	338.92	8.76	-41.8	-42.9	22.2	0.00e+00	0	32	101	1048576	60	6790
2026-01-06 21:21:46.57	338.80	8.70	-41.6	-42.7	22.2	0.00e+00	92	32	101	1048576	60	6684
2026-01-06 21:21:47.58	338.68	8.64	-41.7	-42.9	22.1	0.00e+00	0	32	101	1048576	60	6771
2026-01-06 21:21:48.58	338.56	8.58	-41.7	-42.8	22.1	0.00e+00	92	32	101	1048576	60	6768
2026-01-06 21:21:49.59	338.45	8.52	-41.8	-42.9	22.0	0.00e+00	46	32	101	1048576	60	6843
2026-01-06 21:21:50.59	338.33	8.46	-42.0	-43.2	21.9	0.00e+00	45	32	101	1048576	60	7009
2026-01-06 21:21:51.60	338.21	8.40	-42.0	-43.2	21.8	0.00e+00	41	32	101	1048576	60	7022
2026-01-06 21:21:52.60	338.10	8.34	-41.9	-43.0	21.9	0.00e+00	45	32	101	1048576	60	6924
2026-01-06 21:21:53.61	337.98	8.28	-42.1	-43.3	21.8	0.00e+00	44	32	101	1048576	60	7090
2026-01-06 21:21:54.62	337.87	8.22	-42.2	-43.3	21.7	0.00e+00	41	32	101	1048576	60	7142
2026-01-06 21:21:55.62	337.76	8.16	-42.2	-43.4	21.6	0.00e+00	92	31	101	1048576	60	7210
2026-01-06 21:21:56.63	337.64	8.10	-42.3	-43.4	21.5	0.00e+00	46	32	101	1048576	60	7246
2026-01-06 21:21:57.63	337.53	8.04	-42.4	-43.6	21.5	0.00e+00	93	31	101	1048576	60	7342
2026-01-06 21:21:58.64	337.42	7.98	-42.3	-43.5	21.4	0.00e+00	44	31	101	1048576	60	7303
2026-01-06 21:21:59.65	337.31	7.92	-42.4	-43.6	21.4	0.00e+00	42	31	101	1048576	60	7404
2026-01-06 21:22:00.66	337.19	7.86	-42.6	-43.9	21.1	0.00e+00	76	31	101	1048576	60	7601
2026-01-06 21:22:01.67	337.08	7.80	-42.6	-43.8	21.1	0.00e+00	0	32	101	1048576	60	7567
2026-01-06 21:22:02.68	336.97	7.74	-42.6	-43.8	21.2	0.00e+00	90	32	101	1048576	60	7584
2026-01-06 21:22:03.69	336.86	7.68	-42.6	-43.9	21.1	0.00e+00	7	32	101	1048576	60	7627
2026-01-06 21:22:04.70	336.75	7.62	-42.7	-44.0	21.0	0.00e+00	58	31	101	1048576	60	7733
2026-01-06 21:22:05.71	336.64	7.56	-42.7	-44.0	21.0	0.00e+00	0	32	101	1048576	60	7725
2026-01-06 21:22:06.72	336.53	7.50	-42.6	-43.9	21.0	0.00e+00	4	32	101	1048576	60	7626
2026-01-06 21:22:07.73	336.42	7.44	-42.7	-44.0	21.0	0.00e+00	0	32	101	1048576	60	7702
2026-01-06 21:22:08.75	336.31	7.38	-42.7	-44.0	20.9	0.00e+00	45	32	101	1048576	60	7717
2026-01-06 21:22:09.76	336.21	7.32	-42.8	-44.1	20.8	0.00e+00	92	31	101	1048576	60	7835
2026-01-06 21:22:10.77	336.10	7.26	-42.9	-44.2	20.7	0.00e+00	0	31	101	1048576	60	7923
2026-01-06 21:22:11.78	335.99	7.20	-42.9	-44.1	20.7	0.00e+00	92	32	101	1048576	60	7857
2026-01-06 21:22:12.79	335.89	7.14	-43.0	-44.3	20.6	0.00e+00	0	32	101	1048576	60	7992
2026-01-06 21:22:13.80	335.78	7.08	-42.8	-44.1	20.8	0.00e+00	36	32	101	1048576	60	7819
2026-01-06 21:22:14.81	335.67	7.02	-42.9	-44.2	20.7	0.00e+00	35	32	101	1048576	60	7946
2026-01-06 21:22:15.82	335.57	6.97	-43.0	-44.3	20.6	0.00e+00	36	32	101	1048576	60	7988
2026-01-06 21:22:16.83	335.46	6.91	-43.0	-44.4	20.5	0.00e+00	47	31	101	1048576	60	8054
2026-01-06 21:22:17.84	335.36	6.85	-43.0	-44.3	20.5	0.00e+00	36	32	101	1048576	60	8024
2026-01-06 21:22:18.85	335.26	6.79	-42.9	-44.2	20.6	0.00e+00	90	32	101	1048576	60	7940
2026-01-06 21:22:19.87	335.15	6.73	-43.0	-44.3	20.6	0.00e+00	41	32	101	1048576	60	7992
2026-01-06 21:22:20.88	335.05	6.67	-43.0	-44.4	20.4	0.00e+00	92	32	101	1048576	60	8075
2026-01-06 21:22:21.89	334.95	6.61	-43.0	-44.3	20.5	0.00e+00	0	32	101	1048576	60	7992
2026-01-06 21:22:22.90	334.85	6.55	-43.0	-44.3	20.4	0.00e+00	0	32	101	1048576	60	8023
2026-01-06 21:22:23.91	334.74	6.49	-43.0	-44.4	20.3	0.00e+00	9	32	101	1048576	60	8048
2026-01-06 21:22:24.92	334.64	6.43	-43.1	-44.5	20.2	0.00e+00	0	32	101	1048576	60	8170
2026-01-06 21:22:25.93	334.54	6.37	-43.1	-44.6	19.9	0.00e+00	92	32	101	1048576	60	8238
2026-01-06 21:22:26.94	334.44	6.32	-43.3	-44.8	19.7	0.00e+00	0	32	101	1048576	60	8431
2026-01-06 21:22:27.95	334.34	6.26	-43.4	-44.9	19.6	0.00e+00	83	32	101	1048576	60	8536
2026-01-06 21:22:28.96	334.24	6.20	-43.6	-45.2	19.2	0.00e+00	43	32	101	1048576	60	8826
2026-01-06 21:22:29.97	334.14	6.14	-43.7	-45.3	19.0	0.00e+00	44	32	101	1048576	60	9016
2026-01-06 21:22:30.98	334.04	6.08	-44.0	-45.7	18.7	0.00e+00	0	31	101	1048576	60	9352
2026-01-06 21:22:31.99	333.95	6.02	-44.0	-45.8	18.5	0.00e+00	39	31	101	1048576	60	9481
2026-01-06 21:22:33.01	333.85	5.96	-44.1	-45.8	18.4	0.00e+00	92	32	101	1048576	60	9523
2026-01-06 21:22:34.02	333.75	5.91	-44.2	-46.1	18.2	0.00e+00	38	32	101	1048576	60	9799
2026-01-06 21:22:35.03	333.65	5.85	-44.3	-46.2	17.9	0.00e+00	92	32	101	1048576	60	9944
2026-01-06 21:22:36.04	333.56	5.79	-44.5	-46.4	17.8	0.00e+00	38	32	101	1048576	60	10160
2026-01-06 21:22:37.05	333.46	5.73	-44.5	-46.4	17.7	0.00e+00	0	31	101	1048576	60	10214
2026-01-06 21:22:38.06	333.36	5.67	-44.6	-46.6	17.6	0.00e+00	36	31	101	1048576	60	10365
2026-01-06 21:22:39.07	333.27	5.61	-44.6	-46.6	17.4	0.00e+00	2	31	101	1048576	60	10428
2026-01-06 21:22:40.08	333.17	5.56	-44.8	-46.9	17.3	0.00e+00	92	31	101	1048576	60	10780
2026-01-06 21:22:41.09	333.08	5.50	-44.6	-46.6	17.5	0.00e+00	37	32	101	1048576	60	10416
