passes_logs/2026/01/06/R4.6S_Anadyr_2ch/R4.6S_Anadyr_2ch__20260106_125317_NOAA_20_JPSS-1_rec.log

#Pass ID: 20260106_125317_NOAA 20 (JPSS-1)
#Satellite: NOAA 20 (JPSS-1)
#Configuration: NOAA 20
#almurnet v.1.7.20251203
#Start time: 2026-01-06 12:53:19

#Version: 2.2.20231116
#Station: R4.6S_Anadyr_2ch
#Location: 177.4865 lon 64.73178 lat
#TLE: 1 43013U 17073A   25350.93759711  .00000080  00000+0  58734-4 0  9994
#TLE: 2 43013  98.7603 287.1885 0002156  81.1496 278.9924 14.19526878418610

#Time	Az	El	Level	Level2	SNR	BER	BlckErr	Temp	State	Recorded	gain1	gain2
2026-01-06 12:53:19.27	18.78	0.07	-51.3	-66.2	3.5	1.51e+00	0	31	0	0	60	99639
2026-01-06 12:53:20.28	18.84	0.13	-51.4	-66.8	3.6	1.51e+00	0	32	104	0	60	106265
2026-01-06 12:53:21.29	18.90	0.18	-51.4	-66.8	3.6	1.51e+00	0	32	104	0	60	106120
2026-01-06 12:53:22.30	18.96	0.23	-51.4	-66.7	3.6	1.51e+00	0	32	104	0	60	105938
2026-01-06 12:53:23.31	19.02	0.29	-51.4	-66.8	3.6	1.51e+00	0	32	104	0	60	106114
2026-01-06 12:53:24.31	19.08	0.34	-51.4	-66.8	3.6	1.51e+00	0	32	104	0	60	106574
2026-01-06 12:53:25.32	19.14	0.40	-51.4	-66.8	3.6	1.51e+00	0	32	104	0	60	106421
2026-01-06 12:53:26.34	19.20	0.45	-51.4	-66.8	3.6	1.51e+00	0	32	104	0	60	106064
2026-01-06 12:53:27.35	19.26	0.50	-51.4	-66.7	3.6	1.51e+00	0	32	104	0	60	105564
2026-01-06 12:53:28.36	19.32	0.56	-51.3	-66.6	3.6	1.51e+00	0	32	104	0	60	104653
2026-01-06 12:53:29.37	19.38	0.61	-51.2	-66.5	3.6	1.51e+00	0	32	104	0	60	102906
2026-01-06 12:53:30.38	19.44	0.67	-51.1	-66.4	3.6	1.51e+00	0	32	104	0	60	101790
2026-01-06 12:53:31.39	19.50	0.72	-50.9	-66.2	3.5	1.51e+00	0	32	104	0	60	99618
2026-01-06 12:53:32.40	19.57	0.78	-50.7	-66.1	3.6	1.51e+00	0	32	104	0	60	98201
2026-01-06 12:53:33.41	19.63	0.83	-50.5	-65.8	3.6	1.51e+00	0	32	104	0	60	95485
2026-01-06 12:53:34.42	19.69	0.89	-50.2	-65.5	3.6	1.51e+00	0	32	104	0	60	91416
2026-01-06 12:53:35.43	19.75	0.94	-49.9	-65.0	3.6	1.51e+00	0	32	104	0	60	87124
2026-01-06 12:53:36.44	19.82	1.00	-49.9	-65.1	3.6	1.51e+00	0	32	104	0	60	87514
2026-01-06 12:53:37.45	19.88	1.05	-49.9	-65.1	3.6	1.51e+00	0	32	104	0	60	87634
2026-01-06 12:53:38.46	19.94	1.10	-49.9	-65.1	3.6	1.51e+00	0	32	104	0	60	87753
2026-01-06 12:53:39.47	20.01	1.16	-49.9	-65.1	3.6	1.51e+00	0	32	104	0	60	88029
2026-01-06 12:53:40.48	20.07	1.21	-49.9	-65.1	3.6	1.51e+00	0	32	104	0	60	88129
2026-01-06 12:53:41.49	20.13	1.27	-49.9	-65.2	3.6	1.51e+00	0	32	104	0	60	88525
2026-01-06 12:53:42.50	20.20	1.33	-49.9	-65.1	3.6	1.51e+00	0	32	104	0	60	88156
2026-01-06 12:53:43.51	20.26	1.38	-49.9	-65.2	3.6	1.51e+00	0	32	104	0	60	88497
2026-01-06 12:53:44.52	20.32	1.44	-49.9	-65.2	3.6	1.51e+00	0	32	104	0	60	88250
2026-01-06 12:53:45.53	20.39	1.49	-49.9	-65.1	3.6	1.51e+00	0	32	104	0	60	87902
2026-01-06 12:53:46.54	20.45	1.55	-49.9	-65.0	3.6	1.51e+00	0	32	104	0	60	86567
2026-01-06 12:53:47.55	20.52	1.60	-49.9	-65.0	3.6	1.51e+00	0	32	104	0	60	86797
2026-01-06 12:53:48.56	20.58	1.66	-49.9	-64.9	3.6	1.51e+00	0	32	104	0	60	86121
2026-01-06 12:53:49.57	20.65	1.71	-49.9	-65.0	3.6	1.51e+00	0	32	104	0	60	86610
2026-01-06 12:53:50.59	20.72	1.77	-49.9	-65.0	3.6	1.51e+00	0	32	104	0	60	87104
2026-01-06 12:53:51.60	20.78	1.83	-49.9	-65.1	3.6	1.51e+00	0	32	104	0	60	87717
2026-01-06 12:53:52.61	20.85	1.88	-49.9	-65.1	3.6	1.51e+00	0	32	104	0	60	87613
2026-01-06 12:53:53.62	20.92	1.94	-49.8	-65.1	3.6	1.51e+00	0	33	104	0	60	87468
2026-01-06 12:53:54.63	20.98	2.00	-49.9	-65.1	3.6	1.51e+00	0	32	104	0	60	87931
2026-01-06 12:53:55.64	21.05	2.05	-49.9	-65.1	3.6	1.51e+00	0	32	104	0	60	87886
2026-01-06 12:53:56.65	21.12	2.11	-49.8	-64.9	3.6	1.51e+00	0	32	104	0	60	85810
2026-01-06 12:53:57.66	21.18	2.16	-49.8	-64.5	3.6	1.51e+00	0	32	104	0	60	82020
2026-01-06 12:53:58.67	21.25	2.22	-49.8	-63.9	3.6	1.51e+00	0	32	104	0	60	76607
2026-01-06 12:53:59.68	21.32	2.28	-49.8	-63.6	3.6	1.51e+00	0	33	104	0	60	73830
2026-01-06 12:54:00.69	21.39	2.33	-49.8	-64.2	3.6	1.51e+00	0	33	104	0	60	79368
2026-01-06 12:54:01.70	21.46	2.39	-49.8	-64.5	3.6	1.51e+00	0	33	104	0	60	81951
2026-01-06 12:54:02.71	21.52	2.45	-49.7	-62.0	3.7	1.51e+00	0	32	104	0	60	61198
2026-01-06 12:54:03.72	21.59	2.51	-49.2	-57.4	6.8	3.41e-01	16	33	104	0	60	36074
2026-01-06 12:54:04.74	21.66	2.56	-48.3	-53.1	10.9	1.93e-02	78	33	102	1048576	60	22024
2026-01-06 12:54:05.75	21.73	2.62	-46.9	-50.1	14.1	1.01e-04	74	32	102	1048576	60	15674
2026-01-06 12:54:06.76	21.80	2.68	-45.8	-48.3	16.2	0.00e+00	0	32	102	1048576	60	12607
2026-01-06 12:54:07.77	21.87	2.73	-44.9	-46.9	17.5	0.00e+00	75	32	102	1048576	60	10826
2026-01-06 12:54:08.75	21.94	2.79	-43.9	-45.6	18.7	0.00e+00	92	33	102	1048576	60	9292
2026-01-06 12:54:09.76	22.01	2.85	-43.5	-45.0	19.2	0.00e+00	81	32	102	1048576	60	8696
2026-01-06 12:54:10.77	22.08	2.91	-43.5	-45.1	19.1	0.00e+00	92	32	102	1048576	60	8810
2026-01-06 12:54:11.78	22.15	2.96	-44.0	-45.8	18.5	0.00e+00	75	32	102	1048576	60	9473
2026-01-06 12:54:12.79	22.22	3.02	-44.8	-46.8	17.4	0.00e+00	76	32	102	1048576	60	10719
2026-01-06 12:54:13.81	22.29	3.08	-45.9	-48.5	15.5	0.00e+00	2	32	102	1048576	60	12944
2026-01-06 12:54:14.82	22.37	3.14	-47.4	-51.3	12.6	7.60e-06	2	33	102	1048576	60	17816
2026-01-06 12:54:15.83	22.44	3.19	-48.7	-54.6	8.8	1.76e-03	92	32	102	1048576	60	26088
2026-01-06 12:54:16.84	22.51	3.25	-43.4	-44.9	19.4	0.00e+00	0	33	102	1048576	60	8592
2026-01-06 12:54:17.85	22.58	3.31	-49.7	-64.3	3.6	2.20e-01	0	32	104	1048576	60	79805
2026-01-06 12:54:18.86	22.66	3.37	-49.4	-57.8	4.1	1.50e+00	16	32	104	1048576	60	37960
2026-01-06 12:54:19.87	22.73	3.43	-47.4	-51.0	13.0	3.23e-03	0	33	0	1048576	60	17271
2026-01-06 12:54:20.88	22.80	3.49	-49.9	-63.7	3.6	7.22e-01	0	33	104	1048576	60	75035
2026-01-06 12:54:21.89	22.88	3.54	-47.9	-52.1	12.7	1.44e+00	67	32	104	1048576	60	19689
2026-01-06 12:54:22.90	22.95	3.60	-47.4	-51.0	13.4	2.28e-05	17	33	0	1048576	60	17205
2026-01-06 12:54:23.91	23.02	3.66	-47.2	-50.5	13.9	1.67e-05	74	33	0	1048576	60	16391
2026-01-06 12:54:24.92	23.10	3.72	-47.2	-50.5	13.7	1.06e-05	90	33	0	1048576	60	16313
2026-01-06 12:54:25.93	23.17	3.78	-47.3	-50.7	13.7	6.10e-06	82	33	0	1048576	60	16708
2026-01-06 12:54:26.94	23.25	3.84	-46.6	-49.4	15.1	0.00e+00	90	33	0	1048576	60	14355
2026-01-06 12:54:27.96	23.32	3.90	-46.5	-49.3	15.4	0.00e+00	75	33	0	1048576	60	14177
2026-01-06 12:54:28.97	23.40	3.96	-46.2	-48.8	15.9	0.00e+00	76	32	0	1048576	60	13398
2026-01-06 12:54:29.98	23.47	4.02	-45.5	-47.6	17.0	0.00e+00	1	33	0	1048576	60	11747
2026-01-06 12:54:30.99	23.55	4.08	-44.8	-46.7	17.8	0.00e+00	76	33	0	1048576	60	10546
2026-01-06 12:54:32.00	23.63	4.14	-44.5	-46.4	18.3	0.00e+00	90	32	0	1048576	60	10145
2026-01-06 12:54:33.01	23.70	4.20	-44.0	-45.7	18.9	0.00e+00	0	33	0	1048576	60	9360
2026-01-06 12:54:34.02	23.78	4.25	-43.7	-45.3	19.2	0.00e+00	91	33	0	1048576	60	8991
2026-01-06 12:54:35.03	23.86	4.31	-43.7	-45.2	19.3	0.00e+00	0	32	0	1048576	60	8866
2026-01-06 12:54:36.04	23.93	4.37	-43.6	-45.1	19.4	0.00e+00	2	33	0	1048576	60	8788
2026-01-06 12:54:37.06	24.01	4.43	-43.2	-44.7	19.9	0.00e+00	0	33	0	1048576	60	8333
2026-01-06 12:54:38.07	24.09	4.49	-43.1	-44.5	20.1	0.00e+00	7	33	0	1048576	60	8159
2026-01-06 12:54:39.08	24.17	4.55	-43.1	-44.5	20.1	0.00e+00	92	33	0	1048576	60	8139
2026-01-06 12:54:40.09	24.25	4.62	-42.9	-44.3	20.3	0.00e+00	6	32	0	1048576	60	7978
2026-01-06 12:54:41.10	24.33	4.68	-42.9	-44.3	20.2	0.00e+00	92	33	101	1048576	60	8013
2026-01-06 12:54:42.11	24.41	4.74	-43.0	-44.4	20.2	0.00e+00	2	33	101	1048576	60	8068
2026-01-06 12:54:43.12	24.49	4.80	-42.9	-44.2	20.4	0.00e+00	0	33	101	1048576	60	7919
2026-01-06 12:54:44.13	24.57	4.86	-43.0	-44.3	20.3	0.00e+00	74	33	101	1048576	60	8035
2026-01-06 12:54:45.14	24.65	4.92	-42.7	-44.0	20.6	0.00e+00	75	33	101	1048576	60	7705
2026-01-06 12:54:46.15	24.73	4.98	-42.8	-44.1	20.4	0.00e+00	8	33	101	1048576	60	7839
2026-01-06 12:54:47.16	24.81	5.04	-42.8	-44.2	20.5	0.00e+00	75	33	101	1048576	60	7888
2026-01-06 12:54:48.17	24.89	5.10	-42.8	-44.1	20.5	0.00e+00	92	33	101	1048576	60	7788
2026-01-06 12:54:49.18	24.97	5.16	-42.6	-43.9	20.7	0.00e+00	81	33	101	1048576	60	7646
2026-01-06 12:54:50.19	25.05	5.22	-42.6	-43.8	20.8	0.00e+00	1	33	101	1048576	60	7579
2026-01-06 12:54:51.20	25.13	5.28	-42.7	-44.0	20.7	0.00e+00	0	33	101	1048576	60	7696
2026-01-06 12:54:52.21	25.22	5.34	-42.6	-43.9	20.7	0.00e+00	0	33	101	1048576	60	7610
2026-01-06 12:54:53.22	25.30	5.41	-42.5	-43.7	20.9	0.00e+00	0	33	101	1048576	60	7468
2026-01-06 12:54:54.23	25.38	5.47	-42.6	-43.9	20.8	0.00e+00	2	33	101	1048576	60	7605
2026-01-06 12:54:55.24	25.47	5.53	-42.5	-43.8	20.9	0.00e+00	92	33	101	1048576	60	7542
2026-01-06 12:54:56.25	25.55	5.59	-42.6	-43.9	20.7	0.00e+00	0	33	101	1048576	60	7600
2026-01-06 12:54:57.26	25.63	5.65	-42.7	-44.0	20.8	0.00e+00	1	33	101	1048576	60	7724
2026-01-06 12:54:58.28	25.72	5.72	-42.5	-43.7	20.9	0.00e+00	0	33	101	1048576	60	7502
2026-01-06 12:54:59.29	25.80	5.78	-42.7	-44.0	20.8	0.00e+00	0	33	101	1048576	60	7686
2026-01-06 12:55:00.30	25.89	5.84	-42.5	-43.7	20.9	0.00e+00	2	33	101	1048576	60	7502
2026-01-06 12:55:01.31	25.98	5.90	-42.5	-43.7	21.0	0.00e+00	76	33	101	1048576	60	7499
2026-01-06 12:55:02.32	26.06	5.96	-42.5	-43.8	20.9	0.00e+00	92	33	101	1048576	60	7551
2026-01-06 12:55:03.33	26.15	6.03	-42.5	-43.7	21.0	0.00e+00	75	33	101	1048576	60	7487
2026-01-06 12:55:04.34	26.23	6.09	-42.7	-44.0	20.7	0.00e+00	92	33	101	1048576	60	7714
2026-01-06 12:55:05.35	26.32	6.15	-42.6	-43.8	20.9	0.00e+00	0	33	101	1048576	60	7568
2026-01-06 12:55:06.36	26.41	6.21	-42.5	-43.8	20.8	0.00e+00	0	33	101	1048576	60	7528
2026-01-06 12:55:07.37	26.50	6.28	-42.6	-43.8	20.7	0.00e+00	0	33	101	1048576	60	7578
2026-01-06 12:55:08.38	26.58	6.34	-42.6	-43.9	20.8	0.00e+00	75	33	101	1048576	60	7619
2026-01-06 12:55:09.39	26.67	6.40	-42.5	-43.8	21.0	0.00e+00	90	33	101	1048576	60	7525
2026-01-06 12:55:10.39	26.76	6.47	-42.4	-43.7	21.1	0.00e+00	0	33	101	1048576	60	7428
2026-01-06 12:55:11.40	26.85	6.53	-42.4	-43.7	21.0	0.00e+00	92	33	101	1048576	60	7447
2026-01-06 12:55:12.40	26.94	6.59	-42.6	-43.8	21.0	0.00e+00	0	33	101	1048576	60	7554
2026-01-06 12:55:13.41	27.03	6.65	-42.4	-43.6	21.2	0.00e+00	6	33	101	1048576	60	7366
2026-01-06 12:55:14.42	27.12	6.72	-42.5	-43.7	21.1	0.00e+00	0	33	101	1048576	60	7458
2026-01-06 12:55:15.42	27.21	6.78	-42.4	-43.6	21.1	0.00e+00	5	33	101	1048576	60	7410
2026-01-06 12:55:16.43	27.30	6.84	-42.5	-43.7	21.1	0.00e+00	0	33	101	1048576	60	7466
2026-01-06 12:55:17.44	27.39	6.91	-42.4	-43.6	21.2	0.00e+00	6	33	101	1048576	60	7402
2026-01-06 12:55:18.44	27.48	6.97	-42.4	-43.6	21.1	0.00e+00	90	33	101	1048576	60	7419
2026-01-06 12:55:19.45	27.57	7.04	-42.3	-43.5	21.3	0.00e+00	7	33	101	1048576	60	7314
2026-01-06 12:55:20.46	27.66	7.10	-42.4	-43.6	21.2	0.00e+00	91	33	101	1048576	60	7382
2026-01-06 12:55:21.47	27.76	7.16	-42.4	-43.6	21.2	0.00e+00	0	33	101	1048576	60	7384
2026-01-06 12:55:22.48	27.85	7.23	-42.5	-43.8	21.1	0.00e+00	3	33	101	1048576	60	7526
2026-01-06 12:55:23.49	27.94	7.29	-42.3	-43.5	21.3	0.00e+00	5	33	101	1048576	60	7277
2026-01-06 12:55:24.50	28.04	7.36	-42.2	-43.4	21.4	0.00e+00	80	33	101	1048576	60	7207
2026-01-06 12:55:25.51	28.13	7.42	-42.2	-43.4	21.5	0.00e+00	92	33	101	1048576	60	7186
2026-01-06 12:55:26.52	28.23	7.49	-42.1	-43.3	21.6	0.00e+00	6	33	101	1048576	60	7149
2026-01-06 12:55:27.53	28.32	7.55	-42.2	-43.4	21.5	0.00e+00	92	33	101	1048576	60	7177
2026-01-06 12:55:28.54	28.42	7.62	-42.0	-43.2	21.7	0.00e+00	83	33	101	1048576	60	7038
2026-01-06 12:55:29.55	28.51	7.68	-42.1	-43.3	21.6	0.00e+00	0	33	101	1048576	60	7092
2026-01-06 12:55:30.56	28.61	7.75	-41.9	-43.1	21.8	0.00e+00	0	33	101	1048576	60	6952
2026-01-06 12:55:31.57	28.71	7.81	-41.9	-43.0	21.9	0.00e+00	82	33	101	1048576	60	6862
2026-01-06 12:55:32.58	28.80	7.88	-41.9	-43.0	21.9	0.00e+00	78	33	101	1048576	60	6909
2026-01-06 12:55:33.59	28.90	7.94	-41.8	-42.9	22.0	0.00e+00	0	33	101	1048576	60	6779
2026-01-06 12:55:34.60	29.00	8.01	-41.8	-42.9	21.9	0.00e+00	92	33	101	1048576	60	6843
2026-01-06 12:55:35.61	29.10	8.07	-41.8	-42.9	22.0	0.00e+00	6	33	101	1048576	60	6801
2026-01-06 12:55:36.62	29.20	8.14	-41.8	-42.9	22.0	0.00e+00	57	33	101	1048576	60	6790
2026-01-06 12:55:37.63	29.29	8.20	-41.9	-43.0	21.9	0.00e+00	7	33	101	1048576	60	6887
2026-01-06 12:55:38.64	29.39	8.27	-41.8	-42.9	22.0	0.00e+00	0	33	101	1048576	60	6807
2026-01-06 12:55:39.65	29.49	8.34	-41.9	-43.0	21.9	0.00e+00	0	33	101	1048576	60	6871
2026-01-06 12:55:40.66	29.59	8.40	-41.8	-42.9	21.9	0.00e+00	8	33	101	1048576	60	6806
2026-01-06 12:55:41.67	29.70	8.47	-41.8	-42.9	22.0	0.00e+00	92	33	101	1048576	60	6811
2026-01-06 12:55:42.68	29.80	8.54	-42.0	-43.1	21.8	0.00e+00	7	33	101	1048576	60	6966
2026-01-06 12:55:43.69	29.90	8.60	-42.0	-43.1	21.7	0.00e+00	90	33	101	1048576	60	6962
2026-01-06 12:55:44.70	30.00	8.67	-42.3	-43.4	21.5	0.00e+00	77	33	101	1048576	60	7242
2026-01-06 12:55:45.71	30.10	8.74	-42.2	-43.4	21.6	0.00e+00	3	33	101	1048576	60	7176
2026-01-06 12:55:46.72	30.21	8.80	-42.4	-43.6	21.3	0.00e+00	79	33	101	1048576	60	7380
2026-01-06 12:55:47.73	30.31	8.87	-42.0	-43.2	21.8	0.00e+00	73	33	101	1048576	60	7027
2026-01-06 12:55:48.74	30.41	8.94	-42.1	-43.2	21.7	0.00e+00	91	33	101	1048576	60	7080
2026-01-06 12:55:49.75	30.52	9.00	-42.0	-43.1	21.7	0.00e+00	71	33	101	1048576	60	7002
2026-01-06 12:55:50.76	30.62	9.07	-41.8	-42.9	22.0	0.00e+00	92	33	101	1048576	60	6842
2026-01-06 12:55:51.77	30.73	9.14	-41.9	-43.0	21.7	0.00e+00	74	33	101	1048576	60	6854
2026-01-06 12:55:52.78	30.84	9.20	-41.9	-43.0	21.6	0.00e+00	0	33	101	1048576	60	6885
2026-01-06 12:55:53.79	30.94	9.27	-42.1	-43.2	21.6	0.00e+00	0	33	101	1048576	60	7078
2026-01-06 12:55:54.80	31.05	9.34	-41.9	-43.0	21.9	0.00e+00	0	33	101	1048576	60	6923
2026-01-06 12:55:55.81	31.16	9.41	-41.9	-43.0	21.9	0.00e+00	74	33	101	1048576	60	6921
2026-01-06 12:55:56.82	31.26	9.47	-41.9	-43.0	22.0	0.00e+00	0	33	101	1048576	60	6902
2026-01-06 12:55:57.83	31.37	9.54	-41.9	-43.0	22.0	0.00e+00	92	33	101	1048576	60	6855
2026-01-06 12:55:58.84	31.48	9.61	-41.9	-43.0	22.0	0.00e+00	0	33	101	1048576	60	6892
2026-01-06 12:55:59.85	31.59	9.68	-41.9	-43.1	22.0	0.00e+00	92	33	101	1048576	60	6933
2026-01-06 12:56:00.86	31.70	9.75	-41.9	-43.0	21.9	0.00e+00	3	33	101	1048576	60	6890
2026-01-06 12:56:01.87	31.81	9.81	-41.9	-43.0	22.0	0.00e+00	2	33	101	1048576	60	6871
2026-01-06 12:56:02.88	31.92	9.88	-41.9	-43.0	22.0	0.00e+00	0	33	101	1048576	60	6871
2026-01-06 12:56:03.89	32.03	9.95	-41.8	-42.9	22.1	0.00e+00	8	33	101	1048576	60	6790
2026-01-06 12:56:04.90	32.14	10.02	-41.8	-42.8	22.1	0.00e+00	92	33	101	1048576	60	6765
2026-01-06 12:56:05.91	32.26	10.09	-41.8	-42.9	22.2	0.00e+00	10	33	101	1048576	60	6792
2026-01-06 12:56:06.92	32.37	10.16	-41.8	-42.8	22.2	0.00e+00	92	33	101	1048576	60	6749
2026-01-06 12:56:07.93	32.48	10.23	-41.6	-42.7	22.3	0.00e+00	3	33	101	1048576	60	6623
2026-01-06 12:56:08.94	32.60	10.29	-41.6	-42.7	22.4	0.00e+00	4	33	101	1048576	60	6649
2026-01-06 12:56:09.95	32.71	10.36	-41.6	-42.7	22.3	0.00e+00	0	33	101	1048576	60	6648
2026-01-06 12:56:10.96	32.82	10.43	-41.6	-42.7	22.4	0.00e+00	2	33	101	1048576	60	6621
2026-01-06 12:56:11.97	32.94	10.50	-41.5	-42.6	22.4	0.00e+00	90	33	101	1048576	60	6540
2026-01-06 12:56:12.98	33.06	10.57	-41.4	-42.5	22.5	0.00e+00	0	33	101	1048576	60	6495
2026-01-06 12:56:13.99	33.17	10.64	-41.5	-42.5	22.5	0.00e+00	92	33	101	1048576	60	6525
2026-01-06 12:56:15.00	33.29	10.71	-41.5	-42.5	22.5	0.00e+00	0	33	101	1048576	60	6522
2026-01-06 12:56:16.01	33.41	10.78	-41.5	-42.5	22.5	0.00e+00	0	33	101	1048576	60	6521
2026-01-06 12:56:17.02	33.52	10.85	-41.4	-42.4	22.6	0.00e+00	3	33	101	1048576	60	6416
2026-01-06 12:56:18.03	33.64	10.92	-41.4	-42.5	22.5	0.00e+00	0	33	101	1048576	60	6474
2026-01-06 12:56:19.04	33.76	10.99	-41.3	-42.3	22.7	0.00e+00	13	33	101	1048576	60	6329
2026-01-06 12:56:20.05	33.88	11.06	-41.3	-42.4	22.6	0.00e+00	9	33	101	1048576	60	6400
2026-01-06 12:56:21.06	34.00	11.13	-41.1	-42.1	22.8	0.00e+00	91	33	101	1048576	60	6236
2026-01-06 12:56:22.07	34.12	11.20	-41.2	-42.2	22.8	0.00e+00	11	33	101	1048576	60	6246
2026-01-06 12:56:23.08	34.24	11.27	-41.1	-42.1	22.9	0.00e+00	85	33	101	1048576	60	6186
2026-01-06 12:56:24.09	34.36	11.34	-41.0	-42.0	22.9	0.00e+00	0	33	101	1048576	60	6147
2026-01-06 12:56:25.10	34.49	11.41	-41.0	-41.9	23.0	0.00e+00	11	33	101	1048576	60	6094
2026-01-06 12:56:26.12	34.61	11.48	-41.1	-42.1	22.9	0.00e+00	0	33	101	1048576	60	6186
2026-01-06 12:56:27.13	34.73	11.55	-41.0	-42.0	22.9	0.00e+00	0	33	101	1048576	60	6115
2026-01-06 12:56:28.14	34.86	11.62	-41.0	-41.9	23.0	0.00e+00	92	33	101	1048576	60	6094
2026-01-06 12:56:29.15	34.98	11.69	-41.0	-42.0	23.0	0.00e+00	12	33	101	1048576	60	6127
2026-01-06 12:56:30.16	35.11	11.76	-41.1	-42.1	23.0	0.00e+00	92	33	101	1048576	60	6175
2026-01-06 12:56:31.17	35.23	11.84	-41.1	-42.0	23.0	0.00e+00	0	33	101	1048576	60	6167
2026-01-06 12:56:32.18	35.36	11.91	-41.1	-42.1	22.9	0.00e+00	70	33	101	1048576	60	6216
2026-01-06 12:56:33.19	35.49	11.98	-41.1	-42.1	22.9	0.00e+00	72	33	101	1048576	60	6240
2026-01-06 12:56:34.20	35.61	12.05	-41.1	-42.1	22.9	0.00e+00	0	33	101	1048576	60	6219
2026-01-06 12:56:35.21	35.74	12.12	-41.0	-42.0	23.0	0.00e+00	92	33	101	1048576	60	6149
2026-01-06 12:56:36.22	35.87	12.19	-41.0	-42.0	23.0	0.00e+00	0	33	101	1048576	60	6130
2026-01-06 12:56:37.23	36.00	12.26	-41.1	-42.1	22.9	0.00e+00	92	33	101	1048576	60	6224
2026-01-06 12:56:38.24	36.13	12.33	-41.0	-42.0	23.1	0.00e+00	0	33	101	1048576	60	6131
2026-01-06 12:56:39.25	36.26	12.41	-41.0	-42.0	23.0	0.00e+00	0	33	101	1048576	60	6148
2026-01-06 12:56:40.25	36.39	12.48	-41.0	-42.0	23.1	0.00e+00	0	33	101	1048576	60	6130
2026-01-06 12:56:41.27	36.52	12.55	-40.9	-41.8	23.1	0.00e+00	0	33	101	1048576	60	6015
2026-01-06 12:56:42.27	36.66	12.62	-40.9	-41.9	23.2	0.00e+00	91	33	101	1048576	60	6047
2026-01-06 12:56:43.29	36.79	12.69	-40.8	-41.8	23.3	0.00e+00	0	33	101	1048576	60	5975
2026-01-06 12:56:44.29	36.92	12.76	-41.0	-41.9	23.0	0.00e+00	90	33	101	1048576	60	6103
2026-01-06 12:56:45.30	37.06	12.84	-41.0	-42.0	23.1	0.00e+00	70	33	101	1048576	60	6126
2026-01-06 12:56:46.31	37.19	12.91	-40.8	-41.8	23.3	0.00e+00	8	33	101	1048576	60	5994
2026-01-06 12:56:47.32	37.33	12.98	-40.9	-41.9	23.1	0.00e+00	9	33	101	1048576	60	6071
2026-01-06 12:56:48.33	37.46	13.05	-40.9	-41.8	23.2	0.00e+00	70	33	101	1048576	60	6006
2026-01-06 12:56:49.34	37.60	13.13	-40.7	-41.7	23.3	0.00e+00	0	33	101	1048576	60	5927
2026-01-06 12:56:50.35	37.74	13.20	-40.8	-41.7	23.3	0.00e+00	0	33	101	1048576	60	5962
2026-01-06 12:56:51.36	37.88	13.27	-40.7	-41.7	23.3	0.00e+00	91	33	101	1048576	60	5921
2026-01-06 12:56:52.38	38.02	13.34	-40.8	-41.7	23.1	0.00e+00	0	33	101	1048576	60	5954
2026-01-06 12:56:53.39	38.15	13.42	-40.8	-41.7	23.3	0.00e+00	92	33	101	1048576	60	5944
2026-01-06 12:56:54.40	38.30	13.49	-40.8	-41.8	22.9	0.00e+00	73	33	101	1048576	60	5987
2026-01-06 12:56:55.41	38.44	13.56	-40.8	-41.8	22.8	0.00e+00	6	33	101	1048576	60	6000
2026-01-06 12:56:56.42	38.58	13.63	-40.8	-41.7	23.2	0.00e+00	0	33	101	1048576	60	5960
2026-01-06 12:56:57.43	38.72	13.71	-40.9	-41.8	23.2	0.00e+00	5	33	101	1048576	60	6027
2026-01-06 12:56:58.44	38.86	13.78	-40.8	-41.7	23.3	0.00e+00	92	33	101	1048576	60	5947
2026-01-06 12:56:59.45	39.01	13.85	-40.7	-41.6	23.5	0.00e+00	6	33	101	1048576	60	5877
2026-01-06 12:57:00.46	39.15	13.93	-40.7	-41.6	23.4	0.00e+00	90	33	101	1048576	60	5864
2026-01-06 12:57:01.47	39.29	14.00	-40.7	-41.6	23.4	0.00e+00	11	33	101	1048576	60	5872
2026-01-06 12:57:02.48	39.44	14.07	-40.7	-41.6	23.4	0.00e+00	7	33	101	1048576	60	5883
2026-01-06 12:57:03.49	39.59	14.15	-40.6	-41.6	23.4	0.00e+00	5	33	101	1048576	60	5855
2026-01-06 12:57:04.50	39.73	14.22	-40.6	-41.6	23.5	0.00e+00	74	33	101	1048576	60	5850
2026-01-06 12:57:05.51	39.88	14.29	-40.6	-41.5	23.5	0.00e+00	92	33	101	1048576	60	5794
2026-01-06 12:57:06.52	40.03	14.37	-40.7	-41.6	23.5	0.00e+00	80	33	101	1048576	60	5867
2026-01-06 12:57:07.53	40.18	14.44	-40.6	-41.5	23.5	0.00e+00	92	33	101	1048576	60	5815
2026-01-06 12:57:08.54	40.33	14.51	-40.5	-41.4	23.6	0.00e+00	4	33	101	1048576	60	5743
2026-01-06 12:57:09.55	40.48	14.59	-40.5	-41.4	23.5	0.00e+00	82	33	101	1048576	60	5756
2026-01-06 12:57:10.56	40.63	14.66	-40.5	-41.4	23.6	0.00e+00	0	33	101	1048576	60	5708
2026-01-06 12:57:11.57	40.78	14.73	-40.5	-41.4	23.6	0.00e+00	0	33	101	1048576	60	5741
2026-01-06 12:57:12.59	40.94	14.81	-40.4	-41.4	23.6	0.00e+00	0	33	101	1048576	60	5699
2026-01-06 12:57:13.60	41.09	14.88	-40.4	-41.3	23.7	0.00e+00	0	33	101	1048576	60	5659
2026-01-06 12:57:14.61	41.24	14.96	-40.4	-41.3	23.7	0.00e+00	92	33	101	1048576	60	5672
2026-01-06 12:57:15.62	41.40	15.03	-40.3	-41.3	23.8	0.00e+00	0	33	101	1048576	60	5633
2026-01-06 12:57:16.63	41.55	15.10	-40.5	-41.4	23.7	0.00e+00	90	33	101	1048576	60	5709
2026-01-06 12:57:17.64	41.71	15.18	-40.4	-41.4	23.7	0.00e+00	0	33	101	1048576	60	5700
2026-01-06 12:57:18.65	41.87	15.25	-40.5	-41.4	23.6	0.00e+00	7	33	101	1048576	60	5748
2026-01-06 12:57:19.66	42.02	15.32	-40.5	-41.4	23.6	0.00e+00	0	33	101	1048576	60	5711
2026-01-06 12:57:20.67	42.18	15.40	-40.5	-41.4	23.6	0.00e+00	11	33	101	1048576	60	5723
2026-01-06 12:57:21.68	42.34	15.47	-40.5	-41.5	23.5	0.00e+00	92	33	101	1048576	60	5777
2026-01-06 12:57:22.69	42.50	15.55	-40.6	-41.6	23.5	0.00e+00	11	33	101	1048576	60	5833
2026-01-06 12:57:23.70	42.66	15.62	-40.6	-41.6	23.5	0.00e+00	70	33	101	1048576	60	5842
2026-01-06 12:57:24.71	42.83	15.69	-40.7	-41.6	23.5	0.00e+00	71	33	101	1048576	60	5864
2026-01-06 12:57:25.72	42.99	15.77	-40.8	-41.7	23.4	0.00e+00	70	33	101	1048576	60	5956
2026-01-06 12:57:26.73	43.15	15.84	-40.7	-41.7	23.4	0.00e+00	12	33	101	1048576	60	5908
2026-01-06 12:57:27.74	43.32	15.92	-40.8	-41.7	23.3	0.00e+00	71	33	101	1048576	60	5929
2026-01-06 12:57:28.75	43.48	15.99	-40.7	-41.6	23.5	0.00e+00	92	33	101	1048576	60	5872
2026-01-06 12:57:29.76	43.65	16.06	-40.6	-41.5	23.6	0.00e+00	0	33	101	1048576	60	5822
2026-01-06 12:57:30.77	43.81	16.14	-40.6	-41.6	23.5	0.00e+00	92	33	101	1048576	60	5843
2026-01-06 12:57:31.78	43.98	16.21	-40.7	-41.6	23.5	0.00e+00	70	33	101	1048576	60	5865
2026-01-06 12:57:32.80	44.15	16.29	-40.6	-41.5	23.4	0.00e+00	0	33	101	1048576	60	5786
2026-01-06 12:57:33.81	44.32	16.36	-40.7	-41.6	23.5	0.00e+00	0	33	101	1048576	60	5865
2026-01-06 12:57:34.82	44.49	16.44	-40.7	-41.6	23.5	0.00e+00	0	33	101	1048576	60	5860
2026-01-06 12:57:35.83	44.66	16.51	-40.7	-41.6	23.5	0.00e+00	90	33	101	1048576	60	5885
2026-01-06 12:57:36.84	44.83	16.58	-40.6	-41.6	23.6	0.00e+00	0	33	101	1048576	60	5840
2026-01-06 12:57:37.85	45.00	16.66	-40.5	-41.5	23.7	0.00e+00	92	33	101	1048576	60	5776
2026-01-06 12:57:38.86	45.17	16.73	-40.5	-41.4	23.7	0.00e+00	0	33	101	1048576	60	5710
2026-01-06 12:57:39.87	45.35	16.80	-40.3	-41.2	23.8	0.00e+00	92	33	101	1048576	60	5590
2026-01-06 12:57:40.88	45.52	16.88	-40.4	-41.4	23.7	0.00e+00	2	33	101	1048576	60	5699
2026-01-06 12:57:41.89	45.70	16.95	-40.3	-41.2	23.9	0.00e+00	6	33	101	1048576	60	5588
2026-01-06 12:57:42.90	45.87	17.03	-40.2	-41.1	23.9	0.00e+00	3	33	101	1048576	60	5520
2026-01-06 12:57:43.91	46.05	17.10	-40.3	-41.2	23.9	0.00e+00	7	33	101	1048576	60	5595
2026-01-06 12:57:44.92	46.23	17.17	-40.3	-41.2	23.7	0.00e+00	90	33	101	1048576	60	5585
2026-01-06 12:57:45.93	46.41	17.25	-40.3	-41.2	23.9	0.00e+00	70	33	101	1048576	60	5623
2026-01-06 12:57:46.94	46.59	17.32	-40.3	-41.2	23.9	0.00e+00	92	33	101	1048576	60	5567
2026-01-06 12:57:47.95	46.77	17.40	-40.2	-41.1	24.0	0.00e+00	70	33	101	1048576	60	5512
2026-01-06 12:57:48.96	46.95	17.47	-40.0	-40.8	24.1	0.00e+00	0	33	101	1048576	58	6032
2026-01-06 12:57:49.97	47.13	17.54	-40.0	-40.9	24.1	0.00e+00	68	33	101	1048576	58	6037
2026-01-06 12:57:50.98	47.31	17.62	-39.8	-40.6	24.3	0.00e+00	0	33	101	1048576	58	5896
2026-01-06 12:57:51.99	47.50	17.69	-39.8	-40.7	24.2	0.00e+00	90	33	101	1048576	58	5924
2026-01-06 12:57:53.00	47.68	17.76	-39.7	-40.6	24.3	0.00e+00	2	33	101	1048576	58	5848
2026-01-06 12:57:54.01	47.87	17.84	-39.7	-40.6	24.3	0.00e+00	92	33	101	1048576	58	5854
2026-01-06 12:57:55.02	48.05	17.91	-39.7	-40.6	24.1	0.00e+00	0	33	101	1048576	58	5852
2026-01-06 12:57:56.03	48.24	17.98	-39.8	-40.7	24.0	0.00e+00	66	33	101	1048576	58	5922
2026-01-06 12:57:57.04	48.43	18.06	-39.8	-40.6	24.3	0.00e+00	1	33	101	1048576	58	5890
2026-01-06 12:57:58.05	48.62	18.13	-39.9	-40.7	24.2	0.00e+00	0	33	101	1048576	58	5939
2026-01-06 12:57:59.06	48.81	18.20	-39.8	-40.7	24.2	0.00e+00	66	33	101	1048576	58	5914
2026-01-06 12:58:00.07	49.00	18.27	-39.8	-40.7	24.3	0.00e+00	13	33	101	1048576	58	5906
2026-01-06 12:58:01.08	49.19	18.35	-39.8	-40.6	24.3	0.00e+00	92	33	101	1048576	58	5890
2026-01-06 12:58:02.09	49.39	18.42	-39.7	-40.5	24.4	0.00e+00	2	33	101	1048576	58	5813
2026-01-06 12:58:03.10	49.58	18.49	-39.6	-40.5	24.4	0.00e+00	0	33	101	1048576	58	5767
2026-01-06 12:58:04.12	49.78	18.57	-39.5	-40.3	24.6	0.00e+00	69	33	101	1048576	58	5690
2026-01-06 12:58:05.13	49.97	18.64	-39.6	-40.4	24.5	0.00e+00	13	33	101	1048576	58	5732
2026-01-06 12:58:06.13	50.17	18.71	-39.6	-40.4	24.4	0.00e+00	0	33	101	1048576	58	5751
2026-01-06 12:58:07.14	50.36	18.78	-39.5	-40.4	24.5	0.00e+00	6	33	101	1048576	58	5698
2026-01-06 12:58:08.15	50.56	18.85	-39.5	-40.4	24.5	0.00e+00	90	33	101	1048576	58	5703
2026-01-06 12:58:09.16	50.76	18.93	-39.5	-40.4	24.6	0.00e+00	75	33	101	1048576	58	5699
2026-01-06 12:58:10.17	50.96	19.00	-39.6	-40.5	24.4	0.00e+00	92	33	101	1048576	58	5778
2026-01-06 12:58:11.18	51.16	19.07	-39.6	-40.5	24.3	0.00e+00	0	33	101	1048576	58	5780
2026-01-06 12:58:12.19	51.36	19.14	-39.6	-40.4	24.4	0.00e+00	0	33	101	1048576	58	5737
2026-01-06 12:58:13.20	51.57	19.21	-39.5	-40.4	24.5	0.00e+00	0	33	101	1048576	58	5710
2026-01-06 12:58:14.21	51.77	19.28	-39.6	-40.5	24.4	0.00e+00	0	33	101	1048576	58	5767
2026-01-06 12:58:15.22	51.97	19.35	-39.8	-40.6	24.4	0.00e+00	92	33	101	1048576	58	5872
2026-01-06 12:58:16.23	52.18	19.43	-39.6	-40.5	24.5	0.00e+00	0	33	101	1048576	58	5783
2026-01-06 12:58:17.24	52.39	19.50	-39.7	-40.6	24.3	0.00e+00	92	33	101	1048576	58	5851
2026-01-06 12:58:18.25	52.59	19.57	-39.7	-40.6	24.3	0.00e+00	0	33	101	1048576	58	5859
2026-01-06 12:58:19.26	52.80	19.64	-39.8	-40.6	24.4	0.00e+00	0	33	101	1048576	58	5875
2026-01-06 12:58:20.27	53.01	19.71	-39.8	-40.6	24.3	0.00e+00	0	33	101	1048576	58	5868
2026-01-06 12:58:21.28	53.22	19.78	-39.7	-40.5	24.3	0.00e+00	2	33	101	1048576	58	5817
2026-01-06 12:58:22.29	53.43	19.85	-39.8	-40.6	24.3	0.00e+00	0	33	101	1048576	58	5875
2026-01-06 12:58:23.30	53.65	19.92	-39.6	-40.5	24.5	0.00e+00	69	33	101	1048576	58	5770
2026-01-06 12:58:24.31	53.86	19.99	-39.7	-40.5	24.4	0.00e+00	92	33	101	1048576	58	5795
2026-01-06 12:58:25.32	54.07	20.06	-39.7	-40.6	24.4	0.00e+00	11	33	101	1048576	58	5855
2026-01-06 12:58:26.33	54.29	20.13	-39.8	-40.7	24.2	0.00e+00	0	33	101	1048576	58	5909
2026-01-06 12:58:27.34	54.50	20.19	-40.0	-40.8	24.2	0.00e+00	0	33	101	1048576	58	6017
2026-01-06 12:58:28.35	54.72	20.26	-40.1	-41.0	24.0	0.00e+00	10	33	101	1048576	58	6148
2026-01-06 12:58:29.36	54.94	20.33	-40.3	-41.1	23.9	0.00e+00	71	33	101	1048576	58	6242
2026-01-06 12:58:30.37	55.16	20.40	-40.4	-41.3	23.8	0.00e+00	70	33	101	1048576	58	6354
2026-01-06 12:58:31.38	55.38	20.47	-40.5	-41.4	23.7	0.00e+00	92	33	101	1048576	58	6396
2026-01-06 12:58:32.39	55.60	20.54	-40.5	-41.4	23.7	0.00e+00	69	33	101	1048576	58	6450
2026-01-06 12:58:33.40	55.82	20.60	-40.6	-41.5	23.6	0.00e+00	92	33	101	1048576	58	6515
2026-01-06 12:58:34.41	56.04	20.67	-40.5	-41.5	23.7	0.00e+00	0	33	101	1048576	58	6467
2026-01-06 12:58:35.42	56.27	20.74	-40.5	-41.4	23.7	0.00e+00	0	33	101	1048576	58	6431
2026-01-06 12:58:36.43	56.49	20.80	-40.5	-41.4	23.7	0.00e+00	0	33	101	1048576	58	6416
2026-01-06 12:58:37.44	56.72	20.87	-40.6	-41.5	23.6	0.00e+00	0	33	101	1048576	58	6497
2026-01-06 12:58:38.45	56.94	20.94	-40.7	-41.6	23.5	0.00e+00	92	33	101	1048576	58	6596
2026-01-06 12:58:39.46	57.17	21.00	-40.9	-41.8	23.3	0.00e+00	6	33	101	1048576	58	6768
2026-01-06 12:58:40.47	57.40	21.07	-40.9	-41.9	23.1	0.00e+00	92	33	101	1048576	58	6835
2026-01-06 12:58:41.48	57.63	21.13	-41.2	-42.2	23.0	0.00e+00	5	33	101	1048576	58	7035
2026-01-06 12:58:42.49	57.86	21.20	-41.4	-42.4	22.8	0.00e+00	7	33	101	1048576	60	6455
2026-01-06 12:58:43.49	58.09	21.26	-41.3	-42.3	22.9	0.00e+00	5	33	101	1048576	60	6384
2026-01-06 12:58:44.50	58.32	21.33	-41.3	-42.3	22.9	0.00e+00	7	33	101	1048576	60	6379
2026-01-06 12:58:45.51	58.55	21.39	-41.4	-42.4	22.9	0.00e+00	19	33	101	1048576	60	6416
2026-01-06 12:58:46.52	58.78	21.46	-41.2	-42.1	23.1	0.00e+00	74	33	101	1048576	60	6235
2026-01-06 12:58:47.52	59.02	21.52	-41.2	-42.2	23.2	0.00e+00	90	33	101	1048576	60	6256
2026-01-06 12:58:48.53	59.25	21.58	-40.9	-41.8	23.4	0.00e+00	12	33	101	1048576	60	6027
2026-01-06 12:58:49.54	59.49	21.65	-40.7	-41.6	23.6	0.00e+00	66	33	101	1048576	60	5855
2026-01-06 12:58:50.55	59.73	21.71	-40.4	-41.3	23.8	0.00e+00	74	33	101	1048576	60	5680
2026-01-06 12:58:51.56	59.97	21.77	-40.5	-41.4	23.7	0.00e+00	75	33	101	1048576	60	5741
2026-01-06 12:58:52.56	60.20	21.83	-40.4	-41.3	23.4	0.00e+00	85	33	101	1048576	60	5665
2026-01-06 12:58:53.57	60.44	21.90	-40.4	-41.3	23.8	0.00e+00	0	33	101	1048576	60	5639
2026-01-06 12:58:54.58	60.69	21.96	-40.6	-41.5	23.7	0.00e+00	90	33	101	1048576	60	5808
2026-01-06 12:58:55.59	60.93	22.02	-40.6	-41.5	23.6	0.00e+00	0	33	101	1048576	60	5794
2026-01-06 12:58:56.59	61.17	22.08	-40.6	-41.5	23.6	0.00e+00	90	33	101	1048576	60	5784
2026-01-06 12:58:57.60	61.41	22.14	-40.5	-41.4	23.7	0.00e+00	0	33	101	1048576	60	5740
2026-01-06 12:58:58.61	61.66	22.20	-40.6	-41.6	23.6	0.00e+00	0	33	101	1048576	60	5844
2026-01-06 12:58:59.62	61.91	22.26	-40.6	-41.6	23.7	0.00e+00	6	33	101	1048576	60	5829
2026-01-06 12:59:00.62	62.15	22.32	-40.6	-41.5	23.6	0.00e+00	5	33	101	1048576	60	5826
2026-01-06 12:59:01.63	62.40	22.37	-40.7	-41.7	23.5	0.00e+00	72	33	101	1048576	60	5899
2026-01-06 12:59:02.64	62.65	22.43	-40.7	-41.6	23.6	0.00e+00	0	33	101	1048576	60	5847
2026-01-06 12:59:03.64	62.89	22.49	-40.6	-41.5	23.6	0.00e+00	92	33	101	1048576	60	5788
2026-01-06 12:59:04.65	63.15	22.55	-40.6	-41.5	23.4	0.00e+00	1	33	101	1048576	60	5775
2026-01-06 12:59:05.65	63.39	22.60	-40.6	-41.5	23.7	0.00e+00	13	33	101	1048576	60	5796
2026-01-06 12:59:06.66	63.65	22.66	-40.7	-41.6	23.5	0.00e+00	6	33	101	1048576	60	5894
2026-01-06 12:59:07.67	63.90	22.72	-41.0	-41.9	23.3	0.00e+00	7	33	101	1048576	60	6082
2026-01-06 12:59:08.68	64.16	22.77	-41.2	-42.2	23.1	0.00e+00	0	33	101	1048576	60	6276
2026-01-06 12:59:09.68	64.41	22.83	-41.4	-42.4	22.9	0.00e+00	8	33	101	1048576	60	6438
2026-01-06 12:59:10.69	64.66	22.88	-41.5	-42.5	22.8	0.00e+00	92	33	101	1048576	60	6503
2026-01-06 12:59:11.70	64.92	22.94	-41.6	-42.6	22.7	0.00e+00	8	33	101	1048576	60	6549
2026-01-06 12:59:12.71	65.18	22.99	-41.6	-42.6	22.7	0.00e+00	92	33	101	1048576	60	6611
2026-01-06 12:59:13.72	65.44	23.04	-41.5	-42.5	22.7	0.00e+00	75	33	101	1048576	60	6531
2026-01-06 12:59:14.73	65.70	23.10	-41.4	-42.4	22.8	0.00e+00	14	33	101	1048576	60	6453
2026-01-06 12:59:15.74	65.96	23.15	-41.2	-42.2	22.2	0.00e+00	11	33	101	1048576	60	6279
2026-01-06 12:59:16.75	66.22	23.20	-41.1	-42.1	23.0	0.00e+00	67	33	101	1048576	60	6199
2026-01-06 12:59:17.76	66.48	23.25	-41.1	-42.1	23.1	0.00e+00	92	33	101	1048576	60	6217
2026-01-06 12:59:18.77	66.74	23.30	-40.9	-41.8	23.4	0.00e+00	67	33	101	1048576	60	6010
2026-01-06 12:59:19.78	67.01	23.35	-40.9	-41.9	23.3	0.00e+00	92	33	101	1048576	60	6039
2026-01-06 12:59:20.79	67.27	23.40	-40.9	-41.8	23.4	0.00e+00	0	33	101	1048576	60	6031
2026-01-06 12:59:21.80	67.54	23.45	-41.1	-42.1	23.2	0.00e+00	0	33	101	1048576	60	6178
2026-01-06 12:59:22.81	67.81	23.50	-41.3	-42.3	23.1	0.00e+00	0	33	101	1048576	60	6331
2026-01-06 12:59:23.82	68.07	23.55	-41.3	-42.3	22.9	0.00e+00	0	33	101	1048576	60	6318
2026-01-06 12:59:24.83	68.34	23.60	-41.4	-42.4	22.8	0.00e+00	92	33	101	1048576	60	6431
2026-01-06 12:59:25.84	68.61	23.64	-41.4	-42.4	22.9	0.00e+00	0	33	101	1048576	60	6435
2026-01-06 12:59:26.85	68.88	23.69	-41.3	-42.2	23.0	0.00e+00	90	33	101	1048576	60	6307
2026-01-06 12:59:27.86	69.15	23.74	-41.2	-42.2	23.0	0.00e+00	13	33	101	1048576	60	6290
2026-01-06 12:59:28.87	69.42	23.78	-41.2	-42.1	23.1	0.00e+00	91	33	101	1048576	60	6234
2026-01-06 12:59:29.89	69.70	23.83	-41.2	-42.2	23.1	0.00e+00	14	33	101	1048576	60	6251
2026-01-06 12:59:30.90	69.97	23.87	-41.2	-42.2	23.0	0.00e+00	2	33	101	1048576	60	6301
2026-01-06 12:59:31.91	70.24	23.92	-41.5	-42.5	22.8	0.00e+00	0	33	101	1048576	60	6493
2026-01-06 12:59:32.92	70.52	23.96	-41.6	-42.7	22.6	0.00e+00	68	33	101	1048576	60	6618
2026-01-06 12:59:33.93	70.79	24.00	-41.7	-42.7	22.6	0.00e+00	92	33	101	1048576	60	6684
2026-01-06 12:59:34.94	71.07	24.04	-41.9	-42.9	22.4	0.00e+00	12	33	101	1048576	60	6821
2026-01-06 12:59:35.95	71.34	24.08	-42.1	-43.1	22.2	0.00e+00	92	33	101	1048576	60	6992
2026-01-06 12:59:36.96	71.62	24.13	-42.2	-43.2	21.8	0.00e+00	76	33	101	1048576	60	7082
2026-01-06 12:59:37.97	71.90	24.17	-42.1	-43.2	22.1	0.00e+00	0	33	101	1048576	60	7052
2026-01-06 12:59:38.98	72.18	24.20	-42.0	-43.0	22.3	0.00e+00	0	33	101	1048576	60	6906
2026-01-06 12:59:39.99	72.46	24.24	-42.0	-43.1	22.4	0.00e+00	73	33	101	1048576	60	6928
2026-01-06 12:59:41.00	72.74	24.28	-41.7	-42.8	22.6	0.00e+00	92	33	101	1048576	60	6701
2026-01-06 12:59:42.01	73.02	24.32	-41.6	-42.6	22.8	0.00e+00	0	33	101	1048576	60	6564
2026-01-06 12:59:43.02	73.30	24.36	-41.5	-42.5	22.8	0.00e+00	92	33	101	1048576	60	6526
2026-01-06 12:59:44.03	73.58	24.39	-41.6	-42.6	22.7	0.00e+00	2	33	101	1048576	60	6610
2026-01-06 12:59:45.04	73.86	24.43	-41.8	-42.8	22.5	0.00e+00	32	33	101	1048576	60	6743
2026-01-06 12:59:46.05	74.14	24.46	-41.7	-42.7	22.5	0.00e+00	0	33	101	1048576	60	6683
2026-01-06 12:59:47.06	74.43	24.50	-41.9	-43.0	22.2	0.00e+00	0	33	101	1048576	60	6908
2026-01-06 12:59:48.07	74.71	24.53	-41.8	-42.9	22.5	0.00e+00	87	33	101	1048576	60	6800
2026-01-06 12:59:49.08	75.00	24.56	-41.6	-42.6	22.7	0.00e+00	0	33	101	1048576	60	6609
2026-01-06 12:59:50.09	75.28	24.59	-41.5	-42.6	22.7	0.00e+00	92	33	101	1048576	60	6547
2026-01-06 12:59:51.10	75.57	24.63	-41.3	-42.3	23.1	0.00e+00	69	33	101	1048576	60	6376
2026-01-06 12:59:52.12	75.86	24.66	-41.1	-42.0	23.2	0.00e+00	65	33	101	1048576	60	6163
2026-01-06 12:59:53.13	76.15	24.69	-40.8	-41.8	23.4	0.00e+00	70	33	101	1048576	60	5987
2026-01-06 12:59:54.14	76.43	24.72	-41.0	-41.9	23.5	0.00e+00	0	33	101	1048576	60	6079
2026-01-06 12:59:55.15	76.72	24.74	-40.7	-41.7	23.5	0.00e+00	0	33	101	1048576	60	5916
2026-01-06 12:59:56.16	77.01	24.77	-40.7	-41.7	23.6	0.00e+00	68	33	101	1048576	60	5916
2026-01-06 12:59:57.17	77.30	24.80	-40.7	-41.6	23.6	0.00e+00	92	33	101	1048576	60	5853
2026-01-06 12:59:58.18	77.59	24.83	-40.8	-41.8	23.4	0.00e+00	67	33	101	1048576	60	5986
2026-01-06 12:59:59.19	77.88	24.85	-40.9	-41.8	23.5	0.00e+00	92	33	101	1048576	60	6018
2026-01-06 13:00:00.20	78.17	24.88	-41.1	-42.1	23.1	0.00e+00	66	33	101	1048576	60	6182
2026-01-06 13:00:01.21	78.46	24.90	-40.9	-41.8	23.5	0.00e+00	0	33	101	1048576	60	6004
2026-01-06 13:00:02.22	78.75	24.92	-40.9	-41.8	23.5	0.00e+00	0	33	101	1048576	60	6016
2026-01-06 13:00:03.23	79.05	24.95	-40.7	-41.6	23.6	0.00e+00	0	33	101	1048576	60	5886
2026-01-06 13:00:04.24	79.34	24.97	-40.4	-41.3	23.8	0.00e+00	88	33	101	1048576	60	5675
2026-01-06 13:00:05.25	79.63	24.99	-40.5	-41.4	23.7	0.00e+00	14	33	101	1048576	60	5752
2026-01-06 13:00:06.26	79.92	25.01	-40.7	-41.6	23.5	0.00e+00	92	33	101	1048576	60	5874
2026-01-06 13:00:07.28	80.22	25.03	-41.0	-41.9	23.3	0.00e+00	2	33	101	1048576	60	6079
2026-01-06 13:00:08.29	80.51	25.05	-41.2	-42.2	22.9	0.00e+00	6	33	101	1048576	60	6279
2026-01-06 13:00:09.30	80.81	25.07	-41.5	-42.5	22.8	0.00e+00	3	33	101	1048576	60	6496
2026-01-06 13:00:10.31	81.10	25.08	-41.7	-42.7	22.6	0.00e+00	0	33	101	1048576	60	6662
2026-01-06 13:00:11.32	81.40	25.10	-41.8	-42.8	22.4	0.00e+00	62	33	101	1048576	60	6731
2026-01-06 13:00:12.33	81.69	25.12	-41.4	-42.4	22.9	0.00e+00	75	33	101	1048576	60	6424
2026-01-06 13:00:13.34	81.99	25.13	-41.3	-42.3	23.1	0.00e+00	92	33	101	1048576	60	6318
2026-01-06 13:00:14.35	82.28	25.15	-40.8	-41.8	23.4	0.00e+00	6	33	101	1048576	60	5986
2026-01-06 13:00:15.36	82.58	25.16	-40.8	-41.8	23.6	0.00e+00	21	33	101	1048576	60	5979
2026-01-06 13:00:16.36	82.87	25.17	-40.6	-41.5	23.7	0.00e+00	3	33	101	1048576	60	5816
2026-01-06 13:00:17.37	83.17	25.18	-40.7	-41.6	23.6	0.00e+00	6	33	101	1048576	60	5895
2026-01-06 13:00:18.38	83.47	25.20	-40.7	-41.6	23.5	0.00e+00	0	33	101	1048576	60	5852
2026-01-06 13:00:19.39	83.76	25.21	-40.7	-41.6	23.5	0.00e+00	0	33	101	1048576	60	5892
2026-01-06 13:00:20.40	84.06	25.22	-40.9	-41.8	23.4	0.00e+00	92	33	101	1048576	60	5992
2026-01-06 13:00:21.41	84.36	25.22	-40.9	-41.9	23.3	0.00e+00	5	33	101	1048576	60	6066
2026-01-06 13:00:22.43	84.66	25.23	-41.0	-42.0	23.3	0.00e+00	92	33	101	1048576	60	6124
2026-01-06 13:00:23.44	84.96	25.24	-40.8	-41.7	23.5	0.00e+00	7	33	101	1048576	60	5958
2026-01-06 13:00:24.45	85.25	25.25	-40.6	-41.6	23.6	0.00e+00	0	33	101	1048576	60	5844
2026-01-06 13:00:25.46	85.55	25.25	-40.5	-41.4	23.8	0.00e+00	6	33	101	1048576	60	5718
2026-01-06 13:00:26.47	85.85	25.26	-40.1	-41.0	24.1	0.00e+00	6	33	101	1048576	60	5484
2026-01-06 13:00:27.48	86.15	25.26	-40.1	-41.0	24.0	0.00e+00	91	33	101	1048576	58	6127
2026-01-06 13:00:28.49	86.45	25.26	-40.1	-41.0	24.1	0.00e+00	5	33	101	1048576	58	6148
2026-01-06 13:00:29.50	86.74	25.26	-40.1	-41.0	24.0	0.00e+00	90	33	101	1048576	58	6136
2026-01-06 13:00:30.51	87.04	25.27	-40.4	-41.3	23.9	0.00e+00	74	33	101	1048576	58	6320
2026-01-06 13:00:31.52	87.34	25.27	-40.6	-41.6	23.5	0.00e+00	75	33	101	1048576	58	6559
2026-01-06 13:00:32.53	87.64	25.27	-40.7	-41.7	23.4	0.00e+00	72	33	101	1048576	58	6633
2026-01-06 13:00:33.54	87.94	25.27	-40.8	-41.7	23.5	0.00e+00	0	33	101	1048576	58	6651
2026-01-06 13:00:34.54	88.23	25.26	-40.8	-41.7	23.4	0.00e+00	19	33	101	1048576	58	6652
2026-01-06 13:00:35.55	88.53	25.26	-40.6	-41.5	22.9	0.00e+00	75	33	101	1048576	58	6526
2026-01-06 13:00:36.56	88.83	25.26	-40.3	-41.2	23.8	0.00e+00	92	33	101	1048576	58	6301
2026-01-06 13:00:37.57	89.13	25.25	-40.0	-40.8	24.1	0.00e+00	0	33	101	1048576	58	6020
2026-01-06 13:00:38.58	89.43	25.25	-39.8	-40.7	24.2	0.00e+00	90	33	101	1048576	58	5919
2026-01-06 13:00:39.59	89.72	25.24	-40.0	-40.8	24.2	0.00e+00	79	33	101	1048576	58	6029
2026-01-06 13:00:40.60	90.02	25.24	-40.3	-41.2	23.9	0.00e+00	0	33	101	1048576	58	6288
2026-01-06 13:00:41.61	90.32	25.23	-40.7	-41.6	23.5	0.00e+00	0	33	101	1048576	58	6608
2026-01-06 13:00:42.62	90.62	25.22	-41.2	-42.2	23.0	0.00e+00	6	33	101	1048576	60	6292
2026-01-06 13:00:43.64	90.92	25.21	-41.5	-42.6	22.7	0.00e+00	91	33	101	1048576	60	6557
2026-01-06 13:00:44.64	91.21	25.20	-41.7	-42.7	22.6	0.00e+00	0	33	101	1048576	60	6648
2026-01-06 13:00:45.66	91.51	25.19	-41.6	-42.6	22.8	0.00e+00	92	33	101	1048576	60	6562
2026-01-06 13:00:46.66	91.80	25.18	-41.3	-42.2	23.0	0.00e+00	13	33	101	1048576	60	6316
2026-01-06 13:00:47.67	92.10	25.17	-41.4	-42.4	22.8	0.00e+00	13	33	101	1048576	60	6431
2026-01-06 13:00:48.68	92.40	25.16	-41.3	-42.3	23.0	0.00e+00	5	33	101	1048576	60	6337
2026-01-06 13:00:49.70	92.70	25.14	-41.4	-42.4	22.8	0.00e+00	6	33	101	1048576	60	6433
2026-01-06 13:00:50.71	92.99	25.13	-41.0	-41.9	23.3	0.00e+00	90	33	101	1048576	60	6083
2026-01-06 13:00:51.72	93.29	25.11	-41.0	-41.9	23.3	0.00e+00	68	33	101	1048576	60	6077
2026-01-06 13:00:52.73	93.58	25.10	-40.7	-41.7	23.5	0.00e+00	92	33	101	1048576	60	5901
2026-01-06 13:00:53.74	93.88	25.08	-40.7	-41.7	23.5	0.00e+00	67	33	101	1048576	60	5910
2026-01-06 13:00:54.75	94.17	25.06	-40.8	-41.8	23.2	0.00e+00	77	33	101	1048576	60	5978
2026-01-06 13:00:55.76	94.47	25.04	-41.1	-42.1	23.1	0.00e+00	0	33	101	1048576	60	6197
2026-01-06 13:00:56.77	94.76	25.02	-41.2	-42.2	23.1	0.00e+00	67	33	101	1048576	60	6263
2026-01-06 13:00:57.78	95.06	25.00	-41.1	-42.1	23.1	0.00e+00	92	33	101	1048576	60	6200
2026-01-06 13:00:58.79	95.35	24.98	-41.1	-42.1	23.2	0.00e+00	67	33	101	1048576	60	6186
2026-01-06 13:00:59.80	95.64	24.96	-40.8	-41.7	23.5	0.00e+00	92	33	101	1048576	60	5949
2026-01-06 13:01:00.81	95.94	24.94	-40.3	-41.2	23.9	0.00e+00	0	33	101	1048576	60	5604
2026-01-06 13:01:01.82	96.23	24.92	-40.2	-41.1	24.0	0.00e+00	92	33	101	1048576	60	5535
2026-01-06 13:01:02.83	96.52	24.89	-40.4	-41.3	23.9	0.00e+00	0	33	101	1048576	60	5653
2026-01-06 13:01:03.84	96.81	24.87	-40.6	-41.6	23.6	0.00e+00	0	33	101	1048576	60	5832
2026-01-06 13:01:04.85	97.10	24.84	-40.8	-41.7	23.4	0.00e+00	52	33	101	1048576	60	5953
2026-01-06 13:01:05.86	97.39	24.82	-40.9	-41.8	23.3	0.00e+00	0	33	101	1048576	60	6000
2026-01-06 13:01:06.87	97.68	24.79	-40.7	-41.6	23.5	0.00e+00	92	33	101	1048576	60	5895
2026-01-06 13:01:07.88	97.97	24.76	-40.2	-41.1	24.0	0.00e+00	0	33	101	1048576	60	5524
2026-01-06 13:01:08.89	98.26	24.74	-40.1	-41.0	24.0	0.00e+00	92	33	101	1048576	58	6120
2026-01-06 13:01:09.90	98.55	24.71	-40.1	-41.0	24.1	0.00e+00	10	33	101	1048576	58	6119
2026-01-06 13:01:10.91	98.84	24.68	-40.0	-40.9	24.2	0.00e+00	74	33	101	1048576	58	6066
2026-01-06 13:01:11.92	99.12	24.65	-40.1	-40.9	24.1	0.00e+00	0	33	101	1048576	58	6088
2026-01-06 13:01:12.94	99.41	24.62	-40.0	-40.8	24.2	0.00e+00	74	33	101	1048576	58	6033
2026-01-06 13:01:13.94	99.70	24.58	-40.1	-40.9	24.1	0.00e+00	91	33	101	1048576	58	6097
2026-01-06 13:01:14.95	99.98	24.55	-40.0	-40.8	24.1	0.00e+00	0	33	101	1048576	58	6011
2026-01-06 13:01:15.96	100.27	24.52	-39.9	-40.8	24.2	0.00e+00	92	33	101	1048576	58	5970
2026-01-06 13:01:16.97	100.55	24.48	-39.9	-40.8	24.1	0.00e+00	69	33	101	1048576	58	5987
2026-01-06 13:01:17.99	100.84	24.45	-39.9	-40.8	24.2	0.00e+00	0	33	101	1048576	58	6000
2026-01-06 13:01:19.00	101.12	24.41	-39.9	-40.8	24.2	0.00e+00	68	33	101	1048576	58	5988
2026-01-06 13:01:20.01	101.41	24.38	-40.1	-41.0	24.1	0.00e+00	0	33	101	1048576	58	6161
2026-01-06 13:01:21.02	101.69	24.34	-39.8	-40.6	24.3	0.00e+00	92	33	101	1048576	58	5879
2026-01-06 13:01:22.03	101.97	24.31	-39.5	-40.3	24.7	0.00e+00	2	33	101	1048576	58	5683
2026-01-06 13:01:23.04	102.25	24.27	-39.3	-40.1	24.8	0.00e+00	92	33	101	1048576	58	5539
2026-01-06 13:01:24.04	102.53	24.23	-39.2	-40.0	24.9	0.00e+00	0	33	101	1048576	58	5471
2026-01-06 13:01:25.05	102.81	24.19	-39.3	-40.2	24.7	0.00e+00	14	33	101	1048576	58	5568
2026-01-06 13:01:26.06	103.09	24.15	-39.3	-40.2	24.7	0.00e+00	0	33	101	1048576	58	5583
2026-01-06 13:01:27.07	103.37	24.11	-39.2	-40.0	24.8	0.00e+00	13	33	101	1048576	58	5495
2026-01-06 13:01:28.08	103.64	24.07	-39.1	-39.9	25.0	0.00e+00	25	33	101	1048576	56	6101
2026-01-06 13:01:29.09	103.92	24.03	-39.1	-39.9	25.0	0.00e+00	0	33	101	1048576	56	6059
2026-01-06 13:01:30.10	104.20	23.99	-38.9	-39.7	25.1	0.00e+00	90	33	101	1048576	56	5933
2026-01-06 13:01:31.11	104.47	23.94	-38.9	-39.7	25.2	0.00e+00	0	33	101	1048576	56	5942
2026-01-06 13:01:32.12	104.75	23.90	-38.9	-39.8	25.1	0.00e+00	92	33	101	1048576	56	5965
2026-01-06 13:01:33.13	105.02	23.86	-39.1	-39.9	25.0	0.00e+00	66	33	101	1048576	56	6061
2026-01-06 13:01:34.14	105.29	23.81	-39.0	-39.9	25.1	0.00e+00	14	33	101	1048576	56	6040
2026-01-06 13:01:35.15	105.56	23.77	-39.0	-39.9	25.1	0.00e+00	10	33	101	1048576	56	6042
2026-01-06 13:01:36.16	105.84	23.72	-38.7	-39.5	25.3	0.00e+00	68	33	101	1048576	56	5816
2026-01-06 13:01:37.17	106.11	23.67	-38.6	-39.4	25.4	0.00e+00	92	33	101	1048576	56	5719
2026-01-06 13:01:38.18	106.38	23.63	-38.7	-39.5	25.4	0.00e+00	0	33	101	1048576	56	5772
2026-01-06 13:01:39.19	106.65	23.58	-38.7	-39.5	25.4	0.00e+00	92	33	101	1048576	56	5781
2026-01-06 13:01:40.20	106.91	23.53	-39.0	-39.8	25.0	0.00e+00	0	33	101	1048576	56	5983
2026-01-06 13:01:41.21	107.18	23.48	-39.2	-40.0	24.9	0.00e+00	0	33	101	1048576	56	6140
2026-01-06 13:01:42.22	107.45	23.43	-39.4	-40.2	24.7	0.00e+00	0	33	101	1048576	56	6308
2026-01-06 13:01:43.23	107.72	23.38	-39.4	-40.2	24.8	0.00e+00	0	33	101	1048576	56	6307
2026-01-06 13:01:44.24	107.98	23.33	-39.3	-40.1	24.8	0.00e+00	75	33	101	1048576	56	6223
2026-01-06 13:01:45.25	108.24	23.28	-39.1	-39.9	24.9	0.00e+00	12	33	101	1048576	56	6089
2026-01-06 13:01:46.26	108.51	23.23	-39.0	-39.8	25.0	0.00e+00	90	33	101	1048576	56	5968
2026-01-06 13:01:47.27	108.77	23.18	-38.8	-39.6	25.2	0.00e+00	0	33	101	1048576	56	5864
2026-01-06 13:01:48.28	109.03	23.13	-38.9	-39.7	25.2	0.00e+00	92	33	101	1048576	56	5905
2026-01-06 13:01:49.29	109.29	23.07	-38.9	-39.7	25.1	0.00e+00	2	33	101	1048576	56	5916
2026-01-06 13:01:50.30	109.55	23.02	-39.1	-39.9	25.0	0.00e+00	12	33	101	1048576	56	6060
2026-01-06 13:01:51.31	109.81	22.97	-39.2	-40.1	24.8	0.00e+00	91	33	101	1048576	56	6180
2026-01-06 13:01:52.32	110.07	22.91	-39.3	-40.1	24.9	0.00e+00	68	33	101	1048576	56	6205
2026-01-06 13:01:53.33	110.33	22.86	-39.5	-40.3	24.5	0.00e+00	92	33	101	1048576	56	6380
2026-01-06 13:01:54.34	110.59	22.80	-39.6	-40.5	24.5	0.00e+00	0	33	101	1048576	56	6474
2026-01-06 13:01:55.35	110.84	22.75	-39.9	-40.8	24.2	0.00e+00	0	33	101	1048576	56	6732
2026-01-06 13:01:56.36	111.10	22.69	-40.2	-41.0	23.8	0.00e+00	0	33	101	1048576	58	6171
2026-01-06 13:01:57.37	111.35	22.63	-40.4	-41.3	23.5	0.00e+00	0	33	101	1048576	58	6376
2026-01-06 13:01:58.38	111.60	22.58	-40.5	-41.4	23.7	0.00e+00	81	33	101	1048576	58	6408
2026-01-06 13:01:59.39	111.85	22.52	-40.4	-41.3	23.6	0.00e+00	0	33	101	1048576	58	6358
2026-01-06 13:02:00.40	112.11	22.46	-40.3	-41.2	23.9	0.00e+00	92	33	101	1048576	58	6281
2026-01-06 13:02:01.41	112.36	22.40	-40.3	-41.2	23.8	0.00e+00	0	33	101	1048576	58	6272
2026-01-06 13:02:02.42	112.61	22.35	-40.3	-41.2	23.8	0.00e+00	90	33	101	1048576	58	6282
2026-01-06 13:02:03.44	112.86	22.29	-40.4	-41.4	23.7	0.00e+00	6	33	101	1048576	58	6397
2026-01-06 13:02:04.45	113.10	22.23	-40.2	-41.1	23.9	0.00e+00	5	33	101	1048576	58	6228
2026-01-06 13:02:05.46	113.35	22.17	-40.0	-40.9	24.1	0.00e+00	0	33	101	1048576	58	6089
2026-01-06 13:02:06.47	113.60	22.11	-40.0	-40.8	24.1	0.00e+00	6	33	101	1048576	58	6030
2026-01-06 13:02:07.48	113.84	22.05	-40.0	-40.9	24.1	0.00e+00	88	33	101	1048576	58	6087
2026-01-06 13:02:08.49	114.09	21.98	-40.0	-40.9	24.1	0.00e+00	7	33	101	1048576	58	6057
2026-01-06 13:02:09.50	114.33	21.92	-39.7	-40.6	24.3	0.00e+00	92	33	101	1048576	58	5831
2026-01-06 13:02:10.51	114.57	21.86	-39.8	-40.7	24.3	0.00e+00	78	33	101	1048576	58	5920
2026-01-06 13:02:11.52	114.81	21.80	-39.9	-40.7	24.2	0.00e+00	5	33	101	1048576	58	5947
2026-01-06 13:02:12.53	115.05	21.74	-40.0	-40.8	24.2	0.00e+00	78	33	101	1048576	58	6020
2026-01-06 13:02:13.54	115.29	21.67	-40.1	-41.0	24.0	0.00e+00	76	33	101	1048576	58	6133
2026-01-06 13:02:14.55	115.53	21.61	-40.2	-41.1	23.9	0.00e+00	0	33	101	1048576	58	6193
2026-01-06 13:02:15.56	115.77	21.55	-40.2	-41.1	23.9	0.00e+00	73	33	101	1048576	58	6187
2026-01-06 13:02:16.56	116.00	21.48	-40.2	-41.1	23.9	0.00e+00	92	33	101	1048576	58	6232
2026-01-06 13:02:17.57	116.23	21.42	-40.4	-41.3	23.8	0.00e+00	0	33	101	1048576	58	6329
2026-01-06 13:02:18.57	116.47	21.36	-40.3	-41.2	23.8	0.00e+00	0	33	101	1048576	58	6297
2026-01-06 13:02:19.58	116.70	21.29	-40.4	-41.3	23.8	0.00e+00	76	33	101	1048576	58	6335
2026-01-06 13:02:20.58	116.93	21.23	-40.5	-41.4	23.7	0.00e+00	0	33	101	1048576	58	6409
2026-01-06 13:02:21.58	117.16	21.16	-40.1	-41.0	23.9	0.00e+00	74	33	101	1048576	58	6117
2026-01-06 13:02:22.59	117.39	21.10	-40.0	-40.9	24.1	0.00e+00	75	33	101	1048576	58	6040
2026-01-06 13:02:23.59	117.62	21.03	-39.8	-40.7	24.2	0.00e+00	92	33	101	1048576	58	5907
2026-01-06 13:02:24.60	117.85	20.96	-39.9	-40.8	24.1	0.00e+00	76	33	101	1048576	58	5980
2026-01-06 13:02:25.60	118.07	20.90	-40.0	-40.9	24.1	0.00e+00	92	33	101	1048576	58	6044
2026-01-06 13:02:26.61	118.30	20.83	-40.1	-41.0	24.1	0.00e+00	7	33	101	1048576	58	6115
2026-01-06 13:02:27.61	118.52	20.76	-40.0	-40.9	24.0	0.00e+00	7	33	101	1048576	58	6083
2026-01-06 13:02:28.62	118.75	20.70	-40.0	-40.9	24.0	0.00e+00	5	33	101	1048576	58	6075
2026-01-06 13:02:29.63	118.97	20.63	-40.1	-41.0	24.0	0.00e+00	6	33	101	1048576	58	6108
2026-01-06 13:02:30.63	119.19	20.56	-40.0	-40.9	24.1	0.00e+00	86	33	101	1048576	58	6088
2026-01-06 13:02:31.64	119.41	20.49	-40.0	-40.9	24.0	0.00e+00	0	33	101	1048576	58	6078
2026-01-06 13:02:32.64	119.63	20.43	-40.0	-40.8	24.1	0.00e+00	92	33	101	1048576	58	6023
2026-01-06 13:02:33.65	119.85	20.36	-40.2	-41.0	23.8	0.00e+00	8	33	101	1048576	58	6164
2026-01-06 13:02:34.65	120.07	20.29	-40.3	-41.1	23.8	0.00e+00	14	33	101	1048576	58	6244
2026-01-06 13:02:35.66	120.29	20.22	-40.3	-41.2	23.8	0.00e+00	6	33	101	1048576	58	6290
2026-01-06 13:02:36.66	120.50	20.15	-40.2	-41.2	23.8	0.00e+00	6	33	101	1048576	58	6247
2026-01-06 13:02:37.67	120.72	20.08	-40.4	-41.3	23.6	0.00e+00	6	33	101	1048576	58	6352
2026-01-06 13:02:38.67	120.93	20.01	-40.2	-41.1	23.8	0.00e+00	6	33	101	1048576	58	6232
2026-01-06 13:02:39.68	121.15	19.94	-40.4	-41.4	23.6	0.00e+00	90	33	101	1048576	58	6392
2026-01-06 13:02:40.69	121.36	19.87	-40.7	-41.7	23.3	0.00e+00	7	33	101	1048576	58	6617
2026-01-06 13:02:41.70	121.57	19.80	-41.2	-42.2	22.8	0.00e+00	91	33	101	1048576	58	7080
2026-01-06 13:02:42.70	121.78	19.73	-41.7	-42.9	22.4	0.00e+00	74	33	101	1048576	60	6773
2026-01-06 13:02:43.71	121.99	19.66	-41.9	-43.0	22.2	0.00e+00	75	33	101	1048576	60	6910
2026-01-06 13:02:44.71	122.20	19.59	-41.9	-43.1	22.2	0.00e+00	9	33	101	1048576	60	6950
2026-01-06 13:02:45.72	122.41	19.52	-41.2	-42.3	22.9	0.00e+00	13	33	101	1048576	60	6349
2026-01-06 13:02:46.72	122.62	19.45	-41.0	-42.0	23.2	0.00e+00	91	33	101	1048576	60	6132
2026-01-06 13:02:47.73	122.82	19.38	-40.9	-41.9	23.2	0.00e+00	12	33	101	1048576	60	6058
2026-01-06 13:02:48.74	123.03	19.31	-40.7	-41.6	23.4	0.00e+00	92	33	101	1048576	60	5891
2026-01-06 13:02:49.74	123.23	19.24	-40.8	-41.7	23.3	0.00e+00	12	33	101	1048576	60	5940
2026-01-06 13:02:50.74	123.43	19.17	-41.0	-42.0	23.1	0.00e+00	92	33	101	1048576	60	6149
2026-01-06 13:02:51.75	123.64	19.10	-41.5	-42.5	22.6	0.00e+00	0	33	101	1048576	60	6502
2026-01-06 13:02:52.75	123.84	19.02	-41.5	-42.5	22.6	0.00e+00	0	33	101	1048576	60	6494
2026-01-06 13:02:53.76	124.04	18.95	-41.5	-42.5	22.7	0.00e+00	81	33	101	1048576	60	6494
2026-01-06 13:02:54.76	124.24	18.88	-41.3	-42.3	22.9	0.00e+00	69	33	101	1048576	60	6347
2026-01-06 13:02:55.77	124.44	18.81	-40.9	-41.9	23.2	0.00e+00	92	33	101	1048576	60	6063
2026-01-06 13:02:56.78	124.64	18.74	-40.9	-41.8	23.2	0.00e+00	0	33	101	1048576	60	6026
2026-01-06 13:02:57.78	124.83	18.66	-40.6	-41.5	23.6	0.00e+00	91	33	101	1048576	60	5828
2026-01-06 13:02:58.79	125.03	18.59	-40.7	-41.6	23.5	0.00e+00	2	33	101	1048576	60	5888
2026-01-06 13:02:59.79	125.22	18.52	-41.0	-42.0	23.1	0.00e+00	70	33	101	1048576	60	6153
2026-01-06 13:03:00.80	125.42	18.45	-41.3	-42.3	22.9	0.00e+00	0	33	101	1048576	60	6356
2026-01-06 13:03:01.81	125.61	18.37	-41.4	-42.4	22.7	0.00e+00	0	33	101	1048576	60	6433
2026-01-06 13:03:02.81	125.80	18.30	-41.4	-42.4	22.8	0.00e+00	90	33	101	1048576	60	6450
2026-01-06 13:03:03.82	125.99	18.23	-41.1	-42.0	23.1	0.00e+00	0	33	101	1048576	60	6164
2026-01-06 13:03:04.82	126.18	18.15	-41.0	-42.0	23.0	0.00e+00	92	33	101	1048576	60	6153
2026-01-06 13:03:05.83	126.37	18.08	-41.0	-42.0	23.1	0.00e+00	0	33	101	1048576	60	6151
2026-01-06 13:03:06.84	126.56	18.01	-41.0	-41.9	23.1	0.00e+00	93	33	101	1048576	60	6100
2026-01-06 13:03:07.85	126.75	17.93	-41.1	-42.1	23.0	0.00e+00	0	33	101	1048576	60	6203
2026-01-06 13:03:08.86	126.94	17.86	-41.5	-42.5	22.5	0.00e+00	6	33	101	1048576	60	6533
2026-01-06 13:03:09.87	127.13	17.79	-41.7	-42.8	22.3	0.00e+00	0	33	101	1048576	60	6746
2026-01-06 13:03:10.88	127.31	17.71	-41.8	-42.9	22.2	0.00e+00	5	33	101	1048576	60	6815
2026-01-06 13:03:11.89	127.50	17.64	-41.7	-42.7	22.4	0.00e+00	90	33	101	1048576	60	6669
2026-01-06 13:03:12.90	127.68	17.56	-41.3	-42.3	22.8	0.00e+00	0	33	101	1048576	60	6358
2026-01-06 13:03:13.91	127.87	17.49	-40.8	-41.7	23.3	0.00e+00	92	33	101	1048576	60	5964
2026-01-06 13:03:14.92	128.05	17.42	-40.8	-41.7	23.4	0.00e+00	0	33	101	1048576	60	5962
2026-01-06 13:03:15.93	128.23	17.34	-40.4	-41.3	23.7	0.00e+00	10	33	101	1048576	60	5672
2026-01-06 13:03:16.94	128.41	17.27	-40.6	-41.6	23.5	0.00e+00	0	33	101	1048576	60	5832
2026-01-06 13:03:17.95	128.59	17.19	-41.1	-42.1	23.0	0.00e+00	11	33	101	1048576	60	6192
2026-01-06 13:03:18.96	128.77	17.12	-41.7	-42.7	22.4	0.00e+00	92	33	101	1048576	60	6681
2026-01-06 13:03:19.97	128.95	17.04	-42.1	-43.2	21.9	0.00e+00	71	33	101	1048576	60	7069
2026-01-06 13:03:20.98	129.13	16.97	-42.3	-43.5	21.7	0.00e+00	92	33	101	1048576	60	7274
2026-01-06 13:03:21.99	129.30	16.90	-42.3	-43.5	21.7	0.00e+00	72	33	101	1048576	60	7255
2026-01-06 13:03:23.00	129.48	16.82	-41.8	-42.9	22.3	0.00e+00	0	33	101	1048576	60	6777
2026-01-06 13:03:24.01	129.65	16.75	-41.5	-42.6	22.6	0.00e+00	0	33	101	1048576	60	6558
2026-01-06 13:03:25.02	129.83	16.67	-41.1	-42.2	22.9	0.00e+00	0	33	101	1048576	60	6267
2026-01-06 13:03:26.03	130.00	16.60	-41.0	-42.0	22.9	0.00e+00	80	33	101	1048576	60	6152
2026-01-06 13:03:27.04	130.17	16.52	-40.9	-41.9	23.1	0.00e+00	2	33	101	1048576	60	6059
2026-01-06 13:03:28.05	130.34	16.45	-40.8	-41.8	23.3	0.00e+00	91	33	101	1048576	60	5987
2026-01-06 13:03:29.06	130.51	16.37	-40.9	-41.9	23.2	0.00e+00	10	33	101	1048576	60	6051
2026-01-06 13:03:30.07	130.68	16.30	-41.0	-42.0	23.1	0.00e+00	92	33	101	1048576	60	6126
2026-01-06 13:03:31.08	130.85	16.23	-41.1	-42.2	22.9	0.00e+00	0	33	101	1048576	60	6251
2026-01-06 13:03:32.09	131.02	16.15	-41.0	-42.1	23.0	0.00e+00	8	33	101	1048576	60	6174
2026-01-06 13:03:33.10	131.19	16.08	-41.0	-42.0	23.1	0.00e+00	0	33	101	1048576	60	6129
2026-01-06 13:03:34.11	131.36	16.00	-41.1	-42.1	23.0	0.00e+00	69	33	101	1048576	60	6185
2026-01-06 13:03:35.12	131.52	15.93	-40.7	-41.7	23.4	0.00e+00	91	33	101	1048576	60	5907
2026-01-06 13:03:36.13	131.69	15.85	-40.6	-41.6	23.4	0.00e+00	76	33	101	1048576	60	5839
2026-01-06 13:03:37.14	131.85	15.78	-40.7	-41.6	23.3	0.00e+00	92	33	101	1048576	60	5882
2026-01-06 13:03:38.15	132.01	15.70	-40.8	-41.8	23.3	0.00e+00	0	33	101	1048576	60	5971
2026-01-06 13:03:39.16	132.18	15.63	-41.0	-42.0	23.1	0.00e+00	2	33	101	1048576	60	6105
2026-01-06 13:03:40.18	132.34	15.55	-41.2	-42.2	22.8	0.00e+00	0	33	101	1048576	60	6299
2026-01-06 13:03:41.19	132.50	15.48	-41.3	-42.4	22.4	0.00e+00	78	33	101	1048576	60	6407
2026-01-06 13:03:42.20	132.66	15.41	-41.3	-42.4	22.7	0.00e+00	92	33	101	1048576	60	6403
2026-01-06 13:03:43.21	132.82	15.33	-41.4	-42.4	22.6	0.00e+00	0	33	101	1048576	60	6449
2026-01-06 13:03:44.22	132.98	15.26	-41.3	-42.3	22.8	0.00e+00	92	33	101	1048576	60	6335
2026-01-06 13:03:45.23	133.14	15.18	-41.2	-42.2	22.7	0.00e+00	0	33	101	1048576	60	6253
2026-01-06 13:03:46.24	133.29	15.11	-41.0	-42.0	22.6	0.00e+00	67	33	101	1048576	60	6134
2026-01-06 13:03:47.25	133.45	15.03	-41.0	-42.0	22.6	0.00e+00	0	33	101	1048576	60	6132
2026-01-06 13:03:48.26	133.61	14.96	-40.9	-41.8	23.2	0.00e+00	0	33	101	1048576	60	6030
2026-01-06 13:03:49.27	133.76	14.88	-40.9	-41.9	23.1	0.00e+00	92	33	101	1048576	60	6063
2026-01-06 13:03:50.28	133.92	14.81	-41.0	-42.0	23.0	0.00e+00	9	33	101	1048576	60	6168
2026-01-06 13:03:51.29	134.07	14.74	-41.0	-42.0	23.0	0.00e+00	92	33	101	1048576	60	6148
2026-01-06 13:03:52.30	134.22	14.66	-41.1	-42.0	22.9	0.00e+00	9	33	101	1048576	60	6172
2026-01-06 13:03:53.31	134.37	14.59	-41.1	-42.1	22.9	0.00e+00	87	33	101	1048576	60	6205
2026-01-06 13:03:54.32	134.53	14.51	-41.2	-42.2	22.9	0.00e+00	0	33	101	1048576	60	6259
2026-01-06 13:03:55.33	134.68	14.44	-41.2	-42.2	22.8	0.00e+00	2	33	101	1048576	60	6288
2026-01-06 13:03:56.34	134.83	14.37	-41.0	-42.0	23.0	0.00e+00	0	33	101	1048576	60	6167
2026-01-06 13:03:57.35	134.98	14.29	-40.8	-41.8	23.2	0.00e+00	9	33	101	1048576	60	6026
2026-01-06 13:03:58.36	135.12	14.22	-40.8	-41.8	23.3	0.00e+00	92	33	101	1048576	60	5975
2026-01-06 13:03:59.37	135.27	14.14	-40.7	-41.7	23.3	0.00e+00	73	33	101	1048576	60	5924
2026-01-06 13:04:00.38	135.42	14.07	-40.6	-41.6	23.4	0.00e+00	92	33	101	1048576	60	5830
2026-01-06 13:04:01.39	135.56	14.00	-40.7	-41.6	23.4	0.00e+00	73	33	101	1048576	60	5877
2026-01-06 13:04:02.40	135.71	13.92	-40.6	-41.6	23.4	0.00e+00	0	33	101	1048576	60	5833
2026-01-06 13:04:03.41	135.86	13.85	-40.7	-41.6	23.3	0.00e+00	0	33	101	1048576	60	5891
2026-01-06 13:04:04.42	136.00	13.78	-40.7	-41.6	23.3	0.00e+00	6	33	101	1048576	60	5870
2026-01-06 13:04:05.43	136.14	13.70	-40.7	-41.7	23.3	0.00e+00	92	33	101	1048576	60	5930
2026-01-06 13:04:06.44	136.29	13.63	-40.8	-41.7	23.3	0.00e+00	0	33	101	1048576	60	5951
2026-01-06 13:04:07.45	136.43	13.55	-40.9	-41.9	23.1	0.00e+00	91	33	101	1048576	60	6053
2026-01-06 13:04:08.46	136.57	13.48	-41.1	-42.1	22.9	0.00e+00	6	33	101	1048576	60	6220
2026-01-06 13:04:09.47	136.71	13.41	-41.0	-42.0	23.0	0.00e+00	2	33	101	1048576	60	6121
2026-01-06 13:04:10.48	136.85	13.33	-41.1	-42.1	22.8	0.00e+00	0	33	101	1048576	60	6215
2026-01-06 13:04:11.49	136.99	13.26	-41.0	-42.0	22.9	0.00e+00	5	33	101	1048576	60	6146
2026-01-06 13:04:12.50	137.13	13.19	-41.1	-42.1	22.9	0.00e+00	37	33	101	1048576	60	6239
2026-01-06 13:04:13.52	137.27	13.11	-41.3	-42.3	22.8	0.00e+00	81	33	101	1048576	60	6384
2026-01-06 13:04:14.52	137.40	13.04	-41.2	-42.2	22.7	0.00e+00	92	33	101	1048576	60	6274
2026-01-06 13:04:15.53	137.54	12.97	-41.3	-42.3	22.7	0.00e+00	8	33	101	1048576	60	6384
2026-01-06 13:04:16.54	137.68	12.90	-41.3	-42.3	22.7	0.00e+00	90	33	101	1048576	60	6339
2026-01-06 13:04:17.55	137.81	12.82	-41.3	-42.4	22.6	0.00e+00	0	33	101	1048576	60	6412
2026-01-06 13:04:18.56	137.95	12.75	-41.3	-42.4	22.6	0.00e+00	77	33	101	1048576	60	6403
2026-01-06 13:04:19.58	138.08	12.68	-41.3	-42.4	22.6	0.00e+00	0	33	101	1048576	60	6415
2026-01-06 13:04:20.59	138.22	12.61	-41.4	-42.4	22.6	0.00e+00	78	33	101	1048576	60	6415
2026-01-06 13:04:21.60	138.35	12.53	-41.4	-42.4	22.6	0.00e+00	92	33	101	1048576	60	6426
2026-01-06 13:04:22.61	138.48	12.46	-41.4	-42.5	22.5	0.00e+00	0	33	101	1048576	60	6474
2026-01-06 13:04:23.62	138.61	12.39	-41.4	-42.5	22.5	0.00e+00	90	33	101	1048576	60	6468
2026-01-06 13:04:24.63	138.74	12.32	-41.4	-42.4	22.6	0.00e+00	0	33	101	1048576	60	6430
2026-01-06 13:04:25.64	138.88	12.24	-41.5	-42.5	22.4	0.00e+00	0	33	101	1048576	60	6519
2026-01-06 13:04:26.65	139.01	12.17	-41.6	-42.6	22.3	0.00e+00	6	33	101	1048576	60	6602
2026-01-06 13:04:27.66	139.13	12.10	-41.7	-42.8	22.0	0.00e+00	8	33	101	1048576	60	6736
2026-01-06 13:04:28.67	139.26	12.03	-42.0	-43.1	21.7	0.00e+00	90	33	101	1048576	60	6984
2026-01-06 13:04:29.68	139.39	11.96	-42.1	-43.2	21.5	0.00e+00	9	33	101	1048576	60	7085
2026-01-06 13:04:30.69	139.52	11.89	-42.3	-43.5	21.3	0.00e+00	92	33	101	1048576	60	7267
2026-01-06 13:04:31.70	139.65	11.81	-42.5	-43.7	21.0	0.00e+00	8	33	101	1048576	60	7487
2026-01-06 13:04:32.71	139.77	11.74	-42.7	-44.1	20.6	0.00e+00	71	33	101	1048576	60	7780
2026-01-06 13:04:33.72	139.90	11.67	-43.0	-44.3	20.3	0.00e+00	9	33	101	1048576	60	8026
2026-01-06 13:04:34.73	140.02	11.60	-43.3	-44.7	19.8	0.00e+00	73	33	101	1048576	60	8416
2026-01-06 13:04:35.75	140.15	11.53	-43.5	-45.1	19.3	0.00e+00	37	33	101	1048576	60	8759
2026-01-06 13:04:36.76	140.27	11.46	-43.9	-45.6	18.8	0.00e+00	0	33	101	1048576	60	9239
2026-01-06 13:04:37.77	140.40	11.38	-44.2	-46.0	18.3	0.00e+00	90	33	101	1048576	60	9756
2026-01-06 13:04:38.78	140.52	11.31	-44.4	-46.3	17.9	0.00e+00	0	33	101	1048576	60	10048
2026-01-06 13:04:39.79	140.64	11.24	-44.6	-46.7	17.5	0.00e+00	49	33	101	1048576	60	10497
2026-01-06 13:04:40.80	140.76	11.17	-44.7	-46.8	17.2	0.00e+00	0	33	101	1048576	60	10631
2026-01-06 13:04:41.81	140.88	11.10	-44.8	-46.9	17.1	0.00e+00	0	33	101	1048576	60	10802
2026-01-06 13:04:42.81	141.00	11.03	-44.9	-47.0	17.0	0.00e+00	91	33	101	1048576	60	10933
2026-01-06 13:04:43.83	141.12	10.96	-44.7	-46.8	17.2	0.00e+00	0	33	101	1048576	60	10695
2026-01-06 13:04:44.84	141.24	10.89	-44.8	-46.9	17.1	0.00e+00	92	33	101	1048576	60	10838
2026-01-06 13:04:45.85	141.36	10.82	-44.7	-46.7	17.4	0.00e+00	0	33	101	1048576	60	10564
2026-01-06 13:04:46.86	141.48	10.75	-44.6	-46.5	17.7	0.00e+00	92	33	101	1048576	60	10312
2026-01-06 13:04:47.87	141.60	10.68	-44.5	-46.4	17.8	0.00e+00	7	33	101	1048576	60	10153
2026-01-06 13:04:48.88	141.71	10.61	-44.4	-46.2	18.1	0.00e+00	0	33	101	1048576	60	9972
2026-01-06 13:04:49.89	141.83	10.54	-44.3	-46.0	18.3	0.00e+00	0	33	101	1048576	60	9777
2026-01-06 13:04:50.90	141.95	10.47	-44.1	-45.8	18.5	0.00e+00	4	33	101	1048576	60	9512
2026-01-06 13:04:51.91	142.06	10.40	-44.1	-45.8	18.7	0.00e+00	92	33	101	1048576	60	9460
2026-01-06 13:04:52.92	142.18	10.33	-44.0	-45.7	18.7	0.00e+00	7	33	101	1048576	60	9399
2026-01-06 13:04:53.93	142.29	10.26	-43.9	-45.6	18.9	0.00e+00	92	33	101	1048576	60	9264
2026-01-06 13:04:54.94	142.41	10.19	-43.9	-45.4	19.1	0.00e+00	73	33	101	1048576	60	9126
