passes_logs/2026/01/06/R4.6S_Anadyr_2ch/R4.6S_Anadyr_2ch__20260106_224231_TY-42_rec.log

#Pass ID: 20260106_224231_TY-42
#Satellite: TY-42
#Configuration: TY-42_900M
#almurnet v.1.7.20251203
#Start time: 2026-01-06 22:43:03

#Version: 2.2.20231116
#Station: R4.6S_Anadyr_2ch
#Location: 177.4865 lon 64.73178 lat
#TLE: 1 64048U 25103A   25351.20653935  .00008008  00000-0  38191-3 0 09993
#TLE: 2 64048 097.4116 062.1676 0001744 093.8066 035.1511 15.19160500 32445

#Time	Az	El	Level	Level2	SNR	BER	BlckErr	Temp	State	Recorded	gain1	gain2
2026-01-06 22:43:03.87	20.80	2.08	-41.3	-40.4	5.7	0.00e+00	0	29	0	0	60	17571
2026-01-06 22:43:04.87	20.85	2.15	-51.6	-54.0	6.1	0.00e+00	0	31	104	0	60	84227
2026-01-06 22:43:05.88	20.90	2.22	-51.6	-54.1	6.1	0.00e+00	0	31	104	0	60	84484
2026-01-06 22:43:06.89	20.96	2.29	-51.6	-54.1	6.1	0.00e+00	0	31	104	0	60	84613
2026-01-06 22:43:07.90	21.01	2.35	-51.6	-54.1	6.1	0.00e+00	0	31	104	0	60	84444
2026-01-06 22:43:08.91	21.06	2.42	-51.6	-54.0	6.1	0.00e+00	0	31	104	0	60	84199
2026-01-06 22:43:09.92	21.11	2.49	-51.6	-54.1	6.1	0.00e+00	0	31	104	0	60	84600
2026-01-06 22:43:10.93	21.17	2.56	-51.6	-54.1	6.1	0.00e+00	0	31	104	0	60	84544
2026-01-06 22:43:11.93	21.22	2.63	-51.6	-54.0	6.1	0.00e+00	0	31	104	0	60	84011
2026-01-06 22:43:12.94	21.27	2.70	-51.6	-54.0	6.1	0.00e+00	0	31	104	0	60	84067
2026-01-06 22:43:13.95	21.33	2.77	-51.6	-54.1	6.1	0.00e+00	0	31	104	0	60	84420
2026-01-06 22:43:14.96	21.38	2.84	-51.6	-54.1	6.1	0.00e+00	0	31	104	0	60	84293
2026-01-06 22:43:15.97	21.44	2.91	-51.6	-54.1	6.1	0.00e+00	0	31	104	0	60	84334
2026-01-06 22:43:16.98	21.49	2.98	-51.6	-54.0	6.1	0.00e+00	0	31	104	0	60	83879
2026-01-06 22:43:17.99	21.55	3.05	-51.6	-54.0	6.1	0.00e+00	0	31	104	0	60	83867
2026-01-06 22:43:18.99	21.60	3.12	-51.6	-54.0	6.1	0.00e+00	0	32	104	0	60	83813
2026-01-06 22:43:20.00	21.66	3.19	-51.6	-54.1	6.1	0.00e+00	0	32	104	0	60	84403
2026-01-06 22:43:21.01	21.72	3.26	-51.6	-54.0	6.1	0.00e+00	0	32	104	0	60	83948
2026-01-06 22:43:22.02	21.77	3.33	-51.6	-54.0	6.0	0.00e+00	0	32	104	0	60	84158
2026-01-06 22:43:23.02	21.83	3.40	-51.6	-54.0	6.1	0.00e+00	0	32	104	0	60	83785
2026-01-06 22:43:24.03	21.89	3.47	-51.6	-54.0	6.1	0.00e+00	0	32	104	0	60	84029
2026-01-06 22:43:25.03	21.94	3.54	-51.5	-54.0	6.1	0.00e+00	0	32	104	0	60	83827
2026-01-06 22:43:26.04	22.00	3.62	-51.5	-54.0	6.1	0.00e+00	0	32	104	0	60	83874
2026-01-06 22:43:27.05	22.06	3.69	-51.6	-54.1	6.1	0.00e+00	0	32	104	0	60	84306
2026-01-06 22:43:28.05	22.12	3.76	-51.5	-54.0	6.1	0.00e+00	0	32	104	0	60	84014
2026-01-06 22:43:29.06	22.18	3.83	-51.5	-54.0	6.1	0.00e+00	0	32	104	0	60	83686
2026-01-06 22:43:30.07	22.24	3.91	-51.5	-54.0	6.1	0.00e+00	0	32	104	0	60	83997
2026-01-06 22:43:31.08	22.30	3.98	-51.5	-54.0	6.1	0.00e+00	0	32	104	0	60	84140
2026-01-06 22:43:32.09	22.36	4.05	-51.5	-54.0	6.1	0.00e+00	0	32	104	0	60	84028
2026-01-06 22:43:33.10	22.42	4.13	-51.5	-54.0	6.1	0.00e+00	0	32	104	0	60	83639
2026-01-06 22:43:34.11	22.48	4.20	-51.5	-54.0	6.1	0.00e+00	0	32	104	0	60	83494
2026-01-06 22:43:35.12	22.54	4.28	-51.5	-54.0	6.1	0.00e+00	0	32	104	0	60	84208
2026-01-06 22:43:36.12	22.60	4.35	-51.5	-54.0	6.1	0.00e+00	0	32	104	0	60	84190
2026-01-06 22:43:37.13	22.66	4.42	-51.5	-54.0	6.1	0.00e+00	0	32	104	0	60	84165
2026-01-06 22:43:38.14	22.72	4.50	-51.5	-54.0	6.1	0.00e+00	0	32	104	0	60	84026
2026-01-06 22:43:39.15	22.79	4.57	-51.5	-54.0	6.1	0.00e+00	0	32	104	0	60	83986
2026-01-06 22:43:40.16	22.85	4.65	-51.5	-54.0	6.1	0.00e+00	0	32	104	0	60	83663
2026-01-06 22:43:41.17	22.91	4.73	-51.5	-54.0	6.1	0.00e+00	0	32	104	0	60	84012
2026-01-06 22:43:42.18	22.98	4.80	-51.5	-54.0	6.1	0.00e+00	0	32	104	0	60	83923
2026-01-06 22:43:43.18	23.04	4.88	-51.5	-54.0	6.1	0.00e+00	0	32	104	0	60	83786
2026-01-06 22:43:44.19	23.10	4.95	-51.5	-54.1	6.1	0.00e+00	0	32	104	0	60	84276
2026-01-06 22:43:45.20	23.17	5.03	-51.5	-54.0	6.1	0.00e+00	0	32	104	0	60	83708
2026-01-06 22:43:46.21	23.23	5.11	-51.5	-54.0	6.1	0.00e+00	0	32	104	0	60	83705
2026-01-06 22:43:47.21	23.30	5.19	-51.5	-54.0	6.1	0.00e+00	0	32	104	0	60	83906
2026-01-06 22:43:48.22	23.37	5.26	-51.5	-54.1	6.1	0.00e+00	0	32	104	0	60	84299
2026-01-06 22:43:49.22	23.43	5.34	-51.5	-54.0	6.1	0.00e+00	0	32	104	0	60	83861
2026-01-06 22:43:50.23	23.50	5.42	-51.5	-54.0	6.1	0.00e+00	0	32	104	0	60	83879
2026-01-06 22:43:51.24	23.57	5.50	-51.5	-54.0	6.1	0.00e+00	0	32	104	0	60	84054
2026-01-06 22:43:52.25	23.63	5.58	-51.5	-54.0	6.1	0.00e+00	0	32	104	0	60	83925
2026-01-06 22:43:53.26	23.70	5.66	-51.5	-54.0	6.1	0.00e+00	0	32	104	0	60	84071
2026-01-06 22:43:54.27	23.77	5.73	-51.5	-54.0	6.1	0.00e+00	0	32	104	0	60	83939
2026-01-06 22:43:55.28	23.84	5.81	-51.5	-54.0	6.1	0.00e+00	0	32	104	0	60	83498
2026-01-06 22:43:56.28	23.91	5.89	-51.5	-54.0	6.1	0.00e+00	0	32	104	0	60	83575
2026-01-06 22:43:57.29	23.98	5.97	-51.5	-54.0	6.1	0.00e+00	0	32	104	0	60	83909
2026-01-06 22:43:58.30	24.05	6.05	-51.5	-54.0	6.1	0.00e+00	0	32	104	0	60	83778
2026-01-06 22:43:59.31	24.12	6.14	-51.5	-53.9	6.1	0.00e+00	0	32	104	0	60	83047
2026-01-06 22:44:00.32	24.19	6.22	-51.5	-54.0	6.1	0.00e+00	0	32	104	0	60	84053
2026-01-06 22:44:01.33	24.26	6.30	-51.5	-54.0	6.1	0.00e+00	0	32	104	0	60	83392
2026-01-06 22:44:02.34	24.33	6.38	-51.5	-54.0	6.1	0.00e+00	0	32	104	0	60	84095
2026-01-06 22:44:03.35	24.41	6.46	-51.5	-54.0	6.1	0.00e+00	0	32	104	0	60	83600
2026-01-06 22:44:04.35	24.48	6.54	-51.5	-54.0	6.1	0.00e+00	0	32	104	0	60	84003
2026-01-06 22:44:05.36	24.55	6.63	-51.5	-54.0	6.1	0.00e+00	0	32	104	0	60	83870
2026-01-06 22:44:06.37	24.63	6.71	-51.5	-54.0	6.1	0.00e+00	0	32	104	0	60	83675
2026-01-06 22:44:07.38	24.70	6.79	-51.5	-54.0	6.1	0.00e+00	0	32	104	0	60	83737
2026-01-06 22:44:08.39	24.78	6.88	-51.5	-54.0	6.1	0.00e+00	0	33	104	0	60	83672
2026-01-06 22:44:09.40	24.85	6.96	-51.5	-54.0	6.1	0.00e+00	0	33	104	0	60	83868
2026-01-06 22:44:10.40	24.93	7.05	-51.5	-54.0	6.1	0.00e+00	0	33	104	0	60	83985
2026-01-06 22:44:11.41	25.01	7.13	-51.5	-54.0	6.1	0.00e+00	0	33	104	0	60	83685
2026-01-06 22:44:12.42	25.08	7.22	-51.5	-54.0	6.1	0.00e+00	0	33	104	0	60	83639
2026-01-06 22:44:13.43	25.16	7.30	-51.5	-54.0	6.1	0.00e+00	0	33	104	0	60	83767
2026-01-06 22:44:14.43	25.24	7.39	-51.5	-54.0	6.1	0.00e+00	0	33	104	0	60	83516
2026-01-06 22:44:15.44	25.32	7.47	-51.5	-54.0	6.1	0.00e+00	0	33	104	0	60	83954
2026-01-06 22:44:16.45	25.40	7.56	-51.5	-54.0	6.1	0.00e+00	0	33	104	0	60	83599
2026-01-06 22:44:17.46	25.48	7.65	-51.5	-54.0	6.1	0.00e+00	0	33	104	0	60	83847
2026-01-06 22:44:18.47	25.56	7.73	-51.5	-54.0	6.1	0.00e+00	0	33	104	0	60	83866
2026-01-06 22:44:19.48	25.64	7.82	-51.5	-54.0	6.1	0.00e+00	0	33	104	0	60	83959
2026-01-06 22:44:20.48	25.72	7.91	-51.5	-54.0	6.1	0.00e+00	0	33	104	0	60	83974
2026-01-06 22:44:21.49	25.80	8.00	-51.5	-54.0	6.1	0.00e+00	0	33	104	0	60	83485
2026-01-06 22:44:22.50	25.88	8.08	-51.5	-54.0	6.1	0.00e+00	0	33	104	0	60	83870
2026-01-06 22:44:23.51	25.97	8.17	-51.5	-54.0	6.1	0.00e+00	0	33	104	0	60	83540
2026-01-06 22:44:24.51	26.05	8.26	-51.5	-54.0	6.1	0.00e+00	0	33	104	0	60	83934
2026-01-06 22:44:25.52	26.14	8.35	-51.5	-54.0	6.1	0.00e+00	0	33	104	0	60	83842
2026-01-06 22:44:26.53	26.22	8.44	-51.5	-54.0	6.1	0.00e+00	0	33	104	0	60	83721
2026-01-06 22:44:27.54	26.31	8.53	-51.5	-54.0	6.1	0.00e+00	0	33	104	0	60	84116
2026-01-06 22:44:28.55	26.39	8.62	-51.5	-54.0	6.1	0.00e+00	0	33	104	0	60	84009
2026-01-06 22:44:29.55	26.48	8.71	-51.5	-54.0	6.1	0.00e+00	0	33	104	0	60	84136
2026-01-06 22:44:30.56	26.57	8.81	-51.5	-54.0	6.1	0.00e+00	0	33	104	0	60	83647
2026-01-06 22:44:31.57	26.66	8.90	-51.5	-54.0	6.1	0.00e+00	0	33	104	0	60	83802
2026-01-06 22:44:32.58	26.75	8.99	-51.5	-54.0	6.1	0.00e+00	0	33	104	0	60	83992
2026-01-06 22:44:33.59	26.83	9.08	-51.5	-54.0	6.1	0.00e+00	0	33	104	0	60	83751
2026-01-06 22:44:34.59	26.92	9.18	-51.5	-54.0	6.1	0.00e+00	0	33	104	0	60	83498
2026-01-06 22:44:35.60	27.02	9.27	-51.5	-54.0	6.1	0.00e+00	0	33	104	0	60	84034
2026-01-06 22:44:36.61	27.11	9.36	-51.5	-54.0	6.1	0.00e+00	0	33	104	0	60	83750
2026-01-06 22:44:37.62	27.20	9.46	-51.5	-54.0	6.1	0.00e+00	0	33	104	0	60	83816
2026-01-06 22:44:38.63	27.29	9.55	-51.5	-54.0	6.1	0.00e+00	0	33	104	0	60	83893
2026-01-06 22:44:39.64	27.39	9.65	-51.5	-54.0	6.1	0.00e+00	0	33	104	0	60	83560
2026-01-06 22:44:40.64	27.48	9.74	-51.5	-54.0	6.1	0.00e+00	0	33	104	0	60	83347
2026-01-06 22:44:41.65	27.58	9.84	-51.5	-54.0	6.1	0.00e+00	0	33	104	0	60	83470
2026-01-06 22:44:42.66	27.67	9.94	-51.5	-54.0	6.1	0.00e+00	0	33	104	0	60	83926
2026-01-06 22:44:43.67	27.77	10.03	-51.5	-54.0	6.1	0.00e+00	0	33	104	0	60	83890
2026-01-06 22:44:44.68	27.87	10.13	-51.5	-54.0	6.1	0.00e+00	0	33	104	0	60	83680
2026-01-06 22:44:45.68	27.96	10.23	-51.5	-54.0	6.1	0.00e+00	0	33	104	0	60	84022
2026-01-06 22:44:46.69	28.06	10.33	-51.5	-54.0	6.1	0.00e+00	0	33	104	0	60	84014
2026-01-06 22:44:47.70	28.16	10.43	-51.5	-54.0	6.1	0.00e+00	0	33	104	0	60	84200
2026-01-06 22:44:48.71	28.26	10.53	-51.5	-54.0	6.1	0.00e+00	0	33	104	0	60	84061
2026-01-06 22:44:49.72	28.36	10.63	-51.5	-54.0	6.1	0.00e+00	0	33	104	0	60	83666
2026-01-06 22:44:50.73	28.47	10.73	-51.5	-54.0	6.1	0.00e+00	0	33	104	0	60	84016
2026-01-06 22:44:51.73	28.57	10.83	-51.5	-54.0	6.1	0.00e+00	0	33	104	0	60	84189
2026-01-06 22:44:52.74	28.67	10.93	-51.5	-54.0	6.1	0.00e+00	0	33	104	0	60	83684
2026-01-06 22:44:53.75	28.78	11.03	-51.5	-54.0	6.1	0.00e+00	0	33	104	0	60	83807
2026-01-06 22:44:54.76	28.88	11.13	-51.5	-54.0	6.1	0.00e+00	0	33	104	0	60	83521
2026-01-06 22:44:55.77	28.99	11.23	-51.5	-54.0	6.1	0.00e+00	0	33	104	0	60	83650
2026-01-06 22:44:56.78	29.10	11.34	-51.5	-54.0	6.1	0.00e+00	0	33	104	0	60	84030
2026-01-06 22:44:57.78	29.20	11.44	-51.5	-54.0	6.1	0.00e+00	0	33	104	0	60	83815
2026-01-06 22:44:58.79	29.31	11.55	-51.5	-54.0	6.1	0.00e+00	0	33	104	0	60	83887
2026-01-06 22:44:59.80	29.42	11.65	-51.5	-54.0	6.1	0.00e+00	0	33	104	0	60	83742
2026-01-06 22:45:00.81	29.53	11.76	-51.5	-54.0	6.1	0.00e+00	0	33	104	0	60	83618
2026-01-06 22:45:01.82	29.65	11.86	-51.5	-54.0	6.1	0.00e+00	0	33	104	0	60	83778
2026-01-06 22:45:02.83	29.76	11.97	-51.5	-54.0	6.1	0.00e+00	0	33	104	0	60	83577
2026-01-06 22:45:03.84	29.87	12.07	-51.5	-54.0	6.1	0.00e+00	0	33	104	0	60	83757
2026-01-06 22:45:04.84	29.99	12.18	-51.5	-54.0	6.1	0.00e+00	0	33	104	0	60	83760
2026-01-06 22:45:05.85	30.10	12.29	-51.5	-54.0	6.1	0.00e+00	0	33	104	0	60	83776
2026-01-06 22:45:06.86	30.22	12.40	-51.5	-54.0	6.1	0.00e+00	0	33	104	0	60	83981
2026-01-06 22:45:07.87	30.34	12.51	-51.5	-54.0	6.1	0.00e+00	0	33	104	0	60	83522
2026-01-06 22:45:08.88	30.46	12.62	-51.5	-54.0	6.1	0.00e+00	0	33	104	0	60	83799
2026-01-06 22:45:09.88	30.57	12.73	-51.5	-54.0	6.1	0.00e+00	0	33	104	0	60	83639
2026-01-06 22:45:10.89	30.69	12.84	-51.5	-54.0	6.1	0.00e+00	0	33	104	0	60	83848
2026-01-06 22:45:11.90	30.82	12.95	-51.5	-54.0	6.1	0.00e+00	0	33	104	0	60	84070
2026-01-06 22:45:12.91	30.94	13.06	-51.5	-54.0	6.1	0.00e+00	0	33	104	0	60	84232
2026-01-06 22:45:13.92	31.06	13.17	-51.5	-54.0	6.1	0.00e+00	0	33	104	0	60	83672
2026-01-06 22:45:14.93	31.19	13.29	-51.5	-54.0	6.1	0.00e+00	0	33	104	0	60	84093
2026-01-06 22:45:15.93	31.31	13.40	-51.5	-54.0	6.1	0.00e+00	0	33	104	0	60	83593
2026-01-06 22:45:16.94	31.44	13.51	-51.5	-54.0	6.1	0.00e+00	0	33	104	0	60	83940
2026-01-06 22:45:17.95	31.57	13.63	-51.5	-54.0	6.1	0.00e+00	0	33	104	0	60	83968
2026-01-06 22:45:18.96	31.70	13.74	-51.5	-54.0	6.1	0.00e+00	0	33	104	0	60	83760
2026-01-06 22:45:19.96	31.83	13.86	-51.5	-54.0	6.0	0.00e+00	0	33	104	0	60	83815
2026-01-06 22:45:20.97	31.96	13.97	-51.5	-54.0	6.1	0.00e+00	0	33	104	0	60	84159
2026-01-06 22:45:21.98	32.09	14.09	-51.5	-54.0	6.1	0.00e+00	0	33	104	0	60	83701
2026-01-06 22:45:22.99	32.23	14.21	-51.5	-54.0	6.1	0.00e+00	0	33	104	0	60	83600
2026-01-06 22:45:24.00	32.36	14.33	-51.5	-54.0	6.1	0.00e+00	0	33	104	0	60	83940
2026-01-06 22:45:25.01	32.50	14.45	-51.5	-54.0	6.1	0.00e+00	0	33	104	0	60	83733
2026-01-06 22:45:26.01	32.64	14.56	-51.5	-54.0	6.1	0.00e+00	0	34	104	0	60	83652
2026-01-06 22:45:27.02	32.77	14.69	-51.5	-54.0	6.1	0.00e+00	0	33	104	0	60	83629
2026-01-06 22:45:28.03	32.92	14.81	-51.5	-54.0	6.1	0.00e+00	0	33	104	0	60	83567
2026-01-06 22:45:29.04	33.06	14.93	-51.5	-54.0	6.1	0.00e+00	0	33	104	0	60	83957
2026-01-06 22:45:30.04	33.20	15.05	-51.5	-54.0	6.1	0.00e+00	0	33	104	0	60	83532
2026-01-06 22:45:31.05	33.34	15.17	-51.5	-54.0	6.1	0.00e+00	0	34	104	0	60	83748
2026-01-06 22:45:32.06	33.49	15.30	-51.5	-54.0	6.1	0.00e+00	0	33	104	0	60	83570
2026-01-06 22:45:33.06	33.64	15.42	-51.5	-54.0	6.1	0.00e+00	0	33	104	0	60	83473
2026-01-06 22:45:34.07	33.78	15.54	-51.5	-54.0	6.1	0.00e+00	0	33	104	0	60	83575
2026-01-06 22:45:35.08	33.93	15.67	-51.5	-54.0	6.1	0.00e+00	0	33	104	0	60	83691
2026-01-06 22:45:36.09	34.09	15.79	-51.6	-54.1	6.1	0.00e+00	0	34	104	0	60	84632
2026-01-06 22:45:37.09	34.24	15.92	-51.7	-54.1	6.1	0.00e+00	0	33	104	0	60	84996
2026-01-06 22:45:38.10	34.39	16.05	-51.6	-54.1	6.1	0.00e+00	0	34	104	0	60	84368
2026-01-06 22:45:39.11	34.55	16.18	-51.6	-54.1	6.1	0.00e+00	0	34	104	0	60	85163
2026-01-06 22:45:40.12	34.71	16.31	-51.6	-54.1	6.1	0.00e+00	0	34	104	0	60	84867
2026-01-06 22:45:41.12	34.86	16.43	-51.7	-54.2	6.1	0.00e+00	0	34	104	0	60	85798
2026-01-06 22:45:42.13	35.02	16.56	-51.7	-54.1	6.1	0.00e+00	0	34	104	0	60	85087
2026-01-06 22:45:43.14	35.19	16.70	-51.7	-54.2	6.1	0.00e+00	0	34	104	0	60	85348
2026-01-06 22:45:44.15	35.35	16.83	-51.6	-54.0	6.1	0.00e+00	0	34	104	0	60	84153
2026-01-06 22:45:45.15	35.51	16.96	-51.5	-54.0	6.1	0.00e+00	0	34	104	0	60	83858
2026-01-06 22:45:46.16	35.68	17.09	-51.4	-53.9	6.1	0.00e+00	0	34	104	0	60	82881
2026-01-06 22:45:47.17	35.85	17.23	-51.3	-53.8	6.1	0.00e+00	0	34	104	0	60	81640
2026-01-06 22:45:48.18	36.02	17.36	-51.1	-53.6	6.1	0.00e+00	0	34	104	0	60	79946
2026-01-06 22:45:49.19	36.19	17.50	-51.0	-53.5	6.1	0.00e+00	0	33	104	0	60	78747
2026-01-06 22:45:50.19	36.37	17.63	-50.8	-53.3	6.1	0.00e+00	0	34	104	0	60	77012
2026-01-06 22:45:51.20	36.54	17.77	-50.5	-53.0	6.1	0.00e+00	0	34	104	0	60	74293
2026-01-06 22:45:52.21	36.72	17.91	-50.3	-52.8	6.1	0.00e+00	0	34	104	0	60	73038
2026-01-06 22:45:53.22	36.90	18.04	-50.3	-52.8	6.1	0.00e+00	0	34	104	0	60	73220
2026-01-06 22:45:54.23	37.08	18.18	-50.3	-52.8	6.1	0.00e+00	0	34	104	0	60	73038
2026-01-06 22:45:55.23	37.26	18.32	-50.3	-52.8	6.0	0.00e+00	0	34	104	0	60	72890
2026-01-06 22:45:56.24	37.45	18.46	-50.3	-52.8	6.1	0.00e+00	0	34	104	0	60	73052
2026-01-06 22:45:57.25	37.63	18.60	-50.3	-52.8	6.1	0.00e+00	0	34	104	0	60	72864
2026-01-06 22:45:58.26	37.82	18.75	-50.3	-52.8	6.1	0.00e+00	0	34	104	0	60	72742
2026-01-06 22:45:59.26	38.01	18.89	-50.3	-52.8	6.1	0.00e+00	0	34	104	0	60	72988
2026-01-06 22:46:00.27	38.20	19.03	-50.3	-52.8	6.1	0.00e+00	0	34	104	0	60	72649
2026-01-06 22:46:01.28	38.40	19.18	-50.3	-52.8	6.1	0.00e+00	0	34	104	0	60	72871
2026-01-06 22:46:02.29	38.60	19.32	-50.3	-52.7	6.1	0.00e+00	0	34	104	0	60	72457
2026-01-06 22:46:03.29	38.79	19.47	-50.3	-52.8	6.1	0.00e+00	0	34	104	0	60	72961
2026-01-06 22:46:04.30	38.99	19.61	-50.3	-52.8	6.1	0.00e+00	0	34	104	0	60	72834
2026-01-06 22:46:05.31	39.20	19.76	-50.3	-52.8	6.1	0.00e+00	0	34	104	0	60	73222
2026-01-06 22:46:06.32	39.40	19.91	-50.3	-52.8	6.1	0.00e+00	0	34	104	0	60	72875
2026-01-06 22:46:07.33	39.61	20.06	-50.3	-52.8	6.1	0.00e+00	0	34	104	0	60	73134
2026-01-06 22:46:08.33	39.82	20.21	-50.3	-52.8	6.1	0.00e+00	0	34	104	0	60	72983
2026-01-06 22:46:09.34	40.03	20.36	-50.3	-52.8	6.1	0.00e+00	0	34	104	0	60	72697
2026-01-06 22:46:10.35	40.25	20.51	-50.3	-52.8	6.1	0.00e+00	0	34	104	0	60	73333
2026-01-06 22:46:11.35	40.46	20.66	-50.3	-52.8	6.1	0.00e+00	0	34	104	0	60	72814
2026-01-06 22:46:12.36	40.68	20.81	-50.3	-52.8	6.1	0.00e+00	0	34	104	0	60	72885
2026-01-06 22:46:13.37	40.90	20.97	-50.3	-52.7	6.1	0.00e+00	0	34	104	0	60	72286
2026-01-06 22:46:14.38	41.13	21.12	-50.3	-52.8	6.1	0.00e+00	0	34	104	0	60	72752
2026-01-06 22:46:15.39	41.36	21.28	-50.3	-52.8	6.1	0.00e+00	0	34	104	0	60	72965
2026-01-06 22:46:16.40	41.59	21.43	-50.3	-52.8	6.1	0.00e+00	0	34	104	0	60	72861
2026-01-06 22:46:17.41	41.82	21.59	-50.3	-52.8	6.1	0.00e+00	0	34	104	0	60	72927
2026-01-06 22:46:18.42	42.05	21.75	-50.3	-52.8	6.1	0.00e+00	0	34	104	0	60	72948
2026-01-06 22:46:19.43	42.29	21.91	-50.3	-52.8	6.1	0.00e+00	0	34	104	0	60	72929
2026-01-06 22:46:20.43	42.53	22.07	-50.3	-52.8	6.1	0.00e+00	0	34	104	0	60	72717
2026-01-06 22:46:21.44	42.77	22.23	-50.3	-52.8	6.1	0.00e+00	0	34	104	0	60	73013
2026-01-06 22:46:22.45	43.02	22.39	-50.3	-52.8	6.1	0.00e+00	0	34	104	0	60	72555
2026-01-06 22:46:23.46	43.27	22.55	-40.1	-40.5	10.4	0.00e+00	5403	34	104	0	60	17741
2026-01-06 22:46:24.47	43.52	22.71	-36.8	-37.1	12.8	0.00e+00	0	34	102	8388608	54	16864
2026-01-06 22:46:25.47	43.77	22.87	-34.6	-35.0	13.9	1.73e-01	0	34	102	8388608	50	16715
2026-01-06 22:46:26.48	44.03	23.04	-33.1	-33.5	14.6	1.73e-01	0	34	102	8388608	48	15773
2026-01-06 22:46:27.49	44.29	23.20	-32.0	-32.3	15.1	2.07e-02	0	34	102	8388608	46	15498
2026-01-06 22:46:28.50	44.55	23.37	-31.9	-32.3	15.0	2.07e-02	0	34	102	8388608	44	17258
2026-01-06 22:46:29.50	44.81	23.53	-32.0	-32.4	15.0	6.82e-03	0	34	102	8388608	44	17425
2026-01-06 22:46:30.51	45.08	23.70	-32.8	-33.2	14.6	6.82e-03	0	34	102	8388608	44	19235
2026-01-06 22:46:31.52	45.36	23.87	-34.4	-34.7	14.0	1.20e-02	0	34	102	8388608	48	18170
2026-01-06 22:46:32.53	45.63	24.04	-36.7	-37.0	12.6	1.20e-02	0	34	102	8388608	52	18831
2026-01-06 22:46:33.53	45.91	24.20	-34.7	-35.2	11.8	6.60e-02	0	34	102	8388608	48	19103
2026-01-06 22:46:34.54	46.19	24.37	-31.0	-31.3	11.5	0.00e+00	0	34	104	8388608	46	13716
2026-01-06 22:46:35.55	46.48	24.54	-37.8	-38.1	11.6	0.00e+00	108	34	0	8388608	60	13434
2026-01-06 22:46:36.56	46.77	24.71	-38.8	-39.2	10.8	0.00e+00	39	34	104	8388608	60	15178
2026-01-06 22:46:37.57	47.06	24.89	-39.3	-39.7	7.8	0.00e+00	5136	34	0	8388608	50	28722
2026-01-06 22:46:38.58	47.36	25.06	-43.6	-44.1	10.0	0.00e+00	0	34	104	8388608	60	26755
2026-01-06 22:46:39.58	47.65	25.23	-34.6	-34.9	13.9	3.43e-02	0	34	0	8388608	50	16616
2026-01-06 22:46:40.59	47.96	25.40	-33.5	-33.9	14.5	3.43e-02	0	34	0	8388608	48	16523
2026-01-06 22:46:41.60	48.26	25.58	-32.5	-32.9	14.8	3.88e-02	0	34	0	8388608	46	16572
2026-01-06 22:46:42.61	48.57	25.75	-32.3	-32.7	14.9	6.38e-03	0	34	101	8388608	46	16151
2026-01-06 22:46:43.61	48.89	25.93	-31.8	-32.2	15.0	6.38e-03	0	35	101	8388608	44	17074
2026-01-06 22:46:44.62	49.20	26.10	-31.6	-32.0	15.2	6.38e-03	0	34	101	8388608	44	16618
2026-01-06 22:46:45.63	49.53	26.28	-31.4	-31.8	15.3	4.16e-03	0	34	101	8388608	44	16417
2026-01-06 22:46:46.64	49.85	26.46	-30.8	-31.2	15.5	2.45e-03	0	34	101	8388608	42	17070
2026-01-06 22:46:47.65	50.18	26.64	-30.9	-31.3	15.5	2.45e-03	0	34	101	8388608	42	17309
2026-01-06 22:46:48.65	50.51	26.81	-30.4	-30.8	15.6	2.07e-03	0	34	101	8388608	42	16375
2026-01-06 22:46:49.66	50.85	26.99	-30.2	-30.6	15.6	2.07e-03	0	34	101	8388608	42	16001
2026-01-06 22:46:50.67	51.19	27.17	-30.1	-30.5	15.7	1.98e-03	0	34	101	8388608	42	15808
2026-01-06 22:46:51.68	51.54	27.35	-30.3	-30.7	15.6	1.55e-03	0	34	101	8388608	42	16135
2026-01-06 22:46:52.69	51.89	27.53	-30.1	-30.5	15.7	1.55e-03	0	35	101	8388608	42	15731
2026-01-06 22:46:53.70	52.25	27.71	-30.2	-30.6	15.7	1.55e-03	0	34	101	8388608	42	15977
2026-01-06 22:46:54.71	52.61	27.89	-30.2	-30.6	15.7	7.19e-04	0	34	101	8388608	42	15917
2026-01-06 22:46:55.72	52.97	28.07	-30.0	-30.4	15.8	7.19e-04	0	34	101	8388608	40	17484
2026-01-06 22:46:56.73	53.34	28.25	-29.8	-30.2	15.9	8.17e-04	0	34	101	8388608	40	17056
2026-01-06 22:46:57.74	53.71	28.43	-30.0	-30.4	15.8	5.23e-04	0	35	101	8388608	40	17469
2026-01-06 22:46:58.75	54.09	28.61	-29.8	-30.2	15.9	5.23e-04	0	35	101	8388608	40	17078
2026-01-06 22:46:59.76	54.47	28.80	-29.8	-30.2	15.9	5.23e-04	0	35	101	8388608	40	17016
2026-01-06 22:47:00.77	54.86	28.98	-29.6	-30.0	15.9	5.12e-04	0	35	101	8388608	40	16731
2026-01-06 22:47:01.78	55.25	29.16	-29.7	-30.0	16.0	5.12e-04	0	35	101	8388608	40	16796
2026-01-06 22:47:02.79	55.65	29.34	-29.7	-30.1	15.9	2.83e-04	0	35	101	8388608	40	16875
2026-01-06 22:47:03.80	56.05	29.52	-29.8	-30.2	15.9	2.83e-04	0	35	101	8388608	40	17131
2026-01-06 22:47:04.82	56.46	29.71	-29.8	-30.1	16.0	4.20e-04	0	35	101	8388608	40	16980
2026-01-06 22:47:05.83	56.87	29.89	-29.9	-30.2	16.0	4.20e-04	0	35	101	8388608	40	17197
2026-01-06 22:47:06.84	57.28	30.07	-29.5	-29.9	16.1	2.45e-04	0	35	101	8388608	40	16549
2026-01-06 22:47:07.85	57.70	30.25	-29.6	-30.0	16.0	2.45e-04	0	35	101	8388608	40	16741
2026-01-06 22:47:08.86	58.13	30.43	-29.4	-29.8	16.1	2.29e-04	0	35	101	8388608	40	16344
2026-01-06 22:47:09.87	58.56	30.61	-29.4	-29.8	16.1	2.29e-04	0	35	101	8388608	40	16338
2026-01-06 22:47:10.88	59.00	30.80	-29.4	-29.8	16.1	1.74e-04	0	35	101	8388608	40	16280
2026-01-06 22:47:11.89	59.44	30.98	-29.4	-29.8	16.1	1.74e-04	0	35	101	8388608	40	16324
2026-01-06 22:47:12.90	59.89	31.16	-29.3	-29.7	16.1	1.31e-04	0	35	101	8388608	40	16126
2026-01-06 22:47:13.91	60.34	31.33	-29.3	-29.6	16.1	1.31e-04	0	35	101	8388608	40	16032
2026-01-06 22:47:14.92	60.80	31.51	-29.3	-29.6	16.1	1.42e-04	0	35	101	8388608	40	16016
2026-01-06 22:47:15.93	61.26	31.69	-29.4	-29.7	16.1	1.42e-04	0	35	101	8388608	40	16182
2026-01-06 22:47:16.94	61.73	31.87	-29.1	-29.5	16.2	1.31e-04	0	35	101	8388608	40	15746
2026-01-06 22:47:17.95	62.20	32.05	-29.3	-29.7	16.1	1.31e-04	0	35	101	8388608	40	16115
2026-01-06 22:47:18.96	62.68	32.22	-29.0	-29.4	16.2	1.58e-04	0	34	101	8388608	38	17504
2026-01-06 22:47:19.97	63.17	32.40	-29.3	-29.7	16.2	1.58e-04	0	35	101	8388608	38	18016
2026-01-06 22:47:20.98	63.66	32.57	-29.4	-29.7	16.2	1.25e-04	0	35	101	8388608	38	18142
2026-01-06 22:47:21.99	64.15	32.74	-28.9	-29.3	16.3	1.25e-04	0	35	101	8388608	38	17334
2026-01-06 22:47:23.01	64.66	32.92	-28.9	-29.3	16.3	5.99e-05	0	35	101	8388608	38	17291
2026-01-06 22:47:24.02	65.17	33.09	-28.8	-29.2	16.3	5.99e-05	0	35	101	8388608	38	17033
2026-01-06 22:47:25.03	65.68	33.26	-28.9	-29.3	16.3	3.81e-05	0	35	101	8388608	38	17245
2026-01-06 22:47:26.04	66.20	33.43	-28.9	-29.3	16.3	5.99e-05	0	35	101	8388608	38	17302
2026-01-06 22:47:27.05	66.72	33.59	-28.9	-29.2	16.3	5.99e-05	0	35	101	8388608	38	17144
2026-01-06 22:47:28.06	67.25	33.76	-28.6	-29.0	16.4	5.99e-05	0	35	101	8388608	38	16707
2026-01-06 22:47:29.07	67.79	33.92	-28.6	-29.0	16.3	6.53e-05	0	35	101	8388608	38	16683
2026-01-06 22:47:30.08	68.33	34.09	-28.5	-28.9	16.4	6.53e-05	0	35	101	8388608	38	16534
2026-01-06 22:47:31.09	68.88	34.25	-28.5	-28.9	16.4	3.81e-05	0	35	101	8388608	38	16527
2026-01-06 22:47:32.10	69.43	34.40	-28.6	-29.0	16.4	3.81e-05	0	35	101	8388608	38	16708
2026-01-06 22:47:33.11	69.99	34.56	-28.3	-28.7	16.5	4.90e-05	0	35	101	8388608	38	16129
2026-01-06 22:47:34.12	70.55	34.72	-28.4	-28.8	16.5	4.90e-05	0	35	101	8388608	38	16262
2026-01-06 22:47:35.13	71.12	34.87	-28.3	-28.7	16.5	3.81e-05	0	35	101	8388608	38	16124
2026-01-06 22:47:36.14	71.70	35.02	-28.3	-28.7	16.5	2.17e-05	0	35	101	8388608	38	16096
2026-01-06 22:47:37.15	72.28	35.17	-28.2	-28.6	16.4	2.17e-05	0	35	101	8388608	38	15939
2026-01-06 22:47:38.16	72.87	35.31	-28.2	-28.5	16.5	5.40e-06	0	35	101	8388608	38	15859
2026-01-06 22:47:39.17	73.46	35.46	-28.0	-28.4	16.5	5.40e-06	0	35	101	8388608	36	17573
2026-01-06 22:47:40.19	74.06	35.60	-28.1	-28.5	16.5	3.26e-05	0	35	101	8388608	36	17734
2026-01-06 22:47:41.20	74.67	35.74	-28.0	-28.4	16.5	3.26e-05	0	35	101	8388608	36	17584
2026-01-06 22:47:42.21	75.28	35.87	-27.9	-28.3	16.5	1.63e-05	0	35	101	8388608	36	17357
2026-01-06 22:47:43.22	75.89	36.01	-28.0	-28.3	16.5	1.63e-05	0	35	101	8388608	36	17389
2026-01-06 22:47:44.23	76.51	36.14	-27.9	-28.3	16.5	1.63e-05	0	35	101	8388608	36	17326
2026-01-06 22:47:45.24	77.13	36.26	-28.0	-28.4	16.5	1.63e-05	0	35	101	8388608	36	17418
2026-01-06 22:47:46.25	77.76	36.39	-27.6	-28.0	16.6	1.08e-05	0	35	101	8388608	36	16750
2026-01-06 22:47:47.26	78.40	36.51	-27.8	-28.1	16.6	1.08e-05	0	35	101	8388608	36	16992
2026-01-06 22:47:48.27	79.04	36.63	-27.7	-28.1	16.6	0.00e+00	0	35	101	8388608	36	16900
2026-01-06 22:47:49.28	79.68	36.74	-27.6	-28.0	16.6	0.00e+00	0	35	101	8388608	36	16704
2026-01-06 22:47:50.29	80.33	36.85	-27.6	-28.0	16.6	1.08e-05	0	35	101	8388608	36	16679
2026-01-06 22:47:51.30	80.98	36.96	-27.6	-28.0	16.6	1.08e-05	0	35	101	8388608	36	16775
2026-01-06 22:47:52.31	81.64	37.06	-27.7	-28.0	16.6	1.08e-05	0	35	101	8388608	36	16808
2026-01-06 22:47:53.32	82.30	37.16	-27.6	-28.0	16.6	1.08e-05	0	35	101	8388608	36	16761
2026-01-06 22:47:54.33	82.97	37.26	-27.6	-28.0	16.7	5.40e-06	0	35	101	8388608	36	16673
2026-01-06 22:47:55.34	83.64	37.35	-27.3	-27.7	16.7	5.40e-06	0	35	101	8388608	36	16189
2026-01-06 22:47:56.35	84.32	37.44	-27.3	-27.7	16.7	1.63e-05	0	35	101	8388608	36	16158
2026-01-06 22:47:57.36	84.99	37.53	-27.3	-27.7	16.7	1.63e-05	0	35	101	8388608	36	16126
2026-01-06 22:47:58.37	85.68	37.61	-27.2	-27.5	16.7	0.00e+00	0	35	101	8388608	36	15855
2026-01-06 22:47:59.38	86.36	37.68	-27.0	-27.4	16.8	0.00e+00	0	35	101	8388608	36	15610
2026-01-06 22:48:00.40	87.06	37.76	-27.0	-27.4	16.8	5.40e-06	0	35	101	8388608	34	17447
2026-01-06 22:48:01.41	87.75	37.83	-27.0	-27.4	16.7	5.40e-06	0	35	101	8388608	34	17569
2026-01-06 22:48:02.42	88.44	37.89	-27.0	-27.4	16.7	5.40e-06	0	35	101	8388608	34	17593
2026-01-06 22:48:03.43	89.14	37.95	-26.9	-27.3	16.7	5.40e-06	0	35	101	8388608	34	17218
2026-01-06 22:48:04.44	89.84	38.00	-26.9	-27.3	16.7	1.08e-05	0	35	101	8388608	34	17322
2026-01-06 22:48:05.45	90.55	38.05	-26.9	-27.2	16.7	0.00e+00	0	35	101	8388608	34	17166
2026-01-06 22:48:06.46	91.25	38.10	-26.9	-27.2	16.7	0.00e+00	0	35	101	8388608	34	17200
2026-01-06 22:48:07.47	91.96	38.14	-27.0	-27.4	16.7	5.40e-06	0	35	101	8388608	34	17470
2026-01-06 22:48:08.48	92.67	38.18	-26.7	-27.1	16.7	5.40e-06	0	35	101	8388608	34	16870
2026-01-06 22:48:09.49	93.38	38.21	-26.6	-27.0	16.8	5.40e-06	0	35	101	8388608	34	16741
2026-01-06 22:48:10.50	94.09	38.24	-26.5	-26.9	16.8	5.40e-06	0	35	101	8388608	34	16584
2026-01-06 22:48:11.50	94.79	38.26	-26.5	-26.9	16.8	0.00e+00	0	35	101	8388608	34	16503
2026-01-06 22:48:12.52	95.51	38.28	-26.4	-26.8	16.8	0.00e+00	0	35	101	8388608	34	16360
2026-01-06 22:48:13.52	96.22	38.29	-26.5	-26.8	16.8	0.00e+00	0	35	101	8388608	34	16394
2026-01-06 22:48:14.53	96.94	38.30	-26.5	-26.9	16.9	0.00e+00	0	35	101	8388608	34	16467
2026-01-06 22:48:15.54	97.65	38.31	-26.3	-26.7	16.9	0.00e+00	0	35	101	8388608	34	16158
2026-01-06 22:48:16.55	98.37	38.31	-26.3	-26.7	16.9	0.00e+00	0	35	101	8388608	34	16161
2026-01-06 22:48:17.56	99.08	38.30	-26.4	-26.8	16.9	0.00e+00	0	35	101	8388608	34	16299
2026-01-06 22:48:18.57	99.80	38.29	-26.2	-26.6	16.9	0.00e+00	0	35	101	8388608	34	16006
2026-01-06 22:48:19.59	100.52	38.27	-26.4	-26.8	16.9	0.00e+00	0	35	101	8388608	34	16245
2026-01-06 22:48:20.60	101.23	38.25	-26.0	-26.4	17.0	0.00e+00	0	35	101	8388608	34	15644
2026-01-06 22:48:21.61	101.95	38.23	-26.2	-26.6	17.0	0.00e+00	0	35	101	8388608	32	17841
2026-01-06 22:48:22.62	102.66	38.20	-26.0	-26.4	17.0	0.00e+00	0	35	101	8388608	32	17520
2026-01-06 22:48:23.63	103.37	38.17	-25.9	-26.3	17.0	0.00e+00	0	35	101	8388608	32	17348
2026-01-06 22:48:24.64	104.08	38.13	-26.1	-26.5	17.0	0.00e+00	0	35	101	8388608	32	17640
2026-01-06 22:48:25.65	104.78	38.09	-26.1	-26.5	17.0	0.00e+00	0	35	101	8388608	32	17642
2026-01-06 22:48:26.66	105.49	38.04	-25.8	-26.2	17.0	0.00e+00	0	35	101	8388608	32	17057
2026-01-06 22:48:27.67	106.19	37.99	-25.8	-26.2	16.9	0.00e+00	0	35	101	8388608	32	17083
2026-01-06 22:48:28.68	106.89	37.93	-25.7	-26.1	17.0	0.00e+00	0	35	101	8388608	32	16914
2026-01-06 22:48:29.69	107.59	37.87	-25.8	-26.2	17.0	0.00e+00	0	35	101	8388608	32	17014
2026-01-06 22:48:30.70	108.28	37.80	-25.6	-26.0	17.0	0.00e+00	0	35	101	8388608	32	16721
2026-01-06 22:48:31.71	108.98	37.73	-25.6	-26.0	17.0	0.00e+00	0	35	101	8388608	32	16749
2026-01-06 22:48:32.72	109.67	37.66	-25.6	-26.0	17.0	0.00e+00	0	35	101	8388608	32	16702
2026-01-06 22:48:33.73	110.35	37.58	-25.7	-26.1	17.0	0.00e+00	0	35	101	8388608	32	16872
2026-01-06 22:48:34.74	111.03	37.50	-25.6	-26.0	17.0	0.00e+00	0	35	101	8388608	32	16702
2026-01-06 22:48:35.75	111.71	37.41	-25.6	-26.0	17.0	0.00e+00	0	35	101	8388608	32	16754
2026-01-06 22:48:36.76	112.39	37.32	-25.6	-26.0	17.1	0.00e+00	0	35	101	8388608	32	16758
2026-01-06 22:48:37.77	113.06	37.23	-25.6	-26.0	17.1	0.00e+00	0	35	101	8388608	32	16778
2026-01-06 22:48:38.78	113.72	37.13	-25.4	-25.8	17.1	0.00e+00	0	35	101	8388608	32	16334
2026-01-06 22:48:39.79	114.38	37.03	-25.4	-25.8	17.1	0.00e+00	0	35	101	8388608	32	16284
2026-01-06 22:48:40.80	115.04	36.92	-25.5	-25.9	17.0	0.00e+00	0	35	101	8388608	32	16564
2026-01-06 22:48:41.82	115.70	36.81	-25.3	-25.6	17.1	0.00e+00	0	35	101	8388608	32	16044
2026-01-06 22:48:42.83	116.35	36.70	-25.4	-25.8	17.0	0.00e+00	0	35	101	8388608	32	16259
2026-01-06 22:48:43.84	116.99	36.59	-25.3	-25.7	17.0	0.00e+00	0	35	101	8388608	32	16143
2026-01-06 22:48:44.85	117.63	36.47	-25.3	-25.6	17.1	0.00e+00	0	35	101	8388608	32	16042
2026-01-06 22:48:45.86	118.27	36.34	-25.2	-25.6	17.1	0.00e+00	0	35	101	8388608	32	15995
2026-01-06 22:48:46.87	118.90	36.22	-25.1	-25.5	17.1	0.00e+00	0	35	101	8388608	32	15714
2026-01-06 22:48:47.88	119.52	36.09	-25.2	-25.6	17.1	0.00e+00	0	35	101	8388608	32	15950
2026-01-06 22:48:48.89	120.14	35.96	-24.9	-25.3	17.1	0.00e+00	0	35	101	8388608	30	17208
2026-01-06 22:48:49.90	120.75	35.83	-24.9	-25.3	17.1	0.00e+00	0	35	101	8388608	30	17358
2026-01-06 22:48:50.91	121.36	35.69	-24.8	-25.2	17.1	0.00e+00	0	35	101	8388608	30	17055
2026-01-06 22:48:51.92	121.96	35.55	-24.7	-25.1	17.1	0.00e+00	0	35	101	8388608	30	16908
2026-01-06 22:48:52.93	122.56	35.41	-24.8	-25.1	17.1	0.00e+00	0	35	101	8388608	30	16986
2026-01-06 22:48:53.94	123.15	35.26	-24.7	-25.1	17.1	0.00e+00	0	35	101	8388608	30	16885
2026-01-06 22:48:54.95	123.74	35.11	-24.6	-25.0	17.1	0.00e+00	0	35	101	8388608	30	16795
2026-01-06 22:48:55.96	124.32	34.96	-24.4	-24.9	17.1	0.00e+00	0	35	101	8388608	30	16441
2026-01-06 22:48:56.97	124.90	34.81	-24.4	-24.8	17.2	0.00e+00	0	35	101	8388608	30	16327
2026-01-06 22:48:57.98	125.47	34.66	-24.5	-24.9	17.2	0.00e+00	0	35	101	8388608	30	16575
2026-01-06 22:48:58.99	126.03	34.50	-24.3	-24.7	17.1	0.00e+00	0	35	101	8388608	30	16185
2026-01-06 22:49:00.01	126.60	34.34	-24.4	-24.8	17.1	0.00e+00	0	35	101	8388608	30	16378
2026-01-06 22:49:01.01	127.14	34.18	-24.2	-24.6	17.1	0.00e+00	0	35	101	8388608	30	15907
2026-01-06 22:49:02.03	127.69	34.02	-24.2	-24.6	17.1	0.00e+00	0	35	101	8388608	30	16014
2026-01-06 22:49:03.04	128.24	33.86	-24.1	-24.5	17.2	0.00e+00	0	35	101	8388608	30	15824
2026-01-06 22:49:04.05	128.77	33.69	-24.0	-24.4	17.2	0.00e+00	0	35	101	8388608	28	17482
2026-01-06 22:49:05.06	129.30	33.52	-23.9	-24.3	17.2	0.00e+00	0	35	101	8388608	28	17250
2026-01-06 22:49:06.07	129.83	33.36	-23.9	-24.3	17.2	0.00e+00	0	35	101	8388608	28	17352
2026-01-06 22:49:07.08	130.34	33.19	-23.8	-24.2	17.2	0.00e+00	0	35	101	8388608	28	17094
2026-01-06 22:49:08.09	130.86	33.02	-24.0	-24.4	17.2	0.00e+00	0	35	101	8388608	28	17484
2026-01-06 22:49:09.10	131.36	32.84	-23.9	-24.3	17.2	0.00e+00	0	35	101	8388608	28	17248
2026-01-06 22:49:10.11	131.87	32.67	-23.7	-24.1	17.3	0.00e+00	0	35	101	8388608	28	16981
2026-01-06 22:49:11.12	132.36	32.50	-23.8	-24.2	17.3	0.00e+00	0	35	101	8388608	28	17090
2026-01-06 22:49:12.13	132.85	32.32	-23.8	-24.2	17.3	0.00e+00	0	35	101	8388608	28	17103
2026-01-06 22:49:13.14	133.34	32.15	-23.7	-24.1	17.3	0.00e+00	0	35	101	8388608	28	16870
2026-01-06 22:49:14.15	133.81	31.97	-23.9	-24.3	17.2	0.00e+00	0	35	101	8388608	28	17234
2026-01-06 22:49:15.16	134.29	31.79	-23.7	-24.1	17.2	0.00e+00	0	35	101	8388608	28	16982
2026-01-06 22:49:16.17	134.76	31.61	-23.5	-23.9	17.2	0.00e+00	0	35	101	8388608	28	16448
2026-01-06 22:49:17.18	135.22	31.43	-23.4	-23.8	17.3	0.00e+00	0	35	101	8388608	28	16293
2026-01-06 22:49:18.19	135.68	31.25	-23.2	-23.6	17.3	0.00e+00	0	35	101	8388608	28	16018
2026-01-06 22:49:19.20	136.13	31.07	-23.3	-23.7	17.3	0.00e+00	0	35	101	8388608	28	16114
2026-01-06 22:49:20.22	136.58	30.89	-23.1	-23.5	17.2	0.00e+00	0	35	101	8388608	28	15852
2026-01-06 22:49:21.23	137.02	30.71	-23.1	-23.6	17.3	0.00e+00	0	35	101	8388608	28	15905
2026-01-06 22:49:22.24	137.46	30.53	-23.0	-23.5	17.3	0.00e+00	0	35	101	8388608	26	17611
2026-01-06 22:49:23.25	137.89	30.34	-23.1	-23.5	17.3	0.00e+00	0	35	101	8388608	26	17744
2026-01-06 22:49:24.26	138.31	30.16	-23.2	-23.6	17.3	0.00e+00	0	35	101	8388608	26	17905
2026-01-06 22:49:25.27	138.73	29.98	-23.0	-23.4	17.3	0.00e+00	0	35	101	8388608	26	17586
2026-01-06 22:49:26.28	139.15	29.80	-22.9	-23.3	17.3	0.00e+00	0	35	101	8388608	26	17400
2026-01-06 22:49:27.29	139.56	29.61	-22.8	-23.3	17.3	0.00e+00	0	35	101	8388608	26	17243
2026-01-06 22:49:28.30	139.96	29.43	-23.0	-23.4	17.3	0.00e+00	0	35	101	8388608	26	17589
2026-01-06 22:49:29.31	140.37	29.25	-22.7	-23.1	17.3	0.00e+00	0	35	101	8388608	26	16995
2026-01-06 22:49:30.32	140.76	29.07	-22.7	-23.2	17.3	0.00e+00	0	35	101	8388608	26	17031
2026-01-06 22:49:31.33	141.15	28.88	-22.6	-23.0	17.3	0.00e+00	0	35	101	8388608	26	16781
2026-01-06 22:49:32.34	141.54	28.70	-22.6	-23.0	17.3	0.00e+00	0	35	101	8388608	26	16736
2026-01-06 22:49:33.35	141.92	28.52	-22.6	-23.0	17.3	0.00e+00	0	35	101	8388608	26	16714
2026-01-06 22:49:34.36	142.30	28.33	-22.3	-22.8	17.4	0.00e+00	0	35	101	8388608	26	16244
2026-01-06 22:49:35.37	142.67	28.15	-22.4	-22.8	17.4	0.00e+00	0	35	101	8388608	26	16398
2026-01-06 22:49:36.38	143.04	27.97	-22.4	-22.9	17.3	0.00e+00	0	35	101	8388608	26	16456
2026-01-06 22:49:37.39	143.40	27.79	-22.1	-22.5	17.4	0.00e+00	0	35	101	8388608	26	15739
2026-01-06 22:49:38.41	143.76	27.61	-22.2	-22.6	17.4	0.00e+00	0	35	101	8388608	24	17955
2026-01-06 22:49:39.42	144.12	27.42	-21.9	-22.3	17.4	0.00e+00	0	35	101	8388608	24	17393
2026-01-06 22:49:40.43	144.47	27.24	-22.1	-22.5	17.4	0.00e+00	0	35	101	8388608	24	17644
2026-01-06 22:49:41.44	144.81	27.06	-21.9	-22.3	17.4	0.00e+00	0	35	101	8388608	24	17299
2026-01-06 22:49:42.45	145.16	26.88	-21.8	-22.2	17.4	0.00e+00	0	35	101	8388608	24	17129
2026-01-06 22:49:43.46	145.49	26.70	-21.9	-22.3	17.4	0.00e+00	0	35	101	8388608	24	17347
2026-01-06 22:49:44.47	145.83	26.52	-21.7	-22.1	17.4	0.00e+00	0	35	101	8388608	24	16963
2026-01-06 22:49:45.48	146.16	26.35	-21.7	-22.1	17.4	0.00e+00	0	35	101	8388608	24	16925
2026-01-06 22:49:46.49	146.48	26.17	-21.7	-22.1	17.4	0.00e+00	0	35	101	8388608	24	16936
2026-01-06 22:49:47.50	146.81	25.99	-21.6	-22.1	17.4	0.00e+00	0	35	101	8388608	24	16813
2026-01-06 22:49:48.51	147.12	25.81	-21.3	-21.8	17.4	0.00e+00	0	35	101	8388608	24	16244
2026-01-06 22:49:49.52	147.44	25.64	-21.3	-21.7	17.4	0.00e+00	0	35	101	8388608	24	16116
2026-01-06 22:49:50.53	147.75	25.46	-21.3	-21.7	17.5	0.00e+00	0	35	101	8388608	24	16144
2026-01-06 22:49:51.54	148.05	25.29	-21.2	-21.6	17.4	0.00e+00	0	35	101	8388608	24	16002
2026-01-06 22:49:52.55	148.36	25.11	-21.1	-21.5	17.5	0.00e+00	0	35	101	8388608	24	15737
2026-01-06 22:49:53.56	148.66	24.94	-21.1	-21.5	17.4	0.00e+00	0	35	101	8388608	22	17664
2026-01-06 22:49:54.57	148.95	24.76	-21.1	-21.5	17.5	0.00e+00	0	35	101	8388608	22	17672
2026-01-06 22:49:55.58	149.24	24.59	-21.0	-21.4	17.5	0.00e+00	0	35	101	8388608	22	17504
2026-01-06 22:49:56.59	149.53	24.42	-20.9	-21.3	17.5	0.00e+00	0	35	101	8388608	22	17384
2026-01-06 22:49:57.60	149.82	24.25	-20.8	-21.2	17.5	0.00e+00	0	35	101	8388608	22	17042
2026-01-06 22:49:58.61	150.10	24.08	-20.7	-21.1	17.5	0.00e+00	0	35	101	8388608	22	16922
2026-01-06 22:49:59.62	150.38	23.91	-20.6	-21.0	17.5	0.00e+00	0	35	101	8388608	22	16752
2026-01-06 22:50:00.63	150.66	23.74	-20.5	-20.9	17.5	0.00e+00	0	35	101	8388608	22	16591
2026-01-06 22:50:01.64	150.93	23.57	-20.5	-20.9	17.5	0.00e+00	0	35	101	8388608	22	16529
2026-01-06 22:50:02.65	151.20	23.40	-20.4	-20.9	17.5	0.00e+00	0	35	101	8388608	22	16447
2026-01-06 22:50:03.66	151.46	23.24	-20.3	-20.8	17.5	0.00e+00	0	35	101	8388608	22	16288
2026-01-06 22:50:04.67	151.73	23.07	-20.3	-20.7	17.5	0.00e+00	0	35	101	8388608	22	16134
2026-01-06 22:50:05.69	151.99	22.90	-20.2	-20.6	17.4	0.00e+00	0	35	101	8388608	22	15960
2026-01-06 22:50:06.70	152.24	22.74	-20.3	-20.7	17.5	0.00e+00	0	35	101	8388608	22	16139
2026-01-06 22:50:07.71	152.50	22.57	-20.2	-20.7	17.5	0.00e+00	0	35	101	8388608	22	16054
2026-01-06 22:50:08.72	152.75	22.41	-20.0	-20.4	17.5	0.00e+00	0	35	101	8388608	20	17587
2026-01-06 22:50:09.73	153.00	22.25	-20.1	-20.5	17.5	0.00e+00	0	35	101	8388608	20	17789
2026-01-06 22:50:10.74	153.24	22.09	-19.8	-20.2	17.5	0.00e+00	0	35	101	8388608	20	17063
2026-01-06 22:50:11.75	153.48	21.93	-19.8	-20.2	17.5	0.00e+00	0	35	101	8388608	20	17166
2026-01-06 22:50:12.76	153.72	21.77	-19.9	-20.3	17.5	0.00e+00	0	35	101	8388608	20	17328
2026-01-06 22:50:13.77	153.96	21.61	-19.5	-19.9	17.5	0.00e+00	0	35	101	8388608	20	16604
2026-01-06 22:50:14.78	154.20	21.45	-19.6	-20.0	17.5	0.00e+00	0	35	101	8388608	20	16777
2026-01-06 22:50:15.79	154.43	21.29	-19.5	-19.9	17.6	0.00e+00	0	35	101	8388608	20	16521
2026-01-06 22:50:16.80	154.66	21.13	-19.4	-19.8	17.6	0.00e+00	0	35	101	8388608	20	16313
2026-01-06 22:50:17.81	154.88	20.98	-19.5	-19.9	17.5	0.00e+00	0	35	101	8388608	20	16529
2026-01-06 22:50:18.82	155.11	20.82	-19.4	-19.8	17.5	0.00e+00	0	35	101	8388608	20	16367
2026-01-06 22:50:19.84	155.33	20.67	-19.3	-19.8	17.5	0.00e+00	0	35	101	8388608	20	16254
2026-01-06 22:50:20.85	155.55	20.51	-19.3	-19.7	17.6	0.00e+00	0	35	101	8388608	20	16116
2026-01-06 22:50:21.86	155.77	20.36	-19.2	-19.6	17.6	0.00e+00	0	35	101	8388608	20	15926
2026-01-06 22:50:22.86	155.98	20.21	-19.1	-19.5	17.6	0.00e+00	0	35	101	8388608	20	15867
2026-01-06 22:50:23.87	156.19	20.06	-19.1	-19.5	17.6	0.00e+00	0	35	101	8388608	20	15772
2026-01-06 22:50:24.88	156.40	19.91	-19.1	-19.6	17.6	0.00e+00	0	35	101	8388608	20	15892
2026-01-06 22:50:25.89	156.61	19.76	-19.0	-19.4	17.6	0.00e+00	0	35	101	8388608	18	17533
2026-01-06 22:50:26.89	156.81	19.61	-19.0	-19.4	17.6	0.00e+00	0	35	101	8388608	18	17513
2026-01-06 22:50:27.90	157.01	19.46	-18.9	-19.3	17.6	0.00e+00	0	35	101	8388608	18	17343
2026-01-06 22:50:28.91	157.21	19.31	-19.0	-19.4	17.7	0.00e+00	0	35	101	8388608	18	17581
2026-01-06 22:50:29.92	157.41	19.17	-18.8	-19.2	17.6	0.00e+00	0	35	101	8388608	18	17088
2026-01-06 22:50:30.93	157.61	19.02	-19.0	-19.4	17.6	0.00e+00	0	35	101	8388608	18	17446
2026-01-06 22:50:31.94	157.80	18.88	-18.7	-19.1	17.6	0.00e+00	0	35	101	8388608	18	16981
2026-01-06 22:50:32.95	158.00	18.73	-18.9	-19.3	17.6	0.00e+00	0	35	101	8388608	18	17387
2026-01-06 22:50:33.95	158.18	18.59	-18.7	-19.1	17.6	0.00e+00	0	35	101	8388608	18	16873
2026-01-06 22:50:34.96	158.37	18.45	-18.8	-19.2	17.6	0.00e+00	0	35	101	8388608	18	17170
2026-01-06 22:50:35.97	158.56	18.31	-18.8	-19.2	17.6	0.00e+00	0	35	101	8388608	18	17163
2026-01-06 22:50:36.97	158.74	18.17	-18.6	-19.0	17.6	0.00e+00	0	35	101	8388608	18	16699
2026-01-06 22:50:37.98	158.92	18.03	-18.6	-19.0	17.6	0.00e+00	0	35	101	8388608	18	16733
2026-01-06 22:50:38.99	159.10	17.89	-18.6	-19.0	17.6	0.00e+00	0	35	101	8388608	18	16686
2026-01-06 22:50:39.99	159.28	17.75	-18.5	-18.9	17.6	0.00e+00	0	35	101	8388608	18	16449
2026-01-06 22:50:41.00	159.46	17.61	-18.4	-18.8	17.6	0.00e+00	0	35	101	8388608	18	16415
2026-01-06 22:50:42.01	159.63	17.47	-18.4	-18.8	17.6	0.00e+00	0	35	101	8388608	18	16292
2026-01-06 22:50:43.02	159.81	17.34	-18.4	-18.8	17.6	0.00e+00	0	35	101	8388608	18	16377
2026-01-06 22:50:44.03	159.98	17.20	-18.4	-18.8	17.6	0.00e+00	0	35	101	8388608	18	16343
2026-01-06 22:50:45.03	160.15	17.07	-18.3	-18.7	17.6	0.00e+00	0	35	101	8388608	18	16066
2026-01-06 22:50:46.04	160.32	16.93	-18.2	-18.6	17.6	0.00e+00	0	35	101	8388608	18	15948
2026-01-06 22:50:47.05	160.48	16.80	-18.2	-18.6	17.6	0.00e+00	0	35	101	8388608	18	15893
2026-01-06 22:50:48.06	160.65	16.67	-18.1	-18.6	17.6	0.00e+00	0	35	101	8388608	18	15887
2026-01-06 22:50:49.06	160.81	16.54	-18.1	-18.5	17.6	0.00e+00	0	35	101	8388608	18	15720
2026-01-06 22:50:50.07	160.97	16.41	-18.0	-18.4	17.6	0.00e+00	0	35	101	8388608	16	17499
2026-01-06 22:50:51.08	161.13	16.27	-18.0	-18.4	17.5	0.00e+00	0	35	101	8388608	16	17544
2026-01-06 22:50:52.08	161.29	16.15	-18.0	-18.4	17.6	0.00e+00	0	35	101	8388608	16	17471
2026-01-06 22:50:53.09	161.44	16.02	-17.9	-18.3	17.6	0.00e+00	0	35	101	8388608	16	17221
2026-01-06 22:50:54.10	161.60	15.89	-17.8	-18.2	17.6	0.00e+00	0	35	101	8388608	16	17113
2026-01-06 22:50:55.11	161.75	15.76	-17.8	-18.2	17.5	0.00e+00	0	35	101	8388608	16	17058
2026-01-06 22:50:56.11	161.90	15.63	-17.7	-18.2	17.6	0.00e+00	0	35	101	8388608	16	17006
2026-01-06 22:50:57.12	162.06	15.51	-17.7	-18.2	17.6	0.00e+00	0	35	101	8388608	16	17014
2026-01-06 22:50:58.13	162.20	15.38	-17.7	-18.1	17.6	0.00e+00	0	35	101	8388608	16	16890
2026-01-06 22:50:59.14	162.35	15.26	-17.7	-18.1	17.6	0.00e+00	0	35	101	8388608	16	16889
2026-01-06 22:51:00.15	162.50	15.13	-17.7	-18.2	17.6	0.00e+00	0	35	101	8388608	16	17008
2026-01-06 22:51:01.16	162.64	15.01	-17.6	-18.0	17.6	0.00e+00	0	35	101	8388608	16	16766
2026-01-06 22:51:02.17	162.79	14.88	-17.7	-18.1	17.6	0.00e+00	0	35	101	8388608	16	16911
2026-01-06 22:51:03.18	162.93	14.76	-17.4	-17.9	17.5	0.00e+00	0	35	101	8388608	16	16456
2026-01-06 22:51:04.18	163.07	14.64	-17.5	-17.9	17.6	0.00e+00	0	35	101	8388608	16	16525
2026-01-06 22:51:05.19	163.21	14.52	-17.6	-18.0	17.6	0.00e+00	0	35	101	8388608	16	16661
2026-01-06 22:51:06.19	163.35	14.40	-17.4	-17.8	17.5	0.00e+00	0	35	101	8388608	16	16330
2026-01-06 22:51:07.20	163.49	14.28	-17.5	-17.9	17.5	0.00e+00	0	35	101	8388608	16	16550
2026-01-06 22:51:08.21	163.62	14.16	-17.4	-17.8	17.6	0.00e+00	0	35	101	8388608	16	16425
2026-01-06 22:51:09.21	163.76	14.04	-17.5	-17.9	17.5	0.00e+00	0	35	101	8388608	16	16525
2026-01-06 22:51:10.22	163.89	13.93	-17.4	-17.8	17.5	0.00e+00	0	35	101	8388608	16	16289
2026-01-06 22:51:11.23	164.02	13.81	-17.5	-17.9	17.5	0.00e+00	0	35	101	8388608	16	16496
2026-01-06 22:51:12.24	164.15	13.69	-17.4	-17.8	17.5	0.00e+00	0	35	101	8388608	16	16380
2026-01-06 22:51:13.25	164.28	13.57	-17.4	-17.9	17.5	0.00e+00	0	35	101	8388608	16	16438
2026-01-06 22:51:14.25	164.41	13.46	-17.5	-17.9	17.5	0.00e+00	0	35	101	8388608	16	16536
2026-01-06 22:51:15.26	164.54	13.34	-17.5	-17.9	17.4	0.00e+00	0	35	101	8388608	16	16602
2026-01-06 22:51:16.27	164.66	13.23	-17.5	-18.0	17.5	0.00e+00	0	35	101	8388608	16	16626
2026-01-06 22:51:17.27	164.79	13.12	-17.5	-17.9	17.5	0.00e+00	0	35	101	8388608	16	16448
2026-01-06 22:51:18.28	164.91	13.00	-17.5	-17.9	17.4	0.00e+00	0	35	101	8388608	16	16556
2026-01-06 22:51:19.29	165.04	12.89	-17.5	-17.9	17.4	0.00e+00	0	35	101	8388608	16	16528
2026-01-06 22:51:20.30	165.16	12.78	-17.6	-18.0	17.5	0.00e+00	0	35	101	8388608	16	16661
2026-01-06 22:51:21.31	165.28	12.67	-17.5	-17.9	17.5	0.00e+00	0	35	101	8388608	16	16533
2026-01-06 22:51:22.31	165.40	12.56	-17.5	-17.9	17.4	0.00e+00	0	35	101	8388608	16	16484
2026-01-06 22:51:23.32	165.52	12.45	-17.6	-18.0	17.4	0.00e+00	0	35	101	8388608	16	16690
2026-01-06 22:51:24.33	165.64	12.34	-17.6	-18.0	17.3	0.00e+00	0	35	101	8388608	16	16640
2026-01-06 22:51:25.34	165.75	12.23	-17.6	-18.0	17.4	0.00e+00	0	35	101	8388608	16	16795
2026-01-06 22:51:26.34	165.87	12.12	-17.7	-18.1	17.4	0.00e+00	0	35	101	8388608	16	16942
2026-01-06 22:51:27.35	165.98	12.01	-17.8	-18.2	17.3	0.00e+00	0	35	101	8388608	16	17134
2026-01-06 22:51:28.36	166.10	11.90	-17.6	-18.0	17.3	0.00e+00	0	35	101	8388608	16	16732
2026-01-06 22:51:29.37	166.21	11.80	-17.6	-18.0	17.4	0.00e+00	0	35	101	8388608	16	16765
2026-01-06 22:51:30.38	166.32	11.69	-17.6	-18.0	17.3	0.00e+00	0	35	101	8388608	16	16632
2026-01-06 22:51:31.39	166.43	11.58	-17.7	-18.1	17.4	0.00e+00	0	35	101	8388608	16	16952
2026-01-06 22:51:32.40	166.54	11.48	-17.5	-17.9	17.3	0.00e+00	0	35	101	8388608	16	16574
2026-01-06 22:51:33.40	166.65	11.37	-17.6	-18.0	17.4	0.00e+00	0	35	101	8388608	16	16676
2026-01-06 22:51:34.41	166.76	11.27	-17.5	-17.9	17.4	0.00e+00	0	35	101	8388608	16	16436
2026-01-06 22:51:35.42	166.87	11.17	-51.2	-53.8	6.1	0.00e+00	0	35	104	8388608	16	1031635
2026-01-06 22:51:36.42	166.97	11.06	-51.6	-54.1	6.1	0.00e+00	0	35	104	8388608	60	84886
2026-01-06 22:51:37.43	167.08	10.96	-51.5	-54.0	6.1	0.00e+00	0	35	104	8388608	60	83950
2026-01-06 22:51:38.44	167.18	10.86	-51.5	-54.1	6.1	0.00e+00	0	35	104	8388608	60	84288
2026-01-06 22:51:39.44	167.29	10.76	-51.6	-54.1	6.1	0.00e+00	0	35	104	8388608	60	84635
2026-01-06 22:51:40.45	167.39	10.66	-51.6	-54.0	6.1	0.00e+00	0	35	104	8388608	60	84248
2026-01-06 22:51:41.46	167.49	10.55	-51.6	-54.1	6.1	0.00e+00	0	35	104	8388608	60	84695
2026-01-06 22:51:42.47	167.60	10.45	-51.5	-54.0	6.1	0.00e+00	0	35	104	8388608	60	83528
2026-01-06 22:51:43.47	167.70	10.35	-51.5	-54.0	6.1	0.00e+00	0	35	104	8388608	60	83354
2026-01-06 22:51:44.48	167.80	10.25	-51.6	-54.1	6.1	0.00e+00	0	35	104	8388608	60	84256
2026-01-06 22:51:45.49	167.89	10.16	-51.6	-54.1	6.1	0.00e+00	0	35	104	8388608	60	84774
2026-01-06 22:51:46.49	167.99	10.06	-51.6	-54.1	6.1	0.00e+00	0	35	104	8388608	60	84823
2026-01-06 22:51:47.50	168.09	9.96	-51.6	-54.1	6.1	0.00e+00	0	35	104	8388608	60	85060
2026-01-06 22:51:48.51	168.19	9.86	-51.6	-54.0	6.1	0.00e+00	0	35	104	8388608	60	84182
2026-01-06 22:51:49.51	168.28	9.76	-51.6	-54.1	6.1	0.00e+00	0	35	104	8388608	60	85017
2026-01-06 22:51:50.52	168.38	9.67	-51.6	-54.1	6.1	0.00e+00	0	35	104	8388608	60	84886
2026-01-06 22:51:51.53	168.47	9.57	-51.6	-54.1	6.1	0.00e+00	0	35	104	8388608	60	84740
2026-01-06 22:51:52.54	168.57	9.47	-51.4	-53.9	6.1	0.00e+00	0	35	104	8388608	60	82909
2026-01-06 22:51:53.55	168.66	9.38	-51.5	-54.0	6.1	0.00e+00	0	35	104	8388608	60	83938
2026-01-06 22:51:54.56	168.75	9.28	-51.5	-54.0	6.1	0.00e+00	0	35	104	8388608	60	83931
2026-01-06 22:51:55.57	168.84	9.19	-51.5	-54.0	6.1	0.00e+00	0	35	104	8388608	60	83990
2026-01-06 22:51:56.58	168.93	9.09	-51.4	-53.9	6.1	0.00e+00	0	35	104	8388608	60	82898
2026-01-06 22:51:57.58	169.02	9.00	-51.5	-54.0	6.1	0.00e+00	0	35	104	8388608	60	83303
2026-01-06 22:51:58.59	169.11	8.91	-51.4	-53.9	6.1	0.00e+00	0	35	104	8388608	60	83265
2026-01-06 22:51:59.60	169.20	8.81	-51.5	-54.1	6.1	0.00e+00	0	35	104	8388608	60	84329
2026-01-06 22:52:00.61	169.29	8.72	-51.5	-54.0	6.1	0.00e+00	0	35	104	8388608	60	83737
2026-01-06 22:52:01.62	169.38	8.63	-51.6	-54.1	6.1	0.00e+00	0	35	104	8388608	60	84728
2026-01-06 22:52:02.63	169.47	8.54	-51.6	-54.1	6.1	0.00e+00	0	35	104	8388608	60	84607
2026-01-06 22:52:03.64	169.55	8.45	-51.5	-54.0	6.1	0.00e+00	0	35	104	8388608	60	83965
2026-01-06 22:52:04.65	169.64	8.36	-51.6	-54.0	6.1	0.00e+00	0	35	104	8388608	60	84229
2026-01-06 22:52:05.66	169.72	8.26	-51.6	-54.1	6.1	0.00e+00	0	35	104	8388608	60	84270
2026-01-06 22:52:06.66	169.81	8.17	-51.6	-54.1	6.1	0.00e+00	0	35	104	8388608	60	84436
2026-01-06 22:52:07.67	169.89	8.08	-51.6	-54.1	6.1	0.00e+00	0	35	104	8388608	60	84431
2026-01-06 22:52:08.68	169.97	8.00	-51.6	-54.1	6.1	0.00e+00	0	35	104	8388608	60	84276
2026-01-06 22:52:09.69	170.06	7.91	-51.6	-54.1	6.1	0.00e+00	0	35	104	8388608	60	84403
2026-01-06 22:52:10.69	170.14	7.82	-51.6	-54.0	6.1	0.00e+00	0	35	104	8388608	60	84182
2026-01-06 22:52:11.70	170.22	7.73	-51.6	-54.1	6.1	0.00e+00	0	35	104	8388608	60	84836
2026-01-06 22:52:12.71	170.30	7.64	-51.6	-54.1	6.1	0.00e+00	0	35	104	8388608	60	85064
2026-01-06 22:52:13.72	170.38	7.55	-51.6	-54.1	6.1	0.00e+00	0	35	104	8388608	60	84326
2026-01-06 22:52:14.73	170.46	7.47	-51.6	-54.0	6.1	0.00e+00	0	35	104	8388608	60	84114
2026-01-06 22:52:15.74	170.54	7.38	-51.6	-54.1	6.1	0.00e+00	0	35	104	8388608	60	84776
2026-01-06 22:52:16.75	170.62	7.29	-51.6	-54.1	6.1	0.00e+00	0	35	104	8388608	60	84475
2026-01-06 22:52:17.76	170.70	7.21	-51.6	-54.0	6.1	0.00e+00	0	35	104	8388608	60	84158
2026-01-06 22:52:18.76	170.77	7.12	-51.6	-54.0	6.1	0.00e+00	0	35	104	8388608	60	84160
2026-01-06 22:52:19.77	170.85	7.04	-51.6	-54.1	6.1	0.00e+00	0	35	104	8388608	60	84405
2026-01-06 22:52:20.78	170.93	6.95	-51.6	-54.1	6.1	0.00e+00	0	35	104	8388608	60	84317
2026-01-06 22:52:21.79	171.00	6.86	-51.6	-54.1	6.1	0.00e+00	0	35	104	8388608	60	84696
2026-01-06 22:52:22.80	171.08	6.78	-51.6	-54.0	6.1	0.00e+00	0	35	104	8388608	60	83948
2026-01-06 22:52:23.81	171.16	6.70	-51.6	-54.1	6.1	0.00e+00	0	35	104	8388608	60	84407
2026-01-06 22:52:24.81	171.23	6.61	-51.6	-54.0	6.0	0.00e+00	0	35	104	8388608	60	84173
2026-01-06 22:52:25.82	171.30	6.53	-51.6	-54.0	6.1	0.00e+00	0	35	104	8388608	60	84051
2026-01-06 22:52:26.83	171.38	6.45	-51.5	-54.0	6.1	0.00e+00	0	35	104	8388608	60	83994
2026-01-06 22:52:27.83	171.45	6.36	-51.6	-54.0	6.1	0.00e+00	0	35	104	8388608	60	84158
2026-01-06 22:52:28.84	171.52	6.28	-51.6	-54.1	6.1	0.00e+00	0	35	104	8388608	60	84360
2026-01-06 22:52:29.85	171.59	6.20	-51.6	-54.1	6.1	0.00e+00	0	35	104	8388608	60	84339
2026-01-06 22:52:30.86	171.66	6.12	-51.5	-54.0	6.1	0.00e+00	0	35	104	8388608	60	83918
2026-01-06 22:52:31.86	171.74	6.04	-51.6	-54.0	6.1	0.00e+00	0	35	104	8388608	60	83960
2026-01-06 22:52:32.87	171.81	5.95	-51.6	-54.0	6.1	0.00e+00	0	35	104	8388608	60	84110
2026-01-06 22:52:33.88	171.88	5.87	-51.5	-54.0	6.1	0.00e+00	0	35	104	8388608	60	83741
2026-01-06 22:52:34.89	171.95	5.79	-51.6	-54.0	6.1	0.00e+00	0	35	104	8388608	60	83737
2026-01-06 22:52:35.90	172.01	5.71	-51.5	-54.0	6.1	0.00e+00	0	35	104	8388608	60	83858
2026-01-06 22:52:36.91	172.08	5.63	-51.5	-54.0	6.1	0.00e+00	0	35	104	8388608	60	83699
2026-01-06 22:52:37.91	172.15	5.55	-51.5	-54.0	6.1	0.00e+00	0	35	104	8388608	60	83628
2026-01-06 22:52:38.92	172.22	5.47	-51.5	-53.9	6.1	0.00e+00	0	35	104	8388608	60	83208
2026-01-06 22:52:39.92	172.29	5.39	-51.5	-54.0	6.1	0.00e+00	0	35	104	8388608	60	83517
2026-01-06 22:52:40.93	172.35	5.32	-51.5	-54.0	6.1	0.00e+00	0	35	104	8388608	60	83911
2026-01-06 22:52:41.94	172.42	5.24	-51.5	-54.0	6.1	0.00e+00	0	35	104	8388608	60	83868
2026-01-06 22:52:42.95	172.49	5.16	-51.5	-54.0	6.1	0.00e+00	0	35	104	8388608	60	83994
2026-01-06 22:52:43.96	172.55	5.08	-51.5	-54.0	6.1	0.00e+00	0	35	104	8388608	60	83640
2026-01-06 22:52:44.96	172.62	5.00	-51.5	-53.9	6.1	0.00e+00	0	35	104	8388608	60	83161
2026-01-06 22:52:45.97	172.68	4.93	-51.5	-54.0	6.1	0.00e+00	0	35	104	8388608	60	83767
2026-01-06 22:52:46.98	172.75	4.85	-51.5	-54.0	6.1	0.00e+00	0	35	104	8388608	60	83757
2026-01-06 22:52:47.99	172.81	4.77	-51.5	-53.9	6.1	0.00e+00	0	35	104	8388608	60	83174
2026-01-06 22:52:49.00	172.87	4.69	-51.5	-54.0	6.1	0.00e+00	0	35	104	8388608	60	83693
2026-01-06 22:52:50.01	172.94	4.62	-51.5	-53.9	6.1	0.00e+00	0	35	104	8388608	60	82943
2026-01-06 22:52:51.01	173.00	4.54	-51.5	-54.0	6.1	0.00e+00	0	35	104	8388608	60	83429
2026-01-06 22:52:52.02	173.06	4.47	-51.5	-53.9	6.1	0.00e+00	0	35	104	8388608	60	83132
2026-01-06 22:52:53.03	173.12	4.39	-51.5	-54.0	6.1	0.00e+00	0	35	104	8388608	60	83539
2026-01-06 22:52:54.04	173.19	4.31	-51.5	-54.0	6.1	0.00e+00	0	35	104	8388608	60	83597
2026-01-06 22:52:55.05	173.25	4.24	-51.5	-54.0	6.1	0.00e+00	0	35	104	8388608	60	83809
2026-01-06 22:52:56.05	173.31	4.17	-51.5	-53.9	6.1	0.00e+00	0	35	104	8388608	60	83153
2026-01-06 22:52:57.06	173.37	4.09	-51.5	-54.0	6.1	0.00e+00	0	35	104	8388608	60	83516
2026-01-06 22:52:58.07	173.43	4.02	-51.5	-54.0	6.1	0.00e+00	0	35	104	8388608	60	83291
2026-01-06 22:52:59.08	173.49	3.94	-51.4	-53.9	6.1	0.00e+00	0	35	104	8388608	60	82845
2026-01-06 22:53:00.08	173.55	3.87	-51.4	-53.9	6.1	0.00e+00	0	35	104	8388608	60	82548
2026-01-06 22:53:01.09	173.61	3.79	-51.5	-54.0	6.1	0.00e+00	0	35	104	8388608	60	83458
2026-01-06 22:53:02.10	173.67	3.72	-51.5	-54.0	6.1	0.00e+00	0	35	104	8388608	60	83411
2026-01-06 22:53:03.10	173.72	3.65	-51.4	-53.9	6.1	0.00e+00	0	35	104	8388608	60	83049
2026-01-06 22:53:04.11	173.78	3.58	-51.3	-53.9	6.1	0.00e+00	0	35	104	8388608	60	82476
2026-01-06 22:53:05.12	173.84	3.50	-51.5	-53.9	6.1	0.00e+00	0	35	104	8388608	60	82805
2026-01-06 22:53:06.12	173.90	3.43	-51.5	-53.9	6.1	0.00e+00	0	35	104	8388608	60	83245
2026-01-06 22:53:07.13	173.95	3.36	-51.4	-53.9	6.1	0.00e+00	0	35	104	8388608	60	83137
2026-01-06 22:53:08.14	174.01	3.29	-51.4	-53.9	6.1	0.00e+00	0	35	104	8388608	60	82768
2026-01-06 22:53:09.14	174.07	3.22	-51.4	-53.9	6.1	0.00e+00	0	35	104	8388608	60	82832
2026-01-06 22:53:10.15	174.12	3.14	-51.4	-53.9	6.1	0.00e+00	0	35	104	8388608	60	82642
2026-01-06 22:53:11.16	174.18	3.07	-51.4	-53.9	6.1	0.00e+00	0	35	104	8388608	60	82346
2026-01-06 22:53:12.17	174.23	3.00	-51.4	-53.9	6.1	0.00e+00	0	35	104	8388608	60	82753
2026-01-06 22:53:13.18	174.29	2.93	-51.4	-53.9	6.1	0.00e+00	0	35	104	8388608	60	83121
2026-01-06 22:53:14.19	174.34	2.86	-51.4	-53.9	6.1	0.00e+00	0	35	104	8388608	60	82813
2026-01-06 22:53:15.19	174.40	2.79	-51.4	-53.9	6.1	0.00e+00	0	35	104	8388608	60	82453
2026-01-06 22:53:16.20	174.45	2.72	-51.4	-53.9	6.1	0.00e+00	0	35	104	8388608	60	82776
2026-01-06 22:53:17.21	174.51	2.65	-51.4	-53.9	6.1	0.00e+00	0	35	104	8388608	60	82631
2026-01-06 22:53:18.22	174.56	2.58	-51.4	-53.9	6.1	0.00e+00	0	35	104	8388608	60	82821
2026-01-06 22:53:19.23	174.61	2.51	-51.4	-53.9	6.1	0.00e+00	0	35	104	8388608	60	82459
2026-01-06 22:53:20.23	174.67	2.44	-51.4	-53.9	6.1	0.00e+00	0	35	104	8388608	60	82563
2026-01-06 22:53:21.24	174.72	2.37	-51.4	-53.9	6.1	0.00e+00	0	35	104	8388608	60	82486
2026-01-06 22:53:22.25	174.77	2.30	-51.3	-53.8	6.1	0.00e+00	0	35	104	8388608	60	82145
2026-01-06 22:53:23.26	174.82	2.23	-51.4	-53.9	6.1	0.00e+00	0	35	104	8388608	60	82495
2026-01-06 22:53:24.27	174.87	2.17	-51.4	-53.8	6.1	0.00e+00	0	35	104	8388608	60	82307
2026-01-06 22:53:25.27	174.93	2.10	-51.4	-53.9	6.1	0.00e+00	0	35	104	8388608	60	82336
2026-01-06 22:53:26.28	174.98	2.03	-51.4	-53.9	6.1	0.00e+00	0	35	104	8388608	60	82556
2026-01-06 22:53:27.29	175.03	1.96	-51.4	-53.8	6.1	0.00e+00	0	35	104	8388608	60	82182
2026-01-06 22:53:28.29	175.08	1.89	-51.3	-53.8	6.1	0.00e+00	0	35	104	8388608	60	81796
2026-01-06 22:53:29.30	175.13	1.83	-51.3	-53.7	6.1	0.00e+00	0	35	104	8388608	60	81219
2026-01-06 22:53:30.31	175.18	1.76	-51.3	-53.8	6.1	0.00e+00	0	35	104	8388608	60	81598
2026-01-06 22:53:31.32	175.23	1.69	-51.4	-53.8	6.1	0.00e+00	0	35	104	8388608	60	82316
2026-01-06 22:53:32.33	175.28	1.62	-51.4	-53.8	6.1	0.00e+00	0	35	104	8388608	60	82226
2026-01-06 22:53:33.33	175.33	1.56	-51.4	-53.9	6.1	0.00e+00	0	35	104	8388608	60	82549
2026-01-06 22:53:34.34	175.38	1.49	-51.4	-53.8	6.1	0.00e+00	0	35	104	8388608	60	82215
2026-01-06 22:53:35.35	175.43	1.43	-51.3	-53.8	6.1	0.00e+00	0	35	104	8388608	60	81985
2026-01-06 22:53:36.35	175.47	1.36	-51.3	-53.8	6.1	0.00e+00	0	35	104	8388608	60	81807
2026-01-06 22:53:37.36	175.52	1.29	-51.4	-53.9	6.1	0.00e+00	0	35	104	8388608	60	82789
2026-01-06 22:53:38.37	175.57	1.23	-51.3	-53.8	6.1	0.00e+00	0	35	104	8388608	60	81965
2026-01-06 22:53:39.37	175.62	1.16	-51.3	-53.8	6.1	0.00e+00	0	35	104	8388608	60	81917
2026-01-06 22:53:40.38	175.67	1.10	-51.3	-53.8	6.1	0.00e+00	0	35	104	8388608	60	82152
2026-01-06 22:53:41.39	175.71	1.03	-51.3	-53.8	6.1	0.00e+00	0	35	104	8388608	60	82091
2026-01-06 22:53:42.40	175.76	0.97	-51.3	-53.8	6.1	0.00e+00	0	35	104	8388608	60	81412
2026-01-06 22:53:43.40	175.81	0.90	-51.3	-53.8	6.1	0.00e+00	0	35	104	8388608	60	81587
2026-01-06 22:53:44.41	175.85	0.84	-51.3	-53.8	6.1	0.00e+00	0	35	104	8388608	60	81448
2026-01-06 22:53:45.42	175.90	0.77	-51.3	-53.8	6.1	0.00e+00	0	35	104	8388608	60	81415
2026-01-06 22:53:46.43	175.95	0.71	-51.3	-53.8	6.1	0.00e+00	0	35	104	8388608	60	81503
2026-01-06 22:53:47.44	175.99	0.64	-51.3	-53.8	6.1	0.00e+00	0	35	104	8388608	60	81830
2026-01-06 22:53:48.45	176.04	0.58	-51.2	-53.7	6.1	0.00e+00	0	35	104	8388608	60	81342
2026-01-06 22:53:49.45	176.08	0.52	-51.3	-53.8	6.1	0.00e+00	0	35	104	8388608	60	81957
2026-01-06 22:53:50.46	176.13	0.45	-51.2	-53.7	6.1	0.00e+00	0	35	104	8388608	60	80916
2026-01-06 22:53:51.47	176.17	0.39	-51.2	-53.7	6.1	0.00e+00	0	35	104	8388608	60	80922
2026-01-06 22:53:52.47	176.22	0.33	-51.2	-53.6	6.1	0.00e+00	0	35	104	8388608	60	80387
2026-01-06 22:53:53.48	176.26	0.26	-51.3	-53.8	6.1	0.00e+00	0	35	104	8388608	60	81659
2026-01-06 22:53:54.49	176.31	0.20	-51.3	-53.7	6.1	0.00e+00	0	35	104	8388608	60	81345
2026-01-06 22:53:55.50	176.35	0.14	-51.2	-53.7	6.1	0.00e+00	0	35	104	8388608	60	81141
2026-01-06 22:53:56.51	176.39	0.07	-51.2	-53.7	6.1	0.00e+00	0	35	104	8388608	60	81250
2026-01-06 22:53:57.52	176.44	0.01	-51.2	-53.7	6.1	0.00e+00	0	35	104	8388608	60	81182
2026-01-06 22:53:58.53	176.48	-0.05	-51.2	-53.7	6.1	0.00e+00	0	35	104	8388608	60	81147
2026-01-06 22:53:59.54	176.52	-0.11	-51.2	-53.7	6.1	0.00e+00	0	35	104	8388608	60	81043

#Closed at: 2026-01-06 22:54:00
#Recorded file [8 MB]: D:/lorett/data/35034_260107_014303.dat