passes_logs/2026/01/06/R4.6S_Anadyr_2ch/R4.6S_Anadyr_2ch__20260106_043426_AQUA_rec.log

#Pass ID: 20260106_043426_AQUA
#Satellite: AQUA
#Configuration: AQUA
#almurnet v.1.7.20251203
#Start time: 2026-01-06 04:34:29

#Version: 2.2.20231116
#Station: R4.6S_Anadyr_2ch
#Location: 177.4865 lon 64.73178 lat
#TLE: 1 27424U 02022A   25351.00450321  .00000925  00000+0  19503-3 0  9992
#TLE: 2 27424  98.4041 311.9529 0001248 113.7180 322.1616 14.61819266256652

#Time	Az	El	Level	Level2	SNR	BER	BlckErr	Temp	State	Recorded	gain1	gain2
2026-01-06 04:34:29.37	230.65	0.14	-51.4	-67.8	3.3	3.02e+01	0	31	0	0	60	126980
2026-01-06 04:34:30.38	230.75	0.18	-51.4	-69.2	3.5	3.02e+01	0	31	104	0	60	150549
2026-01-06 04:34:31.39	230.84	0.23	-51.4	-69.3	3.5	3.02e+01	0	31	104	0	60	150874
2026-01-06 04:34:32.40	230.94	0.28	-51.4	-69.3	3.5	3.02e+01	0	31	104	0	60	150669
2026-01-06 04:34:33.41	231.04	0.32	-51.4	-69.3	3.5	3.02e+01	0	31	104	0	60	151609
2026-01-06 04:34:34.42	231.14	0.37	-51.4	-69.3	3.5	3.02e+01	0	31	104	0	60	150780
2026-01-06 04:34:35.43	231.24	0.42	-51.4	-69.3	3.5	3.02e+01	0	31	104	0	60	150850
2026-01-06 04:34:36.44	231.34	0.46	-51.4	-69.3	3.5	3.02e+01	0	31	104	0	60	150804
2026-01-06 04:34:37.46	231.44	0.51	-51.4	-69.3	3.5	3.02e+01	0	31	104	0	60	150860
2026-01-06 04:34:38.47	231.54	0.56	-51.4	-69.3	3.5	3.02e+01	0	31	104	0	60	151077
2026-01-06 04:34:39.48	231.64	0.60	-51.4	-69.3	3.5	3.02e+01	0	31	104	0	60	151088
2026-01-06 04:34:40.49	231.74	0.65	-51.4	-69.3	3.5	3.02e+01	0	31	104	0	60	150595
2026-01-06 04:34:41.50	231.84	0.70	-51.4	-69.2	3.5	3.02e+01	0	31	104	0	60	150358
2026-01-06 04:34:42.51	231.94	0.74	-51.4	-69.2	3.5	3.02e+01	0	31	104	0	60	150032
2026-01-06 04:34:43.52	232.04	0.79	-51.4	-69.2	3.5	3.02e+01	0	31	104	0	60	150355
2026-01-06 04:34:44.53	232.14	0.84	-51.4	-69.2	3.5	3.02e+01	0	31	104	0	60	149749
2026-01-06 04:34:45.54	232.24	0.88	-51.4	-69.2	3.5	3.02e+01	0	31	104	0	60	150408
2026-01-06 04:34:46.55	232.34	0.93	-51.4	-69.3	3.5	3.02e+01	0	31	104	0	60	150721
2026-01-06 04:34:47.56	232.45	0.98	-51.4	-69.2	3.5	3.02e+01	0	31	104	0	60	150409
2026-01-06 04:34:48.57	232.55	1.03	-51.4	-69.2	3.5	3.02e+01	0	31	104	0	60	150405
2026-01-06 04:34:49.58	232.65	1.07	-51.4	-69.2	3.5	3.02e+01	0	31	104	0	60	150335
2026-01-06 04:34:50.60	232.76	1.12	-51.4	-69.3	3.5	3.02e+01	0	31	104	0	60	151253
2026-01-06 04:34:51.61	232.86	1.17	-51.4	-69.2	3.5	3.02e+01	0	31	104	0	60	150105
2026-01-06 04:34:52.62	232.97	1.21	-51.4	-69.2	3.5	3.02e+01	0	31	104	0	60	150000
2026-01-06 04:34:53.63	233.07	1.26	-51.4	-69.3	3.5	3.02e+01	0	31	104	0	60	150992
2026-01-06 04:34:54.64	233.18	1.31	-51.4	-69.3	3.5	3.02e+01	0	31	104	0	60	150680
2026-01-06 04:34:55.65	233.28	1.36	-51.4	-69.2	3.5	3.02e+01	0	31	104	0	60	150068
2026-01-06 04:34:56.66	233.39	1.40	-51.4	-69.2	3.5	3.02e+01	0	31	104	0	60	150214
2026-01-06 04:34:57.67	233.49	1.45	-51.4	-69.3	3.5	3.02e+01	0	31	104	0	60	150980
2026-01-06 04:34:58.69	233.60	1.50	-51.4	-69.2	3.5	3.02e+01	0	31	104	0	60	150366
2026-01-06 04:34:59.69	233.71	1.54	-51.4	-69.3	3.5	3.02e+01	0	31	104	0	60	151148
2026-01-06 04:35:00.70	233.81	1.59	-51.4	-69.3	3.5	3.02e+01	0	31	104	0	60	150648
2026-01-06 04:35:01.72	233.92	1.64	-51.4	-69.3	3.5	3.02e+01	0	31	104	0	60	150703
2026-01-06 04:35:02.73	234.03	1.69	-51.4	-69.3	3.5	3.02e+01	0	31	104	0	60	151257
2026-01-06 04:35:03.74	234.14	1.73	-51.4	-69.3	3.5	3.02e+01	0	31	104	0	60	151022
2026-01-06 04:35:04.75	234.25	1.78	-51.4	-69.2	3.5	3.02e+01	0	31	104	0	60	150518
2026-01-06 04:35:05.76	234.36	1.83	-51.4	-69.3	3.5	3.02e+01	0	31	104	0	60	150655
2026-01-06 04:35:06.77	234.47	1.87	-51.4	-69.3	3.5	3.02e+01	0	31	104	0	60	150629
2026-01-06 04:35:07.78	234.58	1.92	-51.4	-69.3	3.5	3.02e+01	0	31	104	0	60	150654
2026-01-06 04:35:08.79	234.69	1.97	-51.4	-69.2	3.5	3.02e+01	0	31	104	0	60	150342
2026-01-06 04:35:09.80	234.80	2.02	-51.4	-69.2	3.5	3.02e+01	0	31	104	0	60	150509
2026-01-06 04:35:10.81	234.91	2.06	-51.4	-69.2	3.5	3.02e+01	0	31	104	0	60	150581
2026-01-06 04:35:11.82	235.02	2.11	-51.4	-69.2	3.5	3.02e+01	0	31	104	0	60	150109
2026-01-06 04:35:12.83	235.13	2.16	-51.4	-69.3	3.5	3.02e+01	0	31	104	0	60	150843
2026-01-06 04:35:13.84	235.24	2.20	-51.4	-69.3	3.5	3.02e+01	0	31	104	0	60	151205
2026-01-06 04:35:14.85	235.36	2.25	-51.4	-69.3	3.5	3.02e+01	0	31	104	0	60	150733
2026-01-06 04:35:15.87	235.47	2.30	-51.4	-69.3	3.5	3.02e+01	0	31	104	0	60	150642
2026-01-06 04:35:16.88	235.58	2.35	-51.4	-69.2	3.5	3.02e+01	0	31	104	0	60	150441
2026-01-06 04:35:17.89	235.70	2.39	-51.4	-69.2	3.5	3.02e+01	0	31	104	0	60	149612
2026-01-06 04:35:18.90	235.81	2.44	-51.4	-69.2	3.5	3.02e+01	0	31	104	0	60	149753
2026-01-06 04:35:19.91	235.92	2.49	-51.4	-69.3	3.5	3.02e+01	0	31	104	0	60	150986
2026-01-06 04:35:20.92	236.04	2.54	-51.4	-69.3	3.5	3.02e+01	0	31	104	0	60	151477
2026-01-06 04:35:21.93	236.15	2.58	-51.1	-69.4	3.5	3.02e+01	0	31	104	0	60	152944
2026-01-06 04:35:22.95	236.27	2.63	-51.0	-69.5	3.5	3.02e+01	0	31	104	0	60	154728
2026-01-06 04:35:23.96	236.39	2.68	-51.6	-69.5	3.5	3.02e+01	0	31	104	0	60	154426
2026-01-06 04:35:24.97	236.50	2.72	-51.4	-69.5	3.5	3.02e+01	0	31	104	0	60	155291
2026-01-06 04:35:25.98	236.62	2.77	-50.9	-69.5	3.5	3.02e+01	0	31	104	0	60	154631
2026-01-06 04:35:26.99	236.74	2.82	-51.4	-69.5	3.5	3.02e+01	0	31	104	0	60	154733
2026-01-06 04:35:28.00	236.85	2.87	-51.5	-69.5	3.5	3.02e+01	0	31	104	0	60	155243
2026-01-06 04:35:29.01	236.97	2.91	-51.6	-69.5	3.5	3.02e+01	0	31	104	0	60	155064
2026-01-06 04:35:30.02	237.09	2.96	-51.6	-69.5	3.5	3.02e+01	0	31	104	0	60	155246
2026-01-06 04:35:31.04	237.21	3.01	-51.6	-69.5	3.5	3.02e+01	0	31	104	0	60	155599
2026-01-06 04:35:32.05	237.33	3.06	-51.6	-69.5	3.5	3.02e+01	0	31	104	0	60	155814
2026-01-06 04:35:33.06	237.45	3.10	-51.6	-69.5	3.5	3.02e+01	0	31	104	0	60	154915
2026-01-06 04:35:34.07	237.57	3.15	-51.5	-69.5	3.5	3.02e+01	0	31	104	0	60	154170
2026-01-06 04:35:35.08	237.69	3.20	-51.4	-69.4	3.5	3.02e+01	0	31	104	0	60	152463
2026-01-06 04:35:36.09	237.81	3.24	-51.1	-69.1	3.5	3.02e+01	0	31	104	0	60	148151
2026-01-06 04:35:37.10	237.93	3.29	-50.6	-68.7	3.5	3.02e+01	0	31	104	0	60	141047
2026-01-06 04:35:38.11	238.05	3.34	-49.1	-68.0	3.5	3.02e+01	0	32	104	0	60	130092
2026-01-06 04:35:39.12	238.17	3.39	-48.6	-67.3	3.5	3.02e+01	0	31	104	0	60	120579
2026-01-06 04:35:40.13	238.29	3.43	-48.6	-67.3	3.5	3.02e+01	0	32	104	0	60	120480
2026-01-06 04:35:41.15	238.42	3.48	-48.6	-67.3	3.5	3.02e+01	0	31	104	0	60	120750
2026-01-06 04:35:42.16	238.54	3.53	-48.6	-67.3	3.5	3.02e+01	0	32	104	0	60	120822
2026-01-06 04:35:43.17	238.67	3.57	-48.6	-67.3	3.5	3.02e+01	0	32	104	0	60	120290
2026-01-06 04:35:44.18	238.79	3.62	-48.6	-67.3	3.5	3.02e+01	0	32	104	0	60	120622
2026-01-06 04:35:45.19	238.91	3.67	-48.6	-67.3	3.5	3.02e+01	0	32	104	0	60	120453
2026-01-06 04:35:46.20	239.04	3.72	-48.6	-67.3	3.5	3.02e+01	0	32	104	0	60	120266
2026-01-06 04:35:47.21	239.16	3.76	-48.6	-67.3	3.5	3.02e+01	0	32	104	0	60	120074
2026-01-06 04:35:48.22	239.29	3.81	-48.6	-67.3	3.5	3.02e+01	0	32	104	0	60	120029
2026-01-06 04:35:49.23	239.41	3.86	-48.6	-67.3	3.5	3.02e+01	0	32	104	0	60	120417
2026-01-06 04:35:50.24	239.54	3.90	-48.6	-67.3	3.5	3.02e+01	0	32	104	0	60	120116
2026-01-06 04:35:51.26	239.67	3.95	-48.6	-67.3	3.5	3.02e+01	0	32	104	0	60	120474
2026-01-06 04:35:52.27	239.80	4.00	-48.6	-67.3	3.5	3.02e+01	0	32	104	0	60	120146
2026-01-06 04:35:53.28	239.92	4.05	-48.6	-67.3	3.5	3.02e+01	0	32	104	0	60	120715
2026-01-06 04:35:54.29	240.05	4.09	-48.6	-67.3	3.5	3.02e+01	0	32	104	0	60	120197
2026-01-06 04:35:55.30	240.18	4.14	-48.6	-67.3	3.5	3.02e+01	0	32	104	0	60	120447
2026-01-06 04:35:56.31	240.31	4.19	-48.6	-67.3	3.5	3.02e+01	0	32	104	0	60	120231
2026-01-06 04:35:57.32	240.44	4.23	-48.6	-67.3	3.5	3.02e+01	0	32	104	0	60	120492
2026-01-06 04:35:58.33	240.57	4.28	-48.6	-67.3	3.5	3.02e+01	0	32	104	0	60	120280
2026-01-06 04:35:59.34	240.70	4.33	-48.6	-67.3	3.4	3.02e+01	0	32	104	0	60	120070
2026-01-06 04:36:00.35	240.83	4.37	-48.6	-67.3	3.5	3.02e+01	0	32	104	0	60	120115
2026-01-06 04:36:01.37	240.96	4.42	-48.6	-67.3	3.5	3.02e+01	0	32	104	0	60	119841
2026-01-06 04:36:02.38	241.10	4.47	-48.6	-67.3	3.5	3.02e+01	0	32	104	0	60	120113
2026-01-06 04:36:03.39	241.23	4.51	-48.6	-67.4	3.5	3.02e+01	0	32	104	0	60	121001
2026-01-06 04:36:04.40	241.36	4.56	-48.6	-67.3	3.5	3.02e+01	0	32	104	0	60	120051
2026-01-06 04:36:05.41	241.49	4.61	-48.6	-67.3	3.5	3.02e+01	0	32	104	0	60	120129
2026-01-06 04:36:06.42	241.63	4.65	-48.6	-67.3	3.5	3.02e+01	0	32	104	0	60	119666
2026-01-06 04:36:07.43	241.76	4.70	-48.6	-67.3	3.5	3.02e+01	0	32	104	0	60	119928
2026-01-06 04:36:08.44	241.89	4.75	-48.6	-67.3	3.5	3.02e+01	0	32	104	0	60	119986
2026-01-06 04:36:09.45	242.03	4.79	-48.6	-67.3	3.5	3.02e+01	0	32	104	0	60	120544
2026-01-06 04:36:10.46	242.17	4.84	-48.6	-67.3	3.5	3.02e+01	0	32	104	0	60	120787
2026-01-06 04:36:11.47	242.30	4.89	-48.6	-67.2	3.5	3.02e+01	0	32	104	0	60	119411
2026-01-06 04:36:12.48	242.44	4.93	-48.6	-67.2	3.5	3.02e+01	0	32	104	0	60	119490
2026-01-06 04:36:13.50	242.58	4.98	-48.6	-67.3	3.5	3.02e+01	0	32	104	0	60	120267
2026-01-06 04:36:14.51	242.71	5.03	-48.6	-67.3	3.5	3.02e+01	0	32	104	0	60	120459
2026-01-06 04:36:15.52	242.85	5.07	-48.6	-67.3	3.5	3.02e+01	0	32	104	0	60	120171
2026-01-06 04:36:16.53	242.99	5.12	-48.6	-67.3	3.5	3.02e+01	0	32	104	0	60	119959
2026-01-06 04:36:17.54	243.13	5.17	-48.6	-67.3	3.5	3.02e+01	0	32	104	0	60	120652
2026-01-06 04:36:18.55	243.27	5.21	-48.6	-67.3	3.5	3.02e+01	0	32	104	0	60	120413
2026-01-06 04:36:19.56	243.40	5.26	-48.6	-67.3	3.5	3.02e+01	0	32	104	0	60	120769
2026-01-06 04:36:20.57	243.54	5.31	-48.6	-67.3	3.5	3.02e+01	0	32	104	0	60	119897
2026-01-06 04:36:21.58	243.68	5.35	-48.6	-67.3	3.5	3.02e+01	0	32	104	0	60	119889
2026-01-06 04:36:22.59	243.83	5.40	-48.6	-67.3	3.5	3.02e+01	0	32	104	0	60	120315
2026-01-06 04:36:23.60	243.97	5.44	-48.6	-67.2	3.5	3.02e+01	0	32	104	0	60	118939
2026-01-06 04:36:24.62	244.11	5.49	-48.6	-67.1	3.5	3.02e+01	0	32	104	0	60	117863
2026-01-06 04:36:25.63	244.25	5.54	-48.6	-67.0	3.5	3.02e+01	0	32	104	0	60	116319
2026-01-06 04:36:26.64	244.40	5.58	-48.6	-66.9	3.5	3.02e+01	0	32	104	0	60	115533
2026-01-06 04:36:27.65	244.54	5.63	-49.1	-66.8	3.5	3.02e+01	0	32	104	0	60	113807
2026-01-06 04:36:28.66	244.68	5.67	-48.6	-65.5	3.5	3.02e+01	0	32	104	0	60	97933
2026-01-06 04:36:29.67	244.83	5.72	-48.2	-66.7	3.5	3.02e+01	0	32	104	0	60	111908
2026-01-06 04:36:30.68	244.97	5.76	-48.3	-66.9	3.5	3.02e+01	0	32	104	0	60	114676
2026-01-06 04:36:31.69	245.12	5.81	-47.9	-65.0	3.5	3.02e+01	0	32	104	0	60	92276
2026-01-06 04:36:32.70	245.26	5.86	-49.0	-64.9	3.6	3.02e+01	0	32	104	0	60	91604
2026-01-06 04:36:33.71	245.41	5.90	-48.9	-64.6	3.9	3.02e+01	0	32	104	0	60	87782
2026-01-06 04:36:34.73	245.56	5.95	-48.9	-63.6	3.7	3.02e+01	0	32	104	0	60	78628
2026-01-06 04:36:35.74	245.70	5.99	-49.0	-62.7	4.9	3.02e+01	0	32	104	0	60	70685
2026-01-06 04:36:36.75	245.85	6.04	-49.1	-60.9	5.5	3.02e+01	41	32	0	0	60	57525
2026-01-06 04:36:37.76	246.00	6.08	-49.2	-61.7	5.6	3.02e+01	47	32	104	0	60	62850
2026-01-06 04:36:38.77	246.15	6.13	-49.0	-60.4	5.8	3.02e+01	92	32	0	0	60	54574
2026-01-06 04:36:39.78	246.29	6.17	-48.9	-61.5	3.9	3.02e+01	0	32	104	524288	60	61880
2026-01-06 04:36:40.79	246.44	6.22	-48.8	-61.1	5.6	3.02e+01	92	32	0	524288	60	58748
2026-01-06 04:36:41.80	246.59	6.26	-48.8	-59.8	6.4	3.02e+01	91	32	0	524288	60	50623
2026-01-06 04:36:42.81	246.74	6.31	-48.9	-59.4	6.8	3.02e+01	91	32	0	524288	60	48402
2026-01-06 04:36:43.82	246.90	6.35	-48.9	-58.5	7.7	3.02e+01	92	32	0	524288	60	43516
2026-01-06 04:36:44.83	247.05	6.40	-49.0	-58.1	8.4	3.02e+01	91	32	0	524288	60	41480
2026-01-06 04:36:45.84	247.20	6.44	-48.9	-57.4	9.0	3.02e+01	92	32	0	524288	60	38336
2026-01-06 04:36:46.86	247.35	6.49	-48.9	-57.3	9.5	3.02e+01	90	32	0	524288	60	37828
2026-01-06 04:36:47.87	247.51	6.53	-48.4	-56.5	9.8	3.02e+01	87	32	0	524288	60	34693
2026-01-06 04:36:48.88	247.66	6.58	-48.1	-56.8	9.9	3.02e+01	92	32	0	524288	60	35880
2026-01-06 04:36:49.89	247.81	6.62	-47.9	-56.2	10.6	3.02e+01	90	32	101	524288	60	33394
2026-01-06 04:36:50.90	247.97	6.67	-47.8	-55.0	11.9	3.02e+01	90	32	101	524288	60	29181
2026-01-06 04:36:51.91	248.12	6.71	-47.8	-54.3	12.8	3.02e+01	91	32	101	524288	60	26812
2026-01-06 04:36:52.92	248.28	6.75	-47.6	-53.3	14.0	3.02e+01	92	32	101	524288	60	23946
2026-01-06 04:36:53.93	248.43	6.80	-47.6	-53.0	14.0	3.02e+01	91	32	101	524288	60	23193
2026-01-06 04:36:54.94	248.59	6.84	-47.5	-52.8	14.4	3.02e+01	91	32	101	524288	60	22593
2026-01-06 04:36:55.95	248.75	6.89	-47.3	-52.2	15.0	3.02e+01	91	32	101	524288	60	21102
2026-01-06 04:36:56.97	248.90	6.93	-47.1	-51.5	15.7	3.02e+01	91	32	101	524288	60	19544
2026-01-06 04:36:57.98	249.06	6.97	-47.1	-51.3	16.1	3.02e+01	92	32	101	524288	60	19079
2026-01-06 04:36:58.99	249.22	7.02	-47.0	-51.0	16.4	3.02e+01	90	32	101	524288	60	18343
2026-01-06 04:37:00.00	249.38	7.06	-46.8	-50.8	16.5	3.02e+01	89	32	101	524288	60	17979
2026-01-06 04:37:01.01	249.54	7.10	-46.6	-50.4	17.0	3.02e+01	89	32	101	524288	60	17173
2026-01-06 04:37:02.02	249.70	7.15	-46.7	-50.4	17.1	3.02e+01	90	32	101	524288	60	17261
2026-01-06 04:37:03.03	249.86	7.19	-46.6	-50.0	17.6	3.02e+01	92	32	101	524288	60	16362
2026-01-06 04:37:04.04	250.02	7.23	-46.5	-49.8	17.7	3.02e+01	90	32	101	524288	60	16049
2026-01-06 04:37:05.05	250.18	7.28	-46.3	-49.6	18.0	3.02e+01	91	32	101	524288	60	15643
2026-01-06 04:37:06.06	250.34	7.32	-46.2	-49.5	18.0	3.02e+01	92	32	101	524288	60	15519
2026-01-06 04:37:07.07	250.50	7.36	-45.8	-49.0	18.6	3.02e+01	92	32	101	524288	60	14553
2026-01-06 04:37:08.08	250.67	7.41	-45.5	-48.6	19.0	3.02e+01	92	32	101	524288	60	14003
2026-01-06 04:37:09.09	250.83	7.45	-45.0	-47.8	19.8	3.02e+01	92	32	101	524288	60	12815
2026-01-06 04:37:10.10	250.99	7.49	-44.8	-47.5	20.2	3.02e+01	86	32	101	524288	60	12254
2026-01-06 04:37:11.11	251.16	7.53	-44.4	-46.9	20.7	3.02e+01	92	32	101	524288	60	11546
2026-01-06 04:37:12.12	251.32	7.58	-44.6	-47.0	20.7	3.02e+01	92	32	101	524288	60	11619
2026-01-06 04:37:13.13	251.49	7.62	-44.3	-46.6	21.1	3.02e+01	92	32	101	524288	60	11043
2026-01-06 04:37:14.15	251.66	7.66	-44.3	-46.5	21.2	3.02e+01	92	32	101	524288	60	10949
2026-01-06 04:37:15.16	251.82	7.70	-44.1	-46.2	21.5	3.02e+01	92	32	101	524288	60	10620
2026-01-06 04:37:16.17	251.99	7.74	-43.9	-46.0	21.7	3.02e+01	92	32	101	524288	60	10348
2026-01-06 04:37:17.18	252.16	7.79	-44.0	-46.1	21.6	3.02e+01	92	32	101	524288	60	10428
2026-01-06 04:37:18.19	252.32	7.83	-43.5	-45.5	22.2	3.02e+01	90	32	101	524288	60	9818
2026-01-06 04:37:19.20	252.49	7.87	-43.4	-45.4	22.3	3.02e+01	92	32	101	524288	60	9657
2026-01-06 04:37:20.21	252.66	7.91	-43.4	-45.3	22.4	3.02e+01	92	32	101	524288	60	9553
2026-01-06 04:37:21.22	252.83	7.95	-43.2	-45.1	22.6	3.02e+01	91	32	101	524288	60	9392
2026-01-06 04:37:22.23	253.00	7.99	-43.1	-44.9	22.8	3.02e+01	90	32	101	524288	60	9164
2026-01-06 04:37:23.25	253.17	8.03	-43.0	-44.8	23.0	3.02e+01	92	32	101	524288	60	9046
2026-01-06 04:37:24.26	253.34	8.07	-43.0	-44.8	23.0	3.02e+01	92	32	101	524288	60	9029
2026-01-06 04:37:25.27	253.51	8.12	-42.8	-44.6	23.3	3.02e+01	90	32	101	524288	60	8796
2026-01-06 04:37:26.28	253.69	8.16	-42.7	-44.5	23.3	3.02e+01	92	32	101	524288	60	8699
2026-01-06 04:37:27.29	253.86	8.20	-42.6	-44.4	23.3	3.02e+01	92	32	101	524288	60	8639
2026-01-06 04:37:28.30	254.03	8.24	-42.2	-43.9	23.9	3.02e+01	92	32	101	524288	60	8112
2026-01-06 04:37:29.31	254.20	8.28	-42.0	-43.6	24.1	3.02e+01	91	32	101	524288	60	7900
2026-01-06 04:37:30.32	254.38	8.32	-41.9	-43.5	24.3	3.02e+01	90	32	101	524288	60	7808
2026-01-06 04:37:31.33	254.55	8.36	-41.6	-43.2	24.6	3.02e+01	92	32	101	524288	60	7497
2026-01-06 04:37:32.34	254.73	8.40	-41.3	-42.9	25.0	3.02e+01	92	32	101	524288	60	7216
2026-01-06 04:37:33.35	254.90	8.44	-41.3	-42.8	25.0	3.02e+01	92	32	101	524288	60	7188
2026-01-06 04:37:34.36	255.08	8.48	-41.2	-42.7	25.2	3.02e+01	89	32	101	524288	60	7121
2026-01-06 04:37:35.37	255.26	8.51	-41.2	-42.8	25.2	3.02e+01	92	32	101	524288	60	7127
2026-01-06 04:37:36.38	255.43	8.55	-41.0	-42.5	25.4	3.02e+01	92	32	101	524288	60	6958
2026-01-06 04:37:37.39	255.61	8.59	-40.9	-42.4	25.5	3.02e+01	92	32	101	524288	60	6831
2026-01-06 04:37:38.40	255.79	8.63	-40.9	-42.4	25.6	3.02e+01	92	32	101	524288	60	6828
2026-01-06 04:37:39.41	255.97	8.67	-40.9	-42.3	25.6	3.02e+01	90	32	101	524288	60	6775
2026-01-06 04:37:40.42	256.14	8.71	-40.7	-42.1	25.8	3.02e+01	91	32	101	524288	60	6637
2026-01-06 04:37:41.44	256.33	8.75	-40.6	-42.0	25.9	3.02e+01	91	32	101	524288	60	6569
2026-01-06 04:37:42.45	256.50	8.79	-40.3	-41.7	26.2	3.02e+01	92	32	101	524288	60	6310
2026-01-06 04:37:43.46	256.69	8.82	-40.3	-41.7	26.2	3.02e+01	91	32	101	524288	60	6346
2026-01-06 04:37:44.47	256.87	8.86	-40.3	-41.7	26.2	3.02e+01	92	32	101	524288	60	6322
2026-01-06 04:37:45.48	257.05	8.90	-40.1	-41.5	26.4	3.02e+01	92	32	101	524288	60	6174
2026-01-06 04:37:46.49	257.23	8.94	-40.1	-41.5	26.5	3.02e+01	91	32	101	524288	60	6157
2026-01-06 04:37:47.50	257.41	8.97	-40.1	-41.4	26.5	3.02e+01	91	32	101	524288	60	6126
2026-01-06 04:37:48.51	257.59	9.01	-39.9	-41.3	26.6	3.02e+01	91	32	101	524288	60	6043
2026-01-06 04:37:49.52	257.78	9.05	-40.1	-41.5	26.5	3.02e+01	91	32	101	524288	60	6177
2026-01-06 04:37:50.53	257.96	9.08	-40.0	-41.4	26.6	3.02e+01	92	32	101	524288	60	6093
2026-01-06 04:37:51.54	258.14	9.12	-40.0	-41.4	26.5	3.02e+01	92	32	101	524288	60	6091
2026-01-06 04:37:52.55	258.33	9.16	-40.0	-41.4	26.6	3.02e+01	90	32	101	524288	60	6086
2026-01-06 04:37:53.56	258.51	9.19	-39.9	-41.2	26.8	3.02e+01	92	32	101	524288	60	5985
2026-01-06 04:37:54.57	258.70	9.23	-39.7	-41.0	26.9	3.02e+01	91	32	101	524288	60	5845
2026-01-06 04:37:55.58	258.89	9.27	-39.8	-41.1	26.9	3.02e+01	92	32	101	524288	60	5907
2026-01-06 04:37:56.60	259.07	9.30	-39.7	-41.0	26.9	3.02e+01	90	32	101	524288	60	5848
2026-01-06 04:37:57.61	259.26	9.34	-39.8	-41.2	26.8	3.02e+01	91	32	101	524288	60	5928
2026-01-06 04:37:58.62	259.45	9.37	-39.7	-41.0	26.9	3.02e+01	90	32	101	524288	60	5846
2026-01-06 04:37:59.63	259.64	9.41	-39.7	-41.0	27.0	3.02e+01	92	32	101	524288	60	5830
2026-01-06 04:38:00.64	259.83	9.44	-39.5	-40.9	27.1	3.02e+01	92	32	101	524288	60	5740
2026-01-06 04:38:01.65	260.01	9.48	-39.6	-40.9	27.1	3.02e+01	92	32	101	524288	60	5760
2026-01-06 04:38:02.66	260.20	9.51	-39.4	-40.8	27.2	3.02e+01	92	32	101	524288	60	5678
2026-01-06 04:38:03.67	260.39	9.55	-39.6	-40.9	27.2	3.02e+01	92	32	101	524288	60	5781
2026-01-06 04:38:04.68	260.58	9.58	-39.4	-40.7	27.2	3.02e+01	90	32	101	524288	60	5642
2026-01-06 04:38:05.69	260.77	9.61	-39.6	-40.9	27.1	3.02e+01	90	32	101	524288	60	5775
2026-01-06 04:38:06.70	260.97	9.65	-39.5	-40.9	27.2	3.02e+01	92	32	101	524288	60	5731
2026-01-06 04:38:07.72	261.16	9.68	-39.5	-40.8	27.1	3.02e+01	90	32	101	524288	60	5707
2026-01-06 04:38:08.73	261.35	9.71	-39.3	-40.7	27.3	3.02e+01	91	32	101	524288	58	6283
2026-01-06 04:38:09.74	261.54	9.75	-39.4	-40.7	27.3	3.02e+01	90	32	101	524288	58	6322
2026-01-06 04:38:10.75	261.74	9.78	-39.3	-40.6	27.3	3.02e+01	92	32	101	524288	58	6264
2026-01-06 04:38:11.76	261.93	9.81	-39.3	-40.6	27.4	3.02e+01	92	32	101	524288	58	6259
2026-01-06 04:38:12.77	262.12	9.84	-39.5	-40.8	27.1	3.02e+01	92	32	101	524288	58	6372
2026-01-06 04:38:13.78	262.32	9.88	-39.4	-40.7	27.2	3.02e+01	92	32	101	524288	58	6338
2026-01-06 04:38:14.79	262.51	9.91	-39.4	-40.7	27.2	3.02e+01	92	32	101	524288	58	6335
2026-01-06 04:38:15.81	262.71	9.94	-39.2	-40.5	27.5	3.02e+01	92	32	101	524288	58	6159
2026-01-06 04:38:16.82	262.91	9.97	-39.2	-40.6	27.4	3.02e+01	90	32	101	524288	58	6214
2026-01-06 04:38:17.83	263.10	10.00	-39.3	-40.6	27.3	3.02e+01	92	32	101	524288	58	6269
2026-01-06 04:38:18.84	263.30	10.03	-39.4	-40.7	27.2	3.02e+01	92	32	101	524288	58	6347
2026-01-06 04:38:19.85	263.50	10.06	-39.5	-40.8	27.1	3.02e+01	92	32	101	524288	58	6398
2026-01-06 04:38:20.86	263.69	10.09	-39.1	-40.4	27.5	3.02e+01	89	32	101	524288	58	6105
2026-01-06 04:38:21.87	263.89	10.12	-39.0	-40.3	27.6	3.02e+01	90	32	101	524288	58	6048
2026-01-06 04:38:22.88	264.09	10.15	-39.0	-40.3	27.6	3.02e+01	92	32	101	524288	58	6064
2026-01-06 04:38:23.89	264.29	10.18	-39.3	-40.6	27.4	3.02e+01	91	32	101	524288	58	6226
2026-01-06 04:38:24.90	264.49	10.21	-39.1	-40.4	27.6	3.02e+01	90	32	101	524288	58	6117
2026-01-06 04:38:25.91	264.69	10.24	-39.1	-40.4	27.5	3.02e+01	92	32	101	524288	58	6133
2026-01-06 04:38:26.92	264.89	10.27	-39.2	-40.5	27.4	3.02e+01	90	32	101	524288	58	6175
2026-01-06 04:38:27.93	265.09	10.30	-39.1	-40.4	27.6	3.02e+01	91	32	101	524288	58	6091
2026-01-06 04:38:28.95	265.29	10.33	-39.1	-40.4	27.6	3.02e+01	92	32	101	524288	58	6068
2026-01-06 04:38:29.96	265.49	10.36	-38.9	-40.2	27.8	3.02e+01	92	32	101	524288	58	5961
2026-01-06 04:38:30.97	265.69	10.38	-38.9	-40.2	27.7	3.02e+01	90	32	101	524288	58	5951
2026-01-06 04:38:31.98	265.90	10.41	-39.0	-40.3	27.6	3.02e+01	92	32	101	524288	58	6062
2026-01-06 04:38:32.99	266.10	10.44	-39.0	-40.3	27.6	3.02e+01	90	32	101	524288	58	6056
2026-01-06 04:38:34.00	266.30	10.47	-39.1	-40.4	27.6	3.02e+01	92	32	101	524288	58	6101
2026-01-06 04:38:35.01	266.50	10.49	-39.0	-40.3	27.6	3.02e+01	92	32	101	524288	58	6057
2026-01-06 04:38:36.02	266.71	10.52	-39.0	-40.3	27.6	3.02e+01	92	32	101	524288	58	6055
2026-01-06 04:38:37.03	266.91	10.55	-38.9	-40.2	27.7	3.02e+01	91	32	101	524288	58	5975
2026-01-06 04:38:38.04	267.12	10.57	-38.9	-40.2	27.8	3.02e+01	91	32	101	524288	58	5981
2026-01-06 04:38:39.05	267.32	10.60	-39.0	-40.3	27.7	3.02e+01	92	32	101	524288	58	6014
2026-01-06 04:38:40.06	267.53	10.62	-39.1	-40.4	27.6	3.02e+01	92	32	101	524288	58	6070
2026-01-06 04:38:41.07	267.73	10.65	-39.0	-40.3	27.7	3.02e+01	90	32	101	524288	58	6014
2026-01-06 04:38:42.08	267.94	10.67	-39.1	-40.4	27.6	3.02e+01	92	32	101	524288	58	6066
2026-01-06 04:38:43.10	268.15	10.70	-39.0	-40.3	27.7	3.02e+01	92	32	101	524288	58	6010
2026-01-06 04:38:44.11	268.35	10.72	-39.0	-40.3	27.7	3.02e+01	92	32	101	524288	58	6039
2026-01-06 04:38:45.12	268.56	10.75	-38.9	-40.2	27.8	3.02e+01	92	32	101	524288	58	5941
2026-01-06 04:38:46.13	268.77	10.77	-38.7	-40.0	27.9	3.02e+01	90	32	101	524288	58	5831
2026-01-06 04:38:47.14	268.97	10.79	-38.9	-40.2	27.8	3.02e+01	92	32	101	524288	58	5960
2026-01-06 04:38:48.15	269.18	10.82	-38.9	-40.2	27.7	3.02e+01	92	32	101	524288	58	5967
2026-01-06 04:38:49.16	269.39	10.84	-38.9	-40.2	27.8	3.02e+01	92	32	101	524288	58	5960
2026-01-06 04:38:50.17	269.60	10.86	-38.8	-40.0	27.9	3.02e+01	92	32	101	524288	58	5854
2026-01-06 04:38:51.18	269.81	10.88	-38.8	-40.0	27.9	3.02e+01	92	32	101	524288	58	5848
2026-01-06 04:38:52.19	270.02	10.91	-38.9	-40.2	27.7	3.02e+01	92	32	101	524288	58	5989
2026-01-06 04:38:53.20	270.23	10.93	-38.9	-40.2	27.8	3.02e+01	92	32	101	524288	58	5985
2026-01-06 04:38:54.21	270.44	10.95	-38.9	-40.2	27.8	3.02e+01	92	32	101	524288	58	5955
2026-01-06 04:38:55.22	270.65	10.97	-38.7	-40.0	27.9	3.02e+01	92	32	101	524288	58	5834
2026-01-06 04:38:56.24	270.86	10.99	-38.7	-40.0	28.0	3.02e+01	92	32	101	524288	58	5795
2026-01-06 04:38:57.25	271.07	11.01	-38.5	-39.8	28.2	3.02e+01	92	32	101	524288	58	5683
2026-01-06 04:38:58.26	271.28	11.03	-38.6	-39.9	28.1	3.02e+01	92	32	101	524288	58	5764
2026-01-06 04:38:59.27	271.49	11.05	-38.8	-40.1	27.9	3.02e+01	92	32	101	524288	58	5884
2026-01-06 04:39:00.28	271.70	11.07	-38.7	-40.0	27.9	3.02e+01	92	32	101	524288	58	5845
2026-01-06 04:39:01.29	271.92	11.09	-38.7	-40.0	28.0	3.02e+01	92	32	101	524288	58	5812
2026-01-06 04:39:02.30	272.13	11.11	-38.6	-39.8	28.1	3.02e+01	92	32	101	524288	58	5716
2026-01-06 04:39:03.31	272.34	11.13	-38.7	-40.0	28.0	3.02e+01	92	32	101	524288	58	5814
2026-01-06 04:39:04.32	272.55	11.15	-38.7	-39.9	28.1	3.02e+01	90	32	101	524288	58	5784
2026-01-06 04:39:05.33	272.77	11.16	-38.7	-40.0	28.0	3.02e+01	92	32	101	524288	58	5794
2026-01-06 04:39:06.35	272.98	11.18	-38.5	-39.7	28.2	3.02e+01	89	32	101	524288	58	5652
2026-01-06 04:39:07.36	273.20	11.20	-38.4	-39.7	28.2	3.02e+01	92	32	101	524288	58	5599
2026-01-06 04:39:08.37	273.41	11.22	-38.4	-39.7	28.2	3.02e+01	92	32	101	524288	58	5623
2026-01-06 04:39:09.38	273.62	11.23	-38.6	-39.8	28.1	3.02e+01	87	32	101	524288	58	5725
2026-01-06 04:39:10.39	273.84	11.25	-38.6	-39.9	28.1	3.02e+01	92	32	101	524288	58	5739
2026-01-06 04:39:11.40	274.05	11.26	-38.5	-39.7	28.2	3.02e+01	91	32	101	524288	58	5655
2026-01-06 04:39:12.41	274.27	11.28	-38.5	-39.7	28.2	3.02e+01	92	32	101	524288	58	5658
2026-01-06 04:39:13.42	274.48	11.29	-38.5	-39.8	28.2	3.02e+01	92	32	101	524288	58	5692
2026-01-06 04:39:14.43	274.70	11.31	-38.7	-40.0	28.0	3.02e+01	92	32	101	524288	58	5809
2026-01-06 04:39:15.44	274.91	11.32	-38.6	-39.8	28.1	3.02e+01	92	32	101	524288	58	5708
2026-01-06 04:39:16.46	275.13	11.34	-38.5	-39.8	28.2	3.02e+01	90	32	101	524288	58	5682
2026-01-06 04:39:17.47	275.35	11.35	-38.6	-39.9	28.1	3.02e+01	92	32	101	524288	58	5761
2026-01-06 04:39:18.48	275.56	11.37	-38.5	-39.7	28.2	3.02e+01	92	32	101	524288	58	5635
2026-01-06 04:39:19.49	275.78	11.38	-38.6	-39.8	28.2	3.02e+01	91	32	101	524288	58	5707
2026-01-06 04:39:20.50	276.00	11.39	-38.6	-39.8	28.0	3.02e+01	90	32	101	524288	58	5709
2026-01-06 04:39:21.51	276.21	11.41	-38.8	-40.1	28.0	3.02e+01	92	32	101	524288	58	5873
2026-01-06 04:39:22.52	276.43	11.42	-38.7	-40.0	27.9	3.02e+01	92	32	101	524288	58	5847
2026-01-06 04:39:23.53	276.65	11.43	-38.7	-40.0	28.0	3.02e+01	92	32	101	524288	58	5807
2026-01-06 04:39:24.55	276.87	11.44	-38.5	-39.8	28.3	3.02e+01	90	32	101	524288	58	5661
2026-01-06 04:39:25.56	277.08	11.45	-38.4	-39.7	28.2	3.02e+01	91	32	101	524288	58	5635
2026-01-06 04:39:26.57	277.30	11.46	-38.3	-39.6	28.4	3.02e+01	91	32	101	524288	56	6224
2026-01-06 04:39:27.58	277.52	11.47	-38.4	-39.7	28.4	3.02e+01	92	32	101	524288	56	6282
2026-01-06 04:39:28.59	277.74	11.48	-38.5	-39.8	28.2	3.02e+01	92	32	101	524288	56	6377
2026-01-06 04:39:29.60	277.96	11.49	-38.5	-39.8	28.2	3.02e+01	92	32	101	524288	56	6386
2026-01-06 04:39:30.61	278.17	11.50	-38.6	-39.9	28.1	3.02e+01	92	32	101	524288	56	6470
2026-01-06 04:39:31.62	278.39	11.51	-38.5	-39.8	28.3	3.02e+01	92	32	101	524288	56	6375
2026-01-06 04:39:32.63	278.61	11.52	-38.3	-39.6	28.5	3.02e+01	92	32	101	524288	56	6211
2026-01-06 04:39:33.64	278.83	11.53	-38.4	-39.6	28.4	3.02e+01	92	32	101	524288	56	6255
2026-01-06 04:39:34.65	279.05	11.54	-38.5	-39.7	28.3	3.02e+01	92	32	101	524288	56	6340
2026-01-06 04:39:35.66	279.27	11.55	-38.4	-39.7	28.3	3.02e+01	92	32	101	524288	56	6278
2026-01-06 04:39:36.67	279.49	11.55	-38.2	-39.5	28.5	3.02e+01	92	32	101	524288	56	6150
2026-01-06 04:39:37.68	279.71	11.56	-38.3	-39.6	28.4	3.02e+01	92	32	101	524288	56	6225
2026-01-06 04:39:38.70	279.93	11.57	-38.3	-39.5	28.5	3.02e+01	92	32	101	524288	56	6195
2026-01-06 04:39:39.71	280.15	11.57	-38.4	-39.7	28.3	3.02e+01	92	32	101	524288	56	6317
2026-01-06 04:39:40.72	280.37	11.58	-38.3	-39.6	28.3	3.02e+01	91	32	101	524288	56	6227
2026-01-06 04:39:41.73	280.59	11.58	-38.5	-39.8	28.4	3.02e+01	91	32	101	524288	56	6361
2026-01-06 04:39:42.74	280.80	11.59	-38.4	-39.6	28.3	3.02e+01	90	32	101	524288	56	6257
2026-01-06 04:39:43.75	281.02	11.59	-38.5	-39.7	28.3	3.02e+01	92	32	101	524288	56	6339
2026-01-06 04:39:44.76	281.24	11.60	-38.4	-39.7	28.4	3.02e+01	87	32	101	524288	56	6309
2026-01-06 04:39:45.77	281.46	11.60	-38.3	-39.5	28.5	3.02e+01	92	32	101	524288	56	6194
2026-01-06 04:39:46.78	281.68	11.61	-38.4	-39.6	28.4	3.02e+01	92	32	101	524288	56	6274
2026-01-06 04:39:47.79	281.90	11.61	-38.2	-39.4	28.6	3.02e+01	92	32	101	524288	56	6116
2026-01-06 04:39:48.80	282.12	11.61	-38.2	-39.4	28.5	3.02e+01	92	32	101	524288	56	6128
2026-01-06 04:39:49.81	282.34	11.62	-38.4	-39.7	28.4	3.02e+01	92	32	101	524288	56	6280
2026-01-06 04:39:50.82	282.56	11.62	-38.2	-39.4	28.5	3.02e+01	92	32	101	524288	56	6100
2026-01-06 04:39:51.84	282.79	11.62	-38.2	-39.4	28.6	3.02e+01	92	32	101	524288	56	6109
2026-01-06 04:39:52.85	283.01	11.62	-38.2	-39.5	28.5	3.02e+01	90	32	101	524288	56	6157
2026-01-06 04:39:53.86	283.23	11.62	-38.3	-39.5	28.5	3.02e+01	88	32	101	524288	56	6171
2026-01-06 04:39:54.87	283.45	11.62	-38.3	-39.5	28.5	3.02e+01	91	32	101	524288	56	6179
2026-01-06 04:39:55.88	283.67	11.62	-38.3	-39.5	28.5	3.02e+01	92	32	101	524288	56	6184
2026-01-06 04:39:56.89	283.89	11.62	-38.2	-39.5	28.6	3.02e+01	91	32	101	524288	56	6140
2026-01-06 04:39:57.90	284.11	11.62	-38.0	-39.3	28.7	3.02e+01	89	32	101	524288	56	6007
2026-01-06 04:39:58.91	284.33	11.62	-38.2	-39.4	28.6	3.02e+01	91	32	101	524288	56	6101
2026-01-06 04:39:59.92	284.55	11.62	-38.2	-39.5	28.5	3.02e+01	91	32	101	524288	56	6135
2026-01-06 04:40:00.94	284.77	11.62	-38.1	-39.4	28.6	3.02e+01	91	32	101	524288	56	6086
2026-01-06 04:40:01.95	284.99	11.62	-38.2	-39.5	28.6	3.02e+01	92	32	101	524288	56	6155
2026-01-06 04:40:02.96	285.21	11.62	-38.1	-39.4	28.6	3.02e+01	92	32	101	524288	56	6080
2026-01-06 04:40:03.97	285.43	11.62	-38.2	-39.4	28.6	3.02e+01	92	32	101	524288	56	6123
2026-01-06 04:40:04.98	285.65	11.61	-38.2	-39.4	28.6	3.02e+01	91	32	101	524288	56	6110
2026-01-06 04:40:05.99	285.87	11.61	-38.3	-39.6	28.5	3.02e+01	90	32	101	524288	56	6227
2026-01-06 04:40:07.00	286.09	11.61	-38.3	-39.5	28.5	3.02e+01	92	32	101	524288	56	6180
2026-01-06 04:40:08.01	286.31	11.60	-38.4	-39.7	28.4	3.02e+01	92	32	101	524288	56	6296
2026-01-06 04:40:09.02	286.53	11.60	-38.3	-39.5	28.5	3.02e+01	90	32	101	524288	56	6179
2026-01-06 04:40:10.03	286.75	11.59	-38.3	-39.5	28.5	3.02e+01	92	32	101	524288	56	6204
2026-01-06 04:40:11.05	286.97	11.59	-38.4	-39.7	28.4	3.02e+01	91	32	101	524288	56	6308
2026-01-06 04:40:12.06	287.19	11.58	-38.1	-39.3	28.7	3.02e+01	92	32	101	524288	56	6059
2026-01-06 04:40:13.07	287.41	11.58	-38.2	-39.4	28.6	3.02e+01	90	32	101	524288	56	6114
2026-01-06 04:40:14.08	287.63	11.57	-38.1	-39.3	28.6	3.02e+01	92	32	101	524288	56	6062
2026-01-06 04:40:15.09	287.85	11.57	-38.2	-39.4	28.6	3.02e+01	90	32	101	524288	56	6117
2026-01-06 04:40:16.10	288.07	11.56	-38.2	-39.4	28.6	3.02e+01	92	32	101	524288	56	6113
2026-01-06 04:40:17.11	288.28	11.55	-38.2	-39.4	28.6	3.02e+01	90	32	101	524288	56	6111
2026-01-06 04:40:18.12	288.50	11.55	-38.4	-39.6	28.5	3.02e+01	92	32	101	524288	56	6243
2026-01-06 04:40:19.13	288.72	11.54	-38.1	-39.4	28.7	3.02e+01	87	32	101	524288	56	6072
2026-01-06 04:40:20.15	288.94	11.53	-38.2	-39.5	28.6	3.02e+01	92	32	101	524288	56	6140
2026-01-06 04:40:21.16	289.16	11.52	-38.1	-39.3	28.7	3.02e+01	90	32	101	524288	56	6042
2026-01-06 04:40:22.17	289.38	11.51	-38.2	-39.4	28.6	3.02e+01	92	32	101	524288	56	6113
2026-01-06 04:40:23.18	289.60	11.50	-38.1	-39.4	28.7	3.02e+01	92	32	101	524288	56	6072
2026-01-06 04:40:24.19	289.82	11.49	-38.2	-39.4	28.6	3.02e+01	92	32	101	524288	56	6115
2026-01-06 04:40:25.20	290.03	11.48	-38.2	-39.5	28.5	3.02e+01	90	32	101	524288	56	6174
2026-01-06 04:40:26.21	290.25	11.47	-38.1	-39.4	28.6	3.02e+01	92	32	101	524288	56	6065
2026-01-06 04:40:27.22	290.47	11.46	-38.0	-39.2	28.8	3.02e+01	92	32	101	524288	56	5977
2026-01-06 04:40:28.23	290.69	11.45	-38.1	-39.3	28.7	3.02e+01	92	32	101	524288	56	6024
2026-01-06 04:40:29.24	290.90	11.44	-38.1	-39.4	28.6	3.02e+01	91	32	101	524288	56	6099
2026-01-06 04:40:30.25	291.12	11.43	-38.2	-39.4	28.6	3.02e+01	92	32	101	524288	56	6100
2026-01-06 04:40:31.26	291.34	11.42	-38.3	-39.5	28.5	3.02e+01	91	32	101	524288	56	6192
2026-01-06 04:40:32.28	291.56	11.41	-38.3	-39.5	28.5	3.02e+01	91	32	101	524288	56	6169
2026-01-06 04:40:33.29	291.77	11.39	-38.2	-39.5	28.6	3.02e+01	90	32	101	524288	56	6150
2026-01-06 04:40:34.30	291.99	11.38	-38.1	-39.4	28.7	3.02e+01	92	32	101	524288	56	6090
2026-01-06 04:40:35.31	292.20	11.37	-38.1	-39.3	28.7	3.02e+01	92	32	101	524288	56	6059
2026-01-06 04:40:36.32	292.42	11.35	-38.1	-39.3	28.6	3.02e+01	92	32	101	524288	56	6030
2026-01-06 04:40:37.33	292.64	11.34	-38.0	-39.3	28.7	3.02e+01	91	32	101	524288	56	5996
2026-01-06 04:40:38.34	292.85	11.33	-38.0	-39.3	28.8	3.02e+01	88	32	101	524288	56	5995
2026-01-06 04:40:39.35	293.07	11.31	-38.2	-39.5	28.6	3.02e+01	92	32	101	524288	56	6139
2026-01-06 04:40:40.36	293.28	11.30	-38.2	-39.5	28.6	3.02e+01	91	32	101	524288	56	6136
2026-01-06 04:40:41.37	293.50	11.28	-38.2	-39.4	28.6	3.02e+01	90	32	101	524288	56	6117
2026-01-06 04:40:42.38	293.71	11.27	-38.0	-39.2	28.7	3.02e+01	92	32	101	524288	56	5982
2026-01-06 04:40:43.40	293.93	11.25	-38.0	-39.3	28.7	3.02e+01	89	32	101	524288	56	6000
2026-01-06 04:40:44.41	294.14	11.23	-38.0	-39.3	28.7	3.02e+01	91	32	101	524288	56	6013
2026-01-06 04:40:45.42	294.35	11.22	-38.2	-39.4	28.6	3.02e+01	92	32	101	524288	56	6096
2026-01-06 04:40:46.43	294.57	11.20	-38.1	-39.3	28.7	3.02e+01	91	32	101	524288	56	6031
2026-01-06 04:40:47.44	294.78	11.18	-37.9	-39.1	28.8	3.02e+01	92	32	101	524288	56	5918
2026-01-06 04:40:48.45	294.99	11.16	-37.9	-39.2	28.9	3.02e+01	92	32	101	524288	56	5939
2026-01-06 04:40:49.46	295.21	11.15	-37.9	-39.1	28.8	3.02e+01	92	32	101	524288	56	5926
2026-01-06 04:40:50.47	295.42	11.13	-38.1	-39.4	28.7	3.02e+01	92	32	101	524288	56	6068
2026-01-06 04:40:51.48	295.63	11.11	-38.2	-39.5	28.5	3.02e+01	92	32	101	524288	56	6181
2026-01-06 04:40:52.49	295.84	11.09	-38.2	-39.4	28.5	3.02e+01	92	32	101	524288	56	6117
2026-01-06 04:40:53.51	296.06	11.07	-38.1	-39.3	28.6	3.02e+01	92	32	101	524288	56	6062
2026-01-06 04:40:54.52	296.27	11.05	-37.9	-39.2	28.8	3.02e+01	91	32	101	524288	56	5930
2026-01-06 04:40:55.53	296.48	11.03	-37.9	-39.1	28.9	3.02e+01	92	32	101	524288	56	5907
2026-01-06 04:40:56.54	296.69	11.01	-38.0	-39.2	28.9	3.02e+01	92	32	101	524288	56	5953
2026-01-06 04:40:57.55	296.90	10.99	-38.0	-39.3	28.7	3.02e+01	92	32	101	524288	56	6005
2026-01-06 04:40:58.56	297.11	10.97	-38.0	-39.3	28.7	3.02e+01	90	32	101	524288	56	6017
2026-01-06 04:40:59.57	297.32	10.95	-38.1	-39.3	28.7	3.02e+01	89	32	101	524288	56	6024
2026-01-06 04:41:00.58	297.53	10.93	-38.2	-39.4	28.6	3.02e+01	92	32	101	524288	56	6106
2026-01-06 04:41:01.60	297.74	10.91	-38.1	-39.3	28.7	3.02e+01	92	32	101	524288	56	6043
2026-01-06 04:41:02.61	297.95	10.89	-38.3	-39.5	28.5	3.02e+01	92	32	101	524288	56	6169
2026-01-06 04:41:03.61	298.15	10.86	-38.1	-39.3	28.7	3.02e+01	92	32	101	524288	56	6050
2026-01-06 04:41:04.62	298.36	10.84	-38.1	-39.4	28.6	3.02e+01	92	32	101	524288	56	6065
2026-01-06 04:41:05.63	298.57	10.82	-37.9	-39.2	28.8	3.02e+01	92	32	101	524288	56	5939
2026-01-06 04:41:06.64	298.78	10.80	-38.2	-39.4	28.6	3.02e+01	92	32	101	524288	56	6101
2026-01-06 04:41:07.66	298.99	10.77	-38.0	-39.3	28.8	3.02e+01	92	32	101	524288	56	6001
2026-01-06 04:41:08.67	299.19	10.75	-38.1	-39.4	28.7	3.02e+01	92	32	101	524288	56	6080
2026-01-06 04:41:09.68	299.40	10.73	-38.2	-39.4	28.6	3.02e+01	90	32	101	524288	56	6108
2026-01-06 04:41:10.69	299.60	10.70	-38.0	-39.3	28.7	3.02e+01	92	32	101	524288	56	5998
2026-01-06 04:41:11.70	299.81	10.68	-38.0	-39.2	28.8	3.02e+01	92	32	101	524288	56	5990
2026-01-06 04:41:12.71	300.01	10.65	-37.9	-39.2	28.8	3.02e+01	92	32	101	524288	56	5948
2026-01-06 04:41:13.72	300.22	10.63	-37.9	-39.2	28.9	3.02e+01	92	32	101	524288	56	5941
2026-01-06 04:41:14.73	300.42	10.60	-38.1	-39.3	28.6	3.02e+01	92	32	101	524288	56	6041
2026-01-06 04:41:15.74	300.63	10.58	-38.1	-39.4	28.6	3.02e+01	92	32	101	524288	56	6080
2026-01-06 04:41:16.76	300.83	10.55	-38.1	-39.3	28.7	3.02e+01	92	32	101	524288	56	6041
2026-01-06 04:41:17.77	301.04	10.52	-38.0	-39.2	28.8	3.02e+01	92	32	101	524288	56	5969
2026-01-06 04:41:18.78	301.24	10.50	-38.0	-39.2	28.8	3.02e+01	90	32	101	524288	56	5955
2026-01-06 04:41:19.79	301.44	10.47	-38.0	-39.3	28.8	3.02e+01	92	32	101	524288	56	6001
2026-01-06 04:41:20.80	301.64	10.44	-38.0	-39.2	28.8	3.02e+01	92	32	101	524288	56	5943
2026-01-06 04:41:21.81	301.85	10.42	-38.0	-39.2	28.8	3.02e+01	59	32	101	524288	56	5979
2026-01-06 04:41:22.82	302.05	10.39	-38.0	-39.2	28.8	3.02e+01	59	32	101	524288	56	5965
2026-01-06 04:41:23.83	302.25	10.36	-38.0	-39.2	28.8	3.02e+01	51	32	101	524288	56	5977
2026-01-06 04:41:24.84	302.45	10.33	-38.0	-39.3	28.7	3.02e+01	62	32	101	524288	56	6001
2026-01-06 04:41:25.85	302.65	10.31	-38.0	-39.3	28.8	3.02e+01	59	32	101	524288	56	6006
2026-01-06 04:41:26.86	302.85	10.28	-38.0	-39.2	28.7	3.02e+01	59	32	101	524288	56	5986
2026-01-06 04:41:27.87	303.05	10.25	-38.0	-39.2	28.8	3.02e+01	57	32	101	524288	56	5957
2026-01-06 04:41:28.89	303.25	10.22	-38.0	-39.2	28.8	3.02e+01	45	32	101	524288	56	5975
2026-01-06 04:41:29.90	303.45	10.19	-38.0	-39.2	28.8	3.02e+01	58	32	101	524288	56	5956
2026-01-06 04:41:30.91	303.64	10.16	-38.1	-39.4	28.6	3.02e+01	57	32	101	524288	56	6085
2026-01-06 04:41:31.92	303.84	10.13	-38.0	-39.3	28.7	3.02e+01	48	32	101	524288	56	6007
2026-01-06 04:41:32.93	304.04	10.10	-38.0	-39.2	28.9	3.02e+01	60	32	101	524288	56	5966
2026-01-06 04:41:33.94	304.24	10.07	-38.0	-39.3	28.8	3.02e+01	61	32	101	524288	56	6013
2026-01-06 04:41:34.95	304.43	10.04	-38.1	-39.3	28.7	3.02e+01	58	32	101	524288	56	6048
2026-01-06 04:41:35.96	304.63	10.01	-38.1	-39.4	28.7	3.02e+01	61	32	101	524288	56	6071
2026-01-06 04:41:36.97	304.82	9.98	-38.0	-39.2	28.8	3.02e+01	59	32	101	524288	56	5983
2026-01-06 04:41:37.98	305.02	9.95	-38.1	-39.3	28.8	3.02e+01	59	32	101	524288	56	6015
2026-01-06 04:41:38.99	305.21	9.92	-38.0	-39.3	28.7	3.02e+01	58	32	101	524288	56	6006
2026-01-06 04:41:40.01	305.41	9.88	-38.0	-39.3	28.7	3.02e+01	46	32	101	524288	56	6020
2026-01-06 04:41:41.02	305.60	9.85	-38.1	-39.3	28.7	3.02e+01	58	32	101	524288	56	6039
2026-01-06 04:41:42.03	305.80	9.82	-38.1	-39.3	28.7	3.02e+01	61	32	101	524288	56	6063
2026-01-06 04:41:43.04	305.99	9.79	-38.0	-39.2	28.8	3.02e+01	57	32	101	524288	56	5961
2026-01-06 04:41:44.05	306.18	9.76	-38.1	-39.4	28.6	3.02e+01	61	32	101	524288	56	6095
2026-01-06 04:41:45.06	306.37	9.72	-38.1	-39.4	28.6	3.02e+01	51	32	101	524288	56	6075
2026-01-06 04:41:46.07	306.56	9.69	-38.0	-39.3	28.7	3.02e+01	57	32	101	524288	56	6019
2026-01-06 04:41:47.08	306.75	9.66	-38.0	-39.2	28.7	3.02e+01	58	32	101	524288	56	5985
2026-01-06 04:41:48.09	306.94	9.62	-38.1	-39.3	28.7	3.02e+01	49	32	101	524288	56	6048
2026-01-06 04:41:49.11	307.14	9.59	-38.1	-39.4	28.6	3.02e+01	62	32	101	524288	56	6065
2026-01-06 04:41:50.12	307.33	9.56	-38.1	-39.3	28.6	3.02e+01	46	32	101	524288	56	6061
2026-01-06 04:41:51.13	307.52	9.52	-38.0	-39.3	28.7	3.02e+01	59	32	101	524288	56	6017
2026-01-06 04:41:52.14	307.70	9.49	-38.0	-39.3	28.7	3.02e+01	60	32	101	524288	56	6006
2026-01-06 04:41:53.15	307.89	9.45	-38.0	-39.2	28.8	3.02e+01	44	32	101	524288	56	5989
2026-01-06 04:41:54.16	308.08	9.42	-38.1	-39.3	28.7	3.02e+01	60	32	101	524288	56	6047
2026-01-06 04:41:55.17	308.27	9.38	-38.2	-39.4	28.6	3.02e+01	60	32	101	524288	56	6111
2026-01-06 04:41:56.18	308.45	9.35	-38.2	-39.4	28.6	3.02e+01	58	32	101	524288	56	6110
2026-01-06 04:41:57.19	308.64	9.31	-38.1	-39.3	28.7	3.02e+01	58	32	101	524288	56	6040
2026-01-06 04:41:58.21	308.83	9.28	-38.1	-39.4	28.7	3.02e+01	57	32	101	524288	56	6066
2026-01-06 04:41:59.22	309.01	9.24	-38.0	-39.3	28.7	3.02e+01	58	32	101	524288	56	5996
2026-01-06 04:42:00.23	309.20	9.21	-38.0	-39.3	28.7	3.02e+01	61	32	101	524288	56	6004
2026-01-06 04:42:01.24	309.38	9.17	-38.1	-39.4	28.6	3.02e+01	53	32	101	524288	56	6092
2026-01-06 04:42:02.25	309.57	9.14	-38.2	-39.4	28.6	3.02e+01	57	32	101	524288	56	6111
2026-01-06 04:42:03.26	309.75	9.10	-38.2	-39.5	28.5	3.02e+01	60	32	101	524288	56	6169
2026-01-06 04:42:04.27	309.93	9.06	-38.3	-39.6	28.4	3.02e+01	57	32	101	524288	56	6213
2026-01-06 04:42:05.28	310.11	9.03	-38.0	-39.3	28.7	3.02e+01	59	32	101	524288	56	6012
2026-01-06 04:42:06.29	310.30	8.99	-38.0	-39.3	28.8	3.02e+01	46	32	101	524288	56	6019
2026-01-06 04:42:07.30	310.48	8.95	-38.1	-39.3	28.7	3.02e+01	60	32	101	524288	56	6045
2026-01-06 04:42:08.32	310.66	8.91	-38.1	-39.4	28.7	3.02e+01	60	32	101	524288	56	6070
2026-01-06 04:42:09.33	310.84	8.88	-38.1	-39.3	28.6	3.02e+01	52	32	101	524288	56	6051
2026-01-06 04:42:10.34	311.02	8.84	-38.0	-39.2	28.7	3.02e+01	62	32	101	524288	56	5989
2026-01-06 04:42:11.35	311.20	8.80	-38.1	-39.4	28.6	3.02e+01	56	32	101	524288	56	6070
2026-01-06 04:42:12.36	311.38	8.76	-38.1	-39.3	28.7	3.02e+01	58	32	101	524288	56	6028
2026-01-06 04:42:13.37	311.56	8.73	-38.2	-39.5	28.5	3.02e+01	61	32	101	524288	56	6156
2026-01-06 04:42:14.38	311.74	8.69	-38.1	-39.4	28.6	3.02e+01	53	32	101	524288	56	6089
2026-01-06 04:42:15.39	311.91	8.65	-38.2	-39.5	28.5	3.02e+01	57	32	101	524288	56	6151
2026-01-06 04:42:16.41	312.09	8.61	-38.1	-39.4	28.6	3.02e+01	59	32	101	524288	56	6079
2026-01-06 04:42:17.42	312.27	8.57	-38.1	-39.4	28.5	3.02e+01	46	32	101	524288	56	6082
2026-01-06 04:42:18.43	312.44	8.53	-38.1	-39.3	28.6	3.02e+01	60	32	101	524288	56	6057
2026-01-06 04:42:19.44	312.62	8.49	-37.9	-39.2	28.8	3.02e+01	45	32	101	524288	56	5928
2026-01-06 04:42:20.45	312.79	8.46	-38.1	-39.3	28.7	3.02e+01	61	32	101	524288	56	6054
2026-01-06 04:42:21.46	312.97	8.42	-38.1	-39.4	28.5	3.02e+01	61	32	101	524288	56	6088
2026-01-06 04:42:22.47	313.14	8.38	-38.1	-39.4	28.6	3.02e+01	51	32	101	524288	56	6078
2026-01-06 04:42:23.48	313.32	8.34	-38.1	-39.4	28.6	3.02e+01	57	32	101	524288	56	6095
2026-01-06 04:42:24.49	313.49	8.30	-38.1	-39.4	28.5	3.02e+01	63	32	101	524288	56	6112
2026-01-06 04:42:25.51	313.66	8.26	-38.3	-39.5	28.4	3.02e+01	57	32	101	524288	56	6195
2026-01-06 04:42:26.52	313.84	8.22	-38.3	-39.5	28.4	3.02e+01	61	32	101	524288	56	6199
2026-01-06 04:42:27.53	314.01	8.18	-38.1	-39.4	28.6	3.02e+01	46	32	101	524288	56	6111
2026-01-06 04:42:28.54	314.18	8.14	-38.1	-39.4	28.5	3.02e+01	59	32	101	524288	56	6111
2026-01-06 04:42:29.55	314.35	8.10	-38.3	-39.6	28.4	3.02e+01	60	32	101	524288	56	6264
2026-01-06 04:42:30.56	314.52	8.06	-38.2	-39.5	28.4	3.02e+01	47	32	101	524288	56	6172
2026-01-06 04:42:31.57	314.69	8.02	-38.4	-39.7	28.2	3.02e+01	62	32	101	524288	56	6298
2026-01-06 04:42:32.58	314.86	7.98	-38.1	-39.4	28.6	3.02e+01	59	32	101	524288	56	6066
2026-01-06 04:42:33.59	315.03	7.93	-38.1	-39.4	28.5	3.02e+01	59	32	101	524288	56	6083
2026-01-06 04:42:34.61	315.20	7.89	-38.3	-39.6	28.5	3.02e+01	60	32	101	524288	56	6235
2026-01-06 04:42:35.62	315.36	7.85	-38.2	-39.5	28.4	3.02e+01	56	32	101	524288	56	6198
2026-01-06 04:42:36.63	315.53	7.81	-38.2	-39.5	28.4	3.02e+01	58	32	101	524288	56	6163
2026-01-06 04:42:37.64	315.70	7.77	-38.3	-39.6	28.4	3.02e+01	58	32	101	524288	56	6243
2026-01-06 04:42:38.65	315.86	7.73	-38.2	-39.5	28.4	3.02e+01	45	32	101	524288	56	6172
2026-01-06 04:42:39.66	316.03	7.69	-38.3	-39.6	28.4	3.02e+01	56	32	101	524288	56	6219
2026-01-06 04:42:40.67	316.19	7.64	-38.2	-39.5	28.4	3.02e+01	57	32	101	524288	56	6179
2026-01-06 04:42:41.68	316.36	7.60	-38.1	-39.4	28.5	3.02e+01	61	32	101	524288	56	6101
2026-01-06 04:42:42.70	316.52	7.56	-38.3	-39.5	28.4	3.02e+01	61	32	101	524288	56	6189
2026-01-06 04:42:43.71	316.69	7.52	-38.1	-39.4	28.5	3.02e+01	58	32	101	524288	56	6104
2026-01-06 04:42:44.72	316.85	7.48	-38.2	-39.5	28.5	3.02e+01	61	32	101	524288	56	6140
2026-01-06 04:42:45.73	317.01	7.43	-38.2	-39.5	28.4	3.02e+01	58	32	101	524288	56	6182
2026-01-06 04:42:46.74	317.17	7.39	-38.3	-39.6	28.3	3.02e+01	60	32	101	524288	56	6242
2026-01-06 04:42:47.75	317.34	7.35	-38.2	-39.4	28.5	3.02e+01	60	32	101	524288	56	6127
2026-01-06 04:42:48.76	317.50	7.31	-38.3	-39.6	28.4	3.02e+01	56	32	101	524288	56	6211
2026-01-06 04:42:49.77	317.66	7.26	-38.3	-39.6	28.3	3.02e+01	61	32	101	524288	56	6241
2026-01-06 04:42:50.78	317.82	7.22	-38.4	-39.6	28.2	3.02e+01	59	32	101	524288	56	6269
2026-01-06 04:42:51.80	317.98	7.18	-38.3	-39.6	28.3	3.02e+01	45	32	101	524288	56	6214
2026-01-06 04:42:52.81	318.14	7.13	-38.3	-39.6	28.4	3.02e+01	61	32	101	524288	56	6228
2026-01-06 04:42:53.82	318.30	7.09	-38.3	-39.6	28.3	3.02e+01	61	32	101	524288	56	6245
2026-01-06 04:42:54.83	318.45	7.05	-38.4	-39.7	28.2	3.02e+01	59	32	101	524288	56	6327
2026-01-06 04:42:55.84	318.61	7.01	-38.4	-39.7	28.2	3.02e+01	60	32	101	524288	56	6282
2026-01-06 04:42:56.85	318.77	6.96	-38.3	-39.5	28.3	3.02e+01	45	32	101	524288	56	6197
2026-01-06 04:42:57.86	318.92	6.92	-38.3	-39.6	28.3	3.02e+01	59	32	101	524288	56	6220
2026-01-06 04:42:58.87	319.08	6.88	-38.4	-39.6	28.3	3.02e+01	59	32	101	524288	56	6271
2026-01-06 04:42:59.88	319.24	6.83	-38.4	-39.6	28.3	3.02e+01	44	32	101	524288	56	6251
2026-01-06 04:43:00.89	319.39	6.79	-38.4	-39.7	28.2	3.02e+01	62	32	101	524288	56	6324
2026-01-06 04:43:01.90	319.55	6.74	-38.6	-39.9	28.1	3.02e+01	57	32	101	524288	56	6448
2026-01-06 04:43:02.92	319.70	6.70	-38.6	-39.8	28.1	3.02e+01	61	32	101	524288	56	6409
2026-01-06 04:43:03.93	319.86	6.66	-38.6	-39.9	28.0	3.02e+01	56	32	101	524288	56	6440
2026-01-06 04:43:04.94	320.01	6.61	-38.7	-40.0	28.0	3.02e+01	52	32	101	524288	56	6529
2026-01-06 04:43:05.95	320.16	6.57	-38.7	-40.0	27.9	3.02e+01	62	32	101	524288	56	6547
2026-01-06 04:43:06.96	320.31	6.52	-38.8	-40.1	27.8	3.02e+01	60	32	101	524288	56	6611
2026-01-06 04:43:07.97	320.46	6.48	-38.8	-40.1	27.7	3.02e+01	50	32	101	524288	56	6642
2026-01-06 04:43:08.98	320.62	6.44	-38.9	-40.2	27.7	3.02e+01	57	32	101	524288	56	6722
2026-01-06 04:43:09.99	320.77	6.39	-38.7	-40.0	27.8	3.02e+01	60	32	101	524288	56	6545
2026-01-06 04:43:11.00	320.92	6.35	-38.7	-40.0	28.0	3.02e+01	57	32	101	524288	56	6535
2026-01-06 04:43:12.02	321.07	6.30	-38.5	-39.8	28.1	3.02e+01	60	32	101	524288	56	6372
2026-01-06 04:43:13.03	321.22	6.26	-38.4	-39.7	28.2	3.02e+01	51	32	101	524288	56	6296
2026-01-06 04:43:14.04	321.37	6.21	-38.4	-39.7	28.1	3.02e+01	58	32	101	524288	56	6309
2026-01-06 04:43:15.05	321.51	6.17	-38.6	-39.8	28.0	3.02e+01	59	32	101	524288	56	6422
2026-01-06 04:43:16.06	321.66	6.12	-38.7	-40.0	27.9	3.02e+01	49	32	101	524288	56	6556
2026-01-06 04:43:17.07	321.81	6.08	-38.9	-40.2	27.7	3.02e+01	56	32	101	524288	56	6700
2026-01-06 04:43:18.08	321.96	6.03	-38.8	-40.2	27.6	3.02e+01	59	32	101	524288	56	6676
2026-01-06 04:43:19.09	322.10	5.99	-38.5	-39.9	27.9	3.02e+01	56	32	101	524288	56	6432
2026-01-06 04:43:20.10	322.25	5.94	-38.6	-39.9	28.0	3.02e+01	56	32	101	524288	56	6426
2026-01-06 04:43:21.11	322.39	5.90	-38.5	-39.8	28.0	3.02e+01	52	32	101	524288	56	6404
2026-01-06 04:43:22.12	322.54	5.85	-38.6	-39.9	28.0	3.02e+01	59	32	101	524288	56	6447
2026-01-06 04:43:23.13	322.68	5.81	-38.6	-39.9	27.9	3.02e+01	60	32	101	524288	56	6490
2026-01-06 04:43:24.15	322.83	5.76	-38.6	-39.9	27.8	3.02e+01	61	32	101	524288	56	6492
2026-01-06 04:43:25.16	322.97	5.72	-38.6	-40.0	28.0	3.02e+01	61	32	101	524288	56	6499
2026-01-06 04:43:26.17	323.12	5.67	-38.5	-39.8	28.1	3.02e+01	45	32	101	524288	56	6359
2026-01-06 04:43:27.18	323.26	5.63	-38.4	-39.7	28.1	3.02e+01	57	32	101	524288	56	6332
2026-01-06 04:43:28.19	323.40	5.58	-38.5	-39.8	28.1	3.02e+01	54	32	101	524288	56	6385
2026-01-06 04:43:29.20	323.54	5.54	-38.7	-39.9	27.9	3.02e+01	44	32	101	524288	56	6496
2026-01-06 04:43:30.21	323.68	5.49	-38.7	-40.0	27.9	3.02e+01	60	32	101	524288	56	6516
2026-01-06 04:43:31.22	323.82	5.44	-38.8	-40.1	27.7	3.02e+01	59	32	101	524288	56	6631
2026-01-06 04:43:32.23	323.96	5.40	-38.8	-40.2	27.8	3.02e+01	57	32	101	524288	56	6662
2026-01-06 04:43:33.24	324.10	5.35	-38.9	-40.2	27.7	3.02e+01	58	32	101	524288	56	6680
2026-01-06 04:43:34.26	324.24	5.31	-38.7	-40.0	27.8	3.02e+01	56	32	101	524288	56	6551
2026-01-06 04:43:35.27	324.38	5.26	-38.8	-40.1	27.8	3.02e+01	64	32	101	524288	56	6621
2026-01-06 04:43:36.28	324.52	5.22	-38.6	-39.9	27.9	3.02e+01	58	32	101	524288	56	6469
2026-01-06 04:43:37.29	324.66	5.17	-38.8	-40.1	27.7	3.02e+01	44	32	101	524288	56	6621
2026-01-06 04:43:38.30	324.80	5.12	-38.7	-40.0	27.8	3.02e+01	60	32	101	524288	56	6545
2026-01-06 04:43:39.31	324.93	5.08	-38.6	-39.9	27.9	3.02e+01	59	32	101	524288	56	6488
2026-01-06 04:43:40.32	325.07	5.03	-38.7	-40.0	27.8	3.02e+01	59	32	101	524288	56	6523
2026-01-06 04:43:41.33	325.21	4.99	-38.7	-40.0	27.8	3.02e+01	58	32	101	524288	56	6553
2026-01-06 04:43:42.35	325.34	4.94	-38.8	-40.2	27.7	3.02e+01	46	32	101	524288	56	6652
2026-01-06 04:43:43.36	325.48	4.89	-38.9	-40.2	27.6	3.02e+01	59	32	101	524288	56	6690
2026-01-06 04:43:44.37	325.61	4.85	-39.0	-40.3	27.5	3.02e+01	59	32	101	524288	56	6753
2026-01-06 04:43:45.38	325.75	4.80	-39.1	-40.4	27.4	3.02e+01	45	32	101	524288	56	6839
2026-01-06 04:43:46.39	325.88	4.76	-38.9	-40.3	27.6	3.02e+01	63	32	101	524288	56	6740
2026-01-06 04:43:47.40	326.02	4.71	-39.0	-40.3	27.5	3.02e+01	55	32	101	524288	56	6756
2026-01-06 04:43:48.41	326.15	4.66	-39.1	-40.4	27.4	3.02e+01	57	32	101	524288	56	6864
2026-01-06 04:43:49.43	326.28	4.62	-39.0	-40.4	27.5	3.02e+01	61	32	101	524288	56	6817
2026-01-06 04:43:50.44	326.41	4.57	-39.1	-40.4	27.4	3.02e+01	55	32	101	524288	56	6845
2026-01-06 04:43:51.45	326.55	4.52	-39.0	-40.3	27.4	3.02e+01	57	32	101	524288	56	6797
2026-01-06 04:43:52.46	326.68	4.48	-39.0	-40.4	27.5	3.02e+01	59	32	101	524288	56	6819
2026-01-06 04:43:53.47	326.81	4.43	-38.9	-40.3	27.5	3.02e+01	58	32	101	524288	56	6738
2026-01-06 04:43:54.48	326.94	4.39	-39.0	-40.3	27.5	3.02e+01	59	32	101	524288	56	6789
2026-01-06 04:43:55.49	327.07	4.34	-39.2	-40.5	27.4	3.02e+01	44	32	101	524288	56	6903
2026-01-06 04:43:56.50	327.20	4.29	-39.1	-40.5	27.3	3.02e+01	59	32	101	524288	56	6888
2026-01-06 04:43:57.51	327.33	4.25	-39.1	-40.5	27.3	3.02e+01	57	32	101	524288	56	6893
2026-01-06 04:43:58.52	327.46	4.20	-39.0	-40.3	27.4	3.02e+01	46	32	101	524288	56	6797
2026-01-06 04:43:59.53	327.58	4.15	-39.1	-40.5	27.3	3.02e+01	58	32	101	524288	56	6890
2026-01-06 04:44:00.54	327.71	4.11	-39.1	-40.4	27.3	3.02e+01	58	32	101	524288	56	6871
2026-01-06 04:44:01.55	327.84	4.06	-39.2	-40.5	27.2	3.02e+01	59	32	101	524288	56	6927
2026-01-06 04:44:02.57	327.97	4.01	-39.2	-40.6	27.2	3.02e+01	62	32	101	524288	56	6981
2026-01-06 04:44:03.58	328.09	3.97	-39.4	-40.7	27.1	3.02e+01	58	32	101	524288	58	6324
2026-01-06 04:44:04.59	328.22	3.92	-39.5	-40.9	26.9	3.02e+01	57	32	101	524288	58	6426
2026-01-06 04:44:05.60	328.35	3.87	-39.3	-40.7	27.0	3.02e+01	62	32	101	524288	58	6287
2026-01-06 04:44:06.61	328.47	3.83	-39.4	-40.8	27.0	3.02e+01	48	32	101	524288	58	6359
2026-01-06 04:44:07.62	328.60	3.78	-39.2	-40.6	27.1	3.02e+01	57	32	101	524288	58	6231
2026-01-06 04:44:08.63	328.72	3.73	-39.1	-40.5	27.2	3.02e+01	58	32	101	524288	58	6153
2026-01-06 04:44:09.65	328.85	3.69	-39.1	-40.4	27.2	3.02e+01	62	32	101	524288	58	6089
2026-01-06 04:44:10.65	328.97	3.64	-39.1	-40.5	27.1	3.02e+01	60	32	101	524288	58	6140
2026-01-06 04:44:11.67	329.09	3.59	-39.2	-40.5	27.1	3.02e+01	57	32	101	524288	58	6192
2026-01-06 04:44:12.68	329.21	3.55	-39.2	-40.5	27.1	3.02e+01	58	32	101	524288	58	6187
2026-01-06 04:44:13.69	329.34	3.50	-39.1	-40.5	27.2	3.02e+01	57	32	101	524288	58	6156
2026-01-06 04:44:14.70	329.46	3.45	-39.2	-40.5	27.1	3.02e+01	46	32	101	524288	58	6191
2026-01-06 04:44:15.71	329.58	3.41	-39.1	-40.4	27.2	3.02e+01	60	32	101	524288	58	6114
2026-01-06 04:44:16.72	329.70	3.36	-39.1	-40.4	27.2	3.02e+01	60	32	101	524288	58	6100
2026-01-06 04:44:17.73	329.82	3.31	-39.2	-40.5	27.1	3.02e+01	59	32	101	524288	58	6186
2026-01-06 04:44:18.74	329.94	3.27	-39.3	-40.7	27.0	3.02e+01	62	32	101	524288	58	6286
2026-01-06 04:44:19.75	330.06	3.22	-39.4	-40.8	26.9	3.02e+01	58	32	101	524288	58	6369
2026-01-06 04:44:20.76	330.18	3.17	-39.5	-40.9	26.9	3.02e+01	60	32	101	524288	58	6440
2026-01-06 04:44:21.77	330.30	3.13	-39.6	-41.0	26.6	3.02e+01	59	32	101	524288	58	6528
2026-01-06 04:44:22.78	330.42	3.08	-39.6	-40.9	26.8	3.02e+01	61	32	101	524288	58	6496
2026-01-06 04:44:23.80	330.54	3.03	-39.6	-41.0	26.5	3.02e+01	59	32	101	524288	58	6518
2026-01-06 04:44:24.81	330.66	2.99	-39.6	-41.0	26.6	3.02e+01	55	32	101	524288	58	6545
2026-01-06 04:44:25.82	330.78	2.94	-39.6	-41.0	26.6	3.02e+01	58	32	101	524288	58	6519
2026-01-06 04:44:26.83	330.89	2.89	-39.5	-40.8	26.8	3.02e+01	60	32	101	524288	58	6416
2026-01-06 04:44:27.84	331.01	2.85	-39.5	-40.9	26.7	3.02e+01	45	32	101	524288	58	6446
2026-01-06 04:44:28.85	331.13	2.80	-39.3	-40.7	27.0	3.02e+01	57	32	101	524288	58	6279
2026-01-06 04:44:29.86	331.24	2.75	-39.3	-40.6	27.0	3.02e+01	58	32	101	524288	58	6274
2026-01-06 04:44:30.88	331.36	2.71	-39.5	-40.9	26.7	3.02e+01	60	32	101	524288	58	6470
2026-01-06 04:44:31.89	331.47	2.66	-39.5	-40.9	26.7	3.02e+01	56	32	101	524288	58	6437
2026-01-06 04:44:32.90	331.59	2.61	-39.6	-41.0	26.6	3.02e+01	58	32	101	524288	58	6526
2026-01-06 04:44:33.91	331.70	2.56	-39.6	-41.0	26.6	3.02e+01	58	32	101	524288	58	6547
2026-01-06 04:44:34.92	331.82	2.52	-39.7	-41.1	26.5	3.02e+01	57	32	101	524288	58	6606
2026-01-06 04:44:35.93	331.93	2.47	-39.6	-41.0	26.5	3.02e+01	49	32	101	524288	58	6571
2026-01-06 04:44:36.94	332.04	2.42	-39.7	-41.1	26.5	3.02e+01	61	32	101	524288	58	6591
2026-01-06 04:44:37.95	332.16	2.38	-39.7	-41.1	26.4	3.02e+01	58	32	101	524288	58	6614
2026-01-06 04:44:38.96	332.27	2.33	-39.8	-41.2	26.3	3.02e+01	61	32	101	524288	58	6671
2026-01-06 04:44:39.97	332.38	2.28	-39.8	-41.2	26.3	3.02e+01	60	32	101	524288	58	6683
2026-01-06 04:44:40.98	332.49	2.24	-39.8	-41.2	26.3	3.02e+01	59	32	101	524288	58	6661
2026-01-06 04:44:41.99	332.60	2.19	-40.0	-41.4	26.2	3.02e+01	59	32	101	524288	58	6829
2026-01-06 04:44:43.01	332.72	2.14	-39.8	-41.2	26.3	3.02e+01	61	32	101	524288	58	6714
2026-01-06 04:44:44.02	332.83	2.10	-39.7	-41.1	26.4	3.02e+01	43	32	101	524288	58	6607
2026-01-06 04:44:45.03	332.94	2.05	-40.1	-50.4	3.6	3.02e+01	0	32	104	524288	58	19237
2026-01-06 04:44:46.04	333.05	2.00	-40.2	-50.5	3.4	3.02e+01	0	32	104	524288	58	19473
2026-01-06 04:44:47.05	333.16	1.96	-40.4	-50.9	3.6	3.02e+01	0	32	104	524288	60	18127
2026-01-06 04:44:48.06	333.27	1.91	-40.4	-50.6	3.6	3.02e+01	0	32	104	524288	60	17654
2026-01-06 04:44:49.07	333.38	1.86	-43.7	-54.4	3.6	3.02e+01	0	32	104	524288	60	27301
2026-01-06 04:44:50.08	333.48	1.82	-49.7	-65.9	3.5	3.02e+01	0	32	104	524288	60	102022
2026-01-06 04:44:51.09	333.59	1.77	-49.9	-66.6	3.5	3.02e+01	0	32	104	524288	60	111252
2026-01-06 04:44:52.11	333.70	1.72	-44.8	-55.9	3.6	3.02e+01	0	32	104	524288	60	32436
2026-01-06 04:44:53.12	333.81	1.68	-42.2	-52.7	3.6	3.02e+01	0	32	104	524288	60	22314
2026-01-06 04:44:54.13	333.92	1.63	-42.6	-53.1	4.0	3.02e+01	0	32	104	524288	60	23541
2026-01-06 04:44:55.14	334.02	1.58	-42.6	-53.2	3.4	3.02e+01	0	32	104	524288	60	23715
2026-01-06 04:44:56.15	334.13	1.54	-41.9	-52.3	4.1	3.02e+01	0	32	104	524288	60	21468
2026-01-06 04:44:57.16	334.24	1.49	-45.6	-57.0	3.4	3.02e+01	0	32	104	524288	60	36945
2026-01-06 04:44:58.17	334.34	1.44	-42.8	-53.5	4.1	3.02e+01	0	32	104	524288	60	24444
2026-01-06 04:44:59.18	334.45	1.40	-49.3	-65.4	3.5	3.02e+01	0	32	104	524288	60	96536
2026-01-06 04:45:00.19	334.55	1.35	-48.7	-63.1	3.5	3.02e+01	0	32	104	524288	60	74120
2026-01-06 04:45:01.20	334.66	1.30	-43.4	-54.2	3.6	3.02e+01	0	32	104	524288	60	26520
2026-01-06 04:45:02.22	334.76	1.26	-42.2	-52.8	3.5	3.02e+01	0	32	104	524288	60	22739
2026-01-06 04:45:03.23	334.87	1.21	-41.5	-52.0	3.5	3.02e+01	0	32	104	524288	60	20781
2026-01-06 04:45:04.24	334.97	1.16	-41.0	-51.5	3.6	3.02e+01	0	32	104	524288	60	19433
2026-01-06 04:45:05.25	335.07	1.12	-40.9	-51.5	3.5	3.02e+01	0	32	104	524288	60	19437
2026-01-06 04:45:06.26	335.18	1.07	-40.9	-51.4	3.5	3.02e+01	0	32	104	524288	60	19336
2026-01-06 04:45:07.27	335.28	1.03	-43.1	-53.9	3.5	3.02e+01	0	32	104	524288	60	25787
2026-01-06 04:45:08.28	335.38	0.98	-47.5	-62.0	3.5	3.02e+01	0	32	104	524288	60	65299
2026-01-06 04:45:09.29	335.48	0.93	-46.2	-59.4	3.5	3.02e+01	0	32	104	524288	60	48228
2026-01-06 04:45:10.30	335.58	0.89	-44.6	-55.8	3.5	3.02e+01	0	32	104	524288	60	32034
2026-01-06 04:45:11.32	335.69	0.84	-43.7	-54.7	3.5	3.02e+01	0	32	104	524288	60	28229
2026-01-06 04:45:12.33	335.79	0.79	-43.7	-54.8	3.5	3.02e+01	0	32	104	524288	60	28633
2026-01-06 04:45:13.34	335.89	0.75	-43.1	-54.2	3.5	3.02e+01	0	32	104	524288	60	26659
2026-01-06 04:45:14.35	335.99	0.70	-43.0	-54.2	3.5	3.02e+01	0	32	104	524288	60	26478
2026-01-06 04:45:15.36	336.09	0.65	-43.3	-54.6	3.5	3.02e+01	0	32	104	524288	60	28030
2026-01-06 04:45:16.37	336.19	0.61	-46.9	-59.5	3.5	3.02e+01	0	32	104	524288	60	49107
2026-01-06 04:45:17.38	336.29	0.56	-50.5	-68.6	3.5	3.02e+01	0	32	104	524288	60	139861
2026-01-06 04:45:18.39	336.39	0.51	-51.0	-69.0	3.5	3.02e+01	0	32	104	524288	60	145689
2026-01-06 04:45:19.40	336.49	0.47	-51.3	-69.2	3.5	3.02e+01	0	32	104	524288	60	149649
2026-01-06 04:45:20.42	336.58	0.42	-51.2	-69.3	3.5	3.02e+01	0	32	104	524288	60	151505
2026-01-06 04:45:21.43	336.68	0.38	-51.3	-69.4	3.5	3.02e+01	0	32	104	524288	60	152711
2026-01-06 04:45:22.44	336.78	0.33	-51.5	-69.4	3.5	3.02e+01	0	32	104	524288	60	153880
2026-01-06 04:45:23.45	336.88	0.28	-51.6	-69.5	3.5	3.02e+01	0	32	104	524288	60	154242
2026-01-06 04:45:24.46	336.97	0.24	-51.3	-69.5	3.5	3.02e+01	0	32	104	524288	60	154148
2026-01-06 04:45:25.47	337.07	0.19	-50.9	-69.5	3.5	3.02e+01	0	32	104	524288	60	154803
2026-01-06 04:45:26.48	337.17	0.14	-51.5	-69.5	3.5	3.02e+01	0	32	104	524288	60	155266
2026-01-06 04:45:27.49	337.26	0.10	-51.2	-69.4	3.5	3.02e+01	0	32	104	524288	60	153798
2026-01-06 04:45:28.51	337.36	0.05	-51.4	-69.4	3.5	3.02e+01	0	32	104	524288	60	152936
2026-01-06 04:45:29.52	337.46	0.01	-51.1	-69.4	3.5	3.02e+01	0	32	104	524288	60	153281

#Closed at: 2026-01-06 04:45:30
#Recorded file [0 MB]: D:/lorett/data/35034_260106_073429.dat