passes_logs/2026/01/06/R4.6S_Anadyr_2ch/R4.6S_Anadyr_2ch__20260106_123232_SUOMI_NPP_rec.log

#Pass ID: 20260106_123232_SUOMI NPP
#Satellite: SUOMI NPP
#Configuration: NPP
#almurnet v.1.7.20251203
#Start time: 2026-01-06 12:32:34

#Version: 2.2.20231116
#Station: R4.6S_Anadyr_2ch
#Location: 177.4865 lon 64.73178 lat
#TLE: 1 37849U 11061A   25350.92281687  .00000071  00000+0  54882-4 0  9996
#TLE: 2 37849  98.7777 288.2268 0002366 112.8570 247.2856 14.19515404732588

#Time	Az	El	Level	Level2	SNR	BER	BlckErr	Temp	State	Recorded	gain1	gain2
2026-01-06 12:32:34.37	19.10	0.09	-51.2	-63.9	3.4	1.52e+00	0	31	0	0	60	74587
2026-01-06 12:32:35.37	19.17	0.14	-51.3	-66.7	3.6	1.51e+00	0	32	104	0	60	105684
2026-01-06 12:32:36.38	19.24	0.19	-51.3	-66.7	3.6	1.51e+00	0	32	104	0	60	105748
2026-01-06 12:32:37.39	19.32	0.24	-51.4	-66.7	3.6	1.51e+00	0	32	104	0	60	105045
2026-01-06 12:32:38.40	19.39	0.29	-51.4	-66.8	3.6	1.51e+00	0	32	104	0	60	106375
2026-01-06 12:32:39.41	19.46	0.34	-51.4	-66.8	3.6	1.51e+00	0	32	104	0	60	106381
2026-01-06 12:32:40.41	19.53	0.39	-51.4	-66.7	3.6	1.51e+00	0	32	104	0	60	106051
2026-01-06 12:32:41.41	19.61	0.44	-51.4	-66.8	3.6	1.51e+00	0	32	104	0	60	106331
2026-01-06 12:32:42.42	19.68	0.50	-51.3	-66.6	3.6	1.51e+00	0	32	104	0	60	104749
2026-01-06 12:32:43.43	19.75	0.55	-51.2	-66.6	3.6	1.51e+00	0	32	104	0	60	104412
2026-01-06 12:32:44.43	19.83	0.60	-51.2	-66.5	3.6	1.51e+00	0	32	104	0	60	103630
2026-01-06 12:32:45.44	19.90	0.65	-51.0	-66.4	3.6	1.51e+00	0	32	104	0	60	101751
2026-01-06 12:32:46.45	19.98	0.70	-50.9	-66.3	3.6	1.51e+00	0	32	104	0	60	100144
2026-01-06 12:32:47.45	20.05	0.75	-50.7	-66.1	3.6	1.51e+00	0	32	104	0	60	98396
2026-01-06 12:32:48.46	20.12	0.80	-50.5	-65.9	3.6	1.51e+00	0	32	104	0	60	96106
2026-01-06 12:32:49.46	20.20	0.85	-50.2	-65.5	3.6	1.51e+00	0	32	104	0	60	91464
2026-01-06 12:32:50.47	20.27	0.90	-49.8	-65.2	3.6	1.51e+00	0	32	104	0	60	88351
2026-01-06 12:32:51.48	20.35	0.95	-49.8	-65.1	3.6	1.51e+00	0	32	104	0	60	87382
2026-01-06 12:32:52.49	20.43	1.00	-49.8	-65.1	3.6	1.51e+00	0	32	104	0	60	87619
2026-01-06 12:32:53.49	20.50	1.05	-49.8	-65.0	3.6	1.51e+00	0	32	104	0	60	87177
2026-01-06 12:32:54.50	20.58	1.10	-49.8	-65.1	3.6	1.51e+00	0	32	104	0	60	87312
2026-01-06 12:32:55.51	20.65	1.15	-49.8	-65.1	3.6	1.51e+00	0	32	104	0	60	87698
2026-01-06 12:32:56.51	20.73	1.21	-49.8	-65.0	3.6	1.51e+00	0	32	104	0	60	87040
2026-01-06 12:32:57.52	20.81	1.26	-49.8	-65.0	3.6	1.51e+00	0	32	104	0	60	86988
2026-01-06 12:32:58.53	20.89	1.31	-49.8	-65.1	3.6	1.51e+00	0	32	104	0	60	87639
2026-01-06 12:32:59.54	20.96	1.36	-49.8	-65.1	3.6	1.51e+00	0	32	104	0	60	87615
2026-01-06 12:33:00.55	21.04	1.41	-49.8	-65.1	3.6	1.51e+00	0	32	104	0	60	87410
2026-01-06 12:33:01.56	21.12	1.46	-49.8	-65.1	3.6	1.51e+00	0	32	104	0	60	87869
2026-01-06 12:33:02.56	21.20	1.51	-49.8	-65.1	3.6	1.51e+00	0	32	104	0	60	88052
2026-01-06 12:33:03.57	21.28	1.56	-49.8	-65.1	3.6	1.51e+00	0	32	104	0	60	87682
2026-01-06 12:33:04.58	21.35	1.62	-49.8	-65.1	3.6	1.51e+00	0	32	104	0	60	87290
2026-01-06 12:33:05.59	21.43	1.67	-49.8	-65.0	3.6	1.51e+00	0	32	104	0	60	86618
2026-01-06 12:33:06.60	21.51	1.72	-49.8	-64.9	3.6	1.51e+00	0	32	104	0	60	85592
2026-01-06 12:33:07.60	21.59	1.77	-49.7	-64.9	3.6	1.51e+00	0	32	104	0	60	86170
2026-01-06 12:33:08.61	21.67	1.82	-49.8	-65.0	3.6	1.51e+00	0	32	104	0	60	86876
2026-01-06 12:33:09.62	21.75	1.87	-49.8	-65.0	3.6	1.51e+00	0	33	104	0	60	86899
2026-01-06 12:33:10.63	21.83	1.93	-49.8	-65.0	3.6	1.51e+00	0	32	104	0	60	87059
2026-01-06 12:33:11.64	21.91	1.98	-49.8	-65.0	3.6	1.51e+00	0	32	104	0	60	87033
2026-01-06 12:33:12.64	21.99	2.03	-49.8	-65.0	3.6	1.51e+00	0	32	104	0	60	86659
2026-01-06 12:33:13.65	22.07	2.08	-49.8	-65.0	3.6	1.51e+00	0	32	104	0	60	86764
2026-01-06 12:33:14.66	22.16	2.13	-49.8	-64.9	3.6	1.51e+00	0	32	104	0	60	85455
2026-01-06 12:33:15.66	22.24	2.19	-49.7	-64.5	3.6	1.51e+00	0	32	104	0	60	81683
2026-01-06 12:33:16.67	22.32	2.24	-49.7	-63.9	3.6	1.51e+00	0	32	104	0	60	76302
2026-01-06 12:33:17.68	22.40	2.29	-49.7	-63.8	3.6	1.51e+00	0	32	104	0	60	75155
2026-01-06 12:33:18.69	22.48	2.34	-49.7	-64.2	3.6	1.51e+00	0	32	104	0	60	78911
2026-01-06 12:33:19.70	22.57	2.40	-49.7	-63.5	3.6	1.51e+00	0	33	104	0	60	73202
2026-01-06 12:33:20.71	22.65	2.45	-49.4	-58.9	5.0	1.21e+00	79	33	0	0	60	42992
2026-01-06 12:33:21.71	22.73	2.50	-48.7	-54.7	8.6	1.99e-01	0	33	102	1048576	60	26414
2026-01-06 12:33:22.72	22.82	2.55	-47.8	-52.1	11.9	5.93e-03	43	33	102	1048576	60	19643
2026-01-06 12:33:23.73	22.90	2.61	-46.4	-49.3	14.9	5.30e-06	0	32	102	1048576	60	14223
2026-01-06 12:33:24.74	22.98	2.66	-45.6	-48.2	16.0	0.00e+00	0	33	102	1048576	60	12462
2026-01-06 12:33:25.75	23.07	2.71	-44.9	-47.0	17.0	0.00e+00	74	32	102	1048576	60	10926
2026-01-06 12:33:26.75	23.15	2.76	-44.5	-46.5	17.6	0.00e+00	0	33	102	1048576	60	10255
2026-01-06 12:33:27.76	23.24	2.82	-44.9	-47.0	17.0	0.00e+00	73	33	102	1048576	60	10958
2026-01-06 12:33:28.77	23.32	2.87	-45.7	-48.3	15.8	0.00e+00	0	33	102	1048576	60	12701
2026-01-06 12:33:29.77	23.41	2.92	-46.4	-49.5	14.4	0.00e+00	92	33	102	1048576	60	14567
2026-01-06 12:33:30.78	23.49	2.97	-47.9	-52.6	11.0	1.87e-04	0	32	102	1048576	60	20790
2026-01-06 12:33:31.79	23.58	3.03	-48.9	-55.7	7.4	1.06e-02	0	33	102	1048576	60	29663
2026-01-06 12:33:32.80	23.67	3.08	-45.2	-47.4	16.7	5.79e-05	0	32	102	1048576	60	11404
2026-01-06 12:33:33.81	23.75	3.13	-49.7	-64.5	3.5	2.10e-01	0	32	104	1048576	60	81696
2026-01-06 12:33:34.82	23.84	3.19	-49.1	-56.8	4.5	1.50e+00	0	32	104	1048576	60	33779
2026-01-06 12:33:35.82	23.93	3.24	-47.6	-51.6	12.8	6.33e-01	0	32	0	1048576	60	18439
2026-01-06 12:33:36.84	24.02	3.29	-49.9	-64.8	3.6	5.53e-01	0	33	104	1048576	60	85220
2026-01-06 12:33:37.84	24.10	3.35	-48.1	-52.9	11.8	1.50e+00	2	33	104	1048576	60	21479
2026-01-06 12:33:38.85	24.19	3.40	-47.5	-51.3	12.5	1.11e-04	0	33	0	1048576	60	17932
2026-01-06 12:33:39.86	24.28	3.45	-47.7	-51.7	13.6	9.23e-05	0	32	0	1048576	60	18679
2026-01-06 12:33:40.87	24.37	3.51	-47.1	-50.4	14.1	6.25e-05	0	33	0	1048576	60	16122
2026-01-06 12:33:41.88	24.46	3.56	-46.1	-48.7	15.6	0.00e+00	76	33	0	1048576	60	13222
2026-01-06 12:33:42.89	24.55	3.61	-45.6	-47.9	16.4	0.00e+00	0	32	0	1048576	60	12139
2026-01-06 12:33:43.90	24.64	3.67	-45.1	-47.3	17.0	0.00e+00	84	33	0	1048576	60	11282
2026-01-06 12:33:44.91	24.73	3.72	-45.0	-47.0	17.2	0.00e+00	0	33	0	1048576	60	10963
2026-01-06 12:33:45.92	24.82	3.77	-45.0	-47.0	17.3	0.00e+00	0	33	0	1048576	60	10947
2026-01-06 12:33:46.93	24.91	3.83	-44.7	-46.7	17.8	0.00e+00	0	33	0	1048576	60	10560
2026-01-06 12:33:47.94	25.00	3.88	-44.6	-46.5	17.8	0.00e+00	0	33	0	1048576	60	10273
2026-01-06 12:33:48.95	25.09	3.94	-43.8	-45.5	18.8	0.00e+00	76	33	0	1048576	60	9185
2026-01-06 12:33:49.96	25.18	3.99	-44.0	-45.7	18.5	0.00e+00	0	33	0	1048576	60	9408
2026-01-06 12:33:50.97	25.28	4.04	-43.7	-45.3	18.9	0.00e+00	79	33	0	1048576	60	8966
2026-01-06 12:33:51.98	25.37	4.10	-43.7	-45.3	19.2	0.00e+00	0	33	0	1048576	60	8954
2026-01-06 12:33:52.99	25.46	4.15	-43.6	-45.1	19.2	0.00e+00	0	33	0	1048576	60	8814
2026-01-06 12:33:54.00	25.55	4.21	-43.5	-45.0	19.2	0.00e+00	0	33	0	1048576	60	8681
2026-01-06 12:33:55.01	25.65	4.26	-43.5	-45.1	19.3	0.00e+00	0	33	0	1048576	60	8756
2026-01-06 12:33:56.02	25.74	4.32	-43.4	-44.9	19.4	0.00e+00	73	33	0	1048576	60	8570
2026-01-06 12:33:57.03	25.84	4.37	-43.3	-44.9	19.4	0.00e+00	0	33	101	1048576	60	8534
2026-01-06 12:33:58.03	25.93	4.42	-43.4	-45.0	19.3	0.00e+00	62	33	101	1048576	60	8632
2026-01-06 12:33:59.04	26.02	4.48	-43.4	-44.9	19.4	0.00e+00	0	33	101	1048576	60	8612
2026-01-06 12:34:00.04	26.12	4.53	-43.4	-44.9	19.4	0.00e+00	10	33	101	1048576	60	8604
2026-01-06 12:34:01.05	26.21	4.59	-43.3	-44.8	19.5	0.00e+00	0	33	101	1048576	60	8507
2026-01-06 12:34:02.06	26.31	4.64	-43.3	-44.8	19.5	0.00e+00	0	33	101	1048576	60	8514
2026-01-06 12:34:03.07	26.41	4.70	-43.2	-44.7	19.5	0.00e+00	0	33	101	1048576	60	8396
2026-01-06 12:34:04.07	26.50	4.75	-43.3	-44.8	19.6	0.00e+00	0	33	101	1048576	60	8458
2026-01-06 12:34:05.08	26.60	4.80	-43.3	-44.8	19.5	0.00e+00	40	33	101	1048576	60	8507
2026-01-06 12:34:06.08	26.69	4.86	-43.1	-44.6	19.8	0.00e+00	0	33	101	1048576	60	8240
2026-01-06 12:34:07.09	26.79	4.91	-43.1	-44.5	19.8	0.00e+00	85	33	101	1048576	60	8205
2026-01-06 12:34:08.10	26.89	4.97	-43.0	-44.5	19.9	0.00e+00	0	33	101	1048576	60	8148
2026-01-06 12:34:09.10	26.99	5.02	-43.0	-44.5	19.9	0.00e+00	0	33	101	1048576	60	8160
2026-01-06 12:34:10.11	27.08	5.08	-43.1	-44.5	19.7	0.00e+00	0	33	101	1048576	60	8223
2026-01-06 12:34:11.12	27.18	5.13	-43.3	-44.7	19.6	0.00e+00	0	33	101	1048576	60	8408
2026-01-06 12:34:12.12	27.28	5.19	-43.2	-44.6	19.7	0.00e+00	43	33	101	1048576	60	8327
2026-01-06 12:34:13.13	27.38	5.24	-43.2	-44.6	19.7	0.00e+00	0	33	101	1048576	60	8318
2026-01-06 12:34:14.14	27.48	5.30	-43.4	-44.9	19.7	0.00e+00	93	33	101	1048576	60	8552
2026-01-06 12:34:15.14	27.58	5.35	-43.2	-44.7	19.7	0.00e+00	0	33	101	1048576	60	8373
2026-01-06 12:34:16.14	27.68	5.41	-43.2	-44.6	19.7	0.00e+00	0	33	101	1048576	60	8314
2026-01-06 12:34:17.15	27.78	5.46	-43.4	-44.9	19.6	0.00e+00	0	33	101	1048576	60	8538
2026-01-06 12:34:18.16	27.88	5.52	-43.6	-45.1	19.2	0.00e+00	0	33	101	1048576	60	8813
2026-01-06 12:34:19.16	27.98	5.57	-43.7	-45.2	19.3	0.00e+00	73	33	101	1048576	60	8904
2026-01-06 12:34:20.17	28.08	5.63	-43.4	-44.9	19.4	0.00e+00	0	33	101	1048576	60	8609
2026-01-06 12:34:21.17	28.19	5.68	-43.4	-44.9	19.7	0.00e+00	92	33	101	1048576	60	8620
2026-01-06 12:34:22.18	28.29	5.74	-43.3	-44.8	19.2	0.00e+00	33	33	101	1048576	60	8503
2026-01-06 12:34:23.19	28.39	5.79	-43.2	-44.6	19.5	0.00e+00	26	33	101	1048576	60	8278
2026-01-06 12:34:24.19	28.49	5.85	-43.2	-44.6	19.8	0.00e+00	0	33	101	1048576	60	8307
2026-01-06 12:34:25.20	28.60	5.90	-43.3	-44.7	19.7	0.00e+00	0	33	101	1048576	60	8383
2026-01-06 12:34:26.20	28.70	5.96	-43.0	-44.4	19.9	0.00e+00	0	33	101	1048576	60	8122
2026-01-06 12:34:27.21	28.81	6.01	-42.9	-44.3	20.2	0.00e+00	0	33	101	1048576	60	7973
2026-01-06 12:34:28.22	28.91	6.07	-43.0	-44.3	20.1	0.00e+00	89	33	101	1048576	60	8026
2026-01-06 12:34:29.23	29.02	6.13	-42.8	-44.1	20.4	0.00e+00	0	33	101	1048576	60	7849
2026-01-06 12:34:30.24	29.12	6.18	-42.6	-43.9	20.6	0.00e+00	92	33	101	1048576	60	7669
2026-01-06 12:34:31.25	29.23	6.24	-42.7	-44.0	20.5	0.00e+00	0	33	101	1048576	60	7726
2026-01-06 12:34:32.26	29.34	6.29	-42.2	-43.5	21.0	0.00e+00	0	33	101	1048576	60	7266
2026-01-06 12:34:33.27	29.44	6.35	-42.2	-43.4	20.9	0.00e+00	0	33	101	1048576	60	7242
2026-01-06 12:34:34.29	29.55	6.41	-42.0	-43.2	21.2	0.00e+00	0	33	101	1048576	60	7051
2026-01-06 12:34:35.30	29.66	6.46	-42.0	-43.2	21.2	0.00e+00	74	33	101	1048576	60	7030
2026-01-06 12:34:36.31	29.77	6.52	-41.8	-42.9	21.4	0.00e+00	0	33	101	1048576	60	6842
2026-01-06 12:34:37.32	29.88	6.57	-41.9	-43.1	21.3	0.00e+00	78	33	101	1048576	60	6949
2026-01-06 12:34:38.33	29.98	6.63	-41.6	-42.8	21.6	0.00e+00	0	33	101	1048576	60	6699
2026-01-06 12:34:39.34	30.09	6.69	-41.7	-42.9	21.5	0.00e+00	0	33	101	1048576	60	6803
2026-01-06 12:34:40.35	30.20	6.74	-41.6	-42.8	21.6	0.00e+00	0	33	101	1048576	60	6710
2026-01-06 12:34:41.36	30.31	6.80	-41.6	-42.8	21.5	0.00e+00	0	33	101	1048576	60	6693
2026-01-06 12:34:42.37	30.42	6.86	-41.7	-42.9	21.5	0.00e+00	77	33	101	1048576	60	6800
2026-01-06 12:34:43.38	30.54	6.91	-41.6	-42.8	21.6	0.00e+00	0	33	101	1048576	60	6695
2026-01-06 12:34:44.39	30.65	6.97	-41.6	-42.8	21.6	0.00e+00	92	33	101	1048576	60	6732
2026-01-06 12:34:45.40	30.76	7.02	-41.7	-42.8	21.4	0.00e+00	0	33	101	1048576	60	6744
2026-01-06 12:34:46.41	30.87	7.08	-42.0	-43.2	21.2	0.00e+00	0	33	101	1048576	60	7027
2026-01-06 12:34:47.43	30.98	7.14	-41.9	-43.1	21.3	0.00e+00	0	33	101	1048576	60	6993
2026-01-06 12:34:48.44	31.10	7.19	-41.7	-42.9	21.5	0.00e+00	0	33	101	1048576	60	6798
2026-01-06 12:34:49.45	31.21	7.25	-42.0	-43.2	21.2	0.00e+00	72	33	101	1048576	60	7044
2026-01-06 12:34:50.46	31.32	7.31	-41.9	-43.1	21.4	0.00e+00	0	33	101	1048576	60	6967
2026-01-06 12:34:51.47	31.44	7.36	-41.9	-43.0	21.4	0.00e+00	75	33	101	1048576	60	6917
2026-01-06 12:34:52.48	31.55	7.42	-42.0	-43.2	21.3	0.00e+00	0	33	101	1048576	60	7028
2026-01-06 12:34:53.49	31.67	7.48	-42.0	-43.2	21.4	0.00e+00	0	33	101	1048576	60	7017
2026-01-06 12:34:54.50	31.78	7.53	-41.9	-43.1	21.4	0.00e+00	0	33	101	1048576	60	6939
2026-01-06 12:34:55.51	31.90	7.59	-42.0	-43.2	21.3	0.00e+00	0	33	101	1048576	60	7052
2026-01-06 12:34:56.52	32.02	7.65	-41.9	-43.1	21.4	0.00e+00	0	33	101	1048576	60	6951
2026-01-06 12:34:57.53	32.13	7.70	-41.8	-43.0	21.4	0.00e+00	0	33	101	1048576	60	6863
2026-01-06 12:34:58.54	32.25	7.76	-41.9	-43.1	21.3	0.00e+00	74	33	101	1048576	60	6990
2026-01-06 12:34:59.55	32.37	7.82	-42.0	-43.1	21.3	0.00e+00	0	33	101	1048576	60	6996
2026-01-06 12:35:00.56	32.49	7.87	-42.0	-43.2	21.2	0.00e+00	0	33	101	1048576	60	7069
2026-01-06 12:35:01.57	32.61	7.93	-42.1	-43.3	21.1	0.00e+00	0	33	101	1048576	60	7150
2026-01-06 12:35:02.58	32.72	7.99	-41.9	-43.0	21.5	0.00e+00	0	33	101	1048576	60	6917
2026-01-06 12:35:03.59	32.84	8.05	-42.0	-43.2	21.4	0.00e+00	49	33	101	1048576	60	7059
2026-01-06 12:35:04.60	32.96	8.10	-41.9	-43.1	21.3	0.00e+00	0	33	101	1048576	60	6983
2026-01-06 12:35:05.61	33.08	8.16	-41.8	-43.0	21.5	0.00e+00	91	33	101	1048576	60	6854
2026-01-06 12:35:06.62	33.21	8.22	-41.8	-43.0	21.6	0.00e+00	0	33	101	1048576	60	6879
2026-01-06 12:35:07.63	33.33	8.27	-41.9	-43.1	21.4	0.00e+00	47	33	101	1048576	60	6984
2026-01-06 12:35:08.64	33.45	8.33	-41.9	-43.1	21.4	0.00e+00	0	33	101	1048576	60	6956
2026-01-06 12:35:09.65	33.57	8.39	-42.0	-43.2	21.4	0.00e+00	0	33	101	1048576	60	7058
2026-01-06 12:35:10.66	33.69	8.44	-42.0	-43.2	21.3	0.00e+00	33	33	101	1048576	60	7055
2026-01-06 12:35:11.67	33.82	8.50	-42.0	-43.2	21.5	0.00e+00	0	33	101	1048576	60	7022
2026-01-06 12:35:12.68	33.94	8.56	-41.9	-43.1	21.4	0.00e+00	83	33	101	1048576	60	6982
2026-01-06 12:35:13.70	34.07	8.62	-41.9	-43.1	21.5	0.00e+00	0	33	101	1048576	60	6965
2026-01-06 12:35:14.71	34.19	8.67	-41.8	-43.0	21.6	0.00e+00	57	33	101	1048576	60	6885
2026-01-06 12:35:15.71	34.31	8.73	-41.9	-43.0	21.6	0.00e+00	0	33	101	1048576	60	6903
2026-01-06 12:35:16.73	34.44	8.79	-41.7	-42.8	21.8	0.00e+00	0	33	101	1048576	60	6708
2026-01-06 12:35:17.74	34.57	8.85	-41.8	-42.9	21.6	0.00e+00	0	33	101	1048576	60	6808
2026-01-06 12:35:18.75	34.69	8.90	-42.0	-43.2	21.6	0.00e+00	0	33	101	1048576	60	7022
2026-01-06 12:35:19.76	34.82	8.96	-41.8	-42.9	21.6	0.00e+00	0	33	101	1048576	60	6843
2026-01-06 12:35:20.77	34.95	9.02	-42.0	-43.2	21.4	0.00e+00	0	33	101	1048576	60	7048
2026-01-06 12:35:21.78	35.08	9.07	-41.8	-43.0	21.5	0.00e+00	84	33	101	1048576	60	6880
2026-01-06 12:35:22.79	35.20	9.13	-41.7	-42.8	21.7	0.00e+00	0	33	101	1048576	60	6733
2026-01-06 12:35:23.80	35.33	9.19	-41.5	-42.6	21.9	0.00e+00	0	33	101	1048576	60	6568
2026-01-06 12:35:24.81	35.46	9.25	-41.4	-42.4	22.0	0.00e+00	0	33	101	1048576	60	6459
2026-01-06 12:35:25.82	35.59	9.30	-41.7	-42.8	21.6	0.00e+00	0	33	101	1048576	60	6711
2026-01-06 12:35:26.83	35.72	9.36	-41.4	-42.4	22.0	0.00e+00	4	33	101	1048576	60	6439
2026-01-06 12:35:27.84	35.85	9.42	-41.5	-42.6	21.4	0.00e+00	0	33	101	1048576	60	6547
2026-01-06 12:35:28.85	35.99	9.48	-41.5	-42.5	21.9	0.00e+00	78	33	101	1048576	60	6538
2026-01-06 12:35:29.86	36.12	9.53	-41.5	-42.6	21.9	0.00e+00	0	33	101	1048576	60	6576
2026-01-06 12:35:30.87	36.25	9.59	-41.4	-42.5	22.0	0.00e+00	0	33	101	1048576	60	6488
2026-01-06 12:35:31.88	36.38	9.65	-41.5	-42.6	21.9	0.00e+00	0	33	101	1048576	60	6577
2026-01-06 12:35:32.89	36.52	9.71	-41.4	-42.5	21.9	0.00e+00	0	33	101	1048576	60	6524
2026-01-06 12:35:33.91	36.65	9.76	-41.2	-42.3	22.1	0.00e+00	80	33	101	1048576	60	6334
2026-01-06 12:35:34.92	36.78	9.82	-41.4	-42.5	22.0	0.00e+00	0	33	101	1048576	60	6529
2026-01-06 12:35:35.93	36.92	9.88	-41.3	-42.4	22.0	0.00e+00	76	33	101	1048576	60	6448
2026-01-06 12:35:36.94	37.06	9.94	-41.3	-42.4	22.2	0.00e+00	0	33	101	1048576	60	6408
2026-01-06 12:35:37.95	37.19	9.99	-41.4	-42.5	22.0	0.00e+00	0	33	101	1048576	60	6499
2026-01-06 12:35:38.96	37.33	10.05	-41.4	-42.5	22.0	0.00e+00	0	33	101	1048576	60	6466
2026-01-06 12:35:39.97	37.46	10.11	-41.4	-42.5	22.0	0.00e+00	0	33	101	1048576	60	6513
2026-01-06 12:35:40.98	37.60	10.16	-41.3	-42.4	22.1	0.00e+00	0	33	101	1048576	60	6410
2026-01-06 12:35:41.99	37.74	10.22	-41.6	-42.7	22.0	0.00e+00	0	33	101	1048576	60	6627
2026-01-06 12:35:43.00	37.88	10.28	-41.5	-42.6	22.0	0.00e+00	77	33	101	1048576	60	6569
2026-01-06 12:35:44.02	38.02	10.34	-41.5	-42.6	22.0	0.00e+00	0	33	101	1048576	60	6556
2026-01-06 12:35:45.03	38.16	10.39	-41.4	-42.5	22.0	0.00e+00	0	33	101	1048576	60	6524
2026-01-06 12:35:46.04	38.30	10.45	-41.5	-42.5	22.0	0.00e+00	0	33	101	1048576	60	6535
2026-01-06 12:35:47.05	38.44	10.51	-41.6	-42.8	21.9	0.00e+00	0	33	101	1048576	60	6702
2026-01-06 12:35:48.06	38.58	10.57	-41.7	-42.9	21.9	0.00e+00	0	33	101	1048576	60	6770
2026-01-06 12:35:49.07	38.72	10.62	-41.7	-42.8	21.6	0.00e+00	0	33	101	1048576	60	6759
2026-01-06 12:35:50.08	38.86	10.68	-41.5	-42.6	21.9	0.00e+00	50	33	101	1048576	60	6560
2026-01-06 12:35:51.09	39.01	10.74	-41.6	-42.7	21.9	0.00e+00	0	33	101	1048576	60	6678
2026-01-06 12:35:52.10	39.15	10.79	-41.6	-42.7	21.9	0.00e+00	48	33	101	1048576	60	6620
2026-01-06 12:35:53.11	39.29	10.85	-41.3	-42.4	22.1	0.00e+00	0	33	101	1048576	60	6405
2026-01-06 12:35:54.12	39.44	10.91	-41.2	-42.2	22.3	0.00e+00	0	33	101	1048576	60	6308
2026-01-06 12:35:55.13	39.58	10.97	-41.0	-42.0	22.4	0.00e+00	0	33	101	1048576	60	6129
2026-01-06 12:35:56.14	39.73	11.02	-41.1	-42.1	22.3	0.00e+00	0	33	101	1048576	60	6236
2026-01-06 12:35:57.15	39.87	11.08	-40.9	-42.0	22.6	0.00e+00	76	33	101	1048576	60	6106
2026-01-06 12:35:58.16	40.02	11.14	-41.0	-42.0	22.3	0.00e+00	0	33	101	1048576	60	6169
2026-01-06 12:35:59.17	40.17	11.19	-41.1	-42.1	22.4	0.00e+00	91	33	101	1048576	60	6234
2026-01-06 12:36:00.18	40.32	11.25	-40.9	-41.9	22.6	0.00e+00	0	33	101	1048576	60	6100
2026-01-06 12:36:01.19	40.46	11.31	-40.9	-42.0	22.5	0.00e+00	0	33	101	1048576	60	6124
2026-01-06 12:36:02.20	40.61	11.36	-41.1	-42.1	22.6	0.00e+00	0	33	101	1048576	60	6210
2026-01-06 12:36:03.21	40.76	11.42	-40.9	-41.9	22.5	0.00e+00	33	33	101	1048576	60	6096
2026-01-06 12:36:04.22	40.91	11.48	-40.8	-41.8	22.8	0.00e+00	4	33	101	1048576	60	6033
2026-01-06 12:36:05.23	41.06	11.53	-40.5	-41.5	22.9	0.00e+00	0	33	101	1048576	60	5784
2026-01-06 12:36:06.24	41.21	11.59	-40.3	-41.3	23.1	0.00e+00	90	33	101	1048576	60	5650
2026-01-06 12:36:07.26	41.37	11.65	-40.2	-41.1	23.3	0.00e+00	0	33	101	1048576	60	5544
2026-01-06 12:36:08.27	41.52	11.71	-40.1	-41.1	23.2	0.00e+00	0	33	101	1048576	58	6187
2026-01-06 12:36:09.28	41.67	11.76	-40.1	-41.1	23.2	0.00e+00	0	33	101	1048576	58	6202
2026-01-06 12:36:10.29	41.82	11.82	-40.2	-41.1	23.3	0.00e+00	0	33	101	1048576	58	6218
2026-01-06 12:36:11.30	41.98	11.87	-40.1	-41.0	23.2	0.00e+00	0	33	101	1048576	58	6161
2026-01-06 12:36:12.31	42.13	11.93	-40.4	-41.4	22.9	0.00e+00	0	33	101	1048576	58	6423
2026-01-06 12:36:13.32	42.29	11.99	-40.3	-41.3	23.0	0.00e+00	70	33	101	1048576	58	6334
2026-01-06 12:36:14.33	42.44	12.04	-40.4	-41.4	22.8	0.00e+00	0	33	101	1048576	58	6429
2026-01-06 12:36:15.34	42.60	12.10	-40.4	-41.4	22.9	0.00e+00	0	33	101	1048576	58	6431
2026-01-06 12:36:16.35	42.76	12.16	-40.6	-41.6	22.8	0.00e+00	0	33	101	1048576	58	6586
2026-01-06 12:36:17.36	42.91	12.21	-40.6	-41.6	22.8	0.00e+00	0	33	101	1048576	58	6542
2026-01-06 12:36:18.37	43.07	12.27	-40.5	-41.5	22.9	0.00e+00	0	33	101	1048576	58	6467
2026-01-06 12:36:19.38	43.23	12.32	-40.6	-41.6	22.8	0.00e+00	0	33	101	1048576	58	6574
2026-01-06 12:36:20.39	43.39	12.38	-40.7	-41.7	22.8	0.00e+00	79	33	101	1048576	58	6683
2026-01-06 12:36:21.40	43.55	12.44	-40.4	-41.3	23.0	0.00e+00	0	33	101	1048576	58	6379
2026-01-06 12:36:22.41	43.71	12.49	-40.3	-41.3	23.1	0.00e+00	30	33	101	1048576	58	6361
2026-01-06 12:36:23.42	43.87	12.55	-40.3	-41.2	23.2	0.00e+00	0	33	101	1048576	58	6295
2026-01-06 12:36:24.43	44.03	12.60	-40.2	-41.2	23.1	0.00e+00	0	33	101	1048576	58	6284
2026-01-06 12:36:25.44	44.19	12.66	-40.2	-41.2	23.2	0.00e+00	72	33	101	1048576	58	6249
2026-01-06 12:36:26.45	44.36	12.71	-40.3	-41.2	23.2	0.00e+00	0	33	101	1048576	58	6311
2026-01-06 12:36:27.46	44.52	12.77	-40.1	-41.1	23.2	0.00e+00	64	33	101	1048576	58	6209
2026-01-06 12:36:28.47	44.68	12.83	-40.3	-41.2	23.2	0.00e+00	0	33	101	1048576	58	6308
2026-01-06 12:36:29.48	44.85	12.88	-40.2	-41.1	23.2	0.00e+00	41	33	101	1048576	58	6234
2026-01-06 12:36:30.49	45.01	12.94	-40.2	-41.2	23.2	0.00e+00	0	33	101	1048576	58	6272
2026-01-06 12:36:31.50	45.18	12.99	-40.2	-41.1	23.2	0.00e+00	0	33	101	1048576	58	6219
2026-01-06 12:36:32.51	45.34	13.05	-40.4	-41.4	23.0	0.00e+00	0	33	101	1048576	58	6424
2026-01-06 12:36:33.52	45.51	13.10	-40.3	-41.2	22.9	0.00e+00	0	33	101	1048576	58	6312
2026-01-06 12:36:34.53	45.68	13.16	-40.5	-41.5	22.9	0.00e+00	55	33	101	1048576	58	6492
2026-01-06 12:36:35.55	45.85	13.21	-40.5	-41.5	22.9	0.00e+00	0	33	101	1048576	58	6507
2026-01-06 12:36:36.55	46.01	13.26	-40.5	-41.5	22.9	0.00e+00	68	33	101	1048576	58	6532
2026-01-06 12:36:37.56	46.18	13.32	-40.6	-41.6	22.9	0.00e+00	0	33	101	1048576	58	6587
2026-01-06 12:36:38.57	46.35	13.37	-40.6	-41.6	22.8	0.00e+00	0	33	101	1048576	58	6582
2026-01-06 12:36:39.58	46.52	13.43	-40.8	-41.8	22.9	0.00e+00	0	33	101	1048576	58	6707
2026-01-06 12:36:40.59	46.69	13.48	-40.5	-41.5	22.9	0.00e+00	0	33	101	1048576	58	6513
2026-01-06 12:36:41.60	46.87	13.54	-40.7	-41.7	22.8	0.00e+00	77	33	101	1048576	58	6679
2026-01-06 12:36:42.61	47.04	13.59	-41.0	-42.1	22.4	0.00e+00	0	33	101	1048576	58	6951
2026-01-06 12:36:43.62	47.21	13.64	-41.3	-42.3	22.4	0.00e+00	77	33	101	1048576	60	6362
2026-01-06 12:36:44.63	47.38	13.70	-41.1	-42.2	22.4	0.00e+00	0	33	101	1048576	60	6277
2026-01-06 12:36:45.64	47.56	13.75	-40.8	-41.8	22.7	0.00e+00	0	33	101	1048576	60	6020
2026-01-06 12:36:46.65	47.73	13.80	-40.9	-42.0	22.6	0.00e+00	0	33	101	1048576	60	6124
2026-01-06 12:36:47.66	47.91	13.86	-41.0	-42.0	22.5	0.00e+00	0	33	101	1048576	60	6139
2026-01-06 12:36:48.67	48.08	13.91	-41.2	-42.3	22.4	0.00e+00	82	33	101	1048576	60	6321
2026-01-06 12:36:49.68	48.26	13.96	-41.1	-42.2	22.5	0.00e+00	0	33	101	1048576	60	6263
2026-01-06 12:36:50.69	48.44	14.02	-41.1	-42.2	22.3	0.00e+00	83	33	101	1048576	60	6254
2026-01-06 12:36:51.70	48.62	14.07	-41.5	-42.6	22.1	0.00e+00	0	33	101	1048576	60	6564
2026-01-06 12:36:52.71	48.79	14.12	-40.9	-41.9	22.5	0.00e+00	0	33	101	1048576	60	6061
2026-01-06 12:36:53.72	48.97	14.18	-41.0	-42.0	22.6	0.00e+00	0	33	101	1048576	60	6131
2026-01-06 12:36:54.74	49.16	14.23	-41.0	-42.0	22.6	0.00e+00	0	33	101	1048576	60	6136
2026-01-06 12:36:55.75	49.34	14.28	-41.0	-42.1	22.5	0.00e+00	82	33	101	1048576	60	6194
2026-01-06 12:36:56.76	49.52	14.33	-41.3	-42.3	22.3	0.00e+00	0	33	101	1048576	60	6384
2026-01-06 12:36:57.77	49.70	14.38	-41.6	-42.7	22.0	0.00e+00	82	33	101	1048576	60	6672
2026-01-06 12:36:58.78	49.88	14.44	-41.6	-42.7	22.1	0.00e+00	0	33	101	1048576	60	6679
2026-01-06 12:36:59.79	50.06	14.49	-41.8	-43.0	21.9	0.00e+00	0	33	101	1048576	60	6858
2026-01-06 12:37:00.79	50.24	14.54	-41.8	-42.9	21.9	0.00e+00	0	33	101	1048576	60	6831
2026-01-06 12:37:01.80	50.43	14.59	-41.7	-42.8	22.0	0.00e+00	0	33	101	1048576	60	6744
2026-01-06 12:37:02.81	50.61	14.64	-41.7	-42.8	21.9	0.00e+00	0	33	101	1048576	60	6737
2026-01-06 12:37:03.82	50.80	14.69	-41.8	-42.9	21.9	0.00e+00	0	33	101	1048576	60	6820
2026-01-06 12:37:04.83	50.98	14.74	-41.5	-42.6	22.1	0.00e+00	67	33	101	1048576	60	6576
2026-01-06 12:37:05.84	51.17	14.79	-41.3	-42.4	22.3	0.00e+00	0	33	101	1048576	60	6435
2026-01-06 12:37:06.85	51.36	14.84	-41.3	-42.4	22.4	0.00e+00	0	33	101	1048576	60	6450
2026-01-06 12:37:07.86	51.54	14.89	-41.2	-42.3	22.2	0.00e+00	0	33	101	1048576	60	6324
2026-01-06 12:37:08.87	51.73	14.94	-41.3	-42.4	22.1	0.00e+00	0	33	101	1048576	60	6442
2026-01-06 12:37:09.88	51.92	14.99	-41.2	-42.3	22.5	0.00e+00	0	33	101	1048576	60	6352
2026-01-06 12:37:10.89	52.11	15.04	-41.2	-42.3	22.4	0.00e+00	0	33	101	1048576	60	6344
2026-01-06 12:37:11.90	52.30	15.09	-41.5	-42.6	22.2	0.00e+00	80	33	101	1048576	60	6546
2026-01-06 12:37:12.91	52.49	15.14	-41.3	-42.4	22.3	0.00e+00	0	33	101	1048576	60	6424
2026-01-06 12:37:13.92	52.68	15.19	-41.6	-42.7	22.1	0.00e+00	92	33	101	1048576	60	6623
2026-01-06 12:37:14.93	52.88	15.24	-41.7	-42.9	21.9	0.00e+00	0	33	101	1048576	60	6787
2026-01-06 12:37:15.94	53.07	15.29	-41.9	-43.0	21.9	0.00e+00	0	33	101	1048576	60	6880
2026-01-06 12:37:16.95	53.26	15.34	-41.8	-43.0	21.8	0.00e+00	0	33	101	1048576	60	6857
2026-01-06 12:37:17.96	53.45	15.39	-41.8	-42.9	21.9	0.00e+00	0	33	101	1048576	60	6831
2026-01-06 12:37:18.97	53.65	15.44	-41.8	-43.0	21.9	0.00e+00	15	33	101	1048576	60	6857
2026-01-06 12:37:19.98	53.84	15.48	-41.6	-42.7	22.1	0.00e+00	0	33	101	1048576	60	6652
2026-01-06 12:37:20.99	54.04	15.53	-41.3	-42.4	22.4	0.00e+00	90	33	101	1048576	60	6420
2026-01-06 12:37:22.00	54.24	15.58	-41.2	-42.3	22.4	0.00e+00	0	33	101	1048576	60	6334
2026-01-06 12:37:23.01	54.43	15.63	-41.4	-42.5	22.2	0.00e+00	0	33	101	1048576	60	6475
2026-01-06 12:37:24.02	54.63	15.67	-41.5	-42.6	21.7	0.00e+00	0	33	101	1048576	60	6583
2026-01-06 12:37:25.03	54.83	15.72	-41.6	-42.7	22.0	0.00e+00	0	33	101	1048576	60	6668
2026-01-06 12:37:26.04	55.03	15.77	-41.8	-42.9	21.9	0.00e+00	6	33	101	1048576	60	6802
2026-01-06 12:37:27.05	55.23	15.81	-42.1	-43.2	21.7	0.00e+00	0	33	101	1048576	60	7077
2026-01-06 12:37:28.06	55.43	15.86	-41.8	-42.9	21.9	0.00e+00	44	33	101	1048576	60	6838
2026-01-06 12:37:29.07	55.63	15.90	-41.7	-42.8	22.0	0.00e+00	0	33	101	1048576	60	6725
2026-01-06 12:37:30.09	55.83	15.95	-41.6	-42.7	22.0	0.00e+00	0	33	101	1048576	60	6664
2026-01-06 12:37:31.10	56.03	16.00	-42.0	-43.1	21.6	0.00e+00	0	33	101	1048576	60	6993
2026-01-06 12:37:32.11	56.23	16.04	-41.6	-42.7	22.2	0.00e+00	0	33	101	1048576	60	6653
2026-01-06 12:37:33.12	56.44	16.09	-41.7	-42.9	21.9	0.00e+00	51	33	101	1048576	60	6771
2026-01-06 12:37:34.13	56.64	16.13	-41.8	-43.0	21.7	0.00e+00	0	33	101	1048576	60	6870
2026-01-06 12:37:35.14	56.84	16.18	-41.8	-43.0	21.9	0.00e+00	92	33	101	1048576	60	6851
2026-01-06 12:37:36.15	57.05	16.22	-41.8	-42.9	22.0	0.00e+00	0	33	101	1048576	60	6799
2026-01-06 12:37:37.16	57.25	16.26	-41.5	-42.6	22.1	0.00e+00	33	33	101	1048576	60	6589
2026-01-06 12:37:38.17	57.46	16.31	-41.3	-42.3	22.3	0.00e+00	0	33	101	1048576	60	6377
2026-01-06 12:37:39.18	57.67	16.35	-41.4	-42.5	22.3	0.00e+00	0	33	101	1048576	60	6471
2026-01-06 12:37:40.19	57.87	16.39	-41.5	-42.5	22.2	0.00e+00	22	33	101	1048576	60	6530
2026-01-06 12:37:41.20	58.08	16.44	-41.4	-42.5	22.2	0.00e+00	0	33	101	1048576	60	6503
2026-01-06 12:37:42.21	58.29	16.48	-41.8	-42.9	21.9	0.00e+00	81	33	101	1048576	60	6818
2026-01-06 12:37:43.22	58.50	16.52	-42.0	-43.1	21.7	0.00e+00	33	33	101	1048576	60	6982
2026-01-06 12:37:44.23	58.71	16.56	-41.7	-42.8	21.9	0.00e+00	0	33	101	1048576	60	6745
2026-01-06 12:37:45.24	58.92	16.60	-41.9	-43.0	21.9	0.00e+00	0	33	101	1048576	60	6902
2026-01-06 12:37:46.25	59.13	16.65	-41.5	-42.6	22.1	0.00e+00	0	33	101	1048576	60	6568
2026-01-06 12:37:47.26	59.34	16.69	-41.2	-42.2	22.5	0.00e+00	65	33	101	1048576	60	6273
2026-01-06 12:37:48.27	59.55	16.73	-41.1	-42.2	22.4	0.00e+00	0	33	101	1048576	60	6256
2026-01-06 12:37:49.29	59.76	16.77	-40.8	-41.8	22.9	0.00e+00	79	33	101	1048576	60	5983
2026-01-06 12:37:50.30	59.98	16.81	-40.7	-41.7	22.8	0.00e+00	0	33	101	1048576	60	5932
2026-01-06 12:37:51.31	60.19	16.85	-40.8	-41.8	22.7	0.00e+00	90	33	101	1048576	60	5983
2026-01-06 12:37:52.32	60.40	16.89	-40.5	-41.5	22.8	0.00e+00	0	33	101	1048576	60	5812
2026-01-06 12:37:53.33	60.62	16.93	-40.8	-41.8	22.8	0.00e+00	0	33	101	1048576	60	5994
2026-01-06 12:37:54.34	60.83	16.97	-41.0	-42.1	22.6	0.00e+00	0	33	101	1048576	60	6175
2026-01-06 12:37:55.35	61.05	17.01	-41.0	-42.0	22.5	0.00e+00	0	33	101	1048576	60	6143
2026-01-06 12:37:56.36	61.26	17.04	-41.0	-42.0	22.6	0.00e+00	81	33	101	1048576	60	6167
2026-01-06 12:37:57.37	61.48	17.08	-41.2	-42.3	22.4	0.00e+00	0	33	101	1048576	60	6344
2026-01-06 12:37:58.38	61.70	17.12	-41.3	-42.4	22.2	0.00e+00	86	33	101	1048576	60	6411
2026-01-06 12:37:59.39	61.92	17.16	-41.7	-42.8	22.1	0.00e+00	0	33	101	1048576	60	6742
2026-01-06 12:38:00.40	62.13	17.19	-41.6	-42.7	22.2	0.00e+00	0	33	101	1048576	60	6628
2026-01-06 12:38:01.41	62.35	17.23	-40.9	-42.0	22.7	0.00e+00	0	33	101	1048576	60	6106
2026-01-06 12:38:02.41	62.57	17.27	-40.7	-41.6	22.9	0.00e+00	0	33	101	1048576	60	5896
2026-01-06 12:38:03.41	62.79	17.30	-40.7	-41.7	22.8	0.00e+00	83	33	101	1048576	60	5947
2026-01-06 12:38:04.42	63.01	17.34	-40.5	-41.5	22.9	0.00e+00	0	33	101	1048576	60	5793
2026-01-06 12:38:05.42	63.23	17.37	-40.1	-41.1	23.1	0.00e+00	79	33	101	1048576	60	5522
2026-01-06 12:38:06.43	63.45	17.41	-40.0	-41.0	23.3	0.00e+00	0	33	101	1048576	58	6109
2026-01-06 12:38:07.43	63.67	17.44	-40.2	-41.2	23.2	0.00e+00	0	33	101	1048576	58	6256
2026-01-06 12:38:08.44	63.89	17.47	-40.5	-41.5	22.9	0.00e+00	0	33	101	1048576	58	6503
2026-01-06 12:38:09.45	64.11	17.51	-40.7	-41.7	22.9	0.00e+00	0	33	101	1048576	58	6671
2026-01-06 12:38:10.45	64.33	17.54	-40.9	-42.0	22.6	0.00e+00	0	33	101	1048576	58	6855
2026-01-06 12:38:11.46	64.56	17.57	-41.0	-42.0	22.6	0.00e+00	0	33	101	1048576	58	6924
2026-01-06 12:38:12.47	64.78	17.61	-40.8	-41.9	22.6	0.00e+00	80	33	101	1048576	58	6775
2026-01-06 12:38:13.47	65.00	17.64	-40.8	-41.8	22.8	0.00e+00	0	33	101	1048576	58	6763
2026-01-06 12:38:14.48	65.23	17.67	-40.7	-41.7	22.9	0.00e+00	0	33	101	1048576	58	6627
2026-01-06 12:38:15.49	65.45	17.70	-40.5	-41.5	23.0	0.00e+00	0	33	101	1048576	58	6511
2026-01-06 12:38:16.49	65.68	17.73	-40.5	-41.5	23.1	0.00e+00	0	33	101	1048576	58	6487
2026-01-06 12:38:17.50	65.90	17.76	-40.5	-41.4	22.8	0.00e+00	0	33	101	1048576	58	6448
2026-01-06 12:38:18.51	66.13	17.79	-40.2	-41.1	23.3	0.00e+00	0	33	101	1048576	58	6237
2026-01-06 12:38:19.51	66.35	17.82	-39.9	-40.8	23.5	0.00e+00	69	33	101	1048576	58	5999
2026-01-06 12:38:20.52	66.58	17.85	-39.8	-40.7	23.6	0.00e+00	0	33	101	1048576	58	5942
2026-01-06 12:38:21.53	66.81	17.88	-39.7	-40.6	23.7	0.00e+00	91	33	101	1048576	58	5868
2026-01-06 12:38:22.53	67.04	17.91	-39.8	-40.7	23.6	0.00e+00	0	33	101	1048576	58	5953
2026-01-06 12:38:23.53	67.26	17.94	-40.1	-41.1	23.3	0.00e+00	0	33	101	1048576	58	6199
2026-01-06 12:38:24.54	67.49	17.97	-40.4	-41.3	23.0	0.00e+00	0	33	101	1048576	58	6363
2026-01-06 12:38:25.54	67.72	17.99	-40.4	-41.4	23.3	0.00e+00	0	33	101	1048576	58	6403
2026-01-06 12:38:26.55	67.95	18.02	-40.4	-41.4	23.0	0.00e+00	12	33	101	1048576	58	6422
2026-01-06 12:38:27.56	68.18	18.05	-40.3	-41.2	23.3	0.00e+00	0	33	101	1048576	58	6308
2026-01-06 12:38:28.56	68.41	18.07	-39.9	-40.8	23.5	0.00e+00	79	33	101	1048576	58	6018
2026-01-06 12:38:29.57	68.64	18.10	-40.1	-41.0	23.1	0.00e+00	0	33	101	1048576	58	6137
2026-01-06 12:38:30.58	68.87	18.13	-40.0	-41.0	23.3	0.00e+00	0	33	101	1048576	58	6113
2026-01-06 12:38:31.58	69.10	18.15	-40.3	-41.2	23.1	0.00e+00	0	33	101	1048576	58	6293
2026-01-06 12:38:32.58	69.33	18.17	-40.5	-41.5	22.9	0.00e+00	0	33	101	1048576	58	6478
2026-01-06 12:38:33.59	69.57	18.20	-40.8	-41.8	22.8	0.00e+00	5	33	101	1048576	58	6746
2026-01-06 12:38:34.60	69.80	18.22	-40.8	-41.8	22.8	0.00e+00	0	33	101	1048576	58	6761
2026-01-06 12:38:35.60	70.03	18.25	-40.7	-41.7	22.9	0.00e+00	75	33	101	1048576	58	6658
2026-01-06 12:38:36.61	70.27	18.27	-40.4	-41.4	23.2	0.00e+00	0	33	101	1048576	58	6437
2026-01-06 12:38:37.61	70.50	18.29	-40.3	-41.3	23.2	0.00e+00	84	33	101	1048576	58	6338
2026-01-06 12:38:38.62	70.73	18.31	-40.6	-41.6	23.0	0.00e+00	0	33	101	1048576	58	6546
2026-01-06 12:38:39.62	70.96	18.33	-40.7	-41.7	23.0	0.00e+00	0	33	101	1048576	58	6624
2026-01-06 12:38:40.63	71.20	18.36	-40.9	-41.9	22.7	0.00e+00	0	33	101	1048576	58	6830
2026-01-06 12:38:41.63	71.43	18.38	-41.1	-42.1	22.4	0.00e+00	0	33	101	1048576	60	6206
2026-01-06 12:38:42.64	71.67	18.40	-41.0	-42.1	22.7	0.00e+00	70	33	101	1048576	60	6174
2026-01-06 12:38:43.64	71.90	18.42	-41.0	-42.1	22.6	0.00e+00	0	33	101	1048576	60	6180
2026-01-06 12:38:44.65	72.14	18.44	-40.7	-41.7	22.9	0.00e+00	92	33	101	1048576	60	5905
2026-01-06 12:38:45.65	72.37	18.45	-40.9	-41.9	22.7	0.00e+00	0	33	101	1048576	60	6096
2026-01-06 12:38:46.66	72.61	18.47	-41.1	-42.1	22.6	0.00e+00	0	33	101	1048576	60	6217
2026-01-06 12:38:47.67	72.85	18.49	-41.4	-42.5	22.4	0.00e+00	0	33	101	1048576	60	6479
2026-01-06 12:38:48.67	73.08	18.51	-41.7	-42.8	22.0	0.00e+00	0	33	101	1048576	60	6719
2026-01-06 12:38:49.68	73.32	18.52	-41.7	-42.9	22.1	0.00e+00	0	33	101	1048576	60	6776
2026-01-06 12:38:50.68	73.56	18.54	-41.8	-42.9	22.0	0.00e+00	0	33	101	1048576	60	6806
2026-01-06 12:38:51.68	73.79	18.56	-41.7	-42.9	22.0	0.00e+00	91	33	101	1048576	60	6791
2026-01-06 12:38:52.69	74.03	18.57	-41.7	-42.8	22.0	0.00e+00	0	33	101	1048576	60	6708
2026-01-06 12:38:53.69	74.27	18.59	-41.6	-42.7	22.0	0.00e+00	0	33	101	1048576	60	6642
2026-01-06 12:38:54.70	74.51	18.60	-41.6	-42.7	22.0	0.00e+00	0	33	101	1048576	60	6691
2026-01-06 12:38:55.71	74.75	18.62	-41.6	-42.7	22.2	0.00e+00	0	33	101	1048576	60	6665
2026-01-06 12:38:56.71	74.99	18.63	-41.7	-42.9	21.9	0.00e+00	0	33	101	1048576	60	6783
2026-01-06 12:38:57.72	75.23	18.64	-41.5	-42.6	22.1	0.00e+00	0	33	101	1048576	60	6579
2026-01-06 12:38:58.72	75.46	18.66	-41.2	-42.2	22.4	0.00e+00	71	33	101	1048576	60	6294
2026-01-06 12:38:59.73	75.70	18.67	-41.2	-42.2	22.5	0.00e+00	0	33	101	1048576	60	6306
2026-01-06 12:39:00.74	75.94	18.68	-40.8	-41.8	22.9	0.00e+00	0	33	101	1048576	60	6002
2026-01-06 12:39:01.74	76.18	18.69	-40.9	-41.8	22.8	0.00e+00	0	33	101	1048576	60	6027
2026-01-06 12:39:02.75	76.42	18.70	-40.9	-41.9	22.8	0.00e+00	0	33	101	1048576	60	6069
2026-01-06 12:39:03.76	76.66	18.71	-41.0	-42.0	22.7	0.00e+00	57	33	101	1048576	60	6163
2026-01-06 12:39:04.76	76.90	18.72	-41.2	-42.3	22.4	0.00e+00	0	33	101	1048576	60	6343
2026-01-06 12:39:05.77	77.14	18.73	-41.3	-42.3	22.6	0.00e+00	78	33	101	1048576	60	6351
2026-01-06 12:39:06.78	77.39	18.74	-41.2	-42.2	22.5	0.00e+00	0	33	101	1048576	60	6258
2026-01-06 12:39:07.78	77.62	18.75	-41.2	-42.3	22.6	0.00e+00	77	33	101	1048576	60	6321
2026-01-06 12:39:08.79	77.87	18.76	-41.0	-42.0	22.6	0.00e+00	0	33	101	1048576	60	6156
2026-01-06 12:39:09.79	78.11	18.76	-41.1	-42.2	22.5	0.00e+00	0	33	101	1048576	60	6263
2026-01-06 12:39:10.80	78.35	18.77	-41.5	-42.5	22.2	0.00e+00	0	33	101	1048576	60	6527
2026-01-06 12:39:11.81	78.59	18.78	-41.2	-42.3	22.4	0.00e+00	0	33	101	1048576	60	6338
2026-01-06 12:39:12.82	78.83	18.78	-41.5	-42.6	22.2	0.00e+00	79	33	101	1048576	60	6556
2026-01-06 12:39:13.82	79.07	18.79	-41.6	-42.6	22.1	0.00e+00	0	33	101	1048576	60	6594
2026-01-06 12:39:14.83	79.31	18.79	-41.7	-42.7	22.1	0.00e+00	81	33	101	1048576	60	6690
2026-01-06 12:39:15.84	79.56	18.80	-41.7	-42.8	22.0	0.00e+00	0	33	101	1048576	60	6753
2026-01-06 12:39:16.84	79.80	18.80	-41.8	-43.0	21.9	0.00e+00	0	33	101	1048576	60	6880
2026-01-06 12:39:17.85	80.04	18.80	-42.0	-43.2	21.7	0.00e+00	0	33	101	1048576	60	7055
2026-01-06 12:39:18.85	80.28	18.81	-41.8	-43.0	21.9	0.00e+00	0	33	101	1048576	60	6869
2026-01-06 12:39:19.86	80.52	18.81	-41.9	-43.1	21.8	0.00e+00	0	33	101	1048576	60	6998
2026-01-06 12:39:20.87	80.77	18.81	-41.8	-43.0	21.9	0.00e+00	0	33	101	1048576	60	6878
2026-01-06 12:39:21.88	81.01	18.81	-41.4	-42.5	22.2	0.00e+00	83	33	101	1048576	60	6519
2026-01-06 12:39:22.88	81.25	18.81	-41.1	-42.1	22.6	0.00e+00	0	33	101	1048576	60	6240
2026-01-06 12:39:23.89	81.49	18.82	-40.8	-41.8	22.9	0.00e+00	0	33	101	1048576	60	5990
2026-01-06 12:39:24.89	81.73	18.82	-40.7	-41.7	22.9	0.00e+00	0	33	101	1048576	60	5932
2026-01-06 12:39:25.90	81.97	18.81	-40.9	-42.0	22.7	0.00e+00	0	33	101	1048576	60	6114
2026-01-06 12:39:26.91	82.22	18.81	-40.9	-41.9	22.6	0.00e+00	0	33	101	1048576	60	6071
2026-01-06 12:39:27.91	82.46	18.81	-41.2	-42.3	22.4	0.00e+00	0	33	101	1048576	60	6377
2026-01-06 12:39:28.92	82.70	18.81	-41.3	-42.4	22.4	0.00e+00	79	33	101	1048576	60	6398
2026-01-06 12:39:29.92	82.94	18.81	-41.3	-42.3	22.4	0.00e+00	0	33	101	1048576	60	6381
2026-01-06 12:39:30.93	83.18	18.80	-41.5	-42.6	22.3	0.00e+00	92	33	101	1048576	60	6570
2026-01-06 12:39:31.94	83.43	18.80	-41.5	-42.6	22.2	0.00e+00	0	33	101	1048576	60	6575
2026-01-06 12:39:32.94	83.67	18.80	-41.6	-42.7	22.1	0.00e+00	0	33	101	1048576	60	6647
2026-01-06 12:39:33.95	83.91	18.79	-41.5	-42.6	22.1	0.00e+00	0	33	101	1048576	60	6579
2026-01-06 12:39:34.95	84.15	18.79	-41.7	-42.8	22.0	0.00e+00	0	33	101	1048576	60	6760
2026-01-06 12:39:35.96	84.39	18.78	-41.8	-42.9	22.0	0.00e+00	82	33	101	1048576	60	6806
2026-01-06 12:39:36.97	84.63	18.78	-41.7	-42.8	22.0	0.00e+00	0	33	101	1048576	60	6739
2026-01-06 12:39:37.97	84.87	18.77	-41.4	-42.5	22.2	0.00e+00	83	33	101	1048576	60	6524
2026-01-06 12:39:38.98	85.11	18.76	-41.5	-42.6	21.5	0.00e+00	0	33	101	1048576	60	6584
2026-01-06 12:39:39.98	85.35	18.76	-41.4	-42.5	22.2	0.00e+00	0	33	101	1048576	60	6490
2026-01-06 12:39:40.99	85.60	18.75	-41.5	-42.6	22.2	0.00e+00	0	33	101	1048576	60	6572
2026-01-06 12:39:42.00	85.84	18.74	-41.6	-42.8	21.9	0.00e+00	0	33	101	1048576	60	6693
2026-01-06 12:39:43.00	86.08	18.73	-41.3	-42.4	22.3	0.00e+00	9	33	101	1048576	60	6426
2026-01-06 12:39:44.01	86.32	18.72	-41.5	-42.6	22.2	0.00e+00	0	33	101	1048576	60	6560
2026-01-06 12:39:45.02	86.56	18.71	-41.2	-42.3	22.5	0.00e+00	80	33	101	1048576	60	6321
2026-01-06 12:39:46.02	86.80	18.70	-41.2	-42.2	22.5	0.00e+00	0	33	101	1048576	60	6305
2026-01-06 12:39:47.02	87.04	18.69	-40.7	-41.7	22.9	0.00e+00	0	33	101	1048576	60	5932
2026-01-06 12:39:48.03	87.28	18.68	-40.5	-41.5	23.1	0.00e+00	0	33	101	1048576	60	5766
2026-01-06 12:39:49.03	87.52	18.67	-40.4	-41.4	22.9	0.00e+00	0	33	101	1048576	60	5719
2026-01-06 12:39:50.04	87.76	18.65	-40.4	-41.4	23.2	0.00e+00	46	33	101	1048576	60	5699
2026-01-06 12:39:51.05	88.00	18.64	-40.4	-41.4	23.1	0.00e+00	0	33	101	1048576	60	5696
2026-01-06 12:39:52.05	88.23	18.63	-40.6	-41.6	23.0	0.00e+00	56	33	101	1048576	60	5829
2026-01-06 12:39:53.06	88.47	18.61	-40.8	-41.8	22.8	0.00e+00	0	33	101	1048576	60	6009
2026-01-06 12:39:54.06	88.71	18.60	-41.1	-42.1	22.6	0.00e+00	91	33	101	1048576	60	6240
2026-01-06 12:39:55.07	88.95	18.58	-41.1	-42.2	22.5	0.00e+00	0	33	101	1048576	60	6265
2026-01-06 12:39:56.07	89.19	18.57	-41.3	-42.3	22.4	0.00e+00	0	33	101	1048576	60	6386
2026-01-06 12:39:57.08	89.43	18.55	-41.1	-42.1	22.5	0.00e+00	0	33	101	1048576	60	6216
2026-01-06 12:39:58.08	89.66	18.54	-41.3	-42.4	22.3	0.00e+00	0	33	101	1048576	60	6414
2026-01-06 12:39:59.09	89.90	18.52	-41.4	-42.5	22.3	0.00e+00	47	33	101	1048576	60	6503
2026-01-06 12:40:00.10	90.14	18.50	-41.5	-42.5	22.1	0.00e+00	0	33	101	1048576	60	6519
2026-01-06 12:40:01.11	90.38	18.49	-41.4	-42.5	22.1	0.00e+00	93	33	101	1048576	60	6515
2026-01-06 12:40:02.11	90.61	18.47	-41.6	-42.7	22.2	0.00e+00	0	33	101	1048576	60	6623
2026-01-06 12:40:03.12	90.85	18.45	-41.2	-42.3	22.4	0.00e+00	0	33	101	1048576	60	6366
2026-01-06 12:40:04.13	91.09	18.43	-41.2	-42.3	22.5	0.00e+00	0	33	101	1048576	60	6331
2026-01-06 12:40:05.13	91.32	18.41	-40.9	-41.9	22.6	0.00e+00	0	33	101	1048576	60	6080
2026-01-06 12:40:06.14	91.56	18.39	-40.6	-41.6	22.9	0.00e+00	24	33	101	1048576	60	5836
2026-01-06 12:40:07.14	91.79	18.37	-40.8	-41.8	22.8	0.00e+00	0	33	101	1048576	60	5991
2026-01-06 12:40:08.15	92.03	18.35	-40.9	-42.0	22.7	0.00e+00	92	33	101	1048576	60	6106
2026-01-06 12:40:09.16	92.27	18.33	-41.1	-42.1	22.6	0.00e+00	0	33	101	1048576	60	6230
2026-01-06 12:40:10.17	92.50	18.31	-41.4	-42.4	22.2	0.00e+00	0	33	101	1048576	60	6462
2026-01-06 12:40:11.17	92.73	18.29	-41.5	-42.6	22.1	0.00e+00	0	33	101	1048576	60	6546
2026-01-06 12:40:12.18	92.97	18.26	-41.6	-42.8	22.1	0.00e+00	33	33	101	1048576	60	6705
2026-01-06 12:40:13.18	93.20	18.24	-41.5	-42.6	22.1	0.00e+00	18	33	101	1048576	60	6555
2026-01-06 12:40:14.19	93.43	18.22	-41.1	-42.1	22.3	0.00e+00	0	33	101	1048576	60	6243
2026-01-06 12:40:15.20	93.67	18.19	-40.8	-41.8	22.9	0.00e+00	75	33	101	1048576	60	5975
2026-01-06 12:40:16.20	93.90	18.17	-40.5	-41.5	23.1	0.00e+00	0	33	101	1048576	60	5775
2026-01-06 12:40:17.21	94.13	18.15	-40.6	-41.5	23.1	0.00e+00	92	33	101	1048576	60	5821
2026-01-06 12:40:18.22	94.36	18.12	-40.5	-41.5	23.1	0.00e+00	0	33	101	1048576	60	5783
2026-01-06 12:40:19.22	94.59	18.09	-40.9	-41.9	22.7	0.00e+00	33	33	101	1048576	60	6045
2026-01-06 12:40:20.22	94.82	18.07	-40.8	-41.8	22.8	0.00e+00	0	33	101	1048576	60	5991
2026-01-06 12:40:21.23	95.06	18.04	-40.8	-41.9	22.7	0.00e+00	0	33	101	1048576	60	6042
2026-01-06 12:40:22.24	95.29	18.02	-40.7	-41.7	22.8	0.00e+00	79	33	101	1048576	60	5938
2026-01-06 12:40:23.25	95.52	17.99	-40.6	-41.5	23.0	0.00e+00	0	33	101	1048576	60	5825
2026-01-06 12:40:24.25	95.75	17.96	-40.4	-41.4	23.1	0.00e+00	90	33	101	1048576	60	5724
2026-01-06 12:40:25.26	95.98	17.93	-39.9	-40.9	23.5	0.00e+00	0	33	101	1048576	58	6042
2026-01-06 12:40:26.26	96.20	17.90	-39.7	-40.7	23.4	0.00e+00	0	33	101	1048576	58	5924
2026-01-06 12:40:27.27	96.43	17.88	-39.9	-40.9	23.5	0.00e+00	0	33	101	1048576	58	6043
2026-01-06 12:40:28.27	96.66	17.85	-39.9	-40.9	23.5	0.00e+00	0	33	101	1048576	58	6055
2026-01-06 12:40:29.28	96.89	17.82	-40.3	-41.3	23.2	0.00e+00	0	33	101	1048576	58	6335
2026-01-06 12:40:30.28	97.11	17.79	-40.5	-41.5	23.1	0.00e+00	0	33	101	1048576	58	6493
2026-01-06 12:40:31.28	97.34	17.76	-40.5	-41.5	22.9	0.00e+00	80	33	101	1048576	58	6505
2026-01-06 12:40:32.29	97.56	17.73	-40.3	-41.3	23.2	0.00e+00	0	33	101	1048576	58	6345
2026-01-06 12:40:33.29	97.79	17.69	-40.1	-41.0	23.4	0.00e+00	0	33	101	1048576	58	6160
2026-01-06 12:40:34.30	98.01	17.66	-40.0	-40.9	23.4	0.00e+00	0	33	101	1048576	58	6095
2026-01-06 12:40:35.31	98.24	17.63	-39.7	-40.6	23.7	0.00e+00	0	33	101	1048576	58	5835
2026-01-06 12:40:36.31	98.46	17.60	-39.8	-40.8	23.6	0.00e+00	9	33	101	1048576	58	5967
2026-01-06 12:40:37.32	98.69	17.57	-39.9	-40.8	23.5	0.00e+00	0	33	101	1048576	58	5980
2026-01-06 12:40:38.33	98.91	17.53	-39.9	-40.9	23.4	0.00e+00	78	33	101	1048576	58	6040
2026-01-06 12:40:39.33	99.13	17.50	-40.1	-41.0	23.4	0.00e+00	0	33	101	1048576	58	6144
2026-01-06 12:40:40.34	99.35	17.47	-40.0	-41.0	23.4	0.00e+00	93	33	101	1048576	58	6128
2026-01-06 12:40:41.35	99.58	17.43	-40.1	-41.0	23.4	0.00e+00	0	33	101	1048576	58	6129
2026-01-06 12:40:42.35	99.80	17.40	-40.1	-41.0	23.4	0.00e+00	0	33	101	1048576	58	6173
2026-01-06 12:40:43.35	100.02	17.36	-40.3	-41.2	23.2	0.00e+00	17	33	101	1048576	58	6312
2026-01-06 12:40:44.36	100.24	17.33	-40.2	-41.2	23.3	0.00e+00	0	33	101	1048576	58	6289
2026-01-06 12:40:45.37	100.46	17.29	-40.3	-41.3	23.2	0.00e+00	80	33	101	1048576	58	6319
2026-01-06 12:40:46.38	100.68	17.25	-40.6	-41.6	22.9	0.00e+00	0	33	101	1048576	58	6563
2026-01-06 12:40:47.38	100.90	17.22	-40.5	-41.4	23.1	0.00e+00	83	33	101	1048576	58	6451
2026-01-06 12:40:48.38	101.11	17.18	-40.4	-41.4	23.1	0.00e+00	0	33	101	1048576	58	6430
2026-01-06 12:40:49.39	101.33	17.14	-40.2	-41.2	23.2	0.00e+00	0	33	101	1048576	58	6290
2026-01-06 12:40:50.39	101.55	17.11	-40.2	-41.2	23.2	0.00e+00	0	33	101	1048576	58	6273
2026-01-06 12:40:51.40	101.77	17.07	-40.0	-41.0	23.4	0.00e+00	0	33	101	1048576	58	6115
2026-01-06 12:40:52.41	101.98	17.03	-40.2	-41.2	23.2	0.00e+00	1	33	101	1048576	58	6246
2026-01-06 12:40:53.41	102.20	16.99	-40.3	-41.3	23.1	0.00e+00	0	33	101	1048576	58	6356
2026-01-06 12:40:54.42	102.41	16.95	-40.4	-41.4	23.0	0.00e+00	83	33	101	1048576	58	6445
2026-01-06 12:40:55.42	102.63	16.92	-40.5	-41.5	22.9	0.00e+00	0	33	101	1048576	58	6501
2026-01-06 12:40:56.43	102.84	16.88	-40.4	-41.3	23.1	0.00e+00	45	33	101	1048576	58	6363
2026-01-06 12:40:57.44	103.06	16.84	-40.3	-41.2	23.1	0.00e+00	0	33	101	1048576	58	6308
2026-01-06 12:40:58.44	103.27	16.80	-40.2	-41.1	23.3	0.00e+00	0	33	101	1048576	58	6217
2026-01-06 12:40:59.45	103.48	16.76	-40.3	-41.3	23.1	0.00e+00	75	33	101	1048576	58	6355
2026-01-06 12:41:00.46	103.69	16.72	-40.6	-41.6	23.0	0.00e+00	0	33	101	1048576	58	6553
2026-01-06 12:41:01.47	103.91	16.67	-40.7	-41.7	22.7	0.00e+00	71	33	101	1048576	58	6674
2026-01-06 12:41:02.47	104.11	16.63	-41.1	-42.2	22.3	0.00e+00	0	33	101	1048576	58	7088
2026-01-06 12:41:03.48	104.33	16.59	-41.2	-42.3	22.3	0.00e+00	49	33	101	1048576	60	6382
2026-01-06 12:41:04.49	104.54	16.55	-41.6	-42.7	21.7	0.00e+00	0	33	101	1048576	60	6680
2026-01-06 12:41:05.49	104.74	16.51	-41.3	-42.4	22.1	0.00e+00	0	33	101	1048576	60	6407
2026-01-06 12:41:06.50	104.95	16.47	-41.1	-42.2	22.5	0.00e+00	0	33	101	1048576	60	6279
2026-01-06 12:41:07.50	105.16	16.42	-41.0	-42.0	22.5	0.00e+00	0	33	101	1048576	60	6118
2026-01-06 12:41:08.51	105.37	16.38	-40.9	-41.9	22.4	0.00e+00	74	33	101	1048576	60	6062
2026-01-06 12:41:09.51	105.57	16.34	-40.7	-41.7	22.9	0.00e+00	0	33	101	1048576	60	5913
2026-01-06 12:41:10.52	105.78	16.29	-40.5	-41.5	23.0	0.00e+00	92	33	101	1048576	60	5805
2026-01-06 12:41:11.53	105.99	16.25	-40.3	-41.3	23.0	0.00e+00	0	33	101	1048576	60	5677
2026-01-06 12:41:12.53	106.19	16.21	-40.4	-41.4	23.1	0.00e+00	0	33	101	1048576	60	5716
2026-01-06 12:41:13.54	106.40	16.16	-40.3	-41.3	23.1	0.00e+00	0	33	101	1048576	58	6346
2026-01-06 12:41:14.54	106.60	16.12	-40.3	-41.2	23.2	0.00e+00	0	33	101	1048576	58	6299
2026-01-06 12:41:15.55	106.80	16.07	-40.2	-41.2	23.1	0.00e+00	0	33	101	1048576	58	6283
2026-01-06 12:41:16.56	107.01	16.03	-40.4	-41.4	23.0	0.00e+00	0	33	101	1048576	58	6412
2026-01-06 12:41:17.56	107.21	15.98	-40.4	-41.4	22.9	0.00e+00	92	33	101	1048576	58	6437
2026-01-06 12:41:18.57	107.41	15.94	-40.7	-41.7	22.5	0.00e+00	0	33	101	1048576	58	6623
2026-01-06 12:41:19.58	107.61	15.89	-41.2	-42.3	22.3	0.00e+00	0	33	101	1048576	58	7118
2026-01-06 12:41:20.58	107.81	15.85	-41.7	-42.8	21.8	0.00e+00	0	33	101	1048576	60	6750
2026-01-06 12:41:21.59	108.01	15.80	-42.1	-43.3	21.5	0.00e+00	0	33	101	1048576	60	7159
2026-01-06 12:41:22.59	108.21	15.75	-42.3	-43.5	21.0	0.00e+00	0	33	101	1048576	60	7316
2026-01-06 12:41:23.60	108.41	15.71	-42.6	-43.9	20.9	0.00e+00	0	33	101	1048576	60	7650
2026-01-06 12:41:24.61	108.61	15.66	-42.9	-44.2	20.8	0.00e+00	74	33	101	1048576	60	7910
2026-01-06 12:41:25.62	108.80	15.61	-42.2	-43.4	21.5	0.00e+00	0	33	101	1048576	60	7185
2026-01-06 12:41:26.62	109.00	15.56	-41.9	-43.1	21.8	0.00e+00	86	33	101	1048576	60	6929
2026-01-06 12:41:27.63	109.20	15.52	-41.8	-43.0	21.9	0.00e+00	0	33	101	1048576	60	6880
2026-01-06 12:41:28.63	109.39	15.47	-41.5	-42.6	22.1	0.00e+00	0	33	101	1048576	60	6552
2026-01-06 12:41:29.64	109.59	15.42	-41.3	-42.3	22.3	0.00e+00	41	33	101	1048576	60	6367
2026-01-06 12:41:30.65	109.78	15.37	-41.2	-42.2	22.4	0.00e+00	0	33	101	1048576	60	6317
2026-01-06 12:41:31.65	109.97	15.32	-40.9	-41.9	22.7	0.00e+00	73	33	101	1048576	60	6053
2026-01-06 12:41:32.66	110.17	15.27	-40.8	-41.8	22.8	0.00e+00	0	33	101	1048576	60	6018
2026-01-06 12:41:33.67	110.36	15.23	-40.5	-41.5	23.1	0.00e+00	83	33	101	1048576	60	5775
2026-01-06 12:41:34.67	110.55	15.18	-40.6	-41.6	23.1	0.00e+00	0	33	101	1048576	60	5854
2026-01-06 12:41:35.67	110.74	15.13	-40.6	-41.6	22.8	0.00e+00	0	33	101	1048576	60	5868
2026-01-06 12:41:36.68	110.93	15.08	-41.0	-42.0	22.5	0.00e+00	0	33	101	1048576	60	6168
2026-01-06 12:41:37.69	111.12	15.03	-41.2	-42.3	22.3	0.00e+00	0	33	101	1048576	60	6347
2026-01-06 12:41:38.69	111.31	14.98	-41.8	-43.0	21.7	0.00e+00	4	33	101	1048576	60	6880
2026-01-06 12:41:39.70	111.50	14.93	-42.0	-43.1	21.6	0.00e+00	0	33	101	1048576	60	7002
2026-01-06 12:41:40.70	111.69	14.88	-41.8	-43.0	21.7	0.00e+00	56	33	101	1048576	60	6891
2026-01-06 12:41:41.71	111.88	14.83	-41.9	-43.1	21.6	0.00e+00	0	33	101	1048576	60	6937
2026-01-06 12:41:42.72	112.07	14.78	-41.9	-43.0	21.8	0.00e+00	19	33	101	1048576	60	6917
2026-01-06 12:41:43.73	112.25	14.73	-41.7	-42.8	21.9	0.00e+00	0	33	101	1048576	60	6728
2026-01-06 12:41:44.74	112.44	14.67	-41.3	-42.4	22.2	0.00e+00	0	33	101	1048576	60	6433
2026-01-06 12:41:45.75	112.62	14.62	-41.2	-42.3	22.4	0.00e+00	79	33	101	1048576	60	6356
2026-01-06 12:41:46.76	112.81	14.57	-41.1	-42.2	22.4	0.00e+00	0	33	101	1048576	60	6284
2026-01-06 12:41:47.77	112.99	14.52	-41.4	-42.5	22.1	0.00e+00	90	33	101	1048576	60	6505
2026-01-06 12:41:48.78	113.18	14.47	-41.2	-42.3	22.2	0.00e+00	0	33	101	1048576	60	6346
2026-01-06 12:41:49.79	113.36	14.42	-41.2	-42.2	22.3	0.00e+00	0	33	101	1048576	60	6305
2026-01-06 12:41:50.80	113.54	14.36	-41.2	-42.3	22.2	0.00e+00	0	33	101	1048576	60	6326
2026-01-06 12:41:51.81	113.73	14.31	-41.0	-42.0	22.5	0.00e+00	0	33	101	1048576	60	6152
2026-01-06 12:41:52.82	113.91	14.26	-40.8	-41.8	22.6	0.00e+00	0	33	101	1048576	60	6022
2026-01-06 12:41:53.83	114.09	14.21	-40.9	-41.9	22.5	0.00e+00	0	33	101	1048576	60	6098
2026-01-06 12:41:54.84	114.27	14.15	-40.8	-41.8	22.8	0.00e+00	92	33	101	1048576	60	6003
2026-01-06 12:41:55.85	114.45	14.10	-40.9	-41.9	22.6	0.00e+00	0	33	101	1048576	60	6068
2026-01-06 12:41:56.86	114.63	14.05	-41.2	-42.2	22.4	0.00e+00	92	33	101	1048576	60	6294
2026-01-06 12:41:57.87	114.81	13.99	-41.1	-42.2	22.3	0.00e+00	0	33	101	1048576	60	6259
2026-01-06 12:41:58.88	114.98	13.94	-41.6	-42.7	22.0	0.00e+00	0	33	101	1048576	60	6630
2026-01-06 12:41:59.90	115.16	13.89	-41.5	-42.6	22.1	0.00e+00	0	33	101	1048576	60	6596
2026-01-06 12:42:00.90	115.34	13.83	-41.3	-42.5	22.2	0.00e+00	0	33	101	1048576	60	6482
2026-01-06 12:42:01.91	115.51	13.78	-41.1	-42.2	22.4	0.00e+00	83	33	101	1048576	60	6285
2026-01-06 12:42:02.92	115.69	13.73	-41.0	-42.0	22.5	0.00e+00	0	33	101	1048576	60	6151
2026-01-06 12:42:03.93	115.86	13.67	-40.6	-41.6	22.8	0.00e+00	92	33	101	1048576	60	5843
2026-01-06 12:42:04.94	116.04	13.62	-40.5	-41.5	23.0	0.00e+00	0	33	101	1048576	60	5782
2026-01-06 12:42:05.95	116.21	13.56	-40.5	-41.5	22.9	0.00e+00	0	33	101	1048576	60	5818
2026-01-06 12:42:06.96	116.38	13.51	-40.3	-41.3	22.9	0.00e+00	0	33	101	1048576	60	5684
2026-01-06 12:42:07.97	116.56	13.46	-40.7	-41.7	22.7	0.00e+00	0	33	101	1048576	60	5953
2026-01-06 12:42:08.98	116.73	13.40	-40.9	-41.9	22.7	0.00e+00	80	33	101	1048576	60	6076
2026-01-06 12:42:09.99	116.90	13.35	-40.9	-42.0	22.5	0.00e+00	0	33	101	1048576	60	6110
2026-01-06 12:42:11.00	117.07	13.29	-41.0	-42.1	22.4	0.00e+00	92	33	101	1048576	60	6180
2026-01-06 12:42:12.01	117.24	13.24	-40.9	-42.0	22.4	0.00e+00	0	33	101	1048576	60	6119
2026-01-06 12:42:13.02	117.41	13.18	-40.8	-41.8	22.6	0.00e+00	0	33	101	1048576	60	6023
2026-01-06 12:42:14.03	117.58	13.13	-41.0	-42.0	22.5	0.00e+00	0	33	101	1048576	60	6167
2026-01-06 12:42:15.05	117.75	13.07	-40.9	-42.0	22.6	0.00e+00	0	33	101	1048576	60	6113
2026-01-06 12:42:16.06	117.91	13.02	-40.9	-41.9	22.5	0.00e+00	42	33	101	1048576	60	6100
2026-01-06 12:42:17.07	118.08	12.96	-40.9	-41.9	22.5	0.00e+00	0	33	101	1048576	60	6095
2026-01-06 12:42:18.08	118.25	12.90	-40.9	-42.0	22.5	0.00e+00	92	33	101	1048576	60	6108
2026-01-06 12:42:19.09	118.41	12.85	-41.2	-42.2	22.2	0.00e+00	0	33	101	1048576	60	6316
2026-01-06 12:42:20.10	118.58	12.79	-41.0	-42.0	22.4	0.00e+00	0	33	101	1048576	60	6165
2026-01-06 12:42:21.11	118.74	12.74	-41.0	-42.0	22.5	0.00e+00	0	33	101	1048576	60	6155
2026-01-06 12:42:22.12	118.90	12.68	-40.5	-41.5	22.9	0.00e+00	0	33	101	1048576	60	5816
2026-01-06 12:42:23.12	119.07	12.63	-40.3	-41.3	23.1	0.00e+00	45	33	101	1048576	60	5662
2026-01-06 12:42:24.14	119.23	12.57	-40.1	-41.1	23.2	0.00e+00	0	33	101	1048576	60	5514
2026-01-06 12:42:25.15	119.39	12.51	-39.9	-40.9	23.3	0.00e+00	91	33	101	1048576	58	6046
2026-01-06 12:42:26.16	119.55	12.46	-39.9	-40.9	23.3	0.00e+00	0	33	101	1048576	58	6045
2026-01-06 12:42:27.17	119.71	12.40	-40.0	-40.9	23.3	0.00e+00	39	33	101	1048576	58	6064
2026-01-06 12:42:28.18	119.87	12.35	-40.1	-41.0	23.2	0.00e+00	0	33	101	1048576	58	6162
2026-01-06 12:42:29.19	120.03	12.29	-40.3	-41.3	23.0	0.00e+00	0	33	101	1048576	58	6368
2026-01-06 12:42:30.20	120.19	12.23	-40.7	-41.8	22.7	0.00e+00	57	33	101	1048576	58	6699
2026-01-06 12:42:31.21	120.35	12.18	-40.8	-41.8	22.4	0.00e+00	0	33	101	1048576	58	6735
2026-01-06 12:42:32.22	120.51	12.12	-41.1	-42.1	22.3	0.00e+00	73	33	101	1048576	58	6991
2026-01-06 12:42:33.23	120.67	12.06	-40.8	-41.9	22.6	0.00e+00	0	33	101	1048576	58	6778
2026-01-06 12:42:34.24	120.82	12.01	-40.9	-41.9	22.6	0.00e+00	40	33	101	1048576	58	6825
2026-01-06 12:42:35.25	120.98	11.95	-40.7	-41.7	22.7	0.00e+00	0	33	101	1048576	58	6628
2026-01-06 12:42:36.26	121.13	11.89	-40.3	-41.3	23.0	0.00e+00	0	33	101	1048576	58	6361
2026-01-06 12:42:37.27	121.29	11.84	-40.2	-41.2	23.0	0.00e+00	0	33	101	1048576	58	6270
2026-01-06 12:42:38.28	121.44	11.78	-40.2	-41.2	23.1	0.00e+00	0	33	101	1048576	58	6271
2026-01-06 12:42:39.29	121.60	11.72	-40.2	-41.2	23.0	0.00e+00	92	33	101	1048576	58	6260
2026-01-06 12:42:40.30	121.75	11.66	-40.2	-41.2	23.0	0.00e+00	0	33	101	1048576	58	6268
2026-01-06 12:42:41.31	121.90	11.61	-40.4	-41.4	22.8	0.00e+00	92	33	101	1048576	58	6444
2026-01-06 12:42:42.32	122.05	11.55	-40.7	-41.7	22.7	0.00e+00	0	33	101	1048576	58	6619
2026-01-06 12:42:43.33	122.21	11.49	-40.7	-41.7	22.7	0.00e+00	0	33	101	1048576	58	6627
2026-01-06 12:42:44.35	122.36	11.44	-40.8	-41.8	22.5	0.00e+00	0	33	101	1048576	58	6727
2026-01-06 12:42:45.36	122.51	11.38	-40.9	-42.0	22.4	0.00e+00	0	33	101	1048576	58	6871
2026-01-06 12:42:46.37	122.66	11.32	-40.9	-41.9	22.4	0.00e+00	19	33	101	1048576	58	6828
2026-01-06 12:42:47.38	122.81	11.26	-40.7	-41.7	22.6	0.00e+00	0	33	101	1048576	58	6639
2026-01-06 12:42:48.39	122.96	11.21	-40.6	-41.6	22.6	0.00e+00	92	33	101	1048576	58	6585
2026-01-06 12:42:49.40	123.10	11.15	-40.6	-41.6	22.7	0.00e+00	0	33	101	1048576	58	6553
2026-01-06 12:42:50.41	123.25	11.09	-40.7	-41.7	22.6	0.00e+00	0	33	101	1048576	58	6663
2026-01-06 12:42:51.42	123.40	11.03	-40.7	-41.7	22.6	0.00e+00	0	33	101	1048576	58	6691
2026-01-06 12:42:52.43	123.54	10.98	-41.0	-42.1	22.3	0.00e+00	0	33	101	1048576	58	6953
2026-01-06 12:42:53.44	123.69	10.92	-41.2	-42.3	22.2	0.00e+00	2	33	101	1048576	60	6322
2026-01-06 12:42:54.45	123.83	10.86	-41.5	-42.6	22.0	0.00e+00	0	33	101	1048576	60	6541
2026-01-06 12:42:55.46	123.98	10.80	-41.7	-42.9	21.6	0.00e+00	90	33	101	1048576	60	6771
2026-01-06 12:42:56.47	124.12	10.75	-42.0	-43.1	21.4	0.00e+00	0	33	101	1048576	60	6996
2026-01-06 12:42:57.48	124.27	10.69	-41.9	-43.1	21.6	0.00e+00	0	33	101	1048576	60	6955
2026-01-06 12:42:58.50	124.41	10.63	-41.8	-43.0	21.6	0.00e+00	0	33	101	1048576	60	6866
2026-01-06 12:42:59.51	124.55	10.57	-41.6	-42.7	21.8	0.00e+00	0	33	101	1048576	60	6670
2026-01-06 12:43:00.52	124.70	10.52	-41.5	-42.6	21.9	0.00e+00	1	33	101	1048576	60	6556
2026-01-06 12:43:01.53	124.84	10.46	-41.3	-42.4	22.1	0.00e+00	0	33	101	1048576	60	6455
2026-01-06 12:43:02.54	124.98	10.40	-41.4	-42.5	21.9	0.00e+00	92	33	101	1048576	60	6515
2026-01-06 12:43:03.55	125.12	10.34	-41.5	-42.6	22.0	0.00e+00	0	33	101	1048576	60	6569
2026-01-06 12:43:04.56	125.26	10.28	-41.5	-42.6	21.9	0.00e+00	0	33	101	1048576	60	6589
2026-01-06 12:43:05.57	125.40	10.23	-41.5	-42.6	22.0	0.00e+00	0	33	101	1048576	60	6556
2026-01-06 12:43:06.58	125.54	10.17	-41.6	-42.7	21.9	0.00e+00	0	33	101	1048576	60	6673
2026-01-06 12:43:07.59	125.68	10.11	-41.5	-42.6	21.9	0.00e+00	0	33	101	1048576	60	6588
2026-01-06 12:43:08.60	125.81	10.05	-41.6	-42.7	21.8	0.00e+00	0	33	101	1048576	60	6652
2026-01-06 12:43:09.61	125.95	10.00	-41.5	-42.6	22.0	0.00e+00	92	33	101	1048576	60	6569
2026-01-06 12:43:10.62	126.09	9.94	-41.3	-42.3	22.1	0.00e+00	0	33	101	1048576	60	6383
2026-01-06 12:43:11.63	126.22	9.88	-41.3	-42.4	22.0	0.00e+00	0	33	101	1048576	60	6430
2026-01-06 12:43:12.64	126.36	9.82	-41.3	-42.4	22.1	0.00e+00	0	33	101	1048576	60	6427
2026-01-06 12:43:13.65	126.49	9.76	-41.3	-42.4	22.1	0.00e+00	0	33	101	1048576	60	6440
2026-01-06 12:43:14.66	126.63	9.71	-41.2	-42.3	22.2	0.00e+00	73	33	101	1048576	60	6345
2026-01-06 12:43:15.67	126.76	9.65	-41.2	-42.2	22.2	0.00e+00	0	33	101	1048576	60	6314
2026-01-06 12:43:16.68	126.90	9.59	-41.4	-42.5	22.0	0.00e+00	92	33	101	1048576	60	6495
2026-01-06 12:43:17.69	127.03	9.53	-41.4	-42.5	21.9	0.00e+00	0	33	101	1048576	60	6511
2026-01-06 12:43:18.70	127.16	9.48	-41.6	-42.7	21.8	0.00e+00	92	33	101	1048576	60	6672
2026-01-06 12:43:19.71	127.29	9.42	-41.7	-42.9	21.6	0.00e+00	0	33	101	1048576	60	6792
2026-01-06 12:43:20.72	127.42	9.36	-41.8	-43.0	21.6	0.00e+00	0	33	101	1048576	60	6851
2026-01-06 12:43:21.73	127.56	9.30	-41.8	-43.0	21.5	0.00e+00	65	33	101	1048576	60	6851
2026-01-06 12:43:22.74	127.69	9.24	-41.7	-42.8	21.6	0.00e+00	0	33	101	1048576	60	6740
2026-01-06 12:43:23.75	127.82	9.19	-41.6	-42.7	21.7	0.00e+00	56	33	101	1048576	60	6676
2026-01-06 12:43:24.76	127.95	9.13	-41.4	-42.5	21.9	0.00e+00	0	33	101	1048576	60	6530
2026-01-06 12:43:25.78	128.08	9.07	-41.5	-42.6	21.8	0.00e+00	85	33	101	1048576	60	6605
2026-01-06 12:43:26.79	128.21	9.01	-41.4	-42.5	22.0	0.00e+00	0	33	101	1048576	60	6497
2026-01-06 12:43:27.80	128.33	8.95	-41.2	-42.3	22.1	0.00e+00	0	33	101	1048576	60	6374
2026-01-06 12:43:28.81	128.46	8.90	-41.2	-42.3	22.1	0.00e+00	0	33	101	1048576	60	6352
2026-01-06 12:43:29.82	128.59	8.84	-41.3	-42.3	22.0	0.00e+00	0	33	101	1048576	60	6381
2026-01-06 12:43:30.83	128.71	8.78	-41.4	-42.5	21.9	0.00e+00	10	33	101	1048576	60	6468
2026-01-06 12:43:31.84	128.84	8.72	-41.8	-42.9	21.6	0.00e+00	0	33	101	1048576	60	6846
2026-01-06 12:43:32.85	128.97	8.67	-41.8	-42.9	21.6	0.00e+00	86	33	101	1048576	60	6822
2026-01-06 12:43:33.86	129.09	8.61	-41.9	-43.1	21.3	0.00e+00	0	33	101	1048576	60	6980
2026-01-06 12:43:34.87	129.22	8.55	-42.1	-43.3	21.2	0.00e+00	0	33	101	1048576	60	7107
2026-01-06 12:43:35.88	129.34	8.49	-41.9	-43.1	21.4	0.00e+00	0	33	101	1048576	60	6953
2026-01-06 12:43:36.89	129.46	8.44	-41.6	-42.7	21.3	0.00e+00	0	33	101	1048576	60	6674
2026-01-06 12:43:37.90	129.59	8.38	-41.6	-42.8	21.4	0.00e+00	76	33	101	1048576	60	6709
2026-01-06 12:43:38.91	129.71	8.32	-41.2	-42.3	22.0	0.00e+00	0	33	101	1048576	60	6378
2026-01-06 12:43:39.92	129.83	8.26	-41.1	-42.2	22.1	0.00e+00	91	33	101	1048576	60	6259
2026-01-06 12:43:40.93	129.95	8.20	-40.9	-41.9	22.2	0.00e+00	0	33	101	1048576	60	6082
2026-01-06 12:43:41.94	130.08	8.15	-40.9	-41.9	22.3	0.00e+00	0	33	101	1048576	60	6080
2026-01-06 12:43:42.96	130.20	8.09	-40.8	-41.8	22.3	0.00e+00	0	33	101	1048576	60	6014
2026-01-06 12:43:43.96	130.32	8.03	-40.9	-41.9	22.0	0.00e+00	0	33	101	1048576	60	6059
2026-01-06 12:43:44.97	130.44	7.97	-40.9	-42.0	21.9	0.00e+00	77	33	101	1048576	60	6120
2026-01-06 12:43:45.99	130.56	7.92	-41.2	-42.3	21.7	0.00e+00	0	33	101	1048576	60	6342
2026-01-06 12:43:47.00	130.68	7.86	-41.3	-42.4	21.8	0.00e+00	90	33	101	1048576	60	6453
2026-01-06 12:43:48.01	130.80	7.80	-41.5	-42.6	21.7	0.00e+00	0	33	101	1048576	60	6585
2026-01-06 12:43:49.02	130.91	7.74	-41.6	-42.8	21.5	0.00e+00	79	33	101	1048576	60	6706
2026-01-06 12:43:50.03	131.03	7.69	-42.1	-43.3	21.2	0.00e+00	0	33	101	1048576	60	7102
2026-01-06 12:43:51.04	131.15	7.63	-42.2	-43.4	21.0	0.00e+00	0	33	101	1048576	60	7233
2026-01-06 12:43:52.05	131.27	7.57	-42.5	-43.8	20.8	0.00e+00	0	33	101	1048576	60	7567
2026-01-06 12:43:53.06	131.38	7.52	-42.6	-43.9	20.5	0.00e+00	0	33	101	1048576	60	7662
2026-01-06 12:43:54.07	131.50	7.46	-42.5	-43.9	20.6	0.00e+00	44	33	101	1048576	60	7597
2026-01-06 12:43:55.08	131.61	7.40	-42.6	-43.9	20.5	0.00e+00	0	33	101	1048576	60	7651
2026-01-06 12:43:56.09	131.73	7.34	-42.6	-43.9	20.5	0.00e+00	34	33	101	1048576	60	7680
2026-01-06 12:43:57.10	131.84	7.29	-42.7	-44.0	20.4	0.00e+00	0	33	101	1048576	60	7740
2026-01-06 12:43:58.11	131.96	7.23	-43.0	-44.4	20.3	0.00e+00	0	33	101	1048576	60	8064
2026-01-06 12:43:59.12	132.07	7.17	-43.0	-44.4	20.0	0.00e+00	0	33	101	1048576	60	8112
2026-01-06 12:44:00.14	132.19	7.12	-43.6	-45.1	19.5	0.00e+00	33	33	101	1048576	60	8768
2026-01-06 12:44:01.15	132.30	7.06	-43.6	-45.1	19.5	0.00e+00	92	33	101	1048576	60	8738
2026-01-06 12:44:02.16	132.41	7.00	-43.8	-45.3	19.3	0.00e+00	0	33	101	1048576	60	9014
2026-01-06 12:44:03.17	132.53	6.94	-44.1	-45.8	18.8	0.00e+00	91	33	101	1048576	60	9464
2026-01-06 12:44:04.18	132.64	6.89	-44.1	-45.8	18.9	0.00e+00	0	33	101	1048576	60	9457
2026-01-06 12:44:05.19	132.75	6.83	-43.8	-45.4	19.1	0.00e+00	0	33	101	1048576	60	9093
2026-01-06 12:44:06.20	132.86	6.77	-44.1	-45.7	18.8	0.00e+00	0	33	101	1048576	60	9435
2026-01-06 12:44:07.21	132.97	6.72	-43.9	-45.6	19.1	0.00e+00	0	33	101	1048576	60	9249
2026-01-06 12:44:08.22	133.08	6.66	-43.8	-45.4	19.2	0.00e+00	73	33	101	1048576	60	9030
2026-01-06 12:44:09.23	133.19	6.60	-43.5	-45.0	19.6	0.00e+00	0	33	101	1048576	60	8646
2026-01-06 12:44:10.24	133.30	6.55	-43.2	-44.6	19.9	0.00e+00	92	33	101	1048576	60	8296
2026-01-06 12:44:11.25	133.41	6.49	-43.2	-44.6	19.8	0.00e+00	0	33	101	1048576	60	8299
2026-01-06 12:44:12.26	133.52	6.43	-43.1	-44.5	20.1	0.00e+00	0	33	101	1048576	60	8201
2026-01-06 12:44:13.27	133.62	6.38	-42.8	-44.1	20.3	0.00e+00	0	33	101	1048576	60	7854
