passes_logs/2026/01/06/R4.6S_Anadyr_2ch/R4.6S_Anadyr_2ch__20260106_173322_SUOMI_NPP_rec.log

#Pass ID: 20260106_173322_SUOMI NPP
#Satellite: SUOMI NPP
#Configuration: NPP
#almurnet v.1.7.20251203
#Start time: 2026-01-06 17:33:23

#Version: 2.2.20231116
#Station: R4.6S_Anadyr_2ch
#Location: 177.4865 lon 64.73178 lat
#TLE: 1 37849U 11061A   25350.92281687  .00000071  00000+0  54882-4 0  9996
#TLE: 2 37849  98.7777 288.2268 0002366 112.8570 247.2856 14.19515404732588

#Time	Az	El	Level	Level2	SNR	BER	BlckErr	Temp	State	Recorded	gain1	gain2
2026-01-06 17:33:23.24	32.31	0.03	-51.0	-62.8	3.5	8.46e-01	0	29	0	0	60	67209
2026-01-06 17:33:24.24	32.25	0.09	-51.0	-66.4	3.6	1.51e+00	0	30	104	0	60	101743
2026-01-06 17:33:25.25	32.19	0.14	-51.1	-66.4	3.6	1.51e+00	0	30	104	0	60	102019
2026-01-06 17:33:26.26	32.13	0.19	-51.1	-66.4	3.6	1.51e+00	0	30	104	0	60	102435
2026-01-06 17:33:27.26	32.07	0.25	-51.1	-66.5	3.6	1.51e+00	0	30	104	0	60	103251
2026-01-06 17:33:28.27	32.01	0.30	-51.2	-66.5	3.6	1.51e+00	0	30	104	0	60	103378
2026-01-06 17:33:29.28	31.95	0.36	-51.1	-66.6	3.6	1.51e+00	0	30	104	0	60	103869
2026-01-06 17:33:30.29	31.88	0.41	-51.2	-66.6	3.6	1.51e+00	0	30	104	0	60	104479
2026-01-06 17:33:31.29	31.82	0.46	-51.2	-66.6	3.6	1.51e+00	0	30	104	0	60	104421
2026-01-06 17:33:32.30	31.76	0.52	-51.2	-66.6	3.6	1.51e+00	0	30	104	0	60	104144
2026-01-06 17:33:33.31	31.70	0.57	-51.1	-66.5	3.6	1.51e+00	0	30	104	0	60	103580
2026-01-06 17:33:34.32	31.64	0.62	-51.1	-66.5	3.6	1.51e+00	0	30	104	0	60	102956
2026-01-06 17:33:35.32	31.58	0.68	-51.0	-66.4	3.6	1.51e+00	0	30	104	0	60	101910
2026-01-06 17:33:36.33	31.51	0.73	-51.0	-66.3	3.6	1.51e+00	0	30	104	0	60	100728
2026-01-06 17:33:37.34	31.45	0.79	-50.8	-66.2	3.6	1.51e+00	0	30	104	0	60	100008
2026-01-06 17:33:38.35	31.39	0.84	-50.7	-66.1	3.6	1.51e+00	0	30	104	0	60	98158
2026-01-06 17:33:39.35	31.33	0.90	-50.5	-65.9	3.6	1.51e+00	0	30	104	0	60	95895
2026-01-06 17:33:40.36	31.26	0.95	-50.2	-65.6	3.6	1.51e+00	0	30	104	0	60	92686
2026-01-06 17:33:41.37	31.20	1.00	-49.7	-65.1	3.6	1.51e+00	0	30	104	0	60	87349
2026-01-06 17:33:42.37	31.14	1.06	-49.6	-65.0	3.6	1.51e+00	0	30	104	0	60	86777
2026-01-06 17:33:43.38	31.07	1.11	-49.6	-64.9	3.6	1.51e+00	0	30	104	0	60	86130
2026-01-06 17:33:44.39	31.01	1.17	-49.6	-64.9	3.6	1.51e+00	0	30	104	0	60	85927
2026-01-06 17:33:45.40	30.94	1.22	-49.6	-64.9	3.6	1.51e+00	0	30	104	0	60	85898
2026-01-06 17:33:46.41	30.88	1.28	-49.6	-64.9	3.6	1.51e+00	0	30	104	0	60	85832
2026-01-06 17:33:47.42	30.81	1.33	-49.6	-64.9	3.6	1.51e+00	0	30	104	0	60	85686
2026-01-06 17:33:48.43	30.75	1.39	-49.6	-64.9	3.6	1.51e+00	0	30	104	0	60	85834
2026-01-06 17:33:49.44	30.68	1.44	-49.6	-64.9	3.6	1.51e+00	0	30	104	0	60	85420
2026-01-06 17:33:50.44	30.61	1.50	-49.6	-64.9	3.6	1.51e+00	0	30	104	0	60	85267
2026-01-06 17:33:51.45	30.55	1.55	-49.6	-64.9	3.6	1.51e+00	0	30	104	0	60	85373
2026-01-06 17:33:52.45	30.48	1.61	-49.6	-64.9	3.6	1.51e+00	0	30	104	0	60	85468
2026-01-06 17:33:53.46	30.42	1.66	-49.6	-64.9	3.6	1.51e+00	0	30	104	0	60	85868
2026-01-06 17:33:54.47	30.35	1.72	-49.6	-64.9	3.6	1.51e+00	0	30	104	0	60	85731
2026-01-06 17:33:55.47	30.28	1.78	-49.6	-64.9	3.6	1.51e+00	0	30	104	0	60	85745
2026-01-06 17:33:56.48	30.21	1.83	-49.6	-65.0	3.6	1.51e+00	0	30	104	0	60	86306
2026-01-06 17:33:57.49	30.15	1.89	-49.6	-64.9	3.6	1.51e+00	0	30	104	0	60	85831
2026-01-06 17:33:58.49	30.08	1.94	-49.6	-64.9	3.6	1.51e+00	0	30	104	0	60	86061
2026-01-06 17:33:59.50	30.01	2.00	-49.6	-64.9	3.6	1.51e+00	0	30	104	0	60	86148
2026-01-06 17:34:00.51	29.94	2.05	-49.6	-64.9	3.6	1.51e+00	0	30	104	0	60	85635
2026-01-06 17:34:01.52	29.87	2.11	-49.6	-64.8	3.6	1.51e+00	0	31	104	0	60	84938
2026-01-06 17:34:02.53	29.80	2.17	-49.6	-64.8	3.6	1.51e+00	0	30	104	0	60	84289
2026-01-06 17:34:03.53	29.73	2.22	-49.6	-64.7	3.6	1.51e+00	0	31	104	0	60	84070
2026-01-06 17:34:04.54	29.66	2.28	-49.6	-64.7	3.6	1.51e+00	0	31	104	0	60	84131
2026-01-06 17:34:05.55	29.59	2.33	-49.6	-64.8	3.6	1.51e+00	0	31	104	0	60	84396
2026-01-06 17:34:06.56	29.52	2.39	-49.6	-64.9	3.6	1.51e+00	0	30	104	0	60	85600
2026-01-06 17:34:07.56	29.45	2.45	-49.6	-65.0	3.6	1.51e+00	0	31	104	0	60	86313
2026-01-06 17:34:08.57	29.38	2.50	-49.6	-64.9	3.6	1.51e+00	0	31	104	0	60	86067
2026-01-06 17:34:09.57	29.31	2.56	-49.6	-64.9	3.6	1.51e+00	0	31	104	0	60	85380
2026-01-06 17:34:10.58	29.24	2.62	-49.6	-64.8	3.6	1.51e+00	0	31	104	0	60	84845
2026-01-06 17:34:11.59	29.17	2.67	-49.6	-64.9	3.6	1.51e+00	0	30	104	0	60	85746
2026-01-06 17:34:12.59	29.10	2.73	-49.6	-64.9	3.6	1.51e+00	0	31	104	0	60	85776
2026-01-06 17:34:13.60	29.03	2.79	-49.6	-64.6	3.6	1.51e+00	0	31	104	0	60	83075
2026-01-06 17:34:14.61	28.95	2.84	-49.6	-64.2	3.6	1.51e+00	0	31	104	0	60	79371
2026-01-06 17:34:15.62	28.88	2.90	-49.5	-64.0	3.6	1.51e+00	0	31	104	0	60	77000
2026-01-06 17:34:16.62	28.81	2.96	-49.5	-64.2	3.6	1.51e+00	0	31	104	0	60	79281
2026-01-06 17:34:17.63	28.73	3.01	-49.6	-64.6	3.6	1.51e+00	0	31	104	0	60	83078
2026-01-06 17:34:18.64	28.66	3.07	-49.6	-64.5	3.6	1.51e+00	0	31	104	0	60	81492
2026-01-06 17:34:19.64	28.59	3.13	-49.5	-62.9	3.6	1.51e+00	0	31	104	0	60	68116
2026-01-06 17:34:20.65	28.51	3.18	-49.3	-59.9	4.6	1.13e+00	92	31	104	0	60	48293
2026-01-06 17:34:21.66	28.44	3.24	-49.0	-56.7	6.2	3.58e-01	0	31	0	0	60	33345
2026-01-06 17:34:22.67	28.36	3.30	-49.4	-60.8	3.6	1.50e-01	0	31	104	1048576	60	53260
2026-01-06 17:34:23.68	28.29	3.36	-49.6	-64.3	3.6	1.51e+00	0	31	104	1048576	60	80334
2026-01-06 17:34:24.69	28.21	3.41	-46.5	-49.7	13.0	6.10e-06	0	31	0	1048576	60	14979
2026-01-06 17:34:25.69	28.14	3.47	-49.6	-64.4	3.6	1.51e+00	0	31	104	1048576	60	80461
2026-01-06 17:34:26.70	28.06	3.53	-48.4	-54.3	5.5	1.51e+00	0	31	104	1048576	60	25259
2026-01-06 17:34:27.71	27.98	3.59	-45.0	-47.3	16.7	0.00e+00	58	31	0	1048576	60	11266
2026-01-06 17:34:28.72	27.91	3.65	-44.5	-46.5	17.4	0.00e+00	0	31	0	1048576	60	10323
2026-01-06 17:34:29.73	27.83	3.70	-44.3	-46.3	17.9	0.00e+00	0	31	0	1048576	60	10042
2026-01-06 17:34:30.74	27.75	3.76	-44.4	-46.3	17.6	0.00e+00	0	31	0	1048576	60	10112
2026-01-06 17:34:31.75	27.67	3.82	-43.9	-45.7	18.3	0.00e+00	0	31	0	1048576	60	9380
2026-01-06 17:34:32.76	27.59	3.88	-43.8	-45.5	18.4	0.00e+00	23	31	0	1048576	60	9213
2026-01-06 17:34:33.77	27.52	3.94	-43.8	-45.5	18.5	0.00e+00	0	31	0	1048576	60	9186
2026-01-06 17:34:34.78	27.44	3.99	-43.7	-45.4	18.4	0.00e+00	54	31	0	1048576	60	9068
2026-01-06 17:34:35.80	27.36	4.05	-43.5	-45.1	19.0	0.00e+00	0	31	0	1048576	60	8791
2026-01-06 17:34:36.80	27.28	4.11	-43.5	-45.2	18.9	0.00e+00	20	31	0	1048576	60	8866
2026-01-06 17:34:37.81	27.20	4.17	-43.8	-45.5	18.6	0.00e+00	0	31	0	1048576	60	9180
2026-01-06 17:34:38.82	27.12	4.23	-43.5	-45.1	18.9	0.00e+00	0	31	0	1048576	60	8816
2026-01-06 17:34:39.84	27.04	4.29	-43.4	-45.0	19.2	0.00e+00	0	31	0	1048576	60	8649
2026-01-06 17:34:40.85	26.96	4.35	-43.4	-45.0	19.1	0.00e+00	0	31	0	1048576	60	8679
2026-01-06 17:34:41.85	26.88	4.41	-43.4	-45.0	19.2	0.00e+00	92	31	0	1048576	60	8630
2026-01-06 17:34:42.86	26.79	4.46	-43.5	-45.0	19.0	0.00e+00	0	31	0	1048576	60	8703
2026-01-06 17:34:43.87	26.71	4.52	-43.4	-45.0	18.9	0.00e+00	34	31	0	1048576	60	8707
2026-01-06 17:34:44.89	26.63	4.58	-43.5	-45.0	19.0	0.00e+00	0	31	0	1048576	60	8719
2026-01-06 17:34:45.89	26.55	4.64	-43.6	-45.2	18.9	0.00e+00	0	31	101	1048576	60	8888
2026-01-06 17:34:46.90	26.46	4.70	-43.2	-44.7	19.3	0.00e+00	0	31	101	1048576	60	8378
2026-01-06 17:34:47.91	26.38	4.76	-43.4	-44.9	19.2	0.00e+00	0	31	101	1048576	60	8592
2026-01-06 17:34:48.91	26.30	4.82	-43.4	-45.0	19.2	0.00e+00	60	31	101	1048576	60	8637
2026-01-06 17:34:49.92	26.21	4.88	-43.2	-44.7	19.4	0.00e+00	0	31	101	1048576	60	8416
2026-01-06 17:34:50.92	26.13	4.94	-43.4	-45.0	19.2	0.00e+00	90	31	101	1048576	60	8636
2026-01-06 17:34:51.93	26.05	5.00	-43.2	-44.8	19.2	0.00e+00	0	31	101	1048576	60	8430
2026-01-06 17:34:52.94	25.96	5.06	-43.4	-44.9	19.2	0.00e+00	0	31	101	1048576	60	8618
2026-01-06 17:34:53.95	25.87	5.12	-43.3	-44.9	19.2	0.00e+00	0	31	101	1048576	60	8560
2026-01-06 17:34:54.95	25.79	5.18	-43.4	-44.9	19.3	0.00e+00	0	31	101	1048576	60	8605
2026-01-06 17:34:55.96	25.70	5.24	-43.5	-45.1	19.0	0.00e+00	63	31	101	1048576	60	8817
2026-01-06 17:34:56.97	25.62	5.30	-43.7	-45.4	18.9	0.00e+00	0	31	101	1048576	60	9077
2026-01-06 17:34:57.98	25.53	5.36	-43.7	-45.4	18.8	0.00e+00	92	31	101	1048576	60	9044
2026-01-06 17:34:58.98	25.44	5.42	-43.6	-45.3	18.8	0.00e+00	0	31	101	1048576	60	8949
2026-01-06 17:34:59.99	25.36	5.48	-43.8	-45.5	18.8	0.00e+00	0	31	101	1048576	60	9134
2026-01-06 17:35:01.00	25.27	5.54	-43.7	-45.4	18.8	0.00e+00	0	31	101	1048576	60	9113
2026-01-06 17:35:02.01	25.18	5.60	-43.8	-45.5	18.8	0.00e+00	0	31	101	1048576	60	9169
2026-01-06 17:35:03.02	25.09	5.66	-43.8	-45.5	18.8	0.00e+00	65	31	101	1048576	60	9134
2026-01-06 17:35:04.03	25.00	5.72	-43.6	-45.3	19.0	0.00e+00	0	31	101	1048576	60	8944
2026-01-06 17:35:05.03	24.91	5.78	-43.8	-45.4	18.8	0.00e+00	74	31	101	1048576	60	9115
2026-01-06 17:35:06.04	24.82	5.84	-43.7	-45.3	19.0	0.00e+00	0	31	101	1048576	60	9007
2026-01-06 17:35:07.05	24.73	5.90	-43.7	-45.3	19.0	0.00e+00	77	31	101	1048576	60	9006
2026-01-06 17:35:08.05	24.64	5.96	-43.7	-45.3	19.0	0.00e+00	0	31	101	1048576	60	9017
2026-01-06 17:35:09.06	24.55	6.02	-43.6	-45.2	19.1	0.00e+00	0	31	101	1048576	60	8874
2026-01-06 17:35:10.07	24.46	6.08	-43.4	-45.0	19.3	0.00e+00	33	31	101	1048576	60	8689
2026-01-06 17:35:11.07	24.37	6.14	-43.2	-44.7	19.5	0.00e+00	0	31	101	1048576	60	8387
2026-01-06 17:35:12.08	24.28	6.20	-43.4	-44.9	19.3	0.00e+00	59	31	101	1048576	60	8596
2026-01-06 17:35:13.09	24.18	6.26	-43.3	-44.8	19.5	0.00e+00	0	31	101	1048576	60	8453
2026-01-06 17:35:14.10	24.09	6.33	-43.4	-44.9	19.5	0.00e+00	75	31	101	1048576	60	8580
2026-01-06 17:35:15.11	24.00	6.39	-43.2	-44.6	19.7	0.00e+00	0	31	101	1048576	60	8311
2026-01-06 17:35:16.11	23.90	6.45	-43.0	-44.5	19.8	0.00e+00	0	31	101	1048576	60	8140
2026-01-06 17:35:17.12	23.81	6.51	-42.8	-44.2	20.1	0.00e+00	17	31	101	1048576	60	7932
2026-01-06 17:35:18.13	23.71	6.57	-43.0	-44.4	19.9	0.00e+00	0	31	101	1048576	60	8061
2026-01-06 17:35:19.13	23.62	6.63	-42.9	-44.3	20.0	0.00e+00	65	31	101	1048576	60	7969
2026-01-06 17:35:20.14	23.52	6.69	-43.0	-44.4	19.9	0.00e+00	0	31	101	1048576	60	8132
2026-01-06 17:35:21.15	23.43	6.76	-42.9	-44.3	20.1	0.00e+00	79	31	101	1048576	60	7954
2026-01-06 17:35:22.15	23.33	6.82	-42.9	-44.3	20.0	0.00e+00	0	31	101	1048576	60	7979
2026-01-06 17:35:23.16	23.23	6.88	-42.7	-44.0	20.2	0.00e+00	0	31	101	1048576	60	7769
2026-01-06 17:35:24.17	23.14	6.94	-42.5	-43.8	20.4	0.00e+00	0	31	101	1048576	60	7510
2026-01-06 17:35:25.17	23.04	7.00	-42.4	-43.7	20.5	0.00e+00	0	31	101	1048576	60	7458
2026-01-06 17:35:26.18	22.94	7.06	-42.5	-43.8	20.5	0.00e+00	24	31	101	1048576	60	7532
2026-01-06 17:35:27.19	22.84	7.13	-42.4	-43.7	20.5	0.00e+00	0	31	101	1048576	60	7486
2026-01-06 17:35:28.20	22.74	7.19	-42.6	-43.9	20.4	0.00e+00	78	31	101	1048576	60	7675
2026-01-06 17:35:29.21	22.64	7.25	-42.3	-43.6	20.7	0.00e+00	0	31	101	1048576	60	7357
2026-01-06 17:35:30.21	22.55	7.31	-42.2	-43.4	20.9	0.00e+00	0	31	101	1048576	60	7225
2026-01-06 17:35:31.22	22.45	7.37	-42.3	-43.6	20.7	0.00e+00	0	31	101	1048576	60	7341
2026-01-06 17:35:32.23	22.34	7.44	-42.2	-43.5	20.9	0.00e+00	0	31	101	1048576	60	7258
2026-01-06 17:35:33.24	22.24	7.50	-42.3	-43.6	20.6	0.00e+00	66	31	101	1048576	60	7368
2026-01-06 17:35:34.25	22.14	7.56	-42.5	-43.8	20.6	0.00e+00	0	31	101	1048576	60	7517
2026-01-06 17:35:35.26	22.04	7.62	-42.3	-43.6	20.8	0.00e+00	80	31	101	1048576	60	7372
2026-01-06 17:35:36.27	21.94	7.69	-42.3	-43.6	20.7	0.00e+00	0	31	101	1048576	60	7376
2026-01-06 17:35:37.28	21.83	7.75	-42.4	-43.7	20.6	0.00e+00	90	31	101	1048576	60	7433
2026-01-06 17:35:38.29	21.73	7.81	-42.4	-43.6	20.7	0.00e+00	0	31	101	1048576	60	7404
2026-01-06 17:35:39.30	21.63	7.88	-42.3	-43.5	20.7	0.00e+00	0	31	101	1048576	60	7336
2026-01-06 17:35:40.31	21.52	7.94	-42.4	-43.7	20.7	0.00e+00	0	31	101	1048576	60	7488
2026-01-06 17:35:41.32	21.42	8.00	-42.6	-43.9	20.5	0.00e+00	0	31	101	1048576	60	7634
2026-01-06 17:35:42.32	21.31	8.06	-42.5	-43.8	20.6	0.00e+00	32	31	101	1048576	60	7554
2026-01-06 17:35:43.33	21.21	8.13	-42.6	-43.9	20.4	0.00e+00	0	31	101	1048576	60	7634
2026-01-06 17:35:44.34	21.10	8.19	-42.7	-44.0	20.4	0.00e+00	48	31	101	1048576	60	7749
2026-01-06 17:35:45.35	20.99	8.25	-42.7	-44.0	20.4	0.00e+00	0	31	101	1048576	60	7738
2026-01-06 17:35:46.36	20.88	8.32	-42.6	-44.0	20.4	0.00e+00	0	31	101	1048576	60	7712
2026-01-06 17:35:47.36	20.78	8.38	-42.9	-44.3	20.2	0.00e+00	0	31	101	1048576	60	7987
2026-01-06 17:35:48.37	20.67	8.44	-42.9	-44.3	20.2	0.00e+00	0	31	101	1048576	60	8026
2026-01-06 17:35:49.38	20.56	8.51	-43.3	-44.7	19.9	0.00e+00	86	31	101	1048576	60	8398
2026-01-06 17:35:50.39	20.45	8.57	-43.2	-44.6	20.0	0.00e+00	0	31	101	1048576	60	8288
2026-01-06 17:35:51.40	20.34	8.64	-43.1	-44.5	20.0	0.00e+00	92	31	101	1048576	60	8190
2026-01-06 17:35:52.41	20.23	8.70	-42.9	-44.2	20.2	0.00e+00	0	31	101	1048576	60	7944
2026-01-06 17:35:53.41	20.12	8.76	-42.7	-44.0	20.5	0.00e+00	0	31	101	1048576	60	7746
2026-01-06 17:35:54.42	20.01	8.83	-42.6	-43.9	20.5	0.00e+00	0	31	101	1048576	60	7675
2026-01-06 17:35:55.43	19.90	8.89	-42.5	-43.8	20.7	0.00e+00	0	31	101	1048576	60	7560
2026-01-06 17:35:56.44	19.79	8.95	-42.5	-43.7	20.7	0.00e+00	31	31	101	1048576	60	7492
2026-01-06 17:35:57.44	19.67	9.02	-42.7	-44.0	20.6	0.00e+00	33	31	101	1048576	60	7733
2026-01-06 17:35:58.45	19.56	9.08	-42.5	-43.8	20.7	0.00e+00	92	31	101	1048576	60	7523
2026-01-06 17:35:59.46	19.45	9.15	-42.5	-43.8	20.6	0.00e+00	0	31	101	1048576	60	7528
2026-01-06 17:36:00.47	19.33	9.21	-42.6	-43.9	20.3	0.00e+00	0	31	101	1048576	60	7612
2026-01-06 17:36:01.48	19.22	9.27	-42.6	-43.9	20.2	0.00e+00	0	31	101	1048576	60	7611
2026-01-06 17:36:02.49	19.10	9.34	-42.7	-44.0	20.2	0.00e+00	0	31	101	1048576	60	7702
2026-01-06 17:36:03.49	18.99	9.40	-42.4	-43.7	20.7	0.00e+00	55	31	101	1048576	60	7460
2026-01-06 17:36:04.50	18.87	9.47	-42.3	-43.5	20.8	0.00e+00	0	31	101	1048576	60	7315
2026-01-06 17:36:05.51	18.75	9.53	-42.4	-43.6	20.8	0.00e+00	92	31	101	1048576	60	7404
2026-01-06 17:36:06.52	18.64	9.60	-42.3	-43.5	20.9	0.00e+00	0	31	101	1048576	60	7309
2026-01-06 17:36:07.53	18.52	9.66	-42.4	-43.7	20.8	0.00e+00	90	31	101	1048576	60	7446
2026-01-06 17:36:08.54	18.40	9.72	-42.7	-44.0	20.5	0.00e+00	0	31	101	1048576	60	7707
2026-01-06 17:36:09.54	18.28	9.79	-42.7	-44.0	20.6	0.00e+00	0	31	101	1048576	60	7692
2026-01-06 17:36:10.55	18.16	9.85	-42.7	-44.0	20.4	0.00e+00	49	31	101	1048576	60	7752
2026-01-06 17:36:11.56	18.04	9.92	-42.8	-44.2	20.5	0.00e+00	0	31	101	1048576	60	7890
2026-01-06 17:36:12.57	17.92	9.98	-42.8	-44.1	20.5	0.00e+00	66	31	101	1048576	60	7840
2026-01-06 17:36:13.58	17.80	10.05	-42.7	-44.0	20.4	0.00e+00	0	31	101	1048576	60	7749
2026-01-06 17:36:14.59	17.68	10.11	-42.8	-44.1	20.5	0.00e+00	82	31	101	1048576	60	7824
2026-01-06 17:36:15.60	17.56	10.18	-42.5	-43.8	20.7	0.00e+00	0	31	101	1048576	60	7557
2026-01-06 17:36:16.61	17.43	10.24	-42.5	-43.8	20.6	0.00e+00	0	31	101	1048576	60	7592
2026-01-06 17:36:17.61	17.31	10.31	-42.4	-43.7	20.8	0.00e+00	17	31	101	1048576	60	7426
2026-01-06 17:36:18.62	17.19	10.37	-42.6	-43.9	20.6	0.00e+00	0	31	101	1048576	60	7675
2026-01-06 17:36:19.63	17.06	10.44	-42.3	-43.6	20.8	0.00e+00	3	31	101	1048576	60	7371
2026-01-06 17:36:20.63	16.94	10.50	-42.4	-43.6	20.9	0.00e+00	0	31	101	1048576	60	7404
2026-01-06 17:36:21.64	16.81	10.57	-42.4	-43.7	20.7	0.00e+00	82	31	101	1048576	60	7489
2026-01-06 17:36:22.65	16.68	10.63	-42.3	-43.5	20.8	0.00e+00	0	31	101	1048576	60	7307
2026-01-06 17:36:23.66	16.56	10.70	-42.2	-43.5	21.0	0.00e+00	0	31	101	1048576	60	7272
2026-01-06 17:36:24.67	16.43	10.76	-42.3	-43.6	20.9	0.00e+00	0	31	101	1048576	60	7368
2026-01-06 17:36:25.68	16.30	10.83	-42.1	-43.3	21.2	0.00e+00	0	31	101	1048576	60	7108
2026-01-06 17:36:26.69	16.17	10.89	-42.1	-43.3	21.2	0.00e+00	69	31	101	1048576	60	7169
2026-01-06 17:36:27.70	16.04	10.96	-41.9	-43.0	21.4	0.00e+00	0	31	101	1048576	60	6919
2026-01-06 17:36:28.70	15.92	11.02	-41.6	-42.7	21.8	0.00e+00	63	31	101	1048576	60	6648
2026-01-06 17:36:29.71	15.78	11.09	-41.6	-42.8	21.6	0.00e+00	0	31	101	1048576	60	6728
2026-01-06 17:36:30.72	15.65	11.15	-41.6	-42.8	21.7	0.00e+00	0	31	101	1048576	60	6712
2026-01-06 17:36:31.73	15.52	11.22	-41.4	-42.5	22.0	0.00e+00	0	31	101	1048576	60	6517
2026-01-06 17:36:32.73	15.39	11.28	-41.3	-42.4	21.9	0.00e+00	0	31	101	1048576	60	6439
2026-01-06 17:36:33.74	15.26	11.35	-41.5	-42.6	21.9	0.00e+00	0	31	101	1048576	60	6603
2026-01-06 17:36:34.75	15.12	11.42	-41.7	-42.8	21.8	0.00e+00	0	31	101	1048576	60	6748
2026-01-06 17:36:35.76	14.99	11.48	-41.5	-42.6	21.8	0.00e+00	85	31	101	1048576	60	6579
2026-01-06 17:36:36.77	14.86	11.55	-41.6	-42.7	21.6	0.00e+00	0	31	101	1048576	60	6691
2026-01-06 17:36:37.78	14.72	11.61	-41.4	-42.6	21.9	0.00e+00	71	31	101	1048576	60	6552
2026-01-06 17:36:38.79	14.58	11.68	-41.6	-42.7	21.8	0.00e+00	0	31	101	1048576	60	6679
2026-01-06 17:36:39.80	14.45	11.74	-41.5	-42.6	21.9	0.00e+00	0	31	101	1048576	60	6568
2026-01-06 17:36:40.80	14.31	11.81	-41.5	-42.6	21.8	0.00e+00	65	31	101	1048576	60	6564
2026-01-06 17:36:41.81	14.17	11.87	-41.6	-42.8	21.7	0.00e+00	0	31	101	1048576	60	6708
2026-01-06 17:36:42.82	14.04	11.94	-41.7	-42.8	21.6	0.00e+00	58	31	101	1048576	60	6763
2026-01-06 17:36:43.83	13.90	12.01	-42.0	-43.2	21.3	0.00e+00	0	31	101	1048576	60	7019
2026-01-06 17:36:44.84	13.76	12.07	-42.2	-43.4	21.1	0.00e+00	91	31	101	1048576	60	7242
2026-01-06 17:36:45.85	13.62	12.14	-42.1	-43.3	21.2	0.00e+00	0	31	101	1048576	60	7155
2026-01-06 17:36:46.85	13.48	12.20	-42.2	-43.5	21.0	0.00e+00	0	31	101	1048576	60	7309
2026-01-06 17:36:47.86	13.33	12.27	-42.2	-43.5	21.0	0.00e+00	0	31	101	1048576	60	7294
2026-01-06 17:36:48.87	13.19	12.33	-42.0	-43.3	21.3	0.00e+00	0	31	101	1048576	60	7089
2026-01-06 17:36:49.88	13.05	12.40	-41.9	-43.1	21.2	0.00e+00	48	31	101	1048576	60	6995
2026-01-06 17:36:50.89	12.91	12.47	-41.8	-43.0	20.8	0.00e+00	0	31	101	1048576	60	6870
2026-01-06 17:36:51.90	12.76	12.53	-41.9	-43.0	21.2	0.00e+00	92	31	101	1048576	60	6894
2026-01-06 17:36:52.91	12.62	12.60	-41.8	-43.0	21.6	0.00e+00	0	31	101	1048576	60	6863
2026-01-06 17:36:53.92	12.47	12.66	-41.8	-42.9	21.5	0.00e+00	0	31	101	1048576	60	6823
2026-01-06 17:36:54.93	12.32	12.73	-41.9	-43.1	21.5	0.00e+00	0	31	101	1048576	60	6974
2026-01-06 17:36:55.94	12.18	12.79	-41.8	-43.0	21.6	0.00e+00	0	31	101	1048576	60	6858
2026-01-06 17:36:56.94	12.03	12.86	-41.7	-42.8	21.6	0.00e+00	71	31	101	1048576	60	6741
2026-01-06 17:36:57.95	11.88	12.92	-41.6	-42.7	21.9	0.00e+00	0	31	101	1048576	60	6640
2026-01-06 17:36:58.96	11.73	12.99	-41.3	-42.4	21.8	0.00e+00	61	31	101	1048576	60	6395
2026-01-06 17:36:59.97	11.58	13.06	-41.3	-42.3	22.2	0.00e+00	0	31	101	1048576	60	6385
2026-01-06 17:37:00.98	11.43	13.12	-41.3	-42.4	22.0	0.00e+00	0	31	101	1048576	60	6430
2026-01-06 17:37:01.98	11.28	13.19	-41.3	-42.4	22.1	0.00e+00	0	31	101	1048576	60	6402
2026-01-06 17:37:02.99	11.13	13.25	-41.5	-42.6	21.9	0.00e+00	0	31	101	1048576	60	6602
2026-01-06 17:37:04.00	10.98	13.32	-41.7	-42.8	21.7	0.00e+00	0	31	101	1048576	60	6731
2026-01-06 17:37:05.01	10.83	13.38	-41.4	-42.5	21.9	0.00e+00	0	31	101	1048576	60	6500
2026-01-06 17:37:06.02	10.67	13.45	-41.7	-42.8	21.7	0.00e+00	75	31	101	1048576	60	6732
2026-01-06 17:37:07.03	10.52	13.51	-41.6	-42.8	21.7	0.00e+00	0	31	101	1048576	60	6702
2026-01-06 17:37:08.04	10.36	13.58	-41.6	-42.7	21.8	0.00e+00	38	31	101	1048576	60	6677
2026-01-06 17:37:09.04	10.21	13.64	-41.7	-42.9	21.6	0.00e+00	0	31	101	1048576	60	6771
2026-01-06 17:37:10.05	10.05	13.71	-41.9	-43.1	21.5	0.00e+00	0	31	101	1048576	60	6931
2026-01-06 17:37:11.06	9.90	13.77	-42.0	-43.2	21.3	0.00e+00	0	31	101	1048576	60	7050
2026-01-06 17:37:12.07	9.74	13.84	-42.2	-43.4	21.2	0.00e+00	0	31	101	1048576	60	7178
2026-01-06 17:37:13.08	9.58	13.90	-42.1	-43.3	21.3	0.00e+00	67	31	101	1048576	60	7162
2026-01-06 17:37:14.09	9.42	13.97	-42.1	-43.3	21.3	0.00e+00	0	31	101	1048576	60	7130
2026-01-06 17:37:15.10	9.26	14.03	-42.0	-43.2	21.4	0.00e+00	51	31	101	1048576	60	7072
2026-01-06 17:37:16.10	9.10	14.10	-41.9	-43.0	21.5	0.00e+00	0	31	101	1048576	60	6908
2026-01-06 17:37:17.11	8.94	14.16	-41.9	-43.0	21.5	0.00e+00	0	31	101	1048576	60	6902
2026-01-06 17:37:18.12	8.78	14.23	-41.9	-43.0	21.5	0.00e+00	0	31	101	1048576	60	6902
2026-01-06 17:37:19.13	8.61	14.29	-41.8	-43.0	21.5	0.00e+00	0	31	101	1048576	60	6884
2026-01-06 17:37:20.14	8.45	14.36	-42.0	-43.1	21.5	0.00e+00	21	31	101	1048576	60	6988
2026-01-06 17:37:21.15	8.28	14.42	-42.1	-43.3	21.3	0.00e+00	0	31	101	1048576	60	7147
2026-01-06 17:37:22.16	8.12	14.49	-42.3	-43.5	21.1	0.00e+00	92	31	101	1048576	60	7297
2026-01-06 17:37:23.17	7.95	14.55	-42.3	-43.6	21.1	0.00e+00	0	31	101	1048576	60	7346
2026-01-06 17:37:24.17	7.79	14.62	-42.5	-43.7	21.0	0.00e+00	0	31	101	1048576	60	7489
2026-01-06 17:37:25.18	7.62	14.68	-42.4	-43.7	21.0	0.00e+00	0	31	101	1048576	60	7427
2026-01-06 17:37:26.19	7.45	14.75	-41.9	-43.0	21.6	0.00e+00	0	31	101	1048576	60	6895
2026-01-06 17:37:27.20	7.28	14.81	-41.9	-43.0	21.5	0.00e+00	20	31	101	1048576	60	6916
2026-01-06 17:37:28.21	7.11	14.87	-41.6	-42.7	21.8	0.00e+00	0	31	101	1048576	60	6666
2026-01-06 17:37:29.22	6.94	14.94	-41.8	-42.9	21.6	0.00e+00	70	31	101	1048576	60	6802
2026-01-06 17:37:30.23	6.77	15.00	-41.8	-42.9	21.7	0.00e+00	0	31	101	1048576	60	6835
2026-01-06 17:37:31.23	6.60	15.07	-41.8	-42.9	21.6	0.00e+00	0	31	101	1048576	60	6834
2026-01-06 17:37:32.25	6.43	15.13	-42.0	-43.2	21.5	0.00e+00	0	31	101	1048576	60	7009
2026-01-06 17:37:33.25	6.26	15.19	-41.7	-42.8	21.8	0.00e+00	0	31	101	1048576	60	6740
2026-01-06 17:37:34.26	6.08	15.26	-41.8	-43.0	21.6	0.00e+00	71	31	101	1048576	60	6880
2026-01-06 17:37:35.27	5.91	15.32	-41.9	-43.1	21.5	0.00e+00	0	31	101	1048576	60	6957
2026-01-06 17:37:36.28	5.73	15.38	-42.0	-43.2	21.6	0.00e+00	60	31	101	1048576	60	7014
2026-01-06 17:37:37.29	5.56	15.45	-41.9	-43.0	21.5	0.00e+00	0	31	101	1048576	60	6916
2026-01-06 17:37:38.30	5.38	15.51	-42.1	-43.2	21.5	0.00e+00	61	31	101	1048576	60	7082
2026-01-06 17:37:39.31	5.20	15.57	-42.3	-43.5	21.1	0.00e+00	0	31	101	1048576	60	7279
2026-01-06 17:37:40.31	5.02	15.64	-42.4	-43.7	21.0	0.00e+00	0	31	101	1048576	60	7447
2026-01-06 17:37:41.32	4.84	15.70	-42.6	-43.9	20.5	0.00e+00	0	31	101	1048576	60	7605
2026-01-06 17:37:42.33	4.66	15.76	-42.6	-44.0	20.8	0.00e+00	0	31	101	1048576	60	7690
2026-01-06 17:37:43.34	4.48	15.82	-42.3	-43.6	21.2	0.00e+00	67	31	101	1048576	60	7385
2026-01-06 17:37:44.35	4.30	15.89	-42.3	-43.6	21.1	0.00e+00	0	31	101	1048576	60	7408
2026-01-06 17:37:45.35	4.12	15.95	-41.8	-43.0	21.4	0.00e+00	38	31	101	1048576	60	6849
2026-01-06 17:37:46.36	3.94	16.01	-41.4	-42.5	22.0	0.00e+00	0	31	101	1048576	60	6533
2026-01-06 17:37:47.37	3.75	16.07	-41.4	-42.5	22.1	0.00e+00	0	31	101	1048576	60	6512
2026-01-06 17:37:48.38	3.57	16.13	-41.4	-42.5	22.1	0.00e+00	0	31	101	1048576	60	6496
2026-01-06 17:37:49.39	3.38	16.20	-41.4	-42.6	21.9	0.00e+00	0	31	101	1048576	60	6540
2026-01-06 17:37:50.40	3.20	16.26	-41.4	-42.6	21.9	0.00e+00	85	31	101	1048576	60	6558
2026-01-06 17:37:51.41	3.01	16.32	-41.3	-42.4	22.1	0.00e+00	0	31	101	1048576	60	6428
2026-01-06 17:37:52.42	2.82	16.38	-40.9	-41.9	22.6	0.00e+00	92	31	101	1048576	60	6084
2026-01-06 17:37:53.43	2.63	16.44	-40.6	-41.6	22.8	0.00e+00	0	31	101	1048576	60	5838
2026-01-06 17:37:54.44	2.44	16.50	-40.5	-41.5	23.0	0.00e+00	0	31	101	1048576	60	5769
2026-01-06 17:37:55.45	2.25	16.56	-40.4	-41.4	23.1	0.00e+00	0	31	101	1048576	60	5707
2026-01-06 17:37:56.45	2.06	16.62	-40.4	-41.5	23.0	0.00e+00	0	31	101	1048576	60	5769
2026-01-06 17:37:57.46	1.87	16.68	-40.4	-41.4	22.9	0.00e+00	55	31	101	1048576	60	5760
2026-01-06 17:37:58.47	1.68	16.74	-40.5	-41.6	22.9	0.00e+00	0	31	101	1048576	60	5837
2026-01-06 17:37:59.48	1.49	16.80	-40.8	-41.8	22.7	0.00e+00	92	31	101	1048576	60	6032
2026-01-06 17:38:00.49	1.29	16.86	-40.4	-41.4	22.8	0.00e+00	33	31	101	1048576	60	5732
2026-01-06 17:38:01.50	1.10	16.92	-40.2	-41.2	23.1	0.00e+00	0	31	101	1048576	60	5606
2026-01-06 17:38:02.51	0.90	16.98	-40.2	-41.1	23.1	0.00e+00	0	31	101	1048576	60	5550
2026-01-06 17:38:03.52	0.70	17.04	-39.9	-40.8	23.3	0.00e+00	0	31	101	1048576	58	6019
2026-01-06 17:38:04.53	0.51	17.10	-39.8	-40.8	23.4	0.00e+00	11	31	101	1048576	58	5987
2026-01-06 17:38:05.54	0.31	17.16	-39.7	-40.7	23.4	0.00e+00	0	31	101	1048576	58	5915
2026-01-06 17:38:06.55	0.11	17.22	-40.0	-41.0	23.2	0.00e+00	92	31	101	1048576	58	6153
2026-01-06 17:38:07.55	359.91	17.28	-40.0	-40.9	23.4	0.00e+00	0	31	101	1048576	58	6100
2026-01-06 17:38:08.56	359.71	17.34	-40.0	-40.9	23.4	0.00e+00	0	31	101	1048576	58	6092
2026-01-06 17:38:09.57	359.51	17.39	-39.9	-40.8	23.5	0.00e+00	0	31	101	1048576	58	5998
2026-01-06 17:38:10.58	359.31	17.45	-39.8	-40.8	23.5	0.00e+00	0	31	101	1048576	58	5969
2026-01-06 17:38:11.59	359.10	17.51	-39.8	-40.7	23.6	0.00e+00	0	31	101	1048576	58	5924
2026-01-06 17:38:12.60	358.90	17.57	-39.5	-40.4	23.7	0.00e+00	0	31	101	1048576	58	5761
2026-01-06 17:38:13.61	358.70	17.62	-39.7	-40.7	23.4	0.00e+00	84	31	101	1048576	58	5904
2026-01-06 17:38:14.62	358.49	17.68	-39.7	-40.7	23.5	0.00e+00	0	31	101	1048576	58	5925
2026-01-06 17:38:15.63	358.29	17.74	-39.7	-40.6	23.5	0.00e+00	80	31	101	1048576	58	5888
2026-01-06 17:38:16.64	358.08	17.79	-39.6	-40.5	23.7	0.00e+00	0	31	101	1048576	58	5786
2026-01-06 17:38:17.65	357.87	17.85	-39.5	-40.4	23.7	0.00e+00	0	31	101	1048576	58	5715
2026-01-06 17:38:18.66	357.66	17.91	-39.1	-40.0	24.0	0.00e+00	0	31	101	1048576	56	6147
2026-01-06 17:38:19.67	357.45	17.96	-39.2	-40.1	24.0	0.00e+00	0	31	101	1048576	56	6207
2026-01-06 17:38:20.68	357.24	18.02	-39.2	-40.0	24.1	0.00e+00	68	31	101	1048576	56	6168
2026-01-06 17:38:21.69	357.03	18.07	-39.2	-40.1	23.9	0.00e+00	0	31	101	1048576	56	6235
2026-01-06 17:38:22.69	356.82	18.13	-39.6	-40.5	23.7	0.00e+00	92	31	101	1048576	56	6491
2026-01-06 17:38:23.71	356.61	18.18	-39.7	-40.6	23.5	0.00e+00	0	31	101	1048576	56	6556
2026-01-06 17:38:24.71	356.40	18.23	-39.9	-40.9	23.4	0.00e+00	0	31	101	1048576	56	6785
2026-01-06 17:38:25.72	356.18	18.29	-39.9	-40.9	23.4	0.00e+00	0	31	101	1048576	56	6805
2026-01-06 17:38:26.73	355.97	18.34	-39.7	-40.6	23.3	0.00e+00	0	31	101	1048576	56	6575
2026-01-06 17:38:27.74	355.75	18.39	-39.8	-40.7	23.6	0.00e+00	65	31	101	1048576	56	6684
2026-01-06 17:38:28.75	355.54	18.45	-39.7	-40.6	23.4	0.00e+00	0	31	101	1048576	56	6615
2026-01-06 17:38:29.76	355.32	18.50	-40.1	-41.1	23.2	0.00e+00	92	31	101	1048576	56	6969
2026-01-06 17:38:30.77	355.10	18.55	-40.2	-41.2	23.1	0.00e+00	0	31	101	1048576	58	6261
2026-01-06 17:38:31.78	354.89	18.60	-40.5	-41.5	22.8	0.00e+00	0	31	101	1048576	58	6502
2026-01-06 17:38:32.78	354.67	18.66	-40.4	-41.4	23.0	0.00e+00	0	31	101	1048576	58	6408
2026-01-06 17:38:33.80	354.45	18.71	-39.8	-40.8	23.4	0.00e+00	0	31	101	1048576	58	5965
2026-01-06 17:38:34.81	354.23	18.76	-39.7	-40.6	23.5	0.00e+00	66	31	101	1048576	58	5865
2026-01-06 17:38:35.81	354.01	18.81	-39.5	-40.4	23.7	0.00e+00	0	31	101	1048576	58	5732
2026-01-06 17:38:36.82	353.79	18.86	-39.5	-40.4	23.7	0.00e+00	66	31	101	1048576	58	5748
2026-01-06 17:38:37.83	353.56	18.91	-39.4	-40.3	23.8	0.00e+00	0	31	101	1048576	58	5678
2026-01-06 17:38:38.84	353.34	18.96	-39.4	-40.3	23.8	0.00e+00	0	31	101	1048576	58	5688
2026-01-06 17:38:39.85	353.11	19.01	-39.2	-40.1	23.7	0.00e+00	0	31	101	1048576	58	5561
2026-01-06 17:38:40.86	352.89	19.06	-39.2	-40.1	24.0	0.00e+00	0	31	101	1048576	56	6199
2026-01-06 17:38:41.87	352.66	19.11	-38.8	-39.6	24.4	0.00e+00	16	31	101	1048576	56	5894
2026-01-06 17:38:42.88	352.44	19.15	-38.6	-39.5	24.5	0.00e+00	0	31	101	1048576	56	5762
2026-01-06 17:38:43.89	352.21	19.20	-38.3	-39.1	24.7	0.00e+00	90	31	101	1048576	56	5523
2026-01-06 17:38:44.89	351.98	19.25	-38.3	-39.1	24.7	0.00e+00	0	31	101	1048576	56	5560
2026-01-06 17:38:45.90	351.76	19.29	-38.5	-39.3	24.5	0.00e+00	91	31	101	1048576	56	5637
2026-01-06 17:38:46.91	351.53	19.34	-38.6	-39.5	24.5	0.00e+00	0	31	101	1048576	56	5778
2026-01-06 17:38:47.92	351.30	19.39	-39.0	-39.9	24.3	0.00e+00	0	31	101	1048576	56	6039
2026-01-06 17:38:48.93	351.07	19.43	-39.1	-39.9	24.2	0.00e+00	65	31	101	1048576	56	6080
2026-01-06 17:38:49.94	350.83	19.48	-39.2	-40.1	24.2	0.00e+00	0	31	101	1048576	56	6186
2026-01-06 17:38:50.95	350.60	19.52	-39.1	-39.9	24.1	0.00e+00	60	31	101	1048576	56	6096
2026-01-06 17:38:51.96	350.37	19.57	-38.8	-39.7	24.2	0.00e+00	0	31	101	1048576	56	5914
2026-01-06 17:38:52.97	350.14	19.61	-38.9	-39.7	24.2	0.00e+00	13	31	101	1048576	56	5963
2026-01-06 17:38:53.98	349.90	19.66	-39.0	-39.8	24.2	0.00e+00	0	31	101	1048576	56	6016
2026-01-06 17:38:54.98	349.67	19.70	-39.2	-40.1	24.1	0.00e+00	0	31	101	1048576	56	6183
2026-01-06 17:38:55.99	349.43	19.74	-39.4	-40.3	23.8	0.00e+00	0	31	101	1048576	56	6377
2026-01-06 17:38:57.00	349.20	19.78	-39.5	-40.4	23.8	0.00e+00	0	31	101	1048576	56	6463
2026-01-06 17:38:58.01	348.96	19.83	-39.5	-40.4	23.8	0.00e+00	69	31	101	1048576	56	6437
2026-01-06 17:38:59.02	348.72	19.87	-39.2	-40.1	24.0	0.00e+00	0	31	101	1048576	56	6239
2026-01-06 17:39:00.03	348.49	19.91	-39.2	-40.1	23.9	0.00e+00	80	31	101	1048576	56	6200
2026-01-06 17:39:01.02	348.25	19.95	-39.1	-40.0	24.0	0.00e+00	0	31	101	1048576	56	6132
2026-01-06 17:39:02.03	348.01	19.99	-39.3	-40.2	23.6	0.00e+00	0	31	101	1048576	56	6265
2026-01-06 17:39:03.04	347.77	20.03	-39.2	-40.1	23.7	0.00e+00	0	31	101	1048576	56	6226
2026-01-06 17:39:04.05	347.53	20.07	-39.4	-40.3	23.8	0.00e+00	0	31	101	1048576	56	6326
2026-01-06 17:39:05.06	347.29	20.11	-39.0	-39.9	24.1	0.00e+00	71	31	101	1048576	56	6064
2026-01-06 17:39:06.06	347.05	20.15	-39.0	-39.9	24.2	0.00e+00	0	31	101	1048576	56	6043
2026-01-06 17:39:07.07	346.81	20.18	-38.5	-39.3	24.7	0.00e+00	81	31	101	1048576	56	5695
2026-01-06 17:39:08.08	346.56	20.22	-38.4	-39.3	24.6	0.00e+00	0	31	101	1048576	56	5643
2026-01-06 17:39:09.09	346.32	20.26	-38.5	-39.3	24.7	0.00e+00	0	31	101	1048576	56	5670
2026-01-06 17:39:10.10	346.08	20.29	-38.7	-39.5	24.5	0.00e+00	0	31	101	1048576	56	5808
2026-01-06 17:39:11.11	345.83	20.33	-38.9	-39.7	24.3	0.00e+00	0	31	101	1048576	56	5952
2026-01-06 17:39:12.12	345.59	20.37	-38.7	-39.5	24.5	0.00e+00	0	31	101	1048576	56	5797
2026-01-06 17:39:13.13	345.34	20.40	-38.5	-39.3	24.3	0.00e+00	0	31	101	1048576	56	5691
2026-01-06 17:39:14.14	345.09	20.43	-38.5	-39.3	24.6	0.00e+00	80	31	101	1048576	56	5669
2026-01-06 17:39:15.15	344.85	20.47	-38.4	-39.3	24.6	0.00e+00	0	31	101	1048576	56	5637
2026-01-06 17:39:16.16	344.60	20.50	-38.4	-39.3	24.6	0.00e+00	0	31	101	1048576	56	5632
2026-01-06 17:39:17.17	344.35	20.53	-38.7	-39.5	24.4	0.00e+00	0	31	101	1048576	56	5803
2026-01-06 17:39:18.18	344.10	20.57	-39.0	-39.9	24.2	0.00e+00	0	31	101	1048576	56	6058
2026-01-06 17:39:19.19	343.85	20.60	-39.3	-40.2	23.9	0.00e+00	0	31	101	1048576	56	6296
2026-01-06 17:39:20.20	343.60	20.63	-39.7	-40.6	23.7	0.00e+00	0	31	101	1048576	56	6597
2026-01-06 17:39:21.20	343.35	20.66	-39.9	-40.9	23.4	0.00e+00	88	31	101	1048576	56	6785
2026-01-06 17:39:22.21	343.10	20.69	-40.0	-41.0	23.4	0.00e+00	0	31	101	1048576	56	6864
2026-01-06 17:39:23.22	342.85	20.72	-40.0	-40.9	23.4	0.00e+00	80	31	101	1048576	58	6088
2026-01-06 17:39:24.23	342.60	20.75	-39.9	-40.9	23.1	0.00e+00	0	31	101	1048576	58	6047
2026-01-06 17:39:25.24	342.35	20.78	-40.0	-40.9	23.3	0.00e+00	0	31	101	1048576	58	6070
2026-01-06 17:39:26.25	342.09	20.81	-40.5	-41.5	22.9	0.00e+00	0	31	101	1048576	58	6524
2026-01-06 17:39:27.26	341.84	20.83	-41.1	-42.1	22.4	0.00e+00	0	31	101	1048576	58	7002
2026-01-06 17:39:28.27	341.59	20.86	-41.5	-42.6	22.0	0.00e+00	73	31	101	1048576	60	6570
2026-01-06 17:39:29.28	341.33	20.89	-41.6	-42.7	21.9	0.00e+00	0	31	101	1048576	60	6687
2026-01-06 17:39:30.28	341.08	20.91	-41.2	-42.3	22.3	0.00e+00	90	31	101	1048576	60	6329
2026-01-06 17:39:31.29	340.83	20.94	-40.9	-42.0	22.6	0.00e+00	0	31	101	1048576	60	6119
2026-01-06 17:39:32.30	340.57	20.96	-40.5	-41.5	23.0	0.00e+00	0	31	101	1048576	60	5767
2026-01-06 17:39:33.31	340.32	20.98	-40.1	-41.1	23.3	0.00e+00	0	31	101	1048576	58	6201
2026-01-06 17:39:34.31	340.06	21.01	-40.0	-41.0	23.1	0.00e+00	0	31	101	1048576	58	6130
2026-01-06 17:39:35.32	339.81	21.03	-40.1	-41.0	23.2	0.00e+00	12	31	101	1048576	58	6172
2026-01-06 17:39:36.32	339.55	21.05	-40.4	-41.4	23.0	0.00e+00	0	31	101	1048576	58	6402
2026-01-06 17:39:37.33	339.29	21.07	-40.8	-41.8	22.6	0.00e+00	38	31	101	1048576	58	6732
2026-01-06 17:39:38.34	339.04	21.09	-41.2	-42.3	22.2	0.00e+00	0	31	101	1048576	60	6377
2026-01-06 17:39:39.35	338.78	21.12	-41.5	-42.7	22.0	0.00e+00	0	31	101	1048576	60	6627
2026-01-06 17:39:40.35	338.52	21.13	-41.3	-42.5	22.1	0.00e+00	0	31	101	1048576	60	6493
2026-01-06 17:39:41.36	338.26	21.15	-41.2	-42.3	22.3	0.00e+00	0	31	101	1048576	60	6345
2026-01-06 17:39:42.37	338.00	21.17	-40.7	-41.7	22.8	0.00e+00	44	31	101	1048576	60	5947
2026-01-06 17:39:43.38	337.74	21.19	-40.4	-41.4	23.0	0.00e+00	0	31	101	1048576	60	5756
2026-01-06 17:39:44.38	337.49	21.21	-40.5	-41.5	22.9	0.00e+00	37	31	101	1048576	60	5778
2026-01-06 17:39:45.39	337.23	21.22	-40.7	-41.8	22.7	0.00e+00	0	31	101	1048576	60	5972
2026-01-06 17:39:46.40	336.97	21.24	-41.0	-42.1	22.5	0.00e+00	24	31	101	1048576	60	6185
2026-01-06 17:39:47.40	336.71	21.26	-41.1	-42.2	22.2	0.00e+00	0	31	101	1048576	60	6300
2026-01-06 17:39:48.41	336.45	21.27	-41.1	-42.2	22.4	0.00e+00	0	31	101	1048576	60	6270
2026-01-06 17:39:49.42	336.19	21.29	-40.6	-41.6	22.9	0.00e+00	0	31	101	1048576	60	5853
2026-01-06 17:39:50.43	335.93	21.30	-40.4	-41.4	23.1	0.00e+00	0	31	101	1048576	60	5708
2026-01-06 17:39:51.43	335.67	21.31	-40.2	-41.2	23.2	0.00e+00	83	31	101	1048576	60	5613
2026-01-06 17:39:52.44	335.41	21.32	-40.0	-40.9	23.4	0.00e+00	0	31	101	1048576	58	6069
2026-01-06 17:39:53.45	335.14	21.34	-39.9	-40.8	23.3	0.00e+00	92	31	101	1048576	58	5992
2026-01-06 17:39:54.46	334.88	21.35	-40.1	-41.1	23.1	0.00e+00	33	31	101	1048576	58	6200
2026-01-06 17:39:55.46	334.62	21.36	-40.7	-41.7	22.6	0.00e+00	0	31	101	1048576	58	6682
2026-01-06 17:39:56.47	334.36	21.37	-41.1	-42.1	22.3	0.00e+00	0	31	101	1048576	58	6983
2026-01-06 17:39:57.48	334.10	21.38	-41.6	-42.8	22.1	0.00e+00	0	31	101	1048576	60	6704
2026-01-06 17:39:58.49	333.83	21.39	-41.3	-42.4	22.2	0.00e+00	69	31	101	1048576	60	6429
2026-01-06 17:39:59.49	333.57	21.39	-41.3	-42.4	22.2	0.00e+00	0	31	101	1048576	60	6462
2026-01-06 17:40:00.50	333.31	21.40	-41.2	-42.3	22.2	0.00e+00	92	31	101	1048576	60	6367
2026-01-06 17:40:01.51	333.05	21.41	-41.3	-42.4	22.2	0.00e+00	0	31	101	1048576	60	6412
2026-01-06 17:40:02.52	332.78	21.41	-41.3	-42.4	22.3	0.00e+00	0	31	101	1048576	60	6400
2026-01-06 17:40:03.52	332.52	21.42	-41.4	-42.5	22.2	0.00e+00	0	31	101	1048576	60	6494
2026-01-06 17:40:04.53	332.26	21.42	-41.4	-42.5	22.0	0.00e+00	0	31	101	1048576	60	6512
2026-01-06 17:40:05.53	332.00	21.43	-41.4	-42.5	21.9	0.00e+00	68	31	101	1048576	60	6537
2026-01-06 17:40:06.54	331.74	21.43	-41.6	-42.8	21.9	0.00e+00	0	31	101	1048576	60	6711
2026-01-06 17:40:07.55	331.47	21.43	-41.4	-42.5	22.1	0.00e+00	92	31	101	1048576	60	6508
2026-01-06 17:40:08.56	331.21	21.44	-40.9	-41.9	22.6	0.00e+00	0	31	101	1048576	60	6077
2026-01-06 17:40:09.56	330.95	21.44	-40.4	-41.3	23.1	0.00e+00	0	31	101	1048576	60	5684
2026-01-06 17:40:10.57	330.68	21.44	-40.4	-41.3	23.2	0.00e+00	0	31	101	1048576	60	5665
2026-01-06 17:40:11.58	330.42	21.44	-39.8	-40.7	23.5	0.00e+00	0	31	101	1048576	58	5921
2026-01-06 17:40:12.59	330.16	21.44	-39.9	-40.8	23.4	0.00e+00	0	31	101	1048576	58	6020
2026-01-06 17:40:13.59	329.89	21.44	-39.7	-40.6	23.7	0.00e+00	0	31	101	1048576	58	5850
2026-01-06 17:40:14.60	329.63	21.44	-39.9	-40.8	23.4	0.00e+00	70	31	101	1048576	58	5975
2026-01-06 17:40:15.61	329.37	21.43	-40.0	-41.0	23.4	0.00e+00	0	31	101	1048576	58	6115
2026-01-06 17:40:16.62	329.10	21.43	-40.2	-41.1	23.2	0.00e+00	92	31	101	1048576	58	6239
2026-01-06 17:40:17.62	328.84	21.43	-40.2	-41.1	23.3	0.00e+00	0	31	101	1048576	58	6229
2026-01-06 17:40:18.63	328.58	21.42	-40.3	-41.3	23.2	0.00e+00	0	31	101	1048576	58	6331
2026-01-06 17:40:19.64	328.32	21.42	-40.5	-41.5	22.9	0.00e+00	41	31	101	1048576	58	6503
2026-01-06 17:40:20.65	328.05	21.41	-40.5	-41.6	22.9	0.00e+00	0	31	101	1048576	58	6552
2026-01-06 17:40:21.66	327.79	21.41	-40.5	-41.5	22.9	0.00e+00	90	31	101	1048576	58	6526
2026-01-06 17:40:22.66	327.53	21.40	-40.5	-41.6	22.8	0.00e+00	0	31	101	1048576	58	6541
2026-01-06 17:40:23.67	327.26	21.39	-40.7	-41.7	22.6	0.00e+00	81	31	101	1048576	58	6668
2026-01-06 17:40:24.68	327.00	21.38	-40.4	-41.4	22.6	0.00e+00	0	31	101	1048576	58	6431
2026-01-06 17:40:25.68	326.74	21.38	-40.6	-41.6	22.8	0.00e+00	0	31	101	1048576	58	6580
2026-01-06 17:40:26.69	326.48	21.37	-40.5	-41.5	22.7	0.00e+00	0	31	101	1048576	58	6503
2026-01-06 17:40:27.70	326.22	21.36	-40.3	-41.2	23.1	0.00e+00	0	31	101	1048576	58	6302
2026-01-06 17:40:28.71	325.95	21.35	-40.0	-40.9	23.4	0.00e+00	18	31	101	1048576	58	6099
2026-01-06 17:40:29.72	325.69	21.34	-39.5	-40.4	23.9	0.00e+00	0	31	101	1048576	58	5700
2026-01-06 17:40:30.73	325.43	21.32	-39.4	-40.2	23.9	0.00e+00	74	31	101	1048576	58	5624
2026-01-06 17:40:31.74	325.17	21.31	-39.2	-40.1	24.1	0.00e+00	0	31	101	1048576	58	5515
2026-01-06 17:40:32.75	324.91	21.30	-39.3	-40.1	24.0	0.00e+00	0	31	101	1048576	56	6244
2026-01-06 17:40:33.75	324.65	21.28	-39.3	-40.1	24.0	0.00e+00	0	31	101	1048576	56	6233
2026-01-06 17:40:34.76	324.39	21.27	-38.9	-39.7	24.3	0.00e+00	0	31	101	1048576	56	5942
2026-01-06 17:40:35.77	324.13	21.25	-39.0	-39.9	24.2	0.00e+00	25	31	101	1048576	56	6035
2026-01-06 17:40:36.78	323.87	21.24	-38.6	-39.4	24.5	0.00e+00	0	31	101	1048576	56	5715
2026-01-06 17:40:37.78	323.61	21.22	-38.5	-39.3	24.6	0.00e+00	92	31	101	1048576	56	5687
2026-01-06 17:40:38.79	323.35	21.21	-38.6	-39.4	24.5	0.00e+00	0	31	101	1048576	56	5756
2026-01-06 17:40:39.80	323.09	21.19	-38.8	-39.6	24.2	0.00e+00	0	31	101	1048576	56	5868
2026-01-06 17:40:40.81	322.83	21.17	-39.2	-40.0	24.1	0.00e+00	0	31	101	1048576	56	6162
2026-01-06 17:40:41.82	322.57	21.15	-39.2	-40.0	24.2	0.00e+00	0	31	101	1048576	56	6148
2026-01-06 17:40:42.82	322.31	21.13	-39.2	-40.1	24.1	0.00e+00	67	31	101	1048576	56	6192
2026-01-06 17:40:43.83	322.05	21.11	-39.1	-40.0	24.2	0.00e+00	0	31	101	1048576	56	6116
2026-01-06 17:40:44.83	321.80	21.09	-39.2	-40.1	24.1	0.00e+00	76	31	101	1048576	56	6178
2026-01-06 17:40:45.84	321.54	21.07	-38.8	-39.7	24.3	0.00e+00	0	31	101	1048576	56	5922
2026-01-06 17:40:46.85	321.28	21.05	-38.9	-39.7	24.1	0.00e+00	61	31	101	1048576	56	5960
2026-01-06 17:40:47.85	321.03	21.03	-38.4	-39.2	24.6	0.00e+00	0	31	101	1048576	56	5591
2026-01-06 17:40:48.86	320.77	21.01	-38.6	-39.5	24.5	0.00e+00	0	31	101	1048576	56	5780
2026-01-06 17:40:49.87	320.52	20.98	-38.6	-39.4	24.4	0.00e+00	0	31	101	1048576	56	5760
2026-01-06 17:40:50.88	320.26	20.96	-38.6	-39.4	24.5	0.00e+00	0	31	101	1048576	56	5742
2026-01-06 17:40:51.88	320.01	20.93	-38.7	-39.6	24.3	0.00e+00	67	31	101	1048576	56	5835
2026-01-06 17:40:52.89	319.75	20.91	-38.8	-39.6	24.4	0.00e+00	0	31	101	1048576	56	5886
2026-01-06 17:40:53.90	319.50	20.88	-39.1	-40.0	24.1	0.00e+00	67	31	101	1048576	56	6114
2026-01-06 17:40:54.91	319.24	20.86	-39.0	-39.8	23.9	0.00e+00	0	31	101	1048576	56	6030
2026-01-06 17:40:55.92	318.99	20.83	-39.0	-39.8	24.1	0.00e+00	0	31	101	1048576	56	6033
2026-01-06 17:40:56.93	318.74	20.80	-38.9	-39.8	24.2	0.00e+00	0	31	101	1048576	56	5990
2026-01-06 17:40:57.94	318.48	20.77	-38.8	-39.6	24.3	0.00e+00	0	31	101	1048576	56	5878
2026-01-06 17:40:58.94	318.23	20.75	-38.9	-39.7	24.4	0.00e+00	2	31	101	1048576	56	5912
2026-01-06 17:40:59.95	317.98	20.72	-39.0	-39.9	24.1	0.00e+00	0	31	101	1048576	56	6035
2026-01-06 17:41:00.96	317.73	20.69	-39.0	-39.9	24.2	0.00e+00	92	31	101	1048576	56	6035
2026-01-06 17:41:01.97	317.48	20.66	-38.9	-39.7	24.3	0.00e+00	0	31	101	1048576	56	5948
2026-01-06 17:41:02.97	317.23	20.63	-38.9	-39.8	24.3	0.00e+00	0	31	101	1048576	56	5965
2026-01-06 17:41:03.98	316.98	20.59	-39.1	-40.0	24.1	0.00e+00	0	31	101	1048576	56	6112
2026-01-06 17:41:04.99	316.73	20.56	-39.2	-40.1	23.9	0.00e+00	0	31	101	1048576	56	6178
2026-01-06 17:41:06.00	316.48	20.53	-39.8	-40.7	23.6	0.00e+00	65	31	101	1048576	56	6621
2026-01-06 17:41:07.00	316.24	20.50	-40.1	-41.1	23.2	0.00e+00	0	31	101	1048576	58	6196
2026-01-06 17:41:08.01	315.99	20.46	-40.3	-41.2	23.2	0.00e+00	72	31	101	1048576	58	6287
2026-01-06 17:41:09.02	315.74	20.43	-40.3	-41.2	23.2	0.00e+00	0	31	101	1048576	58	6300
2026-01-06 17:41:10.03	315.49	20.40	-40.3	-41.3	23.2	0.00e+00	28	31	101	1048576	58	6332
2026-01-06 17:41:11.04	315.25	20.36	-40.0	-41.0	23.4	0.00e+00	0	31	101	1048576	58	6105
2026-01-06 17:41:12.04	315.00	20.33	-39.7	-40.6	23.6	0.00e+00	0	31	101	1048576	58	5877
2026-01-06 17:41:13.05	314.76	20.29	-39.9	-40.8	23.5	0.00e+00	65	31	101	1048576	58	5988
2026-01-06 17:41:14.06	314.51	20.25	-40.0	-41.0	23.4	0.00e+00	0	31	101	1048576	58	6121
2026-01-06 17:41:15.07	314.27	20.22	-40.1	-41.1	23.2	0.00e+00	63	31	101	1048576	58	6200
2026-01-06 17:41:16.08	314.03	20.18	-40.2	-41.1	23.1	0.00e+00	0	31	101	1048576	58	6244
2026-01-06 17:41:17.09	313.78	20.14	-40.5	-41.5	22.7	0.00e+00	26	31	101	1048576	58	6528
2026-01-06 17:41:18.10	313.54	20.10	-40.7	-41.7	22.8	0.00e+00	0	31	101	1048576	58	6687
2026-01-06 17:41:19.10	313.30	20.06	-41.2	-42.3	22.5	0.00e+00	0	31	101	1048576	60	6326
2026-01-06 17:41:20.11	313.06	20.02	-41.4	-42.5	22.2	0.00e+00	41	31	101	1048576	60	6494
2026-01-06 17:41:21.12	312.82	19.99	-41.5	-42.6	22.1	0.00e+00	0	31	101	1048576	60	6591
2026-01-06 17:41:22.13	312.58	19.94	-41.7	-42.8	21.9	0.00e+00	21	31	101	1048576	60	6743
2026-01-06 17:41:23.14	312.34	19.90	-41.6	-42.6	22.1	0.00e+00	0	31	101	1048576	60	6601
2026-01-06 17:41:24.14	312.11	19.86	-41.7	-42.8	21.9	0.00e+00	90	31	101	1048576	60	6765
2026-01-06 17:41:25.15	311.87	19.82	-41.4	-42.5	22.3	0.00e+00	0	31	101	1048576	60	6475
2026-01-06 17:41:26.16	311.63	19.78	-41.2	-42.2	22.4	0.00e+00	0	31	101	1048576	60	6305
2026-01-06 17:41:27.17	311.40	19.74	-41.1	-42.1	22.5	0.00e+00	0	31	101	1048576	60	6221
2026-01-06 17:41:28.17	311.16	19.69	-40.9	-41.9	22.8	0.00e+00	0	31	101	1048576	60	6034
2026-01-06 17:41:29.18	310.93	19.65	-40.7	-41.6	22.9	0.00e+00	8	31	101	1048576	60	5887
2026-01-06 17:41:30.19	310.69	19.61	-40.5	-41.4	23.0	0.00e+00	0	31	101	1048576	60	5748
2026-01-06 17:41:31.20	310.46	19.56	-40.6	-41.5	23.0	0.00e+00	73	31	101	1048576	60	5821
2026-01-06 17:41:32.21	310.23	19.52	-40.7	-41.7	22.8	0.00e+00	0	31	101	1048576	60	5943
2026-01-06 17:41:33.22	309.99	19.47	-40.8	-41.8	22.8	0.00e+00	0	31	101	1048576	60	5990
2026-01-06 17:41:34.23	309.76	19.43	-40.9	-41.9	22.8	0.00e+00	0	31	101	1048576	60	6057
2026-01-06 17:41:35.23	309.53	19.38	-40.5	-41.4	23.1	0.00e+00	0	31	101	1048576	60	5729
2026-01-06 17:41:36.24	309.30	19.34	-40.2	-41.1	23.2	0.00e+00	0	31	101	1048576	58	6215
2026-01-06 17:41:37.25	309.07	19.29	-40.0	-40.9	23.4	0.00e+00	0	31	101	1048576	58	6059
2026-01-06 17:41:38.26	308.84	19.24	-39.8	-40.7	23.5	0.00e+00	75	31	101	1048576	58	5946
2026-01-06 17:41:39.27	308.62	19.19	-39.7	-40.6	23.4	0.00e+00	0	31	101	1048576	58	5841
2026-01-06 17:41:40.28	308.39	19.15	-39.2	-40.1	24.0	0.00e+00	0	31	101	1048576	58	5513
2026-01-06 17:41:41.28	308.16	19.10	-39.0	-39.8	24.2	0.00e+00	0	31	101	1048576	56	6029
2026-01-06 17:41:42.29	307.94	19.05	-39.1	-39.9	24.0	0.00e+00	0	31	101	1048576	56	6052
2026-01-06 17:41:43.30	307.71	19.00	-39.1	-39.9	24.2	0.00e+00	17	31	101	1048576	56	6063
2026-01-06 17:41:44.31	307.49	18.95	-39.1	-39.9	24.2	0.00e+00	0	31	101	1048576	56	6065
2026-01-06 17:41:45.31	307.27	18.90	-39.0	-39.8	24.2	0.00e+00	43	31	101	1048576	56	6019
2026-01-06 17:41:46.32	307.04	18.85	-39.2	-40.1	24.1	0.00e+00	0	31	101	1048576	56	6199
2026-01-06 17:41:47.33	306.82	18.80	-39.5	-40.4	23.9	0.00e+00	91	31	101	1048576	56	6432
2026-01-06 17:41:48.34	306.60	18.75	-39.7	-40.6	23.6	0.00e+00	0	31	101	1048576	56	6586
2026-01-06 17:41:49.35	306.38	18.70	-40.1	-41.0	23.3	0.00e+00	0	31	101	1048576	56	6861
2026-01-06 17:41:50.36	306.16	18.65	-40.7	-41.7	22.8	0.00e+00	0	31	101	1048576	58	6633
2026-01-06 17:41:51.36	305.94	18.60	-41.3	-42.4	22.0	0.00e+00	0	31	101	1048576	60	6404
2026-01-06 17:41:52.37	305.72	18.55	-41.6	-42.7	21.9	0.00e+00	90	31	101	1048576	60	6689
2026-01-06 17:41:53.38	305.50	18.49	-41.8	-42.9	21.8	0.00e+00	0	31	101	1048576	60	6811
2026-01-06 17:41:54.39	305.29	18.44	-41.7	-42.8	21.8	0.00e+00	46	31	101	1048576	60	6768
2026-01-06 17:41:55.39	305.07	18.39	-41.8	-42.9	21.8	0.00e+00	0	31	101	1048576	60	6846
2026-01-06 17:41:56.40	304.86	18.33	-41.8	-43.0	21.8	0.00e+00	0	31	101	1048576	60	6882
2026-01-06 17:41:57.41	304.64	18.28	-42.2	-43.4	21.5	0.00e+00	0	31	101	1048576	60	7207
2026-01-06 17:41:58.42	304.43	18.23	-42.3	-43.5	21.3	0.00e+00	0	31	101	1048576	60	7312
2026-01-06 17:41:59.42	304.22	18.17	-42.6	-43.9	21.0	0.00e+00	72	31	101	1048576	60	7634
2026-01-06 17:42:00.43	304.01	18.12	-43.0	-44.4	20.6	0.00e+00	33	31	101	1048576	60	8053
2026-01-06 17:42:01.44	303.79	18.06	-43.2	-44.6	20.4	0.00e+00	92	31	101	1048576	60	8268
2026-01-06 17:42:02.45	303.58	18.01	-43.1	-44.5	20.9	0.00e+00	0	31	101	1048576	60	8199
2026-01-06 17:42:03.46	303.37	17.95	-42.8	-44.1	20.7	0.00e+00	0	31	101	1048576	60	7857
2026-01-06 17:42:04.47	303.16	17.90	-42.5	-43.7	21.1	0.00e+00	33	31	101	1048576	60	7469
2026-01-06 17:42:05.48	302.95	17.84	-41.8	-42.9	21.8	0.00e+00	0	31	101	1048576	60	6796
2026-01-06 17:42:06.49	302.75	17.79	-41.5	-42.6	22.1	0.00e+00	0	31	101	1048576	60	6581
2026-01-06 17:42:07.50	302.54	17.73	-41.2	-42.2	22.4	0.00e+00	33	31	101	1048576	60	6291
2026-01-06 17:42:08.51	302.33	17.67	-40.8	-41.8	22.8	0.00e+00	92	31	101	1048576	60	5967
2026-01-06 17:42:09.52	302.13	17.62	-40.3	-41.3	23.2	0.00e+00	0	31	101	1048576	60	5641
2026-01-06 17:42:10.53	301.92	17.56	-40.3	-41.2	23.1	0.00e+00	70	31	101	1048576	58	6300
2026-01-06 17:42:11.53	301.72	17.50	-40.3	-41.2	23.1	0.00e+00	0	31	101	1048576	58	6303
2026-01-06 17:42:12.54	301.52	17.44	-39.8	-40.7	23.6	0.00e+00	0	31	101	1048576	58	5947
2026-01-06 17:42:13.55	301.31	17.39	-39.7	-40.6	23.7	0.00e+00	63	31	101	1048576	58	5858
2026-01-06 17:42:14.56	301.11	17.33	-39.9	-40.8	23.5	0.00e+00	0	31	101	1048576	58	6027
2026-01-06 17:42:15.57	300.91	17.27	-40.2	-41.1	23.2	0.00e+00	90	31	101	1048576	58	6206
2026-01-06 17:42:16.57	300.71	17.21	-40.3	-41.3	23.0	0.00e+00	0	31	101	1048576	58	6329
2026-01-06 17:42:17.58	300.51	17.15	-40.8	-41.8	22.6	0.00e+00	92	31	101	1048576	58	6755
2026-01-06 17:42:18.59	300.32	17.09	-40.6	-41.6	22.8	0.00e+00	0	31	101	1048576	58	6599
2026-01-06 17:42:19.60	300.12	17.04	-40.7	-41.6	22.8	0.00e+00	0	31	101	1048576	58	6595
2026-01-06 17:42:20.61	299.92	16.98	-40.8	-41.7	22.7	0.00e+00	0	31	101	1048576	58	6675
2026-01-06 17:42:21.62	299.73	16.92	-40.5	-41.4	23.0	0.00e+00	0	31	101	1048576	58	6431
2026-01-06 17:42:22.62	299.53	16.86	-39.6	-40.4	23.7	0.00e+00	33	31	101	1048576	58	5741
2026-01-06 17:42:23.63	299.34	16.80	-39.4	-40.3	23.9	0.00e+00	0	31	101	1048576	58	5640
2026-01-06 17:42:24.64	299.14	16.74	-39.7	-40.5	23.6	0.00e+00	72	31	101	1048576	58	5815
2026-01-06 17:42:25.65	298.95	16.68	-40.0	-40.9	23.4	0.00e+00	0	31	101	1048576	58	6091
2026-01-06 17:42:26.66	298.76	16.62	-40.5	-41.5	22.9	0.00e+00	0	31	101	1048576	58	6495
2026-01-06 17:42:27.66	298.57	16.56	-40.9	-41.9	22.5	0.00e+00	0	31	101	1048576	58	6806
2026-01-06 17:42:28.67	298.38	16.49	-41.4	-42.5	22.2	0.00e+00	0	31	101	1048576	60	6485
2026-01-06 17:42:29.68	298.19	16.43	-41.7	-42.8	21.9	0.00e+00	71	31	101	1048576	60	6703
2026-01-06 17:42:30.68	298.00	16.37	-42.0	-43.2	21.7	0.00e+00	0	31	101	1048576	60	7047
2026-01-06 17:42:31.69	297.81	16.31	-42.0	-43.1	21.6	0.00e+00	80	31	101	1048576	60	6982
2026-01-06 17:42:32.70	297.63	16.25	-41.8	-42.9	21.8	0.00e+00	0	31	101	1048576	60	6793
2026-01-06 17:42:33.71	297.44	16.19	-41.5	-42.6	22.0	0.00e+00	0	31	101	1048576	60	6586
2026-01-06 17:42:34.72	297.25	16.13	-41.3	-42.3	22.2	0.00e+00	0	31	101	1048576	60	6367
2026-01-06 17:42:35.73	297.07	16.06	-41.1	-42.1	22.5	0.00e+00	0	31	101	1048576	60	6195
2026-01-06 17:42:36.73	296.88	16.00	-41.0	-42.0	22.5	0.00e+00	0	31	101	1048576	60	6159
2026-01-06 17:42:37.74	296.70	15.94	-40.9	-41.8	22.7	0.00e+00	0	31	101	1048576	60	6032
2026-01-06 17:42:38.75	296.52	15.88	-40.8	-41.7	22.8	0.00e+00	63	31	101	1048576	60	5942
2026-01-06 17:42:39.76	296.34	15.82	-40.6	-41.6	22.8	0.00e+00	0	31	101	1048576	60	5865
2026-01-06 17:42:40.77	296.15	15.75	-40.6	-41.6	22.9	0.00e+00	0	31	101	1048576	60	5831
2026-01-06 17:42:41.78	295.97	15.69	-40.7	-41.7	22.8	0.00e+00	0	31	101	1048576	60	5951
2026-01-06 17:42:42.79	295.79	15.63	-40.4	-41.4	22.8	0.00e+00	0	31	101	1048576	60	5712
2026-01-06 17:42:43.79	295.62	15.56	-40.5	-41.4	23.0	0.00e+00	0	31	101	1048576	60	5751
2026-01-06 17:42:44.80	295.44	15.50	-40.6	-41.5	22.9	0.00e+00	0	31	101	1048576	60	5821
2026-01-06 17:42:45.81	295.26	15.44	-40.8	-41.8	22.7	0.00e+00	77	31	101	1048576	60	6012
2026-01-06 17:42:46.82	295.08	15.37	-41.1	-42.1	22.4	0.00e+00	0	31	101	1048576	60	6228
2026-01-06 17:42:47.83	294.91	15.31	-41.5	-42.6	22.1	0.00e+00	92	31	101	1048576	60	6565
2026-01-06 17:42:48.83	294.73	15.25	-41.6	-42.7	21.9	0.00e+00	0	31	101	1048576	60	6672
2026-01-06 17:42:49.84	294.56	15.18	-41.7	-42.8	21.9	0.00e+00	0	31	101	1048576	60	6722
2026-01-06 17:42:50.85	294.39	15.12	-41.7	-42.9	21.8	0.00e+00	0	31	101	1048576	60	6804
2026-01-06 17:42:51.86	294.21	15.06	-41.6	-42.8	22.0	0.00e+00	0	31	101	1048576	60	6700
2026-01-06 17:42:52.87	294.04	14.99	-41.6	-42.7	21.9	0.00e+00	68	31	101	1048576	60	6652
2026-01-06 17:42:53.88	293.87	14.93	-41.3	-42.4	22.3	0.00e+00	0	31	101	1048576	60	6411
2026-01-06 17:42:54.89	293.70	14.86	-40.7	-41.7	22.7	0.00e+00	92	31	101	1048576	60	5941
2026-01-06 17:42:55.90	293.53	14.80	-40.6	-41.6	22.9	0.00e+00	0	31	101	1048576	60	5839
2026-01-06 17:42:56.91	293.36	14.74	-40.5	-41.5	22.9	0.00e+00	0	31	101	1048576	60	5816
2026-01-06 17:42:57.92	293.19	14.67	-40.6	-41.6	22.8	0.00e+00	0	31	101	1048576	60	5874
2026-01-06 17:42:58.93	293.02	14.61	-40.7	-41.7	22.8	0.00e+00	0	31	101	1048576	60	5905
2026-01-06 17:42:59.93	292.86	14.54	-40.8	-41.8	22.6	0.00e+00	27	31	101	1048576	60	6011
2026-01-06 17:43:00.94	292.69	14.48	-41.0	-42.0	22.5	0.00e+00	0	31	101	1048576	60	6172
2026-01-06 17:43:01.95	292.52	14.41	-41.1	-42.2	22.4	0.00e+00	92	31	101	1048576	60	6254
2026-01-06 17:43:02.96	292.36	14.35	-41.3	-42.4	22.1	0.00e+00	0	31	101	1048576	60	6435
2026-01-06 17:43:03.97	292.20	14.28	-41.4	-42.5	22.1	0.00e+00	0	31	101	1048576	60	6508
2026-01-06 17:43:04.99	292.03	14.22	-41.2	-42.3	22.2	0.00e+00	0	31	101	1048576	60	6356
2026-01-06 17:43:05.99	291.87	14.15	-41.2	-42.3	22.1	0.00e+00	0	31	101	1048576	60	6328
2026-01-06 17:43:07.00	291.71	14.09	-41.0	-42.1	22.4	0.00e+00	14	31	101	1048576	60	6182
2026-01-06 17:43:08.01	291.55	14.02	-41.0	-42.0	22.5	0.00e+00	0	31	101	1048576	60	6126
2026-01-06 17:43:09.02	291.39	13.96	-40.5	-41.5	22.9	0.00e+00	91	31	101	1048576	60	5766
2026-01-06 17:43:10.04	291.22	13.89	-40.5	-41.4	22.9	0.00e+00	0	31	101	1048576	60	5747
2026-01-06 17:43:11.05	291.07	13.83	-40.2	-41.1	23.2	0.00e+00	0	31	101	1048576	60	5558
2026-01-06 17:43:12.06	290.91	13.76	-40.3	-41.2	23.1	0.00e+00	0	31	101	1048576	60	5628
2026-01-06 17:43:13.07	290.75	13.70	-40.2	-41.1	23.1	0.00e+00	0	31	101	1048576	58	6235
2026-01-06 17:43:14.07	290.59	13.63	-40.1	-41.0	23.2	0.00e+00	67	31	101	1048576	58	6157
2026-01-06 17:43:15.08	290.44	13.57	-39.9	-40.8	23.3	0.00e+00	0	31	101	1048576	58	5987
2026-01-06 17:43:16.09	290.28	13.50	-39.7	-40.6	23.5	0.00e+00	92	31	101	1048576	58	5874
2026-01-06 17:43:17.10	290.13	13.43	-39.5	-40.3	23.8	0.00e+00	0	31	101	1048576	58	5695
2026-01-06 17:43:18.11	289.97	13.37	-39.3	-40.1	24.0	0.00e+00	12	31	101	1048576	58	5537
2026-01-06 17:43:19.12	289.82	13.30	-39.0	-39.8	24.2	0.00e+00	0	31	101	1048576	56	6003
2026-01-06 17:43:20.13	289.67	13.24	-38.9	-39.7	24.2	0.00e+00	0	31	101	1048576	56	5908
2026-01-06 17:43:21.14	289.51	13.17	-38.9	-39.7	24.2	0.00e+00	65	31	101	1048576	56	5962
2026-01-06 17:43:22.15	289.36	13.11	-39.1	-39.9	24.1	0.00e+00	0	31	101	1048576	56	6067
2026-01-06 17:43:23.16	289.21	13.04	-39.3	-40.2	23.9	0.00e+00	66	31	101	1048576	56	6258
2026-01-06 17:43:24.17	289.06	12.97	-39.2	-40.0	24.0	0.00e+00	0	31	101	1048576	56	6157
2026-01-06 17:43:25.18	288.91	12.91	-39.4	-40.3	23.7	0.00e+00	52	31	101	1048576	56	6331
2026-01-06 17:43:26.19	288.76	12.84	-39.7	-40.7	23.5	0.00e+00	0	31	101	1048576	56	6616
2026-01-06 17:43:27.20	288.62	12.78	-39.9	-40.8	23.4	0.00e+00	0	31	101	1048576	56	6732
2026-01-06 17:43:28.21	288.47	12.71	-40.1	-41.0	23.2	0.00e+00	25	31	101	1048576	56	6902
2026-01-06 17:43:29.22	288.32	12.65	-40.3	-41.3	23.0	0.00e+00	0	31	101	1048576	58	6350
2026-01-06 17:43:30.22	288.18	12.58	-40.4	-41.4	22.9	0.00e+00	20	31	101	1048576	58	6414
2026-01-06 17:43:31.23	288.03	12.51	-40.3	-41.3	23.0	0.00e+00	0	31	101	1048576	58	6364
2026-01-06 17:43:32.24	287.89	12.45	-40.3	-41.3	22.9	0.00e+00	91	31	101	1048576	58	6337
2026-01-06 17:43:33.25	287.74	12.38	-40.4	-41.4	22.9	0.00e+00	0	31	101	1048576	58	6395
2026-01-06 17:43:34.26	287.60	12.32	-40.1	-41.1	23.1	0.00e+00	0	31	101	1048576	58	6190
2026-01-06 17:43:35.27	287.46	12.25	-39.8	-40.7	23.4	0.00e+00	0	31	101	1048576	58	5963
2026-01-06 17:43:36.28	287.31	12.19	-39.7	-40.6	23.5	0.00e+00	0	31	101	1048576	58	5848
2026-01-06 17:43:37.29	287.17	12.12	-39.4	-40.3	23.8	0.00e+00	13	31	101	1048576	58	5653
2026-01-06 17:43:38.30	287.03	12.05	-39.2	-40.1	23.9	0.00e+00	0	31	101	1048576	58	5529
2026-01-06 17:43:39.31	286.89	11.99	-39.4	-40.3	23.7	0.00e+00	85	31	101	1048576	58	5658
2026-01-06 17:43:40.32	286.75	11.92	-39.3	-40.2	23.7	0.00e+00	0	31	101	1048576	58	5595
2026-01-06 17:43:41.33	286.61	11.86	-39.5	-40.4	23.7	0.00e+00	0	31	101	1048576	58	5712
2026-01-06 17:43:42.34	286.48	11.79	-39.6	-40.5	23.5	0.00e+00	0	31	101	1048576	58	5823
2026-01-06 17:43:43.35	286.34	11.73	-39.6	-40.5	23.5	0.00e+00	0	31	101	1048576	58	5812
2026-01-06 17:43:44.36	286.20	11.66	-39.8	-40.7	23.3	0.00e+00	70	31	101	1048576	58	5923
2026-01-06 17:43:45.37	286.06	11.59	-40.2	-41.1	23.0	0.00e+00	0	31	101	1048576	58	6243
2026-01-06 17:43:46.38	285.93	11.53	-40.3	-41.3	22.7	0.00e+00	53	31	101	1048576	58	6353
2026-01-06 17:43:47.39	285.79	11.46	-40.5	-41.5	22.4	0.00e+00	0	31	101	1048576	58	6506
2026-01-06 17:43:48.40	285.66	11.40	-40.7	-41.7	22.4	0.00e+00	43	31	101	1048576	58	6656
2026-01-06 17:43:49.41	285.52	11.33	-40.5	-41.5	22.6	0.00e+00	0	31	101	1048576	58	6480
2026-01-06 17:43:50.41	285.39	11.27	-40.7	-41.7	22.5	0.00e+00	0	31	101	1048576	58	6664
2026-01-06 17:43:51.43	285.26	11.20	-40.9	-41.9	22.5	0.00e+00	0	31	101	1048576	58	6808
2026-01-06 17:43:52.43	285.13	11.13	-41.0	-42.0	22.1	0.00e+00	0	31	101	1048576	58	6924
2026-01-06 17:43:53.44	285.00	11.07	-41.2	-42.2	22.2	0.00e+00	90	31	101	1048576	60	6305
2026-01-06 17:43:54.45	284.87	11.00	-40.7	-41.7	22.3	0.00e+00	0	31	101	1048576	60	5922
2026-01-06 17:43:55.46	284.73	10.94	-40.7	-41.7	22.5	0.00e+00	0	31	101	1048576	60	5923
2026-01-06 17:43:56.47	284.61	10.87	-40.5	-41.5	22.7	0.00e+00	0	31	101	1048576	60	5803
2026-01-06 17:43:57.48	284.48	10.81	-40.4	-41.4	23.0	0.00e+00	33	31	101	1048576	60	5718
2026-01-06 17:43:58.49	284.35	10.74	-39.8	-40.7	23.3	0.00e+00	0	31	101	1048576	58	5904
2026-01-06 17:43:59.50	284.22	10.68	-39.9	-40.8	23.1	0.00e+00	0	31	101	1048576	58	6025
2026-01-06 17:44:00.51	284.09	10.61	-39.5	-40.4	23.6	0.00e+00	68	31	101	1048576	58	5696
2026-01-06 17:44:01.52	283.97	10.55	-39.3	-40.2	23.7	0.00e+00	0	31	101	1048576	58	5604
2026-01-06 17:44:02.53	283.84	10.48	-39.4	-40.3	23.6	0.00e+00	74	31	101	1048576	58	5668
2026-01-06 17:44:03.54	283.71	10.42	-39.4	-40.3	23.6	0.00e+00	0	31	101	1048576	58	5645
2026-01-06 17:44:04.55	283.59	10.35	-39.7	-40.6	23.5	0.00e+00	0	31	101	1048576	58	5871
2026-01-06 17:44:05.56	283.46	10.29	-39.8	-40.7	23.4	0.00e+00	0	31	101	1048576	58	5929
2026-01-06 17:44:06.56	283.34	10.22	-40.3	-41.2	22.9	0.00e+00	0	31	101	1048576	58	6292
2026-01-06 17:44:07.57	283.22	10.16	-40.5	-41.5	22.7	0.00e+00	69	31	101	1048576	58	6522
2026-01-06 17:44:08.58	283.09	10.09	-40.8	-41.8	22.4	0.00e+00	0	31	101	1048576	58	6712
2026-01-06 17:44:09.59	282.97	10.03	-41.0	-42.0	22.3	0.00e+00	74	31	101	1048576	58	6880
2026-01-06 17:44:10.60	282.85	9.96	-40.9	-42.0	22.3	0.00e+00	0	31	101	1048576	58	6878
2026-01-06 17:44:11.61	282.73	9.90	-41.0	-42.1	22.2	0.00e+00	0	31	101	1048576	58	6932
2026-01-06 17:44:12.62	282.61	9.83	-41.2	-42.2	22.1	0.00e+00	0	31	101	1048576	60	6296
2026-01-06 17:44:13.63	282.49	9.77	-41.2	-42.3	22.2	0.00e+00	0	31	101	1048576	60	6355
2026-01-06 17:44:14.64	282.37	9.70	-40.8	-41.8	22.4	0.00e+00	6	31	101	1048576	60	6024
2026-01-06 17:44:15.64	282.25	9.64	-41.0	-42.0	22.4	0.00e+00	0	31	101	1048576	60	6166
2026-01-06 17:44:16.66	282.13	9.57	-40.6	-41.5	22.7	0.00e+00	90	31	101	1048576	60	5826
2026-01-06 17:44:17.66	282.01	9.51	-40.6	-41.6	22.6	0.00e+00	0	31	101	1048576	60	5888
2026-01-06 17:44:18.67	281.90	9.44	-40.7	-41.7	22.5	0.00e+00	0	31	101	1048576	60	5943
2026-01-06 17:44:19.68	281.78	9.38	-40.6	-41.7	22.5	0.00e+00	0	31	101	1048576	60	5910
2026-01-06 17:44:20.69	281.66	9.31	-40.7	-41.8	22.4	0.00e+00	0	31	101	1048576	60	5991
2026-01-06 17:44:21.70	281.55	9.25	-40.6	-41.7	22.5	0.00e+00	67	31	101	1048576	60	5899
2026-01-06 17:44:22.70	281.43	9.19	-41.0	-42.1	22.2	0.00e+00	0	31	101	1048576	60	6193
2026-01-06 17:44:23.71	281.32	9.12	-41.1	-42.1	22.1	0.00e+00	84	31	101	1048576	60	6243
2026-01-06 17:44:24.72	281.20	9.06	-41.1	-42.2	22.1	0.00e+00	0	31	101	1048576	60	6265
2026-01-06 17:44:25.73	281.09	8.99	-41.2	-42.3	22.0	0.00e+00	0	31	101	1048576	60	6375
2026-01-06 17:44:26.74	280.98	8.93	-41.1	-42.1	22.2	0.00e+00	0	31	101	1048576	60	6215
2026-01-06 17:44:27.75	280.87	8.87	-41.3	-42.4	21.9	0.00e+00	0	31	101	1048576	60	6415
2026-01-06 17:44:28.76	280.75	8.80	-41.3	-42.4	21.9	0.00e+00	0	31	101	1048576	60	6462
2026-01-06 17:44:29.77	280.64	8.74	-41.6	-42.8	21.6	0.00e+00	0	31	101	1048576	60	6707
2026-01-06 17:44:30.78	280.53	8.67	-41.7	-42.8	21.6	0.00e+00	92	31	101	1048576	60	6724
2026-01-06 17:44:31.79	280.42	8.61	-41.6	-42.7	21.5	0.00e+00	0	31	101	1048576	60	6668
2026-01-06 17:44:32.80	280.31	8.55	-41.8	-43.0	21.3	0.00e+00	92	31	101	1048576	60	6877
2026-01-06 17:44:33.81	280.20	8.48	-42.0	-43.2	21.3	0.00e+00	0	31	101	1048576	60	7047
2026-01-06 17:44:34.82	280.09	8.42	-42.1	-43.3	21.1	0.00e+00	0	31	101	1048576	60	7154
2026-01-06 17:44:35.83	279.98	8.36	-42.1	-43.3	21.2	0.00e+00	0	31	101	1048576	60	7126
2026-01-06 17:44:36.83	279.87	8.29	-41.8	-43.0	21.3	0.00e+00	0	31	101	1048576	60	6890
2026-01-06 17:44:37.84	279.77	8.23	-41.6	-42.8	21.5	0.00e+00	60	31	101	1048576	60	6704
2026-01-06 17:44:38.85	279.66	8.17	-41.6	-42.8	21.6	0.00e+00	0	31	101	1048576	60	6722
2026-01-06 17:44:39.86	279.55	8.10	-41.6	-42.7	21.6	0.00e+00	90	31	101	1048576	60	6677
2026-01-06 17:44:40.87	279.45	8.04	-41.6	-42.7	21.6	0.00e+00	0	31	101	1048576	60	6659
2026-01-06 17:44:41.88	279.34	7.98	-41.7	-42.8	21.5	0.00e+00	0	31	101	1048576	60	6751
2026-01-06 17:44:42.89	279.23	7.91	-41.6	-42.7	21.6	0.00e+00	0	31	101	1048576	60	6662
2026-01-06 17:44:43.90	279.13	7.85	-41.8	-43.0	21.3	0.00e+00	0	31	101	1048576	60	6884
2026-01-06 17:44:44.91	279.02	7.79	-42.0	-43.2	21.2	0.00e+00	19	31	101	1048576	60	7053
2026-01-06 17:44:45.92	278.92	7.72	-42.3	-43.6	20.7	0.00e+00	0	31	101	1048576	60	7338
2026-01-06 17:44:46.93	278.82	7.66	-42.5	-43.8	20.6	0.00e+00	92	31	101	1048576	60	7560
2026-01-06 17:44:47.94	278.71	7.60	-42.5	-43.8	20.6	0.00e+00	0	31	101	1048576	60	7547
2026-01-06 17:44:48.95	278.61	7.53	-42.7	-44.1	20.4	0.00e+00	0	31	101	1048576	60	7813
2026-01-06 17:44:49.96	278.51	7.47	-42.9	-44.4	20.1	0.00e+00	0	31	101	1048576	60	8060
2026-01-06 17:44:50.97	278.41	7.41	-43.2	-44.6	19.8	0.00e+00	0	31	101	1048576	60	8323
2026-01-06 17:44:51.98	278.31	7.35	-43.1	-44.6	20.0	0.00e+00	61	31	101	1048576	60	8240
2026-01-06 17:44:52.99	278.21	7.28	-43.0	-44.4	19.9	0.00e+00	0	31	101	1048576	60	8133
2026-01-06 17:44:54.00	278.10	7.22	-43.0	-44.3	20.2	0.00e+00	90	31	101	1048576	60	8037
2026-01-06 17:44:55.01	278.00	7.16	-43.0	-44.4	20.1	0.00e+00	0	31	101	1048576	60	8048
2026-01-06 17:44:56.02	277.91	7.10	-42.5	-43.8	20.5	0.00e+00	27	31	101	1048576	60	7552
2026-01-06 17:44:57.03	277.81	7.04	-42.4	-43.7	20.7	0.00e+00	0	31	101	1048576	60	7443
2026-01-06 17:44:58.04	277.71	6.97	-42.2	-43.4	20.9	0.00e+00	0	31	101	1048576	60	7237
2026-01-06 17:44:59.05	277.61	6.91	-41.9	-43.1	21.1	0.00e+00	0	31	101	1048576	60	6984
2026-01-06 17:45:00.06	277.51	6.85	-41.9	-43.1	21.1	0.00e+00	0	31	101	1048576	60	6981
2026-01-06 17:45:01.07	277.41	6.79	-42.0	-43.2	21.0	0.00e+00	61	31	101	1048576	60	7068
