passes_logs/2026/01/06/R4.6S_Anadyr_2ch/R4.6S_Anadyr_2ch__20260106_120258_NOAA_21_JPSS-2_rec.log

#Pass ID: 20260106_120258_NOAA 21 (JPSS-2)
#Satellite: NOAA 21 (JPSS-2)
#Configuration: NOAA-21
#almurnet v.1.7.20251203
#Start time: 2026-01-06 12:02:59

#Version: 2.2.20231116
#Station: R4.6S_Anadyr_2ch
#Location: 177.4865 lon 64.73178 lat
#TLE: 1 54234U 22150A   25350.97269056  .00000057  00000+0  47676-4 0  9992
#TLE: 2 54234  98.7466 287.2282 0002043  29.8355 330.2937 14.19525482160692

#Time	Az	El	Level	Level2	SNR	BER	BlckErr	Temp	State	Recorded	gain1	gain2
2026-01-06 12:02:59.80	19.50	0.08	-51.1	-62.0	3.5	8.45e-01	0	30	0	0	60	62256
2026-01-06 12:03:00.81	19.58	0.12	-51.3	-64.3	3.5	1.52e+00	0	32	104	0	60	78043
2026-01-06 12:03:01.81	19.67	0.17	-51.3	-64.4	3.5	1.51e+00	0	32	104	0	60	78265
2026-01-06 12:03:02.82	19.75	0.21	-51.3	-64.4	3.5	1.52e+00	0	32	104	0	60	78480
2026-01-06 12:03:03.82	19.83	0.26	-51.4	-64.4	3.5	1.52e+00	0	32	104	0	60	78182
2026-01-06 12:03:04.83	19.92	0.31	-51.4	-64.4	3.5	1.52e+00	0	32	104	0	60	78452
2026-01-06 12:03:05.84	20.00	0.35	-51.3	-64.4	3.5	1.52e+00	0	32	104	0	60	78333
2026-01-06 12:03:06.85	20.09	0.40	-51.3	-64.3	3.5	1.52e+00	0	32	104	0	60	77439
2026-01-06 12:03:07.86	20.17	0.44	-51.2	-64.2	3.5	1.52e+00	0	32	104	0	60	77072
2026-01-06 12:03:08.87	20.26	0.49	-51.1	-64.1	3.5	1.52e+00	0	32	104	0	60	76215
2026-01-06 12:03:09.87	20.34	0.54	-51.0	-64.0	3.5	1.52e+00	0	32	104	0	60	75400
2026-01-06 12:03:10.88	20.43	0.58	-50.8	-63.9	3.5	1.52e+00	0	32	104	0	60	74044
2026-01-06 12:03:11.89	20.52	0.63	-50.7	-63.7	3.5	1.52e+00	0	32	104	0	60	72127
2026-01-06 12:03:12.90	20.60	0.68	-50.3	-63.4	3.5	1.52e+00	0	32	104	0	60	69876
2026-01-06 12:03:13.90	20.69	0.72	-50.0	-63.0	3.5	1.52e+00	0	32	104	0	60	66968
2026-01-06 12:03:14.91	20.77	0.77	-49.7	-62.7	3.5	1.52e+00	0	32	104	0	60	64884
2026-01-06 12:03:15.92	20.86	0.81	-49.7	-62.7	3.5	1.52e+00	0	32	104	0	60	64829
2026-01-06 12:03:16.93	20.95	0.86	-49.7	-62.8	3.5	1.52e+00	0	32	104	0	60	64990
2026-01-06 12:03:17.93	21.04	0.91	-49.7	-62.7	3.5	1.52e+00	0	32	104	0	60	64962
2026-01-06 12:03:18.94	21.12	0.95	-49.7	-62.7	3.5	1.52e+00	0	32	104	0	60	64869
2026-01-06 12:03:19.95	21.21	1.00	-49.7	-62.7	3.5	1.52e+00	0	32	104	0	60	64737
2026-01-06 12:03:20.96	21.30	1.05	-49.7	-62.7	3.5	1.52e+00	0	32	104	0	60	64546
2026-01-06 12:03:21.97	21.39	1.09	-49.7	-62.6	3.5	1.52e+00	0	32	104	0	60	64233
2026-01-06 12:03:22.98	21.48	1.14	-49.7	-62.7	3.5	1.52e+00	0	32	104	0	60	64766
2026-01-06 12:03:23.98	21.57	1.18	-49.7	-62.8	3.5	1.51e+00	0	32	104	0	60	64988
2026-01-06 12:03:24.99	21.66	1.23	-49.7	-62.8	3.5	1.52e+00	0	32	104	0	60	65216
2026-01-06 12:03:26.00	21.75	1.28	-49.7	-62.7	3.5	1.52e+00	0	32	104	0	60	64948
2026-01-06 12:03:27.00	21.83	1.32	-49.7	-62.8	3.5	1.52e+00	0	32	104	0	60	65183
2026-01-06 12:03:28.01	21.92	1.37	-49.7	-62.7	3.5	1.52e+00	0	32	104	0	60	64433
2026-01-06 12:03:29.01	22.01	1.42	-49.7	-62.7	3.5	1.52e+00	0	32	104	0	60	64569
2026-01-06 12:03:30.02	22.11	1.46	-49.7	-62.7	3.5	1.52e+00	0	32	104	0	60	64498
2026-01-06 12:03:31.02	22.20	1.51	-49.7	-62.7	3.5	1.52e+00	0	32	104	0	60	64653
2026-01-06 12:03:32.03	22.29	1.56	-49.7	-62.7	3.5	1.52e+00	0	32	104	0	60	64820
2026-01-06 12:03:33.04	22.38	1.60	-49.7	-62.7	3.5	1.52e+00	0	32	104	0	60	64742
2026-01-06 12:03:34.05	22.47	1.65	-49.7	-62.7	3.5	1.52e+00	0	32	104	0	60	64678
2026-01-06 12:03:35.06	22.56	1.70	-49.7	-62.8	3.5	1.52e+00	0	33	104	0	60	65242
2026-01-06 12:03:36.07	22.65	1.74	-49.7	-62.7	3.5	1.52e+00	0	32	104	0	60	64840
2026-01-06 12:03:37.08	22.75	1.79	-49.7	-62.8	3.5	1.52e+00	0	33	104	0	60	64987
2026-01-06 12:03:38.08	22.84	1.84	-49.7	-62.7	3.5	1.52e+00	0	33	104	0	60	64457
2026-01-06 12:03:39.09	22.93	1.88	-49.7	-62.6	3.5	1.52e+00	0	33	104	0	60	64134
2026-01-06 12:03:40.10	23.03	1.93	-49.7	-62.5	3.5	1.52e+00	0	33	104	0	60	63470
2026-01-06 12:03:41.10	23.12	1.98	-49.7	-62.6	3.5	1.52e+00	0	33	104	0	60	63547
2026-01-06 12:03:42.11	23.21	2.02	-49.7	-62.6	3.5	1.52e+00	0	33	104	0	60	63954
2026-01-06 12:03:43.12	23.31	2.07	-49.7	-62.6	3.5	1.52e+00	0	33	104	0	60	63942
2026-01-06 12:03:44.13	23.40	2.12	-49.7	-62.6	3.5	1.52e+00	0	32	104	0	60	64154
2026-01-06 12:03:45.14	23.50	2.16	-49.7	-62.6	3.5	1.52e+00	0	33	104	0	60	63890
2026-01-06 12:03:46.14	23.59	2.21	-49.7	-62.7	3.5	1.52e+00	0	33	104	0	60	64546
2026-01-06 12:03:47.15	23.69	2.26	-49.7	-62.7	3.5	1.52e+00	0	33	104	0	60	64602
2026-01-06 12:03:48.16	23.78	2.30	-49.7	-62.3	3.5	1.52e+00	0	33	104	0	60	61599
2026-01-06 12:03:49.17	23.88	2.35	-49.6	-61.4	3.5	1.52e+00	0	33	104	0	60	55934
2026-01-06 12:03:50.17	23.97	2.40	-49.6	-61.6	3.6	1.52e+00	0	33	104	0	60	56750
2026-01-06 12:03:51.18	24.07	2.44	-49.6	-61.8	3.5	1.51e+00	0	33	104	0	60	58233
2026-01-06 12:03:52.19	24.17	2.49	-49.6	-60.8	3.6	1.51e+00	0	33	104	0	60	52029
2026-01-06 12:03:53.20	24.26	2.54	-48.7	-55.5	6.9	1.11e+00	123	33	104	0	60	28126
2026-01-06 12:03:54.21	24.36	2.59	-47.1	-50.6	11.2	5.31e-03	122	33	0	0	60	15961
2026-01-06 12:03:55.21	24.46	2.63	-45.0	-47.3	14.8	3.00e-06	122	33	102	1048576	60	10930
2026-01-06 12:03:56.22	24.56	2.68	-43.5	-45.3	16.8	0.00e+00	122	33	102	1048576	60	8706
2026-01-06 12:03:57.23	24.66	2.73	-42.0	-43.5	18.5	0.00e+00	122	33	102	1048576	60	7054
2026-01-06 12:03:58.23	24.75	2.77	-41.4	-42.8	19.2	0.00e+00	120	33	102	1048576	60	6504
2026-01-06 12:03:59.24	24.85	2.82	-42.1	-43.6	18.4	0.00e+00	123	33	102	1048576	60	7191
2026-01-06 12:04:00.25	24.95	2.87	-42.6	-44.2	17.7	0.00e+00	123	33	102	1048576	60	7641
2026-01-06 12:04:01.26	25.05	2.91	-44.0	-46.0	15.9	0.00e+00	120	33	102	1048576	60	9415
2026-01-06 12:04:02.27	25.15	2.96	-46.0	-48.8	12.7	1.37e-05	123	33	102	1048576	60	13061
2026-01-06 12:04:03.28	25.25	3.01	-47.6	-51.6	12.1	1.01e-02	122	33	102	1048576	60	17955
2026-01-06 12:04:04.28	25.35	3.06	-48.6	-54.5	12.1	1.05e+00	0	33	104	1048576	60	25265
2026-01-06 12:04:05.29	25.45	3.10	-49.5	-62.0	3.5	1.51e+00	0	33	104	1048576	60	59884
2026-01-06 12:04:06.30	25.55	3.15	-48.4	-54.1	8.5	4.61e-01	122	33	104	1048576	60	24036
2026-01-06 12:04:07.31	25.65	3.20	-43.9	-45.8	16.1	0.00e+00	122	33	0	1048576	60	9215
2026-01-06 12:04:08.32	25.76	3.24	-49.9	-62.7	3.5	1.51e+00	0	33	104	1048576	60	64514
2026-01-06 12:04:09.33	25.86	3.29	-44.0	-46.2	16.2	7.43e-03	123	33	104	1048576	60	9667
2026-01-06 12:04:10.34	25.96	3.34	-43.5	-45.2	17.1	0.00e+00	122	33	0	1048576	60	8627
2026-01-06 12:04:11.35	26.06	3.39	-43.9	-45.7	16.4	0.00e+00	123	33	0	1048576	60	9176
2026-01-06 12:04:12.36	26.17	3.43	-44.0	-45.8	16.6	0.00e+00	123	33	0	1048576	60	9242
2026-01-06 12:04:13.36	26.27	3.48	-43.9	-45.7	16.6	0.00e+00	123	33	0	1048576	60	9162
2026-01-06 12:04:14.37	26.37	3.53	-44.1	-46.0	16.1	0.00e+00	123	33	0	1048576	60	9434
2026-01-06 12:04:15.38	26.48	3.57	-44.3	-46.2	16.6	0.00e+00	120	33	0	1048576	60	9633
2026-01-06 12:04:16.38	26.58	3.62	-44.0	-45.9	16.0	0.00e+00	123	33	0	1048576	60	9311
2026-01-06 12:04:17.39	26.68	3.67	-44.4	-46.4	16.0	0.00e+00	120	33	0	1048576	60	9876
2026-01-06 12:04:18.40	26.79	3.72	-43.4	-45.0	17.3	0.00e+00	122	33	0	1048576	60	8446
2026-01-06 12:04:19.41	26.89	3.76	-42.1	-43.5	18.8	0.00e+00	123	33	0	1048576	60	7113
2026-01-06 12:04:20.42	27.00	3.81	-41.5	-42.9	19.3	0.00e+00	122	33	101	1048576	60	6600
2026-01-06 12:04:21.43	27.10	3.86	-41.4	-42.8	19.5	0.00e+00	122	33	101	1048576	60	6519
2026-01-06 12:04:22.44	27.21	3.91	-41.3	-42.6	19.5	0.00e+00	123	33	101	1048576	60	6405
2026-01-06 12:04:23.44	27.32	3.95	-41.3	-42.5	19.7	0.00e+00	122	33	101	1048576	60	6347
2026-01-06 12:04:24.45	27.42	4.00	-41.4	-42.7	19.7	0.00e+00	121	33	101	1048576	60	6471
2026-01-06 12:04:25.46	27.53	4.05	-41.2	-42.4	19.8	0.00e+00	122	33	101	1048576	60	6264
2026-01-06 12:04:26.47	27.64	4.09	-40.8	-42.1	20.2	0.00e+00	123	33	101	1048576	60	6013
2026-01-06 12:04:27.47	27.74	4.14	-40.4	-41.6	20.5	0.00e+00	123	33	101	1048576	60	5715
2026-01-06 12:04:28.48	27.85	4.19	-40.4	-41.5	20.6	0.00e+00	120	33	101	1048576	60	5657
2026-01-06 12:04:29.49	27.96	4.24	-40.3	-41.5	20.7	0.00e+00	123	33	101	1048576	60	5643
2026-01-06 12:04:30.49	28.07	4.28	-40.2	-41.4	20.8	0.00e+00	122	33	101	1048576	60	5546
2026-01-06 12:04:31.50	28.18	4.33	-40.3	-41.5	20.6	0.00e+00	122	33	101	1048576	60	5604
2026-01-06 12:04:32.51	28.29	4.38	-40.4	-41.6	20.6	0.00e+00	123	33	101	1048576	60	5684
2026-01-06 12:04:33.52	28.40	4.43	-40.0	-41.2	20.9	0.00e+00	123	33	101	1048576	58	6095
2026-01-06 12:04:34.52	28.51	4.47	-40.1	-41.2	20.9	0.00e+00	122	33	101	1048576	58	6123
2026-01-06 12:04:35.52	28.62	4.52	-40.3	-41.5	20.6	0.00e+00	121	33	101	1048576	58	6278
2026-01-06 12:04:36.53	28.73	4.57	-40.3	-41.5	20.7	0.00e+00	122	33	101	1048576	58	6303
2026-01-06 12:04:37.54	28.84	4.61	-40.3	-41.5	20.7	0.00e+00	122	33	101	1048576	58	6328
2026-01-06 12:04:38.55	28.95	4.66	-40.0	-41.1	21.0	0.00e+00	122	33	101	1048576	58	6042
2026-01-06 12:04:39.56	29.06	4.71	-40.1	-41.2	20.8	0.00e+00	120	33	101	1048576	58	6110
2026-01-06 12:04:40.56	29.17	4.76	-40.1	-41.3	20.9	0.00e+00	123	33	101	1048576	58	6142
2026-01-06 12:04:41.57	29.28	4.80	-40.2	-41.3	20.9	0.00e+00	122	33	101	1048576	58	6188
2026-01-06 12:04:42.58	29.40	4.85	-39.9	-41.1	21.1	0.00e+00	120	33	101	1048576	58	6017
2026-01-06 12:04:43.58	29.51	4.90	-39.9	-41.1	21.1	0.00e+00	123	33	101	1048576	58	6009
2026-01-06 12:04:44.59	29.62	4.94	-40.2	-41.3	20.9	0.00e+00	118	33	101	1048576	58	6173
2026-01-06 12:04:45.60	29.74	4.99	-40.0	-41.2	21.0	0.00e+00	123	33	101	1048576	58	6072
2026-01-06 12:04:46.60	29.85	5.04	-40.0	-41.2	21.1	0.00e+00	123	33	101	1048576	58	6077
2026-01-06 12:04:47.61	29.97	5.09	-39.7	-40.8	21.4	0.00e+00	123	33	101	1048576	58	5815
2026-01-06 12:04:48.61	30.08	5.13	-39.7	-40.9	21.3	0.00e+00	123	33	101	1048576	58	5859
2026-01-06 12:04:49.62	30.19	5.18	-39.8	-40.9	21.4	0.00e+00	123	33	101	1048576	58	5885
2026-01-06 12:04:50.63	30.31	5.23	-39.6	-40.8	21.4	0.00e+00	123	33	101	1048576	58	5797
2026-01-06 12:04:51.64	30.43	5.27	-39.8	-40.9	21.3	0.00e+00	123	33	101	1048576	58	5893
2026-01-06 12:04:52.65	30.54	5.32	-39.7	-40.8	21.4	0.00e+00	122	33	101	1048576	58	5835
2026-01-06 12:04:53.66	30.66	5.37	-39.8	-40.9	21.3	0.00e+00	122	33	101	1048576	58	5892
2026-01-06 12:04:54.67	30.78	5.42	-39.8	-40.9	21.3	0.00e+00	123	33	101	1048576	58	5900
2026-01-06 12:04:55.68	30.89	5.46	-39.8	-41.0	21.2	0.00e+00	123	33	101	1048576	58	5947
2026-01-06 12:04:56.69	31.01	5.51	-39.8	-40.9	21.4	0.00e+00	122	33	101	1048576	58	5899
2026-01-06 12:04:57.69	31.13	5.56	-39.9	-41.1	21.2	0.00e+00	120	33	101	1048576	58	5997
2026-01-06 12:04:58.70	31.25	5.61	-40.0	-41.1	21.1	0.00e+00	123	33	101	1048576	58	6022
2026-01-06 12:04:59.71	31.37	5.65	-40.2	-41.3	21.0	0.00e+00	122	33	101	1048576	58	6171
2026-01-06 12:05:00.72	31.49	5.70	-40.1	-41.2	21.1	0.00e+00	123	33	101	1048576	58	6134
2026-01-06 12:05:01.73	31.61	5.75	-39.9	-41.1	21.2	0.00e+00	122	33	101	1048576	58	5998
2026-01-06 12:05:02.74	31.73	5.79	-40.0	-41.2	21.0	0.00e+00	123	33	101	1048576	58	6080
2026-01-06 12:05:03.75	31.85	5.84	-40.0	-41.1	21.2	0.00e+00	123	33	101	1048576	58	6063
2026-01-06 12:05:04.76	31.97	5.89	-39.9	-41.1	21.2	0.00e+00	123	33	101	1048576	58	6002
2026-01-06 12:05:05.77	32.09	5.94	-39.9	-41.0	21.4	0.00e+00	123	33	101	1048576	58	5949
2026-01-06 12:05:06.77	32.21	5.98	-39.9	-41.0	21.3	0.00e+00	123	33	101	1048576	58	5977
2026-01-06 12:05:07.79	32.33	6.03	-39.9	-41.0	21.4	0.00e+00	120	33	101	1048576	58	5961
2026-01-06 12:05:08.80	32.45	6.08	-39.8	-40.9	21.4	0.00e+00	122	33	101	1048576	58	5921
2026-01-06 12:05:09.80	32.58	6.12	-39.8	-40.9	21.4	0.00e+00	120	33	101	1048576	58	5887
2026-01-06 12:05:10.82	32.70	6.17	-39.7	-40.8	21.4	0.00e+00	123	33	101	1048576	58	5856
2026-01-06 12:05:11.83	32.82	6.22	-39.8	-40.9	21.4	0.00e+00	123	33	101	1048576	58	5897
2026-01-06 12:05:12.84	32.95	6.26	-39.7	-40.8	21.5	0.00e+00	120	33	101	1048576	58	5837
2026-01-06 12:05:13.85	33.07	6.31	-39.8	-40.9	21.5	0.00e+00	123	33	101	1048576	58	5879
2026-01-06 12:05:14.86	33.20	6.36	-39.9	-41.0	21.4	0.00e+00	123	33	101	1048576	58	5935
2026-01-06 12:05:15.87	33.32	6.40	-39.6	-40.7	21.5	0.00e+00	123	33	101	1048576	58	5766
2026-01-06 12:05:16.87	33.45	6.45	-39.8	-40.9	21.5	0.00e+00	123	33	101	1048576	58	5893
2026-01-06 12:05:17.89	33.57	6.50	-39.6	-40.7	21.6	0.00e+00	123	33	101	1048576	58	5752
2026-01-06 12:05:18.89	33.70	6.54	-39.5	-40.6	21.7	0.00e+00	123	33	101	1048576	58	5674
2026-01-06 12:05:19.90	33.82	6.59	-39.5	-40.6	21.7	0.00e+00	122	33	101	1048576	58	5696
2026-01-06 12:05:20.91	33.95	6.64	-39.5	-40.5	21.8	0.00e+00	122	33	101	1048576	58	5643
2026-01-06 12:05:21.92	34.08	6.68	-39.4	-40.5	21.8	0.00e+00	122	33	101	1048576	58	5631
2026-01-06 12:05:22.93	34.21	6.73	-39.5	-40.6	21.8	0.00e+00	120	33	101	1048576	58	5666
2026-01-06 12:05:23.94	34.33	6.78	-39.4	-40.5	21.9	0.00e+00	123	33	101	1048576	58	5599
2026-01-06 12:05:24.95	34.46	6.82	-39.5	-40.5	21.8	0.00e+00	123	33	101	1048576	58	5656
2026-01-06 12:05:25.96	34.59	6.87	-39.3	-40.3	22.0	0.00e+00	122	33	101	1048576	58	5510
2026-01-06 12:05:26.97	34.72	6.92	-39.4	-40.5	21.8	0.00e+00	123	33	101	1048576	58	5630
2026-01-06 12:05:27.98	34.85	6.96	-39.2	-40.3	22.0	0.00e+00	123	33	101	1048576	58	5488
2026-01-06 12:05:28.99	34.98	7.01	-39.2	-40.3	22.0	0.00e+00	122	33	101	1048576	58	5479
2026-01-06 12:05:30.00	35.11	7.06	-39.4	-40.4	22.0	0.00e+00	120	33	101	1048576	56	6272
2026-01-06 12:05:31.01	35.24	7.10	-39.1	-40.1	22.2	0.00e+00	122	33	101	1048576	56	6037
2026-01-06 12:05:32.02	35.37	7.15	-39.1	-40.2	22.1	0.00e+00	120	33	101	1048576	56	6098
2026-01-06 12:05:33.03	35.50	7.20	-39.0	-40.1	22.3	0.00e+00	120	33	101	1048576	56	6000
2026-01-06 12:05:34.04	35.64	7.24	-39.0	-40.1	22.2	0.00e+00	123	33	101	1048576	56	6009
2026-01-06 12:05:35.05	35.77	7.29	-39.1	-40.1	22.3	0.00e+00	123	33	101	1048576	56	6036
2026-01-06 12:05:36.06	35.90	7.33	-39.0	-40.0	22.2	0.00e+00	123	33	101	1048576	56	5987
2026-01-06 12:05:37.07	36.04	7.38	-39.2	-40.2	22.1	0.00e+00	122	33	101	1048576	56	6112
2026-01-06 12:05:38.08	36.17	7.43	-39.1	-40.2	22.1	0.00e+00	123	33	101	1048576	56	6091
2026-01-06 12:05:39.09	36.30	7.47	-39.2	-40.3	22.0	0.00e+00	122	33	101	1048576	56	6170
2026-01-06 12:05:40.10	36.44	7.52	-39.4	-40.5	22.0	0.00e+00	123	33	101	1048576	56	6292
2026-01-06 12:05:41.11	36.57	7.56	-39.1	-40.2	22.2	0.00e+00	123	33	101	1048576	56	6079
2026-01-06 12:05:42.12	36.71	7.61	-39.2	-40.2	22.2	0.00e+00	123	33	101	1048576	56	6106
2026-01-06 12:05:43.13	36.84	7.66	-39.0	-40.1	22.2	0.00e+00	122	33	101	1048576	56	6003
2026-01-06 12:05:44.14	36.98	7.70	-39.0	-40.1	22.3	0.00e+00	121	33	101	1048576	56	5997
2026-01-06 12:05:45.15	37.12	7.75	-39.1	-40.2	22.2	0.00e+00	123	33	101	1048576	56	6077
2026-01-06 12:05:46.16	37.25	7.79	-39.0	-40.1	22.3	0.00e+00	123	33	101	1048576	56	6010
2026-01-06 12:05:47.17	37.39	7.84	-39.0	-40.0	22.4	0.00e+00	120	33	101	1048576	56	5944
2026-01-06 12:05:48.18	37.53	7.88	-39.0	-40.1	22.3	0.00e+00	123	33	101	1048576	56	5999
2026-01-06 12:05:49.19	37.67	7.93	-39.0	-40.0	22.4	0.00e+00	123	33	101	1048576	56	5990
2026-01-06 12:05:50.20	37.81	7.98	-38.9	-40.0	22.4	0.00e+00	123	33	101	1048576	56	5929
2026-01-06 12:05:51.21	37.94	8.02	-39.0	-40.0	22.4	0.00e+00	122	33	101	1048576	56	5992
2026-01-06 12:05:52.22	38.08	8.07	-38.9	-39.9	22.5	0.00e+00	122	33	101	1048576	56	5866
2026-01-06 12:05:53.23	38.22	8.11	-38.8	-39.9	22.6	0.00e+00	123	33	101	1048576	56	5864
2026-01-06 12:05:54.24	38.36	8.16	-39.0	-40.0	22.4	0.00e+00	123	33	101	1048576	56	5936
2026-01-06 12:05:55.25	38.51	8.20	-38.8	-39.9	22.5	0.00e+00	120	33	101	1048576	56	5860
2026-01-06 12:05:56.26	38.65	8.25	-38.7	-39.7	22.5	0.00e+00	122	33	101	1048576	56	5778
2026-01-06 12:05:57.27	38.79	8.29	-39.0	-40.0	22.4	0.00e+00	123	33	101	1048576	56	5980
2026-01-06 12:05:58.28	38.93	8.34	-38.7	-39.7	22.6	0.00e+00	120	33	101	1048576	56	5771
2026-01-06 12:05:59.29	39.07	8.38	-38.8	-39.8	22.6	0.00e+00	120	33	101	1048576	56	5838
2026-01-06 12:06:00.30	39.22	8.43	-38.6	-39.6	22.7	0.00e+00	122	33	101	1048576	56	5715
2026-01-06 12:06:01.31	39.36	8.47	-38.8	-39.8	22.6	0.00e+00	123	33	101	1048576	56	5821
2026-01-06 12:06:02.32	39.50	8.52	-38.6	-39.6	22.8	0.00e+00	123	33	101	1048576	56	5699
2026-01-06 12:06:03.33	39.65	8.56	-38.8	-39.8	22.6	0.00e+00	120	33	101	1048576	56	5810
2026-01-06 12:06:04.34	39.79	8.60	-38.7	-39.7	22.7	0.00e+00	123	33	101	1048576	56	5770
2026-01-06 12:06:05.35	39.94	8.65	-38.7	-39.7	22.6	0.00e+00	120	33	101	1048576	56	5731
2026-01-06 12:06:06.36	40.08	8.69	-38.8	-39.8	22.5	0.00e+00	120	33	101	1048576	56	5853
2026-01-06 12:06:07.37	40.23	8.74	-38.7	-39.7	22.6	0.00e+00	123	33	101	1048576	56	5754
2026-01-06 12:06:08.38	40.37	8.78	-38.7	-39.7	22.6	0.00e+00	122	33	101	1048576	56	5772
2026-01-06 12:06:09.39	40.52	8.83	-38.7	-39.7	22.6	0.00e+00	121	33	101	1048576	56	5776
2026-01-06 12:06:10.40	40.67	8.87	-38.7	-39.7	22.7	0.00e+00	120	33	101	1048576	56	5771
2026-01-06 12:06:11.41	40.81	8.91	-38.7	-39.7	22.7	0.00e+00	122	33	101	1048576	56	5752
2026-01-06 12:06:12.42	40.96	8.96	-38.6	-39.6	22.8	0.00e+00	122	33	101	1048576	56	5701
2026-01-06 12:06:13.43	41.11	9.00	-38.6	-39.6	22.8	0.00e+00	122	33	101	1048576	56	5679
2026-01-06 12:06:14.44	41.26	9.04	-38.6	-39.6	22.8	0.00e+00	123	33	101	1048576	56	5707
2026-01-06 12:06:15.45	41.41	9.09	-38.6	-39.6	22.8	0.00e+00	122	33	101	1048576	56	5723
2026-01-06 12:06:16.46	41.56	9.13	-38.7	-39.7	22.7	0.00e+00	123	33	101	1048576	56	5751
2026-01-06 12:06:17.46	41.71	9.17	-38.8	-39.8	22.7	0.00e+00	123	33	101	1048576	56	5832
2026-01-06 12:06:18.47	41.86	9.22	-38.6	-39.6	22.8	0.00e+00	123	33	101	1048576	56	5677
2026-01-06 12:06:19.48	42.01	9.26	-38.8	-39.8	22.6	0.00e+00	121	33	101	1048576	56	5843
2026-01-06 12:06:20.49	42.16	9.30	-38.9	-39.9	22.6	0.00e+00	123	33	101	1048576	56	5901
2026-01-06 12:06:21.50	42.31	9.35	-38.6	-39.6	22.8	0.00e+00	123	33	101	1048576	56	5679
2026-01-06 12:06:22.51	42.46	9.39	-38.7	-39.7	22.8	0.00e+00	123	33	101	1048576	56	5744
2026-01-06 12:06:23.52	42.62	9.43	-38.5	-39.5	22.9	0.00e+00	122	33	101	1048576	56	5608
2026-01-06 12:06:24.53	42.77	9.48	-38.5	-39.5	22.9	0.00e+00	122	33	101	1048576	56	5625
2026-01-06 12:06:25.54	42.92	9.52	-38.5	-39.5	22.9	0.00e+00	123	33	101	1048576	56	5651
2026-01-06 12:06:26.55	43.08	9.56	-38.6	-39.6	22.8	0.00e+00	123	33	101	1048576	56	5686
2026-01-06 12:06:27.56	43.23	9.60	-38.6	-39.6	22.8	0.00e+00	123	33	101	1048576	56	5709
2026-01-06 12:06:28.57	43.39	9.65	-38.6	-39.6	22.9	0.00e+00	123	33	101	1048576	56	5688
2026-01-06 12:06:29.58	43.54	9.69	-38.6	-39.6	22.8	0.00e+00	123	33	101	1048576	56	5675
2026-01-06 12:06:30.59	43.70	9.73	-38.6	-39.6	22.8	0.00e+00	121	33	101	1048576	56	5685
2026-01-06 12:06:31.60	43.85	9.77	-38.6	-39.6	22.9	0.00e+00	123	33	101	1048576	56	5665
2026-01-06 12:06:32.61	44.01	9.81	-38.5	-39.5	22.9	0.00e+00	123	33	101	1048576	56	5629
2026-01-06 12:06:33.62	44.17	9.85	-38.6	-39.6	22.9	0.00e+00	122	33	101	1048576	56	5712
2026-01-06 12:06:34.63	44.33	9.90	-38.8	-39.8	22.7	0.00e+00	122	33	101	1048576	56	5800
2026-01-06 12:06:35.64	44.48	9.94	-38.8	-39.8	22.8	0.00e+00	122	33	101	1048576	56	5793
2026-01-06 12:06:36.65	44.64	9.98	-38.6	-39.6	22.8	0.00e+00	120	33	101	1048576	56	5710
2026-01-06 12:06:37.66	44.80	10.02	-38.8	-39.8	22.7	0.00e+00	123	33	101	1048576	56	5846
2026-01-06 12:06:38.67	44.96	10.06	-38.8	-39.8	22.5	0.00e+00	123	33	101	1048576	56	5841
2026-01-06 12:06:39.68	45.12	10.10	-39.0	-40.1	22.7	0.00e+00	123	33	101	1048576	56	6002
2026-01-06 12:06:40.69	45.28	10.14	-38.7	-39.7	22.6	0.00e+00	123	33	101	1048576	56	5746
2026-01-06 12:06:41.70	45.44	10.18	-38.6	-39.5	23.0	0.00e+00	122	33	101	1048576	56	5654
2026-01-06 12:06:42.71	45.60	10.22	-38.4	-39.4	23.0	0.00e+00	120	33	101	1048576	56	5532
2026-01-06 12:06:43.72	45.76	10.27	-38.2	-39.1	23.2	0.00e+00	122	33	101	1048576	56	5400
2026-01-06 12:06:44.73	45.92	10.31	-38.3	-39.3	23.1	0.00e+00	123	33	101	1048576	56	5469
2026-01-06 12:06:45.74	46.09	10.35	-38.4	-39.3	23.1	0.00e+00	120	33	101	1048576	56	5526
2026-01-06 12:06:46.75	46.25	10.39	-38.6	-39.6	22.9	0.00e+00	122	33	101	1048576	56	5662
2026-01-06 12:06:47.76	46.41	10.43	-38.4	-39.4	23.0	0.00e+00	122	33	101	1048576	56	5566
2026-01-06 12:06:48.77	46.58	10.47	-38.4	-39.4	23.1	0.00e+00	123	33	101	1048576	56	5561
2026-01-06 12:06:49.78	46.74	10.51	-38.5	-39.4	23.0	0.00e+00	123	33	101	1048576	56	5587
2026-01-06 12:06:50.79	46.90	10.54	-38.6	-39.6	22.9	0.00e+00	123	33	101	1048576	56	5669
2026-01-06 12:06:51.80	47.07	10.58	-38.7	-39.7	22.8	0.00e+00	123	33	101	1048576	56	5759
2026-01-06 12:06:52.81	47.23	10.62	-38.7	-39.7	22.8	0.00e+00	123	33	101	1048576	56	5741
2026-01-06 12:06:53.82	47.40	10.66	-38.6	-39.6	22.9	0.00e+00	123	33	101	1048576	56	5721
2026-01-06 12:06:54.83	47.57	10.70	-38.7	-39.7	22.9	0.00e+00	120	33	101	1048576	56	5761
2026-01-06 12:06:55.84	47.73	10.74	-38.6	-39.6	22.9	0.00e+00	122	33	101	1048576	56	5678
2026-01-06 12:06:56.85	47.90	10.78	-38.5	-39.5	22.9	0.00e+00	122	33	101	1048576	56	5639
2026-01-06 12:06:57.86	48.07	10.82	-38.7	-39.6	22.9	0.00e+00	123	33	101	1048576	56	5722
2026-01-06 12:06:58.87	48.23	10.86	-38.3	-39.3	23.1	0.00e+00	123	33	101	1048576	56	5512
2026-01-06 12:06:59.88	48.40	10.89	-38.4	-39.4	23.0	0.00e+00	123	33	101	1048576	56	5584
2026-01-06 12:07:00.89	48.57	10.93	-38.4	-39.4	23.1	0.00e+00	123	33	101	1048576	56	5579
2026-01-06 12:07:01.90	48.74	10.97	-38.5	-39.5	22.9	0.00e+00	120	33	101	1048576	56	5609
2026-01-06 12:07:02.91	48.91	11.01	-38.5	-39.5	23.0	0.00e+00	120	33	101	1048576	56	5625
2026-01-06 12:07:03.92	49.08	11.05	-38.5	-39.5	22.9	0.00e+00	122	33	101	1048576	56	5656
2026-01-06 12:07:04.92	49.25	11.08	-38.7	-39.7	22.8	0.00e+00	123	33	101	1048576	56	5737
2026-01-06 12:07:05.93	49.42	11.12	-38.4	-39.4	23.1	0.00e+00	122	33	101	1048576	56	5540
2026-01-06 12:07:06.94	49.59	11.16	-38.4	-39.4	23.1	0.00e+00	120	33	101	1048576	56	5564
2026-01-06 12:07:07.96	49.76	11.19	-38.4	-39.4	23.1	0.00e+00	122	33	101	1048576	56	5572
2026-01-06 12:07:08.97	49.94	11.23	-38.4	-39.3	23.1	0.00e+00	123	33	101	1048576	56	5526
2026-01-06 12:07:09.98	50.11	11.27	-38.3	-39.2	23.2	0.00e+00	121	33	101	1048576	56	5462
2026-01-06 12:07:10.99	50.28	11.30	-38.4	-39.3	23.1	0.00e+00	122	33	101	1048576	56	5524
2026-01-06 12:07:12.00	50.45	11.34	-38.3	-39.3	23.2	0.00e+00	123	34	101	1048576	56	5480
2026-01-06 12:07:13.01	50.63	11.38	-38.4	-39.3	23.0	0.00e+00	121	33	101	1048576	56	5514
2026-01-06 12:07:14.02	50.80	11.41	-38.5	-39.4	23.0	0.00e+00	123	33	101	1048576	56	5585
2026-01-06 12:07:15.03	50.98	11.45	-38.4	-39.4	23.0	0.00e+00	123	33	101	1048576	56	5579
2026-01-06 12:07:16.04	51.15	11.48	-38.5	-39.5	23.0	0.00e+00	122	33	101	1048576	56	5620
2026-01-06 12:07:17.05	51.33	11.52	-38.3	-39.3	23.1	0.00e+00	122	33	101	1048576	56	5480
2026-01-06 12:07:18.06	51.50	11.55	-38.4	-39.4	23.0	0.00e+00	123	33	101	1048576	56	5552
2026-01-06 12:07:19.07	51.68	11.59	-38.5	-39.5	22.9	0.00e+00	122	33	101	1048576	56	5658
2026-01-06 12:07:20.07	51.85	11.62	-38.7	-39.7	22.8	0.00e+00	122	33	101	1048576	56	5753
2026-01-06 12:07:21.08	52.03	11.66	-38.7	-39.7	22.8	0.00e+00	120	33	101	1048576	56	5791
2026-01-06 12:07:22.09	52.21	11.69	-38.8	-39.9	22.6	0.00e+00	123	33	101	1048576	56	5859
2026-01-06 12:07:23.10	52.39	11.72	-38.9	-39.9	22.7	0.00e+00	123	33	101	1048576	56	5902
2026-01-06 12:07:24.12	52.57	11.76	-38.7	-39.7	22.7	0.00e+00	122	33	101	1048576	56	5761
2026-01-06 12:07:25.13	52.74	11.79	-38.7	-39.7	22.8	0.00e+00	123	33	101	1048576	56	5747
2026-01-06 12:07:26.14	52.92	11.83	-38.7	-39.7	22.8	0.00e+00	123	33	101	1048576	56	5734
2026-01-06 12:07:27.15	53.10	11.86	-38.2	-39.2	23.2	0.00e+00	124	33	101	1048576	56	5448
2026-01-06 12:07:28.16	53.28	11.89	-38.4	-39.3	23.1	0.00e+00	123	33	101	1048576	56	5521
2026-01-06 12:07:29.17	53.46	11.93	-38.3	-39.3	23.1	0.00e+00	123	33	101	1048576	56	5479
2026-01-06 12:07:30.18	53.64	11.96	-38.4	-39.4	23.1	0.00e+00	123	33	101	1048576	56	5556
2026-01-06 12:07:31.19	53.82	11.99	-38.3	-39.3	23.2	0.00e+00	122	33	101	1048576	56	5486
2026-01-06 12:07:32.20	54.01	12.02	-38.3	-39.3	23.1	0.00e+00	122	33	101	1048576	56	5468
2026-01-06 12:07:33.21	54.19	12.05	-38.3	-39.2	23.2	0.00e+00	123	33	101	1048576	56	5457
2026-01-06 12:07:34.22	54.37	12.09	-38.2	-39.2	23.2	0.00e+00	122	34	101	1048576	56	5431
2026-01-06 12:07:35.23	54.55	12.12	-38.3	-39.3	23.2	0.00e+00	123	33	101	1048576	56	5480
2026-01-06 12:07:36.24	54.74	12.15	-38.1	-39.1	23.3	0.00e+00	123	33	101	1048576	56	5364
2026-01-06 12:07:37.25	54.92	12.18	-38.1	-39.1	23.2	0.00e+00	123	33	101	1048576	54	6045
2026-01-06 12:07:38.26	55.10	12.21	-38.1	-39.0	23.2	0.00e+00	123	33	101	1048576	54	5984
2026-01-06 12:07:39.27	55.29	12.24	-38.2	-39.2	23.2	0.00e+00	120	33	101	1048576	54	6081
2026-01-06 12:07:40.28	55.47	12.27	-38.1	-39.1	23.2	0.00e+00	122	33	101	1048576	54	6038
2026-01-06 12:07:41.29	55.66	12.30	-38.3	-39.2	23.1	0.00e+00	122	33	101	1048576	54	6123
2026-01-06 12:07:42.30	55.84	12.33	-38.3	-39.3	23.1	0.00e+00	123	33	101	1048576	54	6168
2026-01-06 12:07:43.31	56.03	12.36	-38.3	-39.3	23.1	0.00e+00	123	33	101	1048576	54	6183
2026-01-06 12:07:44.32	56.21	12.39	-38.1	-39.1	23.1	0.00e+00	123	33	101	1048576	54	6046
2026-01-06 12:07:45.33	56.40	12.42	-38.2	-39.1	23.3	0.00e+00	120	33	101	1048576	54	6049
2026-01-06 12:07:46.34	56.59	12.45	-38.3	-39.2	23.2	0.00e+00	123	33	101	1048576	54	6127
2026-01-06 12:07:47.35	56.77	12.48	-38.1	-39.1	23.2	0.00e+00	123	33	101	1048576	54	6036
2026-01-06 12:07:48.36	56.96	12.51	-38.2	-39.1	23.2	0.00e+00	120	33	101	1048576	54	6045
2026-01-06 12:07:49.37	57.15	12.54	-37.9	-38.9	23.4	0.00e+00	123	33	101	1048576	54	5866
2026-01-06 12:07:50.38	57.34	12.56	-37.7	-38.6	23.6	0.00e+00	123	33	101	1048576	54	5715
2026-01-06 12:07:51.39	57.52	12.59	-37.8	-38.7	23.5	0.00e+00	121	33	101	1048576	54	5774
2026-01-06 12:07:52.40	57.71	12.62	-37.8	-38.8	23.5	0.00e+00	120	33	101	1048576	54	5806
2026-01-06 12:07:53.41	57.90	12.65	-37.9	-38.9	23.4	0.00e+00	122	34	101	1048576	54	5895
2026-01-06 12:07:54.42	58.09	12.67	-38.0	-39.0	23.3	0.00e+00	122	33	101	1048576	54	5964
2026-01-06 12:07:55.43	58.28	12.70	-38.1	-39.0	23.3	0.00e+00	123	33	101	1048576	54	5987
2026-01-06 12:07:56.44	58.47	12.73	-38.2	-39.1	23.2	0.00e+00	123	33	101	1048576	54	6063
2026-01-06 12:07:57.45	58.66	12.75	-38.2	-39.2	23.2	0.00e+00	123	33	101	1048576	54	6102
2026-01-06 12:07:58.46	58.85	12.78	-38.2	-39.2	23.2	0.00e+00	122	33	101	1048576	54	6070
2026-01-06 12:07:59.47	59.04	12.81	-38.2	-39.2	23.3	0.00e+00	120	33	101	1048576	54	6081
2026-01-06 12:08:00.47	59.23	12.83	-38.1	-39.1	23.2	0.00e+00	122	34	101	1048576	54	5997
2026-01-06 12:08:01.48	59.42	12.86	-38.2	-39.2	23.2	0.00e+00	122	33	101	1048576	54	6107
2026-01-06 12:08:02.49	59.62	12.88	-38.1	-39.1	23.1	0.00e+00	122	33	101	1048576	54	6025
2026-01-06 12:08:03.50	59.81	12.91	-38.0	-39.0	23.3	0.00e+00	122	33	101	1048576	54	5934
2026-01-06 12:08:04.51	60.00	12.93	-37.7	-38.7	23.5	0.00e+00	120	33	101	1048576	54	5764
2026-01-06 12:08:05.52	60.19	12.96	-37.8	-38.8	23.4	0.00e+00	122	33	101	1048576	54	5813
2026-01-06 12:08:06.53	60.39	12.98	-37.8	-38.8	23.4	0.00e+00	122	33	101	1048576	54	5811
2026-01-06 12:08:07.54	60.58	13.00	-38.0	-38.9	23.3	0.00e+00	122	33	101	1048576	54	5918
2026-01-06 12:08:08.55	60.78	13.03	-37.9	-38.8	23.4	0.00e+00	120	33	101	1048576	54	5837
2026-01-06 12:08:09.56	60.97	13.05	-37.8	-38.8	23.5	0.00e+00	120	33	101	1048576	54	5796
2026-01-06 12:08:10.57	61.16	13.07	-37.8	-38.7	23.6	0.00e+00	123	33	101	1048576	54	5776
2026-01-06 12:08:11.58	61.36	13.10	-37.8	-38.7	23.6	0.00e+00	122	33	101	1048576	54	5778
2026-01-06 12:08:12.59	61.55	13.12	-37.7	-38.6	23.7	0.00e+00	123	33	101	1048576	54	5706
2026-01-06 12:08:13.60	61.75	13.14	-37.7	-38.7	23.6	0.00e+00	123	33	101	1048576	54	5731
2026-01-06 12:08:14.61	61.95	13.16	-37.7	-38.7	23.6	0.00e+00	122	33	101	1048576	54	5735
2026-01-06 12:08:15.62	62.14	13.18	-37.8	-38.8	23.5	0.00e+00	123	33	101	1048576	54	5800
2026-01-06 12:08:16.63	62.34	13.20	-38.0	-39.0	23.4	0.00e+00	122	33	101	1048576	54	5929
2026-01-06 12:08:17.64	62.53	13.22	-38.0	-39.0	23.3	0.00e+00	123	33	101	1048576	54	5955
2026-01-06 12:08:18.65	62.73	13.25	-38.0	-39.0	23.3	0.00e+00	123	33	101	1048576	54	5962
2026-01-06 12:08:19.66	62.93	13.27	-38.1	-39.0	23.2	0.00e+00	123	33	101	1048576	54	5992
2026-01-06 12:08:20.67	63.12	13.29	-38.1	-39.0	23.3	0.00e+00	123	33	101	1048576	54	5985
2026-01-06 12:08:21.68	63.32	13.31	-37.8	-38.8	23.5	0.00e+00	122	33	101	1048576	54	5808
2026-01-06 12:08:22.69	63.52	13.33	-37.7	-38.7	23.6	0.00e+00	122	34	101	1048576	54	5736
2026-01-06 12:08:23.70	63.72	13.34	-37.6	-38.6	23.6	0.00e+00	123	33	101	1048576	54	5681
2026-01-06 12:08:24.71	63.92	13.36	-37.7	-38.6	23.5	0.00e+00	123	33	101	1048576	54	5697
2026-01-06 12:08:25.71	64.11	13.38	-37.7	-38.6	23.5	0.00e+00	122	33	101	1048576	54	5716
2026-01-06 12:08:26.72	64.31	13.40	-37.8	-38.8	23.5	0.00e+00	123	33	101	1048576	54	5806
2026-01-06 12:08:27.73	64.51	13.42	-37.7	-38.7	23.5	0.00e+00	123	33	101	1048576	54	5747
2026-01-06 12:08:28.73	64.71	13.44	-38.1	-39.0	23.3	0.00e+00	122	33	101	1048576	54	5972
2026-01-06 12:08:29.74	64.91	13.45	-37.9	-38.8	23.4	0.00e+00	122	33	101	1048576	54	5857
2026-01-06 12:08:30.74	65.11	13.47	-37.7	-38.6	23.6	0.00e+00	123	33	101	1048576	54	5701
2026-01-06 12:08:31.75	65.31	13.49	-37.7	-38.6	23.5	0.00e+00	123	33	101	1048576	54	5701
2026-01-06 12:08:32.76	65.51	13.50	-37.7	-38.6	23.6	0.00e+00	123	33	101	1048576	54	5710
2026-01-06 12:08:33.77	65.71	13.52	-37.7	-38.7	23.5	0.00e+00	120	33	101	1048576	54	5729
2026-01-06 12:08:34.77	65.91	13.53	-37.7	-38.6	23.6	0.00e+00	122	33	101	1048576	54	5721
2026-01-06 12:08:35.78	66.11	13.55	-37.8	-38.8	23.4	0.00e+00	120	33	101	1048576	54	5795
2026-01-06 12:08:36.79	66.31	13.56	-37.8	-38.8	23.5	0.00e+00	123	33	101	1048576	54	5824
2026-01-06 12:08:37.79	66.51	13.58	-37.7	-38.7	23.6	0.00e+00	120	33	101	1048576	54	5749
2026-01-06 12:08:38.80	66.71	13.59	-37.8	-38.8	23.5	0.00e+00	123	33	101	1048576	54	5808
2026-01-06 12:08:39.80	66.91	13.61	-37.9	-38.8	23.4	0.00e+00	123	34	101	1048576	54	5850
2026-01-06 12:08:40.81	67.11	13.62	-38.0	-38.9	23.4	0.00e+00	123	34	101	1048576	54	5910
2026-01-06 12:08:41.82	67.31	13.64	-37.9	-38.8	23.5	0.00e+00	122	34	101	1048576	54	5839
2026-01-06 12:08:42.83	67.51	13.65	-37.9	-38.9	23.4	0.00e+00	122	33	101	1048576	54	5893
2026-01-06 12:08:43.84	67.72	13.66	-38.0	-39.0	23.4	0.00e+00	123	33	101	1048576	54	5958
2026-01-06 12:08:44.85	67.92	13.67	-37.8	-38.8	23.4	0.00e+00	123	33	101	1048576	54	5831
2026-01-06 12:08:45.85	68.12	13.69	-37.8	-38.8	23.4	0.00e+00	123	34	101	1048576	54	5854
2026-01-06 12:08:46.86	68.32	13.70	-37.8	-38.8	23.4	0.00e+00	123	34	101	1048576	54	5833
2026-01-06 12:08:47.87	68.53	13.71	-37.8	-38.8	23.5	0.00e+00	123	34	101	1048576	54	5847
2026-01-06 12:08:48.88	68.73	13.72	-37.9	-38.9	23.4	0.00e+00	122	33	101	1048576	54	5885
2026-01-06 12:08:49.88	68.93	13.73	-38.0	-39.0	23.4	0.00e+00	122	33	101	1048576	54	5958
2026-01-06 12:08:50.89	69.13	13.74	-38.0	-39.0	23.3	0.00e+00	123	34	101	1048576	54	5945
2026-01-06 12:08:51.90	69.34	13.75	-38.1	-39.1	23.3	0.00e+00	122	33	101	1048576	54	6011
2026-01-06 12:08:52.90	69.54	13.76	-37.6	-38.6	23.6	0.00e+00	122	33	101	1048576	54	5676
2026-01-06 12:08:53.91	69.74	13.77	-37.8	-38.8	23.5	0.00e+00	123	33	101	1048576	54	5812
2026-01-06 12:08:54.92	69.95	13.78	-37.6	-38.6	23.7	0.00e+00	123	33	101	1048576	54	5669
2026-01-06 12:08:55.93	70.15	13.79	-37.6	-38.6	23.7	0.00e+00	123	34	101	1048576	54	5706
2026-01-06 12:08:56.94	70.36	13.80	-37.7	-38.6	23.7	0.00e+00	122	33	101	1048576	54	5711
2026-01-06 12:08:57.94	70.56	13.81	-37.7	-38.6	23.7	0.00e+00	123	34	101	1048576	54	5725
2026-01-06 12:08:58.95	70.76	13.82	-37.6	-38.6	23.7	0.00e+00	123	33	101	1048576	54	5695
2026-01-06 12:08:59.96	70.97	13.83	-37.8	-38.7	23.6	0.00e+00	123	33	101	1048576	54	5785
2026-01-06 12:09:00.97	71.17	13.83	-37.7	-38.7	23.6	0.00e+00	123	33	101	1048576	54	5762
2026-01-06 12:09:01.97	71.37	13.84	-37.9	-38.8	23.5	0.00e+00	120	33	101	1048576	54	5845
2026-01-06 12:09:02.98	71.58	13.85	-37.7	-38.7	23.6	0.00e+00	121	34	101	1048576	54	5753
2026-01-06 12:09:03.99	71.78	13.85	-37.9	-38.8	23.4	0.00e+00	123	33	101	1048576	54	5850
2026-01-06 12:09:05.00	71.99	13.86	-37.8	-38.8	23.5	0.00e+00	124	33	101	1048576	54	5817
2026-01-06 12:09:06.00	72.19	13.87	-38.0	-38.9	23.5	0.00e+00	123	33	101	1048576	54	5918
2026-01-06 12:09:07.01	72.40	13.87	-37.8	-38.8	23.5	0.00e+00	123	34	101	1048576	54	5799
2026-01-06 12:09:08.02	72.60	13.88	-37.8	-38.8	23.6	0.00e+00	123	33	101	1048576	54	5826
2026-01-06 12:09:09.02	72.81	13.88	-37.9	-38.9	23.4	0.00e+00	120	33	101	1048576	54	5887
2026-01-06 12:09:10.03	73.01	13.88	-37.6	-38.6	23.7	0.00e+00	120	33	101	1048576	54	5684
2026-01-06 12:09:11.04	73.22	13.89	-37.6	-38.6	23.7	0.00e+00	123	33	101	1048576	54	5663
2026-01-06 12:09:12.05	73.42	13.89	-37.7	-38.7	23.6	0.00e+00	123	33	101	1048576	54	5755
2026-01-06 12:09:13.05	73.63	13.90	-37.7	-38.7	23.7	0.00e+00	122	34	101	1048576	54	5730
2026-01-06 12:09:14.06	73.83	13.90	-37.8	-38.7	23.5	0.00e+00	123	34	101	1048576	54	5768
2026-01-06 12:09:15.07	74.04	13.90	-37.8	-38.7	23.5	0.00e+00	122	34	101	1048576	54	5791
2026-01-06 12:09:16.07	74.24	13.90	-38.0	-38.9	23.4	0.00e+00	121	33	101	1048576	54	5908
2026-01-06 12:09:17.08	74.45	13.91	-38.0	-38.9	23.3	0.00e+00	123	34	101	1048576	54	5920
2026-01-06 12:09:18.09	74.65	13.91	-38.0	-38.9	23.4	0.00e+00	123	34	101	1048576	54	5915
2026-01-06 12:09:19.09	74.86	13.91	-37.7	-38.7	23.6	0.00e+00	122	34	101	1048576	54	5749
2026-01-06 12:09:20.10	75.06	13.91	-37.8	-38.7	23.6	0.00e+00	123	34	101	1048576	54	5776
2026-01-06 12:09:21.11	75.27	13.91	-37.6	-38.6	23.7	0.00e+00	122	34	101	1048576	54	5668
2026-01-06 12:09:22.11	75.47	13.91	-37.6	-38.5	23.8	0.00e+00	120	33	101	1048576	54	5621
2026-01-06 12:09:23.12	75.68	13.91	-37.5	-38.5	23.8	0.00e+00	123	33	101	1048576	54	5598
2026-01-06 12:09:24.12	75.88	13.91	-37.5	-38.5	23.7	0.00e+00	120	34	101	1048576	54	5603
2026-01-06 12:09:25.13	76.09	13.91	-37.4	-38.4	23.8	0.00e+00	123	34	101	1048576	54	5543
2026-01-06 12:09:26.13	76.29	13.91	-37.5	-38.4	23.9	0.00e+00	123	34	101	1048576	54	5566
2026-01-06 12:09:27.14	76.50	13.91	-37.5	-38.4	23.8	0.00e+00	123	34	101	1048576	54	5594
2026-01-06 12:09:28.15	76.71	13.91	-37.5	-38.4	23.8	0.00e+00	120	33	101	1048576	54	5577
2026-01-06 12:09:29.15	76.91	13.90	-37.5	-38.5	23.8	0.00e+00	122	34	101	1048576	54	5620
2026-01-06 12:09:30.16	77.12	13.90	-37.7	-38.6	23.6	0.00e+00	122	34	101	1048576	54	5693
2026-01-06 12:09:31.17	77.32	13.90	-37.8	-38.8	23.6	0.00e+00	123	34	101	1048576	54	5793
2026-01-06 12:09:32.17	77.52	13.90	-38.0	-38.9	23.4	0.00e+00	120	34	101	1048576	54	5919
2026-01-06 12:09:33.18	77.73	13.89	-37.9	-38.9	23.4	0.00e+00	123	34	101	1048576	54	5877
2026-01-06 12:09:34.19	77.94	13.89	-38.1	-39.0	23.3	0.00e+00	123	34	101	1048576	54	5991
2026-01-06 12:09:35.19	78.14	13.89	-38.1	-39.1	23.2	0.00e+00	123	34	101	1048576	54	6027
2026-01-06 12:09:36.20	78.35	13.88	-38.2	-39.2	23.2	0.00e+00	123	34	101	1048576	54	6090
2026-01-06 12:09:37.21	78.55	13.88	-37.8	-38.8	23.5	0.00e+00	123	34	101	1048576	54	5815
2026-01-06 12:09:38.21	78.75	13.87	-37.8	-38.8	23.5	0.00e+00	123	34	101	1048576	54	5844
2026-01-06 12:09:39.22	78.96	13.87	-37.8	-38.8	23.4	0.00e+00	122	33	101	1048576	54	5843
2026-01-06 12:09:40.23	79.17	13.86	-37.9	-38.9	23.3	0.00e+00	123	34	101	1048576	54	5871
2026-01-06 12:09:41.23	79.37	13.85	-38.0	-38.9	23.4	0.00e+00	123	34	101	1048576	54	5918
2026-01-06 12:09:42.23	79.57	13.85	-37.8	-38.7	23.6	0.00e+00	123	34	101	1048576	54	5774
2026-01-06 12:09:43.24	79.78	13.84	-37.7	-38.7	23.5	0.00e+00	122	34	101	1048576	54	5738
2026-01-06 12:09:44.24	79.98	13.83	-37.8	-38.8	23.4	0.00e+00	122	34	101	1048576	54	5805
2026-01-06 12:09:45.25	80.18	13.83	-37.7	-38.6	23.5	0.00e+00	120	34	101	1048576	54	5695
2026-01-06 12:09:46.26	80.39	13.82	-37.8	-38.8	23.4	0.00e+00	122	34	101	1048576	54	5810
2026-01-06 12:09:47.27	80.59	13.81	-37.6	-38.6	23.5	0.00e+00	120	33	101	1048576	54	5676
2026-01-06 12:09:48.27	80.80	13.80	-37.7	-38.6	23.5	0.00e+00	123	33	101	1048576	54	5721
2026-01-06 12:09:49.28	81.00	13.79	-37.7	-38.6	23.5	0.00e+00	120	33	101	1048576	54	5708
2026-01-06 12:09:50.29	81.21	13.79	-37.7	-38.7	23.5	0.00e+00	122	33	101	1048576	54	5739
2026-01-06 12:09:51.30	81.41	13.78	-37.8	-38.8	23.4	0.00e+00	123	34	101	1048576	54	5825
2026-01-06 12:09:52.31	81.61	13.77	-37.7	-38.7	23.6	0.00e+00	122	33	101	1048576	54	5763
2026-01-06 12:09:53.32	81.82	13.76	-37.8	-38.7	23.6	0.00e+00	121	34	101	1048576	54	5779
2026-01-06 12:09:54.32	82.02	13.75	-37.8	-38.7	23.6	0.00e+00	123	33	101	1048576	54	5762
2026-01-06 12:09:55.33	82.22	13.74	-37.6	-38.5	23.7	0.00e+00	122	33	101	1048576	54	5650
2026-01-06 12:09:56.34	82.43	13.72	-37.4	-38.3	23.9	0.00e+00	123	34	101	1048576	54	5502
2026-01-06 12:09:57.35	82.63	13.71	-37.5	-38.5	23.8	0.00e+00	123	33	101	1048576	54	5600
2026-01-06 12:09:58.35	82.83	13.70	-37.7	-38.7	23.6	0.00e+00	123	34	101	1048576	54	5755
2026-01-06 12:09:59.36	83.04	13.69	-37.7	-38.7	23.6	0.00e+00	121	33	101	1048576	54	5738
2026-01-06 12:10:00.37	83.24	13.68	-37.8	-38.8	23.5	0.00e+00	122	33	101	1048576	54	5796
2026-01-06 12:10:01.38	83.44	13.66	-37.8	-38.8	23.5	0.00e+00	122	34	101	1048576	54	5801
2026-01-06 12:10:02.39	83.64	13.65	-37.9	-38.9	23.4	0.00e+00	122	34	101	1048576	54	5898
2026-01-06 12:10:03.39	83.85	13.64	-37.9	-38.8	23.7	0.00e+00	123	34	101	1048576	54	5827
2026-01-06 12:10:04.40	84.05	13.62	-37.6	-38.6	23.8	0.00e+00	123	34	101	1048576	54	5668
2026-01-06 12:10:05.41	84.25	13.61	-37.7	-38.7	23.6	0.00e+00	121	34	101	1048576	54	5741
2026-01-06 12:10:06.41	84.45	13.60	-37.6	-38.6	23.7	0.00e+00	123	34	101	1048576	54	5667
2026-01-06 12:10:07.42	84.65	13.58	-37.7	-38.6	23.6	0.00e+00	123	33	101	1048576	54	5704
2026-01-06 12:10:08.43	84.85	13.57	-37.7	-38.7	23.7	0.00e+00	121	34	101	1048576	54	5728
2026-01-06 12:10:09.44	85.05	13.55	-37.7	-38.6	23.6	0.00e+00	123	34	101	1048576	54	5718
2026-01-06 12:10:10.44	85.25	13.54	-37.7	-38.6	23.7	0.00e+00	122	34	101	1048576	54	5707
2026-01-06 12:10:11.45	85.45	13.52	-37.7	-38.6	23.7	0.00e+00	122	33	101	1048576	54	5696
2026-01-06 12:10:12.46	85.66	13.51	-37.6	-38.5	23.7	0.00e+00	122	33	101	1048576	54	5648
2026-01-06 12:10:13.47	85.86	13.49	-37.5	-38.5	23.8	0.00e+00	123	34	101	1048576	54	5598
2026-01-06 12:10:14.47	86.05	13.47	-37.5	-38.4	23.8	0.00e+00	123	34	101	1048576	54	5580
2026-01-06 12:10:15.48	86.25	13.45	-37.5	-38.5	23.8	0.00e+00	123	34	101	1048576	54	5623
2026-01-06 12:10:16.49	86.45	13.44	-37.5	-38.5	23.8	0.00e+00	120	34	101	1048576	54	5620
2026-01-06 12:10:17.49	86.65	13.42	-37.6	-38.5	23.7	0.00e+00	123	34	101	1048576	54	5647
2026-01-06 12:10:18.50	86.85	13.40	-37.5	-38.5	23.8	0.00e+00	120	34	101	1048576	54	5643
2026-01-06 12:10:19.50	87.05	13.38	-37.5	-38.5	23.7	0.00e+00	122	34	101	1048576	54	5656
2026-01-06 12:10:20.51	87.25	13.37	-37.5	-38.5	23.8	0.00e+00	123	34	101	1048576	54	5601
2026-01-06 12:10:21.52	87.45	13.35	-37.6	-38.5	23.7	0.00e+00	122	34	101	1048576	54	5659
2026-01-06 12:10:22.52	87.64	13.33	-37.7	-38.7	23.6	0.00e+00	122	34	101	1048576	54	5757
2026-01-06 12:10:23.53	87.84	13.31	-37.7	-38.7	23.6	0.00e+00	122	34	101	1048576	54	5746
2026-01-06 12:10:24.54	88.04	13.29	-37.6	-38.6	23.7	0.00e+00	123	34	101	1048576	54	5688
2026-01-06 12:10:25.54	88.24	13.27	-37.7	-38.8	23.6	0.00e+00	121	34	101	1048576	54	5794
2026-01-06 12:10:26.55	88.43	13.25	-37.8	-38.8	23.5	0.00e+00	123	34	101	1048576	54	5807
2026-01-06 12:10:27.55	88.63	13.23	-37.8	-38.8	23.6	0.00e+00	123	34	101	1048576	54	5813
2026-01-06 12:10:28.56	88.83	13.21	-37.9	-38.9	23.4	0.00e+00	122	34	101	1048576	54	5870
2026-01-06 12:10:29.57	89.02	13.19	-37.6	-38.6	23.7	0.00e+00	122	34	101	1048576	54	5684
2026-01-06 12:10:30.58	89.22	13.16	-37.7	-38.7	23.7	0.00e+00	123	34	101	1048576	54	5727
2026-01-06 12:10:31.59	89.42	13.14	-37.6	-38.5	23.7	0.00e+00	123	34	101	1048576	54	5652
2026-01-06 12:10:32.59	89.61	13.12	-37.7	-38.7	23.6	0.00e+00	123	34	101	1048576	54	5726
2026-01-06 12:10:33.60	89.80	13.10	-37.6	-38.6	23.7	0.00e+00	123	34	101	1048576	54	5682
2026-01-06 12:10:34.61	90.00	13.08	-37.8	-38.7	23.6	0.00e+00	122	34	101	1048576	54	5773
2026-01-06 12:10:35.62	90.20	13.05	-37.7	-38.7	23.6	0.00e+00	123	34	101	1048576	54	5752
2026-01-06 12:10:36.62	90.39	13.03	-37.8	-38.8	23.5	0.00e+00	123	34	101	1048576	54	5825
2026-01-06 12:10:37.63	90.58	13.01	-37.8	-38.8	23.5	0.00e+00	121	34	101	1048576	54	5826
2026-01-06 12:10:38.64	90.78	12.98	-37.9	-38.9	23.4	0.00e+00	122	33	101	1048576	54	5886
2026-01-06 12:10:39.65	90.97	12.96	-37.9	-38.9	23.4	0.00e+00	123	34	101	1048576	54	5905
2026-01-06 12:10:40.65	91.16	12.93	-37.9	-38.8	23.5	0.00e+00	123	34	101	1048576	54	5848
2026-01-06 12:10:41.66	91.36	12.91	-37.9	-38.9	23.5	0.00e+00	122	34	101	1048576	54	5864
2026-01-06 12:10:42.67	91.55	12.89	-37.8	-38.8	23.5	0.00e+00	123	34	101	1048576	54	5839
2026-01-06 12:10:43.68	91.74	12.86	-37.8	-38.8	23.5	0.00e+00	123	34	101	1048576	54	5832
2026-01-06 12:10:44.69	91.93	12.83	-38.0	-39.0	23.3	0.00e+00	123	34	101	1048576	54	5944
2026-01-06 12:10:45.70	92.13	12.81	-37.9	-38.8	23.5	0.00e+00	122	34	101	1048576	54	5848
2026-01-06 12:10:46.70	92.32	12.78	-37.9	-38.9	23.4	0.00e+00	123	34	101	1048576	54	5885
2026-01-06 12:10:47.71	92.51	12.76	-37.9	-38.9	23.3	0.00e+00	123	34	101	1048576	54	5908
2026-01-06 12:10:48.72	92.70	12.73	-38.0	-39.0	23.4	0.00e+00	123	34	101	1048576	54	5988
2026-01-06 12:10:49.72	92.89	12.70	-37.9	-38.9	23.4	0.00e+00	123	34	101	1048576	54	5902
2026-01-06 12:10:50.73	93.08	12.68	-37.9	-38.9	23.4	0.00e+00	123	34	101	1048576	54	5902
2026-01-06 12:10:51.74	93.27	12.65	-37.9	-38.9	23.4	0.00e+00	122	34	101	1048576	54	5871
2026-01-06 12:10:52.75	93.46	12.62	-37.9	-38.9	23.4	0.00e+00	121	34	101	1048576	54	5868
2026-01-06 12:10:53.76	93.65	12.60	-37.9	-38.8	23.4	0.00e+00	122	34	101	1048576	54	5841
2026-01-06 12:10:54.76	93.83	12.57	-38.0	-38.9	23.4	1.50e-06	122	34	101	1048576	54	5905
2026-01-06 12:10:55.77	94.02	12.54	-38.0	-38.9	23.4	0.00e+00	120	34	101	1048576	54	5918
2026-01-06 12:10:56.78	94.21	12.51	-37.8	-38.8	23.5	0.00e+00	123	34	101	1048576	54	5823
2026-01-06 12:10:57.79	94.40	12.48	-37.9	-38.8	23.5	0.00e+00	121	34	101	1048576	54	5836
2026-01-06 12:10:58.80	94.59	12.45	-37.8	-38.7	23.6	0.00e+00	123	34	101	1048576	54	5787
2026-01-06 12:10:59.80	94.77	12.42	-37.8	-38.8	23.5	0.00e+00	120	34	101	1048576	54	5807
2026-01-06 12:11:00.81	94.96	12.39	-37.8	-38.8	23.5	0.00e+00	121	34	101	1048576	54	5816
2026-01-06 12:11:01.82	95.14	12.37	-37.9	-38.9	23.5	0.00e+00	122	34	101	1048576	54	5872
2026-01-06 12:11:02.83	95.33	12.34	-37.9	-38.9	23.4	0.00e+00	123	34	101	1048576	54	5860
2026-01-06 12:11:03.84	95.52	12.31	-37.8	-38.8	23.5	0.00e+00	121	34	101	1048576	54	5803
2026-01-06 12:11:04.84	95.70	12.28	-37.9	-38.8	23.5	0.00e+00	121	34	101	1048576	54	5852
2026-01-06 12:11:05.85	95.89	12.24	-37.8	-38.8	23.5	0.00e+00	122	34	101	1048576	54	5809
2026-01-06 12:11:06.86	96.07	12.21	-37.9	-38.8	23.4	0.00e+00	121	34	101	1048576	54	5829
2026-01-06 12:11:07.86	96.25	12.18	-37.8	-38.8	23.5	0.00e+00	121	34	101	1048576	54	5799
2026-01-06 12:11:08.87	96.44	12.15	-37.8	-38.7	23.5	0.00e+00	123	34	101	1048576	54	5754
2026-01-06 12:11:09.88	96.62	12.12	-37.7	-38.7	23.5	0.00e+00	123	34	101	1048576	54	5754
2026-01-06 12:11:10.89	96.80	12.09	-37.7	-38.6	23.6	0.00e+00	123	34	101	1048576	54	5706
2026-01-06 12:11:11.89	96.98	12.06	-37.7	-38.7	23.5	0.00e+00	121	34	101	1048576	54	5761
2026-01-06 12:11:12.90	97.17	12.02	-37.8	-38.8	23.5	0.00e+00	123	34	101	1048576	54	5798
2026-01-06 12:11:13.91	97.35	11.99	-37.7	-38.7	23.5	0.00e+00	123	34	101	1048576	54	5739
2026-01-06 12:11:14.92	97.53	11.96	-37.7	-38.6	23.6	0.00e+00	123	34	101	1048576	54	5696
2026-01-06 12:11:15.92	97.71	11.93	-37.6	-38.5	23.6	0.00e+00	122	34	101	1048576	54	5658
2026-01-06 12:11:16.93	97.89	11.89	-37.7	-38.6	23.6	0.00e+00	123	34	101	1048576	54	5702
2026-01-06 12:11:17.94	98.07	11.86	-37.6	-38.6	23.6	0.00e+00	120	34	101	1048576	54	5675
2026-01-06 12:11:18.94	98.25	11.83	-37.7	-38.7	23.5	0.00e+00	120	34	101	1048576	54	5753
2026-01-06 12:11:19.95	98.43	11.79	-37.7	-38.7	23.5	0.00e+00	120	34	101	1048576	54	5760
2026-01-06 12:11:20.95	98.61	11.76	-37.7	-38.7	23.5	0.00e+00	123	34	101	1048576	54	5772
2026-01-06 12:11:21.96	98.79	11.73	-37.8	-38.8	23.4	0.00e+00	122	34	101	1048576	54	5831
2026-01-06 12:11:22.97	98.97	11.69	-37.8	-38.8	23.4	0.00e+00	122	34	101	1048576	54	5793
2026-01-06 12:11:23.97	99.14	11.66	-37.9	-38.9	23.4	0.00e+00	122	34	101	1048576	54	5863
2026-01-06 12:11:24.98	99.32	11.62	-38.0	-39.0	23.3	0.00e+00	123	34	101	1048576	54	5928
2026-01-06 12:11:25.99	99.50	11.59	-38.0	-39.0	23.2	0.00e+00	123	34	101	1048576	54	5943
2026-01-06 12:11:27.00	99.67	11.55	-38.0	-39.0	23.2	0.00e+00	123	34	101	1048576	54	5964
2026-01-06 12:11:28.00	99.85	11.52	-38.0	-39.0	23.3	0.00e+00	123	34	101	1048576	54	5937
2026-01-06 12:11:29.01	100.02	11.48	-38.2	-39.2	23.1	0.00e+00	121	34	101	1048576	54	6072
2026-01-06 12:11:30.02	100.20	11.45	-38.0	-39.0	23.3	0.00e+00	120	34	101	1048576	54	5943
2026-01-06 12:11:31.02	100.37	11.41	-37.9	-38.8	23.4	0.00e+00	123	34	101	1048576	54	5831
2026-01-06 12:11:32.03	100.55	11.38	-37.9	-38.9	23.3	0.00e+00	123	34	101	1048576	54	5894
2026-01-06 12:11:33.04	100.72	11.34	-37.9	-38.9	23.3	0.00e+00	122	34	101	1048576	54	5894
2026-01-06 12:11:34.05	100.90	11.30	-37.9	-38.9	23.4	0.00e+00	123	34	101	1048576	54	5895
2026-01-06 12:11:35.05	101.07	11.27	-38.1	-39.1	23.3	0.00e+00	123	34	101	1048576	54	5998
2026-01-06 12:11:36.06	101.24	11.23	-38.2	-39.1	23.2	0.00e+00	123	34	101	1048576	54	6044
2026-01-06 12:11:37.06	101.41	11.19	-38.1	-39.1	23.1	0.00e+00	120	34	101	1048576	54	6033
2026-01-06 12:11:38.07	101.59	11.16	-38.2	-39.2	23.1	0.00e+00	123	34	101	1048576	54	6099
2026-01-06 12:11:39.08	101.76	11.12	-38.1	-39.1	23.1	0.00e+00	123	34	101	1048576	54	6035
2026-01-06 12:11:40.08	101.93	11.08	-38.3	-39.2	23.0	0.00e+00	122	34	101	1048576	54	6129
2026-01-06 12:11:41.09	102.10	11.05	-38.1	-39.1	23.1	0.00e+00	123	34	101	1048576	54	6060
2026-01-06 12:11:42.10	102.27	11.01	-38.1	-39.1	23.1	0.00e+00	123	34	101	1048576	54	6040
2026-01-06 12:11:43.11	102.44	10.97	-38.1	-39.1	23.0	0.00e+00	120	34	101	1048576	54	6041
2026-01-06 12:11:44.11	102.61	10.93	-38.1	-39.2	23.0	0.00e+00	120	34	101	1048576	54	6124
2026-01-06 12:11:45.12	102.78	10.89	-38.1	-39.2	23.1	0.00e+00	123	34	101	1048576	54	6078
2026-01-06 12:11:46.13	102.95	10.86	-38.0	-39.1	23.1	0.00e+00	122	34	101	1048576	54	6062
2026-01-06 12:11:47.13	103.11	10.82	-38.0	-39.0	23.2	0.00e+00	123	34	101	1048576	54	5994
2026-01-06 12:11:48.14	103.28	10.78	-38.1	-39.2	23.1	0.00e+00	123	34	101	1048576	54	6096
2026-01-06 12:11:49.15	103.45	10.74	-38.1	-39.1	23.1	0.00e+00	123	34	101	1048576	54	6038
2026-01-06 12:11:50.15	103.62	10.70	-38.1	-39.1	23.1	0.00e+00	122	34	101	1048576	54	6055
2026-01-06 12:11:51.16	103.78	10.66	-38.1	-39.1	23.1	0.00e+00	122	34	101	1048576	54	6054
2026-01-06 12:11:52.17	103.95	10.62	-38.2	-39.2	23.1	0.00e+00	123	34	101	1048576	54	6074
2026-01-06 12:11:53.18	104.11	10.58	-38.3	-39.4	22.9	0.00e+00	123	34	101	1048576	54	6209
2026-01-06 12:11:54.18	104.28	10.54	-38.3	-39.3	23.0	0.00e+00	122	34	101	1048576	54	6181
2026-01-06 12:11:55.19	104.44	10.50	-38.4	-39.4	22.9	0.00e+00	123	34	101	1048576	54	6241
2026-01-06 12:11:56.20	104.61	10.46	-38.3	-39.3	23.0	0.00e+00	120	34	101	1048576	54	6165
2026-01-06 12:11:57.21	104.77	10.42	-38.3	-39.4	22.9	0.00e+00	121	34	101	1048576	54	6210
2026-01-06 12:11:58.21	104.94	10.38	-38.4	-39.5	22.8	0.00e+00	120	34	101	1048576	54	6296
2026-01-06 12:11:59.22	105.10	10.34	-38.4	-39.4	22.7	0.00e+00	123	34	101	1048576	54	6276
2026-01-06 12:12:00.23	105.26	10.30	-38.5	-39.6	22.7	0.00e+00	123	34	101	1048576	54	6352
2026-01-06 12:12:01.24	105.42	10.26	-38.7	-39.7	22.5	0.00e+00	120	34	101	1048576	54	6460
2026-01-06 12:12:02.24	105.58	10.22	-38.5	-39.5	22.7	0.00e+00	123	34	101	1048576	54	6308
2026-01-06 12:12:03.25	105.75	10.18	-38.6	-39.6	22.7	0.00e+00	122	34	101	1048576	54	6359
2026-01-06 12:12:04.26	105.91	10.14	-38.6	-39.6	22.7	0.00e+00	123	34	101	1048576	54	6386
2026-01-06 12:12:05.27	106.07	10.10	-38.5	-39.5	22.7	0.00e+00	122	34	101	1048576	54	6322
2026-01-06 12:12:06.28	106.23	10.06	-38.5	-39.5	22.7	0.00e+00	123	34	101	1048576	54	6344
2026-01-06 12:12:07.29	106.39	10.02	-38.5	-39.5	22.7	0.00e+00	123	34	101	1048576	54	6341
2026-01-06 12:12:08.30	106.55	9.98	-38.5	-39.5	22.8	0.00e+00	123	34	101	1048576	54	6298
2026-01-06 12:12:09.31	106.71	9.93	-38.7	-39.7	22.6	0.00e+00	123	34	101	1048576	54	6447
2026-01-06 12:12:10.32	106.87	9.89	-38.6	-39.6	22.7	0.00e+00	123	34	101	1048576	54	6378
2026-01-06 12:12:11.33	107.02	9.85	-38.5	-39.5	22.8	0.00e+00	123	34	101	1048576	54	6350
2026-01-06 12:12:12.34	107.18	9.81	-38.6	-39.6	22.7	0.00e+00	120	33	101	1048576	54	6416
2026-01-06 12:12:13.35	107.34	9.77	-38.8	-39.8	22.5	0.00e+00	120	34	101	1048576	54	6542
2026-01-06 12:12:14.36	107.50	9.72	-38.7	-39.7	22.6	0.00e+00	122	34	101	1048576	54	6478
2026-01-06 12:12:15.37	107.65	9.68	-38.8	-39.8	22.5	0.00e+00	122	34	101	1048576	54	6542
2026-01-06 12:12:16.38	107.81	9.64	-38.7	-39.7	22.6	0.00e+00	125	34	101	1048576	54	6467
2026-01-06 12:12:17.39	107.96	9.60	-38.8	-39.8	22.5	0.00e+00	122	34	101	1048576	54	6555
2026-01-06 12:12:18.39	108.12	9.55	-38.7	-39.7	22.5	0.00e+00	123	34	101	1048576	54	6498
2026-01-06 12:12:19.40	108.27	9.51	-38.7	-39.7	22.5	0.00e+00	123	34	101	1048576	54	6491
2026-01-06 12:12:20.42	108.43	9.47	-38.9	-39.9	22.4	0.00e+00	123	34	101	1048576	54	6617
2026-01-06 12:12:21.43	108.58	9.43	-38.9	-39.9	22.3	0.00e+00	122	34	101	1048576	54	6639
2026-01-06 12:12:22.44	108.74	9.38	-38.8	-39.8	22.5	0.00e+00	123	34	101	1048576	54	6551
2026-01-06 12:12:23.45	108.89	9.34	-38.8	-39.8	22.4	0.00e+00	122	34	101	1048576	54	6573
2026-01-06 12:12:24.46	109.04	9.30	-38.6	-39.7	22.6	0.00e+00	120	34	101	1048576	54	6457
2026-01-06 12:12:25.47	109.19	9.25	-38.6	-39.7	22.6	0.00e+00	123	34	101	1048576	54	6490
2026-01-06 12:12:26.48	109.35	9.21	-38.7	-39.9	22.4	0.00e+00	123	34	101	1048576	54	6594
2026-01-06 12:12:27.49	109.50	9.17	-38.9	-39.9	22.4	0.00e+00	123	34	101	1048576	54	6638
2026-01-06 12:12:28.50	109.65	9.12	-38.8	-39.8	22.5	0.00e+00	122	34	101	1048576	54	6553
2026-01-06 12:12:29.50	109.80	9.08	-38.8	-39.9	22.4	0.00e+00	122	34	101	1048576	54	6603
2026-01-06 12:12:30.52	109.95	9.03	-38.8	-39.9	22.4	0.00e+00	123	34	101	1048576	54	6582
2026-01-06 12:12:31.52	110.10	8.99	-38.7	-39.8	22.5	0.00e+00	122	34	101	1048576	54	6546
2026-01-06 12:12:32.54	110.25	8.95	-38.9	-39.9	22.4	0.00e+00	123	34	101	1048576	54	6614
2026-01-06 12:12:33.54	110.39	8.90	-39.0	-40.1	22.3	0.00e+00	122	34	101	1048576	54	6728
2026-01-06 12:12:34.55	110.54	8.86	-39.0	-40.0	22.3	0.00e+00	122	34	101	1048576	54	6693
2026-01-06 12:12:35.56	110.69	8.81	-39.0	-40.1	22.3	0.00e+00	123	34	101	1048576	54	6738
2026-01-06 12:12:36.57	110.84	8.77	-39.1	-40.2	22.1	0.00e+00	123	34	101	1048576	54	6831
2026-01-06 12:12:37.58	110.98	8.72	-39.2	-40.3	22.1	0.00e+00	122	34	101	1048576	56	6166
2026-01-06 12:12:38.59	111.13	8.68	-39.3	-40.4	22.1	0.00e+00	122	34	101	1048576	56	6229
2026-01-06 12:12:39.60	111.28	8.64	-39.3	-40.4	22.1	0.00e+00	123	34	101	1048576	56	6209
2026-01-06 12:12:40.60	111.42	8.59	-39.3	-40.3	22.0	0.00e+00	123	34	101	1048576	56	6192
2026-01-06 12:12:41.61	111.57	8.55	-39.3	-40.4	22.0	0.00e+00	122	34	101	1048576	56	6232
2026-01-06 12:12:42.62	111.71	8.50	-39.2	-40.2	22.1	0.00e+00	123	34	101	1048576	56	6124
2026-01-06 12:12:43.63	111.86	8.46	-39.2	-40.3	22.2	0.00e+00	123	34	101	1048576	56	6156
2026-01-06 12:12:44.64	112.00	8.41	-39.1	-40.2	22.2	0.00e+00	123	34	101	1048576	56	6079
2026-01-06 12:12:45.65	112.14	8.37	-39.2	-40.3	22.1	1.50e-06	120	34	101	1048576	56	6168
2026-01-06 12:12:46.66	112.29	8.32	-39.3	-40.3	22.1	0.00e+00	120	34	101	1048576	56	6202
2026-01-06 12:12:47.67	112.43	8.28	-39.2	-40.3	22.1	0.00e+00	123	34	101	1048576	56	6197
2026-01-06 12:12:48.68	112.57	8.23	-39.4	-40.5	21.9	0.00e+00	123	34	101	1048576	56	6319
2026-01-06 12:12:49.69	112.71	8.18	-39.2	-40.3	22.0	0.00e+00	123	34	101	1048576	56	6185
2026-01-06 12:12:50.70	112.85	8.14	-39.2	-40.4	22.0	0.00e+00	120	34	101	1048576	56	6239
2026-01-06 12:12:51.71	112.99	8.09	-39.3	-40.5	21.9	0.00e+00	123	34	101	1048576	56	6279
2026-01-06 12:12:52.72	113.13	8.05	-39.5	-40.6	21.9	0.00e+00	123	34	101	1048576	56	6402
2026-01-06 12:12:53.73	113.28	8.00	-39.3	-40.4	21.9	0.00e+00	122	34	101	1048576	56	6268
2026-01-06 12:12:54.74	113.41	7.96	-39.4	-40.6	21.8	0.00e+00	123	34	101	1048576	56	6364
2026-01-06 12:12:55.75	113.55	7.91	-39.5	-40.6	21.7	0.00e+00	123	33	101	1048576	56	6423
2026-01-06 12:12:56.76	113.69	7.87	-39.4	-40.6	21.8	0.00e+00	120	34	101	1048576	56	6357
2026-01-06 12:12:57.77	113.83	7.82	-39.5	-40.6	21.8	0.00e+00	122	33	101	1048576	56	6417
2026-01-06 12:12:58.78	113.97	7.77	-39.6	-40.7	21.8	0.00e+00	123	34	101	1048576	56	6444
2026-01-06 12:12:59.79	114.11	7.73	-39.3	-40.3	22.0	0.00e+00	123	34	101	1048576	56	6204
2026-01-06 12:13:00.80	114.24	7.68	-39.4	-40.4	21.9	0.00e+00	122	34	101	1048576	56	6255
2026-01-06 12:13:01.81	114.38	7.63	-39.3	-40.4	22.0	0.00e+00	122	34	101	1048576	56	6208
2026-01-06 12:13:02.82	114.52	7.59	-39.2	-40.3	22.0	0.00e+00	120	33	101	1048576	56	6148
2026-01-06 12:13:03.83	114.65	7.54	-39.4	-40.5	21.8	0.00e+00	123	34	101	1048576	56	6301
2026-01-06 12:13:04.84	114.79	7.50	-39.4	-40.5	21.8	0.00e+00	122	34	101	1048576	56	6337
2026-01-06 12:13:05.85	114.92	7.45	-39.6	-40.7	21.7	0.00e+00	123	34	101	1048576	56	6467
2026-01-06 12:13:06.86	115.06	7.40	-39.4	-40.5	21.9	0.00e+00	122	34	101	1048576	56	6280
2026-01-06 12:13:07.86	115.19	7.36	-39.3	-40.3	22.0	0.00e+00	123	34	101	1048576	56	6189
2026-01-06 12:13:08.87	115.32	7.31	-39.2	-40.3	22.0	0.00e+00	123	34	101	1048576	56	6142
2026-01-06 12:13:09.88	115.46	7.26	-39.3	-40.4	22.0	0.00e+00	123	34	101	1048576	56	6212
2026-01-06 12:13:10.89	115.59	7.22	-39.3	-40.4	21.9	0.00e+00	122	34	101	1048576	56	6243
2026-01-06 12:13:11.90	115.72	7.17	-39.3	-40.4	21.9	0.00e+00	120	33	101	1048576	56	6234
2026-01-06 12:13:12.91	115.86	7.12	-39.4	-40.5	21.8	0.00e+00	123	34	101	1048576	56	6340
2026-01-06 12:13:13.92	115.99	7.08	-39.4	-40.5	21.8	0.00e+00	120	34	101	1048576	56	6344
2026-01-06 12:13:14.93	116.12	7.03	-39.5	-40.6	21.7	0.00e+00	123	34	101	1048576	56	6392
2026-01-06 12:13:15.94	116.25	6.98	-39.3	-40.5	21.8	0.00e+00	122	34	101	1048576	56	6292
2026-01-06 12:13:16.95	116.38	6.94	-39.8	-41.0	21.4	0.00e+00	123	34	101	1048576	56	6654
2026-01-06 12:13:17.95	116.51	6.89	-39.6	-40.8	21.6	0.00e+00	123	34	101	1048576	56	6513
2026-01-06 12:13:18.97	116.64	6.84	-39.6	-40.7	21.6	0.00e+00	122	34	101	1048576	56	6481
2026-01-06 12:13:19.97	116.77	6.80	-39.4	-40.5	21.8	0.00e+00	121	34	101	1048576	56	6329
2026-01-06 12:13:20.98	116.90	6.75	-39.4	-40.5	21.7	0.00e+00	123	34	101	1048576	56	6324
2026-01-06 12:13:21.99	117.03	6.70	-39.3	-40.4	21.8	0.00e+00	123	34	101	1048576	56	6253
2026-01-06 12:13:23.00	117.16	6.66	-39.2	-40.3	22.0	0.00e+00	123	34	101	1048576	56	6185
2026-01-06 12:13:24.01	117.28	6.61	-39.3	-40.4	21.7	0.00e+00	122	34	101	1048576	56	6265
2026-01-06 12:13:25.02	117.41	6.56	-39.5	-40.6	21.7	0.00e+00	121	34	101	1048576	56	6366
2026-01-06 12:13:26.03	117.54	6.51	-39.6	-40.8	21.5	0.00e+00	120	34	101	1048576	56	6499
2026-01-06 12:13:27.04	117.66	6.47	-39.6	-40.7	21.5	0.00e+00	123	34	101	1048576	56	6496
2026-01-06 12:13:28.05	117.79	6.42	-39.7	-40.8	21.5	0.00e+00	121	34	101	1048576	56	6529
2026-01-06 12:13:29.06	117.92	6.37	-39.8	-40.9	21.4	0.00e+00	123	34	101	1048576	56	6583
2026-01-06 12:13:30.07	118.04	6.33	-39.7	-40.8	21.5	0.00e+00	121	34	101	1048576	56	6572
2026-01-06 12:13:31.08	118.17	6.28	-39.6	-40.7	21.6	0.00e+00	120	34	101	1048576	56	6439
2026-01-06 12:13:32.09	118.29	6.23	-39.8	-40.9	21.4	0.00e+00	123	34	101	1048576	56	6607
2026-01-06 12:13:33.10	118.42	6.18	-39.9	-41.0	21.3	0.00e+00	123	34	101	1048576	56	6675
2026-01-06 12:13:34.10	118.54	6.14	-39.9	-41.0	21.3	0.00e+00	123	34	101	1048576	56	6662
2026-01-06 12:13:35.11	118.66	6.09	-39.7	-40.8	21.5	0.00e+00	118	34	101	1048576	56	6526
2026-01-06 12:13:36.12	118.78	6.04	-39.8	-40.9	21.3	0.00e+00	120	33	101	1048576	56	6609
2026-01-06 12:13:37.13	118.91	5.99	-39.9	-41.1	21.2	0.00e+00	122	34	101	1048576	56	6746
2026-01-06 12:13:38.14	119.03	5.95	-40.0	-41.1	21.1	0.00e+00	123	34	101	1048576	56	6800
2026-01-06 12:13:39.15	119.15	5.90	-40.2	-41.4	21.0	0.00e+00	123	34	101	1048576	58	6212
2026-01-06 12:13:40.16	119.27	5.85	-40.0	-41.2	21.0	0.00e+00	123	34	101	1048576	58	6089
2026-01-06 12:13:41.17	119.39	5.80	-39.9	-41.0	21.1	0.00e+00	123	33	101	1048576	58	5991
2026-01-06 12:13:42.18	119.52	5.76	-40.0	-41.1	21.0	0.00e+00	122	33	101	1048576	58	6059
2026-01-06 12:13:43.19	119.64	5.71	-39.9	-41.1	21.1	0.00e+00	122	34	101	1048576	58	6026
2026-01-06 12:13:44.20	119.76	5.66	-40.0	-41.2	20.9	0.00e+00	120	34	101	1048576	58	6126
2026-01-06 12:13:45.21	119.88	5.61	-40.0	-41.3	20.9	1.50e-06	123	34	101	1048576	58	6158
2026-01-06 12:13:46.22	119.99	5.57	-40.0	-41.3	20.9	1.50e-06	123	34	101	1048576	58	6141
2026-01-06 12:13:47.23	120.11	5.52	-40.0	-41.2	20.9	0.00e+00	120	34	101	1048576	58	6125
2026-01-06 12:13:48.24	120.23	5.47	-40.0	-41.2	20.9	0.00e+00	122	34	101	1048576	58	6100
2026-01-06 12:13:49.25	120.35	5.42	-39.9	-41.2	20.9	0.00e+00	123	34	101	1048576	58	6100
2026-01-06 12:13:50.26	120.47	5.38	-40.2	-41.5	20.7	0.00e+00	122	33	101	1048576	58	6327
2026-01-06 12:13:51.27	120.59	5.33	-39.9	-41.2	21.0	0.00e+00	120	34	101	1048576	58	6065
2026-01-06 12:13:52.28	120.70	5.28	-39.9	-41.1	20.9	0.00e+00	123	34	101	1048576	58	6016
2026-01-06 12:13:53.28	120.82	5.23	-40.0	-41.2	21.0	0.00e+00	122	34	101	1048576	58	6075
2026-01-06 12:13:54.29	120.94	5.18	-40.0	-41.2	20.9	0.00e+00	120	34	101	1048576	58	6086
2026-01-06 12:13:55.30	121.05	5.14	-40.0	-41.2	20.8	0.00e+00	121	34	101	1048576	58	6115
2026-01-06 12:13:56.31	121.17	5.09	-40.0	-41.2	20.9	0.00e+00	120	34	101	1048576	58	6120
2026-01-06 12:13:57.32	121.28	5.04	-40.1	-41.2	20.9	0.00e+00	123	34	101	1048576	58	6122
2026-01-06 12:13:58.32	121.40	4.99	-40.1	-41.3	20.9	0.00e+00	122	34	101	1048576	58	6150
2026-01-06 12:13:59.33	121.51	4.95	-40.0	-41.2	20.9	0.00e+00	123	34	101	1048576	58	6094
2026-01-06 12:14:00.34	121.62	4.90	-40.1	-41.2	20.8	0.00e+00	120	34	101	1048576	58	6129
2026-01-06 12:14:01.35	121.74	4.85	-40.2	-41.4	20.7	0.00e+00	123	34	101	1048576	58	6211
2026-01-06 12:14:02.36	121.85	4.80	-40.1	-41.3	20.8	0.00e+00	122	34	101	1048576	58	6165
2026-01-06 12:14:03.37	121.97	4.76	-40.2	-41.4	20.7	0.00e+00	122	34	101	1048576	58	6220
2026-01-06 12:14:04.38	122.08	4.71	-40.2	-41.4	20.8	0.00e+00	120	34	101	1048576	58	6224
2026-01-06 12:14:05.39	122.19	4.66	-40.2	-41.4	20.7	0.00e+00	123	34	101	1048576	58	6259
2026-01-06 12:14:06.40	122.30	4.61	-40.2	-41.4	20.7	0.00e+00	121	34	101	1048576	58	6262
2026-01-06 12:14:07.41	122.41	4.56	-40.5	-41.7	20.5	0.00e+00	123	34	101	1048576	58	6467
2026-01-06 12:14:08.42	122.53	4.52	-40.7	-41.9	20.1	0.00e+00	122	34	101	1048576	58	6589
2026-01-06 12:14:09.43	122.64	4.47	-40.7	-41.9	20.2	0.00e+00	122	34	101	1048576	58	6593
2026-01-06 12:14:10.44	122.75	4.42	-40.4	-41.6	20.4	0.00e+00	122	34	101	1048576	58	6407
2026-01-06 12:14:11.45	122.86	4.37	-40.4	-41.6	20.5	0.00e+00	122	34	101	1048576	58	6358
2026-01-06 12:14:12.46	122.97	4.32	-40.2	-41.4	20.5	0.00e+00	123	34	101	1048576	58	6263
2026-01-06 12:14:13.47	123.08	4.28	-40.4	-41.6	20.3	0.00e+00	122	34	101	1048576	58	6412
2026-01-06 12:14:14.47	123.19	4.23	-40.7	-41.9	20.2	0.00e+00	120	34	101	1048576	58	6614
2026-01-06 12:14:15.48	123.29	4.18	-40.7	-42.0	20.0	0.00e+00	122	34	101	1048576	58	6668
2026-01-06 12:14:16.49	123.40	4.13	-40.6	-41.9	20.0	0.00e+00	122	34	101	1048576	58	6584
2026-01-06 12:14:17.51	123.51	4.09	-40.4	-41.6	20.3	0.00e+00	123	34	101	1048576	58	6399
2026-01-06 12:14:18.52	123.62	4.04	-40.5	-41.7	20.2	0.00e+00	120	34	101	1048576	58	6490
2026-01-06 12:14:19.53	123.73	3.99	-40.4	-41.7	20.2	0.00e+00	123	34	101	1048576	58	6425
2026-01-06 12:14:20.54	123.84	3.94	-40.6	-41.9	20.0	0.00e+00	120	34	101	1048576	58	6626
2026-01-06 12:14:21.55	123.94	3.89	-40.8	-42.1	19.9	0.00e+00	123	34	101	1048576	58	6788
2026-01-06 12:14:22.56	124.05	3.85	-40.7	-41.9	20.0	0.00e+00	123	34	101	1048576	58	6614
2026-01-06 12:14:23.57	124.16	3.80	-40.7	-41.9	20.1	0.00e+00	123	34	101	1048576	58	6649
2026-01-06 12:14:24.58	124.26	3.75	-40.6	-41.8	20.0	0.00e+00	122	34	101	1048576	58	6544
2026-01-06 12:14:25.59	124.37	3.70	-40.5	-41.7	20.2	0.00e+00	122	34	101	1048576	58	6498
2026-01-06 12:14:26.60	124.47	3.65	-40.6	-41.9	20.1	0.00e+00	123	34	101	1048576	58	6606
2026-01-06 12:14:27.61	124.58	3.61	-40.9	-42.2	19.8	0.00e+00	123	34	101	1048576	58	6839
