passes_logs/2026/01/06/R4.6S_Anadyr_2ch/R4.6S_Anadyr_2ch__20260106_013834_NOAA_21_JPSS-2_rec.log

#Pass ID: 20260106_013834_NOAA 21 (JPSS-2)
#Satellite: NOAA 21 (JPSS-2)
#Configuration: NOAA-21
#almurnet v.1.7.20251203
#Start time: 2026-01-06 01:38:35

#Version: 2.2.20231116
#Station: R4.6S_Anadyr_2ch
#Location: 177.4865 lon 64.73178 lat
#TLE: 1 54234U 22150A   25350.97269056  .00000057  00000+0  47676-4 0  9992
#TLE: 2 54234  98.7466 287.2282 0002043  29.8355 330.2937 14.19525482160692

#Time	Az	El	Level	Level2	SNR	BER	BlckErr	Temp	State	Recorded	gain1	gain2
2026-01-06 01:38:35.46	192.78	0.08	-46.8	-63.8	3.5	3.02e+01	0	29	0	0	60	80529
2026-01-06 01:38:36.47	192.83	0.14	-51.2	-64.3	3.5	1.52e+00	0	30	104	0	60	78113
2026-01-06 01:38:37.48	192.88	0.19	-51.2	-64.2	3.5	1.52e+00	0	30	104	0	60	77170
2026-01-06 01:38:38.49	192.92	0.25	-51.2	-64.3	3.5	1.52e+00	0	30	104	0	60	77450
2026-01-06 01:38:39.51	192.97	0.31	-51.1	-64.3	3.5	1.52e+00	0	30	104	0	60	78016
2026-01-06 01:38:40.51	193.02	0.36	-51.2	-64.3	3.5	1.51e+00	0	30	104	0	60	77836
2026-01-06 01:38:41.53	193.06	0.42	-51.2	-64.3	3.5	1.52e+00	0	30	104	0	60	77818
2026-01-06 01:38:42.54	193.11	0.48	-51.2	-64.4	3.5	1.52e+00	0	30	104	0	60	78127
2026-01-06 01:38:43.55	193.16	0.54	-51.3	-64.3	3.5	1.52e+00	0	30	104	0	60	77880
2026-01-06 01:38:44.56	193.21	0.59	-51.1	-64.2	3.5	1.52e+00	0	30	104	0	60	77051
2026-01-06 01:38:45.57	193.26	0.65	-51.1	-64.2	3.5	1.52e+00	0	30	104	0	60	76695
2026-01-06 01:38:46.58	193.30	0.71	-51.0	-64.0	3.5	1.52e+00	0	31	104	0	60	75159
2026-01-06 01:38:47.59	193.35	0.77	-50.8	-63.9	3.5	1.52e+00	0	30	104	0	60	73977
2026-01-06 01:38:48.60	193.40	0.83	-50.4	-63.6	3.5	1.52e+00	0	31	104	0	60	71640
2026-01-06 01:38:49.62	193.45	0.88	-50.4	-63.4	3.5	1.52e+00	0	31	104	0	60	69805
2026-01-06 01:38:50.63	193.50	0.94	-49.9	-62.8	3.5	1.52e+00	0	31	104	0	60	65728
2026-01-06 01:38:51.64	193.55	1.00	-49.9	-62.9	3.5	1.52e+00	0	31	104	0	60	65859
2026-01-06 01:38:52.65	193.60	1.06	-49.9	-62.8	3.5	1.52e+00	0	31	104	0	60	65106
2026-01-06 01:38:53.66	193.65	1.12	-49.9	-62.8	3.5	1.52e+00	0	31	104	0	60	65498
2026-01-06 01:38:54.67	193.70	1.18	-49.9	-62.8	3.5	1.52e+00	0	31	104	0	60	65280
2026-01-06 01:38:55.68	193.75	1.24	-49.9	-62.8	3.5	1.52e+00	0	31	104	0	60	65728
2026-01-06 01:38:56.69	193.80	1.29	-49.9	-62.9	3.5	1.51e+00	0	31	104	0	60	66180
2026-01-06 01:38:57.70	193.85	1.35	-49.9	-62.9	3.5	1.52e+00	0	31	104	0	60	66204
2026-01-06 01:38:58.71	193.90	1.41	-49.9	-62.9	3.5	1.52e+00	0	31	104	0	60	65901
2026-01-06 01:38:59.72	193.95	1.47	-49.9	-62.9	3.5	1.52e+00	0	31	104	0	60	66046
2026-01-06 01:39:00.73	194.00	1.53	-49.9	-62.9	3.5	1.52e+00	0	31	104	0	60	66368
2026-01-06 01:39:01.74	194.05	1.59	-49.9	-62.9	3.5	1.52e+00	0	31	104	0	60	66297
2026-01-06 01:39:02.76	194.10	1.65	-49.9	-62.9	3.5	1.51e+00	0	31	104	0	60	65949
2026-01-06 01:39:03.77	194.15	1.71	-49.9	-62.8	3.5	1.51e+00	0	31	104	0	60	65430
2026-01-06 01:39:04.78	194.21	1.77	-49.9	-62.8	3.5	1.52e+00	0	31	104	0	60	65392
2026-01-06 01:39:05.79	194.26	1.83	-49.9	-62.8	3.5	1.52e+00	0	31	104	0	60	65320
2026-01-06 01:39:06.80	194.31	1.89	-49.9	-62.8	3.5	1.52e+00	0	31	104	0	60	65280
2026-01-06 01:39:07.81	194.36	1.95	-49.9	-62.8	3.5	1.52e+00	0	31	104	0	60	65262
2026-01-06 01:39:08.82	194.41	2.01	-49.9	-62.8	3.5	1.52e+00	0	31	104	0	60	65218
2026-01-06 01:39:09.83	194.47	2.07	-49.9	-62.9	3.5	1.52e+00	0	31	104	0	60	65776
2026-01-06 01:39:10.84	194.52	2.13	-49.9	-62.9	3.5	1.52e+00	0	31	104	0	60	65904
2026-01-06 01:39:11.86	194.57	2.19	-49.9	-62.9	3.5	1.52e+00	0	31	104	0	60	65812
2026-01-06 01:39:12.87	194.63	2.25	-49.9	-62.8	3.5	1.52e+00	0	31	104	0	60	65350
2026-01-06 01:39:13.88	194.68	2.31	-49.9	-62.9	3.5	1.52e+00	0	31	104	0	60	65966
2026-01-06 01:39:14.89	194.73	2.37	-49.9	-62.9	3.5	1.52e+00	0	31	104	0	60	66178
2026-01-06 01:39:15.90	194.79	2.43	-49.9	-62.9	3.5	1.52e+00	0	31	104	0	60	66084
2026-01-06 01:39:16.91	194.84	2.50	-49.9	-62.5	3.5	1.52e+00	0	31	104	0	60	63233
2026-01-06 01:39:17.92	194.89	2.56	-49.8	-62.0	3.5	1.52e+00	0	31	104	0	60	59333
2026-01-06 01:39:18.93	194.95	2.62	-49.8	-61.3	3.5	1.51e+00	0	31	104	0	60	55227
2026-01-06 01:39:19.94	195.00	2.68	-49.8	-61.2	3.5	1.51e+00	0	31	104	0	60	54311
2026-01-06 01:39:20.95	195.06	2.74	-49.8	-61.2	3.5	1.51e+00	0	31	104	0	60	54539
2026-01-06 01:39:21.97	195.11	2.80	-49.8	-62.1	3.5	1.51e+00	0	31	104	0	60	60305
2026-01-06 01:39:22.98	195.17	2.86	-49.8	-61.9	3.5	1.52e+00	0	31	104	0	60	59240
2026-01-06 01:39:23.99	195.23	2.93	-49.5	-58.7	4.6	1.47e+00	100	31	104	0	60	40741
2026-01-06 01:39:25.00	195.28	2.99	-48.7	-55.0	7.4	2.36e-01	123	31	104	0	60	26687
2026-01-06 01:39:26.01	195.34	3.05	-47.2	-50.7	11.3	4.02e-03	120	31	0	0	60	16227
2026-01-06 01:39:27.02	195.39	3.11	-45.9	-48.5	13.7	2.67e-05	123	31	102	1048576	60	12605
2026-01-06 01:39:28.03	195.45	3.17	-44.7	-46.9	15.5	0.00e+00	123	31	102	1048576	60	10422
2026-01-06 01:39:29.04	195.51	3.24	-43.5	-45.2	17.1	0.00e+00	123	31	102	1048576	60	8646
2026-01-06 01:39:30.05	195.56	3.30	-43.1	-44.8	17.4	0.00e+00	123	31	102	1048576	60	8188
2026-01-06 01:39:31.06	195.62	3.36	-42.8	-44.4	17.8	0.00e+00	123	31	102	1048576	60	7873
2026-01-06 01:39:32.08	195.68	3.43	-42.8	-44.3	17.8	0.00e+00	122	31	102	1048576	60	7806
2026-01-06 01:39:33.09	195.74	3.49	-47.9	-51.9	10.3	1.50e-06	120	31	102	1048576	60	18646
2026-01-06 01:39:34.10	195.79	3.55	-49.7	-61.0	3.6	3.17e-01	4	31	104	1048576	60	52878
2026-01-06 01:39:35.11	195.85	3.61	-41.2	-42.8	5.2	1.23e+00	0	31	104	1048576	60	6567
2026-01-06 01:39:36.12	195.91	3.68	-47.8	-51.8	8.9	3.80e-06	123	31	0	1048576	60	18349
2026-01-06 01:39:37.13	195.97	3.74	-44.7	-46.9	14.8	0.00e+00	122	31	0	1048576	60	10423
2026-01-06 01:39:38.14	196.03	3.80	-42.4	-43.8	18.5	0.00e+00	122	31	0	1048576	60	7350
2026-01-06 01:39:39.15	196.09	3.87	-42.0	-43.3	19.0	0.00e+00	120	31	0	1048576	60	6959
2026-01-06 01:39:40.17	196.14	3.93	-42.0	-43.4	18.9	0.00e+00	123	31	0	1048576	60	6975
2026-01-06 01:39:41.18	196.20	4.00	-41.3	-42.6	19.7	0.00e+00	122	31	0	1048576	60	6396
2026-01-06 01:39:42.19	196.26	4.06	-41.3	-42.6	19.6	0.00e+00	123	31	0	1048576	60	6400
2026-01-06 01:39:43.19	196.32	4.12	-41.4	-42.7	19.6	0.00e+00	123	31	0	1048576	60	6461
2026-01-06 01:39:44.21	196.38	4.19	-41.4	-42.7	19.4	0.00e+00	123	31	0	1048576	60	6488
2026-01-06 01:39:45.22	196.44	4.25	-41.1	-42.4	19.8	0.00e+00	120	31	0	1048576	60	6224
2026-01-06 01:39:46.23	196.51	4.32	-41.1	-42.4	20.0	0.00e+00	123	31	0	1048576	60	6229
2026-01-06 01:39:47.24	196.57	4.38	-40.5	-41.7	20.5	0.00e+00	122	31	101	1048576	60	5786
2026-01-06 01:39:48.25	196.63	4.45	-40.7	-41.9	20.4	0.00e+00	123	31	101	1048576	60	5868
2026-01-06 01:39:49.26	196.69	4.51	-40.5	-41.7	20.6	0.00e+00	123	31	101	1048576	60	5733
2026-01-06 01:39:50.27	196.75	4.58	-40.5	-41.7	20.5	0.00e+00	123	31	101	1048576	60	5750
2026-01-06 01:39:51.28	196.81	4.64	-40.4	-41.6	20.6	0.00e+00	123	31	101	1048576	60	5686
2026-01-06 01:39:52.29	196.87	4.71	-40.6	-41.8	20.4	0.00e+00	123	31	101	1048576	60	5821
2026-01-06 01:39:53.30	196.94	4.77	-40.8	-42.0	20.4	0.00e+00	122	31	101	1048576	60	5981
2026-01-06 01:39:54.32	197.00	4.84	-41.1	-42.4	20.0	0.00e+00	122	31	101	1048576	60	6240
2026-01-06 01:39:55.33	197.06	4.91	-40.3	-41.5	20.9	0.00e+00	123	31	101	1048576	60	5609
2026-01-06 01:39:56.34	197.13	4.97	-39.9	-41.1	21.1	0.00e+00	121	31	101	1048576	58	6013
2026-01-06 01:39:57.35	197.19	5.04	-40.0	-41.1	21.1	0.00e+00	122	31	101	1048576	58	6024
2026-01-06 01:39:58.36	197.25	5.10	-39.9	-41.0	21.2	0.00e+00	120	31	101	1048576	58	5963
2026-01-06 01:39:59.37	197.32	5.17	-40.0	-41.1	21.1	0.00e+00	122	31	101	1048576	58	6035
2026-01-06 01:40:00.38	197.38	5.24	-39.8	-41.0	21.3	0.00e+00	120	31	101	1048576	58	5931
2026-01-06 01:40:01.39	197.45	5.30	-39.7	-40.9	21.3	0.00e+00	123	31	101	1048576	58	5863
2026-01-06 01:40:02.40	197.51	5.37	-39.9	-41.0	21.2	0.00e+00	123	31	101	1048576	58	5984
2026-01-06 01:40:03.41	197.58	5.44	-39.8	-40.9	21.4	0.00e+00	123	31	101	1048576	58	5886
2026-01-06 01:40:04.43	197.64	5.50	-39.9	-41.0	21.3	0.00e+00	120	31	101	1048576	58	5975
2026-01-06 01:40:05.44	197.71	5.57	-39.8	-40.9	21.4	0.00e+00	122	31	101	1048576	58	5877
2026-01-06 01:40:06.45	197.77	5.64	-39.8	-40.9	21.5	0.00e+00	120	31	101	1048576	58	5872
2026-01-06 01:40:07.46	197.84	5.71	-39.9	-41.0	21.3	0.00e+00	123	31	101	1048576	58	5974
2026-01-06 01:40:08.47	197.91	5.77	-39.9	-41.0	21.3	0.00e+00	122	31	101	1048576	58	5942
2026-01-06 01:40:09.48	197.97	5.84	-39.6	-40.7	21.6	0.00e+00	123	31	101	1048576	58	5758
2026-01-06 01:40:10.49	198.04	5.91	-39.7	-40.8	21.6	0.00e+00	123	31	101	1048576	58	5824
2026-01-06 01:40:11.50	198.11	5.98	-39.6	-40.7	21.7	0.00e+00	122	31	101	1048576	58	5736
2026-01-06 01:40:12.51	198.18	6.04	-39.6	-40.7	21.6	0.00e+00	120	31	101	1048576	58	5782
2026-01-06 01:40:13.52	198.25	6.11	-39.5	-40.6	21.7	0.00e+00	122	31	101	1048576	58	5709
2026-01-06 01:40:14.54	198.31	6.18	-39.5	-40.6	21.7	0.00e+00	123	31	101	1048576	58	5683
2026-01-06 01:40:15.54	198.38	6.25	-39.9	-41.0	21.4	0.00e+00	122	31	101	1048576	58	5955
2026-01-06 01:40:16.56	198.45	6.32	-39.5	-40.6	21.8	0.00e+00	122	31	101	1048576	58	5710
2026-01-06 01:40:17.57	198.52	6.39	-39.3	-40.4	21.8	0.00e+00	123	31	101	1048576	58	5565
2026-01-06 01:40:18.58	198.59	6.46	-39.5	-40.6	21.8	0.00e+00	123	31	101	1048576	58	5674
2026-01-06 01:40:19.59	198.66	6.53	-39.3	-40.4	21.9	0.00e+00	123	31	101	1048576	58	5564
2026-01-06 01:40:20.60	198.73	6.60	-39.5	-40.6	21.8	0.00e+00	120	31	101	1048576	58	5700
2026-01-06 01:40:21.61	198.80	6.67	-39.6	-40.7	21.7	0.00e+00	122	31	101	1048576	58	5741
2026-01-06 01:40:22.62	198.87	6.73	-39.4	-40.4	21.9	0.00e+00	123	31	101	1048576	58	5565
2026-01-06 01:40:23.63	198.94	6.80	-39.4	-40.4	22.0	0.00e+00	123	31	101	1048576	58	5583
2026-01-06 01:40:24.64	199.02	6.87	-39.5	-40.5	21.8	0.00e+00	123	31	101	1048576	58	5632
2026-01-06 01:40:25.65	199.09	6.94	-39.2	-40.3	22.1	0.00e+00	123	31	101	1048576	58	5484
2026-01-06 01:40:26.67	199.16	7.02	-39.1	-40.1	22.2	0.00e+00	122	31	101	1048576	56	6036
2026-01-06 01:40:27.68	199.23	7.09	-39.0	-40.0	22.2	0.00e+00	123	31	101	1048576	56	5980
2026-01-06 01:40:28.69	199.31	7.16	-39.2	-40.2	22.1	0.00e+00	122	31	101	1048576	56	6109
2026-01-06 01:40:29.70	199.38	7.23	-39.0	-40.1	22.2	0.00e+00	122	31	101	1048576	56	6023
2026-01-06 01:40:30.71	199.45	7.30	-39.0	-40.0	22.3	0.00e+00	123	31	101	1048576	56	5991
2026-01-06 01:40:31.72	199.53	7.37	-39.0	-40.0	22.3	0.00e+00	123	31	101	1048576	56	5958
2026-01-06 01:40:32.73	199.60	7.44	-38.9	-40.0	22.3	0.00e+00	123	31	101	1048576	56	5940
2026-01-06 01:40:33.74	199.68	7.51	-39.0	-40.0	22.3	0.00e+00	122	31	101	1048576	56	5971
2026-01-06 01:40:34.75	199.75	7.58	-38.9	-39.9	22.4	0.00e+00	123	31	101	1048576	56	5903
2026-01-06 01:40:35.77	199.83	7.66	-39.0	-40.1	22.4	0.00e+00	123	31	101	1048576	56	6011
2026-01-06 01:40:36.78	199.90	7.73	-39.0	-40.0	22.4	0.00e+00	123	31	101	1048576	56	5961
2026-01-06 01:40:37.79	199.98	7.80	-39.1	-40.1	22.4	0.00e+00	123	31	101	1048576	56	6024
2026-01-06 01:40:38.80	200.05	7.87	-38.9	-39.9	22.5	0.00e+00	123	31	101	1048576	56	5884
2026-01-06 01:40:39.81	200.13	7.94	-38.9	-39.9	22.5	0.00e+00	123	31	101	1048576	56	5871
2026-01-06 01:40:40.82	200.21	8.02	-38.9	-39.9	22.5	0.00e+00	123	31	101	1048576	56	5914
2026-01-06 01:40:41.83	200.29	8.09	-38.9	-39.9	22.5	0.00e+00	123	31	101	1048576	56	5899
2026-01-06 01:40:42.84	200.36	8.16	-38.8	-39.8	22.6	0.00e+00	123	31	101	1048576	56	5844
2026-01-06 01:40:43.85	200.44	8.23	-38.8	-39.8	22.6	0.00e+00	121	31	101	1048576	56	5808
2026-01-06 01:40:44.87	200.52	8.31	-38.8	-39.8	22.6	0.00e+00	122	31	101	1048576	56	5810
2026-01-06 01:40:45.88	200.60	8.38	-38.8	-39.8	22.6	0.00e+00	123	32	101	1048576	56	5844
2026-01-06 01:40:46.89	200.68	8.46	-38.7	-39.8	22.7	0.00e+00	123	31	101	1048576	56	5794
2026-01-06 01:40:47.90	200.76	8.53	-38.7	-39.7	22.7	0.00e+00	120	32	101	1048576	56	5771
2026-01-06 01:40:48.91	200.84	8.60	-38.7	-39.7	22.7	0.00e+00	123	32	101	1048576	56	5760
2026-01-06 01:40:49.92	200.92	8.68	-38.8	-39.9	22.6	0.00e+00	122	32	101	1048576	56	5860
2026-01-06 01:40:50.93	201.00	8.75	-38.8	-39.8	22.7	0.00e+00	120	31	101	1048576	56	5830
2026-01-06 01:40:51.94	201.08	8.83	-38.7	-39.7	22.7	0.00e+00	122	31	101	1048576	56	5788
2026-01-06 01:40:52.95	201.16	8.90	-38.6	-39.6	22.9	0.00e+00	120	31	101	1048576	56	5679
2026-01-06 01:40:53.96	201.24	8.97	-38.6	-39.6	22.8	0.00e+00	122	31	101	1048576	56	5689
2026-01-06 01:40:54.97	201.33	9.05	-38.6	-39.6	22.8	0.00e+00	123	31	101	1048576	56	5700
2026-01-06 01:40:55.98	201.41	9.12	-38.6	-39.5	22.9	0.00e+00	123	31	101	1048576	56	5659
2026-01-06 01:40:56.99	201.49	9.20	-38.6	-39.6	22.8	0.00e+00	123	31	101	1048576	56	5717
2026-01-06 01:40:58.00	201.58	9.27	-38.7	-39.7	22.8	0.00e+00	123	31	101	1048576	56	5756
2026-01-06 01:40:59.01	201.66	9.35	-38.8	-39.8	22.7	0.00e+00	120	31	101	1048576	56	5801
2026-01-06 01:41:00.03	201.75	9.43	-38.7	-39.7	22.8	0.00e+00	122	32	101	1048576	56	5768
2026-01-06 01:41:01.04	201.83	9.50	-38.5	-39.4	23.0	0.00e+00	123	32	101	1048576	56	5579
2026-01-06 01:41:02.05	201.92	9.58	-38.6	-39.6	22.8	0.00e+00	123	32	101	1048576	56	5661
2026-01-06 01:41:03.06	202.00	9.66	-38.5	-39.5	22.9	0.00e+00	123	32	101	1048576	56	5636
2026-01-06 01:41:04.07	202.09	9.73	-38.6	-39.6	22.8	0.00e+00	123	31	101	1048576	56	5687
2026-01-06 01:41:05.08	202.17	9.81	-38.6	-39.6	22.9	0.00e+00	120	32	101	1048576	56	5684
2026-01-06 01:41:06.09	202.26	9.89	-38.5	-39.5	23.0	0.00e+00	123	32	101	1048576	56	5597
2026-01-06 01:41:07.10	202.35	9.96	-38.4	-39.4	22.9	0.00e+00	123	32	101	1048576	56	5582
2026-01-06 01:41:08.11	202.44	10.04	-38.4	-39.4	23.1	0.00e+00	122	32	101	1048576	56	5532
2026-01-06 01:41:09.12	202.53	10.12	-38.3	-39.3	23.1	0.00e+00	122	32	101	1048576	56	5484
2026-01-06 01:41:10.13	202.61	10.19	-38.3	-39.3	23.1	0.00e+00	122	32	101	1048576	56	5484
2026-01-06 01:41:11.14	202.70	10.27	-38.4	-39.4	23.0	0.00e+00	122	32	101	1048576	56	5571
2026-01-06 01:41:12.15	202.79	10.35	-38.2	-39.2	23.2	0.00e+00	122	32	101	1048576	56	5431
2026-01-06 01:41:13.16	202.88	10.43	-38.4	-39.3	23.2	0.00e+00	123	32	101	1048576	56	5530
2026-01-06 01:41:14.17	202.97	10.51	-38.2	-39.2	23.2	0.00e+00	123	32	101	1048576	56	5407
2026-01-06 01:41:15.19	203.07	10.59	-38.1	-39.1	23.2	0.00e+00	123	32	101	1048576	54	6005
2026-01-06 01:41:16.20	203.16	10.66	-38.2	-39.2	23.1	0.00e+00	122	32	101	1048576	54	6088
2026-01-06 01:41:17.21	203.25	10.74	-38.3	-39.2	23.2	0.00e+00	120	32	101	1048576	54	6134
2026-01-06 01:41:18.22	203.34	10.82	-38.3	-39.2	23.2	0.00e+00	123	32	101	1048576	54	6125
2026-01-06 01:41:19.23	203.43	10.90	-38.0	-38.9	23.3	0.00e+00	123	32	101	1048576	54	5925
2026-01-06 01:41:20.24	203.53	10.98	-38.1	-39.0	23.3	0.00e+00	123	32	101	1048576	54	5987
2026-01-06 01:41:21.25	203.62	11.06	-38.1	-39.0	23.4	0.00e+00	123	32	101	1048576	54	5991
2026-01-06 01:41:22.26	203.72	11.14	-38.1	-39.1	23.3	0.00e+00	122	32	101	1048576	54	6012
2026-01-06 01:41:23.28	203.81	11.22	-38.1	-39.1	23.2	0.00e+00	121	32	101	1048576	54	6014
2026-01-06 01:41:24.29	203.91	11.30	-38.2	-39.2	23.2	0.00e+00	122	32	101	1048576	54	6086
2026-01-06 01:41:25.30	204.00	11.38	-38.1	-39.1	23.2	0.00e+00	122	32	101	1048576	54	6009
2026-01-06 01:41:26.31	204.10	11.46	-37.9	-38.9	23.5	0.00e+00	123	32	101	1048576	54	5864
2026-01-06 01:41:27.32	204.20	11.54	-38.0	-39.0	23.4	0.00e+00	123	32	101	1048576	54	5963
2026-01-06 01:41:28.33	204.29	11.62	-37.8	-38.7	23.5	0.00e+00	122	32	101	1048576	54	5771
2026-01-06 01:41:29.34	204.39	11.71	-37.7	-38.7	23.6	0.00e+00	122	32	101	1048576	54	5755
2026-01-06 01:41:30.35	204.49	11.79	-37.7	-38.6	23.6	0.00e+00	123	32	101	1048576	54	5712
2026-01-06 01:41:31.36	204.59	11.87	-37.7	-38.7	23.6	0.00e+00	123	32	101	1048576	54	5731
2026-01-06 01:41:32.37	204.69	11.95	-37.7	-38.6	23.6	0.00e+00	123	32	101	1048576	54	5722
2026-01-06 01:41:33.39	204.79	12.03	-37.7	-38.7	23.7	0.00e+00	122	32	101	1048576	54	5738
2026-01-06 01:41:34.40	204.89	12.12	-37.7	-38.7	23.6	0.00e+00	120	32	101	1048576	54	5737
2026-01-06 01:41:35.41	204.99	12.20	-37.8	-38.7	23.6	0.00e+00	123	32	101	1048576	54	5783
2026-01-06 01:41:36.42	205.09	12.28	-37.7	-38.6	23.6	0.00e+00	122	32	101	1048576	54	5716
2026-01-06 01:41:37.43	205.20	12.36	-37.5	-38.5	23.8	0.00e+00	123	32	101	1048576	54	5611
2026-01-06 01:41:38.44	205.30	12.45	-37.6	-38.5	23.8	0.00e+00	120	32	101	1048576	54	5631
2026-01-06 01:41:39.45	205.40	12.53	-37.6	-38.5	23.8	0.00e+00	122	32	101	1048576	54	5632
2026-01-06 01:41:40.46	205.51	12.61	-37.7	-38.7	23.7	0.00e+00	120	32	101	1048576	54	5726
2026-01-06 01:41:41.47	205.61	12.70	-37.5	-38.5	23.9	0.00e+00	122	32	101	1048576	54	5625
2026-01-06 01:41:42.48	205.72	12.78	-37.5	-38.4	23.8	0.00e+00	123	32	101	1048576	54	5577
2026-01-06 01:41:43.49	205.82	12.86	-37.4	-38.4	23.9	0.00e+00	123	32	101	1048576	54	5546
2026-01-06 01:41:44.51	205.93	12.95	-37.4	-38.4	23.8	0.00e+00	120	32	101	1048576	54	5539
2026-01-06 01:41:45.52	206.04	13.03	-37.4	-38.3	23.9	0.00e+00	122	32	101	1048576	54	5528
2026-01-06 01:41:46.53	206.14	13.12	-37.4	-38.4	23.9	0.00e+00	122	32	101	1048576	54	5543
2026-01-06 01:41:47.54	206.25	13.20	-37.4	-38.3	23.9	0.00e+00	122	32	101	1048576	54	5526
2026-01-06 01:41:48.55	206.36	13.29	-37.5	-38.4	23.8	0.00e+00	123	32	101	1048576	54	5577
2026-01-06 01:41:49.56	206.47	13.37	-37.5	-38.4	23.8	0.00e+00	123	32	101	1048576	54	5567
2026-01-06 01:41:50.57	206.58	13.46	-37.4	-38.4	23.8	0.00e+00	122	32	101	1048576	54	5555
2026-01-06 01:41:51.58	206.69	13.55	-37.4	-38.4	23.9	0.00e+00	123	32	101	1048576	54	5534
2026-01-06 01:41:52.59	206.80	13.63	-37.4	-38.3	23.9	0.00e+00	120	32	101	1048576	54	5521
2026-01-06 01:41:53.60	206.91	13.72	-37.5	-38.4	23.8	0.00e+00	122	32	101	1048576	54	5582
2026-01-06 01:41:54.61	207.02	13.80	-37.6	-38.5	23.8	0.00e+00	122	32	101	1048576	54	5637
2026-01-06 01:41:55.62	207.14	13.89	-37.4	-38.4	23.9	0.00e+00	123	32	101	1048576	54	5546
2026-01-06 01:41:56.63	207.25	13.98	-37.5	-38.4	23.9	0.00e+00	123	32	101	1048576	54	5575
2026-01-06 01:41:57.64	207.36	14.06	-37.5	-38.4	23.9	0.00e+00	120	32	101	1048576	54	5563
2026-01-06 01:41:58.65	207.48	14.15	-37.5	-38.4	23.8	0.00e+00	122	32	101	1048576	54	5589
2026-01-06 01:41:59.67	207.60	14.24	-37.4	-38.3	24.0	0.00e+00	120	32	101	1048576	54	5520
2026-01-06 01:42:00.67	207.71	14.33	-37.4	-38.4	23.9	0.00e+00	123	32	101	1048576	54	5549
2026-01-06 01:42:01.68	207.83	14.41	-37.3	-38.3	24.0	0.00e+00	120	32	101	1048576	54	5481
2026-01-06 01:42:02.70	207.95	14.50	-37.3	-38.3	24.0	0.00e+00	122	32	101	1048576	54	5470
2026-01-06 01:42:03.71	208.06	14.59	-37.3	-38.3	24.0	0.00e+00	120	32	101	1048576	54	5468
2026-01-06 01:42:04.72	208.18	14.68	-37.4	-38.4	23.9	0.00e+00	122	32	101	1048576	54	5534
2026-01-06 01:42:05.73	208.30	14.77	-37.4	-38.4	23.9	0.00e+00	120	32	101	1048576	54	5540
2026-01-06 01:42:06.74	208.42	14.86	-37.3	-38.3	24.0	0.00e+00	123	32	101	1048576	54	5480
2026-01-06 01:42:07.75	208.54	14.94	-37.4	-38.3	24.0	0.00e+00	120	32	101	1048576	54	5525
2026-01-06 01:42:08.76	208.67	15.03	-37.4	-38.4	24.0	0.00e+00	123	32	101	1048576	54	5548
2026-01-06 01:42:09.78	208.79	15.12	-37.3	-38.2	24.1	0.00e+00	120	32	101	1048576	54	5450
2026-01-06 01:42:10.79	208.91	15.21	-37.4	-38.3	24.1	0.00e+00	122	32	101	1048576	54	5501
2026-01-06 01:42:11.80	209.04	15.30	-37.4	-38.3	24.0	0.00e+00	122	32	101	1048576	54	5496
2026-01-06 01:42:12.81	209.16	15.39	-37.4	-38.4	24.0	0.00e+00	122	32	101	1048576	54	5531
2026-01-06 01:42:13.82	209.29	15.48	-37.5	-38.4	23.9	0.00e+00	123	32	101	1048576	54	5574
2026-01-06 01:42:14.83	209.41	15.57	-37.4	-38.3	24.0	0.00e+00	123	32	101	1048576	54	5528
2026-01-06 01:42:15.84	209.54	15.67	-37.5	-38.4	23.9	0.00e+00	122	32	101	1048576	54	5580
2026-01-06 01:42:16.85	209.66	15.76	-37.5	-38.4	23.9	0.00e+00	123	32	101	1048576	54	5571
2026-01-06 01:42:17.86	209.79	15.85	-37.5	-38.5	23.9	0.00e+00	123	32	101	1048576	54	5624
2026-01-06 01:42:18.87	209.92	15.94	-37.5	-38.4	23.9	0.00e+00	122	32	101	1048576	54	5562
2026-01-06 01:42:19.89	210.05	16.03	-37.5	-38.5	23.9	0.00e+00	123	32	101	1048576	54	5601
2026-01-06 01:42:20.89	210.18	16.12	-37.4	-38.3	24.0	0.00e+00	122	32	101	1048576	54	5527
2026-01-06 01:42:21.91	210.31	16.21	-37.5	-38.4	24.0	0.00e+00	123	32	101	1048576	54	5557
2026-01-06 01:42:22.92	210.45	16.31	-37.5	-38.4	24.0	0.00e+00	123	32	101	1048576	54	5551
2026-01-06 01:42:23.93	210.58	16.40	-37.4	-38.3	24.0	0.00e+00	123	32	101	1048576	54	5517
2026-01-06 01:42:24.94	210.71	16.49	-37.4	-38.3	24.0	0.00e+00	122	32	101	1048576	54	5513
2026-01-06 01:42:25.95	210.85	16.58	-37.4	-38.4	24.0	0.00e+00	120	32	101	1048576	54	5539
2026-01-06 01:42:26.96	210.98	16.68	-37.4	-38.3	24.1	0.00e+00	123	32	101	1048576	54	5506
2026-01-06 01:42:27.97	211.12	16.77	-37.5	-38.4	23.8	0.00e+00	123	32	101	1048576	54	5589
2026-01-06 01:42:28.98	211.25	16.86	-37.4	-38.3	24.0	0.00e+00	122	32	101	1048576	54	5500
2026-01-06 01:42:29.99	211.39	16.96	-37.4	-38.3	24.0	0.00e+00	123	32	101	1048576	54	5515
2026-01-06 01:42:31.00	211.53	17.05	-37.3	-38.3	24.0	0.00e+00	123	32	101	1048576	54	5480
2026-01-06 01:42:32.02	211.67	17.15	-37.3	-38.2	24.1	0.00e+00	120	32	101	1048576	54	5438
2026-01-06 01:42:33.03	211.81	17.24	-37.3	-38.2	24.1	0.00e+00	123	32	101	1048576	54	5416
2026-01-06 01:42:34.04	211.95	17.33	-37.4	-38.4	24.0	0.00e+00	123	32	101	1048576	54	5545
2026-01-06 01:42:35.05	212.09	17.43	-37.2	-38.1	24.2	0.00e+00	122	32	101	1048576	52	6058
2026-01-06 01:42:36.06	212.24	17.52	-37.2	-38.1	24.2	0.00e+00	123	32	101	1048576	52	6032
2026-01-06 01:42:37.07	212.38	17.62	-37.2	-38.1	24.2	0.00e+00	122	32	101	1048576	52	6053
2026-01-06 01:42:38.08	212.52	17.71	-37.3	-38.2	24.1	0.00e+00	123	32	101	1048576	52	6109
2026-01-06 01:42:39.09	212.67	17.81	-37.1	-38.0	24.3	0.00e+00	122	32	101	1048576	52	5970
2026-01-06 01:42:40.10	212.82	17.90	-37.2	-38.1	24.2	0.00e+00	122	32	101	1048576	52	6023
2026-01-06 01:42:41.11	212.96	18.00	-37.1	-38.0	24.2	0.00e+00	123	32	101	1048576	52	5986
2026-01-06 01:42:42.12	213.11	18.10	-37.3	-38.2	24.1	0.00e+00	123	32	101	1048576	52	6100
2026-01-06 01:42:43.13	213.26	18.19	-37.2	-38.2	24.2	0.00e+00	120	32	101	1048576	52	6073
2026-01-06 01:42:44.14	213.41	18.29	-37.1	-38.0	24.3	0.00e+00	122	32	101	1048576	52	5976
2026-01-06 01:42:45.15	213.56	18.39	-37.3	-38.2	24.1	0.00e+00	123	32	101	1048576	52	6120
2026-01-06 01:42:46.16	213.71	18.48	-37.1	-38.0	24.2	0.00e+00	123	32	101	1048576	52	5989
2026-01-06 01:42:47.18	213.87	18.58	-37.1	-38.0	24.2	0.00e+00	123	32	101	1048576	52	5980
2026-01-06 01:42:48.19	214.02	18.68	-37.1	-38.0	24.3	0.00e+00	122	32	101	1048576	52	5963
2026-01-06 01:42:49.20	214.17	18.77	-37.0	-37.9	24.3	0.00e+00	120	32	101	1048576	52	5905
2026-01-06 01:42:50.21	214.33	18.87	-37.0	-37.9	24.4	0.00e+00	122	32	101	1048576	52	5907
2026-01-06 01:42:51.22	214.49	18.97	-37.0	-37.9	24.4	0.00e+00	123	32	101	1048576	52	5891
2026-01-06 01:42:52.23	214.64	19.07	-37.0	-37.9	24.3	0.00e+00	120	32	101	1048576	52	5892
2026-01-06 01:42:53.24	214.80	19.17	-37.1	-38.0	24.3	0.00e+00	123	32	101	1048576	52	5974
2026-01-06 01:42:54.25	214.96	19.26	-37.0	-37.9	24.4	0.00e+00	122	32	101	1048576	52	5865
2026-01-06 01:42:55.26	215.12	19.36	-37.0	-37.9	24.4	0.00e+00	123	32	101	1048576	52	5880
2026-01-06 01:42:56.27	215.28	19.46	-37.1	-38.0	24.3	0.00e+00	123	32	101	1048576	52	5952
2026-01-06 01:42:57.28	215.44	19.56	-37.1	-38.0	24.3	0.00e+00	123	32	101	1048576	52	5956
2026-01-06 01:42:58.29	215.61	19.66	-37.0	-38.0	24.3	0.00e+00	122	32	101	1048576	52	5943
2026-01-06 01:42:59.30	215.77	19.76	-36.8	-37.7	24.5	0.00e+00	123	32	101	1048576	52	5738
2026-01-06 01:43:00.31	215.94	19.86	-36.8	-37.7	24.5	0.00e+00	122	32	101	1048576	52	5733
2026-01-06 01:43:01.32	216.10	19.96	-36.7	-37.6	24.5	0.00e+00	123	32	101	1048576	52	5694
2026-01-06 01:43:02.33	216.27	20.05	-36.5	-37.4	24.7	0.00e+00	122	32	101	1048576	52	5585
2026-01-06 01:43:03.34	216.44	20.15	-36.6	-37.5	24.7	0.00e+00	122	32	101	1048576	52	5602
2026-01-06 01:43:04.36	216.61	20.26	-36.6	-37.5	24.6	0.00e+00	120	32	101	1048576	52	5610
2026-01-06 01:43:05.37	216.78	20.35	-36.6	-37.5	24.6	0.00e+00	120	32	101	1048576	52	5654
2026-01-06 01:43:06.38	216.95	20.46	-36.5	-37.4	24.6	0.00e+00	123	32	101	1048576	52	5582
2026-01-06 01:43:07.39	217.13	20.56	-36.6	-37.5	24.5	0.00e+00	122	32	101	1048576	52	5636
2026-01-06 01:43:08.40	217.30	20.66	-36.4	-37.3	24.7	0.00e+00	122	32	101	1048576	52	5511
2026-01-06 01:43:09.41	217.48	20.76	-36.5	-37.4	24.6	0.00e+00	123	32	101	1048576	52	5561
2026-01-06 01:43:10.42	217.65	20.86	-36.3	-37.2	24.7	0.00e+00	122	32	101	1048576	52	5464
2026-01-06 01:43:11.43	217.83	20.96	-36.4	-37.3	24.7	0.00e+00	123	32	101	1048576	52	5499
2026-01-06 01:43:12.44	218.01	21.06	-36.2	-37.1	25.0	0.00e+00	122	32	101	1048576	52	5355
2026-01-06 01:43:13.45	218.19	21.16	-36.2	-37.1	24.9	0.00e+00	122	32	101	1048576	52	5352
2026-01-06 01:43:14.46	218.37	21.26	-36.1	-37.0	25.0	0.00e+00	123	32	101	1048576	50	5963
2026-01-06 01:43:15.47	218.55	21.36	-36.1	-37.0	25.0	0.00e+00	122	32	101	1048576	50	5930
2026-01-06 01:43:16.48	218.73	21.46	-36.1	-37.0	24.9	0.00e+00	123	32	101	1048576	50	5989
2026-01-06 01:43:17.49	218.92	21.57	-36.2	-37.1	24.8	0.00e+00	123	32	101	1048576	50	6027
2026-01-06 01:43:18.50	219.10	21.67	-36.1	-37.0	24.9	0.00e+00	123	32	101	1048576	50	5936
2026-01-06 01:43:19.52	219.29	21.77	-36.1	-37.0	25.0	0.00e+00	123	32	101	1048576	50	5974
2026-01-06 01:43:20.53	219.48	21.87	-35.9	-36.8	25.2	0.00e+00	123	32	101	1048576	50	5837
2026-01-06 01:43:21.54	219.67	21.97	-35.9	-36.8	25.1	0.00e+00	123	32	101	1048576	50	5834
2026-01-06 01:43:22.55	219.86	22.08	-35.8	-36.6	25.3	0.00e+00	122	32	101	1048576	50	5723
2026-01-06 01:43:23.56	220.05	22.18	-35.7	-36.6	25.4	0.00e+00	122	32	101	1048576	50	5664
2026-01-06 01:43:24.57	220.24	22.28	-35.7	-36.6	25.2	0.00e+00	122	32	101	1048576	50	5698
2026-01-06 01:43:25.58	220.43	22.38	-35.8	-36.6	25.2	0.00e+00	123	32	101	1048576	50	5717
2026-01-06 01:43:26.59	220.63	22.48	-35.7	-36.5	25.2	0.00e+00	127	32	101	1048576	50	5650
2026-01-06 01:43:27.60	220.83	22.59	-35.9	-36.7	25.1	0.00e+00	121	32	101	1048576	50	5783
2026-01-06 01:43:28.61	221.02	22.69	-35.8	-36.6	25.3	0.00e+00	123	32	101	1048576	50	5715
2026-01-06 01:43:29.62	221.22	22.79	-35.8	-36.7	25.2	0.00e+00	123	32	101	1048576	50	5756
2026-01-06 01:43:30.63	221.42	22.89	-35.8	-36.7	25.2	0.00e+00	122	32	101	1048576	50	5757
2026-01-06 01:43:31.64	221.62	23.00	-35.7	-36.6	25.2	0.00e+00	123	32	101	1048576	50	5687
2026-01-06 01:43:32.65	221.83	23.10	-35.7	-36.6	25.1	0.00e+00	122	32	101	1048576	50	5702
2026-01-06 01:43:33.67	222.03	23.20	-35.7	-36.6	25.3	0.00e+00	123	32	101	1048576	50	5667
2026-01-06 01:43:34.68	222.24	23.31	-35.9	-36.8	25.1	0.00e+00	123	32	101	1048576	50	5802
2026-01-06 01:43:35.69	222.45	23.41	-35.8	-36.6	25.2	0.00e+00	123	32	101	1048576	50	5723
2026-01-06 01:43:36.70	222.65	23.51	-35.9	-36.8	25.2	0.00e+00	123	32	101	1048576	50	5815
2026-01-06 01:43:37.71	222.86	23.62	-35.7	-36.6	25.2	0.00e+00	123	32	101	1048576	50	5695
2026-01-06 01:43:38.72	223.07	23.72	-35.8	-36.7	25.2	0.00e+00	123	32	101	1048576	50	5740
2026-01-06 01:43:39.73	223.29	23.82	-35.7	-36.5	25.2	0.00e+00	122	32	101	1048576	50	5656
2026-01-06 01:43:40.74	223.50	23.92	-35.7	-36.6	25.2	0.00e+00	122	32	101	1048576	50	5679
2026-01-06 01:43:41.75	223.71	24.03	-35.6	-36.5	25.2	0.00e+00	122	32	101	1048576	50	5637
2026-01-06 01:43:42.77	223.93	24.13	-35.7	-36.6	25.3	0.00e+00	122	32	101	1048576	50	5681
2026-01-06 01:43:43.78	224.15	24.23	-35.7	-36.6	25.2	0.00e+00	123	32	101	1048576	50	5680
2026-01-06 01:43:44.79	224.37	24.34	-35.7	-36.6	25.3	0.00e+00	122	32	101	1048576	50	5689
2026-01-06 01:43:45.80	224.59	24.44	-35.8	-36.7	25.3	0.00e+00	122	32	101	1048576	50	5757
2026-01-06 01:43:46.81	224.81	24.54	-35.9	-36.7	25.2	0.00e+00	122	32	101	1048576	50	5790
2026-01-06 01:43:47.82	225.03	24.65	-36.0	-36.9	25.1	0.00e+00	123	32	101	1048576	50	5896
2026-01-06 01:43:48.83	225.26	24.75	-36.0	-36.8	25.0	0.00e+00	120	32	101	1048576	50	5857
2026-01-06 01:43:49.84	225.48	24.85	-35.9	-36.7	25.2	0.00e+00	122	32	101	1048576	50	5787
2026-01-06 01:43:50.85	225.71	24.95	-36.1	-36.9	25.1	0.00e+00	123	32	101	1048576	50	5920
2026-01-06 01:43:51.86	225.94	25.06	-36.0	-36.8	25.1	0.00e+00	122	32	101	1048576	50	5847
2026-01-06 01:43:52.88	226.17	25.16	-36.0	-36.9	25.1	0.00e+00	120	32	101	1048576	50	5864
2026-01-06 01:43:53.89	226.40	25.26	-36.1	-37.0	25.1	0.00e+00	122	32	101	1048576	50	5946
2026-01-06 01:43:54.90	226.64	25.36	-36.2	-37.1	25.0	0.00e+00	122	32	101	1048576	50	6008
2026-01-06 01:43:55.91	226.87	25.47	-36.3	-37.2	24.9	0.00e+00	122	32	101	1048576	50	6071
2026-01-06 01:43:56.92	227.11	25.57	-36.4	-37.3	24.8	0.00e+00	120	32	101	1048576	50	6149
2026-01-06 01:43:57.93	227.35	25.67	-36.5	-37.4	24.7	0.00e+00	122	32	101	1048576	50	6266
2026-01-06 01:43:58.94	227.59	25.77	-36.6	-37.5	24.6	0.00e+00	123	32	101	1048576	50	6334
2026-01-06 01:43:59.95	227.83	25.87	-36.8	-37.7	24.6	0.00e+00	122	32	101	1048576	50	6441
2026-01-06 01:44:00.96	228.07	25.98	-36.7	-37.6	24.6	0.00e+00	123	32	101	1048576	50	6377
2026-01-06 01:44:01.97	228.31	26.08	-36.8	-37.8	24.6	0.00e+00	122	32	101	1048576	50	6510
2026-01-06 01:44:02.98	228.56	26.18	-36.7	-37.6	24.6	0.00e+00	122	32	101	1048576	50	6421
2026-01-06 01:44:03.99	228.80	26.28	-36.6	-37.5	24.7	0.00e+00	123	32	101	1048576	50	6346
2026-01-06 01:44:05.00	229.05	26.38	-36.4	-37.3	24.8	0.00e+00	122	32	101	1048576	50	6180
2026-01-06 01:44:06.01	229.30	26.48	-36.4	-37.3	24.8	0.00e+00	122	32	101	1048576	50	6198
2026-01-06 01:44:07.03	229.56	26.58	-36.4	-37.3	24.9	0.00e+00	123	32	101	1048576	50	6166
2026-01-06 01:44:08.04	229.81	26.68	-36.5	-37.4	24.8	0.00e+00	123	32	101	1048576	50	6213
2026-01-06 01:44:09.05	230.06	26.78	-36.5	-37.4	24.8	0.00e+00	123	32	101	1048576	50	6262
2026-01-06 01:44:10.06	230.32	26.88	-36.5	-37.4	24.7	0.00e+00	123	32	101	1048576	50	6220
2026-01-06 01:44:11.07	230.58	26.98	-36.6	-37.5	24.7	0.00e+00	123	32	101	1048576	50	6344
2026-01-06 01:44:12.08	230.84	27.08	-36.6	-37.5	24.7	0.00e+00	122	32	101	1048576	50	6290
2026-01-06 01:44:13.09	231.10	27.18	-36.7	-37.6	24.7	0.00e+00	122	32	101	1048576	50	6399
2026-01-06 01:44:14.10	231.36	27.28	-36.8	-37.7	24.5	0.00e+00	122	32	101	1048576	50	6473
2026-01-06 01:44:15.12	231.63	27.38	-36.9	-37.8	24.5	0.00e+00	120	32	101	1048576	50	6521
2026-01-06 01:44:16.13	231.89	27.48	-36.9	-37.8	24.5	0.00e+00	122	32	101	1048576	50	6544
2026-01-06 01:44:17.14	232.16	27.58	-37.0	-37.9	24.5	0.00e+00	122	32	101	1048576	50	6616
2026-01-06 01:44:18.15	232.43	27.67	-36.8	-37.7	24.6	0.00e+00	123	32	101	1048576	50	6439
2026-01-06 01:44:19.16	232.70	27.77	-36.7	-37.6	24.7	0.00e+00	123	32	101	1048576	50	6369
2026-01-06 01:44:20.17	232.97	27.87	-36.5	-37.4	24.7	0.00e+00	123	32	101	1048576	50	6260
2026-01-06 01:44:21.18	233.25	27.97	-36.5	-37.4	24.8	0.00e+00	123	32	101	1048576	50	6237
2026-01-06 01:44:22.19	233.52	28.06	-36.5	-37.4	24.7	0.00e+00	122	32	101	1048576	50	6254
2026-01-06 01:44:23.20	233.80	28.16	-36.7	-37.6	24.6	0.00e+00	122	32	101	1048576	50	6406
2026-01-06 01:44:24.21	234.08	28.25	-36.9	-37.8	24.5	0.00e+00	122	32	101	1048576	50	6535
2026-01-06 01:44:25.22	234.36	28.35	-37.0	-38.0	24.4	0.00e+00	122	32	101	1048576	50	6654
2026-01-06 01:44:26.24	234.64	28.44	-36.9	-37.9	24.4	0.00e+00	121	32	101	1048576	50	6583
2026-01-06 01:44:27.25	234.93	28.54	-37.0	-37.9	24.4	0.00e+00	123	32	101	1048576	50	6582
2026-01-06 01:44:28.26	235.21	28.63	-36.9	-37.8	24.4	0.00e+00	123	32	101	1048576	50	6573
2026-01-06 01:44:29.27	235.50	28.73	-36.9	-37.9	24.5	0.00e+00	123	32	101	1048576	50	6577
2026-01-06 01:44:30.28	235.79	28.82	-36.9	-37.8	24.5	0.00e+00	122	32	101	1048576	50	6556
2026-01-06 01:44:31.29	236.08	28.91	-36.9	-37.8	24.5	0.00e+00	122	32	101	1048576	50	6542
2026-01-06 01:44:32.30	236.37	29.00	-36.9	-37.9	24.4	0.00e+00	120	32	101	1048576	50	6582
2026-01-06 01:44:33.31	236.66	29.09	-36.9	-37.8	24.4	0.00e+00	123	32	101	1048576	50	6511
2026-01-06 01:44:34.32	236.96	29.19	-36.7	-37.6	24.6	0.00e+00	122	32	101	1048576	50	6417
2026-01-06 01:44:35.34	237.25	29.28	-36.9	-37.8	24.4	0.00e+00	123	32	101	1048576	50	6541
2026-01-06 01:44:36.35	237.55	29.37	-36.9	-37.8	24.5	0.00e+00	120	32	101	1048576	50	6515
2026-01-06 01:44:37.36	237.85	29.46	-37.0	-37.9	24.4	0.00e+00	122	32	101	1048576	50	6617
2026-01-06 01:44:38.37	238.15	29.55	-36.9	-37.9	24.5	0.00e+00	123	32	101	1048576	50	6580
2026-01-06 01:44:39.38	238.46	29.63	-37.0	-37.9	24.5	0.00e+00	122	32	101	1048576	50	6612
2026-01-06 01:44:40.39	238.76	29.72	-36.7	-37.6	24.6	0.00e+00	122	32	101	1048576	50	6420
2026-01-06 01:44:41.40	239.07	29.81	-36.9	-37.8	24.5	0.00e+00	122	32	101	1048576	50	6506
2026-01-06 01:44:42.41	239.38	29.90	-36.8	-37.7	24.5	0.00e+00	123	32	101	1048576	50	6437
2026-01-06 01:44:43.42	239.69	29.98	-36.6	-37.5	24.7	0.00e+00	122	32	101	1048576	50	6296
2026-01-06 01:44:44.43	240.00	30.07	-36.4	-37.3	24.9	0.00e+00	123	32	101	1048576	50	6187
2026-01-06 01:44:45.44	240.31	30.15	-36.5	-37.4	24.8	0.00e+00	124	32	101	1048576	50	6246
2026-01-06 01:44:46.46	240.63	30.24	-36.6	-37.4	24.8	0.00e+00	123	32	101	1048576	50	6274
2026-01-06 01:44:47.47	240.94	30.32	-36.5	-37.4	24.8	0.00e+00	123	32	101	1048576	50	6258
2026-01-06 01:44:48.48	241.26	30.40	-36.4	-37.3	24.9	0.00e+00	122	32	101	1048576	50	6171
2026-01-06 01:44:49.49	241.58	30.48	-36.4	-37.3	24.9	0.00e+00	122	32	101	1048576	50	6183
2026-01-06 01:44:50.50	241.90	30.56	-36.4	-37.3	24.8	0.00e+00	123	32	101	1048576	50	6174
2026-01-06 01:44:51.51	242.22	30.64	-36.4	-37.3	24.9	0.00e+00	122	32	101	1048576	50	6180
2026-01-06 01:44:52.52	242.55	30.72	-36.6	-37.5	24.8	0.00e+00	123	32	101	1048576	50	6286
2026-01-06 01:44:53.53	242.87	30.80	-36.6	-37.5	24.8	0.00e+00	123	32	101	1048576	50	6307
2026-01-06 01:44:54.54	243.20	30.88	-36.8	-37.7	24.5	0.00e+00	123	32	101	1048576	50	6468
2026-01-06 01:44:55.55	243.53	30.96	-36.9	-37.8	24.5	0.00e+00	122	32	101	1048576	50	6570
2026-01-06 01:44:56.56	243.86	31.03	-37.0	-37.9	24.5	0.00e+00	123	32	101	1048576	50	6575
2026-01-06 01:44:57.58	244.19	31.11	-36.7	-37.6	24.7	0.00e+00	120	32	101	1048576	50	6381
2026-01-06 01:44:58.59	244.52	31.18	-36.7	-37.6	24.6	0.00e+00	123	32	101	1048576	50	6415
2026-01-06 01:44:59.60	244.86	31.26	-36.6	-37.5	24.7	0.00e+00	122	32	101	1048576	50	6294
2026-01-06 01:45:00.61	245.19	31.33	-36.9	-37.8	24.5	0.00e+00	123	32	101	1048576	50	6526
2026-01-06 01:45:01.62	245.53	31.40	-37.2	-38.1	24.3	0.00e+00	123	32	101	1048576	52	6035
2026-01-06 01:45:02.63	245.87	31.47	-37.3	-38.3	24.2	0.00e+00	123	32	101	1048576	52	6137
2026-01-06 01:45:03.64	246.21	31.54	-37.5	-38.4	24.0	0.00e+00	121	32	101	1048576	52	6259
2026-01-06 01:45:04.65	246.55	31.61	-37.6	-38.5	24.0	0.00e+00	123	32	101	1048576	52	6318
2026-01-06 01:45:05.67	246.90	31.68	-37.3	-38.2	24.3	0.00e+00	123	32	101	1048576	52	6116
2026-01-06 01:45:06.68	247.24	31.75	-37.2	-38.1	24.3	0.00e+00	123	32	101	1048576	52	6005
2026-01-06 01:45:07.69	247.59	31.82	-37.1	-38.0	24.2	0.00e+00	123	32	101	1048576	52	5973
2026-01-06 01:45:08.70	247.94	31.88	-37.1	-38.1	24.2	0.00e+00	122	32	101	1048576	52	5996
2026-01-06 01:45:09.71	248.29	31.95	-37.4	-38.4	24.1	0.00e+00	123	32	101	1048576	52	6212
2026-01-06 01:45:10.72	248.64	32.01	-37.6	-38.6	24.0	0.00e+00	123	32	101	1048576	52	6364
2026-01-06 01:45:11.73	248.99	32.07	-37.5	-38.5	24.0	0.00e+00	121	32	101	1048576	52	6279
2026-01-06 01:45:12.74	249.34	32.13	-37.6	-38.6	23.9	0.00e+00	122	32	101	1048576	52	6364
2026-01-06 01:45:13.75	249.70	32.19	-37.6	-38.5	24.0	0.00e+00	123	32	101	1048576	52	6342
2026-01-06 01:45:14.76	250.05	32.25	-37.6	-38.6	23.9	0.00e+00	123	32	101	1048576	52	6363
2026-01-06 01:45:15.78	250.41	32.31	-37.8	-38.7	23.6	0.00e+00	120	32	101	1048576	52	6487
2026-01-06 01:45:16.79	250.77	32.37	-37.8	-38.8	23.6	0.00e+00	123	32	101	1048576	52	6507
2026-01-06 01:45:17.80	251.13	32.42	-37.8	-38.8	23.7	0.00e+00	123	32	101	1048576	52	6523
2026-01-06 01:45:18.81	251.49	32.48	-37.6	-38.5	24.1	0.00e+00	123	32	101	1048576	52	6297
2026-01-06 01:45:19.82	251.85	32.53	-37.5	-38.4	24.1	0.00e+00	123	32	101	1048576	52	6256
2026-01-06 01:45:20.83	252.21	32.58	-37.2	-38.1	24.3	0.00e+00	122	32	101	1048576	52	6034
2026-01-06 01:45:21.84	252.58	32.64	-37.1	-38.0	24.3	0.00e+00	120	32	101	1048576	52	5987
2026-01-06 01:45:22.85	252.94	32.69	-37.2	-38.1	24.3	0.00e+00	123	32	101	1048576	52	6007
2026-01-06 01:45:23.86	253.31	32.73	-37.2	-38.1	24.3	0.00e+00	123	32	101	1048576	52	6061
2026-01-06 01:45:24.87	253.67	32.78	-37.2	-38.1	24.3	0.00e+00	123	32	101	1048576	52	6049
2026-01-06 01:45:25.88	254.04	32.83	-37.3	-38.2	24.2	0.00e+00	122	32	101	1048576	52	6094
2026-01-06 01:45:26.90	254.41	32.87	-37.2	-38.1	24.4	0.00e+00	120	32	101	1048576	52	6030
2026-01-06 01:45:27.91	254.78	32.92	-36.9	-37.7	24.6	0.00e+00	123	32	101	1048576	52	5787
2026-01-06 01:45:28.92	255.15	32.96	-37.0	-37.9	24.4	0.00e+00	120	32	101	1048576	52	5909
2026-01-06 01:45:29.93	255.53	33.00	-37.1	-38.1	24.3	0.00e+00	122	32	101	1048576	52	5998
2026-01-06 01:45:30.94	255.90	33.04	-37.3	-38.2	24.2	0.00e+00	123	32	101	1048576	52	6103
2026-01-06 01:45:31.95	256.27	33.08	-37.4	-38.3	24.2	0.00e+00	123	32	101	1048576	52	6173
2026-01-06 01:45:32.96	256.65	33.12	-37.4	-38.3	24.1	0.00e+00	120	32	101	1048576	52	6164
2026-01-06 01:45:33.97	257.02	33.16	-37.5	-38.4	24.1	0.00e+00	123	32	101	1048576	52	6229
2026-01-06 01:45:34.98	257.40	33.19	-37.5	-38.4	24.1	0.00e+00	123	32	101	1048576	52	6215
2026-01-06 01:45:35.99	257.78	33.22	-37.5	-38.5	24.1	0.00e+00	122	32	101	1048576	52	6293
2026-01-06 01:45:37.00	258.15	33.26	-37.7	-38.6	24.0	0.00e+00	119	32	101	1048576	52	6415
2026-01-06 01:45:38.02	258.54	33.29	-37.6	-38.5	24.0	0.00e+00	123	32	101	1048576	52	6313
2026-01-06 01:45:39.03	258.92	33.32	-37.5	-38.4	24.1	0.00e+00	122	32	101	1048576	52	6237
2026-01-06 01:45:40.04	259.30	33.35	-37.5	-38.4	24.1	0.00e+00	122	32	101	1048576	52	6245
2026-01-06 01:45:41.05	259.68	33.37	-37.3	-38.2	24.2	0.00e+00	120	32	101	1048576	52	6099
2026-01-06 01:45:42.06	260.06	33.40	-37.4	-38.3	24.2	0.00e+00	122	32	101	1048576	52	6181
2026-01-06 01:45:43.07	260.44	33.42	-37.5	-38.4	24.1	0.00e+00	122	32	101	1048576	52	6246
2026-01-06 01:45:44.08	260.82	33.45	-37.4	-38.3	24.2	0.00e+00	123	32	101	1048576	52	6182
2026-01-06 01:45:45.09	261.20	33.47	-37.2	-38.1	24.3	0.00e+00	122	32	101	1048576	52	6005
2026-01-06 01:45:46.10	261.59	33.49	-37.3	-38.2	24.3	0.00e+00	122	32	101	1048576	52	6121
2026-01-06 01:45:47.11	261.97	33.51	-37.4	-38.3	24.1	0.00e+00	120	32	101	1048576	52	6172
2026-01-06 01:45:48.12	262.35	33.53	-37.3	-38.2	24.2	0.00e+00	123	32	101	1048576	52	6123
2026-01-06 01:45:49.14	262.74	33.54	-37.5	-38.4	24.0	0.00e+00	122	32	101	1048576	52	6232
2026-01-06 01:45:50.15	263.13	33.56	-37.7	-38.6	24.0	0.00e+00	123	32	101	1048576	52	6381
2026-01-06 01:45:51.16	263.51	33.57	-37.8	-38.7	23.9	0.00e+00	123	32	101	1048576	52	6471
2026-01-06 01:45:52.17	263.90	33.58	-37.8	-38.7	23.9	0.00e+00	122	32	101	1048576	52	6470
2026-01-06 01:45:53.18	264.28	33.59	-37.8	-38.7	23.9	0.00e+00	123	32	101	1048576	52	6486
2026-01-06 01:45:54.19	264.67	33.60	-37.9	-38.8	23.9	0.00e+00	122	32	101	1048576	52	6539
2026-01-06 01:45:55.20	265.05	33.61	-37.6	-38.6	24.0	0.00e+00	123	32	101	1048576	52	6355
2026-01-06 01:45:56.21	265.44	33.61	-37.5	-38.4	24.1	0.00e+00	123	32	101	1048576	52	6263
2026-01-06 01:45:57.22	265.83	33.62	-37.6	-38.6	24.1	0.00e+00	122	32	101	1048576	52	6371
2026-01-06 01:45:58.23	266.21	33.62	-37.7	-38.6	24.1	0.00e+00	120	32	101	1048576	52	6384
2026-01-06 01:45:59.25	266.60	33.62	-37.6	-38.5	24.1	0.00e+00	123	32	101	1048576	52	6306
2026-01-06 01:46:00.26	266.99	33.62	-37.5	-38.4	23.9	0.00e+00	120	32	101	1048576	52	6227
2026-01-06 01:46:01.27	267.37	33.62	-37.6	-38.5	24.1	0.00e+00	123	32	101	1048576	52	6315
2026-01-06 01:46:02.28	267.76	33.62	-37.7	-38.7	23.9	0.00e+00	120	32	101	1048576	52	6426
2026-01-06 01:46:03.29	268.15	33.62	-38.0	-38.9	23.7	0.00e+00	123	32	101	1048576	52	6600
2026-01-06 01:46:04.30	268.53	33.61	-38.1	-39.1	23.6	0.00e+00	123	32	101	1048576	54	5996
2026-01-06 01:46:05.31	268.92	33.61	-38.1	-39.1	23.6	0.00e+00	123	32	101	1048576	54	5997
2026-01-06 01:46:06.32	269.30	33.60	-38.3	-39.2	23.5	0.00e+00	123	32	101	1048576	54	6108
2026-01-06 01:46:07.33	269.69	33.59	-38.2	-39.1	23.6	0.00e+00	123	32	101	1048576	54	6061
2026-01-06 01:46:08.34	270.08	33.58	-37.9	-38.8	23.7	0.00e+00	123	32	101	1048576	54	5841
2026-01-06 01:46:09.35	270.46	33.56	-37.9	-38.8	23.7	0.00e+00	122	32	101	1048576	54	5853
2026-01-06 01:46:10.37	270.85	33.55	-37.9	-38.8	23.8	0.00e+00	120	32	101	1048576	54	5813
2026-01-06 01:46:11.38	271.23	33.54	-37.8	-38.7	23.9	0.00e+00	123	32	101	1048576	54	5747
2026-01-06 01:46:12.39	271.62	33.52	-37.4	-38.3	24.1	0.00e+00	123	32	101	1048576	54	5474
2026-01-06 01:46:13.40	272.00	33.50	-37.2	-38.1	24.3	0.00e+00	120	32	101	1048576	54	5401
2026-01-06 01:46:14.41	272.38	33.48	-37.2	-38.1	24.2	0.00e+00	122	32	101	1048576	54	5400
2026-01-06 01:46:15.42	272.77	33.46	-37.2	-38.1	24.3	0.00e+00	122	32	101	1048576	52	6027
2026-01-06 01:46:16.43	273.15	33.44	-37.2	-38.1	24.3	0.00e+00	123	32	101	1048576	52	6043
2026-01-06 01:46:17.44	273.53	33.42	-37.2	-38.1	24.3	0.00e+00	122	32	101	1048576	52	6043
2026-01-06 01:46:18.45	273.91	33.39	-37.3	-38.2	24.2	0.00e+00	123	32	101	1048576	52	6102
2026-01-06 01:46:19.47	274.30	33.36	-37.3	-38.2	24.2	0.00e+00	123	32	101	1048576	52	6102
2026-01-06 01:46:20.48	274.67	33.34	-37.5	-38.4	24.1	0.00e+00	123	32	101	1048576	52	6250
2026-01-06 01:46:21.49	275.05	33.31	-37.8	-38.7	23.9	0.00e+00	123	32	101	1048576	52	6478
2026-01-06 01:46:22.50	275.43	33.28	-37.7	-38.7	23.8	0.00e+00	123	32	101	1048576	52	6444
2026-01-06 01:46:23.51	275.81	33.25	-37.8	-38.8	23.7	0.00e+00	120	32	101	1048576	52	6518
2026-01-06 01:46:24.52	276.19	33.21	-37.9	-38.8	23.7	0.00e+00	122	32	101	1048576	52	6551
2026-01-06 01:46:25.53	276.56	33.18	-38.0	-39.0	23.8	0.00e+00	122	32	101	1048576	52	6669
2026-01-06 01:46:26.54	276.94	33.14	-37.9	-38.8	23.8	0.00e+00	123	32	101	1048576	52	6530
2026-01-06 01:46:27.55	277.31	33.11	-37.6	-38.5	23.9	0.00e+00	120	32	101	1048576	52	6320
2026-01-06 01:46:28.56	277.69	33.07	-37.7	-38.6	24.0	0.00e+00	122	32	101	1048576	52	6387
2026-01-06 01:46:29.58	278.06	33.03	-37.5	-38.5	24.1	0.00e+00	122	32	101	1048576	52	6287
2026-01-06 01:46:30.58	278.43	32.99	-37.6	-38.5	24.0	0.00e+00	123	32	101	1048576	52	6333
2026-01-06 01:46:31.60	278.81	32.95	-37.4	-38.4	24.0	0.00e+00	122	32	101	1048576	52	6219
2026-01-06 01:46:32.61	279.18	32.90	-37.4	-38.3	24.2	0.00e+00	123	32	101	1048576	52	6170
2026-01-06 01:46:33.62	279.55	32.86	-37.6	-38.5	24.1	0.00e+00	120	32	101	1048576	52	6286
2026-01-06 01:46:34.63	279.91	32.81	-37.3	-38.2	24.3	0.00e+00	123	32	101	1048576	52	6072
2026-01-06 01:46:35.64	280.28	32.77	-37.4	-38.3	24.2	0.00e+00	123	32	101	1048576	52	6178
2026-01-06 01:46:36.65	280.65	32.72	-37.5	-38.4	24.1	0.00e+00	123	32	101	1048576	52	6252
2026-01-06 01:46:37.66	281.01	32.67	-37.5	-38.4	24.1	0.00e+00	120	32	101	1048576	52	6237
2026-01-06 01:46:38.67	281.37	32.62	-37.5	-38.4	23.9	0.00e+00	122	32	101	1048576	52	6275
2026-01-06 01:46:39.68	281.74	32.57	-37.6	-38.5	23.8	0.00e+00	122	32	101	1048576	52	6337
2026-01-06 01:46:40.69	282.10	32.52	-37.6	-38.5	23.9	0.00e+00	122	32	101	1048576	52	6346
2026-01-06 01:46:41.70	282.46	32.46	-37.5	-38.5	23.8	0.00e+00	123	32	101	1048576	52	6311
2026-01-06 01:46:42.72	282.82	32.41	-37.5	-38.4	23.9	0.00e+00	122	32	101	1048576	52	6247
2026-01-06 01:46:43.73	283.18	32.35	-37.5	-38.4	24.0	0.00e+00	122	32	101	1048576	52	6233
2026-01-06 01:46:44.74	283.54	32.29	-37.1	-38.1	24.1	0.00e+00	122	32	101	1048576	52	6016
2026-01-06 01:46:45.75	283.89	32.24	-37.2	-38.1	24.0	0.00e+00	123	32	101	1048576	52	6062
2026-01-06 01:46:46.76	284.25	32.18	-37.4	-38.3	24.0	0.00e+00	122	32	101	1048576	52	6158
2026-01-06 01:46:47.77	284.60	32.12	-37.4	-38.3	24.1	0.00e+00	122	32	101	1048576	52	6182
2026-01-06 01:46:48.78	284.95	32.06	-37.3	-38.2	24.2	0.00e+00	123	32	101	1048576	52	6089
2026-01-06 01:46:49.79	285.30	31.99	-37.2	-38.1	24.2	0.00e+00	123	32	101	1048576	52	6053
2026-01-06 01:46:50.80	285.65	31.93	-37.1	-38.0	24.1	0.00e+00	122	32	101	1048576	52	5974
2026-01-06 01:46:51.81	286.00	31.87	-37.0	-38.0	24.1	0.00e+00	123	32	101	1048576	52	5929
2026-01-06 01:46:52.83	286.35	31.80	-37.1	-38.0	24.2	0.00e+00	120	32	101	1048576	52	5971
2026-01-06 01:46:53.84	286.69	31.73	-37.2	-38.1	24.2	0.00e+00	122	32	101	1048576	52	6049
2026-01-06 01:46:54.85	287.03	31.67	-37.3	-38.2	24.3	0.00e+00	123	32	101	1048576	52	6084
2026-01-06 01:46:55.86	287.37	31.60	-37.2	-38.1	24.3	0.00e+00	122	32	101	1048576	52	6035
2026-01-06 01:46:56.87	287.72	31.53	-37.4	-38.3	24.1	0.00e+00	123	32	101	1048576	52	6192
2026-01-06 01:46:57.88	288.05	31.46	-37.4	-38.3	24.1	0.00e+00	122	32	101	1048576	52	6204
2026-01-06 01:46:58.89	288.39	31.39	-37.2	-38.1	24.3	0.00e+00	122	32	101	1048576	52	6052
2026-01-06 01:46:59.90	288.73	31.31	-36.9	-37.8	24.5	0.00e+00	122	32	101	1048576	52	5843
2026-01-06 01:47:00.91	289.06	31.24	-37.0	-37.8	24.5	0.00e+00	120	32	101	1048576	52	5847
2026-01-06 01:47:01.92	289.40	31.17	-36.9	-37.8	24.5	0.00e+00	123	32	101	1048576	52	5812
2026-01-06 01:47:02.94	289.73	31.09	-36.8	-37.7	24.6	0.00e+00	123	32	101	1048576	52	5753
2026-01-06 01:47:03.95	290.06	31.02	-37.0	-37.9	24.4	0.00e+00	123	32	101	1048576	52	5897
2026-01-06 01:47:04.96	290.39	30.94	-37.0	-37.9	24.3	0.00e+00	122	32	101	1048576	52	5911
2026-01-06 01:47:05.97	290.72	30.86	-37.1	-37.9	24.3	0.00e+00	123	32	101	1048576	52	5925
2026-01-06 01:47:06.98	291.04	30.79	-37.3	-38.2	24.2	0.00e+00	120	32	101	1048576	52	6100
2026-01-06 01:47:07.99	291.36	30.71	-37.3	-38.2	24.2	0.00e+00	123	32	101	1048576	52	6110
2026-01-06 01:47:09.00	291.69	30.63	-37.1	-38.0	24.4	0.00e+00	122	32	101	1048576	52	5959
2026-01-06 01:47:10.01	292.01	30.55	-37.1	-38.0	24.4	0.00e+00	123	32	101	1048576	52	5961
2026-01-06 01:47:11.03	292.33	30.47	-37.0	-37.9	24.5	0.00e+00	120	32	101	1048576	52	5881
2026-01-06 01:47:12.03	292.64	30.39	-37.0	-38.0	24.4	0.00e+00	123	32	101	1048576	52	5929
2026-01-06 01:47:13.05	292.96	30.30	-36.7	-37.6	24.7	0.00e+00	123	32	101	1048576	52	5688
2026-01-06 01:47:14.06	293.28	30.22	-36.7	-37.6	24.6	7.00e-07	122	32	101	1048576	52	5717
2026-01-06 01:47:15.07	293.59	30.14	-36.8	-37.7	24.5	0.00e+00	122	32	101	1048576	52	5730
2026-01-06 01:47:16.08	293.90	30.05	-36.7	-37.6	24.7	0.00e+00	123	32	101	1048576	52	5685
2026-01-06 01:47:17.09	294.21	29.97	-36.8	-37.7	24.6	0.00e+00	123	32	101	1048576	52	5764
2026-01-06 01:47:18.10	294.52	29.88	-36.8	-37.7	24.6	0.00e+00	122	32	101	1048576	52	5776
2026-01-06 01:47:19.11	294.83	29.80	-36.9	-37.8	24.5	0.00e+00	120	32	101	1048576	52	5813
2026-01-06 01:47:20.12	295.13	29.71	-36.8	-37.7	24.5	0.00e+00	122	32	101	1048576	52	5752
2026-01-06 01:47:21.13	295.43	29.62	-36.9	-37.8	24.5	0.00e+00	123	32	101	1048576	52	5847
2026-01-06 01:47:22.14	295.74	29.53	-36.8	-37.7	24.6	0.00e+00	122	32	101	1048576	52	5752
2026-01-06 01:47:23.15	296.03	29.44	-36.6	-37.5	24.6	0.00e+00	123	32	101	1048576	52	5617
2026-01-06 01:47:24.17	296.34	29.35	-36.8	-37.7	24.6	0.00e+00	123	32	101	1048576	52	5734
2026-01-06 01:47:25.18	296.63	29.26	-36.5	-37.4	24.7	0.00e+00	122	32	101	1048576	52	5534
2026-01-06 01:47:26.19	296.93	29.17	-36.7	-37.6	24.6	0.00e+00	123	32	101	1048576	52	5669
2026-01-06 01:47:27.20	297.22	29.08	-37.0	-37.9	24.4	0.00e+00	122	32	101	1048576	52	5884
2026-01-06 01:47:28.21	297.51	28.99	-36.8	-37.7	24.6	0.00e+00	122	32	101	1048576	52	5781
2026-01-06 01:47:29.22	297.80	28.90	-36.8	-37.7	24.6	0.00e+00	123	32	101	1048576	52	5764
2026-01-06 01:47:30.23	298.09	28.81	-36.5	-37.4	24.8	0.00e+00	120	32	101	1048576	52	5566
2026-01-06 01:47:31.24	298.38	28.72	-36.4	-37.3	24.8	0.00e+00	123	32	101	1048576	52	5489
2026-01-06 01:47:32.25	298.66	28.62	-36.4	-37.3	24.6	0.00e+00	123	32	101	1048576	52	5506
2026-01-06 01:47:33.26	298.95	28.53	-36.4	-37.3	24.8	0.00e+00	122	32	101	1048576	52	5476
2026-01-06 01:47:34.28	299.23	28.44	-36.4	-37.3	24.7	0.00e+00	122	32	101	1048576	52	5486
2026-01-06 01:47:35.29	299.51	28.34	-36.4	-37.3	25.0	0.00e+00	123	32	101	1048576	52	5475
2026-01-06 01:47:36.30	299.79	28.25	-36.1	-36.9	25.1	0.00e+00	123	32	101	1048576	50	5906
2026-01-06 01:47:37.31	300.07	28.15	-36.0	-36.9	25.1	0.00e+00	123	32	101	1048576	50	5880
2026-01-06 01:47:38.32	300.34	28.06	-36.0	-36.8	25.2	0.00e+00	123	32	101	1048576	50	5848
2026-01-06 01:47:39.33	300.62	27.96	-36.2	-37.1	25.0	0.00e+00	123	32	101	1048576	50	6004
2026-01-06 01:47:40.34	300.89	27.86	-36.0	-36.8	25.3	0.00e+00	120	32	101	1048576	50	5847
2026-01-06 01:47:41.35	301.16	27.77	-35.9	-36.8	25.1	0.00e+00	123	32	101	1048576	50	5839
2026-01-06 01:47:42.37	301.43	27.67	-35.9	-36.7	25.2	0.00e+00	120	32	101	1048576	50	5763
2026-01-06 01:47:43.38	301.70	27.57	-36.0	-36.8	25.1	0.00e+00	122	32	101	1048576	50	5852
2026-01-06 01:47:44.39	301.96	27.48	-36.2	-37.1	24.9	0.00e+00	123	32	101	1048576	50	6024
2026-01-06 01:47:45.40	302.23	27.38	-36.2	-37.1	24.8	0.00e+00	123	32	101	1048576	50	6012
2026-01-06 01:47:46.41	302.49	27.28	-36.4	-37.3	24.8	0.00e+00	120	32	101	1048576	50	6200
2026-01-06 01:47:47.42	302.75	27.18	-36.3	-37.2	25.0	0.00e+00	122	32	101	1048576	50	6112
2026-01-06 01:47:48.43	303.01	27.08	-36.1	-36.9	25.1	0.00e+00	120	32	101	1048576	50	5915
2026-01-06 01:47:49.44	303.27	26.98	-35.8	-36.7	25.3	0.00e+00	122	32	101	1048576	50	5741
2026-01-06 01:47:50.45	303.53	26.88	-35.9	-36.7	25.3	0.00e+00	120	32	101	1048576	50	5771
2026-01-06 01:47:51.46	303.78	26.79	-35.9	-36.7	25.2	0.00e+00	123	32	101	1048576	50	5770
2026-01-06 01:47:52.47	304.03	26.69	-36.0	-36.8	25.2	0.00e+00	120	32	101	1048576	50	5844
2026-01-06 01:47:53.48	304.28	26.59	-35.8	-36.7	25.3	0.00e+00	123	32	101	1048576	50	5741
2026-01-06 01:47:54.50	304.54	26.49	-35.9	-36.8	25.1	0.00e+00	123	32	101	1048576	50	5831
2026-01-06 01:47:55.51	304.79	26.39	-36.1	-37.0	25.0	0.00e+00	123	32	101	1048576	50	5955
2026-01-06 01:47:56.51	305.03	26.29	-36.1	-36.9	25.1	0.00e+00	120	32	101	1048576	50	5917
2026-01-06 01:47:57.52	305.28	26.19	-36.2	-37.1	24.9	0.00e+00	123	32	101	1048576	50	6042
2026-01-06 01:47:58.54	305.52	26.08	-36.2	-37.1	24.9	0.00e+00	120	32	101	1048576	50	6052
2026-01-06 01:47:59.55	305.76	25.98	-36.1	-37.0	25.0	0.00e+00	122	32	101	1048576	50	5969
2026-01-06 01:48:00.56	306.01	25.88	-35.9	-36.8	25.2	0.00e+00	122	32	101	1048576	50	5837
2026-01-06 01:48:01.57	306.25	25.78	-35.9	-36.7	25.2	0.00e+00	122	32	101	1048576	50	5783
2026-01-06 01:48:02.58	306.48	25.68	-35.8	-36.7	25.2	0.00e+00	123	32	101	1048576	50	5750
2026-01-06 01:48:03.59	306.72	25.58	-36.0	-36.8	25.2	0.00e+00	123	32	101	1048576	50	5841
2026-01-06 01:48:04.60	306.95	25.48	-35.8	-36.7	25.3	0.00e+00	122	32	101	1048576	50	5727
2026-01-06 01:48:05.61	307.19	25.38	-35.8	-36.7	25.2	0.00e+00	123	32	101	1048576	50	5740
2026-01-06 01:48:06.62	307.42	25.27	-35.8	-36.7	25.3	0.00e+00	123	32	101	1048576	50	5736
2026-01-06 01:48:07.63	307.65	25.17	-35.9	-36.8	25.2	0.00e+00	123	32	101	1048576	50	5823
2026-01-06 01:48:08.64	307.88	25.07	-36.0	-36.9	25.1	0.00e+00	123	32	101	1048576	50	5861
2026-01-06 01:48:09.66	308.11	24.97	-35.9	-36.7	25.1	0.00e+00	120	32	101	1048576	50	5791
2026-01-06 01:48:10.67	308.34	24.87	-35.9	-36.8	25.2	0.00e+00	122	32	101	1048576	50	5831
2026-01-06 01:48:11.68	308.56	24.76	-36.0	-36.9	25.1	0.00e+00	123	32	101	1048576	50	5917
2026-01-06 01:48:12.69	308.78	24.66	-36.0	-36.9	25.0	0.00e+00	123	32	101	1048576	50	5924
2026-01-06 01:48:13.70	309.01	24.56	-36.1	-37.0	25.0	0.00e+00	123	32	101	1048576	50	5976
2026-01-06 01:48:14.71	309.23	24.46	-36.2	-37.1	25.0	0.00e+00	123	32	101	1048576	50	6045
2026-01-06 01:48:15.72	309.45	24.36	-36.3	-37.2	24.9	0.00e+00	120	32	101	1048576	50	6094
2026-01-06 01:48:16.73	309.66	24.25	-36.2	-37.1	24.9	0.00e+00	122	32	101	1048576	50	6017
2026-01-06 01:48:17.74	309.88	24.15	-36.3	-37.1	24.9	0.00e+00	123	32	101	1048576	50	6062
2026-01-06 01:48:18.75	310.09	24.05	-36.3	-37.1	25.0	0.00e+00	122	32	101	1048576	50	6061
2026-01-06 01:48:19.76	310.31	23.95	-36.4	-37.3	24.8	0.00e+00	123	32	101	1048576	50	6193
2026-01-06 01:48:20.78	310.52	23.84	-36.5	-37.4	24.7	0.00e+00	122	32	101	1048576	50	6236
2026-01-06 01:48:21.79	310.73	23.74	-36.4	-37.2	24.8	0.00e+00	123	32	101	1048576	50	6133
2026-01-06 01:48:22.80	310.94	23.64	-36.4	-37.3	24.9	0.00e+00	120	32	101	1048576	50	6142
2026-01-06 01:48:23.81	311.15	23.54	-36.3	-37.2	24.9	0.00e+00	123	32	101	1048576	50	6102
2026-01-06 01:48:24.82	311.36	23.44	-36.3	-37.2	24.9	0.00e+00	122	32	101	1048576	50	6115
2026-01-06 01:48:25.83	311.56	23.33	-36.4	-37.3	24.7	0.00e+00	123	32	101	1048576	50	6156
2026-01-06 01:48:26.84	311.77	23.23	-36.4	-37.3	24.8	0.00e+00	120	32	101	1048576	50	6151
2026-01-06 01:48:27.85	311.97	23.13	-36.3	-37.2	24.8	0.00e+00	122	32	101	1048576	50	6066
2026-01-06 01:48:28.86	312.17	23.03	-36.2	-37.1	24.9	0.00e+00	123	32	101	1048576	50	6023
2026-01-06 01:48:29.87	312.37	22.93	-36.2	-37.1	24.8	0.00e+00	123	32	101	1048576	50	6046
2026-01-06 01:48:30.88	312.57	22.82	-36.2	-37.1	24.9	0.00e+00	120	32	101	1048576	50	6010
2026-01-06 01:48:31.89	312.77	22.72	-36.2	-37.1	24.9	0.00e+00	123	32	101	1048576	50	5997
2026-01-06 01:48:32.91	312.97	22.62	-36.3	-37.2	24.8	0.00e+00	122	32	101	1048576	50	6116
2026-01-06 01:48:33.92	313.16	22.52	-36.2	-37.1	24.9	0.00e+00	122	32	101	1048576	50	5995
2026-01-06 01:48:34.93	313.36	22.42	-36.2	-37.1	24.9	0.00e+00	122	32	101	1048576	50	6028
2026-01-06 01:48:35.94	313.55	22.31	-36.3	-37.2	24.9	0.00e+00	122	32	101	1048576	50	6112
2026-01-06 01:48:36.95	313.74	22.21	-36.3	-37.1	24.8	0.00e+00	123	32	101	1048576	50	6044
2026-01-06 01:48:37.96	313.93	22.11	-36.1	-37.0	25.0	0.00e+00	123	32	101	1048576	50	5945
2026-01-06 01:48:38.97	314.12	22.01	-36.1	-37.0	25.0	0.00e+00	122	32	101	1048576	50	5968
2026-01-06 01:48:39.98	314.31	21.91	-36.1	-37.0	25.0	0.00e+00	120	32	101	1048576	50	5943
2026-01-06 01:48:40.99	314.50	21.81	-36.1	-36.9	24.9	0.00e+00	123	32	101	1048576	50	5918
2026-01-06 01:48:42.00	314.68	21.71	-36.2	-37.0	24.9	0.00e+00	122	32	101	1048576	50	5985
2026-01-06 01:48:43.01	314.87	21.61	-36.2	-37.1	24.9	0.00e+00	123	32	101	1048576	50	6045
2026-01-06 01:48:44.03	315.05	21.50	-36.4	-37.3	24.8	0.00e+00	123	32	101	1048576	50	6178
2026-01-06 01:48:45.04	315.24	21.40	-36.3	-37.2	24.8	0.00e+00	123	32	101	1048576	50	6095
2026-01-06 01:48:46.05	315.42	21.30	-36.4	-37.3	24.7	0.00e+00	122	32	101	1048576	50	6167
2026-01-06 01:48:47.06	315.60	21.20	-36.8	-37.7	24.5	0.00e+00	123	32	101	1048576	50	6466
2026-01-06 01:48:48.07	315.77	21.10	-36.8	-37.7	24.4	0.00e+00	122	32	101	1048576	50	6465
2026-01-06 01:48:49.08	315.95	21.00	-36.8	-37.7	24.4	0.00e+00	123	32	101	1048576	50	6452
2026-01-06 01:48:50.09	316.13	20.90	-36.8	-37.7	24.5	0.00e+00	122	32	101	1048576	50	6474
2026-01-06 01:48:51.10	316.30	20.80	-36.8	-37.7	24.5	0.00e+00	120	32	101	1048576	50	6458
2026-01-06 01:48:52.11	316.48	20.70	-36.9	-37.8	24.4	0.00e+00	123	32	101	1048576	50	6539
2026-01-06 01:48:53.12	316.65	20.60	-36.9	-37.8	24.5	0.00e+00	121	32	101	1048576	50	6510
2026-01-06 01:48:54.14	316.83	20.50	-36.9	-37.9	24.2	0.00e+00	123	32	101	1048576	52	5862
2026-01-06 01:48:55.15	317.00	20.40	-36.9	-37.9	24.4	0.00e+00	122	32	101	1048576	52	5875
2026-01-06 01:48:56.16	317.17	20.30	-36.7	-37.6	24.4	0.00e+00	123	32	101	1048576	52	5702
2026-01-06 01:48:57.17	317.34	20.21	-36.9	-37.8	24.5	0.00e+00	123	32	101	1048576	52	5839
2026-01-06 01:48:58.18	317.50	20.11	-36.8	-37.7	24.6	0.00e+00	122	32	101	1048576	52	5791
2026-01-06 01:48:59.19	317.67	20.01	-36.3	-37.2	24.8	0.00e+00	120	32	101	1048576	52	5440
2026-01-06 01:49:00.20	317.84	19.91	-36.2	-37.1	24.9	0.00e+00	123	32	101	1048576	52	5388
2026-01-06 01:49:01.21	318.00	19.81	-36.2	-37.1	24.8	0.00e+00	121	32	101	1048576	52	5392
2026-01-06 01:49:02.22	318.16	19.71	-36.3	-37.2	24.9	0.00e+00	123	32	101	1048576	52	5418
2026-01-06 01:49:03.24	318.33	19.61	-36.1	-37.0	25.0	0.00e+00	120	32	101	1048576	50	5935
2026-01-06 01:49:04.24	318.49	19.52	-36.1	-37.0	24.9	0.00e+00	123	32	101	1048576	50	5954
2026-01-06 01:49:05.26	318.65	19.42	-36.1	-37.0	24.9	0.00e+00	123	32	101	1048576	50	5952
2026-01-06 01:49:06.27	318.81	19.32	-36.1	-37.0	24.9	0.00e+00	123	32	101	1048576	50	5946
2026-01-06 01:49:07.28	318.97	19.22	-36.2	-37.1	24.9	0.00e+00	122	32	101	1048576	50	6026
2026-01-06 01:49:08.29	319.13	19.13	-36.2	-37.1	24.9	0.00e+00	123	32	101	1048576	50	6033
2026-01-06 01:49:09.30	319.28	19.03	-36.1	-36.9	25.0	0.00e+00	123	32	101	1048576	50	5909
2026-01-06 01:49:10.31	319.44	18.93	-36.2	-37.0	24.9	0.00e+00	120	32	101	1048576	50	5989
2026-01-06 01:49:11.32	319.59	18.84	-36.1	-36.9	24.9	0.00e+00	123	32	101	1048576	50	5922
2026-01-06 01:49:12.33	319.75	18.74	-36.1	-37.0	24.9	0.00e+00	123	32	101	1048576	50	5978
2026-01-06 01:49:13.34	319.90	18.64	-36.2	-37.0	24.8	0.00e+00	122	32	101	1048576	50	5991
2026-01-06 01:49:14.35	320.05	18.55	-36.1	-37.0	24.9	0.00e+00	121	32	101	1048576	50	5963
2026-01-06 01:49:15.36	320.20	18.45	-36.3	-37.2	24.7	0.00e+00	123	32	101	1048576	50	6089
2026-01-06 01:49:16.37	320.35	18.36	-36.3	-37.2	24.8	0.00e+00	120	32	101	1048576	50	6083
2026-01-06 01:49:17.38	320.50	18.26	-36.4	-37.3	24.6	0.00e+00	123	32	101	1048576	50	6135
2026-01-06 01:49:18.39	320.65	18.16	-36.2	-37.1	24.8	0.00e+00	120	32	101	1048576	50	6051
2026-01-06 01:49:19.40	320.80	18.07	-36.3	-37.2	24.7	0.00e+00	122	32	101	1048576	50	6088
2026-01-06 01:49:20.41	320.95	17.97	-36.3	-37.2	24.7	0.00e+00	123	32	101	1048576	50	6106
2026-01-06 01:49:21.43	321.09	17.88	-36.4	-37.3	24.6	0.00e+00	123	32	101	1048576	50	6149
2026-01-06 01:49:22.44	321.24	17.78	-36.4	-37.3	24.6	0.00e+00	122	32	101	1048576	50	6150
2026-01-06 01:49:23.45	321.38	17.69	-36.5	-37.4	24.5	0.00e+00	120	32	101	1048576	50	6258
2026-01-06 01:49:24.46	321.52	17.60	-36.4	-37.3	24.6	0.00e+00	122	32	101	1048576	50	6201
2026-01-06 01:49:25.47	321.67	17.50	-36.6	-37.6	24.5	0.00e+00	120	32	101	1048576	50	6354
2026-01-06 01:49:26.48	321.81	17.41	-36.4	-37.3	24.6	0.00e+00	123	32	101	1048576	50	6194
2026-01-06 01:49:27.49	321.95	17.31	-36.5	-37.4	24.5	0.00e+00	122	32	101	1048576	50	6226
2026-01-06 01:49:28.50	322.09	17.22	-36.6	-37.5	24.3	0.00e+00	123	32	101	1048576	50	6342
2026-01-06 01:49:29.51	322.23	17.13	-36.7	-37.5	24.5	0.00e+00	120	32	101	1048576	50	6347
2026-01-06 01:49:30.52	322.37	17.03	-36.8	-37.7	24.2	0.00e+00	123	32	101	1048576	50	6436
2026-01-06 01:49:31.53	322.50	16.94	-36.8	-37.7	24.4	0.00e+00	123	32	101	1048576	50	6482
2026-01-06 01:49:32.54	322.64	16.85	-37.0	-37.9	24.2	0.00e+00	120	32	101	1048576	50	6621
2026-01-06 01:49:33.56	322.78	16.76	-37.1	-38.1	24.2	0.00e+00	122	32	101	1048576	50	6741
2026-01-06 01:49:34.57	322.91	16.66	-36.8	-37.7	24.4	0.00e+00	122	32	101	1048576	50	6458
2026-01-06 01:49:35.58	323.04	16.57	-36.9	-37.8	24.3	0.00e+00	122	32	101	1048576	50	6527
2026-01-06 01:49:36.59	323.18	16.48	-36.9	-37.8	24.3	0.00e+00	123	32	101	1048576	50	6528
2026-01-06 01:49:37.60	323.31	16.39	-36.9	-37.8	24.4	0.00e+00	120	32	101	1048576	50	6510
2026-01-06 01:49:38.61	323.44	16.30	-37.1	-38.0	24.2	0.00e+00	123	32	101	1048576	50	6669
2026-01-06 01:49:39.62	323.57	16.21	-37.0	-37.9	24.2	0.00e+00	120	32	101	1048576	50	6592
2026-01-06 01:49:40.63	323.70	16.12	-37.1	-38.0	24.1	0.00e+00	123	32	101	1048576	50	6663
2026-01-06 01:49:41.64	323.83	16.02	-37.2	-38.1	24.1	0.00e+00	120	32	101	1048576	52	6023
2026-01-06 01:49:42.65	323.96	15.93	-37.2	-38.1	24.1	0.00e+00	122	32	101	1048576	52	6043
2026-01-06 01:49:43.67	324.09	15.84	-37.3	-38.3	23.9	0.00e+00	120	32	101	1048576	52	6143
2026-01-06 01:49:44.68	324.22	15.75	-37.4	-38.4	23.9	0.00e+00	122	32	101	1048576	52	6215
2026-01-06 01:49:45.69	324.34	15.66	-37.4	-38.3	23.9	0.00e+00	120	32	101	1048576	52	6175
2026-01-06 01:49:46.70	324.47	15.57	-37.5	-38.5	23.7	0.00e+00	122	32	101	1048576	52	6298
2026-01-06 01:49:47.71	324.59	15.48	-37.3	-38.2	24.0	0.00e+00	120	32	101	1048576	52	6105
2026-01-06 01:49:48.72	324.72	15.39	-37.5	-38.4	23.8	0.00e+00	123	32	101	1048576	52	6264
2026-01-06 01:49:49.73	324.84	15.30	-37.4	-38.4	23.8	0.00e+00	120	32	101	1048576	52	6223
2026-01-06 01:49:50.74	324.96	15.22	-37.6	-38.6	23.8	0.00e+00	122	32	101	1048576	52	6384
2026-01-06 01:49:51.75	325.09	15.13	-37.6	-38.6	23.6	0.00e+00	122	32	101	1048576	52	6363
2026-01-06 01:49:52.76	325.21	15.04	-37.8	-38.8	23.5	0.00e+00	122	32	101	1048576	52	6531
2026-01-06 01:49:53.77	325.33	14.95	-37.9	-38.8	23.5	0.00e+00	123	32	101	1048576	52	6546
2026-01-06 01:49:54.79	325.45	14.86	-37.9	-38.9	23.4	0.00e+00	122	32	101	1048576	52	6607
2026-01-06 01:49:55.80	325.57	14.77	-38.0	-38.9	23.4	0.00e+00	123	32	101	1048576	52	6644
2026-01-06 01:49:56.81	325.69	14.69	-38.0	-39.0	23.4	0.00e+00	122	32	101	1048576	52	6686
