passes_logs/2026/01/06/R4.6S_Anadyr_2ch/R4.6S_Anadyr_2ch__20260106_004756_NOAA_20_JPSS-1_rec.log

#Pass ID: 20260106_004756_NOAA 20 (JPSS-1)
#Satellite: NOAA 20 (JPSS-1)
#Configuration: NOAA 20
#almurnet v.1.7.20251203
#Start time: 2026-01-06 00:47:58

#Version: 2.2.20231116
#Station: R4.6S_Anadyr_2ch
#Location: 177.4865 lon 64.73178 lat
#TLE: 1 43013U 17073A   25350.93759711  .00000080  00000+0  58734-4 0  9994
#TLE: 2 43013  98.7603 287.1885 0002156  81.1496 278.9924 14.19526878418610

#Time	Az	El	Level	Level2	SNR	BER	BlckErr	Temp	State	Recorded	gain1	gain2
2026-01-06 00:47:58.48	170.92	0.11	-51.4	-66.4	3.5	1.51e+00	0	29	0	0	60	102282
2026-01-06 00:47:59.48	170.94	0.17	-51.3	-66.6	3.6	1.51e+00	0	30	104	0	60	104786
2026-01-06 00:48:00.50	170.97	0.23	-51.3	-66.7	3.6	1.51e+00	0	30	104	0	60	105316
2026-01-06 00:48:01.51	170.99	0.29	-51.3	-66.7	3.6	1.51e+00	0	30	104	0	60	105273
2026-01-06 00:48:02.52	171.01	0.35	-51.4	-66.7	3.6	1.51e+00	0	30	104	0	60	105745
2026-01-06 00:48:03.53	171.03	0.41	-51.4	-66.8	3.6	1.51e+00	0	30	104	0	60	106362
2026-01-06 00:48:04.54	171.05	0.47	-51.4	-66.8	3.6	1.51e+00	0	31	104	0	60	106211
2026-01-06 00:48:05.55	171.07	0.53	-51.4	-66.8	3.6	1.51e+00	0	31	104	0	60	106439
2026-01-06 00:48:06.56	171.09	0.59	-51.4	-66.8	3.6	1.51e+00	0	31	104	0	60	106368
2026-01-06 00:48:07.57	171.12	0.65	-51.3	-66.7	3.6	1.51e+00	0	31	104	0	60	105674
2026-01-06 00:48:08.58	171.14	0.71	-51.3	-66.6	3.6	1.51e+00	0	31	104	0	60	104607
2026-01-06 00:48:09.59	171.16	0.77	-51.2	-66.6	3.6	1.51e+00	0	31	104	0	60	104451
2026-01-06 00:48:10.60	171.18	0.84	-51.1	-66.5	3.6	1.51e+00	0	31	104	0	60	102468
2026-01-06 00:48:11.61	171.20	0.90	-51.0	-66.4	3.6	1.51e+00	0	31	104	0	60	101803
2026-01-06 00:48:12.62	171.22	0.96	-50.9	-66.3	3.6	1.51e+00	0	31	104	0	60	100158
2026-01-06 00:48:13.63	171.25	1.02	-50.5	-65.8	3.6	1.51e+00	0	31	104	0	60	95311
2026-01-06 00:48:14.64	171.27	1.08	-50.0	-65.3	3.6	1.51e+00	0	31	104	0	60	90253
2026-01-06 00:48:15.66	171.29	1.15	-50.0	-65.4	3.6	1.51e+00	0	31	104	0	60	90396
2026-01-06 00:48:16.67	171.31	1.21	-50.0	-65.4	3.6	1.51e+00	0	31	104	0	60	90465
2026-01-06 00:48:17.68	171.34	1.27	-50.0	-65.4	3.6	1.51e+00	0	31	104	0	60	90715
2026-01-06 00:48:18.69	171.36	1.33	-50.0	-65.4	3.6	1.51e+00	0	31	104	0	60	90300
2026-01-06 00:48:19.70	171.38	1.40	-50.0	-65.4	3.6	1.51e+00	0	31	104	0	60	90565
2026-01-06 00:48:20.71	171.40	1.46	-50.0	-65.3	3.6	1.51e+00	0	31	104	0	60	89926
2026-01-06 00:48:21.72	171.43	1.52	-50.0	-65.3	3.6	1.51e+00	0	31	104	0	60	89293
2026-01-06 00:48:22.73	171.45	1.59	-50.0	-65.2	3.6	1.51e+00	0	31	104	0	60	88668
2026-01-06 00:48:23.74	171.47	1.65	-50.0	-65.1	3.6	1.51e+00	0	31	104	0	60	87765
2026-01-06 00:48:24.75	171.50	1.71	-50.0	-65.0	3.6	1.51e+00	0	31	104	0	60	86762
2026-01-06 00:48:25.77	171.52	1.78	-50.0	-65.0	3.6	1.51e+00	0	31	104	0	60	86437
2026-01-06 00:48:26.78	171.54	1.84	-50.0	-65.0	3.6	1.51e+00	0	31	104	0	60	86985
2026-01-06 00:48:27.79	171.57	1.90	-50.0	-65.2	3.6	1.51e+00	0	31	104	0	60	88374
2026-01-06 00:48:28.80	171.59	1.97	-50.0	-65.3	3.6	1.51e+00	0	31	104	0	60	89500
2026-01-06 00:48:29.81	171.61	2.03	-50.0	-65.3	3.6	1.51e+00	0	31	104	0	60	89827
2026-01-06 00:48:30.82	171.64	2.10	-50.0	-65.4	3.6	1.51e+00	0	31	104	0	60	90653
2026-01-06 00:48:31.83	171.66	2.16	-50.0	-65.3	3.6	1.51e+00	0	31	104	0	60	89553
2026-01-06 00:48:32.84	171.68	2.22	-50.0	-65.2	3.5	1.51e+00	0	31	104	0	60	89063
2026-01-06 00:48:33.85	171.71	2.29	-50.0	-65.1	3.6	1.51e+00	0	31	104	0	60	88151
2026-01-06 00:48:34.86	171.73	2.35	-50.0	-65.0	3.6	1.51e+00	0	31	104	0	60	86713
2026-01-06 00:48:35.88	171.75	2.42	-50.0	-64.7	3.6	1.51e+00	0	31	104	0	60	84007
2026-01-06 00:48:36.89	171.78	2.48	-50.0	-64.4	3.6	1.51e+00	0	31	104	0	60	81325
2026-01-06 00:48:37.90	171.80	2.55	-49.9	-64.2	3.6	1.51e+00	0	31	104	0	60	79034
2026-01-06 00:48:38.91	171.83	2.61	-49.9	-64.0	3.6	1.51e+00	0	31	104	0	60	77034
2026-01-06 00:48:39.92	171.85	2.68	-50.0	-64.1	3.6	1.51e+00	0	31	104	0	60	78541
2026-01-06 00:48:40.93	171.88	2.75	-50.0	-64.5	3.6	1.51e+00	0	31	104	0	60	82030
2026-01-06 00:48:41.94	171.90	2.81	-50.0	-65.2	3.6	1.51e+00	0	31	104	0	60	88325
2026-01-06 00:48:42.95	171.92	2.88	-50.0	-65.2	3.6	1.51e+00	0	31	104	0	60	88868
2026-01-06 00:48:43.96	171.95	2.94	-49.9	-63.0	3.7	1.51e+00	0	31	104	0	60	68868
2026-01-06 00:48:44.97	171.97	3.01	-49.6	-58.5	5.5	9.92e-01	0	31	0	0	60	40917
2026-01-06 00:48:45.98	172.00	3.08	-49.0	-55.3	8.6	1.87e-01	0	31	102	1048576	60	28284
2026-01-06 00:48:47.00	172.02	3.14	-48.1	-52.6	11.6	3.37e-03	0	31	102	1048576	60	20763
2026-01-06 00:48:48.01	172.05	3.21	-47.2	-50.6	13.7	8.62e-05	0	31	102	1048576	60	16454
2026-01-06 00:48:49.02	172.07	3.28	-46.2	-48.9	15.5	2.20e-06	0	31	102	1048576	60	13647
2026-01-06 00:48:50.03	172.10	3.34	-45.6	-47.9	16.4	0.00e+00	0	31	102	1048576	60	12161
2026-01-06 00:48:51.04	172.13	3.41	-44.6	-46.5	17.8	0.00e+00	0	31	102	1048576	60	10342
2026-01-06 00:48:52.05	172.15	3.48	-44.4	-46.2	18.1	0.00e+00	0	31	102	1048576	60	9953
2026-01-06 00:48:53.06	172.18	3.55	-44.4	-46.2	18.3	0.00e+00	0	31	102	1048576	60	9917
2026-01-06 00:48:54.07	172.20	3.61	-44.3	-46.0	18.2	0.00e+00	0	31	102	1048576	60	9780
2026-01-06 00:48:55.08	172.23	3.68	-44.8	-46.7	17.5	0.00e+00	0	31	102	1048576	60	10589
2026-01-06 00:48:56.09	172.25	3.75	-47.2	-50.4	14.1	9.46e-05	0	31	102	1048576	60	16225
2026-01-06 00:48:57.10	172.28	3.82	-46.1	-48.7	16.6	0.00e+00	0	31	102	1048576	60	13319
2026-01-06 00:48:58.11	172.31	3.89	-50.0	-61.7	4.4	2.00e-02	0	31	102	1048576	60	59589
2026-01-06 00:48:59.13	172.33	3.96	-48.0	-52.0	14.2	2.87e-04	0	31	102	1048576	60	19402
2026-01-06 00:49:00.14	172.36	4.02	-49.9	-62.6	3.7	5.62e-01	0	31	104	1048576	60	66068
2026-01-06 00:49:01.15	172.39	4.09	-45.8	-48.2	16.1	2.52e-03	0	31	0	1048576	60	12555
2026-01-06 00:49:02.16	172.41	4.16	-45.5	-47.7	16.7	0.00e+00	0	31	0	1048576	60	11826
2026-01-06 00:49:03.17	172.44	4.23	-45.6	-47.9	16.9	0.00e+00	0	31	0	1048576	60	12061
2026-01-06 00:49:04.18	172.47	4.30	-44.8	-46.7	17.6	0.00e+00	0	31	0	1048576	60	10597
2026-01-06 00:49:05.19	172.49	4.37	-44.9	-46.9	18.0	0.00e+00	0	31	0	1048576	60	10763
2026-01-06 00:49:06.20	172.52	4.44	-43.9	-45.5	19.1	0.00e+00	0	31	0	1048576	60	9215
2026-01-06 00:49:07.21	172.55	4.51	-43.5	-45.0	19.4	0.00e+00	0	31	0	1048576	60	8648
2026-01-06 00:49:08.22	172.57	4.58	-43.0	-44.4	20.0	0.00e+00	0	31	0	1048576	60	8132
2026-01-06 00:49:09.23	172.60	4.65	-42.7	-44.1	20.4	0.00e+00	0	31	0	1048576	60	7817
2026-01-06 00:49:10.25	172.63	4.72	-42.7	-44.1	20.4	0.00e+00	0	31	0	1048576	60	7787
2026-01-06 00:49:11.26	172.66	4.79	-42.8	-44.1	20.5	0.00e+00	0	31	0	1048576	60	7841
2026-01-06 00:49:12.27	172.68	4.86	-42.4	-43.7	20.9	0.00e+00	0	31	0	1048576	60	7423
2026-01-06 00:49:13.28	172.71	4.93	-42.2	-43.5	21.0	0.00e+00	0	31	0	1048576	60	7264
2026-01-06 00:49:14.29	172.74	5.01	-42.2	-43.4	21.1	0.00e+00	0	31	0	1048576	60	7232
2026-01-06 00:49:15.30	172.77	5.08	-42.1	-43.4	21.2	0.00e+00	0	31	0	1048576	60	7177
2026-01-06 00:49:16.31	172.80	5.15	-42.1	-43.3	21.2	0.00e+00	0	31	0	1048576	60	7131
2026-01-06 00:49:17.32	172.82	5.22	-42.1	-43.3	21.2	0.00e+00	0	31	0	1048576	60	7158
2026-01-06 00:49:18.33	172.85	5.29	-42.2	-43.4	21.2	0.00e+00	0	31	0	1048576	60	7206
2026-01-06 00:49:19.34	172.88	5.36	-42.1	-43.3	21.3	0.00e+00	0	31	101	1048576	60	7121
2026-01-06 00:49:20.36	172.91	5.44	-42.2	-43.4	21.1	0.00e+00	0	31	101	1048576	60	7223
2026-01-06 00:49:21.37	172.94	5.51	-42.1	-43.3	21.3	0.00e+00	0	31	101	1048576	60	7122
2026-01-06 00:49:22.38	172.97	5.58	-42.1	-43.3	21.4	0.00e+00	0	31	101	1048576	60	7100
2026-01-06 00:49:23.39	173.00	5.66	-42.0	-43.2	21.4	0.00e+00	0	31	101	1048576	60	7012
2026-01-06 00:49:24.40	173.03	5.73	-41.9	-43.1	21.5	0.00e+00	0	31	101	1048576	60	6972
2026-01-06 00:49:25.41	173.06	5.80	-42.1	-43.3	21.3	0.00e+00	0	31	101	1048576	60	7152
2026-01-06 00:49:26.42	173.09	5.88	-42.1	-43.4	21.1	0.00e+00	0	31	101	1048576	60	7174
2026-01-06 00:49:27.43	173.11	5.95	-42.0	-43.2	21.3	0.00e+00	0	31	101	1048576	60	7059
2026-01-06 00:49:28.44	173.14	6.02	-42.0	-43.2	21.4	0.00e+00	0	31	101	1048576	60	7064
2026-01-06 00:49:29.45	173.17	6.10	-41.8	-42.9	21.7	0.00e+00	0	31	101	1048576	60	6804
2026-01-06 00:49:30.46	173.20	6.17	-41.9	-43.1	21.5	0.00e+00	0	31	101	1048576	60	6942
2026-01-06 00:49:31.48	173.23	6.25	-41.8	-43.0	21.6	0.00e+00	0	31	101	1048576	60	6850
2026-01-06 00:49:32.49	173.26	6.32	-41.9	-43.0	21.5	0.00e+00	0	31	101	1048576	60	6911
2026-01-06 00:49:33.50	173.30	6.40	-41.8	-42.9	21.7	0.00e+00	0	31	101	1048576	60	6803
2026-01-06 00:49:34.51	173.33	6.47	-41.8	-42.9	21.7	0.00e+00	0	31	101	1048576	60	6828
2026-01-06 00:49:35.52	173.36	6.55	-41.8	-42.9	21.8	0.00e+00	0	31	101	1048576	60	6824
2026-01-06 00:49:36.53	173.39	6.62	-41.8	-42.9	21.7	0.00e+00	0	31	101	1048576	60	6798
2026-01-06 00:49:37.54	173.42	6.70	-41.7	-42.8	21.9	0.00e+00	0	31	101	1048576	60	6727
2026-01-06 00:49:38.55	173.45	6.77	-41.8	-42.9	21.7	0.00e+00	0	31	101	1048576	60	6822
2026-01-06 00:49:39.56	173.48	6.85	-41.8	-42.9	21.7	0.00e+00	0	31	101	1048576	60	6838
2026-01-06 00:49:40.57	173.51	6.93	-41.7	-42.8	21.9	0.00e+00	0	31	101	1048576	60	6731
2026-01-06 00:49:41.58	173.54	7.00	-41.7	-42.8	21.9	0.00e+00	0	31	101	1048576	60	6718
2026-01-06 00:49:42.59	173.58	7.08	-41.6	-42.7	21.9	0.00e+00	0	31	101	1048576	60	6692
2026-01-06 00:49:43.61	173.61	7.16	-41.7	-42.8	21.9	0.00e+00	0	31	101	1048576	60	6709
2026-01-06 00:49:44.62	173.64	7.24	-41.7	-42.8	21.9	0.00e+00	0	31	101	1048576	60	6736
2026-01-06 00:49:45.63	173.67	7.31	-41.5	-42.6	22.2	0.00e+00	0	31	101	1048576	60	6557
2026-01-06 00:49:46.64	173.70	7.39	-41.6	-42.7	22.0	0.00e+00	0	31	101	1048576	60	6627
2026-01-06 00:49:47.65	173.74	7.47	-41.6	-42.7	21.9	0.00e+00	0	31	101	1048576	60	6676
2026-01-06 00:49:48.66	173.77	7.55	-41.6	-42.7	22.1	0.00e+00	0	31	101	1048576	60	6621
2026-01-06 00:49:49.67	173.80	7.63	-41.4	-42.5	22.2	0.00e+00	0	31	101	1048576	60	6525
2026-01-06 00:49:50.68	173.84	7.71	-41.4	-42.4	22.2	0.00e+00	0	31	101	1048576	60	6456
2026-01-06 00:49:51.69	173.87	7.78	-41.4	-42.5	22.1	0.00e+00	0	31	101	1048576	60	6519
2026-01-06 00:49:52.71	173.90	7.86	-41.4	-42.5	22.2	0.00e+00	0	31	101	1048576	60	6476
2026-01-06 00:49:53.72	173.94	7.94	-41.3	-42.3	22.3	0.00e+00	0	31	101	1048576	60	6388
2026-01-06 00:49:54.73	173.97	8.02	-41.4	-42.5	22.4	0.00e+00	0	31	101	1048576	60	6468
2026-01-06 00:49:55.74	174.00	8.10	-41.2	-42.2	22.4	0.00e+00	0	31	101	1048576	60	6300
2026-01-06 00:49:56.75	174.04	8.18	-41.3	-42.4	22.4	0.00e+00	0	31	101	1048576	60	6391
2026-01-06 00:49:57.76	174.07	8.26	-41.2	-42.3	22.5	0.00e+00	0	31	101	1048576	60	6324
2026-01-06 00:49:58.77	174.10	8.35	-41.1	-42.1	22.6	0.00e+00	0	31	101	1048576	60	6230
2026-01-06 00:49:59.78	174.14	8.43	-41.1	-42.1	22.6	0.00e+00	0	31	101	1048576	60	6242
2026-01-06 00:50:00.79	174.17	8.51	-41.1	-42.1	22.6	0.00e+00	0	31	101	1048576	60	6244
2026-01-06 00:50:01.80	174.21	8.59	-41.1	-42.1	22.7	0.00e+00	0	31	101	1048576	60	6208
2026-01-06 00:50:02.81	174.24	8.67	-41.1	-42.1	22.6	0.00e+00	0	31	101	1048576	60	6213
2026-01-06 00:50:03.82	174.28	8.75	-41.0	-42.0	22.7	0.00e+00	0	31	101	1048576	60	6116
2026-01-06 00:50:04.84	174.31	8.84	-40.9	-41.9	22.8	0.00e+00	0	31	101	1048576	60	6044
2026-01-06 00:50:05.85	174.35	8.92	-41.0	-42.0	22.8	0.00e+00	0	31	101	1048576	60	6161
2026-01-06 00:50:06.86	174.39	9.00	-40.8	-41.8	23.0	0.00e+00	0	31	101	1048576	60	6006
2026-01-06 00:50:07.87	174.42	9.08	-40.9	-41.9	22.7	0.00e+00	0	31	101	1048576	60	6098
2026-01-06 00:50:08.88	174.46	9.17	-41.0	-42.0	22.8	0.00e+00	0	31	101	1048576	60	6128
2026-01-06 00:50:09.89	174.49	9.25	-40.7	-41.7	23.0	0.00e+00	0	31	101	1048576	60	5928
2026-01-06 00:50:10.90	174.53	9.34	-40.8	-41.7	23.0	0.00e+00	0	31	101	1048576	60	5951
2026-01-06 00:50:11.91	174.57	9.42	-40.6	-41.6	23.1	0.00e+00	0	31	101	1048576	60	5859
2026-01-06 00:50:12.92	174.60	9.50	-40.8	-41.7	23.0	0.00e+00	0	31	101	1048576	60	5957
2026-01-06 00:50:13.93	174.64	9.59	-40.7	-41.7	23.1	0.00e+00	0	31	101	1048576	60	5908
2026-01-06 00:50:14.94	174.68	9.67	-40.6	-41.6	23.2	0.00e+00	0	31	101	1048576	60	5863
2026-01-06 00:50:15.95	174.72	9.76	-40.7	-41.6	23.1	0.00e+00	0	31	101	1048576	60	5879
2026-01-06 00:50:16.96	174.75	9.85	-40.7	-41.7	23.0	0.00e+00	0	31	101	1048576	60	5935
2026-01-06 00:50:17.97	174.79	9.93	-40.6	-41.6	23.2	0.00e+00	0	31	101	1048576	60	5865
2026-01-06 00:50:18.98	174.83	10.02	-40.7	-41.7	23.0	0.00e+00	0	31	101	1048576	60	5944
2026-01-06 00:50:19.99	174.87	10.10	-40.8	-41.8	23.0	0.00e+00	0	31	101	1048576	60	5982
2026-01-06 00:50:21.01	174.91	10.19	-40.7	-41.7	23.1	0.00e+00	0	31	101	1048576	60	5916
2026-01-06 00:50:22.02	174.94	10.28	-40.7	-41.6	23.0	0.00e+00	0	31	101	1048576	60	5892
2026-01-06 00:50:23.03	174.98	10.37	-40.6	-41.6	23.1	0.00e+00	0	31	101	1048576	60	5850
2026-01-06 00:50:24.04	175.02	10.45	-40.7	-41.7	23.1	0.00e+00	0	31	101	1048576	60	5918
2026-01-06 00:50:25.05	175.06	10.54	-40.7	-41.7	23.1	0.00e+00	0	31	101	1048576	60	5936
2026-01-06 00:50:26.06	175.10	10.63	-40.6	-41.6	23.2	0.00e+00	0	31	101	1048576	60	5854
2026-01-06 00:50:27.07	175.14	10.72	-40.7	-41.7	23.2	0.00e+00	0	31	101	1048576	60	5931
2026-01-06 00:50:28.08	175.18	10.81	-40.7	-41.6	23.1	0.00e+00	0	31	101	1048576	60	5893
2026-01-06 00:50:29.09	175.22	10.90	-40.7	-41.6	23.3	0.00e+00	0	31	101	1048576	60	5895
2026-01-06 00:50:30.11	175.26	10.99	-40.4	-41.4	23.4	0.00e+00	0	31	101	1048576	60	5729
2026-01-06 00:50:31.12	175.30	11.08	-40.7	-41.6	23.1	0.00e+00	0	31	101	1048576	60	5892
2026-01-06 00:50:32.13	175.34	11.17	-40.6	-41.6	23.3	0.00e+00	0	31	101	1048576	60	5834
2026-01-06 00:50:33.14	175.38	11.26	-40.6	-41.5	23.3	0.00e+00	0	31	101	1048576	60	5825
2026-01-06 00:50:34.15	175.43	11.35	-40.5	-41.4	23.4	0.00e+00	0	31	101	1048576	60	5758
2026-01-06 00:50:35.16	175.47	11.44	-40.5	-41.4	23.4	0.00e+00	0	31	101	1048576	60	5739
2026-01-06 00:50:36.17	175.51	11.53	-40.6	-41.5	23.3	0.00e+00	0	31	101	1048576	60	5807
2026-01-06 00:50:37.18	175.55	11.62	-40.4	-41.3	23.4	0.00e+00	0	31	101	1048576	60	5675
2026-01-06 00:50:38.19	175.59	11.71	-40.5	-41.5	23.4	0.00e+00	0	31	101	1048576	60	5767
2026-01-06 00:50:39.20	175.64	11.81	-40.3	-41.2	23.6	0.00e+00	0	31	101	1048576	60	5624
2026-01-06 00:50:40.21	175.68	11.90	-40.3	-41.2	23.6	0.00e+00	0	31	101	1048576	60	5587
2026-01-06 00:50:41.22	175.72	11.99	-40.3	-41.2	23.6	0.00e+00	0	31	101	1048576	60	5594
2026-01-06 00:50:42.23	175.76	12.09	-40.2	-41.1	23.7	0.00e+00	0	31	101	1048576	60	5564
2026-01-06 00:50:43.24	175.81	12.18	-40.3	-41.2	23.7	0.00e+00	0	31	101	1048576	60	5585
2026-01-06 00:50:44.25	175.85	12.27	-40.2	-41.1	23.7	0.00e+00	0	31	101	1048576	60	5546
2026-01-06 00:50:45.26	175.90	12.37	-40.3	-41.2	23.7	0.00e+00	0	31	101	1048576	60	5586
2026-01-06 00:50:46.28	175.94	12.47	-40.0	-40.9	23.8	0.00e+00	0	31	101	1048576	58	6078
2026-01-06 00:50:47.28	175.98	12.56	-40.1	-41.0	23.8	0.00e+00	0	31	101	1048576	58	6144
2026-01-06 00:50:48.30	176.03	12.66	-40.3	-41.2	23.6	0.00e+00	0	31	101	1048576	58	6307
2026-01-06 00:50:49.31	176.07	12.75	-40.4	-41.3	23.5	0.00e+00	0	31	101	1048576	58	6342
2026-01-06 00:50:50.32	176.12	12.85	-40.3	-41.2	23.6	0.00e+00	0	31	101	1048576	58	6260
2026-01-06 00:50:51.33	176.17	12.94	-40.0	-40.9	23.9	0.00e+00	0	31	101	1048576	58	6081
2026-01-06 00:50:52.34	176.21	13.04	-40.1	-41.0	23.8	0.00e+00	0	31	101	1048576	58	6149
2026-01-06 00:50:53.35	176.26	13.14	-40.1	-41.0	23.8	0.00e+00	0	31	101	1048576	58	6115
2026-01-06 00:50:54.36	176.30	13.24	-40.1	-41.0	23.7	0.00e+00	0	31	101	1048576	58	6155
2026-01-06 00:50:55.37	176.35	13.34	-40.1	-41.0	23.8	0.00e+00	0	31	101	1048576	58	6112
2026-01-06 00:50:56.38	176.40	13.43	-40.1	-41.0	23.8	0.00e+00	0	31	101	1048576	58	6162
2026-01-06 00:50:57.39	176.44	13.53	-40.2	-41.1	23.8	0.00e+00	0	31	101	1048576	58	6174
2026-01-06 00:50:58.40	176.49	13.63	-40.1	-41.0	23.8	0.00e+00	0	32	101	1048576	58	6162
2026-01-06 00:50:59.41	176.54	13.73	-40.2	-41.1	23.7	0.00e+00	0	31	101	1048576	58	6244
2026-01-06 00:51:00.42	176.59	13.83	-40.2	-41.1	23.7	0.00e+00	0	31	101	1048576	58	6243
2026-01-06 00:51:01.43	176.64	13.93	-40.2	-41.1	23.7	0.00e+00	0	31	101	1048576	58	6200
2026-01-06 00:51:02.44	176.69	14.03	-40.3	-41.2	23.5	0.00e+00	0	31	101	1048576	58	6299
2026-01-06 00:51:03.46	176.74	14.14	-40.2	-41.2	23.7	0.00e+00	0	31	101	1048576	58	6246
2026-01-06 00:51:04.47	176.78	14.24	-40.3	-41.2	23.6	0.00e+00	0	31	101	1048576	58	6281
2026-01-06 00:51:05.48	176.83	14.34	-40.3	-41.2	23.6	0.00e+00	0	31	101	1048576	58	6287
2026-01-06 00:51:06.49	176.88	14.44	-40.4	-41.4	23.6	0.00e+00	0	32	101	1048576	58	6395
2026-01-06 00:51:07.50	176.93	14.55	-40.4	-41.3	23.6	0.00e+00	0	31	101	1048576	58	6357
2026-01-06 00:51:08.51	176.99	14.65	-40.4	-41.4	23.5	0.00e+00	0	32	101	1048576	58	6398
2026-01-06 00:51:09.52	177.04	14.75	-40.3	-41.2	23.6	0.00e+00	0	32	101	1048576	58	6303
2026-01-06 00:51:10.53	177.09	14.86	-40.3	-41.3	23.5	0.00e+00	0	31	101	1048576	58	6331
2026-01-06 00:51:11.54	177.14	14.96	-40.4	-41.3	23.6	0.00e+00	0	31	101	1048576	58	6335
2026-01-06 00:51:12.55	177.19	15.07	-40.3	-41.3	23.6	0.00e+00	0	31	101	1048576	58	6330
2026-01-06 00:51:13.56	177.24	15.17	-40.3	-41.2	23.7	0.00e+00	0	31	101	1048576	58	6279
2026-01-06 00:51:14.57	177.30	15.28	-40.2	-41.1	23.7	0.00e+00	0	31	101	1048576	58	6238
2026-01-06 00:51:15.59	177.35	15.39	-40.4	-41.3	23.6	0.00e+00	0	31	101	1048576	58	6343
2026-01-06 00:51:16.60	177.40	15.49	-40.3	-41.2	23.7	0.00e+00	0	31	101	1048576	58	6293
2026-01-06 00:51:17.61	177.46	15.60	-40.4	-41.3	23.7	0.00e+00	0	31	101	1048576	58	6360
2026-01-06 00:51:18.62	177.51	15.71	-40.4	-41.3	23.6	0.00e+00	0	31	101	1048576	58	6344
2026-01-06 00:51:19.63	177.57	15.82	-40.3	-41.2	23.7	0.00e+00	0	31	101	1048576	58	6279
2026-01-06 00:51:20.64	177.62	15.93	-40.2	-41.1	23.8	0.00e+00	0	31	101	1048576	58	6226
2026-01-06 00:51:21.65	177.68	16.03	-40.2	-41.2	23.7	0.00e+00	0	31	101	1048576	58	6252
2026-01-06 00:51:22.66	177.73	16.14	-40.3	-41.2	23.7	0.00e+00	0	31	101	1048576	58	6281
2026-01-06 00:51:23.67	177.79	16.25	-40.2	-41.1	23.8	0.00e+00	0	31	101	1048576	58	6199
2026-01-06 00:51:24.68	177.84	16.37	-40.2	-41.1	23.8	0.00e+00	0	31	101	1048576	58	6232
2026-01-06 00:51:25.70	177.90	16.48	-40.2	-41.1	23.8	0.00e+00	0	31	101	1048576	58	6174
2026-01-06 00:51:26.71	177.96	16.59	-40.2	-41.1	23.8	0.00e+00	0	31	101	1048576	58	6228
2026-01-06 00:51:27.72	178.02	16.70	-40.3	-41.2	23.7	0.00e+00	0	31	101	1048576	58	6300
2026-01-06 00:51:28.73	178.07	16.81	-40.1	-41.0	23.9	0.00e+00	0	31	101	1048576	58	6167
2026-01-06 00:51:29.74	178.13	16.93	-40.3	-41.2	23.7	0.00e+00	0	31	101	1048576	58	6290
2026-01-06 00:51:30.75	178.19	17.04	-40.3	-41.3	23.6	0.00e+00	0	31	101	1048576	58	6323
2026-01-06 00:51:31.76	178.25	17.15	-40.2	-41.1	23.8	0.00e+00	0	31	101	1048576	58	6233
2026-01-06 00:51:32.77	178.31	17.27	-40.2	-41.1	23.8	0.00e+00	0	31	101	1048576	58	6241
2026-01-06 00:51:33.78	178.37	17.38	-40.3	-41.3	23.7	0.00e+00	0	31	101	1048576	58	6320
2026-01-06 00:51:34.79	178.43	17.50	-40.5	-41.4	23.6	0.00e+00	0	31	101	1048576	58	6429
2026-01-06 00:51:35.80	178.49	17.62	-40.3	-41.2	23.7	0.00e+00	0	31	101	1048576	58	6283
2026-01-06 00:51:36.81	178.55	17.73	-40.4	-41.3	23.6	0.00e+00	0	31	101	1048576	58	6378
2026-01-06 00:51:37.82	178.62	17.85	-40.3	-41.2	23.7	0.00e+00	0	31	101	1048576	58	6299
2026-01-06 00:51:38.84	178.68	17.97	-40.4	-41.4	23.6	0.00e+00	0	31	101	1048576	58	6399
2026-01-06 00:51:39.85	178.74	18.09	-40.5	-41.4	23.6	0.00e+00	0	31	101	1048576	58	6403
2026-01-06 00:51:40.86	178.80	18.21	-40.3	-41.2	23.7	0.00e+00	0	31	101	1048576	58	6297
2026-01-06 00:51:41.87	178.87	18.33	-40.4	-41.4	23.6	0.00e+00	0	32	101	1048576	58	6392
2026-01-06 00:51:42.88	178.93	18.45	-40.3	-41.2	23.7	0.00e+00	0	32	101	1048576	58	6300
2026-01-06 00:51:43.89	179.00	18.57	-40.4	-41.3	23.7	0.00e+00	0	31	101	1048576	58	6327
2026-01-06 00:51:44.90	179.06	18.69	-40.3	-41.2	23.8	0.00e+00	0	31	101	1048576	58	6287
2026-01-06 00:51:45.91	179.13	18.81	-40.3	-41.2	23.8	0.00e+00	0	31	101	1048576	58	6265
2026-01-06 00:51:46.92	179.19	18.93	-40.3	-41.2	23.8	0.00e+00	0	31	101	1048576	58	6248
2026-01-06 00:51:47.93	179.26	19.05	-40.2	-41.1	23.8	0.00e+00	0	31	101	1048576	58	6204
2026-01-06 00:51:48.94	179.33	19.18	-40.2	-41.1	23.9	0.00e+00	0	32	101	1048576	58	6196
2026-01-06 00:51:49.95	179.39	19.30	-40.2	-41.1	23.8	0.00e+00	0	32	101	1048576	58	6206
2026-01-06 00:51:50.96	179.46	19.42	-40.1	-41.0	23.9	0.00e+00	0	32	101	1048576	58	6162
2026-01-06 00:51:51.97	179.53	19.55	-40.2	-41.1	23.8	0.00e+00	0	31	101	1048576	58	6219
2026-01-06 00:51:52.99	179.60	19.68	-40.2	-41.1	23.9	0.00e+00	0	32	101	1048576	58	6216
2026-01-06 00:51:54.00	179.67	19.80	-40.3	-41.2	23.8	0.00e+00	0	32	101	1048576	58	6269
2026-01-06 00:51:55.01	179.74	19.93	-40.4	-41.3	23.7	0.00e+00	0	32	101	1048576	58	6347
2026-01-06 00:51:56.02	179.81	20.06	-40.4	-41.3	23.7	0.00e+00	0	32	101	1048576	58	6333
2026-01-06 00:51:57.03	179.88	20.19	-40.3	-41.2	23.8	0.00e+00	0	31	101	1048576	58	6279
2026-01-06 00:51:58.04	179.96	20.31	-40.3	-41.2	23.8	0.00e+00	0	31	101	1048576	58	6300
2026-01-06 00:51:59.05	180.03	20.44	-40.5	-41.4	23.7	0.00e+00	0	31	101	1048576	58	6411
2026-01-06 00:52:00.06	180.10	20.57	-40.3	-41.3	23.8	0.00e+00	0	31	101	1048576	58	6324
2026-01-06 00:52:01.07	180.17	20.70	-40.4	-41.3	23.8	0.00e+00	0	31	101	1048576	58	6352
2026-01-06 00:52:02.08	180.25	20.83	-40.4	-41.3	23.7	0.00e+00	0	31	101	1048576	58	6376
2026-01-06 00:52:03.09	180.32	20.97	-40.3	-41.2	23.7	0.00e+00	0	31	101	1048576	58	6289
2026-01-06 00:52:04.10	180.40	21.10	-40.3	-41.2	23.8	0.00e+00	0	32	101	1048576	58	6294
2026-01-06 00:52:05.11	180.48	21.23	-40.3	-41.2	23.8	0.00e+00	0	32	101	1048576	58	6282
2026-01-06 00:52:06.12	180.55	21.37	-40.2	-41.1	23.9	0.00e+00	0	31	101	1048576	58	6238
2026-01-06 00:52:07.14	180.63	21.50	-40.3	-41.2	23.8	0.00e+00	0	32	101	1048576	58	6304
2026-01-06 00:52:08.15	180.71	21.64	-40.1	-41.0	24.0	0.00e+00	0	32	101	1048576	58	6159
2026-01-06 00:52:09.16	180.79	21.77	-40.1	-41.0	23.9	0.00e+00	0	32	101	1048576	58	6159
2026-01-06 00:52:10.17	180.87	21.91	-40.1	-41.0	24.0	0.00e+00	0	31	101	1048576	58	6161
2026-01-06 00:52:11.18	180.95	22.05	-40.0	-40.9	24.1	0.00e+00	0	32	101	1048576	58	6063
2026-01-06 00:52:12.19	181.03	22.18	-39.9	-40.8	24.1	0.00e+00	0	31	101	1048576	58	5997
2026-01-06 00:52:13.20	181.11	22.32	-39.8	-40.7	24.2	0.00e+00	0	32	101	1048576	58	5927
2026-01-06 00:52:14.21	181.19	22.46	-39.9	-40.7	24.2	0.00e+00	0	32	101	1048576	58	5964
2026-01-06 00:52:15.22	181.27	22.60	-39.9	-40.7	24.1	0.00e+00	0	32	101	1048576	58	5959
2026-01-06 00:52:16.23	181.36	22.74	-39.8	-40.6	24.4	0.00e+00	0	32	101	1048576	58	5877
2026-01-06 00:52:17.24	181.44	22.88	-39.6	-40.4	24.4	0.00e+00	0	32	101	1048576	58	5735
2026-01-06 00:52:18.26	181.53	23.03	-39.7	-40.5	24.4	0.00e+00	0	31	101	1048576	58	5801
2026-01-06 00:52:19.27	181.61	23.17	-39.8	-40.6	24.3	0.00e+00	0	32	101	1048576	58	5876
2026-01-06 00:52:20.28	181.70	23.31	-39.6	-40.5	24.5	0.00e+00	0	32	101	1048576	58	5775
2026-01-06 00:52:21.29	181.79	23.46	-39.6	-40.4	24.6	0.00e+00	0	32	101	1048576	58	5731
2026-01-06 00:52:22.30	181.87	23.60	-39.4	-40.2	24.7	0.00e+00	0	32	101	1048576	58	5599
2026-01-06 00:52:23.31	181.96	23.75	-39.4	-40.2	24.6	0.00e+00	0	32	101	1048576	58	5587
2026-01-06 00:52:24.32	182.05	23.90	-39.3	-40.1	24.7	0.00e+00	0	32	101	1048576	58	5554
2026-01-06 00:52:25.33	182.14	24.04	-39.4	-40.2	24.6	0.00e+00	0	32	101	1048576	58	5592
2026-01-06 00:52:26.34	182.23	24.19	-39.4	-40.2	24.7	0.00e+00	0	32	101	1048576	58	5589
2026-01-06 00:52:27.36	182.33	24.34	-39.2	-40.1	24.8	0.00e+00	0	32	101	1048576	58	5513
2026-01-06 00:52:28.37	182.42	24.49	-39.3	-40.1	24.7	0.00e+00	0	32	101	1048576	58	5526
2026-01-06 00:52:29.38	182.51	24.64	-39.3	-40.1	24.8	0.00e+00	0	32	101	1048576	58	5529
2026-01-06 00:52:30.39	182.61	24.79	-39.3	-40.1	24.9	0.00e+00	0	31	101	1048576	56	6197
2026-01-06 00:52:31.40	182.70	24.95	-39.1	-39.9	25.0	0.00e+00	0	32	101	1048576	56	6039
2026-01-06 00:52:32.41	182.80	25.10	-39.1	-39.9	25.0	0.00e+00	0	32	101	1048576	56	6067
2026-01-06 00:52:33.42	182.90	25.25	-39.1	-39.9	25.0	0.00e+00	0	32	101	1048576	56	6056
2026-01-06 00:52:34.43	183.00	25.41	-39.1	-40.0	25.0	0.00e+00	0	31	101	1048576	56	6106
2026-01-06 00:52:35.44	183.09	25.56	-39.0	-39.8	25.0	0.00e+00	0	32	101	1048576	56	6000
2026-01-06 00:52:36.46	183.20	25.72	-39.1	-39.9	24.9	0.00e+00	0	31	101	1048576	56	6075
2026-01-06 00:52:37.47	183.30	25.88	-38.9	-39.7	25.1	0.00e+00	0	32	101	1048576	56	5957
2026-01-06 00:52:38.48	183.40	26.03	-38.9	-39.7	25.1	0.00e+00	0	31	101	1048576	56	5942
2026-01-06 00:52:39.49	183.50	26.19	-38.9	-39.7	25.2	0.00e+00	0	31	101	1048576	56	5933
2026-01-06 00:52:40.50	183.61	26.35	-38.9	-39.7	25.2	0.00e+00	0	32	101	1048576	56	5948
2026-01-06 00:52:41.51	183.71	26.51	-39.1	-39.9	25.0	0.00e+00	0	31	101	1048576	56	6072
2026-01-06 00:52:42.52	183.82	26.67	-39.1	-39.9	24.9	0.00e+00	0	32	101	1048576	56	6062
2026-01-06 00:52:43.53	183.92	26.84	-39.2	-40.0	25.0	0.00e+00	0	31	101	1048576	56	6150
2026-01-06 00:52:44.54	184.03	27.00	-39.2	-40.0	24.9	0.00e+00	0	32	101	1048576	56	6153
2026-01-06 00:52:45.55	184.14	27.16	-39.3	-40.1	24.8	0.00e+00	0	32	101	1048576	56	6224
2026-01-06 00:52:46.57	184.25	27.33	-39.4	-40.2	24.8	0.00e+00	0	32	101	1048576	56	6271
2026-01-06 00:52:47.58	184.36	27.49	-39.5	-40.3	24.6	0.00e+00	0	32	101	1048576	56	6376
2026-01-06 00:52:48.59	184.48	27.66	-39.7	-40.5	24.4	0.00e+00	0	32	101	1048576	56	6531
2026-01-06 00:52:49.60	184.59	27.83	-39.7	-40.5	24.6	0.00e+00	0	32	101	1048576	56	6494
2026-01-06 00:52:50.61	184.70	28.00	-39.8	-40.6	24.4	0.00e+00	0	32	101	1048576	56	6600
2026-01-06 00:52:51.62	184.82	28.17	-39.9	-40.8	24.3	0.00e+00	0	32	101	1048576	56	6736
2026-01-06 00:52:52.63	184.94	28.34	-40.1	-40.9	24.1	0.00e+00	0	32	101	1048576	56	6848
2026-01-06 00:52:53.64	185.05	28.51	-40.0	-40.9	24.1	0.00e+00	0	32	101	1048576	56	6817
2026-01-06 00:52:54.65	185.17	28.68	-40.1	-41.0	24.1	0.00e+00	0	31	101	1048576	58	6130
2026-01-06 00:52:55.66	185.29	28.85	-40.3	-41.2	23.9	0.00e+00	0	32	101	1048576	58	6268
2026-01-06 00:52:56.67	185.42	29.03	-40.4	-41.3	23.8	0.00e+00	0	32	101	1048576	58	6318
2026-01-06 00:52:57.69	185.54	29.20	-40.4	-41.3	23.7	0.00e+00	0	32	101	1048576	58	6387
2026-01-06 00:52:58.70	185.67	29.38	-40.6	-41.5	23.6	0.00e+00	0	32	101	1048576	58	6520
2026-01-06 00:52:59.71	185.79	29.55	-40.7	-41.6	23.5	0.00e+00	0	32	101	1048576	58	6607
2026-01-06 00:53:00.72	185.92	29.73	-40.8	-41.7	23.5	0.00e+00	0	32	101	1048576	58	6648
2026-01-06 00:53:01.73	186.05	29.91	-40.9	-41.9	23.3	0.00e+00	0	32	101	1048576	58	6776
2026-01-06 00:53:02.74	186.18	30.09	-41.0	-41.9	23.3	0.00e+00	0	32	101	1048576	58	6812
2026-01-06 00:53:03.75	186.31	30.27	-41.0	-42.0	23.1	0.00e+00	0	31	101	1048576	58	6892
2026-01-06 00:53:04.76	186.44	30.45	-41.2	-42.2	23.0	0.00e+00	0	32	101	1048576	60	6300
2026-01-06 00:53:05.77	186.58	30.64	-41.4	-42.4	22.9	0.00e+00	0	31	101	1048576	60	6425
2026-01-06 00:53:06.79	186.71	30.82	-41.6	-42.6	22.6	0.00e+00	0	32	101	1048576	60	6611
2026-01-06 00:53:07.80	186.85	31.01	-41.9	-43.0	22.3	0.00e+00	0	32	101	1048576	60	6883
2026-01-06 00:53:08.81	186.99	31.19	-42.2	-43.2	22.2	0.00e+00	0	32	101	1048576	60	7084
2026-01-06 00:53:09.82	187.13	31.38	-42.5	-43.7	21.5	0.00e+00	0	32	101	1048576	60	7452
2026-01-06 00:53:10.83	187.27	31.56	-42.5	-43.6	21.8	0.00e+00	0	32	101	1048576	60	7379
2026-01-06 00:53:11.84	187.42	31.75	-42.6	-43.7	21.7	0.00e+00	0	32	101	1048576	60	7489
2026-01-06 00:53:12.85	187.56	31.94	-42.8	-44.0	21.5	0.00e+00	0	32	101	1048576	60	7713
2026-01-06 00:53:13.86	187.71	32.13	-42.7	-43.9	21.5	0.00e+00	0	32	101	1048576	60	7643
2026-01-06 00:53:14.87	187.86	32.33	-42.8	-43.9	21.5	0.00e+00	0	32	101	1048576	60	7663
2026-01-06 00:53:15.88	188.01	32.52	-42.7	-43.8	21.6	0.00e+00	0	32	101	1048576	60	7562
2026-01-06 00:53:16.90	188.16	32.71	-42.6	-43.7	21.8	0.00e+00	0	32	101	1048576	60	7486
2026-01-06 00:53:17.91	188.31	32.91	-42.7	-43.9	21.5	0.00e+00	0	32	101	1048576	60	7612
2026-01-06 00:53:18.92	188.47	33.10	-42.6	-43.7	21.7	0.00e+00	0	32	101	1048576	60	7448
2026-01-06 00:53:19.93	188.63	33.30	-42.6	-43.7	21.7	0.00e+00	0	32	101	1048576	60	7495
2026-01-06 00:53:20.94	188.79	33.50	-42.6	-43.8	21.6	0.00e+00	0	32	101	1048576	60	7516
2026-01-06 00:53:21.95	188.95	33.70	-42.5	-43.6	21.8	0.00e+00	0	32	101	1048576	60	7372
2026-01-06 00:53:22.96	189.11	33.90	-42.5	-43.7	21.8	0.00e+00	0	32	101	1048576	60	7436
2026-01-06 00:53:23.97	189.27	34.10	-42.3	-43.4	22.0	0.00e+00	0	32	101	1048576	60	7250
2026-01-06 00:53:24.98	189.44	34.30	-42.3	-43.4	22.0	0.00e+00	0	32	101	1048576	60	7221
2026-01-06 00:53:25.99	189.61	34.50	-42.4	-43.5	21.9	0.00e+00	0	32	101	1048576	60	7300
2026-01-06 00:53:27.00	189.78	34.71	-42.4	-43.5	22.0	0.00e+00	0	32	101	1048576	60	7274
2026-01-06 00:53:28.01	189.96	34.91	-42.3	-43.4	22.0	0.00e+00	0	31	101	1048576	60	7242
2026-01-06 00:53:29.02	190.13	35.12	-42.4	-43.5	21.9	0.00e+00	0	32	101	1048576	60	7324
2026-01-06 00:53:30.04	190.31	35.33	-42.4	-43.6	21.9	0.00e+00	0	32	101	1048576	60	7351
2026-01-06 00:53:31.05	190.49	35.54	-42.5	-43.6	21.8	0.00e+00	0	32	101	1048576	60	7412
2026-01-06 00:53:32.06	190.67	35.75	-42.5	-43.6	21.7	0.00e+00	0	32	101	1048576	60	7405
2026-01-06 00:53:33.07	190.86	35.96	-42.6	-43.7	21.8	0.00e+00	0	31	101	1048576	60	7495
2026-01-06 00:53:34.08	191.04	36.17	-42.7	-43.9	21.6	0.00e+00	0	31	101	1048576	60	7616
2026-01-06 00:53:35.09	191.23	36.38	-42.7	-43.9	21.6	0.00e+00	0	32	101	1048576	60	7605
2026-01-06 00:53:36.10	191.42	36.60	-42.5	-43.6	21.8	0.00e+00	0	32	101	1048576	60	7396
2026-01-06 00:53:37.11	191.62	36.81	-42.6	-43.7	21.7	0.00e+00	0	32	101	1048576	60	7504
2026-01-06 00:53:38.12	191.81	37.03	-42.7	-43.9	21.6	0.00e+00	0	31	101	1048576	60	7639
2026-01-06 00:53:39.13	192.01	37.24	-42.8	-44.0	21.4	0.00e+00	0	32	101	1048576	60	7739
2026-01-06 00:53:40.14	192.22	37.46	-42.5	-43.7	21.4	0.00e+00	0	32	101	1048576	60	7431
2026-01-06 00:53:41.15	192.42	37.68	-42.6	-43.8	21.8	0.00e+00	0	31	101	1048576	60	7531
2026-01-06 00:53:42.16	192.63	37.90	-42.4	-43.6	21.8	0.00e+00	0	31	101	1048576	60	7360
2026-01-06 00:53:43.17	192.84	38.12	-42.4	-43.5	21.9	0.00e+00	0	32	101	1048576	60	7299
2026-01-06 00:53:44.19	193.05	38.35	-42.5	-43.6	21.8	0.00e+00	0	32	101	1048576	60	7368
2026-01-06 00:53:45.20	193.27	38.57	-42.0	-43.1	22.3	0.00e+00	0	31	101	1048576	60	6960
2026-01-06 00:53:46.21	193.49	38.79	-42.0	-43.0	22.4	0.00e+00	0	32	101	1048576	60	6896
2026-01-06 00:53:47.22	193.71	39.02	-41.9	-43.0	22.5	0.00e+00	0	32	101	1048576	60	6879
2026-01-06 00:53:48.23	193.93	39.24	-42.1	-43.2	22.2	0.00e+00	0	32	101	1048576	60	7024
2026-01-06 00:53:49.24	194.16	39.47	-42.3	-43.4	22.0	0.00e+00	0	32	101	1048576	60	7233
2026-01-06 00:53:50.25	194.39	39.70	-42.2	-43.3	22.2	0.00e+00	0	32	101	1048576	60	7104
2026-01-06 00:53:51.26	194.62	39.93	-41.9	-43.0	22.4	0.00e+00	0	32	101	1048576	60	6881
2026-01-06 00:53:52.27	194.86	40.16	-41.8	-42.9	22.5	0.00e+00	0	32	101	1048576	60	6785
2026-01-06 00:53:53.28	195.10	40.39	-41.4	-42.4	22.9	0.00e+00	0	31	101	1048576	60	6458
2026-01-06 00:53:54.29	195.35	40.62	-41.3	-42.3	23.0	0.00e+00	0	32	101	1048576	60	6324
2026-01-06 00:53:55.30	195.59	40.85	-41.0	-41.9	23.4	0.00e+00	0	32	101	1048576	60	6082
2026-01-06 00:53:56.31	195.84	41.09	-41.0	-41.9	23.4	0.00e+00	0	32	101	1048576	60	6103
2026-01-06 00:53:57.32	196.10	41.32	-41.0	-41.9	23.4	0.00e+00	0	31	101	1048576	60	6103
2026-01-06 00:53:58.33	196.36	41.56	-40.9	-41.9	23.4	0.00e+00	0	31	101	1048576	60	6039
2026-01-06 00:53:59.34	196.62	41.80	-40.8	-41.7	23.6	0.00e+00	0	31	101	1048576	60	5930
2026-01-06 00:54:00.35	196.88	42.03	-40.9	-41.9	23.4	0.00e+00	0	32	101	1048576	60	6058
2026-01-06 00:54:01.37	197.16	42.27	-41.2	-42.2	23.2	0.00e+00	0	32	101	1048576	60	6250
2026-01-06 00:54:02.38	197.43	42.51	-41.3	-42.3	23.0	0.00e+00	0	32	101	1048576	60	6330
2026-01-06 00:54:03.39	197.71	42.75	-41.2	-42.2	23.1	0.00e+00	0	31	101	1048576	60	6290
2026-01-06 00:54:04.40	197.99	42.99	-41.3	-42.3	23.0	0.00e+00	0	32	101	1048576	60	6346
2026-01-06 00:54:05.41	198.28	43.24	-41.4	-42.4	23.0	0.00e+00	0	31	101	1048576	60	6408
2026-01-06 00:54:06.42	198.57	43.48	-41.3	-42.3	23.0	0.00e+00	0	32	101	1048576	60	6337
2026-01-06 00:54:07.43	198.86	43.72	-41.2	-42.2	23.1	0.00e+00	0	31	101	1048576	60	6287
2026-01-06 00:54:08.44	199.16	43.97	-41.2	-42.2	23.2	0.00e+00	0	31	101	1048576	60	6247
2026-01-06 00:54:09.45	199.46	44.21	-41.5	-42.5	22.8	0.00e+00	0	31	101	1048576	60	6526
2026-01-06 00:54:10.47	199.77	44.46	-41.9	-42.9	22.4	0.00e+00	0	31	101	1048576	60	6818
2026-01-06 00:54:11.48	200.09	44.70	-42.2	-43.3	22.1	0.00e+00	0	31	101	1048576	60	7111
2026-01-06 00:54:12.49	200.40	44.95	-42.3	-43.4	22.1	0.00e+00	0	32	101	1048576	60	7234
2026-01-06 00:54:13.50	200.73	45.20	-42.3	-43.4	22.1	0.00e+00	0	32	101	1048576	60	7210
2026-01-06 00:54:14.51	201.05	45.44	-42.0	-43.0	22.4	0.00e+00	0	32	101	1048576	60	6894
2026-01-06 00:54:15.52	201.39	45.69	-41.8	-42.8	22.5	0.00e+00	0	32	101	1048576	60	6744
2026-01-06 00:54:16.53	201.72	45.94	-41.6	-42.7	22.7	0.00e+00	0	31	101	1048576	60	6627
2026-01-06 00:54:17.54	202.07	46.19	-41.6	-42.6	22.9	0.00e+00	0	31	101	1048576	60	6585
2026-01-06 00:54:18.55	202.42	46.44	-41.5	-42.6	22.8	0.00e+00	0	31	101	1048576	60	6549
2026-01-06 00:54:19.56	202.77	46.69	-41.9	-43.0	22.4	0.00e+00	0	32	101	1048576	60	6897
2026-01-06 00:54:20.57	203.13	46.94	-42.5	-43.6	21.8	0.00e+00	0	32	101	1048576	60	7363
2026-01-06 00:54:21.58	203.50	47.19	-43.0	-44.2	21.2	0.00e+00	0	31	101	1048576	60	7942
2026-01-06 00:54:22.59	203.87	47.44	-43.2	-44.5	21.0	0.00e+00	0	31	101	1048576	60	8205
2026-01-06 00:54:23.60	204.24	47.69	-43.1	-44.4	21.1	0.00e+00	0	32	101	1048576	60	8088
2026-01-06 00:54:24.62	204.63	47.94	-42.7	-43.9	21.7	0.00e+00	0	31	101	1048576	60	7643
2026-01-06 00:54:25.63	205.02	48.19	-41.8	-42.8	22.6	0.00e+00	0	32	101	1048576	60	6724
2026-01-06 00:54:26.64	205.42	48.44	-41.5	-42.5	22.9	0.00e+00	0	32	101	1048576	60	6496
2026-01-06 00:54:27.65	205.82	48.69	-41.7	-42.7	22.6	0.00e+00	0	32	101	1048576	60	6659
2026-01-06 00:54:28.66	206.23	48.95	-42.1	-43.2	22.2	0.00e+00	0	32	101	1048576	60	7039
2026-01-06 00:54:29.67	206.64	49.20	-42.8	-44.0	21.4	0.00e+00	0	31	101	1048576	60	7696
2026-01-06 00:54:30.68	207.06	49.45	-43.3	-44.7	20.9	0.00e+00	0	32	101	1048576	60	8333
2026-01-06 00:54:31.69	207.49	49.70	-43.3	-44.7	20.9	0.00e+00	0	32	101	1048576	60	8331
2026-01-06 00:54:32.70	207.93	49.95	-42.5	-43.7	21.7	0.00e+00	0	32	101	1048576	60	7433
2026-01-06 00:54:33.71	208.37	50.20	-41.8	-42.9	22.5	0.00e+00	0	32	101	1048576	60	6801
2026-01-06 00:54:34.72	208.82	50.44	-41.2	-42.2	23.0	0.00e+00	0	32	101	1048576	60	6291
2026-01-06 00:54:35.73	209.28	50.69	-40.7	-41.6	23.6	0.00e+00	0	32	101	1048576	60	5864
2026-01-06 00:54:36.74	209.74	50.94	-40.7	-41.7	23.6	0.00e+00	0	32	101	1048576	60	5913
2026-01-06 00:54:37.75	210.22	51.19	-40.9	-41.9	23.3	0.00e+00	0	32	101	1048576	60	6037
2026-01-06 00:54:38.77	210.70	51.44	-40.7	-41.7	23.6	0.00e+00	0	31	101	1048576	60	5920
2026-01-06 00:54:39.78	211.19	51.68	-40.6	-41.6	23.6	0.00e+00	0	32	101	1048576	60	5831
2026-01-06 00:54:40.79	211.69	51.93	-40.4	-41.3	24.0	0.00e+00	0	32	101	1048576	60	5665
2026-01-06 00:54:41.80	212.19	52.17	-40.0	-40.8	24.2	0.00e+00	0	32	101	1048576	58	6013
2026-01-06 00:54:42.81	212.70	52.41	-39.9	-40.7	24.3	0.00e+00	0	32	101	1048576	58	5930
2026-01-06 00:54:43.82	213.23	52.66	-39.7	-40.6	24.4	0.00e+00	0	32	101	1048576	58	5852
2026-01-06 00:54:44.84	213.76	52.90	-39.8	-40.6	24.4	0.00e+00	0	31	101	1048576	58	5877
2026-01-06 00:54:45.85	214.30	53.14	-39.7	-40.5	24.5	0.00e+00	0	31	101	1048576	58	5818
2026-01-06 00:54:46.86	214.85	53.38	-39.5	-40.4	24.6	0.00e+00	0	32	101	1048576	58	5698
2026-01-06 00:54:47.87	215.40	53.61	-39.2	-40.0	24.9	0.00e+00	0	32	101	1048576	58	5473
2026-01-06 00:54:48.88	215.97	53.85	-39.1	-39.9	25.0	0.00e+00	0	32	101	1048576	56	6058
2026-01-06 00:54:49.89	216.54	54.08	-39.3	-40.1	24.7	0.00e+00	0	32	101	1048576	56	6236
2026-01-06 00:54:50.90	217.13	54.31	-39.7	-40.6	24.5	0.00e+00	0	31	101	1048576	56	6560
2026-01-06 00:54:51.91	217.72	54.54	-40.0	-40.9	24.2	0.00e+00	0	32	101	1048576	56	6818
2026-01-06 00:54:52.92	218.32	54.76	-40.0	-40.9	24.2	0.00e+00	0	32	101	1048576	56	6785
2026-01-06 00:54:53.93	218.93	54.99	-39.7	-40.6	24.6	0.00e+00	0	32	101	1048576	56	6540
2026-01-06 00:54:54.94	219.56	55.21	-39.8	-40.6	24.4	0.00e+00	0	32	101	1048576	56	6581
2026-01-06 00:54:55.95	220.19	55.43	-39.7	-40.5	24.4	0.00e+00	0	32	101	1048576	56	6528
2026-01-06 00:54:56.97	220.83	55.65	-40.0	-40.9	24.1	0.00e+00	0	32	101	1048576	56	6797
2026-01-06 00:54:57.98	221.48	55.86	-40.6	-41.5	23.7	0.00e+00	0	31	101	1048576	58	6489
2026-01-06 00:54:58.99	222.15	56.08	-40.8	-41.8	23.5	0.00e+00	0	31	101	1048576	58	6706
2026-01-06 00:55:00.00	222.82	56.29	-40.7	-41.7	23.5	0.00e+00	0	31	101	1048576	58	6616
2026-01-06 00:55:01.01	223.50	56.49	-41.0	-42.0	23.2	0.00e+00	0	31	101	1048576	58	6852
2026-01-06 00:55:02.02	224.19	56.69	-40.8	-41.8	23.3	0.00e+00	0	32	101	1048576	58	6728
2026-01-06 00:55:03.03	224.89	56.89	-40.7	-41.7	23.5	0.00e+00	0	31	101	1048576	58	6626
2026-01-06 00:55:04.04	225.60	57.09	-40.5	-41.4	23.7	0.00e+00	0	32	101	1048576	58	6424
2026-01-06 00:55:05.05	226.32	57.28	-40.5	-41.5	23.6	0.00e+00	0	32	101	1048576	58	6471
2026-01-06 00:55:06.07	227.06	57.47	-40.5	-41.4	23.7	0.00e+00	0	32	101	1048576	58	6447
2026-01-06 00:55:07.08	227.80	57.66	-40.6	-41.5	23.6	0.00e+00	0	32	101	1048576	58	6539
2026-01-06 00:55:08.09	228.55	57.84	-40.4	-41.2	23.8	0.00e+00	0	32	101	1048576	58	6312
2026-01-06 00:55:09.10	229.31	58.02	-40.5	-41.4	23.8	0.00e+00	0	32	101	1048576	58	6454
2026-01-06 00:55:10.11	230.09	58.19	-40.6	-41.5	23.7	0.00e+00	0	32	101	1048576	58	6482
2026-01-06 00:55:11.12	230.87	58.36	-40.6	-41.5	23.7	0.00e+00	0	32	101	1048576	58	6532
2026-01-06 00:55:12.13	231.66	58.52	-40.5	-41.4	23.7	0.00e+00	0	32	101	1048576	58	6425
2026-01-06 00:55:13.14	232.46	58.68	-40.7	-41.7	23.4	0.00e+00	0	32	101	1048576	58	6628
2026-01-06 00:55:14.15	233.27	58.83	-41.0	-42.0	23.2	0.00e+00	0	32	101	1048576	58	6907
2026-01-06 00:55:15.16	234.09	58.98	-40.7	-41.7	23.4	0.00e+00	0	32	101	1048576	58	6634
2026-01-06 00:55:16.17	234.92	59.13	-40.4	-41.3	23.9	0.00e+00	0	32	101	1048576	58	6341
2026-01-06 00:55:17.18	235.75	59.27	-40.5	-41.5	23.6	0.00e+00	0	31	101	1048576	58	6470
2026-01-06 00:55:18.19	236.60	59.40	-40.3	-41.2	23.9	0.00e+00	0	32	101	1048576	58	6282
2026-01-06 00:55:19.21	237.46	59.53	-40.5	-41.4	23.7	0.00e+00	0	32	101	1048576	58	6444
2026-01-06 00:55:20.22	238.32	59.66	-40.5	-41.4	23.7	0.00e+00	0	32	101	1048576	58	6454
2026-01-06 00:55:21.23	239.19	59.77	-40.3	-41.2	23.9	0.00e+00	0	32	101	1048576	58	6257
2026-01-06 00:55:22.24	240.07	59.88	-40.1	-40.9	24.1	0.00e+00	0	32	101	1048576	58	6075
2026-01-06 00:55:23.25	240.96	59.99	-40.4	-41.3	23.9	0.00e+00	0	32	101	1048576	58	6325
2026-01-06 00:55:24.26	241.85	60.09	-40.8	-41.7	23.3	0.00e+00	0	32	101	1048576	58	6683
2026-01-06 00:55:25.27	242.75	60.18	-40.8	-41.8	23.4	0.00e+00	0	32	101	1048576	58	6704
2026-01-06 00:55:26.28	243.66	60.27	-40.5	-41.4	23.7	0.00e+00	0	32	101	1048576	58	6439
2026-01-06 00:55:27.29	244.57	60.35	-40.5	-41.4	23.7	0.00e+00	0	32	101	1048576	58	6410
2026-01-06 00:55:28.30	245.49	60.43	-40.6	-41.6	23.6	0.00e+00	0	32	101	1048576	58	6546
2026-01-06 00:55:29.31	246.41	60.50	-40.8	-41.7	23.5	0.00e+00	0	32	101	1048576	58	6642
2026-01-06 00:55:30.32	247.34	60.56	-40.7	-41.7	23.6	0.00e+00	0	32	101	1048576	58	6622
2026-01-06 00:55:31.34	248.28	60.62	-40.7	-41.6	23.5	0.00e+00	0	32	101	1048576	58	6589
2026-01-06 00:55:32.35	249.21	60.67	-40.4	-41.3	23.8	0.00e+00	0	32	101	1048576	58	6334
2026-01-06 00:55:33.36	250.15	60.71	-40.2	-41.1	23.9	0.00e+00	0	32	101	1048576	58	6194
2026-01-06 00:55:34.37	251.09	60.74	-40.7	-41.6	23.6	0.00e+00	0	32	101	1048576	58	6564
2026-01-06 00:55:35.38	252.04	60.77	-41.1	-42.1	23.1	0.00e+00	0	32	101	1048576	58	6991
2026-01-06 00:55:36.39	252.98	60.79	-41.1	-42.1	23.2	0.00e+00	0	32	101	1048576	60	6205
2026-01-06 00:55:37.40	253.93	60.81	-40.8	-41.8	23.4	0.00e+00	0	32	101	1048576	60	5984
2026-01-06 00:55:38.41	254.88	60.82	-40.8	-41.7	23.5	0.00e+00	0	32	101	1048576	60	5963
2026-01-06 00:55:39.42	255.83	60.82	-40.1	-40.9	24.2	0.00e+00	0	32	101	1048576	60	5438
2026-01-06 00:55:40.43	256.78	60.81	-40.2	-41.1	24.1	0.00e+00	0	32	101	1048576	58	6181
2026-01-06 00:55:41.45	257.73	60.80	-39.9	-40.8	24.3	0.00e+00	0	32	101	1048576	58	5991
2026-01-06 00:55:42.46	258.68	60.78	-39.8	-40.6	24.4	0.00e+00	0	32	101	1048576	58	5895
2026-01-06 00:55:43.47	259.62	60.76	-39.1	-39.9	25.0	0.00e+00	0	32	101	1048576	58	5412
2026-01-06 00:55:44.48	260.57	60.73	-39.1	-39.9	25.1	0.00e+00	0	32	101	1048576	56	6039
2026-01-06 00:55:45.49	261.51	60.69	-39.3	-40.2	24.7	0.00e+00	0	32	101	1048576	56	6256
2026-01-06 00:55:46.50	262.44	60.64	-39.3	-40.1	24.9	0.00e+00	0	31	101	1048576	56	6212
2026-01-06 00:55:47.51	263.38	60.59	-39.2	-40.0	24.9	0.00e+00	0	32	101	1048576	56	6146
2026-01-06 00:55:48.52	264.30	60.53	-39.5	-40.3	24.6	0.00e+00	0	31	101	1048576	56	6357
2026-01-06 00:55:49.53	265.23	60.46	-39.4	-40.2	24.5	0.00e+00	0	31	101	1048576	58	5606
2026-01-06 00:55:50.54	266.15	60.39	-39.6	-40.5	24.5	0.00e+00	0	32	101	1048576	58	5768
2026-01-06 00:55:51.55	267.06	60.31	-40.5	-41.4	23.7	0.00e+00	0	32	101	1048576	58	6420
2026-01-06 00:55:52.56	267.97	60.23	-41.0	-41.9	23.3	0.00e+00	0	31	101	1048576	58	6836
2026-01-06 00:55:53.58	268.88	60.14	-40.4	-41.3	23.9	0.00e+00	0	31	101	1048576	58	6330
2026-01-06 00:55:54.58	269.77	60.04	-40.6	-41.6	23.5	0.00e+00	0	31	101	1048576	58	6546
2026-01-06 00:55:55.60	270.66	59.94	-41.8	-42.9	22.4	0.00e+00	0	32	101	1048576	60	6821
2026-01-06 00:55:56.61	271.55	59.83	-41.9	-43.0	22.3	0.00e+00	0	31	101	1048576	60	6876
2026-01-06 00:55:57.62	272.42	59.71	-41.9	-42.9	22.4	0.00e+00	0	32	101	1048576	60	6809
2026-01-06 00:55:58.63	273.29	59.59	-42.7	-43.9	21.4	0.00e+00	0	32	101	1048576	60	7644
2026-01-06 00:55:59.64	274.14	59.47	-43.6	-45.0	20.5	0.00e+00	0	32	101	1048576	60	8625
2026-01-06 00:56:00.65	274.99	59.33	-43.6	-45.0	20.5	0.00e+00	0	32	101	1048576	60	8643
2026-01-06 00:56:01.66	275.83	59.20	-43.5	-44.8	20.8	0.00e+00	0	31	101	1048576	60	8503
2026-01-06 00:56:02.67	276.66	59.06	-43.0	-44.3	21.2	0.00e+00	0	32	101	1048576	60	7961
2026-01-06 00:56:03.68	277.49	58.91	-42.5	-43.6	21.7	0.00e+00	0	32	101	1048576	60	7421
2026-01-06 00:56:04.69	278.30	58.76	-42.6	-43.8	21.6	0.00e+00	0	31	101	1048576	60	7538
2026-01-06 00:56:05.70	279.10	58.60	-43.7	-45.1	20.3	0.00e+00	0	31	101	1048576	60	8772
2026-01-06 00:56:06.71	279.90	58.44	-43.6	-44.9	20.6	0.00e+00	0	32	101	1048576	60	8591
2026-01-06 00:56:07.72	280.68	58.27	-42.8	-44.0	21.6	0.00e+00	0	31	101	1048576	60	7717
2026-01-06 00:56:08.73	281.46	58.10	-41.4	-42.4	22.9	0.00e+00	0	32	101	1048576	60	6403
2026-01-06 00:56:09.74	282.22	57.93	-41.0	-42.0	23.3	0.00e+00	0	32	101	1048576	60	6131
2026-01-06 00:56:10.75	282.98	57.75	-41.6	-42.6	22.6	0.00e+00	0	32	101	1048576	60	6577
2026-01-06 00:56:11.76	283.72	57.57	-42.1	-43.2	22.2	0.00e+00	0	32	101	1048576	60	7008
2026-01-06 00:56:12.77	284.46	57.38	-41.6	-42.6	22.7	0.00e+00	0	32	101	1048576	60	6571
2026-01-06 00:56:13.78	285.18	57.19	-41.1	-42.0	23.3	0.00e+00	0	32	101	1048576	60	6166
2026-01-06 00:56:14.79	285.90	57.00	-40.7	-41.7	23.5	0.00e+00	0	31	101	1048576	60	5900
2026-01-06 00:56:15.81	286.61	56.80	-40.7	-41.6	23.6	0.00e+00	0	32	101	1048576	60	5856
2026-01-06 00:56:16.82	287.30	56.60	-40.3	-41.2	24.0	0.00e+00	0	32	101	1048576	60	5613
2026-01-06 00:56:17.83	287.99	56.39	-39.5	-40.4	24.6	0.00e+00	0	32	101	1048576	58	5719
2026-01-06 00:56:18.84	288.66	56.19	-38.8	-39.6	25.4	0.00e+00	0	32	101	1048576	56	5846
2026-01-06 00:56:19.85	289.33	55.98	-38.9	-39.6	25.3	0.00e+00	0	32	101	1048576	56	5893
2026-01-06 00:56:20.86	289.98	55.76	-39.3	-40.1	24.7	0.00e+00	0	32	101	1048576	56	6208
2026-01-06 00:56:21.87	290.63	55.55	-40.1	-41.0	24.2	0.00e+00	0	32	101	1048576	56	6883
2026-01-06 00:56:22.88	291.26	55.33	-39.4	-40.2	24.8	0.00e+00	0	32	101	1048576	56	6295
2026-01-06 00:56:23.89	291.89	55.11	-38.4	-39.2	25.7	0.00e+00	0	32	101	1048576	56	5593
2026-01-06 00:56:24.90	292.50	54.89	-38.3	-39.1	25.7	0.00e+00	0	32	101	1048576	56	5506
2026-01-06 00:56:25.92	293.12	54.66	-39.3	-40.2	24.5	0.00e+00	0	32	101	1048576	56	6259
2026-01-06 00:56:26.93	293.71	54.43	-39.6	-40.5	24.5	0.00e+00	0	32	101	1048576	56	6501
2026-01-06 00:56:27.94	294.30	54.21	-39.6	-40.4	24.5	0.00e+00	0	32	101	1048576	56	6454
2026-01-06 00:56:28.95	294.88	53.97	-38.7	-39.4	25.4	0.00e+00	0	32	101	1048576	56	5760
2026-01-06 00:56:29.96	295.45	53.74	-37.8	-38.5	26.2	0.00e+00	0	32	101	1048576	54	5794
2026-01-06 00:56:30.97	296.01	53.51	-37.6	-38.3	26.2	0.00e+00	0	32	101	1048576	54	5654
2026-01-06 00:56:31.98	296.56	53.27	-37.4	-38.1	26.4	0.00e+00	0	31	101	1048576	54	5562
2026-01-06 00:56:32.99	297.10	53.03	-37.7	-38.5	26.1	0.00e+00	0	32	101	1048576	54	5791
2026-01-06 00:56:34.00	297.63	52.80	-37.8	-38.6	26.1	0.00e+00	0	32	101	1048576	54	5835
2026-01-06 00:56:35.01	298.16	52.55	-37.2	-37.9	26.6	0.00e+00	0	32	101	1048576	54	5396
2026-01-06 00:56:36.03	298.68	52.31	-37.1	-37.8	26.7	0.00e+00	0	32	101	1048576	52	6009
2026-01-06 00:56:37.04	299.19	52.07	-37.9	-38.6	26.1	0.00e+00	0	32	101	1048576	52	6577
2026-01-06 00:56:38.05	299.69	51.83	-39.1	-39.9	25.0	0.00e+00	0	32	101	1048576	54	6818
2026-01-06 00:56:39.06	300.18	51.58	-39.6	-40.4	24.6	0.00e+00	0	32	101	1048576	56	6454
2026-01-06 00:56:40.07	300.66	51.34	-39.6	-40.4	24.6	0.00e+00	0	32	101	1048576	56	6459
2026-01-06 00:56:41.08	301.14	51.09	-39.1	-39.9	25.1	0.00e+00	0	32	101	1048576	56	6072
2026-01-06 00:56:42.09	301.60	50.84	-38.7	-39.5	25.4	0.00e+00	0	32	101	1048576	56	5800
2026-01-06 00:56:43.10	302.06	50.60	-39.3	-40.1	24.8	0.00e+00	0	32	101	1048576	56	6230
2026-01-06 00:56:44.11	302.52	50.35	-40.7	-41.7	23.5	0.00e+00	0	32	101	1048576	58	6619
2026-01-06 00:56:45.12	302.96	50.10	-42.0	-43.2	22.2	0.00e+00	0	31	101	1048576	60	7016
2026-01-06 00:56:46.14	303.41	49.85	-41.9	-43.0	22.4	0.00e+00	0	31	101	1048576	60	6884
2026-01-06 00:56:47.15	303.84	49.60	-41.6	-42.7	22.7	0.00e+00	0	32	101	1048576	60	6645
2026-01-06 00:56:48.16	304.26	49.35	-41.6	-42.6	22.9	0.00e+00	0	32	101	1048576	60	6590
2026-01-06 00:56:49.17	304.68	49.10	-42.2	-43.3	22.1	0.00e+00	0	32	101	1048576	60	7114
2026-01-06 00:56:50.18	305.09	48.85	-42.7	-43.9	21.6	0.00e+00	0	32	101	1048576	60	7663
2026-01-06 00:56:51.19	305.50	48.60	-43.1	-44.3	21.1	0.00e+00	0	32	101	1048576	60	8024
2026-01-06 00:56:52.20	305.89	48.35	-43.8	-45.2	20.3	0.00e+00	0	32	101	1048576	60	8923
2026-01-06 00:56:53.21	306.29	48.10	-43.8	-45.2	20.4	0.00e+00	0	32	101	1048576	60	8831
2026-01-06 00:56:54.22	306.67	47.85	-43.6	-44.9	20.6	0.00e+00	0	32	101	1048576	60	8594
2026-01-06 00:56:55.23	307.05	47.60	-43.2	-44.5	21.1	0.00e+00	0	32	101	1048576	60	8158
2026-01-06 00:56:56.24	307.42	47.35	-43.6	-44.9	20.6	0.00e+00	0	32	101	1048576	60	8589
2026-01-06 00:56:57.25	307.79	47.10	-44.7	-46.3	19.2	0.00e+00	0	32	101	1048576	60	10064
2026-01-06 00:56:58.26	308.15	46.86	-45.5	-47.4	18.2	0.00e+00	0	32	101	1048576	60	11437
2026-01-06 00:56:59.28	308.51	46.60	-44.4	-46.0	19.6	0.00e+00	0	32	101	1048576	60	9707
2026-01-06 00:57:00.29	308.87	46.36	-43.5	-44.8	20.8	0.00e+00	0	32	101	1048576	60	8449
2026-01-06 00:57:01.30	309.21	46.11	-43.1	-44.3	21.3	0.00e+00	0	32	101	1048576	60	7963
2026-01-06 00:57:02.31	309.55	45.86	-43.1	-44.3	21.1	0.00e+00	0	32	101	1048576	60	7958
2026-01-06 00:57:03.32	309.89	45.61	-43.5	-44.8	20.9	0.00e+00	0	32	101	1048576	60	8458
2026-01-06 00:57:04.33	310.21	45.37	-43.3	-44.6	21.1	0.00e+00	0	32	101	1048576	60	8279
2026-01-06 00:57:05.34	310.54	45.12	-43.0	-44.2	21.2	0.00e+00	0	32	101	1048576	60	7947
2026-01-06 00:57:06.35	310.86	44.88	-43.4	-44.6	20.8	0.00e+00	0	32	101	1048576	60	8328
2026-01-06 00:57:07.36	311.17	44.63	-44.0	-45.5	20.1	0.00e+00	0	32	101	1048576	60	9132
2026-01-06 00:57:08.37	311.48	44.39	-43.8	-45.2	20.6	0.00e+00	0	32	101	1048576	60	8852
2026-01-06 00:57:09.39	311.79	44.14	-42.9	-44.1	21.5	0.00e+00	0	32	101	1048576	60	7781
2026-01-06 00:57:10.40	312.09	43.90	-42.4	-43.5	22.0	0.00e+00	0	32	101	1048576	60	7255
2026-01-06 00:57:11.41	312.39	43.65	-42.2	-43.2	22.2	0.00e+00	0	32	101	1048576	60	7076
2026-01-06 00:57:12.42	312.68	43.41	-42.6	-43.7	21.7	0.00e+00	0	32	101	1048576	60	7487
2026-01-06 00:57:13.43	312.97	43.17	-42.7	-43.9	21.5	0.00e+00	0	32	101	1048576	60	7616
2026-01-06 00:57:14.44	313.25	42.93	-41.8	-42.9	22.6	0.00e+00	0	32	101	1048576	60	6793
2026-01-06 00:57:15.45	313.53	42.69	-41.0	-41.9	23.5	0.00e+00	0	32	101	1048576	60	6103
2026-01-06 00:57:16.46	313.81	42.45	-40.5	-41.4	23.9	0.00e+00	0	32	101	1048576	60	5698
2026-01-06 00:57:17.47	314.08	42.22	-40.3	-41.2	23.9	0.00e+00	0	32	101	1048576	60	5593
2026-01-06 00:57:18.48	314.35	41.98	-41.1	-42.1	23.1	0.00e+00	0	32	101	1048576	60	6210
2026-01-06 00:57:19.50	314.61	41.74	-41.7	-42.8	22.7	0.00e+00	0	32	101	1048576	60	6721
2026-01-06 00:57:20.51	314.87	41.51	-41.8	-42.8	22.6	0.00e+00	0	32	101	1048576	60	6728
2026-01-06 00:57:21.52	315.13	41.27	-41.7	-42.7	22.7	0.00e+00	0	32	101	1048576	60	6665
2026-01-06 00:57:22.53	315.38	41.04	-41.8	-42.9	22.5	0.00e+00	0	32	101	1048576	60	6779
2026-01-06 00:57:23.54	315.63	40.81	-41.8	-42.9	22.5	0.00e+00	0	32	101	1048576	60	6796
2026-01-06 00:57:24.55	315.87	40.57	-41.4	-42.4	22.9	0.00e+00	0	32	101	1048576	60	6443
2026-01-06 00:57:25.56	316.12	40.34	-41.4	-42.4	23.0	0.00e+00	0	32	101	1048576	60	6407
2026-01-06 00:57:26.57	316.35	40.11	-40.9	-41.8	23.3	0.00e+00	0	32	101	1048576	60	6012
2026-01-06 00:57:27.58	316.59	39.89	-40.2	-41.1	24.1	0.00e+00	0	32	101	1048576	60	5512
2026-01-06 00:57:28.59	316.82	39.66	-40.2	-41.1	24.0	0.00e+00	0	32	101	1048576	58	6197
2026-01-06 00:57:29.60	317.05	39.43	-41.1	-42.1	23.1	0.00e+00	0	32	101	1048576	58	6962
2026-01-06 00:57:30.61	317.28	39.21	-42.2	-43.3	22.1	0.00e+00	0	32	101	1048576	60	7116
2026-01-06 00:57:31.63	317.50	38.98	-42.5	-43.7	21.8	0.00e+00	0	32	101	1048576	60	7448
2026-01-06 00:57:32.63	317.72	38.76	-42.0	-43.1	22.4	0.00e+00	0	32	101	1048576	60	6932
2026-01-06 00:57:33.64	317.94	38.54	-41.3	-42.3	23.0	0.00e+00	0	32	101	1048576	60	6365
2026-01-06 00:57:34.66	318.15	38.31	-40.4	-41.3	23.9	0.00e+00	0	32	101	1048576	60	5676
2026-01-06 00:57:35.67	318.36	38.09	-39.9	-40.7	24.3	0.00e+00	0	32	101	1048576	58	5936
2026-01-06 00:57:36.68	318.57	37.87	-39.7	-40.5	24.5	0.00e+00	0	32	101	1048576	58	5815
2026-01-06 00:57:37.69	318.78	37.65	-39.6	-40.4	24.6	0.00e+00	0	32	101	1048576	58	5743
2026-01-06 00:57:38.70	318.98	37.44	-39.8	-40.6	24.4	0.00e+00	0	32	101	1048576	58	5890
2026-01-06 00:57:39.71	319.18	37.22	-40.2	-41.0	24.1	0.00e+00	0	32	101	1048576	58	6173
2026-01-06 00:57:40.72	319.38	37.00	-40.8	-41.7	23.5	0.00e+00	0	32	101	1048576	58	6685
2026-01-06 00:57:41.73	319.57	36.79	-41.4	-42.4	22.9	0.00e+00	0	32	101	1048576	60	6454
2026-01-06 00:57:42.75	319.77	36.57	-41.7	-42.7	22.6	0.00e+00	0	32	101	1048576	60	6692
2026-01-06 00:57:43.76	319.96	36.36	-41.5	-42.6	22.9	0.00e+00	0	32	101	1048576	60	6547
2026-01-06 00:57:44.77	320.15	36.15	-40.9	-41.8	23.5	0.00e+00	0	32	101	1048576	60	6011
2026-01-06 00:57:45.78	320.33	35.94	-40.6	-41.5	23.7	0.00e+00	0	32	101	1048576	60	5787
2026-01-06 00:57:46.79	320.52	35.73	-40.3	-41.2	24.2	0.00e+00	0	32	101	1048576	60	5582
2026-01-06 00:57:47.80	320.70	35.52	-39.8	-40.6	24.4	0.00e+00	0	31	101	1048576	58	5880
2026-01-06 00:57:48.81	320.88	35.32	-39.8	-40.6	24.4	0.00e+00	0	32	101	1048576	58	5871
2026-01-06 00:57:49.82	321.05	35.11	-40.6	-41.6	23.6	0.00e+00	0	31	101	1048576	58	6548
2026-01-06 00:57:50.83	321.23	34.91	-41.3	-42.3	22.8	0.00e+00	0	32	101	1048576	60	6376
2026-01-06 00:57:51.84	321.40	34.70	-42.4	-43.6	21.8	0.00e+00	0	32	101	1048576	60	7385
2026-01-06 00:57:52.86	321.57	34.50	-42.9	-44.1	21.3	0.00e+00	0	32	101	1048576	60	7835
2026-01-06 00:57:53.87	321.74	34.30	-43.0	-44.3	21.3	0.00e+00	0	32	101	1048576	60	7977
2026-01-06 00:57:54.88	321.91	34.10	-42.7	-43.9	21.6	0.00e+00	0	32	101	1048576	60	7663
2026-01-06 00:57:55.89	322.07	33.90	-42.3	-43.4	22.0	0.00e+00	0	32	101	1048576	60	7209
2026-01-06 00:57:56.90	322.23	33.70	-41.9	-43.0	22.6	0.00e+00	0	32	101	1048576	60	6879
2026-01-06 00:57:57.91	322.39	33.50	-41.1	-42.0	23.3	0.00e+00	0	32	101	1048576	60	6160
2026-01-06 00:57:58.92	322.55	33.30	-41.1	-42.0	23.3	0.00e+00	0	32	101	1048576	60	6163
2026-01-06 00:57:59.93	322.71	33.11	-40.9	-41.8	23.5	0.00e+00	0	32	101	1048576	60	6002
2026-01-06 00:58:00.94	322.86	32.91	-41.0	-41.9	23.3	0.00e+00	0	32	101	1048576	60	6090
2026-01-06 00:58:01.95	323.01	32.72	-41.5	-42.5	22.9	0.00e+00	0	32	101	1048576	60	6475
2026-01-06 00:58:02.96	323.17	32.53	-42.2	-43.2	22.2	0.00e+00	0	32	101	1048576	60	7084
2026-01-06 00:58:03.97	323.32	32.34	-42.6	-43.7	21.7	0.00e+00	0	32	101	1048576	60	7490
2026-01-06 00:58:04.98	323.46	32.15	-42.6	-43.8	21.7	0.00e+00	0	32	101	1048576	60	7524
2026-01-06 00:58:05.99	323.61	31.96	-42.7	-43.8	21.6	0.00e+00	0	32	101	1048576	60	7593
2026-01-06 00:58:07.00	323.75	31.77	-42.5	-43.6	21.8	0.00e+00	0	32	101	1048576	60	7416
2026-01-06 00:58:08.01	323.90	31.58	-42.1	-43.2	22.2	0.00e+00	0	32	101	1048576	60	7048
2026-01-06 00:58:09.02	324.04	31.40	-42.0	-43.0	22.3	0.00e+00	0	32	101	1048576	60	6904
2026-01-06 00:58:10.03	324.18	31.21	-41.8	-42.8	22.5	0.00e+00	0	32	101	1048576	60	6751
2026-01-06 00:58:11.04	324.32	31.03	-41.7	-42.6	22.7	0.00e+00	0	32	101	1048576	60	6613
2026-01-06 00:58:12.06	324.45	30.84	-41.8	-42.8	22.5	0.00e+00	0	32	101	1048576	60	6742
2026-01-06 00:58:13.07	324.59	30.66	-42.0	-43.0	22.3	0.00e+00	0	32	101	1048576	60	6881
2026-01-06 00:58:14.08	324.72	30.48	-42.1	-43.1	22.2	0.00e+00	0	32	101	1048576	60	7000
2026-01-06 00:58:15.09	324.86	30.30	-42.3	-43.4	22.0	0.00e+00	0	32	101	1048576	60	7179
2026-01-06 00:58:16.10	324.99	30.12	-42.5	-43.6	21.8	0.00e+00	0	32	101	1048576	60	7415
2026-01-06 00:58:17.11	325.12	29.94	-42.3	-43.4	22.0	0.00e+00	0	32	101	1048576	60	7217
2026-01-06 00:58:18.12	325.24	29.76	-42.3	-43.4	22.0	0.00e+00	0	32	101	1048576	60	7183
2026-01-06 00:58:19.13	325.37	29.59	-42.3	-43.4	22.2	0.00e+00	0	32	101	1048576	60	7201
2026-01-06 00:58:20.14	325.50	29.41	-41.7	-42.7	22.7	0.00e+00	0	32	101	1048576	60	6637
2026-01-06 00:58:21.15	325.62	29.24	-41.3	-42.3	23.0	0.00e+00	0	32	101	1048576	60	6349
2026-01-06 00:58:22.16	325.74	29.06	-41.4	-42.4	22.9	0.00e+00	0	32	101	1048576	60	6427
2026-01-06 00:58:23.17	325.86	28.89	-41.4	-42.4	22.9	0.00e+00	0	32	101	1048576	60	6391
2026-01-06 00:58:24.19	325.99	28.72	-41.3	-42.3	22.9	0.00e+00	0	32	101	1048576	60	6359
2026-01-06 00:58:25.20	326.11	28.55	-41.5	-42.5	22.7	0.00e+00	0	32	101	1048576	60	6491
2026-01-06 00:58:26.21	326.22	28.38	-41.8	-42.9	22.4	0.00e+00	0	32	101	1048576	60	6773
2026-01-06 00:58:27.22	326.34	28.21	-42.1	-43.1	22.2	0.00e+00	0	32	101	1048576	60	7004
2026-01-06 00:58:28.23	326.46	28.04	-42.4	-43.5	21.9	0.00e+00	0	32	101	1048576	60	7293
2026-01-06 00:58:29.24	326.57	27.87	-42.5	-43.6	21.8	0.00e+00	0	32	101	1048576	60	7422
2026-01-06 00:58:30.25	326.68	27.71	-42.5	-43.6	21.7	0.00e+00	0	32	101	1048576	60	7409
2026-01-06 00:58:31.26	326.80	27.54	-42.4	-43.5	21.8	0.00e+00	0	32	101	1048576	60	7333
2026-01-06 00:58:32.27	326.91	27.38	-42.5	-43.6	21.8	0.00e+00	0	32	101	1048576	60	7397
2026-01-06 00:58:33.28	327.02	27.21	-42.2	-43.3	22.0	0.00e+00	0	32	101	1048576	60	7160
2026-01-06 00:58:34.29	327.13	27.05	-41.8	-42.9	22.5	0.00e+00	0	32	101	1048576	60	6799
2026-01-06 00:58:35.31	327.23	26.89	-41.8	-42.9	22.5	0.00e+00	0	32	101	1048576	60	6797
2026-01-06 00:58:36.32	327.34	26.73	-41.5	-42.6	22.7	0.00e+00	0	32	101	1048576	60	6541
2026-01-06 00:58:37.33	327.45	26.57	-41.7	-42.7	22.6	0.00e+00	0	32	101	1048576	60	6639
2026-01-06 00:58:38.34	327.55	26.41	-41.3	-42.3	22.9	0.00e+00	0	32	101	1048576	60	6378
2026-01-06 00:58:39.35	327.65	26.25	-41.4	-42.5	22.9	0.00e+00	0	32	101	1048576	60	6466
2026-01-06 00:58:40.36	327.76	26.09	-41.4	-42.4	22.8	0.00e+00	0	32	101	1048576	60	6452
2026-01-06 00:58:41.37	327.86	25.93	-41.5	-42.5	22.8	0.00e+00	0	32	101	1048576	60	6538
2026-01-06 00:58:42.38	327.96	25.78	-41.7	-42.7	22.6	0.00e+00	0	32	101	1048576	60	6672
2026-01-06 00:58:43.39	328.06	25.62	-41.8	-42.9	22.4	0.00e+00	0	32	101	1048576	60	6803
2026-01-06 00:58:44.41	328.16	25.47	-42.0	-43.1	22.3	0.00e+00	0	32	101	1048576	60	6953
2026-01-06 00:58:45.42	328.26	25.31	-41.9	-43.0	22.3	0.00e+00	0	32	101	1048576	60	6886
2026-01-06 00:58:46.43	328.35	25.16	-42.0	-43.1	22.3	0.00e+00	0	32	101	1048576	60	6965
2026-01-06 00:58:47.44	328.45	25.01	-42.0	-43.1	22.3	0.00e+00	0	32	101	1048576	60	6988
2026-01-06 00:58:48.45	328.55	24.86	-42.0	-43.1	22.3	0.00e+00	0	32	101	1048576	60	6930
2026-01-06 00:58:49.46	328.64	24.71	-41.7	-42.8	22.5	0.00e+00	0	32	101	1048576	60	6741
2026-01-06 00:58:50.47	328.73	24.56	-41.7	-42.7	22.5	0.00e+00	0	32	101	1048576	60	6669
2026-01-06 00:58:51.48	328.83	24.41	-41.4	-42.4	22.9	0.00e+00	0	32	101	1048576	60	6420
2026-01-06 00:58:52.49	328.92	24.26	-41.1	-42.1	23.2	0.00e+00	0	32	101	1048576	60	6236
2026-01-06 00:58:53.51	329.01	24.11	-41.1	-42.1	23.2	0.00e+00	0	32	101	1048576	60	6217
2026-01-06 00:58:54.52	329.10	23.97	-41.0	-42.0	23.3	0.00e+00	0	32	101	1048576	60	6115
2026-01-06 00:58:55.53	329.19	23.82	-40.8	-41.7	23.5	0.00e+00	0	32	101	1048576	60	5934
2026-01-06 00:58:56.54	329.28	23.68	-40.6	-41.5	23.6	0.00e+00	0	32	101	1048576	60	5827
2026-01-06 00:58:57.55	329.37	23.53	-40.5	-41.4	23.7	0.00e+00	0	32	101	1048576	60	5715
2026-01-06 00:58:58.56	329.45	23.39	-40.5	-41.4	23.7	0.00e+00	0	32	101	1048576	60	5707
2026-01-06 00:58:59.57	329.54	23.25	-40.5	-41.4	23.7	0.00e+00	0	32	101	1048576	60	5711
2026-01-06 00:59:00.58	329.63	23.10	-40.3	-41.2	23.9	0.00e+00	0	32	101	1048576	60	5591
2026-01-06 00:59:01.59	329.71	22.96	-40.2	-41.1	24.1	0.00e+00	0	32	101	1048576	60	5544
2026-01-06 00:59:02.60	329.80	22.82	-40.3	-41.2	23.9	0.00e+00	0	32	101	1048576	60	5589
2026-01-06 00:59:03.61	329.88	22.68	-40.4	-41.3	23.8	0.00e+00	0	32	101	1048576	60	5648
2026-01-06 00:59:04.63	329.96	22.54	-40.3	-41.2	23.9	0.00e+00	0	32	101	1048576	60	5609
2026-01-06 00:59:05.64	330.05	22.40	-40.5	-41.4	23.7	0.00e+00	0	32	101	1048576	60	5736
2026-01-06 00:59:06.65	330.13	22.27	-40.5	-41.4	23.7	0.00e+00	0	32	101	1048576	60	5732
2026-01-06 00:59:07.66	330.21	22.13	-40.6	-41.5	23.6	0.00e+00	0	32	101	1048576	60	5808
2026-01-06 00:59:08.67	330.29	21.99	-40.6	-41.6	23.5	0.00e+00	0	32	101	1048576	60	5836
2026-01-06 00:59:09.68	330.37	21.86	-40.7	-41.7	23.5	0.00e+00	0	32	101	1048576	60	5916
2026-01-06 00:59:10.69	330.45	21.72	-40.8	-41.8	23.3	0.00e+00	0	32	101	1048576	60	5992
2026-01-06 00:59:11.70	330.52	21.59	-40.8	-41.8	23.4	0.00e+00	0	32	101	1048576	60	5992
2026-01-06 00:59:12.71	330.60	21.45	-40.9	-41.9	23.2	0.00e+00	0	32	101	1048576	60	6081
2026-01-06 00:59:13.72	330.68	21.32	-40.9	-41.9	23.3	0.00e+00	0	32	101	1048576	60	6079
2026-01-06 00:59:14.73	330.75	21.19	-40.9	-41.9	23.2	0.00e+00	0	32	101	1048576	60	6056
2026-01-06 00:59:15.74	330.83	21.06	-40.9	-41.9	23.3	0.00e+00	0	32	101	1048576	60	6083
2026-01-06 00:59:16.76	330.91	20.93	-40.8	-41.8	23.4	0.00e+00	0	32	101	1048576	60	5986
2026-01-06 00:59:17.77	330.98	20.79	-40.9	-41.8	23.4	0.00e+00	0	32	101	1048576	60	6024
2026-01-06 00:59:18.78	331.05	20.67	-40.7	-41.6	23.5	0.00e+00	0	32	101	1048576	60	5886
2026-01-06 00:59:19.79	331.13	20.54	-40.2	-41.1	23.9	0.00e+00	0	32	101	1048576	60	5547
2026-01-06 00:59:20.80	331.20	20.41	-39.7	-40.6	24.4	0.00e+00	0	32	101	1048576	58	5840
2026-01-06 00:59:21.81	331.27	20.28	-39.6	-40.4	24.5	0.00e+00	0	32	101	1048576	58	5723
2026-01-06 00:59:22.82	331.34	20.15	-39.5	-40.3	24.5	0.00e+00	0	32	101	1048576	58	5679
2026-01-06 00:59:23.83	331.42	20.03	-39.4	-40.2	24.6	0.00e+00	0	32	101	1048576	58	5617
2026-01-06 00:59:24.84	331.49	19.90	-39.3	-40.2	24.7	0.00e+00	0	32	101	1048576	58	5571
2026-01-06 00:59:25.85	331.56	19.77	-39.3	-40.1	24.7	0.00e+00	0	32	101	1048576	58	5556
2026-01-06 00:59:26.86	331.63	19.65	-39.3	-40.1	24.7	0.00e+00	0	32	101	1048576	58	5537
2026-01-06 00:59:27.87	331.69	19.53	-39.3	-40.1	24.7	0.00e+00	0	31	101	1048576	58	5525
2026-01-06 00:59:28.88	331.76	19.40	-39.4	-40.2	24.6	0.00e+00	0	31	101	1048576	58	5585
2026-01-06 00:59:29.90	331.83	19.28	-39.4	-40.2	24.6	0.00e+00	0	32	101	1048576	58	5607
2026-01-06 00:59:30.91	331.90	19.15	-39.4	-40.3	24.5	0.00e+00	0	32	101	1048576	58	5651
2026-01-06 00:59:31.92	331.97	19.03	-39.6	-40.4	24.5	0.00e+00	0	32	101	1048576	58	5729
2026-01-06 00:59:32.93	332.03	18.91	-39.6	-40.5	24.3	0.00e+00	0	32	101	1048576	58	5776
2026-01-06 00:59:33.94	332.10	18.79	-39.7	-40.5	24.3	0.00e+00	0	32	101	1048576	58	5815
