passes_logs/2026/01/06/R4.6S_Anadyr_2ch/R4.6S_Anadyr_2ch__20260106_165345_FENGYUN_3D_rec.log

#Pass ID: 20260106_165345_FENGYUN 3D
#Satellite: FENGYUN 3D
#Configuration: FENGYUN 3D
#almurnet v.1.7.20251203
#Start time: 2026-01-06 16:53:48

#Version: 2.2.20231116
#Station: R4.6S_Anadyr_2ch
#Location: 177.4865 lon 64.73178 lat
#TLE: 1 43010U 17072A   25350.96693137  .00000321  00000+0  17364-3 0  9993
#TLE: 2 43010  98.9888 317.3403 0001146 169.6565 190.4634 14.19686173419132

#Time	Az	El	Level	Level2	SNR	BER	BlckErr	Temp	State	Recorded	gain1	gain2
2026-01-06 16:53:48.42	21.27	0.16	-40.0	-41.4	25.8	3.02e+01	19	29	0	0	58	6859
2026-01-06 16:53:49.43	21.27	0.22	-51.1	-63.4	3.6	8.44e-01	0	30	104	0	60	72024
2026-01-06 16:53:50.44	21.28	0.28	-51.1	-63.4	3.6	8.45e-01	0	30	104	0	60	71968
2026-01-06 16:53:51.45	21.28	0.34	-51.0	-63.4	3.6	8.45e-01	0	30	104	0	60	72244
2026-01-06 16:53:52.46	21.28	0.40	-51.1	-63.4	3.6	8.44e-01	0	30	104	0	60	72480
2026-01-06 16:53:53.47	21.28	0.47	-51.1	-63.4	3.6	8.45e-01	0	30	104	0	60	72421
2026-01-06 16:53:54.48	21.28	0.53	-51.1	-63.4	3.6	8.46e-01	0	30	104	0	60	72355
2026-01-06 16:53:55.49	21.28	0.59	-51.1	-63.4	3.6	8.46e-01	0	30	104	0	60	72441
2026-01-06 16:53:56.50	21.29	0.65	-51.1	-63.5	3.6	8.45e-01	0	30	104	0	60	72764
2026-01-06 16:53:57.51	21.29	0.71	-51.2	-63.6	3.6	8.45e-01	0	30	104	0	60	73485
2026-01-06 16:53:58.52	21.29	0.77	-51.2	-63.5	3.6	8.45e-01	0	30	104	0	60	73193
2026-01-06 16:53:59.53	21.29	0.83	-51.2	-63.5	3.6	8.45e-01	0	31	104	0	60	73150
2026-01-06 16:54:00.54	21.29	0.90	-51.1	-63.4	3.6	8.44e-01	0	30	104	0	60	71972
2026-01-06 16:54:01.55	21.29	0.96	-51.0	-63.4	3.6	8.45e-01	0	30	104	0	60	71842
2026-01-06 16:54:02.56	21.30	1.02	-50.9	-63.2	3.6	8.45e-01	0	31	104	0	60	70146
2026-01-06 16:54:03.57	21.30	1.08	-50.7	-63.0	3.6	8.44e-01	0	31	104	0	60	69092
2026-01-06 16:54:04.58	21.30	1.15	-50.5	-62.9	3.6	8.46e-01	0	31	104	0	60	68072
2026-01-06 16:54:05.59	21.30	1.21	-50.4	-62.7	3.6	8.45e-01	0	31	104	0	60	66817
2026-01-06 16:54:06.60	21.30	1.27	-50.2	-62.5	3.6	8.46e-01	0	31	104	0	60	64948
2026-01-06 16:54:07.61	21.30	1.33	-49.8	-61.9	3.6	8.45e-01	0	31	104	0	60	60928
2026-01-06 16:54:08.62	21.31	1.40	-49.7	-62.1	3.6	8.46e-01	0	31	104	0	60	61745
2026-01-06 16:54:09.63	21.31	1.46	-49.7	-62.0	3.6	8.46e-01	0	31	104	0	60	61314
2026-01-06 16:54:10.65	21.31	1.52	-49.7	-61.9	3.6	8.44e-01	0	31	104	0	60	60935
2026-01-06 16:54:11.66	21.31	1.59	-49.7	-61.7	3.6	8.44e-01	0	31	104	0	60	59533
2026-01-06 16:54:12.67	21.31	1.65	-49.7	-61.5	3.6	8.45e-01	0	31	104	0	60	57978
2026-01-06 16:54:13.68	21.31	1.71	-49.6	-61.4	3.6	8.46e-01	0	31	104	0	60	57136
2026-01-06 16:54:14.69	21.32	1.78	-49.6	-61.3	3.5	8.45e-01	0	31	104	0	60	56697
2026-01-06 16:54:15.70	21.32	1.84	-49.7	-61.4	3.6	8.44e-01	0	31	104	0	60	57561
2026-01-06 16:54:16.71	21.32	1.91	-49.6	-61.4	3.6	8.45e-01	0	31	104	0	60	57164
2026-01-06 16:54:17.72	21.32	1.97	-49.7	-61.6	3.6	8.46e-01	0	31	104	0	60	58508
2026-01-06 16:54:18.73	21.32	2.04	-49.7	-61.8	3.6	8.46e-01	0	31	104	0	60	59852
2026-01-06 16:54:19.74	21.32	2.10	-49.7	-61.9	3.6	8.45e-01	0	31	104	0	60	60903
2026-01-06 16:54:20.75	21.32	2.16	-49.7	-62.0	3.6	8.45e-01	0	31	104	0	60	61076
2026-01-06 16:54:21.76	21.33	2.23	-49.7	-62.0	3.6	8.45e-01	0	31	104	0	60	61152
2026-01-06 16:54:22.77	21.33	2.29	-49.7	-62.0	3.6	8.45e-01	0	31	104	0	60	61109
2026-01-06 16:54:23.78	21.33	2.36	-49.7	-61.9	3.6	8.46e-01	0	31	104	0	60	60369
2026-01-06 16:54:24.79	21.33	2.42	-49.7	-61.7	3.6	8.46e-01	0	31	104	0	60	59103
2026-01-06 16:54:25.80	21.33	2.49	-49.6	-61.4	3.6	8.45e-01	0	31	104	0	60	57569
2026-01-06 16:54:26.82	21.33	2.56	-49.6	-61.2	3.6	8.46e-01	0	31	104	0	60	55703
2026-01-06 16:54:27.82	21.33	2.62	-49.5	-60.4	3.6	8.45e-01	0	31	104	0	60	51219
2026-01-06 16:54:28.83	21.34	2.69	-49.4	-59.6	3.7	8.45e-01	0	31	104	0	60	46467
2026-01-06 16:54:29.84	21.34	2.75	-49.4	-58.9	3.7	8.38e-01	0	31	104	0	60	42737
2026-01-06 16:54:30.85	21.34	2.82	-49.4	-58.7	3.8	8.41e-01	0	31	0	0	60	41758
2026-01-06 16:54:31.86	21.34	2.89	-49.3	-58.4	4.0	8.37e-01	0	31	104	0	60	40376
2026-01-06 16:54:32.87	21.34	2.95	-49.3	-58.4	3.7	8.32e-01	0	31	104	0	60	40733
2026-01-06 16:54:33.88	21.34	3.02	-49.4	-59.1	3.6	8.39e-01	0	31	104	0	60	44020
2026-01-06 16:54:34.89	21.34	3.09	-49.4	-58.3	3.6	8.41e-01	0	31	0	0	60	40183
2026-01-06 16:54:35.90	21.35	3.15	-49.2	-57.8	4.4	8.31e-01	0	31	104	0	60	37682
2026-01-06 16:54:36.91	21.35	3.22	-48.8	-54.5	5.3	7.24e-01	0	31	0	0	60	25830
2026-01-06 16:54:37.92	21.35	3.29	-48.2	-52.8	7.4	1.65e-01	0	31	102	1048576	60	21306
2026-01-06 16:54:38.93	21.35	3.36	-47.3	-50.8	9.9	2.15e-02	0	31	102	1048576	60	16823
2026-01-06 16:54:39.94	21.35	3.42	-46.2	-48.8	12.0	9.30e-04	0	31	102	1048576	60	13372
2026-01-06 16:54:40.95	21.35	3.49	-45.2	-47.4	13.5	4.00e-05	0	31	102	1048576	60	11401
2026-01-06 16:54:41.96	21.35	3.56	-44.5	-46.4	14.6	3.40e-06	0	31	102	1048576	60	10156
2026-01-06 16:54:42.97	21.35	3.63	-44.2	-45.9	15.1	0.00e+00	0	31	102	1048576	60	9612
2026-01-06 16:54:43.98	21.35	3.70	-43.6	-45.2	15.8	0.00e+00	0	31	102	1048576	60	8919
2026-01-06 16:54:44.99	21.36	3.76	-43.9	-45.6	15.4	0.00e+00	0	31	102	1048576	60	9277
2026-01-06 16:54:46.00	21.36	3.83	-44.0	-45.7	15.3	0.00e+00	0	31	102	1048576	60	9392
2026-01-06 16:54:47.01	21.36	3.90	-44.4	-46.2	14.8	0.00e+00	0	31	102	1048576	60	9928
2026-01-06 16:54:48.02	21.36	3.97	-45.1	-47.2	13.7	1.10e-06	0	31	102	1048576	60	11143
2026-01-06 16:54:49.03	21.36	4.04	-45.9	-48.4	12.3	1.42e-04	0	31	102	1048576	60	12859
2026-01-06 16:54:50.04	21.36	4.11	-46.9	-50.0	11.1	2.06e-03	0	31	102	1048576	60	15496
2026-01-06 16:54:51.05	21.36	4.18	-42.4	-43.7	17.4	0.00e+00	0	31	102	1048576	60	7490
2026-01-06 16:54:52.06	21.36	4.25	-45.8	-48.1	13.9	1.25e-05	0	31	102	1048576	60	12397
2026-01-06 16:54:53.07	21.36	4.32	-49.5	-60.8	3.6	8.45e-01	0	31	104	1048576	60	53649
2026-01-06 16:54:54.08	21.37	4.39	-38.3	-39.1	20.1	6.15e-01	0	31	104	1048576	56	5517
2026-01-06 16:54:55.09	21.37	4.46	-49.6	-60.3	3.6	4.74e-01	0	31	104	1048576	60	50201
2026-01-06 16:54:56.10	21.37	4.53	-38.3	-39.1	20.2	7.80e-01	0	31	104	1048576	56	5560
2026-01-06 16:54:57.10	21.37	4.60	-37.9	-38.7	22.3	0.00e+00	0	31	0	1048576	54	5937
2026-01-06 16:54:58.11	21.37	4.67	-37.8	-38.6	22.4	0.00e+00	0	31	0	1048576	54	5860
2026-01-06 16:54:59.13	21.37	4.74	-37.8	-38.6	22.3	0.00e+00	0	31	0	1048576	54	5888
2026-01-06 16:55:00.14	21.37	4.81	-37.9	-38.7	22.4	0.00e+00	0	31	0	1048576	54	5902
2026-01-06 16:55:01.15	21.37	4.89	-37.6	-38.4	22.6	0.00e+00	0	31	0	1048576	54	5712
2026-01-06 16:55:02.16	21.37	4.96	-37.8	-38.6	22.5	0.00e+00	0	31	0	1048576	54	5880
2026-01-06 16:55:03.17	21.37	5.03	-37.4	-38.2	22.7	0.00e+00	0	31	101	1048576	54	5608
2026-01-06 16:55:04.18	21.37	5.10	-37.5	-38.2	22.8	0.00e+00	0	31	101	1048576	54	5624
2026-01-06 16:55:05.18	21.37	5.17	-37.4	-38.2	22.8	0.00e+00	0	31	101	1048576	54	5606
2026-01-06 16:55:06.20	21.38	5.25	-37.6	-38.4	22.8	0.00e+00	0	31	101	1048576	54	5707
2026-01-06 16:55:07.20	21.38	5.32	-37.5	-38.2	22.9	0.00e+00	0	31	101	1048576	54	5620
2026-01-06 16:55:08.21	21.38	5.39	-37.4	-38.2	23.0	0.00e+00	0	31	101	1048576	54	5567
2026-01-06 16:55:09.22	21.38	5.46	-37.3	-38.1	23.0	0.00e+00	0	31	101	1048576	54	5525
2026-01-06 16:55:10.24	21.38	5.54	-37.3	-38.1	23.0	0.00e+00	0	31	101	1048576	54	5538
2026-01-06 16:55:11.25	21.38	5.61	-37.3	-38.1	23.1	0.00e+00	0	31	101	1048576	54	5506
2026-01-06 16:55:12.26	21.38	5.68	-37.6	-38.3	22.8	0.00e+00	0	31	101	1048576	54	5691
2026-01-06 16:55:13.27	21.38	5.76	-37.7	-38.4	22.7	0.00e+00	0	31	101	1048576	54	5756
2026-01-06 16:55:14.28	21.38	5.83	-37.5	-38.3	23.1	0.00e+00	0	31	101	1048576	54	5640
2026-01-06 16:55:15.29	21.38	5.91	-37.2	-38.0	23.1	0.00e+00	0	31	101	1048576	54	5451
2026-01-06 16:55:16.29	21.38	5.98	-37.3	-38.0	23.2	0.00e+00	0	31	101	1048576	54	5497
2026-01-06 16:55:17.30	21.38	6.05	-37.2	-37.9	23.3	0.00e+00	0	31	101	1048576	52	6090
2026-01-06 16:55:18.31	21.38	6.13	-37.2	-37.9	23.3	0.00e+00	0	31	101	1048576	52	6097
2026-01-06 16:55:19.32	21.38	6.21	-37.3	-38.1	23.1	0.00e+00	0	31	101	1048576	52	6192
2026-01-06 16:55:20.33	21.38	6.28	-37.3	-38.1	23.2	0.00e+00	0	31	101	1048576	52	6196
2026-01-06 16:55:21.34	21.38	6.36	-37.1	-37.8	23.4	0.00e+00	0	31	101	1048576	52	6016
2026-01-06 16:55:22.35	21.38	6.43	-37.1	-37.8	23.5	0.00e+00	0	31	101	1048576	52	6014
2026-01-06 16:55:23.36	21.39	6.51	-37.2	-37.9	23.4	0.00e+00	0	31	101	1048576	52	6088
2026-01-06 16:55:24.37	21.39	6.58	-37.2	-37.9	23.3	0.00e+00	0	31	101	1048576	52	6078
2026-01-06 16:55:25.38	21.39	6.66	-37.3	-38.0	23.3	0.00e+00	0	31	101	1048576	52	6158
2026-01-06 16:55:26.39	21.39	6.74	-37.0	-37.7	23.5	0.00e+00	0	31	101	1048576	52	5957
2026-01-06 16:55:27.40	21.39	6.81	-37.0	-37.8	23.5	0.00e+00	0	31	101	1048576	52	5965
2026-01-06 16:55:28.41	21.39	6.89	-36.9	-37.7	23.6	0.00e+00	0	31	101	1048576	52	5911
2026-01-06 16:55:29.42	21.39	6.97	-36.9	-37.7	23.6	0.00e+00	0	31	101	1048576	52	5917
2026-01-06 16:55:30.43	21.39	7.05	-36.9	-37.6	23.7	0.00e+00	0	31	101	1048576	52	5854
2026-01-06 16:55:31.44	21.39	7.12	-36.8	-37.5	23.8	0.00e+00	0	31	101	1048576	52	5816
2026-01-06 16:55:32.45	21.39	7.20	-36.9	-37.6	23.7	0.00e+00	0	31	101	1048576	52	5844
2026-01-06 16:55:33.46	21.39	7.28	-36.8	-37.5	23.8	0.00e+00	0	31	101	1048576	52	5803
2026-01-06 16:55:34.47	21.39	7.36	-36.8	-37.5	23.8	0.00e+00	0	31	101	1048576	52	5824
2026-01-06 16:55:35.48	21.39	7.44	-36.8	-37.5	23.8	0.00e+00	0	31	101	1048576	52	5809
2026-01-06 16:55:36.49	21.39	7.52	-36.7	-37.4	23.9	0.00e+00	0	31	101	1048576	52	5740
2026-01-06 16:55:37.50	21.39	7.60	-36.7	-37.4	23.8	0.00e+00	0	31	101	1048576	52	5757
2026-01-06 16:55:38.51	21.39	7.68	-36.7	-37.5	23.8	0.00e+00	0	31	101	1048576	52	5782
2026-01-06 16:55:39.52	21.39	7.76	-36.7	-37.4	23.9	0.00e+00	0	31	101	1048576	52	5757
2026-01-06 16:55:40.53	21.39	7.84	-36.8	-37.6	23.7	0.00e+00	0	31	101	1048576	52	5859
2026-01-06 16:55:41.54	21.39	7.92	-36.8	-37.5	23.8	0.00e+00	0	31	101	1048576	52	5769
2026-01-06 16:55:42.55	21.39	8.00	-36.7	-37.4	23.9	0.00e+00	0	31	101	1048576	52	5760
2026-01-06 16:55:43.56	21.39	8.08	-36.8	-37.6	23.7	0.00e+00	0	31	101	1048576	52	5829
2026-01-06 16:55:44.57	21.39	8.16	-36.7	-37.4	24.1	0.00e+00	0	31	101	1048576	52	5721
2026-01-06 16:55:45.58	21.39	8.24	-36.6	-37.2	24.1	0.00e+00	0	31	101	1048576	52	5618
2026-01-06 16:55:46.59	21.39	8.32	-36.5	-37.2	24.2	0.00e+00	0	31	101	1048576	52	5600
2026-01-06 16:55:47.59	21.39	8.40	-36.5	-37.3	24.1	0.00e+00	0	31	101	1048576	52	5643
2026-01-06 16:55:48.60	21.39	8.48	-36.5	-37.2	24.2	0.00e+00	0	31	101	1048576	52	5594
2026-01-06 16:55:49.60	21.39	8.57	-36.6	-37.3	24.1	0.00e+00	0	31	101	1048576	52	5663
2026-01-06 16:55:50.60	21.39	8.65	-36.6	-37.3	24.1	0.00e+00	0	31	101	1048576	52	5672
2026-01-06 16:55:51.61	21.39	8.73	-36.4	-37.1	24.2	0.00e+00	0	31	101	1048576	52	5544
2026-01-06 16:55:52.61	21.39	8.81	-36.4	-37.2	24.3	0.00e+00	0	31	101	1048576	52	5576
2026-01-06 16:55:53.62	21.39	8.90	-36.4	-37.1	24.3	0.00e+00	0	31	101	1048576	52	5536
2026-01-06 16:55:54.63	21.39	8.98	-36.4	-37.1	24.3	0.00e+00	0	31	101	1048576	52	5504
2026-01-06 16:55:55.63	21.39	9.06	-36.3	-37.0	24.4	0.00e+00	0	31	101	1048576	52	5483
2026-01-06 16:55:56.64	21.39	9.15	-36.3	-37.0	24.4	0.00e+00	0	31	101	1048576	52	5475
2026-01-06 16:55:57.65	21.39	9.23	-36.4	-37.0	24.4	0.00e+00	0	31	101	1048576	52	5501
2026-01-06 16:55:58.65	21.39	9.32	-36.3	-37.0	24.4	0.00e+00	0	31	101	1048576	52	5477
2026-01-06 16:55:59.65	21.38	9.40	-36.3	-37.0	24.5	0.00e+00	0	31	101	1048576	52	5465
2026-01-06 16:56:00.66	21.38	9.49	-36.2	-37.0	24.5	0.00e+00	0	31	101	1048576	52	5445
2026-01-06 16:56:01.67	21.38	9.57	-36.1	-36.8	24.6	0.00e+00	0	32	101	1048576	50	6014
2026-01-06 16:56:02.67	21.38	9.66	-36.3	-37.0	24.4	0.00e+00	0	31	101	1048576	50	6159
2026-01-06 16:56:03.68	21.38	9.74	-36.0	-36.7	24.7	0.00e+00	0	31	101	1048576	50	5912
2026-01-06 16:56:04.69	21.38	9.83	-36.1	-36.8	24.6	0.00e+00	0	31	101	1048576	50	5990
2026-01-06 16:56:05.69	21.38	9.92	-36.1	-36.8	24.6	0.00e+00	0	31	101	1048576	50	5969
2026-01-06 16:56:06.70	21.38	10.00	-36.0	-36.7	24.7	0.00e+00	0	31	101	1048576	50	5925
2026-01-06 16:56:07.70	21.38	10.09	-36.0	-36.6	24.7	0.00e+00	0	31	101	1048576	50	5890
2026-01-06 16:56:08.71	21.38	10.18	-36.0	-36.6	24.8	0.00e+00	0	31	101	1048576	50	5896
2026-01-06 16:56:09.72	21.38	10.27	-35.9	-36.6	24.8	0.00e+00	0	31	101	1048576	50	5876
2026-01-06 16:56:10.72	21.38	10.35	-35.8	-36.5	24.9	0.00e+00	0	31	101	1048576	50	5812
2026-01-06 16:56:11.72	21.38	10.44	-35.8	-36.5	24.9	0.00e+00	0	31	101	1048576	50	5819
2026-01-06 16:56:12.73	21.38	10.53	-35.9	-36.6	24.8	0.00e+00	0	31	101	1048576	50	5857
2026-01-06 16:56:13.74	21.38	10.62	-35.9	-36.6	24.8	0.00e+00	0	31	101	1048576	50	5844
2026-01-06 16:56:14.74	21.37	10.71	-35.9	-36.6	24.8	0.00e+00	0	31	101	1048576	50	5875
2026-01-06 16:56:15.75	21.37	10.80	-35.8	-36.5	24.9	0.00e+00	0	31	101	1048576	50	5828
2026-01-06 16:56:16.75	21.37	10.89	-35.7	-36.4	25.0	0.00e+00	0	31	101	1048576	50	5745
2026-01-06 16:56:17.76	21.37	10.98	-35.8	-36.5	24.9	0.00e+00	0	31	101	1048576	50	5795
2026-01-06 16:56:18.77	21.37	11.07	-35.7	-36.4	24.9	0.00e+00	0	31	101	1048576	50	5757
2026-01-06 16:56:19.77	21.37	11.16	-35.9	-36.5	24.9	0.00e+00	0	31	101	1048576	50	5828
2026-01-06 16:56:20.78	21.37	11.25	-35.8	-36.5	25.0	0.00e+00	0	31	101	1048576	50	5803
2026-01-06 16:56:21.78	21.37	11.35	-35.8	-36.5	24.8	0.00e+00	0	31	101	1048576	50	5783
2026-01-06 16:56:22.79	21.37	11.44	-35.7	-36.4	25.0	0.00e+00	0	31	101	1048576	50	5745
2026-01-06 16:56:23.80	21.36	11.53	-35.9	-36.7	24.8	0.00e+00	0	31	101	1048576	50	5899
2026-01-06 16:56:24.80	21.36	11.62	-35.9	-36.5	24.8	0.00e+00	0	31	101	1048576	50	5810
2026-01-06 16:56:25.81	21.36	11.72	-35.9	-36.5	24.8	0.00e+00	0	31	101	1048576	50	5828
2026-01-06 16:56:26.82	21.36	11.81	-35.6	-36.3	25.0	0.00e+00	0	31	101	1048576	50	5644
2026-01-06 16:56:27.82	21.36	11.90	-35.6	-36.3	25.1	0.00e+00	0	32	101	1048576	50	5661
2026-01-06 16:56:28.83	21.36	12.00	-35.6	-36.3	25.1	0.00e+00	0	31	101	1048576	50	5661
2026-01-06 16:56:29.83	21.36	12.09	-35.6	-36.3	25.2	0.00e+00	0	32	101	1048576	50	5638
2026-01-06 16:56:30.83	21.36	12.19	-35.7	-36.3	25.1	0.00e+00	0	31	101	1048576	50	5691
2026-01-06 16:56:31.84	21.35	12.28	-35.6	-36.3	25.1	0.00e+00	0	32	101	1048576	50	5644
2026-01-06 16:56:32.85	21.35	12.38	-35.6	-36.3	25.1	0.00e+00	0	31	101	1048576	50	5669
2026-01-06 16:56:33.85	21.35	12.47	-35.6	-36.3	25.2	0.00e+00	0	31	101	1048576	50	5646
2026-01-06 16:56:34.86	21.35	12.57	-35.7	-36.3	25.1	0.00e+00	0	31	101	1048576	50	5693
2026-01-06 16:56:35.87	21.35	12.67	-35.7	-36.4	25.0	0.00e+00	0	31	101	1048576	50	5726
2026-01-06 16:56:36.88	21.35	12.77	-35.7	-36.3	25.2	0.00e+00	0	31	101	1048576	50	5687
2026-01-06 16:56:37.88	21.34	12.86	-35.7	-36.3	25.1	0.00e+00	0	31	101	1048576	50	5695
2026-01-06 16:56:38.89	21.34	12.96	-35.4	-36.1	25.3	0.00e+00	0	31	101	1048576	50	5536
2026-01-06 16:56:39.89	21.34	13.06	-35.5	-36.2	25.2	0.00e+00	0	31	101	1048576	50	5591
2026-01-06 16:56:40.90	21.34	13.16	-35.4	-36.1	25.4	0.00e+00	0	31	101	1048576	50	5524
2026-01-06 16:56:41.90	21.34	13.26	-35.4	-36.1	25.4	0.00e+00	0	32	101	1048576	50	5523
2026-01-06 16:56:42.91	21.33	13.36	-35.4	-36.0	25.4	0.00e+00	0	31	101	1048576	50	5499
2026-01-06 16:56:43.91	21.33	13.46	-35.5	-36.2	25.2	0.00e+00	0	31	101	1048576	50	5581
2026-01-06 16:56:44.92	21.33	13.56	-35.3	-36.0	25.4	0.00e+00	0	31	101	1048576	50	5482
2026-01-06 16:56:45.92	21.33	13.66	-35.3	-36.0	25.5	0.00e+00	0	32	101	1048576	50	5450
2026-01-06 16:56:46.93	21.33	13.76	-35.3	-36.0	25.5	0.00e+00	0	31	101	1048576	50	5460
2026-01-06 16:56:47.93	21.32	13.86	-35.3	-36.0	25.5	0.00e+00	0	31	101	1048576	50	5445
2026-01-06 16:56:48.94	21.32	13.96	-35.1	-35.8	25.7	0.00e+00	0	32	101	1048576	48	5976
2026-01-06 16:56:49.94	21.32	14.07	-35.1	-35.8	25.7	0.00e+00	0	31	101	1048576	48	5973
2026-01-06 16:56:50.95	21.32	14.17	-35.1	-35.8	25.5	0.00e+00	0	31	101	1048576	48	6001
2026-01-06 16:56:51.96	21.32	14.27	-34.9	-35.6	25.8	0.00e+00	0	31	101	1048576	48	5839
2026-01-06 16:56:52.96	21.31	14.38	-34.9	-35.5	25.9	0.00e+00	0	32	101	1048576	48	5828
2026-01-06 16:56:53.97	21.31	14.48	-34.8	-35.5	25.8	0.00e+00	0	32	101	1048576	48	5787
2026-01-06 16:56:54.97	21.31	14.59	-34.7	-35.4	26.0	0.00e+00	0	32	101	1048576	48	5718
2026-01-06 16:56:55.98	21.31	14.69	-34.7	-35.3	26.0	0.00e+00	0	31	101	1048576	48	5680
2026-01-06 16:56:56.98	21.30	14.80	-34.6	-35.2	26.1	0.00e+00	0	31	101	1048576	48	5589
2026-01-06 16:56:57.99	21.30	14.90	-34.6	-35.2	26.1	0.00e+00	0	31	101	1048576	48	5629
2026-01-06 16:56:59.00	21.30	15.01	-34.4	-35.0	26.3	0.00e+00	0	31	101	1048576	48	5496
2026-01-06 16:57:00.00	21.29	15.12	-34.4	-35.1	26.2	0.00e+00	0	32	101	1048576	48	5523
2026-01-06 16:57:01.01	21.29	15.23	-34.7	-35.3	26.2	0.00e+00	0	32	101	1048576	48	5645
2026-01-06 16:57:02.01	21.29	15.33	-34.3	-34.9	26.3	0.00e+00	0	32	101	1048576	48	5417
2026-01-06 16:57:03.01	21.29	15.44	-34.3	-35.0	26.4	0.00e+00	0	31	101	1048576	48	5441
2026-01-06 16:57:04.02	21.28	15.55	-34.2	-34.8	26.4	0.00e+00	0	31	101	1048576	48	5377
2026-01-06 16:57:05.03	21.28	15.66	-34.1	-34.8	26.5	0.00e+00	0	32	101	1048576	48	5333
2026-01-06 16:57:06.03	21.28	15.77	-34.2	-34.8	26.5	0.00e+00	0	32	101	1048576	46	6019
2026-01-06 16:57:07.04	21.27	15.88	-34.2	-34.8	26.5	0.00e+00	0	32	101	1048576	46	5999
2026-01-06 16:57:08.05	21.27	15.99	-34.0	-34.7	26.6	0.00e+00	0	31	101	1048576	46	5924
2026-01-06 16:57:09.05	21.27	16.10	-34.1	-34.7	26.6	0.00e+00	0	31	101	1048576	46	5924
2026-01-06 16:57:10.06	21.26	16.22	-34.1	-34.8	26.6	0.00e+00	0	31	101	1048576	46	5982
2026-01-06 16:57:11.07	21.26	16.33	-34.1	-34.7	26.6	0.00e+00	0	32	101	1048576	46	5945
2026-01-06 16:57:12.07	21.26	16.44	-34.0	-34.6	26.6	0.00e+00	0	31	101	1048576	46	5875
2026-01-06 16:57:13.08	21.25	16.56	-34.0	-34.6	26.8	0.00e+00	0	31	101	1048576	46	5837
2026-01-06 16:57:14.08	21.25	16.67	-33.9	-34.6	26.6	0.00e+00	0	31	101	1048576	46	5829
2026-01-06 16:57:15.09	21.25	16.78	-34.0	-34.6	26.7	0.00e+00	0	31	101	1048576	46	5891
2026-01-06 16:57:16.09	21.24	16.90	-34.0	-34.6	26.7	0.00e+00	0	31	101	1048576	46	5875
2026-01-06 16:57:17.10	21.24	17.02	-33.9	-34.6	26.8	0.00e+00	0	32	101	1048576	46	5845
2026-01-06 16:57:18.10	21.24	17.13	-34.0	-34.6	26.7	0.00e+00	0	31	101	1048576	46	5876
2026-01-06 16:57:19.11	21.23	17.25	-33.9	-34.5	26.7	0.00e+00	0	31	101	1048576	46	5825
2026-01-06 16:57:20.12	21.23	17.37	-33.9	-34.5	26.8	0.00e+00	0	32	101	1048576	46	5790
2026-01-06 16:57:21.12	21.23	17.48	-33.8	-34.5	26.7	0.00e+00	0	32	101	1048576	46	5770
2026-01-06 16:57:22.12	21.22	17.60	-33.9	-34.5	26.7	0.00e+00	0	32	101	1048576	46	5816
2026-01-06 16:57:23.13	21.22	17.72	-33.8	-34.4	26.8	0.00e+00	0	32	101	1048576	46	5746
2026-01-06 16:57:24.14	21.21	17.84	-33.8	-34.4	26.8	0.00e+00	0	32	101	1048576	46	5734
2026-01-06 16:57:25.14	21.21	17.96	-33.8	-34.4	26.8	0.00e+00	0	32	101	1048576	46	5737
2026-01-06 16:57:26.15	21.20	18.08	-33.8	-34.4	26.8	0.00e+00	0	32	101	1048576	46	5758
2026-01-06 16:57:27.15	21.20	18.20	-33.9	-34.6	26.8	0.00e+00	0	32	101	1048576	46	5845
2026-01-06 16:57:28.16	21.20	18.33	-33.8	-34.4	26.9	0.00e+00	0	32	101	1048576	46	5719
2026-01-06 16:57:29.16	21.19	18.45	-33.8	-34.4	26.8	0.00e+00	0	32	101	1048576	46	5744
2026-01-06 16:57:30.17	21.19	18.57	-33.8	-34.4	26.9	0.00e+00	0	32	101	1048576	46	5728
2026-01-06 16:57:31.17	21.18	18.70	-33.6	-34.3	27.0	0.00e+00	0	32	101	1048576	46	5645
2026-01-06 16:57:32.18	21.18	18.82	-33.6	-34.2	27.1	0.00e+00	0	32	101	1048576	46	5616
2026-01-06 16:57:33.19	21.17	18.95	-33.6	-34.2	26.9	0.00e+00	0	32	101	1048576	46	5616
2026-01-06 16:57:34.20	21.17	19.07	-33.6	-34.3	27.1	0.00e+00	0	32	101	1048576	46	5636
2026-01-06 16:57:35.21	21.16	19.20	-33.4	-34.1	27.2	0.00e+00	0	32	101	1048576	46	5524
2026-01-06 16:57:36.21	21.16	19.33	-33.5	-34.2	27.1	0.00e+00	0	32	101	1048576	46	5580
2026-01-06 16:57:37.22	21.15	19.46	-33.6	-34.2	27.1	0.00e+00	0	32	101	1048576	46	5602
2026-01-06 16:57:38.23	21.15	19.58	-33.6	-34.2	27.0	0.00e+00	0	32	101	1048576	46	5619
2026-01-06 16:57:39.24	21.14	19.71	-33.6	-34.2	27.1	0.00e+00	0	32	101	1048576	46	5613
2026-01-06 16:57:40.24	21.14	19.84	-33.5	-34.1	27.2	0.00e+00	0	32	101	1048576	46	5530
2026-01-06 16:57:41.25	21.13	19.97	-33.3	-33.9	27.4	0.00e+00	0	32	101	1048576	46	5403
2026-01-06 16:57:42.25	21.13	20.11	-33.2	-33.9	27.4	0.00e+00	0	32	101	1048576	46	5382
2026-01-06 16:57:43.26	21.12	20.24	-33.3	-33.9	27.3	0.00e+00	0	32	101	1048576	46	5419
2026-01-06 16:57:44.26	21.12	20.37	-33.3	-34.0	27.3	0.00e+00	0	32	101	1048576	46	5443
2026-01-06 16:57:45.27	21.11	20.50	-33.1	-33.8	27.5	0.00e+00	0	32	101	1048576	46	5330
2026-01-06 16:57:46.27	21.11	20.64	-33.2	-33.9	27.4	0.00e+00	0	32	101	1048576	44	6035
2026-01-06 16:57:47.28	21.10	20.77	-33.2	-33.8	27.4	0.00e+00	0	32	101	1048576	44	5994
2026-01-06 16:57:48.29	21.09	20.91	-33.1	-33.7	27.4	0.00e+00	0	32	101	1048576	44	5926
2026-01-06 16:57:49.29	21.09	21.04	-33.1	-33.8	27.5	0.00e+00	0	32	101	1048576	44	5968
2026-01-06 16:57:50.30	21.08	21.18	-33.2	-33.8	27.5	0.00e+00	0	32	101	1048576	44	6019
2026-01-06 16:57:51.31	21.08	21.32	-33.0	-33.6	27.6	0.00e+00	0	32	101	1048576	44	5882
2026-01-06 16:57:52.31	21.07	21.46	-33.0	-33.6	27.6	0.00e+00	0	32	101	1048576	44	5853
2026-01-06 16:57:53.32	21.06	21.60	-33.1	-33.7	27.5	0.00e+00	0	32	101	1048576	44	5926
2026-01-06 16:57:54.32	21.06	21.74	-32.9	-33.5	27.7	0.00e+00	0	32	101	1048576	44	5806
2026-01-06 16:57:55.33	21.05	21.88	-33.0	-33.6	27.5	0.00e+00	0	32	101	1048576	44	5858
2026-01-06 16:57:56.34	21.04	22.02	-33.0	-33.7	27.6	0.00e+00	0	32	101	1048576	44	5909
2026-01-06 16:57:57.34	21.04	22.16	-33.0	-33.6	27.7	0.00e+00	0	32	101	1048576	44	5846
2026-01-06 16:57:58.35	21.03	22.31	-33.0	-33.6	27.6	0.00e+00	0	32	101	1048576	44	5848
2026-01-06 16:57:59.35	21.02	22.45	-33.0	-33.6	27.6	0.00e+00	0	31	101	1048576	44	5867
2026-01-06 16:58:00.36	21.02	22.59	-33.0	-33.6	27.5	0.00e+00	0	32	101	1048576	44	5860
2026-01-06 16:58:01.36	21.01	22.74	-32.8	-33.5	27.8	0.00e+00	0	31	101	1048576	44	5766
2026-01-06 16:58:02.37	21.00	22.89	-32.9	-33.5	27.6	0.00e+00	0	32	101	1048576	44	5809
2026-01-06 16:58:03.37	20.99	23.03	-33.0	-33.6	27.6	0.00e+00	0	32	101	1048576	44	5887
2026-01-06 16:58:04.38	20.99	23.18	-32.9	-33.6	27.6	0.00e+00	0	32	101	1048576	44	5836
2026-01-06 16:58:05.39	20.98	23.33	-33.1	-33.7	27.6	0.00e+00	0	32	101	1048576	44	5919
2026-01-06 16:58:06.39	20.97	23.48	-32.9	-33.5	27.7	0.00e+00	0	32	101	1048576	44	5794
2026-01-06 16:58:07.40	20.96	23.63	-33.0	-33.6	27.6	0.00e+00	0	32	101	1048576	44	5882
2026-01-06 16:58:08.40	20.95	23.78	-33.0	-33.6	27.6	0.00e+00	0	31	101	1048576	44	5873
2026-01-06 16:58:09.41	20.95	23.94	-32.9	-33.5	27.7	0.00e+00	0	32	101	1048576	44	5805
2026-01-06 16:58:10.41	20.94	24.09	-32.9	-33.5	27.7	0.00e+00	0	31	101	1048576	44	5774
2026-01-06 16:58:11.42	20.93	24.24	-32.9	-33.6	27.6	0.00e+00	0	31	101	1048576	44	5846
2026-01-06 16:58:12.43	20.92	24.40	-33.0	-33.6	27.6	0.00e+00	0	31	101	1048576	44	5890
2026-01-06 16:58:13.43	20.91	24.56	-32.8	-33.5	27.8	0.00e+00	0	31	101	1048576	44	5774
2026-01-06 16:58:14.44	20.90	24.71	-32.8	-33.4	27.8	0.00e+00	0	31	101	1048576	44	5723
2026-01-06 16:58:15.45	20.90	24.87	-32.8	-33.4	27.7	0.00e+00	0	31	101	1048576	44	5752
2026-01-06 16:58:16.46	20.89	25.03	-32.8	-33.4	27.7	0.00e+00	0	32	101	1048576	44	5751
2026-01-06 16:58:17.46	20.88	25.19	-32.7	-33.3	27.8	0.00e+00	0	31	101	1048576	44	5687
2026-01-06 16:58:18.47	20.87	25.35	-32.7	-33.4	27.7	0.00e+00	0	32	101	1048576	44	5700
2026-01-06 16:58:19.47	20.86	25.51	-32.8	-33.4	27.8	0.00e+00	0	32	101	1048576	44	5737
2026-01-06 16:58:20.47	20.85	25.68	-32.5	-33.1	28.0	0.00e+00	0	32	101	1048576	44	5523
2026-01-06 16:58:21.48	20.84	25.84	-32.5	-33.1	28.1	0.00e+00	0	32	101	1048576	44	5538
2026-01-06 16:58:22.48	20.83	26.00	-32.5	-33.2	28.0	0.00e+00	0	32	101	1048576	44	5571
2026-01-06 16:58:23.49	20.82	26.17	-32.4	-33.1	28.1	0.00e+00	0	32	101	1048576	44	5508
2026-01-06 16:58:24.50	20.81	26.34	-32.4	-33.0	28.1	0.00e+00	0	32	101	1048576	44	5454
2026-01-06 16:58:25.50	20.80	26.51	-32.3	-32.9	28.2	0.00e+00	0	32	101	1048576	44	5426
2026-01-06 16:58:26.51	20.79	26.68	-32.6	-33.2	28.0	0.00e+00	0	32	101	1048576	44	5615
2026-01-06 16:58:27.51	20.78	26.85	-32.4	-33.0	28.1	0.00e+00	0	32	101	1048576	44	5471
2026-01-06 16:58:28.52	20.77	27.02	-32.5	-33.1	28.1	0.00e+00	0	32	101	1048576	44	5551
2026-01-06 16:58:29.52	20.76	27.19	-32.3	-33.0	28.1	0.00e+00	0	32	101	1048576	44	5446
2026-01-06 16:58:30.53	20.75	27.36	-32.4	-33.0	28.2	0.00e+00	0	32	101	1048576	44	5465
2026-01-06 16:58:31.53	20.74	27.54	-32.3	-32.9	28.1	0.00e+00	0	32	101	1048576	44	5428
2026-01-06 16:58:32.54	20.72	27.71	-32.4	-33.0	28.1	0.00e+00	0	32	101	1048576	44	5499
2026-01-06 16:58:33.55	20.71	27.89	-32.3	-32.9	28.2	0.00e+00	0	32	101	1048576	44	5421
2026-01-06 16:58:34.55	20.70	28.07	-32.2	-32.8	28.2	0.00e+00	0	32	101	1048576	44	5328
2026-01-06 16:58:35.56	20.69	28.25	-32.2	-32.8	28.3	0.00e+00	0	32	101	1048576	42	5993
2026-01-06 16:58:36.57	20.68	28.43	-32.2	-32.8	28.3	0.00e+00	0	32	101	1048576	42	5983
2026-01-06 16:58:37.57	20.66	28.61	-32.2	-32.8	28.3	0.00e+00	0	32	101	1048576	42	6011
2026-01-06 16:58:38.57	20.65	28.79	-32.2	-32.8	28.3	0.00e+00	0	32	101	1048576	42	5984
2026-01-06 16:58:39.58	20.64	28.98	-32.4	-33.0	28.2	0.00e+00	0	32	101	1048576	42	6128
2026-01-06 16:58:40.58	20.63	29.16	-32.3	-32.9	28.3	0.00e+00	0	32	101	1048576	42	6059
2026-01-06 16:58:41.59	20.61	29.35	-32.3	-32.9	28.2	0.00e+00	0	32	101	1048576	42	6048
2026-01-06 16:58:42.59	20.60	29.53	-32.3	-32.9	28.2	0.00e+00	0	32	101	1048576	42	6094
2026-01-06 16:58:43.60	20.59	29.72	-32.3	-32.9	28.3	0.00e+00	0	32	101	1048576	42	6054
2026-01-06 16:58:44.60	20.57	29.91	-32.4	-33.0	28.2	0.00e+00	0	32	101	1048576	42	6132
2026-01-06 16:58:45.61	20.56	30.10	-32.2	-32.8	28.3	0.00e+00	0	32	101	1048576	42	5975
2026-01-06 16:58:46.61	20.55	30.30	-32.1	-32.7	28.4	0.00e+00	0	32	101	1048576	42	5915
2026-01-06 16:58:47.62	20.53	30.49	-32.1	-32.7	28.3	0.00e+00	0	32	101	1048576	42	5949
2026-01-06 16:58:48.62	20.52	30.68	-32.1	-32.7	28.3	0.00e+00	0	32	101	1048576	42	5959
2026-01-06 16:58:49.63	20.50	30.88	-32.1	-32.7	28.4	0.00e+00	0	32	101	1048576	42	5962
2026-01-06 16:58:50.64	20.49	31.08	-32.1	-32.7	28.3	0.00e+00	0	32	101	1048576	42	5953
2026-01-06 16:58:51.64	20.47	31.28	-32.2	-32.9	28.3	0.00e+00	0	32	101	1048576	42	6038
2026-01-06 16:58:52.65	20.46	31.48	-32.2	-32.8	28.3	0.00e+00	0	32	101	1048576	42	5985
2026-01-06 16:58:53.66	20.44	31.68	-32.3	-32.9	28.3	0.00e+00	0	32	101	1048576	42	6055
2026-01-06 16:58:54.66	20.43	31.89	-32.3	-32.9	28.1	0.00e+00	0	32	101	1048576	42	6103
2026-01-06 16:58:55.67	20.41	32.09	-32.3	-32.9	28.2	0.00e+00	0	32	101	1048576	42	6081
2026-01-06 16:58:56.67	20.39	32.30	-32.4	-33.0	28.2	0.00e+00	0	32	101	1048576	42	6136
2026-01-06 16:58:57.68	20.38	32.51	-32.2	-32.8	28.3	0.00e+00	0	32	101	1048576	42	5988
2026-01-06 16:58:58.68	20.36	32.71	-32.2	-32.8	28.3	0.00e+00	0	32	101	1048576	42	6030
2026-01-06 16:58:59.69	20.34	32.93	-32.2	-32.8	28.4	0.00e+00	0	32	101	1048576	42	5977
2026-01-06 16:59:00.70	20.33	33.14	-31.9	-32.5	28.4	0.00e+00	0	32	101	1048576	42	5816
2026-01-06 16:59:01.70	20.31	33.35	-31.7	-32.3	28.6	0.00e+00	0	32	101	1048576	42	5660
2026-01-06 16:59:02.70	20.29	33.56	-31.7	-32.3	28.7	0.00e+00	0	32	101	1048576	42	5672
2026-01-06 16:59:03.71	20.27	33.78	-31.6	-32.1	28.8	0.00e+00	0	32	101	1048576	42	5565
2026-01-06 16:59:04.71	20.25	34.00	-31.5	-32.1	28.8	0.00e+00	0	32	101	1048576	42	5526
2026-01-06 16:59:05.72	20.23	34.22	-31.6	-32.1	28.8	0.00e+00	0	32	101	1048576	42	5564
2026-01-06 16:59:06.72	20.22	34.44	-31.7	-32.3	28.7	0.00e+00	0	32	101	1048576	42	5664
2026-01-06 16:59:07.73	20.20	34.66	-31.7	-32.3	28.6	0.00e+00	0	32	101	1048576	42	5684
2026-01-06 16:59:08.74	20.18	34.89	-31.8	-32.4	28.6	0.00e+00	0	32	101	1048576	42	5720
2026-01-06 16:59:09.74	20.16	35.11	-32.0	-32.6	28.5	0.00e+00	0	32	101	1048576	42	5839
2026-01-06 16:59:10.75	20.13	35.34	-31.7	-32.3	28.6	0.00e+00	0	32	101	1048576	42	5669
2026-01-06 16:59:11.76	20.11	35.57	-31.7	-32.3	28.8	0.00e+00	0	32	101	1048576	42	5661
2026-01-06 16:59:12.77	20.09	35.80	-31.7	-32.3	28.7	0.00e+00	0	32	101	1048576	42	5673
2026-01-06 16:59:13.77	20.07	36.04	-31.5	-32.1	28.9	0.00e+00	0	32	101	1048576	42	5511
2026-01-06 16:59:14.78	20.05	36.27	-31.5	-32.1	28.8	0.00e+00	0	32	101	1048576	42	5518
2026-01-06 16:59:15.78	20.03	36.51	-31.4	-32.0	28.9	0.00e+00	0	32	101	1048576	42	5483
2026-01-06 16:59:16.79	20.00	36.75	-31.5	-32.1	28.8	0.00e+00	0	32	101	1048576	42	5541
2026-01-06 16:59:17.79	19.98	36.98	-31.7	-32.3	28.6	0.00e+00	0	32	101	1048576	42	5693
2026-01-06 16:59:18.80	19.96	37.23	-31.9	-32.5	28.6	0.00e+00	0	32	101	1048576	42	5774
2026-01-06 16:59:19.80	19.93	37.47	-32.0	-32.6	28.5	0.00e+00	0	32	101	1048576	42	5888
2026-01-06 16:59:20.81	19.91	37.71	-31.8	-32.5	28.5	0.00e+00	0	32	101	1048576	42	5773
2026-01-06 16:59:21.82	19.88	37.96	-31.7	-32.3	28.6	0.00e+00	0	32	101	1048576	42	5638
2026-01-06 16:59:22.82	19.86	38.21	-31.6	-32.2	28.8	0.00e+00	0	32	101	1048576	42	5593
2026-01-06 16:59:23.83	19.83	38.46	-31.2	-31.7	27.3	0.00e+00	0	32	101	1048576	42	5314
2026-01-06 16:59:24.83	19.81	38.71	-31.0	-31.6	29.2	0.00e+00	0	32	101	1048576	40	5888
2026-01-06 16:59:25.84	19.78	38.97	-31.0	-31.6	29.2	0.00e+00	0	32	101	1048576	40	5855
2026-01-06 16:59:26.85	19.75	39.22	-31.2	-31.8	29.1	0.00e+00	0	32	101	1048576	40	6008
2026-01-06 16:59:27.85	19.73	39.48	-31.4	-32.0	28.9	0.00e+00	0	32	101	1048576	40	6114
2026-01-06 16:59:28.85	19.70	39.74	-31.6	-32.2	28.8	0.00e+00	0	32	101	1048576	40	6304
2026-01-06 16:59:29.86	19.67	40.00	-31.7	-32.4	28.7	0.00e+00	0	32	101	1048576	40	6403
2026-01-06 16:59:30.87	19.64	40.27	-31.9	-32.5	28.5	0.00e+00	0	32	101	1048576	40	6533
2026-01-06 16:59:31.87	19.61	40.53	-32.0	-32.6	28.5	0.00e+00	0	32	101	1048576	40	6555
2026-01-06 16:59:32.88	19.58	40.80	-31.9	-32.5	28.6	0.00e+00	0	32	101	1048576	40	6539
2026-01-06 16:59:33.88	19.55	41.07	-31.8	-32.3	28.6	0.00e+00	0	32	101	1048576	40	6388
2026-01-06 16:59:34.89	19.52	41.34	-31.6	-32.2	28.7	0.00e+00	0	32	101	1048576	40	6303
2026-01-06 16:59:35.90	19.49	41.61	-31.8	-32.4	28.7	0.00e+00	0	32	101	1048576	40	6391
2026-01-06 16:59:36.90	19.45	41.89	-31.9	-32.5	28.6	0.00e+00	0	32	101	1048576	40	6476
2026-01-06 16:59:37.90	19.42	42.17	-31.8	-32.3	28.7	0.00e+00	0	32	101	1048576	40	6383
2026-01-06 16:59:38.91	19.39	42.45	-31.8	-32.4	28.7	0.00e+00	0	32	101	1048576	40	6431
2026-01-06 16:59:39.91	19.35	42.73	-31.8	-32.3	28.7	0.00e+00	0	32	101	1048576	40	6381
2026-01-06 16:59:40.92	19.32	43.01	-31.8	-32.4	28.6	0.00e+00	0	32	101	1048576	40	6414
2026-01-06 16:59:41.92	19.28	43.30	-31.8	-32.5	28.7	0.00e+00	0	32	101	1048576	40	6478
2026-01-06 16:59:42.92	19.24	43.58	-31.8	-32.4	28.6	0.00e+00	0	32	101	1048576	40	6409
2026-01-06 16:59:43.93	19.21	43.88	-31.9	-32.5	28.7	0.00e+00	0	32	101	1048576	40	6493
2026-01-06 16:59:44.93	19.17	44.17	-31.9	-32.5	28.5	0.00e+00	0	32	101	1048576	40	6526
2026-01-06 16:59:45.94	19.13	44.46	-32.0	-32.6	28.5	0.00e+00	0	32	101	1048576	40	6543
2026-01-06 16:59:46.94	19.09	44.76	-32.1	-32.7	28.5	0.00e+00	0	32	101	1048576	40	6628
2026-01-06 16:59:47.95	19.05	45.06	-32.1	-32.7	28.3	0.00e+00	0	32	101	1048576	40	6666
2026-01-06 16:59:48.96	19.01	45.36	-32.3	-32.9	28.3	0.00e+00	0	32	101	1048576	42	6094
2026-01-06 16:59:49.96	18.97	45.67	-32.5	-33.1	28.2	0.00e+00	0	32	101	1048576	42	6219
2026-01-06 16:59:50.97	18.92	45.97	-32.6	-33.2	28.1	0.00e+00	0	32	101	1048576	42	6256
2026-01-06 16:59:51.98	18.88	46.28	-32.6	-33.2	28.0	0.00e+00	0	31	101	1048576	42	6313
2026-01-06 16:59:53.00	18.83	46.60	-32.3	-32.9	28.3	0.00e+00	0	32	101	1048576	42	6054
2026-01-06 16:59:54.01	18.79	46.91	-32.2	-32.8	28.4	0.00e+00	0	32	101	1048576	42	6003
2026-01-06 16:59:55.02	18.74	47.23	-32.0	-32.6	28.6	0.00e+00	0	32	101	1048576	42	5851
2026-01-06 16:59:56.03	18.69	47.55	-32.1	-32.6	28.4	0.00e+00	0	32	101	1048576	42	5896
2026-01-06 16:59:57.04	18.64	47.87	-32.2	-32.8	28.4	0.00e+00	0	32	101	1048576	42	5998
2026-01-06 16:59:58.04	18.59	48.19	-32.6	-33.2	28.1	0.00e+00	0	31	101	1048576	42	6284
2026-01-06 16:59:59.06	18.54	48.52	-32.7	-33.4	27.9	0.00e+00	0	32	101	1048576	42	6392
2026-01-06 17:00:00.06	18.49	48.85	-32.5	-33.2	28.1	0.00e+00	0	32	101	1048576	42	6260
2026-01-06 17:00:01.07	18.43	49.18	-32.4	-33.0	28.3	0.00e+00	0	32	101	1048576	42	6119
2026-01-06 17:00:02.08	18.38	49.52	-32.0	-32.6	28.5	0.00e+00	0	32	101	1048576	42	5893
2026-01-06 17:00:03.09	18.32	49.85	-31.8	-32.4	28.7	0.00e+00	0	32	101	1048576	42	5699
2026-01-06 17:00:04.10	18.26	50.19	-32.0	-32.6	28.6	0.00e+00	0	32	101	1048576	42	5854
2026-01-06 17:00:05.11	18.20	50.53	-32.2	-32.8	28.3	0.00e+00	0	32	101	1048576	42	6029
2026-01-06 17:00:06.12	18.14	50.88	-32.3	-33.0	28.3	0.00e+00	0	32	101	1048576	42	6106
2026-01-06 17:00:07.14	18.08	51.23	-32.1	-32.8	28.5	0.00e+00	0	32	101	1048576	42	5973
2026-01-06 17:00:08.15	18.01	51.58	-32.0	-32.6	28.5	0.00e+00	0	31	101	1048576	42	5851
2026-01-06 17:00:09.16	17.95	51.93	-31.8	-32.4	28.7	0.00e+00	0	32	101	1048576	42	5723
2026-01-06 17:00:10.17	17.88	52.28	-31.9	-32.5	28.6	0.00e+00	0	32	101	1048576	42	5807
2026-01-06 17:00:11.18	17.81	52.64	-32.5	-33.2	28.1	0.00e+00	0	32	101	1048576	42	6248
2026-01-06 17:00:12.19	17.74	53.00	-32.8	-33.4	27.9	0.00e+00	0	32	101	1048576	42	6449
2026-01-06 17:00:13.20	17.67	53.36	-32.9	-33.5	27.7	0.00e+00	0	32	101	1048576	42	6528
2026-01-06 17:00:14.21	17.59	53.73	-32.9	-33.6	27.8	0.00e+00	0	32	101	1048576	42	6565
2026-01-06 17:00:15.21	17.52	54.09	-33.2	-33.8	27.6	0.00e+00	0	32	101	1048576	42	6745
2026-01-06 17:00:16.22	17.44	54.46	-33.3	-33.9	27.4	0.00e+00	0	32	101	1048576	44	6075
2026-01-06 17:00:17.23	17.36	54.83	-33.5	-34.1	27.4	0.00e+00	0	32	101	1048576	44	6196
2026-01-06 17:00:18.24	17.27	55.21	-33.5	-34.2	27.4	0.00e+00	0	32	101	1048576	44	6246
2026-01-06 17:00:19.25	17.19	55.58	-33.5	-34.1	27.4	0.00e+00	0	32	101	1048576	44	6211
2026-01-06 17:00:20.26	17.10	55.96	-33.4	-34.0	27.4	0.00e+00	0	32	101	1048576	44	6150
2026-01-06 17:00:21.27	17.01	56.35	-33.4	-34.0	27.3	0.00e+00	0	32	101	1048576	44	6115
2026-01-06 17:00:22.28	16.92	56.73	-33.7	-34.4	27.0	0.00e+00	0	32	101	1048576	44	6432
2026-01-06 17:00:23.29	16.82	57.12	-33.8	-34.5	27.1	0.00e+00	0	32	101	1048576	44	6471
2026-01-06 17:00:24.30	16.72	57.51	-33.1	-33.7	27.6	0.00e+00	0	32	101	1048576	44	5944
2026-01-06 17:00:25.31	16.62	57.90	-32.9	-33.5	27.8	0.00e+00	0	32	101	1048576	44	5824
2026-01-06 17:00:26.32	16.52	58.30	-32.9	-33.5	27.8	0.00e+00	0	32	101	1048576	44	5804
2026-01-06 17:00:27.33	16.41	58.70	-32.9	-33.5	27.8	0.00e+00	0	32	101	1048576	44	5766
2026-01-06 17:00:28.33	16.30	59.09	-32.9	-33.6	27.8	0.00e+00	0	32	101	1048576	44	5839
2026-01-06 17:00:29.34	16.18	59.50	-33.0	-33.6	27.7	0.00e+00	0	32	101	1048576	44	5857
2026-01-06 17:00:30.35	16.06	59.90	-32.8	-33.4	27.8	0.00e+00	0	32	101	1048576	44	5734
2026-01-06 17:00:31.36	15.94	60.31	-32.6	-33.2	28.1	0.00e+00	0	32	101	1048576	44	5622
2026-01-06 17:00:32.38	15.81	60.73	-32.4	-33.1	28.1	0.00e+00	0	32	101	1048576	44	5515
2026-01-06 17:00:33.39	15.68	61.14	-32.2	-32.8	28.3	0.00e+00	0	32	101	1048576	44	5357
2026-01-06 17:00:34.40	15.54	61.56	-32.0	-32.6	28.4	0.00e+00	0	32	101	1048576	42	5866
2026-01-06 17:00:35.41	15.40	61.97	-32.1	-32.6	28.4	0.00e+00	0	32	101	1048576	42	5892
2026-01-06 17:00:36.41	15.26	62.39	-32.0	-32.6	28.4	0.00e+00	0	32	101	1048576	42	5888
2026-01-06 17:00:37.42	15.11	62.81	-31.8	-32.4	28.6	0.00e+00	0	32	101	1048576	42	5736
2026-01-06 17:00:38.43	14.95	63.24	-32.0	-32.6	28.5	0.00e+00	0	32	101	1048576	42	5858
2026-01-06 17:00:39.44	14.79	63.67	-32.2	-32.8	28.3	0.00e+00	0	32	101	1048576	42	6015
2026-01-06 17:00:40.46	14.62	64.10	-32.1	-32.6	28.4	0.00e+00	0	31	101	1048576	42	5887
2026-01-06 17:00:41.47	14.44	64.54	-31.9	-32.5	28.4	0.00e+00	0	32	101	1048576	42	5778
2026-01-06 17:00:42.48	14.26	64.97	-32.0	-32.6	28.4	0.00e+00	0	32	101	1048576	42	5850
2026-01-06 17:00:43.49	14.07	65.41	-32.1	-32.7	28.3	0.00e+00	0	32	101	1048576	42	5938
2026-01-06 17:00:44.50	13.87	65.85	-31.9	-32.5	28.5	0.00e+00	0	32	101	1048576	42	5818
2026-01-06 17:00:45.51	13.66	66.29	-31.8	-32.3	28.7	0.00e+00	0	32	101	1048576	42	5688
2026-01-06 17:00:46.52	13.45	66.73	-31.6	-32.2	28.7	0.00e+00	0	32	101	1048576	42	5620
2026-01-06 17:00:47.53	13.23	67.18	-31.7	-32.3	28.7	0.00e+00	0	32	101	1048576	42	5664
2026-01-06 17:00:48.54	12.99	67.63	-31.8	-32.5	28.5	0.00e+00	0	32	101	1048576	42	5762
2026-01-06 17:00:49.55	12.75	68.08	-31.5	-32.1	28.8	0.00e+00	0	32	101	1048576	42	5549
2026-01-06 17:00:50.56	12.49	68.53	-31.5	-32.1	28.8	0.00e+00	0	32	101	1048576	42	5522
2026-01-06 17:00:51.57	12.22	68.98	-31.5	-32.1	28.8	0.00e+00	0	32	101	1048576	42	5519
2026-01-06 17:00:52.58	11.94	69.44	-31.4	-32.0	28.9	0.00e+00	0	32	101	1048576	42	5448
2026-01-06 17:00:53.59	11.65	69.90	-31.3	-31.8	28.9	0.00e+00	0	32	101	1048576	42	5376
2026-01-06 17:00:54.60	11.34	70.36	-31.3	-31.9	28.9	0.00e+00	0	32	101	1048576	42	5387
2026-01-06 17:00:55.61	11.01	70.82	-31.3	-31.9	29.0	0.00e+00	0	32	101	1048576	42	5417
2026-01-06 17:00:56.62	10.67	71.28	-31.3	-31.8	28.9	0.00e+00	0	32	101	1048576	42	5362
2026-01-06 17:00:57.63	10.30	71.74	-31.0	-31.5	29.2	0.00e+00	0	32	101	1048576	40	5819
2026-01-06 17:00:58.64	9.92	72.21	-31.0	-31.5	29.1	0.00e+00	0	32	101	1048576	40	5827
2026-01-06 17:00:59.65	9.52	72.67	-30.8	-31.4	29.3	0.00e+00	0	32	101	1048576	40	5708
2026-01-06 17:01:00.66	9.09	73.14	-30.6	-31.2	29.3	0.00e+00	0	32	101	1048576	40	5595
2026-01-06 17:01:01.66	8.64	73.60	-30.6	-31.1	29.4	0.00e+00	0	32	101	1048576	40	5544
2026-01-06 17:01:02.68	8.15	74.08	-30.5	-31.1	29.4	0.00e+00	0	32	101	1048576	40	5562
2026-01-06 17:01:03.69	7.64	74.55	-30.6	-31.2	29.4	0.00e+00	0	32	101	1048576	40	5586
2026-01-06 17:01:04.70	7.09	75.02	-30.5	-31.1	29.3	0.00e+00	0	32	101	1048576	40	5521
2026-01-06 17:01:05.70	6.51	75.48	-30.3	-30.9	29.5	0.00e+00	0	32	101	1048576	40	5416
2026-01-06 17:01:06.71	5.89	75.95	-30.2	-30.8	29.6	0.00e+00	0	32	101	1048576	40	5364
2026-01-06 17:01:07.72	5.22	76.42	-30.2	-30.8	29.7	0.00e+00	0	32	101	1048576	40	5326
2026-01-06 17:01:08.73	4.50	76.89	-30.1	-30.7	29.7	0.00e+00	0	32	101	1048576	38	5934
2026-01-06 17:01:09.74	3.72	77.36	-30.0	-30.6	29.8	0.00e+00	0	32	101	1048576	38	5837
2026-01-06 17:01:10.75	2.88	77.83	-30.2	-30.8	29.6	0.00e+00	0	32	101	1048576	38	5993
2026-01-06 17:01:11.76	1.98	78.30	-30.3	-30.9	29.6	0.00e+00	0	32	101	1048576	38	6054
2026-01-06 17:01:12.77	1.00	78.76	-30.1	-30.7	29.7	0.00e+00	0	32	101	1048576	38	5927
2026-01-06 17:01:13.78	359.93	79.22	-30.0	-30.5	29.8	0.00e+00	0	32	101	1048576	38	5811
2026-01-06 17:01:14.79	358.76	79.68	-30.1	-30.7	29.7	0.00e+00	0	32	101	1048576	38	5951
2026-01-06 17:01:15.79	357.49	80.13	-30.2	-30.8	29.6	0.00e+00	0	32	101	1048576	38	5977
2026-01-06 17:01:16.80	356.09	80.59	-29.8	-30.3	29.9	0.00e+00	0	32	101	1048576	38	5674
2026-01-06 17:01:17.81	354.54	81.03	-29.8	-30.4	29.9	0.00e+00	0	32	101	1048576	38	5714
2026-01-06 17:01:18.82	352.83	81.47	-29.8	-30.5	29.9	0.00e+00	0	32	101	1048576	38	5764
2026-01-06 17:01:19.83	350.93	81.91	-29.4	-30.0	30.1	0.00e+00	0	32	101	1048576	38	5461
2026-01-06 17:01:20.84	348.82	82.33	-29.1	-29.6	30.2	0.00e+00	0	32	101	1048576	36	5887
2026-01-06 17:01:21.85	346.46	82.74	-29.3	-29.9	29.8	0.00e+00	0	32	101	1048576	36	6080
2026-01-06 17:01:22.86	343.82	83.14	-29.4	-29.9	30.1	0.00e+00	0	32	101	1048576	36	6089
2026-01-06 17:01:23.87	340.85	83.53	-29.4	-30.0	30.1	0.00e+00	0	32	101	1048576	36	6116
2026-01-06 17:01:24.88	337.51	83.89	-29.3	-29.9	30.0	0.00e+00	0	32	101	1048576	36	6049
2026-01-06 17:01:25.89	333.77	84.23	-29.4	-30.0	30.1	0.00e+00	0	32	101	1048576	36	6141
2026-01-06 17:01:26.90	329.56	84.55	-29.3	-29.9	30.2	0.00e+00	0	32	101	1048576	36	6053
2026-01-06 17:01:27.91	324.87	84.83	-29.0	-29.6	30.3	0.00e+00	0	32	101	1048576	36	5834
2026-01-06 17:01:28.92	319.67	85.08	-29.2	-29.7	30.2	0.00e+00	0	32	101	1048576	36	5955
2026-01-06 17:01:29.92	314.03	85.27	-29.3	-29.9	30.2	0.00e+00	0	32	101	1048576	36	6051
2026-01-06 17:01:30.93	307.90	85.43	-29.1	-29.7	30.2	0.00e+00	0	32	101	1048576	36	5911
2026-01-06 17:01:31.94	301.43	85.52	-29.3	-29.9	30.0	0.00e+00	0	32	101	1048576	36	6069
2026-01-06 17:01:32.95	294.77	85.56	-29.5	-30.1	30.0	0.00e+00	0	32	101	1048576	36	6211
2026-01-06 17:01:33.96	288.10	85.53	-29.7	-30.2	29.9	0.00e+00	0	32	101	1048576	36	6276
2026-01-06 17:01:34.97	281.58	85.45	-29.9	-30.4	29.8	0.00e+00	0	32	101	1048576	36	6453
2026-01-06 17:01:35.98	275.37	85.31	-29.8	-30.3	29.9	0.00e+00	0	32	101	1048576	36	6370
2026-01-06 17:01:36.99	269.59	85.12	-29.8	-30.4	29.8	0.00e+00	0	32	101	1048576	36	6405
2026-01-06 17:01:38.00	264.30	84.88	-29.7	-30.4	29.8	0.00e+00	0	32	101	1048576	36	6396
2026-01-06 17:01:39.01	259.52	84.60	-29.6	-30.1	30.0	0.00e+00	0	32	101	1048576	36	6228
2026-01-06 17:01:40.02	255.22	84.29	-29.8	-30.4	29.9	0.00e+00	0	32	101	1048576	36	6413
2026-01-06 17:01:41.03	251.40	83.96	-29.7	-30.3	29.9	0.00e+00	0	32	101	1048576	36	6347
2026-01-06 17:01:42.04	247.99	83.59	-29.9	-30.5	29.7	0.00e+00	0	32	101	1048576	36	6480
2026-01-06 17:01:43.04	244.99	83.22	-30.0	-30.5	29.7	0.00e+00	0	32	101	1048576	36	6491
2026-01-06 17:01:44.05	242.29	82.82	-29.8	-30.5	29.6	0.00e+00	0	32	101	1048576	36	6467
2026-01-06 17:01:45.06	239.87	82.41	-29.8	-30.4	29.6	0.00e+00	0	31	101	1048576	36	6411
2026-01-06 17:01:46.07	237.72	81.99	-29.7	-30.3	29.8	0.00e+00	0	32	101	1048576	36	6364
2026-01-06 17:01:47.08	235.78	81.55	-29.7	-30.2	29.7	0.00e+00	0	32	101	1048576	36	6267
2026-01-06 17:01:48.09	234.03	81.11	-29.5	-30.1	30.0	0.00e+00	0	32	101	1048576	36	6229
2026-01-06 17:01:49.10	232.46	80.67	-29.2	-29.8	30.1	0.00e+00	0	32	101	1048576	36	6018
2026-01-06 17:01:50.11	231.03	80.22	-29.1	-29.8	30.2	0.00e+00	0	32	101	1048576	36	5972
2026-01-06 17:01:51.12	229.73	79.76	-28.9	-29.5	30.3	0.00e+00	0	31	101	1048576	36	5782
2026-01-06 17:01:52.13	228.54	79.30	-29.0	-29.6	30.4	0.00e+00	0	32	101	1048576	36	5849
2026-01-06 17:01:53.14	227.45	78.84	-29.3	-29.9	30.0	0.00e+00	0	32	101	1048576	36	6093
2026-01-06 17:01:54.15	226.45	78.37	-29.2	-29.7	30.1	0.00e+00	0	31	101	1048576	36	5925
2026-01-06 17:01:55.16	225.53	77.91	-29.1	-29.6	30.3	0.00e+00	0	32	101	1048576	36	5874
2026-01-06 17:01:56.17	224.68	77.44	-29.4	-30.0	30.1	0.00e+00	0	32	101	1048576	36	6120
2026-01-06 17:01:57.19	223.89	76.97	-29.4	-30.0	30.1	0.00e+00	0	32	101	1048576	36	6122
2026-01-06 17:01:58.20	223.16	76.49	-29.2	-29.8	30.2	0.00e+00	0	32	101	1048576	36	6012
2026-01-06 17:01:59.21	222.48	76.02	-29.3	-29.9	30.2	0.00e+00	0	32	101	1048576	36	6088
2026-01-06 17:02:00.22	221.85	75.55	-29.2	-29.8	30.2	0.00e+00	0	32	101	1048576	36	6004
2026-01-06 17:02:01.23	221.26	75.08	-29.3	-29.8	30.1	0.00e+00	0	32	101	1048576	36	6012
2026-01-06 17:02:02.23	220.71	74.62	-29.4	-30.0	30.1	0.00e+00	0	32	101	1048576	36	6122
2026-01-06 17:02:03.24	220.19	74.15	-29.6	-30.3	30.0	0.00e+00	0	32	101	1048576	36	6343
2026-01-06 17:02:04.25	219.71	73.68	-29.6	-30.1	29.9	0.00e+00	0	32	101	1048576	36	6244
2026-01-06 17:02:05.26	219.25	73.21	-30.0	-30.5	29.9	0.00e+00	0	32	101	1048576	36	6535
2026-01-06 17:02:06.27	218.81	72.74	-30.1	-30.7	29.6	0.00e+00	0	32	101	1048576	36	6677
2026-01-06 17:02:07.28	218.40	72.27	-30.4	-30.9	29.5	0.00e+00	0	32	101	1048576	38	6079
2026-01-06 17:02:08.29	218.02	71.81	-30.3	-30.8	29.5	0.00e+00	0	32	101	1048576	38	6033
2026-01-06 17:02:09.30	217.65	71.34	-30.4	-30.9	29.4	0.00e+00	0	32	101	1048576	38	6061
2026-01-06 17:02:10.31	217.31	70.88	-30.4	-30.9	29.4	0.00e+00	0	32	101	1048576	38	6083
2026-01-06 17:02:11.32	216.98	70.42	-30.6	-31.2	29.3	0.00e+00	0	32	101	1048576	38	6260
2026-01-06 17:02:12.33	216.66	69.96	-30.9	-31.5	29.1	0.00e+00	0	32	101	1048576	38	6529
2026-01-06 17:02:13.34	216.37	69.50	-30.8	-31.5	29.2	0.00e+00	0	32	101	1048576	38	6505
2026-01-06 17:02:14.35	216.08	69.04	-30.5	-31.1	29.4	0.00e+00	0	32	101	1048576	38	6243
2026-01-06 17:02:15.36	215.81	68.59	-30.8	-31.3	29.2	0.00e+00	0	32	101	1048576	38	6368
2026-01-06 17:02:16.36	215.56	68.14	-31.1	-31.7	29.0	0.00e+00	0	32	101	1048576	40	5898
2026-01-06 17:02:17.37	215.31	67.69	-30.6	-31.2	29.5	0.00e+00	0	32	101	1048576	40	5605
2026-01-06 17:02:18.38	215.07	67.24	-30.5	-31.0	29.4	0.00e+00	0	32	101	1048576	40	5488
2026-01-06 17:02:19.39	214.85	66.79	-31.1	-31.8	29.0	0.00e+00	0	32	101	1048576	40	5972
2026-01-06 17:02:20.40	214.63	66.34	-31.3	-31.9	28.9	0.00e+00	0	32	101	1048576	40	6080
2026-01-06 17:02:21.41	214.42	65.90	-30.9	-31.5	29.2	0.00e+00	0	32	101	1048576	40	5765
2026-01-06 17:02:22.42	214.22	65.46	-30.7	-31.3	29.2	0.00e+00	0	32	101	1048576	40	5652
2026-01-06 17:02:23.43	214.03	65.02	-31.1	-31.8	28.9	0.00e+00	0	32	101	1048576	40	5997
2026-01-06 17:02:24.44	213.85	64.59	-31.3	-31.9	28.8	0.00e+00	0	32	101	1048576	40	6040
2026-01-06 17:02:25.45	213.67	64.15	-31.3	-31.8	28.9	0.00e+00	0	32	101	1048576	40	6000
2026-01-06 17:02:26.46	213.50	63.72	-31.1	-31.7	29.1	0.00e+00	0	32	101	1048576	40	5909
2026-01-06 17:02:27.47	213.34	63.29	-31.2	-31.9	28.9	0.00e+00	0	32	101	1048576	40	6036
2026-01-06 17:02:28.48	213.18	62.86	-31.2	-31.9	28.9	0.00e+00	0	32	101	1048576	40	6039
2026-01-06 17:02:29.49	213.03	62.44	-30.7	-31.2	29.3	0.00e+00	0	32	101	1048576	40	5592
2026-01-06 17:02:30.50	212.88	62.02	-30.6	-31.1	29.4	0.00e+00	0	32	101	1048576	40	5556
2026-01-06 17:02:31.51	212.74	61.60	-30.9	-31.5	29.2	0.00e+00	0	32	101	1048576	40	5798
2026-01-06 17:02:32.52	212.60	61.18	-31.1	-31.7	29.0	0.00e+00	0	32	101	1048576	40	5906
2026-01-06 17:02:33.53	212.47	60.76	-31.1	-31.7	29.0	0.00e+00	0	32	101	1048576	40	5924
2026-01-06 17:02:34.54	212.34	60.35	-31.1	-31.7	29.0	0.00e+00	0	32	101	1048576	40	5957
2026-01-06 17:02:35.55	212.22	59.94	-31.0	-31.5	29.0	0.00e+00	0	32	101	1048576	40	5776
2026-01-06 17:02:36.56	212.10	59.53	-31.1	-31.8	29.0	0.00e+00	0	32	101	1048576	40	5972
2026-01-06 17:02:37.57	211.98	59.13	-31.7	-32.4	28.6	0.00e+00	0	32	101	1048576	40	6440
2026-01-06 17:02:38.58	211.87	58.73	-31.9	-32.6	28.4	0.00e+00	0	32	101	1048576	40	6592
2026-01-06 17:02:39.59	211.76	58.33	-31.7	-32.4	28.6	0.00e+00	0	32	101	1048576	40	6396
2026-01-06 17:02:40.60	211.65	57.93	-31.6	-32.1	28.7	0.00e+00	0	32	101	1048576	40	6186
2026-01-06 17:02:41.61	211.55	57.54	-31.6	-32.2	28.6	0.00e+00	0	32	101	1048576	40	6246
2026-01-06 17:02:42.62	211.45	57.14	-31.8	-32.4	28.5	0.00e+00	0	32	101	1048576	40	6464
2026-01-06 17:02:43.63	211.35	56.75	-31.8	-32.3	28.4	0.00e+00	0	32	101	1048576	40	6386
2026-01-06 17:02:44.64	211.26	56.37	-32.0	-32.7	28.3	0.00e+00	0	32	101	1048576	40	6617
2026-01-06 17:02:45.65	211.17	55.98	-32.0	-32.6	28.4	0.00e+00	0	32	101	1048576	40	6561
2026-01-06 17:02:46.66	211.08	55.60	-32.1	-32.6	28.3	0.00e+00	0	32	101	1048576	40	6613
2026-01-06 17:02:47.67	210.99	55.22	-32.3	-32.8	28.2	0.00e+00	0	32	101	1048576	42	6023
2026-01-06 17:02:48.68	210.91	54.85	-32.6	-33.1	28.0	0.00e+00	0	32	101	1048576	42	6236
2026-01-06 17:02:49.69	210.83	54.47	-33.1	-33.7	25.8	0.00e+00	0	32	101	1048576	42	6671
2026-01-06 17:02:50.70	210.75	54.10	-33.2	-33.9	27.3	0.00e+00	0	32	101	1048576	44	6091
2026-01-06 17:02:51.71	210.67	53.73	-33.1	-33.7	27.4	0.00e+00	0	32	101	1048576	44	5951
2026-01-06 17:02:52.72	210.60	53.37	-33.0	-33.5	27.5	0.00e+00	0	32	101	1048576	44	5807
2026-01-06 17:02:53.73	210.52	53.00	-33.1	-33.7	27.2	0.00e+00	0	32	101	1048576	44	5903
2026-01-06 17:02:54.74	210.45	52.64	-33.1	-33.8	27.3	0.00e+00	0	32	101	1048576	44	5982
2026-01-06 17:02:55.75	210.38	52.28	-33.1	-33.8	27.5	0.00e+00	0	32	101	1048576	44	5999
2026-01-06 17:02:56.75	210.31	51.93	-33.2	-33.9	27.4	0.00e+00	0	32	101	1048576	44	6076
2026-01-06 17:02:57.77	210.25	51.58	-32.6	-33.1	27.9	0.00e+00	0	32	101	1048576	44	5524
2026-01-06 17:02:58.78	210.18	51.22	-32.5	-33.0	28.0	0.00e+00	0	32	101	1048576	44	5470
2026-01-06 17:02:59.79	210.12	50.88	-32.6	-33.1	28.0	0.00e+00	0	32	101	1048576	44	5525
2026-01-06 17:03:00.80	210.06	50.53	-32.8	-33.5	27.7	0.00e+00	0	32	101	1048576	44	5807
2026-01-06 17:03:01.81	210.00	50.19	-33.1	-33.7	27.6	0.00e+00	0	32	101	1048576	44	5902
2026-01-06 17:03:02.81	209.94	49.85	-32.9	-33.5	27.7	0.00e+00	0	32	101	1048576	44	5793
2026-01-06 17:03:03.82	209.88	49.51	-32.4	-33.0	28.1	0.00e+00	0	32	101	1048576	44	5482
2026-01-06 17:03:04.83	209.83	49.18	-32.1	-32.8	28.3	0.00e+00	0	32	101	1048576	42	5979
2026-01-06 17:03:05.84	209.77	48.84	-31.9	-32.5	28.5	0.00e+00	0	32	101	1048576	42	5765
2026-01-06 17:03:06.85	209.72	48.51	-31.9	-32.4	28.5	0.00e+00	0	32	101	1048576	42	5734
2026-01-06 17:03:07.86	209.67	48.19	-32.1	-32.6	28.4	0.00e+00	0	32	101	1048576	42	5867
2026-01-06 17:03:08.87	209.62	47.86	-32.2	-32.8	28.2	0.00e+00	0	32	101	1048576	42	5989
2026-01-06 17:03:09.88	209.57	47.54	-32.4	-33.1	28.2	0.00e+00	0	32	101	1048576	42	6182
2026-01-06 17:03:10.89	209.52	47.22	-32.2	-32.7	28.2	0.00e+00	0	32	101	1048576	42	5931
2026-01-06 17:03:11.91	209.47	46.89	-31.9	-32.5	28.4	0.00e+00	0	32	101	1048576	42	5771
2026-01-06 17:03:12.92	209.42	46.58	-31.8	-32.3	28.5	0.00e+00	0	32	101	1048576	42	5686
2026-01-06 17:03:13.93	209.38	46.26	-31.7	-32.4	28.6	0.00e+00	0	32	101	1048576	42	5726
2026-01-06 17:03:14.94	209.33	45.95	-31.8	-32.3	28.6	0.00e+00	0	32	101	1048576	42	5647
2026-01-06 17:03:15.95	209.29	45.64	-31.5	-32.2	28.7	0.00e+00	0	32	101	1048576	42	5584
2026-01-06 17:03:16.96	209.25	45.34	-31.5	-32.0	28.7	0.00e+00	0	32	101	1048576	42	5495
2026-01-06 17:03:17.97	209.20	45.03	-31.7	-32.3	28.6	0.00e+00	0	32	101	1048576	42	5638
2026-01-06 17:03:18.98	209.16	44.73	-31.7	-32.4	28.6	0.00e+00	0	32	101	1048576	42	5732
2026-01-06 17:03:19.99	209.12	44.43	-31.8	-32.4	28.6	0.00e+00	0	32	101	1048576	42	5757
2026-01-06 17:03:21.00	209.08	44.13	-31.5	-32.1	28.7	0.00e+00	0	32	101	1048576	42	5539
2026-01-06 17:03:22.01	209.04	43.84	-31.4	-32.0	28.9	0.00e+00	0	32	101	1048576	42	5501
2026-01-06 17:03:23.02	209.01	43.54	-31.4	-31.9	28.8	0.00e+00	0	32	101	1048576	42	5425
2026-01-06 17:03:24.03	208.97	43.25	-31.7	-32.2	28.6	0.00e+00	0	32	101	1048576	42	5624
2026-01-06 17:03:25.04	208.93	42.96	-31.8	-32.3	28.5	0.00e+00	0	32	101	1048576	42	5668
2026-01-06 17:03:26.04	208.90	42.68	-31.9	-32.4	28.4	0.00e+00	0	32	101	1048576	42	5729
2026-01-06 17:03:27.06	208.86	42.39	-31.9	-32.4	28.5	0.00e+00	0	32	101	1048576	42	5732
2026-01-06 17:03:28.07	208.83	42.11	-32.0	-32.5	28.4	0.00e+00	0	32	101	1048576	42	5803
2026-01-06 17:03:29.08	208.79	41.83	-31.7	-32.4	28.6	0.00e+00	0	32	101	1048576	42	5713
2026-01-06 17:03:30.09	208.76	41.55	-31.8	-32.4	28.6	0.00e+00	0	32	101	1048576	42	5756
2026-01-06 17:03:31.09	208.73	41.28	-31.6	-32.2	28.7	0.00e+00	0	32	101	1048576	42	5627
2026-01-06 17:03:32.10	208.70	41.01	-31.7	-32.4	28.6	0.00e+00	0	32	101	1048576	42	5707
2026-01-06 17:03:33.12	208.67	40.73	-31.7	-32.3	28.5	0.00e+00	0	32	101	1048576	42	5679
2026-01-06 17:03:34.13	208.63	40.46	-31.8	-32.4	28.6	0.00e+00	0	32	101	1048576	42	5759
2026-01-06 17:03:35.14	208.60	40.19	-31.9	-32.6	28.5	0.00e+00	0	32	101	1048576	42	5848
2026-01-06 17:03:36.15	208.57	39.93	-31.9	-32.5	28.6	0.00e+00	0	32	101	1048576	42	5825
2026-01-06 17:03:37.16	208.55	39.66	-31.7	-32.4	28.5	0.00e+00	0	32	101	1048576	42	5745
2026-01-06 17:03:38.17	208.52	39.40	-31.8	-32.3	28.4	0.00e+00	0	32	101	1048576	42	5671
2026-01-06 17:03:39.18	208.49	39.14	-31.4	-31.9	28.8	0.00e+00	0	32	101	1048576	42	5431
2026-01-06 17:03:40.19	208.46	38.88	-31.3	-31.9	28.9	0.00e+00	0	32	101	1048576	42	5379
2026-01-06 17:03:41.20	208.43	38.63	-31.2	-31.7	29.0	0.00e+00	0	32	101	1048576	42	5297
2026-01-06 17:03:42.20	208.41	38.38	-31.2	-31.7	28.9	0.00e+00	0	32	101	1048576	40	5904
2026-01-06 17:03:43.21	208.38	38.12	-31.1	-31.6	29.0	0.00e+00	0	32	101	1048576	40	5852
2026-01-06 17:03:44.21	208.36	37.88	-31.1	-31.6	29.0	0.00e+00	0	32	101	1048576	40	5857
2026-01-06 17:03:45.22	208.33	37.63	-31.0	-31.5	29.0	0.00e+00	0	32	101	1048576	40	5813
2026-01-06 17:03:46.23	208.31	37.38	-31.0	-31.6	29.1	0.00e+00	0	32	101	1048576	40	5829
2026-01-06 17:03:47.23	208.28	37.14	-31.0	-31.5	29.1	0.00e+00	0	32	101	1048576	40	5806
2026-01-06 17:03:48.24	208.26	36.89	-31.0	-31.6	29.0	0.00e+00	0	32	101	1048576	40	5830
2026-01-06 17:03:49.24	208.24	36.66	-30.9	-31.4	29.2	0.00e+00	0	32	101	1048576	40	5735
2026-01-06 17:03:50.24	208.21	36.42	-30.8	-31.4	29.2	0.00e+00	0	32	101	1048576	40	5703
2026-01-06 17:03:51.25	208.19	36.18	-30.8	-31.4	29.2	0.00e+00	0	32	101	1048576	40	5696
2026-01-06 17:03:52.26	208.17	35.94	-30.9	-31.4	29.2	0.00e+00	0	32	101	1048576	40	5707
2026-01-06 17:03:53.26	208.15	35.71	-30.7	-31.2	29.3	0.00e+00	0	32	101	1048576	40	5587
2026-01-06 17:03:54.27	208.12	35.48	-30.7	-31.2	29.2	0.00e+00	0	32	101	1048576	40	5609
2026-01-06 17:03:55.28	208.10	35.25	-30.9	-31.4	29.1	0.00e+00	0	32	101	1048576	40	5710
2026-01-06 17:03:56.28	208.08	35.02	-31.1	-31.6	29.0	0.00e+00	0	32	101	1048576	40	5852
2026-01-06 17:03:57.29	208.06	34.79	-31.3	-31.8	28.9	0.00e+00	0	32	101	1048576	40	5998
2026-01-06 17:03:58.30	208.04	34.57	-31.4	-32.0	28.8	0.00e+00	0	32	101	1048576	40	6111
2026-01-06 17:03:59.30	208.02	34.35	-31.6	-32.2	28.6	0.00e+00	0	32	101	1048576	40	6262
2026-01-06 17:04:00.30	208.00	34.12	-31.6	-32.2	28.6	0.00e+00	0	32	101	1048576	40	6270
2026-01-06 17:04:01.31	207.98	33.90	-31.7	-32.3	28.5	0.00e+00	0	32	101	1048576	40	6326
2026-01-06 17:04:02.31	207.96	33.69	-31.8	-32.3	28.6	0.00e+00	0	32	101	1048576	40	6364
2026-01-06 17:04:03.32	207.94	33.47	-31.5	-32.1	28.7	0.00e+00	0	32	101	1048576	40	6200
2026-01-06 17:04:04.32	207.93	33.25	-31.6	-32.3	28.6	0.00e+00	0	32	101	1048576	40	6341
2026-01-06 17:04:05.33	207.91	33.04	-31.5	-32.1	28.8	0.00e+00	0	32	101	1048576	40	6245
2026-01-06 17:04:06.33	207.89	32.83	-31.7	-32.2	28.7	0.00e+00	0	32	101	1048576	40	6268
2026-01-06 17:04:07.34	207.87	32.61	-31.6	-32.1	28.7	0.00e+00	0	32	101	1048576	40	6234
2026-01-06 17:04:08.35	207.86	32.40	-31.6	-32.1	28.7	0.00e+00	0	32	101	1048576	40	6206
2026-01-06 17:04:09.35	207.84	32.20	-31.4	-32.0	28.8	0.00e+00	0	32	101	1048576	40	6106
2026-01-06 17:04:10.36	207.82	31.99	-31.6	-32.1	28.7	0.00e+00	0	32	101	1048576	40	6237
2026-01-06 17:04:11.36	207.81	31.78	-31.6	-32.1	28.7	0.00e+00	0	32	101	1048576	40	6229
2026-01-06 17:04:12.37	207.79	31.58	-31.7	-32.2	28.6	0.00e+00	0	32	101	1048576	40	6260
2026-01-06 17:04:13.38	207.77	31.37	-31.8	-32.3	28.6	0.00e+00	0	32	101	1048576	40	6338
2026-01-06 17:04:14.38	207.76	31.17	-31.8	-32.3	28.4	0.00e+00	0	32	101	1048576	40	6387
2026-01-06 17:04:15.39	207.74	30.97	-31.8	-32.3	28.6	0.00e+00	0	32	101	1048576	40	6379
2026-01-06 17:04:16.39	207.73	30.78	-32.0	-32.5	28.3	0.00e+00	0	32	101	1048576	40	6494
2026-01-06 17:04:17.40	207.71	30.58	-31.9	-32.4	28.5	0.00e+00	0	32	101	1048576	40	6443
2026-01-06 17:04:18.41	207.70	30.38	-31.9	-32.4	28.3	0.00e+00	0	32	101	1048576	40	6432
2026-01-06 17:04:19.41	207.68	30.19	-31.8	-32.3	28.5	0.00e+00	0	32	101	1048576	40	6373
2026-01-06 17:04:20.41	207.67	30.00	-31.8	-32.3	28.3	0.00e+00	0	32	101	1048576	40	6384
2026-01-06 17:04:21.42	207.65	29.80	-31.8	-32.3	28.5	0.00e+00	0	32	101	1048576	40	6369
2026-01-06 17:04:22.43	207.64	29.61	-31.6	-32.2	28.6	0.00e+00	0	32	101	1048576	40	6254
2026-01-06 17:04:23.43	207.63	29.42	-31.6	-32.3	28.6	0.00e+00	0	32	101	1048576	40	6331
2026-01-06 17:04:24.44	207.61	29.23	-31.5	-32.2	28.6	0.00e+00	0	32	101	1048576	40	6272
2026-01-06 17:04:25.45	207.60	29.05	-31.6	-32.3	28.5	0.00e+00	0	32	101	1048576	40	6340
2026-01-06 17:04:26.45	207.59	28.86	-31.6	-32.2	28.7	0.00e+00	0	32	101	1048576	40	6287
2026-01-06 17:04:27.46	207.57	28.68	-31.7	-32.3	28.6	0.00e+00	0	32	101	1048576	40	6368
2026-01-06 17:04:28.46	207.56	28.49	-31.7	-32.4	28.6	0.00e+00	0	32	101	1048576	40	6423
2026-01-06 17:04:29.47	207.55	28.31	-31.7	-32.4	28.6	0.00e+00	0	32	101	1048576	40	6394
2026-01-06 17:04:30.47	207.54	28.13	-31.7	-32.3	28.6	0.00e+00	0	32	101	1048576	40	6385
2026-01-06 17:04:31.48	207.52	27.95	-31.8	-32.5	28.5	0.00e+00	0	32	101	1048576	40	6499
2026-01-06 17:04:32.49	207.51	27.77	-31.9	-32.6	28.5	0.00e+00	0	32	101	1048576	40	6543
2026-01-06 17:04:33.49	207.50	27.60	-31.8	-32.5	28.5	0.00e+00	0	32	101	1048576	40	6520
2026-01-06 17:04:34.50	207.49	27.42	-31.9	-32.6	28.4	0.00e+00	0	32	101	1048576	40	6573
2026-01-06 17:04:35.51	207.48	27.24	-32.0	-32.7	28.4	0.00e+00	0	32	101	1048576	40	6635
2026-01-06 17:04:36.51	207.46	27.07	-31.9	-32.6	28.4	0.00e+00	0	32	101	1048576	40	6568
2026-01-06 17:04:37.51	207.45	26.90	-32.1	-32.7	28.3	0.00e+00	0	32	101	1048576	40	6690
2026-01-06 17:04:38.52	207.44	26.73	-32.0	-32.7	28.4	0.00e+00	0	32	101	1048576	40	6617
2026-01-06 17:04:39.52	207.43	26.56	-31.8	-32.5	28.5	0.00e+00	0	32	101	1048576	40	6521
2026-01-06 17:04:40.53	207.42	26.39	-31.8	-32.4	28.5	0.00e+00	0	32	101	1048576	40	6453
2026-01-06 17:04:41.53	207.41	26.22	-31.8	-32.5	28.5	0.00e+00	0	32	101	1048576	40	6466
2026-01-06 17:04:42.54	207.40	26.05	-31.7	-32.4	28.5	0.00e+00	0	32	101	1048576	40	6437
2026-01-06 17:04:43.55	207.39	25.88	-31.8	-32.3	28.5	0.00e+00	0	32	101	1048576	40	6355
2026-01-06 17:04:44.55	207.38	25.72	-31.7	-32.2	28.6	0.00e+00	0	32	101	1048576	40	6281
2026-01-06 17:04:45.56	207.37	25.55	-31.6	-32.1	28.6	0.00e+00	0	32	101	1048576	40	6244
2026-01-06 17:04:46.56	207.36	25.39	-31.8	-32.3	28.4	0.00e+00	0	32	101	1048576	40	6341
2026-01-06 17:04:47.57	207.35	25.23	-31.7	-32.3	28.5	0.00e+00	0	32	101	1048576	40	6331
2026-01-06 17:04:48.58	207.34	25.06	-31.8	-32.3	28.6	0.00e+00	0	32	101	1048576	40	6346
2026-01-06 17:04:49.58	207.33	24.90	-32.0	-32.5	28.4	0.00e+00	0	32	101	1048576	40	6495
2026-01-06 17:04:50.59	207.32	24.74	-32.0	-32.6	28.4	0.00e+00	0	32	101	1048576	40	6545
2026-01-06 17:04:51.59	207.31	24.59	-32.0	-32.6	28.4	0.00e+00	0	32	101	1048576	40	6547
2026-01-06 17:04:52.60	207.30	24.43	-32.2	-32.7	28.2	0.00e+00	0	32	101	1048576	42	5927
2026-01-06 17:04:53.60	207.29	24.27	-32.2	-32.7	28.2	0.00e+00	0	32	101	1048576	42	5945
2026-01-06 17:04:54.60	207.28	24.12	-32.2	-32.7	28.2	0.00e+00	0	32	101	1048576	42	5964
2026-01-06 17:04:55.61	207.27	23.96	-32.3	-32.8	28.1	0.00e+00	0	32	101	1048576	42	6022
2026-01-06 17:04:56.62	207.27	23.81	-32.4	-32.9	28.1	0.00e+00	0	32	101	1048576	42	6078
2026-01-06 17:04:57.62	207.26	23.66	-32.4	-32.9	28.1	0.00e+00	0	32	101	1048576	42	6098
2026-01-06 17:04:58.63	207.25	23.50	-32.4	-32.9	28.0	0.00e+00	0	32	101	1048576	42	6100
2026-01-06 17:04:59.63	207.24	23.35	-32.4	-32.9	28.1	0.00e+00	0	32	101	1048576	42	6094
2026-01-06 17:05:00.64	207.23	23.20	-32.7	-33.4	27.9	0.00e+00	0	32	101	1048576	42	6401
2026-01-06 17:05:01.65	207.22	23.05	-32.6	-33.3	27.8	0.00e+00	0	32	101	1048576	42	6333
2026-01-06 17:05:02.65	207.22	22.90	-32.4	-33.1	27.9	0.00e+00	0	32	101	1048576	42	6245
2026-01-06 17:05:03.66	207.21	22.76	-32.4	-32.9	28.1	0.00e+00	0	32	101	1048576	42	6096
2026-01-06 17:05:04.66	207.20	22.61	-32.4	-33.0	27.9	0.00e+00	0	32	101	1048576	42	6133
2026-01-06 17:05:05.67	207.19	22.46	-32.5	-33.1	27.9	0.00e+00	0	32	101	1048576	42	6179
2026-01-06 17:05:06.67	207.19	22.32	-32.6	-33.3	27.9	0.00e+00	0	32	101	1048576	42	6340
2026-01-06 17:05:07.68	207.18	22.17	-32.6	-33.1	27.8	0.00e+00	0	32	101	1048576	42	6228
2026-01-06 17:05:08.69	207.17	22.03	-32.5	-33.2	27.9	0.00e+00	0	32	101	1048576	42	6306
2026-01-06 17:05:09.69	207.16	21.89	-32.6	-33.3	27.8	0.00e+00	0	32	101	1048576	42	6379
2026-01-06 17:05:10.70	207.16	21.74	-32.4	-33.1	28.0	0.00e+00	0	32	101	1048576	42	6219
2026-01-06 17:05:11.70	207.15	21.60	-32.4	-33.1	28.0	0.00e+00	0	31	101	1048576	42	6228
2026-01-06 17:05:12.71	207.14	21.46	-32.4	-33.1	27.9	0.00e+00	0	32	101	1048576	42	6224
2026-01-06 17:05:13.72	207.14	21.32	-32.5	-33.1	27.9	0.00e+00	0	32	101	1048576	42	6232
2026-01-06 17:05:14.72	207.13	21.18	-32.6	-33.3	27.9	0.00e+00	0	32	101	1048576	42	6322
2026-01-06 17:05:15.73	207.12	21.05	-32.7	-33.3	27.8	0.00e+00	0	32	101	1048576	42	6383
2026-01-06 17:05:16.74	207.12	20.91	-32.6	-33.3	27.8	0.00e+00	0	32	101	1048576	42	6334
2026-01-06 17:05:17.74	207.11	20.77	-32.6	-33.3	27.8	0.00e+00	0	31	101	1048576	42	6356
2026-01-06 17:05:18.74	207.10	20.64	-32.6	-33.3	28.0	0.00e+00	0	32	101	1048576	42	6359
2026-01-06 17:05:19.75	207.10	20.50	-32.7	-33.4	27.8	0.00e+00	0	32	101	1048576	42	6418
2026-01-06 17:05:20.75	207.09	20.37	-32.8	-33.4	27.8	0.00e+00	0	31	101	1048576	42	6461
2026-01-06 17:05:21.76	207.08	20.23	-32.9	-33.6	27.6	0.00e+00	0	32	101	1048576	42	6574
2026-01-06 17:05:22.77	207.08	20.10	-32.8	-33.5	27.7	0.00e+00	0	31	101	1048576	42	6530
2026-01-06 17:05:23.77	207.07	19.97	-32.9	-33.6	27.6	0.00e+00	0	32	101	1048576	42	6580
2026-01-06 17:05:24.78	207.07	19.84	-33.0	-33.7	27.5	0.00e+00	0	32	101	1048576	42	6659
2026-01-06 17:05:25.79	207.06	19.70	-33.1	-33.7	27.5	0.00e+00	0	32	101	1048576	42	6692
2026-01-06 17:05:26.79	207.05	19.57	-33.1	-33.8	27.5	0.00e+00	0	32	101	1048576	42	6719
