passes_logs/2026/01/06/R4.6S_Anadyr_2ch/R4.6S_Anadyr_2ch__20260106_045431_FENGYUN_3E_rec.log

#Pass ID: 20260106_045431_FENGYUN 3E
#Satellite: FENGYUN 3E
#Configuration: FENGYUN 3E
#almurnet v.1.7.20251203
#Start time: 2026-01-06 04:54:34

#Version: 2.2.20231116
#Station: R4.6S_Anadyr_2ch
#Location: 177.4865 lon 64.73178 lat
#TLE: 1 49008U 21062A   25350.97288215  .00000176  00000+0  10353-3 0  9997
#TLE: 2 49008  98.7477 351.4440 0000638 234.3856 125.7261 14.19881381230726

#Time	Az	El	Level	Level2	SNR	BER	BlckErr	Temp	State	Recorded	gain1	gain2
2026-01-06 04:54:34.25	166.60	0.19	-50.9	-61.0	3.3	8.40e-01	0	31	0	0	60	55041
2026-01-06 04:54:35.25	166.62	0.25	-50.9	-62.4	3.6	8.46e-01	0	31	104	0	60	65064
2026-01-06 04:54:36.26	166.63	0.31	-50.9	-62.4	3.6	8.45e-01	0	31	104	0	60	64838
2026-01-06 04:54:37.27	166.65	0.37	-51.0	-62.6	3.6	8.46e-01	0	31	104	0	60	66375
2026-01-06 04:54:38.29	166.66	0.43	-51.1	-62.5	3.6	8.46e-01	0	31	104	0	60	66104
2026-01-06 04:54:39.30	166.68	0.49	-50.9	-62.5	3.5	8.45e-01	0	31	104	0	60	65965
2026-01-06 04:54:40.31	166.70	0.55	-51.0	-62.5	3.6	8.45e-01	0	31	104	0	60	66020
2026-01-06 04:54:41.32	166.71	0.62	-51.1	-62.6	3.6	8.45e-01	0	31	104	0	60	66189
2026-01-06 04:54:42.33	166.73	0.68	-51.1	-62.6	3.6	8.45e-01	0	31	104	0	60	66841
2026-01-06 04:54:43.34	166.75	0.74	-51.1	-62.6	3.6	8.45e-01	0	31	104	0	60	66522
2026-01-06 04:54:44.35	166.76	0.80	-51.0	-62.6	3.6	8.46e-01	0	31	104	0	60	66325
2026-01-06 04:54:45.36	166.78	0.86	-51.1	-62.5	3.6	8.44e-01	0	31	104	0	60	65852
2026-01-06 04:54:46.37	166.79	0.92	-50.8	-62.4	3.5	8.45e-01	0	31	104	0	60	65038
2026-01-06 04:54:47.38	166.81	0.99	-50.7	-62.3	3.6	8.46e-01	0	31	104	0	60	64247
2026-01-06 04:54:48.40	166.83	1.05	-50.6	-62.2	3.6	8.46e-01	0	31	104	0	60	63533
2026-01-06 04:54:49.41	166.84	1.11	-50.5	-62.0	3.6	8.46e-01	0	31	104	0	60	62018
2026-01-06 04:54:50.42	166.86	1.17	-49.8	-61.3	3.6	8.44e-01	0	31	104	0	60	57064
2026-01-06 04:54:51.42	166.88	1.24	-50.2	-61.7	3.6	8.45e-01	0	31	104	0	60	59741
2026-01-06 04:54:52.44	166.89	1.30	-50.0	-61.4	3.6	8.44e-01	0	31	104	0	60	57766
2026-01-06 04:54:53.45	166.91	1.36	-49.6	-61.1	3.6	8.45e-01	0	31	104	0	60	55790
2026-01-06 04:54:54.46	166.93	1.43	-49.6	-61.1	3.6	8.46e-01	0	31	104	0	60	55896
2026-01-06 04:54:55.47	166.95	1.49	-49.6	-61.1	3.6	8.45e-01	0	31	104	0	60	55771
2026-01-06 04:54:56.48	166.96	1.55	-49.6	-61.0	3.6	8.45e-01	0	31	104	0	60	55509
2026-01-06 04:54:57.49	166.98	1.62	-49.6	-61.0	3.6	8.46e-01	0	31	104	0	60	55242
2026-01-06 04:54:58.50	167.00	1.68	-49.6	-60.9	3.6	8.45e-01	0	31	104	0	60	54460
2026-01-06 04:54:59.51	167.01	1.74	-49.6	-60.8	3.6	8.46e-01	0	31	104	0	60	53881
2026-01-06 04:55:00.52	167.03	1.81	-49.6	-60.7	3.6	8.46e-01	0	32	104	0	60	53570
2026-01-06 04:55:01.53	167.05	1.87	-49.6	-60.7	3.5	8.45e-01	0	31	104	0	60	53478
2026-01-06 04:55:02.54	167.07	1.94	-49.6	-60.7	3.6	8.45e-01	0	31	104	0	60	53408
2026-01-06 04:55:03.56	167.08	2.00	-49.6	-60.6	3.6	8.45e-01	0	31	104	0	60	52966
2026-01-06 04:55:04.57	167.10	2.06	-49.6	-60.7	3.6	8.46e-01	0	32	104	0	60	53653
2026-01-06 04:55:05.58	167.12	2.13	-49.6	-60.8	3.6	8.45e-01	0	31	104	0	60	54260
2026-01-06 04:55:06.59	167.14	2.19	-49.6	-61.0	3.6	8.45e-01	0	31	104	0	60	55035
2026-01-06 04:55:07.60	167.15	2.26	-49.6	-61.0	3.6	8.44e-01	0	32	104	0	60	55543
2026-01-06 04:55:08.61	167.17	2.32	-49.6	-61.1	3.6	8.45e-01	0	31	104	0	60	55884
2026-01-06 04:55:09.62	167.19	2.39	-49.6	-61.1	3.6	8.44e-01	0	31	104	0	60	55806
2026-01-06 04:55:10.63	167.21	2.45	-49.6	-61.0	3.6	8.46e-01	0	31	104	0	60	55372
2026-01-06 04:55:11.64	167.23	2.52	-49.6	-60.8	3.6	8.45e-01	0	32	104	0	60	54197
2026-01-06 04:55:12.65	167.24	2.59	-49.6	-60.6	3.6	8.46e-01	0	32	104	0	60	52924
2026-01-06 04:55:13.67	167.26	2.65	-49.5	-60.3	3.6	8.44e-01	0	32	104	0	60	51337
2026-01-06 04:55:14.68	167.28	2.72	-49.5	-60.0	3.6	8.44e-01	0	32	104	0	60	49360
2026-01-06 04:55:15.69	167.30	2.78	-49.5	-59.5	3.6	8.44e-01	0	32	104	0	60	46815
2026-01-06 04:55:16.70	167.32	2.85	-49.4	-59.0	3.6	8.44e-01	0	32	104	0	60	44048
2026-01-06 04:55:17.71	167.34	2.92	-49.4	-58.8	3.6	8.45e-01	0	32	104	0	60	42741
2026-01-06 04:55:18.72	167.35	2.98	-49.4	-59.0	3.6	8.44e-01	0	32	104	0	60	43839
2026-01-06 04:55:19.73	167.37	3.05	-49.5	-59.6	3.6	8.44e-01	0	32	104	0	60	46978
2026-01-06 04:55:20.74	167.39	3.12	-49.5	-60.1	3.6	8.45e-01	0	32	104	0	60	50106
2026-01-06 04:55:21.75	167.41	3.18	-49.5	-59.5	3.6	8.44e-01	0	32	104	0	60	46736
2026-01-06 04:55:22.77	167.43	3.25	-48.9	-55.7	4.8	7.57e-01	0	32	104	0	60	30075
2026-01-06 04:55:23.78	167.45	3.32	-47.9	-51.7	7.5	1.95e-01	0	32	102	1048576	60	19031
2026-01-06 04:55:24.79	167.47	3.39	-46.5	-49.2	10.6	1.26e-02	0	32	102	1048576	60	14193
2026-01-06 04:55:25.80	167.49	3.46	-45.0	-46.9	13.1	8.35e-05	0	32	102	1048576	60	10899
2026-01-06 04:55:26.81	167.50	3.52	-43.4	-44.8	15.6	0.00e+00	0	32	102	1048576	60	8529
2026-01-06 04:55:27.82	167.52	3.59	-42.1	-43.2	16.9	0.00e+00	0	32	102	1048576	60	7123
2026-01-06 04:55:28.83	167.54	3.66	-41.4	-42.4	17.8	0.00e+00	0	32	102	1048576	60	6485
2026-01-06 04:55:29.84	167.56	3.73	-40.9	-41.8	18.3	0.00e+00	0	32	102	1048576	60	6090
2026-01-06 04:55:30.85	167.58	3.80	-40.4	-41.3	18.7	0.00e+00	0	32	102	1048576	60	5715
2026-01-06 04:55:31.86	167.60	3.87	-40.4	-41.3	18.8	0.00e+00	0	32	102	1048576	60	5711
2026-01-06 04:55:32.87	167.62	3.93	-40.5	-41.4	18.7	0.00e+00	0	32	102	1048576	60	5776
2026-01-06 04:55:33.88	167.64	4.00	-41.0	-42.0	18.0	0.00e+00	0	32	102	1048576	60	6214
2026-01-06 04:55:34.90	167.66	4.07	-43.4	-44.8	14.5	0.00e+00	0	32	102	1048576	60	8553
2026-01-06 04:55:35.91	167.68	4.14	-39.9	-40.7	19.9	1.10e-06	0	32	102	1048576	60	5343
2026-01-06 04:55:36.92	167.70	4.21	-44.7	-46.6	11.3	0.00e+00	0	32	102	1048576	60	10582
2026-01-06 04:55:37.93	167.72	4.28	-42.5	-43.8	16.2	2.79e-01	0	32	104	1048576	60	7628
2026-01-06 04:55:38.94	167.74	4.35	-44.6	-46.5	11.4	0.00e+00	0	32	0	1048576	60	10463
2026-01-06 04:55:39.95	167.76	4.42	-42.0	-42.9	17.9	3.02e-01	0	32	0	1048576	60	6907
2026-01-06 04:55:40.96	167.78	4.49	-39.0	-39.8	20.4	0.00e+00	0	32	0	1048576	56	6044
2026-01-06 04:55:41.97	167.80	4.56	-38.8	-39.6	20.4	0.00e+00	0	32	0	1048576	56	5904
2026-01-06 04:55:42.98	167.82	4.63	-38.4	-39.1	21.0	0.00e+00	0	32	0	1048576	56	5588
2026-01-06 04:55:43.99	167.84	4.71	-38.2	-38.8	21.2	0.00e+00	0	32	101	1048576	54	6090
2026-01-06 04:55:45.00	167.86	4.78	-37.6	-38.2	21.8	0.00e+00	0	32	101	1048576	54	5677
2026-01-06 04:55:46.02	167.88	4.85	-37.2	-37.8	22.2	0.00e+00	0	32	101	1048576	54	5427
2026-01-06 04:55:47.02	167.90	4.92	-36.8	-37.4	22.6	0.00e+00	0	32	101	1048576	52	5823
2026-01-06 04:55:48.04	167.92	4.99	-37.0	-37.6	22.5	0.00e+00	0	32	101	1048576	52	5932
2026-01-06 04:55:49.05	167.94	5.06	-36.8	-37.4	22.7	0.00e+00	0	32	101	1048576	52	5815
2026-01-06 04:55:50.06	167.96	5.14	-36.8	-37.4	22.6	0.00e+00	0	32	101	1048576	52	5815
2026-01-06 04:55:51.07	167.98	5.21	-36.7	-37.3	22.7	0.00e+00	0	32	101	1048576	52	5703
2026-01-06 04:55:52.08	168.01	5.28	-36.8	-37.4	22.7	0.00e+00	0	32	101	1048576	52	5792
2026-01-06 04:55:53.09	168.03	5.35	-36.5	-37.1	23.0	0.00e+00	0	32	101	1048576	52	5603
2026-01-06 04:55:54.10	168.05	5.43	-36.5	-37.1	22.9	0.00e+00	0	32	101	1048576	52	5604
2026-01-06 04:55:55.11	168.07	5.50	-36.6	-37.2	23.0	0.00e+00	0	32	101	1048576	52	5652
2026-01-06 04:55:56.12	168.09	5.57	-36.6	-37.2	22.9	0.00e+00	0	32	101	1048576	52	5648
2026-01-06 04:55:57.13	168.11	5.65	-36.8	-37.4	22.8	0.00e+00	0	32	101	1048576	52	5820
2026-01-06 04:55:58.14	168.13	5.72	-37.1	-37.7	22.7	0.00e+00	0	32	101	1048576	52	6000
2026-01-06 04:55:59.16	168.16	5.79	-37.0	-37.6	22.8	0.00e+00	0	32	101	1048576	52	5927
2026-01-06 04:56:00.17	168.18	5.87	-36.5	-37.1	23.0	0.00e+00	0	32	101	1048576	52	5600
2026-01-06 04:56:01.18	168.20	5.94	-36.6	-37.2	23.0	0.00e+00	0	32	101	1048576	52	5671
2026-01-06 04:56:02.19	168.22	6.02	-36.2	-36.8	23.3	0.00e+00	0	32	101	1048576	52	5398
2026-01-06 04:56:03.20	168.24	6.09	-36.4	-36.9	23.3	0.00e+00	0	32	101	1048576	52	5486
2026-01-06 04:56:04.21	168.27	6.17	-36.5	-37.1	23.3	0.00e+00	0	32	101	1048576	52	5568
2026-01-06 04:56:05.22	168.29	6.24	-36.2	-36.7	23.4	0.00e+00	0	32	101	1048576	52	5374
2026-01-06 04:56:06.23	168.31	6.32	-36.4	-37.0	23.2	0.00e+00	0	32	101	1048576	52	5515
2026-01-06 04:56:07.24	168.33	6.39	-36.2	-36.8	23.5	0.00e+00	0	32	101	1048576	52	5399
2026-01-06 04:56:08.25	168.36	6.47	-36.3	-36.9	23.3	0.00e+00	0	32	101	1048576	52	5441
2026-01-06 04:56:09.26	168.38	6.54	-35.9	-36.5	23.6	0.00e+00	0	32	101	1048576	50	5857
2026-01-06 04:56:10.27	168.40	6.62	-36.2	-36.7	23.5	0.00e+00	0	32	101	1048576	50	6027
2026-01-06 04:56:11.28	168.42	6.70	-36.0	-36.6	23.6	0.00e+00	0	32	101	1048576	50	5928
2026-01-06 04:56:12.29	168.45	6.77	-36.0	-36.6	23.7	0.00e+00	0	32	101	1048576	50	5933
2026-01-06 04:56:13.30	168.47	6.85	-36.2	-36.7	23.4	0.00e+00	0	32	101	1048576	50	6018
2026-01-06 04:56:14.31	168.49	6.93	-35.9	-36.5	23.8	0.00e+00	0	32	101	1048576	50	5847
2026-01-06 04:56:15.32	168.52	7.00	-36.0	-36.5	23.7	0.00e+00	0	32	101	1048576	50	5892
2026-01-06 04:56:16.34	168.54	7.08	-35.9	-36.4	23.8	0.00e+00	0	32	101	1048576	50	5803
2026-01-06 04:56:17.35	168.56	7.16	-35.8	-36.4	23.8	0.00e+00	0	32	101	1048576	50	5794
2026-01-06 04:56:18.36	168.59	7.24	-35.7	-36.3	23.9	0.00e+00	0	32	101	1048576	50	5708
2026-01-06 04:56:19.37	168.61	7.32	-35.9	-36.4	23.8	0.00e+00	0	32	101	1048576	50	5803
2026-01-06 04:56:20.38	168.63	7.39	-35.9	-36.4	23.9	0.00e+00	0	32	101	1048576	50	5812
2026-01-06 04:56:21.39	168.66	7.47	-36.1	-36.7	23.7	0.00e+00	0	32	101	1048576	50	5981
2026-01-06 04:56:22.40	168.68	7.55	-36.2	-36.8	23.6	0.00e+00	0	32	101	1048576	50	6042
2026-01-06 04:56:23.41	168.71	7.63	-35.8	-36.4	24.0	0.00e+00	0	32	101	1048576	50	5785
2026-01-06 04:56:24.42	168.73	7.71	-35.8	-36.3	24.0	0.00e+00	0	32	101	1048576	50	5756
2026-01-06 04:56:25.43	168.76	7.79	-35.9	-36.4	23.9	0.00e+00	0	32	101	1048576	50	5826
2026-01-06 04:56:26.44	168.78	7.87	-35.8	-36.3	24.0	0.00e+00	0	32	101	1048576	50	5734
2026-01-06 04:56:27.45	168.80	7.95	-35.5	-36.1	24.2	0.00e+00	0	32	101	1048576	50	5579
2026-01-06 04:56:28.46	168.83	8.03	-35.5	-36.1	24.2	0.00e+00	0	32	101	1048576	50	5572
2026-01-06 04:56:29.47	168.85	8.11	-35.7	-36.2	24.2	0.00e+00	0	32	101	1048576	50	5675
2026-01-06 04:56:30.49	168.88	8.19	-35.4	-36.0	24.1	0.00e+00	0	32	101	1048576	50	5525
2026-01-06 04:56:31.50	168.90	8.28	-35.4	-36.0	24.4	0.00e+00	0	32	101	1048576	50	5506
2026-01-06 04:56:32.51	168.93	8.36	-35.3	-35.9	24.5	0.00e+00	0	32	101	1048576	50	5459
2026-01-06 04:56:33.52	168.95	8.44	-35.3	-35.9	24.4	0.00e+00	0	32	101	1048576	50	5450
2026-01-06 04:56:34.53	168.98	8.52	-35.5	-36.0	24.3	0.00e+00	0	32	101	1048576	50	5546
2026-01-06 04:56:35.54	169.01	8.60	-35.2	-35.7	24.6	0.00e+00	0	32	101	1048576	50	5347
2026-01-06 04:56:36.55	169.03	8.69	-35.2	-35.7	24.5	0.00e+00	0	32	101	1048576	50	5375
2026-01-06 04:56:37.56	169.06	8.77	-35.4	-36.0	24.4	0.00e+00	0	32	101	1048576	50	5516
2026-01-06 04:56:38.57	169.08	8.85	-35.1	-35.7	24.7	0.00e+00	0	32	101	1048576	50	5321
2026-01-06 04:56:39.58	169.11	8.94	-35.0	-35.6	24.7	0.00e+00	0	32	101	1048576	48	5908
2026-01-06 04:56:40.59	169.14	9.02	-35.3	-35.8	24.4	0.00e+00	0	32	101	1048576	48	6095
2026-01-06 04:56:41.60	169.16	9.10	-35.1	-35.6	24.7	0.00e+00	0	32	101	1048576	48	5960
2026-01-06 04:56:42.61	169.19	9.19	-35.1	-35.6	24.7	0.00e+00	0	32	101	1048576	48	5949
2026-01-06 04:56:43.62	169.22	9.27	-35.0	-35.6	24.7	0.00e+00	0	32	101	1048576	48	5903
2026-01-06 04:56:44.63	169.24	9.36	-35.1	-35.6	24.9	0.00e+00	0	32	101	1048576	48	5940
2026-01-06 04:56:45.65	169.27	9.44	-35.1	-35.6	24.7	0.00e+00	0	32	101	1048576	48	5947
2026-01-06 04:56:46.66	169.30	9.53	-35.2	-35.8	24.6	0.00e+00	0	32	101	1048576	48	6039
2026-01-06 04:56:47.67	169.32	9.61	-35.1	-35.7	24.6	0.00e+00	0	32	101	1048576	48	5994
2026-01-06 04:56:48.68	169.35	9.70	-35.3	-35.9	24.5	0.00e+00	0	32	101	1048576	48	6119
2026-01-06 04:56:49.69	169.38	9.79	-35.1	-35.7	24.7	0.00e+00	0	32	101	1048576	48	5983
2026-01-06 04:56:50.70	169.41	9.87	-35.1	-35.7	24.8	0.00e+00	0	32	101	1048576	48	5988
2026-01-06 04:56:51.71	169.43	9.96	-34.9	-35.4	24.8	0.00e+00	0	32	101	1048576	48	5812
2026-01-06 04:56:52.72	169.46	10.05	-35.2	-35.7	24.7	0.00e+00	0	32	101	1048576	48	6030
2026-01-06 04:56:53.73	169.49	10.13	-34.9	-35.5	24.9	0.00e+00	0	32	101	1048576	48	5829
2026-01-06 04:56:54.75	169.52	10.22	-34.9	-35.5	25.0	0.00e+00	0	32	101	1048576	48	5847
2026-01-06 04:56:55.76	169.55	10.31	-34.9	-35.4	25.0	0.00e+00	0	32	101	1048576	48	5780
2026-01-06 04:56:56.77	169.57	10.40	-34.8	-35.3	25.0	0.00e+00	0	32	101	1048576	48	5743
2026-01-06 04:56:57.78	169.60	10.49	-34.9	-35.5	24.9	0.00e+00	0	32	101	1048576	48	5838
2026-01-06 04:56:58.79	169.63	10.58	-35.1	-35.6	24.7	0.00e+00	0	32	101	1048576	48	5934
2026-01-06 04:56:59.80	169.66	10.67	-34.9	-35.4	24.9	0.00e+00	0	32	101	1048576	48	5817
2026-01-06 04:57:00.81	169.69	10.75	-34.8	-35.3	25.0	0.00e+00	0	32	101	1048576	48	5753
2026-01-06 04:57:01.82	169.72	10.84	-35.0	-35.5	24.9	0.00e+00	0	32	101	1048576	48	5845
2026-01-06 04:57:02.83	169.75	10.93	-34.9	-35.5	25.0	0.00e+00	0	32	101	1048576	48	5838
2026-01-06 04:57:03.85	169.78	11.03	-34.8	-35.3	25.1	0.00e+00	0	32	101	1048576	48	5732
2026-01-06 04:57:04.86	169.81	11.12	-34.7	-35.3	25.2	0.00e+00	0	32	101	1048576	48	5702
2026-01-06 04:57:05.87	169.84	11.21	-34.6	-35.1	25.3	0.00e+00	0	32	101	1048576	48	5625
2026-01-06 04:57:06.88	169.87	11.30	-34.7	-35.3	25.1	0.00e+00	0	32	101	1048576	48	5704
2026-01-06 04:57:07.89	169.90	11.39	-34.7	-35.2	25.2	0.00e+00	0	32	101	1048576	48	5683
2026-01-06 04:57:08.90	169.93	11.48	-34.7	-35.2	25.2	0.00e+00	0	32	101	1048576	48	5664
2026-01-06 04:57:09.91	169.96	11.58	-34.6	-35.1	25.2	0.00e+00	0	32	101	1048576	48	5599
2026-01-06 04:57:10.92	169.99	11.67	-34.7	-35.2	25.4	0.00e+00	0	32	101	1048576	48	5637
2026-01-06 04:57:11.93	170.02	11.76	-34.7	-35.2	25.3	0.00e+00	0	32	101	1048576	48	5662
2026-01-06 04:57:12.94	170.05	11.86	-34.4	-34.9	25.5	0.00e+00	0	32	101	1048576	48	5479
2026-01-06 04:57:13.95	170.08	11.95	-34.5	-35.0	25.3	0.00e+00	0	32	101	1048576	48	5560
2026-01-06 04:57:14.96	170.12	12.05	-34.5	-35.0	25.5	0.00e+00	0	32	101	1048576	48	5531
2026-01-06 04:57:15.97	170.15	12.14	-34.5	-35.0	25.4	0.00e+00	0	32	101	1048576	48	5511
2026-01-06 04:57:16.98	170.18	12.24	-34.4	-34.9	25.5	0.00e+00	0	32	101	1048576	48	5457
2026-01-06 04:57:17.99	170.21	12.33	-34.2	-34.7	25.6	0.00e+00	0	32	101	1048576	48	5368
2026-01-06 04:57:19.01	170.24	12.43	-34.4	-34.9	25.5	0.00e+00	0	32	101	1048576	48	5465
2026-01-06 04:57:20.02	170.28	12.52	-34.2	-34.7	25.6	0.00e+00	0	32	101	1048576	48	5349
2026-01-06 04:57:21.03	170.31	12.62	-34.2	-34.7	25.7	0.00e+00	0	32	101	1048576	48	5321
2026-01-06 04:57:22.04	170.34	12.72	-34.3	-34.8	25.6	0.00e+00	0	32	101	1048576	48	5420
2026-01-06 04:57:23.05	170.37	12.81	-34.0	-34.5	25.9	0.00e+00	0	32	101	1048576	46	5858
2026-01-06 04:57:24.06	170.41	12.91	-34.1	-34.6	25.7	0.00e+00	0	32	101	1048576	46	5964
2026-01-06 04:57:25.07	170.44	13.01	-34.2	-34.7	25.8	0.00e+00	0	32	101	1048576	46	5999
2026-01-06 04:57:26.08	170.47	13.11	-34.0	-34.5	25.9	0.00e+00	0	32	101	1048576	46	5872
2026-01-06 04:57:27.09	170.51	13.21	-33.9	-34.4	25.9	0.00e+00	0	32	101	1048576	46	5806
2026-01-06 04:57:28.10	170.54	13.31	-33.9	-34.4	25.9	0.00e+00	0	32	101	1048576	46	5825
2026-01-06 04:57:29.11	170.58	13.41	-34.0	-34.5	25.9	0.00e+00	0	32	101	1048576	46	5868
2026-01-06 04:57:30.13	170.61	13.51	-33.8	-34.3	26.1	0.00e+00	0	32	101	1048576	46	5728
2026-01-06 04:57:31.14	170.65	13.61	-33.8	-34.3	26.1	0.00e+00	0	32	101	1048576	46	5696
2026-01-06 04:57:32.15	170.68	13.71	-33.9	-34.3	26.1	0.00e+00	0	32	101	1048576	46	5757
2026-01-06 04:57:33.16	170.71	13.81	-33.8	-34.3	26.0	0.00e+00	0	32	101	1048576	46	5743
2026-01-06 04:57:34.17	170.75	13.91	-33.8	-34.2	26.1	0.00e+00	0	32	101	1048576	46	5695
2026-01-06 04:57:35.18	170.79	14.02	-33.8	-34.3	26.1	0.00e+00	0	32	101	1048576	46	5712
2026-01-06 04:57:36.19	170.82	14.12	-33.7	-34.2	26.1	0.00e+00	0	32	101	1048576	46	5652
2026-01-06 04:57:37.20	170.86	14.22	-33.8	-34.3	26.1	0.00e+00	0	32	101	1048576	46	5698
2026-01-06 04:57:38.21	170.89	14.32	-33.6	-34.1	26.2	0.00e+00	0	32	101	1048576	46	5581
2026-01-06 04:57:39.22	170.93	14.43	-33.7	-34.2	26.2	0.00e+00	0	32	101	1048576	46	5659
2026-01-06 04:57:40.23	170.97	14.53	-33.7	-34.2	26.1	0.00e+00	0	32	101	1048576	46	5680
2026-01-06 04:57:41.24	171.00	14.64	-33.9	-34.4	25.9	0.00e+00	0	32	101	1048576	46	5823
2026-01-06 04:57:42.26	171.04	14.74	-34.1	-34.6	26.0	0.00e+00	0	32	101	1048576	46	5959
2026-01-06 04:57:43.27	171.08	14.85	-34.0	-34.5	25.8	0.00e+00	0	32	101	1048576	46	5892
2026-01-06 04:57:44.28	171.12	14.96	-33.8	-34.3	26.0	0.00e+00	0	32	101	1048576	46	5756
2026-01-06 04:57:45.29	171.15	15.06	-33.7	-34.2	26.2	0.00e+00	0	32	101	1048576	46	5676
2026-01-06 04:57:46.30	171.19	15.17	-33.7	-34.2	26.2	0.00e+00	0	32	101	1048576	46	5676
2026-01-06 04:57:47.31	171.23	15.28	-33.6	-34.1	26.2	0.00e+00	0	32	101	1048576	46	5590
2026-01-06 04:57:48.32	171.27	15.38	-33.5	-34.0	26.4	0.00e+00	0	32	101	1048576	46	5527
2026-01-06 04:57:49.33	171.31	15.49	-33.6	-34.2	26.3	0.00e+00	0	32	101	1048576	46	5635
2026-01-06 04:57:50.35	171.35	15.60	-33.7	-34.2	26.2	0.00e+00	0	32	101	1048576	46	5642
2026-01-06 04:57:51.36	171.38	15.71	-33.6	-34.1	26.2	0.00e+00	0	32	101	1048576	46	5620
2026-01-06 04:57:52.37	171.42	15.82	-33.6	-34.1	26.4	0.00e+00	0	32	101	1048576	46	5608
2026-01-06 04:57:53.38	171.46	15.93	-33.5	-34.0	26.4	0.00e+00	0	32	101	1048576	46	5531
2026-01-06 04:57:54.39	171.50	16.04	-33.5	-34.0	26.4	0.00e+00	0	33	101	1048576	46	5550
2026-01-06 04:57:55.40	171.54	16.15	-33.5	-34.0	26.4	0.00e+00	0	32	101	1048576	46	5551
2026-01-06 04:57:56.41	171.59	16.27	-33.5	-34.0	26.5	0.00e+00	0	32	101	1048576	46	5504
2026-01-06 04:57:57.42	171.63	16.38	-33.4	-33.9	26.5	0.00e+00	0	33	101	1048576	46	5478
2026-01-06 04:57:58.43	171.67	16.49	-33.3	-33.8	26.6	0.00e+00	0	32	101	1048576	46	5417
2026-01-06 04:57:59.44	171.71	16.61	-33.4	-33.9	26.5	0.00e+00	0	32	101	1048576	46	5473
2026-01-06 04:58:00.46	171.75	16.72	-33.3	-33.8	26.6	0.00e+00	0	32	101	1048576	46	5420
2026-01-06 04:58:01.47	171.79	16.83	-33.2	-33.7	26.5	0.00e+00	0	33	101	1048576	46	5374
2026-01-06 04:58:02.48	171.84	16.95	-33.2	-33.7	26.7	0.00e+00	0	32	101	1048576	46	5316
2026-01-06 04:58:03.49	171.88	17.06	-33.2	-33.7	26.7	0.00e+00	0	32	101	1048576	46	5340
2026-01-06 04:58:04.50	171.92	17.18	-33.2	-33.7	26.7	0.00e+00	0	33	101	1048576	46	5327
2026-01-06 04:58:05.51	171.96	17.30	-33.1	-33.6	26.7	0.00e+00	0	32	101	1048576	44	5949
2026-01-06 04:58:06.52	172.01	17.41	-33.2	-33.7	26.7	0.00e+00	0	32	101	1048576	44	5996
2026-01-06 04:58:07.53	172.05	17.53	-33.1	-33.6	26.8	0.00e+00	0	32	101	1048576	44	5922
2026-01-06 04:58:08.54	172.10	17.65	-32.9	-33.4	26.8	0.00e+00	0	32	101	1048576	44	5788
2026-01-06 04:58:09.55	172.14	17.77	-33.0	-33.5	26.8	0.00e+00	0	32	101	1048576	44	5835
2026-01-06 04:58:10.56	172.18	17.89	-33.0	-33.5	26.8	0.00e+00	0	32	101	1048576	44	5836
2026-01-06 04:58:11.57	172.23	18.01	-32.9	-33.4	26.9	0.00e+00	0	32	101	1048576	44	5762
2026-01-06 04:58:12.59	172.28	18.13	-32.9	-33.4	26.9	0.00e+00	0	32	101	1048576	44	5798
2026-01-06 04:58:13.60	172.32	18.25	-32.8	-33.3	27.0	0.00e+00	0	32	101	1048576	44	5710
2026-01-06 04:58:14.61	172.37	18.37	-33.0	-33.5	26.8	0.00e+00	0	33	101	1048576	44	5855
2026-01-06 04:58:15.62	172.41	18.49	-32.9	-33.4	26.9	0.00e+00	0	33	101	1048576	44	5783
2026-01-06 04:58:16.63	172.46	18.62	-32.9	-33.4	26.9	0.00e+00	0	32	101	1048576	44	5791
2026-01-06 04:58:17.64	172.51	18.74	-32.8	-33.3	27.0	0.00e+00	0	32	101	1048576	44	5728
2026-01-06 04:58:18.65	172.56	18.87	-32.7	-33.2	27.0	0.00e+00	0	32	101	1048576	44	5677
2026-01-06 04:58:19.66	172.60	18.99	-32.7	-33.2	27.2	0.00e+00	0	33	101	1048576	44	5632
2026-01-06 04:58:20.67	172.65	19.11	-32.7	-33.2	27.1	0.00e+00	0	33	101	1048576	44	5643
2026-01-06 04:58:21.68	172.70	19.24	-32.8	-33.3	27.1	0.00e+00	0	33	101	1048576	44	5722
2026-01-06 04:58:22.70	172.75	19.37	-32.6	-33.1	27.2	0.00e+00	0	32	101	1048576	44	5595
2026-01-06 04:58:23.71	172.80	19.50	-32.6	-33.1	27.3	0.00e+00	0	32	101	1048576	44	5587
2026-01-06 04:58:24.72	172.85	19.62	-32.4	-32.9	27.3	0.00e+00	0	32	101	1048576	44	5464
2026-01-06 04:58:25.73	172.90	19.75	-32.4	-32.9	27.3	0.00e+00	0	32	101	1048576	44	5441
2026-01-06 04:58:26.74	172.95	19.88	-32.4	-32.9	27.3	0.00e+00	0	32	101	1048576	44	5442
2026-01-06 04:58:27.75	173.00	20.01	-32.4	-32.9	27.3	0.00e+00	0	33	101	1048576	44	5447
2026-01-06 04:58:28.76	173.05	20.14	-32.3	-32.7	27.5	0.00e+00	0	32	101	1048576	44	5371
2026-01-06 04:58:29.77	173.10	20.27	-32.2	-32.6	27.6	0.00e+00	0	32	101	1048576	44	5305
2026-01-06 04:58:30.78	173.16	20.40	-32.3	-32.8	27.5	0.00e+00	0	32	101	1048576	44	5389
2026-01-06 04:58:31.79	173.21	20.54	-32.2	-32.7	27.5	0.00e+00	0	32	101	1048576	44	5326
2026-01-06 04:58:32.80	173.26	20.67	-32.2	-32.6	27.5	0.00e+00	0	32	101	1048576	44	5308
2026-01-06 04:58:33.81	173.31	20.80	-32.3	-32.7	27.6	0.00e+00	0	32	101	1048576	42	6029
2026-01-06 04:58:34.82	173.37	20.94	-32.1	-32.6	27.6	0.00e+00	0	33	101	1048576	42	5943
2026-01-06 04:58:35.84	173.42	21.07	-32.2	-32.7	27.6	0.00e+00	0	33	101	1048576	42	5999
2026-01-06 04:58:36.85	173.48	21.21	-32.2	-32.6	27.6	0.00e+00	0	32	101	1048576	42	5960
2026-01-06 04:58:37.86	173.53	21.35	-32.1	-32.6	27.7	0.00e+00	0	32	101	1048576	42	5903
2026-01-06 04:58:38.87	173.59	21.48	-32.1	-32.6	27.7	0.00e+00	0	32	101	1048576	42	5933
2026-01-06 04:58:39.88	173.65	21.62	-32.0	-32.4	27.7	0.00e+00	0	33	101	1048576	42	5802
2026-01-06 04:58:40.89	173.70	21.76	-32.0	-32.5	27.7	0.00e+00	0	32	101	1048576	42	5858
2026-01-06 04:58:41.90	173.76	21.90	-32.1	-32.5	27.7	0.00e+00	0	32	101	1048576	42	5893
2026-01-06 04:58:42.91	173.82	22.04	-32.1	-32.6	27.7	0.00e+00	0	32	101	1048576	42	5925
2026-01-06 04:58:43.92	173.87	22.18	-32.1	-32.6	27.6	0.00e+00	0	33	101	1048576	42	5924
2026-01-06 04:58:44.93	173.93	22.32	-32.1	-32.6	27.6	0.00e+00	0	32	101	1048576	42	5934
2026-01-06 04:58:45.95	173.99	22.47	-32.1	-32.6	27.7	0.00e+00	0	32	101	1048576	42	5939
2026-01-06 04:58:46.96	174.05	22.61	-32.2	-32.6	27.6	0.00e+00	0	32	101	1048576	42	5957
2026-01-06 04:58:47.97	174.11	22.75	-32.3	-32.8	27.5	0.00e+00	0	32	101	1048576	42	6047
2026-01-06 04:58:48.98	174.17	22.90	-32.3	-32.8	27.6	0.00e+00	0	32	101	1048576	42	6069
2026-01-06 04:58:49.99	174.23	23.04	-32.3	-32.8	27.5	0.00e+00	0	32	101	1048576	42	6048
2026-01-06 04:58:51.00	174.30	23.19	-32.3	-32.8	27.4	0.00e+00	0	32	101	1048576	42	6067
2026-01-06 04:58:52.01	174.36	23.34	-32.3	-32.8	27.5	0.00e+00	0	32	101	1048576	42	6042
2026-01-06 04:58:53.02	174.42	23.48	-32.4	-32.9	27.4	0.00e+00	0	32	101	1048576	42	6133
2026-01-06 04:58:54.03	174.48	23.63	-32.3	-32.7	27.6	0.00e+00	0	32	101	1048576	42	6016
2026-01-06 04:58:55.04	174.55	23.78	-32.4	-32.9	27.5	0.00e+00	0	32	101	1048576	42	6120
2026-01-06 04:58:56.06	174.61	23.94	-32.3	-32.7	27.5	0.00e+00	0	32	101	1048576	42	6031
2026-01-06 04:58:57.07	174.68	24.09	-32.2	-32.7	27.5	0.00e+00	0	32	101	1048576	42	6016
2026-01-06 04:58:58.08	174.74	24.24	-32.4	-32.9	27.4	0.00e+00	0	33	101	1048576	42	6121
2026-01-06 04:58:59.09	174.81	24.39	-32.2	-32.6	27.6	0.00e+00	0	32	101	1048576	42	5960
2026-01-06 04:59:00.10	174.88	24.55	-32.4	-32.9	27.5	0.00e+00	0	32	101	1048576	42	6114
2026-01-06 04:59:01.11	174.94	24.70	-32.1	-32.5	27.8	0.00e+00	0	33	101	1048576	42	5893
2026-01-06 04:59:02.12	175.01	24.86	-32.1	-32.6	27.7	0.00e+00	0	33	101	1048576	42	5921
2026-01-06 04:59:03.13	175.08	25.01	-32.1	-32.5	27.7	0.00e+00	0	33	101	1048576	42	5890
2026-01-06 04:59:04.14	175.15	25.17	-32.0	-32.5	27.7	0.00e+00	0	33	101	1048576	42	5875
2026-01-06 04:59:05.15	175.22	25.33	-31.8	-32.3	27.8	0.00e+00	0	33	101	1048576	42	5743
2026-01-06 04:59:06.16	175.29	25.49	-31.9	-32.4	28.0	0.00e+00	0	33	101	1048576	42	5774
2026-01-06 04:59:07.17	175.36	25.65	-31.8	-32.2	28.0	0.00e+00	0	33	101	1048576	42	5676
2026-01-06 04:59:08.18	175.43	25.81	-31.7	-32.2	28.0	0.00e+00	0	33	101	1048576	42	5643
2026-01-06 04:59:09.19	175.51	25.97	-31.8	-32.2	28.0	0.00e+00	0	33	101	1048576	42	5682
2026-01-06 04:59:10.20	175.58	26.13	-31.7	-32.1	28.0	0.00e+00	0	33	101	1048576	42	5611
2026-01-06 04:59:11.21	175.65	26.30	-31.4	-31.9	28.2	0.00e+00	0	33	101	1048576	42	5458
2026-01-06 04:59:12.22	175.73	26.46	-31.5	-32.0	28.2	0.00e+00	0	32	101	1048576	42	5534
2026-01-06 04:59:13.24	175.81	26.63	-31.4	-31.8	28.3	0.00e+00	0	33	101	1048576	42	5422
2026-01-06 04:59:14.25	175.88	26.80	-31.3	-31.7	28.3	0.00e+00	0	32	101	1048576	42	5351
2026-01-06 04:59:15.26	175.96	26.96	-31.2	-31.7	28.4	0.00e+00	0	33	101	1048576	42	5331
2026-01-06 04:59:16.27	176.04	27.13	-31.3	-31.7	28.4	0.00e+00	0	32	101	1048576	42	5355
2026-01-06 04:59:17.28	176.12	27.30	-31.2	-31.6	28.5	0.00e+00	0	33	101	1048576	40	5957
2026-01-06 04:59:18.29	176.20	27.47	-31.1	-31.5	28.5	0.00e+00	0	33	101	1048576	40	5890
2026-01-06 04:59:19.30	176.28	27.65	-31.1	-31.6	28.4	0.00e+00	0	33	101	1048576	40	5913
2026-01-06 04:59:20.31	176.36	27.82	-31.2	-31.6	28.4	0.00e+00	0	33	101	1048576	40	5963
2026-01-06 04:59:21.32	176.44	27.99	-31.3	-31.8	28.2	0.00e+00	0	33	101	1048576	40	6044
2026-01-06 04:59:22.33	176.52	28.17	-31.2	-31.7	28.4	0.00e+00	0	33	101	1048576	40	5967
2026-01-06 04:59:23.34	176.61	28.34	-31.2	-31.6	28.4	0.00e+00	0	33	101	1048576	40	5944
2026-01-06 04:59:24.36	176.69	28.52	-31.3	-31.7	28.3	0.00e+00	0	33	101	1048576	40	6014
2026-01-06 04:59:25.37	176.78	28.70	-31.3	-31.8	28.2	0.00e+00	0	33	101	1048576	40	6067
2026-01-06 04:59:26.38	176.86	28.88	-31.4	-31.9	28.1	0.00e+00	0	33	101	1048576	40	6106
2026-01-06 04:59:27.39	176.95	29.06	-31.2	-31.7	28.3	0.00e+00	0	33	101	1048576	40	5973
2026-01-06 04:59:28.40	177.04	29.24	-31.5	-32.0	28.2	0.00e+00	0	33	101	1048576	40	6193
2026-01-06 04:59:29.41	177.13	29.42	-31.3	-31.8	28.4	0.00e+00	0	33	101	1048576	40	6067
2026-01-06 04:59:30.42	177.22	29.61	-31.5	-32.0	28.2	0.00e+00	0	33	101	1048576	40	6190
2026-01-06 04:59:31.43	177.31	29.79	-31.5	-32.0	28.1	0.00e+00	0	33	101	1048576	40	6176
2026-01-06 04:59:32.44	177.40	29.98	-31.5	-32.0	28.1	0.00e+00	0	32	101	1048576	40	6213
2026-01-06 04:59:33.46	177.50	30.17	-31.4	-31.9	28.2	0.00e+00	0	33	101	1048576	40	6126
2026-01-06 04:59:34.47	177.59	30.35	-31.2	-31.7	28.4	0.00e+00	0	33	101	1048576	40	5965
2026-01-06 04:59:35.48	177.69	30.54	-31.1	-31.6	28.5	0.00e+00	0	33	101	1048576	40	5935
2026-01-06 04:59:36.49	177.78	30.73	-31.2	-31.7	28.4	0.00e+00	0	33	101	1048576	40	5997
2026-01-06 04:59:37.50	177.88	30.92	-31.2	-31.6	28.4	0.00e+00	0	32	101	1048576	40	5942
2026-01-06 04:59:38.51	177.98	31.12	-31.0	-31.5	28.5	0.00e+00	0	33	101	1048576	40	5860
2026-01-06 04:59:39.52	178.08	31.31	-31.1	-31.5	28.5	0.00e+00	0	32	101	1048576	40	5877
2026-01-06 04:59:40.53	178.18	31.51	-31.2	-31.6	28.5	0.00e+00	0	33	101	1048576	40	5944
2026-01-06 04:59:41.54	178.28	31.70	-31.2	-31.6	28.5	0.00e+00	0	33	101	1048576	40	5934
2026-01-06 04:59:42.55	178.39	31.90	-31.1	-31.6	28.5	0.00e+00	0	33	101	1048576	40	5924
2026-01-06 04:59:43.56	178.49	32.10	-31.1	-31.6	28.5	0.00e+00	0	33	101	1048576	40	5906
2026-01-06 04:59:44.58	178.60	32.30	-31.2	-31.7	28.5	0.00e+00	0	33	101	1048576	40	5977
2026-01-06 04:59:45.59	178.70	32.50	-31.5	-32.0	28.3	0.00e+00	0	33	101	1048576	40	6219
2026-01-06 04:59:46.60	178.81	32.71	-31.4	-31.9	28.1	0.00e+00	0	33	101	1048576	40	6121
2026-01-06 04:59:47.61	178.92	32.91	-31.4	-31.8	28.4	0.00e+00	0	33	101	1048576	40	6095
2026-01-06 04:59:48.62	179.03	33.11	-31.2	-31.7	28.4	0.00e+00	0	33	101	1048576	40	5981
2026-01-06 04:59:49.63	179.15	33.32	-31.4	-31.8	28.3	0.00e+00	0	33	101	1048576	40	6095
2026-01-06 04:59:50.64	179.26	33.53	-31.2	-31.7	28.4	0.00e+00	0	33	101	1048576	40	5972
2026-01-06 04:59:51.65	179.37	33.74	-31.3	-31.7	28.4	0.00e+00	0	33	101	1048576	40	6020
2026-01-06 04:59:52.66	179.49	33.95	-31.2	-31.7	28.4	0.00e+00	0	33	101	1048576	40	5967
2026-01-06 04:59:53.67	179.61	34.16	-31.7	-32.2	28.3	0.00e+00	0	33	101	1048576	40	6326
2026-01-06 04:59:54.68	179.73	34.37	-31.4	-31.8	28.3	0.00e+00	0	33	101	1048576	40	6091
2026-01-06 04:59:55.70	179.85	34.59	-31.5	-31.9	28.2	0.00e+00	0	33	101	1048576	40	6153
2026-01-06 04:59:56.71	179.97	34.80	-31.3	-31.8	28.3	0.00e+00	0	33	101	1048576	40	6039
2026-01-06 04:59:57.72	180.10	35.02	-31.4	-31.9	28.2	0.00e+00	0	33	101	1048576	40	6113
2026-01-06 04:59:58.73	180.22	35.24	-31.4	-31.9	28.3	0.00e+00	0	33	101	1048576	40	6125
2026-01-06 04:59:59.74	180.35	35.46	-31.2	-31.7	28.4	0.00e+00	0	33	101	1048576	40	5997
2026-01-06 05:00:00.75	180.48	35.68	-31.4	-31.9	28.3	0.00e+00	0	33	101	1048576	40	6111
2026-01-06 05:00:01.76	180.61	35.90	-31.5	-32.0	28.2	0.00e+00	0	33	101	1048576	40	6199
2026-01-06 05:00:02.77	180.74	36.13	-31.4	-31.9	28.3	0.00e+00	0	33	101	1048576	40	6113
2026-01-06 05:00:03.78	180.88	36.35	-31.3	-31.8	28.3	0.00e+00	0	32	101	1048576	40	6056
2026-01-06 05:00:04.79	181.01	36.58	-31.3	-31.8	28.3	0.00e+00	0	33	101	1048576	40	6071
2026-01-06 05:00:05.80	181.15	36.81	-31.1	-31.6	28.6	0.00e+00	0	33	101	1048576	40	5908
2026-01-06 05:00:06.82	181.29	37.04	-31.2	-31.7	28.4	0.00e+00	0	32	101	1048576	40	5996
2026-01-06 05:00:07.83	181.44	37.27	-31.3	-31.8	28.3	0.00e+00	0	33	101	1048576	40	6073
2026-01-06 05:00:08.84	181.58	37.50	-31.3	-31.7	28.4	0.00e+00	0	33	101	1048576	40	6011
2026-01-06 05:00:09.85	181.73	37.73	-31.6	-32.0	28.4	0.00e+00	0	33	101	1048576	40	6228
2026-01-06 05:00:10.86	181.87	37.97	-31.7	-32.1	28.0	0.00e+00	0	32	101	1048576	40	6306
2026-01-06 05:00:11.87	182.02	38.21	-31.5	-32.0	28.3	0.00e+00	0	32	101	1048576	40	6208
2026-01-06 05:00:12.88	182.18	38.44	-31.3	-31.8	28.3	0.00e+00	0	33	101	1048576	40	6065
2026-01-06 05:00:13.89	182.33	38.68	-31.4	-31.9	28.2	0.00e+00	0	33	101	1048576	40	6119
2026-01-06 05:00:14.91	182.49	38.93	-31.5	-31.9	28.2	0.00e+00	0	32	101	1048576	40	6159
2026-01-06 05:00:15.92	182.65	39.17	-31.4	-31.9	28.3	0.00e+00	0	33	101	1048576	40	6144
2026-01-06 05:00:16.93	182.81	39.41	-31.6	-32.1	28.1	0.00e+00	0	33	101	1048576	40	6258
2026-01-06 05:00:17.94	182.97	39.66	-31.5	-32.0	28.2	0.00e+00	0	33	101	1048576	40	6213
2026-01-06 05:00:18.95	183.14	39.91	-31.6	-32.0	28.2	0.00e+00	0	33	101	1048576	40	6225
2026-01-06 05:00:19.96	183.31	40.15	-31.7	-32.2	28.1	0.00e+00	0	33	101	1048576	40	6345
2026-01-06 05:00:20.97	183.48	40.40	-31.9	-32.3	27.9	0.00e+00	0	33	101	1048576	42	5740
2026-01-06 05:00:21.98	183.65	40.66	-32.1	-32.6	27.8	0.00e+00	0	33	101	1048576	42	5931
2026-01-06 05:00:22.99	183.83	40.91	-32.2	-32.7	27.9	0.00e+00	0	33	101	1048576	42	5992
2026-01-06 05:00:24.01	184.01	41.17	-32.1	-32.5	27.9	0.00e+00	0	33	101	1048576	42	5890
2026-01-06 05:00:25.02	184.19	41.42	-31.8	-32.3	28.1	0.00e+00	0	33	101	1048576	42	5696
2026-01-06 05:00:26.03	184.37	41.68	-31.8	-32.3	28.1	0.00e+00	0	33	101	1048576	42	5730
2026-01-06 05:00:27.04	184.56	41.94	-31.5	-32.0	28.3	0.00e+00	0	33	101	1048576	42	5530
2026-01-06 05:00:28.05	184.75	42.20	-31.6	-32.1	28.3	0.00e+00	0	32	101	1048576	42	5583
2026-01-06 05:00:29.06	184.95	42.46	-31.8	-32.3	28.0	0.00e+00	0	33	101	1048576	42	5732
2026-01-06 05:00:30.07	185.14	42.72	-31.7	-32.2	28.2	0.00e+00	0	33	101	1048576	42	5674
2026-01-06 05:00:31.08	185.34	42.99	-31.5	-32.0	28.3	0.00e+00	0	33	101	1048576	42	5505
2026-01-06 05:00:32.09	185.55	43.25	-31.6	-32.1	28.2	0.00e+00	0	33	101	1048576	42	5590
2026-01-06 05:00:33.11	185.76	43.52	-31.6	-32.1	28.2	0.00e+00	0	33	101	1048576	42	5576
2026-01-06 05:00:34.12	185.97	43.79	-31.6	-32.0	28.2	0.00e+00	0	33	101	1048576	42	5559
2026-01-06 05:00:35.13	186.18	44.06	-31.7	-32.2	28.2	0.00e+00	0	33	101	1048576	42	5666
2026-01-06 05:00:36.14	186.40	44.34	-31.8	-32.3	28.3	0.00e+00	0	33	101	1048576	42	5714
2026-01-06 05:00:37.15	186.62	44.61	-32.0	-32.5	27.9	0.00e+00	0	33	101	1048576	42	5842
2026-01-06 05:00:38.16	186.84	44.88	-32.1	-32.6	27.8	0.00e+00	0	33	101	1048576	42	5902
2026-01-06 05:00:39.17	187.07	45.16	-32.1	-32.6	27.9	0.00e+00	0	33	101	1048576	42	5931
2026-01-06 05:00:40.18	187.30	45.44	-31.9	-32.4	28.0	0.00e+00	0	33	101	1048576	42	5782
2026-01-06 05:00:41.19	187.54	45.72	-32.0	-32.4	28.0	0.00e+00	0	33	101	1048576	42	5792
2026-01-06 05:00:42.21	187.78	46.00	-31.9	-32.3	28.0	0.00e+00	0	33	101	1048576	42	5742
2026-01-06 05:00:43.22	188.03	46.28	-32.0	-32.5	27.9	0.00e+00	0	33	101	1048576	42	5852
2026-01-06 05:00:44.23	188.27	46.57	-31.9	-32.4	28.1	0.00e+00	0	33	101	1048576	42	5794
2026-01-06 05:00:45.24	188.53	46.85	-32.2	-32.7	27.7	0.00e+00	0	32	101	1048576	42	6000
2026-01-06 05:00:46.25	188.79	47.14	-31.8	-32.3	27.9	0.00e+00	0	33	101	1048576	42	5703
2026-01-06 05:00:47.26	189.05	47.43	-32.2	-32.6	27.7	0.00e+00	0	33	101	1048576	42	5954
2026-01-06 05:00:48.27	189.32	47.72	-32.3	-32.8	27.7	0.00e+00	0	33	101	1048576	42	6044
2026-01-06 05:00:49.28	189.59	48.01	-32.2	-32.7	27.8	0.00e+00	0	33	101	1048576	42	5971
2026-01-06 05:00:50.29	189.87	48.30	-32.2	-32.7	27.8	0.00e+00	0	33	101	1048576	42	5967
2026-01-06 05:00:51.31	190.15	48.59	-32.2	-32.7	27.6	0.00e+00	0	33	101	1048576	42	6001
2026-01-06 05:00:52.32	190.44	48.89	-32.5	-33.0	27.5	0.00e+00	0	33	101	1048576	42	6222
2026-01-06 05:00:53.33	190.74	49.18	-32.6	-33.1	27.4	0.00e+00	0	33	101	1048576	42	6300
2026-01-06 05:00:54.34	191.03	49.48	-32.9	-33.4	27.2	0.00e+00	0	33	101	1048576	42	6473
2026-01-06 05:00:55.35	191.34	49.78	-32.8	-33.3	27.3	0.00e+00	0	33	101	1048576	42	6417
2026-01-06 05:00:56.36	191.65	50.07	-32.8	-33.3	27.1	0.00e+00	0	33	101	1048576	42	6444
2026-01-06 05:00:57.37	191.97	50.37	-33.1	-33.6	27.2	0.00e+00	0	33	101	1048576	42	6636
2026-01-06 05:00:58.38	192.29	50.67	-33.0	-33.4	27.1	0.00e+00	0	33	101	1048576	44	5828
2026-01-06 05:00:59.39	192.62	50.98	-32.9	-33.4	27.2	0.00e+00	0	33	101	1048576	44	5785
2026-01-06 05:01:00.40	192.96	51.28	-32.8	-33.3	27.1	0.00e+00	0	33	101	1048576	44	5705
2026-01-06 05:01:01.41	193.30	51.58	-33.1	-33.6	27.0	0.00e+00	0	32	101	1048576	44	5904
2026-01-06 05:01:02.42	193.65	51.89	-32.6	-33.1	26.0	0.00e+00	0	33	101	1048576	44	5629
2026-01-06 05:01:03.43	194.01	52.19	-32.8	-33.2	27.2	0.00e+00	0	33	101	1048576	44	5688
2026-01-06 05:01:04.45	194.38	52.50	-32.8	-33.3	27.2	0.00e+00	0	33	101	1048576	44	5705
2026-01-06 05:01:05.46	194.75	52.81	-32.9	-33.4	27.2	0.00e+00	0	33	101	1048576	44	5780
2026-01-06 05:01:06.47	195.13	53.11	-33.0	-33.4	27.1	0.00e+00	0	33	101	1048576	44	5825
2026-01-06 05:01:07.48	195.52	53.42	-33.5	-34.0	26.7	0.00e+00	0	33	101	1048576	44	6227
2026-01-06 05:01:08.49	195.92	53.73	-33.0	-33.5	27.1	0.00e+00	0	33	101	1048576	44	5876
2026-01-06 05:01:09.50	196.32	54.04	-33.1	-33.6	27.0	0.00e+00	0	33	101	1048576	44	5922
2026-01-06 05:01:10.51	196.74	54.35	-32.9	-33.4	27.1	0.00e+00	0	33	101	1048576	44	5812
2026-01-06 05:01:11.52	197.16	54.66	-33.0	-33.5	27.0	0.00e+00	0	33	101	1048576	44	5838
2026-01-06 05:01:12.53	197.59	54.97	-33.2	-33.7	26.6	0.00e+00	0	33	101	1048576	44	5984
2026-01-06 05:01:13.54	198.03	55.28	-33.4	-33.9	26.6	0.00e+00	0	33	101	1048576	44	6117
2026-01-06 05:01:14.56	198.49	55.59	-33.4	-33.9	26.8	0.00e+00	0	33	101	1048576	44	6120
2026-01-06 05:01:15.57	198.95	55.90	-33.2	-33.7	27.0	0.00e+00	0	33	101	1048576	44	5995
2026-01-06 05:01:16.58	199.42	56.21	-32.9	-33.4	27.1	0.00e+00	0	33	101	1048576	44	5804
2026-01-06 05:01:17.59	199.90	56.52	-33.0	-33.5	27.4	0.00e+00	0	33	101	1048576	44	5860
2026-01-06 05:01:18.60	200.39	56.83	-32.7	-33.2	27.2	0.00e+00	0	33	101	1048576	44	5633
2026-01-06 05:01:19.61	200.90	57.14	-33.0	-33.5	27.0	0.00e+00	0	33	101	1048576	44	5836
2026-01-06 05:01:20.62	201.41	57.45	-33.0	-33.5	27.1	0.00e+00	0	33	101	1048576	44	5866
2026-01-06 05:01:21.63	201.94	57.76	-33.2	-33.7	26.9	0.00e+00	0	33	101	1048576	44	5976
2026-01-06 05:01:22.64	202.48	58.07	-33.1	-33.6	27.0	0.00e+00	0	33	101	1048576	44	5935
2026-01-06 05:01:23.65	203.03	58.38	-32.8	-33.4	27.0	0.00e+00	0	33	101	1048576	44	5772
2026-01-06 05:01:24.66	203.59	58.68	-32.8	-33.3	27.3	0.00e+00	0	33	101	1048576	44	5727
2026-01-06 05:01:25.68	204.18	58.99	-32.9	-33.4	27.2	0.00e+00	0	33	101	1048576	44	5772
2026-01-06 05:01:26.69	204.77	59.29	-32.9	-33.4	27.1	0.00e+00	0	33	101	1048576	44	5765
2026-01-06 05:01:27.70	205.37	59.60	-33.2	-33.7	26.9	0.00e+00	0	33	101	1048576	44	5997
2026-01-06 05:01:28.71	205.99	59.90	-32.6	-33.0	25.5	0.00e+00	0	33	101	1048576	44	5533
2026-01-06 05:01:29.72	206.62	60.20	-33.3	-33.8	26.8	0.00e+00	0	33	101	1048576	44	6080
2026-01-06 05:01:30.73	207.27	60.50	-33.0	-33.4	27.1	0.00e+00	0	33	101	1048576	44	5815
2026-01-06 05:01:31.74	207.93	60.79	-32.9	-33.3	27.2	0.00e+00	0	33	101	1048576	44	5738
2026-01-06 05:01:32.75	208.61	61.09	-32.7	-33.2	27.1	0.00e+00	0	33	101	1048576	44	5689
2026-01-06 05:01:33.76	209.31	61.38	-32.5	-33.0	27.4	0.00e+00	0	33	101	1048576	44	5527
2026-01-06 05:01:34.77	210.02	61.67	-32.7	-33.2	27.4	0.00e+00	0	33	101	1048576	44	5635
2026-01-06 05:01:35.78	210.74	61.95	-32.6	-33.0	27.4	0.00e+00	0	33	101	1048576	44	5553
2026-01-06 05:01:36.79	211.49	62.24	-32.8	-33.3	27.2	0.00e+00	0	33	101	1048576	44	5708
2026-01-06 05:01:37.81	212.26	62.52	-32.6	-33.0	27.4	0.00e+00	0	33	101	1048576	44	5561
2026-01-06 05:01:38.82	213.04	62.80	-32.4	-32.9	27.7	0.00e+00	0	33	101	1048576	44	5442
2026-01-06 05:01:39.83	213.84	63.07	-32.3	-32.8	27.7	0.00e+00	0	33	101	1048576	42	6047
2026-01-06 05:01:40.84	214.65	63.34	-32.4	-32.9	27.6	0.00e+00	0	33	101	1048576	42	6142
2026-01-06 05:01:41.85	215.49	63.61	-32.5	-33.0	27.4	0.00e+00	0	33	101	1048576	42	6218
2026-01-06 05:01:42.86	216.34	63.87	-32.7	-33.2	27.4	0.00e+00	0	33	101	1048576	42	6340
2026-01-06 05:01:43.87	217.21	64.13	-32.5	-32.9	27.5	0.00e+00	0	33	101	1048576	42	6165
2026-01-06 05:01:44.88	218.11	64.39	-32.6	-33.1	27.4	0.00e+00	0	33	101	1048576	42	6274
2026-01-06 05:01:45.89	219.02	64.64	-32.6	-33.1	27.4	0.00e+00	0	33	101	1048576	42	6284
2026-01-06 05:01:46.91	219.96	64.88	-32.3	-32.8	27.6	0.00e+00	0	33	101	1048576	42	6066
2026-01-06 05:01:47.91	220.90	65.12	-32.4	-32.9	27.5	0.00e+00	0	33	101	1048576	42	6163
2026-01-06 05:01:48.93	221.88	65.35	-32.1	-32.5	27.9	0.00e+00	0	33	101	1048576	42	5885
2026-01-06 05:01:49.94	222.88	65.58	-32.3	-32.8	27.7	0.00e+00	0	33	101	1048576	42	6047
2026-01-06 05:01:50.95	223.89	65.80	-32.4	-32.8	27.5	0.00e+00	0	33	101	1048576	42	6093
2026-01-06 05:01:51.96	224.92	66.02	-32.3	-32.8	27.6	0.00e+00	0	33	101	1048576	42	6092
2026-01-06 05:01:52.97	225.98	66.23	-32.2	-32.7	27.7	0.00e+00	0	33	101	1048576	42	6000
2026-01-06 05:01:53.98	227.05	66.43	-31.9	-32.4	27.9	0.00e+00	0	33	101	1048576	42	5791
2026-01-06 05:01:54.99	228.14	66.62	-32.1	-32.6	27.8	0.00e+00	0	33	101	1048576	42	5927
2026-01-06 05:01:56.00	229.26	66.81	-32.1	-32.5	27.7	0.00e+00	0	33	101	1048576	42	5894
2026-01-06 05:01:57.01	230.39	66.99	-31.9	-32.3	28.0	0.00e+00	0	33	101	1048576	42	5760
2026-01-06 05:01:58.02	231.54	67.16	-32.1	-32.6	27.8	0.00e+00	0	33	101	1048576	42	5928
2026-01-06 05:01:59.03	232.71	67.33	-32.0	-32.5	27.9	0.00e+00	0	33	101	1048576	42	5839
2026-01-06 05:02:00.05	233.91	67.48	-31.9	-32.4	27.8	0.00e+00	0	33	101	1048576	42	5787
2026-01-06 05:02:01.06	235.11	67.63	-31.8	-32.3	28.1	0.00e+00	0	33	101	1048576	42	5739
2026-01-06 05:02:02.07	236.34	67.77	-31.7	-32.1	28.2	0.00e+00	0	33	101	1048576	42	5600
2026-01-06 05:02:03.08	237.57	67.89	-31.7	-32.2	27.9	0.00e+00	0	33	101	1048576	42	5655
2026-01-06 05:02:04.09	238.83	68.01	-31.4	-31.9	28.1	0.00e+00	0	33	101	1048576	42	5454
2026-01-06 05:02:05.10	240.09	68.12	-31.6	-32.1	28.1	0.00e+00	0	33	101	1048576	42	5570
2026-01-06 05:02:06.11	241.37	68.22	-31.5	-31.9	28.2	0.00e+00	0	33	101	1048576	42	5501
2026-01-06 05:02:07.13	242.68	68.31	-31.5	-32.0	28.2	0.00e+00	0	33	101	1048576	42	5512
2026-01-06 05:02:08.14	243.98	68.39	-31.5	-31.9	28.3	0.00e+00	0	33	101	1048576	42	5493
2026-01-06 05:02:09.15	245.30	68.46	-31.5	-32.0	28.2	0.00e+00	0	33	101	1048576	42	5538
2026-01-06 05:02:10.16	246.62	68.52	-31.9	-32.4	28.0	0.00e+00	0	33	101	1048576	42	5771
2026-01-06 05:02:11.17	247.95	68.57	-31.6	-32.0	28.2	0.00e+00	0	33	101	1048576	42	5548
2026-01-06 05:02:12.18	249.28	68.60	-31.4	-31.9	28.2	0.00e+00	0	33	101	1048576	42	5458
2026-01-06 05:02:13.19	250.62	68.63	-31.6	-32.0	28.1	0.00e+00	0	33	101	1048576	42	5538
2026-01-06 05:02:14.20	251.96	68.65	-31.6	-32.0	28.2	0.00e+00	0	33	101	1048576	42	5565
2026-01-06 05:02:15.21	253.30	68.65	-31.6	-32.0	28.1	0.00e+00	0	33	101	1048576	42	5549
2026-01-06 05:02:16.22	254.64	68.65	-31.7	-32.2	28.0	0.00e+00	0	33	101	1048576	42	5675
2026-01-06 05:02:17.24	256.00	68.63	-31.6	-32.0	28.2	0.00e+00	0	33	101	1048576	42	5562
2026-01-06 05:02:18.25	257.34	68.60	-31.5	-31.9	28.3	0.00e+00	0	33	101	1048576	42	5476
2026-01-06 05:02:19.26	258.67	68.57	-31.4	-31.9	28.3	0.00e+00	0	33	101	1048576	42	5464
2026-01-06 05:02:20.27	260.00	68.52	-31.4	-31.9	28.3	0.00e+00	0	33	101	1048576	42	5444
2026-01-06 05:02:21.28	261.32	68.46	-31.4	-31.8	28.1	0.00e+00	0	33	101	1048576	42	5423
2026-01-06 05:02:22.29	262.63	68.39	-31.8	-32.2	27.9	0.00e+00	0	33	101	1048576	42	5671
2026-01-06 05:02:23.30	263.93	68.31	-31.6	-32.0	28.1	0.00e+00	0	33	101	1048576	42	5556
2026-01-06 05:02:24.31	265.22	68.22	-31.2	-31.6	28.4	0.00e+00	0	33	101	1048576	42	5313
2026-01-06 05:02:25.32	266.50	68.12	-31.4	-31.9	28.2	0.00e+00	0	33	101	1048576	42	5455
2026-01-06 05:02:26.34	267.78	68.01	-31.7	-32.2	28.0	0.00e+00	0	33	101	1048576	42	5659
2026-01-06 05:02:27.34	269.02	67.89	-31.8	-32.3	27.9	0.00e+00	0	33	101	1048576	42	5732
2026-01-06 05:02:28.36	270.27	67.76	-31.4	-31.9	28.1	0.00e+00	0	33	101	1048576	42	5471
2026-01-06 05:02:29.37	271.49	67.63	-31.6	-32.1	28.1	0.00e+00	0	32	101	1048576	42	5578
2026-01-06 05:02:30.38	272.70	67.48	-31.6	-32.1	28.0	0.00e+00	0	33	101	1048576	42	5569
2026-01-06 05:02:31.39	273.88	67.32	-31.8	-32.3	27.9	0.00e+00	0	33	101	1048576	42	5722
2026-01-06 05:02:32.40	275.05	67.16	-32.0	-32.5	27.8	0.00e+00	0	33	101	1048576	42	5843
2026-01-06 05:02:33.41	276.20	66.99	-31.7	-32.2	27.9	0.00e+00	0	33	101	1048576	42	5650
2026-01-06 05:02:34.42	277.33	66.81	-31.8	-32.3	27.9	0.00e+00	0	33	101	1048576	42	5711
2026-01-06 05:02:35.43	278.45	66.62	-31.7	-32.2	28.0	0.00e+00	0	33	101	1048576	42	5646
2026-01-06 05:02:36.45	279.55	66.43	-31.5	-31.9	28.2	0.00e+00	0	33	101	1048576	42	5493
2026-01-06 05:02:37.46	280.62	66.23	-31.5	-31.9	28.1	0.00e+00	0	33	101	1048576	42	5475
2026-01-06 05:02:38.47	281.67	66.02	-31.4	-31.9	27.9	0.00e+00	0	33	101	1048576	42	5476
2026-01-06 05:02:39.48	282.70	65.80	-31.7	-32.2	28.1	0.00e+00	0	33	101	1048576	42	5634
2026-01-06 05:02:40.49	283.72	65.58	-31.7	-32.2	27.9	0.00e+00	0	33	101	1048576	42	5648
2026-01-06 05:02:41.50	284.71	65.35	-31.5	-32.0	28.2	0.00e+00	0	33	101	1048576	42	5531
2026-01-06 05:02:42.51	285.68	65.12	-31.5	-32.0	27.8	0.00e+00	0	33	101	1048576	42	5512
2026-01-06 05:02:43.52	286.63	64.88	-31.7	-32.2	28.0	0.00e+00	0	33	101	1048576	42	5652
2026-01-06 05:02:44.53	287.56	64.64	-31.7	-32.2	28.1	0.00e+00	0	33	101	1048576	42	5660
2026-01-06 05:02:45.55	288.48	64.39	-32.0	-32.5	27.6	0.00e+00	0	33	101	1048576	42	5831
2026-01-06 05:02:46.56	289.37	64.13	-31.9	-32.4	27.9	0.00e+00	0	33	101	1048576	42	5792
2026-01-06 05:02:47.56	290.23	63.88	-32.2	-32.6	27.7	0.00e+00	0	33	101	1048576	42	5960
2026-01-06 05:02:48.57	291.09	63.62	-32.4	-32.9	27.5	0.00e+00	0	33	101	1048576	42	6145
2026-01-06 05:02:49.59	291.93	63.35	-32.5	-33.0	27.4	0.00e+00	0	33	101	1048576	42	6193
2026-01-06 05:02:50.60	292.74	63.08	-32.4	-32.9	27.3	0.00e+00	0	33	101	1048576	42	6128
2026-01-06 05:02:51.61	293.54	62.80	-32.3	-32.8	27.5	0.00e+00	0	33	101	1048576	42	6069
2026-01-06 05:02:52.62	294.32	62.53	-32.5	-33.0	27.2	0.00e+00	0	33	101	1048576	42	6200
2026-01-06 05:02:53.63	295.08	62.25	-32.9	-33.4	27.2	0.00e+00	0	33	101	1048576	42	6507
2026-01-06 05:02:54.64	295.82	61.96	-33.0	-33.5	26.9	0.00e+00	0	33	101	1048576	44	5839
2026-01-06 05:02:55.65	296.55	61.68	-32.5	-33.0	27.5	0.00e+00	0	33	101	1048576	44	5559
2026-01-06 05:02:56.66	297.26	61.39	-32.4	-32.8	27.6	0.00e+00	0	33	101	1048576	44	5439
2026-01-06 05:02:57.67	297.95	61.10	-32.5	-33.0	27.3	0.00e+00	0	32	101	1048576	44	5534
2026-01-06 05:02:58.68	298.63	60.80	-32.5	-33.0	27.2	0.00e+00	0	32	101	1048576	44	5555
2026-01-06 05:02:59.70	299.30	60.51	-32.6	-33.1	27.2	0.00e+00	0	33	101	1048576	44	5588
2026-01-06 05:03:00.71	299.95	60.21	-32.8	-33.3	26.6	0.00e+00	0	33	101	1048576	44	5744
2026-01-06 05:03:01.72	300.58	59.91	-33.1	-33.6	26.9	0.00e+00	0	33	101	1048576	44	5953
2026-01-06 05:03:02.73	301.20	59.61	-33.3	-33.8	26.7	0.00e+00	0	33	101	1048576	44	6053
2026-01-06 05:03:03.74	301.80	59.31	-33.2	-33.7	26.7	0.00e+00	0	33	101	1048576	44	6032
2026-01-06 05:03:04.75	302.39	59.00	-33.1	-33.6	26.8	0.00e+00	0	33	101	1048576	44	5954
2026-01-06 05:03:05.76	302.96	58.70	-33.1	-33.6	26.9	0.00e+00	0	33	101	1048576	44	5955
2026-01-06 05:03:06.77	303.53	58.39	-33.3	-33.8	26.8	0.00e+00	0	33	101	1048576	44	6074
2026-01-06 05:03:07.78	304.08	58.09	-33.5	-34.0	26.7	0.00e+00	0	33	101	1048576	44	6221
2026-01-06 05:03:08.79	304.62	57.78	-33.3	-33.8	26.8	0.00e+00	0	33	101	1048576	44	6072
2026-01-06 05:03:09.80	305.14	57.47	-33.3	-33.7	26.7	0.00e+00	0	33	101	1048576	44	6032
2026-01-06 05:03:10.81	305.66	57.16	-33.3	-33.8	26.9	0.00e+00	0	33	101	1048576	44	6068
2026-01-06 05:03:11.82	306.16	56.86	-33.5	-34.0	26.4	0.00e+00	0	33	101	1048576	44	6208
2026-01-06 05:03:12.83	306.65	56.55	-33.4	-33.9	26.8	0.00e+00	0	33	101	1048576	44	6146
2026-01-06 05:03:13.84	307.13	56.24	-33.2	-33.7	26.5	0.00e+00	0	33	101	1048576	44	6017
2026-01-06 05:03:14.85	307.61	55.93	-33.0	-33.4	27.2	0.00e+00	0	33	101	1048576	44	5826
2026-01-06 05:03:15.87	308.07	55.62	-33.1	-33.6	27.0	0.00e+00	0	33	101	1048576	44	5927
2026-01-06 05:03:16.88	308.52	55.31	-33.0	-33.5	27.0	0.00e+00	0	33	101	1048576	44	5890
2026-01-06 05:03:17.89	308.96	55.00	-33.1	-33.6	27.0	0.00e+00	0	33	101	1048576	44	5911
2026-01-06 05:03:18.89	309.39	54.69	-33.2	-33.6	26.8	0.00e+00	0	33	101	1048576	44	5948
2026-01-06 05:03:19.90	309.81	54.38	-33.3	-33.8	26.7	0.00e+00	0	33	101	1048576	44	6039
2026-01-06 05:03:20.92	310.23	54.07	-33.4	-33.9	24.6	0.00e+00	0	33	101	1048576	44	6153
2026-01-06 05:03:21.92	310.63	53.77	-33.3	-33.8	26.9	0.00e+00	0	33	101	1048576	44	6055
2026-01-06 05:03:22.94	311.03	53.45	-33.3	-33.8	26.8	0.00e+00	0	33	101	1048576	44	6066
2026-01-06 05:03:23.95	311.42	53.15	-33.2	-33.7	26.9	0.00e+00	0	33	101	1048576	44	5979
2026-01-06 05:03:24.96	311.80	52.84	-33.2	-33.7	26.8	0.00e+00	0	33	101	1048576	44	6021
2026-01-06 05:03:25.97	312.17	52.54	-33.2	-33.7	26.9	0.00e+00	0	33	101	1048576	44	6016
2026-01-06 05:03:26.98	312.53	52.23	-33.3	-33.8	26.6	0.00e+00	0	33	101	1048576	44	6061
2026-01-06 05:03:27.99	312.89	51.93	-33.2	-33.7	26.9	0.00e+00	0	33	101	1048576	44	5981
2026-01-06 05:03:29.00	313.24	51.62	-33.2	-33.8	26.9	0.00e+00	0	33	101	1048576	44	6034
2026-01-06 05:03:30.01	313.58	51.32	-33.1	-33.6	26.9	0.00e+00	0	33	101	1048576	44	5917
2026-01-06 05:03:31.02	313.92	51.02	-33.2	-33.7	26.9	0.00e+00	0	33	101	1048576	44	6009
2026-01-06 05:03:32.03	314.25	50.72	-33.2	-33.7	26.9	0.00e+00	0	33	101	1048576	44	5979
2026-01-06 05:03:33.04	314.57	50.42	-33.0	-33.5	27.1	0.00e+00	0	33	101	1048576	44	5846
2026-01-06 05:03:34.05	314.89	50.12	-33.0	-33.5	26.9	0.00e+00	0	33	101	1048576	44	5847
2026-01-06 05:03:35.06	315.20	49.82	-33.1	-33.5	26.9	0.00e+00	0	33	101	1048576	44	5896
2026-01-06 05:03:36.07	315.51	49.53	-33.2	-33.7	26.8	0.00e+00	0	33	101	1048576	44	6017
2026-01-06 05:03:37.08	315.81	49.23	-33.4	-33.9	26.8	0.00e+00	0	33	101	1048576	44	6105
2026-01-06 05:03:38.10	316.10	48.93	-33.4	-33.9	26.9	0.00e+00	0	33	101	1048576	44	6124
2026-01-06 05:03:39.11	316.39	48.64	-33.5	-34.0	26.8	0.00e+00	0	33	101	1048576	44	6201
2026-01-06 05:03:40.12	316.68	48.35	-33.2	-33.8	26.3	0.00e+00	0	33	101	1048576	44	6035
2026-01-06 05:03:41.13	316.95	48.06	-33.1	-33.6	27.0	0.00e+00	0	33	101	1048576	44	5922
2026-01-06 05:03:42.14	317.23	47.77	-33.0	-33.5	27.0	0.00e+00	0	33	101	1048576	44	5832
2026-01-06 05:03:43.15	317.49	47.48	-32.8	-33.2	27.2	0.00e+00	0	33	101	1048576	44	5694
2026-01-06 05:03:44.16	317.76	47.20	-32.8	-33.3	27.3	0.00e+00	0	33	101	1048576	44	5704
2026-01-06 05:03:45.17	318.01	46.91	-32.8	-33.3	27.2	0.00e+00	0	33	101	1048576	44	5720
2026-01-06 05:03:46.18	318.27	46.63	-33.1	-33.6	27.0	0.00e+00	0	33	101	1048576	44	5930
2026-01-06 05:03:47.19	318.52	46.34	-33.1	-33.6	26.9	0.00e+00	0	33	101	1048576	44	5942
2026-01-06 05:03:48.20	318.76	46.06	-33.0	-33.5	27.1	0.00e+00	0	33	101	1048576	44	5871
2026-01-06 05:03:49.22	319.00	45.78	-32.5	-33.0	27.4	0.00e+00	0	33	101	1048576	44	5529
2026-01-06 05:03:50.23	319.24	45.50	-32.5	-33.0	27.3	0.00e+00	0	33	101	1048576	44	5548
2026-01-06 05:03:51.24	319.47	45.22	-32.4	-32.9	27.5	0.00e+00	0	33	101	1048576	44	5469
2026-01-06 05:03:52.24	319.70	44.95	-32.1	-32.6	27.6	0.00e+00	0	33	101	1048576	44	5297
2026-01-06 05:03:53.26	319.93	44.68	-32.0	-32.5	27.9	0.00e+00	0	33	101	1048576	42	5841
2026-01-06 05:03:54.27	320.15	44.40	-32.0	-32.5	27.9	0.00e+00	0	33	101	1048576	42	5846
2026-01-06 05:03:55.28	320.36	44.13	-31.9	-32.3	28.0	0.00e+00	0	33	101	1048576	42	5748
2026-01-06 05:03:56.29	320.58	43.86	-31.8	-32.3	28.0	0.00e+00	0	33	101	1048576	42	5704
2026-01-06 05:03:57.30	320.79	43.59	-32.0	-32.5	27.7	0.00e+00	0	33	101	1048576	42	5857
2026-01-06 05:03:58.31	320.99	43.33	-31.9	-32.3	27.8	0.00e+00	0	33	101	1048576	42	5750
2026-01-06 05:03:59.32	321.20	43.06	-31.9	-32.4	27.9	0.00e+00	0	33	101	1048576	42	5776
2026-01-06 05:04:00.33	321.40	42.80	-32.1	-32.5	27.5	0.00e+00	0	33	101	1048576	42	5887
2026-01-06 05:04:01.34	321.59	42.54	-32.1	-32.6	27.8	0.00e+00	0	33	101	1048576	42	5928
2026-01-06 05:04:02.35	321.79	42.27	-32.2	-32.7	27.8	0.00e+00	0	33	101	1048576	42	5986
2026-01-06 05:04:03.36	321.98	42.01	-32.0	-32.5	27.8	0.00e+00	0	33	101	1048576	42	5895
2026-01-06 05:04:04.37	322.17	41.76	-32.1	-32.6	27.7	0.00e+00	0	33	101	1048576	42	5928
2026-01-06 05:04:05.39	322.35	41.50	-31.8	-32.3	28.0	0.00e+00	0	33	101	1048576	42	5718
2026-01-06 05:04:06.40	322.53	41.24	-31.7	-32.1	27.7	0.00e+00	0	33	101	1048576	42	5605
2026-01-06 05:04:07.41	322.71	40.99	-31.6	-32.0	28.2	0.00e+00	0	33	101	1048576	42	5564
2026-01-06 05:04:08.42	322.89	40.74	-31.6	-32.0	27.7	0.00e+00	0	33	101	1048576	42	5541
2026-01-06 05:04:09.43	323.06	40.49	-31.5	-32.0	28.2	0.00e+00	0	33	101	1048576	42	5516
2026-01-06 05:04:10.44	323.24	40.24	-31.5	-32.0	28.3	0.00e+00	0	33	101	1048576	42	5503
2026-01-06 05:04:11.45	323.40	39.99	-31.5	-32.0	28.2	0.00e+00	0	33	101	1048576	42	5528
2026-01-06 05:04:12.46	323.57	39.74	-31.6	-32.1	27.9	0.00e+00	0	33	101	1048576	42	5590
2026-01-06 05:04:13.47	323.73	39.50	-31.5	-32.0	27.7	0.00e+00	0	33	101	1048576	42	5506
2026-01-06 05:04:14.48	323.90	39.26	-31.5	-32.0	27.8	0.00e+00	0	33	101	1048576	42	5533
2026-01-06 05:04:15.49	324.05	39.02	-31.5	-32.0	28.2	0.00e+00	0	33	101	1048576	42	5511
2026-01-06 05:04:16.50	324.21	38.77	-31.4	-31.9	27.9	0.00e+00	0	33	101	1048576	42	5461
2026-01-06 05:04:17.51	324.37	38.54	-31.3	-31.8	27.9	0.00e+00	0	33	101	1048576	42	5413
2026-01-06 05:04:18.52	324.52	38.30	-31.5	-32.0	27.9	0.00e+00	0	33	101	1048576	42	5513
2026-01-06 05:04:19.54	324.67	38.06	-31.4	-31.9	28.0	0.00e+00	0	33	101	1048576	42	5440
2026-01-06 05:04:20.55	324.82	37.83	-31.4	-31.8	27.6	0.00e+00	0	33	101	1048576	42	5435
2026-01-06 05:04:21.56	324.96	37.59	-31.4	-31.9	27.6	0.00e+00	0	33	101	1048576	42	5461
2026-01-06 05:04:22.56	325.11	37.36	-31.7	-32.2	26.7	0.00e+00	0	33	101	1048576	42	5663
2026-01-06 05:04:23.57	325.25	37.13	-31.6	-32.1	27.7	0.00e+00	0	33	101	1048576	42	5579
2026-01-06 05:04:24.58	325.39	36.91	-31.8	-32.3	27.7	0.00e+00	0	33	101	1048576	42	5701
2026-01-06 05:04:25.60	325.53	36.68	-31.8	-32.2	27.9	0.00e+00	0	33	101	1048576	42	5684
2026-01-06 05:04:26.61	325.67	36.45	-31.9	-32.3	27.9	0.00e+00	0	33	101	1048576	42	5739
2026-01-06 05:04:27.62	325.80	36.23	-31.8	-32.3	27.8	0.00e+00	0	33	101	1048576	42	5717
2026-01-06 05:04:28.63	325.93	36.00	-31.9	-32.3	27.9	0.00e+00	0	33	101	1048576	42	5750
2026-01-06 05:04:29.64	326.06	35.78	-31.7	-32.2	27.9	0.00e+00	0	33	101	1048576	42	5667
2026-01-06 05:04:30.65	326.19	35.56	-31.7	-32.2	28.0	0.00e+00	0	33	101	1048576	42	5659
2026-01-06 05:04:31.66	326.32	35.34	-31.4	-31.9	28.0	0.00e+00	0	33	101	1048576	42	5464
2026-01-06 05:04:32.67	326.45	35.12	-31.5	-31.9	28.0	0.00e+00	0	33	101	1048576	42	5497
2026-01-06 05:04:33.68	326.57	34.91	-31.3	-31.8	28.4	0.00e+00	0	33	101	1048576	42	5386
2026-01-06 05:04:34.69	326.70	34.69	-31.1	-31.6	28.4	0.00e+00	0	33	101	1048576	42	5283
2026-01-06 05:04:35.71	326.82	34.48	-31.1	-31.6	28.2	0.00e+00	0	33	101	1048576	42	5295
2026-01-06 05:04:36.72	326.94	34.27	-31.3	-31.7	28.4	0.00e+00	0	33	101	1048576	42	5364
2026-01-06 05:04:37.73	327.06	34.05	-31.1	-31.6	28.4	0.00e+00	0	33	101	1048576	40	5903
2026-01-06 05:04:38.74	327.17	33.85	-31.2	-31.6	28.3	0.00e+00	0	33	101	1048576	40	5952
2026-01-06 05:04:39.75	327.29	33.64	-31.2	-31.7	28.4	0.00e+00	0	33	101	1048576	40	5965
2026-01-06 05:04:40.76	327.40	33.43	-31.1	-31.5	28.5	0.00e+00	0	33	101	1048576	40	5878
2026-01-06 05:04:41.77	327.52	33.22	-31.2	-31.7	28.4	0.00e+00	0	33	101	1048576	40	5975
2026-01-06 05:04:42.78	327.63	33.02	-31.3	-31.7	28.3	0.00e+00	0	33	101	1048576	40	6009
2026-01-06 05:04:43.79	327.74	32.82	-31.4	-31.8	28.3	0.00e+00	0	33	101	1048576	40	6087
2026-01-06 05:04:44.80	327.85	32.61	-31.3	-31.8	28.3	0.00e+00	0	33	101	1048576	40	6034
2026-01-06 05:04:45.81	327.95	32.41	-31.4	-31.8	28.3	0.00e+00	0	33	101	1048576	40	6083
2026-01-06 05:04:46.82	328.06	32.21	-31.5	-31.9	28.3	0.00e+00	0	33	101	1048576	40	6156
2026-01-06 05:04:47.84	328.17	32.01	-31.3	-31.8	28.3	0.00e+00	0	33	101	1048576	40	6056
2026-01-06 05:04:48.85	328.27	31.82	-31.3	-31.8	28.4	0.00e+00	0	33	101	1048576	40	6041
2026-01-06 05:04:49.86	328.37	31.62	-31.3	-31.8	28.4	0.00e+00	0	33	101	1048576	40	6041
2026-01-06 05:04:50.87	328.47	31.43	-31.3	-31.8	28.3	0.00e+00	0	33	101	1048576	40	6079
2026-01-06 05:04:51.88	328.57	31.23	-31.3	-31.7	28.4	0.00e+00	0	33	101	1048576	40	6028
2026-01-06 05:04:52.89	328.67	31.04	-31.4	-31.9	28.3	0.00e+00	0	33	101	1048576	40	6119
2026-01-06 05:04:53.90	328.77	30.85	-31.3	-31.7	28.4	0.00e+00	0	33	101	1048576	40	6031
2026-01-06 05:04:54.91	328.87	30.66	-31.3	-31.8	28.4	0.00e+00	0	33	101	1048576	40	6053
2026-01-06 05:04:55.92	328.96	30.47	-31.4	-31.9	28.2	0.00e+00	0	33	101	1048576	40	6143
2026-01-06 05:04:56.94	329.06	30.28	-31.4	-31.9	28.3	0.00e+00	0	33	101	1048576	40	6105
2026-01-06 05:04:57.95	329.15	30.10	-31.4	-31.8	28.3	0.00e+00	0	33	101	1048576	40	6089
2026-01-06 05:04:58.96	329.24	29.91	-31.5	-31.9	28.2	0.00e+00	0	33	101	1048576	40	6160
2026-01-06 05:04:59.97	329.34	29.73	-31.4	-31.9	28.2	0.00e+00	0	33	101	1048576	40	6146
2026-01-06 05:05:00.98	329.43	29.54	-31.5	-32.0	28.1	0.00e+00	0	33	101	1048576	40	6188
2026-01-06 05:05:01.99	329.52	29.36	-31.5	-32.0	28.2	0.00e+00	0	33	101	1048576	40	6195
2026-01-06 05:05:03.00	329.60	29.18	-31.6	-32.1	28.0	0.00e+00	0	33	101	1048576	40	6247
2026-01-06 05:05:04.01	329.69	29.00	-31.6	-32.1	28.0	0.00e+00	0	33	101	1048576	40	6281
2026-01-06 05:05:05.02	329.78	28.82	-31.6	-32.1	28.1	0.00e+00	0	33	101	1048576	40	6270
2026-01-06 05:05:06.04	329.87	28.64	-31.7	-32.1	28.1	0.00e+00	0	33	101	1048576	40	6314
2026-01-06 05:05:07.05	329.95	28.47	-31.8	-32.3	28.0	0.00e+00	0	33	101	1048576	40	6392
2026-01-06 05:05:08.06	330.04	28.29	-31.9	-32.4	27.8	0.00e+00	0	33	101	1048576	40	6465
2026-01-06 05:05:09.07	330.12	28.12	-31.8	-32.3	27.4	0.00e+00	0	33	101	1048576	40	6418
2026-01-06 05:05:10.08	330.20	27.95	-31.9	-32.4	27.8	0.00e+00	0	33	101	1048576	40	6476
2026-01-06 05:05:11.09	330.28	27.77	-31.9	-32.4	27.9	0.00e+00	0	33	101	1048576	40	6504
2026-01-06 05:05:12.10	330.36	27.60	-31.9	-32.4	27.8	0.00e+00	0	33	101	1048576	40	6479
2026-01-06 05:05:13.11	330.44	27.43	-31.9	-32.4	27.8	0.00e+00	0	33	101	1048576	40	6513
2026-01-06 05:05:14.12	330.52	27.26	-31.9	-32.4	27.7	0.00e+00	0	33	101	1048576	40	6476
2026-01-06 05:05:15.13	330.60	27.09	-32.0	-32.5	27.9	0.00e+00	0	33	101	1048576	42	5865
2026-01-06 05:05:16.14	330.68	26.93	-31.9	-32.4	27.9	0.00e+00	0	33	101	1048576	42	5807
2026-01-06 05:05:17.15	330.76	26.76	-31.9	-32.4	27.8	0.00e+00	0	33	101	1048576	42	5765
2026-01-06 05:05:18.17	330.83	26.59	-31.9	-32.3	28.0	0.00e+00	0	33	101	1048576	42	5747
2026-01-06 05:05:19.18	330.91	26.43	-32.0	-32.4	27.9	0.00e+00	0	33	101	1048576	42	5812
2026-01-06 05:05:20.19	330.98	26.27	-31.8	-32.3	28.0	0.00e+00	0	33	101	1048576	42	5724
2026-01-06 05:05:21.20	331.06	26.10	-31.9	-32.4	27.8	0.00e+00	0	33	101	1048576	42	5790
2026-01-06 05:05:22.21	331.13	25.94	-31.8	-32.3	28.0	0.00e+00	0	33	101	1048576	42	5734
2026-01-06 05:05:23.22	331.20	25.78	-31.9	-32.3	27.9	0.00e+00	0	33	101	1048576	42	5748
2026-01-06 05:05:24.23	331.27	25.62	-31.8	-32.3	27.8	0.00e+00	0	33	101	1048576	42	5730
2026-01-06 05:05:25.24	331.34	25.46	-31.9	-32.4	27.9	0.00e+00	0	33	101	1048576	42	5798
2026-01-06 05:05:26.26	331.42	25.30	-32.0	-32.4	27.8	0.00e+00	0	33	101	1048576	42	5811
2026-01-06 05:05:27.27	331.49	25.15	-32.0	-32.5	27.7	0.00e+00	0	33	101	1048576	42	5859
2026-01-06 05:05:28.28	331.55	24.99	-32.1	-32.5	27.7	0.00e+00	0	33	101	1048576	42	5891
2026-01-06 05:05:29.29	331.62	24.84	-32.1	-32.6	27.7	0.00e+00	0	33	101	1048576	42	5900
2026-01-06 05:05:30.30	331.69	24.68	-32.2	-32.7	27.5	0.00e+00	0	33	101	1048576	42	5978
2026-01-06 05:05:31.31	331.76	24.53	-32.1	-32.6	27.7	0.00e+00	0	33	101	1048576	42	5944
2026-01-06 05:05:32.32	331.82	24.38	-32.3	-32.8	27.5	0.00e+00	0	33	101	1048576	42	6065
2026-01-06 05:05:33.33	331.89	24.22	-32.4	-32.9	27.4	0.00e+00	0	33	101	1048576	42	6156
2026-01-06 05:05:34.34	331.96	24.07	-32.3	-32.7	27.0	0.00e+00	0	33	101	1048576	42	6013
2026-01-06 05:05:35.35	332.02	23.92	-32.3	-32.8	27.3	0.00e+00	0	33	101	1048576	42	6044
2026-01-06 05:05:36.36	332.09	23.77	-32.4	-32.9	26.9	0.00e+00	0	33	101	1048576	42	6167
2026-01-06 05:05:37.37	332.15	23.63	-32.3	-32.8	27.6	0.00e+00	0	33	101	1048576	42	6034
2026-01-06 05:05:38.39	332.21	23.48	-32.3	-32.8	27.4	0.00e+00	0	33	101	1048576	42	6081
2026-01-06 05:05:39.40	332.28	23.33	-32.5	-33.0	27.2	0.00e+00	0	33	101	1048576	42	6196
2026-01-06 05:05:40.41	332.34	23.18	-32.4	-32.9	27.4	0.00e+00	0	33	101	1048576	42	6140
2026-01-06 05:05:41.42	332.40	23.04	-32.4	-32.9	27.5	0.00e+00	0	33	101	1048576	42	6127
2026-01-06 05:05:42.43	332.46	22.89	-32.4	-32.9	27.4	0.00e+00	0	33	101	1048576	42	6166
2026-01-06 05:05:43.44	332.52	22.75	-32.2	-32.7	27.6	0.00e+00	0	33	101	1048576	42	6012
2026-01-06 05:05:44.45	332.58	22.61	-32.3	-32.8	27.6	0.00e+00	0	33	101	1048576	42	6043
2026-01-06 05:05:45.46	332.64	22.47	-32.2	-32.6	27.6	0.00e+00	0	33	101	1048576	42	5959
2026-01-06 05:05:46.47	332.70	22.32	-32.3	-32.7	27.4	0.00e+00	0	33	101	1048576	42	6031
2026-01-06 05:05:47.48	332.76	22.18	-32.2	-32.7	27.6	0.00e+00	0	33	101	1048576	42	5996
2026-01-06 05:05:48.50	332.82	22.04	-32.3	-32.8	27.5	0.00e+00	0	33	101	1048576	42	6052
2026-01-06 05:05:49.51	332.87	21.90	-32.3	-32.8	27.5	0.00e+00	0	33	101	1048576	42	6060
2026-01-06 05:05:50.52	332.93	21.77	-32.1	-32.6	27.7	0.00e+00	0	33	101	1048576	42	5908
2026-01-06 05:05:51.53	332.99	21.63	-32.1	-32.6	27.6	0.00e+00	0	33	101	1048576	42	5922
2026-01-06 05:05:52.54	333.04	21.49	-32.1	-32.6	27.7	0.00e+00	0	33	101	1048576	42	5904
2026-01-06 05:05:53.55	333.10	21.35	-32.1	-32.6	27.7	0.00e+00	0	33	101	1048576	42	5911
2026-01-06 05:05:54.56	333.16	21.22	-32.1	-32.5	27.8	0.00e+00	0	33	101	1048576	42	5876
2026-01-06 05:05:55.57	333.21	21.08	-32.1	-32.5	27.7	0.00e+00	0	33	101	1048576	42	5880
2026-01-06 05:05:56.58	333.26	20.95	-32.1	-32.6	27.5	0.00e+00	0	33	101	1048576	42	5934
2026-01-06 05:05:57.59	333.32	20.82	-32.2	-32.7	27.5	0.00e+00	0	33	101	1048576	42	5983
2026-01-06 05:05:58.61	333.37	20.68	-32.1	-32.6	27.6	0.00e+00	0	33	101	1048576	42	5915
2026-01-06 05:05:59.62	333.43	20.55	-32.2	-32.7	27.6	0.00e+00	0	33	101	1048576	42	5997
2026-01-06 05:06:00.63	333.48	20.42	-32.2	-32.7	27.6	0.00e+00	0	33	101	1048576	42	6004
2026-01-06 05:06:01.64	333.53	20.29	-32.3	-32.8	27.4	0.00e+00	0	33	101	1048576	42	6056
2026-01-06 05:06:02.65	333.58	20.16	-32.3	-32.8	27.5	0.00e+00	0	33	101	1048576	42	6068
2026-01-06 05:06:03.66	333.63	20.03	-32.4	-32.9	27.4	0.00e+00	0	33	101	1048576	42	6108
2026-01-06 05:06:04.67	333.68	19.90	-32.4	-32.9	27.4	0.00e+00	0	33	101	1048576	42	6147
2026-01-06 05:06:05.68	333.74	19.77	-32.6	-33.1	27.3	0.00e+00	0	33	101	1048576	42	6256
2026-01-06 05:06:06.69	333.79	19.65	-32.6	-33.0	27.1	0.00e+00	0	33	101	1048576	42	6242
2026-01-06 05:06:07.70	333.84	19.52	-32.6	-33.1	27.1	0.00e+00	0	33	101	1048576	42	6258
2026-01-06 05:06:08.72	333.89	19.39	-32.7	-33.2	27.2	0.00e+00	0	33	101	1048576	42	6372
2026-01-06 05:06:09.73	333.93	19.27	-32.7	-33.2	27.1	0.00e+00	0	33	101	1048576	42	6375
