passes_logs/2026/01/06/R4.6S_Anadyr_2ch/R4.6S_Anadyr_2ch__20260106_161624_AQUA_rec.log

#Pass ID: 20260106_161624_AQUA
#Satellite: AQUA
#Configuration: AQUA
#almurnet v.1.7.20251203
#Start time: 2026-01-06 16:16:27

#Version: 2.2.20231116
#Station: R4.6S_Anadyr_2ch
#Location: 177.4865 lon 64.73178 lat
#TLE: 1 27424U 02022A   25351.00450321  .00000925  00000+0  19503-3 0  9992
#TLE: 2 27424  98.4041 311.9529 0001248 113.7180 322.1616 14.61819266256652

#Time	Az	El	Level	Level2	SNR	BER	BlckErr	Temp	State	Recorded	gain1	gain2
2026-01-06 16:16:27.55	19.75	0.17	-51.0	-66.0	3.5	1.51e+00	0	30	0	0	60	96775
2026-01-06 16:16:28.55	19.76	0.23	-51.2	-69.0	3.5	3.02e+01	0	31	104	0	60	145906
2026-01-06 16:16:29.56	19.77	0.30	-51.2	-69.0	3.5	3.02e+01	0	31	104	0	60	146209
2026-01-06 16:16:30.57	19.77	0.36	-51.2	-68.9	3.5	3.02e+01	0	31	104	0	60	145395
2026-01-06 16:16:31.58	19.78	0.42	-51.2	-68.9	3.5	3.02e+01	0	31	104	0	60	145273
2026-01-06 16:16:32.60	19.79	0.48	-51.2	-69.0	3.5	3.02e+01	0	31	104	0	60	145562
2026-01-06 16:16:33.61	19.80	0.55	-51.2	-69.0	3.5	3.02e+01	0	31	104	0	60	145925
2026-01-06 16:16:34.62	19.81	0.61	-51.2	-69.0	3.5	3.02e+01	0	31	104	0	60	146590
2026-01-06 16:16:35.63	19.81	0.67	-51.2	-69.0	3.5	3.02e+01	0	31	104	0	60	146575
2026-01-06 16:16:36.64	19.82	0.74	-51.2	-69.0	3.5	3.02e+01	0	31	104	0	60	147037
2026-01-06 16:16:37.65	19.83	0.80	-51.2	-69.0	3.5	3.02e+01	0	31	104	0	60	146194
2026-01-06 16:16:38.66	19.84	0.86	-51.2	-69.0	3.5	3.02e+01	0	31	104	0	60	145925
2026-01-06 16:16:39.66	19.85	0.93	-51.2	-69.0	3.5	3.02e+01	0	31	104	0	60	145843
2026-01-06 16:16:40.68	19.85	0.99	-51.2	-69.0	3.5	3.02e+01	0	31	104	0	60	146306
2026-01-06 16:16:41.69	19.86	1.06	-51.2	-69.0	3.5	3.02e+01	0	31	104	0	60	146453
2026-01-06 16:16:42.70	19.87	1.12	-51.2	-69.1	3.5	3.02e+01	0	31	104	0	60	147186
2026-01-06 16:16:43.71	19.88	1.19	-51.2	-69.0	3.5	3.02e+01	0	31	104	0	60	145618
2026-01-06 16:16:44.72	19.89	1.25	-51.2	-69.0	3.5	3.02e+01	0	31	104	0	60	146316
2026-01-06 16:16:45.73	19.89	1.32	-51.2	-69.0	3.5	3.02e+01	0	31	104	0	60	146010
2026-01-06 16:16:46.74	19.90	1.38	-51.3	-69.0	3.5	3.02e+01	0	31	104	0	60	146897
2026-01-06 16:16:47.75	19.91	1.45	-51.2	-69.0	3.5	3.02e+01	0	31	104	0	60	146223
2026-01-06 16:16:48.76	19.92	1.51	-51.2	-69.0	3.5	3.02e+01	0	31	104	0	60	146479
2026-01-06 16:16:49.77	19.93	1.58	-51.2	-69.0	3.5	3.02e+01	0	31	104	0	60	146555
2026-01-06 16:16:50.78	19.94	1.64	-51.3	-69.1	3.5	3.02e+01	0	31	104	0	60	147357
2026-01-06 16:16:51.79	19.94	1.71	-51.2	-69.0	3.5	3.02e+01	0	31	104	0	60	146656
2026-01-06 16:16:52.80	19.95	1.77	-51.2	-69.0	3.5	3.02e+01	0	31	104	0	60	145544
2026-01-06 16:16:53.81	19.96	1.84	-51.2	-69.0	3.5	3.02e+01	0	31	104	0	60	146178
2026-01-06 16:16:54.82	19.97	1.91	-51.2	-69.0	3.5	3.02e+01	0	31	104	0	60	145614
2026-01-06 16:16:55.83	19.98	1.97	-51.2	-69.0	3.5	3.02e+01	0	31	104	0	60	146223
2026-01-06 16:16:56.84	19.99	2.04	-51.2	-69.0	3.5	3.02e+01	0	31	104	0	60	146130
2026-01-06 16:16:57.85	19.99	2.11	-51.2	-69.0	3.5	3.02e+01	0	31	104	0	60	146606
2026-01-06 16:16:58.86	20.00	2.17	-51.2	-69.0	3.5	3.02e+01	0	31	104	0	60	146345
2026-01-06 16:16:59.87	20.01	2.24	-51.2	-69.0	3.5	3.02e+01	0	31	104	0	60	145657
2026-01-06 16:17:00.88	20.02	2.31	-51.2	-69.0	3.5	3.02e+01	0	31	104	0	60	146336
2026-01-06 16:17:01.89	20.03	2.38	-51.2	-69.0	3.5	3.02e+01	0	31	104	0	60	146444
2026-01-06 16:17:02.90	20.04	2.44	-51.2	-69.0	3.5	3.02e+01	0	31	104	0	60	146606
2026-01-06 16:17:03.91	20.04	2.51	-51.2	-69.0	3.5	3.02e+01	0	31	104	0	60	146200
2026-01-06 16:17:04.92	20.05	2.58	-51.3	-69.0	3.5	3.02e+01	0	31	104	0	60	146502
2026-01-06 16:17:05.93	20.06	2.65	-51.2	-69.0	3.5	3.02e+01	0	31	104	0	60	146396
2026-01-06 16:17:06.94	20.07	2.72	-51.2	-69.0	3.5	3.02e+01	0	31	104	0	60	147081
2026-01-06 16:17:07.95	20.08	2.78	-51.2	-69.0	3.5	3.02e+01	0	31	104	0	60	145631
2026-01-06 16:17:08.96	20.09	2.85	-51.2	-69.0	3.6	3.02e+01	0	31	104	0	60	145786
2026-01-06 16:17:09.98	20.10	2.92	-51.2	-69.0	3.5	3.02e+01	0	31	104	0	60	146303
2026-01-06 16:17:10.99	20.10	2.99	-51.2	-69.0	3.5	3.02e+01	0	32	104	0	60	146011
2026-01-06 16:17:12.00	20.11	3.06	-51.2	-69.0	3.5	3.02e+01	0	31	104	0	60	146495
2026-01-06 16:17:13.01	20.12	3.13	-51.2	-69.0	3.5	3.02e+01	0	32	104	0	60	146666
2026-01-06 16:17:14.02	20.13	3.20	-51.2	-69.0	3.5	3.02e+01	0	31	104	0	60	146855
2026-01-06 16:17:15.03	20.14	3.27	-51.2	-69.0	3.5	3.02e+01	0	32	104	0	60	145839
2026-01-06 16:17:16.04	20.15	3.34	-51.2	-69.0	3.5	3.02e+01	0	31	104	0	60	145894
2026-01-06 16:17:17.05	20.16	3.41	-51.2	-69.0	3.5	3.02e+01	0	32	104	0	60	145687
2026-01-06 16:17:18.06	20.17	3.48	-51.2	-69.1	3.5	3.02e+01	0	32	104	0	60	147190
2026-01-06 16:17:19.07	20.17	3.55	-51.2	-69.0	3.5	3.02e+01	0	32	104	0	60	145921
2026-01-06 16:17:20.08	20.18	3.62	-51.2	-69.0	3.5	3.02e+01	0	32	104	0	60	145894
2026-01-06 16:17:21.09	20.19	3.69	-51.2	-69.0	3.5	3.02e+01	0	32	104	0	60	146312
2026-01-06 16:17:22.10	20.20	3.77	-51.2	-69.0	3.5	3.02e+01	0	31	104	0	60	146699
2026-01-06 16:17:23.11	20.21	3.84	-51.3	-69.1	3.5	3.02e+01	0	32	104	0	60	147390
2026-01-06 16:17:24.12	20.22	3.91	-51.3	-69.1	3.5	3.02e+01	0	31	104	0	60	147577
2026-01-06 16:17:25.13	20.23	3.98	-51.3	-69.1	3.5	3.02e+01	0	32	104	0	60	148148
2026-01-06 16:17:26.14	20.24	4.05	-51.3	-69.1	3.5	3.02e+01	0	32	104	0	60	148476
2026-01-06 16:17:27.15	20.25	4.13	-51.2	-69.2	3.5	3.02e+01	0	31	104	0	60	148905
2026-01-06 16:17:28.16	20.25	4.20	-51.3	-69.2	3.5	3.02e+01	0	32	104	0	60	150015
2026-01-06 16:17:29.17	20.26	4.27	-51.3	-69.2	3.5	3.02e+01	0	32	104	0	60	149792
2026-01-06 16:17:30.18	20.27	4.34	-51.3	-69.1	3.5	3.02e+01	0	32	104	0	60	148709
2026-01-06 16:17:31.20	20.28	4.42	-51.3	-69.1	3.5	3.02e+01	0	32	104	0	60	147787
2026-01-06 16:17:32.20	20.29	4.49	-51.2	-69.1	3.5	3.02e+01	0	32	104	0	60	147531
2026-01-06 16:17:33.22	20.30	4.57	-51.2	-68.9	3.5	3.02e+01	0	32	104	0	60	144075
2026-01-06 16:17:34.23	20.31	4.64	-51.0	-68.9	3.5	3.02e+01	0	32	104	0	60	144265
2026-01-06 16:17:35.24	20.32	4.71	-50.6	-68.6	3.5	3.02e+01	0	32	104	0	60	139213
2026-01-06 16:17:36.25	20.33	4.79	-50.6	-68.5	3.5	3.02e+01	0	32	104	0	60	137664
2026-01-06 16:17:37.26	20.34	4.86	-50.3	-68.2	3.5	3.02e+01	0	32	104	0	60	133834
2026-01-06 16:17:38.27	20.35	4.94	-50.1	-67.8	3.5	3.02e+01	0	32	104	0	60	127174
2026-01-06 16:17:39.28	20.36	5.01	-50.0	-67.4	3.5	3.02e+01	0	32	104	0	60	121524
2026-01-06 16:17:40.29	20.36	5.09	-50.0	-67.5	3.5	3.02e+01	0	32	104	0	60	122618
2026-01-06 16:17:41.30	20.37	5.16	-50.0	-67.6	3.5	3.02e+01	0	32	104	0	60	125182
2026-01-06 16:17:42.31	20.38	5.24	-50.0	-67.7	3.5	3.02e+01	0	32	104	0	60	126639
2026-01-06 16:17:43.32	20.39	5.32	-50.0	-67.7	3.5	3.02e+01	0	32	104	0	60	126397
2026-01-06 16:17:44.33	20.40	5.39	-50.0	-67.6	3.5	3.02e+01	0	32	104	0	60	123931
2026-01-06 16:17:45.34	20.41	5.47	-50.0	-67.3	3.5	3.02e+01	0	32	104	0	60	120706
2026-01-06 16:17:46.35	20.42	5.55	-50.0	-67.1	3.5	3.02e+01	0	32	104	0	60	117600
2026-01-06 16:17:47.36	20.43	5.62	-50.0	-66.9	3.5	3.02e+01	0	32	104	0	60	114699
2026-01-06 16:17:48.37	20.44	5.70	-50.0	-66.9	3.5	3.02e+01	0	32	104	0	60	114804
2026-01-06 16:17:49.38	20.45	5.78	-50.0	-67.1	3.5	3.02e+01	0	32	104	0	60	118109
2026-01-06 16:17:50.39	20.46	5.86	-50.0	-67.3	3.5	3.02e+01	0	32	104	0	60	119888
2026-01-06 16:17:51.40	20.47	5.93	-50.0	-67.5	3.5	3.02e+01	0	32	104	0	60	122690
2026-01-06 16:17:52.41	20.48	6.01	-50.0	-67.6	3.5	3.02e+01	0	32	104	0	60	124524
2026-01-06 16:17:53.42	20.49	6.09	-50.0	-67.6	3.5	3.02e+01	0	32	104	0	60	124356
2026-01-06 16:17:54.43	20.50	6.17	-50.0	-67.7	3.5	3.02e+01	0	32	104	0	60	125431
2026-01-06 16:17:55.44	20.51	6.25	-50.0	-67.6	3.5	3.02e+01	0	32	104	0	60	124478
2026-01-06 16:17:56.45	20.52	6.33	-50.0	-67.6	3.5	3.02e+01	0	32	104	0	60	124611
2026-01-06 16:17:57.46	20.53	6.41	-50.0	-67.2	3.5	3.02e+01	0	32	104	0	60	118293
2026-01-06 16:17:58.47	20.54	6.49	-50.0	-66.4	3.5	3.02e+01	0	32	104	0	60	108181
2026-01-06 16:17:59.48	20.55	6.57	-49.9	-64.8	4.0	3.02e+01	0	32	104	0	60	89994
2026-01-06 16:18:00.49	20.56	6.65	-49.8	-63.2	4.8	3.02e+01	0	32	104	0	60	75082
2026-01-06 16:18:01.50	20.57	6.73	-49.7	-61.6	5.6	3.02e+01	78	32	0	0	60	62719
2026-01-06 16:18:02.51	20.58	6.81	-49.7	-60.3	6.0	3.02e+01	92	32	102	524288	60	53537
2026-01-06 16:18:03.52	20.59	6.89	-49.7	-59.8	6.3	3.02e+01	92	32	102	524288	60	50938
2026-01-06 16:18:04.53	20.60	6.97	-49.6	-59.7	6.4	3.02e+01	91	32	102	524288	60	49951
2026-01-06 16:18:05.55	20.61	7.06	-49.7	-59.8	6.2	3.02e+01	90	32	102	524288	60	50655
2026-01-06 16:18:06.55	20.62	7.14	-49.5	-58.6	7.7	3.02e+01	88	32	102	524288	60	44379
2026-01-06 16:18:07.56	20.63	7.22	-49.1	-56.3	10.4	3.02e+01	57	32	102	524288	60	33764
2026-01-06 16:18:08.58	20.64	7.30	-48.4	-53.9	13.2	3.02e+01	61	32	102	524288	60	25751
2026-01-06 16:18:09.59	20.65	7.39	-47.7	-52.3	15.1	3.02e+01	59	32	102	524288	60	21309
2026-01-06 16:18:10.60	20.66	7.47	-46.8	-50.4	17.0	3.02e+01	61	32	102	524288	60	17261
2026-01-06 16:18:11.61	20.67	7.55	-45.7	-48.6	18.7	3.02e+01	51	32	102	524288	60	14041
2026-01-06 16:18:12.61	20.68	7.64	-45.1	-47.8	19.6	3.02e+01	59	32	102	524288	60	12671
2026-01-06 16:18:13.63	20.69	7.72	-44.9	-47.4	20.0	3.02e+01	58	32	102	524288	60	12236
2026-01-06 16:18:14.64	20.70	7.81	-44.7	-47.2	20.2	3.02e+01	46	32	102	524288	60	11829
2026-01-06 16:18:15.65	20.71	7.89	-44.9	-47.4	19.9	3.02e+01	59	32	102	524288	60	12234
2026-01-06 16:18:16.66	20.72	7.98	-45.3	-48.0	19.3	3.02e+01	59	32	102	524288	60	13106
2026-01-06 16:18:17.67	20.73	8.06	-46.1	-49.2	18.1	3.02e+01	60	32	102	524288	60	14956
2026-01-06 16:18:18.67	20.74	8.15	-47.1	-50.9	16.4	3.02e+01	59	32	102	524288	60	18289
2026-01-06 16:18:19.68	20.75	8.24	-48.0	-53.0	14.0	3.02e+01	43	32	102	524288	60	23144
2026-01-06 16:18:20.68	20.76	8.32	-45.5	-48.2	19.7	3.02e+01	56	32	102	524288	60	13369
2026-01-06 16:18:21.69	20.77	8.41	-44.3	-46.6	20.7	3.02e+01	59	32	102	524288	60	11091
2026-01-06 16:18:22.70	20.78	8.50	-49.9	-62.9	3.6	3.02e+01	7	32	104	524288	60	72671
2026-01-06 16:18:23.71	20.79	8.58	-41.4	-43.4	24.3	3.02e+01	57	32	104	524288	60	7663
2026-01-06 16:18:24.72	20.80	8.67	-49.7	-62.9	3.8	3.02e+01	0	32	104	524288	60	72411
2026-01-06 16:18:25.73	20.82	8.76	-42.5	-44.5	22.8	3.02e+01	59	32	104	524288	60	8735
2026-01-06 16:18:26.74	20.83	8.85	-40.7	-42.2	25.1	3.02e+01	57	32	0	524288	60	6723
2026-01-06 16:18:27.75	20.84	8.94	-39.8	-41.3	26.0	3.02e+01	52	32	0	524288	60	6032
2026-01-06 16:18:28.76	20.85	9.03	-39.9	-41.4	26.0	3.02e+01	61	32	0	524288	60	6076
2026-01-06 16:18:29.77	20.86	9.12	-39.4	-40.8	26.5	3.02e+01	58	32	0	524288	60	5688
2026-01-06 16:18:30.78	20.87	9.21	-39.5	-40.9	26.5	3.02e+01	62	32	0	524288	60	5744
2026-01-06 16:18:31.79	20.88	9.30	-39.2	-40.6	26.7	3.02e+01	59	32	0	524288	58	6225
2026-01-06 16:18:32.80	20.89	9.39	-39.3	-40.6	26.7	3.02e+01	47	32	0	524288	58	6277
2026-01-06 16:18:33.81	20.90	9.48	-39.6	-41.0	26.4	3.02e+01	60	32	0	524288	58	6540
2026-01-06 16:18:34.82	20.92	9.57	-39.4	-40.8	26.5	3.02e+01	62	32	101	524288	58	6385
2026-01-06 16:18:35.83	20.93	9.66	-39.5	-40.9	26.5	3.02e+01	46	32	101	524288	58	6437
2026-01-06 16:18:36.85	20.94	9.76	-39.1	-40.5	26.8	3.02e+01	58	32	101	524288	58	6155
2026-01-06 16:18:37.86	20.95	9.85	-39.2	-40.5	26.8	3.02e+01	58	32	101	524288	58	6200
2026-01-06 16:18:38.87	20.96	9.94	-39.2	-40.6	26.7	3.02e+01	59	32	101	524288	58	6230
2026-01-06 16:18:39.88	20.97	10.03	-39.1	-40.4	26.9	3.02e+01	56	32	101	524288	58	6125
2026-01-06 16:18:40.89	20.98	10.13	-39.0	-40.3	27.0	3.02e+01	56	32	101	524288	58	6036
2026-01-06 16:18:41.90	21.00	10.22	-38.9	-40.3	27.1	3.02e+01	56	32	101	524288	58	6006
2026-01-06 16:18:42.91	21.01	10.32	-38.8	-40.2	27.2	3.02e+01	57	32	101	524288	58	5936
2026-01-06 16:18:43.92	21.02	10.41	-38.8	-40.2	27.2	3.02e+01	44	32	101	524288	58	5946
2026-01-06 16:18:44.93	21.03	10.51	-39.0	-40.4	27.1	3.02e+01	62	32	101	524288	58	6082
2026-01-06 16:18:45.94	21.04	10.60	-38.8	-40.2	27.2	3.02e+01	59	32	101	524288	58	5957
2026-01-06 16:18:46.95	21.05	10.70	-38.8	-40.2	27.2	3.02e+01	61	32	101	524288	58	5929
2026-01-06 16:18:47.96	21.07	10.80	-38.9	-40.2	27.1	3.02e+01	58	32	101	524288	58	5994
2026-01-06 16:18:48.97	21.08	10.89	-38.8	-40.2	27.2	3.02e+01	58	32	101	524288	58	5934
2026-01-06 16:18:49.98	21.09	10.99	-38.9	-40.3	27.2	3.02e+01	61	32	101	524288	58	6011
2026-01-06 16:18:50.99	21.10	11.09	-38.8	-40.1	27.4	3.02e+01	58	32	101	524288	58	5889
2026-01-06 16:18:52.00	21.11	11.19	-38.8	-40.1	27.4	3.02e+01	49	32	101	524288	58	5889
2026-01-06 16:18:53.01	21.13	11.29	-38.9	-40.2	27.3	3.02e+01	59	32	101	524288	58	5974
2026-01-06 16:18:54.02	21.14	11.39	-38.8	-40.1	27.3	3.02e+01	57	32	101	524288	58	5893
2026-01-06 16:18:55.03	21.15	11.49	-38.8	-40.1	27.4	3.02e+01	60	32	101	524288	58	5895
2026-01-06 16:18:56.05	21.16	11.59	-38.6	-39.9	27.5	3.02e+01	61	32	101	524288	58	5780
2026-01-06 16:18:57.06	21.18	11.69	-38.7	-40.0	27.4	3.02e+01	48	32	101	524288	58	5814
2026-01-06 16:18:58.06	21.19	11.79	-38.6	-39.9	27.5	3.02e+01	57	32	101	524288	58	5789
2026-01-06 16:18:59.07	21.20	11.89	-38.7	-40.1	27.4	3.02e+01	60	32	101	524288	58	5863
2026-01-06 16:19:00.08	21.21	11.99	-38.6	-39.9	27.6	3.02e+01	44	32	101	524288	58	5768
2026-01-06 16:19:01.10	21.23	12.10	-38.6	-39.9	27.6	3.02e+01	50	32	101	524288	58	5731
2026-01-06 16:19:02.11	21.24	12.20	-38.6	-40.0	27.6	3.02e+01	56	32	101	524288	58	5795
2026-01-06 16:19:03.12	21.25	12.30	-38.6	-39.9	27.6	3.02e+01	58	32	101	524288	58	5744
2026-01-06 16:19:04.13	21.26	12.41	-38.7	-40.0	27.5	3.02e+01	59	32	101	524288	58	5810
2026-01-06 16:19:05.14	21.28	12.51	-38.5	-39.8	27.7	3.02e+01	53	32	101	524288	58	5713
2026-01-06 16:19:06.15	21.29	12.62	-38.5	-39.8	27.7	3.02e+01	56	32	101	524288	58	5702
2026-01-06 16:19:07.16	21.30	12.72	-38.6	-39.9	27.6	3.02e+01	58	32	101	524288	58	5791
2026-01-06 16:19:08.17	21.32	12.83	-38.7	-40.0	27.5	3.02e+01	59	32	101	524288	58	5855
2026-01-06 16:19:09.18	21.33	12.94	-38.4	-39.7	27.9	3.02e+01	60	32	101	524288	58	5597
2026-01-06 16:19:10.19	21.34	13.04	-38.5	-39.8	27.8	3.02e+01	47	32	101	524288	58	5671
2026-01-06 16:19:11.20	21.36	13.15	-38.5	-39.8	27.7	3.02e+01	60	32	101	524288	58	5679
2026-01-06 16:19:12.21	21.37	13.26	-38.4	-39.7	27.9	3.02e+01	58	32	101	524288	58	5631
2026-01-06 16:19:13.22	21.38	13.37	-38.4	-39.7	27.9	3.02e+01	46	32	101	524288	56	6284
2026-01-06 16:19:14.23	21.40	13.48	-38.4	-39.7	27.9	3.02e+01	60	32	101	524288	56	6313
2026-01-06 16:19:15.24	21.41	13.59	-38.3	-39.6	28.0	3.02e+01	58	32	101	524288	56	6257
2026-01-06 16:19:16.25	21.42	13.70	-38.3	-39.6	28.0	3.02e+01	58	32	101	524288	56	6239
2026-01-06 16:19:17.26	21.44	13.81	-38.3	-39.5	28.0	3.02e+01	59	32	101	524288	56	6200
2026-01-06 16:19:18.27	21.45	13.92	-38.3	-39.6	28.1	3.02e+01	61	32	101	524288	56	6209
2026-01-06 16:19:19.28	21.46	14.03	-38.2	-39.5	28.1	3.02e+01	59	32	101	524288	56	6135
2026-01-06 16:19:20.29	21.48	14.14	-38.2	-39.5	28.1	3.02e+01	59	32	101	524288	56	6178
2026-01-06 16:19:21.30	21.49	14.26	-38.2	-39.5	28.1	3.02e+01	50	32	101	524288	56	6183
2026-01-06 16:19:22.31	21.51	14.37	-38.0	-39.3	28.3	3.02e+01	59	32	101	524288	56	6034
2026-01-06 16:19:23.32	21.52	14.49	-38.1	-39.4	28.2	3.02e+01	61	32	101	524288	56	6073
2026-01-06 16:19:24.33	21.54	14.60	-38.1	-39.4	28.2	3.02e+01	61	32	101	524288	56	6092
2026-01-06 16:19:25.34	21.55	14.72	-38.0	-39.3	28.4	3.02e+01	59	32	101	524288	56	5995
2026-01-06 16:19:26.35	21.56	14.83	-38.0	-39.3	28.3	3.02e+01	50	32	101	524288	56	6027
2026-01-06 16:19:27.36	21.58	14.95	-38.0	-39.2	28.4	3.02e+01	60	32	101	524288	56	5987
2026-01-06 16:19:28.37	21.59	15.07	-37.8	-39.1	28.5	3.02e+01	58	32	101	524288	56	5869
2026-01-06 16:19:29.39	21.61	15.19	-37.9	-39.2	28.4	3.02e+01	46	32	101	524288	56	5955
2026-01-06 16:19:30.40	21.62	15.31	-37.8	-39.0	28.6	3.02e+01	59	32	101	524288	56	5839
2026-01-06 16:19:31.41	21.64	15.42	-37.7	-38.9	28.7	3.02e+01	62	32	101	524288	56	5783
2026-01-06 16:19:32.41	21.65	15.54	-37.7	-38.9	28.7	3.02e+01	56	32	101	524288	56	5758
2026-01-06 16:19:33.42	21.67	15.66	-37.7	-38.9	28.7	3.02e+01	61	32	101	524288	56	5767
2026-01-06 16:19:34.43	21.68	15.79	-37.7	-39.0	28.7	3.02e+01	56	32	101	524288	56	5807
2026-01-06 16:19:35.44	21.70	15.91	-37.7	-38.9	28.7	3.02e+01	60	32	101	524288	56	5765
2026-01-06 16:19:36.45	21.71	16.03	-37.8	-39.1	28.6	3.02e+01	59	32	101	524288	56	5859
2026-01-06 16:19:37.47	21.73	16.16	-37.7	-38.9	28.7	3.02e+01	59	32	101	524288	56	5769
2026-01-06 16:19:38.48	21.74	16.28	-37.6	-38.9	28.8	3.02e+01	61	32	101	524288	56	5727
2026-01-06 16:19:39.48	21.76	16.40	-37.5	-38.7	28.9	3.02e+01	51	32	101	524288	56	5624
2026-01-06 16:19:40.49	21.78	16.53	-37.6	-38.8	28.8	3.02e+01	60	32	101	524288	56	5708
2026-01-06 16:19:41.51	21.79	16.66	-37.5	-38.8	28.9	3.02e+01	60	32	101	524288	56	5674
2026-01-06 16:19:42.52	21.81	16.78	-37.4	-38.7	28.9	3.02e+01	48	32	101	524288	56	5617
2026-01-06 16:19:43.53	21.82	16.91	-37.4	-38.6	29.0	3.02e+01	58	32	101	524288	56	5586
2026-01-06 16:19:44.54	21.84	17.04	-37.4	-38.7	29.0	3.02e+01	62	32	101	524288	56	5596
2026-01-06 16:19:45.55	21.86	17.17	-37.4	-38.7	29.0	3.02e+01	61	32	101	524288	56	5595
2026-01-06 16:19:46.56	21.87	17.30	-37.4	-38.6	29.0	3.02e+01	57	32	101	524288	56	5592
2026-01-06 16:19:47.57	21.89	17.43	-37.4	-38.6	29.0	3.02e+01	52	32	101	524288	56	5574
2026-01-06 16:19:48.58	21.91	17.56	-37.4	-38.6	29.0	3.02e+01	59	32	101	524288	56	5591
2026-01-06 16:19:49.59	21.92	17.69	-37.4	-38.6	29.0	3.02e+01	58	32	101	524288	56	5566
2026-01-06 16:19:50.60	21.94	17.83	-37.3	-38.6	29.0	3.02e+01	52	32	101	524288	54	6245
2026-01-06 16:19:51.61	21.96	17.96	-37.3	-38.5	29.0	3.02e+01	60	32	101	524288	54	6199
2026-01-06 16:19:52.62	21.97	18.09	-37.3	-38.6	29.1	3.02e+01	60	32	101	524288	54	6216
2026-01-06 16:19:53.63	21.99	18.23	-37.4	-38.6	29.0	3.02e+01	59	32	101	524288	54	6265
2026-01-06 16:19:54.64	22.01	18.37	-37.5	-38.7	28.9	3.02e+01	58	32	101	524288	54	6319
2026-01-06 16:19:55.65	22.03	18.50	-37.5	-38.7	28.9	3.02e+01	51	32	101	524288	54	6322
2026-01-06 16:19:56.66	22.04	18.64	-37.4	-38.6	29.0	3.02e+01	56	32	101	524288	54	6243
2026-01-06 16:19:57.67	22.06	18.78	-37.3	-38.5	29.1	3.02e+01	58	32	101	524288	54	6153
2026-01-06 16:19:58.68	22.08	18.92	-37.3	-38.5	29.1	3.02e+01	38	32	101	524288	54	6178
2026-01-06 16:19:59.69	22.10	19.06	-37.3	-38.5	29.1	3.02e+01	60	32	101	524288	54	6156
2026-01-06 16:20:00.70	22.11	19.20	-37.3	-38.5	29.1	3.02e+01	58	32	101	524288	54	6150
2026-01-06 16:20:01.71	22.13	19.34	-37.3	-38.5	29.0	3.02e+01	60	32	101	524288	54	6193
2026-01-06 16:20:02.72	22.15	19.49	-37.3	-38.5	29.1	3.02e+01	60	32	101	524288	54	6197
2026-01-06 16:20:03.73	22.17	19.63	-37.2	-38.5	29.2	3.02e+01	56	32	101	524288	54	6142
2026-01-06 16:20:04.75	22.19	19.78	-37.3	-38.5	29.1	3.02e+01	58	32	101	524288	54	6156
2026-01-06 16:20:05.76	22.21	19.92	-37.2	-38.4	29.2	3.02e+01	58	32	101	524288	54	6109
2026-01-06 16:20:06.77	22.23	20.07	-37.2	-38.4	29.2	3.02e+01	58	32	101	524288	54	6097
2026-01-06 16:20:07.78	22.25	20.22	-37.1	-38.3	29.3	3.02e+01	62	32	101	524288	54	6054
2026-01-06 16:20:08.79	22.26	20.37	-37.0	-38.2	29.3	3.02e+01	45	32	101	524288	54	5986
2026-01-06 16:20:09.80	22.28	20.52	-37.1	-38.3	29.4	3.02e+01	58	32	101	524288	54	6012
2026-01-06 16:20:10.81	22.30	20.67	-37.1	-38.3	29.3	3.02e+01	61	32	101	524288	54	6043
2026-01-06 16:20:11.82	22.32	20.82	-36.8	-38.0	29.5	3.02e+01	51	32	101	524288	54	5855
2026-01-06 16:20:12.83	22.34	20.97	-36.9	-38.1	29.5	3.02e+01	59	32	101	524288	54	5885
2026-01-06 16:20:13.84	22.36	21.13	-36.8	-38.0	29.5	3.02e+01	59	32	101	524288	54	5853
2026-01-06 16:20:14.85	22.38	21.28	-36.8	-38.0	29.6	3.02e+01	59	32	101	524288	54	5800
2026-01-06 16:20:15.86	22.40	21.44	-36.8	-38.0	29.6	3.02e+01	58	32	101	524288	54	5840
2026-01-06 16:20:16.87	22.42	21.59	-36.7	-37.9	29.6	3.02e+01	55	32	101	524288	54	5752
2026-01-06 16:20:17.88	22.45	21.75	-36.7	-37.9	29.7	3.02e+01	54	32	101	524288	54	5735
2026-01-06 16:20:18.89	22.47	21.91	-36.7	-37.9	29.6	3.02e+01	61	32	101	524288	54	5777
2026-01-06 16:20:19.90	22.49	22.07	-36.6	-37.8	29.7	3.02e+01	46	32	101	524288	54	5693
2026-01-06 16:20:20.91	22.51	22.23	-36.7	-37.9	29.7	3.02e+01	60	32	101	524288	54	5773
2026-01-06 16:20:21.92	22.53	22.40	-36.7	-37.9	29.7	3.02e+01	59	32	101	524288	54	5740
2026-01-06 16:20:22.93	22.55	22.56	-36.7	-37.9	29.6	3.02e+01	59	32	101	524288	54	5763
2026-01-06 16:20:23.94	22.57	22.72	-36.8	-38.0	29.6	3.02e+01	58	32	101	524288	54	5800
2026-01-06 16:20:24.95	22.60	22.89	-36.8	-38.0	29.6	3.02e+01	58	32	101	524288	54	5842
2026-01-06 16:20:25.96	22.62	23.06	-36.8	-38.0	29.6	3.02e+01	62	32	101	524288	54	5841
2026-01-06 16:20:26.98	22.64	23.23	-36.8	-38.0	29.7	3.02e+01	62	32	101	524288	54	5802
2026-01-06 16:20:27.98	22.66	23.39	-36.8	-38.0	29.6	3.02e+01	47	32	101	524288	54	5845
2026-01-06 16:20:28.99	22.69	23.56	-36.9	-38.1	29.6	3.02e+01	63	32	101	524288	54	5871
2026-01-06 16:20:30.00	22.71	23.74	-36.9	-38.1	29.5	3.02e+01	62	32	101	524288	54	5875
2026-01-06 16:20:31.01	22.73	23.91	-36.9	-38.1	29.5	3.02e+01	58	32	101	524288	54	5876
2026-01-06 16:20:32.02	22.76	24.08	-37.0	-38.2	29.5	3.02e+01	59	32	101	524288	54	5936
2026-01-06 16:20:33.03	22.78	24.26	-36.8	-38.0	29.6	3.02e+01	52	32	101	524288	54	5810
2026-01-06 16:20:34.04	22.80	24.44	-36.9	-38.1	29.6	3.02e+01	57	32	101	524288	54	5865
2026-01-06 16:20:35.05	22.83	24.61	-37.0	-38.2	29.5	3.02e+01	60	32	101	524288	54	5968
2026-01-06 16:20:36.06	22.85	24.79	-36.8	-37.9	29.7	3.02e+01	46	32	101	524288	54	5785
2026-01-06 16:20:37.07	22.88	24.98	-36.7	-37.8	29.8	3.02e+01	52	32	101	524288	54	5714
2026-01-06 16:20:38.08	22.90	25.16	-36.7	-37.9	29.8	3.02e+01	60	32	101	524288	54	5738
2026-01-06 16:20:39.09	22.93	25.34	-36.6	-37.8	29.9	3.02e+01	60	32	101	524288	54	5689
2026-01-06 16:20:40.10	22.95	25.53	-36.7	-37.8	29.8	3.02e+01	60	32	101	524288	54	5720
2026-01-06 16:20:41.11	22.98	25.71	-36.6	-37.8	29.8	3.02e+01	50	32	101	524288	54	5677
2026-01-06 16:20:42.12	23.00	25.90	-36.6	-37.8	29.8	3.02e+01	59	32	101	524288	54	5722
2026-01-06 16:20:43.13	23.03	26.09	-36.6	-37.8	29.9	3.02e+01	62	32	101	524288	54	5675
2026-01-06 16:20:44.14	23.06	26.28	-36.5	-37.8	29.9	3.02e+01	58	32	101	524288	54	5668
2026-01-06 16:20:45.15	23.08	26.47	-36.6	-37.8	29.8	3.02e+01	60	32	101	524288	54	5719
2026-01-06 16:20:46.16	23.11	26.67	-36.6	-37.7	29.9	3.02e+01	47	32	101	524288	54	5655
2026-01-06 16:20:47.17	23.14	26.86	-36.6	-37.7	29.9	3.02e+01	62	32	101	524288	54	5651
2026-01-06 16:20:48.19	23.17	27.06	-36.7	-37.9	29.8	3.02e+01	57	32	101	524288	54	5746
2026-01-06 16:20:49.20	23.20	27.26	-36.7	-37.9	29.8	3.02e+01	46	32	101	524288	54	5736
2026-01-06 16:20:50.21	23.22	27.46	-36.6	-37.8	29.9	3.02e+01	57	32	101	524288	54	5709
2026-01-06 16:20:51.22	23.25	27.66	-36.7	-37.9	29.8	3.02e+01	57	32	101	524288	54	5734
2026-01-06 16:20:52.23	23.28	27.86	-36.7	-37.9	29.8	3.02e+01	58	32	101	524288	54	5762
2026-01-06 16:20:53.24	23.31	28.07	-36.8	-38.0	29.7	3.02e+01	59	32	101	524288	54	5817
2026-01-06 16:20:54.25	23.34	28.27	-36.8	-37.9	29.8	3.02e+01	45	32	101	524288	54	5790
2026-01-06 16:20:55.26	23.37	28.48	-36.9	-38.1	29.6	3.02e+01	60	32	101	524288	54	5871
2026-01-06 16:20:56.27	23.40	28.69	-37.0	-38.2	29.6	3.02e+01	60	32	101	524288	54	5948
2026-01-06 16:20:57.28	23.43	28.90	-37.0	-38.2	29.5	3.02e+01	48	32	101	524288	54	5991
2026-01-06 16:20:58.29	23.46	29.12	-36.9	-38.1	29.6	3.02e+01	62	32	101	524288	54	5915
2026-01-06 16:20:59.30	23.49	29.33	-36.8	-38.0	29.7	3.02e+01	62	32	101	524288	54	5823
2026-01-06 16:21:00.31	23.53	29.55	-36.9	-38.1	29.6	3.02e+01	59	32	101	524288	54	5902
2026-01-06 16:21:01.32	23.56	29.77	-36.9	-38.1	29.6	3.02e+01	58	32	101	524288	54	5895
2026-01-06 16:21:02.33	23.59	29.99	-36.9	-38.1	29.7	3.02e+01	52	32	101	524288	54	5893
2026-01-06 16:21:03.34	23.62	30.21	-37.1	-38.3	29.5	3.02e+01	60	32	101	524288	54	6015
2026-01-06 16:21:04.35	23.66	30.43	-37.0	-38.2	29.5	3.02e+01	62	32	101	524288	54	5976
2026-01-06 16:21:05.36	23.69	30.66	-36.9	-38.1	29.6	3.02e+01	44	32	101	524288	54	5871
2026-01-06 16:21:06.37	23.72	30.88	-37.0	-38.1	29.5	3.02e+01	60	32	101	524288	54	5921
2026-01-06 16:21:07.38	23.76	31.11	-37.0	-38.2	29.7	3.02e+01	58	32	101	524288	54	5934
2026-01-06 16:21:08.39	23.79	31.35	-37.0	-38.2	29.5	3.02e+01	59	32	101	524288	54	5971
2026-01-06 16:21:09.40	23.83	31.58	-37.2	-38.4	29.5	3.02e+01	59	32	101	524288	54	6079
2026-01-06 16:21:10.41	23.87	31.81	-37.1	-38.3	29.5	3.02e+01	59	32	101	524288	54	6054
2026-01-06 16:21:11.42	23.90	32.05	-37.1	-38.3	29.5	3.02e+01	57	32	101	524288	54	6057
2026-01-06 16:21:12.43	23.94	32.29	-37.2	-38.4	29.5	3.02e+01	57	32	101	524288	54	6068
2026-01-06 16:21:13.45	23.98	32.53	-37.2	-38.4	29.4	3.02e+01	47	32	101	524288	54	6107
2026-01-06 16:21:14.46	24.02	32.78	-37.1	-38.3	29.5	3.02e+01	61	32	101	524288	54	6038
2026-01-06 16:21:15.47	24.05	33.02	-37.1	-38.3	29.4	3.02e+01	41	32	101	524288	54	6051
2026-01-06 16:21:16.48	24.09	33.27	-37.0	-38.2	29.5	3.02e+01	60	32	101	524288	54	5972
2026-01-06 16:21:17.49	24.13	33.52	-37.1	-38.3	29.5	3.02e+01	58	32	101	524288	54	6004
2026-01-06 16:21:18.50	24.17	33.77	-37.1	-38.3	29.5	3.02e+01	47	32	101	524288	54	6015
2026-01-06 16:21:19.51	24.22	34.03	-37.1	-38.3	29.5	3.02e+01	59	32	101	524288	54	6051
2026-01-06 16:21:20.52	24.26	34.29	-37.1	-38.3	29.5	3.02e+01	60	32	101	524288	54	6052
2026-01-06 16:21:21.53	24.30	34.54	-37.3	-38.5	29.4	3.02e+01	57	32	101	524288	54	6165
2026-01-06 16:21:22.54	24.34	34.81	-37.1	-38.3	29.5	3.02e+01	59	32	101	524288	54	6038
2026-01-06 16:21:23.55	24.38	35.07	-37.1	-38.3	29.5	3.02e+01	50	32	101	524288	54	6026
2026-01-06 16:21:24.56	24.43	35.34	-37.2	-38.4	29.5	3.02e+01	62	32	101	524288	54	6104
2026-01-06 16:21:25.57	24.47	35.60	-37.2	-38.4	29.4	3.02e+01	60	32	101	524288	54	6118
2026-01-06 16:21:26.58	24.52	35.87	-37.3	-38.5	29.3	3.02e+01	45	32	101	524288	54	6158
2026-01-06 16:21:27.58	24.56	36.14	-37.5	-38.7	29.2	3.02e+01	58	32	101	524288	54	6313
2026-01-06 16:21:28.59	24.61	36.42	-37.3	-38.6	29.3	3.02e+01	59	32	101	524288	54	6206
2026-01-06 16:21:29.61	24.66	36.70	-37.4	-38.6	29.2	3.02e+01	57	32	101	524288	54	6256
2026-01-06 16:21:30.62	24.71	36.98	-37.4	-38.7	29.2	3.02e+01	61	32	101	524288	54	6285
2026-01-06 16:21:31.63	24.76	37.26	-37.4	-38.6	29.2	3.02e+01	59	32	101	524288	54	6258
2026-01-06 16:21:32.64	24.81	37.55	-37.6	-38.8	29.1	3.02e+01	55	32	101	524288	54	6379
2026-01-06 16:21:33.65	24.86	37.84	-37.5	-38.7	29.2	3.02e+01	62	32	101	524288	54	6303
2026-01-06 16:21:34.66	24.91	38.13	-37.4	-38.6	29.3	3.02e+01	43	32	101	524288	54	6224
2026-01-06 16:21:35.67	24.96	38.42	-37.5	-38.7	29.2	3.02e+01	59	32	101	524288	54	6320
2026-01-06 16:21:36.68	25.02	38.72	-37.4	-38.6	29.2	3.02e+01	59	32	101	524288	54	6263
2026-01-06 16:21:37.69	25.07	39.02	-37.3	-38.5	29.4	3.02e+01	52	32	101	524288	54	6140
2026-01-06 16:21:38.70	25.13	39.32	-37.4	-38.6	29.4	3.02e+01	54	32	101	524288	54	6214
2026-01-06 16:21:39.71	25.18	39.63	-37.2	-38.4	29.4	3.02e+01	54	32	101	524288	54	6106
2026-01-06 16:21:40.73	25.24	39.94	-37.3	-38.5	29.4	3.02e+01	62	32	101	524288	54	6152
2026-01-06 16:21:41.74	25.30	40.25	-37.0	-38.2	29.6	3.02e+01	57	32	101	524288	54	5972
2026-01-06 16:21:42.75	25.36	40.56	-36.9	-38.1	29.8	3.02e+01	44	32	101	524288	54	5878
2026-01-06 16:21:43.76	25.42	40.88	-36.9	-38.1	29.7	3.02e+01	61	32	101	524288	54	5876
2026-01-06 16:21:44.77	25.48	41.19	-36.9	-38.1	29.7	3.02e+01	60	32	101	524288	54	5897
2026-01-06 16:21:45.78	25.54	41.52	-36.9	-38.1	29.8	3.02e+01	59	32	101	524288	54	5860
2026-01-06 16:21:46.79	25.61	41.84	-36.9	-38.1	29.8	3.02e+01	61	32	101	524288	54	5884
2026-01-06 16:21:47.80	25.67	42.17	-36.9	-38.1	29.6	3.02e+01	48	32	101	524288	54	5918
2026-01-06 16:21:48.81	25.74	42.50	-37.0	-38.3	29.6	3.02e+01	56	32	101	524288	54	5998
2026-01-06 16:21:49.82	25.81	42.84	-36.9	-38.1	29.7	3.02e+01	59	32	101	524288	54	5873
2026-01-06 16:21:50.83	25.88	43.17	-36.7	-37.9	29.8	3.02e+01	58	32	101	524288	54	5741
2026-01-06 16:21:51.84	25.95	43.51	-36.6	-37.8	30.0	3.02e+01	58	32	101	524288	54	5706
2026-01-06 16:21:52.85	26.02	43.86	-36.6	-37.8	30.0	3.02e+01	47	32	101	524288	54	5663
2026-01-06 16:21:53.86	26.09	44.20	-36.6	-37.8	30.0	3.02e+01	59	32	101	524288	54	5660
2026-01-06 16:21:54.86	26.17	44.55	-36.6	-37.8	30.0	3.02e+01	59	32	101	524288	54	5699
2026-01-06 16:21:55.87	26.24	44.90	-36.9	-38.1	29.8	3.02e+01	46	32	101	524288	54	5873
2026-01-06 16:21:56.88	26.32	45.26	-36.6	-37.8	30.0	3.02e+01	49	32	101	524288	54	5675
2026-01-06 16:21:57.89	26.40	45.62	-36.8	-38.0	29.9	3.02e+01	58	32	101	524288	54	5839
2026-01-06 16:21:58.89	26.48	45.98	-36.5	-37.7	30.1	3.02e+01	60	32	101	524288	54	5626
2026-01-06 16:21:59.90	26.57	46.35	-36.4	-37.6	30.2	3.02e+01	58	32	101	524288	54	5574
2026-01-06 16:22:00.91	26.65	46.72	-36.6	-37.7	30.0	3.02e+01	58	32	101	524288	54	5650
2026-01-06 16:22:01.91	26.74	47.09	-36.7	-37.8	30.0	3.02e+01	60	32	101	524288	54	5719
2026-01-06 16:22:02.92	26.83	47.46	-36.7	-37.9	29.9	3.02e+01	59	32	101	524288	54	5759
2026-01-06 16:22:03.93	26.92	47.84	-36.6	-37.8	30.0	3.02e+01	52	32	101	524288	54	5694
2026-01-06 16:22:04.94	27.02	48.23	-36.7	-37.9	29.9	3.02e+01	61	32	101	524288	54	5746
2026-01-06 16:22:05.94	27.11	48.61	-36.7	-37.9	29.9	3.02e+01	59	32	101	524288	54	5734
2026-01-06 16:22:06.95	27.21	49.00	-36.8	-38.0	29.8	3.02e+01	59	32	101	524288	54	5841
2026-01-06 16:22:07.96	27.31	49.39	-36.9	-38.1	29.7	3.02e+01	58	32	101	524288	54	5872
2026-01-06 16:22:08.96	27.42	49.79	-36.9	-38.1	29.8	3.02e+01	47	32	101	524288	54	5873
2026-01-06 16:22:09.97	27.52	50.19	-36.9	-38.1	29.8	3.02e+01	58	32	101	524288	54	5871
2026-01-06 16:22:10.98	27.63	50.60	-37.0	-38.2	29.8	3.02e+01	61	32	101	524288	54	5940
2026-01-06 16:22:11.99	27.74	51.00	-37.1	-38.3	29.6	3.02e+01	53	32	101	524288	54	6036
2026-01-06 16:22:13.00	27.86	51.42	-37.2	-38.5	29.5	3.02e+01	62	32	101	524288	54	6143
2026-01-06 16:22:14.00	27.98	51.83	-37.3	-38.5	29.4	3.02e+01	62	32	101	524288	54	6166
2026-01-06 16:22:15.01	28.10	52.25	-37.3	-38.5	29.4	3.02e+01	60	32	101	524288	54	6154
2026-01-06 16:22:16.01	28.22	52.67	-37.3	-38.5	29.5	3.02e+01	51	32	101	524288	54	6172
2026-01-06 16:22:17.02	28.35	53.09	-37.4	-38.6	29.3	3.02e+01	56	32	101	524288	54	6250
2026-01-06 16:22:18.03	28.48	53.52	-37.5	-38.7	29.3	3.02e+01	57	32	101	524288	54	6313
2026-01-06 16:22:19.04	28.62	53.96	-37.8	-39.0	29.0	3.02e+01	57	32	101	524288	54	6531
2026-01-06 16:22:20.04	28.76	54.39	-37.9	-39.1	28.9	3.02e+01	46	32	101	524288	54	6630
2026-01-06 16:22:21.05	28.90	54.83	-38.0	-39.3	28.8	3.02e+01	56	32	101	524288	54	6750
2026-01-06 16:22:22.06	29.05	55.28	-38.1	-39.3	28.7	3.02e+01	59	32	101	524288	54	6768
2026-01-06 16:22:23.08	29.21	55.73	-38.2	-39.4	28.5	3.02e+01	60	32	101	524288	54	6882
2026-01-06 16:22:24.09	29.37	56.19	-38.2	-39.4	28.6	3.02e+01	56	32	101	524288	54	6873
2026-01-06 16:22:25.10	29.53	56.64	-38.3	-39.6	28.5	3.02e+01	56	32	101	524288	54	7005
2026-01-06 16:22:26.11	29.70	57.10	-38.4	-39.7	28.4	3.02e+01	57	32	101	524288	56	6307
2026-01-06 16:22:27.12	29.88	57.57	-38.8	-40.1	28.1	3.02e+01	59	32	101	524288	56	6598
2026-01-06 16:22:28.13	30.06	58.04	-38.8	-40.0	28.1	3.02e+01	56	32	101	524288	56	6565
2026-01-06 16:22:29.14	30.25	58.51	-39.0	-40.2	28.0	3.02e+01	56	32	101	524288	56	6720
2026-01-06 16:22:30.15	30.44	58.98	-38.9	-40.1	28.0	3.02e+01	46	32	101	524288	56	6645
2026-01-06 16:22:31.16	30.64	59.46	-39.0	-40.3	27.9	3.02e+01	59	32	101	524288	56	6791
2026-01-06 16:22:32.17	30.85	59.94	-39.1	-40.4	27.9	3.02e+01	59	32	101	524288	56	6817
2026-01-06 16:22:33.18	31.07	60.43	-39.2	-40.5	27.7	3.02e+01	45	32	101	524288	56	6956
2026-01-06 16:22:34.19	31.29	60.92	-39.1	-40.4	27.9	3.02e+01	58	32	101	524288	56	6812
2026-01-06 16:22:35.20	31.53	61.41	-38.9	-40.2	28.0	3.02e+01	60	32	101	524288	56	6700
2026-01-06 16:22:36.21	31.77	61.91	-38.7	-40.0	28.3	3.02e+01	58	32	101	524288	56	6522
2026-01-06 16:22:37.22	32.02	62.41	-38.6	-39.9	28.3	3.02e+01	60	32	101	524288	56	6458
2026-01-06 16:22:38.23	32.29	62.91	-38.6	-39.9	28.3	3.02e+01	40	32	101	524288	56	6435
2026-01-06 16:22:39.24	32.56	63.42	-38.5	-39.8	28.4	3.02e+01	56	32	101	524288	56	6351
2026-01-06 16:22:40.25	32.85	63.93	-38.4	-39.7	28.4	3.02e+01	60	32	101	524288	56	6306
2026-01-06 16:22:41.26	33.15	64.44	-38.1	-39.3	28.8	3.02e+01	51	32	101	524288	56	6054
2026-01-06 16:22:42.27	33.47	64.95	-37.7	-38.9	29.2	3.02e+01	61	32	101	524288	56	5791
2026-01-06 16:22:43.28	33.79	65.47	-37.8	-39.0	29.1	3.02e+01	59	32	101	524288	56	5813
2026-01-06 16:22:44.29	34.14	65.99	-37.7	-39.0	29.1	3.02e+01	61	32	101	524288	56	5798
2026-01-06 16:22:45.30	34.50	66.52	-37.1	-38.3	29.6	3.02e+01	58	32	101	524288	54	6036
2026-01-06 16:22:46.31	34.88	67.05	-37.1	-38.3	29.6	3.02e+01	58	32	101	524288	54	6003
2026-01-06 16:22:47.32	35.28	67.58	-37.1	-38.2	29.7	3.02e+01	59	32	101	524288	54	5992
2026-01-06 16:22:48.33	35.70	68.11	-37.0	-38.2	29.8	3.02e+01	61	32	101	524288	54	5962
2026-01-06 16:22:49.34	36.14	68.64	-36.9	-38.1	29.8	3.02e+01	45	32	101	524288	54	5864
2026-01-06 16:22:50.35	36.60	69.18	-37.1	-38.3	29.7	3.02e+01	58	32	101	524288	54	6002
2026-01-06 16:22:51.36	37.10	69.71	-36.9	-38.1	29.8	3.02e+01	62	32	101	524288	54	5901
2026-01-06 16:22:52.37	37.62	70.25	-36.5	-37.7	30.1	3.02e+01	58	32	101	524288	54	5600
2026-01-06 16:22:53.38	38.17	70.80	-36.8	-37.9	29.9	3.02e+01	61	32	101	524288	54	5790
2026-01-06 16:22:54.39	38.76	71.34	-37.1	-38.3	29.7	3.02e+01	49	32	101	524288	54	6000
2026-01-06 16:22:55.40	39.38	71.88	-37.0	-38.2	29.7	3.02e+01	60	32	101	524288	54	5981
2026-01-06 16:22:56.41	40.05	72.43	-36.9	-38.1	29.8	3.02e+01	60	32	101	524288	54	5878
2026-01-06 16:22:57.42	40.76	72.97	-36.8	-38.0	29.9	3.02e+01	38	32	101	524288	54	5829
2026-01-06 16:22:58.43	41.52	73.51	-36.8	-38.0	29.9	3.02e+01	60	32	101	524288	54	5798
2026-01-06 16:22:59.44	42.33	74.06	-36.9	-38.1	29.8	3.02e+01	59	32	101	524288	54	5900
2026-01-06 16:23:00.45	43.20	74.60	-36.8	-38.0	29.9	3.02e+01	58	32	101	524288	54	5820
2026-01-06 16:23:01.46	44.14	75.15	-36.7	-37.8	30.0	3.02e+01	58	32	101	524288	54	5707
2026-01-06 16:23:02.47	45.15	75.69	-36.9	-38.1	29.8	3.02e+01	51	32	101	524288	54	5880
2026-01-06 16:23:03.48	46.25	76.22	-37.0	-38.2	29.7	3.02e+01	59	32	101	524288	54	5964
2026-01-06 16:23:04.49	47.44	76.76	-37.0	-38.2	29.7	3.02e+01	61	32	101	524288	54	5963
2026-01-06 16:23:05.50	48.72	77.29	-36.9	-38.1	29.8	3.02e+01	58	32	101	524288	54	5866
2026-01-06 16:23:06.51	50.13	77.82	-36.7	-37.8	29.9	3.02e+01	59	32	101	524288	54	5722
2026-01-06 16:23:07.52	51.66	78.34	-36.3	-37.5	30.3	3.02e+01	45	32	101	524288	52	6179
2026-01-06 16:23:08.53	53.34	78.85	-36.2	-37.3	30.4	3.02e+01	61	32	101	524288	52	6051
2026-01-06 16:23:09.54	55.18	79.35	-36.3	-37.5	30.3	3.02e+01	58	32	101	524288	52	6141
2026-01-06 16:23:10.56	57.23	79.85	-36.2	-37.4	30.3	3.02e+01	47	32	101	524288	52	6093
2026-01-06 16:23:11.57	59.47	80.33	-36.0	-37.2	30.6	3.02e+01	59	32	101	524288	52	5928
2026-01-06 16:23:12.58	61.94	80.80	-35.8	-37.0	30.7	3.02e+01	58	32	101	524288	52	5800
2026-01-06 16:23:13.59	64.67	81.25	-36.0	-37.1	30.7	3.02e+01	57	32	101	524288	52	5911
2026-01-06 16:23:14.60	67.70	81.68	-36.2	-37.3	30.4	3.02e+01	60	32	101	524288	52	6063
2026-01-06 16:23:15.61	71.04	82.08	-36.2	-37.3	30.4	3.02e+01	57	32	101	524288	52	6047
2026-01-06 16:23:16.62	74.74	82.46	-36.2	-37.4	30.5	3.02e+01	56	32	101	524288	52	6066
2026-01-06 16:23:17.63	78.81	82.80	-36.5	-37.7	30.1	3.02e+01	59	32	101	524288	52	6290
2026-01-06 16:23:18.64	83.26	83.10	-37.0	-38.2	29.7	3.02e+01	52	32	101	524288	52	6675
2026-01-06 16:23:19.65	88.09	83.36	-37.2	-38.4	29.5	3.02e+01	57	32	101	524288	52	6862
2026-01-06 16:23:20.66	93.27	83.56	-37.1	-38.3	29.6	3.02e+01	60	32	101	524288	52	6736
2026-01-06 16:23:21.67	98.75	83.72	-37.9	-39.1	28.9	3.02e+01	57	32	101	524288	54	6642
2026-01-06 16:23:22.68	104.45	83.81	-37.8	-39.0	29.0	3.02e+01	58	32	101	524288	54	6514
2026-01-06 16:23:23.69	110.27	83.84	-37.7	-38.9	29.1	3.02e+01	50	32	101	524288	54	6437
2026-01-06 16:23:24.70	116.08	83.80	-37.6	-38.8	29.2	3.02e+01	59	32	101	524288	54	6394
2026-01-06 16:23:25.71	121.77	83.71	-38.0	-39.2	28.8	3.02e+01	59	32	101	524288	54	6710
2026-01-06 16:23:26.73	127.30	83.55	-38.4	-39.6	26.4	3.02e+01	45	32	101	524288	54	7018
2026-01-06 16:23:27.74	132.46	83.34	-38.4	-39.7	28.4	3.02e+01	59	32	101	524288	56	6279
2026-01-06 16:23:28.74	137.23	83.09	-38.2	-39.4	28.6	3.02e+01	56	32	101	524288	56	6112
2026-01-06 16:23:29.76	141.71	82.78	-38.6	-39.9	28.2	3.02e+01	61	32	101	524288	56	6451
2026-01-06 16:23:30.77	145.75	82.44	-39.2	-40.5	27.7	3.02e+01	59	32	101	524288	56	6911
2026-01-06 16:23:31.78	149.43	82.06	-39.0	-40.3	27.9	3.02e+01	57	32	101	524288	56	6762
2026-01-06 16:23:32.79	152.76	81.65	-39.3	-40.6	27.5	3.02e+01	59	32	101	524288	58	6238
2026-01-06 16:23:33.80	155.77	81.22	-40.0	-41.3	26.9	3.02e+01	64	32	101	524288	58	6797
2026-01-06 16:23:34.81	158.49	80.77	-40.2	-41.6	26.8	3.02e+01	58	32	101	524288	60	6244
2026-01-06 16:23:35.82	160.95	80.31	-40.7	-42.2	26.3	3.02e+01	53	32	101	524288	60	6664
2026-01-06 16:23:36.83	163.18	79.82	-40.9	-42.3	26.0	3.02e+01	44	32	101	524288	60	6798
2026-01-06 16:23:37.84	165.19	79.33	-42.0	-43.6	24.9	3.02e+01	59	32	101	524288	60	7851
2026-01-06 16:23:38.85	167.03	78.82	-41.2	-42.6	25.8	3.02e+01	59	32	101	524288	60	7003
2026-01-06 16:23:39.86	168.70	78.31	-42.0	-43.6	24.9	3.02e+01	47	32	101	524288	60	7858
2026-01-06 16:23:40.87	170.23	77.79	-41.8	-43.3	25.1	3.02e+01	59	32	101	524288	60	7617
2026-01-06 16:23:41.88	171.63	77.26	-42.1	-43.7	24.9	3.02e+01	58	32	101	524288	60	7927
2026-01-06 16:23:42.89	172.91	76.73	-42.2	-43.8	24.7	3.02e+01	57	32	101	524288	60	8083
2026-01-06 16:23:43.90	174.09	76.19	-42.0	-43.6	24.8	3.02e+01	58	32	101	524288	60	7825
2026-01-06 16:23:44.92	175.19	75.65	-42.3	-43.9	24.5	3.02e+01	57	32	101	524288	60	8123
2026-01-06 16:23:45.93	176.20	75.11	-42.0	-43.6	24.9	3.02e+01	58	32	101	524288	60	7835
2026-01-06 16:23:46.94	177.14	74.56	-42.4	-44.0	24.5	3.02e+01	57	32	101	524288	60	8210
2026-01-06 16:23:47.94	178.00	74.03	-41.7	-43.2	25.2	3.02e+01	52	32	101	524288	60	7546
2026-01-06 16:23:48.96	178.82	73.48	-41.5	-43.0	25.4	3.02e+01	60	32	101	524288	60	7322
2026-01-06 16:23:49.97	179.57	72.93	-41.3	-42.7	25.7	3.02e+01	63	32	101	524288	60	7109
2026-01-06 16:23:50.98	180.28	72.38	-40.9	-42.3	26.1	3.02e+01	59	32	101	524288	60	6768
2026-01-06 16:23:51.99	180.94	71.84	-40.5	-41.9	26.4	3.02e+01	62	32	101	524288	60	6482
2026-01-06 16:23:52.99	181.56	71.30	-40.7	-42.1	26.2	3.02e+01	56	32	101	524288	60	6636
2026-01-06 16:23:54.00	182.15	70.76	-40.2	-41.6	26.7	3.02e+01	58	32	101	524288	60	6227
2026-01-06 16:23:55.01	182.70	70.21	-40.4	-41.8	26.6	3.02e+01	55	32	101	524288	60	6406
2026-01-06 16:23:56.03	183.22	69.67	-40.3	-41.6	26.7	3.02e+01	47	32	101	524288	60	6260
2026-01-06 16:23:57.03	183.71	69.14	-40.0	-41.4	27.0	3.02e+01	62	32	101	524288	60	6084
2026-01-06 16:23:58.05	184.18	68.59	-40.3	-41.7	26.7	3.02e+01	59	32	101	524288	60	6282
2026-01-06 16:23:59.06	184.62	68.06	-39.8	-41.1	27.2	3.02e+01	60	32	101	524288	60	5908
2026-01-06 16:24:00.06	185.03	67.53	-39.6	-40.9	27.3	3.02e+01	59	32	101	524288	60	5753
2026-01-06 16:24:01.07	185.43	67.00	-39.2	-40.5	27.7	3.02e+01	52	32	101	524288	58	6155
2026-01-06 16:24:02.09	185.81	66.47	-39.2	-40.5	27.6	3.02e+01	62	32	101	524288	58	6163
2026-01-06 16:24:03.10	186.17	65.94	-38.6	-39.9	28.2	3.02e+01	59	32	101	524288	58	5750
2026-01-06 16:24:04.11	186.52	65.42	-38.5	-39.7	28.3	3.02e+01	56	32	101	524288	58	5658
2026-01-06 16:24:05.12	186.84	64.90	-38.2	-39.5	28.6	3.02e+01	57	32	101	524288	56	6150
2026-01-06 16:24:06.13	187.16	64.38	-37.7	-38.9	29.1	3.02e+01	52	32	101	524288	56	5756
2026-01-06 16:24:07.14	187.46	63.87	-37.6	-38.8	29.2	3.02e+01	59	32	101	524288	56	5709
2026-01-06 16:24:08.15	187.74	63.36	-37.1	-38.2	29.5	3.02e+01	60	32	101	524288	54	5984
2026-01-06 16:24:09.16	188.02	62.85	-37.3	-38.5	29.3	3.02e+01	46	32	101	524288	54	6172
2026-01-06 16:24:10.16	188.28	62.35	-37.2	-38.3	29.6	3.02e+01	57	32	101	524288	54	6063
2026-01-06 16:24:11.17	188.53	61.85	-37.2	-38.4	29.3	3.02e+01	62	32	101	524288	54	6109
2026-01-06 16:24:12.19	188.78	61.35	-37.5	-38.7	29.3	3.02e+01	55	32	101	524288	54	6311
2026-01-06 16:24:13.20	189.01	60.86	-38.3	-39.5	28.5	3.02e+01	62	32	101	524288	54	6951
2026-01-06 16:24:14.21	189.24	60.37	-37.4	-38.6	29.2	3.02e+01	44	32	101	524288	54	6259
2026-01-06 16:24:15.22	189.45	59.88	-38.4	-39.7	28.5	3.02e+01	58	32	101	524288	56	6282
2026-01-06 16:24:16.23	189.66	59.40	-37.9	-39.1	28.9	3.02e+01	60	32	101	524288	56	5925
2026-01-06 16:24:17.24	189.86	58.92	-37.4	-38.6	29.3	3.02e+01	46	32	101	524288	54	6274
2026-01-06 16:24:18.25	190.06	58.44	-37.8	-39.0	28.9	3.02e+01	59	32	101	524288	54	6559
2026-01-06 16:24:19.26	190.24	57.97	-37.3	-38.5	29.4	3.02e+01	59	32	101	524288	54	6145
2026-01-06 16:24:20.27	190.42	57.50	-37.1	-38.3	29.5	3.02e+01	59	32	101	524288	54	6054
2026-01-06 16:24:21.28	190.60	57.03	-37.4	-38.6	29.4	3.02e+01	58	32	101	524288	54	6233
2026-01-06 16:24:22.29	190.77	56.57	-37.1	-38.3	29.4	3.02e+01	60	32	101	524288	54	6027
2026-01-06 16:24:23.30	190.93	56.12	-37.2	-38.4	29.5	3.02e+01	60	32	101	524288	54	6097
2026-01-06 16:24:24.31	191.09	55.66	-37.9	-39.2	28.5	3.02e+01	62	32	101	524288	54	6691
2026-01-06 16:24:25.32	191.24	55.21	-37.3	-38.5	29.3	3.02e+01	51	32	101	524288	54	6138
2026-01-06 16:24:26.33	191.39	54.76	-37.5	-38.8	29.1	3.02e+01	59	32	101	524288	54	6370
2026-01-06 16:24:27.34	191.54	54.32	-37.9	-39.2	28.7	3.02e+01	60	32	101	524288	54	6674
2026-01-06 16:24:28.36	191.68	53.88	-37.9	-39.1	28.9	3.02e+01	61	32	101	524288	54	6609
2026-01-06 16:24:29.37	191.82	53.44	-37.5	-38.7	29.3	3.02e+01	59	32	101	524288	54	6298
2026-01-06 16:24:30.37	191.95	53.02	-38.1	-39.4	28.7	3.02e+01	49	32	101	524288	54	6832
2026-01-06 16:24:31.39	192.08	52.58	-37.9	-39.1	28.8	3.02e+01	61	32	101	524288	54	6593
2026-01-06 16:24:32.40	192.20	52.16	-38.0	-39.2	28.8	3.02e+01	63	32	101	524288	54	6724
2026-01-06 16:24:33.41	192.32	51.74	-38.4	-39.6	28.4	3.02e+01	44	32	101	524288	56	6244
2026-01-06 16:24:34.42	192.44	51.32	-38.2	-39.5	28.6	3.02e+01	58	32	101	524288	56	6143
2026-01-06 16:24:35.43	192.55	50.91	-39.2	-40.6	27.7	3.02e+01	49	32	101	524288	56	6969
2026-01-06 16:24:36.44	192.67	50.50	-39.2	-40.4	27.6	3.02e+01	59	32	101	524288	58	6126
2026-01-06 16:24:37.45	192.78	50.09	-39.9	-41.2	27.1	3.02e+01	57	32	101	524288	58	6687
2026-01-06 16:24:38.46	192.88	49.69	-40.4	-41.8	26.3	3.02e+01	48	32	101	524288	58	7162
2026-01-06 16:24:39.47	192.99	49.29	-40.9	-42.4	26.0	3.02e+01	59	32	101	524288	60	6827
2026-01-06 16:24:40.48	193.09	48.90	-40.7	-42.1	26.2	3.02e+01	62	32	101	524288	60	6618
2026-01-06 16:24:41.49	193.19	48.51	-40.6	-42.0	26.3	3.02e+01	62	32	101	524288	60	6541
2026-01-06 16:24:42.50	193.28	48.12	-40.9	-42.4	26.1	3.02e+01	58	32	101	524288	60	6836
2026-01-06 16:24:43.51	193.37	47.73	-40.9	-42.3	26.0	3.02e+01	50	32	101	524288	60	6785
2026-01-06 16:24:44.52	193.47	47.35	-40.5	-41.9	26.4	3.02e+01	61	32	101	524288	60	6493
2026-01-06 16:24:45.53	193.56	46.97	-41.0	-42.4	26.1	3.02e+01	60	32	101	524288	60	6856
2026-01-06 16:24:46.54	193.64	46.60	-40.8	-42.2	26.1	3.02e+01	44	32	101	524288	60	6723
2026-01-06 16:24:47.55	193.73	46.23	-40.5	-41.8	26.5	3.02e+01	64	32	101	524288	60	6405
2026-01-06 16:24:48.56	193.81	45.86	-40.0	-41.3	27.0	3.02e+01	57	32	101	524288	60	6012
2026-01-06 16:24:49.57	193.89	45.50	-40.6	-42.0	26.3	3.02e+01	59	32	101	524288	60	6523
2026-01-06 16:24:50.58	193.97	45.14	-41.1	-42.6	25.8	3.02e+01	61	32	101	524288	60	6980
2026-01-06 16:24:51.59	194.05	44.78	-40.6	-42.0	26.3	3.02e+01	49	32	101	524288	60	6527
2026-01-06 16:24:52.60	194.13	44.43	-41.2	-42.7	25.6	3.02e+01	57	32	101	524288	60	7100
2026-01-06 16:24:53.61	194.20	44.08	-41.9	-43.5	25.0	3.02e+01	58	32	101	524288	60	7738
2026-01-06 16:24:54.62	194.28	43.73	-41.3	-42.7	25.7	3.02e+01	52	32	101	524288	60	7125
2026-01-06 16:24:55.63	194.35	43.39	-40.8	-42.2	26.1	3.02e+01	54	32	101	524288	60	6708
2026-01-06 16:24:56.64	194.42	43.04	-40.8	-42.2	26.2	3.02e+01	59	32	101	524288	60	6680
2026-01-06 16:24:57.65	194.49	42.71	-40.7	-42.1	26.3	3.02e+01	60	32	101	524288	60	6648
2026-01-06 16:24:58.66	194.56	42.37	-40.8	-42.2	26.2	3.02e+01	57	32	101	524288	60	6692
2026-01-06 16:24:59.67	194.62	42.04	-40.5	-41.9	26.5	3.02e+01	51	32	101	524288	60	6455
2026-01-06 16:25:00.68	194.69	41.71	-39.9	-41.3	27.0	3.02e+01	58	32	101	524288	60	6028
2026-01-06 16:25:01.69	194.75	41.39	-39.8	-41.1	27.2	3.02e+01	58	32	101	524288	60	5885
2026-01-06 16:25:02.70	194.81	41.06	-39.1	-40.5	27.7	3.02e+01	44	32	101	524288	58	6137
2026-01-06 16:25:03.71	194.87	40.74	-38.4	-39.7	28.5	3.02e+01	63	32	101	524288	58	5615
2026-01-06 16:25:04.72	194.93	40.43	-38.9	-40.2	28.1	3.02e+01	59	32	101	524288	58	5985
2026-01-06 16:25:05.73	194.99	40.11	-38.2	-39.5	28.4	3.02e+01	62	32	101	524288	56	6159
2026-01-06 16:25:06.74	195.05	39.80	-38.4	-39.6	28.6	3.02e+01	56	32	101	524288	56	6241
2026-01-06 16:25:07.75	195.11	39.50	-37.9	-39.1	29.0	3.02e+01	52	32	101	524288	56	5896
2026-01-06 16:25:08.76	195.16	39.19	-38.0	-39.3	28.8	3.02e+01	60	32	101	524288	56	6024
2026-01-06 16:25:09.77	195.22	38.89	-38.5	-39.8	28.4	3.02e+01	59	32	101	524288	56	6420
2026-01-06 16:25:10.78	195.27	38.59	-38.3	-39.5	28.6	3.02e+01	54	32	101	524288	56	6182
2026-01-06 16:25:11.79	195.33	38.29	-38.0	-39.2	28.9	3.02e+01	62	32	101	524288	56	5934
2026-01-06 16:25:12.80	195.38	38.00	-37.7	-38.9	29.1	3.02e+01	45	32	101	524288	56	5770
2026-01-06 16:25:13.81	195.43	37.71	-37.7	-38.9	29.2	3.02e+01	59	32	101	524288	56	5772
2026-01-06 16:25:14.82	195.48	37.42	-37.8	-39.0	29.1	3.02e+01	54	32	101	524288	56	5857
2026-01-06 16:25:15.83	195.53	37.13	-38.0	-39.3	28.8	3.02e+01	50	32	101	524288	56	6007
2026-01-06 16:25:16.84	195.58	36.85	-37.5	-38.7	29.2	3.02e+01	55	32	101	524288	56	5637
2026-01-06 16:25:17.85	195.63	36.57	-37.1	-38.3	29.7	3.02e+01	60	32	101	524288	54	6013
2026-01-06 16:25:18.86	195.67	36.29	-36.6	-37.8	30.1	3.02e+01	59	32	101	524288	54	5683
2026-01-06 16:25:19.87	195.72	36.01	-36.5	-37.7	30.2	3.02e+01	57	32	101	524288	54	5623
2026-01-06 16:25:20.88	195.77	35.74	-36.4	-37.6	30.2	3.02e+01	60	32	101	524288	54	5550
2026-01-06 16:25:21.89	195.81	35.47	-36.4	-37.6	30.2	3.02e+01	58	32	101	524288	52	6261
2026-01-06 16:25:22.90	195.86	35.20	-36.1	-37.3	30.4	3.02e+01	58	32	101	524288	52	6032
2026-01-06 16:25:23.91	195.90	34.93	-36.1	-37.2	30.4	3.02e+01	53	32	101	524288	52	5974
2026-01-06 16:25:24.92	195.94	34.67	-36.1	-37.2	30.5	3.02e+01	60	32	101	524288	52	5990
2026-01-06 16:25:25.93	195.98	34.41	-36.2	-37.4	30.3	3.02e+01	59	32	101	524288	52	6071
2026-01-06 16:25:26.94	196.03	34.15	-36.1	-37.3	30.4	3.02e+01	59	32	101	524288	52	6002
2026-01-06 16:25:27.94	196.07	33.89	-36.3	-37.5	30.3	3.02e+01	57	32	101	524288	52	6174
2026-01-06 16:25:28.95	196.11	33.64	-36.7	-37.9	30.1	3.02e+01	55	32	101	524288	52	6424
2026-01-06 16:25:29.96	196.15	33.38	-37.0	-38.2	29.7	3.02e+01	57	32	101	524288	52	6658
2026-01-06 16:25:30.96	196.19	33.14	-37.1	-38.4	29.6	3.02e+01	62	32	101	524288	52	6822
2026-01-06 16:25:31.97	196.22	32.89	-37.0	-38.2	29.6	3.02e+01	52	32	101	524288	52	6685
2026-01-06 16:25:32.98	196.26	32.64	-37.0	-38.2	29.7	3.02e+01	58	32	101	524288	52	6678
2026-01-06 16:25:33.98	196.30	32.40	-37.2	-38.4	29.5	3.02e+01	57	32	101	524288	52	6844
2026-01-06 16:25:34.98	196.34	32.16	-37.7	-38.9	29.1	3.02e+01	58	32	101	524288	54	6463
2026-01-06 16:25:35.99	196.37	31.92	-37.7	-39.0	29.1	3.02e+01	62	32	101	524288	54	6505
2026-01-06 16:25:37.00	196.41	31.68	-37.2	-38.4	29.6	3.02e+01	46	32	101	524288	54	6101
2026-01-06 16:25:38.00	196.45	31.45	-37.0	-38.2	29.6	3.02e+01	55	32	101	524288	54	5951
2026-01-06 16:25:39.01	196.48	31.21	-37.1	-38.2	29.6	3.02e+01	60	32	101	524288	54	5991
2026-01-06 16:25:40.01	196.52	30.99	-37.3	-38.5	29.5	3.02e+01	48	32	101	524288	54	6173
2026-01-06 16:25:41.02	196.55	30.76	-37.4	-38.7	29.3	3.02e+01	59	32	101	524288	54	6278
2026-01-06 16:25:42.02	196.58	30.53	-37.3	-38.5	29.4	3.02e+01	61	32	101	524288	54	6187
2026-01-06 16:25:43.03	196.62	30.30	-37.2	-38.4	29.3	3.02e+01	60	32	101	524288	54	6084
2026-01-06 16:25:44.04	196.65	30.08	-37.1	-38.3	29.6	3.02e+01	60	32	101	524288	54	6001
2026-01-06 16:25:45.04	196.68	29.86	-37.1	-38.3	29.6	3.02e+01	47	32	101	524288	54	6033
2026-01-06 16:25:46.05	196.71	29.64	-37.0	-38.2	29.7	3.02e+01	57	32	101	524288	54	5953
2026-01-06 16:25:47.05	196.75	29.42	-37.1	-38.3	29.6	3.02e+01	63	32	101	524288	54	6012
2026-01-06 16:25:48.06	196.78	29.20	-37.3	-38.5	29.3	3.02e+01	44	32	101	524288	54	6201
2026-01-06 16:25:49.07	196.81	28.99	-37.4	-38.6	29.4	3.02e+01	57	32	101	524288	54	6252
2026-01-06 16:25:50.07	196.84	28.78	-37.4	-38.6	29.3	3.02e+01	59	32	101	524288	54	6261
2026-01-06 16:25:51.08	196.87	28.57	-37.3	-38.5	29.3	3.02e+01	61	32	101	524288	54	6194
2026-01-06 16:25:52.08	196.90	28.36	-37.3	-38.5	29.4	3.02e+01	59	32	101	524288	54	6172
2026-01-06 16:25:53.09	196.93	28.15	-37.3	-38.5	29.3	3.02e+01	57	32	101	524288	54	6191
2026-01-06 16:25:54.09	196.96	27.94	-37.6	-38.9	29.1	3.02e+01	56	32	101	524288	54	6434
2026-01-06 16:25:55.10	196.99	27.74	-37.9	-39.2	28.8	3.02e+01	58	32	101	524288	54	6691
2026-01-06 16:25:56.11	197.02	27.54	-38.1	-39.3	28.7	3.02e+01	56	32	101	524288	54	6795
2026-01-06 16:25:57.11	197.04	27.34	-38.0	-39.3	28.8	3.02e+01	58	32	101	524288	54	6741
2026-01-06 16:25:58.12	197.07	27.14	-38.1	-39.4	28.6	3.02e+01	45	32	101	524288	54	6817
2026-01-06 16:25:59.12	197.10	26.94	-38.2	-39.4	28.6	3.02e+01	53	32	101	524288	54	6880
2026-01-06 16:26:00.13	197.13	26.74	-38.3	-39.6	28.4	3.02e+01	61	32	101	524288	54	7004
2026-01-06 16:26:01.13	197.15	26.55	-38.3	-39.6	28.6	3.02e+01	52	32	101	524288	56	6238
2026-01-06 16:26:02.14	197.18	26.35	-38.3	-39.5	28.6	3.02e+01	60	32	101	524288	56	6200
2026-01-06 16:26:03.15	197.21	26.16	-38.2	-39.5	28.7	3.02e+01	56	32	101	524288	56	6147
2026-01-06 16:26:04.15	197.23	25.97	-38.1	-39.4	28.7	3.02e+01	60	32	101	524288	56	6122
2026-01-06 16:26:05.16	197.26	25.78	-38.2	-39.5	28.7	3.02e+01	62	32	101	524288	56	6172
2026-01-06 16:26:06.16	197.28	25.60	-38.2	-39.5	28.7	3.02e+01	47	32	101	524288	56	6191
2026-01-06 16:26:07.17	197.31	25.41	-38.5	-39.8	28.4	3.02e+01	64	32	101	524288	56	6375
2026-01-06 16:26:08.18	197.33	25.22	-38.6	-39.9	28.3	3.02e+01	57	32	101	524288	56	6477
2026-01-06 16:26:09.18	197.36	25.04	-38.5	-39.8	28.3	3.02e+01	45	32	101	524288	56	6405
2026-01-06 16:26:10.19	197.38	24.86	-38.5	-39.8	28.3	3.02e+01	61	32	101	524288	56	6403
2026-01-06 16:26:11.19	197.41	24.68	-38.2	-39.5	28.6	3.02e+01	60	32	101	524288	56	6158
2026-01-06 16:26:12.20	197.43	24.50	-38.0	-39.2	28.9	3.02e+01	59	32	101	524288	56	5980
2026-01-06 16:26:13.21	197.46	24.32	-37.9	-39.2	29.0	3.02e+01	57	32	101	524288	56	5927
2026-01-06 16:26:14.22	197.48	24.14	-37.8	-39.0	29.0	3.02e+01	45	32	101	524288	56	5847
2026-01-06 16:26:15.23	197.50	23.97	-37.7	-38.9	29.2	3.02e+01	59	32	101	524288	56	5749
2026-01-06 16:26:16.24	197.53	23.79	-37.6	-38.9	29.1	3.02e+01	57	32	101	524288	56	5736
2026-01-06 16:26:17.25	197.55	23.62	-37.3	-38.5	29.5	3.02e+01	45	32	101	524288	54	6153
2026-01-06 16:26:18.26	197.57	23.44	-37.1	-38.3	29.7	3.02e+01	58	32	101	524288	54	6006
2026-01-06 16:26:19.27	197.59	23.27	-36.9	-38.1	29.8	3.02e+01	60	32	101	524288	54	5906
2026-01-06 16:26:20.28	197.62	23.10	-36.9	-38.1	29.8	3.02e+01	62	32	101	524288	54	5911
2026-01-06 16:26:21.29	197.64	22.93	-36.8	-38.0	29.8	3.02e+01	57	32	101	524288	54	5837
2026-01-06 16:26:22.30	197.66	22.77	-36.8	-38.0	29.8	3.02e+01	64	32	101	524288	54	5842
2026-01-06 16:26:23.31	197.68	22.60	-36.6	-37.8	30.0	3.02e+01	59	32	101	524288	54	5695
2026-01-06 16:26:24.32	197.70	22.44	-36.4	-37.6	30.2	3.02e+01	59	32	101	524288	54	5556
2026-01-06 16:26:25.33	197.72	22.27	-36.2	-37.3	30.4	3.02e+01	51	32	101	524288	52	6062
2026-01-06 16:26:26.34	197.75	22.11	-36.3	-37.5	30.3	3.02e+01	57	32	101	524288	52	6148
2026-01-06 16:26:27.35	197.77	21.95	-36.1	-37.3	30.5	3.02e+01	56	32	101	524288	52	6022
2026-01-06 16:26:28.37	197.79	21.78	-36.1	-37.3	30.4	3.02e+01	58	32	101	524288	52	6007
2026-01-06 16:26:29.38	197.81	21.63	-36.1	-37.3	30.4	3.02e+01	60	32	101	524288	52	6023
2026-01-06 16:26:30.39	197.83	21.47	-36.1	-37.3	30.3	3.02e+01	56	32	101	524288	52	6023
2026-01-06 16:26:31.40	197.85	21.31	-36.2	-37.4	30.4	3.02e+01	58	32	101	524288	52	6076
2026-01-06 16:26:32.41	197.87	21.15	-36.2	-37.3	30.2	3.02e+01	60	32	101	524288	52	6053
2026-01-06 16:26:33.42	197.89	21.00	-36.2	-37.4	30.3	3.02e+01	47	32	101	524288	52	6088
2026-01-06 16:26:34.43	197.91	20.84	-36.2	-37.4	30.2	3.02e+01	58	32	101	524288	52	6065
2026-01-06 16:26:35.44	197.93	20.69	-36.1	-37.3	30.4	3.02e+01	49	32	101	524288	52	6043
2026-01-06 16:26:36.45	197.95	20.54	-36.2	-37.4	30.2	3.02e+01	58	32	101	524288	52	6078
2026-01-06 16:26:37.46	197.97	20.39	-36.2	-37.4	30.3	3.02e+01	55	32	101	524288	52	6080
2026-01-06 16:26:38.47	197.98	20.24	-36.3	-37.5	30.3	3.02e+01	51	32	101	524288	52	6139
2026-01-06 16:26:39.48	198.00	20.09	-36.3	-37.5	30.2	3.02e+01	57	32	101	524288	52	6191
2026-01-06 16:26:40.49	198.02	19.94	-36.5	-37.7	30.1	3.02e+01	51	32	101	524288	52	6282
2026-01-06 16:26:41.50	198.04	19.79	-36.6	-37.8	29.9	3.02e+01	56	32	101	524288	52	6371
2026-01-06 16:26:42.51	198.06	19.65	-36.6	-37.8	29.8	3.02e+01	59	32	101	524288	52	6397
2026-01-06 16:26:43.52	198.08	19.50	-36.6	-37.9	29.8	3.02e+01	46	32	101	524288	52	6426
2026-01-06 16:26:44.54	198.09	19.35	-36.5	-37.7	29.9	3.02e+01	63	32	101	524288	52	6332
2026-01-06 16:26:45.55	198.11	19.21	-36.6	-37.8	29.9	3.02e+01	58	32	101	524288	52	6353
2026-01-06 16:26:46.56	198.13	19.07	-36.5	-37.7	30.0	3.02e+01	51	32	101	524288	52	6299
2026-01-06 16:26:47.57	198.15	18.93	-36.5	-37.7	30.0	3.02e+01	58	32	101	524288	52	6288
2026-01-06 16:26:48.58	198.17	18.78	-36.5	-37.7	30.0	3.02e+01	60	32	101	524288	52	6320
2026-01-06 16:26:49.59	198.18	18.64	-36.5	-37.7	30.0	3.02e+01	60	32	101	524288	52	6320
2026-01-06 16:26:50.60	198.20	18.51	-36.6	-37.7	30.0	3.02e+01	58	32	101	524288	52	6341
2026-01-06 16:26:51.61	198.22	18.37	-36.6	-37.8	29.9	3.02e+01	57	32	101	524288	52	6382
2026-01-06 16:26:52.62	198.23	18.23	-36.6	-37.8	29.9	3.02e+01	58	32	101	524288	52	6403
2026-01-06 16:26:53.63	198.25	18.09	-36.6	-37.8	30.0	3.02e+01	61	32	101	524288	52	6357
2026-01-06 16:26:54.64	198.27	17.96	-36.6	-37.7	29.9	3.02e+01	44	32	101	524288	52	6347
2026-01-06 16:26:55.65	198.28	17.82	-36.6	-37.8	30.0	3.02e+01	60	32	101	524288	52	6375
2026-01-06 16:26:56.66	198.30	17.69	-36.7	-37.9	29.8	3.02e+01	53	32	101	524288	52	6469
2026-01-06 16:26:57.67	198.32	17.56	-36.7	-37.9	29.9	3.02e+01	56	32	101	524288	52	6456
2026-01-06 16:26:58.68	198.33	17.42	-36.9	-38.1	29.7	3.02e+01	61	32	101	524288	52	6600
2026-01-06 16:26:59.69	198.35	17.29	-36.9	-38.1	29.7	3.02e+01	44	32	101	524288	52	6621
2026-01-06 16:27:00.71	198.37	17.16	-37.0	-38.2	29.6	3.02e+01	59	32	101	524288	52	6680
2026-01-06 16:27:01.72	198.38	17.03	-37.1	-38.3	29.5	3.02e+01	59	32	101	524288	52	6783
2026-01-06 16:27:02.73	198.40	16.90	-37.2	-38.4	29.4	3.02e+01	53	32	101	524288	52	6863
2026-01-06 16:27:03.74	198.41	16.77	-37.2	-38.4	29.4	3.02e+01	57	32	101	524288	52	6876
2026-01-06 16:27:04.75	198.43	16.64	-37.3	-38.6	29.3	3.02e+01	58	32	101	524288	52	6978
2026-01-06 16:27:05.76	198.44	16.51	-37.4	-38.6	29.3	3.02e+01	59	32	101	524288	54	6227
2026-01-06 16:27:06.77	198.46	16.39	-37.3	-38.6	29.2	3.02e+01	61	32	101	524288	54	6220
2026-01-06 16:27:07.78	198.47	16.26	-37.3	-38.6	29.3	3.02e+01	57	32	101	524288	54	6214
2026-01-06 16:27:08.79	198.49	16.14	-37.4	-38.6	29.2	3.02e+01	62	32	101	524288	54	6242
2026-01-06 16:27:09.80	198.50	16.01	-37.3	-38.5	29.3	3.02e+01	61	32	101	524288	54	6192
2026-01-06 16:27:10.81	198.52	15.89	-37.3	-38.5	29.3	3.02e+01	59	32	101	524288	54	6196
2026-01-06 16:27:11.82	198.53	15.77	-37.3	-38.5	29.2	3.02e+01	60	32	101	524288	54	6191
2026-01-06 16:27:12.83	198.55	15.64	-37.3	-38.5	29.4	3.02e+01	44	32	101	524288	54	6173
2026-01-06 16:27:13.84	198.56	15.52	-37.4	-38.7	29.2	3.02e+01	58	32	101	524288	54	6284
2026-01-06 16:27:14.85	198.58	15.40	-37.2	-38.4	29.4	3.02e+01	59	32	101	524288	54	6130
2026-01-06 16:27:15.86	198.59	15.28	-37.3	-38.5	29.3	3.02e+01	44	32	101	524288	54	6174
2026-01-06 16:27:16.87	198.61	15.16	-37.2	-38.4	29.3	3.02e+01	56	32	101	524288	54	6086
2026-01-06 16:27:17.88	198.62	15.04	-37.2	-38.4	29.4	3.02e+01	59	32	101	524288	54	6087
2026-01-06 16:27:18.90	198.64	14.92	-37.2	-38.4	29.4	3.02e+01	54	32	101	524288	54	6092
2026-01-06 16:27:19.91	198.65	14.80	-37.2	-38.5	29.4	3.02e+01	60	32	101	524288	54	6138
2026-01-06 16:27:20.92	198.66	14.69	-37.2	-38.4	29.4	3.02e+01	56	32	101	524288	54	6102
2026-01-06 16:27:21.93	198.68	14.57	-37.3	-38.5	29.3	3.02e+01	61	32	101	524288	54	6152
2026-01-06 16:27:22.94	198.69	14.46	-37.3	-38.5	29.3	3.02e+01	58	32	101	524288	54	6150
2026-01-06 16:27:23.95	198.70	14.34	-37.1	-38.3	29.4	3.02e+01	46	32	101	524288	54	6042
2026-01-06 16:27:24.96	198.72	14.23	-37.2	-38.4	29.4	3.02e+01	60	32	101	524288	54	6085
2026-01-06 16:27:25.97	198.73	14.11	-37.2	-38.4	29.3	3.02e+01	63	32	101	524288	54	6096
2026-01-06 16:27:26.98	198.75	14.00	-37.0	-38.2	29.5	3.02e+01	56	32	101	524288	54	5941
2026-01-06 16:27:27.99	198.76	13.88	-37.1	-38.3	29.4	3.02e+01	58	32	101	524288	54	6020
2026-01-06 16:27:29.00	198.77	13.77	-37.0	-38.2	29.5	3.02e+01	47	32	101	524288	54	5958
2026-01-06 16:27:30.01	198.79	13.66	-37.0	-38.2	29.5	3.02e+01	61	32	101	524288	54	5951
2026-01-06 16:27:31.02	198.80	13.55	-37.0	-38.2	29.6	3.02e+01	62	32	101	524288	54	5930
2026-01-06 16:27:32.04	198.81	13.44	-36.9	-38.1	29.6	3.02e+01	44	32	101	524288	54	5908
2026-01-06 16:27:33.05	198.82	13.33	-37.1	-38.3	29.4	3.02e+01	61	32	101	524288	54	6054
2026-01-06 16:27:34.06	198.84	13.22	-37.2	-38.4	29.4	3.02e+01	53	32	101	524288	54	6066
2026-01-06 16:27:35.07	198.85	13.11	-37.2	-38.4	29.4	3.02e+01	59	32	101	524288	54	6128
2026-01-06 16:27:36.08	198.86	13.00	-37.0	-38.2	29.6	3.02e+01	59	32	101	524288	54	5952
2026-01-06 16:27:37.09	198.88	12.89	-37.1	-38.3	29.5	3.02e+01	55	32	101	524288	54	6019
2026-01-06 16:27:38.10	198.89	12.79	-37.0	-38.2	29.6	3.02e+01	50	32	101	524288	54	5964
2026-01-06 16:27:39.11	198.90	12.68	-37.0	-38.2	29.6	3.02e+01	57	32	101	524288	54	5964
2026-01-06 16:27:40.12	198.91	12.57	-37.0	-38.2	29.5	3.02e+01	55	32	101	524288	54	5982
2026-01-06 16:27:41.13	198.93	12.47	-36.9	-38.1	29.6	3.02e+01	62	32	101	524288	54	5921
2026-01-06 16:27:42.14	198.94	12.36	-37.0	-38.2	29.5	3.02e+01	46	32	101	524288	54	5970
2026-01-06 16:27:43.15	198.95	12.26	-37.0	-38.2	29.6	3.02e+01	60	32	101	524288	54	5944
2026-01-06 16:27:44.16	198.96	12.15	-37.0	-38.2	29.5	3.02e+01	60	32	101	524288	54	5976
2026-01-06 16:27:45.17	198.97	12.05	-37.0	-38.2	29.6	3.02e+01	51	32	101	524288	54	5937
2026-01-06 16:27:46.18	198.99	11.94	-37.0	-38.2	29.6	3.02e+01	60	32	101	524288	54	5989
2026-01-06 16:27:47.19	199.00	11.84	-37.0	-38.2	29.6	3.02e+01	60	32	101	524288	54	5992
2026-01-06 16:27:48.20	199.01	11.74	-37.0	-38.2	29.5	3.02e+01	59	32	101	524288	54	5972
2026-01-06 16:27:49.21	199.02	11.64	-37.0	-38.3	29.5	3.02e+01	57	32	101	524288	54	5997
2026-01-06 16:27:50.22	199.03	11.54	-37.1	-38.3	29.5	3.02e+01	47	32	101	524288	54	6014
2026-01-06 16:27:51.23	199.05	11.43	-37.1	-38.3	29.4	3.02e+01	59	32	101	524288	54	6026
2026-01-06 16:27:52.24	199.06	11.33	-37.0	-38.2	29.5	3.02e+01	58	32	101	524288	54	5991
2026-01-06 16:27:53.25	199.07	11.23	-37.1	-38.3	29.4	3.02e+01	45	32	101	524288	54	6028
2026-01-06 16:27:54.26	199.08	11.13	-37.0	-38.2	29.5	3.02e+01	55	32	101	524288	54	5957
2026-01-06 16:27:55.27	199.09	11.04	-37.0	-38.2	29.5	3.02e+01	60	32	101	524288	54	5956
2026-01-06 16:27:56.28	199.10	10.94	-37.0	-38.2	29.5	3.02e+01	61	32	101	524288	54	5958
2026-01-06 16:27:57.29	199.12	10.84	-37.0	-38.2	29.5	3.02e+01	59	32	101	524288	54	5969
2026-01-06 16:27:58.30	199.13	10.74	-36.9	-38.1	29.5	3.02e+01	57	32	101	524288	54	5919
2026-01-06 16:27:59.31	199.14	10.64	-37.0	-38.2	29.4	3.02e+01	62	32	101	524288	54	5979
2026-01-06 16:28:00.32	199.15	10.55	-36.9	-38.1	29.5	3.02e+01	57	32	101	524288	54	5914
2026-01-06 16:28:01.33	199.16	10.45	-36.9	-38.1	29.5	3.02e+01	51	32	101	524288	54	5901
2026-01-06 16:28:02.34	199.17	10.35	-36.9	-38.1	29.5	3.02e+01	60	32	101	524288	54	5909
2026-01-06 16:28:03.35	199.18	10.26	-37.0	-38.2	29.5	3.02e+01	59	32	101	524288	54	5940
2026-01-06 16:28:04.36	199.19	10.16	-36.9	-38.0	29.6	3.02e+01	60	32	101	524288	54	5855
2026-01-06 16:28:05.37	199.20	10.07	-36.8	-38.0	29.7	3.02e+01	58	32	101	524288	54	5820
2026-01-06 16:28:06.39	199.22	9.97	-36.8	-38.0	29.6	3.02e+01	58	32	101	524288	54	5829
2026-01-06 16:28:07.40	199.23	9.88	-36.8	-38.0	29.6	3.02e+01	57	32	101	524288	54	5801
2026-01-06 16:28:08.41	199.24	9.78	-36.8	-37.9	29.7	3.02e+01	61	32	101	524288	54	5787
2026-01-06 16:28:09.42	199.25	9.69	-36.8	-38.0	29.7	3.02e+01	45	32	101	524288	54	5801
