passes_logs/2026/01/06/R4.6S_Anadyr_2ch/R4.6S_Anadyr_2ch__20260106_020842_SUOMI_NPP_rec.log

#Pass ID: 20260106_020842_SUOMI NPP
#Satellite: SUOMI NPP
#Configuration: NPP
#almurnet v.1.7.20251203
#Start time: 2026-01-06 02:08:44

#Version: 2.2.20231116
#Station: R4.6S_Anadyr_2ch
#Location: 177.4865 lon 64.73178 lat
#TLE: 1 37849U 11061A   25350.92281687  .00000071  00000+0  54882-4 0  9996
#TLE: 2 37849  98.7777 288.2268 0002366 112.8570 247.2856 14.19515404732588

#Time	Az	El	Level	Level2	SNR	BER	BlckErr	Temp	State	Recorded	gain1	gain2
2026-01-06 02:08:44.09	204.34	0.10	-51.1	-63.8	3.5	1.52e+00	0	29	0	0	60	73499
2026-01-06 02:08:45.10	204.40	0.15	-51.3	-66.7	3.6	1.51e+00	0	30	104	0	60	105563
2026-01-06 02:08:46.11	204.46	0.20	-51.3	-66.7	3.6	1.51e+00	0	30	104	0	60	105675
2026-01-06 02:08:47.12	204.52	0.26	-51.1	-66.7	3.6	1.51e+00	0	30	104	0	60	104874
2026-01-06 02:08:48.13	204.58	0.31	-51.2	-66.7	3.6	1.51e+00	0	30	104	0	60	104928
2026-01-06 02:08:49.14	204.64	0.37	-51.3	-66.7	3.6	1.51e+00	0	30	104	0	60	105002
2026-01-06 02:08:50.15	204.70	0.42	-51.2	-66.6	3.6	1.51e+00	0	30	104	0	60	103937
2026-01-06 02:08:51.17	204.76	0.48	-51.1	-66.6	3.6	1.51e+00	0	30	104	0	60	103798
2026-01-06 02:08:52.18	204.82	0.53	-50.8	-66.4	3.6	1.51e+00	0	30	104	0	60	102445
2026-01-06 02:08:53.19	204.88	0.59	-50.8	-66.4	3.6	1.51e+00	0	30	104	0	60	102287
2026-01-06 02:08:54.20	204.94	0.64	-50.8	-66.3	3.6	1.51e+00	0	30	104	0	60	100839
2026-01-06 02:08:55.21	205.01	0.70	-50.7	-66.1	3.6	1.51e+00	0	30	104	0	60	98652
2026-01-06 02:08:56.22	205.07	0.75	-50.4	-65.8	3.6	1.51e+00	0	30	104	0	60	95302
2026-01-06 02:08:57.23	205.13	0.81	-49.9	-65.3	3.6	1.51e+00	0	30	104	0	60	89723
2026-01-06 02:08:58.24	205.19	0.86	-49.9	-65.2	3.6	1.51e+00	0	30	104	0	60	88790
2026-01-06 02:08:59.26	205.26	0.92	-49.9	-65.2	3.6	1.51e+00	0	30	104	0	60	88847
2026-01-06 02:09:00.27	205.32	0.97	-49.9	-65.2	3.6	1.51e+00	0	31	104	0	60	88740
2026-01-06 02:09:01.28	205.38	1.03	-49.9	-65.1	3.6	1.51e+00	0	31	104	0	60	88034
2026-01-06 02:09:02.29	205.44	1.08	-49.9	-65.2	3.6	1.51e+00	0	31	104	0	60	88300
2026-01-06 02:09:03.30	205.51	1.14	-49.9	-65.1	3.6	1.51e+00	0	31	104	0	60	87377
2026-01-06 02:09:04.31	205.57	1.19	-49.9	-65.0	3.6	1.51e+00	0	31	104	0	60	86941
2026-01-06 02:09:05.32	205.64	1.25	-49.9	-65.2	3.6	1.51e+00	0	31	104	0	60	88253
2026-01-06 02:09:06.33	205.70	1.31	-49.9	-65.1	3.6	1.51e+00	0	31	104	0	60	88024
2026-01-06 02:09:07.34	205.76	1.36	-49.9	-65.2	3.6	1.51e+00	0	31	104	0	60	88838
2026-01-06 02:09:08.35	205.83	1.42	-49.9	-65.2	3.6	1.51e+00	0	31	104	0	60	88686
2026-01-06 02:09:09.36	205.89	1.47	-49.9	-65.2	3.6	1.51e+00	0	31	104	0	60	88819
2026-01-06 02:09:10.37	205.96	1.53	-49.9	-65.2	3.6	1.51e+00	0	31	104	0	60	88911
2026-01-06 02:09:11.38	206.02	1.59	-49.9	-65.2	3.6	1.51e+00	0	31	104	0	60	88919
2026-01-06 02:09:12.40	206.09	1.64	-49.9	-65.2	3.6	1.51e+00	0	31	104	0	60	88744
2026-01-06 02:09:13.41	206.16	1.70	-49.9	-65.2	3.5	1.51e+00	0	31	104	0	60	89176
2026-01-06 02:09:14.42	206.22	1.76	-49.9	-65.2	3.6	1.51e+00	0	31	104	0	60	88876
2026-01-06 02:09:15.43	206.29	1.81	-49.9	-65.1	3.6	1.51e+00	0	31	104	0	60	88188
2026-01-06 02:09:16.44	206.36	1.87	-49.9	-65.1	3.6	1.51e+00	0	31	104	0	60	88088
2026-01-06 02:09:17.45	206.42	1.93	-49.9	-65.2	3.6	1.51e+00	0	31	104	0	60	88360
2026-01-06 02:09:18.46	206.49	1.98	-49.9	-65.1	3.6	1.51e+00	0	31	104	0	60	87790
2026-01-06 02:09:19.47	206.56	2.04	-49.9	-65.1	3.6	1.51e+00	0	31	104	0	60	87993
2026-01-06 02:09:20.49	206.62	2.10	-49.8	-65.2	3.6	1.51e+00	0	31	104	0	60	88423
2026-01-06 02:09:21.50	206.69	2.15	-49.8	-65.1	3.6	1.51e+00	0	31	104	0	60	87850
2026-01-06 02:09:22.51	206.76	2.21	-49.8	-65.1	3.6	1.51e+00	0	31	104	0	60	87865
2026-01-06 02:09:23.52	206.83	2.27	-49.8	-65.2	3.5	1.51e+00	0	31	104	0	60	88575
2026-01-06 02:09:24.53	206.90	2.33	-49.8	-65.2	3.6	1.51e+00	0	31	104	0	60	88851
2026-01-06 02:09:25.54	206.97	2.38	-49.8	-65.1	3.6	1.51e+00	0	31	104	0	60	87883
2026-01-06 02:09:26.55	207.03	2.44	-49.8	-64.6	3.6	1.51e+00	0	31	104	0	60	83066
2026-01-06 02:09:27.56	207.10	2.50	-49.8	-63.9	3.6	1.51e+00	0	31	104	0	60	76106
2026-01-06 02:09:28.57	207.17	2.56	-49.8	-63.1	3.6	1.51e+00	0	31	104	0	60	69875
2026-01-06 02:09:29.58	207.24	2.61	-49.8	-63.3	3.6	1.51e+00	0	31	104	0	60	70912
2026-01-06 02:09:30.59	207.31	2.67	-49.8	-64.0	3.6	1.51e+00	0	31	104	0	60	77631
2026-01-06 02:09:31.61	207.38	2.73	-49.8	-64.1	3.6	1.51e+00	0	31	104	0	60	78209
2026-01-06 02:09:32.62	207.45	2.79	-49.6	-61.1	3.8	1.50e+00	0	31	104	0	60	55657
2026-01-06 02:09:33.63	207.53	2.85	-49.2	-57.2	6.9	5.26e-01	92	31	104	0	60	35413
2026-01-06 02:09:34.64	207.60	2.90	-48.4	-53.4	10.5	5.28e-02	51	31	0	0	60	22873
2026-01-06 02:09:35.65	207.67	2.96	-47.4	-51.2	12.9	3.02e-04	92	31	102	1048576	60	17617
2026-01-06 02:09:36.66	207.74	3.02	-46.7	-49.8	14.3	4.50e-06	0	31	102	1048576	60	15112
2026-01-06 02:09:37.67	207.81	3.08	-46.3	-49.1	15.1	0.00e+00	92	31	102	1048576	60	13885
2026-01-06 02:09:38.68	207.88	3.14	-46.0	-48.7	15.4	0.00e+00	0	31	102	1048576	60	13310
2026-01-06 02:09:39.69	207.96	3.20	-48.3	-53.5	7.1	0.00e+00	92	31	102	1048576	60	23090
2026-01-06 02:09:40.70	208.03	3.25	-49.1	-56.6	4.9	1.50e+00	0	31	104	1048576	60	32804
2026-01-06 02:09:41.72	208.10	3.31	-47.4	-51.4	12.2	6.10e-06	57	31	104	1048576	60	18096
2026-01-06 02:09:42.73	208.18	3.37	-49.7	-61.7	3.6	6.98e-01	0	31	104	1048576	60	59481
2026-01-06 02:09:43.74	208.25	3.43	-44.2	-46.0	6.1	1.50e+00	0	31	104	1048576	60	9764
2026-01-06 02:09:44.75	208.32	3.49	-45.2	-47.4	17.0	0.00e+00	70	31	0	1048576	60	11395
2026-01-06 02:09:45.76	208.40	3.55	-45.4	-47.6	16.9	0.00e+00	0	31	0	1048576	60	11660
2026-01-06 02:09:46.77	208.47	3.61	-45.8	-48.2	16.1	0.00e+00	90	31	0	1048576	60	12580
2026-01-06 02:09:47.78	208.55	3.67	-45.5	-47.8	16.4	0.00e+00	44	31	0	1048576	60	11908
2026-01-06 02:09:48.79	208.62	3.73	-45.5	-47.7	16.8	0.00e+00	90	31	0	1048576	60	11873
2026-01-06 02:09:49.80	208.70	3.79	-45.5	-47.7	16.7	0.00e+00	92	31	0	1048576	60	11848
2026-01-06 02:09:50.81	208.77	3.85	-45.1	-47.2	17.4	0.00e+00	0	31	0	1048576	60	11137
2026-01-06 02:09:51.82	208.85	3.91	-44.2	-46.0	18.2	0.00e+00	87	31	0	1048576	60	9750
2026-01-06 02:09:52.84	208.92	3.97	-43.8	-45.4	19.0	0.00e+00	0	31	0	1048576	60	9076
2026-01-06 02:09:53.85	209.00	4.03	-43.7	-45.4	19.1	0.00e+00	92	31	0	1048576	60	9042
2026-01-06 02:09:54.86	209.08	4.09	-43.1	-44.6	19.6	0.00e+00	45	31	0	1048576	60	8270
2026-01-06 02:09:55.87	209.15	4.15	-43.2	-44.7	19.5	0.00e+00	92	31	0	1048576	60	8393
2026-01-06 02:09:56.88	209.23	4.21	-43.1	-44.6	19.8	0.00e+00	92	31	0	1048576	60	8251
2026-01-06 02:09:57.89	209.31	4.27	-43.1	-44.6	19.7	0.00e+00	0	31	0	1048576	60	8272
2026-01-06 02:09:58.90	209.39	4.33	-42.9	-44.2	20.0	0.00e+00	92	31	0	1048576	60	7947
2026-01-06 02:09:59.91	209.47	4.39	-42.9	-44.3	20.1	0.00e+00	0	31	0	1048576	60	7983
2026-01-06 02:10:00.92	209.54	4.45	-42.9	-44.3	19.9	0.00e+00	92	31	0	1048576	60	8038
2026-01-06 02:10:01.93	209.62	4.51	-42.9	-44.3	20.0	0.00e+00	0	31	0	1048576	60	8043
2026-01-06 02:10:02.94	209.70	4.57	-42.8	-44.2	20.0	0.00e+00	92	31	101	1048576	60	7924
2026-01-06 02:10:03.96	209.78	4.63	-42.8	-44.1	20.1	0.00e+00	92	31	101	1048576	60	7851
2026-01-06 02:10:04.97	209.86	4.69	-42.6	-44.0	20.3	0.00e+00	0	31	101	1048576	60	7694
2026-01-06 02:10:05.98	209.94	4.75	-42.5	-43.8	20.6	0.00e+00	45	31	101	1048576	60	7580
2026-01-06 02:10:06.99	210.02	4.81	-42.5	-43.8	20.5	0.00e+00	0	31	101	1048576	60	7582
2026-01-06 02:10:08.00	210.10	4.87	-42.5	-43.8	20.5	0.00e+00	92	31	101	1048576	60	7581
2026-01-06 02:10:09.01	210.19	4.94	-42.5	-43.8	20.5	0.00e+00	0	31	101	1048576	60	7579
2026-01-06 02:10:10.02	210.27	5.00	-42.3	-43.6	20.8	0.00e+00	92	31	101	1048576	60	7354
2026-01-06 02:10:11.03	210.35	5.06	-42.2	-43.4	20.9	0.00e+00	92	31	101	1048576	60	7205
2026-01-06 02:10:12.04	210.43	5.12	-42.2	-43.4	21.0	0.00e+00	0	31	101	1048576	60	7208
2026-01-06 02:10:13.06	210.51	5.18	-41.9	-43.1	21.1	0.00e+00	86	31	101	1048576	60	6935
2026-01-06 02:10:14.07	210.60	5.24	-41.9	-43.0	21.2	0.00e+00	0	31	101	1048576	60	6922
2026-01-06 02:10:15.08	210.68	5.31	-41.9	-43.1	21.2	0.00e+00	92	31	101	1048576	60	6961
2026-01-06 02:10:16.09	210.76	5.37	-42.1	-43.3	21.0	0.00e+00	0	31	101	1048576	60	7153
2026-01-06 02:10:17.10	210.85	5.43	-41.8	-43.0	21.2	0.00e+00	92	31	101	1048576	60	6864
2026-01-06 02:10:18.11	210.93	5.49	-41.9	-43.0	21.2	0.00e+00	92	31	101	1048576	60	6923
2026-01-06 02:10:19.12	211.01	5.55	-42.0	-43.2	21.2	0.00e+00	0	31	101	1048576	60	7026
2026-01-06 02:10:20.13	211.10	5.62	-41.9	-43.1	21.2	0.00e+00	90	31	101	1048576	60	6929
2026-01-06 02:10:21.14	211.18	5.68	-42.2	-43.4	20.9	0.00e+00	0	31	101	1048576	60	7228
2026-01-06 02:10:22.15	211.27	5.74	-42.3	-43.6	20.9	0.00e+00	90	31	101	1048576	60	7343
2026-01-06 02:10:23.17	211.36	5.80	-42.2	-43.5	20.8	0.00e+00	0	31	101	1048576	60	7297
2026-01-06 02:10:24.18	211.44	5.87	-42.4	-43.7	20.7	0.00e+00	90	31	101	1048576	60	7444
2026-01-06 02:10:25.19	211.53	5.93	-42.2	-43.4	21.0	0.00e+00	2	31	101	1048576	60	7225
2026-01-06 02:10:26.20	211.62	5.99	-42.0	-43.2	21.0	0.00e+00	92	31	101	1048576	60	7062
2026-01-06 02:10:27.21	211.70	6.06	-42.1	-43.3	21.1	0.00e+00	92	31	101	1048576	60	7170
2026-01-06 02:10:28.22	211.79	6.12	-42.2	-43.5	20.9	0.00e+00	0	31	101	1048576	60	7294
2026-01-06 02:10:29.23	211.88	6.18	-42.1	-43.3	21.2	0.00e+00	92	31	101	1048576	60	7118
2026-01-06 02:10:30.24	211.97	6.25	-41.9	-43.1	21.3	0.00e+00	33	31	101	1048576	60	6941
2026-01-06 02:10:31.25	212.06	6.31	-42.1	-43.3	21.2	0.00e+00	92	31	101	1048576	60	7131
2026-01-06 02:10:32.26	212.15	6.37	-42.1	-43.4	21.1	0.00e+00	0	31	101	1048576	60	7184
2026-01-06 02:10:33.27	212.23	6.44	-41.9	-43.1	21.3	0.00e+00	92	31	101	1048576	60	6956
2026-01-06 02:10:34.29	212.33	6.50	-42.0	-43.2	21.2	0.00e+00	92	31	101	1048576	60	7073
2026-01-06 02:10:35.30	212.42	6.56	-42.2	-43.4	21.0	0.00e+00	0	31	101	1048576	60	7232
2026-01-06 02:10:36.31	212.51	6.63	-41.9	-43.1	21.4	0.00e+00	92	31	101	1048576	60	6930
2026-01-06 02:10:37.32	212.60	6.69	-41.9	-43.1	21.3	0.00e+00	0	31	101	1048576	60	7005
2026-01-06 02:10:38.33	212.69	6.76	-41.8	-43.0	21.3	0.00e+00	92	31	101	1048576	60	6925
2026-01-06 02:10:39.34	212.78	6.82	-41.8	-43.0	21.4	0.00e+00	0	31	101	1048576	60	6913
2026-01-06 02:10:40.35	212.87	6.88	-41.7	-42.8	21.5	0.00e+00	90	31	101	1048576	60	6762
2026-01-06 02:10:41.36	212.96	6.95	-41.8	-43.0	21.4	0.00e+00	92	31	101	1048576	60	6897
2026-01-06 02:10:42.37	213.06	7.01	-42.0	-43.2	21.3	0.00e+00	0	31	101	1048576	60	7084
2026-01-06 02:10:43.38	213.15	7.08	-42.1	-43.3	21.2	0.00e+00	92	31	101	1048576	60	7106
2026-01-06 02:10:44.40	213.25	7.14	-41.8	-43.0	21.4	0.00e+00	0	31	101	1048576	60	6904
2026-01-06 02:10:45.41	213.34	7.21	-42.0	-43.2	21.3	0.00e+00	90	31	101	1048576	60	7070
2026-01-06 02:10:46.42	213.43	7.27	-41.8	-43.0	21.5	0.00e+00	0	31	101	1048576	60	6875
2026-01-06 02:10:47.43	213.53	7.34	-41.6	-42.7	21.7	0.00e+00	92	31	101	1048576	60	6649
2026-01-06 02:10:48.44	213.62	7.40	-41.5	-42.6	21.8	0.00e+00	60	31	101	1048576	60	6584
2026-01-06 02:10:49.45	213.72	7.47	-41.8	-42.9	21.6	0.00e+00	0	31	101	1048576	60	6845
2026-01-06 02:10:50.46	213.82	7.53	-41.8	-43.0	21.5	0.00e+00	92	31	101	1048576	60	6855
2026-01-06 02:10:51.47	213.91	7.60	-41.7	-42.8	21.7	0.00e+00	0	31	101	1048576	60	6755
2026-01-06 02:10:52.48	214.01	7.66	-41.9	-43.1	21.4	0.00e+00	92	31	101	1048576	60	6960
2026-01-06 02:10:53.49	214.11	7.73	-41.6	-42.7	21.7	0.00e+00	0	31	101	1048576	60	6656
2026-01-06 02:10:54.51	214.21	7.80	-41.8	-42.9	21.5	0.00e+00	92	31	101	1048576	60	6808
2026-01-06 02:10:55.52	214.30	7.86	-41.6	-42.7	21.7	0.00e+00	38	31	101	1048576	60	6649
2026-01-06 02:10:56.53	214.40	7.93	-41.7	-42.9	21.7	0.00e+00	92	31	101	1048576	60	6813
2026-01-06 02:10:57.54	214.50	7.99	-41.7	-42.8	21.7	0.00e+00	90	31	101	1048576	60	6742
2026-01-06 02:10:58.55	214.60	8.06	-41.7	-42.8	21.8	0.00e+00	0	31	101	1048576	60	6730
2026-01-06 02:10:59.56	214.70	8.13	-41.5	-42.6	21.8	0.00e+00	92	31	101	1048576	60	6596
2026-01-06 02:11:00.57	214.80	8.19	-41.4	-42.5	22.0	0.00e+00	0	31	101	1048576	60	6518
2026-01-06 02:11:01.58	214.90	8.26	-41.3	-42.4	22.1	0.00e+00	92	31	101	1048576	60	6392
2026-01-06 02:11:02.60	215.00	8.33	-41.3	-42.4	22.1	0.00e+00	33	31	101	1048576	60	6393
2026-01-06 02:11:03.61	215.11	8.39	-41.1	-42.1	22.3	0.00e+00	37	31	101	1048576	60	6234
2026-01-06 02:11:04.62	215.21	8.46	-41.1	-42.2	22.2	0.00e+00	92	31	101	1048576	60	6251
2026-01-06 02:11:05.63	215.31	8.53	-41.2	-42.2	22.2	0.00e+00	0	31	101	1048576	60	6295
2026-01-06 02:11:06.64	215.41	8.59	-41.0	-42.0	22.4	0.00e+00	92	31	101	1048576	60	6150
2026-01-06 02:11:07.65	215.52	8.66	-41.0	-42.0	22.4	0.00e+00	0	31	101	1048576	60	6140
2026-01-06 02:11:08.66	215.62	8.73	-41.0	-42.0	22.5	0.00e+00	92	31	101	1048576	60	6136
2026-01-06 02:11:09.67	215.73	8.80	-40.8	-41.8	22.5	0.00e+00	47	31	101	1048576	60	6017
2026-01-06 02:11:10.68	215.83	8.86	-40.8	-41.8	22.5	0.00e+00	92	31	101	1048576	60	6033
2026-01-06 02:11:11.69	215.94	8.93	-41.0	-42.1	22.4	0.00e+00	90	31	101	1048576	60	6196
2026-01-06 02:11:12.70	216.04	9.00	-40.9	-41.9	22.5	0.00e+00	46	31	101	1048576	60	6103
2026-01-06 02:11:13.71	216.15	9.07	-41.1	-42.2	22.3	0.00e+00	92	31	101	1048576	60	6267
2026-01-06 02:11:14.72	216.25	9.13	-41.0	-42.0	22.4	0.00e+00	0	31	101	1048576	60	6164
2026-01-06 02:11:15.74	216.36	9.20	-41.1	-42.2	22.3	0.00e+00	92	31	101	1048576	60	6279
2026-01-06 02:11:16.75	216.47	9.27	-41.2	-42.2	22.3	0.00e+00	9	31	101	1048576	60	6291
2026-01-06 02:11:17.76	216.58	9.34	-41.5	-42.6	21.9	0.00e+00	90	31	101	1048576	60	6597
2026-01-06 02:11:18.77	216.69	9.41	-41.5	-42.6	21.9	0.00e+00	92	31	101	1048576	60	6540
2026-01-06 02:11:19.78	216.80	9.47	-41.6	-42.8	21.8	0.00e+00	0	31	101	1048576	60	6702
2026-01-06 02:11:20.79	216.91	9.54	-41.7	-42.9	21.7	0.00e+00	92	31	101	1048576	60	6801
2026-01-06 02:11:21.80	217.02	9.61	-41.8	-42.9	21.8	0.00e+00	0	31	101	1048576	60	6830
2026-01-06 02:11:22.81	217.13	9.68	-41.9	-43.0	21.6	0.00e+00	92	31	101	1048576	60	6907
2026-01-06 02:11:23.82	217.24	9.75	-41.8	-42.9	21.6	0.00e+00	9	31	101	1048576	60	6822
2026-01-06 02:11:24.83	217.35	9.82	-41.7	-42.8	21.8	0.00e+00	92	31	101	1048576	60	6744
2026-01-06 02:11:25.85	217.46	9.89	-41.6	-42.7	21.9	0.00e+00	92	31	101	1048576	60	6682
2026-01-06 02:11:26.86	217.58	9.95	-41.6	-42.7	21.8	0.00e+00	0	31	101	1048576	60	6640
2026-01-06 02:11:27.87	217.69	10.02	-41.6	-42.7	21.8	0.00e+00	92	31	101	1048576	60	6643
2026-01-06 02:11:28.88	217.80	10.09	-41.6	-42.7	21.9	0.00e+00	0	31	101	1048576	60	6646
2026-01-06 02:11:29.89	217.92	10.16	-41.2	-42.3	22.2	0.00e+00	92	31	101	1048576	60	6356
2026-01-06 02:11:30.90	218.03	10.23	-41.1	-42.1	22.3	0.00e+00	0	31	101	1048576	60	6241
2026-01-06 02:11:31.91	218.15	10.30	-41.1	-42.1	22.3	0.00e+00	92	31	101	1048576	60	6236
2026-01-06 02:11:32.92	218.26	10.37	-41.2	-42.2	22.3	0.00e+00	92	31	101	1048576	60	6310
2026-01-06 02:11:33.93	218.38	10.44	-41.2	-42.2	22.3	0.00e+00	39	31	101	1048576	60	6312
2026-01-06 02:11:34.94	218.50	10.51	-41.1	-42.1	22.4	0.00e+00	92	31	101	1048576	60	6211
2026-01-06 02:11:35.95	218.61	10.58	-41.2	-42.2	22.5	0.00e+00	0	31	101	1048576	60	6317
2026-01-06 02:11:36.96	218.73	10.65	-40.9	-42.0	22.5	0.00e+00	90	31	101	1048576	60	6117
2026-01-06 02:11:37.98	218.85	10.72	-41.0	-42.0	22.5	0.00e+00	0	31	101	1048576	60	6119
2026-01-06 02:11:38.99	218.97	10.79	-41.0	-42.0	22.5	0.00e+00	92	31	101	1048576	60	6133
2026-01-06 02:11:40.00	219.09	10.86	-40.9	-41.9	22.6	0.00e+00	92	31	101	1048576	60	6067
2026-01-06 02:11:41.01	219.21	10.93	-40.9	-41.9	22.6	0.00e+00	80	31	101	1048576	60	6077
2026-01-06 02:11:42.02	219.33	11.00	-40.9	-41.9	22.6	0.00e+00	92	31	101	1048576	60	6099
2026-01-06 02:11:43.03	219.45	11.07	-41.0	-42.0	22.3	0.00e+00	0	31	101	1048576	60	6166
2026-01-06 02:11:44.04	219.57	11.14	-40.9	-42.0	22.5	0.00e+00	92	31	101	1048576	60	6107
2026-01-06 02:11:45.05	219.70	11.21	-40.9	-41.9	22.2	0.00e+00	0	31	101	1048576	60	6078
2026-01-06 02:11:46.06	219.82	11.28	-40.9	-41.9	22.5	0.00e+00	92	31	101	1048576	60	6095
2026-01-06 02:11:47.07	219.94	11.35	-40.9	-41.9	22.5	0.00e+00	13	31	101	1048576	60	6080
2026-01-06 02:11:48.08	220.07	11.42	-41.0	-42.1	22.5	0.00e+00	64	31	101	1048576	60	6176
2026-01-06 02:11:49.10	220.19	11.50	-41.0	-42.0	22.5	0.00e+00	92	31	101	1048576	60	6125
2026-01-06 02:11:50.11	220.32	11.57	-40.8	-41.8	22.7	0.00e+00	0	31	101	1048576	60	6019
2026-01-06 02:11:51.12	220.44	11.64	-41.0	-42.0	22.6	0.00e+00	61	31	101	1048576	60	6125
2026-01-06 02:11:52.13	220.57	11.71	-40.9	-41.9	22.6	0.00e+00	0	31	101	1048576	60	6084
2026-01-06 02:11:53.14	220.70	11.78	-40.8	-41.8	22.6	0.00e+00	91	31	101	1048576	60	5995
2026-01-06 02:11:54.15	220.82	11.85	-40.9	-41.9	22.7	0.00e+00	16	31	101	1048576	60	6053
2026-01-06 02:11:55.16	220.95	11.92	-40.8	-41.8	22.6	0.00e+00	91	31	101	1048576	60	6017
2026-01-06 02:11:56.17	221.08	12.00	-40.8	-41.8	22.6	0.00e+00	92	31	101	1048576	60	5975
2026-01-06 02:11:57.18	221.21	12.07	-40.9	-42.0	22.6	0.00e+00	0	31	101	1048576	60	6112
2026-01-06 02:11:58.19	221.34	12.14	-40.9	-41.9	22.7	0.00e+00	92	31	101	1048576	60	6075
2026-01-06 02:11:59.20	221.47	12.21	-41.0	-42.0	22.5	0.00e+00	0	31	101	1048576	60	6144
2026-01-06 02:12:00.21	221.60	12.28	-41.2	-42.3	22.3	0.00e+00	91	31	101	1048576	60	6347
2026-01-06 02:12:01.23	221.74	12.35	-41.3	-42.3	22.4	0.00e+00	28	31	101	1048576	60	6382
2026-01-06 02:12:02.24	221.87	12.43	-41.3	-42.4	22.2	0.00e+00	90	31	101	1048576	60	6411
2026-01-06 02:12:03.25	222.00	12.50	-41.5	-42.6	22.0	0.00e+00	91	31	101	1048576	60	6594
2026-01-06 02:12:04.26	222.14	12.57	-41.5	-42.6	22.1	0.00e+00	0	31	101	1048576	60	6563
2026-01-06 02:12:05.27	222.27	12.64	-41.5	-42.6	22.0	0.00e+00	91	31	101	1048576	60	6594
2026-01-06 02:12:06.28	222.40	12.72	-41.5	-42.6	22.1	0.00e+00	0	31	101	1048576	60	6585
2026-01-06 02:12:07.29	222.54	12.79	-41.4	-42.4	22.1	0.00e+00	91	31	101	1048576	60	6462
2026-01-06 02:12:08.30	222.68	12.86	-41.3	-42.4	22.3	0.00e+00	17	31	101	1048576	60	6418
2026-01-06 02:12:09.32	222.82	12.93	-41.3	-42.4	22.3	0.00e+00	92	31	101	1048576	60	6422
2026-01-06 02:12:10.33	222.95	13.01	-41.2	-42.2	22.4	0.00e+00	90	31	101	1048576	60	6287
2026-01-06 02:12:11.34	223.09	13.08	-41.1	-42.1	22.4	0.00e+00	0	31	101	1048576	60	6200
2026-01-06 02:12:12.35	223.23	13.15	-41.0	-42.0	22.6	0.00e+00	90	31	101	1048576	60	6127
2026-01-06 02:12:13.36	223.37	13.22	-40.8	-41.8	22.8	0.00e+00	0	31	101	1048576	60	5982
2026-01-06 02:12:14.37	223.51	13.30	-40.7	-41.7	22.8	0.00e+00	92	31	101	1048576	60	5919
2026-01-06 02:12:15.38	223.65	13.37	-40.7	-41.7	22.9	0.00e+00	0	31	101	1048576	60	5910
2026-01-06 02:12:16.39	223.79	13.44	-40.5	-41.5	23.0	0.00e+00	92	31	101	1048576	60	5780
2026-01-06 02:12:17.40	223.93	13.52	-40.6	-41.5	22.9	0.00e+00	92	31	101	1048576	60	5817
2026-01-06 02:12:18.41	224.08	13.59	-40.5	-41.5	23.1	0.00e+00	0	31	101	1048576	60	5770
2026-01-06 02:12:19.42	224.22	13.66	-40.4	-41.3	23.2	0.00e+00	92	31	101	1048576	60	5672
2026-01-06 02:12:20.43	224.37	13.74	-40.1	-41.1	23.3	0.00e+00	0	31	101	1048576	60	5507
2026-01-06 02:12:21.44	224.51	13.81	-40.0	-40.9	23.4	0.00e+00	90	31	101	1048576	58	6100
2026-01-06 02:12:22.46	224.66	13.88	-40.2	-41.1	23.1	0.00e+00	0	31	101	1048576	58	6221
2026-01-06 02:12:23.47	224.80	13.96	-40.1	-41.0	23.4	0.00e+00	90	31	101	1048576	58	6173
2026-01-06 02:12:24.48	224.95	14.03	-40.0	-41.0	23.3	0.00e+00	92	31	101	1048576	58	6113
2026-01-06 02:12:25.49	225.10	14.10	-40.3	-41.2	23.1	0.00e+00	90	31	101	1048576	58	6305
2026-01-06 02:12:26.50	225.25	14.18	-40.2	-41.1	23.3	0.00e+00	91	31	101	1048576	58	6222
2026-01-06 02:12:27.51	225.40	14.25	-40.2	-41.1	23.3	0.00e+00	0	31	101	1048576	58	6210
2026-01-06 02:12:28.52	225.55	14.32	-40.0	-40.9	23.4	0.00e+00	92	31	101	1048576	58	6079
2026-01-06 02:12:29.53	225.70	14.40	-40.0	-41.0	23.3	0.00e+00	0	31	101	1048576	58	6124
2026-01-06 02:12:30.54	225.85	14.47	-40.1	-41.1	23.3	0.00e+00	92	31	101	1048576	58	6183
2026-01-06 02:12:31.55	226.00	14.54	-40.2	-41.1	23.1	0.00e+00	43	31	101	1048576	58	6223
2026-01-06 02:12:32.56	226.15	14.62	-40.4	-41.4	23.0	0.00e+00	92	31	101	1048576	58	6404
2026-01-06 02:12:33.57	226.31	14.69	-40.5	-41.5	23.0	0.00e+00	92	31	101	1048576	58	6474
2026-01-06 02:12:34.58	226.46	14.77	-40.5	-41.4	22.3	0.00e+00	0	31	101	1048576	58	6420
2026-01-06 02:12:35.60	226.62	14.84	-40.5	-41.5	23.0	0.00e+00	92	31	101	1048576	58	6506
2026-01-06 02:12:36.61	226.77	14.91	-40.6	-41.6	22.7	0.00e+00	0	31	101	1048576	58	6602
2026-01-06 02:12:37.62	226.93	14.99	-40.9	-41.9	22.7	0.00e+00	92	31	101	1048576	58	6822
2026-01-06 02:12:38.63	227.09	15.06	-40.9	-41.9	22.5	0.00e+00	46	31	101	1048576	58	6838
2026-01-06 02:12:39.64	227.25	15.14	-40.7	-41.7	22.7	0.00e+00	92	31	101	1048576	58	6623
2026-01-06 02:12:40.65	227.41	15.21	-40.7	-41.7	22.8	0.00e+00	92	31	101	1048576	58	6641
2026-01-06 02:12:41.66	227.57	15.28	-40.6	-41.6	22.9	0.00e+00	0	31	101	1048576	58	6588
2026-01-06 02:12:42.67	227.73	15.36	-40.6	-41.6	22.9	0.00e+00	92	31	101	1048576	58	6585
2026-01-06 02:12:43.68	227.89	15.43	-40.4	-41.4	23.2	0.00e+00	0	31	101	1048576	58	6394
2026-01-06 02:12:44.69	228.05	15.51	-40.4	-41.3	23.1	0.00e+00	92	31	101	1048576	58	6386
2026-01-06 02:12:45.70	228.21	15.58	-40.3	-41.3	23.1	0.00e+00	0	31	101	1048576	58	6336
2026-01-06 02:12:46.72	228.38	15.66	-40.0	-40.9	23.3	0.00e+00	92	31	101	1048576	58	6099
2026-01-06 02:12:47.73	228.54	15.73	-39.8	-40.7	23.6	0.00e+00	92	31	101	1048576	58	5936
2026-01-06 02:12:48.74	228.71	15.80	-39.8	-40.7	23.6	0.00e+00	0	31	101	1048576	58	5932
2026-01-06 02:12:49.75	228.87	15.88	-39.7	-40.6	23.7	0.00e+00	58	31	101	1048576	58	5850
2026-01-06 02:12:50.76	229.04	15.95	-39.5	-40.3	23.8	0.00e+00	0	31	101	1048576	58	5690
2026-01-06 02:12:51.77	229.21	16.03	-39.8	-40.7	23.6	0.00e+00	92	31	101	1048576	58	5903
2026-01-06 02:12:52.78	229.37	16.10	-39.5	-40.4	23.9	0.00e+00	48	31	101	1048576	58	5707
2026-01-06 02:12:53.79	229.54	16.17	-39.5	-40.4	23.9	0.00e+00	90	31	101	1048576	58	5733
2026-01-06 02:12:54.80	229.71	16.25	-39.5	-40.4	23.9	0.00e+00	91	31	101	1048576	58	5728
2026-01-06 02:12:55.81	229.88	16.32	-39.4	-40.2	23.9	0.00e+00	0	31	101	1048576	58	5624
2026-01-06 02:12:56.82	230.06	16.40	-39.3	-40.1	24.0	0.00e+00	83	31	101	1048576	56	6224
2026-01-06 02:12:57.83	230.23	16.47	-39.1	-40.0	24.2	0.00e+00	0	31	101	1048576	56	6125
2026-01-06 02:12:58.84	230.40	16.54	-39.1	-39.9	24.3	0.00e+00	91	31	101	1048576	56	6074
2026-01-06 02:12:59.85	230.58	16.62	-39.1	-39.9	24.0	0.00e+00	0	31	101	1048576	56	6099
2026-01-06 02:13:00.86	230.75	16.69	-39.2	-40.0	24.1	0.00e+00	92	31	101	1048576	56	6148
2026-01-06 02:13:01.88	230.93	16.77	-39.5	-40.4	23.9	0.00e+00	92	31	101	1048576	56	6413
2026-01-06 02:13:02.89	231.10	16.84	-39.8	-40.7	23.7	0.00e+00	0	31	101	1048576	56	6623
2026-01-06 02:13:03.90	231.28	16.91	-39.9	-40.8	23.5	0.00e+00	91	31	101	1048576	56	6750
2026-01-06 02:13:04.91	231.46	16.99	-40.0	-40.9	23.4	0.00e+00	0	31	101	1048576	56	6829
2026-01-06 02:13:05.92	231.64	17.06	-39.9	-40.8	23.5	0.00e+00	92	31	101	1048576	56	6747
2026-01-06 02:13:06.93	231.82	17.14	-40.1	-41.0	23.5	0.00e+00	0	31	101	1048576	56	6921
2026-01-06 02:13:07.94	232.00	17.21	-39.9	-40.8	23.5	0.00e+00	92	31	101	1048576	58	5965
2026-01-06 02:13:08.95	232.18	17.28	-39.8	-40.7	23.6	0.00e+00	51	31	101	1048576	58	5935
2026-01-06 02:13:09.96	232.36	17.36	-39.8	-40.7	23.7	0.00e+00	0	31	101	1048576	58	5897
2026-01-06 02:13:10.97	232.55	17.43	-40.0	-40.9	23.5	0.00e+00	90	31	101	1048576	58	6088
2026-01-06 02:13:11.98	232.73	17.50	-40.1	-41.1	23.3	0.00e+00	0	31	101	1048576	58	6180
2026-01-06 02:13:12.99	232.92	17.58	-40.0	-40.9	23.5	0.00e+00	92	31	101	1048576	58	6049
2026-01-06 02:13:14.00	233.10	17.65	-40.1	-41.0	23.3	0.00e+00	0	31	101	1048576	58	6172
2026-01-06 02:13:15.01	233.29	17.72	-40.0	-41.0	23.4	0.00e+00	92	31	101	1048576	58	6112
2026-01-06 02:13:16.02	233.48	17.80	-39.8	-40.7	23.6	0.00e+00	51	31	101	1048576	58	5903
2026-01-06 02:13:17.04	233.67	17.87	-39.6	-40.4	23.8	0.00e+00	90	31	101	1048576	58	5760
2026-01-06 02:13:18.05	233.86	17.94	-39.7	-40.5	23.8	0.00e+00	91	31	101	1048576	58	5816
2026-01-06 02:13:19.06	234.05	18.02	-39.7	-40.6	23.9	0.00e+00	0	31	101	1048576	58	5852
2026-01-06 02:13:20.07	234.24	18.09	-39.1	-39.9	24.3	0.00e+00	62	31	101	1048576	58	5435
2026-01-06 02:13:21.08	234.43	18.16	-39.1	-40.0	24.1	0.00e+00	0	31	101	1048576	56	6111
2026-01-06 02:13:22.09	234.62	18.24	-38.9	-39.7	24.3	0.00e+00	77	31	101	1048576	56	5936
2026-01-06 02:13:23.10	234.82	18.31	-38.9	-39.7	24.3	0.00e+00	0	31	101	1048576	56	5960
2026-01-06 02:13:24.11	235.01	18.38	-38.8	-39.6	24.6	0.00e+00	72	31	101	1048576	56	5837
2026-01-06 02:13:25.12	235.21	18.45	-38.6	-39.4	24.6	0.00e+00	87	31	101	1048576	56	5740
2026-01-06 02:13:26.14	235.41	18.53	-38.6	-39.4	24.6	0.00e+00	0	31	101	1048576	56	5752
2026-01-06 02:13:27.15	235.61	18.60	-38.5	-39.3	24.7	0.00e+00	91	31	101	1048576	56	5691
2026-01-06 02:13:28.16	235.80	18.67	-38.7	-39.5	24.4	0.00e+00	0	31	101	1048576	56	5771
2026-01-06 02:13:29.17	236.00	18.74	-38.7	-39.5	24.5	0.00e+00	91	31	101	1048576	56	5803
2026-01-06 02:13:30.18	236.20	18.81	-38.7	-39.5	24.5	0.00e+00	47	31	101	1048576	56	5802
2026-01-06 02:13:31.19	236.40	18.89	-38.7	-39.5	24.5	0.00e+00	91	31	101	1048576	56	5797
2026-01-06 02:13:32.20	236.61	18.96	-38.4	-39.2	24.7	0.00e+00	91	31	101	1048576	56	5620
2026-01-06 02:13:33.21	236.81	19.03	-38.5	-39.3	24.6	0.00e+00	0	31	101	1048576	56	5686
2026-01-06 02:13:34.22	237.01	19.10	-38.4	-39.2	24.7	0.00e+00	92	31	101	1048576	56	5605
2026-01-06 02:13:35.24	237.22	19.17	-38.4	-39.2	24.7	0.00e+00	33	31	101	1048576	56	5592
2026-01-06 02:13:36.24	237.42	19.24	-38.4	-39.2	24.7	0.00e+00	92	31	101	1048576	56	5567
2026-01-06 02:13:37.26	237.63	19.31	-38.6	-39.4	24.6	0.00e+00	51	31	101	1048576	56	5706
2026-01-06 02:13:38.27	237.84	19.38	-38.7	-39.5	24.6	0.00e+00	92	31	101	1048576	56	5786
2026-01-06 02:13:39.28	238.05	19.45	-38.5	-39.3	24.6	0.00e+00	92	31	101	1048576	56	5670
2026-01-06 02:13:40.29	238.26	19.52	-38.5	-39.3	24.7	0.00e+00	0	31	101	1048576	56	5669
2026-01-06 02:13:41.30	238.47	19.59	-38.5	-39.3	24.7	0.00e+00	91	31	101	1048576	56	5638
2026-01-06 02:13:42.31	238.68	19.66	-38.5	-39.4	24.6	0.00e+00	0	31	101	1048576	56	5702
2026-01-06 02:13:43.32	238.89	19.73	-38.5	-39.3	24.6	0.00e+00	92	32	101	1048576	56	5672
2026-01-06 02:13:44.33	239.11	19.80	-38.7	-39.5	24.5	0.00e+00	0	31	101	1048576	56	5805
2026-01-06 02:13:45.35	239.32	19.87	-38.7	-39.5	24.5	0.00e+00	92	31	101	1048576	56	5783
2026-01-06 02:13:46.36	239.54	19.94	-38.8	-39.7	24.4	0.00e+00	92	31	101	1048576	56	5907
2026-01-06 02:13:47.37	239.76	20.01	-38.9	-39.8	24.4	0.00e+00	0	31	101	1048576	56	5983
2026-01-06 02:13:48.38	239.97	20.08	-38.7	-39.5	24.6	0.00e+00	92	31	101	1048576	56	5768
2026-01-06 02:13:49.39	240.19	20.15	-38.8	-39.6	24.5	0.00e+00	0	31	101	1048576	56	5860
2026-01-06 02:13:50.40	240.41	20.22	-38.6	-39.4	24.6	0.00e+00	92	31	101	1048576	56	5731
2026-01-06 02:13:51.41	240.63	20.28	-38.5	-39.2	24.8	0.00e+00	0	31	101	1048576	56	5623
2026-01-06 02:13:52.42	240.85	20.35	-38.4	-39.2	24.7	0.00e+00	92	31	101	1048576	56	5608
2026-01-06 02:13:53.43	241.07	20.42	-38.4	-39.2	24.7	0.00e+00	92	31	101	1048576	56	5614
2026-01-06 02:13:54.44	241.30	20.49	-38.5	-39.3	24.7	0.00e+00	0	31	101	1048576	56	5650
2026-01-06 02:13:55.45	241.52	20.55	-38.6	-39.3	24.6	0.00e+00	92	31	101	1048576	56	5694
2026-01-06 02:13:56.46	241.74	20.62	-38.8	-39.6	24.4	0.00e+00	0	31	101	1048576	56	5850
2026-01-06 02:13:57.48	241.97	20.69	-39.1	-39.9	24.2	0.00e+00	92	31	101	1048576	56	6063
2026-01-06 02:13:58.49	242.20	20.75	-39.2	-40.1	24.2	0.00e+00	0	31	101	1048576	56	6176
2026-01-06 02:13:59.50	242.43	20.82	-39.4	-40.2	24.1	0.00e+00	92	31	101	1048576	56	6309
2026-01-06 02:14:00.51	242.66	20.89	-39.3	-40.1	24.2	0.00e+00	92	31	101	1048576	56	6230
2026-01-06 02:14:01.52	242.88	20.95	-39.1	-39.9	24.4	0.00e+00	10	31	101	1048576	56	6072
2026-01-06 02:14:02.53	243.11	21.02	-39.1	-39.9	24.2	0.00e+00	92	31	101	1048576	56	6048
2026-01-06 02:14:03.54	243.35	21.08	-39.2	-40.0	24.3	0.00e+00	0	31	101	1048576	56	6131
2026-01-06 02:14:04.55	243.58	21.14	-39.4	-40.2	24.1	0.00e+00	90	31	101	1048576	56	6311
2026-01-06 02:14:05.56	243.81	21.21	-39.5	-40.4	24.0	0.00e+00	0	31	101	1048576	56	6435
2026-01-06 02:14:06.57	244.05	21.27	-39.7	-40.6	23.8	0.00e+00	90	31	101	1048576	56	6587
2026-01-06 02:14:07.58	244.28	21.34	-39.4	-40.3	24.0	0.00e+00	46	31	101	1048576	56	6334
2026-01-06 02:14:08.59	244.52	21.40	-39.2	-40.0	24.2	0.00e+00	92	31	101	1048576	56	6151
2026-01-06 02:14:09.61	244.76	21.46	-39.1	-39.9	24.3	0.00e+00	92	31	101	1048576	56	6065
2026-01-06 02:14:10.62	244.99	21.53	-39.1	-39.9	24.2	0.00e+00	0	31	101	1048576	56	6047
2026-01-06 02:14:11.63	245.23	21.59	-39.3	-40.1	24.1	0.00e+00	63	31	101	1048576	56	6200
2026-01-06 02:14:12.64	245.47	21.65	-39.7	-40.6	23.8	0.00e+00	0	31	101	1048576	56	6550
2026-01-06 02:14:13.65	245.71	21.71	-40.3	-41.2	23.3	0.00e+00	92	31	101	1048576	58	6286
2026-01-06 02:14:14.66	245.96	21.77	-40.7	-41.6	22.9	0.00e+00	48	31	101	1048576	58	6606
2026-01-06 02:14:15.67	246.20	21.83	-40.2	-41.2	23.4	0.00e+00	57	31	101	1048576	58	6262
2026-01-06 02:14:16.68	246.44	21.89	-40.0	-40.9	23.6	0.00e+00	90	31	101	1048576	58	6089
2026-01-06 02:14:17.69	246.69	21.95	-39.5	-40.3	24.0	0.00e+00	0	31	101	1048576	58	5695
2026-01-06 02:14:18.71	246.93	22.01	-39.2	-40.0	24.2	0.00e+00	92	31	101	1048576	56	6115
2026-01-06 02:14:19.72	247.18	22.07	-39.2	-40.1	24.2	0.00e+00	0	31	101	1048576	56	6185
2026-01-06 02:14:20.73	247.43	22.13	-39.3	-40.2	24.1	0.00e+00	92	31	101	1048576	56	6275
2026-01-06 02:14:21.74	247.68	22.19	-39.3	-40.2	23.9	0.00e+00	0	31	101	1048576	56	6251
2026-01-06 02:14:22.75	247.93	22.25	-39.4	-40.2	24.0	0.00e+00	92	31	101	1048576	56	6317
2026-01-06 02:14:23.76	248.18	22.31	-39.2	-40.0	24.2	0.00e+00	90	31	101	1048576	56	6165
2026-01-06 02:14:24.77	248.43	22.36	-39.0	-39.8	24.3	0.00e+00	0	31	101	1048576	56	5989
2026-01-06 02:14:25.78	248.68	22.42	-39.0	-39.8	24.4	0.00e+00	72	31	101	1048576	56	5995
2026-01-06 02:14:26.79	248.93	22.48	-39.3	-40.1	24.1	0.00e+00	0	32	101	1048576	56	6211
2026-01-06 02:14:27.80	249.18	22.53	-39.7	-40.6	23.9	0.00e+00	90	31	101	1048576	56	6567
2026-01-06 02:14:28.82	249.44	22.59	-39.8	-40.7	23.9	0.00e+00	0	31	101	1048576	56	6641
2026-01-06 02:14:29.83	249.70	22.64	-39.8	-40.7	23.5	0.00e+00	92	31	101	1048576	56	6652
2026-01-06 02:14:30.84	249.95	22.70	-39.6	-40.5	23.9	0.00e+00	92	31	101	1048576	56	6477
2026-01-06 02:14:31.85	250.21	22.75	-39.5	-40.3	24.0	0.00e+00	0	31	101	1048576	56	6383
2026-01-06 02:14:32.86	250.47	22.81	-39.5	-40.3	24.0	0.00e+00	63	31	101	1048576	56	6364
2026-01-06 02:14:33.87	250.73	22.86	-39.4	-40.3	24.0	0.00e+00	0	31	101	1048576	56	6350
2026-01-06 02:14:34.88	250.99	22.91	-39.6	-40.5	23.9	0.00e+00	90	31	101	1048576	56	6502
2026-01-06 02:14:35.89	251.25	22.96	-39.9	-40.8	23.7	0.00e+00	0	31	101	1048576	56	6699
2026-01-06 02:14:36.90	251.51	23.02	-40.1	-41.0	23.5	0.00e+00	92	32	101	1048576	56	6861
2026-01-06 02:14:37.91	251.77	23.07	-40.2	-41.1	23.4	0.00e+00	92	31	101	1048576	58	6228
2026-01-06 02:14:38.92	252.03	23.12	-40.5	-41.4	23.2	0.00e+00	0	31	101	1048576	58	6431
2026-01-06 02:14:39.93	252.30	23.17	-40.7	-41.7	22.9	0.00e+00	59	31	101	1048576	58	6668
2026-01-06 02:14:40.94	252.56	23.22	-41.1	-42.1	22.6	0.00e+00	0	31	101	1048576	60	6175
2026-01-06 02:14:41.96	252.83	23.27	-41.1	-42.1	22.7	0.00e+00	90	31	101	1048576	60	6211
2026-01-06 02:14:42.97	253.10	23.31	-41.0	-42.0	22.7	0.00e+00	0	31	101	1048576	60	6106
2026-01-06 02:14:43.98	253.36	23.36	-40.8	-41.7	23.1	0.00e+00	92	31	101	1048576	60	5946
2026-01-06 02:14:44.99	253.63	23.41	-40.2	-41.1	23.5	0.00e+00	53	31	101	1048576	60	5517
2026-01-06 02:14:46.00	253.90	23.46	-39.7	-40.6	23.8	0.00e+00	0	31	101	1048576	58	5859
2026-01-06 02:14:47.01	254.17	23.50	-40.0	-40.9	23.6	0.00e+00	91	31	101	1048576	58	6050
2026-01-06 02:14:48.02	254.44	23.55	-40.5	-41.5	23.2	0.00e+00	0	31	101	1048576	58	6504
2026-01-06 02:14:49.03	254.71	23.59	-41.1	-42.1	22.7	0.00e+00	92	31	101	1048576	58	6980
2026-01-06 02:14:50.04	254.98	23.64	-41.7	-42.7	22.2	0.00e+00	0	31	101	1048576	60	6681
2026-01-06 02:14:51.05	255.25	23.68	-41.9	-43.0	22.0	0.00e+00	92	31	101	1048576	60	6868
2026-01-06 02:14:52.07	255.53	23.73	-41.8	-42.9	22.0	0.00e+00	5	31	101	1048576	60	6810
2026-01-06 02:14:53.08	255.80	23.77	-41.5	-42.6	22.3	0.00e+00	0	31	101	1048576	60	6543
2026-01-06 02:14:54.09	256.08	23.81	-41.5	-42.5	22.4	0.00e+00	92	31	101	1048576	60	6530
2026-01-06 02:14:55.10	256.35	23.85	-41.7	-42.8	22.1	0.00e+00	0	31	101	1048576	60	6725
2026-01-06 02:14:56.11	256.63	23.89	-41.9	-43.0	22.0	0.00e+00	91	31	101	1048576	60	6891
2026-01-06 02:14:57.12	256.91	23.93	-42.0	-43.1	21.9	0.00e+00	0	31	101	1048576	60	6997
2026-01-06 02:14:58.13	257.18	23.97	-41.9	-42.9	22.1	0.00e+00	91	31	101	1048576	60	6839
2026-01-06 02:14:59.14	257.46	24.01	-41.5	-42.5	22.3	0.00e+00	25	32	101	1048576	60	6499
2026-01-06 02:15:00.15	257.74	24.05	-41.5	-42.6	22.4	0.00e+00	62	31	101	1048576	60	6557
2026-01-06 02:15:01.16	258.02	24.09	-41.9	-42.9	21.9	0.00e+00	90	31	101	1048576	60	6836
2026-01-06 02:15:02.17	258.30	24.13	-42.8	-44.0	21.1	0.00e+00	0	31	101	1048576	60	7756
2026-01-06 02:15:03.18	258.58	24.16	-43.6	-45.0	20.2	0.00e+00	69	31	101	1048576	60	8667
2026-01-06 02:15:04.20	258.87	24.20	-44.5	-46.1	19.2	0.00e+00	0	31	101	1048576	60	9861
2026-01-06 02:15:05.21	259.15	24.23	-44.5	-46.1	19.3	0.00e+00	92	31	101	1048576	60	9799
2026-01-06 02:15:06.22	259.43	24.27	-44.0	-45.5	19.9	0.00e+00	41	31	101	1048576	60	9144
2026-01-06 02:15:07.23	259.71	24.30	-43.2	-44.5	20.8	0.00e+00	90	31	101	1048576	60	8180
2026-01-06 02:15:08.24	260.00	24.34	-43.0	-44.2	21.1	0.00e+00	91	31	101	1048576	60	7908
2026-01-06 02:15:09.25	260.28	24.37	-43.0	-44.2	20.9	0.00e+00	33	31	101	1048576	60	7938
2026-01-06 02:15:10.26	260.57	24.40	-43.0	-44.2	20.9	0.00e+00	91	31	101	1048576	60	7917
2026-01-06 02:15:11.27	260.85	24.43	-43.0	-44.2	20.9	0.00e+00	0	31	101	1048576	60	7923
2026-01-06 02:15:12.28	261.14	24.46	-42.8	-44.0	20.9	0.00e+00	91	31	101	1048576	60	7744
2026-01-06 02:15:13.29	261.43	24.49	-42.6	-43.8	21.4	0.00e+00	0	31	101	1048576	60	7526
2026-01-06 02:15:14.31	261.72	24.52	-42.5	-43.7	21.4	0.00e+00	91	31	101	1048576	60	7437
2026-01-06 02:15:15.32	262.00	24.55	-42.1	-43.2	21.8	0.00e+00	88	31	101	1048576	60	7083
2026-01-06 02:15:16.33	262.29	24.58	-41.8	-42.9	22.1	0.00e+00	0	31	101	1048576	60	6819
2026-01-06 02:15:17.34	262.58	24.60	-42.2	-43.3	21.7	0.00e+00	91	31	101	1048576	60	7111
2026-01-06 02:15:18.35	262.87	24.63	-42.0	-43.1	21.9	0.00e+00	0	32	101	1048576	60	6992
2026-01-06 02:15:19.36	263.16	24.65	-42.5	-43.6	21.5	0.00e+00	91	31	101	1048576	60	7421
2026-01-06 02:15:20.37	263.45	24.68	-42.8	-44.0	21.0	0.00e+00	0	31	101	1048576	60	7749
2026-01-06 02:15:21.38	263.74	24.70	-43.2	-44.4	20.7	0.00e+00	91	32	101	1048576	60	8131
2026-01-06 02:15:22.39	264.03	24.73	-43.1	-44.3	20.8	0.00e+00	84	31	101	1048576	60	8018
2026-01-06 02:15:23.40	264.32	24.75	-42.9	-44.2	21.2	0.00e+00	0	31	101	1048576	60	7869
2026-01-06 02:15:24.41	264.61	24.77	-42.0	-43.1	22.1	0.00e+00	92	31	101	1048576	60	6962
2026-01-06 02:15:25.43	264.91	24.79	-41.6	-42.7	22.3	0.00e+00	0	31	101	1048576	60	6628
2026-01-06 02:15:26.44	265.20	24.81	-41.2	-42.2	22.5	0.00e+00	92	31	101	1048576	60	6316
2026-01-06 02:15:27.45	265.49	24.83	-41.0	-41.9	22.8	0.00e+00	0	31	101	1048576	60	6096
2026-01-06 02:15:28.46	265.79	24.85	-40.7	-41.6	23.1	0.00e+00	92	31	101	1048576	60	5871
2026-01-06 02:15:29.47	266.08	24.87	-40.3	-41.2	23.4	0.00e+00	85	31	101	1048576	60	5581
2026-01-06 02:15:30.48	266.37	24.88	-40.1	-41.0	23.6	0.00e+00	0	32	101	1048576	58	6114
2026-01-06 02:15:31.49	266.67	24.90	-39.8	-40.7	23.7	0.00e+00	92	31	101	1048576	58	5939
2026-01-06 02:15:32.50	266.96	24.92	-40.4	-41.3	23.3	0.00e+00	0	31	101	1048576	58	6383
2026-01-06 02:15:33.52	267.26	24.93	-40.9	-41.8	22.8	0.00e+00	38	31	101	1048576	58	6760
2026-01-06 02:15:34.53	267.55	24.95	-41.6	-42.7	22.0	0.00e+00	0	31	101	1048576	60	6643
2026-01-06 02:15:35.54	267.85	24.96	-41.6	-42.7	22.2	0.00e+00	92	32	101	1048576	60	6658
2026-01-06 02:15:36.55	268.14	24.97	-41.1	-42.1	22.8	0.00e+00	49	31	101	1048576	60	6184
2026-01-06 02:15:37.56	268.44	24.98	-40.6	-41.6	23.2	0.00e+00	28	31	101	1048576	60	5844
2026-01-06 02:15:38.57	268.73	24.99	-40.6	-41.5	23.3	0.00e+00	90	32	101	1048576	60	5787
2026-01-06 02:15:39.58	269.03	25.00	-40.5	-41.4	23.2	0.00e+00	0	31	101	1048576	60	5760
2026-01-06 02:15:40.59	269.33	25.01	-40.9	-41.9	22.7	0.00e+00	53	31	101	1048576	60	6084
2026-01-06 02:15:41.60	269.62	25.02	-41.4	-42.5	22.5	0.00e+00	0	31	101	1048576	60	6489
2026-01-06 02:15:42.61	269.92	25.03	-41.3	-42.3	22.6	0.00e+00	92	31	101	1048576	60	6340
2026-01-06 02:15:43.62	270.21	25.04	-41.1	-42.1	22.7	0.00e+00	49	31	101	1048576	60	6195
2026-01-06 02:15:44.63	270.51	25.04	-40.6	-41.6	23.1	0.00e+00	2	31	101	1048576	60	5849
2026-01-06 02:15:45.64	270.81	25.05	-40.8	-41.7	23.0	0.00e+00	92	31	101	1048576	60	5960
2026-01-06 02:15:46.65	271.10	25.05	-41.0	-42.0	22.9	0.00e+00	0	31	101	1048576	60	6110
2026-01-06 02:15:47.67	271.40	25.06	-41.1	-42.1	22.6	0.00e+00	57	31	101	1048576	60	6240
2026-01-06 02:15:48.67	271.70	25.06	-40.7	-41.7	23.1	0.00e+00	0	31	101	1048576	60	5927
2026-01-06 02:15:49.69	272.00	25.06	-40.2	-41.1	23.5	0.00e+00	92	32	101	1048576	60	5550
2026-01-06 02:15:50.70	272.30	25.06	-39.3	-40.2	24.1	0.00e+00	49	31	101	1048576	58	5574
2026-01-06 02:15:51.71	272.59	25.06	-39.4	-40.2	24.0	0.00e+00	43	31	101	1048576	58	5619
2026-01-06 02:15:52.72	272.89	25.06	-39.5	-40.3	24.0	0.00e+00	90	31	101	1048576	58	5695
2026-01-06 02:15:53.73	273.19	25.06	-39.7	-40.6	23.8	0.00e+00	0	31	101	1048576	58	5851
2026-01-06 02:15:54.74	273.48	25.06	-40.1	-41.0	23.5	0.00e+00	84	32	101	1048576	58	6111
2026-01-06 02:15:55.75	273.78	25.06	-40.2	-41.1	23.3	0.00e+00	33	31	101	1048576	58	6227
2026-01-06 02:15:56.76	274.08	25.05	-40.2	-41.1	23.5	0.00e+00	91	31	101	1048576	58	6213
2026-01-06 02:15:57.77	274.37	25.05	-39.8	-40.6	23.7	0.00e+00	25	31	101	1048576	58	5881
2026-01-06 02:15:58.78	274.67	25.05	-39.7	-40.6	23.8	0.00e+00	34	31	101	1048576	58	5837
2026-01-06 02:15:59.80	274.97	25.04	-39.6	-40.4	23.9	0.00e+00	91	31	101	1048576	58	5757
2026-01-06 02:16:00.81	275.27	25.03	-39.6	-40.4	23.9	0.00e+00	0	31	101	1048576	58	5728
2026-01-06 02:16:01.82	275.56	25.03	-39.6	-40.5	23.8	0.00e+00	92	31	101	1048576	58	5783
2026-01-06 02:16:02.83	275.86	25.02	-39.8	-40.7	22.8	0.00e+00	0	32	101	1048576	58	5933
2026-01-06 02:16:03.84	276.15	25.01	-39.9	-40.8	23.5	0.00e+00	92	31	101	1048576	58	5995
2026-01-06 02:16:04.85	276.45	25.00	-40.1	-41.0	23.3	0.00e+00	0	32	101	1048576	58	6143
2026-01-06 02:16:05.86	276.75	24.99	-40.2	-41.2	23.2	0.00e+00	92	32	101	1048576	58	6248
2026-01-06 02:16:06.87	277.04	24.98	-40.6	-41.5	23.1	0.00e+00	92	32	101	1048576	58	6536
2026-01-06 02:16:07.88	277.34	24.96	-40.8	-41.8	22.8	0.00e+00	0	31	101	1048576	58	6723
2026-01-06 02:16:08.89	277.63	24.95	-40.9	-41.9	22.8	0.00e+00	52	31	101	1048576	58	6779
2026-01-06 02:16:09.91	277.93	24.94	-40.7	-41.7	23.0	0.00e+00	0	31	101	1048576	58	6656
2026-01-06 02:16:10.92	278.22	24.92	-40.8	-41.8	22.8	0.00e+00	80	31	101	1048576	58	6732
2026-01-06 02:16:11.93	278.52	24.91	-40.1	-41.0	23.5	0.00e+00	0	31	101	1048576	58	6141
2026-01-06 02:16:12.94	278.81	24.89	-40.1	-41.0	23.5	0.00e+00	92	32	101	1048576	58	6119
2026-01-06 02:16:13.95	279.10	24.88	-40.1	-41.0	23.3	0.00e+00	53	31	101	1048576	58	6172
2026-01-06 02:16:14.96	279.40	24.86	-40.2	-41.1	23.4	0.00e+00	0	31	101	1048576	58	6214
2026-01-06 02:16:15.97	279.69	24.84	-40.1	-41.0	23.5	0.00e+00	47	31	101	1048576	58	6157
2026-01-06 02:16:16.99	279.99	24.82	-40.0	-40.9	23.5	0.00e+00	0	31	101	1048576	58	6083
2026-01-06 02:16:18.00	280.28	24.80	-40.1	-41.0	23.5	0.00e+00	92	31	101	1048576	58	6137
2026-01-06 02:16:19.01	280.57	24.78	-40.1	-41.0	23.6	0.00e+00	0	31	101	1048576	58	6146
2026-01-06 02:16:20.02	280.86	24.76	-40.1	-41.1	23.3	0.00e+00	90	31	101	1048576	58	6176
2026-01-06 02:16:21.03	281.15	24.74	-40.0	-40.9	23.6	0.00e+00	53	31	101	1048576	58	6046
2026-01-06 02:16:22.04	281.44	24.71	-39.9	-40.8	23.6	0.00e+00	0	31	101	1048576	58	5976
2026-01-06 02:16:23.05	281.73	24.69	-39.8	-40.6	23.6	0.00e+00	40	31	101	1048576	58	5885
2026-01-06 02:16:24.06	282.02	24.67	-39.8	-40.7	23.7	0.00e+00	0	31	101	1048576	58	5923
2026-01-06 02:16:25.07	282.31	24.64	-39.8	-40.6	23.8	0.00e+00	92	31	101	1048576	58	5888
2026-01-06 02:16:26.08	282.60	24.62	-39.7	-40.6	23.8	0.00e+00	0	31	101	1048576	58	5844
2026-01-06 02:16:27.09	282.89	24.59	-39.6	-40.4	23.9	0.00e+00	92	31	101	1048576	58	5744
2026-01-06 02:16:28.10	283.18	24.56	-39.0	-39.8	24.4	0.00e+00	12	31	101	1048576	56	5983
2026-01-06 02:16:29.12	283.47	24.53	-38.8	-39.6	24.5	0.00e+00	0	31	101	1048576	56	5868
2026-01-06 02:16:30.13	283.75	24.51	-39.1	-39.9	24.3	0.00e+00	70	32	101	1048576	56	6088
2026-01-06 02:16:31.14	284.04	24.48	-39.4	-40.3	24.0	0.00e+00	0	31	101	1048576	56	6321
2026-01-06 02:16:32.15	284.33	24.45	-39.5	-40.3	24.2	0.00e+00	13	31	101	1048576	56	6384
2026-01-06 02:16:33.16	284.61	24.42	-39.3	-40.2	24.0	0.00e+00	0	31	101	1048576	56	6253
2026-01-06 02:16:34.17	284.90	24.38	-39.3	-40.2	24.3	0.00e+00	92	31	101	1048576	56	6255
2026-01-06 02:16:35.18	285.18	24.35	-39.1	-39.9	24.1	0.00e+00	0	31	101	1048576	56	6085
2026-01-06 02:16:36.19	285.46	24.32	-39.5	-40.4	24.1	0.00e+00	0	31	101	1048576	56	6408
2026-01-06 02:16:37.20	285.75	24.29	-39.1	-40.0	24.4	0.00e+00	92	31	101	1048576	56	6118
2026-01-06 02:16:38.21	286.03	24.25	-39.2	-40.0	24.2	0.00e+00	0	31	101	1048576	56	6132
2026-01-06 02:16:39.22	286.31	24.22	-39.2	-40.1	24.2	0.00e+00	92	32	101	1048576	56	6176
2026-01-06 02:16:40.23	286.59	24.18	-39.1	-39.9	24.4	0.00e+00	0	32	101	1048576	56	6070
2026-01-06 02:16:41.25	286.87	24.15	-38.8	-39.7	24.5	0.00e+00	92	32	101	1048576	56	5904
2026-01-06 02:16:42.26	287.15	24.11	-38.7	-39.5	24.4	0.00e+00	0	32	101	1048576	56	5812
2026-01-06 02:16:43.27	287.43	24.07	-38.6	-39.4	24.6	0.00e+00	0	31	101	1048576	56	5719
2026-01-06 02:16:44.28	287.71	24.03	-38.7	-39.5	24.6	0.00e+00	91	32	101	1048576	56	5773
2026-01-06 02:16:45.29	287.99	23.99	-38.8	-39.6	24.5	0.00e+00	0	31	101	1048576	56	5857
2026-01-06 02:16:46.30	288.27	23.96	-39.0	-39.8	24.3	0.00e+00	77	31	101	1048576	56	6033
2026-01-06 02:16:47.31	288.54	23.92	-39.4	-40.2	24.1	0.00e+00	0	31	101	1048576	56	6302
2026-01-06 02:16:48.32	288.82	23.87	-39.7	-40.6	23.9	0.00e+00	92	31	101	1048576	56	6600
2026-01-06 02:16:49.33	289.09	23.83	-39.6	-40.5	23.8	0.00e+00	0	32	101	1048576	56	6534
2026-01-06 02:16:50.35	289.37	23.79	-39.5	-40.3	24.0	0.00e+00	63	31	101	1048576	56	6382
2026-01-06 02:16:51.36	289.64	23.75	-39.4	-40.3	24.0	0.00e+00	90	31	101	1048576	56	6341
2026-01-06 02:16:52.37	289.92	23.71	-38.6	-39.5	24.5	0.00e+00	0	31	101	1048576	56	5767
2026-01-06 02:16:53.38	290.19	23.66	-38.4	-39.2	24.7	0.00e+00	63	31	101	1048576	56	5616
2026-01-06 02:16:54.39	290.46	23.62	-38.1	-38.9	25.1	0.00e+00	0	31	101	1048576	56	5426
2026-01-06 02:16:55.40	290.73	23.57	-38.0	-38.8	25.0	0.00e+00	60	31	101	1048576	54	6021
2026-01-06 02:16:56.41	291.00	23.53	-38.0	-38.8	25.0	0.00e+00	0	31	101	1048576	54	6009
2026-01-06 02:16:57.42	291.27	23.48	-38.0	-38.8	25.0	0.00e+00	24	31	101	1048576	54	5998
2026-01-06 02:16:58.43	291.54	23.44	-37.9	-38.7	25.0	0.00e+00	53	31	101	1048576	54	5943
2026-01-06 02:16:59.44	291.81	23.39	-38.0	-38.7	25.0	0.00e+00	0	31	101	1048576	54	5962
2026-01-06 02:17:00.45	292.07	23.34	-37.6	-38.3	25.2	0.00e+00	95	31	101	1048576	54	5683
2026-01-06 02:17:01.46	292.34	23.29	-37.3	-38.1	25.5	0.00e+00	0	31	101	1048576	54	5509
2026-01-06 02:17:02.47	292.60	23.25	-36.9	-37.6	25.7	0.00e+00	57	31	101	1048576	52	5884
2026-01-06 02:17:03.49	292.87	23.20	-37.2	-37.9	25.6	0.00e+00	0	31	101	1048576	52	6055
2026-01-06 02:17:04.49	293.13	23.15	-37.4	-38.2	25.4	0.00e+00	92	31	101	1048576	52	6267
2026-01-06 02:17:05.51	293.40	23.10	-38.0	-38.7	25.0	0.00e+00	92	31	101	1048576	52	6677
2026-01-06 02:17:06.52	293.66	23.05	-38.3	-39.1	24.9	0.00e+00	0	31	101	1048576	54	6193
2026-01-06 02:17:07.53	293.92	22.99	-38.2	-39.0	24.9	0.00e+00	89	31	101	1048576	54	6168
2026-01-06 02:17:08.54	294.18	22.94	-38.4	-39.2	24.8	0.00e+00	0	31	101	1048576	54	6278
2026-01-06 02:17:09.55	294.44	22.89	-38.0	-38.8	25.0	0.00e+00	90	31	101	1048576	54	6002
2026-01-06 02:17:10.56	294.70	22.84	-38.2	-38.9	24.8	0.00e+00	0	31	101	1048576	54	6100
2026-01-06 02:17:11.57	294.95	22.79	-37.3	-38.0	25.4	0.00e+00	92	31	101	1048576	54	5502
2026-01-06 02:17:12.58	295.21	22.73	-37.5	-38.2	25.3	0.00e+00	46	31	101	1048576	52	6289
2026-01-06 02:17:13.59	295.47	22.68	-37.5	-38.2	25.4	0.00e+00	0	31	101	1048576	52	6303
2026-01-06 02:17:14.60	295.72	22.62	-37.8	-38.6	25.2	0.00e+00	90	31	101	1048576	52	6586
2026-01-06 02:17:15.61	295.98	22.57	-38.3	-39.1	24.6	0.00e+00	0	32	101	1048576	54	6205
2026-01-06 02:17:16.62	296.23	22.51	-38.5	-39.3	24.7	0.00e+00	92	31	101	1048576	54	6363
2026-01-06 02:17:17.63	296.48	22.46	-38.3	-39.1	24.6	0.00e+00	0	32	101	1048576	54	6189
2026-01-06 02:17:18.65	296.73	22.40	-38.1	-38.9	24.9	0.00e+00	80	31	101	1048576	54	6051
2026-01-06 02:17:19.65	296.98	22.34	-37.8	-38.6	25.1	0.00e+00	0	31	101	1048576	54	5871
2026-01-06 02:17:20.67	297.23	22.29	-37.7	-38.4	25.0	0.00e+00	0	31	101	1048576	54	5756
2026-01-06 02:17:21.68	297.48	22.23	-37.9	-38.7	25.0	0.00e+00	90	31	101	1048576	54	5899
2026-01-06 02:17:22.69	297.73	22.17	-38.1	-38.9	24.9	0.00e+00	0	32	101	1048576	54	6088
2026-01-06 02:17:23.70	297.98	22.11	-38.2	-39.0	24.8	0.00e+00	90	31	101	1048576	54	6145
2026-01-06 02:17:24.71	298.22	22.05	-38.5	-39.3	24.7	0.00e+00	0	31	101	1048576	54	6364
2026-01-06 02:17:25.72	298.47	21.99	-38.3	-39.1	24.8	0.00e+00	92	31	101	1048576	54	6243
2026-01-06 02:17:26.73	298.71	21.94	-38.3	-39.1	24.2	0.00e+00	0	31	101	1048576	54	6243
2026-01-06 02:17:27.74	298.96	21.88	-38.2	-39.0	24.7	0.00e+00	0	31	101	1048576	54	6169
2026-01-06 02:17:28.76	299.20	21.81	-38.2	-39.0	24.8	0.00e+00	70	31	101	1048576	54	6106
2026-01-06 02:17:29.77	299.44	21.75	-38.4	-39.2	24.4	0.00e+00	0	31	101	1048576	54	6251
2026-01-06 02:17:30.78	299.68	21.69	-38.3	-39.1	24.9	0.00e+00	72	31	101	1048576	54	6183
2026-01-06 02:17:31.79	299.92	21.63	-38.5	-39.3	24.6	0.00e+00	0	31	101	1048576	54	6351
2026-01-06 02:17:32.80	300.16	21.57	-38.3	-39.1	24.7	0.00e+00	91	31	101	1048576	54	6198
2026-01-06 02:17:33.81	300.40	21.51	-38.6	-39.4	24.5	0.00e+00	0	31	101	1048576	54	6444
2026-01-06 02:17:34.82	300.63	21.45	-39.0	-39.8	24.4	0.00e+00	0	31	101	1048576	54	6741
2026-01-06 02:17:35.83	300.87	21.38	-39.5	-40.4	24.0	0.00e+00	50	31	101	1048576	56	6402
2026-01-06 02:17:36.84	301.11	21.32	-39.6	-40.5	23.8	0.00e+00	0	31	101	1048576	56	6510
2026-01-06 02:17:37.85	301.34	21.26	-39.9	-40.8	23.7	0.00e+00	64	31	101	1048576	56	6699
2026-01-06 02:17:38.86	301.57	21.19	-39.9	-40.8	23.7	0.00e+00	0	31	101	1048576	56	6753
2026-01-06 02:17:39.87	301.80	21.13	-39.6	-40.5	23.7	0.00e+00	92	31	101	1048576	58	5814
2026-01-06 02:17:40.88	302.03	21.07	-39.4	-40.2	24.1	0.00e+00	0	31	101	1048576	58	5604
2026-01-06 02:17:41.90	302.27	21.00	-38.9	-39.7	24.5	0.00e+00	11	31	101	1048576	56	5903
2026-01-06 02:17:42.91	302.50	20.94	-38.6	-39.4	24.7	0.00e+00	92	31	101	1048576	56	5701
2026-01-06 02:17:43.92	302.72	20.87	-38.6	-39.4	24.7	0.00e+00	0	31	101	1048576	56	5754
2026-01-06 02:17:44.93	302.95	20.80	-38.7	-39.5	24.6	0.00e+00	54	31	101	1048576	56	5772
2026-01-06 02:17:45.94	303.18	20.74	-38.7	-39.5	24.5	0.00e+00	0	31	101	1048576	56	5816
2026-01-06 02:17:46.95	303.40	20.67	-39.0	-39.8	24.3	0.00e+00	89	31	101	1048576	56	5996
2026-01-06 02:17:47.96	303.63	20.61	-39.3	-40.1	24.1	0.00e+00	0	31	101	1048576	56	6231
2026-01-06 02:17:48.97	303.85	20.54	-39.5	-40.4	24.0	0.00e+00	90	31	101	1048576	56	6391
2026-01-06 02:17:49.98	304.07	20.47	-39.8	-40.7	23.6	0.00e+00	50	31	101	1048576	56	6682
2026-01-06 02:17:51.00	304.30	20.41	-40.0	-40.9	23.6	0.00e+00	0	31	101	1048576	56	6790
2026-01-06 02:17:52.01	304.52	20.34	-40.1	-41.0	23.4	0.00e+00	51	31	101	1048576	56	6910
2026-01-06 02:17:53.02	304.74	20.27	-40.1	-41.0	23.4	0.00e+00	0	31	101	1048576	58	6127
2026-01-06 02:17:54.03	304.96	20.20	-39.9	-40.8	23.6	0.00e+00	90	31	101	1048576	58	6019
2026-01-06 02:17:55.04	305.17	20.14	-40.0	-40.9	23.4	0.00e+00	0	31	101	1048576	58	6075
2026-01-06 02:17:56.05	305.39	20.07	-39.5	-40.4	23.9	0.00e+00	54	31	101	1048576	58	5714
2026-01-06 02:17:57.06	305.61	20.00	-39.5	-40.4	23.9	0.00e+00	18	31	101	1048576	58	5716
2026-01-06 02:17:58.07	305.82	19.93	-39.3	-40.1	24.1	0.00e+00	0	31	101	1048576	56	6239
2026-01-06 02:17:59.08	306.04	19.86	-39.3	-40.2	24.1	0.00e+00	16	31	101	1048576	56	6257
2026-01-06 02:18:00.09	306.25	19.79	-39.3	-40.1	24.0	0.00e+00	0	31	101	1048576	56	6230
2026-01-06 02:18:01.11	306.46	19.72	-39.5	-40.4	23.9	0.00e+00	92	31	101	1048576	56	6403
2026-01-06 02:18:02.12	306.67	19.66	-39.9	-40.8	23.6	0.00e+00	0	31	101	1048576	56	6717
2026-01-06 02:18:03.13	306.88	19.59	-40.3	-41.2	23.2	0.00e+00	29	31	101	1048576	58	6293
2026-01-06 02:18:04.14	307.09	19.52	-40.5	-41.5	23.0	0.00e+00	9	31	101	1048576	58	6493
2026-01-06 02:18:05.15	307.30	19.45	-40.2	-41.2	23.3	0.00e+00	0	31	101	1048576	58	6271
2026-01-06 02:18:06.16	307.51	19.38	-40.3	-41.3	23.2	0.00e+00	90	31	101	1048576	58	6332
2026-01-06 02:18:07.17	307.72	19.31	-40.0	-41.0	23.4	0.00e+00	0	31	101	1048576	58	6104
2026-01-06 02:18:08.18	307.92	19.24	-39.8	-40.7	23.6	0.00e+00	90	31	101	1048576	58	5932
2026-01-06 02:18:09.19	308.13	19.17	-39.9	-40.8	23.5	0.00e+00	0	31	101	1048576	58	6006
2026-01-06 02:18:10.21	308.33	19.09	-39.9	-40.8	23.4	0.00e+00	92	31	101	1048576	58	5992
2026-01-06 02:18:11.22	308.53	19.02	-40.4	-41.3	23.1	0.00e+00	33	31	101	1048576	58	6368
2026-01-06 02:18:12.23	308.74	18.95	-40.5	-41.4	23.0	0.00e+00	0	31	101	1048576	58	6447
2026-01-06 02:18:13.24	308.94	18.88	-40.6	-41.5	22.9	0.00e+00	92	31	101	1048576	58	6523
2026-01-06 02:18:14.25	309.14	18.81	-40.8	-41.8	22.8	0.00e+00	0	31	101	1048576	58	6732
2026-01-06 02:18:15.26	309.34	18.74	-40.6	-41.5	23.1	0.00e+00	92	31	101	1048576	58	6514
2026-01-06 02:18:16.27	309.53	18.67	-40.4	-41.4	23.1	0.00e+00	0	31	101	1048576	58	6391
2026-01-06 02:18:17.28	309.73	18.60	-40.4	-41.3	23.1	0.00e+00	92	31	101	1048576	58	6383
2026-01-06 02:18:18.30	309.93	18.52	-40.2	-41.2	23.2	0.00e+00	0	31	101	1048576	58	6275
2026-01-06 02:18:19.31	310.13	18.45	-40.2	-41.2	23.1	0.00e+00	0	31	101	1048576	58	6259
2026-01-06 02:18:20.32	310.32	18.38	-40.3	-41.2	23.1	0.00e+00	91	31	101	1048576	58	6311
2026-01-06 02:18:21.33	310.51	18.31	-40.5	-41.5	22.9	0.00e+00	0	31	101	1048576	58	6466
2026-01-06 02:18:22.34	310.71	18.24	-40.4	-41.4	23.1	0.00e+00	92	31	101	1048576	58	6420
2026-01-06 02:18:23.35	310.90	18.16	-40.1	-41.1	23.4	0.00e+00	0	31	101	1048576	58	6188
2026-01-06 02:18:24.36	311.09	18.09	-39.6	-40.5	23.6	0.00e+00	88	31	101	1048576	58	5824
2026-01-06 02:18:25.37	311.28	18.02	-39.6	-40.5	23.7	0.00e+00	0	31	101	1048576	58	5767
2026-01-06 02:18:26.38	311.47	17.95	-39.3	-40.2	23.8	0.00e+00	0	31	101	1048576	58	5571
2026-01-06 02:18:27.39	311.66	17.87	-39.5	-40.4	23.7	0.00e+00	49	31	101	1048576	58	5710
2026-01-06 02:18:28.40	311.85	17.80	-39.7	-40.6	23.6	0.00e+00	0	31	101	1048576	58	5866
2026-01-06 02:18:29.41	312.03	17.73	-39.9	-40.8	23.4	0.00e+00	80	31	101	1048576	58	5984
2026-01-06 02:18:30.43	312.22	17.66	-39.9	-40.9	23.3	0.00e+00	0	31	101	1048576	58	6043
2026-01-06 02:18:31.44	312.40	17.58	-40.1	-41.1	23.2	0.00e+00	51	31	101	1048576	58	6176
2026-01-06 02:18:32.45	312.59	17.51	-40.2	-41.2	23.1	0.00e+00	0	31	101	1048576	58	6274
2026-01-06 02:18:33.46	312.77	17.44	-40.2	-41.2	23.1	0.00e+00	0	31	101	1048576	58	6258
2026-01-06 02:18:34.47	312.95	17.36	-40.0	-41.0	23.4	0.00e+00	45	31	101	1048576	58	6116
2026-01-06 02:18:35.48	313.14	17.29	-39.9	-40.9	23.3	0.00e+00	0	31	101	1048576	58	6036
2026-01-06 02:18:36.49	313.32	17.22	-40.1	-41.0	23.2	0.00e+00	45	31	101	1048576	58	6140
2026-01-06 02:18:37.50	313.50	17.15	-40.5	-41.5	22.9	0.00e+00	0	31	101	1048576	58	6488
2026-01-06 02:18:38.51	313.67	17.07	-40.9	-41.9	22.6	0.00e+00	64	31	101	1048576	58	6823
2026-01-06 02:18:39.53	313.85	17.00	-41.4	-42.5	22.0	0.00e+00	0	31	101	1048576	60	6488
2026-01-06 02:18:40.54	314.03	16.92	-41.6	-42.7	21.7	0.00e+00	52	31	101	1048576	60	6685
2026-01-06 02:18:41.55	314.21	16.85	-41.9	-43.1	21.6	0.00e+00	20	31	101	1048576	60	6963
2026-01-06 02:18:42.56	314.38	16.78	-41.5	-42.6	22.1	0.00e+00	0	31	101	1048576	60	6608
2026-01-06 02:18:43.57	314.56	16.70	-41.0	-42.1	22.4	0.00e+00	62	31	101	1048576	60	6176
2026-01-06 02:18:44.58	314.73	16.63	-40.8	-41.8	22.7	0.00e+00	0	31	101	1048576	60	5983
2026-01-06 02:18:45.59	314.90	16.56	-39.9	-40.8	23.4	0.00e+00	92	31	101	1048576	58	6025
2026-01-06 02:18:46.60	315.08	16.48	-39.6	-40.5	23.7	0.00e+00	0	31	101	1048576	58	5806
2026-01-06 02:18:47.61	315.25	16.41	-39.7	-40.6	23.7	0.00e+00	92	31	101	1048576	58	5845
2026-01-06 02:18:48.62	315.42	16.34	-39.7	-40.6	23.6	0.00e+00	0	31	101	1048576	58	5851
2026-01-06 02:18:49.64	315.59	16.26	-40.0	-40.9	23.3	0.00e+00	0	31	101	1048576	58	6086
2026-01-06 02:18:50.65	315.76	16.19	-40.2	-41.1	23.3	0.00e+00	60	31	101	1048576	58	6220
2026-01-06 02:18:51.66	315.93	16.12	-40.3	-41.3	22.9	0.00e+00	0	31	101	1048576	58	6339
2026-01-06 02:18:52.67	316.09	16.04	-40.5	-41.5	22.8	0.00e+00	92	31	101	1048576	58	6499
2026-01-06 02:18:53.68	316.26	15.97	-40.4	-41.4	23.1	0.00e+00	0	31	101	1048576	58	6444
2026-01-06 02:18:54.69	316.43	15.90	-40.3	-41.3	23.0	0.00e+00	92	31	101	1048576	58	6327
2026-01-06 02:18:55.70	316.59	15.82	-40.1	-41.0	23.3	0.00e+00	17	31	101	1048576	58	6157
2026-01-06 02:18:56.71	316.76	15.75	-39.7	-40.6	23.5	0.00e+00	0	31	101	1048576	58	5887
2026-01-06 02:18:57.72	316.92	15.68	-39.6	-40.5	23.7	0.00e+00	92	31	101	1048576	58	5782
2026-01-06 02:18:58.73	317.08	15.60	-39.7	-40.5	23.6	0.00e+00	0	32	101	1048576	58	5828
2026-01-06 02:18:59.74	317.24	15.53	-39.9	-40.8	23.4	0.00e+00	92	31	101	1048576	58	5986
2026-01-06 02:19:00.76	317.41	15.45	-40.0	-40.9	23.3	0.00e+00	0	31	101	1048576	58	6075
2026-01-06 02:19:01.77	317.57	15.38	-40.2	-41.2	23.1	0.00e+00	0	31	101	1048576	58	6280
2026-01-06 02:19:02.78	317.73	15.31	-40.5	-41.5	23.0	0.00e+00	48	31	101	1048576	58	6472
2026-01-06 02:19:03.79	317.89	15.23	-40.7	-41.7	22.7	0.00e+00	0	31	101	1048576	58	6640
2026-01-06 02:19:04.80	318.04	15.16	-40.6	-41.5	22.9	0.00e+00	46	31	101	1048576	58	6539
2026-01-06 02:19:05.81	318.20	15.09	-40.4	-41.4	23.0	0.00e+00	0	31	101	1048576	58	6391
2026-01-06 02:19:06.82	318.36	15.01	-40.2	-41.2	23.1	0.00e+00	90	31	101	1048576	58	6263
2026-01-06 02:19:07.83	318.51	14.94	-40.3	-41.3	22.9	0.00e+00	0	31	101	1048576	58	6363
2026-01-06 02:19:08.84	318.67	14.87	-40.2	-41.2	23.1	0.00e+00	0	31	101	1048576	58	6266
2026-01-06 02:19:09.86	318.82	14.79	-40.3	-41.3	23.1	0.00e+00	17	31	101	1048576	58	6318
2026-01-06 02:19:10.87	318.98	14.72	-40.3	-41.3	23.0	0.00e+00	0	31	101	1048576	58	6369
2026-01-06 02:19:11.88	319.13	14.65	-40.7	-41.7	22.6	0.00e+00	34	31	101	1048576	58	6632
2026-01-06 02:19:12.89	319.28	14.57	-40.9	-41.9	22.5	0.00e+00	0	31	101	1048576	58	6803
2026-01-06 02:19:13.90	319.43	14.50	-41.0	-42.1	22.4	0.00e+00	56	31	101	1048576	58	6952
2026-01-06 02:19:14.91	319.59	14.43	-41.0	-42.1	22.4	0.00e+00	0	31	101	1048576	60	6201
2026-01-06 02:19:15.92	319.74	14.36	-41.0	-42.1	22.4	0.00e+00	0	31	101	1048576	60	6193
2026-01-06 02:19:16.93	319.88	14.28	-40.8	-41.9	22.6	0.00e+00	0	31	101	1048576	60	6035
2026-01-06 02:19:17.94	320.03	14.21	-40.5	-41.5	22.8	0.00e+00	0	31	101	1048576	60	5780
2026-01-06 02:19:18.95	320.18	14.14	-40.4	-41.4	22.9	0.00e+00	50	31	101	1048576	60	5738
2026-01-06 02:19:19.96	320.33	14.06	-40.4	-41.4	22.9	0.00e+00	0	32	101	1048576	60	5711
2026-01-06 02:19:20.97	320.47	13.99	-40.7	-41.7	22.7	0.00e+00	50	32	101	1048576	60	5952
2026-01-06 02:19:21.99	320.62	13.92	-40.5	-41.5	22.4	0.00e+00	0	31	101	1048576	60	5797
2026-01-06 02:19:23.00	320.77	13.84	-41.0	-42.0	22.2	0.00e+00	0	31	101	1048576	60	6136
2026-01-06 02:19:24.01	320.91	13.77	-41.2	-42.2	22.3	0.00e+00	0	32	101	1048576	60	6304
2026-01-06 02:19:25.02	321.05	13.70	-41.4	-42.5	22.0	0.00e+00	0	31	101	1048576	60	6482
2026-01-06 02:19:26.03	321.20	13.63	-41.6	-42.7	21.8	0.00e+00	48	31	101	1048576	60	6637
2026-01-06 02:19:27.04	321.34	13.55	-41.4	-42.5	21.8	0.00e+00	0	31	101	1048576	60	6533
2026-01-06 02:19:28.05	321.48	13.48	-41.5	-42.6	21.4	0.00e+00	52	31	101	1048576	60	6598
2026-01-06 02:19:29.06	321.62	13.41	-41.3	-42.3	21.9	0.00e+00	0	31	101	1048576	60	6379
2026-01-06 02:19:30.07	321.76	13.34	-41.3	-42.4	22.0	0.00e+00	0	31	101	1048576	60	6403
2026-01-06 02:19:31.08	321.90	13.27	-41.2	-42.3	22.2	0.00e+00	0	31	101	1048576	60	6321
2026-01-06 02:19:32.10	322.04	13.19	-41.0	-42.1	22.3	0.00e+00	0	31	101	1048576	60	6198
2026-01-06 02:19:33.11	322.18	13.12	-41.0	-42.1	22.3	0.00e+00	15	31	101	1048576	60	6177
2026-01-06 02:19:34.12	322.32	13.05	-40.9	-42.0	22.3	0.00e+00	0	31	101	1048576	60	6130
2026-01-06 02:19:35.13	322.46	12.98	-41.2	-42.2	22.1	0.00e+00	92	31	101	1048576	60	6293
2026-01-06 02:19:36.14	322.59	12.90	-41.1	-42.2	22.2	0.00e+00	0	31	101	1048576	60	6284
2026-01-06 02:19:37.15	322.73	12.83	-41.1	-42.2	22.3	0.00e+00	62	31	101	1048576	60	6295
2026-01-06 02:19:38.16	322.86	12.76	-41.3	-42.4	22.0	0.00e+00	0	31	101	1048576	60	6459
2026-01-06 02:19:39.17	323.00	12.69	-41.3	-42.3	22.2	0.00e+00	0	31	101	1048576	60	6387
2026-01-06 02:19:40.18	323.13	12.62	-41.2	-42.2	22.1	0.00e+00	0	31	101	1048576	60	6303
2026-01-06 02:19:41.19	323.27	12.55	-41.2	-42.3	22.2	0.00e+00	0	31	101	1048576	60	6363
2026-01-06 02:19:42.21	323.40	12.47	-41.0	-42.0	22.3	0.00e+00	90	32	101	1048576	60	6157
2026-01-06 02:19:43.22	323.53	12.40	-40.7	-41.7	22.6	0.00e+00	0	31	101	1048576	60	5964
2026-01-06 02:19:44.23	323.66	12.33	-40.6	-41.6	22.6	0.00e+00	63	31	101	1048576	60	5868
2026-01-06 02:19:45.24	323.79	12.26	-40.3	-41.3	23.0	0.00e+00	0	31	101	1048576	60	5641
2026-01-06 02:19:46.25	323.92	12.19	-40.3	-41.2	23.0	0.00e+00	0	31	101	1048576	60	5606
2026-01-06 02:19:47.26	324.05	12.12	-40.0	-40.9	23.2	0.00e+00	0	31	101	1048576	58	6060
2026-01-06 02:19:48.27	324.18	12.05	-40.1	-41.0	23.1	0.00e+00	0	31	101	1048576	58	6164
2026-01-06 02:19:49.28	324.31	11.98	-40.3	-41.3	22.9	0.00e+00	46	31	101	1048576	58	6327
2026-01-06 02:19:50.29	324.44	11.91	-40.2	-41.2	23.0	0.00e+00	0	31	101	1048576	58	6263
2026-01-06 02:19:51.30	324.57	11.83	-40.3	-41.3	22.9	0.00e+00	92	31	101	1048576	58	6366
2026-01-06 02:19:52.31	324.69	11.76	-40.4	-41.4	22.8	0.00e+00	0	32	101	1048576	58	6408
2026-01-06 02:19:53.33	324.82	11.69	-40.5	-41.5	22.7	0.00e+00	0	32	101	1048576	58	6495
2026-01-06 02:19:54.34	324.94	11.62	-40.6	-41.6	22.6	0.00e+00	0	31	101	1048576	58	6564
2026-01-06 02:19:55.35	325.07	11.55	-40.7	-41.7	22.4	0.00e+00	0	31	101	1048576	58	6684
2026-01-06 02:19:56.36	325.19	11.48	-40.7	-41.7	22.6	0.00e+00	47	31	101	1048576	58	6683
2026-01-06 02:19:57.37	325.32	11.41	-40.7	-41.7	22.6	0.00e+00	0	31	101	1048576	58	6627
2026-01-06 02:19:58.38	325.44	11.34	-40.5	-41.5	22.6	0.00e+00	90	31	101	1048576	58	6509
2026-01-06 02:19:59.39	325.56	11.27	-40.6	-41.6	22.6	0.00e+00	0	31	101	1048576	58	6587
2026-01-06 02:20:00.41	325.69	11.20	-40.6	-41.6	22.6	0.00e+00	0	31	101	1048576	58	6579
2026-01-06 02:20:01.42	325.81	11.13	-40.5	-41.5	22.8	0.00e+00	0	32	101	1048576	58	6491
2026-01-06 02:20:02.43	325.93	11.06	-40.8	-41.8	22.5	0.00e+00	0	31	101	1048576	58	6740
2026-01-06 02:20:03.44	326.05	10.99	-40.9	-42.0	22.4	0.00e+00	47	31	101	1048576	58	6872
2026-01-06 02:20:04.45	326.17	10.92	-40.8	-41.8	22.4	0.00e+00	0	31	101	1048576	58	6736
2026-01-06 02:20:05.46	326.29	10.85	-40.9	-41.9	22.4	0.00e+00	92	31	101	1048576	58	6848
2026-01-06 02:20:06.47	326.41	10.78	-40.8	-41.8	22.5	0.00e+00	0	32	101	1048576	58	6759
2026-01-06 02:20:07.48	326.53	10.71	-40.9	-41.9	22.4	0.00e+00	0	32	101	1048576	58	6811
2026-01-06 02:20:08.49	326.64	10.64	-40.8	-41.8	22.4	0.00e+00	0	32	101	1048576	58	6754
2026-01-06 02:20:09.50	326.76	10.57	-40.8	-41.9	22.4	0.00e+00	0	31	101	1048576	58	6790
2026-01-06 02:20:10.51	326.88	10.51	-41.1	-42.1	22.1	0.00e+00	41	32	101	1048576	58	6990
2026-01-06 02:20:11.52	326.99	10.44	-40.9	-42.0	22.3	0.00e+00	0	32	101	1048576	58	6877
2026-01-06 02:20:12.54	327.11	10.37	-41.0	-42.0	22.3	0.00e+00	92	32	101	1048576	58	6918
2026-01-06 02:20:13.54	327.22	10.30	-41.2	-42.2	22.3	0.00e+00	0	31	101	1048576	60	6313
2026-01-06 02:20:14.56	327.34	10.23	-41.0	-42.1	22.2	0.00e+00	0	31	101	1048576	60	6201
2026-01-06 02:20:15.57	327.45	10.16	-41.0	-42.0	22.3	0.00e+00	0	31	101	1048576	60	6150
