passes_logs/2026/01/06/R4.6S_Anadyr_2ch/R4.6S_Anadyr_2ch__20260106_215955_NOAA_21_JPSS-2_rec.log

#Pass ID: 20260106_215955_NOAA 21 (JPSS-2)
#Satellite: NOAA 21 (JPSS-2)
#Configuration: NOAA-21
#almurnet v.1.7.20251203
#Start time: 2026-01-06 21:59:57

#Version: 2.2.20231116
#Station: R4.6S_Anadyr_2ch
#Location: 177.4865 lon 64.73178 lat
#TLE: 1 54234U 22150A   25350.97269056  .00000057  00000+0  47676-4 0  9992
#TLE: 2 54234  98.7466 287.2282 0002043  29.8355 330.2937 14.19525482160692

#Time	Az	El	Level	Level2	SNR	BER	BlckErr	Temp	State	Recorded	gain1	gain2
2026-01-06 21:59:57.13	103.03	0.09	-51.5	-66.6	3.5	1.51e+00	0	29	0	0	60	103777
2026-01-06 21:59:58.14	102.98	0.14	-51.5	-64.6	3.5	1.51e+00	0	30	104	0	60	80093
2026-01-06 21:59:59.15	102.93	0.20	-51.5	-64.6	3.5	1.52e+00	0	30	104	0	60	80004
2026-01-06 22:00:00.16	102.87	0.26	-51.5	-64.5	3.5	1.52e+00	0	30	104	0	60	79860
2026-01-06 22:00:01.17	102.82	0.31	-51.5	-64.6	3.5	1.52e+00	0	30	104	0	60	80549
2026-01-06 22:00:02.18	102.77	0.37	-51.5	-64.6	3.5	1.52e+00	0	30	104	0	60	80713
2026-01-06 22:00:03.19	102.72	0.42	-51.6	-64.6	3.5	1.52e+00	0	30	104	0	60	80869
2026-01-06 22:00:04.20	102.66	0.48	-51.6	-64.6	3.5	1.52e+00	0	31	104	0	60	80638
2026-01-06 22:00:05.21	102.61	0.54	-51.1	-64.6	3.5	1.52e+00	0	30	104	0	60	80312
2026-01-06 22:00:06.22	102.56	0.59	-51.4	-64.6	3.5	1.52e+00	0	31	104	0	60	80004
2026-01-06 22:00:07.23	102.50	0.65	-51.5	-64.6	3.5	1.52e+00	0	31	104	0	60	79986
2026-01-06 22:00:08.24	102.45	0.71	-51.4	-64.5	3.5	1.52e+00	0	30	104	0	60	79560
2026-01-06 22:00:09.26	102.39	0.76	-51.3	-64.4	3.5	1.52e+00	0	31	104	0	60	78486
2026-01-06 22:00:10.27	102.34	0.82	-51.1	-64.3	3.5	1.52e+00	0	31	104	0	60	77272
2026-01-06 22:00:11.28	102.29	0.88	-50.9	-63.9	3.5	1.52e+00	0	31	104	0	60	74329
2026-01-06 22:00:12.29	102.23	0.93	-49.3	-63.2	3.5	1.52e+00	0	31	104	0	60	68283
2026-01-06 22:00:13.30	102.18	0.99	-49.4	-62.9	3.5	1.52e+00	0	31	104	0	60	66080
2026-01-06 22:00:14.31	102.12	1.05	-49.4	-62.9	3.5	1.52e+00	0	31	104	0	60	66113
2026-01-06 22:00:15.32	102.07	1.10	-49.4	-62.9	3.5	1.52e+00	0	31	104	0	60	65816
2026-01-06 22:00:16.33	102.01	1.16	-49.4	-62.9	3.5	1.52e+00	0	31	104	0	60	66061
2026-01-06 22:00:17.34	101.95	1.22	-49.4	-62.8	3.5	1.52e+00	0	31	104	0	60	65495
2026-01-06 22:00:18.35	101.90	1.28	-49.4	-62.8	3.5	1.52e+00	0	31	104	0	60	65661
2026-01-06 22:00:19.36	101.84	1.33	-49.4	-62.8	3.5	1.52e+00	0	31	104	0	60	65410
2026-01-06 22:00:20.37	101.78	1.39	-49.4	-62.8	3.5	1.52e+00	0	31	104	0	60	65260
2026-01-06 22:00:21.38	101.73	1.45	-49.4	-62.8	3.5	1.52e+00	0	31	104	0	60	65539
2026-01-06 22:00:22.39	101.67	1.51	-49.4	-62.8	3.5	1.52e+00	0	31	104	0	60	65576
2026-01-06 22:00:23.40	101.61	1.57	-49.4	-62.9	3.5	1.52e+00	0	31	104	0	60	66192
2026-01-06 22:00:24.41	101.56	1.62	-49.4	-62.9	3.5	1.52e+00	0	31	104	0	60	66060
2026-01-06 22:00:25.42	101.50	1.68	-49.4	-62.9	3.5	1.52e+00	0	31	104	0	60	66214
2026-01-06 22:00:26.43	101.44	1.74	-49.4	-62.9	3.5	1.52e+00	0	31	104	0	60	66376
2026-01-06 22:00:27.45	101.38	1.80	-49.4	-62.9	3.5	1.52e+00	0	31	104	0	60	65821
2026-01-06 22:00:28.46	101.32	1.86	-49.4	-62.9	3.5	1.52e+00	0	31	104	0	60	66388
2026-01-06 22:00:29.47	101.26	1.92	-49.4	-62.9	3.5	1.52e+00	0	31	104	0	60	66434
2026-01-06 22:00:30.48	101.21	1.97	-49.4	-62.8	3.5	1.52e+00	0	31	104	0	60	65568
2026-01-06 22:00:31.49	101.15	2.03	-49.4	-62.8	3.5	1.52e+00	0	31	104	0	60	65224
2026-01-06 22:00:32.50	101.09	2.09	-49.4	-62.7	3.5	1.52e+00	0	31	104	0	60	64382
2026-01-06 22:00:33.51	101.03	2.15	-49.4	-62.6	3.5	1.52e+00	0	31	104	0	60	64000
2026-01-06 22:00:34.52	100.97	2.21	-49.4	-62.6	3.5	1.52e+00	0	31	104	0	60	63688
2026-01-06 22:00:35.53	100.91	2.27	-49.4	-62.7	3.5	1.52e+00	0	31	104	0	60	64895
2026-01-06 22:00:36.54	100.85	2.33	-49.4	-62.9	3.5	1.51e+00	0	31	104	0	60	65883
2026-01-06 22:00:37.55	100.79	2.39	-49.4	-62.9	3.5	1.51e+00	0	31	104	0	60	66026
2026-01-06 22:00:38.56	100.72	2.44	-49.4	-62.9	3.5	1.52e+00	0	31	104	0	60	65989
2026-01-06 22:00:39.57	100.66	2.50	-49.4	-62.9	3.5	1.52e+00	0	31	104	0	60	65865
2026-01-06 22:00:40.59	100.60	2.56	-49.4	-62.9	3.5	1.52e+00	0	31	104	0	60	65761
2026-01-06 22:00:41.59	100.54	2.62	-49.4	-62.9	3.5	1.52e+00	0	31	104	0	60	66189
2026-01-06 22:00:42.60	100.48	2.68	-49.4	-62.9	3.5	1.52e+00	0	31	104	0	60	65747
2026-01-06 22:00:43.61	100.42	2.74	-49.4	-62.6	3.5	1.51e+00	0	31	104	0	60	64151
2026-01-06 22:00:44.62	100.35	2.80	-49.4	-62.3	3.5	1.52e+00	0	31	104	0	60	61517
2026-01-06 22:00:45.63	100.29	2.86	-49.3	-62.0	3.5	1.52e+00	0	31	104	0	60	59491
2026-01-06 22:00:46.65	100.23	2.92	-49.3	-62.1	3.5	1.51e+00	0	31	104	0	60	60145
2026-01-06 22:00:47.66	100.16	2.98	-49.4	-62.5	3.5	1.52e+00	0	31	104	0	60	63398
2026-01-06 22:00:48.67	100.10	3.04	-49.4	-61.9	3.5	1.52e+00	0	31	104	0	60	59142
2026-01-06 22:00:49.68	100.04	3.10	-49.1	-58.9	4.4	1.47e+00	0	31	104	0	60	41761
2026-01-06 22:00:50.69	99.97	3.16	-48.4	-54.3	7.0	2.10e-01	123	31	0	0	60	24585
2026-01-06 22:00:51.70	99.91	3.22	-47.4	-51.7	10.2	1.02e-02	123	31	102	1048576	60	18242
2026-01-06 22:00:52.71	99.84	3.28	-46.4	-49.7	12.4	5.08e-04	122	31	102	1048576	60	14394
2026-01-06 22:00:53.73	99.78	3.35	-49.0	-57.6	3.6	1.46e-03	121	31	104	1048576	60	35959
2026-01-06 22:00:54.74	99.71	3.41	-49.3	-62.9	3.5	1.52e+00	0	31	104	1048576	60	66015
2026-01-06 22:00:55.75	99.65	3.47	-45.0	-47.8	13.9	1.44e+00	0	31	104	1048576	60	11652
2026-01-06 22:00:56.76	99.58	3.53	-40.7	-42.0	20.0	0.00e+00	122	31	0	1048576	60	5961
2026-01-06 22:00:57.77	99.52	3.59	-47.6	-59.4	3.5	4.94e-01	0	31	104	1048576	60	44328
2026-01-06 22:00:58.78	99.45	3.65	-45.1	-47.8	5.1	1.41e+00	0	31	104	1048576	60	11634
2026-01-06 22:00:59.79	99.38	3.71	-41.7	-43.2	18.9	0.00e+00	122	31	0	1048576	60	6809
2026-01-06 22:01:00.80	99.32	3.77	-40.8	-42.2	19.9	0.00e+00	123	31	0	1048576	60	6073
2026-01-06 22:01:01.81	99.25	3.83	-40.6	-41.9	20.1	0.00e+00	122	31	0	1048576	60	5921
2026-01-06 22:01:02.82	99.18	3.90	-40.5	-41.8	20.3	0.00e+00	120	31	0	1048576	60	5852
2026-01-06 22:01:03.83	99.11	3.96	-40.6	-41.9	20.2	0.00e+00	122	31	0	1048576	60	5864
2026-01-06 22:01:04.85	99.04	4.02	-40.6	-41.9	20.3	0.00e+00	123	31	0	1048576	60	5878
2026-01-06 22:01:05.86	98.98	4.08	-40.7	-42.0	20.3	0.00e+00	122	31	0	1048576	60	5928
2026-01-06 22:01:06.87	98.91	4.14	-40.8	-42.0	20.2	0.00e+00	123	31	0	1048576	60	5984
2026-01-06 22:01:07.88	98.84	4.21	-40.7	-41.9	20.3	0.00e+00	123	31	0	1048576	60	5891
2026-01-06 22:01:08.89	98.77	4.27	-40.8	-42.1	20.2	0.00e+00	120	31	0	1048576	60	6003
2026-01-06 22:01:09.90	98.70	4.33	-40.9	-42.1	20.2	0.00e+00	122	31	0	1048576	60	6039
2026-01-06 22:01:10.91	98.63	4.39	-41.0	-42.2	20.0	0.00e+00	120	31	101	1048576	60	6124
2026-01-06 22:01:11.92	98.56	4.46	-40.6	-41.9	20.4	0.00e+00	122	31	101	1048576	60	5860
2026-01-06 22:01:12.93	98.49	4.52	-40.6	-41.8	20.4	0.00e+00	122	31	101	1048576	60	5823
2026-01-06 22:01:13.94	98.42	4.58	-40.6	-41.8	20.4	0.00e+00	122	31	101	1048576	60	5838
2026-01-06 22:01:14.95	98.35	4.64	-40.6	-41.9	20.4	0.00e+00	123	31	101	1048576	60	5876
2026-01-06 22:01:15.96	98.27	4.71	-40.8	-42.0	20.3	0.00e+00	122	31	101	1048576	60	5976
2026-01-06 22:01:16.97	98.20	4.77	-40.7	-41.9	20.4	0.00e+00	123	31	101	1048576	60	5894
2026-01-06 22:01:17.98	98.13	4.83	-40.5	-41.8	20.6	0.00e+00	122	31	101	1048576	60	5795
2026-01-06 22:01:19.00	98.06	4.90	-40.6	-41.9	20.5	0.00e+00	122	31	101	1048576	60	5868
2026-01-06 22:01:20.01	97.98	4.96	-40.6	-41.8	20.5	0.00e+00	123	31	101	1048576	60	5843
2026-01-06 22:01:21.02	97.91	5.02	-40.4	-41.6	20.8	0.00e+00	123	31	101	1048576	60	5674
2026-01-06 22:01:22.03	97.84	5.09	-40.4	-41.6	20.7	0.00e+00	120	31	101	1048576	60	5694
2026-01-06 22:01:23.04	97.76	5.15	-40.3	-41.5	20.9	0.00e+00	123	31	101	1048576	60	5611
2026-01-06 22:01:24.05	97.69	5.21	-40.4	-41.6	20.8	0.00e+00	122	31	101	1048576	60	5684
2026-01-06 22:01:25.06	97.61	5.28	-40.3	-41.5	20.9	0.00e+00	123	31	101	1048576	60	5628
2026-01-06 22:01:26.07	97.54	5.34	-40.3	-41.5	21.1	0.00e+00	123	31	101	1048576	60	5621
2026-01-06 22:01:27.08	97.46	5.41	-40.2	-41.3	21.0	0.00e+00	123	31	101	1048576	58	6176
2026-01-06 22:01:28.09	97.39	5.47	-40.0	-41.1	21.2	0.00e+00	123	31	101	1048576	58	6059
2026-01-06 22:01:29.10	97.31	5.53	-40.2	-41.3	21.1	0.00e+00	123	31	101	1048576	58	6184
2026-01-06 22:01:30.11	97.24	5.60	-40.0	-41.1	21.2	0.00e+00	123	31	101	1048576	58	6017
2026-01-06 22:01:31.12	97.16	5.66	-39.9	-41.1	21.3	0.00e+00	122	31	101	1048576	58	6000
2026-01-06 22:01:32.13	97.08	5.73	-40.0	-41.1	21.2	0.00e+00	122	31	101	1048576	58	6033
2026-01-06 22:01:33.14	97.01	5.79	-39.9	-41.0	21.3	0.00e+00	123	31	101	1048576	58	5986
2026-01-06 22:01:34.15	96.93	5.86	-39.9	-41.1	21.3	0.00e+00	122	31	101	1048576	58	5998
2026-01-06 22:01:35.17	96.85	5.92	-39.8	-40.9	21.4	0.00e+00	123	31	101	1048576	58	5898
2026-01-06 22:01:36.18	96.77	5.99	-39.8	-41.0	21.5	0.00e+00	123	31	101	1048576	58	5945
2026-01-06 22:01:37.19	96.69	6.05	-39.8	-41.0	21.4	0.00e+00	122	31	101	1048576	58	5960
2026-01-06 22:01:38.20	96.61	6.12	-39.9	-41.1	21.3	0.00e+00	123	32	101	1048576	58	6012
2026-01-06 22:01:39.21	96.53	6.18	-39.9	-41.1	21.3	0.00e+00	123	31	101	1048576	58	6032
2026-01-06 22:01:40.22	96.45	6.25	-39.9	-41.1	21.4	0.00e+00	123	31	101	1048576	58	5996
2026-01-06 22:01:41.23	96.37	6.32	-40.0	-41.1	21.3	0.00e+00	123	31	101	1048576	58	6061
2026-01-06 22:01:42.24	96.29	6.38	-39.9	-41.0	21.4	0.00e+00	122	32	101	1048576	58	5947
2026-01-06 22:01:43.25	96.21	6.45	-40.0	-41.1	21.3	0.00e+00	123	31	101	1048576	58	6030
2026-01-06 22:01:44.26	96.13	6.51	-39.9	-41.0	21.4	0.00e+00	122	31	101	1048576	58	5980
2026-01-06 22:01:45.28	96.05	6.58	-39.9	-41.0	21.5	0.00e+00	123	31	101	1048576	58	5949
2026-01-06 22:01:46.29	95.97	6.65	-39.9	-41.1	21.3	0.00e+00	123	31	101	1048576	58	6014
2026-01-06 22:01:47.30	95.88	6.71	-39.8	-40.9	21.5	0.00e+00	123	31	101	1048576	58	5901
2026-01-06 22:01:48.31	95.80	6.78	-39.8	-40.9	21.6	0.00e+00	123	31	101	1048576	58	5902
2026-01-06 22:01:49.32	95.72	6.85	-39.6	-40.7	21.7	0.00e+00	123	31	101	1048576	58	5777
2026-01-06 22:01:50.33	95.63	6.91	-39.7	-40.9	21.6	0.00e+00	120	31	101	1048576	58	5862
2026-01-06 22:01:51.34	95.55	6.98	-39.7	-40.8	21.7	0.00e+00	123	32	101	1048576	58	5810
2026-01-06 22:01:52.35	95.46	7.05	-39.7	-40.8	21.7	0.00e+00	122	31	101	1048576	58	5803
2026-01-06 22:01:53.36	95.38	7.11	-39.7	-40.8	21.7	0.00e+00	120	32	101	1048576	58	5822
2026-01-06 22:01:54.37	95.29	7.18	-39.6	-40.7	21.8	0.00e+00	122	31	101	1048576	58	5726
2026-01-06 22:01:55.39	95.21	7.25	-39.6	-40.6	21.8	0.00e+00	123	32	101	1048576	58	5723
2026-01-06 22:01:56.40	95.12	7.31	-39.5	-40.6	21.8	0.00e+00	123	32	101	1048576	58	5706
2026-01-06 22:01:57.41	95.04	7.38	-39.5	-40.5	21.9	0.00e+00	123	31	101	1048576	58	5653
2026-01-06 22:01:58.42	94.95	7.45	-39.4	-40.5	21.9	0.00e+00	123	31	101	1048576	58	5630
2026-01-06 22:01:59.43	94.86	7.52	-39.3	-40.3	22.1	0.00e+00	122	31	101	1048576	58	5518
2026-01-06 22:02:00.44	94.77	7.59	-39.4	-40.4	22.0	0.00e+00	120	32	101	1048576	58	5581
2026-01-06 22:02:01.45	94.69	7.65	-39.3	-40.4	22.0	0.00e+00	123	32	101	1048576	58	5542
2026-01-06 22:02:02.46	94.60	7.72	-39.3	-40.3	22.1	0.00e+00	122	32	101	1048576	58	5525
2026-01-06 22:02:03.47	94.51	7.79	-39.3	-40.3	22.1	0.00e+00	122	32	101	1048576	58	5513
2026-01-06 22:02:04.48	94.42	7.86	-39.4	-40.4	22.0	0.00e+00	122	31	101	1048576	58	5591
2026-01-06 22:02:05.49	94.33	7.93	-39.3	-40.3	22.1	0.00e+00	122	31	101	1048576	58	5499
2026-01-06 22:02:06.50	94.24	7.99	-39.3	-40.4	22.1	0.00e+00	123	32	101	1048576	58	5542
2026-01-06 22:02:07.51	94.15	8.06	-39.2	-40.2	21.5	0.00e+00	123	32	101	1048576	58	5451
2026-01-06 22:02:08.52	94.06	8.13	-39.0	-40.0	22.5	0.00e+00	120	32	101	1048576	56	5966
2026-01-06 22:02:09.53	93.96	8.20	-39.0	-40.1	22.4	0.00e+00	123	32	101	1048576	56	6006
2026-01-06 22:02:10.55	93.87	8.27	-39.0	-40.1	22.4	0.00e+00	123	32	101	1048576	56	5999
2026-01-06 22:02:11.55	93.78	8.34	-38.9	-39.9	22.6	0.00e+00	122	32	101	1048576	56	5885
2026-01-06 22:02:12.57	93.69	8.41	-39.0	-40.0	22.5	0.00e+00	123	32	101	1048576	56	5985
2026-01-06 22:02:13.58	93.59	8.48	-38.9	-40.0	22.5	0.00e+00	123	32	101	1048576	56	5947
2026-01-06 22:02:14.59	93.50	8.55	-38.7	-39.7	22.7	0.00e+00	123	32	101	1048576	56	5787
2026-01-06 22:02:15.60	93.40	8.62	-38.7	-39.7	22.7	0.00e+00	123	31	101	1048576	56	5788
2026-01-06 22:02:16.61	93.31	8.69	-38.7	-39.7	22.7	0.00e+00	122	31	101	1048576	56	5775
2026-01-06 22:02:17.62	93.21	8.76	-38.7	-39.8	22.7	0.00e+00	123	32	101	1048576	56	5792
2026-01-06 22:02:18.63	93.12	8.83	-38.6	-39.6	22.8	0.00e+00	123	31	101	1048576	56	5725
2026-01-06 22:02:19.64	93.02	8.90	-38.8	-39.8	22.6	0.00e+00	123	32	101	1048576	56	5845
2026-01-06 22:02:20.65	92.92	8.97	-38.7	-39.7	22.7	0.00e+00	122	32	101	1048576	56	5759
2026-01-06 22:02:21.66	92.83	9.04	-38.5	-39.5	22.9	0.00e+00	122	32	101	1048576	56	5624
2026-01-06 22:02:22.67	92.73	9.11	-38.6	-39.6	22.9	0.00e+00	120	32	101	1048576	56	5717
2026-01-06 22:02:23.68	92.63	9.18	-38.6	-39.6	22.8	0.00e+00	123	32	101	1048576	56	5669
2026-01-06 22:02:24.70	92.53	9.25	-38.5	-39.5	22.9	0.00e+00	123	32	101	1048576	56	5623
2026-01-06 22:02:25.71	92.43	9.32	-38.5	-39.4	22.9	0.00e+00	122	31	101	1048576	56	5588
2026-01-06 22:02:26.72	92.33	9.39	-38.3	-39.3	23.0	0.00e+00	123	32	101	1048576	56	5503
2026-01-06 22:02:27.73	92.23	9.46	-38.5	-39.5	22.9	0.00e+00	122	32	101	1048576	56	5626
2026-01-06 22:02:28.74	92.13	9.53	-38.4	-39.4	23.1	0.00e+00	122	32	101	1048576	56	5533
2026-01-06 22:02:29.75	92.03	9.60	-38.3	-39.3	23.1	0.00e+00	122	32	101	1048576	56	5482
2026-01-06 22:02:30.76	91.93	9.67	-38.3	-39.3	23.1	0.00e+00	123	32	101	1048576	56	5505
2026-01-06 22:02:31.77	91.83	9.75	-38.3	-39.2	23.2	0.00e+00	122	32	101	1048576	56	5458
2026-01-06 22:02:32.78	91.72	9.82	-38.2	-39.2	23.3	0.00e+00	122	32	101	1048576	56	5424
2026-01-06 22:02:33.79	91.62	9.89	-38.1	-39.1	23.3	0.00e+00	123	32	101	1048576	54	6001
2026-01-06 22:02:34.80	91.52	9.96	-38.1	-39.1	23.3	0.00e+00	123	32	101	1048576	54	6041
2026-01-06 22:02:35.81	91.41	10.03	-38.1	-39.1	23.2	0.00e+00	123	32	101	1048576	54	6035
2026-01-06 22:02:36.82	91.31	10.10	-37.9	-38.9	23.5	0.00e+00	123	32	101	1048576	54	5900
2026-01-06 22:02:37.83	91.20	10.18	-37.9	-38.9	23.4	0.00e+00	123	32	101	1048576	54	5890
2026-01-06 22:02:38.84	91.10	10.25	-37.8	-38.7	23.6	0.00e+00	120	32	101	1048576	54	5769
2026-01-06 22:02:39.85	90.99	10.32	-37.9	-38.8	23.5	0.00e+00	122	31	101	1048576	54	5852
2026-01-06 22:02:40.86	90.88	10.39	-37.7	-38.6	23.6	0.00e+00	120	32	101	1048576	54	5710
2026-01-06 22:02:41.87	90.78	10.47	-37.8	-38.8	23.5	0.00e+00	122	31	101	1048576	54	5816
2026-01-06 22:02:42.88	90.67	10.54	-37.6	-38.5	23.7	0.00e+00	123	32	101	1048576	54	5652
2026-01-06 22:02:43.89	90.56	10.61	-37.6	-38.5	23.7	0.00e+00	123	32	101	1048576	54	5656
2026-01-06 22:02:44.90	90.45	10.68	-37.5	-38.5	23.8	0.00e+00	123	32	101	1048576	54	5601
2026-01-06 22:02:45.91	90.34	10.76	-37.6	-38.5	23.7	0.00e+00	121	32	101	1048576	54	5630
2026-01-06 22:02:46.92	90.23	10.83	-37.6	-38.5	23.7	0.00e+00	123	32	101	1048576	54	5640
2026-01-06 22:02:47.94	90.12	10.90	-37.5	-38.5	23.7	0.00e+00	120	32	101	1048576	54	5608
2026-01-06 22:02:48.95	90.01	10.98	-37.7	-38.6	23.6	0.00e+00	122	32	101	1048576	54	5697
2026-01-06 22:02:49.96	89.90	11.05	-37.7	-38.6	23.6	0.00e+00	122	32	101	1048576	54	5715
2026-01-06 22:02:50.97	89.78	11.12	-37.6	-38.5	23.7	0.00e+00	123	32	101	1048576	54	5658
2026-01-06 22:02:51.98	89.67	11.20	-37.5	-38.5	23.8	0.00e+00	123	32	101	1048576	54	5633
2026-01-06 22:02:52.99	89.56	11.27	-37.5	-38.5	23.8	0.00e+00	123	32	101	1048576	54	5618
2026-01-06 22:02:54.00	89.44	11.35	-37.5	-38.4	23.8	0.00e+00	122	32	101	1048576	54	5587
2026-01-06 22:02:55.01	89.33	11.42	-37.5	-38.5	23.8	0.00e+00	120	32	101	1048576	54	5607
2026-01-06 22:02:56.02	89.21	11.49	-37.4	-38.4	23.9	0.00e+00	123	32	101	1048576	54	5552
2026-01-06 22:02:57.03	89.10	11.57	-37.5	-38.4	23.9	0.00e+00	122	32	101	1048576	54	5568
2026-01-06 22:02:58.04	88.98	11.64	-37.5	-38.5	23.8	0.00e+00	123	32	101	1048576	54	5612
2026-01-06 22:02:59.06	88.86	11.72	-37.6	-38.5	23.8	0.00e+00	123	32	101	1048576	54	5629
2026-01-06 22:03:00.07	88.74	11.79	-37.7	-38.7	23.7	0.00e+00	123	32	101	1048576	54	5736
2026-01-06 22:03:01.08	88.62	11.87	-37.5	-38.4	23.8	0.00e+00	122	32	101	1048576	54	5573
2026-01-06 22:03:02.09	88.50	11.94	-37.6	-38.5	23.8	0.00e+00	123	32	101	1048576	54	5637
2026-01-06 22:03:03.10	88.39	12.02	-37.5	-38.5	23.8	0.00e+00	123	32	101	1048576	54	5610
2026-01-06 22:03:04.11	88.26	12.09	-37.6	-38.6	23.8	0.00e+00	122	32	101	1048576	54	5661
2026-01-06 22:03:05.12	88.14	12.17	-37.5	-38.5	23.8	0.00e+00	123	32	101	1048576	54	5602
2026-01-06 22:03:06.13	88.02	12.24	-37.7	-38.6	23.8	0.00e+00	123	32	101	1048576	54	5701
2026-01-06 22:03:07.14	87.90	12.32	-37.5	-38.5	23.9	0.00e+00	120	32	101	1048576	54	5620
2026-01-06 22:03:08.15	87.78	12.39	-37.4	-38.4	23.9	0.00e+00	122	32	101	1048576	54	5553
2026-01-06 22:03:09.17	87.65	12.47	-37.3	-38.2	24.0	0.00e+00	120	32	101	1048576	54	5466
2026-01-06 22:03:10.18	87.53	12.54	-37.4	-38.3	24.0	0.00e+00	122	32	101	1048576	54	5524
2026-01-06 22:03:11.19	87.40	12.62	-37.4	-38.3	24.0	0.00e+00	120	32	101	1048576	54	5499
2026-01-06 22:03:12.20	87.28	12.70	-37.3	-38.2	24.0	0.00e+00	123	32	101	1048576	54	5465
2026-01-06 22:03:13.21	87.15	12.77	-37.4	-38.3	23.9	0.00e+00	120	32	101	1048576	54	5525
2026-01-06 22:03:14.22	87.02	12.85	-37.4	-38.3	24.0	0.00e+00	122	32	101	1048576	54	5517
2026-01-06 22:03:15.23	86.90	12.92	-37.4	-38.3	24.0	0.00e+00	121	32	101	1048576	54	5508
2026-01-06 22:03:16.24	86.77	13.00	-37.4	-38.3	24.0	0.00e+00	122	32	101	1048576	54	5504
2026-01-06 22:03:17.25	86.64	13.08	-37.4	-38.3	23.9	0.00e+00	120	32	101	1048576	54	5522
2026-01-06 22:03:18.26	86.51	13.15	-37.5	-38.5	23.8	0.00e+00	123	32	101	1048576	54	5618
2026-01-06 22:03:19.27	86.38	13.23	-37.4	-38.4	23.8	0.00e+00	122	32	101	1048576	54	5552
2026-01-06 22:03:20.28	86.25	13.31	-37.6	-38.6	23.7	0.00e+00	123	32	101	1048576	54	5660
2026-01-06 22:03:21.29	86.12	13.38	-37.7	-38.7	23.7	0.00e+00	123	32	101	1048576	54	5746
2026-01-06 22:03:22.30	85.99	13.46	-37.5	-38.5	23.9	0.00e+00	120	32	101	1048576	54	5623
2026-01-06 22:03:23.32	85.85	13.54	-37.5	-38.5	23.9	0.00e+00	122	32	101	1048576	54	5603
2026-01-06 22:03:24.33	85.72	13.61	-37.5	-38.5	23.9	0.00e+00	123	32	101	1048576	54	5621
2026-01-06 22:03:25.34	85.58	13.69	-37.4	-38.4	24.1	0.00e+00	123	32	101	1048576	54	5544
2026-01-06 22:03:26.35	85.45	13.77	-37.5	-38.5	24.0	0.00e+00	120	32	101	1048576	54	5611
2026-01-06 22:03:27.36	85.31	13.84	-37.5	-38.5	24.0	0.00e+00	123	32	101	1048576	54	5615
2026-01-06 22:03:28.37	85.18	13.92	-37.4	-38.3	24.0	0.00e+00	122	32	101	1048576	54	5502
2026-01-06 22:03:29.38	85.04	14.00	-37.4	-38.3	24.1	0.00e+00	122	32	101	1048576	54	5487
2026-01-06 22:03:30.39	84.90	14.08	-37.2	-38.1	24.2	0.00e+00	123	32	101	1048576	52	6048
2026-01-06 22:03:31.40	84.76	14.15	-37.3	-38.3	24.0	0.00e+00	122	32	101	1048576	52	6139
2026-01-06 22:03:32.41	84.62	14.23	-37.3	-38.2	24.1	0.00e+00	123	32	101	1048576	52	6103
2026-01-06 22:03:33.42	84.48	14.31	-37.3	-38.3	24.0	0.00e+00	123	32	101	1048576	52	6153
2026-01-06 22:03:34.43	84.34	14.39	-37.3	-38.3	24.1	0.00e+00	122	32	101	1048576	52	6139
2026-01-06 22:03:35.43	84.20	14.46	-37.4	-38.3	24.0	0.00e+00	120	32	101	1048576	52	6197
2026-01-06 22:03:36.44	84.06	14.54	-37.4	-38.4	24.0	0.00e+00	122	32	101	1048576	52	6224
2026-01-06 22:03:37.45	83.92	14.62	-37.5	-38.4	24.1	0.00e+00	123	32	101	1048576	52	6251
2026-01-06 22:03:38.46	83.77	14.70	-37.3	-38.2	24.1	0.00e+00	123	32	101	1048576	52	6115
2026-01-06 22:03:39.46	83.63	14.77	-37.4	-38.3	24.0	0.00e+00	123	32	101	1048576	52	6161
2026-01-06 22:03:40.47	83.48	14.85	-37.6	-38.5	23.9	0.00e+00	123	32	101	1048576	52	6325
2026-01-06 22:03:41.48	83.34	14.93	-37.5	-38.5	23.9	0.00e+00	122	32	101	1048576	52	6289
2026-01-06 22:03:42.49	83.19	15.01	-37.7	-38.6	23.7	0.00e+00	122	32	101	1048576	52	6397
2026-01-06 22:03:43.49	83.04	15.09	-37.6	-38.6	23.8	0.00e+00	123	32	101	1048576	52	6370
2026-01-06 22:03:44.50	82.89	15.16	-37.5	-38.5	23.9	0.00e+00	123	32	101	1048576	52	6289
2026-01-06 22:03:45.51	82.74	15.24	-37.7	-38.6	23.8	0.00e+00	123	32	101	1048576	52	6410
2026-01-06 22:03:46.52	82.59	15.32	-37.9	-38.8	23.6	0.00e+00	122	32	101	1048576	52	6552
2026-01-06 22:03:47.52	82.44	15.40	-37.8	-38.8	23.6	0.00e+00	123	32	101	1048576	52	6523
2026-01-06 22:03:48.53	82.29	15.48	-37.9	-38.8	23.6	0.00e+00	120	32	101	1048576	52	6573
2026-01-06 22:03:49.54	82.14	15.56	-38.0	-39.0	23.6	0.00e+00	122	32	101	1048576	52	6691
2026-01-06 22:03:50.55	81.99	15.63	-38.1	-39.0	23.5	0.00e+00	122	32	101	1048576	54	5983
2026-01-06 22:03:51.56	81.83	15.71	-38.0	-39.0	23.5	0.00e+00	122	32	101	1048576	54	5959
2026-01-06 22:03:52.57	81.68	15.79	-38.1	-39.1	23.5	0.00e+00	123	32	101	1048576	54	6013
2026-01-06 22:03:53.58	81.52	15.87	-37.9	-38.9	23.7	0.00e+00	123	32	101	1048576	54	5868
2026-01-06 22:03:54.60	81.36	15.95	-38.0	-38.9	23.7	0.00e+00	123	32	101	1048576	54	5897
2026-01-06 22:03:55.60	81.21	16.03	-37.9	-38.8	23.7	0.00e+00	120	32	101	1048576	54	5844
2026-01-06 22:03:56.62	81.05	16.11	-37.8	-38.8	23.7	0.00e+00	123	32	101	1048576	54	5792
2026-01-06 22:03:57.63	80.89	16.19	-38.0	-38.9	23.7	0.00e+00	120	32	101	1048576	54	5910
2026-01-06 22:03:58.64	80.73	16.27	-37.8	-38.8	23.7	0.00e+00	123	32	101	1048576	54	5805
2026-01-06 22:03:59.65	80.57	16.34	-37.9	-38.9	23.6	0.00e+00	123	32	101	1048576	54	5883
2026-01-06 22:04:00.66	80.40	16.42	-37.8	-38.8	23.7	0.00e+00	123	32	101	1048576	54	5818
2026-01-06 22:04:01.67	80.24	16.50	-38.0	-38.9	23.7	0.00e+00	123	32	101	1048576	54	5893
2026-01-06 22:04:02.68	80.08	16.58	-37.9	-38.8	23.6	0.00e+00	120	32	101	1048576	54	5850
2026-01-06 22:04:03.69	79.91	16.66	-37.9	-38.8	23.8	0.00e+00	123	32	101	1048576	54	5817
2026-01-06 22:04:04.70	79.75	16.74	-37.9	-38.8	23.7	0.00e+00	121	32	101	1048576	54	5856
2026-01-06 22:04:05.71	79.58	16.82	-37.8	-38.7	23.8	0.00e+00	122	32	101	1048576	54	5760
2026-01-06 22:04:06.73	79.41	16.90	-38.0	-38.9	23.7	0.00e+00	120	32	101	1048576	54	5910
2026-01-06 22:04:07.74	79.25	16.98	-37.8	-38.8	23.8	0.00e+00	122	32	101	1048576	54	5805
2026-01-06 22:04:08.75	79.08	17.06	-38.0	-39.0	23.6	0.00e+00	120	32	101	1048576	54	5954
2026-01-06 22:04:09.76	78.91	17.13	-37.7	-38.7	23.8	0.00e+00	123	32	101	1048576	54	5744
2026-01-06 22:04:10.77	78.74	17.21	-37.9	-38.9	23.7	0.00e+00	120	32	101	1048576	54	5861
2026-01-06 22:04:11.78	78.56	17.29	-37.6	-38.5	23.9	0.00e+00	122	32	101	1048576	54	5634
2026-01-06 22:04:12.79	78.39	17.37	-37.7	-38.6	23.8	0.00e+00	122	32	101	1048576	54	5721
2026-01-06 22:04:13.80	78.22	17.45	-37.5	-38.4	24.0	0.00e+00	123	32	101	1048576	54	5564
2026-01-06 22:04:14.81	78.04	17.53	-37.5	-38.4	24.1	0.00e+00	123	32	101	1048576	54	5538
2026-01-06 22:04:15.82	77.87	17.61	-37.5	-38.4	24.0	0.00e+00	122	32	101	1048576	54	5555
2026-01-06 22:04:16.84	77.69	17.69	-37.5	-38.4	24.1	0.00e+00	123	32	101	1048576	54	5562
2026-01-06 22:04:17.85	77.51	17.77	-37.4	-38.3	24.2	0.00e+00	123	32	101	1048576	54	5482
2026-01-06 22:04:18.86	77.34	17.85	-37.4	-38.3	24.2	0.00e+00	122	32	101	1048576	54	5508
2026-01-06 22:04:19.87	77.16	17.92	-37.3	-38.2	24.1	0.00e+00	120	32	101	1048576	54	5454
2026-01-06 22:04:20.88	76.98	18.00	-37.1	-38.1	24.3	0.00e+00	123	32	101	1048576	52	6001
2026-01-06 22:04:21.89	76.80	18.08	-37.2	-38.1	24.3	0.00e+00	120	32	101	1048576	52	6026
2026-01-06 22:04:22.90	76.61	18.16	-36.9	-37.9	24.4	0.00e+00	123	32	101	1048576	52	5863
2026-01-06 22:04:23.91	76.43	18.24	-37.0	-37.9	24.4	0.00e+00	123	32	101	1048576	52	5917
2026-01-06 22:04:24.92	76.25	18.32	-37.1	-38.0	24.4	0.00e+00	122	32	101	1048576	52	5960
2026-01-06 22:04:25.93	76.06	18.40	-37.1	-38.0	24.3	0.00e+00	122	32	101	1048576	52	5993
2026-01-06 22:04:26.94	75.88	18.47	-37.0	-37.9	24.4	0.00e+00	123	32	101	1048576	52	5891
2026-01-06 22:04:27.95	75.69	18.55	-37.1	-38.0	24.3	0.00e+00	120	32	101	1048576	52	5992
2026-01-06 22:04:28.96	75.50	18.63	-37.1	-38.0	24.3	0.00e+00	122	32	101	1048576	52	5968
2026-01-06 22:04:29.97	75.31	18.71	-37.1	-38.0	24.3	0.00e+00	122	32	101	1048576	52	5984
2026-01-06 22:04:30.99	75.12	18.79	-37.2	-38.1	24.2	0.00e+00	123	32	101	1048576	52	6049
2026-01-06 22:04:32.00	74.93	18.87	-37.2	-38.1	24.2	0.00e+00	122	32	101	1048576	52	6019
2026-01-06 22:04:33.01	74.74	18.94	-37.1	-38.0	24.2	0.00e+00	123	32	101	1048576	52	5991
2026-01-06 22:04:34.02	74.55	19.02	-37.0	-37.9	24.4	0.00e+00	123	32	101	1048576	52	5912
2026-01-06 22:04:35.03	74.35	19.10	-37.0	-37.9	24.5	0.00e+00	123	32	101	1048576	52	5892
2026-01-06 22:04:36.04	74.16	19.18	-37.1	-38.0	24.5	0.00e+00	120	32	101	1048576	52	5946
2026-01-06 22:04:37.05	73.96	19.25	-37.0	-37.9	24.5	0.00e+00	123	32	101	1048576	52	5885
2026-01-06 22:04:38.06	73.77	19.33	-36.9	-37.8	24.5	0.00e+00	122	32	101	1048576	52	5837
2026-01-06 22:04:39.07	73.57	19.41	-36.9	-37.8	24.5	0.00e+00	122	32	101	1048576	52	5849
2026-01-06 22:04:40.08	73.37	19.49	-37.1	-38.0	24.4	0.00e+00	120	32	101	1048576	52	5941
2026-01-06 22:04:41.09	73.17	19.56	-37.0	-37.9	24.4	0.00e+00	123	32	101	1048576	52	5887
2026-01-06 22:04:42.10	72.97	19.64	-37.1	-38.0	24.4	0.00e+00	123	32	101	1048576	52	5986
2026-01-06 22:04:43.11	72.77	19.72	-36.8	-37.7	24.6	0.00e+00	123	32	101	1048576	52	5785
2026-01-06 22:04:44.12	72.57	19.79	-36.8	-37.7	24.6	0.00e+00	122	32	101	1048576	52	5740
2026-01-06 22:04:45.13	72.36	19.87	-36.7	-37.6	24.7	0.00e+00	123	32	101	1048576	52	5694
2026-01-06 22:04:46.15	72.16	19.95	-36.8	-37.6	24.6	0.00e+00	123	32	101	1048576	52	5724
2026-01-06 22:04:47.16	71.95	20.02	-36.7	-37.5	24.7	0.00e+00	120	32	101	1048576	52	5654
2026-01-06 22:04:48.17	71.74	20.10	-36.4	-37.3	24.8	0.00e+00	122	32	101	1048576	52	5503
2026-01-06 22:04:49.18	71.54	20.18	-36.6	-37.5	24.6	0.00e+00	123	32	101	1048576	52	5631
2026-01-06 22:04:50.19	71.33	20.25	-36.6	-37.5	24.6	0.00e+00	123	32	101	1048576	52	5656
2026-01-06 22:04:51.20	71.12	20.33	-36.6	-37.5	24.7	0.00e+00	122	32	101	1048576	52	5597
2026-01-06 22:04:52.21	70.91	20.40	-36.6	-37.5	24.7	0.00e+00	123	32	101	1048576	52	5649
2026-01-06 22:04:53.22	70.69	20.48	-36.5	-37.4	24.8	0.00e+00	123	32	101	1048576	52	5566
2026-01-06 22:04:54.23	70.48	20.55	-36.5	-37.4	24.7	0.00e+00	122	32	101	1048576	52	5581
2026-01-06 22:04:55.24	70.27	20.63	-36.7	-37.5	24.7	0.00e+00	120	32	101	1048576	52	5651
2026-01-06 22:04:56.25	70.05	20.70	-36.6	-37.5	24.7	0.00e+00	122	32	101	1048576	52	5616
2026-01-06 22:04:57.26	69.84	20.78	-36.7	-37.6	24.7	0.00e+00	122	32	101	1048576	52	5689
2026-01-06 22:04:58.27	69.62	20.85	-36.6	-37.5	24.7	0.00e+00	123	32	101	1048576	52	5648
2026-01-06 22:04:59.28	69.40	20.92	-36.8	-37.7	24.7	0.00e+00	123	32	101	1048576	52	5726
2026-01-06 22:05:00.29	69.18	21.00	-36.7	-37.6	24.7	0.00e+00	122	32	101	1048576	52	5681
2026-01-06 22:05:01.30	68.96	21.07	-36.7	-37.6	24.7	0.00e+00	123	32	101	1048576	52	5697
2026-01-06 22:05:02.31	68.74	21.14	-36.8	-37.7	24.7	0.00e+00	120	32	101	1048576	52	5730
2026-01-06 22:05:03.33	68.51	21.22	-36.9	-37.8	24.6	0.00e+00	122	32	101	1048576	52	5794
2026-01-06 22:05:04.34	68.29	21.29	-36.8	-37.7	24.7	0.00e+00	123	32	101	1048576	52	5744
2026-01-06 22:05:05.35	68.07	21.36	-36.8	-37.7	24.7	0.00e+00	123	32	101	1048576	52	5758
2026-01-06 22:05:06.36	67.84	21.44	-36.8	-37.7	24.5	0.00e+00	123	32	101	1048576	52	5751
2026-01-06 22:05:07.37	67.61	21.51	-36.9	-37.8	24.6	0.00e+00	123	32	101	1048576	52	5808
2026-01-06 22:05:08.38	67.39	21.58	-37.0	-37.9	24.5	0.00e+00	122	32	101	1048576	52	5881
2026-01-06 22:05:09.39	67.16	21.65	-36.9	-37.8	24.6	0.00e+00	123	32	101	1048576	52	5852
2026-01-06 22:05:10.40	66.93	21.72	-37.0	-37.9	24.5	0.00e+00	122	32	101	1048576	52	5874
2026-01-06 22:05:11.41	66.70	21.79	-37.0	-37.9	24.5	0.00e+00	122	32	101	1048576	52	5913
2026-01-06 22:05:12.42	66.46	21.86	-36.8	-37.7	24.7	0.00e+00	123	32	101	1048576	52	5754
2026-01-06 22:05:13.43	66.23	21.93	-36.7	-37.6	24.6	0.00e+00	123	32	101	1048576	52	5680
2026-01-06 22:05:14.44	66.00	22.00	-36.9	-37.8	24.6	0.00e+00	123	32	101	1048576	52	5823
2026-01-06 22:05:15.45	65.76	22.07	-36.9	-37.7	24.6	0.00e+00	123	32	101	1048576	52	5784
2026-01-06 22:05:16.46	65.53	22.14	-37.0	-37.9	24.6	0.00e+00	122	32	101	1048576	52	5870
2026-01-06 22:05:17.47	65.29	22.21	-37.0	-37.9	24.6	0.00e+00	123	32	101	1048576	52	5859
2026-01-06 22:05:18.48	65.05	22.28	-36.9	-37.8	24.6	0.00e+00	123	32	101	1048576	52	5823
2026-01-06 22:05:19.49	64.81	22.35	-36.8	-37.7	24.6	0.00e+00	122	32	101	1048576	52	5741
2026-01-06 22:05:20.51	64.57	22.42	-36.8	-37.7	24.7	0.00e+00	120	32	101	1048576	52	5767
2026-01-06 22:05:21.52	64.33	22.48	-36.8	-37.7	24.6	0.00e+00	123	32	101	1048576	52	5777
2026-01-06 22:05:22.53	64.08	22.55	-36.8	-37.7	24.7	0.00e+00	123	32	101	1048576	52	5769
2026-01-06 22:05:23.54	63.84	22.62	-36.8	-37.7	24.7	0.00e+00	122	32	101	1048576	52	5762
2026-01-06 22:05:24.54	63.60	22.68	-36.8	-37.7	24.7	0.00e+00	123	32	101	1048576	52	5772
2026-01-06 22:05:25.56	63.35	22.75	-36.6	-37.5	24.9	0.00e+00	123	32	101	1048576	52	5623
2026-01-06 22:05:26.57	63.10	22.81	-36.6	-37.5	24.9	0.00e+00	122	32	101	1048576	52	5624
2026-01-06 22:05:27.58	62.85	22.88	-36.5	-37.4	24.9	0.00e+00	123	32	101	1048576	52	5547
2026-01-06 22:05:28.59	62.61	22.94	-36.5	-37.4	24.9	0.00e+00	120	32	101	1048576	52	5560
2026-01-06 22:05:29.60	62.36	23.01	-36.7	-37.5	24.8	0.00e+00	122	32	101	1048576	52	5655
2026-01-06 22:05:30.61	62.10	23.07	-36.6	-37.5	24.8	0.00e+00	121	32	101	1048576	52	5602
2026-01-06 22:05:31.62	61.85	23.14	-36.6	-37.4	24.8	0.00e+00	123	32	101	1048576	52	5585
2026-01-06 22:05:32.63	61.60	23.20	-36.5	-37.4	24.8	0.00e+00	123	32	101	1048576	52	5555
2026-01-06 22:05:33.64	61.35	23.26	-36.5	-37.4	24.8	0.00e+00	123	32	101	1048576	52	5555
2026-01-06 22:05:34.65	61.09	23.32	-36.6	-37.5	24.7	0.00e+00	123	32	101	1048576	52	5619
2026-01-06 22:05:35.66	60.83	23.38	-36.6	-37.5	24.8	0.00e+00	123	32	101	1048576	52	5639
2026-01-06 22:05:36.67	60.58	23.45	-36.6	-37.5	24.8	0.00e+00	123	32	101	1048576	52	5603
2026-01-06 22:05:37.68	60.32	23.51	-36.6	-37.5	24.7	0.00e+00	123	32	101	1048576	52	5632
2026-01-06 22:05:38.70	60.06	23.57	-36.6	-37.5	24.7	0.00e+00	123	32	101	1048576	52	5640
2026-01-06 22:05:39.70	59.80	23.63	-36.7	-37.6	24.7	0.00e+00	122	32	101	1048576	52	5665
2026-01-06 22:05:40.71	59.54	23.68	-36.8	-37.7	24.6	0.00e+00	122	32	101	1048576	52	5771
2026-01-06 22:05:41.72	59.28	23.74	-36.9	-37.8	24.6	0.00e+00	122	32	101	1048576	52	5829
2026-01-06 22:05:42.73	59.01	23.80	-36.9	-37.8	24.6	0.00e+00	122	32	101	1048576	52	5823
2026-01-06 22:05:43.75	58.75	23.86	-36.9	-37.8	24.6	0.00e+00	123	32	101	1048576	52	5817
2026-01-06 22:05:44.76	58.48	23.92	-36.7	-37.6	24.8	0.00e+00	123	32	101	1048576	52	5676
2026-01-06 22:05:45.77	58.22	23.97	-36.7	-37.6	24.8	0.00e+00	123	32	101	1048576	52	5701
2026-01-06 22:05:46.78	57.95	24.03	-36.6	-37.5	24.9	0.00e+00	122	32	101	1048576	52	5628
2026-01-06 22:05:47.79	57.68	24.08	-36.7	-37.6	24.8	0.00e+00	123	32	101	1048576	52	5675
2026-01-06 22:05:48.80	57.41	24.14	-36.7	-37.5	24.8	0.00e+00	121	32	101	1048576	52	5655
2026-01-06 22:05:49.81	57.14	24.19	-36.4	-37.3	25.1	0.00e+00	118	32	101	1048576	52	5499
2026-01-06 22:05:50.82	56.87	24.25	-36.5	-37.4	24.9	0.00e+00	123	32	101	1048576	52	5577
2026-01-06 22:05:51.83	56.60	24.30	-36.4	-37.3	24.9	0.00e+00	122	32	101	1048576	52	5472
2026-01-06 22:05:52.84	56.33	24.35	-36.5	-37.4	24.9	0.00e+00	123	32	101	1048576	52	5556
2026-01-06 22:05:53.85	56.06	24.40	-36.5	-37.4	24.8	0.00e+00	123	32	101	1048576	52	5545
2026-01-06 22:05:54.86	55.78	24.45	-36.5	-37.4	24.8	0.00e+00	123	32	101	1048576	52	5554
2026-01-06 22:05:55.87	55.51	24.50	-36.4	-37.3	24.8	0.00e+00	123	32	101	1048576	52	5501
2026-01-06 22:05:56.89	55.23	24.55	-36.4	-37.3	25.0	0.00e+00	123	32	101	1048576	52	5480
2026-01-06 22:05:57.89	54.95	24.60	-36.4	-37.3	24.9	0.00e+00	122	32	101	1048576	52	5474
2026-01-06 22:05:58.90	54.68	24.65	-36.5	-37.4	24.9	0.00e+00	122	32	101	1048576	52	5546
2026-01-06 22:05:59.91	54.40	24.70	-36.5	-37.4	24.9	0.00e+00	121	32	101	1048576	52	5590
2026-01-06 22:06:00.92	54.12	24.75	-36.5	-37.4	24.9	0.00e+00	122	32	101	1048576	52	5586
2026-01-06 22:06:01.94	53.83	24.79	-36.7	-37.6	24.8	0.00e+00	123	32	101	1048576	52	5666
2026-01-06 22:06:02.95	53.55	24.84	-36.7	-37.6	24.6	0.00e+00	122	32	101	1048576	52	5679
2026-01-06 22:06:03.96	53.27	24.89	-36.6	-37.5	24.8	0.00e+00	120	32	101	1048576	52	5651
2026-01-06 22:06:04.97	52.99	24.93	-36.8	-37.6	24.7	0.00e+00	122	32	101	1048576	52	5721
2026-01-06 22:06:05.98	52.70	24.97	-36.6	-37.5	24.7	0.00e+00	120	32	101	1048576	52	5597
2026-01-06 22:06:06.99	52.42	25.02	-36.4	-37.2	25.0	0.00e+00	122	32	101	1048576	52	5457
2026-01-06 22:06:08.00	52.14	25.06	-36.4	-37.3	25.0	0.00e+00	122	32	101	1048576	52	5474
2026-01-06 22:06:09.01	51.85	25.10	-36.2	-37.1	25.2	0.00e+00	123	32	101	1048576	52	5384
2026-01-06 22:06:10.03	51.56	25.14	-36.0	-36.9	25.2	0.00e+00	120	32	101	1048576	50	5888
2026-01-06 22:06:11.04	51.27	25.18	-36.0	-36.9	25.2	0.00e+00	122	32	101	1048576	50	5889
2026-01-06 22:06:12.05	50.98	25.22	-36.0	-36.9	25.1	0.00e+00	122	32	101	1048576	50	5864
2026-01-06 22:06:13.06	50.70	25.26	-36.0	-36.8	25.2	0.00e+00	123	32	101	1048576	50	5851
2026-01-06 22:06:14.07	50.41	25.30	-35.9	-36.8	25.2	0.00e+00	123	32	101	1048576	50	5815
2026-01-06 22:06:15.08	50.12	25.34	-36.1	-36.9	25.1	0.00e+00	122	32	101	1048576	50	5918
2026-01-06 22:06:16.09	49.82	25.37	-36.1	-37.0	25.1	0.00e+00	123	32	101	1048576	50	5957
2026-01-06 22:06:17.10	49.53	25.41	-36.3	-37.2	24.9	0.00e+00	123	32	101	1048576	50	6065
2026-01-06 22:06:18.11	49.24	25.45	-36.4	-37.3	24.8	0.00e+00	123	32	101	1048576	50	6172
2026-01-06 22:06:19.12	48.95	25.48	-36.6	-37.5	24.7	0.00e+00	123	32	101	1048576	50	6294
2026-01-06 22:06:20.13	48.65	25.51	-36.6	-37.5	24.8	0.00e+00	122	32	101	1048576	50	6332
2026-01-06 22:06:21.14	48.36	25.55	-36.7	-37.6	24.8	0.00e+00	123	32	101	1048576	50	6365
2026-01-06 22:06:22.15	48.07	25.58	-36.7	-37.6	24.7	0.00e+00	123	32	101	1048576	50	6398
2026-01-06 22:06:23.16	47.77	25.61	-36.4	-37.3	24.8	0.00e+00	123	32	101	1048576	50	6180
2026-01-06 22:06:24.17	47.47	25.64	-36.5	-37.4	24.8	0.00e+00	120	32	101	1048576	50	6247
2026-01-06 22:06:25.18	47.18	25.67	-36.5	-37.4	24.9	0.00e+00	122	32	101	1048576	50	6218
2026-01-06 22:06:26.19	46.88	25.70	-36.5	-37.4	24.9	0.00e+00	120	32	101	1048576	50	6223
2026-01-06 22:06:27.20	46.58	25.73	-36.5	-37.4	24.9	0.00e+00	123	32	101	1048576	50	6230
2026-01-06 22:06:28.21	46.29	25.75	-36.5	-37.4	25.0	0.00e+00	120	32	101	1048576	50	6243
2026-01-06 22:06:29.22	45.99	25.78	-36.4	-37.3	25.0	0.00e+00	123	32	101	1048576	50	6157
2026-01-06 22:06:30.23	45.69	25.81	-36.4	-37.3	25.0	0.00e+00	122	32	101	1048576	50	6164
2026-01-06 22:06:31.24	45.39	25.83	-36.4	-37.2	24.9	0.00e+00	122	32	101	1048576	50	6126
2026-01-06 22:06:32.26	45.09	25.85	-36.5	-37.4	25.0	0.00e+00	122	32	101	1048576	50	6254
2026-01-06 22:06:33.27	44.78	25.88	-36.4	-37.3	25.0	0.00e+00	122	32	101	1048576	50	6151
2026-01-06 22:06:34.28	44.48	25.90	-36.4	-37.3	25.1	0.00e+00	123	32	101	1048576	50	6154
2026-01-06 22:06:35.29	44.18	25.92	-36.5	-37.4	25.0	0.00e+00	122	32	101	1048576	50	6221
2026-01-06 22:06:36.30	43.88	25.94	-36.7	-37.6	24.8	0.00e+00	122	32	101	1048576	50	6397
2026-01-06 22:06:37.31	43.58	25.96	-36.6	-37.5	24.9	0.00e+00	123	32	101	1048576	50	6303
2026-01-06 22:06:38.32	43.28	25.98	-36.8	-37.7	24.8	0.00e+00	123	32	101	1048576	50	6456
2026-01-06 22:06:39.33	42.97	26.00	-36.9	-37.8	24.7	0.00e+00	122	32	101	1048576	50	6526
2026-01-06 22:06:40.34	42.67	26.01	-36.8	-37.7	24.7	0.00e+00	122	32	101	1048576	50	6448
2026-01-06 22:06:41.35	42.37	26.03	-36.8	-37.7	24.7	0.00e+00	122	32	101	1048576	50	6456
2026-01-06 22:06:42.36	42.06	26.04	-36.5	-37.3	25.1	0.00e+00	122	32	101	1048576	50	6189
2026-01-06 22:06:43.38	41.76	26.06	-36.3	-37.1	25.2	0.00e+00	123	32	101	1048576	50	6060
2026-01-06 22:06:44.39	41.45	26.07	-36.3	-37.2	25.1	0.00e+00	122	32	101	1048576	50	6080
2026-01-06 22:06:45.40	41.15	26.09	-36.3	-37.2	25.1	0.00e+00	122	32	101	1048576	50	6111
2026-01-06 22:06:46.41	40.84	26.10	-36.5	-37.4	24.9	0.00e+00	122	32	101	1048576	50	6214
2026-01-06 22:06:47.42	40.54	26.11	-36.6	-37.5	24.9	0.00e+00	120	32	101	1048576	50	6302
2026-01-06 22:06:48.43	40.23	26.12	-36.8	-37.7	24.7	0.00e+00	123	32	101	1048576	50	6440
2026-01-06 22:06:49.44	39.93	26.13	-36.8	-37.7	24.7	0.00e+00	120	32	101	1048576	50	6471
2026-01-06 22:06:50.45	39.62	26.13	-36.6	-37.5	24.8	0.00e+00	123	32	101	1048576	50	6316
2026-01-06 22:06:51.46	39.32	26.14	-36.7	-37.6	24.7	0.00e+00	123	32	101	1048576	50	6383
2026-01-06 22:06:52.47	39.01	26.15	-36.5	-37.4	24.9	0.00e+00	123	32	101	1048576	50	6246
2026-01-06 22:06:53.49	38.70	26.15	-36.6	-37.5	24.9	0.00e+00	120	32	101	1048576	50	6298
2026-01-06 22:06:54.50	38.40	26.16	-36.6	-37.4	24.9	0.00e+00	123	32	101	1048576	50	6271
2026-01-06 22:06:55.51	38.09	26.16	-36.7	-37.6	24.8	0.00e+00	120	32	101	1048576	50	6400
2026-01-06 22:06:56.52	37.79	26.16	-36.8	-37.7	24.8	0.00e+00	123	32	101	1048576	50	6476
2026-01-06 22:06:57.53	37.48	26.17	-36.9	-37.8	24.7	0.00e+00	120	32	101	1048576	50	6502
2026-01-06 22:06:58.54	37.17	26.17	-37.0	-38.0	24.6	0.00e+00	123	32	101	1048576	50	6652
2026-01-06 22:06:59.55	36.87	26.17	-36.8	-37.7	24.8	0.00e+00	122	32	101	1048576	50	6450
2026-01-06 22:07:00.56	36.56	26.17	-37.0	-37.9	24.7	0.00e+00	122	32	101	1048576	50	6586
2026-01-06 22:07:01.56	36.26	26.16	-37.0	-37.9	24.6	0.00e+00	123	32	101	1048576	50	6601
2026-01-06 22:07:02.57	35.95	26.16	-36.9	-37.8	24.6	0.00e+00	122	32	101	1048576	50	6508
2026-01-06 22:07:03.57	35.65	26.16	-36.5	-37.4	24.9	0.00e+00	123	32	101	1048576	50	6255
2026-01-06 22:07:04.58	35.34	26.15	-36.4	-37.3	24.9	0.00e+00	123	32	101	1048576	50	6179
2026-01-06 22:07:05.59	35.04	26.15	-36.1	-37.0	25.2	0.00e+00	123	32	101	1048576	50	5958
2026-01-06 22:07:06.59	34.73	26.14	-36.1	-37.0	25.2	0.00e+00	121	32	101	1048576	50	5973
2026-01-06 22:07:07.60	34.43	26.14	-36.2	-37.1	25.1	0.00e+00	122	32	101	1048576	50	6022
2026-01-06 22:07:08.60	34.13	26.13	-36.2	-37.1	25.2	0.00e+00	123	32	101	1048576	50	6014
2026-01-06 22:07:09.61	33.82	26.12	-36.4	-37.2	25.2	0.00e+00	120	32	101	1048576	50	6125
2026-01-06 22:07:10.61	33.52	26.11	-36.3	-37.1	25.1	0.00e+00	122	32	101	1048576	50	6057
2026-01-06 22:07:11.62	33.22	26.10	-36.3	-37.2	25.1	0.00e+00	121	32	101	1048576	50	6080
2026-01-06 22:07:12.62	32.91	26.09	-36.4	-37.3	25.0	0.00e+00	123	32	101	1048576	50	6181
2026-01-06 22:07:13.63	32.61	26.07	-36.5	-37.3	25.0	0.00e+00	123	32	101	1048576	50	6192
2026-01-06 22:07:14.63	32.31	26.06	-36.6	-37.5	24.9	0.00e+00	121	32	101	1048576	50	6281
2026-01-06 22:07:15.64	32.00	26.05	-36.6	-37.5	24.9	0.00e+00	122	32	101	1048576	50	6297
2026-01-06 22:07:16.65	31.70	26.03	-36.6	-37.5	24.8	0.00e+00	123	32	101	1048576	50	6327
2026-01-06 22:07:17.65	31.40	26.02	-36.7	-37.5	24.9	0.00e+00	123	32	101	1048576	50	6330
2026-01-06 22:07:18.66	31.10	26.00	-36.6	-37.5	24.9	0.00e+00	122	32	101	1048576	50	6284
2026-01-06 22:07:19.67	30.80	25.98	-36.5	-37.4	25.0	0.00e+00	122	32	101	1048576	50	6226
2026-01-06 22:07:20.68	30.49	25.96	-36.6	-37.5	24.9	0.00e+00	120	32	101	1048576	50	6299
2026-01-06 22:07:21.68	30.19	25.94	-36.7	-37.6	24.8	0.00e+00	123	32	101	1048576	50	6372
2026-01-06 22:07:22.69	29.89	25.92	-36.7	-37.6	24.8	0.00e+00	123	32	101	1048576	50	6404
2026-01-06 22:07:23.69	29.60	25.90	-36.8	-37.6	24.8	0.00e+00	121	32	101	1048576	50	6422
2026-01-06 22:07:24.69	29.30	25.88	-36.8	-37.7	24.7	0.00e+00	122	32	101	1048576	50	6446
2026-01-06 22:07:25.70	29.00	25.86	-36.6	-37.5	24.8	0.00e+00	122	32	101	1048576	50	6319
2026-01-06 22:07:26.71	28.70	25.83	-36.6	-37.4	24.9	0.00e+00	122	32	101	1048576	50	6273
2026-01-06 22:07:27.72	28.40	25.81	-36.4	-37.3	25.0	0.00e+00	123	32	101	1048576	50	6178
2026-01-06 22:07:28.72	28.10	25.78	-36.5	-37.4	25.0	0.00e+00	123	32	101	1048576	50	6212
2026-01-06 22:07:29.72	27.81	25.76	-36.5	-37.4	25.0	0.00e+00	123	32	101	1048576	50	6213
2026-01-06 22:07:30.73	27.51	25.73	-36.7	-37.5	24.9	0.00e+00	123	32	101	1048576	50	6345
2026-01-06 22:07:31.73	27.21	25.70	-36.5	-37.3	24.9	0.00e+00	122	32	101	1048576	50	6189
2026-01-06 22:07:32.74	26.92	25.68	-36.4	-37.2	25.0	0.00e+00	120	32	101	1048576	50	6122
2026-01-06 22:07:33.74	26.62	25.65	-36.4	-37.3	25.0	0.00e+00	120	32	101	1048576	50	6145
2026-01-06 22:07:34.75	26.33	25.62	-36.4	-37.3	25.0	0.00e+00	123	32	101	1048576	50	6137
2026-01-06 22:07:35.75	26.04	25.59	-36.4	-37.3	24.9	0.00e+00	123	32	101	1048576	50	6135
2026-01-06 22:07:36.76	25.74	25.55	-36.4	-37.3	24.8	0.00e+00	123	32	101	1048576	50	6190
2026-01-06 22:07:37.76	25.45	25.52	-36.4	-37.3	24.8	0.00e+00	123	32	101	1048576	50	6171
2026-01-06 22:07:38.77	25.16	25.49	-36.2	-37.1	24.8	0.00e+00	120	32	101	1048576	50	6041
2026-01-06 22:07:39.78	24.87	25.45	-36.2	-37.0	24.9	0.00e+00	122	32	101	1048576	50	5988
2026-01-06 22:07:40.78	24.58	25.42	-36.2	-37.1	24.9	0.00e+00	123	32	101	1048576	50	6055
2026-01-06 22:07:41.79	24.29	25.38	-36.2	-37.1	25.1	0.00e+00	123	32	101	1048576	50	6007
2026-01-06 22:07:42.80	23.99	25.35	-36.3	-37.2	25.0	0.00e+00	123	32	101	1048576	50	6076
2026-01-06 22:07:43.81	23.70	25.31	-36.3	-37.1	25.0	0.00e+00	123	32	101	1048576	50	6043
2026-01-06 22:07:44.82	23.42	25.27	-36.2	-37.1	25.1	0.00e+00	123	32	101	1048576	50	6016
2026-01-06 22:07:45.83	23.13	25.23	-36.3	-37.1	25.0	0.00e+00	122	32	101	1048576	50	6043
2026-01-06 22:07:46.84	22.84	25.19	-36.1	-37.0	25.1	0.00e+00	122	32	101	1048576	50	5946
2026-01-06 22:07:47.85	22.55	25.15	-36.1	-37.0	25.1	0.00e+00	122	32	101	1048576	50	5928
2026-01-06 22:07:48.87	22.26	25.11	-36.1	-37.0	25.1	0.00e+00	123	32	101	1048576	50	5944
2026-01-06 22:07:49.88	21.98	25.07	-36.3	-37.2	25.0	0.00e+00	122	32	101	1048576	50	6085
2026-01-06 22:07:50.89	21.69	25.03	-36.4	-37.2	25.0	0.00e+00	123	32	101	1048576	50	6129
2026-01-06 22:07:51.90	21.41	24.99	-36.4	-37.2	25.0	0.00e+00	123	32	101	1048576	50	6118
2026-01-06 22:07:52.91	21.13	24.94	-36.4	-37.3	24.9	0.00e+00	120	32	101	1048576	50	6167
2026-01-06 22:07:53.92	20.84	24.90	-36.5	-37.4	24.8	0.00e+00	123	32	101	1048576	50	6208
2026-01-06 22:07:54.93	20.56	24.85	-36.3	-37.1	25.1	0.00e+00	122	32	101	1048576	50	6060
2026-01-06 22:07:55.94	20.28	24.81	-36.4	-37.2	25.0	0.00e+00	123	32	101	1048576	50	6131
2026-01-06 22:07:56.95	20.00	24.76	-36.4	-37.2	25.1	0.00e+00	120	32	101	1048576	50	6128
2026-01-06 22:07:57.96	19.72	24.71	-36.2	-37.1	25.1	0.00e+00	123	32	101	1048576	50	6010
2026-01-06 22:07:58.97	19.44	24.67	-36.1	-37.0	25.2	0.00e+00	120	32	101	1048576	50	5957
2026-01-06 22:07:59.98	19.17	24.62	-36.3	-37.1	25.1	0.00e+00	123	32	101	1048576	50	6043
2026-01-06 22:08:00.99	18.89	24.57	-36.3	-37.2	25.1	0.00e+00	122	32	101	1048576	50	6065
2026-01-06 22:08:02.00	18.61	24.52	-36.5	-37.3	25.0	0.00e+00	122	32	101	1048576	50	6200
2026-01-06 22:08:03.01	18.34	24.47	-36.6	-37.4	24.8	0.00e+00	123	32	101	1048576	50	6269
2026-01-06 22:08:04.02	18.06	24.42	-36.7	-37.6	24.7	0.00e+00	120	32	101	1048576	50	6398
2026-01-06 22:08:05.03	17.79	24.37	-36.7	-37.6	24.7	0.00e+00	123	32	101	1048576	50	6392
2026-01-06 22:08:06.05	17.52	24.31	-36.8	-37.7	24.7	0.00e+00	122	32	101	1048576	50	6457
2026-01-06 22:08:07.06	17.25	24.26	-36.8	-37.7	24.6	0.00e+00	120	32	101	1048576	50	6440
2026-01-06 22:08:08.07	16.98	24.21	-36.8	-37.7	24.6	0.00e+00	123	32	101	1048576	50	6480
2026-01-06 22:08:09.08	16.71	24.15	-36.9	-37.8	24.6	0.00e+00	123	32	101	1048576	50	6563
2026-01-06 22:08:10.09	16.44	24.10	-36.9	-37.8	24.6	0.00e+00	123	32	101	1048576	50	6507
2026-01-06 22:08:11.10	16.17	24.04	-36.9	-37.8	24.6	0.00e+00	122	32	101	1048576	50	6551
2026-01-06 22:08:12.11	15.90	23.99	-36.7	-37.6	24.7	0.00e+00	122	32	101	1048576	50	6376
2026-01-06 22:08:13.12	15.64	23.93	-36.8	-37.7	24.7	0.00e+00	123	32	101	1048576	50	6455
2026-01-06 22:08:14.13	15.37	23.88	-36.8	-37.7	24.7	0.00e+00	121	32	101	1048576	50	6450
2026-01-06 22:08:15.14	15.11	23.82	-36.6	-37.5	24.9	0.00e+00	123	32	101	1048576	50	6289
2026-01-06 22:08:16.15	14.85	23.76	-36.6	-37.5	24.8	0.00e+00	122	32	101	1048576	50	6287
2026-01-06 22:08:17.16	14.59	23.70	-36.6	-37.5	24.9	0.00e+00	123	32	101	1048576	50	6287
2026-01-06 22:08:18.17	14.33	23.64	-36.9	-37.8	24.7	0.00e+00	122	32	101	1048576	50	6519
2026-01-06 22:08:19.18	14.07	23.58	-36.9	-37.8	24.6	0.00e+00	120	32	101	1048576	50	6551
2026-01-06 22:08:20.19	13.81	23.52	-36.8	-37.7	24.7	0.00e+00	123	32	101	1048576	50	6468
2026-01-06 22:08:21.20	13.55	23.46	-36.8	-37.7	24.7	0.00e+00	122	32	101	1048576	50	6432
2026-01-06 22:08:22.21	13.29	23.40	-36.7	-37.6	24.7	0.00e+00	120	32	101	1048576	50	6359
2026-01-06 22:08:23.22	13.04	23.34	-36.5	-37.4	24.7	0.00e+00	122	32	101	1048576	50	6215
2026-01-06 22:08:24.23	12.78	23.28	-36.3	-37.2	24.8	0.00e+00	120	32	101	1048576	50	6103
2026-01-06 22:08:25.24	12.53	23.22	-36.1	-37.0	25.0	0.00e+00	123	32	101	1048576	50	5965
2026-01-06 22:08:26.25	12.28	23.16	-36.0	-36.9	25.1	0.00e+00	123	32	101	1048576	50	5893
2026-01-06 22:08:27.27	12.02	23.09	-36.1	-37.0	25.0	0.00e+00	122	32	101	1048576	50	5973
2026-01-06 22:08:28.27	11.77	23.03	-36.3	-37.2	24.9	0.00e+00	122	32	101	1048576	50	6118
2026-01-06 22:08:29.29	11.52	22.96	-36.6	-37.5	24.8	0.00e+00	123	32	101	1048576	50	6306
2026-01-06 22:08:30.30	11.27	22.90	-36.8	-37.7	24.6	0.00e+00	122	32	101	1048576	50	6480
2026-01-06 22:08:31.31	11.03	22.84	-36.9	-37.8	24.7	0.00e+00	123	32	101	1048576	50	6524
2026-01-06 22:08:32.32	10.78	22.77	-36.9	-37.8	24.6	0.00e+00	123	32	101	1048576	50	6541
2026-01-06 22:08:33.33	10.54	22.70	-36.9	-37.8	24.6	0.00e+00	122	32	101	1048576	50	6553
2026-01-06 22:08:34.34	10.29	22.64	-36.7	-37.6	24.8	0.00e+00	122	32	101	1048576	50	6387
2026-01-06 22:08:35.35	10.05	22.57	-36.7	-37.6	24.8	0.00e+00	120	32	101	1048576	50	6366
2026-01-06 22:08:36.36	9.81	22.51	-36.6	-37.4	24.9	0.00e+00	122	32	101	1048576	50	6265
2026-01-06 22:08:37.37	9.56	22.44	-36.3	-37.2	25.1	0.00e+00	122	32	101	1048576	50	6068
2026-01-06 22:08:38.38	9.32	22.37	-36.2	-37.0	25.1	0.00e+00	123	32	101	1048576	50	5990
2026-01-06 22:08:39.39	9.09	22.30	-36.3	-37.2	25.0	0.00e+00	122	32	101	1048576	50	6100
2026-01-06 22:08:40.40	8.85	22.23	-36.3	-37.1	25.2	0.00e+00	123	32	101	1048576	50	6055
2026-01-06 22:08:41.41	8.61	22.17	-36.3	-37.2	25.1	0.00e+00	122	32	101	1048576	50	6094
2026-01-06 22:08:42.42	8.38	22.10	-36.4	-37.3	24.9	0.00e+00	122	32	101	1048576	50	6155
2026-01-06 22:08:43.43	8.14	22.03	-36.5	-37.3	24.8	0.00e+00	122	32	101	1048576	50	6198
2026-01-06 22:08:44.44	7.91	21.96	-36.4	-37.2	25.0	0.00e+00	122	32	101	1048576	50	6134
2026-01-06 22:08:45.45	7.67	21.89	-36.3	-37.2	25.1	0.00e+00	122	32	101	1048576	50	6077
2026-01-06 22:08:46.46	7.44	21.82	-36.1	-37.0	25.2	0.00e+00	123	32	101	1048576	50	5940
2026-01-06 22:08:47.47	7.21	21.75	-36.1	-37.0	25.2	0.00e+00	122	32	101	1048576	50	5928
2026-01-06 22:08:48.49	6.98	21.68	-36.2	-37.1	25.1	0.00e+00	123	32	101	1048576	50	6021
2026-01-06 22:08:49.50	6.75	21.61	-36.4	-37.2	25.1	0.00e+00	122	32	101	1048576	50	6129
2026-01-06 22:08:50.51	6.52	21.53	-36.6	-37.5	25.0	0.00e+00	122	32	101	1048576	50	6290
2026-01-06 22:08:51.52	6.30	21.46	-36.5	-37.4	25.0	0.00e+00	123	32	101	1048576	50	6239
2026-01-06 22:08:52.53	6.07	21.39	-36.5	-37.4	25.0	0.00e+00	123	32	101	1048576	50	6225
2026-01-06 22:08:53.54	5.85	21.32	-36.4	-37.2	25.1	0.00e+00	123	32	101	1048576	50	6125
2026-01-06 22:08:54.55	5.63	21.25	-36.3	-37.1	25.1	0.00e+00	123	32	101	1048576	50	6064
2026-01-06 22:08:55.56	5.40	21.17	-36.1	-36.9	25.3	0.00e+00	123	32	101	1048576	50	5918
2026-01-06 22:08:56.57	5.18	21.10	-36.2	-37.0	25.2	0.00e+00	121	32	101	1048576	50	5967
2026-01-06 22:08:57.58	4.96	21.03	-36.1	-36.9	25.3	0.00e+00	123	32	101	1048576	50	5899
2026-01-06 22:08:58.59	4.74	20.95	-36.0	-36.9	25.3	0.00e+00	123	32	101	1048576	50	5863
2026-01-06 22:08:59.60	4.53	20.88	-36.2	-37.1	25.2	0.00e+00	123	32	101	1048576	50	5995
2026-01-06 22:09:00.62	4.31	20.81	-36.5	-37.4	25.0	0.00e+00	122	32	101	1048576	50	6216
2026-01-06 22:09:01.63	4.09	20.73	-36.7	-37.6	24.8	0.00e+00	120	32	101	1048576	50	6351
2026-01-06 22:09:02.64	3.88	20.66	-36.8	-37.7	24.8	0.00e+00	123	32	101	1048576	50	6434
2026-01-06 22:09:03.65	3.66	20.58	-37.0	-37.9	24.5	0.00e+00	122	32	101	1048576	50	6626
2026-01-06 22:09:04.66	3.45	20.51	-36.8	-37.7	24.7	0.00e+00	122	32	101	1048576	50	6487
2026-01-06 22:09:05.67	3.24	20.43	-36.9	-37.8	24.5	0.00e+00	123	32	101	1048576	50	6548
2026-01-06 22:09:06.68	3.03	20.36	-36.8	-37.6	24.8	0.00e+00	122	32	101	1048576	50	6410
2026-01-06 22:09:07.69	2.82	20.28	-36.7	-37.6	24.8	0.00e+00	120	32	101	1048576	50	6381
2026-01-06 22:09:08.70	2.61	20.21	-36.9	-37.8	24.6	0.00e+00	123	32	101	1048576	50	6556
2026-01-06 22:09:09.71	2.41	20.13	-36.8	-37.7	24.7	0.00e+00	122	32	101	1048576	50	6490
2026-01-06 22:09:10.72	2.20	20.06	-36.9	-37.8	24.7	0.00e+00	122	32	101	1048576	50	6511
2026-01-06 22:09:11.74	1.99	19.98	-36.9	-37.7	24.6	0.00e+00	123	32	101	1048576	50	6498
2026-01-06 22:09:12.74	1.79	19.90	-36.8	-37.7	24.7	0.00e+00	123	32	101	1048576	50	6456
2026-01-06 22:09:13.75	1.59	19.83	-37.0	-37.9	24.5	0.00e+00	122	32	101	1048576	50	6604
2026-01-06 22:09:14.77	1.38	19.75	-36.7	-37.6	24.7	0.00e+00	123	32	101	1048576	50	6366
2026-01-06 22:09:15.78	1.18	19.67	-36.7	-37.5	24.6	0.00e+00	123	32	101	1048576	50	6347
2026-01-06 22:09:16.79	0.98	19.60	-36.8	-37.7	24.6	0.00e+00	122	32	101	1048576	50	6475
2026-01-06 22:09:17.80	0.78	19.52	-36.9	-37.8	24.7	0.00e+00	120	32	101	1048576	50	6517
2026-01-06 22:09:18.81	0.58	19.44	-36.9	-37.8	24.6	0.00e+00	122	32	101	1048576	50	6558
2026-01-06 22:09:19.82	0.39	19.37	-36.8	-37.7	24.7	0.00e+00	120	32	101	1048576	50	6480
2026-01-06 22:09:20.83	0.19	19.29	-36.8	-37.6	24.8	0.00e+00	124	32	101	1048576	50	6417
2026-01-06 22:09:21.84	360.00	19.21	-37.0	-37.8	24.7	0.00e+00	122	32	101	1048576	50	6569
2026-01-06 22:09:22.85	359.80	19.14	-37.1	-38.0	24.5	0.00e+00	122	32	101	1048576	50	6676
2026-01-06 22:09:23.86	359.61	19.06	-37.2	-38.2	24.4	0.00e+00	123	32	101	1048576	52	6071
2026-01-06 22:09:24.87	359.42	18.98	-37.4	-38.4	24.2	0.00e+00	122	32	101	1048576	52	6217
2026-01-06 22:09:25.88	359.23	18.90	-37.4	-38.3	24.3	0.00e+00	122	32	101	1048576	52	6194
2026-01-06 22:09:26.89	359.04	18.83	-37.5	-38.5	24.1	0.00e+00	123	32	101	1048576	52	6284
2026-01-06 22:09:27.90	358.85	18.75	-37.6	-38.5	24.1	0.00e+00	123	32	101	1048576	52	6320
2026-01-06 22:09:28.91	358.66	18.67	-37.5	-38.4	24.1	0.00e+00	123	32	101	1048576	52	6276
2026-01-06 22:09:29.92	358.47	18.59	-37.4	-38.4	24.1	0.00e+00	120	32	101	1048576	52	6213
2026-01-06 22:09:30.93	358.29	18.51	-37.4	-38.4	24.2	0.00e+00	122	32	101	1048576	52	6214
2026-01-06 22:09:31.94	358.10	18.44	-37.5	-38.5	24.1	0.00e+00	123	32	101	1048576	52	6280
2026-01-06 22:09:32.95	357.92	18.36	-37.5	-38.4	24.1	0.00e+00	122	32	101	1048576	52	6252
2026-01-06 22:09:33.97	357.73	18.28	-37.6	-38.6	23.9	0.00e+00	120	32	101	1048576	52	6372
2026-01-06 22:09:34.98	357.55	18.20	-37.4	-38.4	24.1	0.00e+00	123	32	101	1048576	52	6226
2026-01-06 22:09:35.99	357.37	18.12	-37.6	-38.5	23.9	0.00e+00	123	32	101	1048576	52	6341
2026-01-06 22:09:37.00	357.19	18.04	-37.5	-38.5	24.0	0.00e+00	122	32	101	1048576	52	6283
2026-01-06 22:09:38.01	357.01	17.96	-37.5	-38.4	24.0	0.00e+00	123	32	101	1048576	52	6273
2026-01-06 22:09:39.02	356.83	17.89	-37.5	-38.5	24.0	0.00e+00	120	32	101	1048576	52	6306
2026-01-06 22:09:40.03	356.65	17.81	-37.3	-38.2	24.3	0.00e+00	122	32	101	1048576	52	6115
2026-01-06 22:09:41.04	356.48	17.73	-37.4	-38.3	24.1	0.00e+00	123	32	101	1048576	52	6164
2026-01-06 22:09:42.05	356.30	17.65	-37.3	-38.2	24.2	0.00e+00	121	32	101	1048576	52	6079
2026-01-06 22:09:43.06	356.12	17.57	-37.4	-38.3	24.2	0.00e+00	123	32	101	1048576	52	6180
2026-01-06 22:09:44.07	355.95	17.49	-37.2	-38.1	24.3	0.00e+00	123	32	101	1048576	52	6044
2026-01-06 22:09:45.08	355.78	17.41	-37.4	-38.3	24.2	0.00e+00	123	32	101	1048576	52	6146
2026-01-06 22:09:46.09	355.61	17.34	-37.1	-38.0	24.4	0.00e+00	120	32	101	1048576	52	5958
2026-01-06 22:09:47.11	355.43	17.26	-37.0	-37.9	24.5	0.00e+00	123	32	101	1048576	52	5882
2026-01-06 22:09:48.12	355.26	17.18	-36.9	-37.7	24.6	0.00e+00	120	32	101	1048576	52	5789
2026-01-06 22:09:49.13	355.09	17.10	-36.8	-37.7	24.6	0.00e+00	123	32	101	1048576	52	5751
2026-01-06 22:09:50.14	354.93	17.02	-36.8	-37.7	24.6	0.00e+00	122	32	101	1048576	52	5760
2026-01-06 22:09:51.15	354.76	16.94	-36.8	-37.6	24.7	0.00e+00	122	32	101	1048576	52	5719
2026-01-06 22:09:52.16	354.59	16.86	-36.8	-37.7	24.7	0.00e+00	123	32	101	1048576	52	5763
2026-01-06 22:09:53.17	354.43	16.78	-37.0	-37.9	24.6	0.00e+00	122	32	101	1048576	52	5866
2026-01-06 22:09:54.18	354.26	16.71	-37.1	-38.0	24.4	0.00e+00	122	32	101	1048576	52	5964
2026-01-06 22:09:55.19	354.10	16.63	-37.2	-38.1	24.3	0.00e+00	122	32	101	1048576	52	6027
2026-01-06 22:09:56.21	353.93	16.55	-37.3	-38.2	24.2	0.00e+00	123	32	101	1048576	52	6079
2026-01-06 22:09:57.21	353.77	16.47	-37.3	-38.2	24.1	0.00e+00	123	32	101	1048576	52	6080
2026-01-06 22:09:58.22	353.61	16.39	-37.4	-38.3	24.0	0.00e+00	123	32	101	1048576	52	6203
2026-01-06 22:09:59.23	353.45	16.31	-37.5	-38.4	24.0	0.00e+00	123	32	101	1048576	52	6223
2026-01-06 22:10:00.24	353.29	16.23	-37.3	-38.2	24.1	0.00e+00	122	32	101	1048576	52	6106
2026-01-06 22:10:01.25	353.13	16.16	-37.4	-38.3	24.1	0.00e+00	123	32	101	1048576	52	6152
2026-01-06 22:10:02.26	352.97	16.08	-37.4	-38.3	24.2	0.00e+00	123	32	101	1048576	52	6144
2026-01-06 22:10:03.27	352.82	16.00	-37.1	-38.0	24.5	0.00e+00	123	32	101	1048576	52	5953
2026-01-06 22:10:04.28	352.66	15.92	-36.9	-37.8	24.5	0.00e+00	120	32	101	1048576	52	5808
2026-01-06 22:10:05.29	352.51	15.84	-37.1	-38.0	24.4	0.00e+00	122	32	101	1048576	52	5954
2026-01-06 22:10:06.30	352.35	15.76	-37.1	-38.0	24.5	0.00e+00	123	32	101	1048576	52	5930
2026-01-06 22:10:07.31	352.20	15.68	-37.2	-38.1	24.3	0.00e+00	120	32	101	1048576	52	6043
2026-01-06 22:10:08.32	352.04	15.61	-37.4	-38.3	24.2	0.00e+00	123	32	101	1048576	52	6194
2026-01-06 22:10:09.33	351.89	15.53	-37.6	-38.5	24.0	0.00e+00	122	32	101	1048576	52	6334
2026-01-06 22:10:10.34	351.74	15.45	-37.7	-38.6	23.9	0.00e+00	122	32	101	1048576	52	6417
2026-01-06 22:10:11.35	351.59	15.37	-37.8	-38.8	23.8	0.00e+00	123	32	101	1048576	52	6503
2026-01-06 22:10:12.36	351.44	15.29	-38.0	-38.9	23.7	0.00e+00	120	32	101	1048576	52	6642
2026-01-06 22:10:13.37	351.29	15.22	-37.9	-38.9	23.6	0.00e+00	123	32	101	1048576	54	5876
2026-01-06 22:10:14.38	351.14	15.14	-37.9	-38.8	23.6	0.00e+00	122	32	101	1048576	54	5826
2026-01-06 22:10:15.39	351.00	15.06	-37.6	-38.6	23.6	0.00e+00	123	32	101	1048576	54	5671
2026-01-06 22:10:16.40	350.85	14.98	-37.6	-38.6	23.6	0.00e+00	123	32	101	1048576	54	5673
2026-01-06 22:10:17.41	350.70	14.90	-37.3	-38.3	23.9	0.00e+00	121	32	101	1048576	54	5470
2026-01-06 22:10:18.42	350.56	14.83	-37.3	-38.2	23.9	0.00e+00	122	32	101	1048576	54	5456
2026-01-06 22:10:19.43	350.41	14.75	-37.3	-38.2	24.1	0.00e+00	122	32	101	1048576	54	5417
2026-01-06 22:10:20.44	350.27	14.67	-37.4	-38.3	24.0	0.00e+00	123	32	101	1048576	54	5496
2026-01-06 22:10:21.46	350.13	14.59	-37.4	-38.3	24.1	0.00e+00	123	32	101	1048576	54	5511
2026-01-06 22:10:22.47	349.99	14.51	-37.4	-38.3	24.1	0.00e+00	122	32	101	1048576	54	5487
2026-01-06 22:10:23.48	349.84	14.44	-37.6	-38.5	23.9	0.00e+00	122	32	101	1048576	54	5630
2026-01-06 22:10:24.49	349.70	14.36	-37.8	-38.7	23.7	0.00e+00	122	32	101	1048576	54	5787
2026-01-06 22:10:25.50	349.56	14.28	-38.1	-39.1	23.5	0.00e+00	123	32	101	1048576	54	6019
2026-01-06 22:10:26.51	349.43	14.21	-38.3	-39.3	23.3	0.00e+00	122	32	101	1048576	54	6187
2026-01-06 22:10:27.52	349.29	14.13	-38.4	-39.4	23.2	0.00e+00	121	32	101	1048576	54	6231
2026-01-06 22:10:28.53	349.15	14.05	-38.4	-39.4	23.1	0.00e+00	123	32	101	1048576	54	6267
2026-01-06 22:10:29.54	349.01	13.97	-38.4	-39.4	23.1	0.00e+00	123	32	101	1048576	54	6246
2026-01-06 22:10:30.55	348.88	13.90	-38.4	-39.4	23.1	0.00e+00	123	32	101	1048576	54	6221
2026-01-06 22:10:31.56	348.74	13.82	-38.5	-39.5	23.0	0.00e+00	123	32	101	1048576	54	6302
2026-01-06 22:10:32.57	348.61	13.74	-38.1	-39.1	23.2	0.00e+00	120	32	101	1048576	54	6043
2026-01-06 22:10:33.58	348.47	13.67	-37.8	-38.8	23.5	0.00e+00	123	32	101	1048576	54	5811
2026-01-06 22:10:34.59	348.34	13.59	-37.9	-38.9	23.4	0.00e+00	120	32	101	1048576	54	5879
2026-01-06 22:10:35.60	348.21	13.51	-37.7	-38.6	23.7	0.00e+00	123	32	101	1048576	54	5717
2026-01-06 22:10:36.61	348.08	13.44	-37.7	-38.6	23.8	0.00e+00	122	32	101	1048576	54	5698
2026-01-06 22:10:37.61	347.95	13.36	-37.7	-38.6	23.8	0.00e+00	122	32	101	1048576	54	5718
2026-01-06 22:10:38.62	347.82	13.29	-37.7	-38.6	23.8	0.00e+00	123	32	101	1048576	54	5711
2026-01-06 22:10:39.63	347.69	13.21	-37.9	-38.8	23.6	0.00e+00	123	32	101	1048576	54	5850
2026-01-06 22:10:40.64	347.56	13.13	-37.9	-38.9	23.6	0.00e+00	123	32	101	1048576	54	5871
2026-01-06 22:10:41.65	347.43	13.06	-38.1	-39.0	23.4	0.00e+00	120	32	101	1048576	54	5993
2026-01-06 22:10:42.65	347.30	12.98	-38.2	-39.2	23.4	0.00e+00	121	32	101	1048576	54	6097
2026-01-06 22:10:43.66	347.18	12.91	-38.3	-39.3	23.2	0.00e+00	123	32	101	1048576	54	6156
2026-01-06 22:10:44.67	347.05	12.83	-38.4	-39.4	23.0	0.00e+00	122	32	101	1048576	54	6267
2026-01-06 22:10:45.68	346.92	12.75	-38.4	-39.3	23.1	0.00e+00	122	32	101	1048576	54	6201
2026-01-06 22:10:46.69	346.80	12.68	-38.2	-39.2	23.2	0.00e+00	120	32	101	1048576	54	6081
2026-01-06 22:10:47.69	346.68	12.60	-38.2	-39.2	23.1	0.00e+00	122	32	101	1048576	54	6072
2026-01-06 22:10:48.70	346.55	12.53	-38.3	-39.2	23.1	0.00e+00	120	32	101	1048576	54	6125
2026-01-06 22:10:49.71	346.43	12.45	-37.9	-38.9	23.3	0.00e+00	123	32	101	1048576	54	5885
2026-01-06 22:10:50.72	346.31	12.38	-37.9	-38.8	23.4	0.00e+00	123	32	101	1048576	54	5843
2026-01-06 22:10:51.73	346.19	12.30	-37.6	-38.6	23.7	0.00e+00	123	32	101	1048576	54	5679
2026-01-06 22:10:52.74	346.06	12.23	-37.3	-38.2	24.0	0.00e+00	123	32	101	1048576	54	5466
2026-01-06 22:10:53.74	345.95	12.15	-37.5	-38.5	23.8	0.00e+00	123	32	101	1048576	54	5602
2026-01-06 22:10:54.75	345.83	12.08	-37.3	-38.2	24.1	0.00e+00	120	32	101	1048576	54	5426
2026-01-06 22:10:55.76	345.71	12.01	-37.2	-38.1	24.1	0.00e+00	123	32	101	1048576	54	5379
2026-01-06 22:10:56.77	345.59	11.93	-37.4	-38.3	24.0	0.00e+00	122	32	101	1048576	54	5493
2026-01-06 22:10:57.78	345.47	11.86	-37.5	-38.4	23.9	0.00e+00	123	32	101	1048576	54	5546
2026-01-06 22:10:58.78	345.35	11.78	-37.7	-38.6	23.8	0.00e+00	121	32	101	1048576	54	5677
2026-01-06 22:10:59.79	345.24	11.71	-37.9	-38.9	23.6	0.00e+00	122	32	101	1048576	54	5867
2026-01-06 22:11:00.80	345.12	11.63	-38.1	-39.1	23.4	0.00e+00	121	32	101	1048576	54	6001
2026-01-06 22:11:01.81	345.01	11.56	-38.3	-39.3	23.2	0.00e+00	122	32	101	1048576	54	6155
2026-01-06 22:11:02.82	344.89	11.49	-38.5	-39.5	23.1	0.00e+00	123	32	101	1048576	54	6304
2026-01-06 22:11:03.83	344.78	11.41	-38.7	-39.7	22.9	0.00e+00	123	32	101	1048576	54	6428
2026-01-06 22:11:04.84	344.66	11.34	-38.7	-39.7	22.9	0.00e+00	123	32	101	1048576	54	6455
2026-01-06 22:11:05.84	344.55	11.27	-38.6	-39.7	22.8	0.00e+00	122	32	101	1048576	54	6429
2026-01-06 22:11:06.85	344.44	11.19	-38.7	-39.8	22.7	0.00e+00	120	32	101	1048576	54	6500
2026-01-06 22:11:07.86	344.33	11.12	-38.8	-39.8	22.6	0.00e+00	123	32	101	1048576	54	6548
2026-01-06 22:11:08.87	344.21	11.05	-38.4	-39.4	22.9	0.00e+00	123	32	101	1048576	54	6240
2026-01-06 22:11:09.87	344.10	10.97	-38.4	-39.4	22.9	0.00e+00	123	32	101	1048576	54	6241
2026-01-06 22:11:10.88	343.99	10.90	-38.1	-39.1	23.0	0.00e+00	123	32	101	1048576	54	6026
2026-01-06 22:11:11.89	343.88	10.83	-38.1	-39.1	23.2	0.00e+00	123	32	101	1048576	54	6025
2026-01-06 22:11:12.90	343.78	10.75	-38.0	-38.9	23.3	0.00e+00	123	32	101	1048576	54	5896
2026-01-06 22:11:13.91	343.67	10.68	-37.9	-38.8	23.4	0.00e+00	123	32	101	1048576	54	5852
2026-01-06 22:11:14.91	343.56	10.61	-37.8	-38.8	23.5	0.00e+00	122	32	101	1048576	54	5794
2026-01-06 22:11:15.92	343.45	10.54	-37.8	-38.8	23.5	0.00e+00	123	32	101	1048576	54	5823
2026-01-06 22:11:16.93	343.35	10.47	-37.9	-38.8	23.5	0.00e+00	123	32	101	1048576	54	5852
2026-01-06 22:11:17.93	343.24	10.39	-38.0	-39.0	23.4	0.00e+00	123	32	101	1048576	54	5933
2026-01-06 22:11:18.94	343.13	10.32	-38.1	-39.1	23.4	0.00e+00	120	32	101	1048576	54	6005
2026-01-06 22:11:19.95	343.03	10.25	-38.2	-39.2	23.3	0.00e+00	120	32	101	1048576	54	6111
2026-01-06 22:11:20.96	342.92	10.18	-38.4	-39.4	23.1	0.00e+00	123	32	101	1048576	54	6230
2026-01-06 22:11:21.97	342.82	10.11	-38.6	-39.6	22.9	0.00e+00	120	32	101	1048576	54	6366
2026-01-06 22:11:22.98	342.72	10.03	-38.7	-39.7	22.8	0.00e+00	123	32	101	1048576	54	6424
2026-01-06 22:11:23.98	342.61	9.96	-38.8	-39.8	22.7	0.00e+00	123	32	101	1048576	54	6546
2026-01-06 22:11:24.99	342.51	9.89	-39.0	-40.0	22.6	0.00e+00	123	32	101	1048576	54	6673
