passes_logs/2026/01/06/R4.6S_Anadyr_2ch/R4.6S_Anadyr_2ch__20260106_025427_AQUA_rec.log

#Pass ID: 20260106_025427_AQUA
#Satellite: AQUA
#Configuration: AQUA
#almurnet v.1.7.20251203
#Start time: 2026-01-06 02:54:30

#Version: 2.2.20231116
#Station: R4.6S_Anadyr_2ch
#Location: 177.4865 lon 64.73178 lat
#TLE: 1 27424U 02022A   25351.00450321  .00000925  00000+0  19503-3 0  9992
#TLE: 2 27424  98.4041 311.9529 0001248 113.7180 322.1616 14.61819266256652

#Time	Az	El	Level	Level2	SNR	BER	BlckErr	Temp	State	Recorded	gain1	gain2
2026-01-06 02:54:30.32	182.43	0.17	-51.3	-67.6	3.2	3.02e+01	0	30	0	0	60	125213
2026-01-06 02:54:31.33	182.46	0.23	-51.3	-69.1	3.5	3.02e+01	0	30	104	0	60	148213
2026-01-06 02:54:32.34	182.50	0.30	-51.3	-69.1	3.5	3.02e+01	0	30	104	0	60	147733
2026-01-06 02:54:33.35	182.54	0.36	-51.3	-69.1	3.5	3.02e+01	0	30	104	0	60	148626
2026-01-06 02:54:34.36	182.58	0.42	-51.3	-69.1	3.5	3.02e+01	0	30	104	0	60	148343
2026-01-06 02:54:35.37	182.62	0.48	-51.3	-69.1	3.5	3.02e+01	0	30	104	0	60	147737
2026-01-06 02:54:36.38	182.66	0.54	-51.3	-69.2	3.5	3.02e+01	0	31	104	0	60	149078
2026-01-06 02:54:37.39	182.70	0.60	-51.3	-69.2	3.5	3.02e+01	0	31	104	0	60	148873
2026-01-06 02:54:38.40	182.73	0.66	-51.3	-69.1	3.5	3.02e+01	0	31	104	0	60	148518
2026-01-06 02:54:39.41	182.77	0.73	-51.3	-69.1	3.5	3.02e+01	0	31	104	0	60	148731
2026-01-06 02:54:40.43	182.81	0.79	-51.3	-69.1	3.5	3.02e+01	0	30	104	0	60	148548
2026-01-06 02:54:41.44	182.85	0.85	-51.3	-69.2	3.5	3.02e+01	0	31	104	0	60	149785
2026-01-06 02:54:42.45	182.89	0.91	-51.3	-69.1	3.5	3.02e+01	0	31	104	0	60	147952
2026-01-06 02:54:43.46	182.93	0.97	-51.3	-69.1	3.5	3.02e+01	0	31	104	0	60	148841
2026-01-06 02:54:44.47	182.97	1.04	-51.3	-69.1	3.5	3.02e+01	0	31	104	0	60	148531
2026-01-06 02:54:45.48	183.01	1.10	-51.3	-69.1	3.5	3.02e+01	0	31	104	0	60	148459
2026-01-06 02:54:46.49	183.05	1.16	-51.3	-69.1	3.5	3.02e+01	0	31	104	0	60	148062
2026-01-06 02:54:47.50	183.09	1.22	-51.3	-69.1	3.5	3.02e+01	0	31	104	0	60	148718
2026-01-06 02:54:48.51	183.14	1.29	-51.3	-69.1	3.5	3.02e+01	0	31	104	0	60	148382
2026-01-06 02:54:49.52	183.18	1.35	-51.3	-69.1	3.5	3.02e+01	0	31	104	0	60	148221
2026-01-06 02:54:50.54	183.22	1.41	-51.3	-69.1	3.5	3.02e+01	0	31	104	0	60	148151
2026-01-06 02:54:51.55	183.26	1.48	-51.3	-69.1	3.5	3.02e+01	0	31	104	0	60	148168
2026-01-06 02:54:52.56	183.30	1.54	-51.3	-69.2	3.5	3.02e+01	0	31	104	0	60	149036
2026-01-06 02:54:53.57	183.34	1.61	-51.3	-69.1	3.5	3.02e+01	0	31	104	0	60	148781
2026-01-06 02:54:54.58	183.38	1.67	-51.3	-69.2	3.5	3.02e+01	0	31	104	0	60	149518
2026-01-06 02:54:55.59	183.43	1.73	-51.3	-69.1	3.5	3.02e+01	0	31	104	0	60	148401
2026-01-06 02:54:56.60	183.47	1.80	-51.3	-69.1	3.5	3.02e+01	0	31	104	0	60	148328
2026-01-06 02:54:57.61	183.51	1.86	-51.3	-69.1	3.5	3.02e+01	0	31	104	0	60	148337
2026-01-06 02:54:58.63	183.55	1.93	-51.3	-69.1	3.5	3.02e+01	0	31	104	0	60	148563
2026-01-06 02:54:59.64	183.60	1.99	-51.3	-69.1	3.5	3.02e+01	0	31	104	0	60	148834
2026-01-06 02:55:00.65	183.64	2.06	-51.3	-69.1	3.5	3.02e+01	0	31	104	0	60	148356
2026-01-06 02:55:01.66	183.68	2.12	-51.3	-69.1	3.5	3.02e+01	0	31	104	0	60	148028
2026-01-06 02:55:02.67	183.73	2.19	-51.3	-69.1	3.5	3.02e+01	0	31	104	0	60	148335
2026-01-06 02:55:03.68	183.77	2.25	-51.3	-69.1	3.5	3.02e+01	0	31	104	0	60	148294
2026-01-06 02:55:04.69	183.81	2.32	-51.3	-69.1	3.5	3.02e+01	0	31	104	0	60	148621
2026-01-06 02:55:05.70	183.86	2.38	-51.3	-69.1	3.5	3.02e+01	0	31	104	0	60	148601
2026-01-06 02:55:06.71	183.90	2.45	-51.3	-69.1	3.5	3.02e+01	0	31	104	0	60	147950
2026-01-06 02:55:07.72	183.95	2.51	-51.3	-69.1	3.5	3.02e+01	0	31	104	0	60	147915
2026-01-06 02:55:08.73	183.99	2.58	-51.3	-69.1	3.5	3.02e+01	0	31	104	0	60	148796
2026-01-06 02:55:09.74	184.04	2.65	-51.3	-69.1	3.5	3.02e+01	0	31	104	0	60	148718
2026-01-06 02:55:10.75	184.08	2.71	-51.3	-69.2	3.5	3.02e+01	0	31	104	0	60	149009
2026-01-06 02:55:11.77	184.13	2.78	-51.3	-69.1	3.5	3.02e+01	0	31	104	0	60	148385
2026-01-06 02:55:12.78	184.17	2.85	-51.3	-69.1	3.5	3.02e+01	0	31	104	0	60	148723
2026-01-06 02:55:13.79	184.22	2.91	-51.3	-69.1	3.5	3.02e+01	0	31	104	0	60	148358
2026-01-06 02:55:14.80	184.26	2.98	-51.3	-69.1	3.5	3.02e+01	0	31	104	0	60	148208
2026-01-06 02:55:15.81	184.31	3.05	-51.3	-69.1	3.5	3.02e+01	0	31	104	0	60	147570
2026-01-06 02:55:16.82	184.36	3.11	-51.3	-69.1	3.5	3.02e+01	0	31	104	0	60	148520
2026-01-06 02:55:17.83	184.40	3.18	-51.3	-69.1	3.5	3.02e+01	0	31	104	0	60	148125
2026-01-06 02:55:18.84	184.45	3.25	-51.3	-69.1	3.5	3.02e+01	0	31	104	0	60	147895
2026-01-06 02:55:19.85	184.50	3.32	-51.3	-69.2	3.5	3.02e+01	0	31	104	0	60	149293
2026-01-06 02:55:20.86	184.54	3.39	-51.3	-69.2	3.5	3.02e+01	0	31	104	0	60	149051
2026-01-06 02:55:21.88	184.59	3.45	-51.3	-69.2	3.5	3.02e+01	0	31	104	0	60	150578
2026-01-06 02:55:22.89	184.64	3.52	-51.0	-69.4	3.5	3.02e+01	0	31	104	0	60	152332
2026-01-06 02:55:23.90	184.69	3.59	-51.5	-69.4	3.5	3.02e+01	0	31	104	0	60	153086
2026-01-06 02:55:24.91	184.73	3.66	-51.3	-69.4	3.5	3.02e+01	0	31	104	0	60	152386
2026-01-06 02:55:25.92	184.78	3.73	-51.0	-69.3	3.5	3.02e+01	0	31	104	0	60	152250
2026-01-06 02:55:26.93	184.83	3.80	-51.2	-69.4	3.5	3.02e+01	0	31	104	0	60	152803
2026-01-06 02:55:27.94	184.88	3.87	-51.5	-69.4	3.5	3.02e+01	0	31	104	0	60	153309
2026-01-06 02:55:28.95	184.93	3.94	-51.5	-69.4	3.5	3.02e+01	0	31	104	0	60	152881
2026-01-06 02:55:29.97	184.98	4.01	-51.5	-69.4	3.5	3.02e+01	0	31	104	0	60	153191
2026-01-06 02:55:30.98	185.03	4.08	-51.5	-69.3	3.5	3.02e+01	0	31	104	0	60	151305
2026-01-06 02:55:31.99	185.08	4.15	-51.4	-69.3	3.5	3.02e+01	0	31	104	0	60	150916
2026-01-06 02:55:33.00	185.13	4.22	-51.2	-69.1	3.5	3.02e+01	0	31	104	0	60	148389
2026-01-06 02:55:34.01	185.18	4.29	-51.1	-68.9	3.5	3.02e+01	0	31	104	0	60	145077
2026-01-06 02:55:35.02	185.23	4.36	-50.8	-68.7	3.5	3.02e+01	0	31	104	0	60	141608
2026-01-06 02:55:36.03	185.28	4.43	-50.6	-68.4	3.5	3.02e+01	0	31	104	0	60	136210
2026-01-06 02:55:37.04	185.33	4.50	-50.2	-67.8	3.5	3.02e+01	0	31	104	0	60	127205
2026-01-06 02:55:38.05	185.38	4.57	-50.2	-68.0	3.5	3.02e+01	0	31	104	0	60	129926
2026-01-06 02:55:39.06	185.43	4.64	-50.2	-67.8	3.5	3.02e+01	0	31	104	0	60	127896
2026-01-06 02:55:40.07	185.48	4.71	-50.2	-67.8	3.5	3.02e+01	0	31	104	0	60	126896
2026-01-06 02:55:41.08	185.54	4.79	-50.2	-67.7	3.5	3.02e+01	0	31	104	0	60	126446
2026-01-06 02:55:42.09	185.59	4.86	-50.2	-67.9	3.5	3.02e+01	0	31	104	0	60	128906
2026-01-06 02:55:43.10	185.64	4.93	-50.1	-67.9	3.5	3.02e+01	0	31	104	0	60	129321
2026-01-06 02:55:44.11	185.69	5.00	-50.1	-67.9	3.5	3.02e+01	0	31	104	0	60	129537
2026-01-06 02:55:45.12	185.75	5.07	-50.2	-68.1	3.5	3.02e+01	0	31	104	0	60	131463
2026-01-06 02:55:46.13	185.80	5.15	-50.1	-68.1	3.5	3.02e+01	0	31	104	0	60	131758
2026-01-06 02:55:47.14	185.85	5.22	-50.1	-68.1	3.5	3.02e+01	0	31	104	0	60	131610
2026-01-06 02:55:48.15	185.91	5.29	-50.2	-68.0	3.5	3.02e+01	0	31	104	0	60	131091
2026-01-06 02:55:49.16	185.96	5.37	-50.2	-68.1	3.5	3.02e+01	0	31	104	0	60	131779
2026-01-06 02:55:50.18	186.02	5.44	-50.1	-68.1	3.5	3.02e+01	0	31	104	0	60	131185
2026-01-06 02:55:51.19	186.07	5.51	-50.2	-68.0	3.5	3.02e+01	0	31	104	0	60	129812
2026-01-06 02:55:52.20	186.13	5.59	-50.2	-68.0	3.5	3.02e+01	0	31	104	0	60	130549
2026-01-06 02:55:53.21	186.18	5.66	-50.1	-67.9	3.5	3.02e+01	0	31	104	0	60	128246
2026-01-06 02:55:54.22	186.24	5.74	-50.1	-67.6	3.5	3.02e+01	0	31	104	0	60	124635
2026-01-06 02:55:55.23	186.29	5.81	-50.1	-67.6	3.5	3.02e+01	0	31	104	0	60	125152
2026-01-06 02:55:56.24	186.35	5.89	-50.1	-67.8	3.5	3.02e+01	0	31	104	0	60	127941
2026-01-06 02:55:57.25	186.40	5.96	-50.1	-67.9	3.5	3.02e+01	0	31	104	0	60	128987
2026-01-06 02:55:58.26	186.46	6.04	-50.1	-67.9	3.5	3.02e+01	0	31	104	0	60	129246
2026-01-06 02:55:59.27	186.52	6.11	-50.1	-67.7	3.5	3.02e+01	0	31	104	0	60	125273
2026-01-06 02:56:00.28	186.58	6.19	-50.1	-67.3	3.5	3.02e+01	0	31	104	0	60	120072
2026-01-06 02:56:01.29	186.63	6.26	-50.1	-67.5	3.5	3.02e+01	0	31	104	0	60	122516
2026-01-06 02:56:02.30	186.69	6.34	-50.1	-67.9	3.5	3.02e+01	0	31	104	0	60	128635
2026-01-06 02:56:03.32	186.75	6.42	-50.1	-67.9	3.5	3.02e+01	0	31	104	0	60	128561
2026-01-06 02:56:04.33	186.81	6.49	-50.1	-66.9	3.5	3.02e+01	0	31	104	0	60	115348
2026-01-06 02:56:05.34	186.87	6.57	-50.0	-64.8	4.1	3.02e+01	0	31	104	0	60	90695
2026-01-06 02:56:06.35	186.93	6.65	-50.0	-63.3	5.0	3.02e+01	0	31	104	0	60	75788
2026-01-06 02:56:07.36	186.99	6.73	-49.9	-62.5	5.1	3.02e+01	10	31	104	0	60	69485
2026-01-06 02:56:08.37	187.05	6.80	-50.0	-63.6	4.6	3.02e+01	0	32	104	0	60	78546
2026-01-06 02:56:09.38	187.11	6.88	-50.1	-65.6	3.8	3.02e+01	0	31	104	0	60	98936
2026-01-06 02:56:10.39	187.17	6.96	-49.9	-62.6	5.3	3.02e+01	0	31	104	0	60	70388
2026-01-06 02:56:11.40	187.23	7.04	-49.1	-56.2	10.8	3.02e+01	91	31	102	524288	60	33460
2026-01-06 02:56:12.41	187.29	7.12	-47.7	-52.2	15.6	3.02e+01	91	31	102	524288	60	21076
2026-01-06 02:56:13.42	187.35	7.20	-45.9	-48.9	18.9	3.02e+01	91	31	102	524288	60	14449
2026-01-06 02:56:14.43	187.41	7.27	-44.4	-46.6	21.1	3.02e+01	90	31	102	524288	60	11100
2026-01-06 02:56:15.44	187.47	7.35	-42.9	-44.8	22.7	3.02e+01	92	31	102	524288	60	9055
2026-01-06 02:56:16.45	187.54	7.43	-41.9	-43.6	23.9	3.02e+01	92	31	102	524288	60	7833
2026-01-06 02:56:17.46	187.60	7.51	-41.3	-42.9	24.5	3.02e+01	92	31	102	524288	60	7255
2026-01-06 02:56:18.48	187.66	7.59	-41.5	-43.1	24.3	3.02e+01	90	31	102	524288	60	7395
2026-01-06 02:56:19.49	187.73	7.67	-40.5	-42.0	25.1	3.02e+01	92	31	102	524288	60	6517
2026-01-06 02:56:20.50	187.79	7.75	-42.2	-43.9	21.9	3.02e+01	90	31	102	524288	60	8113
2026-01-06 02:56:21.51	187.85	7.84	-42.5	-44.6	22.8	3.02e+01	91	31	104	524288	60	8845
2026-01-06 02:56:22.52	187.92	7.92	-44.1	-46.3	20.2	3.02e+01	92	31	0	524288	60	10710
2026-01-06 02:56:23.53	187.98	8.00	-40.3	-41.7	26.0	3.02e+01	92	31	0	524288	60	6295
2026-01-06 02:56:24.54	188.05	8.08	-42.4	-44.1	23.6	3.02e+01	90	31	0	524288	60	8304
2026-01-06 02:56:25.55	188.12	8.16	-40.7	-42.2	25.3	3.02e+01	92	31	0	524288	60	6689
2026-01-06 02:56:26.57	188.18	8.24	-40.7	-42.2	25.1	3.02e+01	90	31	0	524288	60	6725
2026-01-06 02:56:27.58	188.25	8.33	-40.8	-42.3	25.2	3.02e+01	91	31	0	524288	60	6754
2026-01-06 02:56:28.59	188.32	8.41	-40.7	-42.2	25.5	3.02e+01	90	31	0	524288	60	6708
2026-01-06 02:56:29.60	188.38	8.49	-40.8	-42.3	25.3	3.02e+01	92	31	0	524288	60	6765
2026-01-06 02:56:30.61	188.45	8.58	-40.3	-41.7	25.9	3.02e+01	92	31	0	524288	60	6318
2026-01-06 02:56:31.62	188.52	8.66	-40.5	-42.0	25.6	3.02e+01	90	31	101	524288	60	6514
2026-01-06 02:56:32.63	188.59	8.74	-40.3	-41.7	25.9	3.02e+01	92	31	101	524288	60	6325
2026-01-06 02:56:33.64	188.66	8.83	-40.2	-41.7	26.1	3.02e+01	92	31	101	524288	60	6285
2026-01-06 02:56:34.65	188.73	8.91	-40.4	-41.9	25.8	3.02e+01	90	31	101	524288	60	6461
2026-01-06 02:56:35.66	188.80	9.00	-40.3	-41.8	26.0	3.02e+01	92	31	101	524288	60	6401
2026-01-06 02:56:36.67	188.87	9.08	-39.8	-41.2	26.4	3.02e+01	90	31	101	524288	60	5967
2026-01-06 02:56:37.68	188.94	9.17	-39.6	-41.0	26.6	3.02e+01	92	31	101	524288	60	5839
2026-01-06 02:56:38.70	189.01	9.25	-39.5	-40.9	26.7	3.02e+01	92	31	101	524288	60	5778
2026-01-06 02:56:39.71	189.08	9.34	-39.5	-40.9	26.7	3.02e+01	92	31	101	524288	60	5736
2026-01-06 02:56:40.72	189.15	9.43	-39.4	-40.8	26.7	3.02e+01	92	31	101	524288	60	5718
2026-01-06 02:56:41.73	189.22	9.51	-39.5	-40.9	26.7	3.02e+01	92	31	101	524288	60	5745
2026-01-06 02:56:42.74	189.30	9.60	-39.5	-40.9	26.7	3.02e+01	90	32	101	524288	60	5750
2026-01-06 02:56:43.75	189.37	9.69	-39.4	-40.8	26.8	3.02e+01	91	31	101	524288	58	6371
2026-01-06 02:56:44.76	189.44	9.77	-39.4	-40.8	26.8	3.02e+01	91	31	101	524288	58	6385
2026-01-06 02:56:45.77	189.52	9.86	-39.3	-40.7	26.9	3.02e+01	92	31	101	524288	58	6330
2026-01-06 02:56:46.78	189.59	9.95	-39.4	-40.8	26.9	3.02e+01	90	31	101	524288	58	6371
2026-01-06 02:56:47.79	189.67	10.04	-39.3	-40.7	26.9	3.02e+01	91	31	101	524288	58	6285
2026-01-06 02:56:48.80	189.74	10.13	-39.2	-40.6	27.0	3.02e+01	91	31	101	524288	58	6208
2026-01-06 02:56:49.81	189.82	10.21	-39.2	-40.6	27.0	3.02e+01	91	31	101	524288	58	6213
2026-01-06 02:56:50.83	189.90	10.30	-39.1	-40.5	27.1	3.02e+01	90	31	101	524288	58	6142
2026-01-06 02:56:51.84	189.97	10.39	-39.3	-40.7	26.9	3.02e+01	91	31	101	524288	58	6335
2026-01-06 02:56:52.85	190.05	10.48	-39.2	-40.6	27.0	3.02e+01	90	31	101	524288	58	6232
2026-01-06 02:56:53.86	190.13	10.57	-39.2	-40.5	27.1	3.02e+01	89	31	101	524288	58	6197
2026-01-06 02:56:54.87	190.21	10.66	-39.1	-40.5	27.1	3.02e+01	90	31	101	524288	58	6176
2026-01-06 02:56:55.88	190.29	10.76	-39.1	-40.5	27.2	3.02e+01	90	31	101	524288	58	6151
2026-01-06 02:56:56.89	190.36	10.85	-39.1	-40.5	27.2	3.02e+01	91	31	101	524288	58	6176
2026-01-06 02:56:57.90	190.44	10.94	-39.2	-40.6	27.0	3.02e+01	91	31	101	524288	58	6241
2026-01-06 02:56:58.91	190.53	11.03	-39.0	-40.4	27.2	3.02e+01	89	31	101	524288	58	6096
2026-01-06 02:56:59.92	190.61	11.12	-39.2	-40.5	27.2	3.02e+01	92	32	101	524288	58	6203
2026-01-06 02:57:00.94	190.69	11.22	-39.1	-40.5	27.2	3.02e+01	92	31	101	524288	58	6146
2026-01-06 02:57:01.94	190.77	11.31	-39.1	-40.5	27.1	3.02e+01	91	31	101	524288	58	6182
2026-01-06 02:57:02.96	190.85	11.40	-39.1	-40.5	27.2	3.02e+01	92	31	101	524288	58	6159
2026-01-06 02:57:03.97	190.94	11.50	-39.2	-40.6	27.2	3.02e+01	92	31	101	524288	58	6223
2026-01-06 02:57:04.98	191.02	11.59	-39.0	-40.4	27.2	3.02e+01	92	31	101	524288	58	6097
2026-01-06 02:57:05.99	191.10	11.68	-39.1	-40.5	27.2	3.02e+01	91	31	101	524288	58	6167
2026-01-06 02:57:07.00	191.19	11.78	-39.1	-40.4	27.3	3.02e+01	91	31	101	524288	58	6117
2026-01-06 02:57:08.01	191.27	11.87	-38.9	-40.3	27.4	3.02e+01	90	31	101	524288	58	6021
2026-01-06 02:57:09.02	191.36	11.97	-38.9	-40.3	27.4	3.02e+01	92	32	101	524288	58	6006
2026-01-06 02:57:10.03	191.45	12.06	-38.9	-40.2	27.4	3.02e+01	90	32	101	524288	58	5982
2026-01-06 02:57:11.04	191.53	12.16	-38.7	-40.1	27.6	3.02e+01	92	31	101	524288	58	5886
2026-01-06 02:57:12.05	191.62	12.26	-38.8	-40.1	27.6	3.02e+01	92	32	101	524288	58	5924
2026-01-06 02:57:13.07	191.71	12.35	-38.7	-40.1	27.6	3.02e+01	92	32	101	524288	58	5883
2026-01-06 02:57:14.08	191.80	12.45	-38.7	-40.0	27.7	3.02e+01	90	31	101	524288	58	5853
2026-01-06 02:57:15.09	191.89	12.55	-38.6	-39.9	27.8	3.02e+01	90	31	101	524288	58	5745
2026-01-06 02:57:16.10	191.98	12.65	-38.6	-39.9	27.7	3.02e+01	91	32	101	524288	58	5784
2026-01-06 02:57:17.11	192.07	12.75	-38.5	-39.8	27.8	3.02e+01	91	31	101	524288	58	5711
2026-01-06 02:57:18.12	192.16	12.84	-38.6	-39.9	27.9	3.02e+01	92	32	101	524288	58	5743
2026-01-06 02:57:19.13	192.25	12.94	-38.5	-39.9	27.9	3.02e+01	91	32	101	524288	58	5735
2026-01-06 02:57:20.14	192.34	13.04	-38.5	-39.8	27.9	3.02e+01	92	32	101	524288	58	5685
2026-01-06 02:57:21.16	192.44	13.14	-38.6	-39.8	27.9	3.02e+01	90	31	101	524288	58	5724
2026-01-06 02:57:22.17	192.53	13.24	-38.6	-39.9	27.9	3.02e+01	91	31	101	524288	58	5741
2026-01-06 02:57:23.18	192.63	13.34	-38.6	-39.9	27.9	3.02e+01	90	31	101	524288	58	5728
2026-01-06 02:57:24.19	192.72	13.45	-38.7	-40.0	27.7	3.02e+01	92	31	101	524288	58	5837
2026-01-06 02:57:25.20	192.82	13.55	-38.6	-39.9	27.9	3.02e+01	90	32	101	524288	58	5750
2026-01-06 02:57:26.21	192.91	13.65	-38.7	-40.0	27.9	3.02e+01	92	32	101	524288	58	5812
2026-01-06 02:57:27.22	193.01	13.75	-38.8	-40.1	27.7	3.02e+01	90	31	101	524288	58	5873
2026-01-06 02:57:28.23	193.11	13.85	-38.5	-39.8	28.0	3.02e+01	92	32	101	524288	58	5692
2026-01-06 02:57:29.24	193.21	13.96	-38.6	-39.8	27.9	3.02e+01	87	31	101	524288	58	5724
2026-01-06 02:57:30.25	193.31	14.06	-38.5	-39.8	28.0	3.02e+01	92	31	101	524288	58	5697
2026-01-06 02:57:31.26	193.41	14.16	-38.7	-40.0	27.9	3.02e+01	90	31	101	524288	58	5801
2026-01-06 02:57:32.27	193.51	14.27	-38.5	-39.8	28.0	3.02e+01	92	32	101	524288	58	5679
2026-01-06 02:57:33.28	193.61	14.37	-38.4	-39.7	28.1	3.02e+01	90	31	101	524288	58	5614
2026-01-06 02:57:34.30	193.71	14.48	-38.4	-39.7	28.1	3.02e+01	92	31	101	524288	56	6306
2026-01-06 02:57:35.31	193.81	14.59	-38.5	-39.8	28.0	3.02e+01	92	31	101	524288	56	6404
2026-01-06 02:57:36.32	193.92	14.69	-38.5	-39.8	28.1	3.02e+01	92	31	101	524288	56	6411
2026-01-06 02:57:37.33	194.02	14.80	-38.4	-39.7	28.2	3.02e+01	92	31	101	524288	56	6296
2026-01-06 02:57:38.34	194.13	14.90	-38.3	-39.6	28.3	3.02e+01	92	31	101	524288	56	6217
2026-01-06 02:57:39.35	194.23	15.01	-38.5	-39.8	28.1	3.02e+01	90	31	101	524288	56	6362
2026-01-06 02:57:40.36	194.34	15.12	-38.5	-39.8	28.1	3.02e+01	92	31	101	524288	56	6374
2026-01-06 02:57:41.37	194.45	15.23	-38.5	-39.7	28.0	3.02e+01	90	31	101	524288	56	6346
2026-01-06 02:57:42.38	194.56	15.34	-38.4	-39.7	28.1	3.02e+01	91	31	101	524288	56	6308
2026-01-06 02:57:43.39	194.67	15.45	-38.4	-39.6	28.2	3.02e+01	90	31	101	524288	56	6270
2026-01-06 02:57:44.40	194.78	15.56	-38.4	-39.7	28.2	3.02e+01	92	31	101	524288	56	6279
2026-01-06 02:57:45.42	194.89	15.67	-38.3	-39.6	28.3	3.02e+01	90	31	101	524288	56	6235
2026-01-06 02:57:46.43	195.00	15.78	-38.3	-39.6	28.3	3.02e+01	91	31	101	524288	56	6219
2026-01-06 02:57:47.44	195.11	15.89	-38.3	-39.5	28.3	3.02e+01	92	31	101	524288	56	6192
2026-01-06 02:57:48.45	195.23	16.00	-38.2	-39.5	28.3	3.02e+01	87	32	101	524288	56	6164
2026-01-06 02:57:49.46	195.34	16.11	-38.2	-39.4	28.4	3.02e+01	90	32	101	524288	56	6121
2026-01-06 02:57:50.47	195.45	16.22	-38.2	-39.5	28.4	3.02e+01	92	32	101	524288	56	6162
2026-01-06 02:57:51.48	195.57	16.34	-38.1	-39.3	28.5	3.02e+01	92	31	101	524288	56	6058
2026-01-06 02:57:52.49	195.69	16.45	-38.1	-39.4	28.4	3.02e+01	92	32	101	524288	56	6101
2026-01-06 02:57:53.50	195.81	16.56	-37.9	-39.2	28.6	3.02e+01	90	31	101	524288	56	5928
2026-01-06 02:57:54.51	195.92	16.68	-38.0	-39.2	28.7	3.02e+01	92	31	101	524288	56	5954
2026-01-06 02:57:55.52	196.04	16.79	-37.9	-39.1	28.7	3.02e+01	91	31	101	524288	56	5917
2026-01-06 02:57:56.54	196.17	16.91	-37.9	-39.1	28.7	3.02e+01	92	32	101	524288	56	5887
2026-01-06 02:57:57.55	196.29	17.02	-38.0	-39.2	28.6	3.02e+01	90	31	101	524288	56	5960
2026-01-06 02:57:58.56	196.41	17.14	-37.8	-39.0	28.8	3.02e+01	92	31	101	524288	56	5847
2026-01-06 02:57:59.57	196.53	17.26	-38.0	-39.2	28.6	3.02e+01	90	31	101	524288	56	5979
2026-01-06 02:58:00.58	196.66	17.37	-38.0	-39.3	28.6	3.02e+01	92	31	101	524288	56	5998
2026-01-06 02:58:01.59	196.78	17.49	-38.1	-39.3	28.5	3.02e+01	92	31	101	524288	56	6047
2026-01-06 02:58:02.60	196.91	17.61	-37.8	-39.1	28.8	3.02e+01	92	32	101	524288	56	5860
2026-01-06 02:58:03.61	197.04	17.73	-37.9	-39.1	28.8	3.02e+01	91	31	101	524288	56	5907
2026-01-06 02:58:04.62	197.17	17.85	-37.9	-39.1	28.7	3.02e+01	92	31	101	524288	56	5895
2026-01-06 02:58:05.64	197.30	17.97	-37.8	-39.0	28.8	3.02e+01	92	31	101	524288	56	5819
2026-01-06 02:58:06.65	197.43	18.09	-37.9	-39.1	28.8	3.02e+01	92	31	101	524288	56	5887
2026-01-06 02:58:07.66	197.56	18.21	-37.8	-39.1	28.8	3.02e+01	92	32	101	524288	56	5868
2026-01-06 02:58:08.67	197.69	18.33	-37.7	-38.9	28.9	3.02e+01	91	31	101	524288	56	5748
2026-01-06 02:58:09.68	197.83	18.45	-37.8	-39.0	28.8	3.02e+01	92	32	101	524288	56	5852
2026-01-06 02:58:10.69	197.96	18.58	-37.9	-39.1	28.8	3.02e+01	90	32	101	524288	56	5920
2026-01-06 02:58:11.70	198.10	18.70	-37.7	-38.9	28.9	3.02e+01	92	32	101	524288	56	5774
2026-01-06 02:58:12.71	198.23	18.82	-37.6	-38.9	29.0	3.02e+01	92	32	101	524288	56	5747
2026-01-06 02:58:13.72	198.37	18.95	-37.7	-38.9	28.9	3.02e+01	92	31	101	524288	56	5761
2026-01-06 02:58:14.74	198.51	19.07	-37.7	-38.9	28.9	3.02e+01	92	32	101	524288	56	5752
2026-01-06 02:58:15.75	198.65	19.20	-37.8	-39.0	28.9	3.02e+01	92	32	101	524288	56	5816
2026-01-06 02:58:16.76	198.80	19.32	-37.6	-38.9	29.0	3.02e+01	92	31	101	524288	56	5732
2026-01-06 02:58:17.77	198.94	19.45	-37.6	-38.8	29.0	3.02e+01	92	32	101	524288	56	5717
2026-01-06 02:58:18.78	199.08	19.57	-37.6	-38.8	29.1	3.02e+01	90	32	101	524288	56	5698
2026-01-06 02:58:19.79	199.23	19.70	-37.7	-38.9	29.0	3.02e+01	92	32	101	524288	56	5755
2026-01-06 02:58:20.80	199.38	19.83	-37.6	-38.9	29.0	3.02e+01	90	32	101	524288	56	5735
2026-01-06 02:58:21.81	199.52	19.96	-37.6	-38.8	29.1	3.02e+01	92	31	101	524288	56	5686
2026-01-06 02:58:22.83	199.67	20.09	-37.6	-38.8	29.0	3.02e+01	92	32	101	524288	56	5715
2026-01-06 02:58:23.84	199.82	20.22	-37.6	-38.8	29.1	3.02e+01	92	32	101	524288	56	5706
2026-01-06 02:58:24.85	199.98	20.35	-37.4	-38.6	29.2	3.02e+01	90	32	101	524288	56	5569
2026-01-06 02:58:25.86	200.13	20.48	-37.4	-38.6	29.2	3.02e+01	91	31	101	524288	56	5561
2026-01-06 02:58:26.87	200.28	20.61	-37.4	-38.6	29.3	3.02e+01	89	32	101	524288	56	5556
2026-01-06 02:58:27.88	200.44	20.74	-37.3	-38.4	29.3	3.02e+01	92	31	101	524288	54	6134
2026-01-06 02:58:28.89	200.60	20.87	-37.2	-38.4	29.4	3.02e+01	92	32	101	524288	54	6098
2026-01-06 02:58:29.90	200.76	21.00	-37.2	-38.4	29.3	3.02e+01	91	31	101	524288	54	6126
2026-01-06 02:58:30.91	200.92	21.14	-37.2	-38.4	29.3	3.02e+01	92	31	101	524288	54	6123
2026-01-06 02:58:31.92	201.08	21.27	-37.4	-38.6	29.1	3.02e+01	90	31	101	524288	54	6258
2026-01-06 02:58:32.93	201.24	21.40	-37.5	-38.7	29.2	3.02e+01	91	32	101	524288	54	6337
2026-01-06 02:58:33.94	201.40	21.54	-37.5	-38.7	29.1	3.02e+01	90	32	101	524288	54	6337
2026-01-06 02:58:34.95	201.57	21.67	-37.5	-38.7	29.0	3.02e+01	92	31	101	524288	54	6335
2026-01-06 02:58:35.96	201.74	21.81	-37.2	-38.5	29.3	3.02e+01	92	32	101	524288	54	6136
2026-01-06 02:58:36.97	201.91	21.95	-37.3	-38.5	29.3	3.02e+01	92	32	101	524288	54	6193
2026-01-06 02:58:37.99	202.08	22.09	-37.2	-38.4	29.4	3.02e+01	91	31	101	524288	54	6091
2026-01-06 02:58:39.00	202.25	22.22	-37.1	-38.3	29.4	3.02e+01	91	31	101	524288	54	6062
2026-01-06 02:58:40.01	202.42	22.36	-37.2	-38.4	29.3	3.02e+01	88	32	101	524288	54	6112
2026-01-06 02:58:41.02	202.60	22.50	-37.1	-38.3	29.5	3.02e+01	91	31	101	524288	54	6055
2026-01-06 02:58:42.03	202.78	22.64	-37.2	-38.4	29.4	3.02e+01	89	31	101	524288	54	6122
2026-01-06 02:58:43.04	202.95	22.78	-37.2	-38.4	29.4	3.02e+01	86	31	101	524288	54	6072
2026-01-06 02:58:44.05	203.13	22.92	-37.2	-38.4	29.4	3.02e+01	91	31	101	524288	54	6081
2026-01-06 02:58:45.06	203.32	23.06	-37.0	-38.2	29.5	3.02e+01	90	31	101	524288	54	5975
2026-01-06 02:58:46.07	203.50	23.20	-37.0	-38.2	29.5	3.02e+01	87	31	101	524288	54	5982
2026-01-06 02:58:47.08	203.68	23.34	-37.0	-38.2	29.6	3.02e+01	90	31	101	524288	54	5969
2026-01-06 02:58:48.09	203.87	23.49	-37.0	-38.2	29.6	3.02e+01	92	32	101	524288	54	5956
2026-01-06 02:58:49.10	204.06	23.63	-37.1	-38.3	29.5	3.02e+01	92	31	101	524288	54	6000
2026-01-06 02:58:50.11	204.25	23.77	-37.1	-38.3	29.5	3.02e+01	93	31	101	524288	54	6057
2026-01-06 02:58:51.12	204.44	23.92	-37.2	-38.5	29.4	3.02e+01	92	31	101	524288	54	6136
2026-01-06 02:58:52.13	204.63	24.06	-37.2	-38.4	29.3	3.02e+01	90	32	101	524288	54	6128
2026-01-06 02:58:53.15	204.83	24.21	-37.2	-38.4	29.5	3.02e+01	90	31	101	524288	54	6071
2026-01-06 02:58:54.16	205.03	24.36	-37.3	-38.5	29.3	3.02e+01	92	31	101	524288	54	6171
2026-01-06 02:58:55.17	205.23	24.50	-37.1	-38.2	29.6	3.02e+01	90	32	101	524288	54	5984
2026-01-06 02:58:56.18	205.43	24.65	-37.0	-38.2	29.5	3.02e+01	92	32	101	524288	54	5992
2026-01-06 02:58:57.19	205.63	24.80	-37.2	-38.4	29.5	3.02e+01	92	32	101	524288	54	6093
2026-01-06 02:58:58.20	205.84	24.94	-37.0	-38.2	29.6	3.02e+01	92	32	101	524288	54	5980
2026-01-06 02:58:59.21	206.04	25.09	-37.2	-38.4	29.5	3.02e+01	92	31	101	524288	54	6097
2026-01-06 02:59:00.22	206.25	25.24	-37.1	-38.3	29.5	3.02e+01	92	32	101	524288	54	6046
2026-01-06 02:59:01.23	206.47	25.39	-37.2	-38.4	29.4	3.02e+01	90	32	101	524288	54	6076
2026-01-06 02:59:02.24	206.68	25.54	-37.0	-38.2	29.6	3.02e+01	89	32	101	524288	54	5984
2026-01-06 02:59:03.25	206.89	25.69	-37.1	-38.3	29.6	3.02e+01	92	32	101	524288	54	6010
2026-01-06 02:59:04.26	207.11	25.84	-36.9	-38.1	29.7	3.02e+01	90	32	101	524288	54	5908
2026-01-06 02:59:05.27	207.33	26.00	-37.1	-38.3	29.5	3.02e+01	85	31	101	524288	54	6006
2026-01-06 02:59:06.28	207.55	26.15	-37.1	-38.3	29.5	3.02e+01	91	32	101	524288	54	6032
2026-01-06 02:59:07.29	207.78	26.30	-37.2	-38.4	29.4	3.02e+01	91	32	101	524288	54	6090
2026-01-06 02:59:08.31	208.00	26.46	-37.3	-38.5	29.3	3.02e+01	90	32	101	524288	54	6181
2026-01-06 02:59:09.32	208.23	26.61	-37.2	-38.4	29.4	3.02e+01	92	32	101	524288	54	6101
2026-01-06 02:59:10.33	208.46	26.76	-37.3	-38.5	29.3	3.02e+01	92	32	101	524288	54	6165
2026-01-06 02:59:11.34	208.69	26.92	-37.2	-38.4	29.5	3.02e+01	92	31	101	524288	54	6130
2026-01-06 02:59:12.35	208.93	27.07	-37.0	-38.2	29.6	3.02e+01	92	31	101	524288	54	5955
2026-01-06 02:59:13.36	209.17	27.23	-37.1	-38.2	29.6	3.02e+01	91	31	101	524288	54	5994
2026-01-06 02:59:14.37	209.41	27.39	-37.1	-38.2	29.6	3.02e+01	91	31	101	524288	54	5994
2026-01-06 02:59:15.38	209.65	27.54	-37.3	-38.5	29.4	3.02e+01	91	32	101	524288	54	6152
2026-01-06 02:59:16.39	209.89	27.70	-37.3	-38.5	29.3	3.02e+01	89	32	101	524288	54	6186
2026-01-06 02:59:17.40	210.14	27.86	-37.3	-38.5	29.4	3.02e+01	90	32	101	524288	54	6150
2026-01-06 02:59:18.41	210.39	28.01	-37.3	-38.5	29.3	3.02e+01	91	32	101	524288	54	6174
2026-01-06 02:59:19.42	210.64	28.17	-37.1	-38.3	29.5	3.02e+01	91	32	101	524288	54	6042
2026-01-06 02:59:20.44	210.90	28.33	-37.1	-38.3	29.5	3.02e+01	91	32	101	524288	54	6007
2026-01-06 02:59:21.45	211.16	28.49	-37.2	-38.4	29.4	3.02e+01	91	32	101	524288	54	6133
2026-01-06 02:59:22.46	211.42	28.65	-37.4	-38.6	29.3	3.02e+01	91	32	101	524288	54	6240
2026-01-06 02:59:23.47	211.68	28.81	-37.6	-38.8	29.2	3.02e+01	91	32	101	524288	54	6395
2026-01-06 02:59:24.48	211.94	28.97	-37.5	-38.8	29.2	3.02e+01	86	31	101	524288	54	6352
2026-01-06 02:59:25.49	212.21	29.13	-37.6	-38.8	29.1	3.02e+01	89	32	101	524288	54	6398
2026-01-06 02:59:26.50	212.48	29.29	-37.2	-38.4	29.5	3.02e+01	91	31	101	524288	54	6067
2026-01-06 02:59:27.51	212.75	29.45	-37.3	-38.5	29.4	3.02e+01	90	32	101	524288	54	6136
2026-01-06 02:59:28.52	213.03	29.61	-37.4	-38.6	29.3	3.02e+01	92	32	101	524288	54	6239
2026-01-06 02:59:29.54	213.31	29.78	-37.4	-38.6	29.3	3.02e+01	91	32	101	524288	54	6256
2026-01-06 02:59:30.55	213.59	29.94	-37.4	-38.6	29.3	3.02e+01	91	32	101	524288	54	6255
2026-01-06 02:59:31.56	213.88	30.10	-37.3	-38.5	29.4	3.02e+01	92	31	101	524288	54	6150
2026-01-06 02:59:32.57	214.17	30.26	-37.3	-38.5	29.4	3.02e+01	92	31	101	524288	54	6189
2026-01-06 02:59:33.58	214.46	30.43	-37.2	-38.4	29.5	3.02e+01	92	31	101	524288	54	6100
2026-01-06 02:59:34.59	214.75	30.59	-37.4	-38.6	29.4	3.02e+01	92	31	101	524288	54	6229
2026-01-06 02:59:35.60	215.05	30.75	-37.5	-38.7	29.2	3.02e+01	92	31	101	524288	54	6311
2026-01-06 02:59:36.61	215.35	30.92	-37.5	-38.7	29.3	3.02e+01	92	31	101	524288	54	6304
2026-01-06 02:59:37.62	215.65	31.08	-37.6	-38.8	29.2	3.02e+01	92	32	101	524288	54	6354
2026-01-06 02:59:38.63	215.95	31.24	-37.4	-38.6	29.4	3.02e+01	92	31	101	524288	54	6218
2026-01-06 02:59:39.64	216.26	31.41	-37.3	-38.5	29.5	3.02e+01	91	32	101	524288	54	6153
2026-01-06 02:59:40.65	216.57	31.57	-37.3	-38.5	29.4	3.02e+01	92	32	101	524288	54	6154
2026-01-06 02:59:41.66	216.89	31.73	-37.4	-38.5	29.3	3.02e+01	92	31	101	524288	54	6201
2026-01-06 02:59:42.67	217.21	31.90	-37.3	-38.5	29.4	3.02e+01	92	31	101	524288	54	6188
2026-01-06 02:59:43.68	217.53	32.06	-37.5	-38.7	29.3	3.02e+01	85	31	101	524288	54	6302
2026-01-06 02:59:44.69	217.85	32.22	-37.5	-38.7	29.2	3.02e+01	91	32	101	524288	54	6296
2026-01-06 02:59:45.71	218.19	32.39	-37.4	-38.6	29.4	3.02e+01	92	31	101	524288	54	6233
2026-01-06 02:59:46.72	218.52	32.55	-37.3	-38.5	29.4	3.02e+01	92	32	101	524288	54	6160
2026-01-06 02:59:47.73	218.85	32.72	-37.3	-38.5	29.4	3.02e+01	92	32	101	524288	54	6180
2026-01-06 02:59:48.74	219.19	32.88	-37.4	-38.6	29.3	3.02e+01	92	31	101	524288	54	6225
2026-01-06 02:59:49.75	219.53	33.04	-37.5	-38.7	29.2	3.02e+01	92	32	101	524288	54	6295
2026-01-06 02:59:50.76	219.88	33.21	-37.6	-38.8	29.2	3.02e+01	92	32	101	524288	54	6422
2026-01-06 02:59:51.77	220.23	33.37	-37.3	-38.5	29.4	3.02e+01	92	32	101	524288	54	6159
2026-01-06 02:59:52.78	220.58	33.53	-37.4	-38.6	29.3	3.02e+01	92	32	101	524288	54	6222
2026-01-06 02:59:53.79	220.94	33.70	-37.4	-38.6	29.4	3.02e+01	91	32	101	524288	54	6220
2026-01-06 02:59:54.80	221.30	33.86	-37.4	-38.6	29.3	3.02e+01	92	32	101	524288	54	6271
2026-01-06 02:59:55.81	221.66	34.02	-37.5	-38.7	29.3	3.02e+01	92	32	101	524288	54	6299
2026-01-06 02:59:56.82	222.03	34.18	-37.4	-38.6	29.3	3.02e+01	92	31	101	524288	54	6263
2026-01-06 02:59:57.83	222.40	34.34	-37.3	-38.5	29.4	3.02e+01	92	32	101	524288	54	6156
2026-01-06 02:59:58.85	222.77	34.51	-37.4	-38.6	29.4	3.02e+01	92	32	101	524288	54	6215
2026-01-06 02:59:59.86	223.15	34.67	-37.5	-38.7	29.2	3.02e+01	92	32	101	524288	54	6348
2026-01-06 03:00:00.87	223.53	34.83	-37.4	-38.6	29.4	3.02e+01	89	31	101	524288	54	6235
2026-01-06 03:00:01.88	223.92	34.98	-37.5	-38.7	29.3	3.02e+01	92	31	101	524288	54	6303
2026-01-06 03:00:02.89	224.31	35.14	-37.6	-38.8	29.1	3.02e+01	88	31	101	524288	54	6420
2026-01-06 03:00:03.90	224.70	35.30	-37.4	-38.6	29.3	3.02e+01	90	31	101	524288	54	6267
2026-01-06 03:00:04.91	225.10	35.46	-37.5	-38.7	29.3	3.02e+01	90	31	101	524288	54	6294
2026-01-06 03:00:05.93	225.50	35.62	-37.4	-38.6	29.4	3.02e+01	92	32	101	524288	54	6258
2026-01-06 03:00:06.94	225.91	35.77	-37.5	-38.7	29.2	3.02e+01	90	32	101	524288	54	6343
2026-01-06 03:00:07.95	226.32	35.93	-37.5	-38.7	29.3	3.02e+01	92	32	101	524288	54	6335
2026-01-06 03:00:08.96	226.73	36.08	-37.5	-38.7	29.3	3.02e+01	92	32	101	524288	54	6350
2026-01-06 03:00:09.97	227.15	36.24	-37.4	-38.6	29.3	3.02e+01	92	32	101	524288	54	6241
2026-01-06 03:00:10.98	227.57	36.39	-37.4	-38.6	29.3	3.02e+01	92	32	101	524288	54	6260
2026-01-06 03:00:11.99	227.99	36.54	-37.5	-38.7	29.3	3.02e+01	91	31	101	524288	54	6324
2026-01-06 03:00:13.00	228.42	36.69	-37.5	-38.7	29.3	3.02e+01	91	31	101	524288	54	6288
2026-01-06 03:00:14.01	228.86	36.84	-37.5	-38.7	29.3	3.02e+01	91	31	101	524288	54	6290
2026-01-06 03:00:15.02	229.29	36.99	-37.3	-38.5	29.4	3.02e+01	91	31	101	524288	54	6191
2026-01-06 03:00:16.03	229.73	37.14	-37.5	-38.7	29.4	3.02e+01	89	32	101	524288	54	6281
2026-01-06 03:00:17.04	230.18	37.29	-37.5	-38.7	29.3	3.02e+01	92	32	101	524288	54	6309
2026-01-06 03:00:18.06	230.63	37.43	-37.4	-38.6	29.3	3.02e+01	92	31	101	524288	54	6260
2026-01-06 03:00:19.07	231.08	37.58	-37.5	-38.7	29.4	3.02e+01	92	31	101	524288	54	6291
2026-01-06 03:00:20.08	231.54	37.72	-37.3	-38.5	29.4	3.02e+01	92	32	101	524288	54	6182
2026-01-06 03:00:21.09	232.00	37.86	-37.4	-38.6	29.4	3.02e+01	90	32	101	524288	54	6206
2026-01-06 03:00:22.10	232.47	38.00	-37.3	-38.5	29.4	3.02e+01	89	31	101	524288	54	6167
2026-01-06 03:00:23.11	232.94	38.14	-37.4	-38.6	29.4	3.02e+01	92	31	101	524288	54	6255
2026-01-06 03:00:24.12	233.41	38.28	-37.4	-38.6	29.4	3.02e+01	92	32	101	524288	54	6227
2026-01-06 03:00:25.13	233.89	38.41	-37.5	-38.7	29.3	3.02e+01	92	32	101	524288	54	6305
2026-01-06 03:00:26.14	234.37	38.55	-37.4	-38.6	29.4	3.02e+01	92	31	101	524288	54	6264
2026-01-06 03:00:27.16	234.86	38.68	-37.5	-38.7	29.2	3.02e+01	90	31	101	524288	54	6339
2026-01-06 03:00:28.17	235.35	38.81	-37.5	-38.7	29.2	3.02e+01	92	31	101	524288	54	6305
2026-01-06 03:00:29.18	235.84	38.94	-37.4	-38.6	29.4	3.02e+01	92	31	101	524288	54	6240
2026-01-06 03:00:30.19	236.34	39.07	-37.5	-38.7	29.3	3.02e+01	92	31	101	524288	54	6293
2026-01-06 03:00:31.20	236.84	39.19	-37.5	-38.7	29.2	3.02e+01	90	32	101	524288	54	6348
2026-01-06 03:00:32.21	237.34	39.32	-37.5	-38.7	29.3	3.02e+01	92	31	101	524288	54	6307
2026-01-06 03:00:33.22	237.85	39.44	-37.7	-38.9	29.1	3.02e+01	92	32	101	524288	54	6463
2026-01-06 03:00:34.23	238.36	39.56	-37.6	-38.8	29.2	3.02e+01	92	31	101	524288	54	6407
2026-01-06 03:00:35.24	238.88	39.67	-37.7	-38.9	29.2	3.02e+01	90	32	101	524288	54	6461
2026-01-06 03:00:36.25	239.40	39.79	-37.7	-38.9	29.1	3.02e+01	92	32	101	524288	54	6466
2026-01-06 03:00:37.26	239.92	39.90	-37.6	-38.8	29.2	3.02e+01	90	31	101	524288	54	6415
2026-01-06 03:00:38.27	240.45	40.01	-37.7	-38.9	29.1	3.02e+01	92	32	101	524288	54	6472
2026-01-06 03:00:39.28	240.98	40.12	-37.5	-38.7	29.4	3.02e+01	92	31	101	524288	54	6283
2026-01-06 03:00:40.29	241.51	40.23	-37.8	-39.0	29.1	3.02e+01	92	31	101	524288	54	6512
2026-01-06 03:00:41.30	242.05	40.33	-37.6	-38.8	29.2	3.02e+01	92	31	101	524288	54	6394
2026-01-06 03:00:42.32	242.60	40.43	-37.7	-38.9	29.2	3.02e+01	92	31	101	524288	54	6465
2026-01-06 03:00:43.33	243.14	40.53	-37.8	-39.0	29.1	3.02e+01	91	31	101	524288	54	6554
2026-01-06 03:00:44.34	243.69	40.63	-37.6	-38.8	29.2	3.02e+01	92	32	101	524288	54	6374
2026-01-06 03:00:45.35	244.24	40.72	-37.6	-38.8	29.2	3.02e+01	92	32	101	524288	54	6395
2026-01-06 03:00:46.36	244.79	40.81	-37.6	-38.8	29.2	3.02e+01	92	32	101	524288	54	6411
2026-01-06 03:00:47.37	245.35	40.90	-37.7	-39.0	29.1	3.02e+01	90	32	101	524288	54	6502
2026-01-06 03:00:48.38	245.91	40.98	-37.8	-39.1	28.9	3.02e+01	92	32	101	524288	54	6585
2026-01-06 03:00:49.39	246.47	41.07	-38.0	-39.2	28.8	3.02e+01	92	31	101	524288	54	6706
2026-01-06 03:00:50.41	247.05	41.15	-37.7	-38.9	29.2	3.02e+01	91	32	101	524288	54	6462
2026-01-06 03:00:51.42	247.61	41.22	-37.8	-39.1	29.0	3.02e+01	92	32	101	524288	54	6583
2026-01-06 03:00:52.43	248.19	41.30	-37.9	-39.1	29.0	3.02e+01	92	31	101	524288	54	6601
2026-01-06 03:00:53.44	248.76	41.37	-38.0	-39.2	28.9	3.02e+01	92	31	101	524288	54	6714
2026-01-06 03:00:54.45	249.34	41.43	-38.1	-39.3	28.9	3.02e+01	92	32	101	524288	54	6761
2026-01-06 03:00:55.46	249.91	41.50	-37.8	-39.0	29.0	3.02e+01	92	32	101	524288	54	6572
2026-01-06 03:00:56.47	250.50	41.56	-37.8	-39.0	29.0	3.02e+01	92	31	101	524288	54	6571
2026-01-06 03:00:57.48	251.08	41.62	-38.0	-39.2	28.9	3.02e+01	92	31	101	524288	54	6714
2026-01-06 03:00:58.49	251.66	41.68	-38.1	-39.3	29.0	3.02e+01	92	31	101	524288	54	6746
2026-01-06 03:00:59.51	252.26	41.73	-37.8	-39.0	29.1	3.02e+01	91	31	101	524288	54	6535
2026-01-06 03:01:00.52	252.85	41.78	-38.0	-39.3	28.8	3.02e+01	92	31	101	524288	54	6738
2026-01-06 03:01:01.53	253.44	41.82	-37.6	-38.8	29.3	3.02e+01	92	32	101	524288	54	6378
2026-01-06 03:01:02.54	254.03	41.87	-37.9	-39.2	29.0	3.02e+01	91	32	101	524288	54	6659
2026-01-06 03:01:03.55	254.62	41.91	-37.8	-39.0	29.1	3.02e+01	92	32	101	524288	54	6545
2026-01-06 03:01:04.56	255.22	41.94	-37.8	-39.0	29.1	3.02e+01	90	32	101	524288	54	6555
2026-01-06 03:01:05.57	255.81	41.97	-37.9	-39.1	29.0	3.02e+01	92	32	101	524288	54	6633
2026-01-06 03:01:06.58	256.41	42.00	-37.7	-39.0	29.1	3.02e+01	91	31	101	524288	54	6506
2026-01-06 03:01:07.59	257.01	42.03	-37.9	-39.2	28.9	3.02e+01	92	31	101	524288	54	6650
2026-01-06 03:01:08.61	257.62	42.05	-37.9	-39.1	29.1	3.02e+01	90	32	101	524288	54	6596
2026-01-06 03:01:09.62	258.22	42.07	-37.8	-39.0	29.1	3.02e+01	92	31	101	524288	54	6554
2026-01-06 03:01:10.63	258.82	42.09	-37.9	-39.1	29.0	3.02e+01	92	31	101	524288	54	6631
2026-01-06 03:01:11.64	259.42	42.10	-37.8	-39.0	29.1	3.02e+01	92	32	101	524288	54	6545
2026-01-06 03:01:12.65	260.02	42.11	-37.8	-39.0	29.1	3.02e+01	90	32	101	524288	54	6543
2026-01-06 03:01:13.66	260.62	42.12	-37.9	-39.2	28.9	3.02e+01	92	32	101	524288	54	6654
2026-01-06 03:01:14.67	261.23	42.12	-38.1	-39.3	29.0	3.02e+01	92	32	101	524288	54	6746
2026-01-06 03:01:15.68	261.83	42.12	-37.7	-38.9	29.2	3.02e+01	92	32	101	524288	54	6451
2026-01-06 03:01:16.69	262.43	42.11	-37.9	-39.1	29.0	3.02e+01	87	31	101	524288	54	6595
2026-01-06 03:01:17.70	263.03	42.10	-37.6	-38.8	29.1	3.02e+01	92	32	101	524288	54	6399
2026-01-06 03:01:18.72	263.64	42.09	-37.6	-38.9	29.2	3.02e+01	91	32	101	524288	54	6426
2026-01-06 03:01:19.73	264.24	42.08	-37.7	-38.9	29.2	3.02e+01	89	32	101	524288	54	6424
2026-01-06 03:01:20.74	264.84	42.06	-37.7	-38.9	29.2	3.02e+01	91	32	101	524288	54	6455
2026-01-06 03:01:21.75	265.44	42.04	-37.6	-38.8	29.2	3.02e+01	91	31	101	524288	54	6375
2026-01-06 03:01:22.76	266.04	42.01	-37.5	-38.7	29.4	3.02e+01	92	31	101	524288	54	6322
2026-01-06 03:01:23.77	266.64	41.98	-37.6	-38.8	29.3	3.02e+01	92	32	101	524288	54	6372
2026-01-06 03:01:24.78	267.23	41.95	-37.7	-38.9	29.2	3.02e+01	91	32	101	524288	54	6493
2026-01-06 03:01:25.79	267.83	41.92	-37.2	-38.4	29.5	3.02e+01	90	32	101	524288	54	6116
2026-01-06 03:01:26.80	268.42	41.88	-37.4	-38.7	29.4	3.02e+01	92	32	101	524288	54	6278
2026-01-06 03:01:27.81	269.01	41.84	-37.5	-38.7	29.4	3.02e+01	92	32	101	524288	54	6292
2026-01-06 03:01:28.82	269.60	41.79	-37.5	-38.7	29.4	3.02e+01	92	31	101	524288	54	6293
2026-01-06 03:01:29.83	270.19	41.74	-37.2	-38.4	29.6	3.02e+01	92	32	101	524288	54	6089
2026-01-06 03:01:30.85	270.79	41.69	-37.4	-38.6	29.4	3.02e+01	91	32	101	524288	54	6272
2026-01-06 03:01:31.86	271.37	41.64	-37.3	-38.5	29.5	3.02e+01	91	32	101	524288	54	6164
2026-01-06 03:01:32.87	271.95	41.58	-37.2	-38.4	29.7	3.02e+01	90	32	101	524288	54	6071
2026-01-06 03:01:33.88	272.54	41.52	-37.4	-38.6	29.5	3.02e+01	92	31	101	524288	54	6211
2026-01-06 03:01:34.89	273.11	41.45	-37.2	-38.4	29.6	3.02e+01	89	31	101	524288	54	6079
2026-01-06 03:01:35.90	273.69	41.39	-37.3	-38.5	29.5	3.02e+01	88	32	101	524288	54	6158
2026-01-06 03:01:36.91	274.26	41.32	-37.1	-38.3	29.8	3.02e+01	90	32	101	524288	54	6015
2026-01-06 03:01:37.92	274.83	41.24	-37.2	-38.4	29.7	3.02e+01	90	32	101	524288	54	6100
2026-01-06 03:01:38.94	275.41	41.17	-37.2	-38.4	29.7	3.02e+01	92	32	101	524288	54	6074
2026-01-06 03:01:39.95	275.97	41.09	-37.2	-38.4	29.6	3.02e+01	92	32	101	524288	54	6107
2026-01-06 03:01:40.96	276.54	41.01	-37.2	-38.4	29.6	3.02e+01	92	32	101	524288	54	6091
2026-01-06 03:01:41.97	277.10	40.92	-37.1	-38.3	29.8	3.02e+01	92	32	101	524288	54	6001
2026-01-06 03:01:42.98	277.65	40.83	-37.3	-38.5	29.4	3.02e+01	90	32	101	524288	54	6171
2026-01-06 03:01:43.99	278.21	40.74	-37.2	-38.4	29.7	3.02e+01	92	32	101	524288	54	6097
2026-01-06 03:01:45.00	278.76	40.65	-37.1	-38.3	29.6	3.02e+01	92	32	101	524288	54	6049
2026-01-06 03:01:46.01	279.31	40.56	-36.9	-38.1	29.9	3.02e+01	91	32	101	524288	54	5882
2026-01-06 03:01:47.02	279.85	40.46	-37.1	-38.2	29.8	3.02e+01	90	32	101	524288	54	5980
2026-01-06 03:01:48.03	280.39	40.36	-37.0	-38.2	29.8	3.02e+01	91	32	101	524288	54	5942
2026-01-06 03:01:49.05	280.93	40.26	-37.0	-38.2	29.8	3.02e+01	91	32	101	524288	54	5941
2026-01-06 03:01:50.06	281.47	40.15	-36.9	-38.1	29.8	3.02e+01	90	32	101	524288	54	5888
2026-01-06 03:01:51.07	282.00	40.04	-37.2	-38.3	29.7	3.02e+01	91	32	101	524288	54	6060
2026-01-06 03:01:52.08	282.53	39.93	-37.0	-38.1	29.8	3.02e+01	92	32	101	524288	54	5922
2026-01-06 03:01:53.09	283.05	39.82	-37.1	-38.3	29.7	3.02e+01	92	32	101	524288	54	6019
2026-01-06 03:01:54.10	283.57	39.71	-37.1	-38.3	29.7	3.02e+01	92	32	101	524288	54	6022
2026-01-06 03:01:55.11	284.08	39.59	-37.1	-38.2	29.8	3.02e+01	88	32	101	524288	54	5989
2026-01-06 03:01:56.12	284.60	39.47	-37.1	-38.2	29.7	3.02e+01	92	32	101	524288	54	5994
2026-01-06 03:01:57.13	285.10	39.35	-37.3	-38.5	29.6	3.02e+01	92	31	101	524288	54	6162
2026-01-06 03:01:58.15	285.61	39.23	-37.0	-38.2	29.8	3.02e+01	92	32	101	524288	54	5947
2026-01-06 03:01:59.16	286.11	39.11	-37.0	-38.1	29.8	3.02e+01	92	31	101	524288	54	5916
2026-01-06 03:02:00.17	286.61	38.98	-37.1	-38.2	29.8	3.02e+01	92	31	101	524288	54	5992
2026-01-06 03:02:01.18	287.10	38.85	-37.2	-38.4	29.6	3.02e+01	92	32	101	524288	54	6088
2026-01-06 03:02:02.19	287.59	38.72	-36.9	-38.1	29.9	3.02e+01	92	32	101	524288	54	5894
2026-01-06 03:02:03.20	288.08	38.59	-36.9	-38.1	29.8	3.02e+01	92	32	101	524288	54	5861
2026-01-06 03:02:04.21	288.56	38.46	-36.9	-38.1	29.9	3.02e+01	92	32	101	524288	54	5860
2026-01-06 03:02:05.22	289.04	38.32	-37.2	-38.3	29.6	3.02e+01	92	32	101	524288	54	6064
2026-01-06 03:02:06.23	289.51	38.19	-37.1	-38.2	29.8	3.02e+01	92	32	101	524288	54	5989
2026-01-06 03:02:07.24	289.98	38.05	-37.0	-38.2	29.8	3.02e+01	92	32	101	524288	54	5985
2026-01-06 03:02:08.25	290.44	37.91	-37.0	-38.2	29.8	3.02e+01	92	31	101	524288	54	5966
2026-01-06 03:02:09.26	290.90	37.77	-37.2	-38.4	29.7	3.02e+01	92	32	101	524288	54	6083
2026-01-06 03:02:10.27	291.36	37.63	-37.0	-38.2	29.8	3.02e+01	92	32	101	524288	54	5962
2026-01-06 03:02:11.29	291.82	37.48	-37.1	-38.3	29.7	3.02e+01	92	32	101	524288	54	6030
2026-01-06 03:02:12.30	292.27	37.34	-37.1	-38.3	29.8	3.02e+01	92	32	101	524288	54	6003
2026-01-06 03:02:13.31	292.71	37.19	-37.1	-38.3	29.8	3.02e+01	92	32	101	524288	54	6022
2026-01-06 03:02:14.32	293.15	37.05	-37.3	-38.5	29.5	3.02e+01	92	32	101	524288	54	6175
2026-01-06 03:02:15.33	293.59	36.90	-37.1	-38.3	29.7	3.02e+01	90	32	101	524288	54	6021
2026-01-06 03:02:16.34	294.02	36.75	-37.4	-38.6	29.4	3.02e+01	92	32	101	524288	54	6246
2026-01-06 03:02:17.35	294.45	36.60	-37.6	-38.8	29.3	3.02e+01	92	32	101	524288	54	6367
2026-01-06 03:02:18.36	294.87	36.45	-37.5	-38.7	29.4	3.02e+01	90	32	101	524288	54	6293
2026-01-06 03:02:19.37	295.29	36.30	-37.1	-38.3	29.7	3.02e+01	91	32	101	524288	54	6043
2026-01-06 03:02:20.38	295.71	36.14	-37.2	-38.3	29.6	3.02e+01	90	32	101	524288	54	6038
2026-01-06 03:02:21.40	296.13	35.99	-37.0	-38.2	29.8	3.02e+01	90	32	101	524288	54	5967
2026-01-06 03:02:22.41	296.54	35.84	-37.4	-38.6	29.4	3.02e+01	92	32	101	524288	54	6266
2026-01-06 03:02:23.42	296.94	35.68	-37.3	-38.4	29.5	3.02e+01	90	32	101	524288	54	6127
2026-01-06 03:02:24.43	297.34	35.52	-37.7	-38.9	29.3	3.02e+01	92	32	101	524288	54	6436
2026-01-06 03:02:25.44	297.74	35.37	-37.7	-38.9	29.3	3.02e+01	90	32	101	524288	54	6475
2026-01-06 03:02:26.45	298.13	35.21	-37.5	-38.7	29.5	3.02e+01	92	32	101	524288	54	6290
2026-01-06 03:02:27.46	298.52	35.05	-37.8	-39.0	29.1	3.02e+01	92	32	101	524288	54	6540
2026-01-06 03:02:28.47	298.91	34.89	-37.6	-38.8	29.3	3.02e+01	92	32	101	524288	54	6388
2026-01-06 03:02:29.48	299.29	34.74	-37.3	-38.5	29.6	3.02e+01	92	32	101	524288	54	6171
2026-01-06 03:02:30.49	299.67	34.58	-37.6	-38.8	29.3	3.02e+01	91	31	101	524288	54	6373
2026-01-06 03:02:31.50	300.04	34.42	-37.5	-38.7	29.5	3.02e+01	91	31	101	524288	54	6286
2026-01-06 03:02:32.51	300.41	34.26	-37.4	-38.6	29.4	3.02e+01	92	32	101	524288	54	6227
2026-01-06 03:02:33.52	300.78	34.10	-37.4	-38.6	29.4	3.02e+01	92	32	101	524288	54	6227
2026-01-06 03:02:34.53	301.14	33.93	-37.2	-38.4	29.6	3.02e+01	92	32	101	524288	54	6114
2026-01-06 03:02:35.55	301.51	33.77	-37.3	-38.6	29.5	3.02e+01	89	32	101	524288	54	6208
2026-01-06 03:02:36.56	301.86	33.61	-37.5	-38.7	29.4	3.02e+01	92	32	101	524288	54	6310
2026-01-06 03:02:37.57	302.21	33.45	-37.4	-38.6	29.5	3.02e+01	92	32	101	524288	54	6253
2026-01-06 03:02:38.58	302.56	33.29	-37.3	-38.5	29.5	3.02e+01	92	32	101	524288	54	6175
2026-01-06 03:02:39.59	302.91	33.12	-37.5	-38.6	29.5	3.02e+01	92	32	101	524288	54	6263
2026-01-06 03:02:40.60	303.25	32.96	-37.5	-38.7	29.4	3.02e+01	90	32	101	524288	54	6342
2026-01-06 03:02:41.61	303.59	32.80	-37.3	-38.5	29.6	3.02e+01	92	31	101	524288	54	6165
2026-01-06 03:02:42.62	303.92	32.64	-37.4	-38.6	29.5	3.02e+01	92	32	101	524288	54	6267
2026-01-06 03:02:43.63	304.26	32.47	-37.5	-38.7	29.4	3.02e+01	92	32	101	524288	54	6320
2026-01-06 03:02:44.64	304.58	32.31	-37.6	-38.8	29.4	3.02e+01	92	32	101	524288	54	6401
2026-01-06 03:02:45.65	304.91	32.15	-37.5	-38.7	29.4	3.02e+01	91	32	101	524288	54	6333
2026-01-06 03:02:46.66	305.23	31.98	-37.2	-38.4	29.6	3.02e+01	92	32	101	524288	54	6112
2026-01-06 03:02:47.67	305.55	31.82	-37.5	-38.7	29.5	3.02e+01	61	32	101	524288	54	6316
2026-01-06 03:02:48.69	305.87	31.66	-37.5	-38.7	29.4	3.02e+01	61	32	101	524288	54	6286
2026-01-06 03:02:49.70	306.18	31.49	-37.4	-38.6	29.4	3.02e+01	58	32	101	524288	54	6266
2026-01-06 03:02:50.71	306.49	31.33	-37.2	-38.4	29.6	3.02e+01	61	32	101	524288	54	6098
2026-01-06 03:02:51.72	306.79	31.17	-37.6	-38.8	29.3	3.02e+01	47	32	101	524288	54	6411
2026-01-06 03:02:52.73	307.10	31.01	-37.6	-38.8	29.4	3.02e+01	58	32	101	524288	54	6361
2026-01-06 03:02:53.74	307.39	30.84	-37.4	-38.6	29.4	3.02e+01	60	32	101	524288	54	6267
2026-01-06 03:02:54.75	307.69	30.68	-37.3	-38.5	29.5	3.02e+01	45	32	101	524288	54	6149
2026-01-06 03:02:55.76	307.98	30.52	-37.2	-38.4	29.7	3.02e+01	58	32	101	524288	54	6120
2026-01-06 03:02:56.78	308.28	30.36	-37.2	-38.4	29.6	3.02e+01	61	32	101	524288	54	6124
2026-01-06 03:02:57.79	308.57	30.20	-37.5	-38.7	29.3	3.02e+01	60	32	101	524288	54	6333
2026-01-06 03:02:58.80	308.85	30.03	-37.2	-38.4	29.6	3.02e+01	59	32	101	524288	54	6095
2026-01-06 03:02:59.81	309.13	29.87	-37.2	-38.3	29.6	3.02e+01	55	32	101	524288	54	6052
2026-01-06 03:03:00.82	309.41	29.71	-37.2	-38.4	29.7	3.02e+01	58	32	101	524288	54	6084
2026-01-06 03:03:01.83	309.69	29.55	-37.1	-38.3	29.7	3.02e+01	61	32	101	524288	54	6051
2026-01-06 03:03:02.84	309.96	29.39	-37.0	-38.2	29.8	3.02e+01	57	32	101	524288	54	5946
2026-01-06 03:03:03.85	310.23	29.23	-37.0	-38.2	29.7	3.02e+01	58	32	101	524288	54	5968
2026-01-06 03:03:04.86	310.50	29.07	-36.9	-38.0	29.9	3.02e+01	47	32	101	524288	54	5852
2026-01-06 03:03:05.87	310.76	28.91	-37.0	-38.2	29.8	3.02e+01	61	32	101	524288	54	5958
2026-01-06 03:03:06.88	311.03	28.75	-37.1	-38.3	29.7	3.02e+01	59	32	101	524288	54	6018
2026-01-06 03:03:07.89	311.29	28.60	-37.0	-38.2	29.8	3.02e+01	45	32	101	524288	54	5928
2026-01-06 03:03:08.90	311.54	28.44	-37.1	-38.3	29.7	3.02e+01	60	31	101	524288	54	6036
2026-01-06 03:03:09.92	311.80	28.28	-36.8	-38.0	29.9	3.02e+01	58	32	101	524288	54	5826
2026-01-06 03:03:10.93	312.05	28.12	-36.7	-37.9	30.0	3.02e+01	59	32	101	524288	54	5771
2026-01-06 03:03:11.94	312.30	27.96	-36.9	-38.1	29.8	3.02e+01	54	32	101	524288	54	5866
2026-01-06 03:03:12.95	312.55	27.81	-36.9	-38.1	29.9	3.02e+01	57	32	101	524288	54	5872
2026-01-06 03:03:13.96	312.79	27.65	-36.6	-37.8	30.0	3.02e+01	59	32	101	524288	54	5698
2026-01-06 03:03:14.97	313.04	27.50	-36.6	-37.8	30.1	3.02e+01	65	32	101	524288	54	5691
2026-01-06 03:03:15.98	313.28	27.34	-36.4	-37.6	30.3	3.02e+01	52	32	101	524288	54	5575
2026-01-06 03:03:16.99	313.51	27.19	-36.6	-37.8	30.1	3.02e+01	62	32	101	524288	54	5680
2026-01-06 03:03:18.01	313.75	27.03	-36.5	-37.7	30.2	3.02e+01	65	31	101	524288	54	5617
2026-01-06 03:03:19.02	313.98	26.88	-36.4	-37.6	30.2	3.02e+01	59	32	101	524288	54	5559
2026-01-06 03:03:20.03	314.21	26.72	-36.3	-37.5	30.4	3.02e+01	58	32	101	524288	52	6173
2026-01-06 03:03:21.04	314.44	26.57	-36.4	-37.6	30.3	3.02e+01	45	31	101	524288	52	6226
2026-01-06 03:03:22.05	314.67	26.42	-36.3	-37.5	30.3	3.02e+01	60	31	101	524288	52	6180
2026-01-06 03:03:23.06	314.89	26.27	-35.8	-37.0	30.8	3.02e+01	57	32	101	524288	52	5804
2026-01-06 03:03:24.07	315.11	26.11	-35.9	-37.1	30.7	3.02e+01	46	31	101	524288	52	5903
2026-01-06 03:03:25.08	315.33	25.96	-36.0	-37.1	30.6	3.02e+01	60	32	101	524288	52	5921
2026-01-06 03:03:26.09	315.55	25.81	-36.0	-37.2	30.6	3.02e+01	56	32	101	524288	52	5969
2026-01-06 03:03:27.10	315.77	25.66	-36.0	-37.2	30.6	3.02e+01	60	31	101	524288	52	5959
2026-01-06 03:03:28.11	315.98	25.51	-36.0	-37.2	30.6	3.02e+01	61	32	101	524288	52	5959
2026-01-06 03:03:29.13	316.19	25.36	-35.9	-37.0	30.8	3.02e+01	52	32	101	524288	52	5836
2026-01-06 03:03:30.14	316.40	25.21	-35.7	-36.8	30.9	3.02e+01	58	32	101	524288	52	5703
2026-01-06 03:03:31.15	316.61	25.07	-35.6	-36.8	30.9	3.02e+01	60	32	101	524288	52	5680
2026-01-06 03:03:32.16	316.81	24.92	-35.6	-36.8	31.0	3.02e+01	61	32	101	524288	52	5692
2026-01-06 03:03:33.17	317.02	24.77	-35.7	-36.9	30.8	3.02e+01	61	32	101	524288	52	5751
2026-01-06 03:03:34.18	317.22	24.63	-35.8	-36.9	30.9	3.02e+01	51	32	101	524288	52	5789
2026-01-06 03:03:35.19	317.42	24.48	-35.6	-36.7	31.0	3.02e+01	60	32	101	524288	52	5659
2026-01-06 03:03:36.20	317.62	24.33	-35.7	-36.9	30.9	3.02e+01	60	32	101	524288	52	5747
2026-01-06 03:03:37.21	317.81	24.19	-35.7	-36.9	31.0	3.02e+01	46	31	101	524288	52	5731
2026-01-06 03:03:38.22	318.01	24.05	-35.8	-36.9	30.8	3.02e+01	60	32	101	524288	52	5790
2026-01-06 03:03:39.24	318.20	23.90	-35.6	-36.7	30.9	3.02e+01	58	32	101	524288	52	5637
2026-01-06 03:03:40.25	318.39	23.76	-35.7	-36.8	30.9	3.02e+01	60	32	101	524288	52	5711
2026-01-06 03:03:41.26	318.58	23.61	-35.7	-36.8	30.9	3.02e+01	57	32	101	524288	52	5707
2026-01-06 03:03:42.27	318.77	23.47	-35.8	-36.9	30.8	3.02e+01	58	32	101	524288	52	5781
2026-01-06 03:03:43.28	318.95	23.33	-35.7	-36.8	30.8	3.02e+01	60	32	101	524288	52	5695
2026-01-06 03:03:44.29	319.14	23.19	-35.5	-36.6	31.0	3.02e+01	60	32	101	524288	52	5576
2026-01-06 03:03:45.30	319.32	23.05	-35.5	-36.6	31.1	3.02e+01	51	32	101	524288	52	5563
2026-01-06 03:03:46.31	319.50	22.91	-35.6	-36.7	30.9	3.02e+01	62	32	101	524288	52	5645
2026-01-06 03:03:47.33	319.68	22.77	-35.7	-36.8	30.8	3.02e+01	63	32	101	524288	52	5718
2026-01-06 03:03:48.34	319.85	22.63	-35.6	-36.7	31.0	3.02e+01	60	32	101	524288	52	5631
2026-01-06 03:03:49.35	320.03	22.49	-35.6	-36.7	31.0	3.02e+01	62	32	101	524288	52	5635
2026-01-06 03:03:50.36	320.20	22.36	-35.6	-36.7	31.0	3.02e+01	45	32	101	524288	52	5650
2026-01-06 03:03:51.37	320.38	22.22	-35.7	-36.9	30.8	3.02e+01	57	32	101	524288	52	5761
2026-01-06 03:03:52.38	320.55	22.08	-35.9	-37.0	30.8	3.02e+01	62	32	101	524288	52	5847
2026-01-06 03:03:53.39	320.71	21.95	-36.0	-37.2	30.6	3.02e+01	50	32	101	524288	52	5986
2026-01-06 03:03:54.40	320.88	21.81	-35.9	-37.1	30.5	3.02e+01	57	32	101	524288	52	5891
2026-01-06 03:03:55.41	321.05	21.68	-35.9	-37.0	30.5	3.02e+01	58	32	101	524288	52	5850
2026-01-06 03:03:56.42	321.21	21.54	-35.7	-36.8	30.8	3.02e+01	58	32	101	524288	52	5689
2026-01-06 03:03:57.43	321.38	21.41	-35.8	-36.9	30.8	3.02e+01	55	32	101	524288	52	5774
2026-01-06 03:03:58.45	321.54	21.27	-35.8	-36.9	30.8	3.02e+01	52	32	101	524288	52	5776
2026-01-06 03:03:59.46	321.70	21.14	-35.9	-37.1	30.6	3.02e+01	62	32	101	524288	52	5872
2026-01-06 03:04:00.47	321.86	21.01	-35.9	-37.1	30.7	3.02e+01	58	32	101	524288	52	5868
2026-01-06 03:04:01.48	322.02	20.88	-36.1	-37.2	30.5	3.02e+01	59	32	101	524288	52	5980
2026-01-06 03:04:02.49	322.17	20.75	-36.1	-37.2	30.5	3.02e+01	61	32	101	524288	52	5976
2026-01-06 03:04:03.50	322.33	20.62	-36.0	-37.1	30.6	3.02e+01	46	32	101	524288	52	5910
2026-01-06 03:04:04.51	322.48	20.49	-36.0	-37.2	30.6	3.02e+01	59	32	101	524288	52	5943
2026-01-06 03:04:05.52	322.63	20.36	-36.1	-37.2	30.5	3.02e+01	58	32	101	524288	52	5981
2026-01-06 03:04:06.53	322.78	20.23	-36.1	-37.2	30.5	3.02e+01	49	32	101	524288	52	5979
2026-01-06 03:04:07.54	322.93	20.10	-36.2	-37.4	30.3	3.02e+01	58	32	101	524288	52	6095
2026-01-06 03:04:08.55	323.08	19.97	-36.1	-37.2	30.6	3.02e+01	59	32	101	524288	52	5968
2026-01-06 03:04:09.57	323.23	19.85	-36.3	-37.4	30.4	3.02e+01	51	32	101	524288	52	6115
2026-01-06 03:04:10.58	323.38	19.72	-36.3	-37.5	30.3	3.02e+01	60	32	101	524288	52	6154
2026-01-06 03:04:11.59	323.52	19.59	-36.4	-37.6	30.3	3.02e+01	53	32	101	524288	52	6206
2026-01-06 03:04:12.60	323.66	19.47	-36.4	-37.6	30.1	3.02e+01	61	32	101	524288	52	6252
2026-01-06 03:04:13.61	323.81	19.34	-36.5	-37.7	30.1	3.02e+01	57	32	101	524288	52	6304
2026-01-06 03:04:14.62	323.95	19.22	-36.5	-37.7	30.2	3.02e+01	51	32	101	524288	52	6281
2026-01-06 03:04:15.63	324.09	19.10	-36.4	-37.5	30.2	3.02e+01	56	32	101	524288	52	6204
2026-01-06 03:04:16.65	324.23	18.97	-36.4	-37.6	30.1	3.02e+01	61	32	101	524288	52	6246
2026-01-06 03:04:17.65	324.36	18.85	-36.4	-37.6	30.2	3.02e+01	58	32	101	524288	52	6253
2026-01-06 03:04:18.66	324.50	18.73	-36.4	-37.5	30.2	3.02e+01	58	32	101	524288	52	6194
2026-01-06 03:04:19.68	324.64	18.60	-36.5	-37.6	30.2	3.02e+01	48	32	101	524288	52	6274
2026-01-06 03:04:20.69	324.77	18.48	-36.5	-37.7	30.1	3.02e+01	60	32	101	524288	52	6293
2026-01-06 03:04:21.70	324.90	18.36	-36.5	-37.7	30.2	3.02e+01	60	32	101	524288	52	6294
2026-01-06 03:04:22.71	325.04	18.24	-36.7	-37.9	30.0	3.02e+01	44	32	101	524288	52	6427
2026-01-06 03:04:23.72	325.17	18.12	-36.6	-37.8	30.0	3.02e+01	60	32	101	524288	52	6377
2026-01-06 03:04:24.73	325.30	18.00	-36.6	-37.8	30.0	3.02e+01	60	32	101	524288	52	6399
2026-01-06 03:04:25.74	325.43	17.88	-36.5	-37.7	30.1	3.02e+01	59	32	101	524288	52	6288
2026-01-06 03:04:26.75	325.55	17.77	-36.4	-37.6	30.1	3.02e+01	62	32	101	524288	52	6256
2026-01-06 03:04:27.77	325.68	17.65	-36.5	-37.7	30.2	3.02e+01	51	32	101	524288	52	6300
2026-01-06 03:04:28.78	325.81	17.53	-36.3	-37.5	30.3	3.02e+01	54	32	101	524288	52	6166
2026-01-06 03:04:29.79	325.93	17.41	-36.3	-37.5	30.2	3.02e+01	57	31	101	524288	52	6174
2026-01-06 03:04:30.80	326.06	17.30	-36.6	-37.7	30.0	3.02e+01	57	32	101	524288	52	6342
2026-01-06 03:04:31.81	326.18	17.18	-36.3	-37.5	30.2	3.02e+01	60	32	101	524288	52	6179
2026-01-06 03:04:32.82	326.30	17.07	-36.4	-37.6	30.1	3.02e+01	59	32	101	524288	52	6221
2026-01-06 03:04:33.83	326.42	16.95	-36.4	-37.5	30.2	3.02e+01	60	32	101	524288	52	6179
2026-01-06 03:04:34.84	326.54	16.84	-36.3	-37.5	30.3	3.02e+01	57	32	101	524288	52	6173
2026-01-06 03:04:35.85	326.66	16.72	-36.5	-37.6	30.2	3.02e+01	49	32	101	524288	52	6256
2026-01-06 03:04:36.87	326.78	16.61	-36.5	-37.7	30.1	3.02e+01	57	32	101	524288	52	6299
2026-01-06 03:04:37.88	326.90	16.50	-36.6	-37.8	30.1	3.02e+01	57	32	101	524288	52	6363
2026-01-06 03:04:38.89	327.02	16.38	-36.6	-37.7	30.1	3.02e+01	55	32	101	524288	52	6339
2026-01-06 03:04:39.90	327.13	16.27	-36.5	-37.7	30.1	3.02e+01	60	32	101	524288	52	6327
2026-01-06 03:04:40.91	327.25	16.16	-36.7	-37.9	30.0	3.02e+01	45	32	101	524288	52	6443
2026-01-06 03:04:41.92	327.36	16.05	-36.6	-37.8	30.0	3.02e+01	59	32	101	524288	52	6399
2026-01-06 03:04:42.93	327.47	15.94	-36.6	-37.8	30.0	3.02e+01	62	32	101	524288	52	6396
2026-01-06 03:04:43.94	327.58	15.83	-36.5	-37.7	30.1	3.02e+01	46	32	101	524288	52	6286
2026-01-06 03:04:44.95	327.70	15.72	-36.3	-37.5	30.2	3.02e+01	51	32	101	524288	52	6167
2026-01-06 03:04:45.97	327.81	15.61	-36.4	-37.6	30.2	3.02e+01	58	32	101	524288	52	6229
2026-01-06 03:04:46.98	327.92	15.50	-36.4	-37.6	30.2	3.02e+01	59	32	101	524288	52	6234
2026-01-06 03:04:47.99	328.03	15.39	-36.4	-37.6	30.2	3.02e+01	60	32	101	524288	52	6224
2026-01-06 03:04:49.00	328.13	15.28	-36.5	-37.6	30.2	3.02e+01	58	32	101	524288	52	6265
2026-01-06 03:04:50.01	328.24	15.18	-36.5	-37.6	30.1	3.02e+01	61	32	101	524288	52	6262
2026-01-06 03:04:51.02	328.35	15.07	-36.5	-37.7	30.1	3.02e+01	61	32	101	524288	52	6286
2026-01-06 03:04:52.03	328.45	14.96	-36.5	-37.7	30.0	3.02e+01	46	32	101	524288	52	6289
2026-01-06 03:04:53.04	328.56	14.86	-36.5	-37.7	30.0	3.02e+01	58	32	101	524288	52	6312
2026-01-06 03:04:54.05	328.66	14.75	-36.6	-37.8	30.0	3.02e+01	57	32	101	524288	52	6376
2026-01-06 03:04:55.06	328.77	14.65	-36.3	-37.5	30.1	3.02e+01	58	32	101	524288	52	6171
2026-01-06 03:04:56.08	328.87	14.54	-36.4	-37.5	30.2	3.02e+01	58	32	101	524288	52	6191
2026-01-06 03:04:57.09	328.97	14.44	-36.4	-37.5	30.2	3.02e+01	50	32	101	524288	52	6191
2026-01-06 03:04:58.10	329.07	14.33	-36.4	-37.6	30.2	3.02e+01	56	32	101	524288	52	6242
2026-01-06 03:04:59.11	329.17	14.23	-36.4	-37.6	30.2	3.02e+01	57	32	101	524288	52	6215
2026-01-06 03:05:00.12	329.27	14.13	-36.4	-37.5	30.2	3.02e+01	44	32	101	524288	52	6183
2026-01-06 03:05:01.13	329.37	14.02	-36.3	-37.5	30.2	3.02e+01	59	32	101	524288	52	6158
2026-01-06 03:05:02.14	329.47	13.92	-36.4	-37.6	30.1	3.02e+01	51	32	101	524288	52	6218
2026-01-06 03:05:03.15	329.57	13.82	-36.5	-37.7	30.1	3.02e+01	56	32	101	524288	52	6280
2026-01-06 03:05:04.16	329.67	13.72	-36.6	-37.8	29.9	3.02e+01	54	32	101	524288	52	6369
2026-01-06 03:05:05.17	329.76	13.62	-36.4	-37.6	30.1	3.02e+01	45	32	101	524288	52	6208
2026-01-06 03:05:06.19	329.86	13.51	-36.3	-37.4	30.1	3.02e+01	58	32	101	524288	52	6114
2026-01-06 03:05:07.20	329.95	13.41	-36.3	-37.5	30.2	3.02e+01	59	32	101	524288	52	6135
2026-01-06 03:05:08.21	330.05	13.31	-36.2	-37.4	30.2	3.02e+01	56	32	101	524288	52	6082
2026-01-06 03:05:09.22	330.14	13.21	-36.3	-37.4	30.2	3.02e+01	61	32	101	524288	52	6123
2026-01-06 03:05:10.23	330.23	13.12	-36.3	-37.4	30.3	3.02e+01	51	32	101	524288	52	6118
2026-01-06 03:05:11.24	330.33	13.02	-36.4	-37.5	30.2	3.02e+01	61	32	101	524288	52	6187
2026-01-06 03:05:12.25	330.42	12.92	-36.2	-37.4	30.3	3.02e+01	57	32	101	524288	52	6073
2026-01-06 03:05:13.26	330.51	12.82	-36.3	-37.5	30.2	3.02e+01	44	32	101	524288	52	6166
2026-01-06 03:05:14.27	330.60	12.72	-36.2	-37.3	30.3	3.02e+01	58	32	101	524288	52	6044
2026-01-06 03:05:15.29	330.69	12.62	-36.2	-37.4	30.3	3.02e+01	58	32	101	524288	52	6065
2026-01-06 03:05:16.30	330.78	12.53	-36.2	-37.4	30.3	3.02e+01	59	32	101	524288	52	6075
2026-01-06 03:05:17.31	330.87	12.43	-36.2	-37.4	30.2	3.02e+01	59	32	101	524288	52	6107
2026-01-06 03:05:18.32	330.96	12.34	-36.3	-37.5	30.2	3.02e+01	56	32	101	524288	52	6138
2026-01-06 03:05:19.33	331.04	12.24	-36.3	-37.5	30.2	3.02e+01	62	32	101	524288	52	6137
2026-01-06 03:05:20.34	331.13	12.14	-36.4	-37.5	30.1	3.02e+01	59	32	101	524288	52	6191
2026-01-06 03:05:21.35	331.22	12.05	-36.4	-37.6	30.1	3.02e+01	45	32	101	524288	52	6239
2026-01-06 03:05:22.36	331.30	11.95	-36.4	-37.5	30.2	3.02e+01	58	32	101	524288	52	6191
2026-01-06 03:05:23.38	331.39	11.86	-36.4	-37.6	30.0	3.02e+01	56	32	101	524288	52	6249
2026-01-06 03:05:24.39	331.47	11.77	-36.4	-37.6	30.1	3.02e+01	58	32	101	524288	52	6207
2026-01-06 03:05:25.40	331.56	11.67	-36.5	-37.7	30.0	3.02e+01	59	32	101	524288	52	6286
2026-01-06 03:05:26.41	331.64	11.58	-36.3	-37.5	30.2	3.02e+01	55	32	101	524288	52	6154
2026-01-06 03:05:27.42	331.73	11.49	-36.4	-37.6	30.0	3.02e+01	62	32	101	524288	52	6227
2026-01-06 03:05:28.43	331.81	11.39	-36.2	-37.4	30.3	3.02e+01	60	32	101	524288	52	6072
2026-01-06 03:05:29.44	331.89	11.30	-36.3	-37.5	30.1	3.02e+01	59	31	101	524288	52	6156
2026-01-06 03:05:30.45	331.97	11.21	-36.2	-37.4	30.2	3.02e+01	60	32	101	524288	52	6076
2026-01-06 03:05:31.46	332.05	11.12	-36.4	-37.5	30.0	3.02e+01	46	32	101	524288	52	6200
2026-01-06 03:05:32.47	332.13	11.03	-36.2	-37.3	30.3	3.02e+01	60	32	101	524288	52	6037
2026-01-06 03:05:33.48	332.21	10.94	-36.3	-37.4	30.2	3.02e+01	57	31	101	524288	52	6106
2026-01-06 03:05:34.49	332.29	10.85	-36.2	-37.4	30.3	3.02e+01	49	31	101	524288	52	6073
2026-01-06 03:05:35.50	332.37	10.76	-36.1	-37.3	30.3	3.02e+01	60	32	101	524288	52	6021
2026-01-06 03:05:36.52	332.45	10.66	-36.2	-37.3	30.3	3.02e+01	61	32	101	524288	52	6056
2026-01-06 03:05:37.53	332.53	10.57	-36.3	-37.4	30.1	3.02e+01	62	32	101	524288	52	6121
2026-01-06 03:05:38.54	332.61	10.49	-36.4	-37.6	30.0	3.02e+01	61	32	101	524288	52	6250
2026-01-06 03:05:39.55	332.68	10.40	-36.6	-37.7	29.9	3.02e+01	48	32	101	524288	52	6338
2026-01-06 03:05:40.56	332.76	10.31	-36.4	-37.5	30.1	3.02e+01	64	32	101	524288	52	6203
2026-01-06 03:05:41.57	332.84	10.22	-36.5	-37.6	29.9	3.02e+01	60	32	101	524288	52	6266
2026-01-06 03:05:42.58	332.91	10.13	-36.3	-37.5	30.1	3.02e+01	47	32	101	524288	52	6173
2026-01-06 03:05:43.59	332.99	10.04	-36.4	-37.6	29.9	3.02e+01	57	32	101	524288	52	6236
2026-01-06 03:05:44.60	333.06	9.96	-36.3	-37.5	30.1	3.02e+01	60	32	101	524288	52	6165
2026-01-06 03:05:45.61	333.14	9.87	-36.3	-37.5	30.1	3.02e+01	60	32	101	524288	52	6171
2026-01-06 03:05:46.63	333.21	9.78	-36.3	-37.5	30.0	3.02e+01	58	32	101	524288	52	6174
2026-01-06 03:05:47.64	333.28	9.70	-36.4	-37.5	30.0	3.02e+01	58	32	101	524288	52	6190
2026-01-06 03:05:48.65	333.36	9.61	-36.4	-37.6	30.0	3.02e+01	61	32	101	524288	52	6233
2026-01-06 03:05:49.66	333.43	9.52	-36.4	-37.6	30.0	3.02e+01	53	32	101	524288	52	6236
2026-01-06 03:05:50.67	333.50	9.44	-36.4	-37.6	30.0	3.02e+01	50	32	101	524288	52	6235
2026-01-06 03:05:51.68	333.57	9.35	-36.5	-37.6	29.9	3.02e+01	62	32	101	524288	52	6273
2026-01-06 03:05:52.69	333.65	9.27	-36.6	-37.8	29.8	3.02e+01	58	32	101	524288	52	6379
2026-01-06 03:05:53.70	333.72	9.18	-36.6	-37.8	29.8	3.02e+01	59	32	101	524288	52	6407
2026-01-06 03:05:54.71	333.79	9.10	-36.6	-37.8	29.7	3.02e+01	61	32	101	524288	52	6373
2026-01-06 03:05:55.72	333.86	9.02	-36.7	-37.9	29.7	3.02e+01	46	32	101	524288	52	6466
2026-01-06 03:05:56.73	333.93	8.93	-36.7	-37.9	29.7	3.02e+01	57	32	101	524288	52	6446
2026-01-06 03:05:57.74	334.00	8.85	-37.0	-38.2	29.5	3.02e+01	62	32	101	524288	52	6695
2026-01-06 03:05:58.75	334.06	8.76	-36.7	-37.9	29.7	3.02e+01	53	32	101	524288	52	6437
2026-01-06 03:05:59.76	334.13	8.68	-36.8	-38.0	29.6	3.02e+01	60	32	101	524288	52	6541
2026-01-06 03:06:00.77	334.20	8.60	-36.8	-38.0	29.6	3.02e+01	59	32	101	524288	52	6508
2026-01-06 03:06:01.78	334.27	8.52	-36.7	-37.9	29.6	3.02e+01	53	32	101	524288	52	6478
2026-01-06 03:06:02.79	334.34	8.43	-36.8	-38.0	29.5	3.02e+01	64	32	101	524288	52	6568
2026-01-06 03:06:03.81	334.40	8.35	-36.9	-38.1	29.6	3.02e+01	55	32	101	524288	52	6601
2026-01-06 03:06:04.82	334.47	8.27	-37.0	-38.2	29.3	3.02e+01	57	32	101	524288	52	6718
2026-01-06 03:06:05.83	334.54	8.19	-37.0	-38.2	29.3	3.02e+01	62	32	101	524288	52	6709
2026-01-06 03:06:06.84	334.60	8.11	-37.1	-38.3	29.3	3.02e+01	60	32	101	524288	52	6740
2026-01-06 03:06:07.85	334.67	8.03	-36.9	-38.1	29.4	3.02e+01	56	32	101	524288	52	6638
2026-01-06 03:06:08.86	334.73	7.95	-37.0	-38.2	29.4	3.02e+01	44	32	101	524288	52	6685
