passes_logs/2026/01/06/R4.6S_Anadyr_2ch/R4.6S_Anadyr_2ch__20260106_191234_SUOMI_NPP_rec.log

#Pass ID: 20260106_191234_SUOMI NPP
#Satellite: SUOMI NPP
#Configuration: NPP
#almurnet v.1.7.20251203
#Start time: 2026-01-06 19:12:37

#Version: 2.2.20231116
#Station: R4.6S_Anadyr_2ch
#Location: 177.4865 lon 64.73178 lat
#TLE: 1 37849U 11061A   25350.92281687  .00000071  00000+0  54882-4 0  9996
#TLE: 2 37849  98.7777 288.2268 0002366 112.8570 247.2856 14.19515404732588

#Time	Az	El	Level	Level2	SNR	BER	BlckErr	Temp	State	Recorded	gain1	gain2
2026-01-06 19:12:37.27	48.94	0.13	-50.7	-61.6	3.5	8.45e-01	0	28	0	0	60	59296
2026-01-06 19:12:38.28	48.86	0.18	-51.1	-66.4	3.6	1.51e+00	0	29	104	0	60	102200
2026-01-06 19:12:39.29	48.79	0.23	-51.1	-66.5	3.6	1.51e+00	0	29	104	0	60	102668
2026-01-06 19:12:40.30	48.71	0.28	-51.1	-66.4	3.6	1.51e+00	0	29	104	0	60	102247
2026-01-06 19:12:41.31	48.63	0.33	-51.1	-66.5	3.6	1.51e+00	0	29	104	0	60	102504
2026-01-06 19:12:42.32	48.56	0.37	-51.1	-66.5	3.6	1.51e+00	0	30	104	0	60	103070
2026-01-06 19:12:43.33	48.48	0.42	-51.1	-66.5	3.6	1.51e+00	0	30	104	0	60	102857
2026-01-06 19:12:44.34	48.40	0.47	-51.1	-66.5	3.6	1.51e+00	0	30	104	0	60	102917
2026-01-06 19:12:45.35	48.32	0.52	-51.1	-66.4	3.6	1.51e+00	0	30	104	0	60	102360
2026-01-06 19:12:46.36	48.24	0.57	-51.1	-66.5	3.6	1.51e+00	0	30	104	0	60	102934
2026-01-06 19:12:47.37	48.17	0.62	-51.1	-66.5	3.6	1.51e+00	0	30	104	0	60	102716
2026-01-06 19:12:48.39	48.09	0.67	-51.1	-66.5	3.6	1.51e+00	0	30	104	0	60	102668
2026-01-06 19:12:49.40	48.01	0.72	-51.1	-66.5	3.6	1.51e+00	0	30	104	0	60	102514
2026-01-06 19:12:50.41	47.93	0.77	-51.1	-66.5	3.6	1.51e+00	0	30	104	0	60	102531
2026-01-06 19:12:51.42	47.85	0.82	-51.1	-66.5	3.6	1.51e+00	0	30	104	0	60	102687
2026-01-06 19:12:52.43	47.77	0.87	-51.1	-66.4	3.6	1.51e+00	0	30	104	0	60	102424
2026-01-06 19:12:53.44	47.69	0.92	-51.1	-66.5	3.6	1.51e+00	0	30	104	0	60	102713
2026-01-06 19:12:54.45	47.61	0.97	-51.1	-66.5	3.6	1.51e+00	0	30	104	0	60	102542
2026-01-06 19:12:55.46	47.53	1.02	-51.1	-66.4	3.6	1.51e+00	0	30	104	0	60	102273
2026-01-06 19:12:56.47	47.45	1.07	-51.1	-66.5	3.6	1.51e+00	0	30	104	0	60	102657
2026-01-06 19:12:57.48	47.37	1.12	-51.1	-66.5	3.6	1.51e+00	0	30	104	0	60	102729
2026-01-06 19:12:58.49	47.28	1.17	-51.1	-66.4	3.6	1.51e+00	0	30	104	0	60	101944
2026-01-06 19:12:59.50	47.20	1.22	-51.1	-66.5	3.6	1.51e+00	0	30	104	0	60	102767
2026-01-06 19:13:00.51	47.12	1.27	-51.1	-66.4	3.6	1.51e+00	0	30	104	0	60	102454
2026-01-06 19:13:01.52	47.04	1.32	-51.1	-66.5	3.6	1.51e+00	0	30	104	0	60	102544
2026-01-06 19:13:02.53	46.95	1.37	-51.1	-66.4	3.6	1.51e+00	0	30	104	0	60	102367
2026-01-06 19:13:03.55	46.87	1.42	-51.1	-66.5	3.6	1.51e+00	0	30	104	0	60	102609
2026-01-06 19:13:04.56	46.79	1.47	-51.1	-66.5	3.6	1.51e+00	0	30	104	0	60	103623
2026-01-06 19:13:05.57	46.70	1.52	-51.1	-66.4	3.6	1.51e+00	0	30	104	0	60	102426
2026-01-06 19:13:06.58	46.62	1.57	-51.1	-66.4	3.5	1.51e+00	0	30	104	0	60	102328
2026-01-06 19:13:07.59	46.54	1.62	-51.1	-66.5	3.6	1.51e+00	0	30	104	0	60	103019
2026-01-06 19:13:08.60	46.45	1.67	-51.1	-66.5	3.6	1.51e+00	0	30	104	0	60	102837
2026-01-06 19:13:09.61	46.37	1.72	-51.1	-66.5	3.6	1.51e+00	0	30	104	0	60	102966
2026-01-06 19:13:10.62	46.28	1.77	-51.1	-66.5	3.6	1.51e+00	0	30	104	0	60	102675
2026-01-06 19:13:11.63	46.20	1.82	-51.1	-66.5	3.6	1.51e+00	0	30	104	0	60	102893
2026-01-06 19:13:12.64	46.11	1.87	-51.1	-66.4	3.6	1.51e+00	0	30	104	0	60	102423
2026-01-06 19:13:13.65	46.03	1.92	-51.1	-66.5	3.6	1.51e+00	0	30	104	0	60	102915
2026-01-06 19:13:14.66	45.94	1.97	-51.1	-66.4	3.5	1.51e+00	0	30	104	0	60	102416
2026-01-06 19:13:15.67	45.85	2.02	-51.1	-66.4	3.6	1.51e+00	0	30	104	0	60	102456
2026-01-06 19:13:16.68	45.77	2.07	-51.1	-66.5	3.6	1.51e+00	0	30	104	0	60	102664
2026-01-06 19:13:17.69	45.68	2.12	-51.1	-66.4	3.6	1.51e+00	0	30	104	0	60	102205
2026-01-06 19:13:18.70	45.59	2.17	-51.1	-66.5	3.6	1.51e+00	0	30	104	0	60	102942
2026-01-06 19:13:19.72	45.50	2.22	-51.1	-66.5	3.6	1.51e+00	0	30	104	0	60	102611
2026-01-06 19:13:20.73	45.41	2.27	-51.1	-66.5	3.6	1.51e+00	0	30	104	0	60	102687
2026-01-06 19:13:21.74	45.33	2.32	-51.1	-66.5	3.6	1.51e+00	0	30	104	0	60	102950
2026-01-06 19:13:22.75	45.24	2.37	-51.1	-66.4	3.6	1.51e+00	0	30	104	0	60	102385
2026-01-06 19:13:23.76	45.15	2.42	-51.1	-66.5	3.6	1.51e+00	0	30	104	0	60	102617
2026-01-06 19:13:24.77	45.06	2.47	-51.1	-66.5	3.6	1.51e+00	0	30	104	0	60	103000
2026-01-06 19:13:25.78	44.97	2.52	-51.1	-66.5	3.6	1.51e+00	0	30	104	0	60	102875
2026-01-06 19:13:26.79	44.88	2.57	-51.1	-66.5	3.6	1.51e+00	0	30	104	0	60	102660
2026-01-06 19:13:27.80	44.79	2.62	-51.1	-66.4	3.6	1.51e+00	0	30	104	0	60	102122
2026-01-06 19:13:28.81	44.70	2.67	-51.1	-66.5	3.6	1.51e+00	0	30	104	0	60	102860
2026-01-06 19:13:29.82	44.61	2.73	-51.1	-66.5	3.6	1.51e+00	0	30	104	0	60	102834
2026-01-06 19:13:30.83	44.52	2.78	-51.1	-66.5	3.6	1.51e+00	0	30	104	0	60	102806
2026-01-06 19:13:31.84	44.42	2.83	-51.1	-66.5	3.6	1.51e+00	0	30	104	0	60	103418
2026-01-06 19:13:32.85	44.33	2.88	-51.1	-66.5	3.6	1.51e+00	0	30	104	0	60	103186
2026-01-06 19:13:33.86	44.24	2.93	-51.1	-66.4	3.6	1.51e+00	0	30	104	0	60	102327
2026-01-06 19:13:34.87	44.15	2.98	-51.1	-66.5	3.6	1.51e+00	0	30	104	0	60	102878
2026-01-06 19:13:35.89	44.05	3.03	-51.1	-66.5	3.6	1.51e+00	0	30	104	0	60	102563
2026-01-06 19:13:36.90	43.96	3.08	-51.1	-66.5	3.6	1.51e+00	0	30	104	0	60	102563
2026-01-06 19:13:37.91	43.87	3.13	-51.1	-66.5	3.6	1.51e+00	0	30	104	0	60	102543
2026-01-06 19:13:38.92	43.77	3.18	-51.1	-66.4	3.6	1.51e+00	0	30	104	0	60	102397
2026-01-06 19:13:39.93	43.68	3.23	-51.1	-66.5	3.6	1.51e+00	0	31	104	0	60	102871
2026-01-06 19:13:40.94	43.58	3.28	-51.1	-66.4	3.6	1.51e+00	0	31	104	0	60	102456
2026-01-06 19:13:41.95	43.49	3.33	-51.1	-66.5	3.6	1.51e+00	0	30	104	0	60	103324
2026-01-06 19:13:42.96	43.39	3.39	-51.1	-66.5	3.6	1.51e+00	0	30	104	0	60	102568
2026-01-06 19:13:43.97	43.30	3.44	-51.1	-66.5	3.6	1.51e+00	0	30	104	0	60	102873
2026-01-06 19:13:44.98	43.20	3.49	-51.1	-66.5	3.6	1.51e+00	0	31	104	0	60	102706
2026-01-06 19:13:45.99	43.11	3.54	-51.1	-66.4	3.6	1.51e+00	0	30	104	0	60	102405
2026-01-06 19:13:47.00	43.01	3.59	-51.1	-66.5	3.6	1.51e+00	0	30	104	0	60	102583
2026-01-06 19:13:48.01	42.91	3.64	-51.1	-66.4	3.6	1.51e+00	0	31	104	0	60	102408
2026-01-06 19:13:49.02	42.82	3.69	-51.0	-66.4	3.6	1.51e+00	0	31	104	0	60	102417
2026-01-06 19:13:50.03	42.72	3.74	-51.0	-66.4	3.6	1.51e+00	0	31	104	0	60	102338
2026-01-06 19:13:51.04	42.62	3.79	-51.1	-66.4	3.6	1.51e+00	0	31	104	0	60	102212
2026-01-06 19:13:52.05	42.52	3.84	-51.1	-66.5	3.6	1.51e+00	0	31	104	0	60	102686
2026-01-06 19:13:53.06	42.42	3.90	-51.1	-66.4	3.6	1.51e+00	0	30	104	0	60	102136
2026-01-06 19:13:54.07	42.32	3.95	-51.1	-66.4	3.6	1.51e+00	0	30	104	0	60	102277
2026-01-06 19:13:55.08	42.22	4.00	-51.1	-66.5	3.6	1.51e+00	0	31	104	0	60	102498
2026-01-06 19:13:56.09	42.12	4.05	-51.1	-66.4	3.6	1.51e+00	0	31	104	0	60	102341
2026-01-06 19:13:57.10	42.02	4.10	-51.1	-66.4	3.6	1.51e+00	0	31	104	0	60	102452
2026-01-06 19:13:58.11	41.92	4.15	-51.1	-66.4	3.6	1.51e+00	0	31	104	0	60	101963
2026-01-06 19:13:59.13	41.82	4.20	-51.1	-66.5	3.6	1.51e+00	0	31	104	0	60	102493
2026-01-06 19:14:00.14	41.72	4.25	-51.1	-66.4	3.6	1.51e+00	0	31	104	0	60	102174
2026-01-06 19:14:01.15	41.62	4.31	-51.1	-66.4	3.6	1.51e+00	0	31	104	0	60	102032
2026-01-06 19:14:02.16	41.52	4.36	-51.1	-66.4	3.6	1.51e+00	0	31	104	0	60	102231
2026-01-06 19:14:03.17	41.41	4.41	-51.1	-66.4	3.6	1.51e+00	0	31	104	0	60	102309
2026-01-06 19:14:04.18	41.31	4.46	-51.1	-66.4	3.6	1.51e+00	0	31	104	0	60	102392
2026-01-06 19:14:05.19	41.21	4.51	-51.1	-66.4	3.6	1.51e+00	0	31	104	0	60	102211
2026-01-06 19:14:06.20	41.10	4.56	-51.1	-66.4	3.6	1.51e+00	0	31	104	0	60	101836
2026-01-06 19:14:07.21	41.00	4.61	-51.0	-66.5	3.6	1.51e+00	0	31	104	0	60	102513
2026-01-06 19:14:08.22	40.90	4.66	-51.1	-66.4	3.6	1.51e+00	0	31	104	0	60	101941
2026-01-06 19:14:09.24	40.79	4.72	-51.0	-66.5	3.6	1.51e+00	0	31	104	0	60	102538
2026-01-06 19:14:10.25	40.69	4.77	-51.0	-66.4	3.6	1.51e+00	0	31	104	0	60	102010
2026-01-06 19:14:11.26	40.58	4.82	-51.0	-66.4	3.6	1.51e+00	0	31	104	0	60	102264
2026-01-06 19:14:12.27	40.47	4.87	-51.0	-66.4	3.6	1.51e+00	0	31	104	0	60	102154
2026-01-06 19:14:13.28	40.37	4.92	-51.0	-66.4	3.6	1.51e+00	0	31	104	0	60	102135
2026-01-06 19:14:14.29	40.26	4.97	-51.0	-66.4	3.6	1.51e+00	0	31	104	0	60	102128
2026-01-06 19:14:15.30	40.16	5.02	-51.0	-66.4	3.5	1.51e+00	0	31	104	0	60	102239
2026-01-06 19:14:16.31	40.05	5.08	-51.0	-66.4	3.6	1.51e+00	0	31	104	0	60	102141
2026-01-06 19:14:17.32	39.94	5.13	-51.1	-66.4	3.6	1.51e+00	0	31	104	0	60	101880
2026-01-06 19:14:18.33	39.83	5.18	-51.1	-66.4	3.6	1.51e+00	0	31	104	0	60	102422
2026-01-06 19:14:19.35	39.72	5.23	-51.0	-66.5	3.6	1.51e+00	0	31	104	0	60	102513
2026-01-06 19:14:20.36	39.61	5.28	-51.0	-66.4	3.6	1.51e+00	0	31	104	0	60	101871
2026-01-06 19:14:21.37	39.50	5.33	-51.1	-66.4	3.6	1.51e+00	0	31	104	0	60	102206
2026-01-06 19:14:22.38	39.39	5.38	-51.0	-66.4	3.6	1.51e+00	0	31	104	0	60	102079
2026-01-06 19:14:23.39	39.28	5.44	-51.0	-66.4	3.6	1.51e+00	0	31	104	0	60	102027
2026-01-06 19:14:24.40	39.17	5.49	-51.0	-66.4	3.6	1.51e+00	0	31	104	0	60	102126
2026-01-06 19:14:25.41	39.06	5.54	-51.0	-66.4	3.6	1.51e+00	0	31	104	0	60	102037
2026-01-06 19:14:26.43	38.95	5.59	-51.0	-66.4	3.6	1.51e+00	0	31	104	0	60	101819
2026-01-06 19:14:27.43	38.84	5.64	-51.0	-66.4	3.6	1.51e+00	0	31	104	0	60	101809
2026-01-06 19:14:28.45	38.73	5.69	-51.1	-66.4	3.6	1.51e+00	0	31	104	0	60	101682
2026-01-06 19:14:29.46	38.61	5.74	-51.0	-66.4	3.6	1.51e+00	0	31	104	0	60	101986
2026-01-06 19:14:30.47	38.50	5.79	-51.0	-66.4	3.6	1.51e+00	0	31	104	0	60	102220
2026-01-06 19:14:31.48	38.39	5.85	-51.0	-66.4	3.6	1.51e+00	0	31	104	0	60	101595
2026-01-06 19:14:32.49	38.27	5.90	-51.0	-66.4	3.6	1.51e+00	0	31	104	0	60	101974
2026-01-06 19:14:33.50	38.16	5.95	-51.0	-66.4	3.6	1.51e+00	0	31	104	0	60	101768
2026-01-06 19:14:34.51	38.05	6.00	-51.0	-66.4	3.6	1.51e+00	0	31	104	0	60	102127
2026-01-06 19:14:35.52	37.93	6.05	-51.0	-66.4	3.6	1.51e+00	0	31	104	0	60	102090
2026-01-06 19:14:36.54	37.81	6.10	-51.0	-66.4	3.6	1.51e+00	0	31	104	0	60	101924
2026-01-06 19:14:37.54	37.70	6.15	-51.0	-66.4	3.6	1.51e+00	0	31	104	0	60	102005
2026-01-06 19:14:38.55	37.58	6.21	-51.0	-66.5	3.6	1.51e+00	0	31	104	0	60	102515
2026-01-06 19:14:39.56	37.47	6.26	-51.1	-66.5	3.6	1.51e+00	0	31	104	0	60	102469
2026-01-06 19:14:40.57	37.35	6.31	-51.1	-66.4	3.6	1.51e+00	0	31	104	0	60	102024
2026-01-06 19:14:41.58	37.23	6.36	-51.1	-66.4	3.6	1.51e+00	0	31	104	0	60	101837
2026-01-06 19:14:42.59	37.11	6.41	-51.1	-66.4	3.6	1.51e+00	0	31	104	0	60	102102
2026-01-06 19:14:43.60	37.00	6.46	-51.1	-66.4	3.6	1.51e+00	0	31	104	0	60	102062
2026-01-06 19:14:44.61	36.88	6.51	-51.1	-66.4	3.6	1.51e+00	0	31	104	0	60	101919
2026-01-06 19:14:45.62	36.76	6.56	-51.1	-66.4	3.6	1.51e+00	0	31	104	0	60	101913
2026-01-06 19:14:46.63	36.64	6.61	-51.1	-66.5	3.6	1.51e+00	0	31	104	0	60	102503
2026-01-06 19:14:47.64	36.52	6.67	-51.0	-66.4	3.6	1.51e+00	0	31	104	0	60	101977
2026-01-06 19:14:48.65	36.40	6.72	-51.0	-66.4	3.6	1.51e+00	0	31	104	0	60	102071
2026-01-06 19:14:49.66	36.28	6.77	-51.0	-66.4	3.6	1.51e+00	0	31	104	0	60	102255
2026-01-06 19:14:50.67	36.16	6.82	-51.0	-66.4	3.6	1.51e+00	0	31	104	0	60	101862
2026-01-06 19:14:51.68	36.03	6.87	-51.0	-66.5	3.6	1.51e+00	0	31	104	0	60	102629
2026-01-06 19:14:52.69	35.91	6.92	-51.0	-66.4	3.6	1.51e+00	0	31	104	0	60	102311
2026-01-06 19:14:53.70	35.79	6.97	-51.0	-66.4	3.6	1.51e+00	0	31	104	0	60	102144
2026-01-06 19:14:54.71	35.67	7.02	-51.0	-66.4	3.6	1.51e+00	0	31	104	0	60	101956
2026-01-06 19:14:55.72	35.54	7.07	-51.0	-66.5	3.6	1.51e+00	0	31	104	0	60	102594
2026-01-06 19:14:56.73	35.42	7.13	-51.0	-66.4	3.6	1.51e+00	0	31	104	0	60	101822
2026-01-06 19:14:57.74	35.29	7.18	-51.0	-66.4	3.5	1.51e+00	0	31	104	0	60	101903
2026-01-06 19:14:58.74	35.17	7.23	-51.0	-66.4	3.6	1.51e+00	0	31	104	0	60	101942
2026-01-06 19:14:59.75	35.04	7.28	-51.1	-66.5	3.6	1.51e+00	0	31	104	0	60	102514
2026-01-06 19:15:00.76	34.92	7.33	-51.0	-66.4	3.6	1.51e+00	0	31	104	0	60	102067
2026-01-06 19:15:01.77	34.79	7.38	-51.1	-66.4	3.6	1.51e+00	0	31	104	0	60	101780
2026-01-06 19:15:02.78	34.67	7.43	-51.1	-66.4	3.6	1.51e+00	0	31	104	0	60	102247
2026-01-06 19:15:03.79	34.54	7.48	-51.0	-66.4	3.6	1.51e+00	0	31	104	0	60	101847
2026-01-06 19:15:04.80	34.41	7.53	-51.0	-66.4	3.6	1.51e+00	0	31	104	0	60	101710
2026-01-06 19:15:05.81	34.28	7.58	-51.0	-66.4	3.6	1.51e+00	0	31	104	0	60	102260
2026-01-06 19:15:06.82	34.15	7.63	-51.0	-66.4	3.6	1.51e+00	0	31	104	0	60	101908
2026-01-06 19:15:07.83	34.03	7.68	-51.0	-66.4	3.6	1.51e+00	0	31	104	0	60	102317
2026-01-06 19:15:08.84	33.90	7.73	-51.0	-66.4	3.6	1.51e+00	0	31	104	0	60	101849
2026-01-06 19:15:09.85	33.77	7.78	-51.0	-66.4	3.6	1.51e+00	0	31	104	0	60	102424
2026-01-06 19:15:10.86	33.64	7.83	-51.0	-66.4	3.6	1.51e+00	0	31	104	0	60	101888
2026-01-06 19:15:11.87	33.50	7.89	-51.0	-66.4	3.6	1.51e+00	0	31	104	0	60	102296
2026-01-06 19:15:12.88	33.37	7.94	-51.0	-66.4	3.6	1.51e+00	0	31	104	0	60	101747
2026-01-06 19:15:13.89	33.24	7.99	-51.0	-66.4	3.6	1.51e+00	0	31	104	0	60	101828
2026-01-06 19:15:14.90	33.11	8.04	-51.0	-66.4	3.6	1.51e+00	0	31	104	0	60	101604
2026-01-06 19:15:15.91	32.98	8.09	-51.0	-66.4	3.6	1.51e+00	0	31	104	0	60	101999
2026-01-06 19:15:16.92	32.84	8.14	-51.0	-66.4	3.6	1.51e+00	0	31	104	0	60	101867
2026-01-06 19:15:17.93	32.71	8.19	-51.0	-66.4	3.6	1.51e+00	0	31	104	0	60	101872
2026-01-06 19:15:18.94	32.58	8.24	-51.0	-66.4	3.6	1.51e+00	0	31	104	0	60	102176
2026-01-06 19:15:19.95	32.44	8.29	-51.0	-66.4	3.6	1.51e+00	0	31	104	0	60	101759
2026-01-06 19:15:20.96	32.31	8.34	-51.0	-66.4	3.6	1.51e+00	0	31	104	0	60	101914
2026-01-06 19:15:21.97	32.17	8.39	-51.0	-66.4	3.6	1.51e+00	0	31	104	0	60	101614
2026-01-06 19:15:22.98	32.03	8.44	-51.0	-66.4	3.6	1.51e+00	0	31	104	0	60	101641
2026-01-06 19:15:23.99	31.90	8.49	-50.9	-66.5	3.6	1.51e+00	0	31	104	0	60	102535
2026-01-06 19:15:25.00	31.76	8.54	-50.9	-66.4	3.6	1.51e+00	0	31	104	0	60	101843
2026-01-06 19:15:26.01	31.62	8.59	-50.9	-66.4	3.6	1.51e+00	0	31	104	0	60	102268
2026-01-06 19:15:27.02	31.49	8.64	-50.9	-66.4	3.6	1.51e+00	0	31	104	0	60	102105
2026-01-06 19:15:28.03	31.35	8.69	-50.9	-66.5	3.6	1.51e+00	0	31	104	0	60	102583
2026-01-06 19:15:29.04	31.21	8.74	-50.9	-66.4	3.5	1.51e+00	0	31	104	0	60	101688
2026-01-06 19:15:30.05	31.07	8.78	-50.9	-66.4	3.6	1.51e+00	0	31	104	0	60	101891
2026-01-06 19:15:31.06	30.93	8.83	-50.9	-66.4	3.6	1.51e+00	0	31	104	0	60	102340
2026-01-06 19:15:32.07	30.79	8.88	-50.9	-66.4	3.5	1.51e+00	0	31	104	0	60	101507
2026-01-06 19:15:33.08	30.65	8.93	-50.9	-66.4	3.6	1.51e+00	0	31	104	0	60	101672
2026-01-06 19:15:34.09	30.51	8.98	-50.9	-66.4	3.6	1.51e+00	0	31	104	0	60	102072
2026-01-06 19:15:35.10	30.37	9.03	-51.0	-66.4	3.6	1.51e+00	0	31	104	0	60	101666
2026-01-06 19:15:36.11	30.22	9.08	-51.0	-66.4	3.6	1.51e+00	0	31	104	0	60	101766
2026-01-06 19:15:37.12	30.08	9.13	-51.0	-66.3	3.6	1.51e+00	0	31	104	0	60	101203
2026-01-06 19:15:38.13	29.94	9.18	-51.0	-66.4	3.6	1.51e+00	0	31	104	0	60	101784
2026-01-06 19:15:39.13	29.79	9.23	-50.9	-66.4	3.6	1.51e+00	0	31	104	0	60	101409
2026-01-06 19:15:40.15	29.65	9.28	-50.9	-66.4	3.6	1.51e+00	0	31	104	0	60	102032
2026-01-06 19:15:41.16	29.50	9.32	-50.9	-66.4	3.6	1.51e+00	0	31	104	0	60	101345
2026-01-06 19:15:42.16	29.36	9.37	-50.9	-66.4	3.6	1.51e+00	0	31	104	0	60	101447
2026-01-06 19:15:43.17	29.22	9.42	-50.9	-66.4	3.6	1.51e+00	0	31	104	0	60	101989
2026-01-06 19:15:44.18	29.07	9.47	-50.9	-66.4	3.6	1.51e+00	0	31	104	0	60	101530
2026-01-06 19:15:45.19	28.92	9.52	-50.9	-66.4	3.6	1.51e+00	0	31	104	0	60	102053
2026-01-06 19:15:46.20	28.78	9.57	-50.9	-66.4	3.6	1.51e+00	0	31	104	0	60	101874
2026-01-06 19:15:47.21	28.63	9.61	-51.0	-66.4	3.6	1.51e+00	0	31	104	0	60	101625
2026-01-06 19:15:48.22	28.48	9.66	-51.0	-66.4	3.6	1.51e+00	0	31	104	0	60	101509
2026-01-06 19:15:49.23	28.33	9.71	-51.0	-66.4	3.6	1.51e+00	0	31	104	0	60	101951
2026-01-06 19:15:50.24	28.18	9.76	-51.0	-66.4	3.6	1.51e+00	0	31	104	0	60	101888
2026-01-06 19:15:51.25	28.03	9.81	-51.0	-66.4	3.6	1.51e+00	0	31	104	0	60	101842
2026-01-06 19:15:52.26	27.88	9.85	-51.0	-66.4	3.6	1.51e+00	0	31	104	0	60	101870
2026-01-06 19:15:53.27	27.73	9.90	-51.0	-66.4	3.6	1.51e+00	0	31	104	0	60	101947
2026-01-06 19:15:54.28	27.58	9.95	-51.0	-66.4	3.6	1.51e+00	0	31	104	0	60	101521
2026-01-06 19:15:55.29	27.43	10.00	-51.0	-66.4	3.6	1.51e+00	0	31	104	0	60	101485
2026-01-06 19:15:56.30	27.28	10.04	-51.0	-66.3	3.6	1.51e+00	0	31	104	0	60	101177
2026-01-06 19:15:57.31	27.12	10.09	-51.0	-66.4	3.6	1.51e+00	0	31	104	0	60	101381
2026-01-06 19:15:58.32	26.97	10.14	-51.0	-66.4	3.6	1.51e+00	0	31	104	0	60	101641
2026-01-06 19:15:59.33	26.82	10.18	-51.0	-66.4	3.6	1.51e+00	0	31	104	0	60	101746
2026-01-06 19:16:00.34	26.66	10.23	-51.0	-66.4	3.6	1.51e+00	0	31	104	0	60	101954
2026-01-06 19:16:01.35	26.51	10.28	-51.0	-66.4	3.6	1.51e+00	0	31	104	0	60	101905
2026-01-06 19:16:02.36	26.35	10.32	-51.0	-66.4	3.6	1.51e+00	0	31	104	0	60	101309
2026-01-06 19:16:03.37	26.20	10.37	-51.0	-66.4	3.6	1.51e+00	0	31	104	0	60	101487
2026-01-06 19:16:04.38	26.04	10.42	-51.0	-66.4	3.6	1.51e+00	0	31	104	0	60	101840
2026-01-06 19:16:05.39	25.88	10.46	-51.0	-66.4	3.6	1.51e+00	0	31	104	0	60	101914
2026-01-06 19:16:06.40	25.73	10.51	-51.0	-66.4	3.6	1.51e+00	0	31	104	0	60	102032
2026-01-06 19:16:07.41	25.57	10.56	-51.0	-66.4	3.6	1.51e+00	0	31	104	0	60	101889
2026-01-06 19:16:08.42	25.41	10.60	-51.0	-66.4	3.6	1.51e+00	0	31	104	0	60	101993
2026-01-06 19:16:09.43	25.25	10.65	-51.0	-66.3	3.6	1.51e+00	0	31	104	0	60	101161
2026-01-06 19:16:10.44	25.09	10.69	-51.0	-66.4	3.6	1.51e+00	0	31	104	0	60	101973
2026-01-06 19:16:11.45	24.93	10.74	-51.0	-66.3	3.6	1.51e+00	0	31	104	0	60	101252
2026-01-06 19:16:12.46	24.77	10.78	-51.0	-66.4	3.6	1.51e+00	0	31	104	0	60	101680
2026-01-06 19:16:13.47	24.61	10.83	-51.0	-66.4	3.6	1.51e+00	0	31	104	0	60	101370
2026-01-06 19:16:14.48	24.45	10.87	-51.0	-66.4	3.6	1.51e+00	0	31	104	0	60	101677
2026-01-06 19:16:15.49	24.29	10.92	-51.0	-66.4	3.6	1.51e+00	0	31	104	0	60	101293
2026-01-06 19:16:16.49	24.13	10.96	-51.0	-66.4	3.6	1.51e+00	0	31	104	0	60	102162
2026-01-06 19:16:17.50	23.97	11.01	-51.0	-66.4	3.6	1.51e+00	0	31	104	0	60	101774
2026-01-06 19:16:18.51	23.80	11.05	-51.0	-66.4	3.6	1.51e+00	0	31	104	0	60	102294
2026-01-06 19:16:19.52	23.64	11.10	-51.0	-66.4	3.6	1.51e+00	0	31	104	0	60	101706
2026-01-06 19:16:20.53	23.47	11.14	-51.0	-66.4	3.6	1.51e+00	0	31	104	0	60	101453
2026-01-06 19:16:21.54	23.31	11.19	-51.0	-66.4	3.6	1.51e+00	0	31	104	0	60	101591
2026-01-06 19:16:22.55	23.14	11.23	-51.0	-66.4	3.6	1.51e+00	0	31	104	0	60	101620
2026-01-06 19:16:23.56	22.98	11.27	-51.0	-66.4	3.6	1.51e+00	0	31	104	0	60	101664
2026-01-06 19:16:24.58	22.81	11.32	-51.0	-66.4	3.6	1.51e+00	0	31	104	0	60	101544
2026-01-06 19:16:25.58	22.65	11.36	-51.0	-66.4	3.6	1.51e+00	0	31	104	0	60	101493
2026-01-06 19:16:26.60	22.48	11.40	-51.0	-66.4	3.6	1.51e+00	0	31	104	0	60	101861
2026-01-06 19:16:27.60	22.31	11.45	-51.0	-66.3	3.6	1.51e+00	0	31	104	0	60	101216
2026-01-06 19:16:28.61	22.14	11.49	-51.0	-66.3	3.6	1.51e+00	0	31	104	0	60	100572
2026-01-06 19:16:29.62	21.97	11.53	-51.0	-66.3	3.6	1.51e+00	0	31	104	0	60	101082
2026-01-06 19:16:30.63	21.80	11.58	-51.0	-66.4	3.6	1.51e+00	0	31	104	0	60	101687
2026-01-06 19:16:31.64	21.63	11.62	-51.0	-66.4	3.6	1.51e+00	0	31	104	0	60	101950
2026-01-06 19:16:32.65	21.46	11.66	-51.0	-66.3	3.6	1.51e+00	0	31	104	0	60	100766
2026-01-06 19:16:33.66	21.29	11.70	-51.0	-66.4	3.6	1.51e+00	0	31	104	0	60	101596
2026-01-06 19:16:34.67	21.12	11.74	-51.0	-66.3	3.6	1.51e+00	0	31	104	0	60	101131
2026-01-06 19:16:35.68	20.95	11.79	-51.0	-66.4	3.6	1.51e+00	0	31	104	0	60	101877
2026-01-06 19:16:36.69	20.78	11.83	-51.0	-66.4	3.6	1.51e+00	0	31	104	0	60	101402
2026-01-06 19:16:37.70	20.60	11.87	-51.0	-66.4	3.6	1.51e+00	0	31	104	0	60	101343
2026-01-06 19:16:38.71	20.43	11.91	-51.0	-66.4	3.6	1.51e+00	0	31	104	0	60	101478
2026-01-06 19:16:39.72	20.26	11.95	-51.0	-66.3	3.6	1.51e+00	0	31	104	0	60	101014
2026-01-06 19:16:40.73	20.08	11.99	-51.0	-66.3	3.6	1.51e+00	0	31	104	0	60	101155
2026-01-06 19:16:41.74	19.91	12.03	-51.0	-66.3	3.6	1.51e+00	0	31	104	0	60	101053
2026-01-06 19:16:42.75	19.73	12.07	-51.0	-66.4	3.6	1.51e+00	0	31	104	0	60	101550
2026-01-06 19:16:43.76	19.56	12.11	-51.0	-66.4	3.6	1.51e+00	0	31	104	0	60	102079
2026-01-06 19:16:44.77	19.38	12.15	-51.0	-66.4	3.6	1.51e+00	0	31	104	0	60	101708
2026-01-06 19:16:45.78	19.20	12.19	-51.0	-66.4	3.6	1.51e+00	0	31	104	0	60	101655
2026-01-06 19:16:46.79	19.03	12.23	-51.0	-66.4	3.6	1.51e+00	0	31	104	0	60	101336
2026-01-06 19:16:47.80	18.85	12.27	-51.0	-66.4	3.6	1.51e+00	0	31	104	0	60	101596
2026-01-06 19:16:48.81	18.67	12.31	-51.0	-66.3	3.6	1.51e+00	0	31	104	0	60	101072
2026-01-06 19:16:49.81	18.49	12.35	-51.0	-66.3	3.6	1.51e+00	0	31	104	0	60	101249
2026-01-06 19:16:50.82	18.32	12.39	-51.0	-66.4	3.6	1.51e+00	0	31	104	0	60	101533
2026-01-06 19:16:51.83	18.14	12.43	-51.0	-66.4	3.6	1.51e+00	0	31	104	0	60	101479
2026-01-06 19:16:52.84	17.96	12.47	-51.0	-66.3	3.6	1.51e+00	0	31	104	0	60	101236
2026-01-06 19:16:53.85	17.78	12.50	-51.0	-66.3	3.6	1.51e+00	0	31	104	0	60	100994
2026-01-06 19:16:54.86	17.59	12.54	-51.0	-66.4	3.6	1.51e+00	0	31	104	0	60	101553
2026-01-06 19:16:55.87	17.41	12.58	-51.0	-66.4	3.6	1.51e+00	0	31	104	0	60	101661
2026-01-06 19:16:56.88	17.23	12.62	-51.0	-66.4	3.6	1.51e+00	0	31	104	0	60	101871
2026-01-06 19:16:57.89	17.05	12.65	-51.0	-66.4	3.6	1.51e+00	0	31	104	0	60	101377
2026-01-06 19:16:58.90	16.87	12.69	-51.0	-66.4	3.6	1.51e+00	0	31	104	0	60	101324
2026-01-06 19:16:59.91	16.68	12.73	-51.0	-66.3	3.6	1.51e+00	0	31	104	0	60	101265
2026-01-06 19:17:00.92	16.50	12.76	-51.0	-66.4	3.6	1.51e+00	0	31	104	0	60	101476
2026-01-06 19:17:01.93	16.31	12.80	-51.0	-66.3	3.6	1.51e+00	0	31	104	0	60	101223
2026-01-06 19:17:02.94	16.13	12.84	-51.0	-66.4	3.6	1.51e+00	0	31	104	0	60	101768
2026-01-06 19:17:03.95	15.94	12.87	-51.0	-66.4	3.6	1.51e+00	0	31	104	0	60	101325
2026-01-06 19:17:04.96	15.76	12.91	-51.0	-66.3	3.6	1.51e+00	0	31	104	0	60	101004
2026-01-06 19:17:05.97	15.57	12.94	-51.0	-66.4	3.6	1.51e+00	0	31	104	0	60	101611
2026-01-06 19:17:06.98	15.39	12.98	-51.0	-66.3	3.6	1.51e+00	0	31	104	0	60	101272
2026-01-06 19:17:07.99	15.20	13.01	-51.0	-66.4	3.6	1.51e+00	0	31	104	0	60	101501
2026-01-06 19:17:09.00	15.01	13.05	-51.0	-66.3	3.6	1.51e+00	0	31	104	0	60	101242
2026-01-06 19:17:10.00	14.83	13.08	-51.0	-66.3	3.6	1.51e+00	0	31	104	0	60	100886
2026-01-06 19:17:11.01	14.64	13.12	-51.0	-66.3	3.6	1.51e+00	0	31	104	0	60	100772
2026-01-06 19:17:12.02	14.45	13.15	-51.0	-66.3	3.6	1.51e+00	0	31	104	0	60	100647
2026-01-06 19:17:13.03	14.26	13.18	-51.0	-66.3	3.6	1.51e+00	0	31	104	0	60	100843
2026-01-06 19:17:14.04	14.07	13.22	-51.0	-66.3	3.6	1.51e+00	0	31	104	0	60	101111
2026-01-06 19:17:15.05	13.88	13.25	-51.0	-66.3	3.6	1.51e+00	0	31	104	0	60	100910
2026-01-06 19:17:16.06	13.69	13.28	-51.0	-66.3	3.6	1.51e+00	0	31	104	0	60	100730
2026-01-06 19:17:17.07	13.50	13.31	-51.0	-66.4	3.6	1.51e+00	0	31	104	0	60	101297
2026-01-06 19:17:18.08	13.31	13.35	-51.0	-66.3	3.6	1.51e+00	0	31	104	0	60	100857
2026-01-06 19:17:19.09	13.12	13.38	-51.0	-66.3	3.6	1.51e+00	0	31	104	0	60	101030
2026-01-06 19:17:20.10	12.92	13.41	-51.0	-66.3	3.6	1.51e+00	0	31	104	0	60	100778
2026-01-06 19:17:21.11	12.73	13.44	-51.0	-66.4	3.6	1.51e+00	0	31	104	0	60	101351
2026-01-06 19:17:22.11	12.54	13.47	-51.0	-66.3	3.6	1.51e+00	0	31	104	0	60	100842
2026-01-06 19:17:23.13	12.34	13.50	-51.0	-66.3	3.6	1.51e+00	0	31	104	0	60	100879
2026-01-06 19:17:24.13	12.15	13.53	-51.0	-66.3	3.6	1.51e+00	0	31	104	0	60	101072
2026-01-06 19:17:25.14	11.96	13.56	-51.0	-66.3	3.6	1.51e+00	0	31	104	0	60	100732
2026-01-06 19:17:26.16	11.76	13.59	-51.0	-66.4	3.6	1.51e+00	0	31	104	0	60	101490
2026-01-06 19:17:27.17	11.57	13.62	-51.0	-66.3	3.6	1.51e+00	0	31	104	0	60	100744
2026-01-06 19:17:28.18	11.37	13.65	-50.9	-66.3	3.6	1.51e+00	0	31	104	0	60	100736
2026-01-06 19:17:29.19	11.18	13.68	-50.9	-66.3	3.5	1.51e+00	0	31	104	0	60	101137
2026-01-06 19:17:30.20	10.98	13.71	-50.9	-66.3	3.6	1.51e+00	0	31	104	0	60	101044
2026-01-06 19:17:31.21	10.78	13.74	-50.9	-66.3	3.6	1.51e+00	0	31	104	0	60	100693
2026-01-06 19:17:32.22	10.59	13.77	-50.9	-66.3	3.6	1.51e+00	0	31	104	0	60	100920
2026-01-06 19:17:33.23	10.39	13.80	-50.9	-66.3	3.6	1.51e+00	0	31	104	0	60	101158
2026-01-06 19:17:34.24	10.19	13.82	-50.9	-66.3	3.6	1.51e+00	0	31	104	0	60	100667
2026-01-06 19:17:35.25	9.99	13.85	-50.9	-66.3	3.6	1.51e+00	0	31	104	0	60	100516
2026-01-06 19:17:36.26	9.79	13.88	-50.9	-66.3	3.6	1.51e+00	0	31	104	0	60	100943
2026-01-06 19:17:37.27	9.60	13.90	-50.9	-66.3	3.6	1.51e+00	0	31	104	0	60	100979
2026-01-06 19:17:38.28	9.40	13.93	-50.9	-66.3	3.6	1.51e+00	0	31	104	0	60	100199
2026-01-06 19:17:39.29	9.20	13.96	-50.9	-66.2	3.6	1.51e+00	0	31	104	0	60	100086
2026-01-06 19:17:40.29	9.00	13.98	-50.9	-66.3	3.6	1.51e+00	0	31	104	0	60	100906
2026-01-06 19:17:41.30	8.80	14.01	-50.9	-66.3	3.6	1.51e+00	0	31	104	0	60	100808
2026-01-06 19:17:42.31	8.60	14.03	-50.9	-66.3	3.6	1.51e+00	0	31	104	0	60	100673
2026-01-06 19:17:43.32	8.40	14.06	-50.9	-66.3	3.6	1.51e+00	0	31	104	0	60	100927
2026-01-06 19:17:44.33	8.20	14.08	-50.9	-66.3	3.6	1.51e+00	0	31	104	0	60	100801
2026-01-06 19:17:45.34	7.99	14.10	-50.9	-66.3	3.6	1.51e+00	0	31	104	0	60	100372
2026-01-06 19:17:46.35	7.79	14.13	-50.9	-66.3	3.6	1.51e+00	0	31	104	0	60	100433
2026-01-06 19:17:47.36	7.59	14.15	-50.9	-66.3	3.5	1.51e+00	0	31	104	0	60	100287
2026-01-06 19:17:48.37	7.39	14.17	-50.9	-66.3	3.6	1.51e+00	0	31	104	0	60	100734
2026-01-06 19:17:49.38	7.18	14.20	-50.9	-66.3	3.6	1.51e+00	0	31	104	0	60	100293
2026-01-06 19:17:50.39	6.98	14.22	-50.9	-66.3	3.6	1.51e+00	0	31	104	0	60	100707
2026-01-06 19:17:51.40	6.78	14.24	-50.9	-66.3	3.6	1.51e+00	0	31	104	0	60	100910
2026-01-06 19:17:52.41	6.57	14.26	-50.9	-66.3	3.6	1.51e+00	0	31	104	0	60	100577
2026-01-06 19:17:53.42	6.37	14.28	-50.9	-66.2	3.6	1.51e+00	0	31	104	0	60	99865
2026-01-06 19:17:54.43	6.17	14.31	-50.9	-66.3	3.6	1.51e+00	0	31	104	0	60	100411
2026-01-06 19:17:55.44	5.96	14.33	-50.9	-66.3	3.6	1.51e+00	0	31	104	0	60	100498
2026-01-06 19:17:56.45	5.76	14.35	-50.9	-66.3	3.6	1.51e+00	0	31	104	0	60	100172
2026-01-06 19:17:57.46	5.55	14.37	-50.9	-66.3	3.6	1.51e+00	0	31	104	0	60	100267
2026-01-06 19:17:58.47	5.35	14.39	-50.9	-66.2	3.6	1.51e+00	0	31	104	0	60	99722
2026-01-06 19:17:59.48	5.14	14.41	-50.9	-66.2	3.6	1.51e+00	0	31	104	0	60	100087
2026-01-06 19:18:00.49	4.93	14.42	-50.9	-66.2	3.6	1.51e+00	0	31	104	0	60	100091
2026-01-06 19:18:01.50	4.73	14.44	-50.9	-66.2	3.6	1.51e+00	0	31	104	0	60	100070
2026-01-06 19:18:02.51	4.52	14.46	-50.9	-66.3	3.6	1.51e+00	0	31	104	0	60	100447
2026-01-06 19:18:03.52	4.31	14.48	-50.9	-66.2	3.6	1.51e+00	0	31	104	0	60	99378
2026-01-06 19:18:04.53	4.11	14.50	-50.9	-66.2	3.6	1.51e+00	0	31	104	0	60	99452
2026-01-06 19:18:05.54	3.90	14.51	-50.9	-66.2	3.6	1.51e+00	0	31	104	0	60	99926
2026-01-06 19:18:06.56	3.69	14.53	-50.9	-66.2	3.6	1.51e+00	0	31	104	0	60	100060
2026-01-06 19:18:07.57	3.48	14.55	-50.9	-66.2	3.6	1.51e+00	0	31	104	0	60	99753
2026-01-06 19:18:08.58	3.27	14.56	-50.9	-66.2	3.6	1.51e+00	0	31	104	0	60	99643
2026-01-06 19:18:09.59	3.07	14.58	-50.9	-66.3	3.6	1.51e+00	0	31	104	0	60	100288
2026-01-06 19:18:10.60	2.86	14.59	-50.8	-66.2	3.6	1.51e+00	0	31	104	0	60	100061
2026-01-06 19:18:11.61	2.65	14.61	-50.8	-66.2	3.6	1.51e+00	0	31	104	0	60	99708
2026-01-06 19:18:12.62	2.44	14.62	-50.8	-66.2	3.6	1.51e+00	0	31	104	0	60	99984
2026-01-06 19:18:13.63	2.23	14.64	-50.8	-66.2	3.6	1.51e+00	0	31	104	0	60	99983
2026-01-06 19:18:14.64	2.02	14.65	-50.8	-66.2	3.6	1.51e+00	0	31	104	0	60	99917
2026-01-06 19:18:15.65	1.81	14.66	-50.8	-66.2	3.6	1.51e+00	0	31	104	0	60	99571
2026-01-06 19:18:16.66	1.60	14.68	-50.8	-66.2	3.6	1.51e+00	0	31	104	0	60	99382
2026-01-06 19:18:17.67	1.39	14.69	-50.8	-66.2	3.6	1.51e+00	0	31	104	0	60	99308
2026-01-06 19:18:18.68	1.18	14.70	-50.8	-66.2	3.6	1.51e+00	0	31	104	0	60	99788
2026-01-06 19:18:19.69	0.97	14.71	-50.8	-66.2	3.6	1.51e+00	0	31	104	0	60	99433
2026-01-06 19:18:20.70	0.76	14.72	-50.8	-66.2	3.6	1.51e+00	0	31	104	0	60	99555
2026-01-06 19:18:21.71	0.55	14.74	-50.8	-66.2	3.6	1.51e+00	0	31	104	0	60	99592
2026-01-06 19:18:22.72	0.34	14.75	-50.8	-66.2	3.6	1.51e+00	0	31	104	0	60	99004
2026-01-06 19:18:23.73	0.13	14.76	-50.8	-66.2	3.6	1.51e+00	0	31	104	0	60	99290
2026-01-06 19:18:24.74	359.92	14.77	-50.8	-66.2	3.6	1.51e+00	0	31	104	0	60	99415
2026-01-06 19:18:25.75	359.71	14.78	-50.8	-66.2	3.6	1.51e+00	0	31	104	0	60	99253
2026-01-06 19:18:26.76	359.50	14.79	-50.8	-66.2	3.6	1.51e+00	0	31	104	0	60	99455
2026-01-06 19:18:27.77	359.28	14.79	-50.8	-66.2	3.6	1.51e+00	0	31	104	0	60	99562
2026-01-06 19:18:28.78	359.07	14.80	-50.8	-66.2	3.6	1.51e+00	0	31	104	0	60	99225
2026-01-06 19:18:29.79	358.86	14.81	-50.8	-66.2	3.6	1.51e+00	0	31	104	0	60	99161
2026-01-06 19:18:30.80	358.65	14.82	-50.8	-66.2	3.6	1.51e+00	0	31	104	0	60	99220
2026-01-06 19:18:31.81	358.44	14.83	-50.8	-66.2	3.6	1.51e+00	0	31	104	0	60	99076
2026-01-06 19:18:32.82	358.23	14.83	-50.8	-66.2	3.6	1.51e+00	0	31	104	0	60	99493
2026-01-06 19:18:33.82	358.02	14.84	-50.8	-66.2	3.6	1.51e+00	0	31	104	0	60	99114
2026-01-06 19:18:34.83	357.80	14.84	-50.8	-66.1	3.6	1.51e+00	0	31	104	0	60	98553
2026-01-06 19:18:35.84	357.59	14.85	-50.8	-66.1	3.6	1.51e+00	0	31	104	0	60	98928
2026-01-06 19:18:36.85	357.38	14.86	-50.8	-66.2	3.6	1.51e+00	0	31	104	0	60	99320
2026-01-06 19:18:37.86	357.17	14.86	-50.8	-66.2	3.6	1.51e+00	0	31	104	0	60	99310
2026-01-06 19:18:38.87	356.95	14.86	-50.8	-66.1	3.6	1.51e+00	0	31	104	0	60	98770
2026-01-06 19:18:39.88	356.74	14.87	-50.8	-66.1	3.6	1.51e+00	0	31	104	0	60	98567
2026-01-06 19:18:40.89	356.53	14.87	-50.8	-66.1	3.6	1.51e+00	0	31	104	0	60	98866
2026-01-06 19:18:41.90	356.32	14.88	-50.8	-66.1	3.6	1.51e+00	0	31	104	0	60	98572
2026-01-06 19:18:42.91	356.10	14.88	-50.8	-66.1	3.6	1.51e+00	0	31	104	0	60	98472
2026-01-06 19:18:43.92	355.89	14.88	-50.8	-66.2	3.6	1.51e+00	0	31	104	0	60	99120
2026-01-06 19:18:44.93	355.68	14.88	-50.8	-66.1	3.6	1.51e+00	0	31	104	0	60	98705
2026-01-06 19:18:45.94	355.47	14.89	-50.8	-66.1	3.6	1.51e+00	0	31	104	0	60	98662
2026-01-06 19:18:46.95	355.25	14.89	-50.8	-66.1	3.6	1.51e+00	0	31	104	0	60	98450
2026-01-06 19:18:47.96	355.04	14.89	-50.8	-66.1	3.6	1.51e+00	0	31	104	0	60	98882
2026-01-06 19:18:48.97	354.83	14.89	-50.8	-66.1	3.6	1.51e+00	0	31	104	0	60	98096
2026-01-06 19:18:49.98	354.62	14.89	-50.8	-66.1	3.6	1.51e+00	0	31	104	0	60	98559
2026-01-06 19:18:50.99	354.40	14.89	-50.7	-66.1	3.6	1.51e+00	0	31	104	0	60	98339
2026-01-06 19:18:52.00	354.19	14.89	-50.7	-66.1	3.6	1.51e+00	0	31	104	0	60	98296
2026-01-06 19:18:53.01	353.98	14.89	-50.7	-66.1	3.6	1.51e+00	0	31	104	0	60	98203
2026-01-06 19:18:54.02	353.76	14.88	-50.7	-66.1	3.5	1.51e+00	0	31	104	0	60	98397
2026-01-06 19:18:55.03	353.55	14.88	-50.7	-66.1	3.6	1.51e+00	0	31	104	0	60	97983
2026-01-06 19:18:56.05	353.34	14.88	-50.7	-66.0	3.6	1.51e+00	0	31	104	0	60	97782
2026-01-06 19:18:57.06	353.12	14.88	-50.7	-66.1	3.6	1.51e+00	0	31	104	0	60	98525
2026-01-06 19:18:58.07	352.91	14.87	-50.7	-66.1	3.6	1.51e+00	0	31	104	0	60	98313
2026-01-06 19:18:59.08	352.70	14.87	-50.7	-66.1	3.6	1.51e+00	0	31	104	0	60	98364
2026-01-06 19:19:00.09	352.49	14.87	-50.7	-66.1	3.6	1.51e+00	0	31	104	0	60	98040
2026-01-06 19:19:01.10	352.27	14.86	-50.7	-66.0	3.6	1.51e+00	0	31	104	0	60	97718
2026-01-06 19:19:02.11	352.06	14.86	-50.7	-66.1	3.6	1.51e+00	0	31	104	0	60	98240
2026-01-06 19:19:03.12	351.85	14.85	-50.7	-66.0	3.6	1.51e+00	0	31	104	0	60	97838
2026-01-06 19:19:04.13	351.64	14.85	-50.7	-66.1	3.6	1.51e+00	0	31	104	0	60	97919
2026-01-06 19:19:05.14	351.42	14.84	-50.7	-66.0	3.6	1.51e+00	0	31	104	0	60	97496
2026-01-06 19:19:06.16	351.21	14.84	-50.7	-66.1	3.6	1.51e+00	0	31	104	0	60	98027
2026-01-06 19:19:07.17	351.00	14.83	-50.7	-66.1	3.6	1.51e+00	0	31	104	0	60	98024
2026-01-06 19:19:08.18	350.79	14.82	-50.7	-66.1	3.6	1.51e+00	0	31	104	0	60	98017
2026-01-06 19:19:09.19	350.57	14.81	-50.7	-66.0	3.6	1.51e+00	0	31	104	0	60	97816
2026-01-06 19:19:10.20	350.36	14.81	-50.7	-66.0	3.6	1.51e+00	0	31	104	0	60	97736
2026-01-06 19:19:11.21	350.15	14.80	-50.7	-66.0	3.6	1.51e+00	0	31	104	0	60	97813
2026-01-06 19:19:12.22	349.94	14.79	-50.7	-66.0	3.6	1.51e+00	0	31	104	0	60	96964
2026-01-06 19:19:13.23	349.73	14.78	-50.6	-66.0	3.6	1.51e+00	0	31	104	0	60	97418
2026-01-06 19:19:14.24	349.52	14.77	-50.7	-66.0	3.6	1.51e+00	0	31	104	0	60	97503
2026-01-06 19:19:15.25	349.31	14.76	-50.6	-66.1	3.6	1.51e+00	0	31	104	0	60	97991
2026-01-06 19:19:16.26	349.10	14.75	-50.6	-66.0	3.6	1.51e+00	0	31	104	0	60	97128
2026-01-06 19:19:17.27	348.88	14.74	-50.6	-66.0	3.6	1.51e+00	0	31	104	0	60	96756
2026-01-06 19:19:18.28	348.67	14.73	-50.6	-66.0	3.6	1.51e+00	0	31	104	0	60	96876
2026-01-06 19:19:19.29	348.46	14.72	-50.6	-66.0	3.5	1.51e+00	0	31	104	0	60	97064
2026-01-06 19:19:20.30	348.25	14.71	-50.6	-66.0	3.6	1.51e+00	0	31	104	0	60	96923
2026-01-06 19:19:21.32	348.04	14.70	-50.6	-66.0	3.6	1.51e+00	0	31	104	0	60	96835
2026-01-06 19:19:22.33	347.83	14.68	-50.6	-66.0	3.6	1.51e+00	0	31	104	0	60	97542
2026-01-06 19:19:23.34	347.62	14.67	-50.6	-66.0	3.6	1.51e+00	0	31	104	0	60	96772
2026-01-06 19:19:24.35	347.41	14.66	-50.6	-65.9	3.6	1.51e+00	0	31	104	0	60	96638
2026-01-06 19:19:25.36	347.20	14.64	-50.6	-65.9	3.6	1.51e+00	0	31	104	0	60	96204
2026-01-06 19:19:26.37	346.99	14.63	-50.6	-65.9	3.6	1.51e+00	0	31	104	0	60	96618
2026-01-06 19:19:27.38	346.78	14.62	-50.6	-66.0	3.6	1.51e+00	0	31	104	0	60	96867
2026-01-06 19:19:28.39	346.58	14.60	-50.6	-65.9	3.6	1.51e+00	0	31	104	0	60	96173
2026-01-06 19:19:29.40	346.37	14.59	-50.6	-65.9	3.6	1.51e+00	0	31	104	0	60	96623
2026-01-06 19:19:30.42	346.16	14.57	-50.6	-65.9	3.6	1.51e+00	0	31	104	0	60	96085
2026-01-06 19:19:31.43	345.95	14.55	-50.5	-65.9	3.6	1.51e+00	0	31	104	0	60	96129
2026-01-06 19:19:32.44	345.74	14.54	-50.6	-65.9	3.6	1.51e+00	0	31	104	0	60	96092
2026-01-06 19:19:33.45	345.53	14.52	-50.5	-65.9	3.6	1.51e+00	0	31	104	0	60	96169
2026-01-06 19:19:34.46	345.33	14.50	-50.5	-65.9	3.6	1.51e+00	0	31	104	0	60	95884
2026-01-06 19:19:35.47	345.12	14.49	-50.5	-65.9	3.6	1.51e+00	0	31	104	0	60	95939
2026-01-06 19:19:36.49	344.91	14.47	-50.5	-65.9	3.6	1.51e+00	0	31	104	0	60	96006
2026-01-06 19:19:37.50	344.70	14.45	-50.5	-65.9	3.5	1.51e+00	0	31	104	0	60	95972
2026-01-06 19:19:38.51	344.50	14.43	-50.5	-65.8	3.6	1.51e+00	0	31	104	0	60	95262
2026-01-06 19:19:39.52	344.29	14.41	-50.5	-65.8	3.6	1.51e+00	0	31	104	0	60	95584
2026-01-06 19:19:40.53	344.08	14.40	-50.5	-65.8	3.6	1.51e+00	0	31	104	0	60	95566
2026-01-06 19:19:41.54	343.88	14.38	-50.5	-65.8	3.6	1.51e+00	0	31	104	0	60	95346
2026-01-06 19:19:42.55	343.67	14.36	-50.5	-65.9	3.6	1.51e+00	0	31	104	0	60	95712
2026-01-06 19:19:43.56	343.47	14.34	-50.5	-65.8	3.6	1.51e+00	0	31	104	0	60	94942
2026-01-06 19:19:44.57	343.26	14.32	-50.5	-65.8	3.6	1.51e+00	0	31	104	0	60	95435
2026-01-06 19:19:45.58	343.06	14.30	-50.5	-65.8	3.6	1.51e+00	0	31	104	0	60	94802
2026-01-06 19:19:46.60	342.85	14.27	-50.4	-65.8	3.6	1.51e+00	0	31	104	0	60	95064
2026-01-06 19:19:47.61	342.65	14.25	-50.4	-65.8	3.6	1.51e+00	0	31	104	0	60	94896
2026-01-06 19:19:48.62	342.44	14.23	-50.4	-65.8	3.6	1.51e+00	0	31	104	0	60	95134
2026-01-06 19:19:49.63	342.24	14.21	-50.4	-65.8	3.6	1.51e+00	0	31	104	0	60	94877
2026-01-06 19:19:50.64	342.04	14.19	-50.4	-65.8	3.6	1.51e+00	0	31	104	0	60	94584
2026-01-06 19:19:51.65	341.84	14.16	-50.4	-65.8	3.6	1.51e+00	0	31	104	0	60	94691
2026-01-06 19:19:52.66	341.63	14.14	-50.4	-65.7	3.6	1.51e+00	0	31	104	0	60	94381
2026-01-06 19:19:53.67	341.43	14.12	-50.4	-65.8	3.6	1.51e+00	0	31	104	0	60	94833
2026-01-06 19:19:54.68	341.23	14.09	-50.4	-65.7	3.6	1.51e+00	0	31	104	0	60	94392
2026-01-06 19:19:55.69	341.03	14.07	-50.4	-65.7	3.6	1.51e+00	0	31	104	0	60	94478
2026-01-06 19:19:56.70	340.83	14.04	-50.4	-65.8	3.6	1.51e+00	0	31	104	0	60	94571
2026-01-06 19:19:57.71	340.63	14.02	-50.4	-65.7	3.6	1.51e+00	0	31	104	0	60	94352
2026-01-06 19:19:58.72	340.43	13.99	-50.3	-65.7	3.6	1.51e+00	0	31	104	0	60	94448
2026-01-06 19:19:59.74	340.22	13.97	-50.3	-65.7	3.6	1.51e+00	0	31	104	0	60	93848
2026-01-06 19:20:00.75	340.02	13.94	-50.3	-65.7	3.6	1.51e+00	0	31	104	0	60	93971
2026-01-06 19:20:01.76	339.82	13.92	-50.3	-65.7	3.6	1.51e+00	0	31	104	0	60	93551
2026-01-06 19:20:02.77	339.63	13.89	-50.3	-65.7	3.6	1.51e+00	0	31	104	0	60	93866
2026-01-06 19:20:03.78	339.43	13.86	-50.3	-65.7	3.6	1.51e+00	0	31	104	0	60	93848
2026-01-06 19:20:04.79	339.23	13.84	-50.3	-65.6	3.6	1.51e+00	0	31	104	0	60	93442
2026-01-06 19:20:05.80	339.03	13.81	-50.3	-65.6	3.6	1.51e+00	0	31	104	0	60	93313
2026-01-06 19:20:06.81	338.83	13.78	-50.3	-65.7	3.6	1.51e+00	0	31	104	0	60	93459
2026-01-06 19:20:07.82	338.64	13.75	-50.2	-65.6	3.6	1.51e+00	0	31	104	0	60	92819
2026-01-06 19:20:08.83	338.44	13.72	-50.2	-65.6	3.6	1.51e+00	0	31	104	0	60	92820
2026-01-06 19:20:09.84	338.24	13.70	-50.2	-65.6	3.6	1.51e+00	0	31	104	0	60	92712
2026-01-06 19:20:10.85	338.05	13.67	-50.2	-65.6	3.6	1.51e+00	0	31	104	0	60	92869
2026-01-06 19:20:11.86	337.85	13.64	-50.2	-65.6	3.6	1.51e+00	0	31	104	0	60	92660
2026-01-06 19:20:12.87	337.66	13.61	-50.2	-65.6	3.6	1.51e+00	0	31	104	0	60	93047
2026-01-06 19:20:13.88	337.46	13.58	-50.2	-65.5	3.6	1.51e+00	0	31	104	0	60	92140
2026-01-06 19:20:14.89	337.27	13.55	-50.2	-65.6	3.6	1.51e+00	0	31	104	0	60	92447
2026-01-06 19:20:15.91	337.07	13.52	-50.1	-65.5	3.6	1.51e+00	0	31	104	0	60	92124
2026-01-06 19:20:16.92	336.88	13.49	-50.1	-65.5	3.6	1.51e+00	0	31	104	0	60	91522
2026-01-06 19:20:17.93	336.68	13.46	-50.1	-65.5	3.6	1.51e+00	0	31	104	0	60	91782
2026-01-06 19:20:18.94	336.49	13.42	-50.1	-65.5	3.6	1.51e+00	0	31	104	0	60	91650
2026-01-06 19:20:19.95	336.30	13.39	-50.1	-65.4	3.6	1.51e+00	0	31	104	0	60	91085
2026-01-06 19:20:20.96	336.11	13.36	-50.1	-65.4	3.6	1.51e+00	0	31	104	0	60	90921
2026-01-06 19:20:21.97	335.92	13.33	-50.1	-65.4	3.6	1.51e+00	0	31	104	0	60	90991
2026-01-06 19:20:22.98	335.72	13.30	-50.0	-65.4	3.6	1.51e+00	0	31	104	0	60	90960
2026-01-06 19:20:23.99	335.53	13.26	-50.0	-65.4	3.6	1.51e+00	0	31	104	0	60	90497
2026-01-06 19:20:25.00	335.34	13.23	-50.0	-65.4	3.6	1.51e+00	0	31	104	0	60	90304
2026-01-06 19:20:26.01	335.15	13.20	-50.0	-65.3	3.6	1.51e+00	0	31	104	0	60	89771
2026-01-06 19:20:27.02	334.96	13.16	-50.0	-65.4	3.6	1.51e+00	0	31	104	0	60	90471
2026-01-06 19:20:28.03	334.78	13.13	-50.0	-65.3	3.6	1.51e+00	0	31	104	0	60	89857
2026-01-06 19:20:29.04	334.59	13.10	-50.0	-65.3	3.6	1.51e+00	0	31	104	0	60	89947
2026-01-06 19:20:30.06	334.40	13.06	-49.9	-65.3	3.6	1.51e+00	0	31	104	0	60	89768
2026-01-06 19:20:31.07	334.21	13.03	-49.9	-65.2	3.6	1.51e+00	0	31	104	0	60	89068
2026-01-06 19:20:32.08	334.02	12.99	-49.9	-65.3	3.6	1.51e+00	0	31	104	0	60	89382
2026-01-06 19:20:33.09	333.84	12.96	-49.9	-65.2	3.6	1.51e+00	0	31	104	0	60	89088
2026-01-06 19:20:34.10	333.65	12.92	-49.9	-65.3	3.6	1.51e+00	0	31	104	0	60	89276
2026-01-06 19:20:35.11	333.46	12.89	-49.8	-65.2	3.5	1.51e+00	0	31	104	0	60	88348
2026-01-06 19:20:36.12	333.28	12.85	-49.8	-65.2	3.6	1.51e+00	0	31	104	0	60	88688
2026-01-06 19:20:37.13	333.09	12.82	-49.8	-65.2	3.6	1.51e+00	0	31	104	0	60	88294
2026-01-06 19:20:38.14	332.91	12.78	-49.8	-65.1	3.6	1.51e+00	0	31	104	0	60	87636
2026-01-06 19:20:39.15	332.72	12.74	-49.7	-65.1	3.6	1.51e+00	0	31	104	0	60	87497
2026-01-06 19:20:40.16	332.54	12.71	-49.7	-65.0	3.6	1.51e+00	0	31	104	0	60	86995
2026-01-06 19:20:41.17	332.36	12.67	-49.7	-65.0	3.6	1.51e+00	0	31	104	0	60	87196
2026-01-06 19:20:42.18	332.18	12.63	-49.7	-65.0	3.6	1.51e+00	0	31	104	0	60	86726
2026-01-06 19:20:43.19	331.99	12.60	-49.7	-65.0	3.6	1.51e+00	0	31	104	0	60	86902
2026-01-06 19:20:44.20	331.81	12.56	-49.6	-65.0	3.6	1.51e+00	0	32	104	0	60	86553
2026-01-06 19:20:45.22	331.63	12.52	-49.6	-64.9	3.6	1.51e+00	0	31	104	0	60	85824
2026-01-06 19:20:46.23	331.45	12.48	-49.6	-64.9	3.6	1.51e+00	0	31	104	0	60	85802
2026-01-06 19:20:47.24	331.27	12.44	-49.5	-64.9	3.6	1.51e+00	0	31	104	0	60	85953
2026-01-06 19:20:48.25	331.09	12.41	-49.5	-64.9	3.6	1.51e+00	0	31	104	0	60	85509
2026-01-06 19:20:49.26	330.91	12.37	-49.6	-65.0	3.6	1.51e+00	0	31	104	0	60	86235
2026-01-06 19:20:50.27	330.73	12.33	-50.2	-65.6	3.6	1.51e+00	0	31	104	0	60	93312
2026-01-06 19:20:51.28	330.55	12.29	-50.5	-65.8	3.6	1.51e+00	0	31	104	0	60	95517
2026-01-06 19:20:52.29	330.37	12.25	-50.6	-66.0	3.6	1.51e+00	0	31	104	0	60	97517
2026-01-06 19:20:53.30	330.20	12.21	-50.7	-66.1	3.6	1.51e+00	0	31	104	0	60	97882
2026-01-06 19:20:54.31	330.02	12.17	-50.8	-66.2	3.6	1.51e+00	0	31	104	0	60	99045
2026-01-06 19:20:55.32	329.84	12.13	-50.9	-66.3	3.5	1.51e+00	0	31	104	0	60	100386
2026-01-06 19:20:56.34	329.67	12.09	-51.0	-66.3	3.6	1.51e+00	0	31	104	0	60	100954
2026-01-06 19:20:57.34	329.49	12.05	-51.0	-66.4	3.6	1.51e+00	0	31	104	0	60	101408
2026-01-06 19:20:58.35	329.32	12.01	-51.0	-66.4	3.6	1.51e+00	0	31	104	0	60	101661
2026-01-06 19:20:59.36	329.14	11.97	-51.1	-66.5	3.6	1.51e+00	0	31	104	0	60	102508
2026-01-06 19:21:00.38	328.97	11.93	-51.1	-66.4	3.6	1.51e+00	0	31	104	0	60	102349
2026-01-06 19:21:01.39	328.79	11.89	-51.0	-66.6	3.6	1.51e+00	0	31	104	0	60	103829
2026-01-06 19:21:02.40	328.62	11.84	-51.2	-66.6	3.6	1.51e+00	0	31	104	0	60	104098
2026-01-06 19:21:03.41	328.45	11.80	-51.4	-66.8	3.6	1.51e+00	0	31	104	0	60	107096
2026-01-06 19:21:04.42	328.28	11.76	-51.1	-66.6	3.6	1.51e+00	0	31	104	0	60	104775
2026-01-06 19:21:05.43	328.10	11.72	-50.9	-66.6	3.6	1.51e+00	0	31	104	0	60	103724
2026-01-06 19:21:06.44	327.93	11.68	-50.9	-66.5	3.6	1.51e+00	0	31	104	0	60	103574
2026-01-06 19:21:07.45	327.76	11.64	-50.8	-66.5	3.6	1.51e+00	0	31	104	0	60	103519
2026-01-06 19:21:08.46	327.59	11.59	-51.1	-66.6	3.6	1.51e+00	0	31	104	0	60	103837
2026-01-06 19:21:09.47	327.42	11.55	-51.1	-66.6	3.6	1.51e+00	0	31	104	0	60	104452
2026-01-06 19:21:10.48	327.25	11.51	-51.0	-66.5	3.6	1.51e+00	0	31	104	0	60	103407
2026-01-06 19:21:11.49	327.09	11.46	-50.9	-66.5	3.6	1.51e+00	0	31	104	0	60	103091
2026-01-06 19:21:12.50	326.92	11.42	-51.0	-66.5	3.6	1.51e+00	0	31	104	0	60	102651
2026-01-06 19:21:13.51	326.75	11.38	-50.9	-66.4	3.6	1.51e+00	0	31	104	0	60	101840
2026-01-06 19:21:14.52	326.58	11.34	-51.0	-66.4	3.6	1.51e+00	0	31	104	0	60	101563
2026-01-06 19:21:15.53	326.42	11.29	-51.0	-66.4	3.6	1.51e+00	0	31	104	0	60	101996
2026-01-06 19:21:16.55	326.25	11.25	-51.0	-66.3	3.6	1.51e+00	0	31	104	0	60	101145
2026-01-06 19:21:17.56	326.08	11.20	-50.9	-66.3	3.6	1.51e+00	0	31	104	0	60	101040
2026-01-06 19:21:18.57	325.92	11.16	-50.9	-66.2	3.5	1.51e+00	0	31	104	0	60	99051
2026-01-06 19:21:19.58	325.75	11.12	-50.7	-65.6	3.6	1.51e+00	0	31	104	0	60	92833
2026-01-06 19:21:20.59	325.59	11.07	-44.7	-46.4	17.3	6.98e-01	0	31	104	0	60	10187
2026-01-06 19:21:21.60	325.43	11.03	-48.1	-52.0	9.6	0.00e+00	75	31	0	0	60	19479
2026-01-06 19:21:22.61	325.26	10.98	-42.7	-43.8	20.5	2.35e-02	0	31	102	1048576	60	7589
2026-01-06 19:21:23.62	325.10	10.94	-45.9	-48.1	11.4	0.00e+00	0	31	102	1048576	60	12460
2026-01-06 19:21:24.63	324.94	10.89	-48.0	-51.7	13.2	1.40e+00	0	31	104	1048576	60	18761
2026-01-06 19:21:25.65	324.78	10.85	-45.4	-47.4	16.8	0.00e+00	0	31	0	1048576	60	11427
2026-01-06 19:21:26.66	324.61	10.80	-43.7	-45.2	19.8	5.57e-04	0	31	0	1048576	60	8834
2026-01-06 19:21:27.67	324.45	10.76	-43.4	-44.8	19.9	0.00e+00	0	31	0	1048576	60	8465
2026-01-06 19:21:28.68	324.29	10.71	-42.3	-43.5	21.2	0.00e+00	92	31	0	1048576	60	7275
2026-01-06 19:21:29.69	324.13	10.67	-42.3	-43.5	20.9	0.00e+00	0	31	0	1048576	60	7321
2026-01-06 19:21:30.70	323.98	10.62	-42.8	-44.1	20.6	0.00e+00	12	31	0	1048576	60	7856
2026-01-06 19:21:31.71	323.82	10.57	-43.0	-44.3	20.3	0.00e+00	0	31	0	1048576	60	7992
2026-01-06 19:21:32.72	323.66	10.53	-43.3	-44.7	19.9	0.00e+00	0	31	0	1048576	60	8401
2026-01-06 19:21:33.73	323.50	10.48	-43.8	-45.4	19.4	0.00e+00	0	31	0	1048576	60	9082
2026-01-06 19:21:34.74	323.35	10.44	-44.4	-46.2	18.5	0.00e+00	0	31	0	1048576	60	9923
2026-01-06 19:21:35.75	323.19	10.39	-44.8	-46.6	18.4	0.00e+00	92	31	0	1048576	60	10429
2026-01-06 19:21:36.77	323.03	10.34	-45.1	-47.0	17.8	0.00e+00	0	31	0	1048576	60	10967
2026-01-06 19:21:37.78	322.88	10.30	-45.1	-47.0	17.9	0.00e+00	92	31	0	1048576	60	10871
2026-01-06 19:21:38.79	322.72	10.25	-44.5	-46.3	18.6	0.00e+00	0	31	0	1048576	60	10043
2026-01-06 19:21:39.80	322.57	10.20	-44.5	-46.2	18.7	0.00e+00	0	31	0	1048576	60	9957
2026-01-06 19:21:40.81	322.41	10.16	-44.4	-46.1	18.8	0.00e+00	0	31	0	1048576	60	9852
2026-01-06 19:21:41.82	322.26	10.11	-44.2	-45.8	19.1	0.00e+00	0	31	0	1048576	60	9522
2026-01-06 19:21:42.83	322.11	10.06	-44.0	-45.6	19.1	0.00e+00	45	31	101	1048576	60	9253
2026-01-06 19:21:43.84	321.95	10.01	-44.2	-45.8	19.1	0.00e+00	0	31	101	1048576	60	9475
2026-01-06 19:21:44.85	321.80	9.97	-43.9	-45.5	19.4	0.00e+00	90	31	101	1048576	60	9132
2026-01-06 19:21:45.86	321.65	9.92	-43.8	-45.3	19.6	0.00e+00	0	31	101	1048576	60	8935
2026-01-06 19:21:46.87	321.50	9.87	-43.7	-45.2	19.6	0.00e+00	0	31	101	1048576	60	8873
2026-01-06 19:21:47.89	321.35	9.82	-43.5	-45.0	19.8	0.00e+00	0	31	101	1048576	60	8646
2026-01-06 19:21:48.90	321.20	9.78	-43.2	-44.6	20.2	0.00e+00	0	31	101	1048576	60	8284
2026-01-06 19:21:49.91	321.05	9.73	-43.1	-44.5	20.1	0.00e+00	48	31	101	1048576	60	8161
2026-01-06 19:21:50.92	320.90	9.68	-43.0	-44.3	20.3	0.00e+00	0	31	101	1048576	60	7977
2026-01-06 19:21:51.93	320.75	9.63	-43.0	-44.3	20.4	0.00e+00	72	31	101	1048576	60	8002
2026-01-06 19:21:52.94	320.60	9.58	-43.1	-44.4	20.3	0.00e+00	0	31	101	1048576	60	8120
2026-01-06 19:21:53.95	320.46	9.54	-43.1	-44.4	20.3	0.00e+00	0	31	101	1048576	60	8109
2026-01-06 19:21:54.96	320.31	9.49	-42.8	-44.1	20.5	0.00e+00	0	31	101	1048576	60	7790
2026-01-06 19:21:55.97	320.16	9.44	-43.0	-44.3	20.4	0.00e+00	0	31	101	1048576	60	7960
2026-01-06 19:21:56.98	320.02	9.39	-43.0	-44.3	20.2	0.00e+00	16	31	101	1048576	60	8027
2026-01-06 19:21:58.00	319.87	9.34	-42.9	-44.2	20.4	0.00e+00	0	31	101	1048576	60	7890
2026-01-06 19:21:59.01	319.73	9.29	-42.7	-44.0	20.6	0.00e+00	92	31	101	1048576	60	7734
2026-01-06 19:22:00.02	319.58	9.24	-42.7	-43.9	20.7	0.00e+00	0	31	101	1048576	60	7634
2026-01-06 19:22:01.03	319.44	9.20	-42.5	-43.7	20.9	0.00e+00	0	31	101	1048576	60	7456
2026-01-06 19:22:02.04	319.29	9.15	-42.2	-43.4	21.1	0.00e+00	0	31	101	1048576	60	7207
2026-01-06 19:22:03.05	319.15	9.10	-42.1	-43.3	21.1	0.00e+00	0	31	101	1048576	60	7120
2026-01-06 19:22:04.06	319.01	9.05	-42.0	-43.2	21.4	0.00e+00	54	31	101	1048576	60	7015
2026-01-06 19:22:05.07	318.87	9.00	-41.9	-43.1	21.4	0.00e+00	0	31	101	1048576	60	6941
2026-01-06 19:22:06.08	318.73	8.95	-41.8	-43.0	21.5	0.00e+00	91	31	101	1048576	60	6880
2026-01-06 19:22:07.09	318.58	8.90	-41.8	-43.0	21.5	0.00e+00	0	31	101	1048576	60	6864
2026-01-06 19:22:08.10	318.44	8.85	-41.8	-43.0	21.5	0.00e+00	7	31	101	1048576	60	6888
2026-01-06 19:22:09.11	318.30	8.80	-41.8	-43.0	21.5	0.00e+00	0	31	101	1048576	60	6878
2026-01-06 19:22:10.12	318.16	8.75	-42.0	-43.2	21.4	0.00e+00	0	31	101	1048576	60	7017
2026-01-06 19:22:11.13	318.02	8.70	-41.9	-43.1	21.4	0.00e+00	41	31	101	1048576	60	6947
2026-01-06 19:22:12.14	317.89	8.65	-41.9	-43.1	21.4	0.00e+00	0	31	101	1048576	60	6969
2026-01-06 19:22:13.15	317.75	8.60	-42.1	-43.3	21.1	0.00e+00	92	31	101	1048576	60	7089
2026-01-06 19:22:14.17	317.61	8.55	-42.1	-43.3	21.1	0.00e+00	0	31	101	1048576	60	7159
2026-01-06 19:22:15.18	317.47	8.50	-42.3	-43.5	21.0	0.00e+00	92	31	101	1048576	60	7276
2026-01-06 19:22:16.19	317.34	8.45	-42.3	-43.6	21.0	0.00e+00	0	31	101	1048576	60	7360
2026-01-06 19:22:17.20	317.20	8.40	-42.4	-43.6	20.8	0.00e+00	0	31	101	1048576	60	7408
2026-01-06 19:22:18.21	317.06	8.35	-42.7	-44.0	20.6	0.00e+00	0	31	101	1048576	60	7708
2026-01-06 19:22:19.22	316.93	8.30	-42.5	-43.7	20.6	0.00e+00	0	31	101	1048576	60	7488
2026-01-06 19:22:20.23	316.79	8.25	-42.5	-43.7	20.7	0.00e+00	42	31	101	1048576	60	7488
2026-01-06 19:22:21.24	316.66	8.20	-42.3	-43.6	20.9	0.00e+00	0	31	101	1048576	60	7352
2026-01-06 19:22:22.25	316.53	8.15	-42.5	-43.7	20.8	0.00e+00	67	31	101	1048576	60	7482
2026-01-06 19:22:23.26	316.39	8.10	-42.3	-43.5	21.0	0.00e+00	0	31	101	1048576	60	7310
2026-01-06 19:22:24.27	316.26	8.05	-42.4	-43.6	20.8	0.00e+00	0	31	101	1048576	60	7386
2026-01-06 19:22:25.28	316.13	8.00	-42.3	-43.6	20.9	0.00e+00	0	31	101	1048576	60	7341
2026-01-06 19:22:26.29	315.99	7.95	-42.3	-43.5	21.0	0.00e+00	0	31	101	1048576	60	7293
2026-01-06 19:22:27.30	315.86	7.90	-42.3	-43.6	20.9	0.00e+00	44	31	101	1048576	60	7359
2026-01-06 19:22:28.31	315.73	7.85	-42.2	-43.5	21.0	0.00e+00	0	31	101	1048576	60	7267
2026-01-06 19:22:29.32	315.60	7.80	-42.3	-43.6	20.9	0.00e+00	74	31	101	1048576	60	7346
2026-01-06 19:22:30.34	315.47	7.75	-41.9	-43.1	21.2	0.00e+00	0	31	101	1048576	60	6983
2026-01-06 19:22:31.34	315.34	7.70	-41.8	-42.9	21.4	0.00e+00	0	31	101	1048576	60	6824
2026-01-06 19:22:32.35	315.21	7.65	-41.7	-42.8	21.6	0.00e+00	0	31	101	1048576	60	6737
2026-01-06 19:22:33.36	315.08	7.60	-41.6	-42.8	21.6	0.00e+00	0	31	101	1048576	60	6708
2026-01-06 19:22:34.38	314.95	7.55	-41.3	-42.4	22.0	0.00e+00	45	31	101	1048576	60	6404
2026-01-06 19:22:35.39	314.83	7.50	-40.9	-42.0	22.2	0.00e+00	0	31	101	1048576	60	6136
2026-01-06 19:22:36.40	314.70	7.45	-40.9	-42.0	22.1	0.00e+00	38	31	101	1048576	60	6124
2026-01-06 19:22:37.41	314.57	7.40	-40.8	-41.8	22.3	0.00e+00	0	31	101	1048576	60	6031
2026-01-06 19:22:38.42	314.45	7.35	-40.8	-41.9	22.3	0.00e+00	0	31	101	1048576	60	6042
2026-01-06 19:22:39.43	314.32	7.30	-40.7	-41.7	22.4	0.00e+00	0	31	101	1048576	60	5937
2026-01-06 19:22:40.44	314.19	7.24	-41.0	-42.0	22.2	0.00e+00	0	31	101	1048576	60	6169
2026-01-06 19:22:41.45	314.07	7.19	-41.1	-42.1	22.1	0.00e+00	51	31	101	1048576	60	6236
2026-01-06 19:22:42.46	313.95	7.14	-41.2	-42.3	21.9	0.00e+00	0	31	101	1048576	60	6328
2026-01-06 19:22:43.47	313.82	7.09	-41.2	-42.3	21.9	0.00e+00	42	31	101	1048576	60	6351
2026-01-06 19:22:44.48	313.70	7.04	-41.3	-42.3	21.8	0.00e+00	0	31	101	1048576	60	6389
2026-01-06 19:22:45.49	313.57	6.99	-41.0	-42.1	22.1	0.00e+00	12	31	101	1048576	60	6224
2026-01-06 19:22:46.49	313.45	6.94	-40.9	-42.0	22.2	0.00e+00	0	31	101	1048576	60	6147
2026-01-06 19:22:47.50	313.33	6.89	-41.0	-42.1	22.1	0.00e+00	0	31	101	1048576	60	6176
2026-01-06 19:22:48.51	313.21	6.84	-40.9	-41.9	22.3	0.00e+00	0	31	101	1048576	60	6061
2026-01-06 19:22:49.52	313.09	6.79	-40.8	-41.9	22.2	0.00e+00	0	31	101	1048576	60	6052
2026-01-06 19:22:50.53	312.97	6.74	-40.5	-41.6	22.5	0.00e+00	92	31	101	1048576	60	5831
2026-01-06 19:22:51.54	312.84	6.68	-40.8	-41.8	22.3	0.00e+00	0	31	101	1048576	60	6010
2026-01-06 19:22:52.55	312.72	6.63	-40.9	-42.0	22.2	0.00e+00	27	31	101	1048576	60	6115
2026-01-06 19:22:53.56	312.60	6.58	-40.8	-41.8	22.2	0.00e+00	0	31	101	1048576	60	6024
2026-01-06 19:22:54.57	312.49	6.53	-41.0	-42.1	22.1	0.00e+00	0	31	101	1048576	60	6180
2026-01-06 19:22:55.58	312.37	6.48	-41.0	-42.1	22.0	0.00e+00	0	31	101	1048576	60	6202
2026-01-06 19:22:56.60	312.25	6.43	-41.2	-42.3	21.8	0.00e+00	0	31	101	1048576	60	6349
2026-01-06 19:22:57.60	312.13	6.38	-41.3	-42.4	21.7	0.00e+00	43	31	101	1048576	60	6447
2026-01-06 19:22:58.61	312.01	6.33	-41.5	-42.7	21.5	0.00e+00	0	31	101	1048576	60	6650
2026-01-06 19:22:59.62	311.89	6.27	-41.5	-42.7	21.5	0.00e+00	91	31	101	1048576	60	6649
2026-01-06 19:23:00.63	311.78	6.22	-41.6	-42.8	21.5	0.00e+00	0	31	101	1048576	60	6703
2026-01-06 19:23:01.64	311.66	6.17	-41.8	-42.9	21.3	0.00e+00	0	31	101	1048576	60	6846
2026-01-06 19:23:02.65	311.55	6.12	-41.6	-42.8	21.4	0.00e+00	0	31	101	1048576	60	6753
2026-01-06 19:23:03.66	311.43	6.07	-41.9	-43.1	21.1	0.00e+00	0	31	101	1048576	60	6974
2026-01-06 19:23:04.67	311.31	6.02	-41.8	-43.0	21.2	0.00e+00	45	31	101	1048576	60	6904
2026-01-06 19:23:05.68	311.20	5.97	-41.9	-43.1	21.1	0.00e+00	0	31	101	1048576	60	6994
2026-01-06 19:23:06.69	311.09	5.92	-42.0	-43.3	21.0	0.00e+00	78	31	101	1048576	60	7092
2026-01-06 19:23:07.70	310.97	5.86	-42.1	-43.4	20.9	0.00e+00	0	31	101	1048576	60	7186
2026-01-06 19:23:08.71	310.86	5.81	-42.2	-43.4	20.7	0.00e+00	0	31	101	1048576	60	7251
2026-01-06 19:23:09.72	310.75	5.76	-42.1	-43.3	20.6	0.00e+00	0	31	101	1048576	60	7142
2026-01-06 19:23:10.73	310.63	5.71	-42.2	-43.5	20.6	0.00e+00	0	31	101	1048576	60	7270
2026-01-06 19:23:11.74	310.52	5.66	-41.8	-43.0	21.0	0.00e+00	44	31	101	1048576	60	6914
2026-01-06 19:23:12.75	310.41	5.61	-42.1	-43.3	20.9	0.00e+00	0	31	101	1048576	60	7145
2026-01-06 19:23:13.76	310.30	5.56	-42.0	-43.3	20.9	0.00e+00	61	31	101	1048576	60	7095
2026-01-06 19:23:14.77	310.19	5.51	-42.1	-43.3	20.8	0.00e+00	0	31	101	1048576	60	7154
2026-01-06 19:23:15.78	310.08	5.45	-42.0	-43.2	20.9	0.00e+00	8	31	101	1048576	60	7033
2026-01-06 19:23:16.79	309.96	5.40	-41.9	-43.1	20.7	0.00e+00	0	31	101	1048576	60	6946
2026-01-06 19:23:17.80	309.86	5.35	-41.9	-43.1	20.7	0.00e+00	0	31	101	1048576	60	6957
2026-01-06 19:23:18.81	309.75	5.30	-41.9	-43.1	21.1	0.00e+00	0	31	101	1048576	60	6956
2026-01-06 19:23:19.82	309.64	5.25	-41.9	-43.1	21.0	0.00e+00	0	31	101	1048576	60	6973
2026-01-06 19:23:20.83	309.53	5.20	-41.8	-43.0	21.2	0.00e+00	92	31	101	1048576	60	6877
2026-01-06 19:23:21.84	309.42	5.15	-41.9	-43.1	21.0	0.00e+00	0	31	101	1048576	60	6980
2026-01-06 19:23:22.85	309.31	5.09	-41.7	-42.9	21.2	0.00e+00	0	31	101	1048576	60	6785
2026-01-06 19:23:23.86	309.20	5.04	-41.6	-42.7	21.4	0.00e+00	0	31	101	1048576	60	6679
2026-01-06 19:23:24.87	309.10	4.99	-41.5	-42.7	21.3	0.00e+00	0	31	101	1048576	60	6641
2026-01-06 19:23:25.88	308.99	4.94	-41.6	-42.8	21.1	0.00e+00	0	31	101	1048576	60	6733
2026-01-06 19:23:26.89	308.88	4.89	-41.7	-42.9	21.2	0.00e+00	0	31	101	1048576	60	6803
2026-01-06 19:23:27.90	308.78	4.84	-41.7	-42.9	21.2	0.00e+00	64	31	101	1048576	60	6826
2026-01-06 19:23:28.90	308.67	4.79	-41.9	-43.2	20.9	0.00e+00	0	31	101	1048576	60	7023
2026-01-06 19:23:29.91	308.57	4.74	-42.2	-43.4	20.7	0.00e+00	71	31	101	1048576	60	7246
2026-01-06 19:23:30.92	308.46	4.68	-42.3	-43.6	20.6	0.00e+00	0	31	101	1048576	60	7373
2026-01-06 19:23:31.93	308.36	4.63	-42.5	-43.9	20.3	0.00e+00	0	31	101	1048576	60	7636
2026-01-06 19:23:32.94	308.26	4.58	-42.5	-43.8	20.4	0.00e+00	0	31	101	1048576	60	7551
2026-01-06 19:23:33.95	308.15	4.53	-42.7	-44.1	20.0	0.00e+00	0	31	101	1048576	60	7801
2026-01-06 19:23:34.96	308.05	4.48	-42.9	-44.3	19.8	0.00e+00	44	31	101	1048576	60	7981
2026-01-06 19:23:35.97	307.95	4.43	-42.7	-44.1	19.9	0.00e+00	0	31	101	1048576	60	7812
2026-01-06 19:23:36.98	307.84	4.38	-42.8	-44.2	19.8	0.00e+00	92	31	101	1048576	60	7892
2026-01-06 19:23:37.98	307.74	4.33	-42.6	-44.0	20.2	0.00e+00	0	31	101	1048576	60	7698
2026-01-06 19:23:38.99	307.64	4.28	-42.6	-43.9	20.2	0.00e+00	0	31	101	1048576	60	7675
2026-01-06 19:23:40.00	307.54	4.22	-42.3	-43.7	20.4	0.00e+00	0	31	101	1048576	60	7424
2026-01-06 19:23:41.01	307.44	4.17	-42.1	-43.4	20.6	0.00e+00	0	31	101	1048576	60	7218
2026-01-06 19:23:42.02	307.34	4.12	-42.0	-43.2	20.8	0.00e+00	16	31	101	1048576	60	7053
2026-01-06 19:23:43.03	307.24	4.07	-41.9	-43.1	20.9	0.00e+00	0	31	101	1048576	60	6995
2026-01-06 19:23:44.04	307.14	4.02	-41.9	-43.2	20.8	0.00e+00	13	31	101	1048576	60	7027
2026-01-06 19:23:45.05	307.04	3.97	-41.7	-42.9	21.0	0.00e+00	0	31	101	1048576	60	6832
2026-01-06 19:23:46.06	306.94	3.92	-41.6	-42.8	21.1	0.00e+00	0	31	101	1048576	60	6728
2026-01-06 19:23:47.07	306.84	3.87	-42.0	-43.3	20.7	0.00e+00	0	31	101	1048576	60	7108
2026-01-06 19:23:48.08	306.74	3.82	-42.2	-43.5	20.5	0.00e+00	0	31	101	1048576	60	7278
2026-01-06 19:23:49.08	306.64	3.76	-41.7	-42.9	20.9	0.00e+00	48	31	101	1048576	60	6847
2026-01-06 19:23:50.09	306.54	3.71	-41.9	-43.2	20.6	0.00e+00	0	31	101	1048576	60	7041
2026-01-06 19:23:51.10	306.45	3.66	-41.7	-42.9	21.0	0.00e+00	90	31	101	1048576	60	6795
2026-01-06 19:23:52.11	306.35	3.61	-41.5	-42.7	21.0	0.00e+00	0	31	101	1048576	60	6670
2026-01-06 19:23:53.12	306.25	3.56	-41.9	-43.1	20.7	0.00e+00	0	31	101	1048576	60	6970
2026-01-06 19:23:54.13	306.16	3.51	-42.2	-43.5	20.4	0.00e+00	0	31	101	1048576	60	7288
2026-01-06 19:23:55.14	306.06	3.46	-42.4	-43.8	20.2	0.00e+00	0	31	101	1048576	60	7513
2026-01-06 19:23:56.15	305.96	3.41	-42.4	-43.8	19.8	0.00e+00	44	31	101	1048576	60	7542
2026-01-06 19:23:57.16	305.87	3.36	-42.7	-44.1	19.7	0.00e+00	33	31	101	1048576	60	7851
2026-01-06 19:23:58.17	305.77	3.31	-42.9	-44.3	19.6	0.00e+00	37	31	101	1048576	60	8017
2026-01-06 19:23:59.18	305.68	3.26	-43.0	-44.5	19.3	0.00e+00	0	31	101	1048576	60	8206
2026-01-06 19:24:00.19	305.58	3.20	-43.5	-45.1	18.8	0.00e+00	0	31	101	1048576	60	8771
2026-01-06 19:24:01.20	305.49	3.15	-43.6	-45.2	18.7	0.00e+00	0	31	101	1048576	60	8915
2026-01-06 19:24:02.21	305.40	3.10	-43.7	-45.4	18.4	0.00e+00	0	31	101	1048576	60	9120
2026-01-06 19:24:03.22	305.30	3.05	-50.4	-65.8	3.6	1.51e+00	0	31	104	1048576	60	94926
2026-01-06 19:24:04.23	305.21	3.00	-50.8	-66.2	3.6	1.51e+00	0	31	104	1048576	60	99116
2026-01-06 19:24:05.23	305.12	2.95	-51.0	-66.4	3.6	1.51e+00	0	31	104	1048576	60	101638
2026-01-06 19:24:06.24	305.03	2.90	-51.1	-66.5	3.6	1.51e+00	0	31	104	1048576	60	103106
2026-01-06 19:24:07.25	304.93	2.85	-51.2	-66.6	3.6	1.51e+00	0	31	104	1048576	60	104642
2026-01-06 19:24:08.26	304.84	2.80	-51.3	-66.6	3.6	1.51e+00	0	31	104	1048576	60	104679
2026-01-06 19:24:09.27	304.75	2.75	-51.3	-66.7	3.6	1.51e+00	0	31	104	1048576	60	105044
2026-01-06 19:24:10.29	304.66	2.70	-51.3	-66.7	3.6	1.51e+00	0	31	104	1048576	60	105303
2026-01-06 19:24:11.29	304.57	2.65	-51.3	-66.6	3.6	1.51e+00	0	31	104	1048576	60	104618
2026-01-06 19:24:12.30	304.48	2.60	-51.2	-66.6	3.6	1.51e+00	0	31	104	1048576	60	104705
2026-01-06 19:24:13.31	304.39	2.55	-51.2	-66.6	3.6	1.51e+00	0	31	104	1048576	60	104223
2026-01-06 19:24:14.32	304.30	2.50	-51.2	-66.6	3.5	1.51e+00	0	31	104	1048576	60	103912
2026-01-06 19:24:15.33	304.21	2.45	-51.1	-66.5	3.6	1.51e+00	0	31	104	1048576	60	103236
2026-01-06 19:24:16.34	304.12	2.39	-51.2	-66.5	3.6	1.51e+00	0	31	104	1048576	60	103456
2026-01-06 19:24:17.35	304.03	2.34	-51.1	-66.5	3.6	1.51e+00	0	31	104	1048576	60	103173
2026-01-06 19:24:18.36	303.94	2.29	-51.1	-66.5	3.5	1.51e+00	0	31	104	1048576	60	103149
2026-01-06 19:24:19.36	303.85	2.24	-51.2	-66.5	3.6	1.51e+00	0	31	104	1048576	60	103521
2026-01-06 19:24:20.37	303.77	2.19	-51.2	-66.6	3.6	1.51e+00	0	31	104	1048576	60	104380
2026-01-06 19:24:21.38	303.68	2.14	-51.2	-66.6	3.6	1.51e+00	0	31	104	1048576	60	103686
2026-01-06 19:24:22.39	303.59	2.09	-51.2	-66.5	3.6	1.51e+00	0	31	104	1048576	60	103356
2026-01-06 19:24:23.40	303.50	2.04	-51.2	-66.6	3.6	1.51e+00	0	31	104	1048576	60	103653
2026-01-06 19:24:24.41	303.42	1.99	-51.2	-66.5	3.6	1.51e+00	0	31	104	1048576	60	103273
2026-01-06 19:24:25.42	303.33	1.94	-51.2	-66.5	3.6	1.51e+00	0	31	104	1048576	60	103519
2026-01-06 19:24:26.43	303.25	1.89	-51.2	-66.6	3.6	1.51e+00	0	31	104	1048576	60	103661
2026-01-06 19:24:27.44	303.16	1.84	-51.2	-66.5	3.6	1.51e+00	0	31	104	1048576	60	103153
2026-01-06 19:24:28.45	303.07	1.79	-51.2	-66.5	3.6	1.51e+00	0	31	104	1048576	60	103046
2026-01-06 19:24:29.46	302.99	1.74	-51.2	-66.5	3.6	1.51e+00	0	31	104	1048576	60	102898
2026-01-06 19:24:30.47	302.90	1.69	-51.1	-66.5	3.6	1.51e+00	0	31	104	1048576	60	103065
2026-01-06 19:24:31.48	302.82	1.64	-51.1	-66.5	3.6	1.51e+00	0	31	104	1048576	60	103213
2026-01-06 19:24:32.49	302.73	1.59	-51.1	-66.5	3.6	1.51e+00	0	31	104	1048576	60	102846
2026-01-06 19:24:33.50	302.65	1.54	-51.1	-66.5	3.5	1.51e+00	0	31	104	1048576	60	103271
2026-01-06 19:24:34.51	302.57	1.49	-51.1	-66.5	3.6	1.51e+00	0	31	104	1048576	60	103487
2026-01-06 19:24:35.52	302.48	1.44	-51.1	-66.5	3.6	1.51e+00	0	31	104	1048576	60	103195
2026-01-06 19:24:36.53	302.40	1.39	-51.1	-66.5	3.6	1.51e+00	0	31	104	1048576	60	102922
2026-01-06 19:24:37.54	302.32	1.34	-51.1	-66.5	3.6	1.51e+00	0	31	104	1048576	60	102853
2026-01-06 19:24:38.55	302.24	1.29	-51.1	-66.5	3.6	1.51e+00	0	31	104	1048576	60	103493
2026-01-06 19:24:39.56	302.15	1.24	-51.1	-66.5	3.6	1.51e+00	0	31	104	1048576	60	103036
2026-01-06 19:24:40.57	302.07	1.19	-51.1	-66.5	3.6	1.51e+00	0	31	104	1048576	60	103225
2026-01-06 19:24:41.58	301.99	1.14	-51.1	-66.5	3.6	1.51e+00	0	31	104	1048576	60	102775
2026-01-06 19:24:42.59	301.91	1.09	-51.1	-66.5	3.6	1.51e+00	0	31	104	1048576	60	103246
2026-01-06 19:24:43.60	301.83	1.04	-51.1	-66.5	3.6	1.51e+00	0	32	104	1048576	60	103200
2026-01-06 19:24:44.61	301.75	0.99	-51.1	-66.5	3.6	1.51e+00	0	31	104	1048576	60	102837
2026-01-06 19:24:45.62	301.67	0.94	-51.1	-66.5	3.6	1.51e+00	0	31	104	1048576	60	102967
2026-01-06 19:24:46.63	301.58	0.89	-51.1	-66.5	3.6	1.51e+00	0	31	104	1048576	60	102732
2026-01-06 19:24:47.64	301.50	0.84	-51.1	-66.5	3.5	1.51e+00	0	31	104	1048576	60	103054
