passes_logs/2026/01/06/R4.6S_Anadyr_2ch/R4.6S_Anadyr_2ch__20260106_184010_FENGYUN_3E_rec.log

#Pass ID: 20260106_184010_FENGYUN 3E
#Satellite: FENGYUN 3E
#Configuration: FENGYUN 3E
#almurnet v.1.7.20251203
#Start time: 2026-01-06 18:40:13

#Version: 2.2.20231116
#Station: R4.6S_Anadyr_2ch
#Location: 177.4865 lon 64.73178 lat
#TLE: 1 49008U 21062A   25350.97288215  .00000176  00000+0  10353-3 0  9997
#TLE: 2 49008  98.7477 351.4440 0000638 234.3856 125.7261 14.19881381230726

#Time	Az	El	Level	Level2	SNR	BER	BlckErr	Temp	State	Recorded	gain1	gain2
2026-01-06 18:40:13.41	19.89	0.15	-44.3	-46.8	3.9	3.02e+01	2	28	0	0	60	11397
2026-01-06 18:40:14.41	19.90	0.21	-50.6	-62.1	3.6	8.44e-01	0	29	104	0	60	62506
2026-01-06 18:40:15.42	19.92	0.27	-50.6	-62.1	3.6	8.45e-01	0	29	104	0	60	62559
2026-01-06 18:40:16.43	19.93	0.33	-50.6	-62.1	3.6	8.47e-01	0	29	104	0	60	62565
2026-01-06 18:40:17.44	19.95	0.39	-50.5	-62.1	3.6	8.45e-01	0	30	104	0	60	62935
2026-01-06 18:40:18.45	19.96	0.45	-50.7	-62.2	3.6	8.47e-01	0	30	104	0	60	63219
2026-01-06 18:40:19.46	19.97	0.51	-50.7	-62.2	3.6	8.47e-01	0	30	104	0	60	63342
2026-01-06 18:40:20.47	19.99	0.58	-50.8	-62.2	3.6	8.45e-01	0	30	104	0	60	63771
2026-01-06 18:40:21.48	20.00	0.64	-50.8	-62.3	3.6	8.44e-01	0	30	104	0	60	63959
2026-01-06 18:40:22.50	20.02	0.70	-50.8	-62.3	3.6	8.46e-01	0	30	104	0	60	63964
2026-01-06 18:40:23.51	20.03	0.76	-50.9	-62.3	3.6	8.45e-01	0	30	104	0	60	64562
2026-01-06 18:40:24.52	20.05	0.82	-50.8	-62.3	3.6	8.45e-01	0	30	104	0	60	64335
2026-01-06 18:40:25.53	20.06	0.88	-50.7	-62.3	3.6	8.45e-01	0	30	104	0	60	63956
2026-01-06 18:40:26.54	20.08	0.94	-50.7	-62.2	3.6	8.45e-01	0	30	104	0	60	63677
2026-01-06 18:40:27.55	20.09	1.01	-50.7	-62.1	3.6	8.46e-01	0	30	104	0	60	63110
2026-01-06 18:40:28.56	20.11	1.07	-50.0	-62.0	3.6	8.45e-01	0	30	104	0	60	61949
2026-01-06 18:40:29.57	20.12	1.13	-50.3	-61.8	3.6	8.46e-01	0	30	104	0	60	61020
2026-01-06 18:40:30.58	20.14	1.19	-49.5	-61.7	3.6	8.45e-01	0	30	104	0	60	59659
2026-01-06 18:40:31.59	20.15	1.25	-50.0	-61.5	3.6	8.45e-01	0	30	104	0	60	58396
2026-01-06 18:40:32.60	20.17	1.32	-49.8	-61.1	3.6	8.45e-01	0	30	104	0	60	56091
2026-01-06 18:40:33.62	20.18	1.38	-49.4	-60.7	3.6	8.45e-01	0	30	104	0	60	53370
2026-01-06 18:40:34.63	20.20	1.44	-49.3	-60.5	3.6	8.44e-01	0	30	104	0	60	52127
2026-01-06 18:40:35.64	20.21	1.50	-49.3	-60.5	3.6	8.46e-01	0	30	104	0	60	52301
2026-01-06 18:40:36.65	20.23	1.57	-49.3	-60.4	3.6	8.46e-01	0	30	104	0	60	51846
2026-01-06 18:40:37.66	20.24	1.63	-49.3	-60.3	3.6	8.45e-01	0	30	104	0	60	51055
2026-01-06 18:40:38.67	20.26	1.69	-49.3	-60.3	3.6	8.45e-01	0	30	104	0	60	51079
2026-01-06 18:40:39.68	20.27	1.76	-49.3	-60.4	3.6	8.45e-01	0	30	104	0	60	51358
2026-01-06 18:40:40.69	20.29	1.82	-49.3	-60.4	3.6	8.47e-01	0	30	104	0	60	51746
2026-01-06 18:40:41.70	20.31	1.88	-49.3	-60.5	3.6	8.45e-01	0	30	104	0	60	51954
2026-01-06 18:40:42.71	20.32	1.95	-49.3	-60.5	3.6	8.45e-01	0	30	104	0	60	52450
2026-01-06 18:40:43.72	20.34	2.01	-49.3	-60.6	3.6	8.45e-01	0	30	104	0	60	52809
2026-01-06 18:40:44.73	20.35	2.08	-49.3	-60.7	3.6	8.45e-01	0	30	104	0	60	53331
2026-01-06 18:40:45.74	20.37	2.14	-49.3	-60.7	3.6	8.44e-01	0	30	104	0	60	53549
2026-01-06 18:40:46.75	20.38	2.21	-49.3	-60.7	3.6	8.45e-01	0	30	104	0	60	53316
2026-01-06 18:40:47.77	20.40	2.27	-49.3	-60.7	3.6	8.45e-01	0	30	104	0	60	53502
2026-01-06 18:40:48.78	20.42	2.33	-49.3	-60.7	3.6	8.44e-01	0	30	104	0	60	53725
2026-01-06 18:40:49.79	20.43	2.40	-49.3	-60.6	3.6	8.46e-01	0	30	104	0	60	52988
2026-01-06 18:40:50.80	20.45	2.46	-49.3	-60.4	3.6	8.46e-01	0	30	104	0	60	51894
2026-01-06 18:40:51.81	20.46	2.53	-49.2	-59.6	3.6	8.45e-01	0	30	104	0	60	47081
2026-01-06 18:40:52.82	20.48	2.60	-49.1	-58.8	3.6	8.44e-01	0	30	104	0	60	42939
2026-01-06 18:40:53.83	20.50	2.66	-49.0	-58.1	3.8	8.44e-01	0	30	104	0	60	39427
2026-01-06 18:40:54.84	20.51	2.73	-48.8	-55.7	3.9	8.33e-01	0	30	0	0	60	29979
2026-01-06 18:40:55.85	20.53	2.79	-48.8	-55.4	4.0	8.29e-01	0	30	0	0	60	29046
2026-01-06 18:40:56.86	20.54	2.86	-48.8	-55.5	3.9	8.28e-01	0	30	0	0	60	29420
2026-01-06 18:40:57.87	20.56	2.92	-48.8	-55.5	4.0	8.26e-01	0	30	0	0	60	29266
2026-01-06 18:40:58.88	20.58	2.99	-48.8	-55.4	4.1	8.27e-01	0	30	0	0	60	29160
2026-01-06 18:40:59.90	20.59	3.06	-48.4	-53.6	5.2	7.65e-01	0	30	0	0	60	23659
2026-01-06 18:41:00.91	20.61	3.12	-47.7	-51.7	7.3	1.53e-01	0	31	102	1048576	60	18945
2026-01-06 18:41:01.92	20.63	3.19	-46.6	-49.6	9.9	1.64e-02	0	30	102	1048576	60	14825
2026-01-06 18:41:02.93	20.64	3.26	-45.1	-47.1	12.5	6.45e-04	0	30	102	1048576	60	11162
2026-01-06 18:41:03.94	20.66	3.32	-43.9	-45.5	14.3	1.10e-06	0	30	102	1048576	60	9285
2026-01-06 18:41:04.95	20.68	3.39	-42.4	-43.6	16.2	0.00e+00	0	30	102	1048576	60	7506
2026-01-06 18:41:05.96	20.69	3.46	-41.8	-43.0	16.9	0.00e+00	0	30	102	1048576	60	6946
2026-01-06 18:41:06.97	20.71	3.53	-41.3	-42.4	17.5	0.00e+00	0	30	102	1048576	60	6491
2026-01-06 18:41:07.98	20.73	3.59	-40.3	-41.2	18.5	0.00e+00	0	30	102	1048576	60	5686
2026-01-06 18:41:08.99	20.74	3.66	-40.6	-41.6	18.2	0.00e+00	0	30	102	1048576	60	5919
2026-01-06 18:41:10.00	20.76	3.73	-40.9	-41.9	17.8	0.00e+00	0	30	102	1048576	60	6106
2026-01-06 18:41:11.02	20.78	3.80	-41.1	-42.1	17.6	0.00e+00	0	30	102	1048576	60	6315
2026-01-06 18:41:12.03	20.79	3.87	-41.8	-42.9	16.7	0.00e+00	0	30	102	1048576	60	6895
2026-01-06 18:41:13.04	20.81	3.93	-42.8	-44.1	15.6	0.00e+00	0	30	102	1048576	60	7880
2026-01-06 18:41:14.05	20.83	4.00	-44.3	-46.0	13.4	4.50e-06	0	31	102	1048576	60	9856
2026-01-06 18:41:15.05	20.85	4.07	-45.7	-48.0	11.2	5.17e-04	0	30	102	1048576	60	12420
2026-01-06 18:41:16.07	20.86	4.14	-37.4	-38.0	21.7	0.00e+00	0	30	102	1048576	54	5558
2026-01-06 18:41:17.08	20.88	4.21	-45.3	-47.4	12.0	1.25e-05	0	31	102	1048576	60	11597
2026-01-06 18:41:18.09	20.90	4.28	-49.4	-59.8	3.6	7.57e-01	0	30	104	1048576	60	48113
2026-01-06 18:41:19.10	20.91	4.35	-40.6	-41.6	17.5	7.68e-01	0	30	104	1048576	60	5937
2026-01-06 18:41:20.11	20.93	4.42	-49.1	-59.6	3.6	8.44e-01	0	30	104	1048576	60	47234
2026-01-06 18:41:21.12	20.95	4.49	-41.0	-42.1	17.1	2.70e-01	0	31	104	1048576	60	6287
2026-01-06 18:41:22.13	20.97	4.56	-41.5	-42.6	17.7	0.00e+00	0	31	0	1048576	60	6671
2026-01-06 18:41:23.14	20.99	4.63	-41.8	-43.0	17.4	0.00e+00	0	31	0	1048576	60	6990
2026-01-06 18:41:24.15	21.00	4.70	-40.7	-41.7	18.6	0.00e+00	0	31	0	1048576	60	6008
2026-01-06 18:41:25.16	21.02	4.77	-40.7	-41.8	18.4	0.00e+00	0	31	0	1048576	60	6042
2026-01-06 18:41:26.17	21.04	4.84	-40.3	-41.2	19.0	0.00e+00	0	31	0	1048576	60	5674
2026-01-06 18:41:27.18	21.06	4.91	-39.6	-40.5	19.4	0.00e+00	0	31	101	1048576	58	5860
2026-01-06 18:41:28.19	21.07	4.98	-39.6	-40.5	19.7	0.00e+00	0	31	101	1048576	58	5892
2026-01-06 18:41:29.20	21.09	5.05	-39.4	-40.2	19.3	0.00e+00	0	31	101	1048576	58	5693
2026-01-06 18:41:30.21	21.11	5.13	-38.6	-39.4	20.7	0.00e+00	0	31	101	1048576	56	5806
2026-01-06 18:41:31.22	21.13	5.20	-37.5	-38.3	21.8	0.00e+00	0	31	101	1048576	54	5696
2026-01-06 18:41:32.23	21.15	5.27	-36.9	-37.6	22.5	0.00e+00	0	31	101	1048576	52	5935
2026-01-06 18:41:33.24	21.17	5.34	-36.7	-37.4	22.7	0.00e+00	0	31	101	1048576	52	5775
2026-01-06 18:41:34.25	21.18	5.41	-36.6	-37.3	22.7	0.00e+00	0	31	101	1048576	52	5754
2026-01-06 18:41:35.26	21.20	5.49	-36.4	-37.1	22.9	0.00e+00	0	31	101	1048576	52	5581
2026-01-06 18:41:36.27	21.22	5.56	-36.6	-37.3	22.6	0.00e+00	0	31	101	1048576	52	5718
2026-01-06 18:41:37.28	21.24	5.63	-36.6	-37.3	22.6	0.00e+00	0	31	101	1048576	52	5718
2026-01-06 18:41:38.29	21.26	5.71	-36.7	-37.4	22.6	0.00e+00	0	31	101	1048576	52	5812
2026-01-06 18:41:39.30	21.28	5.78	-36.6	-37.3	22.7	0.00e+00	0	30	101	1048576	52	5761
2026-01-06 18:41:40.31	21.30	5.85	-37.0	-37.7	22.4	0.00e+00	0	31	101	1048576	52	6003
2026-01-06 18:41:41.32	21.32	5.93	-36.2	-36.9	23.1	0.00e+00	0	31	101	1048576	52	5489
2026-01-06 18:41:42.33	21.33	6.00	-36.1	-36.8	23.3	0.00e+00	0	31	101	1048576	52	5388
2026-01-06 18:41:43.34	21.35	6.07	-36.0	-36.7	23.3	0.00e+00	0	31	101	1048576	50	5967
2026-01-06 18:41:44.35	21.37	6.15	-36.1	-36.8	23.1	0.00e+00	0	31	101	1048576	50	6092
2026-01-06 18:41:45.36	21.39	6.22	-36.0	-36.6	23.3	0.00e+00	0	31	101	1048576	50	5959
2026-01-06 18:41:46.37	21.41	6.30	-36.0	-36.7	23.3	0.00e+00	0	31	101	1048576	50	5997
2026-01-06 18:41:47.38	21.43	6.37	-35.9	-36.6	23.4	0.00e+00	0	31	101	1048576	50	5939
2026-01-06 18:41:48.39	21.45	6.45	-35.9	-36.6	23.5	0.00e+00	0	31	101	1048576	50	5940
2026-01-06 18:41:49.40	21.47	6.52	-35.8	-36.5	23.5	0.00e+00	0	31	101	1048576	50	5867
2026-01-06 18:41:50.41	21.49	6.60	-36.0	-36.7	23.3	0.00e+00	0	31	101	1048576	50	5988
2026-01-06 18:41:51.42	21.51	6.67	-35.7	-36.4	23.6	0.00e+00	0	31	101	1048576	50	5788
2026-01-06 18:41:52.43	21.53	6.75	-35.8	-36.5	23.5	0.00e+00	0	31	101	1048576	50	5865
2026-01-06 18:41:53.44	21.55	6.83	-35.7	-36.4	23.8	0.00e+00	0	31	101	1048576	50	5777
2026-01-06 18:41:54.45	21.57	6.90	-35.7	-36.4	23.7	0.00e+00	0	31	101	1048576	50	5791
2026-01-06 18:41:55.46	21.59	6.98	-35.6	-36.3	23.7	0.00e+00	0	31	101	1048576	50	5743
2026-01-06 18:41:56.47	21.61	7.06	-35.7	-36.3	23.8	0.00e+00	0	31	101	1048576	50	5758
2026-01-06 18:41:57.48	21.63	7.13	-35.6	-36.3	23.8	0.00e+00	0	31	101	1048576	50	5729
2026-01-06 18:41:58.49	21.65	7.21	-35.6	-36.3	23.7	0.00e+00	0	31	101	1048576	50	5750
2026-01-06 18:41:59.50	21.67	7.29	-35.5	-36.1	24.0	0.00e+00	0	31	101	1048576	50	5629
2026-01-06 18:42:00.51	21.69	7.37	-35.7	-36.4	23.8	0.00e+00	0	31	101	1048576	50	5801
2026-01-06 18:42:01.52	21.71	7.45	-35.5	-36.2	23.9	0.00e+00	0	31	101	1048576	50	5634
2026-01-06 18:42:02.53	21.73	7.52	-35.5	-36.1	24.0	0.00e+00	0	31	101	1048576	50	5629
2026-01-06 18:42:03.54	21.75	7.60	-35.5	-36.1	24.0	0.00e+00	0	31	101	1048576	50	5614
2026-01-06 18:42:04.55	21.77	7.68	-35.4	-36.1	24.1	0.00e+00	0	31	101	1048576	50	5596
2026-01-06 18:42:05.56	21.79	7.76	-35.5	-36.1	24.0	0.00e+00	0	31	101	1048576	50	5620
2026-01-06 18:42:06.57	21.81	7.84	-35.4	-36.1	24.1	0.00e+00	0	31	101	1048576	50	5583
2026-01-06 18:42:07.58	21.83	7.92	-35.6	-36.3	23.9	0.00e+00	0	31	101	1048576	50	5701
2026-01-06 18:42:08.59	21.86	8.00	-35.3	-36.0	24.1	0.00e+00	0	31	101	1048576	50	5534
2026-01-06 18:42:09.60	21.88	8.08	-35.5	-36.2	24.1	0.00e+00	0	31	101	1048576	50	5635
2026-01-06 18:42:10.61	21.90	8.16	-35.1	-35.7	24.4	0.00e+00	0	31	101	1048576	50	5372
2026-01-06 18:42:11.62	21.92	8.24	-35.3	-36.0	24.1	0.00e+00	0	31	101	1048576	50	5505
2026-01-06 18:42:12.62	21.94	8.32	-35.3	-36.0	24.2	0.00e+00	0	31	101	1048576	50	5512
2026-01-06 18:42:13.63	21.96	8.40	-35.3	-36.0	24.2	0.00e+00	0	31	101	1048576	50	5532
2026-01-06 18:42:14.64	21.98	8.48	-35.4	-36.1	24.2	0.00e+00	0	31	101	1048576	50	5579
2026-01-06 18:42:15.64	22.01	8.56	-35.2	-35.8	24.3	0.00e+00	0	31	101	1048576	48	6095
2026-01-06 18:42:16.65	22.03	8.65	-35.3	-36.0	24.2	0.00e+00	0	31	101	1048576	48	6200
2026-01-06 18:42:17.65	22.05	8.73	-35.1	-35.7	24.4	0.00e+00	0	31	101	1048576	48	6016
2026-01-06 18:42:18.66	22.07	8.81	-35.1	-35.8	24.3	0.00e+00	0	31	101	1048576	48	6064
2026-01-06 18:42:19.67	22.09	8.89	-35.3	-36.0	24.2	0.00e+00	0	31	101	1048576	48	6202
2026-01-06 18:42:20.68	22.12	8.98	-35.1	-35.7	24.4	0.00e+00	0	31	101	1048576	48	6022
2026-01-06 18:42:21.68	22.14	9.06	-35.1	-35.8	24.5	0.00e+00	0	31	101	1048576	48	6047
2026-01-06 18:42:22.69	22.16	9.14	-35.0	-35.6	24.6	0.00e+00	0	31	101	1048576	48	5960
2026-01-06 18:42:23.70	22.18	9.23	-35.0	-35.6	24.6	0.00e+00	0	31	101	1048576	48	5929
2026-01-06 18:42:24.70	22.20	9.31	-35.0	-35.7	24.6	0.00e+00	0	31	101	1048576	48	5995
2026-01-06 18:42:25.71	22.23	9.39	-35.1	-35.7	24.6	0.00e+00	0	31	101	1048576	48	6004
2026-01-06 18:42:26.71	22.25	9.48	-35.0	-35.7	24.6	0.00e+00	0	31	101	1048576	48	5979
2026-01-06 18:42:27.72	22.27	9.56	-35.1	-35.7	24.6	0.00e+00	0	31	101	1048576	48	6004
2026-01-06 18:42:28.72	22.30	9.65	-34.9	-35.6	24.7	0.00e+00	0	31	101	1048576	48	5911
2026-01-06 18:42:29.73	22.32	9.73	-34.9	-35.5	24.7	0.00e+00	0	31	101	1048576	48	5860
2026-01-06 18:42:30.74	22.34	9.82	-35.0	-35.6	24.7	0.00e+00	0	31	101	1048576	48	5960
2026-01-06 18:42:31.74	22.37	9.90	-34.8	-35.4	24.8	0.00e+00	0	31	101	1048576	48	5826
2026-01-06 18:42:32.75	22.39	9.99	-34.7	-35.4	24.8	0.00e+00	0	31	101	1048576	48	5772
2026-01-06 18:42:33.75	22.41	10.08	-34.8	-35.5	24.8	0.00e+00	0	31	101	1048576	48	5843
2026-01-06 18:42:34.76	22.44	10.16	-34.7	-35.3	24.9	0.00e+00	0	31	101	1048576	48	5757
2026-01-06 18:42:35.77	22.46	10.25	-34.6	-35.3	24.9	0.00e+00	0	31	101	1048576	48	5710
2026-01-06 18:42:36.78	22.48	10.34	-34.8	-35.4	24.8	0.00e+00	0	31	101	1048576	48	5809
2026-01-06 18:42:37.78	22.51	10.43	-34.7	-35.3	24.9	0.00e+00	0	31	101	1048576	48	5752
2026-01-06 18:42:38.79	22.53	10.51	-34.8	-35.4	24.8	0.00e+00	0	31	101	1048576	48	5819
2026-01-06 18:42:39.80	22.56	10.60	-34.7	-35.3	24.9	0.00e+00	0	31	101	1048576	48	5759
2026-01-06 18:42:40.81	22.58	10.69	-34.8	-35.4	24.9	0.00e+00	0	31	101	1048576	48	5821
2026-01-06 18:42:41.81	22.61	10.78	-34.6	-35.2	25.0	0.00e+00	0	31	101	1048576	48	5684
2026-01-06 18:42:42.82	22.63	10.87	-34.7	-35.4	24.9	0.00e+00	0	31	101	1048576	48	5767
2026-01-06 18:42:43.83	22.66	10.96	-34.6	-35.3	25.0	0.00e+00	0	31	101	1048576	48	5697
2026-01-06 18:42:44.83	22.68	11.05	-34.5	-35.2	25.1	0.00e+00	0	31	101	1048576	48	5649
2026-01-06 18:42:45.84	22.70	11.14	-34.6	-35.2	24.9	0.00e+00	0	31	101	1048576	48	5691
2026-01-06 18:42:46.84	22.73	11.23	-34.6	-35.2	25.0	0.00e+00	0	31	101	1048576	48	5685
2026-01-06 18:42:47.85	22.76	11.32	-34.5	-35.2	25.0	0.00e+00	0	31	101	1048576	48	5676
2026-01-06 18:42:48.85	22.78	11.41	-34.5	-35.2	25.0	0.00e+00	0	31	101	1048576	48	5659
2026-01-06 18:42:49.86	22.81	11.50	-34.7	-35.4	24.9	0.00e+00	0	31	101	1048576	48	5769
2026-01-06 18:42:50.87	22.83	11.59	-34.7	-35.4	24.9	0.00e+00	0	31	101	1048576	48	5777
2026-01-06 18:42:51.87	22.86	11.69	-34.4	-35.1	25.2	0.00e+00	0	31	101	1048576	48	5597
2026-01-06 18:42:52.88	22.88	11.78	-34.3	-35.0	25.3	0.00e+00	0	31	101	1048576	48	5533
2026-01-06 18:42:53.89	22.91	11.87	-34.5	-35.2	25.1	0.00e+00	0	31	101	1048576	48	5647
2026-01-06 18:42:54.90	22.94	11.97	-34.4	-35.1	25.2	0.00e+00	0	31	101	1048576	48	5571
2026-01-06 18:42:55.90	22.96	12.06	-34.6	-35.2	25.1	0.00e+00	0	31	101	1048576	48	5687
2026-01-06 18:42:56.91	22.99	12.15	-34.4	-35.1	25.2	0.00e+00	0	31	101	1048576	48	5570
2026-01-06 18:42:57.92	23.01	12.25	-34.4	-35.0	25.3	0.00e+00	0	31	101	1048576	48	5540
2026-01-06 18:42:58.92	23.04	12.34	-34.3	-34.9	25.2	0.00e+00	0	31	101	1048576	48	5483
2026-01-06 18:42:59.93	23.07	12.44	-34.3	-34.9	25.5	0.00e+00	0	31	101	1048576	48	5462
2026-01-06 18:43:00.94	23.10	12.53	-34.3	-34.9	25.4	0.00e+00	0	31	101	1048576	48	5458
2026-01-06 18:43:01.95	23.12	12.63	-34.0	-34.7	25.6	0.00e+00	0	31	101	1048576	46	5976
2026-01-06 18:43:02.95	23.15	12.73	-34.1	-34.7	25.6	0.00e+00	0	31	101	1048576	46	5998
2026-01-06 18:43:03.96	23.18	12.82	-34.0	-34.6	25.5	0.00e+00	0	31	101	1048576	46	5915
2026-01-06 18:43:04.97	23.21	12.92	-34.0	-34.6	25.6	0.00e+00	0	31	101	1048576	46	5953
2026-01-06 18:43:05.97	23.23	13.02	-34.1	-34.8	25.5	0.00e+00	0	31	101	1048576	46	6035
2026-01-06 18:43:06.98	23.26	13.11	-34.1	-34.7	25.6	0.00e+00	0	31	101	1048576	46	5994
2026-01-06 18:43:07.98	23.29	13.21	-34.0	-34.6	25.6	0.00e+00	0	31	101	1048576	46	5929
2026-01-06 18:43:08.99	23.32	13.31	-34.0	-34.6	25.6	0.00e+00	0	31	101	1048576	46	5911
2026-01-06 18:43:09.99	23.35	13.41	-33.9	-34.6	25.8	0.00e+00	0	31	101	1048576	46	5897
2026-01-06 18:43:11.00	23.37	13.51	-33.6	-34.2	26.0	0.00e+00	0	31	101	1048576	46	5692
2026-01-06 18:43:12.00	23.40	13.61	-33.6	-34.3	26.0	0.00e+00	0	31	101	1048576	46	5706
2026-01-06 18:43:13.01	23.43	13.71	-33.6	-34.3	25.9	0.00e+00	0	31	101	1048576	46	5702
2026-01-06 18:43:14.01	23.46	13.81	-33.5	-34.1	26.1	0.00e+00	0	31	101	1048576	46	5595
2026-01-06 18:43:15.02	23.49	13.91	-33.6	-34.2	26.0	0.00e+00	0	31	101	1048576	46	5691
2026-01-06 18:43:16.03	23.52	14.01	-33.6	-34.2	26.0	0.00e+00	0	31	101	1048576	46	5688
2026-01-06 18:43:17.03	23.55	14.11	-33.5	-34.1	26.0	0.00e+00	0	31	101	1048576	46	5622
2026-01-06 18:43:18.04	23.58	14.21	-33.6	-34.2	26.0	0.00e+00	0	31	101	1048576	46	5644
2026-01-06 18:43:19.05	23.61	14.32	-33.4	-34.1	26.2	0.00e+00	0	31	101	1048576	46	5578
2026-01-06 18:43:20.05	23.64	14.42	-33.3	-33.9	26.3	0.00e+00	0	31	101	1048576	46	5495
2026-01-06 18:43:21.06	23.67	14.52	-33.4	-34.0	26.2	0.00e+00	0	31	101	1048576	46	5529
2026-01-06 18:43:22.06	23.70	14.63	-33.3	-33.9	26.2	0.00e+00	0	31	101	1048576	46	5483
2026-01-06 18:43:23.07	23.73	14.73	-33.2	-33.8	26.3	0.00e+00	0	31	101	1048576	46	5403
2026-01-06 18:43:24.07	23.76	14.84	-33.1	-33.7	26.3	0.00e+00	0	31	101	1048576	46	5360
2026-01-06 18:43:25.08	23.79	14.94	-33.3	-33.9	26.3	0.00e+00	0	31	101	1048576	46	5446
2026-01-06 18:43:26.08	23.82	15.05	-33.3	-33.9	26.3	0.00e+00	0	31	101	1048576	46	5462
2026-01-06 18:43:27.09	23.85	15.15	-33.2	-33.8	26.4	0.00e+00	0	31	101	1048576	46	5405
2026-01-06 18:43:28.09	23.89	15.26	-33.1	-33.7	26.5	0.00e+00	0	31	101	1048576	46	5330
2026-01-06 18:43:29.10	23.92	15.37	-33.1	-33.7	26.5	0.00e+00	0	31	101	1048576	44	5979
2026-01-06 18:43:30.11	23.95	15.47	-33.1	-33.7	26.5	0.00e+00	0	31	101	1048576	44	5980
2026-01-06 18:43:31.11	23.98	15.58	-32.9	-33.5	26.7	0.00e+00	0	31	101	1048576	44	5839
2026-01-06 18:43:32.12	24.01	15.69	-33.0	-33.6	26.6	0.00e+00	0	31	101	1048576	44	5936
2026-01-06 18:43:33.12	24.05	15.80	-33.0	-33.6	26.6	0.00e+00	0	31	101	1048576	44	5919
2026-01-06 18:43:34.13	24.08	15.91	-32.9	-33.5	26.6	0.00e+00	0	31	101	1048576	44	5873
2026-01-06 18:43:35.13	24.11	16.02	-32.9	-33.5	26.7	0.00e+00	0	31	101	1048576	44	5880
2026-01-06 18:43:36.14	24.14	16.13	-33.0	-33.6	26.6	0.00e+00	0	31	101	1048576	44	5907
2026-01-06 18:43:37.14	24.18	16.24	-32.9	-33.5	26.7	0.00e+00	0	31	101	1048576	44	5887
2026-01-06 18:43:38.15	24.21	16.35	-32.9	-33.5	26.6	0.00e+00	0	31	101	1048576	44	5862
2026-01-06 18:43:39.16	24.25	16.46	-33.0	-33.6	26.5	0.00e+00	0	31	101	1048576	44	5921
2026-01-06 18:43:40.17	24.28	16.58	-32.9	-33.5	26.7	0.00e+00	0	31	101	1048576	44	5851
2026-01-06 18:43:41.17	24.31	16.69	-32.9	-33.5	26.7	0.00e+00	0	31	101	1048576	44	5830
2026-01-06 18:43:42.18	24.35	16.80	-32.8	-33.4	26.8	0.00e+00	0	31	101	1048576	44	5782
2026-01-06 18:43:43.19	24.38	16.92	-32.9	-33.5	26.7	0.00e+00	0	31	101	1048576	44	5856
2026-01-06 18:43:44.20	24.42	17.03	-32.8	-33.4	26.7	0.00e+00	0	31	101	1048576	44	5800
2026-01-06 18:43:45.20	24.45	17.15	-32.8	-33.4	26.7	0.00e+00	0	31	101	1048576	44	5818
2026-01-06 18:43:46.21	24.49	17.26	-32.8	-33.4	26.7	0.00e+00	0	31	101	1048576	44	5820
2026-01-06 18:43:47.22	24.53	17.38	-32.7	-33.3	26.8	0.00e+00	0	31	101	1048576	44	5734
2026-01-06 18:43:48.23	24.56	17.50	-32.9	-33.5	26.8	0.00e+00	0	31	101	1048576	44	5851
2026-01-06 18:43:49.23	24.60	17.61	-32.6	-33.2	26.9	0.00e+00	0	31	101	1048576	44	5654
2026-01-06 18:43:50.24	24.63	17.73	-32.7	-33.3	26.8	0.00e+00	0	31	101	1048576	44	5732
2026-01-06 18:43:51.24	24.67	17.85	-32.7	-33.3	26.9	0.00e+00	0	31	101	1048576	44	5722
2026-01-06 18:43:52.25	24.71	17.97	-32.6	-33.2	27.0	0.00e+00	0	31	101	1048576	44	5659
2026-01-06 18:43:53.26	24.74	18.09	-32.6	-33.2	26.9	0.00e+00	0	31	101	1048576	44	5674
2026-01-06 18:43:54.26	24.78	18.21	-32.7	-33.3	26.9	0.00e+00	0	31	101	1048576	44	5716
2026-01-06 18:43:55.27	24.82	18.33	-32.6	-33.2	26.9	0.00e+00	0	31	101	1048576	44	5677
2026-01-06 18:43:56.27	24.86	18.45	-32.4	-33.0	27.1	0.00e+00	0	31	101	1048576	44	5560
2026-01-06 18:43:57.28	24.90	18.57	-32.6	-33.2	26.9	0.00e+00	0	31	101	1048576	44	5685
2026-01-06 18:43:58.29	24.93	18.69	-32.5	-33.1	27.0	0.00e+00	0	31	101	1048576	44	5618
2026-01-06 18:43:59.29	24.97	18.82	-32.3	-32.9	27.1	0.00e+00	0	31	101	1048576	44	5478
2026-01-06 18:44:00.29	25.01	18.94	-32.6	-33.2	27.0	0.00e+00	0	31	101	1048576	44	5631
2026-01-06 18:44:01.30	25.05	19.06	-32.6	-33.2	27.0	0.00e+00	0	31	101	1048576	44	5665
2026-01-06 18:44:02.31	25.09	19.19	-32.4	-33.0	27.1	0.00e+00	0	31	101	1048576	44	5504
2026-01-06 18:44:03.31	25.13	19.31	-32.3	-32.9	27.2	0.00e+00	0	31	101	1048576	44	5459
2026-01-06 18:44:04.32	25.17	19.44	-32.5	-33.1	27.0	0.00e+00	0	31	101	1048576	44	5580
2026-01-06 18:44:05.32	25.21	19.57	-32.2	-32.8	27.3	0.00e+00	0	31	101	1048576	44	5435
2026-01-06 18:44:06.33	25.25	19.69	-32.2	-32.8	27.3	0.00e+00	0	31	101	1048576	44	5425
2026-01-06 18:44:07.33	25.29	19.82	-32.1	-32.7	27.3	0.00e+00	0	31	101	1048576	44	5367
2026-01-06 18:44:08.33	25.33	19.95	-32.2	-32.7	27.3	0.00e+00	0	31	101	1048576	42	6021
2026-01-06 18:44:09.34	25.38	20.08	-32.0	-32.6	27.5	0.00e+00	0	31	101	1048576	42	5935
2026-01-06 18:44:10.35	25.42	20.21	-32.1	-32.7	27.4	0.00e+00	0	31	101	1048576	42	5969
2026-01-06 18:44:11.35	25.46	20.34	-31.9	-32.5	27.6	0.00e+00	0	31	101	1048576	42	5854
2026-01-06 18:44:12.36	25.50	20.47	-31.9	-32.5	27.6	0.00e+00	0	31	101	1048576	42	5873
2026-01-06 18:44:13.36	25.55	20.60	-32.1	-32.6	27.4	0.00e+00	0	31	101	1048576	42	5961
2026-01-06 18:44:14.37	25.59	20.74	-31.8	-32.4	27.7	0.00e+00	0	31	101	1048576	42	5774
2026-01-06 18:44:15.38	25.63	20.87	-31.8	-32.4	27.7	0.00e+00	0	31	101	1048576	42	5806
2026-01-06 18:44:16.38	25.68	21.00	-31.7	-32.2	27.7	0.00e+00	0	31	101	1048576	42	5684
2026-01-06 18:44:17.39	25.72	21.14	-31.8	-32.4	27.7	0.00e+00	0	31	101	1048576	42	5779
2026-01-06 18:44:18.39	25.77	21.27	-32.0	-32.6	27.5	0.00e+00	0	31	101	1048576	42	5903
2026-01-06 18:44:19.40	25.81	21.41	-31.8	-32.4	27.6	0.00e+00	0	31	101	1048576	42	5776
2026-01-06 18:44:20.41	25.86	21.55	-31.9	-32.4	27.7	0.00e+00	0	31	101	1048576	42	5821
2026-01-06 18:44:21.41	25.90	21.68	-31.8	-32.4	27.7	0.00e+00	0	31	101	1048576	42	5788
2026-01-06 18:44:22.42	25.95	21.82	-31.9	-32.5	27.6	0.00e+00	0	31	101	1048576	42	5863
2026-01-06 18:44:23.43	26.00	21.96	-31.8	-32.4	27.7	0.00e+00	0	31	101	1048576	42	5772
2026-01-06 18:44:24.44	26.04	22.10	-31.8	-32.4	27.7	0.00e+00	0	31	101	1048576	42	5767
2026-01-06 18:44:25.44	26.09	22.24	-31.8	-32.4	27.7	0.00e+00	0	31	101	1048576	42	5789
2026-01-06 18:44:26.45	26.14	22.39	-31.9	-32.4	27.7	0.00e+00	0	31	101	1048576	42	5810
2026-01-06 18:44:27.45	26.19	22.53	-31.9	-32.4	27.6	0.00e+00	0	31	101	1048576	42	5817
2026-01-06 18:44:28.46	26.23	22.67	-31.9	-32.5	27.5	0.00e+00	0	31	101	1048576	42	5839
2026-01-06 18:44:29.47	26.28	22.81	-32.0	-32.5	27.6	0.00e+00	0	31	101	1048576	42	5883
2026-01-06 18:44:30.47	26.33	22.96	-32.0	-32.6	27.6	0.00e+00	0	31	101	1048576	42	5934
2026-01-06 18:44:31.48	26.38	23.10	-32.0	-32.6	27.5	0.00e+00	0	31	101	1048576	42	5949
2026-01-06 18:44:32.49	26.43	23.25	-32.0	-32.6	27.5	0.00e+00	0	31	101	1048576	42	5907
2026-01-06 18:44:33.49	26.48	23.40	-32.0	-32.6	27.6	0.00e+00	0	31	101	1048576	42	5910
2026-01-06 18:44:34.50	26.53	23.55	-32.1	-32.6	27.5	0.00e+00	0	31	101	1048576	42	5959
2026-01-06 18:44:35.50	26.59	23.69	-32.1	-32.7	27.5	0.00e+00	0	31	101	1048576	42	5995
2026-01-06 18:44:36.51	26.64	23.84	-32.1	-32.7	27.5	0.00e+00	0	31	101	1048576	42	6011
2026-01-06 18:44:37.51	26.69	23.99	-32.0	-32.6	27.6	0.00e+00	0	31	101	1048576	42	5947
2026-01-06 18:44:38.52	26.74	24.15	-31.9	-32.5	27.5	0.00e+00	0	31	101	1048576	42	5856
2026-01-06 18:44:39.52	26.80	24.30	-32.0	-32.6	27.6	0.00e+00	0	31	101	1048576	42	5903
2026-01-06 18:44:40.53	26.85	24.45	-31.8	-32.3	27.7	0.00e+00	0	31	101	1048576	42	5758
2026-01-06 18:44:41.54	26.90	24.60	-31.7	-32.3	27.7	0.00e+00	0	31	101	1048576	42	5721
2026-01-06 18:44:42.54	26.96	24.76	-31.8	-32.4	27.7	0.00e+00	0	31	101	1048576	42	5774
2026-01-06 18:44:43.55	27.01	24.91	-31.7	-32.3	27.8	0.00e+00	0	31	101	1048576	42	5697
2026-01-06 18:44:44.55	27.07	25.07	-31.7	-32.3	27.8	0.00e+00	0	31	101	1048576	42	5744
2026-01-06 18:44:45.56	27.13	25.23	-31.7	-32.3	27.8	0.00e+00	0	31	101	1048576	42	5708
2026-01-06 18:44:46.57	27.18	25.39	-31.7	-32.2	27.8	0.00e+00	0	31	101	1048576	42	5695
2026-01-06 18:44:47.58	27.24	25.55	-31.7	-32.3	27.8	0.00e+00	0	31	101	1048576	42	5705
2026-01-06 18:44:48.58	27.30	25.71	-31.5	-32.1	27.9	0.00e+00	0	31	101	1048576	42	5608
2026-01-06 18:44:49.59	27.36	25.87	-31.5	-32.1	27.9	0.00e+00	0	31	101	1048576	42	5610
2026-01-06 18:44:50.60	27.42	26.03	-31.7	-32.3	27.8	0.00e+00	0	31	101	1048576	42	5719
2026-01-06 18:44:51.61	27.48	26.19	-31.4	-32.0	28.0	0.00e+00	0	31	101	1048576	42	5537
2026-01-06 18:44:52.62	27.54	26.36	-31.4	-32.0	28.1	0.00e+00	0	31	101	1048576	42	5521
2026-01-06 18:44:53.62	27.60	26.52	-31.4	-32.0	28.0	0.00e+00	0	31	101	1048576	42	5553
2026-01-06 18:44:54.63	27.66	26.69	-31.4	-32.0	28.0	0.00e+00	0	31	101	1048576	42	5539
2026-01-06 18:44:55.64	27.72	26.86	-31.3	-31.9	28.1	0.00e+00	0	31	101	1048576	42	5477
2026-01-06 18:44:56.65	27.78	27.03	-31.3	-31.9	27.9	0.00e+00	0	31	101	1048576	42	5488
2026-01-06 18:44:57.65	27.85	27.19	-31.5	-32.1	28.0	0.00e+00	0	31	101	1048576	42	5585
2026-01-06 18:44:58.66	27.91	27.36	-31.2	-31.8	28.2	0.00e+00	0	31	101	1048576	42	5395
2026-01-06 18:44:59.67	27.98	27.54	-31.3	-31.9	28.2	0.00e+00	0	31	101	1048576	42	5440
2026-01-06 18:45:00.67	28.04	27.71	-31.2	-31.8	28.2	0.00e+00	0	31	101	1048576	42	5402
2026-01-06 18:45:01.68	28.11	27.88	-31.1	-31.7	28.1	0.00e+00	0	31	101	1048576	40	5975
2026-01-06 18:45:02.69	28.17	28.06	-31.0	-31.6	28.3	0.00e+00	0	31	101	1048576	40	5912
2026-01-06 18:45:03.69	28.24	28.23	-31.1	-31.7	28.3	0.00e+00	0	31	101	1048576	40	5985
2026-01-06 18:45:04.70	28.31	28.41	-31.1	-31.7	28.2	0.00e+00	0	31	101	1048576	40	6007
2026-01-06 18:45:05.71	28.38	28.59	-31.1	-31.7	28.1	0.00e+00	0	31	101	1048576	40	5979
2026-01-06 18:45:06.72	28.45	28.76	-31.0	-31.6	28.3	0.00e+00	0	31	101	1048576	40	5906
2026-01-06 18:45:07.72	28.52	28.94	-31.1	-31.6	28.4	0.00e+00	0	31	101	1048576	40	5963
2026-01-06 18:45:08.73	28.59	29.13	-31.1	-31.6	28.2	0.00e+00	0	31	101	1048576	40	5955
2026-01-06 18:45:09.74	28.66	29.31	-31.0	-31.6	28.3	0.00e+00	0	31	101	1048576	40	5921
2026-01-06 18:45:10.74	28.73	29.49	-31.0	-31.6	28.3	0.00e+00	0	31	101	1048576	40	5906
2026-01-06 18:45:11.75	28.80	29.67	-31.0	-31.6	28.2	0.00e+00	0	31	101	1048576	40	5926
2026-01-06 18:45:12.75	28.88	29.86	-31.2	-31.8	28.2	0.00e+00	0	31	101	1048576	40	6054
2026-01-06 18:45:13.76	28.95	30.05	-31.3	-31.9	28.1	0.00e+00	0	31	101	1048576	40	6163
2026-01-06 18:45:14.77	29.03	30.23	-31.0	-31.6	28.3	0.00e+00	0	31	101	1048576	40	5941
2026-01-06 18:45:15.77	29.10	30.42	-31.0	-31.6	28.4	0.00e+00	0	31	101	1048576	40	5936
2026-01-06 18:45:16.78	29.18	30.61	-30.9	-31.4	28.4	0.00e+00	0	31	101	1048576	40	5815
2026-01-06 18:45:17.79	29.26	30.81	-30.8	-31.4	28.3	0.00e+00	0	31	101	1048576	40	5762
2026-01-06 18:45:18.79	29.34	31.00	-30.7	-31.3	28.5	0.00e+00	0	31	101	1048576	40	5706
2026-01-06 18:45:19.80	29.42	31.19	-30.7	-31.3	28.5	0.00e+00	0	31	101	1048576	40	5718
2026-01-06 18:45:20.80	29.50	31.39	-30.6	-31.2	28.5	0.00e+00	0	31	101	1048576	40	5639
2026-01-06 18:45:21.81	29.58	31.58	-30.7	-31.2	28.6	0.00e+00	0	31	101	1048576	40	5680
2026-01-06 18:45:22.81	29.66	31.78	-30.7	-31.3	28.5	0.00e+00	0	31	101	1048576	40	5713
2026-01-06 18:45:23.82	29.74	31.98	-30.7	-31.3	28.4	0.00e+00	0	31	101	1048576	40	5733
2026-01-06 18:45:24.82	29.83	32.18	-30.8	-31.4	28.4	0.00e+00	0	31	101	1048576	40	5786
2026-01-06 18:45:25.83	29.91	32.38	-31.1	-31.6	28.3	0.00e+00	0	31	101	1048576	40	5946
2026-01-06 18:45:26.83	30.00	32.58	-31.0	-31.5	28.4	0.00e+00	0	31	101	1048576	40	5887
2026-01-06 18:45:27.84	30.09	32.79	-31.1	-31.6	28.3	0.00e+00	0	31	101	1048576	40	5939
2026-01-06 18:45:28.84	30.18	32.99	-31.1	-31.7	28.3	0.00e+00	0	31	101	1048576	40	5975
2026-01-06 18:45:29.85	30.27	33.20	-31.2	-31.8	28.3	0.00e+00	0	31	101	1048576	40	6067
2026-01-06 18:45:30.85	30.36	33.40	-31.2	-31.8	28.3	0.00e+00	0	31	101	1048576	40	6038
2026-01-06 18:45:31.86	30.45	33.62	-31.0	-31.6	28.2	0.00e+00	0	31	101	1048576	40	5943
2026-01-06 18:45:32.86	30.54	33.82	-30.9	-31.5	28.5	0.00e+00	0	31	101	1048576	40	5847
2026-01-06 18:45:33.87	30.64	34.04	-31.0	-31.6	28.4	0.00e+00	0	31	101	1048576	40	5926
2026-01-06 18:45:34.87	30.73	34.25	-30.8	-31.3	28.3	0.00e+00	0	31	101	1048576	40	5757
2026-01-06 18:45:35.88	30.83	34.47	-31.1	-31.7	28.3	0.00e+00	0	31	101	1048576	40	5986
2026-01-06 18:45:36.88	30.92	34.68	-31.0	-31.6	28.4	0.00e+00	0	31	101	1048576	40	5928
2026-01-06 18:45:37.89	31.02	34.90	-31.1	-31.7	28.3	0.00e+00	0	31	101	1048576	40	5998
2026-01-06 18:45:38.90	31.12	35.12	-31.1	-31.7	28.2	0.00e+00	0	31	101	1048576	40	5972
2026-01-06 18:45:39.90	31.23	35.34	-31.0	-31.5	28.3	0.00e+00	0	31	101	1048576	40	5888
2026-01-06 18:45:40.91	31.33	35.56	-31.1	-31.7	28.2	0.00e+00	0	31	101	1048576	40	5981
2026-01-06 18:45:41.92	31.43	35.79	-31.1	-31.7	28.2	0.00e+00	0	31	101	1048576	40	5972
2026-01-06 18:45:42.92	31.54	36.01	-31.2	-31.8	28.1	0.00e+00	0	31	101	1048576	40	6075
2026-01-06 18:45:43.93	31.65	36.24	-31.3	-31.9	28.2	0.00e+00	0	31	101	1048576	40	6126
2026-01-06 18:45:44.93	31.75	36.46	-31.2	-31.8	28.1	0.00e+00	0	31	101	1048576	40	6072
2026-01-06 18:45:45.94	31.86	36.70	-31.3	-31.9	28.1	0.00e+00	0	31	101	1048576	40	6156
2026-01-06 18:45:46.94	31.97	36.92	-31.0	-31.6	28.3	0.00e+00	0	31	101	1048576	40	5932
2026-01-06 18:45:47.95	32.09	37.16	-31.2	-31.7	28.3	0.00e+00	0	31	101	1048576	40	6031
2026-01-06 18:45:48.95	32.20	37.39	-31.0	-31.6	28.3	0.00e+00	0	31	101	1048576	40	5900
2026-01-06 18:45:49.96	32.32	37.63	-31.0	-31.5	28.4	0.00e+00	0	31	101	1048576	40	5874
2026-01-06 18:45:50.97	32.44	37.87	-30.9	-31.5	28.4	0.00e+00	0	31	101	1048576	40	5869
2026-01-06 18:45:51.97	32.56	38.10	-31.2	-31.7	28.3	0.00e+00	0	31	101	1048576	40	6012
2026-01-06 18:45:52.98	32.68	38.34	-31.2	-31.7	28.2	0.00e+00	0	31	101	1048576	40	6032
2026-01-06 18:45:53.99	32.80	38.59	-31.2	-31.8	28.1	0.00e+00	0	31	101	1048576	40	6058
2026-01-06 18:45:55.00	32.93	38.83	-31.3	-31.9	28.2	0.00e+00	0	31	101	1048576	40	6142
2026-01-06 18:45:56.00	33.05	39.08	-31.0	-31.6	28.2	0.00e+00	0	31	101	1048576	40	5908
2026-01-06 18:45:57.01	33.18	39.32	-31.4	-32.0	28.0	0.00e+00	0	31	101	1048576	40	6177
2026-01-06 18:45:58.01	33.31	39.57	-31.2	-31.8	28.1	0.00e+00	0	31	101	1048576	40	6047
2026-01-06 18:45:59.02	33.44	39.82	-31.3	-31.9	28.0	0.00e+00	0	31	101	1048576	40	6146
2026-01-06 18:46:00.03	33.58	40.07	-31.4	-32.0	28.0	0.00e+00	0	31	101	1048576	40	6235
2026-01-06 18:46:01.03	33.71	40.33	-31.6	-32.1	27.9	0.00e+00	0	31	101	1048576	40	6315
2026-01-06 18:46:02.04	33.85	40.58	-31.4	-32.0	28.0	0.00e+00	0	31	101	1048576	40	6210
2026-01-06 18:46:03.04	33.99	40.84	-31.4	-32.0	28.0	0.00e+00	0	31	101	1048576	40	6228
2026-01-06 18:46:04.05	34.14	41.10	-31.6	-32.1	28.0	0.00e+00	0	31	101	1048576	40	6304
2026-01-06 18:46:05.05	34.28	41.36	-31.4	-32.0	28.1	0.00e+00	0	31	101	1048576	40	6186
2026-01-06 18:46:06.06	34.43	41.62	-31.5	-32.0	27.9	0.00e+00	0	31	101	1048576	40	6235
2026-01-06 18:46:07.06	34.58	41.88	-31.2	-31.8	28.1	0.00e+00	0	31	101	1048576	40	6079
2026-01-06 18:46:08.07	34.73	42.15	-31.4	-32.0	28.1	0.00e+00	0	31	101	1048576	40	6209
2026-01-06 18:46:09.07	34.88	42.41	-31.1	-31.7	28.3	0.00e+00	0	31	101	1048576	40	5996
2026-01-06 18:46:10.08	35.04	42.68	-31.2	-31.7	28.2	0.00e+00	0	31	101	1048576	40	6026
2026-01-06 18:46:11.09	35.20	42.95	-31.3	-31.9	28.1	0.00e+00	0	31	101	1048576	40	6112
2026-01-06 18:46:12.09	35.36	43.22	-31.2	-31.8	28.2	0.00e+00	0	31	101	1048576	40	6044
2026-01-06 18:46:13.10	35.53	43.50	-31.3	-31.9	28.2	0.00e+00	0	31	101	1048576	40	6123
2026-01-06 18:46:14.11	35.70	43.77	-31.3	-31.9	28.1	0.00e+00	0	31	101	1048576	40	6155
2026-01-06 18:46:15.11	35.87	44.05	-31.3	-31.8	28.2	0.00e+00	0	31	101	1048576	40	6101
2026-01-06 18:46:16.12	36.04	44.33	-31.1	-31.7	28.3	0.00e+00	0	31	101	1048576	40	5982
2026-01-06 18:46:17.13	36.22	44.61	-30.8	-31.3	28.5	0.00e+00	0	31	101	1048576	40	5753
2026-01-06 18:46:18.14	36.40	44.90	-31.6	-32.1	27.9	0.00e+00	0	31	101	1048576	40	6295
2026-01-06 18:46:19.15	36.58	45.18	-31.8	-32.4	27.7	0.00e+00	0	31	101	1048576	40	6492
2026-01-06 18:46:20.16	36.77	45.47	-32.1	-32.8	27.6	0.00e+00	0	31	101	1048576	42	6036
2026-01-06 18:46:21.17	36.96	45.76	-32.1	-32.7	27.5	0.00e+00	0	31	101	1048576	42	5995
2026-01-06 18:46:22.18	37.15	46.05	-32.5	-33.1	27.4	0.00e+00	0	31	101	1048576	42	6256
2026-01-06 18:46:23.19	37.35	46.34	-32.2	-32.8	27.5	0.00e+00	0	31	101	1048576	42	6083
2026-01-06 18:46:24.20	37.55	46.63	-32.1	-32.7	27.5	0.00e+00	0	31	101	1048576	42	6018
2026-01-06 18:46:25.21	37.75	46.93	-32.1	-32.7	27.6	0.00e+00	0	31	101	1048576	42	6023
2026-01-06 18:46:26.22	37.96	47.23	-31.8	-32.4	27.7	0.00e+00	0	31	101	1048576	42	5790
2026-01-06 18:46:27.23	38.17	47.52	-32.1	-32.6	27.6	0.00e+00	0	31	101	1048576	42	5956
2026-01-06 18:46:28.24	38.39	47.83	-31.9	-32.5	27.7	0.00e+00	0	31	101	1048576	42	5838
2026-01-06 18:46:29.25	38.61	48.13	-31.9	-32.4	27.6	0.00e+00	0	31	101	1048576	42	5824
2026-01-06 18:46:30.26	38.83	48.43	-31.9	-32.5	27.7	0.00e+00	0	31	101	1048576	42	5850
2026-01-06 18:46:31.27	39.06	48.74	-32.0	-32.6	27.6	0.00e+00	0	31	101	1048576	42	5902
2026-01-06 18:46:32.29	39.30	49.05	-32.3	-32.8	27.8	0.00e+00	0	31	101	1048576	42	6092
2026-01-06 18:46:33.30	39.54	49.36	-32.3	-32.8	27.4	0.00e+00	0	31	101	1048576	42	6101
2026-01-06 18:46:34.31	39.78	49.67	-32.4	-33.0	27.3	0.00e+00	0	31	101	1048576	42	6218
2026-01-06 18:46:35.32	40.03	49.98	-32.3	-32.9	27.4	0.00e+00	0	31	101	1048576	42	6158
2026-01-06 18:46:36.33	40.28	50.30	-32.5	-33.1	27.2	0.00e+00	0	31	101	1048576	42	6260
2026-01-06 18:46:37.34	40.54	50.61	-32.5	-33.1	27.2	0.00e+00	0	31	101	1048576	42	6257
2026-01-06 18:46:38.35	40.80	50.93	-32.9	-33.5	27.3	0.00e+00	0	31	101	1048576	42	6555
2026-01-06 18:46:39.36	41.07	51.25	-32.5	-33.1	27.2	0.00e+00	0	31	101	1048576	42	6304
2026-01-06 18:46:40.37	41.35	51.57	-32.8	-33.4	27.0	0.00e+00	0	31	101	1048576	42	6522
2026-01-06 18:46:41.38	41.63	51.89	-33.0	-33.6	26.7	0.00e+00	0	31	101	1048576	42	6628
2026-01-06 18:46:42.39	41.92	52.21	-33.1	-33.7	26.8	0.00e+00	0	31	101	1048576	44	6025
2026-01-06 18:46:43.40	42.21	52.54	-33.1	-33.6	26.9	0.00e+00	0	31	101	1048576	44	5962
2026-01-06 18:46:44.41	42.51	52.86	-32.7	-33.3	27.1	0.00e+00	0	31	101	1048576	44	5731
2026-01-06 18:46:45.42	42.82	53.19	-32.4	-33.0	27.2	0.00e+00	0	31	101	1048576	44	5537
2026-01-06 18:46:46.43	43.13	53.52	-32.5	-33.1	27.1	0.00e+00	0	31	101	1048576	44	5603
2026-01-06 18:46:47.44	43.45	53.85	-32.6	-33.2	27.1	0.00e+00	0	31	101	1048576	44	5674
2026-01-06 18:46:48.45	43.78	54.18	-33.2	-33.8	26.8	0.00e+00	0	31	101	1048576	44	6078
2026-01-06 18:46:49.46	44.11	54.51	-32.7	-33.3	27.0	0.00e+00	0	31	101	1048576	44	5753
2026-01-06 18:46:50.47	44.46	54.85	-32.7	-33.3	27.0	0.00e+00	0	31	101	1048576	44	5718
2026-01-06 18:46:51.48	44.81	55.18	-32.9	-33.5	26.9	0.00e+00	0	31	101	1048576	44	5856
2026-01-06 18:46:52.49	45.17	55.52	-33.0	-33.5	26.8	0.00e+00	0	31	101	1048576	44	5896
2026-01-06 18:46:53.50	45.53	55.85	-33.2	-33.8	26.6	0.00e+00	0	31	101	1048576	44	6091
2026-01-06 18:46:54.51	45.91	56.19	-33.1	-33.7	27.0	0.00e+00	0	31	101	1048576	42	6715
2026-01-06 18:46:55.52	46.30	56.53	-32.7	-33.3	27.1	0.00e+00	0	31	101	1048576	44	5703
2026-01-06 18:46:56.53	46.69	56.87	-32.7	-33.3	27.0	0.00e+00	0	31	101	1048576	44	5745
2026-01-06 18:46:57.54	47.10	57.21	-32.9	-33.6	26.7	0.00e+00	0	31	101	1048576	44	5900
2026-01-06 18:46:58.55	47.51	57.55	-32.8	-33.4	27.0	0.00e+00	0	31	101	1048576	44	5768
2026-01-06 18:46:59.56	47.94	57.89	-32.8	-33.4	26.9	0.00e+00	0	31	101	1048576	44	5783
2026-01-06 18:47:00.57	48.38	58.24	-32.5	-33.0	27.2	0.00e+00	0	31	101	1048576	44	5552
2026-01-06 18:47:01.58	48.83	58.58	-32.4	-33.0	27.3	0.00e+00	0	31	101	1048576	44	5519
2026-01-06 18:47:02.59	49.29	58.92	-32.4	-33.0	27.4	0.00e+00	0	31	101	1048576	44	5507
2026-01-06 18:47:03.60	49.76	59.26	-32.7	-33.3	27.0	0.00e+00	0	31	101	1048576	44	5715
2026-01-06 18:47:04.61	50.24	59.61	-32.9	-33.6	26.8	0.00e+00	0	31	101	1048576	44	5903
2026-01-06 18:47:05.62	50.74	59.95	-32.4	-33.0	27.2	0.00e+00	0	31	101	1048576	44	5540
2026-01-06 18:47:06.63	51.25	60.29	-32.5	-33.1	27.2	0.00e+00	0	31	101	1048576	44	5614
2026-01-06 18:47:07.64	51.77	60.64	-32.6	-33.2	27.2	0.00e+00	0	31	101	1048576	44	5636
2026-01-06 18:47:08.65	52.31	60.98	-32.6	-33.2	27.1	0.00e+00	0	31	101	1048576	44	5676
2026-01-06 18:47:09.66	52.86	61.32	-32.9	-33.6	24.5	0.00e+00	0	31	101	1048576	44	5956
2026-01-06 18:47:10.67	53.43	61.66	-32.6	-33.1	27.1	0.00e+00	0	31	101	1048576	44	5626
2026-01-06 18:47:11.68	54.02	62.00	-32.3	-32.9	27.4	0.00e+00	0	31	101	1048576	44	5484
2026-01-06 18:47:12.69	54.62	62.34	-32.2	-32.8	27.3	0.00e+00	0	31	101	1048576	44	5403
2026-01-06 18:47:13.70	55.24	62.68	-32.4	-33.0	27.3	0.00e+00	0	31	101	1048576	44	5510
2026-01-06 18:47:14.71	55.87	63.02	-32.4	-33.0	27.1	0.00e+00	0	31	101	1048576	44	5530
2026-01-06 18:47:15.72	56.53	63.36	-32.1	-32.7	27.5	0.00e+00	0	31	101	1048576	42	5991
2026-01-06 18:47:16.73	57.20	63.69	-32.1	-32.7	27.5	0.00e+00	0	31	101	1048576	42	5975
2026-01-06 18:47:17.74	57.89	64.03	-31.8	-32.4	27.8	0.00e+00	0	31	101	1048576	42	5763
2026-01-06 18:47:18.75	58.60	64.36	-31.8	-32.4	27.8	0.00e+00	0	31	101	1048576	42	5786
2026-01-06 18:47:19.76	59.33	64.69	-31.8	-32.4	27.8	0.00e+00	0	31	101	1048576	42	5813
2026-01-06 18:47:20.77	60.09	65.02	-31.8	-32.4	27.7	0.00e+00	0	31	101	1048576	42	5772
2026-01-06 18:47:21.78	60.86	65.34	-31.9	-32.5	27.7	0.00e+00	0	31	101	1048576	42	5845
2026-01-06 18:47:22.79	61.66	65.66	-31.7	-32.3	27.9	0.00e+00	0	31	101	1048576	42	5704
2026-01-06 18:47:23.80	62.48	65.98	-31.6	-32.1	28.0	0.00e+00	0	31	101	1048576	42	5626
2026-01-06 18:47:24.81	63.33	66.30	-31.4	-32.0	28.1	0.00e+00	0	31	101	1048576	42	5553
2026-01-06 18:47:25.83	64.21	66.61	-31.3	-31.9	28.1	0.00e+00	0	31	101	1048576	42	5480
2026-01-06 18:47:26.83	65.10	66.92	-31.4	-32.0	28.2	0.00e+00	0	31	101	1048576	42	5520
2026-01-06 18:47:27.85	66.03	67.22	-31.2	-31.7	28.3	0.00e+00	0	31	101	1048576	42	5359
2026-01-06 18:47:28.86	66.98	67.52	-31.2	-31.7	28.0	0.00e+00	0	31	101	1048576	40	6030
2026-01-06 18:47:29.87	67.96	67.82	-31.4	-32.0	28.0	0.00e+00	0	31	101	1048576	40	6223
2026-01-06 18:47:30.88	68.96	68.11	-31.3	-31.8	28.1	0.00e+00	0	31	101	1048576	40	6082
2026-01-06 18:47:31.89	70.00	68.39	-31.1	-31.7	28.0	0.00e+00	0	31	101	1048576	40	6021
2026-01-06 18:47:32.90	71.06	68.67	-31.1	-31.6	28.2	0.00e+00	0	31	101	1048576	40	5964
2026-01-06 18:47:33.91	72.16	68.94	-31.4	-32.0	27.9	0.00e+00	0	31	101	1048576	40	6195
2026-01-06 18:47:34.92	73.28	69.21	-31.9	-32.5	27.6	0.00e+00	0	31	101	1048576	40	6592
2026-01-06 18:47:35.93	74.44	69.47	-31.8	-32.4	27.8	0.00e+00	0	31	101	1048576	40	6498
2026-01-06 18:47:36.94	75.63	69.72	-31.5	-32.0	27.9	0.00e+00	0	31	101	1048576	40	6244
2026-01-06 18:47:37.95	76.85	69.96	-31.3	-31.8	28.1	0.00e+00	0	31	101	1048576	40	6102
2026-01-06 18:47:38.96	78.10	70.20	-31.4	-31.9	28.1	0.00e+00	0	31	101	1048576	40	6152
2026-01-06 18:47:39.97	79.38	70.43	-31.3	-31.9	27.9	0.00e+00	0	31	101	1048576	40	6105
2026-01-06 18:47:40.98	80.69	70.65	-31.4	-31.9	27.9	0.00e+00	0	31	101	1048576	40	6163
2026-01-06 18:47:41.99	82.04	70.85	-31.7	-32.2	27.7	0.00e+00	0	31	101	1048576	40	6369
2026-01-06 18:47:43.00	83.41	71.05	-31.8	-32.4	27.8	0.00e+00	0	31	101	1048576	40	6477
2026-01-06 18:47:44.01	84.82	71.24	-31.9	-32.5	27.7	0.00e+00	0	31	101	1048576	40	6571
2026-01-06 18:47:45.02	86.25	71.42	-31.8	-32.4	27.8	0.00e+00	0	31	101	1048576	40	6480
2026-01-06 18:47:46.03	87.72	71.59	-31.7	-32.3	27.9	0.00e+00	0	31	101	1048576	40	6392
2026-01-06 18:47:47.04	89.21	71.75	-31.5	-32.1	27.9	0.00e+00	0	31	101	1048576	40	6291
2026-01-06 18:47:48.05	90.73	71.90	-31.6	-32.2	27.5	0.00e+00	0	31	101	1048576	40	6369
2026-01-06 18:47:49.06	92.27	72.03	-31.9	-32.4	27.6	0.00e+00	0	31	101	1048576	40	6531
2026-01-06 18:47:50.07	93.84	72.15	-32.1	-32.7	27.5	0.00e+00	0	31	101	1048576	42	6016
2026-01-06 18:47:51.08	95.43	72.26	-32.0	-32.5	27.6	0.00e+00	0	31	101	1048576	42	5887
2026-01-06 18:47:52.09	97.04	72.36	-32.0	-32.6	27.6	0.00e+00	0	31	101	1048576	42	5927
2026-01-06 18:47:53.11	98.68	72.44	-31.7	-32.3	26.4	0.00e+00	0	31	101	1048576	42	5702
2026-01-06 18:47:54.12	100.32	72.51	-31.6	-32.1	27.9	0.00e+00	0	31	101	1048576	42	5620
2026-01-06 18:47:55.13	101.97	72.56	-31.5	-32.1	27.7	0.00e+00	0	31	101	1048576	42	5567
2026-01-06 18:47:56.14	103.63	72.61	-31.7	-32.3	27.8	0.00e+00	0	31	101	1048576	42	5723
2026-01-06 18:47:57.15	105.30	72.63	-31.8	-32.4	27.7	0.00e+00	0	31	101	1048576	42	5791
2026-01-06 18:47:58.16	106.98	72.65	-31.5	-32.1	27.9	0.00e+00	0	31	101	1048576	42	5598
2026-01-06 18:47:59.17	108.65	72.65	-31.1	-31.7	28.2	0.00e+00	0	31	101	1048576	42	5370
2026-01-06 18:48:00.18	110.33	72.63	-31.3	-31.9	28.0	0.00e+00	0	31	101	1048576	42	5464
2026-01-06 18:48:01.19	112.00	72.61	-31.8	-32.4	27.7	0.00e+00	0	31	101	1048576	42	5767
2026-01-06 18:48:02.20	113.66	72.56	-31.3	-31.9	27.3	0.00e+00	0	31	101	1048576	42	5446
2026-01-06 18:48:03.21	115.31	72.51	-31.4	-32.0	28.0	0.00e+00	0	31	101	1048576	42	5537
2026-01-06 18:48:04.22	116.95	72.44	-31.3	-31.9	28.0	0.00e+00	0	31	101	1048576	42	5482
2026-01-06 18:48:05.24	118.59	72.36	-31.3	-31.8	28.1	0.00e+00	0	31	101	1048576	42	5429
2026-01-06 18:48:06.25	120.20	72.26	-31.4	-32.0	28.0	0.00e+00	0	31	101	1048576	42	5530
2026-01-06 18:48:07.26	121.79	72.15	-31.8	-32.4	27.7	0.00e+00	0	31	101	1048576	42	5775
2026-01-06 18:48:08.27	123.36	72.03	-31.7	-32.3	27.7	0.00e+00	0	31	101	1048576	42	5722
2026-01-06 18:48:09.28	124.90	71.90	-31.4	-32.0	27.9	0.00e+00	0	31	101	1048576	42	5532
2026-01-06 18:48:10.29	126.42	71.75	-31.4	-32.0	28.0	0.00e+00	0	31	101	1048576	42	5550
2026-01-06 18:48:11.30	127.92	71.59	-31.5	-32.1	27.9	0.00e+00	0	31	101	1048576	42	5575
2026-01-06 18:48:12.31	129.38	71.42	-31.3	-31.9	27.9	0.00e+00	0	31	101	1048576	42	5455
2026-01-06 18:48:13.32	130.82	71.24	-31.3	-31.9	27.9	0.00e+00	0	31	101	1048576	42	5482
2026-01-06 18:48:14.33	132.23	71.05	-31.7	-32.3	27.4	0.00e+00	0	31	101	1048576	42	5730
2026-01-06 18:48:15.34	133.60	70.85	-31.8	-32.4	27.6	0.00e+00	0	31	101	1048576	42	5811
2026-01-06 18:48:16.35	134.95	70.64	-31.6	-32.2	27.6	0.00e+00	0	31	101	1048576	42	5666
2026-01-06 18:48:17.36	136.26	70.42	-31.5	-32.1	28.0	0.00e+00	0	31	101	1048576	42	5595
2026-01-06 18:48:18.37	137.55	70.20	-31.3	-31.9	28.2	0.00e+00	0	31	101	1048576	42	5442
2026-01-06 18:48:19.38	138.80	69.96	-31.3	-31.9	28.0	0.00e+00	0	31	101	1048576	42	5475
2026-01-06 18:48:20.39	140.02	69.72	-31.3	-31.9	27.9	0.00e+00	0	31	101	1048576	42	5479
2026-01-06 18:48:21.40	141.21	69.46	-31.7	-32.3	27.9	0.00e+00	0	31	101	1048576	42	5720
2026-01-06 18:48:22.41	142.36	69.20	-31.9	-32.5	27.7	0.00e+00	0	31	101	1048576	42	5841
2026-01-06 18:48:23.42	143.49	68.94	-31.8	-32.3	27.7	0.00e+00	0	31	101	1048576	42	5751
2026-01-06 18:48:24.43	144.59	68.66	-31.5	-32.1	27.8	0.00e+00	0	31	101	1048576	42	5590
2026-01-06 18:48:25.44	145.65	68.39	-31.3	-31.8	28.1	0.00e+00	0	31	101	1048576	42	5424
2026-01-06 18:48:26.45	146.69	68.10	-31.2	-31.8	28.2	0.00e+00	0	31	101	1048576	42	5408
2026-01-06 18:48:27.46	147.70	67.81	-31.2	-31.8	28.2	0.00e+00	0	31	101	1048576	42	5411
2026-01-06 18:48:28.47	148.67	67.51	-31.2	-31.8	28.2	0.00e+00	0	31	101	1048576	42	5390
2026-01-06 18:48:29.48	149.63	67.21	-31.1	-31.7	28.1	0.00e+00	0	31	101	1048576	42	5351
2026-01-06 18:48:30.49	150.55	66.91	-31.2	-31.8	28.2	0.00e+00	0	31	101	1048576	42	5422
2026-01-06 18:48:31.50	151.45	66.60	-31.3	-31.9	28.0	0.00e+00	0	31	101	1048576	42	5472
2026-01-06 18:48:32.52	152.33	66.29	-31.2	-31.7	28.3	0.00e+00	0	31	101	1048576	42	5355
2026-01-06 18:48:33.53	153.18	65.97	-31.3	-31.9	28.0	0.00e+00	0	31	101	1048576	42	5477
2026-01-06 18:48:34.54	154.00	65.65	-31.2	-31.8	28.2	0.00e+00	0	31	101	1048576	42	5397
2026-01-06 18:48:35.55	154.80	65.33	-31.3	-31.9	28.1	0.00e+00	0	31	101	1048576	42	5443
2026-01-06 18:48:36.56	155.57	65.00	-31.1	-31.7	28.2	0.00e+00	0	31	101	1048576	42	5354
2026-01-06 18:48:37.57	156.33	64.67	-31.0	-31.6	28.3	0.00e+00	0	31	101	1048576	40	5910
2026-01-06 18:48:38.58	157.06	64.34	-31.0	-31.5	28.1	0.00e+00	0	31	101	1048576	40	5888
2026-01-06 18:48:39.59	157.77	64.01	-31.2	-31.7	28.1	0.00e+00	0	31	101	1048576	40	6026
2026-01-06 18:48:40.60	158.47	63.68	-31.4	-32.0	27.9	0.00e+00	0	31	101	1048576	40	6201
2026-01-06 18:48:41.61	159.14	63.34	-31.4	-32.0	27.9	0.00e+00	0	31	101	1048576	40	6221
2026-01-06 18:48:42.62	159.79	63.00	-31.4	-32.0	28.0	0.00e+00	0	31	101	1048576	40	6175
2026-01-06 18:48:43.63	160.43	62.67	-31.6	-32.1	28.0	0.00e+00	0	31	101	1048576	40	6312
2026-01-06 18:48:44.64	161.05	62.33	-31.6	-32.2	27.9	0.00e+00	0	31	101	1048576	40	6328
2026-01-06 18:48:45.65	161.65	61.98	-31.8	-32.4	27.8	0.00e+00	0	31	101	1048576	40	6487
2026-01-06 18:48:46.66	162.23	61.64	-31.9	-32.4	27.7	0.00e+00	0	31	101	1048576	40	6520
2026-01-06 18:48:47.67	162.80	61.30	-32.0	-32.6	27.5	0.00e+00	0	31	101	1048576	40	6639
2026-01-06 18:48:48.68	163.36	60.96	-31.9	-32.5	27.6	0.00e+00	0	31	101	1048576	42	5872
2026-01-06 18:48:49.69	163.89	60.61	-31.9	-32.4	27.3	0.00e+00	0	31	101	1048576	42	5825
2026-01-06 18:48:50.70	164.42	60.27	-32.0	-32.6	27.5	0.00e+00	0	31	101	1048576	42	5897
2026-01-06 18:48:51.71	164.93	59.92	-32.0	-32.6	27.5	0.00e+00	0	31	101	1048576	42	5908
2026-01-06 18:48:52.72	165.43	59.58	-32.0	-32.6	27.5	0.00e+00	0	31	101	1048576	42	5943
2026-01-06 18:48:53.73	165.91	59.24	-32.3	-32.9	27.5	0.00e+00	0	31	101	1048576	42	6106
2026-01-06 18:48:54.74	166.38	58.89	-32.5	-33.0	26.8	0.00e+00	0	31	101	1048576	42	6230
2026-01-06 18:48:55.75	166.84	58.55	-32.6	-33.2	27.0	0.00e+00	0	31	101	1048576	42	6374
2026-01-06 18:48:56.76	167.29	58.20	-32.9	-33.5	26.5	0.00e+00	0	31	101	1048576	42	6582
2026-01-06 18:48:57.77	167.73	57.86	-33.0	-33.6	26.5	0.00e+00	0	31	101	1048576	42	6646
2026-01-06 18:48:58.78	168.16	57.52	-32.8	-33.4	27.0	0.00e+00	0	31	101	1048576	42	6528
2026-01-06 18:48:59.80	168.58	57.17	-32.8	-33.4	27.0	0.00e+00	0	31	101	1048576	42	6474
2026-01-06 18:49:00.81	168.98	56.83	-32.8	-33.3	27.0	0.00e+00	0	31	101	1048576	42	6451
2026-01-06 18:49:01.82	169.38	56.49	-32.9	-33.5	25.8	0.00e+00	0	31	101	1048576	42	6566
2026-01-06 18:49:02.83	169.76	56.15	-32.9	-33.5	26.6	0.00e+00	0	31	101	1048576	42	6611
2026-01-06 18:49:03.84	170.14	55.81	-33.0	-33.6	26.9	0.00e+00	0	31	101	1048576	44	5900
2026-01-06 18:49:04.85	170.51	55.47	-32.9	-33.5	27.0	0.00e+00	0	31	101	1048576	44	5830
2026-01-06 18:49:05.86	170.87	55.14	-32.8	-33.4	26.9	0.00e+00	0	31	101	1048576	44	5827
2026-01-06 18:49:06.87	171.22	54.80	-32.8	-33.4	26.9	0.00e+00	0	31	101	1048576	44	5818
2026-01-06 18:49:07.88	171.56	54.47	-32.9	-33.5	26.8	0.00e+00	0	31	101	1048576	44	5835
2026-01-06 18:49:08.89	171.90	54.13	-32.9	-33.5	26.9	0.00e+00	0	31	101	1048576	44	5864
2026-01-06 18:49:09.90	172.23	53.80	-32.8	-33.4	26.9	0.00e+00	0	31	101	1048576	44	5790
2026-01-06 18:49:10.91	172.55	53.47	-32.9	-33.5	26.9	0.00e+00	0	31	101	1048576	44	5862
2026-01-06 18:49:11.92	172.86	53.14	-32.9	-33.5	26.9	0.00e+00	0	31	101	1048576	44	5877
2026-01-06 18:49:12.93	173.17	52.81	-32.6	-33.2	26.8	0.00e+00	0	31	101	1048576	44	5684
2026-01-06 18:49:13.94	173.47	52.48	-32.4	-33.0	27.3	0.00e+00	0	31	101	1048576	44	5545
2026-01-06 18:49:14.95	173.76	52.16	-32.4	-33.0	27.3	0.00e+00	0	31	101	1048576	44	5510
2026-01-06 18:49:15.96	174.05	51.83	-32.0	-32.6	27.5	0.00e+00	0	31	101	1048576	42	5935
2026-01-06 18:49:16.97	174.33	51.51	-32.0	-32.6	27.6	0.00e+00	0	31	101	1048576	42	5908
2026-01-06 18:49:17.98	174.60	51.19	-32.3	-32.9	27.2	0.00e+00	0	31	101	1048576	42	6119
2026-01-06 18:49:18.99	174.87	50.87	-32.3	-32.9	27.4	0.00e+00	0	31	101	1048576	42	6156
2026-01-06 18:49:20.00	175.13	50.55	-32.3	-32.9	27.3	0.00e+00	0	31	101	1048576	42	6166
2026-01-06 18:49:21.01	175.39	50.23	-32.3	-33.0	27.0	0.00e+00	0	31	101	1048576	42	6180
2026-01-06 18:49:22.02	175.65	49.92	-32.1	-32.7	27.4	0.00e+00	0	31	101	1048576	42	5995
2026-01-06 18:49:23.03	175.89	49.61	-32.2	-32.8	27.5	0.00e+00	0	31	101	1048576	42	6040
2026-01-06 18:49:24.04	176.14	49.29	-32.2	-32.8	27.4	0.00e+00	0	31	101	1048576	42	6085
2026-01-06 18:49:25.05	176.37	48.98	-32.6	-33.2	27.3	0.00e+00	0	31	101	1048576	42	6336
2026-01-06 18:49:26.06	176.61	48.68	-32.6	-33.2	26.9	0.00e+00	0	31	101	1048576	42	6336
2026-01-06 18:49:27.07	176.84	48.37	-32.6	-33.1	27.2	0.00e+00	0	31	101	1048576	42	6311
2026-01-06 18:49:28.08	177.06	48.06	-32.6	-33.2	26.7	0.00e+00	0	31	101	1048576	42	6339
2026-01-06 18:49:29.09	177.28	47.76	-32.4	-32.9	27.4	0.00e+00	0	31	101	1048576	42	6167
2026-01-06 18:49:30.10	177.50	47.46	-32.2	-32.7	27.5	0.00e+00	0	31	101	1048576	42	6022
2026-01-06 18:49:31.11	177.71	47.16	-32.3	-32.8	26.8	0.00e+00	0	31	101	1048576	42	6102
2026-01-06 18:49:32.12	177.92	46.86	-32.5	-33.1	27.2	0.00e+00	0	31	101	1048576	42	6307
2026-01-06 18:49:33.13	178.12	46.56	-32.8	-33.5	27.0	0.00e+00	0	31	101	1048576	42	6549
2026-01-06 18:49:34.14	178.32	46.27	-32.8	-33.4	26.9	0.00e+00	0	31	101	1048576	42	6518
2026-01-06 18:49:35.15	178.52	45.97	-32.7	-33.3	27.0	0.00e+00	0	31	101	1048576	42	6464
2026-01-06 18:49:36.16	178.71	45.68	-32.6	-33.2	27.1	0.00e+00	0	31	101	1048576	42	6384
2026-01-06 18:49:37.17	178.90	45.39	-32.5	-33.1	27.3	0.00e+00	0	31	101	1048576	42	6270
2026-01-06 18:49:38.19	179.09	45.10	-32.0	-32.6	27.7	0.00e+00	0	31	101	1048576	42	5938
2026-01-06 18:49:39.20	179.28	44.82	-31.6	-32.2	27.9	0.00e+00	0	31	101	1048576	42	5670
2026-01-06 18:49:40.20	179.45	44.53	-31.6	-32.2	27.9	0.00e+00	0	31	101	1048576	42	5672
2026-01-06 18:49:41.21	179.63	44.25	-31.6	-32.1	27.8	0.00e+00	0	31	101	1048576	42	5617
2026-01-06 18:49:42.22	179.81	43.97	-31.6	-32.2	27.6	0.00e+00	0	31	101	1048576	42	5662
2026-01-06 18:49:43.24	179.98	43.69	-31.6	-32.1	28.0	0.00e+00	0	31	101	1048576	42	5622
2026-01-06 18:49:44.25	180.15	43.41	-31.2	-31.7	28.2	0.00e+00	0	31	101	1048576	42	5376
2026-01-06 18:49:45.26	180.31	43.14	-31.1	-31.6	28.3	0.00e+00	0	31	101	1048576	40	5954
2026-01-06 18:49:46.27	180.47	42.86	-30.9	-31.4	28.3	0.00e+00	0	31	101	1048576	40	5824
2026-01-06 18:49:47.28	180.63	42.59	-30.7	-31.3	28.4	0.00e+00	0	31	101	1048576	40	5733
2026-01-06 18:49:48.29	180.79	42.32	-30.8	-31.4	28.5	0.00e+00	0	31	101	1048576	40	5772
2026-01-06 18:49:49.30	180.95	42.05	-30.9	-31.5	28.0	0.00e+00	0	31	101	1048576	40	5850
2026-01-06 18:49:50.31	181.10	41.78	-30.9	-31.5	28.4	0.00e+00	0	31	101	1048576	40	5842
2026-01-06 18:49:51.32	181.25	41.52	-31.1	-31.7	28.3	0.00e+00	0	31	101	1048576	40	5966
2026-01-06 18:49:52.33	181.40	41.25	-31.1	-31.6	27.4	0.00e+00	0	31	101	1048576	40	5943
2026-01-06 18:49:53.34	181.54	40.99	-31.2	-31.8	28.1	0.00e+00	0	31	101	1048576	40	6057
2026-01-06 18:49:54.35	181.68	40.73	-31.2	-31.8	28.2	0.00e+00	0	31	101	1048576	40	6065
2026-01-06 18:49:55.36	181.83	40.47	-31.3	-31.9	28.0	0.00e+00	0	31	101	1048576	40	6119
2026-01-06 18:49:56.37	181.96	40.22	-31.3	-31.9	28.0	0.00e+00	0	31	101	1048576	40	6127
2026-01-06 18:49:57.38	182.10	39.96	-31.4	-32.0	28.1	0.00e+00	0	31	101	1048576	40	6185
2026-01-06 18:49:58.39	182.23	39.71	-31.4	-32.0	27.8	0.00e+00	0	31	101	1048576	40	6213
2026-01-06 18:49:59.40	182.37	39.46	-31.4	-32.0	27.8	0.00e+00	0	31	101	1048576	40	6210
2026-01-06 18:50:00.41	182.50	39.20	-31.5	-32.1	27.7	0.00e+00	0	31	101	1048576	40	6303
2026-01-06 18:50:01.42	182.63	38.96	-31.4	-31.9	27.9	0.00e+00	0	31	101	1048576	40	6168
2026-01-06 18:50:02.43	182.75	38.71	-31.1	-31.7	27.6	0.00e+00	0	31	101	1048576	40	5992
2026-01-06 18:50:03.44	182.88	38.46	-31.2	-31.8	27.5	0.00e+00	0	31	101	1048576	40	6040
2026-01-06 18:50:04.45	183.00	38.22	-31.0	-31.6	28.3	0.00e+00	0	31	101	1048576	40	5936
2026-01-06 18:50:05.46	183.12	37.98	-31.1	-31.7	27.9	0.00e+00	0	31	101	1048576	40	6009
2026-01-06 18:50:06.47	183.24	37.74	-31.1	-31.7	28.2	0.00e+00	0	31	101	1048576	40	6004
2026-01-06 18:50:07.48	183.36	37.50	-31.2	-31.8	28.0	0.00e+00	0	31	101	1048576	40	6064
2026-01-06 18:50:08.49	183.48	37.26	-31.3	-31.9	28.0	0.00e+00	0	31	101	1048576	40	6112
2026-01-06 18:50:09.50	183.59	37.03	-31.3	-31.9	28.1	0.00e+00	0	31	101	1048576	40	6147
2026-01-06 18:50:10.51	183.70	36.79	-31.2	-31.8	28.2	0.00e+00	0	31	101	1048576	40	6071
2026-01-06 18:50:11.52	183.81	36.56	-31.4	-32.0	27.8	0.00e+00	0	31	101	1048576	40	6183
2026-01-06 18:50:12.52	183.92	36.33	-31.2	-31.8	28.0	0.00e+00	0	31	101	1048576	40	6040
2026-01-06 18:50:13.53	184.03	36.10	-31.1	-31.7	28.3	0.00e+00	0	31	101	1048576	40	5974
2026-01-06 18:50:14.54	184.14	35.87	-31.1	-31.7	28.3	0.00e+00	0	31	101	1048576	40	5988
2026-01-06 18:50:15.54	184.24	35.65	-31.2	-31.7	28.2	0.00e+00	0	31	101	1048576	40	6021
2026-01-06 18:50:16.55	184.35	35.42	-31.1	-31.7	28.2	0.00e+00	0	31	101	1048576	40	5976
2026-01-06 18:50:17.55	184.45	35.20	-30.9	-31.5	28.4	0.00e+00	0	31	101	1048576	40	5863
2026-01-06 18:50:18.56	184.55	34.98	-31.0	-31.6	28.2	0.00e+00	0	31	101	1048576	40	5900
2026-01-06 18:50:19.56	184.65	34.76	-30.9	-31.5	28.5	0.00e+00	0	31	101	1048576	40	5851
2026-01-06 18:50:20.57	184.75	34.54	-31.1	-31.7	28.4	0.00e+00	0	31	101	1048576	40	5989
2026-01-06 18:50:21.57	184.85	34.33	-31.1	-31.7	28.2	0.00e+00	0	31	101	1048576	40	5977
2026-01-06 18:50:22.58	184.94	34.11	-31.2	-31.8	28.2	0.00e+00	0	31	101	1048576	40	6087
2026-01-06 18:50:23.59	185.04	33.89	-31.1	-31.7	28.1	0.00e+00	0	31	101	1048576	40	6031
2026-01-06 18:50:24.59	185.13	33.68	-31.0	-31.6	28.1	0.00e+00	0	31	101	1048576	40	5954
2026-01-06 18:50:25.60	185.22	33.47	-31.0	-31.6	28.2	0.00e+00	0	31	101	1048576	40	5947
2026-01-06 18:50:26.60	185.31	33.26	-31.0	-31.6	28.3	0.00e+00	0	31	101	1048576	40	5956
2026-01-06 18:50:27.60	185.40	33.05	-31.0	-31.6	28.4	0.00e+00	0	31	101	1048576	40	5899
2026-01-06 18:50:28.61	185.49	32.85	-30.9	-31.5	28.4	0.00e+00	0	31	101	1048576	40	5886
2026-01-06 18:50:29.61	185.58	32.64	-30.8	-31.4	28.4	0.00e+00	0	31	101	1048576	40	5795
2026-01-06 18:50:30.61	185.67	32.44	-30.8	-31.4	28.5	0.00e+00	0	31	101	1048576	40	5799
2026-01-06 18:50:31.62	185.75	32.23	-30.7	-31.3	28.6	0.00e+00	0	31	101	1048576	40	5746
2026-01-06 18:50:32.62	185.84	32.03	-30.8	-31.3	28.5	0.00e+00	0	31	101	1048576	40	5758
2026-01-06 18:50:33.63	185.92	31.83	-30.7	-31.3	27.8	0.00e+00	0	31	101	1048576	40	5729
2026-01-06 18:50:34.63	186.01	31.63	-30.7	-31.3	28.6	0.00e+00	0	31	101	1048576	40	5709
2026-01-06 18:50:35.64	186.09	31.44	-30.7	-31.3	28.6	0.00e+00	0	31	101	1048576	40	5724
2026-01-06 18:50:36.64	186.17	31.24	-30.8	-31.4	28.4	0.00e+00	0	31	101	1048576	40	5788
2026-01-06 18:50:37.65	186.25	31.04	-30.9	-31.5	28.4	0.00e+00	0	31	101	1048576	40	5864
2026-01-06 18:50:38.66	186.33	30.85	-30.8	-31.4	28.5	0.00e+00	0	31	101	1048576	40	5767
2026-01-06 18:50:39.66	186.41	30.66	-30.8	-31.4	28.5	0.00e+00	0	31	101	1048576	40	5781
2026-01-06 18:50:40.67	186.48	30.46	-30.9	-31.5	28.4	0.00e+00	0	31	101	1048576	40	5860
2026-01-06 18:50:41.68	186.56	30.27	-31.0	-31.6	28.4	0.00e+00	0	31	101	1048576	40	5939
2026-01-06 18:50:42.68	186.64	30.08	-31.0	-31.6	28.3	0.00e+00	0	31	101	1048576	40	5946
2026-01-06 18:50:43.68	186.71	29.90	-31.0	-31.6	28.2	0.00e+00	0	31	101	1048576	40	5951
2026-01-06 18:50:44.69	186.79	29.71	-31.1	-31.7	28.0	0.00e+00	0	31	101	1048576	40	5992
2026-01-06 18:50:45.70	186.86	29.52	-31.2	-31.8	27.9	0.00e+00	0	31	101	1048576	40	6050
2026-01-06 18:50:46.70	186.93	29.34	-31.1	-31.7	28.3	0.00e+00	0	31	101	1048576	40	6014
2026-01-06 18:50:47.71	187.00	29.15	-31.2	-31.8	28.2	0.00e+00	0	31	101	1048576	40	6039
2026-01-06 18:50:48.71	187.07	28.97	-31.1	-31.7	28.2	0.00e+00	0	31	101	1048576	40	5996
2026-01-06 18:50:49.72	187.14	28.79	-31.1	-31.7	28.1	0.00e+00	0	31	101	1048576	40	6004
2026-01-06 18:50:50.72	187.21	28.61	-31.2	-31.7	28.2	0.00e+00	0	31	101	1048576	40	6033
2026-01-06 18:50:51.73	187.28	28.43	-31.1	-31.6	28.3	0.00e+00	0	31	101	1048576	40	5949
2026-01-06 18:50:52.73	187.35	28.26	-31.2	-31.8	28.1	0.00e+00	0	31	101	1048576	40	6039
2026-01-06 18:50:53.74	187.42	28.08	-31.1	-31.7	28.2	0.00e+00	0	31	101	1048576	40	5997
2026-01-06 18:50:54.74	187.48	27.90	-31.2	-31.8	28.1	0.00e+00	0	31	101	1048576	40	6043
2026-01-06 18:50:55.75	187.55	27.73	-31.1	-31.7	28.0	0.00e+00	0	31	101	1048576	40	6001
2026-01-06 18:50:56.75	187.62	27.55	-31.2	-31.8	28.2	0.00e+00	0	31	101	1048576	40	6035
2026-01-06 18:50:57.76	187.68	27.38	-31.2	-31.8	28.2	0.00e+00	0	31	101	1048576	40	6044
2026-01-06 18:50:58.77	187.74	27.21	-31.3	-31.9	28.2	0.00e+00	0	31	101	1048576	40	6104
2026-01-06 18:50:59.77	187.81	27.04	-31.4	-31.9	28.1	0.00e+00	0	31	101	1048576	40	6166
2026-01-06 18:51:00.78	187.87	26.87	-31.3	-31.9	28.2	0.00e+00	0	31	101	1048576	40	6113
2026-01-06 18:51:01.78	187.93	26.70	-31.4	-32.0	28.0	0.00e+00	0	31	101	1048576	40	6224
2026-01-06 18:51:02.78	187.99	26.54	-31.4	-32.0	27.8	0.00e+00	0	31	101	1048576	40	6235
2026-01-06 18:51:03.79	188.05	26.37	-31.4	-32.0	27.9	0.00e+00	0	31	101	1048576	40	6203
2026-01-06 18:51:04.80	188.11	26.20	-31.4	-32.0	27.5	0.00e+00	0	31	101	1048576	40	6211
2026-01-06 18:51:05.80	188.17	26.04	-31.5	-32.1	27.9	0.00e+00	0	31	101	1048576	40	6316
2026-01-06 18:51:06.81	188.23	25.87	-31.5	-32.1	27.8	0.00e+00	0	31	101	1048576	40	6255
2026-01-06 18:51:07.81	188.29	25.71	-31.4	-32.0	28.0	0.00e+00	0	31	101	1048576	40	6209
2026-01-06 18:51:08.82	188.35	25.55	-31.5	-32.1	27.9	0.00e+00	0	31	101	1048576	40	6289
2026-01-06 18:51:09.82	188.41	25.39	-31.4	-32.0	28.0	0.00e+00	0	31	101	1048576	40	6204
2026-01-06 18:51:10.83	188.46	25.23	-31.3	-31.9	28.1	0.00e+00	0	31	101	1048576	40	6117
2026-01-06 18:51:11.84	188.52	25.07	-31.5	-32.0	27.9	0.00e+00	0	31	101	1048576	40	6244
2026-01-06 18:51:12.85	188.58	24.91	-31.5	-32.1	28.0	0.00e+00	0	31	101	1048576	40	6257
2026-01-06 18:51:13.85	188.63	24.76	-31.2	-31.8	28.2	0.00e+00	0	31	101	1048576	40	6070
2026-01-06 18:51:14.86	188.69	24.60	-31.3	-31.9	28.0	0.00e+00	0	31	101	1048576	40	6104
2026-01-06 18:51:15.87	188.74	24.44	-31.2	-31.8	28.0	0.00e+00	0	31	101	1048576	40	6066
2026-01-06 18:51:16.87	188.79	24.29	-31.2	-31.8	28.1	0.00e+00	0	31	101	1048576	40	6089
2026-01-06 18:51:17.88	188.85	24.14	-31.3	-31.9	28.0	0.00e+00	0	31	101	1048576	40	6165
2026-01-06 18:51:18.89	188.90	23.98	-31.2	-31.8	28.1	0.00e+00	0	31	101	1048576	40	6043
2026-01-06 18:51:19.89	188.95	23.83	-31.3	-31.9	28.1	0.00e+00	0	31	101	1048576	40	6124
2026-01-06 18:51:20.90	189.01	23.68	-31.2	-31.8	28.1	0.00e+00	0	31	101	1048576	40	6087
2026-01-06 18:51:21.90	189.06	23.53	-31.2	-31.8	28.1	0.00e+00	0	31	101	1048576	40	6063
2026-01-06 18:51:22.91	189.11	23.38	-31.3	-31.8	28.1	0.00e+00	0	31	101	1048576	40	6103
2026-01-06 18:51:23.92	189.16	23.24	-31.3	-31.9	28.1	0.00e+00	0	31	101	1048576	40	6124
2026-01-06 18:51:24.92	189.21	23.09	-31.3	-31.9	28.1	0.00e+00	0	31	101	1048576	40	6160
2026-01-06 18:51:25.92	189.26	22.94	-31.3	-31.9	28.0	0.00e+00	0	31	101	1048576	40	6127
2026-01-06 18:51:26.93	189.31	22.80	-31.3	-31.9	28.0	0.00e+00	0	31	101	1048576	40	6120
2026-01-06 18:51:27.94	189.36	22.65	-31.4	-32.0	28.0	0.00e+00	0	31	101	1048576	40	6178
2026-01-06 18:51:28.95	189.40	22.51	-31.4	-32.0	28.0	0.00e+00	0	31	101	1048576	40	6226
2026-01-06 18:51:29.95	189.45	22.36	-31.3	-31.9	28.1	0.00e+00	0	31	101	1048576	40	6163
2026-01-06 18:51:30.95	189.50	22.22	-31.4	-32.0	28.0	0.00e+00	0	31	101	1048576	40	6210
2026-01-06 18:51:31.96	189.55	22.08	-31.3	-31.9	28.0	0.00e+00	0	31	101	1048576	40	6142
2026-01-06 18:51:32.97	189.59	21.94	-31.5	-32.1	27.9	0.00e+00	0	31	101	1048576	40	6270
2026-01-06 18:51:33.97	189.64	21.80	-31.4	-32.0	27.9	0.00e+00	0	31	101	1048576	40	6197
2026-01-06 18:51:34.98	189.69	21.66	-31.5	-32.0	27.9	0.00e+00	0	31	101	1048576	40	6223
2026-01-06 18:51:35.98	189.73	21.52	-31.4	-32.0	27.9	0.00e+00	0	31	101	1048576	40	6177
2026-01-06 18:51:36.98	189.78	21.38	-31.5	-32.1	27.9	0.00e+00	0	31	101	1048576	40	6258
2026-01-06 18:51:37.99	189.82	21.25	-31.4	-32.0	28.0	0.00e+00	0	31	101	1048576	40	6195
2026-01-06 18:51:38.99	189.87	21.11	-31.5	-32.1	28.0	0.00e+00	0	31	101	1048576	40	6273
2026-01-06 18:51:40.00	189.91	20.97	-31.6	-32.2	27.7	0.00e+00	0	31	101	1048576	40	6354
2026-01-06 18:51:41.01	189.95	20.84	-31.5	-32.1	27.9	0.00e+00	0	31	101	1048576	40	6284
2026-01-06 18:51:42.01	190.00	20.70	-31.6	-32.2	27.8	0.00e+00	0	31	101	1048576	40	6343
2026-01-06 18:51:43.02	190.04	20.57	-31.6	-32.2	27.8	0.00e+00	0	31	101	1048576	40	6367
2026-01-06 18:51:44.02	190.08	20.44	-31.7	-32.3	27.7	0.00e+00	0	31	101	1048576	40	6419
2026-01-06 18:51:45.03	190.13	20.30	-31.8	-32.4	27.6	0.00e+00	0	31	101	1048576	40	6467
2026-01-06 18:51:46.04	190.17	20.17	-31.8	-32.3	27.7	0.00e+00	0	31	101	1048576	40	6460
2026-01-06 18:51:47.04	190.21	20.04	-31.9	-32.5	27.6	0.00e+00	0	31	101	1048576	40	6545
2026-01-06 18:51:48.05	190.25	19.91	-31.8	-32.4	27.6	0.00e+00	0	31	101	1048576	40	6520
2026-01-06 18:51:49.05	190.29	19.78	-32.0	-32.5	27.5	0.00e+00	0	31	101	1048576	40	6615
2026-01-06 18:51:50.06	190.33	19.65	-32.0	-32.6	27.4	0.00e+00	0	31	101	1048576	42	5908
2026-01-06 18:51:51.07	190.37	19.52	-32.0	-32.6	27.5	0.00e+00	0	31	101	1048576	42	5928
2026-01-06 18:51:52.07	190.41	19.40	-32.0	-32.6	27.5	0.00e+00	0	31	101	1048576	42	5944
