passes_logs/2026/01/06/R4.6S_Anadyr_2ch/R4.6S_Anadyr_2ch__20260106_141258_SUOMI_NPP_rec.log

#Pass ID: 20260106_141258_SUOMI NPP
#Satellite: SUOMI NPP
#Configuration: NPP
#almurnet v.1.7.20251203
#Start time: 2026-01-06 14:13:01

#Version: 2.2.20231116
#Station: R4.6S_Anadyr_2ch
#Location: 177.4865 lon 64.73178 lat
#TLE: 1 37849U 11061A   25350.92281687  .00000071  00000+0  54882-4 0  9996
#TLE: 2 37849  98.7777 288.2268 0002366 112.8570 247.2856 14.19515404732588

#Time	Az	El	Level	Level2	SNR	BER	BlckErr	Temp	State	Recorded	gain1	gain2
2026-01-06 14:13:01.31	19.60	0.17	-51.4	-65.2	3.3	1.54e+00	0	32	0	0	60	89154
2026-01-06 14:13:02.32	19.62	0.23	-51.4	-66.7	3.6	1.51e+00	0	32	104	0	60	105759
2026-01-06 14:13:03.33	19.65	0.29	-51.4	-66.7	3.6	1.51e+00	0	32	104	0	60	105937
2026-01-06 14:13:04.34	19.67	0.35	-51.5	-66.8	3.6	1.51e+00	0	32	104	0	60	106331
2026-01-06 14:13:05.35	19.69	0.41	-51.5	-66.8	3.6	1.51e+00	0	32	104	0	60	106128
2026-01-06 14:13:06.36	19.71	0.47	-51.4	-66.7	3.6	1.51e+00	0	32	104	0	60	106027
2026-01-06 14:13:07.37	19.73	0.53	-51.4	-66.7	3.6	1.51e+00	0	32	104	0	60	105065
2026-01-06 14:13:08.38	19.76	0.59	-51.3	-66.6	3.6	1.51e+00	0	32	104	0	60	104100
2026-01-06 14:13:09.39	19.78	0.65	-51.2	-66.5	3.6	1.51e+00	0	32	104	0	60	103471
2026-01-06 14:13:10.41	19.80	0.71	-51.1	-66.5	3.6	1.51e+00	0	32	104	0	60	102522
2026-01-06 14:13:11.42	19.82	0.77	-50.9	-66.2	3.6	1.51e+00	0	32	104	0	60	100000
2026-01-06 14:13:12.43	19.85	0.83	-50.8	-66.0	3.6	1.51e+00	0	32	104	0	60	97652
2026-01-06 14:13:13.44	19.87	0.89	-50.6	-65.8	3.6	1.51e+00	0	32	104	0	60	95515
2026-01-06 14:13:14.45	19.89	0.95	-50.2	-65.5	3.6	1.51e+00	0	32	104	0	60	91886
2026-01-06 14:13:15.46	19.91	1.02	-50.0	-65.3	3.6	1.51e+00	0	32	104	0	60	89979
2026-01-06 14:13:16.47	19.94	1.08	-50.0	-65.2	3.6	1.51e+00	0	32	104	0	60	89167
2026-01-06 14:13:17.48	19.96	1.14	-50.0	-65.2	3.6	1.51e+00	0	32	104	0	60	88699
2026-01-06 14:13:18.49	19.98	1.20	-50.0	-65.2	3.6	1.51e+00	0	32	104	0	60	88634
2026-01-06 14:13:19.51	20.01	1.26	-50.0	-65.2	3.6	1.51e+00	0	32	104	0	60	88551
2026-01-06 14:13:20.52	20.03	1.32	-50.0	-65.2	3.6	1.51e+00	0	32	104	0	60	88528
2026-01-06 14:13:21.53	20.05	1.39	-50.0	-65.1	3.6	1.51e+00	0	32	104	0	60	87837
2026-01-06 14:13:22.54	20.08	1.45	-50.0	-65.2	3.5	1.51e+00	0	32	104	0	60	88541
2026-01-06 14:13:23.55	20.10	1.51	-50.0	-65.3	3.6	1.51e+00	0	32	104	0	60	89479
2026-01-06 14:13:24.56	20.12	1.57	-50.0	-65.2	3.6	1.51e+00	0	33	104	0	60	88983
2026-01-06 14:13:25.57	20.15	1.64	-50.0	-65.2	3.6	1.51e+00	0	32	104	0	60	89201
2026-01-06 14:13:26.58	20.17	1.70	-49.9	-65.3	3.6	1.51e+00	0	32	104	0	60	89388
2026-01-06 14:13:27.59	20.19	1.76	-50.0	-65.3	3.6	1.51e+00	0	32	104	0	60	89513
2026-01-06 14:13:28.60	20.22	1.82	-50.0	-65.2	3.6	1.51e+00	0	33	104	0	60	89088
2026-01-06 14:13:29.61	20.24	1.89	-50.0	-65.2	3.6	1.51e+00	0	32	104	0	60	89196
2026-01-06 14:13:30.62	20.27	1.95	-50.0	-65.3	3.6	1.51e+00	0	32	104	0	60	89593
2026-01-06 14:13:31.63	20.29	2.01	-50.0	-65.1	3.5	1.51e+00	0	32	104	0	60	87791
2026-01-06 14:13:32.64	20.31	2.08	-49.9	-64.8	3.6	1.51e+00	0	32	104	0	60	84543
2026-01-06 14:13:33.66	20.34	2.14	-49.9	-64.4	3.6	1.51e+00	0	32	104	0	60	80582
2026-01-06 14:13:34.67	20.36	2.21	-49.9	-63.7	3.6	1.51e+00	0	32	104	0	60	74516
2026-01-06 14:13:35.68	20.39	2.27	-49.9	-63.4	3.6	1.51e+00	0	32	104	0	60	72019
2026-01-06 14:13:36.69	20.41	2.33	-49.8	-63.0	3.6	1.50e+00	0	32	104	0	60	69188
2026-01-06 14:13:37.70	20.44	2.40	-49.8	-63.3	3.6	1.51e+00	0	33	104	0	60	70945
2026-01-06 14:13:38.71	20.46	2.46	-49.8	-63.2	3.6	1.51e+00	0	33	104	0	60	70564
2026-01-06 14:13:39.72	20.49	2.53	-49.8	-62.8	3.8	1.50e+00	0	33	104	0	60	67528
2026-01-06 14:13:40.73	20.51	2.59	-49.7	-60.8	4.4	1.47e+00	0	33	104	0	60	53506
2026-01-06 14:13:41.74	20.54	2.66	-49.4	-57.2	6.1	4.40e-01	0	33	0	0	60	35203
2026-01-06 14:13:42.75	20.56	2.72	-48.9	-54.9	8.8	1.18e-01	0	33	102	1048576	60	27256
2026-01-06 14:13:43.77	20.59	2.79	-48.3	-53.2	10.8	1.10e-02	0	33	102	1048576	60	22192
2026-01-06 14:13:44.78	20.61	2.85	-47.4	-51.0	13.1	9.54e-04	0	33	102	1048576	60	17361
2026-01-06 14:13:45.79	20.64	2.92	-46.6	-49.7	14.5	4.50e-06	0	32	102	1048576	60	14864
2026-01-06 14:13:46.80	20.66	2.98	-46.2	-48.9	15.5	0.00e+00	0	33	102	1048576	60	13551
2026-01-06 14:13:47.81	20.69	3.05	-45.5	-47.9	16.3	0.00e+00	0	32	102	1048576	60	12095
2026-01-06 14:13:48.82	20.71	3.11	-45.5	-47.8	16.4	0.00e+00	0	33	102	1048576	60	12038
2026-01-06 14:13:49.83	20.74	3.18	-45.4	-47.7	16.4	0.00e+00	0	33	102	1048576	60	11801
2026-01-06 14:13:50.84	20.76	3.25	-45.7	-48.1	16.1	0.00e+00	0	33	102	1048576	60	12365
2026-01-06 14:13:51.86	20.79	3.31	-45.9	-48.5	15.7	0.00e+00	0	33	102	1048576	60	12964
2026-01-06 14:13:52.87	20.82	3.38	-46.4	-49.3	14.9	0.00e+00	0	33	102	1048576	60	14218
2026-01-06 14:13:53.88	20.84	3.45	-47.2	-50.7	13.3	7.00e-07	0	33	102	1048576	60	16774
2026-01-06 14:13:54.89	20.87	3.51	-47.8	-52.0	11.7	2.16e-04	0	33	102	1048576	60	19459
2026-01-06 14:13:55.90	20.89	3.58	-48.7	-54.4	9.1	8.49e-03	0	33	102	1048576	60	25627
2026-01-06 14:13:56.91	20.92	3.65	-44.3	-46.0	18.3	3.23e-02	0	33	102	1048576	60	9767
2026-01-06 14:13:57.92	20.95	3.72	-46.7	-49.8	12.3	0.00e+00	0	33	102	1048576	60	15151
2026-01-06 14:13:58.93	20.97	3.78	-49.9	-61.5	3.6	1.78e-01	0	33	102	1048576	60	58096
2026-01-06 14:13:59.94	21.00	3.85	-48.0	-52.5	5.6	1.50e+00	0	33	104	1048576	60	20487
2026-01-06 14:14:00.95	21.03	3.92	-50.0	-64.9	3.6	6.29e-01	0	33	104	1048576	60	85420
2026-01-06 14:14:01.96	21.05	3.99	-49.4	-57.5	9.6	1.51e+00	0	33	104	1048576	60	36708
2026-01-06 14:14:02.97	21.08	4.05	-47.9	-51.9	12.4	3.80e-04	0	33	0	1048576	60	19108
2026-01-06 14:14:03.98	21.11	4.12	-47.6	-51.3	12.8	1.15e-04	0	33	0	1048576	60	17979
2026-01-06 14:14:04.99	21.13	4.19	-47.5	-51.0	13.2	3.80e-06	0	33	0	1048576	60	17378
2026-01-06 14:14:06.01	21.16	4.26	-47.6	-51.2	13.1	1.29e-05	0	33	0	1048576	60	17716
2026-01-06 14:14:07.02	21.19	4.33	-47.2	-50.6	13.8	8.30e-06	0	33	0	1048576	60	16442
2026-01-06 14:14:08.03	21.22	4.40	-47.1	-50.3	14.1	3.80e-06	0	33	0	1048576	60	15941
2026-01-06 14:14:09.04	21.24	4.47	-47.2	-50.4	13.9	2.20e-06	0	33	0	1048576	60	16169
2026-01-06 14:14:10.05	21.27	4.54	-46.2	-48.8	15.7	7.00e-07	0	33	0	1048576	60	13363
2026-01-06 14:14:11.06	21.30	4.61	-45.5	-47.7	16.7	0.00e+00	0	33	0	1048576	60	11838
2026-01-06 14:14:12.07	21.33	4.68	-45.4	-47.6	17.0	0.00e+00	0	33	0	1048576	60	11674
2026-01-06 14:14:13.08	21.36	4.75	-44.4	-46.1	18.3	0.00e+00	0	33	0	1048576	60	9877
2026-01-06 14:14:14.10	21.38	4.82	-44.1	-45.8	18.6	0.00e+00	0	33	0	1048576	60	9557
2026-01-06 14:14:15.11	21.41	4.89	-44.2	-45.9	18.8	0.00e+00	0	33	0	1048576	60	9619
2026-01-06 14:14:16.12	21.44	4.96	-43.7	-45.2	19.2	0.00e+00	0	33	0	1048576	60	8892
2026-01-06 14:14:17.13	21.47	5.03	-43.4	-44.9	19.5	0.00e+00	0	33	0	1048576	60	8558
2026-01-06 14:14:18.14	21.50	5.10	-43.2	-44.6	19.7	0.00e+00	0	33	0	1048576	60	8294
2026-01-06 14:14:19.15	21.53	5.17	-43.4	-44.9	19.6	0.00e+00	0	33	0	1048576	60	8547
2026-01-06 14:14:20.16	21.55	5.24	-43.3	-44.8	19.7	0.00e+00	0	33	0	1048576	60	8437
2026-01-06 14:14:21.17	21.58	5.31	-43.0	-44.3	20.1	0.00e+00	0	33	101	1048576	60	8043
2026-01-06 14:14:22.18	21.61	5.38	-43.1	-44.6	19.9	0.00e+00	0	33	101	1048576	60	8267
2026-01-06 14:14:23.19	21.64	5.45	-43.1	-44.5	19.9	0.00e+00	0	33	101	1048576	60	8191
2026-01-06 14:14:24.20	21.67	5.53	-43.0	-44.4	19.9	0.00e+00	0	33	101	1048576	60	8093
2026-01-06 14:14:25.22	21.70	5.60	-43.2	-44.6	19.8	0.00e+00	0	33	101	1048576	60	8314
2026-01-06 14:14:26.23	21.73	5.67	-43.3	-44.7	19.8	0.00e+00	0	33	101	1048576	60	8366
2026-01-06 14:14:27.24	21.76	5.74	-43.0	-44.4	20.1	0.00e+00	0	33	101	1048576	60	8114
2026-01-06 14:14:28.25	21.79	5.82	-43.2	-44.6	19.9	0.00e+00	0	33	101	1048576	60	8323
2026-01-06 14:14:29.26	21.82	5.89	-43.2	-44.6	19.9	0.00e+00	0	33	101	1048576	60	8310
2026-01-06 14:14:30.27	21.85	5.96	-42.8	-44.1	20.3	0.00e+00	0	33	101	1048576	60	7858
2026-01-06 14:14:31.28	21.88	6.04	-42.8	-44.1	20.3	0.00e+00	0	33	101	1048576	60	7853
2026-01-06 14:14:32.29	21.91	6.11	-42.9	-44.3	20.2	0.00e+00	0	33	101	1048576	60	7969
2026-01-06 14:14:33.30	21.94	6.18	-42.9	-44.2	20.3	0.00e+00	0	33	101	1048576	60	7933
2026-01-06 14:14:34.32	21.97	6.26	-42.9	-44.2	20.3	0.00e+00	0	33	101	1048576	60	7915
2026-01-06 14:14:35.33	22.00	6.33	-43.0	-44.3	20.2	0.00e+00	0	33	101	1048576	60	8016
2026-01-06 14:14:36.34	22.03	6.41	-42.7	-44.0	20.6	0.00e+00	0	33	101	1048576	60	7701
2026-01-06 14:14:37.35	22.06	6.48	-42.5	-43.7	20.7	0.00e+00	0	33	101	1048576	60	7493
2026-01-06 14:14:38.36	22.09	6.55	-42.5	-43.8	20.7	0.00e+00	0	33	101	1048576	60	7553
2026-01-06 14:14:39.37	22.13	6.63	-42.5	-43.8	20.6	0.00e+00	0	33	101	1048576	60	7533
2026-01-06 14:14:40.38	22.16	6.70	-42.4	-43.6	20.8	0.00e+00	0	33	101	1048576	60	7408
2026-01-06 14:14:41.39	22.19	6.78	-42.2	-43.4	21.1	0.00e+00	0	33	101	1048576	60	7200
2026-01-06 14:14:42.40	22.22	6.86	-42.2	-43.5	21.0	0.00e+00	0	33	101	1048576	60	7263
2026-01-06 14:14:43.41	22.25	6.93	-42.2	-43.4	21.1	0.00e+00	0	33	101	1048576	60	7244
2026-01-06 14:14:44.42	22.28	7.01	-42.2	-43.4	21.1	0.00e+00	0	33	101	1048576	60	7195
2026-01-06 14:14:45.43	22.32	7.08	-42.1	-43.3	21.1	0.00e+00	0	33	101	1048576	60	7159
2026-01-06 14:14:46.44	22.35	7.16	-42.1	-43.3	21.2	0.00e+00	0	33	101	1048576	60	7094
2026-01-06 14:14:47.46	22.38	7.24	-42.0	-43.2	21.3	0.00e+00	0	33	101	1048576	60	7031
2026-01-06 14:14:48.46	22.41	7.31	-42.2	-43.4	21.1	0.00e+00	0	33	101	1048576	60	7252
2026-01-06 14:14:49.48	22.45	7.39	-41.9	-43.0	21.4	0.00e+00	0	33	101	1048576	60	6917
2026-01-06 14:14:50.49	22.48	7.47	-41.8	-43.0	21.6	0.00e+00	0	33	101	1048576	60	6860
2026-01-06 14:14:51.50	22.51	7.55	-41.8	-42.9	21.5	0.00e+00	0	33	101	1048576	60	6843
2026-01-06 14:14:52.51	22.54	7.62	-41.9	-43.1	21.4	0.00e+00	0	33	101	1048576	60	6985
2026-01-06 14:14:53.52	22.58	7.70	-42.0	-43.1	21.4	0.00e+00	0	33	101	1048576	60	6999
2026-01-06 14:14:54.53	22.61	7.78	-41.9	-43.1	21.4	0.00e+00	0	33	101	1048576	60	6969
2026-01-06 14:14:55.54	22.64	7.86	-41.8	-42.9	21.6	0.00e+00	0	33	101	1048576	60	6835
2026-01-06 14:14:56.55	22.68	7.94	-41.8	-43.0	21.5	0.00e+00	0	33	101	1048576	60	6861
2026-01-06 14:14:57.56	22.71	8.02	-41.8	-43.0	21.5	0.00e+00	0	33	101	1048576	60	6888
2026-01-06 14:14:58.57	22.75	8.10	-41.8	-42.9	21.5	0.00e+00	0	33	101	1048576	60	6822
2026-01-06 14:14:59.58	22.78	8.18	-41.6	-42.7	21.7	0.00e+00	0	33	101	1048576	60	6692
2026-01-06 14:15:00.59	22.81	8.26	-41.6	-42.7	21.8	0.00e+00	0	33	101	1048576	60	6644
2026-01-06 14:15:01.60	22.85	8.34	-41.8	-42.9	21.5	0.00e+00	0	33	101	1048576	60	6832
2026-01-06 14:15:02.62	22.88	8.42	-41.7	-42.9	21.6	0.00e+00	0	33	101	1048576	60	6790
2026-01-06 14:15:03.63	22.92	8.50	-41.5	-42.6	21.8	0.00e+00	0	33	101	1048576	60	6602
2026-01-06 14:15:04.64	22.95	8.58	-41.6	-42.7	21.8	0.00e+00	0	33	101	1048576	60	6643
2026-01-06 14:15:05.65	22.99	8.66	-41.7	-42.8	21.7	0.00e+00	0	33	101	1048576	60	6763
2026-01-06 14:15:06.66	23.02	8.74	-41.6	-42.7	21.8	0.00e+00	0	33	101	1048576	60	6651
2026-01-06 14:15:07.67	23.06	8.82	-41.5	-42.6	21.9	0.00e+00	0	33	101	1048576	60	6556
2026-01-06 14:15:08.68	23.09	8.90	-41.4	-42.5	22.0	0.00e+00	0	33	101	1048576	60	6506
2026-01-06 14:15:09.69	23.13	8.98	-41.5	-42.6	21.9	0.00e+00	0	33	101	1048576	60	6594
2026-01-06 14:15:10.70	23.17	9.07	-41.5	-42.6	21.9	0.00e+00	0	33	101	1048576	60	6579
2026-01-06 14:15:11.71	23.20	9.15	-41.4	-42.4	22.1	0.00e+00	0	33	101	1048576	60	6458
2026-01-06 14:15:12.72	23.24	9.23	-41.4	-42.5	21.9	0.00e+00	0	33	101	1048576	60	6500
2026-01-06 14:15:13.73	23.28	9.32	-41.4	-42.5	22.1	0.00e+00	0	33	101	1048576	60	6475
2026-01-06 14:15:14.74	23.31	9.40	-41.3	-42.4	22.1	0.00e+00	0	33	101	1048576	60	6413
2026-01-06 14:15:15.75	23.35	9.48	-41.3	-42.4	22.1	0.00e+00	0	33	101	1048576	60	6418
2026-01-06 14:15:16.77	23.39	9.57	-41.4	-42.5	22.1	0.00e+00	0	33	101	1048576	60	6488
2026-01-06 14:15:17.78	23.42	9.65	-41.2	-42.2	22.2	0.00e+00	0	33	101	1048576	60	6305
2026-01-06 14:15:18.79	23.46	9.74	-41.4	-42.4	22.1	0.00e+00	0	33	101	1048576	60	6459
2026-01-06 14:15:19.80	23.50	9.82	-41.2	-42.2	22.3	0.00e+00	0	33	101	1048576	60	6315
2026-01-06 14:15:20.81	23.54	9.90	-41.2	-42.3	22.2	0.00e+00	0	33	101	1048576	60	6356
2026-01-06 14:15:21.82	23.58	9.99	-41.2	-42.2	22.3	0.00e+00	0	33	101	1048576	60	6288
2026-01-06 14:15:22.83	23.61	10.08	-41.0	-42.0	22.4	0.00e+00	0	33	101	1048576	60	6164
2026-01-06 14:15:23.84	23.65	10.16	-41.2	-42.3	22.2	0.00e+00	0	33	101	1048576	60	6330
2026-01-06 14:15:24.85	23.69	10.25	-41.0	-42.1	22.4	0.00e+00	0	33	101	1048576	60	6198
2026-01-06 14:15:25.86	23.73	10.33	-41.0	-42.0	22.4	0.00e+00	0	33	101	1048576	60	6124
2026-01-06 14:15:26.87	23.77	10.42	-41.3	-42.3	22.4	0.00e+00	0	33	101	1048576	60	6375
2026-01-06 14:15:27.88	23.81	10.51	-40.9	-41.9	22.4	0.00e+00	0	33	101	1048576	60	6084
2026-01-06 14:15:28.89	23.85	10.60	-40.8	-41.8	22.4	0.00e+00	0	33	101	1048576	60	6024
2026-01-06 14:15:29.91	23.89	10.68	-40.9	-42.0	22.2	0.00e+00	0	33	101	1048576	60	6116
2026-01-06 14:15:30.92	23.93	10.77	-40.7	-41.7	22.3	0.00e+00	0	33	101	1048576	60	5930
2026-01-06 14:15:31.93	23.97	10.86	-40.9	-41.9	22.0	0.00e+00	0	33	101	1048576	60	6079
2026-01-06 14:15:32.94	24.01	10.95	-40.8	-41.7	22.2	0.00e+00	0	33	101	1048576	60	5960
2026-01-06 14:15:33.95	24.05	11.04	-40.9	-41.9	22.7	0.00e+00	0	33	101	1048576	60	6049
2026-01-06 14:15:34.96	24.09	11.13	-40.9	-41.9	22.3	0.00e+00	0	33	101	1048576	60	6082
2026-01-06 14:15:35.97	24.13	11.22	-40.6	-41.6	22.7	0.00e+00	0	33	101	1048576	60	5851
2026-01-06 14:15:36.98	24.17	11.31	-40.7	-41.8	22.5	0.00e+00	0	33	101	1048576	60	5966
2026-01-06 14:15:37.99	24.21	11.40	-40.8	-41.8	22.6	0.00e+00	0	33	101	1048576	60	5990
2026-01-06 14:15:39.00	24.25	11.49	-40.7	-41.7	22.7	0.00e+00	0	33	101	1048576	60	5917
2026-01-06 14:15:40.01	24.30	11.58	-40.8	-41.8	22.7	0.00e+00	0	33	101	1048576	60	6002
2026-01-06 14:15:41.02	24.34	11.67	-40.7	-41.7	22.7	0.00e+00	0	33	101	1048576	60	5928
2026-01-06 14:15:42.03	24.38	11.76	-40.7	-41.7	22.7	0.00e+00	0	33	101	1048576	60	5958
2026-01-06 14:15:43.04	24.42	11.85	-40.7	-41.7	22.8	0.00e+00	0	33	101	1048576	60	5962
2026-01-06 14:15:44.05	24.47	11.94	-40.7	-41.7	22.7	0.00e+00	0	33	101	1048576	60	5928
2026-01-06 14:15:45.07	24.51	12.04	-40.8	-41.9	22.6	0.00e+00	0	33	101	1048576	60	6035
2026-01-06 14:15:46.08	24.55	12.13	-40.7	-41.7	22.9	0.00e+00	0	33	101	1048576	60	5937
2026-01-06 14:15:47.09	24.60	12.22	-40.8	-41.8	22.9	0.00e+00	0	33	101	1048576	60	5968
2026-01-06 14:15:48.10	24.64	12.32	-40.6	-41.6	22.9	0.00e+00	0	33	101	1048576	60	5842
2026-01-06 14:15:49.11	24.68	12.41	-40.7	-41.7	22.8	0.00e+00	0	33	101	1048576	60	5927
2026-01-06 14:15:50.12	24.73	12.50	-40.7	-41.7	22.9	0.00e+00	0	33	101	1048576	60	5928
2026-01-06 14:15:51.13	24.77	12.60	-40.7	-41.6	22.8	0.00e+00	0	33	101	1048576	60	5895
2026-01-06 14:15:52.14	24.82	12.69	-40.7	-41.7	22.7	0.00e+00	0	33	101	1048576	60	5928
2026-01-06 14:15:53.16	24.86	12.79	-40.6	-41.6	22.9	0.00e+00	0	33	101	1048576	60	5879
2026-01-06 14:15:54.17	24.91	12.88	-40.6	-41.6	22.9	0.00e+00	0	33	101	1048576	60	5831
2026-01-06 14:15:55.18	24.95	12.98	-40.6	-41.5	22.9	0.00e+00	0	33	101	1048576	60	5807
2026-01-06 14:15:56.19	25.00	13.08	-40.5	-41.4	23.0	0.00e+00	0	33	101	1048576	60	5748
2026-01-06 14:15:57.20	25.05	13.17	-40.6	-41.6	22.9	0.00e+00	0	33	101	1048576	60	5870
2026-01-06 14:15:58.21	25.09	13.27	-40.5	-41.5	23.0	0.00e+00	0	33	101	1048576	60	5787
2026-01-06 14:15:59.22	25.14	13.37	-40.5	-41.4	23.1	0.00e+00	0	33	101	1048576	60	5737
2026-01-06 14:16:00.23	25.19	13.47	-40.7	-41.7	22.9	0.00e+00	0	33	101	1048576	60	5916
2026-01-06 14:16:01.24	25.23	13.56	-40.5	-41.5	23.0	0.00e+00	0	33	101	1048576	60	5768
2026-01-06 14:16:02.25	25.28	13.66	-40.3	-41.3	23.1	0.00e+00	0	33	101	1048576	60	5658
2026-01-06 14:16:03.26	25.33	13.76	-40.6	-41.6	23.1	0.00e+00	0	33	101	1048576	60	5879
2026-01-06 14:16:04.27	25.38	13.86	-40.4	-41.4	23.1	0.00e+00	0	33	101	1048576	60	5698
2026-01-06 14:16:05.28	25.42	13.96	-40.5	-41.5	23.0	0.00e+00	0	33	101	1048576	60	5779
2026-01-06 14:16:06.29	25.47	14.06	-40.5	-41.4	23.1	0.00e+00	0	33	101	1048576	60	5740
2026-01-06 14:16:07.31	25.52	14.16	-40.5	-41.5	23.1	0.00e+00	0	33	101	1048576	60	5800
2026-01-06 14:16:08.32	25.57	14.26	-40.6	-41.5	23.0	0.00e+00	0	33	101	1048576	60	5814
2026-01-06 14:16:09.33	25.62	14.36	-40.7	-41.6	22.9	0.00e+00	0	33	101	1048576	60	5896
2026-01-06 14:16:10.34	25.67	14.47	-40.6	-41.6	22.9	0.00e+00	0	33	101	1048576	60	5860
2026-01-06 14:16:11.35	25.72	14.57	-40.8	-41.7	22.9	0.00e+00	0	33	101	1048576	60	5963
2026-01-06 14:16:12.36	25.77	14.67	-40.8	-41.8	22.8	0.00e+00	0	33	101	1048576	60	5986
2026-01-06 14:16:13.37	25.82	14.77	-40.9	-41.9	22.7	0.00e+00	0	33	101	1048576	60	6037
2026-01-06 14:16:14.38	25.87	14.88	-40.7	-41.7	22.9	0.00e+00	0	33	101	1048576	60	5949
2026-01-06 14:16:15.39	25.93	14.98	-40.8	-41.8	22.9	0.00e+00	0	33	101	1048576	60	6016
2026-01-06 14:16:16.40	25.98	15.09	-40.8	-41.8	22.8	0.00e+00	0	33	101	1048576	60	5993
2026-01-06 14:16:17.42	26.03	15.19	-40.9	-41.9	22.7	0.00e+00	0	33	101	1048576	60	6061
2026-01-06 14:16:18.43	26.08	15.30	-40.8	-41.8	22.8	0.00e+00	0	33	101	1048576	60	5989
2026-01-06 14:16:19.44	26.14	15.40	-40.9	-41.9	22.8	0.00e+00	0	33	101	1048576	60	6047
2026-01-06 14:16:20.45	26.19	15.51	-41.0	-42.0	22.7	0.00e+00	0	33	101	1048576	60	6161
2026-01-06 14:16:21.46	26.24	15.61	-40.8	-41.8	22.8	0.00e+00	0	33	101	1048576	60	5987
2026-01-06 14:16:22.47	26.30	15.72	-40.8	-41.8	22.8	0.00e+00	0	33	101	1048576	60	6016
2026-01-06 14:16:23.48	26.35	15.83	-40.8	-41.7	22.8	0.00e+00	0	33	101	1048576	60	5962
2026-01-06 14:16:24.49	26.41	15.94	-40.9	-41.8	22.8	0.00e+00	0	33	101	1048576	60	6028
2026-01-06 14:16:25.50	26.46	16.04	-40.8	-41.8	22.8	0.00e+00	0	33	101	1048576	60	6025
2026-01-06 14:16:26.51	26.52	16.15	-40.8	-41.7	23.0	0.00e+00	0	33	101	1048576	60	5961
2026-01-06 14:16:27.52	26.57	16.26	-40.8	-41.8	22.9	0.00e+00	0	33	101	1048576	60	6011
2026-01-06 14:16:28.53	26.63	16.37	-40.8	-41.8	22.9	0.00e+00	0	33	101	1048576	60	5970
2026-01-06 14:16:29.55	26.68	16.48	-40.6	-41.5	23.0	0.00e+00	0	33	101	1048576	60	5806
2026-01-06 14:16:30.56	26.74	16.59	-40.9	-41.9	22.8	0.00e+00	0	33	101	1048576	60	6070
2026-01-06 14:16:31.57	26.80	16.71	-40.8	-41.8	23.0	0.00e+00	0	33	101	1048576	60	5983
2026-01-06 14:16:32.58	26.86	16.82	-40.7	-41.6	23.0	0.00e+00	0	33	101	1048576	60	5885
2026-01-06 14:16:33.59	26.91	16.93	-40.9	-41.9	22.8	0.00e+00	0	33	101	1048576	60	6076
2026-01-06 14:16:34.59	26.97	17.04	-41.0	-42.1	22.6	0.00e+00	0	33	101	1048576	60	6174
2026-01-06 14:16:35.60	27.03	17.15	-41.1	-42.1	22.6	0.00e+00	0	33	101	1048576	60	6211
2026-01-06 14:16:36.61	27.09	17.27	-41.0	-42.0	22.7	0.00e+00	0	33	101	1048576	60	6136
2026-01-06 14:16:37.62	27.15	17.38	-41.1	-42.2	22.4	0.00e+00	0	33	101	1048576	60	6250
2026-01-06 14:16:38.62	27.21	17.49	-41.0	-42.0	22.7	0.00e+00	0	33	101	1048576	60	6136
2026-01-06 14:16:39.63	27.27	17.61	-41.0	-42.0	22.7	0.00e+00	0	33	101	1048576	60	6155
2026-01-06 14:16:40.64	27.33	17.73	-41.0	-42.0	22.6	0.00e+00	0	33	101	1048576	60	6173
2026-01-06 14:16:41.65	27.39	17.84	-41.1	-42.1	22.7	0.00e+00	0	33	101	1048576	60	6195
2026-01-06 14:16:42.66	27.45	17.96	-40.8	-41.8	22.9	0.00e+00	0	33	101	1048576	60	5999
2026-01-06 14:16:43.66	27.52	18.07	-40.8	-41.8	22.9	0.00e+00	0	33	101	1048576	60	5989
2026-01-06 14:16:44.67	27.58	18.19	-40.8	-41.8	23.0	0.00e+00	0	33	101	1048576	60	5985
2026-01-06 14:16:45.68	27.64	18.31	-41.1	-42.1	22.6	0.00e+00	0	33	101	1048576	60	6229
2026-01-06 14:16:46.69	27.70	18.43	-40.9	-41.9	22.9	0.00e+00	0	33	101	1048576	60	6079
2026-01-06 14:16:47.70	27.77	18.55	-40.9	-41.8	22.7	0.00e+00	0	33	101	1048576	60	6031
2026-01-06 14:16:48.71	27.83	18.67	-40.5	-41.5	23.1	0.00e+00	0	33	101	1048576	60	5793
2026-01-06 14:16:49.71	27.90	18.79	-40.6	-41.6	23.1	0.00e+00	0	33	101	1048576	60	5853
2026-01-06 14:16:50.72	27.96	18.91	-40.6	-41.5	23.1	0.00e+00	0	33	101	1048576	60	5819
2026-01-06 14:16:51.72	28.03	19.03	-40.5	-41.5	23.1	0.00e+00	0	33	101	1048576	60	5791
2026-01-06 14:16:52.73	28.09	19.15	-40.6	-41.6	23.1	0.00e+00	0	33	101	1048576	60	5857
2026-01-06 14:16:53.74	28.16	19.27	-40.5	-41.5	23.1	0.00e+00	0	33	101	1048576	60	5778
2026-01-06 14:16:54.75	28.23	19.40	-40.6	-41.6	23.1	0.00e+00	0	33	101	1048576	60	5829
2026-01-06 14:16:55.75	28.30	19.52	-40.4	-41.3	23.3	0.00e+00	0	33	101	1048576	60	5660
2026-01-06 14:16:56.76	28.36	19.64	-40.3	-41.2	23.4	0.00e+00	0	33	101	1048576	60	5599
2026-01-06 14:16:57.77	28.43	19.77	-40.1	-41.0	23.4	0.00e+00	0	33	101	1048576	58	6148
2026-01-06 14:16:58.78	28.50	19.89	-39.9	-40.8	23.7	0.00e+00	0	33	101	1048576	58	5991
2026-01-06 14:16:59.79	28.57	20.02	-39.8	-40.7	23.7	0.00e+00	0	33	101	1048576	58	5931
2026-01-06 14:17:00.80	28.64	20.15	-39.8	-40.6	23.8	0.00e+00	0	33	101	1048576	58	5885
2026-01-06 14:17:01.81	28.71	20.27	-39.4	-40.2	23.9	0.00e+00	0	33	101	1048576	58	5609
2026-01-06 14:17:02.82	28.79	20.40	-39.2	-40.1	24.1	0.00e+00	0	33	101	1048576	58	5503
2026-01-06 14:17:03.82	28.86	20.53	-39.2	-40.0	24.3	0.00e+00	0	33	101	1048576	56	6160
2026-01-06 14:17:04.83	28.93	20.66	-38.9	-39.7	24.4	0.00e+00	0	33	101	1048576	56	5927
2026-01-06 14:17:05.84	29.00	20.79	-38.9	-39.7	24.4	0.00e+00	0	33	101	1048576	56	5926
2026-01-06 14:17:06.85	29.08	20.92	-38.7	-39.5	24.6	0.00e+00	0	33	101	1048576	56	5795
2026-01-06 14:17:07.85	29.15	21.05	-38.7	-39.5	24.6	0.00e+00	0	33	101	1048576	56	5787
2026-01-06 14:17:08.86	29.23	21.18	-38.6	-39.4	24.6	0.00e+00	0	33	101	1048576	56	5728
2026-01-06 14:17:09.87	29.30	21.31	-38.4	-39.1	24.8	0.00e+00	0	33	101	1048576	56	5553
2026-01-06 14:17:10.88	29.38	21.45	-38.6	-39.4	24.6	0.00e+00	0	33	101	1048576	56	5715
2026-01-06 14:17:11.89	29.46	21.58	-38.6	-39.4	24.6	0.00e+00	0	33	101	1048576	56	5747
2026-01-06 14:17:12.89	29.53	21.71	-38.6	-39.4	24.8	0.00e+00	0	33	101	1048576	56	5703
2026-01-06 14:17:13.90	29.61	21.85	-38.4	-39.2	24.9	0.00e+00	0	33	101	1048576	56	5567
2026-01-06 14:17:14.91	29.69	21.98	-38.3	-39.1	24.9	0.00e+00	0	33	101	1048576	56	5526
2026-01-06 14:17:15.92	29.77	22.12	-38.4	-39.2	24.8	0.00e+00	0	33	101	1048576	56	5569
2026-01-06 14:17:16.93	29.85	22.26	-38.4	-39.2	24.8	0.00e+00	0	33	101	1048576	56	5579
2026-01-06 14:17:17.94	29.93	22.40	-38.4	-39.2	24.8	0.00e+00	0	33	101	1048576	56	5598
2026-01-06 14:17:18.95	30.01	22.53	-38.5	-39.3	24.8	0.00e+00	0	33	101	1048576	56	5633
2026-01-06 14:17:19.96	30.10	22.67	-38.8	-39.6	24.6	0.00e+00	0	33	101	1048576	56	5845
2026-01-06 14:17:20.97	30.18	22.81	-38.7	-39.5	24.7	0.00e+00	0	33	101	1048576	56	5795
2026-01-06 14:17:21.98	30.26	22.95	-38.5	-39.3	24.8	0.00e+00	0	33	101	1048576	56	5690
2026-01-06 14:17:22.99	30.35	23.10	-38.7	-39.5	24.6	0.00e+00	0	33	101	1048576	56	5804
2026-01-06 14:17:23.99	30.43	23.24	-38.7	-39.5	24.5	0.00e+00	0	33	101	1048576	56	5788
2026-01-06 14:17:25.00	30.52	23.38	-38.8	-39.6	24.5	0.00e+00	0	33	101	1048576	56	5860
2026-01-06 14:17:26.01	30.60	23.52	-38.9	-39.7	24.6	0.00e+00	0	33	101	1048576	56	5914
2026-01-06 14:17:27.02	30.69	23.67	-38.9	-39.7	24.6	0.00e+00	0	33	101	1048576	56	5961
2026-01-06 14:17:28.03	30.78	23.81	-38.6	-39.4	24.7	0.00e+00	0	33	101	1048576	56	5759
2026-01-06 14:17:29.04	30.87	23.96	-38.6	-39.4	24.7	0.00e+00	0	33	101	1048576	56	5708
2026-01-06 14:17:30.05	30.96	24.10	-38.5	-39.3	24.8	0.00e+00	0	33	101	1048576	56	5667
2026-01-06 14:17:31.06	31.05	24.25	-38.5	-39.3	24.8	0.00e+00	0	33	101	1048576	56	5656
2026-01-06 14:17:32.07	31.14	24.40	-38.4	-39.2	24.8	0.00e+00	0	33	101	1048576	56	5608
2026-01-06 14:17:33.07	31.23	24.55	-38.6	-39.4	24.7	0.00e+00	0	33	101	1048576	56	5707
2026-01-06 14:17:34.08	31.32	24.70	-38.6	-39.4	24.8	0.00e+00	0	33	101	1048576	56	5728
2026-01-06 14:17:35.09	31.42	24.85	-38.6	-39.4	24.7	0.00e+00	0	33	101	1048576	56	5746
2026-01-06 14:17:36.10	31.51	25.00	-38.5	-39.3	24.8	0.00e+00	0	33	101	1048576	56	5683
2026-01-06 14:17:37.11	31.61	25.15	-38.6	-39.4	24.7	0.00e+00	0	33	101	1048576	56	5716
2026-01-06 14:17:38.11	31.70	25.30	-38.8	-39.6	24.6	0.00e+00	0	33	101	1048576	56	5863
2026-01-06 14:17:39.12	31.80	25.45	-38.3	-39.0	24.9	0.00e+00	0	33	101	1048576	56	5496
2026-01-06 14:17:40.13	31.90	25.61	-38.5	-39.3	24.6	0.00e+00	0	33	101	1048576	56	5691
2026-01-06 14:17:41.14	32.00	25.76	-38.4	-39.2	25.0	0.00e+00	0	33	101	1048576	56	5578
2026-01-06 14:17:42.15	32.10	25.92	-38.1	-38.9	25.1	0.00e+00	0	33	101	1048576	54	6060
2026-01-06 14:17:43.16	32.20	26.08	-38.2	-39.0	25.0	0.00e+00	0	33	101	1048576	54	6108
2026-01-06 14:17:44.16	32.30	26.23	-38.1	-38.8	25.0	0.00e+00	0	33	101	1048576	54	6032
2026-01-06 14:17:45.17	32.40	26.39	-38.1	-38.8	25.1	0.00e+00	0	33	101	1048576	54	6033
2026-01-06 14:17:46.18	32.51	26.55	-38.1	-38.9	25.0	0.00e+00	0	33	101	1048576	54	6080
2026-01-06 14:17:47.19	32.61	26.71	-38.4	-39.2	24.9	0.00e+00	0	33	101	1048576	54	6251
2026-01-06 14:17:48.19	32.72	26.87	-38.4	-39.2	24.8	0.00e+00	0	33	101	1048576	54	6276
2026-01-06 14:17:49.20	32.82	27.03	-38.6	-39.4	24.5	0.00e+00	0	33	101	1048576	54	6444
2026-01-06 14:17:50.21	32.93	27.20	-38.5	-39.3	24.7	0.00e+00	0	33	101	1048576	54	6386
2026-01-06 14:17:51.22	33.04	27.36	-38.5	-39.3	24.5	0.00e+00	0	33	101	1048576	54	6383
2026-01-06 14:17:52.23	33.15	27.52	-38.7	-39.5	24.1	0.00e+00	0	33	101	1048576	54	6495
2026-01-06 14:17:53.24	33.26	27.69	-38.3	-39.1	24.7	0.00e+00	0	33	101	1048576	54	6188
2026-01-06 14:17:54.25	33.37	27.86	-38.4	-39.2	24.7	0.00e+00	0	33	101	1048576	54	6276
2026-01-06 14:17:55.25	33.49	28.02	-39.0	-39.8	24.4	0.00e+00	0	33	101	1048576	54	6716
2026-01-06 14:17:56.26	33.60	28.19	-38.7	-39.5	24.5	0.00e+00	0	33	101	1048576	54	6502
2026-01-06 14:17:57.27	33.72	28.36	-39.1	-39.9	24.3	0.00e+00	0	33	101	1048576	54	6824
2026-01-06 14:17:58.27	33.83	28.53	-39.1	-40.0	24.2	0.00e+00	0	33	101	1048576	56	6131
2026-01-06 14:17:59.28	33.95	28.70	-39.5	-40.3	23.9	0.00e+00	0	33	101	1048576	56	6371
2026-01-06 14:18:00.29	34.07	28.87	-39.7	-40.6	24.0	0.00e+00	0	33	101	1048576	56	6544
2026-01-06 14:18:01.30	34.19	29.04	-40.1	-41.0	23.7	0.00e+00	0	33	101	1048576	56	6879
2026-01-06 14:18:02.31	34.31	29.22	-39.9	-40.8	23.7	0.00e+00	0	33	101	1048576	58	5975
2026-01-06 14:18:03.32	34.44	29.39	-40.1	-41.0	23.6	0.00e+00	0	33	101	1048576	58	6126
2026-01-06 14:18:04.33	34.56	29.57	-40.5	-41.4	23.3	0.00e+00	0	33	101	1048576	58	6464
2026-01-06 14:18:05.34	34.69	29.74	-40.5	-41.5	23.2	0.00e+00	0	33	101	1048576	58	6487
2026-01-06 14:18:06.35	34.81	29.92	-41.1	-42.1	22.7	0.00e+00	0	33	101	1048576	58	6976
2026-01-06 14:18:07.36	34.94	30.10	-41.4	-42.4	22.5	0.00e+00	0	33	101	1048576	60	6459
2026-01-06 14:18:08.36	35.07	30.28	-41.5	-42.5	22.6	0.00e+00	0	33	101	1048576	60	6536
2026-01-06 14:18:09.37	35.20	30.46	-42.0	-43.1	22.0	0.00e+00	0	33	101	1048576	60	6971
2026-01-06 14:18:10.38	35.33	30.64	-42.2	-43.3	21.9	0.00e+00	0	33	101	1048576	60	7118
2026-01-06 14:18:11.39	35.47	30.82	-42.6	-43.8	21.3	0.00e+00	0	33	101	1048576	60	7552
2026-01-06 14:18:12.40	35.60	31.00	-42.3	-43.5	21.6	0.00e+00	0	33	101	1048576	60	7292
2026-01-06 14:18:13.40	35.74	31.19	-42.6	-43.8	21.3	0.00e+00	0	33	101	1048576	60	7588
2026-01-06 14:18:14.41	35.88	31.37	-42.6	-43.8	21.4	0.00e+00	0	33	101	1048576	60	7528
2026-01-06 14:18:15.42	36.02	31.56	-42.9	-44.2	21.2	0.00e+00	0	33	101	1048576	60	7896
2026-01-06 14:18:16.43	36.16	31.75	-43.0	-44.3	20.8	0.00e+00	0	33	101	1048576	60	8010
2026-01-06 14:18:17.43	36.30	31.93	-42.9	-44.2	21.1	0.00e+00	0	33	101	1048576	60	7935
2026-01-06 14:18:18.45	36.45	32.12	-43.0	-44.3	21.0	0.00e+00	0	33	101	1048576	60	7977
2026-01-06 14:18:19.45	36.59	32.31	-42.5	-43.7	21.3	0.00e+00	0	33	101	1048576	60	7489
2026-01-06 14:18:20.46	36.74	32.50	-42.4	-43.6	21.6	0.00e+00	0	33	101	1048576	60	7374
2026-01-06 14:18:21.47	36.89	32.70	-42.5	-43.8	21.3	0.00e+00	0	33	101	1048576	60	7518
2026-01-06 14:18:22.48	37.04	32.89	-42.3	-43.5	21.4	0.00e+00	0	33	101	1048576	60	7311
2026-01-06 14:18:23.49	37.20	33.08	-42.2	-43.4	21.8	0.00e+00	0	33	101	1048576	60	7211
2026-01-06 14:18:24.49	37.35	33.28	-41.7	-42.8	22.2	0.00e+00	0	33	101	1048576	60	6730
2026-01-06 14:18:25.50	37.51	33.47	-42.2	-43.4	21.8	0.00e+00	0	33	101	1048576	60	7193
2026-01-06 14:18:26.51	37.67	33.67	-41.6	-42.7	22.4	0.00e+00	0	33	101	1048576	60	6616
2026-01-06 14:18:27.52	37.83	33.87	-41.7	-42.7	22.2	0.00e+00	0	33	101	1048576	60	6688
2026-01-06 14:18:28.53	37.99	34.07	-42.0	-43.1	22.1	0.00e+00	0	33	101	1048576	60	6953
2026-01-06 14:18:29.54	38.16	34.27	-41.9	-43.0	21.7	0.00e+00	0	33	101	1048576	60	6921
2026-01-06 14:18:30.55	38.32	34.47	-42.2	-43.3	21.5	0.00e+00	0	33	101	1048576	60	7120
2026-01-06 14:18:31.56	38.49	34.68	-42.3	-43.4	21.6	0.00e+00	0	33	101	1048576	60	7228
2026-01-06 14:18:32.57	38.66	34.88	-43.0	-44.3	21.1	0.00e+00	0	33	101	1048576	60	8032
2026-01-06 14:18:33.58	38.84	35.08	-42.3	-43.5	21.6	0.00e+00	0	33	101	1048576	60	7286
2026-01-06 14:18:34.59	39.01	35.29	-42.5	-43.7	21.6	0.00e+00	0	33	101	1048576	60	7441
2026-01-06 14:18:35.60	39.19	35.50	-42.5	-43.7	21.5	0.00e+00	0	33	101	1048576	60	7458
2026-01-06 14:18:36.60	39.37	35.70	-42.4	-43.6	21.5	0.00e+00	0	33	101	1048576	60	7391
2026-01-06 14:18:37.62	39.55	35.92	-42.3	-43.5	21.7	0.00e+00	0	33	101	1048576	60	7277
2026-01-06 14:18:38.63	39.73	36.13	-41.7	-42.7	22.3	0.00e+00	0	33	101	1048576	60	6670
2026-01-06 14:18:39.63	39.92	36.34	-41.9	-43.0	22.1	0.00e+00	0	33	101	1048576	60	6865
2026-01-06 14:18:40.64	40.11	36.55	-41.1	-42.1	22.7	0.00e+00	0	33	101	1048576	60	6229
2026-01-06 14:18:41.65	40.30	36.76	-41.4	-42.5	22.4	0.00e+00	0	33	101	1048576	60	6482
2026-01-06 14:18:42.66	40.49	36.98	-41.3	-42.4	22.6	0.00e+00	0	33	101	1048576	60	6399
2026-01-06 14:18:43.67	40.69	37.19	-41.3	-42.4	22.5	0.00e+00	0	33	101	1048576	60	6411
2026-01-06 14:18:44.68	40.89	37.41	-41.4	-42.4	22.4	0.00e+00	0	33	101	1048576	60	6448
2026-01-06 14:18:45.69	41.09	37.63	-41.5	-42.6	22.1	0.00e+00	0	33	101	1048576	60	6543
2026-01-06 14:18:46.70	41.29	37.85	-41.8	-42.9	22.1	0.00e+00	0	33	101	1048576	60	6806
2026-01-06 14:18:47.71	41.50	38.07	-41.8	-42.9	22.0	0.00e+00	0	33	101	1048576	60	6770
2026-01-06 14:18:48.72	41.71	38.29	-42.3	-43.4	21.9	0.00e+00	0	33	101	1048576	60	7205
2026-01-06 14:18:49.73	41.92	38.51	-41.5	-42.5	22.4	0.00e+00	0	33	101	1048576	60	6510
2026-01-06 14:18:50.74	42.13	38.73	-41.4	-42.4	22.5	0.00e+00	0	33	101	1048576	60	6405
2026-01-06 14:18:51.75	42.35	38.96	-41.2	-42.2	22.7	0.00e+00	0	33	101	1048576	60	6313
2026-01-06 14:18:52.76	42.57	39.18	-41.5	-42.6	22.4	0.00e+00	0	33	101	1048576	60	6544
2026-01-06 14:18:53.76	42.80	39.40	-41.1	-42.1	22.9	0.00e+00	0	33	101	1048576	60	6235
2026-01-06 14:18:54.77	43.02	39.63	-40.8	-41.8	23.1	0.00e+00	0	33	101	1048576	60	5969
2026-01-06 14:18:55.78	43.25	39.86	-40.5	-41.5	22.9	0.00e+00	0	33	101	1048576	60	5790
2026-01-06 14:18:56.79	43.49	40.09	-40.4	-41.4	23.3	0.00e+00	0	33	101	1048576	60	5710
2026-01-06 14:18:57.80	43.72	40.32	-40.4	-41.4	23.3	0.00e+00	0	33	101	1048576	60	5707
2026-01-06 14:18:58.81	43.96	40.55	-40.6	-41.6	23.1	0.00e+00	0	33	101	1048576	60	5859
2026-01-06 14:18:59.82	44.21	40.78	-41.1	-42.1	22.8	0.00e+00	0	33	101	1048576	60	6223
2026-01-06 14:19:00.83	44.45	41.01	-41.1	-42.1	22.9	0.00e+00	0	33	101	1048576	60	6207
2026-01-06 14:19:01.84	44.70	41.25	-41.2	-42.3	22.7	0.00e+00	0	33	101	1048576	60	6326
2026-01-06 14:19:02.84	44.95	41.48	-40.8	-41.8	23.0	0.00e+00	0	33	101	1048576	60	6033
2026-01-06 14:19:03.86	45.21	41.72	-40.4	-41.3	23.3	0.00e+00	0	33	101	1048576	60	5660
2026-01-06 14:19:04.87	45.48	41.96	-40.4	-41.4	23.4	0.00e+00	0	33	101	1048576	60	5716
2026-01-06 14:19:05.87	45.74	42.19	-40.5	-41.5	23.3	0.00e+00	0	33	101	1048576	60	5773
2026-01-06 14:19:06.88	46.01	42.43	-40.9	-42.0	22.8	0.00e+00	0	33	101	1048576	60	6116
2026-01-06 14:19:07.89	46.28	42.67	-41.5	-42.6	22.4	0.00e+00	0	33	101	1048576	60	6550
2026-01-06 14:19:08.90	46.56	42.91	-41.7	-42.8	22.2	0.00e+00	0	33	101	1048576	60	6769
2026-01-06 14:19:09.91	46.84	43.15	-42.1	-43.3	21.8	0.00e+00	0	33	101	1048576	60	7108
2026-01-06 14:19:10.92	47.12	43.39	-42.2	-43.5	21.9	0.00e+00	0	33	101	1048576	60	7254
2026-01-06 14:19:11.93	47.41	43.63	-41.8	-43.0	22.2	0.00e+00	0	33	101	1048576	60	6870
2026-01-06 14:19:12.94	47.71	43.88	-41.5	-42.6	22.4	0.00e+00	0	33	101	1048576	60	6572
2026-01-06 14:19:13.95	48.01	44.12	-41.6	-42.7	22.2	0.00e+00	0	33	101	1048576	60	6646
2026-01-06 14:19:14.96	48.31	44.36	-42.1	-43.2	21.9	0.00e+00	0	33	101	1048576	60	7051
2026-01-06 14:19:15.97	48.62	44.61	-42.5	-43.8	21.4	0.00e+00	0	33	101	1048576	60	7514
2026-01-06 14:19:16.98	48.93	44.85	-42.3	-43.5	21.5	0.00e+00	0	33	101	1048576	60	7262
2026-01-06 14:19:17.98	49.24	45.10	-41.7	-42.8	22.2	0.00e+00	0	33	101	1048576	60	6700
2026-01-06 14:19:18.99	49.56	45.35	-41.6	-42.7	22.2	0.00e+00	0	33	101	1048576	60	6675
2026-01-06 14:19:20.00	49.89	45.59	-41.2	-42.3	22.6	0.00e+00	0	33	101	1048576	60	6341
2026-01-06 14:19:21.01	50.22	45.84	-41.3	-42.4	22.5	0.00e+00	0	33	101	1048576	60	6432
2026-01-06 14:19:22.02	50.56	46.09	-41.0	-42.1	22.7	0.00e+00	0	33	101	1048576	60	6183
2026-01-06 14:19:23.03	50.90	46.34	-42.0	-43.2	21.8	0.00e+00	0	33	101	1048576	60	7023
2026-01-06 14:19:24.04	51.25	46.59	-41.9	-43.0	22.0	0.00e+00	0	33	101	1048576	60	6904
2026-01-06 14:19:25.05	51.60	46.84	-41.7	-42.9	22.2	0.00e+00	0	33	101	1048576	60	6787
2026-01-06 14:19:26.05	51.96	47.08	-41.5	-42.5	22.4	0.00e+00	0	33	101	1048576	60	6517
2026-01-06 14:19:27.06	52.32	47.34	-41.5	-42.6	22.3	0.00e+00	0	33	101	1048576	60	6573
2026-01-06 14:19:28.07	52.69	47.59	-41.2	-42.3	22.7	0.00e+00	0	34	101	1048576	60	6331
2026-01-06 14:19:29.08	53.07	47.84	-41.5	-42.6	22.4	0.00e+00	0	33	101	1048576	60	6560
2026-01-06 14:19:30.08	53.45	48.08	-42.0	-43.1	21.9	0.00e+00	0	33	101	1048576	60	6985
2026-01-06 14:19:31.09	53.84	48.34	-42.6	-43.8	21.3	0.00e+00	0	33	101	1048576	60	7578
2026-01-06 14:19:32.10	54.23	48.59	-42.3	-43.5	21.7	0.00e+00	0	33	101	1048576	60	7301
2026-01-06 14:19:33.11	54.63	48.84	-42.6	-43.8	21.6	0.00e+00	0	33	101	1048576	60	7540
2026-01-06 14:19:34.12	55.04	49.09	-42.1	-43.2	21.9	0.00e+00	0	33	101	1048576	60	7036
2026-01-06 14:19:35.13	55.46	49.34	-41.9	-43.0	22.2	0.00e+00	0	33	101	1048576	60	6888
2026-01-06 14:19:36.14	55.88	49.59	-41.9	-43.0	21.8	0.00e+00	0	33	101	1048576	60	6912
2026-01-06 14:19:37.15	56.31	49.84	-42.0	-43.2	21.8	0.00e+00	0	33	101	1048576	60	7043
2026-01-06 14:19:38.16	56.74	50.09	-41.7	-42.8	22.3	0.00e+00	0	33	101	1048576	60	6717
2026-01-06 14:19:39.17	57.18	50.34	-41.4	-42.5	22.4	0.00e+00	0	33	101	1048576	60	6469
2026-01-06 14:19:40.18	57.63	50.59	-41.5	-42.6	22.3	0.00e+00	0	33	101	1048576	60	6568
2026-01-06 14:19:41.19	58.09	50.84	-42.5	-43.8	21.2	0.00e+00	0	33	101	1048576	60	7515
2026-01-06 14:19:42.19	58.55	51.09	-43.6	-45.1	20.3	0.00e+00	0	33	101	1048576	60	8771
2026-01-06 14:19:43.20	59.02	51.33	-43.3	-44.8	20.4	0.00e+00	0	33	101	1048576	60	8475
2026-01-06 14:19:44.21	59.50	51.58	-43.3	-44.7	20.6	0.00e+00	0	33	101	1048576	60	8385
2026-01-06 14:19:45.22	59.99	51.83	-42.0	-43.2	21.8	0.00e+00	0	33	101	1048576	60	7044
2026-01-06 14:19:46.23	60.49	52.07	-41.6	-42.7	22.1	0.00e+00	0	33	101	1048576	60	6625
2026-01-06 14:19:47.24	60.99	52.32	-41.5	-42.6	22.4	0.00e+00	0	33	101	1048576	60	6560
2026-01-06 14:19:48.24	61.50	52.56	-41.8	-43.0	21.7	0.00e+00	0	33	101	1048576	60	6854
2026-01-06 14:19:49.25	62.02	52.80	-42.4	-43.6	21.5	0.00e+00	0	33	101	1048576	60	7401
2026-01-06 14:19:50.26	62.55	53.04	-43.0	-44.4	20.9	0.00e+00	0	33	101	1048576	60	8056
2026-01-06 14:19:51.27	63.09	53.28	-41.7	-42.8	22.2	0.00e+00	0	33	101	1048576	60	6732
2026-01-06 14:19:52.28	63.63	53.52	-41.5	-42.7	22.5	0.00e+00	0	33	101	1048576	60	6621
2026-01-06 14:19:53.28	64.18	53.75	-41.4	-42.5	22.4	0.00e+00	0	33	101	1048576	60	6508
2026-01-06 14:19:54.29	64.75	53.99	-40.9	-41.9	22.8	0.00e+00	0	33	101	1048576	60	6092
2026-01-06 14:19:55.30	65.32	54.22	-39.9	-40.8	23.7	0.00e+00	0	33	101	1048576	58	6020
2026-01-06 14:19:56.31	65.91	54.45	-39.8	-40.8	23.7	0.00e+00	0	33	101	1048576	58	5965
2026-01-06 14:19:57.32	66.50	54.68	-40.1	-41.0	23.5	0.00e+00	0	33	101	1048576	58	6148
2026-01-06 14:19:58.33	67.10	54.91	-40.6	-41.7	23.2	0.00e+00	0	33	101	1048576	58	6630
2026-01-06 14:19:59.34	67.71	55.13	-40.6	-41.6	23.0	0.00e+00	0	33	101	1048576	58	6577
2026-01-06 14:20:00.35	68.34	55.36	-40.3	-41.3	23.2	0.00e+00	0	33	101	1048576	58	6380
2026-01-06 14:20:01.36	68.97	55.58	-41.1	-42.2	22.7	0.00e+00	0	33	101	1048576	58	7008
2026-01-06 14:20:02.36	69.60	55.79	-42.0	-43.2	21.7	0.00e+00	0	33	101	1048576	60	7060
2026-01-06 14:20:03.37	70.25	56.01	-41.8	-43.0	22.1	0.00e+00	0	33	101	1048576	60	6872
2026-01-06 14:20:04.38	70.92	56.22	-41.4	-42.5	22.3	0.00e+00	0	34	101	1048576	60	6506
2026-01-06 14:20:05.39	71.59	56.43	-40.4	-41.3	23.5	0.00e+00	0	34	101	1048576	60	5691
2026-01-06 14:20:06.40	72.27	56.64	-39.8	-40.7	23.7	0.00e+00	0	33	101	1048576	58	5924
2026-01-06 14:20:07.41	72.96	56.84	-39.7	-40.6	23.8	0.00e+00	0	33	101	1048576	58	5831
2026-01-06 14:20:08.42	73.66	57.04	-39.7	-40.6	23.9	0.00e+00	0	33	101	1048576	56	6540
2026-01-06 14:20:09.43	74.37	57.24	-39.5	-40.4	24.1	0.00e+00	0	33	101	1048576	56	6411
2026-01-06 14:20:10.43	75.09	57.43	-40.1	-41.0	23.6	0.00e+00	0	33	101	1048576	56	6916
2026-01-06 14:20:11.44	75.82	57.62	-39.9	-40.8	23.8	0.00e+00	0	33	101	1048576	56	6704
2026-01-06 14:20:12.45	76.56	57.81	-39.8	-40.7	23.8	0.00e+00	0	33	101	1048576	56	6633
2026-01-06 14:20:13.46	77.32	57.99	-40.4	-41.4	23.2	0.00e+00	0	33	101	1048576	58	6407
2026-01-06 14:20:14.47	78.08	58.17	-40.7	-41.7	23.0	0.00e+00	0	33	101	1048576	58	6668
2026-01-06 14:20:15.48	78.85	58.34	-40.2	-41.2	23.4	0.00e+00	0	33	101	1048576	58	6246
2026-01-06 14:20:16.49	79.64	58.51	-40.6	-41.5	23.3	0.00e+00	0	33	101	1048576	58	6538
2026-01-06 14:20:17.50	80.43	58.68	-39.9	-40.8	23.7	0.00e+00	0	33	101	1048576	58	5994
2026-01-06 14:20:18.51	81.23	58.84	-39.4	-40.2	23.5	0.00e+00	0	33	101	1048576	58	5589
2026-01-06 14:20:19.51	82.04	58.99	-38.7	-39.5	24.6	0.00e+00	0	33	101	1048576	56	5817
2026-01-06 14:20:20.52	82.86	59.14	-39.5	-40.3	24.0	0.00e+00	0	33	101	1048576	56	6389
2026-01-06 14:20:21.53	83.69	59.29	-39.6	-40.5	23.8	0.00e+00	0	33	101	1048576	56	6514
2026-01-06 14:20:22.54	84.53	59.43	-40.0	-40.9	23.7	0.00e+00	0	33	101	1048576	56	6810
2026-01-06 14:20:23.56	85.39	59.57	-40.2	-41.1	23.5	0.00e+00	0	33	101	1048576	58	6220
2026-01-06 14:20:24.57	86.24	59.70	-41.0	-42.1	22.7	0.00e+00	0	33	101	1048576	58	6938
2026-01-06 14:20:25.58	87.11	59.82	-41.4	-42.5	22.4	0.00e+00	0	34	101	1048576	60	6507
2026-01-06 14:20:26.59	87.98	59.94	-41.1	-42.1	22.8	0.00e+00	0	33	101	1048576	60	6199
2026-01-06 14:20:27.60	88.87	60.05	-40.9	-41.9	23.0	0.00e+00	0	33	101	1048576	60	6038
2026-01-06 14:20:28.61	89.76	60.16	-40.7	-41.7	23.1	0.00e+00	0	34	101	1048576	60	5898
2026-01-06 14:20:29.62	90.65	60.26	-40.7	-41.7	23.0	0.00e+00	0	34	101	1048576	60	5905
2026-01-06 14:20:30.63	91.56	60.35	-41.2	-42.2	22.6	0.00e+00	0	33	101	1048576	60	6295
2026-01-06 14:20:31.64	92.47	60.44	-41.5	-42.6	22.4	0.00e+00	0	33	101	1048576	60	6543
2026-01-06 14:20:32.66	93.39	60.53	-41.3	-42.4	22.6	0.00e+00	0	33	101	1048576	60	6404
2026-01-06 14:20:33.66	94.31	60.60	-40.2	-41.2	23.4	0.00e+00	0	33	101	1048576	60	5577
2026-01-06 14:20:34.68	95.24	60.67	-39.6	-40.5	24.0	0.00e+00	0	33	101	1048576	58	5805
2026-01-06 14:20:35.69	96.18	60.74	-40.8	-41.9	22.9	0.00e+00	0	33	101	1048576	58	6780
2026-01-06 14:20:36.70	97.11	60.79	-42.2	-43.4	21.7	0.00e+00	0	33	101	1048576	60	7231
2026-01-06 14:20:37.71	98.05	60.84	-41.5	-42.6	22.4	0.00e+00	0	33	101	1048576	60	6593
2026-01-06 14:20:38.72	99.00	60.89	-41.3	-42.3	22.8	0.00e+00	0	34	101	1048576	60	6319
2026-01-06 14:20:39.73	99.95	60.92	-40.6	-41.5	23.0	0.00e+00	0	33	101	1048576	60	5828
2026-01-06 14:20:40.74	100.90	60.95	-40.2	-41.2	23.4	0.00e+00	0	33	101	1048576	58	6264
2026-01-06 14:20:41.75	101.85	60.97	-39.0	-39.9	24.4	0.00e+00	0	33	101	1048576	56	6036
2026-01-06 14:20:42.76	102.80	60.99	-39.3	-40.2	24.1	0.00e+00	0	33	101	1048576	56	6268
2026-01-06 14:20:43.78	103.76	61.00	-40.0	-41.0	23.6	0.00e+00	0	33	101	1048576	56	6854
2026-01-06 14:20:44.79	104.72	61.00	-39.7	-40.6	24.0	0.00e+00	0	33	101	1048576	58	5845
2026-01-06 14:20:45.80	105.67	61.00	-39.6	-40.5	23.9	0.00e+00	0	33	101	1048576	58	5816
2026-01-06 14:20:46.81	106.63	60.98	-39.8	-40.7	23.8	0.00e+00	0	33	101	1048576	58	5933
2026-01-06 14:20:47.82	107.58	60.97	-39.6	-40.5	23.9	0.00e+00	0	33	101	1048576	58	5818
2026-01-06 14:20:48.83	108.53	60.94	-39.6	-40.4	24.0	0.00e+00	0	33	101	1048576	58	5749
2026-01-06 14:20:49.84	109.48	60.91	-39.4	-40.3	24.0	0.00e+00	0	33	101	1048576	58	5678
2026-01-06 14:20:50.85	110.43	60.87	-39.8	-40.7	23.8	0.00e+00	0	33	101	1048576	58	5943
2026-01-06 14:20:51.86	111.37	60.82	-40.0	-40.9	23.5	0.00e+00	0	33	101	1048576	58	6064
2026-01-06 14:20:52.88	112.32	60.77	-40.2	-41.1	23.6	0.00e+00	0	33	101	1048576	58	6222
2026-01-06 14:20:53.89	113.26	60.71	-39.6	-40.4	24.1	0.00e+00	0	33	101	1048576	58	5761
2026-01-06 14:20:54.90	114.19	60.64	-39.5	-40.4	24.0	0.00e+00	0	33	101	1048576	58	5735
2026-01-06 14:20:55.91	115.11	60.57	-41.2	-42.2	22.2	0.00e+00	0	33	101	1048576	58	7071
2026-01-06 14:20:56.92	116.03	60.49	-43.3	-44.7	20.7	0.00e+00	0	33	101	1048576	60	8395
2026-01-06 14:20:57.93	116.95	60.41	-42.4	-43.6	21.7	0.00e+00	0	33	101	1048576	60	7371
2026-01-06 14:20:58.94	117.86	60.32	-42.5	-43.8	21.3	0.00e+00	0	33	101	1048576	60	7516
2026-01-06 14:20:59.95	118.76	60.22	-43.6	-45.0	20.3	0.00e+00	0	33	101	1048576	60	8636
2026-01-06 14:21:00.96	119.65	60.12	-43.1	-44.4	20.8	0.00e+00	0	33	101	1048576	60	8072
2026-01-06 14:21:01.97	120.54	60.01	-42.7	-43.9	21.1	0.00e+00	0	33	101	1048576	60	7669
2026-01-06 14:21:02.98	121.42	59.89	-42.3	-43.5	21.4	0.00e+00	0	34	101	1048576	60	7295
2026-01-06 14:21:03.99	122.29	59.77	-42.2	-43.3	21.8	0.00e+00	0	34	101	1048576	60	7111
2026-01-06 14:21:05.01	123.17	59.64	-42.8	-44.1	21.4	0.00e+00	0	33	101	1048576	60	7793
2026-01-06 14:21:06.02	124.02	59.51	-42.7	-43.9	21.2	0.00e+00	0	34	101	1048576	60	7655
2026-01-06 14:21:07.03	124.87	59.37	-41.7	-42.7	22.2	0.00e+00	0	33	101	1048576	60	6683
2026-01-06 14:21:08.04	125.70	59.23	-40.8	-41.7	23.2	0.00e+00	0	33	101	1048576	60	5944
2026-01-06 14:21:09.05	126.53	59.08	-40.8	-41.8	22.8	0.00e+00	0	33	101	1048576	60	5985
2026-01-06 14:21:10.06	127.35	58.93	-41.7	-42.7	22.2	0.00e+00	0	33	101	1048576	60	6680
2026-01-06 14:21:11.07	128.16	58.77	-42.5	-43.8	21.3	0.00e+00	0	33	101	1048576	60	7511
2026-01-06 14:21:12.08	128.96	58.61	-42.6	-43.9	21.4	0.00e+00	0	33	101	1048576	60	7616
2026-01-06 14:21:13.09	129.75	58.44	-41.6	-42.7	22.3	0.00e+00	0	33	101	1048576	60	6669
2026-01-06 14:21:14.10	130.53	58.27	-40.5	-41.5	23.3	0.00e+00	0	33	101	1048576	60	5774
2026-01-06 14:21:15.11	131.30	58.09	-40.0	-41.0	23.7	0.00e+00	0	33	101	1048576	58	6112
2026-01-06 14:21:16.12	132.06	57.91	-40.1	-41.0	23.6	0.00e+00	0	33	101	1048576	58	6127
2026-01-06 14:21:17.13	132.81	57.73	-39.9	-40.8	23.8	0.00e+00	0	33	101	1048576	58	6014
2026-01-06 14:21:18.14	133.55	57.54	-38.5	-39.3	24.9	0.00e+00	0	33	101	1048576	56	5678
2026-01-06 14:21:19.15	134.28	57.35	-38.4	-39.1	24.9	0.00e+00	0	33	101	1048576	54	6243
2026-01-06 14:21:20.17	135.00	57.15	-39.0	-39.9	24.4	0.00e+00	0	33	101	1048576	54	6804
2026-01-06 14:21:21.18	135.71	56.95	-39.4	-40.3	24.1	0.00e+00	0	33	101	1048576	56	6345
2026-01-06 14:21:22.19	136.41	56.75	-39.0	-39.9	24.5	0.00e+00	0	33	101	1048576	56	6072
2026-01-06 14:21:23.20	137.10	56.54	-39.8	-40.7	23.8	0.00e+00	0	33	101	1048576	56	6678
2026-01-06 14:21:24.21	137.77	56.33	-40.3	-41.4	23.2	0.00e+00	0	33	101	1048576	58	6415
2026-01-06 14:21:25.22	138.44	56.12	-40.2	-41.2	23.7	0.00e+00	0	33	101	1048576	58	6304
2026-01-06 14:21:26.23	139.10	55.91	-38.3	-39.1	25.1	0.00e+00	0	33	101	1048576	56	5549
2026-01-06 14:21:27.24	139.75	55.69	-37.4	-38.1	25.6	0.00e+00	0	33	101	1048576	54	5546
2026-01-06 14:21:28.25	140.39	55.47	-37.2	-37.9	25.6	0.00e+00	0	33	101	1048576	54	5428
2026-01-06 14:21:29.26	141.01	55.25	-36.7	-37.4	25.9	0.00e+00	0	33	101	1048576	52	5749
2026-01-06 14:21:30.27	141.63	55.02	-36.2	-36.9	26.2	0.00e+00	0	33	101	1048576	52	5415
2026-01-06 14:21:31.28	142.24	54.80	-36.0	-36.7	26.0	0.00e+00	0	33	101	1048576	50	5903
2026-01-06 14:21:32.29	142.84	54.57	-36.7	-37.5	25.7	0.00e+00	0	33	101	1048576	50	6476
2026-01-06 14:21:33.31	143.43	54.33	-37.3	-38.1	25.4	0.00e+00	0	33	101	1048576	52	6177
2026-01-06 14:21:34.32	144.01	54.10	-37.2	-37.9	25.6	0.00e+00	0	33	101	1048576	52	6099
2026-01-06 14:21:35.33	144.59	53.87	-37.0	-37.8	25.7	0.00e+00	0	33	101	1048576	52	5985
2026-01-06 14:21:36.34	145.15	53.63	-37.9	-38.7	25.0	0.00e+00	0	33	101	1048576	52	6635
2026-01-06 14:21:37.35	145.70	53.39	-38.2	-39.1	24.6	0.00e+00	0	33	101	1048576	54	6211
2026-01-06 14:21:38.36	146.24	53.15	-37.4	-38.1	25.4	0.00e+00	0	33	101	1048576	54	5562
2026-01-06 14:21:39.37	146.78	52.91	-36.9	-37.6	25.4	0.00e+00	0	33	101	1048576	52	5881
2026-01-06 14:21:40.38	147.30	52.67	-37.3	-38.1	25.6	0.00e+00	0	33	101	1048576	52	6224
2026-01-06 14:21:41.39	147.82	52.43	-37.6	-38.4	25.4	0.00e+00	0	33	101	1048576	52	6441
2026-01-06 14:21:42.40	148.33	52.18	-37.0	-37.8	25.6	0.00e+00	0	33	101	1048576	52	5985
2026-01-06 14:21:43.41	148.83	51.94	-37.2	-38.0	25.6	0.00e+00	0	33	101	1048576	52	6137
2026-01-06 14:21:44.42	149.32	51.69	-37.5	-38.4	25.4	0.00e+00	0	33	101	1048576	52	6391
2026-01-06 14:21:45.44	149.81	51.44	-38.2	-39.1	24.9	0.00e+00	0	33	101	1048576	54	6181
2026-01-06 14:21:46.45	150.29	51.19	-38.4	-39.2	24.8	0.00e+00	0	33	101	1048576	54	6313
2026-01-06 14:21:47.46	150.76	50.94	-38.7	-39.6	24.6	0.00e+00	0	33	101	1048576	54	6545
2026-01-06 14:21:48.47	151.22	50.69	-38.5	-39.4	24.8	0.00e+00	0	33	101	1048576	54	6408
2026-01-06 14:21:49.48	151.68	50.44	-37.9	-38.7	25.2	0.00e+00	0	33	101	1048576	54	5919
2026-01-06 14:21:50.49	152.12	50.19	-37.5	-38.3	25.4	0.00e+00	0	33	101	1048576	54	5661
2026-01-06 14:21:51.50	152.56	49.94	-38.8	-39.6	24.4	0.00e+00	0	33	101	1048576	54	6580
2026-01-06 14:21:52.51	152.99	49.69	-41.2	-42.3	22.1	0.00e+00	0	33	101	1048576	58	7108
2026-01-06 14:21:53.52	153.42	49.44	-43.1	-44.7	20.9	0.00e+00	0	34	101	1048576	60	8338
2026-01-06 14:21:54.53	153.84	49.19	-41.8	-43.0	22.0	0.00e+00	0	33	101	1048576	60	6913
2026-01-06 14:21:55.54	154.25	48.94	-42.6	-43.9	21.3	0.00e+00	0	34	101	1048576	60	7612
2026-01-06 14:21:56.55	154.65	48.68	-44.2	-45.8	19.7	0.00e+00	0	33	101	1048576	60	9477
2026-01-06 14:21:57.56	155.05	48.43	-44.4	-46.1	19.3	0.00e+00	0	33	101	1048576	60	9786
2026-01-06 14:21:58.57	155.45	48.18	-44.2	-45.9	19.5	0.00e+00	0	34	101	1048576	60	9618
2026-01-06 14:21:59.58	155.83	47.93	-44.4	-46.3	19.1	0.00e+00	0	33	101	1048576	60	10029
2026-01-06 14:22:00.60	156.21	47.67	-45.1	-47.2	18.3	0.00e+00	0	33	101	1048576	60	11109
2026-01-06 14:22:01.61	156.59	47.42	-43.9	-45.5	19.9	0.00e+00	0	33	101	1048576	60	9228
2026-01-06 14:22:02.62	156.96	47.17	-42.6	-43.8	21.4	0.00e+00	0	33	101	1048576	60	7527
2026-01-06 14:22:03.63	157.32	46.92	-41.3	-42.3	22.6	0.00e+00	0	33	101	1048576	60	6361
2026-01-06 14:22:04.64	157.67	46.67	-42.4	-43.6	21.3	0.00e+00	0	33	101	1048576	60	7407
2026-01-06 14:22:05.65	158.03	46.42	-43.6	-45.2	19.6	0.00e+00	0	33	101	1048576	60	8858
2026-01-06 14:22:06.66	158.37	46.17	-45.3	-47.3	18.1	0.00e+00	0	33	101	1048576	60	11357
2026-01-06 14:22:07.67	158.71	45.92	-44.2	-45.8	19.9	0.00e+00	0	34	101	1048576	60	9550
2026-01-06 14:22:08.68	159.05	45.67	-41.8	-42.9	22.1	0.00e+00	0	33	101	1048576	60	6781
2026-01-06 14:22:09.69	159.37	45.42	-41.1	-42.1	22.7	0.00e+00	0	34	101	1048576	60	6185
2026-01-06 14:22:10.70	159.70	45.17	-41.8	-42.9	22.0	0.00e+00	0	34	101	1048576	60	6828
2026-01-06 14:22:11.71	160.02	44.93	-43.2	-44.6	20.7	0.00e+00	0	34	101	1048576	60	8298
2026-01-06 14:22:12.72	160.33	44.68	-42.6	-43.9	21.2	0.00e+00	0	34	101	1048576	60	7643
2026-01-06 14:22:13.73	160.64	44.43	-40.2	-41.2	23.5	0.00e+00	0	34	101	1048576	60	5574
2026-01-06 14:22:14.74	160.95	44.19	-39.0	-39.8	24.3	0.00e+00	0	34	101	1048576	56	6020
2026-01-06 14:22:15.76	161.25	43.94	-38.9	-39.7	24.4	0.00e+00	0	34	101	1048576	56	5957
2026-01-06 14:22:16.77	161.55	43.70	-39.7	-40.6	23.9	0.00e+00	0	34	101	1048576	56	6563
2026-01-06 14:22:17.78	161.84	43.45	-40.5	-41.4	23.2	0.00e+00	0	34	101	1048576	58	6441
2026-01-06 14:22:18.79	162.13	43.21	-40.9	-41.9	22.7	0.00e+00	0	34	101	1048576	58	6780
2026-01-06 14:22:19.80	162.41	42.97	-41.6	-42.7	22.3	0.00e+00	0	34	101	1048576	60	6662
2026-01-06 14:22:20.81	162.69	42.73	-41.1	-42.1	22.8	0.00e+00	0	34	101	1048576	60	6218
2026-01-06 14:22:21.82	162.96	42.49	-40.3	-41.2	23.5	0.00e+00	0	33	101	1048576	60	5590
2026-01-06 14:22:22.83	163.24	42.25	-38.9	-39.7	24.6	0.00e+00	0	33	101	1048576	56	5937
2026-01-06 14:22:23.84	163.50	42.01	-38.4	-39.2	25.0	0.00e+00	0	33	101	1048576	56	5567
2026-01-06 14:22:24.86	163.77	41.77	-39.6	-40.5	23.9	0.00e+00	0	33	101	1048576	56	6490
2026-01-06 14:22:25.87	164.03	41.53	-42.3	-43.5	21.6	0.00e+00	0	33	101	1048576	60	7318
2026-01-06 14:22:26.88	164.28	41.30	-44.0	-45.7	19.8	0.00e+00	0	33	101	1048576	60	9361
2026-01-06 14:22:27.89	164.54	41.06	-43.3	-44.8	20.6	0.00e+00	0	33	101	1048576	60	8482
2026-01-06 14:22:28.90	164.78	40.83	-40.8	-41.8	23.0	0.00e+00	0	33	101	1048576	60	6027
2026-01-06 14:22:29.91	165.03	40.59	-38.7	-39.5	24.8	0.00e+00	0	33	101	1048576	56	5763
2026-01-06 14:22:30.92	165.27	40.36	-38.0	-38.7	25.2	0.00e+00	0	34	101	1048576	54	5945
2026-01-06 14:22:31.93	165.51	40.13	-38.4	-39.2	24.6	0.00e+00	0	34	101	1048576	54	6289
2026-01-06 14:22:32.94	165.74	39.90	-39.8	-40.7	23.8	0.00e+00	0	34	101	1048576	56	6646
2026-01-06 14:22:33.96	165.98	39.67	-40.9	-42.0	22.8	0.00e+00	0	33	101	1048576	58	6898
2026-01-06 14:22:34.97	166.21	39.44	-41.2	-42.3	22.4	0.00e+00	0	33	101	1048576	60	6375
2026-01-06 14:22:35.98	166.43	39.21	-40.3	-41.2	23.7	0.00e+00	0	33	101	1048576	60	5623
2026-01-06 14:22:36.99	166.65	38.99	-38.9	-39.8	24.5	0.00e+00	0	33	101	1048576	56	5976
2026-01-06 14:22:38.00	166.87	38.76	-38.5	-39.3	24.8	0.00e+00	0	33	101	1048576	56	5686
2026-01-06 14:22:39.01	167.09	38.54	-37.8	-38.5	24.7	0.00e+00	0	33	101	1048576	54	5824
2026-01-06 14:22:40.02	167.30	38.31	-37.8	-38.5	25.2	0.00e+00	0	33	101	1048576	54	5803
2026-01-06 14:22:41.03	167.51	38.09	-38.3	-39.1	24.8	0.00e+00	0	34	101	1048576	54	6194
2026-01-06 14:22:42.04	167.72	37.87	-39.3	-40.1	23.6	0.00e+00	0	33	101	1048576	56	6219
2026-01-06 14:22:43.05	167.93	37.65	-40.3	-41.2	23.2	0.00e+00	0	33	101	1048576	58	6251
2026-01-06 14:22:44.06	168.13	37.43	-40.9	-41.8	22.7	0.00e+00	0	33	101	1048576	58	6758
2026-01-06 14:22:45.07	168.33	37.21	-41.9	-43.0	22.0	0.00e+00	0	33	101	1048576	60	6908
2026-01-06 14:22:46.09	168.53	36.99	-41.5	-42.6	22.4	0.00e+00	0	34	101	1048576	60	6560
2026-01-06 14:22:47.09	168.72	36.78	-41.7	-42.9	22.2	0.00e+00	0	34	101	1048576	60	6771
2026-01-06 14:22:48.10	168.91	36.56	-41.4	-42.4	22.5	0.00e+00	0	34	101	1048576	60	6464
2026-01-06 14:22:49.12	169.10	36.35	-40.9	-41.9	22.8	0.00e+00	0	33	101	1048576	60	6081
2026-01-06 14:22:50.13	169.29	36.14	-41.3	-42.3	22.6	0.00e+00	0	33	101	1048576	60	6371
2026-01-06 14:22:51.14	169.47	35.92	-41.2	-42.2	22.6	0.00e+00	0	34	101	1048576	60	6305
2026-01-06 14:22:52.15	169.66	35.71	-41.3	-42.3	22.6	0.00e+00	0	33	101	1048576	60	6384
2026-01-06 14:22:53.16	169.84	35.50	-41.4	-42.4	22.5	0.00e+00	0	34	101	1048576	60	6456
2026-01-06 14:22:54.17	170.02	35.30	-41.3	-42.2	22.7	0.00e+00	0	33	101	1048576	60	6314
2026-01-06 14:22:55.18	170.19	35.09	-41.1	-42.0	22.9	0.00e+00	0	34	101	1048576	60	6154
2026-01-06 14:22:56.19	170.37	34.88	-41.2	-42.2	22.5	0.00e+00	0	33	101	1048576	60	6268
2026-01-06 14:22:57.20	170.54	34.68	-41.1	-42.1	22.9	0.00e+00	0	33	101	1048576	60	6176
2026-01-06 14:22:58.21	170.71	34.47	-40.7	-41.7	23.1	0.00e+00	0	33	101	1048576	60	5911
2026-01-06 14:22:59.22	170.87	34.27	-41.1	-42.1	22.8	0.00e+00	0	33	101	1048576	60	6236
2026-01-06 14:23:00.23	171.04	34.07	-40.9	-41.9	23.0	0.00e+00	0	33	101	1048576	60	6097
2026-01-06 14:23:01.24	171.20	33.87	-40.9	-41.9	22.9	0.00e+00	0	34	101	1048576	60	6058
2026-01-06 14:23:02.25	171.36	33.67	-40.7	-41.7	23.1	0.00e+00	0	33	101	1048576	60	5940
2026-01-06 14:23:03.27	171.53	33.47	-40.6	-41.6	23.2	0.00e+00	0	33	101	1048576	60	5871
2026-01-06 14:23:04.27	171.68	33.27	-40.9	-41.9	23.0	0.00e+00	0	33	101	1048576	60	6056
2026-01-06 14:23:05.29	171.84	33.07	-40.7	-41.7	23.1	0.00e+00	0	33	101	1048576	60	5920
2026-01-06 14:23:06.30	171.99	32.88	-40.6	-41.5	23.3	0.00e+00	0	33	101	1048576	60	5805
2026-01-06 14:23:07.31	172.15	32.68	-40.5	-41.4	23.2	0.00e+00	0	33	101	1048576	60	5751
2026-01-06 14:23:08.32	172.30	32.49	-40.4	-41.3	23.4	0.00e+00	0	33	101	1048576	60	5666
2026-01-06 14:23:09.33	172.44	32.30	-40.0	-40.9	23.7	0.00e+00	0	33	101	1048576	58	6047
2026-01-06 14:23:10.34	172.59	32.10	-40.1	-41.0	23.6	0.00e+00	0	33	101	1048576	58	6132
2026-01-06 14:23:11.35	172.74	31.91	-40.4	-41.3	23.3	0.00e+00	0	33	101	1048576	58	6368
2026-01-06 14:23:12.36	172.88	31.72	-40.1	-41.0	23.5	0.00e+00	0	33	101	1048576	58	6156
2026-01-06 14:23:13.37	173.02	31.54	-40.9	-41.9	22.9	0.00e+00	0	33	101	1048576	58	6815
2026-01-06 14:23:14.38	173.16	31.35	-41.5	-42.5	22.6	0.00e+00	0	33	101	1048576	60	6519
2026-01-06 14:23:15.39	173.30	31.16	-41.4	-42.4	22.5	0.00e+00	0	33	101	1048576	60	6411
2026-01-06 14:23:16.40	173.44	30.98	-42.0	-43.1	21.8	0.00e+00	0	34	101	1048576	60	7001
2026-01-06 14:23:17.41	173.58	30.79	-42.5	-43.7	21.6	0.00e+00	0	33	101	1048576	60	7455
2026-01-06 14:23:18.42	173.71	30.61	-42.6	-43.9	21.3	0.00e+00	0	33	101	1048576	60	7603
2026-01-06 14:23:19.43	173.84	30.43	-42.4	-43.7	21.5	0.00e+00	0	33	101	1048576	60	7424
2026-01-06 14:23:20.44	173.97	30.24	-42.2	-43.4	21.7	0.00e+00	0	33	101	1048576	60	7218
2026-01-06 14:23:21.45	174.10	30.06	-42.0	-43.2	21.9	0.00e+00	0	33	101	1048576	60	7053
2026-01-06 14:23:22.46	174.23	29.88	-42.0	-43.2	21.8	0.00e+00	0	33	101	1048576	60	7031
2026-01-06 14:23:23.48	174.36	29.70	-41.1	-42.1	22.7	0.00e+00	0	33	101	1048576	60	6231
2026-01-06 14:23:24.49	174.49	29.53	-40.7	-41.7	23.0	0.00e+00	0	33	101	1048576	60	5943
2026-01-06 14:23:25.50	174.61	29.35	-41.1	-42.1	22.7	0.00e+00	0	33	101	1048576	60	6176
2026-01-06 14:23:26.51	174.74	29.17	-40.8	-41.8	23.0	0.00e+00	0	33	101	1048576	60	5965
2026-01-06 14:23:27.52	174.86	29.00	-41.0	-42.0	22.9	0.00e+00	0	33	101	1048576	60	6123
2026-01-06 14:23:28.53	174.98	28.83	-41.4	-42.5	22.4	0.00e+00	0	33	101	1048576	60	6475
2026-01-06 14:23:29.54	175.10	28.65	-41.3	-42.3	22.4	0.00e+00	0	33	101	1048576	60	6384
2026-01-06 14:23:30.55	175.22	28.48	-41.4	-42.4	22.4	0.00e+00	0	33	101	1048576	60	6454
2026-01-06 14:23:31.56	175.33	28.31	-41.4	-42.5	22.4	0.00e+00	0	33	101	1048576	60	6469
2026-01-06 14:23:32.57	175.45	28.14	-41.3	-42.3	22.6	0.00e+00	0	33	101	1048576	60	6339
2026-01-06 14:23:33.58	175.56	27.97	-41.2	-42.2	22.5	0.00e+00	0	33	101	1048576	60	6314
2026-01-06 14:23:34.59	175.68	27.80	-40.6	-41.5	23.1	0.00e+00	0	33	101	1048576	60	5824
2026-01-06 14:23:35.60	175.79	27.64	-40.4	-41.4	23.2	0.00e+00	0	33	101	1048576	60	5709
2026-01-06 14:23:36.62	175.90	27.47	-40.4	-41.3	23.3	0.00e+00	0	33	101	1048576	60	5682
2026-01-06 14:23:37.63	176.01	27.30	-40.4	-41.4	23.3	0.00e+00	0	33	101	1048576	60	5703
2026-01-06 14:23:38.64	176.12	27.14	-40.1	-41.0	23.5	0.00e+00	0	34	101	1048576	58	6118
2026-01-06 14:23:39.65	176.23	26.98	-40.3	-41.3	23.3	0.00e+00	0	33	101	1048576	58	6337
2026-01-06 14:23:40.66	176.34	26.81	-40.0	-40.9	23.6	0.00e+00	0	33	101	1048576	58	6065
2026-01-06 14:23:41.67	176.44	26.65	-39.6	-40.5	23.8	0.00e+00	0	33	101	1048576	58	5802
2026-01-06 14:23:42.68	176.55	26.49	-39.7	-40.6	24.0	0.00e+00	0	33	101	1048576	58	5831
2026-01-06 14:23:43.69	176.65	26.33	-39.9	-40.8	23.8	0.00e+00	0	33	101	1048576	58	6006
2026-01-06 14:23:44.70	176.75	26.17	-40.1	-41.0	23.5	0.00e+00	0	33	101	1048576	58	6147
2026-01-06 14:23:45.72	176.86	26.01	-40.2	-41.1	23.4	0.00e+00	0	33	101	1048576	58	6243
2026-01-06 14:23:46.73	176.96	25.85	-40.1	-41.1	23.4	0.00e+00	0	33	101	1048576	58	6200
2026-01-06 14:23:47.74	177.06	25.70	-40.5	-41.5	23.1	0.00e+00	0	33	101	1048576	58	6471
2026-01-06 14:23:48.75	177.16	25.54	-40.4	-41.3	23.3	0.00e+00	0	33	101	1048576	58	6384
2026-01-06 14:23:49.76	177.26	25.38	-40.2	-41.1	23.4	0.00e+00	0	33	101	1048576	58	6243
2026-01-06 14:23:50.77	177.35	25.23	-40.3	-41.3	23.3	0.00e+00	0	33	101	1048576	58	6335
2026-01-06 14:23:51.77	177.45	25.08	-40.4	-41.3	23.2	0.00e+00	0	33	101	1048576	58	6384
2026-01-06 14:23:52.78	177.54	24.93	-40.4	-41.4	23.1	0.00e+00	0	33	101	1048576	58	6454
2026-01-06 14:23:53.79	177.64	24.77	-40.6	-41.6	23.0	0.00e+00	0	33	101	1048576	58	6602
2026-01-06 14:23:54.80	177.73	24.62	-40.2	-41.1	23.4	0.00e+00	0	34	101	1048576	58	6234
2026-01-06 14:23:55.80	177.82	24.47	-40.4	-41.4	23.0	0.00e+00	0	33	101	1048576	58	6456
2026-01-06 14:23:56.82	177.92	24.32	-40.2	-41.2	23.3	0.00e+00	0	33	101	1048576	58	6314
2026-01-06 14:23:57.82	178.01	24.18	-40.2	-41.2	23.5	0.00e+00	0	33	101	1048576	58	6279
2026-01-06 14:23:58.83	178.10	24.03	-40.1	-41.0	23.4	0.00e+00	0	33	101	1048576	58	6149
2026-01-06 14:23:59.84	178.19	23.88	-39.6	-40.5	23.9	0.00e+00	0	33	101	1048576	58	5797
2026-01-06 14:24:00.85	178.28	23.73	-39.4	-40.2	23.9	0.00e+00	0	33	101	1048576	58	5622
2026-01-06 14:24:01.86	178.36	23.59	-38.9	-39.7	24.5	0.00e+00	0	33	101	1048576	56	5943
2026-01-06 14:24:02.87	178.45	23.44	-38.3	-39.1	24.9	0.00e+00	0	33	101	1048576	56	5543
2026-01-06 14:24:03.88	178.54	23.30	-38.1	-38.9	25.0	0.00e+00	0	34	101	1048576	54	6079
2026-01-06 14:24:04.88	178.62	23.16	-37.7	-38.4	25.4	0.00e+00	0	34	101	1048576	54	5736
2026-01-06 14:24:05.89	178.71	23.01	-37.3	-38.0	25.5	0.00e+00	0	34	101	1048576	54	5458
2026-01-06 14:24:06.90	178.79	22.87	-37.2	-37.9	25.6	0.00e+00	0	33	101	1048576	52	6103
2026-01-06 14:24:07.91	178.87	22.73	-37.2	-37.9	25.7	0.00e+00	0	33	101	1048576	52	6069
2026-01-06 14:24:08.92	178.96	22.59	-37.4	-38.2	25.6	0.00e+00	0	34	101	1048576	52	6251
2026-01-06 14:24:09.75	179.02	22.48	-37.6	-38.4	25.3	0.00e+00	0	33	101	1048576	52	6392
2026-01-06 14:24:10.90	179.12	22.32	-37.7	-38.4	25.3	0.00e+00	0	34	101	1048576	52	6435
2026-01-06 14:24:11.77	179.19	22.20	-38.0	-38.7	25.1	0.00e+00	0	33	101	1048576	52	6667
2026-01-06 14:24:12.92	179.28	22.04	-38.1	-38.9	25.0	0.00e+00	0	33	101	1048576	54	6048
2026-01-06 14:24:13.78	179.35	21.92	-38.4	-39.2	24.7	0.00e+00	0	33	101	1048576	54	6292
2026-01-06 14:24:14.94	179.44	21.77	-38.5	-39.3	24.7	0.00e+00	0	33	101	1048576	54	6342
2026-01-06 14:24:15.80	179.50	21.65	-38.7	-39.5	24.5	0.00e+00	0	33	101	1048576	54	6534
2026-01-06 14:24:16.95	179.59	21.50	-38.6	-39.5	24.6	0.00e+00	0	34	101	1048576	54	6470
2026-01-06 14:24:17.81	179.66	21.38	-38.6	-39.4	24.6	0.00e+00	0	33	101	1048576	54	6423
2026-01-06 14:24:18.97	179.74	21.23	-38.5	-39.3	24.7	0.00e+00	0	33	101	1048576	54	6332
2026-01-06 14:24:19.83	179.81	21.12	-38.5	-39.3	24.6	0.00e+00	0	33	101	1048576	54	6367
2026-01-06 14:24:20.99	179.89	20.96	-38.4	-39.2	24.7	0.00e+00	0	33	101	1048576	54	6311
2026-01-06 14:24:21.85	179.96	20.85	-38.3	-39.1	24.8	0.00e+00	0	33	101	1048576	54	6178
2026-01-06 14:24:23.00	180.04	20.70	-38.2	-39.0	24.9	0.00e+00	0	33	101	1048576	54	6148
2026-01-06 14:24:23.87	180.10	20.59	-38.1	-38.9	25.0	0.00e+00	0	34	101	1048576	54	6041
2026-01-06 14:24:25.02	180.19	20.44	-37.9	-38.7	25.0	0.00e+00	0	33	101	1048576	54	5916
2026-01-06 14:24:25.88	180.25	20.33	-38.0	-38.7	25.0	0.00e+00	0	33	101	1048576	54	5962
2026-01-06 14:24:27.03	180.33	20.19	-37.9	-38.7	25.0	0.00e+00	0	33	101	1048576	54	5948
2026-01-06 14:24:27.90	180.39	20.08	-37.8	-38.6	25.1	0.00e+00	0	33	101	1048576	54	5872
2026-01-06 14:24:29.05	180.47	19.93	-38.0	-38.8	25.1	0.00e+00	0	33	101	1048576	54	5984
2026-01-06 14:24:29.91	180.53	19.82	-38.0	-38.8	25.0	0.00e+00	0	33	101	1048576	54	6010
2026-01-06 14:24:31.07	180.61	19.68	-37.9	-38.7	25.0	0.00e+00	0	33	101	1048576	54	5918
2026-01-06 14:24:31.93	180.67	19.57	-38.2	-39.0	24.9	0.00e+00	0	34	101	1048576	54	6126
2026-01-06 14:24:33.09	180.75	19.43	-38.2	-39.0	24.8	0.00e+00	0	33	101	1048576	54	6144
2026-01-06 14:24:33.95	180.80	19.32	-38.2	-39.0	24.8	0.00e+00	0	33	101	1048576	54	6111
2026-01-06 14:24:35.10	180.88	19.18	-38.3	-39.1	24.8	0.00e+00	0	33	101	1048576	54	6195
2026-01-06 14:24:35.96	180.94	19.08	-38.4	-39.2	24.7	0.00e+00	0	34	101	1048576	54	6271
2026-01-06 14:24:37.12	181.01	18.93	-38.5	-39.4	24.6	0.00e+00	0	33	101	1048576	54	6393
2026-01-06 14:24:37.98	181.07	18.83	-38.7	-39.5	24.5	0.00e+00	0	33	101	1048576	54	6496
2026-01-06 14:24:39.13	181.14	18.69	-38.9	-39.8	24.3	0.00e+00	0	33	101	1048576	54	6713
2026-01-06 14:24:40.00	181.20	18.59	-39.4	-40.2	24.0	0.00e+00	0	33	101	1048576	56	6311
2026-01-06 14:24:41.15	181.27	18.45	-39.5	-40.4	23.9	0.00e+00	0	33	101	1048576	56	6406
