passes_logs/2026/01/06/R4.6S_Anadyr_2ch/R4.6S_Anadyr_2ch__20260106_011648_AQUA_rec.log

#Pass ID: 20260106_011648_AQUA
#Satellite: AQUA
#Configuration: AQUA
#almurnet v.1.7.20251203
#Start time: 2026-01-06 01:16:51

#Version: 2.2.20231116
#Station: R4.6S_Anadyr_2ch
#Location: 177.4865 lon 64.73178 lat
#TLE: 1 27424U 02022A   25351.00450321  .00000925  00000+0  19503-3 0  9992
#TLE: 2 27424  98.4041 311.9529 0001248 113.7180 322.1616 14.61819266256652

#Time	Az	El	Level	Level2	SNR	BER	BlckErr	Temp	State	Recorded	gain1	gain2
2026-01-06 01:16:51.95	139.55	0.19	-51.4	-67.7	3.3	3.02e+01	0	30	0	0	60	125949
2026-01-06 01:16:52.96	139.53	0.25	-51.4	-69.1	3.5	3.02e+01	0	30	104	0	60	148604
2026-01-06 01:16:53.97	139.51	0.32	-51.3	-69.1	3.5	3.02e+01	0	30	104	0	60	148440
2026-01-06 01:16:54.98	139.49	0.38	-51.4	-69.2	3.5	3.02e+01	0	30	104	0	60	149049
2026-01-06 01:16:55.99	139.46	0.44	-51.4	-69.2	3.5	3.02e+01	0	30	104	0	60	148983
2026-01-06 01:16:57.00	139.44	0.50	-51.3	-69.2	3.5	3.02e+01	0	30	104	0	60	149271
2026-01-06 01:16:58.01	139.42	0.57	-51.4	-69.2	3.5	3.02e+01	0	30	104	0	60	149217
2026-01-06 01:16:59.02	139.40	0.63	-51.3	-69.2	3.5	3.02e+01	0	30	104	0	60	149292
2026-01-06 01:17:00.03	139.38	0.69	-51.4	-69.2	3.5	3.02e+01	0	31	104	0	60	149661
2026-01-06 01:17:01.04	139.36	0.76	-51.3	-69.1	3.5	3.02e+01	0	30	104	0	60	148016
2026-01-06 01:17:02.06	139.34	0.82	-51.4	-69.2	3.5	3.02e+01	0	31	104	0	60	149383
2026-01-06 01:17:03.07	139.32	0.88	-51.4	-69.2	3.5	3.02e+01	0	30	104	0	60	148951
2026-01-06 01:17:04.08	139.30	0.95	-51.3	-69.2	3.5	3.02e+01	0	31	104	0	60	148947
2026-01-06 01:17:05.09	139.28	1.01	-51.4	-69.2	3.5	3.02e+01	0	31	104	0	60	149591
2026-01-06 01:17:06.10	139.26	1.08	-51.3	-69.2	3.5	3.02e+01	0	31	104	0	60	149095
2026-01-06 01:17:07.11	139.23	1.14	-51.4	-69.2	3.5	3.02e+01	0	31	104	0	60	149423
2026-01-06 01:17:08.12	139.21	1.21	-51.4	-69.1	3.5	3.02e+01	0	31	104	0	60	148482
2026-01-06 01:17:09.13	139.19	1.27	-51.4	-69.2	3.5	3.02e+01	0	31	104	0	60	149545
2026-01-06 01:17:10.14	139.17	1.34	-51.4	-69.2	3.5	3.02e+01	0	31	104	0	60	149612
2026-01-06 01:17:11.15	139.15	1.40	-51.4	-69.2	3.5	3.02e+01	0	31	104	0	60	149464
2026-01-06 01:17:12.16	139.12	1.47	-51.4	-69.2	3.5	3.02e+01	0	31	104	0	60	149352
2026-01-06 01:17:13.17	139.10	1.53	-51.4	-69.2	3.5	3.02e+01	0	31	104	0	60	149750
2026-01-06 01:17:14.18	139.08	1.60	-51.4	-69.2	3.5	3.02e+01	0	31	104	0	60	149141
2026-01-06 01:17:15.19	139.06	1.66	-51.4	-69.2	3.5	3.02e+01	0	31	104	0	60	149408
2026-01-06 01:17:16.21	139.03	1.73	-51.4	-69.2	3.5	3.02e+01	0	31	104	0	60	149285
2026-01-06 01:17:17.22	139.01	1.79	-51.4	-69.2	3.5	3.02e+01	0	31	104	0	60	149106
2026-01-06 01:17:18.23	138.99	1.86	-51.4	-69.2	3.5	3.02e+01	0	31	104	0	60	149780
2026-01-06 01:17:19.24	138.97	1.93	-51.4	-69.1	3.5	3.02e+01	0	31	104	0	60	148394
2026-01-06 01:17:20.25	138.94	1.99	-51.4	-69.2	3.5	3.02e+01	0	31	104	0	60	149209
2026-01-06 01:17:21.26	138.92	2.06	-51.4	-69.2	3.5	3.02e+01	0	31	104	0	60	148957
2026-01-06 01:17:22.27	138.90	2.13	-51.4	-69.1	3.5	3.02e+01	0	31	104	0	60	148745
2026-01-06 01:17:23.28	138.87	2.19	-51.4	-69.2	3.5	3.02e+01	0	31	104	0	60	149121
2026-01-06 01:17:24.29	138.85	2.26	-51.4	-69.2	3.5	3.02e+01	0	31	104	0	60	149257
2026-01-06 01:17:25.30	138.82	2.33	-51.4	-69.2	3.5	3.02e+01	0	31	104	0	60	149524
2026-01-06 01:17:26.31	138.80	2.39	-51.4	-69.2	3.5	3.02e+01	0	31	104	0	60	149843
2026-01-06 01:17:27.32	138.78	2.46	-51.4	-69.2	3.5	3.02e+01	0	31	104	0	60	149671
2026-01-06 01:17:28.34	138.75	2.53	-51.4	-69.2	3.5	3.02e+01	0	31	104	0	60	149492
2026-01-06 01:17:29.34	138.73	2.60	-51.4	-69.2	3.5	3.02e+01	0	31	104	0	60	149342
2026-01-06 01:17:30.36	138.70	2.67	-51.4	-69.2	3.5	3.02e+01	0	31	104	0	60	148980
2026-01-06 01:17:31.37	138.68	2.74	-51.4	-69.2	3.5	3.02e+01	0	31	104	0	60	149477
2026-01-06 01:17:32.38	138.65	2.80	-51.4	-69.2	3.5	3.02e+01	0	31	104	0	60	149966
2026-01-06 01:17:33.39	138.63	2.87	-51.4	-69.2	3.5	3.02e+01	0	31	104	0	60	149163
2026-01-06 01:17:34.40	138.60	2.94	-51.4	-69.2	3.5	3.02e+01	0	31	104	0	60	149504
2026-01-06 01:17:35.41	138.58	3.01	-51.4	-69.2	3.5	3.02e+01	0	31	104	0	60	149051
2026-01-06 01:17:36.42	138.55	3.08	-51.3	-69.2	3.5	3.02e+01	0	31	104	0	60	149091
2026-01-06 01:17:37.43	138.53	3.15	-51.4	-69.1	3.5	3.02e+01	0	31	104	0	60	148481
2026-01-06 01:17:38.44	138.50	3.22	-51.4	-69.1	3.5	3.02e+01	0	31	104	0	60	148537
2026-01-06 01:17:39.46	138.48	3.29	-51.4	-69.1	3.5	3.02e+01	0	31	104	0	60	148838
2026-01-06 01:17:40.47	138.45	3.36	-51.4	-69.2	3.5	3.02e+01	0	31	104	0	60	149642
2026-01-06 01:17:41.48	138.42	3.43	-51.4	-69.2	3.5	3.02e+01	0	31	104	0	60	149226
2026-01-06 01:17:42.49	138.40	3.50	-51.4	-69.2	3.5	3.02e+01	0	31	104	0	60	150564
2026-01-06 01:17:43.50	138.37	3.57	-51.5	-69.3	3.5	3.02e+01	0	31	104	0	60	150914
2026-01-06 01:17:44.51	138.34	3.64	-51.5	-69.3	3.5	3.02e+01	0	31	104	0	60	151702
2026-01-06 01:17:45.52	138.32	3.71	-51.5	-69.4	3.5	3.02e+01	0	31	104	0	60	152591
2026-01-06 01:17:46.53	138.29	3.78	-51.5	-69.3	3.5	3.02e+01	0	31	104	0	60	151841
2026-01-06 01:17:47.54	138.26	3.85	-51.6	-69.4	3.5	3.02e+01	0	31	104	0	60	152399
2026-01-06 01:17:48.55	138.24	3.93	-51.6	-69.4	3.5	3.02e+01	0	31	104	0	60	153099
2026-01-06 01:17:49.57	138.21	4.00	-51.6	-69.5	3.5	3.02e+01	0	31	104	0	60	154245
2026-01-06 01:17:50.58	138.18	4.07	-51.5	-69.3	3.5	3.02e+01	0	31	104	0	60	152293
2026-01-06 01:17:51.59	138.15	4.14	-51.5	-69.3	3.5	3.02e+01	0	31	104	0	60	151776
2026-01-06 01:17:52.60	138.13	4.22	-51.4	-69.2	3.5	3.02e+01	0	31	104	0	60	149683
2026-01-06 01:17:53.61	138.10	4.29	-51.3	-69.1	3.5	3.02e+01	0	31	104	0	60	148611
2026-01-06 01:17:54.62	138.07	4.36	-51.2	-68.9	3.5	3.02e+01	0	31	104	0	60	145438
2026-01-06 01:17:55.63	138.04	4.43	-50.7	-68.7	3.5	3.02e+01	0	31	104	0	60	141743
2026-01-06 01:17:56.64	138.01	4.51	-50.7	-68.5	3.5	3.02e+01	0	31	104	0	60	138823
2026-01-06 01:17:57.65	137.98	4.58	-50.6	-68.4	3.5	3.02e+01	0	31	104	0	60	137233
2026-01-06 01:17:58.66	137.96	4.65	-50.3	-67.9	3.5	3.02e+01	0	31	104	0	60	129037
2026-01-06 01:17:59.67	137.93	4.73	-50.0	-67.8	3.5	3.02e+01	0	31	104	0	60	127851
2026-01-06 01:18:00.68	137.90	4.80	-50.0	-67.8	3.5	3.02e+01	0	31	104	0	60	127676
2026-01-06 01:18:01.69	137.87	4.88	-50.0	-67.7	3.5	3.02e+01	0	31	104	0	60	126221
2026-01-06 01:18:02.70	137.84	4.95	-50.0	-67.8	3.5	3.02e+01	0	31	104	0	60	127534
2026-01-06 01:18:03.72	137.81	5.03	-50.0	-67.8	3.5	3.02e+01	0	31	104	0	60	126748
2026-01-06 01:18:04.73	137.78	5.10	-49.9	-67.7	3.5	3.02e+01	0	31	104	0	60	125362
2026-01-06 01:18:05.74	137.75	5.18	-50.0	-67.7	3.5	3.02e+01	0	31	104	0	60	125941
2026-01-06 01:18:06.75	137.72	5.25	-49.9	-67.7	3.5	3.02e+01	0	31	104	0	60	126088
2026-01-06 01:18:07.76	137.69	5.33	-49.9	-67.8	3.6	3.02e+01	0	31	104	0	60	127455
2026-01-06 01:18:08.77	137.66	5.40	-50.0	-67.9	3.5	3.02e+01	0	31	104	0	60	128709
2026-01-06 01:18:09.78	137.63	5.48	-50.0	-67.9	3.5	3.02e+01	0	31	104	0	60	129162
2026-01-06 01:18:10.79	137.59	5.56	-49.9	-67.7	3.5	3.02e+01	0	31	104	0	60	126136
2026-01-06 01:18:11.80	137.56	5.63	-49.9	-67.5	3.5	3.02e+01	0	31	104	0	60	123173
2026-01-06 01:18:12.81	137.53	5.71	-49.9	-67.1	3.5	3.02e+01	0	31	104	0	60	116968
2026-01-06 01:18:13.82	137.50	5.79	-49.9	-67.0	3.5	3.02e+01	0	31	104	0	60	116022
2026-01-06 01:18:14.83	137.47	5.86	-49.9	-66.9	3.5	3.02e+01	0	31	104	0	60	115150
2026-01-06 01:18:15.84	137.44	5.94	-49.9	-66.9	3.5	3.02e+01	0	31	104	0	60	115243
2026-01-06 01:18:16.85	137.40	6.02	-49.9	-67.4	3.5	3.02e+01	0	31	104	0	60	121089
2026-01-06 01:18:17.87	137.37	6.10	-49.9	-67.5	3.5	3.02e+01	0	31	104	0	60	123719
2026-01-06 01:18:18.88	137.34	6.18	-49.9	-67.5	3.5	3.02e+01	0	31	104	0	60	123272
2026-01-06 01:18:19.89	137.30	6.26	-49.9	-67.5	3.5	3.02e+01	0	31	104	0	60	122754
2026-01-06 01:18:20.90	137.27	6.34	-49.9	-67.3	3.5	3.02e+01	0	31	104	0	60	119734
2026-01-06 01:18:21.91	137.24	6.41	-49.9	-67.3	3.5	3.02e+01	0	31	104	0	60	119710
2026-01-06 01:18:22.92	137.20	6.49	-49.9	-67.4	3.5	3.02e+01	0	31	104	0	60	121562
2026-01-06 01:18:23.93	137.17	6.57	-49.9	-67.4	3.5	3.02e+01	0	31	104	0	60	121498
2026-01-06 01:18:24.94	137.14	6.65	-49.9	-67.3	3.5	3.02e+01	0	31	104	0	60	120713
2026-01-06 01:18:25.95	137.10	6.73	-49.9	-66.8	3.5	3.02e+01	0	31	104	0	60	113509
2026-01-06 01:18:26.96	137.07	6.81	-49.9	-66.2	3.5	3.02e+01	0	31	104	0	60	105388
2026-01-06 01:18:27.98	137.03	6.90	-49.9	-66.0	3.7	3.02e+01	0	31	104	0	60	102997
2026-01-06 01:18:28.99	137.00	6.98	-49.9	-65.6	3.7	3.02e+01	0	31	104	0	60	99024
2026-01-06 01:18:30.00	136.96	7.06	-49.9	-66.7	3.5	3.02e+01	0	31	104	0	60	112145
2026-01-06 01:18:31.01	136.93	7.14	-49.9	-67.7	3.5	3.02e+01	0	31	104	0	60	126590
2026-01-06 01:18:32.02	136.89	7.22	-49.9	-65.7	3.5	3.02e+01	0	31	104	0	60	100035
2026-01-06 01:18:33.03	136.86	7.30	-49.6	-61.2	6.7	3.02e+01	91	31	104	0	60	59482
2026-01-06 01:18:34.04	136.82	7.39	-49.0	-56.7	10.6	3.02e+01	29	31	0	0	60	35379
2026-01-06 01:18:35.05	136.78	7.47	-48.1	-53.5	13.9	3.02e+01	0	31	102	524288	60	24463
2026-01-06 01:18:36.06	136.75	7.55	-47.4	-51.7	15.9	3.02e+01	0	31	102	524288	60	19968
2026-01-06 01:18:37.07	136.71	7.64	-46.2	-49.5	18.0	3.02e+01	0	31	102	524288	60	15538
2026-01-06 01:18:38.09	136.67	7.72	-45.5	-48.3	19.1	3.02e+01	0	31	102	524288	60	13566
2026-01-06 01:18:39.10	136.64	7.80	-45.1	-47.8	19.7	3.02e+01	0	31	102	524288	60	12736
2026-01-06 01:18:40.11	136.60	7.89	-45.1	-47.7	19.6	3.02e+01	0	31	102	524288	60	12632
2026-01-06 01:18:41.12	136.56	7.97	-50.2	-67.6	3.5	3.02e+01	0	31	104	524288	60	124985
2026-01-06 01:18:42.13	136.52	8.06	-50.0	-64.0	4.1	3.02e+01	0	31	104	524288	60	82453
2026-01-06 01:18:43.14	136.48	8.14	-49.5	-60.0	9.1	3.02e+01	91	31	104	524288	60	51701
2026-01-06 01:18:44.15	136.44	8.23	-40.6	-42.2	24.9	3.02e+01	0	31	0	524288	60	6672
2026-01-06 01:18:45.16	136.41	8.31	-50.0	-67.0	3.5	3.02e+01	0	31	104	524288	60	115562
2026-01-06 01:18:46.17	136.37	8.40	-40.5	-42.3	22.9	3.02e+01	0	31	104	524288	60	6727
2026-01-06 01:18:47.18	136.33	8.49	-40.4	-41.9	25.5	3.02e+01	0	31	0	524288	60	6457
2026-01-06 01:18:48.19	136.29	8.57	-40.1	-41.5	25.9	3.02e+01	0	31	0	524288	60	6191
2026-01-06 01:18:49.20	136.25	8.66	-40.0	-41.5	25.9	3.02e+01	0	31	0	524288	60	6139
2026-01-06 01:18:50.22	136.21	8.75	-40.0	-41.5	25.9	3.02e+01	0	31	0	524288	60	6139
2026-01-06 01:18:51.23	136.17	8.84	-39.9	-41.4	26.0	3.02e+01	0	31	0	524288	60	6066
2026-01-06 01:18:52.24	136.13	8.92	-40.0	-41.5	25.9	3.02e+01	0	31	0	524288	60	6170
2026-01-06 01:18:53.25	136.08	9.01	-39.6	-41.1	26.3	3.02e+01	0	31	0	524288	60	5873
2026-01-06 01:18:54.26	136.04	9.10	-39.3	-40.7	26.7	3.02e+01	0	31	0	524288	60	5651
2026-01-06 01:18:55.27	136.00	9.19	-39.2	-40.6	26.7	3.02e+01	0	31	0	524288	58	6237
2026-01-06 01:18:56.28	135.96	9.28	-39.2	-40.5	26.8	3.02e+01	0	31	101	524288	58	6199
2026-01-06 01:18:57.29	135.92	9.37	-39.4	-40.7	26.7	3.02e+01	0	31	101	524288	58	6350
2026-01-06 01:18:58.30	135.87	9.46	-39.3	-40.7	26.6	3.02e+01	0	31	101	524288	58	6305
2026-01-06 01:18:59.31	135.83	9.55	-39.3	-40.7	26.7	3.02e+01	0	31	101	524288	58	6300
2026-01-06 01:19:00.33	135.79	9.64	-39.1	-40.5	26.9	3.02e+01	0	31	101	524288	58	6151
2026-01-06 01:19:01.34	135.74	9.73	-39.2	-40.6	26.9	3.02e+01	0	31	101	524288	58	6240
2026-01-06 01:19:02.35	135.70	9.82	-38.9	-40.2	27.1	3.02e+01	0	31	101	524288	58	5989
2026-01-06 01:19:03.36	135.66	9.92	-38.9	-40.3	27.2	3.02e+01	0	31	101	524288	58	6020
2026-01-06 01:19:04.37	135.61	10.01	-38.7	-40.1	27.3	3.02e+01	0	31	101	524288	58	5880
2026-01-06 01:19:05.38	135.57	10.10	-38.8	-40.1	27.3	3.02e+01	0	31	101	524288	58	5880
2026-01-06 01:19:06.39	135.52	10.19	-38.7	-40.0	27.4	3.02e+01	0	31	101	524288	58	5801
2026-01-06 01:19:07.40	135.48	10.29	-38.5	-39.9	27.6	3.02e+01	0	31	101	524288	58	5731
2026-01-06 01:19:08.42	135.43	10.38	-38.5	-39.8	27.7	3.02e+01	0	31	101	524288	58	5714
2026-01-06 01:19:09.43	135.38	10.48	-38.5	-39.8	27.7	3.02e+01	0	31	101	524288	58	5683
2026-01-06 01:19:10.44	135.34	10.57	-38.6	-39.9	27.6	3.02e+01	0	31	101	524288	58	5742
2026-01-06 01:19:11.45	135.29	10.67	-38.6	-39.9	27.6	3.02e+01	0	31	101	524288	58	5778
2026-01-06 01:19:12.46	135.24	10.76	-38.4	-39.7	27.8	3.02e+01	0	31	101	524288	56	6327
2026-01-06 01:19:13.47	135.20	10.86	-38.6	-39.9	27.7	3.02e+01	0	31	101	524288	56	6442
2026-01-06 01:19:14.48	135.15	10.95	-38.5	-39.9	27.7	3.02e+01	0	31	101	524288	56	6425
2026-01-06 01:19:15.49	135.10	11.05	-38.7	-40.0	27.6	3.02e+01	0	31	101	524288	56	6543
2026-01-06 01:19:16.50	135.05	11.15	-38.5	-39.7	27.9	3.02e+01	0	31	101	524288	56	6347
2026-01-06 01:19:17.51	135.00	11.24	-38.4	-39.7	27.9	3.02e+01	0	31	101	524288	56	6287
2026-01-06 01:19:18.52	134.95	11.34	-38.5	-39.8	27.8	3.02e+01	0	31	101	524288	56	6364
2026-01-06 01:19:19.53	134.90	11.44	-38.2	-39.5	28.1	3.02e+01	0	31	101	524288	56	6178
2026-01-06 01:19:20.54	134.85	11.54	-38.3	-39.6	28.0	3.02e+01	0	31	101	524288	56	6215
2026-01-06 01:19:21.56	134.80	11.64	-38.3	-39.6	28.0	3.02e+01	0	31	101	524288	56	6207
2026-01-06 01:19:22.57	134.75	11.74	-38.4	-39.7	27.9	3.02e+01	0	31	101	524288	56	6310
2026-01-06 01:19:23.58	134.70	11.84	-38.4	-39.6	27.9	3.02e+01	0	31	101	524288	56	6266
2026-01-06 01:19:24.59	134.65	11.94	-38.4	-39.7	27.9	3.02e+01	0	31	101	524288	56	6340
2026-01-06 01:19:25.60	134.60	12.04	-38.4	-39.6	28.1	3.02e+01	0	31	101	524288	56	6270
2026-01-06 01:19:26.61	134.54	12.14	-38.1	-39.4	28.2	3.02e+01	0	31	101	524288	56	6095
2026-01-06 01:19:27.62	134.49	12.24	-38.2	-39.4	28.1	3.02e+01	0	31	101	524288	56	6128
2026-01-06 01:19:28.63	134.44	12.34	-38.1	-39.4	28.2	3.02e+01	0	31	101	524288	56	6096
2026-01-06 01:19:29.64	134.38	12.44	-38.2	-39.5	28.1	3.02e+01	0	31	101	524288	56	6177
2026-01-06 01:19:30.65	134.33	12.55	-38.3	-39.6	28.0	3.02e+01	0	31	101	524288	56	6242
2026-01-06 01:19:31.66	134.27	12.65	-38.7	-48.9	3.6	3.02e+01	0	31	104	524288	56	18241
2026-01-06 01:19:32.68	134.22	12.75	-38.6	-48.8	3.6	3.02e+01	0	31	104	524288	56	17941
2026-01-06 01:19:33.69	134.16	12.86	-38.6	-48.8	3.4	3.02e+01	0	31	104	524288	56	18053
2026-01-06 01:19:34.70	134.11	12.96	-45.0	-56.2	3.5	3.02e+01	0	31	104	524288	60	33454
2026-01-06 01:19:35.71	134.05	13.07	-42.8	-53.5	3.4	3.02e+01	0	31	104	524288	60	24649
2026-01-06 01:19:36.72	133.99	13.17	-49.8	-64.8	3.5	3.02e+01	0	31	104	524288	60	90456
2026-01-06 01:19:37.73	133.94	13.28	-50.6	-68.3	3.5	3.02e+01	0	31	104	524288	60	134820
2026-01-06 01:19:38.74	133.88	13.39	-39.9	-50.1	3.5	3.02e+01	0	31	104	524288	60	16647
2026-01-06 01:19:39.75	133.82	13.49	-41.1	-51.4	3.5	3.02e+01	0	31	104	524288	60	19374
2026-01-06 01:19:40.76	133.76	13.60	-40.1	-50.4	3.4	3.02e+01	0	31	104	524288	60	17252
2026-01-06 01:19:41.77	133.70	13.71	-39.2	-49.4	3.4	3.02e+01	0	31	104	524288	58	17211
2026-01-06 01:19:42.79	133.64	13.82	-39.1	-49.3	4.0	3.02e+01	0	31	104	524288	58	16979
2026-01-06 01:19:43.80	133.58	13.93	-40.7	-51.0	3.8	3.02e+01	0	31	104	524288	58	20699
2026-01-06 01:19:44.81	133.52	14.04	-41.5	-51.9	4.0	3.02e+01	0	31	104	524288	60	20354
2026-01-06 01:19:45.82	133.46	14.15	-50.7	-68.3	3.5	3.02e+01	0	31	104	524288	60	134228
2026-01-06 01:19:46.83	133.40	14.26	-50.7	-68.5	3.5	3.02e+01	0	31	104	524288	60	138405
2026-01-06 01:19:47.84	133.34	14.37	-44.2	-55.1	4.0	3.02e+01	0	31	104	524288	60	29460
2026-01-06 01:19:48.85	133.27	14.48	-43.5	-54.2	3.6	3.02e+01	0	31	104	524288	60	26773
2026-01-06 01:19:49.86	133.21	14.59	-42.9	-53.6	3.5	3.02e+01	0	31	104	524288	60	24733
2026-01-06 01:19:50.87	133.15	14.71	-41.1	-51.6	3.5	3.02e+01	0	31	104	524288	60	19828
2026-01-06 01:19:51.88	133.08	14.82	-40.6	-51.1	3.5	3.02e+01	0	31	104	524288	60	18547
2026-01-06 01:19:52.89	133.02	14.93	-38.3	-48.5	3.6	3.02e+01	0	31	104	524288	58	15536
2026-01-06 01:19:53.91	132.95	15.05	-45.5	-56.8	3.5	3.02e+01	0	31	104	524288	60	36025
2026-01-06 01:19:54.92	132.88	15.16	-50.8	-68.2	3.5	3.02e+01	0	31	104	524288	60	134188
2026-01-06 01:19:55.93	132.82	15.28	-41.8	-52.4	3.5	3.02e+01	0	31	104	524288	60	21525
2026-01-06 01:19:56.94	132.75	15.40	-50.7	-68.2	3.5	3.02e+01	0	31	104	524288	60	133578
2026-01-06 01:19:57.95	132.68	15.51	-42.3	-52.8	3.5	3.02e+01	0	31	104	524288	60	22736
2026-01-06 01:19:58.96	132.61	15.63	-40.9	-51.4	3.5	3.02e+01	0	31	104	524288	60	19292
2026-01-06 01:19:59.97	132.54	15.75	-40.0	-50.4	3.5	3.02e+01	0	31	104	524288	60	17214
2026-01-06 01:20:00.98	132.47	15.87	-39.4	-49.7	3.5	3.02e+01	0	31	104	524288	60	15841
2026-01-06 01:20:01.99	132.40	15.99	-45.3	-56.6	3.5	3.02e+01	0	31	104	524288	60	34975
2026-01-06 01:20:03.01	132.33	16.11	-42.5	-53.1	3.5	3.02e+01	0	31	104	524288	60	23430
2026-01-06 01:20:04.02	132.26	16.23	-50.7	-68.0	3.5	3.02e+01	0	31	104	524288	60	130815
2026-01-06 01:20:05.03	132.19	16.35	-50.7	-67.9	3.5	3.02e+01	0	31	104	524288	60	129118
2026-01-06 01:20:06.04	132.12	16.47	-44.7	-55.8	3.5	3.02e+01	0	31	104	524288	60	31928
2026-01-06 01:20:07.05	132.04	16.59	-42.0	-52.6	3.5	3.02e+01	0	31	104	524288	60	22126
2026-01-06 01:20:08.06	131.97	16.71	-41.7	-52.3	3.5	3.02e+01	0	31	104	524288	60	21306
2026-01-06 01:20:09.07	131.89	16.84	-42.2	-52.7	3.5	3.02e+01	0	31	104	524288	60	22475
2026-01-06 01:20:10.08	131.82	16.96	-41.5	-52.0	3.5	3.02e+01	0	31	104	524288	60	20644
2026-01-06 01:20:11.09	131.74	17.09	-40.3	-50.8	3.5	3.02e+01	0	31	104	524288	60	17916
2026-01-06 01:20:12.10	131.67	17.21	-45.1	-56.2	3.5	3.02e+01	0	31	104	524288	60	33466
2026-01-06 01:20:13.12	131.59	17.34	-50.9	-67.9	3.5	3.02e+01	0	31	104	524288	60	129596
2026-01-06 01:20:14.13	131.51	17.47	-45.7	-57.1	3.5	3.02e+01	0	31	104	524288	60	37057
2026-01-06 01:20:15.14	131.43	17.59	-50.7	-67.4	3.5	3.02e+01	0	31	104	524288	60	121192
2026-01-06 01:20:16.15	131.35	17.72	-44.7	-55.7	3.5	3.02e+01	0	31	104	524288	60	31807
2026-01-06 01:20:17.16	131.27	17.85	-42.7	-53.3	3.5	3.02e+01	0	31	104	524288	60	24014
2026-01-06 01:20:18.17	131.19	17.98	-40.9	-51.3	3.5	3.02e+01	0	31	104	524288	60	19029
2026-01-06 01:20:19.18	131.11	18.11	-39.9	-50.2	3.5	3.02e+01	0	31	104	524288	60	16802
2026-01-06 01:20:20.19	131.02	18.24	-41.7	-52.2	3.6	3.02e+01	0	31	104	524288	60	21228
2026-01-06 01:20:21.20	130.94	18.37	-42.6	-53.2	3.5	3.02e+01	0	31	104	524288	60	23702
2026-01-06 01:20:22.21	130.86	18.50	-51.0	-68.5	3.5	3.02e+01	0	31	104	524288	60	138798
2026-01-06 01:20:23.23	130.77	18.64	-39.4	-49.7	3.5	3.02e+01	0	31	104	524288	60	15828
2026-01-06 01:20:24.24	130.68	18.77	-50.9	-68.2	3.5	3.02e+01	0	31	104	524288	60	132958
2026-01-06 01:20:25.25	130.60	18.91	-40.8	-51.3	3.5	3.02e+01	0	31	104	524288	60	18970
2026-01-06 01:20:26.26	130.51	19.04	-39.9	-50.3	3.5	3.02e+01	0	31	104	524288	60	16915
2026-01-06 01:20:27.27	130.42	19.18	-39.2	-49.6	3.6	3.02e+01	0	31	104	524288	58	17496
2026-01-06 01:20:28.28	130.33	19.31	-40.1	-50.5	3.5	3.02e+01	0	31	104	524288	58	19427
2026-01-06 01:20:29.29	130.24	19.45	-48.9	-62.2	3.5	3.02e+01	0	31	104	524288	60	67012
2026-01-06 01:20:30.30	130.15	19.59	-40.0	-50.3	3.5	3.02e+01	0	31	104	524288	60	17082
2026-01-06 01:20:31.31	130.06	19.73	-50.9	-68.2	3.5	3.02e+01	0	31	104	524288	60	132821
2026-01-06 01:20:32.32	129.96	19.87	-49.7	-63.8	3.6	3.02e+01	0	31	104	524288	60	80489
2026-01-06 01:20:33.33	129.87	20.01	-42.8	-53.5	3.5	3.02e+01	0	31	104	524288	60	24677
2026-01-06 01:20:34.34	129.78	20.15	-40.5	-50.8	3.5	3.02e+01	0	31	104	524288	60	18067
2026-01-06 01:20:35.36	129.68	20.29	-40.1	-50.5	3.5	3.02e+01	0	31	104	524288	60	17292
2026-01-06 01:20:36.37	129.58	20.44	-38.7	-49.0	3.5	3.02e+01	0	31	104	524288	58	16443
2026-01-06 01:20:37.38	129.48	20.58	-37.4	-47.7	3.5	3.02e+01	0	31	104	524288	56	15790
2026-01-06 01:20:38.39	129.39	20.72	-37.6	-47.8	3.5	3.02e+01	0	31	104	524288	54	18096
2026-01-06 01:20:39.40	129.29	20.87	-40.0	-50.3	3.5	3.02e+01	0	31	104	524288	60	17054
2026-01-06 01:20:40.41	129.19	21.02	-51.0	-68.8	3.5	3.02e+01	0	31	104	524288	60	143659
2026-01-06 01:20:41.42	129.08	21.16	-44.0	-54.8	3.6	3.02e+01	0	31	104	524288	60	28550
2026-01-06 01:20:42.43	128.98	21.31	-50.5	-66.1	3.5	3.02e+01	0	31	104	524288	60	105376
2026-01-06 01:20:43.44	128.88	21.46	-44.4	-55.4	3.5	3.02e+01	0	31	104	524288	60	30479
2026-01-06 01:20:44.45	128.77	21.61	-42.0	-52.5	3.5	3.02e+01	0	31	104	524288	60	21924
2026-01-06 01:20:45.47	128.66	21.76	-40.2	-50.5	3.5	3.02e+01	0	31	104	524288	60	17434
2026-01-06 01:20:46.48	128.56	21.91	-39.6	-49.9	3.5	3.02e+01	0	31	104	524288	58	18145
2026-01-06 01:20:47.49	128.45	22.06	-37.7	-47.9	3.5	3.02e+01	0	31	104	524288	56	16232
2026-01-06 01:20:48.50	128.34	22.22	-40.0	-50.3	3.5	3.02e+01	0	31	104	524288	58	19130
2026-01-06 01:20:49.51	128.23	22.37	-49.1	-62.7	3.5	3.02e+01	0	31	104	524288	60	70542
2026-01-06 01:20:50.52	128.12	22.53	-42.7	-53.2	3.6	3.02e+01	0	31	104	524288	58	26753
2026-01-06 01:20:51.53	128.00	22.68	-44.7	-55.5	3.6	3.02e+01	0	31	104	524288	60	31083
2026-01-06 01:20:52.54	127.89	22.84	-40.2	-50.4	3.5	3.02e+01	0	31	104	524288	60	17267
2026-01-06 01:20:53.55	127.77	23.00	-39.4	-49.7	3.5	3.02e+01	0	31	104	524288	60	15910
2026-01-06 01:20:54.56	127.66	23.15	-39.1	-49.4	3.5	3.02e+01	0	31	104	524288	58	17207
2026-01-06 01:20:55.57	127.54	23.31	-46.7	-58.4	3.5	3.02e+01	0	31	104	524288	60	43158
2026-01-06 01:20:56.59	127.42	23.47	-46.9	-58.7	3.5	3.02e+01	0	31	104	524288	60	44547
2026-01-06 01:20:57.60	127.30	23.64	-44.1	-54.9	3.5	3.02e+01	0	31	104	524288	60	28923
2026-01-06 01:20:58.61	127.18	23.80	-51.0	-68.4	3.5	3.02e+01	0	31	104	524288	60	136756
2026-01-06 01:20:59.62	127.05	23.96	-38.9	-49.2	3.5	3.02e+01	0	31	104	524288	60	15009
2026-01-06 01:21:00.63	126.93	24.13	-41.0	-51.5	3.5	3.02e+01	0	31	104	524288	60	19405
2026-01-06 01:21:01.64	126.80	24.29	-41.5	-52.0	3.5	3.02e+01	0	31	104	524288	60	20578
2026-01-06 01:21:02.65	126.67	24.46	-40.8	-51.2	3.5	3.02e+01	0	31	104	524288	60	18833
2026-01-06 01:21:03.66	126.54	24.62	-39.4	-49.7	3.5	3.02e+01	0	31	104	524288	60	15918
2026-01-06 01:21:04.67	126.41	24.79	-38.8	-49.0	3.5	3.02e+01	0	31	104	524288	58	16474
2026-01-06 01:21:05.68	126.28	24.96	-40.4	-50.7	3.6	3.02e+01	0	31	104	524288	58	19980
2026-01-06 01:21:06.70	126.15	25.13	-50.8	-67.4	3.4	3.02e+01	0	31	104	524288	60	121991
2026-01-06 01:21:07.71	126.01	25.30	-46.1	-57.5	3.5	3.02e+01	0	31	104	524288	60	39090
2026-01-06 01:21:08.72	125.87	25.48	-48.9	-62.1	3.5	3.02e+01	0	31	104	524288	60	65750
2026-01-06 01:21:09.73	125.74	25.65	-45.4	-56.5	3.5	3.02e+01	0	31	104	524288	60	34872
2026-01-06 01:21:10.74	125.60	25.82	-43.1	-53.8	3.5	3.02e+01	0	31	104	524288	60	25436
2026-01-06 01:21:11.75	125.45	26.00	-41.5	-51.9	3.5	3.02e+01	0	31	104	524288	60	20544
2026-01-06 01:21:12.76	125.31	26.18	-40.4	-50.8	3.5	3.02e+01	0	31	104	524288	60	17970
2026-01-06 01:21:13.77	125.17	26.35	-44.4	-55.4	3.5	3.02e+01	0	31	104	524288	60	30535
2026-01-06 01:21:14.78	125.02	26.53	-45.0	-56.1	3.5	3.02e+01	0	31	104	524288	60	33289
2026-01-06 01:21:15.79	124.87	26.71	-49.9	-64.0	3.5	3.02e+01	0	31	104	524288	60	82411
2026-01-06 01:21:16.81	124.72	26.89	-51.0	-68.1	3.5	3.02e+01	0	31	104	524288	60	132661
2026-01-06 01:21:17.82	124.57	27.08	-39.0	-49.3	3.5	3.02e+01	0	31	104	524288	56	18993
2026-01-06 01:21:18.83	124.41	27.26	-39.2	-49.6	3.4	3.02e+01	0	31	104	524288	60	15594
2026-01-06 01:21:19.84	124.26	27.44	-39.4	-49.8	3.5	3.02e+01	0	31	104	524288	58	17921
2026-01-06 01:21:20.85	124.10	27.63	-38.1	-48.3	3.5	3.02e+01	0	31	104	524288	56	17085
2026-01-06 01:21:21.86	123.94	27.81	-37.5	-47.6	3.5	3.02e+01	0	31	104	524288	56	15749
2026-01-06 01:21:22.87	123.78	28.00	-37.2	-47.4	3.5	3.02e+01	0	31	104	524288	54	17167
2026-01-06 01:21:23.88	123.62	28.19	-40.9	-51.2	3.5	3.02e+01	0	31	104	524288	58	21255
2026-01-06 01:21:24.89	123.45	28.38	-50.9	-67.8	3.5	3.02e+01	0	31	104	524288	60	127119
2026-01-06 01:21:25.90	123.28	28.57	-44.9	-55.8	3.5	3.02e+01	0	31	104	524288	60	32189
2026-01-06 01:21:26.91	123.11	28.76	-51.1	-68.6	3.5	3.02e+01	0	31	104	524288	60	140302
2026-01-06 01:21:27.92	122.94	28.95	-40.9	-51.3	3.5	3.02e+01	0	31	104	524288	60	19007
2026-01-06 01:21:28.94	122.76	29.15	-39.9	-50.3	3.5	3.02e+01	0	31	104	524288	60	16906
2026-01-06 01:21:29.95	122.59	29.35	-40.0	-50.3	3.5	3.02e+01	0	31	104	524288	60	17059
2026-01-06 01:21:30.96	122.41	29.54	-39.7	-50.2	3.5	3.02e+01	0	31	104	524288	60	16717
2026-01-06 01:21:31.97	122.23	29.74	-50.8	-67.0	3.5	3.02e+01	0	31	104	524288	60	115676
2026-01-06 01:21:32.98	122.04	29.94	-45.3	-56.5	3.5	3.02e+01	0	31	104	524288	60	34548
2026-01-06 01:21:33.99	121.86	30.14	-51.2	-68.9	3.5	3.02e+01	0	31	104	524288	60	144140
2026-01-06 01:21:35.00	121.67	30.34	-50.8	-67.0	3.5	3.02e+01	0	31	104	524288	60	115573
2026-01-06 01:21:36.01	121.48	30.54	-44.3	-55.2	3.5	3.02e+01	0	31	104	524288	60	29798
2026-01-06 01:21:37.02	121.29	30.74	-42.8	-53.4	3.5	3.02e+01	0	31	104	524288	60	24205
2026-01-06 01:21:38.04	121.09	30.95	-40.9	-51.3	3.5	3.02e+01	0	31	104	524288	60	19033
2026-01-06 01:21:39.04	120.89	31.15	-39.3	-49.6	3.5	3.02e+01	0	31	104	524288	60	15620
2026-01-06 01:21:40.06	120.69	31.36	-38.2	-48.4	3.5	3.02e+01	0	31	104	524288	56	17286
2026-01-06 01:21:41.07	120.49	31.57	-37.4	-47.6	3.5	3.02e+01	0	31	104	524288	54	17666
2026-01-06 01:21:42.08	120.28	31.78	-41.7	-52.2	3.5	3.02e+01	0	31	104	524288	60	21238
2026-01-06 01:21:43.09	120.07	31.99	-50.9	-67.5	3.5	3.02e+01	0	31	104	524288	60	123083
2026-01-06 01:21:44.10	119.86	32.20	-44.7	-55.7	3.5	3.02e+01	0	31	104	524288	60	31492
2026-01-06 01:21:45.11	119.64	32.41	-51.1	-69.1	3.5	3.02e+01	0	31	104	524288	60	147634
2026-01-06 01:21:46.12	119.43	32.63	-40.4	-50.8	3.5	3.02e+01	0	31	104	524288	60	18073
2026-01-06 01:21:47.13	119.20	32.84	-39.0	-49.4	3.5	3.02e+01	0	31	104	524288	58	17097
2026-01-06 01:21:48.14	118.98	33.06	-38.4	-48.7	3.5	3.02e+01	0	31	104	524288	56	17777
2026-01-06 01:21:49.15	118.75	33.28	-37.9	-48.2	3.5	3.02e+01	0	31	104	524288	56	16777
2026-01-06 01:21:50.17	118.52	33.50	-40.8	-51.3	3.5	3.02e+01	0	31	104	524288	60	19023
2026-01-06 01:21:51.18	118.29	33.72	-40.0	-50.4	3.5	3.02e+01	0	31	104	524288	60	17170
2026-01-06 01:21:52.19	118.05	33.94	-50.9	-68.1	3.5	3.02e+01	0	31	104	524288	60	131307
2026-01-06 01:21:53.20	117.81	34.16	-42.6	-53.2	3.5	3.02e+01	0	31	104	524288	60	23681
2026-01-06 01:21:54.21	117.57	34.38	-51.1	-67.7	3.5	3.02e+01	0	31	104	524288	60	125692
2026-01-06 01:21:55.22	117.32	34.61	-40.5	-50.8	3.5	3.02e+01	0	31	104	524288	60	18028
2026-01-06 01:21:56.23	117.07	34.83	-40.6	-51.0	3.5	3.02e+01	0	31	104	524288	60	18454
2026-01-06 01:21:57.24	116.81	35.06	-40.6	-51.0	3.5	3.02e+01	0	31	104	524288	60	18403
2026-01-06 01:21:58.25	116.56	35.28	-40.7	-51.2	3.6	3.02e+01	0	31	104	524288	60	18798
2026-01-06 01:21:59.26	116.29	35.51	-48.5	-61.2	3.5	3.02e+01	0	31	104	524288	60	59584
2026-01-06 01:22:00.27	116.03	35.74	-41.7	-52.2	3.5	3.02e+01	0	31	104	524288	60	21208
2026-01-06 01:22:01.28	115.76	35.97	-51.2	-68.7	3.5	3.02e+01	0	31	104	524288	60	141599
2026-01-06 01:22:02.29	115.49	36.20	-50.8	-66.8	3.5	3.02e+01	0	31	104	524288	60	113296
2026-01-06 01:22:03.30	115.21	36.44	-44.2	-54.9	3.5	3.02e+01	0	31	104	524288	60	28895
2026-01-06 01:22:04.31	114.93	36.67	-43.3	-53.9	3.5	3.02e+01	0	31	104	524288	60	25849
2026-01-06 01:22:05.32	114.64	36.90	-42.6	-53.1	3.5	3.02e+01	0	31	104	524288	60	23556
2026-01-06 01:22:06.34	114.35	37.14	-42.8	-53.3	3.5	3.02e+01	0	31	104	524288	60	24076
2026-01-06 01:22:07.35	114.05	37.38	-43.0	-53.6	3.5	3.02e+01	0	31	104	524288	60	24935
2026-01-06 01:22:08.36	113.75	37.62	-42.1	-52.6	3.5	3.02e+01	0	31	104	524288	60	22199
2026-01-06 01:22:09.37	113.45	37.85	-37.9	-48.1	3.5	3.02e+01	0	31	104	524288	56	16681
2026-01-06 01:22:10.38	113.14	38.09	-51.1	-68.9	3.6	3.02e+01	0	32	104	524288	60	143927
2026-01-06 01:22:11.39	112.83	38.33	-39.8	-50.1	3.6	3.02e+01	0	31	104	524288	60	16512
2026-01-06 01:22:12.40	112.51	38.57	-50.2	-64.6	3.5	3.02e+01	0	31	104	524288	60	88081
2026-01-06 01:22:13.41	112.19	38.82	-42.8	-53.3	3.5	3.02e+01	0	31	104	524288	60	24014
2026-01-06 01:22:14.42	111.86	39.06	-41.0	-51.3	3.5	3.02e+01	0	31	104	524288	60	19140
2026-01-06 01:22:15.43	111.53	39.30	-40.4	-50.8	3.6	3.02e+01	0	32	104	524288	60	18041
2026-01-06 01:22:16.45	111.19	39.55	-39.8	-50.2	3.5	3.02e+01	0	31	104	524288	60	16768
2026-01-06 01:22:17.46	110.85	39.79	-36.9	-47.1	3.5	3.02e+01	0	32	104	524288	56	14776
2026-01-06 01:22:18.47	110.50	40.04	-39.8	-50.1	3.5	3.02e+01	0	31	104	524288	56	20980
2026-01-06 01:22:19.48	110.14	40.28	-50.1	-64.6	3.6	3.02e+01	0	32	104	524288	60	88133
2026-01-06 01:22:20.49	109.78	40.53	-39.3	-49.6	3.5	3.02e+01	0	31	104	524288	58	17598
2026-01-06 01:22:21.50	109.42	40.77	-45.5	-56.5	3.6	3.02e+01	0	31	104	524288	60	34865
2026-01-06 01:22:22.51	109.05	41.02	-39.4	-49.7	3.5	3.02e+01	0	32	104	524288	60	15840
2026-01-06 01:22:23.52	108.67	41.27	-38.3	-48.5	3.5	3.02e+01	0	32	104	524288	58	15500
2026-01-06 01:22:24.53	108.29	41.52	-37.1	-47.2	3.5	3.02e+01	0	31	104	524288	54	16846
2026-01-06 01:22:25.54	107.90	41.77	-37.7	-47.9	3.5	3.02e+01	0	31	104	524288	54	18274
2026-01-06 01:22:26.56	107.50	42.02	-36.7	-47.0	3.5	3.02e+01	0	31	104	524288	56	14635
2026-01-06 01:22:27.57	107.10	42.27	-40.9	-51.3	3.5	3.02e+01	0	31	104	524288	56	23966
2026-01-06 01:22:28.58	106.70	42.51	-48.3	-60.8	3.5	3.02e+01	0	32	104	524288	60	56790
2026-01-06 01:22:29.59	106.28	42.76	-43.6	-54.2	3.6	3.02e+01	0	31	104	524288	58	29806
2026-01-06 01:22:30.60	105.86	43.01	-45.1	-56.0	3.5	3.02e+01	0	32	104	524288	60	32830
2026-01-06 01:22:31.61	105.43	43.26	-42.2	-52.7	3.5	3.02e+01	0	31	104	524288	60	22314
2026-01-06 01:22:32.62	105.00	43.51	-41.4	-51.8	3.5	3.02e+01	0	31	104	524288	60	20312
2026-01-06 01:22:33.63	104.56	43.76	-41.1	-51.6	3.5	3.02e+01	0	31	104	524288	60	19624
2026-01-06 01:22:34.64	104.11	44.01	-43.3	-54.0	3.5	3.02e+01	0	32	104	524288	60	25881
2026-01-06 01:22:35.65	103.66	44.26	-48.0	-60.0	3.5	3.02e+01	0	31	104	524288	60	52003
2026-01-06 01:22:36.67	103.19	44.51	-41.6	-52.0	3.5	3.02e+01	0	31	104	524288	60	20671
2026-01-06 01:22:37.68	102.72	44.75	-51.1	-67.7	3.5	3.02e+01	0	32	104	524288	60	125664
2026-01-06 01:22:38.69	102.24	45.00	-37.9	-48.2	3.5	3.02e+01	0	31	104	524288	60	13326
2026-01-06 01:22:39.70	101.76	45.25	-38.5	-48.8	3.6	3.02e+01	0	31	104	524288	58	16134
2026-01-06 01:22:40.71	101.26	45.49	-39.2	-49.5	3.5	3.02e+01	0	31	104	524288	58	17463
2026-01-06 01:22:41.72	100.76	45.74	-39.2	-49.5	3.5	3.02e+01	0	32	104	524288	58	17335
2026-01-06 01:22:42.73	100.26	45.98	-38.6	-48.8	3.5	3.02e+01	0	31	104	524288	58	16097
2026-01-06 01:22:43.74	99.74	46.22	-38.9	-49.2	3.5	3.02e+01	0	32	104	524288	56	18743
2026-01-06 01:22:44.75	99.21	46.46	-38.3	-48.6	3.5	3.02e+01	0	31	104	524288	54	19660
2026-01-06 01:22:45.77	98.68	46.71	-51.3	-68.9	3.5	3.02e+01	0	31	104	524288	60	145166
2026-01-06 01:22:46.78	98.14	46.95	-48.3	-60.7	3.5	3.02e+01	0	31	104	524288	60	56091
2026-01-06 01:22:47.79	97.59	47.18	-50.1	-64.2	3.5	3.02e+01	0	31	104	524288	60	84224
2026-01-06 01:22:48.80	97.03	47.42	-41.8	-52.3	3.6	3.02e+01	0	31	104	524288	60	21450
2026-01-06 01:22:49.81	96.46	47.66	-40.6	-51.1	3.6	3.02e+01	0	32	104	524288	60	18569
2026-01-06 01:22:50.82	95.88	47.89	-39.0	-49.3	3.5	3.02e+01	0	31	104	524288	58	16903
2026-01-06 01:22:51.83	95.30	48.12	-38.5	-48.7	3.5	3.02e+01	0	31	104	524288	56	17878
2026-01-06 01:22:52.84	94.71	48.35	-45.3	-56.2	3.5	3.02e+01	0	31	104	524288	60	33638
2026-01-06 01:22:53.85	94.10	48.57	-39.5	-49.8	3.5	3.02e+01	0	31	104	524288	56	20218
2026-01-06 01:22:54.86	93.49	48.80	-51.2	-68.7	3.5	3.02e+01	0	31	104	524288	60	141232
2026-01-06 01:22:55.88	92.87	49.02	-48.9	-61.7	3.5	3.02e+01	0	32	104	524288	60	63256
2026-01-06 01:22:56.89	92.24	49.24	-51.1	-68.7	3.5	3.02e+01	0	32	104	524288	60	141741
2026-01-06 01:22:57.90	91.60	49.46	-44.1	-54.8	3.5	3.02e+01	0	31	104	524288	60	28675
2026-01-06 01:22:58.91	90.95	49.68	-43.4	-54.0	3.5	3.02e+01	0	31	104	524288	60	26115
2026-01-06 01:22:59.92	90.29	49.89	-43.5	-54.2	3.5	3.02e+01	0	31	104	524288	60	26715
2026-01-06 01:23:00.93	89.63	50.10	-43.4	-54.1	3.5	3.02e+01	0	31	104	524288	60	26427
2026-01-06 01:23:01.94	88.95	50.30	-45.1	-56.2	3.5	3.02e+01	0	31	104	524288	60	33571
2026-01-06 01:23:02.95	88.27	50.50	-51.2	-69.3	3.5	3.02e+01	0	32	104	524288	60	151001
2026-01-06 01:23:03.96	87.57	50.70	-49.2	-62.3	3.5	3.02e+01	0	31	104	524288	60	67833
2026-01-06 01:23:04.97	86.87	50.90	-51.2	-68.1	3.5	3.02e+01	0	31	104	524288	60	131732
2026-01-06 01:23:05.99	86.15	51.09	-41.1	-51.4	3.5	3.02e+01	0	32	104	524288	60	19207
2026-01-06 01:23:07.00	85.43	51.28	-41.1	-51.5	3.5	3.02e+01	0	32	104	524288	60	19482
2026-01-06 01:23:08.01	84.70	51.46	-41.0	-51.3	3.5	3.02e+01	0	31	104	524288	60	19124
2026-01-06 01:23:09.02	83.96	51.64	-41.0	-51.4	3.5	3.02e+01	0	31	104	524288	60	19242
2026-01-06 01:23:10.03	83.21	51.81	-41.0	-51.3	3.5	3.02e+01	0	31	104	524288	60	19127
2026-01-06 01:23:11.04	82.45	51.98	-39.3	-49.6	3.4	3.02e+01	0	32	104	524288	60	15603
2026-01-06 01:23:12.05	81.68	52.15	-41.3	-51.7	3.5	3.02e+01	0	32	104	524288	60	19929
2026-01-06 01:23:13.06	80.91	52.31	-51.0	-68.1	3.5	3.02e+01	0	31	104	524288	60	131409
2026-01-06 01:23:14.07	80.13	52.47	-48.6	-61.3	3.5	3.02e+01	0	31	104	524288	60	60534
2026-01-06 01:23:15.08	79.33	52.62	-50.8	-69.2	3.5	3.02e+01	0	32	104	524288	60	148918
2026-01-06 01:23:16.10	78.53	52.76	-42.9	-53.6	3.5	3.02e+01	0	31	104	524288	60	24979
2026-01-06 01:23:17.11	77.72	52.90	-42.1	-52.7	3.5	3.02e+01	0	31	104	524288	60	22350
2026-01-06 01:23:18.12	76.90	53.04	-41.4	-52.0	3.6	3.02e+01	0	31	104	524288	60	20642
2026-01-06 01:23:19.13	76.08	53.17	-41.2	-51.8	3.5	3.02e+01	0	32	104	524288	60	20132
2026-01-06 01:23:20.14	75.25	53.29	-50.3	-64.9	3.5	3.02e+01	0	32	104	524288	60	91700
2026-01-06 01:23:21.15	74.41	53.41	-40.7	-51.1	3.5	3.02e+01	0	32	104	524288	60	18572
2026-01-06 01:23:22.16	73.57	53.52	-51.2	-68.1	3.5	3.02e+01	0	32	104	524288	60	132547
2026-01-06 01:23:23.17	72.72	53.63	-45.4	-56.4	3.5	3.02e+01	0	32	104	524288	60	34413
2026-01-06 01:23:24.18	71.86	53.73	-50.9	-67.8	3.5	3.02e+01	0	31	104	524288	60	127323
2026-01-06 01:23:25.19	71.00	53.82	-42.7	-53.4	3.5	3.02e+01	0	32	104	524288	60	24227
2026-01-06 01:23:26.20	70.13	53.91	-41.3	-51.6	3.5	3.02e+01	0	32	104	524288	60	19839
2026-01-06 01:23:27.21	69.26	53.99	-40.8	-51.2	3.5	3.02e+01	0	32	104	524288	60	18840
2026-01-06 01:23:28.23	68.38	54.06	-41.5	-52.0	3.5	3.02e+01	0	32	104	524288	60	20767
2026-01-06 01:23:29.24	67.49	54.13	-50.4	-65.4	3.5	3.02e+01	0	31	104	524288	60	97068
2026-01-06 01:23:30.25	66.61	54.19	-45.1	-56.0	3.5	3.02e+01	0	32	104	524288	60	32849
2026-01-06 01:23:31.26	65.72	54.24	-51.3	-69.0	3.5	3.02e+01	0	31	104	524288	60	146046
2026-01-06 01:23:32.27	64.83	54.29	-51.3	-69.0	3.5	3.02e+01	0	32	104	524288	60	145646
2026-01-06 01:23:33.28	63.93	54.33	-43.3	-54.0	3.5	3.02e+01	0	32	104	524288	60	26156
2026-01-06 01:23:34.29	63.04	54.36	-42.2	-52.6	3.5	3.02e+01	0	32	104	524288	60	22266
2026-01-06 01:23:35.30	62.14	54.38	-41.2	-51.6	3.5	3.02e+01	0	32	104	524288	60	19672
2026-01-06 01:23:36.31	61.24	54.40	-39.9	-50.2	3.5	3.02e+01	0	31	104	524288	60	16883
2026-01-06 01:23:37.32	60.34	54.41	-38.4	-48.8	3.5	3.02e+01	0	32	104	524288	58	15963
2026-01-06 01:23:38.33	59.43	54.42	-38.1	-48.3	3.6	3.02e+01	0	32	104	524288	56	17057
2026-01-06 01:23:39.35	58.52	54.42	-38.3	-48.6	3.4	3.02e+01	0	32	104	524288	58	15638
2026-01-06 01:23:40.36	57.62	54.41	-51.2	-68.4	3.5	3.02e+01	0	32	104	524288	60	136707
2026-01-06 01:23:41.37	56.72	54.39	-41.5	-52.0	3.5	3.02e+01	0	32	104	524288	60	20686
2026-01-06 01:23:42.38	55.82	54.37	-49.8	-63.4	3.5	3.02e+01	0	32	104	524288	60	77141
2026-01-06 01:23:43.39	54.93	54.33	-43.2	-53.8	3.5	3.02e+01	0	32	104	524288	60	25340
2026-01-06 01:23:44.40	54.03	54.30	-42.5	-53.2	3.5	3.02e+01	0	32	104	524288	60	23715
2026-01-06 01:23:45.41	53.14	54.25	-41.2	-51.7	3.5	3.02e+01	0	32	104	524288	60	19868
2026-01-06 01:23:46.42	52.25	54.20	-40.2	-50.6	3.5	3.02e+01	0	32	104	524288	60	17541
2026-01-06 01:23:47.44	51.36	54.14	-39.1	-49.4	3.6	3.02e+01	0	32	104	524288	60	15280
2026-01-06 01:23:48.45	50.47	54.08	-38.5	-48.9	3.5	3.02e+01	0	31	104	524288	56	18152
2026-01-06 01:23:49.46	49.60	54.00	-51.1	-68.0	3.5	3.02e+01	0	32	104	524288	60	130161
2026-01-06 01:23:50.47	48.72	53.93	-40.8	-51.1	3.5	3.02e+01	0	32	104	524288	60	18709
2026-01-06 01:23:51.48	47.85	53.84	-48.0	-60.0	3.5	3.02e+01	0	32	104	524288	60	51671
2026-01-06 01:23:52.49	46.99	53.75	-42.7	-53.4	3.5	3.02e+01	0	32	104	524288	60	24176
2026-01-06 01:23:53.50	46.14	53.65	-42.0	-52.3	3.5	3.02e+01	0	32	104	524288	60	21432
2026-01-06 01:23:54.51	45.28	53.55	-41.1	-51.6	3.6	3.02e+01	0	32	104	524288	60	19633
2026-01-06 01:23:55.52	44.44	53.44	-44.1	-54.9	3.5	3.02e+01	0	32	104	524288	60	28976
2026-01-06 01:23:56.53	43.60	53.32	-38.7	-49.1	3.5	3.02e+01	0	32	104	524288	60	14777
2026-01-06 01:23:57.54	42.77	53.20	-42.6	-53.1	3.5	3.02e+01	0	32	104	524288	56	29669
2026-01-06 01:23:58.55	41.95	53.07	-50.2	-65.0	3.5	3.02e+01	0	32	104	524288	60	92438
2026-01-06 01:23:59.57	41.12	52.94	-41.1	-51.6	3.5	3.02e+01	0	32	104	524288	60	19816
2026-01-06 01:24:00.58	40.31	52.80	-47.4	-59.1	3.5	3.02e+01	0	32	104	524288	60	46783
2026-01-06 01:24:01.59	39.51	52.65	-42.1	-52.5	3.5	3.02e+01	0	32	104	524288	60	21898
2026-01-06 01:24:02.60	38.72	52.50	-41.6	-52.0	3.5	3.02e+01	0	31	104	524288	60	20711
2026-01-06 01:24:03.61	37.94	52.35	-41.0	-51.4	3.5	3.02e+01	0	31	104	524288	60	19206
2026-01-06 01:24:04.62	37.16	52.19	-45.6	-56.9	3.5	3.02e+01	0	31	104	524288	60	36162
2026-01-06 01:24:05.90	36.19	51.98	-49.9	-63.7	3.5	3.02e+01	0	32	104	524288	60	79155
2026-01-06 01:24:06.63	35.64	51.86	-44.1	-54.8	3.5	3.02e+01	0	31	104	524288	60	28459
2026-01-06 01:24:07.93	34.68	51.63	-51.2	-68.0	3.5	3.02e+01	0	32	104	524288	60	131047
2026-01-06 01:24:08.65	34.15	51.51	-47.8	-60.0	3.6	3.02e+01	0	31	104	524288	60	51794
2026-01-06 01:24:09.95	33.21	51.27	-38.2	-48.2	3.5	3.02e+01	0	31	104	524288	58	15026
2026-01-06 01:24:10.67	32.70	51.14	-38.9	-49.3	3.5	3.02e+01	0	31	104	524288	56	19004
2026-01-06 01:24:11.97	31.78	50.90	-38.4	-48.6	3.5	3.02e+01	0	31	104	524288	56	17609
2026-01-06 01:24:12.69	31.28	50.76	-38.1	-48.3	3.5	3.02e+01	0	31	104	524288	56	17064
2026-01-06 01:24:13.99	30.39	50.50	-38.3	-48.5	3.5	3.02e+01	0	31	104	524288	54	19469
2026-01-06 01:24:14.72	29.89	50.36	-37.6	-47.8	3.5	3.02e+01	0	32	104	524288	56	16128
2026-01-06 01:24:16.02	29.02	50.09	-51.3	-68.9	3.5	3.02e+01	0	31	104	524288	60	144213
2026-01-06 01:24:16.74	28.55	49.95	-51.1	-68.0	3.5	3.02e+01	0	31	104	524288	60	131013
2026-01-06 01:24:18.04	27.70	49.67	-48.0	-60.1	3.5	3.02e+01	0	31	104	524288	60	52517
2026-01-06 01:24:18.76	27.24	49.52	-48.2	-60.4	3.5	3.02e+01	0	31	104	524288	60	54352
2026-01-06 01:24:20.06	26.42	49.24	-43.0	-53.5	3.5	3.02e+01	0	31	104	524288	60	24629
2026-01-06 01:24:20.78	25.97	49.09	-42.9	-53.5	3.5	3.02e+01	0	31	104	524288	60	24629
2026-01-06 01:24:22.08	25.17	48.80	-42.5	-53.2	3.5	3.02e+01	0	31	104	524288	60	23641
2026-01-06 01:24:22.81	24.73	48.64	-44.9	-55.9	3.5	3.02e+01	0	31	104	524288	60	32399
2026-01-06 01:24:24.11	23.95	48.35	-51.3	-68.9	3.5	3.02e+01	0	31	104	524288	60	145295
2026-01-06 01:24:24.83	23.53	48.19	-41.7	-52.3	3.5	3.02e+01	0	31	104	524288	60	21351
2026-01-06 01:24:26.13	22.78	47.89	-51.1	-67.8	3.5	3.02e+01	0	31	104	524288	60	127476
2026-01-06 01:24:26.85	22.37	47.73	-43.1	-53.8	3.5	3.02e+01	0	32	104	524288	60	25498
2026-01-06 01:24:28.15	21.64	47.43	-41.3	-51.6	3.5	3.02e+01	0	31	104	524288	60	19690
2026-01-06 01:24:28.87	21.24	47.26	-41.7	-52.1	3.5	3.02e+01	0	31	104	524288	60	20860
2026-01-06 01:24:30.17	20.53	46.95	-40.4	-50.8	3.5	3.02e+01	0	31	104	524288	60	17992
2026-01-06 01:24:30.89	20.15	46.78	-39.4	-49.6	3.5	3.02e+01	0	31	104	524288	60	15667
2026-01-06 01:24:32.19	19.46	46.47	-47.4	-59.5	3.5	3.02e+01	0	32	104	524288	60	48822
2026-01-06 01:24:32.92	19.08	46.30	-37.7	-47.8	3.5	3.02e+01	0	32	104	524288	56	16006
2026-01-06 01:24:34.22	18.42	45.99	-51.1	-67.8	3.5	3.02e+01	0	32	104	524288	60	126886
2026-01-06 01:24:34.94	18.06	45.82	-50.0	-64.3	3.5	3.02e+01	0	32	104	524288	60	85540
2026-01-06 01:24:36.24	17.41	45.50	-51.3	-69.1	3.5	3.02e+01	0	32	104	524288	60	148105
2026-01-06 01:24:36.96	17.06	45.33	-46.2	-57.5	3.6	3.02e+01	0	32	104	524288	60	38808
2026-01-06 01:24:38.26	16.44	45.01	-42.5	-53.2	3.5	3.02e+01	0	32	104	524288	60	23597
2026-01-06 01:24:38.98	16.10	44.84	-41.8	-52.2	3.6	3.02e+01	0	32	104	524288	60	21245
2026-01-06 01:24:40.28	15.49	44.52	-40.5	-50.8	3.6	3.02e+01	0	32	104	524288	60	18004
2026-01-06 01:24:41.01	15.16	44.34	-43.0	-53.5	3.5	3.02e+01	0	31	104	524288	60	24549
2026-01-06 01:24:42.30	14.58	44.03	-39.2	-49.4	3.5	3.02e+01	0	31	104	524288	56	19276
2026-01-06 01:24:43.03	14.26	43.85	-51.3	-69.1	3.5	3.02e+01	0	31	104	524288	60	147557
2026-01-06 01:24:44.33	13.69	43.53	-49.7	-63.5	3.5	3.02e+01	0	32	104	524288	60	77349
2026-01-06 01:24:45.05	13.38	43.35	-50.9	-66.8	3.5	3.02e+01	0	32	104	524288	60	113793
2026-01-06 01:24:46.35	12.83	43.03	-42.6	-53.3	3.5	3.02e+01	0	32	104	524288	60	24004
2026-01-06 01:24:47.07	12.53	42.85	-43.2	-54.2	3.5	3.02e+01	0	32	104	524288	60	26474
2026-01-06 01:24:48.37	12.00	42.54	-41.1	-51.2	3.5	3.02e+01	0	31	104	524288	60	18856
2026-01-06 01:24:49.09	11.71	42.36	-41.0	-51.4	3.5	3.02e+01	0	32	104	524288	60	19189
2026-01-06 01:24:50.39	11.19	42.04	-47.6	-59.8	3.5	3.02e+01	0	32	104	524288	60	50860
2026-01-06 01:24:51.12	10.91	41.86	-37.2	-47.3	3.5	3.02e+01	0	32	104	524288	54	17012
2026-01-06 01:24:52.42	10.41	41.54	-50.9	-67.9	3.5	3.02e+01	0	31	104	524288	60	129499
2026-01-06 01:24:53.14	10.14	41.37	-49.8	-63.7	3.5	3.02e+01	0	31	104	524288	60	79744
2026-01-06 01:24:54.44	9.65	41.05	-51.4	-68.9	3.5	3.02e+01	0	32	104	524288	60	144207
2026-01-06 01:24:55.16	9.39	40.87	-44.5	-55.2	3.6	3.02e+01	0	32	104	524288	60	29822
2026-01-06 01:24:56.46	8.92	40.56	-42.7	-53.3	3.5	3.02e+01	0	31	104	524288	60	24109
2026-01-06 01:24:57.18	8.66	40.38	-42.9	-53.8	3.5	3.02e+01	0	32	104	524288	60	25291
2026-01-06 01:24:58.48	8.21	40.07	-41.4	-51.8	3.5	3.02e+01	0	32	104	524288	60	20116
2026-01-06 01:24:59.20	7.96	39.89	-51.1	-67.7	3.5	3.02e+01	0	32	104	524288	60	126407
2026-01-06 01:25:00.50	7.52	39.58	-37.3	-47.6	3.5	3.02e+01	0	32	104	524288	56	15624
2026-01-06 01:25:01.23	7.27	39.40	-51.2	-67.9	3.5	3.02e+01	0	32	104	524288	60	129480
2026-01-06 01:25:02.53	6.85	39.09	-44.4	-55.1	3.6	3.02e+01	0	32	104	524288	60	29670
2026-01-06 01:25:03.25	6.61	38.92	-51.3	-68.8	3.5	3.02e+01	0	32	104	524288	60	142258
2026-01-06 01:25:04.55	6.20	38.61	-42.1	-52.7	3.5	3.02e+01	0	31	104	524288	60	22392
2026-01-06 01:25:05.27	5.97	38.44	-41.2	-51.7	3.5	3.02e+01	0	31	104	524288	60	19929
2026-01-06 01:25:06.57	5.57	38.13	-41.4	-51.9	3.5	3.02e+01	0	32	104	524288	60	20375
2026-01-06 01:25:07.29	5.35	37.96	-39.4	-49.8	3.5	3.02e+01	0	31	104	524288	60	15961
2026-01-06 01:25:08.59	4.96	37.66	-41.1	-51.4	3.6	3.02e+01	0	32	104	524288	60	19331
2026-01-06 01:25:09.31	4.75	37.49	-38.4	-49.0	3.5	3.02e+01	0	32	104	524288	54	20555
2026-01-06 01:25:10.61	4.37	37.18	-51.4	-69.1	3.5	3.02e+01	0	32	104	524288	60	147302
2026-01-06 01:25:11.33	4.16	37.02	-49.1	-62.1	3.5	3.02e+01	0	32	104	524288	60	66338
2026-01-06 01:25:12.63	3.80	36.72	-50.8	-66.7	3.5	3.02e+01	0	32	104	524288	60	111815
2026-01-06 01:25:13.36	3.59	36.55	-42.9	-53.4	3.5	3.02e+01	0	32	104	524288	60	24303
2026-01-06 01:25:14.66	3.24	36.25	-41.1	-51.4	3.6	3.02e+01	0	31	104	524288	60	19290
2026-01-06 01:25:15.38	3.04	36.08	-39.7	-49.9	3.5	3.02e+01	0	31	104	524288	60	16216
2026-01-06 01:25:16.68	2.69	35.79	-38.5	-48.7	3.5	3.02e+01	0	32	104	524288	56	17694
2026-01-06 01:25:17.40	2.50	35.63	-41.3	-51.9	3.5	3.02e+01	0	32	104	524288	60	20411
2026-01-06 01:25:18.70	2.17	35.33	-38.2	-48.5	3.5	3.02e+01	0	32	104	524288	54	19504
2026-01-06 01:25:19.42	1.98	35.17	-51.3	-68.1	3.5	3.02e+01	0	31	104	524288	60	131706
2026-01-06 01:25:20.72	1.66	34.88	-40.4	-50.7	3.5	3.02e+01	0	31	104	524288	60	17705
2026-01-06 01:25:21.44	1.48	34.72	-51.2	-68.1	3.5	3.02e+01	0	32	104	524288	60	131661
2026-01-06 01:25:22.75	1.16	34.43	-42.7	-53.1	3.5	3.02e+01	0	31	104	524288	60	23408
2026-01-06 01:25:23.47	0.99	34.27	-42.8	-53.5	3.5	3.02e+01	0	31	104	524288	60	24479
2026-01-06 01:25:24.77	0.68	33.99	-42.0	-52.6	3.5	3.02e+01	0	31	104	524288	60	22038
2026-01-06 01:25:25.49	0.51	33.83	-41.2	-51.5	3.5	3.02e+01	0	31	104	524288	60	19586
2026-01-06 01:25:26.79	0.21	33.55	-40.4	-50.6	3.5	3.02e+01	0	32	104	524288	60	17651
2026-01-06 01:25:27.51	0.04	33.40	-37.3	-47.8	3.5	3.02e+01	0	31	104	524288	56	15989
2026-01-06 01:25:28.81	359.75	33.12	-47.2	-59.1	3.5	3.02e+01	0	32	104	524288	60	46869
2026-01-06 01:25:29.53	359.59	32.96	-41.7	-52.0	3.5	3.02e+01	0	32	104	524288	60	20623
2026-01-06 01:25:30.83	359.31	32.69	-43.9	-54.5	3.5	3.02e+01	0	31	104	524288	60	27668
2026-01-06 01:25:31.56	359.15	32.53	-39.3	-49.7	3.5	3.02e+01	0	32	104	524288	60	15822
2026-01-06 01:25:32.86	358.87	32.26	-38.7	-49.2	3.5	3.02e+01	0	31	104	524288	56	18788
2026-01-06 01:25:33.58	358.72	32.11	-38.0	-48.4	3.5	3.02e+01	0	32	104	524288	56	17215
2026-01-06 01:25:34.88	358.45	31.84	-38.0	-48.0	3.5	3.02e+01	0	31	104	524288	54	18441
2026-01-06 01:25:35.60	358.31	31.69	-37.7	-47.8	3.5	3.02e+01	0	31	104	524288	56	16044
2026-01-06 01:25:36.90	358.05	31.43	-47.9	-60.0	3.5	3.02e+01	0	32	104	524288	60	52167
2026-01-06 01:25:37.62	357.90	31.28	-51.4	-69.0	3.5	3.02e+01	0	32	104	524288	60	145939
2026-01-06 01:25:38.92	357.65	31.01	-40.7	-51.0	3.5	3.02e+01	0	31	104	524288	56	23135
2026-01-06 01:25:39.64	357.51	30.87	-47.9	-59.9	3.5	3.02e+01	0	31	104	524288	60	51044
2026-01-06 01:25:40.94	357.26	30.61	-39.5	-49.8	3.5	3.02e+01	0	31	104	524288	60	15980
2026-01-06 01:25:41.67	357.12	30.46	-38.7	-48.8	3.5	3.02e+01	0	31	104	524288	58	16118
2026-01-06 01:25:42.97	356.88	30.21	-38.2	-48.5	3.5	3.02e+01	0	32	104	524288	56	17459
2026-01-06 01:25:43.69	356.75	30.06	-38.5	-48.8	3.5	3.02e+01	0	31	104	524288	56	17931
2026-01-06 01:25:44.99	356.51	29.81	-38.2	-48.4	3.5	3.02e+01	0	31	104	524288	56	17245
2026-01-06 01:25:45.71	356.38	29.67	-39.2	-49.6	3.5	3.02e+01	0	31	104	524288	56	19796
2026-01-06 01:25:47.01	356.15	29.42	-49.0	-61.9	3.5	3.02e+01	0	31	104	524288	60	64289
2026-01-06 01:25:47.73	356.03	29.28	-41.3	-51.5	3.5	3.02e+01	0	31	104	524288	60	19526
2026-01-06 01:25:49.03	355.81	29.03	-47.5	-59.6	3.5	3.02e+01	0	31	104	524288	60	49346
2026-01-06 01:25:49.75	355.68	28.89	-45.0	-56.3	3.5	3.02e+01	0	31	104	524288	60	33942
2026-01-06 01:25:51.05	355.46	28.65	-45.2	-56.1	3.5	3.02e+01	0	31	104	524288	60	33262
2026-01-06 01:25:51.77	355.35	28.51	-44.1	-54.5	3.5	3.02e+01	0	32	104	524288	60	27674
2026-01-06 01:25:53.08	355.13	28.26	-49.4	-63.1	3.5	3.02e+01	0	31	104	524288	60	73967
2026-01-06 01:25:53.80	355.01	28.13	-39.7	-50.4	3.5	3.02e+01	0	32	104	524288	60	17161
2026-01-06 01:25:55.10	354.81	27.89	-51.3	-68.4	3.5	3.02e+01	0	31	104	524288	60	136362
2026-01-06 01:25:55.82	354.69	27.76	-47.6	-59.3	3.5	3.02e+01	0	31	104	524288	60	47873
2026-01-06 01:25:57.12	354.49	27.52	-51.0	-67.1	3.5	3.02e+01	0	32	104	524288	60	117243
2026-01-06 01:25:57.84	354.38	27.39	-46.7	-58.5	3.5	3.02e+01	0	31	104	524288	60	43643
2026-01-06 01:25:59.14	354.18	27.16	-40.9	-51.1	3.5	3.02e+01	0	31	104	524288	60	18651
2026-01-06 01:25:59.86	354.07	27.03	-40.1	-50.3	3.6	3.02e+01	0	31	104	524288	60	16938
2026-01-06 01:26:01.16	353.88	26.79	-39.7	-49.9	3.6	3.02e+01	0	31	104	524288	60	16189
2026-01-06 01:26:01.88	353.78	26.67	-41.5	-51.9	3.4	3.02e+01	0	31	104	524288	60	20493
2026-01-06 01:26:03.19	353.59	26.44	-38.9	-40.5	5.2	3.02e+01	0	31	104	524288	58	6158
2026-01-06 01:26:03.91	353.48	26.31	-51.2	-67.0	3.6	3.02e+01	8	31	104	524288	60	116376
2026-01-06 01:26:05.21	353.30	26.08	-46.7	-49.8	18.7	3.02e+01	0	31	0	524288	60	16064
2026-01-06 01:26:05.93	353.20	25.96	-41.7	-43.3	20.8	3.02e+01	0	31	0	524288	58	8544
2026-01-06 01:26:07.23	353.02	25.74	-41.9	-43.7	23.1	3.02e+01	0	31	104	524288	60	7959
2026-01-06 01:26:07.95	352.92	25.61	-41.8	-43.4	25.1	3.02e+01	0	32	0	524288	60	7635
2026-01-06 01:26:09.25	352.75	25.39	-40.1	-41.5	27.0	3.02e+01	0	32	0	524288	60	6138
2026-01-06 01:26:09.97	352.65	25.27	-39.0	-40.3	27.9	3.02e+01	0	31	0	524288	58	6057
2026-01-06 01:26:11.27	352.48	25.05	-38.3	-39.6	28.6	3.02e+01	0	31	0	524288	56	6222
2026-01-06 01:26:11.99	352.38	24.93	-38.6	-39.8	28.3	3.02e+01	0	31	0	524288	56	6408
2026-01-06 01:26:13.29	352.22	24.71	-39.0	-40.3	28.1	3.02e+01	0	31	0	524288	56	6791
2026-01-06 01:26:14.02	352.12	24.59	-39.0	-40.3	27.8	3.02e+01	0	31	0	524288	56	6764
2026-01-06 01:26:15.32	351.96	24.38	-38.4	-39.6	28.6	3.02e+01	0	31	0	524288	56	6277
2026-01-06 01:26:16.04	351.87	24.26	-37.7	-38.9	29.3	3.02e+01	0	32	0	524288	56	5752
2026-01-06 01:26:17.34	351.71	24.05	-37.4	-38.6	29.5	3.02e+01	0	32	101	524288	56	5584
2026-01-06 01:26:18.06	351.62	23.94	-37.5	-38.7	29.4	3.02e+01	0	31	101	524288	56	5623
2026-01-06 01:26:19.36	351.46	23.73	-37.3	-38.5	29.5	3.02e+01	0	32	101	524288	54	6169
2026-01-06 01:26:20.08	351.38	23.61	-37.3	-38.5	29.5	3.02e+01	0	31	101	524288	54	6150
2026-01-06 01:26:21.38	351.23	23.41	-37.2	-38.3	29.6	3.02e+01	0	31	101	524288	54	6062
2026-01-06 01:26:22.10	351.14	23.29	-37.1	-38.3	29.7	3.02e+01	0	31	101	524288	54	6020
2026-01-06 01:26:23.40	350.99	23.09	-37.2	-38.4	29.5	3.02e+01	0	31	101	524288	54	6121
2026-01-06 01:26:24.13	350.91	22.98	-37.0	-38.2	29.7	3.02e+01	0	31	101	524288	54	5959
2026-01-06 01:26:25.43	350.76	22.78	-37.0	-38.2	29.7	3.02e+01	0	32	101	524288	54	5954
2026-01-06 01:26:26.15	350.68	22.67	-36.9	-38.1	29.8	3.02e+01	0	32	101	524288	54	5911
2026-01-06 01:26:27.45	350.54	22.47	-36.8	-38.0	29.9	3.02e+01	0	31	101	524288	54	5804
2026-01-06 01:26:28.17	350.46	22.36	-36.8	-38.0	29.9	3.02e+01	0	31	101	524288	54	5851
2026-01-06 01:26:29.47	350.32	22.16	-36.6	-37.8	30.1	3.02e+01	0	31	101	524288	54	5677
2026-01-06 01:26:30.19	350.24	22.05	-36.5	-37.7	30.1	3.02e+01	0	31	101	524288	54	5628
2026-01-06 01:26:31.49	350.10	21.86	-36.6	-37.8	30.1	3.02e+01	0	31	101	524288	54	5683
2026-01-06 01:26:32.21	350.03	21.75	-36.4	-37.6	30.2	3.02e+01	0	32	101	524288	54	5558
2026-01-06 01:26:33.51	349.89	21.56	-36.5	-37.7	30.1	3.02e+01	0	32	101	524288	52	6324
2026-01-06 01:26:34.23	349.82	21.45	-36.5	-37.6	30.3	3.02e+01	0	31	101	524288	52	6275
2026-01-06 01:26:35.53	349.69	21.26	-36.6	-37.8	30.1	3.02e+01	0	31	101	524288	52	6371
2026-01-06 01:26:36.25	349.62	21.16	-36.6	-37.8	30.0	3.02e+01	0	31	101	524288	52	6395
2026-01-06 01:26:37.55	349.49	20.97	-36.6	-37.8	30.1	3.02e+01	0	32	101	524288	52	6369
2026-01-06 01:26:38.28	349.42	20.87	-36.6	-37.8	30.1	3.02e+01	0	31	101	524288	52	6355
2026-01-06 01:26:39.57	349.29	20.68	-36.6	-37.7	30.1	3.02e+01	0	31	101	524288	52	6345
2026-01-06 01:26:40.30	349.22	20.58	-36.5	-37.7	30.1	3.02e+01	0	31	101	524288	52	6321
2026-01-06 01:26:41.60	349.10	20.40	-36.4	-37.6	30.2	3.02e+01	0	31	101	524288	52	6241
2026-01-06 01:26:42.32	349.03	20.30	-36.5	-37.6	30.2	3.02e+01	0	32	101	524288	52	6268
2026-01-06 01:26:43.62	348.91	20.11	-36.6	-37.7	30.2	3.02e+01	0	32	101	524288	52	6330
2026-01-06 01:26:44.34	348.84	20.01	-36.6	-37.7	30.1	3.02e+01	0	32	101	524288	52	6328
2026-01-06 01:26:45.64	348.72	19.84	-36.9	-38.1	30.0	3.02e+01	0	31	101	524288	52	6596
2026-01-06 01:26:46.36	348.65	19.74	-36.7	-37.9	30.1	3.02e+01	0	31	101	524288	52	6434
2026-01-06 01:26:47.66	348.54	19.56	-36.8	-38.0	29.8	3.02e+01	0	31	101	524288	52	6562
2026-01-06 01:26:48.38	348.47	19.46	-36.9	-38.1	29.8	3.02e+01	0	31	101	524288	52	6615
2026-01-06 01:26:49.68	348.36	19.29	-36.9	-38.1	29.8	3.02e+01	0	31	101	524288	52	6643
2026-01-06 01:26:50.41	348.30	19.19	-37.1	-38.3	29.6	3.02e+01	0	31	101	524288	52	6738
2026-01-06 01:26:51.71	348.18	19.01	-37.1	-38.3	29.6	3.02e+01	0	31	101	524288	52	6768
2026-01-06 01:26:52.43	348.12	18.92	-37.1	-38.3	29.7	3.02e+01	0	31	101	524288	52	6730
2026-01-06 01:26:53.73	348.01	18.75	-37.0	-38.2	29.7	3.02e+01	0	32	101	524288	52	6683
2026-01-06 01:26:54.45	347.95	18.65	-37.0	-38.2	29.6	3.02e+01	0	31	101	524288	52	6663
2026-01-06 01:26:55.75	347.84	18.48	-36.8	-38.0	29.8	3.02e+01	0	31	101	524288	52	6540
2026-01-06 01:26:56.47	347.78	18.39	-36.8	-38.0	29.9	3.02e+01	0	31	101	524288	52	6512
2026-01-06 01:26:57.77	347.68	18.22	-36.7	-37.9	30.0	3.02e+01	0	31	101	524288	52	6476
2026-01-06 01:26:58.49	347.62	18.13	-36.9	-38.1	29.8	3.02e+01	0	31	101	524288	52	6593
2026-01-06 01:26:59.79	347.52	17.96	-37.0	-38.2	29.7	3.02e+01	0	31	101	524288	52	6684
2026-01-06 01:27:00.52	347.46	17.87	-37.0	-38.2	29.7	3.02e+01	0	31	101	524288	52	6716
2026-01-06 01:27:01.82	347.36	17.71	-37.1	-38.3	29.7	3.02e+01	0	31	101	524288	52	6736
2026-01-06 01:27:02.54	347.30	17.62	-37.1	-38.3	29.6	3.02e+01	0	31	101	524288	52	6759
2026-01-06 01:27:03.84	347.20	17.45	-37.3	-38.5	29.6	3.02e+01	0	31	101	524288	52	6909
2026-01-06 01:27:04.56	347.15	17.36	-37.3	-38.5	29.5	3.02e+01	0	31	101	524288	54	6201
2026-01-06 01:27:05.86	347.05	17.20	-37.5	-38.8	29.3	3.02e+01	0	31	101	524288	54	6352
2026-01-06 01:27:06.58	346.99	17.11	-37.5	-38.7	29.2	3.02e+01	0	31	101	524288	54	6335
2026-01-06 01:27:07.88	346.90	16.95	-37.5	-38.7	29.2	3.02e+01	0	31	101	524288	54	6347
2026-01-06 01:27:08.61	346.84	16.87	-37.4	-38.6	29.4	3.02e+01	0	31	101	524288	54	6276
2026-01-06 01:27:09.90	346.75	16.71	-37.5	-38.7	29.3	3.02e+01	0	31	101	524288	54	6341
2026-01-06 01:27:10.63	346.70	16.62	-37.3	-38.5	29.5	3.02e+01	0	31	101	524288	54	6163
2026-01-06 01:27:11.93	346.60	16.46	-37.2	-38.4	29.6	3.02e+01	0	31	101	524288	54	6093
2026-01-06 01:27:12.65	346.55	16.38	-37.1	-38.3	29.6	3.02e+01	0	31	101	524288	54	6035
2026-01-06 01:27:13.95	346.46	16.22	-37.2	-38.4	29.6	3.02e+01	0	31	101	524288	54	6101
2026-01-06 01:27:14.67	346.41	16.14	-37.3	-38.5	29.4	3.02e+01	0	31	101	524288	54	6199
2026-01-06 01:27:15.97	346.32	15.99	-37.4	-38.6	29.3	3.02e+01	0	31	101	524288	54	6244
2026-01-06 01:27:16.69	346.27	15.90	-37.3	-38.5	29.4	3.02e+01	0	31	101	524288	54	6183
2026-01-06 01:27:17.99	346.18	15.75	-37.5	-38.7	29.2	3.02e+01	0	31	101	524288	54	6334
2026-01-06 01:27:18.71	346.13	15.67	-37.3	-38.5	29.5	3.02e+01	0	31	101	524288	54	6166
2026-01-06 01:27:20.01	346.05	15.52	-37.3	-38.5	29.5	3.02e+01	0	31	101	524288	54	6160
2026-01-06 01:27:20.74	346.00	15.43	-37.2	-38.4	29.6	3.02e+01	0	31	101	524288	54	6080
2026-01-06 01:27:22.03	345.92	15.29	-37.3	-38.5	29.4	3.02e+01	0	31	101	524288	54	6199
2026-01-06 01:27:22.76	345.87	15.20	-37.4	-38.6	29.3	3.02e+01	0	32	101	524288	54	6245
2026-01-06 01:27:24.06	345.78	15.06	-37.5	-38.7	29.3	3.02e+01	0	32	101	524288	54	6340
2026-01-06 01:27:24.78	345.74	14.97	-37.5	-38.7	29.3	3.02e+01	0	31	101	524288	54	6312
2026-01-06 01:27:26.08	345.66	14.83	-37.5	-38.7	29.3	3.02e+01	0	31	101	524288	54	6317
2026-01-06 01:27:26.80	345.61	14.75	-37.5	-38.8	29.2	3.02e+01	0	32	101	524288	54	6360
2026-01-06 01:27:28.10	345.53	14.60	-37.5	-38.7	29.2	3.02e+01	0	31	101	524288	54	6309
2026-01-06 01:27:28.82	345.49	14.52	-37.5	-38.8	29.1	3.02e+01	0	31	101	524288	54	6360
2026-01-06 01:27:30.12	345.41	14.38	-37.4	-38.6	29.3	3.02e+01	0	31	101	524288	54	6249
2026-01-06 01:27:30.85	345.36	14.30	-37.3	-38.5	29.4	3.02e+01	0	31	101	524288	54	6190
2026-01-06 01:27:32.15	345.28	14.16	-37.3	-38.5	29.4	3.02e+01	0	32	101	524288	54	6197
2026-01-06 01:27:32.87	345.24	14.08	-37.3	-38.5	29.5	3.02e+01	0	31	101	524288	54	6141
2026-01-06 01:27:34.17	345.16	13.94	-37.2	-38.4	29.5	3.02e+01	0	31	101	524288	54	6108
2026-01-06 01:27:34.89	345.12	13.87	-37.1	-38.3	29.6	3.02e+01	0	31	101	524288	54	6034
2026-01-06 01:27:36.19	345.05	13.73	-37.2	-38.4	29.5	3.02e+01	0	31	101	524288	54	6115
2026-01-06 01:27:36.91	345.00	13.65	-37.3	-38.5	29.4	3.02e+01	0	31	101	524288	54	6153
2026-01-06 01:27:38.21	344.93	13.51	-37.2	-38.4	29.5	3.02e+01	0	31	101	524288	54	6086
2026-01-06 01:27:38.93	344.89	13.44	-37.3	-38.5	29.4	3.02e+01	0	31	101	524288	54	6180
2026-01-06 01:27:40.23	344.82	13.30	-37.3	-38.5	29.4	3.02e+01	0	32	101	524288	54	6181
2026-01-06 01:27:40.96	344.78	13.22	-37.2	-38.4	29.4	3.02e+01	0	31	101	524288	54	6080
2026-01-06 01:27:42.26	344.70	13.09	-37.2	-38.4	29.4	3.02e+01	0	31	101	524288	54	6130
2026-01-06 01:27:42.98	344.66	13.01	-37.2	-38.4	29.4	3.02e+01	0	31	101	524288	54	6127
2026-01-06 01:27:44.28	344.59	12.88	-37.3	-38.5	29.2	3.02e+01	0	31	101	524288	54	6187
2026-01-06 01:27:45.00	344.55	12.81	-37.2	-38.4	29.4	3.02e+01	0	31	101	524288	54	6096
2026-01-06 01:27:46.30	344.48	12.67	-37.1	-38.3	29.4	3.02e+01	0	31	101	524288	54	6023
2026-01-06 01:27:47.02	344.45	12.60	-37.2	-38.4	29.4	3.02e+01	0	32	101	524288	54	6075
2026-01-06 01:27:48.32	344.38	12.47	-37.1	-38.3	29.5	3.02e+01	0	32	101	524288	54	6002
2026-01-06 01:27:49.04	344.34	12.40	-37.1	-38.3	29.5	3.02e+01	0	31	101	524288	54	6038
2026-01-06 01:27:50.34	344.27	12.27	-37.3	-38.5	29.5	3.02e+01	0	31	101	524288	54	6135
2026-01-06 01:27:51.07	344.24	12.19	-37.2	-38.4	29.4	3.02e+01	0	31	101	524288	54	6068
2026-01-06 01:27:52.37	344.17	12.06	-37.2	-38.5	29.3	3.02e+01	0	32	101	524288	54	6142
2026-01-06 01:27:53.09	344.13	11.99	-37.3	-38.5	29.4	3.02e+01	0	31	101	524288	54	6161
2026-01-06 01:27:54.39	344.07	11.86	-37.2	-38.4	29.4	3.02e+01	0	31	101	524288	54	6106
2026-01-06 01:27:55.11	344.03	11.79	-37.2	-38.4	29.4	3.02e+01	0	31	101	524288	54	6133
2026-01-06 01:27:56.41	343.97	11.67	-37.3	-38.5	29.3	3.02e+01	0	31	101	524288	54	6156
2026-01-06 01:27:57.13	343.93	11.60	-37.4	-38.6	29.2	3.02e+01	0	31	101	524288	54	6253
2026-01-06 01:27:58.43	343.87	11.47	-37.3	-38.5	29.2	3.02e+01	0	31	101	524288	54	6178
2026-01-06 01:27:59.16	343.83	11.40	-37.2	-38.4	29.3	3.02e+01	0	32	101	524288	54	6100
2026-01-06 01:28:00.45	343.77	11.28	-37.3	-38.5	29.3	3.02e+01	0	31	101	524288	54	6145
2026-01-06 01:28:01.18	343.74	11.21	-37.1	-38.4	29.4	3.02e+01	0	31	101	524288	54	6066
2026-01-06 01:28:02.48	343.68	11.08	-37.1	-38.3	29.4	3.02e+01	0	31	101	524288	54	6026
2026-01-06 01:28:03.20	343.64	11.01	-37.2	-38.4	29.4	3.02e+01	0	31	101	524288	54	6079
2026-01-06 01:28:04.50	343.58	10.89	-37.2	-38.4	29.4	3.02e+01	0	31	101	524288	54	6077
2026-01-06 01:28:05.22	343.55	10.82	-37.2	-38.4	29.2	3.02e+01	0	31	101	524288	54	6124
2026-01-06 01:28:06.52	343.49	10.70	-37.0	-38.2	29.5	3.02e+01	0	31	101	524288	54	5948
2026-01-06 01:28:07.24	343.46	10.63	-37.1	-38.3	29.4	3.02e+01	0	31	101	524288	54	6027
2026-01-06 01:28:08.54	343.40	10.51	-37.0	-38.2	29.4	3.02e+01	0	31	101	524288	54	5989
2026-01-06 01:28:09.27	343.36	10.45	-37.1	-38.3	29.4	3.02e+01	0	31	101	524288	54	6000
2026-01-06 01:28:10.57	343.31	10.33	-37.0	-38.2	29.5	3.02e+01	0	31	101	524288	54	5942
2026-01-06 01:28:11.29	343.27	10.26	-37.0	-38.2	29.4	3.02e+01	0	31	101	524288	54	5990
2026-01-06 01:28:12.59	343.22	10.14	-37.1	-38.3	29.4	3.02e+01	0	31	101	524288	54	6055
2026-01-06 01:28:13.31	343.19	10.08	-36.9	-38.1	29.5	3.02e+01	0	31	101	524288	54	5906
2026-01-06 01:28:14.61	343.13	9.96	-37.1	-38.3	29.4	3.02e+01	0	31	101	524288	54	6022
2026-01-06 01:28:15.33	343.10	9.89	-36.9	-38.1	29.5	3.02e+01	0	31	101	524288	54	5908
2026-01-06 01:28:16.63	343.04	9.78	-36.9	-38.1	29.5	3.02e+01	0	31	101	524288	54	5919
2026-01-06 01:28:17.36	343.01	9.71	-37.1	-38.3	29.4	3.02e+01	0	31	101	524288	54	6007
2026-01-06 01:28:18.66	342.96	9.59	-36.9	-38.1	29.6	3.02e+01	0	31	101	524288	54	5914
2026-01-06 01:28:19.38	342.93	9.53	-37.0	-38.2	29.5	3.02e+01	0	32	101	524288	54	5936
2026-01-06 01:28:20.68	342.88	9.41	-37.0	-38.2	29.5	3.02e+01	0	31	101	524288	54	5945
2026-01-06 01:28:21.40	342.85	9.35	-36.9	-38.1	29.6	3.02e+01	0	32	101	524288	54	5900
2026-01-06 01:28:22.70	342.79	9.24	-37.1	-38.3	29.4	3.02e+01	0	31	101	524288	54	6057
2026-01-06 01:28:23.42	342.76	9.17	-37.1	-38.3	29.4	3.02e+01	0	31	101	524288	54	6036
2026-01-06 01:28:24.72	342.71	9.06	-37.2	-38.4	29.3	3.02e+01	0	31	101	524288	54	6075
2026-01-06 01:28:25.44	342.68	9.00	-37.1	-38.3	29.4	3.02e+01	0	31	101	524288	54	6006
2026-01-06 01:28:26.74	342.63	8.88	-37.1	-38.4	29.4	3.02e+01	0	31	101	524288	54	6066
2026-01-06 01:28:27.47	342.60	8.82	-37.3	-38.5	29.2	3.02e+01	0	31	101	524288	54	6202
2026-01-06 01:28:28.77	342.55	8.71	-37.2	-38.4	29.3	3.02e+01	0	31	101	524288	54	6103
2026-01-06 01:28:29.49	342.52	8.65	-37.4	-38.6	29.1	3.02e+01	0	31	101	524288	54	6274
2026-01-06 01:28:30.79	342.47	8.54	-37.7	-38.9	29.0	3.02e+01	0	31	101	524288	54	6478
2026-01-06 01:28:31.51	342.45	8.48	-37.6	-38.9	29.0	3.02e+01	0	31	101	524288	54	6445
2026-01-06 01:28:32.81	342.40	8.37	-37.5	-38.8	29.1	3.02e+01	0	31	101	524288	54	6365
2026-01-06 01:28:33.53	342.37	8.30	-37.6	-38.9	28.8	3.02e+01	0	32	101	524288	54	6441
2026-01-06 01:28:34.83	342.32	8.20	-37.7	-38.9	28.7	3.02e+01	0	31	101	524288	54	6487
2026-01-06 01:28:35.55	342.30	8.14	-37.7	-39.0	28.8	3.02e+01	0	31	101	524288	54	6528
2026-01-06 01:28:36.85	342.25	8.03	-37.4	-38.7	29.0	3.02e+01	0	31	101	524288	54	6293
2026-01-06 01:28:37.58	342.22	7.97	-37.5	-38.8	28.9	3.02e+01	0	31	101	524288	54	6360
2026-01-06 01:28:38.88	342.17	7.86	-37.3	-38.5	29.2	3.02e+01	0	31	101	524288	54	6150
2026-01-06 01:28:39.60	342.15	7.80	-37.4	-38.6	29.1	3.02e+01	0	31	101	524288	54	6251
