passes_logs/2026/01/06/R4.6S_Anadyr_2ch/R4.6S_Anadyr_2ch__20260106_031442_FENGYUN_3E_rec.log

#Pass ID: 20260106_031442_FENGYUN 3E
#Satellite: FENGYUN 3E
#Configuration: FENGYUN 3E
#almurnet v.1.7.20251203
#Start time: 2026-01-06 03:14:43

#Version: 2.2.20231116
#Station: R4.6S_Anadyr_2ch
#Location: 177.4865 lon 64.73178 lat
#TLE: 1 49008U 21062A   25350.97288215  .00000176  00000+0  10353-3 0  9997
#TLE: 2 49008  98.7477 351.4440 0000638 234.3856 125.7261 14.19881381230726

#Time	Az	El	Level	Level2	SNR	BER	BlckErr	Temp	State	Recorded	gain1	gain2
2026-01-06 03:14:43.71	125.67	0.06	-46.5	-64.2	3.5	3.02e+01	0	29	0	0	60	84515
2026-01-06 03:14:44.71	125.64	0.12	-50.7	-62.3	3.6	8.46e-01	0	31	104	0	60	64043
2026-01-06 03:14:45.72	125.61	0.18	-50.7	-62.2	3.6	8.45e-01	0	31	104	0	60	63850
2026-01-06 03:14:46.73	125.58	0.24	-50.7	-62.3	3.6	8.44e-01	0	31	104	0	60	64296
2026-01-06 03:14:47.74	125.55	0.30	-50.7	-62.3	3.6	8.45e-01	0	31	104	0	60	63914
2026-01-06 03:14:48.75	125.51	0.36	-50.7	-62.2	3.6	8.45e-01	0	31	104	0	60	63831
2026-01-06 03:14:49.76	125.48	0.42	-50.8	-62.3	3.6	8.46e-01	0	31	104	0	60	64274
2026-01-06 03:14:50.78	125.45	0.48	-50.9	-62.4	3.6	8.44e-01	0	31	104	0	60	64684
2026-01-06 03:14:51.79	125.42	0.54	-50.8	-62.4	3.6	8.45e-01	0	31	104	0	60	65177
2026-01-06 03:14:52.80	125.39	0.60	-50.9	-62.4	3.6	8.45e-01	0	31	104	0	60	65121
2026-01-06 03:14:53.81	125.36	0.66	-50.9	-62.4	3.6	8.46e-01	0	31	104	0	60	64919
2026-01-06 03:14:54.82	125.32	0.72	-50.9	-62.4	3.6	8.46e-01	0	31	104	0	60	65256
2026-01-06 03:14:55.83	125.29	0.78	-51.0	-62.5	3.6	8.46e-01	0	31	104	0	60	65706
2026-01-06 03:14:56.84	125.26	0.84	-50.9	-62.4	3.6	8.46e-01	0	31	104	0	60	65147
2026-01-06 03:14:57.85	125.23	0.90	-51.0	-62.4	3.6	8.45e-01	0	31	104	0	60	65195
2026-01-06 03:14:58.86	125.20	0.96	-50.8	-62.4	3.6	8.44e-01	0	31	104	0	60	64994
2026-01-06 03:14:59.87	125.16	1.02	-50.8	-62.3	3.6	8.46e-01	0	31	104	0	60	64629
2026-01-06 03:15:00.88	125.13	1.08	-50.4	-62.3	3.6	8.46e-01	0	31	104	0	60	64163
2026-01-06 03:15:01.89	125.10	1.14	-50.5	-62.2	3.6	8.44e-01	0	31	104	0	60	63738
2026-01-06 03:15:02.90	125.06	1.20	-50.2	-62.1	3.6	8.44e-01	0	31	104	0	60	62691
2026-01-06 03:15:03.92	125.03	1.27	-50.4	-61.9	3.6	8.46e-01	0	31	104	0	60	61625
2026-01-06 03:15:04.93	125.00	1.33	-50.2	-61.7	3.6	8.45e-01	0	31	104	0	60	60082
2026-01-06 03:15:05.94	124.96	1.39	-49.8	-61.2	3.6	8.45e-01	0	31	104	0	60	56519
2026-01-06 03:15:06.95	124.93	1.45	-49.4	-60.9	3.6	8.45e-01	0	31	104	0	60	54427
2026-01-06 03:15:07.96	124.90	1.51	-49.4	-60.9	3.6	8.46e-01	0	31	104	0	60	54537
2026-01-06 03:15:08.97	124.86	1.57	-49.4	-60.9	3.6	8.47e-01	0	31	104	0	60	54547
2026-01-06 03:15:09.98	124.83	1.64	-49.4	-60.8	3.6	8.45e-01	0	31	104	0	60	54284
2026-01-06 03:15:10.99	124.80	1.70	-49.4	-60.9	3.6	8.46e-01	0	31	104	0	60	54719
2026-01-06 03:15:12.00	124.76	1.76	-49.4	-60.9	3.6	8.46e-01	0	31	104	0	60	54416
2026-01-06 03:15:13.01	124.73	1.82	-49.4	-60.8	3.6	8.45e-01	0	31	104	0	60	54317
2026-01-06 03:15:14.03	124.69	1.88	-49.4	-60.8	3.6	8.45e-01	0	31	104	0	60	54213
2026-01-06 03:15:15.04	124.66	1.95	-49.4	-60.8	3.6	8.46e-01	0	31	104	0	60	54015
2026-01-06 03:15:16.05	124.62	2.01	-49.4	-60.8	3.6	8.46e-01	0	31	104	0	60	54295
2026-01-06 03:15:17.06	124.59	2.07	-49.4	-60.8	3.6	8.45e-01	0	31	104	0	60	54117
2026-01-06 03:15:18.07	124.55	2.14	-49.4	-60.8	3.6	8.44e-01	0	31	104	0	60	54254
2026-01-06 03:15:19.08	124.52	2.20	-49.4	-60.8	3.6	8.46e-01	0	31	104	0	60	54386
2026-01-06 03:15:20.09	124.48	2.26	-49.4	-60.8	3.6	8.46e-01	0	31	104	0	60	54112
2026-01-06 03:15:21.10	124.44	2.33	-49.4	-60.7	3.6	8.46e-01	0	31	104	0	60	53479
2026-01-06 03:15:22.11	124.41	2.39	-49.3	-60.5	3.6	8.45e-01	0	31	104	0	60	52299
2026-01-06 03:15:23.12	124.37	2.45	-49.3	-60.3	3.6	8.45e-01	0	31	104	0	60	51215
2026-01-06 03:15:24.14	124.33	2.52	-49.3	-60.3	3.6	8.45e-01	0	31	104	0	60	51019
2026-01-06 03:15:25.15	124.30	2.58	-49.3	-60.4	3.5	8.44e-01	0	31	104	0	60	51397
2026-01-06 03:15:26.16	124.26	2.65	-49.3	-60.5	3.6	8.46e-01	0	31	104	0	60	52425
2026-01-06 03:15:27.17	124.22	2.71	-49.4	-60.8	3.6	8.46e-01	0	31	104	0	60	53916
2026-01-06 03:15:28.18	124.19	2.77	-49.4	-60.9	3.6	8.46e-01	0	31	104	0	60	54510
2026-01-06 03:15:29.19	124.15	2.84	-49.4	-60.9	3.6	8.46e-01	0	31	104	0	60	54419
2026-01-06 03:15:30.20	124.11	2.90	-49.4	-60.8	3.6	8.46e-01	0	31	104	0	60	54143
2026-01-06 03:15:31.21	124.08	2.97	-49.4	-60.7	3.6	8.45e-01	0	31	104	0	60	53507
2026-01-06 03:15:32.22	124.04	3.03	-49.3	-60.6	3.6	8.45e-01	0	31	104	0	60	52973
2026-01-06 03:15:33.23	124.00	3.10	-49.3	-60.5	3.6	8.46e-01	0	31	104	0	60	52151
2026-01-06 03:15:34.24	123.96	3.16	-49.3	-60.3	3.6	8.44e-01	0	32	104	0	60	51159
2026-01-06 03:15:35.25	123.92	3.23	-49.3	-59.7	3.6	8.45e-01	0	31	104	0	60	47804
2026-01-06 03:15:36.27	123.88	3.29	-49.2	-59.4	3.6	8.45e-01	0	31	104	0	60	45858
2026-01-06 03:15:37.28	123.85	3.36	-49.2	-59.0	3.6	8.45e-01	0	31	104	0	60	44131
2026-01-06 03:15:38.29	123.81	3.42	-49.2	-59.3	3.6	8.45e-01	0	32	104	0	60	45397
2026-01-06 03:15:39.30	123.77	3.49	-49.3	-60.4	3.6	8.45e-01	0	32	104	0	60	51749
2026-01-06 03:15:40.31	123.73	3.56	-49.4	-60.8	3.6	8.45e-01	0	31	104	0	60	54282
2026-01-06 03:15:41.32	123.69	3.62	-49.1	-58.1	3.7	8.45e-01	0	32	104	0	60	39683
2026-01-06 03:15:42.33	123.65	3.69	-48.3	-54.3	5.7	7.41e-01	0	32	104	0	60	25601
2026-01-06 03:15:43.34	123.61	3.76	-47.3	-50.8	8.8	7.39e-02	0	32	102	1048576	60	17120
2026-01-06 03:15:44.35	123.57	3.82	-46.0	-48.6	11.4	4.50e-03	0	32	102	1048576	60	13251
2026-01-06 03:15:45.37	123.53	3.89	-44.7	-46.6	13.4	3.66e-05	0	32	102	1048576	60	10562
2026-01-06 03:15:46.38	123.49	3.96	-43.5	-45.1	14.9	3.40e-06	0	32	102	1048576	60	8883
2026-01-06 03:15:47.39	123.45	4.02	-47.4	-52.4	3.7	2.20e-06	0	32	102	1048576	60	20652
2026-01-06 03:15:48.40	123.41	4.09	-49.7	-60.9	3.6	8.45e-01	0	32	104	1048576	60	54606
2026-01-06 03:15:49.41	123.37	4.16	-40.0	-41.0	18.3	0.00e+00	0	31	0	1048576	58	6225
2026-01-06 03:15:50.42	123.33	4.23	-49.2	-58.6	4.4	8.43e-01	0	32	104	1048576	60	42047
2026-01-06 03:15:51.43	123.28	4.29	-43.9	-45.7	6.0	8.07e-01	0	31	104	1048576	60	9486
2026-01-06 03:15:52.44	123.24	4.36	-41.3	-42.5	17.1	0.00e+00	0	31	104	1048576	60	6556
2026-01-06 03:15:53.46	123.20	4.43	-40.1	-41.0	19.0	0.00e+00	0	32	0	1048576	58	6224
2026-01-06 03:15:54.46	123.16	4.50	-39.6	-40.4	19.9	0.00e+00	0	32	0	1048576	58	5821
2026-01-06 03:15:55.48	123.12	4.57	-39.2	-40.0	19.9	0.00e+00	0	32	0	1048576	56	6241
2026-01-06 03:15:56.49	123.07	4.63	-38.7	-39.5	20.5	0.00e+00	0	32	0	1048576	56	5844
2026-01-06 03:15:57.50	123.03	4.70	-38.5	-39.3	20.9	0.00e+00	0	32	101	1048576	56	5727
2026-01-06 03:15:58.51	122.99	4.77	-38.2	-39.0	21.2	0.00e+00	0	32	101	1048576	56	5513
2026-01-06 03:15:59.52	122.95	4.84	-37.4	-38.1	21.7	0.00e+00	0	32	101	1048576	54	5603
2026-01-06 03:16:00.53	122.90	4.91	-37.2	-37.9	22.0	0.00e+00	0	32	101	1048576	54	5453
2026-01-06 03:16:01.54	122.86	4.98	-37.0	-37.6	22.3	0.00e+00	0	32	101	1048576	52	5938
2026-01-06 03:16:02.55	122.82	5.05	-37.0	-37.7	22.3	0.00e+00	0	32	101	1048576	52	5981
2026-01-06 03:16:03.57	122.77	5.12	-37.3	-37.9	22.0	0.00e+00	0	32	101	1048576	52	6169
2026-01-06 03:16:04.58	122.73	5.19	-37.1	-37.7	22.4	0.00e+00	0	32	101	1048576	52	6000
2026-01-06 03:16:05.59	122.68	5.26	-37.2	-37.9	22.3	0.00e+00	0	32	101	1048576	52	6125
2026-01-06 03:16:06.60	122.64	5.33	-36.7	-37.3	22.6	0.00e+00	0	32	101	1048576	52	5755
2026-01-06 03:16:07.61	122.59	5.40	-36.9	-37.5	22.5	0.00e+00	0	32	101	1048576	52	5865
2026-01-06 03:16:08.62	122.55	5.47	-36.8	-37.4	22.6	0.00e+00	0	32	101	1048576	52	5787
2026-01-06 03:16:09.63	122.50	5.54	-36.9	-37.5	22.4	0.00e+00	0	32	101	1048576	52	5895
2026-01-06 03:16:10.64	122.46	5.61	-36.7	-37.3	22.7	0.00e+00	0	32	101	1048576	52	5727
2026-01-06 03:16:11.65	122.41	5.68	-36.9	-37.5	22.7	0.00e+00	0	32	101	1048576	52	5850
2026-01-06 03:16:12.66	122.36	5.75	-36.7	-37.3	22.7	0.00e+00	0	32	101	1048576	52	5738
2026-01-06 03:16:13.67	122.32	5.82	-36.7	-37.3	22.8	0.00e+00	0	32	101	1048576	52	5707
2026-01-06 03:16:14.69	122.27	5.89	-36.6	-37.2	22.9	0.00e+00	0	32	101	1048576	52	5659
2026-01-06 03:16:15.70	122.22	5.97	-37.1	-37.8	22.4	0.00e+00	0	32	101	1048576	52	6052
2026-01-06 03:16:16.71	122.18	6.04	-36.6	-37.2	22.9	0.00e+00	0	32	101	1048576	52	5665
2026-01-06 03:16:17.72	122.13	6.11	-36.5	-37.1	23.0	0.00e+00	0	32	101	1048576	52	5578
2026-01-06 03:16:18.73	122.08	6.18	-36.6	-37.2	22.9	0.00e+00	0	32	101	1048576	52	5665
2026-01-06 03:16:19.74	122.04	6.25	-36.7	-37.3	23.0	0.00e+00	0	32	101	1048576	52	5731
2026-01-06 03:16:20.75	121.99	6.33	-36.5	-37.1	23.1	0.00e+00	0	32	101	1048576	52	5617
2026-01-06 03:16:21.76	121.94	6.40	-36.5	-37.1	23.0	0.00e+00	0	32	101	1048576	52	5619
2026-01-06 03:16:22.77	121.89	6.47	-36.4	-37.0	23.1	0.00e+00	0	32	101	1048576	52	5525
2026-01-06 03:16:23.78	121.84	6.55	-36.3	-36.9	23.2	0.00e+00	0	32	101	1048576	52	5459
2026-01-06 03:16:24.79	121.79	6.62	-36.2	-36.8	23.2	0.00e+00	0	32	101	1048576	52	5418
2026-01-06 03:16:25.80	121.74	6.69	-36.3	-36.9	23.3	0.00e+00	0	32	101	1048576	52	5446
2026-01-06 03:16:26.82	121.69	6.77	-36.4	-37.0	23.2	0.00e+00	0	32	101	1048576	52	5518
2026-01-06 03:16:27.83	121.64	6.84	-36.1	-36.7	23.4	0.00e+00	0	32	101	1048576	52	5356
2026-01-06 03:16:28.84	121.59	6.91	-36.1	-36.6	23.4	0.00e+00	0	32	101	1048576	52	5305
2026-01-06 03:16:29.85	121.54	6.99	-36.2	-36.8	23.3	0.00e+00	0	32	101	1048576	50	6094
2026-01-06 03:16:30.86	121.49	7.06	-36.2	-36.8	23.3	0.00e+00	0	32	101	1048576	50	6101
2026-01-06 03:16:31.87	121.44	7.14	-36.1	-36.6	23.4	0.00e+00	0	32	101	1048576	50	5963
2026-01-06 03:16:32.88	121.39	7.21	-36.2	-36.8	23.3	0.00e+00	0	32	101	1048576	50	6099
2026-01-06 03:16:33.89	121.34	7.29	-36.3	-36.9	23.3	0.00e+00	0	32	101	1048576	50	6125
2026-01-06 03:16:34.91	121.29	7.36	-36.1	-36.6	23.6	0.00e+00	0	32	101	1048576	50	5963
2026-01-06 03:16:35.92	121.23	7.44	-36.1	-36.7	23.5	0.00e+00	0	32	101	1048576	50	6000
2026-01-06 03:16:36.93	121.18	7.51	-36.1	-36.7	23.4	0.00e+00	0	32	101	1048576	50	6009
2026-01-06 03:16:37.94	121.13	7.59	-36.0	-36.6	23.6	0.00e+00	0	32	101	1048576	50	5931
2026-01-06 03:16:38.95	121.08	7.67	-36.1	-36.7	23.6	0.00e+00	0	32	101	1048576	50	5973
2026-01-06 03:16:39.96	121.02	7.74	-36.1	-36.6	23.5	0.00e+00	0	32	101	1048576	50	5940
2026-01-06 03:16:40.97	120.97	7.82	-36.3	-36.9	23.2	0.00e+00	0	32	101	1048576	50	6143
2026-01-06 03:16:41.98	120.92	7.90	-36.5	-37.1	23.1	0.00e+00	0	32	101	1048576	50	6257
2026-01-06 03:16:42.99	120.86	7.97	-36.3	-36.9	23.3	0.00e+00	0	32	101	1048576	50	6124
2026-01-06 03:16:44.00	120.81	8.05	-35.9	-36.4	23.8	0.00e+00	0	32	101	1048576	50	5818
2026-01-06 03:16:45.02	120.75	8.13	-35.9	-36.4	23.8	0.00e+00	0	32	101	1048576	50	5811
2026-01-06 03:16:46.03	120.70	8.20	-35.7	-36.2	23.9	0.00e+00	0	32	101	1048576	50	5685
2026-01-06 03:16:47.04	120.64	8.28	-35.7	-36.3	23.9	0.00e+00	0	32	101	1048576	50	5738
2026-01-06 03:16:48.05	120.59	8.36	-35.9	-36.4	23.7	0.00e+00	0	32	101	1048576	50	5809
2026-01-06 03:16:49.06	120.53	8.44	-35.8	-36.3	23.9	0.00e+00	0	32	101	1048576	50	5753
2026-01-06 03:16:50.07	120.47	8.52	-35.7	-36.3	23.9	0.00e+00	0	32	101	1048576	50	5709
2026-01-06 03:16:51.08	120.42	8.59	-35.7	-36.3	23.9	0.00e+00	0	32	101	1048576	50	5735
2026-01-06 03:16:52.09	120.36	8.67	-35.6	-36.2	24.0	0.00e+00	0	32	101	1048576	50	5651
2026-01-06 03:16:53.10	120.30	8.75	-35.5	-36.1	24.1	0.00e+00	0	32	101	1048576	50	5598
2026-01-06 03:16:54.11	120.25	8.83	-35.6	-36.2	24.0	0.00e+00	0	32	101	1048576	50	5636
2026-01-06 03:16:55.12	120.19	8.91	-35.7	-36.3	24.0	0.00e+00	0	32	101	1048576	50	5699
2026-01-06 03:16:56.13	120.13	8.99	-35.4	-36.0	24.3	0.00e+00	0	32	101	1048576	50	5508
2026-01-06 03:16:57.14	120.07	9.07	-35.5	-36.0	24.1	0.00e+00	0	32	101	1048576	50	5564
2026-01-06 03:16:58.15	120.01	9.15	-35.5	-36.0	24.2	0.00e+00	0	32	101	1048576	50	5560
2026-01-06 03:16:59.17	119.95	9.23	-35.7	-36.2	24.1	0.00e+00	0	32	101	1048576	50	5673
2026-01-06 03:17:00.18	119.89	9.31	-35.5	-36.0	24.3	0.00e+00	0	32	101	1048576	50	5559
2026-01-06 03:17:01.19	119.83	9.39	-35.3	-35.8	24.4	0.00e+00	0	32	101	1048576	50	5420
2026-01-06 03:17:02.20	119.77	9.47	-35.3	-35.8	24.2	0.00e+00	0	32	101	1048576	50	5436
2026-01-06 03:17:03.21	119.71	9.56	-35.5	-36.0	24.3	0.00e+00	0	32	101	1048576	50	5551
2026-01-06 03:17:04.22	119.65	9.64	-35.4	-35.9	24.3	0.00e+00	0	32	101	1048576	50	5497
2026-01-06 03:17:05.23	119.59	9.72	-35.3	-35.8	24.5	0.00e+00	0	32	101	1048576	50	5411
2026-01-06 03:17:06.24	119.53	9.80	-35.2	-35.7	24.5	0.00e+00	0	32	101	1048576	50	5369
2026-01-06 03:17:07.25	119.47	9.88	-35.4	-36.0	24.3	0.00e+00	0	32	101	1048576	50	5520
2026-01-06 03:17:08.26	119.40	9.96	-35.5	-36.0	24.2	0.00e+00	0	32	101	1048576	50	5553
2026-01-06 03:17:09.28	119.34	10.05	-35.1	-35.6	24.6	0.00e+00	0	32	101	1048576	50	5293
2026-01-06 03:17:10.29	119.28	10.13	-35.2	-35.7	24.5	0.00e+00	0	32	101	1048576	50	5374
2026-01-06 03:17:11.30	119.21	10.21	-35.1	-35.7	24.6	0.00e+00	0	32	101	1048576	50	5321
2026-01-06 03:17:12.31	119.15	10.30	-35.2	-35.8	24.5	0.00e+00	0	32	101	1048576	50	5394
2026-01-06 03:17:13.32	119.09	10.38	-35.0	-35.6	24.7	0.00e+00	0	32	101	1048576	48	5900
2026-01-06 03:17:14.33	119.02	10.46	-34.8	-35.4	24.9	0.00e+00	0	32	101	1048576	48	5773
2026-01-06 03:17:15.34	118.96	10.55	-34.9	-35.4	24.8	0.00e+00	0	32	101	1048576	48	5808
2026-01-06 03:17:16.35	118.89	10.63	-34.9	-35.4	24.8	0.00e+00	0	32	101	1048576	48	5819
2026-01-06 03:17:17.36	118.83	10.72	-34.7	-35.3	25.1	0.00e+00	0	32	101	1048576	48	5716
2026-01-06 03:17:18.37	118.76	10.80	-34.8	-35.3	24.9	0.00e+00	0	32	101	1048576	48	5742
2026-01-06 03:17:19.38	118.69	10.89	-34.7	-35.3	25.0	0.00e+00	0	32	101	1048576	48	5708
2026-01-06 03:17:20.39	118.63	10.97	-35.0	-35.5	24.7	0.00e+00	0	32	101	1048576	48	5885
2026-01-06 03:17:21.40	118.56	11.06	-34.8	-35.4	25.0	0.00e+00	0	32	101	1048576	48	5771
2026-01-06 03:17:22.41	118.49	11.14	-34.8	-35.3	25.0	0.00e+00	0	32	101	1048576	48	5729
2026-01-06 03:17:23.42	118.42	11.23	-34.9	-35.4	24.9	0.00e+00	0	32	101	1048576	48	5795
2026-01-06 03:17:24.44	118.35	11.32	-34.7	-35.3	24.9	0.00e+00	0	32	101	1048576	48	5710
2026-01-06 03:17:25.45	118.28	11.40	-34.8	-35.4	25.0	0.00e+00	0	32	101	1048576	48	5762
2026-01-06 03:17:26.46	118.21	11.49	-34.8	-35.3	24.9	0.00e+00	0	32	101	1048576	48	5732
2026-01-06 03:17:27.47	118.14	11.58	-34.7	-35.3	25.0	0.00e+00	0	32	101	1048576	48	5707
2026-01-06 03:17:28.48	118.07	11.67	-34.8	-35.4	25.0	0.00e+00	0	32	101	1048576	48	5790
2026-01-06 03:17:29.49	118.00	11.75	-34.8	-35.3	25.0	0.00e+00	0	32	101	1048576	48	5717
2026-01-06 03:17:30.50	117.93	11.84	-34.7	-35.3	25.0	0.00e+00	0	32	101	1048576	48	5704
2026-01-06 03:17:31.51	117.86	11.93	-34.6	-35.2	25.1	0.00e+00	0	32	101	1048576	48	5654
2026-01-06 03:17:32.52	117.79	12.02	-34.6	-35.1	25.1	0.00e+00	0	32	101	1048576	48	5617
2026-01-06 03:17:33.54	117.71	12.11	-34.7	-35.3	25.1	0.00e+00	0	32	101	1048576	48	5708
2026-01-06 03:17:34.55	117.64	12.20	-34.6	-35.1	25.2	0.00e+00	0	32	101	1048576	48	5599
2026-01-06 03:17:35.56	117.57	12.29	-34.5	-35.1	25.3	0.00e+00	0	32	101	1048576	48	5579
2026-01-06 03:17:36.57	117.49	12.38	-34.5	-35.1	25.3	0.00e+00	0	32	101	1048576	48	5581
2026-01-06 03:17:37.58	117.42	12.47	-34.5	-35.0	25.2	0.00e+00	0	32	101	1048576	48	5550
2026-01-06 03:17:38.59	117.34	12.56	-34.3	-34.9	25.4	0.00e+00	0	32	101	1048576	48	5447
2026-01-06 03:17:39.60	117.27	12.65	-34.4	-34.9	25.4	0.00e+00	0	32	101	1048576	48	5466
2026-01-06 03:17:40.61	117.19	12.74	-34.4	-34.9	25.4	0.00e+00	0	32	101	1048576	48	5482
2026-01-06 03:17:41.62	117.12	12.83	-34.4	-34.9	25.4	0.00e+00	0	32	101	1048576	48	5475
2026-01-06 03:17:42.64	117.04	12.92	-34.4	-34.9	25.4	0.00e+00	0	32	101	1048576	48	5481
2026-01-06 03:17:43.65	116.96	13.01	-34.3	-34.8	25.5	0.00e+00	0	32	101	1048576	48	5411
2026-01-06 03:17:44.66	116.88	13.11	-34.4	-34.9	25.4	0.00e+00	0	32	101	1048576	46	6134
2026-01-06 03:17:45.67	116.80	13.20	-34.2	-34.8	25.5	0.00e+00	0	32	101	1048576	46	6036
2026-01-06 03:17:46.68	116.73	13.29	-34.1	-34.6	25.6	0.00e+00	0	32	101	1048576	46	5948
2026-01-06 03:17:47.69	116.65	13.38	-34.2	-34.7	25.6	0.00e+00	0	32	101	1048576	46	5989
2026-01-06 03:17:48.70	116.57	13.48	-34.1	-34.7	25.6	0.00e+00	0	32	101	1048576	46	5978
2026-01-06 03:17:49.71	116.49	13.57	-34.4	-34.9	25.4	0.00e+00	0	32	101	1048576	46	6125
2026-01-06 03:17:50.73	116.40	13.66	-34.3	-34.8	25.5	0.00e+00	0	32	101	1048576	46	6089
2026-01-06 03:17:51.74	116.32	13.76	-34.3	-34.8	25.5	0.00e+00	0	32	101	1048576	46	6101
2026-01-06 03:17:52.75	116.24	13.85	-34.3	-34.8	25.5	0.00e+00	0	32	101	1048576	46	6088
2026-01-06 03:17:53.76	116.16	13.95	-34.3	-34.8	25.5	0.00e+00	0	32	101	1048576	46	6086
2026-01-06 03:17:54.77	116.07	14.04	-34.5	-35.0	25.4	0.00e+00	0	32	101	1048576	46	6197
2026-01-06 03:17:55.78	115.99	14.14	-34.8	-35.3	25.2	0.00e+00	0	32	101	1048576	46	6444
2026-01-06 03:17:56.79	115.91	14.23	-34.8	-35.3	25.2	0.00e+00	0	32	101	1048576	46	6462
2026-01-06 03:17:57.80	115.82	14.33	-34.1	-34.7	25.6	0.00e+00	0	32	101	1048576	46	5987
2026-01-06 03:17:58.81	115.74	14.43	-34.0	-34.5	25.7	0.00e+00	0	32	101	1048576	46	5872
2026-01-06 03:17:59.82	115.65	14.52	-34.0	-34.5	25.7	0.00e+00	0	32	101	1048576	46	5888
2026-01-06 03:18:00.83	115.56	14.62	-34.0	-34.5	25.9	0.00e+00	0	32	101	1048576	46	5853
2026-01-06 03:18:01.84	115.48	14.72	-34.1	-34.6	25.7	0.00e+00	0	32	101	1048576	46	5926
2026-01-06 03:18:02.86	115.39	14.81	-34.0	-34.6	25.8	0.00e+00	0	32	101	1048576	46	5914
2026-01-06 03:18:03.87	115.30	14.91	-34.0	-34.5	25.7	0.00e+00	0	32	101	1048576	46	5865
2026-01-06 03:18:04.88	115.21	15.01	-34.1	-34.5	26.0	0.00e+00	0	32	101	1048576	46	5896
2026-01-06 03:18:05.89	115.12	15.11	-34.1	-34.6	25.6	0.00e+00	0	32	101	1048576	46	5943
2026-01-06 03:18:06.90	115.03	15.21	-34.1	-34.6	25.7	0.00e+00	0	32	101	1048576	46	5934
2026-01-06 03:18:07.91	114.94	15.31	-34.1	-34.7	25.7	0.00e+00	0	32	101	1048576	46	5985
2026-01-06 03:18:08.92	114.85	15.41	-34.0	-34.5	25.8	0.00e+00	0	32	101	1048576	46	5856
2026-01-06 03:18:09.93	114.76	15.51	-34.2	-34.8	25.9	0.00e+00	0	32	101	1048576	46	6034
2026-01-06 03:18:10.94	114.66	15.61	-34.2	-34.7	25.6	0.00e+00	0	32	101	1048576	46	6033
2026-01-06 03:18:11.95	114.57	15.71	-34.0	-34.6	25.8	0.00e+00	0	32	101	1048576	46	5902
2026-01-06 03:18:12.97	114.48	15.81	-34.0	-34.5	25.8	0.00e+00	0	32	101	1048576	46	5865
2026-01-06 03:18:13.98	114.38	15.91	-34.0	-34.6	25.8	0.00e+00	0	32	101	1048576	46	5905
2026-01-06 03:18:14.99	114.29	16.01	-34.0	-34.5	25.8	0.00e+00	0	32	101	1048576	46	5864
2026-01-06 03:18:16.00	114.19	16.11	-33.9	-34.4	25.9	0.00e+00	0	32	101	1048576	46	5820
2026-01-06 03:18:17.01	114.09	16.22	-33.9	-34.4	25.9	0.00e+00	0	32	101	1048576	46	5824
2026-01-06 03:18:18.02	114.00	16.32	-34.0	-34.5	25.9	0.00e+00	0	32	101	1048576	46	5858
2026-01-06 03:18:19.03	113.90	16.42	-33.6	-34.1	26.2	0.00e+00	0	32	101	1048576	46	5613
2026-01-06 03:18:20.04	113.80	16.52	-33.5	-34.0	26.1	0.00e+00	0	32	101	1048576	46	5564
2026-01-06 03:18:21.05	113.70	16.63	-33.6	-34.1	26.2	0.00e+00	0	32	101	1048576	46	5616
2026-01-06 03:18:22.07	113.60	16.73	-33.5	-34.0	26.3	0.00e+00	0	32	101	1048576	46	5548
2026-01-06 03:18:23.08	113.50	16.84	-33.5	-34.0	26.3	0.00e+00	0	32	101	1048576	46	5517
2026-01-06 03:18:24.09	113.40	16.94	-33.5	-33.9	26.3	0.00e+00	0	32	101	1048576	46	5500
2026-01-06 03:18:25.10	113.29	17.05	-33.5	-34.0	26.2	0.00e+00	0	32	101	1048576	46	5512
2026-01-06 03:18:26.11	113.19	17.15	-33.5	-34.0	26.3	0.00e+00	0	32	101	1048576	44	6192
2026-01-06 03:18:27.12	113.09	17.26	-33.7	-34.2	26.2	0.00e+00	0	32	101	1048576	44	6330
2026-01-06 03:18:28.13	112.98	17.36	-33.5	-34.1	26.2	0.00e+00	0	32	101	1048576	44	6251
2026-01-06 03:18:29.14	112.88	17.47	-33.6	-34.1	26.2	0.00e+00	0	32	101	1048576	44	6281
2026-01-06 03:18:30.15	112.77	17.58	-33.5	-34.0	26.3	0.00e+00	0	32	101	1048576	44	6190
2026-01-06 03:18:31.17	112.66	17.68	-33.3	-33.9	26.4	0.00e+00	0	32	101	1048576	44	6106
2026-01-06 03:18:32.18	112.56	17.79	-33.4	-33.9	26.4	0.00e+00	0	32	101	1048576	44	6125
2026-01-06 03:18:33.19	112.45	17.90	-33.3	-33.8	26.4	0.00e+00	0	32	101	1048576	44	6096
2026-01-06 03:18:34.20	112.34	18.01	-33.4	-33.9	26.4	0.00e+00	0	32	101	1048576	44	6120
2026-01-06 03:18:35.21	112.23	18.12	-33.3	-33.8	26.4	0.00e+00	0	32	101	1048576	44	6034
2026-01-06 03:18:36.22	112.12	18.22	-32.7	-33.2	26.3	0.00e+00	0	32	101	1048576	44	5692
2026-01-06 03:18:37.23	112.01	18.33	-33.3	-33.8	26.5	0.00e+00	0	32	101	1048576	44	6075
2026-01-06 03:18:38.24	111.89	18.44	-33.3	-33.8	26.4	0.00e+00	0	32	101	1048576	44	6061
2026-01-06 03:18:39.25	111.78	18.55	-33.3	-33.8	26.4	0.00e+00	0	32	101	1048576	44	6071
2026-01-06 03:18:40.26	111.67	18.66	-33.3	-33.8	26.4	0.00e+00	0	32	101	1048576	44	6071
2026-01-06 03:18:41.27	111.55	18.77	-33.1	-33.5	26.5	0.00e+00	0	32	101	1048576	44	5896
2026-01-06 03:18:42.28	111.44	18.89	-33.1	-33.6	26.7	0.00e+00	0	32	101	1048576	44	5916
2026-01-06 03:18:43.29	111.32	19.00	-33.0	-33.5	26.7	0.00e+00	0	32	101	1048576	44	5888
2026-01-06 03:18:44.31	111.20	19.11	-32.9	-33.3	26.8	0.00e+00	0	32	101	1048576	44	5751
2026-01-06 03:18:45.31	111.08	19.22	-32.8	-33.3	26.9	0.00e+00	0	32	101	1048576	44	5709
2026-01-06 03:18:46.33	110.96	19.34	-32.6	-33.1	27.1	0.00e+00	0	32	101	1048576	44	5585
2026-01-06 03:18:47.34	110.84	19.45	-32.7	-33.1	27.0	0.00e+00	0	32	101	1048576	44	5627
2026-01-06 03:18:48.35	110.72	19.56	-32.6	-33.1	27.1	0.00e+00	0	32	101	1048576	44	5577
2026-01-06 03:18:49.36	110.60	19.68	-32.5	-33.0	27.1	0.00e+00	0	32	101	1048576	44	5552
2026-01-06 03:18:50.37	110.48	19.79	-32.4	-32.9	27.2	0.00e+00	0	32	101	1048576	44	5471
2026-01-06 03:18:51.38	110.35	19.90	-32.5	-33.0	27.3	0.00e+00	0	32	101	1048576	44	5513
2026-01-06 03:18:52.39	110.23	20.02	-32.4	-32.9	27.2	0.00e+00	0	32	101	1048576	44	5453
2026-01-06 03:18:53.40	110.10	20.13	-32.4	-32.9	27.3	0.00e+00	0	32	101	1048576	44	5464
2026-01-06 03:18:54.41	109.97	20.25	-32.4	-32.9	27.2	0.00e+00	0	32	101	1048576	44	5462
2026-01-06 03:18:55.42	109.85	20.37	-32.3	-32.8	27.3	0.00e+00	0	32	101	1048576	44	5396
2026-01-06 03:18:56.43	109.72	20.48	-32.3	-32.8	27.3	0.00e+00	0	32	101	1048576	44	5422
2026-01-06 03:18:57.45	109.59	20.60	-32.6	-33.1	27.2	0.00e+00	0	32	101	1048576	42	6256
2026-01-06 03:18:58.45	109.46	20.72	-32.5	-33.0	27.2	0.00e+00	0	32	101	1048576	42	6199
2026-01-06 03:18:59.47	109.32	20.84	-32.4	-32.9	27.2	0.00e+00	0	32	101	1048576	42	6120
2026-01-06 03:19:00.48	109.19	20.95	-32.5	-33.0	27.2	0.00e+00	0	32	101	1048576	42	6210
2026-01-06 03:19:01.49	109.06	21.07	-32.5	-32.9	27.2	0.00e+00	0	32	101	1048576	42	6171
2026-01-06 03:19:02.50	108.92	21.19	-32.4	-32.8	27.2	0.00e+00	0	32	101	1048576	42	6096
2026-01-06 03:19:03.51	108.79	21.31	-32.4	-32.9	27.2	0.00e+00	0	32	101	1048576	42	6140
2026-01-06 03:19:04.52	108.65	21.43	-32.6	-33.1	27.1	0.00e+00	0	32	101	1048576	42	6256
2026-01-06 03:19:05.53	108.51	21.55	-32.5	-33.0	27.2	0.00e+00	0	32	101	1048576	42	6198
2026-01-06 03:19:06.54	108.37	21.67	-32.3	-32.8	27.3	0.00e+00	0	32	101	1048576	42	6052
2026-01-06 03:19:07.55	108.23	21.79	-32.8	-33.2	27.4	0.00e+00	0	32	101	1048576	42	6389
2026-01-06 03:19:08.56	108.09	21.91	-32.2	-32.7	27.4	0.00e+00	0	32	101	1048576	42	6018
2026-01-06 03:19:09.58	107.95	22.03	-32.2	-32.7	27.4	0.00e+00	0	32	101	1048576	42	5980
2026-01-06 03:19:10.59	107.80	22.16	-32.0	-32.5	27.6	0.00e+00	0	32	101	1048576	42	5859
2026-01-06 03:19:11.60	107.66	22.28	-32.0	-32.5	27.6	0.00e+00	0	32	101	1048576	42	5832
2026-01-06 03:19:12.61	107.51	22.40	-32.1	-32.5	27.7	0.00e+00	0	32	101	1048576	42	5873
2026-01-06 03:19:13.62	107.36	22.52	-31.8	-32.3	27.7	0.00e+00	0	32	101	1048576	42	5733
2026-01-06 03:19:14.63	107.21	22.65	-31.8	-32.2	27.8	0.00e+00	0	32	101	1048576	42	5688
2026-01-06 03:19:15.64	107.06	22.77	-31.8	-32.3	27.7	0.00e+00	0	32	101	1048576	42	5727
2026-01-06 03:19:16.65	106.91	22.90	-31.8	-32.3	27.8	0.00e+00	0	32	101	1048576	42	5725
2026-01-06 03:19:17.66	106.76	23.02	-32.0	-32.5	27.6	0.00e+00	0	32	101	1048576	42	5844
2026-01-06 03:19:18.67	106.61	23.15	-32.1	-32.6	27.7	0.00e+00	0	32	101	1048576	42	5903
2026-01-06 03:19:19.68	106.45	23.27	-32.1	-32.5	27.6	0.00e+00	0	32	101	1048576	42	5880
2026-01-06 03:19:20.70	106.30	23.40	-32.2	-32.7	27.4	0.00e+00	0	32	101	1048576	42	6018
2026-01-06 03:19:21.71	106.14	23.52	-32.3	-32.7	27.4	0.00e+00	0	32	101	1048576	42	6032
2026-01-06 03:19:22.72	105.98	23.65	-31.8	-32.3	27.8	0.00e+00	0	32	101	1048576	42	5737
2026-01-06 03:19:23.73	105.82	23.78	-31.9	-32.4	27.8	0.00e+00	0	32	101	1048576	42	5768
2026-01-06 03:19:24.74	105.66	23.90	-32.0	-32.5	27.6	0.00e+00	0	32	101	1048576	42	5872
2026-01-06 03:19:25.75	105.50	24.03	-32.1	-32.6	27.5	0.00e+00	0	32	101	1048576	42	5897
2026-01-06 03:19:26.76	105.33	24.16	-32.0	-32.5	27.6	0.00e+00	0	32	101	1048576	42	5843
2026-01-06 03:19:27.77	105.17	24.29	-32.0	-32.5	27.6	0.00e+00	0	32	101	1048576	42	5875
2026-01-06 03:19:28.78	105.00	24.42	-32.1	-32.6	27.6	0.00e+00	0	32	101	1048576	42	5926
2026-01-06 03:19:29.79	104.83	24.55	-32.1	-32.6	27.6	0.00e+00	0	32	101	1048576	42	5915
2026-01-06 03:19:30.80	104.66	24.68	-32.1	-32.5	27.6	0.00e+00	0	32	101	1048576	42	5889
2026-01-06 03:19:31.81	104.49	24.81	-32.0	-32.5	27.6	0.00e+00	0	32	101	1048576	42	5853
2026-01-06 03:19:32.83	104.32	24.94	-32.0	-32.5	27.7	0.00e+00	0	32	101	1048576	42	5849
2026-01-06 03:19:33.84	104.15	25.07	-32.2	-32.7	27.6	0.00e+00	0	32	101	1048576	42	6002
2026-01-06 03:19:34.85	103.97	25.20	-32.1	-32.5	27.5	0.00e+00	0	32	101	1048576	42	5895
2026-01-06 03:19:35.86	103.79	25.33	-32.1	-32.6	27.5	0.00e+00	0	32	101	1048576	42	5938
2026-01-06 03:19:36.87	103.62	25.46	-32.0	-32.4	27.7	0.00e+00	0	32	101	1048576	42	5823
2026-01-06 03:19:37.88	103.44	25.59	-31.9	-32.4	27.8	0.00e+00	0	32	101	1048576	42	5779
2026-01-06 03:19:38.89	103.26	25.73	-31.6	-32.1	27.9	0.00e+00	0	32	101	1048576	42	5603
2026-01-06 03:19:39.90	103.07	25.86	-31.7	-32.2	27.8	0.00e+00	0	32	101	1048576	42	5672
2026-01-06 03:19:40.91	102.89	25.99	-31.8	-32.3	27.9	0.00e+00	0	32	101	1048576	42	5700
2026-01-06 03:19:41.92	102.70	26.12	-31.8	-32.2	27.8	0.00e+00	0	32	101	1048576	42	5692
2026-01-06 03:19:42.94	102.51	26.26	-31.8	-32.2	27.7	0.00e+00	0	32	101	1048576	42	5695
2026-01-06 03:19:43.95	102.33	26.39	-31.7	-32.2	27.8	0.00e+00	0	32	101	1048576	42	5663
2026-01-06 03:19:44.96	102.13	26.53	-31.8	-32.3	27.8	0.00e+00	0	32	101	1048576	42	5702
2026-01-06 03:19:45.97	101.94	26.66	-31.8	-32.2	27.8	0.00e+00	0	32	101	1048576	42	5682
2026-01-06 03:19:46.98	101.75	26.80	-31.8	-32.3	27.7	0.00e+00	0	32	101	1048576	42	5723
2026-01-06 03:19:47.99	101.55	26.93	-31.9	-32.4	27.8	0.00e+00	0	32	101	1048576	42	5762
2026-01-06 03:19:49.00	101.36	27.07	-31.9	-32.3	27.6	0.00e+00	0	32	101	1048576	42	5755
2026-01-06 03:19:50.02	101.16	27.20	-32.3	-32.8	27.5	0.00e+00	0	32	101	1048576	42	6046
2026-01-06 03:19:51.03	100.95	27.34	-32.3	-32.8	27.5	0.00e+00	0	32	101	1048576	42	6036
2026-01-06 03:19:52.04	100.75	27.48	-32.2	-32.7	27.5	0.00e+00	0	32	101	1048576	42	6007
2026-01-06 03:19:53.05	100.55	27.61	-32.4	-32.9	27.4	0.00e+00	0	32	101	1048576	42	6122
2026-01-06 03:19:54.06	100.34	27.75	-32.3	-32.8	27.5	0.00e+00	0	32	101	1048576	42	6075
2026-01-06 03:19:55.07	100.13	27.89	-32.3	-32.8	27.4	0.00e+00	0	32	101	1048576	42	6036
2026-01-06 03:19:56.08	99.92	28.02	-32.3	-32.8	27.4	0.00e+00	0	32	101	1048576	42	6083
2026-01-06 03:19:57.09	99.71	28.16	-32.1	-32.6	27.7	0.00e+00	0	32	101	1048576	42	5898
2026-01-06 03:19:58.10	99.50	28.30	-32.1	-32.6	27.6	0.00e+00	0	32	101	1048576	42	5943
2026-01-06 03:19:59.11	99.29	28.44	-32.0	-32.5	27.7	0.00e+00	0	32	101	1048576	42	5858
2026-01-06 03:20:00.13	99.07	28.58	-31.9	-32.4	27.6	0.00e+00	0	32	101	1048576	42	5796
2026-01-06 03:20:01.14	98.85	28.72	-32.0	-32.5	27.5	0.00e+00	0	32	101	1048576	42	5879
2026-01-06 03:20:02.15	98.63	28.85	-31.8	-32.3	27.8	0.00e+00	0	32	101	1048576	42	5739
2026-01-06 03:20:03.16	98.40	28.99	-31.8	-32.2	27.8	0.00e+00	0	32	101	1048576	42	5683
2026-01-06 03:20:04.17	98.18	29.13	-31.8	-32.3	27.8	0.00e+00	0	32	101	1048576	42	5732
2026-01-06 03:20:05.18	97.95	29.27	-31.8	-32.3	27.8	0.00e+00	0	32	101	1048576	42	5744
2026-01-06 03:20:06.19	97.72	29.41	-31.6	-32.1	27.9	0.00e+00	0	32	101	1048576	42	5582
2026-01-06 03:20:07.20	97.49	29.55	-31.6	-32.1	28.0	0.00e+00	0	32	101	1048576	42	5591
2026-01-06 03:20:08.21	97.26	29.69	-31.6	-32.0	28.0	0.00e+00	0	32	101	1048576	42	5561
2026-01-06 03:20:09.22	97.03	29.83	-31.5	-32.0	28.0	0.00e+00	0	32	101	1048576	42	5541
2026-01-06 03:20:10.24	96.79	29.97	-31.5	-32.0	28.1	0.00e+00	0	32	101	1048576	42	5532
2026-01-06 03:20:11.25	96.55	30.11	-31.4	-31.9	28.0	0.00e+00	0	32	101	1048576	42	5486
2026-01-06 03:20:12.26	96.31	30.25	-31.4	-31.9	28.1	0.00e+00	0	32	101	1048576	42	5477
2026-01-06 03:20:13.27	96.06	30.39	-31.3	-31.8	28.2	0.00e+00	0	32	101	1048576	42	5421
2026-01-06 03:20:14.28	95.82	30.53	-31.6	-32.0	27.9	0.00e+00	0	32	101	1048576	42	5564
2026-01-06 03:20:15.29	95.57	30.67	-31.0	-31.5	28.4	0.00e+00	0	32	101	1048576	42	5195
2026-01-06 03:20:16.30	95.32	30.82	-31.1	-31.5	28.3	0.00e+00	0	32	101	1048576	40	5884
2026-01-06 03:20:17.31	95.07	30.96	-31.2	-31.7	28.2	0.00e+00	0	33	101	1048576	40	6002
2026-01-06 03:20:18.32	94.82	31.10	-31.1	-31.6	28.3	0.00e+00	0	32	101	1048576	40	5910
2026-01-06 03:20:19.33	94.56	31.24	-31.1	-31.5	28.5	0.00e+00	0	32	101	1048576	40	5880
2026-01-06 03:20:20.34	94.30	31.38	-31.0	-31.5	28.5	0.00e+00	0	32	101	1048576	40	5835
2026-01-06 03:20:21.36	94.04	31.52	-31.1	-31.6	28.2	0.00e+00	0	32	101	1048576	40	5918
2026-01-06 03:20:22.37	93.77	31.66	-31.2	-31.7	28.2	0.00e+00	0	32	101	1048576	40	5998
2026-01-06 03:20:23.38	93.51	31.80	-31.3	-31.7	28.2	0.00e+00	0	32	101	1048576	40	6020
2026-01-06 03:20:24.39	93.24	31.94	-31.2	-31.6	28.2	0.00e+00	0	32	101	1048576	40	5945
2026-01-06 03:20:25.40	92.97	32.08	-31.0	-31.5	28.2	0.00e+00	0	32	101	1048576	40	5867
2026-01-06 03:20:26.41	92.70	32.22	-31.1	-31.6	28.2	0.00e+00	0	32	101	1048576	40	5936
2026-01-06 03:20:27.42	92.42	32.37	-31.2	-31.7	28.1	0.00e+00	0	32	101	1048576	40	5999
2026-01-06 03:20:28.43	92.15	32.51	-31.4	-31.9	28.1	0.00e+00	0	32	101	1048576	40	6108
2026-01-06 03:20:29.44	91.87	32.65	-31.3	-31.8	28.0	0.00e+00	0	32	101	1048576	40	6058
2026-01-06 03:20:30.45	91.59	32.79	-31.5	-31.9	27.9	0.00e+00	0	32	101	1048576	40	6173
2026-01-06 03:20:31.46	91.30	32.93	-31.4	-31.9	28.0	0.00e+00	0	32	101	1048576	40	6137
2026-01-06 03:20:32.48	91.01	33.07	-31.7	-32.1	27.8	0.00e+00	0	32	101	1048576	40	6305
2026-01-06 03:20:33.49	90.72	33.21	-31.6	-32.1	28.0	0.00e+00	0	32	101	1048576	40	6271
2026-01-06 03:20:34.50	90.43	33.35	-31.6	-32.0	27.9	0.00e+00	0	32	101	1048576	40	6239
2026-01-06 03:20:35.51	90.13	33.49	-31.4	-31.9	28.0	0.00e+00	0	32	101	1048576	40	6117
2026-01-06 03:20:36.52	89.84	33.63	-31.1	-31.6	28.2	0.00e+00	0	32	101	1048576	40	5906
2026-01-06 03:20:37.53	89.54	33.76	-31.1	-31.6	28.2	0.00e+00	0	32	101	1048576	40	5915
2026-01-06 03:20:38.54	89.24	33.90	-31.2	-31.7	28.3	0.00e+00	0	32	101	1048576	40	5968
2026-01-06 03:20:39.55	88.93	34.04	-31.2	-31.6	28.3	0.00e+00	0	32	101	1048576	40	5954
2026-01-06 03:20:40.56	88.62	34.18	-31.2	-31.7	28.2	0.00e+00	0	32	101	1048576	40	6013
2026-01-06 03:20:41.57	88.31	34.32	-31.5	-32.0	28.2	0.00e+00	0	32	101	1048576	40	6188
2026-01-06 03:20:42.59	88.00	34.46	-31.6	-32.1	28.0	0.00e+00	0	32	101	1048576	40	6303
2026-01-06 03:20:43.60	87.68	34.59	-31.9	-32.3	27.9	0.00e+00	0	32	101	1048576	40	6451
2026-01-06 03:20:44.61	87.36	34.73	-31.5	-32.0	28.1	0.00e+00	0	32	101	1048576	40	6181
2026-01-06 03:20:45.62	87.04	34.87	-31.5	-31.9	28.0	0.00e+00	0	32	101	1048576	40	6163
2026-01-06 03:20:46.63	86.72	35.00	-31.5	-31.9	28.1	0.00e+00	0	32	101	1048576	40	6172
2026-01-06 03:20:47.64	86.39	35.14	-31.3	-31.8	28.2	0.00e+00	0	32	101	1048576	40	6042
2026-01-06 03:20:48.65	86.06	35.27	-31.2	-31.7	28.3	0.00e+00	0	32	101	1048576	40	5990
2026-01-06 03:20:49.66	85.73	35.40	-31.1	-31.6	28.4	0.00e+00	0	32	101	1048576	40	5908
2026-01-06 03:20:50.67	85.40	35.54	-31.1	-31.5	28.4	0.00e+00	0	32	101	1048576	40	5887
2026-01-06 03:20:51.68	85.06	35.67	-31.1	-31.6	28.4	0.00e+00	0	32	101	1048576	40	5932
2026-01-06 03:20:52.69	84.72	35.80	-31.3	-31.7	28.3	0.00e+00	0	32	101	1048576	40	6028
2026-01-06 03:20:53.70	84.38	35.93	-31.3	-31.8	28.2	0.00e+00	0	32	101	1048576	40	6078
2026-01-06 03:20:54.71	84.03	36.07	-31.3	-31.8	28.2	0.00e+00	0	32	101	1048576	40	6083
2026-01-06 03:20:55.73	83.68	36.20	-31.3	-31.7	28.1	0.00e+00	0	32	101	1048576	40	6033
2026-01-06 03:20:56.74	83.33	36.33	-31.4	-31.8	28.3	0.00e+00	0	32	101	1048576	40	6099
2026-01-06 03:20:57.75	82.98	36.46	-31.4	-31.9	28.2	0.00e+00	0	32	101	1048576	40	6110
2026-01-06 03:20:58.76	82.62	36.58	-31.5	-32.0	28.2	0.00e+00	0	32	101	1048576	40	6193
2026-01-06 03:20:59.77	82.26	36.71	-31.5	-31.9	28.1	0.00e+00	0	32	101	1048576	40	6172
2026-01-06 03:21:00.78	81.90	36.84	-31.5	-32.0	28.1	0.00e+00	0	32	101	1048576	40	6181
2026-01-06 03:21:01.79	81.53	36.96	-31.4	-31.9	28.2	0.00e+00	0	32	101	1048576	40	6152
2026-01-06 03:21:02.80	81.16	37.09	-31.4	-31.8	28.2	0.00e+00	0	32	101	1048576	40	6085
2026-01-06 03:21:03.81	80.79	37.21	-31.4	-31.9	28.1	0.00e+00	0	32	101	1048576	40	6153
2026-01-06 03:21:04.82	80.42	37.34	-31.3	-31.8	28.3	0.00e+00	0	32	101	1048576	40	6056
2026-01-06 03:21:05.83	80.04	37.46	-31.2	-31.7	28.3	0.00e+00	0	32	101	1048576	40	5984
2026-01-06 03:21:06.85	79.66	37.58	-31.2	-31.7	28.2	0.00e+00	0	32	101	1048576	40	5970
2026-01-06 03:21:07.85	79.28	37.70	-31.0	-31.4	28.4	0.00e+00	0	32	101	1048576	40	5809
2026-01-06 03:21:08.86	78.90	37.82	-31.3	-31.8	28.2	0.00e+00	0	32	101	1048576	40	6077
2026-01-06 03:21:09.88	78.50	37.94	-31.3	-31.7	28.3	0.00e+00	0	32	101	1048576	40	6014
2026-01-06 03:21:10.89	78.11	38.06	-31.4	-31.9	28.1	0.00e+00	0	32	101	1048576	40	6123
2026-01-06 03:21:11.90	77.72	38.17	-31.7	-32.2	28.0	0.00e+00	0	32	101	1048576	40	6368
2026-01-06 03:21:12.91	77.32	38.29	-32.0	-32.4	27.7	0.00e+00	0	32	101	1048576	40	6529
2026-01-06 03:21:13.92	76.92	38.40	-32.1	-32.6	27.7	0.00e+00	0	32	101	1048576	42	5922
2026-01-06 03:21:14.93	76.52	38.51	-32.2	-32.7	27.5	0.00e+00	0	32	101	1048576	42	5972
2026-01-06 03:21:15.95	76.11	38.62	-32.2	-32.7	27.6	0.00e+00	0	32	101	1048576	42	5998
2026-01-06 03:21:16.96	75.71	38.73	-32.2	-32.7	27.6	0.00e+00	0	32	101	1048576	42	5988
2026-01-06 03:21:17.97	75.30	38.84	-32.2	-32.7	27.6	0.00e+00	0	32	101	1048576	42	6017
2026-01-06 03:21:18.98	74.88	38.95	-31.6	-32.1	28.0	0.00e+00	0	32	101	1048576	42	5616
2026-01-06 03:21:19.99	74.47	39.06	-31.5	-31.9	28.1	0.00e+00	0	32	101	1048576	42	5493
2026-01-06 03:21:21.00	74.05	39.16	-31.5	-32.0	28.1	0.00e+00	0	32	101	1048576	42	5529
2026-01-06 03:21:22.01	73.63	39.26	-31.5	-32.0	28.2	0.00e+00	0	32	101	1048576	42	5503
2026-01-06 03:21:23.02	73.20	39.36	-31.4	-31.9	28.1	0.00e+00	0	32	101	1048576	42	5472
2026-01-06 03:21:24.03	72.78	39.46	-31.4	-31.8	28.2	0.00e+00	0	32	101	1048576	42	5436
2026-01-06 03:21:25.04	72.35	39.56	-31.7	-32.2	28.1	0.00e+00	0	32	101	1048576	42	5663
2026-01-06 03:21:26.05	71.92	39.66	-31.8	-32.3	27.9	0.00e+00	0	32	101	1048576	42	5722
2026-01-06 03:21:27.07	71.48	39.75	-31.8	-32.2	28.0	0.00e+00	0	32	101	1048576	42	5683
2026-01-06 03:21:28.08	71.04	39.85	-31.8	-32.3	27.9	0.00e+00	0	33	101	1048576	42	5738
2026-01-06 03:21:29.09	70.60	39.94	-32.0	-32.5	27.8	0.00e+00	0	32	101	1048576	42	5846
2026-01-06 03:21:30.10	70.16	40.03	-32.0	-32.5	27.6	0.00e+00	0	32	101	1048576	42	5862
2026-01-06 03:21:31.11	69.72	40.12	-32.0	-32.5	27.7	0.00e+00	0	33	101	1048576	42	5879
2026-01-06 03:21:32.12	69.27	40.20	-32.0	-32.5	27.8	0.00e+00	0	32	101	1048576	42	5885
2026-01-06 03:21:33.13	68.82	40.29	-31.8	-32.3	27.8	0.00e+00	0	32	101	1048576	42	5697
2026-01-06 03:21:34.14	68.37	40.37	-31.6	-32.1	28.0	0.00e+00	0	32	101	1048576	42	5586
2026-01-06 03:21:35.15	67.92	40.45	-31.5	-32.0	28.2	0.00e+00	0	32	101	1048576	42	5504
2026-01-06 03:21:36.17	67.46	40.53	-31.4	-31.9	28.1	0.00e+00	0	32	101	1048576	42	5454
2026-01-06 03:21:37.18	67.00	40.61	-31.3	-31.7	28.2	0.00e+00	0	32	101	1048576	42	5372
2026-01-06 03:21:38.19	66.54	40.69	-31.2	-31.7	28.4	0.00e+00	0	32	101	1048576	42	5348
2026-01-06 03:21:39.20	66.08	40.76	-31.2	-31.7	28.3	0.00e+00	0	32	101	1048576	42	5323
2026-01-06 03:21:40.21	65.61	40.83	-31.4	-31.8	28.2	0.00e+00	0	32	101	1048576	42	5427
2026-01-06 03:21:41.22	65.15	40.90	-31.5	-31.9	28.2	0.00e+00	0	32	101	1048576	42	5495
2026-01-06 03:21:42.23	64.68	40.97	-31.7	-32.2	28.0	0.00e+00	0	32	101	1048576	42	5633
2026-01-06 03:21:43.24	64.21	41.03	-31.7	-32.1	28.0	0.00e+00	0	32	101	1048576	42	5614
2026-01-06 03:21:44.25	63.74	41.10	-31.7	-32.2	27.9	0.00e+00	0	32	101	1048576	42	5668
2026-01-06 03:21:45.26	63.26	41.16	-31.8	-32.3	27.9	0.00e+00	0	32	101	1048576	42	5730
2026-01-06 03:21:46.28	62.78	41.22	-31.8	-32.2	27.9	0.00e+00	0	32	101	1048576	42	5694
2026-01-06 03:21:47.29	62.30	41.28	-31.6	-32.1	28.0	0.00e+00	0	32	101	1048576	42	5597
2026-01-06 03:21:48.30	61.83	41.33	-31.7	-32.1	28.0	0.00e+00	0	32	101	1048576	42	5630
2026-01-06 03:21:49.31	61.34	41.38	-31.5	-32.0	28.0	0.00e+00	0	32	101	1048576	42	5540
2026-01-06 03:21:50.32	60.86	41.43	-31.6	-32.1	28.0	0.00e+00	0	32	101	1048576	42	5608
2026-01-06 03:21:51.33	60.38	41.48	-31.6	-32.0	28.1	0.00e+00	0	32	101	1048576	42	5555
2026-01-06 03:21:52.34	59.89	41.53	-31.6	-32.1	28.0	0.00e+00	0	32	101	1048576	42	5602
2026-01-06 03:21:53.35	59.41	41.57	-31.5	-32.0	28.1	0.00e+00	0	32	101	1048576	42	5540
2026-01-06 03:21:54.36	58.92	41.61	-31.5	-32.0	28.1	0.00e+00	0	32	101	1048576	42	5525
2026-01-06 03:21:55.37	58.43	41.65	-31.5	-31.9	28.1	0.00e+00	0	32	101	1048576	42	5486
2026-01-06 03:21:56.39	57.94	41.69	-31.3	-31.8	28.2	0.00e+00	0	32	101	1048576	42	5409
2026-01-06 03:21:57.40	57.44	41.72	-31.2	-31.6	28.3	0.00e+00	0	32	101	1048576	42	5294
2026-01-06 03:21:58.41	56.95	41.75	-31.1	-31.6	28.5	0.00e+00	0	32	101	1048576	42	5260
2026-01-06 03:21:59.42	56.46	41.78	-31.0	-31.5	28.5	0.00e+00	0	32	101	1048576	40	5848
2026-01-06 03:22:00.43	55.96	41.81	-31.1	-31.5	28.4	0.00e+00	0	32	101	1048576	40	5891
2026-01-06 03:22:01.44	55.47	41.84	-31.1	-31.6	28.3	0.00e+00	0	32	101	1048576	40	5933
2026-01-06 03:22:02.45	54.97	41.86	-31.1	-31.6	28.4	0.00e+00	0	32	101	1048576	40	5900
2026-01-06 03:22:03.46	54.48	41.88	-31.2	-31.7	28.1	0.00e+00	0	32	101	1048576	40	5996
2026-01-06 03:22:04.47	53.98	41.90	-31.2	-31.7	28.2	0.00e+00	0	32	101	1048576	40	6010
2026-01-06 03:22:05.48	53.48	41.91	-31.3	-31.8	28.2	0.00e+00	0	32	101	1048576	40	6074
2026-01-06 03:22:06.49	52.99	41.92	-31.4	-31.9	28.1	0.00e+00	0	32	101	1048576	40	6145
2026-01-06 03:22:07.50	52.49	41.93	-31.5	-32.0	28.1	0.00e+00	0	32	101	1048576	40	6204
2026-01-06 03:22:08.51	51.99	41.94	-31.5	-31.9	28.1	0.00e+00	0	32	101	1048576	40	6170
2026-01-06 03:22:09.53	51.49	41.95	-31.2	-31.7	28.3	0.00e+00	0	32	101	1048576	40	5998
2026-01-06 03:22:10.54	50.99	41.95	-31.1	-31.6	28.4	0.00e+00	0	32	101	1048576	40	5918
2026-01-06 03:22:11.55	50.49	41.95	-31.2	-31.6	28.2	0.00e+00	0	32	101	1048576	40	5958
2026-01-06 03:22:12.56	49.99	41.95	-31.3	-31.7	28.3	0.00e+00	0	32	101	1048576	40	6028
2026-01-06 03:22:13.57	49.49	41.94	-31.3	-31.8	28.3	0.00e+00	0	32	101	1048576	40	6072
2026-01-06 03:22:14.58	49.00	41.94	-31.4	-31.8	28.3	0.00e+00	0	32	101	1048576	40	6097
2026-01-06 03:22:15.59	48.50	41.93	-31.4	-31.8	28.2	0.00e+00	0	32	101	1048576	40	6095
2026-01-06 03:22:16.60	48.00	41.92	-31.2	-31.7	28.3	0.00e+00	0	32	101	1048576	40	5996
2026-01-06 03:22:17.61	47.50	41.90	-31.3	-31.8	28.2	0.00e+00	0	32	101	1048576	40	6041
2026-01-06 03:22:18.62	47.01	41.89	-31.3	-31.8	28.2	0.00e+00	0	32	101	1048576	40	6055
2026-01-06 03:22:19.64	46.50	41.87	-31.3	-31.7	28.3	0.00e+00	0	32	101	1048576	40	6017
2026-01-06 03:22:20.65	46.01	41.84	-31.1	-31.6	28.3	0.00e+00	0	32	101	1048576	40	5908
2026-01-06 03:22:21.66	45.51	41.82	-31.1	-31.6	28.4	0.00e+00	0	32	101	1048576	40	5918
2026-01-06 03:22:22.67	45.02	41.79	-31.2	-31.6	28.3	0.00e+00	0	32	101	1048576	40	5951
2026-01-06 03:22:23.68	44.53	41.77	-31.2	-31.7	28.1	0.00e+00	0	32	101	1048576	40	6011
2026-01-06 03:22:24.69	44.03	41.73	-31.3	-31.8	28.2	0.00e+00	0	32	101	1048576	40	6057
2026-01-06 03:22:25.70	43.54	41.70	-31.2	-31.7	28.3	0.00e+00	0	32	101	1048576	40	5974
2026-01-06 03:22:26.71	43.05	41.67	-31.3	-31.7	28.1	0.00e+00	0	32	101	1048576	40	6021
2026-01-06 03:22:27.72	42.56	41.63	-31.4	-31.9	27.8	0.00e+00	0	32	101	1048576	40	6120
2026-01-06 03:22:28.73	42.08	41.59	-31.7	-32.1	27.9	0.00e+00	0	32	101	1048576	40	6298
2026-01-06 03:22:29.74	41.59	41.54	-31.7	-32.2	27.8	0.00e+00	0	32	101	1048576	40	6375
2026-01-06 03:22:30.75	41.10	41.50	-31.8	-32.2	27.7	0.00e+00	0	32	101	1048576	40	6380
2026-01-06 03:22:31.77	40.62	41.45	-31.8	-32.3	27.8	0.00e+00	0	32	101	1048576	40	6391
2026-01-06 03:22:32.77	40.14	41.40	-31.8	-32.3	27.8	0.00e+00	0	32	101	1048576	40	6411
2026-01-06 03:22:33.79	39.65	41.35	-31.5	-32.0	28.1	0.00e+00	0	32	101	1048576	40	6179
2026-01-06 03:22:34.80	39.17	41.30	-31.5	-32.0	28.1	0.00e+00	0	32	101	1048576	40	6237
2026-01-06 03:22:35.81	38.70	41.24	-31.6	-32.0	28.0	0.00e+00	0	32	101	1048576	40	6239
2026-01-06 03:22:36.82	38.22	41.18	-31.6	-32.1	28.0	0.00e+00	0	32	101	1048576	40	6264
2026-01-06 03:22:37.83	37.75	41.12	-31.8	-32.3	27.9	0.00e+00	0	32	101	1048576	40	6398
2026-01-06 03:22:38.84	37.27	41.06	-31.7	-32.2	27.9	0.00e+00	0	32	101	1048576	40	6359
2026-01-06 03:22:39.85	36.80	40.99	-31.6	-32.0	27.9	0.00e+00	0	32	101	1048576	40	6234
2026-01-06 03:22:40.86	36.33	40.93	-31.4	-31.8	28.2	0.00e+00	0	32	101	1048576	40	6099
2026-01-06 03:22:41.87	35.87	40.86	-31.5	-32.0	28.1	0.00e+00	0	32	101	1048576	40	6209
2026-01-06 03:22:42.88	35.40	40.79	-31.3	-31.8	28.3	0.00e+00	0	32	101	1048576	40	6078
2026-01-06 03:22:43.89	34.94	40.71	-31.4	-31.8	28.2	0.00e+00	0	32	101	1048576	40	6098
2026-01-06 03:22:44.90	34.48	40.64	-31.3	-31.8	28.2	0.00e+00	0	32	101	1048576	40	6079
2026-01-06 03:22:45.91	34.02	40.56	-31.2	-31.6	28.4	0.00e+00	0	32	101	1048576	40	5946
2026-01-06 03:22:46.93	33.56	40.48	-31.1	-31.6	28.3	0.00e+00	0	32	101	1048576	40	5928
2026-01-06 03:22:47.94	33.11	40.40	-31.1	-31.6	28.4	0.00e+00	0	32	101	1048576	40	5925
2026-01-06 03:22:48.95	32.66	40.32	-31.1	-31.6	28.3	0.00e+00	0	32	101	1048576	40	5899
2026-01-06 03:22:49.96	32.21	40.24	-31.1	-31.6	28.4	0.00e+00	0	32	101	1048576	40	5910
2026-01-06 03:22:50.97	31.76	40.15	-31.2	-31.7	28.3	0.00e+00	0	32	101	1048576	40	5990
2026-01-06 03:22:51.98	31.32	40.06	-31.4	-31.9	28.2	0.00e+00	0	32	101	1048576	40	6121
2026-01-06 03:22:52.99	30.88	39.97	-31.4	-31.9	28.1	0.00e+00	0	32	101	1048576	40	6148
2026-01-06 03:22:54.00	30.44	39.88	-31.5	-32.0	28.0	0.00e+00	0	32	101	1048576	40	6202
2026-01-06 03:22:55.02	29.99	39.79	-31.4	-31.9	28.1	0.00e+00	0	32	101	1048576	40	6124
2026-01-06 03:22:56.03	29.56	39.70	-31.4	-31.9	28.2	0.00e+00	0	32	101	1048576	40	6128
2026-01-06 03:22:57.04	29.13	39.60	-31.2	-31.7	28.2	0.00e+00	0	32	101	1048576	40	5981
2026-01-06 03:22:58.05	28.70	39.50	-31.1	-31.5	28.3	0.00e+00	0	32	101	1048576	40	5896
2026-01-06 03:22:59.06	28.27	39.40	-31.2	-31.6	28.3	0.00e+00	0	32	101	1048576	40	5944
2026-01-06 03:23:00.07	27.85	39.30	-31.3	-31.8	28.4	0.00e+00	0	32	101	1048576	40	6043
2026-01-06 03:23:01.08	27.43	39.20	-31.5	-32.0	28.0	0.00e+00	0	32	101	1048576	40	6178
2026-01-06 03:23:02.09	27.01	39.10	-31.2	-31.6	28.3	0.00e+00	0	32	101	1048576	40	5940
2026-01-06 03:23:03.11	26.59	38.99	-31.3	-31.7	28.4	0.00e+00	0	32	101	1048576	40	6033
2026-01-06 03:23:04.12	26.18	38.88	-31.1	-31.5	28.4	0.00e+00	0	32	101	1048576	40	5893
2026-01-06 03:23:05.13	25.77	38.78	-31.1	-31.6	28.4	0.00e+00	0	32	101	1048576	40	5938
2026-01-06 03:23:06.14	25.36	38.67	-30.9	-31.4	28.5	0.00e+00	0	32	101	1048576	40	5775
2026-01-06 03:23:07.15	24.95	38.56	-31.0	-31.5	28.4	0.00e+00	0	32	101	1048576	40	5832
2026-01-06 03:23:08.16	24.55	38.45	-31.0	-31.5	28.5	0.00e+00	0	32	101	1048576	40	5844
2026-01-06 03:23:09.17	24.15	38.33	-31.1	-31.6	28.4	0.00e+00	0	32	101	1048576	40	5909
2026-01-06 03:23:10.18	23.76	38.22	-31.2	-31.6	28.3	0.00e+00	0	32	101	1048576	40	5947
2026-01-06 03:23:11.19	23.36	38.10	-31.1	-31.6	28.2	0.00e+00	0	32	101	1048576	40	5901
2026-01-06 03:23:12.20	22.97	37.99	-31.1	-31.6	28.4	0.00e+00	0	32	101	1048576	40	5923
2026-01-06 03:23:13.21	22.58	37.87	-31.2	-31.7	28.3	0.00e+00	0	32	101	1048576	40	5965
2026-01-06 03:23:14.22	22.20	37.75	-31.4	-31.8	28.3	0.00e+00	0	32	101	1048576	40	6080
2026-01-06 03:23:15.24	21.81	37.63	-31.2	-31.7	28.3	0.00e+00	0	32	101	1048576	40	5977
2026-01-06 03:23:16.25	21.43	37.51	-31.4	-31.8	28.0	0.00e+00	0	32	101	1048576	40	6082
2026-01-06 03:23:17.26	21.05	37.39	-31.2	-31.6	28.4	0.00e+00	0	32	101	1048576	40	5943
2026-01-06 03:23:18.27	20.68	37.27	-31.2	-31.6	28.2	0.00e+00	0	32	101	1048576	40	5958
2026-01-06 03:23:19.28	20.31	37.14	-31.1	-31.5	28.4	0.00e+00	0	32	101	1048576	40	5873
2026-01-06 03:23:20.29	19.94	37.02	-31.1	-31.5	28.4	0.00e+00	0	33	101	1048576	40	5889
2026-01-06 03:23:21.30	19.58	36.89	-31.1	-31.6	28.3	0.00e+00	0	32	101	1048576	40	5912
2026-01-06 03:23:22.31	19.21	36.77	-31.1	-31.6	28.3	0.00e+00	0	32	101	1048576	40	5917
2026-01-06 03:23:23.32	18.85	36.64	-31.3	-31.7	28.1	0.00e+00	0	32	101	1048576	40	6022
2026-01-06 03:23:24.33	18.50	36.51	-31.3	-31.8	28.3	0.00e+00	0	32	101	1048576	40	6076
2026-01-06 03:23:25.35	18.14	36.38	-31.5	-32.0	28.1	0.00e+00	0	32	101	1048576	40	6192
2026-01-06 03:23:26.35	17.79	36.26	-31.6	-32.1	28.0	0.00e+00	0	32	101	1048576	40	6249
2026-01-06 03:23:27.37	17.44	36.12	-31.5	-31.9	28.1	0.00e+00	0	32	101	1048576	40	6161
2026-01-06 03:23:28.38	17.09	35.99	-31.3	-31.7	28.3	0.00e+00	0	32	101	1048576	40	6026
2026-01-06 03:23:29.39	16.75	35.86	-31.2	-31.6	28.3	0.00e+00	0	33	101	1048576	40	5949
2026-01-06 03:23:30.40	16.41	35.73	-31.3	-31.8	28.2	0.00e+00	0	33	101	1048576	40	6063
2026-01-06 03:23:31.41	16.07	35.60	-31.2	-31.7	28.3	0.00e+00	0	32	101	1048576	40	6013
2026-01-06 03:23:32.42	15.74	35.47	-31.1	-31.5	28.4	0.00e+00	0	32	101	1048576	40	5879
2026-01-06 03:23:33.43	15.41	35.33	-31.0	-31.5	28.3	0.00e+00	0	32	101	1048576	40	5872
2026-01-06 03:23:34.44	15.08	35.20	-31.1	-31.5	28.4	0.00e+00	0	32	101	1048576	40	5884
2026-01-06 03:23:35.45	14.75	35.06	-30.9	-31.4	28.6	0.00e+00	0	32	101	1048576	40	5797
2026-01-06 03:23:36.47	14.42	34.93	-31.2	-31.7	28.2	0.00e+00	0	32	101	1048576	40	6002
2026-01-06 03:23:37.48	14.10	34.79	-30.9	-31.4	28.6	0.00e+00	0	32	101	1048576	40	5768
2026-01-06 03:23:38.49	13.79	34.66	-31.1	-31.6	28.4	0.00e+00	0	32	101	1048576	40	5910
2026-01-06 03:23:39.50	13.47	34.52	-31.2	-31.7	28.2	0.00e+00	0	32	101	1048576	40	6009
2026-01-06 03:23:40.51	13.16	34.38	-31.4	-31.9	28.0	0.00e+00	0	32	101	1048576	40	6109
2026-01-06 03:23:41.52	12.85	34.25	-31.3	-31.7	28.3	0.00e+00	0	32	101	1048576	40	6024
2026-01-06 03:23:42.53	12.54	34.11	-31.1	-31.6	28.4	0.00e+00	0	32	101	1048576	40	5907
2026-01-06 03:23:43.54	12.23	33.97	-31.0	-31.5	28.5	0.00e+00	0	33	101	1048576	40	5840
2026-01-06 03:23:44.55	11.93	33.83	-30.9	-31.4	28.5	0.00e+00	0	32	101	1048576	40	5769
2026-01-06 03:23:45.56	11.63	33.69	-30.7	-31.2	28.7	0.00e+00	0	32	101	1048576	40	5653
2026-01-06 03:23:46.57	11.33	33.56	-30.9	-31.3	28.6	0.00e+00	0	32	101	1048576	40	5748
2026-01-06 03:23:47.58	11.04	33.42	-30.9	-31.4	28.5	0.00e+00	0	32	101	1048576	40	5765
2026-01-06 03:23:48.59	10.75	33.28	-31.1	-31.5	28.4	0.00e+00	0	32	101	1048576	40	5869
2026-01-06 03:23:49.61	10.45	33.14	-31.3	-31.8	27.6	0.00e+00	0	32	101	1048576	40	6038
2026-01-06 03:23:50.62	10.17	33.00	-31.3	-31.8	28.3	0.00e+00	0	33	101	1048576	40	6054
2026-01-06 03:23:51.63	9.88	32.86	-31.4	-31.8	28.2	0.00e+00	0	32	101	1048576	40	6094
2026-01-06 03:23:52.64	9.60	32.72	-31.4	-31.9	28.2	0.00e+00	0	32	101	1048576	40	6109
2026-01-06 03:23:53.65	9.32	32.58	-31.2	-31.7	28.2	0.00e+00	0	32	101	1048576	40	5983
2026-01-06 03:23:54.66	9.04	32.44	-31.4	-31.8	28.1	0.00e+00	0	32	101	1048576	40	6091
2026-01-06 03:23:55.67	8.77	32.30	-31.2	-31.6	28.4	0.00e+00	0	32	101	1048576	40	5944
2026-01-06 03:23:56.68	8.50	32.16	-31.1	-31.6	28.4	0.00e+00	0	32	101	1048576	40	5899
2026-01-06 03:23:57.69	8.23	32.02	-31.2	-31.7	28.4	0.00e+00	0	32	101	1048576	40	5965
2026-01-06 03:23:58.70	7.96	31.88	-31.0	-31.5	28.5	0.00e+00	0	33	101	1048576	40	5833
2026-01-06 03:23:59.72	7.69	31.74	-31.0	-31.5	28.4	0.00e+00	0	32	101	1048576	40	5834
2026-01-06 03:24:00.73	7.43	31.60	-31.1	-31.6	28.4	0.00e+00	0	32	101	1048576	40	5899
2026-01-06 03:24:01.74	7.17	31.46	-31.2	-31.7	28.3	0.00e+00	0	32	101	1048576	40	5983
2026-01-06 03:24:02.75	6.91	31.32	-30.9	-31.4	28.5	0.00e+00	0	33	101	1048576	40	5776
2026-01-06 03:24:03.76	6.65	31.17	-30.8	-31.2	28.6	0.00e+00	0	32	101	1048576	40	5691
2026-01-06 03:24:04.77	6.40	31.03	-30.8	-31.2	28.5	0.00e+00	0	32	101	1048576	40	5680
2026-01-06 03:24:05.76	6.15	30.90	-30.6	-31.1	28.7	0.00e+00	0	32	101	1048576	40	5573
2026-01-06 03:24:06.77	5.90	30.76	-30.6	-31.1	28.7	0.00e+00	0	32	101	1048576	40	5586
2026-01-06 03:24:07.78	5.65	30.62	-30.7	-31.2	28.7	0.00e+00	0	32	101	1048576	40	5644
2026-01-06 03:24:08.80	5.41	30.47	-30.9	-31.4	28.5	0.00e+00	0	32	101	1048576	40	5777
2026-01-06 03:24:09.81	5.16	30.33	-31.1	-31.5	28.2	0.00e+00	0	32	101	1048576	40	5890
2026-01-06 03:24:10.82	4.92	30.19	-31.1	-31.6	28.3	0.00e+00	0	33	101	1048576	40	5903
2026-01-06 03:24:11.83	4.68	30.06	-31.2	-31.7	28.2	0.00e+00	0	32	101	1048576	40	5980
2026-01-06 03:24:12.84	4.45	29.92	-31.3	-31.7	28.2	0.00e+00	0	32	101	1048576	40	6020
2026-01-06 03:24:13.85	4.21	29.78	-31.5	-31.9	28.0	0.00e+00	0	32	101	1048576	40	6168
2026-01-06 03:24:14.86	3.98	29.64	-31.6	-32.1	28.0	0.00e+00	0	32	101	1048576	40	6295
2026-01-06 03:24:15.87	3.75	29.50	-31.7	-32.2	27.8	0.00e+00	0	32	101	1048576	40	6354
2026-01-06 03:24:16.88	3.52	29.36	-31.8	-32.3	27.7	0.00e+00	0	32	101	1048576	40	6421
2026-01-06 03:24:17.90	3.29	29.22	-31.7	-32.2	27.9	0.00e+00	0	32	101	1048576	40	6356
2026-01-06 03:24:18.91	3.07	29.08	-31.6	-32.0	28.0	0.00e+00	0	32	101	1048576	40	6245
2026-01-06 03:24:19.92	2.84	28.94	-31.3	-31.8	28.2	0.00e+00	0	32	101	1048576	40	6064
2026-01-06 03:24:20.93	2.62	28.80	-31.4	-31.9	27.9	0.00e+00	0	32	101	1048576	40	6139
2026-01-06 03:24:21.94	2.40	28.66	-31.3	-31.7	28.2	0.00e+00	0	32	101	1048576	40	6031
2026-01-06 03:24:22.95	2.19	28.53	-31.2	-31.6	28.3	0.00e+00	0	32	101	1048576	40	5940
2026-01-06 03:24:23.96	1.97	28.39	-31.2	-31.7	27.9	0.00e+00	0	32	101	1048576	40	5982
2026-01-06 03:24:24.97	1.76	28.25	-31.1	-31.6	28.3	0.00e+00	0	32	101	1048576	40	5931
2026-01-06 03:24:25.99	1.54	28.11	-31.3	-31.7	28.2	0.00e+00	0	33	101	1048576	40	6022
2026-01-06 03:24:26.99	1.34	27.98	-31.3	-31.7	28.3	0.00e+00	0	32	101	1048576	40	6023
2026-01-06 03:24:28.00	1.13	27.84	-31.3	-31.8	28.2	0.00e+00	0	32	101	1048576	40	6049
2026-01-06 03:24:29.01	0.92	27.70	-31.3	-31.8	28.1	0.00e+00	0	32	101	1048576	40	6068
2026-01-06 03:24:30.03	0.72	27.57	-31.4	-31.9	28.1	0.00e+00	0	32	101	1048576	40	6115
2026-01-06 03:24:31.04	0.51	27.43	-31.4	-31.8	28.1	0.00e+00	0	32	101	1048576	40	6084
2026-01-06 03:24:32.05	0.31	27.29	-31.5	-31.9	28.0	0.00e+00	0	32	101	1048576	40	6164
2026-01-06 03:24:33.06	0.12	27.16	-31.4	-31.8	28.2	0.00e+00	0	32	101	1048576	40	6089
2026-01-06 03:24:34.07	359.92	27.02	-31.2	-31.7	28.3	0.00e+00	0	32	101	1048576	40	5988
2026-01-06 03:24:35.08	359.72	26.89	-31.4	-31.9	28.1	0.00e+00	0	32	101	1048576	40	6128
2026-01-06 03:24:36.09	359.53	26.76	-31.3	-31.8	28.1	0.00e+00	0	32	101	1048576	40	6042
2026-01-06 03:24:37.10	359.34	26.62	-31.4	-31.8	28.1	0.00e+00	0	32	101	1048576	40	6099
2026-01-06 03:24:38.11	359.15	26.49	-31.5	-32.0	28.0	0.00e+00	0	32	101	1048576	40	6202
2026-01-06 03:24:39.12	358.96	26.35	-31.6	-32.1	27.9	0.00e+00	0	32	101	1048576	40	6256
2026-01-06 03:24:40.14	358.77	26.22	-31.6	-32.1	27.9	0.00e+00	0	32	101	1048576	40	6252
2026-01-06 03:24:41.15	358.58	26.09	-31.6	-32.1	27.8	0.00e+00	0	32	101	1048576	40	6268
2026-01-06 03:24:42.16	358.40	25.95	-31.4	-31.9	28.0	0.00e+00	0	32	101	1048576	40	6121
2026-01-06 03:24:43.17	358.22	25.82	-31.4	-31.9	27.7	0.00e+00	0	32	101	1048576	40	6139
2026-01-06 03:24:44.18	358.03	25.69	-31.4	-31.9	28.0	0.00e+00	0	32	101	1048576	40	6108
2026-01-06 03:24:45.19	357.86	25.56	-31.4	-31.9	28.0	0.00e+00	0	32	101	1048576	40	6125
2026-01-06 03:24:46.20	357.68	25.43	-31.4	-31.8	27.7	0.00e+00	0	32	101	1048576	40	6097
2026-01-06 03:24:47.21	357.50	25.30	-31.5	-31.9	27.6	0.00e+00	0	32	101	1048576	40	6146
2026-01-06 03:24:48.23	357.32	25.16	-31.6	-32.0	27.9	0.00e+00	0	33	101	1048576	40	6234
2026-01-06 03:24:49.24	357.15	25.03	-31.4	-31.9	27.7	0.00e+00	0	32	101	1048576	40	6144
2026-01-06 03:24:50.25	356.98	24.90	-31.6	-32.1	27.6	0.00e+00	0	32	101	1048576	40	6289
2026-01-06 03:24:51.26	356.81	24.77	-31.5	-31.9	26.6	0.00e+00	0	32	101	1048576	40	6165
2026-01-06 03:24:52.27	356.64	24.64	-31.6	-32.1	27.8	0.00e+00	0	32	101	1048576	40	6254
2026-01-06 03:24:53.28	356.47	24.52	-31.6	-32.1	27.8	0.00e+00	0	32	101	1048576	40	6266
2026-01-06 03:24:54.29	356.30	24.39	-31.8	-32.3	27.6	0.00e+00	0	32	101	1048576	40	6414
2026-01-06 03:24:55.30	356.14	24.26	-31.9	-32.4	26.9	0.00e+00	0	32	101	1048576	40	6485
2026-01-06 03:24:56.31	355.98	24.13	-32.0	-32.4	27.6	0.00e+00	0	32	101	1048576	40	6525
2026-01-06 03:24:57.32	355.81	24.00	-31.9	-32.4	27.4	0.00e+00	0	32	101	1048576	40	6484
2026-01-06 03:24:58.33	355.65	23.88	-32.1	-32.6	27.1	0.00e+00	0	32	101	1048576	42	5937
2026-01-06 03:24:59.35	355.49	23.75	-31.7	-32.1	27.4	0.00e+00	0	32	101	1048576	42	5621
2026-01-06 03:25:00.36	355.33	23.62	-31.5	-32.0	27.6	0.00e+00	0	32	101	1048576	42	5537
2026-01-06 03:25:01.37	355.18	23.50	-31.6	-32.0	27.9	0.00e+00	0	32	101	1048576	42	5557
2026-01-06 03:25:02.38	355.02	23.37	-31.6	-32.0	27.8	0.00e+00	0	32	101	1048576	42	5544
2026-01-06 03:25:03.39	354.87	23.25	-31.3	-31.8	28.1	0.00e+00	0	32	101	1048576	42	5405
2026-01-06 03:25:04.40	354.71	23.12	-31.5	-32.0	27.9	0.00e+00	0	33	101	1048576	42	5528
2026-01-06 03:25:05.41	354.56	23.00	-31.5	-32.0	27.8	0.00e+00	0	32	101	1048576	42	5511
2026-01-06 03:25:06.42	354.41	22.87	-31.7	-32.2	27.8	0.00e+00	0	32	101	1048576	42	5657
2026-01-06 03:25:07.43	354.26	22.75	-31.7	-32.2	27.9	0.00e+00	0	32	101	1048576	42	5651
2026-01-06 03:25:08.45	354.11	22.63	-31.7	-32.2	27.7	0.00e+00	0	32	101	1048576	42	5674
2026-01-06 03:25:09.46	353.96	22.50	-31.8	-32.3	27.7	0.00e+00	0	32	101	1048576	42	5708
2026-01-06 03:25:10.47	353.82	22.38	-31.8	-32.3	27.7	0.00e+00	0	32	101	1048576	42	5703
2026-01-06 03:25:11.48	353.67	22.26	-31.7	-32.1	27.9	0.00e+00	0	32	101	1048576	42	5629
2026-01-06 03:25:12.49	353.53	22.14	-31.7	-32.2	27.7	0.00e+00	0	32	101	1048576	42	5672
2026-01-06 03:25:13.50	353.39	22.02	-31.7	-32.2	27.8	0.00e+00	0	32	101	1048576	42	5647
2026-01-06 03:25:14.51	353.25	21.90	-31.9	-32.3	27.7	0.00e+00	0	32	101	1048576	42	5757
2026-01-06 03:25:15.52	353.11	21.77	-32.0	-32.5	27.6	0.00e+00	0	32	101	1048576	42	5840
2026-01-06 03:25:16.53	352.97	21.65	-32.0	-32.5	27.6	0.00e+00	0	32	101	1048576	42	5864
2026-01-06 03:25:17.54	352.83	21.53	-32.1	-32.6	27.4	0.00e+00	0	32	101	1048576	42	5931
2026-01-06 03:25:18.55	352.69	21.42	-32.1	-32.6	27.5	0.00e+00	0	32	101	1048576	42	5912
2026-01-06 03:25:19.56	352.56	21.30	-32.1	-32.5	27.3	0.00e+00	0	32	101	1048576	42	5888
2026-01-06 03:25:20.57	352.42	21.18	-32.0	-32.4	27.7	0.00e+00	0	32	101	1048576	42	5810
2026-01-06 03:25:21.58	352.29	21.06	-31.9	-32.4	27.6	0.00e+00	0	32	101	1048576	42	5785
2026-01-06 03:25:22.60	352.15	20.94	-31.9	-32.4	27.4	0.00e+00	0	32	101	1048576	42	5813
2026-01-06 03:25:23.61	352.02	20.82	-32.0	-32.4	27.4	0.00e+00	0	32	101	1048576	42	5820
2026-01-06 03:25:24.62	351.89	20.71	-32.0	-32.4	27.6	0.00e+00	0	32	101	1048576	42	5822
2026-01-06 03:25:25.63	351.76	20.59	-32.0	-32.5	27.6	0.00e+00	0	32	101	1048576	42	5856
2026-01-06 03:25:26.64	351.63	20.47	-32.2	-32.7	27.5	0.00e+00	0	32	101	1048576	42	5968
2026-01-06 03:25:27.65	351.51	20.36	-32.3	-32.8	27.3	0.00e+00	0	32	101	1048576	42	6040
2026-01-06 03:25:28.66	351.38	20.24	-32.4	-32.9	27.2	0.00e+00	0	32	101	1048576	42	6155
2026-01-06 03:25:29.67	351.25	20.13	-32.6	-33.1	27.1	0.00e+00	0	32	101	1048576	42	6307
2026-01-06 03:25:30.68	351.13	20.01	-32.7	-33.2	27.1	0.00e+00	0	32	101	1048576	42	6338
2026-01-06 03:25:31.69	351.00	19.90	-32.8	-33.3	27.1	0.00e+00	0	32	101	1048576	42	6451
2026-01-06 03:25:32.71	350.88	19.78	-32.7	-33.2	27.1	0.00e+00	0	32	101	1048576	42	6347
2026-01-06 03:25:33.72	350.76	19.67	-32.6	-33.1	27.1	0.00e+00	0	32	101	1048576	42	6299
2026-01-06 03:25:34.73	350.64	19.56	-32.7	-33.2	27.1	0.00e+00	0	32	101	1048576	42	6320
2026-01-06 03:25:35.74	350.52	19.44	-32.6	-33.1	27.1	0.00e+00	0	33	101	1048576	42	6280
2026-01-06 03:25:36.75	350.40	19.33	-32.6	-33.1	27.1	0.00e+00	0	33	101	1048576	42	6291
2026-01-06 03:25:37.76	350.28	19.22	-32.7	-33.2	27.0	0.00e+00	0	32	101	1048576	42	6339
2026-01-06 03:25:38.77	350.16	19.11	-32.8	-33.3	26.9	0.00e+00	0	32	101	1048576	42	6442
2026-01-06 03:25:39.78	350.05	19.00	-33.0	-33.5	26.8	0.00e+00	0	32	101	1048576	42	6545
2026-01-06 03:25:40.79	349.93	18.88	-32.8	-33.3	27.0	0.00e+00	0	33	101	1048576	42	6432
2026-01-06 03:25:41.80	349.82	18.77	-32.9	-33.4	26.9	0.00e+00	0	32	101	1048576	42	6480
2026-01-06 03:25:42.82	349.70	18.66	-32.9	-33.4	27.0	0.00e+00	0	33	101	1048576	42	6466
2026-01-06 03:25:43.83	349.59	18.55	-32.8	-33.3	26.9	0.00e+00	0	32	101	1048576	42	6461
2026-01-06 03:25:44.84	349.48	18.44	-32.8	-33.3	26.9	0.00e+00	0	32	101	1048576	42	6462
2026-01-06 03:25:45.85	349.37	18.33	-33.0	-33.5	26.8	0.00e+00	0	32	101	1048576	42	6595
2026-01-06 03:25:46.86	349.26	18.23	-32.8	-33.3	26.9	0.00e+00	0	33	101	1048576	42	6437
2026-01-06 03:25:47.87	349.15	18.12	-32.9	-33.4	26.9	0.00e+00	0	32	101	1048576	42	6513
2026-01-06 03:25:48.88	349.04	18.01	-32.9	-33.4	26.9	0.00e+00	0	32	101	1048576	44	5780
2026-01-06 03:25:49.89	348.93	17.90	-32.6	-33.1	27.0	0.00e+00	0	32	101	1048576	44	5596
2026-01-06 03:25:50.90	348.82	17.79	-32.6	-33.0	27.2	0.00e+00	0	32	101	1048576	44	5566
2026-01-06 03:25:51.91	348.72	17.69	-32.7	-33.2	27.0	0.00e+00	0	32	101	1048576	44	5644
2026-01-06 03:25:52.92	348.61	17.58	-32.6	-33.0	27.0	0.00e+00	0	32	101	1048576	44	5563
2026-01-06 03:25:53.94	348.50	17.47	-32.5	-33.0	27.0	0.00e+00	0	32	101	1048576	44	5547
2026-01-06 03:25:54.94	348.40	17.37	-32.6	-33.1	27.0	0.00e+00	0	32	101	1048576	44	5596
2026-01-06 03:25:55.96	348.30	17.26	-32.6	-33.1	26.9	0.00e+00	0	32	101	1048576	44	5600
2026-01-06 03:25:56.97	348.19	17.16	-32.6	-33.1	27.0	0.00e+00	0	32	101	1048576	44	5606
2026-01-06 03:25:57.98	348.09	17.05	-32.7	-33.2	26.9	0.00e+00	0	32	101	1048576	44	5690
2026-01-06 03:25:58.99	347.99	16.95	-32.8	-33.3	26.8	0.00e+00	0	33	101	1048576	44	5747
2026-01-06 03:26:00.00	347.89	16.84	-32.9	-33.4	26.7	0.00e+00	0	33	101	1048576	44	5776
2026-01-06 03:26:01.01	347.79	16.74	-32.9	-33.4	26.8	0.00e+00	0	32	101	1048576	44	5810
2026-01-06 03:26:02.02	347.69	16.64	-33.0	-33.5	26.8	0.00e+00	0	32	101	1048576	44	5845
2026-01-06 03:26:03.03	347.59	16.53	-33.1	-33.6	26.7	0.00e+00	0	32	101	1048576	44	5916
2026-01-06 03:26:04.04	347.49	16.43	-33.2	-33.7	26.6	0.00e+00	0	32	101	1048576	44	5977
2026-01-06 03:26:05.05	347.40	16.33	-33.1	-33.6	26.6	0.00e+00	0	33	101	1048576	44	5952
2026-01-06 03:26:06.06	347.30	16.23	-33.1	-33.6	26.6	0.00e+00	0	32	101	1048576	44	5938
2026-01-06 03:26:07.07	347.21	16.13	-33.2	-33.7	26.5	0.00e+00	0	32	101	1048576	44	5983
2026-01-06 03:26:08.08	347.11	16.02	-33.2	-33.7	26.5	0.00e+00	0	33	101	1048576	44	5972
2026-01-06 03:26:09.09	347.02	15.92	-33.2	-33.8	26.5	0.00e+00	0	32	101	1048576	44	6034
2026-01-06 03:26:10.10	346.92	15.82	-33.1	-33.6	26.6	0.00e+00	0	32	101	1048576	44	5921
2026-01-06 03:26:11.11	346.83	15.72	-33.1	-33.6	26.5	0.00e+00	0	32	101	1048576	44	5930
2026-01-06 03:26:12.13	346.74	15.62	-33.2	-33.7	26.5	0.00e+00	0	32	101	1048576	44	6004
2026-01-06 03:26:13.14	346.65	15.52	-33.2	-33.7	26.5	0.00e+00	0	32	101	1048576	44	6023
2026-01-06 03:26:14.14	346.55	15.42	-33.3	-33.8	26.5	0.00e+00	0	32	101	1048576	44	6049
2026-01-06 03:26:15.16	346.46	15.32	-33.3	-33.8	26.5	0.00e+00	0	32	101	1048576	44	6037
2026-01-06 03:26:16.17	346.37	15.22	-33.3	-33.7	26.3	0.00e+00	0	32	101	1048576	44	6028
2026-01-06 03:26:17.18	346.28	15.13	-33.4	-33.8	26.3	0.00e+00	0	33	101	1048576	44	6094
2026-01-06 03:26:18.19	346.20	15.03	-33.4	-33.9	26.4	0.00e+00	0	32	101	1048576	44	6125
2026-01-06 03:26:19.20	346.11	14.93	-33.4	-33.9	26.3	0.00e+00	0	33	101	1048576	44	6149
2026-01-06 03:26:20.21	346.02	14.83	-33.6	-34.1	26.1	0.00e+00	0	32	101	1048576	44	6283
2026-01-06 03:26:21.22	345.93	14.74	-33.7	-34.2	26.1	0.00e+00	0	32	101	1048576	44	6356
2026-01-06 03:26:22.23	345.85	14.64	-33.7	-34.2	26.0	0.00e+00	0	33	101	1048576	44	6383
2026-01-06 03:26:23.24	345.76	14.54	-33.9	-34.4	25.9	0.00e+00	0	32	101	1048576	44	6489
