passes_logs/2026/01/27/PlanumMoscow/PlanumMoscow__20260127_003712_METEOR-M2_4_rec.log

#Pass ID: 20260127_003712_METEOR-M2 4
#Satellite: METEOR-M2 4
#Configuration: METEOR-M2 4
#Start time: 2026-01-27 00:37:17.569603

#LorettStation: 1.0.0 05.05.2024
#Station: PlanumMoscow
#Location: 37.6253844 lon 55.6713361 lat
#TLE: 1 59051U 24039A   25293.94737965  .00000087  00000+0  58459-4 0  9998
#TLE: 2 59051  98.6671 251.7071 0007726 135.4772 224.7028 14.22388966 85257

#Time	Az	El	Level	SNR
2026-01-27 00:40:56.012001	30.5	28.3	-59.0	3.9
2026-01-27 00:40:57.135255	30.6	28.5	-59.2	3.8
2026-01-27 00:40:58.256020	30.7	28.7	-59.1	4.1
2026-01-27 00:40:59.376273	30.9	28.9	-59.0	4.1
2026-01-27 00:41:00.497030	31.0	29.1	-59.1	4.0
2026-01-27 00:41:01.618292	31.1	29.2	-58.9	3.6
2026-01-27 00:41:02.740545	31.2	29.4	-58.7	3.3
2026-01-27 00:41:03.860806	31.4	29.6	-58.8	3.7
2026-01-27 00:41:04.982068	31.5	29.8	-58.7	3.6
2026-01-27 00:41:06.104322	31.6	30.0	-58.6	3.7
2026-01-27 00:41:07.226079	31.8	30.3	-58.4	3.7
2026-01-27 00:41:08.348333	31.9	30.5	-58.6	4.1
2026-01-27 00:41:09.475092	32.0	30.7	-58.8	4.1
2026-01-27 00:41:10.597345	32.2	30.9	-59.2	3.3
2026-01-27 00:41:11.718607	32.3	31.1	-59.1	3.5
2026-01-27 00:41:12.840365	32.5	31.3	-59.1	3.3
2026-01-27 00:41:13.962618	32.6	31.5	-59.0	2.9
2026-01-27 00:41:15.084375	32.8	31.7	-58.7	3.1
2026-01-27 00:41:16.206133	32.9	31.9	-58.5	3.8
2026-01-27 00:41:17.332892	33.1	32.1	-58.4	3.8
2026-01-27 00:41:18.454153	33.2	32.4	-58.3	4.0
2026-01-27 00:41:19.576912	33.4	32.6	-58.5	3.9
2026-01-27 00:41:20.698669	33.5	32.8	-58.5	4.0
2026-01-27 00:41:21.821428	33.7	33.0	-58.5	3.9
2026-01-27 00:41:22.942689	33.9	33.2	-58.7	3.2
2026-01-27 00:41:24.069448	34.0	33.5	-58.8	2.7
2026-01-27 00:41:25.190709	34.2	33.7	-58.4	2.9
2026-01-27 00:41:26.310978	34.4	33.9	-58.5	2.8
2026-01-27 00:41:27.433240	34.5	34.1	-58.3	2.9
2026-01-27 00:41:28.554998	34.7	34.4	-58.7	2.8
2026-01-27 00:41:29.676259	34.9	34.6	-58.7	3.2
2026-01-27 00:41:30.798522	35.1	34.8	-58.7	2.8
2026-01-27 00:41:31.920775	35.3	35.1	-59.0	3.1
2026-01-27 00:41:33.042533	35.4	35.3	-58.7	2.5
2026-01-27 00:41:34.164290	35.6	35.5	-58.8	2.7
2026-01-27 00:41:35.285552	35.8	35.8	-58.4	2.5
2026-01-27 00:41:36.407319	36.0	36.0	-58.7	3.2
2026-01-27 00:41:37.530077	36.2	36.2	-58.5	3.2
2026-01-27 00:41:38.653342	36.4	36.5	-58.7	3.0
2026-01-27 00:41:39.775099	36.6	36.7	-58.9	3.6
2026-01-27 00:41:40.896857	36.8	37.0	-58.4	2.3
2026-01-27 00:41:42.019110	37.0	37.2	-58.4	3.0
2026-01-27 00:41:43.139876	37.2	37.5	-58.1	3.1
2026-01-27 00:41:44.260633	37.4	37.7	-58.3	3.3
2026-01-27 00:41:45.382887	37.6	38.0	-58.2	3.5
2026-01-27 00:41:46.504644	37.9	38.2	-58.2	1.9
2026-01-27 00:41:47.625907	38.1	38.5	-58.3	3.4
2026-01-27 00:41:48.747169	38.3	38.7	-58.1	3.0
2026-01-27 00:41:49.868431	38.5	39.0	-58.0	2.6
2026-01-27 00:41:50.989198	38.8	39.2	-57.9	3.4
2026-01-27 00:41:52.110955	39.0	39.5	-58.2	2.8
2026-01-27 00:41:53.232713	39.2	39.7	-58.4	3.1
2026-01-27 00:41:54.354471	39.5	40.0	-58.3	2.6
2026-01-27 00:41:55.476724	39.7	40.3	-58.3	2.3
2026-01-27 00:41:56.598985	40.0	40.5	-58.3	3.1
2026-01-27 00:41:57.721239	40.3	40.8	-58.7	3.7
2026-01-27 00:41:58.843492	40.5	41.1	-58.5	2.9
2026-01-27 00:41:59.964753	40.8	41.3	-58.5	3.8
2026-01-27 00:42:01.086016	41.0	41.6	-58.0	2.8
2026-01-27 00:42:02.207277	41.3	41.9	-58.5	3.7
2026-01-27 00:42:03.329531	41.6	42.2	-58.0	3.2
2026-01-27 00:42:04.450792	41.9	42.4	-58.3	2.4
2026-01-27 00:42:05.572550	42.2	42.7	-58.1	1.2
2026-01-27 00:42:06.694307	42.5	43.0	-58.2	2.9
2026-01-27 00:42:07.815570	42.8	43.3	-58.6	1.5
2026-01-27 00:42:08.937328	43.1	43.5	-58.4	2.1
2026-01-27 00:42:10.059086	43.4	43.8	-59.1	2.5
2026-01-27 00:42:11.179843	43.7	44.1	-58.7	1.8
2026-01-27 00:42:12.300105	44.0	44.4	-58.9	2.1
2026-01-27 00:42:13.422358	44.3	44.7	-58.9	1.8
2026-01-27 00:42:14.543612	44.7	44.9	-58.8	2.3
2026-01-27 00:42:15.665865	45.0	45.2	-59.3	3.4
2026-01-27 00:42:16.787126	45.3	45.5	-58.7	2.2
2026-01-27 00:42:17.907388	45.7	45.8	-58.1	0.4
2026-01-27 00:42:19.027145	46.0	46.1	-58.7	2.6
2026-01-27 00:42:20.148398	46.4	46.4	-59.3	2.4
2026-01-27 00:42:21.269155	46.8	46.7	-59.1	2.9
2026-01-27 00:42:22.390417	47.1	47.0	-60.2	3.3
2026-01-27 00:42:23.512670	47.5	47.2	-60.4	4.0
2026-01-27 00:42:24.638924	47.9	47.5	-60.3	4.1
2026-01-27 00:42:25.761178	48.3	47.8	-60.4	4.3
2026-01-27 00:42:26.881439	48.7	48.1	-60.0	3.5
2026-01-27 00:42:28.003198	49.1	48.4	-60.6	4.5
2026-01-27 00:42:29.124955	49.5	48.7	-59.9	3.3
2026-01-27 00:42:30.245712	50.0	49.0	-60.9	5.1
2026-01-27 00:42:31.364478	50.4	49.3	-60.3	2.9
2026-01-27 00:42:32.486235	50.8	49.6	-61.1	4.9
2026-01-27 00:42:33.606488	51.3	49.9	-60.9	4.5
2026-01-27 00:42:34.727742	51.8	50.2	-61.5	4.4
2026-01-27 00:42:35.849499	52.2	50.5	-61.5	4.7
2026-01-27 00:42:36.971753	52.7	50.8	-61.9	3.9
2026-01-27 00:42:38.092510	53.2	51.1	-61.2	1.9
2026-01-27 00:42:39.215771	53.7	51.4	-60.8	1.2
2026-01-27 00:42:40.336528	54.2	51.7	-61.8	2.9
2026-01-27 00:42:41.455803	54.7	52.0	-61.6	2.3
2026-01-27 00:42:42.575568	55.2	52.2	-62.1	2.1
2026-01-27 00:42:43.694837	55.8	52.5	-62.3	3.7
2026-01-27 00:42:44.814099	56.3	52.8	-62.5	4.5
2026-01-27 00:42:45.933856	56.9	53.1	-63.0	5.5
2026-01-27 00:42:47.055613	57.5	53.4	-62.1	3.5
2026-01-27 00:42:48.177371	58.0	53.7	-62.8	6.1
2026-01-27 00:42:49.298128	58.6	54.0	-62.0	3.5
2026-01-27 00:42:50.418381	59.2	54.3	-63.0	5.2
2026-01-27 00:42:51.540634	59.9	54.6	-63.1	5.4
2026-01-27 00:42:52.661887	60.5	54.8	-62.9	4.6
2026-01-27 00:42:53.784141	61.1	55.1	-63.5	5.7
2026-01-27 00:42:54.908907	61.8	55.4	-63.3	5.3
2026-01-27 00:42:56.029168	62.5	55.7	-63.3	5.8
2026-01-27 00:42:57.150421	63.1	55.9	-63.2	5.4
2026-01-27 00:42:58.268692	63.8	56.2	-63.9	6.3
2026-01-27 00:42:59.390458	64.5	56.5	-63.4	5.6
2026-01-27 00:43:00.510711	65.3	56.7	-64.1	6.8
2026-01-27 00:43:01.632470	66.0	57.0	-63.4	5.7
2026-01-27 00:43:02.751235	66.8	57.3	-63.8	6.2
2026-01-27 00:43:03.870992	67.5	57.5	-64.1	6.3
2026-01-27 00:43:04.989749	68.3	57.8	-63.6	4.8
2026-01-27 00:43:06.111506	69.1	58.0	-63.3	3.6
2026-01-27 00:43:07.233760	69.9	58.3	-62.7	4.0
2026-01-27 00:43:08.356013	70.7	58.5	-64.0	6.4
2026-01-27 00:43:09.478266	71.6	58.7	-64.1	5.5
2026-01-27 00:43:10.600024	72.4	59.0	-65.1	6.9
2026-01-27 00:43:11.722285	73.3	59.2	-64.6	5.8
2026-01-27 00:43:12.844042	74.2	59.4	-64.7	6.1
2026-01-27 00:43:13.965800	75.1	59.6	-64.9	6.8
2026-01-27 00:43:15.087558	76.0	59.8	-64.8	7.0
2026-01-27 00:43:16.209315	76.9	60.0	-65.2	7.2
2026-01-27 00:43:17.330578	77.8	60.2	-65.0	7.3
2026-01-27 00:43:18.452345	78.8	60.4	-65.2	7.5
2026-01-27 00:43:19.574598	79.8	60.6	-65.3	7.5
2026-01-27 00:43:20.696355	80.8	60.8	-65.5	7.3
2026-01-27 00:43:21.818609	81.7	60.9	-65.7	7.4
2026-01-27 00:43:22.940367	82.8	61.1	-65.6	7.4
2026-01-27 00:43:24.060132	83.8	61.3	-65.7	8.0
2026-01-27 00:43:25.182386	84.8	61.4	-65.3	7.3
2026-01-27 00:43:26.304143	85.9	61.6	-65.3	5.9
2026-01-27 00:43:27.424901	86.9	61.7	-65.6	6.6
2026-01-27 00:43:28.544666	88.0	61.8	-65.4	7.5
2026-01-27 00:43:29.666426	89.1	61.9	-65.9	7.4
2026-01-27 00:43:30.786679	90.2	62.0	-65.9	7.4
2026-01-27 00:43:31.905949	91.3	62.1	-65.5	7.5
2026-01-27 00:43:33.026706	92.4	62.2	-66.1	7.8
2026-01-27 00:43:34.148464	93.5	62.3	-66.1	8.1
2026-01-27 00:43:35.268716	94.6	62.4	-66.1	7.6
2026-01-27 00:43:36.389979	95.7	62.4	-66.4	8.3
2026-01-27 00:43:37.512232	96.9	62.5	-65.7	7.5
2026-01-27 00:43:38.632998	98.0	62.5	-66.2	8.5
2026-01-27 00:43:39.755251	99.1	62.6	-66.2	8.2
2026-01-27 00:43:40.877505	100.3	62.6	-66.1	8.0
2026-01-27 00:43:41.999262	101.4	62.6	-66.3	8.2
2026-01-27 00:43:43.121516	102.6	62.6	-66.2	8.5
2026-01-27 00:43:44.243273	103.7	62.6	-66.2	8.2
2026-01-27 00:43:45.365527	104.9	62.6	-66.1	8.7
2026-01-27 00:43:46.487284	106.0	62.6	-66.1	8.5
2026-01-27 00:43:47.609538	107.2	62.5	-65.8	8.7
2026-01-27 00:43:48.730303	108.3	62.5	-66.2	8.7
2026-01-27 00:43:49.852557	109.4	62.4	-66.2	8.6
2026-01-27 00:43:50.970809	110.6	62.4	-66.3	8.2
2026-01-27 00:43:52.090566	111.7	62.3	-66.3	7.9
2026-01-27 00:43:53.210323	112.8	62.2	-66.7	8.0
2026-01-27 00:43:54.332576	113.9	62.1	-66.2	7.4
2026-01-27 00:43:55.454334	115.0	62.0	-66.5	7.7
2026-01-27 00:43:56.576588	116.1	61.9	-66.6	8.2
2026-01-27 00:43:57.700346	117.2	61.8	-66.8	7.7
2026-01-27 00:43:58.822608	118.2	61.7	-66.3	7.5
2026-01-27 00:43:59.944862	119.3	61.6	-66.4	8.1
2026-01-27 00:44:01.066620	120.4	61.4	-66.4	7.8
2026-01-27 00:44:02.188873	121.4	61.3	-66.1	7.9
2026-01-27 00:44:03.310631	122.4	61.1	-66.2	8.5
2026-01-27 00:44:04.431893	123.4	60.9	-66.1	7.9
2026-01-27 00:44:05.553650	124.4	60.8	-66.2	7.8
2026-01-27 00:44:06.675913	125.4	60.6	-66.3	7.1
2026-01-27 00:44:07.798175	126.4	60.4	-66.3	7.3
2026-01-27 00:44:08.920428	127.3	60.2	-66.5	7.3
2026-01-27 00:44:10.042186	128.3	60.0	-66.5	6.7
2026-01-27 00:44:11.164447	129.2	59.8	-66.5	6.5
2026-01-27 00:44:12.285214	130.1	59.6	-66.1	6.3
2026-01-27 00:44:13.407467	131.0	59.4	-66.3	6.4
2026-01-27 00:44:14.529225	131.9	59.2	-66.0	6.0
2026-01-27 00:44:15.651478	132.8	59.0	-66.2	5.4
2026-01-27 00:44:16.773732	133.6	58.7	-66.1	5.4
2026-01-27 00:44:17.895985	134.5	58.5	-66.1	5.4
2026-01-27 00:44:19.017742	135.3	58.3	-66.0	5.3
2026-01-27 00:44:20.139004	136.1	58.0	-66.0	5.0
2026-01-27 00:44:21.261258	136.9	57.8	-66.0	5.6
2026-01-27 00:44:22.383015	137.7	57.5	-65.9	5.4
2026-01-27 00:44:23.505268	138.5	57.3	-65.7	6.2
2026-01-27 00:44:24.627028	139.2	57.0	-65.7	6.4
2026-01-27 00:44:25.749281	140.0	56.7	-65.8	6.2
2026-01-27 00:44:26.871534	140.7	56.5	-65.7	6.8
2026-01-27 00:44:27.995292	141.4	56.2	-65.6	6.0
2026-01-27 00:44:29.117546	142.1	55.9	-65.7	5.9
2026-01-27 00:44:30.239799	142.8	55.7	-65.9	6.0
2026-01-27 00:44:31.361556	143.5	55.4	-65.5	6.1
2026-01-27 00:44:32.483314	144.1	55.1	-65.5	6.1
2026-01-27 00:44:33.604071	144.8	54.8	-65.5	5.9
2026-01-27 00:44:34.726837	145.4	54.5	-65.5	5.9
2026-01-27 00:44:35.848595	146.0	54.2	-65.5	5.3
2026-01-27 00:44:36.969858	146.6	54.0	-65.5	5.3
2026-01-27 00:44:38.091616	147.2	53.7	-65.4	5.6
2026-01-27 00:44:39.213869	147.8	53.4	-65.2	5.4
2026-01-27 00:44:40.336130	148.4	53.1	-65.4	6.3
2026-01-27 00:44:41.457391	148.9	52.8	-65.3	6.5
2026-01-27 00:44:42.579645	149.5	52.5	-65.1	5.9
2026-01-27 00:44:43.700907	150.0	52.2	-65.3	6.1
2026-01-27 00:44:44.823161	150.6	51.9	-65.2	6.5
2026-01-27 00:44:45.944919	151.1	51.6	-65.1	6.6
2026-01-27 00:44:47.066676	151.6	51.3	-65.1	6.7
2026-01-27 00:44:48.188930	152.1	51.0	-65.1	5.9
2026-01-27 00:44:49.313184	152.6	50.7	-65.3	6.5
2026-01-27 00:44:50.434437	153.1	50.4	-65.3	7.5
2026-01-27 00:44:51.556202	153.5	50.1	-65.3	7.8
2026-01-27 00:44:52.674968	154.0	49.8	-65.4	8.1
2026-01-27 00:44:53.795734	154.4	49.5	-65.2	8.7
2026-01-27 00:44:54.917491	154.9	49.2	-65.3	8.4
2026-01-27 00:44:56.038752	155.3	48.9	-65.4	8.6
2026-01-27 00:44:57.160509	155.7	48.7	-65.2	8.4
2026-01-27 00:44:58.282772	156.2	48.4	-65.3	8.3
2026-01-27 00:44:59.404529	156.6	48.1	-65.3	8.5
2026-01-27 00:45:00.527287	157.0	47.8	-65.1	9.1
2026-01-27 00:45:01.647540	157.4	47.5	-65.4	9.4
2026-01-27 00:45:02.769793	157.8	47.2	-64.9	9.4
2026-01-27 00:45:03.896056	158.2	46.9	-65.0	9.7
2026-01-27 00:45:05.018309	158.5	46.6	-65.2	9.4
2026-01-27 00:45:06.140563	158.9	46.3	-65.4	8.9
2026-01-27 00:45:07.262816	159.3	46.0	-65.7	9.2
2026-01-27 00:45:08.384078	159.6	45.7	-65.8	9.1
2026-01-27 00:45:09.506332	160.0	45.4	-65.8	9.2
2026-01-27 00:45:10.628585	160.3	45.1	-65.8	9.3
2026-01-27 00:45:11.751838	160.6	44.8	-65.7	9.2
2026-01-27 00:45:12.875092	161.0	44.6	-65.7	9.3
2026-01-27 00:45:13.996354	161.3	44.3	-65.5	9.5
2026-01-27 00:45:15.118111	161.6	44.0	-65.6	9.5
2026-01-27 00:45:16.239372	161.9	43.7	-65.8	9.2
2026-01-27 00:45:17.360635	162.2	43.4	-65.9	9.0
2026-01-27 00:45:18.482888	162.5	43.1	-65.8	8.8
2026-01-27 00:45:19.605150	162.8	42.9	-65.9	9.5
2026-01-27 00:45:20.726908	163.1	42.6	-66.1	9.2
2026-01-27 00:45:21.849161	163.4	42.3	-65.8	9.2
2026-01-27 00:45:22.970920	163.7	42.0	-65.9	9.5
2026-01-27 00:45:24.092677	164.0	41.8	-66.1	10.1
2026-01-27 00:45:25.214931	164.3	41.5	-65.9	9.3
2026-01-27 00:45:26.336689	164.5	41.2	-66.3	9.5
2026-01-27 00:45:27.458446	164.8	40.9	-66.0	9.2
2026-01-27 00:45:28.579708	165.1	40.7	-66.2	10.1
2026-01-27 00:45:29.701465	165.3	40.4	-66.2	10.2
2026-01-27 00:45:30.823719	165.6	40.1	-66.0	10.3
2026-01-27 00:45:31.945476	165.8	39.9	-66.2	10.6
2026-01-27 00:45:33.067235	166.1	39.6	-65.9	10.8
2026-01-27 00:45:34.188993	166.3	39.4	-65.9	10.8
2026-01-27 00:45:35.309264	166.5	39.1	-65.9	10.9
2026-01-27 00:45:36.432032	166.8	38.8	-66.0	11.0
2026-01-27 00:45:37.552800	167.0	38.6	-65.9	11.3
2026-01-27 00:45:38.675053	167.2	38.3	-66.2	11.0
2026-01-27 00:45:39.795820	167.4	38.1	-66.0	10.7
2026-01-27 00:45:40.924084	167.7	37.8	-65.9	11.1
2026-01-27 00:45:42.046337	167.9	37.6	-65.7	11.1
2026-01-27 00:45:43.167599	168.1	37.3	-65.7	11.2
2026-01-27 00:45:44.289357	168.3	37.1	-65.7	11.3
2026-01-27 00:45:45.411130	168.5	36.8	-65.6	11.6
2026-01-27 00:45:46.532888	168.7	36.6	-65.6	11.3
2026-01-27 00:45:47.655141	168.9	36.3	-65.2	11.3
2026-01-27 00:45:48.776402	169.1	36.1	-65.6	11.4
2026-01-27 00:45:49.898160	169.3	35.8	-65.8	12.2
2026-01-27 00:45:51.020414	169.5	35.6	-65.6	11.5
2026-01-27 00:45:52.141675	169.7	35.4	-65.6	12.3
2026-01-27 00:45:53.263434	169.9	35.1	-65.6	11.5
2026-01-27 00:45:54.385191	170.0	34.9	-65.4	11.8
2026-01-27 00:45:55.506454	170.2	34.7	-65.3	11.7
2026-01-27 00:45:56.628212	170.4	34.4	-65.6	11.5
2026-01-27 00:45:57.749474	170.6	34.2	-65.6	11.6
2026-01-27 00:45:58.871232	170.8	34.0	-65.3	11.2
2026-01-27 00:45:59.992506	170.9	33.7	-65.3	11.4
2026-01-27 00:46:01.115267	171.1	33.5	-65.4	11.8
2026-01-27 00:46:02.237518	171.3	33.3	-65.3	11.5
2026-01-27 00:46:03.360781	171.4	33.1	-65.2	11.4
2026-01-27 00:46:04.482052	171.6	32.8	-65.4	11.7
2026-01-27 00:46:05.603809	171.8	32.6	-65.5	12.1
2026-01-27 00:46:06.725072	171.9	32.4	-65.4	12.1
2026-01-27 00:46:07.847325	172.1	32.2	-65.5	12.1
2026-01-27 00:46:08.973092	172.2	32.0	-65.6	12.2
2026-01-27 00:46:10.095345	172.4	31.7	-65.4	11.9
2026-01-27 00:46:11.218608	172.5	31.5	-65.5	12.1
2026-01-27 00:46:12.340861	172.7	31.3	-65.2	11.9
2026-01-27 00:46:13.462124	172.8	31.1	-65.6	11.7
2026-01-27 00:46:14.583881	173.0	30.9	-65.3	12.1
2026-01-27 00:46:15.705143	173.1	30.7	-65.2	12.0
2026-01-27 00:46:16.826901	173.2	30.5	-65.5	11.7
2026-01-27 00:46:17.948659	173.4	30.3	-65.3	12.1
2026-01-27 00:46:19.071417	173.5	30.1	-65.5	12.1
2026-01-27 00:46:20.192678	173.7	29.9	-65.3	12.0
2026-01-27 00:46:21.314932	173.8	29.7	-65.4	12.2
2026-01-27 00:46:22.435698	173.9	29.5	-65.1	12.3
2026-01-27 00:46:23.557456	174.1	29.3	-64.9	11.9
2026-01-27 00:46:24.679214	174.2	29.1	-65.4	12.2
2026-01-27 00:46:25.800972	174.3	28.9	-65.3	12.5
2026-01-27 00:46:26.922740	174.4	28.7	-65.3	12.2
2026-01-27 00:46:28.044993	174.6	28.5	-65.4	12.3
2026-01-27 00:46:29.165263	174.7	28.3	-65.2	12.2
2026-01-27 00:46:30.289517	174.8	28.1	-65.0	12.4
2026-01-27 00:46:31.411771	174.9	27.9	-65.3	12.3
2026-01-27 00:46:32.534032	175.0	27.7	-65.1	12.6
2026-01-27 00:46:33.656286	175.2	27.5	-64.9	12.4
2026-01-27 00:46:34.777548	175.3	27.3	-65.2	12.5
2026-01-27 00:46:35.899802	175.4	27.1	-65.0	12.4
2026-01-27 00:46:37.022055	175.5	26.9	-65.2	12.5
2026-01-27 00:46:38.143317	175.6	26.8	-65.0	12.3
2026-01-27 00:46:39.265571	175.7	26.6	-65.2	12.4
2026-01-27 00:46:40.387328	175.8	26.4	-65.2	12.2
2026-01-27 00:46:41.508590	176.0	26.2	-65.0	12.8
2026-01-27 00:46:42.630348	176.1	26.0	-65.2	12.5
2026-01-27 00:46:43.750618	176.2	25.9	-64.9	12.3
2026-01-27 00:46:44.872377	176.3	25.7	-64.7	12.9
2026-01-27 00:46:45.993638	176.4	25.5	-65.0	12.4
2026-01-27 00:46:47.114901	176.5	25.3	-65.0	12.5
2026-01-27 00:46:48.236659	176.6	25.2	-65.2	12.8
2026-01-27 00:46:49.360417	176.7	25.0	-65.4	12.7
2026-01-27 00:46:50.482175	176.8	24.8	-65.3	12.7
2026-01-27 00:46:51.603438	176.9	24.6	-65.4	12.6
2026-01-27 00:46:52.725691	177.0	24.5	-65.5	12.9
2026-01-27 00:46:53.847449	177.1	24.3	-65.1	12.5
2026-01-27 00:46:54.969702	177.2	24.1	-65.1	12.6
2026-01-27 00:46:56.091460	177.3	24.0	-65.1	12.8
2026-01-27 00:46:57.213723	177.4	23.8	-64.9	12.2
2026-01-27 00:46:58.334985	177.5	23.6	-65.1	12.6
2026-01-27 00:46:59.456742	177.5	23.5	-65.0	12.8
2026-01-27 00:47:00.578996	177.6	23.3	-65.1	12.7
2026-01-27 00:47:01.700753	177.7	23.1	-65.1	12.7
2026-01-27 00:47:02.823007	177.8	23.0	-65.2	12.5
2026-01-27 00:47:03.944765	177.9	22.8	-65.1	12.3
2026-01-27 00:47:05.065532	178.0	22.7	-65.3	12.2
2026-01-27 00:47:06.187290	178.1	22.5	-65.1	12.3
2026-01-27 00:47:07.308566	178.2	22.3	-65.4	12.5
2026-01-27 00:47:08.430819	178.3	22.2	-65.3	12.2
2026-01-27 00:47:09.553073	178.3	22.0	-65.6	12.2
2026-01-27 00:47:10.675326	178.4	21.9	-65.4	12.4
2026-01-27 00:47:11.797084	178.5	21.7	-65.6	12.2
2026-01-27 00:47:12.918346	178.6	21.6	-65.0	12.4
2026-01-27 00:47:14.041104	178.7	21.4	-65.4	12.4
2026-01-27 00:47:15.163357	178.7	21.3	-65.4	11.5
2026-01-27 00:47:16.285611	178.8	21.1	-65.3	11.9
2026-01-27 00:47:17.406874	178.9	21.0	-65.7	12.2
2026-01-27 00:47:18.529127	179.0	20.8	-65.7	12.4
2026-01-27 00:47:19.651380	179.1	20.7	-65.8	12.1
2026-01-27 00:47:20.778635	179.1	20.5	-65.5	12.2
2026-01-27 00:47:21.900393	179.2	20.4	-65.3	12.4
2026-01-27 00:47:23.022151	179.3	20.2	-65.2	12.2
2026-01-27 00:47:24.143909	179.4	20.1	-65.4	12.1
2026-01-27 00:47:25.265666	179.4	19.9	-65.5	11.9
2026-01-27 00:47:26.387431	179.5	19.8	-65.4	11.8
2026-01-27 00:47:27.509685	179.6	19.6	-65.4	11.9
2026-01-27 00:47:28.630946	179.7	19.5	-65.5	12.3
2026-01-27 00:47:29.751712	179.7	19.4	-65.5	12.1
2026-01-27 00:47:30.873470	179.8	19.2	-65.6	12.7
2026-01-27 00:47:31.995228	179.9	19.1	-65.6	12.3
2026-01-27 00:47:33.117490	179.9	18.9	-65.7	12.1
2026-01-27 00:47:34.239743	180.0	18.8	-65.6	12.5
2026-01-27 00:47:35.361006	180.1	18.7	-65.6	11.6
2026-01-27 00:47:36.481772	180.1	18.5	-65.5	12.4
2026-01-27 00:47:37.603034	180.2	18.4	-65.4	12.4
2026-01-27 00:47:38.730805	180.3	18.3	-65.5	11.9
2026-01-27 00:47:39.852563	180.3	18.1	-65.4	12.5
2026-01-27 00:47:40.974324	180.4	18.0	-65.2	12.4
2026-01-27 00:47:42.096577	180.5	17.9	-65.1	12.0
2026-01-27 00:47:43.217344	180.5	17.7	-65.5	12.4
2026-01-27 00:47:44.339102	180.6	17.6	-65.3	11.9
2026-01-27 00:47:45.461356	180.7	17.5	-65.5	11.9
2026-01-27 00:47:46.583113	180.7	17.3	-65.4	12.5
2026-01-27 00:47:47.705366	180.8	17.2	-65.6	11.9
2026-01-27 00:47:48.827124	180.9	17.1	-65.3	11.5
2026-01-27 00:47:49.948882	180.9	17.0	-65.3	12.3
2026-01-27 00:47:51.071135	181.0	16.8	-65.3	12.0
2026-01-27 00:47:52.191902	181.0	16.7	-65.2	12.1
2026-01-27 00:47:53.313659	181.1	16.6	-65.4	11.9
2026-01-27 00:47:54.435416	181.2	16.4	-65.6	12.1
2026-01-27 00:47:55.556680	181.2	16.3	-65.1	11.4
2026-01-27 00:47:56.678933	181.3	16.2	-65.5	12.0
2026-01-27 00:47:57.800691	181.3	16.1	-65.3	11.6
2026-01-27 00:47:58.922449	181.4	16.0	-65.3	11.7
2026-01-27 00:48:00.047207	181.4	15.8	-65.4	11.6
2026-01-27 00:48:01.168469	181.5	15.7	-65.3	11.7
2026-01-27 00:48:02.290227	181.6	15.6	-65.4	11.7
2026-01-27 00:48:03.411985	181.6	15.5	-65.4	11.6
2026-01-27 00:48:04.534744	181.7	15.3	-65.5	11.6
2026-01-27 00:48:05.656997	181.7	15.2	-65.4	11.7
2026-01-27 00:48:06.778269	181.8	15.1	-65.6	11.4
2026-01-27 00:48:07.901027	181.8	15.0	-65.8	11.1
2026-01-27 00:48:09.029282	181.9	14.9	-65.6	11.1
2026-01-27 00:48:10.151535	181.9	14.7	-65.5	11.0
2026-01-27 00:48:11.275789	182.0	14.6	-65.5	11.1
2026-01-27 00:48:12.397547	182.0	14.5	-65.6	11.3
2026-01-27 00:48:13.519800	182.1	14.4	-65.8	10.8
2026-01-27 00:48:14.642558	182.2	14.3	-65.4	10.8
2026-01-27 00:48:15.768821	182.2	14.2	-65.7	11.0
2026-01-27 00:48:16.891074	182.3	14.1	-65.4	11.6
2026-01-27 00:48:18.013328	182.3	13.9	-65.2	10.8
2026-01-27 00:48:19.135581	182.4	13.8	-65.1	11.2
2026-01-27 00:48:20.256843	182.4	13.7	-65.5	10.4
2026-01-27 00:48:21.379097	182.5	13.6	-65.4	10.1
2026-01-27 00:48:22.500855	182.5	13.5	-65.4	10.6
2026-01-27 00:48:23.623119	182.6	13.4	-65.2	9.6
2026-01-27 00:48:24.744381	182.6	13.3	-65.1	10.6
2026-01-27 00:48:25.867139	182.7	13.2	-65.3	10.3
2026-01-27 00:48:26.988897	182.7	13.0	-65.1	10.3
2026-01-27 00:48:28.111150	182.7	12.9	-65.3	9.8
2026-01-27 00:48:29.233404	182.8	12.8	-65.3	10.2
2026-01-27 00:48:30.354666	182.8	12.7	-65.3	10.5
2026-01-27 00:48:31.481424	182.9	12.6	-65.1	9.5
2026-01-27 00:48:32.603678	182.9	12.5	-65.1	10.1
2026-01-27 00:48:33.725435	183.0	12.4	-65.2	9.9
2026-01-27 00:48:34.847689	183.0	12.3	-65.3	9.6
2026-01-27 00:48:35.969942	183.1	12.2	-65.4	9.3
2026-01-27 00:48:37.091700	183.1	12.1	-65.3	9.2
2026-01-27 00:48:38.213954	183.2	12.0	-65.5	9.9
2026-01-27 00:48:39.335711	183.2	11.9	-65.5	9.9
2026-01-27 00:48:40.457965	183.3	11.8	-65.0	10.2
2026-01-27 00:48:41.579723	183.3	11.7	-65.5	9.2
2026-01-27 00:48:42.701481	183.3	11.6	-65.6	9.5
2026-01-27 00:48:43.823734	183.4	11.5	-65.2	9.5
2026-01-27 00:48:44.944501	183.4	11.4	-65.1	9.1
2026-01-27 00:48:46.067754	183.5	11.3	-64.9	9.9
2026-01-27 00:48:47.189017	183.5	11.2	-65.4	9.7
2026-01-27 00:48:48.312271	183.6	11.1	-65.3	9.4
2026-01-27 00:48:49.434028	183.6	11.0	-65.3	9.6
2026-01-27 00:48:50.556282	183.6	10.9	-65.2	9.4
2026-01-27 00:48:51.678535	183.7	10.7	-64.9	9.1
2026-01-27 00:48:52.800788	183.7	10.7	-65.4	9.7
2026-01-27 00:48:53.922546	183.8	10.6	-65.4	9.8
2026-01-27 00:48:55.044304	183.8	10.5	-65.3	9.3
2026-01-27 00:48:56.166557	183.8	10.4	-65.4	10.3
2026-01-27 00:48:57.288315	183.9	10.3	-65.0	9.3
2026-01-27 00:48:58.410568	183.9	10.2	-64.8	8.3
2026-01-27 00:48:59.532326	184.0	10.1	-64.8	8.8
2026-01-27 00:49:00.654083	184.0	10.0	-65.7	9.0
2026-01-27 00:49:01.776841	184.0	9.9	-65.1	10.0
2026-01-27 00:49:02.898103	184.1	9.8	-65.6	8.9
2026-01-27 00:49:04.019861	184.1	9.7	-65.4	9.5
2026-01-27 00:49:05.141618	184.2	9.6	-65.1	7.9
2026-01-27 00:49:06.263872	184.2	9.5	-65.6	8.7
2026-01-27 00:49:07.385133	184.2	9.4	-65.6	9.8
2026-01-27 00:49:08.507387	184.3	9.3	-65.8	7.8
2026-01-27 00:49:09.629144	184.3	9.2	-65.6	9.8
2026-01-27 00:49:10.750903	184.3	9.1	-65.6	8.2
2026-01-27 00:49:11.872660	184.4	9.0	-65.6	9.3
2026-01-27 00:49:12.994418	184.4	8.9	-65.7	8.8
2026-01-27 00:49:14.116176	184.5	8.8	-66.1	8.5
2026-01-27 00:49:15.237934	184.5	8.7	-65.6	8.8
2026-01-27 00:49:16.359692	184.5	8.6	-65.8	9.2
2026-01-27 00:49:17.481448	184.6	8.6	-65.1	8.6
2026-01-27 00:49:18.603207	184.6	8.5	-65.7	8.1
2026-01-27 00:49:19.725469	184.6	8.4	-65.1	8.6
2026-01-27 00:49:20.846731	184.7	8.3	-65.3	7.6
2026-01-27 00:49:21.968984	184.7	8.2	-64.8	7.4
2026-01-27 00:49:23.091238	184.7	8.1	-65.1	8.6
2026-01-27 00:49:24.213491	184.8	8.0	-65.9	8.5
2026-01-27 00:49:25.336249	184.8	7.9	-65.3	9.7
2026-01-27 00:49:26.458502	184.8	7.8	-65.5	7.6
2026-01-27 00:49:27.579268	184.9	7.7	-65.2	8.9
2026-01-27 00:49:28.700034	184.9	7.7	-65.8	7.2
2026-01-27 00:49:29.820801	185.0	7.6	-65.3	9.0
2026-01-27 00:49:30.942062	185.0	7.5	-66.1	7.3
2026-01-27 00:49:32.063324	185.0	7.4	-65.3	9.5
2026-01-27 00:49:33.184586	185.1	7.3	-65.7	7.0
2026-01-27 00:49:34.305848	185.1	7.2	-65.3	9.0
2026-01-27 00:49:35.427606	185.1	7.1	-66.0	6.3
2026-01-27 00:49:36.551860	185.2	7.0	-65.3	8.8
2026-01-27 00:49:37.674113	185.2	7.0	-65.6	7.2
2026-01-27 00:49:38.796367	185.2	6.9	-66.0	9.2
2026-01-27 00:49:39.917629	185.2	6.8	-65.7	7.4
2026-01-27 00:49:41.039883	185.3	6.7	-65.5	8.3
2026-01-27 00:49:42.161145	185.3	6.6	-65.8	8.0
2026-01-27 00:49:43.281416	185.3	6.5	-65.4	6.9
2026-01-27 00:49:44.402678	185.4	6.4	-65.8	7.9
2026-01-27 00:49:45.524932	185.4	6.4	-65.8	7.5
2026-01-27 00:49:46.645698	185.4	6.3	-66.0	7.0
2026-01-27 00:49:47.766960	185.5	6.2	-65.5	7.8
2026-01-27 00:49:48.888717	185.5	6.1	-65.7	7.9
2026-01-27 00:49:50.010475	185.5	6.0	-65.3	6.0
2026-01-27 00:49:51.132233	185.6	5.9	-66.1	0.0
2026-01-27 00:49:52.253991	185.6	5.9	-68.1	0.0
2026-01-27 00:49:53.375748	185.6	5.8	-68.8	0.0
2026-01-27 00:49:54.498002	185.7	5.7	-68.5	0.0
2026-01-27 00:49:55.619759	185.7	5.6	-66.7	0.0
2026-01-27 00:49:56.740525	185.7	5.5	-67.0	0.0
2026-01-27 00:49:57.861786	185.7	5.5	-67.6	0.0
2026-01-27 00:49:58.983553	185.8	5.4	-68.6	0.0
2026-01-27 00:50:00.105311	185.8	5.3	-69.6	0.0
2026-01-27 00:50:01.226572	185.8	5.2	-68.9	0.0
2026-01-27 00:50:02.348330	185.9	5.1	-67.8	0.0
2026-01-27 00:50:03.470087	185.9	5.0	-66.2	0.0
#Closed at: 2026-01-27 00:37:12.571240