passes_logs/2026/01/18/XPeterburg/XPeterburg__20260118_101656_SUOMI_NPP_rec.log

#Pass ID: 20260118_101656_SUOMI NPP
#Satellite: SUOMI NPP
#Configuration: NPP
#Start time: 2026-01-18 10:16:50

#Version: 1.5.20200625
#Station: XPeterburg
#Location: 30.318091 lon 59.932769 lat
#TLE: 1 37849U 11061A   26015.94982489  .00000054  00000+0  46705-4 0  9991
#TLE: 2 37849  98.7812 317.9902 0002438  62.0366 298.1057 14.19525452736847

#Time	Az	El	Level	Level2	SNR	BER	Gain	Gain2
2026-01-18 10:16:50.30	131.95	67.54	-38.7	-45.3	3.3	15365982	95	2644
2026-01-18 10:16:50.50	131.84	67.62	-38.2	-50.5	3.6	0	86	5083
2026-01-18 10:16:50.70	131.73	67.71	-39.0	-47.4	3.6	15074279	95	3253
2026-01-18 10:16:50.90	131.62	67.79	-38.9	-46.8	3.4	15074279	95	3041
2026-01-18 10:16:51.10	131.50	67.87	-38.9	-46.5	3.4	15112838	95	2924
2026-01-18 10:16:51.30	131.39	67.95	-38.7	-47.1	3.0	15112838	95	3214
2026-01-18 10:16:51.50	131.27	68.03	-38.7	-46.9	3.6	15206291	95	3154
2026-01-18 10:16:51.70	131.16	68.11	-38.7	-46.4	3.5	15206291	95	2977
2026-01-18 10:16:51.90	131.04	68.20	-38.7	-45.8	3.4	15148628	95	2790
2026-01-18 10:16:52.11	130.91	68.28	-38.7	-45.3	3.3	15148628	95	2625
2026-01-18 10:16:52.31	130.79	68.36	-38.6	-46.5	3.6	15210365	95	3035
2026-01-18 10:16:52.51	130.67	68.44	-38.6	-46.0	3.5	15210365	95	2880
2026-01-18 10:16:52.71	130.55	68.53	-38.6	-45.4	3.4	15210365	95	2684
2026-01-18 10:16:52.91	130.43	68.61	-38.6	-44.8	3.4	15151672	95	2524
2026-01-18 10:16:53.11	130.30	68.69	-38.5	-45.8	3.6	15151672	95	2836
2026-01-18 10:16:53.31	130.18	68.77	-38.5	-45.3	3.6	15207313	95	2679
2026-01-18 10:16:53.51	130.05	68.85	-38.4	-44.2	3.4	15207313	95	2413
2026-01-18 10:16:53.71	129.93	68.93	-38.3	-43.5	3.4	15164505	95	2224
2026-01-18 10:16:53.92	129.79	69.02	-38.0	-44.3	3.6	15164505	94	2535
2026-01-18 10:16:54.12	129.66	69.10	-37.9	-43.8	3.8	15147880	94	2404
2026-01-18 10:16:54.32	129.53	69.18	-37.8	-42.6	3.8	15147880	94	2121
2026-01-18 10:16:54.52	129.40	69.26	-37.8	-42.0	3.8	14570831	94	1989
2026-01-18 10:16:54.72	129.27	69.34	-37.8	-41.8	3.9	14570831	93	1964
2026-01-18 10:16:54.92	129.14	69.42	-37.7	-41.6	3.9	13854736	93	1935
2026-01-18 10:16:55.12	129.00	69.51	-37.7	-41.4	4.0	13854736	93	1897
2026-01-18 10:16:55.32	128.87	69.59	-37.5	-41.0	4.2	13854736	93	1835
2026-01-18 10:16:55.52	128.73	69.67	-37.4	-40.5	4.3	11728782	93	1767
2026-01-18 10:16:55.72	128.59	69.75	-37.4	-40.3	4.4	11728782	93	1729
2026-01-18 10:16:55.92	128.45	69.83	-37.3	-40.0	4.5	8884719	93	1688
2026-01-18 10:16:56.13	128.30	69.91	-37.0	-39.6	5.1	8884719	92	1659
2026-01-18 10:16:56.33	128.16	70.00	-36.8	-39.1	5.4	6374107	92	1590
2026-01-18 10:16:56.53	128.02	70.08	-36.7	-39.1	5.7	6374107	91	1627
2026-01-18 10:16:56.73	127.88	70.16	-36.6	-38.8	5.9	3889396	91	1589
2026-01-18 10:16:56.93	127.73	70.24	-36.3	-38.0	6.4	3889396	91	1500
2026-01-18 10:16:57.13	127.58	70.32	-35.8	-37.4	6.8	2447898	90	1475
2026-01-18 10:16:57.33	127.44	70.40	-35.7	-37.6	7.1	2447898	89	1528
2026-01-18 10:16:57.53	127.29	70.48	-35.4	-36.8	7.6	2447898	89	1448
2026-01-18 10:16:57.73	127.14	70.56	-35.4	-36.8	7.7	1259948	89	1446
2026-01-18 10:16:57.93	126.98	70.64	-35.3	-36.5	7.9	1259948	89	1418
2026-01-18 10:16:58.14	126.82	70.73	-35.1	-36.6	8.1	757347	88	1466
2026-01-18 10:16:58.34	126.67	70.81	-35.2	-36.9	8.1	757347	88	1507
2026-01-18 10:16:58.54	126.51	70.89	-35.1	-36.6	8.2	581756	88	1465
2026-01-18 10:16:58.74	126.35	70.97	-34.9	-36.2	8.3	581756	88	1428
2026-01-18 10:16:58.94	126.19	71.05	-34.9	-36.3	8.2	507232	88	1436
2026-01-18 10:16:59.14	126.03	71.13	-34.9	-36.1	8.4	507232	88	1421
2026-01-18 10:16:59.34	125.87	71.21	-34.8	-36.5	8.6	456268	87	1487
2026-01-18 10:16:59.54	125.71	71.29	-34.8	-36.3	8.6	456268	87	1460
2026-01-18 10:16:59.74	125.54	71.37	-34.6	-36.0	8.8	371337	87	1438
2026-01-18 10:16:59.94	125.38	71.45	-34.5	-35.8	8.9	371337	87	1418
2026-01-18 10:17:00.15	125.20	71.53	-34.6	-35.9	9.0	275794	87	1425
2026-01-18 10:17:00.35	125.03	71.61	-34.5	-35.6	9.0	275794	87	1404
2026-01-18 10:17:00.55	124.86	71.69	-34.4	-35.4	9.2	275794	87	1377
2026-01-18 10:17:00.75	124.69	71.77	-34.0	-35.2	9.4	232482	86	1397
2026-01-18 10:17:00.95	124.51	71.85	-34.0	-35.0	9.6	232482	86	1385
2026-01-18 10:17:01.15	124.34	71.93	-34.0	-35.0	9.5	162628	86	1383
2026-01-18 10:17:01.35	124.16	72.00	-34.2	-35.5	9.3	162628	86	1430
2026-01-18 10:17:01.55	123.98	72.08	-34.0	-35.0	9.4	167671	86	1388
2026-01-18 10:17:01.75	123.80	72.16	-34.2	-35.5	9.3	167671	86	1434
2026-01-18 10:17:01.95	123.62	72.24	-34.2	-35.5	9.4	151985	86	1436
2026-01-18 10:17:02.16	123.42	72.32	-34.3	-35.7	9.3	151985	86	1452
2026-01-18 10:17:02.36	123.24	72.40	-34.2	-35.6	9.4	178100	86	1446
2026-01-18 10:17:02.56	123.05	72.48	-34.3	-35.8	9.3	178100	86	1469
2026-01-18 10:17:02.76	122.86	72.56	-34.4	-36.2	9.2	178100	86	1510
2026-01-18 10:17:02.96	122.67	72.64	-34.3	-35.9	9.4	175048	86	1471
2026-01-18 10:17:03.16	122.47	72.71	-34.5	-36.4	9.2	175048	86	1531
2026-01-18 10:17:03.36	122.28	72.79	-34.6	-36.6	9.1	187362	86	1544
2026-01-18 10:17:03.56	122.08	72.87	-34.4	-36.1	9.4	187362	86	1497
2026-01-18 10:17:03.76	121.88	72.95	-34.4	-36.2	9.4	190887	86	1512
2026-01-18 10:17:03.96	121.68	73.02	-34.5	-36.5	9.3	190887	86	1540
2026-01-18 10:17:04.17	121.47	73.11	-34.6	-36.7	9.2	172164	86	1563
2026-01-18 10:17:04.37	121.26	73.18	-34.9	-37.4	8.8	172164	86	1645
2026-01-18 10:17:04.57	121.06	73.26	-34.9	-37.4	8.9	238723	86	1646
2026-01-18 10:17:04.77	120.85	73.34	-35.4	-38.1	8.5	238723	87	1677
2026-01-18 10:17:04.97	120.64	73.41	-35.5	-38.0	8.3	395729	88	1630
2026-01-18 10:17:05.17	120.42	73.49	-35.6	-38.1	8.2	395729	88	1637
2026-01-18 10:17:05.37	120.21	73.56	-35.7	-38.3	8.0	395729	88	1660
2026-01-18 10:17:05.57	119.99	73.64	-35.9	-38.9	7.5	567955	88	1735
2026-01-18 10:17:05.77	119.77	73.72	-35.9	-39.1	7.4	567955	88	1771
2026-01-18 10:17:05.97	119.55	73.79	-36.0	-38.6	7.5	917053	89	1669
2026-01-18 10:17:06.17	119.33	73.87	-36.2	-39.3	7.1	917053	89	1748
2026-01-18 10:17:06.37	119.10	73.94	-35.8	-38.2	7.7	1161933	89	1612
2026-01-18 10:17:06.58	118.86	74.02	-35.9	-38.2	7.7	1161933	89	1607
2026-01-18 10:17:06.78	118.63	74.10	-35.9	-38.2	7.8	813644	89	1615
2026-01-18 10:17:06.98	118.40	74.17	-35.7	-37.8	7.9	813644	89	1556
2026-01-18 10:17:07.18	118.16	74.25	-35.4	-37.0	8.4	686363	89	1476
2026-01-18 10:17:07.38	117.93	74.32	-35.2	-36.9	8.8	686363	88	1497
2026-01-18 10:17:07.58	117.69	74.39	-35.2	-37.0	8.8	686363	88	1507
2026-01-18 10:17:07.78	117.45	74.47	-35.0	-36.5	9.2	320518	88	1459
2026-01-18 10:17:07.98	117.20	74.54	-35.0	-36.5	9.1	320518	88	1458
2026-01-18 10:17:08.18	116.95	74.62	-34.6	-36.0	9.7	224494	87	1445
2026-01-18 10:17:08.38	116.71	74.69	-34.7	-36.2	9.8	224494	87	1462
2026-01-18 10:17:08.58	116.45	74.76	-34.6	-36.1	9.7	110610	87	1455
2026-01-18 10:17:08.78	116.20	74.83	-34.7	-36.3	9.6	110610	87	1472
2026-01-18 10:17:08.99	115.93	74.91	-34.9	-36.7	9.4	117485	87	1513
2026-01-18 10:17:09.19	115.67	74.98	-35.1	-37.2	9.1	117485	87	1570
2026-01-18 10:17:09.39	115.41	75.05	-35.1	-37.4	8.8	200141	87	1588
2026-01-18 10:17:09.59	115.14	75.13	-35.0	-36.8	9.2	200141	87	1524
2026-01-18 10:17:09.79	114.88	75.20	-35.3	-37.6	8.6	281372	87	1613
2026-01-18 10:17:09.99	114.61	75.27	-35.3	-37.6	8.7	281372	87	1602
2026-01-18 10:17:10.19	114.33	75.34	-35.0	-36.8	9.0	335411	87	1516
2026-01-18 10:17:10.39	114.06	75.41	-35.2	-37.3	8.8	335411	87	1566
2026-01-18 10:17:10.59	113.78	75.48	-35.2	-37.3	8.8	335411	87	1566
2026-01-18 10:17:10.79	113.50	75.55	-35.3	-37.6	8.4	288803	87	1605
2026-01-18 10:17:10.99	113.21	75.62	-35.1	-37.1	8.8	288803	87	1554
2026-01-18 10:17:11.20	112.91	75.69	-35.4	-37.8	8.5	338157	87	1624
2026-01-18 10:17:11.40	112.62	75.76	-35.3	-37.5	8.5	338157	87	1590
2026-01-18 10:17:11.60	112.33	75.83	-35.2	-37.2	8.6	378662	87	1560
2026-01-18 10:17:11.80	112.03	75.90	-35.4	-37.7	8.4	378662	87	1612
2026-01-18 10:17:12.00	111.73	75.96	-35.1	-37.0	8.8	403610	87	1531
2026-01-18 10:17:12.20	111.43	76.03	-35.3	-37.6	8.4	403610	87	1598
2026-01-18 10:17:12.40	111.13	76.10	-35.4	-37.8	8.4	399742	87	1624
2026-01-18 10:17:12.60	110.82	76.17	-35.3	-37.6	8.4	399742	87	1597
2026-01-18 10:17:12.80	110.51	76.23	-35.4	-37.8	8.2	399742	87	1619
2026-01-18 10:17:13.01	110.18	76.30	-35.1	-36.9	8.8	458992	87	1523
2026-01-18 10:17:13.21	109.86	76.37	-35.2	-37.2	8.6	458992	87	1558
2026-01-18 10:17:13.41	109.54	76.43	-35.2	-37.3	8.4	352989	87	1562
2026-01-18 10:17:13.61	109.22	76.50	-35.1	-37.1	8.5	352989	87	1533
2026-01-18 10:17:13.81	108.89	76.56	-35.0	-36.8	8.7	409919	87	1503
2026-01-18 10:17:14.01	108.56	76.63	-35.0	-36.7	8.8	409919	87	1497
2026-01-18 10:17:14.21	108.23	76.69	-35.2	-37.3	8.5	319938	87	1559
2026-01-18 10:17:14.41	107.89	76.75	-35.2	-37.1	8.6	319938	87	1539
2026-01-18 10:17:14.61	107.55	76.82	-35.1	-36.9	8.6	384841	87	1511
2026-01-18 10:17:14.81	107.21	76.88	-34.8	-36.2	9.0	384841	87	1447
2026-01-18 10:17:15.01	106.86	76.94	-34.9	-36.3	9.0	272155	87	1459
2026-01-18 10:17:15.22	106.49	77.01	-34.7	-35.9	9.2	272155	87	1423
2026-01-18 10:17:15.42	106.14	77.07	-34.8	-36.1	9.2	272155	87	1441
2026-01-18 10:17:15.62	105.78	77.13	-34.8	-36.2	9.1	206291	87	1448
2026-01-18 10:17:15.82	105.42	77.19	-35.0	-36.7	8.7	206291	87	1501
2026-01-18 10:17:16.02	105.06	77.25	-34.9	-36.5	9.0	244575	87	1482
2026-01-18 10:17:16.22	104.69	77.31	-34.6	-35.8	9.2	244575	87	1405
2026-01-18 10:17:16.42	104.32	77.37	-35.1	-36.9	8.7	231422	87	1518
2026-01-18 10:17:16.62	103.94	77.42	-35.0	-36.8	8.6	231422	87	1500
2026-01-18 10:17:16.82	103.56	77.48	-34.9	-36.4	8.9	348007	87	1463
2026-01-18 10:17:17.02	103.18	77.54	-35.2	-37.2	8.6	348007	87	1552
2026-01-18 10:17:17.23	102.78	77.60	-35.3	-37.5	8.1	376976	87	1577
2026-01-18 10:17:17.43	102.39	77.66	-35.6	-37.6	7.9	376976	88	1558
2026-01-18 10:17:17.63	102.00	77.71	-35.2	-36.7	8.2	376976	88	1463
2026-01-18 10:17:17.83	101.60	77.77	-35.5	-37.5	7.8	618759	88	1544
2026-01-18 10:17:18.03	101.20	77.82	-35.5	-37.4	7.9	618759	88	1535
2026-01-18 10:17:18.23	100.79	77.87	-35.3	-36.7	8.4	644897	88	1461
2026-01-18 10:17:18.43	100.39	77.93	-35.3	-36.8	8.3	644897	88	1465
2026-01-18 10:17:18.63	99.98	77.98	-35.3	-37.0	8.3	467185	88	1489
2026-01-18 10:17:18.83	99.56	78.03	-35.4	-37.1	8.2	467185	88	1507
2026-01-18 10:17:19.04	99.12	78.09	-35.5	-37.4	8.1	488677	88	1533
2026-01-18 10:17:19.24	98.70	78.14	-35.5	-37.5	8.1	488677	88	1541
2026-01-18 10:17:19.44	98.27	78.19	-36.0	-38.6	7.3	671775	88	1676
2026-01-18 10:17:19.64	97.84	78.24	-36.1	-38.4	7.3	671775	89	1612
2026-01-18 10:17:19.84	97.41	78.29	-36.2	-38.7	7.0	1135475	89	1639
2026-01-18 10:17:20.04	96.97	78.34	-36.4	-39.3	6.6	1135475	89	1716
2026-01-18 10:17:20.24	96.53	78.38	-36.6	-39.2	6.2	1969306	90	1662
2026-01-18 10:17:20.44	96.08	78.43	-36.5	-39.1	6.3	1969306	90	1652
2026-01-18 10:17:20.64	95.64	78.48	-36.6	-39.3	6.3	1969306	90	1672
2026-01-18 10:17:20.84	95.18	78.52	-37.0	-40.4	5.5	2348442	90	1825
2026-01-18 10:17:21.04	94.73	78.57	-37.4	-40.8	5.2	2348442	91	1829
2026-01-18 10:17:21.25	94.24	78.61	-37.1	-40.0	5.7	4448890	91	1711
2026-01-18 10:17:21.45	93.78	78.66	-37.1	-39.9	5.8	4448890	91	1697
2026-01-18 10:17:21.65	93.31	78.70	-37.1	-39.9	5.8	3496704	91	1699
2026-01-18 10:17:21.85	92.84	78.74	-37.1	-39.9	5.8	3496704	91	1697
2026-01-18 10:17:22.05	92.37	78.78	-37.2	-40.3	5.6	3413490	91	1743
2026-01-18 10:17:22.25	91.89	78.82	-37.0	-39.6	5.9	3413490	91	1658
2026-01-18 10:17:22.45	91.41	78.86	-37.5	-40.5	5.1	3907928	92	1753
2026-01-18 10:17:22.65	90.92	78.90	-37.6	-40.9	5.0	3907928	92	1796
2026-01-18 10:17:22.85	90.44	78.94	-37.3	-40.0	5.3	3907928	92	1675
2026-01-18 10:17:23.05	89.94	78.98	-37.8	-41.5	4.7	5681854	92	1889
2026-01-18 10:17:23.25	89.45	79.02	-37.8	-41.7	4.6	5681854	92	1928
2026-01-18 10:17:23.46	88.93	79.05	-37.5	-40.5	5.1	6708549	92	1734
2026-01-18 10:17:23.66	88.42	79.09	-37.7	-41.0	4.8	6708549	92	1811
2026-01-18 10:17:23.86	87.92	79.12	-37.7	-41.1	4.8	6378776	92	1828
2026-01-18 10:17:24.06	87.41	79.16	-37.8	-41.6	4.5	6378776	92	1907
2026-01-18 10:17:24.26	86.90	79.19	-37.7	-41.0	4.9	7226089	92	1809
2026-01-18 10:17:24.46	86.38	79.22	-37.6	-41.0	4.9	7226089	92	1820
2026-01-18 10:17:24.66	85.87	79.25	-37.5	-40.3	5.2	5891853	92	1716
2026-01-18 10:17:24.86	85.35	79.28	-37.2	-39.6	5.5	5891853	92	1622
2026-01-18 10:17:25.06	84.82	79.31	-37.2	-39.5	5.7	4108451	92	1604
2026-01-18 10:17:25.27	84.27	79.34	-36.8	-38.5	6.4	4108451	92	1483
2026-01-18 10:17:25.47	83.74	79.37	-37.0	-39.0	6.2	4108451	92	1553
2026-01-18 10:17:25.67	83.21	79.39	-37.2	-39.8	5.7	2642448	92	1662
2026-01-18 10:17:25.87	82.67	79.42	-37.1	-39.4	5.9	2642448	92	1597
2026-01-18 10:17:26.07	82.13	79.44	-37.3	-40.1	5.5	3409652	92	1686
2026-01-18 10:17:26.27	81.59	79.47	-37.5	-40.7	5.2	3409652	92	1774
2026-01-18 10:17:26.47	81.05	79.49	-37.5	-40.7	5.2	4455718	92	1780
2026-01-18 10:17:26.67	80.51	79.51	-37.7	-41.4	4.8	4455718	92	1876
2026-01-18 10:17:26.87	79.96	79.53	-37.6	-41.0	5.0	5875183	92	1813
2026-01-18 10:17:27.08	79.38	79.55	-37.7	-41.2	4.9	5875183	92	1839
2026-01-18 10:17:27.28	78.83	79.57	-37.9	-41.9	4.6	6213020	92	1944
2026-01-18 10:17:27.48	78.28	79.59	-37.9	-41.7	4.6	6213020	92	1923
2026-01-18 10:17:27.68	77.72	79.61	-38.0	-41.9	4.2	6213020	93	1929
2026-01-18 10:17:27.88	77.17	79.62	-37.9	-41.4	4.5	8504272	93	1830
2026-01-18 10:17:28.08	76.61	79.64	-37.7	-40.9	4.7	8504272	93	1762
2026-01-18 10:17:28.28	76.05	79.65	-37.4	-39.6	5.3	7432975	93	1594
2026-01-18 10:17:28.48	75.48	79.67	-37.5	-40.1	5.2	7432975	93	1655
2026-01-18 10:17:28.68	74.92	79.68	-37.4	-39.9	5.3	5014511	93	1629
2026-01-18 10:17:28.89	74.33	79.69	-37.3	-39.5	5.5	5014511	93	1583
2026-01-18 10:17:29.09	73.76	79.70	-37.6	-40.3	5.1	4596427	93	1683
2026-01-18 10:17:29.29	73.20	79.71	-37.4	-39.9	5.3	4596427	93	1632
2026-01-18 10:17:29.49	72.63	79.72	-37.4	-39.8	5.4	4799537	93	1623
2026-01-18 10:17:29.69	72.06	79.72	-37.6	-40.5	5.1	4799537	93	1715
2026-01-18 10:17:29.89	71.49	79.73	-37.7	-40.8	4.9	5259376	93	1751
2026-01-18 10:17:30.09	70.92	79.74	-37.6	-40.6	5.1	5259376	93	1732
2026-01-18 10:17:30.29	70.35	79.74	-37.6	-40.5	5.2	5534637	93	1723
2026-01-18 10:17:30.49	69.78	79.74	-37.7	-40.9	4.8	5534637	93	1768
2026-01-18 10:17:30.69	69.21	79.75	-37.8	-41.0	4.7	5534637	93	1795
2026-01-18 10:17:30.89	68.63	79.75	-38.2	-42.7	4.0	6805007	93	2064
2026-01-18 10:17:31.10	68.03	79.75	-38.2	-42.8	4.0	6805007	93	2102
2026-01-18 10:17:31.30	67.46	79.75	-38.2	-43.1	3.9	11564620	93	2156
2026-01-18 10:17:31.50	66.89	79.74	-38.3	-44.6	3.6	11564620	93	2552
2026-01-18 10:17:31.70	66.32	79.74	-38.2	-44.0	3.8	13959098	93	2412
2026-01-18 10:17:31.90	65.75	79.74	-38.2	-43.7	4.0	13959098	93	2305
2026-01-18 10:17:32.10	65.18	79.73	-38.1	-42.8	4.1	13401351	93	2110
2026-01-18 10:17:32.30	64.61	79.73	-38.0	-42.1	4.2	13401351	93	1966
2026-01-18 10:17:32.50	64.04	79.72	-37.9	-41.3	4.5	10116470	93	1830
2026-01-18 10:17:32.70	63.47	79.71	-37.7	-40.5	4.8	10116470	93	1704
2026-01-18 10:17:32.90	62.90	79.70	-37.7	-40.6	4.8	10116470	93	1723
2026-01-18 10:17:33.11	62.31	79.69	-37.5	-40.1	5.1	6842315	93	1657
2026-01-18 10:17:33.31	61.74	79.68	-37.5	-39.9	5.2	6842315	93	1633
2026-01-18 10:17:33.51	61.18	79.67	-36.8	-38.8	6.5	5518638	91	1554
2026-01-18 10:17:33.71	60.62	79.66	-36.9	-39.4	6.2	5518638	91	1639
2026-01-18 10:17:33.91	60.06	79.64	-37.0	-39.6	6.2	2501640	91	1667
2026-01-18 10:17:34.11	59.50	79.63	-36.8	-39.0	6.6	2501640	91	1587
2026-01-18 10:17:34.31	58.94	79.61	-37.0	-39.7	6.2	2258804	91	1676
2026-01-18 10:17:34.51	58.38	79.60	-36.9	-39.5	6.4	2258804	91	1655
2026-01-18 10:17:34.71	57.83	79.58	-37.0	-39.6	6.3	2264656	91	1671
2026-01-18 10:17:34.91	57.28	79.56	-37.1	-40.0	6.1	2264656	91	1719
2026-01-18 10:17:35.12	56.70	79.54	-37.2	-40.3	6.0	2674240	91	1767
2026-01-18 10:17:35.32	56.15	79.52	-37.3	-40.6	5.7	2674240	91	1807
2026-01-18 10:17:35.52	55.61	79.50	-37.3	-40.6	5.6	2674240	91	1791
2026-01-18 10:17:35.72	55.07	79.47	-37.3	-40.7	5.7	3572914	91	1814
2026-01-18 10:17:35.92	54.52	79.45	-37.3	-40.5	5.8	3572914	91	1780
2026-01-18 10:17:36.12	53.99	79.43	-37.3	-40.7	5.7	3443977	91	1811
2026-01-18 10:17:36.32	53.45	79.40	-37.2	-40.1	5.9	3443977	91	1722
2026-01-18 10:17:36.52	52.92	79.37	-37.1	-40.0	6.1	3541252	91	1712
2026-01-18 10:17:36.72	52.39	79.35	-37.0	-39.8	6.1	3541252	91	1691
2026-01-18 10:17:36.92	51.86	79.32	-36.9	-39.4	6.4	2656387	91	1637
2026-01-18 10:17:37.13	51.31	79.29	-36.9	-39.4	6.4	2656387	91	1639
2026-01-18 10:17:37.33	50.79	79.26	-37.0	-39.9	6.1	2456451	91	1707
2026-01-18 10:17:37.53	50.27	79.23	-37.2	-40.6	5.7	2456451	91	1802
2026-01-18 10:17:37.73	49.75	79.20	-37.4	-41.0	5.5	2456451	91	1870
2026-01-18 10:17:37.93	49.24	79.17	-37.5	-40.7	5.1	3512855	92	1790
2026-01-18 10:17:38.13	48.73	79.13	-37.6	-41.0	5.1	3512855	92	1832
2026-01-18 10:17:38.33	48.23	79.10	-37.8	-41.6	4.7	5308197	92	1914
2026-01-18 10:17:38.53	47.72	79.06	-37.8	-41.7	4.6	5308197	92	1926
2026-01-18 10:17:38.73	47.22	79.03	-37.6	-41.1	4.8	7025405	92	1841
2026-01-18 10:17:38.93	46.73	78.99	-37.6	-40.9	5.0	7025405	92	1797
2026-01-18 10:17:39.13	46.24	78.95	-37.5	-40.4	5.2	5642791	92	1733
2026-01-18 10:17:39.33	45.75	78.92	-37.1	-39.4	5.9	5642791	92	1605
2026-01-18 10:17:39.54	45.24	78.88	-37.0	-39.2	6.0	3789993	92	1582
2026-01-18 10:17:39.74	44.75	78.84	-36.8	-38.6	6.3	3789993	92	1507
2026-01-18 10:17:39.94	44.27	78.80	-36.8	-38.9	6.5	2381950	91	1580
2026-01-18 10:17:40.14	43.80	78.75	-36.5	-38.3	7.0	2381950	91	1509
2026-01-18 10:17:40.34	43.33	78.71	-36.6	-38.5	6.9	1478591	91	1537
2026-01-18 10:17:40.54	42.86	78.67	-36.8	-39.0	6.6	1478591	91	1585
2026-01-18 10:17:40.74	42.40	78.63	-36.9	-39.3	6.4	1478591	91	1628
2026-01-18 10:17:40.94	41.94	78.58	-37.0	-39.7	6.2	2008628	91	1677
2026-01-18 10:17:41.14	41.48	78.54	-37.1	-39.8	6.0	2008628	91	1684
2026-01-18 10:17:41.34	41.02	78.49	-37.4	-40.9	5.3	2826004	91	1830
2026-01-18 10:17:41.54	40.57	78.45	-37.5	-40.7	5.0	2826004	92	1778
2026-01-18 10:17:41.75	40.11	78.40	-37.4	-40.4	5.1	5356681	92	1735
2026-01-18 10:17:41.95	39.66	78.35	-37.6	-40.8	5.0	5356681	92	1785
2026-01-18 10:17:42.15	39.23	78.30	-37.5	-40.5	5.0	5687011	92	1745
2026-01-18 10:17:42.35	38.79	78.25	-37.3	-39.8	5.4	5687011	92	1647
2026-01-18 10:17:42.55	38.36	78.20	-37.0	-39.0	5.8	4559654	92	1543
2026-01-18 10:17:42.75	37.93	78.15	-36.9	-38.8	6.2	4559654	92	1522
2026-01-18 10:17:42.95	37.51	78.10	-36.9	-38.8	6.0	4559654	92	1532
2026-01-18 10:17:43.15	37.09	78.05	-36.9	-38.8	5.9	2891693	92	1526
2026-01-18 10:17:43.35	36.67	78.00	-36.9	-39.3	6.2	2891693	91	1614
2026-01-18 10:17:43.55	36.26	77.95	-36.9	-39.1	6.1	2780067	91	1596
2026-01-18 10:17:43.76	35.83	77.89	-37.0	-39.6	6.1	2780067	91	1658
2026-01-18 10:17:43.96	35.43	77.84	-36.8	-38.9	6.2	2823829	91	1570
2026-01-18 10:17:44.16	35.03	77.78	-37.0	-39.6	5.8	2823829	91	1658
2026-01-18 10:17:44.36	34.63	77.73	-37.3	-40.5	5.3	3326278	91	1772
2026-01-18 10:17:44.56	34.23	77.67	-37.3	-40.4	5.2	3326278	91	1755
2026-01-18 10:17:44.76	33.84	77.62	-37.2	-40.2	5.4	4913696	91	1733
2026-01-18 10:17:44.96	33.46	77.56	-37.4	-40.7	5.1	4913696	91	1805
2026-01-18 10:17:45.16	33.07	77.50	-37.4	-40.4	4.9	5166976	92	1731
2026-01-18 10:17:45.36	32.69	77.45	-37.4	-40.2	4.9	5166976	92	1707
2026-01-18 10:17:45.57	32.30	77.39	-37.2	-39.7	5.1	5166976	92	1640
2026-01-18 10:17:45.77	31.93	77.33	-37.2	-39.7	5.2	5898689	92	1637
2026-01-18 10:17:45.97	31.56	77.27	-37.3	-39.9	5.1	5898689	92	1660
2026-01-18 10:17:46.17	31.19	77.21	-37.3	-40.0	5.0	5218833	92	1680
2026-01-18 10:17:46.37	30.83	77.15	-37.4	-40.2	4.8	5218833	92	1700
2026-01-18 10:17:46.57	30.47	77.09	-37.6	-41.0	4.5	6090805	92	1812
2026-01-18 10:17:46.77	30.12	77.03	-37.7	-41.2	4.5	6090805	92	1837
2026-01-18 10:17:46.97	29.77	76.97	-37.7	-41.2	4.5	7735626	92	1837
2026-01-18 10:17:47.17	29.42	76.90	-37.8	-41.6	4.3	7735626	92	1907
2026-01-18 10:17:47.38	29.06	76.84	-37.9	-42.2	4.1	9344940	92	2005
2026-01-18 10:17:47.58	28.72	76.78	-37.9	-41.6	4.0	9344940	93	1878
2026-01-18 10:17:47.78	28.38	76.71	-38.1	-42.3	3.9	9344940	93	1999
2026-01-18 10:17:47.98	28.05	76.65	-38.0	-42.1	4.0	12102363	93	1972
2026-01-18 10:17:48.18	27.72	76.59	-38.1	-42.6	3.9	12102363	93	2064
2026-01-18 10:17:48.38	27.39	76.52	-38.1	-42.7	3.8	13319725	93	2096
2026-01-18 10:17:48.58	27.06	76.46	-38.1	-44.0	3.7	13319725	93	2421
2026-01-18 10:17:48.78	26.74	76.39	-38.1	-43.7	4.0	14381912	93	2343
2026-01-18 10:17:48.98	26.42	76.33	-38.0	-42.7	4.0	14381912	93	2104
2026-01-18 10:17:49.18	26.11	76.26	-37.8	-41.7	4.3	13229141	93	1925
2026-01-18 10:17:49.39	25.78	76.19	-37.5	-40.3	4.9	13229141	93	1700
2026-01-18 10:17:49.59	25.47	76.12	-37.6	-40.8	4.8	7469566	93	1768
2026-01-18 10:17:49.79	25.17	76.06	-37.4	-40.1	5.0	7469566	93	1679
2026-01-18 10:17:49.99	24.87	75.99	-37.0	-39.4	5.7	5393905	92	1608
2026-01-18 10:17:50.19	24.57	75.92	-36.8	-38.6	6.2	5393905	92	1522
2026-01-18 10:17:50.39	24.27	75.85	-36.6	-38.5	6.7	2676521	91	1540
2026-01-18 10:17:50.59	23.98	75.78	-36.5	-38.3	6.9	2676521	91	1523
2026-01-18 10:17:50.79	23.69	75.72	-36.3	-38.0	7.1	2676521	91	1486
2026-01-18 10:17:50.99	23.40	75.65	-36.3	-37.9	7.2	1513687	91	1482
2026-01-18 10:17:51.19	23.11	75.58	-36.0	-37.9	7.3	1513687	90	1530
2026-01-18 10:17:51.39	22.83	75.51	-36.0	-37.7	7.5	1158706	90	1504
2026-01-18 10:17:51.59	22.55	75.44	-35.9	-38.0	8.0	1158706	89	1573
2026-01-18 10:17:51.79	22.28	75.37	-36.2	-38.9	7.3	966903	89	1681
2026-01-18 10:17:52.00	21.99	75.29	-36.3	-39.2	7.0	966903	89	1720
2026-01-18 10:17:52.20	21.72	75.22	-35.9	-38.1	7.7	1308532	89	1586
2026-01-18 10:17:52.40	21.45	75.15	-35.7	-37.6	8.1	1308532	89	1531
2026-01-18 10:17:52.60	21.18	75.08	-35.8	-37.8	8.0	709037	89	1547
2026-01-18 10:17:52.80	20.92	75.01	-35.4	-36.8	8.6	709037	89	1451
2026-01-18 10:17:53.00	20.66	74.94	-35.5	-37.1	8.5	709037	89	1482
2026-01-18 10:17:53.20	20.40	74.86	-35.2	-36.9	9.0	437316	88	1493
2026-01-18 10:17:53.40	20.15	74.79	-35.3	-37.0	8.9	437316	88	1512
2026-01-18 10:17:53.60	19.90	74.72	-35.3	-37.2	8.7	284240	88	1534
2026-01-18 10:17:53.80	19.65	74.65	-35.3	-37.1	8.8	284240	88	1523
2026-01-18 10:17:54.01	19.39	74.57	-35.2	-37.0	9.1	303176	88	1506
2026-01-18 10:17:54.21	19.14	74.50	-35.1	-36.7	9.3	303176	88	1479
2026-01-18 10:17:54.41	18.90	74.42	-34.8	-35.9	9.7	211906	88	1396
2026-01-18 10:17:54.61	18.66	74.35	-34.6	-35.8	9.9	211906	87	1423
2026-01-18 10:17:54.81	18.42	74.27	-34.5	-35.7	10.2	84068	87	1414
2026-01-18 10:17:55.01	18.19	74.20	-34.5	-35.8	10.1	84068	87	1427
2026-01-18 10:17:55.21	17.95	74.13	-34.3	-35.2	10.4	61737	87	1362
2026-01-18 10:17:55.41	17.72	74.05	-34.4	-35.4	10.2	61737	87	1391
2026-01-18 10:17:55.61	17.49	73.98	-34.0	-35.3	10.5	61737	86	1419
2026-01-18 10:17:55.81	17.27	73.90	-34.0	-35.3	10.4	46501	86	1419
2026-01-18 10:17:56.01	17.04	73.83	-33.9	-35.1	10.4	46501	86	1398
2026-01-18 10:17:56.22	16.81	73.75	-34.1	-35.3	10.4	41389	86	1427
2026-01-18 10:17:56.42	16.59	73.67	-33.9	-34.9	10.5	41389	86	1382
2026-01-18 10:17:56.62	16.37	73.60	-33.8	-34.6	10.7	40878	86	1358
2026-01-18 10:17:56.82	16.16	73.52	-33.7	-34.9	10.7	40878	85	1416
2026-01-18 10:17:57.02	15.94	73.44	-33.5	-35.0	11.0	25756	84	1460
2026-01-18 10:17:57.22	15.73	73.37	-33.8	-35.7	10.8	25756	84	1534
2026-01-18 10:17:57.42	15.52	73.29	-33.9	-36.0	10.5	24803	84	1557
2026-01-18 10:17:57.62	15.31	73.21	-33.4	-34.8	11.2	24803	84	1443
2026-01-18 10:17:57.82	15.11	73.14	-33.2	-34.3	11.4	24803	84	1400
2026-01-18 10:17:58.02	14.91	73.06	-33.0	-33.8	11.6	16220	84	1351
2026-01-18 10:17:58.22	14.70	72.98	-33.1	-34.0	11.7	16220	84	1372
2026-01-18 10:17:58.42	14.50	72.91	-33.1	-34.1	11.5	7240	84	1379
2026-01-18 10:17:58.63	14.30	72.82	-33.0	-33.9	11.5	7240	84	1363
2026-01-18 10:17:58.83	14.10	72.75	-33.1	-34.0	11.3	7400	84	1366
2026-01-18 10:17:59.03	13.91	72.67	-33.1	-34.1	11.4	7400	84	1375
2026-01-18 10:17:59.23	13.72	72.59	-33.4	-34.6	11.1	10475	84	1428
2026-01-18 10:17:59.43	13.53	72.51	-33.4	-34.9	11.0	10475	84	1449
2026-01-18 10:17:59.63	13.34	72.43	-34.2	-36.0	9.8	29136	85	1528
2026-01-18 10:17:59.83	13.15	72.36	-33.8	-35.0	10.1	29136	85	1423
2026-01-18 10:18:00.03	12.97	72.28	-33.6	-34.7	10.3	64064	85	1394
2026-01-18 10:18:00.23	12.78	72.20	-34.1	-35.8	9.9	64064	85	1500
2026-01-18 10:18:00.43	12.60	72.12	-34.1	-36.0	9.7	64064	85	1516
2026-01-18 10:18:00.63	12.42	72.04	-34.0	-35.7	9.9	78407	85	1491
2026-01-18 10:18:00.84	12.23	71.96	-33.9	-35.3	10.1	78407	85	1442
2026-01-18 10:18:01.04	12.06	71.88	-33.7	-34.9	10.3	85784	85	1413
2026-01-18 10:18:01.24	11.88	71.80	-33.6	-34.6	10.4	85784	85	1383
2026-01-18 10:18:01.44	11.71	71.72	-33.6	-34.7	10.5	49278	85	1399
2026-01-18 10:18:01.64	11.54	71.64	-33.5	-34.5	10.6	49278	85	1374
2026-01-18 10:18:01.84	11.37	71.56	-33.4	-34.3	10.8	33409	85	1356
2026-01-18 10:18:02.04	11.20	71.48	-33.6	-34.6	10.5	33409	85	1387
2026-01-18 10:18:02.24	11.03	71.40	-33.2	-34.4	11.0	28358	84	1401
2026-01-18 10:18:02.44	10.87	71.33	-33.6	-35.2	10.8	28358	84	1484
2026-01-18 10:18:02.64	10.70	71.25	-33.5	-35.1	10.7	24520	84	1474
2026-01-18 10:18:02.85	10.53	71.16	-33.5	-35.1	10.7	24520	84	1477
2026-01-18 10:18:03.05	10.37	71.08	-33.5	-35.0	10.7	24520	84	1466
2026-01-18 10:18:03.25	10.21	71.00	-33.7	-35.5	10.6	30151	84	1517
2026-01-18 10:18:03.45	10.06	70.92	-33.6	-35.3	10.7	30151	84	1498
2026-01-18 10:18:03.65	9.90	70.84	-33.7	-35.5	10.6	30006	84	1516
2026-01-18 10:18:03.85	9.74	70.76	-34.5	-36.6	10.1	30006	85	1555
2026-01-18 10:18:04.05	9.59	70.68	-34.2	-36.1	9.9	51567	85	1534
2026-01-18 10:18:04.25	9.44	70.60	-34.4	-36.7	9.6	51567	85	1606
2026-01-18 10:18:04.45	9.29	70.52	-34.6	-36.6	9.3	121482	86	1559
2026-01-18 10:18:04.65	9.14	70.44	-37.7	-42.8	4.5	121482	92	2227

#Closed at: 2026-01-18 10:18:04