passes_logs/2026/01/21/T1/T1__20260121_230357_SUOMI_NPP_rec.log

#Pass ID: 20260121_230357_SUOMI NPP
#Satellite: SUOMI NPP
#Configuration: NPP
#almurnet v.1.7.20251203
#Start time: 2026-01-21 23:03:57

#Version: 2.0.20230620
#Station: T1
#Location: 37.570604 lon 55.790049 lat
#TLE: 1 37849U 11061A   26021.51818991  .00000201  00000+0  11636-3 0  9995
#TLE: 2 37849  98.7819 323.5108 0002300  52.3548 307.7836 14.19527793737637

#Time	Az	El	Level	Level2	SNR	BER	BlckErr	Temp	State	Recorded	gain1	gain2
2026-01-21 23:03:57.15	21.56	5.01	-49.6	-65.5	3.8	1.49e+00	0	35	0	0	70	22830
2026-01-21 23:03:58.14	21.61	5.08	-49.6	-65.5	3.8	1.49e+00	0	35	104	0	70	22875
2026-01-21 23:03:59.13	21.65	5.14	-49.6	-65.5	3.8	1.49e+00	0	35	104	0	70	22832
2026-01-21 23:04:00.12	21.69	5.21	-49.6	-65.5	3.8	1.49e+00	0	35	104	0	70	22789
2026-01-21 23:04:01.12	21.73	5.28	-49.6	-65.5	3.8	1.49e+00	0	35	104	0	70	22859
2026-01-21 23:04:02.11	21.78	5.35	-49.6	-65.5	3.8	1.49e+00	0	35	104	0	70	22812
2026-01-21 23:04:03.10	21.82	5.42	-49.6	-65.4	3.8	1.49e+00	0	35	104	0	70	22759
2026-01-21 23:04:04.10	21.86	5.49	-49.6	-65.5	3.8	1.49e+00	0	35	104	0	70	22794
2026-01-21 23:04:05.09	21.91	5.56	-49.6	-65.5	3.8	1.49e+00	0	36	104	0	70	22890
2026-01-21 23:04:06.08	21.95	5.62	-49.6	-65.5	3.8	1.49e+00	0	35	104	0	70	22840
2026-01-21 23:04:07.08	22.00	5.69	-49.6	-65.5	3.8	1.49e+00	0	35	104	0	70	22853
2026-01-21 23:04:08.07	22.04	5.76	-49.6	-65.5	3.8	1.49e+00	0	36	104	0	70	22900
2026-01-21 23:04:09.06	22.08	5.83	-49.6	-65.5	3.8	1.49e+00	0	36	104	0	70	22852
2026-01-21 23:04:10.05	22.13	5.90	-49.6	-65.5	3.8	1.49e+00	0	36	104	0	70	22904
2026-01-21 23:04:11.05	22.17	5.97	-49.6	-65.5	3.8	1.49e+00	0	36	104	0	70	22808
2026-01-21 23:04:12.04	22.22	6.04	-49.6	-65.5	3.8	1.49e+00	0	36	104	0	70	22867
2026-01-21 23:04:13.03	22.26	6.11	-49.6	-65.5	3.8	1.49e+00	0	36	104	0	70	22811
2026-01-21 23:04:14.03	22.31	6.19	-49.6	-65.5	3.8	1.49e+00	0	36	104	0	70	22952
2026-01-21 23:04:15.02	22.35	6.26	-49.6	-65.5	3.8	1.49e+00	0	36	104	0	70	22845
2026-01-21 23:04:16.01	22.40	6.33	-49.6	-65.5	3.8	1.49e+00	0	36	104	0	70	22850
2026-01-21 23:04:17.01	22.44	6.40	-49.6	-65.4	3.8	1.49e+00	0	36	104	0	70	22779
2026-01-21 23:04:18.00	22.49	6.47	-49.6	-65.4	3.8	1.49e+00	0	36	104	0	70	22759
2026-01-21 23:04:18.99	22.54	6.54	-49.6	-65.4	3.8	1.49e+00	0	36	104	0	70	22748
2026-01-21 23:04:19.99	22.58	6.61	-49.6	-65.5	3.8	1.49e+00	0	36	104	0	70	22860
2026-01-21 23:04:20.98	22.63	6.68	-49.6	-65.4	3.8	1.49e+00	0	36	104	0	70	22766
2026-01-21 23:04:21.97	22.68	6.76	-49.6	-65.4	3.8	1.49e+00	0	36	104	0	70	22711
2026-01-21 23:04:22.96	22.72	6.83	-49.6	-65.4	3.8	1.49e+00	0	36	104	0	70	22598
2026-01-21 23:04:23.96	22.77	6.90	-49.6	-65.3	3.8	1.49e+00	0	36	104	0	70	22456
2026-01-21 23:04:24.95	22.82	6.97	-49.6	-65.2	3.8	1.49e+00	0	36	104	0	70	22023
2026-01-21 23:04:25.94	22.87	7.05	-49.6	-65.1	3.8	1.49e+00	0	36	104	0	70	21852
2026-01-21 23:04:26.94	22.91	7.12	-49.6	-64.9	3.8	1.49e+00	0	36	104	0	70	21352
2026-01-21 23:04:27.93	22.96	7.19	-49.6	-64.8	3.8	1.49e+00	0	36	104	0	70	21032
2026-01-21 23:04:28.92	23.01	7.27	-49.6	-64.4	3.8	1.49e+00	0	36	104	0	70	20258
2026-01-21 23:04:29.92	23.06	7.34	-49.6	-64.4	3.8	1.49e+00	0	36	104	0	70	20075
2026-01-21 23:04:30.91	23.11	7.41	-49.6	-64.3	3.8	1.49e+00	0	36	104	0	70	19863
2026-01-21 23:04:31.90	23.16	7.49	-49.6	-64.1	3.8	1.49e+00	0	36	104	0	70	19477
2026-01-21 23:04:32.90	23.21	7.56	-49.6	-64.1	3.8	1.49e+00	0	36	104	0	70	19442
2026-01-21 23:04:33.89	23.26	7.64	-49.5	-64.1	3.8	1.49e+00	0	36	104	0	70	19430
2026-01-21 23:04:34.88	23.31	7.71	-49.6	-64.0	3.8	1.49e+00	0	37	104	0	70	19295
2026-01-21 23:04:35.88	23.36	7.79	-49.6	-64.1	3.8	1.49e+00	0	37	104	0	70	19506
2026-01-21 23:04:36.87	23.41	7.86	-49.6	-64.0	3.8	1.49e+00	0	36	104	0	70	19338
2026-01-21 23:04:37.86	23.46	7.94	-49.5	-64.0	3.8	1.49e+00	0	36	104	0	70	19313
2026-01-21 23:04:38.86	23.51	8.01	-49.6	-64.0	3.8	1.49e+00	0	36	104	0	70	19369
2026-01-21 23:04:39.85	23.56	8.09	-49.6	-64.1	3.8	1.49e+00	0	36	104	0	70	19473
2026-01-21 23:04:40.84	23.61	8.16	-49.6	-63.9	3.8	1.49e+00	0	37	104	0	70	19059
2026-01-21 23:04:41.84	23.66	8.24	-49.5	-63.8	3.8	1.49e+00	0	37	104	0	70	18751
2026-01-21 23:04:42.83	23.71	8.32	-49.5	-63.3	3.8	1.49e+00	0	37	104	0	70	17834
2026-01-21 23:04:43.82	23.76	8.39	-49.5	-62.5	4.0	1.46e+00	0	37	0	0	70	16211
2026-01-21 23:04:44.82	23.82	8.47	-49.4	-62.1	4.2	1.42e+00	0	37	0	0	70	15448
2026-01-21 23:04:45.81	23.87	8.55	-49.3	-61.0	4.5	1.34e+00	0	37	0	0	70	13649
2026-01-21 23:04:46.81	23.92	8.62	-49.2	-59.6	5.2	8.54e-01	0	37	0	2097152	70	11639
2026-01-21 23:04:47.80	23.97	8.70	-49.0	-58.5	5.9	3.98e-01	0	37	0	4194304	70	10260
2026-01-21 23:04:48.79	24.03	8.78	-48.8	-57.2	7.0	2.33e-01	0	37	0	5242880	69	9333
2026-01-21 23:04:49.79	24.08	8.86	-48.5	-56.1	8.0	1.07e-01	0	37	0	7340032	69	8207
2026-01-21 23:04:50.78	24.13	8.93	-48.3	-55.2	8.8	5.05e-02	0	37	0	9437184	68	7870
2026-01-21 23:04:51.77	24.19	9.01	-48.1	-54.4	9.7	1.57e-02	0	37	0	11534336	68	7192
2026-01-21 23:04:52.77	24.24	9.09	-48.2	-54.9	9.2	1.10e-02	0	37	0	13631488	68	7615
2026-01-21 23:04:53.76	24.30	9.17	-49.3	-60.2	4.9	4.44e-02	0	37	0	14680064	69	13249
2026-01-21 23:04:54.75	24.35	9.25	-47.0	-51.9	12.1	8.52e-01	0	37	0	16777216	66	6006
2026-01-21 23:04:55.75	24.41	9.33	-48.4	-55.3	8.9	2.23e-03	0	37	0	18874368	67	8437
2026-01-21 23:04:56.76	24.46	9.41	-45.7	-49.4	14.7	2.49e-02	0	37	0	20971520	63	5365
2026-01-21 23:04:57.75	24.52	9.49	-45.6	-49.2	14.9	0.00e+00	0	37	0	22020096	63	5237
2026-01-21 23:04:58.75	24.57	9.57	-45.7	-49.3	14.7	0.00e+00	0	37	0	24117248	63	5306
2026-01-21 23:04:59.74	24.63	9.65	-45.5	-49.0	15.1	0.00e+00	0	37	0	26214400	63	5138
2026-01-21 23:05:00.74	24.69	9.73	-45.4	-48.8	15.3	0.00e+00	0	37	0	28311552	62	5307
2026-01-21 23:05:01.73	24.74	9.81	-45.6	-49.0	15.0	0.00e+00	0	37	0	30408704	62	5454
2026-01-21 23:05:02.73	24.80	9.89	-45.5	-49.0	15.1	0.00e+00	0	37	0	31457280	62	5455
2026-01-21 23:05:03.72	24.86	9.97	-45.7	-49.2	14.9	0.00e+00	0	37	0	33554432	62	5571
2026-01-21 23:05:04.71	24.92	10.05	-45.4	-48.7	15.3	0.00e+00	0	37	0	35651584	62	5273
2026-01-21 23:05:05.71	24.97	10.14	-45.2	-48.5	15.6	0.00e+00	0	37	0	37748736	62	5111
2026-01-21 23:05:06.70	25.03	10.22	-45.2	-48.5	15.6	0.00e+00	0	37	0	38797312	62	5116
2026-01-21 23:05:07.70	25.09	10.30	-45.3	-48.7	15.4	0.00e+00	0	37	0	40894464	62	5224
2026-01-21 23:05:08.69	25.15	10.38	-45.0	-48.3	15.8	0.00e+00	0	37	0	42991616	62	5002
2026-01-21 23:05:09.69	25.21	10.47	-44.9	-48.1	16.0	0.00e+00	0	37	0	45088768	61	5212
2026-01-21 23:05:10.69	25.27	10.55	-44.8	-47.9	16.1	0.00e+00	0	37	0	47185920	61	5094
2026-01-21 23:05:11.68	25.33	10.63	-44.7	-47.9	16.2	0.00e+00	0	37	0	48234496	61	5048
2026-01-21 23:05:12.74	25.39	10.72	-44.7	-47.8	16.3	0.00e+00	0	37	0	50331648	61	5032
2026-01-21 23:05:13.62	25.45	10.79	-44.7	-47.9	16.3	0.00e+00	0	37	0	52428800	61	5044
2026-01-21 23:05:14.92	25.53	10.90	-44.5	-47.6	16.5	0.00e+00	0	37	0	54525952	60	5203
2026-01-21 23:05:15.63	25.57	10.96	-44.6	-47.7	16.4	0.00e+00	0	37	0	55574528	60	5252
2026-01-21 23:05:16.91	25.65	11.07	-44.5	-47.5	16.6	0.00e+00	0	37	0	58720256	60	5137
2026-01-21 23:05:17.62	25.69	11.13	-44.4	-47.4	16.6	0.00e+00	0	37	0	59768832	60	5089
2026-01-21 23:05:18.90	25.77	11.24	-44.4	-47.4	16.7	0.00e+00	0	37	0	61865984	60	5091
2026-01-21 23:05:19.62	25.82	11.31	-44.2	-47.2	16.9	0.00e+00	0	37	0	63963136	60	4951
2026-01-21 23:05:20.90	25.90	11.42	-44.2	-47.3	16.8	0.00e+00	0	37	0	66060288	60	5003
2026-01-21 23:05:21.61	25.94	11.48	-44.2	-47.3	16.8	0.00e+00	0	37	0	67108864	60	4997
2026-01-21 23:05:22.89	26.02	11.59	-44.3	-47.3	16.9	0.00e+00	0	37	0	69206016	60	4984
2026-01-21 23:05:23.62	26.07	11.65	-44.2	-47.1	17.0	0.00e+00	0	37	0	71303168	60	4886
2026-01-21 23:05:24.89	26.15	11.76	-44.1	-46.9	17.2	0.00e+00	0	37	0	73400320	60	4803
2026-01-21 23:05:25.62	26.20	11.83	-44.3	-47.2	16.9	0.00e+00	0	37	0	74448896	60	4934
2026-01-21 23:05:26.90	26.28	11.94	-44.3	-47.1	17.0	0.00e+00	0	37	0	77594624	60	4922
2026-01-21 23:05:27.63	26.33	12.00	-44.0	-46.9	17.2	0.00e+00	0	37	0	78643200	60	4761
2026-01-21 23:05:28.91	26.42	12.12	-44.1	-46.9	17.2	0.00e+00	0	37	0	80740352	60	4789
2026-01-21 23:05:29.64	26.47	12.18	-44.1	-46.9	17.2	0.00e+00	0	37	0	82837504	60	4765
2026-01-21 23:05:30.91	26.55	12.29	-44.2	-47.0	17.1	0.00e+00	0	37	0	84934656	59	5129
2026-01-21 23:05:31.65	26.60	12.36	-44.1	-46.8	17.2	0.00e+00	0	37	0	85983232	59	5036
2026-01-21 23:05:32.93	26.69	12.47	-44.2	-46.9	17.1	0.00e+00	0	37	0	88080384	59	5096
2026-01-21 23:05:33.64	26.73	12.54	-44.3	-47.0	17.1	0.00e+00	0	37	0	90177536	59	5158
2026-01-21 23:05:34.92	26.82	12.65	-43.9	-46.6	17.4	0.00e+00	0	37	0	92274688	59	4920
2026-01-21 23:05:35.65	26.87	12.72	-44.0	-46.7	17.3	0.00e+00	0	37	0	93323264	59	4967
2026-01-21 23:05:36.93	26.96	12.84	-43.9	-46.6	17.5	0.00e+00	0	37	0	96468992	59	4902
2026-01-21 23:05:37.65	27.01	12.90	-43.9	-46.6	17.4	0.00e+00	0	37	0	97517568	59	4915
2026-01-21 23:05:38.93	27.10	13.02	-43.8	-46.5	17.5	0.00e+00	0	37	0	99614720	59	4856
2026-01-21 23:05:39.65	27.15	13.08	-43.8	-46.5	17.6	0.00e+00	0	37	0	100663296	59	4834
2026-01-21 23:05:40.92	27.24	13.20	-43.9	-46.6	17.4	0.00e+00	0	37	0	103809024	59	4894
2026-01-21 23:05:41.64	27.29	13.27	-43.7	-46.4	17.6	0.00e+00	0	37	0	104857600	59	4775
2026-01-21 23:05:42.92	27.38	13.39	-43.7	-46.4	17.6	0.00e+00	0	37	0	106954752	59	4773
2026-01-21 23:05:43.64	27.43	13.45	-43.8	-46.5	17.6	0.00e+00	0	37	0	109051904	59	4834
2026-01-21 23:05:44.92	27.53	13.57	-43.8	-46.4	17.6	0.00e+00	0	37	0	111149056	59	4794
2026-01-21 23:05:45.66	27.58	13.64	-43.7	-46.3	17.7	0.00e+00	0	37	0	112197632	59	4732
2026-01-21 23:05:46.94	27.67	13.76	-43.4	-46.0	18.0	0.00e+00	0	37	0	114294784	58	4831
2026-01-21 23:05:47.67	27.73	13.83	-43.4	-46.0	18.0	0.00e+00	0	37	0	116391936	58	4816
2026-01-21 23:05:49.14	27.84	13.97	-43.4	-46.0	18.0	0.00e+00	0	37	0	118489088	58	4844
2026-01-21 23:05:49.85	27.89	14.04	-43.4	-46.0	18.0	0.00e+00	0	37	0	120586240	58	4824
2026-01-21 23:05:51.19	27.99	14.17	-43.4	-46.1	17.9	0.00e+00	0	37	0	122683392	58	4881
2026-01-21 23:05:52.17	28.07	14.26	-43.4	-46.0	18.0	0.00e+00	0	37	0	124780544	58	4824
2026-01-21 23:05:53.16	28.14	14.35	-43.3	-45.9	18.1	0.00e+00	0	37	0	126877696	58	4788
2026-01-21 23:05:54.51	28.24	14.48	-43.3	-45.9	18.1	0.00e+00	0	37	0	128974848	58	4785
2026-01-21 23:05:55.22	28.30	14.55	-43.5	-46.1	17.9	0.00e+00	0	37	0	130023424	58	4906
2026-01-21 23:05:56.83	28.42	14.71	-43.3	-45.9	18.1	0.00e+00	0	37	0	133169152	58	4796
2026-01-21 23:05:57.40	28.47	14.77	-43.4	-46.0	18.0	0.00e+00	0	38	0	134217728	58	4869
2026-01-21 23:05:59.11	28.60	14.93	-43.5	-46.1	18.0	0.00e+00	0	37	0	137363456	58	4892
2026-01-21 23:05:59.74	28.65	14.99	-43.4	-45.9	18.1	0.00e+00	0	37	0	138412032	58	4792
2026-01-21 23:06:01.27	28.78	15.15	-43.4	-46.0	18.1	0.00e+00	0	37	0	141557760	58	4818
2026-01-21 23:06:01.98	28.83	15.22	-43.4	-45.9	18.1	0.00e+00	0	37	0	142606336	58	4779
2026-01-21 23:06:03.26	28.94	15.34	-43.4	-45.9	18.1	0.00e+00	0	37	0	145752064	58	4803
2026-01-21 23:06:03.98	28.99	15.42	-43.5	-46.0	18.0	0.00e+00	0	37	0	146800640	58	4858
2026-01-21 23:06:05.26	29.10	15.54	-43.6	-46.2	17.9	0.00e+00	0	38	0	148897792	58	4932
2026-01-21 23:06:05.97	29.16	15.62	-43.6	-46.1	18.0	0.00e+00	0	37	0	150994944	58	4891
2026-01-21 23:06:07.25	29.26	15.74	-43.7	-46.2	17.9	0.00e+00	0	38	0	153092096	58	4944
2026-01-21 23:06:07.96	29.32	15.82	-43.7	-46.3	17.8	0.00e+00	0	37	0	154140672	58	4990
2026-01-21 23:06:09.24	29.43	15.95	-43.8	-46.3	17.8	0.00e+00	0	38	0	156237824	58	5039
2026-01-21 23:06:09.97	29.49	16.02	-43.7	-46.3	17.8	0.00e+00	0	37	0	158334976	58	4985
2026-01-21 23:06:11.24	29.60	16.15	-43.8	-46.4	17.7	0.00e+00	0	38	0	160432128	58	5055
2026-01-21 23:06:11.96	29.66	16.23	-43.8	-46.4	17.7	0.00e+00	0	38	0	161480704	58	5062
2026-01-21 23:06:13.27	29.78	16.36	-43.8	-46.4	17.8	0.00e+00	0	37	0	164626432	58	5048
2026-01-21 23:06:13.98	29.84	16.43	-43.9	-46.5	17.6	0.00e+00	0	37	0	165675008	58	5139
2026-01-21 23:06:15.26	29.95	16.57	-43.9	-46.5	17.6	0.00e+00	0	38	0	167772160	58	5112
2026-01-21 23:06:15.98	30.01	16.64	-44.0	-46.6	17.5	0.00e+00	0	38	0	168820736	58	5184
2026-01-21 23:06:17.26	30.13	16.78	-44.0	-46.5	17.6	0.00e+00	0	38	0	171966464	58	5158
2026-01-21 23:06:17.97	30.19	16.85	-43.8	-46.3	17.8	0.00e+00	0	37	0	173015040	58	5025
2026-01-21 23:06:19.25	30.31	16.99	-44.0	-46.7	17.5	0.00e+00	0	38	0	175112192	58	5232
2026-01-21 23:06:19.96	30.37	17.06	-43.9	-46.5	17.6	0.00e+00	0	38	0	177209344	58	5141
2026-01-21 23:06:21.24	30.49	17.20	-43.9	-46.5	17.6	0.00e+00	0	37	0	179306496	58	5154
2026-01-21 23:06:21.96	30.55	17.27	-44.1	-46.7	17.4	0.00e+00	0	37	0	180355072	58	5267
2026-01-21 23:06:23.24	30.67	17.41	-44.1	-46.8	17.3	0.00e+00	0	38	0	182452224	59	5027
2026-01-21 23:06:23.99	30.74	17.49	-44.1	-46.8	17.3	0.00e+00	0	38	0	184549376	59	5017
2026-01-21 23:06:25.27	30.86	17.63	-44.1	-46.7	17.4	0.00e+00	0	38	0	186646528	59	4983
2026-01-21 23:06:25.98	30.93	17.71	-44.3	-47.1	17.1	0.00e+00	0	38	0	187695104	59	5165
2026-01-21 23:06:27.25	31.05	17.84	-44.2	-46.9	17.3	0.00e+00	0	38	0	190840832	59	5065
2026-01-21 23:06:28.11	31.13	17.94	-44.4	-47.0	17.2	0.00e+00	0	38	0	191889408	59	5154
2026-01-21 23:06:29.24	31.24	18.06	-44.1	-46.7	17.5	0.00e+00	0	38	0	193986560	59	4935
2026-01-21 23:06:30.30	31.34	18.18	-44.2	-46.9	17.3	0.00e+00	0	38	0	196083712	59	5056
2026-01-21 23:06:31.37	31.44	18.30	-44.3	-46.9	17.3	0.00e+00	0	38	0	198180864	59	5057
2026-01-21 23:06:32.23	31.53	18.39	-44.3	-47.0	17.2	0.00e+00	0	37	0	199229440	59	5121
2026-01-21 23:06:33.36	31.64	18.52	-44.2	-46.8	17.4	0.00e+00	0	38	0	202375168	59	4987
2026-01-21 23:06:34.21	31.72	18.61	-44.3	-46.9	17.3	0.00e+00	0	38	0	203423744	59	5063
2026-01-21 23:06:35.35	31.84	18.74	-44.3	-47.0	17.2	0.00e+00	0	38	0	205520896	59	5111
2026-01-21 23:06:36.20	31.93	18.84	-44.3	-46.9	17.3	0.00e+00	0	38	0	207618048	59	5085
2026-01-21 23:06:37.34	32.04	18.97	-44.5	-47.3	17.0	0.00e+00	0	38	0	209715200	59	5287
2026-01-21 23:06:38.19	32.13	19.06	-44.4	-47.1	17.2	0.00e+00	0	38	0	210763776	59	5165
2026-01-21 23:06:39.33	32.25	19.19	-44.5	-47.2	17.0	0.00e+00	0	38	0	212860928	59	5252
2026-01-21 23:06:40.18	32.33	19.29	-44.6	-47.4	16.9	0.00e+00	0	38	0	214958080	60	5081
2026-01-21 23:06:41.32	32.45	19.42	-44.6	-47.4	16.9	0.00e+00	0	38	0	217055232	60	5089
2026-01-21 23:06:42.17	32.54	19.52	-44.6	-47.4	17.0	0.00e+00	0	38	0	218103808	60	5083
2026-01-21 23:06:43.31	32.66	19.65	-44.4	-47.2	17.1	0.00e+00	0	38	0	220200960	60	4943
2026-01-21 23:06:44.16	32.76	19.75	-44.5	-47.4	16.9	0.00e+00	0	38	0	222298112	60	5066
2026-01-21 23:06:45.30	32.88	19.88	-44.5	-47.3	17.0	0.00e+00	0	38	0	224395264	60	4999
2026-01-21 23:06:46.15	32.97	19.98	-44.0	-46.7	17.5	0.00e+00	0	38	0	225443840	60	4692
2026-01-21 23:06:47.29	33.09	20.12	-44.1	-46.8	17.5	0.00e+00	0	38	0	227540992	60	4738
2026-01-21 23:06:48.14	33.19	20.22	-44.0	-46.7	17.6	0.00e+00	0	38	0	229638144	60	4679
2026-01-21 23:06:49.54	33.34	20.38	-44.0	-46.7	17.5	0.00e+00	0	38	0	231735296	59	4939
2026-01-21 23:06:50.25	33.42	20.47	-44.0	-46.6	17.6	0.00e+00	0	38	0	233832448	59	4871
2026-01-21 23:06:51.53	33.57	20.62	-44.1	-46.7	17.5	0.00e+00	0	38	0	235929600	59	4976
2026-01-21 23:06:52.26	33.65	20.71	-44.1	-46.7	17.5	0.00e+00	0	38	0	236978176	59	4935
2026-01-21 23:06:53.53	33.80	20.86	-44.3	-47.0	17.3	0.00e+00	0	38	0	240123904	59	5124
2026-01-21 23:06:54.25	33.88	20.95	-44.3	-46.9	17.3	0.00e+00	0	38	0	241172480	59	5091
2026-01-21 23:06:55.52	34.03	21.10	-44.3	-46.9	17.3	0.00e+00	0	38	0	243269632	59	5070
2026-01-21 23:06:56.24	34.11	21.19	-44.3	-47.0	17.3	0.00e+00	0	38	0	244318208	59	5124
2026-01-21 23:06:57.52	34.26	21.34	-44.4	-47.0	17.3	0.00e+00	0	38	0	247463936	59	5128
2026-01-21 23:06:58.23	34.35	21.43	-44.3	-46.9	17.3	0.00e+00	0	38	0	248512512	59	5081
2026-01-21 23:06:59.52	34.50	21.59	-44.3	-46.9	17.3	0.00e+00	0	38	0	250609664	59	5059
2026-01-21 23:07:00.23	34.59	21.68	-44.5	-47.2	17.1	0.00e+00	0	38	0	252706816	59	5263
2026-01-21 23:07:01.51	34.74	21.84	-44.3	-47.0	17.3	0.00e+00	0	38	0	254803968	59	5104
2026-01-21 23:07:02.24	34.83	21.93	-44.4	-47.0	17.2	0.00e+00	0	38	0	255852544	59	5139
2026-01-21 23:07:03.51	34.99	22.09	-44.5	-47.1	17.1	0.00e+00	0	37	0	257949696	59	5214
2026-01-21 23:07:04.23	35.08	22.18	-44.2	-46.8	17.4	0.00e+00	0	38	0	260046848	59	5040
2026-01-21 23:07:05.50	35.24	22.34	-44.5	-47.2	17.1	0.00e+00	0	38	0	262144000	59	5237
2026-01-21 23:07:06.23	35.33	22.43	-44.4	-47.1	17.2	0.00e+00	0	38	0	263192576	59	5185
2026-01-21 23:07:07.62	35.51	22.61	-44.4	-47.0	17.2	0.00e+00	0	38	0	266338304	59	5153
2026-01-21 23:07:08.33	35.60	22.70	-44.5	-47.1	17.2	0.00e+00	0	38	0	267386880	59	5217
2026-01-21 23:07:09.61	35.76	22.86	-44.5	-47.2	17.2	0.00e+00	0	38	0	269484032	60	4932
2026-01-21 23:07:10.35	35.86	22.96	-44.4	-47.0	17.3	0.00e+00	0	38	0	271581184	60	4863
2026-01-21 23:07:11.74	36.04	23.14	-44.4	-47.0	17.3	0.00e+00	0	38	0	273678336	60	4851
2026-01-21 23:07:12.45	36.14	23.23	-44.4	-47.1	17.2	0.00e+00	0	38	0	274726912	60	4910
2026-01-21 23:07:13.74	36.31	23.40	-44.2	-46.8	17.5	0.00e+00	0	38	0	277872640	60	4749
2026-01-21 23:07:14.45	36.41	23.49	-44.2	-46.8	17.5	0.00e+00	0	38	0	278921216	60	4720
2026-01-21 23:07:15.73	36.58	23.66	-44.2	-46.7	17.5	0.00e+00	0	38	0	281018368	60	4693
2026-01-21 23:07:16.45	36.68	23.75	-44.3	-46.9	17.5	0.00e+00	0	37	0	283115520	60	4763
2026-01-21 23:07:17.73	36.86	23.92	-44.2	-46.8	17.5	0.00e+00	0	38	0	285212672	60	4732
2026-01-21 23:07:18.44	36.96	24.02	-44.4	-47.0	17.4	0.00e+00	0	38	0	286261248	60	4824
2026-01-21 23:07:19.72	37.14	24.19	-44.0	-46.5	17.8	0.00e+00	0	38	0	288358400	60	4597
2026-01-21 23:07:20.43	37.24	24.28	-44.2	-46.8	17.5	0.00e+00	0	38	0	290455552	60	4740
2026-01-21 23:07:21.71	37.42	24.45	-44.1	-46.6	17.6	0.00e+00	0	38	0	292552704	60	4651
2026-01-21 23:07:22.47	37.53	24.56	-44.2	-46.8	17.6	0.00e+00	0	38	0	293601280	60	4720
2026-01-21 23:07:23.75	37.72	24.73	-44.3	-46.9	17.4	0.00e+00	0	38	0	296747008	60	4778
2026-01-21 23:07:24.49	37.82	24.83	-44.2	-46.8	17.6	0.00e+00	0	38	0	297795584	60	4726
2026-01-21 23:07:25.77	38.01	25.00	-43.9	-46.4	17.9	0.00e+00	0	38	0	299892736	59	4770
2026-01-21 23:07:26.48	38.12	25.10	-44.1	-46.6	17.7	0.00e+00	0	38	0	300941312	59	4918
2026-01-21 23:07:27.76	38.31	25.28	-44.2	-46.7	17.5	0.00e+00	0	38	0	304087040	59	4960
2026-01-21 23:07:28.48	38.42	25.38	-44.0	-46.5	17.7	0.00e+00	0	38	0	305135616	59	4869
2026-01-21 23:07:29.76	38.62	25.55	-44.0	-46.5	17.7	0.00e+00	0	38	0	307232768	59	4866
2026-01-21 23:07:30.62	38.75	25.67	-44.0	-46.4	17.8	0.00e+00	0	37	0	309329920	59	4814
2026-01-21 23:07:31.75	38.93	25.83	-43.9	-46.4	17.8	0.00e+00	0	38	0	311427072	59	4795
2026-01-21 23:07:32.81	39.09	25.98	-44.1	-46.6	17.6	0.00e+00	0	38	0	313524224	59	4921
2026-01-21 23:07:33.86	39.26	26.13	-44.1	-46.7	17.6	0.00e+00	0	38	0	315621376	59	4939
2026-01-21 23:07:34.96	39.43	26.28	-44.2	-46.8	17.5	0.00e+00	0	38	0	317718528	59	5003
2026-01-21 23:07:35.81	39.57	26.40	-44.0	-46.5	17.8	0.00e+00	0	38	0	318767104	59	4827
2026-01-21 23:07:36.95	39.76	26.57	-44.0	-46.6	17.7	0.00e+00	0	38	0	320864256	59	4872
2026-01-21 23:07:37.80	39.90	26.69	-44.0	-46.4	17.8	0.00e+00	0	38	0	322961408	59	4805
2026-01-21 23:07:38.94	40.09	26.85	-44.1	-46.6	17.7	0.00e+00	0	38	0	325058560	59	4905
2026-01-21 23:07:39.80	40.23	26.97	-43.7	-46.1	18.1	0.00e+00	0	38	0	326107136	59	4605
2026-01-21 23:07:40.93	40.42	27.14	-43.7	-46.1	18.1	0.00e+00	0	38	0	328204288	59	4642
2026-01-21 23:07:41.78	40.57	27.26	-43.5	-45.9	18.3	0.00e+00	0	38	0	330301440	59	4496
2026-01-21 23:07:42.92	40.76	27.42	-43.7	-46.1	18.1	0.00e+00	0	38	0	332398592	59	4602
2026-01-21 23:07:43.77	40.91	27.55	-43.9	-46.4	17.9	0.00e+00	0	38	0	333447168	59	4767
2026-01-21 23:07:45.00	41.12	27.73	-44.0	-46.5	17.8	0.00e+00	0	37	0	336592896	59	4844
2026-01-21 23:07:45.86	41.27	27.86	-44.3	-46.8	17.5	0.00e+00	0	38	0	337641472	59	5024
2026-01-21 23:07:47.07	41.49	28.03	-44.5	-47.2	17.2	0.00e+00	0	38	0	339738624	59	5223
2026-01-21 23:07:47.93	41.64	28.16	-44.8	-47.6	16.8	0.00e+00	0	38	0	341835776	60	5184
2026-01-21 23:07:49.13	41.86	28.34	-45.0	-47.9	16.5	0.00e+00	0	38	0	343932928	61	5049
2026-01-21 23:07:49.98	42.02	28.47	-45.4	-48.4	16.1	0.00e+00	0	38	0	344981504	61	5369
2026-01-21 23:07:51.11	42.23	28.63	-45.6	-48.7	15.8	0.00e+00	0	38	0	348127232	62	5258
2026-01-21 23:07:51.97	42.39	28.76	-45.7	-48.8	15.7	0.00e+00	0	38	0	349175808	62	5338
2026-01-21 23:07:53.10	42.60	28.93	-45.8	-49.0	15.5	0.00e+00	0	37	0	351272960	62	5432
2026-01-21 23:07:53.96	42.76	29.06	-45.8	-48.9	15.7	0.00e+00	0	38	0	353370112	62	5349
2026-01-21 23:07:55.09	42.98	29.23	-45.9	-49.0	15.5	0.00e+00	0	38	0	355467264	62	5446
2026-01-21 23:07:55.95	43.15	29.36	-45.6	-48.6	15.8	0.00e+00	0	38	0	356515840	62	5216
2026-01-21 23:07:57.08	43.37	29.54	-45.7	-48.9	15.7	0.00e+00	0	38	0	358612992	62	5343
2026-01-21 23:07:58.01	43.55	29.68	-45.5	-48.6	16.0	0.00e+00	0	38	0	360710144	62	5160
2026-01-21 23:07:59.01	43.75	29.83	-45.7	-48.8	15.8	0.00e+00	0	38	0	362807296	62	5298
2026-01-21 23:08:00.00	43.95	29.98	-45.8	-49.0	15.6	0.00e+00	0	38	0	363855872	62	5408
2026-01-21 23:08:01.00	44.15	30.14	-45.8	-48.9	15.6	0.00e+00	0	38	0	365953024	62	5396
2026-01-21 23:08:01.99	44.35	30.29	-45.9	-49.1	15.4	0.00e+00	0	38	0	368050176	62	5474
2026-01-21 23:08:02.99	44.56	30.45	-45.7	-48.7	15.8	0.00e+00	0	38	0	370147328	62	5276
2026-01-21 23:08:03.99	44.77	30.60	-45.6	-48.6	15.9	0.00e+00	0	38	0	372244480	62	5202
2026-01-21 23:08:04.98	44.97	30.76	-45.1	-47.9	16.5	0.00e+00	0	38	0	373293056	62	4803
2026-01-21 23:08:05.98	45.19	30.91	-45.4	-48.4	16.1	0.00e+00	0	38	0	375390208	62	5077
2026-01-21 23:08:06.97	45.40	31.07	-45.1	-48.0	16.5	0.00e+00	0	38	0	377487360	62	4849
2026-01-21 23:08:07.97	45.61	31.22	-44.9	-47.7	16.8	0.00e+00	0	38	0	379584512	61	4938
2026-01-21 23:08:08.98	45.84	31.38	-45.0	-47.9	16.6	0.00e+00	0	38	0	380633088	61	5055
2026-01-21 23:08:09.97	46.05	31.54	-45.0	-47.9	16.6	0.00e+00	0	38	0	382730240	61	5046
2026-01-21 23:08:10.97	46.28	31.70	-45.0	-47.8	16.7	0.00e+00	0	38	0	384827392	61	4989
2026-01-21 23:08:11.97	46.50	31.86	-45.1	-47.9	16.6	0.00e+00	0	38	0	386924544	61	5085
2026-01-21 23:08:12.96	46.73	32.02	-45.3	-48.3	16.2	0.00e+00	0	38	0	389021696	61	5289
2026-01-21 23:08:13.96	46.95	32.17	-45.5	-48.5	16.0	0.00e+00	0	38	0	390070272	61	5420
2026-01-21 23:08:14.95	47.18	32.33	-45.7	-48.8	15.7	0.00e+00	0	38	0	392167424	62	5323
2026-01-21 23:08:15.95	47.42	32.49	-46.1	-49.4	15.3	0.00e+00	0	38	0	394264576	62	5666
2026-01-21 23:08:16.94	47.65	32.65	-45.7	-48.8	15.7	0.00e+00	0	38	0	396361728	62	5333
2026-01-21 23:08:17.93	47.89	32.81	-45.6	-48.6	15.9	0.00e+00	0	38	0	397410304	62	5216
2026-01-21 23:08:18.93	48.13	32.97	-45.4	-48.4	16.0	0.00e+00	0	38	0	399507456	62	5094
2026-01-21 23:08:19.92	48.37	33.13	-45.0	-47.7	16.7	0.00e+00	0	38	0	401604608	62	4700
2026-01-21 23:08:20.92	48.61	33.29	-45.0	-47.8	16.7	0.00e+00	0	38	0	403701760	61	4985
2026-01-21 23:08:21.91	48.86	33.46	-44.9	-47.7	16.8	0.00e+00	0	38	0	405798912	61	4932
2026-01-21 23:08:22.90	49.10	33.62	-45.1	-47.9	16.6	0.00e+00	0	38	0	406847488	61	5051
2026-01-21 23:08:23.90	49.36	33.78	-44.8	-47.5	16.9	0.00e+00	0	38	0	408944640	61	4870
2026-01-21 23:08:24.96	49.63	33.95	-45.0	-47.7	16.7	0.00e+00	0	38	0	411041792	61	4981
2026-01-21 23:08:25.86	49.86	34.10	-45.0	-47.8	16.6	0.00e+00	0	38	0	413138944	61	5010
2026-01-21 23:08:26.90	50.13	34.27	-45.0	-47.7	16.7	0.00e+00	0	38	0	414187520	61	4982
2026-01-21 23:08:27.89	50.39	34.43	-45.0	-47.8	16.7	0.00e+00	0	38	0	416284672	61	4987
2026-01-21 23:08:28.89	50.65	34.59	-45.4	-48.3	16.2	0.00e+00	0	38	0	418381824	61	5337
2026-01-21 23:08:29.89	50.92	34.76	-45.4	-48.4	16.1	0.00e+00	0	38	0	420478976	61	5386
2026-01-21 23:08:30.89	51.19	34.92	-45.6	-48.6	15.9	0.00e+00	0	38	0	422576128	61	5514
2026-01-21 23:08:31.88	51.46	35.09	-45.3	-48.3	16.3	0.00e+00	0	38	0	423624704	61	5309
2026-01-21 23:08:32.87	51.73	35.25	-45.1	-47.9	16.6	0.00e+00	0	38	0	425721856	61	5078
2026-01-21 23:08:33.87	52.01	35.41	-44.5	-47.1	17.3	0.00e+00	0	38	0	427819008	61	4638
2026-01-21 23:08:34.86	52.29	35.58	-44.1	-46.6	17.7	0.00e+00	0	38	0	429916160	60	4641
2026-01-21 23:08:35.86	52.58	35.74	-44.2	-46.8	17.6	0.00e+00	0	38	0	432013312	60	4729
2026-01-21 23:08:36.85	52.86	35.91	-44.2	-46.7	17.6	0.00e+00	0	38	0	433061888	59	4941
2026-01-21 23:08:37.86	53.15	36.07	-44.5	-47.1	17.2	0.00e+00	0	38	0	435159040	59	5218
2026-01-21 23:08:38.89	53.45	36.24	-44.7	-47.4	17.0	0.00e+00	0	38	0	437256192	60	5085
2026-01-21 23:08:39.93	53.76	36.41	-44.8	-47.6	16.9	0.00e+00	0	38	0	439353344	60	5183
2026-01-21 23:08:40.92	54.06	36.58	-44.6	-47.3	17.1	0.00e+00	0	38	0	441450496	60	5023
2026-01-21 23:08:41.98	54.38	36.75	-44.8	-47.5	16.9	0.00e+00	0	38	0	442499072	60	5144
2026-01-21 23:08:42.88	54.65	36.90	-44.7	-47.3	17.1	0.00e+00	0	38	0	444596224	60	5038
2026-01-21 23:08:44.08	55.02	37.10	-44.1	-46.6	17.8	0.00e+00	0	38	0	446693376	60	4637
2026-01-21 23:08:44.93	55.29	37.24	-44.1	-46.5	17.9	0.00e+00	0	38	0	448790528	59	4839
2026-01-21 23:08:46.07	55.65	37.43	-43.8	-46.2	18.1	0.00e+00	0	38	0	450887680	59	4667
2026-01-21 23:08:46.93	55.92	37.57	-44.0	-46.5	17.9	0.00e+00	0	38	0	451936256	59	4816
2026-01-21 23:08:48.06	56.28	37.75	-44.3	-46.8	17.6	0.00e+00	0	38	0	454033408	59	5029
2026-01-21 23:08:49.03	56.60	37.91	-44.3	-46.8	17.5	0.00e+00	0	38	0	456130560	59	5035
2026-01-21 23:08:50.02	56.92	38.08	-44.5	-47.2	17.2	0.00e+00	0	38	0	458227712	59	5238
2026-01-21 23:08:51.02	57.25	38.24	-44.5	-47.1	17.3	0.00e+00	0	38	0	460324864	59	5195
2026-01-21 23:08:52.01	57.58	38.40	-44.3	-46.8	17.6	0.00e+00	0	38	0	461373440	59	5016
2026-01-21 23:08:53.01	57.92	38.57	-44.2	-46.7	17.6	0.00e+00	0	38	0	463470592	59	4977
2026-01-21 23:08:54.00	58.25	38.73	-44.6	-47.2	17.2	0.00e+00	0	38	0	465567744	59	5271
2026-01-21 23:08:55.00	58.60	38.89	-44.4	-47.1	17.3	0.00e+00	0	38	0	467664896	60	4896
2026-01-21 23:08:55.99	58.94	39.05	-44.3	-46.9	17.5	0.00e+00	0	38	0	469762048	60	4792
2026-01-21 23:08:56.98	59.29	39.21	-43.9	-46.3	18.0	0.00e+00	0	38	0	470810624	59	4730
2026-01-21 23:08:57.98	59.64	39.37	-43.7	-46.1	18.2	0.00e+00	0	38	0	472907776	59	4601
2026-01-21 23:08:58.98	60.00	39.53	-43.6	-46.0	18.3	0.00e+00	0	38	0	475004928	59	4565
2026-01-21 23:08:59.97	60.36	39.69	-44.1	-46.5	17.8	0.00e+00	0	38	0	477102080	59	4868
2026-01-21 23:09:00.97	60.72	39.85	-44.4	-47.0	17.3	0.00e+00	0	38	0	478150656	59	5137
2026-01-21 23:09:01.96	61.09	40.01	-44.5	-47.1	17.3	0.00e+00	0	38	0	480247808	59	5186
2026-01-21 23:09:02.96	61.46	40.17	-44.2	-46.7	17.6	0.00e+00	0	38	0	482344960	59	4965
2026-01-21 23:09:03.95	61.83	40.33	-44.0	-46.5	17.8	0.00e+00	0	38	0	484442112	59	4831
2026-01-21 23:09:04.95	62.21	40.48	-44.0	-46.5	17.9	0.00e+00	0	38	0	486539264	59	4817
2026-01-21 23:09:05.94	62.59	40.64	-44.3	-46.8	17.5	0.00e+00	0	38	0	487587840	59	5032
2026-01-21 23:09:06.94	62.97	40.80	-44.7	-47.4	17.1	0.00e+00	0	38	0	489684992	60	5068
2026-01-21 23:09:07.93	63.36	40.95	-45.0	-47.9	16.7	0.00e+00	0	38	0	491782144	60	5341
2026-01-21 23:09:08.93	63.75	41.11	-44.6	-47.3	17.2	0.00e+00	0	38	0	493879296	60	4984
2026-01-21 23:09:09.93	64.15	41.26	-44.2	-46.8	17.6	0.00e+00	0	38	0	494927872	60	4720
2026-01-21 23:09:10.92	64.55	41.41	-43.8	-46.2	18.1	0.00e+00	0	38	0	497025024	59	4687
2026-01-21 23:09:11.91	64.95	41.56	-43.9	-46.3	18.0	0.00e+00	0	38	0	499122176	59	4715
2026-01-21 23:09:12.91	65.36	41.71	-44.1	-46.6	17.7	0.00e+00	0	38	0	501219328	59	4901
2026-01-21 23:09:13.90	65.77	41.86	-44.5	-47.2	17.3	0.00e+00	0	38	0	503316480	59	5227
2026-01-21 23:09:14.96	66.21	42.02	-44.8	-47.6	16.9	0.00e+00	0	38	0	504365056	60	5165
2026-01-21 23:09:15.87	66.59	42.15	-45.4	-48.4	16.2	0.00e+00	0	38	0	506462208	61	5369
2026-01-21 23:09:17.01	67.07	42.32	-45.6	-48.7	15.9	0.00e+00	0	38	0	508559360	61	5535
2026-01-21 23:09:17.86	67.44	42.45	-45.3	-48.1	16.4	0.00e+00	0	38	0	510656512	61	5210
2026-01-21 23:09:19.00	67.93	42.61	-44.6	-47.2	17.2	0.00e+00	0	38	0	512753664	61	4683
2026-01-21 23:09:19.85	68.30	42.73	-44.6	-47.3	17.2	0.00e+00	0	38	0	513802240	61	4733
2026-01-21 23:09:20.99	68.80	42.90	-44.5	-47.2	17.3	0.00e+00	0	38	0	515899392	60	4953
2026-01-21 23:09:21.85	69.18	43.02	-44.4	-47.0	17.5	0.00e+00	0	38	0	517996544	60	4855
2026-01-21 23:09:22.98	69.69	43.17	-44.6	-47.2	17.2	0.00e+00	0	38	0	520093696	60	4972
2026-01-21 23:09:23.84	70.07	43.29	-44.9	-47.6	16.9	0.00e+00	0	38	0	521142272	60	5194
2026-01-21 23:09:24.97	70.59	43.45	-45.2	-48.1	16.4	0.00e+00	0	38	0	523239424	61	5161
2026-01-21 23:09:25.83	70.98	43.56	-45.5	-48.5	15.9	0.00e+00	0	38	0	525336576	61	5442
2026-01-21 23:09:26.96	71.51	43.72	-45.6	-48.6	16.0	0.00e+00	0	38	0	527433728	61	5513
2026-01-21 23:09:27.82	71.91	43.83	-45.3	-48.2	16.4	0.00e+00	0	38	0	528482304	61	5226
2026-01-21 23:09:28.95	72.44	43.98	-44.8	-47.4	17.0	0.00e+00	0	38	0	530579456	61	4800
2026-01-21 23:09:29.81	72.85	44.09	-44.6	-47.3	17.3	0.00e+00	0	38	0	532676608	60	5000
2026-01-21 23:09:30.94	73.38	44.23	-45.1	-47.9	16.6	0.00e+00	0	38	0	534773760	60	5379
2026-01-21 23:09:31.80	73.80	44.34	-46.0	-49.3	15.3	0.00e+00	0	38	0	536870912	62	5642
2026-01-21 23:09:32.93	74.35	44.48	-46.6	-50.3	14.4	7.00e-07	0	38	0	538968064	64	5616
2026-01-21 23:09:33.79	74.77	44.58	-46.5	-50.0	14.5	7.00e-07	0	38	0	540016640	64	5413
2026-01-21 23:09:34.92	75.32	44.72	-46.3	-49.7	14.9	0.00e+00	0	38	0	542113792	64	5262
2026-01-21 23:09:35.78	75.75	44.82	-46.4	-49.9	14.7	0.00e+00	0	38	0	544210944	64	5341
2026-01-21 23:09:36.91	76.32	44.95	-47.3	-51.5	13.1	1.44e-05	0	38	0	546308096	65	6069
2026-01-21 23:09:37.77	76.75	45.05	-47.2	-51.3	13.3	2.36e-05	0	38	0	547356672	65	5955
2026-01-21 23:09:38.90	77.32	45.17	-46.5	-50.0	14.6	6.10e-06	0	38	0	549453824	65	5153
2026-01-21 23:09:39.76	77.76	45.27	-46.4	-49.9	14.8	0.00e+00	0	38	0	551550976	64	5342
2026-01-21 23:09:40.89	78.34	45.39	-46.5	-49.9	14.7	0.00e+00	0	38	0	553648128	64	5390
2026-01-21 23:09:41.75	78.79	45.48	-46.8	-50.6	14.0	7.00e-07	0	38	0	554696704	64	5828
2026-01-21 23:09:42.89	79.38	45.60	-47.6	-52.0	12.6	3.35e-05	0	38	0	556793856	65	6466
2026-01-21 23:09:43.74	79.82	45.68	-46.6	-50.3	14.3	7.00e-07	0	38	0	558891008	65	5318
2026-01-21 23:09:44.88	80.43	45.80	-46.1	-49.5	15.0	7.00e-07	0	38	0	560988160	64	5153
2026-01-21 23:09:45.73	80.88	45.88	-46.4	-50.0	14.7	0.00e+00	0	38	0	562036736	64	5411
2026-01-21 23:09:46.87	81.48	45.98	-47.4	-51.8	12.7	1.44e-05	0	38	0	565182464	65	6299
2026-01-21 23:09:47.82	81.99	46.07	-47.4	-51.7	12.9	5.64e-05	0	38	0	566231040	65	6268
2026-01-21 23:09:48.98	82.62	46.17	-47.1	-51.3	13.4	1.67e-05	0	38	0	568328192	65	5927
2026-01-21 23:09:49.87	83.11	46.25	-46.7	-50.6	14.0	3.80e-06	0	38	0	570425344	65	5501
2026-01-21 23:09:51.00	83.72	46.34	-46.7	-50.6	14.0	2.20e-06	0	38	0	572522496	64	5827
2026-01-21 23:09:51.86	84.19	46.41	-46.3	-49.9	14.7	2.20e-06	0	38	0	573571072	63	5702
2026-01-21 23:09:53.00	84.82	46.50	-45.5	-48.6	16.0	0.00e+00	0	38	0	575668224	63	4883
2026-01-21 23:09:53.85	85.29	46.57	-45.3	-48.3	16.3	0.00e+00	0	38	0	577765376	62	5015
2026-01-21 23:09:54.99	85.93	46.65	-45.8	-49.1	15.6	0.00e+00	0	38	0	579862528	62	5498
2026-01-21 23:09:55.84	86.41	46.71	-46.2	-49.7	14.9	0.00e+00	0	38	0	581959680	62	5904
2026-01-21 23:09:56.97	87.04	46.78	-46.0	-49.5	15.2	0.00e+00	0	38	0	584056832	63	5415
2026-01-21 23:09:57.83	87.53	46.84	-45.9	-49.2	15.4	0.00e+00	0	38	0	585105408	63	5277
2026-01-21 23:09:58.96	88.17	46.91	-45.7	-48.9	15.7	0.00e+00	0	38	0	587202560	63	5058
2026-01-21 23:09:59.81	88.65	46.96	-45.1	-48.1	16.5	0.00e+00	0	38	0	589299712	62	4890
2026-01-21 23:10:00.98	89.32	47.02	-44.6	-47.3	17.2	0.00e+00	0	38	0	591396864	60	5038
2026-01-21 23:10:01.84	89.81	47.07	-44.5	-47.2	17.4	0.00e+00	0	38	0	592445440	60	4932
2026-01-21 23:10:02.97	90.46	47.12	-44.7	-47.5	17.0	0.00e+00	0	38	0	594542592	60	5133
2026-01-21 23:10:03.83	90.95	47.16	-45.3	-48.2	16.3	0.00e+00	0	38	0	596639744	61	5241
2026-01-21 23:10:05.10	91.69	47.21	-45.4	-48.2	16.4	0.00e+00	0	38	0	598736896	61	5274
2026-01-21 23:10:05.82	92.11	47.24	-46.1	-49.3	15.3	0.00e+00	0	38	0	599785472	62	5651
2026-01-21 23:10:07.09	92.84	47.29	-46.5	-50.2	14.3	7.00e-07	0	38	0	602931200	64	5547
2026-01-21 23:10:07.83	93.27	47.31	-46.4	-50.0	14.5	0.00e+00	0	38	0	603979776	64	5431
2026-01-21 23:10:09.11	94.02	47.35	-45.1	-48.0	16.4	0.00e+00	0	38	0	606076928	62	4863
2026-01-21 23:10:09.83	94.44	47.37	-45.1	-48.0	16.5	0.00e+00	0	38	0	608174080	61	5140
2026-01-21 23:10:11.10	95.19	47.40	-46.1	-49.4	15.2	0.00e+00	0	38	0	610271232	63	5402
2026-01-21 23:10:11.91	95.66	47.42	-46.7	-50.4	14.2	7.00e-07	0	38	0	611319808	64	5680
2026-01-21 23:10:13.05	96.33	47.44	-46.4	-49.9	14.7	7.00e-07	0	38	0	613416960	64	5394
2026-01-21 23:10:13.90	96.83	47.45	-46.1	-49.5	15.2	0.00e+00	0	38	0	615514112	63	5416
2026-01-21 23:10:15.03	97.50	47.47	-45.5	-48.6	16.1	0.00e+00	0	38	0	617611264	63	4880
2026-01-21 23:10:15.89	98.00	47.47	-46.1	-49.4	15.3	0.00e+00	0	38	0	618659840	63	5345
2026-01-21 23:10:17.02	98.67	47.48	-46.2	-49.5	15.1	0.00e+00	0	38	0	620756992	63	5463
2026-01-21 23:10:17.88	99.17	47.48	-46.3	-49.6	15.1	7.00e-07	0	38	0	622854144	63	5518
2026-01-21 23:10:19.02	99.85	47.48	-45.9	-49.2	15.5	0.00e+00	0	38	0	624951296	63	5228
2026-01-21 23:10:19.87	100.35	47.47	-46.1	-49.5	15.2	0.00e+00	0	38	0	627048448	63	5409
2026-01-21 23:10:21.01	101.02	47.46	-45.8	-49.0	15.7	0.00e+00	0	38	0	629145600	63	5108
2026-01-21 23:10:21.86	101.52	47.46	-44.9	-47.7	16.8	0.00e+00	0	38	0	630194176	62	4670
2026-01-21 23:10:23.12	102.26	47.44	-44.3	-46.8	17.8	0.00e+00	0	38	0	632291328	60	4717
2026-01-21 23:10:23.89	102.71	47.42	-44.2	-46.7	17.7	0.00e+00	0	38	0	634388480	59	4942
2026-01-21 23:10:25.17	103.46	47.40	-45.1	-47.9	16.6	0.00e+00	0	38	0	636485632	61	5081
2026-01-21 23:10:25.90	103.89	47.38	-45.3	-48.3	16.3	0.00e+00	0	38	0	637534208	61	5298
2026-01-21 23:10:27.18	104.64	47.34	-45.5	-48.5	16.1	0.00e+00	0	38	0	640679936	61	5429
2026-01-21 23:10:27.89	105.05	47.32	-45.5	-48.4	16.1	0.00e+00	0	38	0	641728512	61	5401
2026-01-21 23:10:29.16	105.79	47.28	-45.9	-49.2	15.4	0.00e+00	0	38	0	643825664	62	5578
2026-01-21 23:10:29.88	106.21	47.25	-46.5	-50.1	14.6	0.00e+00	0	38	0	644874240	63	5831
2026-01-21 23:10:31.15	106.95	47.20	-46.1	-49.5	15.2	0.00e+00	0	38	0	648019968	64	5138
2026-01-21 23:10:31.89	107.38	47.17	-45.7	-48.8	15.8	0.00e+00	0	38	0	649068544	63	5024
2026-01-21 23:10:33.17	108.11	47.11	-46.0	-49.2	15.4	0.00e+00	0	38	0	651165696	63	5250
2026-01-21 23:10:33.91	108.54	47.07	-46.7	-50.4	14.3	0.00e+00	0	38	0	653262848	64	5690
2026-01-21 23:10:35.19	109.27	47.01	-47.2	-51.3	13.4	7.60e-06	0	38	0	655360000	65	5955
2026-01-21 23:10:36.18	109.84	46.95	-46.3	-49.7	14.7	2.20e-06	0	38	0	657457152	64	5220
2026-01-21 23:10:37.46	110.57	46.88	-45.1	-47.8	16.8	0.00e+00	0	38	0	659554304	62	4738
2026-01-21 23:10:38.23	111.00	46.83	-44.9	-47.6	16.9	0.00e+00	0	38	0	660602880	61	4876
2026-01-21 23:10:39.51	111.72	46.75	-44.8	-47.5	17.0	0.00e+00	0	38	0	663748608	61	4840
2026-01-21 23:10:40.22	112.12	46.70	-44.4	-46.9	17.5	0.00e+00	0	38	0	664797184	60	4798
2026-01-21 23:10:41.86	113.04	46.58	-43.4	-45.7	18.6	0.00e+00	0	38	0	667942912	58	4685
2026-01-21 23:10:42.43	113.36	46.54	-43.8	-46.2	18.1	0.00e+00	0	38	0	668991488	58	4960
2026-01-21 23:10:44.14	114.30	46.41	-45.9	-48.9	15.7	0.00e+00	0	38	0	672137216	62	5388
2026-01-21 23:10:44.72	114.62	46.36	-46.1	-49.2	15.4	0.00e+00	0	38	0	673185792	62	5566
2026-01-21 23:10:46.28	115.47	46.23	-44.4	-46.9	17.4	0.00e+00	0	38	0	676331520	60	4803
2026-01-21 23:10:46.99	115.86	46.17	-44.0	-46.4	17.9	0.00e+00	0	38	0	677380096	59	4769
2026-01-21 23:10:48.28	116.56	46.05	-43.8	-46.2	18.1	0.00e+00	0	38	0	679477248	59	4683
2026-01-21 23:10:48.99	116.94	45.99	-44.2	-46.6	17.8	0.00e+00	0	38	0	681574400	59	4910
2026-01-21 23:10:50.27	117.62	45.87	-44.3	-46.8	17.7	0.00e+00	0	38	0	683671552	59	4996
2026-01-21 23:10:51.00	118.01	45.80	-44.5	-47.0	17.3	0.00e+00	0	38	0	684720128	59	5152
2026-01-21 23:10:52.28	118.69	45.67	-44.4	-46.9	17.5	0.00e+00	0	38	0	686817280	60	4805
2026-01-21 23:10:53.10	119.12	45.59	-45.4	-48.4	16.2	0.00e+00	0	38	0	688914432	61	5354
2026-01-21 23:10:54.52	119.86	45.44	-46.6	-50.4	14.2	7.00e-07	0	38	0	691011584	64	5674
2026-01-21 23:10:55.23	120.22	45.37	-46.6	-50.3	14.3	7.00e-07	0	38	0	693108736	64	5615
2026-01-21 23:10:56.51	120.88	45.23	-44.9	-47.7	16.8	0.00e+00	0	38	0	695205888	61	4945
2026-01-21 23:10:57.22	121.24	45.15	-44.0	-46.6	17.9	0.00e+00	0	38	0	696254464	60	4611
2026-01-21 23:10:58.50	121.89	45.00	-44.2	-46.8	17.6	0.00e+00	0	38	0	699400192	59	5005
2026-01-21 23:10:59.26	122.28	44.92	-44.7	-47.5	17.1	0.00e+00	0	38	0	700448768	60	5112
2026-01-21 23:11:00.54	122.92	44.77	-44.5	-47.2	17.3	0.00e+00	0	38	0	702545920	60	4958
2026-01-21 23:11:01.25	123.27	44.68	-43.7	-46.1	18.2	0.00e+00	0	38	0	703594496	59	4609
2026-01-21 23:11:02.52	123.89	44.53	-42.8	-45.0	19.1	0.00e+00	0	38	0	706740224	57	4571
2026-01-21 23:11:03.24	124.24	44.44	-43.0	-45.2	19.0	0.00e+00	0	38	0	707788800	57	4671
2026-01-21 23:11:04.52	124.86	44.28	-43.8	-46.3	18.1	0.00e+00	0	38	0	709885952	58	5000
2026-01-21 23:11:05.24	125.21	44.19	-44.2	-46.8	17.6	0.00e+00	0	38	0	711983104	59	5017
2026-01-21 23:11:06.52	125.82	44.03	-43.3	-45.6	18.7	0.00e+00	0	38	0	714080256	58	4621
2026-01-21 23:11:07.23	126.16	43.93	-42.7	-44.8	19.2	0.00e+00	0	38	0	715128832	57	4489
2026-01-21 23:11:08.56	126.78	43.76	-42.5	-44.7	19.4	0.00e+00	0	38	0	718274560	56	4654
2026-01-21 23:11:09.27	127.11	43.66	-43.2	-45.5	18.7	0.00e+00	0	38	0	719323136	57	4843
2026-01-21 23:11:10.55	127.70	43.49	-43.7	-46.1	18.2	0.00e+00	0	38	0	721420288	58	4910
2026-01-21 23:11:11.26	128.03	43.40	-43.3	-45.6	18.7	0.00e+00	0	38	0	722468864	58	4616
2026-01-21 23:11:12.54	128.61	43.22	-42.8	-45.0	19.2	0.00e+00	0	38	0	725614592	57	4565
2026-01-21 23:11:13.25	128.93	43.12	-42.7	-44.9	19.2	0.00e+00	0	38	0	726663168	57	4519
2026-01-21 23:11:14.75	129.60	42.91	-43.8	-46.3	18.0	0.00e+00	0	38	0	729808896	58	4991
2026-01-21 23:11:15.46	129.91	42.81	-44.0	-46.5	17.7	0.00e+00	0	38	0	730857472	58	5128
2026-01-21 23:11:16.74	130.47	42.62	-43.6	-46.0	18.3	0.00e+00	0	38	0	732954624	59	4576
2026-01-21 23:11:17.46	130.79	42.52	-43.4	-45.7	18.5	0.00e+00	0	38	0	735051776	58	4675
2026-01-21 23:11:18.74	131.34	42.33	-43.1	-45.4	18.8	0.00e+00	0	38	0	737148928	58	4514
2026-01-21 23:11:19.45	131.64	42.23	-42.7	-44.9	19.2	0.00e+00	0	38	0	738197504	57	4529
2026-01-21 23:11:20.73	132.18	42.04	-43.7	-46.1	18.2	0.00e+00	0	38	0	740294656	58	4919
2026-01-21 23:11:21.44	132.48	41.93	-43.6	-45.9	18.4	0.00e+00	0	38	0	742391808	58	4811
2026-01-21 23:11:22.72	133.01	41.74	-42.6	-44.8	19.3	0.00e+00	0	38	0	744488960	57	4452
2026-01-21 23:11:23.48	133.32	41.62	-42.1	-44.2	19.8	0.00e+00	0	38	0	745537536	56	4431
2026-01-21 23:11:24.76	133.84	41.43	-42.8	-45.0	19.2	0.00e+00	0	38	0	748683264	56	4820
2026-01-21 23:11:25.52	134.15	41.31	-43.6	-46.0	18.3	0.00e+00	0	38	0	749731840	57	5134
2026-01-21 23:11:26.80	134.66	41.11	-43.3	-45.6	18.5	0.00e+00	0	38	0	751828992	58	4648
2026-01-21 23:11:27.59	134.97	40.99	-42.5	-44.6	19.4	0.00e+00	0	38	0	753926144	56	4631
2026-01-21 23:11:29.12	135.57	40.75	-40.9	-42.9	20.7	0.00e+00	0	38	0	756023296	53	4515
2026-01-21 23:11:29.83	135.85	40.64	-41.5	-43.6	20.2	0.00e+00	0	38	0	758120448	53	4894
2026-01-21 23:11:31.11	136.34	40.44	-44.1	-46.6	17.8	0.00e+00	0	38	0	760217600	58	5199
2026-01-21 23:11:31.82	136.61	40.33	-45.1	-48.0	16.6	0.00e+00	0	38	0	761266176	60	5426
2026-01-21 23:11:33.10	137.09	40.12	-44.8	-47.6	16.9	0.00e+00	0	38	0	763363328	61	4899
2026-01-21 23:11:33.83	137.36	40.01	-44.0	-46.5	17.8	0.00e+00	0	38	0	765460480	60	4590
2026-01-21 23:11:35.11	137.83	39.80	-43.3	-45.6	18.6	0.00e+00	0	38	0	767557632	58	4636
2026-01-21 23:11:35.82	138.09	39.69	-44.0	-46.5	17.9	0.00e+00	0	38	0	768606208	58	5131
2026-01-21 23:11:37.10	138.56	39.48	-46.6	-50.2	14.5	0.00e+00	0	38	0	771751936	63	5887
2026-01-21 23:11:37.92	138.85	39.35	-47.8	-52.5	12.1	3.81e-05	0	38	0	772800512	66	6431
2026-01-21 23:11:39.06	139.26	39.16	-47.8	-52.6	11.9	1.09e-03	0	38	0	774897664	67	6160
2026-01-21 23:11:39.91	139.55	39.02	-46.5	-50.1	14.3	9.00e-05	0	38	0	776994816	65	5176
2026-01-21 23:11:41.05	139.95	38.84	-45.2	-48.1	16.4	0.00e+00	0	38	0	779091968	62	4873
2026-01-21 23:11:41.90	140.24	38.70	-45.2	-48.2	16.5	0.00e+00	0	38	0	780140544	61	5228
2026-01-21 23:11:43.04	140.63	38.51	-46.6	-50.3	14.3	0.00e+00	0	38	0	782237696	64	5644
2026-01-21 23:11:43.89	140.92	38.37	-47.8	-52.5	12.0	1.06e-05	0	38	0	784334848	66	6434
2026-01-21 23:11:45.02	141.30	38.19	-48.1	-53.1	11.4	1.07e-03	0	38	0	786432000	67	6561
2026-01-21 23:11:45.88	141.58	38.04	-47.5	-51.7	12.8	3.46e-04	0	38	0	787480576	67	5588
2026-01-21 23:11:47.11	141.98	37.84	-46.3	-49.7	14.8	7.60e-06	0	38	0	790626304	64	5243
2026-01-21 23:11:47.97	142.26	37.70	-45.7	-48.7	15.9	0.00e+00	0	38	0	791674880	63	4939
2026-01-21 23:11:49.10	142.63	37.51	-46.0	-49.2	15.4	0.00e+00	0	38	0	793772032	63	5235
2026-01-21 23:11:49.95	142.90	37.37	-46.8	-50.5	14.1	0.00e+00	0	38	0	795869184	64	5748
2026-01-21 23:11:51.09	143.26	37.18	-48.0	-52.8	11.8	1.74e-04	0	38	0	797966336	66	6665
2026-01-21 23:11:51.94	143.52	37.04	-48.9	-54.6	10.1	2.49e-03	0	38	0	799014912	68	7369
2026-01-21 23:11:53.08	143.87	36.85	-48.4	-53.5	11.1	6.21e-03	0	38	0	801112064	68	6444
2026-01-21 23:11:54.01	144.16	36.70	-47.0	-50.9	13.6	2.13e-05	0	38	0	803209216	66	5360
2026-01-21 23:11:55.01	144.46	36.53	-46.4	-49.9	14.7	1.50e-06	0	38	0	805306368	64	5353
2026-01-21 23:11:56.00	144.75	36.37	-46.5	-50.1	14.4	1.50e-06	0	38	0	806354944	64	5490
2026-01-21 23:11:57.00	145.05	36.20	-47.8	-52.3	12.3	1.06e-05	0	38	0	808452096	66	6324
2026-01-21 23:11:57.99	145.34	36.04	-49.0	-55.0	9.7	3.70e-03	0	38	0	810549248	68	7635
2026-01-21 23:11:58.99	145.63	35.87	-49.2	-55.5	9.0	2.50e-02	0	38	0	812646400	69	7704
2026-01-21 23:11:59.98	145.92	35.71	-48.8	-54.5	10.0	1.63e-02	0	38	0	814743552	69	6813
2026-01-21 23:12:00.98	146.20	35.54	-48.0	-52.5	12.2	1.10e-03	0	38	0	815792128	68	5751
2026-01-21 23:12:01.98	146.48	35.38	-47.1	-50.9	13.7	3.89e-05	0	38	0	817889280	66	5356
2026-01-21 23:12:02.97	146.76	35.21	-46.6	-50.1	14.5	4.50e-06	0	38	0	819986432	65	5179
2026-01-21 23:12:03.96	147.03	35.05	-46.1	-49.2	15.3	7.00e-07	0	38	0	822083584	63	5272
2026-01-21 23:12:04.96	147.31	34.88	-46.2	-49.5	15.1	0.00e+00	0	38	0	823132160	63	5441
2026-01-21 23:12:06.00	147.59	34.71	-47.1	-51.0	13.5	1.50e-06	0	38	0	825229312	64	6104
2026-01-21 23:12:06.95	147.84	34.55	-47.9	-52.6	12.0	4.80e-05	0	38	0	827326464	66	6546
2026-01-21 23:12:07.94	148.11	34.39	-48.0	-53.0	11.5	5.18e-04	0	38	0	829423616	66	6854
2026-01-21 23:12:08.94	148.37	34.23	-46.7	-50.5	14.1	2.74e-05	0	38	0	831520768	65	5413
2026-01-21 23:12:09.94	148.63	34.06	-45.1	-47.9	16.5	0.00e+00	0	38	0	832569344	62	4811
2026-01-21 23:12:10.93	148.89	33.90	-43.6	-46.0	18.3	0.00e+00	0	38	0	834666496	59	4560
2026-01-21 23:12:11.93	149.14	33.73	-43.2	-45.6	18.6	0.00e+00	0	38	0	836763648	58	4604
2026-01-21 23:12:12.92	149.39	33.57	-43.3	-45.7	18.5	0.00e+00	0	38	0	838860800	58	4664
2026-01-21 23:12:13.91	149.64	33.41	-44.6	-47.3	17.1	0.00e+00	0	38	0	839909376	59	5329
2026-01-21 23:12:14.91	149.89	33.25	-46.2	-49.6	15.1	0.00e+00	0	38	0	842006528	63	5480
2026-01-21 23:12:15.91	150.13	33.08	-47.2	-51.4	13.2	4.50e-06	0	38	0	844103680	65	5996
2026-01-21 23:12:16.90	150.38	32.92	-47.4	-51.7	12.9	7.62e-05	0	38	0	846200832	66	5878
2026-01-21 23:12:17.90	150.62	32.76	-46.7	-50.4	14.1	2.13e-05	0	38	0	848297984	65	5346
2026-01-21 23:12:18.89	150.85	32.60	-45.8	-48.9	15.6	0.00e+00	0	38	0	849346560	63	5087
2026-01-21 23:12:19.89	151.09	32.44	-44.5	-47.1	17.3	0.00e+00	0	38	0	851443712	61	4630
2026-01-21 23:12:20.95	151.34	32.27	-43.7	-46.0	18.2	0.00e+00	0	38	0	853540864	59	4586
2026-01-21 23:12:21.86	151.55	32.12	-43.9	-46.3	18.0	0.00e+00	0	38	0	855638016	59	4741
2026-01-21 23:12:23.01	151.81	31.94	-44.6	-47.2	17.2	0.00e+00	0	38	0	857735168	59	5240
2026-01-21 23:12:23.87	152.01	31.80	-45.0	-47.9	16.6	0.00e+00	0	38	0	858783744	60	5343
2026-01-21 23:12:25.00	152.26	31.62	-45.5	-48.6	15.9	0.00e+00	0	38	0	860880896	61	5522
2026-01-21 23:12:25.85	152.45	31.48	-45.6	-48.7	15.9	0.00e+00	0	38	0	862978048	61	5555
2026-01-21 23:12:26.99	152.70	31.30	-45.1	-47.9	16.5	0.00e+00	0	38	0	865075200	61	5090
2026-01-21 23:12:27.84	152.89	31.17	-44.7	-47.4	17.0	0.00e+00	0	38	0	866123776	61	4812
2026-01-21 23:12:28.98	153.13	30.99	-44.0	-46.5	17.7	0.00e+00	0	38	0	868220928	59	4858
2026-01-21 23:12:29.83	153.32	30.85	-43.4	-45.8	18.4	0.00e+00	0	38	0	870318080	58	4713
2026-01-21 23:12:30.97	153.56	30.68	-43.5	-45.9	18.3	0.00e+00	0	38	0	872415232	58	4784
2026-01-21 23:12:31.82	153.74	30.54	-43.7	-46.1	18.1	0.00e+00	0	38	0	873463808	58	4911
2026-01-21 23:12:32.96	153.98	30.36	-44.3	-47.0	17.3	0.00e+00	0	38	0	876609536	59	5105
2026-01-21 23:12:33.81	154.15	30.23	-44.8	-47.7	16.7	0.00e+00	0	38	0	877658112	60	5257
2026-01-21 23:12:34.95	154.38	30.05	-45.3	-48.5	16.0	0.00e+00	0	38	0	879755264	61	5436
2026-01-21 23:12:35.80	154.56	29.92	-45.8	-49.2	15.3	0.00e+00	0	38	0	881852416	62	5582
2026-01-21 23:12:36.94	154.79	29.75	-45.5	-48.9	15.6	0.00e+00	0	38	0	883949568	62	5370
2026-01-21 23:12:37.79	154.95	29.61	-45.1	-48.2	16.3	0.00e+00	0	38	0	884998144	62	4932
2026-01-21 23:12:38.93	155.18	29.44	-44.9	-48.0	16.5	0.00e+00	0	38	0	887095296	61	5106
2026-01-21 23:12:39.81	155.35	29.30	-44.8	-47.7	16.7	0.00e+00	0	38	0	889192448	61	4969
2026-01-21 23:12:41.11	155.60	29.11	-44.2	-46.9	17.5	0.00e+00	0	38	0	891289600	60	4771
2026-01-21 23:12:41.82	155.74	29.00	-44.2	-46.8	17.5	0.00e+00	0	38	0	892338176	60	4708
2026-01-21 23:12:43.29	156.02	28.78	-43.9	-46.3	17.9	0.00e+00	0	38	0	895483904	59	4753
2026-01-21 23:12:44.28	156.20	28.63	-44.0	-46.6	17.7	0.00e+00	0	38	0	897581056	59	4882
2026-01-21 23:12:45.28	156.39	28.48	-44.3	-47.0	17.4	0.00e+00	0	38	0	899678208	59	5108
2026-01-21 23:12:46.27	156.57	28.33	-44.8	-47.7	16.7	0.00e+00	0	38	0	900726784	60	5221
2026-01-21 23:12:47.27	156.75	28.18	-45.3	-48.3	16.2	0.00e+00	0	38	0	902823936	61	5298
2026-01-21 23:12:48.26	156.93	28.03	-45.3	-48.2	16.2	0.00e+00	0	38	0	904921088	61	5258
2026-01-21 23:12:49.26	157.11	27.88	-45.0	-47.9	16.6	0.00e+00	0	38	0	907018240	61	5052
2026-01-21 23:12:50.25	157.29	27.73	-44.6	-47.3	17.1	0.00e+00	0	38	0	908066816	61	4755
2026-01-21 23:12:51.25	157.46	27.59	-44.6	-47.3	17.1	0.00e+00	0	38	0	910163968	61	4718
2026-01-21 23:12:52.34	157.65	27.43	-43.8	-46.3	17.9	0.00e+00	0	38	0	912261120	59	4716
2026-01-21 23:12:53.22	157.81	27.30	-43.6	-46.0	18.2	0.00e+00	0	38	0	914358272	59	4567
2026-01-21 23:12:54.54	158.03	27.11	-43.3	-45.6	18.6	0.00e+00	0	38	0	916455424	58	4631
2026-01-21 23:12:55.24	158.15	27.00	-43.1	-45.4	18.7	0.00e+00	0	38	0	917504000	58	4533
2026-01-21 23:12:56.74	158.40	26.79	-43.5	-45.9	18.3	0.00e+00	0	38	0	920649728	58	4796
2026-01-21 23:12:57.46	158.52	26.68	-43.3	-45.6	18.6	0.00e+00	0	38	0	921698304	58	4609
2026-01-21 23:12:58.74	158.73	26.50	-43.7	-46.1	18.1	0.00e+00	0	38	0	924844032	58	4911
2026-01-21 23:12:59.46	158.85	26.40	-43.9	-46.4	17.8	3.58e-05	0	38	0	925892608	58	5079
2026-01-21 23:13:00.74	159.06	26.21	-44.2	-46.8	17.6	0.00e+00	0	38	0	927989760	59	4993
2026-01-21 23:13:01.48	159.18	26.11	-44.7	-47.4	17.0	0.00e+00	0	38	0	929038336	59	5357
2026-01-21 23:13:02.76	159.38	25.93	-44.6	-47.3	17.1	0.00e+00	0	38	0	932184064	60	4992
2026-01-21 23:13:03.49	159.49	25.82	-44.6	-47.4	17.0	0.00e+00	0	38	0	933232640	60	5063
2026-01-21 23:13:04.76	159.69	25.64	-44.7	-47.4	17.0	0.00e+00	0	38	0	935329792	60	5074
2026-01-21 23:13:05.50	159.81	25.54	-44.3	-46.9	17.5	0.00e+00	0	38	0	937426944	60	4765
2026-01-21 23:13:06.78	160.00	25.36	-44.3	-46.9	17.4	0.00e+00	0	38	0	939524096	60	4785
2026-01-21 23:13:07.50	160.11	25.26	-43.8	-46.2	18.0	0.00e+00	0	38	0	940572672	59	4672
2026-01-21 23:13:08.78	160.31	25.08	-43.5	-45.8	18.4	0.00e+00	0	38	0	943718400	58	4729
2026-01-21 23:13:09.53	160.42	24.98	-43.7	-46.1	18.1	0.00e+00	0	38	0	944766976	58	4887
2026-01-21 23:13:10.80	160.61	24.81	-43.5	-45.8	18.3	0.00e+00	0	38	0	946864128	58	4739
2026-01-21 23:13:11.53	160.72	24.71	-43.8	-46.2	18.0	0.00e+00	0	38	0	947912704	58	4952
2026-01-21 23:13:12.81	160.90	24.53	-43.8	-46.3	17.9	0.00e+00	0	38	0	951058432	58	5008
2026-01-21 23:13:13.69	161.03	24.41	-44.3	-46.9	17.4	0.00e+00	0	38	0	952107008	59	5058
2026-01-21 23:13:14.83	161.19	24.26	-44.4	-47.1	17.2	0.00e+00	0	38	0	954204160	59	5171
2026-01-21 23:13:15.68	161.31	24.14	-44.3	-46.8	17.4	0.00e+00	0	38	0	956301312	59	5040
2026-01-21 23:13:16.82	161.48	23.99	-44.3	-46.9	17.4	0.00e+00	0	38	0	958398464	59	5077
2026-01-21 23:13:17.68	161.60	23.88	-44.3	-46.9	17.4	0.00e+00	0	38	0	959447040	59	5053
2026-01-21 23:13:18.81	161.75	23.72	-44.2	-46.7	17.2	0.00e+00	0	38	0	962592768	59	4974
2026-01-21 23:13:19.67	161.87	23.61	-43.9	-46.4	17.8	0.00e+00	0	38	0	963641344	59	4790
2026-01-21 23:13:20.80	162.03	23.46	-43.8	-46.2	18.0	0.00e+00	0	38	0	965738496	59	4695
2026-01-21 23:13:21.66	162.14	23.35	-44.0	-46.5	17.7	0.00e+00	0	38	0	967835648	59	4869
2026-01-21 23:13:22.80	162.30	23.20	-44.1	-46.6	17.6	0.00e+00	0	38	0	969932800	59	4886
2026-01-21 23:13:23.65	162.41	23.09	-44.2	-46.8	17.5	0.00e+00	0	38	0	970981376	59	5015
2026-01-21 23:13:24.99	162.59	22.91	-44.2	-46.7	17.5	0.00e+00	0	38	0	974127104	59	4974
2026-01-21 23:13:25.70	162.68	22.82	-44.2	-46.8	17.4	0.00e+00	0	38	0	975175680	59	5024
2026-01-21 23:13:26.98	162.84	22.66	-44.3	-46.9	17.4	0.00e+00	0	38	0	977272832	59	5064
2026-01-21 23:13:27.69	162.94	22.56	-44.2	-46.8	17.4	0.00e+00	0	38	0	978321408	59	5008
2026-01-21 23:13:28.97	163.10	22.40	-44.4	-47.1	17.2	0.00e+00	0	38	0	981467136	59	5193
2026-01-21 23:13:29.70	163.19	22.31	-44.6	-47.3	17.0	0.00e+00	0	38	0	982515712	59	5325
2026-01-21 23:13:30.97	163.35	22.15	-44.4	-47.0	17.2	0.00e+00	0	38	0	984612864	59	5156
2026-01-21 23:13:31.70	163.44	22.05	-44.4	-47.1	17.2	0.00e+00	0	38	0	985661440	59	5184
2026-01-21 23:13:32.98	163.60	21.89	-44.4	-47.1	17.2	0.00e+00	0	38	0	988807168	59	5174
2026-01-21 23:13:33.70	163.69	21.80	-44.2	-46.8	17.4	0.00e+00	0	38	0	989855744	59	5028
2026-01-21 23:13:34.98	163.85	21.64	-44.4	-47.1	17.2	0.00e+00	0	38	0	991952896	59	5175
2026-01-21 23:13:35.69	163.93	21.55	-44.4	-47.1	17.1	0.00e+00	0	38	0	994050048	59	5163
2026-01-21 23:13:36.97	164.09	21.39	-44.4	-47.0	17.2	0.00e+00	0	38	0	996147200	59	5144
2026-01-21 23:13:37.69	164.17	21.30	-44.2	-46.8	17.4	0.00e+00	0	38	0	997195776	59	5016
2026-01-21 23:13:39.04	164.33	21.14	-43.9	-46.5	17.7	0.00e+00	0	38	0	1000341504	59	4840
2026-01-21 23:13:39.75	164.41	21.05	-44.1	-46.6	17.6	9.30e-05	0	38	0	1001390080	59	4924
2026-01-21 23:13:41.03	164.56	20.89	-44.0	-46.6	17.6	0.00e+00	0	38	0	1003487232	59	4888
2026-01-21 23:13:41.75	164.65	20.81	-43.9	-46.4	17.7	0.00e+00	0	38	0	1004535808	59	4813
2026-01-21 23:13:43.14	164.81	20.64	-44.5	-47.3	16.9	0.00e+00	0	38	0	1007681536	59	5306
2026-01-21 23:13:43.85	164.89	20.55	-44.5	-47.3	17.0	0.00e+00	0	38	0	1008730112	59	5300
2026-01-21 23:13:45.15	165.03	20.40	-44.9	-47.8	16.6	1.48e-03	0	38	0	1011875840	60	5310
2026-01-21 23:13:46.14	165.14	20.28	-45.0	-48.1	16.3	0.00e+00	0	38	0	1012924416	60	5490
2026-01-21 23:13:47.13	165.25	20.16	-45.0	-48.0	16.4	0.00e+00	0	38	0	1015021568	60	5442
2026-01-21 23:13:48.13	165.36	20.04	-45.4	-48.6	15.8	1.50e-06	0	38	0	1017118720	61	5505
2026-01-21 23:13:49.12	165.47	19.92	-45.4	-48.6	15.8	0.00e+00	0	38	0	1019215872	61	5486
2026-01-21 23:13:50.51	165.62	19.76	-45.3	-48.4	15.9	0.00e+00	0	38	0	1021313024	61	5380
2026-01-21 23:13:51.23	165.70	19.67	-45.3	-48.4	16.0	0.00e+00	0	38	0	1022361600	61	5341
2026-01-21 23:13:52.85	165.87	19.49	-45.1	-48.1	16.2	0.00e+00	0	38	0	1025507328	61	5199
2026-01-21 23:13:53.42	165.93	19.42	-45.1	-48.1	16.2	0.00e+00	0	38	0	1026555904	61	5212
2026-01-21 23:13:55.13	166.11	19.22	-44.5	-47.3	17.0	0.00e+00	0	38	0	1029701632	60	4997
2026-01-21 23:13:55.78	166.18	19.15	-44.4	-47.2	17.1	0.00e+00	0	38	0	1031798784	60	4935
2026-01-21 23:13:57.20	166.33	18.98	-44.1	-46.8	17.4	0.00e+00	0	38	0	1033895936	60	4735
2026-01-21 23:13:57.98	166.41	18.89	-44.0	-46.6	17.5	0.00e+00	0	38	0	1035993088	59	4913
2026-01-21 23:13:59.25	166.54	18.75	-43.9	-46.5	17.6	0.00e+00	0	38	0	1038090240	59	4861
2026-01-21 23:14:00.10	166.62	18.65	-43.7	-46.2	17.8	0.00e+00	0	38	0	1039138816	59	4671
2026-01-21 23:14:01.50	166.76	18.50	-43.9	-46.4	17.6	0.00e+00	0	38	0	1042284544	59	4813
2026-01-21 23:14:02.21	166.83	18.42	-44.0	-46.6	17.6	0.00e+00	0	38	0	1043333120	59	4883
2026-01-21 23:14:03.51	166.96	18.27	-44.1	-46.7	17.4	0.00e+00	0	38	0	1045430272	59	4965
2026-01-21 23:14:04.22	167.03	18.19	-44.0	-46.6	17.5	0.00e+00	0	38	0	1047527424	59	4916
2026-01-21 23:14:05.49	167.15	18.05	-44.1	-46.7	17.4	0.00e+00	0	38	0	1049624576	59	4959
2026-01-21 23:14:06.21	167.22	17.97	-44.2	-46.8	17.3	0.00e+00	0	38	0	1050673152	59	5037
2026-01-21 23:14:07.48	167.34	17.83	-44.2	-46.9	17.2	0.00e+00	0	38	0	1053818880	59	5065
2026-01-21 23:14:08.19	167.41	17.75	-44.2	-46.9	17.2	0.00e+00	0	38	0	1054867456	59	5073
2026-01-21 23:14:09.47	167.53	17.61	-44.4	-47.1	17.1	0.00e+00	0	38	0	1056964608	59	5167
2026-01-21 23:14:10.21	167.60	17.53	-44.6	-47.4	16.8	0.00e+00	0	38	0	1058013184	59	5343
2026-01-21 23:14:11.49	167.72	17.39	-44.6	-47.4	16.8	0.00e+00	0	38	0	1061158912	59	5370
2026-01-21 23:14:12.21	167.79	17.31	-44.4	-47.1	17.1	0.00e+00	0	38	0	1062207488	59	5198
2026-01-21 23:14:13.49	167.91	17.18	-44.4	-47.1	17.0	0.00e+00	0	38	0	1064304640	59	5209
2026-01-21 23:14:14.20	167.97	17.10	-44.2	-46.9	17.3	0.00e+00	0	38	0	1065353216	59	5056
2026-01-21 23:14:15.48	168.09	16.96	-44.2	-46.9	17.3	0.00e+00	0	38	0	1068498944	59	5054
2026-01-21 23:14:16.19	168.15	16.89	-44.1	-46.8	17.3	0.00e+00	0	38	0	1069547520	59	4996
2026-01-21 23:14:17.57	168.27	16.74	-43.9	-46.5	17.6	0.00e+00	0	38	0	1072693248	59	4818
2026-01-21 23:14:18.28	168.34	16.66	-43.7	-46.3	17.8	0.00e+00	0	38	0	1073741824	59	4724
2026-01-21 23:14:19.56	168.45	16.53	-43.5	-46.0	18.0	0.00e+00	0	38	0	1075838976	59	4572
2026-01-21 23:14:20.27	168.51	16.46	-43.4	-45.9	18.1	0.00e+00	0	38	0	1076887552	58	4771
2026-01-21 23:14:21.55	168.62	16.32	-43.3	-45.7	18.3	0.00e+00	0	38	0	1080033280	58	4661
2026-01-21 23:14:22.26	168.69	16.25	-43.3	-45.7	18.3	0.00e+00	0	38	0	1081081856	58	4686
2026-01-21 23:14:23.54	168.80	16.11	-43.3	-45.8	18.3	0.00e+00	0	38	0	1083179008	58	4708
2026-01-21 23:14:24.25	168.86	16.04	-43.3	-45.8	18.2	0.00e+00	0	38	0	1084227584	58	4710
2026-01-21 23:14:25.80	168.99	15.88	-43.2	-45.6	18.4	0.00e+00	0	38	0	1087373312	58	4608
2026-01-21 23:14:26.51	169.05	15.81	-43.3	-45.7	18.3	0.00e+00	0	38	0	1089470464	58	4667
2026-01-21 23:14:27.79	169.15	15.68	-43.2	-45.7	18.3	0.00e+00	0	38	0	1091567616	58	4658
2026-01-21 23:14:28.51	169.21	15.60	-43.3	-45.7	18.3	0.00e+00	0	38	0	1092616192	58	4698
2026-01-21 23:14:29.78	169.32	15.48	-43.4	-45.9	18.1	0.00e+00	0	38	0	1094713344	58	4793
2026-01-21 23:14:30.50	169.38	15.40	-43.4	-45.9	18.1	0.00e+00	0	38	0	1096810496	58	4799
2026-01-21 23:14:31.77	169.48	15.27	-43.6	-46.2	17.9	0.00e+00	0	38	0	1098907648	58	4943
2026-01-21 23:14:32.51	169.54	15.20	-43.6	-46.2	17.8	0.00e+00	0	38	0	1099956224	58	4933
2026-01-21 23:14:33.79	169.64	15.07	-43.7	-46.3	17.7	0.00e+00	0	38	0	1103101952	58	4989
2026-01-21 23:14:34.50	169.70	15.00	-43.8	-46.4	17.6	0.00e+00	0	38	0	1104150528	58	5072
2026-01-21 23:14:35.78	169.80	14.87	-44.0	-46.7	17.4	0.00e+00	0	38	0	1106247680	58	5220
2026-01-21 23:14:36.62	169.87	14.79	-44.1	-46.8	17.2	9.54e-04	0	38	0	1108344832	59	5037
2026-01-21 23:14:37.76	169.96	14.68	-44.3	-47.1	17.0	0.00e+00	0	38	0	1110441984	59	5184
2026-01-21 23:14:38.61	170.02	14.60	-44.4	-47.3	16.8	0.00e+00	0	38	0	1111490560	59	5294
2026-01-21 23:14:39.75	170.11	14.48	-44.6	-47.6	16.5	9.59e-04	0	38	0	1113587712	60	5193
2026-01-21 23:14:40.60	170.18	14.40	-44.9	-47.9	16.3	0.00e+00	0	38	0	1115684864	60	5386
2026-01-21 23:14:41.73	170.26	14.29	-44.9	-47.9	16.3	0.00e+00	0	38	0	1117782016	60	5394
2026-01-21 23:14:42.58	170.33	14.21	-45.0	-48.2	16.0	0.00e+00	0	38	0	1118830592	61	5255
2026-01-21 23:14:43.72	170.41	14.10	-45.0	-48.2	15.9	0.00e+00	0	38	0	1120927744	61	5269
2026-01-21 23:14:44.58	170.48	14.02	-45.1	-48.3	15.9	0.00e+00	0	38	0	1123024896	61	5318
2026-01-21 23:14:45.71	170.56	13.91	-45.3	-48.6	15.6	0.00e+00	0	38	0	1125122048	61	5469
2026-01-21 23:14:46.57	170.63	13.83	-45.1	-48.3	15.9	0.00e+00	0	38	0	1126170624	61	5315
2026-01-21 23:14:47.70	170.71	13.72	-45.3	-48.5	15.6	0.00e+00	0	38	0	1128267776	61	5445
2026-01-21 23:14:48.56	170.77	13.64	-45.3	-48.4	15.7	0.00e+00	0	38	0	1130364928	61	5400
2026-01-21 23:14:49.70	170.86	13.53	-45.3	-48.4	15.7	0.00e+00	0	38	0	1132462080	61	5389
2026-01-21 23:14:50.55	170.92	13.45	-45.4	-48.6	15.5	0.00e+00	0	38	0	1133510656	61	5521
2026-01-21 23:14:51.68	171.00	13.34	-45.1	-48.2	15.9	0.00e+00	0	38	0	1136656384	61	5251
2026-01-21 23:14:52.54	171.06	13.26	-45.0	-48.0	16.1	0.00e+00	0	38	0	1137704960	61	5131
2026-01-21 23:14:53.67	171.14	13.16	-44.8	-47.7	16.3	0.00e+00	0	38	0	1139802112	61	4961
2026-01-21 23:14:54.53	171.20	13.08	-44.7	-47.6	16.4	0.00e+00	0	38	0	1141899264	61	4892
2026-01-21 23:14:55.66	171.28	12.97	-44.4	-47.2	16.9	0.00e+00	0	38	0	1143996416	60	4961
2026-01-21 23:14:56.72	171.35	12.87	-44.2	-46.9	17.0	3.03e-04	0	38	0	1146093568	60	4781
2026-01-21 23:14:57.78	171.43	12.78	-44.2	-46.9	17.1	0.00e+00	0	38	0	1147142144	60	4798
2026-01-21 23:14:58.77	171.49	12.69	-44.0	-46.6	17.3	0.00e+00	0	38	0	1149239296	60	4651
2026-01-21 23:14:59.94	171.57	12.58	-43.9	-46.6	17.4	7.04e-03	0	38	0	1151336448	59	4879
2026-01-21 23:15:00.83	171.64	12.50	-43.8	-46.5	17.5	0.00e+00	0	38	0	1153433600	59	4832
2026-01-21 23:15:01.97	171.71	12.40	-43.7	-46.4	17.5	0.00e+00	0	38	0	1155530752	59	4776
2026-01-21 23:15:02.82	171.77	12.32	-43.6	-46.2	17.7	1.18e-02	0	38	0	1156579328	59	4663
2026-01-21 23:15:03.95	171.84	12.22	-43.7	-46.3	17.6	0.00e+00	0	38	0	1158676480	59	4738
2026-01-21 23:15:04.81	171.90	12.14	-43.6	-46.2	17.7	0.00e+00	0	38	0	1160773632	59	4669
2026-01-21 23:15:05.94	171.98	12.04	-43.4	-46.0	17.8	0.00e+00	0	38	0	1162870784	58	4865
2026-01-21 23:15:06.80	172.03	11.96	-43.4	-46.0	17.8	0.00e+00	0	38	0	1164967936	58	4860
2026-01-21 23:15:07.93	172.11	11.86	-43.3	-46.0	17.8	0.00e+00	0	38	0	1167065088	58	4863
2026-01-21 23:15:08.79	172.16	11.78	-43.4	-46.1	17.7	5.18e-05	0	38	0	1168113664	58	4906
2026-01-21 23:15:09.92	172.24	11.69	-43.4	-46.3	17.6	0.00e+00	0	38	0	1170210816	58	4997
2026-01-21 23:15:10.78	172.29	11.61	-43.4	-46.3	17.6	0.00e+00	0	38	0	1172307968	58	5038
2026-01-21 23:15:11.91	172.36	11.51	-43.4	-46.5	17.3	0.00e+00	0	38	0	1174405120	58	5156
2026-01-21 23:15:12.77	172.42	11.43	-43.3	-46.5	17.4	0.00e+00	0	38	0	1175453696	58	5108
2026-01-21 23:15:14.01	172.50	11.33	-43.4	-46.7	17.2	0.00e+00	0	38	0	1178599424	58	5272
2026-01-21 23:15:14.87	172.55	11.25	-43.3	-46.6	17.3	0.00e+00	0	38	0	1179648000	58	5198
2026-01-21 23:15:16.00	172.62	11.15	-43.3	-46.7	17.2	0.00e+00	0	38	0	1181745152	58	5244
2026-01-21 23:15:16.86	172.67	11.08	-43.6	-47.1	11.6	0.00e+00	0	38	0	1183842304	58	5465
2026-01-21 23:15:18.12	172.75	10.97	-43.4	-46.8	17.1	0.00e+00	0	38	0	1185939456	58	5311
2026-01-21 23:15:18.92	172.80	10.90	-43.6	-47.1	16.8	0.00e+00	0	38	0	1186988032	58	5488
2026-01-21 23:15:20.06	172.87	10.81	-43.7	-47.4	16.6	3.18e-03	0	38	0	1189085184	59	5342
2026-01-21 23:15:20.91	172.92	10.73	-43.4	-46.9	17.0	0.00e+00	0	38	0	1191182336	58	5365
2026-01-21 23:15:22.05	172.99	10.64	-43.8	-47.3	16.6	0.00e+00	0	38	0	1193279488	58	5625
2026-01-21 23:15:22.90	173.04	10.56	-43.7	-47.2	16.7	0.00e+00	0	38	0	1194328064	58	5567
2026-01-21 23:15:24.03	173.11	10.47	-43.7	-47.3	16.6	0.00e+00	0	38	0	1196425216	58	5623
2026-01-21 23:15:24.88	173.16	10.40	-44.1	-47.8	16.2	0.00e+00	0	38	0	1198522368	58	5960
2026-01-21 23:15:26.02	173.23	10.30	-43.9	-47.7	16.2	0.00e+00	0	38	0	1200619520	59	5561
2026-01-21 23:15:26.87	173.28	10.23	-43.9	-47.5	16.3	0.00e+00	0	38	0	1201668096	59	5453
2026-01-21 23:15:28.01	173.34	10.14	-44.0	-47.7	16.2	0.00e+00	0	38	0	1203765248	59	5558
2026-01-21 23:15:28.86	173.39	10.07	-44.0	-47.8	16.1	1.12e-02	0	38	0	1205862400	59	5631
2026-01-21 23:15:30.00	173.46	9.97	-43.9	-47.5	16.4	0.00e+00	0	38	0	1207959552	59	5456
2026-01-21 23:15:30.85	173.51	9.90	-43.9	-47.5	16.4	0.00e+00	0	38	0	1210056704	59	5450
2026-01-21 23:15:31.99	173.57	9.81	-43.8	-47.3	16.6	1.92e-03	0	38	0	1212153856	59	5312
2026-01-21 23:15:32.84	173.62	9.74	-43.9	-47.5	16.4	0.00e+00	0	38	0	1213202432	59	5416
2026-01-21 23:15:33.98	173.68	9.64	-43.9	-47.4	16.5	0.00e+00	0	38	0	1215299584	59	5363
2026-01-21 23:15:34.83	173.73	9.57	-43.9	-47.5	16.4	0.00e+00	0	38	0	1217396736	59	5408
