passes_logs/2026/01/21/T1/T1__20260121_073634_SUOMI_NPP_rec.log

#Pass ID: 20260121_073634_SUOMI NPP
#Satellite: SUOMI NPP
#Configuration: NPP
#almurnet v.1.7.20251203
#Start time: 2026-01-21 07:36:33

#Version: 2.0.20230620
#Station: T1
#Location: 37.570604 lon 55.790049 lat
#TLE: 1 37849U 11061A   26020.95430537  .00000198  00000+0  11470-3 0  9999
#TLE: 2 37849  98.7819 322.9518 0002315  53.3069 306.8320 14.19527555737555

#Time	Az	El	Level	Level2	SNR	BER	BlckErr	Temp	State	Recorded	gain1	gain2
2026-01-21 07:36:33.97	82.43	4.98	-52.0	-67.2	3.8	1.49e+00	0	41	0	0	75	20853
2026-01-21 07:36:34.96	82.31	5.03	-51.9	-67.1	3.8	1.49e+00	0	41	104	0	75	20700
2026-01-21 07:36:35.95	82.20	5.07	-51.9	-67.2	3.8	1.49e+00	0	41	104	0	75	20788
2026-01-21 07:36:36.94	82.09	5.12	-51.9	-67.1	3.8	1.49e+00	0	41	104	0	75	20702
2026-01-21 07:36:37.93	81.97	5.17	-51.9	-67.1	3.8	1.49e+00	0	41	104	0	75	20739
2026-01-21 07:36:38.93	81.86	5.21	-51.9	-67.1	3.8	1.49e+00	0	41	104	0	75	20772
2026-01-21 07:36:39.92	81.74	5.26	-51.9	-67.1	3.8	1.49e+00	0	41	104	0	75	20691
2026-01-21 07:36:40.91	81.63	5.31	-51.9	-67.1	3.8	1.49e+00	0	41	104	0	75	20739
2026-01-21 07:36:41.91	81.51	5.35	-51.9	-67.1	3.8	1.49e+00	0	41	104	0	75	20719
2026-01-21 07:36:42.90	81.40	5.40	-51.9	-67.2	3.8	1.49e+00	0	41	104	0	75	20812
2026-01-21 07:36:43.89	81.28	5.45	-51.9	-67.1	3.8	1.49e+00	0	41	104	0	75	20704
2026-01-21 07:36:44.88	81.17	5.50	-51.9	-67.2	3.8	1.49e+00	0	41	104	0	75	20789
2026-01-21 07:36:45.88	81.05	5.54	-51.9	-67.1	3.8	1.49e+00	0	42	104	0	75	20749
2026-01-21 07:36:46.87	80.93	5.59	-51.9	-67.1	3.8	1.49e+00	0	42	104	0	75	20709
2026-01-21 07:36:47.86	80.82	5.64	-51.9	-67.1	3.8	1.49e+00	0	42	104	0	75	20656
2026-01-21 07:36:48.86	80.70	5.68	-51.9	-67.1	3.8	1.49e+00	0	42	104	0	75	20629
2026-01-21 07:36:49.85	80.58	5.73	-51.9	-67.1	3.8	1.49e+00	0	42	104	0	75	20665
2026-01-21 07:36:50.84	80.46	5.78	-51.9	-67.1	3.8	1.49e+00	0	42	104	0	75	20682
2026-01-21 07:36:51.84	80.34	5.82	-51.9	-67.1	3.8	1.49e+00	0	42	104	0	75	20637
2026-01-21 07:36:52.83	80.22	5.87	-51.9	-67.1	3.8	1.49e+00	0	42	104	0	75	20603
2026-01-21 07:36:53.82	80.10	5.92	-51.9	-67.1	3.8	1.49e+00	0	42	104	0	75	20611
2026-01-21 07:36:54.82	79.98	5.96	-51.9	-67.1	3.8	1.49e+00	0	42	104	0	75	20711
2026-01-21 07:36:55.81	79.86	6.01	-51.9	-67.1	3.8	1.49e+00	0	42	104	0	75	20694
2026-01-21 07:36:56.80	79.74	6.06	-51.9	-67.1	3.8	1.49e+00	0	42	104	0	75	20705
2026-01-21 07:36:57.80	79.62	6.10	-51.9	-67.1	3.8	1.49e+00	0	42	104	0	75	20705
2026-01-21 07:36:58.79	79.50	6.15	-51.9	-67.1	3.8	1.49e+00	0	42	104	0	75	20675
2026-01-21 07:36:59.78	79.37	6.20	-51.9	-67.1	3.8	1.49e+00	0	42	104	0	75	20605
2026-01-21 07:37:00.78	79.25	6.24	-51.9	-67.1	3.8	1.49e+00	0	42	104	0	75	20685
2026-01-21 07:37:01.77	79.13	6.29	-51.9	-67.1	3.8	1.49e+00	0	42	104	0	75	20594
2026-01-21 07:37:02.76	79.00	6.34	-51.9	-67.1	3.8	1.49e+00	0	42	104	0	75	20695
2026-01-21 07:37:03.75	78.88	6.38	-51.9	-67.1	3.8	1.49e+00	0	42	104	0	75	20632
2026-01-21 07:37:04.75	78.76	6.43	-51.9	-67.1	3.8	1.49e+00	0	42	104	0	75	20649
2026-01-21 07:37:05.74	78.63	6.48	-51.9	-67.1	3.8	1.49e+00	0	42	104	0	75	20635
2026-01-21 07:37:06.73	78.51	6.52	-51.9	-67.1	3.8	1.49e+00	0	42	104	0	75	20560
2026-01-21 07:37:07.73	78.38	6.57	-51.9	-67.1	3.8	1.49e+00	0	42	104	0	75	20565
2026-01-21 07:37:08.72	78.25	6.61	-51.9	-67.1	3.8	1.49e+00	0	42	104	0	75	20539
2026-01-21 07:37:09.71	78.13	6.66	-51.9	-67.1	3.8	1.49e+00	0	42	104	0	75	20636
2026-01-21 07:37:10.71	78.00	6.71	-51.9	-67.1	3.8	1.49e+00	0	42	104	0	75	20556
2026-01-21 07:37:11.70	77.87	6.75	-51.9	-67.1	3.8	1.49e+00	0	42	104	0	75	20610
2026-01-21 07:37:12.70	77.75	6.80	-51.9	-67.0	3.8	1.49e+00	0	42	104	0	75	20457
2026-01-21 07:37:13.69	77.62	6.84	-51.9	-67.0	3.8	1.49e+00	0	42	104	0	75	20486
2026-01-21 07:37:14.68	77.49	6.89	-51.9	-67.0	3.8	1.49e+00	0	42	104	0	75	20452
2026-01-21 07:37:15.68	77.36	6.94	-51.9	-67.0	3.8	1.49e+00	0	42	104	0	75	20454
2026-01-21 07:37:16.67	77.23	6.98	-51.9	-67.0	3.8	1.49e+00	0	43	104	0	75	20389
2026-01-21 07:37:17.66	77.10	7.03	-51.9	-66.9	3.8	1.49e+00	0	42	104	0	75	20299
2026-01-21 07:37:18.66	76.97	7.07	-51.9	-66.9	3.8	1.49e+00	0	43	104	0	75	20263
2026-01-21 07:37:19.65	76.84	7.12	-51.9	-66.9	3.8	1.49e+00	0	43	104	0	75	20246
2026-01-21 07:37:20.64	76.71	7.16	-51.9	-67.0	3.8	1.49e+00	0	42	104	0	75	20338
2026-01-21 07:37:21.64	76.58	7.21	-51.9	-67.0	3.8	1.49e+00	0	43	104	0	75	20369
2026-01-21 07:37:22.63	76.45	7.25	-51.9	-67.0	3.8	1.49e+00	0	43	104	0	75	20320
2026-01-21 07:37:23.63	76.32	7.30	-51.9	-67.0	3.8	1.49e+00	0	43	104	0	75	20370
2026-01-21 07:37:24.62	76.18	7.34	-51.9	-66.9	3.8	1.49e+00	0	43	104	0	75	20260
2026-01-21 07:37:25.61	76.05	7.39	-51.9	-66.9	3.8	1.49e+00	0	43	104	0	75	20111
2026-01-21 07:37:26.61	75.92	7.44	-51.9	-66.8	3.8	1.49e+00	0	43	104	0	75	19998
2026-01-21 07:37:27.60	75.78	7.48	-51.9	-66.8	3.8	1.49e+00	0	43	104	0	75	19898
2026-01-21 07:37:28.59	75.65	7.53	-51.9	-66.8	3.8	1.49e+00	0	43	104	0	75	19929
2026-01-21 07:37:29.59	75.51	7.57	-51.9	-66.8	3.8	1.49e+00	0	43	104	0	75	19952
2026-01-21 07:37:30.58	75.38	7.62	-51.9	-66.9	3.8	1.49e+00	0	43	104	0	75	20147
2026-01-21 07:37:31.57	75.24	7.66	-51.9	-66.9	3.8	1.49e+00	0	43	104	0	75	20298
2026-01-21 07:37:32.57	75.11	7.70	-51.9	-67.0	3.8	1.49e+00	0	43	104	0	75	20413
2026-01-21 07:37:33.56	74.97	7.75	-51.9	-67.0	3.8	1.49e+00	0	43	104	0	75	20516
2026-01-21 07:37:34.55	74.84	7.79	-51.9	-67.0	3.8	1.49e+00	0	43	104	0	75	20348
2026-01-21 07:37:35.55	74.70	7.84	-51.9	-66.9	3.8	1.49e+00	0	43	104	0	75	20216
2026-01-21 07:37:36.54	74.56	7.88	-51.9	-66.7	3.8	1.49e+00	0	43	104	0	75	19796
2026-01-21 07:37:37.53	74.42	7.93	-51.8	-66.5	3.8	1.49e+00	0	43	104	0	75	19196
2026-01-21 07:37:38.53	74.28	7.97	-51.8	-66.2	3.8	1.49e+00	0	43	104	0	75	18633
2026-01-21 07:37:39.52	74.15	8.02	-51.8	-66.2	3.8	1.49e+00	0	43	104	0	75	18529
2026-01-21 07:37:40.51	74.01	8.06	-51.8	-66.3	3.8	1.49e+00	0	43	104	0	75	18823
2026-01-21 07:37:41.51	73.87	8.10	-51.9	-66.6	3.8	1.49e+00	0	43	104	0	75	19425
2026-01-21 07:37:42.50	73.73	8.15	-51.9	-66.8	3.8	1.49e+00	0	43	104	0	75	19993
2026-01-21 07:37:43.49	73.59	8.19	-51.9	-67.0	3.8	1.49e+00	0	43	104	0	75	20363
2026-01-21 07:37:44.49	73.44	8.24	-51.9	-67.0	3.8	1.49e+00	0	43	104	0	75	20406
2026-01-21 07:37:45.48	73.30	8.28	-51.9	-66.9	3.8	1.49e+00	0	43	104	0	75	20142
2026-01-21 07:37:46.47	73.16	8.32	-51.8	-66.5	3.8	1.49e+00	0	43	104	0	75	19301
2026-01-21 07:37:47.47	73.02	8.37	-51.8	-65.8	3.8	1.49e+00	0	43	104	0	75	17811
2026-01-21 07:37:48.46	72.88	8.41	-51.8	-65.3	3.8	1.49e+00	0	43	104	0	75	16767
2026-01-21 07:37:49.46	72.73	8.45	-51.8	-65.3	3.8	1.49e+00	0	43	104	0	75	16767
2026-01-21 07:37:50.45	72.59	8.50	-51.8	-66.1	3.8	1.49e+00	0	43	104	0	75	18396
2026-01-21 07:37:51.44	72.45	8.54	-51.9	-66.9	3.8	1.49e+00	0	43	104	0	75	20199
2026-01-21 07:37:52.44	72.30	8.58	-51.8	-64.9	3.8	1.49e+00	0	43	104	0	75	16026
2026-01-21 07:37:53.43	72.16	8.62	-51.2	-60.0	5.9	1.17e+00	0	43	0	0	74	9697
2026-01-21 07:37:54.42	72.01	8.67	-50.2	-56.2	9.4	3.89e-02	0	43	0	2097152	72	7003
2026-01-21 07:37:55.41	71.87	8.71	-49.1	-53.6	12.2	1.06e-03	0	43	0	4194304	70	5811
2026-01-21 07:37:56.41	71.72	8.75	-48.1	-51.8	14.1	1.67e-05	0	43	0	5242880	68	5304
2026-01-21 07:37:57.40	71.57	8.80	-47.3	-50.6	15.1	0.00e+00	0	43	0	7340032	66	5182
2026-01-21 07:37:58.39	71.43	8.84	-47.1	-50.3	15.3	0.00e+00	0	43	0	9437184	66	5019
2026-01-21 07:37:59.39	71.28	8.88	-47.4	-50.7	15.0	0.00e+00	0	43	0	11534336	66	5226
2026-01-21 07:38:00.38	71.13	8.92	-47.9	-51.6	14.1	0.00e+00	0	43	0	13631488	66	5807
2026-01-21 07:38:01.37	70.98	8.96	-48.9	-53.2	12.7	3.89e-05	0	43	0	14680064	68	6262
2026-01-21 07:38:02.36	70.83	9.01	-49.9	-55.4	10.5	1.41e-03	0	43	0	16777216	70	7135
2026-01-21 07:38:03.36	70.68	9.05	-50.6	-57.2	8.4	4.18e-02	0	43	0	18874368	72	7889
2026-01-21 07:38:04.56	70.50	9.10	-49.0	-53.3	12.4	1.74e-02	0	43	0	20971520	70	5619
2026-01-21 07:38:05.41	70.37	9.13	-49.8	-55.0	11.0	8.08e-05	0	43	0	23068672	70	6822
2026-01-21 07:38:06.55	70.20	9.18	-50.2	-56.1	8.9	1.32e+00	0	43	0	24117248	72	6905
2026-01-21 07:38:07.40	70.07	9.22	-47.8	-51.3	14.5	2.28e-05	0	43	0	25165824	67	5291
2026-01-21 07:38:08.54	69.90	9.26	-48.8	-52.9	12.6	2.46e-01	0	43	0	28311552	69	5709
2026-01-21 07:38:09.39	69.77	9.30	-47.7	-51.2	14.6	0.00e+00	0	43	0	29360128	67	5245
2026-01-21 07:38:10.53	69.59	9.35	-47.3	-50.5	15.2	0.00e+00	0	43	0	31457280	66	5135
2026-01-21 07:38:11.38	69.46	9.38	-47.0	-50.1	15.6	0.00e+00	0	43	0	33554432	66	4910
2026-01-21 07:38:12.52	69.29	9.43	-46.9	-49.9	15.8	0.00e+00	0	43	0	35651584	65	5082
2026-01-21 07:38:13.38	69.15	9.46	-47.0	-50.0	15.7	0.00e+00	0	43	0	36700160	65	5146
2026-01-21 07:38:14.51	68.98	9.51	-46.5	-49.4	16.2	0.00e+00	0	43	0	38797312	65	4806
2026-01-21 07:38:15.37	68.85	9.54	-46.4	-49.2	16.5	0.00e+00	0	43	0	40894464	64	4949
2026-01-21 07:38:16.50	68.67	9.59	-46.5	-49.4	16.3	0.00e+00	0	43	0	42991616	64	5043
2026-01-21 07:38:17.36	68.54	9.62	-46.7	-49.6	16.1	0.00e+00	0	43	0	44040192	64	5191
2026-01-21 07:38:18.60	68.34	9.67	-46.6	-49.7	16.0	0.00e+00	0	43	0	47185920	64	5221
2026-01-21 07:38:19.45	68.21	9.71	-46.5	-49.6	16.0	0.00e+00	0	43	0	48234496	64	5171
2026-01-21 07:38:20.59	68.03	9.75	-46.5	-49.6	16.0	0.00e+00	0	43	0	50331648	64	5208
2026-01-21 07:38:21.45	67.89	9.79	-46.7	-49.9	15.7	0.00e+00	0	43	0	52428800	64	5372
2026-01-21 07:38:22.58	67.71	9.83	-46.8	-50.1	15.6	0.00e+00	0	43	0	54525952	64	5497
2026-01-21 07:38:23.44	67.58	9.87	-46.7	-50.0	15.6	0.00e+00	0	43	0	55574528	64	5438
2026-01-21 07:38:24.57	67.40	9.91	-47.0	-50.3	15.3	0.00e+00	0	43	0	57671680	64	5647
2026-01-21 07:38:25.42	67.26	9.94	-46.8	-50.1	15.5	0.00e+00	0	43	0	59768832	64	5521
2026-01-21 07:38:26.56	67.08	9.99	-46.7	-49.9	15.7	0.00e+00	0	43	0	61865984	64	5398
2026-01-21 07:38:27.41	66.94	10.02	-46.7	-49.9	15.7	0.00e+00	0	43	0	62914560	64	5390
2026-01-21 07:38:28.55	66.76	10.07	-46.5	-49.6	16.1	0.00e+00	0	43	0	65011712	64	5190
2026-01-21 07:38:29.40	66.62	10.10	-46.4	-49.3	16.3	0.00e+00	0	43	0	67108864	64	5037
2026-01-21 07:38:30.54	66.43	10.14	-46.3	-49.3	16.4	0.00e+00	0	43	0	69206016	64	4988
2026-01-21 07:38:31.39	66.30	10.18	-46.2	-49.1	16.5	0.00e+00	0	43	0	70254592	64	4871
2026-01-21 07:38:32.52	66.11	10.22	-46.0	-48.8	16.8	0.00e+00	0	43	0	72351744	64	4712
2026-01-21 07:38:33.38	65.97	10.25	-46.0	-48.8	16.9	0.00e+00	0	43	0	74448896	63	5009
2026-01-21 07:38:34.51	65.79	10.29	-46.2	-49.1	16.6	0.00e+00	0	43	0	76546048	63	5176
2026-01-21 07:38:35.37	65.65	10.33	-46.2	-49.1	16.6	0.00e+00	0	44	0	77594624	63	5175
2026-01-21 07:38:36.52	65.46	10.37	-46.2	-49.1	16.6	0.00e+00	0	43	0	80740352	63	5187
2026-01-21 07:38:37.37	65.32	10.40	-46.4	-49.4	16.4	0.00e+00	0	43	0	81788928	63	5346
2026-01-21 07:38:38.51	65.13	10.44	-46.5	-49.6	16.2	0.00e+00	0	43	0	83886080	63	5465
2026-01-21 07:38:39.37	64.98	10.47	-46.5	-49.6	16.2	0.00e+00	0	43	0	85983232	63	5491
2026-01-21 07:38:40.50	64.80	10.52	-46.6	-49.7	16.0	0.00e+00	0	43	0	88080384	63	5569
2026-01-21 07:38:41.40	64.65	10.55	-46.4	-49.4	16.3	0.00e+00	0	43	0	89128960	63	5390
2026-01-21 07:38:42.43	64.47	10.59	-46.2	-49.1	16.6	0.00e+00	0	43	0	91226112	63	5204
2026-01-21 07:38:43.42	64.31	10.62	-46.2	-49.1	16.6	0.00e+00	0	43	0	93323264	63	5200
2026-01-21 07:38:44.42	64.14	10.66	-46.1	-49.0	16.7	0.00e+00	0	43	0	95420416	63	5120
2026-01-21 07:38:45.41	63.97	10.69	-46.0	-48.8	16.9	0.00e+00	0	43	0	96468992	63	5031
2026-01-21 07:38:46.41	63.81	10.73	-46.1	-48.9	16.8	0.00e+00	0	44	0	98566144	63	5069
2026-01-21 07:38:47.40	63.64	10.76	-46.1	-48.9	16.8	0.00e+00	0	44	0	100663296	63	5065
2026-01-21 07:38:48.40	63.47	10.80	-46.0	-48.9	16.8	0.00e+00	0	44	0	102760448	63	5072
2026-01-21 07:38:49.39	63.30	10.83	-46.2	-49.1	16.6	0.00e+00	0	43	0	104857600	63	5165
2026-01-21 07:38:50.38	63.13	10.87	-46.3	-49.2	16.5	0.00e+00	0	44	0	105906176	63	5275
2026-01-21 07:38:51.38	62.96	10.90	-46.4	-49.5	16.3	0.00e+00	0	44	0	108003328	63	5405
2026-01-21 07:38:52.37	62.79	10.94	-46.6	-49.8	16.0	0.00e+00	0	43	0	110100480	63	5598
2026-01-21 07:38:53.38	62.62	10.97	-46.4	-49.6	16.1	0.00e+00	0	43	0	112197632	64	5179
2026-01-21 07:38:54.38	62.45	11.01	-46.6	-49.7	15.9	0.00e+00	0	44	0	114294784	64	5277
2026-01-21 07:38:55.44	62.26	11.04	-46.5	-49.6	16.1	0.00e+00	0	43	0	115343360	64	5202
2026-01-21 07:38:56.35	62.11	11.07	-46.5	-49.6	16.1	0.00e+00	0	43	0	117440512	64	5167
2026-01-21 07:38:57.49	61.91	11.11	-46.4	-49.4	16.2	0.00e+00	0	43	0	119537664	64	5098
2026-01-21 07:38:58.34	61.76	11.14	-46.5	-49.5	16.2	0.00e+00	0	43	0	121634816	64	5153
2026-01-21 07:38:59.69	61.53	11.18	-46.4	-49.4	16.3	0.00e+00	0	44	0	123731968	64	5053
2026-01-21 07:39:00.40	61.40	11.21	-46.3	-49.3	16.4	0.00e+00	0	44	0	124780544	64	5009
2026-01-21 07:39:01.69	61.18	11.25	-46.4	-49.5	16.2	0.00e+00	0	43	0	127926272	64	5113
2026-01-21 07:39:02.40	61.05	11.27	-46.5	-49.6	16.1	0.00e+00	0	44	0	128974848	64	5193
2026-01-21 07:39:03.68	60.83	11.31	-46.5	-49.7	16.0	0.00e+00	0	44	0	131072000	64	5246
2026-01-21 07:39:04.39	60.70	11.34	-46.8	-50.1	15.6	0.00e+00	0	44	0	132120576	64	5499
2026-01-21 07:39:05.67	60.48	11.38	-47.0	-50.4	15.4	0.00e+00	0	44	0	135266304	64	5660
2026-01-21 07:39:06.53	60.32	11.40	-47.0	-50.4	15.3	0.00e+00	0	44	0	136314880	64	5706
2026-01-21 07:39:07.66	60.12	11.44	-47.1	-50.5	15.3	0.00e+00	0	44	0	138412032	64	5728
2026-01-21 07:39:08.71	59.94	11.47	-47.0	-50.3	15.4	0.00e+00	0	44	0	140509184	64	5655
2026-01-21 07:39:09.84	59.74	11.51	-46.8	-50.1	15.7	0.00e+00	0	44	0	142606336	64	5470
2026-01-21 07:39:10.69	59.59	11.53	-46.8	-50.0	15.8	0.00e+00	0	44	0	144703488	64	5411
2026-01-21 07:39:12.10	59.33	11.57	-46.4	-49.4	16.3	0.00e+00	0	44	0	146800640	64	5083
2026-01-21 07:39:13.22	59.13	11.61	-46.0	-48.9	16.8	0.00e+00	0	43	0	148897792	64	4788
2026-01-21 07:39:14.07	58.98	11.63	-46.0	-48.9	16.9	0.00e+00	0	44	0	150994944	63	5052
2026-01-21 07:39:15.21	58.77	11.67	-46.0	-48.8	17.0	0.00e+00	0	44	0	153092096	63	4999
2026-01-21 07:39:16.07	58.62	11.69	-45.8	-48.5	17.2	0.00e+00	0	44	0	154140672	63	4867
2026-01-21 07:39:17.30	58.40	11.73	-45.7	-48.4	17.2	0.00e+00	0	44	0	156237824	63	4810
2026-01-21 07:39:18.15	58.24	11.75	-45.8	-48.5	17.2	0.00e+00	0	44	0	158334976	63	4860
2026-01-21 07:39:19.37	58.02	11.79	-45.9	-48.6	17.1	0.00e+00	0	44	0	160432128	63	4918
2026-01-21 07:39:20.22	57.87	11.81	-46.0	-48.8	17.0	0.00e+00	0	44	0	162529280	63	5013
2026-01-21 07:39:21.36	57.66	11.84	-45.8	-48.6	17.2	0.00e+00	0	43	0	164626432	63	4889
2026-01-21 07:39:22.21	57.50	11.87	-45.9	-48.6	17.2	0.00e+00	0	44	0	165675008	63	4905
2026-01-21 07:39:23.35	57.30	11.90	-45.7	-48.4	17.3	0.00e+00	0	44	0	167772160	63	4807
2026-01-21 07:39:24.20	57.14	11.92	-45.8	-48.5	17.3	0.00e+00	0	44	0	169869312	63	4820
2026-01-21 07:39:25.57	56.89	11.96	-45.6	-48.3	17.4	0.00e+00	0	44	0	171966464	63	4739
2026-01-21 07:39:26.28	56.76	11.98	-45.6	-48.3	17.5	0.00e+00	0	44	0	174063616	63	4733
2026-01-21 07:39:27.78	56.48	12.02	-45.5	-48.1	17.6	0.00e+00	0	44	0	176160768	62	4898
2026-01-21 07:39:28.49	56.35	12.04	-45.6	-48.3	17.5	0.00e+00	0	44	0	177209344	62	4998
2026-01-21 07:39:29.80	56.11	12.07	-45.9	-48.7	17.1	0.00e+00	0	44	0	180355072	62	5243
2026-01-21 07:39:30.52	55.97	12.09	-46.1	-48.9	16.9	0.00e+00	0	44	0	181403648	62	5364
2026-01-21 07:39:31.80	55.74	12.12	-46.2	-49.1	16.7	0.00e+00	0	44	0	183500800	63	5185
2026-01-21 07:39:32.52	55.60	12.14	-46.4	-49.4	16.4	0.00e+00	0	44	0	185597952	63	5373
2026-01-21 07:39:33.80	55.36	12.17	-46.4	-49.4	16.5	0.00e+00	0	44	0	187695104	63	5348
2026-01-21 07:39:34.51	55.23	12.19	-46.4	-49.4	16.5	0.00e+00	0	44	0	188743680	63	5350
2026-01-21 07:39:35.79	54.99	12.22	-46.6	-49.7	16.2	0.00e+00	0	43	0	191889408	63	5569
2026-01-21 07:39:36.52	54.86	12.24	-46.6	-49.6	16.3	0.00e+00	0	44	0	192937984	63	5505
2026-01-21 07:39:37.79	54.62	12.27	-46.6	-49.7	16.1	0.00e+00	0	43	0	195035136	64	5263
2026-01-21 07:39:38.50	54.49	12.28	-46.6	-49.7	16.1	0.00e+00	0	43	0	196083712	64	5275
2026-01-21 07:39:39.78	54.24	12.31	-46.6	-49.7	16.1	0.00e+00	0	44	0	199229440	64	5249
2026-01-21 07:39:40.49	54.11	12.33	-46.5	-49.5	16.3	0.00e+00	0	44	0	200278016	64	5131
2026-01-21 07:39:41.77	53.87	12.36	-46.6	-49.8	16.0	0.00e+00	0	44	0	202375168	64	5288
2026-01-21 07:39:42.61	53.71	12.38	-46.7	-49.9	15.9	0.00e+00	0	44	0	204472320	64	5367
2026-01-21 07:39:44.05	53.44	12.41	-46.7	-49.8	16.0	0.00e+00	0	44	0	206569472	64	5320
2026-01-21 07:39:44.76	53.30	12.42	-46.7	-49.8	15.9	0.00e+00	0	44	0	208666624	64	5320
2026-01-21 07:39:46.25	53.02	12.45	-46.7	-49.8	15.9	0.00e+00	0	44	0	210763776	64	5320
2026-01-21 07:39:46.96	52.88	12.47	-46.6	-49.7	16.0	0.00e+00	0	44	0	211812352	64	5279
2026-01-21 07:39:48.24	52.64	12.50	-46.6	-49.7	16.0	0.00e+00	0	44	0	214958080	64	5275
2026-01-21 07:39:48.95	52.51	12.51	-46.6	-49.6	16.1	0.00e+00	0	44	0	216006656	64	5199
2026-01-21 07:39:50.24	52.26	12.54	-46.5	-49.5	16.2	0.00e+00	0	44	0	218103808	64	5136
2026-01-21 07:39:50.95	52.12	12.55	-46.3	-49.3	16.5	0.00e+00	0	44	0	220200960	64	5007
2026-01-21 07:39:52.23	51.88	12.58	-46.2	-49.0	16.7	0.00e+00	0	44	0	222298112	64	4868
2026-01-21 07:39:52.97	51.74	12.59	-46.0	-48.9	16.9	0.00e+00	0	44	0	223346688	64	4773
2026-01-21 07:39:54.25	51.49	12.61	-46.1	-49.0	16.7	0.00e+00	0	44	0	226492416	64	4835
2026-01-21 07:39:54.97	51.35	12.63	-46.3	-49.2	16.5	0.00e+00	0	44	0	227540992	64	4974
2026-01-21 07:39:56.25	51.11	12.65	-46.2	-49.2	16.5	0.00e+00	0	44	0	229638144	64	4940
2026-01-21 07:39:56.96	50.97	12.66	-46.3	-49.3	16.5	0.00e+00	0	44	0	230686720	64	5009
2026-01-21 07:39:58.24	50.72	12.69	-46.1	-49.0	16.8	0.00e+00	0	44	0	233832448	64	4815
2026-01-21 07:39:58.97	50.58	12.70	-46.0	-48.9	16.8	0.00e+00	0	44	0	234881024	64	4771
2026-01-21 07:40:00.25	50.33	12.72	-46.1	-48.9	16.9	0.00e+00	0	44	0	236978176	63	5068
2026-01-21 07:40:00.96	50.20	12.73	-46.2	-49.0	16.8	0.00e+00	0	44	0	239075328	63	5133
2026-01-21 07:40:02.23	49.95	12.75	-46.3	-49.2	16.6	0.00e+00	0	44	0	241172480	63	5245
2026-01-21 07:40:02.94	49.81	12.76	-46.3	-49.3	16.5	0.00e+00	0	44	0	242221056	63	5291
2026-01-21 07:40:04.27	49.55	12.79	-46.4	-49.4	16.4	0.00e+00	0	44	0	245366784	63	5400
2026-01-21 07:40:04.98	49.41	12.80	-46.3	-49.2	16.6	0.00e+00	0	44	0	246415360	63	5256
2026-01-21 07:40:06.26	49.17	12.82	-46.3	-49.2	16.6	0.00e+00	0	44	0	248512512	63	5256
2026-01-21 07:40:06.97	49.03	12.83	-46.2	-49.2	16.6	0.00e+00	0	44	0	249561088	63	5221
2026-01-21 07:40:08.25	48.78	12.85	-46.1	-49.0	16.8	0.00e+00	0	44	0	252706816	63	5110
2026-01-21 07:40:08.96	48.64	12.86	-46.0	-48.9	16.9	0.00e+00	0	44	0	253755392	63	5083
2026-01-21 07:40:10.24	48.39	12.87	-45.9	-48.8	17.0	0.00e+00	0	44	0	255852544	63	4992
2026-01-21 07:40:10.97	48.25	12.88	-46.0	-48.8	17.0	0.00e+00	0	44	0	256901120	63	4999
2026-01-21 07:40:12.25	48.00	12.90	-45.9	-48.7	17.1	0.00e+00	0	44	0	260046848	63	4952
2026-01-21 07:40:12.96	47.86	12.91	-45.9	-48.8	17.0	0.00e+00	0	44	0	261095424	63	5002
2026-01-21 07:40:14.24	47.60	12.93	-45.9	-48.7	17.1	0.00e+00	0	44	0	263192576	63	4932
2026-01-21 07:40:14.95	47.47	12.93	-45.9	-48.7	17.0	0.00e+00	0	44	0	265289728	63	4958
2026-01-21 07:40:16.23	47.21	12.95	-46.1	-49.0	16.8	0.00e+00	0	44	0	267386880	63	5148
2026-01-21 07:40:16.96	47.07	12.96	-46.2	-49.1	16.7	0.00e+00	0	44	0	268435456	63	5216
2026-01-21 07:40:18.24	46.82	12.97	-46.3	-49.3	16.5	0.00e+00	0	44	0	270532608	63	5321
2026-01-21 07:40:18.95	46.68	12.98	-46.4	-49.4	16.4	0.00e+00	0	44	0	272629760	63	5361
2026-01-21 07:40:20.23	46.43	12.99	-46.5	-49.5	16.3	0.00e+00	0	44	0	274726912	63	5453
2026-01-21 07:40:20.94	46.29	13.00	-46.3	-49.2	16.5	0.00e+00	0	44	0	275775488	63	5277
2026-01-21 07:40:22.22	46.03	13.02	-46.2	-49.2	16.6	0.00e+00	0	44	0	278921216	63	5224
2026-01-21 07:40:22.93	45.89	13.02	-46.1	-49.0	16.8	0.00e+00	0	44	0	279969792	63	5102
2026-01-21 07:40:24.21	45.64	13.03	-46.0	-48.9	16.9	0.00e+00	0	44	0	282066944	63	5060
2026-01-21 07:40:24.92	45.50	13.04	-45.9	-48.6	17.1	0.00e+00	0	44	0	283115520	63	4925
2026-01-21 07:40:26.20	45.25	13.05	-45.8	-48.6	17.1	0.00e+00	0	44	0	286261248	63	4904
2026-01-21 07:40:26.93	45.10	13.06	-45.9	-48.7	17.1	0.00e+00	0	44	0	287309824	63	4935
2026-01-21 07:40:28.21	44.85	13.07	-45.8	-48.6	17.2	0.00e+00	0	44	0	289406976	63	4877
2026-01-21 07:40:28.92	44.71	13.07	-45.9	-48.7	17.0	0.00e+00	0	44	0	291504128	63	4977
2026-01-21 07:40:30.20	44.45	13.08	-45.7	-48.5	17.3	0.00e+00	0	44	0	293601280	63	4822
2026-01-21 07:40:30.91	44.31	13.09	-45.7	-48.4	17.3	0.00e+00	0	44	0	294649856	63	4801
2026-01-21 07:40:32.19	44.06	13.10	-45.8	-48.5	17.2	0.00e+00	0	44	0	296747008	63	4851
2026-01-21 07:40:32.90	43.92	13.10	-45.6	-48.4	17.4	0.00e+00	0	44	0	298844160	63	4763
2026-01-21 07:40:34.18	43.66	13.11	-45.8	-48.6	17.2	0.00e+00	0	44	0	300941312	63	4872
2026-01-21 07:40:35.09	43.48	13.11	-45.8	-48.6	17.2	0.00e+00	0	44	0	303038464	63	4887
2026-01-21 07:40:36.39	43.22	13.12	-46.0	-48.8	17.0	0.00e+00	0	44	0	305135616	63	5008
2026-01-21 07:40:37.10	43.08	13.13	-45.9	-48.7	17.1	0.00e+00	0	44	0	306184192	63	4949
2026-01-21 07:40:38.72	42.76	13.13	-46.0	-48.8	17.0	0.00e+00	0	44	0	309329920	63	5009
2026-01-21 07:40:39.29	42.65	13.13	-45.9	-48.7	17.1	0.00e+00	0	44	0	310378496	63	4938
2026-01-21 07:40:41.20	42.27	13.14	-45.8	-48.6	17.2	0.00e+00	0	44	0	313524224	63	4881
2026-01-21 07:40:42.11	42.09	13.15	-45.8	-48.6	17.2	0.00e+00	0	44	0	315621376	63	4883
2026-01-21 07:40:43.11	41.89	13.15	-45.7	-48.4	17.3	0.00e+00	0	44	0	317718528	63	4798
2026-01-21 07:40:44.10	41.69	13.15	-45.7	-48.4	17.3	0.00e+00	0	44	0	319815680	63	4807
2026-01-21 07:40:45.15	41.48	13.15	-45.5	-48.2	17.5	0.00e+00	0	44	0	321912832	63	4664
2026-01-21 07:40:46.14	41.28	13.16	-45.5	-48.2	17.5	0.00e+00	0	44	0	322961408	62	4936
2026-01-21 07:40:47.20	41.07	13.16	-45.5	-48.2	17.5	0.00e+00	0	44	0	325058560	62	4982
2026-01-21 07:40:48.08	40.90	13.16	-45.6	-48.3	17.4	0.00e+00	0	44	0	327155712	62	5003
2026-01-21 07:40:49.22	40.67	13.16	-45.7	-48.5	17.2	0.00e+00	0	44	0	329252864	62	5135
2026-01-21 07:40:50.07	40.50	13.16	-45.9	-48.7	17.0	0.00e+00	0	44	0	330301440	62	5268
2026-01-21 07:40:51.21	40.27	13.16	-46.0	-48.9	16.8	0.00e+00	0	44	0	332398592	62	5399
2026-01-21 07:40:52.07	40.10	13.16	-46.1	-49.0	16.7	0.00e+00	0	44	0	334495744	62	5455
2026-01-21 07:40:53.20	39.88	13.16	-46.2	-49.2	16.6	0.00e+00	0	44	0	336592896	63	5248
2026-01-21 07:40:54.06	39.70	13.16	-46.2	-49.1	16.6	0.00e+00	0	44	0	337641472	63	5203
2026-01-21 07:40:55.19	39.48	13.16	-46.1	-49.0	16.8	0.00e+00	0	44	0	340787200	63	5113
2026-01-21 07:40:56.04	39.31	13.16	-46.0	-48.9	16.9	0.00e+00	0	44	0	341835776	63	5059
2026-01-21 07:40:57.18	39.08	13.15	-46.0	-48.9	16.9	0.00e+00	0	44	0	343932928	63	5052
2026-01-21 07:40:58.37	38.85	13.15	-46.2	-49.2	16.6	0.00e+00	0	44	0	346030080	63	5238
2026-01-21 07:40:59.22	38.68	13.15	-46.4	-49.5	16.3	0.00e+00	0	44	0	348127232	63	5434
2026-01-21 07:41:00.69	38.38	13.15	-46.6	-49.7	16.0	0.00e+00	0	44	0	350224384	63	5575
2026-01-21 07:41:01.40	38.24	13.14	-46.5	-49.7	16.1	0.00e+00	0	44	0	352321536	63	5539
2026-01-21 07:41:02.68	37.99	13.14	-46.4	-49.5	16.3	0.00e+00	0	44	0	354418688	63	5440
2026-01-21 07:41:03.40	37.84	13.14	-46.3	-49.4	16.4	0.00e+00	0	44	0	355467264	63	5369
2026-01-21 07:41:04.68	37.59	13.13	-46.2	-49.2	16.5	0.00e+00	0	44	0	358612992	63	5250
2026-01-21 07:41:05.48	37.43	13.13	-46.0	-48.9	16.9	0.00e+00	0	44	0	359661568	63	5056
2026-01-21 07:41:06.62	37.20	13.12	-45.8	-48.7	17.0	0.00e+00	0	44	0	361758720	63	4959
2026-01-21 07:41:07.47	37.03	13.12	-45.8	-48.6	17.1	0.00e+00	0	44	0	363855872	63	4902
2026-01-21 07:41:08.61	36.81	13.11	-45.8	-48.7	17.1	0.00e+00	0	44	0	364904448	63	4930
2026-01-21 07:41:09.46	36.64	13.10	-45.8	-48.6	17.1	0.00e+00	0	44	0	367001600	63	4917
2026-01-21 07:41:10.60	36.41	13.10	-45.9	-48.8	17.0	0.00e+00	0	44	0	369098752	63	4993
2026-01-21 07:41:11.45	36.24	13.09	-45.8	-48.7	17.1	0.00e+00	0	44	0	371195904	63	4943
2026-01-21 07:41:12.59	36.02	13.08	-45.9	-48.8	16.9	0.00e+00	0	44	0	373293056	63	5029
2026-01-21 07:41:13.44	35.85	13.08	-45.9	-48.9	16.9	0.00e+00	0	44	0	374341632	63	5047
2026-01-21 07:41:14.61	35.62	13.07	-45.9	-48.9	17.0	0.00e+00	0	44	0	376438784	63	5050
2026-01-21 07:41:15.46	35.45	13.06	-46.1	-49.1	16.7	0.00e+00	0	44	0	378535936	63	5186
2026-01-21 07:41:16.60	35.22	13.05	-46.2	-49.3	16.5	0.00e+00	0	44	0	380633088	63	5295
2026-01-21 07:41:17.45	35.06	13.04	-46.3	-49.3	16.5	0.00e+00	0	44	0	381681664	63	5317
2026-01-21 07:41:18.59	34.83	13.03	-46.3	-49.2	16.6	0.00e+00	0	44	0	383778816	63	5254
2026-01-21 07:41:19.44	34.66	13.03	-46.2	-49.1	16.7	0.00e+00	0	44	0	385875968	63	5191
2026-01-21 07:41:20.58	34.44	13.02	-46.1	-49.0	16.8	0.00e+00	0	44	0	387973120	63	5137
2026-01-21 07:41:21.43	34.27	13.01	-46.0	-48.8	17.0	0.00e+00	0	44	0	389021696	63	5032
2026-01-21 07:41:22.57	34.05	13.00	-45.9	-48.7	17.1	0.00e+00	0	44	0	392167424	63	4954
2026-01-21 07:41:23.42	33.88	12.99	-45.8	-48.6	17.2	0.00e+00	0	44	0	393216000	63	4907
2026-01-21 07:41:24.56	33.65	12.97	-45.9	-48.8	17.0	0.00e+00	0	44	0	395313152	63	4986
2026-01-21 07:41:25.41	33.49	12.96	-46.0	-48.8	17.0	0.00e+00	0	44	0	397410304	63	5013
2026-01-21 07:41:26.55	33.26	12.95	-46.1	-48.9	16.9	0.00e+00	0	44	0	399507456	63	5097
2026-01-21 07:41:27.40	33.10	12.94	-46.0	-48.9	17.0	0.00e+00	0	44	0	400556032	63	5065
2026-01-21 07:41:28.54	32.87	12.93	-46.1	-48.9	16.9	0.00e+00	0	44	0	402653184	63	5097
2026-01-21 07:41:29.39	32.71	12.92	-46.0	-48.9	17.0	0.00e+00	0	44	0	404750336	63	5042
2026-01-21 07:41:30.53	32.48	12.90	-45.9	-48.8	17.0	0.00e+00	0	44	0	406847488	63	5004
2026-01-21 07:41:31.38	32.32	12.89	-46.0	-48.9	16.9	0.00e+00	0	44	0	407896064	63	5070
2026-01-21 07:41:32.52	32.09	12.87	-46.1	-49.0	16.8	0.00e+00	0	44	0	409993216	63	5133
2026-01-21 07:41:33.37	31.93	12.86	-46.0	-48.9	16.9	0.00e+00	0	44	0	412090368	63	5075
2026-01-21 07:41:34.51	31.70	12.85	-46.1	-49.0	16.8	0.00e+00	0	44	0	414187520	63	5134
2026-01-21 07:41:35.37	31.54	12.83	-46.3	-49.2	16.6	0.00e+00	0	44	0	415236096	63	5270
2026-01-21 07:41:36.50	31.32	12.82	-46.2	-49.1	16.7	0.00e+00	0	44	0	417333248	63	5216
2026-01-21 07:41:37.36	31.15	12.80	-46.2	-49.1	16.7	0.00e+00	0	44	0	419430400	63	5192
2026-01-21 07:41:38.49	30.93	12.79	-46.2	-49.1	16.8	0.00e+00	0	44	0	421527552	63	5174
2026-01-21 07:41:39.34	30.77	12.77	-46.1	-49.0	16.8	0.00e+00	0	44	0	422576128	63	5140
2026-01-21 07:41:40.48	30.54	12.76	-46.3	-49.2	16.7	0.00e+00	0	44	0	425721856	63	5254
2026-01-21 07:41:41.33	30.38	12.74	-46.3	-49.2	16.6	0.00e+00	0	44	0	426770432	63	5260
2026-01-21 07:41:42.47	30.16	12.72	-46.1	-49.0	16.8	0.00e+00	0	44	0	428867584	63	5110
2026-01-21 07:41:43.32	30.00	12.71	-46.2	-49.1	16.8	0.00e+00	0	44	0	430964736	63	5188
2026-01-21 07:41:44.52	29.76	12.69	-46.0	-48.9	17.0	0.00e+00	0	44	0	433061888	63	5055
2026-01-21 07:41:45.38	29.60	12.67	-45.9	-48.7	17.1	0.00e+00	0	44	0	434110464	63	4970
2026-01-21 07:41:46.58	29.37	12.65	-45.7	-48.5	17.3	0.00e+00	0	44	0	436207616	63	4818
2026-01-21 07:41:47.43	29.20	12.64	-45.7	-48.6	17.2	0.00e+00	0	44	0	438304768	63	4883
2026-01-21 07:41:48.61	28.98	12.61	-45.7	-48.6	17.2	0.00e+00	0	44	0	440401920	63	4888
2026-01-21 07:41:49.47	28.81	12.60	-45.7	-48.6	17.2	0.00e+00	0	44	0	442499072	63	4880
2026-01-21 07:41:50.60	28.60	12.58	-45.9	-48.8	17.0	0.00e+00	0	44	0	444596224	63	5009
2026-01-21 07:41:51.46	28.43	12.56	-46.1	-49.1	16.7	0.00e+00	0	44	0	445644800	63	5186
2026-01-21 07:41:52.60	28.21	12.54	-45.9	-48.9	16.9	0.00e+00	0	44	0	447741952	63	5060
2026-01-21 07:41:53.45	28.05	12.52	-45.9	-48.8	16.9	0.00e+00	0	44	0	449839104	63	5037
2026-01-21 07:41:54.59	27.83	12.50	-45.8	-48.7	17.1	0.00e+00	0	44	0	451936256	63	4969
2026-01-21 07:41:55.44	27.67	12.48	-45.7	-48.6	17.3	0.00e+00	0	44	0	452984832	63	4876
2026-01-21 07:41:56.57	27.46	12.45	-45.7	-48.5	17.3	0.00e+00	0	44	0	455081984	63	4846
2026-01-21 07:41:57.43	27.30	12.44	-45.7	-48.6	17.3	0.00e+00	0	44	0	457179136	63	4880
2026-01-21 07:41:58.56	27.08	12.41	-45.7	-48.6	17.2	0.00e+00	0	44	0	459276288	63	4883
2026-01-21 07:41:59.42	26.92	12.39	-45.9	-48.7	17.1	0.00e+00	0	44	0	460324864	63	4970
2026-01-21 07:42:00.55	26.71	12.37	-46.1	-49.0	16.8	0.00e+00	0	44	0	462422016	63	5114
2026-01-21 07:42:01.41	26.54	12.35	-46.1	-49.0	16.8	0.00e+00	0	44	0	464519168	63	5141
2026-01-21 07:42:02.54	26.33	12.32	-46.0	-48.9	16.9	0.00e+00	0	44	0	466616320	63	5081
2026-01-21 07:42:03.40	26.17	12.30	-46.2	-49.3	16.6	0.00e+00	0	44	0	467664896	63	5296
2026-01-21 07:42:04.55	25.95	12.28	-46.2	-49.2	16.6	0.00e+00	0	44	0	470810624	63	5276
2026-01-21 07:42:05.40	25.79	12.26	-46.1	-49.2	16.7	0.00e+00	0	44	0	471859200	63	5238
2026-01-21 07:42:06.54	25.58	12.23	-46.1	-49.3	16.6	0.00e+00	0	44	0	473956352	63	5311
2026-01-21 07:42:07.39	25.42	12.21	-46.0	-49.2	16.7	0.00e+00	0	44	0	476053504	63	5246
2026-01-21 07:42:08.64	25.19	12.18	-45.9	-48.9	16.9	0.00e+00	0	44	0	478150656	63	5081
2026-01-21 07:42:09.49	25.03	12.16	-45.9	-49.0	16.9	0.00e+00	0	44	0	479199232	63	5110
2026-01-21 07:42:10.63	24.82	12.13	-45.9	-49.0	16.9	0.00e+00	0	44	0	481296384	63	5102
2026-01-21 07:42:11.48	24.66	12.11	-46.0	-48.9	16.9	0.00e+00	0	44	0	483393536	63	5091
2026-01-21 07:42:12.62	24.45	12.08	-46.1	-49.0	16.8	0.00e+00	0	44	0	485490688	63	5157
2026-01-21 07:42:13.47	24.29	12.06	-46.0	-48.9	16.9	0.00e+00	0	44	0	487587840	63	5076
2026-01-21 07:42:14.61	24.08	12.03	-45.9	-48.7	17.1	0.00e+00	0	44	0	489684992	63	4954
2026-01-21 07:42:15.56	23.91	12.00	-45.9	-48.7	17.1	0.00e+00	0	44	0	490733568	63	4958
2026-01-21 07:42:16.55	23.73	11.98	-46.0	-48.8	17.1	0.00e+00	0	44	0	492830720	63	5004
2026-01-21 07:42:17.54	23.55	11.95	-45.8	-48.5	17.3	0.00e+00	0	44	0	494927872	63	4867
2026-01-21 07:42:18.54	23.36	11.92	-45.8	-48.6	17.2	0.00e+00	0	44	0	497025024	63	4892
2026-01-21 07:42:19.53	23.18	11.90	-45.8	-48.5	17.3	0.00e+00	0	44	0	498073600	63	4846
2026-01-21 07:42:20.53	23.00	11.87	-45.8	-48.5	17.3	0.00e+00	0	44	0	500170752	63	4857
2026-01-21 07:42:21.52	22.82	11.84	-45.9	-48.6	17.1	0.00e+00	0	44	0	502267904	63	4920
2026-01-21 07:42:22.52	22.64	11.82	-45.8	-48.5	17.3	0.00e+00	0	44	0	504365056	63	4852
2026-01-21 07:42:23.51	22.46	11.79	-45.8	-48.6	17.2	0.00e+00	0	44	0	505413632	63	4897
2026-01-21 07:42:24.51	22.28	11.76	-45.8	-48.7	17.1	0.00e+00	0	44	0	507510784	63	4946
2026-01-21 07:42:25.50	22.10	11.73	-45.8	-48.7	17.1	0.00e+00	0	44	0	509607936	63	4953
2026-01-21 07:42:26.49	21.92	11.70	-45.7	-48.7	17.1	0.00e+00	0	44	0	511705088	63	4957
2026-01-21 07:42:27.49	21.74	11.67	-45.6	-48.7	17.1	0.00e+00	0	44	0	513802240	63	4945
2026-01-21 07:42:28.48	21.56	11.64	-45.6	-48.7	17.2	0.00e+00	0	44	0	514850816	63	4929
2026-01-21 07:42:29.56	21.37	11.61	-45.4	-48.4	17.3	0.00e+00	0	44	0	516947968	62	5099
2026-01-21 07:42:30.41	21.22	11.59	-45.3	-48.2	17.5	0.00e+00	0	44	0	519045120	62	4976
2026-01-21 07:42:31.55	21.01	11.55	-45.2	-48.2	17.6	0.00e+00	0	44	0	521142272	62	4928
2026-01-21 07:42:32.40	20.86	11.53	-45.2	-48.1	17.6	0.00e+00	0	44	0	522190848	62	4923
2026-01-21 07:42:33.54	20.66	11.49	-45.1	-48.0	17.8	0.00e+00	0	44	0	524288000	62	4815
2026-01-21 07:42:34.39	20.51	11.47	-45.1	-48.1	17.7	0.00e+00	0	44	0	526385152	62	4877
2026-01-21 07:42:35.53	20.31	11.43	-45.4	-48.4	17.4	0.00e+00	0	44	0	528482304	62	5059
2026-01-21 07:42:36.38	20.16	11.40	-45.4	-48.4	17.3	0.00e+00	0	44	0	529530880	62	5078
2026-01-21 07:42:37.52	19.96	11.37	-45.5	-48.5	17.2	0.00e+00	0	44	0	532676608	62	5156
2026-01-21 07:42:38.37	19.81	11.34	-45.7	-48.7	17.1	0.00e+00	0	44	0	533725184	62	5270
2026-01-21 07:42:39.51	19.61	11.30	-45.7	-48.7	17.1	0.00e+00	0	44	0	535822336	62	5247
2026-01-21 07:42:40.36	19.46	11.28	-45.9	-49.0	16.9	0.00e+00	0	44	0	537919488	62	5407
2026-01-21 07:42:41.50	19.26	11.24	-46.1	-49.1	16.7	0.00e+00	0	44	0	540016640	62	5511
2026-01-21 07:42:42.35	19.11	11.21	-46.3	-49.4	16.4	0.00e+00	0	44	0	541065216	63	5377
2026-01-21 07:42:43.49	18.91	11.18	-46.4	-49.5	16.4	0.00e+00	0	44	0	543162368	63	5411
2026-01-21 07:42:44.34	18.77	11.15	-46.4	-49.5	16.3	0.00e+00	0	44	0	545259520	63	5453
2026-01-21 07:42:45.47	18.57	11.11	-46.5	-49.6	16.2	0.00e+00	0	44	0	547356672	63	5509
2026-01-21 07:42:46.33	18.42	11.08	-46.5	-49.7	16.2	0.00e+00	0	44	0	548405248	63	5530
2026-01-21 07:42:47.46	18.23	11.04	-46.4	-49.5	16.3	0.00e+00	0	44	0	550502400	63	5434
2026-01-21 07:42:48.31	18.08	11.01	-46.3	-49.3	16.5	0.00e+00	0	44	0	552599552	63	5330
2026-01-21 07:42:49.45	17.89	10.98	-46.4	-49.5	16.3	0.00e+00	0	44	0	554696704	63	5429
2026-01-21 07:42:50.30	17.74	10.95	-46.3	-49.3	16.5	0.00e+00	0	44	0	555745280	63	5294
2026-01-21 07:42:51.44	17.55	10.91	-46.4	-49.5	16.3	0.00e+00	0	44	0	557842432	63	5449
2026-01-21 07:42:52.29	17.40	10.88	-46.4	-49.6	16.3	0.00e+00	0	44	0	559939584	63	5490
2026-01-21 07:42:53.43	17.21	10.84	-46.4	-49.5	16.3	0.00e+00	0	44	0	562036736	63	5463
2026-01-21 07:42:54.28	17.06	10.81	-46.4	-49.7	16.2	0.00e+00	0	44	0	563085312	63	5537
2026-01-21 07:42:55.43	16.87	10.77	-46.4	-49.7	16.1	0.00e+00	0	44	0	566231040	63	5591
2026-01-21 07:42:56.29	16.73	10.74	-46.3	-49.7	16.1	0.00e+00	0	44	0	567279616	63	5555
2026-01-21 07:42:57.42	16.54	10.70	-46.3	-49.7	16.1	0.00e+00	0	44	0	569376768	63	5555
2026-01-21 07:42:58.28	16.39	10.67	-46.5	-50.0	15.8	0.00e+00	0	44	0	571473920	63	5774
2026-01-21 07:42:59.60	16.17	10.62	-46.1	-49.5	16.3	0.00e+00	0	44	0	573571072	63	5447
2026-01-21 07:43:00.31	16.05	10.59	-46.1	-49.6	16.2	0.00e+00	0	44	0	574619648	63	5489
2026-01-21 07:43:01.59	15.84	10.55	-46.2	-49.8	16.0	0.00e+00	0	44	0	577765376	63	5654
2026-01-21 07:43:02.32	15.72	10.52	-46.2	-49.9	16.0	0.00e+00	0	44	0	578813952	63	5664
2026-01-21 07:43:03.59	15.51	10.47	-46.1	-49.7	16.0	0.00e+00	0	44	0	580911104	63	5589
2026-01-21 07:43:04.32	15.39	10.45	-46.3	-50.0	15.9	0.00e+00	0	44	0	581959680	63	5734
2026-01-21 07:43:05.60	15.18	10.40	-46.5	-50.2	15.6	0.00e+00	0	44	0	585105408	63	5893
2026-01-21 07:43:06.31	15.06	10.37	-46.4	-49.9	15.9	0.00e+00	0	44	0	586153984	63	5700
2026-01-21 07:43:07.59	14.85	10.33	-46.7	-50.4	15.3	0.00e+00	0	44	0	588251136	64	5709
2026-01-21 07:43:08.50	14.70	10.29	-46.8	-50.4	15.4	0.00e+00	0	44	0	590348288	64	5713
2026-01-21 07:43:09.50	14.54	10.25	-46.7	-50.3	15.5	0.00e+00	0	44	0	592445440	64	5627
2026-01-21 07:43:10.49	14.38	10.22	-46.6	-50.0	15.7	0.00e+00	0	44	0	593494016	64	5457
2026-01-21 07:43:11.48	14.22	10.18	-46.4	-49.6	16.1	0.00e+00	0	44	0	595591168	64	5189
2026-01-21 07:43:12.48	14.06	10.14	-46.4	-49.7	16.0	0.00e+00	0	44	0	597688320	64	5239
2026-01-21 07:43:13.47	13.90	10.10	-46.3	-49.5	16.2	0.00e+00	0	44	0	599785472	64	5140
2026-01-21 07:43:14.47	13.74	10.06	-46.4	-49.6	16.1	0.00e+00	0	44	0	601882624	64	5193
2026-01-21 07:43:15.46	13.58	10.03	-46.5	-49.7	16.0	0.00e+00	0	44	0	602931200	64	5238
2026-01-21 07:43:16.46	13.42	9.99	-46.6	-50.0	15.8	0.00e+00	0	44	0	605028352	64	5416
2026-01-21 07:43:17.45	13.26	9.95	-46.8	-50.3	15.5	0.00e+00	0	44	0	607125504	64	5612
2026-01-21 07:43:18.45	13.10	9.91	-47.0	-50.8	15.0	0.00e+00	0	44	0	609222656	64	5924
2026-01-21 07:43:19.44	12.94	9.87	-47.4	-51.5	14.3	0.00e+00	0	44	0	610271232	65	6087
2026-01-21 07:43:20.44	12.78	9.83	-47.6	-51.8	14.0	2.20e-06	0	44	0	612368384	65	6319
2026-01-21 07:43:21.43	12.63	9.79	-47.6	-52.0	13.8	4.50e-06	0	44	0	614465536	65	6446
2026-01-21 07:43:22.43	12.47	9.75	-47.4	-51.7	14.1	5.30e-06	0	44	0	616562688	66	5902
2026-01-21 07:43:23.42	12.32	9.71	-47.4	-51.8	14.0	1.50e-06	0	44	0	618659840	66	5946
2026-01-21 07:43:24.42	12.16	9.67	-47.4	-51.7	14.1	2.20e-06	0	44	0	619708416	66	5897
2026-01-21 07:43:25.41	12.00	9.63	-47.4	-51.8	14.0	1.50e-06	0	44	0	621805568	66	5934
2026-01-21 07:43:26.41	11.85	9.59	-47.0	-51.2	14.6	7.00e-07	0	44	0	623902720	66	5546
2026-01-21 07:43:27.40	11.70	9.55	-46.9	-51.0	14.7	0.00e+00	0	44	0	625999872	65	5777
2026-01-21 07:43:28.40	11.54	9.51	-46.7	-50.8	15.0	0.00e+00	0	44	0	627048448	65	5602
2026-01-21 07:43:29.39	11.39	9.47	-46.4	-50.4	15.3	0.00e+00	0	44	0	629145600	64	5704
2026-01-21 07:43:30.39	11.23	9.43	-46.5	-50.8	14.9	0.00e+00	0	44	0	631242752	64	5957
2026-01-21 07:43:31.44	11.07	9.39	-46.7	-51.1	14.7	0.00e+00	0	44	0	633339904	64	6170
2026-01-21 07:43:32.34	10.94	9.35	-46.8	-51.5	14.3	0.00e+00	0	44	0	635437056	64	6438
2026-01-21 07:43:33.59	10.74	9.30	-47.0	-52.3	13.5	3.00e-06	0	44	0	637534208	64	7108
2026-01-21 07:43:34.44	10.62	9.27	-47.0	-52.7	13.1	1.52e-05	0	44	0	638582784	64	7453
2026-01-21 07:43:35.69	10.43	9.21	-47.1	-53.2	12.5	5.49e-05	0	44	0	641728512	64	7878
2026-01-21 07:43:36.54	10.30	9.18	-47.1	-53.6	12.2	1.11e-04	0	44	0	642777088	64	8238
2026-01-21 07:43:37.68	10.13	9.13	-47.1	-53.8	11.9	2.87e-04	0	44	0	644874240	65	7945
2026-01-21 07:43:38.54	10.00	9.10	-46.8	-53.3	12.4	2.33e-04	0	44	0	646971392	65	7504
2026-01-21 07:43:39.68	9.83	9.05	-46.8	-53.4	12.4	2.61e-04	0	44	0	649068544	65	7548
2026-01-21 07:43:40.53	9.70	9.01	-47.0	-53.7	12.2	1.01e-04	0	44	0	650117120	65	7816
2026-01-21 07:43:41.66	9.53	8.96	-50.7	-67.4	3.8	1.49e+00	0	44	104	651165696	71	26966
2026-01-21 07:43:42.52	9.40	8.93	-51.8	-67.5	3.8	1.49e+00	0	44	104	651165696	74	22844
2026-01-21 07:43:43.65	9.24	8.88	-51.2	-67.6	3.8	1.49e+00	0	44	104	651165696	73	24611
2026-01-21 07:43:44.50	9.11	8.84	-52.5	-67.7	3.8	1.49e+00	0	44	104	651165696	75	22177
2026-01-21 07:43:45.64	8.94	8.80	-52.2	-67.8	3.8	1.49e+00	0	44	104	651165696	75	22410
2026-01-21 07:43:46.49	8.82	8.76	-52.4	-67.8	3.8	1.49e+00	0	44	104	651165696	75	22438
2026-01-21 07:43:47.62	8.65	8.71	-52.3	-67.9	3.8	1.49e+00	0	44	104	651165696	75	22577
2026-01-21 07:43:48.47	8.53	8.67	-52.6	-67.9	3.8	1.49e+00	0	44	104	651165696	75	22701
2026-01-21 07:43:49.61	8.36	8.63	-52.7	-68.0	3.8	1.49e+00	0	44	104	651165696	76	21564
2026-01-21 07:43:50.46	8.24	8.59	-52.6	-68.0	3.8	1.49e+00	0	44	104	651165696	76	21604
2026-01-21 07:43:51.60	8.07	8.54	-52.7	-68.0	3.8	1.49e+00	0	44	104	651165696	76	21697
2026-01-21 07:43:52.45	7.95	8.50	-52.8	-68.0	3.8	1.49e+00	0	44	104	651165696	76	21723
2026-01-21 07:43:53.65	7.78	8.45	-52.7	-68.1	3.8	1.49e+00	0	44	104	651165696	76	21856
2026-01-21 07:43:54.50	7.66	8.41	-52.8	-68.1	3.8	1.49e+00	0	44	104	651165696	76	21898
2026-01-21 07:43:55.70	7.49	8.36	-52.5	-68.1	3.8	1.49e+00	0	44	104	651165696	76	21786
2026-01-21 07:43:56.55	7.37	8.32	-52.8	-68.1	3.8	1.49e+00	0	44	104	651165696	76	21855
2026-01-21 07:43:57.69	7.20	8.27	-52.9	-68.1	3.8	1.49e+00	0	44	104	651165696	76	21908
2026-01-21 07:43:58.54	7.08	8.24	-52.7	-68.1	3.8	1.49e+00	0	44	104	651165696	76	21848
2026-01-21 07:43:59.67	6.92	8.19	-53.0	-68.1	3.8	1.49e+00	0	44	104	651165696	76	21774
2026-01-21 07:44:00.52	6.81	8.15	-53.0	-68.1	3.8	1.49e+00	0	44	104	651165696	76	21878
2026-01-21 07:44:01.66	6.65	8.10	-53.0	-68.1	3.8	1.49e+00	0	44	104	651165696	76	21865
2026-01-21 07:44:02.51	6.53	8.06	-52.8	-68.1	3.8	1.49e+00	0	44	104	651165696	76	21807
2026-01-21 07:44:03.65	6.37	8.01	-52.9	-68.1	3.8	1.49e+00	0	44	104	651165696	76	21853
2026-01-21 07:44:04.50	6.25	7.97	-52.8	-68.1	3.8	1.49e+00	0	44	104	651165696	76	21797
2026-01-21 07:44:05.63	6.09	7.92	-52.8	-68.1	3.8	1.49e+00	0	44	104	651165696	76	21799
2026-01-21 07:44:06.48	5.98	7.89	-52.7	-68.1	3.8	1.49e+00	0	44	104	651165696	76	21774
2026-01-21 07:44:07.62	5.82	7.83	-52.6	-68.0	3.8	1.49e+00	0	44	104	651165696	76	21684
2026-01-21 07:44:08.47	5.70	7.80	-52.6	-68.0	3.8	1.49e+00	0	44	104	651165696	76	21655
2026-01-21 07:44:09.60	5.55	7.75	-52.6	-68.0	3.8	1.49e+00	0	44	104	651165696	76	21643
2026-01-21 07:44:10.45	5.43	7.71	-52.6	-68.0	3.8	1.49e+00	0	44	104	651165696	76	21678
2026-01-21 07:44:11.59	5.28	7.66	-52.6	-68.0	3.8	1.49e+00	0	44	104	651165696	76	21626
2026-01-21 07:44:12.44	5.16	7.62	-52.6	-68.0	3.8	1.49e+00	0	44	104	651165696	76	21684
2026-01-21 07:44:13.58	5.01	7.57	-52.6	-68.0	3.8	1.49e+00	0	44	104	651165696	76	21744
2026-01-21 07:44:14.43	4.89	7.53	-52.6	-68.0	3.8	1.49e+00	0	44	104	651165696	76	21704
2026-01-21 07:44:15.56	4.74	7.48	-52.6	-68.0	3.8	1.49e+00	0	44	104	651165696	76	21572
2026-01-21 07:44:16.42	4.63	7.44	-52.6	-68.0	3.8	1.49e+00	0	44	104	651165696	76	21644
2026-01-21 07:44:17.55	4.48	7.39	-52.6	-68.0	3.8	1.49e+00	0	44	104	651165696	76	21681
2026-01-21 07:44:18.40	4.36	7.35	-52.6	-68.0	3.8	1.49e+00	0	44	104	651165696	76	21608
2026-01-21 07:44:19.54	4.21	7.30	-52.6	-68.0	3.8	1.49e+00	0	44	104	651165696	76	21670
2026-01-21 07:44:20.39	4.10	7.26	-52.6	-68.0	3.8	1.49e+00	0	44	104	651165696	76	21596
2026-01-21 07:44:21.52	3.95	7.21	-52.6	-68.0	3.8	1.49e+00	0	44	104	651165696	76	21614
2026-01-21 07:44:22.37	3.84	7.17	-52.6	-68.0	3.8	1.49e+00	0	44	104	651165696	76	21599
2026-01-21 07:44:23.51	3.69	7.12	-52.6	-68.0	3.8	1.49e+00	0	44	104	651165696	76	21614
2026-01-21 07:44:24.36	3.58	7.08	-52.6	-68.0	3.8	1.49e+00	0	44	104	651165696	76	21654
2026-01-21 07:44:25.49	3.43	7.03	-52.6	-68.0	3.8	1.49e+00	0	44	104	651165696	76	21587
2026-01-21 07:44:26.35	3.32	6.99	-52.6	-68.0	3.8	1.49e+00	0	44	104	651165696	76	21612
2026-01-21 07:44:27.48	3.18	6.93	-52.6	-68.0	3.8	1.49e+00	0	44	104	651165696	76	21605
2026-01-21 07:44:28.33	3.07	6.89	-52.6	-68.0	3.8	1.49e+00	0	44	104	651165696	76	21600
2026-01-21 07:44:29.47	2.92	6.84	-52.6	-68.0	3.8	1.49e+00	0	44	104	651165696	76	21562
2026-01-21 07:44:30.32	2.81	6.80	-52.6	-68.0	3.8	1.49e+00	0	44	104	651165696	76	21637
2026-01-21 07:44:31.46	2.67	6.75	-52.6	-68.0	3.8	1.49e+00	0	44	104	651165696	76	21646
2026-01-21 07:44:32.31	2.56	6.71	-52.6	-68.0	3.8	1.49e+00	0	44	104	651165696	76	21635
2026-01-21 07:44:33.44	2.42	6.66	-52.6	-68.0	3.8	1.49e+00	0	44	104	651165696	76	21556
2026-01-21 07:44:34.29	2.31	6.62	-52.6	-68.1	3.8	1.49e+00	0	44	104	651165696	76	21768
2026-01-21 07:44:35.43	2.17	6.57	-52.6	-68.0	3.8	1.49e+00	0	44	104	651165696	76	21587
2026-01-21 07:44:36.28	2.06	6.53	-52.6	-68.0	3.8	1.49e+00	0	44	104	651165696	76	21598
2026-01-21 07:44:37.41	1.92	6.47	-52.6	-68.0	3.8	1.49e+00	0	44	104	651165696	76	21524
2026-01-21 07:44:38.27	1.81	6.43	-52.6	-68.0	3.8	1.49e+00	0	44	104	651165696	76	21652
2026-01-21 07:44:39.40	1.67	6.38	-52.6	-68.0	3.8	1.49e+00	0	44	104	651165696	76	21634
2026-01-21 07:44:40.25	1.57	6.34	-52.6	-68.0	3.8	1.49e+00	0	44	104	651165696	76	21570
2026-01-21 07:44:41.39	1.42	6.29	-52.6	-68.0	3.8	1.49e+00	0	44	104	651165696	76	21673
2026-01-21 07:44:42.24	1.32	6.25	-52.6	-68.0	3.8	1.49e+00	0	44	104	651165696	76	21574
2026-01-21 07:44:43.38	1.18	6.20	-52.6	-68.0	3.8	1.49e+00	0	44	104	651165696	76	21573
2026-01-21 07:44:44.23	1.08	6.16	-52.6	-68.0	3.8	1.49e+00	0	44	104	651165696	76	21679
2026-01-21 07:44:45.36	0.94	6.10	-52.6	-68.0	3.8	1.49e+00	0	44	104	651165696	76	21710
2026-01-21 07:44:46.21	0.84	6.06	-52.6	-68.0	3.8	1.49e+00	0	44	104	651165696	76	21609
2026-01-21 07:44:47.35	0.70	6.01	-52.6	-68.0	3.8	1.49e+00	0	44	104	651165696	76	21629
2026-01-21 07:44:48.20	0.60	5.97	-52.6	-68.0	3.8	1.49e+00	0	44	104	651165696	76	21579
2026-01-21 07:44:49.33	0.46	5.92	-52.6	-68.0	3.8	1.49e+00	0	44	104	651165696	76	21612
2026-01-21 07:44:50.19	0.36	5.88	-52.6	-68.0	3.8	1.49e+00	0	44	104	651165696	76	21594
2026-01-21 07:44:51.32	0.22	5.82	-52.6	-67.9	3.8	1.49e+00	0	44	104	651165696	76	21488
2026-01-21 07:44:52.17	0.12	5.78	-52.6	-68.0	3.8	1.49e+00	0	44	104	651165696	76	21602
2026-01-21 07:44:53.31	359.99	5.73	-52.6	-68.0	3.8	1.49e+00	0	44	104	651165696	76	21558
2026-01-21 07:44:54.16	359.89	5.69	-52.6	-68.0	3.8	1.49e+00	0	44	104	651165696	76	21620
2026-01-21 07:44:55.30	359.75	5.64	-52.6	-67.9	3.8	1.49e+00	0	44	104	651165696	76	21454
2026-01-21 07:44:56.15	359.65	5.60	-52.6	-68.0	3.8	1.49e+00	0	44	104	651165696	76	21509
2026-01-21 07:44:57.28	359.52	5.54	-52.6	-68.0	3.8	1.49e+00	0	44	104	651165696	76	21566
2026-01-21 07:44:58.13	359.42	5.50	-52.6	-68.0	3.8	1.49e+00	0	44	104	651165696	76	21616
2026-01-21 07:44:59.27	359.29	5.45	-52.6	-68.0	3.8	1.49e+00	0	44	104	651165696	76	21608
2026-01-21 07:45:00.12	359.19	5.41	-52.6	-68.0	3.8	1.49e+00	0	44	104	651165696	76	21541
2026-01-21 07:45:01.26	359.06	5.36	-52.6	-68.0	3.8	1.49e+00	0	44	104	651165696	76	21560
2026-01-21 07:45:02.11	358.96	5.32	-52.6	-68.0	3.8	1.49e+00	0	44	104	651165696	76	21531
2026-01-21 07:45:03.24	358.83	5.26	-52.6	-68.0	3.8	1.49e+00	0	44	104	651165696	76	21645
2026-01-21 07:45:04.09	358.73	5.22	-52.6	-68.0	3.8	1.49e+00	0	44	104	651165696	76	21617
2026-01-21 07:45:05.23	358.60	5.17	-52.6	-68.0	3.8	1.49e+00	0	44	104	651165696	76	21542
2026-01-21 07:45:06.08	358.51	5.13	-52.6	-67.9	3.8	1.49e+00	0	44	104	651165696	76	21473
2026-01-21 07:45:07.21	358.38	5.07	-52.6	-68.0	3.8	1.49e+00	0	44	104	651165696	76	21651
2026-01-21 07:45:08.07	358.28	5.03	-52.6	-68.0	3.8	1.49e+00	0	44	104	651165696	76	21543
2026-01-21 07:45:09.20	358.15	4.98	-52.6	-68.0	3.8	1.49e+00	0	44	104	651165696	76	21581

#Closed at: 2026-01-21 07:45:10
#Recorded file [651 MB]: D:/Data/31040_260121_103633.dat