passes_logs/2026/01/21/T1/T1__20260121_193138_FENGYUN_3G_rec.log

#Pass ID: 20260121_193138_FENGYUN 3G
#Satellite: FENGYUN 3G
#Configuration: FENGYUN 3G
#almurnet v.1.7.20251203
#Start time: 2026-01-21 19:31:39

#Version: 2.0.20230620
#Station: T1
#Location: 37.570604 lon 55.790049 lat
#TLE: 1 56232U 23055A   26020.45159834  .00088200  00000+0  13354-2 0  9997
#TLE: 2 56232  49.9936  27.7990 0004112  56.3402 303.7958 15.53862613157044

#Time	Az	El	Level	Level2	SNR	BER	BlckErr	Temp	State	Recorded	gain1	gain2
2026-01-21 19:31:39.15	228.55	5.39	-49.2	-68.6	3.8	8.47e-01	0	35	0	0	70	32908
2026-01-21 19:31:40.13	228.45	5.46	-49.2	-68.6	3.8	8.39e-01	0	35	104	0	70	32792
2026-01-21 19:31:41.13	228.34	5.54	-49.1	-68.7	3.8	8.47e-01	0	35	104	0	70	33020
2026-01-21 19:31:42.12	228.23	5.61	-49.1	-68.7	3.8	8.47e-01	0	35	104	0	70	33209
2026-01-21 19:31:43.12	228.13	5.69	-49.1	-68.7	3.8	8.47e-01	0	36	104	0	70	33257
2026-01-21 19:31:44.11	228.02	5.76	-49.1	-68.8	3.8	8.47e-01	0	36	104	0	70	33379
2026-01-21 19:31:45.10	227.91	5.84	-49.2	-68.8	3.8	8.46e-01	0	35	104	0	70	33322
2026-01-21 19:31:46.09	227.80	5.91	-49.1	-68.7	3.8	8.46e-01	0	36	104	0	70	33093
2026-01-21 19:31:47.09	227.69	5.99	-49.1	-68.7	3.8	8.48e-01	0	36	104	0	70	32986
2026-01-21 19:31:48.08	227.58	6.06	-49.2	-68.7	3.8	8.46e-01	0	36	104	0	70	33053
2026-01-21 19:31:49.07	227.47	6.14	-49.1	-68.6	3.8	8.46e-01	0	36	104	0	70	32808
2026-01-21 19:31:50.07	227.35	6.22	-49.1	-68.5	3.8	8.48e-01	0	36	104	0	70	32364
2026-01-21 19:31:51.06	227.24	6.29	-49.1	-68.4	3.8	8.46e-01	0	36	104	0	70	32148
2026-01-21 19:31:52.05	227.12	6.37	-49.1	-68.3	3.8	8.46e-01	0	36	104	0	70	31792
2026-01-21 19:31:53.05	227.01	6.45	-49.1	-68.2	3.8	8.47e-01	0	36	104	0	70	31263
2026-01-21 19:31:54.04	226.89	6.53	-49.1	-68.1	3.8	8.47e-01	0	36	104	0	70	31084
2026-01-21 19:31:55.03	226.77	6.60	-49.1	-68.2	3.8	8.47e-01	0	36	104	0	70	31319
2026-01-21 19:31:56.03	226.65	6.68	-49.1	-68.2	3.8	8.47e-01	0	36	104	0	70	31322
2026-01-21 19:31:57.02	226.54	6.76	-49.1	-68.2	3.8	8.46e-01	0	36	104	0	70	31118
2026-01-21 19:31:58.01	226.42	6.84	-49.1	-68.2	3.8	8.47e-01	0	36	104	0	70	31202
2026-01-21 19:31:59.01	226.29	6.92	-49.1	-68.3	3.8	8.47e-01	0	36	104	0	70	31622
2026-01-21 19:32:00.00	226.17	7.00	-49.1	-68.3	3.8	8.47e-01	0	36	104	0	70	31659
2026-01-21 19:32:00.99	226.05	7.08	-49.1	-68.4	3.8	8.47e-01	0	36	104	0	70	31833
2026-01-21 19:32:01.99	225.92	7.16	-49.1	-68.5	3.8	8.47e-01	0	36	104	0	70	32486
2026-01-21 19:32:02.98	225.80	7.24	-49.1	-68.7	3.8	8.47e-01	0	36	104	0	70	32992
2026-01-21 19:32:03.97	225.67	7.32	-49.1	-68.6	3.8	8.46e-01	0	36	104	0	70	32633
2026-01-21 19:32:04.97	225.55	7.40	-49.1	-68.5	3.8	8.46e-01	0	36	104	0	70	32522
2026-01-21 19:32:05.96	225.42	7.48	-49.1	-68.6	3.8	8.47e-01	0	36	104	0	70	32679
2026-01-21 19:32:06.95	225.29	7.56	-49.1	-68.5	3.8	8.48e-01	0	36	104	0	70	32284
2026-01-21 19:32:07.95	225.16	7.64	-49.1	-68.2	3.8	8.48e-01	0	36	104	0	70	31375
2026-01-21 19:32:08.94	225.03	7.72	-49.1	-68.5	3.8	8.47e-01	0	36	104	0	70	32200
2026-01-21 19:32:09.93	224.90	7.81	-49.1	-68.6	3.8	8.47e-01	0	36	104	0	70	32820
2026-01-21 19:32:10.93	224.76	7.89	-49.1	-68.1	3.8	8.47e-01	0	36	104	0	70	31084
2026-01-21 19:32:11.92	224.63	7.97	-49.1	-67.4	3.8	8.47e-01	0	36	104	0	70	28513
2026-01-21 19:32:12.91	224.50	8.05	-49.1	-67.3	3.8	8.47e-01	0	36	104	0	70	28055
2026-01-21 19:32:13.91	224.36	8.14	-49.1	-67.7	3.8	8.47e-01	0	36	104	0	70	29361
2026-01-21 19:32:14.90	224.22	8.22	-49.1	-68.2	3.8	8.48e-01	0	36	104	0	70	31417
2026-01-21 19:32:15.90	224.08	8.31	-49.1	-68.5	3.8	8.46e-01	0	36	104	0	70	32354
2026-01-21 19:32:16.89	223.94	8.39	-49.1	-68.5	3.8	8.46e-01	0	37	104	0	70	32539
2026-01-21 19:32:17.88	223.80	8.47	-49.1	-68.3	3.8	8.47e-01	0	37	104	0	70	31547
2026-01-21 19:32:18.87	223.66	8.56	-49.1	-67.4	3.8	8.47e-01	0	36	104	0	70	28444
2026-01-21 19:32:19.87	223.52	8.64	-49.0	-66.2	3.9	8.46e-01	0	36	104	0	70	24958
2026-01-21 19:32:20.86	223.37	8.73	-49.0	-65.2	4.2	8.46e-01	0	36	0	0	70	22186
2026-01-21 19:32:21.85	223.23	8.82	-48.9	-63.4	4.8	8.39e-01	0	37	0	0	69	19115
2026-01-21 19:32:22.85	223.08	8.90	-48.7	-60.6	6.7	6.63e-01	0	37	0	0	69	13869
2026-01-21 19:32:23.84	222.93	8.99	-48.4	-58.1	9.2	6.63e-01	0	37	0	0	68	10933
2026-01-21 19:32:24.84	222.78	9.08	-48.1	-56.4	11.0	6.12e-02	0	37	0	0	68	9037
2026-01-21 19:32:25.83	222.63	9.16	-47.9	-55.0	12.4	1.19e-03	0	37	0	0	67	8164
2026-01-21 19:32:26.82	222.48	9.25	-48.3	-58.4	8.9	1.19e-03	0	37	0	0	67	12090
2026-01-21 19:32:27.95	222.31	9.35	-49.1	-64.3	4.8	1.25e-02	0	37	0	0	68	22386
2026-01-21 19:32:28.83	222.17	9.43	-46.1	-50.8	16.5	3.57e-01	0	37	0	0	64	5954
2026-01-21 19:32:30.14	221.97	9.54	-47.0	-52.9	14.6	0.00e+00	0	37	0	0	64	7630
2026-01-21 19:32:30.85	221.86	9.61	-46.7	-52.0	15.6	0.00e+00	0	37	0	0	64	6876
2026-01-21 19:32:32.13	221.65	9.72	-46.3	-51.0	16.6	0.00e+00	0	37	0	0	64	6101
2026-01-21 19:32:32.84	221.54	9.79	-46.0	-50.4	17.2	0.00e+00	0	37	0	0	64	5710
2026-01-21 19:32:34.12	221.33	9.90	-46.0	-50.1	17.7	0.00e+00	0	37	0	0	63	5839
2026-01-21 19:32:34.85	221.21	9.97	-46.1	-50.3	17.5	0.00e+00	0	37	0	0	63	5932
2026-01-21 19:32:36.13	221.00	10.08	-46.1	-50.1	17.6	0.00e+00	0	37	0	0	63	5804
2026-01-21 19:32:36.85	220.88	10.15	-45.9	-49.8	18.0	0.00e+00	0	37	0	0	63	5602
2026-01-21 19:32:38.13	220.67	10.27	-46.0	-49.8	17.9	0.00e+00	0	37	0	0	63	5651
2026-01-21 19:32:38.84	220.55	10.33	-45.9	-49.8	18.0	0.00e+00	0	37	0	0	63	5625
2026-01-21 19:32:40.12	220.33	10.45	-45.7	-49.6	18.0	0.00e+00	0	37	0	0	63	5471
2026-01-21 19:32:41.09	220.16	10.54	-45.8	-49.9	17.8	0.00e+00	0	37	0	0	63	5699
2026-01-21 19:32:42.08	219.99	10.63	-45.5	-49.4	18.4	0.00e+00	0	37	0	0	62	5671
2026-01-21 19:32:43.08	219.82	10.73	-45.5	-49.5	18.3	0.00e+00	0	37	0	0	62	5754
2026-01-21 19:32:44.07	219.64	10.82	-45.2	-49.0	18.6	0.00e+00	0	37	0	0	62	5431
2026-01-21 19:32:45.07	219.47	10.91	-44.4	-47.7	19.9	0.00e+00	0	37	0	0	60	5273
2026-01-21 19:32:46.06	219.29	11.01	-44.1	-47.1	20.5	0.00e+00	0	37	0	0	60	4908
2026-01-21 19:32:47.06	219.11	11.10	-43.7	-46.5	21.2	0.00e+00	0	37	0	0	59	4828
2026-01-21 19:32:48.05	218.93	11.19	-43.4	-46.1	21.5	0.00e+00	0	37	0	0	58	4885
2026-01-21 19:32:49.05	218.74	11.29	-43.6	-46.4	21.1	0.00e+00	0	37	0	0	58	5084
2026-01-21 19:32:50.05	218.56	11.38	-43.1	-45.8	21.8	0.00e+00	0	37	0	0	58	4728
2026-01-21 19:32:51.04	218.37	11.48	-42.6	-45.1	22.3	0.00e+00	0	37	0	0	57	4649
2026-01-21 19:32:52.03	218.18	11.57	-42.3	-44.7	22.7	0.00e+00	0	37	0	0	56	4705
2026-01-21 19:32:53.03	217.99	11.67	-42.2	-44.7	22.7	0.00e+00	0	37	0	0	56	4664
2026-01-21 19:32:54.02	217.80	11.77	-41.6	-44.0	23.1	0.00e+00	0	37	0	0	55	4564
2026-01-21 19:32:55.02	217.61	11.86	-41.3	-43.7	23.4	0.00e+00	0	37	0	0	54	4652
2026-01-21 19:32:56.01	217.41	11.96	-41.3	-43.6	23.4	0.00e+00	0	37	0	0	54	4610
2026-01-21 19:32:57.01	217.22	12.06	-41.2	-43.5	23.5	0.00e+00	0	37	0	0	54	4571
2026-01-21 19:32:58.00	217.02	12.16	-41.0	-43.3	23.7	0.00e+00	0	37	0	0	54	4469
2026-01-21 19:32:58.99	216.82	12.25	-41.0	-43.3	23.7	0.00e+00	0	37	0	0	54	4470
2026-01-21 19:32:59.99	216.62	12.35	-40.9	-43.1	23.9	0.00e+00	0	37	0	0	53	4631
2026-01-21 19:33:00.99	216.41	12.45	-40.8	-43.0	24.0	0.00e+00	0	37	0	0	53	4559
2026-01-21 19:33:01.98	216.21	12.55	-40.8	-43.0	24.0	0.00e+00	0	37	0	0	53	4566
2026-01-21 19:33:02.98	216.00	12.65	-40.7	-42.9	24.1	0.00e+00	0	37	0	0	53	4519
2026-01-21 19:33:04.00	215.79	12.75	-40.7	-42.9	24.1	0.00e+00	0	37	0	0	53	4502
2026-01-21 19:33:04.99	215.58	12.85	-40.8	-43.0	24.0	0.00e+00	0	37	0	0	53	4563
2026-01-21 19:33:05.99	215.36	12.95	-40.8	-43.0	24.0	0.00e+00	0	37	0	0	53	4563
2026-01-21 19:33:06.99	215.15	13.05	-40.7	-43.0	24.0	0.00e+00	0	37	0	0	53	4546
2026-01-21 19:33:07.98	214.93	13.15	-40.6	-42.8	24.1	0.00e+00	0	37	0	0	53	4463
2026-01-21 19:33:08.98	214.71	13.25	-40.3	-42.5	24.4	0.00e+00	0	37	0	0	52	4561
2026-01-21 19:33:09.97	214.49	13.35	-40.3	-42.5	24.4	0.00e+00	0	37	0	0	52	4565
2026-01-21 19:33:10.96	214.27	13.46	-40.3	-42.5	24.4	0.00e+00	0	37	0	0	52	4566
2026-01-21 19:33:11.96	214.05	13.56	-40.4	-42.5	24.4	0.00e+00	0	37	0	0	52	4597
2026-01-21 19:33:12.95	213.82	13.66	-40.4	-42.5	24.4	0.00e+00	0	37	0	0	52	4573
2026-01-21 19:33:13.95	213.59	13.76	-40.4	-42.5	24.4	0.00e+00	0	37	0	0	52	4586
2026-01-21 19:33:14.95	213.36	13.87	-40.4	-42.5	24.3	0.00e+00	0	37	0	0	52	4598
2026-01-21 19:33:15.94	213.13	13.97	-40.5	-42.7	24.3	0.00e+00	0	37	0	0	52	4655
2026-01-21 19:33:16.93	212.89	14.07	-40.6	-42.8	24.1	0.00e+00	0	37	0	0	52	4736
2026-01-21 19:33:17.98	212.64	14.18	-40.5	-42.6	24.3	0.00e+00	0	37	0	0	52	4645
2026-01-21 19:33:18.94	212.41	14.28	-40.5	-42.6	24.3	0.00e+00	0	37	0	0	52	4643
2026-01-21 19:33:19.93	212.17	14.38	-40.3	-42.5	24.3	0.00e+00	0	37	0	0	52	4580
2026-01-21 19:33:20.93	211.93	14.49	-40.1	-42.2	24.6	0.00e+00	0	37	0	0	52	4414
2026-01-21 19:33:21.92	211.68	14.59	-40.0	-42.1	24.7	0.00e+00	0	37	0	0	52	4371
2026-01-21 19:33:22.92	211.44	14.70	-39.9	-41.9	24.8	0.00e+00	0	37	0	0	51	4535
2026-01-21 19:33:23.91	211.19	14.80	-39.9	-42.0	24.8	0.00e+00	0	37	0	0	51	4557
2026-01-21 19:33:24.90	210.94	14.90	-39.9	-42.0	24.8	0.00e+00	0	37	0	0	51	4554
2026-01-21 19:33:25.90	210.68	15.01	-40.0	-42.1	24.7	0.00e+00	0	37	0	0	51	4631
2026-01-21 19:33:26.89	210.42	15.12	-39.9	-42.0	24.8	0.00e+00	0	37	0	0	51	4577
2026-01-21 19:33:27.89	210.16	15.22	-40.1	-42.2	24.7	0.00e+00	0	37	0	0	51	4668
2026-01-21 19:33:28.88	209.90	15.33	-40.0	-42.1	24.8	0.00e+00	0	37	0	0	51	4605
2026-01-21 19:33:29.88	209.64	15.43	-40.0	-42.1	24.8	0.00e+00	0	37	0	0	51	4606
2026-01-21 19:33:30.87	209.37	15.54	-39.9	-42.0	24.8	0.00e+00	0	37	0	0	51	4566
2026-01-21 19:33:31.87	209.10	15.65	-39.5	-41.5	25.1	0.00e+00	0	37	0	0	51	4318
2026-01-21 19:33:32.86	208.83	15.75	-39.4	-41.4	25.2	0.00e+00	0	37	0	0	50	4513
2026-01-21 19:33:33.87	208.55	15.86	-39.2	-41.2	25.4	0.00e+00	0	37	0	0	50	4430
2026-01-21 19:33:34.90	208.27	15.97	-39.0	-41.0	25.5	0.00e+00	0	37	0	0	50	4326
2026-01-21 19:33:35.90	207.99	16.08	-39.0	-41.0	25.5	0.00e+00	0	37	0	0	49	4572
2026-01-21 19:33:36.96	207.69	16.19	-39.2	-41.2	25.4	0.00e+00	0	37	0	0	49	4671
2026-01-21 19:33:37.81	207.45	16.28	-39.2	-41.2	25.4	0.00e+00	0	38	0	0	49	4697
2026-01-21 19:33:38.95	207.12	16.40	-39.4	-41.5	25.2	0.00e+00	0	37	0	0	49	4837
2026-01-21 19:33:39.80	206.87	16.50	-39.6	-41.7	25.1	0.00e+00	0	37	0	0	49	4942
2026-01-21 19:33:40.94	206.54	16.62	-39.8	-41.8	25.0	0.00e+00	0	37	0	0	50	4755
2026-01-21 19:33:41.79	206.29	16.71	-39.8	-41.9	25.0	0.00e+00	0	37	0	0	50	4789
2026-01-21 19:33:42.93	205.94	16.83	-39.8	-41.9	25.0	0.00e+00	0	37	0	0	50	4787
2026-01-21 19:33:43.78	205.69	16.93	-39.8	-41.9	24.9	0.00e+00	0	37	0	0	50	4797
2026-01-21 19:33:44.92	205.34	17.05	-39.7	-41.7	25.1	0.00e+00	0	37	0	0	50	4687
2026-01-21 19:33:45.77	205.08	17.14	-39.4	-41.5	25.2	0.00e+00	0	37	0	0	50	4555
2026-01-21 19:33:46.90	204.73	17.26	-39.0	-41.0	25.4	0.00e+00	0	37	0	0	50	4307
2026-01-21 19:33:47.76	204.46	17.35	-38.9	-40.9	25.6	0.00e+00	0	38	0	0	49	4518
2026-01-21 19:33:48.97	204.08	17.48	-38.9	-40.9	25.6	0.00e+00	0	38	0	0	49	4515
2026-01-21 19:33:49.83	203.81	17.58	-38.9	-40.9	25.6	0.00e+00	0	37	0	0	49	4537
2026-01-21 19:33:50.96	203.45	17.70	-39.2	-41.2	25.4	0.00e+00	0	38	0	0	49	4676
2026-01-21 19:33:51.82	203.17	17.79	-39.4	-41.4	25.3	0.00e+00	0	37	0	0	49	4807
2026-01-21 19:33:53.08	202.76	17.93	-39.4	-41.5	25.2	0.00e+00	0	38	0	0	49	4827
2026-01-21 19:33:53.88	202.50	18.01	-39.5	-41.5	25.2	0.00e+00	0	38	0	0	49	4845
2026-01-21 19:33:55.02	202.12	18.13	-39.4	-41.4	25.2	0.00e+00	0	37	0	0	49	4813
2026-01-21 19:33:55.87	201.83	18.22	-39.3	-41.3	25.4	0.00e+00	0	37	0	0	49	4735
2026-01-21 19:33:57.01	201.45	18.35	-39.1	-41.1	25.5	0.00e+00	0	37	0	0	49	4625
2026-01-21 19:33:57.86	201.16	18.44	-39.0	-41.1	25.5	0.00e+00	0	37	0	0	49	4603
2026-01-21 19:33:59.00	200.76	18.56	-38.5	-40.5	25.9	0.00e+00	0	37	0	0	49	4320
2026-01-21 19:33:59.85	200.47	18.65	-38.2	-40.2	26.1	0.00e+00	0	37	0	0	48	4415
2026-01-21 19:34:00.99	200.07	18.77	-38.3	-40.3	26.1	0.00e+00	0	38	0	0	48	4460
2026-01-21 19:34:01.84	199.77	18.86	-38.2	-40.2	26.1	0.00e+00	0	37	0	0	48	4400
2026-01-21 19:34:02.98	199.37	18.98	-38.4	-40.4	26.0	0.00e+00	0	38	0	0	48	4512
2026-01-21 19:34:03.83	199.06	19.06	-38.8	-40.8	25.8	0.00e+00	0	37	0	0	48	4713
2026-01-21 19:34:04.97	198.65	19.18	-38.9	-40.9	25.6	0.00e+00	0	38	0	0	48	4771
2026-01-21 19:34:05.82	198.34	19.27	-39.0	-41.0	25.6	0.00e+00	0	38	0	0	48	4829
2026-01-21 19:34:06.96	197.92	19.39	-39.0	-41.0	25.6	0.00e+00	0	37	0	0	48	4840
2026-01-21 19:34:07.81	197.61	19.48	-38.8	-40.8	25.6	0.00e+00	0	37	0	0	48	4731
2026-01-21 19:34:09.12	197.12	19.61	-38.6	-40.6	25.9	0.00e+00	0	38	0	0	48	4638
2026-01-21 19:34:09.83	196.85	19.68	-38.6	-40.6	25.9	0.00e+00	0	37	0	0	48	4634
2026-01-21 19:34:11.11	196.36	19.81	-38.7	-40.7	25.9	0.00e+00	0	37	0	0	48	4657
2026-01-21 19:34:12.26	195.92	19.93	-38.5	-40.5	25.9	0.00e+00	0	37	0	0	48	4552
2026-01-21 19:34:13.42	195.47	20.04	-38.3	-40.3	25.2	0.00e+00	0	38	0	0	47	4748
2026-01-21 19:34:14.27	195.14	20.13	-38.4	-40.3	26.0	0.00e+00	0	38	0	0	47	4759
2026-01-21 19:34:15.41	194.69	20.24	-38.2	-40.1	26.1	0.00e+00	0	38	0	0	47	4650
2026-01-21 19:34:16.26	194.35	20.33	-38.2	-40.2	26.1	0.00e+00	0	37	0	0	47	4691
2026-01-21 19:34:17.40	193.90	20.44	-38.2	-40.2	26.0	0.00e+00	0	38	0	0	47	4676
2026-01-21 19:34:18.25	193.56	20.52	-38.3	-40.2	26.0	0.00e+00	0	38	0	0	47	4699
2026-01-21 19:34:19.39	193.09	20.63	-38.2	-40.1	26.1	0.00e+00	0	38	0	0	47	4646
2026-01-21 19:34:20.24	192.75	20.71	-38.1	-40.0	26.1	0.00e+00	0	37	0	0	47	4583
2026-01-21 19:34:21.38	192.28	20.82	-38.3	-40.2	26.1	0.00e+00	0	38	0	0	47	4690
2026-01-21 19:34:22.23	191.92	20.89	-38.5	-40.5	25.9	0.00e+00	0	37	0	0	47	4830
2026-01-21 19:34:23.36	191.45	21.00	-38.5	-40.5	25.8	0.00e+00	0	38	0	0	47	4857
2026-01-21 19:34:24.22	191.09	21.08	-38.5	-40.5	25.8	0.00e+00	0	38	0	0	47	4827
2026-01-21 19:34:25.35	190.61	21.18	-38.3	-40.3	26.0	0.00e+00	0	37	0	0	47	4739
2026-01-21 19:34:26.21	190.25	21.26	-38.3	-40.2	26.0	0.00e+00	0	38	0	0	47	4705
2026-01-21 19:34:27.34	189.76	21.36	-38.2	-40.2	26.0	0.00e+00	0	38	0	0	47	4671
2026-01-21 19:34:28.20	189.39	21.43	-38.1	-40.1	26.1	0.00e+00	0	38	0	0	47	4601
2026-01-21 19:34:29.33	188.90	21.53	-38.1	-40.1	26.1	0.00e+00	0	38	0	0	46	4884
2026-01-21 19:34:30.18	188.53	21.60	-38.2	-40.2	26.1	0.00e+00	0	38	0	0	47	4683
2026-01-21 19:34:31.32	188.02	21.70	-38.0	-40.0	26.2	0.00e+00	0	37	0	0	47	4573
2026-01-21 19:34:32.18	187.64	21.77	-37.9	-39.9	26.3	0.00e+00	0	38	0	0	47	4503
2026-01-21 19:34:33.32	187.13	21.86	-37.8	-39.7	26.4	0.00e+00	0	38	0	0	46	4699
2026-01-21 19:34:34.17	186.75	21.93	-37.6	-39.5	26.5	0.00e+00	0	37	0	0	46	4568
2026-01-21 19:34:35.30	186.24	22.02	-37.7	-39.6	26.4	0.00e+00	0	38	0	0	46	4634
2026-01-21 19:34:36.16	185.85	22.09	-37.6	-39.5	26.5	0.00e+00	0	38	0	0	46	4567
2026-01-21 19:34:37.30	185.33	22.18	-37.5	-39.4	26.5	0.00e+00	0	38	0	0	45	4776
2026-01-21 19:34:38.15	184.94	22.24	-37.4	-39.3	26.5	0.00e+00	0	38	0	0	45	4757
2026-01-21 19:34:39.41	184.35	22.33	-37.4	-39.3	26.6	0.00e+00	0	38	0	0	45	4722
2026-01-21 19:34:40.20	183.98	22.39	-37.4	-39.3	26.6	0.00e+00	0	38	0	0	45	4742
2026-01-21 19:34:41.40	183.42	22.48	-37.6	-39.6	26.4	0.00e+00	0	37	0	0	45	4874
2026-01-21 19:34:42.25	183.02	22.54	-37.9	-39.9	26.3	0.00e+00	0	38	0	0	46	4764
2026-01-21 19:34:43.52	182.42	22.62	-37.8	-39.7	26.3	0.00e+00	0	38	0	0	46	4704
2026-01-21 19:34:44.29	182.06	22.67	-37.7	-39.6	26.4	0.00e+00	0	38	0	0	46	4651
2026-01-21 19:34:45.57	181.44	22.75	-37.6	-39.5	26.5	0.00e+00	0	38	0	0	45	4852
2026-01-21 19:34:46.29	181.10	22.80	-37.7	-39.6	26.4	0.00e+00	0	38	0	0	46	4623
2026-01-21 19:34:47.57	180.48	22.88	-37.5	-39.4	26.5	0.00e+00	0	38	0	0	46	4523
2026-01-21 19:34:48.28	180.14	22.92	-37.5	-39.5	26.5	0.00e+00	0	38	0	0	46	4558
2026-01-21 19:34:49.56	179.51	22.99	-37.4	-39.3	26.5	0.00e+00	0	38	0	0	45	4751
2026-01-21 19:34:50.27	179.17	23.03	-37.4	-39.4	26.5	0.00e+00	0	38	0	0	45	4767
2026-01-21 19:34:51.55	178.54	23.10	-37.1	-39.0	26.6	0.00e+00	0	38	0	0	45	4560
2026-01-21 19:34:52.28	178.18	23.14	-37.2	-39.2	26.2	0.00e+00	0	38	0	0	45	4673
2026-01-21 19:34:53.56	177.54	23.21	-37.3	-39.3	26.6	0.00e+00	0	38	0	0	45	4725
2026-01-21 19:34:54.27	177.19	23.24	-37.2	-39.1	26.7	0.00e+00	0	38	0	0	45	4641
2026-01-21 19:34:55.55	176.55	23.30	-37.2	-39.1	26.7	0.00e+00	0	38	0	0	45	4635
2026-01-21 19:34:56.26	176.20	23.33	-37.1	-39.0	26.8	0.00e+00	0	38	0	0	45	4593
2026-01-21 19:34:57.54	175.55	23.39	-37.0	-38.9	26.8	0.00e+00	0	38	0	0	45	4512
2026-01-21 19:34:58.26	175.19	23.42	-37.2	-39.1	26.7	0.00e+00	0	38	0	0	45	4651
2026-01-21 19:34:59.54	174.55	23.47	-36.9	-38.8	26.8	0.00e+00	0	38	0	0	44	4746
2026-01-21 19:35:00.25	174.19	23.49	-37.2	-39.1	26.6	0.00e+00	0	38	0	0	45	4644
2026-01-21 19:35:01.53	173.54	23.54	-37.2	-39.1	26.7	0.00e+00	0	38	0	0	45	4640
2026-01-21 19:35:02.24	173.18	23.56	-37.1	-39.0	26.7	0.00e+00	0	37	0	0	45	4568
2026-01-21 19:35:03.51	172.53	23.60	-36.9	-38.9	26.8	0.00e+00	0	38	0	0	45	4504
2026-01-21 19:35:04.23	172.16	23.62	-37.0	-38.9	26.8	0.00e+00	0	38	0	0	45	4537
2026-01-21 19:35:05.73	171.39	23.66	-37.1	-39.0	26.7	0.00e+00	0	38	0	0	45	4578
2026-01-21 19:35:06.44	171.03	23.68	-37.4	-39.3	26.6	0.00e+00	0	38	0	0	45	4711
2026-01-21 19:35:07.72	170.37	23.71	-37.6	-39.5	26.5	0.00e+00	0	38	0	0	45	4819
2026-01-21 19:35:08.43	170.00	23.72	-37.9	-39.8	26.2	0.00e+00	0	38	0	0	46	4741
2026-01-21 19:35:09.71	169.34	23.74	-38.1	-40.1	26.1	0.00e+00	0	38	0	0	46	4902
2026-01-21 19:35:10.43	168.97	23.75	-38.1	-40.1	25.4	0.00e+00	0	38	0	0	46	4892
2026-01-21 19:35:11.71	168.31	23.77	-38.2	-40.1	26.1	0.00e+00	0	38	0	0	47	4642
2026-01-21 19:35:12.42	167.94	23.78	-38.3	-40.3	26.0	0.00e+00	0	38	0	0	47	4710
2026-01-21 19:35:13.70	167.28	23.79	-38.2	-40.1	26.1	0.00e+00	0	38	0	0	47	4635
2026-01-21 19:35:14.43	166.90	23.80	-38.2	-40.2	26.0	0.00e+00	0	38	0	0	47	4694
2026-01-21 19:35:15.71	166.23	23.80	-38.1	-40.0	26.1	0.00e+00	0	38	0	0	47	4576
2026-01-21 19:35:16.48	165.84	23.80	-38.1	-40.0	26.1	0.00e+00	0	37	0	0	47	4568
2026-01-21 19:35:17.76	165.17	23.80	-37.8	-39.7	26.3	0.00e+00	0	37	0	0	47	4432
2026-01-21 19:35:18.52	164.78	23.80	-37.7	-39.7	26.3	0.00e+00	0	38	0	0	47	4406
2026-01-21 19:35:19.80	164.11	23.80	-37.6	-39.5	26.4	0.00e+00	0	38	0	0	46	4590
2026-01-21 19:35:20.51	163.75	23.79	-37.6	-39.6	26.4	0.00e+00	0	38	0	0	46	4602
2026-01-21 19:35:21.79	163.08	23.78	-37.6	-39.5	26.4	0.00e+00	0	38	0	0	46	4566
2026-01-21 19:35:22.64	162.64	23.77	-37.8	-39.7	26.3	0.00e+00	0	38	0	0	46	4678
2026-01-21 19:35:24.08	161.90	23.75	-37.9	-39.8	26.3	0.00e+00	0	38	0	0	46	4732
2026-01-21 19:35:24.79	161.53	23.74	-37.8	-39.8	26.1	0.00e+00	0	38	0	0	46	4715
2026-01-21 19:35:26.07	160.87	23.72	-37.9	-39.8	26.3	0.00e+00	0	38	0	0	46	4745
2026-01-21 19:35:26.78	160.51	23.70	-37.8	-39.7	26.3	0.00e+00	0	38	0	0	46	4698
2026-01-21 19:35:28.06	159.85	23.67	-37.6	-39.6	26.4	0.00e+00	0	38	0	0	46	4603
2026-01-21 19:35:28.78	159.48	23.66	-37.5	-39.5	26.4	0.00e+00	0	37	0	0	46	4559
2026-01-21 19:35:30.06	158.82	23.62	-37.5	-39.4	26.5	0.00e+00	0	38	0	0	45	4795
2026-01-21 19:35:30.88	158.40	23.60	-37.6	-39.5	26.4	0.00e+00	0	38	0	0	45	4861
2026-01-21 19:35:32.02	157.82	23.56	-37.6	-39.5	26.4	0.00e+00	0	38	0	0	45	4845
2026-01-21 19:35:32.87	157.39	23.54	-37.4	-39.3	26.5	0.00e+00	0	38	0	0	45	4738
2026-01-21 19:35:34.00	156.82	23.50	-37.2	-39.1	26.7	0.00e+00	0	38	0	0	45	4604
2026-01-21 19:35:34.86	156.38	23.46	-37.1	-39.0	26.7	0.00e+00	0	38	0	0	45	4591
2026-01-21 19:35:35.99	155.81	23.42	-37.3	-39.2	26.6	0.00e+00	0	38	0	0	45	4684
2026-01-21 19:35:36.85	155.38	23.39	-37.4	-39.3	26.5	0.00e+00	0	38	0	0	45	4746
2026-01-21 19:35:37.98	154.81	23.34	-37.4	-39.4	26.5	0.00e+00	0	38	0	0	45	4775
2026-01-21 19:35:38.83	154.39	23.30	-37.4	-39.3	26.5	0.00e+00	0	38	0	0	45	4730
2026-01-21 19:35:40.08	153.77	23.24	-37.1	-39.0	26.6	0.00e+00	0	38	0	0	45	4575
2026-01-21 19:35:40.93	153.34	23.20	-37.0	-38.9	26.8	0.00e+00	0	38	0	0	45	4498
2026-01-21 19:35:42.13	152.75	23.14	-37.1	-39.0	26.7	0.00e+00	0	38	0	0	45	4583
2026-01-21 19:35:42.99	152.33	23.09	-37.4	-39.4	26.5	0.00e+00	0	38	0	0	45	4772
2026-01-21 19:35:44.12	151.77	23.03	-37.3	-39.3	26.6	0.00e+00	0	38	0	0	45	4711
2026-01-21 19:35:44.98	151.35	22.98	-37.3	-39.2	26.1	0.00e+00	0	38	0	0	45	4674
2026-01-21 19:35:46.11	150.80	22.92	-37.4	-39.3	26.5	0.00e+00	0	38	0	0	45	4725
2026-01-21 19:35:46.96	150.39	22.87	-37.2	-39.1	26.6	0.00e+00	0	38	0	0	45	4642
2026-01-21 19:35:48.10	149.84	22.80	-37.1	-39.0	26.7	0.00e+00	0	38	0	0	45	4582
2026-01-21 19:35:48.95	149.44	22.74	-37.2	-39.1	26.6	0.00e+00	0	38	0	0	45	4631
2026-01-21 19:35:50.09	148.89	22.67	-37.0	-38.9	26.7	0.00e+00	0	38	0	0	45	4518
2026-01-21 19:35:50.94	148.49	22.61	-36.9	-38.8	26.8	0.00e+00	0	38	0	0	45	4472
2026-01-21 19:35:52.08	147.95	22.54	-37.1	-39.0	26.7	0.00e+00	0	38	0	0	45	4566
2026-01-21 19:35:52.93	147.55	22.48	-37.1	-39.1	26.6	0.00e+00	0	37	0	0	45	4605
2026-01-21 19:35:54.07	147.02	22.40	-37.3	-39.3	20.2	0.00e+00	0	38	0	0	45	4725
2026-01-21 19:35:54.92	146.62	22.34	-37.4	-39.4	26.5	0.00e+00	0	37	0	0	45	4773
2026-01-21 19:35:56.06	146.09	22.25	-37.2	-39.2	26.5	0.00e+00	0	38	0	0	45	4665
2026-01-21 19:35:56.91	145.70	22.19	-37.3	-39.2	26.5	0.00e+00	0	38	0	0	45	4702
2026-01-21 19:35:58.05	145.18	22.10	-37.3	-39.2	26.6	0.00e+00	0	38	0	0	45	4683
2026-01-21 19:35:58.90	144.80	22.03	-37.3	-39.3	26.5	0.00e+00	0	38	0	0	45	4720
2026-01-21 19:36:00.14	144.24	21.94	-37.4	-39.3	26.5	0.00e+00	0	38	0	0	45	4748
2026-01-21 19:36:00.99	143.86	21.87	-37.5	-39.4	26.4	0.00e+00	0	38	0	0	45	4796
2026-01-21 19:36:02.13	143.35	21.78	-37.6	-39.5	26.4	0.00e+00	0	38	0	0	45	4830
2026-01-21 19:36:02.98	142.97	21.70	-37.5	-39.5	26.4	0.00e+00	0	38	0	0	45	4824
2026-01-21 19:36:04.12	142.47	21.61	-37.6	-39.6	26.3	0.00e+00	0	38	0	0	45	4886
2026-01-21 19:36:04.98	142.09	21.54	-37.7	-39.7	25.5	0.00e+00	0	38	0	0	46	4678
2026-01-21 19:36:06.11	141.60	21.44	-37.8	-39.7	26.2	0.00e+00	0	38	0	0	46	4692
2026-01-21 19:36:07.04	141.20	21.36	-37.7	-39.6	26.3	0.00e+00	0	38	0	0	46	4632
2026-01-21 19:36:08.03	140.78	21.27	-37.7	-39.7	26.2	0.00e+00	0	38	0	0	46	4675
2026-01-21 19:36:09.03	140.35	21.18	-38.0	-40.0	26.1	0.00e+00	0	38	0	0	46	4836
2026-01-21 19:36:10.02	139.93	21.09	-38.2	-40.2	25.9	0.00e+00	0	38	0	0	47	4703
2026-01-21 19:36:11.02	139.51	21.00	-38.2	-40.2	25.9	0.00e+00	0	38	0	0	47	4686
2026-01-21 19:36:12.01	139.10	20.91	-38.0	-40.0	26.1	0.00e+00	0	38	0	0	47	4561
2026-01-21 19:36:13.01	138.68	20.81	-37.8	-39.8	26.2	0.00e+00	0	38	0	0	47	4442
2026-01-21 19:36:14.00	138.28	20.72	-37.6	-39.6	26.3	0.00e+00	0	38	0	0	47	4352
2026-01-21 19:36:15.00	137.87	20.63	-37.5	-39.4	26.4	0.00e+00	0	38	0	0	45	4812
2026-01-21 19:36:15.99	137.47	20.53	-37.9	-39.9	26.1	0.00e+00	0	38	0	0	46	4786
2026-01-21 19:36:16.99	137.07	20.44	-38.5	-40.5	25.8	0.00e+00	0	38	0	0	47	4834
2026-01-21 19:36:17.98	136.67	20.34	-38.9	-40.9	25.5	0.00e+00	0	38	0	0	48	4793
2026-01-21 19:36:18.97	136.28	20.24	-39.1	-41.1	25.4	0.00e+00	0	38	0	0	48	4921
2026-01-21 19:36:19.97	135.89	20.14	-38.9	-40.9	25.5	0.00e+00	0	38	0	0	48	4781
2026-01-21 19:36:20.96	135.50	20.05	-38.4	-40.3	25.9	0.00e+00	0	38	0	0	48	4475
2026-01-21 19:36:21.96	135.12	19.95	-38.0	-40.0	26.0	0.00e+00	0	38	0	0	47	4550
2026-01-21 19:36:22.95	134.74	19.85	-38.0	-40.0	26.1	0.00e+00	0	38	0	0	47	4546
2026-01-21 19:36:23.94	134.36	19.75	-38.0	-40.0	26.0	0.00e+00	0	38	0	0	47	4568
2026-01-21 19:36:24.94	133.98	19.65	-38.1	-40.1	26.0	0.00e+00	0	38	0	0	47	4639
2026-01-21 19:36:25.93	133.61	19.55	-38.3	-40.3	25.9	0.00e+00	0	38	0	0	47	4731
2026-01-21 19:36:26.93	133.24	19.44	-38.5	-40.5	25.8	0.00e+00	0	38	0	0	47	4820
2026-01-21 19:36:27.92	132.88	19.34	-38.5	-40.5	25.7	0.00e+00	0	38	0	0	47	4859
2026-01-21 19:36:28.92	132.51	19.24	-38.7	-40.7	25.5	0.00e+00	0	38	0	0	48	4664
2026-01-21 19:36:29.91	132.15	19.13	-38.7	-40.7	25.7	0.00e+00	0	38	0	0	48	4669
2026-01-21 19:36:30.91	131.79	19.03	-38.7	-40.7	25.6	0.00e+00	0	38	0	0	48	4688
2026-01-21 19:36:31.93	131.43	18.92	-38.6	-40.6	25.8	0.00e+00	0	38	0	0	48	4599
2026-01-21 19:36:32.96	131.06	18.82	-38.5	-40.5	25.8	0.00e+00	0	38	0	0	48	4551
2026-01-21 19:36:33.96	130.71	18.71	-38.6	-40.6	25.7	0.00e+00	0	38	0	0	48	4631
2026-01-21 19:36:34.95	130.37	18.61	-38.6	-40.6	25.7	0.00e+00	0	38	0	0	48	4633
2026-01-21 19:36:35.95	130.03	18.50	-38.8	-40.8	25.6	0.00e+00	0	38	0	0	48	4720
2026-01-21 19:36:36.94	129.69	18.40	-38.9	-40.9	25.5	0.00e+00	0	38	0	0	48	4766
2026-01-21 19:36:37.94	129.35	18.29	-38.9	-40.9	25.5	0.00e+00	0	38	0	0	48	4810
2026-01-21 19:36:38.93	129.02	18.18	-38.7	-40.7	25.6	0.00e+00	0	38	0	0	48	4677
2026-01-21 19:36:39.93	128.68	18.08	-38.6	-40.6	25.5	0.00e+00	0	38	0	0	48	4628
2026-01-21 19:36:40.92	128.36	17.97	-38.5	-40.6	25.7	0.00e+00	0	38	0	0	48	4603
2026-01-21 19:36:41.91	128.03	17.87	-38.7	-40.7	25.7	0.00e+00	0	38	0	0	48	4652
2026-01-21 19:36:42.91	127.71	17.76	-38.9	-40.9	25.5	0.00e+00	0	38	0	0	48	4765
2026-01-21 19:36:43.91	127.39	17.65	-38.9	-40.9	25.5	0.00e+00	0	38	0	0	48	4769
2026-01-21 19:36:44.90	127.07	17.55	-38.6	-40.7	25.6	0.00e+00	0	38	0	0	48	4696
2026-01-21 19:36:45.90	126.76	17.44	-38.6	-40.6	25.7	0.00e+00	0	38	0	0	48	4630
2026-01-21 19:36:46.89	126.45	17.33	-38.6	-40.6	25.7	0.00e+00	0	38	0	0	48	4630
2026-01-21 19:36:47.89	126.14	17.23	-38.6	-40.6	25.7	0.00e+00	0	38	0	0	48	4621
2026-01-21 19:36:48.88	125.83	17.12	-38.9	-40.9	25.5	0.00e+00	0	38	0	0	48	4808
2026-01-21 19:36:49.94	125.51	17.01	-39.0	-41.1	25.4	0.00e+00	0	38	0	0	48	4889
2026-01-21 19:36:50.84	125.24	16.91	-39.1	-41.2	25.3	0.00e+00	0	38	0	0	49	4666
2026-01-21 19:36:52.09	124.86	16.77	-39.0	-41.0	25.4	0.00e+00	0	38	0	0	49	4562
2026-01-21 19:36:52.94	124.61	16.68	-39.0	-41.0	25.4	0.00e+00	0	38	0	0	49	4560
2026-01-21 19:36:54.08	124.28	16.56	-39.1	-41.1	25.3	0.00e+00	0	38	0	0	49	4623
2026-01-21 19:36:54.93	124.03	16.47	-39.1	-41.2	25.3	0.00e+00	0	38	0	0	49	4675
2026-01-21 19:36:56.07	123.70	16.35	-39.2	-41.3	25.3	0.00e+00	0	38	0	0	49	4722
2026-01-21 19:36:57.05	123.42	16.24	-39.1	-41.2	25.3	0.00e+00	0	38	0	0	49	4664
2026-01-21 19:36:58.04	123.14	16.14	-39.3	-41.3	25.2	0.00e+00	0	38	0	0	49	4749
2026-01-21 19:36:59.04	122.86	16.03	-39.1	-41.2	25.3	0.00e+00	0	38	0	0	49	4669
2026-01-21 19:37:00.03	122.59	15.92	-39.0	-41.1	25.4	0.00e+00	0	38	0	0	49	4600
2026-01-21 19:37:01.03	122.31	15.82	-39.2	-41.3	25.2	0.00e+00	0	38	0	0	49	4721
2026-01-21 19:37:02.02	122.04	15.71	-39.4	-41.5	25.0	0.00e+00	0	38	0	0	49	4859
2026-01-21 19:37:03.02	121.77	15.60	-39.7	-41.7	24.8	0.00e+00	0	38	0	0	49	4975
2026-01-21 19:37:04.01	121.50	15.50	-39.7	-41.9	24.8	0.00e+00	0	38	0	0	50	4761
2026-01-21 19:37:05.01	121.24	15.39	-39.7	-41.8	24.8	0.00e+00	0	38	0	0	50	4748
2026-01-21 19:37:06.00	120.98	15.29	-39.7	-41.8	24.8	0.00e+00	0	38	0	0	50	4730
2026-01-21 19:37:07.00	120.72	15.18	-39.8	-41.8	24.8	0.00e+00	0	38	0	0	50	4759
2026-01-21 19:37:08.00	120.46	15.08	-39.9	-42.0	24.7	0.00e+00	0	38	0	0	50	4824
2026-01-21 19:37:08.99	120.20	14.97	-40.0	-42.1	24.6	0.00e+00	0	38	0	0	50	4917
2026-01-21 19:37:09.98	119.95	14.87	-39.9	-42.1	24.7	0.00e+00	0	38	0	0	50	4872
2026-01-21 19:37:10.98	119.70	14.76	-39.8	-42.0	24.7	0.00e+00	0	38	0	0	50	4862
2026-01-21 19:37:11.97	119.45	14.66	-39.5	-41.9	24.8	0.00e+00	0	38	0	0	50	4779
2026-01-21 19:37:12.97	119.21	14.55	-39.9	-42.0	24.7	0.00e+00	0	38	0	0	50	4862
2026-01-21 19:37:13.96	118.96	14.45	-40.0	-42.1	24.6	0.00e+00	0	38	0	0	50	4886
2026-01-21 19:37:14.96	118.72	14.35	-40.1	-42.2	24.6	0.00e+00	0	38	0	0	50	4934
2026-01-21 19:37:15.95	118.48	14.24	-40.2	-42.4	24.4	0.00e+00	0	38	0	0	51	4762
2026-01-21 19:37:16.95	118.24	14.14	-40.3	-42.5	24.3	0.00e+00	0	38	0	0	51	4825
2026-01-21 19:37:17.94	118.01	14.04	-40.5	-42.7	24.2	0.00e+00	0	38	0	0	51	4933
2026-01-21 19:37:18.94	117.78	13.93	-40.5	-42.7	24.2	0.00e+00	0	38	0	0	51	4936
2026-01-21 19:37:19.93	117.55	13.83	-40.4	-42.6	24.2	0.00e+00	0	38	0	0	51	4891
2026-01-21 19:37:20.92	117.32	13.73	-40.2	-42.5	24.3	0.00e+00	0	38	0	0	51	4862
2026-01-21 19:37:21.92	117.09	13.63	-40.4	-42.6	24.3	0.00e+00	0	38	0	0	51	4902
2026-01-21 19:37:22.99	116.85	13.52	-40.5	-42.7	24.2	0.00e+00	0	38	0	0	51	4945
2026-01-21 19:37:23.85	116.66	13.43	-40.6	-42.8	24.1	0.00e+00	0	38	0	0	51	5008
2026-01-21 19:37:24.99	116.40	13.31	-40.6	-42.8	24.0	0.00e+00	0	38	0	0	52	4729
2026-01-21 19:37:25.84	116.22	13.23	-40.6	-42.8	24.1	0.00e+00	0	38	0	0	51	5011
2026-01-21 19:37:26.98	115.97	13.11	-40.6	-42.8	24.1	0.00e+00	0	38	0	0	51	5020
2026-01-21 19:37:27.83	115.78	13.03	-40.6	-42.8	24.0	0.00e+00	0	38	0	0	52	4751
2026-01-21 19:37:28.96	115.54	12.91	-40.6	-42.8	24.0	0.00e+00	0	38	0	0	52	4716
2026-01-21 19:37:29.82	115.36	12.83	-40.6	-42.8	24.0	0.00e+00	0	38	0	0	52	4739
2026-01-21 19:37:30.96	115.12	12.71	-40.6	-42.9	24.0	0.00e+00	0	38	0	0	52	4765
2026-01-21 19:37:31.81	114.94	12.63	-40.7	-43.0	23.9	0.00e+00	0	38	0	0	52	4815
2026-01-21 19:37:32.99	114.70	12.51	-40.6	-42.8	24.0	0.00e+00	0	38	0	0	52	4716
2026-01-21 19:37:33.84	114.53	12.43	-40.7	-42.9	23.9	0.00e+00	0	38	0	0	52	4792
2026-01-21 19:37:34.98	114.29	12.32	-40.7	-42.9	23.9	0.00e+00	0	38	0	0	52	4798
2026-01-21 19:37:35.83	114.12	12.23	-40.6	-42.8	24.0	0.00e+00	0	38	0	0	52	4737
2026-01-21 19:37:36.97	113.90	12.12	-40.7	-42.9	23.9	0.00e+00	0	38	0	0	52	4790
2026-01-21 19:37:37.82	113.73	12.04	-40.8	-43.1	23.8	0.00e+00	0	38	0	0	52	4875
2026-01-21 19:37:38.96	113.50	11.93	-41.0	-43.3	23.6	0.00e+00	0	38	0	0	52	5007
2026-01-21 19:37:39.81	113.34	11.84	-41.2	-43.4	23.5	0.00e+00	0	38	0	0	53	4801
2026-01-21 19:37:40.95	113.12	11.73	-41.3	-43.5	23.4	0.00e+00	0	38	0	0	53	4866
2026-01-21 19:37:41.80	112.96	11.65	-41.3	-43.6	23.4	0.00e+00	0	38	0	0	53	4878
2026-01-21 19:37:42.94	112.74	11.54	-41.3	-43.6	23.4	0.00e+00	0	38	0	0	53	4907
2026-01-21 19:37:43.79	112.58	11.46	-41.2	-43.5	23.4	0.00e+00	0	38	0	0	53	4862
2026-01-21 19:37:44.93	112.37	11.35	-41.3	-43.7	23.3	0.00e+00	0	38	0	0	53	4958
2026-01-21 19:37:45.78	112.21	11.27	-41.3	-43.7	23.3	0.00e+00	0	38	0	0	53	4951
2026-01-21 19:37:46.92	112.01	11.16	-41.3	-43.8	23.2	0.00e+00	0	38	0	0	53	4996
2026-01-21 19:37:47.77	111.85	11.08	-41.4	-44.0	23.0	0.00e+00	0	38	0	0	53	5113
2026-01-21 19:37:49.00	111.63	10.97	-41.3	-44.0	23.1	0.00e+00	0	38	0	0	53	5101
2026-01-21 19:37:49.86	111.48	10.89	-41.5	-43.9	23.1	0.00e+00	0	38	0	0	53	5055
2026-01-21 19:37:50.99	111.28	10.78	-41.5	-43.9	23.0	0.00e+00	0	38	0	0	53	5091
2026-01-21 19:37:51.85	111.13	10.70	-41.6	-43.9	23.1	0.00e+00	0	38	0	0	53	5088
2026-01-21 19:37:52.98	110.93	10.60	-41.7	-44.1	23.0	0.00e+00	0	38	0	0	54	4876
2026-01-21 19:37:53.84	110.79	10.52	-41.6	-44.0	23.0	0.00e+00	0	38	0	0	54	4847
2026-01-21 19:37:54.97	110.59	10.41	-41.8	-44.2	22.9	0.00e+00	0	38	0	0	54	4940
2026-01-21 19:37:55.82	110.45	10.33	-41.9	-44.3	22.7	0.00e+00	0	38	0	0	54	5015
2026-01-21 19:37:56.96	110.26	10.23	-41.9	-44.3	22.7	0.00e+00	0	38	0	0	54	5041
2026-01-21 19:37:57.81	110.12	10.15	-41.7	-44.2	22.9	0.00e+00	0	38	0	0	54	4931
2026-01-21 19:37:58.95	109.93	10.05	-41.8	-44.2	22.9	0.00e+00	0	38	0	0	54	4934
2026-01-21 19:37:59.80	109.79	9.97	-41.8	-44.2	22.8	0.00e+00	0	38	0	0	54	4965
2026-01-21 19:38:00.94	109.61	9.87	-41.9	-44.3	22.8	0.00e+00	0	38	0	0	54	4992
2026-01-21 19:38:01.79	109.47	9.79	-42.0	-44.4	22.7	0.00e+00	0	38	0	0	54	5063
2026-01-21 19:38:02.93	109.29	9.69	-42.1	-44.6	22.5	0.00e+00	0	38	0	0	54	5185
2026-01-21 19:38:03.78	109.15	9.61	-42.2	-44.6	22.5	0.00e+00	0	38	0	0	54	5211
2026-01-21 19:38:04.92	108.97	9.51	-42.2	-44.7	22.4	0.00e+00	0	38	0	0	55	4946
2026-01-21 19:38:05.78	108.84	9.44	-42.1	-44.6	22.5	0.00e+00	0	38	0	0	55	4876
2026-01-21 19:38:06.91	108.67	9.34	-42.3	-44.7	22.3	0.00e+00	0	38	0	0	55	4980
2026-01-21 19:38:07.76	108.54	9.26	-42.3	-44.8	22.3	0.00e+00	0	38	0	0	55	4998
2026-01-21 19:38:08.90	108.36	9.16	-42.3	-44.8	22.2	0.00e+00	0	38	0	0	55	5031
2026-01-21 19:38:09.76	108.23	9.09	-42.2	-44.6	22.4	0.00e+00	0	38	0	0	55	4917
2026-01-21 19:38:10.89	108.07	8.99	-49.0	-57.6	12.7	0.00e+00	0	38	0	0	68	10337
2026-01-21 19:38:11.74	107.94	8.92	-50.3	-69.1	3.8	4.20e-02	0	38	104	0	71	32699
2026-01-21 19:38:12.88	107.77	8.82	-50.5	-69.3	3.8	8.46e-01	0	38	104	0	71	33353
2026-01-21 19:38:13.73	107.65	8.74	-50.6	-69.5	3.8	8.46e-01	0	38	104	0	71	34191
2026-01-21 19:38:14.87	107.49	8.65	-50.5	-69.5	3.8	8.47e-01	0	38	104	0	72	32386
2026-01-21 19:38:15.72	107.36	8.57	-50.6	-69.5	3.8	8.45e-01	0	38	104	0	72	32490
2026-01-21 19:38:16.85	107.20	8.48	-50.6	-69.6	3.8	8.46e-01	0	38	104	0	72	32723
2026-01-21 19:38:17.70	107.08	8.41	-50.6	-69.7	3.8	8.46e-01	0	38	104	0	71	34958
2026-01-21 19:38:18.84	106.92	8.31	-50.5	-69.7	3.8	8.47e-01	0	38	104	0	71	34924
2026-01-21 19:38:19.69	106.81	8.24	-50.4	-69.7	3.8	8.47e-01	0	38	104	0	71	35186
2026-01-21 19:38:20.83	106.65	8.14	-50.5	-69.8	3.8	8.48e-01	0	38	104	0	71	35302
2026-01-21 19:38:21.68	106.53	8.07	-50.5	-69.8	3.8	8.46e-01	0	38	104	0	71	35359
2026-01-21 19:38:22.81	106.38	7.98	-50.6	-69.8	3.8	8.46e-01	0	38	104	0	71	35353
2026-01-21 19:38:23.66	106.27	7.91	-50.6	-69.8	3.9	8.46e-01	0	38	104	0	71	35397
2026-01-21 19:38:24.80	106.11	7.81	-50.7	-69.7	3.8	8.46e-01	0	38	104	0	72	33290
2026-01-21 19:38:25.65	106.00	7.74	-50.6	-69.8	4.1	8.46e-01	0	38	104	0	72	33497
2026-01-21 19:38:26.79	105.85	7.65	-50.6	-69.8	3.8	8.46e-01	0	38	104	0	72	33363
2026-01-21 19:38:27.64	105.74	7.58	-50.5	-69.7	3.8	8.48e-01	0	38	104	0	72	33266
2026-01-21 19:38:28.77	105.60	7.49	-50.5	-69.8	3.8	8.46e-01	0	38	104	0	71	35519
2026-01-21 19:38:29.62	105.49	7.42	-50.5	-70.0	3.8	8.46e-01	0	38	104	0	71	36153
2026-01-21 19:38:30.76	105.34	7.32	-50.6	-69.8	3.8	8.46e-01	0	38	104	0	71	35483
2026-01-21 19:38:31.61	105.24	7.26	-50.6	-69.8	3.8	8.48e-01	0	38	104	0	72	33361
2026-01-21 19:38:32.75	105.09	7.16	-50.6	-69.8	3.8	8.48e-01	0	38	104	0	71	35401
2026-01-21 19:38:33.60	104.99	7.10	-50.5	-69.8	3.8	8.46e-01	0	38	104	0	71	35356
2026-01-21 19:38:34.74	104.85	7.00	-50.6	-69.5	3.8	8.47e-01	0	38	104	0	70	36135
2026-01-21 19:38:35.59	104.74	6.94	-50.2	-69.4	3.8	8.47e-01	0	38	104	0	70	36061
2026-01-21 19:38:36.72	104.61	6.85	-50.6	-69.7	3.8	8.47e-01	0	38	104	0	71	35207
2026-01-21 19:38:37.58	104.50	6.78	-50.6	-69.8	3.8	8.47e-01	0	38	104	0	71	35309
2026-01-21 19:38:38.71	104.37	6.69	-50.6	-69.7	3.8	8.46e-01	0	38	104	0	71	35256
2026-01-21 19:38:39.56	104.27	6.62	-50.6	-69.7	3.8	8.46e-01	0	38	104	0	71	35253
2026-01-21 19:38:40.70	104.13	6.53	-50.6	-69.7	3.8	8.47e-01	0	38	104	0	71	35125
2026-01-21 19:38:41.55	104.03	6.47	-50.6	-69.7	3.8	8.47e-01	0	38	104	0	71	35230
2026-01-21 19:38:42.68	103.90	6.38	-50.5	-69.7	3.8	8.45e-01	0	38	104	0	71	35257
2026-01-21 19:38:43.53	103.81	6.31	-50.6	-69.7	3.8	8.47e-01	0	38	104	0	71	35213
2026-01-21 19:38:44.67	103.68	6.23	-50.6	-69.7	3.8	8.47e-01	0	38	104	0	71	35232
2026-01-21 19:38:45.52	103.58	6.16	-50.6	-69.7	3.8	8.47e-01	0	38	104	0	71	35231
2026-01-21 19:38:46.65	103.45	6.08	-50.6	-69.8	3.8	8.47e-01	0	38	104	0	71	35460
2026-01-21 19:38:47.50	103.36	6.01	-50.6	-69.7	3.8	8.47e-01	0	38	104	0	71	35199
2026-01-21 19:38:48.64	103.23	5.92	-50.6	-69.7	3.8	8.47e-01	0	38	104	0	71	35200
2026-01-21 19:38:49.49	103.14	5.86	-50.6	-69.7	3.9	8.46e-01	0	38	104	0	71	35208
2026-01-21 19:38:50.63	103.01	5.77	-50.5	-69.8	3.8	8.47e-01	0	38	104	0	71	35413
2026-01-21 19:38:51.48	102.92	5.71	-50.6	-69.7	3.8	8.47e-01	0	38	104	0	71	35194
2026-01-21 19:38:52.62	102.80	5.62	-50.6	-69.7	3.8	8.46e-01	0	38	104	0	71	35194
2026-01-21 19:38:53.47	102.71	5.56	-50.6	-69.7	3.8	8.47e-01	0	38	104	0	71	35178
2026-01-21 19:38:54.60	102.59	5.48	-50.6	-69.3	3.8	8.47e-01	0	38	104	0	70	35667
2026-01-21 19:38:55.46	102.50	5.41	-50.0	-69.8	3.8	8.46e-01	0	38	104	0	71	35315
2026-01-21 19:38:56.59	102.38	5.33	-50.6	-69.7	3.8	8.47e-01	0	38	104	0	71	35097
2026-01-21 19:38:57.44	102.29	5.27	-50.6	-70.0	3.8	8.47e-01	0	38	104	0	71	36188
2026-01-21 19:38:58.58	102.17	5.18	-50.6	-69.7	3.8	8.47e-01	0	38	104	0	71	35214
2026-01-21 19:38:59.43	102.09	5.12	-50.6	-69.7	3.8	8.47e-01	0	38	104	0	71	35176
2026-01-21 19:39:00.57	101.97	5.04	-50.6	-69.7	3.8	8.47e-01	0	38	104	0	71	35187
2026-01-21 19:39:01.42	101.89	4.97	-50.6	-69.7	3.9	8.47e-01	0	38	104	0	71	35216
2026-01-21 19:39:02.55	101.77	4.89	-50.6	-69.9	3.8	8.46e-01	0	38	104	0	71	35746
2026-01-21 19:39:03.40	101.69	4.83	-50.5	-69.7	3.8	8.46e-01	0	38	104	0	71	35113
2026-01-21 19:39:04.54	101.58	4.75	-50.5	-69.7	3.8	8.48e-01	0	38	104	0	71	35191
2026-01-21 19:39:05.39	101.49	4.69	-50.6	-69.7	3.8	8.46e-01	0	38	104	0	71	35136
2026-01-21 19:39:06.52	101.38	4.61	-50.1	-70.1	3.7	8.46e-01	0	38	104	0	71	36656

#Closed at: 2026-01-21 19:39:07
#Recorded file [0 MB]: D:/Data/31040_260121_223139.dat