passes_logs/2026/01/21/T1/T1__20260121_120727_NOAA_21_JPSS-2_rec.log

#Pass ID: 20260121_120727_NOAA 21 (JPSS-2)
#Satellite: NOAA 21 (JPSS-2)
#Configuration: NOAA 21
#almurnet v.1.7.20251203
#Start time: 2026-01-21 12:07:28

#Version: 2.0.20230620
#Station: T1
#Location: 37.570604 lon 55.790049 lat
#TLE: 1 54234U 22150A   26020.93347024  .00000206  00000+0  11859-3 0  9994
#TLE: 2 54234  98.7506 321.7615 0000627 245.8100 114.3011 14.19536899165654

#Time	Az	El	Level	Level2	SNR	BER	BlckErr	Temp	State	Recorded	gain1	gain2
2026-01-21 12:07:28.06	236.65	5.03	-52.0	-65.0	3.8	1.49e+00	0	36	0	0	76	15317
2026-01-21 12:07:29.05	236.76	5.07	-51.9	-65.1	3.8	1.49e+00	0	36	104	0	75	16396
2026-01-21 12:07:30.04	236.88	5.12	-52.0	-65.2	3.8	1.49e+00	0	36	104	0	75	16524
2026-01-21 12:07:31.03	237.00	5.16	-51.9	-65.1	3.8	1.49e+00	0	36	104	0	75	16384
2026-01-21 12:07:32.03	237.12	5.21	-52.0	-65.1	3.8	1.49e+00	0	37	104	0	75	16463
2026-01-21 12:07:33.02	237.24	5.25	-51.9	-65.1	3.8	1.49e+00	0	36	104	0	75	16433
2026-01-21 12:07:34.01	237.36	5.29	-51.9	-65.1	3.8	1.49e+00	0	36	104	0	75	16417
2026-01-21 12:07:35.01	237.49	5.34	-51.9	-65.1	3.8	1.49e+00	0	36	104	0	75	16395
2026-01-21 12:07:36.00	237.61	5.38	-51.9	-65.1	3.8	1.49e+00	0	37	104	0	75	16322
2026-01-21 12:07:36.99	237.73	5.42	-51.9	-65.1	3.8	1.49e+00	0	36	104	0	75	16382
2026-01-21 12:07:37.98	237.85	5.47	-51.9	-65.1	3.8	1.49e+00	0	37	104	0	75	16464
2026-01-21 12:07:38.98	237.97	5.51	-52.0	-65.1	3.8	1.49e+00	0	37	104	0	75	16318
2026-01-21 12:07:39.97	238.10	5.55	-51.9	-65.1	3.8	1.49e+00	0	37	104	0	75	16352
2026-01-21 12:07:40.96	238.22	5.60	-51.9	-65.1	3.8	1.49e+00	0	37	104	0	75	16378
2026-01-21 12:07:41.96	238.34	5.64	-51.9	-65.1	3.8	1.49e+00	0	37	104	0	75	16328
2026-01-21 12:07:42.95	238.47	5.69	-51.9	-65.1	3.8	1.49e+00	0	37	104	0	75	16350
2026-01-21 12:07:43.94	238.59	5.73	-51.9	-65.0	3.8	1.49e+00	0	37	104	0	75	16298
2026-01-21 12:07:44.94	238.72	5.77	-51.9	-65.1	3.8	1.49e+00	0	37	104	0	75	16322
2026-01-21 12:07:45.93	238.84	5.82	-51.9	-65.0	3.8	1.49e+00	0	37	104	0	75	16301
2026-01-21 12:07:46.92	238.97	5.86	-51.9	-65.1	3.8	1.49e+00	0	37	104	0	75	16333
2026-01-21 12:07:47.92	239.09	5.90	-51.9	-65.1	3.8	1.49e+00	0	37	104	0	75	16343
2026-01-21 12:07:48.91	239.22	5.95	-51.9	-65.1	3.8	1.49e+00	0	37	104	0	75	16321
2026-01-21 12:07:49.90	239.34	5.99	-51.9	-65.1	3.8	1.49e+00	0	37	104	0	75	16328
2026-01-21 12:07:50.90	239.47	6.03	-51.9	-65.1	3.8	1.49e+00	0	37	104	0	75	16340
2026-01-21 12:07:51.89	239.60	6.08	-51.9	-65.1	3.8	1.49e+00	0	37	104	0	75	16355
2026-01-21 12:07:52.89	239.73	6.12	-51.9	-65.1	3.8	1.49e+00	0	37	104	0	75	16315
2026-01-21 12:07:53.88	239.85	6.16	-51.9	-65.0	3.8	1.49e+00	0	37	104	0	75	16242
2026-01-21 12:07:54.87	239.98	6.20	-51.9	-65.0	3.8	1.49e+00	0	37	104	0	75	16237
2026-01-21 12:07:55.87	240.11	6.25	-51.9	-65.0	3.8	1.49e+00	0	37	104	0	75	16216
2026-01-21 12:07:56.86	240.24	6.29	-51.9	-65.0	3.8	1.49e+00	0	37	104	0	75	16228
2026-01-21 12:07:57.85	240.37	6.33	-51.9	-65.0	3.8	1.49e+00	0	37	104	0	75	16307
2026-01-21 12:07:58.84	240.50	6.38	-51.9	-65.1	3.8	1.49e+00	0	37	104	0	75	16331
2026-01-21 12:07:59.84	240.63	6.42	-51.9	-65.1	3.8	1.49e+00	0	37	104	0	75	16331
2026-01-21 12:08:00.83	240.76	6.46	-51.9	-65.1	3.8	1.49e+00	0	37	104	0	75	16338
2026-01-21 12:08:01.82	240.89	6.50	-51.9	-65.1	3.8	1.49e+00	0	37	104	0	75	16338
2026-01-21 12:08:02.82	241.02	6.55	-51.9	-65.0	3.8	1.49e+00	0	37	104	0	75	16305
2026-01-21 12:08:03.81	241.15	6.59	-51.9	-65.1	3.8	1.49e+00	0	38	104	0	75	16328
2026-01-21 12:08:04.80	241.28	6.63	-51.9	-65.1	3.8	1.49e+00	0	38	104	0	75	16324
2026-01-21 12:08:05.80	241.42	6.67	-51.9	-65.0	3.8	1.49e+00	0	37	104	0	75	16314
2026-01-21 12:08:06.79	241.55	6.72	-51.9	-65.0	3.8	1.49e+00	0	38	104	0	75	16291
2026-01-21 12:08:07.78	241.68	6.76	-51.9	-65.1	3.8	1.49e+00	0	38	104	0	75	16315
2026-01-21 12:08:08.78	241.82	6.80	-51.9	-65.0	3.8	1.49e+00	0	38	104	0	75	16222
2026-01-21 12:08:09.77	241.95	6.84	-51.9	-65.0	3.8	1.49e+00	0	38	104	0	75	16138
2026-01-21 12:08:10.76	242.08	6.88	-51.9	-64.9	3.8	1.49e+00	0	38	104	0	75	16108
2026-01-21 12:08:11.76	242.22	6.93	-51.9	-64.9	3.8	1.49e+00	0	37	104	0	75	16095
2026-01-21 12:08:12.75	242.35	6.97	-51.9	-64.9	3.8	1.49e+00	0	38	104	0	75	16094
2026-01-21 12:08:13.74	242.49	7.01	-51.9	-64.9	3.8	1.49e+00	0	38	104	0	75	16069
2026-01-21 12:08:14.74	242.63	7.05	-51.9	-64.9	3.8	1.49e+00	0	38	104	0	75	15969
2026-01-21 12:08:15.73	242.76	7.09	-51.9	-64.9	3.8	1.49e+00	0	38	104	0	75	16018
2026-01-21 12:08:16.72	242.90	7.14	-51.8	-64.9	3.8	1.49e+00	0	38	104	0	75	15969
2026-01-21 12:08:17.72	243.04	7.18	-51.9	-64.9	3.8	1.49e+00	0	38	104	0	75	15955
2026-01-21 12:08:18.71	243.17	7.22	-51.9	-64.9	3.8	1.49e+00	0	38	104	0	75	16016
2026-01-21 12:08:19.70	243.31	7.26	-51.9	-64.9	3.8	1.49e+00	0	38	104	0	75	16101
2026-01-21 12:08:20.70	243.45	7.30	-51.8	-64.9	3.8	1.49e+00	0	38	104	0	75	15980
2026-01-21 12:08:21.69	243.59	7.34	-51.8	-64.9	3.8	1.49e+00	0	38	104	0	75	16039
2026-01-21 12:08:22.68	243.72	7.38	-51.8	-64.9	3.8	1.49e+00	0	38	104	0	75	16036
2026-01-21 12:08:23.68	243.86	7.43	-51.8	-64.8	3.8	1.49e+00	0	38	104	0	75	15911
2026-01-21 12:08:24.67	244.00	7.47	-51.8	-64.8	3.8	1.49e+00	0	38	104	0	75	15889
2026-01-21 12:08:25.67	244.14	7.51	-51.8	-64.8	3.8	1.49e+00	0	38	104	0	75	15909
2026-01-21 12:08:26.66	244.28	7.55	-51.8	-64.9	3.8	1.49e+00	0	38	104	0	75	16067
2026-01-21 12:08:27.65	244.42	7.59	-51.8	-64.9	3.8	1.49e+00	0	38	104	0	75	16116
2026-01-21 12:08:28.65	244.57	7.63	-51.9	-65.0	3.8	1.49e+00	0	38	104	0	75	16186
2026-01-21 12:08:29.64	244.71	7.67	-51.8	-64.9	3.8	1.49e+00	0	38	104	0	75	16123
2026-01-21 12:08:30.64	244.85	7.71	-51.8	-64.9	3.8	1.49e+00	0	38	104	0	75	16116
2026-01-21 12:08:31.63	244.99	7.75	-51.8	-64.9	3.8	1.49e+00	0	38	104	0	75	16010
2026-01-21 12:08:32.62	245.13	7.79	-51.8	-64.9	3.8	1.49e+00	0	38	104	0	75	16007
2026-01-21 12:08:33.62	245.28	7.83	-51.8	-64.9	3.8	1.49e+00	0	38	104	0	75	16065
2026-01-21 12:08:34.61	245.42	7.87	-51.8	-65.0	3.8	1.49e+00	0	38	104	0	75	16150
2026-01-21 12:08:35.60	245.56	7.91	-51.8	-65.0	3.8	1.49e+00	0	38	104	0	75	16166
2026-01-21 12:08:36.60	245.71	7.95	-51.8	-65.0	3.8	1.49e+00	0	38	104	0	75	16204
2026-01-21 12:08:37.59	245.85	7.99	-51.8	-64.9	3.8	1.49e+00	0	38	104	0	75	16036
2026-01-21 12:08:38.58	246.00	8.03	-51.8	-64.9	3.8	1.49e+00	0	38	104	0	75	16002
2026-01-21 12:08:39.58	246.14	8.07	-51.8	-64.9	3.8	1.49e+00	0	38	104	0	75	15976
2026-01-21 12:08:40.57	246.29	8.11	-51.8	-64.8	3.8	1.49e+00	0	38	104	0	75	15903
2026-01-21 12:08:41.56	246.43	8.15	-51.8	-64.9	3.8	1.49e+00	0	38	104	0	75	16083
2026-01-21 12:08:42.56	246.58	8.19	-51.8	-64.9	3.8	1.49e+00	0	38	104	0	75	16115
2026-01-21 12:08:43.55	246.73	8.23	-51.8	-65.0	3.8	1.49e+00	0	38	104	0	75	16147
2026-01-21 12:08:44.54	246.87	8.27	-51.8	-64.9	3.8	1.49e+00	0	38	104	0	75	16109
2026-01-21 12:08:45.54	247.02	8.31	-51.8	-65.0	3.8	1.49e+00	0	38	104	0	75	16129
2026-01-21 12:08:46.53	247.17	8.35	-51.8	-64.9	3.8	1.49e+00	0	38	104	0	75	16029
2026-01-21 12:08:47.53	247.32	8.39	-51.8	-64.6	3.8	1.49e+00	0	38	104	0	75	15424
2026-01-21 12:08:48.52	247.47	8.43	-51.7	-63.8	3.8	1.49e+00	0	38	104	0	75	14126
2026-01-21 12:08:49.52	247.62	8.47	-51.6	-62.9	3.8	1.49e+00	0	38	104	0	75	12801
2026-01-21 12:08:50.51	247.77	8.51	-51.6	-62.6	3.9	1.48e+00	0	38	104	0	75	12343
2026-01-21 12:08:51.50	247.92	8.54	-51.7	-63.6	3.8	1.49e+00	0	38	104	0	75	13853
2026-01-21 12:08:52.50	248.07	8.58	-51.8	-64.6	3.8	1.49e+00	0	38	104	0	75	15528
2026-01-21 12:08:53.49	248.22	8.62	-51.5	-61.8	4.1	1.48e+00	0	38	104	0	75	11265
2026-01-21 12:08:54.48	248.37	8.66	-50.6	-57.1	6.6	5.35e-01	0	38	0	0	73	7324
2026-01-21 12:08:55.48	248.52	8.70	-49.2	-53.6	10.1	2.45e-02	0	38	0	0	70	5816
2026-01-21 12:08:56.47	248.67	8.74	-47.7	-51.0	12.5	2.97e-04	0	38	0	0	67	5150
2026-01-21 12:08:57.47	248.82	8.77	-46.6	-49.4	14.2	4.50e-06	0	38	0	0	65	4783
2026-01-21 12:08:58.46	248.98	8.81	-46.1	-48.6	15.0	7.00e-07	0	38	0	0	64	4644
2026-01-21 12:08:59.45	249.13	8.85	-46.1	-48.6	15.1	0.00e+00	0	38	0	0	63	4914
2026-01-21 12:09:00.45	249.28	8.89	-46.4	-49.0	14.6	7.00e-07	0	38	0	0	63	5152
2026-01-21 12:09:01.44	249.44	8.92	-47.1	-50.1	13.5	5.30e-06	0	38	0	0	64	5511
2026-01-21 12:09:02.43	249.59	8.96	-48.1	-51.6	12.0	2.30e-04	0	38	0	0	66	5839
2026-01-21 12:09:03.43	249.74	9.00	-49.3	-53.8	9.8	3.16e-03	0	38	0	0	69	6321
2026-01-21 12:09:04.42	249.90	9.03	-49.9	-55.1	8.5	3.88e-02	0	38	0	0	70	6885
2026-01-21 12:09:05.42	250.05	9.07	-50.4	-56.5	7.2	5.37e-02	0	38	0	0	71	7704
2026-01-21 12:09:06.41	250.21	9.11	-50.5	-57.0	6.4	1.47e+00	0	38	104	0	73	7246
2026-01-21 12:09:07.41	250.37	9.15	-48.3	-51.9	11.9	2.85e-03	0	38	0	0	68	5343
2026-01-21 12:09:08.41	250.52	9.18	-47.0	-49.9	13.9	0.00e+00	0	38	0	0	64	5390
2026-01-21 12:09:09.40	250.68	9.22	-50.5	-56.6	6.9	5.30e-01	0	38	0	0	72	7346
2026-01-21 12:09:10.40	250.84	9.26	-45.4	-47.8	15.9	0.00e+00	0	38	0	0	62	4716
2026-01-21 12:09:11.39	250.99	9.29	-44.8	-47.0	16.6	0.00e+00	0	38	0	0	61	4578
2026-01-21 12:09:12.46	251.16	9.33	-44.9	-47.1	16.5	0.00e+00	0	38	0	0	61	4649
2026-01-21 12:09:13.35	251.31	9.36	-44.8	-46.9	16.7	0.00e+00	0	38	0	0	61	4544
2026-01-21 12:09:14.48	251.49	9.40	-44.6	-46.7	16.9	0.00e+00	0	39	0	0	61	4427
2026-01-21 12:09:15.40	251.63	9.44	-44.5	-46.6	17.0	0.00e+00	0	38	0	0	60	4631
2026-01-21 12:09:16.40	251.79	9.47	-44.4	-46.5	17.1	0.00e+00	0	38	0	0	60	4560
2026-01-21 12:09:17.39	251.95	9.51	-44.4	-46.6	17.1	0.00e+00	0	38	0	0	60	4607
2026-01-21 12:09:18.39	252.11	9.54	-44.2	-46.3	17.3	0.00e+00	0	38	0	0	60	4473
2026-01-21 12:09:19.38	252.27	9.58	-44.1	-46.1	17.5	0.00e+00	0	38	0	0	60	4373
2026-01-21 12:09:20.38	252.44	9.61	-44.0	-46.0	17.5	0.00e+00	0	38	0	0	60	4340
2026-01-21 12:09:21.37	252.60	9.65	-44.1	-46.1	17.5	0.00e+00	0	38	0	0	60	4372
2026-01-21 12:09:22.37	252.76	9.68	-44.1	-46.1	17.5	0.00e+00	0	39	0	0	60	4391
2026-01-21 12:09:23.36	252.92	9.72	-44.0	-46.0	17.5	0.00e+00	0	38	0	0	60	4329
2026-01-21 12:09:24.36	253.08	9.75	-44.0	-46.1	17.5	0.00e+00	0	38	0	0	60	4342
2026-01-21 12:09:25.37	253.25	9.78	-44.0	-46.0	17.5	0.00e+00	0	38	0	0	59	4569
2026-01-21 12:09:26.37	253.41	9.82	-44.1	-46.1	17.4	0.00e+00	0	38	0	0	59	4604
2026-01-21 12:09:27.36	253.58	9.85	-44.0	-46.0	17.4	0.00e+00	0	39	0	0	59	4597
2026-01-21 12:09:28.45	253.76	9.89	-44.1	-46.1	17.4	0.00e+00	0	38	0	0	59	4630
2026-01-21 12:09:29.33	253.90	9.92	-44.2	-46.2	17.3	0.00e+00	0	39	0	0	59	4691
2026-01-21 12:09:30.47	254.09	9.96	-44.1	-46.1	17.4	0.00e+00	0	39	0	0	59	4625
2026-01-21 12:09:31.32	254.23	9.99	-44.2	-46.2	17.4	0.00e+00	0	38	0	0	59	4669
2026-01-21 12:09:32.46	254.42	10.02	-44.2	-46.2	17.4	0.00e+00	0	38	0	0	59	4672
2026-01-21 12:09:33.31	254.56	10.05	-44.2	-46.3	17.3	0.00e+00	0	39	0	0	59	4708
2026-01-21 12:09:34.45	254.75	10.09	-44.3	-46.3	17.2	0.00e+00	0	39	0	0	59	4754
2026-01-21 12:09:35.30	254.89	10.12	-44.2	-46.3	17.3	0.00e+00	0	38	0	0	59	4727
2026-01-21 12:09:36.44	255.09	10.15	-44.2	-46.2	17.3	0.00e+00	0	38	0	0	59	4697
2026-01-21 12:09:37.29	255.23	10.18	-44.2	-46.2	17.3	0.00e+00	0	38	0	0	59	4704
2026-01-21 12:09:38.43	255.42	10.22	-44.1	-46.2	17.3	0.00e+00	0	38	0	0	59	4665
2026-01-21 12:09:39.28	255.56	10.24	-44.2	-46.2	17.4	0.00e+00	0	38	0	0	59	4668
2026-01-21 12:09:40.42	255.76	10.28	-44.3	-46.3	17.2	0.00e+00	0	39	0	0	59	4734
2026-01-21 12:09:41.27	255.90	10.31	-44.1	-46.2	17.4	0.00e+00	0	38	0	0	59	4663
2026-01-21 12:09:42.41	256.09	10.34	-44.2	-46.2	17.4	0.00e+00	0	39	0	0	59	4671
2026-01-21 12:09:43.26	256.24	10.37	-44.2	-46.2	17.3	0.00e+00	0	38	0	0	59	4676
2026-01-21 12:09:44.40	256.43	10.41	-44.1	-46.1	17.5	0.00e+00	0	38	0	0	59	4612
2026-01-21 12:09:45.25	256.58	10.43	-44.1	-46.1	17.4	0.00e+00	0	38	0	0	59	4648
2026-01-21 12:09:46.39	256.77	10.47	-44.1	-46.2	17.4	0.00e+00	0	39	0	0	59	4664
2026-01-21 12:09:47.29	256.93	10.49	-44.1	-46.1	17.4	0.00e+00	0	38	0	0	59	4633
2026-01-21 12:09:48.57	257.15	10.53	-44.1	-46.1	17.4	0.00e+00	0	38	0	0	59	4644
2026-01-21 12:09:49.28	257.27	10.55	-44.0	-46.0	17.5	0.00e+00	0	39	0	0	59	4598
2026-01-21 12:09:50.56	257.49	10.59	-44.0	-46.0	17.5	0.00e+00	0	38	0	0	59	4576
2026-01-21 12:09:51.29	257.62	10.61	-44.0	-46.0	17.5	0.00e+00	0	38	0	0	59	4582
2026-01-21 12:09:52.57	257.84	10.65	-44.0	-46.1	17.5	0.00e+00	0	39	0	0	59	4603
2026-01-21 12:09:53.29	257.97	10.67	-44.1	-46.1	17.4	0.00e+00	0	38	0	0	59	4636
2026-01-21 12:09:54.57	258.19	10.71	-44.0	-46.0	17.5	0.00e+00	0	38	0	0	59	4592
2026-01-21 12:09:55.28	258.31	10.73	-44.1	-46.1	17.4	3.00e-06	0	38	0	0	59	4640
2026-01-21 12:09:56.56	258.54	10.77	-44.2	-46.2	17.3	0.00e+00	0	39	0	0	59	4676
2026-01-21 12:09:57.27	258.66	10.79	-44.3	-46.3	17.2	0.00e+00	0	39	0	0	59	4738
2026-01-21 12:09:58.55	258.88	10.82	-44.2	-46.3	17.2	0.00e+00	0	39	0	0	59	4735
2026-01-21 12:09:59.28	259.01	10.84	-44.3	-46.4	17.1	0.00e+00	0	39	0	0	59	4801
2026-01-21 12:10:00.56	259.24	10.88	-44.3	-46.4	17.2	0.00e+00	0	39	0	0	59	4761
2026-01-21 12:10:01.27	259.36	10.90	-44.4	-46.5	17.0	0.00e+00	0	39	0	0	59	4826
2026-01-21 12:10:02.64	259.60	10.94	-44.2	-46.3	17.3	0.00e+00	0	39	0	0	59	4706
2026-01-21 12:10:03.35	259.73	10.96	-44.1	-46.2	17.3	0.00e+00	0	38	0	0	59	4669
2026-01-21 12:10:04.63	259.96	10.99	-44.2	-46.3	17.2	0.00e+00	0	38	0	0	59	4745
2026-01-21 12:10:05.67	260.14	11.02	-44.0	-46.1	17.5	0.00e+00	0	38	0	0	59	4605
2026-01-21 12:10:06.93	260.37	11.05	-44.1	-46.1	17.4	0.00e+00	0	39	0	0	59	4642
2026-01-21 12:10:07.75	260.51	11.07	-44.1	-46.2	17.4	0.00e+00	0	38	0	0	59	4652
2026-01-21 12:10:08.89	260.72	11.10	-44.1	-46.2	17.4	0.00e+00	0	38	0	0	59	4656
2026-01-21 12:10:09.74	260.87	11.13	-44.2	-46.2	17.4	0.00e+00	0	39	0	0	59	4680
2026-01-21 12:10:10.88	261.07	11.15	-44.1	-46.1	17.4	0.00e+00	0	39	0	0	59	4648
2026-01-21 12:10:11.73	261.22	11.18	-44.1	-46.2	17.4	0.00e+00	0	39	0	0	59	4675
2026-01-21 12:10:12.87	261.43	11.20	-44.3	-46.3	17.3	0.00e+00	0	39	0	0	59	4738
2026-01-21 12:10:13.72	261.58	11.23	-44.3	-46.4	17.2	0.00e+00	0	39	0	0	59	4762
2026-01-21 12:10:14.86	261.79	11.25	-44.2	-46.2	17.3	0.00e+00	0	39	0	0	59	4705
2026-01-21 12:10:15.71	261.94	11.27	-44.2	-46.3	17.3	0.00e+00	0	38	0	0	59	4725
2026-01-21 12:10:16.85	262.15	11.30	-44.0	-46.0	17.6	0.00e+00	0	38	0	0	59	4571
2026-01-21 12:10:17.70	262.30	11.32	-44.0	-46.0	17.6	0.00e+00	0	39	0	0	59	4575
2026-01-21 12:10:18.93	262.53	11.35	-44.1	-46.1	17.4	0.00e+00	0	38	0	0	59	4646
2026-01-21 12:10:19.79	262.68	11.37	-44.1	-46.2	17.4	0.00e+00	0	39	0	0	59	4655
2026-01-21 12:10:21.00	262.90	11.40	-44.0	-46.0	17.5	0.00e+00	0	39	0	0	59	4584
2026-01-21 12:10:21.86	263.06	11.42	-44.0	-46.0	17.5	0.00e+00	0	39	0	0	59	4594
2026-01-21 12:10:23.07	263.28	11.45	-44.1	-46.1	17.4	0.00e+00	0	38	0	0	59	4643
2026-01-21 12:10:23.93	263.44	11.47	-44.1	-46.2	17.4	0.00e+00	0	39	0	0	59	4669
2026-01-21 12:10:25.06	263.64	11.49	-44.0	-46.0	17.6	0.00e+00	0	39	0	0	59	4573
2026-01-21 12:10:25.92	263.80	11.51	-44.0	-46.0	17.5	0.00e+00	0	39	0	0	59	4578
2026-01-21 12:10:27.05	264.01	11.54	-44.0	-46.0	17.6	0.00e+00	0	39	0	0	59	4547
2026-01-21 12:10:27.91	264.17	11.56	-43.9	-45.9	17.7	0.00e+00	0	39	0	0	59	4512
2026-01-21 12:10:29.04	264.38	11.58	-44.0	-46.0	17.6	0.00e+00	0	39	0	0	59	4549
2026-01-21 12:10:29.90	264.54	11.60	-43.8	-45.7	17.8	0.00e+00	0	39	0	0	59	4431
2026-01-21 12:10:31.03	264.74	11.62	-43.9	-45.8	17.7	0.00e+00	0	39	0	0	59	4471
2026-01-21 12:10:31.89	264.90	11.64	-43.9	-45.9	17.7	0.00e+00	0	38	0	0	59	4501
2026-01-21 12:10:33.02	265.11	11.66	-43.9	-45.9	17.6	0.00e+00	0	39	0	0	59	4519
2026-01-21 12:10:33.88	265.27	11.68	-44.0	-46.0	17.6	0.00e+00	0	38	0	0	59	4566
2026-01-21 12:10:35.01	265.48	11.70	-44.1	-46.1	17.5	0.00e+00	0	39	0	0	59	4636
2026-01-21 12:10:35.87	265.64	11.72	-44.1	-46.2	17.4	0.00e+00	0	39	0	0	59	4667
2026-01-21 12:10:37.01	265.85	11.74	-44.1	-46.1	17.4	0.00e+00	0	39	0	0	59	4637
2026-01-21 12:10:37.86	266.01	11.76	-44.1	-46.1	17.5	0.00e+00	0	39	0	0	59	4629
2026-01-21 12:10:39.11	266.25	11.78	-44.0	-46.0	17.5	0.00e+00	0	39	0	0	59	4578
2026-01-21 12:10:39.96	266.40	11.80	-44.0	-46.0	17.6	0.00e+00	0	39	0	0	59	4567
2026-01-21 12:10:41.10	266.62	11.82	-43.9	-45.9	17.6	3.00e-06	0	39	0	0	59	4531
2026-01-21 12:10:41.95	266.78	11.83	-43.8	-45.8	17.7	0.00e+00	0	38	0	0	59	4451
2026-01-21 12:10:43.09	266.99	11.85	-43.8	-45.7	17.7	0.00e+00	0	38	0	0	59	4431
2026-01-21 12:10:43.94	267.15	11.87	-43.8	-45.8	17.6	0.00e+00	0	39	0	0	59	4460
2026-01-21 12:10:45.08	267.37	11.89	-43.9	-45.9	17.6	0.00e+00	0	39	0	0	59	4498
2026-01-21 12:10:46.00	267.54	11.90	-43.9	-45.8	17.6	0.00e+00	0	39	0	0	59	4485
2026-01-21 12:10:46.99	267.72	11.92	-43.9	-46.0	17.5	0.00e+00	0	39	0	0	59	4546
2026-01-21 12:10:47.99	267.91	11.94	-44.0	-46.0	17.5	0.00e+00	0	38	0	0	59	4555
2026-01-21 12:10:48.98	268.10	11.95	-43.9	-45.9	17.6	0.00e+00	0	39	0	0	59	4536
2026-01-21 12:10:49.98	268.29	11.97	-44.0	-46.0	17.5	0.00e+00	0	38	0	0	59	4574
2026-01-21 12:10:50.97	268.48	11.98	-43.9	-45.9	17.6	0.00e+00	0	39	0	0	59	4527
2026-01-21 12:10:51.97	268.67	12.00	-43.9	-45.9	17.7	0.00e+00	0	38	0	0	59	4517
2026-01-21 12:10:52.96	268.85	12.01	-43.8	-45.7	17.8	0.00e+00	0	39	0	0	59	4440
2026-01-21 12:10:53.96	269.04	12.03	-43.9	-45.9	17.7	0.00e+00	0	38	0	0	59	4501
2026-01-21 12:10:54.95	269.23	12.04	-43.8	-45.8	17.7	0.00e+00	0	38	0	0	59	4446
2026-01-21 12:10:55.95	269.42	12.06	-43.9	-45.9	17.6	0.00e+00	0	38	0	0	59	4512
2026-01-21 12:10:56.94	269.61	12.07	-44.0	-46.0	17.5	0.00e+00	0	39	0	0	59	4569
2026-01-21 12:10:57.96	269.80	12.08	-44.0	-46.0	17.4	0.00e+00	0	38	0	0	59	4592
2026-01-21 12:10:58.95	269.99	12.10	-44.0	-46.0	17.4	0.00e+00	0	38	0	0	59	4592
2026-01-21 12:10:59.95	270.18	12.11	-44.1	-46.1	17.4	0.00e+00	0	38	0	0	59	4647
2026-01-21 12:11:00.94	270.37	12.12	-44.1	-46.1	17.4	0.00e+00	0	38	0	0	59	4611
2026-01-21 12:11:01.94	270.56	12.14	-44.0	-46.0	17.5	0.00e+00	0	38	0	0	59	4581
2026-01-21 12:11:02.93	270.75	12.15	-43.9	-45.9	17.6	0.00e+00	0	39	0	0	59	4537
2026-01-21 12:11:03.93	270.95	12.16	-43.9	-45.9	17.6	0.00e+00	0	39	0	0	59	4534
2026-01-21 12:11:04.92	271.13	12.17	-43.8	-45.7	17.8	0.00e+00	0	38	0	0	59	4424
2026-01-21 12:11:05.92	271.33	12.18	-43.7	-45.7	17.8	0.00e+00	0	39	0	0	59	4420
2026-01-21 12:11:06.91	271.52	12.19	-43.6	-45.5	17.9	0.00e+00	0	38	0	0	59	4325
2026-01-21 12:11:07.91	271.71	12.21	-43.6	-45.5	18.0	0.00e+00	0	38	0	0	59	4321
2026-01-21 12:11:08.90	271.90	12.22	-43.7	-45.6	17.9	0.00e+00	0	39	0	0	59	4371
2026-01-21 12:11:09.90	272.09	12.23	-43.7	-45.7	17.8	0.00e+00	0	38	0	0	59	4402
2026-01-21 12:11:10.89	272.28	12.24	-43.7	-45.7	17.8	0.00e+00	0	38	0	0	59	4400
2026-01-21 12:11:11.89	272.47	12.25	-43.7	-45.7	17.8	0.00e+00	0	38	0	0	59	4413
2026-01-21 12:11:12.88	272.66	12.26	-43.9	-45.9	17.7	0.00e+00	0	39	0	0	59	4504
2026-01-21 12:11:13.88	272.86	12.27	-43.8	-45.8	17.7	0.00e+00	0	39	0	0	59	4477
2026-01-21 12:11:14.94	273.06	12.27	-43.8	-45.8	17.7	0.00e+00	0	39	0	0	59	4479
2026-01-21 12:11:15.84	273.24	12.28	-43.8	-45.8	17.8	0.00e+00	0	38	0	0	59	4450
2026-01-21 12:11:16.86	273.43	12.29	-43.9	-45.8	17.7	0.00e+00	0	39	0	0	59	4485
2026-01-21 12:11:17.86	273.63	12.30	-43.8	-45.8	17.8	0.00e+00	0	38	0	0	59	4442
2026-01-21 12:11:18.85	273.82	12.31	-43.8	-45.8	17.7	0.00e+00	0	39	0	0	59	4475
2026-01-21 12:11:19.85	274.01	12.31	-43.9	-45.9	17.6	0.00e+00	0	39	0	0	59	4525
2026-01-21 12:11:20.84	274.20	12.32	-44.0	-45.9	17.6	0.00e+00	0	38	0	0	59	4542
2026-01-21 12:11:21.84	274.40	12.33	-44.1	-46.1	17.5	0.00e+00	0	38	0	0	59	4610
2026-01-21 12:11:22.83	274.59	12.33	-44.0	-46.0	17.5	0.00e+00	0	39	0	0	59	4570
2026-01-21 12:11:23.83	274.78	12.34	-44.0	-46.0	17.6	0.00e+00	0	39	0	0	59	4551
2026-01-21 12:11:24.82	274.97	12.35	-43.9	-46.0	17.6	0.00e+00	0	39	0	0	59	4546
2026-01-21 12:11:25.82	275.17	12.35	-44.0	-46.0	17.6	0.00e+00	0	39	0	0	59	4555
2026-01-21 12:11:26.81	275.36	12.36	-43.8	-45.8	17.7	0.00e+00	0	38	0	0	59	4461
2026-01-21 12:11:27.85	275.56	12.36	-43.7	-45.7	17.8	0.00e+00	0	39	0	0	59	4420
2026-01-21 12:11:28.83	275.75	12.37	-43.7	-45.7	17.8	0.00e+00	0	38	0	0	59	4394
2026-01-21 12:11:29.83	275.94	12.37	-43.8	-45.7	17.7	0.00e+00	0	39	0	0	59	4434
2026-01-21 12:11:30.82	276.14	12.38	-43.6	-45.5	17.9	0.00e+00	0	39	0	0	59	4318
2026-01-21 12:11:31.82	276.33	12.38	-43.5	-45.4	18.0	0.00e+00	0	39	0	0	59	4291
2026-01-21 12:11:33.02	276.56	12.38	-43.7	-45.6	17.8	0.00e+00	0	39	0	0	59	4364
2026-01-21 12:11:33.87	276.73	12.39	-43.6	-45.5	17.9	0.00e+00	0	39	0	0	59	4312
2026-01-21 12:11:35.01	276.95	12.39	-43.6	-45.5	18.0	0.00e+00	0	39	0	0	59	4308
2026-01-21 12:11:35.86	277.12	12.39	-43.6	-45.6	17.9	0.00e+00	0	38	0	0	59	4355
2026-01-21 12:11:37.00	277.34	12.40	-43.5	-45.4	18.1	0.00e+00	0	39	0	0	58	4525
2026-01-21 12:11:37.85	277.50	12.40	-43.5	-45.4	18.1	0.00e+00	0	39	0	0	58	4515
2026-01-21 12:11:38.99	277.72	12.40	-43.5	-45.4	18.1	0.00e+00	0	39	0	0	58	4522
2026-01-21 12:11:39.84	277.89	12.40	-43.5	-45.4	18.1	0.00e+00	0	39	0	0	58	4537
2026-01-21 12:11:40.97	278.11	12.40	-43.6	-45.6	18.0	0.00e+00	0	38	0	0	58	4621
2026-01-21 12:11:41.83	278.28	12.40	-43.7	-45.7	17.9	0.00e+00	0	39	0	0	58	4679
2026-01-21 12:11:42.98	278.50	12.40	-43.7	-45.6	17.9	0.00e+00	0	39	0	0	58	4626
2026-01-21 12:11:43.83	278.66	12.40	-43.7	-45.7	17.9	0.00e+00	0	39	0	0	58	4667
2026-01-21 12:11:44.97	278.89	12.40	-43.7	-45.7	17.9	0.00e+00	0	39	0	0	58	4657
2026-01-21 12:11:45.82	279.05	12.40	-43.8	-45.7	17.8	0.00e+00	0	39	0	0	58	4685
2026-01-21 12:11:46.95	279.27	12.40	-43.8	-45.7	17.8	0.00e+00	0	39	0	0	58	4704
2026-01-21 12:11:47.81	279.44	12.40	-43.8	-45.8	17.7	0.00e+00	0	39	0	0	58	4736
2026-01-21 12:11:48.95	279.66	12.40	-43.8	-45.8	17.7	0.00e+00	0	39	0	0	58	4724
2026-01-21 12:11:49.80	279.82	12.40	-43.7	-45.7	17.8	0.00e+00	0	39	0	0	58	4683
2026-01-21 12:11:50.94	280.05	12.40	-43.7	-45.6	17.8	0.00e+00	0	39	0	0	58	4647
2026-01-21 12:11:51.79	280.21	12.40	-43.7	-45.7	17.8	0.00e+00	0	39	0	0	58	4654
2026-01-21 12:11:52.93	280.43	12.39	-43.8	-45.8	17.7	0.00e+00	0	39	0	0	58	4720
2026-01-21 12:11:53.78	280.60	12.39	-43.8	-45.7	17.8	0.00e+00	0	39	0	0	58	4694
2026-01-21 12:11:54.92	280.82	12.39	-43.7	-45.6	17.9	0.00e+00	0	39	0	0	58	4634
2026-01-21 12:11:55.77	280.98	12.39	-43.7	-45.6	17.9	0.00e+00	0	39	0	0	58	4611
2026-01-21 12:11:56.91	281.21	12.38	-43.6	-45.5	18.0	0.00e+00	0	39	0	0	58	4576
2026-01-21 12:11:57.76	281.37	12.38	-43.5	-45.5	18.0	0.00e+00	0	38	0	0	58	4552
2026-01-21 12:11:58.90	281.59	12.37	-43.7	-45.6	17.9	0.00e+00	0	38	0	0	58	4611
2026-01-21 12:11:59.75	281.76	12.37	-43.7	-45.6	17.8	0.00e+00	0	39	0	0	58	4641
2026-01-21 12:12:00.92	281.98	12.36	-43.8	-45.8	17.8	0.00e+00	0	39	0	0	58	4708
2026-01-21 12:12:01.77	282.15	12.36	-43.8	-45.7	17.8	0.00e+00	0	39	0	0	58	4696
2026-01-21 12:12:02.91	282.37	12.35	-43.7	-45.6	17.9	0.00e+00	0	39	0	0	58	4629
2026-01-21 12:12:03.76	282.53	12.35	-43.7	-45.6	17.9	0.00e+00	0	38	0	0	58	4634
2026-01-21 12:12:04.89	282.75	12.34	-43.8	-45.7	17.8	0.00e+00	0	39	0	0	58	4680
2026-01-21 12:12:05.81	282.93	12.34	-43.8	-45.7	17.8	0.00e+00	0	39	0	0	58	4705
2026-01-21 12:12:06.81	283.12	12.33	-43.7	-45.6	17.9	0.00e+00	0	39	0	0	58	4647
2026-01-21 12:12:07.80	283.32	12.32	-43.8	-45.7	17.8	0.00e+00	0	38	0	0	58	4702
2026-01-21 12:12:08.80	283.51	12.32	-43.7	-45.7	17.9	0.00e+00	0	39	0	0	58	4663
2026-01-21 12:12:09.79	283.70	12.31	-43.8	-45.8	17.8	0.00e+00	0	39	0	0	58	4709
2026-01-21 12:12:10.79	283.89	12.30	-43.8	-45.8	17.8	0.00e+00	0	39	0	0	58	4708
2026-01-21 12:12:11.78	284.08	12.29	-43.7	-45.7	17.9	0.00e+00	0	39	0	0	58	4675
2026-01-21 12:12:12.78	284.28	12.29	-43.8	-45.8	17.8	0.00e+00	0	39	0	0	58	4706
2026-01-21 12:12:13.77	284.47	12.28	-43.9	-45.9	17.8	0.00e+00	0	38	0	0	58	4779
2026-01-21 12:12:14.77	284.66	12.27	-43.9	-45.9	17.7	0.00e+00	0	39	0	0	58	4779
2026-01-21 12:12:15.76	284.85	12.26	-43.9	-45.9	17.7	0.00e+00	0	39	0	0	58	4798
2026-01-21 12:12:16.76	285.04	12.25	-44.0	-46.0	17.6	0.00e+00	0	38	0	0	58	4828
2026-01-21 12:12:17.83	285.25	12.24	-44.0	-46.1	17.5	0.00e+00	0	39	0	0	58	4871
2026-01-21 12:12:18.72	285.42	12.23	-44.0	-46.0	17.6	0.00e+00	0	39	0	0	58	4857
2026-01-21 12:12:19.86	285.64	12.22	-44.0	-46.0	17.6	0.00e+00	0	39	0	0	58	4855
2026-01-21 12:12:20.71	285.80	12.21	-44.1	-46.2	17.4	0.00e+00	0	39	0	0	58	4935
2026-01-21 12:12:21.85	286.02	12.20	-44.1	-46.1	17.5	0.00e+00	0	39	0	0	58	4904
2026-01-21 12:12:22.70	286.18	12.19	-44.0	-46.0	17.6	0.00e+00	0	39	0	0	58	4827
2026-01-21 12:12:23.84	286.40	12.18	-44.1	-46.1	17.5	0.00e+00	0	39	0	0	58	4912
2026-01-21 12:12:24.69	286.56	12.17	-44.0	-46.0	17.6	0.00e+00	0	39	0	0	58	4840
2026-01-21 12:12:25.83	286.78	12.15	-43.8	-45.8	17.8	0.00e+00	0	38	0	0	58	4735
2026-01-21 12:12:26.69	286.95	12.14	-43.9	-45.9	17.7	0.00e+00	0	39	0	0	58	4765
2026-01-21 12:12:27.82	287.16	12.13	-44.0	-45.9	17.7	0.00e+00	0	38	0	0	58	4799
2026-01-21 12:12:28.68	287.33	12.12	-44.0	-45.9	17.7	0.00e+00	0	38	0	0	58	4806
2026-01-21 12:12:29.81	287.54	12.10	-43.9	-45.8	17.7	0.00e+00	0	38	0	0	58	4753
2026-01-21 12:12:30.67	287.70	12.09	-43.9	-45.9	17.7	0.00e+00	0	38	0	0	58	4800
2026-01-21 12:12:31.80	287.92	12.08	-44.0	-45.9	17.7	0.00e+00	0	38	0	0	58	4804
2026-01-21 12:12:32.66	288.08	12.06	-43.9	-45.8	17.7	0.00e+00	0	39	0	0	58	4756
2026-01-21 12:12:33.79	288.30	12.05	-43.9	-45.9	17.7	0.00e+00	0	39	0	0	58	4796
2026-01-21 12:12:34.65	288.46	12.04	-44.0	-46.0	17.6	0.00e+00	0	39	0	0	58	4838
2026-01-21 12:12:35.78	288.67	12.02	-44.1	-46.1	17.5	0.00e+00	0	39	0	0	58	4872
2026-01-21 12:12:36.81	288.87	12.00	-44.1	-46.1	17.5	0.00e+00	0	39	0	0	58	4889
2026-01-21 12:12:37.98	289.09	11.99	-43.9	-45.9	17.7	0.00e+00	0	39	0	0	58	4767
2026-01-21 12:12:38.83	289.25	11.97	-44.0	-46.0	17.6	0.00e+00	0	39	0	0	58	4838
2026-01-21 12:12:39.97	289.47	11.95	-43.9	-45.9	17.7	0.00e+00	0	39	0	0	58	4780
2026-01-21 12:12:40.82	289.63	11.94	-44.0	-45.9	17.6	0.00e+00	0	39	0	0	58	4811
2026-01-21 12:12:41.95	289.84	11.92	-44.0	-45.9	17.6	0.00e+00	0	39	0	0	58	4813
2026-01-21 12:12:42.81	290.00	11.91	-43.9	-45.8	17.7	0.00e+00	0	39	0	0	58	4749
2026-01-21 12:12:43.94	290.21	11.89	-44.0	-46.0	17.6	0.00e+00	0	39	0	0	58	4833
2026-01-21 12:12:44.80	290.37	11.87	-44.2	-46.2	17.4	0.00e+00	0	39	0	0	59	4678
2026-01-21 12:12:45.93	290.59	11.85	-44.2	-46.2	17.4	0.00e+00	0	39	0	0	59	4680
2026-01-21 12:12:46.79	290.75	11.84	-44.2	-46.2	17.4	0.00e+00	0	38	0	0	59	4694
2026-01-21 12:12:47.93	290.96	11.82	-44.2	-46.2	17.3	0.00e+00	0	39	0	0	59	4705
2026-01-21 12:12:48.78	291.12	11.80	-44.2	-46.2	17.3	0.00e+00	0	39	0	0	59	4695
2026-01-21 12:12:49.92	291.33	11.78	-44.2	-46.2	17.4	0.00e+00	0	39	0	0	59	4694
2026-01-21 12:12:50.77	291.49	11.77	-44.2	-46.2	17.4	0.00e+00	0	39	0	0	59	4677
2026-01-21 12:12:51.91	291.70	11.75	-44.2	-46.2	17.4	0.00e+00	0	39	0	0	59	4702
2026-01-21 12:12:52.76	291.86	11.73	-44.4	-46.4	17.2	0.00e+00	0	39	0	0	59	4784
2026-01-21 12:12:53.90	292.07	11.71	-44.3	-46.4	17.2	0.00e+00	0	39	0	0	59	4766
2026-01-21 12:12:54.75	292.23	11.69	-44.4	-46.4	17.2	0.00e+00	0	39	0	0	59	4791
2026-01-21 12:12:55.89	292.44	11.67	-44.3	-46.4	17.2	0.00e+00	0	38	0	0	59	4780
2026-01-21 12:12:56.74	292.60	11.65	-44.4	-46.4	17.2	0.00e+00	0	39	0	0	59	4790
2026-01-21 12:12:57.88	292.81	11.63	-44.3	-46.4	17.2	0.00e+00	0	39	0	0	59	4760
2026-01-21 12:12:58.73	292.96	11.61	-44.3	-46.4	17.2	0.00e+00	0	39	0	0	59	4761
2026-01-21 12:12:59.86	293.17	11.59	-44.3	-46.3	17.2	0.00e+00	0	39	0	0	59	4755
2026-01-21 12:13:00.71	293.33	11.57	-44.3	-46.3	17.2	0.00e+00	0	39	0	0	59	4739
2026-01-21 12:13:01.88	293.54	11.54	-44.2	-46.2	17.3	0.00e+00	0	39	0	0	59	4703
2026-01-21 12:13:02.73	293.70	11.52	-44.2	-46.2	17.3	0.00e+00	0	39	0	0	59	4701
2026-01-21 12:13:03.93	293.92	11.50	-44.3	-46.3	17.2	0.00e+00	0	39	0	0	59	4732
2026-01-21 12:13:04.79	294.07	11.48	-44.3	-46.3	17.3	0.00e+00	0	39	0	0	59	4742
2026-01-21 12:13:05.93	294.28	11.45	-44.3	-46.4	17.2	0.00e+00	0	39	0	0	59	4776
2026-01-21 12:13:06.78	294.44	11.43	-44.3	-46.4	17.2	0.00e+00	0	39	0	0	59	4769
2026-01-21 12:13:07.91	294.64	11.41	-44.4	-46.5	17.1	0.00e+00	0	38	0	0	59	4822
2026-01-21 12:13:08.77	294.80	11.39	-44.3	-46.3	17.2	0.00e+00	0	39	0	0	59	4751
2026-01-21 12:13:10.09	295.04	11.36	-44.4	-46.4	17.1	0.00e+00	0	39	0	0	59	4791
2026-01-21 12:13:10.80	295.17	11.34	-44.5	-46.6	17.0	0.00e+00	0	39	0	0	59	4882
2026-01-21 12:13:12.08	295.40	11.31	-44.4	-46.5	17.0	0.00e+00	0	39	0	0	59	4855
2026-01-21 12:13:12.79	295.53	11.29	-44.5	-46.6	16.9	0.00e+00	0	39	0	0	59	4900
2026-01-21 12:13:14.07	295.76	11.26	-44.5	-46.6	16.9	0.00e+00	0	39	0	0	59	4906
2026-01-21 12:13:14.83	295.89	11.24	-44.5	-46.6	16.9	0.00e+00	0	39	0	0	59	4902
2026-01-21 12:13:16.11	296.12	11.21	-44.6	-46.7	16.9	0.00e+00	0	39	0	0	59	4952
2026-01-21 12:13:16.82	296.25	11.19	-44.5	-46.6	17.0	0.00e+00	0	39	0	0	59	4877
2026-01-21 12:13:18.10	296.48	11.16	-44.4	-46.4	17.1	0.00e+00	0	39	0	0	59	4810
2026-01-21 12:13:18.81	296.61	11.14	-44.4	-46.4	17.1	0.00e+00	0	39	0	0	59	4801
2026-01-21 12:13:20.09	296.83	11.11	-44.4	-46.5	17.0	0.00e+00	0	39	0	0	59	4839
2026-01-21 12:13:20.83	296.97	11.09	-44.5	-46.6	17.0	0.00e+00	0	39	0	0	59	4880
2026-01-21 12:13:22.11	297.19	11.06	-44.5	-46.5	17.0	0.00e+00	0	39	0	0	59	4859
2026-01-21 12:13:22.82	297.32	11.04	-44.4	-46.4	17.1	0.00e+00	0	39	0	0	59	4813
2026-01-21 12:13:24.16	297.56	11.00	-44.4	-46.5	17.0	0.00e+00	0	39	0	0	59	4849
2026-01-21 12:13:24.87	297.68	10.99	-44.5	-46.5	17.0	0.00e+00	0	39	0	0	59	4855
2026-01-21 12:13:26.15	297.91	10.95	-44.5	-46.6	17.0	0.00e+00	0	39	0	0	59	4897
2026-01-21 12:13:26.88	298.04	10.93	-44.5	-46.6	16.9	0.00e+00	0	39	0	0	59	4893
2026-01-21 12:13:28.25	298.28	10.89	-44.6	-46.7	16.9	0.00e+00	0	39	0	0	59	4943
2026-01-21 12:13:28.96	298.40	10.87	-44.6	-46.7	16.9	0.00e+00	0	39	0	0	59	4936
2026-01-21 12:13:30.24	298.62	10.84	-44.7	-46.8	16.8	0.00e+00	0	38	0	0	60	4742
2026-01-21 12:13:30.95	298.75	10.82	-44.7	-46.9	16.7	0.00e+00	0	39	0	0	60	4773
2026-01-21 12:13:32.22	298.97	10.78	-44.8	-47.0	16.7	0.00e+00	0	39	0	0	60	4823
2026-01-21 12:13:32.95	299.10	10.76	-44.8	-47.0	16.6	0.00e+00	0	38	0	0	60	4865
2026-01-21 12:13:34.23	299.32	10.73	-44.6	-46.8	16.8	0.00e+00	0	39	0	0	60	4734
2026-01-21 12:13:34.94	299.44	10.71	-44.7	-46.8	16.8	0.00e+00	0	39	0	0	60	4729
2026-01-21 12:13:36.21	299.66	10.67	-44.5	-46.6	17.0	0.00e+00	0	39	0	0	60	4607
2026-01-21 12:13:36.93	299.79	10.65	-44.5	-46.6	17.0	0.00e+00	0	38	0	0	60	4605
2026-01-21 12:13:38.20	300.01	10.61	-44.5	-46.6	17.0	0.00e+00	0	38	0	0	60	4635
2026-01-21 12:13:38.98	300.14	10.59	-44.6	-46.7	16.9	0.00e+00	0	38	0	0	60	4675
2026-01-21 12:13:40.25	300.36	10.55	-44.6	-46.7	16.9	0.00e+00	0	39	0	0	60	4652
2026-01-21 12:13:41.04	300.49	10.53	-44.6	-46.7	16.9	0.00e+00	0	39	0	0	60	4683
2026-01-21 12:13:42.24	300.70	10.49	-44.8	-46.9	16.7	0.00e+00	0	39	0	0	60	4805
2026-01-21 12:13:43.21	300.86	10.46	-44.8	-46.9	16.7	0.00e+00	0	39	0	0	60	4778
2026-01-21 12:13:44.37	301.06	10.43	-44.8	-46.9	16.7	0.00e+00	0	39	0	0	60	4803
2026-01-21 12:13:45.26	301.21	10.40	-44.8	-47.0	16.7	0.00e+00	0	39	0	0	60	4825
2026-01-21 12:13:46.40	301.41	10.36	-44.8	-46.9	16.7	0.00e+00	0	39	0	0	60	4811
2026-01-21 12:13:47.25	301.55	10.34	-44.7	-46.9	16.7	0.00e+00	0	39	0	0	60	4769
2026-01-21 12:13:48.61	301.78	10.29	-44.7	-46.8	16.8	0.00e+00	0	39	0	0	60	4736
2026-01-21 12:13:49.32	301.90	10.27	-44.7	-46.9	16.8	0.00e+00	0	39	0	0	60	4770
2026-01-21 12:13:50.60	302.12	10.23	-44.7	-46.9	16.7	0.00e+00	0	39	0	0	60	4796
2026-01-21 12:13:51.31	302.23	10.21	-44.7	-46.8	16.7	0.00e+00	0	39	0	0	60	4755
2026-01-21 12:13:52.59	302.45	10.17	-44.7	-46.9	16.7	0.00e+00	0	39	0	0	60	4771
2026-01-21 12:13:53.31	302.57	10.14	-44.8	-47.0	16.6	0.00e+00	0	39	0	0	60	4848
2026-01-21 12:13:54.59	302.78	10.10	-44.9	-47.1	16.5	0.00e+00	0	39	0	0	60	4895
2026-01-21 12:13:55.40	302.92	10.08	-44.9	-47.2	16.4	0.00e+00	0	39	0	0	60	4937
2026-01-21 12:13:56.53	303.10	10.04	-45.0	-47.2	16.4	0.00e+00	0	39	0	0	60	4961
2026-01-21 12:13:57.39	303.25	10.01	-44.9	-47.2	16.4	0.00e+00	0	39	0	0	60	4928
2026-01-21 12:13:58.53	303.44	9.97	-44.9	-47.1	16.4	0.00e+00	0	39	0	0	60	4915
2026-01-21 12:13:59.37	303.57	9.95	-44.8	-47.0	16.5	0.00e+00	0	39	0	0	60	4831
2026-01-21 12:14:00.51	303.76	9.91	-44.9	-47.1	16.5	0.00e+00	0	39	0	0	60	4875
2026-01-21 12:14:01.37	303.90	9.88	-45.0	-47.2	16.3	0.00e+00	0	39	0	0	60	4940
2026-01-21 12:14:02.50	304.09	9.84	-45.0	-47.2	16.3	0.00e+00	0	39	0	0	60	4971
2026-01-21 12:14:03.35	304.23	9.81	-44.9	-47.2	16.3	0.00e+00	0	39	0	0	60	4929
2026-01-21 12:14:04.49	304.41	9.77	-44.9	-47.1	16.4	0.00e+00	0	39	0	0	60	4916
2026-01-21 12:14:05.34	304.55	9.75	-44.8	-47.0	16.4	0.00e+00	0	39	0	0	60	4868
2026-01-21 12:14:06.48	304.74	9.71	-44.8	-47.0	16.5	0.00e+00	0	39	0	0	60	4847
2026-01-21 12:14:07.33	304.87	9.68	-44.8	-47.0	16.5	0.00e+00	0	39	0	0	60	4845
2026-01-21 12:14:08.69	305.09	9.63	-44.8	-47.0	16.5	0.00e+00	0	39	0	0	60	4826
2026-01-21 12:14:09.40	305.21	9.61	-44.8	-46.9	16.6	0.00e+00	0	38	0	0	60	4808
2026-01-21 12:14:10.68	305.41	9.56	-44.8	-47.0	16.5	0.00e+00	0	39	0	0	60	4847
2026-01-21 12:14:11.39	305.53	9.54	-44.8	-47.0	16.5	0.00e+00	0	39	0	0	60	4850
2026-01-21 12:14:12.67	305.73	9.49	-44.9	-47.2	16.3	0.00e+00	0	39	0	0	60	4971
2026-01-21 12:14:13.38	305.85	9.47	-44.8	-47.1	16.5	0.00e+00	0	39	0	0	60	4890
2026-01-21 12:14:14.65	306.05	9.42	-44.7	-46.9	16.6	0.00e+00	0	39	0	0	60	4802
2026-01-21 12:14:15.37	306.16	9.40	-44.8	-47.1	16.5	0.00e+00	0	39	0	0	60	4876
2026-01-21 12:14:16.64	306.36	9.35	-45.0	-47.3	16.2	0.00e+00	0	39	0	0	60	5032
2026-01-21 12:14:17.35	306.48	9.32	-45.2	-47.6	15.9	0.00e+00	0	39	0	0	61	4910
2026-01-21 12:14:18.63	306.68	9.28	-45.4	-47.7	15.8	0.00e+00	0	39	0	0	61	4981
2026-01-21 12:14:19.34	306.79	9.25	-45.4	-47.7	15.9	0.00e+00	0	39	0	0	61	4970
2026-01-21 12:14:20.64	306.99	9.21	-45.2	-47.5	16.1	0.00e+00	0	39	0	0	61	4821
2026-01-21 12:14:21.35	307.10	9.18	-45.1	-47.4	16.2	0.00e+00	0	39	0	0	61	4803
2026-01-21 12:14:22.63	307.30	9.13	-45.1	-47.4	16.1	0.00e+00	0	39	0	0	61	4807
2026-01-21 12:14:23.34	307.42	9.11	-45.1	-47.4	16.2	0.00e+00	0	39	0	0	61	4777
2026-01-21 12:14:24.76	307.64	9.06	-45.2	-47.5	16.1	0.00e+00	0	39	0	0	61	4836
2026-01-21 12:14:25.72	307.79	9.02	-45.3	-47.6	16.0	0.00e+00	0	38	0	0	61	4912
2026-01-21 12:14:27.03	307.99	8.97	-51.8	-64.2	3.8	7.49e-02	0	38	104	0	74	15705
2026-01-21 12:14:27.74	308.10	8.94	-52.1	-65.2	3.8	1.49e+00	0	39	104	0	74	17499
2026-01-21 12:14:29.02	308.29	8.90	-52.3	-65.3	3.8	1.49e+00	0	39	104	0	75	16885
2026-01-21 12:14:29.74	308.40	8.87	-52.4	-65.5	3.8	1.49e+00	0	39	104	0	75	17097
2026-01-21 12:14:31.02	308.60	8.82	-52.4	-65.5	3.8	1.49e+00	0	39	104	0	75	17281
2026-01-21 12:14:31.73	308.71	8.80	-52.6	-65.6	3.8	1.49e+00	0	39	104	0	75	17347
2026-01-21 12:14:33.01	308.90	8.75	-52.5	-65.7	3.8	1.49e+00	0	39	104	0	75	17495
2026-01-21 12:14:33.73	309.01	8.72	-52.6	-65.7	3.8	1.49e+00	0	39	104	0	75	17582
2026-01-21 12:14:35.01	309.21	8.67	-52.6	-65.7	3.8	1.49e+00	0	39	104	0	75	17519
2026-01-21 12:14:35.73	309.32	8.64	-52.7	-65.7	3.8	1.49e+00	0	39	104	0	76	16660
2026-01-21 12:14:37.01	309.51	8.59	-52.7	-65.7	3.8	1.49e+00	0	39	104	0	76	16642
2026-01-21 12:14:37.72	309.62	8.57	-52.6	-65.7	3.8	1.49e+00	0	39	104	0	76	16669
2026-01-21 12:14:39.01	309.81	8.52	-52.7	-65.7	3.8	1.49e+00	0	39	104	0	76	16670
2026-01-21 12:14:39.72	309.92	8.49	-52.6	-65.8	3.8	1.49e+00	0	39	104	0	76	16721
2026-01-21 12:14:41.00	310.11	8.44	-52.6	-65.7	3.8	1.49e+00	0	39	104	0	76	16692
2026-01-21 12:14:41.71	310.21	8.41	-52.6	-65.7	3.8	1.49e+00	0	39	104	0	76	16685
2026-01-21 12:14:42.98	310.40	8.36	-52.6	-65.8	3.8	1.49e+00	0	39	104	0	76	16739
2026-01-21 12:14:43.69	310.51	8.34	-52.5	-65.8	3.8	1.49e+00	0	39	104	0	76	16714
2026-01-21 12:14:44.97	310.69	8.29	-52.5	-65.7	3.8	1.49e+00	0	39	104	0	76	16640
2026-01-21 12:14:45.70	310.80	8.26	-52.5	-65.7	3.8	1.49e+00	0	39	104	0	76	16639
2026-01-21 12:14:46.97	310.99	8.21	-52.5	-65.7	3.8	1.49e+00	0	39	104	0	76	16653
2026-01-21 12:14:47.70	311.10	8.18	-52.5	-65.7	3.8	1.49e+00	0	39	104	0	76	16627
2026-01-21 12:14:48.97	311.28	8.13	-52.5	-65.7	3.8	1.49e+00	0	39	104	0	76	16568
2026-01-21 12:14:49.68	311.39	8.10	-52.4	-65.7	3.8	1.49e+00	0	39	104	0	76	16549
2026-01-21 12:14:50.96	311.57	8.05	-52.4	-65.7	3.8	1.49e+00	0	39	104	0	76	16566
2026-01-21 12:14:51.69	311.68	8.02	-52.4	-65.7	3.8	1.49e+00	0	39	104	0	76	16554
2026-01-21 12:14:52.96	311.86	7.97	-52.5	-65.7	3.8	1.49e+00	0	39	104	0	76	16557
2026-01-21 12:14:53.67	311.96	7.94	-52.5	-65.7	3.8	1.49e+00	0	39	104	0	76	16563
2026-01-21 12:14:54.95	312.15	7.89	-52.4	-65.7	3.8	1.49e+00	0	39	104	0	76	16536
2026-01-21 12:14:55.66	312.25	7.86	-52.5	-65.7	3.8	1.49e+00	0	39	104	0	76	16627
2026-01-21 12:14:56.94	312.43	7.81	-52.4	-65.7	3.8	1.49e+00	0	39	104	0	76	16539
2026-01-21 12:14:57.64	312.53	7.78	-52.4	-65.7	3.8	1.49e+00	0	39	104	0	76	16577
2026-01-21 12:14:58.92	312.71	7.73	-52.4	-65.6	3.8	1.49e+00	0	39	104	0	76	16498
2026-01-21 12:14:59.63	312.82	7.70	-52.4	-65.7	3.8	1.49e+00	0	39	104	0	76	16542
2026-01-21 12:15:00.91	313.00	7.65	-52.4	-65.6	3.8	1.49e+00	0	39	104	0	76	16495
2026-01-21 12:15:01.62	313.10	7.62	-52.4	-65.7	3.8	1.49e+00	0	39	104	0	76	16531
2026-01-21 12:15:02.91	313.28	7.57	-52.4	-65.7	3.8	1.49e+00	0	39	104	0	76	16547
2026-01-21 12:15:03.62	313.38	7.54	-52.4	-65.7	3.8	1.49e+00	0	39	104	0	76	16504
2026-01-21 12:15:04.90	313.56	7.49	-52.4	-65.6	3.8	1.49e+00	0	39	104	0	76	16491
2026-01-21 12:15:05.60	313.66	7.46	-52.4	-65.7	3.8	1.49e+00	0	39	104	0	76	16554
2026-01-21 12:15:06.88	313.83	7.41	-52.4	-65.6	3.8	1.49e+00	0	39	104	0	76	16500
2026-01-21 12:15:07.59	313.93	7.38	-52.4	-65.6	3.8	1.49e+00	0	39	104	0	76	16502
2026-01-21 12:15:08.87	314.11	7.33	-52.4	-65.7	3.8	1.49e+00	0	39	104	0	76	16524
2026-01-21 12:15:09.58	314.21	7.30	-52.4	-65.7	3.8	1.49e+00	0	39	104	0	76	16540
2026-01-21 12:15:10.86	314.38	7.24	-52.4	-65.6	3.8	1.49e+00	0	39	104	0	76	16477
2026-01-21 12:15:11.58	314.48	7.21	-52.4	-65.7	3.8	1.49e+00	0	39	104	0	76	16551
2026-01-21 12:15:12.86	314.66	7.16	-52.4	-65.6	3.8	1.49e+00	0	39	104	0	76	16484
2026-01-21 12:15:13.57	314.76	7.13	-52.4	-65.7	3.8	1.49e+00	0	39	104	0	76	16522
2026-01-21 12:15:14.84	314.93	7.08	-52.4	-65.7	3.8	1.49e+00	0	39	104	0	76	16519
2026-01-21 12:15:15.55	315.02	7.05	-52.4	-65.7	3.8	1.49e+00	0	39	104	0	76	16537
2026-01-21 12:15:16.83	315.20	7.00	-52.4	-65.6	3.8	1.49e+00	0	39	104	0	76	16452
2026-01-21 12:15:17.55	315.30	6.97	-52.4	-65.7	3.8	1.49e+00	0	39	104	0	76	16543
2026-01-21 12:15:18.83	315.47	6.91	-52.4	-65.6	3.8	1.49e+00	0	39	104	0	76	16488
2026-01-21 12:15:19.54	315.56	6.88	-52.4	-65.7	3.8	1.49e+00	0	39	104	0	76	16512
2026-01-21 12:15:20.82	315.74	6.83	-52.4	-65.7	3.8	1.49e+00	0	39	104	0	76	16525
2026-01-21 12:15:21.54	315.83	6.80	-52.4	-65.6	3.8	1.49e+00	0	39	104	0	76	16495
2026-01-21 12:15:22.82	316.00	6.74	-52.4	-65.7	3.8	1.49e+00	0	39	104	0	76	16533
2026-01-21 12:15:23.53	316.10	6.71	-52.4	-65.7	3.8	1.49e+00	0	39	104	0	76	16544
2026-01-21 12:15:24.80	316.26	6.66	-52.4	-65.7	3.8	1.49e+00	0	39	104	0	76	16536
2026-01-21 12:15:25.51	316.36	6.63	-52.4	-65.6	3.8	1.49e+00	0	39	104	0	76	16481
2026-01-21 12:15:26.79	316.53	6.58	-52.4	-65.6	3.8	1.49e+00	0	39	104	0	76	16485
2026-01-21 12:15:27.50	316.62	6.55	-52.4	-65.7	3.8	1.49e+00	0	39	104	0	76	16504
2026-01-21 12:15:28.78	316.79	6.49	-52.4	-65.7	3.8	1.49e+00	0	39	104	0	76	16545
2026-01-21 12:15:29.50	316.88	6.46	-52.4	-65.6	3.8	1.49e+00	0	39	104	0	76	16490
2026-01-21 12:15:30.78	317.05	6.41	-52.4	-65.6	3.8	1.49e+00	0	39	104	0	76	16493
2026-01-21 12:15:31.50	317.14	6.38	-52.4	-65.6	3.8	1.49e+00	0	39	104	0	76	16455
2026-01-21 12:15:32.78	317.31	6.32	-52.4	-65.7	3.8	1.49e+00	0	39	104	0	76	16513
2026-01-21 12:15:33.49	317.40	6.29	-52.4	-65.6	3.8	1.49e+00	0	39	104	0	76	16500
2026-01-21 12:15:34.77	317.57	6.24	-52.4	-65.6	3.8	1.49e+00	0	39	104	0	76	16462
2026-01-21 12:15:35.48	317.66	6.21	-52.4	-65.6	3.8	1.49e+00	0	39	104	0	76	16467
2026-01-21 12:15:36.75	317.82	6.15	-52.4	-65.7	3.8	1.49e+00	0	39	104	0	76	16520
2026-01-21 12:15:37.48	317.91	6.12	-52.4	-65.7	3.8	1.49e+00	0	39	104	0	76	16563
2026-01-21 12:15:38.75	318.08	6.07	-52.4	-65.6	3.8	1.49e+00	0	39	104	0	76	16499
2026-01-21 12:15:39.46	318.17	6.04	-52.4	-65.7	3.8	1.49e+00	0	39	104	0	76	16516
2026-01-21 12:15:40.74	318.33	5.98	-52.4	-65.7	3.8	1.49e+00	0	39	104	0	76	16532
2026-01-21 12:15:41.45	318.42	5.95	-52.4	-65.6	3.8	1.49e+00	0	39	104	0	76	16501
2026-01-21 12:15:42.73	318.58	5.90	-52.4	-65.6	3.8	1.49e+00	0	39	104	0	76	16436
2026-01-21 12:15:43.44	318.67	5.86	-52.4	-65.6	3.8	1.49e+00	0	39	104	0	76	16491
2026-01-21 12:15:44.72	318.83	5.81	-52.4	-65.6	3.8	1.49e+00	0	39	104	0	76	16493
2026-01-21 12:15:45.43	318.92	5.78	-52.4	-65.7	3.8	1.49e+00	0	39	104	0	76	16577
2026-01-21 12:15:46.70	319.08	5.72	-52.4	-65.6	3.8	1.49e+00	0	39	104	0	76	16488
2026-01-21 12:15:47.41	319.16	5.69	-52.4	-65.6	3.8	1.49e+00	0	39	104	0	76	16474
2026-01-21 12:15:48.69	319.32	5.64	-52.4	-65.7	3.8	1.49e+00	0	39	104	0	76	16518
2026-01-21 12:15:49.40	319.41	5.61	-52.4	-65.6	3.8	1.49e+00	0	39	104	0	76	16468
2026-01-21 12:15:50.68	319.57	5.55	-52.4	-65.6	3.8	1.49e+00	0	39	104	0	76	16433
2026-01-21 12:15:51.42	319.66	5.52	-52.4	-65.6	3.8	1.49e+00	0	39	104	0	76	16440
2026-01-21 12:15:52.70	319.82	5.46	-52.4	-65.6	3.8	1.49e+00	0	39	104	0	76	16434
2026-01-21 12:15:53.42	319.90	5.43	-52.4	-65.6	3.8	1.49e+00	0	39	104	0	76	16474
2026-01-21 12:15:54.70	320.06	5.38	-52.4	-65.6	3.8	1.49e+00	0	39	104	0	76	16454
2026-01-21 12:15:55.41	320.15	5.35	-52.4	-65.6	3.8	1.49e+00	0	39	104	0	76	16397
2026-01-21 12:15:56.68	320.30	5.29	-52.4	-65.6	3.8	1.49e+00	0	39	104	0	76	16499
2026-01-21 12:15:57.39	320.39	5.26	-52.4	-65.6	3.8	1.49e+00	0	39	104	0	76	16418
2026-01-21 12:15:58.67	320.54	5.20	-52.4	-65.6	3.8	1.49e+00	0	39	104	0	76	16448
2026-01-21 12:15:59.38	320.62	5.17	-52.4	-65.6	3.8	1.49e+00	0	39	104	0	76	16485
2026-01-21 12:16:00.66	320.78	5.12	-52.4	-65.6	3.8	1.49e+00	0	39	104	0	76	16433
2026-01-21 12:16:01.39	320.86	5.08	-52.4	-65.6	3.8	1.49e+00	0	39	104	0	76	16457
2026-01-21 12:16:02.67	321.02	5.03	-52.4	-65.6	3.8	1.49e+00	0	39	104	0	76	16424
2026-01-21 12:16:03.40	321.10	5.00	-52.4	-65.6	3.8	1.49e+00	0	39	104	0	76	16446

#Closed at: 2026-01-21 12:16:04
#Recorded file [0 MB]: D:/Data/31040_260121_150728.dat