passes_logs/2026/01/21/T1/T1__20260121_075530_KHAYYAM_rec.log

#Pass ID: 20260121_075530_KHAYYAM
#Satellite: KHAYYAM
#Configuration: KHAYYAM_480M
#almurnet v.1.7.20251203
#Start time: 2026-01-21 07:55:30

#Version: 2.0.20230620
#Station: T1
#Location: 37.570604 lon 55.790049 lat
#TLE: 1 53370U 22096A   26020.99496882  .00015565  00000+0  63198-3 0  9993
#TLE: 2 53370  97.3560 287.8974 0001831 108.0193 252.1244 15.24672017192153

#Time	Az	El	Level	Level2	SNR	BER	BlckErr	Temp	State	Recorded	gain1	gain2
2026-01-21 07:55:30.16	166.37	5.08	-54.8	-59.5	3.5	0.00e+00	0	46	0	0	81	24384
2026-01-21 07:55:31.15	166.38	5.16	-51.5	-56.7	3.7	0.00e+00	0	46	104	0	74	26329
2026-01-21 07:55:32.15	166.39	5.24	-51.6	-56.6	3.7	0.00e+00	0	46	104	0	74	26162
2026-01-21 07:55:33.14	166.40	5.32	-51.6	-56.7	3.7	0.00e+00	0	46	104	0	74	26521
2026-01-21 07:55:34.13	166.41	5.41	-51.6	-56.7	3.7	0.00e+00	0	46	104	0	74	26345
2026-01-21 07:55:35.13	166.42	5.49	-51.5	-56.7	3.7	0.00e+00	0	47	104	0	74	26483
2026-01-21 07:55:36.12	166.43	5.57	-51.5	-56.7	3.7	0.00e+00	0	46	104	0	74	26414
2026-01-21 07:55:37.11	166.44	5.66	-51.6	-56.7	3.7	0.00e+00	0	47	104	0	74	26496
2026-01-21 07:55:38.11	166.45	5.74	-51.7	-56.7	3.7	0.00e+00	0	47	104	0	74	26528
2026-01-21 07:55:39.10	166.46	5.83	-51.6	-56.6	3.7	0.00e+00	0	47	104	0	74	26259
2026-01-21 07:55:40.09	166.47	5.91	-51.5	-56.6	3.7	0.00e+00	0	47	104	0	74	26101
2026-01-21 07:55:41.08	166.48	6.00	-51.5	-56.6	3.7	0.00e+00	0	47	104	0	74	26213
2026-01-21 07:55:42.08	166.49	6.08	-51.6	-56.7	3.7	0.00e+00	0	47	104	0	74	26488
2026-01-21 07:55:43.07	166.50	6.17	-51.5	-56.6	3.7	0.00e+00	0	47	104	0	74	26177
2026-01-21 07:55:44.06	166.51	6.25	-51.5	-56.7	3.7	0.00e+00	0	47	104	0	74	26400
2026-01-21 07:55:45.06	166.52	6.34	-51.4	-56.6	3.7	0.00e+00	0	47	104	0	74	26083
2026-01-21 07:55:46.05	166.53	6.43	-51.6	-56.7	3.7	0.00e+00	0	48	104	0	74	26313
2026-01-21 07:55:47.04	166.54	6.51	-51.4	-56.6	3.7	0.00e+00	0	48	104	0	74	26160
2026-01-21 07:55:48.04	166.55	6.60	-51.5	-56.6	3.7	0.00e+00	0	48	104	0	74	26237
2026-01-21 07:55:49.03	166.56	6.69	-51.5	-56.6	3.7	0.00e+00	0	48	104	0	74	26186
2026-01-21 07:55:50.02	166.57	6.78	-51.5	-56.7	3.7	0.00e+00	0	48	104	0	74	26340
2026-01-21 07:55:51.01	166.58	6.87	-51.5	-56.7	3.7	0.00e+00	0	48	104	0	74	26297
2026-01-21 07:55:52.01	166.59	6.96	-51.6	-56.7	3.7	0.00e+00	0	48	104	0	74	26487
2026-01-21 07:55:53.00	166.60	7.05	-51.6	-56.6	3.7	0.00e+00	0	48	104	0	74	26108
2026-01-21 07:55:53.99	166.61	7.14	-51.6	-56.7	3.7	0.00e+00	0	48	104	0	74	26504
2026-01-21 07:55:54.99	166.62	7.23	-51.6	-56.7	3.7	0.00e+00	0	48	104	0	74	26459
2026-01-21 07:55:55.98	166.63	7.32	-51.6	-56.7	3.7	0.00e+00	0	48	104	0	74	26517
2026-01-21 07:55:56.97	166.64	7.41	-51.6	-56.7	3.7	0.00e+00	0	48	104	0	74	26445
2026-01-21 07:55:57.97	166.66	7.50	-51.6	-56.7	3.7	0.00e+00	0	48	104	0	74	26527
2026-01-21 07:55:58.96	166.67	7.60	-51.6	-56.7	3.7	0.00e+00	0	48	104	0	74	26357
2026-01-21 07:55:59.95	166.68	7.69	-51.6	-56.7	3.7	0.00e+00	0	48	104	0	74	26465
2026-01-21 07:56:00.95	166.69	7.78	-51.5	-56.7	3.7	0.00e+00	0	48	104	0	74	26300
2026-01-21 07:56:01.94	166.70	7.88	-51.6	-56.7	3.7	0.00e+00	0	49	104	0	74	26420
2026-01-21 07:56:02.93	166.71	7.97	-51.5	-56.6	3.7	0.00e+00	0	49	104	0	74	26208
2026-01-21 07:56:03.93	166.72	8.07	-51.6	-56.7	3.7	0.00e+00	0	49	104	0	74	26368
2026-01-21 07:56:04.92	166.73	8.16	-51.6	-56.8	3.7	0.00e+00	0	49	104	0	74	26650
2026-01-21 07:56:05.91	166.75	8.26	-51.6	-56.8	3.7	0.00e+00	0	49	104	0	74	26651
2026-01-21 07:56:06.91	166.76	8.36	-51.6	-56.7	3.7	0.00e+00	0	49	104	0	74	26457
2026-01-21 07:56:07.90	166.77	8.45	-51.7	-56.7	3.7	0.00e+00	0	49	104	0	74	26518
2026-01-21 07:56:08.89	166.78	8.55	-51.6	-56.7	3.7	0.00e+00	0	49	104	0	74	26419
2026-01-21 07:56:09.89	166.79	8.65	-51.6	-56.7	3.7	0.00e+00	0	49	104	0	74	26420
2026-01-21 07:56:10.88	166.80	8.75	-51.6	-56.7	3.7	0.00e+00	0	49	104	0	74	26556
2026-01-21 07:56:11.87	166.82	8.85	-51.6	-56.7	3.7	0.00e+00	0	49	104	0	74	26453
2026-01-21 07:56:12.86	166.83	8.94	-51.6	-56.7	3.7	0.00e+00	0	49	104	0	74	26507
2026-01-21 07:56:13.86	166.84	9.05	-51.6	-56.6	3.7	0.00e+00	0	49	104	0	74	26271
2026-01-21 07:56:14.85	166.85	9.15	-51.8	-56.9	3.7	0.00e+00	0	49	104	0	74	26902
2026-01-21 07:56:15.93	166.86	9.26	-51.4	-56.5	3.7	0.00e+00	0	49	104	0	74	25898
2026-01-21 07:56:16.81	166.88	9.35	-52.0	-57.2	3.7	0.00e+00	0	49	104	0	74	27928
2026-01-21 07:56:17.95	166.89	9.46	-51.6	-56.9	3.7	0.00e+00	0	49	104	0	74	26930
2026-01-21 07:56:18.80	166.90	9.55	-51.3	-56.4	3.7	0.00e+00	0	49	104	0	74	25675
2026-01-21 07:56:19.94	166.91	9.67	-51.4	-56.6	3.7	0.00e+00	0	49	104	0	74	26014
2026-01-21 07:56:20.79	166.93	9.76	-51.4	-56.6	3.7	0.00e+00	0	49	104	0	74	26196
2026-01-21 07:56:21.93	166.94	9.88	-51.6	-56.7	3.7	0.00e+00	0	49	104	0	74	26529
2026-01-21 07:56:22.78	166.95	9.97	-51.6	-56.9	3.7	0.00e+00	0	50	104	0	74	26926
2026-01-21 07:56:23.92	166.97	10.09	-51.1	-56.3	3.7	0.00e+00	0	50	104	0	74	25340
2026-01-21 07:56:24.77	166.98	10.18	-51.2	-56.5	3.7	0.00e+00	0	50	104	0	74	25752
2026-01-21 07:56:25.91	166.99	10.31	-51.1	-56.4	3.7	0.00e+00	0	50	104	0	74	25530
2026-01-21 07:56:26.76	167.00	10.40	-51.4	-56.7	3.7	0.00e+00	0	50	104	0	74	26414
2026-01-21 07:56:27.90	167.02	10.52	-51.3	-56.6	3.7	0.00e+00	0	50	104	0	74	25984
2026-01-21 07:56:28.75	167.03	10.62	-51.1	-56.4	3.7	0.00e+00	0	50	104	0	74	25412
2026-01-21 07:56:29.98	167.05	10.75	-51.4	-56.7	3.7	0.00e+00	0	50	104	0	74	26323
2026-01-21 07:56:30.83	167.06	10.85	-52.0	-57.2	3.7	0.00e+00	0	50	104	0	74	27887
2026-01-21 07:56:32.02	167.07	10.98	-51.0	-56.2	3.7	0.00e+00	0	50	104	0	74	25037
2026-01-21 07:56:32.87	167.09	11.07	-51.1	-56.4	3.7	0.00e+00	0	50	104	0	73	27058
2026-01-21 07:56:34.07	167.10	11.21	-51.2	-56.7	3.7	0.00e+00	0	50	104	0	73	27979
2026-01-21 07:56:34.92	167.11	11.31	-51.3	-56.5	3.7	0.00e+00	0	50	104	0	73	27491
2026-01-21 07:56:36.09	167.13	11.44	-51.4	-56.7	3.7	0.00e+00	0	50	104	0	73	27894
2026-01-21 07:56:36.94	167.14	11.54	-51.5	-56.7	3.7	0.00e+00	0	50	104	0	73	28007
2026-01-21 07:56:38.08	167.16	11.67	-51.7	-56.9	3.7	0.00e+00	0	50	104	0	74	26990
2026-01-21 07:56:38.93	167.17	11.77	-53.9	-58.8	3.7	0.00e+00	0	50	104	0	78	26640
2026-01-21 07:56:40.07	167.19	11.91	-51.7	-56.9	3.7	0.00e+00	0	50	104	0	75	25386
2026-01-21 07:56:40.95	167.20	12.01	-52.8	-57.8	3.7	0.00e+00	0	50	104	0	76	26728
2026-01-21 07:56:42.09	167.22	12.15	-52.4	-57.5	3.7	0.00e+00	0	50	104	0	76	25787
2026-01-21 07:56:43.01	167.23	12.26	-52.6	-57.6	3.7	0.00e+00	0	50	104	0	76	26143
2026-01-21 07:56:44.01	167.25	12.38	-52.9	-57.8	3.7	0.00e+00	0	50	104	0	76	26706
2026-01-21 07:56:45.00	167.26	12.50	-53.1	-58.0	3.7	0.00e+00	0	50	104	0	76	27410
2026-01-21 07:56:45.99	167.28	12.62	-54.3	-59.1	3.7	0.00e+00	0	50	104	0	79	26135
2026-01-21 07:56:46.99	167.29	12.74	-54.5	-59.2	3.7	0.00e+00	0	50	104	0	79	26563
2026-01-21 07:56:47.98	167.31	12.87	-54.8	-59.4	3.7	0.00e+00	0	50	104	0	80	25403
2026-01-21 07:56:48.98	167.32	12.99	-54.8	-59.4	3.7	0.00e+00	0	51	104	0	80	25663
2026-01-21 07:56:49.97	167.34	13.12	-54.5	-59.2	3.7	0.00e+00	0	50	104	0	80	25016
2026-01-21 07:56:50.97	167.35	13.24	-54.8	-59.4	3.7	0.00e+00	0	50	104	0	80	25608
2026-01-21 07:56:51.96	167.37	13.37	-54.7	-59.3	3.7	0.00e+00	0	50	104	0	80	25135
2026-01-21 07:56:52.96	167.39	13.50	-54.2	-59.1	3.7	0.00e+00	0	50	104	0	80	24583
2026-01-21 07:56:53.96	167.40	13.63	-54.9	-59.5	3.7	0.00e+00	0	50	104	0	80	25817
2026-01-21 07:56:54.95	167.42	13.75	-54.7	-59.4	3.7	0.00e+00	0	50	104	0	80	25658
2026-01-21 07:56:55.95	167.44	13.89	-54.1	-58.9	3.7	0.00e+00	0	50	104	0	80	24117
2026-01-21 07:56:56.94	167.45	14.02	-54.1	-59.0	3.7	0.00e+00	0	50	104	0	80	24287
2026-01-21 07:56:57.93	167.47	14.15	-54.7	-59.4	3.7	0.00e+00	0	50	104	0	80	25643
2026-01-21 07:56:58.93	167.49	14.28	-54.2	-59.0	3.7	0.00e+00	0	51	104	0	79	25903
2026-01-21 07:56:59.92	167.50	14.42	-54.1	-59.0	3.7	0.00e+00	0	50	104	0	79	25857
2026-01-21 07:57:00.92	167.52	14.55	-54.2	-59.1	3.7	0.00e+00	0	50	104	0	79	26183
2026-01-21 07:57:01.91	167.54	14.69	-54.3	-59.1	3.7	0.00e+00	0	50	104	0	79	26240
2026-01-21 07:57:02.91	167.55	14.83	-54.1	-59.1	3.7	0.00e+00	0	51	104	0	79	26053
2026-01-21 07:57:03.90	167.57	14.96	-54.2	-59.1	3.7	0.00e+00	0	51	104	0	79	26050
2026-01-21 07:57:04.90	167.59	15.10	-54.2	-59.1	3.7	0.00e+00	0	50	104	0	79	26064
2026-01-21 07:57:05.89	167.61	15.24	-54.5	-59.3	3.7	0.00e+00	0	51	104	0	79	26716
2026-01-21 07:57:06.88	167.63	15.38	-54.1	-59.1	3.7	0.00e+00	0	51	104	0	79	26115
2026-01-21 07:57:07.88	167.65	15.53	-54.2	-59.0	3.7	0.00e+00	0	51	104	0	79	25923
2026-01-21 07:57:08.87	167.66	15.67	-54.5	-59.3	3.7	0.00e+00	0	51	104	0	79	26830
2026-01-21 07:57:09.94	167.68	15.83	-53.9	-58.9	3.7	0.00e+00	0	51	104	0	79	25385
2026-01-21 07:57:10.83	167.70	15.96	-54.5	-59.2	3.7	0.00e+00	0	51	104	0	79	26546
2026-01-21 07:57:11.97	167.72	16.12	-54.6	-59.2	3.7	0.00e+00	0	51	104	0	80	25006
2026-01-21 07:57:12.82	167.74	16.25	-54.0	-58.9	3.7	0.00e+00	0	51	104	0	80	24149
2026-01-21 07:57:13.96	167.76	16.42	-54.4	-59.1	3.7	0.00e+00	0	51	104	0	79	26248
2026-01-21 07:57:14.81	167.78	16.55	-54.9	-59.6	3.7	0.00e+00	0	51	104	0	80	26018
2026-01-21 07:57:15.94	167.80	16.72	-54.6	-59.3	3.7	0.00e+00	0	51	104	0	80	25148
2026-01-21 07:57:16.80	167.82	16.86	-54.7	-59.3	3.7	0.00e+00	0	51	104	0	80	25301
2026-01-21 07:57:17.93	167.84	17.03	-54.8	-59.5	3.7	0.00e+00	0	51	104	0	80	25838
2026-01-21 07:57:18.79	167.86	17.17	-54.8	-59.5	3.7	0.00e+00	0	51	104	0	80	25782
2026-01-21 07:57:19.93	167.88	17.35	-54.8	-59.5	3.7	0.00e+00	0	51	104	0	80	25904
2026-01-21 07:57:20.78	167.90	17.48	-54.8	-59.5	3.7	0.00e+00	0	51	104	0	80	25810
2026-01-21 07:57:21.92	167.92	17.66	-54.8	-59.4	3.7	0.00e+00	0	51	104	0	80	25471
2026-01-21 07:57:22.77	167.94	17.80	-54.7	-59.4	3.7	0.00e+00	0	51	104	0	80	25543
2026-01-21 07:57:24.05	167.97	18.01	-54.8	-59.5	3.7	0.00e+00	0	51	104	0	80	25832
2026-01-21 07:57:24.78	167.99	18.13	-54.8	-59.4	3.7	0.00e+00	0	51	104	0	80	25571
2026-01-21 07:57:26.24	168.02	18.37	-54.8	-59.6	3.7	0.00e+00	0	51	104	0	80	25996
2026-01-21 07:57:26.95	168.04	18.49	-54.9	-59.6	3.7	0.00e+00	0	51	104	0	80	26082
2026-01-21 07:57:28.23	168.06	18.71	-54.9	-59.6	3.7	0.00e+00	0	51	104	0	80	26208
2026-01-21 07:57:28.96	168.08	18.83	-54.9	-59.6	3.7	0.00e+00	0	51	104	0	80	26213
2026-01-21 07:57:30.24	168.11	19.05	-54.9	-59.6	3.7	0.00e+00	0	51	104	0	80	26125
2026-01-21 07:57:30.98	168.13	19.18	-54.9	-59.5	3.7	0.00e+00	0	51	104	0	80	25848
2026-01-21 07:57:32.25	168.16	19.41	-55.0	-59.6	3.7	0.00e+00	0	51	104	0	80	26042
2026-01-21 07:57:32.97	168.18	19.53	-54.8	-59.5	3.7	0.00e+00	0	51	104	0	80	25766
2026-01-21 07:57:34.25	168.21	19.76	-55.0	-59.6	3.7	0.00e+00	0	51	104	0	80	26209
2026-01-21 07:57:34.96	168.22	19.89	-54.9	-59.6	3.7	0.00e+00	0	51	104	0	80	26051
2026-01-21 07:57:36.24	168.26	20.12	-54.7	-59.3	3.7	0.00e+00	0	51	104	0	80	25315
2026-01-21 07:57:36.96	168.28	20.25	-55.0	-59.7	3.7	0.00e+00	0	51	104	0	80	26319
2026-01-21 07:57:38.24	168.31	20.49	-54.7	-59.4	3.7	0.00e+00	0	51	104	0	80	25419
2026-01-21 07:57:38.97	168.33	20.63	-54.9	-59.5	3.7	0.00e+00	0	51	104	0	80	25781
2026-01-21 07:57:40.24	168.36	20.87	-54.8	-59.2	3.7	0.00e+00	0	51	104	0	80	25050
2026-01-21 07:57:40.95	168.38	21.00	-54.8	-59.5	3.7	0.00e+00	0	51	104	0	80	25843
2026-01-21 07:57:42.23	168.41	21.25	-54.8	-59.4	3.7	0.00e+00	0	51	104	0	80	25436
2026-01-21 07:57:42.97	168.43	21.39	-54.8	-59.4	3.7	0.00e+00	0	51	104	0	80	25587
2026-01-21 07:57:44.25	168.47	21.64	-54.3	-58.9	3.7	0.00e+00	0	51	104	0	80	24170
2026-01-21 07:57:45.20	168.49	21.83	-54.8	-59.4	3.7	0.00e+00	0	51	104	0	80	25399
2026-01-21 07:57:46.20	168.52	22.03	-54.4	-59.2	3.7	0.00e+00	0	51	104	0	80	24912
2026-01-21 07:57:47.19	168.55	22.23	-54.5	-59.2	3.7	0.00e+00	0	51	104	0	80	25061
2026-01-21 07:57:48.19	168.58	22.44	-54.7	-59.1	3.7	0.00e+00	0	51	104	0	80	24617
2026-01-21 07:57:49.18	168.61	22.64	-54.3	-59.1	3.7	0.00e+00	0	51	104	0	80	24744
2026-01-21 07:57:50.18	168.64	22.85	-54.8	-59.4	3.7	0.00e+00	0	51	104	0	80	25549
2026-01-21 07:57:51.17	168.67	23.06	-54.7	-59.4	3.7	0.00e+00	0	51	104	0	80	25389
2026-01-21 07:57:52.20	168.70	23.28	-54.7	-58.9	3.7	0.00e+00	0	51	104	0	80	24203
2026-01-21 07:57:53.19	168.73	23.49	-54.9	-59.5	3.7	0.00e+00	0	51	104	0	80	25792
2026-01-21 07:57:54.23	168.76	23.72	-54.9	-58.9	3.7	0.00e+00	0	51	104	0	80	24134
2026-01-21 07:57:55.23	168.80	23.94	-54.6	-58.2	3.7	0.00e+00	0	51	104	0	80	22269
2026-01-21 07:57:56.22	168.83	24.16	-54.2	-57.8	3.7	0.00e+00	0	51	104	0	80	21230
2026-01-21 07:57:57.22	168.86	24.38	-54.1	-57.8	3.7	0.00e+00	0	51	104	0	80	21196
2026-01-21 07:57:58.21	168.89	24.60	-54.1	-57.7	3.7	0.00e+00	0	51	104	0	80	21001
2026-01-21 07:57:59.21	168.93	24.83	-54.6	-58.8	3.7	0.00e+00	0	51	104	0	80	23692
2026-01-21 07:58:00.20	168.96	25.06	-55.6	-60.1	3.7	0.00e+00	0	51	104	0	81	26232
2026-01-21 07:58:01.20	169.00	25.29	-55.4	-60.1	3.7	0.00e+00	0	51	104	0	81	26005
2026-01-21 07:58:02.19	169.03	25.53	-55.2	-59.8	3.7	0.00e+00	0	51	104	0	81	25329
2026-01-21 07:58:03.19	169.07	25.77	-55.1	-59.8	3.7	0.00e+00	0	51	104	0	81	25333
2026-01-21 07:58:04.18	169.10	26.01	-55.2	-59.9	3.7	0.00e+00	0	51	104	0	81	25447
2026-01-21 07:58:05.18	169.14	26.25	-55.4	-59.9	3.7	0.00e+00	0	51	104	0	81	25556
2026-01-21 07:58:06.17	169.18	26.50	-55.4	-60.0	3.7	0.00e+00	0	51	104	0	81	25754
2026-01-21 07:58:07.17	169.22	26.75	-55.4	-60.0	3.7	0.00e+00	0	51	104	0	81	25817
2026-01-21 07:58:08.16	169.25	27.00	-55.3	-59.9	3.7	0.00e+00	0	51	104	0	81	25660
2026-01-21 07:58:09.16	169.29	27.25	-54.5	-58.0	3.7	0.00e+00	0	51	104	0	80	21764
2026-01-21 07:58:10.17	169.33	27.51	-55.2	-59.4	3.7	0.00e+00	0	51	104	0	81	23991
2026-01-21 07:58:11.16	169.38	27.77	-54.3	-57.5	3.7	0.00e+00	0	51	104	0	80	20476
2026-01-21 07:58:12.16	169.42	28.03	-54.1	-57.2	3.7	0.00e+00	0	51	104	0	80	19784
2026-01-21 07:58:13.15	169.46	28.30	-54.1	-57.3	3.7	0.00e+00	0	51	104	0	80	19945
2026-01-21 07:58:14.15	169.50	28.57	-53.7	-56.7	3.8	0.00e+00	0	51	104	0	79	19789
2026-01-21 07:58:15.15	169.54	28.84	-53.6	-56.3	3.8	0.00e+00	0	51	104	0	79	18917
2026-01-21 07:58:16.34	169.60	29.17	-55.8	-60.3	3.7	0.00e+00	0	51	104	0	82	25129
2026-01-21 07:58:17.23	169.64	29.42	-55.8	-60.2	3.7	0.00e+00	0	51	104	0	82	25087
2026-01-21 07:58:18.54	169.70	29.79	-55.8	-60.3	3.7	0.00e+00	0	51	104	0	82	25181
2026-01-21 07:58:19.25	169.73	30.00	-55.9	-60.3	3.7	0.00e+00	0	51	104	0	82	25121
2026-01-21 07:58:20.53	169.79	30.37	-55.7	-60.2	3.7	0.00e+00	0	51	104	0	82	24947
2026-01-21 07:58:21.26	169.83	30.59	-55.6	-60.2	3.7	0.00e+00	0	51	104	0	82	24825
2026-01-21 07:58:22.83	169.91	31.06	-55.4	-60.1	3.7	0.00e+00	0	51	104	0	82	24534
2026-01-21 07:58:23.46	169.94	31.25	-55.4	-60.0	3.7	0.00e+00	0	51	104	0	82	24459
2026-01-21 07:58:24.98	170.02	31.71	-55.4	-60.0	3.7	0.00e+00	0	51	104	0	82	24489
2026-01-21 07:58:25.69	170.05	31.93	-55.5	-60.1	3.7	0.00e+00	0	51	104	0	82	24727
2026-01-21 07:58:26.97	170.12	32.34	-55.4	-60.1	3.7	0.00e+00	0	51	104	0	82	24601
2026-01-21 07:58:27.68	170.16	32.56	-55.5	-60.1	3.7	0.00e+00	0	51	104	0	82	24669
2026-01-21 07:58:28.97	170.24	32.98	-55.4	-60.1	3.7	0.00e+00	0	51	104	0	82	24555
2026-01-21 07:58:29.68	170.28	33.21	-55.6	-60.2	3.7	0.00e+00	0	51	104	0	82	25044
2026-01-21 07:58:31.04	170.36	33.66	-55.5	-60.2	3.7	0.00e+00	0	51	104	0	82	24867
2026-01-21 07:58:31.75	170.40	33.90	-55.6	-60.1	3.7	0.00e+00	0	51	104	0	82	24654
2026-01-21 07:58:33.03	170.48	34.33	-55.8	-60.3	3.7	0.00e+00	0	51	104	0	82	25310
2026-01-21 07:58:33.74	170.52	34.58	-55.8	-60.3	3.7	0.00e+00	0	51	104	0	82	25137
2026-01-21 07:58:35.21	170.61	35.09	-55.8	-60.2	3.7	0.00e+00	0	51	104	0	82	25061
2026-01-21 07:58:35.92	170.66	35.34	-55.8	-60.3	3.7	0.00e+00	0	51	104	0	82	25211
2026-01-21 07:58:37.26	170.75	35.82	-55.4	-60.0	3.7	0.00e+00	0	51	104	0	82	24331
2026-01-21 07:58:37.97	170.80	36.08	-55.8	-60.3	3.7	0.00e+00	0	51	104	0	82	25216
2026-01-21 07:58:39.25	170.89	36.55	-55.5	-60.2	3.7	0.00e+00	0	51	104	0	82	24808
2026-01-21 07:58:39.97	170.94	36.82	-55.8	-60.4	3.7	0.00e+00	0	51	104	0	82	25460
2026-01-21 07:58:41.25	171.03	37.31	-55.8	-60.3	3.7	0.00e+00	0	51	104	0	82	25262
2026-01-21 07:58:41.98	171.09	37.59	-55.5	-60.1	3.7	0.00e+00	0	51	104	0	82	24622
2026-01-21 07:58:43.26	171.19	38.08	-55.6	-60.3	3.7	0.00e+00	0	51	104	0	82	25123
2026-01-21 07:58:43.97	171.24	38.36	-55.5	-60.1	3.7	0.00e+00	0	51	104	0	82	24789
2026-01-21 07:58:45.25	171.34	38.87	-55.5	-60.1	3.7	0.00e+00	0	51	104	0	82	24614
2026-01-21 07:58:45.95	171.40	39.15	-56.0	-60.4	3.7	0.00e+00	0	51	104	0	82	25468
2026-01-21 07:58:47.23	171.51	39.68	-55.6	-60.2	3.7	0.00e+00	0	51	104	0	82	24950
2026-01-21 07:58:47.96	171.57	39.98	-55.9	-60.4	3.7	0.00e+00	0	51	104	0	82	25595
2026-01-21 07:58:49.23	171.69	40.51	-55.7	-60.1	3.7	0.00e+00	0	51	104	0	82	24602
2026-01-21 07:58:50.09	171.77	40.88	-55.8	-60.1	3.7	0.00e+00	0	51	104	0	82	24805
2026-01-21 07:58:51.51	171.90	41.50	-55.8	-60.3	3.7	0.00e+00	0	51	104	0	82	25135
2026-01-21 07:58:52.22	171.97	41.81	-55.7	-60.2	3.7	0.00e+00	0	51	104	0	82	24843
2026-01-21 07:58:53.50	172.10	42.38	-55.8	-60.3	3.7	0.00e+00	0	52	104	0	82	25098
2026-01-21 07:58:54.21	172.17	42.70	-55.8	-60.2	3.7	0.00e+00	0	51	104	0	82	24987
2026-01-21 07:58:55.49	172.31	43.28	-55.8	-60.2	3.7	0.00e+00	0	52	104	0	82	24870
2026-01-21 07:58:56.21	172.38	43.62	-55.7	-60.2	3.7	0.00e+00	0	51	104	0	82	24826
2026-01-21 07:58:57.49	172.53	44.22	-56.0	-60.4	3.7	0.00e+00	0	51	104	0	82	25524
2026-01-21 07:58:58.20	172.61	44.55	-55.8	-60.4	3.7	0.00e+00	0	51	104	0	82	25425
2026-01-21 07:58:59.48	172.76	45.17	-55.8	-60.3	3.7	0.00e+00	0	52	104	0	82	25342
2026-01-21 07:59:00.19	172.85	45.52	-56.0	-60.4	3.7	0.00e+00	0	52	104	0	82	25678
2026-01-21 07:59:01.47	173.01	46.15	-56.0	-60.4	3.7	0.00e+00	0	52	104	0	82	25625
2026-01-21 07:59:02.29	173.12	46.56	-56.0	-60.5	3.7	0.00e+00	0	51	104	0	82	25823
2026-01-21 07:59:03.43	173.27	47.14	-56.0	-60.5	3.7	0.00e+00	0	51	104	0	82	25793
2026-01-21 07:59:04.28	173.39	47.58	-56.1	-60.5	3.7	0.00e+00	0	51	104	0	82	25879
2026-01-21 07:59:05.42	173.56	48.18	-56.1	-60.5	3.7	0.00e+00	0	51	104	0	82	25882
2026-01-21 07:59:06.27	173.68	48.63	-56.0	-60.4	3.7	0.00e+00	0	52	104	0	82	25634
2026-01-21 07:59:07.41	173.86	49.24	-56.0	-60.4	3.7	0.00e+00	0	51	104	0	82	25569
2026-01-21 07:59:08.26	174.00	49.70	-55.9	-60.4	3.7	0.00e+00	0	51	104	0	82	25431
2026-01-21 07:59:09.41	174.19	50.33	-55.9	-60.4	3.7	0.00e+00	0	51	104	0	82	25630
2026-01-21 07:59:10.26	174.33	50.81	-55.9	-60.4	3.7	0.00e+00	0	52	104	0	82	25509
2026-01-21 07:59:11.40	174.54	51.45	-55.9	-60.4	3.7	0.00e+00	0	51	104	0	82	25527
2026-01-21 07:59:12.25	174.69	51.94	-56.0	-60.4	3.7	0.00e+00	0	52	104	0	82	25667
2026-01-21 07:59:13.39	174.91	52.60	-55.9	-60.3	3.7	0.00e+00	0	52	104	0	82	25132
2026-01-21 07:59:14.24	175.08	53.09	-55.9	-60.4	3.7	0.00e+00	0	51	104	0	82	25386
2026-01-21 07:59:15.38	175.32	53.77	-55.9	-60.3	3.6	0.00e+00	0	51	104	0	82	25315
2026-01-21 07:59:16.23	175.51	54.28	-56.1	-60.5	3.7	0.00e+00	0	51	104	0	82	25790
2026-01-21 07:59:17.37	175.77	54.98	-55.7	-60.3	3.7	0.00e+00	0	52	104	0	82	25318
2026-01-21 07:59:18.39	176.01	55.60	-55.5	-60.2	3.7	0.00e+00	0	51	104	0	82	25085
2026-01-21 07:59:19.39	176.26	56.23	-55.5	-60.2	3.7	0.00e+00	0	51	104	0	82	24939
2026-01-21 07:59:20.38	176.52	56.85	-55.6	-60.3	3.7	0.00e+00	0	51	104	0	82	25270
2026-01-21 07:59:21.38	176.79	57.49	-56.1	-60.6	3.7	0.00e+00	0	52	104	0	82	26017
2026-01-21 07:59:22.37	177.07	58.13	-56.1	-60.6	3.7	0.00e+00	0	51	104	0	82	26081
2026-01-21 07:59:23.37	177.37	58.78	-56.2	-60.6	3.7	0.00e+00	0	52	104	0	82	26110
2026-01-21 07:59:24.36	177.68	59.43	-56.2	-60.6	3.7	0.00e+00	0	52	104	0	82	26106
2026-01-21 07:59:25.36	178.01	60.10	-56.1	-60.5	3.7	0.00e+00	0	51	104	0	82	25935
2026-01-21 07:59:26.35	178.36	60.77	-55.8	-60.4	3.7	0.00e+00	0	51	104	0	82	25460
2026-01-21 07:59:27.35	178.73	61.45	-55.7	-60.4	3.7	0.00e+00	0	52	104	0	82	25406
2026-01-21 07:59:28.34	179.11	62.13	-55.8	-60.4	3.7	0.00e+00	0	52	104	0	82	25540
2026-01-21 07:59:29.34	179.53	62.82	-56.0	-60.5	3.7	0.00e+00	0	52	104	0	82	25966
2026-01-21 07:59:30.33	179.96	63.51	-56.1	-60.6	3.7	0.00e+00	0	51	104	0	82	26035
2026-01-21 07:59:31.33	180.42	64.21	-56.1	-60.6	3.7	0.00e+00	0	51	104	0	82	26120
2026-01-21 07:59:32.35	180.92	64.94	-55.7	-60.3	3.7	0.00e+00	0	52	104	0	82	25367
2026-01-21 07:59:33.36	181.45	65.66	-55.3	-60.2	3.7	0.00e+00	0	52	104	0	82	24997
2026-01-21 07:59:34.39	182.03	66.41	-55.9	-60.5	3.7	0.00e+00	0	52	104	0	82	25704
2026-01-21 07:59:35.39	182.63	67.13	-55.9	-60.5	3.7	0.00e+00	0	52	104	0	82	25728
2026-01-21 07:59:36.48	183.34	67.93	-55.9	-60.5	3.7	0.00e+00	0	52	104	0	82	25890
2026-01-21 07:59:37.36	183.95	68.58	-55.5	-60.3	3.7	0.00e+00	0	51	104	0	82	25142
2026-01-21 07:59:38.50	184.80	69.42	-55.9	-60.4	3.7	0.00e+00	0	52	104	0	82	25675
2026-01-21 07:59:39.35	185.49	70.05	-56.0	-60.5	3.7	0.00e+00	0	52	104	0	82	25829
2026-01-21 07:59:40.49	186.49	70.90	-56.2	-60.6	3.7	0.00e+00	0	52	104	0	83	24687
2026-01-21 07:59:41.34	187.30	71.53	-56.2	-60.7	3.7	0.00e+00	0	52	104	0	83	24827
2026-01-21 07:59:42.48	188.48	72.38	-56.1	-60.5	3.7	0.00e+00	0	52	104	0	83	24521
2026-01-21 07:59:43.33	189.44	73.01	-56.1	-60.5	3.7	0.00e+00	0	52	104	0	83	24478
2026-01-21 07:59:44.47	190.85	73.86	-55.9	-60.4	3.7	0.00e+00	0	52	104	0	83	24207
2026-01-21 07:59:45.32	192.01	74.49	-55.9	-60.4	3.7	0.00e+00	0	51	104	0	83	24108
2026-01-21 07:59:46.45	193.71	75.32	-55.3	-60.1	3.7	0.00e+00	0	52	104	0	82	24729
2026-01-21 07:59:47.31	195.15	75.94	-55.3	-60.1	3.7	0.00e+00	0	51	104	0	82	24664
2026-01-21 07:59:48.45	197.26	76.77	-56.0	-60.4	3.7	0.00e+00	0	52	104	0	82	25658
2026-01-21 07:59:49.30	199.03	77.37	-55.9	-60.5	3.7	0.00e+00	0	52	104	0	82	25734
2026-01-21 07:59:50.58	202.03	78.26	-56.0	-60.5	3.7	0.00e+00	0	51	104	0	82	25897
2026-01-21 07:59:51.29	203.90	78.73	-56.0	-60.5	3.7	0.00e+00	0	52	104	0	82	25830
2026-01-21 07:59:52.77	208.36	79.70	-56.0	-60.3	3.7	0.00e+00	0	52	104	0	82	25238
2026-01-21 07:59:53.48	210.80	80.13	-56.2	-60.5	3.7	0.00e+00	0	51	104	0	82	25846
2026-01-21 07:59:54.84	216.14	80.92	-55.9	-60.4	3.7	0.00e+00	0	52	104	0	82	25404
2026-01-21 07:59:55.55	219.30	81.29	-55.6	-60.2	3.7	0.00e+00	0	51	104	0	82	25061
2026-01-21 07:59:56.83	225.70	81.90	-55.5	-60.0	3.7	0.00e+00	0	51	104	0	82	24352
2026-01-21 07:59:57.54	229.66	82.19	-55.3	-59.9	3.7	0.00e+00	0	51	104	0	82	24083
2026-01-21 07:59:58.82	237.50	82.60	-55.5	-60.0	3.7	0.00e+00	0	51	104	0	82	24342
2026-01-21 07:59:59.54	242.26	82.77	-55.6	-60.1	3.7	0.00e+00	0	51	104	0	82	24703
2026-01-21 08:00:00.82	251.16	82.94	-55.3	-60.0	3.7	0.00e+00	0	52	104	0	82	24351
2026-01-21 08:00:01.53	256.22	82.97	-55.2	-59.9	3.7	0.00e+00	0	51	104	0	82	23995
2026-01-21 08:00:02.81	265.27	82.87	-55.3	-59.9	3.7	0.00e+00	0	51	104	0	82	23983
2026-01-21 08:00:03.58	270.52	82.72	-55.3	-59.9	3.7	0.00e+00	0	52	104	0	82	24234
2026-01-21 08:00:05.16	280.46	82.26	-55.7	-60.2	3.7	0.00e+00	0	51	104	0	82	24968
2026-01-21 08:00:05.79	284.05	82.01	-55.2	-60.0	3.7	0.00e+00	0	52	104	0	82	24331
2026-01-21 08:00:07.29	291.69	81.32	-55.4	-60.1	3.7	0.00e+00	0	52	104	0	82	24663
2026-01-21 08:00:08.18	295.63	80.85	-56.0	-60.4	3.7	0.00e+00	0	51	104	0	82	25614
2026-01-21 08:00:09.31	300.05	80.19	-55.7	-60.3	3.7	0.00e+00	0	52	104	0	82	25230
2026-01-21 08:00:10.39	303.74	79.53	-55.7	-60.3	3.7	0.00e+00	0	51	104	0	82	25139
2026-01-21 08:00:11.24	306.31	78.98	-55.7	-60.2	3.7	0.00e+00	0	52	104	0	82	25046
2026-01-21 08:00:12.38	309.36	78.21	-55.9	-60.1	3.7	0.00e+00	0	52	104	0	82	24664
2026-01-21 08:00:13.23	311.39	77.63	-55.9	-60.1	3.7	0.00e+00	0	52	104	0	82	24526
2026-01-21 08:00:14.37	313.81	76.82	-55.7	-60.0	3.7	0.00e+00	0	51	104	0	82	24415
2026-01-21 08:00:15.22	315.42	76.21	-55.7	-60.0	3.7	0.00e+00	0	52	104	0	82	24402
2026-01-21 08:00:16.35	317.35	75.39	-55.4	-59.9	3.7	0.00e+00	0	52	104	0	82	24209
2026-01-21 08:00:17.21	318.68	74.76	-55.7	-60.1	3.7	0.00e+00	0	52	104	0	82	24753
2026-01-21 08:00:18.42	320.36	73.87	-56.1	-60.4	3.7	0.00e+00	0	52	104	0	82	25405
2026-01-21 08:00:19.27	321.43	73.24	-56.1	-60.3	3.7	0.00e+00	0	51	104	0	82	25352
2026-01-21 08:00:20.41	322.73	72.39	-56.2	-60.5	3.7	0.00e+00	0	51	104	0	82	25735
2026-01-21 08:00:21.26	323.62	71.76	-56.0	-60.5	3.7	0.00e+00	0	51	104	0	83	24356
2026-01-21 08:00:22.62	324.92	70.75	-55.8	-60.4	3.7	0.00e+00	0	51	104	0	83	24122
2026-01-21 08:00:23.33	325.54	70.22	-55.9	-60.4	3.7	0.00e+00	0	52	104	0	83	24134
2026-01-21 08:00:24.61	326.58	69.28	-56.0	-60.4	3.7	0.00e+00	0	52	104	0	83	23999
2026-01-21 08:00:25.34	327.12	68.74	-55.9	-60.4	3.7	0.00e+00	0	52	104	0	83	24209
2026-01-21 08:00:26.62	328.01	67.80	-56.0	-60.6	3.7	0.00e+00	0	51	104	0	83	24557
2026-01-21 08:00:27.37	328.49	67.25	-56.1	-60.6	3.7	0.00e+00	0	52	104	0	83	24636
2026-01-21 08:00:28.65	329.26	66.32	-55.8	-60.5	3.7	0.00e+00	0	52	104	0	83	24284
2026-01-21 08:00:29.51	329.74	65.71	-56.1	-60.6	3.7	0.00e+00	0	52	104	0	83	24573
2026-01-21 08:00:30.65	330.34	64.89	-56.0	-60.5	3.7	0.00e+00	0	52	104	0	83	24399
2026-01-21 08:00:31.50	330.76	64.29	-55.8	-60.4	3.7	0.00e+00	0	52	104	0	83	23996
2026-01-21 08:00:32.63	331.28	63.50	-55.5	-60.3	3.7	0.00e+00	0	52	104	0	82	25181
2026-01-21 08:00:33.49	331.66	62.90	-56.0	-60.6	3.7	0.00e+00	0	52	104	0	82	25983
2026-01-21 08:00:34.62	332.12	62.12	-56.2	-60.6	3.7	0.00e+00	0	52	104	0	82	26203
2026-01-21 08:00:35.47	332.45	61.53	-56.1	-60.6	3.7	0.00e+00	0	52	104	0	82	26029
2026-01-21 08:00:36.61	332.87	60.76	-55.6	-60.4	3.7	0.00e+00	0	52	104	0	82	25462
2026-01-21 08:00:37.81	333.29	59.96	-56.1	-60.6	3.7	0.00e+00	0	51	104	0	82	26058
2026-01-21 08:00:38.84	333.62	59.28	-56.2	-60.6	3.7	0.00e+00	0	51	104	0	82	26088
2026-01-21 08:00:39.99	333.98	58.52	-55.3	-60.2	3.7	0.00e+00	0	51	104	0	82	24944
2026-01-21 08:00:40.84	334.23	57.97	-55.8	-60.5	3.7	0.00e+00	0	52	104	0	82	25739
2026-01-21 08:00:41.98	334.55	57.24	-54.6	-59.8	3.7	0.00e+00	0	52	104	0	81	25102
2026-01-21 08:00:42.83	334.78	56.70	-54.8	-59.8	3.7	0.00e+00	0	52	104	0	81	25347
2026-01-21 08:00:43.97	335.07	55.99	-55.3	-60.2	3.7	0.00e+00	0	52	104	0	81	26547
2026-01-21 08:00:44.82	335.28	55.46	-55.5	-60.3	3.7	0.00e+00	0	52	104	0	81	26842
2026-01-21 08:00:45.96	335.54	54.77	-55.8	-60.4	3.7	0.00e+00	0	51	104	0	82	25545
2026-01-21 08:00:46.81	335.73	54.25	-55.6	-60.3	3.7	0.00e+00	0	52	104	0	82	25262
2026-01-21 08:00:47.95	335.98	53.57	-55.9	-60.5	3.7	0.00e+00	0	52	104	0	82	25777
2026-01-21 08:00:48.80	336.16	53.07	-55.8	-60.4	3.7	0.00e+00	0	51	104	0	82	25667
2026-01-21 08:00:49.93	336.38	52.42	-55.8	-60.4	3.7	0.00e+00	0	52	104	0	82	25475
2026-01-21 08:00:50.79	336.54	51.92	-56.0	-60.5	3.7	0.00e+00	0	52	104	0	82	25806
2026-01-21 08:00:51.92	336.75	51.28	-55.0	-60.0	3.7	0.00e+00	0	52	104	0	82	24291
2026-01-21 08:00:52.79	336.91	50.79	-54.8	-59.9	3.7	0.00e+00	0	52	104	0	81	25432
2026-01-21 08:00:54.10	337.13	50.07	-55.5	-60.3	3.7	0.00e+00	0	51	104	0	81	26605
2026-01-21 08:00:54.81	337.24	49.68	-55.7	-60.4	3.7	0.00e+00	0	52	104	0	82	25636
2026-01-21 08:00:56.09	337.45	48.99	-55.8	-60.4	3.7	0.00e+00	0	52	104	0	82	25503
2026-01-21 08:00:56.81	337.56	48.61	-55.8	-60.4	3.7	0.00e+00	0	52	104	0	82	25457
2026-01-21 08:00:58.09	337.75	47.94	-55.7	-60.4	3.7	0.00e+00	0	52	104	0	82	25395
2026-01-21 08:00:58.83	337.85	47.55	-55.7	-60.3	3.7	0.00e+00	0	52	104	0	82	25361
2026-01-21 08:01:00.11	338.03	46.90	-55.7	-60.4	3.7	0.00e+00	0	52	104	0	82	25495
2026-01-21 08:01:00.88	338.13	46.51	-55.8	-60.4	3.7	0.00e+00	0	52	104	0	82	25641
2026-01-21 08:01:02.16	338.29	45.87	-55.7	-60.4	3.7	0.00e+00	0	52	104	0	82	25463
2026-01-21 08:01:02.87	338.38	45.53	-55.9	-60.4	3.7	0.00e+00	0	52	104	0	82	25667
2026-01-21 08:01:04.15	338.54	44.91	-55.9	-60.4	3.7	0.00e+00	0	51	104	0	82	25626
2026-01-21 08:01:04.86	338.62	44.57	-55.5	-60.3	3.7	0.00e+00	0	52	104	0	82	25114
2026-01-21 08:01:06.14	338.77	43.96	-55.6	-60.3	3.7	0.00e+00	0	51	104	0	82	25272
2026-01-21 08:01:06.85	338.85	43.63	-55.2	-60.1	3.7	0.00e+00	0	52	104	0	82	24676
2026-01-21 08:01:08.14	338.99	43.04	-55.0	-60.0	3.7	0.00e+00	0	52	104	0	81	25906
2026-01-21 08:01:08.85	339.06	42.72	-54.8	-59.9	3.7	0.00e+00	0	52	104	0	81	25668
2026-01-21 08:01:10.17	339.19	42.13	-54.7	-59.9	3.7	0.00e+00	0	52	104	0	81	25397
2026-01-21 08:01:11.15	339.29	41.70	-55.0	-60.1	3.7	0.00e+00	0	52	104	0	81	26104
2026-01-21 08:01:12.46	339.42	41.13	-55.7	-60.3	3.7	0.00e+00	0	52	104	0	82	25382
2026-01-21 08:01:13.21	339.49	40.81	-55.6	-60.3	3.7	0.00e+00	0	52	104	0	82	25243
2026-01-21 08:01:14.49	339.60	40.27	-55.7	-60.4	3.7	0.00e+00	0	52	104	0	82	25426
2026-01-21 08:01:15.21	339.66	39.98	-55.4	-60.2	3.7	0.00e+00	0	52	104	0	82	24983
2026-01-21 08:01:16.49	339.77	39.45	-55.3	-60.1	3.7	0.00e+00	0	52	104	0	82	24770
2026-01-21 08:01:17.20	339.83	39.16	-55.6	-60.3	3.7	0.00e+00	0	52	104	0	82	25289
2026-01-21 08:01:18.48	339.94	38.65	-55.4	-60.2	3.7	0.00e+00	0	51	104	0	82	24898
2026-01-21 08:01:19.21	340.00	38.36	-55.8	-60.4	3.7	0.00e+00	0	52	104	0	82	25386
2026-01-21 08:01:20.49	340.10	37.87	-56.0	-60.5	3.7	0.00e+00	0	52	104	0	82	25879
2026-01-21 08:01:21.21	340.15	37.59	-55.8	-60.4	3.7	0.00e+00	0	52	104	0	82	25549
2026-01-21 08:01:22.56	340.25	37.08	-55.9	-60.4	3.7	0.00e+00	0	52	104	0	82	25667
2026-01-21 08:01:23.27	340.30	36.81	-55.8	-60.4	3.7	0.00e+00	0	52	104	0	82	25534
2026-01-21 08:01:24.55	340.39	36.34	-54.8	-59.9	3.7	0.00e+00	0	52	104	0	81	25393
2026-01-21 08:01:25.27	340.44	36.08	-54.3	-59.5	3.7	0.00e+00	0	52	104	0	80	25896
2026-01-21 08:01:26.68	340.54	35.57	-54.1	-59.5	3.7	0.00e+00	0	52	104	0	80	25721
2026-01-21 08:01:27.39	340.59	35.32	-54.0	-59.4	3.7	0.00e+00	0	52	104	0	79	27049
2026-01-21 08:01:28.75	340.67	34.85	-54.7	-59.8	3.7	0.00e+00	0	52	104	0	79	28278
2026-01-21 08:01:29.46	340.72	34.60	-55.1	-60.0	3.7	0.00e+00	0	52	104	0	80	27222
2026-01-21 08:01:30.73	340.80	34.17	-55.5	-60.2	3.7	0.00e+00	0	52	104	0	81	26413
2026-01-21 08:01:31.46	340.84	33.92	-55.4	-60.1	3.7	0.00e+00	0	52	104	0	81	26169
2026-01-21 08:01:32.74	340.92	33.50	-55.4	-60.1	3.7	0.00e+00	0	52	104	0	81	26213
2026-01-21 08:01:33.46	340.96	33.26	-55.3	-60.0	3.7	0.00e+00	0	52	104	0	81	25912
2026-01-21 08:01:34.74	341.03	32.85	-55.2	-60.0	3.7	0.00e+00	0	52	104	0	81	25848
2026-01-21 08:01:35.45	341.07	32.62	-54.6	-59.7	3.7	0.00e+00	0	52	104	0	81	24986
2026-01-21 08:01:36.73	341.14	32.22	-54.8	-59.8	3.7	0.00e+00	0	52	104	0	80	26768
2026-01-21 08:01:37.46	341.18	31.99	-54.4	-59.6	3.7	0.00e+00	0	52	104	0	80	26121
2026-01-21 08:01:38.73	341.25	31.60	-54.2	-59.6	3.7	0.00e+00	0	52	104	0	79	27566
2026-01-21 08:01:39.44	341.28	31.38	-54.3	-59.7	3.7	0.00e+00	0	52	104	0	79	28017
2026-01-21 08:01:40.72	341.35	31.00	-54.6	-59.8	3.7	0.00e+00	0	52	104	0	80	26736
2026-01-21 08:01:41.43	341.38	30.79	-54.8	-59.9	3.7	0.00e+00	0	52	104	0	80	26949
2026-01-21 08:01:42.71	341.45	30.41	-55.1	-60.0	3.7	0.00e+00	0	52	104	0	80	27359
2026-01-21 08:01:43.68	341.49	30.13	-55.3	-60.1	3.7	0.00e+00	0	52	104	0	81	26228
2026-01-21 08:01:44.94	341.55	29.77	-54.9	-59.8	3.7	0.00e+00	0	52	104	0	81	25229
2026-01-21 08:01:45.76	341.59	29.54	-55.1	-59.9	3.7	0.00e+00	0	52	104	0	81	25482
2026-01-21 08:01:46.90	341.64	29.22	-55.1	-60.0	3.7	0.00e+00	0	52	104	0	81	25893
2026-01-21 08:01:47.76	341.68	28.98	-55.1	-59.8	3.7	0.00e+00	0	52	104	0	81	25293
2026-01-21 08:01:48.89	341.73	28.68	-55.5	-60.1	3.7	0.00e+00	0	52	104	0	81	26008
2026-01-21 08:01:49.75	341.77	28.44	-54.1	-59.3	3.7	0.00e+00	0	52	104	0	80	25098
2026-01-21 08:01:50.88	341.82	28.14	-55.5	-60.0	3.7	0.00e+00	0	52	104	0	81	25881
2026-01-21 08:01:51.74	341.85	27.92	-54.0	-59.3	3.7	0.00e+00	0	52	104	0	79	26834
2026-01-21 08:01:52.87	341.90	27.62	-54.1	-59.4	3.7	0.00e+00	0	52	104	0	79	27089
2026-01-21 08:01:53.73	341.93	27.40	-54.5	-59.5	3.7	0.00e+00	0	52	104	0	79	27398
2026-01-21 08:01:54.86	341.98	27.11	-55.1	-59.8	3.7	0.00e+00	0	52	104	0	80	26678
2026-01-21 08:01:55.71	342.01	26.90	-55.4	-59.9	3.7	0.00e+00	0	52	104	0	81	25588
2026-01-21 08:01:56.85	342.05	26.62	-55.3	-59.7	3.7	0.00e+00	0	52	104	0	81	25058
2026-01-21 08:01:57.70	342.09	26.41	-54.7	-59.4	3.7	0.00e+00	0	52	104	0	81	24067
2026-01-21 08:01:59.00	342.14	26.09	-53.8	-58.9	3.7	0.00e+00	0	51	104	0	79	25498
2026-01-21 08:01:59.71	342.16	25.92	-55.0	-59.6	3.7	0.00e+00	0	52	104	0	80	26123
2026-01-21 08:02:00.99	342.21	25.62	-53.5	-58.7	3.7	0.00e+00	0	52	104	0	79	25010
2026-01-21 08:02:01.73	342.23	25.44	-54.0	-59.2	3.7	0.00e+00	0	52	104	0	79	26531
2026-01-21 08:02:03.24	342.29	25.09	-54.1	-59.0	3.7	0.00e+00	0	52	104	0	79	25701
2026-01-21 08:02:03.96	342.31	24.93	-54.4	-59.1	3.7	0.00e+00	0	51	104	0	79	26240
2026-01-21 08:02:05.24	342.36	24.64	-54.6	-59.2	3.7	0.00e+00	0	52	104	0	79	26423
2026-01-21 08:02:05.96	342.38	24.47	-54.6	-59.2	3.7	0.00e+00	0	52	104	0	80	24938
2026-01-21 08:02:07.24	342.42	24.19	-54.8	-59.3	3.7	0.00e+00	0	52	104	0	80	25365
2026-01-21 08:02:07.96	342.45	24.03	-54.2	-59.0	3.7	0.00e+00	0	52	104	0	80	24423
2026-01-21 08:02:09.24	342.49	23.75	-54.6	-59.2	3.7	0.00e+00	0	51	104	0	80	25067
2026-01-21 08:02:09.95	342.51	23.60	-54.6	-59.1	3.7	0.00e+00	0	52	104	0	80	24799
2026-01-21 08:02:11.23	342.55	23.33	-53.9	-59.2	3.7	0.00e+00	0	52	104	0	79	26307
2026-01-21 08:02:11.96	342.57	23.17	-53.5	-58.8	3.7	0.00e+00	0	52	104	0	78	26826
2026-01-21 08:02:13.23	342.61	22.91	-53.9	-58.9	3.7	0.00e+00	0	52	104	0	78	26997
2026-01-21 08:02:13.98	342.63	22.75	-53.3	-58.6	3.7	0.00e+00	0	52	104	0	78	26244
2026-01-21 08:02:15.26	342.67	22.49	-54.2	-59.4	3.7	0.00e+00	0	52	104	0	79	27140
2026-01-21 08:02:15.97	342.69	22.34	-54.4	-59.5	3.7	0.00e+00	0	52	104	0	79	27277
2026-01-21 08:02:17.25	342.73	22.09	-55.2	-59.9	3.7	0.00e+00	0	52	104	0	80	26966
2026-01-21 08:02:17.96	342.75	21.95	-55.2	-59.9	3.7	0.00e+00	0	52	104	0	81	25400
2026-01-21 08:02:19.24	342.79	21.69	-54.5	-59.4	3.7	0.00e+00	0	52	104	0	81	24083
2026-01-21 08:02:19.98	342.81	21.55	-54.0	-59.2	3.7	0.00e+00	0	52	104	0	79	26308
2026-01-21 08:02:21.26	342.84	21.30	-53.1	-58.6	3.7	0.00e+00	0	52	104	0	78	26000
2026-01-21 08:02:21.97	342.86	21.17	-54.6	-59.6	3.7	0.00e+00	0	52	104	0	79	27614
2026-01-21 08:02:23.25	342.89	20.92	-53.4	-58.9	3.7	0.00e+00	0	52	104	0	78	27067
2026-01-21 08:02:23.96	342.91	20.79	-54.5	-59.1	3.7	0.00e+00	0	52	104	0	79	25989
2026-01-21 08:02:25.24	342.95	20.55	-55.2	-59.9	3.7	0.00e+00	0	52	104	0	80	27013
2026-01-21 08:02:25.95	342.97	20.42	-55.5	-60.1	3.7	0.00e+00	0	52	104	0	81	26044
2026-01-21 08:02:27.23	343.00	20.19	-55.6	-60.1	3.7	0.00e+00	0	52	104	0	81	26084
2026-01-21 08:02:27.94	343.02	20.06	-55.6	-60.1	3.7	0.00e+00	0	52	104	0	81	26075
2026-01-21 08:02:29.22	343.05	19.83	-55.6	-60.2	3.7	0.00e+00	0	52	104	0	81	26551
2026-01-21 08:02:29.93	343.07	19.70	-54.5	-59.5	3.7	0.00e+00	0	52	104	0	81	24311
2026-01-21 08:02:31.21	343.10	19.48	-55.5	-60.1	3.7	0.00e+00	0	52	104	0	81	26080
2026-01-21 08:02:32.01	343.12	19.34	-54.3	-59.5	3.7	0.00e+00	0	52	104	0	80	25851
2026-01-21 08:02:33.15	343.14	19.14	-54.4	-59.2	3.7	0.00e+00	0	52	104	0	80	24882
2026-01-21 08:02:34.19	343.17	18.96	-54.7	-59.6	3.7	0.00e+00	0	52	104	0	80	26256
2026-01-21 08:02:35.33	343.20	18.77	-55.2	-59.9	3.7	0.00e+00	0	52	104	0	81	25567
2026-01-21 08:02:36.24	343.22	18.62	-55.3	-59.9	3.7	0.00e+00	0	52	104	0	81	25539
2026-01-21 08:02:37.24	343.24	18.45	-55.2	-59.8	3.7	0.00e+00	0	52	104	0	81	25324
2026-01-21 08:02:38.44	343.27	18.25	-54.9	-59.7	3.7	0.00e+00	0	52	104	0	81	24990
2026-01-21 08:02:39.32	343.29	18.11	-55.1	-59.9	3.7	0.00e+00	0	52	104	0	81	25454
2026-01-21 08:02:40.63	343.32	17.90	-55.3	-60.1	3.7	0.00e+00	0	52	104	0	81	25996
2026-01-21 08:02:41.34	343.33	17.78	-54.8	-59.7	3.7	0.00e+00	0	52	104	0	81	25046
2026-01-21 08:02:42.84	343.36	17.54	-53.4	-58.8	3.7	0.00e+00	0	52	104	0	78	26749
2026-01-21 08:02:43.55	343.38	17.43	-53.4	-58.8	3.7	0.00e+00	0	52	104	0	78	26705
2026-01-21 08:02:44.83	343.41	17.23	-53.8	-59.0	3.7	0.00e+00	0	52	104	0	78	27446
2026-01-21 08:02:45.56	343.42	17.12	-54.2	-59.3	3.7	0.00e+00	0	52	104	0	78	28458
2026-01-21 08:02:46.83	343.45	16.92	-54.8	-59.8	3.7	0.00e+00	0	52	104	0	80	26592
2026-01-21 08:02:47.55	343.46	16.81	-54.7	-59.6	3.7	0.00e+00	0	52	104	0	80	26225
2026-01-21 08:02:48.82	343.49	16.62	-54.0	-59.3	3.7	0.00e+00	0	52	104	0	79	26639
2026-01-21 08:02:49.54	343.50	16.51	-55.2	-60.1	3.7	0.00e+00	0	52	104	0	80	27611
2026-01-21 08:02:50.81	343.53	16.32	-54.7	-59.7	3.7	0.00e+00	0	52	104	0	81	24885
2026-01-21 08:02:51.53	343.54	16.22	-54.9	-59.8	3.7	0.00e+00	0	52	104	0	80	26705
2026-01-21 08:02:52.81	343.57	16.03	-55.3	-60.1	3.7	0.00e+00	0	51	104	0	81	26141
2026-01-21 08:02:53.53	343.58	15.92	-55.2	-60.0	3.7	0.00e+00	0	52	104	0	81	25902
2026-01-21 08:02:54.81	343.61	15.74	-54.5	-59.6	3.7	0.00e+00	0	52	104	0	81	24762
2026-01-21 08:02:55.52	343.62	15.64	-54.0	-59.3	3.7	0.00e+00	0	52	104	0	79	26888
2026-01-21 08:02:56.80	343.64	15.45	-52.6	-58.4	3.7	0.00e+00	0	52	104	0	77	26936
2026-01-21 08:02:57.53	343.66	15.35	-52.9	-58.5	3.7	0.00e+00	0	52	104	0	76	29088
2026-01-21 08:02:58.81	343.68	15.17	-53.7	-59.2	3.7	0.00e+00	0	52	104	0	77	29737
2026-01-21 08:02:59.53	343.70	15.07	-52.9	-58.6	3.7	0.00e+00	0	52	104	0	77	27591
2026-01-21 08:03:00.81	343.72	14.89	-52.9	-58.6	3.7	0.00e+00	0	52	104	0	77	27609
2026-01-21 08:03:01.52	343.73	14.80	-53.7	-59.2	3.7	0.00e+00	0	52	104	0	77	29573
2026-01-21 08:03:02.80	343.76	14.62	-54.3	-59.7	3.7	0.00e+00	0	52	104	0	79	28025
2026-01-21 08:03:03.51	343.77	14.53	-54.4	-59.8	3.7	0.00e+00	0	52	104	0	79	28389
2026-01-21 08:03:04.79	343.79	14.36	-53.8	-59.3	3.7	0.00e+00	0	52	104	0	78	28216
2026-01-21 08:03:05.52	343.80	14.26	-53.9	-59.4	3.7	0.00e+00	0	52	104	0	78	28660
2026-01-21 08:03:06.80	343.83	14.09	-54.1	-59.6	3.7	0.00e+00	0	52	104	0	78	29229
2026-01-21 08:03:07.52	343.84	14.00	-54.3	-59.8	3.7	0.00e+00	0	52	104	0	79	28239
2026-01-21 08:03:08.80	343.86	13.83	-54.4	-59.8	3.7	0.00e+00	0	52	104	0	79	28287
2026-01-21 08:03:09.51	343.87	13.74	-54.4	-59.8	3.7	0.00e+00	0	52	104	0	79	28182
2026-01-21 08:03:10.79	343.89	13.57	-52.7	-58.6	3.7	0.00e+00	0	52	104	0	77	27687
2026-01-21 08:03:11.52	343.91	13.48	-52.8	-58.7	3.7	0.00e+00	0	52	104	0	77	27912
2026-01-21 08:03:12.80	343.93	13.32	-53.2	-59.0	3.7	0.00e+00	0	52	104	0	77	28922
2026-01-21 08:03:13.57	343.94	13.22	-53.4	-59.1	3.7	0.00e+00	0	52	104	0	77	29410
2026-01-21 08:03:14.84	343.96	13.06	-53.5	-59.3	3.7	0.00e+00	0	52	104	0	77	29962
2026-01-21 08:03:15.62	343.97	12.96	-53.6	-59.3	3.7	0.00e+00	0	52	104	0	77	30077
2026-01-21 08:03:16.90	343.99	12.81	-53.6	-59.3	3.7	0.00e+00	0	52	104	0	77	30007
2026-01-21 08:03:17.62	344.01	12.72	-53.7	-59.3	3.7	0.00e+00	0	52	104	0	78	28478
2026-01-21 08:03:19.24	344.03	12.52	-53.9	-59.5	3.7	0.00e+00	0	52	104	0	78	28929
2026-01-21 08:03:19.82	344.04	12.45	-53.8	-59.4	3.7	0.00e+00	0	52	104	0	78	28751
2026-01-21 08:03:21.38	344.06	12.27	-53.5	-59.2	3.7	0.00e+00	0	52	104	0	77	29709
2026-01-21 08:03:22.18	344.08	12.17	-53.8	-59.4	3.7	0.00e+00	0	52	104	0	78	28785
2026-01-21 08:03:23.32	344.09	12.04	-52.7	-58.6	3.7	0.00e+00	0	52	104	0	77	27543
2026-01-21 08:03:24.17	344.11	11.94	-52.7	-58.6	3.7	0.00e+00	0	52	104	0	77	27596
2026-01-21 08:03:25.31	344.12	11.80	-52.6	-58.5	3.7	0.00e+00	0	52	104	0	77	27360
2026-01-21 08:03:26.16	344.14	11.71	-52.7	-58.6	3.7	0.00e+00	0	52	104	0	77	27624
2026-01-21 08:03:27.30	344.15	11.57	-52.7	-58.7	3.7	0.00e+00	0	52	104	0	77	28000
2026-01-21 08:03:28.15	344.17	11.48	-52.9	-58.7	3.7	0.00e+00	0	52	104	0	77	28010
2026-01-21 08:03:29.29	344.18	11.35	-52.8	-58.7	3.7	0.00e+00	0	52	104	0	77	27850
2026-01-21 08:03:30.14	344.20	11.25	-52.6	-58.4	3.7	0.00e+00	0	52	104	0	77	26942
2026-01-21 08:03:31.28	344.21	11.12	-52.9	-58.8	3.7	0.00e+00	0	52	104	0	77	28200
2026-01-21 08:03:32.13	344.22	11.03	-52.6	-58.6	3.7	0.00e+00	0	52	104	0	77	27775
2026-01-21 08:03:33.27	344.24	10.90	-52.6	-58.4	3.7	0.00e+00	0	52	104	0	77	27152
2026-01-21 08:03:34.12	344.25	10.81	-52.3	-58.5	3.7	0.00e+00	0	52	104	0	76	28816
2026-01-21 08:03:35.58	344.27	10.65	-52.0	-58.1	3.7	0.00e+00	0	52	104	0	76	27669
2026-01-21 08:03:36.29	344.28	10.57	-51.6	-57.8	3.7	0.00e+00	0	52	104	0	74	29987
2026-01-21 08:03:37.57	344.30	10.43	-52.2	-58.4	3.7	0.00e+00	0	52	104	0	76	28668
2026-01-21 08:03:38.28	344.31	10.36	-50.4	-56.9	3.7	0.00e+00	0	52	104	0	72	30373
2026-01-21 08:03:39.56	344.33	10.22	-49.9	-56.5	3.8	0.00e+00	0	52	104	0	71	30680
2026-01-21 08:03:40.29	344.34	10.14	-49.5	-56.3	3.8	0.00e+00	0	52	104	0	71	29972
2026-01-21 08:03:41.56	344.36	10.01	-49.3	-56.0	3.9	0.00e+00	0	52	104	0	70	30681
2026-01-21 08:03:42.27	344.36	9.93	-49.2	-56.0	3.9	0.00e+00	0	52	104	0	70	30769
2026-01-21 08:03:43.55	344.38	9.80	-49.5	-56.3	3.8	0.00e+00	0	52	104	0	70	31845
2026-01-21 08:03:44.28	344.39	9.73	-49.7	-56.6	3.8	0.00e+00	0	52	104	0	70	32841
2026-01-21 08:03:45.56	344.41	9.59	-49.3	-56.1	3.9	0.00e+00	0	52	104	0	70	31002
2026-01-21 08:03:46.29	344.42	9.52	-50.6	-57.0	3.7	0.00e+00	0	52	104	0	72	30826
2026-01-21 08:03:47.57	344.43	9.39	-49.4	-56.2	3.9	0.00e+00	0	52	104	0	70	31541
2026-01-21 08:03:48.28	344.44	9.32	-49.9	-56.7	3.8	0.00e+00	0	52	104	0	70	33432
2026-01-21 08:03:49.57	344.46	9.19	-49.4	-56.3	3.8	0.00e+00	0	52	104	0	70	31875
2026-01-21 08:03:50.29	344.47	9.11	-49.4	-56.3	3.8	0.00e+00	0	52	104	0	70	31800
2026-01-21 08:03:51.57	344.49	8.99	-49.2	-56.1	3.9	0.00e+00	0	52	104	0	70	30919
2026-01-21 08:03:52.28	344.50	8.91	-52.4	-58.3	3.7	0.00e+00	0	52	104	0	75	30086
2026-01-21 08:03:53.75	344.51	8.77	-53.6	-59.1	3.7	0.00e+00	0	52	104	0	79	26131
2026-01-21 08:03:54.45	344.52	8.70	-54.0	-59.5	3.7	0.00e+00	0	52	104	0	79	27207
2026-01-21 08:03:55.81	344.54	8.57	-53.1	-58.9	3.7	0.00e+00	0	52	104	0	78	27083
2026-01-21 08:03:56.52	344.55	8.50	-53.7	-59.1	3.7	0.00e+00	0	52	104	0	79	26275
2026-01-21 08:03:57.86	344.56	8.37	-55.3	-59.4	3.7	0.00e+00	0	52	104	0	81	24137
2026-01-21 08:03:58.57	344.57	8.30	-54.4	-59.4	3.7	0.00e+00	0	52	104	0	80	25431
2026-01-21 08:03:59.85	344.59	8.18	-53.9	-59.4	3.7	0.00e+00	0	52	104	0	80	25522
2026-01-21 08:04:00.57	344.60	8.11	-56.1	-60.7	3.7	0.00e+00	0	52	104	0	82	26390
2026-01-21 08:04:01.85	344.61	7.99	-55.8	-60.5	3.7	0.00e+00	0	52	104	0	83	24517
2026-01-21 08:04:02.57	344.62	7.92	-55.4	-60.5	3.7	0.00e+00	0	52	104	0	82	25694
2026-01-21 08:04:03.85	344.64	7.80	-56.0	-60.6	3.7	0.00e+00	0	52	104	0	83	24611
2026-01-21 08:04:04.56	344.65	7.74	-56.1	-60.7	3.7	0.00e+00	0	52	104	0	83	24856
2026-01-21 08:04:05.85	344.66	7.62	-56.0	-60.5	3.7	0.00e+00	0	52	104	0	82	25972
2026-01-21 08:04:06.56	344.67	7.55	-55.8	-60.6	3.6	0.00e+00	0	52	104	0	83	24530
2026-01-21 08:04:07.84	344.68	7.43	-55.8	-60.6	3.7	0.00e+00	0	52	104	0	82	26079
2026-01-21 08:04:08.55	344.69	7.37	-55.9	-60.6	3.7	0.00e+00	0	52	104	0	83	24606
2026-01-21 08:04:09.83	344.71	7.25	-55.7	-60.5	3.7	0.00e+00	0	52	104	0	83	24473
2026-01-21 08:04:10.54	344.71	7.19	-56.2	-60.8	3.7	0.00e+00	0	52	104	0	83	25144
2026-01-21 08:04:11.81	344.73	7.07	-56.4	-60.9	3.7	0.00e+00	0	52	104	0	83	25416
2026-01-21 08:04:12.52	344.74	7.01	-56.0	-60.6	3.7	0.00e+00	0	52	104	0	83	24798
2026-01-21 08:04:13.80	344.75	6.90	-56.3	-60.7	3.7	0.00e+00	0	52	104	0	83	25084
2026-01-21 08:04:14.53	344.76	6.83	-56.1	-60.7	3.7	0.00e+00	0	52	104	0	83	24877
2026-01-21 08:04:15.82	344.77	6.72	-55.9	-60.4	3.7	0.00e+00	0	52	104	0	83	24200
2026-01-21 08:04:16.53	344.78	6.65	-56.0	-60.5	3.7	0.00e+00	0	52	104	0	83	24315
2026-01-21 08:04:17.81	344.80	6.54	-55.8	-60.2	3.7	0.00e+00	0	52	104	0	82	25074
2026-01-21 08:04:18.52	344.80	6.48	-55.6	-60.1	3.7	0.00e+00	0	52	104	0	82	24569
2026-01-21 08:04:19.79	344.82	6.37	-55.5	-60.0	3.7	0.00e+00	0	52	104	0	82	24449
2026-01-21 08:04:20.52	344.83	6.31	-55.5	-60.0	3.7	0.00e+00	0	52	104	0	82	24466
2026-01-21 08:04:21.80	344.84	6.20	-55.5	-60.0	3.7	0.00e+00	0	52	104	0	82	24465
2026-01-21 08:04:22.51	344.85	6.14	-55.5	-60.0	3.7	0.00e+00	0	52	104	0	82	24446
2026-01-21 08:04:23.78	344.86	6.03	-55.5	-60.0	3.7	0.00e+00	0	52	104	0	82	24359
2026-01-21 08:04:24.51	344.87	5.97	-55.5	-60.0	3.7	0.00e+00	0	52	104	0	82	24427
2026-01-21 08:04:25.79	344.88	5.86	-55.5	-60.0	3.7	0.00e+00	0	52	104	0	82	24380
2026-01-21 08:04:26.51	344.89	5.80	-55.5	-60.0	3.7	0.00e+00	0	51	104	0	82	24512
2026-01-21 08:04:27.79	344.90	5.69	-55.5	-60.0	3.7	0.00e+00	0	52	104	0	82	24454
2026-01-21 08:04:28.51	344.91	5.63	-55.5	-60.0	3.7	0.00e+00	0	52	104	0	82	24356
2026-01-21 08:04:29.79	344.93	5.52	-55.5	-60.0	3.7	0.00e+00	0	52	104	0	82	24410
2026-01-21 08:04:30.50	344.93	5.46	-55.5	-60.0	3.7	0.00e+00	0	52	104	0	82	24418
2026-01-21 08:04:31.78	344.95	5.36	-55.5	-60.0	3.7	0.00e+00	0	52	104	0	82	24404
2026-01-21 08:04:32.50	344.95	5.30	-55.5	-60.0	3.7	0.00e+00	0	52	104	0	82	24467
2026-01-21 08:04:33.78	344.97	5.19	-55.5	-60.0	3.7	0.00e+00	0	52	104	0	82	24441
2026-01-21 08:04:34.50	344.97	5.14	-55.5	-60.0	3.7	0.00e+00	0	52	104	0	82	24409
2026-01-21 08:04:35.78	344.99	5.03	-55.5	-60.0	3.7	0.00e+00	0	52	104	0	82	24378
2026-01-21 08:04:36.49	345.00	4.98	-55.5	-60.0	3.7	0.00e+00	0	52	104	0	82	24431
2026-01-21 08:04:37.78	345.01	4.87	-55.5	-60.0	3.7	0.00e+00	0	52	104	0	82	24332

#Closed at: 2026-01-21 08:04:38
#Recorded file [0 MB]: D:/Data/31040_260121_105530.dat