passes_logs/2026/01/21/T1/T1__20260121_102357_NOAA_21_JPSS-2_rec.log

#Pass ID: 20260121_102357_NOAA 21 (JPSS-2)
#Satellite: NOAA 21 (JPSS-2)
#Configuration: NOAA 21
#almurnet v.1.7.20251203
#Start time: 2026-01-21 10:23:57

#Version: 2.0.20230620
#Station: T1
#Location: 37.570604 lon 55.790049 lat
#TLE: 1 54234U 22150A   26020.93347024  .00000206  00000+0  11859-3 0  9994
#TLE: 2 54234  98.7506 321.7615 0000627 245.8100 114.3011 14.19536899165654

#Time	Az	El	Level	Level2	SNR	BER	BlckErr	Temp	State	Recorded	gain1	gain2
2026-01-21 10:23:57.44	175.13	5.01	-52.2	-65.6	3.8	1.49e+00	0	36	0	0	76	16375
2026-01-21 10:23:58.43	175.16	5.08	-50.2	-65.0	3.8	1.49e+00	0	36	104	0	72	19244
2026-01-21 10:23:59.43	175.19	5.15	-49.7	-65.0	3.8	1.49e+00	0	36	104	0	71	20429
2026-01-21 10:24:00.42	175.22	5.22	-49.7	-65.0	3.8	1.49e+00	0	36	104	0	71	20331
2026-01-21 10:24:01.41	175.25	5.29	-49.8	-65.0	3.8	1.49e+00	0	36	104	0	71	20360
2026-01-21 10:24:02.41	175.27	5.36	-49.7	-64.9	3.8	1.49e+00	0	36	104	0	71	20201
2026-01-21 10:24:03.40	175.30	5.43	-49.7	-64.9	3.8	1.49e+00	0	36	104	0	71	20203
2026-01-21 10:24:04.40	175.33	5.51	-49.8	-64.9	3.8	1.49e+00	0	37	104	0	71	20102
2026-01-21 10:24:05.39	175.36	5.58	-49.7	-64.8	3.8	1.49e+00	0	36	104	0	71	20034
2026-01-21 10:24:06.38	175.39	5.65	-49.7	-64.8	3.8	1.49e+00	0	37	104	0	71	19968
2026-01-21 10:24:07.37	175.41	5.72	-49.7	-64.8	3.8	1.49e+00	0	36	104	0	71	19906
2026-01-21 10:24:08.37	175.44	5.79	-49.8	-64.8	3.8	1.49e+00	0	36	104	0	71	19868
2026-01-21 10:24:09.36	175.47	5.86	-49.8	-64.8	3.8	1.49e+00	0	37	104	0	71	19879
2026-01-21 10:24:10.35	175.50	5.94	-49.8	-64.7	3.8	1.49e+00	0	37	104	0	71	19794
2026-01-21 10:24:11.35	175.53	6.01	-49.8	-64.8	3.8	1.49e+00	0	37	104	0	71	19893
2026-01-21 10:24:12.34	175.56	6.08	-49.7	-64.8	3.8	1.49e+00	0	37	104	0	71	19932
2026-01-21 10:24:13.33	175.59	6.16	-49.7	-64.8	3.8	1.49e+00	0	37	104	0	71	19876
2026-01-21 10:24:14.33	175.62	6.23	-49.8	-64.8	3.8	1.49e+00	0	37	104	0	71	19880
2026-01-21 10:24:15.32	175.65	6.30	-49.8	-64.7	3.8	1.49e+00	0	37	104	0	71	19773
2026-01-21 10:24:16.31	175.68	6.38	-49.7	-64.7	3.8	1.49e+00	0	37	104	0	71	19673
2026-01-21 10:24:17.31	175.71	6.45	-49.7	-64.5	3.8	1.49e+00	0	37	104	0	71	19205
2026-01-21 10:24:18.30	175.74	6.52	-49.7	-64.3	3.8	1.49e+00	0	37	104	0	71	18861
2026-01-21 10:24:19.29	175.77	6.60	-49.7	-64.1	3.8	1.49e+00	0	37	104	0	71	18363
2026-01-21 10:24:20.29	175.80	6.67	-49.7	-63.9	3.8	1.49e+00	0	37	104	0	71	17988
2026-01-21 10:24:21.28	175.83	6.75	-49.7	-63.6	3.8	1.49e+00	0	37	104	0	71	17391
2026-01-21 10:24:22.27	175.86	6.82	-49.6	-63.4	3.8	1.49e+00	0	37	104	0	71	16950
2026-01-21 10:24:23.27	175.89	6.90	-49.6	-63.2	3.8	1.49e+00	0	37	104	0	71	16694
2026-01-21 10:24:24.26	175.92	6.97	-49.6	-62.8	4.0	1.49e+00	0	37	104	0	71	15811
2026-01-21 10:24:25.25	175.95	7.05	-49.5	-62.4	4.0	1.49e+00	0	37	104	0	71	15104
2026-01-21 10:24:26.25	175.98	7.13	-49.5	-61.9	4.1	1.47e+00	0	37	104	0	71	14260
2026-01-21 10:24:27.24	176.01	7.20	-49.5	-61.7	3.9	1.47e+00	0	37	104	0	70	14801
2026-01-21 10:24:28.23	176.05	7.28	-49.4	-60.6	4.0	1.20e+00	0	37	104	0	70	13007
2026-01-21 10:24:29.23	176.08	7.35	-49.2	-58.6	5.5	5.49e-01	0	37	0	0	70	10398
2026-01-21 10:24:30.22	176.11	7.43	-48.9	-57.0	6.8	2.28e-01	0	37	0	0	69	9111
2026-01-21 10:24:31.21	176.14	7.51	-48.5	-55.5	8.2	7.04e-02	0	37	0	0	69	7697
2026-01-21 10:24:32.21	176.17	7.59	-48.1	-54.3	9.4	2.94e-02	0	37	0	0	68	7082
2026-01-21 10:24:33.20	176.21	7.66	-47.6	-53.0	10.6	5.02e-03	0	38	0	0	67	6427
2026-01-21 10:24:34.19	176.24	7.74	-47.2	-52.0	11.6	9.54e-04	0	38	0	0	66	6113
2026-01-21 10:24:35.18	176.27	7.82	-46.8	-51.2	12.4	1.87e-04	0	37	0	0	65	5889
2026-01-21 10:24:36.18	176.30	7.90	-46.5	-50.7	12.9	5.56e-05	0	37	0	0	65	5561
2026-01-21 10:24:37.17	176.34	7.97	-46.3	-50.2	13.4	1.60e-05	0	38	0	0	64	5558
2026-01-21 10:24:38.16	176.37	8.05	-46.0	-49.8	13.8	3.80e-06	0	38	0	0	64	5335
2026-01-21 10:24:39.16	176.40	8.13	-46.1	-50.0	13.7	9.90e-06	0	37	0	0	64	5407
2026-01-21 10:24:40.15	176.44	8.21	-46.2	-50.1	13.5	7.60e-06	0	37	0	0	64	5517
2026-01-21 10:24:41.14	176.47	8.29	-46.3	-50.3	13.3	1.14e-05	0	38	0	0	64	5643
2026-01-21 10:24:42.14	176.50	8.37	-46.6	-50.8	12.8	3.89e-05	0	38	0	0	64	5977
2026-01-21 10:24:43.13	176.54	8.45	-47.0	-51.6	12.0	2.30e-04	0	38	0	0	64	6523
2026-01-21 10:24:44.12	176.57	8.53	-47.3	-52.4	11.2	1.19e-03	0	38	0	0	65	6774
2026-01-21 10:24:45.11	176.61	8.61	-47.8	-53.4	10.1	5.00e-03	0	37	0	0	66	7191
2026-01-21 10:24:46.11	176.64	8.69	-48.1	-54.6	9.0	1.66e-02	0	38	0	0	66	8230
2026-01-21 10:24:47.10	176.67	8.77	-48.6	-56.1	7.4	7.41e-02	0	38	0	0	67	9230
2026-01-21 10:24:48.09	176.71	8.85	-49.0	-57.8	6.1	2.45e-01	0	38	0	0	68	10608
2026-01-21 10:24:49.09	176.74	8.93	-49.3	-59.4	5.0	6.03e-01	0	38	0	0	69	12030
2026-01-21 10:24:50.08	176.78	9.02	-49.4	-60.9	4.4	1.16e+00	0	38	104	0	69	14324
2026-01-21 10:24:51.07	176.81	9.10	-49.0	-54.4	9.4	4.88e-02	0	38	0	0	69	6750
2026-01-21 10:24:52.27	176.86	9.20	-49.0	-54.1	9.8	1.54e-03	0	38	0	0	68	6944
2026-01-21 10:24:53.13	176.89	9.27	-49.4	-64.5	3.8	1.49e+00	0	38	104	0	70	20321
2026-01-21 10:24:54.26	176.93	9.36	-50.1	-56.6	7.1	3.58e-01	0	38	0	0	71	7772
2026-01-21 10:24:55.12	176.96	9.43	-46.3	-49.2	14.5	7.00e-07	0	38	0	0	64	4944
2026-01-21 10:24:56.25	177.00	9.53	-46.1	-49.0	14.7	7.00e-07	0	38	0	0	64	4819
2026-01-21 10:24:57.11	177.03	9.60	-45.6	-48.3	15.5	0.00e+00	0	38	0	0	63	4711
2026-01-21 10:24:58.25	177.08	9.70	-45.0	-47.5	16.2	0.00e+00	0	38	0	0	61	4861
2026-01-21 10:24:59.10	177.11	9.77	-45.0	-47.5	16.2	0.00e+00	0	38	0	0	61	4856
2026-01-21 10:25:00.24	177.15	9.87	-44.7	-47.2	16.5	0.00e+00	0	38	0	0	61	4682
2026-01-21 10:25:01.09	177.18	9.94	-44.3	-46.8	16.9	0.00e+00	0	38	0	0	60	4713
2026-01-21 10:25:02.23	177.22	10.03	-44.0	-46.3	17.3	0.00e+00	0	38	0	0	59	4729
2026-01-21 10:25:03.08	177.26	10.11	-43.9	-46.3	17.3	0.00e+00	0	38	0	0	59	4726
2026-01-21 10:25:04.22	177.30	10.21	-43.9	-46.3	17.3	0.00e+00	0	38	0	0	59	4706
2026-01-21 10:25:05.07	177.33	10.28	-43.9	-46.2	17.4	0.00e+00	0	38	0	0	59	4665
2026-01-21 10:25:06.32	177.38	10.39	-43.7	-46.0	17.5	0.00e+00	0	38	0	0	59	4578
2026-01-21 10:25:07.17	177.41	10.46	-43.7	-46.0	17.6	0.00e+00	0	38	0	0	59	4554
2026-01-21 10:25:08.31	177.46	10.56	-43.8	-46.0	17.5	0.00e+00	0	38	0	0	59	4576
2026-01-21 10:25:09.16	177.49	10.64	-43.7	-45.9	17.6	0.00e+00	0	38	0	0	59	4545
2026-01-21 10:25:10.44	177.54	10.75	-43.7	-45.9	17.7	0.00e+00	0	38	0	0	59	4494
2026-01-21 10:25:11.17	177.57	10.81	-43.9	-45.9	17.6	0.00e+00	0	38	0	0	59	4543
2026-01-21 10:25:12.45	177.62	10.93	-43.8	-45.9	17.7	0.00e+00	0	38	0	0	59	4497
2026-01-21 10:25:13.16	177.65	10.99	-43.8	-45.8	17.7	0.00e+00	0	38	0	0	59	4470
2026-01-21 10:25:14.44	177.70	11.10	-43.7	-45.7	17.8	0.00e+00	0	38	0	0	59	4407
2026-01-21 10:25:15.17	177.73	11.17	-43.6	-45.6	17.9	0.00e+00	0	38	0	0	59	4355
2026-01-21 10:25:16.45	177.78	11.28	-43.7	-45.7	17.8	0.00e+00	0	38	0	0	59	4399
2026-01-21 10:25:17.16	177.81	11.35	-43.7	-45.7	17.9	0.00e+00	0	38	0	0	59	4402
2026-01-21 10:25:18.44	177.86	11.46	-43.6	-45.5	18.0	0.00e+00	0	38	0	0	59	4330
2026-01-21 10:25:19.17	177.90	11.53	-43.7	-45.6	17.9	0.00e+00	0	38	0	0	59	4375
2026-01-21 10:25:20.45	177.95	11.64	-43.8	-45.7	17.8	0.00e+00	0	38	0	0	59	4425
2026-01-21 10:25:21.16	177.98	11.71	-43.6	-45.5	18.0	0.00e+00	0	38	0	0	59	4325
2026-01-21 10:25:22.48	178.03	11.83	-43.6	-45.5	18.0	0.00e+00	0	38	0	0	59	4335
2026-01-21 10:25:23.19	178.06	11.90	-43.5	-45.4	18.1	0.00e+00	0	38	0	0	59	4260
2026-01-21 10:25:24.51	178.12	12.02	-43.5	-45.4	18.1	0.00e+00	0	38	0	0	58	4538
2026-01-21 10:25:25.22	178.15	12.08	-43.5	-45.5	18.1	0.00e+00	0	38	0	0	58	4553
2026-01-21 10:25:26.57	178.21	12.21	-43.4	-45.3	18.2	0.00e+00	0	38	0	0	58	4485
2026-01-21 10:25:27.28	178.24	12.28	-43.4	-45.3	18.2	0.00e+00	0	38	0	0	58	4481
2026-01-21 10:25:28.55	178.30	12.39	-43.5	-45.4	18.1	0.00e+00	0	38	0	0	58	4545
2026-01-21 10:25:29.27	178.33	12.46	-43.5	-45.4	18.1	0.00e+00	0	38	0	0	58	4530
2026-01-21 10:25:30.55	178.38	12.58	-43.3	-45.2	18.3	0.00e+00	0	38	0	0	58	4440
2026-01-21 10:25:31.26	178.42	12.65	-43.3	-45.2	18.3	0.00e+00	0	38	0	0	58	4440
2026-01-21 10:25:32.72	178.48	12.79	-43.2	-45.1	18.4	0.00e+00	0	38	0	0	58	4376
2026-01-21 10:25:33.43	178.51	12.86	-43.2	-45.1	18.4	0.00e+00	0	38	0	0	58	4379
2026-01-21 10:25:34.76	178.57	12.98	-43.2	-45.1	18.4	0.00e+00	0	38	0	0	58	4382
2026-01-21 10:25:35.72	178.62	13.08	-43.2	-45.1	18.4	0.00e+00	0	38	0	0	58	4381
2026-01-21 10:25:36.72	178.66	13.17	-43.2	-45.1	18.5	0.00e+00	0	38	0	0	58	4346
2026-01-21 10:25:37.72	178.71	13.27	-43.1	-45.0	18.5	0.00e+00	0	38	0	0	58	4334
2026-01-21 10:25:38.71	178.75	13.37	-43.2	-45.1	18.5	0.00e+00	0	38	0	0	58	4378
2026-01-21 10:25:39.71	178.80	13.46	-43.3	-45.2	18.4	0.00e+00	0	38	0	0	58	4418
2026-01-21 10:25:40.71	178.85	13.56	-43.1	-45.0	18.6	0.00e+00	0	38	0	0	58	4295
2026-01-21 10:25:41.70	178.90	13.66	-43.1	-45.0	18.6	0.00e+00	0	38	0	0	58	4337
2026-01-21 10:25:42.69	178.94	13.76	-43.1	-44.9	18.6	0.00e+00	0	38	0	0	58	4288
2026-01-21 10:25:43.75	178.99	13.86	-43.2	-45.1	18.5	0.00e+00	0	38	0	0	58	4362
2026-01-21 10:25:44.62	179.04	13.95	-43.1	-45.0	18.6	0.00e+00	0	38	0	0	58	4310
2026-01-21 10:25:45.76	179.09	14.06	-43.2	-45.0	18.6	0.00e+00	0	38	0	0	58	4330
2026-01-21 10:25:46.61	179.13	14.15	-43.2	-45.1	18.5	0.00e+00	0	38	0	0	58	4346
2026-01-21 10:25:47.75	179.19	14.26	-43.3	-45.2	18.4	0.00e+00	0	38	0	0	58	4412
2026-01-21 10:25:48.60	179.23	14.35	-43.4	-45.3	18.4	0.00e+00	0	38	0	0	58	4452
2026-01-21 10:25:49.74	179.29	14.47	-43.3	-45.2	18.4	0.00e+00	0	38	0	0	58	4414
2026-01-21 10:25:50.80	179.34	14.58	-43.1	-45.0	18.6	0.00e+00	0	38	0	0	58	4315
2026-01-21 10:25:51.82	179.39	14.68	-43.1	-45.0	18.7	0.00e+00	0	38	0	0	58	4305
2026-01-21 10:25:52.82	179.44	14.78	-43.1	-44.9	18.7	0.00e+00	0	38	0	0	58	4290
2026-01-21 10:25:53.81	179.49	14.89	-43.1	-44.9	18.7	0.00e+00	0	38	0	0	58	4289
2026-01-21 10:25:54.81	179.55	14.99	-43.0	-44.8	18.7	0.00e+00	0	38	0	0	58	4240
2026-01-21 10:25:55.80	179.60	15.09	-43.1	-45.0	18.6	0.00e+00	0	38	0	0	58	4303
2026-01-21 10:25:56.80	179.65	15.20	-43.1	-44.9	18.7	0.00e+00	0	38	0	0	58	4278
2026-01-21 10:25:57.79	179.70	15.30	-43.1	-44.9	18.7	0.00e+00	0	38	0	0	58	4286
2026-01-21 10:25:58.78	179.75	15.41	-43.0	-44.9	18.7	0.00e+00	0	39	0	0	58	4264
2026-01-21 10:25:59.78	179.81	15.51	-43.1	-44.9	18.7	0.00e+00	0	38	0	0	58	4290
2026-01-21 10:26:00.78	179.86	15.62	-43.2	-45.1	18.6	0.00e+00	0	38	0	0	58	4349
2026-01-21 10:26:01.77	179.91	15.72	-43.1	-45.0	18.6	0.00e+00	0	38	0	0	58	4315
2026-01-21 10:26:02.81	179.97	15.84	-43.1	-44.9	18.7	0.00e+00	0	39	0	0	58	4257
2026-01-21 10:26:03.79	180.02	15.94	-43.1	-45.0	18.7	0.00e+00	0	39	0	0	58	4297
2026-01-21 10:26:04.85	180.08	16.06	-43.1	-44.9	18.7	0.00e+00	0	38	0	0	58	4270
2026-01-21 10:26:05.73	180.13	16.15	-43.1	-45.0	18.6	0.00e+00	0	39	0	0	58	4312
2026-01-21 10:26:06.87	180.19	16.28	-43.1	-45.0	18.7	0.00e+00	0	39	0	0	58	4312
2026-01-21 10:26:07.72	180.24	16.37	-43.2	-45.0	18.6	0.00e+00	0	38	0	0	58	4340
2026-01-21 10:26:08.86	180.31	16.49	-43.1	-45.0	18.6	0.00e+00	0	39	0	0	58	4318
2026-01-21 10:26:09.71	180.35	16.59	-43.2	-45.0	18.6	0.00e+00	0	39	0	0	58	4333
2026-01-21 10:26:10.85	180.42	16.72	-43.2	-45.1	18.6	0.00e+00	0	39	0	0	58	4350
2026-01-21 10:26:11.70	180.47	16.81	-43.3	-45.2	18.5	0.00e+00	0	39	0	0	58	4400
2026-01-21 10:26:12.84	180.54	16.94	-43.2	-45.1	18.6	0.00e+00	0	38	0	0	58	4374
2026-01-21 10:26:13.69	180.59	17.03	-43.3	-45.1	18.6	0.00e+00	0	38	0	0	58	4382
2026-01-21 10:26:14.83	180.65	17.16	-43.3	-45.2	18.5	0.00e+00	0	39	0	0	58	4414
2026-01-21 10:26:15.68	180.70	17.26	-43.4	-45.3	18.4	0.00e+00	0	38	0	0	58	4452
2026-01-21 10:26:16.90	180.78	17.40	-43.4	-45.3	13.7	3.20e-04	0	39	0	0	58	4456
2026-01-21 10:26:17.75	180.83	17.50	-43.4	-45.3	18.4	0.00e+00	0	39	0	0	58	4449
2026-01-21 10:26:18.89	180.90	17.63	-43.4	-45.3	18.3	0.00e+00	0	39	0	0	58	4489
2026-01-21 10:26:19.74	180.95	17.72	-43.5	-45.4	18.3	0.00e+00	0	38	0	0	58	4525
2026-01-21 10:26:20.88	181.02	17.86	-43.5	-45.4	18.2	0.00e+00	0	39	0	0	58	4541
2026-01-21 10:26:21.76	181.07	17.96	-43.5	-45.5	18.2	0.00e+00	0	39	0	0	58	4554
2026-01-21 10:26:23.07	181.16	18.11	-43.4	-45.3	18.3	0.00e+00	0	39	0	0	58	4464
2026-01-21 10:26:23.78	181.20	18.20	-43.5	-45.3	18.3	0.00e+00	0	38	0	0	58	4493
2026-01-21 10:26:25.06	181.28	18.35	-43.4	-45.3	18.3	0.00e+00	0	39	0	0	58	4490
2026-01-21 10:26:25.79	181.33	18.43	-43.4	-45.3	18.4	0.00e+00	0	39	0	0	58	4458
2026-01-21 10:26:27.07	181.41	18.59	-43.4	-45.2	18.5	0.00e+00	0	39	0	0	58	4425
2026-01-21 10:26:27.86	181.46	18.68	-43.4	-45.3	18.4	0.00e+00	0	38	0	0	58	4448
2026-01-21 10:26:29.06	181.54	18.83	-43.4	-45.3	18.4	0.00e+00	0	39	0	0	58	4444
2026-01-21 10:26:29.91	181.60	18.93	-43.4	-45.3	18.4	0.00e+00	0	39	0	0	58	4444
2026-01-21 10:26:31.05	181.67	19.07	-43.2	-45.1	18.6	0.00e+00	0	38	0	0	58	4352
2026-01-21 10:26:31.90	181.73	19.17	-43.3	-45.1	18.5	0.00e+00	0	38	0	0	58	4383
2026-01-21 10:26:33.04	181.81	19.31	-42.9	-44.8	18.9	0.00e+00	0	39	0	0	57	4449
2026-01-21 10:26:33.89	181.86	19.42	-42.9	-44.8	18.9	0.00e+00	0	39	0	0	57	4460
2026-01-21 10:26:35.08	181.94	19.56	-42.9	-44.7	18.9	0.00e+00	0	39	0	0	57	4434
2026-01-21 10:26:35.93	182.00	19.67	-42.9	-44.7	18.9	0.00e+00	0	39	0	0	57	4436
2026-01-21 10:26:37.12	182.09	19.82	-42.9	-44.7	19.0	0.00e+00	0	39	0	0	57	4419
2026-01-21 10:26:37.97	182.15	19.93	-42.8	-44.5	19.1	0.00e+00	0	39	0	0	57	4336
2026-01-21 10:26:39.10	182.23	20.07	-42.8	-44.6	19.1	0.00e+00	0	39	0	0	57	4362
2026-01-21 10:26:40.40	182.32	20.23	-42.7	-44.5	19.1	0.00e+00	0	39	0	0	57	4331
2026-01-21 10:26:41.11	182.37	20.32	-42.7	-44.4	19.2	0.00e+00	0	39	0	0	57	4291
2026-01-21 10:26:42.39	182.46	20.49	-42.7	-44.5	19.2	0.00e+00	0	39	0	0	57	4300
2026-01-21 10:26:43.10	182.51	20.58	-42.5	-44.3	19.3	0.00e+00	0	39	0	0	57	4230
2026-01-21 10:26:44.42	182.61	20.75	-42.5	-44.3	19.4	0.00e+00	0	39	0	0	57	4230
2026-01-21 10:26:45.14	182.66	20.84	-42.5	-44.3	19.3	0.00e+00	0	39	0	0	57	4216
2026-01-21 10:26:46.42	182.76	21.01	-42.3	-44.1	19.5	0.00e+00	0	39	0	0	56	4362
2026-01-21 10:26:47.14	182.81	21.11	-42.5	-44.2	19.4	0.00e+00	0	39	0	0	56	4430
2026-01-21 10:26:48.53	182.92	21.29	-42.4	-44.1	19.5	0.00e+00	0	39	0	0	56	4390
2026-01-21 10:26:49.24	182.98	21.38	-42.2	-44.0	19.6	0.00e+00	0	39	0	0	56	4294
2026-01-21 10:26:50.52	183.07	21.55	-42.1	-43.8	19.7	0.00e+00	0	39	0	0	56	4240
2026-01-21 10:26:51.23	183.13	21.65	-42.1	-43.8	19.8	0.00e+00	0	39	0	0	56	4216
2026-01-21 10:26:52.64	183.24	21.84	-42.1	-43.8	19.8	0.00e+00	0	39	0	0	56	4207
2026-01-21 10:26:53.35	183.30	21.93	-42.0	-43.7	19.9	0.00e+00	0	39	0	0	56	4174
2026-01-21 10:26:54.63	183.40	22.11	-41.8	-43.5	19.9	0.00e+00	0	39	0	0	55	4320
2026-01-21 10:26:55.70	183.49	22.26	-41.8	-43.5	19.9	0.00e+00	0	39	0	0	55	4319
2026-01-21 10:26:56.84	183.58	22.41	-41.7	-43.4	20.0	0.00e+00	0	39	0	0	55	4267
2026-01-21 10:26:57.69	183.65	22.53	-41.7	-43.4	20.0	0.00e+00	0	39	0	0	55	4285
2026-01-21 10:26:58.83	183.74	22.69	-41.8	-43.4	20.0	0.00e+00	0	39	0	0	55	4286
2026-01-21 10:26:59.68	183.81	22.81	-41.6	-43.2	20.2	0.00e+00	0	39	0	0	55	4188
2026-01-21 10:27:00.82	183.91	22.97	-41.6	-43.3	20.2	0.00e+00	0	39	0	0	55	4204
2026-01-21 10:27:01.68	183.98	23.09	-41.6	-43.3	20.2	0.00e+00	0	39	0	0	55	4206
2026-01-21 10:27:02.81	184.08	23.25	-41.7	-43.4	20.1	0.00e+00	0	39	0	0	55	4266
2026-01-21 10:27:03.66	184.16	23.37	-41.6	-43.3	20.1	0.00e+00	0	38	0	0	55	4215
2026-01-21 10:27:04.80	184.25	23.53	-41.7	-43.3	20.1	0.00e+00	0	39	0	0	55	4238
2026-01-21 10:27:05.65	184.33	23.66	-41.6	-43.3	20.2	0.00e+00	0	39	0	0	55	4208
2026-01-21 10:27:06.79	184.43	23.82	-41.6	-43.3	20.2	0.00e+00	0	38	0	0	55	4213
2026-01-21 10:27:07.69	184.51	23.95	-41.6	-43.3	20.1	0.00e+00	0	39	0	0	55	4204
2026-01-21 10:27:08.92	184.62	24.13	-41.7	-43.4	20.0	0.00e+00	0	39	0	0	55	4263
2026-01-21 10:27:09.78	184.70	24.26	-41.7	-43.4	20.1	0.00e+00	0	39	0	0	55	4271
2026-01-21 10:27:10.91	184.81	24.42	-41.7	-43.3	20.1	0.00e+00	0	39	0	0	55	4235
2026-01-21 10:27:11.80	184.89	24.56	-41.8	-43.5	20.0	0.00e+00	0	39	0	0	55	4298
2026-01-21 10:27:13.11	185.01	24.75	-41.7	-43.4	20.1	0.00e+00	0	39	0	0	55	4243
2026-01-21 10:27:14.22	185.12	24.92	-41.7	-43.4	20.1	0.00e+00	0	39	0	0	55	4255
2026-01-21 10:27:15.07	185.20	25.05	-41.8	-43.5	20.0	0.00e+00	0	39	0	0	55	4326
2026-01-21 10:27:16.21	185.31	25.22	-41.9	-43.6	20.0	0.00e+00	0	39	0	0	55	4353
2026-01-21 10:27:17.06	185.39	25.35	-41.9	-43.6	19.9	0.00e+00	0	39	0	0	55	4389
2026-01-21 10:27:18.23	185.51	25.53	-41.9	-43.6	19.9	0.00e+00	0	39	0	0	55	4391
2026-01-21 10:27:19.08	185.59	25.66	-42.1	-43.8	19.8	0.00e+00	0	39	0	0	55	4478
2026-01-21 10:27:20.22	185.71	25.84	-42.2	-44.0	19.7	0.00e+00	0	39	0	0	55	4556
2026-01-21 10:27:21.07	185.79	25.97	-42.3	-44.0	19.6	0.00e+00	0	39	0	0	55	4581
2026-01-21 10:27:22.21	185.91	26.15	-42.4	-44.1	19.5	0.00e+00	0	39	0	0	55	4627
2026-01-21 10:27:23.06	186.00	26.28	-42.5	-44.2	19.4	0.00e+00	0	39	0	0	55	4684
2026-01-21 10:27:24.40	186.14	26.50	-42.6	-44.4	19.3	0.00e+00	0	39	0	0	55	4768
2026-01-21 10:27:25.11	186.21	26.61	-42.6	-44.4	19.2	0.00e+00	0	39	0	0	55	4778
2026-01-21 10:27:26.39	186.35	26.81	-42.9	-44.8	19.1	0.00e+00	0	39	0	0	56	4709
2026-01-21 10:27:27.10	186.43	26.93	-43.0	-44.8	19.1	0.00e+00	0	39	0	0	56	4748
2026-01-21 10:27:28.38	186.57	27.14	-43.1	-44.9	19.0	0.00e+00	0	39	0	0	56	4773
2026-01-21 10:27:29.10	186.65	27.25	-43.1	-44.9	19.0	0.00e+00	0	39	0	0	56	4800
2026-01-21 10:27:30.38	186.79	27.46	-43.2	-45.0	18.9	0.00e+00	0	39	0	0	57	4586
2026-01-21 10:27:31.09	186.87	27.58	-43.2	-45.1	18.9	0.00e+00	0	39	0	0	57	4599
2026-01-21 10:27:32.37	187.01	27.79	-43.3	-45.1	18.8	0.00e+00	0	39	0	0	57	4641
2026-01-21 10:27:33.09	187.09	27.91	-43.2	-45.0	18.9	0.00e+00	0	39	0	0	57	4580
2026-01-21 10:27:34.37	187.24	28.12	-43.3	-45.1	18.8	0.00e+00	0	39	0	0	57	4643
2026-01-21 10:27:35.08	187.32	28.24	-43.2	-45.1	18.9	0.00e+00	0	39	0	0	57	4610
2026-01-21 10:27:36.36	187.48	28.46	-43.2	-45.1	18.9	0.00e+00	0	39	0	0	57	4603
2026-01-21 10:27:37.07	187.56	28.58	-43.3	-45.1	18.8	0.00e+00	0	39	0	0	57	4626
2026-01-21 10:27:38.44	187.72	28.81	-43.3	-45.1	18.8	0.00e+00	0	39	0	0	57	4638
2026-01-21 10:27:39.15	187.81	28.94	-43.2	-45.0	18.9	0.00e+00	0	39	0	0	57	4581
2026-01-21 10:27:40.43	187.97	29.16	-43.2	-45.0	18.9	0.00e+00	0	39	0	0	57	4591
2026-01-21 10:27:41.14	188.06	29.28	-43.2	-45.0	18.9	0.00e+00	0	39	0	0	57	4576
2026-01-21 10:27:42.42	188.22	29.50	-43.3	-45.1	18.8	0.00e+00	0	39	0	0	57	4621
2026-01-21 10:27:43.13	188.31	29.63	-43.3	-45.2	18.8	0.00e+00	0	39	0	0	57	4657
2026-01-21 10:27:44.41	188.47	29.85	-43.1	-44.9	19.1	0.00e+00	0	39	0	0	57	4505
2026-01-21 10:27:45.12	188.56	29.98	-43.1	-44.9	19.0	0.00e+00	0	39	0	0	57	4516
2026-01-21 10:27:46.40	188.73	30.21	-43.0	-44.8	19.1	0.00e+00	0	39	0	0	57	4479
2026-01-21 10:27:47.11	188.82	30.33	-43.0	-44.8	19.1	0.00e+00	0	39	0	0	57	4444
2026-01-21 10:27:48.72	189.04	30.62	-43.0	-44.7	19.2	0.00e+00	0	39	0	0	57	4440
2026-01-21 10:27:49.29	189.12	30.73	-42.8	-44.6	19.3	0.00e+00	0	39	0	0	57	4348
2026-01-21 10:27:51.20	189.38	31.08	-42.7	-44.4	19.4	0.00e+00	0	39	0	0	57	4263
2026-01-21 10:27:51.77	189.46	31.18	-42.7	-44.4	19.4	0.00e+00	0	39	0	0	57	4287
2026-01-21 10:27:53.48	189.70	31.50	-42.6	-44.3	19.5	0.00e+00	0	39	0	0	57	4207
2026-01-21 10:27:54.05	189.78	31.60	-42.6	-44.3	19.5	0.00e+00	0	39	0	0	57	4229
2026-01-21 10:27:55.75	190.03	31.92	-42.7	-44.5	19.4	0.00e+00	0	39	0	0	57	4308
2026-01-21 10:27:56.32	190.11	32.03	-42.8	-44.5	19.3	0.00e+00	0	39	0	0	57	4316
2026-01-21 10:27:58.02	190.36	32.35	-42.7	-44.4	19.4	0.00e+00	0	39	0	0	57	4263
2026-01-21 10:27:58.59	190.45	32.46	-42.7	-44.4	19.4	0.00e+00	0	39	0	0	57	4268
2026-01-21 10:28:00.49	190.74	32.82	-42.8	-44.5	19.3	0.00e+00	0	39	0	0	57	4316
2026-01-21 10:28:01.06	190.82	32.93	-42.7	-44.5	19.3	0.00e+00	0	39	0	0	57	4300
2026-01-21 10:28:02.76	191.09	33.26	-42.9	-44.6	19.2	0.00e+00	0	39	0	0	57	4389
2026-01-21 10:28:03.33	191.18	33.37	-42.9	-44.6	19.2	0.00e+00	0	39	0	0	57	4385
2026-01-21 10:28:05.11	191.47	33.72	-43.1	-44.9	19.0	0.00e+00	0	39	0	0	57	4498
2026-01-21 10:28:05.68	191.56	33.84	-43.0	-44.8	19.0	0.00e+00	0	39	0	0	57	4485
2026-01-21 10:28:07.67	191.89	34.23	-43.2	-45.0	18.9	0.00e+00	0	39	0	0	57	4573
2026-01-21 10:28:08.24	191.99	34.35	-43.3	-45.1	18.8	0.00e+00	0	39	0	0	57	4625
2026-01-21 10:28:09.95	192.28	34.69	-43.6	-45.5	18.5	0.00e+00	0	39	0	0	57	4821
2026-01-21 10:28:10.52	192.38	34.81	-43.8	-45.7	18.3	0.00e+00	0	39	0	0	58	4673
2026-01-21 10:28:12.22	192.67	35.15	-44.2	-46.1	18.0	0.00e+00	0	39	0	0	58	4896
2026-01-21 10:28:12.79	192.78	35.27	-44.2	-46.2	17.9	0.00e+00	0	39	0	0	59	4666
2026-01-21 10:28:14.49	193.08	35.62	-44.6	-46.6	17.5	0.00e+00	0	39	0	0	59	4875
2026-01-21 10:28:15.06	193.19	35.74	-44.7	-46.7	17.4	0.00e+00	0	39	0	0	60	4703
2026-01-21 10:28:16.97	193.54	36.14	-44.8	-46.9	17.3	0.00e+00	0	39	0	0	60	4782
2026-01-21 10:28:17.54	193.65	36.25	-44.8	-46.8	17.4	0.00e+00	0	39	0	0	60	4748
2026-01-21 10:28:19.24	193.97	36.61	-44.9	-46.9	17.3	0.00e+00	0	39	0	0	60	4810
2026-01-21 10:28:19.94	194.11	36.76	-44.9	-47.0	17.2	0.00e+00	0	39	0	0	60	4856
2026-01-21 10:28:21.36	194.39	37.06	-44.9	-46.9	17.3	0.00e+00	0	39	0	0	60	4808
2026-01-21 10:28:22.16	194.55	37.24	-44.9	-46.9	17.3	0.00e+00	0	39	0	0	60	4807
2026-01-21 10:28:23.61	194.84	37.55	-44.8	-46.8	17.3	0.00e+00	0	39	0	0	60	4752
2026-01-21 10:28:24.32	194.99	37.70	-44.8	-46.9	17.2	0.00e+00	0	39	0	0	60	4789
2026-01-21 10:28:25.60	195.25	37.98	-44.8	-46.9	17.2	0.00e+00	0	38	0	0	60	4788
2026-01-21 10:28:26.31	195.40	38.14	-44.9	-46.9	17.2	0.00e+00	0	39	0	0	60	4798
2026-01-21 10:28:27.59	195.68	38.42	-44.7	-46.8	17.4	0.00e+00	0	39	0	0	60	4727
2026-01-21 10:28:28.31	195.83	38.58	-44.5	-46.5	17.7	0.00e+00	0	39	0	0	60	4558
2026-01-21 10:28:29.58	196.11	38.86	-44.5	-46.5	17.6	0.00e+00	0	39	0	0	60	4579
2026-01-21 10:28:30.29	196.27	39.01	-44.4	-46.4	17.7	0.00e+00	0	39	0	0	60	4527
2026-01-21 10:28:31.57	196.56	39.30	-44.3	-46.2	17.8	0.00e+00	0	39	0	0	60	4425
2026-01-21 10:28:32.30	196.72	39.46	-44.2	-46.2	17.9	0.00e+00	0	39	0	0	60	4394
2026-01-21 10:28:33.58	197.02	39.75	-44.1	-46.1	18.0	0.00e+00	0	38	0	0	60	4350
2026-01-21 10:28:34.29	197.19	39.91	-44.1	-46.0	18.2	0.00e+00	0	39	0	0	60	4318
2026-01-21 10:28:35.57	197.49	40.20	-44.0	-45.9	18.2	0.00e+00	0	39	0	0	59	4517
2026-01-21 10:28:36.28	197.66	40.37	-44.0	-45.9	18.1	0.00e+00	0	39	0	0	59	4520
2026-01-21 10:28:37.56	197.98	40.66	-44.4	-46.4	17.7	0.00e+00	0	39	0	0	59	4765
2026-01-21 10:28:38.29	198.16	40.83	-44.6	-46.6	17.5	0.00e+00	0	39	0	0	59	4911
2026-01-21 10:28:39.56	198.48	41.12	-44.7	-46.7	17.5	0.00e+00	0	39	0	0	60	4697
2026-01-21 10:28:40.28	198.66	41.29	-44.7	-46.7	17.5	0.00e+00	0	39	0	0	60	4655
2026-01-21 10:28:41.55	198.99	41.58	-44.6	-46.6	17.6	0.00e+00	0	39	0	0	60	4630
2026-01-21 10:28:42.29	199.18	41.76	-44.3	-46.2	17.9	0.00e+00	0	39	0	0	60	4438
2026-01-21 10:28:43.57	199.52	42.06	-44.5	-46.5	17.7	0.00e+00	0	39	0	0	60	4567
2026-01-21 10:28:44.30	199.72	42.23	-44.8	-46.8	17.3	0.00e+00	0	39	0	0	60	4735
2026-01-21 10:28:45.58	200.07	42.53	-45.0	-47.1	17.0	0.00e+00	0	39	0	0	60	4909
2026-01-21 10:28:46.29	200.27	42.70	-45.2	-47.3	16.9	0.00e+00	0	39	0	0	61	4759
2026-01-21 10:28:47.56	200.62	43.00	-45.6	-47.8	16.5	0.00e+00	0	39	0	0	61	4996
2026-01-21 10:28:48.27	200.83	43.17	-45.6	-47.8	16.4	0.00e+00	0	39	0	0	61	5025
2026-01-21 10:28:49.57	201.21	43.48	-46.0	-48.3	16.0	0.00e+00	0	39	0	0	62	5024
2026-01-21 10:28:50.28	201.41	43.65	-46.0	-48.3	15.9	0.00e+00	0	39	0	0	62	5033
2026-01-21 10:28:51.62	201.81	43.97	-46.1	-48.4	15.9	0.00e+00	0	39	0	0	62	5091
2026-01-21 10:28:52.33	202.03	44.14	-46.1	-48.4	15.8	0.00e+00	0	39	0	0	62	5096
2026-01-21 10:28:53.67	202.44	44.46	-45.9	-48.2	16.1	0.00e+00	0	39	0	0	62	4934
2026-01-21 10:28:54.38	202.67	44.64	-45.8	-48.1	16.1	0.00e+00	0	39	0	0	62	4920
2026-01-21 10:28:55.72	203.09	44.96	-46.0	-48.4	15.8	0.00e+00	0	39	0	0	62	5085
2026-01-21 10:28:56.44	203.32	45.14	-46.1	-48.5	15.7	0.00e+00	0	39	0	0	62	5153
2026-01-21 10:28:57.78	203.76	45.46	-46.1	-48.5	15.7	0.00e+00	0	39	0	0	63	4846
2026-01-21 10:28:58.49	204.00	45.64	-46.3	-48.7	15.4	7.00e-07	0	39	0	0	63	4969
2026-01-21 10:28:59.77	204.43	45.95	-45.7	-48.0	16.2	0.00e+00	0	39	0	0	63	4581
2026-01-21 10:29:00.48	204.68	46.12	-45.5	-47.8	16.5	0.00e+00	0	39	0	0	63	4462
2026-01-21 10:29:01.75	205.12	46.43	-45.1	-47.2	17.0	0.00e+00	0	39	0	0	62	4439
2026-01-21 10:29:02.46	205.37	46.61	-45.0	-47.1	17.0	0.00e+00	0	39	0	0	61	4647
2026-01-21 10:29:03.74	205.83	46.92	-45.1	-47.2	16.9	0.00e+00	0	39	0	0	61	4683
2026-01-21 10:29:04.48	206.10	47.10	-44.8	-46.8	17.3	0.00e+00	0	39	0	0	61	4493
2026-01-21 10:29:05.76	206.57	47.42	-44.6	-46.7	17.4	0.00e+00	0	39	0	0	61	4394
2026-01-21 10:29:06.47	206.84	47.59	-44.3	-46.3	17.8	0.00e+00	0	39	0	0	60	4451
2026-01-21 10:29:07.75	207.33	47.91	-44.4	-46.4	17.7	0.00e+00	0	39	0	0	60	4512
2026-01-21 10:29:08.46	207.61	48.08	-44.6	-46.6	17.5	0.00e+00	0	39	0	0	60	4599
2026-01-21 10:29:09.74	208.11	48.40	-45.0	-47.1	17.1	0.00e+00	0	39	0	0	60	4874
2026-01-21 10:29:10.45	208.40	48.57	-45.1	-47.3	17.0	0.00e+00	0	39	0	0	61	4709
2026-01-21 10:29:11.73	208.92	48.89	-45.0	-47.1	17.1	0.00e+00	0	39	0	0	61	4615
2026-01-21 10:29:12.59	209.28	49.10	-45.2	-47.3	16.9	0.00e+00	0	39	0	0	61	4722
2026-01-21 10:29:13.73	209.76	49.38	-45.1	-47.2	17.0	0.00e+00	0	39	0	0	61	4659
2026-01-21 10:29:14.58	210.12	49.59	-44.9	-46.9	17.2	0.00e+00	0	39	0	0	61	4531
2026-01-21 10:29:16.08	210.77	49.96	-44.8	-46.8	17.4	0.00e+00	0	39	0	0	61	4472
2026-01-21 10:29:16.79	211.09	50.13	-44.7	-46.7	17.5	0.00e+00	0	39	0	0	61	4413
2026-01-21 10:29:18.07	211.66	50.44	-44.6	-46.6	17.6	0.00e+00	0	39	0	0	61	4349
2026-01-21 10:29:18.78	211.99	50.62	-44.4	-46.3	17.8	0.00e+00	0	39	0	0	60	4481
2026-01-21 10:29:20.06	212.58	50.93	-44.4	-46.4	17.7	0.00e+00	0	39	0	0	60	4507
2026-01-21 10:29:20.77	212.92	51.10	-44.4	-46.4	17.7	0.00e+00	0	39	0	0	60	4498
2026-01-21 10:29:22.05	213.53	51.41	-44.5	-46.4	17.7	0.00e+00	0	39	0	0	60	4542
2026-01-21 10:29:22.77	213.88	51.58	-44.5	-46.5	17.7	0.00e+00	0	39	0	0	60	4560
2026-01-21 10:29:24.05	214.52	51.89	-44.5	-46.5	17.6	0.00e+00	0	39	0	0	60	4585
2026-01-21 10:29:24.78	214.89	52.06	-44.5	-46.5	17.7	0.00e+00	0	39	0	0	60	4566
2026-01-21 10:29:26.05	215.54	52.36	-44.1	-46.0	18.2	0.00e+00	0	39	0	0	60	4315
2026-01-21 10:29:26.77	215.91	52.53	-44.0	-45.9	18.2	0.00e+00	0	39	0	0	59	4538
2026-01-21 10:29:28.04	216.58	52.83	-44.0	-45.9	18.2	0.00e+00	0	39	0	0	59	4507
2026-01-21 10:29:28.75	216.96	53.00	-44.0	-45.9	18.2	0.00e+00	0	39	0	0	59	4503
2026-01-21 10:29:30.03	217.66	53.29	-44.1	-46.0	18.1	0.00e+00	0	39	0	0	59	4559
2026-01-21 10:29:30.74	218.05	53.46	-44.1	-46.0	18.2	0.00e+00	0	39	0	0	59	4569
2026-01-21 10:29:32.02	218.77	53.75	-43.9	-45.7	18.4	0.00e+00	0	39	0	0	59	4434
2026-01-21 10:29:32.74	219.18	53.91	-43.6	-45.4	18.7	0.00e+00	0	39	0	0	59	4271
2026-01-21 10:29:34.22	220.04	54.25	-43.2	-44.9	19.1	0.00e+00	0	39	0	0	58	4286
2026-01-21 10:29:34.93	220.46	54.41	-43.1	-44.8	19.2	0.00e+00	0	39	0	0	58	4234
2026-01-21 10:29:36.24	221.25	54.70	-43.3	-45.1	18.9	0.00e+00	0	39	0	0	58	4367
2026-01-21 10:29:36.95	221.68	54.85	-43.5	-45.4	18.7	0.00e+00	0	39	0	0	58	4501
2026-01-21 10:29:38.23	222.47	55.13	-43.4	-45.2	18.7	0.00e+00	0	39	0	0	58	4439
2026-01-21 10:29:39.29	223.14	55.35	-43.4	-45.2	18.7	0.00e+00	0	39	0	0	58	4428
2026-01-21 10:29:40.14	223.68	55.53	-43.3	-45.1	18.8	0.00e+00	0	39	0	0	58	4362
2026-01-21 10:29:41.28	224.42	55.77	-43.1	-44.9	19.0	0.00e+00	0	39	0	0	58	4266
2026-01-21 10:29:42.13	224.98	55.94	-43.0	-44.8	19.1	0.00e+00	0	39	0	0	58	4205
2026-01-21 10:29:43.27	225.74	56.17	-43.0	-44.7	19.2	0.00e+00	0	39	0	0	57	4423
2026-01-21 10:29:44.12	226.31	56.34	-43.1	-44.9	19.0	0.00e+00	0	39	0	0	57	4516
2026-01-21 10:29:45.26	227.10	56.57	-43.3	-45.1	18.9	0.00e+00	0	39	0	0	57	4641
2026-01-21 10:29:46.11	227.69	56.73	-43.1	-44.9	19.0	0.00e+00	0	39	0	0	57	4523
2026-01-21 10:29:47.25	228.49	56.95	-42.8	-44.5	19.4	0.00e+00	0	39	0	0	57	4330
2026-01-21 10:29:48.11	229.11	57.11	-42.4	-44.0	19.8	0.00e+00	0	39	0	0	56	4336
2026-01-21 10:29:49.48	230.10	57.36	-42.2	-43.9	19.8	0.00e+00	0	39	0	0	56	4252
2026-01-21 10:29:50.19	230.62	57.48	-42.3	-44.0	19.7	0.00e+00	0	39	0	0	56	4310
2026-01-21 10:29:51.47	231.58	57.71	-42.7	-44.4	19.4	0.00e+00	0	39	0	0	56	4531
2026-01-21 10:29:52.18	232.11	57.83	-42.7	-44.5	19.3	0.00e+00	0	39	0	0	56	4559
2026-01-21 10:29:53.76	233.32	58.09	-42.8	-44.6	19.2	0.00e+00	0	39	0	0	56	4621
2026-01-21 10:29:54.39	233.81	58.19	-42.7	-44.5	19.2	0.00e+00	0	39	0	0	56	4548
2026-01-21 10:29:55.89	234.99	58.42	-42.7	-44.5	19.2	0.00e+00	0	39	0	0	56	4547
2026-01-21 10:29:56.61	235.56	58.53	-42.7	-44.4	19.4	0.00e+00	0	39	0	0	56	4532
2026-01-21 10:29:57.89	236.59	58.72	-42.3	-44.0	19.8	0.00e+00	0	39	0	0	56	4338
2026-01-21 10:29:58.60	237.17	58.82	-42.3	-44.0	19.9	0.00e+00	0	39	0	0	56	4297
2026-01-21 10:29:59.88	238.22	58.99	-42.4	-44.1	19.9	0.00e+00	0	39	0	0	56	4361
2026-01-21 10:30:00.62	238.83	59.09	-42.5	-44.2	19.7	0.00e+00	0	39	0	0	56	4429
2026-01-21 10:30:01.90	239.91	59.25	-42.5	-44.2	19.7	0.00e+00	0	39	0	0	56	4404
2026-01-21 10:30:02.62	240.51	59.34	-42.3	-44.0	19.8	0.00e+00	0	39	0	0	56	4315
2026-01-21 10:30:03.90	241.61	59.48	-42.4	-44.1	19.7	0.00e+00	0	39	0	0	56	4347
2026-01-21 10:30:04.62	242.23	59.56	-42.3	-44.0	19.7	0.00e+00	0	39	0	0	56	4333
2026-01-21 10:30:05.90	243.34	59.70	-42.3	-44.0	19.8	0.00e+00	0	39	0	0	56	4339
2026-01-21 10:30:06.61	243.96	59.76	-42.3	-44.0	19.8	0.00e+00	0	39	0	0	56	4325
2026-01-21 10:30:07.89	245.08	59.88	-42.4	-44.0	19.8	0.00e+00	0	39	0	0	56	4340
2026-01-21 10:30:08.61	245.72	59.94	-42.2	-43.9	20.0	0.00e+00	0	39	0	0	56	4248
2026-01-21 10:30:10.24	247.18	60.07	-41.9	-43.6	20.2	0.00e+00	0	39	0	0	55	4374
2026-01-21 10:30:10.81	247.69	60.11	-41.9	-43.6	20.1	0.00e+00	0	39	0	0	55	4375
2026-01-21 10:30:12.70	249.40	60.24	-42.5	-44.3	19.4	0.00e+00	0	39	0	0	55	4731
2026-01-21 10:30:13.27	249.92	60.27	-42.6	-44.3	19.3	0.00e+00	0	39	0	0	55	4737
2026-01-21 10:30:14.98	251.48	60.35	-42.3	-44.0	19.6	0.00e+00	0	39	0	0	55	4569
2026-01-21 10:30:15.55	252.01	60.38	-42.3	-44.0	19.6	0.00e+00	0	39	0	0	55	4593
2026-01-21 10:30:17.25	253.57	60.44	-42.4	-44.1	19.5	0.00e+00	0	39	0	0	55	4643
2026-01-21 10:30:17.82	254.10	60.45	-42.2	-43.9	19.7	0.00e+00	0	39	0	0	55	4511
2026-01-21 10:30:19.52	255.67	60.49	-42.3	-44.0	19.6	0.00e+00	0	39	0	0	55	4550
2026-01-21 10:30:20.09	256.20	60.49	-42.3	-44.0	19.6	0.00e+00	0	39	0	0	55	4576
2026-01-21 10:30:21.80	257.79	60.50	-42.1	-43.8	19.9	0.00e+00	0	39	0	0	55	4451
2026-01-21 10:30:22.37	258.32	60.50	-42.1	-43.8	19.9	0.00e+00	0	39	0	0	55	4453
2026-01-21 10:30:24.07	259.89	60.48	-42.9	-44.7	19.3	0.00e+00	0	39	0	0	56	4679
2026-01-21 10:30:24.64	260.42	60.47	-42.9	-44.7	19.4	0.00e+00	0	39	0	0	56	4659
2026-01-21 10:30:26.64	262.27	60.42	-42.1	-43.8	19.9	0.00e+00	0	39	0	0	56	4211
2026-01-21 10:30:27.56	263.12	60.39	-42.1	-43.8	20.0	0.00e+00	0	39	0	0	56	4199
2026-01-21 10:30:28.55	264.03	60.35	-41.8	-43.4	20.2	0.00e+00	0	39	0	0	55	4280
2026-01-21 10:30:29.55	264.94	60.30	-41.5	-43.2	20.5	0.00e+00	0	39	0	0	55	4150
2026-01-21 10:30:30.54	265.84	60.25	-41.4	-43.1	20.4	0.00e+00	0	39	0	0	54	4343
2026-01-21 10:30:31.54	266.75	60.19	-41.7	-43.3	20.1	0.00e+00	0	39	0	0	54	4479
2026-01-21 10:30:32.53	267.64	60.12	-41.8	-43.4	20.2	0.00e+00	0	39	0	0	54	4545
2026-01-21 10:30:33.53	268.54	60.05	-41.5	-43.2	20.5	0.00e+00	0	39	0	0	54	4395
2026-01-21 10:30:34.52	269.42	59.97	-41.7	-43.3	20.3	0.00e+00	0	39	0	0	54	4475
2026-01-21 10:30:35.52	270.31	59.88	-42.2	-43.9	19.7	0.00e+00	0	39	0	0	55	4531
2026-01-21 10:30:36.51	271.18	59.79	-42.8	-44.6	19.3	0.00e+00	0	39	0	0	56	4630
2026-01-21 10:30:37.51	272.06	59.70	-43.0	-44.8	19.0	0.00e+00	0	39	0	0	56	4748
2026-01-21 10:30:38.50	272.92	59.60	-42.9	-44.6	19.2	0.00e+00	0	39	0	0	56	4649
2026-01-21 10:30:39.50	273.78	59.49	-42.5	-44.2	19.6	0.00e+00	0	39	0	0	56	4432
2026-01-21 10:30:40.49	274.62	59.38	-42.3	-44.0	20.0	0.00e+00	0	39	0	0	56	4297
2026-01-21 10:30:41.49	275.47	59.26	-42.1	-43.7	20.2	0.00e+00	0	39	0	0	56	4179
2026-01-21 10:30:42.49	276.31	59.13	-42.3	-43.9	20.1	0.00e+00	0	39	0	0	56	4283
2026-01-21 10:30:43.48	277.13	59.00	-42.6	-44.3	19.7	0.00e+00	0	39	0	0	56	4488
2026-01-21 10:30:44.47	277.94	58.87	-42.6	-44.3	19.7	0.00e+00	0	39	0	0	56	4469
2026-01-21 10:30:45.47	278.76	58.73	-42.4	-44.1	19.8	0.00e+00	0	39	0	0	56	4383
2026-01-21 10:30:46.46	279.55	58.59	-42.3	-44.0	19.8	0.00e+00	0	39	0	0	56	4307
2026-01-21 10:30:47.57	280.44	58.42	-42.4	-44.1	19.8	0.00e+00	0	39	0	0	56	4354
2026-01-21 10:30:48.42	281.11	58.29	-42.6	-44.3	19.7	0.00e+00	0	39	0	0	56	4461
2026-01-21 10:30:49.56	281.99	58.11	-42.9	-44.7	19.4	0.00e+00	0	39	0	0	56	4673
2026-01-21 10:30:50.41	282.65	57.97	-43.2	-45.0	19.2	0.00e+00	0	39	0	0	56	4823
2026-01-21 10:30:51.55	283.51	57.78	-43.1	-44.9	19.2	0.00e+00	0	39	0	0	57	4535
2026-01-21 10:30:52.40	284.15	57.64	-43.0	-44.7	19.3	0.00e+00	0	39	0	0	57	4439
2026-01-21 10:30:53.54	284.99	57.44	-42.6	-44.3	19.5	0.00e+00	0	39	0	0	57	4239
2026-01-21 10:30:54.39	285.62	57.28	-42.7	-44.5	19.2	0.00e+00	0	39	0	0	56	4561
2026-01-21 10:30:55.53	286.44	57.08	-43.4	-45.3	18.8	0.00e+00	0	39	0	0	57	4706
2026-01-21 10:30:56.38	287.04	56.92	-43.4	-45.3	18.9	0.00e+00	0	39	0	0	57	4711
2026-01-21 10:30:57.52	287.84	56.70	-43.7	-45.5	18.6	0.00e+00	0	39	0	0	57	4861
2026-01-21 10:30:58.37	288.43	56.54	-43.8	-45.7	18.2	0.00e+00	0	39	0	0	58	4660
2026-01-21 10:30:59.51	289.21	56.31	-43.7	-45.6	18.2	0.00e+00	0	39	0	0	58	4621
2026-01-21 10:31:00.36	289.78	56.14	-43.1	-44.8	19.1	0.00e+00	0	39	0	0	58	4242
2026-01-21 10:31:01.61	290.61	55.89	-42.5	-44.2	19.7	0.00e+00	0	39	0	0	57	4159
2026-01-21 10:31:02.46	291.17	55.72	-42.8	-44.6	19.3	0.00e+00	0	39	0	0	57	4358
2026-01-21 10:31:03.60	291.90	55.48	-43.2	-45.0	19.0	0.00e+00	0	39	0	0	57	4597
2026-01-21 10:31:04.45	292.44	55.30	-43.3	-45.1	19.1	0.00e+00	0	39	0	0	57	4608
2026-01-21 10:31:05.59	293.15	55.06	-43.2	-45.0	19.0	0.00e+00	0	39	0	0	57	4560
2026-01-21 10:31:06.44	293.68	54.87	-43.1	-44.9	18.8	0.00e+00	0	39	0	0	57	4529
2026-01-21 10:31:07.58	294.37	54.62	-43.3	-45.1	18.8	0.00e+00	0	39	0	0	57	4607
2026-01-21 10:31:08.43	294.88	54.44	-43.1	-44.8	19.1	0.00e+00	0	39	0	0	57	4483
2026-01-21 10:31:09.57	295.55	54.18	-42.7	-44.3	19.5	0.00e+00	0	39	0	0	57	4242
2026-01-21 10:31:10.42	296.04	53.99	-42.8	-44.5	19.3	0.00e+00	0	39	0	0	57	4335
2026-01-21 10:31:11.56	296.69	53.74	-43.1	-44.8	19.2	0.00e+00	0	39	0	0	57	4481
2026-01-21 10:31:12.41	297.17	53.54	-43.1	-44.9	19.2	0.00e+00	0	39	0	0	57	4498
2026-01-21 10:31:13.55	297.80	53.28	-43.5	-45.3	18.7	0.00e+00	0	39	0	0	57	4720
2026-01-21 10:31:14.40	298.26	53.08	-44.0	-45.9	18.1	0.00e+00	0	39	0	0	58	4772
2026-01-21 10:31:15.54	298.87	52.82	-44.2	-46.2	17.9	0.00e+00	0	39	0	0	59	4662
2026-01-21 10:31:16.39	299.32	52.62	-44.0	-45.9	18.1	0.00e+00	0	39	0	0	59	4524
2026-01-21 10:31:17.53	299.91	52.35	-43.8	-45.6	18.3	0.00e+00	0	39	0	0	59	4383
2026-01-21 10:31:18.38	300.35	52.15	-43.8	-45.6	18.2	0.00e+00	0	39	0	0	59	4375
2026-01-21 10:31:19.52	300.92	51.88	-44.1	-46.0	18.0	0.00e+00	0	39	0	0	59	4568
2026-01-21 10:31:20.37	301.34	51.68	-43.6	-45.4	18.6	0.00e+00	0	39	0	0	59	4277
2026-01-21 10:31:21.51	301.90	51.40	-43.5	-45.4	18.6	0.00e+00	0	39	0	0	58	4499
2026-01-21 10:31:22.36	302.30	51.20	-43.8	-45.7	18.3	0.00e+00	0	39	0	0	58	4679
2026-01-21 10:31:23.50	302.84	50.93	-44.1	-46.0	18.1	0.00e+00	0	39	0	0	58	4855
2026-01-21 10:31:24.35	303.24	50.72	-44.2	-46.2	17.9	0.00e+00	0	39	0	0	59	4665
2026-01-21 10:31:25.69	303.85	50.40	-44.0	-45.9	18.1	0.00e+00	0	39	0	0	59	4505
2026-01-21 10:31:26.40	304.17	50.22	-44.0	-46.0	17.8	0.00e+00	0	39	0	0	59	4549
2026-01-21 10:31:27.68	304.74	49.91	-44.3	-46.3	17.7	0.00e+00	0	39	0	0	59	4710
2026-01-21 10:31:28.39	305.04	49.74	-44.3	-46.3	17.7	0.00e+00	0	39	0	0	59	4732
2026-01-21 10:31:29.67	305.59	49.43	-44.4	-46.4	17.8	0.00e+00	0	39	0	0	59	4780
2026-01-21 10:31:30.40	305.90	49.25	-44.3	-46.3	17.8	0.00e+00	0	39	0	0	59	4750
2026-01-21 10:31:31.68	306.43	48.93	-44.8	-46.9	17.4	0.00e+00	0	39	0	0	60	4814
2026-01-21 10:31:32.50	306.77	48.73	-45.1	-47.2	17.1	0.00e+00	0	39	0	0	60	4972
2026-01-21 10:31:33.64	307.23	48.45	-45.4	-47.6	16.7	0.00e+00	0	39	0	0	61	4921
2026-01-21 10:31:34.71	307.65	48.19	-45.8	-48.1	16.1	0.00e+00	0	39	0	0	62	4902
2026-01-21 10:31:35.74	308.05	47.94	-45.9	-48.2	15.9	0.00e+00	0	39	0	0	62	4975
2026-01-21 10:31:36.73	308.43	47.70	-45.5	-47.7	16.5	0.00e+00	0	39	0	0	62	4687
2026-01-21 10:31:37.93	308.88	47.40	-44.8	-46.8	17.4	0.00e+00	0	39	0	0	61	4493
2026-01-21 10:31:38.82	309.21	47.18	-44.6	-46.7	17.6	0.00e+00	0	39	0	0	61	4411
2026-01-21 10:31:40.13	309.68	46.86	-44.6	-46.6	17.6	0.00e+00	0	39	0	0	61	4370
2026-01-21 10:31:40.84	309.94	46.69	-45.0	-47.1	17.2	0.00e+00	0	39	0	0	61	4605
2026-01-21 10:31:42.12	310.39	46.38	-45.1	-47.3	17.0	0.00e+00	0	39	0	0	61	4719
2026-01-21 10:31:42.83	310.64	46.20	-45.1	-47.2	17.0	0.00e+00	0	39	0	0	61	4699
2026-01-21 10:31:44.11	311.07	45.89	-45.2	-47.4	16.9	0.00e+00	0	39	0	0	61	4783
2026-01-21 10:31:44.82	311.31	45.72	-45.4	-47.6	16.7	0.00e+00	0	39	0	0	61	4872
2026-01-21 10:31:46.09	311.73	45.41	-45.3	-47.4	16.7	0.00e+00	0	39	0	0	61	4806
2026-01-21 10:31:46.90	312.00	45.21	-44.9	-47.1	17.0	0.00e+00	0	39	0	0	61	4612
2026-01-21 10:31:48.04	312.37	44.94	-44.4	-46.4	17.6	0.00e+00	0	39	0	0	60	4531
2026-01-21 10:31:48.89	312.64	44.73	-44.1	-46.0	17.8	0.00e+00	0	39	0	0	60	4335
2026-01-21 10:31:50.03	312.99	44.46	-44.2	-46.1	17.8	0.00e+00	0	39	0	0	60	4374
2026-01-21 10:31:50.88	313.25	44.25	-44.5	-46.5	17.7	0.00e+00	0	39	0	0	60	4550
2026-01-21 10:31:52.02	313.60	43.98	-44.5	-46.5	17.7	0.00e+00	0	39	0	0	60	4590
2026-01-21 10:31:52.87	313.85	43.78	-44.7	-46.8	17.5	0.00e+00	0	39	0	0	60	4733
2026-01-21 10:31:54.01	314.19	43.51	-45.2	-47.3	16.9	0.00e+00	0	39	0	0	61	4738
2026-01-21 10:31:54.86	314.44	43.30	-45.5	-47.7	16.6	0.00e+00	0	39	0	0	61	4969
2026-01-21 10:31:56.00	314.76	43.03	-45.6	-47.9	16.2	0.00e+00	0	39	0	0	61	5046
2026-01-21 10:31:56.85	315.00	42.83	-45.7	-48.0	16.0	0.00e+00	0	39	0	0	62	4815
2026-01-21 10:31:58.10	315.35	42.54	-45.4	-47.7	16.2	0.00e+00	0	39	0	0	62	4654
2026-01-21 10:31:58.95	315.58	42.34	-45.4	-47.6	16.2	0.00e+00	0	39	0	0	62	4651
2026-01-21 10:32:00.09	315.89	42.07	-45.3	-47.5	16.4	0.00e+00	0	39	0	0	62	4592
2026-01-21 10:32:00.94	316.11	41.88	-45.0	-47.2	16.9	0.00e+00	0	39	0	0	62	4414
2026-01-21 10:32:02.08	316.41	41.61	-44.8	-46.9	17.2	0.00e+00	0	39	0	0	61	4504
2026-01-21 10:32:02.93	316.63	41.41	-44.7	-46.8	17.3	0.00e+00	0	39	0	0	61	4489
2026-01-21 10:32:04.07	316.92	41.15	-44.9	-47.0	17.2	0.00e+00	0	39	0	0	61	4575
2026-01-21 10:32:04.92	317.14	40.96	-45.2	-47.4	16.8	0.00e+00	0	39	0	0	61	4774
2026-01-21 10:32:06.06	317.42	40.70	-45.7	-48.0	16.2	0.00e+00	0	39	0	0	62	4868
2026-01-21 10:32:06.91	317.63	40.50	-46.0	-48.4	15.8	0.00e+00	0	39	0	0	62	5090
2026-01-21 10:32:08.04	317.90	40.25	-45.7	-48.1	16.2	0.00e+00	0	39	0	0	62	4897
2026-01-21 10:32:08.90	318.10	40.05	-45.4	-47.7	16.5	0.00e+00	0	39	0	0	62	4677
2026-01-21 10:32:10.03	318.37	39.80	-45.0	-47.1	17.1	0.00e+00	0	39	0	0	61	4630
2026-01-21 10:32:10.89	318.57	39.60	-44.9	-47.0	17.0	0.00e+00	0	39	0	0	61	4584
2026-01-21 10:32:12.02	318.83	39.35	-44.6	-46.6	17.5	0.00e+00	0	39	0	0	61	4376
2026-01-21 10:32:12.88	319.02	39.16	-44.6	-46.7	17.4	0.00e+00	0	39	0	0	61	4407
2026-01-21 10:32:14.13	319.30	38.88	-44.4	-46.4	17.7	0.00e+00	0	39	0	0	60	4530
2026-01-21 10:32:14.98	319.48	38.70	-44.4	-46.4	17.7	0.00e+00	0	39	0	0	60	4540
2026-01-21 10:32:16.11	319.73	38.45	-44.3	-46.3	17.8	0.00e+00	0	39	0	0	60	4461
2026-01-21 10:32:16.97	319.91	38.26	-44.2	-46.2	17.9	0.00e+00	0	39	0	0	60	4431
2026-01-21 10:32:18.11	320.15	38.01	-44.1	-46.0	17.9	0.00e+00	0	39	0	0	60	4328
2026-01-21 10:32:18.96	320.33	37.83	-44.1	-46.1	17.9	0.00e+00	0	39	0	0	60	4372
2026-01-21 10:32:20.10	320.56	37.58	-44.2	-46.2	17.9	0.00e+00	0	39	0	0	60	4407
2026-01-21 10:32:21.01	320.75	37.39	-44.1	-46.0	18.0	0.00e+00	0	39	0	0	60	4336
2026-01-21 10:32:22.02	320.95	37.17	-44.0	-45.9	18.1	0.00e+00	0	39	0	0	59	4545
2026-01-21 10:32:23.02	321.15	36.96	-43.8	-45.8	18.1	0.00e+00	0	39	0	0	59	4487
2026-01-21 10:32:24.01	321.34	36.75	-43.9	-45.9	18.0	0.00e+00	0	39	0	0	59	4530
2026-01-21 10:32:25.01	321.53	36.54	-43.9	-46.0	18.0	0.00e+00	0	39	0	0	59	4564
2026-01-21 10:32:26.00	321.72	36.33	-43.6	-45.6	18.3	0.00e+00	0	39	0	0	59	4388
2026-01-21 10:32:27.00	321.91	36.12	-43.5	-45.4	18.5	0.00e+00	0	39	0	0	58	4538
2026-01-21 10:32:27.99	322.09	35.92	-43.4	-45.4	18.6	0.00e+00	0	39	0	0	58	4515
2026-01-21 10:32:28.99	322.28	35.71	-43.3	-45.2	18.7	0.00e+00	0	39	0	0	58	4426
2026-01-21 10:32:29.98	322.45	35.51	-43.2	-45.1	18.8	0.00e+00	0	39	0	0	58	4346
2026-01-21 10:32:30.98	322.63	35.31	-43.3	-45.2	18.7	0.00e+00	0	39	0	0	58	4414
2026-01-21 10:32:31.97	322.81	35.10	-43.6	-45.5	18.3	0.00e+00	0	39	0	0	58	4569
2026-01-21 10:32:32.97	322.98	34.90	-43.8	-45.7	18.1	0.00e+00	0	39	0	0	58	4681
2026-01-21 10:32:33.96	323.15	34.70	-44.1	-46.1	17.6	0.00e+00	0	39	0	0	58	4891
2026-01-21 10:32:34.96	323.32	34.50	-44.1	-46.1	17.5	0.00e+00	0	39	0	0	58	4916
2026-01-21 10:32:35.95	323.49	34.30	-44.2	-46.3	17.4	0.00e+00	0	39	0	0	59	4711
2026-01-21 10:32:36.95	323.66	34.11	-44.0	-46.0	17.7	0.00e+00	0	39	0	0	59	4551
2026-01-21 10:32:37.95	323.82	33.91	-43.7	-45.7	18.0	0.00e+00	0	39	0	0	59	4407
2026-01-21 10:32:38.94	323.98	33.72	-43.6	-45.6	18.1	0.00e+00	0	39	0	0	59	4367
2026-01-21 10:32:39.94	324.14	33.52	-43.5	-45.4	18.4	0.00e+00	0	39	0	0	59	4280
2026-01-21 10:32:40.93	324.30	33.33	-43.4	-45.4	18.5	0.00e+00	0	39	0	0	58	4498
2026-01-21 10:32:41.92	324.46	33.14	-43.4	-45.4	18.5	0.00e+00	0	39	0	0	58	4512
2026-01-21 10:32:42.92	324.61	32.94	-43.5	-45.5	18.5	0.00e+00	0	39	0	0	58	4565
2026-01-21 10:32:43.91	324.76	32.76	-43.5	-45.5	18.6	0.00e+00	0	39	0	0	58	4549
2026-01-21 10:32:44.91	324.91	32.56	-43.6	-45.6	18.4	0.00e+00	0	39	0	0	58	4625
2026-01-21 10:32:45.91	325.06	32.38	-43.7	-45.7	18.3	0.00e+00	0	39	0	0	58	4699
2026-01-21 10:32:46.90	325.21	32.19	-43.8	-45.8	18.2	0.00e+00	0	39	0	0	58	4730
2026-01-21 10:32:47.94	325.36	31.99	-43.8	-45.8	18.2	0.00e+00	0	39	0	0	58	4736
2026-01-21 10:32:48.97	325.51	31.80	-43.7	-45.7	18.2	0.00e+00	0	39	0	0	58	4705
2026-01-21 10:32:49.97	325.66	31.62	-43.4	-45.3	18.7	0.00e+00	0	39	0	0	58	4470
2026-01-21 10:32:50.96	325.80	31.44	-43.1	-45.0	18.9	0.00e+00	0	39	0	0	58	4324
2026-01-21 10:32:51.96	325.94	31.25	-43.1	-45.0	18.8	0.00e+00	0	39	0	0	58	4320
2026-01-21 10:32:52.95	326.07	31.07	-43.1	-44.9	18.9	0.00e+00	0	39	0	0	58	4279
2026-01-21 10:32:53.95	326.21	30.89	-42.8	-44.7	19.1	0.00e+00	0	39	0	0	57	4399
2026-01-21 10:32:54.94	326.35	30.71	-42.6	-44.4	19.3	0.00e+00	0	39	0	0	57	4258
2026-01-21 10:32:55.94	326.48	30.53	-42.5	-44.3	19.4	0.00e+00	0	39	0	0	57	4203
2026-01-21 10:32:56.93	326.61	30.36	-42.4	-44.2	19.4	0.00e+00	0	39	0	0	56	4429
2026-01-21 10:32:57.93	326.74	30.18	-42.5	-44.2	19.3	0.00e+00	0	39	0	0	56	4439
2026-01-21 10:32:58.92	326.87	30.00	-42.5	-44.3	19.3	0.00e+00	0	39	0	0	56	4459
2026-01-21 10:32:59.92	327.00	29.83	-42.5	-44.3	19.2	0.00e+00	0	39	0	0	56	4471
2026-01-21 10:33:00.91	327.13	29.65	-42.5	-44.3	19.2	0.00e+00	0	39	0	0	56	4474
2026-01-21 10:33:01.91	327.25	29.48	-42.5	-44.2	19.3	0.00e+00	0	39	0	0	56	4434
2026-01-21 10:33:02.90	327.38	29.31	-42.2	-44.0	19.5	0.00e+00	0	39	0	0	56	4326
2026-01-21 10:33:03.98	327.51	29.12	-42.0	-43.8	19.6	0.00e+00	0	39	0	0	56	4232
2026-01-21 10:33:04.83	327.61	28.98	-42.0	-43.9	19.6	0.00e+00	0	39	0	0	56	4243
2026-01-21 10:33:05.97	327.75	28.78	-42.1	-43.9	19.6	0.00e+00	0	39	0	0	56	4271
2026-01-21 10:33:06.82	327.85	28.64	-42.1	-44.0	19.5	0.00e+00	0	39	0	0	56	4315
2026-01-21 10:33:07.96	327.99	28.45	-42.2	-44.1	19.5	0.00e+00	0	39	0	0	56	4344
2026-01-21 10:33:08.81	328.09	28.31	-42.3	-44.1	19.5	0.00e+00	0	39	0	0	56	4355
2026-01-21 10:33:09.95	328.22	28.12	-42.4	-44.1	19.4	0.00e+00	0	39	0	0	56	4383
2026-01-21 10:33:10.80	328.32	27.98	-42.3	-44.1	19.5	0.00e+00	0	39	0	0	56	4381
2026-01-21 10:33:11.94	328.45	27.79	-42.4	-44.2	19.4	0.00e+00	0	39	0	0	56	4417
2026-01-21 10:33:12.79	328.54	27.65	-42.4	-44.2	19.4	0.00e+00	0	39	0	0	56	4425
2026-01-21 10:33:13.93	328.67	27.46	-42.4	-44.2	19.5	0.00e+00	0	39	0	0	56	4430
2026-01-21 10:33:14.78	328.76	27.32	-42.5	-44.3	19.5	0.00e+00	0	39	0	0	56	4455
2026-01-21 10:33:15.92	328.89	27.14	-42.4	-44.2	19.6	0.00e+00	0	39	0	0	56	4402
2026-01-21 10:33:16.78	328.98	27.00	-42.4	-44.2	19.6	0.00e+00	0	39	0	0	56	4410
2026-01-21 10:33:18.12	329.13	26.79	-42.3	-44.0	19.7	0.00e+00	0	39	0	0	56	4337
2026-01-21 10:33:18.83	329.20	26.68	-42.1	-43.9	19.9	0.00e+00	0	39	0	0	56	4256
2026-01-21 10:33:20.11	329.34	26.47	-42.1	-43.9	19.9	0.00e+00	0	39	0	0	56	4243
2026-01-21 10:33:20.83	329.41	26.36	-42.0	-43.8	19.9	0.00e+00	0	39	0	0	56	4233
2026-01-21 10:33:22.11	329.54	26.16	-41.8	-43.6	20.0	0.00e+00	0	39	0	0	55	4358
2026-01-21 10:33:22.87	329.62	26.04	-41.8	-43.7	19.9	0.00e+00	0	39	0	0	55	4400
2026-01-21 10:33:24.15	329.75	25.84	-41.7	-43.6	19.9	0.00e+00	0	39	0	0	55	4350
2026-01-21 10:33:24.86	329.82	25.74	-41.8	-43.6	19.9	0.00e+00	0	39	0	0	55	4384
2026-01-21 10:33:26.14	329.95	25.54	-41.9	-43.7	19.8	0.00e+00	0	39	0	0	55	4428
2026-01-21 10:33:26.87	330.02	25.43	-41.8	-43.6	19.9	0.00e+00	0	39	0	0	55	4386
2026-01-21 10:33:28.15	330.15	25.23	-42.0	-43.8	19.7	0.00e+00	0	39	0	0	55	4472
2026-01-21 10:33:29.09	330.24	25.09	-42.1	-43.9	19.7	0.00e+00	0	39	0	0	55	4501
2026-01-21 10:33:30.37	330.36	24.90	-41.8	-43.5	20.0	0.00e+00	0	39	0	0	55	4316
2026-01-21 10:33:31.13	330.43	24.79	-41.6	-43.4	20.2	0.00e+00	0	39	0	0	55	4248
2026-01-21 10:33:32.40	330.55	24.60	-41.7	-43.5	20.1	0.00e+00	0	39	0	0	55	4302
2026-01-21 10:33:33.13	330.62	24.49	-41.8	-43.5	20.0	0.00e+00	0	39	0	0	55	4325
2026-01-21 10:33:34.41	330.74	24.31	-41.6	-43.3	20.1	0.00e+00	0	39	0	0	55	4238
2026-01-21 10:33:35.12	330.80	24.20	-41.6	-43.3	20.1	0.00e+00	0	39	0	0	55	4201
2026-01-21 10:33:36.40	330.92	24.02	-41.6	-43.3	20.1	0.00e+00	0	39	0	0	55	4219
2026-01-21 10:33:37.11	330.98	23.91	-41.7	-43.4	20.0	0.00e+00	0	39	0	0	55	4260
2026-01-21 10:33:38.39	331.10	23.73	-41.7	-43.5	20.0	0.00e+00	0	39	0	0	55	4294
2026-01-21 10:33:39.12	331.16	23.63	-41.8	-43.5	19.9	0.00e+00	0	39	0	0	55	4313
2026-01-21 10:33:40.40	331.27	23.44	-41.8	-43.5	19.9	0.00e+00	0	39	0	0	55	4335
2026-01-21 10:33:41.11	331.33	23.34	-41.8	-43.6	19.9	0.00e+00	0	39	0	0	55	4347
2026-01-21 10:33:42.48	331.45	23.15	-42.0	-43.7	19.8	0.00e+00	0	39	0	0	55	4426
2026-01-21 10:33:43.19	331.51	23.05	-42.0	-43.8	19.7	0.00e+00	0	39	0	0	55	4454
2026-01-21 10:33:44.47	331.62	22.87	-42.0	-43.8	19.7	0.00e+00	0	39	0	0	55	4444
2026-01-21 10:33:45.20	331.68	22.77	-41.9	-43.6	19.9	0.00e+00	0	39	0	0	55	4373
2026-01-21 10:33:46.48	331.79	22.59	-41.9	-43.6	19.8	0.00e+00	0	39	0	0	55	4390
2026-01-21 10:33:47.19	331.85	22.50	-41.8	-43.6	19.9	0.00e+00	0	39	0	0	55	4377
2026-01-21 10:33:48.47	331.95	22.32	-41.8	-43.7	19.8	0.00e+00	0	39	0	0	55	4394
2026-01-21 10:33:49.21	332.01	22.22	-41.8	-43.6	19.8	0.00e+00	0	39	0	0	55	4387
2026-01-21 10:33:50.49	332.11	22.05	-41.8	-43.6	19.9	0.00e+00	0	39	0	0	55	4360
2026-01-21 10:33:51.22	332.17	21.95	-41.8	-43.7	19.8	0.00e+00	0	39	0	0	55	4411
2026-01-21 10:33:52.50	332.27	21.78	-41.8	-43.6	19.8	0.00e+00	0	39	0	0	55	4372
2026-01-21 10:33:53.21	332.33	21.68	-41.8	-43.6	19.8	0.00e+00	0	39	0	0	55	4381
2026-01-21 10:33:54.49	332.43	21.51	-41.9	-43.7	19.8	0.00e+00	0	39	0	0	55	4431
2026-01-21 10:33:55.21	332.48	21.42	-42.0	-43.8	19.7	0.00e+00	0	39	0	0	55	4469
2026-01-21 10:33:56.49	332.58	21.25	-42.0	-43.8	19.7	0.00e+00	0	39	0	0	55	4475
2026-01-21 10:33:57.20	332.64	21.16	-42.1	-43.8	19.6	0.00e+00	0	39	0	0	55	4490
2026-01-21 10:33:58.48	332.73	20.99	-42.1	-43.8	19.7	0.00e+00	0	39	0	0	55	4478
2026-01-21 10:33:59.19	332.79	20.90	-42.0	-43.8	19.7	0.00e+00	0	39	0	0	55	4450
2026-01-21 10:34:00.55	332.89	20.73	-42.0	-43.8	19.6	0.00e+00	0	39	0	0	55	4464
2026-01-21 10:34:01.26	332.94	20.63	-42.1	-43.9	19.6	0.00e+00	0	39	0	0	55	4505
2026-01-21 10:34:02.58	333.03	20.47	-42.2	-44.0	19.5	0.00e+00	0	39	0	0	55	4554
2026-01-21 10:34:03.29	333.09	20.38	-42.1	-43.9	19.5	0.00e+00	0	39	0	0	55	4519
2026-01-21 10:34:04.57	333.18	20.21	-42.2	-44.0	19.4	0.00e+00	0	39	0	0	55	4564
2026-01-21 10:34:05.28	333.23	20.13	-42.2	-44.1	19.4	0.00e+00	0	39	0	0	55	4600
2026-01-21 10:34:06.56	333.32	19.97	-42.1	-44.0	19.5	0.00e+00	0	39	0	0	55	4547
2026-01-21 10:34:07.27	333.37	19.88	-42.1	-43.9	19.5	0.00e+00	0	39	0	0	55	4511
2026-01-21 10:34:08.70	333.47	19.70	-42.0	-43.9	19.5	0.00e+00	0	39	0	0	55	4518
2026-01-21 10:34:09.41	333.52	19.61	-42.0	-43.9	19.5	0.00e+00	0	39	0	0	55	4504
2026-01-21 10:34:10.77	333.61	19.45	-42.0	-43.9	19.4	0.00e+00	0	39	0	0	55	4520
2026-01-21 10:34:11.48	333.66	19.36	-42.0	-43.8	19.5	0.00e+00	0	39	0	0	55	4485
2026-01-21 10:34:12.77	333.75	19.20	-42.1	-44.0	19.3	0.00e+00	0	39	0	0	55	4583
2026-01-21 10:34:13.48	333.79	19.12	-42.1	-44.1	19.2	0.00e+00	0	39	0	0	55	4601
2026-01-21 10:34:14.76	333.88	18.96	-42.0	-43.9	19.4	0.00e+00	0	39	0	0	55	4511
2026-01-21 10:34:15.48	333.93	18.88	-42.1	-43.9	19.3	0.00e+00	0	39	0	0	55	4540
2026-01-21 10:34:16.76	334.01	18.72	-42.2	-44.0	19.3	0.00e+00	0	39	0	0	55	4585
2026-01-21 10:34:17.47	334.06	18.64	-42.2	-44.0	19.3	0.00e+00	0	39	0	0	55	4590
2026-01-21 10:34:18.75	334.14	18.49	-42.3	-44.2	19.2	0.00e+00	0	39	0	0	55	4658
2026-01-21 10:34:19.49	334.19	18.40	-42.3	-44.1	19.2	0.00e+00	0	39	0	0	55	4647
2026-01-21 10:34:20.77	334.27	18.25	-42.4	-44.2	19.2	0.00e+00	0	39	0	0	55	4689
2026-01-21 10:34:21.55	334.32	18.16	-42.4	-44.3	19.1	0.00e+00	0	39	0	0	55	4721
2026-01-21 10:34:22.83	334.40	18.01	-42.4	-44.3	19.1	0.00e+00	0	39	0	0	55	4706
2026-01-21 10:34:23.62	334.45	17.92	-42.3	-44.2	19.2	0.00e+00	0	39	0	0	55	4684
2026-01-21 10:34:24.79	334.52	17.78	-42.4	-44.3	19.1	0.00e+00	0	39	0	0	55	4720
2026-01-21 10:34:25.64	334.57	17.69	-42.4	-44.3	19.1	0.00e+00	0	39	0	0	55	4744
2026-01-21 10:34:26.77	334.64	17.56	-42.3	-44.2	19.2	0.00e+00	0	39	0	0	55	4676
2026-01-21 10:34:27.63	334.69	17.46	-42.4	-44.3	19.1	0.00e+00	0	39	0	0	55	4728
2026-01-21 10:34:28.76	334.76	17.33	-42.4	-44.3	19.1	0.00e+00	0	39	0	0	55	4727
2026-01-21 10:34:29.62	334.81	17.24	-42.5	-44.4	19.0	0.00e+00	0	39	0	0	55	4778
2026-01-21 10:34:30.75	334.88	17.11	-42.6	-44.5	18.9	0.00e+00	0	39	0	0	55	4844
2026-01-21 10:34:31.60	334.93	17.01	-42.8	-44.7	18.9	0.00e+00	0	39	0	0	56	4675
2026-01-21 10:34:32.74	335.00	16.89	-42.9	-44.8	18.8	0.00e+00	0	39	0	0	56	4722
2026-01-21 10:34:33.59	335.04	16.79	-42.8	-44.7	18.9	0.00e+00	0	39	0	0	56	4662
2026-01-21 10:34:34.73	335.11	16.67	-42.9	-44.8	18.8	0.00e+00	0	39	0	0	56	4714
2026-01-21 10:34:35.58	335.16	16.58	-42.8	-44.7	18.8	0.00e+00	0	39	0	0	56	4688
2026-01-21 10:34:36.72	335.22	16.45	-43.0	-44.9	18.7	0.00e+00	0	39	0	0	56	4765
2026-01-21 10:34:37.64	335.28	16.35	-43.0	-44.9	18.7	0.00e+00	0	39	0	0	56	4762
2026-01-21 10:34:38.79	335.34	16.23	-43.1	-45.0	18.6	0.00e+00	0	39	0	0	56	4826
2026-01-21 10:34:39.64	335.39	16.13	-43.2	-45.1	18.6	0.00e+00	0	39	0	0	56	4882
2026-01-21 10:34:40.78	335.45	16.01	-43.0	-44.9	18.7	0.00e+00	0	39	0	0	56	4788
2026-01-21 10:34:41.63	335.50	15.92	-42.9	-44.8	18.8	0.00e+00	0	39	0	0	56	4759
2026-01-21 10:34:42.76	335.56	15.80	-43.0	-44.9	18.7	0.00e+00	0	39	0	0	56	4764
2026-01-21 10:34:43.62	335.61	15.71	-43.0	-44.9	18.6	0.00e+00	0	39	0	0	56	4811
2026-01-21 10:34:45.10	335.69	15.55	-43.1	-45.0	18.6	0.00e+00	0	39	0	0	56	4858
2026-01-21 10:34:45.81	335.72	15.48	-43.0	-45.0	18.6	0.00e+00	0	39	0	0	56	4828
2026-01-21 10:34:47.09	335.79	15.35	-43.1	-45.0	18.6	0.00e+00	0	39	0	0	56	4869
2026-01-21 10:34:47.80	335.83	15.27	-43.1	-45.1	18.5	0.00e+00	0	39	0	0	56	4887
2026-01-21 10:34:49.08	335.90	15.14	-43.2	-45.1	18.5	0.00e+00	0	39	0	0	57	4626
2026-01-21 10:34:49.79	335.93	15.07	-43.1	-45.1	18.5	0.00e+00	0	39	0	0	57	4602
2026-01-21 10:34:51.07	336.00	14.93	-43.3	-45.2	18.4	0.00e+00	0	39	0	0	57	4692
2026-01-21 10:34:51.78	336.04	14.86	-43.2	-45.2	18.4	0.00e+00	0	39	0	0	57	4657
2026-01-21 10:34:53.06	336.10	14.73	-43.3	-45.2	18.4	0.00e+00	0	39	0	0	57	4676
2026-01-21 10:34:53.79	336.14	14.66	-43.3	-45.2	18.5	0.00e+00	0	39	0	0	57	4653
2026-01-21 10:34:55.07	336.20	14.53	-43.4	-45.3	18.3	0.00e+00	0	39	0	0	57	4757
2026-01-21 10:34:55.78	336.24	14.45	-43.4	-45.4	18.2	0.00e+00	0	39	0	0	57	4772
2026-01-21 10:34:57.12	336.31	14.32	-43.2	-45.1	18.4	0.00e+00	0	39	0	0	57	4647
2026-01-21 10:34:57.83	336.34	14.25	-43.2	-45.1	18.5	0.00e+00	0	39	0	0	57	4604
2026-01-21 10:34:59.11	336.41	14.12	-43.3	-45.2	18.4	0.00e+00	0	39	0	0	57	4696
2026-01-21 10:35:00.15	336.46	14.02	-43.2	-45.2	18.4	0.00e+00	0	39	0	0	57	4663
2026-01-21 10:35:01.14	336.51	13.92	-43.2	-45.1	18.5	0.00e+00	0	39	0	0	57	4630
2026-01-21 10:35:02.14	336.55	13.82	-43.1	-45.1	18.5	0.00e+00	0	39	0	0	57	4618
2026-01-21 10:35:03.13	336.60	13.73	-43.2	-45.2	18.4	0.00e+00	0	39	0	0	57	4689
2026-01-21 10:35:04.13	336.65	13.63	-43.2	-45.2	18.4	0.00e+00	0	39	0	0	57	4690
2026-01-21 10:35:05.12	336.70	13.53	-43.2	-45.2	18.4	0.00e+00	0	39	0	0	57	4686
2026-01-21 10:35:06.12	336.74	13.43	-43.2	-45.3	18.2	0.00e+00	0	39	0	0	57	4743
2026-01-21 10:35:07.11	336.79	13.34	-43.2	-45.3	18.3	0.00e+00	0	39	0	0	57	4731
2026-01-21 10:35:08.11	336.84	13.24	-43.2	-45.3	18.3	0.00e+00	0	39	0	0	57	4735
2026-01-21 10:35:09.17	336.89	13.14	-43.1	-45.2	18.3	0.00e+00	0	39	0	0	57	4691
2026-01-21 10:35:10.05	336.93	13.06	-43.2	-45.3	18.3	0.00e+00	0	39	0	0	57	4736
2026-01-21 10:35:11.19	336.98	12.95	-43.2	-45.3	18.3	0.00e+00	0	39	0	0	57	4711
2026-01-21 10:35:12.04	337.02	12.87	-43.2	-45.3	18.3	0.00e+00	0	39	0	0	57	4731
2026-01-21 10:35:13.17	337.07	12.76	-43.3	-45.3	18.2	0.00e+00	0	39	0	0	57	4752
2026-01-21 10:35:14.12	337.11	12.67	-43.3	-45.4	18.2	0.00e+00	0	39	0	0	57	4776
2026-01-21 10:35:15.29	337.16	12.56	-43.2	-45.3	18.2	0.00e+00	0	39	0	0	57	4752
2026-01-21 10:35:16.14	337.20	12.48	-43.3	-45.4	18.2	0.00e+00	0	39	0	0	57	4785
2026-01-21 10:35:17.50	337.26	12.36	-43.3	-45.4	18.1	0.00e+00	0	39	0	0	57	4796
2026-01-21 10:35:18.21	337.29	12.29	-43.2	-45.4	18.2	0.00e+00	0	39	0	0	57	4770
2026-01-21 10:35:19.49	337.35	12.17	-43.2	-45.4	18.2	0.00e+00	0	39	0	0	57	4789
2026-01-21 10:35:20.21	337.38	12.11	-43.2	-45.4	18.2	0.00e+00	0	39	0	0	57	4796
2026-01-21 10:35:21.49	337.44	11.99	-43.3	-45.5	18.0	0.00e+00	0	39	0	0	57	4866
2026-01-21 10:35:22.20	337.47	11.93	-43.3	-45.5	18.0	0.00e+00	0	39	0	0	57	4843
2026-01-21 10:35:23.48	337.52	11.81	-43.3	-45.6	17.9	0.00e+00	0	39	0	0	57	4909
2026-01-21 10:35:24.29	337.56	11.74	-43.3	-45.6	17.9	0.00e+00	0	39	0	0	57	4902
2026-01-21 10:35:25.71	337.62	11.61	-43.4	-45.7	17.9	0.00e+00	0	39	0	0	57	4927
2026-01-21 10:35:26.42	337.65	11.54	-43.4	-45.7	17.9	0.00e+00	0	39	0	0	57	4934
2026-01-21 10:35:27.70	337.70	11.43	-43.5	-45.8	17.8	0.00e+00	0	39	0	0	57	4989
2026-01-21 10:35:28.41	337.73	11.37	-43.6	-45.8	17.8	0.00e+00	0	39	0	0	57	5014
2026-01-21 10:35:29.69	337.78	11.25	-43.6	-45.9	17.7	0.00e+00	0	39	0	0	57	5070
2026-01-21 10:35:30.40	337.81	11.19	-43.7	-45.9	17.7	0.00e+00	0	39	0	0	58	4813
2026-01-21 10:35:31.68	337.86	11.08	-43.6	-45.8	17.8	0.00e+00	0	39	0	0	58	4735
2026-01-21 10:35:32.39	337.89	11.01	-43.7	-45.9	17.7	0.00e+00	0	39	0	0	58	4773
2026-01-21 10:35:33.67	337.94	10.90	-43.8	-46.0	17.6	0.00e+00	0	39	0	0	58	4834
2026-01-21 10:35:34.38	337.97	10.84	-43.7	-45.9	17.7	0.00e+00	0	39	0	0	58	4760
2026-01-21 10:35:35.67	338.02	10.73	-43.7	-45.9	17.7	0.00e+00	0	39	0	0	58	4774
2026-01-21 10:35:36.38	338.05	10.66	-43.7	-45.9	17.7	0.00e+00	0	39	0	0	58	4764
2026-01-21 10:35:37.66	338.10	10.55	-43.7	-45.9	17.7	0.00e+00	0	39	0	0	58	4776
2026-01-21 10:35:38.39	338.13	10.49	-43.7	-46.0	17.6	0.00e+00	0	39	0	0	58	4825
2026-01-21 10:35:39.73	338.19	10.38	-43.8	-46.0	17.5	0.00e+00	0	39	0	0	58	4851
2026-01-21 10:35:40.44	338.21	10.32	-43.7	-46.0	17.6	0.00e+00	0	39	0	0	58	4831
2026-01-21 10:35:41.72	338.26	10.21	-43.7	-46.0	17.6	0.00e+00	0	39	0	0	58	4837
2026-01-21 10:35:42.43	338.29	10.15	-43.6	-45.9	17.6	0.00e+00	0	39	0	0	58	4781
2026-01-21 10:35:43.71	338.34	10.04	-43.7	-45.9	17.6	0.00e+00	0	39	0	0	58	4803
2026-01-21 10:35:44.42	338.37	9.98	-43.7	-46.0	17.6	0.00e+00	0	39	0	0	58	4819
2026-01-21 10:35:45.70	338.41	9.87	-43.8	-46.0	17.5	0.00e+00	0	39	0	0	58	4860
2026-01-21 10:35:46.43	338.44	9.81	-43.8	-46.0	17.5	0.00e+00	0	39	0	0	58	4865
2026-01-21 10:35:47.71	338.49	9.70	-43.9	-46.2	17.3	0.00e+00	0	39	0	0	58	4937
2026-01-21 10:35:48.49	338.52	9.64	-43.9	-46.1	17.4	0.00e+00	0	39	0	0	58	4905
2026-01-21 10:35:49.77	338.57	9.53	-44.0	-46.2	17.3	0.00e+00	0	39	0	0	58	4953
2026-01-21 10:35:50.52	338.60	9.47	-44.1	-46.3	17.2	0.00e+00	0	39	0	0	58	5035
2026-01-21 10:35:51.80	338.64	9.36	-44.2	-46.4	17.1	0.00e+00	0	39	0	0	58	5083
2026-01-21 10:35:52.51	338.67	9.30	-44.0	-46.2	17.2	0.00e+00	0	39	0	0	58	4972
2026-01-21 10:35:53.78	338.72	9.20	-44.2	-46.4	17.0	0.00e+00	0	39	0	0	58	5085
2026-01-21 10:35:54.63	338.75	9.13	-44.2	-46.5	17.0	0.00e+00	0	39	0	0	59	4860
2026-01-21 10:35:55.77	338.79	9.04	-44.1	-46.4	17.1	0.00e+00	0	39	0	0	59	4788
2026-01-21 10:35:56.78	338.82	8.96	-47.1	-50.6	13.2	0.00e+00	0	39	0	0	64	5854
2026-01-21 10:35:57.77	338.86	8.87	-50.6	-65.0	3.8	1.49e+00	0	39	104	0	72	19292
2026-01-21 10:35:58.77	338.89	8.79	-51.5	-65.1	3.8	1.49e+00	0	39	104	0	74	17290
2026-01-21 10:35:59.76	338.93	8.71	-51.5	-65.2	3.8	1.49e+00	0	39	104	0	74	17574
2026-01-21 10:36:00.76	338.96	8.63	-52.0	-65.3	3.8	1.49e+00	0	39	104	0	74	17799
2026-01-21 10:36:01.75	339.00	8.56	-52.0	-65.4	3.8	1.49e+00	0	39	104	0	74	18070
2026-01-21 10:36:02.74	339.03	8.48	-51.1	-65.5	3.8	1.49e+00	0	39	104	0	74	18257
2026-01-21 10:36:03.73	339.07	8.40	-51.4	-65.6	3.8	1.49e+00	0	39	104	0	74	18393
2026-01-21 10:36:04.73	339.10	8.32	-52.3	-65.6	3.8	1.49e+00	0	39	104	0	75	17398
2026-01-21 10:36:05.72	339.14	8.24	-52.4	-65.6	3.8	1.49e+00	0	39	104	0	75	17366
2026-01-21 10:36:06.71	339.17	8.16	-52.2	-65.6	3.8	1.49e+00	0	39	104	0	75	17447
2026-01-21 10:36:07.71	339.21	8.08	-52.4	-65.6	3.8	1.49e+00	0	39	104	0	75	17425
2026-01-21 10:36:08.70	339.24	8.01	-52.3	-65.7	3.8	1.49e+00	0	39	104	0	75	17511
2026-01-21 10:36:09.69	339.27	7.93	-52.5	-65.7	3.8	1.49e+00	0	39	104	0	75	17495
2026-01-21 10:36:10.69	339.31	7.85	-52.4	-65.7	3.8	1.49e+00	0	39	104	0	75	17526
2026-01-21 10:36:11.68	339.34	7.77	-52.6	-65.7	3.8	1.49e+00	0	39	104	0	75	17537
2026-01-21 10:36:12.67	339.37	7.70	-52.8	-65.7	3.8	1.49e+00	0	39	104	0	76	16646
2026-01-21 10:36:13.67	339.41	7.62	-52.7	-65.7	3.8	1.49e+00	0	39	104	0	76	16571
2026-01-21 10:36:14.66	339.44	7.54	-52.8	-65.7	3.8	1.49e+00	0	39	104	0	76	16618
2026-01-21 10:36:15.65	339.47	7.47	-52.7	-65.7	3.8	1.49e+00	0	39	104	0	76	16597
2026-01-21 10:36:16.65	339.50	7.39	-52.8	-65.7	3.8	1.49e+00	0	39	104	0	76	16649
2026-01-21 10:36:17.64	339.54	7.32	-52.5	-65.7	3.8	1.49e+00	0	39	104	0	76	16605
2026-01-21 10:36:18.63	339.57	7.24	-52.7	-65.7	3.8	1.49e+00	0	39	104	0	76	16585
2026-01-21 10:36:19.63	339.60	7.17	-52.6	-65.7	3.8	1.49e+00	0	39	104	0	76	16610
2026-01-21 10:36:20.62	339.63	7.09	-52.5	-65.7	3.8	1.49e+00	0	39	104	0	76	16526
2026-01-21 10:36:21.61	339.66	7.02	-52.4	-65.7	3.8	1.49e+00	0	39	104	0	76	16574
2026-01-21 10:36:22.61	339.70	6.94	-52.5	-65.7	3.8	1.49e+00	0	39	104	0	76	16518
2026-01-21 10:36:23.60	339.73	6.87	-52.4	-65.7	3.8	1.49e+00	0	39	104	0	76	16505
2026-01-21 10:36:24.59	339.76	6.79	-52.4	-65.7	3.8	1.49e+00	0	39	104	0	76	16557
2026-01-21 10:36:25.59	339.79	6.72	-52.4	-65.6	3.8	1.49e+00	0	39	104	0	76	16496
2026-01-21 10:36:26.58	339.82	6.65	-52.4	-65.7	3.8	1.49e+00	0	39	104	0	76	16531
2026-01-21 10:36:27.58	339.85	6.57	-52.4	-65.6	3.8	1.49e+00	0	39	104	0	76	16499
2026-01-21 10:36:28.57	339.88	6.50	-52.4	-65.6	3.8	1.49e+00	0	39	104	0	76	16489
2026-01-21 10:36:29.56	339.91	6.42	-52.4	-65.6	3.8	1.49e+00	0	39	104	0	76	16484
2026-01-21 10:36:30.56	339.94	6.35	-52.4	-65.7	3.8	1.49e+00	0	39	104	0	76	16569
2026-01-21 10:36:31.55	339.98	6.28	-52.4	-65.6	3.8	1.49e+00	0	39	104	0	76	16492
2026-01-21 10:36:32.54	340.01	6.21	-52.4	-65.6	3.8	1.49e+00	0	39	104	0	76	16490
2026-01-21 10:36:33.54	340.04	6.13	-52.4	-65.6	3.8	1.49e+00	0	39	104	0	76	16469
2026-01-21 10:36:34.53	340.07	6.06	-52.4	-65.7	3.8	1.49e+00	0	39	104	0	76	16556
2026-01-21 10:36:35.52	340.10	5.99	-52.4	-65.6	3.8	1.49e+00	0	39	104	0	76	16473
2026-01-21 10:36:36.52	340.13	5.92	-52.4	-65.6	3.8	1.49e+00	0	39	104	0	76	16475
2026-01-21 10:36:37.51	340.16	5.85	-52.4	-65.7	3.8	1.49e+00	0	39	104	0	76	16533
2026-01-21 10:36:38.50	340.18	5.78	-52.4	-65.6	3.8	1.49e+00	0	39	104	0	76	16475
2026-01-21 10:36:39.50	340.21	5.70	-52.4	-65.6	3.8	1.49e+00	0	39	104	0	76	16449
2026-01-21 10:36:40.49	340.24	5.63	-52.4	-65.6	3.8	1.49e+00	0	39	104	0	76	16440
2026-01-21 10:36:41.48	340.27	5.56	-52.4	-65.6	3.8	1.49e+00	0	39	104	0	76	16442
2026-01-21 10:36:42.48	340.30	5.49	-52.4	-65.6	3.8	1.49e+00	0	39	104	0	76	16497
