passes_logs/2026/01/21/T1/T1__20260121_133530_FENGYUN_3E_rec.log

#Pass ID: 20260121_133530_FENGYUN 3E
#Satellite: FENGYUN 3E
#Configuration: FENGYUN 3E
#almurnet v.1.7.20251203
#Start time: 2026-01-21 13:35:29

#Version: 2.0.20230620
#Station: T1
#Location: 37.570604 lon 55.790049 lat
#TLE: 1 49008U 21062A   26020.99547197  .00000101  00000+0  68509-4 0  9996
#TLE: 2 49008  98.7483  26.0531 0002292 127.4634 232.6751 14.19886023235694

#Time	Az	El	Level	Level2	SNR	BER	BlckErr	Temp	State	Recorded	gain1	gain2
2026-01-21 13:35:29.97	140.94	4.97	-52.2	-62.8	3.8	8.47e-01	0	36	0	0	75	11808
2026-01-21 13:35:30.96	140.91	5.04	-52.1	-62.8	3.8	8.48e-01	0	36	104	0	75	11730
2026-01-21 13:35:31.96	140.87	5.11	-52.1	-62.7	3.8	8.46e-01	0	37	104	0	75	11638
2026-01-21 13:35:32.95	140.84	5.18	-52.2	-62.6	3.8	8.47e-01	0	37	104	0	75	11519
2026-01-21 13:35:33.94	140.81	5.25	-52.1	-62.6	3.8	8.47e-01	0	37	104	0	74	12172
2026-01-21 13:35:34.94	140.78	5.32	-52.1	-62.6	3.8	8.47e-01	0	37	104	0	74	12159
2026-01-21 13:35:35.93	140.75	5.39	-52.1	-62.4	3.8	8.47e-01	0	37	104	0	74	11934
2026-01-21 13:35:36.92	140.71	5.46	-52.0	-62.4	3.8	8.48e-01	0	37	104	0	74	11932
2026-01-21 13:35:37.91	140.68	5.53	-52.1	-62.3	3.8	8.46e-01	0	37	104	0	74	11786
2026-01-21 13:35:38.91	140.65	5.60	-52.0	-62.3	3.8	8.46e-01	0	37	104	0	74	11748
2026-01-21 13:35:39.90	140.62	5.67	-52.0	-62.2	3.8	8.47e-01	0	37	104	0	74	11571
2026-01-21 13:35:40.89	140.58	5.75	-52.1	-61.9	3.8	8.45e-01	0	37	104	0	74	11275
2026-01-21 13:35:41.89	140.55	5.82	-52.0	-61.8	3.8	8.47e-01	0	37	104	0	74	11070
2026-01-21 13:35:42.88	140.52	5.89	-51.9	-61.7	3.8	8.48e-01	0	37	104	0	74	10904
2026-01-21 13:35:43.87	140.48	5.96	-52.0	-61.5	3.8	8.46e-01	0	37	104	0	74	10691
2026-01-21 13:35:44.87	140.45	6.03	-51.9	-61.3	3.8	8.47e-01	0	37	104	0	74	10452
2026-01-21 13:35:45.86	140.41	6.11	-51.9	-61.1	3.8	8.46e-01	0	37	104	0	74	10277
2026-01-21 13:35:46.85	140.38	6.18	-51.8	-61.2	3.8	8.47e-01	0	37	104	0	74	10318
2026-01-21 13:35:47.85	140.35	6.25	-51.8	-61.1	3.8	8.47e-01	0	37	104	0	74	10189
2026-01-21 13:35:48.84	140.31	6.33	-51.9	-61.3	3.8	8.46e-01	0	37	104	0	74	10423
2026-01-21 13:35:49.84	140.28	6.40	-51.9	-61.4	3.8	8.46e-01	0	37	104	0	74	10608
2026-01-21 13:35:50.83	140.24	6.47	-51.9	-61.7	3.8	8.46e-01	0	37	104	0	74	11006
2026-01-21 13:35:51.82	140.21	6.55	-52.1	-62.2	3.8	8.47e-01	0	37	104	0	74	11642
2026-01-21 13:35:52.82	140.17	6.62	-52.0	-62.6	3.8	8.47e-01	0	37	104	0	74	12107
2026-01-21 13:35:53.81	140.13	6.69	-52.2	-62.8	3.8	8.46e-01	0	37	104	0	74	12481
2026-01-21 13:35:54.80	140.10	6.77	-52.2	-62.9	3.8	8.47e-01	0	37	104	0	74	12636
2026-01-21 13:35:55.80	140.06	6.84	-52.1	-62.5	3.8	8.47e-01	0	37	104	0	74	12090
2026-01-21 13:35:56.79	140.03	6.92	-52.1	-62.0	3.8	8.46e-01	0	37	104	0	74	11390
2026-01-21 13:35:57.78	139.99	6.99	-52.0	-61.4	3.8	8.46e-01	0	37	104	0	74	10629
2026-01-21 13:35:58.77	139.95	7.07	-51.8	-60.7	3.8	8.46e-01	0	37	104	0	74	9760
2026-01-21 13:35:59.77	139.92	7.14	-51.7	-60.1	3.9	8.43e-01	0	37	104	0	74	9099
2026-01-21 13:36:00.76	139.88	7.22	-51.5	-59.2	4.2	8.40e-01	0	37	0	0	73	8760
2026-01-21 13:36:01.75	139.84	7.29	-51.4	-58.5	4.4	8.32e-01	0	37	0	0	73	8059
2026-01-21 13:36:02.75	139.81	7.37	-51.2	-57.7	4.8	8.05e-01	0	37	0	0	73	7341
2026-01-21 13:36:03.74	139.77	7.45	-50.8	-56.5	5.5	7.36e-01	0	38	0	0	72	6764
2026-01-21 13:36:04.73	139.73	7.52	-50.4	-55.3	6.4	2.88e-01	0	38	0	5242880	71	6244
2026-01-21 13:36:05.73	139.69	7.60	-49.7	-53.7	8.0	8.89e-02	0	38	0	12582912	70	5474
2026-01-21 13:36:06.72	139.66	7.68	-48.9	-52.3	9.4	2.41e-02	0	37	0	19922944	68	5223
2026-01-21 13:36:07.72	139.62	7.75	-47.6	-50.4	11.2	2.07e-03	0	38	0	26214400	66	4715
2026-01-21 13:36:08.71	139.58	7.83	-46.9	-49.5	12.0	4.23e-04	0	38	0	33554432	64	4787
2026-01-21 13:36:09.70	139.54	7.91	-45.8	-48.0	13.6	2.28e-05	0	38	0	40894464	62	4524
2026-01-21 13:36:10.70	139.50	7.99	-44.9	-46.8	14.8	0.00e+00	0	38	0	48234496	60	4427
2026-01-21 13:36:11.69	139.46	8.06	-44.6	-46.5	15.0	0.00e+00	0	38	0	55574528	59	4525
2026-01-21 13:36:12.68	139.42	8.14	-43.8	-45.6	15.9	0.00e+00	0	38	0	62914560	58	4294
2026-01-21 13:36:13.67	139.38	8.22	-43.3	-45.0	16.4	0.00e+00	0	38	0	69206016	57	4246
2026-01-21 13:36:14.67	139.34	8.30	-43.2	-44.8	16.6	0.00e+00	0	38	0	76546048	57	4185
2026-01-21 13:36:15.66	139.30	8.38	-43.1	-44.8	16.6	0.00e+00	0	38	0	83886080	56	4410
2026-01-21 13:36:16.65	139.26	8.46	-43.2	-44.9	16.6	0.00e+00	0	38	0	91226112	56	4447
2026-01-21 13:36:17.65	139.22	8.54	-43.6	-45.3	16.1	0.00e+00	0	38	0	98566144	56	4699
2026-01-21 13:36:18.64	139.18	8.62	-43.9	-45.7	15.8	0.00e+00	0	38	0	105906176	57	4602
2026-01-21 13:36:19.64	139.14	8.70	-44.6	-46.4	15.1	0.00e+00	0	38	0	113246208	58	4740
2026-01-21 13:36:20.63	139.10	8.78	-45.2	-47.1	14.4	0.00e+00	0	38	0	120586240	59	4857
2026-01-21 13:36:21.62	139.06	8.86	-46.3	-48.6	13.0	6.80e-06	0	38	0	126877696	62	4837
2026-01-21 13:36:22.62	139.01	8.94	-47.2	-49.8	11.8	2.10e-04	0	38	0	134217728	63	5254
2026-01-21 13:36:23.61	138.97	9.02	-48.1	-51.2	10.3	2.48e-03	0	38	0	141557760	65	5485
2026-01-21 13:36:24.61	138.93	9.10	-48.4	-51.6	9.9	1.10e-02	0	38	0	148897792	66	5420
2026-01-21 13:36:25.60	138.89	9.18	-49.1	-52.8	8.8	1.03e-02	0	38	0	156237824	67	5880
2026-01-21 13:36:26.59	138.84	9.26	-48.4	-51.5	10.0	1.77e-02	0	38	0	163577856	67	5081
2026-01-21 13:36:27.59	138.80	9.34	-45.4	-47.5	14.2	2.69e-03	0	38	0	169869312	61	4500
2026-01-21 13:36:28.59	138.76	9.43	-49.8	-53.9	7.9	4.50e-06	0	38	0	177209344	68	6322
2026-01-21 13:36:29.58	138.71	9.51	-47.4	-50.1	11.3	3.90e-01	0	38	0	178257920	65	4848
2026-01-21 13:36:30.58	138.67	9.59	-43.1	-44.7	16.8	0.00e+00	0	38	0	185597952	56	4366
2026-01-21 13:36:31.57	138.63	9.67	-42.1	-43.7	17.6	0.00e+00	0	38	0	192937984	55	4109
2026-01-21 13:36:32.57	138.58	9.76	-41.5	-43.0	18.2	0.00e+00	0	38	0	200278016	53	4257
2026-01-21 13:36:33.56	138.54	9.84	-41.7	-43.2	18.0	0.00e+00	0	38	0	207618048	53	4367
2026-01-21 13:36:34.56	138.49	9.92	-41.7	-43.2	18.0	0.00e+00	0	38	0	214958080	53	4368
2026-01-21 13:36:35.56	138.45	10.01	-41.6	-43.1	18.2	0.00e+00	0	38	0	221249536	53	4297
2026-01-21 13:36:36.55	138.40	10.09	-41.6	-43.1	18.2	0.00e+00	0	38	0	228589568	53	4299
2026-01-21 13:36:37.55	138.35	10.18	-41.3	-42.8	18.4	0.00e+00	0	38	0	235929600	53	4173
2026-01-21 13:36:38.54	138.31	10.26	-41.6	-43.0	18.2	0.00e+00	0	38	0	243269632	53	4287
2026-01-21 13:36:39.53	138.26	10.35	-41.5	-43.0	18.3	0.00e+00	0	38	0	250609664	53	4263
2026-01-21 13:36:40.53	138.22	10.43	-41.4	-42.9	18.4	0.00e+00	0	38	0	257949696	53	4200
2026-01-21 13:36:41.52	138.17	10.52	-41.5	-42.9	18.3	0.00e+00	0	38	0	264241152	53	4231
2026-01-21 13:36:42.52	138.12	10.60	-41.4	-42.9	18.4	0.00e+00	0	38	0	271581184	53	4213
2026-01-21 13:36:43.51	138.07	10.69	-41.5	-43.0	18.3	0.00e+00	0	38	0	278921216	53	4260
2026-01-21 13:36:44.51	138.03	10.78	-41.4	-42.9	18.4	0.00e+00	0	38	0	286261248	53	4227
2026-01-21 13:36:45.50	137.98	10.86	-41.4	-42.9	18.4	0.00e+00	0	38	0	293601280	53	4210
2026-01-21 13:36:46.50	137.93	10.95	-41.3	-42.8	18.5	0.00e+00	0	39	0	300941312	53	4163
2026-01-21 13:36:47.49	137.88	11.04	-41.4	-42.8	18.4	0.00e+00	0	38	0	308281344	53	4187
2026-01-21 13:36:48.48	137.83	11.12	-41.5	-42.9	18.4	0.00e+00	0	38	0	315621376	53	4231
2026-01-21 13:36:49.48	137.78	11.21	-41.4	-42.8	18.4	0.00e+00	0	38	0	321912832	53	4175
2026-01-21 13:36:50.48	137.73	11.30	-41.3	-42.7	18.5	0.00e+00	0	38	0	329252864	53	4127
2026-01-21 13:36:51.47	137.68	11.39	-41.1	-42.6	18.7	0.00e+00	0	38	0	336592896	53	4058
2026-01-21 13:36:52.47	137.63	11.48	-41.1	-42.5	18.8	0.00e+00	0	38	0	343932928	52	4259
2026-01-21 13:36:53.46	137.58	11.57	-41.0	-42.5	18.8	0.00e+00	0	38	0	351272960	52	4243
2026-01-21 13:36:54.46	137.53	11.66	-41.2	-42.6	18.7	0.00e+00	0	38	0	358612992	52	4333
2026-01-21 13:36:55.45	137.48	11.75	-40.9	-42.3	18.9	0.00e+00	0	38	0	364904448	52	4167
2026-01-21 13:36:56.45	137.43	11.84	-41.0	-42.4	18.8	0.00e+00	0	39	0	372244480	52	4204
2026-01-21 13:36:57.49	137.37	11.93	-40.9	-42.3	18.9	0.00e+00	0	39	0	380633088	52	4185
2026-01-21 13:36:58.45	137.32	12.02	-40.9	-42.3	18.9	0.00e+00	0	38	0	386924544	52	4166
2026-01-21 13:36:59.54	137.27	12.12	-40.7	-42.1	19.2	0.00e+00	0	38	0	395313152	52	4062
2026-01-21 13:37:00.39	137.22	12.20	-40.8	-42.2	19.0	0.00e+00	0	38	0	400556032	52	4145
2026-01-21 13:37:01.53	137.16	12.30	-40.7	-42.1	19.1	0.00e+00	0	38	0	408944640	52	4097
2026-01-21 13:37:02.39	137.11	12.38	-40.8	-42.2	19.1	0.00e+00	0	38	0	415236096	52	4120
2026-01-21 13:37:03.52	137.05	12.49	-40.6	-42.0	19.2	0.00e+00	0	38	0	423624704	52	4048
2026-01-21 13:37:04.38	137.00	12.57	-40.7	-42.0	19.3	0.00e+00	0	38	0	429916160	51	4289
2026-01-21 13:37:05.51	136.94	12.67	-40.7	-42.1	19.2	0.00e+00	0	38	0	438304768	51	4310
2026-01-21 13:37:06.37	136.90	12.75	-40.7	-42.1	19.2	0.00e+00	0	38	0	443547648	51	4319
2026-01-21 13:37:07.50	136.83	12.86	-40.7	-42.0	19.2	0.00e+00	0	38	0	451936256	51	4278
2026-01-21 13:37:08.36	136.78	12.94	-40.7	-42.1	19.3	0.00e+00	0	38	0	458227712	51	4304
2026-01-21 13:37:09.51	136.72	13.05	-40.8	-42.2	19.2	0.00e+00	0	39	0	466616320	51	4350
2026-01-21 13:37:10.37	136.67	13.13	-40.6	-42.0	19.4	0.00e+00	0	38	0	472907776	51	4244
2026-01-21 13:37:11.57	136.60	13.25	-40.5	-41.9	19.4	0.00e+00	0	38	0	481296384	51	4214
2026-01-21 13:37:12.42	136.55	13.33	-40.6	-42.0	19.4	0.00e+00	0	38	0	487587840	51	4254
2026-01-21 13:37:13.56	136.49	13.44	-40.6	-42.0	19.3	0.00e+00	0	39	0	495976448	51	4248
2026-01-21 13:37:14.41	136.44	13.52	-40.5	-41.9	19.4	0.00e+00	0	38	0	502267904	51	4219
2026-01-21 13:37:15.54	136.37	13.63	-40.3	-41.7	19.6	0.00e+00	0	39	0	510656512	51	4110
2026-01-21 13:37:16.40	136.32	13.71	-40.3	-41.7	19.6	0.00e+00	0	39	0	516947968	51	4115
2026-01-21 13:37:17.53	136.25	13.82	-40.3	-41.6	19.6	0.00e+00	0	39	0	525336576	51	4097
2026-01-21 13:37:18.39	136.20	13.91	-40.4	-41.7	19.6	0.00e+00	0	39	0	530579456	51	4123
2026-01-21 13:37:19.52	136.13	14.02	-40.4	-41.8	19.5	0.00e+00	0	39	0	538968064	51	4146
2026-01-21 13:37:20.37	136.08	14.10	-40.2	-41.5	19.8	0.00e+00	0	39	0	545259520	51	4032
2026-01-21 13:37:21.51	136.01	14.21	-40.3	-41.6	19.7	0.00e+00	0	39	0	553648128	51	4073
2026-01-21 13:37:22.36	135.96	14.30	-40.2	-41.6	19.7	0.00e+00	0	38	0	559939584	51	4069
2026-01-21 13:37:23.50	135.89	14.41	-40.3	-41.6	19.7	0.00e+00	0	39	0	568328192	51	4097
2026-01-21 13:37:24.35	135.83	14.50	-40.3	-41.6	19.7	0.00e+00	0	39	0	573571072	51	4084
2026-01-21 13:37:25.49	135.76	14.61	-40.4	-41.7	19.6	0.00e+00	0	39	0	581959680	51	4136
2026-01-21 13:37:26.34	135.71	14.70	-40.3	-41.6	19.6	0.00e+00	0	39	0	588251136	51	4092
2026-01-21 13:37:27.48	135.64	14.81	-40.4	-41.7	19.6	0.00e+00	0	39	0	596639744	51	4135
2026-01-21 13:37:28.33	135.58	14.90	-40.2	-41.6	19.7	0.00e+00	0	39	0	602931200	51	4059
2026-01-21 13:37:29.61	135.50	15.03	-40.3	-41.6	19.7	0.00e+00	0	39	0	612368384	51	4083
2026-01-21 13:37:30.32	135.45	15.10	-40.4	-41.8	19.5	0.00e+00	0	39	0	616562688	51	4172
2026-01-21 13:37:31.60	135.37	15.23	-40.4	-41.7	19.6	0.00e+00	0	39	0	625999872	51	4126
2026-01-21 13:37:32.31	135.32	15.31	-40.2	-41.5	19.8	0.00e+00	0	39	0	631242752	51	4027
2026-01-21 13:37:33.59	135.23	15.44	-40.0	-41.4	19.9	0.00e+00	0	39	0	640679936	50	4194
2026-01-21 13:37:34.31	135.19	15.51	-40.0	-41.3	19.9	0.00e+00	0	39	0	645922816	50	4176
2026-01-21 13:37:35.58	135.10	15.65	-40.0	-41.3	19.9	0.00e+00	0	39	0	655360000	50	4176
2026-01-21 13:37:36.31	135.05	15.72	-40.0	-41.4	19.9	0.00e+00	0	39	0	660602880	50	4217
2026-01-21 13:37:37.59	134.96	15.86	-39.9	-41.2	20.0	0.00e+00	0	39	0	670040064	50	4131
2026-01-21 13:37:38.51	134.90	15.96	-39.9	-41.3	20.0	0.00e+00	0	39	0	676331520	50	4165
2026-01-21 13:37:39.52	134.83	16.06	-39.9	-41.2	20.0	0.00e+00	0	39	0	683671552	50	4140
2026-01-21 13:37:40.51	134.76	16.17	-39.9	-41.2	20.0	0.00e+00	0	39	0	691011584	50	4121
2026-01-21 13:37:41.50	134.69	16.27	-39.7	-41.0	20.1	0.00e+00	0	39	0	697303040	50	4040
2026-01-21 13:37:42.50	134.62	16.38	-39.7	-41.1	20.1	0.00e+00	0	39	0	704643072	50	4072
2026-01-21 13:37:43.50	134.55	16.49	-39.6	-40.9	20.3	0.00e+00	0	39	0	711983104	50	3998
2026-01-21 13:37:44.49	134.47	16.60	-39.6	-40.9	20.3	0.00e+00	0	39	0	719323136	49	4223
2026-01-21 13:37:45.49	134.40	16.71	-39.6	-40.9	20.3	0.00e+00	0	39	0	726663168	49	4225
2026-01-21 13:37:46.48	134.33	16.81	-39.5	-40.8	20.4	0.00e+00	0	39	0	734003200	49	4166
2026-01-21 13:37:47.48	134.26	16.92	-39.4	-40.7	20.4	0.00e+00	0	39	0	741343232	49	4120
2026-01-21 13:37:48.47	134.18	17.03	-39.3	-40.6	20.5	0.00e+00	0	39	0	747634688	49	4078
2026-01-21 13:37:49.46	134.11	17.14	-39.3	-40.6	20.5	0.00e+00	0	39	0	754974720	49	4067
2026-01-21 13:37:50.46	134.03	17.25	-39.3	-40.6	20.5	0.00e+00	0	39	0	762314752	49	4091
2026-01-21 13:37:51.45	133.96	17.36	-39.1	-40.4	20.7	0.00e+00	0	39	0	769654784	49	3989
2026-01-21 13:37:52.45	133.88	17.47	-39.2	-40.5	20.6	0.00e+00	0	39	0	776994816	48	4275
2026-01-21 13:37:53.44	133.80	17.58	-39.2	-40.6	20.6	0.00e+00	0	39	0	784334848	48	4298
2026-01-21 13:37:54.44	133.72	17.70	-39.2	-40.5	20.6	0.00e+00	0	39	0	791674880	48	4251
2026-01-21 13:37:55.44	133.65	17.81	-39.1	-40.4	20.7	0.00e+00	0	39	0	797966336	48	4210
2026-01-21 13:37:56.43	133.57	17.92	-39.1	-40.4	20.7	0.00e+00	0	39	0	805306368	48	4220
2026-01-21 13:37:57.43	133.49	18.04	-39.0	-40.3	20.7	0.00e+00	0	39	0	812646400	48	4184
2026-01-21 13:37:58.42	133.41	18.15	-39.0	-40.3	20.8	0.00e+00	0	39	0	819986432	48	4153
2026-01-21 13:37:59.42	133.33	18.27	-39.1	-40.4	20.7	0.00e+00	0	39	0	827326464	48	4199
2026-01-21 13:38:00.41	133.25	18.38	-39.0	-40.3	20.7	0.00e+00	0	39	0	834666496	48	4177
2026-01-21 13:38:01.44	133.16	18.50	-38.9	-40.2	20.8	0.00e+00	0	39	0	842006528	48	4112
2026-01-21 13:38:02.47	133.08	18.62	-39.0	-40.3	20.7	0.00e+00	0	39	0	849346560	48	4166
2026-01-21 13:38:03.46	132.99	18.74	-38.8	-40.1	20.9	0.00e+00	0	39	0	856686592	48	4056
2026-01-21 13:38:04.46	132.91	18.85	-38.8	-40.2	20.9	0.00e+00	0	39	0	862978048	48	4100
2026-01-21 13:38:05.45	132.83	18.97	-38.8	-40.2	20.9	0.00e+00	0	39	0	870318080	48	4102
2026-01-21 13:38:06.45	132.74	19.09	-38.7	-40.0	21.0	0.00e+00	0	39	0	877658112	48	4050
2026-01-21 13:38:07.44	132.65	19.21	-38.9	-40.2	20.8	0.00e+00	0	39	0	884998144	48	4128
2026-01-21 13:38:08.44	132.57	19.32	-38.6	-40.0	20.7	0.00e+00	0	39	0	892338176	47	4245
2026-01-21 13:38:09.43	132.48	19.44	-38.6	-40.0	20.7	0.00e+00	0	39	0	899678208	47	4260
2026-01-21 13:38:10.43	132.39	19.56	-38.6	-40.0	20.7	0.00e+00	0	39	0	907018240	47	4263
2026-01-21 13:38:11.43	132.30	19.69	-38.7	-40.0	20.6	0.00e+00	0	39	0	914358272	47	4280
2026-01-21 13:38:12.42	132.21	19.81	-38.7	-40.0	20.6	0.00e+00	0	39	0	920649728	47	4285
2026-01-21 13:38:13.42	132.12	19.93	-38.4	-39.8	20.8	0.00e+00	0	39	0	927989760	47	4178
2026-01-21 13:38:14.41	132.03	20.05	-38.5	-39.8	20.8	0.00e+00	0	39	0	935329792	47	4175
2026-01-21 13:38:15.41	131.94	20.17	-38.4	-39.7	20.9	0.00e+00	0	39	0	942669824	47	4130
2026-01-21 13:38:16.40	131.85	20.29	-38.3	-39.7	20.9	0.00e+00	0	39	0	950009856	47	4110
2026-01-21 13:38:17.43	131.75	20.42	-38.3	-39.6	21.0	0.00e+00	0	39	0	957349888	47	4085
2026-01-21 13:38:18.47	131.65	20.55	-38.4	-39.7	20.9	0.00e+00	0	39	0	964689920	46	4384
2026-01-21 13:38:19.41	131.56	20.67	-38.2	-39.6	21.1	0.00e+00	0	39	0	970981376	46	4292
2026-01-21 13:38:20.41	131.47	20.79	-38.3	-39.7	21.0	0.00e+00	0	39	0	978321408	46	4342
2026-01-21 13:38:21.40	131.37	20.92	-38.3	-39.7	21.0	0.00e+00	0	39	0	985661440	46	4345
2026-01-21 13:38:22.40	131.28	21.05	-38.3	-39.6	21.1	0.00e+00	0	39	0	993001472	46	4327
2026-01-21 13:38:23.39	131.18	21.17	-38.3	-39.6	21.0	0.00e+00	0	39	0	1000341504	46	4314
2026-01-21 13:38:24.39	131.08	21.30	-38.2	-39.6	21.1	0.00e+00	0	39	0	1007681536	46	4292
2026-01-21 13:38:25.38	130.98	21.43	-38.2	-39.5	21.1	0.00e+00	0	39	0	1015021568	46	4271
2026-01-21 13:38:26.38	130.88	21.56	-38.3	-39.6	21.1	0.00e+00	0	39	0	1022361600	46	4292
2026-01-21 13:38:27.37	130.78	21.68	-38.2	-39.5	21.2	0.00e+00	0	39	0	1028653056	46	4263
2026-01-21 13:38:28.36	130.68	21.81	-38.3	-39.6	21.1	0.00e+00	0	39	0	1035993088	46	4316
2026-01-21 13:38:29.36	130.57	21.94	-38.3	-39.6	21.1	0.00e+00	0	39	0	1043333120	46	4293
2026-01-21 13:38:30.35	130.47	22.07	-38.4	-39.7	21.0	0.00e+00	0	39	0	1050673152	46	4389
2026-01-21 13:38:31.35	130.36	22.21	-38.4	-39.7	21.0	0.00e+00	0	39	0	1058013184	46	4346
2026-01-21 13:38:32.34	130.26	22.34	-38.4	-39.8	21.0	0.00e+00	0	39	0	1065353216	46	4395
2026-01-21 13:38:33.34	130.15	22.47	-38.6	-39.9	20.8	0.00e+00	0	39	0	1071644672	46	4478
2026-01-21 13:38:34.33	130.04	22.60	-38.5	-39.8	21.0	0.00e+00	0	39	0	1078984704	46	4398
2026-01-21 13:38:35.33	129.94	22.74	-38.6	-39.9	20.9	0.00e+00	0	39	0	1086324736	46	4461
2026-01-21 13:38:36.32	129.83	22.87	-38.6	-40.0	20.8	0.00e+00	0	39	0	1093664768	46	4496
2026-01-21 13:38:37.32	129.72	23.01	-38.7	-40.0	20.7	0.00e+00	0	39	0	1101004800	47	4273
2026-01-21 13:38:38.31	129.60	23.14	-38.5	-39.9	20.9	0.00e+00	0	39	0	1107296256	47	4203
2026-01-21 13:38:39.50	129.47	23.30	-38.5	-39.8	20.9	0.00e+00	0	39	0	1116733440	47	4170
2026-01-21 13:38:40.35	129.37	23.42	-38.5	-39.8	20.9	0.00e+00	0	39	0	1123024896	47	4155
2026-01-21 13:38:41.49	129.24	23.58	-38.5	-39.9	20.8	0.00e+00	0	39	0	1130364928	47	4217
2026-01-21 13:38:42.34	129.14	23.69	-38.5	-39.9	20.8	0.00e+00	0	39	0	1136656384	47	4219
2026-01-21 13:38:43.48	129.01	23.85	-38.6	-40.0	20.7	0.00e+00	0	39	0	1145044992	47	4264
2026-01-21 13:38:44.33	128.91	23.97	-38.7	-40.0	20.7	0.00e+00	0	39	0	1151336448	47	4281
2026-01-21 13:38:45.47	128.77	24.13	-38.5	-39.9	20.8	0.00e+00	0	39	0	1159725056	47	4209
2026-01-21 13:38:46.32	128.67	24.25	-38.5	-39.9	20.7	0.00e+00	0	39	0	1166016512	47	4231
2026-01-21 13:38:47.46	128.53	24.41	-38.5	-39.9	20.8	0.00e+00	0	39	0	1173356544	47	4232
2026-01-21 13:38:48.31	128.43	24.53	-38.5	-39.8	20.8	0.00e+00	0	39	0	1179648000	47	4192
2026-01-21 13:38:49.48	128.28	24.70	-38.4	-39.8	20.8	0.00e+00	0	39	0	1189085184	47	4181
2026-01-21 13:38:50.34	128.18	24.82	-38.5	-39.9	20.7	0.00e+00	0	39	0	1194328064	47	4226
2026-01-21 13:38:51.47	128.03	24.99	-38.5	-39.9	20.7	0.00e+00	0	39	0	1202716672	47	4218
2026-01-21 13:38:52.33	127.92	25.11	-38.6	-40.0	20.7	0.00e+00	0	39	0	1209008128	47	4271
2026-01-21 13:38:53.46	127.78	25.27	-38.6	-40.0	20.7	0.00e+00	0	39	0	1217396736	47	4284
2026-01-21 13:38:54.32	127.67	25.40	-38.4	-39.8	20.8	0.00e+00	0	39	0	1223688192	47	4174
2026-01-21 13:38:55.45	127.52	25.56	-38.5	-39.9	20.7	0.00e+00	0	39	0	1232076800	47	4227
2026-01-21 13:38:56.30	127.41	25.69	-38.5	-39.9	20.7	0.00e+00	0	39	0	1237319680	47	4241
2026-01-21 13:38:57.44	127.25	25.86	-38.5	-40.0	20.7	0.00e+00	0	39	0	1245708288	47	4248
2026-01-21 13:38:58.30	127.14	25.99	-38.4	-39.8	20.8	0.00e+00	0	39	0	1251999744	47	4187
2026-01-21 13:38:59.43	126.98	26.15	-38.3	-39.7	20.9	0.00e+00	0	39	0	1260388352	47	4110
2026-01-21 13:39:00.29	126.87	26.28	-38.2	-39.6	21.1	0.00e+00	0	39	0	1266679808	46	4294
2026-01-21 13:39:01.42	126.71	26.45	-38.2	-39.6	21.0	0.00e+00	0	39	0	1274019840	46	4331
2026-01-21 13:39:02.28	126.59	26.58	-38.1	-39.5	21.2	0.00e+00	0	39	0	1281359872	46	4262
2026-01-21 13:39:03.41	126.43	26.75	-37.9	-39.3	21.3	0.00e+00	0	39	0	1288699904	46	4166
2026-01-21 13:39:04.26	126.31	26.88	-37.9	-39.2	21.4	0.00e+00	0	39	0	1294991360	46	4118
2026-01-21 13:39:05.40	126.14	27.06	-37.9	-39.3	21.3	0.00e+00	0	39	0	1303379968	46	4146
2026-01-21 13:39:06.25	126.02	27.19	-37.8	-39.1	21.5	0.00e+00	0	39	0	1309671424	46	4090
2026-01-21 13:39:07.39	125.85	27.36	-37.6	-38.8	21.7	0.00e+00	0	39	0	1318060032	46	3949
2026-01-21 13:39:08.24	125.73	27.50	-37.5	-38.8	21.7	0.00e+00	0	39	0	1324351488	45	4163
2026-01-21 13:39:09.38	125.56	27.67	-37.6	-38.9	21.7	0.00e+00	0	39	0	1332740096	45	4205
2026-01-21 13:39:10.23	125.43	27.81	-37.5	-38.7	21.9	0.00e+00	0	39	0	1337982976	45	4122
2026-01-21 13:39:11.37	125.25	27.99	-37.7	-38.9	21.7	0.00e+00	0	39	0	1346371584	45	4215
2026-01-21 13:39:12.22	125.12	28.12	-37.4	-38.6	21.9	0.00e+00	0	39	0	1352663040	45	4071
2026-01-21 13:39:13.36	124.95	28.30	-37.4	-38.6	21.9	0.00e+00	0	39	0	1361051648	45	4079
2026-01-21 13:39:14.21	124.81	28.44	-37.3	-38.5	22.0	0.00e+00	0	39	0	1367343104	45	4033
2026-01-21 13:39:15.35	124.63	28.62	-37.4	-38.6	21.9	0.00e+00	0	39	0	1375731712	45	4075
2026-01-21 13:39:16.20	124.49	28.75	-37.5	-38.7	21.8	0.00e+00	0	39	0	1380974592	45	4119
2026-01-21 13:39:17.67	124.26	28.99	-37.4	-38.6	21.9	0.00e+00	0	39	0	1391460352	45	4078
2026-01-21 13:39:18.38	124.14	29.10	-37.5	-38.8	21.8	0.00e+00	0	39	0	1397751808	45	4150
2026-01-21 13:39:19.66	123.93	29.31	-37.7	-39.0	21.6	0.00e+00	0	39	0	1406140416	45	4248
2026-01-21 13:39:20.37	123.81	29.43	-37.7	-39.0	21.6	0.00e+00	0	39	0	1411383296	45	4281
2026-01-21 13:39:21.65	123.59	29.64	-37.9	-39.2	21.4	0.00e+00	0	39	0	1420820480	46	4123
2026-01-21 13:39:22.38	123.47	29.76	-37.9	-39.2	21.4	0.00e+00	0	39	0	1426063360	46	4121
2026-01-21 13:39:23.66	123.24	29.97	-37.8	-39.1	21.4	0.00e+00	0	39	0	1435500544	46	4094
2026-01-21 13:39:24.37	123.12	30.09	-37.9	-39.3	21.3	0.00e+00	0	39	0	1439694848	46	4152
2026-01-21 13:39:25.65	122.89	30.30	-37.9	-39.2	21.4	0.00e+00	0	39	0	1449132032	46	4135
2026-01-21 13:39:26.36	122.77	30.42	-37.9	-39.3	21.3	0.00e+00	0	39	0	1454374912	45	4395
2026-01-21 13:39:27.64	122.54	30.63	-37.9	-39.3	21.2	0.00e+00	0	39	0	1463812096	45	4423
2026-01-21 13:39:28.59	122.36	30.79	-38.0	-39.4	21.2	0.00e+00	0	39	0	1471152128	45	4465
2026-01-21 13:39:29.88	122.13	31.01	-38.1	-39.5	21.1	0.00e+00	0	39	0	1480589312	45	4506
2026-01-21 13:39:30.64	121.98	31.14	-38.0	-39.4	21.2	0.00e+00	0	39	0	1485832192	45	4481
2026-01-21 13:39:32.24	121.68	31.41	-38.1	-39.5	21.1	0.00e+00	0	39	0	1497366528	46	4274
2026-01-21 13:39:32.81	121.57	31.51	-38.0	-39.4	21.2	0.00e+00	0	39	0	1501560832	46	4205
2026-01-21 13:39:34.51	121.24	31.80	-38.1	-39.5	21.2	0.00e+00	0	39	0	1513095168	46	4243
2026-01-21 13:39:35.08	121.13	31.90	-38.1	-39.5	21.2	0.00e+00	0	39	0	1517289472	46	4255
2026-01-21 13:39:36.77	120.80	32.19	-38.0	-39.3	21.3	0.00e+00	0	39	0	1529872384	46	4188
2026-01-21 13:39:37.34	120.68	32.29	-37.9	-39.3	21.4	0.00e+00	0	39	0	1534066688	46	4153
2026-01-21 13:39:39.05	120.34	32.59	-37.7	-39.0	21.6	0.00e+00	0	39	0	1546649600	46	4043
2026-01-21 13:39:39.61	120.22	32.69	-37.6	-38.9	21.7	0.00e+00	0	39	0	1549795328	46	3986
2026-01-21 13:39:41.32	119.87	32.99	-37.4	-38.7	21.8	0.00e+00	0	39	0	1562378240	45	4130
2026-01-21 13:39:41.89	119.75	33.09	-37.6	-38.9	21.7	0.00e+00	0	39	0	1566572544	44	4461
2026-01-21 13:39:43.59	119.38	33.39	-37.4	-38.6	21.9	0.00e+00	0	39	0	1579155456	44	4332
2026-01-21 13:39:44.41	119.20	33.54	-37.4	-38.6	21.9	0.00e+00	0	39	0	1585446912	44	4316
2026-01-21 13:39:45.55	118.96	33.74	-37.2	-38.5	22.0	0.00e+00	0	39	0	1592786944	44	4264
2026-01-21 13:39:46.40	118.77	33.90	-37.3	-38.6	22.0	0.00e+00	0	39	0	1599078400	44	4301
2026-01-21 13:39:47.54	118.51	34.10	-37.3	-38.5	22.0	0.00e+00	0	39	0	1607467008	44	4270
2026-01-21 13:39:48.39	118.32	34.25	-37.3	-38.5	22.0	0.00e+00	0	39	0	1613758464	44	4288
2026-01-21 13:39:49.59	118.05	34.47	-37.4	-38.7	21.9	0.00e+00	0	39	0	1622147072	44	4349
2026-01-21 13:39:50.45	117.85	34.63	-37.4	-38.7	21.9	0.00e+00	0	39	0	1628438528	44	4368
2026-01-21 13:39:51.58	117.58	34.83	-37.4	-38.6	21.9	0.00e+00	0	39	0	1636827136	44	4328
2026-01-21 13:39:52.44	117.38	34.99	-37.5	-38.7	21.8	0.00e+00	0	39	0	1643118592	45	4136
2026-01-21 13:39:53.57	117.11	35.20	-37.5	-38.8	21.7	0.00e+00	0	39	0	1651507200	45	4174
2026-01-21 13:39:54.43	116.90	35.35	-37.6	-38.9	21.7	0.00e+00	0	39	0	1657798656	45	4199
2026-01-21 13:39:55.57	116.62	35.56	-37.6	-38.9	21.6	0.00e+00	0	39	0	1665138688	45	4216
2026-01-21 13:39:56.42	116.41	35.72	-37.7	-39.0	21.6	0.00e+00	0	39	0	1671430144	45	4277
2026-01-21 13:39:57.56	116.12	35.93	-37.6	-38.9	21.6	0.00e+00	0	39	0	1679818752	45	4215
2026-01-21 13:39:58.41	115.91	36.09	-37.6	-38.9	21.6	0.00e+00	0	39	0	1686110208	45	4217
2026-01-21 13:39:59.55	115.62	36.30	-37.6	-38.9	21.7	0.00e+00	0	39	0	1694498816	45	4197
2026-01-21 13:40:00.40	115.40	36.46	-37.7	-39.0	21.7	0.00e+00	0	39	0	1700790272	45	4264
2026-01-21 13:40:01.53	115.10	36.67	-37.5	-38.8	21.8	0.00e+00	0	39	0	1709178880	45	4163
2026-01-21 13:40:02.39	114.87	36.83	-37.9	-39.2	21.5	0.00e+00	0	39	0	1714421760	45	4363
2026-01-21 13:40:03.52	114.57	37.04	-37.7	-38.9	21.7	0.00e+00	0	39	0	1722810368	45	4242
2026-01-21 13:40:04.37	114.34	37.20	-37.6	-38.8	21.8	0.00e+00	0	39	0	1729101824	45	4184
2026-01-21 13:40:05.51	114.03	37.41	-37.6	-38.8	21.8	0.00e+00	0	39	0	1737490432	45	4169
2026-01-21 13:40:06.36	113.79	37.57	-37.5	-38.8	21.8	0.00e+00	0	39	0	1743781888	45	4149
2026-01-21 13:40:07.50	113.47	37.79	-37.4	-38.7	21.9	0.00e+00	0	39	0	1752170496	45	4099
2026-01-21 13:40:08.35	113.23	37.95	-37.5	-38.8	21.8	0.00e+00	0	39	0	1757413376	45	4149
2026-01-21 13:40:09.49	112.90	38.16	-37.6	-38.9	21.7	0.00e+00	0	39	0	1765801984	45	4218
2026-01-21 13:40:10.35	112.65	38.33	-37.5	-38.8	21.7	0.00e+00	0	39	0	1772093440	45	4164
2026-01-21 13:40:11.48	112.32	38.54	-37.5	-38.8	21.7	0.00e+00	0	39	0	1780482048	45	4177
2026-01-21 13:40:12.34	112.06	38.70	-37.5	-38.7	21.8	0.00e+00	0	39	0	1786773504	45	4131
2026-01-21 13:40:13.48	111.72	38.92	-37.6	-38.8	21.7	0.00e+00	0	39	0	1795162112	45	4191
2026-01-21 13:40:14.33	111.46	39.08	-37.6	-38.8	21.8	0.00e+00	0	39	0	1801453568	45	4173
2026-01-21 13:40:15.47	111.11	39.30	-37.5	-38.8	21.8	0.00e+00	0	39	0	1808793600	45	4155
2026-01-21 13:40:16.32	110.84	39.46	-38.0	-38.8	22.4	0.00e+00	0	39	0	1815085056	45	4161
2026-01-21 13:40:17.46	110.48	39.67	-38.0	-38.8	22.4	0.00e+00	0	39	0	1823473664	45	4189
2026-01-21 13:40:18.31	110.21	39.84	-38.4	-39.3	22.1	0.00e+00	0	39	0	1829765120	46	4157
2026-01-21 13:40:19.45	109.84	40.05	-38.3	-39.2	22.1	0.00e+00	0	39	0	1838153728	46	4107
2026-01-21 13:40:20.30	109.57	40.21	-38.4	-39.3	22.0	0.00e+00	0	39	0	1844445184	46	4153
2026-01-21 13:40:21.44	109.19	40.43	-38.5	-39.4	22.0	0.00e+00	0	39	0	1852833792	46	4196
2026-01-21 13:40:22.29	108.91	40.59	-38.6	-39.5	21.9	0.00e+00	0	39	0	1858076672	46	4245
2026-01-21 13:40:23.43	108.52	40.81	-38.7	-39.6	21.8	0.00e+00	0	39	0	1866465280	46	4313
2026-01-21 13:40:24.28	108.23	40.97	-38.5	-39.4	21.9	0.00e+00	0	39	0	1872756736	47	3975
2026-01-21 13:40:25.42	107.83	41.18	-38.5	-39.3	22.0	0.00e+00	0	39	0	1881145344	47	3938
2026-01-21 13:40:26.27	107.54	41.34	-38.5	-39.4	21.9	0.00e+00	0	39	0	1887436800	47	3973
2026-01-21 13:40:27.41	107.13	41.56	-38.6	-39.5	21.9	0.00e+00	0	39	0	1895825408	47	4021
2026-01-21 13:40:28.26	106.83	41.72	-38.4	-39.3	22.0	0.00e+00	0	39	0	1901068288	47	3920
2026-01-21 13:40:29.60	106.34	41.97	-38.3	-39.2	22.1	0.00e+00	0	39	0	1911554048	47	3873
2026-01-21 13:40:30.32	106.07	42.11	-38.3	-39.1	22.2	0.00e+00	0	39	0	1916796928	47	3853
2026-01-21 13:40:31.59	105.60	42.35	-38.3	-39.1	22.2	0.00e+00	0	39	0	1925185536	47	3846
2026-01-21 13:40:32.32	105.33	42.48	-38.3	-39.2	22.1	0.00e+00	0	39	0	1930428416	47	3883
2026-01-21 13:40:33.60	104.84	42.72	-38.0	-38.9	22.4	0.00e+00	0	39	0	1939865600	46	3976
2026-01-21 13:40:34.32	104.56	42.86	-38.3	-39.1	22.2	0.00e+00	0	39	0	1945108480	46	4085
2026-01-21 13:40:35.59	104.07	43.09	-38.4	-39.2	22.1	0.00e+00	0	39	0	1954545664	46	4131
2026-01-21 13:40:36.32	103.78	43.23	-38.5	-39.4	22.0	0.00e+00	0	39	0	1959788544	46	4201
2026-01-21 13:40:37.60	103.27	43.46	-38.7	-39.5	21.8	0.00e+00	0	39	0	1969225728	46	4271
2026-01-21 13:40:38.48	102.91	43.62	-38.7	-39.5	21.8	0.00e+00	0	39	0	1975517184	47	4048
2026-01-21 13:40:39.62	102.44	43.83	-38.8	-39.6	21.8	0.00e+00	0	39	0	1983905792	47	4082
2026-01-21 13:40:40.47	102.09	43.99	-38.7	-39.5	21.8	0.00e+00	0	39	0	1989148672	47	4047
2026-01-21 13:40:41.61	101.62	44.19	-38.6	-39.4	21.9	0.00e+00	0	39	0	1997537280	47	3999
2026-01-21 13:40:42.71	101.15	44.39	-38.4	-39.3	22.0	0.00e+00	0	39	0	2005925888	47	3924
2026-01-21 13:40:43.74	100.71	44.57	-38.5	-39.3	22.0	0.00e+00	0	39	0	2013265920	47	3941
2026-01-21 13:40:44.74	100.28	44.75	-38.3	-39.2	22.2	0.00e+00	0	39	0	2020605952	47	3874
2026-01-21 13:40:45.93	99.75	44.96	-38.1	-38.9	22.3	0.00e+00	0	39	0	2028994560	46	3999
2026-01-21 13:40:46.82	99.36	45.12	-38.1	-39.0	22.3	0.00e+00	0	39	0	2035286016	46	4011
2026-01-21 13:40:47.96	98.85	45.32	-37.9	-38.7	22.5	0.00e+00	0	39	0	2043674624	46	3903
2026-01-21 13:40:48.81	98.46	45.47	-37.9	-38.7	22.6	0.00e+00	0	39	0	2049966080	46	3892
2026-01-21 13:40:49.95	97.94	45.66	-38.3	-39.1	22.2	0.00e+00	0	39	0	2058354688	46	4070
2026-01-21 13:40:50.80	97.54	45.81	-38.3	-39.2	22.2	0.00e+00	0	39	0	2064646144	46	4106
2026-01-21 13:40:51.94	97.01	46.00	-38.6	-39.5	21.9	0.00e+00	0	39	0	2073034752	46	4245
2026-01-21 13:40:52.79	96.60	46.14	-38.7	-39.6	21.8	0.00e+00	0	39	0	2078277632	47	4055
2026-01-21 13:40:53.93	96.06	46.33	-38.9	-39.7	21.6	0.00e+00	0	39	0	2086666240	47	4136
2026-01-21 13:40:54.78	95.65	46.47	-39.1	-40.0	21.4	0.00e+00	0	39	0	2092957696	47	4260
2026-01-21 13:40:55.92	95.09	46.66	-39.0	-39.8	21.5	0.00e+00	0	39	0	2101346304	47	4189
2026-01-21 13:40:56.77	94.67	46.79	-38.8	-39.6	21.8	0.00e+00	0	39	0	2107637760	47	4088
2026-01-21 13:40:57.91	94.10	46.98	-38.7	-39.6	21.8	0.00e+00	0	39	0	2116026368	47	4073
2026-01-21 13:40:58.76	93.67	47.11	-38.7	-39.6	21.8	0.00e+00	0	39	0	2121269248	47	4075
2026-01-21 13:40:59.90	93.09	47.29	-38.8	-39.7	21.7	0.00e+00	0	39	0	2129657856	47	4133
2026-01-21 13:41:00.75	92.65	47.42	-38.9	-39.7	21.7	0.00e+00	0	39	0	2135949312	47	4135
2026-01-21 13:41:01.98	92.01	47.61	-39.1	-40.0	21.4	0.00e+00	0	39	0	2145386496	47	4267
2026-01-21 13:41:02.84	91.56	47.74	-39.4	-40.3	21.6	0.00e+00	0	39	0	2151677952	48	4158
2026-01-21 13:41:03.97	90.96	47.90	-39.8	-40.7	21.2	0.00e+00	0	39	0	2159017984	48	4353
2026-01-21 13:41:04.83	90.50	48.03	-39.5	-40.4	21.5	0.00e+00	0	39	0	2165309440	48	4222
2026-01-21 13:41:05.96	89.89	48.19	-39.3	-40.2	21.6	0.00e+00	0	39	0	2173698048	48	4115
2026-01-21 13:41:06.87	89.39	48.32	-39.1	-39.9	21.9	0.00e+00	0	39	0	2179989504	48	4003
2026-01-21 13:41:07.89	88.83	48.46	-39.0	-39.8	22.0	0.00e+00	0	39	0	2187329536	48	3947
2026-01-21 13:41:08.89	88.28	48.59	-39.2	-40.0	21.8	0.00e+00	0	39	0	2194669568	48	4042
2026-01-21 13:41:09.88	87.72	48.73	-39.4	-40.3	21.5	0.00e+00	0	39	0	2202009600	48	4171
2026-01-21 13:41:10.88	87.16	48.86	-39.6	-40.5	21.4	0.00e+00	0	39	0	2209349632	48	4244
2026-01-21 13:41:11.87	86.59	48.99	-40.0	-40.9	21.0	0.00e+00	0	39	0	2216689664	49	4239
2026-01-21 13:41:12.86	86.02	49.11	-39.9	-40.8	21.2	0.00e+00	0	39	0	2222981120	49	4150
2026-01-21 13:41:13.86	85.45	49.23	-39.8	-40.7	21.2	0.00e+00	0	39	0	2230321152	49	4142
2026-01-21 13:41:14.85	84.87	49.35	-39.6	-40.5	21.3	0.00e+00	0	39	0	2237661184	49	4017
2026-01-21 13:41:15.84	84.29	49.47	-39.5	-40.4	21.5	0.00e+00	0	39	0	2245001216	49	3971
2026-01-21 13:41:16.84	83.69	49.58	-39.6	-40.5	21.4	0.00e+00	0	39	0	2252341248	49	4032
2026-01-21 13:41:17.83	83.10	49.69	-39.5	-40.4	21.5	0.00e+00	0	39	0	2259681280	49	3973
2026-01-21 13:41:18.83	82.50	49.80	-39.6	-40.4	21.4	0.00e+00	0	39	0	2267021312	49	4001
2026-01-21 13:41:19.93	81.83	49.92	-39.2	-40.0	21.8	0.00e+00	0	39	0	2274361344	49	3822
2026-01-21 13:41:20.82	81.29	50.01	-39.0	-39.9	21.9	0.00e+00	0	39	0	2280652800	48	3972
2026-01-21 13:41:22.11	80.50	50.13	-39.1	-39.9	21.9	0.00e+00	0	39	0	2290089984	48	3999
2026-01-21 13:41:22.82	80.06	50.20	-39.2	-40.0	21.8	0.00e+00	0	39	0	2295332864	48	4050
2026-01-21 13:41:24.10	79.26	50.32	-39.4	-40.3	21.6	0.00e+00	0	39	0	2304770048	48	4156
2026-01-21 13:41:24.83	78.81	50.38	-39.5	-40.4	21.5	0.00e+00	0	39	0	2310012928	48	4220
2026-01-21 13:41:26.11	78.00	50.49	-39.6	-40.5	21.4	0.00e+00	0	39	0	2319450112	48	4262
2026-01-21 13:41:26.83	77.55	50.55	-39.6	-40.5	21.4	0.00e+00	0	39	0	2324692992	48	4266
2026-01-21 13:41:28.11	76.73	50.65	-39.4	-40.2	21.7	0.00e+00	0	39	0	2333081600	48	4126
2026-01-21 13:41:28.92	76.22	50.71	-39.4	-40.3	21.6	0.00e+00	0	39	0	2339373056	48	4169
2026-01-21 13:41:30.06	75.48	50.79	-39.5	-40.4	21.5	0.00e+00	0	39	0	2347761664	48	4205
2026-01-21 13:41:30.91	74.93	50.84	-39.5	-40.3	21.5	0.00e+00	0	39	0	2354053120	48	4188
2026-01-21 13:41:32.04	74.20	50.91	-39.5	-40.3	21.6	0.00e+00	0	39	0	2362441728	48	4189
2026-01-21 13:41:32.90	73.64	50.96	-39.5	-40.4	21.5	0.00e+00	0	39	0	2367684608	48	4211
2026-01-21 13:41:34.03	72.91	51.03	-39.5	-40.3	21.5	0.00e+00	0	39	0	2376073216	48	4182
2026-01-21 13:41:34.89	72.34	51.07	-39.4	-40.2	21.6	0.00e+00	0	39	0	2382364672	48	4142
2026-01-21 13:41:36.02	71.60	51.12	-39.2	-40.1	21.8	0.00e+00	0	39	0	2390753280	48	4063
2026-01-21 13:41:36.88	71.03	51.16	-39.3	-40.2	21.7	0.00e+00	0	39	0	2397044736	48	4112
2026-01-21 13:41:38.01	70.28	51.21	-39.3	-40.2	21.7	0.00e+00	0	39	0	2405433344	48	4113
2026-01-21 13:41:38.87	69.71	51.24	-39.5	-40.3	21.5	0.00e+00	0	39	0	2410676224	48	4184
2026-01-21 13:41:40.10	68.90	51.28	-39.7	-40.6	21.3	0.00e+00	0	39	0	2420113408	48	4299
2026-01-21 13:41:40.95	68.33	51.30	-39.4	-40.2	21.6	0.00e+00	0	39	0	2426404864	48	4136
2026-01-21 13:41:42.15	67.53	51.33	-39.4	-40.2	21.7	0.00e+00	0	39	0	2434793472	48	4119
2026-01-21 13:41:43.00	66.96	51.34	-39.3	-40.2	21.7	0.00e+00	0	39	0	2441084928	48	4116
2026-01-21 13:41:44.14	66.20	51.36	-39.3	-40.2	21.7	0.00e+00	0	39	0	2449473536	48	4113
2026-01-21 13:41:44.99	65.63	51.37	-39.2	-40.0	21.8	0.00e+00	0	39	0	2455764992	48	4030
2026-01-21 13:41:46.13	64.87	51.37	-39.2	-40.1	21.8	0.00e+00	0	39	0	2464153600	48	4063
2026-01-21 13:41:47.03	64.27	51.38	-39.2	-40.0	21.8	0.00e+00	0	39	0	2470445056	48	4050
2026-01-21 13:41:48.13	63.53	51.38	-39.4	-40.2	21.7	0.00e+00	0	39	0	2477785088	48	4123
2026-01-21 13:41:49.09	62.89	51.37	-39.5	-40.4	21.6	0.00e+00	0	39	0	2485125120	48	4198
2026-01-21 13:41:50.26	62.11	51.36	-39.6	-40.4	21.5	0.00e+00	0	39	0	2493513728	48	4225
2026-01-21 13:41:51.12	61.53	51.35	-39.6	-40.5	21.5	0.00e+00	0	39	0	2499805184	48	4250
2026-01-21 13:41:52.25	60.78	51.32	-39.5	-40.4	21.6	0.00e+00	0	39	0	2508193792	48	4197
2026-01-21 13:41:53.11	60.20	51.30	-39.4	-40.2	21.7	0.00e+00	0	39	0	2514485248	48	4143
2026-01-21 13:41:54.25	59.44	51.27	-39.2	-40.1	21.8	0.00e+00	0	39	0	2521825280	48	4055
2026-01-21 13:41:55.10	58.88	51.25	-39.1	-39.9	21.9	0.00e+00	0	39	0	2528116736	48	3993
2026-01-21 13:41:56.58	57.90	51.20	-39.4	-40.2	21.6	0.00e+00	0	39	0	2539651072	48	4142
2026-01-21 13:41:57.29	57.43	51.17	-39.5	-40.3	21.5	0.00e+00	0	39	0	2543845376	48	4179
2026-01-21 13:41:58.58	56.58	51.11	-39.4	-40.2	21.6	0.00e+00	0	39	0	2553282560	48	4133
2026-01-21 13:41:59.29	56.11	51.08	-39.3	-40.1	21.7	0.00e+00	0	39	0	2558525440	48	4083
2026-01-21 13:42:00.57	55.28	51.01	-38.9	-39.8	22.0	0.00e+00	0	39	0	2567962624	48	3923
2026-01-21 13:42:01.29	54.81	50.97	-39.0	-39.8	22.0	0.00e+00	0	39	0	2573205504	48	3930
2026-01-21 13:42:02.57	53.97	50.90	-39.2	-40.0	21.8	0.00e+00	0	39	0	2582642688	48	4033
2026-01-21 13:42:03.28	53.51	50.85	-39.2	-40.1	21.8	0.00e+00	0	39	0	2587885568	48	4062
2026-01-21 13:42:04.56	52.69	50.77	-39.4	-40.3	21.5	0.00e+00	0	39	0	2596274176	48	4168
2026-01-21 13:42:05.29	52.22	50.72	-39.5	-40.4	21.5	0.00e+00	0	39	0	2602565632	48	4218
2026-01-21 13:42:06.56	51.41	50.62	-39.4	-40.2	21.7	0.00e+00	0	39	0	2610954240	48	4121
2026-01-21 13:42:07.28	50.95	50.57	-39.2	-40.1	21.8	0.00e+00	0	39	0	2616197120	48	4057
2026-01-21 13:42:08.56	50.14	50.46	-39.2	-40.1	21.8	0.00e+00	0	39	0	2625634304	48	4056
2026-01-21 13:42:09.27	49.70	50.40	-39.3	-40.1	21.7	0.00e+00	0	39	0	2630877184	48	4093
2026-01-21 13:42:10.55	48.90	50.29	-39.5	-40.3	21.6	0.00e+00	0	39	0	2640314368	48	4188
2026-01-21 13:42:11.27	48.45	50.22	-39.4	-40.3	21.6	0.00e+00	0	39	0	2644508672	48	4173
2026-01-21 13:42:12.55	47.66	50.10	-39.2	-40.0	21.8	0.00e+00	0	39	0	2653945856	48	4043
2026-01-21 13:42:13.26	47.23	50.03	-39.2	-40.0	21.9	0.00e+00	0	39	0	2659188736	48	4023
2026-01-21 13:42:14.54	46.45	49.90	-39.2	-40.0	21.8	0.00e+00	0	39	0	2668625920	48	4043
2026-01-21 13:42:15.26	46.01	49.83	-39.4	-40.2	21.6	0.00e+00	0	39	0	2673868800	48	4125
2026-01-21 13:42:16.83	45.07	49.66	-39.8	-40.6	21.3	0.00e+00	0	39	0	2685403136	49	4096
2026-01-21 13:42:17.46	44.69	49.59	-39.9	-40.8	21.2	0.00e+00	0	39	0	2689597440	49	4161
2026-01-21 13:42:18.98	43.80	49.41	-39.6	-40.5	21.4	0.00e+00	0	39	0	2701131776	49	4025
2026-01-21 13:42:19.69	43.38	49.33	-39.5	-40.4	21.5	0.00e+00	0	39	0	2706374656	49	3971
2026-01-21 13:42:20.97	42.64	49.17	-39.5	-40.4	21.5	0.00e+00	0	39	0	2714763264	49	3974
2026-01-21 13:42:21.68	42.23	49.09	-39.4	-40.3	21.5	0.00e+00	0	39	0	2720006144	49	3935
2026-01-21 13:42:22.96	41.49	48.92	-39.6	-40.5	21.5	0.00e+00	0	39	0	2729443328	49	4015
2026-01-21 13:42:23.70	41.08	48.83	-39.4	-40.2	21.6	0.00e+00	0	39	0	2734686208	49	3910
2026-01-21 13:42:24.98	40.36	48.66	-39.1	-39.9	21.9	0.00e+00	0	39	0	2744123392	49	3765
2026-01-21 13:42:25.73	39.94	48.56	-39.1	-39.9	21.9	0.00e+00	0	39	0	2749366272	48	3999
2026-01-21 13:42:27.01	39.23	48.38	-38.9	-39.7	22.0	0.00e+00	0	39	0	2758803456	48	3913
2026-01-21 13:42:27.72	38.84	48.29	-38.9	-39.7	22.1	0.00e+00	0	39	0	2764046336	48	3884
2026-01-21 13:42:29.00	38.15	48.10	-38.9	-39.7	22.1	0.00e+00	0	39	0	2773483520	48	3890
2026-01-21 13:42:29.71	37.77	48.00	-39.1	-39.9	21.9	0.00e+00	0	39	0	2777677824	48	4001
2026-01-21 13:42:30.99	37.09	47.82	-39.3	-40.2	21.7	0.00e+00	0	39	0	2787115008	48	4102
2026-01-21 13:42:31.71	36.71	47.71	-39.3	-40.2	21.7	0.00e+00	0	39	0	2792357888	48	4111
2026-01-21 13:42:32.99	36.04	47.52	-39.1	-40.0	21.8	0.00e+00	0	39	0	2801795072	48	4027
2026-01-21 13:42:33.71	35.67	47.41	-39.0	-39.8	22.0	0.00e+00	0	39	0	2807037952	48	3954
2026-01-21 13:42:34.98	35.02	47.21	-38.6	-39.4	22.3	0.00e+00	0	39	0	2816475136	48	3775
2026-01-21 13:42:35.69	34.66	47.10	-38.2	-39.0	22.2	0.00e+00	0	39	0	2821718016	47	3824
2026-01-21 13:42:36.97	34.01	46.90	-38.3	-39.1	22.3	0.00e+00	0	39	0	2830106624	47	3846
2026-01-21 13:42:37.68	33.66	46.78	-38.4	-39.3	22.1	0.00e+00	0	39	0	2836398080	47	3917
2026-01-21 13:42:38.96	33.03	46.58	-38.7	-39.5	21.8	0.00e+00	0	39	0	2844786688	47	4040
2026-01-21 13:42:39.67	32.69	46.46	-38.8	-39.7	21.8	0.00e+00	0	39	0	2850029568	47	4100
2026-01-21 13:42:40.95	32.07	46.25	-38.8	-39.6	21.7	0.00e+00	0	39	0	2859466752	47	4098
2026-01-21 13:42:41.66	31.73	46.13	-38.5	-39.4	22.0	0.00e+00	0	39	0	2864709632	47	3975
2026-01-21 13:42:43.24	30.99	45.87	-38.2	-39.1	22.3	0.00e+00	0	39	0	2876243968	47	3828
2026-01-21 13:42:43.87	30.69	45.76	-38.4	-39.2	22.1	0.00e+00	0	39	0	2880438272	47	3892
2026-01-21 13:42:45.52	29.94	45.48	-38.4	-39.2	22.1	0.00e+00	0	39	0	2891972608	47	3910
2026-01-21 13:42:46.08	29.68	45.38	-38.4	-39.3	22.1	0.00e+00	0	39	0	2896166912	47	3914
2026-01-21 13:42:47.79	28.92	45.08	-38.1	-39.0	22.3	0.00e+00	0	39	0	2908749824	47	3789
2026-01-21 13:42:48.36	28.66	44.98	-38.2	-39.0	22.3	0.00e+00	0	39	0	2912944128	47	3803
2026-01-21 13:42:50.07	27.92	44.68	-38.3	-39.1	22.2	0.00e+00	0	39	0	2925527040	47	3867
2026-01-21 13:42:50.63	27.67	44.58	-38.3	-39.1	22.2	0.00e+00	0	39	0	2929721344	47	3852
2026-01-21 13:42:52.37	26.93	44.27	-38.1	-39.0	22.3	0.00e+00	0	39	0	2941255680	46	4008
2026-01-21 13:42:52.94	26.69	44.17	-38.1	-38.9	22.4	0.00e+00	0	39	0	2946498560	46	3976
2026-01-21 13:42:54.64	25.99	43.86	-38.0	-38.8	22.4	0.00e+00	0	39	0	2958032896	46	3952
2026-01-21 13:42:55.34	25.70	43.73	-38.2	-39.0	22.3	0.00e+00	0	39	0	2963275776	46	4044
2026-01-21 13:42:56.76	25.13	43.47	-38.5	-39.4	22.0	0.00e+00	0	39	0	2973761536	46	4222
2026-01-21 13:42:57.55	24.81	43.33	-38.6	-39.4	21.9	0.00e+00	0	39	0	2979004416	46	4242
2026-01-21 13:42:58.73	24.35	43.11	-38.4	-39.2	22.1	0.00e+00	0	39	0	2987393024	46	4135
2026-01-21 13:42:59.75	23.95	42.92	-38.4	-39.2	22.0	0.00e+00	0	40	0	2994733056	46	4133
2026-01-21 13:43:00.74	23.57	42.74	-38.1	-38.9	22.4	0.00e+00	0	39	0	3002073088	46	3986
2026-01-21 13:43:01.94	23.11	42.52	-38.0	-38.8	22.5	0.00e+00	0	39	0	3011510272	46	3941
2026-01-21 13:43:02.82	22.78	42.35	-38.0	-38.8	22.5	0.00e+00	0	39	0	3016753152	46	3942
2026-01-21 13:43:04.12	22.30	42.11	-38.0	-38.9	22.5	0.00e+00	0	39	0	3026190336	46	3967
2026-01-21 13:43:04.83	22.04	41.98	-38.3	-39.1	22.2	0.00e+00	0	39	0	3031433216	46	4071
2026-01-21 13:43:06.13	21.57	41.73	-38.4	-39.3	22.1	0.00e+00	0	39	0	3040870400	46	4168
2026-01-21 13:43:06.84	21.31	41.60	-38.4	-39.3	22.1	0.00e+00	0	39	0	3046113280	46	4169
2026-01-21 13:43:08.12	20.86	41.36	-38.4	-39.2	22.1	0.00e+00	0	39	0	3055550464	46	4141
2026-01-21 13:43:08.83	20.61	41.23	-38.2	-39.1	22.2	0.00e+00	0	39	0	3060793344	46	4055
2026-01-21 13:43:10.11	20.17	40.98	-38.2	-39.1	22.3	0.00e+00	0	39	0	3070230528	46	4058
2026-01-21 13:43:10.90	19.90	40.84	-38.3	-39.1	22.2	0.00e+00	0	39	0	3075473408	46	4073
2026-01-21 13:43:12.10	19.50	40.61	-38.3	-39.2	22.2	0.00e+00	0	39	0	3083862016	46	4115
2026-01-21 13:43:12.95	19.21	40.45	-38.4	-39.2	22.2	0.00e+00	0	39	0	3090153472	46	4132
2026-01-21 13:43:14.09	18.84	40.23	-38.2	-39.0	22.3	0.00e+00	0	39	0	3098542080	46	4043
2026-01-21 13:43:14.94	18.56	40.07	-38.1	-38.9	22.4	0.00e+00	0	39	0	3104833536	46	3995
2026-01-21 13:43:16.08	18.19	39.86	-38.0	-38.8	22.5	0.00e+00	0	39	0	3113222144	46	3954
2026-01-21 13:43:16.93	17.92	39.69	-38.0	-38.8	22.5	0.00e+00	0	39	0	3119513600	46	3951
2026-01-21 13:43:18.07	17.56	39.48	-38.2	-39.0	22.3	0.00e+00	0	39	0	3126853632	46	4021
2026-01-21 13:43:19.22	17.21	39.26	-38.3	-39.1	22.2	0.00e+00	0	39	0	3135242240	46	4092
2026-01-21 13:43:20.07	16.95	39.10	-38.3	-39.2	22.1	0.00e+00	0	39	0	3141533696	46	4118
2026-01-21 13:43:21.21	16.60	38.89	-38.4	-39.3	22.1	0.00e+00	0	39	0	3149922304	46	4158
2026-01-21 13:43:22.06	16.35	38.72	-38.4	-39.3	22.1	0.00e+00	0	39	0	3156213760	46	4151
2026-01-21 13:43:23.20	16.01	38.51	-38.3	-39.2	22.2	0.00e+00	0	39	0	3164602368	46	4123
2026-01-21 13:43:24.05	15.76	38.35	-38.3	-39.1	22.2	0.00e+00	0	39	0	3170893824	46	4078
2026-01-21 13:43:25.19	15.43	38.13	-38.0	-38.8	22.5	0.00e+00	0	39	0	3179282432	46	3939
2026-01-21 13:43:26.04	15.19	37.98	-37.9	-38.7	22.5	0.00e+00	0	39	0	3184525312	46	3902
2026-01-21 13:43:27.18	14.87	37.76	-37.6	-38.4	22.8	0.00e+00	0	39	0	3192913920	46	3761
2026-01-21 13:43:28.03	14.63	37.60	-37.7	-38.5	22.8	0.00e+00	0	39	0	3199205376	46	3790
2026-01-21 13:43:29.17	14.31	37.39	-37.8	-38.6	22.6	0.00e+00	0	39	0	3207593984	46	3865
2026-01-21 13:43:30.02	14.08	37.23	-38.1	-38.9	22.4	0.00e+00	0	39	0	3213885440	46	3992
2026-01-21 13:43:31.16	13.77	37.02	-38.3	-39.1	22.1	0.00e+00	0	39	0	3222274048	46	4065
2026-01-21 13:43:32.01	13.55	36.86	-38.4	-39.2	22.1	0.00e+00	0	39	0	3227516928	46	4127
2026-01-21 13:43:33.15	13.25	36.65	-38.3	-39.1	22.2	0.00e+00	0	39	0	3235905536	46	4091
2026-01-21 13:43:34.22	12.97	36.45	-38.2	-39.1	22.3	0.00e+00	0	39	0	3244294144	46	4056
2026-01-21 13:43:35.24	12.71	36.26	-38.1	-38.9	22.4	0.00e+00	0	39	0	3251634176	46	3990
2026-01-21 13:43:36.24	12.45	36.07	-38.1	-38.9	22.4	0.00e+00	0	39	0	3258974208	46	3986
2026-01-21 13:43:37.24	12.20	35.89	-38.1	-38.9	22.4	0.00e+00	0	39	0	3266314240	46	3989
2026-01-21 13:43:38.23	11.95	35.71	-37.9	-38.8	22.5	0.00e+00	0	39	0	3272605696	46	3920
2026-01-21 13:43:39.23	11.71	35.52	-37.8	-38.6	22.6	0.00e+00	0	39	0	3279945728	46	3853
2026-01-21 13:43:40.22	11.47	35.34	-37.7	-38.5	22.7	0.00e+00	0	39	0	3287285760	46	3819
2026-01-21 13:43:41.22	11.23	35.16	-37.7	-38.5	22.7	0.00e+00	0	39	0	3294625792	46	3819
2026-01-21 13:43:42.21	10.99	34.98	-37.8	-38.6	22.6	0.00e+00	0	39	0	3301965824	46	3838
2026-01-21 13:43:43.21	10.76	34.80	-37.7	-38.6	22.6	0.00e+00	0	39	0	3308257280	46	3835
2026-01-21 13:43:44.20	10.53	34.62	-37.9	-38.8	22.5	0.00e+00	0	39	0	3315597312	46	3922
2026-01-21 13:43:45.20	10.30	34.44	-37.9	-38.8	22.5	0.00e+00	0	39	0	3322937344	46	3915
2026-01-21 13:43:46.19	10.07	34.26	-37.9	-38.7	22.5	0.00e+00	0	39	0	3330277376	46	3898
2026-01-21 13:43:47.19	9.85	34.08	-37.8	-38.6	22.6	0.00e+00	0	39	0	3337617408	46	3851
2026-01-21 13:43:48.18	9.63	33.90	-37.7	-38.6	22.7	0.00e+00	0	39	0	3344957440	46	3825
2026-01-21 13:43:49.19	9.41	33.72	-37.8	-38.7	22.5	0.00e+00	0	39	0	3352297472	46	3875
2026-01-21 13:43:50.19	9.19	33.55	-37.8	-38.6	22.7	0.00e+00	0	39	0	3359637504	46	3835
2026-01-21 13:43:51.25	8.96	33.36	-37.8	-38.7	22.6	0.00e+00	0	39	0	3366977536	46	3873
2026-01-21 13:43:52.18	8.76	33.19	-37.8	-38.7	22.6	0.00e+00	0	39	0	3373268992	46	3882
2026-01-21 13:43:53.17	8.56	33.02	-38.0	-38.8	22.5	0.00e+00	0	39	0	3380609024	46	3938
2026-01-21 13:43:54.17	8.35	32.84	-38.0	-38.8	22.4	0.00e+00	0	39	0	3387949056	46	3939
2026-01-21 13:43:55.17	8.14	32.67	-38.0	-38.8	22.4	0.00e+00	0	39	0	3395289088	46	3952
2026-01-21 13:43:56.41	7.89	32.45	-38.1	-38.9	22.4	0.00e+00	0	39	0	3403677696	46	4000
2026-01-21 13:43:57.27	7.72	32.30	-38.1	-38.9	22.4	0.00e+00	0	39	0	3409969152	46	3981
2026-01-21 13:43:58.61	7.45	32.07	-38.0	-38.9	22.4	0.00e+00	0	39	0	3419406336	46	3967
2026-01-21 13:43:59.32	7.31	31.95	-38.0	-38.8	22.4	0.00e+00	0	39	0	3424649216	46	3954
2026-01-21 13:44:00.60	7.07	31.73	-38.1	-38.9	22.3	0.00e+00	0	39	0	3434086400	46	4004
2026-01-21 13:44:01.33	6.92	31.61	-38.1	-38.9	22.4	0.00e+00	0	39	0	3439329280	46	3993
2026-01-21 13:44:02.61	6.68	31.39	-38.1	-38.9	22.3	0.00e+00	0	39	0	3448766464	46	4002
2026-01-21 13:44:03.32	6.55	31.27	-38.2	-39.1	22.2	0.00e+00	0	39	0	3454009344	46	4052
2026-01-21 13:44:04.60	6.31	31.05	-38.2	-39.0	22.3	0.00e+00	0	39	0	3463446528	46	4037
2026-01-21 13:44:05.32	6.18	30.93	-38.2	-39.0	22.3	0.00e+00	0	39	0	3468689408	46	4031
2026-01-21 13:44:06.60	5.94	30.71	-38.0	-38.9	22.4	0.00e+00	0	39	0	3478126592	46	3965
2026-01-21 13:44:07.31	5.82	30.60	-38.1	-38.9	22.3	0.00e+00	0	39	0	3482320896	46	4000
2026-01-21 13:44:08.59	5.59	30.38	-38.1	-38.9	22.4	0.00e+00	0	39	0	3491758080	46	3979
2026-01-21 13:44:09.30	5.46	30.26	-38.1	-38.9	22.3	0.00e+00	0	39	0	3497000960	46	3998
2026-01-21 13:44:10.58	5.24	30.05	-38.2	-39.0	22.3	0.00e+00	0	39	0	3506438144	46	4039
2026-01-21 13:44:11.31	5.11	29.93	-38.3	-39.1	22.2	0.00e+00	0	39	0	3511681024	46	4088
2026-01-21 13:44:12.66	4.88	29.71	-38.4	-39.2	22.1	0.00e+00	0	39	0	3521118208	46	4143
2026-01-21 13:44:13.38	4.76	29.59	-38.4	-39.3	22.0	0.00e+00	0	39	0	3526361088	46	4159
2026-01-21 13:44:14.67	4.54	29.38	-38.4	-39.3	22.0	0.00e+00	0	39	0	3535798272	46	4157
2026-01-21 13:44:15.38	4.43	29.27	-38.4	-39.3	22.0	0.00e+00	0	39	0	3541041152	46	4165
2026-01-21 13:44:16.75	4.20	29.05	-38.4	-39.2	22.1	0.00e+00	0	39	0	3550478336	46	4116
2026-01-21 13:44:17.46	4.09	28.93	-38.4	-39.2	22.1	0.00e+00	0	39	0	3555721216	46	4136
2026-01-21 13:44:18.74	3.88	28.73	-38.3	-39.1	22.2	0.00e+00	0	39	0	3565158400	46	4091
2026-01-21 13:44:19.45	3.77	28.62	-38.3	-39.1	22.2	0.00e+00	0	39	0	3570401280	46	4070
2026-01-21 13:44:20.73	3.57	28.41	-38.3	-39.1	22.2	0.00e+00	0	39	0	3579838464	46	4093
2026-01-21 13:44:21.45	3.46	28.30	-38.3	-39.2	22.1	0.00e+00	0	39	0	3585081344	46	4119
2026-01-21 13:44:22.73	3.26	28.10	-38.5	-39.3	21.9	0.00e+00	0	39	0	3594518528	46	4190
2026-01-21 13:44:23.46	3.15	27.98	-38.5	-39.4	22.0	0.00e+00	0	39	0	3599761408	46	4194
2026-01-21 13:44:24.74	2.95	27.78	-38.6	-39.5	21.9	0.00e+00	0	39	0	3609198592	46	4247
2026-01-21 13:44:25.51	2.84	27.66	-38.5	-39.3	22.0	0.00e+00	0	39	0	3614441472	46	4186
2026-01-21 13:44:26.79	2.65	27.47	-38.5	-39.3	21.8	0.00e+00	0	39	0	3623878656	46	4169
2026-01-21 13:44:27.53	2.54	27.35	-38.4	-39.2	22.1	0.00e+00	0	39	0	3629121536	46	4127
2026-01-21 13:44:28.81	2.35	27.16	-38.4	-39.2	22.1	0.00e+00	0	39	0	3637510144	46	4126
2026-01-21 13:44:29.55	2.25	27.04	-38.4	-39.3	22.1	0.00e+00	0	39	0	3643801600	46	4148
2026-01-21 13:44:30.83	2.07	26.85	-38.4	-39.3	22.0	0.00e+00	0	39	0	3652190208	46	4160
2026-01-21 13:44:31.67	1.95	26.72	-38.5	-39.4	21.9	0.00e+00	0	39	0	3658481664	46	4195
2026-01-21 13:44:33.10	1.75	26.51	-38.6	-39.5	21.7	0.00e+00	0	39	0	3668967424	46	4260
2026-01-21 13:44:33.81	1.65	26.40	-38.6	-39.4	21.9	0.00e+00	0	39	0	3674210304	46	4221
2026-01-21 13:44:35.31	1.45	26.18	-38.6	-39.4	21.9	0.00e+00	0	39	0	3684696064	46	4241
2026-01-21 13:44:36.02	1.35	26.07	-38.5	-39.3	22.0	0.00e+00	0	39	0	3689938944	46	4188
2026-01-21 13:44:37.30	1.18	25.88	-38.5	-39.3	22.0	0.00e+00	0	39	0	3699376128	46	4180
2026-01-21 13:44:38.01	1.08	25.78	-38.4	-39.3	22.0	0.00e+00	0	39	0	3704619008	46	4168
2026-01-21 13:44:39.29	0.92	25.59	-38.5	-39.3	21.9	0.00e+00	0	39	0	3714056192	46	4177
2026-01-21 13:44:40.01	0.82	25.49	-38.4	-39.2	22.1	0.00e+00	0	39	0	3718250496	46	4143
2026-01-21 13:44:41.28	0.66	25.30	-38.5	-39.3	22.0	0.00e+00	0	39	0	3727687680	46	4176
2026-01-21 13:44:41.99	0.57	25.20	-38.5	-39.3	22.0	0.00e+00	0	39	0	3732930560	46	4185
2026-01-21 13:44:43.27	0.41	25.01	-38.5	-39.3	22.0	0.00e+00	0	39	0	3742367744	46	4185
2026-01-21 13:44:44.19	0.29	24.88	-38.5	-39.4	21.9	0.00e+00	0	40	0	3748659200	46	4201
2026-01-21 13:44:45.47	0.13	24.70	-38.5	-39.4	21.9	0.00e+00	0	39	0	3758096384	46	4224
2026-01-21 13:44:46.22	0.04	24.59	-38.6	-39.4	21.9	0.00e+00	0	39	0	3763339264	46	4228
2026-01-21 13:44:47.50	359.89	24.41	-38.6	-39.4	21.9	0.00e+00	0	39	0	3772776448	46	4231
2026-01-21 13:44:48.21	359.80	24.31	-38.6	-39.4	21.9	0.00e+00	0	39	0	3778019328	46	4231
2026-01-21 13:44:49.49	359.65	24.13	-38.5	-39.4	22.0	0.00e+00	0	39	0	3787456512	46	4194
2026-01-21 13:44:50.23	359.56	24.03	-38.4	-39.2	22.0	0.00e+00	0	39	0	3792699392	46	4142
2026-01-21 13:44:51.51	359.41	23.85	-38.4	-39.2	22.1	0.00e+00	0	39	0	3802136576	46	4129
2026-01-21 13:44:52.24	359.33	23.75	-38.3	-39.2	22.1	0.00e+00	0	39	0	3807379456	46	4103
2026-01-21 13:44:53.52	359.18	23.58	-38.3	-39.1	22.1	0.00e+00	0	39	0	3815768064	46	4083
2026-01-21 13:44:54.24	359.10	23.48	-38.3	-39.2	22.1	0.00e+00	0	39	0	3822059520	46	4105
2026-01-21 13:44:55.52	358.95	23.30	-38.3	-39.1	22.1	0.00e+00	0	39	0	3830448128	46	4094
2026-01-21 13:44:56.23	358.87	23.21	-38.3	-39.2	22.1	0.00e+00	0	39	0	3835691008	46	4106
2026-01-21 13:44:57.51	358.73	23.03	-38.3	-39.1	22.1	0.00e+00	0	39	0	3845128192	46	4092
2026-01-21 13:44:58.23	358.65	22.94	-38.4	-39.2	22.1	0.00e+00	0	39	0	3850371072	46	4127
2026-01-21 13:44:59.51	358.51	22.76	-38.5	-39.4	22.0	0.00e+00	0	39	0	3859808256	46	4194
2026-01-21 13:45:00.24	358.43	22.67	-38.5	-39.4	21.9	0.00e+00	0	39	0	3865051136	46	4211
2026-01-21 13:45:01.65	358.28	22.48	-38.6	-39.5	21.8	0.00e+00	0	39	0	3875536896	46	4266
2026-01-21 13:45:02.63	358.18	22.35	-38.7	-39.6	21.7	0.00e+00	0	39	0	3881828352	46	4295
2026-01-21 13:45:03.94	358.04	22.18	-38.8	-39.6	21.7	0.00e+00	0	39	0	3891265536	46	4335
2026-01-21 13:45:04.68	357.97	22.08	-38.9	-39.7	21.6	0.00e+00	0	39	0	3897556992	47	4137
2026-01-21 13:45:05.96	357.83	21.91	-38.9	-39.8	21.6	0.00e+00	0	39	0	3905945600	47	4150
2026-01-21 13:45:06.67	357.76	21.82	-38.9	-39.8	21.5	0.00e+00	0	39	0	3911188480	47	4185
2026-01-21 13:45:07.95	357.63	21.66	-39.0	-39.9	21.5	0.00e+00	0	39	0	3920625664	47	4225
2026-01-21 13:45:08.68	357.56	21.56	-39.0	-39.8	21.5	0.00e+00	0	39	0	3925868544	47	4189
2026-01-21 13:45:09.96	357.43	21.40	-39.1	-40.0	21.4	0.00e+00	0	39	0	3935305728	47	4252
2026-01-21 13:45:10.68	357.36	21.31	-39.1	-40.0	21.4	0.00e+00	0	39	0	3940548608	47	4264
2026-01-21 13:45:11.96	357.23	21.14	-39.1	-40.0	21.4	0.00e+00	0	39	0	3948937216	47	4273
2026-01-21 13:45:12.67	357.17	21.05	-39.1	-40.0	21.4	0.00e+00	0	39	0	3954180096	47	4267
2026-01-21 13:45:14.05	357.03	20.88	-39.1	-40.0	21.4	0.00e+00	0	39	0	3964665856	47	4254
2026-01-21 13:45:14.76	356.97	20.79	-39.2	-40.1	21.3	0.00e+00	0	39	0	3969908736	47	4299
2026-01-21 13:45:16.04	356.84	20.63	-39.0	-39.9	21.4	0.00e+00	0	39	0	3979345920	47	4232
2026-01-21 13:45:16.75	356.78	20.54	-39.1	-39.9	21.4	0.00e+00	0	39	0	3983540224	47	4239
2026-01-21 13:45:18.16	356.65	20.37	-39.1	-40.0	21.4	0.00e+00	0	39	0	3994025984	47	4249
2026-01-21 13:45:18.87	356.58	20.28	-39.0	-39.9	21.4	0.00e+00	0	39	0	3999268864	47	4229
2026-01-21 13:45:20.15	356.47	20.12	-39.0	-39.9	21.4	0.00e+00	0	39	0	4008706048	47	4225
2026-01-21 13:45:20.87	356.40	20.04	-39.1	-40.0	21.4	0.00e+00	0	39	0	4013948928	47	4256
2026-01-21 13:45:22.15	356.29	19.88	-39.1	-39.9	21.4	0.00e+00	0	39	0	4023386112	47	4239
2026-01-21 13:45:22.88	356.22	19.79	-39.1	-40.0	21.3	0.00e+00	0	39	0	4028628992	47	4276
2026-01-21 13:45:24.16	356.11	19.64	-39.1	-40.0	21.3	0.00e+00	0	39	0	4037017600	47	4276
2026-01-21 13:45:24.87	356.04	19.55	-39.2	-40.1	21.3	0.00e+00	0	39	0	4042260480	47	4295
2026-01-21 13:45:26.15	355.93	19.40	-39.2	-40.1	21.3	0.00e+00	0	39	0	4051697664	47	4314
2026-01-21 13:45:26.92	355.87	19.31	-39.3	-40.2	21.2	0.00e+00	0	39	0	4056940544	47	4361
2026-01-21 13:45:28.20	355.76	19.16	-39.3	-40.2	21.5	0.00e+00	0	39	0	4066377728	48	4109
2026-01-21 13:45:28.91	355.70	19.07	-39.3	-40.2	21.5	0.00e+00	0	40	0	4071620608	48	4116
2026-01-21 13:45:30.19	355.59	18.92	-39.4	-40.3	21.5	0.00e+00	0	39	0	4081057792	48	4151
2026-01-21 13:45:30.92	355.53	18.84	-39.3	-40.2	21.5	0.00e+00	0	39	0	4086300672	48	4128
2026-01-21 13:45:32.20	355.42	18.69	-39.5	-40.3	21.4	0.00e+00	0	39	0	4095737856	48	4193
2026-01-21 13:45:33.11	355.35	18.58	-39.5	-40.4	21.3	0.00e+00	0	39	0	4102029312	48	4234
2026-01-21 13:45:34.10	355.27	18.47	-39.6	-40.5	21.2	0.00e+00	0	39	0	4109369344	48	4254
2026-01-21 13:45:35.10	355.19	18.35	-39.7	-40.6	21.1	0.00e+00	0	39	0	4116709376	48	4333
2026-01-21 13:45:36.10	355.11	18.24	-39.7	-40.6	21.2	0.00e+00	0	39	0	4124049408	49	4064
2026-01-21 13:45:37.09	355.03	18.13	-39.7	-40.6	21.2	0.00e+00	0	39	0	4131389440	49	4065
2026-01-21 13:45:38.08	354.95	18.01	-39.7	-40.6	21.1	0.00e+00	0	39	0	4137680896	49	4068
2026-01-21 13:45:39.08	354.87	17.90	-39.8	-40.7	21.0	0.00e+00	0	39	0	4145020928	49	4141
2026-01-21 13:45:40.08	354.79	17.79	-39.9	-40.8	20.9	0.00e+00	0	39	0	4152360960	49	4184
2026-01-21 13:45:41.07	354.72	17.68	-39.9	-40.9	20.9	0.00e+00	0	39	0	4159700992	49	4205
2026-01-21 13:45:42.07	354.64	17.56	-40.0	-41.0	20.8	0.00e+00	0	39	0	4167041024	49	4263
2026-01-21 13:45:43.06	354.57	17.45	-40.1	-41.1	20.7	0.00e+00	0	39	0	4174381056	49	4313
2026-01-21 13:45:44.06	354.49	17.34	-40.2	-41.1	20.7	0.00e+00	0	39	0	4180672512	49	4318
2026-01-21 13:45:45.05	354.42	17.23	-40.2	-41.1	20.6	0.00e+00	0	39	0	4188012544	49	4336
2026-01-21 13:45:46.05	354.34	17.12	-40.2	-41.1	20.5	0.00e+00	0	39	0	4195352576	49	4340
2026-01-21 13:45:47.04	354.27	17.02	-40.2	-41.2	20.6	0.00e+00	0	40	0	4202692608	49	4362
2026-01-21 13:45:48.04	354.20	16.91	-40.3	-41.2	20.6	0.00e+00	0	39	0	4210032640	50	4120
2026-01-21 13:45:49.04	354.12	16.80	-40.2	-41.2	20.6	0.00e+00	0	39	0	4217372672	50	4106
2026-01-21 13:45:50.03	354.05	16.69	-40.3	-41.2	20.6	0.00e+00	0	39	0	4224712704	50	4116
2026-01-21 13:45:51.02	353.98	16.58	-40.3	-41.2	20.6	0.00e+00	0	39	0	4231004160	50	4126
2026-01-21 13:45:52.02	353.91	16.48	-40.3	-41.2	20.6	0.00e+00	0	39	0	4238344192	50	4131
2026-01-21 13:45:53.01	353.84	16.37	-40.2	-41.1	20.6	0.00e+00	0	39	0	4245684224	50	4096
2026-01-21 13:45:54.00	353.77	16.26	-40.2	-41.1	20.7	0.00e+00	0	39	0	4253024256	50	4081
2026-01-21 13:45:55.00	353.70	16.16	-40.2	-41.2	20.6	0.00e+00	0	39	0	4260364288	50	4109
2026-01-21 13:45:55.99	353.64	16.05	-40.2	-41.2	20.6	0.00e+00	0	39	0	4267704320	50	4105
2026-01-21 13:45:56.99	353.57	15.95	-40.3	-41.2	20.6	0.00e+00	0	39	0	4275044352	50	4130
2026-01-21 13:45:57.98	353.50	15.84	-40.3	-41.2	20.6	0.00e+00	0	39	0	4281335808	50	4140
2026-01-21 13:45:58.98	353.43	15.74	-40.3	-41.3	20.6	0.00e+00	0	39	0	4288675840	50	4146
2026-01-21 13:45:59.97	353.37	15.64	-40.3	-41.3	20.5	0.00e+00	0	39	0	4296015872	50	4146
2026-01-21 13:46:00.93	353.30	15.54	-40.3	-41.3	20.5	0.00e+00	0	39	0	4303355904	50	4160
2026-01-21 13:46:01.93	353.24	15.43	-40.4	-41.4	20.4	0.00e+00	0	39	0	4310695936	50	4207
2026-01-21 13:46:02.92	353.17	15.33	-40.4	-41.4	20.3	0.00e+00	0	39	0	4318035968	50	4202
2026-01-21 13:46:03.92	353.11	15.23	-40.5	-41.5	20.4	0.00e+00	0	39	0	4324327424	50	4245
2026-01-21 13:46:04.92	353.04	15.13	-40.5	-41.5	20.3	0.00e+00	0	39	0	4331667456	50	4283
2026-01-21 13:46:05.91	352.98	15.03	-40.6	-41.6	20.2	0.00e+00	0	39	0	4339007488	50	4310
2026-01-21 13:46:06.94	352.92	14.92	-40.5	-41.5	20.3	0.00e+00	0	39	0	4346347520	50	4277
2026-01-21 13:46:07.95	352.85	14.82	-40.5	-41.5	20.3	0.00e+00	0	39	0	4353687552	50	4275
2026-01-21 13:46:08.96	352.79	14.72	-40.6	-41.6	20.2	0.00e+00	0	39	0	4361027584	50	4338
2026-01-21 13:46:09.99	352.72	14.62	-40.7	-41.7	20.1	0.00e+00	0	39	0	4368367616	50	4352
2026-01-21 13:46:10.98	352.66	14.52	-40.8	-41.8	20.0	0.00e+00	0	39	0	4375707648	50	4395
2026-01-21 13:46:12.04	352.60	14.41	-40.8	-41.8	20.0	0.00e+00	0	39	0	4383047680	51	4148
2026-01-21 13:46:12.89	352.55	14.33	-40.7	-41.7	20.1	0.00e+00	0	40	0	4389339136	51	4113
2026-01-21 13:46:14.03	352.48	14.21	-40.8	-41.8	20.0	0.00e+00	0	39	0	4397727744	51	4181
2026-01-21 13:46:14.88	352.43	14.13	-40.8	-41.9	20.0	0.00e+00	0	39	0	4404019200	51	4194
2026-01-21 13:46:16.02	352.36	14.02	-40.8	-41.8	20.0	0.00e+00	0	39	0	4411359232	51	4183
2026-01-21 13:46:16.88	352.31	13.94	-40.8	-41.8	20.0	0.00e+00	0	39	0	4418699264	51	4178
2026-01-21 13:46:18.01	352.24	13.83	-40.8	-41.9	19.9	0.00e+00	0	39	0	4426039296	51	4197
2026-01-21 13:46:18.86	352.19	13.74	-40.7	-41.7	20.1	0.00e+00	0	39	0	4432330752	51	4131
2026-01-21 13:46:20.00	352.13	13.63	-40.8	-41.8	19.9	0.00e+00	0	39	0	4440719360	51	4183
2026-01-21 13:46:20.86	352.08	13.55	-40.8	-41.8	20.0	0.00e+00	0	39	0	4447010816	51	4161
2026-01-21 13:46:22.01	352.01	13.44	-40.9	-41.9	19.9	0.00e+00	0	39	0	4455399424	51	4207
2026-01-21 13:46:22.86	351.96	13.36	-40.9	-42.0	19.8	0.00e+00	0	39	0	4461690880	51	4250
2026-01-21 13:46:24.08	351.89	13.24	-40.9	-42.0	19.8	0.00e+00	0	39	0	4470079488	51	4245
2026-01-21 13:46:24.93	351.85	13.16	-40.9	-41.9	19.9	0.00e+00	0	39	0	4476370944	51	4233
2026-01-21 13:46:26.11	351.78	13.05	-40.9	-42.0	19.8	0.00e+00	0	39	0	4484759552	51	4253
2026-01-21 13:46:26.97	351.73	12.97	-40.9	-42.0	19.7	0.00e+00	0	39	0	4491051008	51	4282
2026-01-21 13:46:28.10	351.67	12.86	-41.0	-42.1	19.6	0.00e+00	0	39	0	4499439616	51	4324
2026-01-21 13:46:28.95	351.63	12.78	-41.0	-42.2	19.6	0.00e+00	0	39	0	4505731072	51	4373
2026-01-21 13:46:30.09	351.56	12.68	-41.0	-42.2	19.6	0.00e+00	0	39	0	4513071104	51	4345
2026-01-21 13:46:30.94	351.52	12.60	-41.1	-42.3	19.5	0.00e+00	0	39	0	4519362560	51	4409
2026-01-21 13:46:32.08	351.46	12.49	-41.1	-42.3	19.3	0.00e+00	0	39	0	4527751168	51	4429
2026-01-21 13:46:33.01	351.41	12.41	-41.2	-42.4	19.4	0.00e+00	0	39	0	4534042624	51	4467
2026-01-21 13:46:34.01	351.36	12.32	-41.2	-42.4	19.3	0.00e+00	0	39	0	4541382656	52	4216
2026-01-21 13:46:35.00	351.30	12.23	-41.2	-42.3	19.4	0.00e+00	0	39	0	4548722688	52	4193
2026-01-21 13:46:36.00	351.25	12.14	-41.3	-42.4	19.3	0.00e+00	0	39	0	4556062720	52	4238
2026-01-21 13:46:37.00	351.20	12.04	-41.3	-42.4	19.3	0.00e+00	0	39	0	4563402752	52	4239
2026-01-21 13:46:37.99	351.15	11.95	-41.3	-42.5	19.2	0.00e+00	0	39	0	4570742784	52	4284
2026-01-21 13:46:38.99	351.10	11.86	-41.2	-42.4	19.3	0.00e+00	0	39	0	4578082816	52	4226
2026-01-21 13:46:39.98	351.05	11.78	-41.4	-42.6	19.1	0.00e+00	0	39	0	4585422848	52	4323
2026-01-21 13:46:40.97	351.00	11.69	-41.3	-42.6	19.2	0.00e+00	0	39	0	4591714304	52	4300
2026-01-21 13:46:41.97	350.95	11.60	-41.4	-42.6	19.1	0.00e+00	0	39	0	4599054336	52	4336
2026-01-21 13:46:42.97	350.90	11.51	-41.4	-42.7	19.1	0.00e+00	0	39	0	4606394368	52	4346
2026-01-21 13:46:43.96	350.85	11.42	-41.5	-42.8	19.0	0.00e+00	0	39	0	4613734400	52	4400
2026-01-21 13:46:44.96	350.80	11.33	-41.5	-42.8	18.9	0.00e+00	0	40	0	4621074432	52	4407
2026-01-21 13:46:45.95	350.75	11.24	-41.4	-42.7	19.0	0.00e+00	0	39	0	4628414464	52	4372
2026-01-21 13:46:46.95	350.71	11.16	-41.4	-42.7	19.0	0.00e+00	0	39	0	4634705920	52	4386
2026-01-21 13:46:47.94	350.66	11.07	-41.4	-42.8	18.9	0.00e+00	0	39	0	4642045952	52	4412
2026-01-21 13:46:49.02	350.61	10.98	-41.3	-42.7	18.9	0.00e+00	0	39	0	4650434560	52	4362
2026-01-21 13:46:49.87	350.57	10.90	-41.4	-42.8	18.9	0.00e+00	0	39	0	4655677440	52	4433
2026-01-21 13:46:51.01	350.51	10.80	-41.3	-42.8	18.9	0.00e+00	0	39	0	4664066048	52	4426
2026-01-21 13:46:51.86	350.47	10.73	-41.2	-42.8	18.9	0.00e+00	0	39	0	4670357504	52	4394
2026-01-21 13:46:53.00	350.42	10.63	-41.3	-43.0	18.7	0.00e+00	0	39	0	4678746112	52	4509
2026-01-21 13:46:53.85	350.38	10.56	-41.3	-42.9	18.8	0.00e+00	0	39	0	4685037568	52	4484
2026-01-21 13:46:54.99	350.33	10.46	-41.4	-43.0	18.7	0.00e+00	0	39	0	4693426176	52	4504
2026-01-21 13:46:55.84	350.29	10.39	-41.4	-42.9	18.7	0.00e+00	0	39	0	4699717632	52	4479
2026-01-21 13:46:56.98	350.24	10.29	-41.5	-43.0	18.7	0.00e+00	0	39	0	4708106240	52	4522
2026-01-21 13:46:57.83	350.20	10.22	-41.5	-43.0	18.7	0.00e+00	0	39	0	4713349120	52	4524
2026-01-21 13:46:58.98	350.15	10.12	-41.6	-43.0	18.7	0.00e+00	0	39	0	4721737728	52	4534
2026-01-21 13:46:59.83	350.11	10.05	-41.7	-43.0	18.6	0.00e+00	0	39	0	4728029184	52	4539
2026-01-21 13:47:01.03	350.06	9.95	-41.8	-43.1	18.5	0.00e+00	0	39	0	4736417792	53	4332
