passes_logs/2026/01/21/T1/T1__20260121_011953_AQUA_rec.log

#Pass ID: 20260121_011953_AQUA
#Satellite: AQUA
#Configuration: AQUA
#almurnet v.1.7.20251203
#Start time: 2026-01-21 01:19:55

#Version: 2.0.20230620
#Station: T1
#Location: 37.570604 lon 55.790049 lat
#TLE: 1 27424U 02022A   26020.30984080  .00001497  00000+0  30942-3 0  9998
#TLE: 2 27424  98.4092 346.8266 0001984  71.7888  69.0903 14.61835321261661

#Time	Az	El	Level	Level2	SNR	BER	BlckErr	Temp	State	Recorded	gain1	gain2
2026-01-21 01:19:55.73	16.27	5.20	-49.9	-72.1	3.8	7.48e-01	0	37	0	0	71	46145
2026-01-21 01:19:56.72	16.28	5.28	-49.9	-72.1	3.8	7.49e-01	0	37	104	0	70	48749
2026-01-21 01:19:57.72	16.29	5.35	-49.9	-72.1	3.8	7.46e-01	0	37	104	0	70	48789
2026-01-21 01:19:58.71	16.29	5.43	-49.9	-72.1	3.8	7.46e-01	0	37	104	0	70	48777
2026-01-21 01:19:59.70	16.30	5.50	-49.9	-72.0	3.8	7.45e-01	0	37	104	0	70	48662
2026-01-21 01:20:00.69	16.31	5.58	-49.9	-72.0	3.8	7.49e-01	0	37	104	0	70	48644
2026-01-21 01:20:01.69	16.32	5.65	-49.9	-72.0	3.8	7.48e-01	0	37	104	0	70	48402
2026-01-21 01:20:02.68	16.32	5.73	-49.9	-72.0	3.8	7.45e-01	0	37	104	0	70	48372
2026-01-21 01:20:03.67	16.33	5.81	-49.9	-72.0	3.8	7.45e-01	0	37	104	0	70	48297
2026-01-21 01:20:04.67	16.34	5.88	-49.9	-72.0	3.8	7.43e-01	0	37	104	0	70	48258
2026-01-21 01:20:05.66	16.34	5.96	-49.9	-71.9	3.8	7.44e-01	0	37	104	0	70	48092
2026-01-21 01:20:06.65	16.35	6.04	-49.9	-72.0	3.8	7.44e-01	0	37	104	0	70	48190
2026-01-21 01:20:07.65	16.36	6.11	-49.9	-72.0	3.8	7.44e-01	0	37	104	0	70	48262
2026-01-21 01:20:08.64	16.37	6.19	-49.9	-72.0	3.8	7.48e-01	0	37	104	0	70	48247
2026-01-21 01:20:09.63	16.37	6.27	-49.9	-72.0	3.8	7.47e-01	0	37	104	0	70	48411
2026-01-21 01:20:10.62	16.38	6.35	-49.9	-72.0	3.8	7.43e-01	0	37	104	0	70	48473
2026-01-21 01:20:11.62	16.39	6.43	-49.9	-72.0	3.8	7.46e-01	0	37	104	0	70	48498
2026-01-21 01:20:12.61	16.39	6.51	-49.9	-72.0	3.8	7.48e-01	0	37	104	0	70	48490
2026-01-21 01:20:13.60	16.40	6.58	-49.9	-72.0	3.8	7.46e-01	0	37	104	0	70	48346
2026-01-21 01:20:14.60	16.41	6.66	-49.9	-71.9	3.8	7.46e-01	0	38	104	0	70	48017
2026-01-21 01:20:15.59	16.42	6.74	-49.9	-71.9	3.8	7.50e-01	0	38	104	0	70	47689
2026-01-21 01:20:16.58	16.42	6.82	-49.9	-71.8	3.8	7.45e-01	0	37	104	0	70	47197
2026-01-21 01:20:17.57	16.43	6.90	-49.9	-71.7	3.8	7.43e-01	0	37	104	0	70	46619
2026-01-21 01:20:18.57	16.44	6.98	-49.9	-71.5	3.8	7.48e-01	0	38	104	0	70	45946
2026-01-21 01:20:19.56	16.45	7.06	-49.8	-71.4	3.8	7.45e-01	0	38	104	0	70	45180
2026-01-21 01:20:20.55	16.45	7.14	-49.8	-71.3	3.8	7.47e-01	0	38	104	0	70	44469
2026-01-21 01:20:21.55	16.46	7.23	-49.8	-71.1	3.8	7.44e-01	0	38	104	0	70	43750
2026-01-21 01:20:22.54	16.47	7.31	-49.8	-70.9	3.8	7.45e-01	0	38	104	0	70	42758
2026-01-21 01:20:23.53	16.48	7.39	-49.7	-70.8	3.8	7.45e-01	0	38	104	0	70	41963
2026-01-21 01:20:24.53	16.48	7.47	-49.7	-70.6	3.8	7.46e-01	0	38	104	0	70	41277
2026-01-21 01:20:25.52	16.49	7.55	-49.7	-70.5	3.8	7.49e-01	0	38	104	0	70	40904
2026-01-21 01:20:26.51	16.50	7.64	-49.7	-70.4	3.8	7.47e-01	0	38	104	0	70	40330
2026-01-21 01:20:27.50	16.51	7.72	-49.7	-70.2	3.8	7.46e-01	0	38	104	0	70	39472
2026-01-21 01:20:28.50	16.51	7.80	-49.6	-70.1	3.8	7.48e-01	0	38	104	0	70	38826
2026-01-21 01:20:29.49	16.52	7.89	-49.6	-69.9	3.8	7.48e-01	0	38	104	0	70	38187
2026-01-21 01:20:30.48	16.53	7.97	-49.6	-69.7	3.8	7.45e-01	0	38	104	0	70	37085
2026-01-21 01:20:31.48	16.54	8.06	-49.5	-69.5	3.8	7.46e-01	0	38	104	0	70	36112
2026-01-21 01:20:32.47	16.54	8.14	-49.5	-69.1	3.8	7.43e-01	0	38	104	0	70	34621
2026-01-21 01:20:33.46	16.55	8.22	-49.4	-68.7	3.8	7.46e-01	0	38	104	0	70	33007
2026-01-21 01:20:34.45	16.56	8.31	-49.3	-68.1	3.8	7.42e-01	0	38	104	0	70	30775
2026-01-21 01:20:35.45	16.57	8.40	-49.2	-67.5	3.8	7.41e-01	0	38	104	0	70	28887
2026-01-21 01:20:36.44	16.58	8.48	-49.1	-66.9	3.8	7.47e-01	0	38	104	0	70	26798
2026-01-21 01:20:37.43	16.58	8.57	-48.9	-66.1	3.8	7.45e-01	0	38	104	0	69	26078
2026-01-21 01:20:38.43	16.59	8.65	-48.7	-65.5	3.8	7.47e-01	0	38	104	0	69	24203
2026-01-21 01:20:39.42	16.60	8.74	-48.6	-64.9	3.8	7.44e-01	0	38	104	0	69	22628
2026-01-21 01:20:40.41	16.61	8.83	-48.4	-64.3	3.8	7.47e-01	0	38	104	0	68	22509
2026-01-21 01:20:41.40	16.61	8.92	-48.3	-64.0	3.8	7.42e-01	0	38	104	0	68	21665
2026-01-21 01:20:42.40	16.62	9.00	-48.2	-63.6	3.8	7.46e-01	0	38	104	0	68	20735
2026-01-21 01:20:43.39	16.63	9.09	-47.5	-62.3	3.8	7.45e-01	0	38	104	0	67	18826
2026-01-21 01:20:44.39	16.64	9.18	-48.6	-64.9	3.8	7.44e-01	0	38	104	0	68	24125
2026-01-21 01:20:45.38	16.65	9.27	-48.6	-64.5	3.8	7.44e-01	0	38	104	0	68	22863
2026-01-21 01:20:46.37	16.65	9.36	-49.0	-66.3	3.8	7.51e-01	0	38	104	0	68	28073
2026-01-21 01:20:47.37	16.66	9.45	-49.3	-66.9	3.9	7.40e-01	0	38	104	0	70	26925
2026-01-21 01:20:48.36	16.67	9.54	-45.5	-58.7	3.8	7.45e-01	0	38	104	0	63	15606
2026-01-21 01:20:49.36	16.68	9.63	-45.5	-58.6	3.8	7.43e-01	0	38	104	0	62	16341
2026-01-21 01:20:50.36	16.69	9.72	-45.4	-58.4	3.8	7.44e-01	0	38	104	0	62	16048
2026-01-21 01:20:51.35	16.70	9.81	-45.5	-58.5	3.8	7.45e-01	0	38	104	0	62	16195
2026-01-21 01:20:52.35	16.70	9.90	-45.4	-58.4	3.8	7.46e-01	0	38	104	0	62	16000
2026-01-21 01:20:53.34	16.71	10.00	-45.2	-58.0	3.8	7.47e-01	0	38	104	0	62	15312
2026-01-21 01:20:54.33	16.72	10.09	-46.4	-59.5	3.8	7.47e-01	0	38	104	0	63	17186
2026-01-21 01:20:55.33	16.73	10.18	-50.1	-67.6	3.9	7.43e-01	0	38	104	0	71	27523
2026-01-21 01:20:56.32	16.74	10.27	-46.6	-60.2	3.8	7.45e-01	0	38	104	0	65	16529
2026-01-21 01:20:57.32	16.74	10.37	-46.7	-51.5	18.1	6.01e-01	0	38	104	0	64	6453
2026-01-21 01:20:58.31	16.75	10.46	-46.6	-51.1	19.7	6.02e-01	0	38	0	1048576	64	6173
2026-01-21 01:20:59.31	16.76	10.56	-46.6	-51.0	19.8	6.02e-01	0	38	0	3145728	64	6073
2026-01-21 01:21:00.30	16.77	10.65	-46.5	-50.9	19.7	6.02e-01	0	38	0	5242880	64	6006
2026-01-21 01:21:01.30	16.78	10.75	-46.1	-50.3	20.3	6.04e-01	0	39	0	6815744	64	5636
2026-01-21 01:21:02.29	16.79	10.84	-46.0	-50.1	20.7	6.01e-01	0	38	0	8912896	63	5845
2026-01-21 01:21:03.29	16.80	10.94	-46.1	-50.2	20.4	6.00e-01	0	39	0	10485760	63	5859
2026-01-21 01:21:04.28	16.80	11.03	-46.1	-50.1	20.5	6.03e-01	0	39	0	12582912	63	5800
2026-01-21 01:21:05.28	16.81	11.13	-46.1	-49.9	20.9	6.01e-01	0	39	0	14155776	63	5703
2026-01-21 01:21:06.27	16.82	11.23	-46.3	-50.3	20.5	6.00e-01	0	38	0	16252928	63	5971
2026-01-21 01:21:07.27	16.83	11.33	-46.2	-50.1	20.6	6.01e-01	0	38	0	18350080	63	5809
2026-01-21 01:21:08.26	16.84	11.42	-45.8	-49.4	21.5	6.01e-01	0	38	0	19922944	63	5353
2026-01-21 01:21:09.26	16.85	11.52	-46.1	-49.8	21.1	6.04e-01	0	39	0	22020096	63	5604
2026-01-21 01:21:10.26	16.86	11.62	-45.8	-49.3	21.4	6.03e-01	0	39	0	23592960	63	5306
2026-01-21 01:21:11.25	16.86	11.72	-45.8	-49.3	21.6	6.01e-01	0	38	0	25690112	63	5287
2026-01-21 01:21:12.24	16.87	11.82	-45.8	-49.2	21.5	6.01e-01	0	39	0	27262976	63	5228
2026-01-21 01:21:13.24	16.88	11.92	-45.6	-48.9	21.9	6.03e-01	0	38	0	29360128	63	5080
2026-01-21 01:21:14.23	16.89	12.02	-45.6	-48.9	21.9	6.03e-01	0	39	0	30932992	62	5344
2026-01-21 01:21:15.23	16.90	12.13	-45.4	-48.5	22.1	6.02e-01	0	39	0	33030144	62	5154
2026-01-21 01:21:16.22	16.91	12.23	-45.0	-48.1	22.6	6.03e-01	0	39	0	35127296	62	4880
2026-01-21 01:21:17.22	16.92	12.33	-45.2	-48.2	22.4	6.02e-01	0	39	0	36700160	62	4981
2026-01-21 01:21:18.21	16.93	12.43	-45.0	-47.9	22.7	6.04e-01	0	39	0	38797312	61	5070
2026-01-21 01:21:19.21	16.94	12.54	-44.9	-47.7	22.9	6.02e-01	0	39	0	40370176	61	4968
2026-01-21 01:21:20.20	16.95	12.64	-45.0	-47.8	22.9	6.02e-01	0	39	0	42467328	61	5041
2026-01-21 01:21:21.20	16.95	12.74	-44.9	-47.7	22.9	6.01e-01	0	39	0	44040192	61	4960
2026-01-21 01:21:22.19	16.96	12.85	-44.8	-47.6	23.1	6.01e-01	0	38	0	46137344	61	4874
2026-01-21 01:21:23.19	16.97	12.95	-44.9	-47.7	23.1	6.00e-01	0	39	0	48234496	61	4931
2026-01-21 01:21:24.18	16.98	13.06	-44.7	-47.5	23.2	6.03e-01	0	39	0	49807360	61	4817
2026-01-21 01:21:25.18	16.99	13.17	-44.7	-47.3	23.3	6.02e-01	0	39	0	51904512	61	4744
2026-01-21 01:21:26.17	17.00	13.27	-44.7	-47.4	23.3	6.02e-01	0	39	0	53477376	61	4781
2026-01-21 01:21:27.17	17.01	13.38	-44.6	-47.3	23.4	6.02e-01	0	38	0	55574528	61	4725
2026-01-21 01:21:28.16	17.02	13.49	-44.7	-47.3	23.4	6.03e-01	0	39	0	57147392	61	4743
2026-01-21 01:21:29.16	17.03	13.60	-44.6	-47.2	23.5	6.03e-01	0	39	0	59244544	61	4653
2026-01-21 01:21:30.15	17.04	13.71	-44.5	-47.1	23.6	6.02e-01	0	39	0	60817408	60	4897
2026-01-21 01:21:31.15	17.05	13.82	-44.4	-46.9	23.8	6.03e-01	0	39	0	62914560	60	4783
2026-01-21 01:21:32.14	17.06	13.93	-44.4	-47.0	23.7	6.04e-01	0	39	0	65011712	60	4828
2026-01-21 01:21:33.14	17.07	14.04	-44.4	-46.9	23.8	6.00e-01	0	39	0	66584576	60	4773
2026-01-21 01:21:34.13	17.08	14.15	-44.3	-46.8	23.9	6.02e-01	0	39	0	68681728	60	4715
2026-01-21 01:21:35.13	17.09	14.26	-44.2	-46.7	24.0	6.01e-01	0	39	0	70254592	60	4673
2026-01-21 01:21:36.12	17.10	14.37	-44.2	-46.7	24.0	6.02e-01	0	39	0	72351744	60	4668
2026-01-21 01:21:37.12	17.11	14.48	-44.3	-46.8	23.9	6.04e-01	0	39	0	73924608	60	4712
2026-01-21 01:21:38.11	17.12	14.60	-44.2	-46.7	24.0	6.01e-01	0	39	0	76021760	60	4679
2026-01-21 01:21:39.11	17.13	14.71	-44.2	-46.7	24.0	6.01e-01	0	39	0	77594624	60	4660
2026-01-21 01:21:40.11	17.14	14.83	-44.2	-46.6	24.1	6.03e-01	0	38	0	79691776	60	4634
2026-01-21 01:21:41.10	17.15	14.94	-44.2	-46.6	24.1	6.02e-01	0	39	0	81788928	60	4619
2026-01-21 01:21:42.09	17.16	15.06	-44.2	-46.7	24.0	6.05e-01	0	39	0	83361792	60	4681
2026-01-21 01:21:43.09	17.17	15.17	-44.3	-46.8	23.9	6.04e-01	0	39	0	85458944	60	4710
2026-01-21 01:21:44.09	17.18	15.29	-44.2	-46.7	24.0	6.02e-01	0	39	0	87031808	60	4667
2026-01-21 01:21:45.08	17.19	15.41	-44.1	-46.6	24.1	6.03e-01	0	39	0	89128960	60	4607
2026-01-21 01:21:46.07	17.20	15.53	-44.2	-46.6	24.1	6.04e-01	0	39	0	90701824	60	4637
2026-01-21 01:21:47.07	17.21	15.65	-44.1	-46.6	24.1	6.02e-01	0	39	0	92798976	60	4620
2026-01-21 01:21:48.06	17.22	15.77	-44.2	-46.7	24.0	6.03e-01	0	39	0	94371840	60	4673
2026-01-21 01:21:49.06	17.23	15.89	-44.2	-46.7	24.0	6.00e-01	0	39	0	96468992	60	4681
2026-01-21 01:21:50.05	17.24	16.01	-44.3	-46.7	24.0	6.03e-01	0	39	0	98566144	60	4705
2026-01-21 01:21:51.05	17.25	16.13	-44.2	-46.7	24.0	6.04e-01	0	39	0	100139008	60	4684
2026-01-21 01:21:52.04	17.26	16.25	-44.3	-46.7	24.0	6.03e-01	0	39	0	102236160	60	4699
2026-01-21 01:21:53.04	17.27	16.38	-44.3	-46.7	24.0	6.03e-01	0	39	0	103809024	60	4700
2026-01-21 01:21:54.03	17.28	16.50	-44.2	-46.7	24.0	6.00e-01	0	39	0	105906176	60	4689
2026-01-21 01:21:55.02	17.29	16.62	-44.1	-46.6	24.0	6.02e-01	0	39	0	107479040	60	4646
2026-01-21 01:21:56.02	17.30	16.75	-44.1	-46.6	24.1	6.04e-01	0	39	0	109576192	60	4632
2026-01-21 01:21:57.01	17.31	16.87	-44.0	-46.6	24.1	6.03e-01	0	39	0	111149056	60	4602
2026-01-21 01:21:58.01	17.32	17.00	-44.0	-46.5	24.1	6.01e-01	0	39	0	113246208	60	4593
2026-01-21 01:21:59.00	17.34	17.13	-44.1	-46.7	24.1	6.03e-01	0	39	0	115343360	59	4961
2026-01-21 01:22:00.00	17.35	17.26	-44.1	-46.6	24.1	6.00e-01	0	39	0	116916224	59	4925
2026-01-21 01:22:00.99	17.36	17.38	-44.0	-46.6	24.2	6.02e-01	0	39	0	119013376	59	4897
2026-01-21 01:22:01.99	17.37	17.51	-44.1	-46.6	24.2	6.00e-01	0	39	0	120586240	59	4920
2026-01-21 01:22:02.98	17.38	17.64	-44.1	-46.8	24.1	6.00e-01	0	39	0	122683392	59	4991
2026-01-21 01:22:03.98	17.39	17.78	-44.1	-46.7	24.1	6.02e-01	0	39	0	124256256	59	4965
2026-01-21 01:22:04.97	17.40	17.91	-44.1	-46.7	24.1	6.02e-01	0	39	0	126353408	59	4965
2026-01-21 01:22:05.97	17.41	18.04	-44.1	-46.7	24.1	6.04e-01	0	39	0	127926272	59	4980
2026-01-21 01:22:06.96	17.43	18.17	-44.1	-46.8	24.1	6.04e-01	0	39	0	130023424	59	4985
2026-01-21 01:22:07.96	17.44	18.31	-44.0	-46.7	24.1	6.00e-01	0	39	0	132120576	59	4954
2026-01-21 01:22:08.95	17.45	18.44	-44.1	-46.8	24.0	6.02e-01	0	39	0	133693440	59	5007
2026-01-21 01:22:09.94	17.46	18.58	-44.2	-46.8	24.0	6.06e-01	0	39	0	135790592	59	5037
2026-01-21 01:22:10.94	17.47	18.71	-44.1	-46.8	24.1	6.02e-01	0	39	0	137363456	59	5013
2026-01-21 01:22:11.93	17.48	18.85	-44.2	-46.9	23.9	6.02e-01	0	39	0	139460608	59	5075
2026-01-21 01:22:12.93	17.50	18.99	-44.3	-47.0	23.9	6.02e-01	0	39	0	141033472	59	5109
2026-01-21 01:22:13.92	17.51	19.13	-44.2	-46.8	22.7	6.01e-01	0	39	0	143130624	59	5040
2026-01-21 01:22:14.92	17.52	19.27	-44.3	-47.0	23.9	6.01e-01	0	39	0	144703488	59	5107
2026-01-21 01:22:15.91	17.53	19.41	-44.3	-47.0	23.9	6.04e-01	0	39	0	146800640	59	5102
2026-01-21 01:22:16.91	17.55	19.55	-44.3	-47.0	23.9	6.02e-01	0	39	0	148897792	59	5105
2026-01-21 01:22:17.90	17.56	19.69	-44.4	-47.0	23.8	6.03e-01	0	39	0	150470656	59	5152
2026-01-21 01:22:18.90	17.57	19.84	-44.4	-47.0	23.9	6.03e-01	0	39	0	152567808	59	5129
2026-01-21 01:22:19.89	17.58	19.98	-44.4	-46.9	23.7	6.02e-01	0	39	0	154140672	59	5096
2026-01-21 01:22:20.89	17.60	20.13	-44.4	-46.9	24.0	6.00e-01	0	39	0	156237824	59	5085
2026-01-21 01:22:21.88	17.61	20.27	-44.4	-47.0	23.8	6.02e-01	0	39	0	157810688	59	5146
2026-01-21 01:22:22.88	17.62	20.42	-44.4	-46.9	23.9	6.02e-01	0	39	0	159907840	59	5091
2026-01-21 01:22:23.87	17.63	20.57	-44.4	-46.9	23.9	5.99e-01	0	39	0	161480704	59	5099
2026-01-21 01:22:24.87	17.65	20.72	-44.4	-46.9	23.9	6.03e-01	0	39	0	163577856	59	5084
2026-01-21 01:22:25.86	17.66	20.87	-44.4	-46.9	23.9	6.03e-01	0	39	0	165675008	59	5085
2026-01-21 01:22:26.86	17.67	21.02	-44.3	-46.9	24.0	6.03e-01	0	39	0	167247872	59	5091
2026-01-21 01:22:27.85	17.69	21.17	-44.4	-47.0	23.9	6.01e-01	0	39	0	169345024	59	5149
2026-01-21 01:22:28.85	17.70	21.33	-44.5	-47.1	23.8	6.00e-01	0	39	0	170917888	59	5190
2026-01-21 01:22:29.84	17.71	21.48	-44.4	-47.1	23.6	6.03e-01	0	39	0	173015040	59	5210
2026-01-21 01:22:30.83	17.73	21.64	-44.3	-47.0	23.9	6.06e-01	0	39	0	174587904	59	5153
2026-01-21 01:22:31.83	17.74	21.79	-44.3	-47.1	23.8	6.04e-01	0	39	0	176685056	59	5189
2026-01-21 01:22:32.82	17.75	21.95	-44.4	-47.2	23.7	5.98e-01	0	39	0	178257920	59	5236
2026-01-21 01:22:33.82	17.77	22.11	-44.4	-47.2	23.7	6.04e-01	0	39	0	180355072	59	5273
2026-01-21 01:22:34.81	17.78	22.27	-44.3	-47.1	23.8	6.01e-01	0	39	0	182452224	59	5186
2026-01-21 01:22:35.80	17.80	22.43	-44.3	-47.0	23.9	6.00e-01	0	39	0	184025088	59	5139
2026-01-21 01:22:36.80	17.81	22.59	-44.2	-46.9	24.0	6.01e-01	0	39	0	186122240	59	5077
2026-01-21 01:22:37.79	17.83	22.75	-44.3	-47.1	23.9	6.03e-01	0	39	0	187695104	59	5171
2026-01-21 01:22:38.79	17.84	22.92	-44.3	-47.0	23.9	6.04e-01	0	39	0	189792256	59	5149
2026-01-21 01:22:39.78	17.85	23.08	-44.4	-47.1	23.9	5.99e-01	0	39	0	191365120	59	5170
2026-01-21 01:22:40.78	17.87	23.25	-44.5	-47.2	23.8	6.03e-01	0	39	0	193462272	59	5219
2026-01-21 01:22:41.77	17.88	23.42	-44.4	-47.1	23.9	6.02e-01	0	39	0	195035136	59	5163
2026-01-21 01:22:42.77	17.90	23.59	-44.5	-47.1	23.9	6.00e-01	0	39	0	197132288	59	5191
2026-01-21 01:22:43.76	17.91	23.75	-44.6	-47.2	23.7	6.01e-01	0	39	0	199229440	59	5255
2026-01-21 01:22:44.76	17.93	23.93	-44.6	-47.3	23.7	6.04e-01	0	39	0	200802304	59	5292
2026-01-21 01:22:45.75	17.94	24.10	-44.6	-47.3	23.6	6.03e-01	0	39	0	202899456	59	5319
2026-01-21 01:22:46.74	17.96	24.27	-44.5	-47.2	23.7	6.01e-01	0	39	0	204472320	60	4950
2026-01-21 01:22:47.74	17.98	24.45	-44.6	-47.3	23.6	6.04e-01	0	39	0	206569472	60	4997
2026-01-21 01:22:48.73	17.99	24.62	-44.6	-47.3	23.6	6.00e-01	0	39	0	208142336	60	5034
2026-01-21 01:22:49.73	18.01	24.80	-44.7	-47.4	23.5	6.01e-01	0	39	0	210239488	60	5077
2026-01-21 01:22:50.72	18.02	24.98	-44.7	-47.4	23.6	6.00e-01	0	39	0	211812352	60	5069
2026-01-21 01:22:51.72	18.04	25.16	-44.6	-47.3	23.6	6.01e-01	0	39	0	213909504	60	5026
2026-01-21 01:22:52.71	18.06	25.34	-44.5	-47.2	23.7	6.02e-01	0	39	0	216006656	60	4955
2026-01-21 01:22:53.70	18.07	25.52	-44.4	-47.1	23.8	6.00e-01	0	39	0	217579520	60	4888
2026-01-21 01:22:54.70	18.09	25.71	-44.5	-47.1	23.8	6.01e-01	0	39	0	219676672	60	4905
2026-01-21 01:22:55.69	18.11	25.89	-44.5	-47.1	23.7	6.03e-01	0	39	0	221249536	60	4888
2026-01-21 01:22:56.69	18.12	26.08	-44.4	-47.0	23.8	6.02e-01	0	39	0	223346688	60	4835
2026-01-21 01:22:57.68	18.14	26.27	-44.3	-46.9	23.9	6.02e-01	0	39	0	224919552	60	4795
2026-01-21 01:22:58.68	18.16	26.46	-44.4	-47.0	23.9	6.03e-01	0	39	0	227016704	60	4819
2026-01-21 01:22:59.67	18.17	26.65	-44.4	-46.9	24.0	6.02e-01	0	39	0	228589568	60	4801
2026-01-21 01:23:00.67	18.19	26.84	-44.4	-47.0	24.0	5.99e-01	0	39	0	230686720	60	4835
2026-01-21 01:23:01.66	18.21	27.04	-44.2	-46.8	24.1	6.03e-01	0	39	0	232783872	60	4737
2026-01-21 01:23:02.65	18.23	27.23	-44.2	-46.7	24.1	6.02e-01	0	39	0	234356736	60	4703
2026-01-21 01:23:03.65	18.25	27.43	-44.0	-46.5	24.3	5.99e-01	0	39	0	236453888	60	4595
2026-01-21 01:23:04.64	18.26	27.63	-44.2	-46.7	24.2	6.01e-01	0	39	0	238026752	59	4981
2026-01-21 01:23:05.64	18.28	27.83	-44.2	-46.8	24.2	6.03e-01	0	39	0	240123904	59	5007
2026-01-21 01:23:06.63	18.30	28.03	-44.2	-46.8	24.1	6.03e-01	0	39	0	241696768	59	5039
2026-01-21 01:23:07.63	18.32	28.23	-44.2	-46.8	24.2	6.00e-01	0	39	0	243793920	59	5003
2026-01-21 01:23:08.62	18.34	28.44	-44.2	-46.7	24.3	6.03e-01	0	39	0	245366784	59	4975
2026-01-21 01:23:09.62	18.36	28.65	-44.2	-46.8	24.2	6.01e-01	0	39	0	247463936	59	5004
2026-01-21 01:23:10.62	18.38	28.86	-44.2	-46.7	24.2	6.05e-01	0	39	0	249561088	59	4975
2026-01-21 01:23:11.61	18.40	29.07	-44.2	-46.8	24.3	6.03e-01	0	39	0	251133952	59	4989
2026-01-21 01:23:12.61	18.42	29.28	-44.0	-46.5	24.4	6.04e-01	0	39	0	253231104	59	4838
2026-01-21 01:23:13.60	18.44	29.49	-43.9	-46.4	24.5	6.01e-01	0	39	0	254803968	59	4795
2026-01-21 01:23:14.60	18.46	29.71	-44.0	-46.6	24.4	6.03e-01	0	39	0	256901120	59	4874
2026-01-21 01:23:15.59	18.48	29.92	-44.0	-46.5	24.4	6.03e-01	0	39	0	258998272	59	4869
2026-01-21 01:23:16.59	18.50	30.14	-44.1	-46.5	24.4	6.01e-01	0	39	0	260571136	59	4859
2026-01-21 01:23:17.58	18.52	30.36	-44.1	-46.5	24.4	6.03e-01	0	39	0	262668288	59	4864
2026-01-21 01:23:18.57	18.54	30.59	-44.1	-46.5	24.4	6.00e-01	0	39	0	264241152	59	4853
2026-01-21 01:23:19.57	18.56	30.81	-44.0	-46.4	24.6	6.03e-01	0	39	0	266338304	59	4771
2026-01-21 01:23:20.56	18.59	31.04	-44.0	-46.4	24.6	6.03e-01	0	39	0	267911168	59	4766
2026-01-21 01:23:21.56	18.61	31.27	-44.1	-46.5	24.5	6.02e-01	0	39	0	270008320	59	4840
2026-01-21 01:23:22.55	18.63	31.49	-44.1	-46.5	24.5	6.02e-01	0	39	0	271581184	59	4827
2026-01-21 01:23:23.55	18.65	31.73	-44.1	-46.5	24.5	6.01e-01	0	39	0	273678336	59	4853
2026-01-21 01:23:24.54	18.68	31.96	-44.2	-46.6	24.4	6.00e-01	0	39	0	275775488	59	4902
2026-01-21 01:23:25.53	18.70	32.20	-44.1	-46.5	24.5	6.02e-01	0	39	0	277348352	59	4864
2026-01-21 01:23:26.53	18.72	32.44	-44.2	-46.6	24.4	6.00e-01	0	39	0	279445504	59	4890
2026-01-21 01:23:27.52	18.75	32.67	-44.4	-46.9	24.2	6.03e-01	0	39	0	281018368	59	5067
2026-01-21 01:23:28.51	18.77	32.92	-44.5	-47.0	24.1	6.00e-01	0	39	0	283115520	59	5105
2026-01-21 01:23:29.51	18.80	33.16	-44.4	-46.9	24.2	6.03e-01	0	39	0	284688384	59	5091
2026-01-21 01:23:30.50	18.82	33.41	-44.5	-46.9	24.1	5.99e-01	0	39	0	286785536	59	5098
2026-01-21 01:23:31.50	18.85	33.66	-44.4	-46.9	24.1	6.00e-01	0	39	0	288358400	59	5076
2026-01-21 01:23:32.49	18.87	33.91	-44.6	-47.1	24.0	6.01e-01	0	39	0	290455552	59	5161
2026-01-21 01:23:33.48	18.90	34.16	-44.6	-47.1	23.9	6.02e-01	0	39	0	292028416	60	4876
2026-01-21 01:23:34.48	18.92	34.41	-44.5	-47.0	24.0	6.05e-01	0	39	0	294125568	60	4858
2026-01-21 01:23:35.48	18.95	34.67	-44.6	-47.1	23.9	6.02e-01	0	39	0	296222720	60	4899
2026-01-21 01:23:36.47	18.98	34.93	-44.7	-47.2	23.8	6.01e-01	0	39	0	297795584	60	4964
2026-01-21 01:23:37.47	19.00	35.19	-44.7	-47.3	23.8	6.01e-01	0	39	0	299892736	60	4999
2026-01-21 01:23:38.46	19.03	35.46	-44.8	-47.5	23.6	6.02e-01	0	39	0	301465600	60	5123
2026-01-21 01:23:39.46	19.06	35.73	-44.9	-47.6	23.5	6.03e-01	0	39	0	303562752	60	5199
2026-01-21 01:23:40.45	19.09	35.99	-45.0	-47.8	23.3	6.05e-01	0	39	0	305135616	60	5318
2026-01-21 01:23:41.45	19.12	36.27	-45.1	-48.0	23.2	6.04e-01	0	39	0	307232768	60	5441
2026-01-21 01:23:42.44	19.15	36.54	-45.2	-48.1	23.0	6.06e-01	0	39	0	309329920	61	5202
2026-01-21 01:23:43.43	19.18	36.81	-45.1	-48.0	23.2	6.01e-01	0	39	0	310902784	61	5154
2026-01-21 01:23:44.43	19.21	37.09	-45.2	-48.1	23.1	6.04e-01	0	39	0	312999936	61	5161
2026-01-21 01:23:45.42	19.24	37.37	-45.4	-48.3	22.9	6.03e-01	0	39	0	314572800	61	5339
2026-01-21 01:23:46.42	19.27	37.66	-45.8	-48.8	22.5	6.04e-01	0	39	0	316669952	62	5298
2026-01-21 01:23:47.41	19.30	37.94	-46.1	-49.0	22.3	6.02e-01	0	39	0	318242816	62	5455
2026-01-21 01:23:48.40	19.33	38.23	-46.0	-48.9	22.4	6.04e-01	0	39	0	320339968	62	5360
2026-01-21 01:23:49.40	19.36	38.53	-45.9	-48.8	22.5	6.01e-01	0	39	0	321912832	62	5295
2026-01-21 01:23:50.39	19.40	38.82	-45.9	-48.7	22.5	6.01e-01	0	39	0	324009984	62	5270
2026-01-21 01:23:51.39	19.43	39.12	-46.0	-48.9	22.4	6.02e-01	0	39	0	326107136	62	5358
2026-01-21 01:23:52.38	19.47	39.42	-46.2	-49.2	22.1	6.04e-01	0	39	0	327680000	63	5270
2026-01-21 01:23:53.38	19.50	39.72	-46.3	-49.3	22.0	6.04e-01	0	39	0	329777152	63	5322
2026-01-21 01:23:54.37	19.54	40.02	-46.0	-48.9	22.4	6.02e-01	0	39	0	331350016	63	5064
2026-01-21 01:23:55.36	19.57	40.33	-45.7	-48.5	22.8	6.04e-01	0	39	0	333447168	63	4842
2026-01-21 01:23:56.36	19.61	40.64	-45.8	-48.6	22.7	5.99e-01	0	39	0	335020032	63	4901
2026-01-21 01:23:57.35	19.65	40.96	-45.8	-48.6	22.7	6.04e-01	0	39	0	337117184	63	4891
2026-01-21 01:23:58.35	19.68	41.27	-45.6	-48.3	23.0	6.02e-01	0	39	0	338690048	63	4738
2026-01-21 01:23:59.34	19.72	41.59	-45.5	-48.2	23.1	6.03e-01	0	39	0	340787200	62	4931
2026-01-21 01:24:00.34	19.76	41.92	-45.4	-48.0	23.3	6.03e-01	0	39	0	342884352	62	4856
2026-01-21 01:24:01.33	19.80	42.24	-45.1	-47.6	23.6	6.03e-01	0	39	0	344457216	62	4615
2026-01-21 01:24:02.33	19.84	42.57	-44.8	-47.3	23.8	6.01e-01	0	39	0	346554368	61	4729
2026-01-21 01:24:03.32	19.89	42.90	-44.9	-47.4	23.8	6.03e-01	0	39	0	348127232	61	4766
2026-01-21 01:24:04.31	19.93	43.24	-44.8	-47.3	23.9	6.06e-01	0	39	0	350224384	61	4743
2026-01-21 01:24:05.31	19.97	43.58	-44.7	-47.2	24.0	6.02e-01	0	39	0	351797248	61	4661
2026-01-21 01:24:06.30	20.02	43.92	-44.7	-47.1	24.1	6.00e-01	0	39	0	353894400	61	4632
2026-01-21 01:24:07.30	20.06	44.26	-44.6	-47.1	24.1	6.01e-01	0	39	0	355467264	61	4615
2026-01-21 01:24:08.29	20.11	44.61	-44.6	-47.0	24.2	6.07e-01	0	39	0	357564416	61	4579
2026-01-21 01:24:09.29	20.16	44.96	-44.5	-47.0	24.2	6.05e-01	0	39	0	359661568	61	4546
2026-01-21 01:24:10.28	20.20	45.31	-44.5	-47.0	24.2	6.03e-01	0	39	0	361234432	60	4831
2026-01-21 01:24:11.28	20.25	45.67	-44.4	-46.9	24.2	6.01e-01	0	39	0	363331584	60	4799
2026-01-21 01:24:12.27	20.30	46.03	-44.2	-46.6	24.5	6.03e-01	0	39	0	364904448	60	4611
2026-01-21 01:24:13.27	20.35	46.40	-44.3	-46.8	24.4	5.98e-01	0	39	0	367001600	60	4729
2026-01-21 01:24:14.26	20.41	46.76	-44.6	-47.1	24.1	6.01e-01	0	39	0	368574464	60	4918
2026-01-21 01:24:15.25	20.46	47.13	-44.7	-47.2	24.0	6.02e-01	0	39	0	370671616	60	4962
2026-01-21 01:24:16.25	20.52	47.51	-44.4	-46.9	24.3	6.03e-01	0	39	0	372244480	60	4763
2026-01-21 01:24:17.24	20.57	47.89	-44.3	-46.7	24.4	6.04e-01	0	39	0	374341632	60	4703
2026-01-21 01:24:18.24	20.63	48.27	-44.3	-46.7	24.4	6.01e-01	0	39	0	376438784	60	4693
2026-01-21 01:24:19.23	20.69	48.65	-44.4	-46.9	24.3	6.04e-01	0	39	0	378011648	60	4760
2026-01-21 01:24:20.23	20.75	49.04	-44.5	-46.9	24.3	6.04e-01	0	39	0	380108800	60	4796
2026-01-21 01:24:21.22	20.81	49.43	-44.4	-46.9	24.3	6.04e-01	0	39	0	381681664	60	4763
2026-01-21 01:24:22.22	20.87	49.83	-44.6	-47.1	24.2	6.03e-01	0	39	0	383778816	60	4899
2026-01-21 01:24:23.21	20.94	50.23	-44.4	-46.8	24.3	6.05e-01	0	39	0	385351680	60	4748
2026-01-21 01:24:24.21	21.01	50.63	-44.1	-46.4	24.8	6.01e-01	0	39	0	387448832	59	4792
2026-01-21 01:24:25.20	21.07	51.04	-44.1	-46.5	24.7	6.04e-01	0	39	0	389021696	59	4854
2026-01-21 01:24:26.20	21.14	51.45	-44.3	-46.7	24.5	6.02e-01	0	39	0	391118848	59	4962
2026-01-21 01:24:27.19	21.22	51.86	-44.1	-46.5	24.7	6.04e-01	0	39	0	393216000	59	4829
2026-01-21 01:24:28.19	21.29	52.28	-44.0	-46.4	24.8	6.00e-01	0	39	0	394788864	59	4782
2026-01-21 01:24:29.18	21.37	52.70	-44.2	-46.6	24.6	6.00e-01	0	39	0	396886016	59	4912
2026-01-21 01:24:30.18	21.44	53.13	-44.4	-47.0	24.3	6.02e-01	0	39	0	398458880	59	5108
2026-01-21 01:24:31.17	21.52	53.56	-43.8	-46.2	24.9	6.02e-01	0	39	0	400556032	59	4699
2026-01-21 01:24:32.17	21.61	53.99	-43.8	-46.2	25.0	6.03e-01	0	39	0	402128896	59	4694
2026-01-21 01:24:33.16	21.69	54.43	-44.0	-46.4	24.8	6.07e-01	0	39	0	404226048	59	4768
2026-01-21 01:24:34.16	21.78	54.87	-44.1	-46.5	24.8	6.00e-01	0	39	0	405798912	59	4831
2026-01-21 01:24:35.15	21.87	55.31	-44.1	-46.6	24.7	6.03e-01	0	39	0	407896064	59	4885
2026-01-21 01:24:36.15	21.96	55.76	-44.2	-46.6	24.7	6.06e-01	0	39	0	409993216	59	4883
2026-01-21 01:24:37.14	22.06	56.21	-44.5	-47.0	24.0	6.04e-01	0	39	0	411566080	60	4850
2026-01-21 01:24:38.14	22.16	56.67	-44.6	-47.0	24.2	6.02e-01	0	39	0	413663232	60	4866
2026-01-21 01:24:39.13	22.26	57.13	-44.6	-47.0	24.3	6.00e-01	0	39	0	415236096	60	4852
2026-01-21 01:24:40.13	22.37	57.59	-44.8	-47.2	24.0	6.02e-01	0	39	0	417333248	60	4976
2026-01-21 01:24:41.12	22.48	58.06	-45.0	-47.6	23.8	6.02e-01	0	39	0	418906112	60	5177
2026-01-21 01:24:42.11	22.59	58.53	-45.3	-47.9	23.5	6.03e-01	0	39	0	421003264	61	5073
2026-01-21 01:24:43.11	22.71	59.00	-45.2	-47.7	23.7	6.02e-01	0	39	0	422576128	61	4959
2026-01-21 01:24:44.10	22.83	59.48	-45.6	-48.2	23.3	6.01e-01	0	39	0	424673280	61	5230
2026-01-21 01:24:45.10	22.95	59.96	-45.4	-48.0	23.3	6.05e-01	0	39	0	426770432	61	5118
2026-01-21 01:24:46.09	23.08	60.45	-45.5	-48.1	23.3	6.02e-01	0	39	0	428343296	61	5169
2026-01-21 01:24:47.09	23.22	60.94	-45.9	-48.6	22.9	6.01e-01	0	39	0	430440448	62	5203
2026-01-21 01:24:48.08	23.36	61.43	-45.9	-48.6	22.8	6.01e-01	0	39	0	432013312	62	5215
2026-01-21 01:24:49.08	23.51	61.93	-45.8	-48.5	23.0	6.00e-01	0	39	0	434110464	62	5122
2026-01-21 01:24:50.07	23.66	62.43	-46.5	-49.4	22.1	6.03e-01	0	39	0	435683328	63	5383
2026-01-21 01:24:51.07	23.82	62.94	-46.6	-49.5	22.0	6.03e-01	0	39	0	437780480	63	5448
2026-01-21 01:24:52.06	23.98	63.44	-46.8	-49.7	21.8	5.99e-01	0	39	0	439353344	64	5241
2026-01-21 01:24:53.05	24.16	63.95	-47.1	-50.1	21.4	6.02e-01	0	39	0	441450496	64	5502
2026-01-21 01:24:54.05	24.34	64.47	-47.5	-50.7	20.9	6.02e-01	0	39	0	443547648	65	5565
2026-01-21 01:24:55.04	24.53	64.99	-47.5	-50.7	20.9	6.06e-01	0	39	0	445120512	65	5570
2026-01-21 01:24:56.04	24.72	65.51	-47.9	-51.3	20.3	6.04e-01	0	39	0	447217664	66	5622
2026-01-21 01:24:57.03	24.93	66.04	-48.0	-51.3	20.3	6.03e-01	0	39	0	448790528	66	5623
2026-01-21 01:24:58.03	25.15	66.57	-48.6	-52.4	19.3	6.07e-01	0	39	0	450887680	67	6051
2026-01-21 01:24:59.02	25.38	67.10	-48.0	-51.5	20.1	6.03e-01	0	39	0	452460544	67	5450
2026-01-21 01:25:00.02	25.62	67.64	-48.6	-52.4	19.3	6.03e-01	0	39	0	454557696	67	6001
2026-01-21 01:25:01.01	25.87	68.17	-48.4	-52.0	19.6	6.05e-01	0	39	0	456130560	67	5768
2026-01-21 01:25:02.01	26.14	68.72	-48.7	-52.4	19.3	6.02e-01	0	39	0	458227712	67	5993
2026-01-21 01:25:03.00	26.42	69.26	-48.5	-52.0	19.8	6.01e-01	0	39	0	460324864	68	5462
2026-01-21 01:25:04.00	26.71	69.81	-48.9	-52.9	19.0	6.02e-01	0	39	0	461897728	68	6040
2026-01-21 01:25:04.99	27.03	70.36	-48.6	-52.4	19.4	6.01e-01	0	39	0	463994880	68	5682
2026-01-21 01:25:05.99	27.37	70.91	-48.6	-52.4	19.4	6.06e-01	0	39	0	465567744	68	5673
2026-01-21 01:25:06.99	27.72	71.47	-48.5	-52.1	19.7	6.03e-01	0	39	0	467664896	68	5489
2026-01-21 01:25:07.98	28.10	72.03	-48.3	-51.7	20.0	6.01e-01	0	39	0	469237760	68	5248
2026-01-21 01:25:08.97	28.50	72.58	-48.4	-51.9	19.9	6.05e-01	0	39	0	471334912	68	5389
2026-01-21 01:25:09.97	28.94	73.15	-47.7	-50.9	20.5	5.99e-01	0	39	0	472907776	67	5048
2026-01-21 01:25:10.96	29.40	73.71	-47.7	-50.8	20.8	6.00e-01	0	39	0	475004928	67	5025
2026-01-21 01:25:11.96	29.90	74.28	-47.6	-50.8	20.8	6.03e-01	0	39	0	477102080	67	5037
2026-01-21 01:25:12.95	30.44	74.84	-47.2	-50.4	21.2	6.00e-01	0	39	0	478674944	66	5051
2026-01-21 01:25:13.94	31.01	75.41	-47.2	-50.5	21.1	6.04e-01	0	39	0	480772096	66	5129
2026-01-21 01:25:14.94	31.65	75.98	-47.2	-50.4	21.1	6.00e-01	0	39	0	482344960	66	5096
2026-01-21 01:25:15.93	32.33	76.55	-47.0	-50.0	21.6	6.02e-01	0	39	0	484442112	66	4854
2026-01-21 01:25:16.93	33.08	77.12	-46.9	-49.8	21.7	6.02e-01	0	39	0	486014976	65	4994
2026-01-21 01:25:17.92	33.89	77.69	-46.7	-49.6	21.9	6.02e-01	0	39	0	488112128	65	4902
2026-01-21 01:25:18.91	34.79	78.26	-46.6	-49.5	22.1	6.03e-01	0	39	0	489684992	65	4832
2026-01-21 01:25:19.91	35.78	78.83	-46.6	-49.5	22.0	6.04e-01	0	39	0	491782144	64	5120
2026-01-21 01:25:20.90	36.88	79.39	-46.0	-48.7	22.8	6.05e-01	0	39	0	493879296	63	4936
2026-01-21 01:25:21.90	38.11	79.96	-46.0	-48.6	22.9	6.02e-01	0	39	0	495452160	63	4913
2026-01-21 01:25:22.89	39.48	80.52	-45.7	-48.3	23.2	6.02e-01	0	39	0	497549312	63	4752
2026-01-21 01:25:23.89	41.04	81.08	-45.3	-47.9	23.5	6.07e-01	0	39	0	499122176	62	4779
2026-01-21 01:25:24.88	42.79	81.63	-45.4	-48.0	23.4	6.01e-01	0	39	0	501219328	62	4845
2026-01-21 01:25:25.88	44.80	82.17	-45.4	-47.9	23.3	6.04e-01	0	39	0	502792192	62	4806
2026-01-21 01:25:26.88	47.12	82.71	-44.7	-47.2	24.1	6.02e-01	0	39	0	504889344	61	4653
2026-01-21 01:25:27.87	49.78	83.23	-44.9	-47.4	24.0	6.03e-01	0	39	0	506462208	61	4768
2026-01-21 01:25:28.87	52.91	83.73	-44.9	-47.4	24.0	6.00e-01	0	39	0	508559360	61	4780
2026-01-21 01:25:29.87	56.58	84.22	-44.7	-47.3	24.1	5.99e-01	0	39	0	510656512	61	4714
2026-01-21 01:25:30.86	60.86	84.68	-45.1	-47.7	23.7	6.03e-01	0	39	0	512229376	61	4940
2026-01-21 01:25:31.85	65.91	85.10	-45.2	-47.8	23.6	6.01e-01	0	39	0	514326528	61	5007
2026-01-21 01:25:32.85	71.92	85.48	-44.8	-47.2	24.1	6.02e-01	0	39	0	515899392	61	4693
2026-01-21 01:25:33.84	78.88	85.80	-45.1	-47.7	23.7	6.02e-01	0	39	0	517996544	61	4947
2026-01-21 01:25:34.84	86.92	86.05	-45.1	-47.7	23.6	6.03e-01	0	39	0	520093696	62	4690
2026-01-21 01:25:35.83	95.76	86.21	-44.7	-47.2	24.1	6.01e-01	0	39	0	521666560	61	4676
2026-01-21 01:25:36.82	105.15	86.28	-45.0	-47.6	23.8	6.05e-01	0	39	0	523239424	61	4917
2026-01-21 01:25:37.82	114.71	86.24	-44.7	-47.2	24.0	6.04e-01	0	39	0	525336576	61	4684
2026-01-21 01:25:38.81	123.76	86.10	-44.1	-46.5	24.7	6.00e-01	0	39	0	527433728	60	4566
2026-01-21 01:25:39.81	132.08	85.88	-44.7	-47.2	24.1	6.00e-01	0	39	0	529006592	60	4983
2026-01-21 01:25:40.80	139.33	85.58	-44.5	-47.0	24.3	6.06e-01	0	39	0	531103744	60	4834
2026-01-21 01:25:41.80	145.63	85.21	-44.7	-47.2	24.1	6.01e-01	0	39	0	532676608	60	4956
2026-01-21 01:25:42.79	150.93	84.80	-44.7	-47.2	24.1	6.02e-01	0	39	0	534773760	60	4965
2026-01-21 01:25:43.79	155.46	84.35	-45.2	-47.9	23.6	6.02e-01	0	39	0	536870912	61	5048
2026-01-21 01:25:44.78	159.27	83.88	-45.3	-47.8	23.6	6.03e-01	0	39	0	538443776	61	5031
2026-01-21 01:25:45.78	162.54	83.37	-45.4	-48.1	23.4	6.02e-01	0	39	0	540540928	61	5175
2026-01-21 01:25:46.77	165.32	82.86	-45.2	-47.9	23.6	6.01e-01	0	39	0	542113792	61	5042
2026-01-21 01:25:47.76	167.71	82.33	-45.5	-48.1	23.3	6.03e-01	0	39	0	544210944	61	5198
2026-01-21 01:25:48.76	169.81	81.79	-45.5	-48.0	23.4	6.00e-01	0	39	0	545783808	61	5143
2026-01-21 01:25:49.75	171.63	81.24	-45.5	-48.1	23.3	6.02e-01	0	39	0	547880960	61	5205
2026-01-21 01:25:50.75	173.25	80.68	-45.5	-48.1	23.4	6.04e-01	0	39	0	549453824	61	5188
2026-01-21 01:25:51.74	174.66	80.12	-45.4	-48.1	23.4	6.03e-01	0	39	0	551550976	61	5161
2026-01-21 01:25:52.73	175.93	79.56	-45.8	-48.4	23.0	6.01e-01	0	39	0	553123840	62	5084
2026-01-21 01:25:53.73	177.07	78.99	-45.7	-48.4	23.1	6.02e-01	0	39	0	555220992	62	5086
2026-01-21 01:25:54.72	178.09	78.43	-46.2	-49.0	22.7	6.01e-01	0	39	0	557318144	62	5412
2026-01-21 01:25:55.72	179.02	77.85	-46.4	-49.2	22.4	6.03e-01	0	39	0	558891008	63	5237
2026-01-21 01:25:56.71	179.86	77.28	-46.6	-49.4	22.2	6.02e-01	0	39	0	560988160	63	5368
2026-01-21 01:25:57.71	180.63	76.71	-47.1	-50.1	21.6	6.05e-01	0	39	0	562561024	64	5468
2026-01-21 01:25:58.71	181.33	76.14	-47.6	-51.0	20.8	6.03e-01	0	39	0	564658176	65	5756
2026-01-21 01:25:59.70	181.97	75.57	-47.4	-50.7	21.0	6.02e-01	0	39	0	566231040	66	5248
2026-01-21 01:26:00.70	182.57	75.00	-47.1	-50.3	21.4	6.02e-01	0	39	0	568328192	66	4988
2026-01-21 01:26:01.69	183.12	74.43	-48.1	-51.7	20.1	6.02e-01	0	39	0	570425344	66	5857
2026-01-21 01:26:02.68	183.63	73.87	-48.0	-51.4	20.4	6.00e-01	0	39	0	571998208	66	5699
2026-01-21 01:26:03.68	184.10	73.30	-47.2	-50.2	21.5	6.05e-01	0	39	0	574095360	66	4978
2026-01-21 01:26:04.67	184.54	72.74	-47.7	-50.9	20.8	6.03e-01	0	39	0	575668224	66	5400
2026-01-21 01:26:05.67	184.96	72.17	-47.9	-51.2	20.5	6.03e-01	0	39	0	577765376	66	5558
2026-01-21 01:26:06.66	185.34	71.61	-47.8	-51.0	20.9	6.04e-01	0	39	0	579338240	66	5415
2026-01-21 01:26:07.66	185.71	71.05	-47.8	-50.9	20.8	6.01e-01	0	39	0	581435392	66	5375
2026-01-21 01:26:08.65	186.04	70.50	-47.8	-50.9	20.9	6.04e-01	0	39	0	583008256	66	5379
2026-01-21 01:26:09.64	186.36	69.95	-48.6	-52.2	19.6	6.02e-01	0	39	0	585105408	67	5922
2026-01-21 01:26:10.64	186.67	69.40	-48.3	-51.6	20.3	6.03e-01	0	39	0	587202560	68	5161
2026-01-21 01:26:11.63	186.95	68.86	-48.2	-51.5	20.4	6.02e-01	0	39	0	588775424	68	5131
2026-01-21 01:26:12.63	187.22	68.31	-48.6	-52.1	19.8	6.00e-01	0	39	0	590872576	68	5522
2026-01-21 01:26:13.62	187.48	67.77	-48.1	-51.6	20.3	6.00e-01	0	39	0	592445440	68	5199
2026-01-21 01:26:14.62	187.72	67.23	-48.5	-52.4	19.6	6.00e-01	0	39	0	594542592	68	5678
2026-01-21 01:26:15.61	187.95	66.70	-48.2	-51.7	20.2	5.99e-01	0	39	0	596115456	68	5264
2026-01-21 01:26:16.61	188.18	66.16	-48.0	-51.3	20.6	6.03e-01	0	39	0	598212608	68	4989
2026-01-21 01:26:17.60	188.39	65.64	-47.8	-51.1	20.7	6.04e-01	0	39	0	599785472	67	5168
2026-01-21 01:26:18.59	188.58	65.12	-47.9	-51.3	20.5	6.04e-01	0	39	0	601882624	67	5289
2026-01-21 01:26:19.59	188.78	64.59	-47.3	-50.5	21.4	6.01e-01	0	39	0	603979776	66	5108
2026-01-21 01:26:20.59	188.96	64.07	-46.8	-49.8	21.9	6.03e-01	0	39	0	605552640	65	5033
2026-01-21 01:26:21.58	189.13	63.56	-46.5	-49.3	22.4	6.02e-01	0	39	0	607649792	65	4738
2026-01-21 01:26:22.58	189.30	63.05	-46.4	-49.1	22.5	6.01e-01	0	39	0	609222656	64	4918
2026-01-21 01:26:23.57	189.46	62.54	-46.4	-49.2	22.5	6.03e-01	0	39	0	611319808	64	4946
2026-01-21 01:26:24.56	189.62	62.04	-46.6	-49.4	22.3	5.99e-01	0	39	0	612892672	64	5065
2026-01-21 01:26:25.56	189.77	61.54	-46.3	-48.9	22.7	6.08e-01	0	39	0	614989824	64	4803
2026-01-21 01:26:26.55	189.91	61.05	-46.3	-49.0	22.7	6.01e-01	0	39	0	616562688	64	4854
2026-01-21 01:26:27.55	190.04	60.55	-46.8	-49.6	22.2	6.03e-01	0	39	0	618659840	64	5188
2026-01-21 01:26:28.54	190.18	60.06	-46.3	-49.0	22.6	6.03e-01	0	39	0	620756992	64	4854
2026-01-21 01:26:29.54	190.30	59.58	-45.9	-48.5	23.2	6.04e-01	0	39	0	622329856	63	4853
2026-01-21 01:26:30.53	190.43	59.10	-45.8	-48.3	23.3	6.04e-01	0	39	0	624427008	63	4757
2026-01-21 01:26:31.52	190.54	58.62	-45.4	-47.8	23.8	6.01e-01	0	39	0	625999872	62	4757
2026-01-21 01:26:32.52	190.66	58.15	-45.3	-47.8	23.9	6.01e-01	0	39	0	628097024	62	4732
2026-01-21 01:26:33.51	190.77	57.68	-45.7	-48.2	23.5	6.03e-01	0	39	0	629669888	62	4956
2026-01-21 01:26:34.51	190.88	57.21	-45.6	-48.1	23.6	6.01e-01	0	39	0	631767040	62	4912
2026-01-21 01:26:35.51	190.98	56.75	-45.1	-47.5	24.1	6.05e-01	0	39	0	633339904	62	4596
2026-01-21 01:26:36.50	191.08	56.29	-44.9	-47.3	24.3	6.04e-01	0	39	0	635437056	61	4714
2026-01-21 01:26:37.49	191.18	55.84	-44.6	-47.0	24.5	6.01e-01	0	39	0	637534208	61	4546
2026-01-21 01:26:38.49	191.27	55.39	-44.7	-47.0	24.5	6.03e-01	0	39	0	639107072	61	4560
2026-01-21 01:26:39.48	191.36	54.94	-44.6	-46.9	24.5	6.02e-01	0	39	0	641204224	61	4543
2026-01-21 01:26:40.48	191.45	54.50	-44.6	-47.0	24.5	6.05e-01	0	39	0	642777088	61	4569
2026-01-21 01:26:41.47	191.53	54.06	-44.5	-46.8	24.6	6.00e-01	0	39	0	644874240	61	4480
2026-01-21 01:26:42.47	191.62	53.62	-44.2	-46.5	24.9	6.07e-01	0	39	0	646447104	60	4580
2026-01-21 01:26:43.46	191.70	53.19	-44.2	-46.6	24.9	6.04e-01	0	39	0	648544256	60	4639
2026-01-21 01:26:44.45	191.78	52.77	-44.1	-46.5	24.9	6.01e-01	0	39	0	650117120	60	4561
2026-01-21 01:26:45.45	191.85	52.34	-44.2	-46.6	24.9	6.01e-01	0	39	0	652214272	60	4614
2026-01-21 01:26:46.44	191.93	51.92	-44.2	-46.7	24.8	6.01e-01	0	39	0	654311424	60	4655
2026-01-21 01:26:47.44	192.00	51.50	-44.2	-46.6	24.8	6.03e-01	0	39	0	655884288	60	4626
2026-01-21 01:26:48.43	192.07	51.09	-44.7	-47.1	24.5	6.03e-01	0	39	0	657981440	60	4892
2026-01-21 01:26:49.43	192.14	50.68	-44.9	-47.3	24.3	6.02e-01	0	39	0	659554304	60	5037
2026-01-21 01:26:50.42	192.21	50.28	-45.0	-47.4	24.1	6.03e-01	0	39	0	661651456	60	5096
2026-01-21 01:26:51.42	192.27	49.87	-45.1	-47.6	24.0	6.03e-01	0	39	0	663224320	60	5191
2026-01-21 01:26:52.41	192.33	49.48	-45.1	-47.6	24.0	6.00e-01	0	39	0	665321472	61	4886
2026-01-21 01:26:53.41	192.40	49.08	-44.9	-47.3	24.2	6.02e-01	0	39	0	666894336	61	4752
2026-01-21 01:26:54.40	192.46	48.69	-45.0	-47.4	24.1	6.04e-01	0	39	0	668991488	61	4813
2026-01-21 01:26:55.40	192.52	48.30	-45.2	-47.7	24.0	6.03e-01	0	39	0	671088640	61	4929
2026-01-21 01:26:56.39	192.57	47.92	-45.4	-47.9	23.8	6.02e-01	0	39	0	672661504	61	5056
2026-01-21 01:26:57.39	192.63	47.54	-45.3	-47.8	23.8	6.01e-01	0	39	0	674758656	61	5023
2026-01-21 01:26:58.38	192.68	47.16	-45.2	-47.7	23.9	6.03e-01	0	39	0	676331520	61	4978
2026-01-21 01:26:59.38	192.74	46.79	-45.2	-47.7	23.9	6.02e-01	0	39	0	678428672	61	4959
2026-01-21 01:27:00.37	192.79	46.42	-45.2	-47.7	23.8	6.03e-01	0	39	0	680001536	61	4983
2026-01-21 01:27:01.37	192.84	46.05	-45.2	-47.7	23.8	6.01e-01	0	39	0	682098688	61	4977
2026-01-21 01:27:02.36	192.89	45.69	-45.3	-47.8	23.9	6.01e-01	0	39	0	683671552	61	5000
2026-01-21 01:27:03.36	192.94	45.33	-45.2	-47.7	23.9	6.04e-01	0	39	0	685768704	61	4958
2026-01-21 01:27:04.35	192.99	44.97	-45.3	-47.7	23.9	6.01e-01	0	39	0	687865856	61	4950
2026-01-21 01:27:05.34	193.04	44.62	-45.2	-47.7	24.0	6.02e-01	0	39	0	689438720	61	4932
2026-01-21 01:27:06.34	193.08	44.27	-45.3	-47.7	23.9	6.05e-01	0	39	0	691535872	61	4968
2026-01-21 01:27:07.33	193.13	43.93	-45.2	-47.7	23.9	6.05e-01	0	39	0	693108736	61	4931
2026-01-21 01:27:08.33	193.17	43.58	-45.3	-47.8	23.8	5.99e-01	0	39	0	695205888	61	5018
2026-01-21 01:27:09.32	193.22	43.24	-45.4	-47.9	23.8	6.03e-01	0	39	0	696778752	61	5055
2026-01-21 01:27:10.31	193.26	42.91	-45.4	-47.9	23.7	6.03e-01	0	39	0	698875904	61	5091
2026-01-21 01:27:11.31	193.30	42.57	-45.5	-48.0	23.6	6.04e-01	0	39	0	700448768	61	5125
2026-01-21 01:27:12.30	193.34	42.24	-45.4	-48.0	23.7	6.05e-01	0	39	0	702545920	61	5106
2026-01-21 01:27:13.30	193.38	41.91	-45.5	-48.1	23.6	6.01e-01	0	39	0	704643072	61	5169
2026-01-21 01:27:14.29	193.42	41.59	-45.7	-48.3	23.4	6.01e-01	0	39	0	706215936	61	5302
2026-01-21 01:27:15.29	193.46	41.27	-46.0	-48.7	23.1	6.02e-01	0	39	0	708313088	62	5222
2026-01-21 01:27:16.28	193.50	40.95	-46.3	-49.0	22.8	6.00e-01	0	39	0	709885952	63	5101
2026-01-21 01:27:17.27	193.54	40.63	-46.4	-49.1	22.7	6.02e-01	0	39	0	711983104	63	5177
2026-01-21 01:27:18.27	193.57	40.32	-46.2	-48.9	22.8	6.03e-01	0	39	0	713555968	63	5047
2026-01-21 01:27:19.26	193.61	40.01	-46.1	-48.7	23.0	6.04e-01	0	39	0	715653120	63	4957
2026-01-21 01:27:20.26	193.64	39.70	-46.0	-48.7	23.0	6.02e-01	0	39	0	717225984	63	4944
2026-01-21 01:27:21.25	193.68	39.40	-46.1	-48.8	23.0	6.03e-01	0	39	0	719323136	63	4986
2026-01-21 01:27:22.25	193.71	39.10	-46.2	-48.9	22.9	6.00e-01	0	39	0	721420288	63	5068
2026-01-21 01:27:23.24	193.75	38.80	-46.3	-49.0	22.8	6.03e-01	0	39	0	722993152	63	5151
2026-01-21 01:27:24.24	193.78	38.50	-46.3	-49.0	22.7	6.04e-01	0	39	0	725090304	63	5155
2026-01-21 01:27:25.23	193.81	38.21	-46.3	-49.1	22.7	6.02e-01	0	39	0	726663168	63	5163
2026-01-21 01:27:26.23	193.84	37.92	-46.4	-49.2	22.7	6.01e-01	0	39	0	728760320	63	5219
2026-01-21 01:27:27.22	193.88	37.63	-46.4	-49.1	22.7	6.02e-01	0	39	0	730333184	63	5216
2026-01-21 01:27:28.22	193.91	37.34	-46.3	-49.0	22.8	6.01e-01	0	39	0	732430336	63	5127
2026-01-21 01:27:29.21	193.94	37.06	-46.2	-48.8	22.9	6.02e-01	0	39	0	734003200	63	5026
2026-01-21 01:27:30.21	193.97	36.78	-46.0	-48.6	23.2	6.00e-01	0	39	0	736100352	63	4887
2026-01-21 01:27:31.20	194.00	36.50	-45.9	-48.5	23.2	6.04e-01	0	39	0	738197504	63	4857
2026-01-21 01:27:32.20	194.03	36.22	-45.8	-48.4	23.4	6.03e-01	0	39	0	739770368	63	4770
2026-01-21 01:27:33.19	194.06	35.95	-45.6	-48.1	23.6	6.03e-01	0	39	0	741867520	63	4621
2026-01-21 01:27:34.18	194.08	35.68	-45.4	-47.9	23.7	6.01e-01	0	39	0	743440384	62	4806
2026-01-21 01:27:35.18	194.11	35.41	-45.4	-47.8	23.8	6.04e-01	0	39	0	745537536	62	4749
2026-01-21 01:27:36.18	194.14	35.15	-45.4	-47.9	23.8	6.04e-01	0	39	0	747110400	62	4785
2026-01-21 01:27:37.17	194.17	34.88	-45.5	-48.0	23.7	6.02e-01	0	39	0	749207552	62	4825
2026-01-21 01:27:38.17	194.19	34.62	-45.5	-48.0	23.7	6.03e-01	0	39	0	750780416	62	4847
2026-01-21 01:27:39.16	194.22	34.36	-45.4	-47.9	23.8	6.01e-01	0	39	0	752877568	62	4797
2026-01-21 01:27:40.15	194.24	34.11	-45.3	-47.7	24.0	6.03e-01	0	39	0	754974720	62	4699
2026-01-21 01:27:41.15	194.27	33.85	-45.0	-47.5	24.2	6.02e-01	0	39	0	756547584	62	4560
2026-01-21 01:27:42.14	194.30	33.60	-44.7	-47.1	24.5	6.03e-01	0	39	0	758644736	61	4635
2026-01-21 01:27:43.14	194.32	33.35	-44.6	-47.0	24.6	5.99e-01	0	39	0	760217600	61	4548
2026-01-21 01:27:44.14	194.34	33.10	-44.3	-46.6	24.8	6.05e-01	0	39	0	762314752	60	4648
2026-01-21 01:27:45.13	194.37	32.86	-44.2	-46.5	24.9	6.03e-01	0	39	0	763887616	60	4594
2026-01-21 01:27:46.12	194.39	32.61	-44.2	-46.5	24.9	6.04e-01	0	39	0	765984768	60	4585
2026-01-21 01:27:47.12	194.42	32.37	-44.2	-46.6	24.9	6.02e-01	0	39	0	767557632	60	4605
2026-01-21 01:27:48.11	194.44	32.13	-44.2	-46.6	24.8	5.99e-01	0	39	0	769654784	60	4629
2026-01-21 01:27:49.11	194.46	31.89	-44.3	-46.7	24.7	6.03e-01	0	39	0	771751936	60	4697
2026-01-21 01:27:50.10	194.48	31.66	-44.4	-46.8	24.8	6.02e-01	0	39	0	773324800	60	4733
2026-01-21 01:27:51.10	194.51	31.43	-44.5	-47.0	24.6	6.01e-01	0	39	0	775421952	60	4815
2026-01-21 01:27:52.09	194.53	31.20	-44.6	-47.0	24.6	6.02e-01	0	39	0	776994816	60	4835
2026-01-21 01:27:53.09	194.55	30.96	-44.6	-46.9	24.6	6.04e-01	0	39	0	779091968	60	4814
2026-01-21 01:27:54.08	194.57	30.74	-44.5	-46.9	24.6	6.02e-01	0	39	0	780664832	60	4786
2026-01-21 01:27:55.08	194.59	30.51	-44.5	-46.8	24.7	6.03e-01	0	39	0	782761984	60	4746
2026-01-21 01:27:56.07	194.61	30.29	-44.5	-46.9	24.7	6.01e-01	0	39	0	784334848	60	4762
2026-01-21 01:27:57.07	194.64	30.07	-44.4	-46.7	24.8	6.00e-01	0	39	0	786432000	60	4663
2026-01-21 01:27:58.06	194.66	29.85	-44.3	-46.6	24.8	6.02e-01	0	39	0	788529152	60	4644
2026-01-21 01:27:59.06	194.68	29.63	-44.4	-46.7	24.8	6.04e-01	0	39	0	790102016	60	4698
2026-01-21 01:28:00.05	194.70	29.41	-44.4	-46.8	24.7	6.01e-01	0	39	0	792199168	60	4712
2026-01-21 01:28:01.04	194.72	29.20	-44.5	-46.9	24.6	6.04e-01	0	39	0	793772032	60	4781
2026-01-21 01:28:02.03	194.74	28.99	-44.5	-46.9	24.6	6.04e-01	0	39	0	795869184	60	4766
2026-01-21 01:28:03.03	194.75	28.77	-44.5	-46.8	24.6	6.03e-01	0	39	0	797442048	60	4733
2026-01-21 01:28:04.03	194.77	28.56	-44.4	-46.7	24.7	6.04e-01	0	39	0	799539200	60	4702
2026-01-21 01:28:05.02	194.79	28.36	-44.4	-46.7	24.7	6.02e-01	0	39	0	801112064	60	4696
2026-01-21 01:28:06.02	194.81	28.15	-44.3	-46.6	24.8	6.00e-01	0	39	0	803209216	60	4622
2026-01-21 01:28:07.01	194.83	27.94	-44.3	-46.6	24.8	6.02e-01	0	39	0	805306368	60	4630
2026-01-21 01:28:08.00	194.85	27.74	-44.3	-46.6	24.8	6.04e-01	0	39	0	806879232	60	4651
2026-01-21 01:28:09.00	194.87	27.54	-44.5	-46.8	24.6	6.01e-01	0	39	0	808976384	60	4746
2026-01-21 01:28:09.99	194.88	27.34	-44.5	-46.9	24.6	6.02e-01	0	39	0	810549248	60	4764
2026-01-21 01:28:10.99	194.90	27.14	-44.7	-47.1	24.4	6.02e-01	0	39	0	812646400	60	4873
2026-01-21 01:28:11.98	194.92	26.95	-44.7	-47.1	24.4	6.02e-01	0	39	0	814219264	60	4899
2026-01-21 01:28:12.98	194.94	26.75	-44.8	-47.3	24.2	6.01e-01	0	39	0	816316416	60	4984
2026-01-21 01:28:13.97	194.95	26.56	-44.8	-47.3	24.2	6.02e-01	0	39	0	817889280	60	4997
2026-01-21 01:28:14.97	194.97	26.36	-44.9	-47.4	24.2	6.00e-01	0	39	0	819986432	60	5062
2026-01-21 01:28:15.96	194.99	26.17	-45.0	-47.4	24.1	6.04e-01	0	39	0	822083584	60	5086
2026-01-21 01:28:16.96	195.00	25.98	-45.0	-47.4	24.1	6.02e-01	0	39	0	823656448	60	5093
2026-01-21 01:28:17.96	195.02	25.79	-45.1	-47.5	24.0	6.01e-01	0	39	0	825753600	60	5144
2026-01-21 01:28:18.95	195.04	25.61	-45.1	-47.6	24.0	6.03e-01	0	39	0	827326464	60	5167
2026-01-21 01:28:19.94	195.05	25.42	-45.1	-47.6	23.9	6.03e-01	0	39	0	829423616	60	5195
2026-01-21 01:28:20.94	195.07	25.24	-45.2	-47.7	23.9	6.03e-01	0	39	0	831520768	60	5235
2026-01-21 01:28:21.94	195.09	25.06	-45.3	-47.8	23.8	6.03e-01	0	39	0	833093632	61	4997
2026-01-21 01:28:22.93	195.10	24.88	-45.3	-47.9	23.7	6.03e-01	0	39	0	835190784	61	5046
2026-01-21 01:28:23.93	195.12	24.70	-45.4	-47.9	23.6	6.00e-01	0	39	0	836763648	61	5099
2026-01-21 01:28:24.92	195.13	24.52	-45.4	-48.0	23.6	6.05e-01	0	39	0	838860800	61	5104
2026-01-21 01:28:25.92	195.15	24.34	-45.5	-48.1	23.5	6.02e-01	0	39	0	840433664	61	5190
2026-01-21 01:28:26.91	195.16	24.16	-45.5	-48.1	23.4	6.04e-01	0	39	0	842530816	61	5203
2026-01-21 01:28:27.91	195.18	23.99	-45.5	-48.1	23.5	6.00e-01	0	39	0	844103680	61	5174
2026-01-21 01:28:28.90	195.19	23.82	-45.4	-48.0	23.6	6.03e-01	0	39	0	846200832	61	5101
2026-01-21 01:28:29.90	195.21	23.64	-45.4	-47.9	23.6	6.00e-01	0	39	0	848297984	61	5096
2026-01-21 01:28:30.89	195.22	23.47	-45.3	-47.9	23.6	6.02e-01	0	39	0	849870848	61	5081
2026-01-21 01:28:31.89	195.24	23.30	-45.4	-47.9	23.6	6.03e-01	0	39	0	851968000	61	5075
2026-01-21 01:28:32.88	195.25	23.14	-45.4	-47.9	23.5	6.03e-01	0	39	0	853540864	61	5077
2026-01-21 01:28:33.88	195.26	22.97	-45.3	-47.9	23.6	6.02e-01	0	39	0	855638016	61	5073
2026-01-21 01:28:34.87	195.28	22.80	-45.4	-47.9	23.5	6.04e-01	0	39	0	857210880	61	5098
2026-01-21 01:28:35.86	195.29	22.64	-45.3	-47.9	23.6	6.02e-01	0	39	0	859308032	61	5071
2026-01-21 01:28:36.86	195.31	22.47	-45.3	-47.9	23.5	6.02e-01	0	39	0	860880896	61	5087
2026-01-21 01:28:37.85	195.32	22.31	-45.3	-47.9	23.2	6.02e-01	0	39	0	862978048	61	5069
2026-01-21 01:28:38.85	195.33	22.15	-45.3	-47.9	23.6	6.02e-01	0	39	0	865075200	61	5060
2026-01-21 01:28:39.84	195.35	21.99	-45.1	-47.7	23.8	6.03e-01	0	39	0	866648064	61	4942
2026-01-21 01:28:40.84	195.36	21.83	-45.1	-47.6	23.8	6.02e-01	0	39	0	868745216	61	4908
2026-01-21 01:28:41.83	195.37	21.67	-45.1	-47.7	23.8	6.02e-01	0	39	0	870318080	61	4942
2026-01-21 01:28:42.82	195.39	21.52	-45.2	-47.7	23.7	6.03e-01	0	39	0	872415232	61	4976
2026-01-21 01:28:43.82	195.40	21.36	-45.2	-47.7	23.7	6.03e-01	0	39	0	873988096	61	4955
2026-01-21 01:28:44.81	195.41	21.21	-45.1	-47.7	23.8	6.04e-01	0	39	0	876085248	61	4929
2026-01-21 01:28:45.81	195.42	21.05	-45.2	-47.8	23.7	5.98e-01	0	39	0	877658112	61	4991
2026-01-21 01:28:46.80	195.44	20.90	-45.2	-47.8	23.7	6.03e-01	0	39	0	879755264	61	5001
2026-01-21 01:28:47.79	195.45	20.75	-45.1	-47.7	23.7	6.02e-01	0	39	0	881852416	61	4955
2026-01-21 01:28:48.79	195.46	20.60	-45.2	-47.8	23.7	6.01e-01	0	39	0	883425280	61	4995
2026-01-21 01:28:49.78	195.48	20.45	-45.2	-47.7	23.7	6.03e-01	0	39	0	885522432	61	4975
2026-01-21 01:28:50.78	195.49	20.30	-45.2	-47.8	23.7	6.05e-01	0	39	0	887095296	61	5000
2026-01-21 01:28:51.77	195.50	20.15	-45.1	-47.7	23.7	6.02e-01	0	39	0	889192448	61	4962
2026-01-21 01:28:52.77	195.51	20.00	-45.2	-47.8	23.7	6.03e-01	0	39	0	890765312	61	4986
2026-01-21 01:28:53.76	195.52	19.86	-45.2	-47.8	23.6	6.04e-01	0	39	0	892862464	61	5026
2026-01-21 01:28:54.76	195.54	19.71	-45.2	-47.8	23.6	6.03e-01	0	39	0	894435328	61	5020
2026-01-21 01:28:55.75	195.55	19.57	-45.1	-47.7	23.7	6.01e-01	0	39	0	896532480	61	4975
2026-01-21 01:28:56.74	195.56	19.42	-45.1	-47.7	23.7	6.01e-01	0	39	0	898629632	61	4963
2026-01-21 01:28:57.74	195.57	19.28	-45.1	-47.8	23.6	6.04e-01	0	39	0	900202496	61	5000
2026-01-21 01:28:58.73	195.58	19.14	-45.0	-47.7	23.7	6.03e-01	0	39	0	902299648	61	4942
2026-01-21 01:28:59.73	195.59	19.00	-45.0	-47.7	23.7	6.03e-01	0	39	0	903872512	61	4962
2026-01-21 01:29:00.73	195.61	18.86	-45.0	-47.7	23.7	6.00e-01	0	39	0	905969664	61	4950
2026-01-21 01:29:01.72	195.62	18.72	-45.0	-47.7	23.7	6.02e-01	0	39	0	907542528	61	4940
2026-01-21 01:29:02.72	195.63	18.58	-45.0	-47.7	23.7	6.04e-01	0	39	0	909639680	61	4958
2026-01-21 01:29:03.71	195.64	18.45	-45.0	-47.7	23.6	5.99e-01	0	39	0	911212544	61	4978
2026-01-21 01:29:04.70	195.65	18.31	-45.0	-47.7	23.7	6.04e-01	0	39	0	913309696	61	4932
2026-01-21 01:29:05.70	195.66	18.17	-44.9	-47.6	23.7	6.04e-01	0	39	0	915406848	61	4926
2026-01-21 01:29:06.69	195.67	18.04	-45.0	-47.7	23.7	5.99e-01	0	39	0	916979712	61	4940
2026-01-21 01:29:07.68	195.68	17.91	-45.0	-47.7	23.7	6.00e-01	0	39	0	919076864	61	4947
2026-01-21 01:29:08.68	195.69	17.77	-45.0	-47.8	23.6	6.02e-01	0	39	0	920649728	61	4985
2026-01-21 01:29:09.67	195.71	17.64	-45.0	-47.7	23.7	6.02e-01	0	39	0	922746880	61	4965
2026-01-21 01:29:10.67	195.72	17.51	-45.0	-47.7	23.7	6.01e-01	0	39	0	924319744	61	4955
2026-01-21 01:29:11.66	195.73	17.38	-45.0	-47.7	23.6	6.01e-01	0	39	0	926416896	61	4983
2026-01-21 01:29:12.65	195.74	17.25	-45.0	-47.7	23.6	6.02e-01	0	39	0	927989760	61	4972
2026-01-21 01:29:13.65	195.75	17.12	-45.0	-47.7	23.7	6.02e-01	0	39	0	930086912	61	4957
2026-01-21 01:29:14.64	195.76	16.99	-45.0	-47.7	23.6	6.02e-01	0	39	0	932184064	61	4975
2026-01-21 01:29:15.64	195.77	16.86	-45.0	-47.7	23.7	6.01e-01	0	39	0	933756928	61	4952
2026-01-21 01:29:16.63	195.78	16.74	-45.0	-47.7	23.7	6.00e-01	0	39	0	935854080	61	4949
2026-01-21 01:29:17.62	195.79	16.61	-45.0	-47.7	23.6	6.06e-01	0	39	0	937426944	61	4974
2026-01-21 01:29:18.62	195.80	16.48	-45.0	-47.8	23.5	6.03e-01	0	39	0	939524096	61	5008
2026-01-21 01:29:19.61	195.81	16.36	-44.9	-47.7	23.7	6.04e-01	0	39	0	941096960	61	4930
2026-01-21 01:29:20.61	195.82	16.23	-44.9	-47.7	23.6	6.03e-01	0	39	0	943194112	61	4946
2026-01-21 01:29:21.60	195.83	16.11	-45.0	-47.7	23.6	6.03e-01	0	39	0	944766976	61	4967
2026-01-21 01:29:22.60	195.84	15.99	-44.9	-47.7	23.6	6.01e-01	0	39	0	946864128	61	4946
2026-01-21 01:29:23.60	195.85	15.87	-44.8	-47.6	23.7	6.01e-01	0	39	0	948961280	61	4895
2026-01-21 01:29:24.59	195.86	15.74	-44.9	-47.6	23.7	6.02e-01	0	39	0	950534144	61	4900
2026-01-21 01:29:25.59	195.87	15.62	-44.8	-47.6	23.7	6.04e-01	0	39	0	952631296	61	4896
2026-01-21 01:29:26.58	195.88	15.50	-44.8	-47.6	23.7	6.03e-01	0	39	0	954204160	61	4872
2026-01-21 01:29:27.58	195.89	15.38	-44.8	-47.5	23.8	6.05e-01	0	39	0	956301312	61	4860
2026-01-21 01:29:28.57	195.90	15.27	-44.8	-47.5	23.7	6.04e-01	0	39	0	957874176	61	4848
2026-01-21 01:29:29.57	195.91	15.15	-44.8	-47.6	23.7	6.02e-01	0	39	0	959971328	61	4875
2026-01-21 01:29:30.56	195.92	15.03	-44.8	-47.5	23.7	6.03e-01	0	39	0	961544192	61	4867
2026-01-21 01:29:31.56	195.93	14.91	-44.8	-47.5	23.8	6.03e-01	0	39	0	963641344	61	4860
2026-01-21 01:29:32.56	195.93	14.79	-44.8	-47.5	23.8	6.02e-01	0	39	0	965738496	61	4827
2026-01-21 01:29:33.55	195.94	14.68	-44.7	-47.4	23.8	6.00e-01	0	39	0	967311360	61	4795
2026-01-21 01:29:34.55	195.95	14.56	-44.7	-47.4	23.9	6.04e-01	0	39	0	969408512	61	4790
2026-01-21 01:29:35.54	195.96	14.45	-44.7	-47.4	23.8	6.03e-01	0	39	0	970981376	61	4812
2026-01-21 01:29:36.54	195.97	14.34	-44.7	-47.4	23.8	6.00e-01	0	39	0	973078528	61	4807
2026-01-21 01:29:37.53	195.98	14.22	-44.6	-47.3	23.9	6.02e-01	0	39	0	974651392	61	4741
2026-01-21 01:29:38.53	195.99	14.11	-44.6	-47.3	23.9	6.03e-01	0	39	0	976748544	61	4744
2026-01-21 01:29:39.52	196.00	14.00	-44.6	-47.3	23.9	6.05e-01	0	39	0	978321408	61	4759
2026-01-21 01:29:40.51	196.01	13.89	-44.6	-47.3	24.0	6.03e-01	0	39	0	980418560	61	4707
2026-01-21 01:29:41.51	196.02	13.77	-44.6	-47.3	23.9	6.03e-01	0	39	0	982515712	61	4719
2026-01-21 01:29:42.50	196.03	13.67	-44.6	-47.3	23.9	6.00e-01	0	39	0	984088576	61	4733
2026-01-21 01:29:43.50	196.03	13.55	-44.6	-47.3	23.9	6.00e-01	0	39	0	986185728	61	4730
2026-01-21 01:29:44.49	196.04	13.45	-44.6	-47.3	23.9	6.04e-01	0	39	0	987758592	61	4713
2026-01-21 01:29:45.49	196.05	13.34	-44.6	-47.3	23.9	6.04e-01	0	39	0	989855744	61	4706
2026-01-21 01:29:46.48	196.06	13.23	-44.6	-47.2	23.9	6.01e-01	0	39	0	991428608	61	4684
2026-01-21 01:29:47.48	196.07	13.12	-44.6	-47.2	24.0	6.04e-01	0	39	0	993525760	61	4680
2026-01-21 01:29:48.47	196.08	13.01	-44.5	-47.2	24.0	6.01e-01	0	39	0	995098624	61	4673
2026-01-21 01:29:49.46	196.09	12.91	-44.6	-47.3	23.9	6.02e-01	0	39	0	997195776	61	4724
2026-01-21 01:29:50.46	196.09	12.80	-44.5	-47.2	23.9	6.01e-01	0	39	0	999292928	61	4663
2026-01-21 01:29:51.45	196.10	12.70	-44.6	-47.3	23.8	6.02e-01	0	39	0	1000865792	61	4737
2026-01-21 01:29:52.45	196.11	12.59	-44.6	-47.3	23.8	6.01e-01	0	39	0	1002962944	61	4755
2026-01-21 01:29:53.44	196.12	12.49	-44.6	-47.4	23.8	6.01e-01	0	39	0	1004535808	61	4763
2026-01-21 01:29:54.44	196.13	12.38	-44.6	-47.3	23.8	6.04e-01	0	39	0	1006632960	61	4728
2026-01-21 01:29:55.43	196.14	12.28	-44.6	-47.4	23.8	6.00e-01	0	39	0	1008205824	61	4764
2026-01-21 01:29:56.42	196.14	12.18	-44.7	-47.4	23.7	6.05e-01	0	39	0	1010302976	61	4800
2026-01-21 01:29:57.42	196.15	12.07	-44.6	-47.4	23.7	6.00e-01	0	39	0	1011875840	61	4789
2026-01-21 01:29:58.41	196.16	11.97	-44.6	-47.4	23.7	6.04e-01	0	39	0	1013972992	61	4781
2026-01-21 01:29:59.41	196.17	11.87	-44.7	-47.4	23.6	6.03e-01	0	39	0	1016070144	61	4809
2026-01-21 01:30:00.40	196.18	11.77	-44.7	-47.5	23.6	6.02e-01	0	39	0	1017643008	61	4823
2026-01-21 01:30:01.40	196.18	11.67	-44.8	-47.7	23.5	6.04e-01	0	39	0	1019740160	61	4937
2026-01-21 01:30:02.39	196.19	11.57	-44.8	-47.5	23.6	6.05e-01	0	39	0	1021313024	61	4869
2026-01-21 01:30:03.39	196.20	11.47	-44.8	-47.7	23.3	6.03e-01	0	39	0	1023410176	61	4938
2026-01-21 01:30:04.38	196.21	11.37	-44.8	-47.7	23.4	6.03e-01	0	39	0	1024983040	61	4935
2026-01-21 01:30:05.38	196.22	11.27	-44.9	-47.7	23.4	6.01e-01	0	39	0	1027080192	61	4981
2026-01-21 01:30:06.37	196.22	11.17	-44.8	-47.6	23.4	6.04e-01	0	39	0	1028653056	61	4916
2026-01-21 01:30:07.36	196.23	11.07	-44.9	-47.7	23.3	6.03e-01	0	39	0	1030750208	61	4974
2026-01-21 01:30:08.36	196.24	10.97	-44.9	-47.8	23.3	6.02e-01	0	39	0	1032847360	61	5003
2026-01-21 01:30:09.35	196.25	10.88	-45.0	-47.8	23.2	6.03e-01	0	39	0	1034420224	61	5041
2026-01-21 01:30:10.35	196.25	10.78	-45.0	-47.9	23.1	6.03e-01	0	39	0	1036517376	61	5066
2026-01-21 01:30:11.34	196.26	10.68	-45.0	-47.9	23.2	6.03e-01	0	39	0	1038090240	61	5079
2026-01-21 01:30:12.34	196.27	10.59	-45.1	-48.0	23.1	6.05e-01	0	39	0	1040187392	61	5111
2026-01-21 01:30:13.33	196.28	10.49	-45.1	-48.0	23.1	6.01e-01	0	39	0	1041760256	61	5109
2026-01-21 01:30:14.33	196.29	10.40	-45.0	-47.9	23.1	6.05e-01	0	39	0	1043857408	61	5060
2026-01-21 01:30:15.32	196.29	10.30	-45.0	-47.9	23.1	6.02e-01	0	39	0	1045430272	61	5075
2026-01-21 01:30:16.32	196.30	10.21	-45.1	-48.0	23.1	6.02e-01	0	39	0	1047527424	61	5132
2026-01-21 01:30:17.32	196.31	10.11	-45.1	-48.0	23.0	6.01e-01	0	39	0	1049624576	61	5140
2026-01-21 01:30:18.31	196.31	10.02	-45.1	-48.0	23.0	6.03e-01	0	39	0	1051197440	61	5152
2026-01-21 01:30:19.31	196.32	9.93	-45.2	-48.1	22.9	6.04e-01	0	39	0	1053294592	61	5186
2026-01-21 01:30:20.30	196.33	9.83	-45.2	-48.1	23.0	6.04e-01	0	39	0	1054867456	61	5174
2026-01-21 01:30:21.30	196.34	9.74	-45.2	-48.1	22.9	6.02e-01	0	39	0	1056964608	61	5183
2026-01-21 01:30:22.29	196.34	9.65	-45.3	-48.2	22.8	6.02e-01	0	39	0	1058537472	61	5278
2026-01-21 01:30:23.29	196.35	9.56	-45.2	-48.2	22.8	6.02e-01	0	39	0	1060634624	61	5246
2026-01-21 01:30:24.28	196.36	9.47	-45.2	-48.2	22.8	5.99e-01	0	39	0	1062207488	61	5270
2026-01-21 01:30:25.28	196.37	9.37	-45.3	-48.4	22.7	6.02e-01	0	39	0	1064304640	61	5348
2026-01-21 01:30:26.27	196.37	9.28	-45.3	-48.3	22.7	6.03e-01	0	39	0	1066401792	61	5309
2026-01-21 01:30:27.26	196.38	9.19	-45.2	-48.3	22.7	6.01e-01	0	39	0	1067974656	61	5287
2026-01-21 01:30:28.26	196.39	9.10	-45.3	-48.3	22.7	6.04e-01	0	39	0	1070071808	61	5320
2026-01-21 01:30:29.25	196.39	9.02	-45.3	-48.4	22.6	6.02e-01	0	39	0	1071644672	61	5376
2026-01-21 01:30:30.25	196.40	8.93	-51.1	-70.8	3.7	7.55e-01	0	39	104	1073217536	72	37686
2026-01-21 01:30:31.24	196.41	8.84	-51.9	-72.5	3.9	7.47e-01	0	39	104	1073217536	74	40585
2026-01-21 01:30:32.23	196.42	8.75	-52.3	-72.9	3.8	7.44e-01	0	39	104	1073217536	75	40065
2026-01-21 01:30:33.23	196.42	8.66	-52.7	-72.9	3.8	7.43e-01	0	39	104	1073217536	75	40413
2026-01-21 01:30:34.22	196.43	8.57	-52.8	-73.0	3.8	7.45e-01	0	39	104	1073217536	76	38620
2026-01-21 01:30:35.21	196.44	8.49	-53.0	-73.1	3.8	7.48e-01	0	39	104	1073217536	76	38915
2026-01-21 01:30:36.21	196.44	8.40	-53.1	-73.1	3.8	7.48e-01	0	39	104	1073217536	76	39053
2026-01-21 01:30:37.20	196.45	8.31	-53.1	-73.2	3.8	7.45e-01	0	39	104	1073217536	77	36969
2026-01-21 01:30:38.19	196.46	8.23	-53.0	-73.2	3.8	7.46e-01	0	39	104	1073217536	77	37088
2026-01-21 01:30:39.18	196.46	8.14	-53.1	-73.2	3.8	7.46e-01	0	39	104	1073217536	77	37184
2026-01-21 01:30:40.18	196.47	8.06	-53.2	-73.2	3.8	7.47e-01	0	39	104	1073217536	77	37291
2026-01-21 01:30:41.17	196.48	7.97	-53.0	-73.2	3.8	7.48e-01	0	39	104	1073217536	76	39500
2026-01-21 01:30:42.16	196.48	7.89	-53.4	-73.2	3.8	7.42e-01	0	39	104	1073217536	77	37234
2026-01-21 01:30:43.16	196.49	7.80	-53.1	-73.3	3.8	7.45e-01	0	39	104	1073217536	77	37416
2026-01-21 01:30:44.15	196.50	7.72	-53.3	-73.2	3.8	7.46e-01	0	39	104	1073217536	77	37265
2026-01-21 01:30:45.14	196.50	7.63	-53.1	-73.2	3.8	7.45e-01	0	39	104	1073217536	77	37256
2026-01-21 01:30:46.13	196.51	7.55	-52.6	-73.2	3.8	7.45e-01	0	39	104	1073217536	77	37243
2026-01-21 01:30:47.13	196.52	7.47	-53.4	-73.2	3.8	7.44e-01	0	39	104	1073217536	77	37236
2026-01-21 01:30:48.12	196.52	7.38	-53.2	-73.2	3.8	7.49e-01	0	39	104	1073217536	77	37116
2026-01-21 01:30:49.11	196.53	7.30	-53.1	-73.2	3.8	7.46e-01	0	39	104	1073217536	76	39428
2026-01-21 01:30:50.11	196.54	7.22	-52.9	-73.2	3.8	7.47e-01	0	39	104	1073217536	77	37254
2026-01-21 01:30:51.10	196.54	7.14	-52.9	-73.2	3.8	7.45e-01	0	39	104	1073217536	77	37284
2026-01-21 01:30:52.09	196.55	7.06	-52.3	-73.2	3.7	7.48e-01	0	39	104	1073217536	76	39359
2026-01-21 01:30:53.09	196.56	6.97	-52.7	-73.2	3.8	7.47e-01	0	39	104	1073217536	76	39351
2026-01-21 01:30:54.08	196.56	6.89	-52.7	-73.2	3.8	7.48e-01	0	39	104	1073217536	76	39196
2026-01-21 01:30:55.07	196.57	6.81	-52.7	-73.2	3.8	7.47e-01	0	39	104	1073217536	76	39179
2026-01-21 01:30:56.07	196.58	6.73	-52.7	-73.2	3.8	7.46e-01	0	39	104	1073217536	76	39183
2026-01-21 01:30:57.06	196.58	6.65	-52.7	-73.1	3.8	7.42e-01	0	39	104	1073217536	76	39112
2026-01-21 01:30:58.05	196.59	6.57	-52.7	-73.2	3.8	7.47e-01	0	39	104	1073217536	76	39205
2026-01-21 01:30:59.05	196.59	6.49	-52.7	-73.2	3.8	7.47e-01	0	39	104	1073217536	76	39151
2026-01-21 01:31:00.04	196.60	6.41	-52.7	-73.2	3.8	7.45e-01	0	39	104	1073217536	76	39169
2026-01-21 01:31:01.03	196.61	6.33	-52.7	-73.2	3.8	7.51e-01	0	39	104	1073217536	76	39186
2026-01-21 01:31:02.02	196.61	6.25	-52.7	-73.2	3.8	7.46e-01	0	39	104	1073217536	76	39171
2026-01-21 01:31:03.02	196.62	6.17	-52.7	-73.2	3.8	7.41e-01	0	39	104	1073217536	76	39222
2026-01-21 01:31:04.01	196.63	6.10	-52.7	-73.2	3.8	7.49e-01	0	39	104	1073217536	76	39235
2026-01-21 01:31:05.00	196.63	6.02	-52.7	-73.2	3.8	7.46e-01	0	39	104	1073217536	76	39237
2026-01-21 01:31:06.00	196.64	5.94	-52.7	-73.2	3.8	7.44e-01	0	39	104	1073217536	76	39321
2026-01-21 01:31:06.99	196.64	5.86	-52.7	-73.2	3.8	7.46e-01	0	39	104	1073217536	76	39225
2026-01-21 01:31:07.98	196.65	5.78	-52.7	-73.2	3.8	7.45e-01	0	39	104	1073217536	76	39306
2026-01-21 01:31:08.98	196.66	5.71	-52.7	-73.2	3.8	7.45e-01	0	39	104	1073217536	76	39382
2026-01-21 01:31:09.97	196.66	5.63	-52.7	-73.2	3.8	7.45e-01	0	39	104	1073217536	76	39389
2026-01-21 01:31:10.96	196.67	5.55	-52.7	-73.2	3.8	7.45e-01	0	39	104	1073217536	76	39269
2026-01-21 01:31:11.96	196.67	5.48	-52.7	-73.2	3.8	7.46e-01	0	39	104	1073217536	76	39267
2026-01-21 01:31:12.95	196.68	5.40	-52.7	-73.2	3.8	7.47e-01	0	39	104	1073217536	76	39388
2026-01-21 01:31:13.94	196.69	5.32	-52.7	-73.2	3.8	7.46e-01	0	39	104	1073217536	76	39448
2026-01-21 01:31:14.94	196.69	5.25	-52.7	-73.2	3.8	7.49e-01	0	39	104	1073217536	76	39395
2026-01-21 01:31:15.93	196.70	5.17	-52.7	-73.2	3.8	7.48e-01	0	39	104	1073217536	76	39388
2026-01-21 01:31:16.92	196.70	5.10	-52.7	-73.2	3.8	7.47e-01	0	39	104	1073217536	76	39415
2026-01-21 01:31:17.91	196.71	5.02	-52.7	-73.2	3.8	7.43e-01	0	39	104	1073217536	76	39441
2026-01-21 01:31:18.91	196.72	4.95	-52.7	-73.2	3.8	7.45e-01	0	39	104	1073217536	76	39415

#Closed at: 2026-01-21 01:31:19
#Recorded file [1073 MB]: D:/Data/31040_260121_041955.dat