passes_logs/2026/01/21/T1/T1__20260121_214501_NOAA_20_JPSS-1_rec.log

#Pass ID: 20260121_214501_NOAA 20 (JPSS-1)
#Satellite: NOAA 20 (JPSS-1)
#Configuration: NOAA 20
#almurnet v.1.7.20251203
#Start time: 2026-01-21 21:45:01

#Version: 2.0.20230620
#Station: T1
#Location: 37.570604 lon 55.790049 lat
#TLE: 1 43013U 17073A   26021.46221703  .00000173  00000+0  10299-3 0  9999
#TLE: 2 43013  98.7644 322.3335 0001238  29.7597 330.3649 14.19538314423652

#Time	Az	El	Level	Level2	SNR	BER	BlckErr	Temp	State	Recorded	gain1	gain2
2026-01-21 21:45:01.33	35.84	4.98	-50.2	-65.5	3.8	1.49e+00	0	35	104	0	72	20488
2026-01-21 21:45:02.32	35.95	5.03	-50.2	-65.5	3.8	1.49e+00	0	35	104	0	72	20509
2026-01-21 21:45:03.31	36.06	5.08	-50.2	-65.5	3.8	1.49e+00	0	35	104	0	72	20509
2026-01-21 21:45:04.30	36.17	5.13	-50.2	-65.6	3.8	1.49e+00	0	35	104	0	72	20552
2026-01-21 21:45:05.30	36.28	5.18	-50.2	-65.6	3.8	1.49e+00	0	35	104	0	72	20546
2026-01-21 21:45:06.29	36.39	5.23	-50.2	-65.5	3.8	1.49e+00	0	35	104	0	72	20489
2026-01-21 21:45:07.28	36.50	5.27	-50.2	-65.5	3.8	1.49e+00	0	35	104	0	72	20490
2026-01-21 21:45:08.28	36.61	5.32	-50.2	-65.5	3.8	1.49e+00	0	36	104	0	72	20485
2026-01-21 21:45:09.27	36.72	5.37	-50.2	-65.5	3.8	1.49e+00	0	36	104	0	72	20452
2026-01-21 21:45:10.26	36.84	5.42	-50.2	-65.5	3.8	1.49e+00	0	35	104	0	72	20410
2026-01-21 21:45:11.26	36.95	5.47	-50.2	-65.5	3.8	1.49e+00	0	36	104	0	72	20454
2026-01-21 21:45:12.25	37.06	5.51	-50.2	-65.5	3.8	1.49e+00	0	36	104	0	72	20414
2026-01-21 21:45:13.24	37.17	5.56	-50.2	-65.5	3.8	1.49e+00	0	36	104	0	72	20453
2026-01-21 21:45:14.24	37.29	5.61	-50.2	-65.5	3.8	1.49e+00	0	36	104	0	72	20500
2026-01-21 21:45:15.23	37.40	5.66	-50.2	-65.5	3.8	1.49e+00	0	36	104	0	72	20458
2026-01-21 21:45:16.22	37.52	5.71	-50.2	-65.5	3.8	1.49e+00	0	36	104	0	72	20399
2026-01-21 21:45:17.22	37.63	5.76	-50.2	-65.5	3.8	1.49e+00	0	36	104	0	72	20425
2026-01-21 21:45:18.21	37.75	5.80	-50.2	-65.5	3.8	1.49e+00	0	36	104	0	72	20486
2026-01-21 21:45:19.20	37.86	5.85	-50.2	-65.5	3.8	1.49e+00	0	36	104	0	72	20491
2026-01-21 21:45:20.20	37.98	5.90	-50.2	-65.5	3.8	1.49e+00	0	36	104	0	72	20459
2026-01-21 21:45:21.19	38.09	5.95	-50.2	-65.5	3.8	1.49e+00	0	36	104	0	72	20408
2026-01-21 21:45:22.18	38.21	6.00	-50.2	-65.5	3.8	1.49e+00	0	36	104	0	72	20414
2026-01-21 21:45:23.18	38.33	6.04	-50.2	-65.5	3.8	1.49e+00	0	36	104	0	72	20366
2026-01-21 21:45:24.17	38.44	6.09	-50.2	-65.5	3.8	1.49e+00	0	36	104	0	72	20421
2026-01-21 21:45:25.16	38.56	6.14	-50.2	-65.5	3.8	1.49e+00	0	36	104	0	72	20437
2026-01-21 21:45:26.15	38.68	6.19	-50.2	-65.5	3.8	1.49e+00	0	36	104	0	72	20444
2026-01-21 21:45:27.15	38.80	6.24	-50.2	-65.5	3.8	1.49e+00	0	36	104	0	72	20452
2026-01-21 21:45:28.14	38.92	6.29	-50.2	-65.5	3.8	1.49e+00	0	36	104	0	72	20378
2026-01-21 21:45:29.13	39.04	6.33	-50.2	-65.5	3.8	1.49e+00	0	36	104	0	72	20445
2026-01-21 21:45:30.12	39.16	6.38	-50.2	-65.5	3.8	1.49e+00	0	36	104	0	72	20308
2026-01-21 21:45:31.12	39.28	6.43	-50.2	-65.5	3.8	1.49e+00	0	36	104	0	72	20391
2026-01-21 21:45:32.11	39.40	6.48	-50.2	-65.5	3.8	1.49e+00	0	36	104	0	72	20405
2026-01-21 21:45:33.10	39.52	6.53	-50.2	-65.5	3.8	1.49e+00	0	36	104	0	72	20344
2026-01-21 21:45:34.10	39.64	6.57	-50.2	-65.5	3.8	1.49e+00	0	36	104	0	72	20489
2026-01-21 21:45:35.09	39.76	6.62	-50.2	-65.5	3.8	1.49e+00	0	36	104	0	72	20403
2026-01-21 21:45:36.08	39.88	6.67	-50.2	-65.5	3.8	1.49e+00	0	36	104	0	72	20420
2026-01-21 21:45:37.07	40.00	6.72	-50.2	-65.5	3.8	1.49e+00	0	36	104	0	72	20402
2026-01-21 21:45:38.07	40.13	6.77	-50.2	-65.4	3.8	1.49e+00	0	36	104	0	72	20296
2026-01-21 21:45:39.06	40.25	6.81	-50.2	-65.5	3.8	1.49e+00	0	36	104	0	72	20383
2026-01-21 21:45:40.05	40.37	6.86	-50.2	-65.5	3.8	1.49e+00	0	36	104	0	72	20327
2026-01-21 21:45:41.05	40.50	6.91	-50.2	-65.5	3.8	1.49e+00	0	36	104	0	72	20324
2026-01-21 21:45:42.04	40.62	6.96	-50.2	-65.5	3.8	1.49e+00	0	37	104	0	72	20310
2026-01-21 21:45:43.03	40.74	7.01	-50.2	-65.5	3.8	1.49e+00	0	36	104	0	72	20416
2026-01-21 21:45:44.03	40.87	7.05	-50.2	-65.5	3.8	1.49e+00	0	37	104	0	72	20393
2026-01-21 21:45:45.02	40.99	7.10	-50.2	-65.5	3.8	1.49e+00	0	36	104	0	72	20409
2026-01-21 21:45:46.01	41.12	7.15	-50.2	-65.5	3.8	1.49e+00	0	37	104	0	72	20424
2026-01-21 21:45:47.00	41.25	7.20	-50.2	-65.5	3.8	1.49e+00	0	37	104	0	72	20386
2026-01-21 21:45:48.00	41.37	7.24	-50.2	-65.5	3.8	1.49e+00	0	37	104	0	72	20397
2026-01-21 21:45:48.99	41.50	7.29	-50.2	-65.4	3.8	1.49e+00	0	37	104	0	72	20259
2026-01-21 21:45:49.98	41.63	7.34	-50.2	-65.5	3.8	1.49e+00	0	37	104	0	72	20313
2026-01-21 21:45:50.97	41.75	7.39	-50.2	-65.4	3.8	1.49e+00	0	37	104	0	72	20239
2026-01-21 21:45:51.97	41.88	7.44	-50.2	-65.4	3.8	1.49e+00	0	36	104	0	72	20181
2026-01-21 21:45:52.96	42.01	7.48	-50.2	-65.4	3.8	1.49e+00	0	37	104	0	72	20102
2026-01-21 21:45:53.96	42.14	7.53	-50.2	-65.4	3.8	1.49e+00	0	37	104	0	72	20125
2026-01-21 21:45:54.95	42.27	7.58	-50.2	-65.4	3.8	1.49e+00	0	37	104	0	72	20157
2026-01-21 21:45:55.94	42.40	7.63	-50.2	-65.4	3.8	1.49e+00	0	37	104	0	72	20077
2026-01-21 21:45:56.93	42.53	7.67	-50.2	-65.4	3.8	1.49e+00	0	37	104	0	72	20163
2026-01-21 21:45:57.93	42.66	7.72	-50.2	-65.4	3.8	1.49e+00	0	37	104	0	72	20200
2026-01-21 21:45:58.92	42.79	7.77	-50.2	-65.4	3.8	1.49e+00	0	37	104	0	72	20295
2026-01-21 21:45:59.91	42.92	7.81	-50.2	-65.5	3.8	1.49e+00	0	37	104	0	72	20413
2026-01-21 21:46:00.88	43.05	7.86	-50.2	-65.5	3.8	1.49e+00	0	37	104	0	72	20372
2026-01-21 21:46:01.87	43.18	7.91	-50.2	-65.5	3.8	1.49e+00	0	37	104	0	72	20343
2026-01-21 21:46:02.87	43.32	7.96	-50.2	-65.5	3.8	1.49e+00	0	37	104	0	72	20403
2026-01-21 21:46:03.86	43.45	8.00	-50.2	-65.5	3.8	1.49e+00	0	37	104	0	72	20406
2026-01-21 21:46:04.85	43.58	8.05	-50.2	-65.5	3.8	1.49e+00	0	37	104	0	72	20351
2026-01-21 21:46:05.85	43.72	8.10	-50.2	-65.4	3.8	1.49e+00	0	37	104	0	72	20203
2026-01-21 21:46:06.84	43.85	8.14	-50.2	-65.3	3.8	1.49e+00	0	37	104	0	72	20006
2026-01-21 21:46:07.83	43.99	8.19	-50.2	-65.3	3.8	1.49e+00	0	37	104	0	72	19943
2026-01-21 21:46:08.82	44.12	8.24	-50.2	-65.3	3.8	1.49e+00	0	37	104	0	72	19891
2026-01-21 21:46:09.82	44.26	8.29	-50.2	-65.3	3.8	1.49e+00	0	37	104	0	72	20068
2026-01-21 21:46:10.81	44.39	8.33	-50.2	-65.4	3.8	1.49e+00	0	37	104	0	72	20229
2026-01-21 21:46:11.81	44.53	8.38	-50.2	-65.5	3.8	1.49e+00	0	37	104	0	72	20344
2026-01-21 21:46:12.80	44.67	8.43	-50.2	-65.5	3.8	1.49e+00	0	37	104	0	72	20443
2026-01-21 21:46:13.79	44.80	8.47	-50.2	-65.5	3.8	1.49e+00	0	37	104	0	72	20404
2026-01-21 21:46:14.79	44.94	8.52	-50.2	-65.5	3.8	1.49e+00	0	37	104	0	72	20379
2026-01-21 21:46:15.78	45.08	8.57	-50.2	-65.4	3.8	1.49e+00	0	37	104	0	72	20267
2026-01-21 21:46:16.77	45.22	8.61	-50.2	-65.4	3.8	1.49e+00	0	37	104	0	72	20114
2026-01-21 21:46:17.77	45.36	8.66	-50.2	-65.2	3.8	1.49e+00	0	37	104	0	72	19771
2026-01-21 21:46:18.76	45.50	8.71	-50.2	-65.0	3.8	1.49e+00	0	37	104	0	72	19193
2026-01-21 21:46:19.75	45.64	8.75	-50.1	-64.7	3.8	1.49e+00	0	37	104	0	72	18650
2026-01-21 21:46:20.75	45.78	8.80	-50.1	-64.4	3.8	1.49e+00	0	37	104	0	72	18058
2026-01-21 21:46:21.74	45.92	8.84	-50.1	-63.9	3.8	1.49e+00	0	37	104	0	72	17031
2026-01-21 21:46:22.74	46.06	8.89	-50.0	-62.7	4.0	1.48e+00	0	37	104	0	72	14836
2026-01-21 21:46:23.73	46.20	8.94	-49.9	-60.6	4.6	1.42e+00	0	37	0	0	71	12370
2026-01-21 21:46:24.72	46.34	8.98	-49.5	-57.9	6.3	3.88e-01	0	37	0	2097152	71	9052
2026-01-21 21:46:25.72	46.49	9.03	-49.0	-55.8	8.3	9.58e-02	0	37	0	4194304	70	7486
2026-01-21 21:46:26.71	46.63	9.08	-48.2	-53.6	10.7	1.24e-02	0	37	0	5242880	68	6538
2026-01-21 21:46:27.71	46.77	9.12	-49.7	-59.1	5.7	3.48e-03	0	37	0	7340032	69	11626
2026-01-21 21:46:28.70	46.92	9.17	-48.2	-53.6	10.5	2.42e-01	0	37	0	9437184	68	6539
2026-01-21 21:46:29.73	47.06	9.21	-49.7	-59.3	5.5	4.68e-03	0	37	0	11534336	69	11888
2026-01-21 21:46:30.75	47.21	9.26	-45.9	-49.4	14.8	8.02e-01	0	37	0	12582912	63	5342
2026-01-21 21:46:31.78	47.36	9.31	-45.6	-48.8	15.4	0.00e+00	0	37	0	14680064	63	5040
2026-01-21 21:46:32.77	47.51	9.35	-45.4	-48.5	15.7	0.00e+00	0	37	0	16777216	62	5149
2026-01-21 21:46:33.83	47.67	9.40	-45.2	-48.2	16.0	0.00e+00	0	37	0	18874368	62	4972
2026-01-21 21:46:34.73	47.80	9.44	-45.2	-48.3	15.9	7.00e-07	0	37	0	20971520	62	5027
2026-01-21 21:46:35.98	47.98	9.50	-45.4	-48.5	15.8	0.00e+00	0	37	0	23068672	62	5122
2026-01-21 21:46:36.83	48.11	9.54	-45.4	-48.5	15.8	0.00e+00	0	37	0	24117248	62	5124
2026-01-21 21:46:38.08	48.30	9.60	-45.2	-48.3	15.9	0.00e+00	0	37	0	27262976	62	5012
2026-01-21 21:46:38.93	48.42	9.64	-45.2	-48.2	16.1	0.00e+00	0	37	0	28311552	62	4960
2026-01-21 21:46:40.07	48.59	9.69	-45.1	-48.1	16.2	0.00e+00	0	37	0	30408704	62	4881
2026-01-21 21:46:40.92	48.72	9.73	-45.0	-48.0	16.1	0.00e+00	0	37	0	32505856	62	4857
2026-01-21 21:46:42.06	48.89	9.78	-45.1	-48.1	16.2	0.00e+00	0	37	0	34603008	62	4877
2026-01-21 21:46:42.91	49.02	9.81	-45.0	-48.0	16.3	0.00e+00	0	37	0	35651584	62	4845
2026-01-21 21:46:44.05	49.19	9.87	-45.0	-48.0	16.2	0.00e+00	0	37	0	37748736	62	4859
2026-01-21 21:46:44.91	49.32	9.90	-45.0	-48.0	16.3	0.00e+00	0	37	0	39845888	62	4833
2026-01-21 21:46:46.05	49.50	9.96	-45.0	-48.0	16.3	0.00e+00	0	37	0	41943040	62	4830
2026-01-21 21:46:46.90	49.63	9.99	-45.1	-48.1	16.2	0.00e+00	0	38	0	42991616	62	4884
2026-01-21 21:46:48.04	49.80	10.04	-45.2	-48.2	16.1	0.00e+00	0	37	0	45088768	62	4965
2026-01-21 21:46:48.89	49.93	10.08	-45.3	-48.3	16.0	0.00e+00	0	37	0	47185920	62	5016
2026-01-21 21:46:50.02	50.11	10.13	-45.3	-48.3	16.0	0.00e+00	0	37	0	49283072	62	5024
2026-01-21 21:46:50.88	50.24	10.17	-45.3	-48.3	16.0	0.00e+00	0	37	0	50331648	62	5014
2026-01-21 21:46:52.01	50.42	10.22	-45.3	-48.4	16.0	0.00e+00	0	37	0	52428800	62	5045
2026-01-21 21:46:52.86	50.55	10.26	-45.3	-48.3	16.0	0.00e+00	0	37	0	54525952	62	5028
2026-01-21 21:46:54.00	50.73	10.31	-45.3	-48.4	15.9	0.00e+00	0	38	0	56623104	62	5047
2026-01-21 21:46:54.86	50.86	10.35	-45.4	-48.5	15.8	0.00e+00	0	37	0	57671680	62	5128
2026-01-21 21:46:56.07	51.05	10.40	-45.3	-48.4	15.9	0.00e+00	0	37	0	60817408	62	5068
2026-01-21 21:46:56.93	51.19	10.44	-45.4	-48.5	15.9	0.00e+00	0	37	0	61865984	62	5104
2026-01-21 21:46:58.06	51.37	10.48	-45.2	-48.3	16.0	0.00e+00	0	37	0	63963136	62	5000
2026-01-21 21:46:58.91	51.50	10.52	-45.3	-48.4	15.9	0.00e+00	0	37	0	66060288	62	5061
2026-01-21 21:47:00.05	51.68	10.57	-45.3	-48.4	16.0	0.00e+00	0	37	0	68157440	62	5047
2026-01-21 21:47:00.91	51.82	10.61	-45.4	-48.5	15.9	0.00e+00	0	38	0	69206016	62	5112
2026-01-21 21:47:02.04	52.00	10.66	-45.4	-48.6	15.8	0.00e+00	0	37	0	71303168	62	5173
2026-01-21 21:47:02.89	52.14	10.69	-45.4	-48.5	15.8	0.00e+00	0	38	0	73400320	62	5156
2026-01-21 21:47:04.03	52.32	10.74	-45.4	-48.6	15.8	0.00e+00	0	38	0	75497472	62	5168
2026-01-21 21:47:04.89	52.46	10.78	-45.5	-48.7	15.7	0.00e+00	0	38	0	76546048	62	5220
2026-01-21 21:47:06.02	52.64	10.83	-45.5	-48.7	15.7	0.00e+00	0	38	0	78643200	62	5225
2026-01-21 21:47:06.88	52.78	10.86	-45.6	-48.7	15.6	0.00e+00	0	38	0	80740352	62	5264
2026-01-21 21:47:08.01	52.96	10.91	-45.6	-48.8	15.5	0.00e+00	0	37	0	82837504	62	5331
2026-01-21 21:47:08.86	53.10	10.95	-45.6	-48.7	15.6	0.00e+00	0	37	0	83886080	62	5274
2026-01-21 21:47:10.00	53.29	10.99	-45.5	-48.6	15.8	0.00e+00	0	38	0	87031808	62	5198
2026-01-21 21:47:10.85	53.43	11.03	-45.5	-48.6	15.7	0.00e+00	0	38	0	88080384	62	5202
2026-01-21 21:47:11.99	53.62	11.08	-45.5	-48.7	15.7	0.00e+00	0	37	0	90177536	62	5227
2026-01-21 21:47:12.84	53.76	11.11	-45.5	-48.7	15.7	0.00e+00	0	38	0	92274688	62	5223
2026-01-21 21:47:14.10	53.96	11.17	-45.6	-48.7	15.6	0.00e+00	0	38	0	94371840	62	5262
2026-01-21 21:47:14.89	54.09	11.20	-45.6	-48.7	15.6	0.00e+00	0	38	0	95420416	62	5271
2026-01-21 21:47:16.05	54.29	11.25	-45.6	-48.8	15.6	0.00e+00	0	38	0	97517568	62	5289
2026-01-21 21:47:16.90	54.43	11.28	-45.6	-48.8	15.6	0.00e+00	0	38	0	99614720	62	5324
2026-01-21 21:47:18.03	54.62	11.33	-45.6	-48.8	15.6	0.00e+00	0	38	0	101711872	62	5286
2026-01-21 21:47:18.89	54.76	11.36	-45.6	-48.7	15.7	0.00e+00	0	37	0	102760448	62	5272
2026-01-21 21:47:20.02	54.95	11.41	-45.6	-48.7	15.6	0.00e+00	0	37	0	105906176	62	5279
2026-01-21 21:47:20.88	55.10	11.44	-45.7	-48.9	15.5	0.00e+00	0	38	0	106954752	62	5365
2026-01-21 21:47:22.01	55.29	11.49	-45.7	-48.9	15.5	0.00e+00	0	38	0	109051904	62	5379
2026-01-21 21:47:22.87	55.43	11.52	-45.6	-48.8	15.6	0.00e+00	0	38	0	111149056	62	5286
2026-01-21 21:47:24.00	55.63	11.57	-45.7	-48.8	15.5	0.00e+00	0	38	0	113246208	62	5333
2026-01-21 21:47:24.85	55.77	11.60	-45.6	-48.7	15.7	0.00e+00	0	38	0	114294784	62	5254
2026-01-21 21:47:25.99	55.96	11.65	-45.5	-48.7	15.7	0.00e+00	0	37	0	116391936	62	5225
2026-01-21 21:47:26.84	56.11	11.68	-45.5	-48.6	15.8	0.00e+00	0	38	0	118489088	62	5171
2026-01-21 21:47:28.00	56.31	11.73	-45.5	-48.6	15.8	0.00e+00	0	38	0	120586240	62	5166
2026-01-21 21:47:28.86	56.46	11.76	-45.5	-48.6	15.8	0.00e+00	0	38	0	121634816	62	5166
2026-01-21 21:47:30.07	56.67	11.81	-45.4	-48.4	15.9	0.00e+00	0	38	0	123731968	62	5089
2026-01-21 21:47:30.93	56.81	11.84	-45.4	-48.5	15.9	0.00e+00	0	38	0	125829120	62	5118
2026-01-21 21:47:32.06	57.01	11.88	-45.4	-48.5	15.9	0.00e+00	0	38	0	127926272	62	5110
2026-01-21 21:47:32.92	57.16	11.92	-45.5	-48.5	15.8	0.00e+00	0	38	0	130023424	62	5148
2026-01-21 21:47:34.06	57.36	11.96	-45.6	-48.7	15.7	0.00e+00	0	38	0	132120576	62	5240
2026-01-21 21:47:34.91	57.51	11.99	-45.6	-48.7	15.7	0.00e+00	0	37	0	133169152	62	5241
2026-01-21 21:47:36.05	57.71	12.04	-45.7	-48.8	15.6	0.00e+00	0	38	0	135266304	62	5327
2026-01-21 21:47:36.90	57.86	12.07	-45.7	-48.9	15.5	0.00e+00	0	38	0	137363456	62	5402
2026-01-21 21:47:38.03	58.06	12.11	-45.8	-49.1	15.4	0.00e+00	0	38	0	139460608	62	5467
2026-01-21 21:47:38.89	58.21	12.14	-45.8	-49.0	15.4	0.00e+00	0	38	0	140509184	62	5442
2026-01-21 21:47:40.02	58.41	12.19	-45.7	-48.9	15.5	0.00e+00	0	38	0	142606336	62	5389
2026-01-21 21:47:40.88	58.56	12.22	-45.7	-49.0	15.4	0.00e+00	0	38	0	144703488	62	5424
2026-01-21 21:47:42.02	58.76	12.26	-45.7	-49.0	15.5	0.00e+00	0	38	0	146800640	62	5406
2026-01-21 21:47:42.87	58.91	12.29	-45.7	-49.0	15.5	0.00e+00	0	38	0	147849216	62	5408
2026-01-21 21:47:44.00	59.12	12.33	-45.8	-49.0	15.4	0.00e+00	0	38	0	149946368	62	5421
2026-01-21 21:47:44.86	59.27	12.36	-45.7	-48.8	15.6	0.00e+00	0	38	0	152043520	62	5337
2026-01-21 21:47:46.09	59.49	12.41	-45.6	-48.8	15.7	0.00e+00	0	38	0	154140672	62	5286
2026-01-21 21:47:46.94	59.64	12.44	-45.7	-48.9	15.6	0.00e+00	0	37	0	156237824	62	5348
2026-01-21 21:47:48.08	59.85	12.48	-45.6	-48.7	15.7	0.00e+00	0	37	0	158334976	62	5227
2026-01-21 21:47:48.93	60.00	12.51	-45.6	-48.7	15.7	0.00e+00	0	38	0	159383552	62	5245
2026-01-21 21:47:50.07	60.21	12.55	-45.7	-48.8	15.6	0.00e+00	0	38	0	161480704	62	5319
2026-01-21 21:47:50.92	60.36	12.58	-45.6	-48.8	15.6	0.00e+00	0	38	0	163577856	62	5323
2026-01-21 21:47:52.06	60.57	12.62	-45.6	-48.8	15.6	0.00e+00	0	38	0	165675008	62	5329
2026-01-21 21:47:53.01	60.75	12.65	-45.6	-48.8	15.6	0.00e+00	0	38	0	166723584	62	5331
2026-01-21 21:47:54.00	60.93	12.69	-45.6	-48.9	15.6	0.00e+00	0	38	0	168820736	62	5365
2026-01-21 21:47:55.00	61.11	12.72	-45.6	-48.8	15.6	0.00e+00	0	38	0	170917888	62	5313
2026-01-21 21:47:55.99	61.29	12.75	-45.7	-49.0	15.4	0.00e+00	0	38	0	173015040	62	5415
2026-01-21 21:47:56.99	61.48	12.79	-45.8	-49.1	15.4	0.00e+00	0	38	0	175112192	62	5465
2026-01-21 21:47:57.99	61.66	12.82	-45.8	-49.0	15.4	0.00e+00	0	38	0	176160768	62	5441
2026-01-21 21:47:58.99	61.85	12.85	-45.7	-48.9	15.6	0.00e+00	0	38	0	178257920	62	5345
2026-01-21 21:47:59.98	62.03	12.89	-45.7	-48.9	15.6	0.00e+00	0	38	0	180355072	62	5362
2026-01-21 21:48:00.97	62.21	12.92	-45.7	-48.9	15.6	0.00e+00	0	37	0	182452224	62	5349
2026-01-21 21:48:01.97	62.40	12.95	-45.3	-48.3	16.1	0.00e+00	0	38	0	183500800	62	5033
2026-01-21 21:48:02.96	62.59	12.98	-45.1	-48.0	16.4	0.00e+00	0	38	0	185597952	62	4858
2026-01-21 21:48:03.96	62.77	13.02	-45.0	-47.9	16.5	0.00e+00	0	38	0	187695104	61	5067
2026-01-21 21:48:04.95	62.96	13.05	-45.0	-48.0	16.4	0.00e+00	0	38	0	189792256	61	5115
2026-01-21 21:48:05.95	63.15	13.08	-45.1	-48.1	16.4	0.00e+00	0	38	0	191889408	61	5164
2026-01-21 21:48:06.94	63.33	13.11	-45.1	-48.0	16.4	0.00e+00	0	38	0	192937984	61	5134
2026-01-21 21:48:07.94	63.52	13.14	-45.1	-48.1	16.3	0.00e+00	0	38	0	195035136	61	5167
2026-01-21 21:48:08.92	63.71	13.17	-45.2	-48.1	16.3	0.00e+00	0	38	0	197132288	61	5179
2026-01-21 21:48:09.91	63.89	13.20	-45.1	-47.9	16.4	0.00e+00	0	38	0	199229440	61	5096
2026-01-21 21:48:10.91	64.08	13.23	-44.9	-47.8	16.6	0.00e+00	0	38	0	201326592	61	5012
2026-01-21 21:48:11.90	64.27	13.26	-45.0	-47.9	16.5	0.00e+00	0	38	0	202375168	61	5089
2026-01-21 21:48:12.90	64.46	13.29	-45.0	-48.0	16.4	0.00e+00	0	38	0	204472320	61	5103
2026-01-21 21:48:13.89	64.65	13.32	-44.9	-47.8	16.6	0.00e+00	0	38	0	206569472	61	5036
2026-01-21 21:48:14.89	64.84	13.35	-44.9	-47.8	16.6	0.00e+00	0	38	0	208666624	61	4990
2026-01-21 21:48:15.88	65.03	13.38	-44.9	-47.8	16.6	0.00e+00	0	38	0	209715200	61	5005
2026-01-21 21:48:16.88	65.22	13.41	-44.9	-47.8	16.6	0.00e+00	0	38	0	211812352	61	5023
2026-01-21 21:48:17.87	65.41	13.44	-44.9	-47.7	16.7	0.00e+00	0	38	0	213909504	61	4968
2026-01-21 21:48:18.87	65.61	13.47	-44.8	-47.6	16.8	0.00e+00	0	38	0	216006656	61	4886
2026-01-21 21:48:19.94	65.81	13.50	-44.6	-47.3	17.0	0.00e+00	0	38	0	218103808	61	4743
2026-01-21 21:48:20.84	65.99	13.52	-44.6	-47.3	17.0	0.00e+00	0	38	0	219152384	61	4741
2026-01-21 21:48:21.94	66.20	13.55	-44.6	-47.3	17.1	0.00e+00	0	38	0	221249536	61	4729
2026-01-21 21:48:22.80	66.37	13.58	-44.6	-47.3	17.1	0.00e+00	0	38	0	223346688	61	4731
2026-01-21 21:48:23.93	66.59	13.61	-44.7	-47.4	16.9	0.00e+00	0	38	0	225443840	61	4800
2026-01-21 21:48:24.79	66.76	13.63	-44.7	-47.5	16.9	0.00e+00	0	38	0	226492416	61	4827
2026-01-21 21:48:25.92	66.98	13.66	-44.8	-47.7	16.8	0.00e+00	0	38	0	228589568	61	4927
2026-01-21 21:48:26.78	67.15	13.68	-44.9	-47.8	16.6	0.00e+00	0	38	0	230686720	61	5001
2026-01-21 21:48:27.91	67.37	13.71	-45.1	-48.0	16.4	0.00e+00	0	38	0	232783872	61	5148
2026-01-21 21:48:28.76	67.53	13.73	-45.1	-48.1	16.3	0.00e+00	0	38	0	233832448	61	5169
2026-01-21 21:48:29.90	67.76	13.76	-45.1	-48.1	16.4	0.00e+00	0	38	0	235929600	61	5186
2026-01-21 21:48:30.75	67.93	13.78	-45.2	-48.2	16.3	0.00e+00	0	38	0	238026752	61	5237
2026-01-21 21:48:31.89	68.15	13.81	-45.4	-48.4	16.0	0.00e+00	0	38	0	240123904	61	5368
2026-01-21 21:48:32.74	68.32	13.83	-45.4	-48.4	16.0	0.00e+00	0	38	0	242221056	61	5367
2026-01-21 21:48:34.05	68.58	13.87	-45.4	-48.4	16.0	0.00e+00	0	38	0	244318208	61	5365
2026-01-21 21:48:34.76	68.72	13.88	-45.4	-48.4	16.0	0.00e+00	0	38	0	245366784	61	5348
2026-01-21 21:48:36.04	68.97	13.91	-45.4	-48.5	16.0	0.00e+00	0	38	0	247463936	61	5411
2026-01-21 21:48:36.75	69.11	13.93	-45.3	-48.3	16.1	0.00e+00	0	38	0	249561088	61	5320
2026-01-21 21:48:38.03	69.37	13.96	-45.3	-48.3	16.2	0.00e+00	0	38	0	251658240	61	5291
2026-01-21 21:48:38.76	69.51	13.98	-45.3	-48.3	16.1	0.00e+00	0	38	0	252706816	61	5313
2026-01-21 21:48:40.04	69.77	14.00	-45.4	-48.4	16.0	0.00e+00	0	38	0	255852544	61	5393
2026-01-21 21:48:40.88	69.94	14.02	-45.4	-48.4	16.0	0.00e+00	0	38	0	256901120	61	5385
2026-01-21 21:48:42.01	70.16	14.05	-45.4	-48.4	16.1	0.00e+00	0	38	0	258998272	61	5369
2026-01-21 21:48:42.86	70.34	14.07	-45.5	-48.5	16.0	0.00e+00	0	38	0	261095424	61	5435
2026-01-21 21:48:44.00	70.56	14.09	-45.5	-48.5	15.9	0.00e+00	0	38	0	263192576	61	5454
2026-01-21 21:48:44.86	70.74	14.11	-45.5	-48.5	15.9	0.00e+00	0	38	0	264241152	61	5443
2026-01-21 21:48:45.99	70.97	14.13	-45.5	-48.6	15.8	0.00e+00	0	38	0	266338304	61	5479
2026-01-21 21:48:46.85	71.14	14.15	-45.4	-48.4	16.0	0.00e+00	0	38	0	268435456	61	5379
2026-01-21 21:48:47.98	71.37	14.17	-45.3	-48.4	16.1	0.00e+00	0	38	0	270532608	61	5349
2026-01-21 21:48:48.83	71.54	14.19	-45.4	-48.4	16.1	0.00e+00	0	38	0	271581184	61	5362
2026-01-21 21:48:49.97	71.77	14.21	-45.4	-48.4	16.0	0.00e+00	0	38	0	273678336	61	5385
2026-01-21 21:48:50.82	71.94	14.23	-45.4	-48.4	16.0	0.00e+00	0	38	0	275775488	61	5392
2026-01-21 21:48:51.96	72.17	14.25	-45.3	-48.3	16.1	0.00e+00	0	38	0	277872640	61	5308
2026-01-21 21:48:52.82	72.35	14.27	-45.3	-48.3	16.1	0.00e+00	0	38	0	278921216	61	5334
2026-01-21 21:48:53.95	72.58	14.29	-45.3	-48.2	16.2	0.00e+00	0	38	0	281018368	61	5273
2026-01-21 21:48:54.80	72.75	14.30	-45.2	-48.2	16.3	0.00e+00	0	38	0	283115520	61	5246
2026-01-21 21:48:55.94	72.99	14.32	-45.3	-48.2	16.2	0.00e+00	0	38	0	285212672	61	5260
2026-01-21 21:48:56.79	73.16	14.34	-45.2	-48.1	16.3	0.00e+00	0	38	0	287309824	61	5193
2026-01-21 21:48:57.93	73.39	14.35	-45.1	-48.0	16.4	0.00e+00	0	38	0	289406976	61	5138
2026-01-21 21:48:58.78	73.57	14.37	-45.1	-48.0	16.4	0.00e+00	0	38	0	290455552	61	5131
2026-01-21 21:48:59.92	73.80	14.39	-45.0	-47.9	16.5	0.00e+00	0	38	0	292552704	61	5094
2026-01-21 21:49:00.77	73.97	14.40	-45.0	-47.9	16.5	0.00e+00	0	38	0	294649856	61	5089
2026-01-21 21:49:01.91	74.21	14.42	-45.2	-48.1	16.3	0.00e+00	0	38	0	296747008	61	5218
2026-01-21 21:49:02.76	74.38	14.43	-45.1	-48.1	16.4	0.00e+00	0	38	0	297795584	61	5178
2026-01-21 21:49:03.96	74.63	14.45	-45.2	-48.2	16.3	0.00e+00	0	38	0	299892736	61	5219
2026-01-21 21:49:04.81	74.81	14.46	-45.2	-48.2	16.3	0.00e+00	0	38	0	301989888	61	5236
2026-01-21 21:49:06.01	75.05	14.48	-45.1	-48.0	16.4	0.00e+00	0	38	0	304087040	61	5159
2026-01-21 21:49:06.86	75.23	14.49	-45.1	-48.0	16.4	0.00e+00	0	38	0	306184192	61	5125
2026-01-21 21:49:08.08	75.48	14.51	-45.1	-48.0	16.4	0.00e+00	0	38	0	308281344	61	5125
2026-01-21 21:49:09.34	75.74	14.52	-45.0	-47.9	16.5	0.00e+00	0	38	0	310378496	61	5082
2026-01-21 21:49:10.13	75.91	14.53	-45.1	-48.0	16.5	0.00e+00	0	38	0	311427072	61	5111
2026-01-21 21:49:11.30	76.15	14.55	-45.0	-47.8	16.6	0.00e+00	0	38	0	313524224	61	5016
2026-01-21 21:49:12.15	76.33	14.56	-44.9	-47.8	16.6	0.00e+00	0	38	0	315621376	61	4993
2026-01-21 21:49:13.29	76.56	14.57	-44.9	-47.8	16.7	0.00e+00	0	38	0	317718528	61	5000
2026-01-21 21:49:14.14	76.74	14.58	-44.9	-47.8	16.7	0.00e+00	0	38	0	319815680	61	4987
2026-01-21 21:49:15.28	76.98	14.60	-44.9	-47.8	16.6	0.00e+00	0	38	0	321912832	61	5017
2026-01-21 21:49:16.13	77.15	14.60	-44.9	-47.7	16.7	0.00e+00	0	38	0	322961408	61	4959
2026-01-21 21:49:17.40	77.42	14.62	-44.9	-47.8	16.7	0.00e+00	0	38	0	325058560	61	4984
2026-01-21 21:49:18.14	77.57	14.62	-44.9	-47.8	16.6	0.00e+00	0	38	0	327155712	61	5004
2026-01-21 21:49:19.42	77.84	14.64	-45.0	-47.8	16.6	0.00e+00	0	38	0	329252864	61	5036
2026-01-21 21:49:20.14	77.99	14.64	-45.0	-47.8	16.6	0.00e+00	0	38	0	330301440	61	5019
2026-01-21 21:49:21.43	78.26	14.66	-44.8	-47.6	16.8	0.00e+00	0	38	0	333447168	61	4921
2026-01-21 21:49:22.14	78.41	14.66	-44.8	-47.6	16.8	0.00e+00	0	38	0	334495744	61	4910
2026-01-21 21:49:23.70	78.73	14.67	-44.7	-47.5	16.9	0.00e+00	0	38	0	337641472	61	4829
2026-01-21 21:49:24.41	78.88	14.68	-44.6	-47.4	17.0	0.00e+00	0	38	0	338690048	61	4777
2026-01-21 21:49:25.75	79.16	14.69	-44.5	-47.2	17.2	0.00e+00	0	38	0	340787200	61	4686
2026-01-21 21:49:26.46	79.31	14.70	-44.5	-47.2	17.2	0.00e+00	0	38	0	342884352	61	4690
2026-01-21 21:49:27.82	79.60	14.70	-44.4	-47.1	17.2	0.00e+00	0	38	0	344981504	60	4920
2026-01-21 21:49:28.53	79.74	14.71	-44.4	-47.1	17.3	0.00e+00	0	38	0	346030080	60	4916
2026-01-21 21:49:29.81	80.01	14.72	-44.6	-47.3	17.1	0.00e+00	0	38	0	349175808	60	5010
2026-01-21 21:49:30.52	80.16	14.72	-44.5	-47.2	17.2	0.00e+00	0	38	0	350224384	60	4982
2026-01-21 21:49:31.80	80.43	14.73	-44.6	-47.3	17.1	0.00e+00	0	38	0	352321536	60	5014
2026-01-21 21:49:32.53	80.58	14.73	-44.6	-47.4	17.1	0.00e+00	0	38	0	353370112	60	5052
2026-01-21 21:49:33.80	80.85	14.74	-44.6	-47.4	17.0	0.00e+00	0	38	0	356515840	60	5082
2026-01-21 21:49:34.53	81.00	14.74	-44.6	-47.4	17.1	0.00e+00	0	38	0	357564416	60	5046
2026-01-21 21:49:35.81	81.27	14.75	-44.4	-47.2	17.2	0.00e+00	0	38	0	359661568	60	4931
2026-01-21 21:49:36.53	81.42	14.75	-44.3	-47.0	17.3	0.00e+00	0	38	0	361758720	60	4853
2026-01-21 21:49:37.82	81.70	14.75	-44.2	-47.0	17.4	0.00e+00	0	38	0	363855872	60	4842
2026-01-21 21:49:38.53	81.85	14.75	-44.2	-46.9	17.5	0.00e+00	0	38	0	364904448	60	4790
2026-01-21 21:49:39.80	82.11	14.76	-44.1	-46.9	17.5	0.00e+00	0	38	0	368050176	60	4762
2026-01-21 21:49:40.60	82.28	14.76	-44.2	-46.8	17.5	0.00e+00	0	38	0	369098752	60	4754
2026-01-21 21:49:41.80	82.53	14.76	-44.2	-46.9	17.5	0.00e+00	0	38	0	371195904	60	4762
2026-01-21 21:49:42.65	82.71	14.76	-44.3	-47.0	17.4	0.00e+00	0	38	0	373293056	60	4821
2026-01-21 21:49:43.79	82.95	14.76	-44.4	-47.0	17.3	0.00e+00	0	38	0	375390208	60	4869
2026-01-21 21:49:44.64	83.13	14.76	-44.4	-47.1	17.3	0.00e+00	0	38	0	376438784	60	4918
2026-01-21 21:49:45.78	83.37	14.76	-44.3	-47.0	17.4	0.00e+00	0	38	0	378535936	60	4847
2026-01-21 21:49:46.63	83.55	14.76	-44.3	-47.0	17.3	0.00e+00	0	38	0	380633088	60	4865
2026-01-21 21:49:47.77	83.79	14.76	-44.1	-46.8	17.6	0.00e+00	0	38	0	382730240	60	4733
2026-01-21 21:49:48.62	83.97	14.76	-44.2	-46.9	17.5	0.00e+00	0	38	0	383778816	60	4791
2026-01-21 21:49:49.76	84.21	14.76	-43.9	-46.5	17.8	0.00e+00	0	38	0	385875968	59	4855
2026-01-21 21:49:50.61	84.39	14.76	-43.9	-46.6	17.7	0.00e+00	0	38	0	387973120	59	4888
2026-01-21 21:49:51.75	84.63	14.76	-44.0	-46.6	17.7	0.00e+00	0	38	0	390070272	59	4894
2026-01-21 21:49:52.60	84.81	14.76	-43.9	-46.6	17.7	0.00e+00	0	38	0	391118848	59	4873
2026-01-21 21:49:53.74	85.05	14.75	-44.0	-46.6	17.8	0.00e+00	0	38	0	393216000	59	4874
2026-01-21 21:49:54.59	85.23	14.75	-43.9	-46.5	17.8	0.00e+00	0	38	0	395313152	59	4852
2026-01-21 21:49:55.73	85.47	14.75	-44.0	-46.5	17.8	0.00e+00	0	38	0	397410304	59	4866
2026-01-21 21:49:56.58	85.64	14.74	-43.9	-46.5	17.8	0.00e+00	0	38	0	398458880	59	4867
2026-01-21 21:49:57.72	85.88	14.74	-43.9	-46.5	17.8	0.00e+00	0	38	0	401604608	59	4860
2026-01-21 21:49:58.78	86.11	14.73	-44.0	-46.6	17.7	0.00e+00	0	38	0	402653184	59	4922
2026-01-21 21:49:59.85	86.33	14.73	-44.1	-46.7	17.6	0.00e+00	0	38	0	404750336	59	4941
2026-01-21 21:50:00.70	86.51	14.72	-44.2	-46.8	17.6	0.00e+00	0	38	0	406847488	59	5001
2026-01-21 21:50:01.84	86.75	14.72	-44.2	-46.8	17.6	0.00e+00	0	38	0	408944640	59	5001
2026-01-21 21:50:02.70	86.93	14.71	-44.3	-46.9	17.4	0.00e+00	0	38	0	409993216	59	5077
2026-01-21 21:50:03.83	87.17	14.71	-44.3	-47.0	17.3	0.00e+00	0	38	0	412090368	59	5152
2026-01-21 21:50:04.69	87.35	14.70	-44.4	-47.1	17.3	0.00e+00	0	38	0	414187520	59	5186
2026-01-21 21:50:05.82	87.59	14.69	-44.4	-47.1	17.3	0.00e+00	0	38	0	416284672	59	5183
2026-01-21 21:50:06.67	87.76	14.69	-44.4	-47.1	17.2	0.00e+00	0	38	0	418381824	59	5195
2026-01-21 21:50:07.81	88.00	14.68	-44.3	-47.0	17.3	0.00e+00	0	38	0	420478976	59	5127
2026-01-21 21:50:08.67	88.18	14.67	-44.2	-46.9	17.5	0.00e+00	0	38	0	421527552	59	5059
2026-01-21 21:50:09.80	88.42	14.66	-44.2	-46.8	17.5	0.00e+00	0	38	0	423624704	59	5025
2026-01-21 21:50:10.65	88.60	14.65	-44.1	-46.7	17.6	0.00e+00	0	38	0	425721856	59	4966
2026-01-21 21:50:11.78	88.83	14.64	-44.1	-46.7	17.6	0.00e+00	0	38	0	427819008	59	4965
2026-01-21 21:50:12.64	89.01	14.64	-44.1	-46.7	17.5	0.00e+00	0	38	0	428867584	59	4982
2026-01-21 21:50:13.78	89.25	14.63	-44.3	-46.9	17.4	0.00e+00	0	38	0	430964736	59	5099
2026-01-21 21:50:14.63	89.43	14.62	-44.3	-47.0	17.3	0.00e+00	0	38	0	433061888	59	5147
2026-01-21 21:50:15.99	89.71	14.60	-44.3	-47.0	17.4	0.00e+00	0	38	0	435159040	59	5102
2026-01-21 21:50:16.70	89.86	14.59	-44.2	-46.8	17.5	0.00e+00	0	38	0	436207616	59	5041
2026-01-21 21:50:18.20	90.17	14.58	-44.0	-46.6	17.7	0.00e+00	0	38	0	439353344	59	4896
2026-01-21 21:50:18.91	90.32	14.57	-43.9	-46.5	17.9	0.00e+00	0	38	0	440401920	59	4817
2026-01-21 21:50:20.19	90.59	14.55	-43.8	-46.3	18.0	0.00e+00	0	38	0	443547648	59	4711
2026-01-21 21:50:20.90	90.73	14.55	-43.8	-46.3	18.0	0.00e+00	0	38	0	444596224	59	4729
2026-01-21 21:50:22.18	91.00	14.53	-43.9	-46.4	17.9	0.00e+00	0	38	0	446693376	59	4788
2026-01-21 21:50:22.91	91.15	14.52	-43.9	-46.5	17.8	0.00e+00	0	38	0	448790528	59	4832
2026-01-21 21:50:24.19	91.42	14.50	-44.0	-46.6	17.7	0.00e+00	0	38	0	450887680	59	4908
2026-01-21 21:50:24.91	91.57	14.49	-44.1	-46.7	17.6	0.00e+00	0	38	0	451936256	59	4961
2026-01-21 21:50:26.19	91.83	14.48	-44.2	-46.8	17.5	0.00e+00	0	38	0	454033408	59	4985
2026-01-21 21:50:26.91	91.98	14.47	-44.2	-46.8	17.5	0.00e+00	0	38	0	456130560	59	5037
2026-01-21 21:50:28.18	92.24	14.45	-44.2	-46.7	17.6	0.00e+00	0	38	0	458227712	59	4978
2026-01-21 21:50:29.07	92.42	14.43	-44.1	-46.7	17.6	0.00e+00	0	38	0	460324864	59	4947
2026-01-21 21:50:30.49	92.72	14.41	-43.8	-46.3	18.0	0.00e+00	0	38	0	462422016	59	4739
2026-01-21 21:50:31.20	92.86	14.40	-43.8	-46.3	18.0	0.00e+00	0	38	0	463470592	59	4711
2026-01-21 21:50:32.76	93.18	14.38	-43.7	-46.2	18.1	0.00e+00	0	38	0	466616320	59	4661
2026-01-21 21:50:33.39	93.31	14.36	-43.7	-46.1	18.1	0.00e+00	0	38	0	467664896	59	4642
2026-01-21 21:50:34.92	93.63	14.34	-43.6	-46.0	18.2	0.00e+00	0	38	0	470810624	59	4598
2026-01-21 21:50:35.63	93.77	14.33	-43.6	-46.0	18.3	0.00e+00	0	38	0	471859200	59	4559
2026-01-21 21:50:36.91	94.04	14.30	-43.6	-46.1	18.2	0.00e+00	0	38	0	475004928	59	4599
2026-01-21 21:50:37.64	94.18	14.29	-43.6	-46.0	18.2	0.00e+00	0	38	0	476053504	59	4581
2026-01-21 21:50:38.92	94.45	14.27	-43.5	-45.8	18.4	0.00e+00	0	38	0	478150656	58	4753
2026-01-21 21:50:39.63	94.59	14.25	-43.5	-45.9	18.3	0.00e+00	0	38	0	479199232	58	4803
2026-01-21 21:50:41.00	94.87	14.23	-43.7	-46.1	18.1	0.00e+00	0	38	0	482344960	58	4908
2026-01-21 21:50:41.71	95.01	14.22	-43.8	-46.3	18.0	0.00e+00	0	38	0	483393536	58	4996
2026-01-21 21:50:43.04	95.28	14.19	-43.9	-46.4	17.9	0.00e+00	0	38	0	486539264	58	5050
2026-01-21 21:50:43.75	95.43	14.18	-44.0	-46.5	17.7	0.00e+00	0	38	0	487587840	58	5150
2026-01-21 21:50:45.11	95.70	14.15	-44.0	-46.5	17.8	0.00e+00	0	38	0	489684992	58	5133
2026-01-21 21:50:45.82	95.85	14.13	-44.0	-46.6	17.7	0.00e+00	0	38	0	491782144	58	5175
2026-01-21 21:50:47.13	96.11	14.11	-44.1	-46.6	17.7	0.00e+00	0	38	0	493879296	58	5209
2026-01-21 21:50:47.84	96.26	14.09	-44.0	-46.5	17.8	0.00e+00	0	38	0	494927872	58	5147
2026-01-21 21:50:49.12	96.51	14.06	-43.9	-46.5	17.9	0.00e+00	0	38	0	497025024	58	5101
2026-01-21 21:50:50.18	96.73	14.04	-43.8	-46.3	18.0	0.00e+00	0	38	0	499122176	58	4990
2026-01-21 21:50:51.04	96.90	14.02	-43.6	-46.1	18.1	0.00e+00	0	38	0	501219328	58	4893
2026-01-21 21:50:52.18	97.13	14.00	-43.5	-45.9	18.4	0.00e+00	0	38	0	503316480	58	4769
2026-01-21 21:50:53.04	97.30	13.98	-43.5	-46.0	18.3	0.00e+00	0	38	0	504365056	58	4823
2026-01-21 21:50:54.17	97.53	13.95	-43.6	-46.0	18.2	0.00e+00	0	38	0	506462208	58	4859
2026-01-21 21:50:55.02	97.70	13.93	-43.6	-46.0	18.3	0.00e+00	0	38	0	508559360	58	4831
2026-01-21 21:50:56.16	97.92	13.90	-43.6	-46.1	18.2	0.00e+00	0	38	0	510656512	58	4902
2026-01-21 21:50:57.01	98.09	13.88	-43.7	-46.1	18.1	0.00e+00	0	38	0	512753664	58	4913
2026-01-21 21:50:58.15	98.32	13.86	-43.7	-46.2	18.1	0.00e+00	0	38	0	514850816	58	4932
2026-01-21 21:50:59.00	98.49	13.84	-43.7	-46.2	18.1	0.00e+00	0	38	0	515899392	58	4948
2026-01-21 21:51:00.14	98.72	13.81	-43.8	-46.2	18.0	0.00e+00	0	38	0	517996544	58	4980
2026-01-21 21:51:00.99	98.88	13.79	-43.9	-46.3	17.9	0.00e+00	0	38	0	520093696	58	5040
2026-01-21 21:51:02.13	99.11	13.76	-43.9	-46.5	17.8	0.00e+00	0	38	0	522190848	58	5114
2026-01-21 21:51:02.98	99.28	13.74	-44.0	-46.6	17.7	0.00e+00	0	38	0	523239424	58	5183
2026-01-21 21:51:04.12	99.50	13.71	-44.0	-46.6	17.7	0.00e+00	0	38	0	525336576	58	5165
2026-01-21 21:51:04.97	99.67	13.68	-44.0	-46.5	17.8	0.00e+00	0	38	0	527433728	58	5152
2026-01-21 21:51:06.11	99.89	13.65	-43.9	-46.4	17.9	0.00e+00	0	38	0	529530880	58	5071
2026-01-21 21:51:06.96	100.06	13.63	-43.9	-46.3	17.9	0.00e+00	0	38	0	530579456	58	5041
2026-01-21 21:51:08.11	100.28	13.60	-43.8	-46.3	18.0	0.00e+00	0	38	0	532676608	58	4995
2026-01-21 21:51:08.97	100.45	13.58	-43.7	-46.2	18.1	0.00e+00	0	38	0	534773760	58	4944
2026-01-21 21:51:10.10	100.67	13.55	-43.8	-46.2	18.0	0.00e+00	0	38	0	536870912	58	4980
2026-01-21 21:51:10.96	100.84	13.52	-43.6	-46.1	18.1	0.00e+00	0	38	0	538968064	58	4888
2026-01-21 21:51:12.10	101.06	13.49	-43.6	-46.1	18.2	0.00e+00	0	38	0	540016640	58	4877
2026-01-21 21:51:12.95	101.23	13.47	-43.8	-46.2	18.0	0.00e+00	0	38	0	542113792	58	4980
2026-01-21 21:51:14.08	101.44	13.43	-43.7	-46.2	18.0	0.00e+00	0	38	0	544210944	58	4948
2026-01-21 21:51:14.98	101.62	13.41	-43.7	-46.2	18.1	0.00e+00	0	38	0	546308096	58	4940
2026-01-21 21:51:16.08	101.83	13.37	-43.6	-46.0	18.2	0.00e+00	0	38	0	548405248	58	4863
2026-01-21 21:51:16.94	101.99	13.35	-43.7	-46.2	18.1	0.00e+00	0	38	0	549453824	58	4945
2026-01-21 21:51:18.07	102.21	13.32	-43.9	-46.4	17.9	0.00e+00	0	38	0	551550976	58	5068
2026-01-21 21:51:19.13	102.42	13.28	-44.1	-46.6	17.7	0.00e+00	0	38	0	553648128	58	5213
2026-01-21 21:51:19.99	102.58	13.26	-44.2	-46.9	17.4	0.00e+00	0	38	0	555745280	59	5043
2026-01-21 21:51:21.12	102.80	13.22	-44.3	-47.0	17.3	0.00e+00	0	38	0	557842432	59	5107
2026-01-21 21:51:21.98	102.96	13.20	-44.3	-47.0	17.3	0.00e+00	0	38	0	558891008	59	5110
2026-01-21 21:51:23.11	103.17	13.16	-44.4	-47.1	17.2	0.00e+00	0	38	0	560988160	59	5165
2026-01-21 21:51:23.96	103.34	13.14	-44.5	-47.2	17.1	0.00e+00	0	38	0	563085312	59	5231
2026-01-21 21:51:25.10	103.55	13.10	-44.4	-47.1	17.1	0.00e+00	0	38	0	565182464	59	5214
2026-01-21 21:51:25.96	103.71	13.07	-44.5	-47.2	17.1	0.00e+00	0	38	0	566231040	59	5233
2026-01-21 21:51:27.09	103.93	13.04	-44.6	-47.3	17.0	0.00e+00	0	38	0	568328192	59	5303
2026-01-21 21:51:27.95	104.09	13.01	-44.6	-47.3	17.0	0.00e+00	0	38	0	570425344	59	5327
2026-01-21 21:51:29.13	104.31	12.97	-44.6	-47.4	16.9	0.00e+00	0	38	0	572522496	60	5068
2026-01-21 21:51:29.99	104.47	12.94	-44.6	-47.4	17.0	0.00e+00	0	38	0	573571072	60	5050
2026-01-21 21:51:31.12	104.68	12.91	-44.6	-47.4	16.9	0.00e+00	0	38	0	576716800	60	5068
2026-01-21 21:51:31.98	104.84	12.88	-44.6	-47.4	17.0	0.00e+00	0	38	0	577765376	60	5045
2026-01-21 21:51:33.11	105.05	12.84	-44.7	-47.4	17.0	0.00e+00	0	38	0	579862528	60	5067
2026-01-21 21:51:33.97	105.21	12.81	-44.6	-47.3	17.0	0.00e+00	0	38	0	581959680	60	5040
2026-01-21 21:51:35.10	105.42	12.77	-44.6	-47.4	17.0	0.00e+00	0	38	0	584056832	60	5058
2026-01-21 21:51:36.10	105.61	12.74	-44.5	-47.3	17.1	0.00e+00	0	38	0	585105408	60	5001
2026-01-21 21:51:37.26	105.82	12.70	-44.6	-47.3	17.0	0.00e+00	0	38	0	588251136	60	5040
2026-01-21 21:51:38.12	105.98	12.67	-44.7	-47.5	16.9	0.00e+00	0	38	0	589299712	60	5133
2026-01-21 21:51:39.46	106.23	12.62	-44.9	-47.7	16.6	0.00e+00	0	38	0	591396864	60	5263
2026-01-21 21:51:40.17	106.36	12.60	-45.1	-48.0	16.4	0.00e+00	0	38	0	593494016	60	5434
2026-01-21 21:51:41.45	106.59	12.55	-45.3	-48.3	16.1	0.00e+00	0	38	0	595591168	61	5309
2026-01-21 21:51:42.18	106.72	12.53	-45.5	-48.7	15.7	0.00e+00	0	38	0	596639744	61	5530
2026-01-21 21:51:43.71	107.00	12.47	-45.8	-49.1	15.3	0.00e+00	0	38	0	599785472	62	5484
2026-01-21 21:51:44.42	107.13	12.45	-46.0	-49.3	15.1	0.00e+00	0	38	0	600834048	62	5636
2026-01-21 21:51:45.70	107.36	12.40	-45.9	-49.4	15.1	0.00e+00	0	38	0	603979776	62	5690
2026-01-21 21:51:46.41	107.49	12.38	-45.9	-49.4	15.1	0.00e+00	0	38	0	605028352	62	5666
2026-01-21 21:51:47.81	107.74	12.32	-46.1	-49.7	14.8	0.00e+00	0	38	0	607125504	62	5856
2026-01-21 21:51:48.52	107.87	12.30	-46.2	-49.8	14.6	0.00e+00	0	38	0	609222656	63	5606
2026-01-21 21:51:49.80	108.10	12.25	-46.5	-50.1	14.3	0.00e+00	0	38	0	611319808	63	5830
2026-01-21 21:51:50.54	108.23	12.22	-46.6	-50.4	14.1	1.50e-06	0	38	0	612368384	63	5993
2026-01-21 21:51:51.82	108.46	12.18	-46.6	-50.3	14.0	2.20e-06	0	38	0	615514112	64	5638
2026-01-21 21:51:52.55	108.59	12.15	-46.6	-50.3	14.0	2.20e-06	0	38	0	616562688	64	5632
2026-01-21 21:51:53.83	108.82	12.10	-46.4	-50.0	14.4	1.50e-06	0	38	0	618659840	64	5410
2026-01-21 21:51:54.54	108.94	12.07	-46.2	-49.7	14.6	0.00e+00	0	38	0	619708416	64	5242
2026-01-21 21:51:55.82	109.17	12.02	-46.1	-49.5	14.8	0.00e+00	0	38	0	622854144	64	5138
2026-01-21 21:51:56.53	109.29	12.00	-46.1	-49.5	14.9	0.00e+00	0	38	0	623902720	64	5103
2026-01-21 21:51:57.81	109.52	11.95	-45.8	-49.0	15.4	0.00e+00	0	38	0	625999872	63	5135
2026-01-21 21:51:58.55	109.65	11.92	-45.7	-48.9	15.5	0.00e+00	0	38	0	628097024	63	5078
2026-01-21 21:51:59.83	109.87	11.87	-45.8	-49.0	15.4	0.00e+00	0	38	0	630194176	63	5142
2026-01-21 21:52:00.55	110.00	11.84	-45.9	-49.1	15.3	0.00e+00	0	38	0	631242752	63	5218
2026-01-21 21:52:01.83	110.22	11.79	-45.8	-49.1	15.2	0.00e+00	0	38	0	633339904	63	5211
2026-01-21 21:52:02.57	110.35	11.76	-45.9	-49.2	15.1	0.00e+00	0	38	0	635437056	63	5270
2026-01-21 21:52:04.28	110.64	11.70	-46.0	-49.4	15.0	7.00e-07	0	38	0	638582784	63	5342
2026-01-21 21:52:04.85	110.74	11.67	-46.0	-49.4	14.9	7.00e-07	0	38	0	639631360	63	5390
2026-01-21 21:52:06.55	111.03	11.60	-46.2	-49.7	14.6	7.00e-07	0	38	0	642777088	63	5586
2026-01-21 21:52:07.12	111.13	11.58	-46.3	-49.9	14.5	0.00e+00	0	38	0	643825664	63	5665
2026-01-21 21:52:08.86	111.43	11.51	-46.5	-50.2	14.2	1.50e-06	0	38	0	646971392	63	5884
2026-01-21 21:52:09.43	111.52	11.49	-46.5	-50.2	14.2	0.00e+00	0	38	0	648019968	63	5890
2026-01-21 21:52:11.13	111.81	11.42	-46.5	-50.3	14.1	0.00e+00	0	38	0	651165696	63	5965
2026-01-21 21:52:11.70	111.91	11.40	-46.5	-50.2	14.1	7.00e-07	0	38	0	652214272	63	5903
2026-01-21 21:52:13.53	112.22	11.32	-46.1	-50.1	14.3	7.00e-07	0	38	0	655360000	63	5846
2026-01-21 21:52:14.10	112.31	11.30	-46.1	-50.1	14.2	0.00e+00	0	38	0	656408576	63	5849
2026-01-21 21:52:15.80	112.60	11.23	-46.2	-49.7	14.6	0.00e+00	0	38	0	659554304	63	5588
2026-01-21 21:52:16.50	112.72	11.20	-46.1	-49.6	14.8	0.00e+00	0	38	0	661651456	63	5478
2026-01-21 21:52:17.92	112.95	11.14	-46.0	-49.7	14.6	0.00e+00	0	38	0	663748608	63	5565
2026-01-21 21:52:18.69	113.08	11.11	-45.9	-49.6	14.7	0.00e+00	0	38	0	665845760	63	5501
2026-01-21 21:52:19.97	113.29	11.05	-46.2	-49.6	14.7	0.00e+00	0	38	0	667942912	63	5513
2026-01-21 21:52:20.69	113.41	11.02	-46.0	-49.4	15.0	0.00e+00	0	38	0	668991488	63	5348
2026-01-21 21:52:21.97	113.62	10.97	-45.9	-49.3	15.1	0.00e+00	0	38	0	671088640	63	5287
2026-01-21 21:52:22.68	113.74	10.94	-45.9	-49.2	15.1	0.00e+00	0	38	0	673185792	63	5262
2026-01-21 21:52:23.96	113.95	10.88	-45.8	-49.1	15.2	7.00e-07	0	38	0	675282944	63	5186
2026-01-21 21:52:24.69	114.07	10.85	-45.5	-48.7	15.6	0.00e+00	0	38	0	676331520	63	4928
2026-01-21 21:52:25.97	114.28	10.80	-45.2	-48.1	16.2	0.00e+00	0	38	0	679477248	62	4918
2026-01-21 21:52:26.68	114.39	10.77	-45.2	-48.1	16.1	0.00e+00	0	38	0	680525824	62	4916
2026-01-21 21:52:27.95	114.60	10.71	-45.1	-48.0	16.2	0.00e+00	0	38	0	682622976	62	4862
2026-01-21 21:52:28.66	114.71	10.68	-45.1	-48.1	16.1	0.00e+00	0	38	0	683671552	62	4905
2026-01-21 21:52:30.02	114.93	10.62	-45.3	-48.4	15.9	0.00e+00	0	38	0	686817280	62	5058
2026-01-21 21:52:30.73	115.05	10.59	-45.5	-48.6	15.7	0.00e+00	0	38	0	687865856	62	5185
2026-01-21 21:52:32.07	115.26	10.53	-45.4	-48.6	15.7	0.00e+00	0	38	0	691011584	62	5172
2026-01-21 21:52:33.05	115.42	10.49	-45.6	-48.7	15.6	0.00e+00	0	38	0	692060160	62	5245
2026-01-21 21:52:34.36	115.62	10.43	-45.4	-48.8	15.4	0.00e+00	0	38	0	695205888	62	5304
2026-01-21 21:52:35.07	115.74	10.40	-45.3	-48.7	15.5	0.00e+00	0	38	0	696254464	62	5277
2026-01-21 21:52:36.35	115.94	10.35	-45.3	-48.8	15.4	0.00e+00	0	38	0	698351616	62	5319
2026-01-21 21:52:37.08	116.05	10.31	-45.4	-48.9	15.3	0.00e+00	0	38	0	699400192	62	5397
2026-01-21 21:52:38.36	116.26	10.26	-45.8	-49.0	15.2	0.00e+00	0	38	0	702545920	62	5448
2026-01-21 21:52:39.23	116.39	10.22	-45.8	-49.1	15.1	0.00e+00	0	38	0	703594496	62	5501
2026-01-21 21:52:40.36	116.57	10.17	-45.5	-49.0	15.2	0.00e+00	0	38	0	705691648	62	5427
2026-01-21 21:52:41.22	116.70	10.13	-45.6	-48.8	15.4	0.00e+00	0	38	0	707788800	62	5317
2026-01-21 21:52:42.35	116.88	10.08	-45.3	-48.5	15.7	0.00e+00	0	38	0	709885952	62	5134
2026-01-21 21:52:43.21	117.01	10.04	-45.3	-48.5	15.7	0.00e+00	0	38	0	710934528	62	5117
2026-01-21 21:52:44.35	117.19	9.99	-45.2	-48.3	15.9	0.00e+00	0	38	0	713031680	62	5008
2026-01-21 21:52:45.20	117.32	9.95	-45.1	-48.1	16.0	0.00e+00	0	38	0	715128832	62	4915
2026-01-21 21:52:46.33	117.49	9.90	-45.0	-48.0	16.2	0.00e+00	0	38	0	717225984	62	4826
2026-01-21 21:52:47.19	117.62	9.86	-44.8	-47.8	16.4	0.00e+00	0	38	0	719323136	61	4986
2026-01-21 21:52:48.33	117.80	9.81	-44.6	-47.5	16.6	0.00e+00	0	38	0	721420288	61	4848
2026-01-21 21:52:49.18	117.93	9.77	-44.6	-47.5	16.6	0.00e+00	0	38	0	722468864	61	4846
2026-01-21 21:52:50.31	118.10	9.72	-44.5	-47.3	16.8	0.00e+00	0	38	0	724566016	60	5034
2026-01-21 21:52:51.17	118.23	9.68	-44.8	-47.8	16.3	0.00e+00	0	38	0	726663168	60	5315
2026-01-21 21:52:52.30	118.40	9.63	-45.0	-48.0	16.1	0.00e+00	0	38	0	728760320	60	5441
2026-01-21 21:52:53.28	118.54	9.58	-44.9	-47.9	16.2	0.00e+00	0	38	0	729808896	60	5378
2026-01-21 21:52:54.45	118.72	9.53	-45.2	-48.2	15.9	0.00e+00	0	38	0	731906048	61	5272
2026-01-21 21:52:55.32	118.85	9.49	-45.1	-48.2	15.9	0.00e+00	0	38	0	734003200	61	5255
2026-01-21 21:52:56.45	119.02	9.44	-45.3	-48.4	15.7	0.00e+00	0	38	0	736100352	61	5368
2026-01-21 21:52:57.38	119.16	9.40	-45.0	-48.0	16.1	0.00e+00	0	38	0	738197504	61	5133
2026-01-21 21:52:58.38	119.30	9.35	-44.9	-47.9	16.1	0.00e+00	0	38	0	740294656	61	5087
2026-01-21 21:52:59.38	119.45	9.30	-44.9	-47.9	16.2	0.00e+00	0	38	0	741343232	61	5068
2026-01-21 21:53:00.37	119.60	9.26	-44.9	-47.8	16.3	0.00e+00	0	38	0	743440384	61	5018
2026-01-21 21:53:01.37	119.74	9.21	-44.7	-47.9	16.1	0.00e+00	0	38	0	745537536	61	5092
2026-01-21 21:53:02.36	119.89	9.16	-44.6	-47.9	16.2	0.00e+00	0	38	0	747634688	61	5046
2026-01-21 21:53:03.36	120.03	9.12	-45.0	-48.0	16.0	0.00e+00	0	38	0	748683264	61	5156
2026-01-21 21:53:04.35	120.18	9.07	-44.8	-48.2	15.9	0.00e+00	0	38	0	750780416	61	5227
2026-01-21 21:53:05.35	120.32	9.02	-45.1	-48.2	15.9	0.00e+00	0	38	0	752877568	61	5246
2026-01-21 21:53:06.34	120.47	8.98	-50.4	-65.7	3.8	4.65e-01	0	38	104	753926144	71	22207
2026-01-21 21:53:07.33	120.61	8.93	-50.8	-65.9	3.8	1.49e+00	0	38	104	753926144	72	21301
2026-01-21 21:53:08.33	120.75	8.89	-50.7	-66.0	3.8	1.49e+00	0	38	104	753926144	72	21555
2026-01-21 21:53:09.32	120.89	8.84	-50.7	-66.0	3.8	1.49e+00	0	38	104	753926144	72	21687
2026-01-21 21:53:10.31	121.03	8.79	-50.8	-66.1	3.8	1.49e+00	0	38	104	753926144	72	21904
2026-01-21 21:53:11.31	121.18	8.74	-50.8	-66.1	3.8	1.49e+00	0	38	104	753926144	72	21891
2026-01-21 21:53:12.33	121.32	8.70	-50.9	-66.1	3.8	1.49e+00	0	38	104	753926144	72	21966
2026-01-21 21:53:13.39	121.47	8.65	-50.9	-66.2	3.8	1.49e+00	0	38	104	753926144	72	22056
2026-01-21 21:53:14.32	121.60	8.60	-50.9	-66.2	3.8	1.49e+00	0	38	104	753926144	72	22071
2026-01-21 21:53:15.44	121.76	8.55	-51.0	-66.2	3.8	1.49e+00	0	38	104	753926144	72	22100
2026-01-21 21:53:16.32	121.88	8.51	-50.9	-66.2	3.8	1.49e+00	0	38	104	753926144	72	22090
2026-01-21 21:53:17.63	122.06	8.45	-50.6	-66.2	3.8	1.49e+00	0	38	104	753926144	72	22167
2026-01-21 21:53:18.34	122.16	8.41	-50.6	-66.3	3.8	1.49e+00	0	38	104	753926144	72	22288
2026-01-21 21:53:19.84	122.37	8.34	-50.8	-66.3	3.8	1.49e+00	0	38	104	753926144	72	22287
2026-01-21 21:53:20.55	122.47	8.31	-50.8	-66.3	3.8	1.49e+00	0	38	104	753926144	72	22286
2026-01-21 21:53:21.83	122.65	8.25	-50.7	-66.3	3.8	1.49e+00	0	38	104	753926144	72	22293
2026-01-21 21:53:22.54	122.74	8.21	-50.6	-66.3	3.8	1.49e+00	0	38	104	753926144	72	22392
2026-01-21 21:53:23.82	122.92	8.15	-50.7	-66.3	3.8	1.49e+00	0	38	104	753926144	72	22352
2026-01-21 21:53:24.52	123.01	8.12	-50.7	-66.3	3.8	1.49e+00	0	38	104	753926144	72	22391
2026-01-21 21:53:25.80	123.19	8.06	-50.8	-66.3	3.8	1.49e+00	0	38	104	753926144	72	22359
2026-01-21 21:53:26.51	123.28	8.02	-50.8	-66.3	3.8	1.49e+00	0	38	104	753926144	72	22342
2026-01-21 21:53:27.79	123.46	7.96	-50.7	-66.2	3.8	1.49e+00	0	38	104	753926144	72	22179
2026-01-21 21:53:28.50	123.55	7.93	-50.7	-66.2	3.8	1.49e+00	0	38	104	753926144	72	22193
2026-01-21 21:53:29.77	123.72	7.86	-50.7	-66.2	3.8	1.49e+00	0	38	104	753926144	72	22162
2026-01-21 21:53:30.49	123.82	7.83	-50.7	-66.2	3.8	1.49e+00	0	38	104	753926144	72	22142
2026-01-21 21:53:31.76	123.99	7.77	-50.7	-66.2	3.8	1.49e+00	0	38	104	753926144	72	22156
2026-01-21 21:53:32.49	124.08	7.73	-50.7	-66.2	3.8	1.49e+00	0	38	104	753926144	72	22126
2026-01-21 21:53:33.76	124.25	7.67	-50.7	-66.2	3.8	1.49e+00	0	38	104	753926144	72	22124
2026-01-21 21:53:34.48	124.35	7.64	-50.7	-66.2	3.8	1.49e+00	0	38	104	753926144	72	22055
2026-01-21 21:53:35.75	124.51	7.58	-50.7	-66.2	3.8	1.49e+00	0	38	104	753926144	72	22197
2026-01-21 21:53:36.46	124.61	7.54	-50.7	-66.2	3.8	1.49e+00	0	38	104	753926144	72	22055
2026-01-21 21:53:37.74	124.77	7.48	-50.7	-66.2	3.8	1.49e+00	0	38	104	753926144	72	22124
2026-01-21 21:53:38.45	124.87	7.45	-50.7	-66.2	3.8	1.49e+00	0	38	104	753926144	72	22110
2026-01-21 21:53:39.73	125.03	7.38	-50.7	-66.2	3.8	1.49e+00	0	38	104	753926144	72	22133
2026-01-21 21:53:40.44	125.13	7.35	-50.7	-66.2	3.8	1.49e+00	0	38	104	753926144	72	22216
2026-01-21 21:53:41.71	125.29	7.29	-50.7	-66.2	3.8	1.49e+00	0	38	104	753926144	72	22099
2026-01-21 21:53:42.44	125.38	7.25	-50.7	-66.2	3.8	1.49e+00	0	38	104	753926144	72	22052
2026-01-21 21:53:43.72	125.55	7.19	-50.6	-66.2	3.8	1.49e+00	0	38	104	753926144	72	22074
2026-01-21 21:53:44.43	125.64	7.15	-50.6	-66.2	3.8	1.49e+00	0	38	104	753926144	72	22178
2026-01-21 21:53:45.70	125.80	7.09	-50.6	-66.2	3.8	1.49e+00	0	38	104	753926144	72	22039
2026-01-21 21:53:46.41	125.89	7.06	-50.7	-66.2	3.8	1.49e+00	0	38	104	753926144	72	22137
2026-01-21 21:53:47.69	126.05	7.00	-50.7	-66.2	3.8	1.49e+00	0	38	104	753926144	72	22112
2026-01-21 21:53:48.41	126.14	6.96	-50.7	-66.2	3.8	1.49e+00	0	38	104	753926144	72	22066
2026-01-21 21:53:49.69	126.30	6.90	-50.6	-66.2	3.8	1.49e+00	0	38	104	753926144	72	22130
2026-01-21 21:53:50.40	126.39	6.86	-50.7	-66.2	3.8	1.49e+00	0	38	104	753926144	72	22034
2026-01-21 21:53:51.68	126.55	6.80	-50.6	-66.2	3.8	1.49e+00	0	38	104	753926144	72	22169
2026-01-21 21:53:52.40	126.64	6.77	-50.7	-66.2	3.8	1.49e+00	0	38	104	753926144	72	22100
2026-01-21 21:53:53.68	126.80	6.70	-50.7	-66.2	3.8	1.49e+00	0	38	104	753926144	72	22127
2026-01-21 21:53:54.39	126.89	6.67	-50.7	-66.2	3.8	1.49e+00	0	38	104	753926144	72	22118
2026-01-21 21:53:55.67	127.05	6.61	-50.7	-66.2	3.8	1.49e+00	0	38	104	753926144	72	22070
2026-01-21 21:53:56.38	127.14	6.57	-50.7	-66.2	3.8	1.49e+00	0	38	104	753926144	72	22135
2026-01-21 21:53:57.65	127.29	6.51	-50.7	-66.2	3.8	1.49e+00	0	38	104	753926144	72	22050
2026-01-21 21:53:58.36	127.38	6.47	-50.6	-66.2	3.8	1.49e+00	0	38	104	753926144	72	22068
2026-01-21 21:53:59.64	127.53	6.41	-50.6	-66.2	3.8	1.49e+00	0	38	104	753926144	72	22057
2026-01-21 21:54:00.35	127.62	6.38	-50.6	-66.2	3.8	1.49e+00	0	38	104	753926144	72	22103
2026-01-21 21:54:01.63	127.78	6.31	-50.7	-66.2	3.8	1.49e+00	0	38	104	753926144	72	22088
2026-01-21 21:54:02.34	127.86	6.28	-50.7	-66.2	3.8	1.49e+00	0	38	104	753926144	72	22156
2026-01-21 21:54:03.61	128.01	6.22	-50.6	-66.1	3.8	1.49e+00	0	38	104	753926144	72	22000
2026-01-21 21:54:04.32	128.10	6.18	-50.6	-66.2	3.8	1.49e+00	0	38	104	753926144	72	22046
2026-01-21 21:54:05.60	128.25	6.12	-50.6	-66.2	3.8	1.49e+00	0	38	104	753926144	72	22028
2026-01-21 21:54:06.31	128.34	6.09	-50.6	-66.2	3.8	1.49e+00	0	38	104	753926144	72	22089
2026-01-21 21:54:07.59	128.49	6.02	-50.6	-66.1	3.8	1.49e+00	0	38	104	753926144	72	21996
2026-01-21 21:54:08.30	128.57	5.99	-50.7	-66.2	3.8	1.49e+00	0	38	104	753926144	72	22099
2026-01-21 21:54:09.58	128.72	5.92	-50.6	-66.2	3.8	1.49e+00	0	38	104	753926144	72	22077
2026-01-21 21:54:10.30	128.81	5.89	-50.6	-66.2	3.8	1.49e+00	0	38	104	753926144	72	22043
2026-01-21 21:54:11.58	128.96	5.83	-50.6	-66.2	3.8	1.49e+00	0	38	104	753926144	72	22021
2026-01-21 21:54:12.29	129.04	5.79	-50.6	-66.2	3.8	1.49e+00	0	38	104	753926144	72	22097
2026-01-21 21:54:13.58	129.19	5.73	-50.6	-66.2	3.8	1.49e+00	0	38	104	753926144	72	22022
2026-01-21 21:54:14.29	129.27	5.69	-50.6	-66.1	3.8	1.49e+00	0	38	104	753926144	72	22006
2026-01-21 21:54:15.57	129.42	5.63	-50.6	-66.2	3.8	1.49e+00	0	38	104	753926144	72	22070
2026-01-21 21:54:16.29	129.51	5.59	-50.6	-66.2	3.8	1.49e+00	0	38	104	753926144	72	22050
2026-01-21 21:54:17.57	129.65	5.53	-50.6	-66.2	3.8	1.49e+00	0	38	104	753926144	72	22073
2026-01-21 21:54:18.29	129.73	5.50	-50.6	-66.2	3.8	1.49e+00	0	38	104	753926144	72	22061
2026-01-21 21:54:19.57	129.88	5.43	-50.6	-66.2	3.8	1.49e+00	0	38	104	753926144	72	22016
2026-01-21 21:54:20.28	129.96	5.40	-50.6	-66.1	3.8	1.49e+00	0	38	104	753926144	72	21956
2026-01-21 21:54:21.56	130.11	5.34	-50.6	-66.1	3.8	1.49e+00	0	38	104	753926144	72	22005
2026-01-21 21:54:22.27	130.19	5.30	-50.6	-66.2	3.8	1.49e+00	0	38	104	753926144	72	22036
2026-01-21 21:54:23.54	130.33	5.24	-50.6	-66.2	3.8	1.49e+00	0	38	104	753926144	72	22043
2026-01-21 21:54:24.25	130.41	5.20	-50.6	-66.2	3.8	1.49e+00	0	38	104	753926144	72	22041
2026-01-21 21:54:25.54	130.55	5.14	-50.6	-66.1	3.8	1.49e+00	0	38	104	753926144	72	21972
2026-01-21 21:54:26.25	130.63	5.11	-50.6	-66.2	3.8	1.49e+00	0	38	104	753926144	72	22043
2026-01-21 21:54:27.53	130.78	5.04	-50.6	-66.2	3.8	1.49e+00	0	38	104	753926144	72	22041
2026-01-21 21:54:28.24	130.86	5.01	-50.6	-66.1	3.8	1.49e+00	0	38	104	753926144	72	21964
2026-01-21 21:54:29.52	131.00	4.94	-50.6	-66.1	3.8	1.49e+00	0	38	104	753926144	72	21937

#Closed at: 2026-01-21 21:54:30
#Recorded file [753 MB]: D:/Data/31040_260122_004501.dat