passes_logs/2026/01/21/T1/T1__20260121_020102_FENGYUN_3D_rec.log

#Pass ID: 20260121_020102_FENGYUN 3D
#Satellite: FENGYUN 3D
#Configuration: FENGYUN 3D
#almurnet v.1.7.20251203
#Start time: 2026-01-21 02:01:03

#Version: 2.0.20230620
#Station: T1
#Location: 37.570604 lon 55.790049 lat
#TLE: 1 43010U 17072A   26020.28933472  .00000051  00000+0  46008-4 0  9990
#TLE: 2 43010  98.9944 352.1871 0002476  99.7001 260.4455 14.19696838424006

#Time	Az	El	Level	Level2	SNR	BER	BlckErr	Temp	State	Recorded	gain1	gain2
2026-01-21 02:01:03.04	15.27	5.02	-50.7	-64.1	3.8	8.46e-01	0	38	0	0	73	16473
2026-01-21 02:01:04.03	15.26	5.09	-50.9	-63.9	3.8	8.48e-01	0	38	104	0	72	17006
2026-01-21 02:01:05.02	15.25	5.17	-50.9	-63.9	3.8	8.47e-01	0	38	104	0	72	17061
2026-01-21 02:01:06.02	15.24	5.24	-50.9	-64.0	3.8	8.47e-01	0	38	104	0	72	17187
2026-01-21 02:01:07.01	15.23	5.31	-50.9	-64.0	3.8	8.47e-01	0	38	104	0	72	17152
2026-01-21 02:01:08.00	15.23	5.38	-50.9	-64.0	3.8	8.47e-01	0	38	104	0	72	17210
2026-01-21 02:01:08.99	15.22	5.45	-50.9	-64.1	3.8	8.46e-01	0	38	104	0	72	17349
2026-01-21 02:01:09.99	15.21	5.52	-50.9	-64.1	3.8	8.46e-01	0	38	104	0	72	17312
2026-01-21 02:01:10.98	15.20	5.59	-50.9	-64.1	3.8	8.47e-01	0	38	104	0	72	17384
2026-01-21 02:01:11.97	15.19	5.67	-50.9	-64.1	3.8	8.47e-01	0	38	104	0	72	17347
2026-01-21 02:01:12.97	15.18	5.74	-50.9	-64.0	3.8	8.47e-01	0	38	104	0	72	17226
2026-01-21 02:01:13.96	15.17	5.81	-50.9	-64.1	3.8	8.47e-01	0	38	104	0	72	17306
2026-01-21 02:01:14.95	15.16	5.88	-50.9	-64.0	3.8	8.47e-01	0	38	104	0	72	17247
2026-01-21 02:01:15.94	15.15	5.96	-50.9	-64.0	3.8	8.47e-01	0	38	104	0	72	17155
2026-01-21 02:01:16.94	15.14	6.03	-50.9	-63.9	3.8	8.48e-01	0	38	104	0	72	17052
2026-01-21 02:01:17.93	15.13	6.10	-50.8	-64.0	3.8	8.46e-01	0	38	104	0	72	17103
2026-01-21 02:01:18.92	15.12	6.18	-50.8	-63.9	3.8	8.47e-01	0	39	104	0	72	16989
2026-01-21 02:01:19.92	15.11	6.25	-50.9	-63.8	3.8	8.47e-01	0	39	104	0	72	16873
2026-01-21 02:01:20.91	15.11	6.33	-50.9	-63.8	3.8	8.45e-01	0	39	104	0	72	16795
2026-01-21 02:01:21.90	15.10	6.40	-50.8	-63.7	3.8	8.47e-01	0	39	104	0	72	16625
2026-01-21 02:01:22.90	15.09	6.48	-50.8	-63.6	3.8	8.47e-01	0	39	104	0	72	16392
2026-01-21 02:01:23.89	15.08	6.55	-50.8	-63.5	3.8	8.48e-01	0	39	104	0	72	16248
2026-01-21 02:01:24.88	15.07	6.62	-50.8	-63.4	3.8	8.47e-01	0	39	104	0	72	16092
2026-01-21 02:01:25.88	15.06	6.70	-50.8	-63.4	3.8	8.45e-01	0	39	104	0	72	15959
2026-01-21 02:01:26.87	15.05	6.78	-50.8	-63.4	3.8	8.48e-01	0	39	104	0	72	15966
2026-01-21 02:01:27.86	15.04	6.85	-50.8	-63.3	3.8	8.47e-01	0	39	104	0	72	15828
2026-01-21 02:01:28.85	15.03	6.93	-50.8	-63.3	3.8	8.47e-01	0	39	104	0	72	15861
2026-01-21 02:01:29.85	15.01	7.00	-50.8	-63.3	3.8	8.46e-01	0	39	104	0	72	15813
2026-01-21 02:01:30.84	15.00	7.08	-50.8	-63.3	3.8	8.46e-01	0	39	104	0	72	15877
2026-01-21 02:01:31.83	14.99	7.16	-50.8	-63.3	3.8	8.47e-01	0	39	104	0	72	15776
2026-01-21 02:01:32.82	14.98	7.23	-50.8	-63.2	3.8	8.45e-01	0	39	104	0	72	15655
2026-01-21 02:01:33.82	14.97	7.31	-50.8	-63.0	3.8	8.47e-01	0	39	104	0	72	15265
2026-01-21 02:01:34.81	14.96	7.39	-50.7	-62.8	3.8	8.47e-01	0	39	104	0	72	14906
2026-01-21 02:01:35.80	14.95	7.46	-50.7	-62.5	3.8	8.46e-01	0	39	104	0	72	14467
2026-01-21 02:01:36.79	14.94	7.54	-50.6	-61.9	3.8	8.47e-01	0	39	104	0	72	13538
2026-01-21 02:01:37.79	14.93	7.62	-50.5	-61.3	3.9	8.45e-01	0	39	104	0	72	12589
2026-01-21 02:01:38.78	14.92	7.70	-50.4	-60.3	4.3	8.40e-01	0	39	0	0	72	11218
2026-01-21 02:01:39.77	14.91	7.78	-50.3	-59.5	4.5	8.26e-01	0	39	0	0	72	10236
2026-01-21 02:01:40.77	14.90	7.85	-50.1	-58.5	4.9	7.97e-01	0	39	0	0	72	9160
2026-01-21 02:01:41.76	14.88	7.93	-49.9	-57.4	5.7	6.14e-01	0	40	0	0	71	8497
2026-01-21 02:01:42.75	14.87	8.01	-49.6	-56.3	6.5	3.02e-01	0	39	0	6291456	71	7539
2026-01-21 02:01:43.75	14.86	8.09	-49.3	-55.2	7.5	1.35e-01	0	39	0	11534336	70	7040
2026-01-21 02:01:44.74	14.85	8.17	-48.9	-54.1	8.6	5.72e-02	0	39	0	16777216	69	6559
2026-01-21 02:01:45.73	14.84	8.25	-48.5	-53.3	9.5	2.55e-02	0	39	0	23068672	68	6286
2026-01-21 02:01:46.72	14.83	8.33	-48.0	-52.4	10.5	7.81e-03	0	39	0	28311552	68	5673
2026-01-21 02:01:47.72	14.82	8.41	-47.5	-51.5	11.2	3.29e-03	0	39	0	33554432	67	5425
2026-01-21 02:01:48.71	14.80	8.49	-47.0	-50.7	12.0	6.81e-04	0	39	0	39845888	66	5261
2026-01-21 02:01:49.70	14.79	8.57	-46.7	-50.2	12.5	2.71e-04	0	39	0	45088768	65	5246
2026-01-21 02:01:50.70	14.78	8.65	-46.4	-49.7	13.0	1.28e-04	0	39	0	50331648	64	5231
2026-01-21 02:01:51.69	14.77	8.74	-46.4	-49.7	13.1	4.46e-05	0	40	0	56623104	64	5227
2026-01-21 02:01:52.68	14.75	8.82	-46.1	-49.3	13.4	2.86e-05	0	40	0	61865984	64	5027
2026-01-21 02:01:53.68	14.74	8.90	-46.0	-49.2	13.5	1.60e-05	0	40	0	67108864	64	4943
2026-01-21 02:01:54.67	14.73	8.98	-46.2	-49.4	13.3	1.60e-05	0	39	0	73400320	64	5075
2026-01-21 02:01:55.66	14.72	9.06	-46.5	-49.9	12.9	2.40e-05	0	40	0	78643200	64	5341
2026-01-21 02:01:56.66	14.70	9.15	-46.5	-49.8	13.0	5.72e-05	0	40	0	83886080	64	5314
2026-01-21 02:01:57.65	14.69	9.23	-47.0	-50.7	12.1	6.63e-05	0	40	0	90177536	64	5909
2026-01-21 02:01:58.65	14.68	9.31	-48.7	-54.0	8.6	2.15e-02	0	40	0	95420416	67	7259
2026-01-21 02:01:59.64	14.67	9.40	-44.4	-46.9	15.9	2.70e-02	0	40	0	100663296	60	4785
2026-01-21 02:02:00.64	14.65	9.48	-42.7	-44.8	17.9	0.00e+00	0	40	0	106954752	57	4479
2026-01-21 02:02:01.63	14.64	9.57	-42.4	-44.4	18.3	0.00e+00	0	40	0	112197632	56	4544
2026-01-21 02:02:02.63	14.63	9.65	-42.0	-44.1	18.7	0.00e+00	0	40	0	117440512	56	4343
2026-01-21 02:02:03.62	14.61	9.73	-42.1	-44.2	18.6	0.00e+00	0	40	0	123731968	56	4399
2026-01-21 02:02:04.61	14.60	9.82	-42.1	-44.1	18.6	0.00e+00	0	40	0	128974848	56	4367
2026-01-21 02:02:05.61	14.59	9.91	-42.0	-44.0	18.7	0.00e+00	0	40	0	134217728	56	4339
2026-01-21 02:02:06.60	14.57	9.99	-41.6	-43.6	18.9	0.00e+00	0	40	0	140509184	55	4374
2026-01-21 02:02:07.60	14.56	10.08	-41.8	-43.8	18.8	0.00e+00	0	40	0	145752064	55	4463
2026-01-21 02:02:08.59	14.55	10.16	-41.7	-43.8	18.8	0.00e+00	0	40	0	152043520	55	4442
2026-01-21 02:02:09.59	14.53	10.25	-41.8	-43.8	18.7	0.00e+00	0	40	0	157286400	55	4484
2026-01-21 02:02:10.58	14.52	10.34	-41.8	-43.8	18.8	0.00e+00	0	40	0	162529280	55	4457
2026-01-21 02:02:11.58	14.50	10.42	-41.6	-43.6	18.9	0.00e+00	0	40	0	167772160	55	4391
2026-01-21 02:02:12.57	14.49	10.51	-41.6	-43.5	19.0	0.00e+00	0	40	0	174063616	55	4340
2026-01-21 02:02:13.57	14.47	10.60	-41.5	-43.5	19.1	0.00e+00	0	40	0	179306496	54	4571
2026-01-21 02:02:14.56	14.46	10.69	-41.5	-43.5	19.0	0.00e+00	0	40	0	184549376	54	4580
2026-01-21 02:02:15.55	14.45	10.78	-41.5	-43.5	19.1	0.00e+00	0	40	0	190840832	54	4548
2026-01-21 02:02:16.55	14.43	10.86	-41.4	-43.4	19.1	0.00e+00	0	40	0	196083712	54	4535
2026-01-21 02:02:17.54	14.42	10.95	-41.5	-43.5	19.1	0.00e+00	0	40	0	202375168	54	4583
2026-01-21 02:02:18.54	14.40	11.04	-41.5	-43.5	19.1	0.00e+00	0	40	0	207618048	54	4546
2026-01-21 02:02:19.53	14.39	11.13	-41.3	-43.3	19.3	0.00e+00	0	40	0	212860928	54	4467
2026-01-21 02:02:20.53	14.37	11.22	-41.4	-43.4	19.2	0.00e+00	0	40	0	218103808	54	4520
2026-01-21 02:02:21.53	14.35	11.31	-41.3	-43.2	19.4	0.00e+00	0	40	0	224395264	54	4433
2026-01-21 02:02:22.52	14.34	11.40	-41.3	-43.3	19.3	0.00e+00	0	40	0	229638144	54	4444
2026-01-21 02:02:23.52	14.32	11.50	-41.3	-43.3	19.3	0.00e+00	0	40	0	234881024	54	4467
2026-01-21 02:02:24.52	14.31	11.59	-41.4	-43.4	19.2	0.00e+00	0	40	0	241172480	54	4522
2026-01-21 02:02:25.51	14.29	11.68	-41.3	-43.3	19.3	0.00e+00	0	40	0	246415360	54	4488
2026-01-21 02:02:26.51	14.28	11.77	-41.3	-43.3	19.3	0.00e+00	0	40	0	252706816	54	4474
2026-01-21 02:02:27.50	14.26	11.86	-41.3	-43.3	19.3	0.00e+00	0	40	0	257949696	54	4460
2026-01-21 02:02:28.50	14.24	11.96	-41.2	-43.2	19.4	0.00e+00	0	40	0	263192576	54	4405
2026-01-21 02:02:29.49	14.23	12.05	-41.2	-43.2	19.4	0.00e+00	0	40	0	269484032	54	4430
2026-01-21 02:02:30.49	14.21	12.14	-41.2	-43.2	19.4	0.00e+00	0	40	0	274726912	54	4420
2026-01-21 02:02:31.48	14.19	12.24	-41.3	-43.3	19.3	0.00e+00	0	40	0	279969792	54	4465
2026-01-21 02:02:32.48	14.18	12.33	-41.2	-43.2	19.5	0.00e+00	0	40	0	285212672	54	4401
2026-01-21 02:02:33.47	14.16	12.43	-41.1	-43.1	19.5	0.00e+00	0	40	0	291504128	54	4367
2026-01-21 02:02:34.47	14.14	12.52	-41.1	-43.1	19.5	0.00e+00	0	40	0	296747008	54	4361
2026-01-21 02:02:35.46	14.13	12.62	-41.1	-43.1	19.6	0.00e+00	0	40	0	303038464	54	4341
2026-01-21 02:02:36.46	14.11	12.71	-41.1	-43.1	19.5	0.00e+00	0	40	0	308281344	54	4346
2026-01-21 02:02:37.45	14.09	12.81	-41.0	-43.0	19.6	0.00e+00	0	40	0	313524224	54	4316
2026-01-21 02:02:38.45	14.07	12.91	-41.0	-43.1	19.6	0.00e+00	0	40	0	319815680	54	4341
2026-01-21 02:02:39.44	14.06	13.00	-41.0	-43.0	19.6	0.00e+00	0	40	0	325058560	54	4296
2026-01-21 02:02:40.43	14.04	13.10	-40.9	-42.8	19.7	0.00e+00	0	40	0	330301440	53	4493
2026-01-21 02:02:41.43	14.02	13.20	-40.9	-42.9	19.7	0.00e+00	0	40	0	335544320	53	4506
2026-01-21 02:02:42.42	14.00	13.29	-40.8	-42.7	19.8	0.00e+00	0	40	0	341835776	53	4434
2026-01-21 02:02:43.42	13.98	13.39	-40.9	-42.9	19.7	0.00e+00	0	40	0	347078656	53	4505
2026-01-21 02:02:44.41	13.97	13.49	-40.8	-42.7	19.9	0.00e+00	0	40	0	353370112	53	4430
2026-01-21 02:02:45.41	13.95	13.59	-40.8	-42.8	19.8	0.00e+00	0	40	0	358612992	53	4448
2026-01-21 02:02:46.40	13.93	13.69	-40.7	-42.7	19.9	0.00e+00	0	41	0	363855872	53	4392
2026-01-21 02:02:47.40	13.91	13.79	-40.6	-42.5	20.0	0.00e+00	0	40	0	370147328	53	4339
2026-01-21 02:02:48.39	13.89	13.89	-40.6	-42.6	20.0	0.00e+00	0	40	0	375390208	53	4365
2026-01-21 02:02:49.39	13.87	13.99	-40.6	-42.6	20.0	0.00e+00	0	40	0	380633088	53	4352
2026-01-21 02:02:50.38	13.85	14.09	-40.5	-42.4	20.2	0.00e+00	0	40	0	385875968	52	4525
2026-01-21 02:02:51.38	13.83	14.20	-40.5	-42.5	20.1	0.00e+00	0	40	0	392167424	52	4559
2026-01-21 02:02:52.37	13.81	14.30	-40.4	-42.4	20.2	0.00e+00	0	40	0	397410304	52	4501
2026-01-21 02:02:53.36	13.79	14.40	-40.3	-42.3	20.3	0.00e+00	0	40	0	403701760	52	4447
2026-01-21 02:02:54.36	13.77	14.50	-40.3	-42.2	20.4	0.00e+00	0	40	0	408944640	52	4415
2026-01-21 02:02:55.35	13.75	14.61	-40.3	-42.2	20.4	0.00e+00	0	40	0	414187520	52	4425
2026-01-21 02:02:56.35	13.73	14.71	-40.4	-42.3	20.3	0.00e+00	0	41	0	420478976	52	4449
2026-01-21 02:02:57.34	13.71	14.81	-40.3	-42.2	20.4	0.00e+00	0	40	0	425721856	52	4430
2026-01-21 02:02:58.34	13.69	14.92	-40.4	-42.3	20.3	0.00e+00	0	41	0	430964736	52	4451
2026-01-21 02:02:59.33	13.67	15.02	-40.3	-42.2	20.4	0.00e+00	0	40	0	436207616	52	4417
2026-01-21 02:03:00.33	13.65	15.13	-40.4	-42.3	20.3	0.00e+00	0	40	0	442499072	52	4474
2026-01-21 02:03:01.32	13.63	15.24	-40.2	-42.1	20.5	0.00e+00	0	41	0	447741952	52	4363
2026-01-21 02:03:02.32	13.61	15.34	-40.2	-42.1	20.5	0.00e+00	0	40	0	454033408	52	4356
2026-01-21 02:03:03.31	13.59	15.45	-40.3	-42.2	20.4	0.00e+00	0	41	0	459276288	52	4415
2026-01-21 02:03:04.31	13.56	15.56	-40.2	-42.1	20.5	0.00e+00	0	40	0	464519168	52	4344
2026-01-21 02:03:05.30	13.54	15.66	-40.2	-42.1	20.5	0.00e+00	0	41	0	470810624	52	4358
2026-01-21 02:03:06.30	13.52	15.77	-40.2	-42.1	20.5	0.00e+00	0	41	0	476053504	52	4360
2026-01-21 02:03:07.29	13.50	15.88	-40.3	-42.2	20.5	0.00e+00	0	41	0	481296384	52	4396
2026-01-21 02:03:08.29	13.48	15.99	-40.2	-42.1	20.5	0.00e+00	0	40	0	486539264	52	4372
2026-01-21 02:03:09.29	13.45	16.10	-40.2	-42.0	20.6	0.00e+00	0	40	0	492830720	52	4325
2026-01-21 02:03:10.28	13.43	16.21	-40.2	-42.0	20.5	0.00e+00	0	40	0	498073600	52	4324
2026-01-21 02:03:11.27	13.41	16.32	-40.1	-42.0	20.6	0.00e+00	0	41	0	504365056	52	4317
2026-01-21 02:03:12.27	13.38	16.43	-40.2	-42.0	20.6	0.00e+00	0	40	0	509607936	52	4333
2026-01-21 02:03:13.26	13.36	16.55	-40.2	-42.0	20.6	0.00e+00	0	40	0	514850816	52	4317
2026-01-21 02:03:14.26	13.34	16.66	-40.1	-42.0	20.6	0.00e+00	0	40	0	521142272	52	4317
2026-01-21 02:03:15.25	13.31	16.77	-40.1	-42.0	20.6	0.00e+00	0	40	0	526385152	52	4293
2026-01-21 02:03:16.25	13.29	16.89	-40.1	-41.9	20.7	0.00e+00	0	40	0	531628032	52	4275
2026-01-21 02:03:17.25	13.26	17.00	-40.0	-41.9	20.7	0.00e+00	0	40	0	537919488	52	4256
2026-01-21 02:03:18.24	13.24	17.11	-40.0	-41.8	20.8	0.00e+00	0	40	0	543162368	51	4475
2026-01-21 02:03:19.23	13.21	17.23	-40.0	-41.8	20.9	0.00e+00	0	40	0	548405248	51	4469
2026-01-21 02:03:20.23	13.19	17.34	-40.0	-41.8	20.9	0.00e+00	0	40	0	554696704	51	4471
2026-01-21 02:03:21.22	13.16	17.46	-39.9	-41.7	20.9	0.00e+00	0	40	0	559939584	51	4424
2026-01-21 02:03:22.22	13.14	17.58	-39.8	-41.6	21.0	0.00e+00	0	40	0	565182464	51	4380
2026-01-21 02:03:23.22	13.11	17.70	-39.9	-41.7	21.0	0.00e+00	0	40	0	571473920	51	4404
2026-01-21 02:03:24.21	13.09	17.81	-39.7	-41.5	21.1	0.00e+00	0	40	0	576716800	51	4338
2026-01-21 02:03:25.20	13.06	17.93	-39.6	-41.4	21.2	0.00e+00	0	41	0	581959680	51	4273
2026-01-21 02:03:26.20	13.03	18.05	-39.7	-41.5	21.2	0.00e+00	0	41	0	588251136	51	4295
2026-01-21 02:03:27.19	13.01	18.17	-39.5	-41.3	21.3	0.00e+00	0	41	0	593494016	51	4213
2026-01-21 02:03:28.19	12.98	18.29	-39.5	-41.3	21.3	0.00e+00	0	41	0	598736896	51	4202
2026-01-21 02:03:29.18	12.95	18.41	-39.5	-41.3	21.3	0.00e+00	0	40	0	605028352	51	4219
2026-01-21 02:03:30.18	12.93	18.53	-39.3	-41.1	21.5	0.00e+00	0	40	0	610271232	50	4373
2026-01-21 02:03:31.17	12.90	18.65	-39.3	-41.1	21.5	0.00e+00	0	40	0	615514112	50	4341
2026-01-21 02:03:32.17	12.87	18.78	-39.3	-41.0	21.6	0.00e+00	0	41	0	621805568	50	4326
2026-01-21 02:03:33.16	12.84	18.90	-39.3	-41.1	21.5	0.00e+00	0	41	0	627048448	50	4347
2026-01-21 02:03:34.15	12.82	19.02	-39.2	-40.9	21.6	0.00e+00	0	40	0	632291328	50	4285
2026-01-21 02:03:35.15	12.79	19.15	-39.2	-40.9	21.6	0.00e+00	0	40	0	638582784	50	4275
2026-01-21 02:03:36.15	12.76	19.27	-39.2	-40.9	21.7	0.00e+00	0	40	0	643825664	50	4275
2026-01-21 02:03:37.14	12.73	19.40	-39.2	-40.9	21.6	0.00e+00	0	41	0	649068544	50	4276
2026-01-21 02:03:38.13	12.70	19.52	-39.2	-41.0	21.6	0.00e+00	0	41	0	655360000	50	4298
2026-01-21 02:03:39.13	12.67	19.65	-39.1	-40.9	21.7	0.00e+00	0	41	0	660602880	50	4268
2026-01-21 02:03:40.12	12.64	19.78	-39.2	-41.0	21.6	0.00e+00	0	40	0	665845760	50	4309
2026-01-21 02:03:41.12	12.61	19.90	-39.2	-40.9	21.7	0.00e+00	0	40	0	672137216	50	4269
2026-01-21 02:03:42.11	12.58	20.03	-39.2	-41.0	21.6	0.00e+00	0	40	0	677380096	50	4300
2026-01-21 02:03:43.11	12.55	20.16	-39.3	-41.0	21.6	0.00e+00	0	41	0	682622976	50	4311
2026-01-21 02:03:44.10	12.52	20.29	-39.2	-40.9	21.6	0.00e+00	0	41	0	688914432	50	4285
2026-01-21 02:03:45.10	12.49	20.42	-39.2	-41.0	21.6	0.00e+00	0	41	0	694157312	50	4293
2026-01-21 02:03:46.09	12.45	20.55	-39.2	-40.9	21.7	0.00e+00	0	41	0	700448768	50	4253
2026-01-21 02:03:47.09	12.42	20.69	-39.2	-40.9	21.7	0.00e+00	0	41	0	705691648	50	4253
2026-01-21 02:03:48.08	12.39	20.82	-39.2	-40.9	21.7	0.00e+00	0	41	0	710934528	50	4272
2026-01-21 02:03:49.08	12.36	20.95	-39.2	-40.9	21.7	0.00e+00	0	41	0	716177408	50	4277
2026-01-21 02:03:50.07	12.32	21.09	-39.2	-40.9	21.7	0.00e+00	0	41	0	722468864	50	4268
2026-01-21 02:03:51.06	12.29	21.22	-39.1	-40.8	21.7	0.00e+00	0	41	0	727711744	50	4235
2026-01-21 02:03:52.06	12.26	21.36	-39.1	-40.8	21.8	0.00e+00	0	41	0	732954624	50	4233
2026-01-21 02:03:53.06	12.22	21.49	-39.1	-40.8	21.8	0.00e+00	0	41	0	739246080	50	4216
2026-01-21 02:03:54.05	12.19	21.63	-39.1	-40.8	21.8	0.00e+00	0	41	0	744488960	50	4221
2026-01-21 02:03:55.04	12.15	21.77	-39.1	-40.8	21.8	0.00e+00	0	41	0	750780416	50	4213
2026-01-21 02:03:56.04	12.12	21.91	-39.0	-40.7	21.9	0.00e+00	0	41	0	756023296	49	4402
2026-01-21 02:03:57.03	12.08	22.05	-38.9	-40.6	21.9	0.00e+00	0	41	0	761266176	49	4382
2026-01-21 02:03:58.03	12.05	22.19	-38.8	-40.5	22.0	0.00e+00	0	40	0	766509056	49	4328
2026-01-21 02:03:59.02	12.01	22.33	-38.9	-40.5	22.0	0.00e+00	0	41	0	772800512	49	4334
2026-01-21 02:04:00.01	11.98	22.47	-38.8	-40.5	22.1	0.00e+00	0	41	0	778043392	49	4292
2026-01-21 02:04:01.01	11.94	22.61	-38.8	-40.4	22.1	0.00e+00	0	41	0	783286272	49	4286
2026-01-21 02:04:02.00	11.90	22.75	-38.7	-40.4	22.1	0.00e+00	0	41	0	789577728	49	4280
2026-01-21 02:04:03.00	11.86	22.90	-38.8	-40.5	22.1	0.00e+00	0	41	0	794820608	49	4296
2026-01-21 02:04:03.99	11.83	23.04	-38.7	-40.4	22.1	0.00e+00	0	41	0	801112064	49	4262
2026-01-21 02:04:04.99	11.79	23.19	-38.7	-40.4	22.2	0.00e+00	0	41	0	806354944	49	4243
2026-01-21 02:04:05.98	11.75	23.33	-38.7	-40.3	22.2	0.00e+00	0	41	0	811597824	49	4233
2026-01-21 02:04:06.98	11.71	23.48	-38.7	-40.4	22.1	0.00e+00	0	41	0	816840704	49	4257
2026-01-21 02:04:07.97	11.67	23.63	-38.7	-40.4	22.1	0.00e+00	0	41	0	823132160	49	4283
2026-01-21 02:04:08.97	11.63	23.78	-38.7	-40.4	22.1	0.00e+00	0	41	0	828375040	49	4277
2026-01-21 02:04:09.96	11.59	23.93	-38.7	-40.4	22.2	0.00e+00	0	41	0	833617920	49	4275
2026-01-21 02:04:10.96	11.55	24.08	-38.7	-40.4	22.1	0.00e+00	0	41	0	839909376	49	4264
2026-01-21 02:04:11.95	11.51	24.23	-38.7	-40.4	22.1	0.00e+00	0	41	0	845152256	49	4278
2026-01-21 02:04:12.95	11.47	24.38	-38.7	-40.4	22.1	0.00e+00	0	41	0	851443712	49	4270
2026-01-21 02:04:13.94	11.42	24.53	-38.7	-40.4	22.2	0.00e+00	0	41	0	856686592	49	4270
2026-01-21 02:04:14.94	11.38	24.69	-38.6	-40.3	22.2	0.00e+00	0	41	0	861929472	49	4209
2026-01-21 02:04:15.93	11.34	24.84	-38.6	-40.2	22.3	0.00e+00	0	41	0	867172352	49	4191
2026-01-21 02:04:16.93	11.30	25.00	-38.5	-40.2	22.3	0.00e+00	0	41	0	873463808	49	4176
2026-01-21 02:04:17.92	11.25	25.16	-38.6	-40.3	22.3	0.00e+00	0	41	0	878706688	49	4198
2026-01-21 02:04:18.92	11.21	25.31	-38.5	-40.1	22.4	0.00e+00	0	41	0	883949568	48	4373
2026-01-21 02:04:19.91	11.16	25.47	-38.4	-40.0	22.5	0.00e+00	0	41	0	890241024	48	4338
2026-01-21 02:04:20.91	11.12	25.63	-38.3	-39.9	22.5	0.00e+00	0	41	0	895483904	48	4290
2026-01-21 02:04:21.90	11.07	25.79	-38.3	-39.9	22.6	0.00e+00	0	41	0	901775360	48	4282
2026-01-21 02:04:22.90	11.02	25.95	-38.2	-39.9	22.6	0.00e+00	0	41	0	907018240	48	4257
2026-01-21 02:04:23.89	10.98	26.12	-38.3	-39.9	22.6	0.00e+00	0	41	0	912261120	48	4275
2026-01-21 02:04:24.89	10.93	26.28	-38.1	-39.8	22.7	0.00e+00	0	41	0	917504000	48	4197
2026-01-21 02:04:25.88	10.88	26.44	-38.0	-39.7	22.8	0.00e+00	0	41	0	923795456	48	4148
2026-01-21 02:04:26.88	10.83	26.61	-37.9	-39.6	22.6	0.00e+00	0	41	0	929038336	47	4362
2026-01-21 02:04:27.87	10.78	26.78	-37.9	-39.5	22.6	0.00e+00	0	41	0	935329792	47	4331
2026-01-21 02:04:28.87	10.74	26.94	-38.0	-39.7	22.5	0.00e+00	0	41	0	940572672	47	4396
2026-01-21 02:04:29.87	10.68	27.11	-37.9	-39.6	22.6	0.00e+00	0	41	0	945815552	47	4357
2026-01-21 02:04:30.86	10.63	27.28	-38.0	-39.6	22.5	0.00e+00	0	41	0	952107008	47	4384
2026-01-21 02:04:31.85	10.58	27.45	-38.0	-39.7	22.5	0.00e+00	0	41	0	957349888	47	4409
2026-01-21 02:04:32.85	10.53	27.62	-38.1	-39.8	22.4	0.00e+00	0	41	0	962592768	47	4458
2026-01-21 02:04:33.84	10.48	27.79	-38.2	-39.9	22.4	0.00e+00	0	41	0	968884224	47	4505
2026-01-21 02:04:34.84	10.43	27.97	-38.3	-40.0	22.3	0.00e+00	0	41	0	974127104	47	4556
2026-01-21 02:04:35.83	10.37	28.14	-38.3	-40.0	22.2	0.00e+00	0	41	0	979369984	47	4593
2026-01-21 02:04:36.83	10.32	28.32	-38.3	-40.0	22.2	0.00e+00	0	41	0	985661440	47	4587
2026-01-21 02:04:37.82	10.26	28.50	-38.5	-40.2	22.1	0.00e+00	0	41	0	990904320	47	4679
2026-01-21 02:04:38.82	10.21	28.67	-38.5	-40.2	22.1	0.00e+00	0	41	0	996147200	47	4676
2026-01-21 02:04:39.81	10.15	28.85	-38.4	-40.1	22.1	0.00e+00	0	41	0	1002438656	47	4651
2026-01-21 02:04:40.81	10.09	29.03	-38.2	-39.9	22.3	0.00e+00	0	41	0	1007681536	47	4541
2026-01-21 02:04:41.80	10.04	29.21	-38.1	-39.8	22.4	0.00e+00	0	41	0	1012924416	47	4460
2026-01-21 02:04:42.80	9.98	29.40	-38.1	-39.8	22.4	0.00e+00	0	41	0	1019215872	47	4466
2026-01-21 02:04:43.80	9.92	29.58	-37.9	-39.5	22.6	0.00e+00	0	41	0	1024458752	47	4340
2026-01-21 02:04:44.79	9.86	29.77	-37.7	-39.4	22.8	0.00e+00	0	41	0	1029701632	47	4243
2026-01-21 02:04:45.79	9.80	29.95	-37.8	-39.5	22.7	0.00e+00	0	41	0	1035993088	47	4293
2026-01-21 02:04:46.78	9.74	30.14	-37.8	-39.4	22.7	0.00e+00	0	41	0	1041235968	47	4279
2026-01-21 02:04:47.78	9.67	30.33	-37.8	-39.5	22.7	0.00e+00	0	41	0	1046478848	47	4307
2026-01-21 02:04:48.77	9.61	30.52	-37.9	-39.5	22.6	0.00e+00	0	41	0	1052770304	47	4329
2026-01-21 02:04:49.77	9.55	30.71	-37.9	-39.5	22.7	0.00e+00	0	41	0	1058013184	47	4325
2026-01-21 02:04:50.76	9.48	30.90	-37.8	-39.5	22.7	0.00e+00	0	41	0	1063256064	47	4312
2026-01-21 02:04:51.76	9.42	31.09	-37.9	-39.6	22.6	0.00e+00	0	41	0	1069547520	47	4348
2026-01-21 02:04:52.75	9.35	31.29	-37.8	-39.5	22.7	0.00e+00	0	41	0	1074790400	47	4316
2026-01-21 02:04:53.75	9.29	31.48	-37.8	-39.5	22.7	0.00e+00	0	41	0	1080033280	47	4303
2026-01-21 02:04:54.74	9.22	31.68	-37.8	-39.5	22.7	0.00e+00	0	41	0	1086324736	47	4300
2026-01-21 02:04:55.74	9.15	31.88	-37.9	-39.6	22.6	0.00e+00	0	41	0	1091567616	47	4343
2026-01-21 02:04:56.73	9.08	32.08	-37.8	-39.5	22.6	0.00e+00	0	41	0	1096810496	47	4322
2026-01-21 02:04:57.73	9.01	32.28	-37.8	-39.4	22.7	0.00e+00	0	41	0	1103101952	47	4281
2026-01-21 02:04:58.72	8.94	32.48	-37.8	-39.5	22.7	0.00e+00	0	41	0	1108344832	47	4300
2026-01-21 02:04:59.72	8.87	32.68	-37.8	-39.5	22.7	0.00e+00	0	41	0	1113587712	47	4325
2026-01-21 02:05:00.71	8.79	32.89	-37.8	-39.4	22.7	0.00e+00	0	41	0	1119879168	47	4285
2026-01-21 02:05:01.71	8.72	33.09	-37.7	-39.3	22.8	0.00e+00	0	41	0	1125122048	47	4222
2026-01-21 02:05:02.70	8.64	33.30	-37.7	-39.3	22.8	0.00e+00	0	41	0	1130364928	47	4226
2026-01-21 02:05:03.70	8.57	33.51	-37.6	-39.3	22.8	0.00e+00	0	41	0	1136656384	47	4217
2026-01-21 02:05:04.69	8.49	33.72	-37.6	-39.3	22.9	0.00e+00	0	41	0	1141899264	47	4208
2026-01-21 02:05:05.69	8.41	33.93	-37.7	-39.3	22.8	0.00e+00	0	41	0	1147142144	47	4238
2026-01-21 02:05:06.68	8.33	34.14	-37.6	-39.3	22.9	0.00e+00	0	41	0	1153433600	47	4196
2026-01-21 02:05:07.67	8.25	34.36	-37.6	-39.2	22.9	0.00e+00	0	41	0	1158676480	47	4190
2026-01-21 02:05:08.67	8.17	34.57	-37.4	-39.1	23.0	0.00e+00	0	41	0	1163919360	46	4358
2026-01-21 02:05:09.66	8.09	34.79	-37.2	-38.8	23.2	0.00e+00	0	41	0	1170210816	46	4228
2026-01-21 02:05:10.66	8.00	35.01	-37.2	-38.8	23.2	0.00e+00	0	41	0	1175453696	46	4221
2026-01-21 02:05:11.65	7.92	35.23	-37.2	-38.9	23.2	0.00e+00	0	41	0	1180696576	46	4250
2026-01-21 02:05:12.65	7.83	35.45	-37.3	-39.0	23.1	0.00e+00	0	41	0	1186988032	46	4311
2026-01-21 02:05:13.65	7.74	35.68	-37.0	-38.7	23.3	0.00e+00	0	41	0	1192230912	46	4154
2026-01-21 02:05:14.64	7.66	35.90	-37.2	-38.8	23.3	0.00e+00	0	41	0	1198522368	46	4223
2026-01-21 02:05:15.64	7.56	36.13	-37.2	-38.8	23.3	0.00e+00	0	41	0	1203765248	46	4214
2026-01-21 02:05:16.63	7.47	36.35	-37.3	-39.0	23.2	0.00e+00	0	41	0	1209008128	46	4292
2026-01-21 02:05:17.63	7.38	36.58	-37.4	-39.0	23.1	0.00e+00	0	41	0	1214251008	46	4314
2026-01-21 02:05:18.62	7.29	36.81	-37.4	-39.0	23.1	0.00e+00	0	41	0	1220542464	46	4318
2026-01-21 02:05:19.62	7.19	37.05	-37.4	-39.0	23.1	0.00e+00	0	41	0	1225785344	46	4326
2026-01-21 02:05:20.62	7.09	37.28	-37.3	-39.0	23.2	0.00e+00	0	41	0	1231028224	46	4293
2026-01-21 02:05:21.61	7.00	37.52	-37.4	-39.0	23.1	0.00e+00	0	41	0	1237319680	46	4309
2026-01-21 02:05:22.61	6.89	37.75	-37.4	-39.1	23.0	0.00e+00	0	41	0	1242562560	46	4348
2026-01-21 02:05:23.60	6.79	37.99	-37.5	-39.1	23.0	0.00e+00	0	41	0	1248854016	46	4380
2026-01-21 02:05:24.59	6.69	38.23	-37.5	-39.1	23.0	0.00e+00	0	41	0	1254096896	46	4382
2026-01-21 02:05:25.59	6.59	38.47	-37.5	-39.1	23.0	0.00e+00	0	41	0	1259339776	46	4379
2026-01-21 02:05:26.58	6.48	38.72	-37.5	-39.2	23.0	0.00e+00	0	41	0	1264582656	46	4394
2026-01-21 02:05:27.58	6.37	38.96	-37.7	-39.4	22.8	0.00e+00	0	41	0	1270874112	46	4502
2026-01-21 02:05:28.57	6.26	39.21	-37.8	-39.4	22.8	0.00e+00	0	41	0	1276116992	46	4536
2026-01-21 02:05:29.57	6.15	39.46	-37.8	-39.5	22.7	0.00e+00	0	41	0	1281359872	46	4562
2026-01-21 02:05:30.56	6.04	39.71	-37.8	-39.5	22.7	0.00e+00	0	41	0	1287651328	46	4574
2026-01-21 02:05:31.56	5.92	39.96	-37.9	-39.5	22.7	0.00e+00	0	41	0	1292894208	46	4596
2026-01-21 02:05:32.55	5.81	40.21	-37.8	-39.5	22.7	0.00e+00	0	41	0	1299185664	46	4573
2026-01-21 02:05:33.54	5.69	40.47	-37.9	-39.5	22.7	0.00e+00	0	41	0	1304428544	46	4575
2026-01-21 02:05:34.54	5.57	40.72	-37.9	-39.6	22.7	0.00e+00	0	41	0	1309671424	46	4611
2026-01-21 02:05:35.53	5.45	40.98	-38.1	-39.7	22.5	0.00e+00	0	41	0	1314914304	46	4699
2026-01-21 02:05:36.52	5.32	41.24	-38.2	-39.8	22.5	0.00e+00	0	41	0	1321205760	47	4479
2026-01-21 02:05:37.52	5.20	41.50	-38.2	-39.8	22.4	0.00e+00	0	41	0	1326448640	47	4491
2026-01-21 02:05:38.51	5.07	41.77	-38.2	-39.9	22.4	0.00e+00	0	41	0	1332740096	47	4539
2026-01-21 02:05:39.51	4.94	42.03	-38.2	-39.9	22.4	0.00e+00	0	41	0	1337982976	47	4524
2026-01-21 02:05:40.50	4.80	42.30	-38.3	-39.9	22.3	0.00e+00	0	41	0	1343225856	47	4541
2026-01-21 02:05:41.50	4.67	42.57	-38.2	-39.9	22.4	0.00e+00	0	41	0	1349517312	47	4501
2026-01-21 02:05:42.49	4.53	42.84	-38.3	-40.0	22.3	0.00e+00	0	41	0	1354760192	47	4565
2026-01-21 02:05:43.49	4.39	43.11	-38.2	-39.8	22.4	0.00e+00	0	41	0	1360003072	47	4492
2026-01-21 02:05:44.48	4.25	43.38	-38.0	-39.7	22.6	0.00e+00	0	41	0	1365245952	47	4409
2026-01-21 02:05:45.48	4.10	43.66	-38.1	-39.7	22.5	0.00e+00	0	41	0	1371537408	47	4436
2026-01-21 02:05:46.48	3.95	43.94	-38.1	-39.8	22.5	0.00e+00	0	41	0	1376780288	47	4461
2026-01-21 02:05:47.47	3.80	44.22	-38.0	-39.7	22.5	0.00e+00	0	41	0	1383071744	47	4436
2026-01-21 02:05:48.47	3.65	44.50	-37.9	-39.6	22.6	0.00e+00	0	41	0	1388314624	47	4366
2026-01-21 02:05:49.46	3.49	44.78	-37.9	-39.6	22.7	0.00e+00	0	41	0	1393557504	47	4344
2026-01-21 02:05:50.46	3.33	45.07	-37.9	-39.5	22.7	0.00e+00	0	41	0	1399848960	47	4324
2026-01-21 02:05:51.45	3.17	45.36	-38.0	-39.6	22.6	0.00e+00	0	41	0	1405091840	47	4367
2026-01-21 02:05:52.45	3.01	45.65	-38.2	-39.9	22.4	0.00e+00	0	41	0	1410334720	47	4497
2026-01-21 02:05:53.44	2.84	45.93	-38.4	-40.1	22.2	0.00e+00	0	41	0	1416626176	47	4643
2026-01-21 02:05:54.44	2.67	46.23	-38.4	-40.1	22.2	0.00e+00	0	41	0	1421869056	47	4650
2026-01-21 02:05:55.43	2.49	46.52	-38.4	-40.1	22.3	0.00e+00	0	41	0	1427111936	47	4615
2026-01-21 02:05:56.43	2.31	46.82	-38.4	-40.1	22.2	0.00e+00	0	41	0	1433403392	47	4626
2026-01-21 02:05:57.43	2.13	47.12	-38.3	-39.9	22.4	0.00e+00	0	41	0	1438646272	47	4545
2026-01-21 02:05:58.42	1.95	47.42	-37.8	-39.5	22.8	0.00e+00	0	41	0	1443889152	47	4292
2026-01-21 02:05:59.42	1.76	47.72	-37.8	-39.4	22.8	0.00e+00	0	41	0	1450180608	47	4285
2026-01-21 02:06:00.41	1.57	48.02	-38.2	-39.8	22.5	0.00e+00	0	41	0	1455423488	47	4487
2026-01-21 02:06:01.41	1.37	48.33	-38.4	-40.1	22.3	0.00e+00	0	41	0	1460666368	47	4624
2026-01-21 02:06:02.40	1.17	48.63	-38.2	-39.9	22.4	0.00e+00	0	41	0	1466957824	47	4503
2026-01-21 02:06:03.40	0.96	48.94	-38.2	-39.8	22.5	0.00e+00	0	41	0	1472200704	47	4488
2026-01-21 02:06:04.39	0.76	49.25	-38.1	-39.7	22.6	0.00e+00	0	41	0	1477443584	47	4438
2026-01-21 02:06:05.39	0.54	49.56	-38.4	-40.1	22.3	0.00e+00	0	41	0	1483735040	47	4616
2026-01-21 02:06:06.38	0.33	49.88	-38.8	-40.5	22.3	0.00e+00	0	41	0	1488977920	48	4552
2026-01-21 02:06:07.37	0.10	50.19	-38.9	-40.6	22.2	0.00e+00	0	41	0	1494220800	48	4614
2026-01-21 02:06:08.37	359.88	50.51	-39.0	-40.7	22.1	0.00e+00	0	41	0	1500512256	48	4660
2026-01-21 02:06:09.37	359.64	50.83	-39.0	-40.7	22.1	0.00e+00	0	41	0	1505755136	48	4671
2026-01-21 02:06:10.36	359.41	51.15	-38.9	-40.6	22.1	0.00e+00	0	41	0	1510998016	48	4629
2026-01-21 02:06:11.36	359.16	51.47	-39.1	-40.8	21.9	0.00e+00	0	41	0	1517289472	48	4741
2026-01-21 02:06:12.35	358.92	51.79	-39.4	-41.1	21.7	0.00e+00	0	41	0	1522532352	49	4614
2026-01-21 02:06:13.35	358.66	52.12	-39.5	-41.3	21.6	0.00e+00	0	41	0	1527775232	49	4724
2026-01-21 02:06:14.34	358.41	52.45	-39.6	-41.4	21.5	0.00e+00	0	41	0	1534066688	49	4780
2026-01-21 02:06:15.34	358.14	52.78	-39.4	-41.2	21.7	0.00e+00	0	41	0	1539309568	49	4652
2026-01-21 02:06:16.33	357.87	53.10	-39.5	-41.2	21.6	0.00e+00	0	41	0	1544552448	49	4657
2026-01-21 02:06:17.33	357.59	53.44	-39.2	-40.9	21.9	0.00e+00	0	41	0	1550843904	49	4504
2026-01-21 02:06:18.32	357.31	53.77	-39.2	-41.0	21.4	0.00e+00	0	41	0	1556086784	49	4567
2026-01-21 02:06:19.32	357.02	54.11	-39.2	-41.0	21.5	0.00e+00	0	41	0	1561329664	49	4549
2026-01-21 02:06:20.31	356.72	54.44	-39.2	-40.9	21.5	0.00e+00	0	41	0	1567621120	49	4543
2026-01-21 02:06:21.31	356.42	54.78	-39.2	-41.0	21.4	0.00e+00	0	41	0	1572864000	49	4582
2026-01-21 02:06:22.30	356.11	55.12	-39.1	-40.9	21.5	0.00e+00	0	41	0	1578106880	49	4506
2026-01-21 02:06:23.30	355.79	55.46	-39.2	-41.0	21.5	0.00e+00	0	41	0	1584398336	49	4561
2026-01-21 02:06:24.29	355.46	55.80	-39.1	-40.8	21.6	0.00e+00	0	41	0	1589641216	49	4476
2026-01-21 02:06:25.29	355.12	56.14	-38.9	-40.7	21.7	0.00e+00	0	41	0	1594884096	49	4424
2026-01-21 02:06:26.28	354.78	56.48	-38.6	-40.4	22.0	0.00e+00	0	41	0	1601175552	49	4264
2026-01-21 02:06:27.28	354.43	56.83	-38.6	-40.3	22.1	0.00e+00	0	41	0	1606418432	49	4220
2026-01-21 02:06:28.27	354.07	57.18	-38.6	-40.3	22.1	0.00e+00	0	41	0	1611661312	49	4226
2026-01-21 02:06:29.27	353.70	57.52	-38.5	-40.2	22.1	0.00e+00	0	41	0	1617952768	49	4172
2026-01-21 02:06:30.26	353.32	57.87	-38.5	-40.3	22.0	0.00e+00	0	41	0	1623195648	49	4203
2026-01-21 02:06:31.26	352.92	58.22	-38.8	-40.6	21.8	0.00e+00	0	41	0	1628438528	49	4376
2026-01-21 02:06:32.25	352.52	58.57	-38.4	-40.2	22.1	0.00e+00	0	41	0	1634729984	48	4392
2026-01-21 02:06:33.25	352.11	58.92	-38.3	-40.0	22.3	0.00e+00	0	41	0	1639972864	48	4333
2026-01-21 02:06:34.24	351.69	59.27	-38.7	-40.4	22.0	0.00e+00	0	41	0	1645215744	48	4517
2026-01-21 02:06:35.23	351.26	59.62	-38.8	-40.6	21.8	0.00e+00	0	41	0	1651507200	48	4627
2026-01-21 02:06:36.23	350.81	59.97	-38.6	-40.3	22.1	0.00e+00	0	41	0	1656750080	48	4457
2026-01-21 02:06:37.22	350.35	60.32	-38.5	-40.2	22.1	0.00e+00	0	41	0	1661992960	48	4433
2026-01-21 02:06:38.22	349.88	60.68	-38.5	-40.3	22.1	0.00e+00	0	41	0	1668284416	48	4446
2026-01-21 02:06:39.21	349.39	61.03	-38.5	-40.3	22.1	0.00e+00	0	41	0	1673527296	48	4442
2026-01-21 02:06:40.21	348.89	61.38	-38.1	-39.8	22.4	0.00e+00	0	41	0	1678770176	48	4220
2026-01-21 02:06:41.20	348.38	61.73	-37.7	-39.4	22.5	0.00e+00	0	41	0	1685061632	47	4253
2026-01-21 02:06:42.20	347.85	62.09	-37.7	-39.4	22.4	0.00e+00	0	41	0	1690304512	47	4279
2026-01-21 02:06:43.19	347.30	62.44	-38.0	-39.7	22.2	0.00e+00	0	41	0	1695547392	47	4419
2026-01-21 02:06:44.19	346.74	62.79	-37.8	-39.5	22.3	0.00e+00	0	41	0	1701838848	47	4332
2026-01-21 02:06:45.18	346.17	63.14	-37.8	-39.5	22.3	0.00e+00	0	41	0	1707081728	47	4336
2026-01-21 02:06:46.17	345.57	63.49	-37.6	-39.3	22.5	0.00e+00	0	41	0	1712324608	47	4225
2026-01-21 02:06:47.17	344.96	63.84	-37.8	-39.5	22.3	0.00e+00	0	41	0	1718616064	47	4312
2026-01-21 02:06:48.16	344.33	64.18	-37.8	-39.5	22.3	0.00e+00	0	41	0	1723858944	47	4328
2026-01-21 02:06:49.16	343.67	64.53	-37.7	-39.4	22.4	0.00e+00	0	41	0	1730150400	47	4263
2026-01-21 02:06:50.15	343.01	64.88	-37.5	-39.2	22.6	0.00e+00	0	41	0	1735393280	46	4403
2026-01-21 02:06:51.15	342.31	65.22	-37.4	-39.1	22.6	0.00e+00	0	41	0	1740636160	46	4348
2026-01-21 02:06:52.14	341.60	65.56	-37.4	-39.1	22.6	0.00e+00	0	41	0	1745879040	46	4369
2026-01-21 02:06:53.13	340.87	65.90	-37.3	-39.0	22.7	0.00e+00	0	41	0	1752170496	46	4313
2026-01-21 02:06:54.13	340.10	66.24	-37.1	-38.8	22.8	0.00e+00	0	41	0	1757413376	46	4232
2026-01-21 02:06:55.12	339.32	66.57	-37.0	-38.7	22.9	0.00e+00	0	41	0	1762656256	46	4152
2026-01-21 02:06:56.12	338.51	66.91	-36.9	-38.6	23.0	0.00e+00	0	41	0	1768947712	45	4371
2026-01-21 02:06:57.11	337.68	67.23	-36.8	-38.4	23.1	0.00e+00	0	41	0	1774190592	45	4289
2026-01-21 02:06:58.11	336.81	67.56	-36.9	-38.6	23.1	0.00e+00	0	41	0	1780482048	45	4352
2026-01-21 02:06:59.10	335.93	67.88	-36.9	-38.6	23.0	0.00e+00	0	41	0	1785724928	45	4375
2026-01-21 02:07:00.10	335.00	68.20	-36.9	-38.6	23.0	0.00e+00	0	41	0	1790967808	45	4363
2026-01-21 02:07:01.09	334.06	68.52	-36.7	-38.3	23.2	0.00e+00	0	41	0	1796210688	45	4238
2026-01-21 02:07:02.09	333.08	68.83	-36.6	-38.3	23.3	0.00e+00	0	41	0	1802502144	45	4196
2026-01-21 02:07:03.08	332.07	69.13	-36.6	-38.3	23.3	0.00e+00	0	41	0	1807745024	45	4195
2026-01-21 02:07:04.08	331.03	69.43	-36.5	-38.2	23.3	0.00e+00	0	41	0	1812987904	45	4180
2026-01-21 02:07:05.07	329.96	69.72	-36.7	-38.4	23.1	0.00e+00	0	41	0	1819279360	45	4267
2026-01-21 02:07:06.07	328.85	70.01	-36.8	-38.5	22.9	0.00e+00	0	41	0	1824522240	45	4329
2026-01-21 02:07:07.06	327.71	70.29	-37.0	-38.7	22.8	0.00e+00	0	41	0	1830813696	45	4405
2026-01-21 02:07:08.06	326.53	70.57	-37.2	-38.9	22.6	0.00e+00	0	41	0	1836056576	45	4523
2026-01-21 02:07:09.05	325.32	70.83	-37.4	-39.2	22.5	0.00e+00	0	41	0	1841299456	45	4679
2026-01-21 02:07:10.05	324.06	71.10	-37.2	-38.9	22.7	0.00e+00	0	41	0	1847590912	45	4541
2026-01-21 02:07:11.05	322.77	71.35	-37.3	-39.0	22.7	0.00e+00	0	41	0	1852833792	45	4598
2026-01-21 02:07:12.04	321.46	71.59	-37.0	-38.8	23.0	0.00e+00	0	41	0	1858076672	45	4444
2026-01-21 02:07:13.04	320.09	71.83	-36.5	-38.2	23.3	0.00e+00	0	41	0	1863319552	45	4147
2026-01-21 02:07:14.03	318.70	72.05	-36.2	-37.8	23.6	0.00e+00	0	41	0	1869611008	44	4222
2026-01-21 02:07:15.03	317.26	72.27	-36.6	-38.3	23.2	0.00e+00	0	41	0	1874853888	44	4459
2026-01-21 02:07:16.02	315.80	72.47	-37.0	-38.8	22.9	0.00e+00	0	41	0	1881145344	44	4709
2026-01-21 02:07:17.02	314.28	72.66	-36.9	-38.6	23.0	0.00e+00	0	41	0	1886388224	44	4619
2026-01-21 02:07:18.01	312.75	72.84	-36.9	-38.6	22.9	0.00e+00	0	41	0	1891631104	44	4639
2026-01-21 02:07:19.00	311.19	73.01	-37.4	-39.1	22.6	0.00e+00	0	41	0	1897922560	45	4640
2026-01-21 02:07:20.00	309.57	73.17	-37.1	-38.8	22.7	0.00e+00	0	41	0	1903165440	45	4492
2026-01-21 02:07:20.99	307.94	73.32	-36.5	-38.2	23.3	0.00e+00	0	41	0	1908408320	45	4148
2026-01-21 02:07:21.99	306.27	73.45	-36.5	-38.2	23.3	0.00e+00	0	41	0	1913651200	44	4407
2026-01-21 02:07:22.98	304.59	73.57	-37.0	-38.7	22.9	0.00e+00	0	41	0	1919942656	44	4699
2026-01-21 02:07:23.98	302.86	73.67	-36.8	-38.5	23.0	0.00e+00	0	41	0	1925185536	44	4564
2026-01-21 02:07:24.97	301.13	73.76	-36.4	-38.1	23.3	0.00e+00	0	41	0	1931476992	44	4367
2026-01-21 02:07:25.97	299.36	73.84	-36.6	-38.2	23.2	0.00e+00	0	41	0	1936719872	44	4436
2026-01-21 02:07:26.96	297.60	73.90	-36.6	-38.3	23.2	0.00e+00	0	41	0	1941962752	44	4454
2026-01-21 02:07:27.96	295.81	73.95	-36.4	-38.1	23.4	0.00e+00	0	41	0	1948254208	44	4374
2026-01-21 02:07:28.95	294.02	73.98	-36.2	-37.9	23.5	0.00e+00	0	41	0	1953497088	44	4264
2026-01-21 02:07:29.94	292.23	74.00	-36.4	-38.1	23.4	0.00e+00	0	42	0	1958739968	44	4356
2026-01-21 02:07:30.94	290.42	74.00	-36.5	-38.2	23.3	0.00e+00	0	41	0	1963982848	44	4433
2026-01-21 02:07:31.93	288.62	73.98	-36.7	-38.4	23.1	0.00e+00	0	41	0	1970274304	44	4516
2026-01-21 02:07:32.93	286.82	73.95	-36.6	-38.2	23.2	0.00e+00	0	41	0	1975517184	44	4439
2026-01-21 02:07:33.93	285.02	73.91	-36.4	-38.1	23.4	0.00e+00	0	41	0	1981808640	44	4363
2026-01-21 02:07:34.92	283.25	73.85	-36.6	-38.3	23.2	0.00e+00	0	41	0	1987051520	44	4464
2026-01-21 02:07:35.92	281.48	73.78	-36.5	-38.2	23.3	0.00e+00	0	41	0	1992294400	44	4417
2026-01-21 02:07:36.92	279.73	73.69	-36.3	-38.0	23.4	0.00e+00	0	42	0	1998585856	44	4305
2026-01-21 02:07:37.91	278.02	73.59	-36.4	-38.0	23.4	0.00e+00	0	41	0	2003828736	44	4326
2026-01-21 02:07:38.91	276.32	73.47	-36.5	-38.2	23.2	0.00e+00	0	41	0	2009071616	44	4407
2026-01-21 02:07:39.90	274.65	73.34	-36.3	-37.9	23.4	0.00e+00	0	41	0	2015363072	44	4287
2026-01-21 02:07:40.90	273.00	73.20	-36.4	-38.0	23.5	0.00e+00	0	41	0	2020605952	44	4327
2026-01-21 02:07:41.89	271.40	73.04	-36.9	-38.6	23.0	0.00e+00	0	41	0	2025848832	44	4622
2026-01-21 02:07:42.89	269.81	72.87	-36.7	-38.4	23.2	0.00e+00	0	41	0	2032140288	44	4514
2026-01-21 02:07:43.88	268.27	72.69	-36.6	-38.3	23.2	0.00e+00	0	41	0	2037383168	44	4457
2026-01-21 02:07:44.87	266.77	72.50	-36.5	-38.2	23.3	0.00e+00	0	41	0	2042626048	44	4431
2026-01-21 02:07:45.87	265.28	72.30	-36.5	-38.2	23.3	0.00e+00	0	41	0	2048917504	44	4417
2026-01-21 02:07:46.86	263.85	72.09	-36.5	-38.1	23.4	0.00e+00	0	42	0	2054160384	44	4388
2026-01-21 02:07:47.86	262.44	71.86	-36.3	-38.0	23.5	0.00e+00	0	41	0	2059403264	44	4305
2026-01-21 02:07:48.85	261.08	71.63	-36.5	-38.2	23.4	0.00e+00	0	41	0	2065694720	44	4406
2026-01-21 02:07:49.85	259.74	71.39	-36.7	-38.4	23.2	0.00e+00	0	41	0	2070937600	44	4504
2026-01-21 02:07:50.84	258.45	71.14	-36.7	-38.4	23.1	0.00e+00	0	42	0	2076180480	44	4528
2026-01-21 02:07:51.84	257.19	70.88	-36.5	-38.2	23.3	0.00e+00	0	41	0	2082471936	44	4410
2026-01-21 02:07:52.83	255.98	70.61	-36.5	-38.2	23.3	0.00e+00	0	41	0	2087714816	44	4407
2026-01-21 02:07:53.83	254.79	70.34	-36.6	-38.3	23.2	0.00e+00	0	41	0	2092957696	44	4462
2026-01-21 02:07:54.82	253.64	70.06	-36.8	-38.5	23.1	0.00e+00	0	41	0	2099249152	44	4547
2026-01-21 02:07:55.81	252.53	69.77	-36.6	-38.3	23.2	0.00e+00	0	41	0	2104492032	44	4482
2026-01-21 02:07:56.81	251.45	69.48	-36.6	-38.3	23.2	0.00e+00	0	41	0	2109734912	44	4455
2026-01-21 02:07:57.81	250.39	69.18	-36.5	-38.2	23.4	0.00e+00	0	41	0	2116026368	44	4405
2026-01-21 02:07:58.80	249.38	68.87	-36.7	-38.4	23.2	0.00e+00	0	41	0	2121269248	44	4531
2026-01-21 02:07:59.80	248.39	68.56	-36.8	-38.5	23.1	0.00e+00	0	41	0	2127560704	44	4589
2026-01-21 02:08:00.79	247.44	68.25	-36.8	-38.5	23.1	0.00e+00	0	41	0	2132803584	44	4549
2026-01-21 02:08:01.79	246.51	67.93	-36.7	-38.4	23.2	0.00e+00	0	41	0	2138046464	44	4523
2026-01-21 02:08:02.78	245.62	67.61	-36.8	-38.5	23.2	0.00e+00	0	41	0	2143289344	44	4570
2026-01-21 02:08:03.77	244.76	67.29	-37.3	-39.0	22.8	0.00e+00	0	41	0	2149580800	45	4551
2026-01-21 02:08:04.77	243.92	66.95	-37.6	-39.4	22.4	0.00e+00	0	41	0	2154823680	45	4786
2026-01-21 02:08:05.76	243.11	66.62	-37.1	-38.8	22.9	0.00e+00	0	41	0	2160066560	45	4445
2026-01-21 02:08:06.76	242.31	66.29	-36.8	-38.4	23.2	0.00e+00	0	41	0	2166358016	45	4282
2026-01-21 02:08:07.75	241.55	65.95	-36.9	-38.6	23.0	0.00e+00	0	42	0	2171600896	45	4375
2026-01-21 02:08:08.75	240.81	65.61	-36.7	-38.4	23.2	0.00e+00	0	41	0	2177892352	45	4255
2026-01-21 02:08:09.74	240.09	65.27	-36.7	-38.4	23.2	0.00e+00	0	41	0	2183135232	45	4263
2026-01-21 02:08:10.74	239.39	64.92	-36.8	-38.5	23.1	0.00e+00	0	42	0	2188378112	45	4316
2026-01-21 02:08:11.73	238.72	64.58	-37.0	-38.7	23.0	0.00e+00	0	41	0	2193620992	45	4403
2026-01-21 02:08:12.72	238.06	64.23	-36.7	-38.4	23.2	0.00e+00	0	41	0	2199912448	45	4254
2026-01-21 02:08:13.72	237.43	63.88	-36.9	-38.5	23.1	0.00e+00	0	41	0	2205155328	45	4329
2026-01-21 02:08:14.71	236.81	63.53	-37.2	-38.9	22.8	0.00e+00	0	41	0	2210398208	45	4518
2026-01-21 02:08:15.71	236.21	63.18	-37.2	-38.9	22.8	0.00e+00	0	41	0	2216689664	45	4526
2026-01-21 02:08:16.70	235.63	62.83	-37.1	-38.8	22.8	0.00e+00	0	42	0	2221932544	45	4480
2026-01-21 02:08:17.70	235.06	62.48	-37.3	-39.0	22.7	0.00e+00	0	41	0	2228224000	45	4567
2026-01-21 02:08:18.69	234.52	62.13	-37.4	-39.1	22.6	0.00e+00	0	42	0	2233466880	45	4650
2026-01-21 02:08:19.68	233.99	61.77	-37.6	-39.3	22.5	0.00e+00	0	41	0	2238709760	45	4742
2026-01-21 02:08:20.68	233.47	61.42	-37.6	-39.3	22.5	0.00e+00	0	41	0	2243952640	45	4743
2026-01-21 02:08:21.67	232.97	61.07	-37.6	-39.3	22.5	0.00e+00	0	41	0	2250244096	45	4731
2026-01-21 02:08:22.67	232.48	60.71	-37.5	-39.2	22.6	0.00e+00	0	41	0	2255486976	45	4681
2026-01-21 02:08:23.66	232.00	60.36	-37.5	-39.2	22.6	0.00e+00	0	41	0	2260729856	45	4692
2026-01-21 02:08:24.66	231.54	60.01	-37.6	-39.3	22.5	0.00e+00	0	41	0	2267021312	45	4737
2026-01-21 02:08:25.65	231.09	59.65	-37.5	-39.2	22.6	0.00e+00	0	42	0	2272264192	45	4705
2026-01-21 02:08:26.65	230.65	59.30	-37.7	-39.4	22.5	0.00e+00	0	42	0	2278555648	46	4529
2026-01-21 02:08:27.65	230.22	58.95	-38.0	-39.7	22.3	0.00e+00	0	41	0	2283798528	46	4668
2026-01-21 02:08:28.64	229.81	58.60	-38.0	-39.7	22.3	0.00e+00	0	42	0	2289041408	46	4660
2026-01-21 02:08:29.64	229.41	58.24	-37.9	-39.6	22.3	0.00e+00	0	41	0	2294284288	46	4631
2026-01-21 02:08:30.63	229.02	57.90	-38.0	-39.7	22.2	0.00e+00	0	41	0	2300575744	46	4661
2026-01-21 02:08:31.63	228.63	57.55	-38.1	-39.8	22.1	0.00e+00	0	41	0	2305818624	46	4740
2026-01-21 02:08:32.62	228.26	57.20	-38.2	-40.0	21.9	0.00e+00	0	41	0	2311061504	47	4556
2026-01-21 02:08:33.62	227.89	56.85	-38.3	-40.1	21.8	0.00e+00	0	41	0	2317352960	47	4600
2026-01-21 02:08:34.61	227.54	56.51	-38.3	-40.1	21.8	0.00e+00	0	41	0	2322595840	47	4614
2026-01-21 02:08:35.61	227.19	56.16	-38.4	-40.2	21.8	0.00e+00	0	41	0	2328887296	47	4659
2026-01-21 02:08:36.60	226.86	55.82	-38.3	-40.1	21.9	0.00e+00	0	41	0	2334130176	47	4630
2026-01-21 02:08:37.60	226.53	55.47	-38.5	-40.2	21.8	0.00e+00	0	41	0	2339373056	47	4697
2026-01-21 02:08:38.59	226.21	55.13	-38.6	-40.4	21.7	0.00e+00	0	41	0	2345664512	47	4761
2026-01-21 02:08:39.59	225.89	54.79	-38.8	-40.5	21.8	0.00e+00	0	41	0	2350907392	48	4598
2026-01-21 02:08:40.58	225.59	54.45	-38.8	-40.5	21.8	0.00e+00	0	41	0	2356150272	48	4570
2026-01-21 02:08:41.58	225.29	54.12	-38.8	-40.6	21.8	0.00e+00	0	41	0	2361393152	48	4620
2026-01-21 02:08:42.57	225.00	53.78	-38.9	-40.6	21.8	0.00e+00	0	41	0	2367684608	48	4651
2026-01-21 02:08:43.57	224.71	53.44	-38.8	-40.6	21.9	0.00e+00	0	41	0	2372927488	48	4599
2026-01-21 02:08:44.57	224.43	53.11	-38.7	-40.4	21.9	0.00e+00	0	41	0	2379218944	48	4530
2026-01-21 02:08:45.56	224.16	52.78	-38.6	-40.4	22.0	0.00e+00	0	41	0	2384461824	48	4514
2026-01-21 02:08:46.56	223.89	52.45	-38.5	-40.2	22.1	0.00e+00	0	42	0	2389704704	48	4418
2026-01-21 02:08:47.55	223.63	52.12	-38.5	-40.2	22.1	0.00e+00	0	41	0	2395996160	48	4413
2026-01-21 02:08:48.54	223.38	51.80	-38.2	-39.9	22.3	0.00e+00	0	42	0	2401239040	48	4279
2026-01-21 02:08:49.54	223.13	51.47	-38.2	-39.9	22.3	0.00e+00	0	41	0	2406481920	48	4264
2026-01-21 02:08:50.53	222.89	51.15	-38.2	-39.9	22.3	0.00e+00	0	42	0	2411724800	48	4267
2026-01-21 02:08:51.53	222.65	50.82	-38.2	-39.9	22.3	0.00e+00	0	42	0	2418016256	48	4246
2026-01-21 02:08:52.52	222.42	50.51	-38.1	-39.8	22.3	0.00e+00	0	42	0	2423259136	48	4233
2026-01-21 02:08:53.52	222.19	50.19	-38.1	-39.8	22.4	0.00e+00	0	41	0	2429550592	48	4219
2026-01-21 02:08:54.51	221.97	49.87	-38.3	-40.0	22.2	0.00e+00	0	42	0	2434793472	48	4323
2026-01-21 02:08:55.51	221.75	49.55	-38.3	-40.1	22.2	0.00e+00	0	42	0	2440036352	48	4343
2026-01-21 02:08:56.50	221.53	49.24	-38.3	-40.0	22.2	0.00e+00	0	42	0	2446327808	48	4322
2026-01-21 02:08:57.50	221.32	48.93	-38.1	-39.8	22.4	0.00e+00	0	41	0	2451570688	48	4197
2026-01-21 02:08:58.49	221.12	48.62	-37.8	-39.5	22.3	0.00e+00	0	41	0	2456813568	47	4331
2026-01-21 02:08:59.49	220.92	48.31	-37.7	-39.4	22.3	0.00e+00	0	42	0	2462056448	47	4284
2026-01-21 02:09:00.48	220.72	48.01	-37.7	-39.4	22.4	0.00e+00	0	41	0	2468347904	47	4274
2026-01-21 02:09:01.48	220.52	47.70	-37.7	-39.4	22.3	0.00e+00	0	41	0	2473590784	47	4278
2026-01-21 02:09:02.47	220.34	47.40	-37.6	-39.3	22.4	0.00e+00	0	42	0	2479882240	47	4221
2026-01-21 02:09:03.47	220.15	47.10	-37.6	-39.3	22.4	0.00e+00	0	42	0	2485125120	47	4228
2026-01-21 02:09:04.47	219.97	46.80	-37.6	-39.3	22.4	0.00e+00	0	41	0	2490368000	47	4225
2026-01-21 02:09:05.46	219.79	46.50	-37.7	-39.4	22.4	0.00e+00	0	42	0	2496659456	47	4256
2026-01-21 02:09:06.45	219.61	46.21	-37.6	-39.3	22.4	0.00e+00	0	42	0	2501902336	47	4242
2026-01-21 02:09:07.45	219.44	45.91	-37.5	-39.2	22.5	0.00e+00	0	41	0	2507145216	47	4191
2026-01-21 02:09:08.45	219.27	45.62	-37.5	-39.2	22.5	0.00e+00	0	41	0	2513436672	47	4179
2026-01-21 02:09:09.44	219.10	45.33	-37.6	-39.3	22.4	0.00e+00	0	42	0	2518679552	47	4232
2026-01-21 02:09:10.44	218.94	45.04	-37.5	-39.2	22.4	0.00e+00	0	42	0	2523922432	47	4184
2026-01-21 02:09:11.43	218.78	44.76	-37.5	-39.2	22.4	0.00e+00	0	42	0	2530213888	47	4189
2026-01-21 02:09:12.43	218.62	44.47	-37.5	-39.3	22.4	0.00e+00	0	41	0	2535456768	47	4213
2026-01-21 02:09:13.42	218.47	44.19	-37.4	-39.2	22.5	0.00e+00	0	41	0	2540699648	46	4392
2026-01-21 02:09:14.42	218.32	43.91	-37.4	-39.1	22.5	0.00e+00	0	42	0	2546991104	46	4390
2026-01-21 02:09:15.41	218.17	43.63	-37.4	-39.1	22.5	0.00e+00	0	41	0	2552233984	46	4345
2026-01-21 02:09:16.40	218.03	43.35	-37.4	-39.0	22.6	0.00e+00	0	41	0	2557476864	46	4337
2026-01-21 02:09:17.40	217.88	43.08	-37.5	-39.2	22.4	0.00e+00	0	41	0	2563768320	46	4397
2026-01-21 02:09:18.40	217.74	42.80	-37.6	-39.3	22.3	0.00e+00	0	42	0	2569011200	46	4479
2026-01-21 02:09:19.39	217.60	42.53	-37.6	-39.3	22.3	0.00e+00	0	41	0	2574254080	46	4485
2026-01-21 02:09:20.38	217.47	42.26	-37.6	-39.3	22.3	0.00e+00	0	41	0	2580545536	46	4493
2026-01-21 02:09:21.38	217.33	41.99	-37.6	-39.4	22.3	0.00e+00	0	42	0	2585788416	46	4496
2026-01-21 02:09:22.37	217.20	41.73	-37.4	-39.2	22.5	0.00e+00	0	41	0	2591031296	46	4396
2026-01-21 02:09:23.37	217.07	41.46	-37.4	-39.1	22.5	0.00e+00	0	41	0	2597322752	46	4367
2026-01-21 02:09:24.36	216.94	41.20	-37.4	-39.1	22.6	0.00e+00	0	42	0	2602565632	46	4366
2026-01-21 02:09:25.35	216.82	40.94	-37.1	-38.8	22.8	0.00e+00	0	42	0	2607808512	46	4215
2026-01-21 02:09:26.35	216.69	40.68	-37.0	-38.7	22.9	0.00e+00	0	41	0	2614099968	46	4146
2026-01-21 02:09:27.34	216.57	40.42	-37.1	-38.8	22.8	0.00e+00	0	42	0	2619342848	46	4209
2026-01-21 02:09:28.34	216.45	40.16	-37.1	-38.8	22.8	0.00e+00	0	42	0	2624585728	46	4216
2026-01-21 02:09:29.33	216.34	39.91	-37.0	-38.7	22.7	0.00e+00	0	41	0	2630877184	46	4175
2026-01-21 02:09:30.33	216.22	39.66	-36.9	-38.6	22.7	0.00e+00	0	41	0	2636120064	45	4391
2026-01-21 02:09:31.32	216.11	39.41	-36.9	-38.6	22.7	0.00e+00	0	41	0	2641362944	45	4377
2026-01-21 02:09:32.32	215.99	39.15	-37.0	-38.7	22.6	0.00e+00	0	42	0	2647654400	45	4419
2026-01-21 02:09:33.31	215.88	38.91	-36.9	-38.6	22.6	0.00e+00	0	42	0	2652897280	45	4389
2026-01-21 02:09:34.31	215.78	38.66	-36.8	-38.5	22.7	0.00e+00	0	42	0	2658140160	45	4314
2026-01-21 02:09:35.30	215.67	38.42	-36.8	-38.5	22.6	0.00e+00	0	41	0	2664431616	45	4336
2026-01-21 02:09:36.29	215.56	38.18	-36.7	-38.4	22.6	0.00e+00	0	41	0	2669674496	45	4279
2026-01-21 02:09:37.29	215.46	37.93	-36.6	-38.4	22.6	0.00e+00	0	41	0	2674917376	45	4248
2026-01-21 02:09:38.28	215.36	37.69	-36.5	-38.3	22.7	0.00e+00	0	41	0	2681208832	45	4194
2026-01-21 02:09:39.28	215.26	37.46	-36.4	-38.1	22.8	0.00e+00	0	41	0	2686451712	44	4360
2026-01-21 02:09:40.27	215.16	37.22	-36.4	-38.1	22.7	0.00e+00	0	42	0	2691694592	44	4384
2026-01-21 02:09:41.27	215.06	36.98	-36.4	-38.1	22.7	0.00e+00	0	41	0	2697986048	44	4383
2026-01-21 02:09:42.26	214.97	36.75	-36.4	-38.1	22.7	0.00e+00	0	42	0	2703228928	44	4388
2026-01-21 02:09:43.26	214.87	36.52	-36.3	-38.0	22.8	0.00e+00	0	41	0	2708471808	44	4303
2026-01-21 02:09:44.25	214.78	36.29	-36.2	-37.9	22.8	0.00e+00	0	41	0	2714763264	44	4271
2026-01-21 02:09:45.25	214.68	36.06	-36.2	-37.9	22.7	0.00e+00	0	41	0	2720006144	44	4265
2026-01-21 02:09:46.25	214.59	35.83	-36.3	-38.1	22.6	0.00e+00	0	41	0	2726297600	44	4351
2026-01-21 02:09:47.24	214.50	35.61	-36.3	-38.1	22.6	0.00e+00	0	41	0	2731540480	44	4349
2026-01-21 02:09:48.24	214.42	35.38	-36.4	-38.2	22.5	0.00e+00	0	42	0	2736783360	44	4415
2026-01-21 02:09:49.24	214.33	35.16	-36.5	-38.3	22.4	0.00e+00	0	42	0	2742026240	44	4448
2026-01-21 02:09:50.23	214.24	34.94	-36.4	-38.1	22.5	0.00e+00	0	41	0	2748317696	44	4385
2026-01-21 02:09:51.23	214.16	34.72	-36.4	-38.2	22.5	0.00e+00	0	42	0	2753560576	44	4399
2026-01-21 02:09:52.22	214.07	34.50	-36.4	-38.1	22.5	0.00e+00	0	42	0	2758803456	44	4372
2026-01-21 02:09:53.22	213.99	34.28	-36.4	-38.2	22.5	0.00e+00	0	42	0	2765094912	44	4401
2026-01-21 02:09:54.21	213.91	34.07	-36.3	-38.1	22.5	0.00e+00	0	41	0	2770337792	44	4350
2026-01-21 02:09:55.21	213.83	33.85	-36.3	-38.0	22.6	0.00e+00	0	41	0	2776629248	44	4309
2026-01-21 02:09:56.20	213.75	33.64	-36.3	-38.0	22.6	0.00e+00	0	41	0	2781872128	44	4310
2026-01-21 02:09:57.19	213.67	33.43	-36.3	-38.0	22.5	0.00e+00	0	41	0	2787115008	44	4320
2026-01-21 02:09:58.19	213.60	33.22	-36.3	-38.0	22.5	0.00e+00	0	42	0	2792357888	44	4340
2026-01-21 02:09:59.18	213.52	33.01	-36.2	-37.9	22.6	0.00e+00	0	41	0	2798649344	44	4282
2026-01-21 02:10:00.18	213.45	32.80	-36.1	-37.9	22.6	0.00e+00	0	42	0	2803892224	44	4243
2026-01-21 02:10:01.17	213.37	32.60	-36.2	-37.9	22.5	0.00e+00	0	41	0	2809135104	44	4281
2026-01-21 02:10:02.16	213.30	32.40	-36.2	-37.9	22.5	0.00e+00	0	42	0	2815426560	44	4259
2026-01-21 02:10:03.16	213.23	32.19	-36.2	-37.9	22.5	0.00e+00	0	42	0	2820669440	44	4282
2026-01-21 02:10:04.15	213.16	31.99	-36.2	-37.9	22.5	0.00e+00	0	42	0	2826960896	44	4274
2026-01-21 02:10:05.15	213.09	31.79	-36.3	-38.0	22.4	0.00e+00	0	42	0	2832203776	44	4338
2026-01-21 02:10:06.14	213.02	31.59	-36.2	-38.0	22.4	0.00e+00	0	41	0	2837446656	44	4311
2026-01-21 02:10:07.14	212.95	31.39	-36.3	-38.1	22.3	0.00e+00	0	41	0	2842689536	44	4346
2026-01-21 02:10:08.13	212.88	31.20	-36.2	-38.0	22.3	0.00e+00	0	41	0	2848980992	44	4311
2026-01-21 02:10:09.13	212.82	31.00	-36.3	-38.1	22.3	0.00e+00	0	42	0	2854223872	44	4352
2026-01-21 02:10:10.12	212.75	30.81	-36.2	-38.0	22.3	0.00e+00	0	41	0	2859466752	44	4296
2026-01-21 02:10:11.11	212.68	30.62	-36.2	-37.9	22.4	0.00e+00	0	42	0	2865758208	44	4264
2026-01-21 02:10:12.11	212.62	30.43	-36.2	-37.9	22.3	0.00e+00	0	41	0	2871001088	44	4290
2026-01-21 02:10:13.11	212.56	30.23	-36.1	-37.8	22.4	0.00e+00	0	41	0	2877292544	44	4235
2026-01-21 02:10:14.10	212.49	30.05	-36.0	-37.7	22.5	0.00e+00	0	42	0	2882535424	44	4178
2026-01-21 02:10:15.10	212.43	29.86	-36.1	-37.8	22.4	0.00e+00	0	42	0	2887778304	44	4206
2026-01-21 02:10:16.09	212.37	29.67	-36.1	-37.8	22.4	0.00e+00	0	42	0	2894069760	44	4231
2026-01-21 02:10:17.09	212.31	29.48	-36.1	-37.9	22.4	0.00e+00	0	41	0	2899312640	44	4247
2026-01-21 02:10:18.08	212.25	29.30	-36.1	-37.8	22.3	0.00e+00	0	41	0	2904555520	44	4233
2026-01-21 02:10:19.08	212.19	29.12	-36.1	-37.9	22.3	0.00e+00	0	42	0	2909798400	44	4254
2026-01-21 02:10:20.07	212.13	28.94	-36.2	-38.0	22.2	0.00e+00	0	41	0	2916089856	44	4301
2026-01-21 02:10:21.07	212.08	28.75	-36.3	-38.1	22.1	0.00e+00	0	42	0	2921332736	44	4345
2026-01-21 02:10:22.06	212.02	28.58	-36.2	-38.0	22.2	0.00e+00	0	42	0	2927624192	44	4304
2026-01-21 02:10:23.06	211.96	28.40	-36.2	-37.9	22.2	0.00e+00	0	42	0	2932867072	44	4291
2026-01-21 02:10:24.05	211.91	28.22	-36.2	-37.9	22.2	0.00e+00	0	41	0	2938109952	44	4280
2026-01-21 02:10:25.05	211.85	28.04	-36.2	-37.9	22.2	0.00e+00	0	41	0	2944401408	44	4284
2026-01-21 02:10:26.05	211.80	27.87	-36.1	-37.9	22.2	0.00e+00	0	42	0	2949644288	44	4268
2026-01-21 02:10:27.04	211.74	27.69	-36.1	-37.9	22.2	0.00e+00	0	41	0	2954887168	44	4275
2026-01-21 02:10:28.04	211.69	27.52	-36.1	-37.9	22.2	0.00e+00	0	41	0	2960130048	44	4256
2026-01-21 02:10:29.03	211.64	27.35	-36.2	-37.9	22.2	0.00e+00	0	41	0	2966421504	44	4288
2026-01-21 02:10:30.03	211.59	27.18	-36.3	-38.0	22.2	0.00e+00	0	42	0	2971664384	44	4325
2026-01-21 02:10:31.02	211.53	27.01	-36.2	-38.0	22.2	0.00e+00	0	41	0	2977955840	44	4296
2026-01-21 02:10:32.02	211.48	26.84	-36.2	-37.9	22.2	0.00e+00	0	41	0	2983198720	44	4276
2026-01-21 02:10:33.01	211.43	26.67	-36.1	-37.8	22.3	0.00e+00	0	42	0	2988441600	44	4220
2026-01-21 02:10:34.01	211.38	26.50	-36.0	-37.8	22.3	0.00e+00	0	41	0	2994733056	44	4201
2026-01-21 02:10:35.00	211.33	26.34	-36.0	-37.8	22.3	0.00e+00	0	41	0	2999975936	44	4199
2026-01-21 02:10:36.00	211.29	26.17	-36.1	-37.8	22.3	0.00e+00	0	42	0	3005218816	44	4212
2026-01-21 02:10:36.99	211.24	26.01	-36.2	-37.9	22.3	0.00e+00	0	42	0	3011510272	44	4265
2026-01-21 02:10:37.99	211.19	25.84	-36.2	-37.9	22.2	0.00e+00	0	42	0	3016753152	44	4261
2026-01-21 02:10:38.98	211.14	25.68	-36.2	-38.0	22.2	0.00e+00	0	42	0	3021996032	44	4311
2026-01-21 02:10:39.98	211.10	25.52	-36.3	-38.0	22.1	0.00e+00	0	42	0	3028287488	44	4332
2026-01-21 02:10:40.97	211.05	25.36	-36.4	-38.2	22.0	0.00e+00	0	42	0	3033530368	44	4403
2026-01-21 02:10:41.96	211.01	25.20	-36.4	-38.1	22.0	0.00e+00	0	42	0	3038773248	44	4387
2026-01-21 02:10:42.96	210.96	25.04	-36.4	-38.2	22.1	0.00e+00	0	42	0	3045064704	44	4397
2026-01-21 02:10:43.95	210.92	24.89	-36.5	-38.2	22.0	0.00e+00	0	42	0	3050307584	44	4441
2026-01-21 02:10:44.95	210.87	24.73	-36.6	-38.3	21.9	0.00e+00	0	42	0	3055550464	44	4491
2026-01-21 02:10:45.94	210.83	24.57	-36.5	-38.2	22.0	0.00e+00	0	42	0	3061841920	44	4441
2026-01-21 02:10:46.94	210.78	24.42	-36.6	-38.4	21.9	0.00e+00	0	42	0	3067084800	44	4502
2026-01-21 02:10:47.93	210.74	24.27	-36.7	-38.5	21.8	0.00e+00	0	42	0	3072327680	44	4551
2026-01-21 02:10:48.93	210.70	24.11	-36.5	-38.3	22.0	0.00e+00	0	42	0	3078619136	44	4452
2026-01-21 02:10:49.92	210.66	23.96	-36.5	-38.2	22.0	0.00e+00	0	42	0	3083862016	44	4437
2026-01-21 02:10:50.91	210.62	23.81	-36.5	-38.2	22.0	0.00e+00	0	41	0	3089104896	44	4438
2026-01-21 02:10:51.91	210.57	23.66	-36.4	-38.2	22.0	0.00e+00	0	41	0	3095396352	44	4413
2026-01-21 02:10:52.90	210.53	23.51	-36.5	-38.3	22.0	0.00e+00	0	41	0	3100639232	44	4442
2026-01-21 02:10:53.90	210.49	23.36	-36.4	-38.2	22.0	0.00e+00	0	42	0	3105882112	44	4416
2026-01-21 02:10:54.89	210.45	23.22	-36.4	-38.2	22.0	0.00e+00	0	41	0	3112173568	44	4408
2026-01-21 02:10:55.89	210.41	23.07	-36.5	-38.3	22.0	0.00e+00	0	42	0	3117416448	44	4449
2026-01-21 02:10:56.88	210.38	22.92	-36.5	-38.3	22.0	0.00e+00	0	42	0	3122659328	44	4444
2026-01-21 02:10:57.88	210.34	22.78	-36.6	-38.4	21.9	0.00e+00	0	42	0	3128950784	44	4506
2026-01-21 02:10:58.87	210.30	22.63	-36.6	-38.4	21.9	0.00e+00	0	41	0	3134193664	44	4523
2026-01-21 02:10:59.87	210.26	22.49	-36.7	-38.5	21.8	0.00e+00	0	42	0	3139436544	44	4554
2026-01-21 02:11:00.87	210.22	22.34	-36.6	-38.4	21.9	0.00e+00	0	42	0	3145728000	44	4499
2026-01-21 02:11:01.86	210.19	22.20	-36.7	-38.4	21.8	0.00e+00	0	42	0	3150970880	44	4536
2026-01-21 02:11:02.86	210.15	22.06	-36.7	-38.5	21.8	0.00e+00	0	42	0	3156213760	44	4571
2026-01-21 02:11:03.85	210.11	21.92	-36.8	-38.5	21.8	0.00e+00	0	42	0	3162505216	44	4590
2026-01-21 02:11:04.85	210.08	21.78	-36.7	-38.5	21.8	0.00e+00	0	41	0	3167748096	44	4564
2026-01-21 02:11:05.84	210.04	21.64	-36.8	-38.6	21.7	0.00e+00	0	42	0	3174039552	44	4607
2026-01-21 02:11:06.84	210.01	21.50	-36.7	-38.5	21.8	0.00e+00	0	42	0	3179282432	44	4578
2026-01-21 02:11:07.83	209.97	21.37	-36.8	-38.6	21.7	0.00e+00	0	42	0	3184525312	44	4617
2026-01-21 02:11:08.83	209.94	21.23	-36.9	-38.6	21.7	0.00e+00	0	42	0	3189768192	44	4641
2026-01-21 02:11:09.82	209.90	21.09	-36.9	-38.7	21.6	0.00e+00	0	42	0	3196059648	44	4670
2026-01-21 02:11:10.82	209.87	20.96	-37.0	-38.8	21.5	0.00e+00	0	42	0	3201302528	44	4734
2026-01-21 02:11:11.81	209.83	20.82	-37.1	-38.8	21.5	0.00e+00	0	42	0	3206545408	44	4757
2026-01-21 02:11:12.81	209.80	20.69	-37.0	-38.8	21.5	0.00e+00	0	42	0	3212836864	44	4724
2026-01-21 02:11:13.80	209.77	20.56	-37.1	-38.9	21.4	0.00e+00	0	42	0	3218079744	44	4768
2026-01-21 02:11:14.80	209.73	20.42	-37.1	-38.9	21.5	0.00e+00	0	41	0	3224371200	44	4760
2026-01-21 02:11:15.79	209.70	20.29	-37.2	-38.9	21.4	0.00e+00	0	42	0	3229614080	45	4541
2026-01-21 02:11:16.79	209.67	20.16	-37.2	-39.0	21.3	0.00e+00	0	42	0	3234856960	45	4552
2026-01-21 02:11:17.78	209.64	20.03	-37.4	-39.2	21.2	0.00e+00	0	42	0	3240099840	45	4656
2026-01-21 02:11:18.78	209.61	19.90	-37.3	-39.1	21.3	0.00e+00	0	42	0	3246391296	45	4602
2026-01-21 02:11:19.77	209.58	19.77	-37.3	-39.1	21.2	0.00e+00	0	42	0	3251634176	45	4625
2026-01-21 02:11:20.76	209.54	19.64	-37.3	-39.2	21.2	0.00e+00	0	42	0	3256877056	45	4654
2026-01-21 02:11:21.76	209.51	19.51	-37.5	-39.3	21.1	0.00e+00	0	42	0	3263168512	45	4716
2026-01-21 02:11:22.75	209.48	19.39	-37.4	-39.2	21.2	0.00e+00	0	42	0	3268411392	45	4661
2026-01-21 02:11:23.75	209.45	19.26	-37.5	-39.3	21.1	0.00e+00	0	42	0	3274702848	45	4715
2026-01-21 02:11:24.74	209.42	19.14	-37.5	-39.3	21.0	0.00e+00	0	42	0	3279945728	45	4758
2026-01-21 02:11:25.74	209.39	19.01	-37.5	-39.3	21.0	0.00e+00	0	42	0	3285188608	45	4743
2026-01-21 02:11:26.73	209.36	18.89	-37.6	-39.4	20.9	0.00e+00	0	42	0	3290431488	45	4792
2026-01-21 02:11:27.73	209.33	18.76	-37.6	-39.4	20.9	0.00e+00	0	42	0	3296722944	45	4814
2026-01-21 02:11:28.72	209.31	18.64	-37.7	-39.5	20.9	0.00e+00	0	42	0	3301965824	45	4836
2026-01-21 02:11:29.72	209.28	18.51	-37.7	-39.5	20.8	0.00e+00	0	42	0	3307208704	46	4594
2026-01-21 02:11:30.71	209.25	18.39	-37.6	-39.5	20.9	0.00e+00	0	42	0	3313500160	46	4549
2026-01-21 02:11:31.71	209.22	18.27	-37.7	-39.6	20.8	0.00e+00	0	42	0	3318743040	46	4601
2026-01-21 02:11:32.70	209.19	18.15	-37.7	-39.5	20.8	0.00e+00	0	42	0	3325034496	46	4588
2026-01-21 02:11:33.70	209.17	18.03	-37.7	-39.6	20.8	0.00e+00	0	42	0	3330277376	46	4614
2026-01-21 02:11:34.70	209.14	17.91	-37.7	-39.6	20.8	0.00e+00	0	42	0	3335520256	46	4601
2026-01-21 02:11:35.69	209.11	17.79	-37.8	-39.7	20.7	0.00e+00	0	42	0	3340763136	46	4667
2026-01-21 02:11:36.69	209.08	17.67	-37.9	-39.7	20.7	0.00e+00	0	42	0	3347054592	46	4696
2026-01-21 02:11:37.68	209.06	17.55	-37.9	-39.8	20.6	0.00e+00	0	42	0	3352297472	46	4714
2026-01-21 02:11:38.68	209.03	17.43	-37.8	-39.7	20.7	0.00e+00	0	42	0	3357540352	46	4673
2026-01-21 02:11:39.68	209.00	17.32	-37.9	-39.7	20.7	0.00e+00	0	42	0	3363831808	46	4703
2026-01-21 02:11:40.67	208.98	17.20	-37.9	-39.7	20.6	0.00e+00	0	42	0	3369074688	46	4701
2026-01-21 02:11:41.67	208.95	17.08	-38.0	-39.8	20.6	0.00e+00	0	42	0	3375366144	46	4756
2026-01-21 02:11:42.66	208.93	16.97	-37.9	-39.8	20.6	0.00e+00	0	42	0	3380609024	46	4724
2026-01-21 02:11:43.66	208.90	16.85	-38.0	-39.9	20.5	0.00e+00	0	42	0	3385851904	46	4784
2026-01-21 02:11:44.65	208.88	16.74	-38.1	-40.0	20.5	0.00e+00	0	42	0	3392143360	46	4820
2026-01-21 02:11:45.65	208.85	16.63	-38.2	-40.0	20.4	0.00e+00	0	42	0	3397386240	46	4854
2026-01-21 02:11:46.65	208.83	16.51	-38.1	-40.0	20.4	0.00e+00	0	42	0	3402629120	47	4573
2026-01-21 02:11:47.64	208.80	16.40	-38.2	-40.0	20.4	0.00e+00	0	42	0	3407872000	47	4587
2026-01-21 02:11:48.63	208.78	16.29	-38.2	-40.0	20.4	0.00e+00	0	42	0	3414163456	47	4581
2026-01-21 02:11:49.63	208.75	16.18	-38.2	-40.1	20.4	0.00e+00	0	42	0	3419406336	47	4618
2026-01-21 02:11:50.63	208.73	16.06	-38.3	-40.2	20.3	0.00e+00	0	42	0	3425697792	47	4663
2026-01-21 02:11:51.62	208.71	15.95	-38.4	-40.3	20.2	0.00e+00	0	42	0	3430940672	47	4711
2026-01-21 02:11:52.62	208.68	15.84	-38.3	-40.2	20.2	0.00e+00	0	42	0	3436183552	47	4689
2026-01-21 02:11:53.61	208.66	15.73	-38.3	-40.2	20.2	0.00e+00	0	42	0	3442475008	47	4677
2026-01-21 02:11:54.60	208.64	15.62	-38.4	-40.3	20.1	0.00e+00	0	42	0	3447717888	47	4738
2026-01-21 02:11:55.60	208.61	15.52	-38.4	-40.3	20.1	0.00e+00	0	42	0	3452960768	47	4750
2026-01-21 02:11:56.59	208.59	15.41	-38.4	-40.3	20.2	0.00e+00	0	42	0	3459252224	47	4724
2026-01-21 02:11:57.59	208.57	15.30	-38.3	-40.2	20.2	0.00e+00	0	42	0	3464495104	47	4700
2026-01-21 02:11:58.58	208.55	15.19	-38.4	-40.3	20.2	0.00e+00	0	42	0	3469737984	47	4726
2026-01-21 02:11:59.58	208.52	15.08	-38.5	-40.4	20.1	0.00e+00	0	42	0	3476029440	47	4771
2026-01-21 02:12:00.57	208.50	14.98	-38.6	-40.5	20.0	0.00e+00	0	42	0	3481272320	47	4839
2026-01-21 02:12:01.57	208.48	14.87	-38.8	-40.7	19.9	0.00e+00	0	42	0	3486515200	48	4684
2026-01-21 02:12:02.56	208.46	14.77	-38.9	-40.8	20.0	0.00e+00	0	42	0	3492806656	48	4735
2026-01-21 02:12:03.56	208.44	14.66	-38.8	-40.7	20.0	0.00e+00	0	42	0	3498049536	48	4673
2026-01-21 02:12:04.55	208.41	14.56	-38.6	-40.5	20.2	0.00e+00	0	42	0	3503292416	48	4549
2026-01-21 02:12:05.55	208.39	14.45	-38.6	-40.5	20.1	0.00e+00	0	42	0	3509583872	48	4582
2026-01-21 02:12:06.54	208.37	14.35	-38.7	-40.6	20.1	0.00e+00	0	42	0	3514826752	48	4630
2026-01-21 02:12:07.54	208.35	14.25	-38.7	-40.6	20.0	0.00e+00	0	42	0	3520069632	48	4646
2026-01-21 02:12:08.53	208.33	14.14	-38.7	-40.6	20.1	0.00e+00	0	42	0	3526361088	48	4614
2026-01-21 02:12:09.53	208.31	14.04	-38.8	-40.7	20.0	0.00e+00	0	42	0	3531603968	48	4653
2026-01-21 02:12:10.53	208.29	13.94	-38.8	-40.7	20.0	0.00e+00	0	42	0	3536846848	48	4656
2026-01-21 02:12:11.52	208.27	13.84	-38.8	-40.7	20.0	0.00e+00	0	42	0	3543138304	48	4677
2026-01-21 02:12:12.51	208.25	13.74	-38.8	-40.7	20.0	0.00e+00	0	42	0	3548381184	48	4684
2026-01-21 02:12:13.51	208.23	13.64	-38.8	-40.7	20.0	0.00e+00	0	42	0	3553624064	48	4664
2026-01-21 02:12:14.50	208.21	13.54	-38.8	-40.7	20.0	0.00e+00	0	42	0	3559915520	48	4676
2026-01-21 02:12:15.50	208.19	13.43	-38.7	-40.6	20.1	0.00e+00	0	42	0	3565158400	48	4605
2026-01-21 02:12:16.50	208.17	13.33	-38.9	-40.8	19.9	0.00e+00	0	42	0	3571449856	48	4709
2026-01-21 02:12:17.49	208.15	13.24	-38.7	-40.6	20.1	0.00e+00	0	42	0	3576692736	48	4614
2026-01-21 02:12:18.48	208.13	13.14	-38.7	-40.6	20.0	0.00e+00	0	42	0	3581935616	48	4622
2026-01-21 02:12:19.48	208.11	13.04	-38.8	-40.7	19.9	0.00e+00	0	42	0	3587178496	48	4683
2026-01-21 02:12:20.47	208.09	12.94	-38.7	-40.6	20.0	0.00e+00	0	42	0	3593469952	48	4633
2026-01-21 02:12:21.47	208.08	12.84	-38.8	-40.7	19.9	0.00e+00	0	42	0	3598712832	48	4658
2026-01-21 02:12:22.46	208.06	12.75	-38.8	-40.6	20.0	0.00e+00	0	42	0	3603955712	48	4647
2026-01-21 02:12:23.46	208.04	12.65	-38.8	-40.7	20.0	0.00e+00	0	42	0	3610247168	48	4674
2026-01-21 02:12:24.45	208.02	12.55	-39.0	-40.8	19.8	0.00e+00	0	42	0	3615490048	48	4744
2026-01-21 02:12:25.45	208.00	12.46	-38.9	-40.8	19.9	0.00e+00	0	42	0	3621781504	48	4714
