passes_logs/2026/01/21/T1/T1__20260121_002106_FENGYUN_3D_rec.log

#Pass ID: 20260121_002106_FENGYUN 3D
#Satellite: FENGYUN 3D
#Configuration: FENGYUN 3D
#almurnet v.1.7.20251203
#Start time: 2026-01-21 00:21:06

#Version: 2.0.20230620
#Station: T1
#Location: 37.570604 lon 55.790049 lat
#TLE: 1 43010U 17072A   26020.28933472  .00000051  00000+0  46008-4 0  9990
#TLE: 2 43010  98.9944 352.1871 0002476  99.7001 260.4455 14.19696838424006

#Time	Az	El	Level	Level2	SNR	BER	BlckErr	Temp	State	Recorded	gain1	gain2
2026-01-21 00:21:06.15	29.08	4.99	-51.5	-64.1	3.8	8.47e-01	0	40	0	0	74	15539
2026-01-21 00:21:07.14	29.16	5.05	-51.4	-64.1	3.8	8.46e-01	0	40	104	0	73	16346
2026-01-21 00:21:08.13	29.24	5.10	-51.5	-64.0	3.8	8.46e-01	0	40	104	0	73	16294
2026-01-21 00:21:09.13	29.33	5.16	-51.4	-64.1	3.8	8.47e-01	0	40	104	0	73	16399
2026-01-21 00:21:10.12	29.41	5.22	-51.4	-64.1	3.8	8.47e-01	0	40	104	0	73	16393
2026-01-21 00:21:11.11	29.49	5.28	-51.5	-64.1	3.8	8.47e-01	0	40	104	0	73	16316
2026-01-21 00:21:12.11	29.58	5.34	-51.4	-64.1	3.8	8.47e-01	0	40	104	0	73	16402
2026-01-21 00:21:13.10	29.66	5.40	-51.5	-64.0	3.8	8.46e-01	0	40	104	0	73	16312
2026-01-21 00:21:14.09	29.75	5.46	-51.4	-64.1	3.8	8.47e-01	0	40	104	0	73	16416
2026-01-21 00:21:15.09	29.83	5.52	-51.4	-64.1	3.8	8.47e-01	0	40	104	0	73	16341
2026-01-21 00:21:16.08	29.92	5.58	-51.5	-64.0	3.8	8.47e-01	0	40	104	0	73	16245
2026-01-21 00:21:17.07	30.00	5.64	-51.4	-64.1	3.8	8.46e-01	0	40	104	0	73	16330
2026-01-21 00:21:18.07	30.09	5.70	-51.4	-64.0	3.8	8.47e-01	0	40	104	0	73	16203
2026-01-21 00:21:19.06	30.17	5.76	-51.5	-64.0	3.8	8.48e-01	0	40	104	0	73	16214
2026-01-21 00:21:20.05	30.26	5.82	-51.4	-64.0	3.8	8.47e-01	0	40	104	0	73	16159
2026-01-21 00:21:21.04	30.35	5.88	-51.5	-63.9	3.8	8.47e-01	0	40	104	0	73	16097
2026-01-21 00:21:22.04	30.43	5.94	-51.4	-63.9	3.8	8.46e-01	0	40	104	0	73	16069
2026-01-21 00:21:23.03	30.52	6.00	-51.4	-63.9	3.8	8.47e-01	0	41	104	0	73	15991
2026-01-21 00:21:24.02	30.61	6.06	-51.4	-63.9	3.8	8.46e-01	0	41	104	0	73	15951
2026-01-21 00:21:25.01	30.70	6.12	-51.4	-63.9	3.8	8.46e-01	0	41	104	0	73	15947
2026-01-21 00:21:26.01	30.79	6.19	-51.4	-63.8	3.8	8.47e-01	0	41	104	0	73	15934
2026-01-21 00:21:27.00	30.88	6.25	-51.4	-63.8	3.8	8.47e-01	0	41	104	0	73	15881
2026-01-21 00:21:27.99	30.96	6.31	-51.4	-63.8	3.8	8.47e-01	0	41	104	0	73	15822
2026-01-21 00:21:28.99	31.05	6.37	-51.4	-63.8	3.8	8.47e-01	0	41	104	0	73	15855
2026-01-21 00:21:29.98	31.14	6.43	-51.4	-63.8	3.8	8.47e-01	0	41	104	0	73	15881
2026-01-21 00:21:30.97	31.23	6.49	-51.4	-63.8	3.8	8.47e-01	0	41	104	0	73	15935
2026-01-21 00:21:31.97	31.33	6.55	-51.4	-63.9	3.8	8.47e-01	0	41	104	0	73	15944
2026-01-21 00:21:32.96	31.42	6.61	-51.4	-63.9	3.8	8.47e-01	0	41	104	0	73	16002
2026-01-21 00:21:33.95	31.51	6.67	-51.4	-63.9	3.8	8.46e-01	0	41	104	0	73	15956
2026-01-21 00:21:34.94	31.60	6.74	-51.4	-63.9	3.8	8.47e-01	0	41	104	0	73	16053
2026-01-21 00:21:35.94	31.69	6.80	-51.4	-63.8	3.8	8.46e-01	0	41	104	0	73	15891
2026-01-21 00:21:36.93	31.78	6.86	-51.4	-63.8	3.8	8.46e-01	0	41	104	0	73	15819
2026-01-21 00:21:37.92	31.88	6.92	-51.4	-63.7	3.8	8.47e-01	0	41	104	0	73	15638
2026-01-21 00:21:38.92	31.97	6.98	-51.4	-63.7	3.8	8.47e-01	0	41	104	0	73	15635
2026-01-21 00:21:39.91	32.06	7.05	-51.4	-63.6	3.8	8.47e-01	0	41	104	0	73	15577
2026-01-21 00:21:40.90	32.16	7.11	-51.4	-63.7	3.8	8.48e-01	0	41	104	0	73	15649
2026-01-21 00:21:41.90	32.25	7.17	-51.4	-63.7	3.8	8.46e-01	0	41	104	0	73	15707
2026-01-21 00:21:42.89	32.35	7.23	-51.4	-63.8	3.8	8.47e-01	0	41	104	0	73	15831
2026-01-21 00:21:43.88	32.44	7.29	-51.4	-63.8	3.8	8.47e-01	0	41	104	0	73	15922
2026-01-21 00:21:44.87	32.54	7.36	-51.4	-63.8	3.8	8.46e-01	0	41	104	0	73	15899
2026-01-21 00:21:45.87	32.63	7.42	-51.4	-63.7	3.8	8.47e-01	0	41	104	0	73	15667
2026-01-21 00:21:46.86	32.73	7.48	-51.4	-63.6	3.8	8.46e-01	0	41	104	0	73	15463
2026-01-21 00:21:47.85	32.83	7.54	-51.4	-63.5	3.8	8.47e-01	0	41	104	0	73	15308
2026-01-21 00:21:48.85	32.93	7.61	-51.4	-63.5	3.8	8.47e-01	0	41	104	0	73	15253
2026-01-21 00:21:49.84	33.02	7.67	-51.4	-63.5	3.8	8.47e-01	0	41	104	0	73	15252
2026-01-21 00:21:50.83	33.12	7.73	-51.4	-63.6	3.8	8.46e-01	0	41	104	0	73	15496
2026-01-21 00:21:51.83	33.22	7.80	-51.4	-63.8	3.8	8.46e-01	0	41	104	0	73	15805
2026-01-21 00:21:52.82	33.32	7.86	-51.4	-63.9	3.8	8.46e-01	0	42	104	0	73	15948
2026-01-21 00:21:53.81	33.42	7.92	-51.4	-63.9	3.8	8.46e-01	0	41	104	0	73	16094
2026-01-21 00:21:54.80	33.52	7.99	-51.4	-63.9	3.8	8.46e-01	0	41	104	0	73	16084
2026-01-21 00:21:55.80	33.62	8.05	-51.4	-63.9	3.8	8.47e-01	0	41	104	0	73	16099
2026-01-21 00:21:56.79	33.72	8.11	-51.4	-64.0	3.8	8.47e-01	0	41	104	0	73	16130
2026-01-21 00:21:57.78	33.82	8.18	-51.4	-63.9	3.8	8.46e-01	0	41	104	0	73	15960
2026-01-21 00:21:58.78	33.92	8.24	-51.4	-63.7	3.8	8.47e-01	0	42	104	0	73	15751
2026-01-21 00:21:59.77	34.02	8.30	-51.4	-63.6	3.8	8.48e-01	0	41	104	0	73	15493
2026-01-21 00:22:00.76	34.12	8.37	-51.4	-63.4	3.8	8.47e-01	0	42	104	0	73	15160
2026-01-21 00:22:01.76	34.23	8.43	-51.4	-63.1	3.8	8.46e-01	0	41	104	0	73	14595
2026-01-21 00:22:02.75	34.33	8.50	-51.3	-62.8	3.8	8.47e-01	0	42	104	0	73	14189
2026-01-21 00:22:03.74	34.43	8.56	-51.3	-62.5	3.8	8.47e-01	0	41	104	0	73	13627
2026-01-21 00:22:04.74	34.54	8.62	-51.2	-62.0	3.8	8.45e-01	0	41	104	0	73	12954
2026-01-21 00:22:05.73	34.64	8.69	-51.1	-61.1	4.0	8.44e-01	0	42	0	0	73	11623
2026-01-21 00:22:06.72	34.74	8.75	-50.9	-59.4	4.5	8.28e-01	0	42	0	0	73	9578
2026-01-21 00:22:07.71	34.85	8.82	-50.3	-57.1	5.9	7.30e-01	0	42	0	0	72	7799
2026-01-21 00:22:08.71	34.96	8.88	-49.6	-55.0	7.8	1.26e-01	0	42	0	6291456	71	6444
2026-01-21 00:22:09.70	35.06	8.95	-48.6	-52.9	9.9	2.07e-02	0	42	0	11534336	69	5688
2026-01-21 00:22:10.69	35.17	9.01	-47.5	-51.0	11.7	2.34e-03	0	42	0	16777216	67	5116
2026-01-21 00:22:11.69	35.28	9.08	-46.4	-49.4	13.3	6.29e-05	0	42	0	22020096	64	5091
2026-01-21 00:22:12.68	35.38	9.14	-49.9	-55.8	7.1	1.14e-03	0	42	0	28311552	70	7492
2026-01-21 00:22:13.68	35.49	9.21	-46.0	-48.7	14.1	6.19e-03	0	42	0	32505856	64	4683
2026-01-21 00:22:14.67	35.60	9.27	-48.4	-52.4	10.4	6.75e-05	0	42	0	37748736	67	6042
2026-01-21 00:22:15.67	35.71	9.34	-44.0	-46.2	16.5	5.50e-03	0	41	0	42991616	60	4415
2026-01-21 00:22:16.66	35.82	9.40	-42.5	-44.5	18.2	0.00e+00	0	42	0	49283072	56	4554
2026-01-21 00:22:17.66	35.93	9.47	-42.1	-44.1	18.6	0.00e+00	0	42	0	54525952	56	4361
2026-01-21 00:22:18.65	36.04	9.53	-42.0	-43.9	18.7	0.00e+00	0	42	0	59768832	56	4278
2026-01-21 00:22:19.65	36.15	9.60	-41.8	-43.7	18.8	0.00e+00	0	42	0	66060288	55	4427
2026-01-21 00:22:20.65	36.26	9.67	-41.7	-43.7	18.8	0.00e+00	0	42	0	71303168	55	4401
2026-01-21 00:22:21.64	36.37	9.73	-41.7	-43.6	18.9	0.00e+00	0	42	0	76546048	55	4387
2026-01-21 00:22:22.64	36.49	9.80	-41.6	-43.6	18.9	0.00e+00	0	42	0	82837504	55	4346
2026-01-21 00:22:23.63	36.60	9.86	-41.7	-43.6	18.9	0.00e+00	0	42	0	88080384	55	4356
2026-01-21 00:22:24.63	36.71	9.93	-41.5	-43.4	19.1	0.00e+00	0	42	0	93323264	55	4276
2026-01-21 00:22:25.62	36.83	9.99	-41.4	-43.3	19.2	0.00e+00	0	42	0	99614720	54	4488
2026-01-21 00:22:26.62	36.94	10.06	-41.4	-43.3	19.2	0.00e+00	0	42	0	104857600	54	4468
2026-01-21 00:22:27.61	37.06	10.13	-41.4	-43.3	19.2	0.00e+00	0	42	0	110100480	54	4471
2026-01-21 00:22:28.61	37.17	10.19	-41.4	-43.3	19.2	0.00e+00	0	42	0	116391936	54	4481
2026-01-21 00:22:29.60	37.29	10.26	-41.5	-43.4	19.1	0.00e+00	0	42	0	121634816	54	4525
2026-01-21 00:22:30.60	37.40	10.33	-41.4	-43.3	19.2	0.00e+00	0	42	0	126877696	54	4477
2026-01-21 00:22:31.59	37.52	10.39	-41.5	-43.4	19.1	0.00e+00	0	42	0	133169152	54	4506
2026-01-21 00:22:32.59	37.64	10.46	-41.5	-43.4	19.2	0.00e+00	0	42	0	138412032	54	4508
2026-01-21 00:22:33.58	37.76	10.53	-41.3	-43.2	19.3	0.00e+00	0	42	0	143654912	54	4414
2026-01-21 00:22:34.58	37.87	10.59	-41.5	-43.3	19.2	0.00e+00	0	42	0	149946368	54	4491
2026-01-21 00:22:35.57	37.99	10.66	-41.5	-43.4	19.2	0.00e+00	0	42	0	155189248	54	4503
2026-01-21 00:22:36.56	38.11	10.73	-41.4	-43.3	19.2	0.00e+00	0	42	0	160432128	54	4484
2026-01-21 00:22:37.56	38.23	10.79	-41.4	-43.3	19.2	0.00e+00	0	42	0	166723584	54	4458
2026-01-21 00:22:38.55	38.35	10.86	-41.5	-43.4	19.2	0.00e+00	0	42	0	171966464	54	4506
2026-01-21 00:22:39.55	38.47	10.93	-41.6	-43.5	19.1	0.00e+00	0	42	0	177209344	54	4557
2026-01-21 00:22:40.54	38.60	11.00	-41.6	-43.6	19.0	0.00e+00	0	42	0	183500800	54	4616
2026-01-21 00:22:41.54	38.72	11.06	-41.5	-43.4	19.1	0.00e+00	0	42	0	188743680	54	4530
2026-01-21 00:22:42.53	38.84	11.13	-41.5	-43.4	19.1	0.00e+00	0	42	0	193986560	54	4536
2026-01-21 00:22:43.53	38.96	11.20	-41.4	-43.3	19.2	0.00e+00	0	42	0	200278016	54	4491
2026-01-21 00:22:44.52	39.09	11.27	-41.3	-43.2	19.4	0.00e+00	0	42	0	205520896	54	4402
2026-01-21 00:22:45.52	39.21	11.33	-41.3	-43.1	19.4	0.00e+00	0	42	0	210763776	54	4388
2026-01-21 00:22:46.51	39.34	11.40	-41.2	-43.0	19.5	0.00e+00	0	42	0	217055232	54	4333
2026-01-21 00:22:47.51	39.46	11.47	-41.0	-42.9	19.6	0.00e+00	0	42	0	222298112	54	4251
2026-01-21 00:22:48.50	39.59	11.54	-41.1	-42.9	19.6	0.00e+00	0	42	0	228589568	54	4281
2026-01-21 00:22:49.50	39.72	11.60	-41.0	-42.8	19.7	0.00e+00	0	42	0	233832448	54	4219
2026-01-21 00:22:50.49	39.84	11.67	-40.9	-42.7	19.8	0.00e+00	0	42	0	239075328	53	4436
2026-01-21 00:22:51.49	39.97	11.74	-41.0	-42.8	19.7	0.00e+00	0	42	0	244318208	53	4470
2026-01-21 00:22:52.48	40.10	11.81	-41.0	-42.9	19.7	0.00e+00	0	42	0	250609664	53	4494
2026-01-21 00:22:53.48	40.23	11.88	-41.1	-42.9	19.6	0.00e+00	0	42	0	255852544	53	4527
2026-01-21 00:22:54.47	40.36	11.95	-41.1	-42.9	19.6	0.00e+00	0	42	0	262144000	53	4538
2026-01-21 00:22:55.47	40.49	12.01	-41.1	-43.0	19.6	0.00e+00	0	42	0	267386880	53	4550
2026-01-21 00:22:56.46	40.62	12.08	-41.2	-43.0	19.6	0.00e+00	0	42	0	272629760	53	4570
2026-01-21 00:22:57.46	40.75	12.15	-41.2	-43.0	19.6	0.00e+00	0	42	0	278921216	53	4576
2026-01-21 00:22:58.46	40.88	12.22	-41.1	-42.9	19.6	0.00e+00	0	42	0	284164096	53	4523
2026-01-21 00:22:59.45	41.01	12.29	-41.1	-43.0	19.6	0.00e+00	0	42	0	289406976	53	4557
2026-01-21 00:23:00.44	41.15	12.36	-41.1	-42.9	19.6	0.00e+00	0	42	0	294649856	53	4521
2026-01-21 00:23:01.44	41.28	12.43	-41.0	-42.9	19.7	0.00e+00	0	42	0	300941312	53	4507
2026-01-21 00:23:02.43	41.41	12.49	-40.9	-42.7	19.8	0.00e+00	0	42	0	306184192	53	4424
2026-01-21 00:23:03.43	41.55	12.56	-40.8	-42.7	19.8	0.00e+00	0	42	0	312475648	53	4393
2026-01-21 00:23:04.42	41.68	12.63	-40.8	-42.6	19.9	0.00e+00	0	42	0	317718528	53	4373
2026-01-21 00:23:05.42	41.82	12.70	-40.8	-42.6	19.9	0.00e+00	0	42	0	322961408	53	4374
2026-01-21 00:23:06.42	41.96	12.77	-40.8	-42.6	20.0	0.00e+00	0	42	0	329252864	53	4352
2026-01-21 00:23:07.41	42.09	12.84	-40.8	-42.6	19.9	0.00e+00	0	42	0	334495744	53	4353
2026-01-21 00:23:08.41	42.23	12.91	-40.6	-42.4	20.2	0.00e+00	0	42	0	339738624	53	4247
2026-01-21 00:23:09.40	42.37	12.98	-40.5	-42.3	20.3	0.00e+00	0	42	0	344981504	53	4200
2026-01-21 00:23:10.40	42.51	13.05	-40.5	-42.3	20.2	0.00e+00	0	42	0	351272960	53	4221
2026-01-21 00:23:11.39	42.65	13.11	-40.5	-42.3	20.2	0.00e+00	0	42	0	356515840	52	4466
2026-01-21 00:23:12.39	42.79	13.18	-40.6	-42.3	20.2	0.00e+00	0	42	0	362807296	52	4487
2026-01-21 00:23:13.38	42.93	13.25	-40.5	-42.3	20.2	0.00e+00	0	42	0	368050176	52	4486
2026-01-21 00:23:14.38	43.07	13.32	-40.6	-42.4	20.2	0.00e+00	0	42	0	373293056	52	4500
2026-01-21 00:23:15.37	43.21	13.39	-40.6	-42.4	20.2	0.00e+00	0	42	0	379584512	52	4511
2026-01-21 00:23:16.37	43.36	13.46	-40.7	-42.5	20.1	0.00e+00	0	42	0	384827392	52	4550
2026-01-21 00:23:17.36	43.50	13.53	-40.8	-42.6	20.0	0.00e+00	0	42	0	390070272	52	4607
2026-01-21 00:23:18.36	43.65	13.60	-40.6	-42.4	20.2	0.00e+00	0	42	0	396361728	52	4506
2026-01-21 00:23:19.35	43.79	13.67	-40.6	-42.4	20.2	0.00e+00	0	42	0	401604608	52	4514
2026-01-21 00:23:20.34	43.94	13.74	-40.5	-42.3	20.2	0.00e+00	0	42	0	406847488	52	4487
2026-01-21 00:23:21.34	44.08	13.81	-40.6	-42.4	20.1	0.00e+00	0	42	0	413138944	52	4541
2026-01-21 00:23:22.33	44.23	13.88	-40.6	-42.4	20.1	0.00e+00	0	42	0	418381824	52	4521
2026-01-21 00:23:23.33	44.38	13.95	-40.5	-42.3	20.2	0.00e+00	0	42	0	423624704	52	4476
2026-01-21 00:23:24.33	44.53	14.02	-40.5	-42.4	20.2	0.00e+00	0	42	0	429916160	52	4496
2026-01-21 00:23:25.32	44.67	14.09	-40.5	-42.3	20.3	0.00e+00	0	42	0	435159040	52	4444
2026-01-21 00:23:26.32	44.83	14.16	-40.4	-42.2	20.3	0.00e+00	0	42	0	440401920	52	4420
2026-01-21 00:23:27.32	44.98	14.23	-40.4	-42.2	20.3	0.00e+00	0	42	0	446693376	52	4416
2026-01-21 00:23:28.31	45.13	14.30	-40.5	-42.3	20.3	0.00e+00	0	42	0	451936256	52	4446
2026-01-21 00:23:29.30	45.28	14.37	-40.4	-42.2	20.3	0.00e+00	0	42	0	457179136	52	4433
2026-01-21 00:23:30.30	45.43	14.44	-40.6	-42.4	20.2	0.00e+00	0	42	0	463470592	52	4509
2026-01-21 00:23:31.30	45.58	14.51	-40.6	-42.4	20.1	0.00e+00	0	42	0	468713472	52	4544
2026-01-21 00:23:32.29	45.74	14.58	-40.6	-42.4	20.2	0.00e+00	0	42	0	473956352	52	4500
2026-01-21 00:23:33.29	45.89	14.65	-40.4	-42.2	20.3	0.00e+00	0	42	0	480247808	52	4426
2026-01-21 00:23:34.28	46.05	14.72	-40.3	-42.0	20.5	0.00e+00	0	42	0	485490688	52	4340
2026-01-21 00:23:35.28	46.20	14.79	-40.3	-42.0	20.5	0.00e+00	0	42	0	490733568	52	4335
2026-01-21 00:23:36.27	46.36	14.86	-40.1	-41.9	20.6	0.00e+00	0	42	0	497025024	52	4253
2026-01-21 00:23:37.26	46.52	14.93	-40.1	-41.8	20.7	0.00e+00	0	42	0	502267904	52	4238
2026-01-21 00:23:38.26	46.68	15.00	-40.0	-41.8	20.7	0.00e+00	0	42	0	507510784	52	4214
2026-01-21 00:23:39.25	46.83	15.07	-40.1	-41.8	20.7	0.00e+00	0	42	0	513802240	52	4240
2026-01-21 00:23:40.24	46.99	15.14	-40.1	-41.8	20.7	0.00e+00	0	42	0	519045120	52	4231
2026-01-21 00:23:41.24	47.15	15.21	-40.1	-41.8	20.7	0.00e+00	0	42	0	524288000	52	4227
2026-01-21 00:23:42.23	47.31	15.28	-40.1	-41.9	20.6	0.00e+00	0	42	0	530579456	52	4256
2026-01-21 00:23:43.23	47.48	15.35	-40.1	-41.9	20.7	0.00e+00	0	42	0	535822336	52	4260
2026-01-21 00:23:44.23	47.64	15.42	-40.2	-42.0	20.6	0.00e+00	0	42	0	541065216	52	4296
2026-01-21 00:23:45.22	47.80	15.49	-40.0	-41.8	20.7	0.00e+00	0	42	0	547356672	52	4214
2026-01-21 00:23:46.21	47.97	15.55	-40.1	-41.9	20.7	0.00e+00	0	42	0	552599552	52	4254
2026-01-21 00:23:47.21	48.13	15.62	-40.0	-41.7	20.8	0.00e+00	0	42	0	557842432	52	4184
2026-01-21 00:23:48.20	48.30	15.69	-40.1	-41.8	20.7	0.00e+00	0	42	0	564133888	52	4221
2026-01-21 00:23:49.20	48.46	15.76	-40.1	-41.9	20.7	0.00e+00	0	42	0	569376768	52	4260
2026-01-21 00:23:50.19	48.63	15.83	-40.0	-41.8	20.7	0.00e+00	0	42	0	574619648	52	4212
2026-01-21 00:23:51.19	48.80	15.90	-40.1	-41.8	20.7	0.00e+00	0	42	0	580911104	52	4239
2026-01-21 00:23:52.18	48.97	15.97	-40.0	-41.7	20.8	0.00e+00	0	42	0	586153984	52	4190
2026-01-21 00:23:53.18	49.14	16.04	-40.1	-41.8	20.8	0.00e+00	0	42	0	591396864	51	4473
2026-01-21 00:23:54.17	49.30	16.11	-40.1	-41.9	20.7	0.00e+00	0	42	0	597688320	51	4501
2026-01-21 00:23:55.16	49.47	16.18	-40.1	-41.9	20.7	0.00e+00	0	42	0	602931200	51	4506
2026-01-21 00:23:56.16	49.65	16.25	-39.9	-41.6	21.0	0.00e+00	0	42	0	608174080	51	4386
2026-01-21 00:23:57.15	49.82	16.32	-40.0	-41.7	20.9	0.00e+00	0	42	0	614465536	51	4440
2026-01-21 00:23:58.15	49.99	16.39	-39.9	-41.6	20.9	0.00e+00	0	42	0	619708416	51	4388
2026-01-21 00:23:59.14	50.17	16.46	-39.9	-41.6	20.9	0.00e+00	0	42	0	624951296	51	4378
2026-01-21 00:24:00.14	50.34	16.53	-40.0	-41.7	20.9	0.00e+00	0	42	0	631242752	51	4431
2026-01-21 00:24:01.13	50.52	16.60	-40.1	-41.8	20.8	0.00e+00	0	42	0	636485632	51	4487
2026-01-21 00:24:02.12	50.69	16.67	-40.1	-41.8	20.8	0.00e+00	0	42	0	641728512	51	4481
2026-01-21 00:24:03.12	50.87	16.74	-40.0	-41.7	20.9	0.00e+00	0	42	0	648019968	51	4427
2026-01-21 00:24:04.11	51.05	16.81	-39.9	-41.7	20.9	0.00e+00	0	42	0	653262848	51	4393
2026-01-21 00:24:05.11	51.23	16.88	-39.8	-41.6	21.0	0.00e+00	0	42	0	659554304	51	4343
2026-01-21 00:24:06.10	51.40	16.94	-39.7	-41.4	21.1	0.00e+00	0	42	0	664797184	51	4273
2026-01-21 00:24:07.10	51.59	17.01	-39.7	-41.4	21.2	0.00e+00	0	42	0	670040064	51	4260
2026-01-21 00:24:08.09	51.77	17.08	-39.7	-41.4	21.1	0.00e+00	0	42	0	675282944	51	4284
2026-01-21 00:24:09.09	51.95	17.15	-39.7	-41.4	21.1	0.00e+00	0	42	0	681574400	51	4287
2026-01-21 00:24:10.08	52.13	17.22	-39.6	-41.3	21.3	0.00e+00	0	42	0	686817280	51	4222
2026-01-21 00:24:11.08	52.32	17.29	-39.6	-41.3	21.3	0.00e+00	0	42	0	692060160	51	4221
2026-01-21 00:24:12.07	52.50	17.36	-39.7	-41.4	21.1	0.00e+00	0	42	0	698351616	51	4285
2026-01-21 00:24:13.07	52.68	17.43	-39.6	-41.3	21.2	0.00e+00	0	42	0	703594496	51	4230
2026-01-21 00:24:14.06	52.87	17.49	-39.7	-41.4	21.2	0.00e+00	0	42	0	709885952	51	4261
2026-01-21 00:24:15.06	53.06	17.56	-39.7	-41.4	21.2	0.00e+00	0	42	0	715128832	51	4275
2026-01-21 00:24:16.05	53.24	17.63	-39.7	-41.4	21.2	0.00e+00	0	42	0	720371712	51	4270
2026-01-21 00:24:17.05	53.43	17.70	-39.7	-41.4	21.2	0.00e+00	0	42	0	725614592	51	4278
2026-01-21 00:24:18.04	53.62	17.77	-39.8	-41.6	21.0	0.00e+00	0	42	0	731906048	51	4362
2026-01-21 00:24:19.04	53.81	17.83	-39.8	-41.5	21.1	0.00e+00	0	42	0	737148928	51	4315
2026-01-21 00:24:20.03	54.00	17.90	-39.7	-41.4	21.2	0.00e+00	0	42	0	742391808	51	4266
2026-01-21 00:24:21.03	54.20	17.97	-39.7	-41.5	21.1	0.00e+00	0	42	0	748683264	51	4292
2026-01-21 00:24:22.02	54.39	18.04	-39.7	-41.4	21.1	0.00e+00	0	42	0	753926144	51	4278
2026-01-21 00:24:23.02	54.58	18.10	-39.7	-41.5	21.2	0.00e+00	0	42	0	760217600	51	4292
2026-01-21 00:24:24.01	54.78	18.17	-39.7	-41.4	21.2	0.00e+00	0	42	0	765460480	51	4280
2026-01-21 00:24:25.00	54.97	18.24	-39.7	-41.5	21.2	0.00e+00	0	42	0	770703360	51	4298
2026-01-21 00:24:26.00	55.17	18.31	-39.6	-41.3	21.2	0.00e+00	0	42	0	775946240	51	4242
2026-01-21 00:24:26.99	55.36	18.37	-39.6	-41.3	21.3	0.00e+00	0	42	0	782237696	51	4221
2026-01-21 00:24:27.99	55.56	18.44	-39.6	-41.3	21.2	0.00e+00	0	42	0	787480576	51	4234
2026-01-21 00:24:28.98	55.76	18.51	-39.5	-41.2	21.3	0.00e+00	0	42	0	792723456	51	4180
2026-01-21 00:24:29.98	55.96	18.57	-39.5	-41.2	21.3	0.00e+00	0	42	0	799014912	51	4170
2026-01-21 00:24:30.98	56.16	18.64	-39.5	-41.2	21.3	0.00e+00	0	42	0	804257792	51	4192
2026-01-21 00:24:31.97	56.36	18.70	-39.5	-41.2	21.3	0.00e+00	0	42	0	810549248	51	4191
2026-01-21 00:24:32.97	56.56	18.77	-39.5	-41.2	21.4	0.00e+00	0	42	0	815792128	51	4171
2026-01-21 00:24:33.96	56.77	18.84	-39.5	-41.2	21.4	0.00e+00	0	42	0	821035008	50	4397
2026-01-21 00:24:34.96	56.97	18.90	-39.5	-41.2	21.3	0.00e+00	0	42	0	827326464	50	4425
2026-01-21 00:24:35.95	57.17	18.97	-39.4	-41.2	21.4	0.00e+00	0	42	0	832569344	50	4392
2026-01-21 00:24:36.95	57.38	19.03	-39.5	-41.2	21.4	0.00e+00	0	42	0	837812224	50	4425
2026-01-21 00:24:37.94	57.59	19.10	-39.5	-41.2	21.4	0.00e+00	0	42	0	843055104	50	4412
2026-01-21 00:24:38.94	57.80	19.16	-39.3	-41.0	21.6	0.00e+00	0	42	0	849346560	50	4318
2026-01-21 00:24:39.94	58.00	19.23	-39.2	-40.9	21.7	0.00e+00	0	42	0	854589440	50	4246
2026-01-21 00:24:40.93	58.21	19.29	-39.1	-40.8	21.7	0.00e+00	0	42	0	860880896	50	4223
2026-01-21 00:24:41.93	58.42	19.36	-39.2	-40.8	21.7	0.00e+00	0	42	0	866123776	50	4242
2026-01-21 00:24:42.92	58.63	19.42	-39.2	-40.8	21.7	0.00e+00	0	42	0	871366656	50	4240
2026-01-21 00:24:43.91	58.84	19.48	-39.3	-41.0	21.5	0.00e+00	0	42	0	877658112	50	4330
2026-01-21 00:24:44.91	59.06	19.55	-39.4	-41.1	21.4	0.00e+00	0	42	0	882900992	50	4361
2026-01-21 00:24:45.90	59.27	19.61	-39.5	-41.2	21.4	0.00e+00	0	42	0	888143872	50	4400
2026-01-21 00:24:46.89	59.48	19.67	-39.6	-41.3	21.3	0.00e+00	0	42	0	893386752	50	4461
2026-01-21 00:24:47.89	59.70	19.74	-39.4	-41.1	21.5	0.00e+00	0	42	0	899678208	50	4372
2026-01-21 00:24:48.88	59.91	19.80	-39.4	-41.1	21.5	0.00e+00	0	42	0	904921088	50	4380
2026-01-21 00:24:49.88	60.13	19.86	-39.3	-41.0	21.6	0.00e+00	0	42	0	911212544	50	4301
2026-01-21 00:24:50.87	60.35	19.92	-39.4	-41.1	21.5	0.00e+00	0	42	0	916455424	50	4353
2026-01-21 00:24:51.87	60.57	19.99	-39.1	-40.9	21.3	0.00e+00	0	42	0	921698304	50	4267
2026-01-21 00:24:52.86	60.78	20.05	-39.1	-40.8	21.3	0.00e+00	0	42	0	927989760	50	4242
2026-01-21 00:24:53.86	61.01	20.11	-39.0	-40.8	21.3	0.00e+00	0	42	0	933232640	50	4226
2026-01-21 00:24:54.85	61.23	20.17	-39.1	-40.9	21.3	0.00e+00	0	42	0	938475520	50	4253
2026-01-21 00:24:55.85	61.45	20.23	-39.1	-40.9	21.3	0.00e+00	0	42	0	943718400	50	4254
2026-01-21 00:24:56.84	61.67	20.29	-39.1	-40.9	21.3	0.00e+00	0	42	0	950009856	50	4269
2026-01-21 00:24:57.84	61.90	20.35	-39.0	-40.8	21.3	0.00e+00	0	42	0	955252736	50	4232
2026-01-21 00:24:58.83	62.12	20.41	-39.0	-40.8	21.3	0.00e+00	0	42	0	961544192	50	4200
2026-01-21 00:24:59.82	62.34	20.47	-39.0	-40.8	21.3	0.00e+00	0	42	0	966787072	49	4446
2026-01-21 00:25:00.82	62.57	20.53	-38.8	-40.6	21.4	0.00e+00	0	42	0	972029952	49	4381
2026-01-21 00:25:01.81	62.80	20.59	-38.8	-40.6	21.5	0.00e+00	0	42	0	978321408	49	4361
2026-01-21 00:25:02.81	63.03	20.65	-38.8	-40.5	21.5	0.00e+00	0	42	0	983564288	49	4338
2026-01-21 00:25:03.80	63.25	20.71	-38.6	-40.4	21.6	0.00e+00	0	42	0	988807168	49	4254
2026-01-21 00:25:04.80	63.48	20.77	-38.5	-40.3	21.7	0.00e+00	0	42	0	994050048	49	4214
2026-01-21 00:25:05.79	63.71	20.82	-38.6	-40.3	21.7	0.00e+00	0	42	0	1000341504	49	4242
2026-01-21 00:25:06.79	63.95	20.88	-38.6	-40.4	21.6	0.00e+00	0	42	0	1005584384	49	4259
2026-01-21 00:25:07.78	64.18	20.94	-38.7	-40.4	21.6	0.00e+00	0	42	0	1011875840	49	4291
2026-01-21 00:25:08.78	64.41	21.00	-38.8	-40.6	21.5	0.00e+00	0	42	0	1017118720	49	4361
2026-01-21 00:25:09.78	64.65	21.05	-38.8	-40.6	21.5	0.00e+00	0	42	0	1022361600	49	4350
2026-01-21 00:25:10.77	64.88	21.11	-38.7	-40.5	21.6	0.00e+00	0	42	0	1028653056	49	4322
2026-01-21 00:25:11.77	65.12	21.17	-38.8	-40.6	21.5	0.00e+00	0	42	0	1033895936	49	4344
2026-01-21 00:25:12.76	65.35	21.22	-38.6	-40.3	21.7	0.00e+00	0	42	0	1039138816	49	4221
2026-01-21 00:25:13.76	65.59	21.28	-38.5	-40.3	21.7	0.00e+00	0	42	0	1045430272	49	4202
2026-01-21 00:25:14.75	65.83	21.33	-38.5	-40.3	21.7	0.00e+00	0	42	0	1050673152	49	4207
2026-01-21 00:25:15.75	66.07	21.39	-38.6	-40.3	21.7	0.00e+00	0	42	0	1055916032	49	4226
2026-01-21 00:25:16.74	66.31	21.44	-38.5	-40.2	21.8	0.00e+00	0	42	0	1062207488	49	4189
2026-01-21 00:25:17.73	66.55	21.49	-38.4	-40.2	21.8	0.00e+00	0	42	0	1067450368	48	4402
2026-01-21 00:25:18.73	66.79	21.55	-38.5	-40.3	21.7	0.00e+00	0	42	0	1072693248	48	4461
2026-01-21 00:25:19.72	67.03	21.60	-38.7	-40.5	21.6	0.00e+00	0	42	0	1078984704	48	4556
2026-01-21 00:25:20.72	67.27	21.65	-38.8	-40.6	21.5	0.00e+00	0	42	0	1084227584	48	4606
2026-01-21 00:25:21.71	67.52	21.70	-38.7	-40.5	21.5	0.00e+00	0	42	0	1089470464	48	4580
2026-01-21 00:25:22.71	67.76	21.75	-38.7	-40.5	21.5	0.00e+00	0	42	0	1095761920	48	4575
2026-01-21 00:25:23.70	68.01	21.81	-38.6	-40.4	21.6	0.00e+00	0	42	0	1101004800	48	4503
2026-01-21 00:25:24.70	68.26	21.86	-38.7	-40.5	21.6	0.00e+00	0	42	0	1106247680	48	4554
2026-01-21 00:25:25.69	68.50	21.91	-38.5	-40.2	21.8	0.00e+00	0	42	0	1112539136	48	4434
2026-01-21 00:25:26.68	68.75	21.96	-38.5	-40.3	21.8	0.00e+00	0	42	0	1117782016	48	4443
2026-01-21 00:25:27.68	69.00	22.01	-38.6	-40.3	21.7	0.00e+00	0	42	0	1123024896	48	4478
2026-01-21 00:25:28.67	69.25	22.06	-38.6	-40.3	21.7	0.00e+00	0	42	0	1129316352	48	4488
2026-01-21 00:25:29.67	69.50	22.10	-38.7	-40.5	21.6	0.00e+00	0	42	0	1134559232	48	4563
2026-01-21 00:25:30.66	69.75	22.15	-38.8	-40.5	21.5	0.00e+00	0	42	0	1139802112	48	4590
2026-01-21 00:25:31.66	70.00	22.20	-38.7	-40.5	21.6	0.00e+00	0	42	0	1146093568	48	4554
2026-01-21 00:25:32.65	70.25	22.25	-38.6	-40.4	21.7	0.00e+00	0	42	0	1151336448	48	4496
2026-01-21 00:25:33.64	70.50	22.29	-38.6	-40.3	21.7	0.00e+00	0	42	0	1156579328	48	4491
2026-01-21 00:25:34.64	70.76	22.34	-38.5	-40.3	21.7	0.00e+00	0	42	0	1162870784	48	4470
2026-01-21 00:25:35.63	71.01	22.39	-38.6	-40.3	21.7	0.00e+00	0	42	0	1168113664	48	4484
2026-01-21 00:25:36.63	71.27	22.43	-38.5	-40.2	21.8	0.00e+00	0	42	0	1173356544	48	4414
2026-01-21 00:25:37.62	71.52	22.48	-38.4	-40.2	21.8	0.00e+00	0	42	0	1179648000	48	4417
2026-01-21 00:25:38.62	71.78	22.52	-38.4	-40.2	21.8	0.00e+00	0	42	0	1184890880	48	4420
2026-01-21 00:25:39.62	72.04	22.56	-38.3	-40.1	21.9	0.00e+00	0	42	0	1190133760	48	4343
2026-01-21 00:25:40.61	72.30	22.61	-38.2	-40.0	22.0	0.00e+00	0	42	0	1196425216	48	4303
2026-01-21 00:25:41.60	72.56	22.65	-38.3	-40.0	22.0	0.00e+00	0	42	0	1201668096	48	4321
2026-01-21 00:25:42.60	72.82	22.69	-38.3	-40.0	21.9	0.00e+00	0	42	0	1206910976	48	4331
2026-01-21 00:25:43.60	73.08	22.73	-38.3	-40.1	21.9	0.00e+00	0	42	0	1213202432	48	4351
2026-01-21 00:25:44.59	73.34	22.77	-38.4	-40.1	21.9	0.00e+00	0	42	0	1218445312	48	4382
2026-01-21 00:25:45.59	73.60	22.82	-38.3	-40.1	21.9	0.00e+00	0	42	0	1223688192	48	4347
2026-01-21 00:25:46.58	73.86	22.86	-38.3	-40.0	22.0	0.00e+00	0	42	0	1229979648	48	4315
2026-01-21 00:25:47.58	74.13	22.89	-38.3	-40.1	21.9	0.00e+00	0	42	0	1235222528	48	4341
2026-01-21 00:25:48.58	74.39	22.93	-38.4	-40.1	21.9	0.00e+00	0	42	0	1240465408	48	4373
2026-01-21 00:25:49.57	74.66	22.97	-38.5	-40.3	21.8	0.00e+00	0	42	0	1246756864	48	4444
2026-01-21 00:25:50.56	74.92	23.01	-38.5	-40.2	21.8	0.00e+00	0	42	0	1251999744	48	4435
2026-01-21 00:25:51.56	75.19	23.05	-38.5	-40.2	21.8	0.00e+00	0	42	0	1258291200	48	4438
2026-01-21 00:25:52.56	75.46	23.08	-38.4	-40.2	21.8	0.00e+00	0	42	0	1263534080	48	4415
2026-01-21 00:25:53.55	75.72	23.12	-38.5	-40.3	21.7	0.00e+00	0	42	0	1268776960	48	4472
2026-01-21 00:25:54.55	75.99	23.16	-38.4	-40.1	21.9	0.00e+00	0	42	0	1274019840	48	4387
2026-01-21 00:25:55.54	76.26	23.19	-38.2	-40.0	22.0	0.00e+00	0	42	0	1280311296	48	4306
2026-01-21 00:25:56.54	76.53	23.22	-38.1	-39.9	22.1	0.00e+00	0	42	0	1285554176	48	4244
2026-01-21 00:25:57.53	76.79	23.26	-38.1	-39.9	22.1	0.00e+00	0	42	0	1290797056	48	4252
2026-01-21 00:25:58.52	77.06	23.29	-38.1	-39.8	22.1	0.00e+00	0	42	0	1297088512	48	4240
2026-01-21 00:25:59.52	77.34	23.32	-38.1	-39.8	22.1	0.00e+00	0	42	0	1302331392	48	4231
2026-01-21 00:26:00.51	77.61	23.36	-38.1	-39.9	22.1	0.00e+00	0	42	0	1308622848	48	4255
2026-01-21 00:26:01.51	77.88	23.39	-38.2	-39.9	22.1	0.00e+00	0	42	0	1313865728	48	4271
2026-01-21 00:26:02.50	78.15	23.42	-38.0	-39.8	22.2	0.00e+00	0	42	0	1319108608	48	4201
2026-01-21 00:26:03.50	78.42	23.45	-38.0	-39.7	22.2	0.00e+00	0	42	0	1324351488	48	4176
2026-01-21 00:26:04.49	78.70	23.48	-38.0	-39.7	22.2	0.00e+00	0	42	0	1330642944	48	4185
2026-01-21 00:26:05.49	78.97	23.51	-38.0	-39.7	22.2	0.00e+00	0	42	0	1335885824	48	4190
2026-01-21 00:26:06.48	79.24	23.53	-38.1	-39.8	22.1	0.00e+00	0	42	0	1341128704	48	4231
2026-01-21 00:26:07.48	79.52	23.56	-38.2	-40.0	22.0	0.00e+00	0	42	0	1347420160	48	4293
2026-01-21 00:26:08.47	79.79	23.59	-38.1	-39.9	22.1	0.00e+00	0	42	0	1352663040	48	4256
2026-01-21 00:26:09.46	80.07	23.61	-38.1	-39.8	22.1	0.00e+00	0	42	0	1358954496	48	4218
2026-01-21 00:26:10.46	80.34	23.64	-38.1	-39.8	22.2	0.00e+00	0	42	0	1364197376	48	4205
2026-01-21 00:26:11.45	80.62	23.66	-38.2	-39.9	22.1	0.00e+00	0	42	0	1369440256	48	4259
2026-01-21 00:26:12.44	80.90	23.69	-38.3	-40.1	22.0	0.00e+00	0	42	0	1374683136	48	4344
2026-01-21 00:26:13.44	81.17	23.71	-38.2	-40.0	22.0	0.00e+00	0	42	0	1380974592	48	4312
2026-01-21 00:26:14.43	81.45	23.74	-38.3	-40.1	21.9	0.00e+00	0	42	0	1386217472	48	4386
2026-01-21 00:26:15.43	81.73	23.76	-38.5	-40.3	21.7	0.00e+00	0	42	0	1391460352	48	4447
2026-01-21 00:26:16.42	82.01	23.78	-38.3	-40.1	21.9	0.00e+00	0	42	0	1397751808	48	4365
2026-01-21 00:26:17.42	82.29	23.80	-38.2	-40.0	22.0	0.00e+00	0	42	0	1402994688	48	4306
2026-01-21 00:26:18.41	82.57	23.82	-38.1	-39.9	22.1	0.00e+00	0	42	0	1409286144	48	4252
2026-01-21 00:26:19.41	82.85	23.84	-38.2	-40.0	22.0	0.00e+00	0	42	0	1414529024	48	4309
2026-01-21 00:26:20.40	83.13	23.86	-38.2	-39.9	22.1	0.00e+00	0	42	0	1419771904	48	4290
2026-01-21 00:26:21.40	83.41	23.88	-38.1	-39.9	22.1	0.00e+00	0	42	0	1425014784	48	4254
2026-01-21 00:26:22.39	83.69	23.89	-38.2	-40.0	22.0	0.00e+00	0	42	0	1431306240	48	4304
2026-01-21 00:26:23.39	83.97	23.91	-38.3	-40.1	21.9	0.00e+00	0	42	0	1436549120	48	4343
2026-01-21 00:26:24.38	84.25	23.93	-38.3	-40.0	22.0	0.00e+00	0	42	0	1442840576	48	4331
2026-01-21 00:26:25.38	84.53	23.94	-38.1	-39.9	22.1	0.00e+00	0	42	0	1448083456	48	4270
2026-01-21 00:26:26.37	84.81	23.96	-38.2	-39.9	22.0	0.00e+00	0	42	0	1453326336	48	4280
2026-01-21 00:26:27.37	85.10	23.97	-38.0	-39.7	22.2	0.00e+00	0	42	0	1459617792	48	4186
2026-01-21 00:26:28.36	85.38	23.98	-37.8	-39.6	22.0	0.00e+00	0	42	0	1464860672	47	4345
2026-01-21 00:26:29.36	85.66	24.00	-37.8	-39.6	22.0	0.00e+00	0	42	0	1470103552	47	4361
2026-01-21 00:26:30.35	85.94	24.01	-38.0	-39.7	21.9	0.00e+00	0	42	0	1475346432	47	4437
2026-01-21 00:26:31.35	86.23	24.02	-38.0	-39.7	21.9	0.00e+00	0	42	0	1481637888	47	4437
2026-01-21 00:26:32.34	86.51	24.03	-38.0	-39.8	21.9	0.00e+00	0	42	0	1486880768	47	4445
2026-01-21 00:26:33.34	86.79	24.04	-38.0	-39.8	21.9	0.00e+00	0	42	0	1493172224	47	4444
2026-01-21 00:26:34.33	87.08	24.05	-37.9	-39.7	21.9	0.00e+00	0	42	0	1498415104	47	4414
2026-01-21 00:26:35.32	87.36	24.06	-38.0	-39.7	21.9	0.00e+00	0	42	0	1503657984	47	4436
2026-01-21 00:26:36.32	87.64	24.06	-38.0	-39.8	21.9	0.00e+00	0	42	0	1509949440	47	4453
2026-01-21 00:26:37.31	87.93	24.07	-38.1	-39.9	21.8	0.00e+00	0	42	0	1515192320	47	4501
2026-01-21 00:26:38.31	88.21	24.08	-38.1	-39.8	21.8	0.00e+00	0	42	0	1520435200	47	4484
2026-01-21 00:26:39.30	88.49	24.08	-37.9	-39.7	21.9	0.00e+00	0	42	0	1525678080	47	4417
2026-01-21 00:26:40.30	88.78	24.09	-38.0	-39.8	21.9	0.00e+00	0	42	0	1531969536	47	4443
2026-01-21 00:26:41.29	89.06	24.09	-38.0	-39.8	21.9	0.00e+00	0	42	0	1537212416	47	4467
2026-01-21 00:26:42.29	89.35	24.09	-38.1	-39.8	21.8	0.00e+00	0	42	0	1543503872	47	4488
2026-01-21 00:26:43.28	89.63	24.10	-38.1	-39.8	21.8	0.00e+00	0	42	0	1548746752	47	4488
2026-01-21 00:26:44.28	89.92	24.10	-37.9	-39.7	21.9	0.00e+00	0	42	0	1553989632	47	4420
2026-01-21 00:26:45.27	90.20	24.10	-38.0	-39.7	21.9	0.00e+00	0	42	0	1560281088	47	4434
2026-01-21 00:26:46.27	90.49	24.10	-38.0	-39.7	21.9	0.00e+00	0	42	0	1565523968	47	4436
2026-01-21 00:26:47.26	90.77	24.10	-37.9	-39.6	22.0	0.00e+00	0	42	0	1570766848	47	4374
2026-01-21 00:26:48.26	91.06	24.10	-37.8	-39.6	22.1	0.00e+00	0	42	0	1577058304	47	4342
2026-01-21 00:26:49.25	91.34	24.10	-37.9	-39.7	22.0	0.00e+00	0	42	0	1582301184	47	4399
2026-01-21 00:26:50.24	91.62	24.09	-37.9	-39.7	22.0	0.00e+00	0	42	0	1587544064	47	4410
2026-01-21 00:26:51.24	91.91	24.09	-38.0	-39.7	21.9	0.00e+00	0	42	0	1593835520	47	4436
2026-01-21 00:26:52.23	92.19	24.09	-38.0	-39.7	21.9	0.00e+00	0	42	0	1599078400	47	4439
2026-01-21 00:26:53.23	92.48	24.08	-38.0	-39.7	21.9	0.00e+00	0	42	0	1604321280	47	4424
2026-01-21 00:26:54.22	92.76	24.08	-38.0	-39.7	21.9	0.00e+00	0	42	0	1610612736	47	4428
2026-01-21 00:26:55.22	93.05	24.07	-38.0	-39.8	21.9	0.00e+00	0	42	0	1615855616	47	4447
2026-01-21 00:26:56.21	93.33	24.06	-38.1	-39.9	21.8	0.00e+00	0	42	0	1621098496	47	4494
2026-01-21 00:26:57.20	93.61	24.06	-38.1	-39.9	21.8	0.00e+00	0	42	0	1627389952	47	4518
2026-01-21 00:26:58.20	93.90	24.05	-38.2	-39.9	21.7	0.00e+00	0	42	0	1632632832	47	4537
2026-01-21 00:26:59.20	94.18	24.04	-38.0	-39.7	21.9	0.00e+00	0	42	0	1637875712	47	4441
2026-01-21 00:27:00.19	94.47	24.03	-37.9	-39.7	21.9	0.00e+00	0	42	0	1644167168	47	4392
2026-01-21 00:27:01.19	94.75	24.02	-38.0	-39.7	21.9	0.00e+00	0	42	0	1649410048	47	4411
2026-01-21 00:27:02.18	95.03	24.01	-38.0	-39.7	21.9	0.00e+00	0	42	0	1654652928	47	4441
2026-01-21 00:27:03.18	95.32	23.99	-38.1	-39.8	21.9	0.00e+00	0	42	0	1660944384	47	4469
2026-01-21 00:27:04.17	95.60	23.98	-38.1	-39.8	21.8	0.00e+00	0	42	0	1666187264	47	4492
2026-01-21 00:27:05.16	95.88	23.97	-38.0	-39.8	21.9	0.00e+00	0	42	0	1671430144	47	4449
2026-01-21 00:27:06.16	96.16	23.95	-37.9	-39.6	22.0	0.00e+00	0	42	0	1677721600	47	4384
2026-01-21 00:27:07.15	96.44	23.94	-37.9	-39.6	22.0	0.00e+00	0	42	0	1682964480	47	4388
2026-01-21 00:27:08.15	96.73	23.92	-37.9	-39.6	22.0	0.00e+00	0	42	0	1688207360	47	4382
2026-01-21 00:27:09.14	97.01	23.91	-37.9	-39.7	21.9	0.00e+00	0	42	0	1694498816	47	4417
2026-01-21 00:27:10.14	97.29	23.89	-38.0	-39.8	21.9	0.00e+00	0	42	0	1699741696	47	4459
2026-01-21 00:27:11.13	97.57	23.87	-38.1	-39.9	21.8	0.00e+00	0	42	0	1704984576	47	4511
2026-01-21 00:27:12.13	97.85	23.85	-38.1	-39.9	21.8	0.00e+00	0	42	0	1711276032	47	4526
2026-01-21 00:27:13.12	98.13	23.84	-38.2	-40.0	21.7	0.00e+00	0	42	0	1716518912	47	4548
2026-01-21 00:27:14.11	98.41	23.82	-38.2	-39.9	21.7	0.00e+00	0	42	0	1721761792	47	4528
2026-01-21 00:27:15.11	98.69	23.80	-38.0	-39.7	21.9	0.00e+00	0	42	0	1728053248	47	4419
2026-01-21 00:27:16.10	98.97	23.77	-38.0	-39.7	21.9	0.00e+00	0	42	0	1733296128	47	4428
2026-01-21 00:27:17.10	99.25	23.75	-38.1	-39.9	21.8	0.00e+00	0	42	0	1738539008	47	4500
2026-01-21 00:27:18.09	99.53	23.73	-38.0	-39.8	21.8	0.00e+00	0	42	0	1744830464	47	4464
2026-01-21 00:27:19.09	99.81	23.71	-38.1	-39.8	21.8	0.00e+00	0	42	0	1750073344	47	4472
2026-01-21 00:27:20.08	100.08	23.68	-38.1	-39.9	21.8	0.00e+00	0	42	0	1755316224	47	4498
2026-01-21 00:27:21.08	100.36	23.66	-38.1	-39.9	21.8	0.00e+00	0	42	0	1761607680	47	4507
2026-01-21 00:27:22.07	100.64	23.63	-38.2	-40.0	21.7	0.00e+00	0	42	0	1766850560	47	4567
2026-01-21 00:27:23.07	100.91	23.61	-38.3	-40.1	21.7	0.00e+00	0	42	0	1772093440	47	4605
2026-01-21 00:27:24.06	101.19	23.58	-38.4	-40.2	21.6	0.00e+00	0	42	0	1778384896	47	4665
2026-01-21 00:27:25.06	101.47	23.55	-38.4	-40.1	21.6	0.00e+00	0	42	0	1783627776	47	4647
2026-01-21 00:27:26.05	101.74	23.53	-38.4	-40.1	21.6	0.00e+00	0	42	0	1788870656	47	4648
2026-01-21 00:27:27.05	102.02	23.50	-38.4	-40.2	21.5	0.00e+00	0	42	0	1795162112	47	4678
2026-01-21 00:27:28.04	102.29	23.47	-38.3	-40.1	21.6	0.00e+00	0	42	0	1800404992	47	4630
2026-01-21 00:27:29.04	102.56	23.44	-38.3	-40.1	21.7	0.00e+00	0	42	0	1805647872	47	4610
2026-01-21 00:27:30.03	102.84	23.41	-38.2	-39.9	21.8	0.00e+00	0	42	0	1811939328	47	4523
2026-01-21 00:27:31.03	103.11	23.38	-38.1	-39.9	21.8	0.00e+00	0	42	0	1817182208	47	4503
2026-01-21 00:27:32.02	103.38	23.35	-38.2	-40.0	21.7	0.00e+00	0	42	0	1822425088	47	4561
2026-01-21 00:27:33.02	103.65	23.31	-38.2	-40.0	21.7	0.00e+00	0	42	0	1828716544	47	4565
2026-01-21 00:27:34.01	103.92	23.28	-38.2	-40.0	21.7	0.00e+00	0	42	0	1833959424	47	4556
2026-01-21 00:27:35.01	104.19	23.25	-38.3	-40.0	21.7	0.00e+00	0	42	0	1839202304	47	4589
2026-01-21 00:27:36.00	104.46	23.21	-38.2	-39.9	21.7	0.00e+00	0	42	0	1845493760	47	4545
2026-01-21 00:27:37.00	104.73	23.18	-38.2	-40.0	21.7	0.00e+00	0	42	0	1850736640	47	4546
2026-01-21 00:27:37.99	105.00	23.15	-38.3	-40.1	21.6	0.00e+00	0	42	0	1855979520	47	4603
2026-01-21 00:27:38.99	105.27	23.11	-38.3	-40.1	21.6	0.00e+00	0	42	0	1862270976	47	4642
2026-01-21 00:27:39.98	105.54	23.07	-38.3	-40.1	21.6	0.00e+00	0	42	0	1867513856	47	4607
2026-01-21 00:27:40.98	105.81	23.04	-38.4	-40.2	21.5	0.00e+00	0	42	0	1872756736	47	4684
2026-01-21 00:27:41.97	106.07	23.00	-38.4	-40.2	21.5	0.00e+00	0	42	0	1879048192	47	4682
2026-01-21 00:27:42.97	106.34	22.96	-38.4	-40.1	21.6	0.00e+00	0	42	0	1884291072	47	4645
2026-01-21 00:27:43.96	106.60	22.92	-38.3	-40.1	21.6	0.00e+00	0	42	0	1890582528	47	4646
2026-01-21 00:27:44.95	106.86	22.88	-38.4	-40.1	21.6	0.00e+00	0	42	0	1895825408	47	4643
2026-01-21 00:27:45.95	107.13	22.84	-38.4	-40.2	21.6	0.00e+00	0	42	0	1901068288	47	4662
2026-01-21 00:27:46.94	107.39	22.80	-38.3	-40.1	21.6	0.00e+00	0	42	0	1906311168	47	4608
2026-01-21 00:27:47.94	107.66	22.76	-38.3	-40.0	21.6	0.00e+00	0	42	0	1912602624	47	4593
2026-01-21 00:27:48.93	107.92	22.72	-38.4	-40.2	21.5	0.00e+00	0	42	0	1917845504	47	4656
2026-01-21 00:27:49.92	108.18	22.68	-38.5	-40.3	21.4	0.00e+00	0	42	0	1923088384	47	4711
2026-01-21 00:27:50.92	108.44	22.64	-38.5	-40.3	21.4	0.00e+00	0	42	0	1929379840	47	4737
2026-01-21 00:27:51.92	108.70	22.59	-38.6	-40.4	21.3	0.00e+00	0	42	0	1934622720	47	4777
2026-01-21 00:27:52.91	108.96	22.55	-38.6	-40.4	21.3	0.00e+00	0	42	0	1940914176	47	4800
2026-01-21 00:27:53.91	109.22	22.50	-38.6	-40.4	21.3	0.00e+00	0	42	0	1946157056	47	4769
2026-01-21 00:27:54.90	109.47	22.46	-38.5	-40.3	21.4	0.00e+00	0	42	0	1951399936	47	4756
2026-01-21 00:27:55.90	109.73	22.42	-38.5	-40.3	21.4	0.00e+00	0	42	0	1956642816	47	4723
2026-01-21 00:27:56.89	109.99	22.37	-38.4	-40.2	21.5	0.00e+00	0	42	0	1962934272	47	4693
2026-01-21 00:27:57.88	110.24	22.32	-38.5	-40.3	21.4	0.00e+00	0	42	0	1968177152	47	4728
2026-01-21 00:27:58.88	110.50	22.28	-38.6	-40.4	21.3	0.00e+00	0	42	0	1973420032	47	4761
2026-01-21 00:27:59.87	110.75	22.23	-38.6	-40.4	21.3	0.00e+00	0	42	0	1979711488	47	4814
2026-01-21 00:28:00.87	111.00	22.18	-38.5	-40.4	21.4	0.00e+00	0	42	0	1984954368	47	4763
2026-01-21 00:28:01.86	111.25	22.13	-38.7	-40.5	21.3	0.00e+00	0	42	0	1991245824	47	4825
2026-01-21 00:28:02.86	111.51	22.09	-38.6	-40.4	21.3	0.00e+00	0	42	0	1996488704	47	4805
2026-01-21 00:28:03.85	111.76	22.04	-38.6	-40.4	21.3	0.00e+00	0	42	0	2001731584	47	4806
2026-01-21 00:28:04.85	112.01	21.99	-38.6	-40.4	21.3	0.00e+00	0	42	0	2006974464	47	4813
2026-01-21 00:28:05.84	112.26	21.94	-38.8	-40.6	21.5	0.00e+00	0	42	0	2013265920	48	4617
2026-01-21 00:28:06.84	112.51	21.89	-38.8	-40.6	21.5	0.00e+00	0	42	0	2018508800	48	4602
2026-01-21 00:28:07.83	112.75	21.84	-38.9	-40.7	21.4	0.00e+00	0	42	0	2023751680	48	4688
2026-01-21 00:28:08.82	113.00	21.79	-38.9	-40.7	21.4	0.00e+00	0	42	0	2030043136	48	4685
2026-01-21 00:28:09.82	113.25	21.73	-38.8	-40.6	21.4	0.00e+00	0	42	0	2035286016	48	4644
2026-01-21 00:28:10.81	113.49	21.68	-38.7	-40.5	21.5	0.00e+00	0	42	0	2041577472	48	4565
2026-01-21 00:28:11.81	113.74	21.63	-38.8	-40.6	21.5	0.00e+00	0	42	0	2046820352	48	4616
2026-01-21 00:28:12.80	113.98	21.58	-38.9	-40.7	21.4	0.00e+00	0	42	0	2052063232	48	4660
2026-01-21 00:28:13.80	114.22	21.52	-38.9	-40.7	21.3	0.00e+00	0	42	0	2057306112	48	4702
2026-01-21 00:28:14.79	114.46	21.47	-39.0	-40.9	21.2	0.00e+00	0	42	0	2063597568	48	4764
2026-01-21 00:28:15.79	114.71	21.42	-39.0	-40.9	21.2	0.00e+00	0	42	0	2068840448	48	4763
2026-01-21 00:28:16.78	114.95	21.36	-38.9	-40.7	21.3	0.00e+00	0	42	0	2074083328	48	4687
2026-01-21 00:28:17.78	115.19	21.31	-38.9	-40.7	21.3	0.00e+00	0	42	0	2080374784	48	4678
2026-01-21 00:28:18.77	115.42	21.25	-38.9	-40.7	21.4	0.00e+00	0	42	0	2085617664	48	4665
2026-01-21 00:28:19.77	115.66	21.20	-38.7	-40.4	21.6	0.00e+00	0	42	0	2091909120	48	4545
2026-01-21 00:28:20.76	115.90	21.14	-38.6	-40.3	21.7	0.00e+00	0	42	0	2097152000	48	4467
2026-01-21 00:28:21.76	116.14	21.08	-38.6	-40.3	21.7	0.00e+00	0	42	0	2102394880	48	4480
2026-01-21 00:28:22.75	116.37	21.03	-38.8	-40.5	21.5	0.00e+00	0	42	0	2107637760	48	4583
2026-01-21 00:28:23.75	116.61	20.97	-38.9	-40.6	21.4	0.00e+00	0	42	0	2113929216	48	4646
2026-01-21 00:28:24.74	116.84	20.91	-39.0	-40.8	21.3	0.00e+00	0	42	0	2119172096	48	4724
2026-01-21 00:28:25.74	117.07	20.85	-39.1	-40.9	21.2	0.00e+00	0	42	0	2124414976	48	4775
2026-01-21 00:28:26.73	117.30	20.80	-39.1	-40.9	21.2	0.00e+00	0	42	0	2130706432	48	4789
2026-01-21 00:28:27.73	117.54	20.74	-39.2	-41.0	21.1	0.00e+00	0	42	0	2135949312	48	4833
2026-01-21 00:28:28.73	117.77	20.68	-39.3	-41.1	21.1	0.00e+00	0	42	0	2142240768	49	4613
2026-01-21 00:28:29.72	118.00	20.62	-39.0	-40.8	21.2	0.00e+00	0	42	0	2147483648	49	4484
2026-01-21 00:28:30.72	118.23	20.56	-39.0	-40.8	21.3	0.00e+00	0	42	0	2152726528	49	4464
2026-01-21 00:28:31.71	118.45	20.50	-39.1	-40.9	21.2	0.00e+00	0	42	0	2159017984	49	4528
2026-01-21 00:28:32.70	118.68	20.44	-39.2	-41.0	21.1	0.00e+00	0	42	0	2164260864	49	4576
2026-01-21 00:28:33.70	118.91	20.38	-39.2	-41.1	21.0	0.00e+00	0	42	0	2169503744	49	4599
2026-01-21 00:28:34.70	119.13	20.32	-39.1	-40.9	21.1	0.00e+00	0	42	0	2174746624	49	4523
2026-01-21 00:28:35.69	119.36	20.26	-39.1	-40.9	21.2	0.00e+00	0	42	0	2181038080	49	4539
2026-01-21 00:28:36.68	119.58	20.20	-39.1	-40.9	21.2	0.00e+00	0	42	0	2186280960	49	4508
2026-01-21 00:28:37.68	119.80	20.14	-39.1	-40.9	21.2	0.00e+00	0	42	0	2192572416	49	4533
2026-01-21 00:28:38.67	120.02	20.07	-39.1	-40.9	21.2	0.00e+00	0	42	0	2197815296	49	4531
2026-01-21 00:28:39.67	120.24	20.01	-39.1	-40.9	21.2	0.00e+00	0	42	0	2203058176	49	4538
2026-01-21 00:28:40.67	120.47	19.95	-39.1	-40.9	21.2	0.00e+00	0	42	0	2209349632	49	4536
2026-01-21 00:28:41.66	120.68	19.89	-39.1	-40.9	21.2	0.00e+00	0	42	0	2214592512	49	4522
2026-01-21 00:28:42.65	120.90	19.83	-39.2	-41.0	21.1	0.00e+00	0	42	0	2219835392	49	4558
2026-01-21 00:28:43.65	121.12	19.76	-39.0	-40.9	21.2	0.00e+00	0	42	0	2225078272	49	4494
2026-01-21 00:28:44.64	121.33	19.70	-39.0	-40.8	21.3	0.00e+00	0	42	0	2231369728	49	4474
2026-01-21 00:28:45.64	121.55	19.64	-39.1	-40.9	21.2	0.00e+00	0	42	0	2236612608	49	4506
2026-01-21 00:28:46.63	121.77	19.57	-39.2	-41.0	21.1	0.00e+00	0	42	0	2242904064	49	4565
2026-01-21 00:28:47.63	121.98	19.51	-39.3	-41.2	21.0	0.00e+00	0	42	0	2248146944	49	4656
2026-01-21 00:28:48.62	122.19	19.44	-39.4	-41.3	20.8	0.00e+00	0	42	0	2253389824	49	4726
2026-01-21 00:28:49.62	122.41	19.38	-39.5	-41.4	20.7	0.00e+00	0	42	0	2259681280	49	4772
2026-01-21 00:28:50.61	122.62	19.31	-39.5	-41.4	20.8	0.00e+00	0	42	0	2264924160	49	4761
2026-01-21 00:28:51.61	122.83	19.25	-39.5	-41.3	20.8	0.00e+00	0	42	0	2270167040	49	4744
2026-01-21 00:28:52.60	123.04	19.18	-39.5	-41.3	20.8	0.00e+00	0	42	0	2276458496	49	4741
2026-01-21 00:28:53.60	123.25	19.12	-39.5	-41.3	20.8	0.00e+00	0	42	0	2281701376	49	4735
2026-01-21 00:28:54.59	123.45	19.05	-39.6	-41.4	20.8	0.00e+00	0	42	0	2286944256	49	4780
2026-01-21 00:28:55.59	123.66	18.99	-39.6	-41.5	20.7	0.00e+00	0	42	0	2293235712	49	4825
2026-01-21 00:28:56.58	123.87	18.92	-39.7	-41.6	20.6	0.00e+00	0	42	0	2298478592	50	4605
2026-01-21 00:28:57.58	124.07	18.86	-39.7	-41.6	20.6	0.00e+00	0	42	0	2303721472	50	4614
2026-01-21 00:28:58.57	124.27	18.79	-39.7	-41.6	20.6	0.00e+00	0	42	0	2310012928	50	4626
2026-01-21 00:28:59.57	124.48	18.72	-39.8	-41.7	20.5	0.00e+00	0	42	0	2315255808	50	4652
2026-01-21 00:29:00.56	124.68	18.66	-39.7	-41.6	20.5	0.00e+00	0	42	0	2320498688	50	4623
2026-01-21 00:29:01.56	124.88	18.59	-39.6	-41.5	20.7	0.00e+00	0	42	0	2326790144	50	4567
2026-01-21 00:29:02.55	125.08	18.52	-39.7	-41.6	20.6	0.00e+00	0	42	0	2332033024	50	4605
2026-01-21 00:29:03.55	125.28	18.46	-39.8	-41.7	20.5	0.00e+00	0	42	0	2337275904	50	4665
2026-01-21 00:29:04.54	125.48	18.39	-39.8	-41.6	20.6	0.00e+00	0	42	0	2343567360	50	4634
2026-01-21 00:29:05.54	125.68	18.32	-39.7	-41.5	20.6	0.00e+00	0	42	0	2348810240	50	4597
2026-01-21 00:29:06.53	125.88	18.25	-39.7	-41.5	20.6	0.00e+00	0	42	0	2354053120	50	4586
2026-01-21 00:29:07.53	126.08	18.19	-39.7	-41.6	20.6	0.00e+00	0	42	0	2360344576	50	4599
2026-01-21 00:29:08.52	126.27	18.12	-39.6	-41.5	20.7	0.00e+00	0	42	0	2365587456	50	4549
2026-01-21 00:29:09.52	126.47	18.05	-39.6	-41.4	20.8	0.00e+00	0	42	0	2370830336	50	4516
2026-01-21 00:29:10.51	126.66	17.98	-39.5	-41.3	20.8	0.00e+00	0	42	0	2377121792	50	4474
2026-01-21 00:29:11.51	126.85	17.92	-39.6	-41.3	20.8	0.00e+00	0	42	0	2382364672	50	4493
2026-01-21 00:29:12.50	127.05	17.85	-39.5	-41.3	20.9	0.00e+00	0	42	0	2387607552	50	4470
2026-01-21 00:29:13.49	127.24	17.78	-39.5	-41.3	20.8	0.00e+00	0	42	0	2393899008	50	4487
2026-01-21 00:29:14.49	127.43	17.71	-39.6	-41.4	20.8	0.00e+00	0	42	0	2399141888	50	4521
2026-01-21 00:29:15.49	127.62	17.64	-39.8	-41.6	20.6	0.00e+00	0	42	0	2404384768	50	4625
2026-01-21 00:29:16.48	127.81	17.57	-39.9	-41.8	20.4	0.00e+00	0	42	0	2410676224	50	4734
2026-01-21 00:29:17.47	127.99	17.50	-40.1	-42.0	20.3	0.00e+00	0	42	0	2415919104	50	4824
2026-01-21 00:29:18.47	128.18	17.44	-40.2	-42.1	20.2	0.00e+00	0	42	0	2421161984	50	4898
2026-01-21 00:29:19.46	128.37	17.37	-40.2	-42.1	20.2	0.00e+00	0	42	0	2427453440	51	4624
2026-01-21 00:29:20.46	128.55	17.30	-40.2	-42.1	20.2	0.00e+00	0	42	0	2432696320	51	4641
2026-01-21 00:29:21.45	128.74	17.23	-40.1	-42.0	20.2	0.00e+00	0	42	0	2437939200	51	4586
2026-01-21 00:29:22.44	128.92	17.16	-39.9	-41.8	20.4	0.00e+00	0	42	0	2444230656	51	4465
2026-01-21 00:29:23.44	129.11	17.09	-40.0	-41.9	20.4	0.00e+00	0	42	0	2449473536	51	4494
2026-01-21 00:29:24.43	129.29	17.02	-40.0	-41.8	20.4	0.00e+00	0	42	0	2454716416	51	4467
2026-01-21 00:29:25.43	129.47	16.95	-40.1	-41.9	20.3	0.00e+00	0	42	0	2461007872	51	4538
2026-01-21 00:29:26.42	129.65	16.88	-40.1	-42.0	20.2	0.00e+00	0	42	0	2466250752	51	4575
2026-01-21 00:29:27.42	129.83	16.81	-40.2	-42.1	20.2	0.00e+00	0	42	0	2471493632	51	4617
2026-01-21 00:29:28.41	130.01	16.74	-40.2	-42.2	20.1	0.00e+00	0	42	0	2477785088	51	4654
2026-01-21 00:29:29.41	130.19	16.67	-40.2	-42.0	20.2	0.00e+00	0	42	0	2483027968	51	4596
2026-01-21 00:29:30.40	130.36	16.60	-40.1	-42.0	20.2	0.00e+00	0	42	0	2488270848	51	4560
2026-01-21 00:29:31.39	130.54	16.53	-40.2	-42.1	20.2	0.00e+00	0	42	0	2494562304	51	4601
2026-01-21 00:29:32.39	130.72	16.46	-40.1	-42.0	20.2	0.00e+00	0	42	0	2499805184	51	4584
2026-01-21 00:29:33.38	130.89	16.39	-40.2	-42.1	20.1	0.00e+00	0	42	0	2505048064	51	4637
2026-01-21 00:29:34.38	131.07	16.32	-40.2	-42.1	20.2	0.00e+00	0	42	0	2511339520	51	4604
2026-01-21 00:29:35.37	131.24	16.25	-40.3	-42.2	20.1	0.00e+00	0	42	0	2516582400	51	4670
2026-01-21 00:29:36.37	131.41	16.18	-40.2	-42.1	20.2	0.00e+00	0	42	0	2521825280	51	4610
2026-01-21 00:29:37.37	131.59	16.11	-40.2	-42.1	20.2	0.00e+00	0	42	0	2528116736	51	4640
2026-01-21 00:29:38.36	131.76	16.04	-40.2	-42.1	20.2	0.00e+00	0	42	0	2533359616	51	4623
2026-01-21 00:29:39.36	131.93	15.97	-40.3	-42.2	20.1	0.00e+00	0	42	0	2539651072	51	4657
2026-01-21 00:29:40.35	132.10	15.90	-40.3	-42.1	20.2	0.00e+00	0	42	0	2544893952	51	4634
2026-01-21 00:29:41.35	132.27	15.83	-40.3	-42.1	20.1	0.00e+00	0	42	0	2550136832	51	4643
2026-01-21 00:29:42.34	132.43	15.76	-40.3	-42.2	20.1	0.00e+00	0	42	0	2555379712	51	4661
2026-01-21 00:29:43.34	132.60	15.69	-40.4	-42.2	20.0	0.00e+00	0	42	0	2561671168	51	4704
2026-01-21 00:29:44.33	132.77	15.62	-40.3	-42.2	20.1	0.00e+00	0	41	0	2566914048	51	4678
2026-01-21 00:29:45.33	132.93	15.55	-40.3	-42.2	20.0	0.00e+00	0	42	0	2572156928	51	4698
2026-01-21 00:29:46.32	133.10	15.48	-40.3	-42.2	20.1	0.00e+00	0	42	0	2578448384	51	4668
2026-01-21 00:29:47.32	133.26	15.41	-40.3	-42.2	20.1	0.00e+00	0	42	0	2583691264	51	4685
2026-01-21 00:29:48.32	133.43	15.34	-40.2	-42.1	20.1	0.00e+00	0	42	0	2589982720	51	4620
2026-01-21 00:29:49.31	133.59	15.27	-40.2	-42.1	20.2	0.00e+00	0	42	0	2595225600	51	4620
2026-01-21 00:29:50.30	133.75	15.20	-40.3	-42.1	20.1	0.00e+00	0	42	0	2600468480	51	4638
2026-01-21 00:29:51.30	133.91	15.12	-40.2	-42.1	20.2	0.00e+00	0	42	0	2605711360	51	4603
2026-01-21 00:29:52.29	134.07	15.05	-40.2	-42.0	20.2	0.00e+00	0	42	0	2612002816	51	4582
2026-01-21 00:29:53.29	134.23	14.98	-40.3	-42.2	20.1	0.00e+00	0	42	0	2617245696	51	4667
2026-01-21 00:29:54.28	134.39	14.91	-40.4	-42.3	20.0	0.00e+00	0	42	0	2622488576	51	4732
2026-01-21 00:29:55.27	134.55	14.84	-40.5	-42.3	19.9	0.00e+00	0	42	0	2628780032	51	4758
2026-01-21 00:29:56.27	134.71	14.77	-40.5	-42.4	19.8	0.00e+00	0	42	0	2634022912	51	4813
2026-01-21 00:29:57.26	134.86	14.70	-40.6	-42.5	19.8	0.00e+00	0	42	0	2640314368	51	4837
2026-01-21 00:29:58.26	135.02	14.63	-40.6	-42.5	19.8	0.00e+00	0	42	0	2645557248	51	4854
2026-01-21 00:29:59.25	135.18	14.56	-40.6	-42.5	19.8	0.00e+00	0	42	0	2650800128	51	4850
2026-01-21 00:30:00.25	135.33	14.49	-40.6	-42.5	19.8	0.00e+00	0	42	0	2656043008	51	4844
2026-01-21 00:30:01.24	135.48	14.42	-40.6	-42.4	19.8	0.00e+00	0	42	0	2662334464	51	4811
2026-01-21 00:30:02.24	135.64	14.35	-40.5	-42.3	19.9	0.00e+00	0	42	0	2667577344	51	4749
2026-01-21 00:30:03.23	135.79	14.28	-40.5	-42.4	19.9	0.00e+00	0	42	0	2672820224	51	4800
2026-01-21 00:30:04.23	135.94	14.21	-40.6	-42.5	19.8	0.00e+00	0	42	0	2679111680	51	4867
2026-01-21 00:30:05.22	136.09	14.14	-40.6	-42.5	19.7	0.00e+00	0	42	0	2684354560	52	4581
2026-01-21 00:30:06.22	136.24	14.07	-40.6	-42.5	19.7	0.00e+00	0	42	0	2690646016	52	4588
2026-01-21 00:30:07.22	136.40	14.00	-40.7	-42.6	19.7	0.00e+00	0	42	0	2695888896	52	4615
2026-01-21 00:30:08.21	136.54	13.93	-40.7	-42.6	19.6	0.00e+00	0	42	0	2701131776	52	4651
2026-01-21 00:30:09.21	136.69	13.86	-40.8	-42.7	19.6	0.00e+00	0	42	0	2707423232	52	4665
2026-01-21 00:30:10.20	136.84	13.79	-40.8	-42.7	19.5	0.00e+00	0	42	0	2712666112	52	4690
2026-01-21 00:30:11.20	136.99	13.72	-40.8	-42.7	19.5	0.00e+00	0	42	0	2717908992	52	4704
2026-01-21 00:30:12.19	137.13	13.65	-40.7	-42.7	19.6	0.00e+00	0	42	0	2724200448	52	4653
2026-01-21 00:30:13.19	137.28	13.57	-40.8	-42.7	19.5	0.00e+00	0	42	0	2729443328	52	4694
2026-01-21 00:30:14.18	137.42	13.50	-40.9	-42.8	19.5	0.00e+00	0	42	0	2734686208	52	4733
2026-01-21 00:30:15.18	137.57	13.43	-40.8	-42.7	19.5	0.00e+00	0	42	0	2740977664	52	4701
2026-01-21 00:30:16.17	137.71	13.36	-40.8	-42.7	19.5	0.00e+00	0	42	0	2746220544	52	4682
2026-01-21 00:30:17.17	137.86	13.29	-40.8	-42.7	19.5	0.00e+00	0	42	0	2751463424	52	4674
2026-01-21 00:30:18.16	138.00	13.22	-40.8	-42.8	19.5	0.00e+00	0	42	0	2757754880	52	4719
2026-01-21 00:30:19.16	138.14	13.15	-40.9	-42.8	19.4	0.00e+00	0	42	0	2762997760	52	4759
2026-01-21 00:30:20.15	138.28	13.08	-40.9	-42.8	19.4	0.00e+00	0	42	0	2768240640	52	4738
2026-01-21 00:30:21.14	138.42	13.01	-40.9	-42.8	19.4	0.00e+00	0	41	0	2774532096	52	4749
2026-01-21 00:30:22.14	138.56	12.94	-40.9	-42.8	19.4	0.00e+00	0	42	0	2779774976	52	4738
2026-01-21 00:30:23.14	138.70	12.87	-40.9	-42.8	19.4	0.00e+00	0	42	0	2785017856	52	4754
2026-01-21 00:30:24.13	138.84	12.81	-41.0	-42.9	19.3	0.00e+00	0	42	0	2791309312	52	4812
2026-01-21 00:30:25.13	138.98	12.74	-41.0	-42.9	19.3	0.00e+00	0	42	0	2796552192	52	4800
2026-01-21 00:30:26.12	139.11	12.67	-41.0	-43.0	19.3	0.00e+00	0	42	0	2801795072	52	4817
2026-01-21 00:30:27.12	139.25	12.60	-41.1	-43.1	19.1	0.00e+00	0	41	0	2808086528	52	4877
2026-01-21 00:30:28.11	139.39	12.53	-41.2	-43.1	19.1	0.00e+00	0	42	0	2813329408	53	4645
2026-01-21 00:30:29.11	139.52	12.46	-41.2	-43.1	19.1	0.00e+00	0	42	0	2818572288	53	4649
2026-01-21 00:30:30.10	139.66	12.39	-41.2	-43.1	19.1	0.00e+00	0	42	0	2824863744	53	4631
2026-01-21 00:30:31.10	139.79	12.32	-41.2	-43.1	19.2	0.00e+00	0	42	0	2830106624	53	4631
2026-01-21 00:30:32.09	139.93	12.25	-41.1	-43.1	19.2	0.00e+00	0	41	0	2835349504	53	4617
2026-01-21 00:30:33.08	140.06	12.18	-41.2	-43.2	19.1	0.00e+00	0	42	0	2841640960	53	4652
2026-01-21 00:30:34.08	140.19	12.11	-41.2	-43.2	19.1	0.00e+00	0	42	0	2846883840	53	4655
2026-01-21 00:30:35.07	140.32	12.04	-41.1	-43.1	19.2	0.00e+00	0	41	0	2852126720	53	4622
2026-01-21 00:30:36.07	140.45	11.97	-41.2	-43.2	19.1	0.00e+00	0	42	0	2858418176	53	4661
2026-01-21 00:30:37.06	140.58	11.90	-41.3	-43.2	19.1	0.00e+00	0	42	0	2863661056	53	4691
2026-01-21 00:30:38.06	140.71	11.83	-41.2	-43.1	19.1	0.00e+00	0	42	0	2868903936	53	4629
2026-01-21 00:30:39.05	140.84	11.77	-41.2	-43.2	19.1	0.00e+00	0	42	0	2875195392	53	4659
2026-01-21 00:30:40.05	140.97	11.70	-41.2	-43.2	19.1	0.00e+00	0	42	0	2880438272	53	4668
2026-01-21 00:30:41.04	141.10	11.63	-41.3	-43.3	19.0	0.00e+00	0	42	0	2885681152	53	4706
2026-01-21 00:30:42.04	141.23	11.56	-41.3	-43.3	19.0	0.00e+00	0	42	0	2891972608	53	4727
2026-01-21 00:30:43.03	141.35	11.49	-41.3	-43.3	19.0	0.00e+00	0	42	0	2897215488	53	4711
2026-01-21 00:30:44.02	141.48	11.42	-41.3	-43.3	19.0	0.00e+00	0	42	0	2902458368	53	4728
2026-01-21 00:30:45.02	141.61	11.35	-41.3	-43.2	19.0	0.00e+00	0	42	0	2908749824	53	4681
2026-01-21 00:30:46.01	141.73	11.29	-41.3	-43.2	19.0	0.00e+00	0	42	0	2913992704	53	4683
2026-01-21 00:30:47.00	141.86	11.22	-41.2	-43.2	19.0	0.00e+00	0	41	0	2919235584	53	4671
2026-01-21 00:30:48.00	141.98	11.15	-41.3	-43.2	19.0	0.00e+00	0	42	0	2925527040	53	4686
2026-01-21 00:30:49.00	142.11	11.08	-41.2	-43.1	19.1	0.00e+00	0	41	0	2930769920	53	4648
2026-01-21 00:30:49.99	142.23	11.01	-41.3	-43.3	19.0	0.00e+00	0	42	0	2936012800	53	4715
2026-01-21 00:30:50.99	142.35	10.94	-41.5	-43.4	18.8	0.00e+00	0	42	0	2942304256	53	4814
2026-01-21 00:30:51.98	142.47	10.88	-41.4	-43.4	18.9	0.00e+00	0	42	0	2947547136	53	4768
2026-01-21 00:30:52.98	142.59	10.81	-41.4	-43.4	18.8	0.00e+00	0	42	0	2952790016	53	4770
2026-01-21 00:30:53.97	142.71	10.74	-41.4	-43.4	18.8	0.00e+00	0	42	0	2959081472	53	4810
2026-01-21 00:30:54.96	142.83	10.67	-41.4	-43.4	18.8	0.00e+00	0	41	0	2964324352	53	4797
2026-01-21 00:30:55.96	142.95	10.61	-41.6	-43.6	18.6	0.00e+00	0	42	0	2969567232	53	4893
2026-01-21 00:30:56.96	143.07	10.54	-41.6	-43.6	18.5	0.00e+00	0	42	0	2975858688	53	4912
2026-01-21 00:30:57.95	143.19	10.47	-41.7	-43.7	18.5	0.00e+00	0	42	0	2981101568	53	4950
2026-01-21 00:30:58.94	143.31	10.40	-41.7	-43.7	18.6	0.00e+00	0	42	0	2986344448	54	4678
2026-01-21 00:30:59.94	143.43	10.34	-41.7	-43.7	18.6	0.00e+00	0	42	0	2992635904	54	4667
2026-01-21 00:31:00.93	143.55	10.27	-41.6	-43.7	18.6	0.00e+00	0	42	0	2997878784	54	4658
2026-01-21 00:31:01.93	143.66	10.20	-41.7	-43.7	18.5	0.00e+00	0	41	0	3003121664	54	4697
2026-01-21 00:31:02.92	143.78	10.13	-41.7	-43.7	18.5	0.00e+00	0	42	0	3009413120	54	4695
2026-01-21 00:31:03.92	143.89	10.07	-41.8	-43.8	18.4	0.00e+00	0	42	0	3014656000	54	4745
2026-01-21 00:31:04.91	144.01	10.00	-41.8	-43.9	18.4	0.00e+00	0	42	0	3019898880	54	4770
2026-01-21 00:31:05.91	144.12	9.93	-41.7	-43.7	18.5	0.00e+00	0	42	0	3026190336	54	4698
2026-01-21 00:31:06.90	144.24	9.87	-41.8	-43.9	18.4	0.00e+00	0	42	0	3031433216	54	4761
2026-01-21 00:31:07.89	144.35	9.80	-41.9	-43.9	18.3	0.00e+00	0	41	0	3036676096	54	4792
2026-01-21 00:31:08.89	144.46	9.73	-41.9	-44.0	18.2	0.00e+00	0	42	0	3042967552	54	4831
2026-01-21 00:31:09.88	144.58	9.67	-42.0	-44.1	18.1	0.00e+00	0	41	0	3048210432	54	4898
2026-01-21 00:31:10.88	144.69	9.60	-42.0	-44.1	18.1	0.00e+00	0	41	0	3053453312	54	4900
2026-01-21 00:31:11.87	144.80	9.53	-42.1	-44.2	18.0	0.00e+00	0	42	0	3059744768	54	4957
2026-01-21 00:31:12.87	144.91	9.47	-42.2	-44.3	18.0	0.00e+00	0	42	0	3064987648	54	4989
2026-01-21 00:31:13.86	145.02	9.40	-42.1	-44.2	18.0	0.00e+00	0	42	0	3070230528	54	4969
2026-01-21 00:31:14.86	145.13	9.33	-42.2	-44.3	18.0	0.00e+00	0	42	0	3076521984	55	4728
2026-01-21 00:31:15.85	145.24	9.27	-42.2	-44.3	17.9	0.00e+00	0	42	0	3081764864	55	4748
2026-01-21 00:31:16.85	145.35	9.20	-42.3	-44.4	17.9	0.00e+00	0	42	0	3087007744	55	4776
2026-01-21 00:31:17.84	145.46	9.14	-42.2	-44.3	17.9	0.00e+00	0	42	0	3093299200	55	4745
2026-01-21 00:31:18.84	145.57	9.07	-42.2	-44.4	17.9	0.00e+00	0	42	0	3098542080	55	4760
2026-01-21 00:31:19.83	145.68	9.01	-48.3	-52.4	10.6	4.50e-06	0	42	0	3103784960	66	6419
2026-01-21 00:31:20.82	145.78	8.94	-52.1	-64.1	3.8	8.48e-01	0	42	104	3104833536	74	15495
2026-01-21 00:31:21.81	145.89	8.87	-52.1	-64.3	3.8	8.47e-01	0	42	104	3104833536	74	15863
2026-01-21 00:31:22.81	146.00	8.81	-52.2	-64.4	3.8	8.47e-01	0	42	104	3104833536	75	15198
2026-01-21 00:31:23.80	146.10	8.74	-52.4	-64.5	3.8	8.46e-01	0	42	104	3104833536	75	15266
2026-01-21 00:31:24.79	146.21	8.68	-52.3	-64.5	3.8	8.46e-01	0	42	104	3104833536	75	15387
2026-01-21 00:31:25.79	146.31	8.61	-52.4	-64.6	3.8	8.45e-01	0	41	104	3104833536	75	15468
2026-01-21 00:31:26.78	146.42	8.55	-52.1	-64.6	3.8	8.47e-01	0	41	104	3104833536	75	15492
2026-01-21 00:31:27.77	146.52	8.48	-52.4	-64.6	3.8	8.47e-01	0	42	104	3104833536	75	15521
2026-01-21 00:31:28.76	146.62	8.42	-52.4	-64.7	3.8	8.47e-01	0	42	104	3104833536	75	15594
2026-01-21 00:31:29.76	146.73	8.35	-52.5	-64.7	3.8	8.47e-01	0	42	104	3104833536	75	15608
2026-01-21 00:31:30.75	146.83	8.29	-52.5	-64.7	3.8	8.46e-01	0	42	104	3104833536	75	15652
2026-01-21 00:31:31.74	146.93	8.23	-52.6	-64.7	3.8	8.45e-01	0	42	104	3104833536	75	15736
2026-01-21 00:31:32.74	147.03	8.16	-52.6	-64.8	3.8	8.47e-01	0	42	104	3104833536	75	15768
2026-01-21 00:31:33.73	147.13	8.10	-52.6	-64.8	3.8	8.46e-01	0	42	104	3104833536	75	15813
2026-01-21 00:31:34.72	147.24	8.03	-52.6	-64.8	3.8	8.47e-01	0	41	104	3104833536	75	15821
2026-01-21 00:31:35.71	147.34	7.97	-52.3	-64.8	3.8	8.47e-01	0	42	104	3104833536	75	15829
2026-01-21 00:31:36.71	147.44	7.90	-52.6	-64.8	3.8	8.47e-01	0	42	104	3104833536	76	14984
2026-01-21 00:31:37.70	147.54	7.84	-52.7	-64.8	3.8	8.48e-01	0	42	104	3104833536	76	14979
2026-01-21 00:31:38.69	147.63	7.78	-52.4	-64.8	3.8	8.47e-01	0	42	104	3104833536	76	15022
2026-01-21 00:31:39.69	147.73	7.71	-52.5	-64.8	3.8	8.47e-01	0	42	104	3104833536	76	14972
2026-01-21 00:31:40.68	147.83	7.65	-52.4	-64.7	3.8	8.47e-01	0	42	104	3104833536	76	14842
2026-01-21 00:31:41.67	147.93	7.58	-52.4	-64.7	3.8	8.48e-01	0	42	104	3104833536	76	14871
2026-01-21 00:31:42.67	148.03	7.52	-52.4	-64.7	3.8	8.48e-01	0	41	104	3104833536	76	14854
2026-01-21 00:31:43.66	148.12	7.46	-52.4	-64.7	3.8	8.47e-01	0	42	104	3104833536	76	14825
2026-01-21 00:31:44.65	148.22	7.39	-52.4	-64.7	3.8	8.47e-01	0	42	104	3104833536	76	14851
2026-01-21 00:31:45.64	148.32	7.33	-52.4	-64.8	3.8	8.48e-01	0	42	104	3104833536	76	14920
2026-01-21 00:31:46.64	148.41	7.27	-52.4	-64.7	3.8	8.47e-01	0	42	104	3104833536	76	14823
2026-01-21 00:31:47.63	148.51	7.20	-52.4	-64.8	3.8	8.47e-01	0	42	104	3104833536	76	14902
2026-01-21 00:31:48.62	148.60	7.14	-52.4	-64.7	3.8	8.47e-01	0	42	104	3104833536	76	14837
2026-01-21 00:31:49.62	148.70	7.08	-52.4	-64.7	3.8	8.47e-01	0	42	104	3104833536	76	14823
2026-01-21 00:31:50.61	148.79	7.02	-52.4	-64.7	3.8	8.48e-01	0	42	104	3104833536	76	14815
2026-01-21 00:31:51.60	148.89	6.95	-52.4	-64.7	3.8	8.47e-01	0	42	104	3104833536	76	14837
2026-01-21 00:31:52.60	148.98	6.89	-52.4	-64.7	3.8	8.46e-01	0	42	104	3104833536	76	14843
2026-01-21 00:31:53.59	149.07	6.83	-52.4	-64.8	3.8	8.47e-01	0	42	104	3104833536	76	14880
2026-01-21 00:31:54.58	149.17	6.77	-52.4	-64.7	3.8	8.46e-01	0	42	104	3104833536	76	14840
2026-01-21 00:31:55.57	149.26	6.70	-52.4	-64.7	3.8	8.46e-01	0	42	104	3104833536	76	14813
2026-01-21 00:31:56.57	149.35	6.64	-52.4	-64.7	3.8	8.47e-01	0	42	104	3104833536	76	14804
2026-01-21 00:31:57.56	149.44	6.58	-52.4	-64.7	3.8	8.48e-01	0	42	104	3104833536	76	14813
2026-01-21 00:31:58.55	149.53	6.52	-52.4	-64.7	3.8	8.47e-01	0	42	104	3104833536	76	14786
2026-01-21 00:31:59.55	149.62	6.45	-52.4	-64.7	3.8	8.47e-01	0	42	104	3104833536	76	14794
2026-01-21 00:32:00.54	149.71	6.39	-52.4	-64.7	3.8	8.47e-01	0	42	104	3104833536	76	14837
2026-01-21 00:32:01.53	149.80	6.33	-52.4	-64.7	3.8	8.48e-01	0	41	104	3104833536	76	14844
2026-01-21 00:32:02.53	149.90	6.27	-52.4	-64.7	3.8	8.46e-01	0	42	104	3104833536	76	14879
2026-01-21 00:32:03.52	149.98	6.21	-52.4	-64.7	3.8	8.47e-01	0	42	104	3104833536	76	14787
2026-01-21 00:32:04.51	150.07	6.15	-52.4	-64.7	3.8	8.47e-01	0	42	104	3104833536	76	14809
2026-01-21 00:32:05.51	150.16	6.08	-52.4	-64.7	3.8	8.45e-01	0	42	104	3104833536	76	14767
2026-01-21 00:32:06.50	150.25	6.02	-52.4	-64.7	3.8	8.47e-01	0	41	104	3104833536	76	14877
2026-01-21 00:32:07.49	150.34	5.96	-52.4	-64.7	3.8	8.46e-01	0	42	104	3104833536	76	14766
2026-01-21 00:32:08.49	150.43	5.90	-52.4	-64.7	3.8	8.47e-01	0	42	104	3104833536	76	14772
2026-01-21 00:32:09.48	150.51	5.84	-52.4	-64.7	3.8	8.47e-01	0	41	104	3104833536	76	14843
2026-01-21 00:32:10.47	150.60	5.78	-52.4	-64.7	3.8	8.46e-01	0	42	104	3104833536	76	14807
2026-01-21 00:32:11.47	150.69	5.72	-52.4	-64.7	3.8	8.47e-01	0	42	104	3104833536	76	14751
2026-01-21 00:32:12.46	150.77	5.66	-52.4	-64.7	3.8	8.46e-01	0	42	104	3104833536	76	14773
2026-01-21 00:32:13.45	150.86	5.60	-52.4	-64.7	3.8	8.47e-01	0	42	104	3104833536	76	14783
2026-01-21 00:32:14.44	150.94	5.53	-52.4	-64.7	3.8	8.46e-01	0	42	104	3104833536	76	14788
2026-01-21 00:32:15.44	151.03	5.47	-52.4	-64.7	3.8	8.48e-01	0	42	104	3104833536	76	14760
2026-01-21 00:32:16.43	151.11	5.41	-52.4	-64.7	3.8	8.47e-01	0	42	104	3104833536	76	14789
2026-01-21 00:32:17.42	151.20	5.35	-52.4	-64.7	3.8	8.47e-01	0	42	104	3104833536	76	14804
2026-01-21 00:32:18.42	151.28	5.29	-52.4	-64.7	3.8	8.47e-01	0	42	104	3104833536	76	14732
2026-01-21 00:32:19.41	151.37	5.23	-52.4	-64.7	3.8	8.46e-01	0	42	104	3104833536	76	14804
2026-01-21 00:32:20.40	151.45	5.17	-52.4	-64.7	3.8	8.47e-01	0	41	104	3104833536	76	14798
2026-01-21 00:32:21.39	151.53	5.11	-52.4	-64.7	3.8	8.47e-01	0	42	104	3104833536	76	14776
2026-01-21 00:32:22.39	151.62	5.05	-52.4	-64.7	3.8	8.47e-01	0	42	104	3104833536	76	14739
2026-01-21 00:32:23.38	151.70	4.99	-52.4	-64.7	3.8	8.47e-01	0	42	104	3104833536	76	14776

#Closed at: 2026-01-21 00:32:24
#Recorded file [3104 MB]: D:/Data/31040_260121_032106.dat