passes_logs/2026/01/21/T1/T1__20260121_010314_SUOMI_NPP_rec.log

#Pass ID: 20260121_010314_SUOMI NPP
#Satellite: SUOMI NPP
#Configuration: NPP
#almurnet v.1.7.20251203
#Start time: 2026-01-21 01:03:14

#Version: 2.0.20230620
#Station: T1
#Location: 37.570604 lon 55.790049 lat
#TLE: 1 37849U 11061A   26020.31993517  .00000142  00000+0  88240-4 0  9990
#TLE: 2 37849  98.7818 322.3228 0002330  54.3778 305.7615 14.19527005737466

#Time	Az	El	Level	Level2	SNR	BER	BlckErr	Temp	State	Recorded	gain1	gain2
2026-01-21 01:03:14.89	8.69	5.06	-50.7	-67.4	3.8	1.49e+00	0	37	0	0	73	24090
2026-01-21 01:03:15.88	8.63	5.13	-50.4	-67.2	3.8	1.49e+00	0	37	104	0	71	26277
2026-01-21 01:03:16.88	8.57	5.19	-50.4	-67.2	3.8	1.49e+00	0	37	104	0	71	26353
2026-01-21 01:03:17.87	8.51	5.25	-50.4	-67.2	3.8	1.49e+00	0	37	104	0	71	26306
2026-01-21 01:03:18.86	8.44	5.32	-50.4	-67.2	3.8	1.49e+00	0	37	104	0	71	26308
2026-01-21 01:03:19.86	8.38	5.39	-50.4	-67.2	3.8	1.49e+00	0	37	104	0	71	26241
2026-01-21 01:03:20.85	8.32	5.45	-50.4	-67.2	3.8	1.49e+00	0	37	104	0	71	26328
2026-01-21 01:03:21.84	8.25	5.52	-50.4	-67.2	3.8	1.49e+00	0	37	104	0	71	26337
2026-01-21 01:03:22.83	8.19	5.58	-50.4	-67.2	3.8	1.49e+00	0	38	104	0	71	26306
2026-01-21 01:03:23.83	8.13	5.65	-50.4	-67.2	3.8	1.49e+00	0	37	104	0	71	26356
2026-01-21 01:03:24.82	8.06	5.71	-50.4	-67.2	3.8	1.49e+00	0	37	104	0	71	26191
2026-01-21 01:03:25.81	8.00	5.78	-50.4	-67.2	3.8	1.49e+00	0	37	104	0	71	26303
2026-01-21 01:03:26.81	7.93	5.84	-50.4	-67.2	3.8	1.49e+00	0	38	104	0	71	26173
2026-01-21 01:03:27.80	7.87	5.91	-50.4	-67.1	3.8	1.49e+00	0	38	104	0	71	26095
2026-01-21 01:03:28.79	7.80	5.98	-50.4	-67.1	3.8	1.49e+00	0	38	104	0	71	26143
2026-01-21 01:03:29.79	7.74	6.04	-50.4	-67.2	3.8	1.49e+00	0	38	104	0	71	26172
2026-01-21 01:03:30.78	7.67	6.11	-50.4	-67.1	3.8	1.49e+00	0	38	104	0	71	26097
2026-01-21 01:03:31.77	7.60	6.18	-50.4	-67.2	3.8	1.49e+00	0	38	104	0	71	26302
2026-01-21 01:03:32.77	7.54	6.24	-50.4	-67.2	3.8	1.49e+00	0	38	104	0	71	26240
2026-01-21 01:03:33.76	7.47	6.31	-50.4	-67.2	3.8	1.49e+00	0	38	104	0	71	26249
2026-01-21 01:03:34.75	7.40	6.38	-50.4	-67.2	3.8	1.49e+00	0	38	104	0	71	26249
2026-01-21 01:03:35.74	7.33	6.44	-50.4	-67.2	3.8	1.49e+00	0	38	104	0	71	26346
2026-01-21 01:03:36.74	7.26	6.51	-50.4	-67.2	3.8	1.49e+00	0	38	104	0	71	26288
2026-01-21 01:03:37.73	7.20	6.58	-50.4	-67.2	3.8	1.49e+00	0	38	104	0	71	26263
2026-01-21 01:03:38.72	7.13	6.65	-50.4	-67.1	3.8	1.49e+00	0	38	104	0	71	26108
2026-01-21 01:03:39.71	7.06	6.71	-50.4	-67.2	3.8	1.49e+00	0	38	104	0	71	26162
2026-01-21 01:03:40.71	6.99	6.78	-50.4	-67.1	3.8	1.49e+00	0	38	104	0	71	26058
2026-01-21 01:03:41.70	6.92	6.85	-50.4	-67.1	3.8	1.49e+00	0	38	104	0	71	25923
2026-01-21 01:03:42.69	6.85	6.92	-50.4	-67.0	3.8	1.49e+00	0	38	104	0	71	25750
2026-01-21 01:03:43.69	6.78	6.99	-50.4	-66.9	3.8	1.49e+00	0	38	104	0	71	25531
2026-01-21 01:03:44.68	6.71	7.06	-50.4	-66.9	3.8	1.49e+00	0	38	104	0	71	25288
2026-01-21 01:03:45.67	6.63	7.12	-50.4	-66.6	3.8	1.49e+00	0	38	104	0	71	24643
2026-01-21 01:03:46.67	6.56	7.19	-50.4	-66.4	3.8	1.49e+00	0	38	104	0	71	24046
2026-01-21 01:03:47.66	6.49	7.26	-50.4	-66.1	3.8	1.49e+00	0	38	104	0	71	23250
2026-01-21 01:03:48.65	6.42	7.33	-50.3	-65.8	3.8	1.49e+00	0	38	104	0	71	22490
2026-01-21 01:03:49.64	6.35	7.40	-50.4	-65.6	3.8	1.49e+00	0	38	104	0	71	21855
2026-01-21 01:03:50.64	6.27	7.47	-50.4	-65.5	3.8	1.49e+00	0	38	104	0	71	21625
2026-01-21 01:03:51.63	6.20	7.54	-50.4	-65.2	3.8	1.49e+00	0	38	104	0	71	20921
2026-01-21 01:03:52.62	6.12	7.61	-50.4	-65.3	3.9	1.49e+00	0	38	104	0	71	21106
2026-01-21 01:03:53.61	6.05	7.68	-50.4	-65.5	3.8	1.49e+00	0	38	104	0	71	21666
2026-01-21 01:03:54.61	5.98	7.75	-50.4	-65.8	3.8	1.49e+00	0	38	104	0	71	22340
2026-01-21 01:03:55.60	5.90	7.82	-50.4	-66.1	3.8	1.49e+00	0	38	104	0	71	23251
2026-01-21 01:03:56.59	5.83	7.89	-50.4	-66.5	3.8	1.49e+00	0	38	104	0	71	24404
2026-01-21 01:03:57.59	5.75	7.96	-50.4	-66.8	3.8	1.49e+00	0	38	104	0	71	25187
2026-01-21 01:03:58.58	5.67	8.03	-50.4	-67.0	3.8	1.49e+00	0	38	104	0	71	25795
2026-01-21 01:03:59.57	5.60	8.10	-50.4	-67.1	3.8	1.49e+00	0	38	104	0	71	26083
2026-01-21 01:04:00.56	5.52	8.17	-50.4	-66.8	3.8	1.49e+00	0	38	104	0	71	25109
2026-01-21 01:04:01.56	5.44	8.24	-50.4	-65.6	3.8	1.49e+00	0	38	104	0	71	21890
2026-01-21 01:04:02.55	5.36	8.31	-50.3	-63.2	4.3	1.43e+00	0	38	0	0	71	16680
2026-01-21 01:04:03.54	5.29	8.38	-50.1	-61.3	5.1	8.12e-01	0	39	0	1048576	71	13360
2026-01-21 01:04:04.54	5.21	8.45	-49.8	-58.8	7.0	3.30e-01	0	39	0	3145728	71	9953
2026-01-21 01:04:05.53	5.13	8.53	-49.3	-56.8	9.0	7.60e-02	0	39	0	5242880	70	8384
2026-01-21 01:04:06.52	5.05	8.60	-48.9	-55.3	10.5	7.81e-03	0	39	0	6291456	69	7522
2026-01-21 01:04:07.51	4.97	8.67	-48.5	-54.3	11.6	8.95e-04	0	39	0	8388608	68	7071
2026-01-21 01:04:08.51	4.89	8.74	-48.2	-53.5	12.3	2.59e-04	0	39	0	10485760	68	6489
2026-01-21 01:04:09.50	4.81	8.81	-47.8	-52.7	13.0	1.14e-04	0	39	0	12582912	67	6268
2026-01-21 01:04:10.49	4.73	8.88	-47.9	-52.9	12.9	5.72e-05	0	39	0	14680064	67	6354
2026-01-21 01:04:11.49	4.65	8.96	-47.8	-52.8	13.0	2.13e-05	0	39	0	15728640	67	6309
2026-01-21 01:04:12.48	4.56	9.03	-48.0	-53.1	12.6	5.11e-05	0	39	0	17825792	67	6546
2026-01-21 01:04:13.47	4.48	9.10	-48.0	-53.1	12.6	1.46e-04	0	39	0	19922944	67	6559
2026-01-21 01:04:14.47	4.40	9.18	-48.9	-55.8	10.2	2.20e-04	0	39	0	22020096	68	8374
2026-01-21 01:04:15.46	4.32	9.25	-48.6	-54.9	10.6	3.55e-01	0	39	0	23068672	69	7123
2026-01-21 01:04:16.46	4.23	9.32	-46.8	-50.2	15.4	1.50e-06	0	39	0	25165824	65	5232
2026-01-21 01:04:17.45	4.15	9.40	-46.9	-50.5	15.4	7.00e-07	0	39	0	27262976	65	5403
2026-01-21 01:04:18.45	4.06	9.47	-48.4	-53.0	12.6	2.99e-02	0	39	0	29360128	68	6107
2026-01-21 01:04:19.44	3.98	9.54	-46.5	-49.6	16.1	0.00e+00	0	39	0	31457280	64	5169
2026-01-21 01:04:20.44	3.89	9.62	-46.3	-49.2	16.4	0.00e+00	0	39	0	32505856	64	4979
2026-01-21 01:04:21.43	3.81	9.69	-46.4	-49.4	16.2	0.00e+00	0	39	0	34603008	64	5081
2026-01-21 01:04:22.43	3.72	9.77	-46.4	-49.3	16.4	0.00e+00	0	39	0	36700160	64	5029
2026-01-21 01:04:23.42	3.63	9.84	-46.5	-49.5	16.2	0.00e+00	0	39	0	38797312	64	5154
2026-01-21 01:04:24.42	3.54	9.91	-46.5	-49.5	16.2	0.00e+00	0	39	0	40894464	64	5108
2026-01-21 01:04:25.41	3.46	9.99	-46.5	-49.6	16.1	0.00e+00	0	39	0	41943040	64	5178
2026-01-21 01:04:26.41	3.37	10.06	-46.5	-49.5	16.2	0.00e+00	0	39	0	44040192	64	5137
2026-01-21 01:04:27.40	3.28	10.14	-46.5	-49.5	16.2	0.00e+00	0	39	0	46137344	64	5154
2026-01-21 01:04:28.40	3.19	10.21	-46.6	-49.8	15.9	0.00e+00	0	39	0	48234496	64	5303
2026-01-21 01:04:29.39	3.10	10.29	-46.3	-49.4	16.2	0.00e+00	0	39	0	49283072	64	5094
2026-01-21 01:04:30.39	3.01	10.36	-46.4	-49.6	16.1	0.00e+00	0	39	0	51380224	64	5213
2026-01-21 01:04:31.38	2.92	10.44	-46.7	-50.2	15.5	0.00e+00	0	39	0	53477376	64	5567
2026-01-21 01:04:32.37	2.83	10.52	-46.5	-49.8	15.9	0.00e+00	0	39	0	55574528	64	5313
2026-01-21 01:04:33.37	2.74	10.59	-46.5	-49.9	15.9	0.00e+00	0	39	0	57671680	64	5344
2026-01-21 01:04:34.36	2.65	10.67	-46.6	-50.1	15.7	0.00e+00	0	39	0	58720256	64	5493
2026-01-21 01:04:35.36	2.55	10.74	-46.4	-50.0	15.7	0.00e+00	0	39	0	60817408	64	5430
2026-01-21 01:04:36.35	2.46	10.82	-46.0	-49.4	16.3	0.00e+00	0	39	0	62914560	64	5053
2026-01-21 01:04:37.35	2.36	10.90	-46.1	-49.5	16.2	0.00e+00	0	39	0	65011712	64	5139
2026-01-21 01:04:38.34	2.27	10.97	-46.3	-49.8	16.0	0.00e+00	0	39	0	66060288	64	5297
2026-01-21 01:04:39.34	2.18	11.05	-46.2	-49.6	16.2	0.00e+00	0	39	0	68157440	64	5161
2026-01-21 01:04:40.33	2.08	11.13	-46.2	-49.6	16.2	0.00e+00	0	39	0	70254592	64	5161
2026-01-21 01:04:41.33	1.98	11.21	-46.2	-49.6	16.1	0.00e+00	0	39	0	72351744	64	5193
2026-01-21 01:04:42.32	1.89	11.28	-46.2	-49.7	16.0	0.00e+00	0	39	0	74448896	64	5277
2026-01-21 01:04:43.32	1.79	11.36	-46.1	-49.5	16.3	0.00e+00	0	39	0	75497472	63	5447
2026-01-21 01:04:44.31	1.69	11.44	-46.2	-49.7	16.1	0.00e+00	0	39	0	77594624	63	5559
2026-01-21 01:04:45.31	1.60	11.52	-46.2	-49.7	16.1	0.00e+00	0	39	0	79691776	63	5584
2026-01-21 01:04:46.30	1.50	11.59	-46.2	-49.8	16.1	0.00e+00	0	39	0	81788928	63	5606
2026-01-21 01:04:47.30	1.40	11.67	-46.1	-49.6	16.2	0.00e+00	0	39	0	82837504	63	5488
2026-01-21 01:04:48.29	1.30	11.75	-46.1	-49.6	16.0	0.00e+00	0	39	0	84934656	63	5512
2026-01-21 01:04:49.28	1.20	11.83	-46.2	-49.6	16.3	0.00e+00	0	39	0	87031808	63	5484
2026-01-21 01:04:50.28	1.10	11.91	-46.1	-49.6	16.3	0.00e+00	0	39	0	89128960	63	5489
2026-01-21 01:04:51.28	1.00	11.99	-46.1	-49.4	16.4	0.00e+00	0	39	0	91226112	63	5399
2026-01-21 01:04:52.27	0.90	12.07	-46.0	-49.3	16.6	0.00e+00	0	39	0	92274688	63	5292
2026-01-21 01:04:53.27	0.79	12.15	-46.0	-49.3	16.6	0.00e+00	0	39	0	94371840	63	5329
2026-01-21 01:04:54.26	0.69	12.22	-45.7	-48.9	16.9	0.00e+00	0	39	0	96468992	63	5066
2026-01-21 01:04:55.26	0.59	12.30	-45.7	-48.7	17.1	0.00e+00	0	39	0	98566144	63	4957
2026-01-21 01:04:56.25	0.48	12.38	-45.6	-48.6	17.2	0.00e+00	0	39	0	99614720	63	4922
2026-01-21 01:04:57.25	0.38	12.46	-45.7	-48.7	17.1	0.00e+00	0	39	0	101711872	63	4977
2026-01-21 01:04:58.24	0.27	12.54	-45.8	-48.9	16.9	0.00e+00	0	39	0	103809024	63	5042
2026-01-21 01:04:59.24	0.17	12.62	-45.9	-48.9	17.0	0.00e+00	0	39	0	105906176	63	5061
2026-01-21 01:05:00.24	0.06	12.71	-45.9	-48.9	16.9	0.00e+00	0	39	0	108003328	63	5098
2026-01-21 01:05:01.23	359.95	12.79	-45.8	-48.9	17.0	0.00e+00	0	39	0	109051904	63	5053
2026-01-21 01:05:02.23	359.84	12.87	-45.9	-48.9	16.9	0.00e+00	0	39	0	111149056	63	5086
2026-01-21 01:05:03.22	359.74	12.95	-46.1	-49.2	16.7	0.00e+00	0	39	0	113246208	63	5259
2026-01-21 01:05:04.22	359.63	13.03	-46.1	-49.0	16.8	0.00e+00	0	39	0	115343360	63	5158
2026-01-21 01:05:05.21	359.52	13.11	-46.2	-49.2	16.7	0.00e+00	0	39	0	116391936	63	5220
2026-01-21 01:05:06.20	359.41	13.19	-46.3	-49.3	16.5	0.00e+00	0	39	0	118489088	63	5326
2026-01-21 01:05:07.20	359.30	13.27	-46.1	-49.1	16.8	0.00e+00	0	39	0	120586240	63	5184
2026-01-21 01:05:08.19	359.19	13.35	-46.3	-49.2	16.6	0.00e+00	0	39	0	122683392	63	5270
2026-01-21 01:05:09.19	359.07	13.44	-46.3	-49.3	16.6	0.00e+00	0	39	0	124780544	63	5305
2026-01-21 01:05:10.19	358.96	13.52	-46.3	-49.3	16.6	0.00e+00	0	39	0	125829120	63	5319
2026-01-21 01:05:11.18	358.85	13.60	-46.1	-49.1	16.8	0.00e+00	0	39	0	127926272	63	5172
2026-01-21 01:05:12.18	358.73	13.68	-46.1	-48.9	16.9	0.00e+00	0	39	0	130023424	63	5092
2026-01-21 01:05:13.17	358.62	13.77	-46.3	-49.1	16.8	0.00e+00	0	39	0	132120576	63	5211
2026-01-21 01:05:14.17	358.50	13.85	-46.2	-49.0	16.9	0.00e+00	0	39	0	133169152	63	5128
2026-01-21 01:05:15.16	358.39	13.93	-46.0	-48.8	17.1	0.00e+00	0	39	0	135266304	63	5009
2026-01-21 01:05:16.16	358.27	14.01	-46.2	-49.1	16.8	0.00e+00	0	39	0	137363456	63	5195
2026-01-21 01:05:17.15	358.15	14.10	-45.9	-48.6	17.2	0.00e+00	0	39	0	139460608	63	4925
2026-01-21 01:05:18.15	358.04	14.18	-46.0	-48.9	17.0	0.00e+00	0	39	0	141557760	63	5046
2026-01-21 01:05:19.14	357.92	14.26	-45.9	-48.6	17.3	0.00e+00	0	39	0	142606336	63	4907
2026-01-21 01:05:20.13	357.80	14.35	-45.8	-48.5	17.3	0.00e+00	0	39	0	144703488	63	4862
2026-01-21 01:05:21.13	357.68	14.43	-46.2	-49.1	16.8	0.00e+00	0	39	0	146800640	63	5162
2026-01-21 01:05:22.12	357.56	14.52	-46.1	-48.9	16.9	0.00e+00	0	39	0	148897792	63	5087
2026-01-21 01:05:23.12	357.44	14.60	-46.2	-49.0	16.9	0.00e+00	0	39	0	149946368	63	5115
2026-01-21 01:05:24.11	357.31	14.68	-46.3	-49.1	16.8	0.00e+00	0	39	0	152043520	63	5212
2026-01-21 01:05:25.11	357.19	14.77	-45.9	-48.6	17.3	0.00e+00	0	39	0	154140672	63	4895
2026-01-21 01:05:26.10	357.07	14.85	-46.1	-48.8	17.1	0.00e+00	0	39	0	156237824	63	5034
2026-01-21 01:05:27.10	356.94	14.94	-46.0	-48.7	17.2	0.00e+00	0	39	0	158334976	63	4961
2026-01-21 01:05:28.09	356.82	15.02	-46.1	-48.8	17.1	0.00e+00	0	40	0	159383552	63	5018
2026-01-21 01:05:29.09	356.69	15.11	-45.9	-48.6	17.2	0.00e+00	0	39	0	161480704	63	4918
2026-01-21 01:05:30.08	356.57	15.19	-46.0	-48.8	17.1	0.00e+00	0	39	0	163577856	63	4995
2026-01-21 01:05:31.07	356.44	15.28	-46.0	-48.7	17.1	0.00e+00	0	40	0	165675008	63	4979
2026-01-21 01:05:32.07	356.31	15.36	-45.8	-48.5	17.4	0.00e+00	0	39	0	166723584	63	4846
2026-01-21 01:05:33.06	356.18	15.45	-45.6	-48.3	17.6	0.00e+00	0	39	0	168820736	63	4736
2026-01-21 01:05:34.05	356.05	15.53	-46.1	-49.0	16.9	0.00e+00	0	39	0	170917888	63	5119
2026-01-21 01:05:35.05	355.92	15.62	-46.2	-49.2	16.8	0.00e+00	0	39	0	173015040	63	5231
2026-01-21 01:05:36.05	355.79	15.71	-46.1	-49.0	16.9	0.00e+00	0	39	0	175112192	63	5149
2026-01-21 01:05:37.04	355.66	15.79	-46.4	-49.4	16.6	0.00e+00	0	39	0	176160768	63	5354
2026-01-21 01:05:38.04	355.53	15.88	-46.3	-49.3	16.6	0.00e+00	0	39	0	178257920	63	5325
2026-01-21 01:05:39.03	355.39	15.97	-46.0	-48.9	17.1	0.00e+00	0	39	0	180355072	63	5056
2026-01-21 01:05:40.03	355.26	16.05	-46.3	-49.2	16.7	0.00e+00	0	39	0	182452224	63	5272
2026-01-21 01:05:41.02	355.12	16.14	-45.9	-48.7	17.2	0.00e+00	0	39	0	183500800	63	4981
2026-01-21 01:05:42.02	354.99	16.23	-46.0	-48.8	17.2	0.00e+00	0	39	0	185597952	63	5005
2026-01-21 01:05:43.01	354.85	16.32	-46.0	-48.8	17.2	0.00e+00	0	39	0	187695104	63	5026
2026-01-21 01:05:44.00	354.71	16.40	-45.8	-48.6	17.4	0.00e+00	0	39	0	189792256	63	4871
2026-01-21 01:05:45.00	354.58	16.49	-46.3	-49.2	16.7	0.00e+00	0	39	0	191889408	63	5271
2026-01-21 01:05:45.99	354.44	16.58	-46.1	-48.9	17.1	0.00e+00	0	39	0	192937984	63	5078
2026-01-21 01:05:46.99	354.30	16.67	-46.5	-49.4	16.6	0.00e+00	0	40	0	195035136	63	5387
2026-01-21 01:05:47.98	354.16	16.75	-46.3	-49.1	16.9	0.00e+00	0	39	0	197132288	63	5178
2026-01-21 01:05:48.98	354.01	16.84	-46.3	-49.1	16.9	0.00e+00	0	39	0	199229440	63	5206
2026-01-21 01:05:49.97	353.87	16.93	-46.6	-49.6	16.4	0.00e+00	0	39	0	200278016	63	5497
2026-01-21 01:05:50.97	353.73	17.02	-46.8	-49.9	16.0	0.00e+00	0	39	0	202375168	64	5380
2026-01-21 01:05:51.96	353.58	17.11	-47.2	-50.4	15.6	0.00e+00	0	39	0	204472320	65	5370
2026-01-21 01:05:52.95	353.44	17.19	-47.1	-50.4	15.6	0.00e+00	0	39	0	206569472	65	5376
2026-01-21 01:05:53.95	353.29	17.28	-46.9	-50.1	15.9	0.00e+00	0	39	0	208666624	65	5199
2026-01-21 01:05:54.94	353.15	17.37	-46.6	-49.7	16.3	0.00e+00	0	39	0	209715200	65	4963
2026-01-21 01:05:55.94	353.00	17.46	-46.7	-50.0	16.0	0.00e+00	0	39	0	211812352	65	5105
2026-01-21 01:05:56.93	352.85	17.55	-46.4	-49.4	16.5	0.00e+00	0	39	0	213909504	64	5085
2026-01-21 01:05:57.93	352.70	17.64	-46.4	-49.5	16.4	0.00e+00	0	39	0	216006656	64	5155
2026-01-21 01:05:58.92	352.55	17.73	-46.4	-49.5	16.5	0.00e+00	0	40	0	217055232	64	5159
2026-01-21 01:05:59.92	352.40	17.82	-46.7	-50.0	16.0	0.00e+00	0	39	0	219152384	64	5411
2026-01-21 01:06:00.91	352.25	17.91	-45.2	-47.9	18.1	0.00e+00	0	39	0	221249536	62	4777
2026-01-21 01:06:01.90	352.10	18.00	-46.8	-50.2	15.8	0.00e+00	0	40	0	223346688	64	5568
2026-01-21 01:06:02.90	351.94	18.09	-46.2	-49.2	16.7	0.00e+00	0	39	0	225443840	64	4948
2026-01-21 01:06:03.90	351.78	18.18	-46.2	-49.2	16.7	0.00e+00	0	39	0	226492416	64	4982
2026-01-21 01:06:04.89	351.63	18.27	-46.1	-49.2	16.7	0.00e+00	0	39	0	228589568	64	4930
2026-01-21 01:06:05.89	351.47	18.36	-46.3	-49.4	16.6	0.00e+00	0	39	0	230686720	64	5082
2026-01-21 01:06:06.88	351.31	18.45	-46.5	-49.8	16.3	0.00e+00	0	40	0	232783872	64	5299
2026-01-21 01:06:07.87	351.16	18.54	-46.5	-49.8	16.2	0.00e+00	0	39	0	233832448	64	5334
2026-01-21 01:06:08.87	351.00	18.63	-46.2	-49.3	16.7	0.00e+00	0	39	0	235929600	64	5004
2026-01-21 01:06:09.86	350.84	18.72	-46.4	-49.6	16.4	0.00e+00	0	40	0	238026752	64	5176
2026-01-21 01:06:10.86	350.67	18.81	-46.5	-49.7	16.3	0.00e+00	0	39	0	240123904	64	5278
2026-01-21 01:06:11.85	350.51	18.90	-46.2	-49.2	16.7	0.00e+00	0	39	0	242221056	64	4977
2026-01-21 01:06:12.84	350.35	18.99	-46.0	-48.9	17.1	0.00e+00	0	40	0	243269632	64	4795
2026-01-21 01:06:13.84	350.18	19.08	-46.2	-49.1	17.0	0.00e+00	0	39	0	245366784	63	5169
2026-01-21 01:06:14.83	350.02	19.17	-46.0	-48.8	17.2	0.00e+00	0	39	0	247463936	63	5029
2026-01-21 01:06:15.83	349.85	19.26	-45.9	-48.7	17.4	0.00e+00	0	39	0	249561088	63	4948
2026-01-21 01:06:16.82	349.68	19.35	-45.9	-48.7	17.4	0.00e+00	0	39	0	250609664	63	4928
2026-01-21 01:06:17.82	349.51	19.45	-46.1	-48.8	17.3	0.00e+00	0	39	0	252706816	63	5009
2026-01-21 01:06:18.81	349.34	19.54	-46.2	-49.0	17.1	0.00e+00	0	39	0	254803968	63	5106
2026-01-21 01:06:19.81	349.17	19.63	-46.2	-49.0	17.1	0.00e+00	0	39	0	256901120	63	5109
2026-01-21 01:06:20.80	349.00	19.72	-46.3	-49.2	16.9	0.00e+00	0	39	0	258998272	63	5244
2026-01-21 01:06:21.80	348.83	19.81	-46.4	-49.3	16.7	0.00e+00	0	39	0	260046848	63	5323
2026-01-21 01:06:22.79	348.65	19.90	-46.4	-49.3	16.8	0.00e+00	0	39	0	262144000	63	5317
2026-01-21 01:06:23.78	348.48	19.99	-46.4	-49.2	16.9	0.00e+00	0	39	0	264241152	63	5245
2026-01-21 01:06:24.78	348.30	20.09	-46.3	-49.2	16.9	0.00e+00	0	39	0	266338304	63	5237
2026-01-21 01:06:25.77	348.13	20.18	-46.3	-49.1	17.0	0.00e+00	0	39	0	267386880	63	5186
2026-01-21 01:06:26.77	347.95	20.27	-46.4	-49.3	16.8	0.00e+00	0	39	0	269484032	63	5289
2026-01-21 01:06:27.76	347.77	20.36	-46.5	-49.3	16.8	0.00e+00	0	40	0	271581184	63	5292
2026-01-21 01:06:28.76	347.59	20.45	-46.6	-49.4	16.7	0.00e+00	0	39	0	273678336	63	5382
2026-01-21 01:06:29.75	347.41	20.55	-46.6	-49.5	16.6	0.00e+00	0	40	0	275775488	64	5107
2026-01-21 01:06:30.75	347.22	20.64	-46.4	-49.2	16.8	0.00e+00	0	39	0	276824064	64	4976
2026-01-21 01:06:31.74	347.04	20.73	-46.3	-49.1	16.9	0.00e+00	0	39	0	278921216	64	4905
2026-01-21 01:06:32.74	346.86	20.82	-46.0	-48.8	17.3	0.00e+00	0	39	0	281018368	63	4988
2026-01-21 01:06:33.73	346.67	20.91	-46.0	-48.7	17.3	0.00e+00	0	39	0	283115520	63	4952
2026-01-21 01:06:34.73	346.48	21.01	-46.0	-48.7	17.4	0.00e+00	0	40	0	284164096	63	4937
2026-01-21 01:06:35.72	346.29	21.10	-45.7	-48.4	17.7	0.00e+00	0	39	0	286261248	63	4762
2026-01-21 01:06:36.71	346.11	21.19	-45.5	-48.0	17.9	0.00e+00	0	39	0	288358400	63	4594
2026-01-21 01:06:37.71	345.91	21.28	-45.4	-47.9	18.1	0.00e+00	0	39	0	290455552	62	4790
2026-01-21 01:06:38.71	345.72	21.37	-45.4	-47.8	18.2	0.00e+00	0	40	0	292552704	62	4723
2026-01-21 01:06:39.70	345.53	21.47	-45.8	-48.2	17.8	0.00e+00	0	40	0	293601280	62	4980
2026-01-21 01:06:40.70	345.33	21.56	-45.7	-48.2	17.8	0.00e+00	0	39	0	295698432	62	4946
2026-01-21 01:06:41.69	345.14	21.65	-46.0	-48.6	17.4	0.00e+00	0	39	0	297795584	62	5205
2026-01-21 01:06:42.68	344.94	21.74	-46.1	-48.9	17.3	0.00e+00	0	39	0	299892736	63	5043
2026-01-21 01:06:43.68	344.75	21.83	-46.0	-48.8	17.2	0.00e+00	0	40	0	301989888	63	5037
2026-01-21 01:06:44.68	344.55	21.93	-45.8	-48.7	17.3	0.00e+00	0	40	0	303038464	63	4953
2026-01-21 01:06:45.67	344.35	22.02	-45.8	-48.9	17.2	0.00e+00	0	39	0	305135616	63	5084
2026-01-21 01:06:46.66	344.15	22.11	-45.8	-48.8	17.3	0.00e+00	0	39	0	307232768	63	5004
2026-01-21 01:06:47.66	343.94	22.20	-45.8	-48.8	17.3	0.00e+00	0	40	0	309329920	63	5012
2026-01-21 01:06:48.65	343.74	22.29	-46.0	-48.9	17.2	0.00e+00	0	40	0	310378496	63	5076
2026-01-21 01:06:49.65	343.53	22.38	-45.6	-48.3	17.8	0.00e+00	0	40	0	312475648	63	4726
2026-01-21 01:06:50.64	343.33	22.47	-45.5	-48.1	17.9	0.00e+00	0	39	0	314572800	62	4907
2026-01-21 01:06:51.64	343.12	22.57	-45.6	-48.2	17.8	0.00e+00	0	39	0	316669952	62	4955
2026-01-21 01:06:52.63	342.91	22.66	-45.8	-48.4	17.6	0.00e+00	0	39	0	318767104	62	5092
2026-01-21 01:06:53.62	342.70	22.75	-45.9	-48.6	17.5	0.00e+00	0	40	0	319815680	62	5188
2026-01-21 01:06:54.62	342.49	22.84	-46.0	-48.9	17.2	0.00e+00	0	39	0	321912832	62	5357
2026-01-21 01:06:55.61	342.28	22.93	-45.9	-48.9	17.2	0.00e+00	0	39	0	324009984	62	5359
2026-01-21 01:06:56.61	342.07	23.02	-46.0	-49.1	17.0	0.00e+00	0	39	0	326107136	62	5479
2026-01-21 01:06:57.60	341.85	23.11	-46.1	-49.2	16.9	0.00e+00	0	40	0	327155712	62	5545
2026-01-21 01:06:58.60	341.64	23.20	-46.1	-49.1	17.0	0.00e+00	0	40	0	329252864	63	5167
2026-01-21 01:06:59.59	341.42	23.29	-46.3	-49.3	16.8	0.00e+00	0	39	0	331350016	63	5314
2026-01-21 01:07:00.59	341.20	23.39	-46.1	-49.0	17.2	0.00e+00	0	39	0	333447168	63	5101
2026-01-21 01:07:01.58	340.98	23.48	-45.9	-48.7	17.4	0.00e+00	0	40	0	335544320	63	4927
2026-01-21 01:07:02.58	340.76	23.57	-46.1	-48.8	17.3	0.00e+00	0	39	0	336592896	63	5003
2026-01-21 01:07:03.57	340.54	23.66	-46.1	-48.9	17.2	0.00e+00	0	39	0	338690048	63	5084
2026-01-21 01:07:04.57	340.31	23.75	-46.1	-49.0	17.2	0.00e+00	0	39	0	340787200	63	5107
2026-01-21 01:07:05.56	340.09	23.84	-46.4	-49.5	16.7	0.00e+00	0	39	0	342884352	63	5433
2026-01-21 01:07:06.56	339.86	23.93	-46.3	-49.3	16.7	0.00e+00	0	39	0	343932928	64	5040
2026-01-21 01:07:07.55	339.63	24.01	-46.6	-49.9	16.3	0.00e+00	0	39	0	346030080	64	5350
2026-01-21 01:07:08.55	339.40	24.10	-46.8	-50.2	15.9	0.00e+00	0	39	0	348127232	64	5553
2026-01-21 01:07:09.54	339.17	24.19	-46.2	-49.4	16.7	0.00e+00	0	39	0	350224384	64	5052
2026-01-21 01:07:10.54	338.94	24.28	-46.1	-49.1	17.0	0.00e+00	0	39	0	352321536	64	4886
2026-01-21 01:07:11.53	338.71	24.37	-45.7	-48.5	17.4	0.00e+00	0	39	0	353370112	63	4827
2026-01-21 01:07:12.53	338.47	24.46	-45.7	-48.4	17.7	0.00e+00	0	40	0	355467264	63	4782
2026-01-21 01:07:13.52	338.24	24.55	-45.7	-48.3	17.7	0.00e+00	0	39	0	357564416	63	4733
2026-01-21 01:07:14.52	338.00	24.63	-45.6	-48.1	17.9	0.00e+00	0	39	0	359661568	63	4637
2026-01-21 01:07:15.51	337.76	24.72	-45.8	-48.4	17.7	0.00e+00	0	39	0	360710144	63	4771
2026-01-21 01:07:16.51	337.52	24.81	-45.9	-48.6	17.5	0.00e+00	0	39	0	362807296	63	4873
2026-01-21 01:07:17.50	337.28	24.90	-45.9	-48.6	17.4	0.00e+00	0	39	0	364904448	63	4903
2026-01-21 01:07:18.50	337.04	24.98	-45.6	-48.2	17.8	0.00e+00	0	40	0	367001600	63	4698
2026-01-21 01:07:19.49	336.79	25.07	-45.2	-47.9	18.1	0.00e+00	0	39	0	369098752	62	4761
2026-01-21 01:07:20.48	336.55	25.16	-44.9	-47.5	18.3	0.00e+00	0	39	0	370147328	61	4851
2026-01-21 01:07:21.48	336.30	25.24	-44.9	-47.4	18.5	0.00e+00	0	39	0	372244480	61	4802
2026-01-21 01:07:22.48	336.05	25.33	-44.8	-47.3	18.6	0.00e+00	0	39	0	374341632	61	4759
2026-01-21 01:07:23.47	335.81	25.41	-44.7	-47.2	18.7	0.00e+00	0	40	0	376438784	61	4670
2026-01-21 01:07:24.46	335.56	25.50	-44.6	-47.0	18.9	0.00e+00	0	39	0	377487360	61	4567
2026-01-21 01:07:25.46	335.30	25.58	-44.9	-47.4	18.6	0.00e+00	0	40	0	379584512	61	4766
2026-01-21 01:07:26.45	335.05	25.67	-45.2	-47.7	18.3	0.00e+00	0	40	0	381681664	61	4953
2026-01-21 01:07:27.45	334.79	25.75	-45.5	-48.0	18.0	0.00e+00	0	39	0	383778816	61	5143
2026-01-21 01:07:28.44	334.54	25.84	-45.7	-48.3	17.7	0.00e+00	0	40	0	385875968	62	5041
2026-01-21 01:07:29.44	334.28	25.92	-45.7	-48.3	17.8	0.00e+00	0	40	0	386924544	62	4991
2026-01-21 01:07:30.43	334.02	26.00	-45.6	-48.2	17.8	0.00e+00	0	39	0	389021696	62	4930
2026-01-21 01:07:31.43	333.76	26.08	-45.7	-48.3	17.8	0.00e+00	0	39	0	391118848	62	5001
2026-01-21 01:07:32.42	333.50	26.17	-45.8	-48.4	17.6	0.00e+00	0	39	0	393216000	62	5075
2026-01-21 01:07:33.41	333.24	26.25	-45.6	-48.2	17.9	0.00e+00	0	39	0	394264576	62	4927
2026-01-21 01:07:34.41	332.97	26.33	-45.7	-48.3	17.8	0.00e+00	0	40	0	396361728	62	5006
2026-01-21 01:07:35.40	332.71	26.41	-45.8	-48.5	17.6	0.00e+00	0	39	0	398458880	62	5130
2026-01-21 01:07:36.40	332.44	26.49	-45.9	-48.6	17.5	0.00e+00	0	39	0	400556032	62	5201
2026-01-21 01:07:37.39	332.17	26.57	-45.9	-48.6	17.4	0.00e+00	0	39	0	402653184	62	5203
2026-01-21 01:07:38.39	331.90	26.65	-45.8	-48.7	17.4	0.00e+00	0	40	0	403701760	62	5231
2026-01-21 01:07:39.38	331.63	26.73	-45.6	-48.5	17.6	0.00e+00	0	40	0	405798912	62	5103
2026-01-21 01:07:40.38	331.36	26.81	-45.3	-48.3	17.8	0.00e+00	0	40	0	407896064	62	4992
2026-01-21 01:07:41.37	331.09	26.89	-45.0	-47.9	18.2	0.00e+00	0	39	0	409993216	62	4764
2026-01-21 01:07:42.36	330.81	26.96	-45.2	-48.0	18.0	0.00e+00	0	39	0	411041792	62	4844
2026-01-21 01:07:43.36	330.53	27.04	-45.4	-48.3	17.8	0.00e+00	0	40	0	413138944	62	4985
2026-01-21 01:07:44.35	330.26	27.12	-45.7	-48.5	17.6	0.00e+00	0	40	0	415236096	62	5124
2026-01-21 01:07:45.35	329.98	27.19	-45.8	-48.6	17.5	0.00e+00	0	39	0	417333248	62	5201
2026-01-21 01:07:46.34	329.70	27.27	-45.7	-48.3	17.7	0.00e+00	0	39	0	419430400	62	5037
2026-01-21 01:07:47.34	329.41	27.34	-45.7	-48.3	17.8	0.00e+00	0	40	0	420478976	62	5000
2026-01-21 01:07:48.33	329.13	27.42	-45.7	-48.3	17.7	0.00e+00	0	39	0	422576128	62	5014
2026-01-21 01:07:49.33	328.85	27.49	-45.6	-48.2	17.9	0.00e+00	0	40	0	424673280	62	4928
2026-01-21 01:07:50.32	328.56	27.56	-45.8	-48.4	17.7	0.00e+00	0	39	0	426770432	62	5086
2026-01-21 01:07:51.32	328.27	27.64	-46.0	-48.8	17.3	0.00e+00	0	39	0	427819008	62	5300
2026-01-21 01:07:52.31	327.98	27.71	-46.4	-49.4	16.8	0.00e+00	0	39	0	429916160	63	5349
2026-01-21 01:07:53.31	327.69	27.78	-46.4	-49.5	16.6	0.00e+00	0	40	0	432013312	63	5463
2026-01-21 01:07:54.30	327.40	27.85	-46.6	-49.9	16.2	0.00e+00	0	40	0	434110464	64	5383
2026-01-21 01:07:55.30	327.11	27.92	-46.6	-50.0	16.1	0.00e+00	0	40	0	436207616	64	5460
2026-01-21 01:07:56.29	326.82	27.99	-46.5	-49.9	16.2	0.00e+00	0	40	0	437256192	64	5374
2026-01-21 01:07:57.29	326.52	28.06	-46.5	-49.7	16.3	0.00e+00	0	39	0	439353344	64	5272
2026-01-21 01:07:58.28	326.23	28.13	-46.4	-49.5	16.6	0.00e+00	0	40	0	441450496	64	5132
2026-01-21 01:07:59.28	325.93	28.19	-46.1	-48.9	17.2	0.00e+00	0	39	0	443547648	64	4773
2026-01-21 01:08:00.27	325.63	28.26	-45.8	-48.5	17.6	0.00e+00	0	40	0	444596224	63	4850
2026-01-21 01:08:01.27	325.33	28.33	-45.8	-48.5	17.5	0.00e+00	0	40	0	446693376	63	4853
2026-01-21 01:08:02.26	325.03	28.39	-45.5	-48.1	17.9	0.00e+00	0	40	0	448790528	62	4917
2026-01-21 01:08:03.26	324.72	28.46	-45.6	-48.4	17.7	0.00e+00	0	40	0	450887680	62	5071
2026-01-21 01:08:04.25	324.42	28.52	-45.8	-48.7	17.4	0.00e+00	0	40	0	452984832	62	5266
2026-01-21 01:08:05.24	324.12	28.58	-45.9	-48.8	17.3	0.00e+00	0	40	0	454033408	62	5338
2026-01-21 01:08:06.24	323.81	28.65	-45.9	-48.7	17.4	0.00e+00	0	40	0	456130560	63	4956
2026-01-21 01:08:07.23	323.50	28.71	-45.8	-48.5	17.6	0.00e+00	0	39	0	458227712	63	4834
2026-01-21 01:08:08.23	323.19	28.77	-45.9	-48.6	17.5	0.00e+00	0	40	0	460324864	63	4910
2026-01-21 01:08:09.22	322.88	28.83	-46.1	-48.9	17.3	0.00e+00	0	40	0	461373440	63	5062
2026-01-21 01:08:10.21	322.57	28.89	-46.4	-49.4	16.9	0.00e+00	0	40	0	463470592	63	5344
2026-01-21 01:08:11.21	322.26	28.94	-46.4	-49.5	16.7	0.00e+00	0	39	0	465567744	63	5413
2026-01-21 01:08:12.20	321.95	29.00	-46.6	-49.7	16.4	0.00e+00	0	39	0	467664896	64	5252
2026-01-21 01:08:13.20	321.63	29.06	-46.6	-49.8	16.3	0.00e+00	0	40	0	469762048	64	5310
2026-01-21 01:08:14.19	321.32	29.11	-46.8	-50.0	16.0	0.00e+00	0	40	0	470810624	64	5425
2026-01-21 01:08:15.19	321.00	29.17	-46.7	-49.8	16.3	0.00e+00	0	40	0	472907776	64	5285
2026-01-21 01:08:16.18	320.68	29.22	-46.4	-49.4	16.7	0.00e+00	0	40	0	475004928	64	5063
2026-01-21 01:08:17.18	320.36	29.28	-46.1	-48.9	17.1	0.00e+00	0	40	0	477102080	64	4777
2026-01-21 01:08:18.17	320.04	29.33	-46.1	-48.9	17.2	0.00e+00	0	40	0	478150656	63	5082
2026-01-21 01:08:19.16	319.72	29.38	-46.0	-48.7	17.4	0.00e+00	0	40	0	480247808	63	4949
2026-01-21 01:08:20.16	319.40	29.43	-45.8	-48.4	17.8	0.00e+00	0	40	0	482344960	63	4769
2026-01-21 01:08:21.15	319.08	29.48	-45.7	-48.2	17.8	0.00e+00	0	40	0	484442112	63	4703
2026-01-21 01:08:22.15	318.75	29.53	-45.8	-48.4	17.7	0.00e+00	0	40	0	486539264	63	4783
2026-01-21 01:08:23.14	318.43	29.57	-46.1	-48.8	17.3	0.00e+00	0	40	0	487587840	63	5018
2026-01-21 01:08:24.14	318.10	29.62	-46.4	-49.2	16.9	0.00e+00	0	39	0	489684992	63	5246
2026-01-21 01:08:25.13	317.78	29.67	-46.5	-49.3	16.9	0.00e+00	0	40	0	491782144	63	5304
2026-01-21 01:08:26.12	317.45	29.71	-46.2	-48.9	17.2	0.00e+00	0	40	0	493879296	63	5047
2026-01-21 01:08:27.12	317.12	29.75	-45.5	-48.1	18.0	0.00e+00	0	40	0	494927872	63	4606
2026-01-21 01:08:28.11	316.79	29.80	-45.0	-47.4	18.6	0.00e+00	0	39	0	497025024	62	4519
2026-01-21 01:08:29.11	316.46	29.84	-44.7	-47.1	18.8	0.00e+00	0	39	0	499122176	61	4642
2026-01-21 01:08:30.10	316.13	29.88	-44.8	-47.3	18.7	0.00e+00	0	40	0	501219328	61	4719
2026-01-21 01:08:31.10	315.80	29.92	-44.9	-47.5	18.4	0.00e+00	0	40	0	503316480	61	4835
2026-01-21 01:08:32.09	315.47	29.96	-45.4	-48.1	18.0	0.00e+00	0	40	0	504365056	61	5176
2026-01-21 01:08:33.09	315.13	30.00	-45.5	-48.2	17.9	0.00e+00	0	39	0	506462208	61	5229
2026-01-21 01:08:34.08	314.80	30.03	-45.5	-48.1	18.0	0.00e+00	0	40	0	508559360	61	5192
2026-01-21 01:08:35.07	314.46	30.07	-45.7	-48.3	17.8	0.00e+00	0	40	0	510656512	62	5012
2026-01-21 01:08:36.07	314.13	30.10	-45.9	-48.5	17.6	0.00e+00	0	40	0	511705088	62	5112
2026-01-21 01:08:37.06	313.79	30.13	-46.1	-48.7	17.4	0.00e+00	0	40	0	513802240	62	5265
2026-01-21 01:08:38.06	313.45	30.17	-46.6	-49.4	16.6	0.00e+00	0	40	0	515899392	64	5090
2026-01-21 01:08:39.05	313.12	30.20	-47.3	-50.4	15.8	0.00e+00	0	40	0	517996544	65	5390
2026-01-21 01:08:40.05	312.77	30.23	-47.7	-51.1	15.2	0.00e+00	0	40	0	520093696	66	5477
2026-01-21 01:08:41.04	312.44	30.26	-48.0	-51.6	14.6	1.50e-06	0	40	0	521142272	66	5819
2026-01-21 01:08:42.03	312.10	30.28	-48.2	-51.8	14.4	0.00e+00	0	40	0	523239424	67	5602
2026-01-21 01:08:43.03	311.76	30.31	-47.8	-51.3	14.9	0.00e+00	0	39	0	525336576	67	5291
2026-01-21 01:08:44.02	311.42	30.34	-47.6	-50.8	15.3	0.00e+00	0	39	0	527433728	67	5034
2026-01-21 01:08:45.02	311.07	30.36	-47.7	-51.0	15.2	0.00e+00	0	40	0	528482304	66	5447
2026-01-21 01:08:46.01	310.73	30.39	-47.1	-50.2	16.0	0.00e+00	0	39	0	530579456	66	4953
2026-01-21 01:08:47.01	310.39	30.41	-46.8	-49.8	16.3	0.00e+00	0	40	0	532676608	65	4991
2026-01-21 01:08:48.00	310.05	30.43	-46.7	-49.6	16.5	0.00e+00	0	39	0	534773760	65	4921
2026-01-21 01:08:48.99	309.70	30.45	-46.3	-49.0	17.0	0.00e+00	0	40	0	536870912	64	4870
2026-01-21 01:08:49.99	309.36	30.47	-45.9	-48.5	17.6	0.00e+00	0	40	0	537919488	63	4862
2026-01-21 01:08:50.98	309.02	30.48	-45.9	-48.5	17.5	0.00e+00	0	40	0	540016640	63	4826
2026-01-21 01:08:51.98	308.67	30.50	-45.8	-48.3	17.8	0.00e+00	0	39	0	542113792	63	4747
2026-01-21 01:08:52.97	308.33	30.52	-46.1	-48.7	17.4	0.00e+00	0	40	0	544210944	63	4946
2026-01-21 01:08:53.97	307.98	30.53	-46.4	-49.2	17.0	0.00e+00	0	40	0	545259520	63	5236
2026-01-21 01:08:54.96	307.63	30.54	-46.6	-49.4	16.7	0.00e+00	0	40	0	547356672	64	5083
2026-01-21 01:08:55.95	307.29	30.56	-46.7	-49.6	16.5	0.00e+00	0	40	0	549453824	64	5163
2026-01-21 01:08:56.95	306.94	30.57	-46.7	-49.6	16.5	0.00e+00	0	40	0	551550976	64	5194
2026-01-21 01:08:57.95	306.59	30.58	-46.7	-49.5	16.6	0.00e+00	0	39	0	553648128	64	5126
2026-01-21 01:08:58.94	306.25	30.58	-46.8	-49.6	16.4	0.00e+00	0	40	0	554696704	64	5213
2026-01-21 01:08:59.94	305.90	30.59	-47.0	-50.0	16.1	0.00e+00	0	40	0	556793856	64	5425
2026-01-21 01:09:00.93	305.55	30.60	-47.2	-50.3	15.8	0.00e+00	0	40	0	558891008	65	5295
2026-01-21 01:09:01.92	305.21	30.60	-47.3	-50.5	15.7	0.00e+00	0	40	0	560988160	65	5405
2026-01-21 01:09:02.92	304.86	30.61	-47.4	-50.6	15.6	0.00e+00	0	39	0	562036736	65	5478
2026-01-21 01:09:03.92	304.51	30.61	-47.1	-50.1	16.0	0.00e+00	0	40	0	564133888	65	5199
2026-01-21 01:09:04.91	304.16	30.61	-46.6	-49.4	16.6	0.00e+00	0	40	0	566231040	65	4810
2026-01-21 01:09:05.90	303.82	30.61	-46.1	-48.7	17.4	0.00e+00	0	39	0	568328192	64	4657
2026-01-21 01:09:06.90	303.47	30.61	-45.6	-48.1	17.9	0.00e+00	0	40	0	570425344	63	4610
2026-01-21 01:09:07.90	303.12	30.61	-45.7	-48.1	17.9	0.00e+00	0	39	0	571473920	63	4629
2026-01-21 01:09:08.89	302.77	30.60	-45.9	-48.5	17.6	0.00e+00	0	40	0	573571072	63	4834
2026-01-21 01:09:09.89	302.42	30.60	-46.3	-49.0	17.1	0.00e+00	0	40	0	575668224	63	5154
2026-01-21 01:09:10.88	302.08	30.59	-46.7	-49.6	16.5	0.00e+00	0	40	0	577765376	64	5192
2026-01-21 01:09:11.88	301.73	30.59	-47.0	-50.1	15.9	0.00e+00	0	39	0	579862528	65	5213
2026-01-21 01:09:12.87	301.39	30.58	-47.2	-50.4	15.7	0.00e+00	0	39	0	580911104	65	5384
2026-01-21 01:09:13.87	301.04	30.57	-47.1	-50.3	15.8	0.00e+00	0	40	0	583008256	65	5310
2026-01-21 01:09:14.86	300.69	30.56	-47.0	-50.1	16.0	0.00e+00	0	40	0	585105408	65	5210
2026-01-21 01:09:15.86	300.34	30.55	-47.0	-50.1	16.0	0.00e+00	0	40	0	587202560	65	5174
2026-01-21 01:09:16.85	300.00	30.53	-46.8	-49.8	16.4	0.00e+00	0	39	0	588251136	65	5001
2026-01-21 01:09:17.84	299.66	30.52	-46.5	-49.3	16.7	0.00e+00	0	40	0	590348288	65	4710
2026-01-21 01:09:18.84	299.31	30.50	-46.0	-48.6	17.4	0.00e+00	0	40	0	592445440	63	4926
2026-01-21 01:09:19.83	298.96	30.49	-46.0	-48.6	17.5	0.00e+00	0	39	0	594542592	63	4878
2026-01-21 01:09:20.83	298.62	30.47	-46.0	-48.6	17.6	0.00e+00	0	40	0	596639744	63	4874
2026-01-21 01:09:21.82	298.28	30.45	-46.4	-49.1	17.0	0.00e+00	0	40	0	597688320	63	5216
2026-01-21 01:09:22.82	297.93	30.43	-46.7	-49.6	16.5	0.00e+00	0	39	0	599785472	64	5182
2026-01-21 01:09:23.81	297.59	30.41	-46.9	-49.9	16.2	0.00e+00	0	39	0	601882624	64	5372
2026-01-21 01:09:24.81	297.24	30.39	-46.6	-49.5	16.7	0.00e+00	0	40	0	603979776	64	5104
2026-01-21 01:09:25.80	296.90	30.37	-46.4	-49.2	16.9	0.00e+00	0	39	0	605028352	64	4937
2026-01-21 01:09:26.80	296.56	30.34	-46.2	-48.9	17.1	0.00e+00	0	39	0	607125504	64	4813
2026-01-21 01:09:27.79	296.22	30.32	-46.5	-49.3	16.8	0.00e+00	0	40	0	609222656	64	5008
2026-01-21 01:09:28.79	295.88	30.29	-46.4	-49.1	17.0	0.00e+00	0	40	0	611319808	64	4895
2026-01-21 01:09:29.78	295.54	30.26	-46.6	-49.4	16.7	0.00e+00	0	39	0	613416960	64	5078
2026-01-21 01:09:30.77	295.20	30.23	-47.0	-50.0	16.1	0.00e+00	0	39	0	614465536	64	5447
2026-01-21 01:09:31.77	294.86	30.20	-47.0	-50.1	16.0	0.00e+00	0	40	0	616562688	64	5474
2026-01-21 01:09:32.76	294.52	30.17	-46.6	-49.4	16.6	0.00e+00	0	39	0	618659840	64	5097
2026-01-21 01:09:33.76	294.18	30.14	-46.0	-48.6	17.4	0.00e+00	0	40	0	620756992	64	4624
2026-01-21 01:09:34.75	293.84	30.11	-45.6	-48.1	17.9	0.00e+00	0	40	0	621805568	63	4648
2026-01-21 01:09:35.75	293.51	30.07	-45.7	-48.3	17.9	0.00e+00	0	39	0	623902720	62	4988
2026-01-21 01:09:36.74	293.17	30.04	-45.5	-48.0	18.1	0.00e+00	0	39	0	625999872	62	4846
2026-01-21 01:09:37.74	292.84	30.00	-45.8	-48.4	17.7	0.00e+00	0	40	0	628097024	62	5088
2026-01-21 01:09:38.73	292.50	29.96	-46.2	-48.8	17.3	0.00e+00	0	39	0	630194176	63	5035
2026-01-21 01:09:39.73	292.17	29.92	-46.4	-49.1	17.0	0.00e+00	0	40	0	631242752	63	5192
2026-01-21 01:09:40.72	291.84	29.88	-46.1	-48.8	17.3	0.00e+00	0	39	0	633339904	63	5006
2026-01-21 01:09:41.71	291.51	29.84	-45.9	-48.4	17.7	0.00e+00	0	40	0	635437056	63	4789
2026-01-21 01:09:42.71	291.17	29.80	-45.5	-47.9	18.2	0.00e+00	0	39	0	637534208	62	4789
2026-01-21 01:09:43.70	290.84	29.76	-45.3	-47.7	18.4	0.00e+00	0	39	0	638582784	62	4657
2026-01-21 01:09:44.70	290.51	29.72	-45.4	-47.8	18.2	0.00e+00	0	40	0	640679936	62	4753
2026-01-21 01:09:45.69	290.19	29.67	-45.4	-47.9	18.1	0.00e+00	0	39	0	642777088	62	4788
2026-01-21 01:09:46.69	289.86	29.63	-45.5	-48.0	18.0	0.00e+00	0	39	0	644874240	62	4850
2026-01-21 01:09:47.68	289.53	29.58	-45.5	-47.9	18.1	0.00e+00	0	40	0	646971392	62	4800
2026-01-21 01:09:48.67	289.21	29.53	-45.5	-48.0	18.1	0.00e+00	0	40	0	648019968	62	4837
2026-01-21 01:09:49.67	288.88	29.48	-45.7	-48.3	17.8	0.00e+00	0	39	0	650117120	62	5003
2026-01-21 01:09:50.66	288.56	29.44	-46.1	-48.7	17.4	0.00e+00	0	40	0	652214272	62	5257
2026-01-21 01:09:51.66	288.24	29.38	-46.2	-48.9	17.2	0.00e+00	0	39	0	654311424	63	5064
2026-01-21 01:09:52.65	287.91	29.33	-46.5	-49.2	17.0	0.00e+00	0	39	0	655360000	63	5262
2026-01-21 01:09:53.65	287.59	29.28	-46.3	-49.0	17.1	0.00e+00	0	39	0	657457152	63	5153
2026-01-21 01:09:54.64	287.27	29.23	-46.1	-48.7	17.4	0.00e+00	0	39	0	659554304	63	4932
2026-01-21 01:09:55.63	286.96	29.18	-45.5	-48.0	18.0	0.00e+00	0	40	0	661651456	63	4574
2026-01-21 01:09:56.63	286.64	29.12	-45.5	-47.9	18.1	0.00e+00	0	39	0	663748608	62	4814
2026-01-21 01:09:57.62	286.32	29.06	-46.0	-48.6	17.4	0.00e+00	0	40	0	664797184	62	5215
2026-01-21 01:09:58.62	286.01	29.01	-46.4	-49.1	17.1	0.00e+00	0	39	0	666894336	63	5168
2026-01-21 01:09:59.61	285.69	28.95	-46.6	-49.4	16.7	0.00e+00	0	39	0	668991488	64	5053
2026-01-21 01:10:00.61	285.38	28.89	-46.5	-49.2	16.8	0.00e+00	0	40	0	671088640	64	4973
2026-01-21 01:10:01.60	285.07	28.83	-46.3	-49.0	17.1	0.00e+00	0	40	0	672137216	64	4817
2026-01-21 01:10:02.60	284.76	28.77	-46.1	-48.7	17.3	0.00e+00	0	39	0	674234368	64	4698
2026-01-21 01:10:03.59	284.45	28.71	-46.2	-48.9	17.1	0.00e+00	0	39	0	676331520	64	4778
2026-01-21 01:10:04.58	284.14	28.65	-46.1	-48.8	17.2	0.00e+00	0	39	0	678428672	64	4747
2026-01-21 01:10:05.58	283.83	28.59	-46.4	-49.2	16.9	0.00e+00	0	39	0	680525824	64	4978
2026-01-21 01:10:06.57	283.53	28.53	-46.4	-49.2	16.9	0.00e+00	0	40	0	681574400	64	4949
2026-01-21 01:10:07.57	283.22	28.46	-46.7	-49.5	16.4	0.00e+00	0	39	0	683671552	64	5135
2026-01-21 01:10:08.56	282.92	28.40	-46.4	-49.2	16.9	0.00e+00	0	39	0	685768704	64	4947
2026-01-21 01:10:09.56	282.62	28.33	-46.4	-49.1	17.0	0.00e+00	0	39	0	687865856	64	4875
2026-01-21 01:10:10.55	282.32	28.27	-46.2	-48.8	17.2	0.00e+00	0	39	0	688914432	64	4726
2026-01-21 01:10:11.55	282.01	28.20	-46.3	-49.0	17.1	0.00e+00	0	40	0	691011584	64	4844
2026-01-21 01:10:12.54	281.72	28.13	-46.6	-49.3	16.7	0.00e+00	0	39	0	693108736	64	5036
2026-01-21 01:10:13.53	281.42	28.06	-47.1	-50.1	16.0	0.00e+00	0	39	0	695205888	64	5488
2026-01-21 01:10:14.53	281.12	28.00	-47.4	-50.5	15.6	0.00e+00	0	40	0	697303040	65	5446
2026-01-21 01:10:15.52	280.83	27.93	-47.8	-51.1	15.2	0.00e+00	0	40	0	698351616	66	5518
2026-01-21 01:10:16.52	280.53	27.86	-47.9	-51.4	14.8	0.00e+00	0	39	0	700448768	66	5670
2026-01-21 01:10:17.51	280.24	27.79	-47.9	-51.4	14.8	0.00e+00	0	39	0	702545920	66	5675
2026-01-21 01:10:18.50	279.95	27.71	-48.5	-52.3	13.8	2.20e-06	0	39	0	704643072	67	5983
2026-01-21 01:10:19.50	279.66	27.64	-48.4	-52.2	14.0	3.00e-06	0	40	0	705691648	67	5876
2026-01-21 01:10:20.49	279.38	27.57	-48.3	-52.1	14.1	1.50e-06	0	39	0	707788800	67	5818
2026-01-21 01:10:21.49	279.09	27.50	-48.1	-51.8	14.4	0.00e+00	0	39	0	709885952	67	5606
2026-01-21 01:10:22.48	278.80	27.42	-48.3	-52.0	14.1	7.00e-07	0	40	0	711983104	67	5775
2026-01-21 01:10:23.48	278.52	27.35	-48.1	-51.8	14.4	7.00e-07	0	40	0	714080256	67	5614
2026-01-21 01:10:24.47	278.24	27.27	-47.8	-51.2	15.0	0.00e+00	0	40	0	715128832	67	5223
2026-01-21 01:10:25.47	277.95	27.20	-46.9	-49.8	16.2	0.00e+00	0	39	0	717225984	65	5038
2026-01-21 01:10:26.46	277.67	27.12	-46.7	-49.6	16.4	0.00e+00	0	39	0	719323136	64	5173
2026-01-21 01:10:27.46	277.39	27.04	-46.1	-48.8	17.2	0.00e+00	0	39	0	721420288	64	4720
2026-01-21 01:10:28.45	277.12	26.97	-45.9	-48.4	17.6	0.00e+00	0	40	0	722468864	63	4788
2026-01-21 01:10:29.44	276.84	26.89	-45.0	-47.6	18.1	0.00e+00	0	39	0	724566016	62	4616
2026-01-21 01:10:30.44	276.56	26.81	-45.3	-47.6	18.4	0.00e+00	0	39	0	726663168	62	4635
2026-01-21 01:10:31.43	276.29	26.73	-45.2	-47.6	18.4	0.00e+00	0	40	0	728760320	62	4633
2026-01-21 01:10:32.43	276.02	26.65	-45.6	-48.0	18.0	0.00e+00	0	40	0	730857472	62	4857
2026-01-21 01:10:33.42	275.75	26.57	-46.1	-48.7	17.5	0.00e+00	0	40	0	731906048	62	5234
2026-01-21 01:10:34.42	275.48	26.49	-45.9	-48.5	17.6	0.00e+00	0	40	0	734003200	63	4846
2026-01-21 01:10:35.41	275.21	26.41	-45.7	-48.3	17.8	0.00e+00	0	39	0	736100352	63	4708
2026-01-21 01:10:36.41	274.94	26.33	-45.4	-47.8	18.2	0.00e+00	0	39	0	738197504	62	4718
2026-01-21 01:10:37.40	274.68	26.25	-45.7	-48.2	17.9	0.00e+00	0	40	0	739246080	62	4939
2026-01-21 01:10:38.40	274.41	26.17	-45.6	-48.2	17.9	0.00e+00	0	40	0	741343232	62	4936
2026-01-21 01:10:39.39	274.15	26.09	-45.9	-48.6	17.5	0.00e+00	0	39	0	743440384	62	5172
2026-01-21 01:10:40.39	273.89	26.00	-46.2	-49.0	17.2	0.00e+00	0	40	0	745537536	63	5106
2026-01-21 01:10:41.38	273.63	25.92	-46.3	-49.0	17.0	0.00e+00	0	40	0	747634688	63	5155
2026-01-21 01:10:42.38	273.37	25.84	-46.0	-48.6	17.4	0.00e+00	0	40	0	748683264	63	4915
2026-01-21 01:10:43.38	273.11	25.75	-46.3	-49.1	17.0	0.00e+00	0	40	0	750780416	63	5177
2026-01-21 01:10:44.37	272.86	25.67	-46.5	-49.3	16.8	0.00e+00	0	40	0	752877568	63	5338
2026-01-21 01:10:45.36	272.60	25.58	-46.8	-49.8	16.3	0.00e+00	0	40	0	754974720	64	5300
2026-01-21 01:10:46.36	272.35	25.50	-47.1	-50.2	15.8	0.00e+00	0	40	0	756023296	64	5590
2026-01-21 01:10:47.35	272.10	25.41	-47.0	-50.1	15.9	0.00e+00	0	40	0	758120448	65	5211
2026-01-21 01:10:48.35	271.85	25.33	-47.0	-50.1	16.0	0.00e+00	0	40	0	760217600	65	5167
2026-01-21 01:10:49.34	271.60	25.24	-46.6	-49.5	16.4	0.00e+00	0	40	0	762314752	65	4861
2026-01-21 01:10:50.34	271.35	25.16	-46.6	-49.4	16.6	0.00e+00	0	39	0	764411904	65	4799
2026-01-21 01:10:51.33	271.11	25.07	-46.2	-48.9	17.2	0.00e+00	0	39	0	765460480	64	4761
2026-01-21 01:10:52.33	270.86	24.98	-45.7	-48.3	17.8	0.00e+00	0	39	0	767557632	63	4722
2026-01-21 01:10:53.32	270.62	24.89	-45.1	-47.5	18.5	0.00e+00	0	40	0	769654784	62	4556
2026-01-21 01:10:54.32	270.37	24.81	-45.0	-47.3	18.6	0.00e+00	0	39	0	771751936	62	4488
2026-01-21 01:10:55.31	270.13	24.72	-44.9	-47.2	18.7	0.00e+00	0	39	0	772800512	61	4671
2026-01-21 01:10:56.30	269.89	24.63	-44.9	-47.3	18.7	0.00e+00	0	39	0	774897664	61	4720
2026-01-21 01:10:57.30	269.66	24.54	-44.8	-47.2	18.7	0.00e+00	0	39	0	776994816	61	4671
2026-01-21 01:10:58.29	269.42	24.46	-44.8	-47.1	18.9	0.00e+00	0	39	0	779091968	61	4625
2026-01-21 01:10:59.29	269.18	24.37	-44.7	-47.0	18.9	0.00e+00	0	39	0	781189120	61	4546
2026-01-21 01:11:00.28	268.95	24.28	-44.5	-46.8	19.1	0.00e+00	0	39	0	782237696	61	4451
2026-01-21 01:11:01.27	268.72	24.19	-44.5	-46.7	19.1	0.00e+00	0	39	0	784334848	60	4680
2026-01-21 01:11:02.27	268.49	24.10	-44.6	-46.8	19.0	0.00e+00	0	40	0	786432000	60	4752
2026-01-21 01:11:03.26	268.26	24.01	-44.6	-46.9	19.0	0.00e+00	0	40	0	788529152	60	4775
2026-01-21 01:11:04.26	268.03	23.92	-44.5	-46.8	19.1	0.00e+00	0	40	0	789577728	60	4735
2026-01-21 01:11:05.25	267.80	23.83	-44.5	-46.8	19.0	0.00e+00	0	40	0	791674880	60	4739
2026-01-21 01:11:06.25	267.57	23.74	-44.3	-46.5	19.4	0.00e+00	0	40	0	793772032	60	4562
2026-01-21 01:11:07.24	267.35	23.65	-44.0	-46.1	19.6	0.00e+00	0	40	0	795869184	60	4389
2026-01-21 01:11:08.24	267.12	23.56	-43.7	-45.8	19.9	0.00e+00	0	39	0	797966336	59	4460
2026-01-21 01:11:09.23	266.90	23.47	-43.7	-45.8	19.9	0.00e+00	0	40	0	799014912	59	4455
2026-01-21 01:11:10.23	266.68	23.38	-43.7	-45.8	19.9	0.00e+00	0	39	0	801112064	59	4472
2026-01-21 01:11:11.22	266.46	23.29	-43.9	-46.0	19.7	0.00e+00	0	39	0	803209216	59	4567
2026-01-21 01:11:12.21	266.24	23.20	-44.2	-46.3	19.4	0.00e+00	0	40	0	805306368	59	4754
2026-01-21 01:11:13.21	266.02	23.11	-44.5	-46.7	19.0	0.00e+00	0	39	0	806354944	59	4976
2026-01-21 01:11:14.20	265.81	23.02	-44.9	-47.3	18.6	0.00e+00	0	39	0	808452096	60	4996
2026-01-21 01:11:15.20	265.59	22.92	-45.1	-47.4	18.5	0.00e+00	0	39	0	810549248	60	5081
2026-01-21 01:11:16.19	265.38	22.83	-45.7	-48.2	18.1	0.00e+00	0	39	0	812646400	62	4975
2026-01-21 01:11:17.19	265.17	22.74	-45.3	-47.7	18.3	0.00e+00	0	39	0	814743552	62	4674
2026-01-21 01:11:18.18	264.96	22.65	-45.2	-47.6	18.3	0.00e+00	0	40	0	815792128	62	4636
2026-01-21 01:11:19.18	264.75	22.56	-45.3	-47.7	18.3	0.00e+00	0	40	0	817889280	62	4660
2026-01-21 01:11:20.17	264.54	22.47	-45.3	-47.7	18.3	0.00e+00	0	39	0	819986432	62	4666
2026-01-21 01:11:21.17	264.33	22.37	-45.0	-47.4	18.6	0.00e+00	0	39	0	822083584	62	4517
2026-01-21 01:11:22.16	264.13	22.28	-45.0	-47.4	18.6	0.00e+00	0	39	0	823132160	61	4768
2026-01-21 01:11:23.15	263.92	22.19	-44.9	-47.3	18.6	0.00e+00	0	39	0	825229312	61	4735
2026-01-21 01:11:24.15	263.72	22.10	-44.9	-47.3	18.6	0.00e+00	0	39	0	827326464	61	4721
2026-01-21 01:11:25.14	263.52	22.01	-44.8	-47.2	18.7	0.00e+00	0	39	0	829423616	61	4680
2026-01-21 01:11:26.14	263.31	21.91	-44.5	-46.8	19.0	0.00e+00	0	39	0	831520768	61	4476
2026-01-21 01:11:27.13	263.12	21.82	-44.3	-46.5	19.3	0.00e+00	0	40	0	832569344	60	4570
2026-01-21 01:11:28.13	262.92	21.73	-44.0	-46.2	19.6	0.00e+00	0	39	0	834666496	60	4409
2026-01-21 01:11:29.12	262.72	21.64	-43.9	-46.0	19.7	0.00e+00	0	40	0	836763648	59	4562
2026-01-21 01:11:30.12	262.52	21.54	-43.6	-45.7	19.9	0.00e+00	0	39	0	838860800	59	4430
2026-01-21 01:11:31.11	262.33	21.45	-43.4	-45.4	20.2	0.00e+00	0	40	0	839909376	58	4536
2026-01-21 01:11:32.10	262.13	21.36	-43.5	-45.6	20.0	0.00e+00	0	40	0	842006528	58	4616
2026-01-21 01:11:33.10	261.94	21.27	-43.8	-45.9	19.8	0.00e+00	0	39	0	844103680	58	4786
2026-01-21 01:11:34.09	261.75	21.18	-43.9	-46.1	19.6	0.00e+00	0	39	0	846200832	58	4882
2026-01-21 01:11:35.09	261.56	21.08	-44.2	-46.4	19.4	0.00e+00	0	39	0	848297984	58	5055
2026-01-21 01:11:36.08	261.37	20.99	-44.3	-46.5	19.2	0.00e+00	0	39	0	849346560	59	4852
2026-01-21 01:11:37.08	261.18	20.90	-44.2	-46.5	19.2	0.00e+00	0	40	0	851443712	59	4828
2026-01-21 01:11:38.07	260.99	20.81	-44.2	-46.4	19.3	0.00e+00	0	39	0	853540864	59	4803
2026-01-21 01:11:39.06	260.81	20.71	-44.3	-46.6	19.1	0.00e+00	0	40	0	855638016	59	4906
2026-01-21 01:11:40.06	260.62	20.62	-44.2	-46.5	19.2	0.00e+00	0	39	0	856686592	59	4831
2026-01-21 01:11:41.05	260.44	20.53	-44.3	-46.5	19.2	0.00e+00	0	39	0	858783744	59	4856
2026-01-21 01:11:42.05	260.26	20.44	-44.4	-46.7	19.1	0.00e+00	0	40	0	860880896	59	4938
2026-01-21 01:11:43.04	260.08	20.35	-44.5	-46.8	19.0	0.00e+00	0	39	0	862978048	59	5000
2026-01-21 01:11:44.04	259.89	20.25	-44.3	-46.6	19.2	0.00e+00	0	39	0	865075200	59	4873
2026-01-21 01:11:45.03	259.72	20.16	-44.4	-46.6	19.1	0.00e+00	0	39	0	866123776	59	4895
2026-01-21 01:11:46.03	259.54	20.07	-44.3	-46.6	19.1	0.00e+00	0	39	0	868220928	59	4897
2026-01-21 01:11:47.02	259.36	19.98	-44.5	-46.8	19.0	0.00e+00	0	40	0	870318080	59	4990
2026-01-21 01:11:48.02	259.18	19.88	-44.4	-46.7	19.0	0.00e+00	0	39	0	872415232	59	4944
2026-01-21 01:11:49.02	259.01	19.79	-44.6	-46.9	18.8	0.00e+00	0	40	0	874512384	59	5083
2026-01-21 01:11:50.01	258.83	19.70	-44.6	-46.9	18.9	0.00e+00	0	39	0	875560960	60	4810
2026-01-21 01:11:51.00	258.66	19.61	-44.5	-46.8	19.0	0.00e+00	0	40	0	877658112	60	4722
2026-01-21 01:11:52.00	258.49	19.52	-44.4	-46.6	19.2	0.00e+00	0	39	0	879755264	60	4623
2026-01-21 01:11:53.00	258.32	19.43	-44.4	-46.6	19.2	0.00e+00	0	40	0	881852416	60	4651
2026-01-21 01:11:53.99	258.15	19.33	-44.1	-46.3	19.4	0.00e+00	0	39	0	882900992	60	4482
2026-01-21 01:11:54.99	257.98	19.24	-43.9	-46.1	19.6	0.00e+00	0	39	0	884998144	59	4611
2026-01-21 01:11:55.98	257.81	19.15	-44.0	-46.1	19.6	0.00e+00	0	40	0	887095296	59	4622
2026-01-21 01:11:56.98	257.64	19.06	-43.9	-46.1	19.6	0.00e+00	0	40	0	889192448	59	4616
2026-01-21 01:11:57.97	257.48	18.97	-44.1	-46.3	19.4	0.00e+00	0	39	0	891289600	59	4712
2026-01-21 01:11:58.97	257.31	18.88	-44.4	-46.7	19.1	0.00e+00	0	39	0	892338176	59	4930
2026-01-21 01:11:59.96	257.15	18.79	-44.8	-47.1	18.8	0.00e+00	0	39	0	894435328	60	4926
2026-01-21 01:12:00.95	256.99	18.70	-45.0	-47.4	18.5	0.00e+00	0	40	0	896532480	60	5096
2026-01-21 01:12:01.95	256.83	18.60	-45.3	-47.8	18.2	0.00e+00	0	40	0	898629632	61	4985
2026-01-21 01:12:02.94	256.67	18.51	-45.5	-48.1	17.9	0.00e+00	0	39	0	899678208	61	5160
2026-01-21 01:12:03.94	256.50	18.42	-45.3	-47.8	18.1	0.00e+00	0	40	0	901775360	61	5007
2026-01-21 01:12:04.93	256.35	18.33	-45.3	-47.8	18.1	0.00e+00	0	39	0	903872512	61	5038
2026-01-21 01:12:05.93	256.19	18.24	-45.1	-47.5	18.3	0.00e+00	0	39	0	905969664	61	4863
2026-01-21 01:12:06.92	256.03	18.15	-44.9	-47.3	18.5	0.00e+00	0	40	0	908066816	61	4737
2026-01-21 01:12:07.92	255.87	18.06	-44.7	-47.1	18.7	0.00e+00	0	40	0	909115392	61	4610
2026-01-21 01:12:08.91	255.72	17.97	-44.7	-47.0	18.8	0.00e+00	0	39	0	911212544	61	4547
2026-01-21 01:12:09.91	255.56	17.88	-44.6	-46.9	18.9	0.00e+00	0	40	0	913309696	61	4516
2026-01-21 01:12:10.90	255.41	17.79	-44.5	-46.9	19.0	0.00e+00	0	39	0	915406848	60	4774
2026-01-21 01:12:11.90	255.26	17.70	-44.6	-47.0	18.8	0.00e+00	0	40	0	916455424	60	4833
2026-01-21 01:12:12.89	255.11	17.61	-44.7	-47.1	18.7	0.00e+00	0	39	0	918552576	60	4890
2026-01-21 01:12:13.88	254.96	17.52	-44.9	-47.3	18.6	0.00e+00	0	39	0	920649728	60	5004
2026-01-21 01:12:14.88	254.81	17.43	-45.0	-47.3	18.5	0.00e+00	0	39	0	922746880	60	5041
2026-01-21 01:12:15.87	254.66	17.34	-45.2	-47.6	18.2	0.00e+00	0	40	0	924844032	61	4923
2026-01-21 01:12:16.87	254.51	17.25	-45.3	-47.8	18.1	0.00e+00	0	39	0	925892608	61	5002
2026-01-21 01:12:17.87	254.36	17.16	-45.4	-47.9	17.9	0.00e+00	0	39	0	927989760	61	5094
2026-01-21 01:12:18.86	254.22	17.08	-45.7	-48.4	17.5	0.00e+00	0	39	0	930086912	62	5071
2026-01-21 01:12:19.86	254.07	16.99	-45.8	-48.4	17.5	0.00e+00	0	39	0	932184064	62	5100
2026-01-21 01:12:20.85	253.93	16.90	-46.0	-48.7	17.2	0.00e+00	0	39	0	933232640	62	5237
2026-01-21 01:12:21.85	253.78	16.81	-45.8	-48.4	17.5	0.00e+00	0	39	0	935329792	62	5099
2026-01-21 01:12:22.84	253.64	16.72	-45.8	-48.4	17.5	0.00e+00	0	39	0	937426944	62	5084
2026-01-21 01:12:23.84	253.50	16.63	-45.5	-48.1	17.8	0.00e+00	0	39	0	939524096	62	4878
2026-01-21 01:12:24.83	253.36	16.54	-45.5	-48.1	17.8	0.00e+00	0	40	0	941621248	62	4892
2026-01-21 01:12:25.83	253.22	16.46	-45.4	-47.9	18.0	0.00e+00	0	39	0	942669824	62	4800
2026-01-21 01:12:26.82	253.08	16.37	-45.2	-47.6	18.3	0.00e+00	0	39	0	944766976	62	4624
2026-01-21 01:12:27.82	252.94	16.28	-45.3	-47.7	18.1	0.00e+00	0	39	0	946864128	62	4682
2026-01-21 01:12:28.81	252.80	16.19	-45.3	-47.7	18.1	0.00e+00	0	40	0	948961280	62	4688
2026-01-21 01:12:29.80	252.67	16.11	-45.5	-48.1	17.7	0.00e+00	0	39	0	950009856	62	4902
2026-01-21 01:12:30.80	252.53	16.02	-45.7	-48.3	17.6	0.00e+00	0	39	0	952107008	62	4995
2026-01-21 01:12:31.79	252.40	15.93	-46.0	-48.7	17.2	0.00e+00	0	40	0	954204160	62	5253
2026-01-21 01:12:32.79	252.26	15.84	-46.0	-48.7	17.2	0.00e+00	0	39	0	956301312	63	4951
2026-01-21 01:12:33.78	252.13	15.76	-46.0	-48.7	17.2	0.00e+00	0	39	0	958398464	63	4972
2026-01-21 01:12:34.78	251.99	15.67	-46.1	-48.8	17.0	0.00e+00	0	39	0	959447040	63	5040
2026-01-21 01:12:35.77	251.86	15.58	-45.8	-48.4	17.4	0.00e+00	0	39	0	961544192	63	4810
2026-01-21 01:12:36.76	251.73	15.50	-45.6	-48.2	17.6	0.00e+00	0	39	0	963641344	63	4676
2026-01-21 01:12:37.76	251.60	15.41	-45.5	-48.1	17.8	0.00e+00	0	39	0	965738496	62	4878
2026-01-21 01:12:38.75	251.47	15.33	-45.4	-48.0	17.9	0.00e+00	0	39	0	966787072	62	4816
2026-01-21 01:12:39.75	251.34	15.24	-45.3	-47.7	18.0	0.00e+00	0	39	0	968884224	62	4701
2026-01-21 01:12:40.74	251.21	15.15	-45.3	-47.8	18.0	0.00e+00	0	40	0	970981376	62	4726
2026-01-21 01:12:41.74	251.09	15.07	-45.4	-47.9	18.0	0.00e+00	0	39	0	973078528	62	4763
2026-01-21 01:12:42.73	250.96	14.98	-45.1	-47.6	18.2	0.00e+00	0	39	0	975175680	62	4610
2026-01-21 01:12:43.73	250.83	14.90	-45.1	-47.6	18.2	0.00e+00	0	39	0	976224256	62	4616
2026-01-21 01:12:44.72	250.71	14.81	-45.1	-47.5	18.3	0.00e+00	0	39	0	978321408	62	4559
2026-01-21 01:12:45.71	250.58	14.73	-45.0	-47.4	18.3	0.00e+00	0	39	0	980418560	61	4803
2026-01-21 01:12:46.71	250.46	14.64	-45.1	-47.5	18.2	0.00e+00	0	39	0	982515712	61	4824
2026-01-21 01:12:47.70	250.34	14.56	-45.3	-47.7	18.0	0.00e+00	0	40	0	983564288	61	4971
2026-01-21 01:12:48.70	250.21	14.47	-45.2	-47.6	18.1	0.00e+00	0	39	0	985661440	61	4888
2026-01-21 01:12:49.69	250.09	14.39	-45.3	-47.7	18.0	0.00e+00	0	40	0	987758592	61	4958
2026-01-21 01:12:50.69	249.97	14.31	-45.7	-48.2	17.6	0.00e+00	0	39	0	989855744	62	4969
2026-01-21 01:12:51.68	249.85	14.22	-45.5	-48.1	17.7	0.00e+00	0	39	0	991952896	62	4882
2026-01-21 01:12:52.68	249.73	14.14	-45.6	-48.2	17.6	0.00e+00	0	40	0	993001472	62	4930
2026-01-21 01:12:53.67	249.61	14.05	-45.7	-48.3	17.5	0.00e+00	0	40	0	995098624	62	4999
2026-01-21 01:12:54.67	249.49	13.97	-45.9	-48.5	17.3	0.00e+00	0	39	0	997195776	62	5145
2026-01-21 01:12:55.66	249.38	13.89	-45.8	-48.4	17.4	0.00e+00	0	39	0	999292928	62	5088
2026-01-21 01:12:56.66	249.26	13.80	-45.9	-48.5	17.3	0.00e+00	0	39	0	1000341504	62	5133
2026-01-21 01:12:57.65	249.14	13.72	-46.0	-48.6	17.2	0.00e+00	0	40	0	1002438656	62	5205
2026-01-21 01:12:58.65	249.03	13.64	-45.7	-48.3	17.5	0.00e+00	0	39	0	1004535808	62	5022
2026-01-21 01:12:59.64	248.91	13.56	-45.7	-48.3	17.5	0.00e+00	0	39	0	1006632960	62	5005
2026-01-21 01:13:00.64	248.80	13.47	-45.6	-48.2	17.5	0.00e+00	0	39	0	1008730112	62	4974
2026-01-21 01:13:01.63	248.68	13.39	-45.8	-48.4	17.4	0.00e+00	0	39	0	1009778688	62	5076
2026-01-21 01:13:02.63	248.57	13.31	-45.7	-48.4	17.4	0.00e+00	0	40	0	1011875840	62	5053
2026-01-21 01:13:03.62	248.46	13.23	-46.0	-48.7	17.1	0.00e+00	0	40	0	1013972992	62	5266
2026-01-21 01:13:04.62	248.35	13.14	-46.3	-49.0	16.8	0.00e+00	0	40	0	1016070144	63	5158
2026-01-21 01:13:05.61	248.24	13.06	-46.3	-49.2	16.6	0.00e+00	0	40	0	1017118720	63	5243
2026-01-21 01:13:06.61	248.12	12.98	-46.7	-49.6	16.2	0.00e+00	0	39	0	1019215872	63	5512
2026-01-21 01:13:07.60	248.01	12.90	-46.7	-49.8	16.0	0.00e+00	0	40	0	1021313024	64	5288
2026-01-21 01:13:08.60	247.90	12.82	-46.8	-49.9	15.8	0.00e+00	0	39	0	1023410176	64	5378
2026-01-21 01:13:09.59	247.80	12.74	-46.9	-50.0	15.8	0.00e+00	0	39	0	1025507328	64	5425
2026-01-21 01:13:10.59	247.69	12.66	-46.9	-50.1	15.7	0.00e+00	0	39	0	1026555904	64	5467
2026-01-21 01:13:11.58	247.58	12.58	-46.7	-49.7	16.1	0.00e+00	0	40	0	1028653056	64	5234
2026-01-21 01:13:12.57	247.47	12.50	-46.4	-49.3	16.4	0.00e+00	0	39	0	1030750208	64	4996
2026-01-21 01:13:13.57	247.37	12.42	-46.1	-48.8	16.8	0.00e+00	0	40	0	1032847360	64	4752
2026-01-21 01:13:14.56	247.26	12.34	-45.9	-48.6	17.1	0.00e+00	0	40	0	1033895936	63	4885
2026-01-21 01:13:15.56	247.16	12.26	-45.6	-48.2	17.4	0.00e+00	0	39	0	1035993088	63	4680
2026-01-21 01:13:16.55	247.05	12.18	-45.4	-48.0	17.6	0.00e+00	0	39	0	1038090240	62	4833
2026-01-21 01:13:17.55	246.95	12.10	-45.2	-47.8	17.8	0.00e+00	0	39	0	1040187392	62	4712
2026-01-21 01:13:18.54	246.85	12.02	-45.0	-47.5	18.0	0.00e+00	0	39	0	1042284544	62	4566
2026-01-21 01:13:19.54	246.74	11.94	-45.2	-47.7	17.9	0.00e+00	0	39	0	1043333120	62	4663
2026-01-21 01:13:20.53	246.64	11.86	-45.1	-47.6	17.9	0.00e+00	0	39	0	1045430272	62	4646
2026-01-21 01:13:21.52	246.54	11.78	-45.2	-47.7	17.7	0.00e+00	0	39	0	1047527424	62	4684
2026-01-21 01:13:22.52	246.44	11.70	-45.4	-48.0	17.5	0.00e+00	0	39	0	1049624576	62	4824
2026-01-21 01:13:23.51	246.34	11.62	-45.7	-48.4	17.1	0.00e+00	0	40	0	1050673152	62	5054
2026-01-21 01:13:24.51	246.24	11.54	-45.8	-48.6	16.9	0.00e+00	0	40	0	1052770304	62	5180
2026-01-21 01:13:25.50	246.14	11.47	-46.2	-49.1	16.4	0.00e+00	0	40	0	1054867456	63	5169
2026-01-21 01:13:26.50	246.04	11.39	-46.3	-49.3	16.1	0.00e+00	0	39	0	1056964608	63	5300
2026-01-21 01:13:27.49	245.94	11.31	-46.4	-49.5	15.8	0.00e+00	0	39	0	1059061760	63	5436
2026-01-21 01:13:28.49	245.84	11.23	-46.5	-49.7	15.6	0.00e+00	0	39	0	1060110336	63	5553
2026-01-21 01:13:29.48	245.74	11.15	-46.6	-49.8	15.4	0.00e+00	0	40	0	1062207488	63	5627
2026-01-21 01:13:30.47	245.65	11.08	-46.5	-49.7	15.4	0.00e+00	0	39	0	1064304640	64	5227
2026-01-21 01:13:31.47	245.55	11.00	-46.6	-49.8	15.2	0.00e+00	0	39	0	1066401792	64	5320
2026-01-21 01:13:32.46	245.46	10.92	-46.7	-50.0	15.1	0.00e+00	0	40	0	1067450368	64	5427
2026-01-21 01:13:33.46	245.36	10.84	-46.6	-50.0	15.1	7.00e-07	0	40	0	1069547520	64	5406
2026-01-21 01:13:34.45	245.27	10.77	-46.6	-50.0	15.0	0.00e+00	0	40	0	1071644672	64	5423
2026-01-21 01:13:35.45	245.17	10.69	-46.7	-50.0	15.0	0.00e+00	0	39	0	1073741824	64	5436
2026-01-21 01:13:36.45	245.08	10.61	-46.8	-50.2	14.8	7.00e-07	0	39	0	1075838976	64	5562
2026-01-21 01:13:37.44	244.98	10.54	-46.7	-50.0	14.9	0.00e+00	0	39	0	1076887552	64	5457
2026-01-21 01:13:38.43	244.89	10.46	-46.7	-50.2	14.8	0.00e+00	0	39	0	1078984704	64	5534
2026-01-21 01:13:39.43	244.80	10.39	-46.6	-50.0	15.0	0.00e+00	0	39	0	1081081856	64	5411
2026-01-21 01:13:40.42	244.71	10.31	-46.6	-49.9	15.0	0.00e+00	0	40	0	1083179008	64	5369
2026-01-21 01:13:41.42	244.62	10.23	-46.5	-49.8	15.1	0.00e+00	0	39	0	1084227584	64	5316
2026-01-21 01:13:42.41	244.53	10.16	-46.5	-49.7	15.2	0.00e+00	0	40	0	1086324736	64	5273
2026-01-21 01:13:43.40	244.44	10.08	-46.3	-49.5	15.4	0.00e+00	0	39	0	1088421888	64	5127
2026-01-21 01:13:44.40	244.35	10.01	-46.4	-49.6	15.2	0.00e+00	0	40	0	1090519040	64	5183
2026-01-21 01:13:45.39	244.26	9.93	-46.1	-49.3	15.6	0.00e+00	0	40	0	1092616192	64	4995
2026-01-21 01:13:46.39	244.17	9.86	-46.1	-49.3	15.6	0.00e+00	0	40	0	1093664768	64	4994
2026-01-21 01:13:47.38	244.08	9.78	-46.2	-49.4	15.4	0.00e+00	0	40	0	1095761920	64	5063
2026-01-21 01:13:48.38	243.99	9.71	-46.2	-49.3	15.4	0.00e+00	0	40	0	1097859072	64	5034
2026-01-21 01:13:49.37	243.90	9.63	-46.3	-49.5	15.3	0.00e+00	0	39	0	1099956224	64	5120
2026-01-21 01:13:50.37	243.82	9.56	-46.5	-49.8	14.9	0.00e+00	0	40	0	1101004800	64	5322
2026-01-21 01:13:51.36	243.73	9.49	-46.5	-49.9	14.8	0.00e+00	0	39	0	1103101952	64	5363
2026-01-21 01:13:52.35	243.64	9.41	-46.4	-49.7	15.0	0.00e+00	0	39	0	1105199104	64	5252
2026-01-21 01:13:53.35	243.56	9.34	-46.6	-50.1	14.7	0.00e+00	0	40	0	1107296256	64	5494
2026-01-21 01:13:54.34	243.47	9.26	-46.6	-50.1	14.6	0.00e+00	0	39	0	1109393408	64	5497
2026-01-21 01:13:55.34	243.39	9.19	-46.7	-50.2	14.4	7.00e-07	0	39	0	1110441984	64	5560
2026-01-21 01:13:56.33	243.30	9.12	-46.5	-50.0	14.7	1.50e-06	0	39	0	1112539136	64	5403
2026-01-21 01:13:57.33	243.22	9.04	-46.6	-50.1	14.6	7.00e-07	0	39	0	1114636288	64	5479
2026-01-21 01:13:58.32	243.14	8.97	-50.9	-66.1	3.8	4.28e-01	0	40	104	1115684864	72	21811
2026-01-21 01:13:59.31	243.05	8.90	-51.1	-66.4	3.8	1.49e+00	0	40	104	1115684864	72	22535
2026-01-21 01:14:00.31	242.97	8.83	-51.2	-66.5	3.8	1.49e+00	0	39	104	1115684864	73	21513
2026-01-21 01:14:01.30	242.89	8.75	-51.2	-66.5	3.8	1.49e+00	0	40	104	1115684864	73	21658
2026-01-21 01:14:02.29	242.81	8.68	-51.3	-66.5	3.8	1.49e+00	0	40	104	1115684864	73	21729
2026-01-21 01:14:03.29	242.73	8.61	-51.2	-66.6	3.8	1.49e+00	0	39	104	1115684864	73	21805
2026-01-21 01:14:04.28	242.64	8.54	-51.2	-66.6	3.8	1.49e+00	0	39	104	1115684864	73	21846
2026-01-21 01:14:05.27	242.56	8.47	-51.3	-66.6	3.8	1.49e+00	0	39	104	1115684864	73	21777
2026-01-21 01:14:06.27	242.48	8.39	-51.4	-66.6	3.8	1.49e+00	0	39	104	1115684864	73	21805
2026-01-21 01:14:07.26	242.40	8.32	-51.3	-66.6	3.8	1.49e+00	0	39	104	1115684864	73	21813
2026-01-21 01:14:08.25	242.33	8.25	-51.3	-66.6	3.8	1.49e+00	0	39	104	1115684864	73	21854
2026-01-21 01:14:09.25	242.25	8.18	-51.3	-66.5	3.8	1.49e+00	0	40	104	1115684864	73	21734
2026-01-21 01:14:10.24	242.17	8.11	-51.2	-66.6	3.8	1.49e+00	0	39	104	1115684864	73	21790
2026-01-21 01:14:11.23	242.09	8.04	-51.2	-66.6	3.8	1.49e+00	0	39	104	1115684864	73	21811
2026-01-21 01:14:12.22	242.01	7.97	-51.1	-66.5	3.8	1.49e+00	0	40	104	1115684864	73	21666
2026-01-21 01:14:13.22	241.93	7.90	-51.1	-66.5	3.8	1.49e+00	0	39	104	1115684864	73	21668
2026-01-21 01:14:14.21	241.86	7.83	-51.1	-66.5	3.8	1.49e+00	0	40	104	1115684864	73	21639
2026-01-21 01:14:15.20	241.78	7.76	-51.1	-66.5	3.8	1.49e+00	0	39	104	1115684864	73	21554
2026-01-21 01:14:16.20	241.70	7.68	-51.1	-66.5	3.8	1.49e+00	0	40	104	1115684864	73	21578
2026-01-21 01:14:17.19	241.63	7.61	-51.1	-66.5	3.8	1.49e+00	0	40	104	1115684864	73	21557
2026-01-21 01:14:18.18	241.55	7.55	-51.0	-66.4	3.8	1.49e+00	0	40	104	1115684864	73	21422
2026-01-21 01:14:19.17	241.48	7.48	-51.0	-66.4	3.8	1.49e+00	0	39	104	1115684864	73	21324
2026-01-21 01:14:20.17	241.40	7.41	-50.9	-66.4	3.8	1.49e+00	0	39	104	1115684864	73	21307
2026-01-21 01:14:21.16	241.33	7.34	-50.9	-66.3	3.8	1.49e+00	0	39	104	1115684864	73	21191
2026-01-21 01:14:22.15	241.26	7.27	-50.9	-66.3	3.8	1.49e+00	0	40	104	1115684864	73	21246
2026-01-21 01:14:23.15	241.18	7.20	-50.9	-66.3	3.8	1.49e+00	0	40	104	1115684864	73	21176
2026-01-21 01:14:24.14	241.11	7.13	-50.9	-66.3	3.8	1.49e+00	0	40	104	1115684864	73	21195
2026-01-21 01:14:25.13	241.04	7.06	-50.9	-66.3	3.8	1.49e+00	0	40	104	1115684864	73	21149
2026-01-21 01:14:26.13	240.96	6.99	-50.9	-66.3	3.8	1.49e+00	0	40	104	1115684864	73	21161
2026-01-21 01:14:27.12	240.89	6.92	-50.9	-66.3	3.8	1.49e+00	0	40	104	1115684864	73	21079
2026-01-21 01:14:28.11	240.82	6.85	-50.9	-66.3	3.8	1.49e+00	0	40	104	1115684864	73	21076
2026-01-21 01:14:29.11	240.75	6.79	-50.9	-66.3	3.8	1.49e+00	0	40	104	1115684864	73	21097
2026-01-21 01:14:30.10	240.68	6.72	-50.9	-66.3	3.8	1.49e+00	0	40	104	1115684864	73	21156
2026-01-21 01:14:31.09	240.61	6.65	-50.9	-66.3	3.8	1.49e+00	0	40	104	1115684864	73	21117
2026-01-21 01:14:32.09	240.54	6.58	-50.9	-66.3	3.8	1.49e+00	0	40	104	1115684864	73	21026
2026-01-21 01:14:33.08	240.47	6.51	-50.8	-66.2	3.8	1.49e+00	0	39	104	1115684864	73	20998
2026-01-21 01:14:34.07	240.40	6.45	-50.8	-66.3	3.8	1.49e+00	0	40	104	1115684864	73	21060
2026-01-21 01:14:35.07	240.33	6.38	-50.8	-66.3	3.8	1.49e+00	0	39	104	1115684864	73	21027
2026-01-21 01:14:36.06	240.26	6.31	-50.8	-66.2	3.8	1.49e+00	0	39	104	1115684864	73	20943
2026-01-21 01:14:37.05	240.19	6.24	-50.8	-66.2	3.8	1.49e+00	0	40	104	1115684864	73	20893
2026-01-21 01:14:38.04	240.12	6.18	-50.8	-66.2	3.8	1.49e+00	0	40	104	1115684864	73	21008
2026-01-21 01:14:39.04	240.05	6.11	-50.8	-66.2	3.8	1.49e+00	0	40	104	1115684864	73	20990
2026-01-21 01:14:40.03	239.98	6.04	-50.8	-66.2	3.8	1.49e+00	0	40	104	1115684864	73	20929
