passes_logs/2026/01/21/T1/T1__20260121_052523_FENGYUN_3E_rec.log

#Pass ID: 20260121_052523_FENGYUN 3E
#Satellite: FENGYUN 3E
#Configuration: FENGYUN 3E
#almurnet v.1.7.20251203
#Start time: 2026-01-21 05:25:22

#Version: 2.0.20230620
#Station: T1
#Location: 37.570604 lon 55.790049 lat
#TLE: 1 49008U 21062A   26020.29079360  .00000161  00000+0  96807-4 0  9999
#TLE: 2 49008  98.7481  25.3569 0002259 127.4136 232.7246 14.19885851235592

#Time	Az	El	Level	Level2	SNR	BER	BlckErr	Temp	State	Recorded	gain1	gain2
2026-01-21 05:25:22.85	7.73	4.98	-51.7	-63.5	3.8	8.46e-01	0	36	0	0	73	14303
2026-01-21 05:25:23.84	7.66	5.05	-50.8	-63.1	3.8	8.47e-01	0	37	104	0	72	14405
2026-01-21 05:25:24.83	7.59	5.11	-50.7	-63.0	3.8	8.47e-01	0	37	104	0	72	14345
2026-01-21 05:25:25.82	7.52	5.17	-50.7	-63.0	3.8	8.47e-01	0	37	104	0	72	14322
2026-01-21 05:25:26.82	7.45	5.24	-50.7	-63.0	3.8	8.47e-01	0	37	104	0	72	14275
2026-01-21 05:25:27.81	7.38	5.30	-50.7	-63.0	3.8	8.47e-01	0	37	104	0	72	14265
2026-01-21 05:25:28.80	7.31	5.36	-50.7	-63.0	3.8	8.47e-01	0	37	104	0	72	14246
2026-01-21 05:25:29.80	7.24	5.43	-50.7	-63.0	3.8	8.47e-01	0	37	104	0	72	14299
2026-01-21 05:25:30.79	7.17	5.49	-50.7	-63.0	3.8	8.47e-01	0	37	104	0	72	14318
2026-01-21 05:25:31.78	7.09	5.55	-50.7	-63.0	3.8	8.46e-01	0	37	104	0	72	14291
2026-01-21 05:25:32.77	7.02	5.62	-50.7	-63.1	3.8	8.47e-01	0	37	104	0	72	14412
2026-01-21 05:25:33.77	6.95	5.68	-50.7	-63.1	3.8	8.47e-01	0	37	104	0	72	14424
2026-01-21 05:25:34.76	6.88	5.74	-50.7	-63.0	3.8	8.48e-01	0	37	104	0	72	14368
2026-01-21 05:25:35.75	6.80	5.81	-50.7	-63.0	3.8	8.47e-01	0	37	104	0	72	14366
2026-01-21 05:25:36.75	6.73	5.87	-50.8	-63.1	3.8	8.48e-01	0	37	104	0	72	14378
2026-01-21 05:25:37.74	6.66	5.94	-50.8	-63.0	3.8	8.47e-01	0	37	104	0	72	14349
2026-01-21 05:25:38.74	6.58	6.00	-50.8	-63.0	3.8	8.47e-01	0	37	104	0	72	14292
2026-01-21 05:25:39.73	6.51	6.06	-50.8	-63.0	3.8	8.48e-01	0	37	104	0	72	14290
2026-01-21 05:25:40.72	6.43	6.13	-50.7	-63.0	3.8	8.47e-01	0	37	104	0	72	14272
2026-01-21 05:25:41.72	6.36	6.19	-50.7	-63.0	3.8	8.46e-01	0	38	104	0	72	14251
2026-01-21 05:25:42.71	6.28	6.26	-50.8	-63.0	3.8	8.47e-01	0	37	104	0	72	14231
2026-01-21 05:25:43.70	6.20	6.32	-50.7	-63.0	3.8	8.47e-01	0	37	104	0	72	14370
2026-01-21 05:25:44.70	6.13	6.39	-50.7	-63.0	3.8	8.45e-01	0	37	104	0	72	14349
2026-01-21 05:25:45.69	6.05	6.45	-50.7	-63.0	3.8	8.48e-01	0	37	104	0	72	14298
2026-01-21 05:25:46.68	5.97	6.52	-50.7	-63.0	3.8	8.47e-01	0	38	104	0	72	14324
2026-01-21 05:25:47.68	5.90	6.58	-50.7	-63.0	3.8	8.48e-01	0	38	104	0	72	14324
2026-01-21 05:25:48.67	5.82	6.65	-50.7	-62.9	3.8	8.46e-01	0	38	104	0	72	14181
2026-01-21 05:25:49.66	5.74	6.71	-50.7	-63.0	3.8	8.47e-01	0	38	104	0	72	14250
2026-01-21 05:25:50.66	5.66	6.78	-50.7	-62.9	3.8	8.47e-01	0	38	104	0	72	14154
2026-01-21 05:25:51.65	5.58	6.85	-50.7	-62.9	3.8	8.47e-01	0	37	104	0	72	14166
2026-01-21 05:25:52.64	5.50	6.91	-50.7	-62.9	3.8	8.46e-01	0	38	104	0	72	14103
2026-01-21 05:25:53.63	5.42	6.98	-50.7	-62.8	3.8	8.46e-01	0	38	104	0	72	14004
2026-01-21 05:25:54.63	5.34	7.04	-50.7	-62.8	3.8	8.46e-01	0	38	104	0	72	13958
2026-01-21 05:25:55.62	5.26	7.11	-50.7	-62.7	3.8	8.47e-01	0	38	104	0	72	13822
2026-01-21 05:25:56.62	5.18	7.18	-50.7	-62.7	3.8	8.48e-01	0	38	104	0	72	13737
2026-01-21 05:25:57.61	5.10	7.24	-50.7	-62.4	3.8	8.46e-01	0	38	104	0	72	13396
2026-01-21 05:25:58.60	5.02	7.31	-50.7	-62.1	3.8	8.47e-01	0	38	104	0	72	12949
2026-01-21 05:25:59.60	4.93	7.38	-50.6	-61.7	3.8	8.46e-01	0	38	104	0	72	12321
2026-01-21 05:26:00.59	4.85	7.44	-50.6	-61.1	3.8	8.45e-01	0	38	104	0	71	12221
2026-01-21 05:26:01.58	4.77	7.51	-50.5	-60.4	3.9	8.45e-01	0	38	104	0	71	11183
2026-01-21 05:26:02.57	4.69	7.58	-50.5	-59.8	4.1	8.41e-01	0	38	0	0	71	10459
2026-01-21 05:26:03.57	4.60	7.64	-50.4	-59.5	4.2	8.37e-01	0	38	0	0	71	10100
2026-01-21 05:26:04.56	4.52	7.71	-50.4	-59.4	4.2	8.35e-01	0	38	0	0	71	10043
2026-01-21 05:26:05.56	4.43	7.78	-50.5	-59.7	4.1	8.37e-01	0	38	0	0	71	10386
2026-01-21 05:26:06.55	4.35	7.85	-50.5	-60.3	3.9	8.43e-01	0	38	104	0	71	11136
2026-01-21 05:26:07.54	4.26	7.91	-50.6	-60.9	3.8	8.46e-01	0	38	104	0	71	11852
2026-01-21 05:26:08.53	4.18	7.98	-50.7	-61.6	3.8	8.46e-01	0	38	104	0	71	12821
2026-01-21 05:26:09.53	4.09	8.05	-50.7	-62.2	3.8	8.46e-01	0	38	104	0	71	13806
2026-01-21 05:26:10.52	4.01	8.12	-50.8	-62.7	3.8	8.46e-01	0	38	104	0	71	14661
2026-01-21 05:26:11.52	3.92	8.19	-50.8	-63.0	3.8	8.47e-01	0	39	104	0	71	15108
2026-01-21 05:26:12.51	3.83	8.25	-50.8	-62.5	3.8	8.47e-01	0	39	104	0	71	14326
2026-01-21 05:26:13.50	3.74	8.32	-50.6	-60.5	3.9	8.46e-01	0	39	104	0	71	11311
2026-01-21 05:26:14.50	3.65	8.39	-50.1	-57.4	5.1	7.80e-01	0	38	0	0	71	7909
2026-01-21 05:26:15.49	3.57	8.46	-49.3	-54.4	7.4	1.82e-01	0	39	0	4194304	69	6317
2026-01-21 05:26:16.48	3.48	8.53	-48.1	-51.8	9.9	2.21e-02	0	39	0	11534336	67	5238
2026-01-21 05:26:17.48	3.39	8.60	-47.0	-49.9	12.0	6.98e-04	0	39	0	18874368	64	5001
2026-01-21 05:26:18.47	3.30	8.67	-46.0	-48.3	13.6	1.71e-05	0	39	0	26214400	62	4695
2026-01-21 05:26:19.46	3.21	8.74	-45.2	-47.2	14.8	0.00e+00	0	38	0	33554432	61	4368
2026-01-21 05:26:20.46	3.11	8.81	-44.6	-46.4	15.5	0.00e+00	0	39	0	40894464	60	4227
2026-01-21 05:26:21.45	3.02	8.87	-44.2	-45.8	16.0	0.00e+00	0	39	0	47185920	59	4190
2026-01-21 05:26:22.44	2.93	8.94	-44.3	-46.0	15.9	0.00e+00	0	39	0	54525952	59	4247
2026-01-21 05:26:23.44	2.84	9.01	-44.5	-46.2	15.7	0.00e+00	0	38	0	61865984	59	4341
2026-01-21 05:26:24.43	2.75	9.08	-45.4	-47.4	14.6	0.00e+00	0	39	0	69206016	60	4746
2026-01-21 05:26:25.42	2.65	9.15	-45.6	-47.7	14.3	1.02e-05	0	38	0	76546048	62	4355
2026-01-21 05:26:26.42	2.56	9.22	-44.5	-46.1	15.8	0.00e+00	0	38	0	83886080	59	4318
2026-01-21 05:26:27.42	2.46	9.29	-47.0	-49.9	12.0	3.81e-04	0	39	0	90177536	64	5014
2026-01-21 05:26:28.41	2.37	9.36	-46.1	-48.4	13.4	3.11e-02	0	38	0	97517568	63	4478
2026-01-21 05:26:29.40	2.27	9.43	-42.2	-43.3	18.2	0.00e+00	0	38	0	104857600	55	3948
2026-01-21 05:26:30.40	2.18	9.50	-42.1	-43.2	18.4	0.00e+00	0	39	0	112197632	54	4130
2026-01-21 05:26:31.39	2.08	9.57	-41.9	-43.0	18.5	0.00e+00	0	39	0	119537664	54	4034
2026-01-21 05:26:32.39	1.99	9.65	-41.8	-42.9	18.7	0.00e+00	0	39	0	126877696	54	3989
2026-01-21 05:26:33.38	1.89	9.72	-41.4	-42.4	19.1	0.00e+00	0	39	0	133169152	53	4001
2026-01-21 05:26:34.38	1.79	9.79	-41.6	-42.7	18.9	0.00e+00	0	39	0	140509184	53	4115
2026-01-21 05:26:35.37	1.69	9.86	-41.5	-42.6	19.0	0.00e+00	0	38	0	147849216	53	4056
2026-01-21 05:26:36.37	1.59	9.93	-41.5	-42.6	19.0	0.00e+00	0	39	0	155189248	53	4067
2026-01-21 05:26:37.37	1.49	10.00	-41.5	-42.6	19.0	0.00e+00	0	39	0	162529280	53	4067
2026-01-21 05:26:38.36	1.39	10.07	-41.5	-42.6	18.9	0.00e+00	0	39	0	169869312	53	4098
2026-01-21 05:26:39.45	1.28	10.15	-41.5	-42.6	19.0	0.00e+00	0	39	0	177209344	53	4082
2026-01-21 05:26:40.33	1.20	10.22	-41.5	-42.6	18.9	0.00e+00	0	39	0	183500800	53	4091
2026-01-21 05:26:41.47	1.08	10.30	-41.5	-42.6	19.0	0.00e+00	0	39	0	191889408	53	4078
2026-01-21 05:26:42.38	0.99	10.36	-41.3	-42.4	19.2	0.00e+00	0	39	0	198180864	53	3979
2026-01-21 05:26:43.39	0.88	10.44	-41.4	-42.5	19.1	0.00e+00	0	39	0	205520896	53	4031
2026-01-21 05:26:44.39	0.78	10.51	-41.5	-42.6	19.0	0.00e+00	0	39	0	212860928	53	4076
2026-01-21 05:26:45.38	0.68	10.58	-41.4	-42.5	19.1	0.00e+00	0	39	0	220200960	53	4032
2026-01-21 05:26:46.38	0.57	10.65	-41.7	-42.8	18.8	0.00e+00	0	39	0	227540992	53	4174
2026-01-21 05:26:47.37	0.47	10.73	-41.5	-42.6	19.0	0.00e+00	0	39	0	234881024	53	4073
2026-01-21 05:26:48.37	0.36	10.80	-41.4	-42.5	19.1	0.00e+00	0	39	0	242221056	53	4016
2026-01-21 05:26:49.36	0.26	10.87	-41.4	-42.5	19.1	0.00e+00	0	39	0	249561088	53	4023
2026-01-21 05:26:50.36	0.15	10.95	-41.3	-42.4	19.2	0.00e+00	0	39	0	255852544	53	3986
2026-01-21 05:26:51.35	0.04	11.02	-41.5	-42.6	19.0	0.00e+00	0	39	0	263192576	53	4071
2026-01-21 05:26:52.35	359.94	11.09	-41.6	-42.7	18.9	0.00e+00	0	39	0	270532608	53	4125
2026-01-21 05:26:53.37	359.83	11.17	-41.5	-42.6	19.1	0.00e+00	0	39	0	277872640	53	4053
2026-01-21 05:26:54.37	359.72	11.24	-41.3	-42.4	19.2	0.00e+00	0	39	0	285212672	53	3994
2026-01-21 05:26:55.36	359.61	11.31	-41.4	-42.5	19.2	0.00e+00	0	39	0	292552704	53	4006
2026-01-21 05:26:56.45	359.49	11.39	-41.3	-42.4	19.3	0.00e+00	0	39	0	299892736	53	3969
2026-01-21 05:26:57.34	359.39	11.46	-41.2	-42.2	19.4	0.00e+00	0	39	0	306184192	53	3903
2026-01-21 05:26:58.48	359.26	11.55	-41.2	-42.2	19.4	0.00e+00	0	39	0	314572800	53	3910
2026-01-21 05:26:59.33	359.17	11.61	-41.1	-42.2	19.5	0.00e+00	0	39	0	320864256	52	4112
2026-01-21 05:27:00.67	359.02	11.71	-41.1	-42.1	19.5	0.00e+00	0	39	0	330301440	52	4083
2026-01-21 05:27:01.38	358.94	11.76	-41.1	-42.2	19.5	0.00e+00	0	39	0	335544320	52	4102
2026-01-21 05:27:02.83	358.77	11.87	-41.0	-42.0	19.6	0.00e+00	0	39	0	346030080	52	4040
2026-01-21 05:27:03.54	358.69	11.92	-41.1	-42.2	19.5	0.00e+00	0	39	0	351272960	52	4100
2026-01-21 05:27:04.82	358.54	12.02	-41.0	-42.0	19.7	0.00e+00	0	39	0	360710144	52	4022
2026-01-21 05:27:05.55	358.46	12.07	-41.0	-42.0	19.6	0.00e+00	0	39	0	365953024	52	4043
2026-01-21 05:27:06.83	358.31	12.17	-40.9	-42.0	19.7	0.00e+00	0	39	0	375390208	52	4006
2026-01-21 05:27:07.57	358.22	12.23	-41.0	-42.0	19.7	0.00e+00	0	39	0	380633088	52	4013
2026-01-21 05:27:08.84	358.08	12.32	-41.1	-42.1	19.5	0.00e+00	0	39	0	389021696	52	4097
2026-01-21 05:27:09.55	357.99	12.38	-41.0	-42.0	19.7	0.00e+00	0	39	0	395313152	52	4013
2026-01-21 05:27:10.83	357.84	12.47	-40.9	-41.9	19.8	0.00e+00	0	39	0	403701760	52	3963
2026-01-21 05:27:11.54	357.76	12.53	-40.8	-41.8	19.9	0.00e+00	0	39	0	408944640	52	3926
2026-01-21 05:27:12.82	357.60	12.62	-40.9	-41.9	19.8	0.00e+00	0	39	0	418381824	52	3992
2026-01-21 05:27:13.55	357.51	12.68	-40.9	-41.9	19.8	0.00e+00	0	39	0	423624704	52	3970
2026-01-21 05:27:14.83	357.36	12.78	-40.9	-41.9	19.8	0.00e+00	0	39	0	433061888	52	3982
2026-01-21 05:27:15.60	357.26	12.84	-40.8	-41.8	19.9	0.00e+00	0	39	0	438304768	52	3916
2026-01-21 05:27:17.21	357.07	12.96	-40.8	-41.8	19.9	0.00e+00	0	39	0	449839104	52	3926
2026-01-21 05:27:17.80	356.99	13.00	-40.8	-41.8	19.9	0.00e+00	0	39	0	454033408	52	3946
2026-01-21 05:27:19.36	356.80	13.12	-40.8	-41.8	19.9	0.00e+00	0	39	0	465567744	52	3918
2026-01-21 05:27:19.99	356.72	13.17	-40.7	-41.7	20.0	0.00e+00	0	39	0	469762048	52	3900
2026-01-21 05:27:21.47	356.54	13.29	-40.8	-41.7	20.0	0.00e+00	0	39	0	481296384	52	3913
2026-01-21 05:27:22.18	356.45	13.34	-40.8	-41.8	19.9	0.00e+00	0	39	0	485490688	52	3918
2026-01-21 05:27:23.46	356.28	13.44	-40.8	-41.8	20.0	0.00e+00	0	39	0	494927872	52	3923
2026-01-21 05:27:24.17	356.19	13.49	-40.7	-41.7	20.0	0.00e+00	0	39	0	500170752	52	3876
2026-01-21 05:27:25.44	356.03	13.59	-40.6	-41.6	20.1	0.00e+00	0	39	0	509607936	52	3836
2026-01-21 05:27:26.15	355.94	13.65	-40.7	-41.6	20.1	0.00e+00	0	39	0	514850816	51	4084
2026-01-21 05:27:27.55	355.76	13.76	-40.7	-41.6	20.2	0.00e+00	0	39	0	524288000	51	4088
2026-01-21 05:27:28.26	355.67	13.81	-40.7	-41.6	20.2	0.00e+00	0	39	0	529530880	51	4091
2026-01-21 05:27:29.54	355.50	13.91	-40.6	-41.6	20.2	0.00e+00	0	39	0	538968064	51	4077
2026-01-21 05:27:30.25	355.40	13.97	-40.6	-41.6	20.2	0.00e+00	0	39	0	544210944	51	4052
2026-01-21 05:27:31.53	355.23	14.07	-40.7	-41.7	20.2	0.00e+00	0	39	0	553648128	51	4107
2026-01-21 05:27:32.24	355.14	14.12	-40.8	-41.7	20.1	0.00e+00	0	39	0	558891008	51	4128
2026-01-21 05:27:33.74	354.94	14.24	-40.5	-41.5	20.3	0.00e+00	0	39	0	569376768	51	4010
2026-01-21 05:27:34.45	354.84	14.29	-40.4	-41.4	20.4	0.00e+00	0	39	0	574619648	51	3966
2026-01-21 05:27:35.77	354.66	14.40	-40.6	-41.5	20.3	0.00e+00	0	39	0	584056832	51	4033
2026-01-21 05:27:36.48	354.57	14.45	-40.4	-41.4	20.4	0.00e+00	0	39	0	589299712	51	3962
2026-01-21 05:27:37.82	354.38	14.56	-40.3	-41.3	20.5	0.00e+00	0	39	0	598736896	51	3918
2026-01-21 05:27:38.54	354.28	14.61	-40.2	-41.2	20.6	0.00e+00	0	39	0	603979776	51	3895
2026-01-21 05:27:39.81	354.11	14.71	-40.3	-41.3	20.5	0.00e+00	0	39	0	613416960	51	3918
2026-01-21 05:27:40.54	354.01	14.77	-40.3	-41.3	20.5	0.00e+00	0	39	0	618659840	51	3930
2026-01-21 05:27:41.82	353.83	14.87	-40.2	-41.2	20.6	0.00e+00	0	39	0	628097024	51	3884
2026-01-21 05:27:42.53	353.73	14.93	-40.2	-41.2	20.6	0.00e+00	0	39	0	632291328	51	3876
2026-01-21 05:27:43.81	353.55	15.03	-40.2	-41.2	20.6	0.00e+00	0	39	0	641728512	51	3900
2026-01-21 05:27:44.52	353.44	15.09	-40.2	-41.2	20.6	0.00e+00	0	39	0	646971392	51	3885
2026-01-21 05:27:45.81	353.26	15.19	-40.2	-41.2	20.6	0.00e+00	0	39	0	656408576	51	3872
2026-01-21 05:27:46.57	353.15	15.25	-40.3	-41.2	20.6	0.00e+00	0	39	0	661651456	51	3904
2026-01-21 05:27:47.85	352.96	15.35	-40.2	-41.2	20.6	0.00e+00	0	39	0	671088640	51	3887
2026-01-21 05:27:48.56	352.86	15.41	-40.4	-41.3	20.5	0.00e+00	0	39	0	676331520	51	3949
2026-01-21 05:27:49.84	352.67	15.51	-40.5	-41.5	20.3	0.00e+00	0	39	0	685768704	51	4024
2026-01-21 05:27:50.69	352.55	15.57	-40.4	-41.4	20.4	0.00e+00	0	39	0	692060160	51	3990
2026-01-21 05:27:51.82	352.38	15.66	-40.7	-41.7	20.2	0.00e+00	0	39	0	699400192	51	4107
2026-01-21 05:27:52.68	352.25	15.73	-40.5	-41.4	20.4	0.00e+00	0	39	0	705691648	51	4004
2026-01-21 05:27:53.81	352.08	15.82	-40.4	-41.4	20.4	0.00e+00	0	39	0	714080256	51	3971
2026-01-21 05:27:54.67	351.95	15.89	-40.3	-41.3	20.6	0.00e+00	0	39	0	720371712	51	3916
2026-01-21 05:27:55.81	351.78	15.98	-40.3	-41.2	20.6	0.00e+00	0	39	0	728760320	51	3910
2026-01-21 05:27:56.66	351.65	16.05	-40.1	-41.1	20.7	0.00e+00	0	39	0	735051776	51	3843
2026-01-21 05:27:57.79	351.48	16.14	-40.0	-41.0	20.9	0.00e+00	0	39	0	742391808	50	4010
2026-01-21 05:27:58.65	351.35	16.21	-40.1	-41.0	20.8	0.00e+00	0	39	0	748683264	50	4032
2026-01-21 05:27:59.78	351.17	16.30	-39.9	-40.9	20.9	0.00e+00	0	39	0	757071872	50	3972
2026-01-21 05:28:00.64	351.04	16.37	-40.0	-40.9	20.9	0.00e+00	0	39	0	763363328	50	3981
2026-01-21 05:28:01.77	350.86	16.46	-39.9	-40.8	21.0	0.00e+00	0	39	0	771751936	50	3927
2026-01-21 05:28:02.69	350.72	16.53	-40.1	-41.0	20.8	0.00e+00	0	39	0	778043392	50	4023
2026-01-21 05:28:03.86	350.53	16.63	-40.2	-41.1	20.8	0.00e+00	0	39	0	786432000	50	4081
2026-01-21 05:28:04.74	350.39	16.70	-40.1	-41.0	20.9	0.00e+00	0	39	0	792723456	50	4021
2026-01-21 05:28:05.88	350.21	16.79	-39.9	-40.8	21.0	0.00e+00	0	39	0	801112064	50	3944
2026-01-21 05:28:06.79	350.06	16.86	-39.9	-40.8	21.1	0.00e+00	0	39	0	807403520	50	3927
2026-01-21 05:28:07.96	349.88	16.96	-39.8	-40.7	21.1	0.00e+00	0	39	0	816840704	50	3886
2026-01-21 05:28:08.85	349.73	17.03	-39.8	-40.7	21.1	0.00e+00	0	39	0	823132160	50	3881
2026-01-21 05:28:09.98	349.55	17.12	-39.8	-40.7	21.1	0.00e+00	0	39	0	830472192	50	3883
2026-01-21 05:28:10.83	349.41	17.19	-39.7	-40.6	21.2	0.00e+00	0	39	0	836763648	50	3862
2026-01-21 05:28:11.97	349.22	17.28	-39.7	-40.6	21.2	0.00e+00	0	39	0	845152256	50	3868
2026-01-21 05:28:12.82	349.08	17.35	-39.7	-40.7	21.2	0.00e+00	0	39	0	851443712	49	4106
2026-01-21 05:28:13.96	348.89	17.44	-39.6	-40.5	21.2	0.00e+00	0	39	0	859832320	49	4044
2026-01-21 05:28:14.81	348.74	17.51	-39.5	-40.4	21.4	0.00e+00	0	39	0	866123776	49	3979
2026-01-21 05:28:15.94	348.55	17.60	-39.4	-40.3	21.4	0.00e+00	0	39	0	873463808	49	3951
2026-01-21 05:28:16.79	348.41	17.67	-39.4	-40.3	21.5	0.00e+00	0	39	0	879755264	49	3938
2026-01-21 05:28:17.93	348.21	17.76	-39.4	-40.4	21.4	0.00e+00	0	39	0	888143872	49	3970
2026-01-21 05:28:18.79	348.07	17.83	-39.4	-40.3	21.4	0.00e+00	0	39	0	894435328	49	3956
2026-01-21 05:28:20.02	347.85	17.93	-39.3	-40.2	21.6	0.00e+00	0	39	0	903872512	49	3891
2026-01-21 05:28:20.87	347.71	18.00	-39.3	-40.2	21.5	0.00e+00	0	39	0	909115392	49	3905
2026-01-21 05:28:22.07	347.50	18.09	-39.3	-40.2	21.6	0.00e+00	0	39	0	918552576	49	3878
2026-01-21 05:28:22.93	347.35	18.16	-39.5	-40.4	21.4	0.00e+00	0	39	0	924844032	49	3976
2026-01-21 05:28:24.07	347.15	18.25	-39.4	-40.3	21.5	0.00e+00	0	39	0	933232640	49	3931
2026-01-21 05:28:24.92	346.99	18.32	-39.5	-40.4	21.4	0.00e+00	0	39	0	938475520	49	3963
2026-01-21 05:28:26.06	346.79	18.41	-39.6	-40.5	21.3	0.00e+00	0	39	0	946864128	49	4040
2026-01-21 05:28:26.91	346.64	18.48	-39.6	-40.5	21.4	0.00e+00	0	39	0	953155584	49	4009
2026-01-21 05:28:28.05	346.43	18.57	-39.7	-40.6	21.2	0.00e+00	0	39	0	961544192	49	4055
2026-01-21 05:28:28.90	346.28	18.64	-39.7	-40.6	21.2	0.00e+00	0	40	0	967835648	49	4072
2026-01-21 05:28:30.04	346.07	18.73	-39.5	-40.4	21.4	0.00e+00	0	39	0	975175680	49	4002
2026-01-21 05:28:30.89	345.92	18.80	-39.5	-40.4	21.4	0.00e+00	0	39	0	981467136	49	3968
2026-01-21 05:28:32.03	345.71	18.89	-39.6	-40.5	21.3	0.00e+00	0	39	0	989855744	49	4010
2026-01-21 05:28:32.88	345.55	18.96	-39.5	-40.4	21.4	0.00e+00	0	39	0	996147200	49	3983
2026-01-21 05:28:34.02	345.34	19.05	-39.5	-40.4	21.4	0.00e+00	0	39	0	1004535808	49	3993
2026-01-21 05:28:34.87	345.18	19.12	-39.5	-40.4	21.4	0.00e+00	0	39	0	1010827264	49	3962
2026-01-21 05:28:36.01	344.96	19.21	-39.4	-40.3	21.5	0.00e+00	0	39	0	1019215872	49	3923
2026-01-21 05:28:36.86	344.80	19.28	-39.4	-40.3	21.5	0.00e+00	0	39	0	1025507328	49	3943
2026-01-21 05:28:38.00	344.58	19.37	-39.5	-40.3	21.5	0.00e+00	0	39	0	1033895936	49	3949
2026-01-21 05:28:38.85	344.42	19.44	-39.4	-40.2	21.5	0.00e+00	0	39	0	1039138816	49	3905
2026-01-21 05:28:39.99	344.20	19.53	-39.4	-40.2	21.5	0.00e+00	0	39	0	1047527424	49	3912
2026-01-21 05:28:40.84	344.04	19.60	-39.3	-40.1	21.6	0.00e+00	0	39	0	1053818880	49	3857
2026-01-21 05:28:41.98	343.82	19.69	-39.4	-40.3	21.5	0.00e+00	0	39	0	1062207488	49	3914
2026-01-21 05:28:42.83	343.65	19.75	-39.3	-40.2	21.6	0.00e+00	0	39	0	1068498944	49	3871
2026-01-21 05:28:43.97	343.43	19.84	-39.3	-40.2	21.5	0.00e+00	0	39	0	1076887552	49	3900
2026-01-21 05:28:44.82	343.26	19.91	-39.5	-40.4	21.4	0.00e+00	0	39	0	1082130432	49	3988
2026-01-21 05:28:45.96	343.03	20.00	-39.5	-40.4	21.4	0.00e+00	0	39	0	1090519040	49	3963
2026-01-21 05:28:46.81	342.86	20.07	-39.6	-40.4	21.4	0.00e+00	0	39	0	1096810496	49	4004
2026-01-21 05:28:47.94	342.64	20.16	-39.5	-40.4	21.4	0.00e+00	0	39	0	1105199104	49	3989
2026-01-21 05:28:48.80	342.46	20.23	-39.8	-40.7	21.1	0.00e+00	0	39	0	1111490560	49	4111
2026-01-21 05:28:49.93	342.24	20.32	-39.8	-40.7	21.2	0.00e+00	0	39	0	1118830592	49	4128
2026-01-21 05:28:50.78	342.06	20.38	-39.8	-40.7	21.1	0.00e+00	0	39	0	1125122048	49	4126
2026-01-21 05:28:51.92	341.83	20.47	-39.8	-40.7	21.1	0.00e+00	0	39	0	1133510656	49	4123
2026-01-21 05:28:52.77	341.65	20.54	-39.9	-40.8	21.1	0.00e+00	0	39	0	1139802112	49	4172
2026-01-21 05:28:54.02	341.40	20.64	-39.9	-40.8	21.0	0.00e+00	0	39	0	1149239296	49	4185
2026-01-21 05:28:54.87	341.22	20.70	-39.7	-40.6	21.2	0.00e+00	0	39	0	1155530752	49	4094
2026-01-21 05:28:56.07	340.97	20.79	-39.8	-40.7	21.1	0.00e+00	0	39	0	1163919360	49	4124
2026-01-21 05:28:56.92	340.79	20.86	-39.6	-40.5	21.3	0.00e+00	0	40	0	1170210816	49	4035
2026-01-21 05:28:58.06	340.55	20.95	-39.6	-40.5	21.3	0.00e+00	0	39	0	1178599424	49	4042
2026-01-21 05:28:58.92	340.37	21.02	-39.7	-40.5	21.3	0.00e+00	0	39	0	1183842304	49	4049
2026-01-21 05:29:00.06	340.12	21.10	-39.6	-40.5	21.3	0.00e+00	0	39	0	1192230912	49	4030
2026-01-21 05:29:00.91	339.94	21.17	-39.4	-40.3	21.5	0.00e+00	0	39	0	1198522368	49	3947
2026-01-21 05:29:02.05	339.70	21.26	-39.5	-40.4	21.4	0.00e+00	0	39	0	1206910976	49	3968
2026-01-21 05:29:02.90	339.51	21.32	-39.3	-40.2	21.5	0.00e+00	0	39	0	1213202432	49	3907
2026-01-21 05:29:04.03	339.27	21.41	-39.4	-40.3	21.5	0.00e+00	0	39	0	1221591040	49	3937
2026-01-21 05:29:04.88	339.08	21.47	-39.3	-40.3	21.6	0.00e+00	0	39	0	1226833920	49	3916
2026-01-21 05:29:06.02	338.83	21.56	-39.4	-40.3	21.5	0.00e+00	0	39	0	1235222528	49	3933
2026-01-21 05:29:06.87	338.64	21.62	-39.4	-40.4	21.4	0.00e+00	0	39	0	1241513984	49	3962
2026-01-21 05:29:08.01	338.39	21.71	-39.4	-40.3	21.5	0.00e+00	0	39	0	1249902592	49	3951
2026-01-21 05:29:08.86	338.20	21.77	-39.4	-40.3	21.5	0.00e+00	0	39	0	1256194048	49	3918
2026-01-21 05:29:10.00	337.94	21.86	-39.3	-40.3	21.5	0.00e+00	0	39	0	1264582656	49	3914
2026-01-21 05:29:10.85	337.75	21.92	-39.3	-40.2	21.6	0.00e+00	0	39	0	1270874112	49	3888
2026-01-21 05:29:12.10	337.47	22.01	-39.3	-40.3	21.5	0.00e+00	0	39	0	1279262720	49	3916
2026-01-21 05:29:12.95	337.27	22.08	-39.2	-40.2	21.6	0.00e+00	0	40	0	1285554176	49	3880
2026-01-21 05:29:14.09	337.01	22.16	-39.2	-40.1	21.6	0.00e+00	0	39	0	1293942784	49	3856
2026-01-21 05:29:14.95	336.82	22.22	-39.1	-40.1	21.7	0.00e+00	0	39	0	1300234240	49	3831
2026-01-21 05:29:16.09	336.55	22.31	-39.0	-39.8	21.9	0.00e+00	0	39	0	1307574272	48	3958
2026-01-21 05:29:17.00	336.34	22.37	-38.9	-39.8	21.9	0.00e+00	0	39	0	1314914304	48	3937
2026-01-21 05:29:18.00	336.11	22.45	-38.8	-39.7	22.0	0.00e+00	0	39	0	1322254336	48	3870
2026-01-21 05:29:18.99	335.88	22.52	-38.7	-39.6	22.1	0.00e+00	0	39	0	1328545792	48	3849
2026-01-21 05:29:19.99	335.64	22.59	-38.7	-39.6	22.1	0.00e+00	0	39	0	1335885824	48	3842
2026-01-21 05:29:20.99	335.40	22.66	-38.4	-39.3	22.0	0.00e+00	0	40	0	1343225856	47	3937
2026-01-21 05:29:21.98	335.17	22.73	-38.5	-39.4	21.9	0.00e+00	0	39	0	1350565888	47	3981
2026-01-21 05:29:22.97	334.93	22.80	-38.5	-39.4	21.9	0.00e+00	0	40	0	1357905920	47	3974
2026-01-21 05:29:23.97	334.69	22.87	-38.7	-39.5	21.8	0.00e+00	0	39	0	1365245952	47	4047
2026-01-21 05:29:24.96	334.46	22.94	-38.7	-39.5	21.8	0.00e+00	0	39	0	1372585984	47	4047
2026-01-21 05:29:25.96	334.21	23.01	-38.7	-39.6	21.7	0.00e+00	0	40	0	1379926016	47	4092
2026-01-21 05:29:26.95	333.97	23.08	-38.8	-39.7	21.7	0.00e+00	0	39	0	1387266048	47	4105
2026-01-21 05:29:27.95	333.73	23.15	-38.8	-39.7	21.7	0.00e+00	0	40	0	1393557504	47	4107
2026-01-21 05:29:28.94	333.49	23.22	-38.8	-39.8	21.6	0.00e+00	0	39	0	1400897536	47	4152
2026-01-21 05:29:29.94	333.24	23.29	-38.8	-39.7	21.7	0.00e+00	0	39	0	1408237568	47	4123
2026-01-21 05:29:30.94	332.99	23.36	-38.8	-39.7	21.7	0.00e+00	0	39	0	1415577600	47	4106
2026-01-21 05:29:31.93	332.75	23.42	-38.8	-39.7	21.7	0.00e+00	0	39	0	1422917632	47	4106
2026-01-21 05:29:32.93	332.50	23.49	-38.9	-39.8	21.6	0.00e+00	0	39	0	1429209088	47	4158
2026-01-21 05:29:33.92	332.25	23.56	-38.8	-39.7	21.7	0.00e+00	0	39	0	1436549120	47	4127
2026-01-21 05:29:34.92	332.00	23.63	-38.7	-39.6	21.8	0.00e+00	0	39	0	1443889152	47	4066
2026-01-21 05:29:35.91	331.75	23.69	-38.5	-39.4	21.9	0.00e+00	0	40	0	1451229184	47	3986
2026-01-21 05:29:36.91	331.49	23.76	-38.5	-39.4	22.0	0.00e+00	0	39	0	1458569216	47	3967
2026-01-21 05:29:37.91	331.24	23.82	-38.4	-39.3	22.0	0.00e+00	0	39	0	1465909248	47	3918
2026-01-21 05:29:38.90	330.98	23.89	-38.4	-39.2	22.1	0.00e+00	0	39	0	1472200704	47	3897
2026-01-21 05:29:39.89	330.73	23.95	-38.4	-39.3	22.0	0.00e+00	0	40	0	1479540736	47	3929
2026-01-21 05:29:40.89	330.47	24.01	-38.5	-39.3	22.0	0.00e+00	0	39	0	1486880768	47	3944
2026-01-21 05:29:41.88	330.21	24.08	-38.4	-39.3	22.0	0.00e+00	0	39	0	1494220800	47	3919
2026-01-21 05:29:42.88	329.95	24.14	-38.5	-39.3	22.0	0.00e+00	0	39	0	1501560832	47	3935
2026-01-21 05:29:43.87	329.70	24.20	-38.7	-39.5	21.8	0.00e+00	0	39	0	1508900864	47	4047
2026-01-21 05:29:44.87	329.43	24.26	-38.8	-39.7	21.7	0.00e+00	0	39	0	1516240896	47	4118
2026-01-21 05:29:45.94	329.15	24.33	-38.8	-39.7	21.7	0.00e+00	0	40	0	1523580928	47	4112
2026-01-21 05:29:46.82	328.92	24.38	-38.9	-39.8	21.6	0.00e+00	0	39	0	1529872384	47	4163
2026-01-21 05:29:47.96	328.62	24.45	-38.9	-39.9	21.5	0.00e+00	0	39	0	1538260992	47	4200
2026-01-21 05:29:48.81	328.39	24.50	-38.8	-39.7	21.6	0.00e+00	0	39	0	1544552448	47	4142
2026-01-21 05:29:49.95	328.08	24.57	-38.6	-39.5	21.8	0.00e+00	0	39	0	1552941056	47	4030
2026-01-21 05:29:50.80	327.86	24.62	-38.5	-39.4	21.9	0.00e+00	0	39	0	1559232512	47	3997
2026-01-21 05:29:51.94	327.55	24.69	-38.5	-39.4	21.9	0.00e+00	0	39	0	1566572544	47	3971
2026-01-21 05:29:52.79	327.32	24.73	-38.5	-39.4	21.9	0.00e+00	0	39	0	1572864000	47	3974
2026-01-21 05:29:53.93	327.01	24.80	-38.5	-39.4	21.9	0.00e+00	0	39	0	1581252608	47	3981
2026-01-21 05:29:54.78	326.78	24.85	-38.6	-39.5	21.8	0.00e+00	0	40	0	1587544064	47	4014
2026-01-21 05:29:55.92	326.47	24.91	-38.5	-39.4	21.9	0.00e+00	0	40	0	1595932672	47	3989
2026-01-21 05:29:56.77	326.23	24.96	-38.4	-39.3	22.0	0.00e+00	0	40	0	1602224128	47	3938
2026-01-21 05:29:57.91	325.92	25.02	-38.5	-39.4	21.9	0.00e+00	0	39	0	1610612736	47	3981
2026-01-21 05:29:58.76	325.68	25.07	-38.5	-39.4	21.9	0.00e+00	0	40	0	1615855616	47	3979
2026-01-21 05:29:59.90	325.37	25.13	-38.4	-39.3	22.1	0.00e+00	0	40	0	1624244224	47	3915
2026-01-21 05:30:00.75	325.13	25.17	-38.3	-39.1	22.1	0.00e+00	0	39	0	1630535680	47	3863
2026-01-21 05:30:01.94	324.80	25.23	-38.3	-39.2	22.1	0.00e+00	0	40	0	1638924288	47	3895
2026-01-21 05:30:02.79	324.56	25.28	-38.2	-39.1	22.2	0.00e+00	0	39	0	1645215744	47	3843
2026-01-21 05:30:03.99	324.22	25.34	-38.4	-39.3	22.0	0.00e+00	0	40	0	1653604352	47	3934
2026-01-21 05:30:04.84	323.98	25.38	-38.6	-39.5	21.9	0.00e+00	0	40	0	1659895808	47	4016
2026-01-21 05:30:05.98	323.66	25.44	-38.7	-39.6	21.8	0.00e+00	0	39	0	1668284416	47	4053
2026-01-21 05:30:06.83	323.42	25.48	-38.7	-39.5	21.8	0.00e+00	0	39	0	1674575872	47	4050
2026-01-21 05:30:07.97	323.09	25.53	-38.7	-39.6	21.8	0.00e+00	0	40	0	1682964480	47	4057
2026-01-21 05:30:08.83	322.85	25.58	-38.7	-39.6	21.8	0.00e+00	0	39	0	1689255936	47	4059
2026-01-21 05:30:09.96	322.52	25.63	-38.7	-39.6	21.8	0.00e+00	0	40	0	1697644544	47	4080
2026-01-21 05:30:10.82	322.28	25.67	-38.5	-39.4	21.9	0.00e+00	0	40	0	1702887424	47	3996
2026-01-21 05:30:11.95	321.95	25.72	-38.5	-39.4	21.9	0.00e+00	0	40	0	1711276032	47	3992
2026-01-21 05:30:12.81	321.70	25.76	-38.5	-39.4	21.8	0.00e+00	0	39	0	1717567488	47	3993
2026-01-21 05:30:13.94	321.37	25.81	-38.6	-39.4	21.9	0.00e+00	0	39	0	1725956096	47	3999
2026-01-21 05:30:14.80	321.12	25.84	-38.7	-39.6	21.8	0.00e+00	0	39	0	1732247552	47	4067
2026-01-21 05:30:15.94	320.79	25.89	-38.6	-39.5	21.9	0.00e+00	0	40	0	1740636160	47	4011
2026-01-21 05:30:16.79	320.54	25.93	-38.7	-39.6	21.8	0.00e+00	0	39	0	1745879040	47	4056
2026-01-21 05:30:17.93	320.21	25.98	-38.7	-39.6	21.7	0.00e+00	0	39	0	1754267648	47	4057
2026-01-21 05:30:18.78	319.96	26.01	-38.5	-39.4	21.9	0.00e+00	0	39	0	1760559104	47	3975
2026-01-21 05:30:19.98	319.61	26.06	-38.5	-39.3	22.0	0.00e+00	0	40	0	1768947712	47	3942
2026-01-21 05:30:20.83	319.35	26.09	-38.5	-39.4	22.0	0.00e+00	0	40	0	1775239168	47	3960
2026-01-21 05:30:21.97	319.02	26.13	-38.4	-39.3	22.0	0.00e+00	0	40	0	1783627776	47	3936
2026-01-21 05:30:22.82	318.77	26.16	-38.5	-39.4	22.0	0.00e+00	0	39	0	1789919232	47	3960
2026-01-21 05:30:23.96	318.43	26.21	-38.4	-39.3	22.0	0.00e+00	0	40	0	1798307840	47	3920
2026-01-21 05:30:24.81	318.17	26.24	-38.5	-39.4	21.9	0.00e+00	0	40	0	1804599296	47	3988
2026-01-21 05:30:25.95	317.83	26.28	-38.6	-39.4	21.9	0.00e+00	0	39	0	1812987904	47	3997
2026-01-21 05:30:26.80	317.58	26.30	-38.7	-39.6	21.8	0.00e+00	0	39	0	1819279360	47	4070
2026-01-21 05:30:27.94	317.23	26.34	-38.6	-39.5	21.9	0.00e+00	0	39	0	1826619392	47	4013
2026-01-21 05:30:28.79	316.98	26.37	-38.7	-39.5	21.8	0.00e+00	0	40	0	1832910848	47	4043
2026-01-21 05:30:29.93	316.64	26.41	-38.6	-39.5	21.8	0.00e+00	0	39	0	1841299456	47	4030
2026-01-21 05:30:30.78	316.38	26.43	-38.6	-39.5	21.9	0.00e+00	0	39	0	1847590912	47	4014
2026-01-21 05:30:31.92	316.03	26.47	-38.6	-39.4	21.9	0.00e+00	0	39	0	1855979520	47	4001
2026-01-21 05:30:32.77	315.78	26.49	-38.4	-39.2	22.1	0.00e+00	0	39	0	1862270976	47	3889
2026-01-21 05:30:33.91	315.43	26.52	-38.4	-39.2	22.0	0.00e+00	0	39	0	1869611008	47	3901
2026-01-21 05:30:34.76	315.17	26.54	-38.2	-39.0	22.2	0.00e+00	0	40	0	1875902464	47	3810
2026-01-21 05:30:35.89	314.83	26.57	-38.1	-39.0	22.3	0.00e+00	0	40	0	1884291072	47	3785
2026-01-21 05:30:36.74	314.57	26.60	-38.0	-38.9	22.4	0.00e+00	0	39	0	1890582528	46	3967
2026-01-21 05:30:37.93	314.20	26.63	-38.1	-38.9	22.4	0.00e+00	0	39	0	1898971136	46	3985
2026-01-21 05:30:38.78	313.94	26.65	-38.2	-39.1	22.2	0.00e+00	0	40	0	1905262592	46	4069
2026-01-21 05:30:40.00	313.57	26.67	-38.2	-39.1	22.2	0.00e+00	0	40	0	1913651200	46	4076
2026-01-21 05:30:40.85	313.31	26.69	-38.4	-39.3	22.0	0.00e+00	0	39	0	1919942656	46	4166
2026-01-21 05:30:41.98	312.96	26.72	-38.4	-39.2	22.1	0.00e+00	0	40	0	1928331264	46	4131
2026-01-21 05:30:42.84	312.70	26.73	-38.4	-39.3	22.0	0.00e+00	0	40	0	1934622720	46	4162
2026-01-21 05:30:44.10	312.31	26.76	-38.4	-39.3	22.1	0.00e+00	0	40	0	1944059904	46	4146
2026-01-21 05:30:44.89	312.06	26.77	-38.4	-39.2	22.1	0.00e+00	0	40	0	1949302784	46	4129
2026-01-21 05:30:46.07	311.70	26.79	-38.3	-39.1	22.2	0.00e+00	0	40	0	1957691392	46	4079
2026-01-21 05:30:46.92	311.44	26.81	-38.2	-39.1	22.3	0.00e+00	0	40	0	1963982848	46	4053
2026-01-21 05:30:48.06	311.08	26.82	-38.2	-39.0	22.3	0.00e+00	0	39	0	1972371456	46	4026
2026-01-21 05:30:48.92	310.82	26.84	-38.3	-39.1	22.2	0.00e+00	0	39	0	1978662912	46	4077
2026-01-21 05:30:50.05	310.47	26.85	-38.3	-39.1	22.2	0.00e+00	0	39	0	1987051520	46	4073
2026-01-21 05:30:50.91	310.20	26.86	-38.4	-39.2	22.1	0.00e+00	0	40	0	1992294400	46	4118
2026-01-21 05:30:52.04	309.85	26.88	-38.3	-39.2	22.1	0.00e+00	0	40	0	2000683008	46	4112
2026-01-21 05:30:52.89	309.58	26.88	-38.3	-39.1	22.1	0.00e+00	0	40	0	2006974464	46	4096
2026-01-21 05:30:54.03	309.23	26.90	-38.4	-39.2	22.1	0.00e+00	0	39	0	2015363072	46	4137
2026-01-21 05:30:54.88	308.96	26.90	-38.4	-39.2	22.1	0.00e+00	0	40	0	2021654528	46	4120
2026-01-21 05:30:56.02	308.61	26.91	-38.2	-39.0	22.2	0.00e+00	0	40	0	2030043136	46	4044
2026-01-21 05:30:56.87	308.34	26.92	-38.2	-39.0	22.3	0.00e+00	0	39	0	2035286016	46	4020
2026-01-21 05:30:58.01	307.99	26.93	-38.2	-39.1	22.2	0.00e+00	0	40	0	2043674624	46	4058
2026-01-21 05:30:58.86	307.72	26.93	-38.0	-38.8	22.4	0.00e+00	0	40	0	2049966080	46	3953
2026-01-21 05:31:00.11	307.33	26.94	-38.0	-38.8	22.4	0.00e+00	0	40	0	2059403264	46	3948
2026-01-21 05:31:00.96	307.07	26.94	-38.0	-38.8	22.4	0.00e+00	0	40	0	2065694720	46	3944
2026-01-21 05:31:02.10	306.71	26.94	-38.1	-38.9	22.4	0.00e+00	0	39	0	2074083328	46	3983
2026-01-21 05:31:02.96	306.44	26.94	-38.1	-39.0	22.3	0.00e+00	0	40	0	2079326208	46	4013
2026-01-21 05:31:04.09	306.09	26.94	-38.3	-39.1	22.2	0.00e+00	0	39	0	2087714816	46	4081
2026-01-21 05:31:04.99	305.81	26.94	-38.3	-39.2	22.1	0.00e+00	0	39	0	2094006272	46	4103
2026-01-21 05:31:06.09	305.46	26.94	-38.2	-39.1	22.2	0.00e+00	0	40	0	2102394880	46	4065
2026-01-21 05:31:07.05	305.16	26.94	-38.2	-39.0	22.3	0.00e+00	0	39	0	2109734912	46	4033
2026-01-21 05:31:08.05	304.85	26.94	-38.2	-39.0	22.2	0.00e+00	0	40	0	2117074944	46	4051
2026-01-21 05:31:09.04	304.54	26.93	-38.0	-38.8	22.4	0.00e+00	0	39	0	2123366400	46	3951
2026-01-21 05:31:10.04	304.23	26.93	-37.9	-38.7	22.5	0.00e+00	0	39	0	2130706432	46	3906
2026-01-21 05:31:11.03	303.92	26.92	-38.0	-38.8	22.4	0.00e+00	0	39	0	2138046464	46	3936
2026-01-21 05:31:12.03	303.61	26.91	-38.0	-38.8	22.5	0.00e+00	0	40	0	2145386496	46	3935
2026-01-21 05:31:13.02	303.30	26.91	-38.1	-38.9	22.3	0.00e+00	0	40	0	2152726528	46	3990
2026-01-21 05:31:14.02	302.99	26.90	-38.1	-39.0	22.3	0.00e+00	0	40	0	2159017984	46	4012
2026-01-21 05:31:15.02	302.68	26.89	-38.2	-39.0	22.3	0.00e+00	0	40	0	2166358016	46	4043
2026-01-21 05:31:16.01	302.37	26.88	-38.2	-39.0	22.3	0.00e+00	0	40	0	2173698048	46	4033
2026-01-21 05:31:17.01	302.06	26.87	-38.2	-39.1	22.2	0.00e+00	0	40	0	2181038080	46	4053
2026-01-21 05:31:18.00	301.75	26.85	-38.2	-39.0	22.3	0.00e+00	0	39	0	2188378112	46	4020
2026-01-21 05:31:19.00	301.44	26.84	-38.2	-39.0	22.3	0.00e+00	0	39	0	2195718144	46	4049
2026-01-21 05:31:19.99	301.13	26.83	-38.2	-39.0	22.3	0.00e+00	0	39	0	2202009600	46	4051
2026-01-21 05:31:20.99	300.82	26.81	-38.2	-39.1	22.2	0.00e+00	0	39	0	2209349632	46	4064
2026-01-21 05:31:21.98	300.51	26.80	-38.3	-39.1	22.2	0.00e+00	0	40	0	2216689664	46	4071
2026-01-21 05:31:22.97	300.21	26.78	-38.2	-39.1	22.2	0.00e+00	0	39	0	2224029696	46	4063
2026-01-21 05:31:23.97	299.90	26.76	-38.2	-39.0	22.3	0.00e+00	0	39	0	2231369728	46	4033
2026-01-21 05:31:24.96	299.59	26.74	-38.2	-39.0	22.3	0.00e+00	0	39	0	2238709760	46	4031
2026-01-21 05:31:25.96	299.28	26.72	-38.2	-39.0	22.3	0.00e+00	0	39	0	2246049792	46	4043
2026-01-21 05:31:26.95	298.98	26.70	-38.0	-38.9	22.4	0.00e+00	0	39	0	2253389824	46	3973
2026-01-21 05:31:27.95	298.67	26.68	-37.8	-38.6	22.6	0.00e+00	0	39	0	2259681280	46	3867
2026-01-21 05:31:28.94	298.37	26.66	-37.9	-38.8	22.5	0.00e+00	0	40	0	2267021312	46	3914
2026-01-21 05:31:29.94	298.06	26.63	-38.0	-38.9	22.4	0.00e+00	0	39	0	2274361344	46	3966
2026-01-21 05:31:30.93	297.76	26.61	-38.0	-38.8	22.4	0.00e+00	0	40	0	2281701376	46	3953
2026-01-21 05:31:31.94	297.45	26.59	-38.0	-38.8	22.5	0.00e+00	0	39	0	2289041408	46	3945
2026-01-21 05:31:32.97	297.13	26.56	-38.1	-38.9	22.3	0.00e+00	0	40	0	2296381440	46	4000
2026-01-21 05:31:33.96	296.83	26.53	-38.0	-38.8	22.5	0.00e+00	0	40	0	2303721472	46	3941
2026-01-21 05:31:34.96	296.53	26.50	-37.9	-38.7	22.5	0.00e+00	0	39	0	2311061504	46	3897
2026-01-21 05:31:35.95	296.23	26.48	-38.0	-38.8	22.4	0.00e+00	0	40	0	2318401536	46	3929
2026-01-21 05:31:36.94	295.93	26.45	-38.0	-38.9	22.4	0.00e+00	0	39	0	2324692992	46	3961
2026-01-21 05:31:37.94	295.62	26.42	-38.1	-38.9	22.4	0.00e+00	0	39	0	2332033024	46	3970
2026-01-21 05:31:38.93	295.32	26.39	-38.1	-38.9	22.3	0.00e+00	0	40	0	2339373056	46	3996
2026-01-21 05:31:39.92	295.03	26.35	-38.2	-39.0	22.3	0.00e+00	0	39	0	2346713088	46	4042
2026-01-21 05:31:40.92	294.73	26.32	-38.3	-39.1	22.2	0.00e+00	0	40	0	2354053120	46	4069
2026-01-21 05:31:41.91	294.43	26.29	-38.3	-39.1	22.2	0.00e+00	0	40	0	2361393152	46	4083
2026-01-21 05:31:42.91	294.13	26.25	-38.3	-39.2	22.1	0.00e+00	0	39	0	2367684608	46	4114
2026-01-21 05:31:43.90	293.83	26.22	-38.4	-39.2	22.2	0.00e+00	0	40	0	2375024640	46	4117
2026-01-21 05:31:44.90	293.53	26.18	-38.3	-39.1	22.2	0.00e+00	0	40	0	2382364672	46	4079
2026-01-21 05:31:45.89	293.24	26.15	-38.4	-39.2	22.1	0.00e+00	0	40	0	2389704704	46	4129
2026-01-21 05:31:46.94	292.93	26.11	-38.3	-39.2	22.2	0.00e+00	0	40	0	2397044736	46	4105
2026-01-21 05:31:47.95	292.63	26.07	-38.4	-39.2	22.1	0.00e+00	0	40	0	2404384768	46	4127
2026-01-21 05:31:48.96	292.33	26.03	-38.4	-39.2	22.1	0.00e+00	0	40	0	2411724800	46	4141
2026-01-21 05:31:49.95	292.04	25.99	-38.4	-39.3	22.0	0.00e+00	0	39	0	2419064832	46	4170
2026-01-21 05:31:50.95	291.74	25.95	-38.4	-39.3	22.1	0.00e+00	0	40	0	2426404864	46	4173
2026-01-21 05:31:51.94	291.45	25.91	-38.5	-39.4	22.0	0.00e+00	0	40	0	2432696320	46	4202
2026-01-21 05:31:52.94	291.16	25.87	-38.4	-39.2	22.1	0.00e+00	0	40	0	2440036352	46	4141
2026-01-21 05:31:53.94	290.87	25.82	-38.4	-39.2	22.1	0.00e+00	0	40	0	2447376384	46	4142
2026-01-21 05:31:54.93	290.58	25.78	-38.2	-39.1	22.3	0.00e+00	0	39	0	2454716416	46	4057
2026-01-21 05:31:55.92	290.29	25.73	-38.2	-39.1	22.2	0.00e+00	0	39	0	2462056448	46	4058
2026-01-21 05:31:56.92	290.00	25.69	-38.3	-39.1	22.2	0.00e+00	0	40	0	2469396480	46	4086
2026-01-21 05:31:57.91	289.72	25.64	-38.3	-39.1	22.2	0.00e+00	0	39	0	2476736512	46	4086
2026-01-21 05:31:58.91	289.43	25.60	-38.3	-39.2	22.2	0.00e+00	0	39	0	2484076544	46	4114
2026-01-21 05:31:59.90	289.15	25.55	-38.4	-39.3	22.1	0.00e+00	0	39	0	2490368000	46	4154
2026-01-21 05:32:00.89	288.86	25.50	-38.4	-39.3	22.1	0.00e+00	0	40	0	2497708032	46	4153
2026-01-21 05:32:01.89	288.58	25.45	-38.3	-39.2	22.2	0.00e+00	0	39	0	2505048064	46	4116
2026-01-21 05:32:02.88	288.30	25.41	-38.4	-39.2	22.1	0.00e+00	0	40	0	2512388096	46	4131
2026-01-21 05:32:03.88	288.01	25.36	-38.4	-39.2	22.1	0.00e+00	0	40	0	2519728128	46	4127
2026-01-21 05:32:04.87	287.73	25.31	-38.4	-39.2	22.1	0.00e+00	0	40	0	2527068160	46	4132
2026-01-21 05:32:05.94	287.43	25.25	-38.2	-39.1	22.2	0.00e+00	0	40	0	2534408192	46	4058
2026-01-21 05:32:06.83	287.18	25.20	-38.2	-39.1	22.3	0.00e+00	0	39	0	2540699648	46	4052
2026-01-21 05:32:07.96	286.87	25.14	-38.2	-39.1	22.1	0.00e+00	0	40	0	2549088256	46	4062
2026-01-21 05:32:08.82	286.63	25.10	-38.3	-39.1	22.2	0.00e+00	0	40	0	2555379712	46	4094
2026-01-21 05:32:09.96	286.31	25.04	-38.4	-39.2	22.1	0.00e+00	0	40	0	2563768320	46	4143
2026-01-21 05:32:10.81	286.08	24.99	-38.5	-39.3	22.1	0.00e+00	0	40	0	2570059776	46	4171
2026-01-21 05:32:11.95	285.76	24.93	-38.5	-39.3	22.0	0.00e+00	0	39	0	2577399808	46	4174
2026-01-21 05:32:12.80	285.53	24.88	-38.4	-39.2	22.1	0.00e+00	0	39	0	2583691264	46	4118
2026-01-21 05:32:13.94	285.22	24.82	-38.2	-39.1	22.2	0.00e+00	0	39	0	2592079872	46	4064
2026-01-21 05:32:14.79	284.98	24.77	-38.3	-39.2	22.2	0.00e+00	0	40	0	2598371328	46	4103
2026-01-21 05:32:15.92	284.68	24.70	-38.4	-39.2	22.1	0.00e+00	0	39	0	2606759936	46	4140
2026-01-21 05:32:16.78	284.44	24.65	-38.3	-39.2	22.1	0.00e+00	0	39	0	2612002816	46	4110
2026-01-21 05:32:17.91	284.14	24.59	-38.3	-39.1	22.2	0.00e+00	0	39	0	2620391424	46	4092
2026-01-21 05:32:18.76	283.91	24.54	-38.4	-39.3	22.0	0.00e+00	0	40	0	2626682880	46	4155
2026-01-21 05:32:19.90	283.60	24.47	-38.5	-39.3	22.0	0.00e+00	0	39	0	2635071488	46	4167
2026-01-21 05:32:20.75	283.38	24.42	-38.4	-39.3	22.1	0.00e+00	0	40	0	2641362944	46	4154
2026-01-21 05:32:22.00	283.04	24.34	-38.4	-39.2	22.1	0.00e+00	0	39	0	2650800128	46	4140
2026-01-21 05:32:22.85	282.82	24.29	-38.4	-39.2	22.1	0.00e+00	0	39	0	2656043008	46	4124
2026-01-21 05:32:23.99	282.52	24.22	-38.4	-39.2	22.1	0.00e+00	0	39	0	2664431616	46	4122
2026-01-21 05:32:24.84	282.29	24.17	-38.3	-39.2	22.2	0.00e+00	0	39	0	2670723072	46	4105
2026-01-21 05:32:26.11	281.96	24.09	-38.4	-39.2	22.1	0.00e+00	0	40	0	2680160256	46	4127
2026-01-21 05:32:26.82	281.78	24.04	-38.5	-39.3	22.0	0.00e+00	0	40	0	2685403136	46	4176
2026-01-21 05:32:28.10	281.45	23.96	-38.5	-39.3	22.0	0.00e+00	0	40	0	2693791744	46	4193
2026-01-21 05:32:28.81	281.26	23.91	-38.6	-39.5	21.4	0.00e+00	0	40	0	2699034624	46	4263
2026-01-21 05:32:30.09	280.93	23.83	-38.6	-39.4	21.9	0.00e+00	0	39	0	2708471808	46	4232
2026-01-21 05:32:30.80	280.75	23.78	-38.6	-39.5	21.9	0.00e+00	0	39	0	2713714688	46	4244
2026-01-21 05:32:32.10	280.42	23.70	-38.5	-39.4	22.0	0.00e+00	0	40	0	2723151872	46	4205
2026-01-21 05:32:32.81	280.24	23.65	-38.4	-39.3	22.1	0.00e+00	0	40	0	2728394752	46	4157
2026-01-21 05:32:34.10	279.91	23.57	-38.3	-39.1	22.1	0.00e+00	0	40	0	2737831936	46	4091
2026-01-21 05:32:34.81	279.73	23.52	-38.3	-39.1	22.2	0.00e+00	0	39	0	2743074816	46	4094
2026-01-21 05:32:36.10	279.41	23.43	-38.3	-39.1	22.2	0.00e+00	0	40	0	2751463424	46	4078
2026-01-21 05:32:37.15	279.15	23.36	-38.4	-39.2	22.1	0.00e+00	0	40	0	2759852032	46	4139
2026-01-21 05:32:38.34	278.85	23.28	-38.4	-39.3	22.1	0.00e+00	0	40	0	2768240640	46	4156
2026-01-21 05:32:39.20	278.64	23.22	-38.5	-39.4	21.9	0.00e+00	0	39	0	2774532096	46	4208
2026-01-21 05:32:40.33	278.36	23.14	-38.5	-39.4	22.0	0.00e+00	0	40	0	2782920704	46	4195
2026-01-21 05:32:41.18	278.15	23.08	-38.6	-39.4	22.0	0.00e+00	0	39	0	2788163584	46	4220
2026-01-21 05:32:42.32	277.87	23.00	-38.6	-39.4	21.9	0.00e+00	0	39	0	2796552192	46	4232
2026-01-21 05:32:43.17	277.67	22.94	-38.6	-39.5	21.9	0.00e+00	0	39	0	2802843648	46	4254
2026-01-21 05:32:44.31	277.39	22.86	-38.6	-39.4	21.9	0.00e+00	0	40	0	2811232256	46	4241
2026-01-21 05:32:45.16	277.19	22.80	-38.7	-39.5	21.8	0.00e+00	0	39	0	2817523712	46	4287
2026-01-21 05:32:46.30	276.91	22.72	-38.6	-39.5	21.8	0.00e+00	0	40	0	2825912320	46	4268
2026-01-21 05:32:47.15	276.71	22.66	-38.7	-39.5	21.8	0.00e+00	0	40	0	2832203776	46	4275
2026-01-21 05:32:48.31	276.44	22.57	-38.6	-39.4	21.9	0.00e+00	0	40	0	2840592384	47	4004
2026-01-21 05:32:49.16	276.23	22.51	-38.4	-39.3	22.0	0.00e+00	0	39	0	2846883840	47	3921
2026-01-21 05:32:50.30	275.97	22.43	-38.4	-39.2	22.0	0.00e+00	0	39	0	2854223872	47	3890
2026-01-21 05:32:51.15	275.77	22.37	-38.3	-39.2	22.1	0.00e+00	0	39	0	2860515328	47	3879
2026-01-21 05:32:52.29	275.50	22.28	-38.5	-39.3	22.0	0.00e+00	0	40	0	2868903936	47	3937
2026-01-21 05:32:53.14	275.30	22.22	-38.5	-39.3	22.0	0.00e+00	0	39	0	2875195392	47	3937
2026-01-21 05:32:54.50	274.99	22.12	-38.5	-39.3	22.0	0.00e+00	0	40	0	2884632576	47	3951
2026-01-21 05:32:55.21	274.83	22.07	-38.6	-39.4	21.9	0.00e+00	0	39	0	2889875456	47	3997
2026-01-21 05:32:56.49	274.53	21.97	-38.6	-39.5	21.9	0.00e+00	0	40	0	2899312640	47	4015
2026-01-21 05:32:57.23	274.37	21.92	-38.6	-39.5	21.9	0.00e+00	0	39	0	2904555520	47	4021
2026-01-21 05:32:58.75	274.02	21.80	-38.7	-39.5	21.8	0.00e+00	0	39	0	2915041280	47	4028
2026-01-21 05:32:59.46	273.86	21.75	-38.7	-39.5	21.9	0.00e+00	0	39	0	2920284160	47	4026
2026-01-21 05:33:00.74	273.58	21.65	-38.6	-39.4	21.9	0.00e+00	0	39	0	2929721344	47	3998
2026-01-21 05:33:01.46	273.42	21.60	-38.7	-39.5	21.8	0.00e+00	0	39	0	2934964224	47	4040
2026-01-21 05:33:02.74	273.13	21.50	-38.8	-39.6	21.7	0.00e+00	0	39	0	2944401408	47	4090
2026-01-21 05:33:03.45	272.98	21.45	-38.8	-39.7	21.7	0.00e+00	0	39	0	2949644288	47	4103
2026-01-21 05:33:04.73	272.69	21.35	-38.7	-39.6	21.8	0.00e+00	0	39	0	2959081472	47	4080
2026-01-21 05:33:05.44	272.54	21.30	-38.8	-39.7	21.6	0.00e+00	0	39	0	2963275776	47	4128
2026-01-21 05:33:06.72	272.26	21.20	-38.6	-39.5	21.8	0.00e+00	0	40	0	2972712960	47	4017
2026-01-21 05:33:07.49	272.10	21.14	-38.7	-39.5	21.8	0.00e+00	0	40	0	2977955840	47	4033
2026-01-21 05:33:08.78	271.82	21.04	-38.7	-39.5	21.8	0.00e+00	0	40	0	2987393024	47	4042
2026-01-21 05:33:09.49	271.67	20.98	-38.6	-39.5	21.8	0.00e+00	0	39	0	2992635904	47	4013
2026-01-21 05:33:10.76	271.40	20.89	-38.6	-39.4	21.8	0.00e+00	0	40	0	3002073088	47	3996
2026-01-21 05:33:11.48	271.24	20.83	-38.6	-39.5	21.8	0.00e+00	0	40	0	3007315968	47	4012
2026-01-21 05:33:12.75	270.98	20.73	-38.8	-39.7	21.7	0.00e+00	0	40	0	3016753152	47	4111
2026-01-21 05:33:13.70	270.78	20.66	-38.9	-39.7	21.6	0.00e+00	0	40	0	3024093184	47	4144
2026-01-21 05:33:14.70	270.57	20.58	-38.9	-39.7	21.6	0.00e+00	0	40	0	3030384640	47	4145
2026-01-21 05:33:15.69	270.36	20.50	-39.0	-39.9	21.5	0.00e+00	0	40	0	3037724672	47	4202
2026-01-21 05:33:16.69	270.16	20.42	-39.1	-40.0	21.4	0.00e+00	0	40	0	3045064704	47	4258
2026-01-21 05:33:17.68	269.95	20.34	-39.0	-39.9	21.5	0.00e+00	0	40	0	3052404736	47	4212
2026-01-21 05:33:18.68	269.75	20.26	-38.9	-39.8	21.6	0.00e+00	0	40	0	3059744768	47	4165
2026-01-21 05:33:19.67	269.55	20.19	-39.0	-39.9	21.5	0.00e+00	0	39	0	3066036224	47	4199
2026-01-21 05:33:20.67	269.34	20.11	-39.0	-39.9	21.5	0.00e+00	0	40	0	3073376256	47	4228
2026-01-21 05:33:21.66	269.15	20.03	-39.1	-39.9	21.4	0.00e+00	0	39	0	3080716288	47	4231
2026-01-21 05:33:22.73	268.93	19.94	-39.0	-39.8	21.5	0.00e+00	0	40	0	3088056320	47	4191
2026-01-21 05:33:23.59	268.76	19.88	-38.9	-39.8	21.6	0.00e+00	0	40	0	3094347776	47	4151
2026-01-21 05:33:24.73	268.53	19.78	-38.9	-39.7	21.6	0.00e+00	0	40	0	3102736384	47	4141
2026-01-21 05:33:25.58	268.37	19.72	-38.9	-39.8	21.6	0.00e+00	0	40	0	3109027840	47	4177
2026-01-21 05:33:26.72	268.14	19.63	-39.0	-39.9	21.5	0.00e+00	0	40	0	3117416448	47	4220
2026-01-21 05:33:27.57	267.98	19.56	-39.0	-39.9	21.5	0.00e+00	0	39	0	3123707904	47	4221
2026-01-21 05:33:28.70	267.76	19.47	-39.1	-40.0	21.4	0.00e+00	0	40	0	3132096512	47	4251
2026-01-21 05:33:29.56	267.59	19.40	-39.0	-39.9	21.5	0.00e+00	0	40	0	3138387968	47	4225
2026-01-21 05:33:30.70	267.37	19.31	-39.1	-40.0	21.4	0.00e+00	0	40	0	3145728000	47	4264
2026-01-21 05:33:31.55	267.21	19.24	-39.2	-40.1	21.2	0.00e+00	0	39	0	3152019456	47	4300
2026-01-21 05:33:32.68	267.00	19.15	-39.3	-40.1	21.3	0.00e+00	0	40	0	3160408064	47	4329
2026-01-21 05:33:33.54	266.83	19.08	-39.4	-40.3	21.5	0.00e+00	0	40	0	3166699520	48	4168
2026-01-21 05:33:34.68	266.62	18.99	-39.4	-40.3	21.4	0.00e+00	0	40	0	3175088128	48	4159
2026-01-21 05:33:35.53	266.46	18.92	-39.5	-40.3	21.4	0.00e+00	0	39	0	3181379584	48	4186
2026-01-21 05:33:36.67	266.25	18.83	-39.4	-40.3	21.5	0.00e+00	0	40	0	3189768192	48	4165
2026-01-21 05:33:37.52	266.09	18.76	-39.4	-40.2	21.5	0.00e+00	0	40	0	3195011072	48	4141
2026-01-21 05:33:38.66	265.88	18.67	-39.3	-40.1	21.6	0.00e+00	0	40	0	3203399680	48	4090
2026-01-21 05:33:39.51	265.73	18.60	-39.2	-40.1	21.6	0.00e+00	0	40	0	3209691136	48	4065
2026-01-21 05:33:40.64	265.52	18.51	-39.3	-40.2	21.6	0.00e+00	0	39	0	3218079744	48	4107
2026-01-21 05:33:41.50	265.36	18.44	-39.4	-40.3	21.5	0.00e+00	0	40	0	3224371200	48	4164
2026-01-21 05:33:42.64	265.16	18.35	-39.5	-40.3	21.4	0.00e+00	0	40	0	3231711232	48	4182
2026-01-21 05:33:43.61	264.99	18.27	-39.5	-40.4	21.4	0.00e+00	0	39	0	3239051264	48	4208
2026-01-21 05:33:44.78	264.78	18.17	-39.7	-40.5	21.2	0.00e+00	0	39	0	3247439872	48	4279
2026-01-21 05:33:45.64	264.63	18.10	-39.7	-40.6	21.2	0.00e+00	0	40	0	3253731328	48	4328
2026-01-21 05:33:46.77	264.43	18.01	-39.8	-40.7	21.1	0.00e+00	0	40	0	3262119936	49	4126
2026-01-21 05:33:47.69	264.27	17.94	-39.9	-40.8	21.0	0.00e+00	0	39	0	3268411392	49	4171
2026-01-21 05:33:48.89	264.06	17.84	-40.0	-40.9	20.9	0.00e+00	0	40	0	3277848576	49	4198
2026-01-21 05:33:49.74	263.91	17.77	-40.0	-40.9	20.9	0.00e+00	0	40	0	3283091456	49	4229
2026-01-21 05:33:50.88	263.71	17.68	-40.0	-40.9	21.0	0.00e+00	0	40	0	3291480064	49	4196
2026-01-21 05:33:51.73	263.57	17.61	-40.0	-40.9	20.9	0.00e+00	0	39	0	3297771520	49	4212
2026-01-21 05:33:52.87	263.37	17.52	-40.0	-40.9	20.9	0.00e+00	0	40	0	3306160128	49	4228
2026-01-21 05:33:53.72	263.23	17.45	-40.1	-41.0	20.8	0.00e+00	0	40	0	3312451584	49	4247
2026-01-21 05:33:54.85	263.04	17.36	-40.1	-41.0	20.9	0.00e+00	0	40	0	3320840192	49	4248
2026-01-21 05:33:55.71	262.89	17.29	-40.0	-41.0	20.9	0.00e+00	0	39	0	3327131648	49	4244
2026-01-21 05:33:56.84	262.71	17.20	-40.1	-41.0	20.8	0.00e+00	0	39	0	3334471680	49	4267
2026-01-21 05:33:57.70	262.56	17.13	-40.2	-41.1	20.7	0.00e+00	0	40	0	3340763136	49	4330
2026-01-21 05:33:58.83	262.38	17.04	-40.0	-40.9	20.9	0.00e+00	0	40	0	3349151744	49	4225
2026-01-21 05:33:59.69	262.23	16.97	-40.1	-41.0	20.8	0.00e+00	0	40	0	3355443200	49	4266
2026-01-21 05:34:00.82	262.05	16.88	-40.1	-41.0	20.8	0.00e+00	0	39	0	3363831808	49	4245
2026-01-21 05:34:01.67	261.91	16.81	-39.8	-40.7	21.0	0.00e+00	0	40	0	3370123264	49	4109
2026-01-21 05:34:02.81	261.73	16.72	-39.8	-40.7	21.1	0.00e+00	0	39	0	3378511872	49	4108
2026-01-21 05:34:03.67	261.59	16.65	-39.8	-40.7	21.0	0.00e+00	0	39	0	3383754752	49	4133
2026-01-21 05:34:04.80	261.41	16.56	-39.9	-40.7	21.0	0.00e+00	0	39	0	3392143360	49	4142
2026-01-21 05:34:05.66	261.27	16.49	-39.9	-40.8	21.0	0.00e+00	0	40	0	3398434816	49	4150
2026-01-21 05:34:06.99	261.06	16.38	-39.9	-40.8	20.9	0.00e+00	0	40	0	3407872000	49	4169
2026-01-21 05:34:07.70	260.95	16.32	-39.9	-40.8	20.9	0.00e+00	0	40	0	3413114880	49	4191
2026-01-21 05:34:08.98	260.75	16.22	-40.1	-41.0	20.8	0.00e+00	0	39	0	3422552064	49	4258
2026-01-21 05:34:09.69	260.64	16.16	-40.2	-41.1	20.7	0.00e+00	0	40	0	3427794944	49	4303
2026-01-21 05:34:11.27	260.40	16.03	-40.2	-41.1	20.6	0.00e+00	0	40	0	3439329280	49	4330
2026-01-21 05:34:11.91	260.30	15.98	-40.3	-41.2	20.6	0.00e+00	0	40	0	3443523584	49	4367
2026-01-21 05:34:13.44	260.06	15.86	-40.5	-41.4	20.4	0.00e+00	0	39	0	3455057920	50	4229
2026-01-21 05:34:14.15	259.96	15.80	-40.5	-41.4	20.4	0.00e+00	0	40	0	3460300800	50	4228
2026-01-21 05:34:15.43	259.76	15.70	-40.4	-41.3	20.5	0.00e+00	0	39	0	3468689408	50	4172
2026-01-21 05:34:16.16	259.65	15.64	-40.4	-41.3	20.5	0.00e+00	0	40	0	3473932288	50	4173
2026-01-21 05:34:17.44	259.46	15.54	-40.4	-41.3	20.5	0.00e+00	0	39	0	3483369472	50	4188
2026-01-21 05:34:18.15	259.36	15.48	-40.4	-41.3	20.4	0.00e+00	0	40	0	3488612352	50	4193
2026-01-21 05:34:19.42	259.17	15.38	-40.6	-41.5	20.3	0.00e+00	0	39	0	3498049536	50	4276
2026-01-21 05:34:20.13	259.07	15.33	-40.6	-41.5	20.3	0.00e+00	0	40	0	3503292416	50	4265
2026-01-21 05:34:21.41	258.88	15.22	-40.5	-41.5	20.3	0.00e+00	0	40	0	3512729600	50	4253
2026-01-21 05:34:22.12	258.78	15.17	-40.5	-41.5	20.3	0.00e+00	0	39	0	3516923904	50	4252
2026-01-21 05:34:23.40	258.59	15.07	-40.6	-41.6	20.2	0.00e+00	0	40	0	3526361088	50	4306
2026-01-21 05:34:24.14	258.48	15.01	-40.7	-41.6	20.2	0.00e+00	0	39	0	3531603968	50	4325
2026-01-21 05:34:25.63	258.27	14.89	-40.7	-41.7	20.1	0.00e+00	0	40	0	3542089728	50	4357
2026-01-21 05:34:26.34	258.17	14.83	-40.8	-41.7	20.1	0.00e+00	0	40	0	3547332608	51	4124
2026-01-21 05:34:27.62	257.99	14.73	-40.9	-41.9	20.0	0.00e+00	0	40	0	3556769792	51	4212
2026-01-21 05:34:28.34	257.89	14.67	-40.9	-41.9	19.9	0.00e+00	0	40	0	3562012672	51	4216
2026-01-21 05:34:29.73	257.69	14.56	-41.0	-42.0	19.9	0.00e+00	0	40	0	3572498432	51	4255
2026-01-21 05:34:30.44	257.60	14.51	-41.1	-42.1	19.8	0.00e+00	0	40	0	3577741312	51	4311
2026-01-21 05:34:31.78	257.41	14.40	-41.3	-42.3	19.6	0.00e+00	0	40	0	3587178496	51	4393
2026-01-21 05:34:32.49	257.31	14.35	-41.1	-42.1	19.7	0.00e+00	0	40	0	3592421376	52	4076
2026-01-21 05:34:33.77	257.14	14.25	-41.2	-42.2	19.6	0.00e+00	0	40	0	3601858560	52	4111
2026-01-21 05:34:34.48	257.04	14.19	-41.2	-42.1	19.6	0.00e+00	0	39	0	3606052864	52	4094
2026-01-21 05:34:35.76	256.87	14.09	-41.2	-42.2	19.6	0.00e+00	0	40	0	3615490048	52	4119
2026-01-21 05:34:36.48	256.77	14.03	-41.2	-42.2	19.6	0.00e+00	0	39	0	3620732928	52	4104
2026-01-21 05:34:37.75	256.60	13.93	-41.1	-42.1	19.7	0.00e+00	0	40	0	3630170112	52	4058
2026-01-21 05:34:38.46	256.51	13.88	-40.9	-41.9	19.9	0.00e+00	0	39	0	3635412992	52	3968
2026-01-21 05:34:39.74	256.34	13.78	-40.8	-41.7	19.9	0.00e+00	0	40	0	3644850176	52	3907
2026-01-21 05:34:40.47	256.24	13.72	-40.7	-41.7	20.0	0.00e+00	0	40	0	3650093056	52	3882
2026-01-21 05:34:41.75	256.07	13.62	-40.7	-41.7	20.0	0.00e+00	0	40	0	3659530240	52	3871
2026-01-21 05:34:42.46	255.98	13.57	-40.6	-41.6	20.1	0.00e+00	0	40	0	3663724544	52	3837
2026-01-21 05:34:43.74	255.82	13.47	-40.6	-41.6	20.0	0.00e+00	0	40	0	3673161728	52	3842
2026-01-21 05:34:44.47	255.72	13.41	-40.8	-41.7	19.9	0.00e+00	0	40	0	3678404608	52	3903
2026-01-21 05:34:45.75	255.56	13.31	-41.0	-42.0	19.7	0.00e+00	0	40	0	3687841792	52	4007
2026-01-21 05:34:46.47	255.47	13.26	-41.0	-42.0	19.7	0.00e+00	0	40	0	3693084672	52	4042
2026-01-21 05:34:47.75	255.30	13.16	-41.2	-42.2	19.6	0.00e+00	0	40	0	3702521856	52	4105
2026-01-21 05:34:48.46	255.21	13.10	-41.2	-42.2	19.5	0.00e+00	0	40	0	3707764736	52	4137
2026-01-21 05:34:49.74	255.05	13.00	-41.3	-42.3	19.5	0.00e+00	0	40	0	3716153344	52	4165
2026-01-21 05:34:50.45	254.97	12.95	-41.3	-42.3	19.4	0.00e+00	0	40	0	3722444800	52	4172
2026-01-21 05:34:51.73	254.81	12.85	-41.3	-42.3	19.4	0.00e+00	0	39	0	3730833408	52	4184
2026-01-21 05:34:52.46	254.72	12.79	-41.3	-42.3	19.4	0.00e+00	0	39	0	3736076288	52	4163
2026-01-21 05:34:53.74	254.56	12.70	-41.2	-42.2	19.5	0.00e+00	0	40	0	3745513472	52	4116
2026-01-21 05:34:54.45	254.47	12.64	-41.1	-42.1	19.6	0.00e+00	0	39	0	3750756352	52	4058
2026-01-21 05:34:55.73	254.32	12.54	-41.0	-42.0	19.7	0.00e+00	0	40	0	3760193536	52	4013
2026-01-21 05:34:56.44	254.23	12.49	-41.1	-42.0	19.6	0.00e+00	0	40	0	3765436416	52	4047
2026-01-21 05:34:57.72	254.08	12.39	-40.9	-41.9	19.8	0.00e+00	0	40	0	3773825024	52	3982
2026-01-21 05:34:58.43	253.99	12.34	-41.0	-42.0	19.7	0.00e+00	0	40	0	3779067904	52	4015
2026-01-21 05:34:59.71	253.84	12.24	-40.9	-41.8	19.8	0.00e+00	0	40	0	3788505088	52	3950
2026-01-21 05:35:00.50	253.75	12.18	-41.0	-42.0	19.6	0.00e+00	0	39	0	3793747968	52	4029
2026-01-21 05:35:01.71	253.60	12.09	-41.0	-42.0	19.7	0.00e+00	0	40	0	3803185152	52	4014
2026-01-21 05:35:02.57	253.50	12.03	-41.0	-42.0	19.6	0.00e+00	0	39	0	3809476608	52	4028
2026-01-21 05:35:03.70	253.37	11.94	-41.2	-42.1	19.5	0.00e+00	0	40	0	3817865216	52	4087
2026-01-21 05:35:04.71	253.25	11.86	-41.3	-42.2	19.4	0.00e+00	0	40	0	3825205248	52	4139
2026-01-21 05:35:05.87	253.12	11.78	-41.2	-42.2	19.5	0.00e+00	0	40	0	3833593856	52	4111
2026-01-21 05:35:06.75	253.02	11.71	-41.3	-42.3	19.4	0.00e+00	0	40	0	3839885312	52	4151
2026-01-21 05:35:07.89	252.89	11.62	-41.3	-42.3	19.4	0.00e+00	0	40	0	3847225344	52	4166
2026-01-21 05:35:08.74	252.79	11.56	-41.3	-42.3	19.3	0.00e+00	0	40	0	3853516800	52	4177
2026-01-21 05:35:09.88	252.66	11.48	-41.4	-42.4	19.3	0.00e+00	0	39	0	3861905408	52	4196
2026-01-21 05:35:10.87	252.55	11.40	-41.4	-42.4	19.3	0.00e+00	0	39	0	3869245440	52	4238
2026-01-21 05:35:11.86	252.44	11.33	-41.4	-42.4	19.3	0.00e+00	0	40	0	3876585472	52	4206
2026-01-21 05:35:12.86	252.33	11.25	-41.4	-42.4	19.3	0.00e+00	0	39	0	3883925504	52	4242
2026-01-21 05:35:13.85	252.22	11.18	-41.6	-42.6	19.1	0.00e+00	0	40	0	3891265536	52	4316
2026-01-21 05:35:14.85	252.11	11.11	-41.6	-42.6	19.0	0.00e+00	0	39	0	3897556992	52	4338
2026-01-21 05:35:15.84	252.00	11.03	-41.6	-42.7	19.0	0.00e+00	0	40	0	3904897024	52	4349
2026-01-21 05:35:16.84	251.89	10.96	-41.6	-42.6	19.0	0.00e+00	0	40	0	3912237056	52	4338
2026-01-21 05:35:17.83	251.79	10.89	-41.6	-42.7	19.0	0.00e+00	0	39	0	3919577088	52	4355
2026-01-21 05:35:18.83	251.68	10.81	-41.7	-42.7	18.9	0.00e+00	0	40	0	3926917120	52	4386
2026-01-21 05:35:19.82	251.57	10.74	-41.7	-42.8	18.9	0.00e+00	0	39	0	3934257152	52	4413
2026-01-21 05:35:20.82	251.47	10.67	-41.9	-42.9	18.8	0.00e+00	0	40	0	3940548608	53	4222
2026-01-21 05:35:21.94	251.35	10.58	-41.8	-42.9	18.8	0.00e+00	0	40	0	3948937216	53	4200
2026-01-21 05:35:22.82	251.26	10.52	-41.7	-42.7	19.0	0.00e+00	0	40	0	3955228672	53	4121
2026-01-21 05:35:23.96	251.14	10.44	-41.7	-42.7	18.9	0.00e+00	0	40	0	3963617280	53	4144
2026-01-21 05:35:24.82	251.05	10.37	-41.7	-42.8	18.9	0.00e+00	0	39	0	3969908736	53	4152
2026-01-21 05:35:25.95	250.93	10.29	-41.7	-42.7	18.9	0.00e+00	0	40	0	3978297344	53	4140
2026-01-21 05:35:26.81	250.84	10.23	-41.7	-42.7	18.9	0.00e+00	0	40	0	3984588800	53	4145
2026-01-21 05:35:27.94	250.72	10.15	-41.8	-42.8	18.8	0.00e+00	0	40	0	3991928832	53	4184
2026-01-21 05:35:28.79	250.64	10.09	-41.8	-42.8	18.8	0.00e+00	0	40	0	3998220288	53	4177
2026-01-21 05:35:29.93	250.52	10.00	-41.7	-42.7	19.0	0.00e+00	0	40	0	4006608896	53	4123
2026-01-21 05:35:30.78	250.43	9.94	-41.7	-42.7	19.0	0.00e+00	0	40	0	4012900352	53	4114
2026-01-21 05:35:31.92	250.32	9.86	-41.8	-42.8	18.8	0.00e+00	0	40	0	4021288960	53	4193
2026-01-21 05:35:32.77	250.23	9.80	-41.6	-42.6	19.0	0.00e+00	0	39	0	4027580416	53	4079
2026-01-21 05:35:33.94	250.12	9.71	-41.5	-42.5	19.1	0.00e+00	0	40	0	4035969024	53	4036
2026-01-21 05:35:34.79	250.03	9.65	-41.5	-42.5	19.0	0.00e+00	0	40	0	4042260480	53	4034
2026-01-21 05:35:35.99	249.91	9.57	-41.5	-42.5	19.0	0.00e+00	0	40	0	4050649088	53	4032
2026-01-21 05:35:36.84	249.83	9.51	-41.4	-42.4	19.2	0.00e+00	0	39	0	4056940544	53	3974
2026-01-21 05:35:38.04	249.71	9.42	-41.5	-42.5	19.1	0.00e+00	0	39	0	4065329152	53	4038
2026-01-21 05:35:38.89	249.63	9.36	-41.4	-42.4	19.1	0.00e+00	0	40	0	4071620608	53	3996
2026-01-21 05:35:40.11	249.51	9.27	-41.5	-42.5	19.0	0.00e+00	0	40	0	4080009216	53	4036
2026-01-21 05:35:40.96	249.43	9.21	-41.5	-42.4	19.1	0.00e+00	0	40	0	4086300672	53	4003
2026-01-21 05:35:42.10	249.32	9.13	-41.5	-42.6	19.1	0.00e+00	0	40	0	4094689280	53	4053
2026-01-21 05:35:43.43	249.19	9.04	-41.7	-42.8	18.9	0.00e+00	0	40	0	4104126464	53	4155
2026-01-21 05:35:44.13	249.13	8.99	-52.5	-63.0	3.8	6.74e-01	0	40	104	4107272192	74	12687
2026-01-21 05:35:45.41	249.01	8.90	-52.6	-63.5	3.8	8.47e-01	0	40	104	4107272192	74	13432
2026-01-21 05:35:46.12	248.94	8.85	-52.8	-63.6	3.8	8.47e-01	0	40	104	4107272192	75	12841
2026-01-21 05:35:47.40	248.82	8.76	-52.9	-63.7	3.8	8.47e-01	0	40	104	4107272192	75	13027
2026-01-21 05:35:48.14	248.75	8.71	-53.0	-63.8	3.8	8.47e-01	0	40	104	4107272192	75	13114
2026-01-21 05:35:49.42	248.63	8.62	-53.1	-63.8	3.8	8.46e-01	0	40	104	4107272192	75	13217
2026-01-21 05:35:50.13	248.57	8.57	-53.2	-63.8	3.8	8.47e-01	0	40	104	4107272192	75	13251
2026-01-21 05:35:51.45	248.45	8.48	-53.2	-63.9	3.8	8.47e-01	0	40	104	4107272192	75	13316
2026-01-21 05:35:52.16	248.38	8.43	-53.2	-63.9	3.8	8.47e-01	0	40	104	4107272192	75	13333
2026-01-21 05:35:53.44	248.27	8.34	-53.2	-63.9	3.8	8.46e-01	0	40	104	4107272192	75	13311
2026-01-21 05:35:54.15	248.20	8.29	-53.2	-63.9	3.8	8.46e-01	0	40	104	4107272192	75	13386
2026-01-21 05:35:55.52	248.08	8.20	-53.2	-63.9	3.8	8.47e-01	0	40	104	4107272192	75	13323
2026-01-21 05:35:56.23	248.02	8.15	-53.2	-64.0	3.8	8.48e-01	0	40	104	4107272192	75	13508
2026-01-21 05:35:57.59	247.90	8.05	-53.1	-63.9	3.8	8.48e-01	0	40	104	4107272192	75	13320
2026-01-21 05:35:58.30	247.83	8.00	-53.0	-63.9	3.8	8.46e-01	0	40	104	4107272192	75	13375
2026-01-21 05:35:59.64	247.72	7.91	-53.1	-63.9	3.8	8.46e-01	0	40	104	4107272192	75	13382
2026-01-21 05:36:00.35	247.65	7.86	-53.1	-63.9	3.8	8.48e-01	0	40	104	4107272192	75	13393
2026-01-21 05:36:01.69	247.54	7.77	-53.1	-63.9	3.8	8.48e-01	0	40	104	4107272192	75	13363
2026-01-21 05:36:02.40	247.48	7.72	-53.0	-63.9	3.8	8.46e-01	0	40	104	4107272192	75	13323
2026-01-21 05:36:03.74	247.36	7.63	-53.0	-63.9	3.8	8.46e-01	0	40	104	4107272192	75	13297
2026-01-21 05:36:04.45	247.30	7.58	-53.0	-63.9	3.8	8.47e-01	0	40	104	4107272192	75	13306
2026-01-21 05:36:05.79	247.18	7.49	-52.9	-63.8	3.8	8.48e-01	0	40	104	4107272192	75	13204
2026-01-21 05:36:06.50	247.12	7.45	-52.9	-63.8	3.8	8.47e-01	0	40	104	4107272192	75	13207
2026-01-21 05:36:07.84	247.01	7.35	-52.9	-63.8	3.8	8.47e-01	0	40	104	4107272192	75	13179
2026-01-21 05:36:08.55	246.95	7.31	-52.9	-63.8	3.8	8.46e-01	0	40	104	4107272192	75	13229
2026-01-21 05:36:09.83	246.84	7.22	-52.9	-63.8	3.8	8.46e-01	0	40	104	4107272192	75	13155
2026-01-21 05:36:10.56	246.78	7.17	-52.9	-63.8	3.8	8.47e-01	0	40	104	4107272192	75	13176
2026-01-21 05:36:11.84	246.68	7.09	-52.9	-63.8	3.8	8.47e-01	0	40	104	4107272192	75	13220
2026-01-21 05:36:12.55	246.62	7.04	-52.9	-63.8	3.8	8.47e-01	0	40	104	4107272192	75	13239
2026-01-21 05:36:13.83	246.51	6.95	-52.9	-63.8	3.8	8.46e-01	0	40	104	4107272192	75	13219
2026-01-21 05:36:14.55	246.45	6.90	-52.9	-63.8	3.8	8.47e-01	0	40	104	4107272192	75	13195
2026-01-21 05:36:15.83	246.35	6.82	-52.9	-63.8	3.8	8.46e-01	0	40	104	4107272192	75	13126
2026-01-21 05:36:16.56	246.29	6.77	-52.9	-63.8	3.8	8.47e-01	0	40	104	4107272192	75	13189
2026-01-21 05:36:17.83	246.19	6.69	-52.9	-63.8	3.8	8.46e-01	0	40	104	4107272192	75	13197
2026-01-21 05:36:18.54	246.13	6.64	-52.9	-63.7	3.8	8.47e-01	0	40	104	4107272192	75	13101
2026-01-21 05:36:19.82	246.03	6.55	-52.9	-63.8	3.8	8.46e-01	0	40	104	4107272192	75	13205
2026-01-21 05:36:20.53	245.97	6.51	-52.9	-63.8	3.8	8.48e-01	0	40	104	4107272192	75	13206
2026-01-21 05:36:21.81	245.87	6.42	-52.9	-63.8	3.8	8.47e-01	0	40	104	4107272192	75	13176
2026-01-21 05:36:22.52	245.82	6.38	-52.9	-63.8	3.8	8.47e-01	0	40	104	4107272192	75	13232
2026-01-21 05:36:23.79	245.72	6.29	-52.9	-63.8	3.8	8.46e-01	0	40	104	4107272192	75	13197
2026-01-21 05:36:24.50	245.66	6.25	-52.9	-63.8	3.8	8.47e-01	0	40	104	4107272192	75	13194
2026-01-21 05:36:25.78	245.56	6.16	-52.9	-63.8	3.8	8.46e-01	0	40	104	4107272192	75	13149
2026-01-21 05:36:26.49	245.51	6.12	-52.9	-63.8	3.8	8.47e-01	0	40	104	4107272192	75	13207
2026-01-21 05:36:27.77	245.41	6.03	-52.9	-63.8	3.8	8.45e-01	0	40	104	4107272192	75	13160
2026-01-21 05:36:28.49	245.35	5.99	-52.9	-63.8	3.8	8.46e-01	0	40	104	4107272192	75	13117
2026-01-21 05:36:29.77	245.25	5.90	-52.9	-63.8	3.8	8.46e-01	0	40	104	4107272192	75	13130
2026-01-21 05:36:30.48	245.20	5.86	-52.9	-63.7	3.8	8.48e-01	0	40	104	4107272192	75	13109
2026-01-21 05:36:31.76	245.10	5.77	-52.9	-63.8	3.8	8.47e-01	0	40	104	4107272192	75	13126
2026-01-21 05:36:32.47	245.05	5.73	-52.9	-63.8	3.8	8.47e-01	0	40	104	4107272192	75	13140
2026-01-21 05:36:33.74	244.95	5.65	-52.9	-63.7	3.8	8.46e-01	0	40	104	4107272192	75	13064
2026-01-21 05:36:34.47	244.90	5.60	-52.9	-63.8	3.8	8.47e-01	0	40	104	4107272192	75	13185
2026-01-21 05:36:35.75	244.81	5.52	-52.9	-63.8	3.8	8.46e-01	0	40	104	4107272192	75	13241
2026-01-21 05:36:36.47	244.75	5.47	-52.9	-63.7	3.8	8.46e-01	0	40	104	4107272192	75	13093
2026-01-21 05:36:37.75	244.66	5.39	-52.9	-63.8	3.8	8.47e-01	0	40	104	4107272192	75	13112
2026-01-21 05:36:38.46	244.61	5.34	-52.9	-63.8	3.8	8.46e-01	0	40	104	4107272192	75	13166
2026-01-21 05:36:39.73	244.51	5.26	-52.9	-63.8	3.8	8.47e-01	0	40	104	4107272192	75	13148
2026-01-21 05:36:40.44	244.46	5.22	-52.9	-63.8	3.8	8.47e-01	0	40	104	4107272192	75	13156
2026-01-21 05:36:41.72	244.37	5.13	-52.9	-63.8	3.8	8.46e-01	0	40	104	4107272192	75	13113
2026-01-21 05:36:42.43	244.32	5.09	-52.9	-63.8	3.8	8.48e-01	0	40	104	4107272192	75	13188
2026-01-21 05:36:43.71	244.23	5.01	-52.9	-63.7	3.8	8.47e-01	0	40	104	4107272192	75	13106
2026-01-21 05:36:44.42	244.18	4.96	-52.9	-63.8	3.8	8.47e-01	0	40	104	4107272192	75	13151

#Closed at: 2026-01-21 05:36:45
#Recorded file [4107 MB]: D:/Data/31040_260121_082522.dat