passes_logs/2026/01/21/T1/T1__20260121_232429_NOAA_20_JPSS-1_rec.log

#Pass ID: 20260121_232429_NOAA 20 (JPSS-1)
#Satellite: NOAA 20 (JPSS-1)
#Configuration: NOAA 20
#almurnet v.1.7.20251203
#Start time: 2026-01-21 23:24:29

#Version: 2.0.20230620
#Station: T1
#Location: 37.570604 lon 55.790049 lat
#TLE: 1 43013U 17073A   26021.46221703  .00000173  00000+0  10299-3 0  9999
#TLE: 2 43013  98.7644 322.3335 0001238  29.7597 330.3649 14.19538314423652

#Time	Az	El	Level	Level2	SNR	BER	BlckErr	Temp	State	Recorded	gain1	gain2
2026-01-21 23:24:29.98	18.31	5.01	-48.9	-65.6	3.8	1.49e+00	0	35	0	0	68	25861
2026-01-21 23:24:30.97	18.33	5.08	-48.9	-65.4	3.8	1.49e+00	0	35	104	0	68	25486
2026-01-21 23:24:31.96	18.35	5.15	-48.9	-65.4	3.8	1.49e+00	0	35	104	0	68	25508
2026-01-21 23:24:32.95	18.37	5.22	-48.9	-65.4	3.8	1.49e+00	0	35	104	0	68	25325
2026-01-21 23:24:33.94	18.39	5.29	-48.9	-65.3	3.8	1.49e+00	0	35	104	0	68	25246
2026-01-21 23:24:34.94	18.41	5.36	-48.9	-65.4	3.8	1.49e+00	0	36	104	0	68	25348
2026-01-21 23:24:35.93	18.43	5.43	-48.9	-65.3	3.8	1.49e+00	0	36	104	0	68	25137
2026-01-21 23:24:36.92	18.45	5.50	-48.9	-65.3	3.8	1.49e+00	0	36	104	0	68	25002
2026-01-21 23:24:37.92	18.47	5.58	-48.9	-65.3	3.8	1.49e+00	0	36	104	0	68	25122
2026-01-21 23:24:38.91	18.49	5.65	-48.9	-65.3	3.8	1.49e+00	0	36	104	0	68	25001
2026-01-21 23:24:39.90	18.51	5.72	-48.9	-65.3	3.8	1.49e+00	0	36	104	0	68	25064
2026-01-21 23:24:40.90	18.53	5.79	-48.9	-65.3	3.8	1.49e+00	0	36	104	0	68	25032
2026-01-21 23:24:41.89	18.55	5.86	-48.9	-65.4	3.8	1.49e+00	0	36	104	0	68	25332
2026-01-21 23:24:42.88	18.57	5.94	-48.9	-65.4	3.8	1.49e+00	0	36	104	0	68	25358
2026-01-21 23:24:43.88	18.59	6.01	-48.9	-65.4	3.8	1.49e+00	0	36	104	0	68	25493
2026-01-21 23:24:44.87	18.61	6.08	-48.9	-65.4	3.8	1.49e+00	0	36	104	0	68	25520
2026-01-21 23:24:45.86	18.63	6.16	-48.9	-65.5	3.8	1.49e+00	0	36	104	0	68	25598
2026-01-21 23:24:46.86	18.65	6.23	-48.9	-65.5	3.8	1.49e+00	0	36	104	0	68	25707
2026-01-21 23:24:47.85	18.67	6.30	-48.9	-65.5	3.8	1.49e+00	0	36	104	0	68	25714
2026-01-21 23:24:48.84	18.69	6.38	-48.9	-65.4	3.8	1.49e+00	0	36	104	0	68	25554
2026-01-21 23:24:49.84	18.71	6.45	-48.9	-65.4	3.8	1.49e+00	0	36	104	0	68	25343
2026-01-21 23:24:50.83	18.73	6.52	-48.9	-65.3	3.8	1.49e+00	0	36	104	0	68	25217
2026-01-21 23:24:51.82	18.75	6.60	-48.9	-65.2	3.8	1.49e+00	0	36	104	0	68	24923
2026-01-21 23:24:52.82	18.77	6.67	-48.9	-65.1	3.8	1.49e+00	0	36	104	0	68	24465
2026-01-21 23:24:53.81	18.79	6.75	-48.9	-64.9	3.8	1.49e+00	0	36	104	0	68	23923
2026-01-21 23:24:54.80	18.81	6.82	-48.9	-64.6	3.8	1.49e+00	0	36	104	0	68	23278
2026-01-21 23:24:55.80	18.84	6.90	-48.9	-64.4	3.8	1.49e+00	0	36	104	0	68	22529
2026-01-21 23:24:56.79	18.86	6.97	-48.9	-64.1	3.8	1.49e+00	0	36	104	0	68	21934
2026-01-21 23:24:57.78	18.88	7.05	-48.9	-63.9	3.9	1.49e+00	0	36	104	0	68	21271
2026-01-21 23:24:58.78	18.90	7.12	-48.8	-63.5	3.8	1.49e+00	0	36	104	0	68	20322
2026-01-21 23:24:59.77	18.92	7.20	-48.8	-63.2	3.9	1.48e+00	0	37	104	0	68	19810
2026-01-21 23:25:00.76	18.94	7.28	-48.8	-62.8	4.0	1.48e+00	0	36	104	0	68	18941
2026-01-21 23:25:01.75	18.97	7.35	-48.8	-62.8	3.9	1.48e+00	0	36	104	0	68	18899
2026-01-21 23:25:02.75	18.99	7.43	-48.8	-62.5	4.1	1.45e+00	0	37	0	0	68	18161
2026-01-21 23:25:03.74	19.01	7.51	-48.8	-62.3	4.1	1.44e+00	0	37	0	0	68	17878
2026-01-21 23:25:04.73	19.03	7.58	-48.8	-62.2	4.1	1.42e+00	0	37	0	0	68	17617
2026-01-21 23:25:05.73	19.05	7.66	-48.8	-62.1	4.2	1.41e+00	0	37	0	0	68	17293
2026-01-21 23:25:06.72	19.08	7.74	-48.8	-62.1	4.2	1.40e+00	0	37	0	0	68	17369
2026-01-21 23:25:07.71	19.10	7.82	-48.8	-61.9	4.2	1.39e+00	0	37	0	0	68	16915
2026-01-21 23:25:08.71	19.12	7.89	-48.7	-61.6	4.3	1.35e+00	0	37	0	0	68	16325
2026-01-21 23:25:09.70	19.14	7.97	-48.7	-61.5	4.3	1.33e+00	0	37	0	0	68	16307
2026-01-21 23:25:10.69	19.17	8.05	-48.7	-61.0	4.5	1.16e+00	0	37	0	2097152	68	15389
2026-01-21 23:25:11.69	19.19	8.13	-48.7	-60.7	4.6	9.70e-01	0	37	0	3145728	68	14756
2026-01-21 23:25:12.68	19.21	8.21	-48.6	-60.2	4.9	8.44e-01	0	37	0	5242880	68	14032
2026-01-21 23:25:13.67	19.23	8.29	-48.5	-59.4	5.3	6.92e-01	0	37	0	7340032	68	12712
2026-01-21 23:25:14.67	19.26	8.37	-48.5	-58.6	5.9	4.16e-01	0	37	0	9437184	68	11672
2026-01-21 23:25:15.66	19.28	8.45	-48.3	-57.7	6.6	2.77e-01	0	37	0	11534336	68	10469
2026-01-21 23:25:16.65	19.30	8.53	-48.2	-57.0	7.2	1.79e-01	0	37	0	12582912	68	9607
2026-01-21 23:25:17.65	19.33	8.61	-47.8	-55.7	8.3	6.59e-02	0	37	0	14680064	67	8780
2026-01-21 23:25:18.64	19.35	8.69	-47.6	-54.9	9.1	3.55e-02	0	37	0	16777216	67	8026
2026-01-21 23:25:19.63	19.37	8.77	-47.4	-54.2	9.8	1.44e-02	0	37	0	18874368	66	7891
2026-01-21 23:25:20.63	19.40	8.85	-47.3	-53.7	10.3	7.54e-03	0	37	0	19922944	66	7411
2026-01-21 23:25:21.62	19.42	8.93	-47.1	-53.3	10.8	3.09e-03	0	37	0	22020096	66	7041
2026-01-21 23:25:22.61	19.44	9.01	-46.9	-52.8	11.3	1.29e-03	0	37	0	24117248	65	7048
2026-01-21 23:25:23.61	19.47	9.10	-47.0	-52.9	11.1	9.04e-04	0	37	0	26214400	65	7203
2026-01-21 23:25:24.60	19.49	9.18	-47.4	-54.9	9.2	2.05e-03	0	37	0	28311552	65	9038
2026-01-21 23:25:25.60	19.52	9.26	-46.8	-52.5	11.6	2.75e-02	0	37	0	29360128	65	6833
2026-01-21 23:25:26.59	19.54	9.34	-47.8	-57.2	7.1	1.20e-02	0	37	0	31457280	66	11034
2026-01-21 23:25:27.58	19.57	9.43	-47.2	-53.3	10.6	7.92e-01	0	37	0	33554432	66	7049
2026-01-21 23:25:28.58	19.59	9.51	-46.5	-51.2	13.0	2.67e-05	0	37	0	35651584	64	6244
2026-01-21 23:25:29.57	19.62	9.59	-46.3	-51.0	13.2	2.59e-05	0	37	0	36700160	64	6090
2026-01-21 23:25:30.57	19.64	9.68	-46.3	-51.0	13.2	5.03e-05	0	37	0	38797312	64	6093
2026-01-21 23:25:31.56	19.66	9.76	-45.8	-49.9	14.4	3.00e-06	0	37	0	40894464	63	5676
2026-01-21 23:25:32.56	19.69	9.85	-45.5	-49.3	14.9	0.00e+00	0	37	0	42991616	63	5338
2026-01-21 23:25:33.55	19.72	9.93	-45.1	-48.6	15.6	0.00e+00	0	37	0	45088768	62	5206
2026-01-21 23:25:34.55	19.74	10.02	-44.8	-48.2	16.0	0.00e+00	0	37	0	46137344	61	5249
2026-01-21 23:25:35.54	19.77	10.10	-44.7	-48.1	16.1	0.00e+00	0	37	0	48234496	61	5201
2026-01-21 23:25:36.54	19.79	10.19	-44.7	-48.1	16.1	0.00e+00	0	37	0	50331648	61	5182
2026-01-21 23:25:37.53	19.82	10.27	-44.4	-47.5	16.7	0.00e+00	0	37	0	52428800	60	5154
2026-01-21 23:25:38.53	19.84	10.36	-44.4	-47.7	16.6	0.00e+00	0	37	0	53477376	60	5237
2026-01-21 23:25:39.52	19.87	10.45	-44.1	-47.3	16.9	0.00e+00	0	37	0	55574528	60	4985
2026-01-21 23:25:40.52	19.89	10.53	-44.2	-47.3	16.9	0.00e+00	0	37	0	57671680	60	5013
2026-01-21 23:25:41.51	19.92	10.62	-44.2	-47.3	16.9	0.00e+00	0	37	0	59768832	60	4994
2026-01-21 23:25:42.50	19.95	10.71	-44.2	-47.3	16.9	0.00e+00	0	37	0	61865984	60	5041
2026-01-21 23:25:43.50	19.97	10.80	-44.0	-47.0	17.2	0.00e+00	0	37	0	62914560	59	5114
2026-01-21 23:25:44.50	20.00	10.88	-44.1	-47.1	17.1	0.00e+00	0	37	0	65011712	59	5182
2026-01-21 23:25:45.49	20.03	10.97	-44.0	-47.1	17.1	0.00e+00	0	37	0	67108864	59	5162
2026-01-21 23:25:46.49	20.05	11.06	-43.9	-46.9	17.2	0.00e+00	0	37	0	69206016	59	5092
2026-01-21 23:25:47.48	20.08	11.15	-43.9	-46.9	17.3	0.00e+00	0	37	0	70254592	59	5047
2026-01-21 23:25:48.48	20.11	11.24	-44.0	-47.0	17.2	0.00e+00	0	37	0	72351744	59	5139
2026-01-21 23:25:49.47	20.14	11.33	-43.9	-46.9	17.3	0.00e+00	0	37	0	74448896	59	5080
2026-01-21 23:25:50.47	20.16	11.42	-44.1	-47.0	17.2	0.00e+00	0	37	0	76546048	59	5158
2026-01-21 23:25:51.46	20.19	11.51	-44.0	-46.9	17.3	0.00e+00	0	37	0	78643200	59	5098
2026-01-21 23:25:52.45	20.22	11.60	-44.1	-47.1	17.1	0.00e+00	0	38	0	79691776	59	5201
2026-01-21 23:25:53.45	20.25	11.69	-43.9	-46.9	17.3	0.00e+00	0	37	0	81788928	59	5086
2026-01-21 23:25:54.44	20.27	11.78	-43.9	-46.8	17.4	0.00e+00	0	38	0	83886080	59	5014
2026-01-21 23:25:55.44	20.30	11.87	-43.8	-46.7	17.5	0.00e+00	0	37	0	85983232	59	4950
2026-01-21 23:25:56.43	20.33	11.97	-43.8	-46.8	17.4	0.00e+00	0	37	0	87031808	59	5009
2026-01-21 23:25:57.43	20.36	12.06	-43.8	-46.7	17.5	0.00e+00	0	37	0	89128960	59	4976
2026-01-21 23:25:58.43	20.39	12.15	-43.9	-46.9	17.3	0.00e+00	0	38	0	91226112	59	5065
2026-01-21 23:25:59.42	20.42	12.24	-43.9	-46.9	17.3	0.00e+00	0	37	0	93323264	59	5059
2026-01-21 23:26:00.41	20.44	12.34	-43.9	-46.9	17.3	0.00e+00	0	38	0	95420416	59	5051
2026-01-21 23:26:01.41	20.47	12.43	-43.9	-46.8	17.4	0.00e+00	0	37	0	96468992	59	5024
2026-01-21 23:26:02.40	20.50	12.53	-44.0	-46.9	17.4	0.00e+00	0	37	0	98566144	59	5049
2026-01-21 23:26:03.40	20.53	12.62	-43.8	-46.7	17.5	0.00e+00	0	38	0	100663296	59	4974
2026-01-21 23:26:04.39	20.56	12.72	-43.9	-46.8	17.4	0.00e+00	0	37	0	102760448	59	5017
2026-01-21 23:26:05.39	20.59	12.81	-43.9	-46.9	17.4	0.00e+00	0	37	0	104857600	59	5043
2026-01-21 23:26:06.45	20.62	12.91	-43.8	-46.7	17.5	0.00e+00	0	37	0	105906176	59	4957
2026-01-21 23:26:07.35	20.65	13.00	-43.9	-46.8	17.4	0.00e+00	0	38	0	108003328	59	4997
2026-01-21 23:26:08.60	20.69	13.12	-43.9	-46.8	17.5	0.00e+00	0	37	0	110100480	59	4985
2026-01-21 23:26:09.45	20.71	13.20	-43.9	-46.7	17.5	0.00e+00	0	37	0	112197632	59	4981
2026-01-21 23:26:10.59	20.75	13.31	-43.9	-46.7	17.5	0.00e+00	0	37	0	114294784	59	4969
2026-01-21 23:26:11.44	20.78	13.40	-43.9	-46.8	17.5	0.00e+00	0	38	0	115343360	59	4997
2026-01-21 23:26:12.58	20.81	13.51	-44.0	-46.8	17.4	0.00e+00	0	38	0	117440512	59	5021
2026-01-21 23:26:13.57	20.84	13.61	-44.1	-46.9	17.4	0.00e+00	0	38	0	119537664	59	5077
2026-01-21 23:26:14.57	20.87	13.71	-44.0	-46.8	17.4	0.00e+00	0	38	0	121634816	59	5012
2026-01-21 23:26:15.56	20.90	13.81	-44.0	-46.8	17.5	0.00e+00	0	38	0	123731968	59	4990
2026-01-21 23:26:16.56	20.94	13.91	-44.2	-46.9	17.3	0.00e+00	0	38	0	124780544	59	5093
2026-01-21 23:26:17.55	20.97	14.01	-44.2	-47.0	17.3	0.00e+00	0	38	0	126877696	59	5101
2026-01-21 23:26:18.55	21.00	14.11	-44.1	-46.8	17.4	0.00e+00	0	38	0	128974848	59	5018
2026-01-21 23:26:19.54	21.03	14.21	-44.0	-46.7	17.6	0.00e+00	0	38	0	131072000	59	4953
2026-01-21 23:26:20.54	21.06	14.31	-44.2	-46.9	17.4	0.00e+00	0	38	0	133169152	59	5094
2026-01-21 23:26:21.53	21.10	14.41	-44.1	-46.9	17.4	0.00e+00	0	38	0	134217728	59	5051
2026-01-21 23:26:22.53	21.13	14.51	-44.2	-47.0	17.3	0.00e+00	0	38	0	136314880	59	5108
2026-01-21 23:26:23.52	21.16	14.61	-44.1	-46.9	17.4	0.00e+00	0	38	0	138412032	59	5049
2026-01-21 23:26:24.52	21.20	14.72	-44.1	-46.8	17.4	0.00e+00	0	38	0	140509184	59	5035
2026-01-21 23:26:25.51	21.23	14.82	-44.1	-46.8	17.5	0.00e+00	0	38	0	141557760	59	5022
2026-01-21 23:26:26.51	21.26	14.92	-44.1	-46.8	17.5	0.00e+00	0	38	0	143654912	59	5005
2026-01-21 23:26:27.50	21.30	15.03	-44.1	-46.8	17.4	0.00e+00	0	38	0	145752064	59	4984
2026-01-21 23:26:28.50	21.33	15.13	-44.2	-46.8	17.4	0.00e+00	0	38	0	147849216	59	5038
2026-01-21 23:26:29.49	21.37	15.24	-44.1	-46.7	17.6	0.00e+00	0	38	0	149946368	59	4983
2026-01-21 23:26:30.49	21.40	15.34	-44.1	-46.8	17.5	0.00e+00	0	37	0	150994944	59	5018
2026-01-21 23:26:31.48	21.43	15.45	-44.1	-46.8	17.5	0.00e+00	0	38	0	153092096	59	4996
2026-01-21 23:26:32.48	21.47	15.56	-44.2	-46.9	17.4	0.00e+00	0	38	0	155189248	59	5058
2026-01-21 23:26:33.47	21.50	15.66	-44.3	-47.0	17.3	1.67e-05	0	37	0	157286400	59	5114
2026-01-21 23:26:34.47	21.54	15.77	-44.2	-46.9	17.4	0.00e+00	0	38	0	158334976	59	5042
2026-01-21 23:26:35.46	21.58	15.88	-44.2	-47.0	17.3	0.00e+00	0	38	0	160432128	59	5106
2026-01-21 23:26:36.46	21.61	15.99	-44.2	-47.0	17.4	3.66e-05	0	38	0	162529280	59	5114
2026-01-21 23:26:37.45	21.65	16.10	-44.3	-47.0	17.3	0.00e+00	0	38	0	164626432	59	5150
2026-01-21 23:26:38.45	21.68	16.21	-44.2	-47.0	17.4	0.00e+00	0	38	0	166723584	59	5121
2026-01-21 23:26:39.44	21.72	16.31	-44.3	-47.1	17.2	2.36e-05	0	38	0	167772160	59	5177
2026-01-21 23:26:40.44	21.76	16.43	-44.4	-47.2	17.1	0.00e+00	0	38	0	169869312	59	5233
2026-01-21 23:26:41.45	21.79	16.54	-44.4	-47.2	17.2	0.00e+00	0	38	0	171966464	59	5249
2026-01-21 23:26:42.45	21.83	16.65	-44.5	-47.3	17.1	0.00e+00	0	38	0	174063616	59	5325
2026-01-21 23:26:43.52	21.87	16.77	-44.5	-47.3	17.0	0.00e+00	0	38	0	176160768	59	5323
2026-01-21 23:26:44.38	21.90	16.87	-44.4	-47.2	17.1	0.00e+00	0	37	0	177209344	59	5263
2026-01-21 23:26:45.51	21.95	17.00	-44.5	-47.3	17.0	0.00e+00	0	37	0	179306496	59	5333
2026-01-21 23:26:46.37	21.98	17.09	-44.3	-47.2	17.2	0.00e+00	0	38	0	181403648	59	5223
2026-01-21 23:26:47.50	22.02	17.22	-44.3	-47.1	17.2	0.00e+00	0	38	0	183500800	59	5193
2026-01-21 23:26:48.36	22.06	17.32	-44.3	-47.2	17.2	0.00e+00	0	37	0	184549376	59	5220
2026-01-21 23:26:49.50	22.10	17.45	-44.3	-47.1	17.3	0.00e+00	0	38	0	186646528	59	5170
2026-01-21 23:26:50.35	22.14	17.55	-44.3	-47.1	17.3	0.00e+00	0	38	0	188743680	59	5186
2026-01-21 23:26:51.49	22.18	17.68	-44.5	-47.2	17.2	0.00e+00	0	38	0	190840832	59	5268
2026-01-21 23:26:52.34	22.21	17.78	-44.4	-47.2	17.2	0.00e+00	0	38	0	191889408	59	5237
2026-01-21 23:26:53.48	22.26	17.92	-44.4	-47.2	17.2	0.00e+00	0	38	0	193986560	59	5240
2026-01-21 23:26:54.33	22.29	18.02	-44.5	-47.3	17.1	0.00e+00	0	38	0	196083712	59	5282
2026-01-21 23:26:55.48	22.34	18.15	-44.3	-47.1	17.3	0.00e+00	0	38	0	198180864	59	5176
2026-01-21 23:26:56.33	22.38	18.26	-44.3	-47.0	17.4	0.00e+00	0	38	0	200278016	59	5141
2026-01-21 23:26:57.60	22.43	18.41	-44.3	-47.0	17.3	0.00e+00	0	38	0	202375168	59	5157
2026-01-21 23:26:58.39	22.46	18.50	-44.4	-47.2	17.2	0.00e+00	0	38	0	203423744	59	5228
2026-01-21 23:26:59.57	22.51	18.65	-44.3	-47.1	17.3	0.00e+00	0	38	0	205520896	59	5168
2026-01-21 23:27:00.43	22.55	18.75	-44.3	-47.1	17.3	0.00e+00	0	38	0	207618048	59	5178
2026-01-21 23:27:01.56	22.60	18.89	-44.4	-47.1	17.3	0.00e+00	0	38	0	209715200	59	5190
2026-01-21 23:27:02.42	22.63	18.99	-44.4	-47.2	17.2	0.00e+00	0	38	0	210763776	59	5256
2026-01-21 23:27:03.55	22.68	19.13	-44.5	-47.3	17.1	0.00e+00	0	38	0	212860928	59	5312
2026-01-21 23:27:04.41	22.72	19.24	-44.5	-47.3	17.1	0.00e+00	0	38	0	214958080	59	5339
2026-01-21 23:27:05.54	22.77	19.38	-44.6	-47.4	17.0	0.00e+00	0	38	0	217055232	59	5378
2026-01-21 23:27:06.40	22.81	19.49	-44.6	-47.4	17.1	0.00e+00	0	38	0	219152384	59	5348
2026-01-21 23:27:07.53	22.86	19.63	-44.6	-47.4	17.0	0.00e+00	0	38	0	221249536	59	5368
2026-01-21 23:27:08.39	22.90	19.74	-44.7	-47.5	17.0	0.00e+00	0	38	0	222298112	60	5127
2026-01-21 23:27:09.52	22.95	19.88	-44.7	-47.5	17.0	0.00e+00	0	38	0	224395264	60	5143
2026-01-21 23:27:10.38	22.99	19.99	-44.7	-47.5	17.0	0.00e+00	0	38	0	226492416	60	5108
2026-01-21 23:27:11.58	23.04	20.15	-44.6	-47.4	17.1	0.00e+00	0	38	0	228589568	60	5070
2026-01-21 23:27:12.43	23.08	20.26	-44.7	-47.5	17.0	0.00e+00	0	38	0	229638144	60	5117
2026-01-21 23:27:13.57	23.13	20.41	-44.8	-47.6	16.9	0.00e+00	0	38	0	231735296	60	5184
2026-01-21 23:27:14.42	23.17	20.52	-44.7	-47.5	17.0	0.00e+00	0	38	0	233832448	60	5126
2026-01-21 23:27:15.72	23.23	20.69	-44.7	-47.5	17.0	0.00e+00	0	38	0	235929600	60	5129
2026-01-21 23:27:16.42	23.27	20.78	-44.7	-47.6	16.9	0.00e+00	0	38	0	236978176	60	5167
2026-01-21 23:27:17.71	23.33	20.95	-44.6	-47.5	17.0	0.00e+00	0	38	0	240123904	60	5122
2026-01-21 23:27:18.45	23.37	21.05	-44.6	-47.4	17.1	0.00e+00	0	38	0	241172480	60	5066
2026-01-21 23:27:19.72	23.43	21.22	-44.6	-47.5	17.0	0.00e+00	0	38	0	243269632	60	5130
2026-01-21 23:27:20.48	23.47	21.32	-44.6	-47.5	17.0	0.00e+00	0	38	0	245366784	60	5105
2026-01-21 23:27:21.76	23.53	21.49	-44.5	-47.4	17.1	0.00e+00	0	38	0	247463936	60	5054
2026-01-21 23:27:22.54	23.57	21.60	-44.5	-47.4	17.1	0.00e+00	0	38	0	248512512	60	5057
2026-01-21 23:27:23.82	23.63	21.78	-44.6	-47.4	17.1	0.00e+00	0	38	0	251658240	60	5097
2026-01-21 23:27:24.60	23.67	21.88	-44.4	-47.3	17.2	0.00e+00	0	38	0	252706816	60	4994
2026-01-21 23:27:25.79	23.73	22.05	-44.5	-47.4	17.1	0.00e+00	0	38	0	254803968	60	5066
2026-01-21 23:27:26.78	23.78	22.19	-44.6	-47.5	17.0	0.00e+00	0	38	0	256901120	60	5135
2026-01-21 23:27:27.95	23.85	22.35	-44.6	-47.5	17.0	0.00e+00	0	38	0	258998272	60	5131
2026-01-21 23:27:28.81	23.89	22.47	-44.4	-47.3	17.2	0.00e+00	0	38	0	261095424	60	5005
2026-01-21 23:27:29.94	23.95	22.63	-44.5	-47.4	17.2	0.00e+00	0	38	0	263192576	60	5068
2026-01-21 23:27:30.79	24.00	22.75	-44.5	-47.4	17.2	0.00e+00	0	38	0	264241152	60	5046
2026-01-21 23:27:31.93	24.06	22.91	-44.5	-47.4	17.1	0.00e+00	0	38	0	266338304	60	5075
2026-01-21 23:27:32.79	24.11	23.04	-44.4	-47.3	17.2	0.00e+00	0	38	0	268435456	60	5016
2026-01-21 23:27:33.92	24.17	23.20	-44.6	-47.5	17.0	0.00e+00	0	38	0	270532608	60	5131
2026-01-21 23:27:34.78	24.22	23.33	-44.5	-47.3	17.2	0.00e+00	0	38	0	271581184	60	5039
2026-01-21 23:27:35.91	24.28	23.49	-44.4	-47.2	17.3	0.00e+00	0	38	0	273678336	60	4964
2026-01-21 23:27:36.77	24.33	23.62	-44.4	-47.3	17.3	0.00e+00	0	38	0	275775488	60	4991
2026-01-21 23:27:37.90	24.39	23.78	-44.4	-47.2	17.4	0.00e+00	0	38	0	277872640	60	4947
2026-01-21 23:27:38.76	24.44	23.91	-44.4	-47.2	17.4	0.00e+00	0	38	0	278921216	60	4936
2026-01-21 23:27:39.89	24.51	24.08	-44.4	-47.1	17.4	0.00e+00	0	38	0	281018368	60	4904
2026-01-21 23:27:40.75	24.56	24.21	-44.3	-47.0	17.5	0.00e+00	0	38	0	283115520	60	4828
2026-01-21 23:27:41.88	24.62	24.38	-44.4	-47.1	17.4	0.00e+00	0	38	0	285212672	60	4885
2026-01-21 23:27:42.74	24.67	24.51	-44.4	-47.0	17.5	0.00e+00	0	38	0	287309824	60	4868
2026-01-21 23:27:44.08	24.75	24.72	-44.4	-47.0	17.5	0.00e+00	0	38	0	289406976	60	4842
2026-01-21 23:27:44.79	24.80	24.82	-44.5	-47.1	17.4	0.00e+00	0	38	0	290455552	60	4911
2026-01-21 23:27:46.07	24.88	25.02	-44.3	-47.0	17.6	0.00e+00	0	38	0	292552704	60	4828
2026-01-21 23:27:46.78	24.92	25.13	-44.4	-47.0	17.5	0.00e+00	0	38	0	294649856	60	4861
2026-01-21 23:27:48.06	25.00	25.33	-44.3	-47.0	17.6	0.00e+00	0	38	0	296747008	60	4815
2026-01-21 23:27:48.81	25.05	25.45	-44.3	-46.9	17.7	0.00e+00	0	38	0	297795584	60	4766
2026-01-21 23:27:50.09	25.13	25.65	-44.3	-47.0	17.6	0.00e+00	0	38	0	300941312	60	4832
2026-01-21 23:27:50.80	25.17	25.77	-44.4	-47.0	17.5	0.00e+00	0	38	0	301989888	60	4862
2026-01-21 23:27:52.08	25.26	25.97	-44.4	-47.1	17.5	0.00e+00	0	38	0	304087040	60	4890
2026-01-21 23:27:52.80	25.30	26.09	-44.4	-47.0	17.5	0.00e+00	0	38	0	306184192	60	4863
2026-01-21 23:27:54.08	25.39	26.29	-44.2	-46.8	17.7	0.00e+00	0	38	0	308281344	60	4720
2026-01-21 23:27:54.81	25.44	26.41	-44.1	-46.7	17.8	0.00e+00	0	38	0	309329920	60	4691
2026-01-21 23:27:56.09	25.52	26.62	-44.1	-46.7	17.8	0.00e+00	0	38	0	311427072	60	4686
2026-01-21 23:27:56.80	25.57	26.74	-44.2	-46.7	17.8	0.00e+00	0	38	0	313524224	60	4701
2026-01-21 23:27:58.13	25.66	26.96	-44.1	-46.6	17.9	0.00e+00	0	38	0	315621376	60	4637
2026-01-21 23:27:58.84	25.71	27.08	-44.0	-46.6	17.9	0.00e+00	0	38	0	316669952	60	4603
2026-01-21 23:28:00.21	25.81	27.31	-44.0	-46.5	18.0	0.00e+00	0	38	0	319815680	60	4595
2026-01-21 23:28:00.92	25.86	27.43	-44.0	-46.5	18.0	0.00e+00	0	38	0	320864256	59	4826
2026-01-21 23:28:02.22	25.95	27.65	-44.0	-46.5	18.0	0.00e+00	0	38	0	322961408	59	4843
2026-01-21 23:28:02.93	26.00	27.77	-44.0	-46.5	17.9	0.00e+00	0	38	0	325058560	59	4870
2026-01-21 23:28:04.20	26.09	27.99	-44.1	-46.5	17.9	0.00e+00	0	38	0	327155712	59	4867
2026-01-21 23:28:04.93	26.15	28.11	-44.1	-46.6	17.9	0.00e+00	0	38	0	328204288	59	4893
2026-01-21 23:28:06.21	26.24	28.34	-44.2	-46.7	17.8	0.00e+00	0	38	0	331350016	59	4954
2026-01-21 23:28:06.92	26.29	28.46	-44.3	-46.9	17.6	0.00e+00	0	38	0	332398592	59	5050
2026-01-21 23:28:08.20	26.39	28.69	-44.4	-47.1	17.5	0.00e+00	0	38	0	334495744	59	5170
2026-01-21 23:28:08.93	26.45	28.82	-44.5	-47.1	17.4	0.00e+00	0	38	0	335544320	59	5181
2026-01-21 23:28:10.21	26.55	29.04	-44.6	-47.3	17.3	0.00e+00	0	38	0	338690048	59	5293
2026-01-21 23:28:10.92	26.60	29.17	-44.5	-47.2	17.3	0.00e+00	0	38	0	339738624	59	5254
2026-01-21 23:28:12.20	26.70	29.40	-44.7	-47.5	17.1	0.00e+00	0	38	0	341835776	60	5145
2026-01-21 23:28:12.98	26.77	29.54	-44.7	-47.6	17.0	0.00e+00	0	38	0	343932928	60	5167
2026-01-21 23:28:14.20	26.86	29.77	-44.9	-47.8	16.8	0.00e+00	0	38	0	346030080	60	5316
2026-01-21 23:28:15.15	26.94	29.94	-45.0	-48.0	16.7	0.00e+00	0	38	0	348127232	60	5420
2026-01-21 23:28:16.14	27.02	30.12	-45.1	-48.1	16.6	0.00e+00	0	38	0	349175808	60	5495
2026-01-21 23:28:17.34	27.12	30.35	-45.2	-48.3	16.4	0.00e+00	0	38	0	351272960	61	5309
2026-01-21 23:28:18.23	27.20	30.51	-45.4	-48.5	16.2	0.00e+00	0	38	0	353370112	61	5419
2026-01-21 23:28:19.54	27.31	30.76	-45.7	-48.8	15.8	0.00e+00	0	38	0	355467264	61	5651
2026-01-21 23:28:20.25	27.37	30.90	-45.6	-48.7	16.0	0.00e+00	0	38	0	357564416	61	5575
2026-01-21 23:28:21.53	27.49	31.14	-45.8	-48.9	15.7	0.00e+00	0	38	0	359661568	62	5391
2026-01-21 23:28:22.25	27.55	31.28	-45.8	-49.0	15.7	0.00e+00	0	38	0	360710144	62	5421
2026-01-21 23:28:23.79	27.69	31.58	-45.8	-49.0	15.7	0.00e+00	0	38	0	363855872	62	5444
2026-01-21 23:28:24.50	27.75	31.72	-45.8	-49.0	15.7	0.00e+00	0	38	0	364904448	62	5460
2026-01-21 23:28:25.78	27.87	31.97	-45.7	-48.9	15.8	0.00e+00	0	38	0	367001600	62	5361
2026-01-21 23:28:26.49	27.94	32.11	-45.7	-48.8	15.9	0.00e+00	0	38	0	369098752	62	5333
2026-01-21 23:28:27.77	28.06	32.36	-45.8	-49.0	15.7	0.00e+00	0	38	0	371195904	62	5454
2026-01-21 23:28:28.48	28.12	32.50	-45.7	-48.8	15.9	0.00e+00	0	38	0	372244480	62	5337
2026-01-21 23:28:29.76	28.25	32.76	-45.5	-48.6	16.0	0.00e+00	0	38	0	375390208	62	5208
2026-01-21 23:28:30.48	28.32	32.91	-45.6	-48.7	15.9	0.00e+00	0	38	0	376438784	62	5277
2026-01-21 23:28:31.76	28.44	33.17	-45.5	-48.7	16.1	0.00e+00	0	38	0	378535936	62	5219
2026-01-21 23:28:32.47	28.52	33.31	-45.4	-48.5	16.2	0.00e+00	0	38	0	379584512	62	5127
2026-01-21 23:28:33.75	28.65	33.58	-45.4	-48.4	16.3	0.00e+00	0	38	0	382730240	62	5072
2026-01-21 23:28:34.56	28.73	33.74	-45.4	-48.4	16.2	0.00e+00	0	38	0	383778816	62	5100
2026-01-21 23:28:35.70	28.85	33.98	-45.4	-48.4	16.3	0.00e+00	0	38	0	385875968	62	5076
2026-01-21 23:28:36.56	28.94	34.16	-45.4	-48.3	16.3	0.00e+00	0	38	0	387973120	62	5040
2026-01-21 23:28:37.69	29.06	34.40	-45.4	-48.3	16.4	0.00e+00	0	38	0	390070272	62	5011
2026-01-21 23:28:38.81	29.18	34.64	-45.5	-48.5	16.2	0.00e+00	0	38	0	392167424	62	5145
2026-01-21 23:28:39.84	29.29	34.86	-45.6	-48.6	16.1	0.00e+00	0	38	0	394264576	62	5198
2026-01-21 23:28:40.84	29.40	35.08	-45.7	-48.8	16.0	0.00e+00	0	38	0	395313152	62	5289
2026-01-21 23:28:41.83	29.51	35.29	-45.8	-48.9	15.9	0.00e+00	0	38	0	397410304	62	5341
2026-01-21 23:28:42.82	29.62	35.51	-45.9	-49.0	15.6	0.00e+00	0	38	0	399507456	62	5451
2026-01-21 23:28:43.82	29.74	35.73	-46.1	-49.2	15.5	0.00e+00	0	38	0	401604608	62	5588
2026-01-21 23:28:44.81	29.85	35.95	-46.0	-49.2	15.5	0.00e+00	0	38	0	403701760	62	5545
2026-01-21 23:28:45.80	29.97	36.17	-46.0	-49.2	15.5	0.00e+00	0	38	0	404750336	62	5558
2026-01-21 23:28:46.80	30.09	36.40	-46.1	-49.3	15.4	0.00e+00	0	38	0	406847488	62	5644
2026-01-21 23:28:47.79	30.21	36.62	-46.0	-49.2	15.6	0.00e+00	0	38	0	408944640	62	5559
2026-01-21 23:28:48.79	30.33	36.85	-46.1	-49.3	15.4	0.00e+00	0	38	0	411041792	62	5626
2026-01-21 23:28:49.83	30.46	37.08	-46.1	-49.3	15.4	0.00e+00	0	38	0	413138944	62	5634
2026-01-21 23:28:50.79	30.58	37.31	-46.2	-49.5	15.1	0.00e+00	0	38	0	414187520	63	5460
2026-01-21 23:28:51.87	30.72	37.56	-46.5	-49.9	14.9	7.00e-07	0	38	0	416284672	63	5662
2026-01-21 23:28:52.75	30.84	37.76	-46.6	-50.1	14.7	0.00e+00	0	38	0	418381824	63	5795
2026-01-21 23:28:53.89	30.99	38.03	-46.6	-50.1	14.5	0.00e+00	0	38	0	420478976	64	5526
2026-01-21 23:28:54.81	31.11	38.25	-46.9	-50.7	14.0	7.00e-07	0	38	0	421527552	64	5891
2026-01-21 23:28:55.98	31.27	38.52	-47.0	-51.0	13.7	3.80e-06	0	38	0	423624704	64	6083
2026-01-21 23:28:56.83	31.38	38.73	-47.0	-51.0	13.7	7.60e-06	0	38	0	425721856	64	6126
2026-01-21 23:28:57.96	31.54	39.00	-47.1	-51.2	13.5	9.90e-06	0	38	0	427819008	64	6247
2026-01-21 23:28:58.82	31.66	39.21	-47.0	-51.0	13.6	4.50e-06	0	38	0	429916160	64	6078
2026-01-21 23:28:59.96	31.83	39.49	-46.9	-50.9	13.8	6.10e-06	0	38	0	432013312	64	6009
2026-01-21 23:29:00.81	31.95	39.69	-46.8	-50.7	14.0	4.50e-06	0	38	0	433061888	64	5875
2026-01-21 23:29:01.95	32.12	39.98	-46.6	-50.3	14.4	0.00e+00	0	38	0	435159040	64	5610
2026-01-21 23:29:02.80	32.25	40.19	-46.8	-50.4	14.3	0.00e+00	0	38	0	437256192	64	5720
2026-01-21 23:29:03.94	32.42	40.47	-46.9	-50.6	14.0	7.00e-07	0	38	0	439353344	64	5843
2026-01-21 23:29:04.79	32.55	40.69	-46.8	-50.5	14.2	7.00e-07	0	38	0	440401920	64	5754
2026-01-21 23:29:05.93	32.73	40.97	-46.9	-50.7	14.0	3.00e-06	0	38	0	442499072	64	5890
2026-01-21 23:29:06.78	32.87	41.19	-46.9	-50.7	13.9	4.50e-06	0	38	0	444596224	64	5893
2026-01-21 23:29:07.97	33.06	41.50	-46.9	-50.6	14.1	1.50e-06	0	38	0	446693376	64	5844
2026-01-21 23:29:08.82	33.20	41.72	-46.9	-50.7	14.1	1.50e-06	0	38	0	447741952	64	5859
2026-01-21 23:29:09.96	33.39	42.01	-46.4	-49.9	14.8	7.00e-07	0	38	0	450887680	64	5353
2026-01-21 23:29:10.81	33.53	42.23	-46.3	-49.7	15.0	0.00e+00	0	38	0	451936256	64	5250
2026-01-21 23:29:12.07	33.75	42.56	-46.1	-49.3	15.4	0.00e+00	0	38	0	454033408	64	5006
2026-01-21 23:29:12.89	33.89	42.78	-46.1	-49.2	15.5	0.00e+00	0	38	0	456130560	63	5247
2026-01-21 23:29:14.03	34.10	43.08	-46.1	-49.3	15.4	0.00e+00	0	38	0	458227712	63	5333
2026-01-21 23:29:14.89	34.25	43.31	-46.3	-49.6	15.1	0.00e+00	0	38	0	459276288	63	5496
2026-01-21 23:29:16.02	34.46	43.62	-46.3	-49.6	15.2	0.00e+00	0	38	0	461373440	63	5483
2026-01-21 23:29:16.87	34.62	43.85	-46.5	-49.9	14.9	0.00e+00	0	38	0	463470592	63	5698
2026-01-21 23:29:18.01	34.84	44.16	-46.3	-49.7	15.1	0.00e+00	0	38	0	465567744	63	5552
2026-01-21 23:29:18.86	35.00	44.39	-46.2	-49.5	15.2	0.00e+00	0	38	0	466616320	63	5432
2026-01-21 23:29:20.00	35.23	44.70	-46.3	-49.6	15.1	0.00e+00	0	38	0	468713472	63	5517
2026-01-21 23:29:20.85	35.40	44.94	-46.2	-49.5	15.3	0.00e+00	0	38	0	470810624	63	5444
2026-01-21 23:29:21.99	35.63	45.26	-46.0	-49.3	15.5	0.00e+00	0	38	0	472907776	63	5290
2026-01-21 23:29:22.84	35.80	45.50	-46.0	-49.2	15.5	0.00e+00	0	38	0	475004928	63	5270
2026-01-21 23:29:23.98	36.04	45.82	-46.2	-49.5	15.2	0.00e+00	0	38	0	477102080	63	5443
2026-01-21 23:29:24.83	36.23	46.06	-46.5	-49.9	14.9	0.00e+00	0	38	0	478150656	63	5716
2026-01-21 23:29:26.03	36.49	46.40	-46.4	-49.8	15.1	0.00e+00	0	38	0	480247808	63	5602
2026-01-21 23:29:26.88	36.68	46.64	-46.4	-49.8	15.0	0.00e+00	0	38	0	482344960	63	5631
2026-01-21 23:29:28.02	36.94	46.97	-46.4	-49.8	15.0	0.00e+00	0	38	0	484442112	63	5604
2026-01-21 23:29:28.88	37.13	47.22	-46.5	-49.9	14.9	0.00e+00	0	38	0	485490688	63	5664
2026-01-21 23:29:30.12	37.42	47.58	-46.5	-49.9	14.9	0.00e+00	0	38	0	488636416	63	5666
2026-01-21 23:29:31.40	37.73	47.96	-46.6	-50.1	14.6	0.00e+00	0	38	0	490733568	64	5490
2026-01-21 23:29:32.30	37.95	48.22	-46.6	-50.1	14.6	0.00e+00	0	38	0	491782144	64	5495
2026-01-21 23:29:33.40	38.23	48.55	-46.6	-50.1	14.7	0.00e+00	0	38	0	493879296	64	5466
2026-01-21 23:29:34.26	38.45	48.80	-46.1	-49.4	15.2	0.00e+00	0	38	0	495976448	64	5085
2026-01-21 23:29:35.39	38.74	49.14	-45.9	-49.0	15.8	0.00e+00	0	38	0	498073600	63	5144
2026-01-21 23:29:36.25	38.97	49.40	-45.7	-48.7	16.0	0.00e+00	0	38	0	500170752	63	4977
2026-01-21 23:29:37.38	39.27	49.74	-45.3	-48.2	16.6	0.00e+00	0	38	0	502267904	62	4949
2026-01-21 23:29:38.24	39.51	50.00	-44.9	-47.6	17.1	0.00e+00	0	38	0	503316480	61	4906
2026-01-21 23:29:39.38	39.83	50.34	-44.7	-47.4	17.3	0.00e+00	0	38	0	505413632	61	4763
2026-01-21 23:29:40.23	40.07	50.60	-44.6	-47.2	17.5	0.00e+00	0	38	0	507510784	61	4690
2026-01-21 23:29:41.37	40.41	50.95	-44.3	-46.9	17.8	0.00e+00	0	38	0	509607936	60	4794
2026-01-21 23:29:42.22	40.66	51.22	-44.1	-46.6	18.1	0.00e+00	0	38	0	510656512	60	4625
2026-01-21 23:29:43.51	41.05	51.62	-43.6	-46.0	18.5	0.00e+00	0	38	0	513802240	59	4552
2026-01-21 23:29:44.22	41.27	51.84	-43.3	-45.6	18.9	0.00e+00	0	38	0	514850816	58	4647
2026-01-21 23:29:45.50	41.68	52.23	-42.5	-44.6	19.7	0.00e+00	0	38	0	516947968	57	4387
2026-01-21 23:29:46.21	41.91	52.46	-42.2	-44.3	20.0	0.00e+00	0	38	0	517996544	56	4483
2026-01-21 23:29:47.49	42.33	52.86	-41.4	-43.4	20.0	0.00e+00	0	38	0	521142272	54	4543
2026-01-21 23:29:48.20	42.57	53.08	-41.2	-43.1	20.9	0.00e+00	0	38	0	522190848	54	4389
2026-01-21 23:29:49.49	43.02	53.49	-41.2	-43.2	20.8	0.00e+00	0	38	0	524288000	54	4405
2026-01-21 23:29:50.20	43.27	53.71	-41.2	-43.2	20.8	0.00e+00	0	38	0	525336576	54	4403
2026-01-21 23:29:51.48	43.73	54.12	-41.4	-43.4	20.7	0.00e+00	0	38	0	528482304	54	4523
2026-01-21 23:29:52.20	43.99	54.35	-41.5	-43.5	20.6	0.00e+00	0	38	0	529530880	54	4563
2026-01-21 23:29:53.48	44.48	54.76	-41.8	-43.9	20.3	0.00e+00	0	38	0	531628032	54	4772
2026-01-21 23:29:54.21	44.76	54.99	-42.0	-44.1	20.1	0.00e+00	0	38	0	533725184	54	4885
2026-01-21 23:29:55.49	45.26	55.40	-42.3	-44.5	19.8	0.00e+00	0	38	0	535822336	55	4818
2026-01-21 23:29:56.20	45.55	55.63	-42.5	-44.7	19.6	0.00e+00	0	38	0	536870912	55	4946
2026-01-21 23:29:57.48	46.08	56.04	-43.1	-45.3	19.2	0.00e+00	0	38	0	538968064	56	5018
2026-01-21 23:29:58.19	46.37	56.27	-43.2	-45.5	18.9	0.00e+00	0	38	0	541065216	57	4823
2026-01-21 23:29:59.58	46.97	56.72	-43.7	-46.1	18.5	0.00e+00	0	38	0	543162368	58	4902
2026-01-21 23:30:00.29	47.29	56.95	-44.0	-46.5	18.1	0.00e+00	0	38	0	545259520	58	5121
2026-01-21 23:30:01.63	47.90	57.38	-44.6	-47.1	17.5	0.00e+00	0	38	0	547356672	59	5212
2026-01-21 23:30:02.34	48.23	57.61	-44.6	-47.2	17.5	0.00e+00	0	38	0	548405248	59	5239
2026-01-21 23:30:03.62	48.83	58.03	-44.7	-47.3	17.4	0.00e+00	0	38	0	550502400	60	4996
2026-01-21 23:30:04.66	49.34	58.36	-44.6	-47.3	17.5	0.00e+00	0	38	0	552599552	60	4990
2026-01-21 23:30:05.89	49.96	58.76	-44.2	-46.8	17.9	0.00e+00	0	38	0	555745280	60	4718
2026-01-21 23:30:06.83	50.44	59.07	-43.8	-46.2	18.4	0.00e+00	0	38	0	556793856	59	4689
2026-01-21 23:30:07.99	51.06	59.44	-43.4	-45.6	18.9	0.00e+00	0	38	0	558891008	58	4638
2026-01-21 23:30:08.85	51.53	59.72	-43.3	-45.5	19.0	0.00e+00	0	38	0	560988160	58	4566
2026-01-21 23:30:09.99	52.16	60.08	-43.2	-45.4	19.1	0.00e+00	0	38	0	563085312	58	4525
2026-01-21 23:30:10.84	52.64	60.35	-43.4	-45.6	18.9	0.00e+00	0	38	0	564133888	58	4646
2026-01-21 23:30:11.98	53.31	60.72	-42.9	-45.1	19.4	0.00e+00	0	38	0	566231040	57	4609
2026-01-21 23:30:12.83	53.82	60.99	-42.7	-44.8	19.6	0.00e+00	0	38	0	568328192	57	4473
2026-01-21 23:30:13.97	54.52	61.35	-42.6	-44.7	19.7	0.00e+00	0	38	0	570425344	57	4424
2026-01-21 23:30:14.82	55.05	61.62	-42.7	-44.8	19.6	0.00e+00	0	38	0	571473920	57	4471
2026-01-21 23:30:15.96	55.79	61.98	-42.6	-44.7	19.7	0.00e+00	0	38	0	574619648	57	4419
2026-01-21 23:30:16.81	56.35	62.24	-42.5	-44.6	19.8	0.00e+00	0	38	0	575668224	56	4610
2026-01-21 23:30:17.94	57.12	62.60	-42.7	-44.8	19.6	0.00e+00	0	38	0	577765376	56	4741
2026-01-21 23:30:18.80	57.72	62.86	-43.1	-45.3	19.2	0.00e+00	0	38	0	579862528	56	5015
2026-01-21 23:30:19.93	58.53	63.21	-43.7	-46.0	18.6	0.00e+00	0	38	0	581959680	57	5138
2026-01-21 23:30:20.78	59.15	63.47	-43.8	-46.1	18.4	0.00e+00	0	38	0	583008256	58	4920
2026-01-21 23:30:21.92	60.01	63.81	-43.9	-46.3	18.3	0.00e+00	0	38	0	585105408	58	5003
2026-01-21 23:30:22.77	60.66	64.06	-43.8	-46.1	18.4	0.00e+00	0	38	0	587202560	58	4925
2026-01-21 23:30:23.91	61.57	64.40	-43.6	-45.9	18.6	0.00e+00	0	38	0	589299712	58	4801
2026-01-21 23:30:24.76	62.26	64.65	-43.6	-45.9	18.7	0.00e+00	0	38	0	590348288	58	4778
2026-01-21 23:30:25.90	63.21	64.98	-43.8	-46.2	18.4	0.00e+00	0	38	0	592445440	58	4970
2026-01-21 23:30:26.75	63.93	65.22	-43.9	-46.3	18.4	0.00e+00	0	38	0	594542592	58	5013
2026-01-21 23:30:27.89	64.93	65.54	-44.2	-46.7	17.9	0.00e+00	0	38	0	596639744	59	4967
2026-01-21 23:30:28.74	65.69	65.78	-44.3	-46.8	17.8	0.00e+00	0	38	0	597688320	59	4997
2026-01-21 23:30:29.87	66.73	66.09	-43.9	-46.3	18.2	0.00e+00	0	38	0	599785472	59	4754
2026-01-21 23:30:30.73	67.54	66.32	-43.6	-45.9	18.6	0.00e+00	0	38	0	601882624	59	4535
2026-01-21 23:30:31.86	68.64	66.61	-43.5	-45.8	18.8	0.00e+00	0	38	0	603979776	58	4732
2026-01-21 23:30:32.71	69.48	66.83	-43.8	-46.2	18.4	0.00e+00	0	38	0	605028352	58	4964
2026-01-21 23:30:33.85	70.64	67.12	-44.7	-47.4	17.4	0.00e+00	0	38	0	608174080	60	5056
2026-01-21 23:30:34.70	71.52	67.33	-45.3	-48.1	16.6	0.00e+00	0	38	0	609222656	61	5208
2026-01-21 23:30:35.84	72.73	67.60	-45.2	-48.0	16.7	0.00e+00	0	38	0	611319808	61	5153
2026-01-21 23:30:36.69	73.66	67.80	-45.2	-48.0	16.7	0.00e+00	0	38	0	613416960	61	5141
2026-01-21 23:30:37.83	74.92	68.06	-45.3	-48.2	16.6	0.00e+00	0	38	0	615514112	61	5226
2026-01-21 23:30:38.68	75.89	68.25	-45.1	-47.9	16.8	0.00e+00	0	38	0	616562688	61	5094
2026-01-21 23:30:39.82	77.21	68.49	-45.0	-47.7	17.0	0.00e+00	0	38	0	618659840	61	4976
2026-01-21 23:30:40.67	78.22	68.66	-45.1	-47.9	16.8	0.00e+00	0	38	0	620756992	61	5086
2026-01-21 23:30:41.81	79.60	68.89	-45.5	-48.5	16.3	0.00e+00	0	38	0	622854144	61	5456
2026-01-21 23:30:42.66	80.65	69.05	-45.8	-48.9	16.0	0.00e+00	0	38	0	623902720	62	5376
2026-01-21 23:30:43.80	82.08	69.25	-45.8	-48.9	15.9	0.00e+00	0	38	0	625999872	62	5368
2026-01-21 23:30:44.65	83.17	69.39	-45.5	-48.5	16.2	0.00e+00	0	38	0	628097024	62	5147
2026-01-21 23:30:45.79	84.66	69.58	-44.6	-47.3	17.3	0.00e+00	0	38	0	630194176	61	4746
2026-01-21 23:30:46.64	85.78	69.71	-44.6	-47.3	17.4	0.00e+00	0	38	0	631242752	61	4753
2026-01-21 23:30:47.78	87.31	69.87	-45.1	-48.0	16.7	0.00e+00	0	38	0	633339904	61	5151
2026-01-21 23:30:48.63	88.47	69.98	-45.5	-48.4	16.4	0.00e+00	0	38	0	635437056	61	5401
2026-01-21 23:30:49.77	90.05	70.12	-45.2	-48.0	16.7	0.00e+00	0	38	0	637534208	61	5155
2026-01-21 23:30:50.79	91.48	70.23	-44.9	-47.7	17.0	0.00e+00	0	38	0	639631360	61	4955
2026-01-21 23:30:51.98	93.17	70.34	-44.5	-47.2	17.5	0.00e+00	0	38	0	641728512	60	4953
2026-01-21 23:30:52.83	94.38	70.42	-44.0	-46.5	18.1	0.00e+00	0	38	0	643825664	59	4818
2026-01-21 23:30:53.97	96.03	70.50	-43.7	-46.1	18.4	0.00e+00	0	38	0	644874240	59	4630
2026-01-21 23:30:54.82	97.27	70.55	-43.6	-46.0	18.6	0.00e+00	0	38	0	646971392	59	4591
2026-01-21 23:30:55.96	98.94	70.61	-43.8	-46.2	18.4	0.00e+00	0	38	0	649068544	59	4672
2026-01-21 23:30:56.81	100.19	70.64	-43.8	-46.2	18.4	0.00e+00	0	38	0	651165696	59	4680
2026-01-21 23:30:57.94	101.86	70.67	-43.1	-45.3	19.2	0.00e+00	0	38	0	653262848	58	4465
2026-01-21 23:30:58.80	103.13	70.69	-42.5	-44.7	19.7	0.00e+00	0	38	0	654311424	57	4410
2026-01-21 23:30:59.93	104.81	70.69	-42.9	-45.1	19.4	0.00e+00	0	38	0	656408576	56	4922
2026-01-21 23:31:00.79	106.08	70.68	-43.6	-45.9	18.6	0.00e+00	0	38	0	658505728	57	5085
2026-01-21 23:31:01.92	107.75	70.66	-43.8	-46.3	18.4	0.00e+00	0	38	0	660602880	58	4988
2026-01-21 23:31:02.78	109.02	70.63	-43.8	-46.2	18.4	0.00e+00	0	38	0	661651456	58	4973
2026-01-21 23:31:04.01	110.83	70.58	-43.8	-46.1	18.5	0.00e+00	0	38	0	663748608	58	4920
2026-01-21 23:31:04.86	112.07	70.53	-44.1	-46.6	18.1	0.00e+00	0	38	0	665845760	58	5166
2026-01-21 23:31:06.03	113.76	70.45	-44.7	-47.4	17.4	0.00e+00	0	38	0	667942912	60	5067
2026-01-21 23:31:06.88	114.99	70.38	-44.5	-47.1	17.6	0.00e+00	0	38	0	670040064	60	4875
2026-01-21 23:31:08.10	116.72	70.27	-44.2	-46.7	17.9	0.00e+00	0	38	0	672137216	60	4698
2026-01-21 23:31:08.95	117.92	70.18	-45.1	-47.9	16.9	0.00e+00	0	38	0	673185792	60	5369
2026-01-21 23:31:10.09	119.51	70.05	-46.2	-49.4	15.5	0.00e+00	0	38	0	675282944	63	5358
2026-01-21 23:31:11.41	121.32	69.88	-45.6	-48.6	16.3	0.00e+00	0	38	0	678428672	63	4877
2026-01-21 23:31:12.13	122.29	69.78	-45.8	-48.9	16.1	0.00e+00	0	38	0	679477248	63	5044
2026-01-21 23:31:13.41	123.99	69.59	-45.8	-48.9	15.9	0.00e+00	0	38	0	681574400	63	5078
2026-01-21 23:31:14.13	124.94	69.47	-45.4	-48.4	16.4	0.00e+00	0	38	0	683671552	62	5063
2026-01-21 23:31:15.41	126.58	69.26	-45.3	-48.3	16.5	0.00e+00	0	38	0	685768704	62	5008
2026-01-21 23:31:16.12	127.48	69.13	-45.1	-47.9	16.9	0.00e+00	0	38	0	686817280	62	4789
2026-01-21 23:31:17.40	129.07	68.90	-45.1	-47.8	17.0	0.00e+00	0	38	0	688914432	61	5035
2026-01-21 23:31:18.11	129.94	68.76	-45.4	-48.3	16.5	0.00e+00	0	38	0	691011584	61	5317
2026-01-21 23:31:19.52	131.62	68.47	-45.2	-48.1	16.7	0.00e+00	0	38	0	693108736	61	5193
2026-01-21 23:31:20.23	132.44	68.32	-44.9	-47.6	17.2	0.00e+00	0	38	0	695205888	61	4887
2026-01-21 23:31:21.51	133.91	68.04	-45.5	-48.4	16.5	0.00e+00	0	38	0	697303040	61	5358
2026-01-21 23:31:22.23	134.71	67.88	-46.0	-49.1	15.8	0.00e+00	0	38	0	698351616	62	5492
2026-01-21 23:31:23.66	136.27	67.54	-45.9	-49.0	15.8	0.00e+00	0	38	0	701497344	63	5140
2026-01-21 23:31:24.37	137.02	67.37	-45.9	-48.9	15.9	0.00e+00	0	38	0	702545920	63	5086
2026-01-21 23:31:25.65	138.35	67.06	-45.7	-48.7	16.2	0.00e+00	0	38	0	704643072	63	4941
2026-01-21 23:31:26.38	139.10	66.87	-45.5	-48.3	16.4	0.00e+00	0	38	0	705691648	62	5035
2026-01-21 23:31:27.66	140.36	66.54	-45.8	-48.7	16.2	0.00e+00	0	38	0	708837376	62	5275
2026-01-21 23:31:28.37	141.05	66.35	-45.6	-48.5	16.3	0.00e+00	0	38	0	709885952	62	5157
2026-01-21 23:31:29.65	142.26	66.01	-45.6	-48.4	16.4	0.00e+00	0	38	0	711983104	62	5095
2026-01-21 23:31:30.39	142.94	65.81	-46.0	-49.1	15.8	0.00e+00	0	38	0	714080256	62	5516
2026-01-21 23:31:31.67	144.09	65.45	-46.0	-49.2	15.6	0.00e+00	0	38	0	716177408	62	5540
2026-01-21 23:31:32.39	144.72	65.25	-45.0	-47.8	17.0	0.00e+00	0	38	0	717225984	62	4713
2026-01-21 23:31:33.67	145.81	64.88	-44.9	-47.6	17.2	0.00e+00	0	38	0	719323136	61	4878
2026-01-21 23:31:34.38	146.40	64.68	-44.9	-47.5	17.3	0.00e+00	0	38	0	721420288	61	4860
2026-01-21 23:31:35.66	147.44	64.30	-44.2	-46.8	17.9	0.00e+00	0	38	0	723517440	60	4715
2026-01-21 23:31:36.37	148.00	64.09	-44.1	-46.6	18.1	0.00e+00	0	38	0	724566016	60	4627
2026-01-21 23:31:37.65	148.99	63.71	-43.3	-45.5	19.0	0.00e+00	0	38	0	727711744	58	4591
2026-01-21 23:31:38.58	149.68	63.42	-42.2	-44.3	20.1	0.00e+00	0	38	0	728760320	56	4476
2026-01-21 23:31:39.57	150.41	63.12	-41.7	-43.7	20.5	0.00e+00	0	38	0	730857472	55	4412
2026-01-21 23:31:40.57	151.12	62.81	-41.9	-44.0	20.2	0.00e+00	0	38	0	732954624	55	4592
2026-01-21 23:31:41.56	151.81	62.51	-42.0	-44.1	20.1	0.00e+00	0	38	0	735051776	55	4631
2026-01-21 23:31:42.56	152.48	62.20	-41.2	-43.1	20.9	0.00e+00	0	38	0	736100352	54	4390
2026-01-21 23:31:43.56	153.14	61.88	-40.7	-42.6	21.3	0.00e+00	0	38	0	738197504	53	4367
2026-01-21 23:31:44.55	153.78	61.57	-40.4	-42.3	21.6	0.00e+00	0	38	0	740294656	52	4485
2026-01-21 23:31:45.54	154.40	61.25	-40.8	-42.7	21.3	0.00e+00	0	38	0	742391808	52	4675
2026-01-21 23:31:46.54	155.01	60.94	-41.7	-43.8	20.4	0.00e+00	0	38	0	744488960	54	4710
2026-01-21 23:31:47.53	155.60	60.62	-42.1	-44.2	20.0	0.00e+00	0	38	0	745537536	55	4695
2026-01-21 23:31:48.53	156.19	60.30	-41.7	-43.7	20.4	0.00e+00	0	38	0	747634688	55	4429
2026-01-21 23:31:49.53	156.75	59.98	-41.4	-43.4	20.8	0.00e+00	0	38	0	749731840	54	4506
2026-01-21 23:31:50.52	157.30	59.66	-42.1	-44.2	20.1	0.00e+00	0	38	0	751828992	54	4936
2026-01-21 23:31:51.52	157.84	59.34	-43.7	-46.0	18.6	0.00e+00	0	38	0	752877568	57	5155
2026-01-21 23:31:52.51	158.37	59.02	-44.2	-46.8	17.9	0.00e+00	0	38	0	754974720	59	4991
2026-01-21 23:31:53.51	158.88	58.69	-43.2	-45.4	19.1	0.00e+00	0	38	0	757071872	58	4535
2026-01-21 23:31:54.51	159.38	58.37	-42.8	-45.0	19.5	0.00e+00	0	38	0	759169024	57	4563
2026-01-21 23:31:55.50	159.87	58.05	-42.9	-45.1	19.4	0.00e+00	0	38	0	761266176	57	4634
2026-01-21 23:31:56.50	160.35	57.72	-43.8	-46.2	18.5	0.00e+00	0	38	0	762314752	58	4959
2026-01-21 23:31:57.49	160.81	57.40	-45.1	-47.9	17.0	0.00e+00	0	38	0	764411904	60	5352
2026-01-21 23:31:58.49	161.27	57.08	-45.1	-47.9	16.8	0.00e+00	0	38	0	766509056	61	5055
2026-01-21 23:31:59.48	161.71	56.75	-43.5	-45.8	18.7	0.00e+00	0	38	0	768606208	59	4477
2026-01-21 23:32:00.48	162.15	56.43	-42.8	-44.9	19.6	0.00e+00	0	38	0	769654784	57	4526
2026-01-21 23:32:01.47	162.57	56.11	-42.5	-44.6	19.8	0.00e+00	0	38	0	771751936	56	4637
2026-01-21 23:32:02.46	162.98	55.79	-43.4	-45.7	18.8	0.00e+00	0	38	0	773849088	57	4955
2026-01-21 23:32:03.46	163.39	55.47	-44.6	-47.2	17.4	0.00e+00	0	38	0	775946240	59	5260
2026-01-21 23:32:04.45	163.78	55.15	-44.7	-47.5	17.2	0.00e+00	0	38	0	778043392	60	5118
2026-01-21 23:32:05.45	164.17	54.83	-42.4	-44.6	19.7	0.00e+00	0	38	0	779091968	56	4622
2026-01-21 23:32:06.44	164.55	54.51	-40.4	-42.2	21.6	0.00e+00	0	38	0	781189120	52	4440
2026-01-21 23:32:07.43	164.92	54.19	-39.8	-41.6	22.2	0.00e+00	0	38	0	783286272	51	4381
2026-01-21 23:32:08.43	165.28	53.87	-40.1	-42.0	21.9	0.00e+00	0	38	0	785383424	51	4572
2026-01-21 23:32:09.42	165.63	53.56	-41.0	-42.9	21.1	0.00e+00	0	38	0	786432000	52	4795
2026-01-21 23:32:10.42	165.98	53.24	-42.1	-44.2	20.1	0.00e+00	0	38	0	788529152	54	4942
2026-01-21 23:32:11.41	166.32	52.93	-42.0	-44.1	20.1	0.00e+00	0	38	0	790626304	55	4630
2026-01-21 23:32:12.41	166.66	52.61	-41.0	-43.0	21.0	0.00e+00	0	38	0	792723456	54	4319
2026-01-21 23:32:13.40	166.98	52.30	-40.6	-42.5	21.4	0.00e+00	0	38	0	794820608	53	4316
2026-01-21 23:32:14.40	167.30	51.99	-40.8	-42.7	21.2	0.00e+00	0	38	0	795869184	53	4427
2026-01-21 23:32:15.39	167.61	51.68	-41.6	-43.6	20.5	0.00e+00	0	38	0	797966336	53	4904
2026-01-21 23:32:16.39	167.92	51.37	-42.5	-44.7	19.6	0.00e+00	0	38	0	800063488	55	4936
2026-01-21 23:32:17.38	168.22	51.06	-43.4	-45.7	18.8	0.00e+00	0	38	0	802160640	57	4967
2026-01-21 23:32:18.38	168.51	50.75	-43.7	-46.1	18.5	0.00e+00	0	38	0	803209216	58	4912
2026-01-21 23:32:19.45	168.82	50.42	-44.3	-46.8	17.8	0.00e+00	0	38	0	805306368	59	5013
2026-01-21 23:32:20.33	169.07	50.15	-44.1	-46.6	18.0	0.00e+00	0	38	0	807403520	59	4874
2026-01-21 23:32:21.64	169.44	49.75	-43.9	-46.2	18.4	0.00e+00	0	38	0	809500672	59	4694
2026-01-21 23:32:22.35	169.63	49.54	-44.1	-46.5	18.1	0.00e+00	0	38	0	811597824	59	4855
2026-01-21 23:32:23.63	169.97	49.15	-45.3	-48.2	16.6	0.00e+00	0	38	0	813694976	61	5227
2026-01-21 23:32:24.35	170.16	48.93	-46.4	-49.7	15.2	0.00e+00	0	38	0	814743552	63	5559
2026-01-21 23:32:25.63	170.49	48.55	-47.5	-51.7	13.1	2.51e-05	0	38	0	816840704	65	6254
2026-01-21 23:32:26.34	170.67	48.34	-46.9	-50.6	14.2	1.60e-05	0	38	0	818937856	65	5473
2026-01-21 23:32:27.62	170.98	47.96	-45.6	-48.6	16.1	0.00e+00	0	38	0	821035008	63	4911
2026-01-21 23:32:28.44	171.18	47.72	-45.2	-47.9	16.9	0.00e+00	0	38	0	822083584	62	4783
2026-01-21 23:32:29.58	171.46	47.38	-44.7	-47.2	17.4	0.00e+00	0	38	0	824180736	61	4693
2026-01-21 23:32:30.43	171.65	47.14	-44.7	-47.3	17.4	0.00e+00	0	38	0	826277888	61	4756
2026-01-21 23:32:31.57	171.92	46.81	-45.1	-47.8	16.9	0.00e+00	0	38	0	828375040	61	5034
2026-01-21 23:32:32.42	172.11	46.56	-45.3	-48.1	16.7	0.00e+00	0	38	0	830472192	61	5217
2026-01-21 23:32:33.55	172.36	46.24	-46.2	-49.4	15.4	0.00e+00	0	38	0	832569344	63	5390
2026-01-21 23:32:34.41	172.55	45.99	-46.9	-50.6	14.2	0.00e+00	0	38	0	833617920	64	5832
2026-01-21 23:32:35.54	172.79	45.67	-46.5	-50.1	14.6	7.60e-06	0	38	0	835715072	64	5474
2026-01-21 23:32:36.40	172.97	45.43	-45.9	-49.0	15.8	1.50e-06	0	38	0	837812224	63	5128
2026-01-21 23:32:37.53	173.20	45.11	-44.4	-47.0	17.7	0.00e+00	0	38	0	839909376	60	4823
2026-01-21 23:32:38.39	173.38	44.87	-43.7	-46.1	18.4	0.00e+00	0	38	0	840957952	59	4623
2026-01-21 23:32:39.52	173.60	44.55	-43.1	-45.3	19.1	0.00e+00	0	38	0	843055104	58	4474
2026-01-21 23:32:40.37	173.77	44.32	-43.4	-45.6	18.9	0.00e+00	0	38	0	845152256	58	4629
2026-01-21 23:32:41.51	173.99	44.01	-44.0	-46.5	18.1	0.00e+00	0	38	0	847249408	58	5138
2026-01-21 23:32:42.36	174.15	43.77	-44.7	-47.3	17.4	0.00e+00	0	38	0	848297984	59	5331
2026-01-21 23:32:43.50	174.36	43.46	-45.1	-47.8	16.9	0.00e+00	0	38	0	850395136	60	5335
2026-01-21 23:32:44.35	174.52	43.24	-45.1	-47.8	16.9	0.00e+00	0	38	0	852492288	60	5330
2026-01-21 23:32:45.49	174.72	42.93	-44.5	-47.1	17.6	0.00e+00	0	38	0	854589440	60	4897
2026-01-21 23:32:46.34	174.87	42.70	-43.9	-46.3	18.3	0.00e+00	0	38	0	855638016	59	4744
2026-01-21 23:32:47.48	175.07	42.40	-43.3	-45.6	18.9	0.00e+00	0	38	0	858783744	58	4635
2026-01-21 23:32:48.33	175.22	42.18	-42.8	-45.0	19.5	0.00e+00	0	38	0	859832320	57	4549
2026-01-21 23:32:49.47	175.41	41.88	-42.5	-44.6	19.7	0.00e+00	0	38	0	861929472	56	4621
2026-01-21 23:32:50.32	175.55	41.66	-42.7	-44.9	19.5	0.00e+00	0	38	0	864026624	56	4776
2026-01-21 23:32:51.52	175.75	41.35	-43.7	-46.0	18.5	0.00e+00	0	38	0	866123776	57	5148
2026-01-21 23:32:52.38	175.89	41.12	-44.5	-47.1	17.6	0.00e+00	0	38	0	867172352	59	5163
2026-01-21 23:32:53.56	176.08	40.82	-45.7	-48.8	16.0	0.00e+00	0	38	0	869269504	61	5624
2026-01-21 23:32:54.41	176.21	40.61	-46.1	-49.4	15.4	0.00e+00	0	38	0	871366656	62	5680
2026-01-21 23:32:55.63	176.40	40.30	-45.4	-48.4	16.4	0.00e+00	0	38	0	873463808	62	5044
2026-01-21 23:32:56.48	176.53	40.09	-44.7	-47.4	17.2	0.00e+00	0	38	0	875560960	61	4809
2026-01-21 23:32:57.70	176.71	39.78	-44.1	-46.6	17.9	0.00e+00	0	38	0	877658112	60	4650
2026-01-21 23:32:58.55	176.83	39.57	-43.6	-46.0	18.5	0.00e+00	0	38	0	878706688	59	4555
2026-01-21 23:32:59.69	177.00	39.29	-43.3	-45.6	18.8	0.00e+00	0	38	0	880803840	58	4641
2026-01-21 23:33:00.55	177.12	39.08	-43.5	-45.9	18.6	0.00e+00	0	38	0	882900992	58	4767
2026-01-21 23:33:01.68	177.28	38.81	-43.9	-46.3	18.2	0.00e+00	0	38	0	884998144	58	5032
2026-01-21 23:33:02.57	177.40	38.59	-44.4	-47.0	17.7	0.00e+00	0	38	0	886046720	59	5102
2026-01-21 23:33:03.70	177.56	38.32	-45.0	-47.7	16.9	0.00e+00	0	38	0	888143872	60	5266
2026-01-21 23:33:04.62	177.68	38.10	-45.2	-48.0	16.7	0.00e+00	0	38	0	890241024	61	5142
2026-01-21 23:33:05.62	177.82	37.86	-45.5	-48.6	16.1	0.00e+00	0	38	0	892338176	61	5493
2026-01-21 23:33:06.61	177.95	37.63	-45.5	-48.6	16.1	0.00e+00	0	38	0	894435328	61	5507
2026-01-21 23:33:07.60	178.07	37.40	-45.0	-47.9	16.8	0.00e+00	0	38	0	895483904	61	5072
2026-01-21 23:33:08.60	178.20	37.17	-44.8	-47.6	17.1	0.00e+00	0	38	0	897581056	61	4896
2026-01-21 23:33:09.59	178.33	36.94	-44.5	-47.2	17.5	0.00e+00	0	38	0	899678208	60	4940
2026-01-21 23:33:10.94	178.49	36.63	-43.9	-46.4	18.1	0.00e+00	0	38	0	901775360	59	4797
2026-01-21 23:33:11.68	178.58	36.46	-43.8	-46.2	18.3	0.00e+00	0	38	0	903872512	59	4664
2026-01-21 23:33:12.96	178.74	36.17	-43.5	-45.9	18.6	0.00e+00	0	38	0	905969664	59	4499
2026-01-21 23:33:13.67	178.82	36.01	-43.6	-45.9	18.6	0.00e+00	0	38	0	907018240	59	4519
2026-01-21 23:33:14.95	178.97	35.73	-43.8	-46.2	18.3	0.00e+00	0	38	0	910163968	59	4681
2026-01-21 23:33:15.66	179.05	35.57	-44.1	-46.5	18.1	0.00e+00	0	38	0	911212544	59	4829
2026-01-21 23:33:16.94	179.20	35.29	-44.2	-46.6	17.9	0.00e+00	0	38	0	913309696	59	4909
2026-01-21 23:33:17.65	179.28	35.13	-44.2	-46.7	17.8	0.00e+00	0	38	0	914358272	59	4967
2026-01-21 23:33:18.93	179.42	34.85	-44.5	-47.0	17.6	0.00e+00	0	38	0	917504000	59	5147
2026-01-21 23:33:19.64	179.50	34.70	-44.6	-47.3	17.3	0.00e+00	0	38	0	918552576	59	5295
2026-01-21 23:33:21.01	179.65	34.40	-44.9	-47.7	16.9	0.00e+00	0	38	0	920649728	60	5262
2026-01-21 23:33:21.72	179.72	34.25	-45.0	-47.8	16.8	0.00e+00	0	38	0	922746880	60	5336
2026-01-21 23:33:23.03	179.86	33.97	-45.1	-48.0	16.6	0.00e+00	0	38	0	924844032	61	5151
2026-01-21 23:33:23.75	179.94	33.82	-45.3	-48.2	16.5	0.00e+00	0	38	0	925892608	61	5225
2026-01-21 23:33:25.03	180.07	33.55	-45.3	-48.1	16.5	0.00e+00	0	38	0	929038336	61	5206
2026-01-21 23:33:25.74	180.14	33.41	-45.3	-48.1	16.5	0.00e+00	0	38	0	930086912	61	5207
2026-01-21 23:33:27.16	180.28	33.11	-45.2	-48.0	16.7	0.00e+00	0	38	0	932184064	61	5128
2026-01-21 23:33:27.87	180.35	32.97	-45.1	-47.9	16.8	0.00e+00	0	38	0	934281216	61	5066
2026-01-21 23:33:29.15	180.48	32.71	-44.9	-47.6	17.0	0.00e+00	0	38	0	936378368	61	4890
2026-01-21 23:33:30.21	180.58	32.49	-44.9	-47.6	17.1	0.00e+00	0	38	0	938475520	61	4878
2026-01-21 23:33:31.06	180.66	32.32	-45.0	-47.7	16.9	0.00e+00	0	38	0	939524096	61	4964
2026-01-21 23:33:32.20	180.77	32.09	-45.0	-47.7	16.9	0.00e+00	0	38	0	941621248	61	4980
2026-01-21 23:33:33.42	180.88	31.85	-45.0	-47.8	16.8	0.00e+00	0	38	0	944766976	61	5041
2026-01-21 23:33:34.27	180.96	31.68	-45.2	-48.1	16.6	0.00e+00	0	38	0	945815552	61	5203
2026-01-21 23:33:35.41	181.06	31.46	-45.4	-48.3	16.3	0.00e+00	0	38	0	947912704	61	5318
2026-01-21 23:33:36.26	181.14	31.29	-45.5	-48.5	16.2	0.00e+00	0	38	0	950009856	61	5416
2026-01-21 23:33:37.40	181.24	31.07	-45.7	-48.7	16.0	0.00e+00	0	38	0	952107008	61	5563
2026-01-21 23:33:38.25	181.32	30.91	-45.7	-48.8	15.9	0.00e+00	0	38	0	953155584	62	5293
2026-01-21 23:33:39.39	181.42	30.69	-45.8	-48.9	15.8	0.00e+00	0	38	0	955252736	62	5391
2026-01-21 23:33:40.24	181.49	30.53	-45.6	-48.7	16.0	0.00e+00	0	38	0	957349888	62	5263
2026-01-21 23:33:41.38	181.59	30.31	-45.7	-48.8	15.9	0.00e+00	0	38	0	959447040	62	5305
2026-01-21 23:33:42.23	181.66	30.15	-45.7	-48.8	15.9	0.00e+00	0	38	0	960495616	62	5306
2026-01-21 23:33:43.37	181.75	29.94	-45.5	-48.5	16.2	0.00e+00	0	38	0	962592768	62	5141
2026-01-21 23:33:44.22	181.82	29.78	-45.3	-48.3	16.4	0.00e+00	0	38	0	964689920	62	4996
2026-01-21 23:33:45.36	181.91	29.57	-45.1	-47.9	16.7	0.00e+00	0	38	0	966787072	62	4812
2026-01-21 23:33:46.21	181.98	29.42	-44.9	-47.7	16.9	0.00e+00	0	38	0	967835648	61	4974
2026-01-21 23:33:47.35	182.07	29.21	-44.7	-47.5	17.2	0.00e+00	0	38	0	970981376	61	4825
2026-01-21 23:33:48.20	182.14	29.06	-44.5	-47.1	17.4	0.00e+00	0	38	0	972029952	61	4650
2026-01-21 23:33:49.34	182.23	28.85	-44.2	-46.7	17.9	0.00e+00	0	38	0	974127104	60	4683
2026-01-21 23:33:50.19	182.29	28.70	-44.1	-46.6	17.9	0.00e+00	0	38	0	976224256	60	4645
2026-01-21 23:33:51.33	182.38	28.50	-44.0	-46.5	18.1	0.00e+00	0	38	0	978321408	60	4551
2026-01-21 23:33:52.18	182.44	28.35	-44.1	-46.6	18.0	0.00e+00	0	38	0	979369984	60	4608
2026-01-21 23:33:53.32	182.53	28.15	-43.7	-46.1	18.3	0.00e+00	0	38	0	981467136	59	4639
2026-01-21 23:33:54.17	182.59	28.00	-43.6	-46.0	18.5	0.00e+00	0	38	0	983564288	59	4555
2026-01-21 23:33:55.31	182.67	27.80	-43.7	-46.1	18.4	0.00e+00	0	38	0	985661440	59	4608
2026-01-21 23:33:56.16	182.74	27.65	-43.8	-46.2	18.3	0.00e+00	0	38	0	986710016	59	4656
2026-01-21 23:33:57.30	182.82	27.46	-43.6	-45.9	18.5	0.00e+00	0	38	0	988807168	59	4543
2026-01-21 23:33:58.15	182.88	27.31	-43.7	-46.1	18.4	0.00e+00	0	38	0	990904320	59	4612
2026-01-21 23:33:59.29	182.96	27.12	-43.6	-46.0	18.5	0.00e+00	0	38	0	993001472	59	4549
2026-01-21 23:34:00.14	183.02	26.98	-43.7	-46.1	18.4	0.00e+00	0	38	0	994050048	59	4603
2026-01-21 23:34:01.28	183.10	26.79	-43.8	-46.2	18.2	0.00e+00	0	38	0	996147200	59	4695
2026-01-21 23:34:02.13	183.15	26.65	-43.8	-46.2	18.2	0.00e+00	0	38	0	998244352	59	4705
2026-01-21 23:34:03.27	183.23	26.46	-44.0	-46.5	18.0	0.00e+00	0	38	0	1000341504	59	4838
2026-01-21 23:34:04.12	183.29	26.32	-44.0	-46.5	18.0	0.00e+00	0	38	0	1001390080	59	4827
2026-01-21 23:34:05.26	183.36	26.13	-44.1	-46.6	17.9	0.00e+00	0	38	0	1004535808	59	4893
2026-01-21 23:34:06.11	183.42	25.99	-44.1	-46.6	17.9	0.00e+00	0	38	0	1005584384	59	4897
2026-01-21 23:34:07.25	183.49	25.81	-44.0	-46.5	18.0	0.00e+00	0	38	0	1007681536	59	4828
2026-01-21 23:34:08.10	183.55	25.67	-43.9	-46.4	18.1	0.00e+00	0	38	0	1009778688	59	4794
2026-01-21 23:34:09.68	183.65	25.42	-43.9	-46.4	18.1	0.00e+00	0	38	0	1012924416	59	4772
2026-01-21 23:34:10.31	183.69	25.32	-43.9	-46.3	18.1	0.00e+00	0	38	0	1013972992	59	4739
2026-01-21 23:34:11.83	183.78	25.08	-43.7	-46.1	18.3	0.00e+00	0	38	0	1016070144	59	4631
2026-01-21 23:34:12.54	183.82	24.97	-43.6	-46.0	18.4	0.00e+00	0	38	0	1018167296	59	4565
2026-01-21 23:34:13.82	183.90	24.77	-43.6	-45.9	18.4	0.00e+00	0	38	0	1020264448	59	4543
2026-01-21 23:34:14.53	183.94	24.66	-43.5	-45.9	18.5	0.00e+00	0	38	0	1021313024	59	4510
2026-01-21 23:34:15.81	184.02	24.46	-43.5	-45.8	18.5	0.00e+00	0	38	0	1023410176	58	4758
2026-01-21 23:34:16.52	184.06	24.35	-43.4	-45.8	18.6	0.00e+00	0	38	0	1025507328	58	4710
2026-01-21 23:34:17.80	184.14	24.16	-43.4	-45.7	18.7	0.00e+00	0	38	0	1027604480	58	4698
2026-01-21 23:34:18.51	184.18	24.05	-43.4	-45.8	18.6	0.00e+00	0	38	0	1028653056	58	4710
2026-01-21 23:34:19.79	184.25	23.86	-43.5	-45.9	18.5	0.00e+00	0	38	0	1031798784	58	4795
2026-01-21 23:34:20.50	184.29	23.75	-43.4	-45.7	18.6	0.00e+00	0	38	0	1032847360	58	4690
2026-01-21 23:34:21.78	184.37	23.56	-43.2	-45.5	18.8	0.00e+00	0	38	0	1034944512	58	4594
2026-01-21 23:34:22.70	184.42	23.43	-43.1	-45.5	18.9	0.00e+00	0	38	0	1037041664	58	4549
2026-01-21 23:34:23.69	184.47	23.28	-43.2	-45.5	18.9	0.00e+00	0	38	0	1039138816	58	4560
2026-01-21 23:34:24.69	184.53	23.13	-43.0	-45.3	19.0	0.00e+00	0	38	0	1040187392	57	4729
2026-01-21 23:34:25.68	184.58	22.99	-43.0	-45.3	19.0	0.00e+00	0	38	0	1042284544	57	4747
2026-01-21 23:34:26.67	184.64	22.85	-43.0	-45.3	19.0	0.00e+00	0	38	0	1044381696	57	4716
2026-01-21 23:34:27.67	184.69	22.70	-42.8	-45.1	19.1	0.00e+00	0	38	0	1046478848	57	4642
2026-01-21 23:34:28.66	184.74	22.56	-42.9	-45.2	19.1	0.00e+00	0	38	0	1047527424	57	4672
2026-01-21 23:34:29.66	184.80	22.42	-42.9	-45.1	19.1	0.00e+00	0	38	0	1049624576	57	4644
2026-01-21 23:34:30.71	184.85	22.27	-43.0	-45.3	19.0	0.00e+00	0	38	0	1051721728	57	4712
2026-01-21 23:34:31.63	184.90	22.14	-42.9	-45.2	19.1	0.00e+00	0	38	0	1053818880	57	4679
2026-01-21 23:34:32.75	184.96	21.98	-43.0	-45.3	19.0	0.00e+00	0	38	0	1055916032	57	4740
2026-01-21 23:34:33.62	185.00	21.86	-43.0	-45.3	19.0	0.00e+00	0	38	0	1056964608	57	4714
2026-01-21 23:34:34.93	185.07	21.68	-43.0	-45.3	19.0	0.00e+00	0	38	0	1060110336	57	4722
2026-01-21 23:34:35.64	185.10	21.58	-43.0	-45.3	19.0	0.00e+00	0	38	0	1061158912	57	4744
2026-01-21 23:34:36.92	185.17	21.41	-43.0	-45.3	18.9	0.00e+00	0	38	0	1063256064	57	4756
2026-01-21 23:34:37.63	185.20	21.31	-43.0	-45.3	18.7	0.00e+00	0	38	0	1064304640	57	4740
2026-01-21 23:34:38.91	185.26	21.14	-43.1	-45.4	18.8	0.00e+00	0	38	0	1067450368	57	4799
2026-01-21 23:34:39.62	185.30	21.04	-43.0	-45.3	18.9	0.00e+00	0	38	0	1068498944	57	4742
2026-01-21 23:34:41.25	185.38	20.82	-43.1	-45.4	18.8	0.00e+00	0	38	0	1071644672	57	4809
2026-01-21 23:34:41.82	185.40	20.75	-43.0	-45.4	18.9	0.00e+00	0	38	0	1072693248	57	4773
2026-01-21 23:34:43.53	185.48	20.52	-43.0	-45.3	18.9	0.00e+00	0	38	0	1075838976	57	4753
2026-01-21 23:34:44.09	185.51	20.45	-43.0	-45.4	18.9	0.00e+00	0	38	0	1076887552	57	4770
2026-01-21 23:34:45.80	185.59	20.22	-43.0	-45.3	18.9	0.00e+00	0	38	0	1080033280	57	4738
2026-01-21 23:34:46.37	185.62	20.15	-43.1	-45.4	18.8	0.00e+00	0	38	0	1081081856	57	4806
2026-01-21 23:34:48.07	185.69	19.93	-43.1	-45.5	18.8	0.00e+00	0	38	0	1084227584	57	4820
2026-01-21 23:34:48.79	185.73	19.83	-43.1	-45.5	18.7	0.00e+00	0	38	0	1085276160	57	4840
2026-01-21 23:34:50.07	185.78	19.67	-43.2	-45.5	18.7	0.00e+00	0	38	0	1088421888	57	4866
2026-01-21 23:34:50.79	185.82	19.58	-43.2	-45.6	18.7	0.00e+00	0	38	0	1089470464	57	4897
2026-01-21 23:34:52.07	185.87	19.42	-43.3	-45.7	18.6	0.00e+00	0	38	0	1091567616	57	4963
2026-01-21 23:34:52.78	185.90	19.33	-43.3	-45.7	18.6	0.00e+00	0	38	0	1092616192	57	4950
2026-01-21 23:34:54.14	185.96	19.16	-43.4	-45.9	18.4	0.00e+00	0	38	0	1095761920	57	5057
2026-01-21 23:34:54.85	185.99	19.07	-43.3	-45.8	18.5	0.00e+00	0	38	0	1096810496	57	5027
2026-01-21 23:34:56.17	186.05	18.90	-43.4	-45.9	18.4	0.00e+00	0	38	0	1099956224	57	5075
2026-01-21 23:34:56.88	186.08	18.82	-43.5	-46.0	18.3	0.00e+00	0	38	0	1101004800	57	5114
2026-01-21 23:34:58.24	186.14	18.65	-43.5	-46.0	18.3	0.00e+00	0	38	0	1103101952	57	5138
2026-01-21 23:34:58.95	186.17	18.56	-43.5	-46.0	18.3	0.00e+00	0	38	0	1105199104	57	5152
2026-01-21 23:35:00.28	186.22	18.40	-43.5	-46.0	18.2	0.00e+00	0	38	0	1107296256	57	5159
2026-01-21 23:35:00.99	186.25	18.31	-43.6	-46.1	18.2	0.00e+00	0	38	0	1108344832	57	5199
2026-01-21 23:35:02.26	186.30	18.16	-43.6	-46.2	18.1	0.00e+00	0	38	0	1110441984	57	5222
2026-01-21 23:35:02.99	186.33	18.07	-43.6	-46.1	18.2	0.00e+00	0	38	0	1112539136	57	5212
2026-01-21 23:35:04.27	186.38	17.92	-43.6	-46.2	18.1	0.00e+00	0	38	0	1114636288	57	5239
2026-01-21 23:35:04.98	186.41	17.83	-43.6	-46.2	18.1	0.00e+00	0	38	0	1115684864	57	5259
2026-01-21 23:35:06.26	186.46	17.68	-43.7	-46.3	18.0	0.00e+00	0	38	0	1118830592	58	4991
2026-01-21 23:35:06.97	186.49	17.60	-43.7	-46.3	18.0	0.00e+00	0	38	0	1119879168	58	5000
2026-01-21 23:35:08.25	186.54	17.45	-43.8	-46.4	17.9	0.00e+00	0	38	0	1121976320	58	5060
2026-01-21 23:35:08.98	186.57	17.36	-43.8	-46.4	17.9	0.00e+00	0	38	0	1123024896	58	5065
2026-01-21 23:35:10.26	186.62	17.22	-43.8	-46.4	17.9	0.00e+00	0	38	0	1126170624	58	5066
2026-01-21 23:35:10.97	186.65	17.13	-43.8	-46.4	17.9	0.00e+00	0	38	0	1127219200	58	5073
2026-01-21 23:35:12.25	186.69	16.99	-43.8	-46.4	17.9	0.00e+00	0	38	0	1129316352	58	5081
2026-01-21 23:35:12.97	186.72	16.90	-43.9	-46.5	17.8	0.00e+00	0	38	0	1131413504	58	5135
2026-01-21 23:35:14.25	186.77	16.76	-43.9	-46.6	17.7	0.00e+00	0	38	0	1133510656	58	5165
2026-01-21 23:35:15.17	186.80	16.65	-43.8	-46.5	17.8	0.00e+00	0	38	0	1135607808	58	5139
2026-01-21 23:35:16.48	186.85	16.50	-43.9	-46.6	17.7	0.00e+00	0	38	0	1137704960	58	5182
2026-01-21 23:35:17.20	186.88	16.42	-43.9	-46.6	17.7	0.00e+00	0	38	0	1138753536	58	5200
2026-01-21 23:35:18.48	186.92	16.28	-44.0	-46.7	17.6	0.00e+00	0	38	0	1141899264	58	5240
2026-01-21 23:35:19.21	186.95	16.20	-43.9	-46.7	17.6	0.00e+00	0	38	0	1142947840	58	5219
2026-01-21 23:35:20.49	187.00	16.06	-43.9	-46.7	17.6	0.00e+00	0	38	0	1145044992	58	5225
2026-01-21 23:35:21.21	187.02	15.98	-44.0	-46.7	17.6	0.00e+00	0	38	0	1146093568	58	5257
2026-01-21 23:35:22.50	187.07	15.84	-44.0	-46.7	17.6	0.00e+00	0	38	0	1149239296	58	5272
2026-01-21 23:35:23.21	187.09	15.76	-44.0	-46.7	17.6	0.00e+00	0	38	0	1150287872	58	5274
2026-01-21 23:35:24.49	187.14	15.62	-44.1	-46.8	17.5	0.00e+00	0	38	0	1152385024	58	5305
2026-01-21 23:35:25.20	187.16	15.54	-44.0	-46.8	17.5	0.00e+00	0	38	0	1154482176	58	5296
2026-01-21 23:35:26.56	187.21	15.40	-44.0	-46.8	17.5	0.00e+00	0	38	0	1156579328	58	5301
2026-01-21 23:35:27.27	187.23	15.32	-44.1	-46.9	17.5	0.00e+00	0	38	0	1157627904	58	5341
2026-01-21 23:35:28.62	187.28	15.17	-44.1	-46.8	17.5	0.00e+00	0	38	0	1160773632	58	5319
2026-01-21 23:35:29.33	187.30	15.10	-44.1	-46.8	17.5	0.00e+00	0	38	0	1161822208	58	5336
2026-01-21 23:35:30.68	187.35	14.96	-44.2	-46.9	17.4	0.00e+00	0	38	0	1163919360	58	5388
2026-01-21 23:35:31.66	187.38	14.85	-44.1	-46.9	17.4	0.00e+00	0	38	0	1166016512	59	5054
2026-01-21 23:35:32.97	187.43	14.71	-44.0	-46.8	17.5	0.00e+00	0	38	0	1168113664	59	4991
2026-01-21 23:35:33.71	187.45	14.64	-44.0	-46.7	17.5	0.00e+00	0	38	0	1170210816	59	4967
2026-01-21 23:35:34.99	187.49	14.50	-44.1	-46.9	17.4	0.00e+00	0	38	0	1172307968	59	5068
2026-01-21 23:35:35.70	187.51	14.43	-44.1	-46.8	17.4	0.00e+00	0	38	0	1173356544	59	5008
2026-01-21 23:35:36.98	187.56	14.30	-44.1	-46.8	17.4	0.00e+00	0	38	0	1176502272	59	5014
2026-01-21 23:35:37.69	187.58	14.23	-44.1	-46.9	17.4	0.00e+00	0	38	0	1177550848	59	5056
2026-01-21 23:35:38.97	187.62	14.09	-43.9	-46.7	17.6	0.00e+00	0	38	0	1179648000	59	4933
2026-01-21 23:35:39.70	187.64	14.02	-44.0	-46.7	17.5	0.00e+00	0	38	0	1180696576	59	4982
2026-01-21 23:35:40.98	187.68	13.89	-44.0	-46.7	17.5	0.00e+00	0	38	0	1183842304	59	4966
2026-01-21 23:35:41.70	187.71	13.82	-43.9	-46.6	17.6	0.00e+00	0	38	0	1184890880	59	4919
2026-01-21 23:35:43.06	187.75	13.68	-44.0	-46.7	17.5	0.00e+00	0	38	0	1186988032	59	4977
2026-01-21 23:35:43.77	187.77	13.61	-44.0	-46.7	17.6	0.00e+00	0	38	0	1189085184	59	4938
2026-01-21 23:35:45.05	187.81	13.48	-44.0	-46.7	17.5	0.00e+00	0	38	0	1191182336	59	4944
2026-01-21 23:35:45.76	187.83	13.41	-43.9	-46.6	17.6	0.00e+00	0	38	0	1192230912	59	4892
2026-01-21 23:35:47.17	187.87	13.27	-43.9	-46.6	17.6	0.00e+00	0	38	0	1195376640	59	4888
2026-01-21 23:35:47.88	187.89	13.20	-44.0	-46.6	17.6	0.00e+00	0	38	0	1196425216	59	4918
2026-01-21 23:35:49.24	187.94	13.07	-44.0	-46.7	17.5	0.00e+00	0	38	0	1199570944	59	4952
2026-01-21 23:35:49.95	187.96	13.00	-44.0	-46.7	17.5	0.00e+00	0	38	0	1200619520	59	4935
2026-01-21 23:35:51.23	187.99	12.87	-44.1	-46.8	17.4	0.00e+00	0	38	0	1202716672	59	4992
2026-01-21 23:35:51.94	188.02	12.80	-44.0	-46.7	17.5	0.00e+00	0	38	0	1203765248	59	4935
2026-01-21 23:35:53.22	188.05	12.68	-43.9	-46.5	17.7	0.00e+00	0	38	0	1206910976	59	4835
2026-01-21 23:35:53.93	188.07	12.61	-44.0	-46.7	17.5	0.00e+00	0	38	0	1207959552	59	4932
2026-01-21 23:35:55.21	188.11	12.49	-43.9	-46.5	17.6	0.00e+00	0	38	0	1210056704	59	4852
2026-01-21 23:35:55.95	188.13	12.42	-43.9	-46.6	17.6	0.00e+00	0	38	0	1211105280	59	4874
2026-01-21 23:35:57.23	188.17	12.30	-43.8	-46.5	17.7	0.00e+00	0	38	0	1214251008	59	4831
2026-01-21 23:35:57.94	188.19	12.23	-43.9	-46.5	17.7	0.00e+00	0	38	0	1215299584	59	4835
2026-01-21 23:35:59.22	188.22	12.11	-44.0	-46.7	17.5	0.00e+00	0	38	0	1217396736	59	4939
2026-01-21 23:35:59.93	188.24	12.04	-44.0	-46.6	17.5	0.00e+00	0	38	0	1219493888	59	4909
2026-01-21 23:36:01.21	188.28	11.92	-44.0	-46.6	17.5	0.00e+00	0	38	0	1221591040	59	4915
2026-01-21 23:36:01.92	188.30	11.85	-44.0	-46.7	17.5	0.00e+00	0	38	0	1222639616	59	4935
2026-01-21 23:36:03.20	188.33	11.74	-44.0	-46.7	17.5	0.00e+00	0	38	0	1224736768	59	4953
2026-01-21 23:36:03.92	188.35	11.67	-44.1	-46.8	17.4	0.00e+00	0	38	0	1226833920	59	4997
2026-01-21 23:36:05.20	188.39	11.55	-44.2	-46.9	17.2	0.00e+00	0	38	0	1228931072	59	5074
2026-01-21 23:36:05.91	188.41	11.49	-44.0	-46.7	17.4	0.00e+00	0	38	0	1229979648	59	4951
