passes_logs/2026/01/21/T1/T1__20260121_223422_NOAA_21_JPSS-2_rec.log

#Pass ID: 20260121_223422_NOAA 21 (JPSS-2)
#Satellite: NOAA 21 (JPSS-2)
#Configuration: NOAA 21
#almurnet v.1.7.20251203
#Start time: 2026-01-21 22:34:21

#Version: 2.0.20230620
#Station: T1
#Location: 37.570604 lon 55.790049 lat
#TLE: 1 54234U 22150A   26020.93347024  .00000206  00000+0  11859-3 0  9994
#TLE: 2 54234  98.7506 321.7615 0000627 245.8100 114.3011 14.19536899165654

#Time	Az	El	Level	Level2	SNR	BER	BlckErr	Temp	State	Recorded	gain1	gain2
2026-01-21 22:34:21.61	25.16	4.97	-50.0	-63.3	3.8	1.49e+00	0	36	0	0	71	16873
2026-01-21 22:34:22.60	25.23	5.03	-50.0	-63.3	3.8	1.49e+00	0	36	104	0	71	16868
2026-01-21 22:34:23.59	25.29	5.10	-50.0	-63.3	3.8	1.49e+00	0	36	104	0	71	16825
2026-01-21 22:34:24.58	25.35	5.16	-50.0	-63.4	3.8	1.49e+00	0	36	104	0	71	16892
2026-01-21 22:34:25.58	25.42	5.23	-49.9	-63.4	3.8	1.49e+00	0	36	104	0	71	16909
2026-01-21 22:34:26.57	25.49	5.29	-50.0	-63.3	3.8	1.49e+00	0	36	104	0	71	16871
2026-01-21 22:34:27.56	25.55	5.35	-49.9	-63.3	3.8	1.49e+00	0	36	104	0	71	16871
2026-01-21 22:34:28.56	25.62	5.42	-49.9	-63.3	3.8	1.49e+00	0	36	104	0	71	16831
2026-01-21 22:34:29.55	25.68	5.48	-50.0	-63.3	3.8	1.49e+00	0	36	104	0	71	16877
2026-01-21 22:34:30.54	25.75	5.55	-49.9	-63.3	3.8	1.49e+00	0	36	104	0	71	16836
2026-01-21 22:34:31.54	25.82	5.61	-49.9	-63.4	3.8	1.49e+00	0	36	104	0	71	16918
2026-01-21 22:34:32.53	25.89	5.68	-50.0	-63.4	3.8	1.49e+00	0	36	104	0	71	16941
2026-01-21 22:34:33.53	25.95	5.74	-49.9	-63.3	3.8	1.49e+00	0	36	104	0	71	16877
2026-01-21 22:34:34.52	26.02	5.81	-50.0	-63.3	3.8	1.49e+00	0	37	104	0	71	16810
2026-01-21 22:34:35.51	26.09	5.87	-50.0	-63.3	3.8	1.49e+00	0	37	104	0	71	16842
2026-01-21 22:34:36.51	26.16	5.94	-49.9	-63.3	3.8	1.49e+00	0	36	104	0	71	16812
2026-01-21 22:34:37.50	26.23	6.00	-50.0	-63.3	3.8	1.49e+00	0	37	104	0	71	16803
2026-01-21 22:34:38.49	26.30	6.07	-49.9	-63.3	3.8	1.49e+00	0	37	104	0	71	16852
2026-01-21 22:34:39.49	26.37	6.14	-50.0	-63.3	3.8	1.49e+00	0	36	104	0	71	16858
2026-01-21 22:34:40.48	26.43	6.20	-50.0	-63.3	3.8	1.49e+00	0	37	104	0	71	16865
2026-01-21 22:34:41.48	26.51	6.27	-49.9	-63.3	3.8	1.49e+00	0	37	104	0	71	16820
2026-01-21 22:34:42.47	26.58	6.33	-50.0	-63.3	3.8	1.49e+00	0	37	104	0	71	16849
2026-01-21 22:34:43.46	26.65	6.40	-49.9	-63.3	3.8	1.49e+00	0	37	104	0	71	16866
2026-01-21 22:34:44.46	26.72	6.47	-50.0	-63.3	3.8	1.49e+00	0	37	104	0	71	16879
2026-01-21 22:34:45.45	26.79	6.53	-49.9	-63.3	3.8	1.49e+00	0	37	104	0	71	16855
2026-01-21 22:34:46.44	26.86	6.60	-49.9	-63.3	3.8	1.49e+00	0	37	104	0	71	16880
2026-01-21 22:34:47.44	26.93	6.67	-50.0	-63.4	3.8	1.49e+00	0	37	104	0	71	16934
2026-01-21 22:34:48.43	27.00	6.74	-50.0	-63.3	3.8	1.49e+00	0	37	104	0	71	16884
2026-01-21 22:34:49.42	27.07	6.80	-50.0	-63.3	3.8	1.49e+00	0	37	104	0	71	16801
2026-01-21 22:34:50.42	27.15	6.87	-49.9	-63.3	3.8	1.49e+00	0	37	104	0	71	16776
2026-01-21 22:34:51.41	27.22	6.94	-50.0	-63.2	3.8	1.49e+00	0	37	104	0	71	16676
2026-01-21 22:34:52.40	27.29	7.00	-49.9	-63.2	3.8	1.49e+00	0	37	104	0	71	16578
2026-01-21 22:34:53.40	27.37	7.07	-50.0	-63.2	3.8	1.49e+00	0	37	104	0	71	16534
2026-01-21 22:34:54.39	27.44	7.14	-50.0	-63.2	3.8	1.49e+00	0	37	104	0	71	16543
2026-01-21 22:34:55.38	27.52	7.21	-49.9	-63.2	3.8	1.49e+00	0	37	104	0	71	16591
2026-01-21 22:34:56.38	27.59	7.28	-50.0	-63.2	3.8	1.49e+00	0	37	104	0	71	16642
2026-01-21 22:34:57.37	27.67	7.35	-49.9	-63.3	3.8	1.49e+00	0	37	104	0	71	16768
2026-01-21 22:34:58.36	27.74	7.41	-49.9	-63.3	3.8	1.49e+00	0	37	104	0	71	16872
2026-01-21 22:34:59.36	27.82	7.48	-50.0	-63.3	3.8	1.49e+00	0	37	104	0	71	16847
2026-01-21 22:35:00.35	27.89	7.55	-49.9	-63.3	3.8	1.49e+00	0	37	104	0	71	16768
2026-01-21 22:35:01.35	27.97	7.62	-50.0	-63.2	3.8	1.49e+00	0	37	104	0	71	16635
2026-01-21 22:35:02.34	28.05	7.69	-49.9	-63.2	3.8	1.49e+00	0	37	104	0	71	16521
2026-01-21 22:35:03.33	28.12	7.76	-49.9	-63.1	3.8	1.49e+00	0	37	104	0	71	16344
2026-01-21 22:35:04.33	28.20	7.83	-49.9	-63.0	3.8	1.49e+00	0	37	104	0	71	16280
2026-01-21 22:35:05.32	28.28	7.90	-49.9	-63.0	3.8	1.49e+00	0	37	104	0	71	16208
2026-01-21 22:35:06.31	28.35	7.97	-49.9	-63.0	3.8	1.49e+00	0	37	104	0	71	16188
2026-01-21 22:35:07.30	28.43	8.04	-49.9	-62.9	3.8	1.49e+00	0	37	104	0	71	16101
2026-01-21 22:35:08.30	28.51	8.11	-49.9	-62.9	3.8	1.49e+00	0	37	104	0	71	15951
2026-01-21 22:35:09.29	28.59	8.18	-49.9	-62.8	3.8	1.49e+00	0	37	104	0	71	15848
2026-01-21 22:35:10.28	28.67	8.25	-49.8	-62.7	3.8	1.49e+00	0	37	104	0	71	15659
2026-01-21 22:35:11.28	28.75	8.32	-49.8	-62.5	3.8	1.49e+00	0	37	104	0	71	15354
2026-01-21 22:35:12.27	28.83	8.39	-49.9	-62.3	3.8	1.49e+00	0	37	104	0	71	14986
2026-01-21 22:35:13.26	28.91	8.46	-49.8	-62.0	3.8	1.49e+00	0	37	104	0	71	14399
2026-01-21 22:35:14.26	28.99	8.53	-49.8	-61.4	3.8	1.49e+00	0	37	104	0	71	13546
2026-01-21 22:35:15.25	29.07	8.60	-49.6	-60.1	4.1	1.48e+00	0	38	104	0	71	11550
2026-01-21 22:35:16.24	29.15	8.67	-49.4	-58.5	4.6	1.41e+00	0	37	104	0	70	10257
2026-01-21 22:35:17.24	29.24	8.74	-49.1	-56.7	5.6	5.33e-01	0	37	0	0	70	8357
2026-01-21 22:35:18.23	29.32	8.82	-48.6	-55.0	7.0	1.91e-01	0	37	0	0	69	7229
2026-01-21 22:35:19.22	29.40	8.89	-48.0	-53.3	8.7	4.39e-02	0	37	0	0	68	6333
2026-01-21 22:35:20.22	29.48	8.96	-47.3	-51.8	10.0	1.33e-02	0	37	0	0	66	5986
2026-01-21 22:35:21.21	29.57	9.03	-46.8	-51.0	10.9	2.12e-03	0	38	0	0	65	5724
2026-01-21 22:35:22.32	29.66	9.11	-49.1	-56.5	5.8	4.69e-01	0	37	0	0	69	8632
2026-01-21 22:35:23.22	29.74	9.18	-49.0	-56.2	5.8	7.26e-01	0	38	0	0	69	8289
2026-01-21 22:35:24.49	29.85	9.27	-46.7	-50.5	11.7	1.11e-04	0	37	0	0	63	6072
2026-01-21 22:35:25.20	29.91	9.32	-48.0	-53.2	8.5	7.36e-02	0	37	0	0	67	6630
2026-01-21 22:35:26.75	30.04	9.44	-43.1	-45.3	16.6	0.00e+00	0	37	0	0	58	4468
2026-01-21 22:35:27.46	30.10	9.49	-42.8	-44.9	16.9	0.00e+00	0	37	0	0	57	4541
2026-01-21 22:35:28.74	30.21	9.58	-42.7	-44.8	17.0	0.00e+00	0	37	0	0	57	4463
2026-01-21 22:35:29.45	30.28	9.63	-42.7	-44.8	17.0	0.00e+00	0	37	0	0	57	4465
2026-01-21 22:35:30.73	30.39	9.73	-42.6	-44.7	17.1	0.00e+00	0	37	0	0	57	4416
2026-01-21 22:35:31.44	30.45	9.78	-42.6	-44.7	17.1	0.00e+00	0	37	0	0	57	4435
2026-01-21 22:35:32.72	30.57	9.88	-42.6	-44.7	17.2	0.00e+00	0	38	0	0	57	4405
2026-01-21 22:35:33.45	30.63	9.93	-42.6	-44.7	17.2	0.00e+00	0	37	0	0	57	4402
2026-01-21 22:35:34.73	30.75	10.03	-42.5	-44.5	17.3	0.00e+00	0	37	0	0	56	4585
2026-01-21 22:35:35.47	30.81	10.08	-42.5	-44.6	17.3	0.00e+00	0	37	0	0	56	4623
2026-01-21 22:35:36.75	30.93	10.18	-42.6	-44.7	17.2	0.00e+00	0	37	0	0	56	4688
2026-01-21 22:35:37.47	30.99	10.23	-42.5	-44.6	17.2	0.00e+00	0	37	0	0	56	4647
2026-01-21 22:35:38.75	31.11	10.33	-42.5	-44.6	17.3	0.00e+00	0	38	0	0	56	4605
2026-01-21 22:35:39.57	31.19	10.39	-42.5	-44.6	17.3	0.00e+00	0	38	0	0	56	4614
2026-01-21 22:35:40.71	31.29	10.48	-42.6	-44.7	17.2	0.00e+00	0	38	0	0	56	4670
2026-01-21 22:35:41.56	31.37	10.54	-42.4	-44.5	17.4	0.00e+00	0	38	0	0	56	4562
2026-01-21 22:35:42.70	31.48	10.63	-42.4	-44.5	17.4	0.00e+00	0	38	0	0	56	4557
2026-01-21 22:35:43.82	31.58	10.71	-42.3	-44.3	17.6	0.00e+00	0	38	0	0	56	4473
2026-01-21 22:35:44.83	31.68	10.79	-42.2	-44.2	17.7	0.00e+00	0	37	0	0	56	4407
2026-01-21 22:35:45.98	31.79	10.88	-42.1	-44.1	17.7	0.00e+00	0	37	0	0	56	4365
2026-01-21 22:35:46.84	31.87	10.95	-42.1	-44.1	17.7	0.00e+00	0	37	0	0	56	4376
2026-01-21 22:35:48.15	31.99	11.05	-42.0	-44.0	17.9	0.00e+00	0	38	0	0	56	4326
2026-01-21 22:35:48.86	32.06	11.10	-42.0	-44.1	17.8	0.00e+00	0	37	0	0	56	4353
2026-01-21 22:35:50.14	32.18	11.20	-41.8	-43.8	17.9	0.00e+00	0	38	0	0	55	4472
2026-01-21 22:35:50.85	32.25	11.26	-41.8	-43.8	17.9	0.00e+00	0	38	0	0	55	4457
2026-01-21 22:35:52.13	32.38	11.36	-41.7	-43.7	18.0	0.00e+00	0	38	0	0	55	4428
2026-01-21 22:35:52.84	32.45	11.41	-41.7	-43.7	18.0	0.00e+00	0	37	0	0	55	4412
2026-01-21 22:35:54.12	32.57	11.51	-41.7	-43.7	18.0	0.00e+00	0	38	0	0	55	4431
2026-01-21 22:35:54.83	32.65	11.57	-41.7	-43.7	18.0	0.00e+00	0	37	0	0	55	4427
2026-01-21 22:35:56.11	32.77	11.67	-41.6	-43.6	18.1	0.00e+00	0	38	0	0	55	4349
2026-01-21 22:35:56.82	32.84	11.72	-41.6	-43.6	18.1	0.00e+00	0	38	0	0	55	4346
2026-01-21 22:35:58.10	32.97	11.82	-41.7	-43.7	18.0	0.00e+00	0	38	0	0	55	4420
2026-01-21 22:35:58.83	33.05	11.88	-41.7	-43.7	18.0	0.00e+00	0	38	0	0	55	4421
2026-01-21 22:36:00.11	33.18	11.98	-41.8	-43.8	17.9	0.00e+00	0	38	0	0	55	4463
2026-01-21 22:36:01.13	33.28	12.06	-41.7	-43.6	18.1	0.00e+00	0	38	0	0	55	4347
2026-01-21 22:36:02.12	33.38	12.14	-41.6	-43.5	18.2	0.00e+00	0	38	0	0	55	4322
2026-01-21 22:36:03.12	33.49	12.22	-41.6	-43.5	18.2	0.00e+00	0	38	0	0	55	4324
2026-01-21 22:36:04.11	33.59	12.30	-41.6	-43.5	18.2	0.00e+00	0	37	0	0	55	4323
2026-01-21 22:36:05.11	33.69	12.38	-41.7	-43.6	18.2	0.00e+00	0	38	0	0	55	4353
2026-01-21 22:36:06.11	33.80	12.46	-41.6	-43.5	18.2	0.00e+00	0	38	0	0	55	4333
2026-01-21 22:36:07.10	33.90	12.54	-41.6	-43.5	18.2	0.00e+00	0	38	0	0	55	4331
2026-01-21 22:36:08.09	34.01	12.62	-41.6	-43.5	18.2	0.00e+00	0	38	0	0	55	4321
2026-01-21 22:36:09.09	34.12	12.70	-41.6	-43.5	18.2	0.00e+00	0	38	0	0	55	4317
2026-01-21 22:36:10.08	34.22	12.78	-41.5	-43.4	18.3	0.00e+00	0	38	0	0	55	4269
2026-01-21 22:36:11.08	34.33	12.86	-41.6	-43.4	18.3	0.00e+00	0	38	0	0	55	4290
2026-01-21 22:36:12.08	34.44	12.94	-41.5	-43.3	18.4	0.00e+00	0	38	0	0	54	4488
2026-01-21 22:36:13.13	34.55	13.03	-41.5	-43.4	18.3	0.00e+00	0	38	0	0	54	4530
2026-01-21 22:36:14.06	34.65	13.10	-41.5	-43.3	18.4	0.00e+00	0	38	0	0	54	4491
2026-01-21 22:36:15.19	34.78	13.20	-41.4	-43.2	18.5	0.00e+00	0	38	0	0	54	4438
2026-01-21 22:36:16.04	34.87	13.27	-41.4	-43.3	18.4	0.00e+00	0	38	0	0	54	4465
2026-01-21 22:36:17.17	35.00	13.36	-41.5	-43.4	18.3	0.00e+00	0	38	0	0	54	4523
2026-01-21 22:36:18.13	35.11	13.44	-41.5	-43.4	18.4	0.00e+00	0	38	0	0	54	4506
2026-01-21 22:36:19.13	35.22	13.52	-41.4	-43.3	18.4	0.00e+00	0	38	0	0	54	4487
2026-01-21 22:36:20.13	35.33	13.60	-41.5	-43.4	18.4	0.00e+00	0	38	0	0	54	4505
2026-01-21 22:36:21.34	35.47	13.70	-41.5	-43.4	18.4	0.00e+00	0	38	0	0	54	4524
2026-01-21 22:36:22.22	35.57	13.78	-41.5	-43.4	18.3	0.00e+00	0	38	0	0	54	4531
2026-01-21 22:36:23.53	35.72	13.89	-41.5	-43.4	18.4	0.00e+00	0	38	0	0	54	4511
2026-01-21 22:36:24.24	35.80	13.95	-41.5	-43.4	18.4	0.00e+00	0	38	0	0	54	4500
2026-01-21 22:36:25.74	35.98	14.07	-41.5	-43.4	18.3	0.00e+00	0	38	0	0	54	4541
2026-01-21 22:36:26.45	36.06	14.13	-41.5	-43.3	18.4	0.00e+00	0	38	0	0	54	4484
2026-01-21 22:36:27.78	36.22	14.24	-41.4	-43.3	18.4	0.00e+00	0	38	0	0	54	4462
2026-01-21 22:36:28.49	36.30	14.30	-41.5	-43.3	18.4	0.00e+00	0	38	0	0	54	4482
2026-01-21 22:36:29.82	36.46	14.42	-41.5	-43.4	18.4	0.00e+00	0	38	0	0	54	4503
2026-01-21 22:36:30.53	36.54	14.48	-41.4	-43.2	18.5	0.00e+00	0	38	0	0	54	4440
2026-01-21 22:36:31.81	36.70	14.58	-41.4	-43.3	18.5	0.00e+00	0	38	0	0	54	4449
2026-01-21 22:36:32.52	36.78	14.64	-41.5	-43.3	18.4	0.00e+00	0	38	0	0	54	4487
2026-01-21 22:36:33.80	36.94	14.75	-41.6	-43.4	18.3	0.00e+00	0	38	0	0	54	4540
2026-01-21 22:36:34.53	37.03	14.82	-41.6	-43.5	18.3	0.00e+00	0	38	0	0	54	4577
2026-01-21 22:36:35.81	37.19	14.93	-41.8	-43.7	18.1	0.00e+00	0	38	0	0	54	4666
2026-01-21 22:36:36.52	37.28	14.99	-41.8	-43.7	18.1	0.00e+00	0	38	0	0	54	4688
2026-01-21 22:36:37.80	37.44	15.10	-41.6	-43.5	18.2	0.00e+00	0	38	0	0	54	4592
2026-01-21 22:36:38.58	37.53	15.16	-41.7	-43.6	18.1	0.00e+00	0	38	0	0	54	4639
2026-01-21 22:36:39.85	37.69	15.27	-41.7	-43.7	18.1	0.00e+00	0	38	0	0	54	4661
2026-01-21 22:36:40.56	37.78	15.34	-41.7	-43.6	18.1	0.00e+00	0	38	0	0	54	4632
2026-01-21 22:36:41.84	37.95	15.45	-41.7	-43.6	18.2	0.00e+00	0	38	0	0	54	4629
2026-01-21 22:36:42.55	38.04	15.51	-41.8	-43.7	18.1	0.00e+00	0	38	0	0	54	4667
2026-01-21 22:36:43.83	38.20	15.62	-41.7	-43.6	18.2	0.00e+00	0	38	0	0	54	4606
2026-01-21 22:36:44.56	38.30	15.68	-41.6	-43.5	18.3	0.00e+00	0	38	0	0	54	4575
2026-01-21 22:36:45.84	38.46	15.80	-41.7	-43.6	18.2	0.00e+00	0	38	0	0	54	4637
2026-01-21 22:36:46.56	38.56	15.86	-41.8	-43.7	18.1	0.00e+00	0	38	0	0	54	4703
2026-01-21 22:36:47.84	38.73	15.97	-41.8	-43.7	18.1	0.00e+00	0	38	0	0	54	4680
2026-01-21 22:36:48.57	38.82	16.04	-41.9	-43.8	18.1	0.00e+00	0	38	0	0	54	4721
2026-01-21 22:36:49.84	38.99	16.15	-41.8	-43.7	18.1	0.00e+00	0	38	0	0	54	4697
2026-01-21 22:36:50.55	39.09	16.21	-41.8	-43.7	18.1	0.00e+00	0	38	0	0	54	4695
2026-01-21 22:36:51.84	39.26	16.32	-41.9	-43.8	18.0	0.00e+00	0	38	0	0	54	4758
2026-01-21 22:36:52.55	39.36	16.39	-41.8	-43.8	18.1	0.00e+00	0	38	0	0	54	4718
2026-01-21 22:36:53.83	39.53	16.50	-41.8	-43.8	18.1	0.00e+00	0	38	0	0	54	4715
2026-01-21 22:36:54.54	39.63	16.56	-41.9	-43.9	18.0	0.00e+00	0	38	0	0	54	4774
2026-01-21 22:36:55.82	39.80	16.68	-41.8	-43.8	18.1	0.00e+00	0	38	0	0	54	4708
2026-01-21 22:36:56.53	39.90	16.74	-41.9	-43.8	18.0	0.00e+00	0	38	0	0	54	4757
2026-01-21 22:36:57.81	40.08	16.86	-41.8	-43.6	18.2	0.00e+00	0	38	0	0	54	4650
2026-01-21 22:36:58.52	40.18	16.92	-41.7	-43.6	18.3	0.00e+00	0	38	0	0	54	4619
2026-01-21 22:36:59.80	40.36	17.04	-41.8	-43.7	18.2	0.00e+00	0	38	0	0	54	4655
2026-01-21 22:37:00.52	40.46	17.10	-41.6	-43.5	18.4	0.00e+00	0	38	0	0	54	4555
2026-01-21 22:37:01.80	40.65	17.22	-41.5	-43.4	18.5	0.00e+00	0	38	0	0	54	4495
2026-01-21 22:37:02.52	40.75	17.28	-41.5	-43.3	18.5	0.00e+00	0	38	0	0	54	4486
2026-01-21 22:37:03.80	40.93	17.40	-41.6	-43.5	18.4	0.00e+00	0	38	0	0	54	4565
2026-01-21 22:37:04.51	41.04	17.46	-41.5	-43.4	18.5	0.00e+00	0	38	0	0	54	4516
2026-01-21 22:37:05.79	41.22	17.58	-41.6	-43.5	18.4	0.00e+00	0	38	0	0	54	4547
2026-01-21 22:37:06.50	41.33	17.64	-41.4	-43.2	18.6	0.00e+00	0	38	0	0	54	4422
2026-01-21 22:37:07.78	41.52	17.76	-41.4	-43.3	18.6	0.00e+00	0	38	0	0	54	4442
2026-01-21 22:37:08.51	41.63	17.83	-41.4	-43.2	18.6	0.00e+00	0	38	0	0	54	4423
2026-01-21 22:37:09.79	41.82	17.94	-41.3	-43.2	18.6	0.00e+00	0	38	0	0	54	4398
2026-01-21 22:37:10.50	41.92	18.01	-41.2	-43.0	18.8	0.00e+00	0	38	0	0	54	4315
2026-01-21 22:37:11.78	42.12	18.13	-41.2	-43.0	18.8	0.00e+00	0	38	0	0	54	4293
2026-01-21 22:37:12.49	42.23	18.19	-41.1	-42.9	18.9	0.00e+00	0	38	0	0	54	4245
2026-01-21 22:37:13.77	42.42	18.31	-41.1	-42.9	18.8	0.00e+00	0	38	0	0	54	4268
2026-01-21 22:37:14.54	42.54	18.38	-41.1	-42.9	18.9	0.00e+00	0	38	0	0	54	4268
2026-01-21 22:37:15.82	42.74	18.50	-41.1	-42.9	18.9	0.00e+00	0	38	0	0	54	4247
2026-01-21 22:37:16.54	42.85	18.57	-41.1	-42.9	18.9	0.00e+00	0	38	0	0	54	4252
2026-01-21 22:37:17.81	43.05	18.68	-41.0	-42.8	19.0	0.00e+00	0	38	0	0	54	4194
2026-01-21 22:37:18.54	43.17	18.75	-41.0	-42.8	18.9	0.00e+00	0	38	0	0	54	4223
2026-01-21 22:37:19.82	43.37	18.87	-41.1	-42.9	18.9	0.00e+00	0	38	0	0	54	4265
2026-01-21 22:37:20.54	43.48	18.94	-41.2	-43.1	18.8	0.00e+00	0	38	0	0	54	4341
2026-01-21 22:37:21.82	43.69	19.06	-41.1	-42.9	18.9	0.00e+00	0	38	0	0	54	4262
2026-01-21 22:37:22.53	43.80	19.12	-41.2	-43.0	18.8	0.00e+00	0	38	0	0	54	4318
2026-01-21 22:37:23.81	44.01	19.24	-41.2	-43.0	18.8	0.00e+00	0	38	0	0	54	4302
2026-01-21 22:37:24.52	44.13	19.31	-41.1	-42.9	18.9	0.00e+00	0	38	0	0	54	4260
2026-01-21 22:37:25.80	44.34	19.43	-41.1	-43.0	18.7	0.00e+00	0	38	0	0	54	4294
2026-01-21 22:37:26.53	44.46	19.50	-41.1	-43.0	18.8	0.00e+00	0	38	0	0	54	4294
2026-01-21 22:37:27.81	44.67	19.62	-41.0	-42.8	18.9	0.00e+00	0	38	0	0	54	4234
2026-01-21 22:37:28.52	44.79	19.69	-41.1	-42.9	18.9	0.00e+00	0	38	0	0	54	4247
2026-01-21 22:37:29.80	45.01	19.81	-41.0	-42.8	18.9	0.00e+00	0	38	0	0	53	4444
2026-01-21 22:37:30.53	45.13	19.88	-40.9	-42.7	19.0	0.00e+00	0	38	0	0	53	4431
2026-01-21 22:37:31.80	45.35	20.00	-41.0	-42.8	19.0	0.00e+00	0	38	0	0	53	4468
2026-01-21 22:37:32.58	45.48	20.07	-40.9	-42.7	19.1	0.00e+00	0	38	0	0	53	4418
2026-01-21 22:37:33.86	45.70	20.19	-41.0	-42.8	19.0	0.00e+00	0	38	0	0	53	4447
2026-01-21 22:37:34.58	45.83	20.26	-40.9	-42.7	19.1	0.00e+00	0	38	0	0	53	4399
2026-01-21 22:37:35.86	46.05	20.38	-41.0	-42.8	19.0	0.00e+00	0	38	0	0	53	4464
2026-01-21 22:37:36.58	46.18	20.45	-41.0	-42.8	19.0	0.00e+00	0	38	0	0	53	4459
2026-01-21 22:37:37.86	46.40	20.57	-40.8	-42.6	19.2	0.00e+00	0	38	0	0	53	4344
2026-01-21 22:37:38.68	46.55	20.65	-40.8	-42.6	19.2	0.00e+00	0	38	0	0	53	4356
2026-01-21 22:37:40.10	46.80	20.79	-40.6	-42.4	19.3	0.00e+00	0	38	0	0	53	4249
2026-01-21 22:37:40.81	46.93	20.85	-40.6	-42.3	19.3	0.00e+00	0	38	0	0	53	4224
2026-01-21 22:37:42.09	47.16	20.98	-40.5	-42.3	19.4	0.00e+00	0	38	0	0	53	4196
2026-01-21 22:37:43.28	47.38	21.09	-40.3	-42.0	19.6	0.00e+00	0	38	0	0	52	4336
2026-01-21 22:37:44.13	47.54	21.17	-40.3	-42.0	19.6	0.00e+00	0	38	0	0	52	4307
2026-01-21 22:37:45.27	47.75	21.28	-40.3	-42.0	19.6	0.00e+00	0	38	0	0	52	4329
2026-01-21 22:37:46.12	47.91	21.36	-40.3	-42.1	19.6	0.00e+00	0	38	0	0	52	4342
2026-01-21 22:37:47.26	48.12	21.47	-40.4	-42.1	19.6	0.00e+00	0	38	0	0	52	4366
2026-01-21 22:37:48.11	48.28	21.55	-40.5	-42.2	19.5	0.00e+00	0	38	0	0	52	4405
2026-01-21 22:37:49.25	48.49	21.66	-40.5	-42.2	19.5	0.00e+00	0	38	0	0	52	4413
2026-01-21 22:37:50.10	48.66	21.75	-40.5	-42.3	19.4	0.00e+00	0	38	0	0	52	4460
2026-01-21 22:37:51.24	48.88	21.86	-40.5	-42.2	19.4	0.00e+00	0	38	0	0	52	4420
2026-01-21 22:37:52.09	49.04	21.94	-40.5	-42.2	19.4	0.00e+00	0	38	0	0	52	4440
2026-01-21 22:37:53.23	49.26	22.05	-40.6	-42.3	19.3	0.00e+00	0	38	0	0	52	4493
2026-01-21 22:37:54.08	49.43	22.13	-40.5	-42.2	19.4	0.00e+00	0	38	0	0	52	4427
2026-01-21 22:37:55.22	49.65	22.24	-40.5	-42.3	19.4	0.00e+00	0	38	0	0	52	4442
2026-01-21 22:37:56.29	49.86	22.34	-40.5	-42.2	19.5	0.00e+00	0	38	0	0	52	4441
2026-01-21 22:37:57.32	50.07	22.44	-40.5	-42.2	19.5	0.00e+00	0	38	0	0	52	4416
2026-01-21 22:37:58.32	50.27	22.54	-40.4	-42.2	19.6	0.00e+00	0	38	0	0	52	4392
2026-01-21 22:37:59.31	50.47	22.63	-40.5	-42.2	19.5	0.00e+00	0	38	0	0	52	4428
2026-01-21 22:38:00.54	50.72	22.75	-40.4	-42.1	19.6	0.00e+00	0	38	0	0	52	4389
2026-01-21 22:38:01.40	50.89	22.84	-40.5	-42.2	19.5	0.00e+00	0	38	0	0	52	4421
2026-01-21 22:38:02.53	51.12	22.95	-40.3	-42.1	19.7	0.00e+00	0	38	0	0	52	4345
2026-01-21 22:38:03.39	51.30	23.03	-40.2	-41.9	19.8	0.00e+00	0	38	0	0	52	4275
2026-01-21 22:38:04.52	51.54	23.14	-40.3	-42.0	19.7	0.00e+00	0	38	0	0	52	4303
2026-01-21 22:38:05.38	51.72	23.22	-40.3	-42.0	19.6	0.00e+00	0	38	0	0	52	4326
2026-01-21 22:38:06.52	51.96	23.33	-40.4	-42.2	19.5	0.00e+00	0	38	0	0	52	4397
2026-01-21 22:38:07.37	52.14	23.41	-40.4	-42.1	19.5	0.00e+00	0	38	0	0	52	4380
2026-01-21 22:38:08.51	52.38	23.52	-40.4	-42.1	19.6	0.00e+00	0	38	0	0	52	4353
2026-01-21 22:38:09.36	52.56	23.60	-40.5	-42.2	19.5	0.00e+00	0	38	0	0	52	4406
2026-01-21 22:38:10.50	52.81	23.71	-40.6	-42.3	19.4	0.00e+00	0	38	0	0	52	4468
2026-01-21 22:38:11.35	52.99	23.80	-40.6	-42.3	19.4	0.00e+00	0	38	0	0	52	4472
2026-01-21 22:38:12.48	53.24	23.90	-40.7	-42.4	19.4	0.00e+00	0	38	0	0	52	4514
2026-01-21 22:38:13.34	53.43	23.99	-40.7	-42.4	19.3	0.00e+00	0	38	0	0	52	4541
2026-01-21 22:38:14.52	53.69	24.10	-40.8	-42.6	19.2	0.00e+00	0	38	0	0	52	4618
2026-01-21 22:38:15.37	53.88	24.18	-40.7	-42.5	19.2	0.00e+00	0	38	0	0	52	4566
2026-01-21 22:38:16.57	54.14	24.30	-40.7	-42.5	19.3	0.00e+00	0	38	0	0	52	4556
2026-01-21 22:38:17.43	54.34	24.38	-40.8	-42.6	19.2	0.00e+00	0	38	0	0	52	4604
2026-01-21 22:38:18.57	54.60	24.49	-40.7	-42.4	19.3	0.00e+00	0	38	0	0	52	4540
2026-01-21 22:38:19.42	54.79	24.57	-40.6	-42.3	19.4	0.00e+00	0	38	0	0	52	4492
2026-01-21 22:38:20.55	55.05	24.68	-40.6	-42.4	19.4	0.00e+00	0	38	0	0	52	4503
2026-01-21 22:38:21.41	55.25	24.76	-40.6	-42.3	19.5	0.00e+00	0	38	0	0	52	4465
2026-01-21 22:38:22.55	55.51	24.87	-40.7	-42.5	19.4	0.00e+00	0	38	0	0	52	4554
2026-01-21 22:38:23.40	55.71	24.95	-40.5	-42.3	19.5	0.00e+00	0	38	0	0	52	4445
2026-01-21 22:38:24.54	55.98	25.06	-40.5	-42.3	19.5	0.00e+00	0	38	0	0	52	4444
2026-01-21 22:38:25.39	56.18	25.14	-40.6	-42.3	19.5	0.00e+00	0	38	0	0	52	4470
2026-01-21 22:38:26.53	56.45	25.25	-40.6	-42.3	19.4	0.00e+00	0	38	0	0	52	4486
2026-01-21 22:38:27.38	56.65	25.33	-40.7	-42.4	19.4	0.00e+00	0	38	0	0	52	4518
2026-01-21 22:38:28.52	56.92	25.43	-40.8	-42.5	19.2	0.00e+00	0	38	0	0	52	4589
2026-01-21 22:38:29.38	57.13	25.52	-40.9	-42.7	19.1	0.00e+00	0	38	0	0	52	4660
2026-01-21 22:38:30.51	57.40	25.62	-40.9	-42.7	19.1	0.00e+00	0	38	0	0	52	4656
2026-01-21 22:38:31.37	57.61	25.70	-41.0	-42.8	19.0	0.00e+00	0	38	0	0	52	4726
2026-01-21 22:38:32.51	57.89	25.81	-40.9	-42.7	19.1	0.00e+00	0	38	0	0	52	4691
2026-01-21 22:38:33.36	58.10	25.89	-40.9	-42.7	19.2	0.00e+00	0	38	0	0	52	4659
2026-01-21 22:38:34.50	58.39	25.99	-41.0	-42.7	19.1	0.00e+00	0	38	0	0	52	4704
2026-01-21 22:38:35.35	58.60	26.07	-40.6	-42.4	19.4	0.00e+00	0	38	0	0	52	4497
2026-01-21 22:38:36.49	58.89	26.18	-40.6	-42.3	19.4	0.00e+00	0	38	0	0	52	4492
2026-01-21 22:38:37.40	59.12	26.26	-40.6	-42.4	19.4	0.00e+00	0	38	0	0	52	4507
2026-01-21 22:38:38.40	59.37	26.35	-40.7	-42.4	19.3	0.00e+00	0	37	0	0	52	4537
2026-01-21 22:38:39.39	59.62	26.45	-40.7	-42.4	19.3	0.00e+00	0	38	0	0	52	4545
2026-01-21 22:38:40.39	59.88	26.54	-40.8	-42.6	19.2	0.00e+00	0	38	0	0	52	4614
2026-01-21 22:38:41.39	60.14	26.63	-40.9	-42.7	19.2	0.00e+00	0	38	0	0	52	4662
2026-01-21 22:38:42.38	60.40	26.72	-40.9	-42.6	19.2	0.00e+00	0	38	0	0	52	4631
2026-01-21 22:38:43.38	60.66	26.81	-40.8	-42.6	19.3	0.00e+00	0	38	0	0	52	4625
2026-01-21 22:38:44.37	60.92	26.90	-40.9	-42.7	19.2	0.00e+00	0	38	0	0	52	4680
2026-01-21 22:38:45.36	61.18	26.99	-40.8	-42.6	19.3	0.00e+00	0	38	0	0	52	4600
2026-01-21 22:38:46.36	61.45	27.08	-40.8	-42.5	19.4	0.00e+00	0	38	0	0	52	4578
2026-01-21 22:38:47.35	61.71	27.16	-40.9	-42.6	19.2	0.00e+00	0	38	0	0	52	4633
2026-01-21 22:38:48.35	61.98	27.25	-40.8	-42.5	19.2	0.00e+00	0	38	0	0	52	4595
2026-01-21 22:38:49.37	62.26	27.34	-40.6	-42.3	19.4	0.00e+00	0	38	0	0	52	4493
2026-01-21 22:38:50.37	62.53	27.43	-40.6	-42.3	19.5	0.00e+00	0	38	0	0	52	4458
2026-01-21 22:38:51.37	62.80	27.52	-40.6	-42.4	19.4	0.00e+00	0	38	0	0	52	4504
2026-01-21 22:38:52.36	63.07	27.61	-40.8	-42.5	19.3	0.00e+00	0	38	0	0	52	4569
2026-01-21 22:38:53.36	63.35	27.69	-40.5	-42.3	19.5	0.00e+00	0	38	0	0	52	4445
2026-01-21 22:38:54.35	63.62	27.78	-40.4	-42.1	19.7	0.00e+00	0	38	0	0	52	4366
2026-01-21 22:38:55.53	63.95	27.88	-40.5	-42.2	19.6	0.00e+00	0	38	0	0	52	4412
2026-01-21 22:38:56.38	64.19	27.95	-40.6	-42.3	19.5	0.00e+00	0	38	0	0	52	4443
2026-01-21 22:38:57.52	64.51	28.05	-40.5	-42.2	19.6	0.00e+00	0	38	0	0	52	4409
2026-01-21 22:38:58.38	64.76	28.12	-40.5	-42.2	19.6	0.00e+00	0	38	0	0	52	4398
2026-01-21 22:38:59.51	65.08	28.22	-40.5	-42.2	19.5	0.00e+00	0	38	0	0	52	4415
2026-01-21 22:39:00.36	65.32	28.29	-40.6	-42.3	19.4	0.00e+00	0	38	0	0	52	4459
2026-01-21 22:39:01.50	65.65	28.38	-40.7	-42.4	19.3	0.00e+00	0	38	0	0	52	4510
2026-01-21 22:39:02.36	65.90	28.45	-40.5	-42.2	19.5	0.00e+00	0	38	0	0	52	4431
2026-01-21 22:39:03.49	66.23	28.55	-40.4	-42.1	19.6	0.00e+00	0	38	0	0	52	4354
2026-01-21 22:39:04.34	66.48	28.62	-40.4	-42.1	19.6	0.00e+00	0	38	0	0	52	4369
2026-01-21 22:39:05.48	66.81	28.71	-40.4	-42.1	19.7	0.00e+00	0	38	0	0	52	4358
2026-01-21 22:39:06.33	67.07	28.78	-40.5	-42.2	19.5	0.00e+00	0	38	0	0	52	4416
2026-01-21 22:39:07.47	67.40	28.87	-40.6	-42.3	19.4	0.00e+00	0	38	0	0	52	4470
2026-01-21 22:39:08.32	67.66	28.94	-40.8	-42.5	19.3	0.00e+00	0	38	0	0	52	4578
2026-01-21 22:39:09.46	68.00	29.03	-40.9	-42.7	19.1	0.00e+00	0	38	0	0	52	4669
2026-01-21 22:39:10.32	68.26	29.09	-40.9	-42.7	19.1	0.00e+00	0	38	0	0	52	4677
2026-01-21 22:39:11.45	68.60	29.18	-41.1	-42.9	19.0	0.00e+00	0	38	0	0	52	4792
2026-01-21 22:39:12.30	68.86	29.25	-41.0	-42.7	19.1	0.00e+00	0	38	0	0	52	4695
2026-01-21 22:39:13.63	69.27	29.35	-40.7	-42.5	19.4	0.00e+00	0	38	0	0	52	4567
2026-01-21 22:39:14.34	69.48	29.40	-40.7	-42.4	19.4	0.00e+00	0	38	0	0	52	4543
2026-01-21 22:39:15.62	69.88	29.50	-40.7	-42.5	19.4	0.00e+00	0	38	0	0	52	4557
2026-01-21 22:39:16.33	70.10	29.55	-40.9	-42.6	19.2	0.00e+00	0	38	0	0	52	4645
2026-01-21 22:39:17.62	70.50	29.64	-40.8	-42.5	19.3	0.00e+00	0	38	0	0	52	4575
2026-01-21 22:39:18.33	70.72	29.69	-40.8	-42.6	19.3	0.00e+00	0	38	0	0	52	4624
2026-01-21 22:39:19.61	71.12	29.79	-40.7	-42.4	19.4	0.00e+00	0	38	0	0	52	4520
2026-01-21 22:39:20.32	71.35	29.84	-40.7	-42.5	19.3	0.00e+00	0	38	0	0	52	4551
2026-01-21 22:39:21.60	71.75	29.93	-40.7	-42.4	19.4	0.00e+00	0	38	0	0	52	4533
2026-01-21 22:39:22.31	71.98	29.98	-40.7	-42.5	19.3	0.00e+00	0	38	0	0	52	4561
2026-01-21 22:39:23.59	72.39	30.06	-40.7	-42.5	19.4	0.00e+00	0	38	0	0	52	4560
2026-01-21 22:39:24.54	72.69	30.13	-40.8	-42.5	19.3	0.00e+00	0	38	0	0	52	4577
2026-01-21 22:39:25.53	73.01	30.19	-40.7	-42.5	19.4	0.00e+00	0	38	0	0	52	4552
2026-01-21 22:39:26.53	73.34	30.26	-40.6	-42.4	19.5	0.00e+00	0	38	0	0	52	4495
2026-01-21 22:39:27.52	73.66	30.33	-40.8	-42.5	19.3	0.00e+00	0	38	0	0	52	4569
2026-01-21 22:39:28.52	73.99	30.39	-40.8	-42.6	19.2	0.00e+00	0	38	0	0	52	4608
2026-01-21 22:39:29.51	74.31	30.45	-41.0	-42.8	19.0	0.00e+00	0	38	0	0	52	4730
2026-01-21 22:39:30.51	74.64	30.52	-41.2	-42.9	18.9	0.00e+00	0	38	0	0	53	4545
2026-01-21 22:39:31.50	74.97	30.58	-41.2	-43.0	18.9	0.00e+00	0	38	0	0	53	4557
2026-01-21 22:39:32.50	75.30	30.64	-41.1	-42.9	19.0	0.00e+00	0	38	0	0	53	4520
2026-01-21 22:39:33.49	75.63	30.70	-41.2	-43.0	18.9	0.00e+00	0	38	0	0	53	4593
2026-01-21 22:39:34.49	75.96	30.76	-41.1	-42.9	18.9	0.00e+00	0	38	0	0	53	4540
2026-01-21 22:39:35.48	76.29	30.81	-41.1	-42.9	19.0	0.00e+00	0	38	0	0	53	4504
2026-01-21 22:39:36.48	76.63	30.87	-40.9	-42.7	19.1	0.00e+00	0	38	0	0	53	4416
2026-01-21 22:39:37.48	76.97	30.93	-41.0	-42.8	19.0	0.00e+00	0	38	0	0	53	4450
2026-01-21 22:39:38.47	77.30	30.98	-41.1	-42.9	18.9	0.00e+00	0	38	0	0	53	4533
2026-01-21 22:39:39.46	77.64	31.04	-41.3	-43.1	18.8	0.00e+00	0	38	0	0	53	4637
2026-01-21 22:39:40.46	77.98	31.09	-41.4	-43.2	18.7	0.00e+00	0	38	0	0	53	4670
2026-01-21 22:39:41.46	78.32	31.14	-41.3	-43.1	18.8	0.00e+00	0	38	0	0	53	4621
2026-01-21 22:39:42.45	78.66	31.19	-41.3	-43.1	18.8	0.00e+00	0	38	0	0	53	4606
2026-01-21 22:39:43.45	79.00	31.25	-41.3	-43.1	18.7	0.00e+00	0	38	0	0	53	4625
2026-01-21 22:39:44.44	79.34	31.29	-41.3	-43.1	18.7	0.00e+00	0	38	0	0	53	4619
2026-01-21 22:39:45.44	79.69	31.34	-41.3	-43.1	18.7	0.00e+00	0	38	0	0	53	4650
2026-01-21 22:39:46.43	80.03	31.39	-41.2	-43.1	18.8	0.00e+00	0	38	0	0	53	4604
2026-01-21 22:39:47.49	80.40	31.44	-41.2	-43.0	18.9	0.00e+00	0	38	0	0	53	4595
2026-01-21 22:39:48.36	80.71	31.48	-41.1	-42.9	19.0	0.00e+00	0	38	0	0	53	4523
2026-01-21 22:39:49.69	81.17	31.54	-41.2	-43.0	19.0	0.00e+00	0	38	0	0	53	4556
2026-01-21 22:39:50.40	81.42	31.57	-41.3	-43.1	18.7	0.00e+00	0	38	0	0	53	4640
2026-01-21 22:39:51.68	81.87	31.62	-41.4	-43.2	18.6	0.00e+00	0	38	0	0	53	4686
2026-01-21 22:39:52.40	82.13	31.65	-41.3	-43.2	18.6	0.00e+00	0	38	0	0	53	4681
2026-01-21 22:39:53.68	82.58	31.70	-41.1	-42.9	19.0	0.00e+00	0	38	0	0	53	4518
2026-01-21 22:39:54.39	82.83	31.73	-41.0	-42.8	19.1	0.00e+00	0	38	0	0	53	4447
2026-01-21 22:39:55.67	83.29	31.78	-40.9	-42.7	19.2	0.00e+00	0	38	0	0	53	4420
2026-01-21 22:39:56.52	83.59	31.81	-41.0	-42.8	19.1	0.00e+00	0	38	0	0	53	4492
2026-01-21 22:39:57.66	84.00	31.85	-41.3	-43.1	18.7	0.00e+00	0	38	0	0	53	4647
2026-01-21 22:39:58.51	84.30	31.88	-41.4	-43.3	18.7	0.00e+00	0	38	0	0	53	4718
2026-01-21 22:39:59.65	84.71	31.91	-41.5	-43.4	18.6	0.00e+00	0	38	0	0	53	4804
2026-01-21 22:40:00.51	85.02	31.94	-41.6	-43.5	18.5	0.00e+00	0	38	0	0	53	4823
2026-01-21 22:40:01.64	85.43	31.97	-41.5	-43.4	18.6	0.00e+00	0	38	0	0	53	4803
2026-01-21 22:40:02.80	85.84	32.01	-41.4	-43.3	18.7	0.00e+00	0	38	0	0	53	4707
2026-01-21 22:40:03.82	86.21	32.04	-41.3	-43.2	18.7	0.00e+00	0	38	0	0	53	4684
2026-01-21 22:40:04.82	86.57	32.06	-41.2	-43.1	18.8	0.00e+00	0	38	0	0	53	4630
2026-01-21 22:40:05.81	86.93	32.09	-41.2	-43.1	18.8	0.00e+00	0	38	0	0	53	4625
2026-01-21 22:40:06.81	87.30	32.11	-41.2	-43.1	18.9	0.00e+00	0	38	0	0	53	4614
2026-01-21 22:40:07.81	87.66	32.13	-41.2	-43.0	18.9	0.00e+00	0	38	0	0	53	4585
2026-01-21 22:40:08.80	88.02	32.15	-41.4	-43.3	18.7	0.00e+00	0	38	0	0	53	4719
2026-01-21 22:40:09.80	88.39	32.17	-41.6	-43.5	18.5	0.00e+00	0	38	0	0	53	4848
2026-01-21 22:40:10.79	88.75	32.19	-41.6	-43.5	18.5	0.00e+00	0	38	0	0	54	4558
2026-01-21 22:40:11.79	89.11	32.21	-41.4	-43.3	18.7	0.00e+00	0	38	0	0	54	4467
2026-01-21 22:40:12.78	89.47	32.23	-41.5	-43.4	18.6	0.00e+00	0	38	0	0	54	4502
2026-01-21 22:40:13.77	89.84	32.24	-41.7	-43.6	18.4	0.00e+00	0	38	0	0	54	4621
2026-01-21 22:40:14.77	90.20	32.26	-41.7	-43.5	18.5	0.00e+00	0	38	0	0	54	4585
2026-01-21 22:40:15.84	90.60	32.27	-41.5	-43.3	18.6	0.00e+00	0	38	0	0	54	4477
2026-01-21 22:40:16.72	90.92	32.28	-41.5	-43.3	18.6	0.00e+00	0	38	0	0	54	4484
2026-01-21 22:40:18.04	91.40	32.29	-41.7	-43.6	18.4	0.00e+00	0	38	0	0	54	4605
2026-01-21 22:40:18.75	91.67	32.30	-41.7	-43.5	18.5	0.00e+00	0	38	0	0	54	4581
2026-01-21 22:40:20.23	92.21	32.31	-41.7	-43.6	18.4	0.00e+00	0	38	0	0	54	4622
2026-01-21 22:40:20.94	92.47	32.31	-41.7	-43.6	18.5	0.00e+00	0	38	0	0	54	4608
2026-01-21 22:40:22.23	92.95	32.32	-41.6	-43.4	18.6	0.00e+00	0	38	0	0	54	4517
2026-01-21 22:40:22.95	93.21	32.32	-41.5	-43.3	18.6	0.00e+00	0	38	0	0	54	4493
2026-01-21 22:40:24.23	93.68	32.33	-41.4	-43.2	18.7	0.00e+00	0	38	0	0	54	4431
2026-01-21 22:40:24.94	93.95	32.33	-41.3	-43.2	18.8	0.00e+00	0	38	0	0	54	4401
2026-01-21 22:40:26.23	94.42	32.32	-41.2	-43.0	19.1	0.00e+00	0	38	0	0	54	4292
2026-01-21 22:40:26.94	94.68	32.32	-41.1	-42.9	19.0	0.00e+00	0	38	0	0	54	4276
2026-01-21 22:40:28.22	95.15	32.32	-41.2	-43.0	19.0	0.00e+00	0	38	0	0	54	4320
2026-01-21 22:40:28.94	95.42	32.32	-41.1	-42.8	19.1	0.00e+00	0	38	0	0	54	4233
2026-01-21 22:40:30.21	95.89	32.31	-41.2	-42.9	19.0	0.00e+00	0	38	0	0	54	4279
2026-01-21 22:40:30.93	96.15	32.30	-41.3	-43.1	18.9	0.00e+00	0	38	0	0	54	4348
2026-01-21 22:40:32.20	96.62	32.29	-41.3	-43.1	18.9	0.00e+00	0	38	0	0	54	4353
2026-01-21 22:40:32.91	96.88	32.29	-41.2	-43.1	18.9	0.00e+00	0	38	0	0	54	4344
2026-01-21 22:40:34.19	97.35	32.27	-41.1	-42.8	19.1	0.00e+00	0	38	0	0	54	4239
2026-01-21 22:40:35.13	97.70	32.26	-40.9	-42.6	19.2	0.00e+00	0	38	0	0	53	4390
2026-01-21 22:40:36.12	98.06	32.25	-40.9	-42.7	19.2	0.00e+00	0	38	0	0	53	4392
2026-01-21 22:40:37.46	98.55	32.23	-41.2	-43.0	18.9	0.00e+00	0	38	0	0	53	4572
2026-01-21 22:40:38.17	98.81	32.22	-41.1	-42.9	19.0	0.00e+00	0	38	0	0	53	4535
2026-01-21 22:40:39.47	99.29	32.19	-41.2	-43.0	18.9	0.00e+00	0	38	0	0	53	4581
2026-01-21 22:40:40.18	99.54	32.18	-41.3	-43.1	18.9	0.00e+00	0	38	0	0	53	4611
2026-01-21 22:40:41.47	100.02	32.15	-41.2	-43.0	19.0	0.00e+00	0	38	0	0	53	4553
2026-01-21 22:40:42.18	100.27	32.14	-41.1	-42.9	19.0	0.00e+00	0	38	0	0	53	4524
2026-01-21 22:40:43.46	100.74	32.11	-41.1	-42.9	19.0	0.00e+00	0	38	0	0	53	4525
2026-01-21 22:40:44.17	101.00	32.09	-41.1	-42.9	19.0	0.00e+00	0	38	0	0	53	4539
2026-01-21 22:40:45.45	101.46	32.06	-41.0	-42.8	19.1	0.00e+00	0	38	0	0	53	4472
2026-01-21 22:40:46.16	101.72	32.04	-41.1	-42.9	19.0	0.00e+00	0	38	0	0	53	4499
2026-01-21 22:40:47.55	102.22	32.01	-41.3	-43.1	18.8	0.00e+00	0	38	0	0	53	4649
2026-01-21 22:40:48.26	102.48	31.98	-41.4	-43.2	18.7	0.00e+00	0	38	0	0	53	4702
2026-01-21 22:40:49.54	102.94	31.95	-41.3	-43.1	18.8	0.00e+00	0	38	0	0	53	4628
2026-01-21 22:40:50.26	103.20	31.92	-41.2	-43.0	18.8	0.00e+00	0	38	0	0	53	4573
2026-01-21 22:40:51.65	103.70	31.88	-41.3	-43.2	18.7	0.00e+00	0	38	0	0	53	4660
2026-01-21 22:40:52.65	104.06	31.85	-41.1	-42.9	18.9	0.00e+00	0	38	0	0	53	4513
2026-01-21 22:40:53.94	104.52	31.80	-41.2	-43.0	18.9	0.00e+00	0	38	0	0	53	4571
2026-01-21 22:40:54.69	104.79	31.77	-41.4	-43.3	18.6	0.00e+00	0	38	0	0	53	4713
2026-01-21 22:40:56.28	105.35	31.71	-41.4	-43.2	18.7	0.00e+00	0	38	0	0	53	4682
2026-01-21 22:40:56.85	105.56	31.69	-41.5	-43.3	18.6	0.00e+00	0	38	0	0	53	4752
2026-01-21 22:40:58.56	106.16	31.62	-41.7	-43.5	18.4	0.00e+00	0	38	0	0	54	4589
2026-01-21 22:40:59.14	106.37	31.60	-41.7	-43.5	18.3	0.00e+00	0	38	0	0	54	4595
2026-01-21 22:41:00.70	106.92	31.53	-41.5	-43.4	18.4	0.00e+00	0	38	0	0	54	4508
2026-01-21 22:41:01.33	107.14	31.50	-41.5	-43.4	18.5	0.00e+00	0	38	0	0	54	4500
2026-01-21 22:41:02.84	107.67	31.44	-41.4	-43.3	18.6	0.00e+00	0	38	0	0	54	4467
2026-01-21 22:41:03.55	107.91	31.40	-41.4	-43.2	18.7	0.00e+00	0	38	0	0	54	4438
2026-01-21 22:41:04.82	108.36	31.34	-41.3	-43.1	18.8	0.00e+00	0	38	0	0	54	4380
2026-01-21 22:41:05.55	108.61	31.31	-41.2	-43.1	18.8	0.00e+00	0	38	0	0	54	4341
2026-01-21 22:41:06.83	109.05	31.24	-41.2	-43.0	18.8	0.00e+00	0	38	0	0	54	4336
2026-01-21 22:41:07.54	109.30	31.21	-41.3	-43.1	18.8	0.00e+00	0	38	0	0	54	4349
2026-01-21 22:41:08.82	109.74	31.14	-41.4	-43.2	18.7	0.00e+00	0	38	0	0	54	4423
2026-01-21 22:41:09.59	110.00	31.10	-41.3	-43.1	18.7	0.00e+00	0	38	0	0	54	4382
2026-01-21 22:41:10.88	110.44	31.03	-41.2	-42.9	19.0	0.00e+00	0	38	0	0	54	4283
2026-01-21 22:41:11.60	110.69	30.99	-41.2	-43.0	19.0	0.00e+00	0	38	0	0	54	4298
2026-01-21 22:41:12.88	111.12	30.92	-41.4	-43.2	18.7	0.00e+00	0	38	0	0	54	4423
2026-01-21 22:41:13.62	111.37	30.88	-41.4	-43.3	18.7	0.00e+00	0	38	0	0	54	4452
2026-01-21 22:41:14.90	111.80	30.81	-41.3	-43.1	18.9	0.00e+00	0	38	0	0	54	4351
2026-01-21 22:41:15.63	112.05	30.76	-41.1	-42.9	19.0	0.00e+00	0	38	0	0	54	4263
2026-01-21 22:41:16.91	112.48	30.69	-40.9	-42.7	19.2	0.00e+00	0	38	0	0	53	4413
2026-01-21 22:41:17.65	112.73	30.64	-41.0	-42.8	19.1	0.00e+00	0	38	0	0	53	4447
2026-01-21 22:41:18.93	113.15	30.56	-40.8	-42.5	19.3	0.00e+00	0	38	0	0	53	4339
2026-01-21 22:41:19.64	113.39	30.52	-40.8	-42.6	19.3	0.00e+00	0	38	0	0	53	4356
2026-01-21 22:41:20.91	113.80	30.44	-41.0	-42.8	19.1	0.00e+00	0	38	0	0	53	4463
2026-01-21 22:41:21.63	114.04	30.39	-40.9	-42.7	19.2	0.00e+00	0	38	0	0	53	4398
2026-01-21 22:41:23.13	114.53	30.29	-41.0	-42.8	19.0	0.00e+00	0	38	0	0	53	4472
2026-01-21 22:41:23.84	114.76	30.25	-41.2	-43.1	18.9	0.00e+00	0	38	0	0	53	4612
2026-01-21 22:41:25.12	115.18	30.16	-41.2	-43.0	18.9	0.00e+00	0	38	0	0	53	4579
2026-01-21 22:41:26.18	115.52	30.09	-41.1	-42.9	19.0	0.00e+00	0	38	0	0	53	4498
2026-01-21 22:41:27.36	115.90	30.01	-41.0	-42.8	19.1	0.00e+00	0	38	0	0	53	4468
2026-01-21 22:41:28.35	116.22	29.94	-40.8	-42.5	19.3	0.00e+00	0	38	0	0	53	4328
2026-01-21 22:41:29.35	116.53	29.87	-40.8	-42.5	19.2	0.00e+00	0	38	0	0	53	4328
2026-01-21 22:41:30.55	116.92	29.79	-40.8	-42.6	19.2	0.00e+00	0	38	0	0	53	4362
2026-01-21 22:41:31.40	117.18	29.72	-40.8	-42.6	19.3	0.00e+00	0	38	0	0	53	4346
2026-01-21 22:41:32.54	117.54	29.64	-40.8	-42.6	19.3	0.00e+00	0	38	0	0	53	4351
2026-01-21 22:41:33.39	117.81	29.58	-40.7	-42.4	19.4	0.00e+00	0	38	0	0	53	4279
2026-01-21 22:41:34.53	118.16	29.49	-40.9	-42.6	19.1	0.00e+00	0	38	0	0	53	4389
2026-01-21 22:41:35.38	118.43	29.43	-40.9	-42.6	19.2	0.00e+00	0	38	0	0	53	4368
2026-01-21 22:41:36.51	118.78	29.35	-41.0	-42.7	19.1	0.00e+00	0	38	0	0	53	4432
2026-01-21 22:41:37.37	119.04	29.28	-40.8	-42.6	19.2	0.00e+00	0	38	0	0	53	4350
2026-01-21 22:41:38.51	119.39	29.19	-40.5	-42.3	19.5	0.00e+00	0	38	0	0	53	4205
2026-01-21 22:41:39.36	119.65	29.13	-40.5	-42.2	19.5	0.00e+00	0	38	0	0	52	4422
2026-01-21 22:41:40.50	119.99	29.04	-40.4	-42.2	19.6	0.00e+00	0	38	0	0	52	4398
2026-01-21 22:41:41.35	120.25	28.97	-40.5	-42.3	19.4	0.00e+00	0	38	0	0	52	4445
2026-01-21 22:41:42.49	120.59	28.88	-40.7	-42.5	19.2	0.00e+00	0	38	0	0	52	4556
2026-01-21 22:41:43.34	120.84	28.81	-40.7	-42.5	19.2	0.00e+00	0	38	0	0	52	4574
2026-01-21 22:41:44.56	121.21	28.71	-40.7	-42.4	19.4	0.00e+00	0	38	0	0	52	4508
2026-01-21 22:41:45.41	121.46	28.64	-40.5	-42.2	19.5	0.00e+00	0	38	0	0	52	4408
2026-01-21 22:41:46.59	121.81	28.55	-40.4	-42.1	19.5	0.00e+00	0	38	0	0	52	4376
2026-01-21 22:41:47.45	122.06	28.48	-40.3	-42.1	19.5	0.00e+00	0	38	0	0	52	4342
2026-01-21 22:41:48.58	122.39	28.38	-40.4	-42.1	19.5	0.00e+00	0	38	0	0	52	4342
2026-01-21 22:41:49.44	122.64	28.31	-40.3	-42.0	19.6	0.00e+00	0	38	0	0	52	4312
2026-01-21 22:41:50.57	122.96	28.22	-40.4	-42.1	19.5	0.00e+00	0	38	0	0	52	4349
2026-01-21 22:41:51.42	123.21	28.14	-40.2	-41.8	19.7	0.00e+00	0	38	0	0	52	4240
2026-01-21 22:41:52.56	123.53	28.05	-40.1	-41.8	19.7	0.00e+00	0	38	0	0	52	4234
2026-01-21 22:41:53.41	123.77	27.97	-40.1	-41.8	19.7	0.00e+00	0	38	0	0	52	4228
2026-01-21 22:41:54.55	124.09	27.88	-40.1	-41.8	19.8	0.00e+00	0	38	0	0	52	4196
2026-01-21 22:41:55.40	124.33	27.80	-40.1	-41.8	19.8	0.00e+00	0	38	0	0	52	4197
2026-01-21 22:41:56.54	124.65	27.70	-40.1	-41.7	19.9	0.00e+00	0	38	0	0	52	4181
2026-01-21 22:41:57.39	124.89	27.63	-40.0	-41.7	19.9	0.00e+00	0	38	0	0	52	4155
2026-01-21 22:41:58.53	125.20	27.53	-40.1	-41.7	19.9	0.00e+00	0	38	0	0	51	4435
2026-01-21 22:41:59.38	125.44	27.45	-40.1	-41.8	19.7	0.00e+00	0	38	0	0	51	4474
2026-01-21 22:42:00.51	125.75	27.35	-40.5	-42.2	19.4	0.00e+00	0	38	0	0	51	4673
2026-01-21 22:42:01.37	125.98	27.28	-40.6	-42.4	19.3	0.00e+00	0	38	0	0	51	4772
2026-01-21 22:42:02.50	126.28	27.18	-40.4	-42.2	19.5	0.00e+00	0	38	0	0	51	4665
2026-01-21 22:42:03.35	126.51	27.10	-40.2	-41.9	19.7	0.00e+00	0	38	0	0	51	4543
2026-01-21 22:42:04.54	126.83	26.99	-40.1	-41.8	19.9	0.00e+00	0	38	0	0	51	4479
2026-01-21 22:42:05.39	127.06	26.92	-40.2	-41.9	19.8	0.00e+00	0	38	0	0	51	4495
2026-01-21 22:42:06.57	127.37	26.81	-40.3	-42.0	19.8	0.00e+00	0	38	0	0	51	4548
2026-01-21 22:42:07.43	127.60	26.73	-40.1	-41.8	19.9	0.00e+00	0	38	0	0	51	4480
2026-01-21 22:42:08.63	127.91	26.62	-40.1	-41.8	20.0	0.00e+00	0	38	0	0	51	4454
2026-01-21 22:42:09.48	128.13	26.54	-40.2	-41.9	19.8	0.00e+00	0	38	0	0	51	4519
2026-01-21 22:42:10.62	128.43	26.44	-40.3	-42.1	19.7	0.00e+00	0	38	0	0	51	4599
2026-01-21 22:42:11.47	128.64	26.36	-40.3	-42.1	19.7	0.00e+00	0	38	0	0	51	4630
2026-01-21 22:42:12.61	128.94	26.25	-40.3	-42.1	19.7	0.00e+00	0	38	0	0	51	4603
2026-01-21 22:42:13.46	129.15	26.18	-40.4	-42.2	19.6	0.00e+00	0	38	0	0	51	4652
2026-01-21 22:42:14.60	129.44	26.07	-40.3	-42.0	19.8	0.00e+00	0	38	0	0	51	4565
2026-01-21 22:42:15.45	129.65	25.99	-40.2	-41.9	19.8	0.00e+00	0	38	0	0	51	4516
2026-01-21 22:42:16.59	129.94	25.88	-40.0	-41.7	19.9	0.00e+00	0	38	0	0	51	4429
2026-01-21 22:42:17.60	130.19	25.79	-40.0	-41.6	20.0	0.00e+00	0	38	0	0	51	4385
2026-01-21 22:42:18.77	130.48	25.68	-40.0	-41.7	20.0	0.00e+00	0	38	0	0	51	4418
2026-01-21 22:42:19.62	130.69	25.60	-40.1	-41.8	19.9	0.00e+00	0	38	0	0	51	4470
2026-01-21 22:42:20.98	131.02	25.47	-40.1	-41.8	19.9	0.00e+00	0	38	0	0	51	4445
2026-01-21 22:42:21.69	131.19	25.40	-40.1	-41.8	19.9	0.00e+00	0	38	0	0	51	4467
2026-01-21 22:42:22.97	131.50	25.28	-40.1	-41.9	19.8	0.00e+00	0	38	0	0	51	4506
2026-01-21 22:42:23.68	131.67	25.21	-40.3	-42.0	19.7	0.00e+00	0	38	0	0	51	4577
2026-01-21 22:42:24.96	131.97	25.09	-40.4	-42.1	19.6	0.00e+00	0	38	0	0	51	4650
2026-01-21 22:42:25.69	132.15	25.02	-40.5	-42.2	19.6	0.00e+00	0	38	0	0	51	4683
2026-01-21 22:42:26.97	132.45	24.90	-40.4	-42.2	19.6	0.00e+00	0	38	0	0	51	4654
2026-01-21 22:42:27.68	132.61	24.83	-40.5	-42.3	19.5	0.00e+00	0	38	0	0	51	4721
2026-01-21 22:42:28.96	132.91	24.71	-40.5	-42.2	19.6	0.00e+00	0	38	0	0	51	4685
2026-01-21 22:42:29.67	133.08	24.64	-40.5	-42.2	19.6	0.00e+00	0	38	0	0	51	4687
2026-01-21 22:42:30.94	133.37	24.52	-40.6	-42.3	19.4	0.00e+00	0	38	0	0	51	4755
2026-01-21 22:42:31.65	133.53	24.45	-40.6	-42.3	19.5	0.00e+00	0	38	0	0	51	4736
2026-01-21 22:42:32.93	133.82	24.32	-40.6	-42.4	19.4	0.00e+00	0	38	0	0	51	4761
2026-01-21 22:42:33.66	133.98	24.25	-40.6	-42.4	19.3	0.00e+00	0	38	0	0	52	4504
2026-01-21 22:42:34.94	134.27	24.13	-40.5	-42.2	19.4	0.00e+00	0	38	0	0	52	4436
2026-01-21 22:42:35.65	134.43	24.06	-40.5	-42.2	19.5	0.00e+00	0	38	0	0	52	4413
2026-01-21 22:42:36.93	134.71	23.94	-40.4	-42.2	19.5	0.00e+00	0	38	0	0	52	4392
2026-01-21 22:42:37.65	134.87	23.87	-40.6	-42.3	19.4	0.00e+00	0	38	0	0	52	4468
2026-01-21 22:42:38.93	135.15	23.74	-40.4	-42.1	19.5	0.00e+00	0	38	0	0	52	4365
2026-01-21 22:42:39.64	135.31	23.67	-40.3	-42.1	19.6	0.00e+00	0	38	0	0	52	4345
2026-01-21 22:42:40.92	135.58	23.55	-40.3	-42.0	19.6	0.00e+00	0	38	0	0	52	4334
2026-01-21 22:42:41.63	135.74	23.48	-40.3	-42.0	19.6	0.00e+00	0	38	0	0	52	4339
2026-01-21 22:42:42.91	136.01	23.36	-40.3	-42.0	19.6	0.00e+00	0	38	0	0	52	4332
2026-01-21 22:42:43.65	136.17	23.28	-40.3	-42.0	19.5	0.00e+00	0	38	0	0	52	4340
2026-01-21 22:42:45.24	136.50	23.13	-40.3	-42.0	19.5	0.00e+00	0	38	0	0	52	4337
2026-01-21 22:42:45.81	136.62	23.07	-40.4	-42.1	19.5	0.00e+00	0	38	0	0	52	4345
2026-01-21 22:42:47.71	137.02	22.89	-40.3	-42.0	19.6	0.00e+00	0	38	0	0	52	4321
2026-01-21 22:42:48.28	137.14	22.83	-40.3	-42.0	19.6	0.00e+00	0	38	0	0	52	4334
2026-01-21 22:42:50.27	137.54	22.64	-40.4	-42.1	19.5	0.00e+00	0	38	0	0	52	4386
2026-01-21 22:42:50.84	137.66	22.58	-40.5	-42.2	19.4	0.00e+00	0	38	0	0	52	4416
2026-01-21 22:42:52.54	138.00	22.42	-40.4	-42.2	19.5	0.00e+00	0	38	0	0	52	4392
2026-01-21 22:42:53.11	138.12	22.36	-40.4	-42.1	19.5	0.00e+00	0	38	0	0	52	4379
2026-01-21 22:42:54.82	138.46	22.20	-40.5	-42.2	19.5	0.00e+00	0	38	0	0	52	4432
2026-01-21 22:42:55.39	138.57	22.14	-40.5	-42.2	19.5	0.00e+00	0	38	0	0	52	4426
2026-01-21 22:42:57.10	138.91	21.97	-40.5	-42.2	19.5	0.00e+00	0	38	0	0	52	4408
2026-01-21 22:42:57.92	139.07	21.90	-40.6	-42.3	19.4	0.00e+00	0	38	0	0	52	4473
2026-01-21 22:42:59.05	139.28	21.79	-40.6	-42.4	19.3	0.00e+00	0	38	0	0	52	4495
2026-01-21 22:42:59.91	139.45	21.70	-40.7	-42.5	19.3	0.00e+00	0	38	0	0	52	4563
2026-01-21 22:43:01.04	139.67	21.59	-40.7	-42.5	19.2	0.00e+00	0	38	0	0	52	4569
2026-01-21 22:43:01.90	139.83	21.51	-40.7	-42.4	19.3	0.00e+00	0	38	0	0	52	4532
2026-01-21 22:43:03.13	140.06	21.39	-40.7	-42.4	19.3	0.00e+00	0	38	0	0	52	4533
2026-01-21 22:43:03.98	140.22	21.31	-40.7	-42.5	19.2	0.00e+00	0	38	0	0	52	4570
2026-01-21 22:43:05.12	140.43	21.20	-40.7	-42.5	19.2	0.00e+00	0	38	0	0	52	4565
2026-01-21 22:43:05.97	140.59	21.11	-40.8	-42.6	19.1	0.00e+00	0	38	0	0	52	4619
2026-01-21 22:43:07.11	140.80	21.00	-40.6	-42.3	19.4	0.00e+00	0	38	0	0	52	4489
2026-01-21 22:43:07.96	140.96	20.92	-40.6	-42.3	19.4	0.00e+00	0	38	0	0	52	4483
2026-01-21 22:43:09.10	141.17	20.81	-40.6	-42.3	19.4	0.00e+00	0	38	0	0	52	4463
2026-01-21 22:43:10.05	141.34	20.72	-40.5	-42.2	19.5	0.00e+00	0	38	0	0	52	4430
2026-01-21 22:43:11.04	141.52	20.62	-40.5	-42.2	19.4	0.00e+00	0	38	0	0	52	4438
2026-01-21 22:43:12.04	141.69	20.53	-40.4	-42.1	19.5	0.00e+00	0	38	0	0	52	4373
2026-01-21 22:43:13.03	141.87	20.43	-40.3	-42.1	19.6	0.00e+00	0	38	0	0	52	4348
2026-01-21 22:43:14.02	142.05	20.34	-40.3	-42.0	19.6	0.00e+00	0	38	0	0	52	4335
2026-01-21 22:43:15.02	142.22	20.24	-40.4	-42.1	19.6	0.00e+00	0	38	0	0	52	4357
2026-01-21 22:43:16.01	142.39	20.15	-40.4	-42.1	19.5	0.00e+00	0	38	0	0	52	4374
2026-01-21 22:43:17.01	142.57	20.05	-40.5	-42.2	19.4	0.00e+00	0	38	0	0	52	4423
2026-01-21 22:43:18.01	142.74	19.96	-40.5	-42.2	19.4	0.00e+00	0	38	0	0	52	4433
2026-01-21 22:43:19.00	142.91	19.86	-40.5	-42.2	19.4	0.00e+00	0	38	0	0	52	4415
2026-01-21 22:43:19.99	143.08	19.77	-40.5	-42.2	19.4	0.00e+00	0	38	0	0	52	4427
2026-01-21 22:43:20.99	143.25	19.67	-40.4	-42.2	19.4	0.00e+00	0	38	0	0	52	4407
2026-01-21 22:43:21.99	143.42	19.58	-40.4	-42.2	19.5	0.00e+00	0	38	0	0	52	4392
2026-01-21 22:43:22.98	143.58	19.48	-40.3	-42.1	19.5	0.00e+00	0	38	0	0	52	4352
2026-01-21 22:43:23.98	143.75	19.39	-40.3	-42.1	19.5	0.00e+00	0	38	0	0	52	4353
2026-01-21 22:43:24.98	143.91	19.29	-40.3	-42.1	19.4	0.00e+00	0	38	0	0	52	4359
2026-01-21 22:43:25.97	144.08	19.20	-40.3	-42.1	19.4	0.00e+00	0	38	0	0	52	4372
2026-01-21 22:43:26.97	144.24	19.10	-40.3	-42.1	19.5	0.00e+00	0	38	0	0	52	4350
2026-01-21 22:43:27.96	144.40	19.01	-40.4	-42.2	19.3	0.00e+00	0	38	0	0	52	4428
2026-01-21 22:43:28.96	144.56	18.92	-40.4	-42.1	19.4	0.00e+00	0	38	0	0	52	4391
2026-01-21 22:43:29.95	144.72	18.82	-40.4	-42.2	19.4	0.00e+00	0	38	0	0	52	4422
2026-01-21 22:43:30.95	144.88	18.73	-40.5	-42.2	19.3	0.00e+00	0	38	0	0	52	4436
2026-01-21 22:43:31.94	145.04	18.64	-40.4	-42.1	19.4	0.00e+00	0	38	0	0	52	4388
2026-01-21 22:43:32.93	145.19	18.54	-40.3	-42.1	19.4	0.00e+00	0	38	0	0	52	4359
2026-01-21 22:43:33.93	145.35	18.45	-40.4	-42.2	19.4	0.00e+00	0	38	0	0	52	4403
2026-01-21 22:43:34.94	145.51	18.36	-40.3	-42.1	19.4	0.00e+00	0	38	0	0	52	4360
2026-01-21 22:43:35.97	145.67	18.26	-40.3	-42.1	19.4	0.00e+00	0	38	0	0	52	4349
2026-01-21 22:43:36.96	145.82	18.17	-40.4	-42.1	19.3	0.00e+00	0	38	0	0	52	4389
2026-01-21 22:43:37.96	145.97	18.07	-40.4	-42.2	19.3	0.00e+00	0	38	0	0	52	4415
2026-01-21 22:43:38.95	146.12	17.98	-40.5	-42.3	19.2	0.00e+00	0	38	0	0	52	4454
2026-01-21 22:43:39.95	146.27	17.89	-40.6	-42.4	19.1	0.00e+00	0	38	0	0	52	4499
2026-01-21 22:43:40.94	146.42	17.80	-40.7	-42.4	19.1	0.00e+00	0	38	0	0	52	4541
2026-01-21 22:43:41.94	146.57	17.71	-40.7	-42.5	19.0	0.00e+00	0	38	0	0	52	4586
2026-01-21 22:43:42.93	146.72	17.61	-40.8	-42.6	19.0	0.00e+00	0	38	0	0	52	4630
2026-01-21 22:43:43.93	146.87	17.52	-40.8	-42.5	19.1	0.00e+00	0	38	0	0	52	4595
2026-01-21 22:43:44.92	147.01	17.43	-40.8	-42.6	19.0	0.00e+00	0	38	0	0	52	4612
2026-01-21 22:43:45.92	147.16	17.34	-40.9	-42.7	18.9	0.00e+00	0	38	0	0	52	4668
2026-01-21 22:43:46.91	147.30	17.25	-40.9	-42.7	18.9	0.00e+00	0	38	0	0	52	4666
2026-01-21 22:43:47.90	147.44	17.16	-40.9	-42.7	18.9	0.00e+00	0	38	0	0	52	4698
2026-01-21 22:43:48.90	147.59	17.07	-41.0	-42.8	18.8	0.00e+00	0	38	0	0	52	4731
2026-01-21 22:43:49.94	147.74	16.97	-41.0	-42.9	18.7	0.00e+00	0	38	0	0	52	4775
2026-01-21 22:43:50.95	147.88	16.88	-41.2	-43.0	18.6	0.00e+00	0	38	0	0	52	4860
2026-01-21 22:43:51.96	148.02	16.79	-41.1	-42.9	18.7	0.00e+00	0	38	0	0	52	4807
2026-01-21 22:43:53.02	148.17	16.69	-41.2	-43.1	18.6	0.00e+00	0	38	0	0	53	4629
2026-01-21 22:43:53.90	148.29	16.61	-41.2	-43.1	18.6	0.00e+00	0	38	0	0	53	4627
2026-01-21 22:43:55.04	148.45	16.51	-41.3	-43.2	18.5	0.00e+00	0	38	0	0	53	4660
2026-01-21 22:43:55.90	148.57	16.43	-41.1	-42.9	18.7	0.00e+00	0	38	0	0	53	4545
2026-01-21 22:43:57.04	148.72	16.33	-41.3	-43.1	18.5	0.00e+00	0	38	0	0	53	4644
2026-01-21 22:43:57.89	148.84	16.26	-41.3	-43.1	18.5	0.00e+00	0	38	0	0	53	4628
2026-01-21 22:43:59.03	148.99	16.15	-41.3	-43.2	18.4	0.00e+00	0	38	0	0	53	4686
2026-01-21 22:43:59.88	149.11	16.08	-41.4	-43.2	18.4	0.00e+00	0	38	0	0	53	4693
2026-01-21 22:44:01.01	149.26	15.98	-41.5	-43.3	18.3	0.00e+00	0	38	0	0	53	4753
2026-01-21 22:44:01.87	149.37	15.90	-41.4	-43.3	18.4	0.00e+00	0	38	0	0	53	4741
2026-01-21 22:44:03.01	149.52	15.80	-41.5	-43.4	18.3	0.00e+00	0	38	0	0	53	4795
2026-01-21 22:44:03.86	149.64	15.72	-41.5	-43.4	18.3	0.00e+00	0	38	0	0	53	4809
2026-01-21 22:44:05.01	149.79	15.62	-41.6	-43.5	18.2	0.00e+00	0	38	0	0	53	4830
2026-01-21 22:44:05.87	149.90	15.55	-41.5	-43.4	18.3	0.00e+00	0	38	0	0	53	4803
2026-01-21 22:44:07.08	150.05	15.44	-41.5	-43.4	18.3	0.00e+00	0	38	0	0	53	4790
2026-01-21 22:44:07.94	150.16	15.37	-41.6	-43.5	18.2	0.00e+00	0	38	0	0	53	4854
2026-01-21 22:44:09.07	150.31	15.27	-41.5	-43.4	18.2	0.00e+00	0	38	0	0	53	4804
2026-01-21 22:44:09.92	150.42	15.19	-41.6	-43.5	18.2	0.00e+00	0	38	0	0	53	4824
2026-01-21 22:44:11.06	150.56	15.09	-41.7	-43.6	18.1	0.00e+00	0	38	0	0	53	4877
2026-01-21 22:44:11.92	150.67	15.02	-41.7	-43.6	18.0	3.12e-05	0	38	0	0	54	4631
2026-01-21 22:44:13.05	150.81	14.92	-41.8	-43.7	17.9	0.00e+00	0	38	0	0	54	4680
2026-01-21 22:44:13.90	150.92	14.85	-41.7	-43.7	18.0	0.00e+00	0	38	0	0	54	4654
2026-01-21 22:44:15.04	151.06	14.75	-41.8	-43.8	17.8	0.00e+00	0	38	0	0	54	4730
2026-01-21 22:44:15.90	151.16	14.67	-41.9	-43.8	17.8	0.00e+00	0	38	0	0	54	4740
2026-01-21 22:44:17.03	151.30	14.58	-41.8	-43.8	17.8	0.00e+00	0	38	0	0	54	4743
2026-01-21 22:44:17.89	151.40	14.50	-41.9	-43.9	17.7	0.00e+00	0	38	0	0	54	4800
2026-01-21 22:44:19.02	151.54	14.41	-41.9	-43.9	17.8	0.00e+00	0	38	0	0	54	4766
2026-01-21 22:44:19.88	151.64	14.33	-42.0	-44.0	17.7	0.00e+00	0	38	0	0	54	4836
2026-01-21 22:44:21.03	151.78	14.23	-41.8	-43.8	17.9	0.00e+00	0	38	0	0	54	4719
2026-01-21 22:44:21.88	151.88	14.16	-41.7	-43.7	18.0	0.00e+00	0	38	0	0	54	4683
2026-01-21 22:44:23.10	152.03	14.06	-41.7	-43.7	18.0	0.00e+00	0	38	0	0	54	4680
2026-01-21 22:44:23.95	152.13	13.99	-41.6	-43.5	18.1	0.00e+00	0	38	0	0	54	4597
2026-01-21 22:44:25.09	152.26	13.89	-41.6	-43.6	18.1	0.00e+00	0	38	0	0	54	4611
2026-01-21 22:44:25.94	152.36	13.82	-41.6	-43.5	18.1	0.00e+00	0	38	0	0	54	4579
2026-01-21 22:44:27.08	152.49	13.72	-41.6	-43.5	18.1	0.00e+00	0	38	0	0	54	4586
2026-01-21 22:44:27.93	152.59	13.65	-41.7	-43.6	18.1	0.00e+00	0	38	0	0	54	4637
2026-01-21 22:44:29.07	152.72	13.55	-41.7	-43.7	18.0	0.00e+00	0	38	0	0	54	4687
2026-01-21 22:44:29.92	152.81	13.48	-41.7	-43.7	18.0	0.00e+00	0	38	0	0	54	4681
2026-01-21 22:44:31.05	152.94	13.39	-41.8	-43.8	17.9	0.00e+00	0	38	0	0	54	4721
2026-01-21 22:44:31.91	153.04	13.32	-41.7	-43.7	17.9	0.00e+00	0	38	0	0	54	4692
2026-01-21 22:44:33.04	153.16	13.22	-41.8	-43.7	17.9	0.00e+00	0	38	0	0	54	4700
2026-01-21 22:44:33.90	153.26	13.15	-41.7	-43.7	17.9	0.00e+00	0	38	0	0	54	4696
2026-01-21 22:44:35.03	153.38	13.06	-41.7	-43.7	17.9	0.00e+00	0	38	0	0	54	4686
2026-01-21 22:44:35.89	153.48	12.99	-41.8	-43.8	17.9	0.00e+00	0	38	0	0	54	4728
2026-01-21 22:44:37.02	153.60	12.89	-41.8	-43.8	17.8	0.00e+00	0	38	0	0	54	4735
2026-01-21 22:44:37.87	153.69	12.82	-41.8	-43.8	17.8	0.00e+00	0	38	0	0	54	4743
2026-01-21 22:44:39.09	153.83	12.72	-41.9	-43.9	17.7	0.00e+00	0	38	0	0	54	4766
2026-01-21 22:44:39.94	153.92	12.65	-42.0	-44.0	17.6	0.00e+00	0	38	0	0	54	4857
2026-01-21 22:44:41.08	154.04	12.56	-41.7	-43.7	17.8	0.00e+00	0	38	0	0	54	4687
2026-01-21 22:44:41.93	154.13	12.49	-41.7	-43.7	17.9	0.00e+00	0	38	0	0	54	4653
2026-01-21 22:44:43.07	154.25	12.40	-41.7	-43.7	17.9	0.00e+00	0	38	0	0	54	4685
2026-01-21 22:44:44.00	154.35	12.32	-41.8	-43.8	17.8	0.00e+00	0	38	0	0	54	4715
2026-01-21 22:44:44.99	154.45	12.24	-41.8	-43.8	17.8	0.00e+00	0	38	0	0	54	4728
2026-01-21 22:44:45.99	154.56	12.16	-41.6	-43.6	17.9	0.00e+00	0	38	0	0	54	4643
2026-01-21 22:44:46.98	154.66	12.08	-41.6	-43.6	18.0	0.00e+00	0	38	0	0	54	4629
2026-01-21 22:44:47.97	154.76	12.00	-41.6	-43.6	18.0	0.00e+00	0	38	0	0	54	4618
2026-01-21 22:44:48.97	154.86	11.92	-41.7	-43.6	17.9	0.00e+00	0	38	0	0	54	4649
2026-01-21 22:44:49.96	154.97	11.84	-41.6	-43.5	18.1	0.00e+00	0	38	0	0	54	4590
2026-01-21 22:44:50.96	155.07	11.76	-41.6	-43.6	18.0	0.00e+00	0	38	0	0	54	4614
2026-01-21 22:44:51.96	155.17	11.68	-42.1	-44.1	13.3	0.00e+00	0	38	0	0	54	4892
2026-01-21 22:44:52.95	155.27	11.61	-41.7	-43.6	18.0	0.00e+00	0	38	0	0	54	4642
2026-01-21 22:44:53.95	155.37	11.53	-41.6	-43.5	18.1	0.00e+00	0	38	0	0	54	4546
2026-01-21 22:44:54.94	155.47	11.45	-41.5	-43.4	18.1	1.19e-02	0	38	0	0	54	4533
2026-01-21 22:44:56.00	155.57	11.37	-41.6	-43.5	18.1	0.00e+00	0	38	0	0	54	4581
2026-01-21 22:44:56.87	155.66	11.30	-41.6	-43.5	18.1	0.00e+00	0	38	0	0	54	4574
2026-01-21 22:44:58.01	155.77	11.21	-41.6	-43.5	18.1	2.14e-02	0	38	0	0	54	4546
2026-01-21 22:44:58.86	155.85	11.14	-41.5	-43.4	18.1	0.00e+00	0	38	0	0	54	4533
2026-01-21 22:45:00.00	155.96	11.05	-41.6	-43.6	18.0	0.00e+00	0	38	0	0	54	4607
2026-01-21 22:45:00.85	156.04	10.98	-41.8	-43.7	17.8	1.49e-02	0	38	0	0	55	4420
2026-01-21 22:45:01.99	156.15	10.90	-41.7	-43.6	17.9	0.00e+00	0	38	0	0	55	4369
2026-01-21 22:45:02.84	156.23	10.83	-41.8	-43.7	17.8	0.00e+00	0	38	0	0	55	4425
2026-01-21 22:45:03.98	156.34	10.74	-41.8	-43.8	17.7	0.00e+00	0	38	0	0	55	4451
2026-01-21 22:45:04.83	156.42	10.68	-41.9	-43.9	17.6	0.00e+00	0	38	0	0	55	4513
2026-01-21 22:45:05.98	156.53	10.59	-41.9	-43.9	17.6	0.00e+00	0	38	0	0	55	4521
2026-01-21 22:45:06.84	156.61	10.52	-42.0	-43.9	17.5	0.00e+00	0	38	0	0	55	4543
2026-01-21 22:45:07.98	156.72	10.43	-42.1	-44.1	17.4	0.00e+00	0	38	0	0	55	4622
2026-01-21 22:45:08.83	156.80	10.37	-42.1	-44.2	17.3	0.00e+00	0	38	0	0	55	4653
2026-01-21 22:45:10.11	156.91	10.27	-42.3	-44.3	17.3	0.00e+00	0	38	0	0	56	4463
2026-01-21 22:45:11.25	157.02	10.18	-42.3	-44.3	17.3	0.00e+00	0	38	0	0	56	4466
2026-01-21 22:45:12.10	157.10	10.12	-43.0	-45.2	8.7	0.00e+00	0	38	0	0	56	4975
2026-01-21 22:45:13.24	157.20	10.03	-42.5	-44.5	17.1	0.00e+00	0	38	0	0	56	4592
2026-01-21 22:45:14.09	157.28	9.97	-42.3	-44.4	17.2	0.00e+00	0	38	0	0	56	4496
2026-01-21 22:45:15.23	157.38	9.88	-42.3	-44.4	17.2	3.94e-02	0	38	0	0	56	4522
2026-01-21 22:45:16.08	157.45	9.82	-42.4	-44.5	17.2	0.00e+00	0	38	0	0	56	4559
2026-01-21 22:45:17.22	157.56	9.73	-42.4	-44.5	17.2	0.00e+00	0	38	0	0	56	4565
2026-01-21 22:45:18.10	157.63	9.67	-42.3	-44.4	17.3	3.88e-02	0	38	0	0	56	4503
2026-01-21 22:45:19.43	157.75	9.57	-42.3	-44.4	17.2	0.00e+00	0	38	0	0	56	4518
2026-01-21 22:45:20.14	157.81	9.51	-42.4	-44.5	17.2	0.00e+00	0	38	0	0	56	4549
2026-01-21 22:45:21.42	157.92	9.42	-42.4	-44.4	17.2	0.00e+00	0	38	0	0	56	4535
2026-01-21 22:45:22.13	157.99	9.37	-42.5	-44.6	17.0	0.00e+00	0	38	0	0	56	4628
2026-01-21 22:45:23.41	158.10	9.27	-42.3	-44.3	17.3	0.00e+00	0	38	0	0	56	4487
2026-01-21 22:45:24.12	158.16	9.22	-42.3	-44.4	17.3	0.00e+00	0	38	0	0	56	4505
2026-01-21 22:45:25.40	158.27	9.12	-42.4	-44.4	17.2	0.00e+00	0	38	0	0	56	4526
2026-01-21 22:45:26.11	158.33	9.07	-42.5	-44.5	17.1	0.00e+00	0	38	0	0	56	4589
2026-01-21 22:45:27.38	158.43	8.98	-42.6	-44.7	17.0	0.00e+00	0	38	0	0	56	4653
2026-01-21 22:45:28.11	158.50	8.92	-49.9	-61.1	3.9	3.32e-01	0	38	104	0	70	13783
2026-01-21 22:45:29.39	158.60	8.83	-50.0	-63.4	3.8	1.49e+00	0	38	104	0	71	16912
2026-01-21 22:45:30.09	158.66	8.78	-50.2	-63.5	3.8	1.49e+00	0	38	104	0	71	17230
2026-01-21 22:45:31.37	158.77	8.69	-50.6	-63.7	3.8	1.49e+00	0	38	104	0	71	17578
2026-01-21 22:45:32.08	158.83	8.63	-50.6	-63.7	3.8	1.49e+00	0	38	104	0	71	17625
2026-01-21 22:45:33.36	158.93	8.54	-50.1	-63.8	3.8	1.49e+00	0	38	104	0	72	16800
2026-01-21 22:45:34.07	158.99	8.49	-50.6	-63.8	3.8	1.49e+00	0	38	104	0	72	16873
2026-01-21 22:45:35.35	159.09	8.40	-50.8	-63.9	3.8	1.49e+00	0	38	104	0	72	16952
2026-01-21 22:45:36.05	159.15	8.35	-50.7	-63.9	3.8	1.49e+00	0	38	104	0	72	16917
2026-01-21 22:45:37.33	159.25	8.26	-50.9	-63.9	3.8	1.49e+00	0	38	104	0	72	16971
2026-01-21 22:45:38.04	159.31	8.20	-50.9	-63.9	3.8	1.49e+00	0	38	104	0	72	17033
2026-01-21 22:45:39.32	159.41	8.11	-50.8	-64.0	3.8	1.49e+00	0	38	104	0	72	17118
2026-01-21 22:45:40.04	159.47	8.06	-50.9	-64.0	3.8	1.49e+00	0	38	104	0	72	17096
2026-01-21 22:45:41.32	159.57	7.97	-51.0	-64.0	3.8	1.49e+00	0	38	104	0	72	17142
2026-01-21 22:45:42.03	159.63	7.92	-51.0	-64.0	3.8	1.49e+00	0	38	104	0	72	17134
2026-01-21 22:45:43.31	159.73	7.83	-50.9	-64.0	3.8	1.49e+00	0	38	104	0	72	17189
2026-01-21 22:45:44.02	159.78	7.78	-50.7	-64.0	3.8	1.49e+00	0	38	104	0	72	17178
2026-01-21 22:45:45.30	159.88	7.69	-50.9	-64.0	3.8	1.49e+00	0	38	104	0	72	17163
2026-01-21 22:45:46.05	159.94	7.63	-51.0	-64.0	3.8	1.49e+00	0	38	104	0	72	17175
2026-01-21 22:45:47.33	160.04	7.54	-50.8	-64.0	3.8	1.49e+00	0	38	104	0	72	17164
2026-01-21 22:45:48.04	160.09	7.49	-50.9	-64.0	3.8	1.49e+00	0	38	104	0	72	17228
2026-01-21 22:45:49.31	160.19	7.41	-50.9	-64.0	3.8	1.49e+00	0	38	104	0	72	17170
2026-01-21 22:45:50.06	160.25	7.35	-50.8	-64.0	3.8	1.49e+00	0	38	104	0	72	17173
2026-01-21 22:45:51.33	160.34	7.26	-50.7	-64.0	3.8	1.49e+00	0	38	104	0	72	17161
2026-01-21 22:45:52.07	160.40	7.21	-50.6	-64.0	3.8	1.49e+00	0	38	104	0	72	17097
2026-01-21 22:45:53.35	160.49	7.12	-50.6	-63.9	3.8	1.49e+00	0	38	104	0	72	17073
2026-01-21 22:45:54.09	160.55	7.07	-50.6	-63.9	3.8	1.49e+00	0	38	104	0	72	17020
2026-01-21 22:45:55.37	160.64	6.98	-50.6	-63.9	3.8	1.49e+00	0	38	104	0	72	17058
2026-01-21 22:45:56.08	160.70	6.94	-50.6	-63.9	3.8	1.49e+00	0	38	104	0	72	17026
2026-01-21 22:45:57.35	160.79	6.85	-50.6	-63.9	3.8	1.49e+00	0	38	104	0	72	17018
2026-01-21 22:45:58.08	160.84	6.80	-50.6	-63.9	3.8	1.49e+00	0	38	104	0	72	17058
2026-01-21 22:45:59.35	160.94	6.71	-50.6	-63.9	3.8	1.49e+00	0	38	104	0	72	17037
2026-01-21 22:46:00.07	160.99	6.66	-50.6	-63.9	3.8	1.49e+00	0	38	104	0	72	17028
2026-01-21 22:46:01.37	161.08	6.57	-50.6	-63.9	3.8	1.49e+00	0	38	104	0	72	16966
2026-01-21 22:46:02.08	161.13	6.52	-50.6	-63.9	3.8	1.49e+00	0	38	104	0	72	16925
2026-01-21 22:46:03.36	161.23	6.44	-50.5	-63.9	3.8	1.49e+00	0	38	104	0	72	17010
2026-01-21 22:46:04.08	161.28	6.39	-50.5	-63.9	3.8	1.49e+00	0	38	104	0	72	16933
2026-01-21 22:46:05.36	161.37	6.30	-50.6	-63.9	3.8	1.49e+00	0	38	104	0	72	17035
2026-01-21 22:46:06.06	161.42	6.25	-50.5	-63.9	3.8	1.49e+00	0	38	104	0	72	16987
2026-01-21 22:46:07.34	161.51	6.17	-50.6	-63.9	3.8	1.49e+00	0	38	104	0	72	16979
2026-01-21 22:46:08.05	161.56	6.12	-50.6	-63.9	3.8	1.49e+00	0	38	104	0	72	16974
2026-01-21 22:46:09.33	161.65	6.03	-50.6	-63.9	3.8	1.49e+00	0	38	104	0	72	16990
2026-01-21 22:46:10.04	161.69	5.99	-50.5	-63.9	3.8	1.49e+00	0	38	104	0	72	16939
2026-01-21 22:46:11.32	161.78	5.90	-50.6	-63.9	3.8	1.49e+00	0	38	104	0	72	16992
2026-01-21 22:46:12.04	161.83	5.85	-50.6	-63.9	3.8	1.49e+00	0	38	104	0	72	16983
2026-01-21 22:46:13.32	161.92	5.77	-50.5	-63.9	3.8	1.49e+00	0	38	104	0	72	16976
2026-01-21 22:46:14.04	161.97	5.72	-50.5	-63.9	3.8	1.49e+00	0	38	104	0	72	16913
2026-01-21 22:46:15.32	162.06	5.64	-50.5	-63.9	3.8	1.49e+00	0	38	104	0	72	16952
2026-01-21 22:46:16.04	162.11	5.59	-50.5	-63.9	3.8	1.49e+00	0	38	104	0	72	16980
2026-01-21 22:46:17.32	162.19	5.50	-50.6	-63.9	3.8	1.49e+00	0	38	104	0	72	16956
2026-01-21 22:46:18.03	162.24	5.46	-50.6	-63.9	3.8	1.49e+00	0	38	104	0	72	16979
2026-01-21 22:46:19.31	162.32	5.37	-50.6	-63.9	3.8	1.49e+00	0	38	104	0	72	16960
2026-01-21 22:46:20.02	162.37	5.33	-50.6	-63.9	3.8	1.49e+00	0	38	104	0	72	16969
2026-01-21 22:46:21.29	162.46	5.24	-50.5	-63.9	3.8	1.49e+00	0	38	104	0	72	16934
2026-01-21 22:46:22.00	162.50	5.20	-50.5	-63.9	3.8	1.49e+00	0	38	104	0	72	16900
2026-01-21 22:46:23.28	162.59	5.11	-50.5	-63.9	3.8	1.49e+00	0	38	104	0	72	16974
2026-01-21 22:46:23.99	162.63	5.07	-50.5	-63.9	3.8	1.49e+00	0	38	104	0	72	16917
2026-01-21 22:46:25.27	162.72	4.98	-50.5	-63.9	3.8	1.49e+00	0	38	104	0	72	16935

#Closed at: 2026-01-21 22:46:25
#Recorded file [0 MB]: D:/Data/31040_260122_013421.dat