passes_logs/2026/01/21/T1/T1__20260121_111511_NOAA_20_JPSS-1_rec.log

#Pass ID: 20260121_111511_NOAA 20 (JPSS-1)
#Satellite: NOAA 20 (JPSS-1)
#Configuration: NOAA 20
#almurnet v.1.7.20251203
#Start time: 2026-01-21 11:15:11

#Version: 2.0.20230620
#Station: T1
#Location: 37.570604 lon 55.790049 lat
#TLE: 1 43013U 17073A   26020.82785136  .00000155  00000+0  94366-4 0  9991
#TLE: 2 43013  98.7643 321.7058 0001260  30.3785 329.7464 14.19537992423566

#Time	Az	El	Level	Level2	SNR	BER	BlckErr	Temp	State	Recorded	gain1	gain2
2026-01-21 11:15:11.37	203.20	4.97	-51.6	-67.1	3.8	1.49e+00	0	36	0	0	75	20588
2026-01-21 11:15:12.36	203.27	5.03	-51.6	-67.0	3.8	1.49e+00	0	36	104	0	75	20444
2026-01-21 11:15:13.35	203.35	5.09	-51.6	-67.0	3.8	1.49e+00	0	36	104	0	75	20423
2026-01-21 11:15:14.35	203.42	5.15	-51.6	-67.0	3.8	1.49e+00	0	36	104	0	75	20500
2026-01-21 11:15:15.34	203.50	5.22	-51.6	-67.0	3.8	1.49e+00	0	36	104	0	75	20503
2026-01-21 11:15:16.33	203.57	5.28	-51.6	-67.0	3.8	1.49e+00	0	36	104	0	75	20476
2026-01-21 11:15:17.33	203.65	5.34	-51.6	-67.0	3.8	1.49e+00	0	36	104	0	75	20460
2026-01-21 11:15:18.32	203.72	5.41	-51.6	-67.1	3.8	1.49e+00	0	36	104	0	75	20543
2026-01-21 11:15:19.31	203.80	5.47	-51.7	-67.1	3.8	1.49e+00	0	36	104	0	75	20556
2026-01-21 11:15:20.31	203.87	5.53	-51.6	-67.0	3.8	1.49e+00	0	36	104	0	75	20531
2026-01-21 11:15:21.30	203.95	5.59	-51.6	-67.1	3.8	1.49e+00	0	36	104	0	75	20584
2026-01-21 11:15:22.29	204.03	5.66	-51.6	-67.0	3.8	1.49e+00	0	37	104	0	75	20456
2026-01-21 11:15:23.28	204.10	5.72	-51.6	-67.1	3.8	1.49e+00	0	37	104	0	75	20666
2026-01-21 11:15:24.28	204.18	5.79	-51.6	-67.1	3.8	1.49e+00	0	37	104	0	75	20546
2026-01-21 11:15:25.27	204.26	5.85	-51.6	-67.1	3.8	1.49e+00	0	37	104	0	75	20599
2026-01-21 11:15:26.26	204.34	5.91	-51.6	-67.0	3.8	1.49e+00	0	37	104	0	75	20477
2026-01-21 11:15:27.26	204.42	5.98	-51.6	-67.1	3.8	1.49e+00	0	37	104	0	75	20555
2026-01-21 11:15:28.25	204.50	6.04	-51.6	-67.0	3.8	1.49e+00	0	37	104	0	75	20415
2026-01-21 11:15:29.24	204.58	6.10	-51.6	-66.9	3.8	1.49e+00	0	37	104	0	75	20289
2026-01-21 11:15:30.23	204.66	6.17	-51.6	-66.8	3.8	1.49e+00	0	37	104	0	75	20062
2026-01-21 11:15:31.23	204.74	6.23	-51.6	-66.8	3.8	1.49e+00	0	37	104	0	75	19901
2026-01-21 11:15:32.22	204.82	6.30	-51.6	-66.7	3.8	1.49e+00	0	37	104	0	75	19818
2026-01-21 11:15:33.21	204.90	6.36	-51.6	-66.6	3.8	1.49e+00	0	37	104	0	75	19596
2026-01-21 11:15:34.21	204.98	6.43	-51.6	-66.7	3.8	1.49e+00	0	37	104	0	75	19733
2026-01-21 11:15:35.20	205.06	6.49	-51.6	-66.7	3.8	1.49e+00	0	37	104	0	75	19726
2026-01-21 11:15:36.19	205.14	6.56	-51.6	-66.8	3.8	1.49e+00	0	37	104	0	75	19909
2026-01-21 11:15:37.19	205.22	6.62	-51.6	-66.8	3.8	1.49e+00	0	37	104	0	75	20012
2026-01-21 11:15:38.18	205.31	6.69	-51.6	-66.8	3.8	1.49e+00	0	37	104	0	75	20010
2026-01-21 11:15:39.17	205.39	6.75	-51.6	-66.8	3.8	1.49e+00	0	37	104	0	75	19943
2026-01-21 11:15:40.17	205.47	6.82	-51.6	-66.8	3.8	1.49e+00	0	37	104	0	75	19992
2026-01-21 11:15:41.16	205.56	6.88	-51.6	-66.8	3.8	1.49e+00	0	37	104	0	75	19943
2026-01-21 11:15:42.15	205.64	6.95	-51.6	-66.8	3.8	1.49e+00	0	37	104	0	75	19933
2026-01-21 11:15:43.15	205.72	7.01	-51.6	-66.8	3.8	1.49e+00	0	37	104	0	75	19891
2026-01-21 11:15:44.14	205.81	7.08	-51.6	-66.7	3.8	1.49e+00	0	37	104	0	75	19779
2026-01-21 11:15:45.13	205.89	7.15	-51.6	-66.7	3.8	1.49e+00	0	37	104	0	75	19832
2026-01-21 11:15:46.12	205.98	7.21	-51.6	-66.9	3.8	1.49e+00	0	37	104	0	75	20084
2026-01-21 11:15:47.12	206.06	7.28	-51.6	-66.9	3.8	1.49e+00	0	37	104	0	75	20224
2026-01-21 11:15:48.11	206.15	7.34	-51.6	-66.9	3.8	1.49e+00	0	37	104	0	75	20193
2026-01-21 11:15:49.10	206.24	7.41	-51.6	-66.6	3.8	1.49e+00	0	37	104	0	75	19519
2026-01-21 11:15:50.09	206.32	7.48	-51.6	-66.0	3.8	1.49e+00	0	37	104	0	75	18229
2026-01-21 11:15:51.09	206.41	7.54	-51.5	-65.3	3.8	1.49e+00	0	37	104	0	75	16741
2026-01-21 11:15:52.08	206.50	7.61	-51.5	-64.9	3.8	1.48e+00	0	37	104	0	75	15989
2026-01-21 11:15:53.07	206.59	7.68	-51.5	-64.9	3.8	1.48e+00	0	37	104	0	75	16000
2026-01-21 11:15:54.07	206.68	7.75	-51.5	-65.5	3.8	1.49e+00	0	37	104	0	75	17136
2026-01-21 11:15:55.06	206.76	7.81	-51.6	-66.7	3.8	1.49e+00	0	37	104	0	75	19615
2026-01-21 11:15:56.05	206.85	7.88	-51.6	-67.0	3.8	1.49e+00	0	38	104	0	75	20337
2026-01-21 11:15:57.05	206.94	7.95	-51.5	-64.6	4.0	1.49e+00	0	38	104	0	75	15470
2026-01-21 11:15:58.04	207.03	8.01	-51.1	-60.8	5.3	1.17e+00	0	38	0	1048576	74	10626
2026-01-21 11:15:59.03	207.12	8.08	-50.5	-57.8	7.9	1.30e-01	0	38	0	2097152	73	7909
2026-01-21 11:16:00.02	207.21	8.15	-49.7	-55.2	10.5	1.28e-02	0	38	0	4194304	71	6627
2026-01-21 11:16:01.02	207.31	8.22	-48.9	-53.5	12.3	7.47e-04	0	38	0	6291456	69	6080
2026-01-21 11:16:02.01	207.40	8.29	-48.1	-52.0	13.9	2.44e-05	0	38	0	8388608	68	5425
2026-01-21 11:16:03.00	207.49	8.35	-47.5	-51.0	14.7	7.00e-07	0	38	0	10485760	67	5139
2026-01-21 11:16:04.00	207.58	8.42	-47.0	-50.3	15.4	0.00e+00	0	38	0	11534336	66	5022
2026-01-21 11:16:04.99	207.67	8.49	-47.0	-50.3	15.4	0.00e+00	0	38	0	13631488	66	5012
2026-01-21 11:16:05.98	207.77	8.56	-47.0	-50.3	15.4	7.00e-07	0	38	0	15728640	66	5034
2026-01-21 11:16:06.98	207.86	8.63	-47.3	-50.7	15.1	0.00e+00	0	38	0	17825792	66	5246
2026-01-21 11:16:07.97	207.96	8.70	-47.8	-51.6	14.1	7.00e-07	0	38	0	18874368	66	5828
2026-01-21 11:16:08.97	208.05	8.77	-48.4	-52.6	13.1	6.10e-06	0	38	0	20971520	67	6156
2026-01-21 11:16:09.96	208.15	8.84	-49.2	-54.2	11.7	3.68e-04	0	38	0	23068672	69	6583
2026-01-21 11:16:10.95	208.24	8.90	-49.9	-55.7	10.1	3.11e-03	0	38	0	25165824	70	7421
2026-01-21 11:16:11.94	208.34	8.97	-50.4	-57.4	8.3	2.19e-02	0	38	0	27262976	71	8528
2026-01-21 11:16:12.94	208.43	9.04	-50.8	-59.1	6.6	9.60e-02	0	38	0	28311552	72	9826
2026-01-21 11:16:13.93	208.53	9.11	-50.9	-59.5	6.4	2.44e-01	0	38	0	30408704	72	10223
2026-01-21 11:16:14.93	208.63	9.18	-51.4	-65.3	3.8	9.51e-01	0	38	104	31457280	73	18891
2026-01-21 11:16:15.92	208.72	9.25	-50.5	-57.4	8.5	1.03e+00	0	38	0	31457280	72	8029
2026-01-21 11:16:16.91	208.82	9.32	-48.5	-52.6	13.3	2.91e-02	0	38	0	33554432	69	5494
2026-01-21 11:16:17.91	208.92	9.39	-51.3	-62.1	4.7	2.12e-01	0	38	0	34603008	73	13073
2026-01-21 11:16:18.90	209.02	9.46	-51.3	-62.2	4.7	1.11e+00	0	38	0	36700160	73	13197
2026-01-21 11:16:19.93	209.12	9.53	-51.3	-62.0	4.7	9.58e-01	0	38	0	38797312	73	12891
2026-01-21 11:16:20.96	209.23	9.61	-51.3	-62.1	4.7	8.78e-01	0	38	0	40894464	73	13015
2026-01-21 11:16:21.95	209.33	9.68	-51.3	-61.6	4.9	8.40e-01	0	38	0	42991616	73	12375
2026-01-21 11:16:22.95	209.43	9.75	-51.1	-60.2	5.9	5.85e-01	0	38	0	44040192	73	10514
2026-01-21 11:16:23.95	209.53	9.82	-50.6	-57.6	8.3	9.09e-02	0	38	0	46137344	73	7760
2026-01-21 11:16:24.94	209.63	9.89	-51.7	-65.3	3.8	4.78e-01	0	38	104	48234496	74	17733
2026-01-21 11:16:25.93	209.73	9.96	-48.4	-52.2	13.8	4.93e-01	0	38	0	48234496	68	5564
2026-01-21 11:16:26.93	209.84	10.03	-51.4	-62.2	4.8	4.78e-03	0	38	0	50331648	73	13126
2026-01-21 11:16:27.92	209.94	10.10	-48.4	-52.2	13.7	4.58e-02	0	38	0	52428800	68	5554
2026-01-21 11:16:28.92	210.05	10.18	-47.3	-50.6	15.2	0.00e+00	0	38	0	54525952	66	5173
2026-01-21 11:16:29.91	210.15	10.25	-46.7	-49.8	16.0	0.00e+00	0	38	0	55574528	65	4988
2026-01-21 11:16:30.91	210.26	10.32	-46.3	-49.2	16.6	0.00e+00	0	38	0	57671680	64	4937
2026-01-21 11:16:31.90	210.36	10.39	-46.3	-49.1	16.7	0.00e+00	0	38	0	59768832	64	4898
2026-01-21 11:16:32.90	210.47	10.46	-46.2	-49.0	16.8	0.00e+00	0	38	0	61865984	64	4861
2026-01-21 11:16:33.89	210.57	10.54	-46.1	-48.9	16.9	0.00e+00	0	38	0	63963136	64	4771
2026-01-21 11:16:34.89	210.68	10.61	-46.0	-48.7	17.1	0.00e+00	0	38	0	65011712	64	4693
2026-01-21 11:16:35.88	210.79	10.68	-46.1	-48.8	17.2	0.00e+00	0	38	0	67108864	63	4998
2026-01-21 11:16:36.93	210.90	10.76	-46.1	-48.8	17.1	0.00e+00	0	38	0	69206016	63	5040
2026-01-21 11:16:37.89	211.01	10.83	-46.1	-48.9	17.1	0.00e+00	0	38	0	71303168	63	5046
2026-01-21 11:16:38.95	211.12	10.90	-46.1	-48.9	17.1	0.00e+00	0	38	0	73400320	63	5068
2026-01-21 11:16:39.81	211.22	10.97	-46.1	-48.8	17.1	0.00e+00	0	38	0	74448896	63	5023
2026-01-21 11:16:40.95	211.34	11.05	-46.1	-48.8	17.2	0.00e+00	0	38	0	76546048	63	5007
2026-01-21 11:16:41.90	211.45	11.12	-46.1	-48.8	17.1	0.00e+00	0	38	0	78643200	63	5016
2026-01-21 11:16:42.90	211.56	11.19	-46.1	-48.7	17.2	0.00e+00	0	38	0	80740352	63	4979
2026-01-21 11:16:43.89	211.67	11.27	-46.1	-48.8	17.1	0.00e+00	0	38	0	81788928	63	5022
2026-01-21 11:16:44.88	211.78	11.34	-46.0	-48.7	17.3	0.00e+00	0	38	0	83886080	63	4942
2026-01-21 11:16:45.88	211.90	11.41	-46.1	-48.8	17.2	0.00e+00	0	38	0	85983232	63	5009
2026-01-21 11:16:46.87	212.01	11.49	-46.1	-48.9	17.1	0.00e+00	0	38	0	88080384	63	5048
2026-01-21 11:16:47.87	212.12	11.56	-46.1	-48.8	17.1	0.00e+00	0	38	0	90177536	63	5033
2026-01-21 11:16:48.87	212.24	11.64	-46.1	-48.8	17.2	0.00e+00	0	38	0	91226112	63	4991
2026-01-21 11:16:49.86	212.35	11.71	-46.2	-48.9	17.1	0.00e+00	0	38	0	93323264	63	5082
2026-01-21 11:16:50.86	212.47	11.79	-46.2	-48.9	17.0	0.00e+00	0	38	0	95420416	63	5099
2026-01-21 11:16:51.85	212.59	11.86	-46.2	-48.9	17.0	0.00e+00	0	38	0	97517568	63	5083
2026-01-21 11:16:52.85	212.70	11.93	-46.2	-48.9	17.1	0.00e+00	0	38	0	98566144	63	5079
2026-01-21 11:16:53.85	212.82	12.01	-46.3	-49.1	16.9	0.00e+00	0	38	0	100663296	63	5191
2026-01-21 11:16:54.84	212.94	12.08	-46.3	-49.1	16.9	0.00e+00	0	38	0	102760448	63	5167
2026-01-21 11:16:55.84	213.06	12.16	-46.4	-49.2	16.8	0.00e+00	0	38	0	104857600	63	5227
2026-01-21 11:16:56.83	213.18	12.23	-46.3	-49.1	16.9	0.00e+00	0	38	0	106954752	63	5176
2026-01-21 11:16:57.82	213.29	12.31	-46.3	-49.1	17.0	0.00e+00	0	38	0	108003328	63	5178
2026-01-21 11:16:58.82	213.42	12.38	-46.4	-49.2	16.9	0.00e+00	0	38	0	110100480	63	5238
2026-01-21 11:16:59.81	213.54	12.46	-46.4	-49.2	16.9	0.00e+00	0	38	0	112197632	63	5226
2026-01-21 11:17:00.81	213.66	12.53	-46.2	-49.0	17.0	0.00e+00	0	38	0	114294784	63	5121
2026-01-21 11:17:01.80	213.78	12.61	-46.1	-48.7	17.3	0.00e+00	0	38	0	115343360	63	4976
2026-01-21 11:17:02.80	213.90	12.69	-46.1	-48.8	17.2	0.00e+00	0	38	0	117440512	63	5009
2026-01-21 11:17:03.79	214.03	12.76	-46.1	-48.8	17.2	0.00e+00	0	38	0	119537664	63	5032
2026-01-21 11:17:04.83	214.15	12.84	-46.2	-48.9	17.2	0.00e+00	0	38	0	121634816	63	5049
2026-01-21 11:17:05.83	214.28	12.92	-46.2	-48.9	17.1	0.00e+00	0	38	0	123731968	63	5096
2026-01-21 11:17:06.88	214.41	13.00	-46.2	-49.0	17.1	0.00e+00	0	38	0	125829120	63	5101
2026-01-21 11:17:07.80	214.53	13.07	-46.2	-48.9	17.1	0.00e+00	0	38	0	126877696	63	5078
2026-01-21 11:17:08.95	214.67	13.16	-46.2	-48.8	17.2	0.00e+00	0	38	0	128974848	63	5031
2026-01-21 11:17:09.80	214.78	13.22	-46.1	-48.8	17.2	0.00e+00	0	38	0	131072000	63	5025
2026-01-21 11:17:11.10	214.95	13.32	-46.2	-48.9	17.2	0.00e+00	0	38	0	133169152	63	5043
2026-01-21 11:17:11.81	215.04	13.38	-46.1	-48.8	17.2	0.00e+00	0	38	0	134217728	63	5024
2026-01-21 11:17:13.27	215.23	13.49	-46.1	-48.8	17.3	0.00e+00	0	38	0	137363456	63	4985
2026-01-21 11:17:14.22	215.36	13.56	-46.0	-48.7	17.4	0.00e+00	0	38	0	139460608	63	4929
2026-01-21 11:17:15.22	215.49	13.64	-45.9	-48.5	17.5	0.00e+00	0	38	0	140509184	63	4836
2026-01-21 11:17:16.21	215.62	13.72	-46.0	-48.6	17.4	0.00e+00	0	38	0	142606336	63	4921
2026-01-21 11:17:17.21	215.75	13.80	-46.0	-48.6	17.4	0.00e+00	0	38	0	144703488	63	4896
2026-01-21 11:17:18.20	215.88	13.87	-46.0	-48.6	17.4	0.00e+00	0	38	0	146800640	63	4924
2026-01-21 11:17:19.20	216.02	13.95	-46.0	-48.6	17.4	0.00e+00	0	38	0	148897792	63	4925
2026-01-21 11:17:20.19	216.15	14.03	-46.0	-48.6	17.4	0.00e+00	0	39	0	149946368	63	4925
2026-01-21 11:17:21.18	216.28	14.11	-46.0	-48.7	17.3	0.00e+00	0	38	0	152043520	63	4972
2026-01-21 11:17:22.18	216.42	14.18	-46.1	-48.8	17.3	0.00e+00	0	38	0	154140672	63	4996
2026-01-21 11:17:23.18	216.56	14.26	-46.1	-48.8	17.2	0.00e+00	0	38	0	156237824	63	5037
2026-01-21 11:17:24.25	216.70	14.35	-46.2	-48.9	17.2	0.00e+00	0	38	0	158334976	63	5081
2026-01-21 11:17:25.10	216.82	14.41	-46.3	-49.0	17.1	0.00e+00	0	38	0	159383552	63	5140
2026-01-21 11:17:26.45	217.01	14.52	-46.2	-49.0	17.1	0.00e+00	0	38	0	162529280	63	5113
2026-01-21 11:17:27.15	217.10	14.57	-46.2	-48.9	17.2	0.00e+00	0	38	0	163577856	63	5086
2026-01-21 11:17:28.45	217.29	14.68	-46.2	-49.0	17.1	0.00e+00	0	38	0	165675008	63	5108
2026-01-21 11:17:29.16	217.39	14.73	-46.2	-48.9	17.2	0.00e+00	0	38	0	166723584	63	5091
2026-01-21 11:17:30.44	217.57	14.83	-46.2	-48.9	17.3	0.00e+00	0	38	0	169869312	63	5046
2026-01-21 11:17:31.15	217.67	14.89	-46.2	-48.9	17.2	0.00e+00	0	38	0	170917888	63	5053
2026-01-21 11:17:32.43	217.85	14.99	-46.1	-48.8	17.3	0.00e+00	0	38	0	173015040	63	5010
2026-01-21 11:17:33.15	217.96	15.05	-46.1	-48.8	17.4	0.00e+00	0	38	0	175112192	63	4999
2026-01-21 11:17:34.43	218.14	15.15	-46.0	-48.7	17.4	0.00e+00	0	39	0	177209344	63	4954
2026-01-21 11:17:35.14	218.25	15.21	-46.0	-48.7	17.4	0.00e+00	0	38	0	178257920	63	4934
2026-01-21 11:17:36.42	218.43	15.31	-46.2	-48.8	17.3	0.00e+00	0	39	0	180355072	63	5040
2026-01-21 11:17:37.13	218.54	15.37	-46.2	-48.8	17.3	0.00e+00	0	38	0	182452224	63	5024
2026-01-21 11:17:38.44	218.73	15.47	-46.2	-48.9	17.2	0.00e+00	0	38	0	184549376	63	5089
2026-01-21 11:17:39.15	218.84	15.53	-46.2	-48.9	17.2	0.00e+00	0	38	0	185597952	63	5096
2026-01-21 11:17:40.43	219.03	15.63	-46.3	-49.0	17.2	0.00e+00	0	38	0	188743680	63	5115
2026-01-21 11:17:41.16	219.14	15.69	-46.3	-49.0	17.1	0.00e+00	0	39	0	189792256	63	5146
2026-01-21 11:17:42.54	219.34	15.80	-46.1	-48.8	17.3	0.00e+00	0	38	0	191889408	63	5016
2026-01-21 11:17:43.26	219.45	15.86	-46.2	-48.8	17.3	0.00e+00	0	38	0	193986560	63	5032
2026-01-21 11:17:44.53	219.65	15.96	-46.1	-48.7	17.4	0.00e+00	0	38	0	196083712	63	4961
2026-01-21 11:17:45.27	219.76	16.02	-46.0	-48.7	17.5	0.00e+00	0	38	0	197132288	63	4941
2026-01-21 11:17:46.55	219.96	16.12	-45.9	-48.5	17.7	0.00e+00	0	39	0	199229440	63	4832
2026-01-21 11:17:47.26	220.07	16.18	-45.8	-48.4	17.7	0.00e+00	0	38	0	201326592	63	4802
2026-01-21 11:17:48.54	220.27	16.28	-45.8	-48.4	17.7	0.00e+00	0	39	0	203423744	63	4807
2026-01-21 11:17:49.25	220.38	16.34	-45.8	-48.4	17.8	0.00e+00	0	39	0	204472320	63	4766
2026-01-21 11:17:50.53	220.58	16.44	-45.9	-48.5	17.7	0.00e+00	0	38	0	207618048	63	4821
2026-01-21 11:17:51.24	220.69	16.50	-45.9	-48.5	17.7	0.00e+00	0	38	0	208666624	63	4816
2026-01-21 11:17:52.54	220.90	16.60	-45.8	-48.4	17.7	0.00e+00	0	39	0	210763776	63	4797
2026-01-21 11:17:53.25	221.01	16.66	-45.8	-48.3	17.9	0.00e+00	0	39	0	211812352	63	4740
2026-01-21 11:17:54.52	221.22	16.76	-45.8	-48.3	17.8	0.00e+00	0	38	0	214958080	63	4730
2026-01-21 11:17:55.24	221.33	16.82	-45.8	-48.4	17.8	0.00e+00	0	39	0	216006656	63	4790
2026-01-21 11:17:56.52	221.54	16.93	-45.8	-48.4	17.8	0.00e+00	0	38	0	218103808	63	4764
2026-01-21 11:17:57.26	221.66	16.99	-45.6	-48.1	18.0	0.00e+00	0	38	0	220200960	63	4644
2026-01-21 11:17:58.58	221.88	17.09	-45.6	-48.1	18.1	0.00e+00	0	38	0	222298112	63	4624
2026-01-21 11:17:59.55	222.04	17.17	-45.7	-48.2	18.0	0.00e+00	0	38	0	224395264	63	4675
2026-01-21 11:18:00.54	222.20	17.25	-45.4	-47.9	18.3	0.00e+00	0	39	0	226492416	62	4778
2026-01-21 11:18:01.54	222.37	17.33	-45.4	-47.9	18.3	0.00e+00	0	39	0	227540992	62	4777
2026-01-21 11:18:02.53	222.53	17.42	-45.5	-48.0	18.2	0.00e+00	0	38	0	229638144	62	4828
2026-01-21 11:18:03.53	222.70	17.50	-45.5	-47.9	18.2	0.00e+00	0	39	0	231735296	62	4809
2026-01-21 11:18:04.52	222.87	17.58	-45.4	-47.9	18.3	0.00e+00	0	38	0	233832448	62	4783
2026-01-21 11:18:05.52	223.04	17.66	-45.4	-47.9	18.3	0.00e+00	0	38	0	234881024	62	4772
2026-01-21 11:18:06.51	223.21	17.74	-45.5	-47.9	18.2	0.00e+00	0	38	0	236978176	62	4796
2026-01-21 11:18:07.49	223.38	17.82	-45.4	-47.8	18.3	0.00e+00	0	39	0	239075328	62	4743
2026-01-21 11:18:08.49	223.55	17.90	-45.5	-47.9	18.3	0.00e+00	0	39	0	241172480	62	4779
2026-01-21 11:18:09.49	223.73	17.98	-45.6	-48.0	18.1	0.00e+00	0	38	0	243269632	62	4864
2026-01-21 11:18:10.48	223.90	18.06	-45.4	-47.8	18.4	0.00e+00	0	39	0	244318208	62	4746
2026-01-21 11:18:11.48	224.07	18.14	-45.5	-47.9	18.3	0.00e+00	0	38	0	246415360	62	4781
2026-01-21 11:18:12.47	224.25	18.23	-45.5	-48.0	18.2	0.00e+00	0	38	0	248512512	62	4815
2026-01-21 11:18:13.47	224.43	18.31	-45.4	-47.8	18.4	0.00e+00	0	39	0	250609664	62	4752
2026-01-21 11:18:14.46	224.60	18.39	-45.4	-47.8	18.4	0.00e+00	0	39	0	251658240	62	4732
2026-01-21 11:18:15.46	224.78	18.47	-45.5	-47.9	18.3	0.00e+00	0	39	0	253755392	62	4788
2026-01-21 11:18:16.45	224.96	18.55	-45.4	-47.9	18.3	0.00e+00	0	39	0	255852544	62	4780
2026-01-21 11:18:17.45	225.14	18.63	-45.3	-47.8	18.4	0.00e+00	0	38	0	257949696	62	4717
2026-01-21 11:18:18.44	225.32	18.71	-45.5	-47.9	18.3	0.00e+00	0	38	0	260046848	62	4786
2026-01-21 11:18:19.44	225.51	18.79	-45.4	-47.8	18.3	0.00e+00	0	39	0	261095424	62	4739
2026-01-21 11:18:20.43	225.69	18.87	-45.3	-47.7	18.5	0.00e+00	0	39	0	263192576	62	4671
2026-01-21 11:18:21.43	225.87	18.96	-45.3	-47.7	18.5	0.00e+00	0	39	0	265289728	62	4657
2026-01-21 11:18:22.42	226.06	19.04	-45.2	-47.6	18.6	0.00e+00	0	38	0	267386880	62	4609
2026-01-21 11:18:23.42	226.24	19.12	-45.2	-47.6	18.6	0.00e+00	0	38	0	268435456	62	4623
2026-01-21 11:18:24.41	226.43	19.20	-45.3	-47.7	18.5	0.00e+00	0	39	0	270532608	62	4701
2026-01-21 11:18:25.47	226.63	19.28	-45.2	-47.6	18.6	0.00e+00	0	39	0	272629760	62	4608
2026-01-21 11:18:26.35	226.80	19.36	-45.1	-47.5	18.7	0.00e+00	0	39	0	274726912	62	4553
2026-01-21 11:18:27.68	227.05	19.46	-45.0	-47.3	18.9	0.00e+00	0	38	0	276824064	62	4478
2026-01-21 11:18:28.39	227.19	19.52	-45.0	-47.3	18.9	0.00e+00	0	39	0	277872640	62	4473
2026-01-21 11:18:29.67	227.44	19.63	-44.9	-47.2	18.9	0.00e+00	0	39	0	281018368	61	4696
2026-01-21 11:18:30.38	227.57	19.68	-45.0	-47.3	18.8	0.00e+00	0	38	0	282066944	61	4751
2026-01-21 11:18:31.66	227.82	19.79	-44.9	-47.3	18.9	0.00e+00	0	39	0	284164096	61	4720
2026-01-21 11:18:32.37	227.96	19.85	-44.9	-47.3	18.9	0.00e+00	0	39	0	285212672	61	4707
2026-01-21 11:18:33.65	228.21	19.95	-44.9	-47.2	18.9	0.00e+00	0	38	0	288358400	61	4698
2026-01-21 11:18:34.47	228.38	20.02	-44.9	-47.2	19.0	0.00e+00	0	38	0	289406976	61	4690
2026-01-21 11:18:35.61	228.60	20.11	-44.9	-47.2	19.0	0.00e+00	0	39	0	291504128	61	4693
2026-01-21 11:18:36.46	228.77	20.18	-44.9	-47.2	18.9	0.00e+00	0	39	0	293601280	61	4705
2026-01-21 11:18:37.60	229.00	20.27	-44.7	-47.0	19.2	0.00e+00	0	39	0	295698432	61	4552
2026-01-21 11:18:38.75	229.24	20.36	-44.7	-47.0	19.2	0.00e+00	0	39	0	297795584	61	4547
2026-01-21 11:18:39.77	229.44	20.44	-44.7	-47.0	19.2	0.00e+00	0	39	0	299892736	61	4553
2026-01-21 11:18:40.94	229.68	20.54	-44.8	-47.0	19.1	0.00e+00	0	39	0	301989888	61	4595
2026-01-21 11:18:41.79	229.86	20.60	-44.7	-47.0	19.2	0.00e+00	0	39	0	303038464	61	4550
2026-01-21 11:18:42.93	230.09	20.70	-44.8	-47.0	19.1	0.00e+00	0	39	0	305135616	61	4596
2026-01-21 11:18:43.78	230.27	20.76	-44.8	-47.1	19.1	0.00e+00	0	39	0	307232768	61	4612
2026-01-21 11:18:44.92	230.51	20.86	-44.7	-47.0	19.2	0.00e+00	0	39	0	309329920	61	4561
2026-01-21 11:18:45.77	230.69	20.92	-44.7	-47.0	19.2	0.00e+00	0	39	0	310378496	61	4568
2026-01-21 11:18:46.91	230.93	21.01	-44.6	-46.9	19.3	0.00e+00	0	38	0	313524224	61	4495
2026-01-21 11:18:47.76	231.11	21.08	-44.7	-46.9	19.2	0.00e+00	0	38	0	314572800	61	4541
2026-01-21 11:18:48.90	231.35	21.17	-44.8	-47.0	19.2	0.00e+00	0	39	0	316669952	61	4596
2026-01-21 11:18:49.75	231.53	21.24	-44.9	-47.2	19.0	0.00e+00	0	39	0	318767104	61	4672
2026-01-21 11:18:50.88	231.77	21.33	-45.0	-47.3	18.9	0.00e+00	0	39	0	320864256	61	4745
2026-01-21 11:18:51.73	231.96	21.40	-45.0	-47.4	18.9	0.00e+00	0	39	0	321912832	61	4767
2026-01-21 11:18:52.87	232.21	21.48	-45.0	-47.3	18.9	0.00e+00	0	39	0	324009984	61	4733
2026-01-21 11:18:53.72	232.39	21.55	-45.1	-47.4	18.8	0.00e+00	0	39	0	326107136	61	4788
2026-01-21 11:18:54.97	232.66	21.65	-45.0	-47.3	18.9	0.00e+00	0	39	0	328204288	61	4741
2026-01-21 11:18:55.82	232.85	21.72	-45.0	-47.3	18.9	0.00e+00	0	39	0	329252864	61	4732
2026-01-21 11:18:57.01	233.12	21.81	-44.9	-47.2	19.0	0.00e+00	0	39	0	332398592	61	4676
2026-01-21 11:18:57.86	233.31	21.87	-45.0	-47.3	18.9	0.00e+00	0	39	0	333447168	61	4732
2026-01-21 11:18:59.00	233.56	21.96	-44.9	-47.3	18.9	0.00e+00	0	39	0	335544320	61	4722
2026-01-21 11:18:59.85	233.75	22.03	-44.9	-47.2	19.0	0.00e+00	0	39	0	337641472	61	4669
2026-01-21 11:19:01.12	234.04	22.13	-44.9	-47.2	19.1	0.00e+00	0	39	0	339738624	61	4660
2026-01-21 11:19:01.90	234.22	22.19	-44.8	-47.1	19.1	0.00e+00	0	39	0	340787200	61	4650
2026-01-21 11:19:03.09	234.49	22.28	-44.9	-47.2	19.1	0.00e+00	0	39	0	342884352	61	4667
2026-01-21 11:19:03.94	234.68	22.34	-44.9	-47.2	19.0	0.00e+00	0	39	0	344981504	61	4674
2026-01-21 11:19:05.08	234.95	22.43	-44.9	-47.2	19.0	0.00e+00	0	39	0	347078656	61	4669
2026-01-21 11:19:05.93	235.14	22.49	-44.8	-47.1	19.2	0.00e+00	0	39	0	348127232	61	4603
2026-01-21 11:19:07.07	235.41	22.58	-44.6	-46.8	19.3	0.00e+00	0	39	0	351272960	61	4485
2026-01-21 11:19:08.00	235.63	22.65	-44.5	-46.7	19.5	0.00e+00	0	39	0	352321536	61	4415
2026-01-21 11:19:09.00	235.86	22.73	-44.5	-46.7	19.5	0.00e+00	0	39	0	354418688	61	4424
2026-01-21 11:19:09.99	236.09	22.80	-44.5	-46.8	19.4	0.00e+00	0	39	0	356515840	61	4454
2026-01-21 11:19:10.99	236.33	22.88	-44.7	-47.0	19.3	0.00e+00	0	39	0	358612992	61	4554
2026-01-21 11:19:11.98	236.57	22.95	-44.9	-47.2	19.0	0.00e+00	0	39	0	359661568	61	4672
2026-01-21 11:19:12.98	236.81	23.02	-45.0	-47.3	18.9	0.00e+00	0	39	0	361758720	61	4747
2026-01-21 11:19:13.97	237.04	23.10	-45.0	-47.4	18.9	0.00e+00	0	39	0	363855872	61	4769
2026-01-21 11:19:14.97	237.29	23.17	-45.0	-47.3	18.9	0.00e+00	0	39	0	365953024	61	4742
2026-01-21 11:19:15.96	237.53	23.24	-44.9	-47.1	19.1	0.00e+00	0	39	0	367001600	61	4648
2026-01-21 11:19:16.96	237.77	23.31	-45.0	-47.4	18.9	0.00e+00	0	39	0	369098752	61	4765
2026-01-21 11:19:17.95	238.01	23.39	-45.1	-47.5	18.8	0.00e+00	0	38	0	371195904	61	4838
2026-01-21 11:19:18.94	238.26	23.46	-45.2	-47.5	18.7	0.00e+00	0	39	0	373293056	61	4855
2026-01-21 11:19:19.94	238.50	23.53	-45.3	-47.7	18.6	0.00e+00	0	39	0	375390208	61	4932
2026-01-21 11:19:20.93	238.75	23.60	-45.4	-47.8	18.5	0.00e+00	0	39	0	376438784	61	4994
2026-01-21 11:19:21.92	239.00	23.67	-45.6	-48.0	18.3	0.00e+00	0	39	0	378535936	61	5117
2026-01-21 11:19:22.92	239.25	23.74	-45.6	-48.0	18.3	0.00e+00	0	39	0	380633088	61	5130
2026-01-21 11:19:23.91	239.49	23.81	-45.7	-48.2	18.1	0.00e+00	0	38	0	382730240	62	4935
2026-01-21 11:19:24.91	239.75	23.88	-45.8	-48.3	18.0	0.00e+00	0	39	0	383778816	62	5013
2026-01-21 11:19:25.90	240.00	23.95	-45.8	-48.2	18.1	0.00e+00	0	39	0	385875968	62	4969
2026-01-21 11:19:26.90	240.25	24.02	-45.7	-48.2	18.2	0.00e+00	0	39	0	387973120	62	4935
2026-01-21 11:19:27.89	240.51	24.09	-45.5	-47.9	18.4	0.00e+00	0	38	0	390070272	62	4788
2026-01-21 11:19:28.88	240.76	24.16	-45.4	-47.8	18.5	0.00e+00	0	39	0	392167424	62	4709
2026-01-21 11:19:29.98	241.04	24.23	-45.3	-47.7	18.6	0.00e+00	0	38	0	393216000	62	4670
2026-01-21 11:19:30.83	241.26	24.29	-45.3	-47.7	18.6	0.00e+00	0	39	0	395313152	62	4683
2026-01-21 11:19:31.97	241.56	24.36	-45.4	-47.9	18.5	0.00e+00	0	38	0	397410304	62	4761
2026-01-21 11:19:32.82	241.78	24.42	-45.5	-47.9	18.4	0.00e+00	0	39	0	399507456	62	4809
2026-01-21 11:19:33.96	242.08	24.50	-45.6	-48.1	18.2	0.00e+00	0	39	0	401604608	62	4884
2026-01-21 11:19:34.81	242.31	24.55	-45.7	-48.2	18.1	0.00e+00	0	39	0	402653184	62	4969
2026-01-21 11:19:35.95	242.61	24.63	-45.8	-48.3	18.1	0.00e+00	0	39	0	404750336	62	4995
2026-01-21 11:19:36.80	242.83	24.68	-45.9	-48.4	17.9	0.00e+00	0	39	0	406847488	62	5086
2026-01-21 11:19:37.94	243.14	24.76	-45.9	-48.4	17.9	0.00e+00	0	39	0	408944640	62	5078
2026-01-21 11:19:38.79	243.37	24.81	-45.9	-48.4	17.9	0.00e+00	0	39	0	409993216	62	5097
2026-01-21 11:19:39.92	243.67	24.88	-45.9	-48.4	18.0	0.00e+00	0	39	0	412090368	62	5046
2026-01-21 11:19:40.78	243.90	24.94	-45.9	-48.3	18.0	0.00e+00	0	38	0	414187520	62	5028
2026-01-21 11:19:41.93	244.21	25.01	-45.8	-48.3	18.0	0.00e+00	0	38	0	416284672	62	5021
2026-01-21 11:19:42.78	244.44	25.06	-45.9	-48.3	18.0	0.00e+00	0	39	0	417333248	62	5031
2026-01-21 11:19:43.98	244.77	25.13	-46.0	-48.5	17.9	0.00e+00	0	39	0	420478976	62	5119
2026-01-21 11:19:44.84	245.01	25.19	-46.1	-48.6	17.7	0.00e+00	0	39	0	421527552	62	5215
2026-01-21 11:19:46.05	245.34	25.26	-46.2	-48.9	17.5	0.00e+00	0	39	0	423624704	63	5052
2026-01-21 11:19:46.90	245.57	25.31	-46.4	-49.0	17.4	0.00e+00	0	39	0	425721856	63	5146
2026-01-21 11:19:48.12	245.91	25.38	-46.5	-49.1	17.2	0.00e+00	0	39	0	427819008	63	5207
2026-01-21 11:19:48.97	246.15	25.43	-46.5	-49.2	17.2	0.00e+00	0	38	0	428867584	63	5224
2026-01-21 11:19:50.11	246.47	25.50	-46.5	-49.1	17.3	0.00e+00	0	39	0	432013312	63	5210
2026-01-21 11:19:50.96	246.71	25.55	-46.5	-49.2	17.2	0.00e+00	0	38	0	433061888	63	5227
2026-01-21 11:19:52.10	247.03	25.61	-46.4	-49.1	17.3	0.00e+00	0	39	0	435159040	63	5187
2026-01-21 11:19:52.95	247.27	25.66	-46.5	-49.2	17.2	0.00e+00	0	38	0	437256192	63	5242
2026-01-21 11:19:54.09	247.59	25.72	-46.5	-49.2	17.1	0.00e+00	0	39	0	439353344	63	5252
2026-01-21 11:19:55.02	247.85	25.77	-46.6	-49.3	17.1	0.00e+00	0	39	0	440401920	63	5324
2026-01-21 11:19:56.01	248.13	25.83	-46.6	-49.3	17.0	0.00e+00	0	39	0	442499072	64	5032
2026-01-21 11:19:57.00	248.42	25.88	-46.8	-49.6	16.7	0.00e+00	0	39	0	444596224	64	5215
2026-01-21 11:19:58.00	248.70	25.93	-46.8	-49.7	16.7	0.00e+00	0	39	0	446693376	64	5225
2026-01-21 11:19:58.99	248.99	25.99	-46.9	-49.8	16.5	0.00e+00	0	39	0	447741952	64	5333
2026-01-21 11:19:59.99	249.28	26.04	-47.1	-50.0	16.3	0.00e+00	0	39	0	449839104	64	5454
2026-01-21 11:20:00.98	249.56	26.09	-47.1	-50.1	16.2	0.00e+00	0	39	0	451936256	65	5194
2026-01-21 11:20:01.98	249.86	26.14	-47.3	-50.3	16.1	0.00e+00	0	39	0	454033408	65	5288
2026-01-21 11:20:02.97	250.14	26.19	-47.3	-50.3	16.1	0.00e+00	0	39	0	455081984	65	5303
2026-01-21 11:20:03.97	250.44	26.24	-47.4	-50.5	15.9	0.00e+00	0	39	0	457179136	65	5413
2026-01-21 11:20:04.96	250.73	26.28	-47.5	-50.6	15.7	0.00e+00	0	39	0	459276288	65	5500
2026-01-21 11:20:05.96	251.02	26.33	-47.5	-50.6	15.7	0.00e+00	0	39	0	461373440	65	5524
2026-01-21 11:20:06.95	251.31	26.38	-47.6	-50.8	15.5	0.00e+00	0	39	0	463470592	65	5642
2026-01-21 11:20:07.95	251.61	26.43	-47.7	-50.9	15.5	0.00e+00	0	39	0	464519168	66	5393
2026-01-21 11:20:08.94	251.90	26.47	-47.7	-51.0	15.4	0.00e+00	0	38	0	466616320	66	5406
2026-01-21 11:20:09.94	252.20	26.51	-47.7	-50.8	15.5	0.00e+00	0	39	0	468713472	66	5339
2026-01-21 11:20:10.93	252.49	26.56	-47.5	-50.6	15.7	0.00e+00	0	39	0	470810624	66	5179
2026-01-21 11:20:11.93	252.79	26.60	-47.5	-50.6	15.8	0.00e+00	0	39	0	471859200	66	5188
2026-01-21 11:20:12.92	253.09	26.64	-47.4	-50.5	15.9	0.00e+00	0	38	0	473956352	66	5151
2026-01-21 11:20:13.92	253.39	26.69	-47.4	-50.5	15.9	0.00e+00	0	39	0	476053504	66	5126
2026-01-21 11:20:14.91	253.69	26.73	-47.4	-50.4	15.9	0.00e+00	0	39	0	478150656	66	5092
2026-01-21 11:20:15.91	253.99	26.77	-47.4	-50.5	15.9	0.00e+00	0	39	0	480247808	66	5138
2026-01-21 11:20:16.90	254.29	26.81	-47.5	-50.6	15.8	0.00e+00	0	39	0	481296384	66	5214
2026-01-21 11:20:17.90	254.59	26.84	-47.7	-50.8	15.6	0.00e+00	0	39	0	483393536	66	5327
2026-01-21 11:20:18.89	254.90	26.88	-47.6	-50.8	15.5	0.00e+00	0	39	0	485490688	66	5333
2026-01-21 11:20:19.89	255.20	26.92	-47.8	-51.0	15.4	0.00e+00	0	39	0	487587840	66	5446
2026-01-21 11:20:20.96	255.53	26.96	-47.8	-51.1	15.2	0.00e+00	0	39	0	489684992	66	5501
2026-01-21 11:20:21.81	255.79	26.99	-47.8	-51.1	15.3	0.00e+00	0	39	0	490733568	66	5492
2026-01-21 11:20:22.95	256.14	27.03	-48.0	-51.3	15.1	0.00e+00	0	39	0	492830720	66	5645
2026-01-21 11:20:23.80	256.40	27.06	-47.9	-51.2	15.1	0.00e+00	0	39	0	494927872	66	5584
2026-01-21 11:20:24.94	256.75	27.09	-47.9	-51.2	15.2	0.00e+00	0	39	0	497025024	66	5540
2026-01-21 11:20:25.79	257.01	27.12	-47.9	-51.2	15.2	0.00e+00	0	39	0	498073600	66	5567
2026-01-21 11:20:26.92	257.36	27.16	-47.8	-51.0	15.3	0.00e+00	0	39	0	500170752	66	5463
2026-01-21 11:20:27.78	257.63	27.18	-47.8	-51.0	15.3	0.00e+00	0	39	0	502267904	66	5421
2026-01-21 11:20:28.91	257.98	27.22	-47.7	-50.9	15.4	0.00e+00	0	39	0	504365056	66	5389
2026-01-21 11:20:29.77	258.25	27.24	-47.6	-50.9	15.5	0.00e+00	0	39	0	505413632	66	5341
2026-01-21 11:20:30.90	258.60	27.27	-47.5	-50.7	15.7	0.00e+00	0	39	0	507510784	66	5241
2026-01-21 11:20:31.76	258.87	27.30	-47.3	-50.3	16.1	0.00e+00	0	39	0	509607936	66	5033
2026-01-21 11:20:33.00	259.26	27.33	-47.0	-49.9	16.5	0.00e+00	0	39	0	511705088	66	4770
2026-01-21 11:20:33.86	259.52	27.35	-46.9	-49.8	16.5	0.00e+00	0	39	0	513802240	65	5019
2026-01-21 11:20:34.99	259.88	27.38	-46.8	-49.6	16.8	0.00e+00	0	39	0	515899392	65	4903
2026-01-21 11:20:35.84	260.15	27.40	-46.9	-49.8	16.6	0.00e+00	0	39	0	516947968	65	4993
2026-01-21 11:20:36.98	260.50	27.42	-47.0	-50.0	16.4	0.00e+00	0	39	0	519045120	65	5114
2026-01-21 11:20:37.83	260.77	27.44	-47.2	-50.2	16.2	0.00e+00	0	39	0	521142272	65	5248
2026-01-21 11:20:38.97	261.13	27.47	-47.5	-50.7	15.7	0.00e+00	0	39	0	523239424	65	5541
2026-01-21 11:20:39.82	261.40	27.48	-47.7	-51.0	15.4	0.00e+00	0	39	0	524288000	66	5437
2026-01-21 11:20:40.96	261.76	27.50	-47.7	-51.0	15.3	0.00e+00	0	39	0	526385152	66	5458
2026-01-21 11:20:41.81	262.03	27.52	-47.7	-51.0	15.3	0.00e+00	0	39	0	528482304	66	5446
2026-01-21 11:20:42.95	262.39	27.54	-47.6	-50.8	15.5	0.00e+00	0	39	0	530579456	66	5305
2026-01-21 11:20:43.80	262.66	27.55	-47.6	-50.8	15.6	0.00e+00	0	39	0	531628032	66	5328
2026-01-21 11:20:44.94	263.02	27.57	-47.4	-50.6	15.9	0.00e+00	0	39	0	534773760	66	5160
2026-01-21 11:20:45.79	263.29	27.58	-47.3	-50.4	15.9	0.00e+00	0	39	0	535822336	66	5098
2026-01-21 11:20:46.93	263.65	27.60	-47.4	-50.5	15.8	0.00e+00	0	39	0	537919488	66	5156
2026-01-21 11:20:47.78	263.92	27.61	-47.4	-50.6	15.8	0.00e+00	0	39	0	540016640	66	5179
2026-01-21 11:20:49.01	264.32	27.62	-47.3	-50.4	15.9	0.00e+00	0	39	0	542113792	66	5096
2026-01-21 11:20:49.87	264.59	27.63	-47.4	-50.4	15.9	0.00e+00	0	39	0	543162368	66	5093
2026-01-21 11:20:51.08	264.98	27.64	-47.3	-50.3	16.1	0.00e+00	0	39	0	546308096	66	5033
2026-01-21 11:20:51.94	265.25	27.65	-47.3	-50.3	16.1	0.00e+00	0	39	0	547356672	66	5011
2026-01-21 11:20:53.07	265.61	27.66	-47.2	-50.1	16.3	0.00e+00	0	39	0	549453824	66	4894
2026-01-21 11:20:53.93	265.89	27.67	-47.2	-50.2	16.2	0.00e+00	0	39	0	551550976	66	4930
2026-01-21 11:20:55.07	266.25	27.67	-47.2	-50.2	16.2	0.00e+00	0	39	0	553648128	66	4974
2026-01-21 11:20:55.92	266.52	27.68	-47.0	-49.9	16.5	0.00e+00	0	39	0	554696704	66	4793
2026-01-21 11:20:57.06	266.88	27.68	-46.6	-49.4	17.0	0.00e+00	0	39	0	556793856	65	4777
2026-01-21 11:20:57.91	267.16	27.68	-46.5	-49.2	17.1	0.00e+00	0	39	0	558891008	64	4958
2026-01-21 11:20:59.04	267.52	27.69	-46.4	-49.0	17.3	0.00e+00	0	39	0	560988160	64	4859
2026-01-21 11:20:59.90	267.79	27.69	-46.4	-49.1	17.3	0.00e+00	0	39	0	562036736	64	4884
2026-01-21 11:21:01.03	268.15	27.69	-46.4	-49.1	17.3	0.00e+00	0	39	0	564133888	64	4893
2026-01-21 11:21:01.89	268.43	27.69	-46.5	-49.3	17.1	0.00e+00	0	39	0	566231040	64	4998
2026-01-21 11:21:03.02	268.79	27.69	-46.7	-49.5	16.9	0.00e+00	0	39	0	568328192	64	5133
2026-01-21 11:21:03.88	269.06	27.68	-46.8	-49.7	16.7	0.00e+00	0	39	0	569376768	64	5219
2026-01-21 11:21:05.01	269.43	27.68	-46.8	-49.7	16.7	0.00e+00	0	39	0	571473920	64	5237
2026-01-21 11:21:05.87	269.70	27.68	-46.7	-49.5	16.8	0.00e+00	0	39	0	573571072	64	5156
2026-01-21 11:21:07.01	270.06	27.67	-46.4	-49.1	17.2	0.00e+00	0	39	0	575668224	64	4911
2026-01-21 11:21:07.86	270.34	27.67	-46.1	-48.7	17.6	0.00e+00	0	39	0	577765376	64	4692
2026-01-21 11:21:09.00	270.70	27.66	-46.0	-48.6	17.7	0.00e+00	0	39	0	579862528	64	4641
2026-01-21 11:21:09.85	270.97	27.65	-46.1	-48.6	17.7	0.00e+00	0	39	0	580911104	63	4915
2026-01-21 11:21:10.99	271.33	27.64	-46.1	-48.7	17.7	0.00e+00	0	39	0	583008256	63	4972
2026-01-21 11:21:11.84	271.60	27.63	-46.3	-48.9	17.5	0.00e+00	0	39	0	585105408	63	5088
2026-01-21 11:21:12.98	271.97	27.62	-46.5	-49.2	17.3	0.00e+00	0	39	0	587202560	63	5225
2026-01-21 11:21:13.83	272.24	27.61	-46.6	-49.3	17.1	0.00e+00	0	39	0	588251136	63	5322
2026-01-21 11:21:14.97	272.60	27.59	-46.6	-49.3	17.1	0.00e+00	0	39	0	590348288	64	5002
2026-01-21 11:21:15.82	272.87	27.58	-46.5	-49.2	17.1	0.00e+00	0	39	0	592445440	64	4980
2026-01-21 11:21:16.96	273.23	27.57	-46.5	-49.3	17.0	0.00e+00	0	39	0	594542592	64	5012
2026-01-21 11:21:17.81	273.50	27.55	-46.6	-49.5	16.9	0.00e+00	0	39	0	595591168	64	5109
2026-01-21 11:21:18.96	273.87	27.53	-46.6	-49.4	16.9	0.00e+00	0	38	0	597688320	64	5079
2026-01-21 11:21:19.81	274.13	27.52	-46.6	-49.4	16.9	0.00e+00	0	39	0	599785472	64	5075
2026-01-21 11:21:20.98	274.50	27.50	-46.6	-49.4	16.9	0.00e+00	0	39	0	601882624	64	5091
2026-01-21 11:21:21.84	274.78	27.48	-46.8	-49.6	16.8	0.00e+00	0	39	0	602931200	64	5182
2026-01-21 11:21:22.97	275.13	27.46	-46.9	-49.7	16.6	0.00e+00	0	38	0	606076928	64	5254
2026-01-21 11:21:23.83	275.40	27.44	-47.0	-49.9	16.5	0.00e+00	0	39	0	607125504	64	5349
2026-01-21 11:21:24.96	275.76	27.42	-47.1	-50.0	16.4	0.00e+00	0	39	0	609222656	64	5449
2026-01-21 11:21:25.82	276.03	27.40	-47.1	-50.1	16.3	0.00e+00	0	39	0	611319808	64	5465
2026-01-21 11:21:27.16	276.45	27.36	-47.1	-50.0	16.4	0.00e+00	0	39	0	613416960	64	5419
2026-01-21 11:21:27.87	276.67	27.35	-47.1	-50.0	16.3	0.00e+00	0	39	0	614465536	65	5142
2026-01-21 11:21:29.15	277.07	27.31	-47.0	-49.9	16.5	0.00e+00	0	39	0	617611264	65	5060
2026-01-21 11:21:29.87	277.29	27.29	-46.9	-49.8	16.6	0.00e+00	0	39	0	618659840	65	5005
2026-01-21 11:21:31.14	277.69	27.26	-46.5	-49.2	17.2	0.00e+00	0	39	0	620756992	65	4668
2026-01-21 11:21:31.88	277.92	27.24	-46.3	-48.9	17.4	0.00e+00	0	39	0	621805568	64	4797
2026-01-21 11:21:33.16	278.32	27.20	-46.3	-49.0	17.4	0.00e+00	0	39	0	624951296	64	4836
2026-01-21 11:21:33.87	278.54	27.18	-46.5	-49.2	17.1	0.00e+00	0	39	0	625999872	64	4975
2026-01-21 11:21:35.15	278.93	27.14	-46.8	-49.6	16.7	0.00e+00	0	39	0	628097024	64	5216
2026-01-21 11:21:35.86	279.15	27.12	-46.8	-49.6	16.7	0.00e+00	0	39	0	630194176	64	5210
2026-01-21 11:21:37.14	279.55	27.08	-46.8	-49.6	16.8	0.00e+00	0	39	0	632291328	64	5211
2026-01-21 11:21:37.88	279.77	27.05	-46.9	-49.7	16.7	0.00e+00	0	39	0	633339904	64	5247
2026-01-21 11:21:39.16	280.17	27.01	-46.9	-49.7	16.6	0.00e+00	0	39	0	636485632	64	5262
2026-01-21 11:21:40.17	280.47	26.97	-46.8	-49.6	16.8	0.00e+00	0	39	0	637534208	64	5200
2026-01-21 11:21:41.45	280.87	26.93	-46.5	-49.2	17.1	0.00e+00	0	39	0	640679936	64	4977
2026-01-21 11:21:42.19	281.09	26.90	-46.5	-49.1	17.2	0.00e+00	0	39	0	641728512	64	4915
2026-01-21 11:21:43.47	281.48	26.85	-46.4	-49.0	17.4	0.00e+00	0	39	0	643825664	64	4859
2026-01-21 11:21:44.18	281.69	26.83	-46.4	-49.1	17.3	0.00e+00	0	39	0	644874240	64	4886
2026-01-21 11:21:45.82	282.19	26.76	-46.6	-49.3	17.1	0.00e+00	0	39	0	648019968	64	5011
2026-01-21 11:21:46.39	282.36	26.74	-46.5	-49.2	17.1	0.00e+00	0	39	0	649068544	64	4983
2026-01-21 11:21:48.10	282.88	26.67	-46.6	-49.4	17.0	0.00e+00	0	39	0	652214272	64	5046
2026-01-21 11:21:48.67	283.05	26.64	-46.6	-49.3	17.1	0.00e+00	0	39	0	654311424	64	5011
2026-01-21 11:21:50.37	283.55	26.57	-46.5	-49.2	17.2	0.00e+00	0	39	0	657457152	64	4938
2026-01-21 11:21:50.94	283.72	26.55	-46.4	-49.1	17.2	0.00e+00	0	39	0	658505728	64	4899
2026-01-21 11:21:52.65	284.23	26.47	-46.1	-48.7	17.6	0.00e+00	0	39	0	661651456	64	4681
2026-01-21 11:21:53.31	284.43	26.44	-46.1	-48.7	17.6	0.00e+00	0	39	0	662700032	64	4671
2026-01-21 11:21:54.73	284.85	26.38	-46.0	-48.6	17.8	0.00e+00	0	39	0	664797184	64	4618
2026-01-21 11:21:55.50	285.07	26.34	-46.0	-48.5	17.8	0.00e+00	0	39	0	666894336	64	4598
2026-01-21 11:21:56.78	285.45	26.28	-46.1	-48.6	17.7	0.00e+00	0	39	0	668991488	64	4651
2026-01-21 11:21:57.60	285.69	26.24	-46.0	-48.5	17.8	0.00e+00	0	39	0	670040064	64	4583
2026-01-21 11:21:59.02	286.10	26.17	-45.9	-48.4	18.0	0.00e+00	0	39	0	673185792	63	4779
2026-01-21 11:21:59.73	286.31	26.14	-45.7	-48.1	18.3	0.00e+00	0	39	0	674234368	63	4629
2026-01-21 11:22:01.28	286.75	26.06	-45.9	-48.3	18.1	0.00e+00	0	39	0	677380096	63	4745
2026-01-21 11:22:01.99	286.96	26.02	-45.9	-48.4	18.0	0.00e+00	0	39	0	678428672	63	4802
2026-01-21 11:22:03.27	287.33	25.95	-45.6	-48.0	18.3	0.00e+00	0	39	0	681574400	63	4595
2026-01-21 11:22:03.98	287.53	25.92	-45.7	-48.1	18.4	0.00e+00	0	39	0	682622976	63	4621
2026-01-21 11:22:05.26	287.90	25.85	-45.6	-48.1	18.3	0.00e+00	0	39	0	684720128	63	4607
2026-01-21 11:22:05.99	288.10	25.81	-45.2	-47.6	18.8	0.00e+00	0	39	0	685768704	62	4623
2026-01-21 11:22:07.26	288.46	25.74	-45.3	-47.7	18.7	0.00e+00	0	39	0	688914432	62	4670
2026-01-21 11:22:07.97	288.66	25.70	-45.3	-47.6	18.8	0.00e+00	0	39	0	689963008	62	4633
2026-01-21 11:22:09.27	289.03	25.63	-45.6	-48.0	18.4	0.00e+00	0	39	0	692060160	62	4832
2026-01-21 11:22:09.98	289.23	25.59	-45.6	-48.0	18.4	0.00e+00	0	39	0	694157312	62	4831
2026-01-21 11:22:11.27	289.59	25.52	-45.5	-47.9	18.5	0.00e+00	0	39	0	696254464	62	4802
2026-01-21 11:22:11.99	289.79	25.47	-45.5	-47.9	18.4	0.00e+00	0	39	0	697303040	62	4791
2026-01-21 11:22:13.26	290.14	25.40	-45.2	-47.5	18.8	0.00e+00	0	39	0	699400192	62	4596
2026-01-21 11:22:14.10	290.37	25.35	-45.1	-47.5	18.9	0.00e+00	0	39	0	701497344	62	4562
2026-01-21 11:22:15.24	290.69	25.28	-45.3	-47.7	18.7	0.00e+00	0	39	0	703594496	62	4691
2026-01-21 11:22:16.09	290.92	25.23	-45.2	-47.6	18.7	0.00e+00	0	39	0	704643072	62	4650
2026-01-21 11:22:17.23	291.23	25.17	-45.4	-47.8	18.6	0.00e+00	0	39	0	707788800	62	4737
2026-01-21 11:22:18.08	291.47	25.11	-45.6	-48.1	18.3	0.00e+00	0	39	0	708837376	62	4888
2026-01-21 11:22:19.21	291.77	25.04	-45.6	-48.2	18.2	0.00e+00	0	39	0	710934528	62	4929
2026-01-21 11:22:20.07	292.00	24.99	-45.5	-47.9	18.5	0.00e+00	0	39	0	713031680	62	4786
2026-01-21 11:22:21.20	292.31	24.92	-45.3	-47.7	18.7	0.00e+00	0	39	0	715128832	62	4681
2026-01-21 11:22:22.39	292.63	24.85	-45.3	-47.6	18.7	0.00e+00	0	39	0	717225984	62	4648
2026-01-21 11:22:23.41	292.90	24.78	-45.1	-47.4	19.0	0.00e+00	0	39	0	719323136	62	4503
2026-01-21 11:22:24.41	293.17	24.72	-45.0	-47.3	19.0	0.00e+00	0	39	0	720371712	61	4718
2026-01-21 11:22:25.41	293.43	24.65	-45.0	-47.3	19.0	0.00e+00	0	39	0	722468864	61	4744
2026-01-21 11:22:26.40	293.69	24.59	-45.0	-47.3	19.0	0.00e+00	0	39	0	724566016	61	4730
2026-01-21 11:22:27.40	293.96	24.52	-45.1	-47.4	19.0	0.00e+00	0	39	0	726663168	61	4780
2026-01-21 11:22:28.39	294.21	24.46	-45.3	-47.6	18.7	0.00e+00	0	39	0	727711744	61	4919
2026-01-21 11:22:29.39	294.47	24.39	-45.3	-47.6	18.7	0.00e+00	0	39	0	729808896	61	4899
2026-01-21 11:22:30.39	294.73	24.33	-45.4	-47.8	18.6	0.00e+00	0	39	0	731906048	61	5016
2026-01-21 11:22:31.38	294.99	24.26	-45.6	-48.0	18.4	0.00e+00	0	39	0	734003200	61	5124
2026-01-21 11:22:32.37	295.24	24.19	-45.8	-48.2	18.2	0.00e+00	0	39	0	736100352	62	4974
2026-01-21 11:22:33.37	295.50	24.13	-46.0	-48.5	17.9	0.00e+00	0	39	0	737148928	62	5135
2026-01-21 11:22:34.37	295.76	24.06	-46.0	-48.5	17.9	0.00e+00	0	39	0	739246080	62	5159
2026-01-21 11:22:35.36	296.01	23.99	-46.0	-48.5	17.9	0.00e+00	0	39	0	741343232	62	5115
2026-01-21 11:22:36.36	296.26	23.92	-45.8	-48.3	18.1	0.00e+00	0	39	0	743440384	62	5001
2026-01-21 11:22:37.43	296.53	23.85	-45.7	-48.2	18.2	0.00e+00	0	39	0	745537536	62	4931
2026-01-21 11:22:38.32	296.75	23.78	-45.6	-48.1	18.3	0.00e+00	0	39	0	746586112	62	4885
2026-01-21 11:22:39.45	297.03	23.70	-45.6	-48.0	18.3	0.00e+00	0	39	0	748683264	62	4843
2026-01-21 11:22:40.31	297.25	23.64	-45.6	-48.0	18.4	0.00e+00	0	39	0	750780416	62	4844
2026-01-21 11:22:41.44	297.53	23.56	-45.6	-48.1	18.3	0.00e+00	0	39	0	752877568	62	4904
2026-01-21 11:22:42.29	297.74	23.50	-45.7	-48.2	18.2	0.00e+00	0	39	0	753926144	62	4947
2026-01-21 11:22:43.43	298.02	23.42	-45.8	-48.4	18.0	0.00e+00	0	39	0	756023296	62	5054
2026-01-21 11:22:44.28	298.22	23.36	-45.8	-48.3	18.1	0.00e+00	0	39	0	758120448	62	5004
2026-01-21 11:22:45.42	298.50	23.28	-45.9	-48.4	18.0	0.00e+00	0	39	0	760217600	62	5084
2026-01-21 11:22:46.27	298.71	23.22	-46.0	-48.6	17.8	0.00e+00	0	39	0	761266176	62	5169
2026-01-21 11:22:47.41	298.98	23.13	-46.1	-48.7	17.7	0.00e+00	0	39	0	764411904	62	5231
2026-01-21 11:22:48.26	299.19	23.07	-46.1	-48.7	17.7	0.00e+00	0	39	0	765460480	62	5257
2026-01-21 11:22:49.40	299.46	22.99	-46.0	-48.6	17.8	0.00e+00	0	39	0	767557632	62	5187
2026-01-21 11:22:50.25	299.66	22.92	-45.9	-48.5	17.9	0.00e+00	0	39	0	769654784	62	5103
2026-01-21 11:22:51.42	299.94	22.84	-45.8	-48.4	18.0	0.00e+00	0	39	0	771751936	62	5061
2026-01-21 11:22:52.27	300.14	22.78	-45.8	-48.3	18.0	0.00e+00	0	39	0	772800512	62	5028
2026-01-21 11:22:53.47	300.42	22.69	-45.7	-48.2	18.2	0.00e+00	0	39	0	774897664	62	4962
2026-01-21 11:22:54.33	300.62	22.62	-45.6	-48.1	18.3	0.00e+00	0	39	0	776994816	62	4884
2026-01-21 11:22:55.46	300.88	22.54	-45.8	-48.3	18.1	0.00e+00	0	39	0	779091968	62	4987
2026-01-21 11:22:56.32	301.08	22.47	-45.8	-48.4	18.0	0.00e+00	0	39	0	780140544	62	5043
2026-01-21 11:22:57.45	301.34	22.39	-45.9	-48.4	18.0	0.00e+00	0	39	0	783286272	62	5091
2026-01-21 11:22:58.31	301.53	22.32	-45.9	-48.4	17.9	0.00e+00	0	39	0	784334848	62	5087
2026-01-21 11:22:59.44	301.79	22.24	-45.9	-48.4	17.9	0.00e+00	0	39	0	786432000	62	5097
2026-01-21 11:23:00.39	302.01	22.16	-45.8	-48.4	18.0	0.00e+00	0	39	0	788529152	62	5049
2026-01-21 11:23:01.39	302.23	22.09	-45.9	-48.4	18.0	0.00e+00	0	39	0	789577728	62	5063
2026-01-21 11:23:02.39	302.46	22.01	-46.0	-48.5	17.9	0.00e+00	0	39	0	791674880	62	5135
2026-01-21 11:23:03.38	302.68	21.93	-46.0	-48.5	17.8	0.00e+00	0	39	0	793772032	62	5144
2026-01-21 11:23:04.38	302.90	21.86	-46.0	-48.6	17.8	0.00e+00	0	39	0	795869184	62	5173
2026-01-21 11:23:05.37	303.12	21.78	-46.0	-48.6	17.8	0.00e+00	0	39	0	797966336	62	5176
2026-01-21 11:23:06.37	303.34	21.70	-45.7	-48.2	18.2	0.00e+00	0	39	0	799014912	62	4943
2026-01-21 11:23:07.36	303.55	21.63	-45.5	-48.0	18.4	0.00e+00	0	39	0	801112064	62	4816
2026-01-21 11:23:08.36	303.77	21.55	-45.5	-48.0	18.4	0.00e+00	0	39	0	803209216	62	4835
2026-01-21 11:23:09.35	303.99	21.47	-45.6	-48.0	18.3	0.00e+00	0	39	0	805306368	62	4855
2026-01-21 11:23:10.34	304.20	21.39	-45.6	-48.1	18.2	0.00e+00	0	39	0	807403520	62	4908
2026-01-21 11:23:11.34	304.42	21.32	-45.8	-48.2	18.1	0.00e+00	0	39	0	808452096	62	4977
2026-01-21 11:23:12.34	304.63	21.24	-45.9	-48.5	17.9	0.00e+00	0	39	0	810549248	62	5117
2026-01-21 11:23:13.33	304.84	21.16	-45.9	-48.4	17.9	0.00e+00	0	39	0	812646400	62	5097
2026-01-21 11:23:14.33	305.05	21.08	-45.9	-48.4	18.0	0.00e+00	0	39	0	814743552	62	5078
2026-01-21 11:23:15.32	305.26	21.00	-45.8	-48.4	18.0	0.00e+00	0	39	0	815792128	62	5056
2026-01-21 11:23:16.32	305.47	20.92	-45.8	-48.4	18.0	0.00e+00	0	39	0	817889280	62	5053
2026-01-21 11:23:17.32	305.68	20.84	-46.0	-48.6	17.8	0.00e+00	0	39	0	819986432	62	5162
2026-01-21 11:23:18.31	305.88	20.77	-46.2	-48.8	17.6	0.00e+00	0	39	0	822083584	62	5303
2026-01-21 11:23:19.30	306.09	20.69	-46.6	-49.3	17.1	0.00e+00	0	39	0	824180736	63	5338
2026-01-21 11:23:20.30	306.29	20.61	-46.9	-49.8	16.5	0.00e+00	0	39	0	825229312	64	5317
2026-01-21 11:23:21.29	306.49	20.53	-47.0	-50.0	16.3	0.00e+00	0	39	0	827326464	64	5442
2026-01-21 11:23:22.29	306.70	20.45	-47.1	-50.1	16.2	0.00e+00	0	39	0	829423616	64	5504
2026-01-21 11:23:23.29	306.90	20.37	-46.8	-49.7	16.6	0.00e+00	0	39	0	831520768	64	5248
2026-01-21 11:23:24.28	307.10	20.29	-46.6	-49.4	16.9	0.00e+00	0	39	0	832569344	64	5050
2026-01-21 11:23:25.28	307.30	20.21	-46.5	-49.2	17.1	0.00e+00	0	39	0	834666496	64	4973
2026-01-21 11:23:26.27	307.49	20.13	-46.4	-49.1	17.2	0.00e+00	0	39	0	836763648	64	4923
2026-01-21 11:23:27.27	307.69	20.05	-46.3	-49.0	17.4	0.00e+00	0	39	0	838860800	64	4822
2026-01-21 11:23:28.26	307.89	19.97	-46.5	-49.3	17.0	0.00e+00	0	39	0	840957952	64	5018
2026-01-21 11:23:29.34	308.10	19.89	-46.9	-49.7	16.6	0.00e+00	0	39	0	842006528	64	5272
2026-01-21 11:23:30.22	308.27	19.81	-46.9	-49.8	16.5	0.00e+00	0	39	0	844103680	64	5312
2026-01-21 11:23:31.36	308.49	19.72	-46.9	-49.8	16.5	0.00e+00	0	39	0	846200832	64	5308
2026-01-21 11:23:32.21	308.66	19.65	-46.8	-49.7	16.6	0.00e+00	0	39	0	848297984	64	5219
2026-01-21 11:23:33.35	308.88	19.56	-46.4	-49.1	17.2	0.00e+00	0	39	0	850395136	64	4900
2026-01-21 11:23:34.20	309.04	19.49	-46.2	-48.8	17.4	0.00e+00	0	39	0	851443712	64	4753
2026-01-21 11:23:35.34	309.25	19.40	-46.1	-48.6	17.7	0.00e+00	0	39	0	853540864	63	4924
2026-01-21 11:23:36.19	309.41	19.33	-46.1	-48.7	17.6	0.00e+00	0	39	0	855638016	63	4954
2026-01-21 11:23:37.33	309.63	19.24	-46.3	-49.0	17.3	0.00e+00	0	39	0	857735168	63	5118
2026-01-21 11:23:38.18	309.79	19.17	-46.4	-49.2	17.1	0.00e+00	0	39	0	858783744	63	5250
2026-01-21 11:23:39.32	310.00	19.08	-46.7	-49.6	16.8	0.00e+00	0	39	0	860880896	63	5488
2026-01-21 11:23:40.17	310.16	19.01	-46.6	-49.6	16.7	0.00e+00	0	39	0	862978048	64	5179
2026-01-21 11:23:41.31	310.37	18.92	-46.4	-49.3	16.9	0.00e+00	0	39	0	865075200	64	5020
2026-01-21 11:23:42.16	310.52	18.85	-46.1	-48.9	17.3	0.00e+00	0	39	0	866123776	64	4786
2026-01-21 11:23:43.39	310.75	18.75	-46.0	-48.7	17.6	0.00e+00	0	39	0	869269504	63	4971
2026-01-21 11:23:44.24	310.90	18.68	-46.1	-48.7	17.6	0.00e+00	0	39	0	870318080	63	4982
2026-01-21 11:23:45.38	311.11	18.59	-46.2	-48.9	17.4	0.00e+00	0	39	0	872415232	63	5049
2026-01-21 11:23:46.23	311.26	18.52	-46.3	-49.0	17.3	0.00e+00	0	39	0	874512384	63	5148
2026-01-21 11:23:47.37	311.46	18.43	-46.6	-49.5	16.8	0.00e+00	0	39	0	876609536	64	5136
2026-01-21 11:23:48.22	311.62	18.36	-46.9	-49.9	16.4	0.00e+00	0	39	0	877658112	64	5354
2026-01-21 11:23:49.36	311.82	18.27	-47.0	-50.0	16.3	0.00e+00	0	39	0	879755264	64	5438
2026-01-21 11:23:50.21	311.97	18.20	-47.0	-50.1	16.2	0.00e+00	0	39	0	881852416	64	5465
2026-01-21 11:23:51.35	312.17	18.11	-46.6	-49.4	16.9	0.00e+00	0	39	0	883949568	64	5046
2026-01-21 11:23:52.20	312.31	18.04	-46.3	-49.0	17.2	0.00e+00	0	39	0	884998144	64	4831
2026-01-21 11:23:53.34	312.51	17.95	-46.1	-48.8	17.5	0.00e+00	0	39	0	887095296	64	4707
2026-01-21 11:23:54.20	312.66	17.88	-46.0	-48.6	17.6	0.00e+00	0	39	0	889192448	63	4915
2026-01-21 11:23:55.33	312.85	17.79	-45.6	-48.1	18.1	0.00e+00	0	39	0	891289600	63	4646
2026-01-21 11:23:56.18	313.00	17.72	-45.8	-48.4	17.9	0.00e+00	0	39	0	892338176	63	4802
2026-01-21 11:23:57.32	313.19	17.63	-46.2	-48.9	17.4	0.00e+00	0	39	0	895483904	63	5053
2026-01-21 11:23:58.17	313.33	17.56	-46.5	-49.3	17.0	0.00e+00	0	39	0	896532480	63	5291
2026-01-21 11:23:59.31	313.53	17.47	-46.9	-49.9	16.3	0.00e+00	0	39	0	898629632	64	5383
2026-01-21 11:24:00.16	313.67	17.40	-47.1	-50.3	16.0	0.00e+00	0	39	0	900726784	64	5616
2026-01-21 11:24:01.30	313.86	17.31	-47.2	-50.3	15.9	0.00e+00	0	39	0	902823936	64	5651
2026-01-21 11:24:02.15	314.00	17.24	-47.1	-50.2	16.1	0.00e+00	0	39	0	903872512	64	5533
2026-01-21 11:24:03.29	314.19	17.15	-46.8	-49.7	16.5	0.00e+00	0	39	0	905969664	64	5270
2026-01-21 11:24:04.14	314.32	17.08	-46.7	-49.7	16.6	0.00e+00	0	39	0	908066816	64	5240
2026-01-21 11:24:05.28	314.51	16.99	-46.5	-49.4	16.8	0.00e+00	0	39	0	910163968	64	5099
2026-01-21 11:24:06.14	314.65	16.92	-46.4	-49.2	17.0	0.00e+00	0	39	0	911212544	64	4963
2026-01-21 11:24:07.48	314.86	16.81	-46.3	-49.1	17.1	0.00e+00	0	39	0	914358272	64	4899
2026-01-21 11:24:08.19	314.98	16.75	-46.4	-49.2	17.0	0.00e+00	0	39	0	915406848	64	4967
2026-01-21 11:24:09.67	315.21	16.63	-46.4	-49.2	17.0	0.00e+00	0	39	0	918552576	64	4982
2026-01-21 11:24:10.63	315.37	16.56	-46.4	-49.2	17.0	0.00e+00	0	39	0	919601152	64	4955
2026-01-21 11:24:11.95	315.57	16.45	-46.4	-49.2	17.0	0.00e+00	0	39	0	922746880	64	4972
2026-01-21 11:24:12.65	315.68	16.40	-46.3	-49.1	17.1	0.00e+00	0	39	0	923795456	64	4916
2026-01-21 11:24:13.95	315.89	16.29	-46.3	-49.0	17.2	0.00e+00	0	39	0	925892608	64	4849
2026-01-21 11:24:14.66	316.00	16.24	-46.3	-49.1	17.1	0.00e+00	0	39	0	927989760	64	4881
2026-01-21 11:24:15.94	316.19	16.13	-46.0	-48.7	17.5	0.00e+00	0	39	0	930086912	64	4675
2026-01-21 11:24:16.65	316.30	16.08	-46.0	-48.7	17.4	0.00e+00	0	39	0	931135488	64	4691
2026-01-21 11:24:17.93	316.50	15.98	-46.1	-48.9	17.4	0.00e+00	0	39	0	933232640	63	5098
2026-01-21 11:24:18.64	316.60	15.92	-46.1	-48.9	17.4	0.00e+00	0	39	0	935329792	63	5084
2026-01-21 11:24:19.92	316.80	15.82	-46.3	-49.3	17.0	0.00e+00	0	39	0	937426944	63	5319
2026-01-21 11:24:20.63	316.90	15.76	-46.3	-49.4	17.0	0.00e+00	0	39	0	938475520	63	5346
2026-01-21 11:24:22.10	317.12	15.64	-46.4	-49.5	16.8	0.00e+00	0	39	0	941621248	63	5429
2026-01-21 11:24:22.81	317.23	15.59	-46.4	-49.5	16.8	0.00e+00	0	39	0	942669824	63	5420
2026-01-21 11:24:24.15	317.43	15.48	-46.4	-49.4	16.9	0.00e+00	0	39	0	945815552	63	5395
2026-01-21 11:24:24.86	317.53	15.43	-46.4	-49.3	17.0	0.00e+00	0	39	0	946864128	63	5316
2026-01-21 11:24:26.21	317.73	15.32	-46.2	-49.0	17.3	0.00e+00	0	39	0	948961280	63	5126
2026-01-21 11:24:26.92	317.83	15.26	-46.3	-49.1	17.2	0.00e+00	0	39	0	950009856	63	5192
2026-01-21 11:24:28.20	318.02	15.16	-46.2	-48.9	17.4	0.00e+00	0	39	0	953155584	63	5065
2026-01-21 11:24:28.91	318.12	15.11	-46.2	-48.9	17.4	0.00e+00	0	39	0	954204160	63	5070
2026-01-21 11:24:30.19	318.30	15.01	-46.2	-48.9	17.3	0.00e+00	0	39	0	956301312	63	5097
2026-01-21 11:24:30.90	318.40	14.95	-46.3	-49.1	17.2	0.00e+00	0	39	0	958398464	63	5191
2026-01-21 11:24:32.18	318.58	14.85	-46.3	-49.1	17.2	0.00e+00	0	39	0	960495616	63	5160
2026-01-21 11:24:32.89	318.68	14.79	-46.4	-49.2	17.1	0.00e+00	0	39	0	961544192	63	5239
2026-01-21 11:24:34.17	318.86	14.69	-46.4	-49.2	17.1	0.00e+00	0	39	0	963641344	63	5251
2026-01-21 11:24:34.91	318.97	14.64	-46.4	-49.2	17.1	0.00e+00	0	39	0	965738496	63	5259
2026-01-21 11:24:36.19	319.14	14.54	-46.3	-49.1	17.2	0.00e+00	0	39	0	967835648	63	5194
2026-01-21 11:24:36.91	319.24	14.48	-46.3	-49.2	17.1	0.00e+00	0	39	0	968884224	63	5224
2026-01-21 11:24:38.18	319.42	14.38	-46.4	-49.3	17.0	0.00e+00	0	39	0	972029952	63	5303
2026-01-21 11:24:38.97	319.53	14.32	-46.2	-49.1	17.2	0.00e+00	0	39	0	973078528	63	5165
2026-01-21 11:24:40.17	319.69	14.23	-46.1	-48.9	17.4	0.00e+00	0	39	0	975175680	63	5058
2026-01-21 11:24:41.02	319.81	14.16	-46.1	-48.9	17.4	0.00e+00	0	39	0	977272832	63	5052
2026-01-21 11:24:42.16	319.96	14.07	-46.2	-49.0	17.3	0.00e+00	0	39	0	979369984	63	5120
2026-01-21 11:24:43.01	320.07	14.01	-46.2	-49.0	17.3	0.00e+00	0	39	0	980418560	63	5114
2026-01-21 11:24:44.15	320.22	13.92	-46.2	-49.1	17.2	0.00e+00	0	39	0	982515712	63	5173
2026-01-21 11:24:45.00	320.34	13.85	-46.1	-48.9	17.3	0.00e+00	0	39	0	984612864	63	5060
2026-01-21 11:24:46.14	320.49	13.77	-46.1	-48.9	17.4	0.00e+00	0	39	0	986710016	63	5067
2026-01-21 11:24:46.99	320.60	13.70	-46.2	-49.0	17.2	0.00e+00	0	39	0	987758592	63	5136
2026-01-21 11:24:48.13	320.75	13.61	-46.2	-49.1	17.1	0.00e+00	0	39	0	989855744	63	5197
2026-01-21 11:24:48.98	320.86	13.55	-46.4	-49.3	17.0	0.00e+00	0	39	0	991952896	63	5301
2026-01-21 11:24:50.12	321.01	13.46	-46.4	-49.3	16.9	0.00e+00	0	39	0	994050048	63	5332
2026-01-21 11:24:50.97	321.12	13.40	-46.4	-49.4	16.9	0.00e+00	0	39	0	995098624	63	5347
2026-01-21 11:24:52.11	321.26	13.31	-46.5	-49.5	16.8	0.00e+00	0	39	0	998244352	63	5403
2026-01-21 11:24:53.01	321.38	13.24	-46.6	-49.6	16.7	0.00e+00	0	39	0	999292928	63	5477
2026-01-21 11:24:54.10	321.51	13.16	-46.5	-49.5	16.7	0.00e+00	0	39	0	1001390080	63	5464
2026-01-21 11:24:54.95	321.62	13.09	-46.5	-49.4	16.8	0.00e+00	0	39	0	1003487232	63	5385
2026-01-21 11:24:56.08	321.76	13.01	-46.6	-49.6	16.6	0.00e+00	0	39	0	1005584384	63	5524
2026-01-21 11:24:56.94	321.87	12.94	-46.5	-49.5	16.7	0.00e+00	0	39	0	1006632960	63	5448
2026-01-21 11:24:58.07	322.01	12.86	-46.6	-49.6	16.5	0.00e+00	0	39	0	1008730112	64	5208
2026-01-21 11:24:59.18	322.15	12.77	-46.6	-49.7	16.5	0.00e+00	0	39	0	1010827264	64	5224
2026-01-21 11:25:00.20	322.27	12.70	-46.5	-49.4	16.7	0.00e+00	0	39	0	1012924416	64	5083
2026-01-21 11:25:01.37	322.42	12.61	-46.6	-49.6	16.5	0.00e+00	0	39	0	1015021568	64	5187
2026-01-21 11:25:02.22	322.52	12.55	-46.7	-49.7	16.4	0.00e+00	0	39	0	1017118720	64	5241
2026-01-21 11:25:03.36	322.66	12.46	-46.8	-49.8	16.4	0.00e+00	0	39	0	1019215872	64	5287
2026-01-21 11:25:04.21	322.76	12.40	-46.7	-49.6	16.4	0.00e+00	0	39	0	1020264448	64	5211
2026-01-21 11:25:05.35	322.90	12.31	-46.6	-49.6	16.5	0.00e+00	0	39	0	1022361600	64	5176
2026-01-21 11:25:06.20	323.00	12.25	-46.7	-49.7	16.4	0.00e+00	0	39	0	1024458752	64	5235
2026-01-21 11:25:07.67	323.18	12.14	-46.5	-49.5	16.6	0.00e+00	0	39	0	1026555904	64	5131
2026-01-21 11:25:08.38	323.26	12.09	-46.6	-49.6	16.5	0.00e+00	0	39	0	1028653056	64	5188
2026-01-21 11:25:09.67	323.41	11.99	-46.4	-49.5	16.6	0.00e+00	0	39	0	1030750208	64	5117
2026-01-21 11:25:10.39	323.49	11.94	-46.4	-49.5	16.6	0.00e+00	0	39	0	1031798784	64	5150
2026-01-21 11:25:11.67	323.64	11.84	-46.2	-49.4	16.6	0.00e+00	0	39	0	1033895936	64	5099
2026-01-21 11:25:12.38	323.73	11.79	-46.2	-49.4	16.7	0.00e+00	0	39	0	1035993088	64	5079
2026-01-21 11:25:13.66	323.87	11.69	-46.3	-49.6	16.5	0.00e+00	0	39	0	1038090240	64	5180
2026-01-21 11:25:14.48	323.97	11.63	-46.3	-49.6	16.4	0.00e+00	0	39	0	1039138816	64	5199
2026-01-21 11:25:15.62	324.10	11.55	-46.4	-49.7	16.4	0.00e+00	0	39	0	1042284544	64	5248
2026-01-21 11:25:16.47	324.19	11.49	-46.5	-49.9	16.2	0.00e+00	0	39	0	1043333120	64	5381
2026-01-21 11:25:17.61	324.32	11.40	-46.6	-50.1	16.0	0.00e+00	0	39	0	1045430272	64	5501
2026-01-21 11:25:18.47	324.42	11.34	-46.7	-50.2	15.9	0.00e+00	0	39	0	1047527424	64	5541
2026-01-21 11:25:19.60	324.55	11.26	-46.9	-50.4	15.6	0.00e+00	0	39	0	1049624576	64	5712
2026-01-21 11:25:20.82	324.68	11.17	-46.9	-50.4	15.6	0.00e+00	0	39	0	1051721728	64	5722
2026-01-21 11:25:21.68	324.78	11.11	-47.1	-50.7	15.4	0.00e+00	0	39	0	1052770304	64	5865
2026-01-21 11:25:22.81	324.90	11.03	-47.1	-50.8	15.3	0.00e+00	0	39	0	1054867456	64	5952
2026-01-21 11:25:23.67	325.00	10.96	-47.2	-50.9	15.2	0.00e+00	0	39	0	1056964608	65	5681
2026-01-21 11:25:24.80	325.12	10.88	-47.3	-51.2	14.9	0.00e+00	0	39	0	1059061760	65	5870
2026-01-21 11:25:25.66	325.21	10.82	-47.4	-51.3	14.7	0.00e+00	0	39	0	1061158912	65	5985
2026-01-21 11:25:26.79	325.34	10.74	-47.4	-51.5	14.6	0.00e+00	0	39	0	1062207488	65	6064
2026-01-21 11:25:27.65	325.43	10.68	-47.4	-51.4	14.6	7.00e-07	0	39	0	1064304640	65	6031
2026-01-21 11:25:28.78	325.55	10.60	-47.3	-51.3	14.7	0.00e+00	0	39	0	1066401792	65	5960
2026-01-21 11:25:29.64	325.64	10.53	-47.3	-51.4	14.7	7.00e-07	0	39	0	1068498944	65	5996
2026-01-21 11:25:30.96	325.78	10.44	-47.2	-51.2	14.8	0.00e+00	0	39	0	1070596096	65	5885
2026-01-21 11:25:31.67	325.86	10.39	-47.1	-51.1	14.9	0.00e+00	0	39	0	1071644672	65	5810
2026-01-21 11:25:33.15	326.01	10.28	-47.1	-51.1	14.9	0.00e+00	0	39	0	1074790400	65	5848
2026-01-21 11:25:33.87	326.09	10.23	-47.2	-51.2	14.8	0.00e+00	0	39	0	1075838976	65	5876
2026-01-21 11:25:35.21	326.23	10.14	-47.1	-51.0	15.0	0.00e+00	0	39	0	1078984704	65	5729
2026-01-21 11:25:35.92	326.30	10.09	-47.2	-51.1	14.9	0.00e+00	0	39	0	1080033280	65	5827
2026-01-21 11:25:37.26	326.44	9.99	-47.3	-51.0	15.0	0.00e+00	0	39	0	1082130432	65	5772
2026-01-21 11:25:37.97	326.51	9.94	-47.5	-51.1	14.8	0.00e+00	0	39	0	1084227584	65	5838
2026-01-21 11:25:39.25	326.64	9.85	-47.6	-51.2	14.8	0.00e+00	0	39	0	1086324736	65	5888
2026-01-21 11:25:39.96	326.72	9.80	-47.5	-51.1	14.9	0.00e+00	0	39	0	1087373312	65	5797
2026-01-21 11:25:41.24	326.85	9.71	-47.6	-51.1	14.9	0.00e+00	0	39	0	1089470464	65	5795
2026-01-21 11:25:41.95	326.92	9.66	-47.6	-51.2	14.8	0.00e+00	0	39	0	1091567616	65	5867
2026-01-21 11:25:43.23	327.05	9.57	-47.3	-50.7	15.2	0.00e+00	0	39	0	1093664768	65	5568
2026-01-21 11:25:43.95	327.12	9.52	-47.4	-50.8	15.1	0.00e+00	0	39	0	1094713344	65	5651
2026-01-21 11:25:45.23	327.24	9.43	-47.3	-50.7	15.2	0.00e+00	0	39	0	1096810496	65	5592
2026-01-21 11:25:45.94	327.31	9.38	-47.3	-50.8	15.1	0.00e+00	0	39	0	1098907648	65	5651
2026-01-21 11:25:47.23	327.44	9.29	-47.3	-50.9	15.1	0.00e+00	0	39	0	1101004800	65	5666
2026-01-21 11:25:47.95	327.51	9.24	-47.1	-50.6	15.3	0.00e+00	0	39	0	1102053376	65	5508
2026-01-21 11:25:49.23	327.64	9.15	-47.2	-50.8	15.1	0.00e+00	0	39	0	1105199104	65	5630
2026-01-21 11:25:49.96	327.71	9.10	-47.2	-50.8	15.1	0.00e+00	0	39	0	1106247680	65	5612
2026-01-21 11:25:51.23	327.83	9.02	-47.2	-50.7	15.2	0.00e+00	0	39	0	1108344832	65	5586
2026-01-21 11:25:51.94	327.90	8.97	-51.6	-65.0	3.9	1.61e-03	0	39	0	1109393408	73	18134
2026-01-21 11:25:53.22	328.02	8.88	-51.2	-67.5	3.8	1.49e+00	0	39	104	1109393408	73	24212
2026-01-21 11:25:53.93	328.09	8.83	-52.3	-67.5	3.8	1.49e+00	0	39	104	1109393408	75	21744
2026-01-21 11:25:55.21	328.21	8.74	-51.7	-67.7	3.8	1.49e+00	0	39	104	1109393408	75	22182
2026-01-21 11:25:55.93	328.28	8.69	-51.4	-67.8	3.8	1.49e+00	0	39	104	1109393408	74	23654
2026-01-21 11:25:57.21	328.40	8.60	-52.1	-67.9	3.8	1.49e+00	0	39	104	1109393408	75	22617
2026-01-21 11:25:57.92	328.47	8.56	-52.4	-67.9	3.8	1.49e+00	0	39	104	1109393408	75	22666
2026-01-21 11:25:59.20	328.59	8.47	-52.7	-67.9	3.8	1.49e+00	0	39	104	1109393408	75	22723
2026-01-21 11:25:59.95	328.66	8.42	-52.6	-68.0	3.8	1.49e+00	0	39	104	1109393408	76	21521
2026-01-21 11:26:01.23	328.77	8.33	-52.8	-68.0	3.8	1.49e+00	0	39	104	1109393408	76	21656
2026-01-21 11:26:02.02	328.85	8.28	-52.6	-68.0	3.8	1.49e+00	0	39	104	1109393408	76	21742
2026-01-21 11:26:03.30	328.96	8.19	-52.6	-68.1	3.8	1.49e+00	0	39	104	1109393408	76	21774
2026-01-21 11:26:04.07	329.04	8.14	-52.7	-68.1	3.8	1.49e+00	0	39	104	1109393408	76	21783
2026-01-21 11:26:05.35	329.15	8.05	-52.7	-68.1	3.8	1.49e+00	0	39	104	1109393408	76	21779
2026-01-21 11:26:06.12	329.22	8.00	-52.8	-68.1	3.8	1.49e+00	0	39	104	1109393408	76	21779
2026-01-21 11:26:07.70	329.36	7.90	-52.8	-68.0	3.8	1.49e+00	0	39	104	1109393408	76	21698
2026-01-21 11:26:08.34	329.42	7.85	-52.9	-68.1	3.8	1.49e+00	0	39	104	1109393408	76	21786
2026-01-21 11:26:09.89	329.56	7.75	-52.9	-68.0	3.8	1.49e+00	0	39	104	1109393408	76	21750
2026-01-21 11:26:10.60	329.62	7.70	-52.8	-68.0	3.8	1.49e+00	0	39	104	1109393408	76	21653
2026-01-21 11:26:11.87	329.73	7.62	-52.8	-68.0	3.8	1.49e+00	0	39	104	1109393408	76	21608
2026-01-21 11:26:12.60	329.80	7.57	-52.7	-68.0	3.8	1.49e+00	0	39	104	1109393408	76	21696
2026-01-21 11:26:13.88	329.91	7.48	-52.6	-67.9	3.8	1.49e+00	0	39	104	1109393408	76	21478
2026-01-21 11:26:14.59	329.97	7.44	-52.6	-68.0	3.8	1.49e+00	0	39	104	1109393408	76	21515
2026-01-21 11:26:15.86	330.08	7.35	-52.6	-67.9	3.8	1.49e+00	0	39	104	1109393408	76	21435
2026-01-21 11:26:16.57	330.14	7.31	-52.6	-67.9	3.8	1.49e+00	0	39	104	1109393408	76	21495
2026-01-21 11:26:17.85	330.25	7.22	-52.6	-67.9	3.8	1.49e+00	0	39	104	1109393408	76	21479
2026-01-21 11:26:18.59	330.32	7.17	-52.6	-68.0	3.8	1.49e+00	0	39	104	1109393408	76	21517
2026-01-21 11:26:19.87	330.43	7.09	-52.6	-67.9	3.8	1.49e+00	0	39	104	1109393408	76	21386
2026-01-21 11:26:20.58	330.49	7.04	-52.6	-67.9	3.8	1.49e+00	0	39	104	1109393408	76	21426
2026-01-21 11:26:21.85	330.59	6.96	-52.6	-68.0	3.8	1.49e+00	0	39	104	1109393408	76	21514
2026-01-21 11:26:22.58	330.66	6.91	-52.6	-67.9	3.8	1.49e+00	0	39	104	1109393408	76	21468
2026-01-21 11:26:23.86	330.76	6.83	-52.5	-68.0	3.8	1.49e+00	0	39	104	1109393408	76	21531
2026-01-21 11:26:24.58	330.82	6.78	-52.6	-68.0	3.8	1.49e+00	0	39	104	1109393408	76	21540
2026-01-21 11:26:25.86	330.93	6.70	-52.6	-67.9	3.8	1.49e+00	0	39	104	1109393408	76	21474
2026-01-21 11:26:26.57	330.99	6.65	-52.5	-67.9	3.8	1.49e+00	0	39	104	1109393408	76	21432
2026-01-21 11:26:27.85	331.09	6.57	-52.5	-68.0	3.8	1.49e+00	0	39	104	1109393408	76	21538
2026-01-21 11:26:28.57	331.15	6.52	-52.5	-67.9	3.8	1.49e+00	0	39	104	1109393408	76	21490
2026-01-21 11:26:29.85	331.26	6.44	-52.5	-67.9	3.8	1.49e+00	0	39	104	1109393408	76	21367
2026-01-21 11:26:30.56	331.32	6.40	-52.6	-67.9	3.8	1.49e+00	0	39	104	1109393408	76	21341
2026-01-21 11:26:31.85	331.42	6.31	-52.6	-67.9	3.8	1.49e+00	0	39	104	1109393408	76	21492
2026-01-21 11:26:32.56	331.48	6.27	-52.5	-67.9	3.8	1.49e+00	0	39	104	1109393408	76	21478
2026-01-21 11:26:33.84	331.58	6.19	-52.5	-67.9	3.8	1.49e+00	0	39	104	1109393408	76	21385
2026-01-21 11:26:34.56	331.64	6.14	-52.6	-67.9	3.8	1.49e+00	0	39	104	1109393408	76	21470
2026-01-21 11:26:35.84	331.74	6.06	-52.6	-67.9	3.8	1.49e+00	0	39	104	1109393408	76	21451
2026-01-21 11:26:36.55	331.80	6.01	-52.5	-67.9	3.8	1.49e+00	0	39	104	1109393408	76	21433
2026-01-21 11:26:37.83	331.90	5.93	-52.5	-67.9	3.8	1.49e+00	0	39	104	1109393408	76	21425
2026-01-21 11:26:38.54	331.95	5.89	-52.5	-67.9	3.8	1.49e+00	0	39	104	1109393408	76	21428
2026-01-21 11:26:39.81	332.05	5.81	-52.5	-67.9	3.8	1.49e+00	0	39	104	1109393408	76	21402
2026-01-21 11:26:40.54	332.11	5.76	-52.5	-68.0	3.8	1.49e+00	0	39	104	1109393408	76	21530
2026-01-21 11:26:41.81	332.21	5.68	-52.5	-67.9	3.8	1.49e+00	0	39	104	1109393408	76	21364
2026-01-21 11:26:42.52	332.27	5.64	-52.5	-67.9	3.8	1.49e+00	0	39	104	1109393408	76	21282
