passes_logs/2026/01/21/T1/T1__20260121_091341_SUOMI_NPP_rec.log

#Pass ID: 20260121_091341_SUOMI NPP
#Satellite: SUOMI NPP
#Configuration: NPP
#almurnet v.1.7.20251203
#Start time: 2026-01-21 09:13:42

#Version: 2.0.20230620
#Station: T1
#Location: 37.570604 lon 55.790049 lat
#TLE: 1 37849U 11061A   26020.95430537  .00000198  00000+0  11470-3 0  9999
#TLE: 2 37849  98.7819 322.9518 0002315  53.3069 306.8320 14.19527555737555

#Time	Az	El	Level	Level2	SNR	BER	BlckErr	Temp	State	Recorded	gain1	gain2
2026-01-21 09:13:42.89	135.90	5.10	-51.7	-66.8	3.8	1.49e+00	0	37	0	0	75	20061
2026-01-21 09:13:43.88	135.86	5.17	-51.7	-66.9	3.8	1.49e+00	0	37	104	0	75	20119
2026-01-21 09:13:44.88	135.82	5.24	-51.7	-66.9	3.8	1.49e+00	0	37	104	0	75	20106
2026-01-21 09:13:45.88	135.78	5.31	-51.6	-66.9	3.8	1.49e+00	0	37	104	0	75	20106
2026-01-21 09:13:46.87	135.74	5.37	-51.7	-66.9	3.8	1.49e+00	0	37	104	0	75	20141
2026-01-21 09:13:47.87	135.70	5.45	-51.7	-66.9	3.8	1.49e+00	0	37	104	0	75	20146
2026-01-21 09:13:48.87	135.66	5.52	-51.6	-66.9	3.8	1.49e+00	0	37	104	0	75	20078
2026-01-21 09:13:49.86	135.62	5.59	-51.7	-66.8	3.8	1.49e+00	0	37	104	0	75	20023
2026-01-21 09:13:50.86	135.57	5.66	-51.7	-66.8	3.8	1.49e+00	0	37	104	0	75	20047
2026-01-21 09:13:51.85	135.53	5.73	-51.6	-66.8	3.8	1.49e+00	0	37	104	0	75	19901
2026-01-21 09:13:52.85	135.49	5.80	-51.7	-66.7	3.8	1.49e+00	0	37	104	0	75	19796
2026-01-21 09:13:53.84	135.45	5.87	-51.6	-66.7	3.8	1.49e+00	0	37	104	0	75	19642
2026-01-21 09:13:54.84	135.41	5.94	-51.6	-66.5	3.8	1.49e+00	0	37	104	0	75	19352
2026-01-21 09:13:55.84	135.36	6.01	-51.6	-66.5	3.8	1.49e+00	0	37	104	0	75	19247
2026-01-21 09:13:56.83	135.32	6.08	-51.5	-66.3	3.8	1.49e+00	0	37	104	0	75	18873
2026-01-21 09:13:57.83	135.28	6.16	-51.6	-66.3	3.8	1.49e+00	0	37	104	0	75	18749
2026-01-21 09:13:58.83	135.23	6.23	-51.6	-66.3	3.8	1.49e+00	0	37	104	0	75	18786
2026-01-21 09:13:59.82	135.19	6.30	-51.6	-66.2	3.8	1.49e+00	0	38	104	0	75	18691
2026-01-21 09:14:00.82	135.15	6.37	-51.5	-66.3	3.8	1.49e+00	0	38	104	0	75	18855
2026-01-21 09:14:01.82	135.10	6.44	-51.5	-66.4	3.8	1.49e+00	0	38	104	0	75	19096
2026-01-21 09:14:02.81	135.06	6.52	-51.6	-66.5	3.8	1.49e+00	0	38	104	0	75	19350
2026-01-21 09:14:03.81	135.01	6.59	-51.6	-66.7	3.8	1.49e+00	0	38	104	0	75	19673
2026-01-21 09:14:04.81	134.97	6.66	-51.7	-66.8	3.8	1.49e+00	0	38	104	0	75	19873
2026-01-21 09:14:05.80	134.93	6.74	-51.7	-66.8	3.8	1.49e+00	0	38	104	0	75	20017
2026-01-21 09:14:06.80	134.88	6.81	-51.6	-66.8	3.8	1.49e+00	0	38	104	0	75	20024
2026-01-21 09:14:07.80	134.83	6.88	-51.7	-66.8	3.8	1.49e+00	0	38	104	0	75	19920
2026-01-21 09:14:08.79	134.79	6.96	-51.5	-66.6	3.8	1.49e+00	0	38	104	0	75	19536
2026-01-21 09:14:09.79	134.74	7.03	-51.6	-66.3	3.8	1.49e+00	0	38	104	0	75	18843
2026-01-21 09:14:10.79	134.70	7.11	-51.6	-65.9	3.8	1.49e+00	0	38	104	0	75	17924
2026-01-21 09:14:11.78	134.65	7.18	-51.5	-65.4	3.8	1.49e+00	0	38	104	0	75	16929
2026-01-21 09:14:12.78	134.60	7.26	-51.4	-64.9	3.8	1.49e+00	0	38	104	0	74	16930
2026-01-21 09:14:13.77	134.56	7.33	-51.5	-64.2	3.9	1.48e+00	0	38	104	0	74	15608
2026-01-21 09:14:14.77	134.51	7.41	-51.4	-63.3	4.2	1.47e+00	0	38	0	0	74	14208
2026-01-21 09:14:15.77	134.46	7.48	-51.3	-62.1	4.6	1.24e+00	0	38	0	0	74	12285
2026-01-21 09:14:16.76	134.42	7.56	-51.0	-60.4	5.5	6.91e-01	0	38	0	2097152	74	10144
2026-01-21 09:14:17.76	134.37	7.63	-50.7	-58.7	6.8	3.31e-01	0	38	0	4194304	73	8805
2026-01-21 09:14:18.75	134.32	7.71	-50.3	-57.0	8.4	6.55e-02	0	38	0	6291456	72	7676
2026-01-21 09:14:19.75	134.27	7.78	-49.7	-55.3	10.2	1.64e-02	0	38	0	8388608	71	6682
2026-01-21 09:14:20.75	134.22	7.86	-49.2	-53.9	11.6	2.14e-03	0	38	0	9437184	70	6061
2026-01-21 09:14:21.74	134.17	7.94	-48.6	-52.7	12.8	2.27e-04	0	38	0	11534336	69	5567
2026-01-21 09:14:22.74	134.12	8.01	-47.8	-51.5	13.9	6.10e-06	0	38	0	13631488	67	5421
2026-01-21 09:14:23.74	134.07	8.09	-47.6	-51.2	14.1	7.00e-07	0	38	0	15728640	67	5246
2026-01-21 09:14:24.73	134.03	8.17	-47.4	-50.8	14.5	7.00e-07	0	38	0	16777216	66	5323
2026-01-21 09:14:25.73	133.98	8.25	-47.3	-50.8	14.6	0.00e+00	0	38	0	18874368	66	5287
2026-01-21 09:14:26.73	133.92	8.32	-47.6	-51.3	14.1	7.00e-07	0	38	0	20971520	66	5623
2026-01-21 09:14:27.72	133.87	8.40	-47.9	-51.8	13.5	6.10e-06	0	39	0	23068672	66	5973
2026-01-21 09:14:28.72	133.82	8.48	-48.3	-52.7	12.7	1.98e-05	0	38	0	25165824	67	6239
2026-01-21 09:14:29.72	133.77	8.56	-48.8	-53.5	12.1	2.15e-04	0	38	0	26214400	68	6441
2026-01-21 09:14:30.71	133.72	8.64	-49.3	-54.5	11.2	9.02e-04	0	39	0	28311552	69	6806
2026-01-21 09:14:31.71	133.67	8.71	-49.5	-55.1	10.5	2.68e-03	0	38	0	30408704	69	7330
2026-01-21 09:14:32.71	133.62	8.79	-49.7	-55.5	10.0	6.45e-03	0	39	0	32505856	70	7264
2026-01-21 09:14:33.71	133.56	8.87	-50.1	-56.3	9.2	1.33e-02	0	38	0	34603008	70	7965
2026-01-21 09:14:34.70	133.51	8.95	-50.2	-56.9	8.5	2.80e-02	0	39	0	35651584	71	8069
2026-01-21 09:14:35.70	133.46	9.03	-50.5	-57.8	7.7	5.94e-02	0	38	0	37748736	71	8935
2026-01-21 09:14:36.70	133.41	9.11	-50.1	-56.2	9.3	7.16e-02	0	38	0	39845888	71	7407
2026-01-21 09:14:37.70	133.35	9.19	-47.7	-51.4	14.0	3.83e-03	0	38	0	41943040	67	5350
2026-01-21 09:14:38.70	133.30	9.27	-51.0	-60.8	5.5	1.44e-05	0	39	0	42991616	72	11946
2026-01-21 09:14:39.70	133.24	9.35	-49.2	-53.8	11.6	4.35e-01	0	38	0	44040192	70	5989
2026-01-21 09:14:40.70	133.19	9.44	-47.4	-50.8	14.8	1.22e-05	0	39	0	45088768	66	5286
2026-01-21 09:14:41.71	133.13	9.52	-47.7	-51.3	14.2	1.98e-05	0	39	0	47185920	67	5294
2026-01-21 09:14:42.71	133.08	9.60	-47.5	-51.0	14.5	1.50e-06	0	39	0	49283072	67	5101
2026-01-21 09:14:43.71	133.02	9.68	-47.4	-51.0	14.4	0.00e+00	0	39	0	51380224	66	5423
2026-01-21 09:14:44.71	132.97	9.76	-47.5	-51.0	14.4	7.00e-07	0	39	0	53477376	66	5464
2026-01-21 09:14:45.71	132.91	9.85	-47.8	-51.5	14.0	7.00e-07	0	39	0	54525952	66	5750
2026-01-21 09:14:46.72	132.85	9.93	-48.1	-52.1	13.3	1.37e-05	0	39	0	56623104	66	6189
2026-01-21 09:14:47.72	132.80	10.01	-48.6	-53.2	12.3	8.92e-05	0	39	0	58720256	67	6593
2026-01-21 09:14:48.72	132.74	10.09	-49.0	-53.8	11.9	2.51e-04	0	39	0	60817408	68	6717
2026-01-21 09:14:49.72	132.68	10.18	-49.0	-53.8	11.9	3.70e-04	0	39	0	62914560	68	6717
2026-01-21 09:14:50.72	132.62	10.26	-49.0	-53.7	12.0	2.85e-04	0	39	0	63963136	68	6600
2026-01-21 09:14:51.73	132.56	10.35	-48.8	-53.2	12.5	1.60e-04	0	39	0	66060288	68	6233
2026-01-21 09:14:52.73	132.51	10.43	-48.2	-52.0	13.6	4.11e-05	0	39	0	68157440	68	5461
2026-01-21 09:14:53.73	132.45	10.51	-47.5	-50.9	14.6	7.00e-07	0	38	0	70254592	67	5074
2026-01-21 09:14:54.73	132.39	10.60	-46.4	-49.4	16.1	0.00e+00	0	39	0	71303168	64	5043
2026-01-21 09:14:55.74	132.33	10.69	-45.8	-48.4	17.1	0.00e+00	0	39	0	73400320	63	4794
2026-01-21 09:14:56.74	132.27	10.77	-45.3	-47.7	17.8	0.00e+00	0	39	0	75497472	62	4686
2026-01-21 09:14:57.74	132.21	10.86	-44.8	-47.1	18.3	0.00e+00	0	39	0	77594624	61	4648
2026-01-21 09:14:58.74	132.15	10.94	-44.8	-47.1	18.3	0.00e+00	0	39	0	79691776	61	4639
2026-01-21 09:14:59.74	132.08	11.03	-44.7	-47.0	18.4	0.00e+00	0	39	0	80740352	61	4597
2026-01-21 09:15:00.74	132.02	11.11	-45.2	-47.7	17.8	0.00e+00	0	39	0	82837504	61	4960
2026-01-21 09:15:01.74	131.96	11.20	-45.7	-48.4	17.1	0.00e+00	0	39	0	84934656	62	5072
2026-01-21 09:15:02.74	131.90	11.29	-46.3	-49.3	16.3	0.00e+00	0	39	0	87031808	63	5308
2026-01-21 09:15:03.74	131.84	11.37	-47.2	-50.7	14.9	0.00e+00	0	39	0	89128960	64	5880
2026-01-21 09:15:04.74	131.77	11.46	-47.7	-51.7	14.0	0.00e+00	0	39	0	90177536	66	5884
2026-01-21 09:15:05.74	131.71	11.55	-48.0	-52.2	13.5	3.80e-06	0	39	0	92274688	66	6212
2026-01-21 09:15:06.75	131.64	11.64	-48.2	-52.4	13.3	9.10e-06	0	39	0	94371840	67	6036
2026-01-21 09:15:07.74	131.58	11.72	-47.5	-51.2	14.4	2.20e-06	0	39	0	96468992	67	5265
2026-01-21 09:15:08.74	131.52	11.81	-46.7	-50.0	15.6	0.00e+00	0	39	0	98566144	65	5112
2026-01-21 09:15:09.74	131.45	11.90	-46.0	-48.7	16.9	0.00e+00	0	39	0	99614720	63	4941
2026-01-21 09:15:10.74	131.39	11.99	-45.3	-47.7	17.8	0.00e+00	0	39	0	101711872	62	4685
2026-01-21 09:15:11.74	131.32	12.08	-44.8	-47.2	18.4	0.00e+00	0	39	0	103809024	61	4670
2026-01-21 09:15:12.74	131.25	12.17	-44.4	-46.7	18.8	0.00e+00	0	39	0	105906176	60	4655
2026-01-21 09:15:13.74	131.19	12.26	-44.6	-46.9	18.6	0.00e+00	0	39	0	106954752	60	4776
2026-01-21 09:15:14.74	131.12	12.35	-45.0	-47.4	18.1	0.00e+00	0	39	0	109051904	60	5081
2026-01-21 09:15:15.74	131.05	12.44	-45.4	-47.9	17.6	0.00e+00	0	39	0	111149056	61	5086
2026-01-21 09:15:16.74	130.98	12.53	-46.2	-49.1	16.4	0.00e+00	0	39	0	113246208	63	5217
2026-01-21 09:15:17.74	130.92	12.62	-46.9	-50.3	15.3	0.00e+00	0	39	0	115343360	64	5596
2026-01-21 09:15:18.75	130.85	12.71	-47.7	-51.5	14.0	0.00e+00	0	39	0	116391936	65	6119
2026-01-21 09:15:19.75	130.78	12.81	-48.4	-52.9	12.9	9.90e-06	0	39	0	118489088	67	6394
2026-01-21 09:15:20.75	130.71	12.90	-47.8	-51.8	14.0	1.60e-05	0	39	0	120586240	67	5638
2026-01-21 09:15:21.75	130.64	12.99	-47.2	-50.6	15.1	0.00e+00	0	39	0	122683392	66	5200
2026-01-21 09:15:22.75	130.57	13.08	-46.3	-49.2	16.4	7.00e-07	0	39	0	124780544	64	4957
2026-01-21 09:15:23.75	130.49	13.18	-45.5	-48.1	17.6	0.00e+00	0	39	0	125829120	63	4611
2026-01-21 09:15:24.75	130.42	13.27	-45.0	-47.4	18.2	0.00e+00	0	39	0	127926272	62	4508
2026-01-21 09:15:25.75	130.35	13.36	-44.6	-46.8	18.7	0.00e+00	0	39	0	130023424	61	4489
2026-01-21 09:15:26.75	130.28	13.46	-44.3	-46.5	19.0	0.00e+00	0	39	0	132120576	60	4589
2026-01-21 09:15:27.75	130.21	13.55	-44.8	-47.1	18.5	0.00e+00	0	39	0	134217728	60	4909
2026-01-21 09:15:28.75	130.13	13.64	-45.2	-47.7	17.8	0.00e+00	0	39	0	135266304	61	4964
2026-01-21 09:15:29.75	130.06	13.74	-45.9	-48.6	17.0	0.00e+00	0	39	0	137363456	62	5207
2026-01-21 09:15:30.76	129.98	13.84	-46.7	-49.9	15.7	0.00e+00	0	39	0	139460608	64	5370
2026-01-21 09:15:31.76	129.91	13.93	-47.4	-51.1	14.7	0.00e+00	0	39	0	141557760	65	5812
2026-01-21 09:15:32.76	129.83	14.03	-47.6	-51.3	14.4	7.00e-07	0	39	0	143654912	65	5982
2026-01-21 09:15:33.76	129.76	14.12	-47.1	-50.5	15.3	7.00e-07	0	39	0	144703488	65	5415
2026-01-21 09:15:34.76	129.68	14.22	-46.5	-49.5	16.2	0.00e+00	0	39	0	146800640	65	4837
2026-01-21 09:15:35.76	129.60	14.32	-46.1	-48.9	16.8	0.00e+00	0	39	0	148897792	64	4783
2026-01-21 09:15:36.77	129.52	14.41	-45.1	-47.6	18.1	0.00e+00	0	39	0	150994944	62	4601
2026-01-21 09:15:37.76	129.45	14.51	-44.8	-47.1	18.5	0.00e+00	0	39	0	152043520	61	4639
2026-01-21 09:15:38.77	129.37	14.61	-44.9	-47.2	18.4	0.00e+00	0	39	0	154140672	61	4681
2026-01-21 09:15:39.77	129.29	14.71	-44.8	-47.2	18.4	0.00e+00	0	39	0	156237824	61	4699
2026-01-21 09:15:40.77	129.21	14.81	-45.2	-47.7	17.9	0.00e+00	0	39	0	158334976	61	4982
2026-01-21 09:15:41.77	129.13	14.90	-46.0	-48.7	17.1	0.00e+00	0	39	0	160432128	62	5229
2026-01-21 09:15:42.77	129.05	15.00	-46.4	-49.5	16.3	0.00e+00	0	39	0	161480704	63	5446
2026-01-21 09:15:43.77	128.97	15.10	-46.8	-50.2	15.6	0.00e+00	0	39	0	163577856	64	5537
2026-01-21 09:15:44.77	128.88	15.20	-47.2	-50.5	15.3	0.00e+00	0	39	0	165675008	65	5423
2026-01-21 09:15:45.77	128.80	15.30	-46.7	-49.8	16.0	0.00e+00	0	39	0	167772160	65	5025
2026-01-21 09:15:46.78	128.72	15.40	-46.2	-49.1	16.6	0.00e+00	0	39	0	169869312	64	4913
2026-01-21 09:15:47.78	128.63	15.51	-45.8	-48.4	17.4	0.00e+00	0	39	0	170917888	63	4805
2026-01-21 09:15:48.78	128.55	15.61	-45.7	-48.3	17.5	0.00e+00	0	39	0	173015040	63	4738
2026-01-21 09:15:49.78	128.46	15.71	-45.6	-48.2	17.6	0.00e+00	0	39	0	175112192	63	4673
2026-01-21 09:15:50.78	128.38	15.81	-45.9	-48.6	17.2	0.00e+00	0	39	0	177209344	63	4903
2026-01-21 09:15:51.79	128.29	15.91	-46.4	-49.3	16.5	0.00e+00	0	39	0	178257920	63	5340
2026-01-21 09:15:52.79	128.21	16.02	-46.5	-49.5	16.2	0.00e+00	0	39	0	180355072	64	5148
2026-01-21 09:15:53.79	128.12	16.12	-46.7	-49.7	16.1	0.00e+00	0	39	0	182452224	64	5257
2026-01-21 09:15:54.79	128.03	16.22	-46.7	-49.7	16.1	0.00e+00	0	39	0	184549376	64	5272
2026-01-21 09:15:55.79	127.94	16.33	-46.5	-49.4	16.4	0.00e+00	0	39	0	186646528	64	5069
2026-01-21 09:15:56.80	127.85	16.43	-46.1	-48.8	16.9	0.00e+00	0	39	0	188743680	64	4750
2026-01-21 09:15:57.80	127.76	16.54	-45.6	-48.0	17.7	0.00e+00	0	39	0	189792256	63	4598
2026-01-21 09:15:58.80	127.67	16.64	-45.3	-47.8	18.0	0.00e+00	0	39	0	191889408	62	4706
2026-01-21 09:15:59.80	127.58	16.75	-45.5	-47.9	17.9	0.00e+00	0	39	0	193986560	62	4800
2026-01-21 09:16:00.80	127.49	16.85	-45.4	-47.9	17.9	0.00e+00	0	39	0	196083712	62	4780
2026-01-21 09:16:01.80	127.40	16.96	-45.9	-48.6	17.3	0.00e+00	0	39	0	197132288	62	5161
2026-01-21 09:16:02.80	127.30	17.06	-46.4	-49.3	16.6	0.00e+00	0	39	0	199229440	63	5285
2026-01-21 09:16:03.80	127.21	17.17	-46.7	-49.6	16.2	0.00e+00	0	39	0	201326592	64	5212
2026-01-21 09:16:04.80	127.12	17.28	-46.6	-49.7	16.2	0.00e+00	0	39	0	203423744	64	5233
2026-01-21 09:16:05.81	127.02	17.39	-46.5	-49.4	16.5	0.00e+00	0	39	0	205520896	64	5063
2026-01-21 09:16:06.81	126.92	17.50	-46.4	-49.3	16.6	0.00e+00	0	39	0	206569472	64	4989
2026-01-21 09:16:07.81	126.83	17.60	-46.0	-48.7	17.2	0.00e+00	0	39	0	208666624	63	4952
2026-01-21 09:16:08.81	126.73	17.71	-45.8	-48.3	17.5	0.00e+00	0	39	0	210763776	63	4758
2026-01-21 09:16:09.81	126.63	17.82	-45.9	-48.5	17.4	0.00e+00	0	39	0	212860928	63	4840
2026-01-21 09:16:10.81	126.53	17.93	-45.9	-48.5	17.4	0.00e+00	0	39	0	214958080	63	4818
2026-01-21 09:16:11.81	126.43	18.04	-45.9	-48.6	17.3	0.00e+00	0	39	0	216006656	63	4874
2026-01-21 09:16:12.81	126.33	18.15	-46.3	-49.1	16.9	0.00e+00	0	39	0	218103808	63	5176
2026-01-21 09:16:13.81	126.23	18.26	-46.3	-49.2	16.8	0.00e+00	0	39	0	220200960	63	5223
2026-01-21 09:16:14.82	126.13	18.37	-46.4	-49.3	16.7	0.00e+00	0	39	0	222298112	63	5287
2026-01-21 09:16:15.82	126.03	18.49	-46.4	-49.2	16.7	0.00e+00	0	39	0	223346688	63	5269
2026-01-21 09:16:16.82	125.93	18.60	-46.2	-49.0	16.9	0.00e+00	0	39	0	225443840	63	5127
2026-01-21 09:16:17.82	125.82	18.71	-45.9	-48.5	17.4	0.00e+00	0	39	0	227540992	63	4839
2026-01-21 09:16:18.82	125.72	18.82	-45.8	-48.4	17.5	0.00e+00	0	39	0	229638144	63	4802
2026-01-21 09:16:19.82	125.61	18.94	-46.0	-48.7	17.2	0.00e+00	0	39	0	231735296	63	4935
2026-01-21 09:16:20.82	125.50	19.05	-46.2	-49.0	17.0	0.00e+00	0	39	0	232783872	63	5137
2026-01-21 09:16:21.82	125.40	19.16	-46.2	-49.0	16.9	0.00e+00	0	39	0	234881024	63	5154
2026-01-21 09:16:22.82	125.29	19.28	-46.6	-49.5	16.5	0.00e+00	0	39	0	236978176	63	5424
2026-01-21 09:16:23.83	125.18	19.39	-46.3	-49.3	16.5	0.00e+00	0	39	0	239075328	64	5039
2026-01-21 09:16:24.83	125.07	19.51	-46.3	-49.1	16.7	0.00e+00	0	39	0	241172480	64	4921
2026-01-21 09:16:25.83	124.96	19.63	-46.4	-49.3	16.6	0.00e+00	0	39	0	242221056	64	5008
2026-01-21 09:16:26.83	124.85	19.74	-46.4	-49.2	16.7	0.00e+00	0	39	0	244318208	64	4956
2026-01-21 09:16:27.83	124.74	19.86	-46.3	-49.1	16.8	0.00e+00	0	39	0	246415360	63	5175
2026-01-21 09:16:28.83	124.62	19.98	-46.2	-49.1	16.9	0.00e+00	0	39	0	248512512	63	5192
2026-01-21 09:16:29.83	124.51	20.09	-45.7	-48.4	17.4	0.00e+00	0	40	0	250609664	63	4793
2026-01-21 09:16:30.83	124.39	20.21	-45.9	-48.4	17.5	0.00e+00	0	39	0	251658240	63	4793
2026-01-21 09:16:31.84	124.28	20.33	-45.3	-47.8	18.0	0.00e+00	0	39	0	253755392	62	4737
2026-01-21 09:16:32.84	124.16	20.45	-45.4	-47.9	18.0	0.00e+00	0	39	0	255852544	62	4790
2026-01-21 09:16:33.84	124.04	20.57	-45.6	-48.1	17.6	0.00e+00	0	39	0	257949696	62	4897
2026-01-21 09:16:34.84	123.92	20.69	-46.1	-48.7	17.2	0.00e+00	0	39	0	258998272	62	5276
2026-01-21 09:16:35.84	123.80	20.81	-46.2	-49.0	16.9	0.00e+00	0	39	0	261095424	63	5121
2026-01-21 09:16:36.84	123.68	20.93	-46.7	-49.6	16.5	0.00e+00	0	39	0	263192576	63	5500
2026-01-21 09:16:37.84	123.56	21.05	-46.4	-49.3	16.6	0.00e+00	0	39	0	265289728	64	4987
2026-01-21 09:16:38.84	123.44	21.17	-46.2	-48.9	16.9	0.00e+00	0	39	0	267386880	64	4809
2026-01-21 09:16:39.84	123.32	21.29	-45.7	-48.2	17.7	0.00e+00	0	39	0	268435456	63	4668
2026-01-21 09:16:40.84	123.19	21.42	-45.8	-48.4	17.5	0.00e+00	0	39	0	270532608	63	4775
2026-01-21 09:16:41.84	123.07	21.54	-46.2	-48.8	17.1	0.00e+00	0	39	0	272629760	63	5035
2026-01-21 09:16:42.84	122.94	21.66	-46.3	-49.1	16.7	0.00e+00	0	39	0	274726912	63	5218
2026-01-21 09:16:43.84	122.81	21.79	-46.7	-49.6	16.2	0.00e+00	0	39	0	276824064	64	5193
2026-01-21 09:16:44.84	122.69	21.91	-47.1	-50.2	15.8	0.00e+00	0	39	0	277872640	64	5586
2026-01-21 09:16:45.84	122.56	22.03	-46.7	-49.6	16.2	0.00e+00	0	39	0	279969792	65	4906
2026-01-21 09:16:46.84	122.43	22.16	-46.4	-49.2	16.7	0.00e+00	0	39	0	282066944	64	4959
2026-01-21 09:16:47.84	122.29	22.28	-45.9	-48.4	17.5	0.00e+00	0	39	0	284164096	63	4802
2026-01-21 09:16:48.84	122.16	22.41	-46.1	-48.8	17.1	0.00e+00	0	39	0	286261248	63	5006
2026-01-21 09:16:49.84	122.03	22.54	-46.3	-49.1	16.8	0.00e+00	0	39	0	287309824	63	5178
2026-01-21 09:16:50.84	121.89	22.66	-46.6	-49.5	16.4	0.00e+00	0	39	0	289406976	63	5460
2026-01-21 09:16:51.84	121.76	22.79	-46.7	-49.7	16.2	0.00e+00	0	39	0	291504128	64	5244
2026-01-21 09:16:52.84	121.62	22.92	-46.7	-49.6	16.4	0.00e+00	0	39	0	293601280	64	5195
2026-01-21 09:16:53.84	121.48	23.05	-46.4	-49.2	16.6	0.00e+00	0	39	0	294649856	64	4979
2026-01-21 09:16:54.84	121.34	23.18	-46.0	-48.6	17.3	0.00e+00	0	39	0	296747008	63	4897
2026-01-21 09:16:55.84	121.20	23.31	-45.6	-48.1	17.8	0.00e+00	0	39	0	298844160	63	4609
2026-01-21 09:16:56.84	121.06	23.43	-46.0	-48.7	17.3	0.00e+00	0	39	0	300941312	63	4944
2026-01-21 09:16:57.85	120.91	23.57	-46.4	-49.1	16.8	0.00e+00	0	39	0	303038464	63	5200
2026-01-21 09:16:58.85	120.77	23.70	-46.9	-49.9	16.1	0.00e+00	0	39	0	304087040	64	5365
2026-01-21 09:16:59.85	120.62	23.83	-47.0	-50.1	15.9	0.00e+00	0	39	0	306184192	64	5466
2026-01-21 09:17:00.85	120.48	23.96	-46.8	-49.8	16.1	0.00e+00	0	40	0	308281344	64	5285
2026-01-21 09:17:01.85	120.33	24.09	-46.8	-49.7	16.2	0.00e+00	0	40	0	310378496	64	5227
2026-01-21 09:17:02.86	120.18	24.22	-46.5	-49.3	16.6	0.00e+00	0	39	0	312475648	64	5017
2026-01-21 09:17:03.86	120.03	24.36	-46.1	-48.7	17.2	0.00e+00	0	39	0	313524224	64	4701
2026-01-21 09:17:04.86	119.88	24.49	-46.3	-49.1	16.8	0.00e+00	0	39	0	315621376	64	4888
2026-01-21 09:17:05.87	119.72	24.63	-46.3	-49.1	16.7	0.00e+00	0	40	0	317718528	64	4898
2026-01-21 09:17:06.87	119.57	24.76	-46.3	-49.1	16.8	0.00e+00	0	39	0	319815680	64	4893
2026-01-21 09:17:07.86	119.41	24.89	-46.0	-48.6	17.3	0.00e+00	0	39	0	321912832	64	4622
2026-01-21 09:17:08.87	119.25	25.03	-45.6	-48.1	17.7	0.00e+00	0	39	0	322961408	63	4628
2026-01-21 09:17:09.87	119.10	25.17	-46.1	-48.8	17.1	0.00e+00	0	39	0	325058560	63	5023
2026-01-21 09:17:10.86	118.94	25.30	-46.2	-48.9	17.1	0.00e+00	0	39	0	327155712	63	5056
2026-01-21 09:17:11.86	118.78	25.44	-46.3	-49.1	17.0	0.00e+00	0	39	0	329252864	63	5163
2026-01-21 09:17:12.87	118.61	25.57	-46.4	-49.2	16.8	0.00e+00	0	39	0	331350016	63	5230
2026-01-21 09:17:13.86	118.45	25.71	-46.4	-49.2	16.7	0.00e+00	0	39	0	332398592	63	5255
2026-01-21 09:17:14.86	118.28	25.85	-46.7	-49.5	16.5	0.00e+00	0	39	0	334495744	63	5458
2026-01-21 09:17:15.86	118.12	25.99	-46.3	-49.1	17.0	0.00e+00	0	39	0	336592896	63	5163
2026-01-21 09:17:16.86	117.95	26.13	-46.2	-48.9	17.0	0.00e+00	0	40	0	338690048	63	5066
2026-01-21 09:17:17.86	117.78	26.26	-46.5	-49.3	16.7	0.00e+00	0	39	0	339738624	63	5334
2026-01-21 09:17:18.87	117.60	26.41	-46.5	-49.3	16.7	0.00e+00	0	39	0	341835776	63	5282
2026-01-21 09:17:19.87	117.43	26.55	-46.5	-49.3	16.7	0.00e+00	0	39	0	343932928	63	5310
2026-01-21 09:17:20.87	117.26	26.69	-46.4	-49.2	16.7	0.00e+00	0	39	0	346030080	64	4959
2026-01-21 09:17:21.87	117.08	26.83	-46.7	-49.5	16.4	0.00e+00	0	40	0	348127232	64	5145
2026-01-21 09:17:22.87	116.90	26.97	-46.8	-49.7	16.1	0.00e+00	0	39	0	349175808	64	5270
2026-01-21 09:17:23.87	116.72	27.11	-46.8	-49.8	16.2	0.00e+00	0	39	0	351272960	64	5291
2026-01-21 09:17:24.87	116.54	27.25	-46.7	-49.6	16.3	0.00e+00	0	39	0	353370112	64	5206
2026-01-21 09:17:25.87	116.36	27.39	-46.6	-49.4	16.5	0.00e+00	0	39	0	355467264	64	5080
2026-01-21 09:17:26.87	116.17	27.54	-46.8	-49.8	16.2	0.00e+00	0	39	0	357564416	64	5282
2026-01-21 09:17:27.87	115.99	27.68	-46.9	-50.0	16.1	0.00e+00	0	39	0	358612992	64	5404
2026-01-21 09:17:28.87	115.80	27.82	-46.9	-49.9	16.1	0.00e+00	0	39	0	360710144	64	5354
2026-01-21 09:17:29.87	115.61	27.97	-46.9	-49.9	16.1	0.00e+00	0	39	0	362807296	64	5353
2026-01-21 09:17:30.87	115.42	28.11	-46.8	-49.7	16.3	0.00e+00	0	39	0	364904448	64	5256
2026-01-21 09:17:31.87	115.23	28.26	-46.7	-49.7	16.3	0.00e+00	0	39	0	365953024	64	5251
2026-01-21 09:17:32.87	115.03	28.40	-46.8	-49.8	16.3	0.00e+00	0	39	0	368050176	64	5296
2026-01-21 09:17:33.87	114.84	28.55	-46.6	-49.5	16.5	0.00e+00	0	39	0	370147328	64	5112
2026-01-21 09:17:34.87	114.64	28.70	-46.7	-49.7	16.2	0.00e+00	0	39	0	372244480	64	5254
2026-01-21 09:17:35.87	114.44	28.84	-47.1	-50.2	15.7	0.00e+00	0	39	0	374341632	65	5273
2026-01-21 09:17:36.87	114.23	28.99	-47.4	-50.7	15.2	0.00e+00	0	40	0	375390208	65	5570
2026-01-21 09:17:37.88	114.03	29.14	-47.3	-50.6	15.3	0.00e+00	0	39	0	377487360	65	5484
2026-01-21 09:17:38.88	113.82	29.29	-47.3	-50.5	15.5	0.00e+00	0	39	0	379584512	65	5444
2026-01-21 09:17:39.88	113.61	29.43	-47.1	-50.2	15.7	0.00e+00	0	39	0	381681664	65	5248
2026-01-21 09:17:40.88	113.41	29.58	-47.5	-50.8	15.4	0.00e+00	0	39	0	383778816	65	5632
2026-01-21 09:17:41.88	113.19	29.73	-47.3	-50.4	15.5	0.00e+00	0	39	0	384827392	65	5399
2026-01-21 09:17:42.88	112.98	29.88	-47.8	-51.2	14.8	0.00e+00	0	40	0	386924544	66	5590
2026-01-21 09:17:43.88	112.76	30.03	-48.4	-52.2	13.8	7.00e-07	0	39	0	389021696	67	5896
2026-01-21 09:17:44.88	112.55	30.18	-48.3	-52.1	13.9	4.50e-06	0	39	0	391118848	67	5845
2026-01-21 09:17:45.89	112.32	30.33	-48.3	-52.2	13.8	1.50e-06	0	39	0	393216000	67	5889
2026-01-21 09:17:46.88	112.11	30.48	-48.5	-52.4	13.9	1.44e-05	0	39	0	394264576	68	5692
2026-01-21 09:17:47.89	111.88	30.63	-48.2	-51.9	14.2	4.50e-06	0	39	0	396361728	68	5394
2026-01-21 09:17:48.89	111.65	30.78	-48.4	-52.2	14.2	2.20e-06	0	39	0	398458880	68	5557
2026-01-21 09:17:49.89	111.43	30.93	-48.3	-52.0	14.3	7.00e-07	0	39	0	400556032	68	5406
2026-01-21 09:17:50.89	111.19	31.08	-48.4	-52.0	14.3	1.50e-06	0	39	0	401604608	68	5438
2026-01-21 09:17:51.89	110.96	31.24	-48.5	-52.2	13.9	7.00e-07	0	39	0	403701760	68	5591
2026-01-21 09:17:52.89	110.73	31.39	-48.4	-51.9	14.2	7.00e-07	0	40	0	405798912	68	5400
2026-01-21 09:17:53.89	110.49	31.54	-48.5	-52.2	14.0	0.00e+00	0	39	0	407896064	68	5540
2026-01-21 09:17:54.90	110.25	31.69	-48.7	-52.4	13.8	1.14e-05	0	40	0	409993216	68	5708
2026-01-21 09:17:55.90	110.01	31.85	-48.9	-52.9	13.3	1.67e-05	0	39	0	411041792	68	6006
2026-01-21 09:17:56.90	109.76	32.00	-48.6	-52.3	14.0	1.06e-05	0	39	0	413138944	68	5651
2026-01-21 09:17:57.90	109.52	32.15	-48.1	-51.5	14.7	7.00e-07	0	39	0	415236096	68	5121
2026-01-21 09:17:58.90	109.27	32.30	-48.1	-51.5	14.7	0.00e+00	0	39	0	417333248	68	5123
2026-01-21 09:17:59.90	109.02	32.46	-47.7	-51.0	15.0	0.00e+00	0	39	0	419430400	67	5152
2026-01-21 09:18:00.90	108.77	32.61	-48.1	-51.7	14.4	0.00e+00	0	39	0	420478976	67	5575
2026-01-21 09:18:01.90	108.51	32.77	-48.5	-52.3	13.8	7.00e-07	0	40	0	422576128	67	5935
2026-01-21 09:18:02.90	108.25	32.92	-49.1	-53.3	12.9	2.67e-05	0	39	0	424673280	69	5944
2026-01-21 09:18:03.91	107.99	33.07	-49.5	-54.2	12.0	2.94e-04	0	39	0	426770432	69	6645
2026-01-21 09:18:04.91	107.73	33.23	-49.3	-53.9	12.5	2.59e-04	0	40	0	428867584	69	6393
2026-01-21 09:18:05.91	107.46	33.38	-48.8	-52.9	13.3	7.32e-05	0	39	0	429916160	69	5681
2026-01-21 09:18:06.91	107.19	33.54	-48.1	-51.6	14.6	3.00e-06	0	39	0	432013312	68	5214
2026-01-21 09:18:07.89	106.93	33.69	-47.5	-50.7	15.4	7.00e-07	0	39	0	434110464	66	5263
2026-01-21 09:18:08.90	106.65	33.84	-46.9	-49.8	16.2	0.00e+00	0	40	0	436207616	65	5018
2026-01-21 09:18:09.90	106.38	34.00	-46.4	-49.1	16.9	0.00e+00	0	40	0	438304768	64	4897
2026-01-21 09:18:10.90	106.10	34.15	-46.4	-49.1	16.9	0.00e+00	0	39	0	439353344	64	4900
2026-01-21 09:18:11.90	105.82	34.31	-46.2	-48.8	17.2	0.00e+00	0	40	0	441450496	64	4713
2026-01-21 09:18:12.90	105.53	34.46	-46.5	-49.1	16.9	0.00e+00	0	39	0	443547648	63	5212
2026-01-21 09:18:13.90	105.25	34.61	-46.4	-49.0	17.0	0.00e+00	0	39	0	445644800	63	5154
2026-01-21 09:18:14.91	104.95	34.77	-46.6	-49.4	16.6	0.00e+00	0	39	0	446693376	64	5098
2026-01-21 09:18:15.91	104.66	34.92	-47.0	-50.0	16.0	0.00e+00	0	39	0	448790528	65	5127
2026-01-21 09:18:16.91	104.37	35.08	-47.1	-50.2	15.9	0.00e+00	0	40	0	450887680	65	5219
2026-01-21 09:18:17.91	104.07	35.23	-47.2	-50.2	15.9	0.00e+00	0	39	0	452984832	65	5270
2026-01-21 09:18:18.92	103.77	35.39	-47.0	-49.9	16.1	0.00e+00	0	39	0	455081984	65	5068
2026-01-21 09:18:19.92	103.46	35.54	-47.2	-50.3	15.8	0.00e+00	0	40	0	456130560	65	5280
2026-01-21 09:18:20.92	103.16	35.69	-47.4	-50.5	15.6	0.00e+00	0	39	0	458227712	65	5441
2026-01-21 09:18:21.93	102.84	35.85	-47.3	-50.4	15.7	0.00e+00	0	40	0	460324864	65	5354
2026-01-21 09:18:22.93	102.53	36.00	-47.1	-50.1	15.8	0.00e+00	0	39	0	462422016	65	5205
2026-01-21 09:18:23.93	102.22	36.15	-47.1	-50.2	15.8	0.00e+00	0	39	0	464519168	65	5271
2026-01-21 09:18:24.93	101.90	36.30	-47.2	-50.4	15.7	0.00e+00	0	40	0	465567744	65	5370
2026-01-21 09:18:25.93	101.58	36.46	-47.4	-50.6	15.5	0.00e+00	0	39	0	467664896	65	5486
2026-01-21 09:18:26.93	101.25	36.61	-47.2	-50.4	15.8	0.00e+00	0	39	0	469762048	65	5341
2026-01-21 09:18:27.94	100.92	36.76	-47.2	-50.3	15.8	0.00e+00	0	39	0	471859200	65	5297
2026-01-21 09:18:28.94	100.59	36.91	-47.4	-50.6	15.5	0.00e+00	0	39	0	473956352	65	5486
2026-01-21 09:18:29.94	100.26	37.06	-47.6	-50.9	15.2	0.00e+00	0	39	0	475004928	66	5352
2026-01-21 09:18:30.94	99.92	37.21	-48.0	-51.5	14.6	0.00e+00	0	39	0	477102080	66	5753
2026-01-21 09:18:31.94	99.58	37.36	-48.7	-52.7	13.7	4.50e-06	0	40	0	479199232	68	5858
2026-01-21 09:18:32.94	99.24	37.51	-48.5	-52.3	13.9	1.50e-06	0	39	0	481296384	68	5620
2026-01-21 09:18:33.95	98.89	37.66	-48.3	-52.0	14.4	2.20e-06	0	39	0	483393536	68	5415
2026-01-21 09:18:34.94	98.55	37.81	-48.3	-51.9	14.4	0.00e+00	0	40	0	484442112	68	5352
2026-01-21 09:18:35.95	98.19	37.96	-48.8	-52.8	13.5	3.80e-06	0	39	0	486539264	68	5955
2026-01-21 09:18:36.95	97.84	38.10	-48.7	-52.6	13.6	1.14e-05	0	39	0	488636416	68	5843
2026-01-21 09:18:37.95	97.48	38.25	-48.2	-51.8	14.4	1.50e-06	0	39	0	490733568	68	5337
2026-01-21 09:18:38.95	97.12	38.39	-47.8	-51.1	14.9	0.00e+00	0	40	0	491782144	67	5215
2026-01-21 09:18:39.95	96.75	38.54	-47.7	-51.1	15.1	0.00e+00	0	40	0	493879296	66	5471
2026-01-21 09:18:40.95	96.38	38.68	-47.8	-51.2	14.9	1.50e-06	0	40	0	495976448	66	5561
2026-01-21 09:18:41.95	96.01	38.83	-47.4	-50.5	15.5	0.00e+00	0	40	0	498073600	66	5149
2026-01-21 09:18:42.95	95.64	38.97	-46.9	-49.8	16.3	0.00e+00	0	39	0	500170752	65	5006
2026-01-21 09:18:43.95	95.26	39.11	-46.4	-49.1	16.8	0.00e+00	0	39	0	501219328	64	4923
2026-01-21 09:18:44.96	94.87	39.25	-46.0	-48.9	16.9	0.00e+00	0	40	0	503316480	63	5078
2026-01-21 09:18:45.96	94.49	39.39	-45.6	-48.3	17.5	0.00e+00	0	39	0	505413632	63	4756
2026-01-21 09:18:46.95	94.10	39.53	-45.8	-48.7	17.2	0.00e+00	0	40	0	507510784	63	4929
2026-01-21 09:18:47.96	93.71	39.67	-46.1	-49.0	16.9	0.00e+00	0	40	0	509607936	63	5145
2026-01-21 09:18:48.96	93.31	39.81	-46.2	-49.2	16.7	0.00e+00	0	40	0	510656512	63	5261
2026-01-21 09:18:49.96	92.92	39.94	-46.5	-49.7	16.2	0.00e+00	0	39	0	512753664	63	5585
2026-01-21 09:18:50.97	92.51	40.08	-46.5	-49.8	15.9	0.00e+00	0	40	0	514850816	64	5314
2026-01-21 09:18:51.97	92.11	40.21	-46.6	-50.0	15.8	0.00e+00	0	40	0	516947968	64	5441
2026-01-21 09:18:52.97	91.70	40.35	-46.2	-49.2	16.6	0.00e+00	0	40	0	519045120	63	5264
2026-01-21 09:18:53.97	91.29	40.48	-46.2	-49.2	16.6	0.00e+00	0	39	0	520093696	63	5269
2026-01-21 09:18:54.97	90.87	40.61	-45.8	-48.7	17.1	0.00e+00	0	40	0	522190848	63	4983
2026-01-21 09:18:55.97	90.45	40.74	-45.9	-48.8	16.9	0.00e+00	0	39	0	524288000	63	5033
2026-01-21 09:18:56.97	90.03	40.87	-45.5	-48.3	17.5	0.00e+00	0	39	0	526385152	62	5010
2026-01-21 09:18:57.97	89.61	40.99	-45.7	-48.6	17.2	0.00e+00	0	39	0	527433728	62	5211
2026-01-21 09:18:58.98	89.17	41.12	-45.5	-48.4	17.4	0.00e+00	0	39	0	529530880	62	5067
2026-01-21 09:18:59.98	88.74	41.24	-44.9	-47.7	18.1	0.00e+00	0	40	0	531628032	61	4939
2026-01-21 09:19:00.98	88.31	41.36	-44.9	-47.7	18.0	0.00e+00	0	40	0	533725184	61	4954
2026-01-21 09:19:01.98	87.87	41.49	-45.0	-47.7	18.0	0.00e+00	0	39	0	535822336	61	4981
2026-01-21 09:19:02.99	87.42	41.61	-45.2	-48.1	17.7	0.00e+00	0	39	0	536870912	61	5174
2026-01-21 09:19:03.99	86.98	41.72	-45.7	-48.9	17.0	0.00e+00	0	39	0	538968064	62	5363
2026-01-21 09:19:04.99	86.53	41.84	-46.2	-49.6	16.3	0.00e+00	0	39	0	541065216	63	5480
2026-01-21 09:19:05.99	86.08	41.95	-46.1	-49.4	16.4	0.00e+00	0	40	0	543162368	63	5387
2026-01-21 09:19:06.99	85.63	42.07	-45.8	-48.9	16.8	0.00e+00	0	40	0	545259520	63	5065
2026-01-21 09:19:07.99	85.17	42.18	-45.1	-48.0	17.7	0.00e+00	0	40	0	546308096	62	4845
2026-01-21 09:19:08.99	84.71	42.29	-45.3	-48.1	17.6	0.00e+00	0	40	0	548405248	62	4920
2026-01-21 09:19:09.99	84.24	42.39	-45.3	-48.1	17.6	0.00e+00	0	40	0	550502400	62	4922
2026-01-21 09:19:10.99	83.78	42.50	-45.0	-47.7	18.0	0.00e+00	0	39	0	552599552	61	4982
2026-01-21 09:19:11.99	83.31	42.60	-44.7	-47.4	18.2	0.00e+00	0	39	0	554696704	61	4788
2026-01-21 09:19:12.99	82.84	42.71	-45.0	-47.7	18.0	0.00e+00	0	39	0	555745280	61	4959
2026-01-21 09:19:13.99	82.36	42.81	-45.2	-48.0	17.7	0.00e+00	0	40	0	557842432	61	5151
2026-01-21 09:19:14.99	81.88	42.90	-45.6	-48.6	17.2	0.00e+00	0	39	0	559939584	61	5490
2026-01-21 09:19:16.00	81.39	43.00	-45.6	-48.6	17.2	0.00e+00	0	40	0	562036736	61	5492
2026-01-21 09:19:17.00	80.91	43.10	-45.6	-48.6	17.2	0.00e+00	0	39	0	564133888	62	5174
2026-01-21 09:19:18.00	80.42	43.19	-46.5	-49.8	16.1	0.00e+00	0	40	0	565182464	63	5654
2026-01-21 09:19:19.00	79.93	43.28	-46.6	-50.0	16.0	0.00e+00	0	40	0	567279616	63	5757
2026-01-21 09:19:20.00	79.44	43.36	-46.4	-49.7	16.2	0.00e+00	0	39	0	569376768	64	5236
2026-01-21 09:19:21.00	78.94	43.45	-46.2	-49.3	16.5	0.00e+00	0	40	0	571473920	64	5001
2026-01-21 09:19:22.01	78.44	43.53	-45.9	-48.7	17.2	0.00e+00	0	40	0	572522496	63	4961
2026-01-21 09:19:23.01	77.94	43.61	-45.8	-48.6	17.3	0.00e+00	0	39	0	574619648	63	4921
2026-01-21 09:19:24.01	77.44	43.69	-45.9	-48.8	17.2	0.00e+00	0	39	0	576716800	63	4995
2026-01-21 09:19:25.01	76.93	43.77	-46.4	-49.5	16.4	0.00e+00	0	39	0	578813952	63	5442
2026-01-21 09:19:26.01	76.42	43.84	-46.4	-49.5	16.3	0.00e+00	0	39	0	580911104	64	5158
2026-01-21 09:19:27.01	75.91	43.91	-46.1	-49.0	16.8	0.00e+00	0	39	0	581959680	64	4830
2026-01-21 09:19:28.02	75.39	43.98	-46.4	-49.4	16.6	0.00e+00	0	39	0	584056832	63	5374
2026-01-21 09:19:29.02	74.88	44.05	-46.7	-49.9	15.9	0.00e+00	0	39	0	586153984	64	5395
2026-01-21 09:19:30.02	74.36	44.12	-47.0	-50.5	15.3	0.00e+00	0	40	0	588251136	64	5775
2026-01-21 09:19:31.01	73.85	44.18	-46.6	-49.8	16.0	0.00e+00	0	39	0	590348288	64	5300
2026-01-21 09:19:32.01	73.33	44.24	-46.6	-49.9	16.0	0.00e+00	0	39	0	591396864	64	5359
2026-01-21 09:19:33.01	72.80	44.29	-46.7	-50.0	15.9	0.00e+00	0	40	0	593494016	64	5455
2026-01-21 09:19:34.01	72.28	44.35	-45.9	-48.8	17.1	0.00e+00	0	39	0	595591168	63	4993
2026-01-21 09:19:35.01	71.75	44.40	-45.2	-47.9	18.0	0.00e+00	0	39	0	597688320	62	4771
2026-01-21 09:19:36.01	71.23	44.45	-45.6	-48.3	17.5	0.00e+00	0	40	0	598736896	62	5041
2026-01-21 09:19:37.02	70.69	44.49	-46.5	-49.8	16.1	0.00e+00	0	40	0	600834048	63	5612
2026-01-21 09:19:38.01	70.17	44.53	-47.2	-50.9	14.9	0.00e+00	0	40	0	602931200	65	5703
2026-01-21 09:19:39.01	69.63	44.58	-46.8	-50.2	15.7	0.00e+00	0	39	0	605028352	65	5238
2026-01-21 09:19:40.02	69.09	44.61	-46.6	-50.0	15.9	0.00e+00	0	40	0	607125504	65	5108
2026-01-21 09:19:41.02	68.56	44.65	-47.1	-50.9	15.1	0.00e+00	0	39	0	608174080	65	5702
2026-01-21 09:19:42.02	68.02	44.68	-47.5	-51.7	14.2	0.00e+00	0	39	0	610271232	65	6204
2026-01-21 09:19:43.02	67.49	44.71	-47.4	-51.4	14.5	2.20e-06	0	39	0	612368384	65	6014
2026-01-21 09:19:44.02	66.95	44.74	-47.2	-50.9	14.8	0.00e+00	0	39	0	614465536	65	5700
2026-01-21 09:19:45.02	66.41	44.76	-47.1	-50.7	15.2	0.00e+00	0	40	0	616562688	65	5548
2026-01-21 09:19:46.02	65.87	44.78	-46.7	-50.1	15.7	0.00e+00	0	40	0	617611264	65	5180
2026-01-21 09:19:47.02	65.33	44.80	-46.4	-49.7	16.1	0.00e+00	0	39	0	619708416	64	5230
2026-01-21 09:19:48.02	64.79	44.82	-46.6	-50.0	15.9	0.00e+00	0	39	0	621805568	64	5411
2026-01-21 09:19:49.02	64.25	44.83	-46.9	-50.5	15.3	0.00e+00	0	39	0	623902720	64	5728
2026-01-21 09:19:50.02	63.70	44.84	-46.9	-50.6	15.3	0.00e+00	0	39	0	625999872	64	5817
2026-01-21 09:19:51.02	63.16	44.84	-46.5	-49.8	16.0	0.00e+00	0	39	0	627048448	64	5288
2026-01-21 09:19:52.02	62.62	44.85	-45.7	-48.5	17.3	0.00e+00	0	39	0	629145600	63	4835
2026-01-21 09:19:53.02	62.08	44.85	-45.6	-48.4	17.5	0.00e+00	0	39	0	631242752	63	4765
2026-01-21 09:19:54.02	61.54	44.85	-46.6	-49.9	16.1	0.00e+00	0	39	0	633339904	63	5670
2026-01-21 09:19:55.03	60.99	44.84	-47.2	-51.0	14.9	0.00e+00	0	39	0	634388480	65	5731
2026-01-21 09:19:56.03	60.45	44.84	-47.2	-50.9	14.9	0.00e+00	0	39	0	636485632	65	5719
2026-01-21 09:19:57.03	59.91	44.83	-47.5	-51.6	14.2	0.00e+00	0	39	0	638582784	65	6148
2026-01-21 09:19:58.03	59.36	44.81	-47.5	-51.5	14.3	7.00e-07	0	39	0	640679936	65	6073
2026-01-21 09:19:59.03	58.82	44.80	-47.4	-51.3	14.5	0.00e+00	0	39	0	642777088	65	5970
2026-01-21 09:20:00.03	58.28	44.78	-47.5	-51.6	14.2	0.00e+00	0	39	0	643825664	65	6176
2026-01-21 09:20:01.03	57.74	44.76	-47.5	-51.6	14.3	7.00e-07	0	39	0	645922816	65	6198
2026-01-21 09:20:02.03	57.21	44.73	-46.8	-50.4	15.5	0.00e+00	0	40	0	648019968	65	5381
2026-01-21 09:20:03.03	56.67	44.71	-46.5	-49.9	16.0	0.00e+00	0	39	0	650117120	64	5354
2026-01-21 09:20:04.04	56.13	44.68	-46.6	-50.1	15.8	0.00e+00	0	39	0	652214272	64	5483
2026-01-21 09:20:05.04	55.59	44.64	-47.4	-51.4	14.6	0.00e+00	0	39	0	653262848	65	6022
2026-01-21 09:20:06.04	55.06	44.61	-47.8	-52.0	13.8	0.00e+00	0	39	0	655360000	66	6130
2026-01-21 09:20:07.04	54.52	44.57	-47.5	-51.5	14.4	7.00e-07	0	40	0	657457152	66	5733
2026-01-21 09:20:08.04	53.99	44.53	-47.1	-50.9	15.0	0.00e+00	0	40	0	659554304	65	5706
2026-01-21 09:20:09.04	53.46	44.48	-47.0	-50.6	15.2	0.00e+00	0	39	0	661651456	65	5473
2026-01-21 09:20:10.04	52.93	44.44	-46.6	-50.0	15.9	0.00e+00	0	39	0	662700032	65	5137
2026-01-21 09:20:11.04	52.41	44.39	-46.5	-49.9	16.1	0.00e+00	0	39	0	664797184	64	5345
2026-01-21 09:20:12.04	51.88	44.34	-46.7	-50.1	15.8	0.00e+00	0	39	0	666894336	64	5514
2026-01-21 09:20:13.04	51.36	44.28	-46.9	-50.5	15.3	0.00e+00	0	39	0	668991488	64	5768
2026-01-21 09:20:14.04	50.83	44.23	-47.1	-50.9	14.9	0.00e+00	0	39	0	671088640	64	6061
2026-01-21 09:20:15.04	50.31	44.17	-46.8	-50.4	15.3	0.00e+00	0	39	0	672137216	64	5698
2026-01-21 09:20:16.05	49.79	44.11	-46.6	-50.2	15.6	0.00e+00	0	39	0	674234368	64	5541
2026-01-21 09:20:17.05	49.28	44.04	-46.5	-50.0	15.8	0.00e+00	0	39	0	676331520	64	5453
2026-01-21 09:20:18.05	48.76	43.97	-46.0	-49.2	16.7	0.00e+00	0	40	0	678428672	63	5247
2026-01-21 09:20:19.05	48.25	43.90	-46.1	-49.2	16.4	0.00e+00	0	39	0	679477248	63	5274
2026-01-21 09:20:20.05	47.74	43.83	-45.8	-48.8	17.0	0.00e+00	0	39	0	681574400	63	5014
2026-01-21 09:20:21.05	47.23	43.76	-45.9	-48.9	16.9	0.00e+00	0	40	0	683671552	63	5088
2026-01-21 09:20:22.05	46.73	43.68	-46.4	-49.7	16.2	0.00e+00	0	39	0	685768704	63	5577
2026-01-21 09:20:23.05	46.23	43.60	-46.4	-49.8	16.1	0.00e+00	0	39	0	687865856	64	5307
2026-01-21 09:20:24.05	45.73	43.52	-46.2	-49.5	16.3	0.00e+00	0	39	0	688914432	64	5138
2026-01-21 09:20:25.05	45.23	43.44	-45.9	-49.0	16.8	0.00e+00	0	39	0	691011584	63	5117
2026-01-21 09:20:26.05	44.74	43.35	-46.0	-49.1	16.6	0.00e+00	0	39	0	693108736	63	5184
2026-01-21 09:20:27.06	44.24	43.26	-46.3	-49.4	16.4	0.00e+00	0	40	0	695205888	63	5390
2026-01-21 09:20:28.06	43.75	43.18	-45.9	-48.8	17.0	0.00e+00	0	40	0	697303040	63	5039
2026-01-21 09:20:29.06	43.26	43.08	-45.1	-47.8	18.0	0.00e+00	0	39	0	698351616	62	4723
2026-01-21 09:20:30.06	42.78	42.99	-44.7	-47.2	18.4	0.00e+00	0	39	0	700448768	61	4674
2026-01-21 09:20:31.06	42.30	42.89	-44.9	-47.5	18.2	0.00e+00	0	39	0	702545920	61	4850
2026-01-21 09:20:32.06	41.82	42.79	-45.3	-48.1	17.7	0.00e+00	0	39	0	704643072	61	5193
2026-01-21 09:20:33.06	41.35	42.69	-45.6	-48.6	17.2	0.00e+00	0	40	0	705691648	61	5507
2026-01-21 09:20:34.07	40.87	42.59	-46.3	-49.6	16.3	0.00e+00	0	40	0	707788800	63	5494
2026-01-21 09:20:35.07	40.40	42.49	-46.1	-49.3	16.6	0.00e+00	0	40	0	709885952	63	5285
2026-01-21 09:20:36.07	39.94	42.38	-45.5	-48.3	17.6	0.00e+00	0	40	0	711983104	63	4756
2026-01-21 09:20:37.07	39.48	42.27	-45.1	-47.7	18.1	0.00e+00	0	40	0	714080256	62	4693
2026-01-21 09:20:38.08	39.01	42.16	-44.9	-47.5	18.3	0.00e+00	0	39	0	715128832	61	4850
2026-01-21 09:20:39.08	38.56	42.05	-45.2	-47.9	17.8	0.00e+00	0	40	0	717225984	61	5093
2026-01-21 09:20:40.08	38.10	41.94	-44.8	-47.5	18.3	0.00e+00	0	40	0	719323136	61	4816
2026-01-21 09:20:41.08	37.66	41.83	-44.5	-47.1	18.8	0.00e+00	0	39	0	721420288	61	4602
2026-01-21 09:20:42.08	37.21	41.71	-44.3	-46.7	19.0	0.00e+00	0	39	0	723517440	60	4693
2026-01-21 09:20:43.08	36.77	41.59	-44.3	-46.7	19.0	0.00e+00	0	39	0	724566016	60	4686
2026-01-21 09:20:44.08	36.33	41.47	-44.0	-46.4	19.3	0.00e+00	0	39	0	726663168	60	4521
2026-01-21 09:20:45.08	35.89	41.35	-43.2	-45.3	20.1	0.00e+00	0	39	0	728760320	58	4480
2026-01-21 09:20:46.09	35.45	41.23	-42.9	-45.0	20.4	0.00e+00	0	40	0	730857472	57	4585
2026-01-21 09:20:47.08	35.03	41.11	-42.7	-44.8	20.5	0.00e+00	0	39	0	732954624	57	4478
2026-01-21 09:20:48.09	34.60	40.98	-42.9	-45.1	20.4	0.00e+00	0	40	0	734003200	57	4605
2026-01-21 09:20:49.09	34.17	40.85	-42.8	-44.9	20.5	0.00e+00	0	40	0	736100352	57	4542
2026-01-21 09:20:50.09	33.75	40.73	-43.3	-45.5	19.9	0.00e+00	0	39	0	738197504	57	4845
2026-01-21 09:20:51.09	33.34	40.60	-43.9	-46.3	19.3	0.00e+00	0	40	0	740294656	58	5024
2026-01-21 09:20:52.09	32.92	40.47	-43.8	-46.1	19.5	0.00e+00	0	40	0	742391808	58	4889
2026-01-21 09:20:53.09	32.51	40.34	-43.1	-45.3	20.2	0.00e+00	0	40	0	743440384	58	4445
2026-01-21 09:20:54.09	32.11	40.20	-43.3	-45.5	20.0	0.00e+00	0	40	0	745537536	58	4570
2026-01-21 09:20:55.10	31.70	40.07	-43.7	-46.0	19.6	0.00e+00	0	39	0	747634688	58	4830
2026-01-21 09:20:56.10	31.30	39.93	-44.2	-46.5	19.1	0.00e+00	0	40	0	749731840	58	5155
2026-01-21 09:20:57.10	30.90	39.80	-43.9	-46.3	19.3	0.00e+00	0	39	0	750780416	59	4722
2026-01-21 09:20:58.10	30.51	39.66	-44.3	-46.8	18.9	0.00e+00	0	40	0	752877568	59	4988
2026-01-21 09:20:59.10	30.12	39.52	-45.1	-47.8	18.2	0.00e+00	0	39	0	754974720	60	5303
2026-01-21 09:21:00.10	29.73	39.39	-45.4	-48.2	17.8	0.00e+00	0	39	0	757071872	61	5247
2026-01-21 09:21:01.10	29.35	39.25	-44.9	-47.5	18.4	0.00e+00	0	39	0	759169024	61	4827
2026-01-21 09:21:02.11	28.97	39.10	-44.7	-47.2	18.7	0.00e+00	0	39	0	760217600	61	4654
2026-01-21 09:21:03.11	28.59	38.96	-44.9	-47.3	18.5	0.00e+00	0	39	0	762314752	61	4755
2026-01-21 09:21:04.11	28.22	38.82	-45.4	-48.1	17.8	0.00e+00	0	39	0	764411904	61	5162
2026-01-21 09:21:05.11	27.85	38.68	-45.0	-47.5	18.3	0.00e+00	0	39	0	766509056	61	4855
2026-01-21 09:21:06.12	27.48	38.53	-44.9	-47.4	18.5	0.00e+00	0	40	0	768606208	61	4793
2026-01-21 09:21:07.12	27.11	38.39	-45.3	-47.9	18.0	0.00e+00	0	40	0	769654784	61	5050
2026-01-21 09:21:08.12	26.75	38.24	-45.8	-48.6	17.5	0.00e+00	0	40	0	771751936	62	5184
2026-01-21 09:21:09.12	26.40	38.10	-45.6	-48.3	17.7	0.00e+00	0	40	0	773849088	62	5006
2026-01-21 09:21:10.12	26.04	37.95	-45.4	-48.0	17.9	0.00e+00	0	39	0	775946240	62	4849
2026-01-21 09:21:11.13	25.69	37.80	-45.1	-47.7	18.2	0.00e+00	0	39	0	778043392	62	4658
2026-01-21 09:21:12.13	25.34	37.66	-45.5	-48.2	17.8	0.00e+00	0	40	0	779091968	62	4963
2026-01-21 09:21:13.13	25.00	37.51	-45.7	-48.4	17.6	0.00e+00	0	39	0	781189120	62	5070
2026-01-21 09:21:14.13	24.66	37.36	-45.7	-48.4	17.7	0.00e+00	0	39	0	783286272	62	5091
2026-01-21 09:21:15.13	24.32	37.21	-44.9	-47.4	18.5	0.00e+00	0	39	0	785383424	61	4763
2026-01-21 09:21:16.13	23.99	37.06	-44.7	-47.2	18.8	0.00e+00	0	40	0	787480576	61	4655
2026-01-21 09:21:17.13	23.65	36.91	-44.9	-47.4	18.5	0.00e+00	0	39	0	788529152	61	4801
2026-01-21 09:21:18.13	23.33	36.76	-45.2	-47.7	18.2	0.00e+00	0	39	0	790626304	61	4954
2026-01-21 09:21:19.12	23.00	36.61	-45.4	-48.0	17.9	0.00e+00	0	39	0	792723456	61	5133
2026-01-21 09:21:20.12	22.68	36.46	-46.0	-48.8	17.2	0.00e+00	0	40	0	794820608	62	5309
2026-01-21 09:21:21.12	22.36	36.31	-46.6	-49.6	16.5	0.00e+00	0	39	0	795869184	63	5473
2026-01-21 09:21:22.13	22.04	36.16	-47.4	-50.9	15.2	0.00e+00	0	39	0	797966336	65	5676
2026-01-21 09:21:23.12	21.73	36.01	-47.0	-50.4	15.6	0.00e+00	0	39	0	800063488	65	5344
2026-01-21 09:21:24.12	21.42	35.85	-46.3	-49.3	16.7	0.00e+00	0	39	0	802160640	64	4999
2026-01-21 09:21:25.12	21.11	35.70	-46.2	-49.2	16.9	0.00e+00	0	40	0	804257792	64	4981
2026-01-21 09:21:26.12	20.81	35.55	-46.5	-49.7	16.3	0.00e+00	0	40	0	805306368	63	5590
2026-01-21 09:21:27.12	20.51	35.40	-47.1	-50.7	15.3	0.00e+00	0	39	0	807403520	64	5897
2026-01-21 09:21:28.12	20.21	35.24	-47.5	-51.4	14.6	0.00e+00	0	39	0	809500672	65	5993
2026-01-21 09:21:29.12	19.91	35.09	-47.5	-51.2	14.8	7.00e-07	0	39	0	811597824	65	5904
2026-01-21 09:21:30.12	19.62	34.94	-47.7	-51.4	14.7	7.00e-07	0	39	0	813694976	66	5674
2026-01-21 09:21:31.13	19.33	34.78	-48.1	-52.1	14.0	4.50e-06	0	39	0	814743552	67	5801
2026-01-21 09:21:32.13	19.04	34.63	-48.5	-52.7	13.3	9.90e-06	0	40	0	816840704	67	6223
2026-01-21 09:21:33.13	18.75	34.48	-48.2	-52.2	13.9	6.80e-06	0	39	0	818937856	67	5884
2026-01-21 09:21:34.13	18.47	34.32	-47.4	-50.8	15.3	0.00e+00	0	39	0	821035008	66	5328
2026-01-21 09:21:35.14	18.19	34.17	-47.2	-50.5	15.6	0.00e+00	0	40	0	823132160	66	5113
2026-01-21 09:21:36.14	17.91	34.01	-47.5	-51.0	15.0	0.00e+00	0	39	0	824180736	66	5455
2026-01-21 09:21:37.14	17.64	33.86	-48.6	-53.0	13.0	7.60e-06	0	39	0	826277888	67	6453
2026-01-21 09:21:38.14	17.36	33.71	-49.2	-54.1	11.8	4.04e-04	0	39	0	828375040	69	6524
2026-01-21 09:21:39.14	17.10	33.55	-49.4	-54.4	11.8	5.65e-04	0	39	0	830472192	69	6736
2026-01-21 09:21:40.14	16.83	33.40	-48.7	-53.0	13.1	2.27e-04	0	39	0	831520768	69	5781
2026-01-21 09:21:41.14	16.56	33.25	-48.8	-53.1	13.0	3.43e-05	0	39	0	833617920	69	5843
2026-01-21 09:21:42.14	16.30	33.09	-48.6	-52.7	13.5	7.60e-06	0	40	0	835715072	69	5579
2026-01-21 09:21:43.14	16.04	32.94	-48.6	-52.6	13.6	4.50e-06	0	39	0	837812224	68	5852
2026-01-21 09:21:44.14	15.79	32.79	-48.2	-52.0	14.2	3.00e-06	0	39	0	839909376	68	5447
2026-01-21 09:21:45.14	15.53	32.63	-48.5	-52.4	13.8	1.06e-05	0	39	0	840957952	68	5716
2026-01-21 09:21:46.14	15.28	32.48	-48.0	-51.6	14.3	2.20e-06	0	40	0	843055104	68	5196
2026-01-21 09:21:47.14	15.03	32.33	-47.9	-51.6	14.4	0.00e+00	0	39	0	845152256	67	5524
2026-01-21 09:21:48.14	14.78	32.18	-47.8	-51.4	14.6	7.00e-07	0	40	0	847249408	67	5400
2026-01-21 09:21:49.15	14.54	32.02	-47.3	-50.7	15.3	0.00e+00	0	40	0	849346560	66	5236
2026-01-21 09:21:50.15	14.30	31.87	-46.5	-49.5	16.4	0.00e+00	0	39	0	850395136	64	5125
2026-01-21 09:21:51.15	14.06	31.72	-46.3	-49.3	16.7	0.00e+00	0	39	0	852492288	64	5023
2026-01-21 09:21:52.15	13.82	31.57	-46.6	-49.7	16.3	0.00e+00	0	40	0	854589440	64	5230
2026-01-21 09:21:53.15	13.58	31.42	-46.9	-50.3	15.7	0.00e+00	0	39	0	856686592	64	5597
2026-01-21 09:21:54.15	13.35	31.27	-47.5	-51.1	14.7	0.00e+00	0	39	0	858783744	65	5850
2026-01-21 09:21:55.16	13.12	31.11	-47.6	-51.4	14.6	0.00e+00	0	40	0	859832320	65	5996
2026-01-21 09:21:56.16	12.89	30.96	-48.0	-52.0	14.0	2.20e-06	0	40	0	861929472	66	6088
2026-01-21 09:21:57.16	12.66	30.81	-47.8	-51.7	14.3	2.20e-06	0	40	0	864026624	66	5883
2026-01-21 09:21:58.16	12.43	30.66	-47.5	-51.1	15.0	0.00e+00	0	40	0	866123776	66	5490
2026-01-21 09:21:59.16	12.21	30.51	-47.4	-51.0	15.1	0.00e+00	0	40	0	867172352	66	5407
2026-01-21 09:22:00.16	11.99	30.36	-47.8	-51.5	14.6	0.00e+00	0	40	0	869269504	66	5765
2026-01-21 09:22:01.17	11.77	30.21	-47.5	-51.0	15.0	0.00e+00	0	39	0	871366656	66	5456
2026-01-21 09:22:02.17	11.55	30.06	-47.7	-51.2	14.9	0.00e+00	0	40	0	873463808	66	5577
2026-01-21 09:22:03.17	11.34	29.91	-47.0	-50.1	15.9	0.00e+00	0	39	0	875560960	66	4919
2026-01-21 09:22:04.17	11.13	29.77	-46.9	-50.1	16.0	0.00e+00	0	40	0	876609536	65	5160
2026-01-21 09:22:05.17	10.92	29.62	-46.5	-49.4	16.7	0.00e+00	0	39	0	878706688	64	5043
2026-01-21 09:22:06.17	10.71	29.47	-46.4	-49.4	16.7	0.00e+00	0	39	0	880803840	64	5055
2026-01-21 09:22:07.17	10.50	29.32	-46.6	-49.7	16.4	0.00e+00	0	39	0	882900992	64	5226
2026-01-21 09:22:08.18	10.30	29.18	-46.7	-49.9	16.1	0.00e+00	0	40	0	884998144	64	5373
2026-01-21 09:22:09.18	10.09	29.03	-46.8	-50.1	16.0	0.00e+00	0	40	0	886046720	64	5475
2026-01-21 09:22:10.18	9.89	28.88	-46.9	-50.2	16.0	0.00e+00	0	39	0	888143872	64	5591
2026-01-21 09:22:11.19	9.69	28.74	-46.9	-50.2	15.8	0.00e+00	0	39	0	890241024	65	5257
2026-01-21 09:22:12.19	9.49	28.59	-46.7	-49.9	16.1	0.00e+00	0	39	0	892338176	65	5061
2026-01-21 09:22:13.19	9.30	28.44	-46.3	-49.3	16.7	0.00e+00	0	40	0	894435328	64	4993
2026-01-21 09:22:14.19	9.11	28.30	-46.2	-49.1	16.9	0.00e+00	0	39	0	895483904	64	4878
2026-01-21 09:22:15.19	8.91	28.16	-45.9	-48.6	17.4	0.00e+00	0	40	0	897581056	63	4905
2026-01-21 09:22:16.19	8.72	28.01	-45.7	-48.3	17.7	0.00e+00	0	40	0	899678208	63	4737
2026-01-21 09:22:17.19	8.54	27.87	-45.8	-48.5	17.5	0.00e+00	0	40	0	901775360	63	4845
2026-01-21 09:22:18.19	8.35	27.73	-46.2	-49.1	17.0	0.00e+00	0	40	0	903872512	63	5181
2026-01-21 09:22:19.19	8.16	27.58	-46.6	-49.7	16.4	0.00e+00	0	40	0	904921088	63	5552
2026-01-21 09:22:20.19	7.98	27.44	-46.9	-50.2	15.9	0.00e+00	0	39	0	907018240	64	5546
2026-01-21 09:22:21.19	7.80	27.30	-48.0	-51.9	14.2	0.00e+00	0	40	0	909115392	66	6045
2026-01-21 09:22:22.19	7.62	27.16	-47.9	-51.7	14.4	0.00e+00	0	40	0	911212544	66	5923
2026-01-21 09:22:23.20	7.44	27.02	-47.9	-51.7	14.5	0.00e+00	0	40	0	912261120	66	5865
2026-01-21 09:22:24.20	7.26	26.87	-47.2	-50.6	15.4	0.00e+00	0	40	0	914358272	66	5203
2026-01-21 09:22:25.20	7.09	26.73	-47.1	-50.3	15.7	0.00e+00	0	40	0	916455424	66	5038
2026-01-21 09:22:26.20	6.91	26.59	-46.5	-49.5	16.2	0.00e+00	0	40	0	918552576	65	4833
2026-01-21 09:22:27.20	6.74	26.46	-46.4	-49.3	16.6	0.00e+00	0	40	0	920649728	64	5022
2026-01-21 09:22:28.20	6.57	26.32	-46.1	-49.0	17.0	0.00e+00	0	39	0	921698304	64	4817
2026-01-21 09:22:29.20	6.40	26.18	-46.1	-49.0	17.0	0.00e+00	0	40	0	923795456	64	4834
2026-01-21 09:22:30.20	6.23	26.04	-46.2	-49.0	17.0	0.00e+00	0	39	0	925892608	64	4857
2026-01-21 09:22:31.20	6.07	25.90	-46.2	-49.1	16.9	0.00e+00	0	40	0	927989760	64	4904
2026-01-21 09:22:32.20	5.90	25.77	-46.7	-49.7	16.3	0.00e+00	0	39	0	930086912	64	5255
2026-01-21 09:22:33.19	5.74	25.63	-46.5	-49.5	16.5	0.00e+00	0	40	0	931135488	64	5140
2026-01-21 09:22:34.19	5.58	25.49	-46.4	-49.3	16.7	0.00e+00	0	39	0	933232640	64	5040
2026-01-21 09:22:35.20	5.42	25.36	-46.4	-49.4	16.6	0.00e+00	0	39	0	935329792	64	5091
2026-01-21 09:22:36.20	5.26	25.22	-46.4	-49.5	16.5	0.00e+00	0	40	0	937426944	64	5125
2026-01-21 09:22:37.19	5.10	25.09	-46.2	-49.2	16.8	0.00e+00	0	40	0	938475520	64	4946
2026-01-21 09:22:38.20	4.95	24.95	-46.6	-49.7	16.3	0.00e+00	0	40	0	940572672	64	5222
2026-01-21 09:22:39.19	4.79	24.82	-46.7	-49.9	16.1	0.00e+00	0	39	0	942669824	64	5347
2026-01-21 09:22:40.20	4.64	24.68	-46.9	-50.2	15.8	0.00e+00	0	40	0	944766976	64	5554
2026-01-21 09:22:41.20	4.49	24.55	-47.5	-51.0	15.0	0.00e+00	0	39	0	946864128	65	5770
2026-01-21 09:22:42.20	4.34	24.42	-47.9	-51.7	14.3	0.00e+00	0	39	0	947912704	66	5877
2026-01-21 09:22:43.20	4.19	24.29	-47.9	-51.8	14.3	1.50e-06	0	40	0	950009856	66	5946
2026-01-21 09:22:44.20	4.04	24.16	-47.5	-51.1	14.9	0.00e+00	0	40	0	952107008	66	5490
2026-01-21 09:22:45.20	3.89	24.02	-47.3	-50.8	15.3	0.00e+00	0	40	0	954204160	66	5286
2026-01-21 09:22:46.20	3.74	23.89	-46.8	-50.1	15.9	0.00e+00	0	40	0	956301312	65	5183
2026-01-21 09:22:47.21	3.60	23.76	-46.5	-49.6	16.4	0.00e+00	0	40	0	957349888	65	4897
2026-01-21 09:22:48.21	3.46	23.63	-46.3	-49.2	16.7	0.00e+00	0	39	0	959447040	64	4967
2026-01-21 09:22:49.21	3.31	23.50	-46.1	-48.9	17.0	0.00e+00	0	39	0	961544192	64	4812
2026-01-21 09:22:50.21	3.17	23.37	-46.0	-48.7	17.1	0.00e+00	0	39	0	963641344	64	4704
2026-01-21 09:22:51.21	3.03	23.25	-46.3	-49.2	16.9	0.00e+00	0	39	0	965738496	63	5225
2026-01-21 09:22:52.22	2.89	23.12	-46.3	-49.2	16.8	0.00e+00	0	40	0	966787072	63	5279
2026-01-21 09:22:53.22	2.76	22.99	-46.4	-49.4	16.7	0.00e+00	0	40	0	968884224	63	5353
2026-01-21 09:22:54.22	2.62	22.86	-46.4	-49.4	16.7	0.00e+00	0	40	0	970981376	63	5342
2026-01-21 09:22:55.22	2.48	22.73	-46.4	-49.4	16.6	0.00e+00	0	40	0	973078528	63	5380
2026-01-21 09:22:56.22	2.35	22.61	-46.5	-49.7	16.4	0.00e+00	0	39	0	974127104	63	5575
2026-01-21 09:22:57.22	2.22	22.48	-46.5	-49.8	16.3	0.00e+00	0	39	0	976224256	63	5601
2026-01-21 09:22:58.22	2.09	22.36	-46.6	-49.9	16.2	0.00e+00	0	40	0	978321408	63	5693
2026-01-21 09:22:59.23	1.95	22.23	-46.6	-49.9	16.1	0.00e+00	0	39	0	980418560	64	5372
2026-01-21 09:23:00.23	1.82	22.11	-46.7	-50.0	16.0	0.00e+00	0	40	0	982515712	64	5412
2026-01-21 09:23:01.23	1.70	21.98	-46.5	-49.7	16.3	0.00e+00	0	39	0	983564288	64	5252
2026-01-21 09:23:02.23	1.57	21.86	-46.4	-49.5	16.5	0.00e+00	0	40	0	985661440	64	5115
2026-01-21 09:23:03.23	1.44	21.74	-46.2	-49.1	16.8	0.00e+00	0	39	0	987758592	64	4914
2026-01-21 09:23:04.23	1.32	21.61	-45.9	-48.7	17.3	0.00e+00	0	39	0	989855744	63	4931
2026-01-21 09:23:05.23	1.19	21.49	-46.0	-48.8	17.2	0.00e+00	0	40	0	991952896	63	5008
2026-01-21 09:23:06.22	1.07	21.37	-45.8	-48.6	17.3	0.00e+00	0	39	0	993001472	63	4907
2026-01-21 09:23:07.22	0.95	21.25	-46.0	-48.8	17.2	0.00e+00	0	39	0	995098624	63	5033
2026-01-21 09:23:08.23	0.83	21.13	-46.2	-49.2	16.8	0.00e+00	0	39	0	997195776	63	5225
2026-01-21 09:23:09.22	0.71	21.01	-46.7	-49.9	16.0	0.00e+00	0	39	0	999292928	64	5398
2026-01-21 09:23:10.22	0.59	20.89	-47.0	-50.5	15.4	0.00e+00	0	40	0	1000341504	64	5775
2026-01-21 09:23:11.23	0.47	20.77	-47.5	-51.3	14.7	0.00e+00	0	39	0	1002438656	65	5949
2026-01-21 09:23:12.22	0.35	20.65	-48.1	-52.3	13.8	7.00e-07	0	40	0	1004535808	66	6297
2026-01-21 09:23:13.22	0.23	20.53	-48.3	-52.6	13.5	6.80e-06	0	39	0	1006632960	67	6146
2026-01-21 09:23:14.23	0.12	20.41	-48.4	-52.7	13.3	9.90e-06	0	39	0	1008730112	67	6238
2026-01-21 09:23:15.23	0.00	20.29	-48.1	-52.2	13.8	6.10e-06	0	40	0	1010827264	67	5914
2026-01-21 09:23:16.23	359.89	20.18	-47.8	-51.8	14.2	7.00e-07	0	39	0	1011875840	67	5630
2026-01-21 09:23:17.23	359.78	20.06	-47.5	-51.3	14.7	0.00e+00	0	39	0	1013972992	67	5328
2026-01-21 09:23:18.22	359.66	19.94	-47.3	-51.0	15.0	0.00e+00	0	39	0	1016070144	66	5431
2026-01-21 09:23:19.23	359.55	19.83	-47.2	-50.9	15.0	0.00e+00	0	40	0	1018167296	66	5386
2026-01-21 09:23:20.23	359.44	19.71	-47.2	-50.8	15.2	0.00e+00	0	40	0	1019215872	66	5292
2026-01-21 09:23:21.23	359.33	19.60	-47.2	-50.7	15.2	0.00e+00	0	39	0	1021313024	66	5257
2026-01-21 09:23:22.23	359.22	19.48	-47.2	-50.7	15.3	0.00e+00	0	39	0	1023410176	66	5279
2026-01-21 09:23:23.24	359.11	19.37	-47.2	-50.6	15.4	0.00e+00	0	40	0	1025507328	66	5191
2026-01-21 09:23:24.24	359.01	19.25	-47.2	-50.6	15.3	0.00e+00	0	40	0	1027604480	66	5197
2026-01-21 09:23:25.24	358.90	19.14	-47.2	-50.5	15.4	0.00e+00	0	39	0	1028653056	66	5158
2026-01-21 09:23:26.24	358.80	19.02	-47.1	-50.4	15.5	0.00e+00	0	39	0	1030750208	66	5097
2026-01-21 09:23:27.24	358.69	18.91	-47.0	-50.3	15.6	0.00e+00	0	39	0	1032847360	66	5030
2026-01-21 09:23:28.24	358.59	18.80	-47.0	-50.3	15.6	0.00e+00	0	39	0	1034944512	65	5305
2026-01-21 09:23:29.25	358.48	18.69	-46.8	-50.2	15.7	0.00e+00	0	40	0	1037041664	65	5250
2026-01-21 09:23:30.25	358.38	18.58	-46.7	-50.0	15.9	0.00e+00	0	39	0	1038090240	65	5131
2026-01-21 09:23:31.25	358.28	18.46	-46.7	-50.1	15.8	0.00e+00	0	40	0	1040187392	65	5193
2026-01-21 09:23:32.25	358.18	18.35	-46.7	-50.1	15.8	0.00e+00	0	40	0	1042284544	65	5211
2026-01-21 09:23:33.25	358.08	18.24	-46.6	-50.0	15.9	0.00e+00	0	39	0	1044381696	65	5140
2026-01-21 09:23:34.25	357.98	18.13	-46.7	-50.1	15.8	0.00e+00	0	39	0	1045430272	65	5189
2026-01-21 09:23:35.25	357.88	18.02	-46.7	-50.0	15.9	0.00e+00	0	39	0	1047527424	65	5114
2026-01-21 09:23:36.25	357.78	17.91	-46.7	-50.0	16.0	0.00e+00	0	40	0	1049624576	65	5102
2026-01-21 09:23:37.25	357.69	17.81	-46.6	-49.8	16.1	0.00e+00	0	40	0	1051721728	65	5035
2026-01-21 09:23:38.25	357.59	17.70	-46.9	-50.3	15.7	0.00e+00	0	39	0	1053818880	65	5290
2026-01-21 09:23:39.25	357.50	17.59	-46.6	-49.8	16.0	0.00e+00	0	40	0	1054867456	65	5037
2026-01-21 09:23:40.25	357.40	17.48	-46.5	-49.8	16.0	0.00e+00	0	39	0	1056964608	65	5031
2026-01-21 09:23:41.25	357.31	17.38	-46.6	-50.1	15.9	0.00e+00	0	39	0	1059061760	65	5177
2026-01-21 09:23:42.25	357.21	17.27	-46.7	-50.1	15.8	0.00e+00	0	40	0	1061158912	65	5204
2026-01-21 09:23:43.25	357.12	17.16	-46.6	-50.1	15.8	0.00e+00	0	39	0	1063256064	65	5172
2026-01-21 09:23:44.26	357.03	17.05	-46.8	-50.3	15.6	0.00e+00	0	39	0	1064304640	65	5298
2026-01-21 09:23:45.26	356.94	16.95	-46.9	-50.5	15.4	0.00e+00	0	40	0	1066401792	65	5421
2026-01-21 09:23:46.26	356.85	16.84	-46.9	-50.4	15.5	0.00e+00	0	40	0	1068498944	65	5368
2026-01-21 09:23:47.26	356.76	16.74	-47.0	-50.5	15.4	0.00e+00	0	40	0	1070596096	65	5425
2026-01-21 09:23:48.26	356.67	16.63	-47.1	-50.5	15.4	0.00e+00	0	40	0	1072693248	65	5429
2026-01-21 09:23:49.26	356.58	16.53	-46.8	-50.1	15.8	0.00e+00	0	39	0	1073741824	65	5170
2026-01-21 09:23:50.27	356.49	16.43	-46.8	-50.2	15.8	0.00e+00	0	39	0	1075838976	65	5249
2026-01-21 09:23:51.26	356.40	16.32	-46.6	-49.9	15.9	0.00e+00	0	39	0	1077936128	65	5074
2026-01-21 09:23:52.27	356.31	16.22	-46.4	-49.6	16.3	0.00e+00	0	39	0	1080033280	64	5176
2026-01-21 09:23:53.27	356.23	16.12	-46.4	-49.6	16.3	0.00e+00	0	40	0	1081081856	64	5176
2026-01-21 09:23:54.27	356.14	16.01	-46.1	-49.1	16.8	0.00e+00	0	40	0	1083179008	64	4917
2026-01-21 09:23:55.27	356.06	15.91	-46.0	-49.0	16.9	0.00e+00	0	39	0	1085276160	63	5151
2026-01-21 09:23:56.27	355.97	15.81	-45.9	-48.9	17.0	0.00e+00	0	40	0	1087373312	63	5048
2026-01-21 09:23:57.27	355.89	15.71	-45.8	-48.7	17.2	0.00e+00	0	40	0	1089470464	63	4974
2026-01-21 09:23:58.27	355.81	15.61	-45.8	-48.7	17.2	0.00e+00	0	40	0	1090519040	63	4950
2026-01-21 09:23:59.27	355.72	15.51	-45.8	-48.6	17.3	0.00e+00	0	39	0	1092616192	63	4895
2026-01-21 09:24:00.27	355.64	15.41	-45.8	-48.6	17.3	0.00e+00	0	39	0	1094713344	63	4907
2026-01-21 09:24:01.27	355.56	15.31	-45.8	-48.6	17.2	0.00e+00	0	40	0	1096810496	63	4923
2026-01-21 09:24:02.27	355.48	15.21	-46.0	-48.9	17.0	0.00e+00	0	40	0	1098907648	63	5049
2026-01-21 09:24:03.27	355.40	15.11	-46.0	-48.9	17.0	0.00e+00	0	40	0	1099956224	63	5079
2026-01-21 09:24:04.27	355.32	15.01	-46.1	-49.0	16.9	0.00e+00	0	40	0	1102053376	63	5144
2026-01-21 09:24:05.27	355.24	14.91	-46.4	-49.6	16.3	0.00e+00	0	39	0	1104150528	63	5483
2026-01-21 09:24:06.27	355.16	14.82	-46.3	-49.5	16.4	0.00e+00	0	40	0	1106247680	63	5451
2026-01-21 09:24:07.28	355.08	14.72	-46.4	-49.7	16.3	0.00e+00	0	40	0	1108344832	63	5542
2026-01-21 09:24:08.28	355.00	14.62	-46.7	-50.1	15.8	0.00e+00	0	39	0	1109393408	63	5841
2026-01-21 09:24:09.28	354.93	14.52	-46.6	-50.0	15.8	0.00e+00	0	39	0	1111490560	64	5440
2026-01-21 09:24:10.29	354.85	14.42	-46.7	-50.1	15.8	0.00e+00	0	39	0	1113587712	64	5515
2026-01-21 09:24:11.28	354.77	14.33	-46.9	-50.2	15.6	0.00e+00	0	40	0	1115684864	64	5589
2026-01-21 09:24:12.28	354.70	14.23	-47.1	-50.4	15.5	0.00e+00	0	39	0	1116733440	64	5709
2026-01-21 09:24:13.28	354.62	14.14	-47.1	-50.4	15.5	0.00e+00	0	39	0	1118830592	65	5381
2026-01-21 09:24:14.28	354.55	14.04	-47.2	-50.7	15.2	0.00e+00	0	40	0	1120927744	65	5554
2026-01-21 09:24:15.28	354.47	13.95	-47.2	-50.7	15.2	0.00e+00	0	39	0	1123024896	65	5560
2026-01-21 09:24:16.28	354.40	13.85	-46.9	-50.4	15.4	0.00e+00	0	40	0	1125122048	65	5387
2026-01-21 09:24:17.28	354.33	13.76	-47.0	-50.6	15.3	0.00e+00	0	40	0	1126170624	65	5500
2026-01-21 09:24:18.28	354.26	13.66	-46.9	-50.4	15.5	0.00e+00	0	40	0	1128267776	65	5342
2026-01-21 09:24:19.28	354.18	13.57	-47.0	-50.5	15.4	0.00e+00	0	39	0	1130364928	65	5449
2026-01-21 09:24:20.28	354.11	13.48	-47.1	-50.7	15.2	0.00e+00	0	40	0	1132462080	65	5543
2026-01-21 09:24:21.28	354.04	13.38	-47.0	-50.5	15.3	0.00e+00	0	39	0	1134559232	65	5451
2026-01-21 09:24:22.28	353.97	13.29	-46.9	-50.6	15.2	0.00e+00	0	40	0	1135607808	65	5481
2026-01-21 09:24:23.29	353.90	13.20	-46.8	-50.6	15.3	0.00e+00	0	40	0	1137704960	65	5465
2026-01-21 09:24:24.28	353.83	13.11	-46.8	-50.8	15.1	0.00e+00	0	39	0	1139802112	65	5611
2026-01-21 09:24:25.29	353.76	13.01	-46.5	-50.6	15.2	0.00e+00	0	40	0	1141899264	65	5511
2026-01-21 09:24:26.29	353.69	12.92	-46.6	-51.0	14.8	0.00e+00	0	40	0	1143996416	64	6103
2026-01-21 09:24:27.28	353.62	12.83	-46.5	-50.9	15.0	0.00e+00	0	39	0	1145044992	64	6009
2026-01-21 09:24:28.29	353.56	12.74	-46.5	-50.9	14.9	0.00e+00	0	40	0	1147142144	64	6036
2026-01-21 09:24:29.29	353.49	12.65	-46.7	-51.3	14.6	7.00e-07	0	39	0	1149239296	64	6287
2026-01-21 09:24:30.29	353.42	12.56	-46.6	-51.0	14.9	0.00e+00	0	39	0	1151336448	64	6086
2026-01-21 09:24:31.29	353.35	12.47	-46.7	-51.1	14.8	0.00e+00	0	40	0	1153433600	64	6152
2026-01-21 09:24:32.30	353.29	12.38	-46.9	-51.6	14.3	0.00e+00	0	39	0	1154482176	64	6516
2026-01-21 09:24:33.29	353.22	12.29	-46.9	-51.4	14.5	0.00e+00	0	40	0	1156579328	64	6352
2026-01-21 09:24:34.30	353.16	12.20	-47.0	-51.4	14.4	0.00e+00	0	39	0	1158676480	64	6417
2026-01-21 09:24:35.30	353.09	12.11	-47.2	-51.7	14.1	7.00e-07	0	39	0	1160773632	65	6269
2026-01-21 09:24:36.30	353.03	12.02	-47.1	-51.6	14.3	2.20e-06	0	40	0	1161822208	65	6140
2026-01-21 09:24:37.30	352.96	11.93	-47.1	-51.5	14.3	1.50e-06	0	39	0	1163919360	65	6131
2026-01-21 09:24:38.31	352.90	11.84	-47.1	-51.6	14.3	7.00e-07	0	40	0	1166016512	65	6136
2026-01-21 09:24:39.31	352.83	11.76	-47.1	-51.5	14.4	0.00e+00	0	39	0	1168113664	65	6066
2026-01-21 09:24:40.31	352.77	11.67	-47.1	-51.4	14.4	7.00e-07	0	39	0	1170210816	65	6037
2026-01-21 09:24:41.31	352.71	11.58	-47.0	-51.4	14.4	0.00e+00	0	40	0	1171259392	65	6032
2026-01-21 09:24:42.31	352.65	11.49	-46.6	-51.0	14.9	0.00e+00	0	40	0	1173356544	65	5724
2026-01-21 09:24:43.31	352.59	11.41	-46.5	-51.0	14.9	0.00e+00	0	39	0	1175453696	64	6070
2026-01-21 09:24:44.32	352.52	11.32	-46.5	-51.2	14.7	0.00e+00	0	39	0	1177550848	64	6236
2026-01-21 09:24:45.31	352.46	11.23	-46.2	-50.9	14.9	0.00e+00	0	40	0	1179648000	64	6024
2026-01-21 09:24:46.31	352.40	11.15	-46.0	-51.0	14.9	0.00e+00	0	40	0	1180696576	63	6422
2026-01-21 09:24:47.32	352.34	11.06	-45.6	-50.9	15.0	7.00e-07	0	40	0	1182793728	63	6359
2026-01-21 09:24:48.32	352.28	10.98	-45.5	-50.7	15.2	0.00e+00	0	39	0	1184890880	63	6241
2026-01-21 09:24:49.32	352.22	10.89	-45.4	-50.8	15.1	0.00e+00	0	39	0	1186988032	62	6667
2026-01-21 09:24:50.32	352.16	10.81	-45.3	-50.6	15.3	0.00e+00	0	39	0	1188036608	62	6503
2026-01-21 09:24:51.32	352.10	10.72	-45.3	-50.7	15.2	0.00e+00	0	40	0	1190133760	62	6604
2026-01-21 09:24:52.32	352.05	10.64	-45.3	-50.7	15.2	0.00e+00	0	40	0	1192230912	62	6576
2026-01-21 09:24:53.32	351.99	10.55	-45.3	-50.7	15.1	0.00e+00	0	40	0	1194328064	62	6631
2026-01-21 09:24:54.32	351.93	10.47	-45.5	-50.7	15.1	0.00e+00	0	40	0	1196425216	62	6628
2026-01-21 09:24:55.32	351.87	10.39	-45.7	-50.9	15.0	0.00e+00	0	39	0	1197473792	62	6736
2026-01-21 09:24:56.32	351.82	10.30	-45.8	-50.8	15.0	0.00e+00	0	40	0	1199570944	62	6706
2026-01-21 09:24:57.32	351.76	10.22	-46.1	-51.0	14.9	0.00e+00	0	40	0	1201668096	62	6809
2026-01-21 09:24:58.32	351.70	10.14	-46.3	-51.2	14.7	0.00e+00	0	40	0	1203765248	63	6598
2026-01-21 09:24:59.33	351.65	10.05	-46.4	-51.1	14.8	0.00e+00	0	39	0	1205862400	63	6524
2026-01-21 09:25:00.33	351.59	9.97	-46.6	-51.2	14.6	0.00e+00	0	39	0	1206910976	64	6246
2026-01-21 09:25:01.33	351.54	9.89	-46.8	-51.5	14.3	1.50e-06	0	39	0	1209008128	64	6453
2026-01-21 09:25:02.33	351.48	9.81	-46.6	-51.3	14.5	7.00e-07	0	40	0	1211105280	64	6301
2026-01-21 09:25:03.33	351.43	9.73	-46.6	-51.3	14.5	7.00e-07	0	39	0	1213202432	64	6321
2026-01-21 09:25:04.34	351.37	9.64	-46.8	-51.8	14.0	7.00e-07	0	39	0	1215299584	64	6658
2026-01-21 09:25:05.34	351.32	9.56	-46.8	-52.0	13.8	3.00e-06	0	40	0	1216348160	64	6813
2026-01-21 09:25:06.34	351.26	9.48	-46.8	-52.0	13.8	2.20e-06	0	40	0	1218445312	64	6812
2026-01-21 09:25:07.35	351.21	9.40	-46.9	-52.2	13.5	1.50e-06	0	40	0	1220542464	64	7014
2026-01-21 09:25:08.35	351.16	9.32	-46.8	-52.1	13.7	9.90e-06	0	40	0	1222639616	64	6880
2026-01-21 09:25:09.35	351.11	9.24	-46.8	-52.0	13.8	9.10e-06	0	39	0	1224736768	64	6821
2026-01-21 09:25:10.35	351.05	9.16	-46.8	-52.1	13.6	5.30e-06	0	40	0	1225785344	64	6938
2026-01-21 09:25:11.36	351.00	9.08	-46.8	-52.4	13.4	1.06e-05	0	39	0	1227882496	64	7144
2026-01-21 09:25:12.36	350.95	9.00	-46.6	-52.2	13.5	3.80e-06	0	39	0	1229979648	64	7023
2026-01-21 09:25:13.35	350.90	8.92	-48.5	-67.1	3.8	5.45e-01	0	40	104	1231028224	67	32854
