passes_logs/2026/01/21/T1/T1__20260121_222324_KHAYYAM_rec.log

#Pass ID: 20260121_222324_KHAYYAM
#Satellite: KHAYYAM
#Configuration: KHAYYAM_480M
#almurnet v.1.7.20251203
#Start time: 2026-01-21 22:23:26

#Version: 2.0.20230620
#Station: T1
#Location: 37.570604 lon 55.790049 lat
#TLE: 1 53370U 22096A   26020.99496882  .00015565  00000+0  63198-3 0  9993
#TLE: 2 53370  97.3560 287.8974 0001831 108.0193 252.1244 15.24672017192153

#Time	Az	El	Level	Level2	SNR	BER	BlckErr	Temp	State	Recorded	gain1	gain2
2026-01-21 22:23:26.86	359.17	5.27	-46.5	-53.3	3.8	0.00e+00	0	40	0	0	65	29879
2026-01-21 22:23:27.85	359.07	5.34	-45.9	-52.6	4.1	0.00e+00	0	40	104	0	62	32857
2026-01-21 22:23:28.84	358.97	5.41	-45.9	-52.6	4.1	0.00e+00	0	40	104	0	62	33042
2026-01-21 22:23:29.83	358.87	5.48	-45.8	-52.6	4.1	0.00e+00	0	41	104	0	62	32878
2026-01-21 22:23:30.83	358.76	5.55	-45.9	-52.5	4.1	0.00e+00	0	41	104	0	62	32608
2026-01-21 22:23:31.82	358.66	5.62	-45.9	-52.7	4.0	0.00e+00	0	41	104	0	62	33225
2026-01-21 22:23:32.81	358.55	5.70	-45.9	-52.6	4.1	0.00e+00	0	41	104	0	62	32820
2026-01-21 22:23:33.81	358.44	5.77	-45.9	-52.7	4.1	0.00e+00	0	41	104	0	62	33082
2026-01-21 22:23:34.80	358.34	5.84	-45.9	-52.7	4.1	0.00e+00	0	41	104	0	62	33086
2026-01-21 22:23:35.79	358.23	5.91	-45.8	-52.6	4.1	0.00e+00	0	41	104	0	62	32820
2026-01-21 22:23:36.79	358.12	5.99	-45.9	-52.6	4.1	0.00e+00	0	41	104	0	62	32755
2026-01-21 22:23:37.78	358.01	6.06	-45.9	-52.6	4.1	0.00e+00	0	41	104	0	62	32714
2026-01-21 22:23:38.77	357.90	6.13	-45.9	-52.6	4.1	0.00e+00	0	41	104	0	62	32883
2026-01-21 22:23:39.77	357.79	6.21	-45.9	-52.6	4.1	0.00e+00	0	41	104	0	62	33066
2026-01-21 22:23:40.76	357.68	6.28	-45.9	-52.7	4.1	0.00e+00	0	41	104	0	62	33197
2026-01-21 22:23:41.76	357.57	6.36	-45.9	-52.6	4.1	0.00e+00	0	41	104	0	62	32839
2026-01-21 22:23:42.75	357.45	6.43	-45.9	-52.6	4.1	0.00e+00	0	42	104	0	62	32866
2026-01-21 22:23:43.74	357.34	6.51	-45.9	-52.7	4.1	0.00e+00	0	41	104	0	62	33319
2026-01-21 22:23:44.74	357.23	6.58	-45.9	-52.7	4.1	0.00e+00	0	42	104	0	62	33115
2026-01-21 22:23:45.73	357.11	6.66	-46.0	-52.7	4.1	0.00e+00	0	42	104	0	62	33215
2026-01-21 22:23:46.72	357.00	6.73	-46.0	-52.7	4.1	0.00e+00	0	42	104	0	62	33338
2026-01-21 22:23:47.72	356.88	6.81	-46.0	-52.7	4.0	0.00e+00	0	42	104	0	62	33390
2026-01-21 22:23:48.71	356.76	6.88	-46.0	-52.8	4.1	0.00e+00	0	42	104	0	62	33498
2026-01-21 22:23:49.70	356.64	6.96	-46.0	-52.7	4.1	0.00e+00	0	42	104	0	62	33096
2026-01-21 22:23:50.69	356.52	7.03	-46.0	-52.7	4.1	0.00e+00	0	42	104	0	62	33268
2026-01-21 22:23:51.69	356.40	7.11	-45.9	-52.7	4.0	0.00e+00	0	42	104	0	62	33144
2026-01-21 22:23:52.68	356.28	7.19	-46.0	-52.6	4.1	0.00e+00	0	42	104	0	62	32994
2026-01-21 22:23:53.68	356.16	7.26	-46.0	-52.7	4.1	0.00e+00	0	42	104	0	62	33257
2026-01-21 22:23:54.67	356.04	7.34	-46.0	-52.6	4.1	0.00e+00	0	42	104	0	62	32923
2026-01-21 22:23:55.67	355.91	7.42	-46.0	-52.6	4.1	0.00e+00	0	42	104	0	62	32987
2026-01-21 22:23:56.66	355.79	7.49	-45.9	-52.7	4.1	0.00e+00	0	42	104	0	62	33132
2026-01-21 22:23:57.65	355.66	7.57	-45.9	-52.7	4.1	0.00e+00	0	43	104	0	62	33125
2026-01-21 22:23:58.65	355.54	7.65	-46.0	-52.7	4.1	0.00e+00	0	42	104	0	62	33275
2026-01-21 22:23:59.64	355.41	7.73	-46.0	-52.7	4.0	0.00e+00	0	43	104	0	62	33443
2026-01-21 22:24:00.63	355.28	7.80	-46.0	-52.7	4.1	0.00e+00	0	43	104	0	62	33181
2026-01-21 22:24:01.63	355.16	7.88	-46.0	-52.8	4.0	0.00e+00	0	43	104	0	62	33599
2026-01-21 22:24:02.62	355.03	7.96	-46.0	-52.8	4.1	0.00e+00	0	43	104	0	62	33530
2026-01-21 22:24:03.61	354.90	8.04	-46.0	-52.7	4.1	0.00e+00	0	43	104	0	62	33371
2026-01-21 22:24:04.61	354.76	8.12	-46.0	-52.7	4.1	0.00e+00	0	43	104	0	62	33099
2026-01-21 22:24:05.60	354.63	8.20	-46.0	-52.7	4.1	0.00e+00	0	43	104	0	62	33174
2026-01-21 22:24:06.59	354.50	8.28	-46.0	-52.7	4.1	0.00e+00	0	43	104	0	62	33402
2026-01-21 22:24:07.59	354.36	8.36	-46.0	-52.8	4.0	0.00e+00	0	43	104	0	62	33593
2026-01-21 22:24:08.58	354.23	8.44	-46.0	-52.7	4.1	0.00e+00	0	43	104	0	62	33159
2026-01-21 22:24:09.58	354.09	8.52	-46.0	-52.7	4.1	0.00e+00	0	43	104	0	62	33456
2026-01-21 22:24:10.57	353.96	8.60	-46.0	-52.7	4.1	0.00e+00	0	43	104	0	62	33415
2026-01-21 22:24:11.56	353.82	8.68	-46.0	-52.7	4.1	0.00e+00	0	43	104	0	62	33279
2026-01-21 22:24:12.55	353.68	8.76	-46.1	-52.7	4.1	0.00e+00	0	43	104	0	62	33429
2026-01-21 22:24:13.55	353.54	8.84	-46.1	-52.8	4.1	0.00e+00	0	43	104	0	62	33532
2026-01-21 22:24:14.54	353.40	8.92	-46.1	-52.8	4.0	0.00e+00	0	43	104	0	62	33745
2026-01-21 22:24:15.53	353.26	9.00	-46.1	-52.8	4.0	0.00e+00	0	43	104	0	62	33487
2026-01-21 22:24:16.53	353.11	9.08	-46.0	-52.7	4.1	0.00e+00	0	44	104	0	62	33157
2026-01-21 22:24:17.53	352.97	9.17	-46.7	-53.2	4.0	0.00e+00	0	43	104	0	63	33442
2026-01-21 22:24:18.52	352.82	9.25	-46.4	-53.0	4.0	0.00e+00	0	44	104	0	64	30753
2026-01-21 22:24:19.52	352.68	9.33	-47.0	-53.6	3.9	0.00e+00	0	44	104	0	64	32819
2026-01-21 22:24:20.51	352.53	9.41	-46.5	-53.1	4.0	0.00e+00	0	43	104	0	65	29413
2026-01-21 22:24:21.51	352.38	9.50	-46.8	-53.4	3.9	0.00e+00	0	44	104	0	65	30339
2026-01-21 22:24:22.50	352.23	9.58	-47.8	-54.6	3.8	0.00e+00	0	44	104	0	67	31002
2026-01-21 22:24:23.50	352.08	9.66	-47.6	-54.2	3.9	0.00e+00	0	44	104	0	67	29747
2026-01-21 22:24:24.49	351.93	9.75	-46.7	-53.6	3.9	0.00e+00	0	44	104	0	65	30909
2026-01-21 22:24:25.49	351.78	9.83	-46.0	-52.9	4.1	0.00e+00	0	44	104	0	63	32102
2026-01-21 22:24:26.48	351.62	9.91	-46.1	-53.0	4.1	0.00e+00	0	44	104	0	63	32342
2026-01-21 22:24:27.47	351.47	10.00	-46.6	-53.5	4.0	0.00e+00	0	44	104	0	63	34399
2026-01-21 22:24:28.47	351.31	10.08	-46.8	-53.5	3.9	0.00e+00	0	44	104	0	65	30855
2026-01-21 22:24:29.47	351.15	10.17	-46.3	-53.1	4.0	0.00e+00	0	44	104	0	64	31045
2026-01-21 22:24:30.46	351.00	10.25	-45.9	-52.7	4.1	0.00e+00	0	44	104	0	63	31570
2026-01-21 22:24:31.45	350.84	10.33	-46.2	-53.0	4.0	0.00e+00	0	44	104	0	63	32638
2026-01-21 22:24:32.48	350.67	10.42	-46.7	-53.4	4.0	0.00e+00	0	44	104	0	64	32257
2026-01-21 22:24:33.47	350.51	10.51	-47.1	-53.6	3.9	0.00e+00	0	44	104	0	65	31228
2026-01-21 22:24:34.52	350.34	10.60	-48.0	-54.6	3.8	0.00e+00	0	44	104	0	66	32801
2026-01-21 22:24:35.44	350.19	10.68	-48.2	-54.6	3.8	0.00e+00	0	44	104	0	67	31177
2026-01-21 22:24:36.43	350.02	10.76	-49.0	-55.3	3.7	0.00e+00	0	44	104	0	68	31929
2026-01-21 22:24:37.43	349.85	10.85	-49.2	-55.3	3.7	0.00e+00	0	44	104	0	69	29837
2026-01-21 22:24:38.42	349.69	10.93	-49.4	-55.6	3.7	0.00e+00	0	44	104	0	69	30900
2026-01-21 22:24:39.41	349.52	11.02	-47.7	-54.3	3.8	0.00e+00	0	44	104	0	67	29958
2026-01-21 22:24:40.41	349.35	11.11	-48.4	-54.7	3.8	0.00e+00	0	44	104	0	67	31372
2026-01-21 22:24:41.40	349.17	11.19	-48.2	-54.4	3.7	0.00e+00	0	44	104	0	67	30385
2026-01-21 22:24:42.40	349.00	11.28	-48.1	-54.3	3.7	0.00e+00	0	44	104	0	67	29944
2026-01-21 22:24:43.40	348.83	11.37	-48.0	-54.2	3.8	0.00e+00	0	44	104	0	67	29683
2026-01-21 22:24:44.39	348.65	11.46	-47.9	-54.1	3.8	0.00e+00	0	44	104	0	67	29364
2026-01-21 22:24:45.38	348.47	11.54	-48.6	-55.0	3.7	0.00e+00	0	44	104	0	67	32332
2026-01-21 22:24:46.38	348.29	11.63	-49.7	-55.5	3.7	0.00e+00	0	44	104	0	70	29118
2026-01-21 22:24:47.37	348.12	11.72	-48.9	-55.2	3.7	0.00e+00	0	44	104	0	69	29609
2026-01-21 22:24:48.37	347.93	11.81	-48.7	-55.1	3.8	0.00e+00	0	44	104	0	69	29162
2026-01-21 22:24:49.38	347.75	11.90	-49.2	-55.4	3.7	0.00e+00	0	44	104	0	69	30318
2026-01-21 22:24:50.38	347.56	11.99	-49.5	-55.5	3.7	0.00e+00	0	44	104	0	69	30789
2026-01-21 22:24:51.37	347.38	12.08	-50.2	-56.2	3.7	0.00e+00	0	44	104	0	71	29528
2026-01-21 22:24:52.37	347.19	12.17	-51.3	-56.8	3.7	0.00e+00	0	44	104	0	73	28454
2026-01-21 22:24:53.36	347.00	12.25	-52.5	-57.7	3.7	0.00e+00	0	45	104	0	75	27894
2026-01-21 22:24:54.36	346.81	12.34	-52.8	-57.9	3.7	0.00e+00	0	44	104	0	76	26967
2026-01-21 22:24:55.35	346.62	12.43	-51.2	-56.9	3.7	0.00e+00	0	45	104	0	74	26966
2026-01-21 22:24:56.35	346.43	12.52	-51.2	-56.9	3.7	0.00e+00	0	44	104	0	74	26924
2026-01-21 22:24:57.34	346.24	12.61	-51.2	-56.8	3.7	0.00e+00	0	45	104	0	73	28172
2026-01-21 22:24:58.34	346.04	12.70	-51.7	-57.1	3.7	0.00e+00	0	45	104	0	73	29400
2026-01-21 22:24:59.33	345.85	12.79	-52.1	-57.5	3.7	0.00e+00	0	45	104	0	74	29036
2026-01-21 22:25:00.33	345.65	12.88	-52.4	-57.8	3.7	0.00e+00	0	45	104	0	75	28230
2026-01-21 22:25:01.32	345.45	12.97	-52.2	-57.7	3.7	0.00e+00	0	45	104	0	75	28042
2026-01-21 22:25:02.32	345.25	13.07	-51.4	-57.2	3.7	0.00e+00	0	45	104	0	74	27943
2026-01-21 22:25:03.31	345.04	13.16	-51.6	-57.3	3.7	0.00e+00	0	44	104	0	74	28404
2026-01-21 22:25:04.31	344.84	13.25	-52.0	-57.5	3.7	0.00e+00	0	45	104	0	74	28946
2026-01-21 22:25:05.38	344.62	13.35	-50.9	-56.7	3.7	0.00e+00	0	45	104	0	73	28061
2026-01-21 22:25:06.23	344.44	13.42	-51.5	-57.2	3.7	0.00e+00	0	44	104	0	73	29502
2026-01-21 22:25:07.37	344.20	13.53	-50.6	-56.4	3.7	0.00e+00	0	45	104	0	73	27082
2026-01-21 22:25:08.22	344.02	13.61	-51.0	-56.7	3.7	0.00e+00	0	45	104	0	73	28113
2026-01-21 22:25:09.36	343.78	13.71	-51.8	-57.4	3.7	0.00e+00	0	45	104	0	74	28596
2026-01-21 22:25:10.21	343.59	13.79	-52.0	-57.6	3.7	0.00e+00	0	45	104	0	74	29341
2026-01-21 22:25:11.68	343.28	13.93	-51.3	-57.0	3.7	0.00e+00	0	45	104	0	74	27282
2026-01-21 22:25:12.39	343.12	13.99	-51.3	-57.0	3.7	0.00e+00	0	45	104	0	74	27472
2026-01-21 22:25:13.67	342.84	14.11	-50.9	-56.6	3.7	0.00e+00	0	45	104	0	73	27518
2026-01-21 22:25:14.40	342.68	14.18	-51.0	-56.6	3.7	0.00e+00	0	45	104	0	73	27778
2026-01-21 22:25:15.67	342.39	14.29	-51.2	-56.8	3.7	0.00e+00	0	45	104	0	73	28199
2026-01-21 22:25:16.38	342.23	14.36	-51.9	-57.3	3.7	0.00e+00	0	45	104	0	74	28204
2026-01-21 22:25:17.66	341.94	14.48	-52.4	-57.6	3.7	0.00e+00	0	45	104	0	75	27518
2026-01-21 22:25:18.37	341.78	14.55	-51.9	-57.3	3.7	0.00e+00	0	45	104	0	75	26664
2026-01-21 22:25:19.65	341.48	14.67	-50.9	-56.6	3.7	0.00e+00	0	45	104	0	73	27520
2026-01-21 22:25:20.36	341.32	14.73	-50.8	-56.4	3.7	0.00e+00	0	45	104	0	73	27133
2026-01-21 22:25:21.64	341.02	14.85	-50.9	-56.6	3.7	0.00e+00	0	45	104	0	73	27638
2026-01-21 22:25:22.56	340.80	14.94	-50.7	-56.4	3.7	0.00e+00	0	45	104	0	73	26985
2026-01-21 22:25:23.55	340.57	15.03	-51.0	-56.5	3.7	0.00e+00	0	45	104	0	73	27446
2026-01-21 22:25:24.55	340.33	15.12	-51.4	-57.0	3.7	0.00e+00	0	45	104	0	73	28982
2026-01-21 22:25:25.55	340.09	15.22	-51.8	-57.2	3.7	0.00e+00	0	45	104	0	74	28041
2026-01-21 22:25:26.54	339.84	15.31	-51.9	-57.2	3.7	0.00e+00	0	45	104	0	74	28087
2026-01-21 22:25:27.54	339.60	15.40	-51.4	-57.0	3.7	0.00e+00	0	45	104	0	74	27405
2026-01-21 22:25:28.53	339.35	15.49	-51.0	-56.6	3.7	0.00e+00	0	45	104	0	74	26194
2026-01-21 22:25:29.53	339.11	15.59	-51.2	-56.8	3.7	0.00e+00	0	45	104	0	74	26742
2026-01-21 22:25:30.52	338.86	15.68	-51.6	-57.0	3.7	0.00e+00	0	45	104	0	74	27441
2026-01-21 22:25:31.52	338.61	15.77	-52.6	-57.7	3.7	0.00e+00	0	45	104	0	76	26334
2026-01-21 22:25:32.51	338.35	15.87	-52.6	-57.5	3.7	0.00e+00	0	45	104	0	75	27256
2026-01-21 22:25:33.51	338.10	15.96	-53.2	-57.8	3.7	0.00e+00	0	45	104	0	77	25314
2026-01-21 22:25:34.50	337.84	16.05	-53.5	-58.0	3.7	0.00e+00	0	45	104	0	77	25906
2026-01-21 22:25:35.49	337.58	16.14	-53.3	-58.0	3.7	0.00e+00	0	45	104	0	77	25688
2026-01-21 22:25:36.49	337.32	16.24	-52.9	-57.8	3.7	0.00e+00	0	45	104	0	77	25303
2026-01-21 22:25:37.48	337.06	16.33	-52.8	-57.8	3.7	0.00e+00	0	45	104	0	77	25173
2026-01-21 22:25:38.48	336.79	16.42	-52.7	-57.6	3.7	0.00e+00	0	45	104	0	77	24785
2026-01-21 22:25:39.47	336.53	16.51	-53.0	-57.8	3.7	0.00e+00	0	45	104	0	77	25311
2026-01-21 22:25:40.46	336.26	16.61	-53.0	-57.8	3.7	0.00e+00	0	45	104	0	77	25149
2026-01-21 22:25:41.46	335.99	16.70	-52.9	-57.8	3.7	0.00e+00	0	45	104	0	77	25269
2026-01-21 22:25:42.45	335.72	16.79	-52.0	-57.2	3.7	0.00e+00	0	45	104	0	75	26412
2026-01-21 22:25:43.45	335.44	16.88	-52.0	-57.1	3.7	0.00e+00	0	45	104	0	75	25979
2026-01-21 22:25:44.45	335.16	16.98	-51.4	-56.8	3.7	0.00e+00	0	45	104	0	74	26654
2026-01-21 22:25:45.44	334.89	17.07	-51.5	-56.8	3.7	0.00e+00	0	45	104	0	74	26844
2026-01-21 22:25:46.44	334.60	17.16	-51.4	-56.8	3.7	0.00e+00	0	45	104	0	74	26826
2026-01-21 22:25:47.43	334.32	17.25	-51.7	-57.0	3.7	0.00e+00	0	45	104	0	74	27369
2026-01-21 22:25:48.42	334.04	17.34	-52.1	-57.3	3.7	0.00e+00	0	45	104	0	74	28172
2026-01-21 22:25:49.45	333.74	17.44	-52.1	-57.3	3.7	0.00e+00	0	45	104	0	75	26651
2026-01-21 22:25:50.48	333.44	17.53	-51.8	-57.1	3.7	0.00e+00	0	45	104	0	75	26046
2026-01-21 22:25:51.47	333.15	17.62	-51.6	-56.9	3.7	0.00e+00	0	45	104	0	74	26895
2026-01-21 22:25:52.53	332.84	17.72	-51.7	-56.9	3.7	0.00e+00	0	45	104	0	74	27081
2026-01-21 22:25:53.43	332.58	17.80	-52.6	-57.4	3.7	0.00e+00	0	45	104	0	75	27088
2026-01-21 22:25:54.64	332.21	17.91	-52.6	-57.4	3.7	0.00e+00	0	45	104	0	76	25509
2026-01-21 22:25:55.50	331.95	17.98	-52.9	-57.6	3.7	0.00e+00	0	45	104	0	76	26158
2026-01-21 22:25:56.64	331.61	18.09	-53.3	-58.0	3.7	0.00e+00	0	45	104	0	77	25686
2026-01-21 22:25:57.49	331.35	18.16	-53.3	-57.9	3.7	0.00e+00	0	45	104	0	77	25636
2026-01-21 22:25:58.63	331.00	18.26	-52.3	-57.4	3.7	0.00e+00	0	45	104	0	76	25534
2026-01-21 22:25:59.49	330.73	18.34	-51.0	-56.6	3.7	0.00e+00	0	45	104	0	74	26025
2026-01-21 22:26:00.62	330.38	18.44	-50.9	-56.4	3.7	0.00e+00	0	45	104	0	73	27074
2026-01-21 22:26:01.48	330.11	18.52	-51.1	-56.6	3.7	0.00e+00	0	45	104	0	73	27562
2026-01-21 22:26:02.61	329.75	18.62	-50.9	-56.4	3.7	0.00e+00	0	45	104	0	73	27057
2026-01-21 22:26:03.47	329.48	18.69	-50.9	-56.5	3.7	0.00e+00	0	46	104	0	73	27203
2026-01-21 22:26:04.60	329.12	18.79	-51.1	-56.7	3.7	0.00e+00	0	45	104	0	73	27878
2026-01-21 22:26:05.71	328.76	18.88	-51.6	-56.9	3.7	0.00e+00	0	45	104	0	73	28785
2026-01-21 22:26:06.73	328.43	18.97	-51.8	-57.1	3.7	0.00e+00	0	45	104	0	74	27698
2026-01-21 22:26:07.73	328.10	19.06	-51.6	-57.0	3.7	0.00e+00	0	45	104	0	74	27367
2026-01-21 22:26:08.93	327.71	19.16	-51.7	-57.0	3.7	0.00e+00	0	45	104	0	74	27440
2026-01-21 22:26:09.81	327.41	19.23	-51.8	-57.1	3.7	0.00e+00	0	45	104	0	74	27656
2026-01-21 22:26:10.95	327.03	19.33	-53.3	-58.0	3.6	0.00e+00	0	45	104	0	77	25867
2026-01-21 22:26:11.80	326.75	19.40	-53.1	-57.9	3.7	0.00e+00	0	45	104	0	77	25536
2026-01-21 22:26:12.94	326.36	19.49	-53.0	-57.7	3.7	0.00e+00	0	45	104	0	77	24935
2026-01-21 22:26:13.79	326.07	19.56	-53.4	-57.9	3.7	0.00e+00	0	45	104	0	77	25621
2026-01-21 22:26:14.93	325.68	19.66	-52.9	-57.7	3.7	0.00e+00	0	45	104	0	77	24871
2026-01-21 22:26:15.78	325.39	19.73	-52.3	-57.3	3.7	0.00e+00	0	45	104	0	76	25316
2026-01-21 22:26:16.92	324.99	19.82	-51.6	-57.0	3.7	0.00e+00	0	45	104	0	75	25762
2026-01-21 22:26:17.77	324.70	19.89	-51.7	-57.0	3.7	0.00e+00	0	45	104	0	75	25921
2026-01-21 22:26:18.91	324.30	19.98	-51.7	-57.1	3.7	0.00e+00	0	45	104	0	75	25980
2026-01-21 22:26:19.77	323.99	20.04	-52.6	-57.4	3.7	0.00e+00	0	45	104	0	75	27189
2026-01-21 22:26:20.92	323.59	20.13	-52.3	-57.2	3.7	0.00e+00	0	45	104	0	76	24987
2026-01-21 22:26:21.77	323.28	20.20	-52.6	-57.5	3.7	0.00e+00	0	45	104	0	76	25749
2026-01-21 22:26:22.91	322.87	20.28	-52.7	-57.6	3.7	0.00e+00	0	45	104	0	76	26045
2026-01-21 22:26:23.76	322.57	20.35	-52.6	-57.6	3.7	0.00e+00	0	45	104	0	76	25996
2026-01-21 22:26:24.90	322.15	20.43	-52.4	-57.4	3.7	0.00e+00	0	45	104	0	76	25492
2026-01-21 22:26:25.80	321.82	20.50	-52.2	-57.2	3.7	0.00e+00	0	45	104	0	76	25089
2026-01-21 22:26:27.08	321.35	20.59	-51.7	-56.9	3.7	0.00e+00	0	45	104	0	75	25491
2026-01-21 22:26:28.24	320.92	20.68	-51.9	-57.1	3.7	0.00e+00	0	45	104	0	75	26021
2026-01-21 22:26:29.10	320.60	20.74	-51.8	-57.0	3.7	0.00e+00	0	45	104	0	75	25962
2026-01-21 22:26:30.23	320.18	20.82	-51.5	-56.8	3.7	0.00e+00	0	45	104	0	75	25352
2026-01-21 22:26:31.09	319.86	20.88	-51.5	-56.9	3.7	0.00e+00	0	45	104	0	74	27152
2026-01-21 22:26:32.22	319.43	20.95	-51.7	-57.0	3.7	0.00e+00	0	45	104	0	74	27360
2026-01-21 22:26:33.08	319.10	21.01	-51.2	-56.8	3.7	0.00e+00	0	45	104	0	74	26587
2026-01-21 22:26:34.32	318.63	21.09	-52.5	-57.4	3.7	0.00e+00	0	45	104	0	75	27026
2026-01-21 22:26:35.18	318.30	21.15	-52.5	-57.4	3.7	0.00e+00	0	45	104	0	75	26954
2026-01-21 22:26:36.31	317.86	21.22	-52.3	-57.3	3.7	0.00e+00	0	45	104	0	75	26597
2026-01-21 22:26:37.17	317.53	21.28	-52.3	-57.2	3.6	0.00e+00	0	45	104	0	75	26571
2026-01-21 22:26:38.30	317.09	21.35	-52.9	-57.6	3.7	0.00e+00	0	45	104	0	76	26057
2026-01-21 22:26:39.16	316.75	21.40	-53.0	-57.5	3.7	0.00e+00	0	45	104	0	76	25930
2026-01-21 22:26:40.30	316.31	21.47	-52.8	-57.5	3.7	0.00e+00	0	45	104	0	76	25954
2026-01-21 22:26:41.15	315.97	21.52	-53.0	-57.7	3.7	0.00e+00	0	45	104	0	76	26358
2026-01-21 22:26:42.29	315.52	21.58	-52.7	-57.5	3.7	0.00e+00	0	45	104	0	76	25861
2026-01-21 22:26:43.14	315.18	21.63	-52.7	-57.5	3.7	0.00e+00	0	45	104	0	76	25919
2026-01-21 22:26:44.28	314.72	21.70	-53.0	-57.6	3.7	0.00e+00	0	45	104	0	76	26080
2026-01-21 22:26:45.13	314.38	21.74	-52.9	-57.6	3.7	0.00e+00	0	45	104	0	76	26000
2026-01-21 22:26:46.27	313.92	21.80	-53.0	-57.5	3.7	0.00e+00	0	45	104	0	76	25863
2026-01-21 22:26:47.12	313.58	21.85	-53.0	-57.5	3.7	0.00e+00	0	46	104	0	76	25693
2026-01-21 22:26:48.26	313.12	21.90	-52.6	-56.8	3.7	0.00e+00	0	45	104	0	76	23921
2026-01-21 22:26:49.11	312.77	21.95	-52.7	-57.0	3.7	0.00e+00	0	45	104	0	76	24356
2026-01-21 22:26:50.25	312.30	22.00	-52.3	-56.7	3.7	0.00e+00	0	45	104	0	76	23678
2026-01-21 22:26:51.10	311.96	22.04	-52.7	-57.2	3.7	0.00e+00	0	45	104	0	76	24885
2026-01-21 22:26:52.29	311.46	22.10	-52.8	-57.5	3.7	0.00e+00	0	45	104	0	76	25847
2026-01-21 22:26:53.14	311.11	22.13	-52.7	-57.4	3.7	0.00e+00	0	45	104	0	76	25577
2026-01-21 22:26:54.28	310.64	22.18	-53.5	-57.8	3.7	0.00e+00	0	46	104	0	77	25363
2026-01-21 22:26:55.13	310.29	22.22	-53.6	-57.9	3.7	0.00e+00	0	45	104	0	77	25583
2026-01-21 22:26:56.41	309.75	22.27	-53.6	-57.9	3.7	0.00e+00	0	45	104	0	77	25537
2026-01-21 22:26:57.12	309.46	22.30	-53.6	-57.8	3.7	0.00e+00	0	45	104	0	77	25312
2026-01-21 22:26:58.42	308.91	22.35	-53.5	-57.8	3.7	0.00e+00	0	45	104	0	77	25211
2026-01-21 22:26:59.13	308.61	22.37	-53.5	-57.8	3.7	0.00e+00	0	45	104	0	77	25351
2026-01-21 22:27:00.41	308.07	22.42	-53.7	-58.0	3.7	0.00e+00	0	45	104	0	77	25749
2026-01-21 22:27:01.12	307.77	22.44	-53.7	-58.0	3.7	0.00e+00	0	45	104	0	78	24365
2026-01-21 22:27:02.71	307.10	22.49	-53.6	-57.9	3.7	0.00e+00	0	45	104	0	78	24003
2026-01-21 22:27:03.28	306.85	22.51	-53.5	-57.8	3.7	0.00e+00	0	45	104	0	78	23809
2026-01-21 22:27:05.18	306.04	22.56	-53.7	-58.0	3.7	0.00e+00	0	45	104	0	78	24299
2026-01-21 22:27:05.75	305.80	22.57	-53.7	-58.1	3.7	0.00e+00	0	45	104	0	78	24619
2026-01-21 22:27:07.46	305.07	22.62	-53.6	-58.0	3.7	0.00e+00	0	46	104	0	78	24287
2026-01-21 22:27:08.03	304.82	22.63	-53.6	-58.0	3.7	0.00e+00	0	45	104	0	78	24421
2026-01-21 22:27:09.73	304.09	22.67	-53.6	-58.1	3.7	0.00e+00	0	46	104	0	78	24577
2026-01-21 22:27:10.30	303.85	22.68	-53.5	-58.1	3.7	0.00e+00	0	46	104	0	78	24576
2026-01-21 22:27:12.01	303.11	22.71	-53.5	-57.8	3.7	0.00e+00	0	46	104	0	78	23824
2026-01-21 22:27:12.57	302.87	22.72	-53.7	-58.0	3.7	0.00e+00	0	46	104	0	78	24376
2026-01-21 22:27:14.28	302.13	22.74	-53.8	-58.1	3.7	0.00e+00	0	46	104	0	78	24739
2026-01-21 22:27:14.85	301.88	22.75	-53.9	-58.2	3.7	0.00e+00	0	45	104	0	78	25020
2026-01-21 22:27:16.55	301.14	22.76	-53.7	-58.2	3.7	0.00e+00	0	46	104	0	78	24859
2026-01-21 22:27:17.12	300.89	22.77	-53.6	-58.1	3.7	0.00e+00	0	45	104	0	78	24759
2026-01-21 22:27:18.83	300.15	22.78	-53.7	-58.3	3.7	0.00e+00	0	45	104	0	78	25095
2026-01-21 22:27:19.51	299.86	22.78	-53.7	-58.3	3.7	0.00e+00	0	45	104	0	78	25141
2026-01-21 22:27:20.93	299.24	22.79	-53.5	-58.0	3.7	0.00e+00	0	45	104	0	78	24490
2026-01-21 22:27:21.64	298.93	22.79	-53.6	-58.1	3.7	0.00e+00	0	45	104	0	78	24720
2026-01-21 22:27:22.92	298.37	22.79	-53.4	-57.8	3.7	0.00e+00	0	46	104	0	78	23765
2026-01-21 22:27:23.64	298.06	22.79	-53.5	-57.9	3.7	0.00e+00	0	45	104	0	78	24178
2026-01-21 22:27:24.92	297.50	22.79	-53.8	-58.2	3.7	0.00e+00	0	46	104	0	78	24929
2026-01-21 22:27:25.64	297.19	22.78	-53.7	-58.2	3.7	0.00e+00	0	45	104	0	78	24963
2026-01-21 22:27:26.92	296.63	22.77	-53.8	-58.1	3.7	0.00e+00	0	45	104	0	78	24638
2026-01-21 22:27:27.63	296.33	22.77	-53.8	-58.1	3.7	0.00e+00	0	45	104	0	78	24714
2026-01-21 22:27:28.90	295.77	22.76	-53.7	-57.9	3.7	0.00e+00	0	45	104	0	78	24223
2026-01-21 22:27:29.62	295.46	22.75	-53.7	-57.9	3.7	0.00e+00	0	45	104	0	78	24167
2026-01-21 22:27:30.90	294.91	22.73	-53.8	-58.1	3.7	0.00e+00	0	45	104	0	78	24723
2026-01-21 22:27:31.62	294.60	22.72	-53.8	-58.1	3.7	0.00e+00	0	45	104	0	78	24604
2026-01-21 22:27:32.90	294.04	22.70	-53.6	-57.7	3.7	0.00e+00	0	45	104	0	78	23572
2026-01-21 22:27:33.61	293.74	22.69	-53.6	-57.8	3.7	0.00e+00	0	45	104	0	78	23866
2026-01-21 22:27:34.89	293.18	22.67	-53.8	-57.9	3.7	0.00e+00	0	45	104	0	78	24120
2026-01-21 22:27:35.61	292.87	22.65	-53.6	-57.5	3.7	0.00e+00	0	46	104	0	78	23021
2026-01-21 22:27:36.89	292.32	22.62	-53.6	-58.0	3.7	0.00e+00	0	45	104	0	78	24475
2026-01-21 22:27:37.67	291.99	22.60	-53.7	-58.1	3.7	0.00e+00	0	45	104	0	78	24524
2026-01-21 22:27:39.26	291.31	22.56	-53.6	-58.1	3.7	0.00e+00	0	45	104	0	78	24619
2026-01-21 22:27:39.85	291.05	22.55	-53.7	-58.1	3.7	0.00e+00	0	45	104	0	78	24783
2026-01-21 22:27:41.41	290.39	22.50	-53.7	-58.1	3.7	0.00e+00	0	45	104	0	78	24592
2026-01-21 22:27:42.06	290.11	22.49	-53.7	-58.0	3.7	0.00e+00	0	45	104	0	78	24495
2026-01-21 22:27:43.48	289.51	22.44	-53.9	-58.2	3.7	0.00e+00	0	46	104	0	78	24942
2026-01-21 22:27:44.19	289.21	22.42	-53.9	-58.3	3.7	0.00e+00	0	46	104	0	78	25135
2026-01-21 22:27:45.47	288.66	22.37	-53.8	-58.3	3.7	0.00e+00	0	46	104	0	78	25138
2026-01-21 22:27:46.18	288.36	22.35	-53.8	-58.3	3.7	0.00e+00	0	45	104	0	78	25341
2026-01-21 22:27:47.46	287.83	22.30	-53.7	-58.2	3.7	0.00e+00	0	46	104	0	78	25092
2026-01-21 22:27:48.17	287.53	22.27	-53.7	-58.2	3.7	0.00e+00	0	46	104	0	78	25061
2026-01-21 22:27:49.56	286.95	22.22	-53.8	-58.3	3.7	0.00e+00	0	46	104	0	78	25361
2026-01-21 22:27:50.27	286.65	22.19	-53.8	-58.2	3.7	0.00e+00	0	45	104	0	78	25014
2026-01-21 22:27:51.62	286.09	22.13	-53.6	-58.1	3.7	0.00e+00	0	46	104	0	78	24641
2026-01-21 22:27:52.33	285.80	22.10	-53.6	-58.1	3.7	0.00e+00	0	45	104	0	78	24631
2026-01-21 22:27:53.63	285.26	22.04	-53.8	-58.2	3.7	0.00e+00	0	46	104	0	78	24886
2026-01-21 22:27:54.34	284.97	22.00	-53.8	-58.3	3.7	0.00e+00	0	46	104	0	78	25185
2026-01-21 22:27:55.74	284.39	21.93	-53.9	-58.3	3.7	0.00e+00	0	46	104	0	78	25229
2026-01-21 22:27:56.45	284.10	21.90	-53.9	-58.3	3.7	0.00e+00	0	46	104	0	78	25138
2026-01-21 22:27:57.73	283.58	21.83	-53.7	-58.0	3.7	0.00e+00	0	46	104	0	78	24284
2026-01-21 22:27:58.47	283.28	21.80	-53.7	-58.1	3.7	0.00e+00	0	45	104	0	78	24658
2026-01-21 22:27:59.75	282.76	21.73	-53.8	-58.3	3.7	0.00e+00	0	45	104	0	78	25116
2026-01-21 22:28:00.46	282.48	21.69	-53.8	-58.4	3.7	0.00e+00	0	46	104	0	78	25389
2026-01-21 22:28:01.74	281.97	21.62	-53.9	-58.4	3.7	0.00e+00	0	45	104	0	78	25547
2026-01-21 22:28:02.45	281.68	21.58	-53.9	-58.3	3.7	0.00e+00	0	45	104	0	78	25142
2026-01-21 22:28:03.73	281.17	21.50	-53.8	-58.2	3.7	0.00e+00	0	46	104	0	78	24812
2026-01-21 22:28:04.44	280.89	21.46	-53.9	-58.2	3.7	0.00e+00	0	45	104	0	78	24917
2026-01-21 22:28:05.72	280.39	21.38	-53.9	-58.2	3.7	0.00e+00	0	45	104	0	78	24920
2026-01-21 22:28:06.48	280.09	21.33	-53.8	-58.2	3.7	0.00e+00	0	46	104	0	78	24815
2026-01-21 22:28:07.75	279.59	21.26	-53.8	-58.2	3.7	0.00e+00	0	46	104	0	78	24991
2026-01-21 22:28:08.51	279.30	21.21	-53.8	-58.2	3.7	0.00e+00	0	46	104	0	78	25011
2026-01-21 22:28:09.79	278.80	21.12	-53.7	-58.2	3.7	0.00e+00	0	46	104	0	78	25059
2026-01-21 22:28:10.58	278.50	21.07	-53.8	-58.3	3.7	0.00e+00	0	46	104	0	78	25101
2026-01-21 22:28:11.75	278.05	20.99	-53.8	-58.2	3.7	0.00e+00	0	46	104	0	78	25073
2026-01-21 22:28:12.60	277.73	20.94	-53.8	-58.3	3.7	0.00e+00	0	46	104	0	78	25210
2026-01-21 22:28:13.74	277.30	20.86	-53.9	-58.2	3.7	0.00e+00	0	45	104	0	78	25038
2026-01-21 22:28:14.59	276.98	20.80	-53.9	-58.2	3.7	0.00e+00	0	46	104	0	78	25032
2026-01-21 22:28:15.73	276.55	20.72	-53.9	-58.3	3.7	0.00e+00	0	46	104	0	78	25118
2026-01-21 22:28:16.58	276.23	20.66	-53.9	-58.3	3.7	0.00e+00	0	45	104	0	78	25273
2026-01-21 22:28:17.72	275.81	20.57	-53.9	-58.3	3.7	0.00e+00	0	46	104	0	78	25101
2026-01-21 22:28:18.57	275.49	20.51	-53.7	-58.2	3.7	0.00e+00	0	45	104	0	78	25019
2026-01-21 22:28:19.71	275.07	20.43	-53.7	-58.2	3.7	0.00e+00	0	45	104	0	78	24975
2026-01-21 22:28:20.56	274.76	20.36	-53.5	-58.1	3.7	0.00e+00	0	46	104	0	78	24645
2026-01-21 22:28:21.70	274.35	20.28	-53.2	-57.8	3.7	0.00e+00	0	46	104	0	78	23781
2026-01-21 22:28:22.55	274.04	20.21	-53.2	-58.0	3.7	0.00e+00	0	46	104	0	78	24502
2026-01-21 22:28:23.68	273.64	20.13	-53.3	-58.1	3.7	0.00e+00	0	46	104	0	78	24550
2026-01-21 22:28:24.54	273.33	20.06	-53.5	-58.2	3.7	0.00e+00	0	46	104	0	78	24811
2026-01-21 22:28:25.67	272.93	19.97	-53.7	-58.1	3.7	0.00e+00	0	46	104	0	78	24606
2026-01-21 22:28:26.52	272.63	19.90	-53.7	-58.1	3.7	0.00e+00	0	46	104	0	78	24597
2026-01-21 22:28:27.66	272.23	19.81	-53.7	-58.1	3.7	0.00e+00	0	46	104	0	78	24766
2026-01-21 22:28:28.51	271.93	19.74	-53.7	-58.2	3.7	0.00e+00	0	45	104	0	78	24861
2026-01-21 22:28:29.65	271.54	19.65	-53.7	-58.2	3.7	0.00e+00	0	46	104	0	78	24826
2026-01-21 22:28:30.82	271.13	19.55	-53.6	-58.2	3.7	0.00e+00	0	46	104	0	78	24913
2026-01-21 22:28:31.86	270.78	19.47	-53.6	-58.1	3.7	0.00e+00	0	46	104	0	78	24752
2026-01-21 22:28:32.84	270.45	19.39	-53.5	-58.1	3.7	0.00e+00	0	46	104	0	78	24797
2026-01-21 22:28:33.83	270.11	19.30	-53.6	-58.1	3.7	0.00e+00	0	45	104	0	78	24656
2026-01-21 22:28:34.83	269.78	19.22	-53.5	-58.1	3.7	0.00e+00	0	45	104	0	78	24634
2026-01-21 22:28:35.82	269.45	19.14	-53.5	-58.2	3.7	0.00e+00	0	46	104	0	78	24823
2026-01-21 22:28:36.82	269.12	19.05	-53.4	-58.0	3.7	0.00e+00	0	46	104	0	78	24512
2026-01-21 22:28:37.81	268.79	18.97	-53.4	-58.0	3.7	0.00e+00	0	46	104	0	78	24431
2026-01-21 22:28:38.80	268.47	18.88	-53.5	-58.1	3.7	0.00e+00	0	46	104	0	78	24670
2026-01-21 22:28:39.80	268.14	18.79	-53.4	-58.0	3.7	0.00e+00	0	46	104	0	78	24308
2026-01-21 22:28:40.79	267.82	18.71	-53.5	-58.1	3.7	0.00e+00	0	46	104	0	78	24579
2026-01-21 22:28:41.79	267.50	18.62	-53.7	-58.1	3.7	0.00e+00	0	46	104	0	78	24692
2026-01-21 22:28:42.78	267.19	18.53	-53.6	-58.0	3.7	0.00e+00	0	45	104	0	78	24456
2026-01-21 22:28:43.85	266.85	18.44	-53.6	-58.0	3.7	0.00e+00	0	46	104	0	78	24280
2026-01-21 22:28:44.71	266.58	18.36	-53.6	-58.1	3.7	0.00e+00	0	45	104	0	78	24554
2026-01-21 22:28:45.84	266.23	18.26	-53.7	-58.1	3.7	0.00e+00	0	46	104	0	78	24790
2026-01-21 22:28:46.79	265.93	18.18	-53.7	-58.2	3.7	0.00e+00	0	45	104	0	78	25086
2026-01-21 22:28:47.96	265.57	18.07	-53.7	-58.2	3.7	0.00e+00	0	46	104	0	78	24951
2026-01-21 22:28:48.84	265.30	17.99	-53.6	-58.2	3.7	0.00e+00	0	46	104	0	78	24933
2026-01-21 22:28:49.98	264.96	17.89	-53.5	-58.1	3.7	0.00e+00	0	46	104	0	78	24678
2026-01-21 22:28:50.83	264.70	17.81	-53.2	-57.8	3.7	0.00e+00	0	46	104	0	78	23798
2026-01-21 22:28:51.97	264.36	17.71	-53.3	-57.9	3.7	0.00e+00	0	46	104	0	78	24203
2026-01-21 22:28:52.82	264.11	17.63	-53.2	-57.8	3.7	0.00e+00	0	46	104	0	78	23812
2026-01-21 22:28:53.96	263.77	17.52	-53.1	-57.6	3.7	0.00e+00	0	46	104	0	78	23185
2026-01-21 22:28:54.81	263.52	17.45	-53.4	-57.6	3.7	0.00e+00	0	46	104	0	78	23188
2026-01-21 22:28:55.95	263.19	17.34	-53.3	-57.7	3.7	0.00e+00	0	45	104	0	78	23540
2026-01-21 22:28:56.80	262.95	17.26	-53.5	-57.8	3.7	0.00e+00	0	46	104	0	78	23841
2026-01-21 22:28:57.94	262.62	17.16	-53.1	-57.2	3.7	0.00e+00	0	46	104	0	78	22215
2026-01-21 22:28:58.79	262.38	17.08	-53.1	-57.2	3.7	0.00e+00	0	46	104	0	78	22133
2026-01-21 22:28:59.92	262.06	16.97	-53.0	-57.2	3.7	0.00e+00	0	46	104	0	78	22312
2026-01-21 22:29:00.78	261.82	16.89	-52.9	-57.2	3.7	0.00e+00	0	45	104	0	77	23608
2026-01-21 22:29:01.98	261.48	16.78	-52.8	-57.3	3.7	0.00e+00	0	46	104	0	77	23728
2026-01-21 22:29:02.83	261.25	16.70	-52.8	-57.3	3.7	0.00e+00	0	45	104	0	77	23787
2026-01-21 22:29:03.97	260.94	16.60	-52.9	-57.3	3.7	0.00e+00	0	46	104	0	77	23904
2026-01-21 22:29:04.82	260.70	16.52	-53.0	-57.4	3.7	0.00e+00	0	45	104	0	77	23988
2026-01-21 22:29:05.96	260.40	16.41	-53.3	-57.7	3.7	0.00e+00	0	45	104	0	77	25067
2026-01-21 22:29:06.81	260.17	16.33	-53.1	-57.5	3.7	0.00e+00	0	46	104	0	77	24452
2026-01-21 22:29:07.95	259.86	16.22	-53.3	-57.8	3.7	0.00e+00	0	46	104	0	77	25373
2026-01-21 22:29:08.80	259.64	16.14	-53.3	-57.9	3.7	0.00e+00	0	45	104	0	77	25475
2026-01-21 22:29:09.94	259.34	16.04	-53.6	-58.2	3.7	0.00e+00	0	46	104	0	77	26286
2026-01-21 22:29:10.79	259.12	15.96	-53.5	-58.1	3.7	0.00e+00	0	46	104	0	77	26022
2026-01-21 22:29:11.93	258.82	15.85	-53.7	-58.2	3.7	0.00e+00	0	45	104	0	77	26395
2026-01-21 22:29:12.78	258.61	15.77	-53.6	-58.1	3.7	0.00e+00	0	46	104	0	77	26060
2026-01-21 22:29:13.91	258.32	15.66	-53.5	-57.9	3.7	0.00e+00	0	45	104	0	77	25522
2026-01-21 22:29:14.77	258.10	15.58	-53.6	-58.0	3.7	0.00e+00	0	46	104	0	77	25809
2026-01-21 22:29:15.90	257.82	15.48	-53.5	-57.9	3.7	0.00e+00	0	45	104	0	77	25508
2026-01-21 22:29:16.76	257.60	15.40	-53.4	-57.8	3.7	0.00e+00	0	46	104	0	77	25383
2026-01-21 22:29:17.89	257.32	15.29	-53.2	-57.6	3.7	0.00e+00	0	45	104	0	77	24672
2026-01-21 22:29:18.75	257.11	15.21	-53.2	-57.7	3.7	0.00e+00	0	46	104	0	77	24913
2026-01-21 22:29:19.88	256.84	15.10	-53.4	-57.8	3.7	0.00e+00	0	46	104	0	77	25147
2026-01-21 22:29:20.74	256.63	15.02	-53.3	-57.7	3.7	0.00e+00	0	46	104	0	77	24925
2026-01-21 22:29:21.87	256.36	14.92	-53.3	-57.9	3.7	0.00e+00	0	46	104	0	77	25440
2026-01-21 22:29:22.72	256.16	14.84	-53.4	-57.7	3.7	0.00e+00	0	46	104	0	77	25002
2026-01-21 22:29:23.86	255.89	14.73	-53.4	-58.0	3.7	0.00e+00	0	46	104	0	77	25702
2026-01-21 22:29:24.72	255.68	14.65	-53.3	-57.9	3.7	0.00e+00	0	45	104	0	77	25648
2026-01-21 22:29:25.85	255.42	14.54	-53.2	-57.9	3.7	0.00e+00	0	46	104	0	77	25517
2026-01-21 22:29:26.70	255.22	14.46	-53.3	-58.0	3.7	0.00e+00	0	46	104	0	77	25687
2026-01-21 22:29:27.84	254.96	14.36	-53.3	-57.9	3.7	0.00e+00	0	46	104	0	77	25675
2026-01-21 22:29:28.69	254.77	14.28	-53.3	-57.9	3.7	0.00e+00	0	46	104	0	77	25518
2026-01-21 22:29:29.83	254.51	14.17	-53.6	-58.0	3.7	0.00e+00	0	46	104	0	77	25773
2026-01-21 22:29:30.69	254.32	14.09	-53.5	-57.9	3.7	0.00e+00	0	45	104	0	77	25619
2026-01-21 22:29:31.82	254.07	13.98	-53.6	-57.9	3.7	0.00e+00	0	46	104	0	77	25532
2026-01-21 22:29:32.67	253.88	13.90	-53.6	-58.1	3.7	0.00e+00	0	46	104	0	77	25998
2026-01-21 22:29:33.81	253.63	13.80	-53.6	-58.0	3.7	0.00e+00	0	46	104	0	77	25897
2026-01-21 22:29:34.66	253.45	13.72	-53.6	-58.0	3.7	0.00e+00	0	46	104	0	77	25966
2026-01-21 22:29:36.02	253.15	13.59	-53.5	-58.0	3.7	0.00e+00	0	46	104	0	77	25762
2026-01-21 22:29:36.74	253.00	13.53	-53.5	-57.9	3.7	0.00e+00	0	46	104	0	77	25633
2026-01-21 22:29:38.01	252.73	13.41	-53.4	-57.8	3.7	0.00e+00	0	46	104	0	77	25334
2026-01-21 22:29:38.72	252.58	13.34	-53.5	-57.9	3.7	0.00e+00	0	46	104	0	77	25548
2026-01-21 22:29:40.00	252.31	13.23	-53.5	-58.0	3.7	0.00e+00	0	46	104	0	77	25840
2026-01-21 22:29:40.71	252.16	13.16	-53.4	-57.8	3.7	0.00e+00	0	46	104	0	77	25201
2026-01-21 22:29:41.99	251.90	13.04	-53.6	-57.9	3.7	0.00e+00	0	46	104	0	77	25636
2026-01-21 22:29:42.71	251.75	12.98	-53.5	-57.9	3.7	0.00e+00	0	46	104	0	77	25482
2026-01-21 22:29:43.98	251.49	12.86	-53.6	-57.9	3.7	0.00e+00	0	46	104	0	77	25494
2026-01-21 22:29:44.71	251.35	12.79	-53.6	-58.0	3.7	0.00e+00	0	46	104	0	77	25797
2026-01-21 22:29:45.99	251.09	12.68	-53.4	-57.8	3.7	0.00e+00	0	46	104	0	77	25367
2026-01-21 22:29:46.71	250.95	12.61	-53.5	-57.9	3.7	0.00e+00	0	46	104	0	77	25625
2026-01-21 22:29:47.99	250.70	12.49	-53.5	-57.9	3.7	0.00e+00	0	46	104	0	77	25438
2026-01-21 22:29:48.71	250.56	12.43	-53.5	-58.0	3.7	0.00e+00	0	46	104	0	77	25816
2026-01-21 22:29:49.99	250.31	12.31	-53.5	-57.9	3.7	0.00e+00	0	46	104	0	77	25629
2026-01-21 22:29:50.71	250.17	12.25	-53.5	-57.9	3.7	0.00e+00	0	46	104	0	77	25661
2026-01-21 22:29:52.06	249.91	12.13	-53.4	-57.8	3.7	0.00e+00	0	46	104	0	77	25344
2026-01-21 22:29:52.77	249.78	12.06	-53.4	-57.9	3.7	0.00e+00	0	46	104	0	77	25663
2026-01-21 22:29:54.08	249.53	11.94	-53.5	-58.0	3.7	0.00e+00	0	46	104	0	77	25852
2026-01-21 22:29:54.79	249.40	11.88	-53.4	-57.9	3.7	0.00e+00	0	46	104	0	77	25612
2026-01-21 22:29:56.14	249.15	11.76	-53.6	-58.1	3.7	0.00e+00	0	45	104	0	77	25981
2026-01-21 22:29:56.85	249.02	11.70	-53.6	-58.0	3.7	0.00e+00	0	46	104	0	77	25873
2026-01-21 22:29:58.13	248.78	11.58	-53.6	-58.0	3.7	0.00e+00	0	45	104	0	77	25872
2026-01-21 22:29:58.84	248.65	11.52	-53.6	-58.0	3.7	0.00e+00	0	46	104	0	77	25930
2026-01-21 22:30:00.25	248.40	11.39	-53.5	-58.0	3.7	0.00e+00	0	45	104	0	77	25886
2026-01-21 22:30:00.96	248.27	11.33	-53.5	-57.9	3.7	0.00e+00	0	46	104	0	77	25664
2026-01-21 22:30:02.24	248.05	11.22	-53.5	-58.0	3.7	0.00e+00	0	46	104	0	77	25830
2026-01-21 22:30:02.95	247.92	11.16	-53.5	-58.0	3.7	0.00e+00	0	46	104	0	77	25724
2026-01-21 22:30:04.23	247.70	11.04	-53.5	-58.0	3.7	0.00e+00	0	46	104	0	77	25778
2026-01-21 22:30:04.95	247.58	10.98	-53.4	-57.9	3.7	0.00e+00	0	46	104	0	77	25605
2026-01-21 22:30:06.23	247.36	10.87	-53.4	-57.9	3.7	0.00e+00	0	46	104	0	77	25630
2026-01-21 22:30:06.94	247.24	10.81	-53.5	-58.0	3.7	0.00e+00	0	45	104	0	77	25757
2026-01-21 22:30:08.24	247.02	10.69	-53.5	-58.0	3.7	0.00e+00	0	46	104	0	77	25778
2026-01-21 22:30:08.95	246.90	10.63	-53.4	-57.9	3.7	0.00e+00	0	45	104	0	77	25572
2026-01-21 22:30:10.23	246.68	10.52	-53.5	-57.9	3.7	0.00e+00	0	45	104	0	77	25632
2026-01-21 22:30:10.94	246.56	10.46	-53.5	-57.9	3.7	0.00e+00	0	46	104	0	77	25580
2026-01-21 22:30:12.22	246.35	10.35	-53.6	-58.0	3.7	0.00e+00	0	46	104	0	77	25777
2026-01-21 22:30:13.07	246.22	10.27	-53.5	-57.8	3.7	0.00e+00	0	46	104	0	77	25319
2026-01-21 22:30:14.50	245.98	10.15	-53.5	-57.8	3.7	0.00e+00	0	45	104	0	77	25314
2026-01-21 22:30:15.22	245.87	10.09	-53.5	-57.9	3.7	0.00e+00	0	46	104	0	77	25585
2026-01-21 22:30:16.49	245.67	9.98	-53.4	-57.8	3.7	0.00e+00	0	46	104	0	77	25108
2026-01-21 22:30:17.20	245.55	9.92	-53.4	-57.7	3.7	0.00e+00	0	46	104	0	77	24903
2026-01-21 22:30:18.75	245.31	9.79	-53.4	-57.7	3.7	0.00e+00	0	46	104	0	77	24951
2026-01-21 22:30:19.46	245.20	9.73	-53.4	-57.7	3.7	0.00e+00	0	46	104	0	77	25017
2026-01-21 22:30:20.74	245.00	9.62	-53.4	-57.6	3.7	0.00e+00	0	46	104	0	77	24750
2026-01-21 22:30:21.45	244.89	9.56	-53.4	-57.7	3.7	0.00e+00	0	46	104	0	77	24874
2026-01-21 22:30:22.73	244.70	9.45	-53.4	-57.7	3.7	0.00e+00	0	46	104	0	77	24899
2026-01-21 22:30:23.44	244.59	9.39	-53.4	-57.7	3.7	0.00e+00	0	46	104	0	77	25004
2026-01-21 22:30:24.72	244.40	9.29	-53.4	-57.8	3.7	0.00e+00	0	46	104	0	77	25245
2026-01-21 22:30:25.43	244.30	9.23	-53.3	-57.8	3.7	0.00e+00	0	46	104	0	77	25292
2026-01-21 22:30:26.71	244.11	9.12	-53.4	-57.8	3.7	0.00e+00	0	46	104	0	77	25321
2026-01-21 22:30:27.44	244.00	9.06	-53.4	-57.8	3.7	0.00e+00	0	46	104	0	77	25273
2026-01-21 22:30:28.72	243.81	8.96	-53.4	-57.8	3.7	0.00e+00	0	46	104	0	77	25323
2026-01-21 22:30:29.43	243.71	8.90	-53.7	-58.0	3.7	0.
