passes_logs/2026/01/21/T1/T1__20260121_093358_NOAA_20_JPSS-1_rec.log

#Pass ID: 20260121_093358_NOAA 20 (JPSS-1)
#Satellite: NOAA 20 (JPSS-1)
#Configuration: NOAA 20
#almurnet v.1.7.20251203
#Start time: 2026-01-21 09:33:59

#Version: 2.0.20230620
#Station: T1
#Location: 37.570604 lon 55.790049 lat
#TLE: 1 43013U 17073A   26020.82785136  .00000155  00000+0  94366-4 0  9991
#TLE: 2 43013  98.7643 321.7058 0001260  30.3785 329.7464 14.19537992423566

#Time	Az	El	Level	Level2	SNR	BER	BlckErr	Temp	State	Recorded	gain1	gain2
2026-01-21 09:33:59.20	148.87	5.05	-51.5	-66.4	3.8	1.49e+00	0	37	104	0	75	18960
2026-01-21 09:34:00.19	148.85	5.12	-51.6	-66.4	3.8	1.49e+00	0	37	104	0	75	19097
2026-01-21 09:34:01.18	148.83	5.19	-51.6	-66.4	3.8	1.49e+00	0	37	104	0	75	19079
2026-01-21 09:34:02.18	148.81	5.26	-51.5	-66.5	3.8	1.49e+00	0	37	104	0	75	19364
2026-01-21 09:34:03.17	148.79	5.34	-51.6	-66.5	3.8	1.49e+00	0	37	104	0	75	19387
2026-01-21 09:34:04.16	148.77	5.41	-51.6	-66.6	3.8	1.49e+00	0	37	104	0	75	19546
2026-01-21 09:34:05.16	148.76	5.48	-51.6	-66.6	3.8	1.49e+00	0	37	104	0	75	19485
2026-01-21 09:34:06.15	148.74	5.55	-51.6	-66.6	3.8	1.49e+00	0	37	104	0	75	19555
2026-01-21 09:34:07.14	148.72	5.62	-51.5	-66.6	3.8	1.49e+00	0	37	104	0	75	19449
2026-01-21 09:34:08.13	148.70	5.70	-51.5	-66.4	3.8	1.49e+00	0	37	104	0	75	19032
2026-01-21 09:34:09.13	148.68	5.77	-51.5	-66.2	3.8	1.49e+00	0	37	104	0	75	18679
2026-01-21 09:34:10.12	148.66	5.84	-51.5	-66.0	3.8	1.49e+00	0	37	104	0	75	18109
2026-01-21 09:34:11.11	148.64	5.92	-51.5	-65.7	3.8	1.49e+00	0	37	104	0	75	17554
2026-01-21 09:34:12.11	148.62	5.99	-51.5	-65.5	3.8	1.49e+00	0	37	104	0	75	17274
2026-01-21 09:34:13.10	148.60	6.06	-51.5	-65.4	3.8	1.49e+00	0	37	104	0	74	17931
2026-01-21 09:34:14.09	148.58	6.14	-51.5	-65.3	3.8	1.49e+00	0	37	104	0	74	17802
2026-01-21 09:34:15.09	148.56	6.21	-51.5	-65.3	3.8	1.49e+00	0	37	104	0	74	17835
2026-01-21 09:34:16.08	148.54	6.28	-51.5	-65.5	3.8	1.49e+00	0	37	104	0	74	18105
2026-01-21 09:34:17.07	148.52	6.36	-51.5	-65.7	3.8	1.49e+00	0	37	104	0	74	18524
2026-01-21 09:34:18.06	148.50	6.43	-51.5	-66.0	3.8	1.49e+00	0	37	104	0	74	19224
2026-01-21 09:34:19.06	148.48	6.51	-51.5	-66.3	3.8	1.49e+00	0	37	104	0	74	20039
2026-01-21 09:34:20.05	148.46	6.58	-51.5	-66.6	3.8	1.49e+00	0	37	104	0	74	20618
2026-01-21 09:34:21.04	148.44	6.66	-51.5	-66.8	3.8	1.49e+00	0	37	104	0	74	21033
2026-01-21 09:34:22.04	148.42	6.73	-51.6	-66.8	3.8	1.49e+00	0	37	104	0	74	21131
2026-01-21 09:34:23.03	148.40	6.81	-51.5	-66.7	3.8	1.49e+00	0	37	104	0	74	20882
2026-01-21 09:34:24.02	148.38	6.89	-51.5	-66.4	3.8	1.49e+00	0	37	104	0	74	20230
2026-01-21 09:34:25.01	148.36	6.96	-51.5	-66.1	3.8	1.49e+00	0	38	104	0	74	19538
2026-01-21 09:34:26.01	148.34	7.04	-51.5	-65.8	3.8	1.49e+00	0	37	104	0	74	18750
2026-01-21 09:34:27.00	148.32	7.11	-51.5	-65.5	3.8	1.49e+00	0	38	104	0	74	18201
2026-01-21 09:34:27.99	148.30	7.19	-51.4	-65.0	3.8	1.49e+00	0	38	104	0	74	17195
2026-01-21 09:34:28.99	148.28	7.27	-51.4	-64.4	3.8	1.49e+00	0	38	104	0	74	16054
2026-01-21 09:34:29.98	148.25	7.35	-51.3	-63.4	4.2	1.48e+00	0	38	0	0	74	14242
2026-01-21 09:34:30.97	148.23	7.42	-51.2	-62.1	4.6	1.35e+00	0	38	0	0	74	12252
2026-01-21 09:34:31.97	148.21	7.50	-51.0	-60.7	5.3	6.82e-01	0	38	0	2097152	74	10460
2026-01-21 09:34:32.96	148.19	7.58	-50.7	-59.0	6.5	3.61e-01	0	38	0	4194304	73	9128
2026-01-21 09:34:33.95	148.17	7.66	-50.4	-57.7	7.7	1.54e-01	0	38	0	6291456	72	8319
2026-01-21 09:34:34.95	148.14	7.74	-50.0	-56.4	9.0	3.39e-02	0	38	0	7340032	72	7138
2026-01-21 09:34:35.94	148.12	7.81	-49.6	-55.2	10.3	8.47e-03	0	38	0	9437184	71	6584
2026-01-21 09:34:36.93	148.10	7.89	-49.2	-54.1	11.4	2.23e-03	0	38	0	11534336	70	6180
2026-01-21 09:34:37.93	148.08	7.97	-48.7	-53.2	12.4	5.19e-04	0	38	0	13631488	69	5864
2026-01-21 09:34:38.92	148.05	8.05	-48.4	-52.5	13.1	3.81e-05	0	38	0	14680064	68	5768
2026-01-21 09:34:39.91	148.03	8.13	-48.0	-51.9	13.7	1.06e-05	0	38	0	16777216	68	5351
2026-01-21 09:34:40.91	148.01	8.21	-47.6	-51.4	14.1	7.00e-07	0	38	0	18874368	67	5344
2026-01-21 09:34:41.90	147.99	8.29	-47.5	-51.1	14.3	7.00e-07	0	38	0	20971520	67	5185
2026-01-21 09:34:42.89	147.96	8.37	-47.5	-51.1	14.3	7.00e-07	0	38	0	23068672	66	5466
2026-01-21 09:34:43.88	147.94	8.45	-47.6	-51.2	14.2	0.00e+00	0	38	0	24117248	66	5585
2026-01-21 09:34:44.88	147.92	8.53	-47.7	-51.4	14.0	3.80e-06	0	38	0	26214400	66	5709
2026-01-21 09:34:45.87	147.89	8.62	-48.0	-52.0	13.4	1.60e-05	0	38	0	28311552	66	6100
2026-01-21 09:34:46.86	147.87	8.70	-48.3	-52.5	12.9	3.28e-05	0	38	0	30408704	67	6126
2026-01-21 09:34:47.86	147.84	8.78	-48.9	-53.5	12.1	1.43e-04	0	38	0	31457280	68	6459
2026-01-21 09:34:48.85	147.82	8.86	-49.4	-54.6	11.0	6.56e-04	0	38	0	33554432	69	6898
2026-01-21 09:34:49.84	147.80	8.94	-49.8	-55.8	9.7	6.76e-03	0	38	0	35651584	70	7469
2026-01-21 09:34:50.84	147.77	9.03	-50.3	-57.3	8.2	3.02e-02	0	38	0	37748736	71	8369
2026-01-21 09:34:51.83	147.75	9.11	-50.3	-57.0	8.4	6.44e-02	0	38	0	39845888	71	8158
2026-01-21 09:34:52.97	147.72	9.20	-50.9	-60.5	5.5	2.73e-01	0	38	0	41943040	72	11430
2026-01-21 09:34:53.82	147.70	9.27	-49.9	-56.0	9.5	1.30e-01	0	38	0	42991616	71	7208
2026-01-21 09:34:54.96	147.67	9.37	-46.5	-49.6	15.9	3.01e-03	0	38	0	45088768	65	4897
2026-01-21 09:34:55.81	147.65	9.44	-51.3	-63.4	4.2	4.19e-05	0	38	0	47185920	73	15155
2026-01-21 09:34:56.95	147.62	9.54	-46.7	-49.8	15.6	1.78e-01	0	38	0	47185920	65	5004
2026-01-21 09:34:57.80	147.60	9.61	-46.3	-49.2	16.3	0.00e+00	0	38	0	49283072	64	4969
2026-01-21 09:34:58.94	147.57	9.71	-46.0	-48.9	16.6	0.00e+00	0	38	0	51380224	64	4765
2026-01-21 09:34:59.79	147.54	9.78	-46.1	-49.0	16.5	3.51e-04	0	38	0	52428800	63	5114
2026-01-21 09:35:00.93	147.51	9.88	-46.1	-48.9	16.7	0.00e+00	0	39	0	54525952	63	5060
2026-01-21 09:35:01.78	147.49	9.95	-46.0	-48.9	16.7	0.00e+00	0	38	0	56623104	63	5046
2026-01-21 09:35:02.97	147.46	10.06	-45.9	-48.7	16.9	0.00e+00	0	38	0	58720256	63	4934
2026-01-21 09:35:03.82	147.44	10.13	-45.8	-48.5	17.0	0.00e+00	0	38	0	60817408	63	4860
2026-01-21 09:35:04.96	147.41	10.23	-45.8	-48.6	17.0	0.00e+00	0	38	0	62914560	63	4916
2026-01-21 09:35:05.81	147.38	10.30	-45.7	-48.4	17.2	0.00e+00	0	38	0	63963136	63	4805
2026-01-21 09:35:06.95	147.35	10.40	-45.7	-48.4	17.1	0.00e+00	0	38	0	66060288	63	4811
2026-01-21 09:35:07.80	147.33	10.48	-45.7	-48.5	17.1	0.00e+00	0	38	0	68157440	63	4836
2026-01-21 09:35:08.94	147.30	10.58	-45.6	-48.4	17.3	0.00e+00	0	38	0	70254592	63	4765
2026-01-21 09:35:09.79	147.27	10.65	-45.6	-48.3	17.3	0.00e+00	0	38	0	71303168	63	4733
2026-01-21 09:35:10.93	147.24	10.75	-45.3	-47.9	17.7	0.00e+00	0	38	0	73400320	62	4789
2026-01-21 09:35:11.78	147.22	10.83	-45.2	-47.7	17.9	0.00e+00	0	38	0	75497472	62	4691
2026-01-21 09:35:12.92	147.19	10.93	-45.3	-47.9	17.7	0.00e+00	0	38	0	77594624	62	4784
2026-01-21 09:35:13.77	147.16	11.01	-45.3	-47.9	17.8	1.37e-05	0	38	0	78643200	62	4775
2026-01-21 09:35:14.91	147.13	11.11	-45.1	-47.6	18.0	0.00e+00	0	38	0	80740352	62	4649
2026-01-21 09:35:15.76	147.11	11.19	-45.1	-47.5	18.1	0.00e+00	0	38	0	82837504	62	4589
2026-01-21 09:35:16.90	147.07	11.29	-45.1	-47.6	18.1	0.00e+00	0	38	0	84934656	62	4605
2026-01-21 09:35:17.75	147.05	11.37	-45.0	-47.5	18.1	0.00e+00	0	38	0	85983232	62	4570
2026-01-21 09:35:18.88	147.01	11.47	-45.1	-47.6	18.0	0.00e+00	0	38	0	89128960	61	4885
2026-01-21 09:35:19.73	146.99	11.55	-45.1	-47.6	18.1	0.00e+00	0	39	0	90177536	61	4877
2026-01-21 09:35:20.87	146.95	11.66	-45.1	-47.5	18.1	0.00e+00	0	38	0	92274688	61	4863
2026-01-21 09:35:21.72	146.93	11.74	-45.1	-47.6	18.0	0.00e+00	0	38	0	94371840	61	4887
2026-01-21 09:35:23.05	146.89	11.86	-45.1	-47.6	18.1	0.00e+00	0	39	0	96468992	61	4889
2026-01-21 09:35:23.76	146.87	11.93	-45.1	-47.6	18.1	0.00e+00	0	39	0	97517568	61	4873
2026-01-21 09:35:25.26	146.82	12.07	-45.0	-47.5	18.1	0.00e+00	0	39	0	100663296	61	4846
2026-01-21 09:35:26.26	146.79	12.16	-45.1	-47.6	18.1	0.00e+00	0	39	0	102760448	61	4880
2026-01-21 09:35:27.25	146.76	12.25	-45.1	-47.6	18.1	0.00e+00	0	39	0	103809024	61	4895
2026-01-21 09:35:28.25	146.73	12.35	-45.1	-47.7	18.0	0.00e+00	0	38	0	105906176	61	4932
2026-01-21 09:35:29.24	146.70	12.44	-44.9	-47.4	18.2	0.00e+00	0	39	0	108003328	61	4805
2026-01-21 09:35:30.24	146.66	12.54	-44.9	-47.5	18.2	0.00e+00	0	39	0	110100480	61	4826
2026-01-21 09:35:31.23	146.63	12.63	-44.9	-47.4	18.2	0.00e+00	0	39	0	112197632	61	4802
2026-01-21 09:35:32.23	146.60	12.73	-44.9	-47.4	18.3	0.00e+00	0	39	0	113246208	61	4778
2026-01-21 09:35:33.22	146.57	12.82	-44.8	-47.3	18.4	0.00e+00	0	39	0	115343360	61	4706
2026-01-21 09:35:34.30	146.53	12.93	-44.7	-47.2	18.4	0.00e+00	0	39	0	117440512	61	4672
2026-01-21 09:35:35.15	146.50	13.01	-44.9	-47.4	18.3	0.00e+00	0	39	0	119537664	61	4761
2026-01-21 09:35:36.49	146.46	13.14	-44.8	-47.3	18.4	0.00e+00	0	39	0	121634816	61	4716
2026-01-21 09:35:37.20	146.44	13.21	-44.7	-47.2	18.4	0.00e+00	0	39	0	122683392	61	4700
2026-01-21 09:35:38.48	146.39	13.34	-44.8	-47.3	18.3	0.00e+00	0	39	0	125829120	61	4756
2026-01-21 09:35:39.19	146.37	13.41	-44.9	-47.4	18.3	0.00e+00	0	39	0	126877696	61	4778
2026-01-21 09:35:40.75	146.31	13.56	-44.8	-47.3	18.4	0.00e+00	0	38	0	130023424	61	4745
2026-01-21 09:35:41.46	146.29	13.63	-44.8	-47.3	18.4	0.00e+00	0	39	0	131072000	61	4733
2026-01-21 09:35:42.79	146.24	13.77	-44.8	-47.3	18.4	0.00e+00	0	39	0	133169152	61	4734
2026-01-21 09:35:43.50	146.22	13.84	-44.9	-47.4	18.3	0.00e+00	0	39	0	135266304	61	4773
2026-01-21 09:35:44.78	146.17	13.97	-44.8	-47.3	18.4	0.00e+00	0	39	0	137363456	61	4730
2026-01-21 09:35:45.49	146.15	14.04	-44.8	-47.3	18.4	0.00e+00	0	39	0	138412032	61	4734
2026-01-21 09:35:46.77	146.10	14.17	-44.9	-47.4	18.3	0.00e+00	0	39	0	140509184	61	4783
2026-01-21 09:35:47.48	146.08	14.24	-44.8	-47.2	18.5	0.00e+00	0	39	0	142606336	61	4675
2026-01-21 09:35:48.76	146.03	14.38	-44.7	-47.1	18.6	0.00e+00	0	39	0	144703488	61	4647
2026-01-21 09:35:49.47	146.00	14.45	-44.7	-47.1	18.6	0.00e+00	0	39	0	145752064	61	4621
2026-01-21 09:35:50.75	145.96	14.58	-44.7	-47.1	18.6	0.00e+00	0	39	0	147849216	61	4623
2026-01-21 09:35:51.46	145.93	14.66	-44.6	-47.0	18.7	0.00e+00	0	39	0	149946368	61	4581
2026-01-21 09:35:52.74	145.88	14.79	-44.7	-47.2	18.5	0.00e+00	0	39	0	152043520	61	4654
2026-01-21 09:35:53.47	145.85	14.87	-44.7	-47.2	18.5	0.00e+00	0	39	0	153092096	61	4654
2026-01-21 09:35:54.75	145.81	15.00	-44.7	-47.1	18.6	0.00e+00	0	39	0	156237824	61	4632
2026-01-21 09:35:55.66	145.77	15.10	-44.8	-47.3	18.4	0.00e+00	0	39	0	157286400	61	4716
2026-01-21 09:35:56.97	145.72	15.24	-44.9	-47.3	18.4	0.00e+00	0	39	0	160432128	61	4746
2026-01-21 09:35:57.70	145.69	15.31	-44.9	-47.3	18.5	0.00e+00	0	39	0	161480704	61	4736
2026-01-21 09:35:59.28	145.63	15.48	-44.9	-47.3	18.4	0.00e+00	0	39	0	164626432	61	4742
2026-01-21 09:36:00.18	145.59	15.58	-44.8	-47.2	18.5	0.00e+00	0	39	0	165675008	61	4702
2026-01-21 09:36:01.28	145.55	15.70	-44.9	-47.3	18.4	0.00e+00	0	39	0	167772160	61	4755
2026-01-21 09:36:02.14	145.52	15.79	-44.9	-47.4	18.4	0.00e+00	0	39	0	169869312	61	4770
2026-01-21 09:36:03.27	145.47	15.92	-44.8	-47.2	18.6	0.00e+00	0	39	0	171966464	61	4654
2026-01-21 09:36:04.13	145.43	16.01	-44.8	-47.1	18.6	0.00e+00	0	39	0	173015040	61	4646
2026-01-21 09:36:05.26	145.39	16.14	-44.8	-47.2	18.6	0.00e+00	0	39	0	175112192	61	4652
2026-01-21 09:36:06.12	145.35	16.23	-44.8	-47.2	18.5	0.00e+00	0	39	0	177209344	61	4684
2026-01-21 09:36:07.25	145.30	16.36	-44.8	-47.1	18.6	0.00e+00	0	39	0	179306496	61	4650
2026-01-21 09:36:08.16	145.27	16.46	-44.7	-47.1	18.6	0.00e+00	0	39	0	181403648	61	4607
2026-01-21 09:36:09.20	145.22	16.57	-44.8	-47.1	18.6	0.00e+00	0	39	0	182452224	61	4650
2026-01-21 09:36:10.35	145.17	16.70	-44.8	-47.1	18.6	0.00e+00	0	39	0	185597952	61	4645
2026-01-21 09:36:11.23	145.13	16.80	-44.7	-47.0	18.7	0.00e+00	0	39	0	186646528	61	4583
2026-01-21 09:36:12.37	145.08	16.93	-44.6	-46.9	18.8	0.00e+00	0	39	0	188743680	61	4540
2026-01-21 09:36:13.23	145.05	17.03	-44.6	-47.0	18.8	0.00e+00	0	39	0	190840832	61	4561
2026-01-21 09:36:14.36	145.00	17.16	-44.6	-47.0	18.7	0.00e+00	0	39	0	192937984	61	4574
2026-01-21 09:36:15.22	144.96	17.26	-44.7	-47.0	18.7	0.00e+00	0	39	0	193986560	61	4593
2026-01-21 09:36:16.35	144.91	17.39	-44.7	-47.1	18.6	0.00e+00	0	39	0	196083712	61	4642
2026-01-21 09:36:17.21	144.87	17.49	-44.7	-47.1	18.7	0.00e+00	0	39	0	198180864	61	4604
2026-01-21 09:36:18.34	144.82	17.62	-44.7	-47.1	18.7	0.00e+00	0	39	0	200278016	61	4638
2026-01-21 09:36:19.20	144.78	17.72	-44.8	-47.2	18.6	0.00e+00	0	39	0	201326592	61	4682
2026-01-21 09:36:20.33	144.72	17.86	-44.7	-47.1	18.7	0.00e+00	0	39	0	203423744	61	4608
2026-01-21 09:36:21.18	144.68	17.96	-44.7	-47.1	18.7	0.00e+00	0	39	0	205520896	61	4635
2026-01-21 09:36:22.40	144.63	18.10	-44.6	-47.0	18.8	0.00e+00	0	39	0	207618048	61	4569
2026-01-21 09:36:23.25	144.59	18.21	-44.7	-47.1	18.7	0.00e+00	0	39	0	209715200	61	4603
2026-01-21 09:36:24.39	144.53	18.34	-44.6	-47.0	18.8	0.00e+00	0	39	0	211812352	61	4551
2026-01-21 09:36:25.24	144.49	18.45	-44.5	-46.9	18.9	0.00e+00	0	39	0	212860928	61	4536
2026-01-21 09:36:26.38	144.43	18.58	-44.6	-46.9	18.9	0.00e+00	0	39	0	214958080	61	4529
2026-01-21 09:36:27.23	144.39	18.69	-44.6	-47.0	18.8	0.00e+00	0	39	0	217055232	61	4568
2026-01-21 09:36:28.37	144.33	18.83	-44.5	-46.9	18.9	0.00e+00	0	39	0	219152384	61	4536
2026-01-21 09:36:29.22	144.29	18.93	-44.6	-47.0	18.8	0.00e+00	0	39	0	220200960	61	4568
2026-01-21 09:36:30.36	144.23	19.07	-44.5	-47.0	18.9	0.00e+00	0	39	0	222298112	61	4547
2026-01-21 09:36:31.21	144.19	19.18	-44.7	-47.1	18.7	0.00e+00	0	39	0	224395264	61	4635
2026-01-21 09:36:32.34	144.13	19.32	-44.6	-47.0	18.8	0.00e+00	0	39	0	226492416	61	4576
2026-01-21 09:36:33.20	144.09	19.43	-44.6	-47.0	18.9	0.00e+00	0	39	0	227540992	61	4558
2026-01-21 09:36:34.33	144.03	19.57	-44.6	-47.1	18.8	0.00e+00	0	39	0	229638144	61	4602
2026-01-21 09:36:35.19	143.98	19.68	-44.8	-47.2	18.6	0.00e+00	0	39	0	231735296	61	4688
2026-01-21 09:36:36.32	143.92	19.82	-44.7	-47.2	18.7	0.00e+00	0	39	0	233832448	61	4657
2026-01-21 09:36:37.18	143.88	19.93	-44.8	-47.2	18.6	0.00e+00	0	39	0	234881024	61	4693
2026-01-21 09:36:38.31	143.82	20.08	-44.7	-47.0	18.8	0.00e+00	0	39	0	238026752	61	4598
2026-01-21 09:36:39.16	143.77	20.19	-44.6	-46.9	18.9	0.00e+00	0	39	0	239075328	61	4530
2026-01-21 09:36:40.30	143.71	20.34	-44.6	-47.0	18.9	0.00e+00	0	39	0	241172480	61	4557
2026-01-21 09:36:41.15	143.66	20.45	-44.4	-46.7	19.1	0.00e+00	0	39	0	243269632	60	4670
2026-01-21 09:36:42.41	143.59	20.61	-44.4	-46.6	19.2	0.00e+00	0	39	0	245366784	60	4651
2026-01-21 09:36:43.22	143.54	20.72	-44.4	-46.7	19.1	0.00e+00	0	39	0	246415360	60	4679
2026-01-21 09:36:44.35	143.48	20.87	-44.4	-46.6	19.2	0.00e+00	0	39	0	248512512	60	4641
2026-01-21 09:36:45.21	143.43	20.98	-44.4	-46.7	19.1	0.00e+00	0	39	0	250609664	60	4675
2026-01-21 09:36:46.52	143.35	21.16	-44.4	-46.7	19.1	0.00e+00	0	39	0	252706816	60	4667
2026-01-21 09:36:47.23	143.31	21.25	-44.4	-46.6	19.2	0.00e+00	0	39	0	254803968	60	4633
2026-01-21 09:36:48.51	143.23	21.43	-44.5	-46.8	19.1	0.00e+00	0	39	0	256901120	60	4716
2026-01-21 09:36:49.22	143.19	21.52	-44.4	-46.7	19.1	0.00e+00	0	39	0	257949696	60	4676
2026-01-21 09:36:50.50	143.11	21.70	-44.4	-46.7	19.2	0.00e+00	0	39	0	260046848	60	4657
2026-01-21 09:36:51.22	143.07	21.80	-44.5	-46.8	19.1	0.00e+00	0	39	0	262144000	60	4708
2026-01-21 09:36:52.50	142.99	21.97	-44.5	-46.8	19.1	0.00e+00	0	39	0	264241152	60	4721
2026-01-21 09:36:53.22	142.95	22.07	-44.5	-46.7	19.1	0.00e+00	0	39	0	265289728	60	4685
2026-01-21 09:36:54.49	142.87	22.25	-44.5	-46.7	19.1	0.00e+00	0	39	0	267386880	60	4696
2026-01-21 09:36:55.22	142.82	22.35	-44.6	-46.8	19.0	0.00e+00	0	39	0	269484032	60	4759
2026-01-21 09:36:56.51	142.74	22.53	-44.6	-47.0	19.0	0.00e+00	0	39	0	271581184	60	4820
2026-01-21 09:36:57.22	142.69	22.63	-44.6	-46.9	19.0	0.00e+00	0	39	0	272629760	60	4785
2026-01-21 09:36:58.56	142.60	22.83	-44.6	-47.0	18.9	0.00e+00	0	39	0	275775488	60	4822
2026-01-21 09:36:59.27	142.56	22.93	-44.7	-47.1	18.8	0.00e+00	0	39	0	276824064	60	4903
2026-01-21 09:37:00.55	142.47	23.11	-44.8	-47.1	18.8	0.00e+00	0	39	0	278921216	60	4921
2026-01-21 09:37:01.29	142.42	23.22	-44.8	-47.1	18.8	0.00e+00	0	39	0	281018368	60	4925
2026-01-21 09:37:02.64	142.33	23.42	-44.9	-47.2	18.7	0.00e+00	0	39	0	283115520	60	4977
2026-01-21 09:37:03.36	142.28	23.52	-44.8	-47.1	18.8	0.00e+00	0	39	0	284164096	60	4921
2026-01-21 09:37:04.63	142.19	23.71	-44.8	-47.1	18.8	0.00e+00	0	39	0	287309824	60	4899
2026-01-21 09:37:05.36	142.14	23.82	-44.8	-47.1	18.8	0.00e+00	0	39	0	288358400	60	4903
2026-01-21 09:37:06.75	142.04	24.02	-44.9	-47.2	18.7	0.00e+00	0	39	0	290455552	60	4969
2026-01-21 09:37:07.46	141.99	24.13	-45.0	-47.4	18.6	0.00e+00	0	39	0	292552704	60	5049
2026-01-21 09:37:08.74	141.90	24.32	-45.1	-47.5	18.4	0.00e+00	0	39	0	294649856	60	5146
2026-01-21 09:37:09.45	141.85	24.43	-45.1	-47.5	18.4	0.00e+00	0	39	0	295698432	60	5157
2026-01-21 09:37:10.73	141.76	24.62	-45.3	-47.7	18.2	0.00e+00	0	39	0	298844160	61	4975
2026-01-21 09:37:11.47	141.70	24.74	-45.3	-47.8	18.2	0.00e+00	0	39	0	299892736	61	5002
2026-01-21 09:37:12.75	141.61	24.93	-45.3	-47.7	18.2	0.00e+00	0	39	0	301989888	61	4967
2026-01-21 09:37:13.46	141.55	25.04	-45.3	-47.7	18.3	0.00e+00	0	39	0	303038464	61	4964
2026-01-21 09:37:14.74	141.45	25.24	-45.3	-47.7	18.3	0.00e+00	0	39	0	306184192	61	4950
2026-01-21 09:37:15.45	141.40	25.35	-45.3	-47.8	18.2	0.00e+00	0	39	0	307232768	61	4990
2026-01-21 09:37:16.73	141.30	25.55	-45.3	-47.8	18.2	0.00e+00	0	39	0	309329920	61	5006
2026-01-21 09:37:17.45	141.24	25.67	-45.4	-47.9	18.1	0.00e+00	0	39	0	311427072	61	5053
2026-01-21 09:37:18.73	141.14	25.87	-45.6	-48.1	17.9	0.00e+00	0	39	0	313524224	61	5204
2026-01-21 09:37:19.46	141.08	25.99	-45.7	-48.3	17.8	0.00e+00	0	39	0	314572800	61	5291
2026-01-21 09:37:20.73	140.98	26.19	-46.0	-48.6	17.4	0.00e+00	0	39	0	316669952	62	5216
2026-01-21 09:37:21.59	140.91	26.33	-46.1	-48.8	17.3	0.00e+00	0	39	0	318767104	62	5293
2026-01-21 09:37:22.73	140.81	26.52	-46.1	-48.8	17.3	0.00e+00	0	39	0	320864256	62	5334
2026-01-21 09:37:23.58	140.74	26.65	-46.2	-48.9	17.2	0.00e+00	0	39	0	322961408	63	5044
2026-01-21 09:37:24.72	140.64	26.84	-46.4	-49.1	17.0	0.00e+00	0	39	0	324009984	63	5195
2026-01-21 09:37:25.57	140.57	26.98	-46.3	-49.0	17.0	0.00e+00	0	39	0	326107136	63	5138
2026-01-21 09:37:26.71	140.47	27.17	-46.5	-49.3	16.8	0.00e+00	0	39	0	328204288	63	5290
2026-01-21 09:37:27.56	140.40	27.31	-46.5	-49.3	16.8	0.00e+00	0	39	0	330301440	63	5323
2026-01-21 09:37:28.70	140.30	27.51	-46.7	-49.6	16.4	0.00e+00	0	39	0	332398592	64	5185
2026-01-21 09:37:29.55	140.22	27.65	-46.6	-49.5	16.6	0.00e+00	0	39	0	333447168	64	5106
2026-01-21 09:37:30.69	140.12	27.84	-46.6	-49.5	16.5	0.00e+00	0	39	0	335544320	64	5103
2026-01-21 09:37:31.54	140.04	27.99	-46.7	-49.5	16.5	0.00e+00	0	39	0	337641472	64	5144
2026-01-21 09:37:32.68	139.94	28.18	-46.7	-49.6	16.4	0.00e+00	0	39	0	339738624	64	5185
2026-01-21 09:37:33.57	139.85	28.34	-46.8	-49.7	16.3	0.00e+00	0	39	0	340787200	64	5228
2026-01-21 09:37:34.69	139.75	28.53	-46.9	-49.8	16.2	0.00e+00	0	39	0	342884352	64	5332
2026-01-21 09:37:35.66	139.65	28.70	-46.9	-49.9	16.1	0.00e+00	0	39	0	344981504	64	5371
2026-01-21 09:37:36.84	139.54	28.91	-47.0	-50.0	16.0	0.00e+00	0	39	0	347078656	64	5458
2026-01-21 09:37:37.72	139.45	29.07	-47.1	-50.1	15.9	0.00e+00	0	39	0	349175808	64	5519
2026-01-21 09:37:38.86	139.34	29.27	-47.2	-50.3	15.8	0.00e+00	0	39	0	351272960	65	5282
2026-01-21 09:37:39.71	139.25	29.42	-47.2	-50.4	15.7	0.00e+00	0	39	0	352321536	65	5347
2026-01-21 09:37:40.85	139.14	29.63	-47.2	-50.4	15.7	0.00e+00	0	39	0	354418688	65	5346
2026-01-21 09:37:41.70	139.05	29.78	-47.4	-50.5	15.5	0.00e+00	0	39	0	356515840	65	5453
2026-01-21 09:37:42.84	138.93	29.99	-47.4	-50.5	15.5	0.00e+00	0	39	0	358612992	65	5453
2026-01-21 09:37:43.69	138.84	30.15	-47.4	-50.5	15.6	0.00e+00	0	39	0	359661568	65	5440
2026-01-21 09:37:44.83	138.72	30.36	-47.4	-50.5	15.5	0.00e+00	0	39	0	362807296	65	5459
2026-01-21 09:37:45.68	138.63	30.51	-47.4	-50.6	15.4	0.00e+00	0	39	0	363855872	65	5511
2026-01-21 09:37:46.82	138.51	30.73	-47.4	-50.6	15.5	7.00e-07	0	39	0	365953024	65	5469
2026-01-21 09:37:47.67	138.41	30.89	-47.4	-50.5	15.6	0.00e+00	0	39	0	368050176	65	5453
2026-01-21 09:37:48.81	138.29	31.10	-47.5	-50.7	15.4	0.00e+00	0	39	0	370147328	65	5567
2026-01-21 09:37:49.66	138.19	31.26	-47.5	-50.7	15.4	7.00e-07	0	39	0	371195904	65	5578
2026-01-21 09:37:50.80	138.06	31.48	-47.5	-50.7	15.4	0.00e+00	0	39	0	373293056	65	5560
2026-01-21 09:37:51.65	137.96	31.64	-47.6	-50.9	15.2	0.00e+00	0	39	0	375390208	65	5688
2026-01-21 09:37:52.94	137.81	31.89	-47.8	-51.2	14.9	0.00e+00	0	39	0	377487360	66	5570
2026-01-21 09:37:53.65	137.73	32.03	-47.8	-51.2	14.9	0.00e+00	0	39	0	378535936	66	5544
2026-01-21 09:37:55.13	137.55	32.32	-47.8	-51.2	14.9	7.00e-07	0	39	0	381681664	66	5550
2026-01-21 09:37:55.85	137.46	32.46	-47.8	-51.1	15.0	0.00e+00	0	39	0	382730240	66	5486
2026-01-21 09:37:57.12	137.31	32.71	-47.7	-51.0	15.1	0.00e+00	0	39	0	384827392	66	5408
2026-01-21 09:37:57.83	137.22	32.85	-47.8	-51.1	15.0	0.00e+00	0	39	0	386924544	66	5498
2026-01-21 09:37:59.26	137.04	33.14	-47.7	-51.0	15.1	0.00e+00	0	39	0	389021696	66	5463
2026-01-21 09:37:59.97	136.95	33.28	-47.8	-51.1	15.0	7.00e-07	0	39	0	391118848	66	5523
2026-01-21 09:38:01.32	136.77	33.56	-47.8	-51.2	15.0	0.00e+00	0	39	0	393216000	66	5559
2026-01-21 09:38:02.03	136.68	33.70	-47.8	-51.2	14.9	0.00e+00	0	39	0	394264576	66	5565
2026-01-21 09:38:03.31	136.51	33.97	-47.7	-51.0	15.1	0.00e+00	0	39	0	397410304	66	5445
2026-01-21 09:38:04.04	136.41	34.12	-47.7	-51.0	15.1	0.00e+00	0	39	0	398458880	66	5441
2026-01-21 09:38:05.32	136.24	34.38	-47.8	-51.4	14.7	0.00e+00	0	39	0	400556032	66	5695
2026-01-21 09:38:06.04	136.14	34.53	-47.8	-51.4	14.7	7.00e-07	0	39	0	401604608	66	5693
2026-01-21 09:38:07.32	135.96	34.80	-47.9	-51.5	14.6	7.00e-07	0	39	0	404750336	66	5780
2026-01-21 09:38:08.03	135.86	34.95	-47.9	-51.5	14.6	7.00e-07	0	39	0	405798912	66	5763
2026-01-21 09:38:09.31	135.67	35.22	-48.0	-51.6	14.5	0.00e+00	0	39	0	407896064	66	5849
2026-01-21 09:38:10.05	135.56	35.38	-48.0	-51.6	14.5	7.00e-07	0	39	0	409993216	66	5815
2026-01-21 09:38:11.33	135.38	35.66	-48.0	-51.6	14.6	7.00e-07	0	39	0	412090368	66	5802
2026-01-21 09:38:12.05	135.27	35.81	-48.0	-51.5	14.6	7.00e-07	0	39	0	413138944	66	5766
2026-01-21 09:38:13.33	135.07	36.09	-47.9	-51.4	14.7	1.50e-06	0	39	0	415236096	66	5680
2026-01-21 09:38:14.05	134.96	36.25	-47.9	-51.4	14.8	0.00e+00	0	39	0	417333248	66	5669
2026-01-21 09:38:15.33	134.76	36.53	-47.9	-51.3	14.8	0.00e+00	0	39	0	419430400	66	5635
2026-01-21 09:38:16.07	134.65	36.69	-47.8	-51.2	15.0	0.00e+00	0	39	0	420478976	66	5531
2026-01-21 09:38:17.35	134.44	36.98	-47.7	-51.0	15.1	0.00e+00	0	39	0	423624704	66	5433
2026-01-21 09:38:18.09	134.32	37.14	-47.6	-50.9	15.3	0.00e+00	0	39	0	424673280	66	5353
2026-01-21 09:38:19.37	134.11	37.43	-47.4	-50.5	15.6	7.00e-07	0	39	0	426770432	66	5121
2026-01-21 09:38:20.10	133.99	37.60	-47.4	-50.6	15.6	0.00e+00	0	39	0	428867584	66	5171
2026-01-21 09:38:21.46	133.76	37.91	-47.4	-50.5	15.7	0.00e+00	0	39	0	430964736	66	5125
2026-01-21 09:38:22.17	133.63	38.07	-47.2	-50.2	15.9	0.00e+00	0	39	0	432013312	66	4954
2026-01-21 09:38:23.45	133.41	38.36	-47.3	-50.4	15.8	0.00e+00	0	39	0	435159040	66	5044
2026-01-21 09:38:24.19	133.28	38.53	-47.4	-50.5	15.6	0.00e+00	0	39	0	436207616	66	5140
2026-01-21 09:38:25.47	133.05	38.83	-47.3	-50.4	15.8	7.00e-07	0	39	0	438304768	66	5083
2026-01-21 09:38:26.19	132.92	39.00	-47.2	-50.3	15.8	0.00e+00	0	39	0	439353344	66	5013
2026-01-21 09:38:27.47	132.68	39.30	-47.0	-49.9	16.2	0.00e+00	0	39	0	442499072	65	5079
2026-01-21 09:38:28.18	132.55	39.47	-46.9	-49.8	16.3	0.00e+00	0	39	0	443547648	65	5022
2026-01-21 09:38:29.71	132.25	39.83	-46.8	-49.7	16.4	0.00e+00	0	39	0	446693376	65	4944
2026-01-21 09:38:30.42	132.12	40.00	-46.8	-49.7	16.5	0.00e+00	0	39	0	447741952	65	4937
2026-01-21 09:38:31.78	131.85	40.33	-46.8	-49.7	16.5	0.00e+00	0	39	0	449839104	65	4935
2026-01-21 09:38:32.49	131.71	40.50	-46.9	-49.8	16.3	0.00e+00	0	39	0	451936256	65	5023
2026-01-21 09:38:33.81	131.44	40.82	-47.0	-50.0	16.2	0.00e+00	0	39	0	454033408	65	5102
2026-01-21 09:38:34.53	131.29	41.00	-47.0	-50.0	16.1	0.00e+00	0	39	0	455081984	65	5140
2026-01-21 09:38:35.81	131.02	41.31	-47.3	-50.5	15.7	0.00e+00	0	39	0	458227712	65	5423
2026-01-21 09:38:36.54	130.86	41.49	-47.4	-50.5	15.6	7.00e-07	0	39	0	459276288	65	5454
2026-01-21 09:38:37.83	130.59	41.81	-47.2	-50.2	15.9	0.00e+00	0	39	0	461373440	65	5270
2026-01-21 09:38:38.57	130.42	42.00	-47.2	-50.3	15.8	0.00e+00	0	39	0	463470592	65	5307
2026-01-21 09:38:39.85	130.14	42.32	-47.3	-50.3	15.8	0.00e+00	0	39	0	465567744	65	5339
2026-01-21 09:38:40.55	129.98	42.49	-47.3	-50.4	15.8	0.00e+00	0	39	0	466616320	65	5382
2026-01-21 09:38:41.85	129.68	42.82	-46.8	-49.7	16.3	0.00e+00	0	39	0	468713472	65	4974
2026-01-21 09:38:42.57	129.51	43.00	-46.8	-49.7	16.4	0.00e+00	0	39	0	470810624	65	4959
2026-01-21 09:38:43.85	129.20	43.33	-46.7	-49.6	16.5	0.00e+00	0	39	0	472907776	65	4891
2026-01-21 09:38:44.58	129.03	43.52	-46.9	-49.9	16.3	0.00e+00	0	39	0	473956352	65	5043
2026-01-21 09:38:46.22	128.62	43.94	-46.8	-49.8	16.4	0.00e+00	0	39	0	477102080	65	4998
2026-01-21 09:38:46.79	128.48	44.09	-46.7	-49.6	16.6	0.00e+00	0	39	0	478150656	65	4884
2026-01-21 09:38:48.50	128.04	44.53	-46.1	-48.7	17.4	0.00e+00	0	39	0	481296384	64	4681
2026-01-21 09:38:49.10	127.89	44.69	-46.1	-48.7	17.5	0.00e+00	0	39	0	482344960	64	4671
2026-01-21 09:38:51.12	127.35	45.22	-46.2	-48.9	17.3	0.00e+00	0	39	0	486539264	63	5043
2026-01-21 09:38:51.69	127.19	45.37	-46.2	-48.9	17.3	0.00e+00	0	39	0	487587840	63	5071
2026-01-21 09:38:53.38	126.72	45.81	-46.2	-48.9	17.4	0.00e+00	0	39	0	490733568	63	5057
2026-01-21 09:38:53.95	126.56	45.97	-46.3	-49.0	17.3	0.00e+00	0	39	0	491782144	63	5112
2026-01-21 09:38:55.66	126.07	46.42	-46.5	-49.2	17.0	0.00e+00	0	39	0	494927872	63	5248
2026-01-21 09:38:56.23	125.90	46.58	-46.6	-49.4	16.7	0.00e+00	0	39	0	495976448	64	5080
2026-01-21 09:38:57.93	125.39	47.03	-46.6	-49.4	16.8	0.00e+00	0	39	0	499122176	64	5043
2026-01-21 09:38:58.50	125.22	47.19	-46.6	-49.4	16.7	0.00e+00	0	39	0	500170752	64	5074
2026-01-21 09:39:00.21	124.68	47.65	-46.5	-49.3	16.9	0.00e+00	0	39	0	503316480	64	4996
2026-01-21 09:39:00.77	124.50	47.80	-46.5	-49.2	16.9	0.00e+00	0	39	0	504365056	64	4967
2026-01-21 09:39:02.48	123.95	48.27	-46.2	-48.9	17.3	0.00e+00	0	39	0	507510784	64	4767
2026-01-21 09:39:03.05	123.76	48.43	-46.2	-48.8	17.3	0.00e+00	0	39	0	508559360	64	4736
2026-01-21 09:39:04.75	123.19	48.89	-46.2	-48.8	17.3	0.00e+00	0	39	0	511705088	64	4759
2026-01-21 09:39:05.32	122.99	49.05	-46.1	-48.8	17.3	0.00e+00	0	39	0	512753664	64	4734
2026-01-21 09:39:07.02	122.39	49.52	-46.1	-48.6	17.5	0.00e+00	0	39	0	515899392	63	4925
2026-01-21 09:39:07.59	122.18	49.67	-45.9	-48.5	17.7	0.00e+00	0	39	0	516947968	63	4833
2026-01-21 09:39:09.30	121.56	50.15	-46.1	-48.7	17.5	0.00e+00	0	39	0	521142272	63	4954
2026-01-21 09:39:09.87	121.34	50.31	-46.2	-48.8	17.4	0.00e+00	0	39	0	522190848	63	4998
2026-01-21 09:39:11.57	120.69	50.78	-46.2	-48.9	17.4	0.00e+00	0	39	0	525336576	63	5051
2026-01-21 09:39:12.14	120.47	50.94	-46.1	-48.7	17.5	0.00e+00	0	39	0	526385152	63	4927
2026-01-21 09:39:13.85	119.78	51.41	-45.7	-48.2	18.0	0.00e+00	0	39	0	529530880	63	4670
2026-01-21 09:39:14.41	119.56	51.57	-45.7	-48.1	18.1	0.00e+00	0	39	0	530579456	63	4650
2026-01-21 09:39:16.12	118.84	52.04	-45.5	-47.9	18.3	0.00e+00	0	39	0	533725184	62	4787
2026-01-21 09:39:16.69	118.60	52.20	-45.4	-47.8	18.4	0.00e+00	0	39	0	534773760	62	4733
2026-01-21 09:39:18.39	117.86	52.67	-45.1	-47.5	18.7	0.00e+00	0	39	0	537919488	62	4546
2026-01-21 09:39:18.96	117.61	52.83	-45.1	-47.5	18.7	0.00e+00	0	39	0	538968064	62	4556
2026-01-21 09:39:20.67	116.83	53.31	-45.1	-47.4	18.8	0.00e+00	0	39	0	542113792	62	4517
2026-01-21 09:39:21.23	116.57	53.46	-44.9	-47.2	18.9	0.00e+00	0	39	0	543162368	61	4671
2026-01-21 09:39:23.05	115.71	53.96	-45.0	-47.3	18.8	0.00e+00	0	39	0	546308096	61	4753
2026-01-21 09:39:23.61	115.43	54.12	-45.0	-47.4	18.7	0.00e+00	0	39	0	547356672	61	4788
2026-01-21 09:39:25.32	114.58	54.59	-45.2	-47.6	18.6	0.00e+00	0	39	0	550502400	61	4880
2026-01-21 09:39:26.04	114.22	54.79	-45.0	-47.3	18.8	0.00e+00	0	39	0	551550976	61	4735
2026-01-21 09:39:27.32	113.55	55.14	-45.0	-47.3	18.8	0.00e+00	0	39	0	554696704	61	4751
2026-01-21 09:39:28.28	113.05	55.40	-44.8	-47.1	19.0	0.00e+00	0	39	0	556793856	61	4630
2026-01-21 09:39:29.28	112.51	55.67	-45.0	-47.4	18.8	0.00e+00	0	39	0	557842432	61	4762
2026-01-21 09:39:30.28	111.96	55.94	-45.3	-47.7	18.4	0.00e+00	0	39	0	559939584	61	4945
2026-01-21 09:39:31.27	111.40	56.20	-45.5	-48.1	18.1	0.00e+00	0	39	0	562036736	61	5170
2026-01-21 09:39:32.26	110.83	56.47	-45.9	-48.5	17.8	0.00e+00	0	39	0	564133888	62	5104
2026-01-21 09:39:33.26	110.25	56.73	-46.4	-49.1	17.2	0.00e+00	0	39	0	565182464	63	5194
2026-01-21 09:39:34.25	109.66	57.00	-46.7	-49.6	16.6	0.00e+00	0	39	0	567279616	64	5186
2026-01-21 09:39:35.25	109.06	57.26	-46.9	-49.9	16.3	0.00e+00	0	39	0	569376768	64	5379
2026-01-21 09:39:36.26	108.43	57.52	-47.1	-50.1	16.1	0.00e+00	0	39	0	571473920	64	5507
2026-01-21 09:39:37.25	107.81	57.78	-47.1	-50.1	16.1	0.00e+00	0	39	0	573571072	65	5203
2026-01-21 09:39:38.36	107.10	58.06	-47.0	-49.9	16.3	0.00e+00	0	39	0	574619648	65	5047
2026-01-21 09:39:39.21	106.54	58.28	-47.0	-49.9	16.4	0.00e+00	0	39	0	576716800	65	5055
2026-01-21 09:39:40.35	105.78	58.56	-47.1	-50.1	16.2	0.00e+00	0	39	0	578813952	65	5178
2026-01-21 09:39:41.20	105.20	58.77	-46.8	-49.7	16.5	0.00e+00	0	39	0	580911104	65	4972
2026-01-21 09:39:42.34	104.41	59.05	-46.4	-49.2	17.1	0.00e+00	0	39	0	583008256	64	4932
2026-01-21 09:39:43.19	103.81	59.26	-46.2	-48.9	17.4	0.00e+00	0	39	0	584056832	64	4764
2026-01-21 09:39:44.33	102.99	59.53	-46.2	-48.9	17.3	0.00e+00	0	39	0	586153984	64	4788
2026-01-21 09:39:45.18	102.37	59.73	-46.2	-48.8	17.3	0.00e+00	0	39	0	588251136	64	4747
2026-01-21 09:39:46.32	101.52	60.00	-46.2	-48.9	17.3	0.00e+00	0	39	0	590348288	64	4804
2026-01-21 09:39:47.18	100.87	60.19	-46.3	-48.9	17.2	0.00e+00	0	39	0	591396864	64	4813
2026-01-21 09:39:48.32	99.99	60.45	-46.2	-48.9	17.3	0.00e+00	0	39	0	593494016	64	4794
2026-01-21 09:39:49.17	99.32	60.64	-45.6	-48.0	18.2	0.00e+00	0	39	0	595591168	63	4597
2026-01-21 09:39:50.31	98.41	60.89	-44.7	-47.0	19.1	0.00e+00	0	39	0	597688320	61	4579
2026-01-21 09:39:51.16	97.72	61.07	-44.5	-46.8	19.3	0.00e+00	0	39	0	598736896	61	4477
2026-01-21 09:39:52.30	96.78	61.31	-44.3	-46.6	19.6	0.00e+00	0	39	0	600834048	60	4606
2026-01-21 09:39:53.20	96.02	61.49	-44.3	-46.5	19.6	0.00e+00	0	39	0	602931200	60	4553
2026-01-21 09:39:54.47	94.93	61.74	-43.9	-46.0	20.0	0.00e+00	0	39	0	605028352	59	4557
2026-01-21 09:39:55.21	94.29	61.88	-44.0	-46.1	19.9	0.00e+00	0	39	0	607125504	59	4634
2026-01-21 09:39:56.49	93.16	62.13	-43.9	-46.0	19.9	0.00e+00	0	39	0	609222656	59	4591
2026-01-21 09:39:57.22	92.50	62.26	-43.7	-45.8	20.1	0.00e+00	0	39	0	610271232	59	4493
2026-01-21 09:39:58.50	91.34	62.49	-43.7	-45.8	20.2	0.00e+00	0	39	0	613416960	59	4451
2026-01-21 09:39:59.21	90.68	62.61	-43.7	-45.8	20.2	0.00e+00	0	39	0	614465536	59	4482
2026-01-21 09:40:00.49	89.48	62.82	-44.0	-46.2	19.8	0.00e+00	0	39	0	616562688	59	4677
2026-01-21 09:40:01.22	88.79	62.94	-44.0	-46.1	19.9	0.00e+00	0	39	0	617611264	59	4633
2026-01-21 09:40:02.84	87.23	63.18	-43.9	-46.0	20.0	0.00e+00	0	39	0	620756992	59	4577
2026-01-21 09:40:03.41	86.67	63.26	-43.9	-46.1	20.0	0.00e+00	0	39	0	621805568	59	4609
2026-01-21 09:40:05.12	84.98	63.50	-43.8	-46.0	20.0	0.00e+00	0	39	0	624951296	59	4562
2026-01-21 09:40:05.69	84.41	63.57	-43.7	-45.8	20.2	0.00e+00	0	39	0	625999872	59	4459
2026-01-21 09:40:07.39	82.68	63.78	-43.6	-45.7	20.2	0.00e+00	0	39	0	629145600	59	4440
2026-01-21 09:40:07.96	82.09	63.84	-43.7	-45.8	20.2	0.00e+00	0	39	0	630194176	59	4459
2026-01-21 09:40:09.66	80.33	64.02	-43.8	-45.9	20.0	0.00e+00	0	39	0	633339904	59	4532
2026-01-21 09:40:10.23	79.73	64.07	-43.8	-45.9	20.1	0.00e+00	0	39	0	635437056	59	4495
2026-01-21 09:40:11.94	77.92	64.22	-43.7	-45.8	20.2	0.00e+00	0	39	0	638582784	59	4460
2026-01-21 09:40:12.51	77.31	64.27	-43.6	-45.6	20.3	0.00e+00	0	39	0	639631360	59	4379
2026-01-21 09:40:14.21	75.49	64.38	-43.5	-45.5	20.4	0.00e+00	0	39	0	642777088	59	4336
2026-01-21 09:40:14.99	74.64	64.43	-43.1	-45.1	20.8	0.00e+00	0	39	0	643825664	58	4383
2026-01-21 09:40:16.26	73.26	64.49	-43.3	-45.3	20.7	0.00e+00	0	39	0	645922816	58	4473
2026-01-21 09:40:17.21	72.23	64.53	-43.6	-45.7	20.3	0.00e+00	0	39	0	648019968	58	4677
2026-01-21 09:40:18.21	71.13	64.56	-43.6	-45.7	20.3	0.00e+00	0	39	0	650117120	58	4665
2026-01-21 09:40:19.51	69.70	64.59	-43.1	-45.1	20.8	0.00e+00	0	39	0	652214272	58	4357
2026-01-21 09:40:20.22	68.92	64.61	-43.0	-45.0	20.9	0.00e+00	0	39	0	653262848	58	4317
2026-01-21 09:40:21.50	67.51	64.61	-43.2	-45.3	20.7	0.00e+00	0	39	0	656408576	58	4442
2026-01-21 09:40:22.23	66.71	64.61	-43.3	-45.3	20.6	0.00e+00	0	39	0	657457152	58	4481
2026-01-21 09:40:23.51	65.30	64.60	-43.5	-45.6	20.4	0.00e+00	0	39	0	659554304	58	4608
2026-01-21 09:40:24.23	64.51	64.59	-43.4	-45.4	20.5	0.00e+00	0	39	0	661651456	58	4540
2026-01-21 09:40:25.51	63.10	64.55	-43.9	-46.0	20.0	0.00e+00	0	39	0	663748608	58	4840
2026-01-21 09:40:26.24	62.31	64.52	-44.1	-46.3	19.8	0.00e+00	0	39	0	664797184	58	4995
2026-01-21 09:40:27.52	60.91	64.47	-44.3	-46.4	19.7	0.00e+00	0	39	0	666894336	59	4800
2026-01-21 09:40:28.24	60.13	64.43	-44.4	-46.6	19.5	0.00e+00	0	39	0	668991488	59	4920
2026-01-21 09:40:29.55	58.71	64.35	-44.5	-46.7	19.4	0.00e+00	0	39	0	671088640	59	4972
2026-01-21 09:40:30.27	57.94	64.30	-44.5	-46.7	19.4	0.00e+00	0	39	0	672137216	59	4967
2026-01-21 09:40:31.55	56.58	64.20	-44.6	-46.9	19.2	0.00e+00	0	39	0	675282944	59	5045
2026-01-21 09:40:32.26	55.82	64.14	-44.6	-46.9	19.3	0.00e+00	0	39	0	676331520	59	5049
2026-01-21 09:40:33.54	54.48	64.03	-44.2	-46.4	19.7	0.00e+00	0	39	0	678428672	59	4765
2026-01-21 09:40:34.26	53.73	63.95	-44.1	-46.2	19.8	0.00e+00	0	39	0	679477248	59	4695
2026-01-21 09:40:35.71	52.23	63.80	-44.1	-46.2	19.9	0.00e+00	0	39	0	682622976	59	4668
2026-01-21 09:40:36.42	51.50	63.72	-43.8	-45.9	20.1	0.00e+00	0	39	0	683671552	59	4520
2026-01-21 09:40:37.77	50.14	63.55	-43.8	-45.9	20.1	0.00e+00	0	39	0	686817280	59	4529
2026-01-21 09:40:38.48	49.43	63.46	-43.7	-45.8	20.2	0.00e+00	0	39	0	687865856	59	4466
2026-01-21 09:40:39.85	48.08	63.27	-43.4	-45.4	20.6	0.00e+00	0	39	0	689963008	58	4525
2026-01-21 09:40:40.56	47.38	63.17	-43.4	-45.4	20.6	0.00e+00	0	39	0	692060160	58	4524
2026-01-21 09:40:41.85	46.14	62.97	-43.2	-45.3	20.7	0.00e+00	0	39	0	694157312	58	4444
2026-01-21 09:40:42.57	45.45	62.86	-43.2	-45.2	20.8	0.00e+00	0	39	0	695205888	58	4400
2026-01-21 09:40:43.85	44.25	62.65	-43.6	-45.7	20.3	0.00e+00	0	39	0	698351616	58	4672
2026-01-21 09:40:44.57	43.59	62.53	-43.8	-45.9	20.2	0.00e+00	0	39	0	699400192	58	4790
2026-01-21 09:40:45.85	42.42	62.30	-43.9	-46.0	20.0	0.00e+00	0	39	0	701497344	58	4865
2026-01-21 09:40:46.58	41.76	62.17	-44.0	-46.2	19.9	0.00e+00	0	39	0	702545920	58	4944
2026-01-21 09:40:47.85	40.64	61.93	-44.2	-46.4	19.6	0.00e+00	0	39	0	705691648	59	4780
2026-01-21 09:40:48.58	40.00	61.79	-44.3	-46.5	19.6	0.00e+00	0	39	0	706740224	59	4830
2026-01-21 09:40:49.86	38.91	61.54	-45.3	-47.7	18.6	0.00e+00	0	39	0	708837376	61	4973
2026-01-21 09:40:50.57	38.31	61.40	-45.8	-48.4	18.0	0.00e+00	0	39	0	710934528	62	5053
2026-01-21 09:40:51.85	37.24	61.13	-45.7	-48.1	18.2	0.00e+00	0	39	0	713031680	62	4910
2026-01-21 09:40:52.57	36.65	60.98	-45.7	-48.1	18.2	0.00e+00	0	39	0	714080256	62	4895
2026-01-21 09:40:53.85	35.63	60.70	-46.2	-48.8	17.5	0.00e+00	0	39	0	716177408	63	5021
2026-01-21 09:40:54.67	34.98	60.52	-46.6	-49.3	16.9	0.00e+00	0	39	0	718274560	64	5041
2026-01-21 09:40:55.81	34.10	60.27	-47.3	-50.3	16.0	0.00e+00	0	39	0	720371712	65	5322
2026-01-21 09:40:56.67	33.44	60.07	-47.7	-50.8	15.5	0.00e+00	0	39	0	721420288	65	5635
2026-01-21 09:40:57.80	32.60	59.81	-47.9	-51.2	15.1	0.00e+00	0	39	0	724566016	66	5558
2026-01-21 09:40:58.66	31.97	59.61	-47.8	-51.0	15.3	0.00e+00	0	39	0	725614592	66	5459
2026-01-21 09:40:59.79	31.15	59.34	-47.8	-51.0	15.3	0.00e+00	0	39	0	727711744	66	5453
2026-01-21 09:41:00.65	30.54	59.13	-47.7	-50.9	15.4	0.00e+00	0	39	0	729808896	66	5392
2026-01-21 09:41:01.78	29.76	58.86	-47.7	-50.8	15.5	0.00e+00	0	39	0	731906048	66	5340
2026-01-21 09:41:02.64	29.17	58.65	-48.1	-51.5	14.9	0.00e+00	0	39	0	732954624	66	5732
2026-01-21 09:41:03.88	28.34	58.34	-48.5	-52.2	14.2	0.00e+00	0	39	0	735051776	67	5871
2026-01-21 09:41:04.73	27.78	58.12	-48.3	-51.9	14.5	7.00e-07	0	39	0	737148928	67	5661
2026-01-21 09:41:05.93	27.01	57.82	-47.6	-50.8	15.5	0.00e+00	0	39	0	739246080	67	5001
2026-01-21 09:41:06.79	26.47	57.60	-47.5	-50.6	15.7	0.00e+00	0	39	0	741343232	66	5216
2026-01-21 09:41:07.93	25.76	57.30	-47.3	-50.3	16.0	0.00e+00	0	39	0	743440384	66	5016
2026-01-21 09:41:08.78	25.25	57.08	-47.2	-50.3	16.1	0.00e+00	0	39	0	744488960	66	4994
2026-01-21 09:41:09.92	24.57	56.78	-47.4	-50.4	15.8	0.00e+00	0	39	0	746586112	66	5098
2026-01-21 09:41:10.77	24.07	56.56	-47.1	-50.1	16.3	0.00e+00	0	40	0	748683264	66	4889
2026-01-21 09:41:11.90	23.42	56.25	-46.4	-49.2	17.1	0.00e+00	0	39	0	750780416	64	4929
2026-01-21 09:41:12.79	22.92	56.02	-46.1	-48.7	17.6	0.00e+00	0	39	0	751828992	64	4667
2026-01-21 09:41:14.10	22.20	55.66	-45.8	-48.3	18.1	0.00e+00	0	39	0	754974720	63	4720
2026-01-21 09:41:14.81	21.82	55.47	-45.4	-47.8	18.4	0.00e+00	0	40	0	756023296	62	4733
2026-01-21 09:41:16.09	21.14	55.13	-45.4	-47.8	18.5	0.00e+00	0	39	0	758120448	62	4740
2026-01-21 09:41:16.83	20.76	54.92	-45.3	-47.8	18.5	0.00e+00	0	39	0	760217600	62	4715
2026-01-21 09:41:18.11	20.11	54.57	-45.3	-47.7	18.6	0.00e+00	0	39	0	762314752	62	4684
2026-01-21 09:41:18.82	19.75	54.38	-45.5	-48.0	18.3	0.00e+00	0	39	0	763363328	62	4864
2026-01-21 09:41:20.10	19.13	54.03	-45.8	-48.4	18.0	0.00e+00	0	39	0	765460480	62	5052
2026-01-21 09:41:20.81	18.79	53.83	-45.9	-48.5	17.8	0.00e+00	0	39	0	767557632	62	5141
2026-01-21 09:41:22.09	18.18	53.48	-45.9	-48.4	17.9	0.00e+00	0	39	0	769654784	62	5094
2026-01-21 09:41:22.96	17.78	53.24	-46.0	-48.6	17.7	0.00e+00	0	39	0	771751936	62	5174
2026-01-21 09:41:24.09	17.27	52.93	-46.3	-49.0	17.4	0.00e+00	0	39	0	773849088	63	5134
2026-01-21 09:41:24.95	16.89	52.69	-46.4	-49.1	17.3	0.00e+00	0	39	0	774897664	63	5171
2026-01-21 09:41:26.08	16.39	52.38	-46.7	-49.4	16.9	0.00e+00	0	39	0	776994816	63	5393
2026-01-21 09:41:26.94	16.03	52.14	-46.6	-49.4	16.9	0.00e+00	0	39	0	779091968	64	5096
2026-01-21 09:41:28.07	15.55	51.83	-46.6	-49.5	16.9	0.00e+00	0	39	0	781189120	64	5101
2026-01-21 09:41:28.93	15.20	51.59	-46.5	-49.3	17.0	0.00e+00	0	39	0	782237696	64	5003
2026-01-21 09:41:30.07	14.73	51.27	-46.5	-49.3	17.0	0.00e+00	0	39	0	784334848	64	5015
2026-01-21 09:41:30.92	14.40	51.04	-46.6	-49.4	16.9	0.00e+00	0	39	0	786432000	64	5091
2026-01-21 09:41:32.10	13.94	50.71	-46.6	-49.4	16.9	0.00e+00	0	39	0	788529152	64	5086
2026-01-21 09:41:32.95	13.61	50.47	-46.9	-49.8	16.5	0.00e+00	0	39	0	789577728	64	5334
2026-01-21 09:41:34.09	13.18	50.16	-47.0	-50.0	16.3	0.00e+00	0	39	0	791674880	64	5418
2026-01-21 09:41:34.94	12.87	49.93	-47.2	-50.3	16.0	0.00e+00	0	39	0	793772032	65	5311
2026-01-21 09:41:36.08	12.46	49.61	-47.4	-50.6	15.7	0.00e+00	0	39	0	795869184	65	5511
2026-01-21 09:41:36.93	12.16	49.38	-47.3	-50.4	15.9	0.00e+00	0	39	0	797966336	65	5402
2026-01-21 09:41:38.07	11.76	49.07	-47.2	-50.2	16.0	0.00e+00	0	39	0	800063488	65	5268
2026-01-21 09:41:38.92	11.47	48.83	-46.9	-49.8	16.5	0.00e+00	0	39	0	801112064	65	5035
2026-01-21 09:41:40.06	11.08	48.52	-46.7	-49.4	16.9	0.00e+00	0	39	0	803209216	65	4796
2026-01-21 09:41:40.91	10.80	48.29	-46.6	-49.3	16.9	0.00e+00	0	39	0	805306368	65	4737
2026-01-21 09:41:42.05	10.43	47.98	-46.7	-49.5	16.8	0.00e+00	0	39	0	807403520	65	4855
2026-01-21 09:41:42.90	10.16	47.75	-47.0	-49.9	16.3	0.00e+00	0	39	0	808452096	65	5098
2026-01-21 09:41:44.03	9.80	47.44	-47.2	-50.2	16.1	0.00e+00	0	39	0	810549248	65	5235
2026-01-21 09:41:44.88	9.54	47.22	-46.8	-49.6	16.6	0.00e+00	0	39	0	812646400	65	4925
2026-01-21 09:41:46.02	9.20	46.91	-46.8	-49.6	16.7	0.00e+00	0	39	0	814743552	65	4921
2026-01-21 09:41:46.87	8.94	46.68	-46.7	-49.6	16.8	0.00e+00	0	39	0	815792128	65	4881
2026-01-21 09:41:48.10	8.58	46.35	-46.8	-49.6	16.7	0.00e+00	0	39	0	817889280	65	4925
2026-01-21 09:41:48.95	8.34	46.13	-46.7	-49.5	16.8	0.00e+00	0	39	0	819986432	65	4863
2026-01-21 09:41:50.09	8.01	45.82	-46.6	-49.4	16.8	0.00e+00	0	39	0	822083584	65	4797
2026-01-21 09:41:50.95	7.78	45.60	-46.9	-49.7	16.6	0.00e+00	0	39	0	824180736	65	4976
2026-01-21 09:41:52.08	7.47	45.30	-47.3	-50.3	16.0	0.00e+00	0	39	0	826277888	65	5328
2026-01-21 09:41:52.93	7.24	45.08	-47.4	-50.5	15.8	0.00e+00	0	39	0	827326464	65	5449
2026-01-21 09:41:54.07	6.94	44.78	-47.5	-50.7	15.5	0.00e+00	0	39	0	829423616	65	5583
2026-01-21 09:41:54.93	6.71	44.56	-47.6	-50.9	15.4	0.00e+00	0	39	0	831520768	65	5672
2026-01-21 09:41:56.06	6.42	44.26	-47.6	-50.9	15.4	0.00e+00	0	39	0	833617920	65	5662
2026-01-21 09:41:56.92	6.21	44.04	-47.6	-50.9	15.4	0.00e+00	0	39	0	834666496	65	5667
2026-01-21 09:41:58.06	5.93	43.75	-47.6	-50.8	15.5	0.00e+00	0	39	0	836763648	65	5624
2026-01-21 09:41:58.91	5.72	43.53	-47.6	-50.8	15.5	0.00e+00	0	39	0	838860800	65	5656
2026-01-21 09:42:00.05	5.44	43.24	-47.6	-51.0	15.4	0.00e+00	0	39	0	840957952	66	5405
2026-01-21 09:42:00.90	5.24	43.03	-47.7	-51.1	15.2	0.00e+00	0	39	0	842006528	66	5467
2026-01-21 09:42:02.03	4.98	42.74	-47.7	-51.1	15.2	0.00e+00	0	39	0	844103680	66	5514
2026-01-21 09:42:02.89	4.79	42.52	-47.9	-51.4	14.9	0.00e+00	0	39	0	846200832	66	5670
2026-01-21 09:42:04.03	4.53	42.24	-48.1	-51.7	14.6	0.00e+00	0	39	0	848297984	66	5899
2026-01-21 09:42:04.88	4.34	42.03	-48.4	-52.2	14.1	7.00e-07	0	39	0	849346560	67	5913
2026-01-21 09:42:06.11	4.07	41.72	-48.6	-52.4	13.9	3.00e-06	0	39	0	852492288	67	6005
2026-01-21 09:42:06.96	3.89	41.51	-49.0	-53.0	13.5	4.50e-06	0	39	0	853540864	68	6067
2026-01-21 09:42:08.10	3.65	41.24	-49.0	-53.0	13.5	9.90e-06	0	39	0	855638016	68	6124
2026-01-21 09:42:08.95	3.47	41.03	-49.1	-53.2	13.3	1.37e-05	0	39	0	857735168	68	6226
2026-01-21 09:42:10.09	3.24	40.75	-49.2	-53.4	13.1	1.44e-05	0	39	0	859832320	69	6028
2026-01-21 09:42:10.94	3.07	40.55	-49.3	-53.7	12.8	3.73e-05	0	39	0	860880896	69	6272
2026-01-21 09:42:12.08	2.84	40.27	-49.2	-53.4	13.1	7.47e-05	0	39	0	862978048	69	6010
2026-01-21 09:42:12.99	2.66	40.05	-49.1	-53.2	13.2	1.98e-05	0	39	0	865075200	69	5912
2026-01-21 09:42:13.99	2.47	39.82	-49.2	-53.3	13.2	1.98e-05	0	39	0	867172352	69	5952
2026-01-21 09:42:14.98	2.28	39.58	-49.1	-53.2	13.2	1.14e-05	0	39	0	869269504	69	5889
2026-01-21 09:42:15.97	2.10	39.35	-49.1	-53.1	13.4	1.75e-05	0	39	0	870318080	69	5805
2026-01-21 09:42:16.97	1.91	39.12	-48.9	-52.7	13.8	7.60e-06	0	39	0	872415232	69	5541
2026-01-21 09:42:17.96	1.73	38.89	-48.6	-52.2	14.3	2.20e-06	0	39	0	874512384	69	5246
2026-01-21 09:42:18.96	1.55	38.65	-48.3	-51.7	14.7	1.50e-06	0	39	0	876609536	68	5270
2026-01-21 09:42:19.95	1.38	38.43	-48.0	-51.2	15.2	0.00e+00	0	39	0	877658112	68	4981
2026-01-21 09:42:20.95	1.20	38.20	-47.6	-50.8	15.5	0.00e+00	0	39	0	879755264	67	5019
2026-01-21 09:42:21.94	1.03	37.97	-47.7	-51.0	15.3	0.00e+00	0	39	0	881852416	67	5110
2026-01-21 09:42:22.93	0.87	37.75	-47.7	-51.0	15.3	0.00e+00	0	39	0	883949568	67	5149
2026-01-21 09:42:23.93	0.70	37.52	-47.6	-51.0	15.3	0.00e+00	0	39	0	886046720	67	5155
2026-01-21 09:42:24.94	0.53	37.29	-47.7	-51.2	15.1	0.00e+00	0	39	0	887095296	67	5242
2026-01-21 09:42:25.96	0.37	37.07	-47.7	-51.3	15.0	1.50e-06	0	39	0	889192448	67	5304
2026-01-21 09:42:26.96	0.21	36.85	-47.5	-51.0	15.3	0.00e+00	0	39	0	891289600	67	5122
2026-01-21 09:42:27.95	0.05	36.63	-47.6	-51.0	15.3	7.00e-07	0	39	0	893386752	67	5154
2026-01-21 09:42:28.95	359.89	36.41	-47.7	-51.2	15.1	0.00e+00	0	39	0	895483904	67	5249
2026-01-21 09:42:29.94	359.74	36.19	-47.7	-51.2	15.1	0.00e+00	0	39	0	896532480	67	5223
2026-01-21 09:42:30.94	359.59	35.98	-47.7	-51.1	15.2	0.00e+00	0	39	0	898629632	67	5193
2026-01-21 09:42:31.93	359.44	35.76	-47.6	-50.9	15.4	0.00e+00	0	39	0	900726784	67	5076
2026-01-21 09:42:32.93	359.30	35.55	-47.6	-50.9	15.4	0.00e+00	0	39	0	902823936	67	5050
2026-01-21 09:42:33.92	359.15	35.34	-47.6	-50.8	15.5	0.00e+00	0	39	0	903872512	67	5040
2026-01-21 09:42:34.92	359.01	35.13	-47.5	-50.8	15.6	0.00e+00	0	39	0	905969664	67	5000
2026-01-21 09:42:35.91	358.87	34.92	-47.5	-50.8	15.5	0.00e+00	0	39	0	908066816	67	5019
2026-01-21 09:42:36.91	358.73	34.71	-47.7	-51.1	15.2	0.00e+00	0	39	0	910163968	67	5178
2026-01-21 09:42:37.90	358.59	34.50	-47.8	-51.1	15.2	0.00e+00	0	39	0	912261120	67	5195
2026-01-21 09:42:38.90	358.45	34.29	-47.8	-51.1	15.2	0.00e+00	0	39	0	913309696	67	5160
2026-01-21 09:42:39.89	358.32	34.09	-47.7	-51.0	15.3	0.00e+00	0	39	0	915406848	67	5149
2026-01-21 09:42:40.94	358.18	33.88	-47.7	-51.1	15.3	0.00e+00	0	39	0	917504000	67	5174
2026-01-21 09:42:41.91	358.05	33.68	-47.7	-51.1	15.2	0.00e+00	0	39	0	919601152	67	5195
2026-01-21 09:42:42.99	357.91	33.46	-47.7	-51.2	15.1	0.00e+00	0	39	0	921698304	67	5219
2026-01-21 09:42:43.84	357.81	33.29	-47.8	-51.3	15.0	0.00e+00	0	39	0	922746880	67	5308
2026-01-21 09:42:44.98	357.66	33.06	-48.0	-51.7	14.6	0.00e+00	0	39	0	924844032	67	5534
2026-01-21 09:42:45.83	357.56	32.89	-48.1	-51.9	14.4	0.00e+00	0	39	0	926941184	67	5670
2026-01-21 09:42:46.97	357.42	32.67	-48.3	-52.0	14.3	7.00e-07	0	39	0	929038336	67	5788
2026-01-21 09:42:47.82	357.31	32.50	-48.4	-52.2	14.1	7.00e-07	0	39	0	930086912	67	5896
2026-01-21 09:42:48.96	357.18	32.28	-48.6	-52.4	13.9	2.20e-06	0	39	0	932184064	67	6019
2026-01-21 09:42:49.81	357.07	32.11	-48.6	-52.4	13.9	2.20e-06	0	39	0	934281216	67	6048
2026-01-21 09:42:50.94	356.94	31.89	-48.5	-52.3	13.9	7.60e-06	0	39	0	936378368	67	5990
2026-01-21 09:42:51.79	356.84	31.73	-48.6	-52.6	13.7	4.50e-06	0	39	0	937426944	67	6137
2026-01-21 09:42:52.93	356.71	31.51	-48.8	-52.7	13.7	6.80e-06	0	39	0	939524096	68	5908
2026-01-21 09:42:53.78	356.62	31.35	-49.0	-53.1	13.4	1.14e-05	0	39	0	941621248	68	6139
2026-01-21 09:42:54.92	356.49	31.14	-49.0	-53.2	13.3	1.37e-05	0	39	0	943718400	68	6225
2026-01-21 09:42:55.77	356.40	30.98	-49.2	-53.4	13.0	1.98e-05	0	39	0	944766976	69	6031
2026-01-21 09:42:57.10	356.25	30.73	-49.2	-53.3	13.1	6.02e-05	0	39	0	947912704	69	5972
2026-01-21 09:42:57.81	356.18	30.60	-49.2	-53.4	13.0	2.36e-05	0	39	0	948961280	69	6056
2026-01-21 09:42:59.09	356.04	30.36	-49.1	-53.2	13.2	2.51e-05	0	39	0	951058432	69	5891
2026-01-21 09:42:59.80	355.96	30.23	-49.0	-53.1	13.3	1.37e-05	0	39	0	953155584	69	5821
2026-01-21 09:43:01.08	355.83	30.00	-48.9	-53.0	13.5	9.90e-06	0	39	0	955252736	69	5732
2026-01-21 09:43:01.84	355.75	29.86	-48.8	-52.9	13.5	9.90e-06	0	39	0	956301312	69	5688
2026-01-21 09:43:03.11	355.63	29.63	-48.8	-52.9	13.6	1.06e-05	0	39	0	959447040	69	5661
2026-01-21 09:43:03.84	355.55	29.50	-48.8	-52.9	13.5	6.80e-06	0	39	0	960495616	69	5698
2026-01-21 09:43:05.12	355.42	29.27	-48.8	-52.9	13.5	1.29e-05	0	39	0	962592768	69	5713
2026-01-21 09:43:05.83	355.36	29.15	-48.8	-52.9	13.6	7.60e-06	0	39	0	964689920	69	5668
2026-01-21 09:43:07.11	355.23	28.92	-48.7	-52.6	13.9	6.10e-06	0	39	0	966787072	69	5476
2026-01-21 09:43:07.84	355.16	28.79	-48.8	-52.5	13.9	4.50e-06	0	39	0	967835648	69	5463
2026-01-21 09:43:09.17	355.04	28.56	-48.7	-52.4	14.1	1.50e-06	0	39	0	969932800	69	5375
2026-01-21 09:43:09.88	354.97	28.44	-48.5	-52.2	14.3	7.00e-07	0	39	0	972029952	69	5238
2026-01-21 09:43:11.22	354.84	28.21	-48.6	-52.3	14.2	2.20e-06	0	39	0	974127104	69	5303
2026-01-21 09:43:11.93	354.78	28.09	-48.5	-52.2	14.3	1.50e-06	0	39	0	975175680	69	5250
2026-01-21 09:43:13.27	354.66	27.86	-48.5	-52.2	14.2	2.20e-06	0	39	0	978321408	68	5580
2026-01-21 09:43:13.98	354.60	27.74	-48.6	-52.4	14.1	7.00e-07	0	39	0	979369984	68	5658
2026-01-21 09:43:15.26	354.48	27.53	-48.6	-52.4	14.0	0.00e+00	0	39	0	981467136	68	5691
2026-01-21 09:43:15.97	354.42	27.41	-48.7	-52.5	13.9	2.20e-06	0	39	0	983564288	68	5782
2026-01-21 09:43:17.25	354.31	27.19	-48.8	-52.6	13.8	4.50e-06	0	39	0	985661440	68	5838
2026-01-21 09:43:17.97	354.25	27.07	-48.8	-52.7	13.8	2.20e-06	0	40	0	986710016	68	5873
2026-01-21 09:43:19.25	354.14	26.86	-48.6	-52.5	13.9	3.80e-06	0	39	0	988807168	68	5750
2026-01-21 09:43:19.98	354.08	26.75	-48.6	-52.5	14.0	7.60e-06	0	39	0	990904320	68	5729
2026-01-21 09:43:21.25	353.97	26.54	-48.5	-52.4	14.0	1.50e-06	0	39	0	993001472	68	5677
2026-01-21 09:43:21.98	353.91	26.42	-48.5	-52.4	14.0	1.50e-06	0	39	0	994050048	68	5705
2026-01-21 09:43:23.26	353.81	26.22	-48.3	-52.0	14.4	2.20e-06	0	39	0	997195776	68	5445
2026-01-21 09:43:23.97	353.75	26.10	-48.1	-51.8	14.7	0.00e+00	0	39	0	998244352	68	5287
2026-01-21 09:43:25.25	353.65	25.90	-48.1	-51.7	14.7	0.00e+00	0	39	0	1000341504	68	5261
2026-01-21 09:43:25.98	353.59	25.78	-48.2	-51.8	14.7	0.00e+00	0	39	0	1001390080	68	5292
2026-01-21 09:43:27.26	353.49	25.58	-48.0	-51.5	14.9	0.00e+00	0	39	0	1004535808	68	5140
2026-01-21 09:43:28.11	353.43	25.45	-47.8	-51.2	15.0	0.00e+00	0	39	0	1005584384	67	5227
2026-01-21 09:43:29.24	353.34	25.27	-47.4	-50.6	15.6	0.00e+00	0	39	0	1007681536	66	5197
2026-01-21 09:43:30.10	353.28	25.14	-47.4	-50.5	15.7	0.00e+00	0	39	0	1009778688	66	5141
2026-01-21 09:43:31.59	353.17	24.91	-47.1	-50.1	16.2	0.00e+00	0	39	0	1012924416	66	4878
2026-01-21 09:43:32.31	353.11	24.80	-47.1	-50.1	16.1	0.00e+00	0	39	0	1013972992	66	4906
2026-01-21 09:43:33.59	353.02	24.61	-46.9	-50.0	16.3	0.00e+00	0	39	0	1016070144	65	5109
2026-01-21 09:43:34.30	352.97	24.50	-46.9	-49.9	16.3	0.00e+00	0	39	0	1017118720	65	5092
2026-01-21 09:43:35.57	352.88	24.31	-46.8	-49.8	16.3	0.00e+00	0	39	0	1020264448	65	5039
2026-01-21 09:43:36.29	352.83	24.20	-46.8	-49.9	16.3	0.00e+00	0	39	0	1021313024	65	5090
2026-01-21 09:43:37.57	352.74	24.01	-46.7	-49.9	16.3	0.00e+00	0	39	0	1023410176	65	5049
2026-01-21 09:43:38.28	352.69	23.91	-46.7	-49.8	16.4	0.00e+00	0	39	0	1025507328	65	5041
2026-01-21 09:43:39.56	352.60	23.72	-46.7	-49.8	16.4	0.00e+00	0	39	0	1027604480	65	5039
2026-01-21 09:43:40.28	352.55	23.62	-46.6	-49.8	16.4	0.00e+00	0	39	0	1028653056	65	4986
2026-01-21 09:43:41.56	352.46	23.43	-46.6	-49.7	16.4	0.00e+00	0	39	0	1030750208	65	4979
2026-01-21 09:43:42.28	352.42	23.32	-46.7	-49.8	16.4	0.00e+00	0	39	0	1032847360	65	4996
2026-01-21 09:43:43.56	352.33	23.14	-46.7	-49.7	16.5	0.00e+00	0	39	0	1034944512	65	4970
2026-01-21 09:43:44.28	352.28	23.04	-46.6	-49.5	16.6	0.00e+00	0	39	0	1035993088	65	4864
2026-01-21 09:43:45.63	352.20	22.85	-46.6	-49.6	16.6	0.00e+00	0	39	0	1039138816	65	4875
2026-01-21 09:43:46.34	352.15	22.75	-46.7	-49.7	16.5	0.00e+00	0	39	0	1040187392	65	4933
2026-01-21 09:43:47.62	352.07	22.57	-46.6	-49.5	16.7	0.00e+00	0	39	0	1042284544	65	4844
2026-01-21 09:43:48.34	352.02	22.46	-46.6	-49.6	16.6	0.00e+00	0	39	0	1044381696	65	4910
2026-01-21 09:43:49.75	351.94	22.27	-46.6	-49.6	16.6	0.00e+00	0	39	0	1046478848	65	4912
2026-01-21 09:43:50.46	351.89	22.17	-46.7	-49.8	16.5	0.00e+00	0	39	0	1047527424	65	4986
2026-01-21 09:43:51.74	351.81	21.99	-46.7	-49.7	16.4	0.00e+00	0	39	0	1050673152	65	4964
2026-01-21 09:43:52.46	351.77	21.89	-46.8	-49.8	16.4	0.00e+00	0	40	0	1051721728	65	5040
2026-01-21 09:43:53.74	351.69	21.72	-46.5	-49.5	16.7	0.00e+00	0	39	0	1053818880	65	4827
2026-01-21 09:43:54.45	351.65	21.62	-46.5	-49.5	16.7	0.00e+00	0	39	0	1054867456	65	4822
2026-01-21 09:43:55.73	351.58	21.45	-46.5	-49.5	16.7	0.00e+00	0	39	0	1058013184	65	4817
2026-01-21 09:43:56.47	351.53	21.35	-46.4	-49.2	16.9	0.00e+00	0	40	0	1059061760	64	4981
2026-01-21 09:43:57.75	351.46	21.18	-46.5	-49.3	16.8	0.00e+00	0	39	0	1061158912	64	5030
2026-01-21 09:43:58.47	351.42	21.08	-46.4	-49.2	16.9	0.00e+00	0	39	0	1063256064	64	4977
2026-01-21 09:43:59.75	351.34	20.92	-46.4	-49.2	17.0	0.00e+00	0	39	0	1065353216	64	4944
2026-01-21 09:44:00.48	351.30	20.82	-46.4	-49.3	16.9	0.00e+00	0	39	0	1066401792	64	4992
2026-01-21 09:44:01.75	351.23	20.65	-46.3	-49.1	17.0	0.00e+00	0	40	0	1068498944	64	4887
2026-01-21 09:44:02.51	351.19	20.55	-46.2	-49.1	17.1	0.00e+00	0	39	0	1070596096	64	4874
2026-01-21 09:44:03.79	351.12	20.39	-46.2	-49.1	17.0	0.00e+00	0	39	0	1072693248	64	4881
2026-01-21 09:44:04.50	351.08	20.30	-46.3	-49.1	17.0	0.00e+00	0	39	0	1073741824	64	4916
2026-01-21 09:44:05.78	351.01	20.13	-46.3	-49.1	17.0	0.00e+00	0	39	0	1076887552	64	4924
2026-01-21 09:44:06.60	350.97	20.03	-46.4	-49.3	16.9	0.00e+00	0	39	0	1077936128	64	4986
2026-01-21 09:44:08.04	350.89	19.84	-46.4	-49.4	16.8	0.00e+00	0	39	0	1081081856	64	5048
2026-01-21 09:44:08.75	350.86	19.75	-46.4	-49.3	16.9	0.00e+00	0	39	0	1082130432	64	4997
2026-01-21 09:44:10.03	350.79	19.59	-46.4	-49.4	16.7	0.00e+00	0	39	0	1084227584	64	5061
2026-01-21 09:44:10.76	350.75	19.50	-46.4	-49.4	16.7	0.00e+00	0	39	0	1086324736	64	5073
2026-01-21 09:44:12.03	350.69	19.34	-46.5	-49.5	16.6	0.00e+00	0	39	0	1088421888	64	5142
2026-01-21 09:44:12.76	350.65	19.25	-46.4	-49.4	16.7	0.00e+00	0	39	0	1089470464	64	5083
2026-01-21 09:44:14.04	350.59	19.10	-46.5	-49.5	16.6	0.00e+00	0	39	0	1091567616	64	5147
2026-01-21 09:44:14.76	350.55	19.01	-46.5	-49.6	16.5	0.00e+00	0	39	0	1093664768	64	5193
2026-01-21 09:44:16.04	350.49	18.85	-46.5	-49.7	16.5	0.00e+00	0	39	0	1095761920	64	5227
2026-01-21 09:44:16.78	350.45	18.76	-46.5	-49.6	16.5	0.00e+00	0	39	0	1096810496	64	5192
2026-01-21 09:44:18.06	350.39	18.61	-46.6	-49.8	16.4	0.00e+00	0	39	0	1099956224	64	5300
2026-01-21 09:44:18.78	350.36	18.52	-46.5	-49.7	16.4	0.00e+00	0	39	0	1101004800	64	5271
2026-01-21 09:44:20.06	350.30	18.37	-46.5	-49.8	16.3	0.00e+00	0	39	0	1103101952	64	5311
2026-01-21 09:44:20.77	350.26	18.28	-46.5	-49.8	16.3	0.00e+00	0	39	0	1104150528	64	5297
2026-01-21 09:44:22.05	350.20	18.13	-46.5	-49.8	16.4	0.00e+00	0	39	0	1107296256	64	5285
2026-01-21 09:44:22.76	350.17	18.05	-46.4	-49.7	16.4	0.00e+00	0	39	0	1108344832	64	5260
2026-01-21 09:44:24.04	350.11	17.89	-46.5	-49.7	16.4	0.00e+00	0	40	0	1110441984	64	5257
2026-01-21 09:44:24.77	350.08	17.81	-46.5	-49.8	16.3	0.00e+00	0	39	0	1112539136	64	5297
2026-01-21 09:44:26.25	350.01	17.64	-46.5	-49.7	16.4	0.00e+00	0	39	0	1114636288	64	5220
2026-01-21 09:44:26.96	349.98	17.55	-46.6	-49.8	16.3	0.00e+00	0	39	0	1116733440	64	5311
2026-01-21 09:44:28.24	349.92	17.41	-46.7	-49.9	16.2	0.00e+00	0	39	0	1118830592	64	5371
2026-01-21 09:44:28.96	349.89	17.32	-46.8	-49.9	16.2	0.00e+00	0	39	0	1119879168	64	5394
2026-01-21 09:44:30.24	349.84	17.18	-46.7	-49.8	16.3	0.00e+00	0	39	0	1121976320	64	5307
2026-01-21 09:44:30.97	349.80	17.09	-46.6	-49.6	16.5	0.00e+00	0	39	0	1124073472	64	5210
2026-01-21 09:44:32.25	349.75	16.95	-46.7	-49.8	16.3	0.00e+00	0	40	0	1126170624	64	5293
2026-01-21 09:44:32.99	349.72	16.87	-46.6	-49.7	16.4	0.00e+00	0	39	0	1127219200	64	5232
2026-01-21 09:44:34.27	349.66	16.72	-46.7	-49.8	16.3	0.00e+00	0	39	0	1130364928	64	5310
2026-01-21 09:44:34.99	349.63	16.64	-46.7	-49.8	16.3	0.00e+00	0	39	0	1131413504	64	5328
2026-01-21 09:44:36.27	349.58	16.50	-46.6	-49.7	16.4	0.00e+00	0	39	0	1133510656	64	5256
2026-01-21 09:44:36.98	349.55	16.42	-46.6	-49.7	16.4	0.00e+00	0	39	0	1134559232	64	5271
2026-01-21 09:44:38.26	349.50	16.28	-46.5	-49.7	16.4	0.00e+00	0	39	0	1137704960	64	5273
2026-01-21 09:44:38.98	349.47	16.20	-46.5	-49.8	16.3	0.00e+00	0	39	0	1138753536	64	5301
2026-01-21 09:44:40.26	349.42	16.06	-46.5	-49.7	16.4	0.00e+00	0	39	0	1140850688	64	5250
2026-01-21 09:44:41.08	349.39	15.97	-46.5	-49.8	16.3	0.00e+00	0	39	0	1142947840	64	5281
2026-01-21 09:44:42.50	349.33	15.82	-46.6	-49.8	16.2	0.00e+00	0	39	0	1145044992	64	5340
2026-01-21 09:44:43.21	349.30	15.74	-46.5	-49.8	16.3	0.00e+00	0	39	0	1147142144	64	5291
2026-01-21 09:44:44.49	349.25	15.60	-46.6	-49.9	16.2	0.00e+00	0	39	0	1149239296	64	5342
2026-01-21 09:44:45.20	349.23	15.53	-46.7	-49.9	16.1	0.00e+00	0	39	0	1150287872	64	5394
2026-01-21 09:44:46.75	349.17	15.36	-46.7	-49.9	16.1	0.00e+00	0	39	0	1153433600	64	5386
2026-01-21 09:44:47.46	349.14	15.29	-46.7	-50.0	16.1	0.00e+00	0	39	0	1154482176	64	5420
2026-01-21 09:44:48.74	349.09	15.15	-46.6	-49.9	16.2	0.00e+00	0	39	0	1157627904	64	5353
2026-01-21 09:44:49.47	349.06	15.07	-46.7	-49.9	16.1	0.00e+00	0	39	0	1158676480	64	5389
2026-01-21 09:44:50.74	349.02	14.94	-46.8	-50.0	16.0	0.00e+00	0	39	0	1160773632	64	5461
2026-01-21 09:44:51.45	348.99	14.87	-46.8	-50.1	16.0	0.00e+00	0	39	0	1161822208	64	5489
2026-01-21 09:44:52.73	348.94	14.73	-46.8	-50.1	15.9	0.00e+00	0	39	0	1164967936	64	5526
2026-01-21 09:44:53.46	348.92	14.66	-46.8	-50.2	15.8	0.00e+00	0	39	0	1166016512	64	5563
2026-01-21 09:44:54.74	348.87	14.53	-46.8	-50.4	15.7	0.00e+00	0	39	0	1168113664	64	5661
2026-01-21 09:44:55.50	348.85	14.45	-46.8	-50.3	15.7	0.00e+00	0	39	0	1170210816	64	5634
2026-01-21 09:44:56.78	348.80	14.32	-46.8	-50.4	15.6	0.00e+00	0	39	0	1172307968	64	5704
2026-01-21 09:44:57.49	348.78	14.25	-46.8	-50.5	15.6	0.00e+00	0	39	0	1173356544	64	5731
2026-01-21 09:44:58.77	348.73	14.12	-46.9	-50.5	15.5	0.00e+00	0	39	0	1175453696	64	5780
2026-01-21 09:44:59.62	348.70	14.03	-47.0	-50.6	15.4	0.00e+00	0	39	0	1177550848	64	5853
2026-01-21 09:45:00.76	348.66	13.92	-47.0	-50.6	15.4	0.00e+00	0	39	0	1179648000	64	5839
2026-01-21 09:45:01.61	348.63	13.83	-47.0	-50.7	15.3	0.00e+00	0	39	0	1180696576	64	5897
2026-01-21 09:45:02.75	348.60	13.72	-47.1	-50.7	15.3	0.00e+00	0	39	0	1183842304	64	5898
2026-01-21 09:45:03.60	348.57	13.63	-47.1	-50.7	15.3	0.00e+00	0	39	0	1184890880	64	5899
2026-01-21 09:45:04.74	348.53	13.52	-47.1	-50.6	15.4	0.00e+00	0	39	0	1186988032	64	5854
2026-01-21 09:45:05.59	348.50	13.44	-47.1	-50.6	15.4	0.00e+00	0	39	0	1189085184	64	5854
2026-01-21 09:45:06.73	348.46	13.33	-47.2	-50.7	15.3	0.00e+00	0	39	0	1191182336	65	5555
2026-01-21 09:45:07.59	348.44	13.24	-47.3	-50.8	15.2	0.00e+00	0	39	0	1192230912	65	5621
2026-01-21 09:45:08.72	348.40	13.13	-47.3	-50.7	15.3	0.00e+00	0	39	0	1194328064	65	5563
2026-01-21 09:45:09.57	348.37	13.05	-47.3	-50.7	15.3	0.00e+00	0	39	0	1196425216	65	5562
2026-01-21 09:45:10.71	348.34	12.94	-47.4	-50.7	15.3	0.00e+00	0	39	0	1198522368	65	5592
2026-01-21 09:45:11.56	348.31	12.86	-47.2	-50.6	15.4	0.00e+00	0	39	0	1199570944	65	5499
2026-01-21 09:45:12.70	348.27	12.75	-47.1	-50.6	15.4	0.00e+00	0	39	0	1201668096	65	5519
2026-01-21 09:45:13.55	348.25	12.67	-46.9	-50.7	15.3	0.00e+00	0	39	0	1203765248	65	5529
2026-01-21 09:45:14.69	348.21	12.56	-46.8	-50.6	15.4	0.00e+00	0	39	0	1205862400	65	5499
2026-01-21 09:45:15.65	348.18	12.47	-46.7	-50.6	15.4	0.00e+00	0	39	0	1207959552	65	5500
2026-01-21 09:45:16.65	348.15	12.37	-46.6	-50.6	15.4	0.00e+00	0	39	0	1209008128	65	5474
2026-01-21 09:45:17.87	348.12	12.26	-46.5	-50.6	15.4	0.00e+00	0	39	0	1212153856	65	5514
2026-01-21 09:45:18.72	348.09	12.18	-46.4	-50.5	15.4	0.00e+00	0	39	0	1213202432	64	5768
2026-01-21 09:45:20.11	348.05	12.05	-46.4	-50.6	15.3	0.00e+00	0	39	0	1216348160	64	5827
2026-01-21 09:45:21.23	348.02	11.95	-46.4	-50.6	15.3	0.00e+00	0	39	0	1218445312	64	5840
2026-01-21 09:45:22.08	347.99	11.87	-46.4	-50.7	15.3	0.00e+00	0	39	0	1219493888	64	5886
2026-01-21 09:45:23.22	347.96	11.76	-46.3	-50.6	15.4	0.00e+00	0	39	0	1221591040	64	5801
2026-01-21 09:45:24.07	347.93	11.69	-46.3	-50.5	15.4	0.00e+00	0	39	0	1223688192	64	5781
2026-01-21 09:45:25.24	347.90	11.58	-46.4	-50.8	15.1	0.00e+00	0	39	0	1225785344	64	5968
2026-01-21 09:45:26.09	347.88	11.50	-46.3	-50.6	15.3	7.00e-07	0	39	0	1226833920	64	5844
2026-01-21 09:45:27.29	347.84	11.39	-46.4	-50.8	15.1	0.00e+00	0	39	0	1228931072	64	5950
2026-01-21 09:45:28.15	347.82	11.32	-46.3	-50.8	15.2	0.00e+00	0	39	0	1231028224	64	5925
2026-01-21 09:45:29.28	347.79	11.21	-46.3	-50.8	15.1	0.00e+00	0	39	0	1233125376	64	5968
2026-01-21 09:45:30.14	347.76	11.14	-46.2	-50.8	15.1	0.00e+00	0	39	0	1235222528	64	5944
2026-01-21 09:45:31.27	347.73	11.04	-46.1	-50.8	15.1	0.00e+00	0	39	0	1237319680	64	5936
2026-01-21 09:45:32.13	347.71	10.96	-46.1	-50.9	15.0	0.00e+00	0	39	0	1238368256	64	6023
2026-01-21 09:45:33.26	347.68	10.86	-46.1	-50.9	15.0	0.00e+00	0	39	0	1240465408	64	6058
2026-01-21 09:45:34.11	347.65	10.78	-46.0	-50.9	14.9	0.00e+00	0	39	0	1242562560	64	6057
2026-01-21 09:45:35.25	347.62	10.68	-46.0	-50.9	15.0	0.00e+00	0	39	0	1244659712	63	6398
2026-01-21 09:45:36.10	347.60	10.61	-46.1	-51.1	14.9	7.00e-07	0	40	0	1245708288	63	6502
2026-01-21 09:45:37.23	347.57	10.51	-46.1	-51.0	14.9	0.00e+00	0	39	0	1247805440	63	6472
2026-01-21 09:45:38.30	347.54	10.42	-46.1	-51.0	15.0	0.00e+00	0	39	0	1249902592	63	6421
2026-01-21 09:45:39.33	347.52	10.33	-46.2	-51.0	14.9	0.00e+00	0	39	0	1251999744	63	6451
2026-01-21 09:45:40.50	347.49	10.22	-46.3	-51.2	14.8	7.00e-07	0	39	0	1254096896	63	6576
