passes_logs/2026/01/21/T1/T1__20260121_034448_FENGYUN_3E_rec.log

#Pass ID: 20260121_034448_FENGYUN 3E
#Satellite: FENGYUN 3E
#Configuration: FENGYUN 3E
#almurnet v.1.7.20251203
#Start time: 2026-01-21 03:44:48

#Version: 2.0.20230620
#Station: T1
#Location: 37.570604 lon 55.790049 lat
#TLE: 1 49008U 21062A   26020.29079360  .00000161  00000+0  96807-4 0  9999
#TLE: 2 49008  98.7481  25.3569 0002259 127.4136 232.7246 14.19885851235592

#Time	Az	El	Level	Level2	SNR	BER	BlckErr	Temp	State	Recorded	gain1	gain2
2026-01-21 03:44:48.73	17.86	5.04	-51.5	-63.1	3.8	8.47e-01	0	41	0	0	72	14522
2026-01-21 03:44:49.72	17.88	5.11	-51.5	-63.0	3.8	8.46e-01	0	41	104	0	73	13450
2026-01-21 03:44:50.71	17.89	5.18	-51.5	-62.9	3.8	8.47e-01	0	41	104	0	73	13375
2026-01-21 03:44:51.71	17.91	5.25	-51.5	-62.8	3.8	8.47e-01	0	41	104	0	73	13216
2026-01-21 03:44:52.70	17.93	5.32	-51.5	-62.8	3.8	8.46e-01	0	41	104	0	73	13243
2026-01-21 03:44:53.69	17.94	5.39	-51.5	-62.7	3.8	8.48e-01	0	41	104	0	73	13107
2026-01-21 03:44:54.69	17.96	5.46	-51.5	-62.7	3.8	8.46e-01	0	41	104	0	73	13017
2026-01-21 03:44:55.68	17.97	5.54	-51.5	-62.7	3.8	8.46e-01	0	41	104	0	73	13075
2026-01-21 03:44:56.67	17.99	5.61	-51.5	-62.7	3.8	8.48e-01	0	42	104	0	73	12971
2026-01-21 03:44:57.67	18.01	5.68	-51.5	-62.7	3.8	8.46e-01	0	42	104	0	73	12977
2026-01-21 03:44:58.66	18.02	5.75	-51.5	-62.7	3.8	8.46e-01	0	42	104	0	73	13052
2026-01-21 03:44:59.65	18.04	5.82	-51.5	-62.8	3.8	8.47e-01	0	42	104	0	73	13164
2026-01-21 03:45:00.65	18.06	5.90	-51.5	-62.8	3.8	8.47e-01	0	42	104	0	73	13246
2026-01-21 03:45:01.64	18.07	5.97	-51.5	-62.9	3.8	8.47e-01	0	42	104	0	73	13337
2026-01-21 03:45:02.63	18.09	6.04	-51.5	-62.9	3.8	8.46e-01	0	42	104	0	73	13360
2026-01-21 03:45:03.63	18.11	6.12	-51.5	-63.0	3.8	8.47e-01	0	42	104	0	73	13482
2026-01-21 03:45:04.62	18.12	6.19	-51.5	-63.1	3.8	8.46e-01	0	42	104	0	73	13651
2026-01-21 03:45:05.62	18.14	6.26	-51.5	-63.0	3.8	8.45e-01	0	42	104	0	73	13542
2026-01-21 03:45:06.61	18.16	6.34	-51.5	-63.1	3.8	8.46e-01	0	42	104	0	73	13624
2026-01-21 03:45:07.60	18.18	6.41	-51.5	-63.0	3.8	8.47e-01	0	42	104	0	73	13557
2026-01-21 03:45:08.60	18.19	6.49	-51.5	-63.0	3.8	8.48e-01	0	42	104	0	73	13483
2026-01-21 03:45:09.59	18.21	6.56	-51.5	-62.8	3.8	8.47e-01	0	42	104	0	73	13157
2026-01-21 03:45:10.58	18.23	6.63	-51.5	-62.6	3.8	8.47e-01	0	42	104	0	73	12869
2026-01-21 03:45:11.58	18.24	6.71	-51.4	-62.3	3.8	8.45e-01	0	42	104	0	73	12515
2026-01-21 03:45:12.57	18.26	6.78	-51.4	-62.1	3.8	8.47e-01	0	42	104	0	73	12181
2026-01-21 03:45:13.56	18.28	6.86	-51.4	-61.7	3.8	8.48e-01	0	42	104	0	73	11647
2026-01-21 03:45:14.56	18.30	6.94	-51.3	-61.4	3.8	8.46e-01	0	42	104	0	73	11279
2026-01-21 03:45:15.55	18.31	7.01	-51.3	-60.9	3.9	8.46e-01	0	42	104	0	73	10655
2026-01-21 03:45:16.54	18.33	7.09	-51.2	-60.6	3.8	8.45e-01	0	42	104	0	73	10250
2026-01-21 03:45:17.54	18.35	7.16	-51.2	-60.2	3.9	8.44e-01	0	42	104	0	73	9784
2026-01-21 03:45:18.53	18.37	7.24	-51.1	-59.7	4.2	8.39e-01	0	42	0	0	73	9179
2026-01-21 03:45:19.52	18.39	7.32	-51.1	-59.5	4.2	8.36e-01	0	42	0	0	72	9500
2026-01-21 03:45:20.52	18.40	7.39	-51.0	-59.0	4.4	8.33e-01	0	43	0	0	72	9052
2026-01-21 03:45:21.51	18.42	7.47	-50.9	-58.7	4.5	8.23e-01	0	43	0	0	72	8671
2026-01-21 03:45:22.50	18.44	7.55	-50.9	-58.6	4.5	8.19e-01	0	43	0	0	72	8611
2026-01-21 03:45:23.50	18.46	7.63	-50.9	-58.4	4.6	8.14e-01	0	43	0	0	72	8384
2026-01-21 03:45:24.49	18.48	7.70	-50.8	-58.1	4.8	8.01e-01	0	43	0	0	72	8088
2026-01-21 03:45:25.48	18.49	7.78	-50.7	-57.8	4.9	7.90e-01	0	43	0	0	72	7821
2026-01-21 03:45:26.48	18.51	7.86	-50.7	-57.5	5.1	7.71e-01	0	43	0	0	72	7598
2026-01-21 03:45:27.47	18.53	7.94	-50.6	-57.3	5.1	7.55e-01	0	43	0	0	72	7434
2026-01-21 03:45:28.47	18.55	8.02	-50.6	-56.9	5.5	7.27e-01	0	43	0	0	71	7501
2026-01-21 03:45:29.46	18.57	8.10	-50.4	-56.5	5.8	5.28e-01	0	43	0	1048576	71	7124
2026-01-21 03:45:30.45	18.59	8.17	-50.2	-55.8	6.3	2.88e-01	0	43	0	8388608	71	6595
2026-01-21 03:45:31.45	18.61	8.25	-50.0	-55.1	6.9	2.17e-01	0	43	0	15728640	70	6422
2026-01-21 03:45:32.44	18.63	8.33	-49.8	-54.5	7.4	1.12e-01	0	43	0	23068672	70	6045
2026-01-21 03:45:33.44	18.64	8.41	-49.4	-53.7	8.2	6.53e-02	0	43	0	30408704	69	5805
2026-01-21 03:45:34.43	18.66	8.49	-49.0	-52.8	9.2	2.29e-02	0	43	0	37748736	68	5532
2026-01-21 03:45:35.42	18.68	8.58	-48.6	-52.0	9.9	9.66e-03	0	43	0	44040192	68	5047
2026-01-21 03:45:36.42	18.70	8.66	-48.1	-51.1	10.7	3.07e-03	0	43	0	51380224	66	5131
2026-01-21 03:45:37.41	18.72	8.74	-47.7	-50.5	11.4	1.06e-03	0	43	0	58720256	66	4780
2026-01-21 03:45:38.40	18.74	8.82	-47.3	-49.8	12.1	3.23e-04	0	43	0	66060288	65	4686
2026-01-21 03:45:39.40	18.76	8.90	-46.9	-49.3	12.6	1.01e-04	0	43	0	73400320	64	4678
2026-01-21 03:45:40.39	18.78	8.98	-46.6	-48.8	13.1	3.31e-05	0	43	0	79691776	64	4420
2026-01-21 03:45:41.38	18.80	9.06	-47.2	-49.7	12.3	1.37e-05	0	43	0	87031808	63	5186
2026-01-21 03:45:42.38	18.82	9.15	-48.9	-52.7	9.2	8.32e-03	0	43	0	94371840	67	5828
2026-01-21 03:45:43.38	18.84	9.23	-48.7	-52.2	9.6	1.30e-01	0	43	0	101711872	68	5193
2026-01-21 03:45:44.37	18.86	9.31	-43.4	-44.6	17.3	0.00e+00	0	43	0	109051904	56	4335
2026-01-21 03:45:45.36	18.88	9.40	-44.4	-45.9	16.0	0.00e+00	0	43	0	116391936	59	4209
2026-01-21 03:45:46.36	18.90	9.48	-43.6	-45.0	16.9	0.00e+00	0	43	0	122683392	57	4243
2026-01-21 03:45:47.35	18.92	9.56	-42.8	-44.0	17.9	0.00e+00	0	43	0	130023424	56	4009
2026-01-21 03:45:48.35	18.94	9.65	-42.3	-43.5	18.2	0.00e+00	0	43	0	137363456	55	4010
2026-01-21 03:45:49.34	18.96	9.73	-42.3	-43.4	18.2	0.00e+00	0	43	0	144703488	55	3989
2026-01-21 03:45:50.34	18.98	9.82	-42.4	-43.5	18.2	0.00e+00	0	43	0	152043520	55	4033
2026-01-21 03:45:51.33	19.00	9.90	-41.9	-43.0	18.6	0.00e+00	0	43	0	159383552	54	4044
2026-01-21 03:45:52.33	19.02	9.99	-41.7	-42.8	18.9	0.00e+00	0	43	0	165675008	53	4146
2026-01-21 03:45:53.32	19.04	10.07	-41.8	-42.9	18.7	0.00e+00	0	43	0	173015040	53	4239
2026-01-21 03:45:54.32	19.06	10.16	-41.7	-42.8	18.8	0.00e+00	0	43	0	180355072	53	4180
2026-01-21 03:45:55.31	19.08	10.25	-41.8	-42.9	18.7	0.00e+00	0	43	0	187695104	53	4214
2026-01-21 03:45:56.31	19.10	10.33	-42.0	-43.1	18.6	0.00e+00	0	43	0	195035136	53	4299
2026-01-21 03:45:57.30	19.13	10.42	-41.7	-42.8	18.9	0.00e+00	0	43	0	202375168	53	4159
2026-01-21 03:45:58.30	19.15	10.51	-41.7	-42.8	18.9	0.00e+00	0	43	0	209715200	53	4150
2026-01-21 03:45:59.29	19.17	10.59	-41.7	-42.7	18.9	0.00e+00	0	43	0	217055232	53	4137
2026-01-21 03:46:00.27	19.19	10.68	-41.7	-42.7	18.9	0.00e+00	0	43	0	223346688	53	4141
2026-01-21 03:46:01.25	19.21	10.77	-41.4	-42.4	19.2	0.00e+00	0	43	0	230686720	53	3984
2026-01-21 03:46:02.25	19.23	10.86	-41.4	-42.5	19.2	0.00e+00	0	43	0	238026752	53	4007
2026-01-21 03:46:03.24	19.25	10.94	-41.4	-42.4	19.2	0.00e+00	0	43	0	245366784	53	3998
2026-01-21 03:46:04.24	19.28	11.03	-41.4	-42.5	19.2	0.00e+00	0	43	0	252706816	53	4022
2026-01-21 03:46:05.23	19.30	11.12	-41.4	-42.5	19.2	0.00e+00	0	43	0	260046848	53	4026
2026-01-21 03:46:06.22	19.32	11.21	-41.4	-42.4	19.3	0.00e+00	0	43	0	266338304	53	3996
2026-01-21 03:46:07.22	19.34	11.30	-41.2	-42.2	19.5	0.00e+00	0	43	0	273678336	53	3894
2026-01-21 03:46:08.21	19.36	11.39	-41.2	-42.2	19.5	0.00e+00	0	43	0	281018368	53	3903
2026-01-21 03:46:09.24	19.39	11.49	-41.4	-42.4	19.3	0.00e+00	0	43	0	288358400	53	3983
2026-01-21 03:46:10.25	19.41	11.58	-41.3	-42.4	19.4	0.00e+00	0	43	0	295698432	53	3960
2026-01-21 03:46:11.28	19.43	11.67	-41.2	-42.3	19.5	0.00e+00	0	43	0	303038464	53	3915
2026-01-21 03:46:12.27	19.46	11.76	-41.3	-42.3	19.4	0.00e+00	0	43	0	310378496	53	3943
2026-01-21 03:46:13.34	19.48	11.86	-41.3	-42.4	19.3	0.00e+00	0	43	0	317718528	53	3977
2026-01-21 03:46:14.23	19.50	11.95	-41.4	-42.4	19.3	0.00e+00	0	43	0	324009984	53	4001
2026-01-21 03:46:15.37	19.53	12.05	-41.3	-42.4	19.4	0.00e+00	0	43	0	332398592	53	3984
2026-01-21 03:46:16.28	19.55	12.14	-41.3	-42.4	19.4	0.00e+00	0	43	0	339738624	53	3976
2026-01-21 03:46:17.45	19.58	12.25	-41.2	-42.2	19.5	0.00e+00	0	43	0	348127232	53	3901
2026-01-21 03:46:18.34	19.60	12.33	-41.0	-42.1	19.7	0.00e+00	0	43	0	354418688	52	4055
2026-01-21 03:46:19.47	19.62	12.44	-41.1	-42.1	19.6	0.00e+00	0	44	0	361758720	52	4081
2026-01-21 03:46:20.32	19.64	12.52	-40.9	-41.9	19.8	0.00e+00	0	43	0	368050176	52	3995
2026-01-21 03:46:21.46	19.67	12.63	-40.7	-41.8	19.9	0.00e+00	0	43	0	376438784	52	3916
2026-01-21 03:46:22.31	19.69	12.71	-40.8	-41.8	19.9	0.00e+00	0	43	0	382730240	52	3924
2026-01-21 03:46:23.45	19.72	12.82	-40.6	-41.7	20.0	0.00e+00	0	43	0	391118848	52	3874
2026-01-21 03:46:24.31	19.74	12.90	-40.7	-41.7	20.0	0.00e+00	0	44	0	397410304	52	3913
2026-01-21 03:46:25.44	19.77	13.01	-40.6	-41.6	20.1	0.00e+00	0	44	0	405798912	52	3851
2026-01-21 03:46:26.29	19.79	13.09	-40.7	-41.7	20.1	0.00e+00	0	43	0	411041792	51	4122
2026-01-21 03:46:27.43	19.82	13.21	-40.7	-41.7	20.1	0.00e+00	0	43	0	419430400	51	4131
2026-01-21 03:46:28.28	19.84	13.29	-40.8	-41.8	20.0	0.00e+00	0	43	0	425721856	51	4162
2026-01-21 03:46:29.52	19.87	13.41	-40.7	-41.7	20.1	0.00e+00	0	43	0	434110464	51	4134
2026-01-21 03:46:30.37	19.89	13.50	-40.7	-41.7	20.1	0.00e+00	0	43	0	440401920	51	4123
2026-01-21 03:46:31.57	19.92	13.62	-40.6	-41.6	20.2	0.00e+00	0	44	0	449839104	51	4065
2026-01-21 03:46:32.43	19.94	13.70	-40.5	-41.5	20.2	0.00e+00	0	44	0	455081984	51	4047
2026-01-21 03:46:33.57	19.97	13.82	-40.5	-41.5	20.3	0.00e+00	0	43	0	463470592	51	4048
2026-01-21 03:46:34.42	20.00	13.90	-40.4	-41.4	20.4	0.00e+00	0	44	0	469762048	51	3981
2026-01-21 03:46:35.56	20.03	14.02	-40.4	-41.4	20.4	0.00e+00	0	44	0	478150656	51	3994
2026-01-21 03:46:36.41	20.05	14.10	-40.4	-41.4	20.4	0.00e+00	0	43	0	484442112	51	3995
2026-01-21 03:46:37.55	20.08	14.22	-40.3	-41.3	20.5	0.00e+00	0	43	0	492830720	51	3947
2026-01-21 03:46:38.40	20.10	14.31	-40.3	-41.3	20.5	0.00e+00	0	43	0	499122176	51	3933
2026-01-21 03:46:39.54	20.13	14.42	-40.4	-41.4	20.4	0.00e+00	0	43	0	507510784	51	3977
2026-01-21 03:46:40.39	20.15	14.51	-40.1	-41.1	20.7	0.00e+00	0	44	0	513802240	51	3831
2026-01-21 03:46:41.53	20.18	14.63	-40.3	-41.2	20.5	0.00e+00	0	44	0	521142272	51	3901
2026-01-21 03:46:42.38	20.21	14.72	-40.3	-41.2	20.5	0.00e+00	0	44	0	527433728	51	3900
2026-01-21 03:46:43.52	20.24	14.84	-40.2	-41.1	20.6	0.00e+00	0	44	0	535822336	51	3852
2026-01-21 03:46:44.37	20.26	14.93	-40.2	-41.1	20.6	0.00e+00	0	44	0	542113792	50	4093
2026-01-21 03:46:45.51	20.29	15.05	-40.1	-41.0	20.7	0.00e+00	0	43	0	550502400	50	4043
2026-01-21 03:46:46.36	20.32	15.14	-40.1	-41.0	20.7	0.00e+00	0	44	0	555745280	50	4033
2026-01-21 03:46:47.50	20.35	15.26	-40.1	-41.0	20.7	0.00e+00	0	44	0	564133888	50	4045
2026-01-21 03:46:48.35	20.37	15.35	-40.0	-40.9	20.8	0.00e+00	0	44	0	570425344	50	3995
2026-01-21 03:46:49.49	20.40	15.47	-40.0	-40.9	20.9	0.00e+00	0	44	0	578813952	50	3968
2026-01-21 03:46:50.34	20.43	15.56	-40.1	-41.0	20.8	0.00e+00	0	44	0	585105408	50	4021
2026-01-21 03:46:51.62	20.46	15.70	-39.9	-40.8	20.9	0.00e+00	0	44	0	594542592	50	3955
2026-01-21 03:46:52.34	20.48	15.78	-40.0	-40.9	20.9	0.00e+00	0	44	0	599785472	50	3964
2026-01-21 03:46:53.62	20.52	15.92	-40.0	-40.9	20.9	0.00e+00	0	43	0	608174080	50	3975
2026-01-21 03:46:54.33	20.54	16.00	-39.9	-40.8	20.9	0.00e+00	0	44	0	614465536	50	3950
2026-01-21 03:46:55.62	20.58	16.14	-40.1	-41.0	20.8	0.00e+00	0	44	0	622854144	50	4006
2026-01-21 03:46:56.34	20.60	16.22	-40.0	-40.9	20.9	0.00e+00	0	44	0	628097024	50	3984
2026-01-21 03:46:57.62	20.64	16.36	-39.9	-40.8	20.9	0.00e+00	0	44	0	637534208	50	3946
2026-01-21 03:46:58.35	20.66	16.44	-39.8	-40.7	21.1	0.00e+00	0	44	0	642777088	50	3871
2026-01-21 03:46:59.63	20.70	16.58	-39.8	-40.7	21.1	0.00e+00	0	44	0	652214272	50	3878
2026-01-21 03:47:00.46	20.72	16.68	-39.8	-40.7	21.0	0.00e+00	0	44	0	658505728	50	3900
2026-01-21 03:47:01.60	20.76	16.81	-39.8	-40.6	21.1	0.00e+00	0	44	0	665845760	50	3868
2026-01-21 03:47:02.46	20.78	16.91	-39.7	-40.6	21.2	0.00e+00	0	44	0	672137216	50	3826
2026-01-21 03:47:03.59	20.82	17.03	-39.7	-40.6	21.1	0.00e+00	0	44	0	680525824	50	3848
2026-01-21 03:47:04.71	20.85	17.16	-39.7	-40.5	21.2	0.00e+00	0	44	0	688914432	50	3824
2026-01-21 03:47:05.74	20.89	17.28	-39.8	-40.7	21.1	0.00e+00	0	44	0	696254464	49	4101
2026-01-21 03:47:06.73	20.92	17.40	-39.6	-40.5	21.2	0.00e+00	0	44	0	703594496	49	4011
2026-01-21 03:47:07.93	20.96	17.54	-39.7	-40.5	21.2	0.00e+00	0	44	0	711983104	49	4048
2026-01-21 03:47:08.81	20.98	17.64	-39.6	-40.4	21.3	0.00e+00	0	44	0	718274560	49	3997
2026-01-21 03:47:10.13	21.03	17.80	-39.5	-40.4	21.3	0.00e+00	0	44	0	727711744	49	3982
2026-01-21 03:47:10.84	21.05	17.88	-39.5	-40.4	21.3	0.00e+00	0	44	0	732954624	49	3997
2026-01-21 03:47:12.12	21.09	18.03	-39.4	-40.3	21.4	0.00e+00	0	44	0	742391808	49	3924
2026-01-21 03:47:12.83	21.11	18.12	-39.5	-40.4	21.4	0.00e+00	0	44	0	747634688	49	3965
2026-01-21 03:47:14.11	21.16	18.27	-39.4	-40.3	21.4	0.00e+00	0	44	0	757071872	49	3926
2026-01-21 03:47:14.85	21.18	18.36	-39.5	-40.4	21.3	0.00e+00	0	44	0	762314752	49	3995
2026-01-21 03:47:16.12	21.22	18.51	-39.7	-40.6	21.2	0.00e+00	0	44	0	770703360	49	4057
2026-01-21 03:47:16.92	21.25	18.61	-39.7	-40.6	21.2	0.00e+00	0	44	0	776994816	49	4059
2026-01-21 03:47:18.09	21.29	18.75	-39.6	-40.4	21.3	0.00e+00	0	44	0	785383424	49	4003
2026-01-21 03:47:18.94	21.32	18.86	-39.5	-40.3	21.4	0.00e+00	0	44	0	791674880	49	3947
2026-01-21 03:47:20.08	21.36	19.00	-39.2	-40.1	21.6	0.00e+00	0	44	0	800063488	49	3830
2026-01-21 03:47:20.93	21.39	19.11	-39.4	-40.3	21.5	0.00e+00	0	44	0	805306368	49	3923
2026-01-21 03:47:22.07	21.43	19.25	-39.3	-40.1	21.6	0.00e+00	0	44	0	813694976	49	3865
2026-01-21 03:47:23.20	21.47	19.39	-39.3	-40.2	21.5	0.00e+00	0	44	0	822083584	49	3878
2026-01-21 03:47:24.23	21.50	19.52	-39.3	-40.1	21.5	0.00e+00	0	44	0	829423616	49	3860
2026-01-21 03:47:25.22	21.54	19.65	-39.2	-40.1	21.7	0.00e+00	0	44	0	836763648	49	3826
2026-01-21 03:47:26.42	21.58	19.80	-38.9	-39.7	21.9	0.00e+00	0	44	0	845152256	48	3907
2026-01-21 03:47:27.32	21.62	19.92	-39.1	-40.0	21.8	0.00e+00	0	44	0	851443712	48	4005
2026-01-21 03:47:28.60	21.66	20.08	-39.2	-40.0	21.7	0.00e+00	0	44	0	860880896	48	4042
2026-01-21 03:47:29.31	21.69	20.17	-39.1	-40.0	21.7	0.00e+00	0	44	0	866123776	48	4021
2026-01-21 03:47:30.59	21.74	20.34	-38.9	-39.7	21.9	0.00e+00	0	44	0	875560960	48	3908
2026-01-21 03:47:31.30	21.76	20.43	-38.9	-39.8	21.9	0.00e+00	0	44	0	880803840	48	3917
2026-01-21 03:47:32.58	21.81	20.60	-38.8	-39.7	22.0	0.00e+00	0	44	0	890241024	48	3884
2026-01-21 03:47:33.29	21.84	20.70	-39.0	-39.9	21.8	0.00e+00	0	44	0	895483904	48	3960
2026-01-21 03:47:34.57	21.89	20.87	-38.8	-39.7	22.0	0.00e+00	0	44	0	903872512	48	3884
2026-01-21 03:47:35.28	21.92	20.96	-38.8	-39.7	22.0	0.00e+00	0	44	0	909115392	48	3870
2026-01-21 03:47:36.56	21.97	21.13	-38.7	-39.5	22.1	0.00e+00	0	44	0	918552576	48	3810
2026-01-21 03:47:37.27	21.99	21.23	-38.9	-39.8	21.9	0.00e+00	0	44	0	923795456	48	3928
2026-01-21 03:47:38.63	22.05	21.41	-38.9	-39.8	21.9	0.00e+00	0	44	0	933232640	48	3918
2026-01-21 03:47:39.34	22.08	21.51	-38.9	-39.7	22.0	0.00e+00	0	44	0	938475520	48	3890
2026-01-21 03:47:40.62	22.13	21.69	-39.0	-39.9	21.8	0.00e+00	0	44	0	947912704	48	3968
2026-01-21 03:47:41.68	22.17	21.83	-39.0	-39.9	21.8	0.00e+00	0	44	0	955252736	48	3965
2026-01-21 03:47:42.83	22.22	21.99	-38.9	-39.8	21.9	0.00e+00	0	44	0	963641344	48	3930
2026-01-21 03:47:43.68	22.25	22.11	-38.9	-39.8	21.9	0.00e+00	0	44	0	969932800	48	3933
2026-01-21 03:47:44.82	22.30	22.27	-39.0	-39.8	21.9	0.00e+00	0	44	0	978321408	48	3939
2026-01-21 03:47:45.68	22.34	22.39	-39.0	-39.8	21.9	0.00e+00	0	44	0	984612864	48	3950
2026-01-21 03:47:46.81	22.38	22.56	-39.0	-39.8	21.9	0.00e+00	0	44	0	993001472	48	3944
2026-01-21 03:47:47.67	22.42	22.68	-39.1	-40.0	21.8	0.00e+00	0	44	0	999292928	48	4017
2026-01-21 03:47:48.80	22.47	22.84	-39.1	-39.9	21.8	0.00e+00	0	44	0	1006632960	48	3998
2026-01-21 03:47:49.66	22.51	22.97	-39.2	-40.1	21.7	0.00e+00	0	44	0	1012924416	48	4058
2026-01-21 03:47:50.80	22.56	23.13	-39.1	-40.0	21.7	0.00e+00	0	44	0	1021313024	48	4017
2026-01-21 03:47:51.65	22.59	23.26	-39.1	-40.0	21.7	0.00e+00	0	44	0	1027604480	48	4018
2026-01-21 03:47:52.78	22.64	23.42	-39.1	-40.0	21.8	0.00e+00	0	44	0	1035993088	48	4009
2026-01-21 03:47:53.64	22.68	23.55	-39.0	-39.9	21.8	0.00e+00	0	44	0	1042284544	48	3980
2026-01-21 03:47:55.00	22.74	23.75	-39.0	-39.9	21.8	0.00e+00	0	44	0	1051721728	48	3989
2026-01-21 03:47:55.70	22.78	23.86	-39.0	-39.9	21.8	0.00e+00	0	44	0	1056964608	48	3961
2026-01-21 03:47:56.99	22.84	24.05	-38.9	-39.8	21.9	0.00e+00	0	44	0	1066401792	48	3937
2026-01-21 03:47:57.71	22.87	24.16	-38.9	-39.7	22.0	0.00e+00	0	44	0	1071644672	48	3901
2026-01-21 03:47:58.99	22.93	24.35	-38.9	-39.8	21.9	0.00e+00	0	44	0	1081081856	48	3915
2026-01-21 03:47:59.73	22.96	24.47	-38.9	-39.8	22.0	0.00e+00	0	44	0	1086324736	48	3914
2026-01-21 03:48:01.01	23.03	24.67	-38.8	-39.6	22.0	0.00e+00	0	44	0	1094713344	48	3868
2026-01-21 03:48:01.75	23.06	24.78	-38.8	-39.6	22.1	0.00e+00	0	44	0	1101004800	48	3847
2026-01-21 03:48:03.03	23.12	24.98	-38.6	-39.5	21.8	0.00e+00	0	44	0	1109393408	47	4035
2026-01-21 03:48:03.74	23.16	25.09	-38.6	-39.5	21.9	0.00e+00	0	44	0	1114636288	47	4008
2026-01-21 03:48:05.02	23.22	25.29	-38.5	-39.3	22.0	0.00e+00	0	44	0	1124073472	47	3950
2026-01-21 03:48:05.74	23.26	25.41	-38.4	-39.3	22.0	0.00e+00	0	44	0	1129316352	47	3927
2026-01-21 03:48:07.01	23.32	25.61	-38.4	-39.2	22.1	0.00e+00	0	44	0	1138753536	47	3907
2026-01-21 03:48:07.81	23.36	25.74	-38.2	-39.1	22.2	0.00e+00	0	44	0	1143996416	47	3839
2026-01-21 03:48:08.95	23.42	25.92	-38.1	-38.9	22.3	0.00e+00	0	44	0	1152385024	47	3780
2026-01-21 03:48:09.80	23.47	26.06	-38.1	-38.9	22.4	0.00e+00	0	44	0	1158676480	46	3997
2026-01-21 03:48:10.94	23.53	26.25	-38.1	-38.9	22.4	0.00e+00	0	44	0	1167065088	46	3990
2026-01-21 03:48:11.79	23.57	26.39	-37.9	-38.8	22.5	0.00e+00	0	44	0	1173356544	46	3917
2026-01-21 03:48:12.92	23.63	26.57	-38.0	-38.8	22.5	0.00e+00	0	44	0	1181745152	46	3954
2026-01-21 03:48:13.78	23.68	26.72	-37.8	-38.7	22.6	0.00e+00	0	44	0	1188036608	46	3874
2026-01-21 03:48:15.09	23.75	26.94	-37.9	-38.7	22.6	0.00e+00	0	44	0	1196425216	46	3884
2026-01-21 03:48:15.80	23.79	27.06	-37.9	-38.7	22.6	0.00e+00	0	44	0	1201668096	46	3882
2026-01-21 03:48:17.08	23.86	27.27	-37.9	-38.7	22.6	0.00e+00	0	44	0	1211105280	46	3881
2026-01-21 03:48:17.82	23.90	27.40	-37.9	-38.7	22.6	0.00e+00	0	44	0	1216348160	46	3898
2026-01-21 03:48:19.09	23.97	27.62	-37.7	-38.5	22.7	0.00e+00	0	44	0	1225785344	46	3808
2026-01-21 03:48:19.84	24.02	27.75	-37.8	-38.6	22.7	0.00e+00	0	44	0	1231028224	46	3848
2026-01-21 03:48:21.12	24.09	27.97	-38.0	-38.8	22.5	0.00e+00	0	44	0	1240465408	46	3944
2026-01-21 03:48:21.86	24.13	28.10	-37.9	-38.7	22.6	0.00e+00	0	44	0	1245708288	46	3895
2026-01-21 03:48:23.14	24.21	28.32	-37.8	-38.7	22.6	0.00e+00	0	44	0	1255145472	46	3873
2026-01-21 03:48:23.85	24.25	28.45	-37.8	-38.6	22.6	0.00e+00	0	44	0	1260388352	46	3867
2026-01-21 03:48:25.13	24.33	28.68	-38.0	-38.8	22.5	0.00e+00	0	44	0	1269825536	46	3929
2026-01-21 03:48:25.86	24.37	28.81	-38.0	-38.9	22.5	0.00e+00	0	44	0	1274019840	46	3961
2026-01-21 03:48:27.13	24.45	29.04	-38.1	-38.9	22.4	0.00e+00	0	44	0	1283457024	46	3987
2026-01-21 03:48:27.85	24.50	29.17	-38.1	-38.9	22.4	0.00e+00	0	44	0	1288699904	46	3987
2026-01-21 03:48:29.12	24.58	29.40	-38.2	-39.0	22.3	0.00e+00	0	44	0	1298137088	46	4035
2026-01-21 03:48:29.84	24.62	29.53	-38.0	-38.9	22.5	0.00e+00	0	44	0	1303379968	46	3959
2026-01-21 03:48:31.13	24.71	29.77	-38.1	-38.9	22.4	0.00e+00	0	44	0	1312817152	46	4003
2026-01-21 03:48:31.84	24.75	29.90	-38.0	-38.8	22.5	0.00e+00	0	44	0	1318060032	46	3958
2026-01-21 03:48:33.12	24.84	30.14	-37.9	-38.7	22.5	0.00e+00	0	44	0	1327497216	46	3910
2026-01-21 03:48:34.20	24.91	30.35	-38.1	-38.9	22.4	0.00e+00	0	44	0	1334837248	46	3981
2026-01-21 03:48:35.05	24.96	30.51	-37.9	-38.7	22.5	0.00e+00	0	44	0	1341128704	46	3911
2026-01-21 03:48:36.19	25.04	30.73	-38.0	-38.8	22.5	0.00e+00	0	44	0	1349517312	46	3955
2026-01-21 03:48:37.04	25.10	30.89	-37.9	-38.7	22.6	0.00e+00	0	44	0	1355808768	46	3899
2026-01-21 03:48:38.17	25.18	31.11	-38.0	-38.9	22.5	0.00e+00	0	44	0	1364197376	46	3971
2026-01-21 03:48:39.03	25.24	31.28	-38.1	-39.0	22.4	0.00e+00	0	44	0	1369440256	46	4012
2026-01-21 03:48:40.17	25.32	31.50	-38.0	-38.8	22.5	0.00e+00	0	44	0	1377828864	46	3957
2026-01-21 03:48:41.02	25.38	31.67	-38.2	-39.1	22.3	0.00e+00	0	44	0	1384120320	46	4054
2026-01-21 03:48:42.15	25.46	31.89	-38.2	-39.0	22.3	0.00e+00	0	44	0	1392508928	46	4048
2026-01-21 03:48:43.01	25.53	32.07	-38.2	-39.1	22.3	0.00e+00	0	44	0	1398800384	46	4065
2026-01-21 03:48:44.14	25.61	32.29	-38.2	-39.0	22.4	0.00e+00	0	44	0	1406140416	46	4027
2026-01-21 03:48:45.00	25.68	32.47	-38.0	-38.8	22.5	0.00e+00	0	44	0	1412431872	46	3946
2026-01-21 03:48:46.13	25.76	32.70	-38.1	-38.9	22.5	0.00e+00	0	44	0	1420820480	46	3998
2026-01-21 03:48:46.99	25.83	32.88	-38.0	-38.8	22.5	0.00e+00	0	44	0	1427111936	46	3940
2026-01-21 03:48:48.12	25.92	33.11	-37.9	-38.7	22.6	0.00e+00	0	44	0	1435500544	46	3889
2026-01-21 03:48:48.97	25.98	33.29	-37.9	-38.7	22.6	0.00e+00	0	44	0	1441792000	46	3890
2026-01-21 03:48:50.11	26.08	33.53	-37.6	-38.4	22.8	0.00e+00	0	44	0	1449132032	46	3774
2026-01-21 03:48:50.97	26.15	33.71	-37.6	-38.4	22.8	0.00e+00	0	44	0	1456472064	45	3975
2026-01-21 03:48:52.10	26.24	33.95	-37.7	-38.5	22.8	0.00e+00	0	44	0	1463812096	45	4044
2026-01-21 03:48:52.96	26.31	34.13	-37.7	-38.5	22.8	0.00e+00	0	44	0	1470103552	45	4042
2026-01-21 03:48:54.09	26.41	34.37	-37.8	-38.6	22.7	0.00e+00	0	44	0	1478492160	45	4061
2026-01-21 03:48:54.95	26.48	34.56	-37.9	-38.7	22.6	0.00e+00	0	44	0	1484783616	45	4125
2026-01-21 03:48:56.08	26.58	34.81	-37.9	-38.8	22.6	0.00e+00	0	44	0	1493172224	45	4147
2026-01-21 03:48:57.03	26.66	35.01	-37.9	-38.8	22.6	0.00e+00	0	44	0	1499463680	45	4160
2026-01-21 03:48:58.03	26.75	35.24	-38.0	-38.9	22.5	0.00e+00	0	44	0	1506803712	45	4201
2026-01-21 03:48:59.02	26.84	35.46	-38.1	-38.9	22.4	0.00e+00	0	44	0	1514143744	45	4242
2026-01-21 03:49:00.02	26.93	35.68	-38.2	-39.0	22.4	0.00e+00	0	44	0	1521483776	45	4263
2026-01-21 03:49:01.01	27.02	35.90	-38.1	-39.0	22.4	0.00e+00	0	44	0	1527775232	46	4013
2026-01-21 03:49:02.01	27.11	36.13	-38.1	-38.9	22.5	0.00e+00	0	44	0	1535115264	46	3988
2026-01-21 03:49:03.00	27.20	36.36	-38.1	-38.9	22.5	0.00e+00	0	44	0	1542455296	46	3992
2026-01-21 03:49:04.00	27.30	36.59	-38.1	-38.9	22.5	0.00e+00	0	44	0	1549795328	46	3986
2026-01-21 03:49:04.99	27.40	36.82	-38.3	-39.1	22.3	0.00e+00	0	44	0	1557135360	46	4096
2026-01-21 03:49:05.99	27.50	37.05	-38.4	-39.3	22.2	0.00e+00	0	44	0	1564475392	46	4149
2026-01-21 03:49:06.98	27.59	37.28	-38.5	-39.3	22.1	0.00e+00	0	44	0	1571815424	46	4169
2026-01-21 03:49:07.98	27.70	37.52	-38.5	-39.3	22.1	0.00e+00	0	44	0	1579155456	46	4180
2026-01-21 03:49:08.98	27.80	37.76	-38.4	-39.2	22.2	0.00e+00	0	44	0	1586495488	46	4117
2026-01-21 03:49:09.97	27.90	37.99	-38.2	-39.0	22.4	0.00e+00	0	44	0	1592786944	46	4041
2026-01-21 03:49:10.97	28.01	38.23	-38.1	-38.9	22.5	0.00e+00	0	44	0	1600126976	46	3988
2026-01-21 03:49:11.96	28.11	38.48	-38.1	-38.9	22.5	0.00e+00	0	44	0	1607467008	46	3993
2026-01-21 03:49:12.96	28.22	38.72	-37.9	-38.7	22.6	0.00e+00	0	44	0	1614807040	46	3903
2026-01-21 03:49:13.95	28.33	38.96	-37.8	-38.6	22.7	0.00e+00	0	44	0	1622147072	46	3866
2026-01-21 03:49:14.94	28.44	39.21	-38.0	-38.8	22.6	0.00e+00	0	44	0	1629487104	46	3938
2026-01-21 03:49:15.94	28.55	39.46	-38.0	-38.8	22.5	0.00e+00	0	44	0	1635778560	46	3953
2026-01-21 03:49:16.94	28.67	39.71	-38.3	-39.1	22.3	0.00e+00	0	44	0	1643118592	46	4078
2026-01-21 03:49:17.93	28.79	39.96	-38.2	-39.1	22.3	0.00e+00	0	44	0	1650458624	46	4065
2026-01-21 03:49:18.94	28.91	40.22	-38.4	-39.2	22.2	0.00e+00	0	44	0	1657798656	46	4132
2026-01-21 03:49:19.97	29.03	40.48	-38.3	-39.2	22.2	0.00e+00	0	44	0	1665138688	46	4110
2026-01-21 03:49:20.96	29.15	40.74	-38.5	-39.3	22.1	0.00e+00	0	44	0	1672478720	46	4186
2026-01-21 03:49:21.95	29.27	40.99	-38.5	-39.3	22.1	0.00e+00	0	44	0	1679818752	46	4183
2026-01-21 03:49:22.95	29.40	41.26	-38.5	-39.3	22.1	0.00e+00	0	44	0	1687158784	47	3950
2026-01-21 03:49:23.94	29.53	41.52	-38.4	-39.2	22.2	0.00e+00	0	44	0	1693450240	47	3905
2026-01-21 03:49:24.94	29.66	41.78	-38.5	-39.3	22.1	0.00e+00	0	44	0	1700790272	47	3951
2026-01-21 03:49:25.93	29.79	42.05	-38.4	-39.3	22.2	0.00e+00	0	44	0	1708130304	47	3921
2026-01-21 03:49:26.93	29.92	42.31	-38.6	-39.4	22.1	0.00e+00	0	44	0	1715470336	47	3981
2026-01-21 03:49:27.92	30.06	42.58	-38.4	-39.3	22.2	0.00e+00	0	44	0	1722810368	47	3919
2026-01-21 03:49:28.92	30.20	42.85	-38.4	-39.3	22.2	0.00e+00	0	44	0	1730150400	47	3922
2026-01-21 03:49:29.91	30.34	43.13	-38.3	-39.1	22.3	0.00e+00	0	44	0	1736441856	47	3849
2026-01-21 03:49:30.91	30.48	43.40	-38.4	-39.3	22.1	0.00e+00	0	44	0	1743781888	47	3924
2026-01-21 03:49:31.90	30.63	43.68	-38.6	-39.4	22.1	0.00e+00	0	44	0	1751121920	47	3984
2026-01-21 03:49:32.90	30.77	43.96	-38.9	-39.8	21.7	0.00e+00	0	44	0	1758461952	47	4169
2026-01-21 03:49:33.90	30.92	44.24	-38.8	-39.7	21.8	0.00e+00	0	44	0	1765801984	47	4112
2026-01-21 03:49:34.94	31.08	44.53	-39.0	-39.9	21.7	0.00e+00	0	44	0	1773142016	47	4209
2026-01-21 03:49:35.92	31.24	44.81	-39.1	-40.0	21.6	0.00e+00	0	44	0	1780482048	47	4249
2026-01-21 03:49:36.99	31.41	45.12	-39.0	-39.9	21.7	0.00e+00	0	44	0	1787822080	47	4196
2026-01-21 03:49:37.85	31.55	45.37	-39.1	-40.0	21.5	0.00e+00	0	44	0	1794113536	47	4274
2026-01-21 03:49:38.98	31.73	45.69	-39.0	-39.8	21.7	0.00e+00	0	44	0	1802502144	47	4184
2026-01-21 03:49:39.84	31.88	45.95	-38.8	-39.6	21.9	0.00e+00	0	44	0	1808793600	47	4086
2026-01-21 03:49:40.97	32.07	46.28	-38.8	-39.6	21.8	0.00e+00	0	44	0	1817182208	47	4090
2026-01-21 03:49:41.83	32.22	46.53	-38.8	-39.6	21.9	0.00e+00	0	44	0	1823473664	47	4090
2026-01-21 03:49:42.96	32.42	46.87	-39.4	-40.3	21.4	0.00e+00	0	44	0	1830813696	48	4186
2026-01-21 03:49:43.81	32.58	47.13	-39.0	-39.8	22.1	0.00e+00	0	44	0	1837105152	48	3956
2026-01-21 03:49:44.95	32.79	47.47	-39.0	-39.9	22.1	0.00e+00	0	44	0	1845493760	48	3974
2026-01-21 03:49:45.81	32.95	47.73	-39.0	-39.8	22.1	0.00e+00	0	44	0	1851785216	48	3940
2026-01-21 03:49:46.94	33.16	48.08	-39.0	-39.8	22.1	0.00e+00	0	44	0	1860173824	48	3939
2026-01-21 03:49:47.79	33.33	48.34	-39.3	-40.1	21.9	0.00e+00	0	44	0	1866465280	48	4089
2026-01-21 03:49:48.93	33.56	48.69	-39.6	-40.5	21.5	0.00e+00	0	44	0	1874853888	49	4013
2026-01-21 03:49:49.79	33.73	48.96	-39.6	-40.5	21.5	0.00e+00	0	44	0	1880096768	49	4008
2026-01-21 03:49:50.92	33.97	49.31	-39.5	-40.3	21.7	0.00e+00	0	44	0	1888485376	49	3958
2026-01-21 03:49:51.78	34.15	49.58	-39.5	-40.3	21.7	0.00e+00	0	44	0	1894776832	49	3940
2026-01-21 03:49:52.92	34.39	49.94	-39.4	-40.2	21.8	0.00e+00	0	44	0	1903165440	49	3903
2026-01-21 03:49:53.77	34.58	50.21	-39.4	-40.3	21.7	0.00e+00	0	44	0	1909456896	49	3914
2026-01-21 03:49:54.90	34.83	50.57	-39.4	-40.2	21.8	0.00e+00	0	44	0	1917845504	49	3902
2026-01-21 03:49:55.76	35.03	50.85	-39.5	-40.3	21.7	0.00e+00	0	44	0	1923088384	49	3948
2026-01-21 03:49:56.89	35.30	51.21	-39.6	-40.4	21.6	0.00e+00	0	44	0	1931476992	49	3979
2026-01-21 03:49:57.74	35.50	51.49	-39.8	-40.7	21.4	0.00e+00	0	44	0	1937768448	49	4109
2026-01-21 03:49:58.88	35.78	51.86	-39.8	-40.7	21.4	0.00e+00	0	44	0	1946157056	49	4105
2026-01-21 03:49:59.73	35.99	52.14	-39.6	-40.5	21.6	0.00e+00	0	44	0	1952448512	49	4007
2026-01-21 03:50:00.91	36.29	52.53	-39.9	-40.7	21.3	0.00e+00	0	44	0	1960837120	49	4135
2026-01-21 03:50:01.77	36.51	52.82	-39.9	-40.8	21.3	0.00e+00	0	44	0	1967128576	49	4163
2026-01-21 03:50:02.95	36.83	53.21	-39.8	-40.6	21.4	0.00e+00	0	44	0	1975517184	49	4094
2026-01-21 03:50:03.80	37.06	53.50	-39.6	-40.4	21.6	0.00e+00	0	44	0	1981808640	49	3998
2026-01-21 03:50:04.97	37.39	53.89	-39.7	-40.5	21.5	0.00e+00	0	44	0	1990197248	49	4029
2026-01-21 03:50:05.82	37.63	54.18	-40.0	-40.8	21.2	0.00e+00	0	44	0	1996488704	49	4190
2026-01-21 03:50:06.99	37.98	54.58	-39.9	-40.8	21.3	0.00e+00	0	44	0	2004877312	49	4178
2026-01-21 03:50:07.85	38.23	54.87	-39.7	-40.6	21.5	0.00e+00	0	44	0	2011168768	49	4069
2026-01-21 03:50:08.98	38.58	55.26	-39.7	-40.5	21.5	0.00e+00	0	44	0	2019557376	49	4036
2026-01-21 03:50:09.84	38.85	55.56	-39.8	-40.7	21.4	0.00e+00	0	44	0	2024800256	48	4376
2026-01-21 03:50:11.08	39.25	55.98	-39.8	-40.6	21.5	0.00e+00	0	44	0	2034237440	49	4074
2026-01-21 03:50:11.94	39.54	56.28	-39.8	-40.6	21.5	0.00e+00	0	44	0	2040528896	49	4080
2026-01-21 03:50:13.07	39.92	56.68	-39.9	-40.8	21.3	0.00e+00	0	44	0	2048917504	49	4168
2026-01-21 03:50:13.93	40.22	56.98	-40.0	-40.9	21.2	0.00e+00	0	44	0	2055208960	49	4210
2026-01-21 03:50:15.06	40.62	57.37	-40.6	-41.6	20.7	0.00e+00	0	44	0	2062548992	50	4306
2026-01-21 03:50:15.92	40.94	57.68	-40.0	-40.9	21.3	0.00e+00	0	44	0	2068840448	50	3969
2026-01-21 03:50:17.05	41.36	58.08	-39.8	-40.7	21.5	0.00e+00	0	44	0	2077229056	50	3872
2026-01-21 03:50:18.00	41.73	58.41	-40.1	-41.0	21.2	0.00e+00	0	44	0	2084569088	50	4021
2026-01-21 03:50:19.00	42.13	58.77	-40.1	-41.0	21.2	0.00e+00	0	44	0	2090860544	50	4008
2026-01-21 03:50:19.99	42.53	59.12	-39.5	-40.4	21.6	0.00e+00	0	44	0	2098200576	49	3964
2026-01-21 03:50:20.98	42.95	59.47	-39.7	-40.6	21.5	0.00e+00	0	44	0	2105540608	49	4064
2026-01-21 03:50:21.98	43.37	59.83	-39.8	-40.7	21.4	0.00e+00	0	44	0	2112880640	49	4111
2026-01-21 03:50:22.98	43.82	60.19	-40.0	-40.9	21.2	0.00e+00	0	44	0	2120220672	49	4235
2026-01-21 03:50:23.97	44.27	60.54	-39.9	-40.8	21.3	0.00e+00	0	44	0	2127560704	49	4166
2026-01-21 03:50:24.97	44.73	60.90	-40.0	-40.9	21.2	0.00e+00	0	44	0	2134900736	49	4203
2026-01-21 03:50:25.96	45.21	61.26	-39.3	-40.1	21.8	0.00e+00	0	44	0	2141192192	49	3867
2026-01-21 03:50:26.96	45.70	61.62	-39.3	-40.1	21.9	0.00e+00	0	44	0	2148532224	49	3863
2026-01-21 03:50:27.95	46.20	61.97	-39.5	-40.3	21.7	0.00e+00	0	44	0	2155872256	49	3952
2026-01-21 03:50:28.97	46.74	62.34	-39.4	-40.2	21.8	0.00e+00	0	44	0	2163212288	49	3908
2026-01-21 03:50:29.96	47.27	62.70	-39.3	-40.2	21.9	0.00e+00	0	44	0	2170552320	49	3889
2026-01-21 03:50:30.95	47.82	63.05	-39.2	-40.1	21.9	0.00e+00	0	44	0	2177892352	48	4058
2026-01-21 03:50:31.95	48.39	63.41	-39.0	-39.8	22.2	0.00e+00	0	44	0	2185232384	48	3944
2026-01-21 03:50:32.95	48.98	63.77	-38.9	-39.7	22.2	0.00e+00	0	44	0	2191523840	48	3882
2026-01-21 03:50:33.94	49.58	64.12	-39.0	-39.8	22.2	0.00e+00	0	44	0	2198863872	48	3938
2026-01-21 03:50:34.94	50.21	64.48	-39.1	-39.9	22.1	0.00e+00	0	44	0	2206203904	48	3969
2026-01-21 03:50:35.93	50.85	64.83	-38.9	-39.7	22.2	0.00e+00	0	44	0	2213543936	48	3912
2026-01-21 03:50:36.93	51.52	65.18	-38.6	-39.4	22.2	0.00e+00	0	44	0	2220883968	47	3989
2026-01-21 03:50:37.92	52.20	65.53	-38.3	-39.1	22.4	0.00e+00	0	44	0	2228224000	47	3844
2026-01-21 03:50:38.92	52.91	65.88	-38.2	-39.0	22.4	0.00e+00	0	44	0	2235564032	47	3808
2026-01-21 03:50:39.91	53.63	66.23	-38.3	-39.1	22.4	0.00e+00	0	44	0	2241855488	47	3832
2026-01-21 03:50:40.91	54.39	66.58	-38.2	-39.0	22.5	0.00e+00	0	44	0	2249195520	47	3823
2026-01-21 03:50:41.92	55.18	66.92	-38.2	-39.0	22.5	0.00e+00	0	44	0	2256535552	46	4039
2026-01-21 03:50:42.93	55.99	67.27	-38.2	-39.1	22.5	0.00e+00	0	44	0	2263875584	46	4057
2026-01-21 03:50:43.94	56.84	67.61	-38.4	-39.2	22.3	0.00e+00	0	44	0	2271215616	46	4119
2026-01-21 03:50:44.98	57.73	67.96	-38.6	-39.5	22.0	0.00e+00	0	44	0	2278555648	46	4271
2026-01-21 03:50:45.98	58.63	68.30	-38.8	-39.7	21.9	0.00e+00	0	44	0	2285895680	47	4135
2026-01-21 03:50:46.98	59.55	68.62	-38.6	-39.4	22.0	0.00e+00	0	44	0	2293235712	47	3997
2026-01-21 03:50:47.97	60.49	68.95	-38.7	-39.5	22.0	0.00e+00	0	44	0	2300575744	47	4049
2026-01-21 03:50:48.96	61.47	69.26	-38.6	-39.5	22.0	0.00e+00	0	44	0	2307915776	47	4010
2026-01-21 03:50:49.96	62.48	69.58	-38.5	-39.3	22.2	0.00e+00	0	44	0	2315255808	47	3955
2026-01-21 03:50:50.95	63.52	69.89	-38.5	-39.4	22.2	0.00e+00	0	44	0	2321547264	47	3967
2026-01-21 03:50:51.95	64.61	70.19	-38.4	-39.2	22.3	0.00e+00	0	44	0	2328887296	47	3912
2026-01-21 03:50:52.94	65.72	70.49	-38.3	-39.2	22.2	0.00e+00	0	44	0	2336227328	47	3870
2026-01-21 03:50:53.94	66.88	70.78	-38.6	-39.4	22.1	0.00e+00	0	44	0	2343567360	47	3997
2026-01-21 03:50:54.93	68.06	71.06	-38.7	-39.6	22.0	0.00e+00	0	44	0	2350907392	47	4059
2026-01-21 03:50:55.93	69.30	71.34	-38.7	-39.5	22.0	0.00e+00	0	44	0	2358247424	47	4038
2026-01-21 03:50:56.92	70.56	71.61	-38.4	-39.2	22.3	0.00e+00	0	44	0	2365587456	47	3904
2026-01-21 03:50:57.91	71.86	71.87	-38.2	-39.0	22.4	0.00e+00	0	44	0	2371878912	47	3823
2026-01-21 03:50:58.91	73.21	72.13	-38.1	-38.9	22.5	0.00e+00	0	44	0	2379218944	46	3987
2026-01-21 03:50:59.90	74.59	72.37	-38.2	-39.0	22.5	0.00e+00	0	44	0	2386558976	46	4019
2026-01-21 03:51:00.90	76.02	72.61	-38.1	-38.9	22.5	0.00e+00	0	44	0	2393899008	46	3987
2026-01-21 03:51:01.90	77.50	72.84	-38.2	-39.0	22.5	0.00e+00	0	44	0	2401239040	46	4040
2026-01-21 03:51:02.89	78.99	73.05	-38.3	-39.1	22.4	0.00e+00	0	44	0	2408579072	46	4086
2026-01-21 03:51:03.88	80.53	73.25	-38.2	-39.0	22.4	0.00e+00	0	44	0	2415919104	46	4033
2026-01-21 03:51:04.88	82.13	73.45	-38.0	-38.8	22.6	0.00e+00	0	44	0	2422210560	46	3942
2026-01-21 03:51:05.87	83.74	73.63	-38.0	-38.8	22.6	0.00e+00	0	44	0	2429550592	46	3934
2026-01-21 03:51:06.86	85.39	73.79	-38.2	-39.0	22.4	0.00e+00	0	44	0	2436890624	46	4045
2026-01-21 03:51:07.86	87.09	73.95	-38.4	-39.3	22.3	0.00e+00	0	44	0	2444230656	46	4164
2026-01-21 03:51:08.85	88.81	74.09	-38.1	-38.9	22.4	0.00e+00	0	44	0	2451570688	46	3988
2026-01-21 03:51:09.85	90.58	74.22	-38.0	-38.8	22.6	0.00e+00	0	44	0	2458910720	46	3940
2026-01-21 03:51:10.84	92.35	74.33	-37.8	-38.6	22.8	0.00e+00	0	44	0	2465202176	46	3859
2026-01-21 03:51:11.84	94.18	74.43	-37.9	-38.7	22.7	0.00e+00	0	44	0	2472542208	46	3898
2026-01-21 03:51:12.83	96.00	74.51	-37.9	-38.7	22.8	0.00e+00	0	44	0	2479882240	46	3883
2026-01-21 03:51:13.84	97.88	74.58	-37.7	-38.5	22.8	0.00e+00	0	44	0	2487222272	46	3812
2026-01-21 03:51:14.85	99.78	74.64	-37.5	-38.3	23.0	0.00e+00	0	44	0	2494562304	45	3935
2026-01-21 03:51:15.86	101.68	74.67	-37.6	-38.4	22.9	0.00e+00	0	44	0	2501902336	45	3972
2026-01-21 03:51:16.86	103.58	74.69	-37.6	-38.4	22.9	0.00e+00	0	44	0	2509242368	45	3977
2026-01-21 03:51:17.92	105.59	74.70	-37.7	-38.6	22.8	0.00e+00	0	44	0	2516582400	45	4056
2026-01-21 03:51:18.83	107.32	74.69	-37.7	-38.5	22.8	0.00e+00	0	44	0	2522873856	45	4042
2026-01-21 03:51:19.97	109.48	74.66	-38.0	-38.8	22.7	0.00e+00	0	44	0	2531262464	45	4164
2026-01-21 03:51:20.82	111.08	74.62	-38.0	-38.9	22.6	0.00e+00	0	44	0	2537553920	45	4205
2026-01-21 03:51:21.96	113.22	74.55	-37.9	-38.7	22.7	0.00e+00	0	44	0	2545942528	45	4128
2026-01-21 03:51:22.81	114.79	74.49	-38.0	-38.8	22.6	0.00e+00	0	44	0	2552233984	45	4159
2026-01-21 03:51:23.95	116.89	74.38	-38.1	-38.9	22.3	0.00e+00	0	44	0	2560622592	45	4235
2026-01-21 03:51:24.80	118.42	74.29	-38.4	-39.2	22.3	0.00e+00	0	44	0	2565865472	46	4144
2026-01-21 03:51:25.94	120.46	74.16	-38.6	-39.4	22.2	0.00e+00	0	44	0	2574254080	46	4222
2026-01-21 03:51:26.79	121.95	74.04	-38.4	-39.2	22.3	0.00e+00	0	44	0	2580545536	46	4125
2026-01-21 03:51:27.93	123.92	73.87	-37.9	-38.7	22.7	0.00e+00	0	44	0	2588934144	46	3906
2026-01-21 03:51:28.78	125.35	73.74	-38.0	-38.8	22.4	0.00e+00	0	44	0	2595225600	46	3919
2026-01-21 03:51:29.92	127.24	73.54	-38.1	-38.9	22.5	0.00e+00	0	44	0	2603614208	46	3994
2026-01-21 03:51:30.78	128.63	73.38	-38.5	-39.3	22.2	0.00e+00	0	44	0	2609905664	46	4179
2026-01-21 03:51:32.10	130.70	73.12	-38.6	-39.5	22.0	0.00e+00	0	44	0	2619342848	46	4248
2026-01-21 03:51:32.81	131.79	72.97	-38.7	-39.5	22.0	0.00e+00	0	44	0	2624585728	46	4275
2026-01-21 03:51:34.09	133.70	72.68	-38.6	-39.4	22.1	0.00e+00	0	44	0	2632974336	46	4235
2026-01-21 03:51:34.80	134.74	72.52	-38.8	-39.6	21.9	0.00e+00	0	44	0	2638217216	46	4328
2026-01-21 03:51:36.08	136.55	72.21	-38.9	-39.7	21.8	0.00e+00	0	44	0	2647654400	47	4139
2026-01-21 03:51:36.79	137.52	72.03	-38.7	-39.5	21.9	0.00e+00	0	44	0	2652897280	47	4039
2026-01-21 03:51:38.07	139.23	71.69	-38.8	-39.7	21.9	0.00e+00	0	44	0	2662334464	47	4112
2026-01-21 03:51:38.88	140.27	71.48	-38.9	-39.7	21.8	0.00e+00	0	44	0	2668625920	47	4123
2026-01-21 03:51:40.01	141.69	71.16	-39.2	-40.1	21.9	0.00e+00	0	44	0	2675965952	48	4054
2026-01-21 03:51:40.86	142.72	70.92	-39.0	-39.9	22.1	0.00e+00	0	44	0	2682257408	48	3961
2026-01-21 03:51:42.00	144.06	70.59	-38.6	-39.4	22.5	0.00e+00	0	44	0	2690646016	48	3773
2026-01-21 03:51:42.85	145.02	70.34	-38.6	-39.5	22.1	0.00e+00	0	44	0	2696937472	47	4018
2026-01-21 03:51:43.99	146.28	69.99	-38.8	-39.7	21.9	0.00e+00	0	44	0	2705326080	47	4129
2026-01-21 03:51:44.84	147.19	69.73	-38.9	-39.8	21.8	0.00e+00	0	44	0	2710568960	47	4157
2026-01-21 03:51:45.98	148.37	69.37	-38.8	-39.6	22.0	0.00e+00	0	44	0	2718957568	47	4077
2026-01-21 03:51:46.83	149.22	69.10	-38.6	-39.4	22.1	0.00e+00	0	44	0	2725249024	47	3997
2026-01-21 03:51:47.96	150.31	68.73	-38.6	-39.4	22.0	0.00e+00	0	44	0	2733637632	47	3996
2026-01-21 03:51:48.81	151.11	68.46	-38.7	-39.5	22.1	0.00e+00	0	44	0	2739929088	47	4028
2026-01-21 03:51:49.95	152.14	68.08	-38.8	-39.6	22.0	0.00e+00	0	44	0	2748317696	47	4079
2026-01-21 03:51:50.81	152.89	67.79	-38.8	-39.6	21.9	0.00e+00	0	44	0	2753560576	47	4084
2026-01-21 03:51:51.95	153.86	67.40	-38.5	-39.3	22.1	0.00e+00	0	44	0	2761949184	47	3958
2026-01-21 03:51:52.80	154.56	67.11	-38.3	-39.1	22.3	0.00e+00	0	44	0	2768240640	47	3854
2026-01-21 03:51:53.94	155.47	66.72	-38.4	-39.2	22.3	0.00e+00	0	44	0	2776629248	47	3889
2026-01-21 03:51:54.79	156.12	66.43	-38.7	-39.5	22.0	0.00e+00	0	44	0	2782920704	47	4028
2026-01-21 03:51:55.93	156.97	66.03	-38.6	-39.4	22.1	0.00e+00	0	44	0	2791309312	47	3988
2026-01-21 03:51:56.78	157.59	65.73	-38.4	-39.2	22.3	0.00e+00	0	44	0	2797600768	47	3890
2026-01-21 03:51:57.92	158.38	65.33	-38.1	-38.9	22.5	0.00e+00	0	44	0	2804940800	46	3987
2026-01-21 03:51:58.77	158.96	65.03	-38.3	-39.1	22.4	0.00e+00	0	44	0	2811232256	46	4066
2026-01-21 03:51:59.90	159.70	64.62	-38.6	-39.5	22.1	0.00e+00	0	44	0	2819620864	46	4262
2026-01-21 03:52:00.76	160.25	64.32	-38.6	-39.5	22.0	0.00e+00	0	44	0	2825912320	46	4257
2026-01-21 03:52:01.89	160.95	63.91	-38.5	-39.3	22.2	0.00e+00	0	44	0	2834300928	46	4181
2026-01-21 03:52:02.78	161.48	63.59	-38.4	-39.2	22.3	0.00e+00	0	44	0	2840592384	46	4145
2026-01-21 03:52:04.10	162.25	63.12	-38.7	-39.6	22.0	0.00e+00	0	44	0	2850029568	46	4293
2026-01-21 03:52:04.81	162.65	62.86	-38.9	-39.7	21.9	0.00e+00	0	44	0	2855272448	47	4129
2026-01-21 03:52:06.09	163.35	62.40	-39.4	-40.3	21.8	0.00e+00	0	44	0	2864709632	48	4158
2026-01-21 03:52:06.80	163.72	62.15	-39.5	-40.4	21.6	0.00e+00	0	44	0	2869952512	48	4232
2026-01-21 03:52:08.08	164.38	61.68	-39.5	-40.3	21.7	0.00e+00	0	44	0	2879389696	48	4178
2026-01-21 03:52:08.90	164.79	61.39	-39.5	-40.4	21.6	0.00e+00	0	44	0	2884632576	48	4219
2026-01-21 03:52:10.04	165.34	60.98	-40.3	-41.0	21.4	0.00e+00	0	44	0	2893021184	49	4262
2026-01-21 03:52:10.89	165.75	60.67	-39.9	-40.7	21.3	0.00e+00	0	44	0	2899312640	49	4142
2026-01-21 03:52:12.02	166.26	60.27	-40.1	-40.9	21.2	0.00e+00	0	44	0	2907701248	49	4234
2026-01-21 03:52:12.88	166.65	59.96	-40.1	-41.0	21.1	0.00e+00	0	44	0	2913992704	49	4252
2026-01-21 03:52:14.01	167.14	59.55	-40.1	-41.0	20.9	0.00e+00	0	44	0	2921332736	49	4270
2026-01-21 03:52:14.87	167.50	59.24	-40.0	-40.9	21.2	0.00e+00	0	44	0	2927624192	49	4202
2026-01-21 03:52:16.00	167.97	58.84	-39.8	-40.6	21.3	0.00e+00	0	44	0	2936012800	49	4097
2026-01-21 03:52:16.85	168.31	58.54	-39.9	-40.8	21.3	0.00e+00	0	44	0	2942304256	49	4165
2026-01-21 03:52:18.07	168.78	58.10	-40.0	-40.9	21.1	0.00e+00	0	44	0	2950692864	49	4224
2026-01-21 03:52:18.92	169.10	57.80	-40.0	-40.9	21.3	0.00e+00	0	44	0	2956984320	49	4208
2026-01-21 03:52:20.12	169.55	57.38	-39.9	-40.8	21.3	0.00e+00	0	44	0	2965372928	49	4162
2026-01-21 03:52:20.97	169.85	57.08	-39.9	-40.8	21.3	0.00e+00	0	44	0	2971664384	49	4148
2026-01-21 03:52:22.11	170.25	56.68	-39.7	-40.6	21.5	0.00e+00	0	44	0	2980052992	49	4055
2026-01-21 03:52:22.97	170.55	56.37	-39.8	-40.6	21.3	0.00e+00	0	44	0	2986344448	49	4094
2026-01-21 03:52:24.10	170.92	55.98	-40.1	-41.0	21.1	0.00e+00	0	44	0	2994733056	49	4254
2026-01-21 03:52:24.96	171.20	55.68	-40.2	-41.1	21.1	0.00e+00	0	44	0	3001024512	49	4295
2026-01-21 03:52:26.09	171.56	55.29	-40.2	-41.1	21.0	0.00e+00	0	44	0	3008364544	50	4067
2026-01-21 03:52:26.95	171.83	54.99	-40.2	-41.0	21.0	0.00e+00	0	44	0	3014656000	50	4042
2026-01-21 03:52:28.08	172.17	54.61	-40.1	-41.0	21.0	0.00e+00	0	44	0	3023044608	50	4022
2026-01-21 03:52:28.94	172.43	54.31	-40.1	-40.9	21.3	0.00e+00	0	44	0	3029336064	50	3989
2026-01-21 03:52:30.07	172.75	53.93	-40.0	-40.9	21.2	0.00e+00	0	44	0	3037724672	50	3992
2026-01-21 03:52:30.93	173.00	53.63	-40.2	-41.1	21.1	0.00e+00	0	44	0	3044016128	50	4052
2026-01-21 03:52:32.06	173.31	53.25	-40.0	-40.9	21.2	0.00e+00	0	44	0	3051356160	50	3962
2026-01-21 03:52:32.91	173.54	52.97	-39.8	-40.7	21.4	0.00e+00	0	44	0	3057647616	50	3882
2026-01-21 03:52:34.05	173.84	52.59	-39.7	-40.6	21.4	0.00e+00	0	44	0	3066036224	50	3829
2026-01-21 03:52:34.91	174.06	52.30	-39.7	-40.6	21.5	0.00e+00	0	44	0	3072327680	50	3832
2026-01-21 03:52:36.09	174.36	51.91	-39.9	-40.8	21.3	0.00e+00	0	44	0	3080716288	50	3934
2026-01-21 03:52:37.35	174.67	51.50	-39.8	-40.7	21.4	0.00e+00	0	44	0	3090153472	50	3898
2026-01-21 03:52:38.33	174.90	51.18	-39.6	-40.5	21.6	0.00e+00	0	44	0	3097493504	50	3803
2026-01-21 03:52:39.33	175.14	50.85	-39.5	-40.4	21.6	0.00e+00	0	44	0	3104833536	49	3980
2026-01-21 03:52:40.32	175.37	50.53	-39.4	-40.3	21.8	0.00e+00	0	44	0	3112173568	49	3927
2026-01-21 03:52:41.32	175.59	50.21	-39.5	-40.3	21.7	0.00e+00	0	44	0	3118465024	49	3943
2026-01-21 03:52:42.31	175.81	49.89	-39.6	-40.5	21.5	0.00e+00	0	44	0	3125805056	49	4012
2026-01-21 03:52:43.31	176.03	49.58	-39.7	-40.6	21.4	0.00e+00	0	44	0	3133145088	49	4070
2026-01-21 03:52:44.30	176.23	49.26	-39.9	-40.7	21.2	0.00e+00	0	44	0	3140485120	49	4134
2026-01-21 03:52:45.30	176.44	48.95	-39.8	-40.7	21.4	0.00e+00	0	44	0	3147825152	49	4115
2026-01-21 03:52:46.29	176.64	48.64	-39.7	-40.5	21.5	0.00e+00	0	44	0	3154116608	49	4047
2026-01-21 03:52:47.29	176.84	48.33	-39.6	-40.5	21.0	0.00e+00	0	44	0	3161456640	49	4022
2026-01-21 03:52:48.33	177.05	48.01	-39.3	-40.1	21.9	0.00e+00	0	44	0	3169845248	49	3840
2026-01-21 03:52:49.34	177.24	47.70	-39.1	-39.9	22.0	0.00e+00	0	44	0	3176136704	48	4002
2026-01-21 03:52:50.33	177.43	47.40	-39.2	-40.0	21.9	0.00e+00	0	44	0	3183476736	48	4051
2026-01-21 03:52:51.33	177.61	47.09	-39.1	-40.0	22.0	0.00e+00	0	44	0	3190816768	48	4007
2026-01-21 03:52:52.32	177.79	46.79	-39.1	-40.0	21.9	0.00e+00	0	44	0	3198156800	48	4019
2026-01-21 03:52:53.32	177.97	46.50	-39.1	-40.0	22.0	0.00e+00	0	44	0	3205496832	48	4006
2026-01-21 03:52:54.31	178.14	46.20	-39.1	-39.9	22.0	0.00e+00	0	44	0	3212836864	48	3994
2026-01-21 03:52:55.31	178.31	45.90	-39.0	-39.8	22.1	0.00e+00	0	44	0	3219128320	48	3927
2026-01-21 03:52:56.30	178.48	45.61	-38.9	-39.7	22.2	0.00e+00	0	44	0	3226468352	48	3888
2026-01-21 03:52:57.30	178.64	45.32	-38.9	-39.7	22.1	0.00e+00	0	44	0	3233808384	48	3895
2026-01-21 03:52:58.29	178.80	45.03	-38.6	-39.5	21.4	0.00e+00	0	44	0	3241148416	47	4016
2026-01-21 03:52:59.28	178.96	44.75	-38.5	-39.3	22.2	0.00e+00	0	44	0	3248488448	47	3950
2026-01-21 03:53:00.28	179.12	44.46	-38.3	-39.1	22.3	0.00e+00	0	44	0	3255828480	47	3865
2026-01-21 03:53:01.28	179.27	44.18	-38.3	-39.1	22.3	0.00e+00	0	44	0	3263168512	47	3867
2026-01-21 03:53:02.27	179.42	43.90	-38.3	-39.1	22.3	0.00e+00	0	44	0	3270508544	47	3855
2026-01-21 03:53:03.27	179.57	43.62	-38.4	-39.3	22.1	0.00e+00	0	44	0	3277848576	47	3920
2026-01-21 03:53:04.26	179.71	43.34	-38.5	-39.3	22.1	0.00e+00	0	44	0	3284140032	47	3953
2026-01-21 03:53:05.26	179.86	43.06	-38.4	-39.2	21.8	0.00e+00	0	44	0	3291480064	47	3899
2026-01-21 03:53:06.25	180.00	42.79	-38.4	-39.2	22.1	0.00e+00	0	44	0	3298820096	47	3892
2026-01-21 03:53:07.34	180.15	42.49	-38.4	-39.2	22.2	0.00e+00	0	44	0	3306160128	47	3912
2026-01-21 03:53:08.23	180.27	42.25	-38.2	-39.0	22.4	0.00e+00	0	44	0	3313500160	47	3807
2026-01-21 03:53:09.36	180.42	41.95	-38.1	-39.0	22.4	0.00e+00	0	44	0	3320840192	46	4014
2026-01-21 03:53:10.28	180.54	41.70	-38.1	-39.0	22.4	0.00e+00	0	44	0	3328180224	46	4012
2026-01-21 03:53:11.45	180.70	41.39	-38.1	-38.9	22.5	0.00e+00	0	44	0	3336568832	46	3987
2026-01-21 03:53:12.30	180.81	41.16	-38.2	-39.0	22.4	0.00e+00	0	44	0	3341811712	46	4020
2026-01-21 03:53:13.44	180.95	40.86	-38.3	-39.1	22.3	0.00e+00	0	44	0	3350200320	46	4068
2026-01-21 03:53:14.29	181.05	40.64	-38.3	-39.1	22.2	0.00e+00	0	44	0	3356491776	46	4096
2026-01-21 03:53:15.43	181.19	40.35	-38.5	-39.4	22.1	0.00e+00	0	44	0	3364880384	46	4215
2026-01-21 03:53:16.28	181.30	40.13	-38.7	-39.5	21.9	0.00e+00	0	44	0	3371171840	46	4290
2026-01-21 03:53:17.42	181.43	39.84	-38.8	-39.7	21.8	0.00e+00	0	44	0	3379560448	47	4131
2026-01-21 03:53:18.27	181.53	39.62	-38.9	-39.8	21.7	0.00e+00	0	44	0	3385851904	47	4156
2026-01-21 03:53:19.41	181.66	39.33	-38.9	-39.8	21.6	0.00e+00	0	44	0	3393191936	47	4158
2026-01-21 03:53:20.26	181.76	39.12	-38.8	-39.7	21.8	0.00e+00	0	44	0	3399483392	47	4110
2026-01-21 03:53:21.40	181.88	38.84	-38.7	-39.5	21.9	0.00e+00	0	44	0	3407872000	47	4038
2026-01-21 03:53:22.25	181.98	38.63	-38.5	-39.3	22.1	0.00e+00	0	44	0	3414163456	47	3957
2026-01-21 03:53:23.47	182.11	38.33	-38.3	-39.1	22.2	0.00e+00	0	44	0	3423600640	47	3858
2026-01-21 03:53:24.32	182.20	38.12	-38.1	-38.9	22.5	0.00e+00	0	44	0	3428843520	47	3779
2026-01-21 03:53:25.52	182.33	37.83	-38.1	-38.9	22.5	0.00e+00	0	44	0	3438280704	46	4004
2026-01-21 03:53:26.37	182.41	37.63	-38.0	-38.9	22.5	0.00e+00	0	44	0	3444572160	46	3959
2026-01-21 03:53:27.57	182.54	37.34	-37.9	-38.7	22.6	0.00e+00	0	44	0	3452960768	46	3886
2026-01-21 03:53:28.42	182.62	37.14	-37.9	-38.7	22.7	0.00e+00	0	44	0	3459252224	46	3884
2026-01-21 03:53:29.62	182.74	36.85	-38.0	-38.8	22.6	0.00e+00	0	44	0	3467640832	46	3935
2026-01-21 03:53:30.47	182.82	36.66	-38.0	-38.8	22.5	0.00e+00	0	44	0	3473932288	46	3938
2026-01-21 03:53:31.61	182.93	36.39	-38.0	-38.8	22.5	0.00e+00	0	44	0	3481272320	46	3958
2026-01-21 03:53:32.46	183.02	36.20	-38.1	-39.0	22.4	0.00e+00	0	44	0	3487563776	46	4022
2026-01-21 03:53:33.68	183.13	35.92	-38.2	-39.1	22.3	0.00e+00	0	44	0	3497000960	46	4062
2026-01-21 03:53:34.53	183.21	35.72	-38.2	-39.1	22.3	0.00e+00	0	44	0	3503292416	46	4052
2026-01-21 03:53:35.70	183.31	35.46	-38.2	-39.0	22.4	0.00e+00	0	44	0	3511681024	46	4039
2026-01-21 03:53:36.55	183.39	35.27	-38.1	-39.0	22.4	0.00e+00	0	44	0	3516923904	46	4017
2026-01-21 03:53:37.69	183.49	35.01	-38.1	-38.9	22.5	0.00e+00	0	44	0	3525312512	46	3973
2026-01-21 03:53:38.54	183.57	34.82	-38.0	-38.9	22.5	0.00e+00	0	44	0	3531603968	46	3964
2026-01-21 03:53:39.68	183.67	34.57	-37.9	-38.7	22.4	0.00e+00	0	44	0	3539992576	46	3902
2026-01-21 03:53:40.53	183.74	34.39	-37.9	-38.7	22.6	0.00e+00	0	44	0	3546284032	46	3890
2026-01-21 03:53:41.67	183.83	34.14	-37.9	-38.7	22.6	0.00e+00	0	44	0	3554672640	46	3904
2026-01-21 03:53:42.58	183.91	33.95	-37.9	-38.7	22.6	0.00e+00	0	44	0	3560964096	46	3911
2026-01-21 03:53:43.76	184.01	33.69	-37.9	-38.8	22.6	0.00e+00	0	44	0	3569352704	46	3915
2026-01-21 03:53:44.63	184.08	33.51	-37.9	-38.7	22.6	0.00e+00	0	44	0	3575644160	46	3903
2026-01-21 03:53:45.94	184.18	33.23	-38.0	-38.8	22.6	0.00e+00	0	44	0	3585081344	46	3932
2026-01-21 03:53:46.65	184.24	33.08	-37.9	-38.8	22.5	0.00e+00	0	44	0	3590324224	46	3921
2026-01-21 03:53:48.14	184.36	32.77	-38.1	-38.9	22.4	0.00e+00	0	44	0	3600809984	46	3999
2026-01-21 03:53:48.85	184.41	32.63	-38.2	-39.0	22.4	0.00e+00	0	44	0	3606052864	46	4024
2026-01-21 03:53:50.21	184.51	32.35	-38.1	-39.0	22.4	0.00e+00	0	44	0	3615490048	46	4016
2026-01-21 03:53:50.92	184.57	32.20	-38.0	-38.9	22.3	0.00e+00	0	44	0	3621781504	46	3964
2026-01-21 03:53:52.20	184.66	31.94	-38.1	-38.9	22.5	0.00e+00	0	44	0	3630170112	46	3988
2026-01-21 03:53:53.24	184.74	31.73	-38.2	-39.0	22.4	0.00e+00	0	44	0	3637510144	46	4027
2026-01-21 03:53:54.23	184.81	31.54	-38.2	-39.1	22.3	0.00e+00	0	44	0	3644850176	46	4058
2026-01-21 03:53:55.22	184.88	31.34	-38.3	-39.1	22.2	0.00e+00	0	44	0	3652190208	46	4090
2026-01-21 03:53:56.22	184.95	31.14	-38.3	-39.1	22.3	0.00e+00	0	44	0	3659530240	46	4083
2026-01-21 03:53:57.21	185.02	30.95	-38.2	-39.1	22.3	0.00e+00	0	44	0	3666870272	46	4062
2026-01-21 03:53:58.20	185.09	30.76	-38.2	-39.1	22.3	0.00e+00	0	44	0	3673161728	46	4071
2026-01-21 03:53:59.20	185.16	30.56	-38.3	-39.2	22.3	0.00e+00	0	44	0	3680501760	46	4102
2026-01-21 03:54:00.20	185.22	30.37	-38.3	-39.1	22.3	0.00e+00	0	44	0	3687841792	46	4092
2026-01-21 03:54:01.19	185.29	30.18	-38.3	-39.1	22.3	0.00e+00	0	44	0	3695181824	46	4086
2026-01-21 03:54:02.23	185.36	29.99	-38.3	-39.2	22.3	0.00e+00	0	44	0	3702521856	46	4099
2026-01-21 03:54:03.23	185.42	29.80	-38.4	-39.2	22.2	0.00e+00	0	44	0	3709861888	46	4130
2026-01-21 03:54:04.28	185.49	29.60	-38.4	-39.3	22.2	0.00e+00	0	44	0	3717201920	46	4161
2026-01-21 03:54:05.15	185.55	29.44	-38.3	-39.2	22.2	0.00e+00	0	44	0	3723493376	46	4106
2026-01-21 03:54:06.48	185.63	29.19	-38.4	-39.2	22.2	0.00e+00	0	44	0	3733979136	46	4117
2026-01-21 03:54:07.19	185.68	29.06	-38.5	-39.3	22.1	0.00e+00	0	44	0	3738173440	46	4183
2026-01-21 03:54:08.67	185.77	28.79	-38.4	-39.2	22.1	0.00e+00	0	44	0	3749707776	46	4145
2026-01-21 03:54:09.38	185.81	28.67	-38.4	-39.2	22.2	0.00e+00	0	44	0	3754950656	46	4132
2026-01-21 03:54:10.72	185.89	28.42	-38.4	-39.2	22.2	0.00e+00	0	44	0	3764387840	46	4143
2026-01-21 03:54:11.43	185.93	28.30	-38.4	-39.2	22.2	0.00e+00	0	44	0	3769630720	46	4135
2026-01-21 03:54:12.78	186.01	28.06	-38.4	-39.2	22.2	0.00e+00	0	44	0	3779067904	46	4142
2026-01-21 03:54:13.49	186.06	27.93	-38.4	-39.2	22.2	0.00e+00	0	44	0	3784310784	46	4143
2026-01-21 03:54:14.83	186.13	27.70	-38.4	-39.2	22.2	0.00e+00	0	44	0	3793747968	46	4136
2026-01-21 03:54:15.54	186.17	27.57	-38.4	-39.2	22.2	0.00e+00	0	44	0	3798990848	46	4125
2026-01-21 03:54:16.82	186.25	27.35	-38.4	-39.2	22.1	0.00e+00	0	44	0	3808428032	46	4141
2026-01-21 03:54:17.55	186.29	27.23	-38.3	-39.2	22.2	0.00e+00	0	44	0	3813670912	46	4104
2026-01-21 03:54:18.83	186.36	27.01	-38.5	-39.3	22.1	0.00e+00	0	44	0	3823108096	46	4176
2026-01-21 03:54:19.54	186.40	26.89	-38.4	-39.3	22.1	0.00e+00	0	44	0	3827302400	46	4158
2026-01-21 03:54:20.82	186.47	26.67	-38.4	-39.3	22.1	0.00e+00	0	44	0	3836739584	46	4153
2026-01-21 03:54:21.53	186.50	26.55	-38.5	-39.4	22.0	0.00e+00	0	44	0	3841982464	46	4210
2026-01-21 03:54:22.81	186.57	26.34	-38.5	-39.4	22.0	0.00e+00	0	44	0	3851419648	46	4204
2026-01-21 03:54:23.53	186.61	26.22	-38.6	-39.4	22.0	0.00e+00	0	44	0	3856662528	46	4233
2026-01-21 03:54:24.81	186.68	26.01	-38.7	-39.6	21.8	0.00e+00	0	44	0	3866099712	46	4309
2026-01-21 03:54:25.62	186.72	25.88	-38.7	-39.6	21.9	0.00e+00	0	44	0	3871342592	46	4308
2026-01-21 03:54:26.75	186.78	25.69	-38.8	-39.6	21.8	0.00e+00	0	44	0	3879731200	47	4087
2026-01-21 03:54:27.78	186.83	25.53	-38.8	-39.7	21.7	0.00e+00	0	44	0	3887071232	47	4128
2026-01-21 03:54:28.96	186.89	25.34	-38.8	-39.7	21.8	0.00e+00	0	44	0	3895459840	47	4131
2026-01-21 03:54:29.82	186.93	25.20	-38.8	-39.7	21.8	0.00e+00	0	44	0	3901751296	47	4104
2026-01-21 03:54:30.96	186.99	25.02	-38.8	-39.7	21.6	0.00e+00	0	44	0	3910139904	47	4121
2026-01-21 03:54:31.81	187.03	24.88	-38.8	-39.7	21.7	0.00e+00	0	44	0	3916431360	47	4129
2026-01-21 03:54:32.94	187.08	24.71	-38.9	-39.8	21.5	0.00e+00	0	44	0	3924819968	47	4166
2026-01-21 03:54:33.79	187.12	24.57	-38.8	-39.7	21.8	0.00e+00	0	44	0	3931111424	47	4117
2026-01-21 03:54:34.93	187.18	24.40	-38.8	-39.7	21.7	0.00e+00	0	44	0	3938451456	47	4106
2026-01-21 03:54:35.78	187.22	24.27	-38.8	-39.6	21.8	0.00e+00	0	44	0	3944742912	47	4097
2026-01-21 03:54:36.92	187.27	24.09	-38.7	-39.6	21.8	0.00e+00	0	44	0	3953131520	47	4065
2026-01-21 03:54:37.77	187.31	23.96	-38.8	-39.6	21.8	0.00e+00	0	44	0	3959422976	47	4089
2026-01-21 03:54:39.02	187.37	23.77	-38.7	-39.5	21.9	0.00e+00	0	44	0	3968860160	47	4039
2026-01-21 03:54:39.88	187.41	23.64	-38.6	-39.5	21.9	0.00e+00	0	44	0	3975151616	47	4018
2026-01-21 03:54:41.01	187.46	23.47	-38.6	-39.5	21.9	0.00e+00	0	44	0	3982491648	47	4024
2026-01-21 03:54:41.87	187.50	23.34	-38.7	-39.5	21.9	0.00e+00	0	44	0	3988783104	47	4042
2026-01-21 03:54:43.11	187.55	23.16	-38.6	-39.4	21.9	0.00e+00	0	44	0	3998220288	47	3986
2026-01-21 03:54:43.97	187.59	23.03	-38.6	-39.4	22.0	0.00e+00	0	44	0	4004511744	47	3980
2026-01-21 03:54:45.11	187.64	22.87	-38.6	-39.4	22.0	0.00e+00	0	44	0	4011851776	47	3980
2026-01-21 03:54:45.96	187.67	22.74	-38.5	-39.4	22.0	0.00e+00	0	44	0	4018143232	47	3960
2026-01-21 03:54:47.10	187.72	22.58	-38.6	-39.4	22.0	0.00e+00	0	44	0	4026531840	47	3987
2026-01-21 03:54:47.95	187.76	22.46	-38.5	-39.4	22.0	0.00e+00	0	44	0	4032823296	47	3974
2026-01-21 03:54:49.08	187.81	22.29	-38.6	-39.4	21.9	0.00e+00	0	44	0	4041211904	47	3997
2026-01-21 03:54:49.94	187.84	22.17	-38.5	-39.4	22.0	0.00e+00	0	44	0	4047503360	47	3968
2026-01-21 03:54:51.07	187.89	22.01	-38.6	-39.5	21.9	0.00e+00	0	44	0	4055891968	47	4006
2026-01-21 03:54:51.93	187.92	21.89	-38.6	-39.5	21.6	0.00e+00	0	44	0	4061134848	47	4026
2026-01-21 03:54:53.07	187.97	21.73	-38.7	-39.6	21.8	0.00e+00	0	44	0	4069523456	47	4078
2026-01-21 03:54:54.13	188.01	21.58	-38.7	-39.5	21.8	0.00e+00	0	44	0	4077912064	47	4040
2026-01-21 03:54:54.99	188.05	21.46	-38.6	-39.5	21.9	0.00e+00	0	44	0	4083154944	47	4013
2026-01-21 03:54:56.13	188.09	21.31	-38.7	-39.5	21.8	0.00e+00	0	44	0	4091543552	47	4034
2026-01-21 03:54:57.22	188.13	21.16	-38.7	-39.6	21.8	0.00e+00	0	44	0	4099932160	47	4060
2026-01-21 03:54:58.07	188.17	21.04	-38.8	-39.7	21.7	0.00e+00	0	44	0	4106223616	47	4121
2026-01-21 03:54:59.21	188.21	20.89	-38.8	-39.6	21.7	0.00e+00	0	44	0	4113563648	47	4092
2026-01-21 03:55:00.06	188.24	20.77	-38.8	-39.6	21.7	0.00e+00	0	44	0	4119855104	47	4095
2026-01-21 03:55:01.20	188.29	20.62	-38.9	-39.8	21.6	0.00e+00	0	44	0	4128243712	47	4158
2026-01-21 03:55:02.05	188.32	20.51	-38.9	-39.8	21.6	0.00e+00	0	44	0	4134535168	47	4183
2026-01-21 03:55:03.19	188.36	20.36	-38.9	-39.8	21.6	0.00e+00	0	44	0	4142923776	47	4178
2026-01-21 03:55:04.04	188.39	20.24	-39.0	-39.9	21.6	0.00e+00	0	44	0	4149215232	47	4198
2026-01-21 03:55:05.17	188.43	20.10	-39.0	-39.9	21.5	0.00e+00	0	44	0	4157603840	47	4225
2026-01-21 03:55:06.03	188.47	19.98	-39.0	-39.9	21.5	0.00e+00	0	44	0	4163895296	47	4224
2026-01-21 03:55:07.16	188.51	19.84	-39.0	-39.9	21.5	0.00e+00	0	44	0	4171235328	47	4223
2026-01-21 03:55:08.03	188.54	19.72	-39.2	-40.1	21.4	0.00e+00	0	44	0	4177526784	47	4294
2026-01-21 03:55:09.17	188.58	19.58	-39.1	-39.9	21.4	0.00e+00	0	44	0	4185915392	47	4242
2026-01-21 03:55:10.02	188.61	19.47	-39.1	-40.0	21.4	0.00e+00	0	44	0	4192206848	47	4253
2026-01-21 03:55:11.16	188.65	19.32	-39.2	-40.1	21.3	0.00e+00	0	44	0	4200595456	47	4324
2026-01-21 03:55:12.15	188.68	19.20	-39.2	-40.1	21.3	0.00e+00	0	44	0	4207935488	47	4333
2026-01-21 03:55:13.14	188.72	19.07	-39.2	-40.1	21.3	0.00e+00	0	44	0	4214226944	47	4320
2026-01-21 03:55:14.14	188.75	18.95	-39.4	-40.3	21.5	0.00e+00	0	44	0	4221566976	48	4162
2026-01-21 03:55:15.13	188.79	18.82	-39.4	-40.3	21.4	0.00e+00	0	44	0	4228907008	48	4185
2026-01-21 03:55:16.13	188.82	18.70	-39.6	-40.5	21.3	0.00e+00	0	44	0	4236247040	48	4262
2026-01-21 03:55:17.12	188.85	18.58	-39.6	-40.5	21.3	0.00e+00	0	44	0	4243587072	48	4251
2026-01-21 03:55:18.12	188.89	18.45	-39.5	-40.4	21.4	0.00e+00	0	44	0	4250927104	48	4212
2026-01-21 03:55:19.11	188.92	18.33	-39.6	-40.5	21.3	0.00e+00	0	44	0	4257218560	48	4265
2026-01-21 03:55:20.11	188.95	18.21	-39.5	-40.4	21.4	0.00e+00	0	44	0	4264558592	48	4230
2026-01-21 03:55:21.10	188.98	18.09	-39.6	-40.5	21.3	0.00e+00	0	44	0	4271898624	48	4247
2026-01-21 03:55:22.10	189.02	17.97	-39.7	-40.6	21.2	0.00e+00	0	44	0	4279238656	48	4302
2026-01-21 03:55:23.09	189.05	17.85	-39.7	-40.6	21.2	0.00e+00	0	44	0	4286578688	48	4310
2026-01-21 03:55:24.09	189.08	17.73	-39.7	-40.6	21.2	0.00e+00	0	44	0	4293918720	49	4077
2026-01-21 03:55:25.08	189.11	17.61	-39.7	-40.6	21.2	0.00e+00	0	44	0	4301258752	49	4090
2026-01-21 03:55:26.08	189.14	17.50	-39.9	-40.8	21.0	0.00e+00	0	44	0	4308598784	49	4152
2026-01-21 03:55:27.07	189.17	17.38	-39.8	-40.7	21.1	0.00e+00	0	44	0	4314890240	49	4138
2026-01-21 03:55:28.07	189.20	17.26	-40.0	-40.9	21.0	0.00e+00	0	44	0	4322230272	49	4210
2026-01-21 03:55:29.06	189.23	17.15	-40.0	-40.9	20.9	0.00e+00	0	44	0	4329570304	49	4215
2026-01-21 03:55:30.06	189.26	17.03	-39.9	-40.8	21.0	0.00e+00	0	44	0	4336910336	49	4170
2026-01-21 03:55:31.05	189.30	16.92	-40.0	-40.9	20.9	0.00e+00	0	44	0	4344250368	49	4208
2026-01-21 03:55:32.05	189.33	16.80	-40.1	-41.0	20.9	0.00e+00	0	44	0	4351590400	49	4257
2026-01-21 03:55:33.04	189.35	16.69	-40.0	-40.9	20.9	0.00e+00	0	44	0	4357881856	49	4239
2026-01-21 03:55:34.04	189.38	16.57	-40.1	-41.0	20.8	0.00e+00	0	44	0	4365221888	49	4272
2026-01-21 03:55:35.03	189.41	16.46	-40.1	-41.0	20.8	0.00e+00	0	44	0	4372561920	49	4279
2026-01-21 03:55:36.03	189.44	16.35	-40.1	-41.0	20.7	0.00e+00	0	44	0	4379901952	49	4285
2026-01-21 03:55:37.02	189.47	16.24	-40.2	-41.1	20.7	0.00e+00	0	44	0	4387241984	49	4310
2026-01-21 03:55:38.01	189.50	16.13	-40.2	-41.1	20.7	0.00e+00	0	44	0	4393533440	49	4332
2026-01-21 03:55:39.01	189.53	16.01	-40.2	-41.1	20.7	0.00e+00	0	44	0	4400873472	49	4317
2026-01-21 03:55:40.00	189.56	15.91	-40.2	-41.2	20.7	0.00e+00	0	44	0	4408213504	49	4345
2026-01-21 03:55:41.00	189.59	15.79	-40.3	-41.3	20.6	0.00e+00	0	44	0	4415553536	50	4155
2026-01-21 03:55:41.99	189.61	15.69	-40.3	-41.2	20.6	0.00e+00	0	44	0	4422893568	50	4145
2026-01-21 03:55:42.98	189.64	15.58	-40.4	-41.3	20.5	0.00e+00	0	44	0	4430233600	50	4188
2026-01-21 03:55:43.98	189.67	15.47	-40.4	-41.3	20.5	0.00e+00	0	44	0	4437573632	50	4160
2026-01-21 03:55:44.97	189.70	15.36	-40.4	-41.3	20.5	0.00e+00	0	44	0	4444913664	50	4188
2026-01-21 03:55:45.96	189.72	15.25	-40.4	-41.4	20.5	0.00e+00	0	44	0	4451205120	50	4194
2026-01-21 03:55:46.96	189.75	15.15	-40.4	-41.3	20.5	0.00e+00	0	44	0	4458545152	50	4192
2026-01-21 03:55:47.97	189.78	15.04	-40.4	-41.4	20.4	0.00e+00	0	44	0	4465885184	50	4195
2026-01-21 03:55:48.98	189.81	14.93	-40.5	-41.4	20.4	0.00e+00	0	44	0	4473225216	50	4237
2026-01-21 03:55:49.98	189.83	14.83	-40.6	-41.5	20.3	0.00e+00	0	44	0	4480565248	50	4280
2026-01-21 03:55:50.98	189.86	14.72	-40.6	-41.5	20.3	0.00e+00	0	44	0	4487905280	50	4280
2026-01-21 03:55:51.97	189.89	14.62	-40.6	-41.6	20.3	0.00e+00	0	44	0	4495245312	50	4298
2026-01-21 03:55:52.96	189.91	14.51	-40.7	-41.6	20.3	0.00e+00	0	44	0	4501536768	50	4325
2026-01-21 03:55:53.96	189.94	14.41	-40.6	-41.6	20.3	0.00e+00	0	44	0	4508876800	50	4309
2026-01-21 03:55:54.95	189.96	14.30	-40.7	-41.7	20.1	0.00e+00	0	44	0	4516216832	51	4118
2026-01-21 03:55:55.95	189.99	14.20	-40.7	-41.6	20.2	0.00e+00	0	44	0	4523556864	51	4082
2026-01-21 03:55:56.94	190.01	14.10	-40.6	-41.6	20.2	0.00e+00	0	44	0	4530896896	51	4066
2026-01-21 03:55:57.93	190.04	14.00	-40.6	-41.6	20.2	0.00e+00	0	44	0	4538236928	51	4065
2026-01-21 03:55:58.93	190.07	13.90	-40.7	-41.6	20.2	0.00e+00	0	44	0	4545576960	51	4080
2026-01-21 03:55:59.93	190.09	13.79	-40.7	-41.7	20.1	0.00e+00	0	44	0	4552916992	51	4122
2026-01-21 03:56:00.92	190.12	13.69	-40.8	-41.8	20.1	0.00e+00	0	44	0	4559208448	51	4157
2026-01-21 03:56:01.92	190.14	13.59	-40.8	-41.8	20.1	0.00e+00	0	44	0	4566548480	51	4151
2026-01-21 03:56:02.93	190.17	13.49	-40.8	-41.8	20.1	0.00e+00	0	44	0	4573888512	51	4171
2026-01-21 03:56:03.96	190.19	13.39	-40.8	-41.8	20.0	0.00e+00	0	44	0	4581228544	51	4175
2026-01-21 03:56:04.95	190.21	13.29	-40.9	-41.9	20.0	0.00e+00	0	44	0	4588568576	51	4208
2026-01-21 03:56:05.94	190.24	13.19	-41.0	-42.0	19.9	0.00e+00	0	44	0	4595908608	51	4251
2026-01-21 03:56:06.94	190.26	13.09	-40.9	-41.9	19.9	0.00e+00	0	44	0	4603248640	51	4234
2026-01-21 03:56:07.93	190.29	12.99	-40.9	-41.9	19.9	0.00e+00	0	44	0	4610588672	51	4223
2026-01-21 03:56:08.92	190.31	12.90	-41.0	-42.0	19.8	0.00e+00	0	44	0	4617928704	51	4270
2026-01-21 03:56:09.92	190.33	12.80	-41.1	-42.1	19.7	0.00e+00	0	44	0	4624220160	51	4336
2026-01-21 03:56:10.91	190.36	12.70	-41.1	-42.1	19.7	0.00e+00	0	44	0	4631560192	51	4313
2026-01-21 03:56:11.90	190.38	12.61	-41.1	-42.1	19.7	0.00e+00	0	44	0	4638900224	51	4310
2026-01-21 03:56:12.90	190.40	12.51	-41.2	-42.2	19.6	0.00e+00	0	45	0	4646240256	51	4377
2026-01-21 03:56:13.89	190.43	12.42	-41.2	-42.2	19.6	0.00e+00	0	44	0	4653580288	51	4370
2026-01-21 03:56:14.89	190.45	12.32	-41.3	-42.3	19.5	0.00e+00	0	44	0	4660920320	51	4418
2026-01-21 03:56:15.88	190.47	12.23	-41.2	-42.2	19.5	0.00e+00	0	44	0	4667211776	52	4139
2026-01-21 03:56:16.88	190.50	12.13	-41.3	-42.4	19.4	0.00e+00	0	44	0	4674551808	52	4194
2026-01-21 03:56:17.94	190.52	12.03	-41.4	-42.5	19.3	0.00e+00	0	44	0	4682940416	52	4246
