passes_logs/2026/01/21/T1/T1__20260121_084429_NOAA_21_JPSS-2_rec.log

#Pass ID: 20260121_084429_NOAA 21 (JPSS-2)
#Satellite: NOAA 21 (JPSS-2)
#Configuration: NOAA 21
#almurnet v.1.7.20251203
#Start time: 2026-01-21 08:44:31

#Version: 2.0.20230620
#Station: T1
#Location: 37.570604 lon 55.790049 lat
#TLE: 1 54234U 22150A   26020.93347024  .00000206  00000+0  11859-3 0  9994
#TLE: 2 54234  98.7506 321.7615 0000627 245.8100 114.3011 14.19536899165654

#Time	Az	El	Level	Level2	SNR	BER	BlckErr	Temp	State	Recorded	gain1	gain2
2026-01-21 08:44:31.23	122.86	5.11	-51.3	-64.8	3.8	1.49e+00	0	38	0	0	74	16816
2026-01-21 08:44:32.22	122.80	5.18	-51.7	-64.8	3.8	1.49e+00	0	38	104	0	74	16835
2026-01-21 08:44:33.22	122.74	5.25	-51.3	-64.8	3.8	1.49e+00	0	38	104	0	74	16817
2026-01-21 08:44:34.21	122.68	5.31	-51.3	-64.8	3.8	1.49e+00	0	38	104	0	74	16869
2026-01-21 08:44:35.20	122.62	5.38	-51.7	-64.8	3.8	1.49e+00	0	38	104	0	74	16744
2026-01-21 08:44:36.20	122.55	5.44	-51.3	-64.7	3.8	1.49e+00	0	38	104	0	74	16691
2026-01-21 08:44:37.19	122.49	5.51	-51.3	-64.8	3.8	1.49e+00	0	38	104	0	74	16727
2026-01-21 08:44:38.18	122.43	5.58	-51.7	-64.8	3.8	1.49e+00	0	38	104	0	74	16695
2026-01-21 08:44:39.17	122.37	5.64	-51.2	-64.7	3.8	1.49e+00	0	38	104	0	74	16619
2026-01-21 08:44:40.17	122.30	5.71	-51.7	-64.7	3.8	1.49e+00	0	38	104	0	74	16607
2026-01-21 08:44:41.16	122.24	5.78	-51.3	-64.7	3.8	1.49e+00	0	38	104	0	74	16689
2026-01-21 08:44:42.15	122.18	5.84	-51.2	-64.7	3.8	1.49e+00	0	38	104	0	74	16694
2026-01-21 08:44:43.15	122.11	5.91	-51.7	-64.8	3.8	1.49e+00	0	38	104	0	74	16737
2026-01-21 08:44:44.14	122.05	5.98	-51.3	-64.8	3.8	1.49e+00	0	38	104	0	74	16747
2026-01-21 08:44:45.13	121.99	6.04	-51.3	-64.8	3.8	1.49e+00	0	39	104	0	74	16821
2026-01-21 08:44:46.13	121.92	6.11	-51.7	-64.8	3.8	1.49e+00	0	39	104	0	74	16841
2026-01-21 08:44:47.12	121.86	6.18	-51.2	-64.8	3.8	1.49e+00	0	39	104	0	74	16818
2026-01-21 08:44:48.11	121.79	6.25	-51.7	-64.8	3.8	1.49e+00	0	39	104	0	74	16789
2026-01-21 08:44:49.11	121.72	6.32	-51.2	-64.8	3.8	1.49e+00	0	39	104	0	74	16748
2026-01-21 08:44:50.10	121.66	6.38	-51.2	-64.7	3.8	1.49e+00	0	38	104	0	74	16676
2026-01-21 08:44:51.09	121.59	6.45	-51.7	-64.7	3.8	1.49e+00	0	39	104	0	74	16574
2026-01-21 08:44:52.09	121.53	6.52	-51.2	-64.6	3.8	1.49e+00	0	39	104	0	74	16484
2026-01-21 08:44:53.08	121.46	6.59	-51.2	-64.6	3.8	1.49e+00	0	39	104	0	74	16470
2026-01-21 08:44:54.07	121.39	6.66	-51.7	-64.6	3.8	1.49e+00	0	39	104	0	74	16470
2026-01-21 08:44:55.07	121.32	6.73	-51.2	-64.6	3.8	1.49e+00	0	39	104	0	74	16482
2026-01-21 08:44:56.06	121.26	6.80	-51.7	-64.7	3.8	1.49e+00	0	39	104	0	74	16537
2026-01-21 08:44:57.05	121.19	6.86	-51.7	-64.7	3.8	1.49e+00	0	39	104	0	74	16529
2026-01-21 08:44:58.04	121.12	6.93	-51.2	-64.7	3.8	1.49e+00	0	39	104	0	74	16529
2026-01-21 08:44:59.04	121.05	7.00	-51.7	-64.7	3.8	1.49e+00	0	39	104	0	74	16625
2026-01-21 08:45:00.03	120.98	7.07	-51.7	-64.6	3.8	1.49e+00	0	39	104	0	74	16503
2026-01-21 08:45:01.02	120.91	7.14	-51.7	-64.5	3.8	1.49e+00	0	39	104	0	74	16273
2026-01-21 08:45:02.01	120.84	7.21	-51.7	-64.4	3.8	1.49e+00	0	39	104	0	74	15947
2026-01-21 08:45:03.01	120.77	7.28	-51.2	-64.0	3.8	1.49e+00	0	39	104	0	74	15400
2026-01-21 08:45:04.00	120.70	7.35	-51.6	-63.7	3.8	1.49e+00	0	39	104	0	74	14804
2026-01-21 08:45:05.00	120.63	7.42	-51.6	-63.4	3.8	1.49e+00	0	39	104	0	74	14372
2026-01-21 08:45:05.99	120.56	7.49	-51.1	-63.4	3.8	1.49e+00	0	39	104	0	74	14244
2026-01-21 08:45:06.98	120.49	7.56	-51.6	-63.0	3.9	1.49e+00	0	39	104	0	74	13697
2026-01-21 08:45:07.98	120.41	7.64	-51.5	-62.8	3.9	1.49e+00	0	39	104	0	74	13327
2026-01-21 08:45:08.97	120.34	7.71	-51.4	-62.0	3.9	1.48e+00	0	39	104	0	74	12137
2026-01-21 08:45:09.96	120.27	7.78	-51.0	-59.3	4.9	1.03e+00	0	39	104	0	73	9485
2026-01-21 08:45:10.96	120.19	7.85	-50.1	-56.9	6.7	3.42e-01	0	39	0	0	72	7581
2026-01-21 08:45:11.95	120.12	7.92	-49.7	-54.6	8.9	5.38e-02	0	39	0	0	70	6531
2026-01-21 08:45:12.94	120.05	7.99	-48.3	-52.3	11.2	3.21e-03	0	39	0	0	68	5643
2026-01-21 08:45:13.93	119.97	8.06	-47.3	-50.5	13.0	7.85e-05	0	39	0	0	66	5122
2026-01-21 08:45:14.93	119.90	8.14	-46.4	-49.3	14.2	3.80e-06	0	39	0	0	64	5012
2026-01-21 08:45:15.92	119.82	8.21	-45.9	-48.4	15.1	0.00e+00	0	39	0	0	63	4796
2026-01-21 08:45:16.92	119.75	8.28	-45.1	-47.6	16.0	0.00e+00	0	39	0	0	62	4605
2026-01-21 08:45:17.91	119.67	8.35	-44.7	-47.0	16.5	0.00e+00	0	39	0	0	61	4564
2026-01-21 08:45:18.90	119.60	8.42	-44.6	-46.8	16.7	0.00e+00	0	39	0	0	60	4706
2026-01-21 08:45:19.90	119.52	8.50	-44.6	-46.8	16.6	0.00e+00	0	39	0	0	60	4743
2026-01-21 08:45:20.89	119.44	8.57	-44.7	-47.0	16.5	0.00e+00	0	39	0	0	60	4843
2026-01-21 08:45:21.88	119.36	8.64	-45.3	-47.6	15.9	0.00e+00	0	39	0	0	61	4898
2026-01-21 08:45:22.88	119.29	8.72	-45.9	-48.5	15.0	0.00e+00	0	39	0	0	62	5159
2026-01-21 08:45:23.87	119.21	8.79	-46.7	-49.6	13.9	3.00e-06	0	39	0	0	64	5175
2026-01-21 08:45:24.86	119.13	8.86	-47.5	-51.1	12.4	4.34e-05	0	39	0	0	65	5806
2026-01-21 08:45:25.86	119.05	8.94	-48.4	-52.8	10.6	1.55e-03	0	40	0	0	67	6278
2026-01-21 08:45:26.85	118.97	9.01	-49.8	-54.9	8.6	2.14e-02	0	39	0	0	70	6789
2026-01-21 08:45:27.85	118.89	9.09	-48.9	-53.1	10.7	5.29e-04	0	39	0	0	68	6135
2026-01-21 08:45:28.84	118.81	9.16	-45.8	-48.4	15.2	0.00e+00	0	39	0	0	63	4764
2026-01-21 08:45:29.84	118.73	9.23	-51.3	-61.6	3.9	7.02e-01	0	39	104	0	73	12301
2026-01-21 08:45:30.83	118.65	9.31	-48.8	-53.0	10.6	7.26e-01	0	39	0	0	69	5731
2026-01-21 08:45:31.87	118.56	9.39	-49.7	-55.3	8.3	1.65e-03	0	40	0	0	69	7493
2026-01-21 08:45:32.85	118.48	9.46	-48.1	-51.6	12.0	3.63e-03	0	39	0	0	68	5188
2026-01-21 08:45:33.84	118.40	9.53	-48.3	-51.9	11.7	6.81e-04	0	39	0	0	68	5401
2026-01-21 08:45:34.83	118.32	9.61	-47.9	-51.5	12.0	3.33e-04	0	40	0	0	67	5417
2026-01-21 08:45:35.83	118.23	9.69	-47.5	-50.7	12.8	2.16e-04	0	40	0	0	67	4927
2026-01-21 08:45:36.83	118.15	9.76	-46.5	-49.3	14.2	3.00e-06	0	40	0	0	65	4713
2026-01-21 08:45:37.82	118.06	9.84	-45.8	-48.3	15.3	0.00e+00	0	40	0	0	63	4738
2026-01-21 08:45:38.81	117.98	9.91	-45.3	-47.6	16.0	0.00e+00	0	40	0	0	62	4623
2026-01-21 08:45:39.81	117.89	9.99	-44.8	-47.0	16.5	0.00e+00	0	40	0	0	61	4582
2026-01-21 08:45:40.80	117.81	10.07	-44.4	-46.6	16.9	0.00e+00	0	40	0	0	60	4624
2026-01-21 08:45:41.80	117.72	10.14	-44.2	-46.3	17.3	0.00e+00	0	40	0	0	60	4451
2026-01-21 08:45:42.79	117.64	10.22	-44.0	-46.0	17.5	0.00e+00	0	40	0	0	59	4566
2026-01-21 08:45:43.79	117.55	10.30	-43.9	-45.9	17.5	0.00e+00	0	40	0	0	59	4525
2026-01-21 08:45:44.78	117.46	10.37	-44.0	-46.0	17.5	0.00e+00	0	40	0	0	59	4577
2026-01-21 08:45:45.78	117.37	10.45	-44.0	-46.0	17.5	0.00e+00	0	40	0	0	59	4564
2026-01-21 08:45:46.85	117.28	10.53	-43.9	-45.9	17.5	0.00e+00	0	40	0	0	59	4526
2026-01-21 08:45:47.73	117.20	10.60	-43.9	-45.9	17.5	0.00e+00	0	40	0	0	59	4537
2026-01-21 08:45:48.87	117.10	10.69	-44.0	-45.9	17.5	0.00e+00	0	40	0	0	59	4542
2026-01-21 08:45:49.72	117.02	10.76	-44.0	-46.0	17.5	0.00e+00	0	40	0	0	59	4574
2026-01-21 08:45:50.86	116.92	10.85	-43.9	-46.0	17.5	0.00e+00	0	40	0	0	59	4571
2026-01-21 08:45:51.71	116.84	10.91	-43.8	-45.8	17.7	0.00e+00	0	40	0	0	59	4447
2026-01-21 08:45:52.85	116.73	11.00	-43.6	-45.7	17.8	0.00e+00	0	40	0	0	59	4409
2026-01-21 08:45:53.70	116.65	11.07	-43.7	-45.7	17.7	0.00e+00	0	40	0	0	59	4434
2026-01-21 08:45:54.84	116.55	11.16	-43.8	-45.8	17.7	0.00e+00	0	40	0	0	59	4461
2026-01-21 08:45:55.70	116.47	11.23	-43.7	-45.7	17.8	0.00e+00	0	40	0	0	59	4407
2026-01-21 08:45:56.83	116.36	11.32	-43.6	-45.6	17.9	0.00e+00	0	40	0	0	59	4344
2026-01-21 08:45:57.69	116.28	11.39	-43.8	-45.7	17.8	0.00e+00	0	40	0	0	59	4409
2026-01-21 08:45:58.82	116.17	11.48	-43.6	-45.6	17.8	0.00e+00	0	40	0	0	59	4364
2026-01-21 08:45:59.68	116.09	11.55	-43.6	-45.6	17.8	0.00e+00	0	40	0	0	59	4372
2026-01-21 08:46:00.78	115.99	11.64	-43.6	-45.5	17.9	0.00e+00	0	40	0	0	59	4332
2026-01-21 08:46:01.68	115.90	11.71	-43.6	-45.5	17.9	0.00e+00	0	40	0	0	59	4331
2026-01-21 08:46:02.91	115.78	11.81	-43.7	-45.6	17.8	0.00e+00	0	40	0	0	59	4378
2026-01-21 08:46:03.77	115.69	11.88	-43.6	-45.6	17.9	0.00e+00	0	40	0	0	59	4344
2026-01-21 08:46:04.90	115.58	11.97	-43.5	-45.4	18.0	0.00e+00	0	40	0	0	59	4290
2026-01-21 08:46:05.79	115.50	12.04	-43.6	-45.5	17.9	0.00e+00	0	40	0	0	59	4327
2026-01-21 08:46:07.10	115.37	12.15	-43.6	-45.5	18.0	0.00e+00	0	40	0	0	58	4573
2026-01-21 08:46:07.81	115.29	12.20	-43.6	-45.5	18.0	0.00e+00	0	40	0	0	58	4568
2026-01-21 08:46:09.09	115.17	12.31	-43.6	-45.5	18.0	0.00e+00	0	40	0	0	58	4597
2026-01-21 08:46:09.80	115.09	12.37	-43.6	-45.5	18.0	0.00e+00	0	40	0	0	58	4585
2026-01-21 08:46:11.08	114.96	12.47	-43.6	-45.5	18.0	0.00e+00	0	40	0	0	58	4591
2026-01-21 08:46:11.81	114.89	12.53	-43.5	-45.4	18.1	0.00e+00	0	40	0	0	58	4540
2026-01-21 08:46:13.08	114.76	12.64	-43.3	-45.2	18.3	0.00e+00	0	40	0	0	58	4408
2026-01-21 08:46:13.91	114.67	12.71	-43.3	-45.1	18.3	0.00e+00	0	40	0	0	58	4389
2026-01-21 08:46:15.04	114.55	12.80	-43.2	-45.0	18.5	0.00e+00	0	40	0	0	58	4329
2026-01-21 08:46:15.89	114.46	12.87	-43.2	-45.1	18.4	0.00e+00	0	40	0	0	58	4362
2026-01-21 08:46:17.03	114.34	12.97	-43.2	-45.1	18.4	0.00e+00	0	40	0	0	58	4343
2026-01-21 08:46:17.88	114.25	13.04	-43.2	-45.1	18.4	0.00e+00	0	40	0	0	58	4361
2026-01-21 08:46:19.02	114.13	13.13	-43.3	-45.1	18.3	0.00e+00	0	40	0	0	58	4378
2026-01-21 08:46:19.87	114.04	13.20	-43.3	-45.1	18.3	0.00e+00	0	40	0	0	58	4378
2026-01-21 08:46:21.07	113.91	13.30	-43.3	-45.1	18.3	0.00e+00	0	40	0	0	58	4385
2026-01-21 08:46:21.92	113.82	13.38	-43.3	-45.1	18.3	0.00e+00	0	40	0	0	58	4390
2026-01-21 08:46:23.09	113.69	13.47	-43.4	-45.2	18.2	0.00e+00	0	40	0	0	58	4435
2026-01-21 08:46:23.94	113.60	13.55	-43.4	-45.3	18.2	0.00e+00	0	40	0	0	58	4468
2026-01-21 08:46:25.13	113.47	13.65	-43.2	-45.1	18.4	0.00e+00	0	40	0	0	58	4375
2026-01-21 08:46:25.98	113.37	13.72	-43.2	-45.1	18.4	0.00e+00	0	40	0	0	58	4348
2026-01-21 08:46:27.12	113.25	13.82	-43.2	-45.0	18.5	0.00e+00	0	40	0	0	58	4330
2026-01-21 08:46:27.97	113.15	13.89	-43.2	-45.0	18.5	0.00e+00	0	40	0	0	58	4339
2026-01-21 08:46:29.11	113.02	13.99	-43.1	-45.0	18.5	0.00e+00	0	40	0	0	58	4331
2026-01-21 08:46:29.97	112.92	14.06	-43.1	-45.0	18.5	0.00e+00	0	40	0	0	58	4311
2026-01-21 08:46:31.10	112.79	14.16	-43.0	-44.9	18.6	0.00e+00	0	40	0	0	58	4267
2026-01-21 08:46:31.96	112.70	14.23	-43.0	-44.9	18.7	0.00e+00	0	40	0	0	58	4252
2026-01-21 08:46:33.09	112.56	14.33	-42.9	-44.8	18.7	0.00e+00	0	40	0	0	57	4455
2026-01-21 08:46:34.09	112.45	14.42	-42.9	-44.7	18.8	0.00e+00	0	40	0	0	57	4437
2026-01-21 08:46:35.26	112.31	14.52	-43.0	-44.9	18.7	0.00e+00	0	40	0	0	57	4505
2026-01-21 08:46:36.11	112.21	14.59	-42.9	-44.7	18.8	0.00e+00	0	40	0	0	57	4437
2026-01-21 08:46:37.47	112.05	14.71	-43.0	-44.8	18.7	0.00e+00	0	40	0	0	57	4474
2026-01-21 08:46:38.18	111.96	14.77	-43.0	-44.8	18.7	0.00e+00	0	40	0	0	57	4489
2026-01-21 08:46:39.46	111.81	14.88	-42.9	-44.8	18.8	0.00e+00	0	40	0	0	57	4443
2026-01-21 08:46:40.17	111.72	14.95	-43.1	-44.9	18.7	0.00e+00	0	40	0	0	57	4518
2026-01-21 08:46:41.45	111.57	15.06	-43.0	-44.9	18.7	0.00e+00	0	40	0	0	57	4502
2026-01-21 08:46:42.16	111.48	15.12	-42.9	-44.8	18.7	0.00e+00	0	40	0	0	57	4456
2026-01-21 08:46:43.44	111.32	15.23	-43.1	-44.9	18.6	0.00e+00	0	40	0	0	57	4545
2026-01-21 08:46:44.18	111.23	15.30	-43.1	-44.9	18.6	0.00e+00	0	40	0	0	57	4526
2026-01-21 08:46:45.46	111.07	15.41	-43.2	-45.0	18.6	0.00e+00	0	40	0	0	57	4584
2026-01-21 08:46:46.17	110.98	15.48	-43.2	-45.0	18.5	0.00e+00	0	40	0	0	57	4590
2026-01-21 08:46:47.45	110.82	15.59	-43.2	-45.0	18.6	0.00e+00	0	40	0	0	57	4580
2026-01-21 08:46:48.16	110.73	15.65	-43.2	-45.0	18.5	0.00e+00	0	40	0	0	57	4597
2026-01-21 08:46:49.44	110.57	15.77	-43.3	-45.1	18.5	0.00e+00	0	40	0	0	57	4641
2026-01-21 08:46:50.16	110.48	15.83	-43.2	-45.0	18.6	0.00e+00	0	40	0	0	57	4569
2026-01-21 08:46:51.44	110.31	15.95	-43.2	-45.1	18.5	0.00e+00	0	40	0	0	57	4627
2026-01-21 08:46:52.15	110.22	16.01	-43.2	-45.0	18.6	0.00e+00	0	40	0	0	57	4583
2026-01-21 08:46:53.43	110.05	16.13	-43.2	-45.0	18.6	0.00e+00	0	40	0	0	57	4569
2026-01-21 08:46:54.16	109.96	16.19	-43.2	-45.1	18.6	0.00e+00	0	40	0	0	57	4605
2026-01-21 08:46:55.43	109.79	16.31	-43.2	-45.1	18.6	0.00e+00	0	40	0	0	57	4615
2026-01-21 08:46:56.16	109.69	16.37	-43.3	-45.1	18.5	0.00e+00	0	40	0	0	57	4648
2026-01-21 08:46:57.44	109.52	16.49	-43.3	-45.1	18.5	0.00e+00	0	40	0	0	57	4644
2026-01-21 08:46:58.15	109.42	16.55	-43.3	-45.1	18.5	0.00e+00	0	40	0	0	57	4633
2026-01-21 08:46:59.73	109.21	16.70	-43.3	-45.2	18.4	0.00e+00	0	40	0	0	57	4678
2026-01-21 08:47:00.36	109.12	16.76	-43.3	-45.2	18.5	0.00e+00	0	40	0	0	57	4673
2026-01-21 08:47:02.03	108.89	16.91	-43.1	-44.9	18.7	0.00e+00	0	40	0	0	57	4541
2026-01-21 08:47:02.60	108.82	16.96	-43.1	-44.9	18.7	0.00e+00	0	40	0	0	57	4543
2026-01-21 08:47:04.30	108.58	17.12	-43.1	-44.9	18.7	0.00e+00	0	40	0	0	57	4528
2026-01-21 08:47:04.87	108.50	17.17	-43.1	-45.0	18.7	0.00e+00	0	40	0	0	57	4548
2026-01-21 08:47:06.58	108.26	17.33	-43.0	-44.8	18.8	0.00e+00	0	40	0	0	57	4487
2026-01-21 08:47:07.14	108.18	17.38	-43.0	-44.8	18.8	0.00e+00	0	40	0	0	57	4468
2026-01-21 08:47:08.86	107.93	17.54	-43.0	-44.8	18.8	0.00e+00	0	40	0	0	57	4470
2026-01-21 08:47:09.43	107.85	17.59	-43.0	-44.8	18.8	0.00e+00	0	40	0	0	57	4467
2026-01-21 08:47:11.14	107.60	17.75	-43.1	-45.0	18.7	0.00e+00	0	40	0	0	57	4548
2026-01-21 08:47:11.70	107.52	17.80	-43.1	-44.9	18.7	0.00e+00	0	40	0	0	57	4524
2026-01-21 08:47:13.49	107.25	17.97	-43.1	-44.9	18.7	0.00e+00	0	40	0	0	57	4515
2026-01-21 08:47:14.06	107.17	18.02	-43.1	-44.9	18.7	0.00e+00	0	40	0	0	57	4536
2026-01-21 08:47:15.76	106.91	18.18	-43.1	-45.0	18.6	0.00e+00	0	40	0	0	57	4555
2026-01-21 08:47:16.33	106.83	18.24	-43.1	-44.9	18.7	0.00e+00	0	40	0	0	57	4517
2026-01-21 08:47:18.04	106.57	18.40	-43.0	-44.8	18.8	0.00e+00	0	40	0	0	57	4458
2026-01-21 08:47:18.61	106.48	18.45	-43.0	-44.8	18.8	0.00e+00	0	40	0	0	57	4450
2026-01-21 08:47:20.31	106.22	18.61	-42.8	-44.5	19.0	0.00e+00	0	40	0	0	57	4336
2026-01-21 08:47:20.88	106.13	18.67	-42.8	-44.5	19.0	0.00e+00	0	40	0	0	57	4331
2026-01-21 08:47:22.59	105.86	18.83	-42.8	-44.5	19.1	0.00e+00	0	40	0	0	57	4336
2026-01-21 08:47:23.16	105.77	18.88	-42.7	-44.5	19.1	0.00e+00	0	40	0	0	57	4300
2026-01-21 08:47:24.86	105.50	19.04	-42.8	-44.6	19.0	0.00e+00	0	40	0	0	57	4356
2026-01-21 08:47:25.43	105.41	19.10	-42.7	-44.5	19.0	0.00e+00	0	40	0	0	57	4328
2026-01-21 08:47:27.13	105.14	19.26	-42.7	-44.5	19.1	0.00e+00	0	40	0	0	57	4324
2026-01-21 08:47:27.81	105.03	19.33	-42.7	-44.4	19.1	0.00e+00	0	40	0	0	57	4280
2026-01-21 08:47:29.23	104.79	19.46	-42.6	-44.3	19.2	0.00e+00	0	40	0	0	57	4240
2026-01-21 08:47:29.94	104.68	19.53	-42.6	-44.3	19.3	0.00e+00	0	40	0	0	57	4233
2026-01-21 08:47:31.22	104.46	19.65	-42.5	-44.2	19.4	0.00e+00	0	40	0	0	56	4424
2026-01-21 08:47:31.95	104.34	19.72	-42.5	-44.3	19.3	0.00e+00	0	40	0	0	56	4442
2026-01-21 08:47:33.23	104.13	19.85	-42.5	-44.2	19.3	0.00e+00	0	40	0	0	56	4432
2026-01-21 08:47:34.17	103.97	19.94	-42.6	-44.3	19.2	0.00e+00	0	40	0	0	56	4474
2026-01-21 08:47:35.47	103.75	20.06	-42.5	-44.3	19.3	0.00e+00	0	40	0	0	56	4462
2026-01-21 08:47:36.21	103.62	20.13	-42.5	-44.2	19.4	0.00e+00	0	40	0	0	56	4427
2026-01-21 08:47:37.49	103.40	20.26	-42.4	-44.2	19.4	0.00e+00	0	40	0	0	56	4394
2026-01-21 08:47:38.28	103.27	20.33	-42.4	-44.1	19.5	0.00e+00	0	40	0	0	56	4370
2026-01-21 08:47:39.45	103.06	20.45	-42.3	-44.0	19.6	0.00e+00	0	40	0	0	56	4297
2026-01-21 08:47:40.31	102.91	20.53	-42.2	-43.9	19.6	0.00e+00	0	40	0	0	56	4272
2026-01-21 08:47:41.44	102.71	20.64	-42.2	-43.9	19.6	0.00e+00	0	40	0	0	56	4272
2026-01-21 08:47:42.29	102.56	20.72	-42.1	-43.8	19.6	0.00e+00	0	40	0	0	56	4237
2026-01-21 08:47:43.43	102.36	20.83	-42.3	-44.0	19.5	0.00e+00	0	40	0	0	56	4315
2026-01-21 08:47:44.28	102.20	20.92	-42.4	-44.1	19.4	0.00e+00	0	40	0	0	56	4378
2026-01-21 08:47:45.42	102.00	21.03	-42.4	-44.2	19.4	0.00e+00	0	40	0	0	56	4395
2026-01-21 08:47:46.28	101.84	21.11	-42.3	-44.0	19.6	0.00e+00	0	40	0	0	56	4303
2026-01-21 08:47:47.41	101.63	21.22	-42.3	-44.0	19.6	0.00e+00	0	40	0	0	56	4312
2026-01-21 08:47:48.26	101.48	21.30	-42.3	-44.0	19.6	0.00e+00	0	40	0	0	56	4322
2026-01-21 08:47:49.51	101.24	21.43	-42.3	-44.1	19.5	0.00e+00	0	40	0	0	56	4352
2026-01-21 08:47:50.36	101.08	21.51	-42.2	-43.9	19.6	0.00e+00	0	40	0	0	56	4280
2026-01-21 08:47:51.50	100.87	21.62	-42.2	-43.9	19.7	0.00e+00	0	40	0	0	56	4257
2026-01-21 08:47:52.35	100.71	21.70	-42.0	-43.7	19.8	0.00e+00	0	40	0	0	56	4185
2026-01-21 08:47:53.62	100.47	21.83	-42.1	-43.8	19.7	0.00e+00	0	40	0	0	56	4234
2026-01-21 08:47:54.42	100.31	21.91	-42.2	-43.9	19.6	0.00e+00	0	40	0	0	56	4252
2026-01-21 08:47:55.56	100.09	22.02	-42.3	-44.1	19.5	0.00e+00	0	40	0	0	56	4344
2026-01-21 08:47:56.41	99.93	22.10	-42.4	-44.2	19.4	0.00e+00	0	40	0	0	56	4393
2026-01-21 08:47:57.55	99.70	22.21	-42.5	-44.3	19.3	0.00e+00	0	40	0	0	56	4444
2026-01-21 08:47:58.40	99.54	22.30	-42.4	-44.1	19.4	0.00e+00	0	40	0	0	56	4390
2026-01-21 08:47:59.54	99.31	22.41	-42.4	-44.1	19.5	0.00e+00	0	40	0	0	56	4360
2026-01-21 08:48:00.39	99.14	22.49	-42.2	-43.9	19.7	0.00e+00	0	40	0	0	56	4271
2026-01-21 08:48:01.52	98.92	22.60	-42.1	-43.8	19.7	0.00e+00	0	40	0	0	56	4227
2026-01-21 08:48:02.38	98.74	22.69	-42.0	-43.7	19.8	0.00e+00	0	40	0	0	56	4162
2026-01-21 08:48:03.51	98.51	22.80	-42.1	-43.8	19.7	0.00e+00	0	40	0	0	56	4223
2026-01-21 08:48:04.37	98.34	22.88	-42.1	-43.8	19.6	0.00e+00	0	40	0	0	56	4233
2026-01-21 08:48:05.50	98.10	22.99	-42.2	-43.9	19.6	0.00e+00	0	40	0	0	56	4254
2026-01-21 08:48:06.35	97.93	23.07	-42.2	-43.9	19.6	0.00e+00	0	40	0	0	56	4268
2026-01-21 08:48:07.47	97.69	23.18	-42.3	-44.0	19.6	0.00e+00	0	40	0	0	56	4310
2026-01-21 08:48:08.33	97.51	23.27	-42.2	-43.9	19.7	0.00e+00	0	40	0	0	56	4256
2026-01-21 08:48:09.47	97.27	23.38	-42.2	-43.9	19.7	0.00e+00	0	40	0	0	56	4248
2026-01-21 08:48:10.32	97.09	23.46	-42.1	-43.9	19.8	0.00e+00	0	40	0	0	56	4243
2026-01-21 08:48:11.46	96.85	23.57	-42.1	-43.8	19.8	0.00e+00	0	40	0	0	56	4201
2026-01-21 08:48:12.31	96.67	23.66	-41.8	-43.4	19.9	0.00e+00	0	40	0	0	55	4291
2026-01-21 08:48:13.54	96.40	23.78	-41.6	-43.2	20.0	0.00e+00	0	40	0	0	55	4193
2026-01-21 08:48:14.39	96.22	23.86	-41.5	-43.2	20.0	0.00e+00	0	40	0	0	55	4147
2026-01-21 08:48:15.58	95.95	23.97	-41.5	-43.2	20.1	0.00e+00	0	40	0	0	54	4407
2026-01-21 08:48:16.43	95.77	24.06	-41.6	-43.3	20.0	0.00e+00	0	40	0	0	54	4466
2026-01-21 08:48:17.57	95.51	24.17	-41.7	-43.4	20.0	0.00e+00	0	40	0	0	54	4525
2026-01-21 08:48:18.42	95.32	24.25	-41.8	-43.5	19.9	0.00e+00	0	40	0	0	54	4548
2026-01-21 08:48:19.69	95.04	24.37	-41.7	-43.4	19.9	0.00e+00	0	40	0	0	54	4543
2026-01-21 08:48:20.43	94.87	24.44	-41.8	-43.5	19.8	0.00e+00	0	40	0	0	54	4559
2026-01-21 08:48:21.71	94.58	24.57	-42.0	-43.7	19.6	0.00e+00	0	40	0	0	54	4669
2026-01-21 08:48:22.44	94.41	24.64	-41.9	-43.6	19.7	0.00e+00	0	40	0	0	54	4633
2026-01-21 08:48:23.72	94.12	24.76	-42.1	-43.8	19.5	0.00e+00	0	40	0	0	54	4729
2026-01-21 08:48:24.45	93.95	24.83	-42.2	-43.9	19.5	0.00e+00	0	40	0	0	54	4784
2026-01-21 08:48:25.72	93.65	24.95	-42.2	-43.9	19.4	0.00e+00	0	40	0	0	55	4530
2026-01-21 08:48:26.45	93.48	25.02	-42.3	-44.0	19.4	0.00e+00	0	41	0	0	55	4598
2026-01-21 08:48:27.73	93.18	25.15	-42.4	-44.2	19.3	0.00e+00	0	40	0	0	55	4675
2026-01-21 08:48:28.45	93.01	25.21	-42.5	-44.3	19.3	0.00e+00	0	40	0	0	55	4709
2026-01-21 08:48:29.73	92.70	25.34	-42.4	-44.2	19.3	0.00e+00	0	40	0	0	55	4685
2026-01-21 08:48:30.46	92.53	25.41	-42.4	-44.1	19.4	0.00e+00	0	40	0	0	55	4649
2026-01-21 08:48:31.74	92.22	25.53	-42.4	-44.1	19.4	0.00e+00	0	40	0	0	55	4645
2026-01-21 08:48:32.48	92.04	25.60	-42.4	-44.1	19.4	0.00e+00	0	40	0	0	55	4640
2026-01-21 08:48:33.76	91.72	25.72	-42.2	-43.9	19.5	0.00e+00	0	40	0	0	55	4538
2026-01-21 08:48:34.47	91.55	25.78	-42.2	-44.0	19.5	0.00e+00	0	40	0	0	55	4547
2026-01-21 08:48:35.75	91.23	25.90	-42.2	-43.9	19.6	0.00e+00	0	40	0	0	55	4501
2026-01-21 08:48:36.46	91.05	25.97	-42.2	-43.9	19.5	0.00e+00	0	40	0	0	55	4544
2026-01-21 08:48:37.74	90.73	26.09	-42.2	-43.9	19.5	0.00e+00	0	40	0	0	55	4527
2026-01-21 08:48:38.47	90.55	26.16	-42.1	-43.8	19.6	0.00e+00	0	40	0	0	55	4485
2026-01-21 08:48:39.74	90.23	26.28	-42.2	-44.0	19.5	0.00e+00	0	40	0	0	55	4562
2026-01-21 08:48:40.45	90.05	26.34	-42.3	-44.1	19.4	0.00e+00	0	40	0	0	55	4600
2026-01-21 08:48:41.73	89.72	26.46	-42.4	-44.2	19.2	0.00e+00	0	40	0	0	55	4702
2026-01-21 08:48:42.44	89.53	26.52	-42.5	-44.3	19.1	0.00e+00	0	40	0	0	55	4744
2026-01-21 08:48:43.72	89.20	26.64	-42.5	-44.3	19.1	0.00e+00	0	40	0	0	55	4747
2026-01-21 08:48:44.45	89.01	26.71	-42.6	-44.4	19.1	0.00e+00	0	40	0	0	55	4778
2026-01-21 08:48:45.73	88.67	26.82	-42.6	-44.4	19.1	0.00e+00	0	40	0	0	55	4801
2026-01-21 08:48:46.54	88.46	26.90	-42.5	-44.3	19.2	0.00e+00	0	40	0	0	55	4719
2026-01-21 08:48:47.67	88.16	27.00	-42.5	-44.2	19.3	0.00e+00	0	40	0	0	55	4691
2026-01-21 08:48:48.73	87.88	27.09	-42.6	-44.4	19.1	0.00e+00	0	40	0	0	55	4787
2026-01-21 08:48:49.61	87.64	27.17	-42.8	-44.5	19.2	0.00e+00	0	40	0	0	56	4596
2026-01-21 08:48:50.75	87.33	27.27	-42.6	-44.4	19.3	0.00e+00	0	40	0	0	56	4526
2026-01-21 08:48:51.61	87.10	27.35	-42.7	-44.5	19.2	0.00e+00	0	40	0	0	56	4552
2026-01-21 08:48:52.75	86.79	27.45	-42.5	-44.3	19.3	0.00e+00	0	41	0	0	56	4479
2026-01-21 08:48:53.60	86.55	27.52	-42.6	-44.3	19.3	0.00e+00	0	40	0	0	56	4490
2026-01-21 08:48:54.74	86.24	27.62	-42.6	-44.4	19.2	0.00e+00	0	40	0	0	56	4529
2026-01-21 08:48:55.59	86.00	27.70	-42.6	-44.4	19.3	0.00e+00	0	40	0	0	56	4518
2026-01-21 08:48:56.73	85.68	27.79	-42.6	-44.4	19.2	0.00e+00	0	40	0	0	56	4540
2026-01-21 08:48:57.58	85.45	27.87	-42.6	-44.4	19.3	0.00e+00	0	40	0	0	56	4521
2026-01-21 08:48:58.86	85.08	27.98	-42.6	-44.4	19.3	0.00e+00	0	40	0	0	56	4518
2026-01-21 08:48:59.58	84.88	28.04	-42.7	-44.5	19.2	0.00e+00	0	40	0	0	56	4567
2026-01-21 08:49:01.05	84.46	28.16	-42.6	-44.4	19.3	0.00e+00	0	40	0	0	56	4505
2026-01-21 08:49:02.03	84.18	28.24	-42.8	-44.6	19.1	0.00e+00	0	40	0	0	56	4606
2026-01-21 08:49:03.02	83.89	28.32	-42.8	-44.6	19.0	0.00e+00	0	40	0	0	56	4626
2026-01-21 08:49:04.02	83.60	28.41	-42.8	-44.6	19.1	0.00e+00	0	40	0	0	56	4633
2026-01-21 08:49:05.01	83.31	28.49	-42.9	-44.7	18.9	0.00e+00	0	40	0	0	56	4704
2026-01-21 08:49:06.01	83.02	28.57	-43.1	-44.9	18.8	0.00e+00	0	40	0	0	56	4787
2026-01-21 08:49:07.00	82.73	28.65	-43.1	-44.9	18.9	0.00e+00	0	40	0	0	56	4786
2026-01-21 08:49:08.00	82.43	28.73	-43.0	-44.9	18.9	0.00e+00	0	40	0	0	56	4772
2026-01-21 08:49:08.99	82.14	28.80	-43.1	-44.9	18.9	0.00e+00	0	40	0	0	56	4777
2026-01-21 08:49:09.99	81.84	28.88	-43.0	-44.9	18.9	0.00e+00	0	40	0	0	56	4764
2026-01-21 08:49:10.98	81.54	28.96	-42.7	-44.5	19.2	0.00e+00	0	40	0	0	56	4567
2026-01-21 08:49:11.98	81.24	29.04	-42.8	-44.5	19.1	0.00e+00	0	40	0	0	56	4591
2026-01-21 08:49:12.97	80.94	29.11	-42.8	-44.6	19.1	0.00e+00	0	40	0	0	56	4621
2026-01-21 08:49:13.97	80.63	29.19	-42.7	-44.5	19.1	0.00e+00	0	40	0	0	56	4590
2026-01-21 08:49:14.97	80.33	29.26	-42.8	-44.6	19.1	0.00e+00	0	40	0	0	56	4607
2026-01-21 08:49:15.96	80.02	29.34	-42.7	-44.5	19.2	0.00e+00	0	40	0	0	56	4571
2026-01-21 08:49:16.96	79.71	29.41	-42.8	-44.5	19.2	0.00e+00	0	40	0	0	56	4586
2026-01-21 08:49:17.95	79.40	29.48	-42.7	-44.5	19.2	0.00e+00	0	40	0	0	56	4555
2026-01-21 08:49:18.94	79.09	29.55	-42.8	-44.6	19.1	0.00e+00	0	40	0	0	56	4624
2026-01-21 08:49:19.94	78.78	29.63	-42.8	-44.6	19.0	0.00e+00	0	40	0	0	56	4644
2026-01-21 08:49:20.93	78.47	29.69	-43.0	-44.8	18.9	0.00e+00	0	40	0	0	56	4710
2026-01-21 08:49:21.96	78.14	29.77	-43.0	-44.8	18.9	0.00e+00	0	40	0	0	56	4752
2026-01-21 08:49:22.96	77.83	29.84	-43.0	-44.8	19.0	0.00e+00	0	40	0	0	56	4726
2026-01-21 08:49:23.95	77.51	29.90	-43.0	-44.8	19.0	0.00e+00	0	40	0	0	56	4730
2026-01-21 08:49:24.95	77.19	29.97	-43.0	-44.8	19.0	0.00e+00	0	40	0	0	56	4726
2026-01-21 08:49:25.95	76.87	30.04	-43.1	-44.9	18.9	0.00e+00	0	40	0	0	56	4782
2026-01-21 08:49:26.94	76.55	30.10	-43.1	-44.9	18.8	0.00e+00	0	40	0	0	57	4532
2026-01-21 08:49:27.94	76.23	30.17	-43.3	-45.1	18.7	0.00e+00	0	40	0	0	57	4620
2026-01-21 08:49:28.93	75.90	30.23	-43.2	-45.0	18.8	0.00e+00	0	40	0	0	57	4562
2026-01-21 08:49:29.93	75.58	30.29	-43.1	-44.9	19.0	0.00e+00	0	40	0	0	57	4498
2026-01-21 08:49:30.92	75.25	30.35	-42.9	-44.7	19.1	0.00e+00	0	40	0	0	57	4395
2026-01-21 08:49:31.92	74.92	30.41	-42.9	-44.7	19.1	0.00e+00	0	40	0	0	57	4413
2026-01-21 08:49:32.91	74.60	30.47	-42.9	-44.7	19.0	0.00e+00	0	40	0	0	57	4409
2026-01-21 08:49:33.90	74.27	30.53	-43.0	-44.8	19.0	0.00e+00	0	41	0	0	57	4445
2026-01-21 08:49:34.90	73.93	30.59	-43.0	-44.8	18.9	0.00e+00	0	40	0	0	57	4443
2026-01-21 08:49:35.89	73.60	30.65	-43.0	-44.8	18.8	0.00e+00	0	40	0	0	57	4478
2026-01-21 08:49:36.89	73.27	30.70	-43.2	-45.1	18.6	0.00e+00	0	40	0	0	57	4607
2026-01-21 08:49:37.91	72.93	30.76	-43.2	-45.0	18.8	0.00e+00	0	40	0	0	57	4563
2026-01-21 08:49:38.94	72.58	30.81	-43.2	-45.0	18.8	0.00e+00	0	40	0	0	57	4585
2026-01-21 08:49:39.97	72.23	30.87	-43.3	-45.1	18.7	0.00e+00	0	40	0	0	57	4614
2026-01-21 08:49:40.96	71.89	30.92	-43.3	-45.1	18.7	0.00e+00	0	40	0	0	57	4614
2026-01-21 08:49:41.96	71.55	30.97	-43.4	-45.2	18.6	0.00e+00	0	40	0	0	57	4689
2026-01-21 08:49:42.95	71.21	31.02	-43.4	-45.2	18.5	0.00e+00	0	40	0	0	57	4699
2026-01-21 08:49:43.94	70.87	31.07	-43.5	-45.3	18.5	0.00e+00	0	40	0	0	57	4738
2026-01-21 08:49:44.94	70.53	31.12	-43.6	-45.4	18.4	0.00e+00	0	40	0	0	57	4802
2026-01-21 08:49:45.94	70.18	31.16	-43.5	-45.4	18.4	0.00e+00	0	40	0	0	57	4792
2026-01-21 08:49:46.93	69.84	31.21	-43.6	-45.5	18.2	0.00e+00	0	40	0	0	57	4843
2026-01-21 08:49:47.93	69.50	31.25	-43.7	-45.6	18.2	0.00e+00	0	40	0	0	58	4635
2026-01-21 08:49:48.92	69.15	31.30	-43.6	-45.5	18.3	0.00e+00	0	40	0	0	58	4578
2026-01-21 08:49:49.92	68.80	31.34	-43.6	-45.4	18.4	0.00e+00	0	40	0	0	58	4522
2026-01-21 08:49:50.91	68.46	31.38	-43.5	-45.4	18.4	0.00e+00	0	40	0	0	58	4516
2026-01-21 08:49:51.91	68.11	31.42	-43.5	-45.3	18.5	0.00e+00	0	40	0	0	58	4482
2026-01-21 08:49:52.90	67.76	31.46	-43.5	-45.3	18.5	0.00e+00	0	40	0	0	58	4468
2026-01-21 08:49:53.90	67.41	31.50	-43.3	-45.1	18.6	0.00e+00	0	40	0	0	58	4385
2026-01-21 08:49:54.89	67.06	31.53	-43.3	-45.1	18.7	0.00e+00	0	40	0	0	58	4391
2026-01-21 08:49:55.93	66.69	31.57	-43.1	-44.9	18.9	0.00e+00	0	40	0	0	58	4281
2026-01-21 08:49:56.89	66.35	31.60	-43.0	-44.7	19.0	0.00e+00	0	40	0	0	58	4178
2026-01-21 08:49:57.95	65.97	31.64	-42.9	-44.6	19.1	0.00e+00	0	40	0	0	57	4385
2026-01-21 08:49:58.81	65.67	31.66	-42.9	-44.7	19.0	0.00e+00	0	40	0	0	57	4406
2026-01-21 08:49:59.94	65.26	31.70	-43.1	-44.9	18.9	0.00e+00	0	40	0	0	57	4496
2026-01-21 08:50:00.80	64.96	31.72	-43.0	-44.8	18.9	0.00e+00	0	40	0	0	57	4485
2026-01-21 08:50:01.93	64.55	31.76	-43.3	-45.2	18.7	0.00e+00	0	40	0	0	57	4665
2026-01-21 08:50:02.79	64.24	31.78	-43.6	-45.4	18.4	0.00e+00	0	40	0	0	57	4809
2026-01-21 08:50:03.92	63.84	31.81	-43.6	-45.5	18.3	0.00e+00	0	40	0	0	57	4817
2026-01-21 08:50:04.77	63.53	31.83	-43.6	-45.5	18.3	0.00e+00	0	40	0	0	57	4846
2026-01-21 08:50:05.91	63.12	31.85	-43.5	-45.3	18.5	0.00e+00	0	40	0	0	57	4739
2026-01-21 08:50:06.76	62.81	31.87	-43.5	-45.4	18.5	0.00e+00	0	40	0	0	57	4780
2026-01-21 08:50:07.90	62.40	31.90	-43.5	-45.4	18.5	0.00e+00	0	40	0	0	57	4760
2026-01-21 08:50:08.75	62.10	31.91	-43.4	-45.2	18.6	0.00e+00	0	40	0	0	57	4699
2026-01-21 08:50:09.89	61.68	31.93	-43.5	-45.3	18.5	0.00e+00	0	40	0	0	57	4744
2026-01-21 08:50:10.74	61.37	31.95	-43.5	-45.3	18.5	0.00e+00	0	40	0	0	57	4750
2026-01-21 08:50:11.88	60.96	31.97	-43.6	-45.5	18.4	0.00e+00	0	40	0	0	57	4840
2026-01-21 08:50:12.78	60.63	31.98	-43.6	-45.5	18.3	0.00e+00	0	40	0	0	58	4564
2026-01-21 08:50:14.06	60.17	31.99	-43.6	-45.5	18.3	0.00e+00	0	40	0	0	58	4566
2026-01-21 08:50:14.78	59.91	32.00	-43.6	-45.5	18.3	0.00e+00	0	40	0	0	58	4564
2026-01-21 08:50:16.06	59.44	32.02	-43.6	-45.5	18.4	0.00e+00	0	41	0	0	58	4558
2026-01-21 08:50:16.77	59.18	32.02	-43.6	-45.5	18.4	0.00e+00	0	40	0	0	58	4578
2026-01-21 08:50:18.05	58.72	32.03	-43.5	-45.4	18.5	0.00e+00	0	40	0	0	58	4521
2026-01-21 08:50:18.90	58.41	32.04	-43.5	-45.4	18.5	0.00e+00	0	40	0	0	58	4507
2026-01-21 08:50:20.37	57.87	32.04	-43.6	-45.4	18.4	0.00e+00	0	40	0	0	58	4541
2026-01-21 08:50:21.08	57.61	32.05	-43.6	-45.4	18.4	0.00e+00	0	40	0	0	58	4539
2026-01-21 08:50:22.36	57.15	32.05	-43.6	-45.5	18.4	0.00e+00	0	40	0	0	58	4564
2026-01-21 08:50:23.10	56.88	32.05	-43.6	-45.4	18.4	0.00e+00	0	41	0	0	58	4523
2026-01-21 08:50:24.38	56.41	32.05	-43.6	-45.4	18.4	0.00e+00	0	40	0	0	58	4532
2026-01-21 08:50:25.10	56.15	32.05	-43.5	-45.3	18.4	0.00e+00	0	40	0	0	58	4490
2026-01-21 08:50:26.39	55.68	32.04	-43.6	-45.4	18.4	0.00e+00	0	40	0	0	58	4539
2026-01-21 08:50:27.12	55.41	32.04	-43.3	-45.1	18.7	0.00e+00	0	41	0	0	58	4382
2026-01-21 08:50:28.41	54.94	32.03	-43.4	-45.2	18.7	0.00e+00	0	40	0	0	58	4418
2026-01-21 08:50:29.12	54.68	32.03	-43.3	-45.2	18.7	0.00e+00	0	40	0	0	58	4399
2026-01-21 08:50:30.40	54.22	32.01	-43.4	-45.2	18.6	0.00e+00	0	40	0	0	58	4434
2026-01-21 08:50:31.13	53.95	32.01	-43.4	-45.2	18.7	0.00e+00	0	40	0	0	58	4403
2026-01-21 08:50:32.41	53.49	31.99	-43.1	-44.8	19.0	0.00e+00	0	40	0	0	58	4228
2026-01-21 08:50:33.14	53.22	31.98	-43.0	-44.8	19.0	0.00e+00	0	40	0	0	58	4212
2026-01-21 08:50:34.42	52.76	31.97	-43.0	-44.7	19.0	0.00e+00	0	40	0	0	57	4434
2026-01-21 08:50:35.15	52.49	31.96	-43.1	-44.9	18.8	0.00e+00	0	40	0	0	57	4532
2026-01-21 08:50:36.43	52.03	31.93	-43.2	-45.0	18.7	0.00e+00	0	40	0	0	57	4598
2026-01-21 08:50:37.14	51.77	31.92	-43.3	-45.1	18.6	0.00e+00	0	40	0	0	57	4651
2026-01-21 08:50:38.43	51.31	31.90	-43.2	-45.0	18.8	0.00e+00	0	40	0	0	57	4598
2026-01-21 08:50:39.14	51.05	31.88	-43.2	-45.0	18.8	0.00e+00	0	40	0	0	57	4580
2026-01-21 08:50:40.43	50.58	31.86	-43.1	-44.9	18.9	0.00e+00	0	40	0	0	57	4503
2026-01-21 08:50:41.14	50.33	31.84	-43.2	-44.9	18.9	0.00e+00	0	40	0	0	57	4544
2026-01-21 08:50:42.42	49.87	31.81	-43.3	-45.1	18.7	0.00e+00	0	40	0	0	57	4638
2026-01-21 08:50:43.17	49.60	31.79	-43.4	-45.2	18.7	0.00e+00	0	40	0	0	57	4673
2026-01-21 08:50:44.45	49.14	31.76	-43.5	-45.4	18.6	0.00e+00	0	40	0	0	57	4761
2026-01-21 08:50:45.16	48.89	31.74	-43.5	-45.4	18.5	0.00e+00	0	40	0	0	57	4769
2026-01-21 08:50:46.45	48.43	31.70	-43.5	-45.4	18.5	0.00e+00	0	40	0	0	57	4779
2026-01-21 08:50:47.16	48.17	31.68	-43.4	-45.2	18.7	0.00e+00	0	40	0	0	57	4677
2026-01-21 08:50:48.45	47.72	31.64	-43.4	-45.2	18.7	0.00e+00	0	40	0	0	57	4689
2026-01-21 08:50:49.16	47.46	31.61	-43.3	-45.1	18.7	0.00e+00	0	40	0	0	57	4638
2026-01-21 08:50:50.45	47.01	31.57	-43.2	-45.0	18.9	0.00e+00	0	40	0	0	57	4563
2026-01-21 08:50:51.17	46.75	31.54	-43.2	-45.0	18.9	0.00e+00	0	40	0	0	57	4594
2026-01-21 08:50:52.46	46.30	31.50	-43.1	-44.9	19.0	0.00e+00	0	40	0	0	57	4502
2026-01-21 08:50:53.18	46.04	31.47	-43.1	-44.9	18.9	0.00e+00	0	40	0	0	57	4530
2026-01-21 08:50:54.46	45.59	31.42	-43.3	-45.1	18.7	0.00e+00	0	40	0	0	57	4641
2026-01-21 08:50:55.18	45.34	31.39	-43.4	-45.3	18.5	0.00e+00	0	40	0	0	57	4715
2026-01-21 08:50:56.46	44.90	31.34	-43.6	-45.5	18.4	0.00e+00	0	40	0	0	57	4850
2026-01-21 08:50:57.19	44.64	31.31	-43.6	-45.5	18.4	0.00e+00	0	40	0	0	57	4852
2026-01-21 08:50:58.47	44.20	31.25	-43.6	-45.5	18.4	0.00e+00	0	40	0	0	58	4569
2026-01-21 08:50:59.18	43.95	31.22	-43.5	-45.4	18.5	0.00e+00	0	40	0	0	58	4499
2026-01-21 08:51:00.48	43.50	31.16	-43.0	-44.8	19.0	0.00e+00	0	40	0	0	58	4229
2026-01-21 08:51:01.19	43.26	31.13	-42.9	-44.7	19.1	0.00e+00	0	40	0	0	57	4405
2026-01-21 08:51:02.47	42.82	31.07	-42.8	-44.6	19.2	0.00e+00	0	40	0	0	57	4342
2026-01-21 08:51:03.19	42.57	31.04	-42.8	-44.6	19.2	0.00e+00	0	40	0	0	57	4347
2026-01-21 08:51:04.47	42.13	30.97	-43.2	-45.0	18.9	0.00e+00	0	40	0	0	57	4555
2026-01-21 08:51:05.19	41.89	30.94	-43.3	-45.2	18.7	0.00e+00	0	40	0	0	57	4652
2026-01-21 08:51:06.47	41.45	30.87	-43.6	-45.4	18.5	0.00e+00	0	40	0	0	57	4800
2026-01-21 08:51:07.18	41.21	30.83	-43.7	-45.6	18.4	0.00e+00	0	40	0	0	57	4874
2026-01-21 08:51:08.47	40.78	30.76	-43.4	-45.3	18.6	0.00e+00	0	40	0	0	57	4723
2026-01-21 08:51:09.18	40.54	30.72	-43.5	-45.3	18.5	0.00e+00	0	40	0	0	57	4746
2026-01-21 08:51:10.47	40.11	30.65	-43.2	-45.0	18.8	0.00e+00	0	40	0	0	57	4570
2026-01-21 08:51:11.18	39.87	30.61	-43.2	-45.0	18.7	0.00e+00	0	40	0	0	57	4585
2026-01-21 08:51:12.46	39.45	30.54	-43.0	-44.8	19.0	0.00e+00	0	40	0	0	57	4465
2026-01-21 08:51:13.19	39.21	30.49	-43.1	-44.9	18.9	0.00e+00	0	40	0	0	57	4506
2026-01-21 08:51:14.47	38.78	30.42	-43.5	-45.3	18.5	0.00e+00	0	40	0	0	57	4759
2026-01-21 08:51:15.21	38.54	30.37	-43.5	-45.4	18.4	0.00e+00	0	40	0	0	57	4797
2026-01-21 08:51:16.49	38.12	30.29	-43.5	-45.4	18.5	0.00e+00	0	40	0	0	57	4760
2026-01-21 08:51:17.21	37.89	30.25	-43.3	-45.2	18.6	0.00e+00	0	40	0	0	57	4662
2026-01-21 08:51:18.49	37.47	30.17	-43.3	-45.1	18.7	0.00e+00	0	40	0	0	57	4643
2026-01-21 08:51:19.23	37.23	30.12	-43.1	-44.9	18.8	0.00e+00	0	40	0	0	57	4525
2026-01-21 08:51:20.51	36.82	30.04	-42.9	-44.7	19.1	0.00e+00	0	40	0	0	57	4416
2026-01-21 08:51:21.23	36.59	29.99	-42.8	-44.6	19.2	0.00e+00	0	40	0	0	57	4353
2026-01-21 08:51:22.51	36.18	29.90	-42.9	-44.7	19.1	0.00e+00	0	40	0	0	57	4422
2026-01-21 08:51:23.22	35.95	29.85	-43.1	-44.9	18.9	0.00e+00	0	40	0	0	57	4537
2026-01-21 08:51:24.50	35.55	29.77	-43.1	-44.9	18.9	0.00e+00	0	40	0	0	57	4510
2026-01-21 08:51:25.22	35.32	29.72	-43.1	-44.9	18.9	0.00e+00	0	40	0	0	57	4523
2026-01-21 08:51:26.50	34.92	29.63	-43.1	-44.9	18.9	0.00e+00	0	40	0	0	57	4514
2026-01-21 08:51:27.23	34.69	29.58	-43.1	-44.9	18.9	0.00e+00	0	40	0	0	57	4535
2026-01-21 08:51:28.51	34.29	29.48	-42.8	-44.6	19.2	0.00e+00	0	40	0	0	57	4359
2026-01-21 08:51:29.23	34.07	29.43	-42.8	-44.5	19.3	0.00e+00	0	40	0	0	57	4335
2026-01-21 08:51:30.52	33.67	29.34	-43.0	-44.8	19.1	0.00e+00	0	40	0	0	57	4449
2026-01-21 08:51:31.23	33.45	29.28	-43.1	-44.9	19.0	0.00e+00	0	40	0	0	57	4497
2026-01-21 08:51:32.52	33.06	29.19	-43.3	-45.1	18.7	0.00e+00	0	40	0	0	57	4641
2026-01-21 08:51:33.23	32.84	29.13	-43.2	-45.0	18.8	0.00e+00	0	40	0	0	57	4574
2026-01-21 08:51:34.52	32.45	29.04	-42.9	-44.8	19.0	0.00e+00	0	40	0	0	57	4447
2026-01-21 08:51:35.23	32.24	28.98	-42.7	-44.5	19.2	0.00e+00	0	40	0	0	57	4328
2026-01-21 08:51:36.51	31.86	28.88	-42.2	-43.9	19.7	0.00e+00	0	40	0	0	56	4267
2026-01-21 08:51:37.23	31.64	28.83	-42.2	-43.9	19.7	0.00e+00	0	40	0	0	56	4280
2026-01-21 08:51:38.51	31.26	28.73	-42.4	-44.2	19.6	0.00e+00	0	40	0	0	56	4392
2026-01-21 08:51:39.27	31.04	28.67	-42.6	-44.4	19.3	0.00e+00	0	40	0	0	56	4518
2026-01-21 08:51:40.55	30.66	28.56	-43.1	-45.0	18.8	0.00e+00	0	40	0	0	56	4820
2026-01-21 08:51:41.27	30.45	28.50	-43.3	-45.2	18.6	0.00e+00	0	40	0	0	57	4677
2026-01-21 08:51:42.55	30.08	28.40	-43.4	-45.3	18.4	0.00e+00	0	40	0	0	57	4730
2026-01-21 08:51:43.27	29.87	28.34	-43.3	-45.2	18.4	0.00e+00	0	40	0	0	57	4674
2026-01-21 08:51:44.56	29.50	28.24	-43.4	-45.3	18.4	0.00e+00	0	40	0	0	57	4715
2026-01-21 08:51:45.27	29.30	28.18	-43.1	-45.0	18.7	0.00e+00	0	41	0	0	57	4546
2026-01-21 08:51:46.56	28.93	28.07	-42.7	-44.5	19.1	0.00e+00	0	40	0	0	57	4329
2026-01-21 08:51:47.27	28.73	28.01	-42.6	-44.4	19.3	0.00e+00	0	40	0	0	57	4263
2026-01-21 08:51:48.55	28.37	27.90	-42.7	-44.5	19.3	0.00e+00	0	40	0	0	57	4314
2026-01-21 08:51:49.27	28.16	27.84	-42.9	-44.7	19.1	0.00e+00	0	40	0	0	57	4418
2026-01-21 08:51:50.56	27.80	27.73	-43.0	-44.8	18.9	0.00e+00	0	40	0	0	57	4485
2026-01-21 08:51:51.27	27.61	27.67	-42.9	-44.7	19.0	0.00e+00	0	40	0	0	57	4429
2026-01-21 08:51:52.55	27.26	27.56	-42.7	-44.4	19.2	0.00e+00	0	40	0	0	57	4283
2026-01-21 08:51:53.27	27.06	27.50	-42.5	-44.2	19.3	0.00e+00	0	40	0	0	57	4190
2026-01-21 08:51:54.55	26.71	27.38	-42.3	-43.9	19.7	0.00e+00	0	40	0	0	56	4291
2026-01-21 08:51:55.26	26.52	27.32	-42.0	-43.7	20.0	0.00e+00	0	40	0	0	56	4157
2026-01-21 08:51:56.55	26.17	27.21	-41.8	-43.4	20.1	0.00e+00	0	40	0	0	55	4272
2026-01-21 08:51:57.26	25.98	27.14	-41.8	-43.4	20.1	0.00e+00	0	40	0	0	55	4273
2026-01-21 08:51:58.56	25.63	27.03	-42.1	-43.8	19.8	0.00e+00	0	41	0	0	55	4462
2026-01-21 08:51:59.27	25.44	26.97	-42.3	-44.0	19.6	0.00e+00	0	40	0	0	55	4577
2026-01-21 08:52:00.55	25.10	26.85	-42.5	-44.2	19.4	0.00e+00	0	40	0	0	55	4685
2026-01-21 08:52:01.27	24.92	26.79	-42.5	-44.2	19.3	0.00e+00	0	41	0	0	55	4698
2026-01-21 08:52:02.54	24.59	26.67	-42.4	-44.2	19.3	0.00e+00	0	40	0	0	55	4665
2026-01-21 08:52:03.26	24.40	26.60	-42.4	-44.1	19.4	0.00e+00	0	40	0	0	55	4636
2026-01-21 08:52:04.54	24.07	26.49	-42.3	-44.0	19.4	0.00e+00	0	40	0	0	55	4574
2026-01-21 08:52:05.26	23.88	26.42	-42.3	-44.0	19.5	0.00e+00	0	40	0	0	55	4570
2026-01-21 08:52:06.54	23.56	26.30	-42.3	-44.0	19.5	0.00e+00	0	40	0	0	55	4585
2026-01-21 08:52:07.26	23.38	26.24	-42.2	-43.9	19.6	0.00e+00	0	40	0	0	55	4544
2026-01-21 08:52:08.54	23.05	26.12	-42.3	-44.0	19.5	0.00e+00	0	40	0	0	55	4588
2026-01-21 08:52:09.25	22.88	26.05	-42.3	-44.0	19.5	0.00e+00	0	40	0	0	55	4572
2026-01-21 08:52:10.55	22.55	25.93	-42.3	-44.1	19.5	0.00e+00	0	40	0	0	55	4605
2026-01-21 08:52:11.27	22.37	25.87	-42.3	-44.0	19.5	0.00e+00	0	40	0	0	55	4582
2026-01-21 08:52:12.55	22.06	25.75	-42.2	-44.0	19.5	0.00e+00	0	40	0	0	55	4573
2026-01-21 08:52:13.28	21.88	25.68	-42.3	-44.0	19.5	0.00e+00	0	40	0	0	55	4596
2026-01-21 08:52:14.56	21.57	25.56	-42.5	-44.3	19.3	0.00e+00	0	40	0	0	55	4745
2026-01-21 08:52:15.27	21.40	25.49	-42.6	-44.4	19.1	0.00e+00	0	40	0	0	55	4806
2026-01-21 08:52:16.57	21.09	25.37	-43.0	-44.9	18.9	0.00e+00	0	40	0	0	56	4760
2026-01-21 08:52:17.28	20.92	25.30	-43.0	-44.9	18.8	0.00e+00	0	40	0	0	56	4765
2026-01-21 08:52:18.56	20.61	25.18	-42.9	-44.8	18.9	0.00e+00	0	40	0	0	56	4714
2026-01-21 08:52:19.29	20.44	25.11	-42.9	-44.8	18.8	0.00e+00	0	41	0	0	56	4721
2026-01-21 08:52:20.58	20.14	24.99	-43.0	-44.9	18.7	0.00e+00	0	40	0	0	56	4765
2026-01-21 08:52:21.31	19.97	24.92	-43.0	-44.8	18.8	0.00e+00	0	40	0	0	56	4759
2026-01-21 08:52:22.59	19.67	24.79	-43.0	-44.8	18.9	0.00e+00	0	40	0	0	56	4707
2026-01-21 08:52:23.31	19.51	24.73	-42.8	-44.5	19.1	0.00e+00	0	40	0	0	56	4592
2026-01-21 08:52:24.59	19.22	24.60	-42.6	-44.3	19.4	0.00e+00	0	40	0	0	56	4493
2026-01-21 08:52:25.32	19.05	24.53	-42.7	-44.5	19.3	0.00e+00	0	40	0	0	56	4546
2026-01-21 08:52:26.61	18.76	24.41	-42.7	-44.5	19.2	0.00e+00	0	40	0	0	56	4586
2026-01-21 08:52:27.32	18.60	24.34	-42.7	-44.5	19.2	0.00e+00	0	40	0	0	56	4564
2026-01-21 08:52:28.60	18.32	24.22	-42.7	-44.5	19.2	0.00e+00	0	40	0	0	56	4591
2026-01-21 08:52:29.32	18.16	24.15	-42.6	-44.4	19.2	0.00e+00	0	40	0	0	56	4542
2026-01-21 08:52:30.60	17.87	24.02	-42.6	-44.4	19.2	0.00e+00	0	40	0	0	56	4505
2026-01-21 08:52:31.32	17.72	23.95	-42.6	-44.5	19.2	0.00e+00	0	40	0	0	56	4554
2026-01-21 08:52:32.61	17.44	23.83	-42.5	-44.3	19.3	0.00e+00	0	40	0	0	56	4449
2026-01-21 08:52:33.32	17.28	23.76	-42.3	-44.1	19.5	0.00e+00	0	40	0	0	56	4369
2026-01-21 08:52:34.61	17.01	23.63	-42.3	-44.1	19.4	0.00e+00	0	40	0	0	56	4383
2026-01-21 08:52:35.32	16.85	23.57	-42.4	-44.2	19.3	0.00e+00	0	40	0	0	56	4422
2026-01-21 08:52:36.60	16.58	23.44	-42.5	-44.3	19.2	0.00e+00	0	41	0	0	56	4485
2026-01-21 08:52:37.33	16.43	23.37	-42.6	-44.4	19.1	0.00e+00	0	40	0	0	56	4543
2026-01-21 08:52:38.61	16.16	23.25	-42.7	-44.5	19.0	0.00e+00	0	40	0	0	56	4590
2026-01-21 08:52:39.34	16.01	23.17	-42.8	-44.7	18.9	0.00e+00	0	40	0	0	56	4661
2026-01-21 08:52:40.63	15.74	23.05	-42.8	-44.6	18.9	0.00e+00	0	40	0	0	56	4638
2026-01-21 08:52:41.35	15.60	22.98	-42.8	-44.7	18.9	0.00e+00	0	40	0	0	56	4662
2026-01-21 08:52:42.63	15.33	22.85	-42.8	-44.6	18.9	0.00e+00	0	40	0	0	56	4646
2026-01-21 08:52:43.35	15.19	22.78	-42.9	-44.7	18.9	0.00e+00	0	40	0	0	56	4705
2026-01-21 08:52:44.63	14.93	22.66	-43.0	-44.9	18.8	0.00e+00	0	40	0	0	56	4776
2026-01-21 08:52:45.34	14.79	22.59	-43.1	-45.0	18.7	0.00e+00	0	40	0	0	56	4824
2026-01-21 08:52:46.63	14.53	22.46	-43.3	-45.1	18.6	0.00e+00	0	40	0	0	57	4648
2026-01-21 08:52:47.34	14.39	22.40	-43.2	-45.1	18.7	0.00e+00	0	40	0	0	57	4610
2026-01-21 08:52:48.63	14.14	22.27	-43.0	-44.9	18.9	0.00e+00	0	40	0	0	57	4514
2026-01-21 08:52:49.34	14.00	22.20	-42.9	-44.8	19.0	0.00e+00	0	40	0	0	57	4456
2026-01-21 08:52:50.63	13.75	22.07	-42.8	-44.6	19.1	0.00e+00	0	40	0	0	57	4365
2026-01-21 08:52:51.35	13.61	22.00	-42.8	-44.6	19.1	0.00e+00	0	40	0	0	57	4358
2026-01-21 08:52:52.63	13.37	21.88	-42.8	-44.5	19.2	0.00e+00	0	40	0	0	57	4337
2026-01-21 08:52:53.35	13.23	21.81	-42.8	-44.6	19.2	0.00e+00	0	40	0	0	57	4344
2026-01-21 08:52:54.63	12.99	21.69	-42.6	-44.4	19.4	0.00e+00	0	40	0	0	57	4249
2026-01-21 08:52:55.36	12.85	21.61	-42.7	-44.5	19.3	0.00e+00	0	41	0	0	57	4292
2026-01-21 08:52:56.64	12.61	21.49	-42.9	-44.7	19.1	0.00e+00	0	40	0	0	57	4393
2026-01-21 08:52:57.36	12.48	21.42	-42.8	-44.6	19.1	0.00e+00	0	40	0	0	57	4382
2026-01-21 08:52:58.64	12.24	21.30	-43.0	-44.8	18.9	0.00e+00	0	40	0	0	57	4482
2026-01-21 08:52:59.38	12.11	21.22	-42.8	-44.6	19.1	0.00e+00	0	40	0	0	57	4389
2026-01-21 08:53:00.66	11.87	21.10	-42.7	-44.5	19.1	0.00e+00	0	40	0	0	57	4316
2026-01-21 08:53:01.38	11.74	21.03	-42.7	-44.5	19.2	0.00e+00	0	40	0	0	57	4310
2026-01-21 08:53:02.66	11.51	20.91	-42.6	-44.5	19.1	0.00e+00	0	40	0	0	57	4295
2026-01-21 08:53:03.37	11.39	20.84	-42.5	-44.3	19.3	0.00e+00	0	41	0	0	56	4462
2026-01-21 08:53:04.66	11.16	20.71	-42.2	-44.0	19.5	0.00e+00	0	40	0	0	56	4333
2026-01-21 08:53:05.37	11.03	20.64	-42.3	-44.1	19.5	0.00e+00	0	40	0	0	56	4354
2026-01-21 08:53:06.66	10.81	20.52	-42.1	-43.9	19.7	0.00e+00	0	40	0	0	56	4267
2026-01-21 08:53:07.37	10.68	20.45	-42.1	-43.9	19.7	0.00e+00	0	40	0	0	56	4271
2026-01-21 08:53:08.66	10.46	20.33	-42.2	-44.0	19.6	0.00e+00	0	40	0	0	56	4323
2026-01-21 08:53:09.37	10.34	20.26	-42.2	-43.9	19.7	0.00e+00	0	40	0	0	56	4284
2026-01-21 08:53:10.66	10.12	20.13	-42.2	-44.0	19.6	0.00e+00	0	41	0	0	56	4319
2026-01-21 08:53:11.37	10.00	20.07	-42.3	-44.1	19.5	0.00e+00	0	40	0	0	56	4368
2026-01-21 08:53:12.65	9.78	19.94	-42.3	-44.1	19.5	0.00e+00	0	40	0	0	56	4373
2026-01-21 08:53:13.38	9.66	19.87	-42.3	-44.2	19.4	0.00e+00	0	40	0	0	56	4397
2026-01-21 08:53:14.66	9.45	19.75	-42.2	-44.0	19.6	0.00e+00	0	40	0	0	56	4319
2026-01-21 08:53:15.39	9.33	19.68	-42.2	-44.0	19.5	0.00e+00	0	40	0	0	56	4332
2026-01-21 08:53:16.67	9.12	19.56	-42.2	-44.0	19.5	0.00e+00	0	41	0	0	56	4331
2026-01-21 08:53:17.40	9.00	19.49	-42.1	-43.9	19.7	0.00e+00	0	40	0	0	56	4263
2026-01-21 08:53:18.69	8.79	19.37	-42.0	-43.8	19.8	0.00e+00	0	41	0	0	56	4203
2026-01-21 08:53:19.41	8.67	19.30	-42.0	-43.8	19.8	0.00e+00	0	40	0	0	56	4196
2026-01-21 08:53:20.71	8.47	19.17	-42.2	-43.9	19.6	0.00e+00	0	40	0	0	56	4282
2026-01-21 08:53:21.42	8.35	19.11	-42.3	-44.1	19.5	0.00e+00	0	41	0	0	56	4352
2026-01-21 08:53:22.72	8.15	18.98	-42.4	-44.2	19.4	0.00e+00	0	40	0	0	56	4437
2026-01-21 08:53:23.43	8.04	18.92	-42.5	-44.4	19.2	0.00e+00	0	40	0	0	56	4516
2026-01-21 08:53:24.71	7.84	18.80	-42.6	-44.5	19.1	0.00e+00	0	40	0	0	56	4581
2026-01-21 08:53:25.45	7.72	18.73	-42.7	-44.6	19.1	0.00e+00	0	40	0	0	56	4605
2026-01-21 08:53:26.73	7.52	18.61	-42.8	-44.7	18.9	0.00e+00	0	40	0	0	56	4666
2026-01-21 08:53:27.44	7.42	18.54	-42.9	-44.8	18.9	0.00e+00	0	40	0	0	56	4709
2026-01-21 08:53:28.74	7.22	18.42	-42.7	-44.5	19.0	0.00e+00	0	40	0	0	56	4580
2026-01-21 08:53:29.45	7.11	18.35	-42.6	-44.4	19.1	0.00e+00	0	40	0	0	56	4536
2026-01-21 08:53:30.74	6.92	18.23	-42.7	-44.5	19.0	0.00e+00	0	40	0	0	56	4547
2026-01-21 08:53:31.45	6.81	18.16	-42.6	-44.4	19.0	0.00e+00	0	40	0	0	56	4527
2026-01-21 08:53:32.74	6.62	18.04	-42.6	-44.3	19.1	0.00e+00	0	40	0	0	56	4491
2026-01-21 08:53:33.45	6.52	17.98	-42.5	-44.3	19.1	0.00e+00	0	40	0	0	56	4485
2026-01-21 08:53:34.73	6.33	17.86	-42.7	-44.5	19.1	0.00e+00	0	40	0	0	56	4571
2026-01-21 08:53:35.44	6.22	17.79	-42.7	-44.5	19.1	0.00e+00	0	40	0	0	56	4588
2026-01-21 08:53:36.74	6.04	17.67	-42.7	-44.6	19.1	0.00e+00	0	40	0	0	56	4612
2026-01-21 08:53:37.45	5.93	17.60	-42.8	-44.7	19.0	0.00e+00	0	40	0	0	56	4659
2026-01-21 08:53:38.74	5.75	17.49	-43.0	-44.9	18.9	0.00e+00	0	40	0	0	56	4779
2026-01-21 08:53:39.45	5.65	17.42	-43.0	-44.9	18.8	0.00e+00	0	40	0	0	56	4794
2026-01-21 08:53:40.73	5.47	17.30	-43.1	-45.0	18.7	0.00e+00	0	40	0	0	56	4856
2026-01-21 08:53:41.45	5.37	17.24	-43.2	-45.1	18.6	0.00e+00	0	40	0	0	56	4893
2026-01-21 08:53:42.73	5.19	17.12	-43.1	-45.1	18.7	0.00e+00	0	41	0	0	57	4600
2026-01-21 08:53:43.46	5.09	17.05	-43.1	-45.0	18.7	0.00e+00	0	40	0	0	57	4577
2026-01-21 08:53:44.75	4.91	16.93	-43.1	-45.0	18.7	0.00e+00	0	41	0	0	57	4578
2026-01-21 08:53:45.46	4.81	16.87	-43.0	-45.0	18.7	0.00e+00	0	40	0	0	57	4548
2026-01-21 08:53:46.74	4.64	16.75	-42.9	-44.8	18.8	0.00e+00	0	40	0	0	57	4468
2026-01-21 08:53:47.46	4.54	16.69	-43.0	-44.9	18.8	0.00e+00	0	40	0	0	57	4500
2026-01-21 08:53:48.74	4.37	16.57	-42.8	-44.7	18.9	0.00e+00	0	40	0	0	57	4411
2026-01-21 08:53:49.45	4.28	16.51	-42.9	-44.7	18.9	0.00e+00	0	40	0	0	57	4435
2026-01-21 08:53:50.74	4.11	16.39	-42.8	-44.7	19.0	0.00e+00	0	40	0	0	57	4397
2026-01-21 08:53:51.46	4.01	16.33	-42.8	-44.6	19.1	0.00e+00	0	41	0	0	57	4370
2026-01-21 08:53:52.75	3.84	16.21	-42.9	-44.7	19.0	0.00e+00	0	40	0	0	57	4419
2026-01-21 08:53:53.47	3.75	16.15	-43.0	-44.8	18.9	0.00e+00	0	40	0	0	57	4474
2026-01-21 08:53:54.75	3.58	16.03	-43.2	-45.1	18.7	0.00e+00	0	40	0	0	57	4606
2026-01-21 08:53:55.46	3.49	15.97	-43.2	-45.1	18.7	0.00e+00	0	40	0	0	57	4603
2026-01-21 08:53:56.74	3.33	15.85	-43.4	-45.3	18.5	0.00e+00	0	40	0	0	57	4732
2026-01-21 08:53:57.45	3.24	15.79	-43.4	-45.3	18.5	0.00e+00	0	40	0	0	57	4757
2026-01-21 08:53:58.74	3.07	15.68	-43.5	-45.4	18.4	0.00e+00	0	40	0	0	57	4792
2026-01-21 08:53:59.47	2.98	15.61	-43.5	-45.5	18.3	0.00e+00	0	40	0	0	57	4823
2026-01-21 08:54:00.75	2.82	15.50	-43.6	-45.5	18.2	0.00e+00	0	40	0	0	57	4854
2026-01-21 08:54:01.46	2.74	15.43	-43.5	-45.4	18.4	0.00e+00	0	40	0	0	57	4787
2026-01-21 08:54:02.75	2.58	15.32	-43.4	-45.3	18.4	0.00e+00	0	40	0	0	57	4740
2026-01-21 08:54:03.46	2.49	15.26	-43.4	-45.3	18.4	0.00e+00	0	40	0	0	57	4757
2026-01-21 08:54:04.75	2.33	15.14	-43.4	-45.3	18.4	0.00e+00	0	40	0	0	57	4759
2026-01-21 08:54:05.46	2.25	15.08	-43.2	-45.2	18.6	0.00e+00	0	40	0	0	57	4661
2026-01-21 08:54:06.75	2.09	14.97	-43.2	-45.1	18.6	0.00e+00	0	40	0	0	57	4646
2026-01-21 08:54:07.47	2.01	14.91	-43.2	-45.2	18.6	0.00e+00	0	40	0	0	57	4660
2026-01-21 08:54:08.76	1.85	14.79	-43.2	-45.1	18.6	0.00e+00	0	40	0	0	57	4627
2026-01-21 08:54:09.47	1.77	14.73	-43.3	-45.2	18.6	0.00e+00	0	40	0	0	57	4669
2026-01-21 08:54:10.76	1.62	14.62	-43.3	-45.2	18.5	0.00e+00	0	40	0	0	57	4695
2026-01-21 08:54:11.47	1.53	14.56	-43.4	-45.3	18.5	0.00e+00	0	40	0	0	57	4722
2026-01-21 08:54:12.76	1.39	14.45	-43.5	-45.4	18.4	0.00e+00	0	40	0	0	57	4779
2026-01-21 08:54:13.48	1.30	14.39	-43.5	-45.4	18.3	0.00e+00	0	40	0	0	57	4806
2026-01-21 08:54:14.77	1.15	14.28	-43.6	-45.5	18.2	0.00e+00	0	41	0	0	57	4868
2026-01-21 08:54:15.48	1.07	14.21	-43.7	-45.7	18.1	0.00e+00	0	40	0	0	58	4670
2026-01-21 08:54:16.77	0.93	14.10	-43.8	-45.7	18.1	0.00e+00	0	40	0	0	58	4704
2026-01-21 08:54:17.49	0.85	14.04	-43.8	-45.8	18.0	0.00e+00	0	40	0	0	58	4726
2026-01-21 08:54:18.77	0.70	13.93	-43.8	-45.8	17.9	0.00e+00	0	40	0	0	58	4747
2026-01-21 08:54:19.49	0.62	13.87	-43.9	-46.0	17.8	0.00e+00	0	40	0	0	58	4835
2026-01-21 08:54:20.77	0.48	13.76	-44.0	-46.0	17.8	0.00e+00	0	40	0	0	58	4850
2026-01-21 08:54:21.49	0.40	13.70	-44.0	-46.0	17.8	0.00e+00	0	40	0	0	58	4838
2026-01-21 08:54:22.77	0.26	13.60	-44.0	-46.0	17.7	0.00e+00	0	40	0	0	58	4852
2026-01-21 08:54:23.49	0.18	13.53	-44.0	-46.0	17.7	0.00e+00	0	40	0	0	58	4846
2026-01-21 08:54:24.78	0.05	13.43	-44.1	-46.1	17.6	0.00e+00	0	40	0	0	58	4923
2026-01-21 08:54:25.49	359.97	13.37	-44.0	-46.0	17.7	0.00e+00	0	40	0	0	58	4843
2026-01-21 08:54:26.78	359.83	13.26	-43.9	-45.9	17.7	0.00e+00	0	40	0	0	58	4794
2026-01-21 08:54:27.50	359.75	13.20	-43.9	-45.9	17.7	0.00e+00	0	40	0	0	58	4812
2026-01-21 08:54:28.79	359.62	13.09	-43.7	-45.8	17.8	0.00e+00	0	41	0	0	58	4712
2026-01-21 08:54:29.50	359.54	13.03	-43.7	-45.7	17.8	0.00e+00	0	40	0	0	58	4698
2026-01-21 08:54:30.79	359.41	12.93	-43.6	-45.7	17.9	0.00e+00	0	40	0	0	58	4671
2026-01-21 08:54:31.51	359.34	12.87	-43.5	-45.6	18.0	0.00e+00	0	40	0	0	58	4613
2026-01-21 08:54:32.79	359.20	12.76	-43.5	-45.5	18.1	0.00e+00	0	40	0	0	58	4593
2026-01-21 08:54:33.51	359.13	12.70	-43.5	-45.5	18.1	0.00e+00	0	40	0	0	58	4590
2026-01-21 08:54:34.80	359.00	12.59	-43.6	-45.6	18.1	0.00e+00	0	40	0	0	58	4627
2026-01-21 08:54:35.52	358.93	12.54	-43.6	-45.6	18.1	0.00e+00	0	40	0	0	58	4643
2026-01-21 08:54:36.80	358.80	12.43	-43.6	-45.6	18.0	0.00e+00	0	40	0	0	58	4635
2026-01-21 08:54:37.52	358.72	12.37	-43.7	-45.7	17.9	0.00e+00	0	40	0	0	58	4697
2026-01-21 08:54:38.80	358.60	12.27	-43.8	-45.9	17.9	0.00e+00	0	40	0	0	58	4770
2026-01-21 08:54:39.52	358.53	12.21	-43.9	-45.9	17.8	0.00e+00	0	41	0	0	58	4797
2026-01-21 08:54:40.81	358.40	12.10	-44.0	-46.1	17.6	0.00e+00	0	40	0	0	58	4893
2026-01-21 08:54:41.52	358.33	12.05	-44.1	-46.2	17.5	0.00e+00	0	40	0	0	58	4938
2026-01-21 08:54:42.81	358.20	11.94	-44.1	-46.4	17.3	0.00e+00	0	40	0	0	58	5048
2026-01-21 08:54:43.53	358.13	11.89	-44.1	-46.3	17.4	0.00e+00	0	40	0	0	58	5025
2026-01-21 08:54:44.82	358.01	11.78	-44.2	-46.5	17.2	0.00e+00	0	40	0	0	58	5109
2026-01-21 08:54:45.53	357.94	11.72	-44.2	-46.5	17.2	0.00e+00	0	41	0	0	59	4844
2026-01-21 08:54:46.82	357.82	11.62	-44.1	-46.5	17.1	0.00e+00	0	41	0	0	59	4828
2026-01-21 08:54:47.53	357.75	11.56	-44.1	-46.4	17.1	0.00e+00	0	40	0	0	59	4811
2026-01-21 08:54:48.82	357.63	11.46	-44.1	-46.5	17.1	0.00e+00	0	40	0	0	59	4839
2026-01-21 08:54:49.54	357.56	11.40	-44.1	-46.5	17.1	0.00e+00	0	40	0	0	59	4849
2026-01-21 08:54:50.83	357.44	11.30	-44.1	-46.5	17.1	0.00e+00	0	40	0	0	59	4818
2026-01-21 08:54:51.54	357.38	11.25	-44.1	-46.3	17.2	0.00e+00	0	40	0	0	59	4757
2026-01-21 08:54:52.83	357.26	11.14	-44.1	-46.3	17.2	0.00e+00	0	40	0	0	59	4759
2026-01-21 08:54:53.55	357.19	11.09	-44.1	-46.3	17.3	0.00e+00	0	40	0	0	59	4723
2026-01-21 08:54:54.83	357.08	10.99	-43.9	-46.0	17.5	0.00e+00	0	40	0	0	59	4575
2026-01-21 08:54:55.55	357.01	10.93	-43.8	-45.9	17.7	0.00e+00	0	40	0	0	59	4527
2026-01-21 08:54:56.83	356.90	10.83	-43.9	-46.1	17.5	0.00e+00	0	40	0	0	59	4628
2026-01-21 08:54:57.56	356.83	10.77	-43.7	-45.9	17.7	0.00e+00	0	40	0	0	59	4495
2026-01-21 08:54:58.85	356.72	10.67	-43.7	-45.8	17.8	0.00e+00	0	40	0	0	59	4483
2026-01-21 08:54:59.57	356.65	10.62	-43.7	-45.8	17.8	0.00e+00	0	40	0	0	59	4491
2026-01-21 08:55:00.85	356.54	10.52	-43.7	-45.9	17.7	0.00e+00	0	40	0	0	59	4542
2026-01-21 08:55:01.57	356.48	10.46	-43.7	-46.0	17.7	0.00e+00	0	40	0	0	59	4580
2026-01-21 08:55:02.86	356.37	10.36	-43.8	-46.1	17.5	0.00e+00	0	41	0	0	59	4636
2026-01-21 08:55:03.57	356.30	10.31	-43.7	-46.1	17.6	0.00e+00	0	40	0	0	59	4608
2026-01-21 08:55:04.85	356.19	10.21	-43.7	-46.2	17.5	0.00e+00	0	40	0	0	59	4665
2026-01-21 08:55:05.57	356.13	10.16	-43.7	-46.2	17.5	0.00e+00	0	40	0	0	59	4672
2026-01-21 08:55:06.86	356.02	10.06	-43.7	-46.3	17.4	0.00e+00	0	40	0	0	59	4723
2026-01-21 08:55:07.57	355.96	10.00	-43.8	-46.4	17.3	0.00e+00	0	40	0	0	59	4791
2026-01-21 08:55:08.86	355.85	9.90	-43.8	-46.5	17.2	0.00e+00	0	40	0	0	59	4849
2026-01-21 08:55:09.57	355.79	9.85	-43.7	-46.5	17.2	0.00e+00	0	40	0	0	59	4870
2026-01-21 08:55:10.86	355.69	9.75	-43.6	-46.6	17.1	0.00e+00	0	40	0	0	59	4906
2026-01-21 08:55:11.58	355.63	9.70	-43.5	-46.5	17.2	0.00e+00	0	40	0	0	59	4854
2026-01-21 08:55:12.87	355.52	9.60	-43.4	-46.6	17.1	0.00e+00	0	40	0	0	58	5203
2026-01-21 08:55:13.58	355.46	9.55	-43.4	-46.6	17.0	0.00e+00	0	40	0	0	58	5216
2026-01-21 08:55:14.87	355.36	9.45	-43.2	-46.8	16.9	0.00e+00	0	40	0	0	58	5312
2026-01-21 08:55:15.59	355.30	9.40	-43.1	-46.6	17.0	0.00e+00	0	40	0	0	58	5212
2026-01-21 08:55:16.87	355.20	9.30	-43.1	-46.8	16.8	0.00e+00	0	40	0	0	58	5329
2026-01-21 08:55:17.59	355.14	9.25	-43.1	-46.8	16.9	0.00e+00	0	40	0	0	58	5280
2026-01-21 08:55:18.88	355.04	9.15	-43.2	-46.7	16.9	0.00e+00	0	40	0	0	58	5243
2026-01-21 08:55:19.59	354.98	9.10	-43.4	-46.7	16.9	0.00e+00	0	40	0	0	58	5219
2026-01-21 08:55:20.88	354.88	9.00	-46.9	-55.4	8.8	2.20e-06	0	40	0	0	64	10081
2026-01-21 08:55:21.59	354.82	8.95	-50.6	-65.2	3.8	1.49e+00	0	40	104	0	71	20853
2026-01-21 08:55:22.87	354.72	8.86	-51.9	-65.3	3.8	1.49e+00	0	40	104	0	74	17802
2026-01-21 08:55:23.58	354.67	8.80	-51.7	-65.4	3.8	1.49e+00	0	40	104	0	74	18071
2026-01-21 08:55:24.86	354.57	8.71	-52.4	-65.5	3.8	1.49e+00	0	40	104	0	75	17175
2026-01-21 08:55:25.57	354.51	8.66	-52.2	-65.6	3.8	1.49e+00	0	40	104	0	75	17295
2026-01-21 08:55:26.85	354.42	8.57	-52.4	-65.6	3.8	1.49e+00	0	40	104	0	75	17463
2026-01-21 08:55:27.58	354.36	8.51	-52.6	-65.6	3.8	1.49e+00	0	40	104	0	75	17459
2026-01-21 08:55:28.86	354.26	8.42	-52.6	-65.7	3.8	1.49e+00	0	40	104	0	75	17595
2026-01-21 08:55:29.59	354.21	8.37	-52.5	-65.7	3.8	1.49e+00	0	40	104	0	75	17652
2026-01-21 08:55:30.87	354.11	8.27	-52.2	-65.8	3.8	1.49e+00	0	40	104	0	75	17711
2026-01-21 08:55:31.60	354.06	8.22	-52.7	-65.7	3.8	1.49e+00	0	40	104	0	76	16693
2026-01-21 08:55:32.88	353.96	8.13	-52.5	-65.8	3.8	1.49e+00	0	40	104	0	76	16773
2026-01-21 08:55:33.60	353.91	8.08	-52.6	-65.8	3.8	1.49e+00	0	40	104	0	76	16803
2026-01-21 08:55:34.89	353.82	7.98	-52.8	-65.8	3.8	1.49e+00	0	40	104	0	76	16812
2026-01-21 08:55:35.60	353.76	7.93	-52.8	-65.8	3.8	1.49e+00	0	40	104	0	76	16793
2026-01-21 08:55:36.88	353.67	7.84	-52.7	-65.8	3.8	1.49e+00	0	40	104	0	76	16843
2026-01-21 08:55:37.59	353.62	7.79	-52.6	-65.8	3.8	1.49e+00	0	40	104	0	76	16850
2026-01-21 08:55:38.88	353.53	7.70	-52.7	-65.8	3.8	1.49e+00	0	40	104	0	76	16804
2026-01-21 08:55:39.59	353.48	7.65	-52.8	-65.8	3.8	1.49e+00	0	40	104	0	76	16804
2026-01-21 08:55:40.87	353.39	7.56	-52.6	-65.8	3.8	1.49e+00	0	41	104	0	76	16873
2026-01-21 08:55:41.59	353.33	7.51	-52.8	-65.8	3.8	1.49e+00	0	40	104	0	76	16865
2026-01-21 08:55:42.86	353.25	7.42	-52.8	-65.8	3.8	1.49e+00	0	40	104	0	76	16881
2026-01-21 08:55:43.59	353.19	7.37	-52.7	-65.8	3.8	1.49e+00	0	40	104	0	76	16872
2026-01-21 08:55:44.87	353.11	7.28	-52.9	-65.9	3.8	1.49e+00	0	40	104	0	76	16910
2026-01-21 08:55:45.61	353.05	7.22	-52.8	-65.8	3.8	1.49e+00	0	40	104	0	76	16870
2026-01-21 08:55:46.89	352.97	7.13	-52.8	-65.8	3.8	1.49e+00	0	40	104	0	76	16813
2026-01-21 08:55:47.63	352.91	7.08	-52.7	-65.9	3.8	1.49e+00	0	40	104	0	76	16905
2026-01-21 08:55:48.91	352.83	6.99	-52.7	-65.8	3.8	1.49e+00	0	40	104	0	76	16819
2026-01-21 08:55:49.63	352.78	6.94	-52.6	-65.8	3.8	1.49e+00	0	40	104	0	76	16823
2026-01-21 08:55:50.91	352.69	6.85	-52.6	-65.8	3.8	1.49e+00	0	40	104	0	76	16772
2026-01-21 08:55:51.63	352.64	6.81	-52.5	-65.8	3.8	1.49e+00	0	40	104	0	76	16799
2026-01-21 08:55:52.92	352.56	6.72	-52.5	-65.8	3.8	1.49e+00	0	40	104	0	76	16753
2026-01-21 08:55:53.64	352.51	6.67	-52.5	-65.8	3.8	1.49e+00	0	40	104	0	76	16748
2026-01-21 08:55:54.93	352.42	6.58	-52.5	-65.8	3.8	1.49e+00	0	40	104	0	76	16756
2026-01-21 08:55:55.64	352.38	6.53	-52.5	-65.8	3.8	1.49e+00	0	40	104	0	76	16768
2026-01-21 08:55:56.92	352.29	6.44	-52.5	-65.8	3.8	1.49e+00	0	40	104	0	76	16734
2026-01-21 08:55:57.68	352.24	6.39	-52.5	-65.8	3.8	1.49e+00	0	40	104	0	76	16704
2026-01-21 08:55:58.96	352.16	6.30	-52.5	-65.8	3.8	1.49e+00	0	40	104	0	76	16746
2026-01-21 08:55:59.68	352.11	6.25	-52.6	-65.8	3.8	1.49e+00	0	40	104	0	76	16698
2026-01-21 08:56:00.96	352.03	6.17	-52.5	-65.8	3.8	1.49e+00	0	40	104	0	76	16724
2026-01-21 08:56:01.69	351.99	6.12	-52.5	-65.8	3.8	1.49e+00	0	40	104	0	76	16727
2026-01-21 08:56:02.97	351.90	6.03	-52.5	-65.8	3.8	1.49e+00	0	40	104	0	76	16740
2026-01-21 08:56:03.71	351.86	5.98	-52.5	-65.8	3.8	1.49e+00	0	40	104	0	76	16701
2026-01-21 08:56:04.99	351.78	5.89	-52.5	-65.8	3.8	1.49e+00	0	40	104	0	76	16707
2026-01-21 08:56:05.70	351.73	5.85	-52.5	-65.8	3.8	1.49e+00	0	40	104	0	76	16725
2026-01-21 08:56:06.99	351.65	5.76	-52.5	-65.8	3.8	1.49e+00	0	40	104	0	76	16721
2026-01-21 08:56:07.71	351.61	5.71	-52.5	-65.8	3.8	1.49e+00	0	40	104	0	76	16737
2026-01-21 08:56:08.99	351.53	5.63	-52.5	-65.8	3.8	1.49e+00	0	40	104	0	76	16732
2026-01-21 08:56:09.73	351.48	5.58	-52.5	-65.7	3.8	1.49e+00	0	40	104	0	76	16673
2026-01-21 08:56:11.01	351.40	5.49	-52.5	-65.7	3.8	1.49e+00	0	40	104	0	76	16677
2026-01-21 08:56:11.74	351.36	5.44	-52.5	-65.8	3.8	1.49e+00	0	40	104	0	76	16736
2026-01-21 08:56:13.02	351.28	5.36	-52.5	-65.8	3.8	1.49e+00	0	40	104	0	76	16728
2026-01-21 08:56:13.75	351.24	5.31	-52.5	-65.8	3.8	1.49e+00	0	40	104	0	76	16707
2026-01-21 08:56:15.03	351.16	5.23	-52.5	-65.8	3.8	1.49e+00	0	40	104	0	76	16706
2026-01-21 08:56:15.78	351.12	5.18	-52.5	-65.8	3.8	1.49e+00	0	40	104	0	76	16711
2026-01-21 08:56:17.07	351.04	5.09	-52.5	-65.8	3.8	1.49e+00	0	40	104	0	76	16728
2026-01-21 08:56:17.78	351.00	5.05	-52.5	-65.7	3.8	1.49e+00	0	40	104	0	76	16683
2026-01-21 08:56:19.06	350.92	4.96	-52.5	-65.8	3.8	1.49e+00	0	41	104	0	76	16696

#Closed at: 2026-01-21 08:56:19
#Recorded file [0 MB]: D:/Data/31040_260121_114431.dat