passes_logs/2026/01/21/T1/T1__20260121_105400_SUOMI_NPP_rec.log

#Pass ID: 20260121_105400_SUOMI NPP
#Satellite: SUOMI NPP
#Configuration: NPP
#almurnet v.1.7.20251203
#Start time: 2026-01-21 10:54:02

#Version: 2.0.20230620
#Station: T1
#Location: 37.570604 lon 55.790049 lat
#TLE: 1 37849U 11061A   26020.95430537  .00000198  00000+0  11470-3 0  9999
#TLE: 2 37849  98.7819 322.9518 0002315  53.3069 306.8320 14.19527555737555

#Time	Az	El	Level	Level2	SNR	BER	BlckErr	Temp	State	Recorded	gain1	gain2
2026-01-21 10:54:02.58	188.97	5.17	-50.9	-67.1	3.8	1.49e+00	0	36	0	0	73	23178
2026-01-21 10:54:03.57	189.02	5.23	-50.9	-67.0	3.8	1.49e+00	0	36	104	0	72	24299
2026-01-21 10:54:04.57	189.08	5.30	-50.9	-66.9	3.8	1.49e+00	0	36	104	0	72	24113
2026-01-21 10:54:05.56	189.13	5.37	-50.9	-66.9	3.8	1.49e+00	0	36	104	0	72	23906
2026-01-21 10:54:06.55	189.18	5.44	-50.9	-66.8	3.8	1.49e+00	0	36	104	0	72	23665
2026-01-21 10:54:07.55	189.23	5.51	-50.9	-66.8	3.8	1.49e+00	0	36	104	0	72	23731
2026-01-21 10:54:08.54	189.29	5.57	-50.9	-66.8	3.8	1.49e+00	0	36	104	0	72	23599
2026-01-21 10:54:09.53	189.34	5.64	-50.9	-66.7	3.8	1.49e+00	0	36	104	0	72	23556
2026-01-21 10:54:10.53	189.39	5.71	-50.9	-66.9	3.8	1.49e+00	0	36	104	0	72	23859
2026-01-21 10:54:11.52	189.44	5.78	-50.9	-66.9	3.8	1.49e+00	0	37	104	0	72	23907
2026-01-21 10:54:12.51	189.50	5.85	-50.9	-66.9	3.8	1.49e+00	0	36	104	0	72	24027
2026-01-21 10:54:13.51	189.55	5.92	-50.9	-67.0	3.8	1.49e+00	0	37	104	0	72	24139
2026-01-21 10:54:14.50	189.61	5.99	-50.9	-66.9	3.8	1.49e+00	0	37	104	0	72	24112
2026-01-21 10:54:15.50	189.66	6.06	-50.9	-67.0	3.8	1.49e+00	0	37	104	0	72	24180
2026-01-21 10:54:16.49	189.72	6.13	-50.9	-66.9	3.8	1.49e+00	0	37	104	0	72	23965
2026-01-21 10:54:17.48	189.77	6.20	-50.9	-67.0	3.8	1.49e+00	0	37	104	0	72	24180
2026-01-21 10:54:18.48	189.83	6.27	-50.9	-66.8	3.8	1.49e+00	0	37	104	0	72	23689
2026-01-21 10:54:19.47	189.88	6.34	-50.9	-66.8	3.8	1.49e+00	0	37	104	0	72	23791
2026-01-21 10:54:20.47	189.94	6.41	-50.9	-66.9	3.8	1.49e+00	0	37	104	0	72	23929
2026-01-21 10:54:21.46	189.99	6.48	-50.9	-66.8	3.8	1.49e+00	0	37	104	0	72	23690
2026-01-21 10:54:22.45	190.05	6.55	-50.9	-66.9	3.8	1.49e+00	0	37	104	0	72	24104
2026-01-21 10:54:23.45	190.11	6.62	-50.9	-67.0	3.8	1.49e+00	0	37	104	0	72	24214
2026-01-21 10:54:24.44	190.16	6.69	-50.9	-67.0	3.8	1.49e+00	0	37	104	0	72	24292
2026-01-21 10:54:25.43	190.22	6.76	-50.9	-67.0	3.8	1.49e+00	0	37	104	0	72	24291
2026-01-21 10:54:26.42	190.28	6.83	-50.9	-66.9	3.8	1.49e+00	0	37	104	0	72	24105
2026-01-21 10:54:27.42	190.33	6.91	-50.9	-66.6	3.8	1.49e+00	0	37	104	0	72	23136
2026-01-21 10:54:28.41	190.39	6.98	-50.9	-66.3	3.8	1.49e+00	0	37	104	0	72	22314
2026-01-21 10:54:29.41	190.45	7.05	-50.9	-66.0	3.8	1.49e+00	0	37	104	0	72	21513
2026-01-21 10:54:30.40	190.51	7.12	-50.8	-65.6	3.8	1.49e+00	0	37	104	0	72	20656
2026-01-21 10:54:31.39	190.57	7.20	-50.8	-65.5	3.8	1.49e+00	0	37	104	0	72	20429
2026-01-21 10:54:32.39	190.63	7.27	-50.8	-65.5	3.8	1.49e+00	0	37	104	0	72	20488
2026-01-21 10:54:33.38	190.68	7.34	-50.8	-66.2	3.8	1.49e+00	0	37	104	0	72	22095
2026-01-21 10:54:34.37	190.74	7.41	-50.9	-66.9	3.8	1.49e+00	0	37	104	0	72	23879
2026-01-21 10:54:35.37	190.80	7.49	-50.9	-67.0	3.8	1.49e+00	0	37	104	0	72	24378
2026-01-21 10:54:36.36	190.86	7.56	-50.8	-65.6	3.8	1.49e+00	0	37	104	0	72	20688
2026-01-21 10:54:37.36	190.92	7.63	-50.6	-62.7	4.4	1.49e+00	0	37	0	0	72	14849
2026-01-21 10:54:38.35	190.98	7.71	-50.3	-60.1	5.9	7.40e-01	0	37	0	1048576	72	10905
2026-01-21 10:54:39.34	191.04	7.78	-49.9	-57.5	8.2	1.00e-01	0	37	0	3145728	71	8624
2026-01-21 10:54:40.33	191.11	7.86	-49.3	-55.5	10.3	1.30e-02	0	37	0	5242880	70	7215
2026-01-21 10:54:41.33	191.17	7.93	-48.7	-54.0	11.8	1.38e-03	0	37	0	7340032	69	6434
2026-01-21 10:54:42.32	191.23	8.00	-48.1	-52.7	13.1	1.60e-04	0	38	0	8388608	68	5882
2026-01-21 10:54:43.31	191.29	8.08	-47.6	-51.8	13.9	8.30e-06	0	38	0	10485760	67	5601
2026-01-21 10:54:44.31	191.35	8.15	-47.3	-51.3	14.4	0.00e+00	0	37	0	12582912	66	5621
2026-01-21 10:54:45.30	191.42	8.23	-47.0	-50.7	14.9	0.00e+00	0	37	0	14680064	65	5581
2026-01-21 10:54:46.29	191.48	8.30	-47.0	-50.8	14.9	0.00e+00	0	38	0	16777216	65	5611
2026-01-21 10:54:47.29	191.54	8.38	-47.0	-50.7	15.0	0.00e+00	0	38	0	17825792	65	5546
2026-01-21 10:54:48.28	191.61	8.46	-47.4	-51.5	14.1	0.00e+00	0	38	0	19922944	65	6121
2026-01-21 10:54:49.27	191.67	8.53	-47.7	-52.1	13.6	1.50e-06	0	38	0	22020096	66	6150
2026-01-21 10:54:50.27	191.73	8.61	-48.1	-52.9	12.8	2.89e-05	0	38	0	24117248	66	6733
2026-01-21 10:54:51.26	191.80	8.68	-48.6	-54.1	11.6	3.56e-04	0	38	0	25165824	67	7300
2026-01-21 10:54:52.25	191.86	8.76	-49.2	-55.3	10.4	1.50e-03	0	38	0	27262976	69	7540
2026-01-21 10:54:53.25	191.93	8.84	-49.8	-57.0	8.7	1.16e-02	0	38	0	29360128	70	8640
2026-01-21 10:54:54.24	191.99	8.91	-50.0	-58.3	7.5	7.89e-02	0	38	0	31457280	70	9974
2026-01-21 10:54:55.23	192.06	8.99	-50.3	-59.7	6.2	1.89e-01	0	38	0	32505856	71	11051
2026-01-21 10:54:56.23	192.13	9.07	-50.5	-60.9	5.4	4.19e-01	0	38	0	34603008	71	12690
2026-01-21 10:54:57.44	192.21	9.16	-50.1	-58.4	7.1	4.16e-01	0	38	0	37748736	71	9596
2026-01-21 10:54:58.32	192.27	9.23	-49.8	-57.1	8.8	6.17e-03	0	38	0	38797312	70	8749
2026-01-21 10:54:59.65	192.36	9.34	-50.8	-63.4	4.2	1.41e+00	0	38	0	39845888	72	16041
2026-01-21 10:55:00.36	192.40	9.39	-50.5	-61.3	5.0	1.36e+00	0	38	0	39845888	72	12560
2026-01-21 10:55:01.64	192.49	9.49	-49.9	-57.6	8.1	6.31e-02	0	38	0	42991616	71	8750
2026-01-21 10:55:02.36	192.54	9.55	-49.9	-57.5	8.2	5.48e-02	0	38	0	44040192	71	8655
2026-01-21 10:55:03.64	192.63	9.65	-49.5	-55.9	10.0	1.26e-02	0	38	0	46137344	70	7617
2026-01-21 10:55:04.35	192.68	9.71	-49.3	-55.2	10.5	7.90e-03	0	38	0	47185920	70	7016
2026-01-21 10:55:05.63	192.77	9.81	-49.3	-55.0	11.0	2.61e-03	0	38	0	50331648	70	6802
2026-01-21 10:55:06.37	192.82	9.87	-49.3	-54.9	10.9	2.23e-03	0	38	0	51380224	70	6793
2026-01-21 10:55:07.65	192.91	9.97	-49.2	-54.6	11.3	3.11e-03	0	38	0	53477376	70	6506
2026-01-21 10:55:08.49	192.97	10.04	-49.2	-54.6	11.3	9.13e-04	0	38	0	55574528	70	6498
2026-01-21 10:55:09.62	193.05	10.13	-48.8	-53.6	12.3	3.13e-04	0	38	0	57671680	69	6184
2026-01-21 10:55:10.68	193.13	10.22	-48.6	-53.3	12.6	1.39e-04	0	38	0	59768832	69	5927
2026-01-21 10:55:11.73	193.20	10.30	-48.4	-52.7	13.1	7.55e-05	0	38	0	60817408	68	5918
2026-01-21 10:55:12.67	193.27	10.38	-48.5	-52.9	13.0	2.44e-05	0	38	0	62914560	68	6041
2026-01-21 10:55:13.67	193.34	10.46	-48.5	-53.0	12.9	2.59e-05	0	38	0	65011712	68	6114
2026-01-21 10:55:14.66	193.42	10.54	-48.4	-52.8	13.1	1.90e-05	0	38	0	67108864	68	5985
2026-01-21 10:55:15.66	193.49	10.62	-48.4	-52.7	13.2	1.75e-05	0	38	0	69206016	68	5877
2026-01-21 10:55:16.65	193.56	10.70	-48.4	-52.7	13.3	1.14e-05	0	38	0	70254592	68	5881
2026-01-21 10:55:17.65	193.64	10.79	-48.2	-52.3	13.6	1.52e-05	0	38	0	72351744	68	5627
2026-01-21 10:55:18.65	193.71	10.87	-48.2	-52.3	13.6	6.80e-06	0	38	0	74448896	68	5614
2026-01-21 10:55:19.64	193.79	10.95	-47.6	-51.3	14.4	2.20e-06	0	38	0	76546048	67	5321
2026-01-21 10:55:20.64	193.86	11.04	-47.2	-50.6	15.1	0.00e+00	0	38	0	77594624	66	5206
2026-01-21 10:55:21.63	193.94	11.12	-46.9	-50.3	15.5	0.00e+00	0	38	0	79691776	65	5301
2026-01-21 10:55:22.68	194.02	11.21	-46.7	-49.9	15.8	0.00e+00	0	38	0	81788928	65	5077
2026-01-21 10:55:23.63	194.09	11.29	-46.8	-50.1	15.6	0.00e+00	0	38	0	83886080	65	5180
2026-01-21 10:55:24.62	194.17	11.37	-46.4	-49.5	16.2	0.00e+00	0	38	0	85983232	64	5150
2026-01-21 10:55:25.62	194.25	11.45	-46.4	-49.6	16.1	0.00e+00	0	38	0	87031808	64	5171
2026-01-21 10:55:26.61	194.32	11.54	-46.4	-49.6	16.2	0.00e+00	0	38	0	89128960	64	5170
2026-01-21 10:55:27.61	194.40	11.62	-46.3	-49.4	16.3	0.00e+00	0	38	0	91226112	64	5099
2026-01-21 10:55:28.60	194.48	11.71	-46.4	-49.6	16.2	0.00e+00	0	38	0	93323264	64	5165
2026-01-21 10:55:29.60	194.56	11.79	-46.4	-49.6	16.2	0.00e+00	0	38	0	94371840	64	5178
2026-01-21 10:55:30.59	194.64	11.88	-46.5	-49.6	16.1	0.00e+00	0	38	0	96468992	64	5204
2026-01-21 10:55:31.58	194.72	11.96	-46.3	-49.4	16.4	0.00e+00	0	38	0	98566144	64	5060
2026-01-21 10:55:32.58	194.80	12.05	-46.2	-49.2	16.5	0.00e+00	0	38	0	100663296	64	4960
2026-01-21 10:55:33.57	194.88	12.13	-46.3	-49.4	16.4	0.00e+00	0	38	0	102760448	64	5053
2026-01-21 10:55:34.57	194.96	12.22	-46.2	-49.2	16.4	0.00e+00	0	38	0	103809024	64	4978
2026-01-21 10:55:35.57	195.05	12.31	-46.1	-49.0	16.6	0.00e+00	0	38	0	105906176	64	4855
2026-01-21 10:55:36.56	195.13	12.39	-46.1	-49.0	16.7	0.00e+00	0	38	0	108003328	64	4842
2026-01-21 10:55:37.55	195.21	12.48	-46.0	-48.9	16.8	0.00e+00	0	38	0	110100480	63	5076
2026-01-21 10:55:38.55	195.29	12.57	-46.0	-48.8	16.9	0.00e+00	0	38	0	111149056	63	5035
2026-01-21 10:55:39.55	195.38	12.66	-45.7	-48.4	17.3	0.00e+00	0	38	0	113246208	63	4791
2026-01-21 10:55:40.54	195.46	12.74	-45.6	-48.2	17.5	0.00e+00	0	38	0	115343360	63	4701
2026-01-21 10:55:41.54	195.55	12.83	-45.3	-47.9	17.8	0.00e+00	0	38	0	117440512	62	4766
2026-01-21 10:55:42.53	195.63	12.92	-45.3	-47.9	17.8	0.00e+00	0	38	0	119537664	62	4801
2026-01-21 10:55:43.53	195.72	13.01	-45.3	-47.9	17.8	0.00e+00	0	38	0	120586240	62	4797
2026-01-21 10:55:44.52	195.80	13.10	-45.2	-47.8	17.8	0.00e+00	0	38	0	122683392	62	4756
2026-01-21 10:55:45.52	195.89	13.19	-45.4	-48.0	17.7	0.00e+00	0	38	0	124780544	62	4854
2026-01-21 10:55:46.51	195.98	13.28	-45.1	-47.6	17.9	0.00e+00	0	38	0	126877696	62	4645
2026-01-21 10:55:47.51	196.06	13.37	-45.2	-47.8	17.8	0.00e+00	0	38	0	128974848	62	4745
2026-01-21 10:55:48.50	196.15	13.46	-45.2	-47.8	17.6	0.00e+00	0	38	0	130023424	62	4759
2026-01-21 10:55:49.50	196.24	13.55	-44.9	-47.5	17.8	0.00e+00	0	38	0	132120576	61	4837
2026-01-21 10:55:50.49	196.33	13.64	-45.2	-47.8	17.4	0.00e+00	0	38	0	134217728	61	5041
2026-01-21 10:55:51.49	196.42	13.73	-45.0	-47.7	17.4	0.00e+00	0	38	0	136314880	61	4973
2026-01-21 10:55:52.48	196.51	13.82	-45.1	-47.8	17.3	0.00e+00	0	38	0	137363456	61	5030
2026-01-21 10:55:53.47	196.60	13.91	-45.1	-47.9	17.2	0.00e+00	0	38	0	139460608	61	5061
2026-01-21 10:55:54.47	196.69	14.00	-45.0	-47.8	17.1	0.00e+00	0	38	0	141557760	61	5016
2026-01-21 10:55:55.48	196.79	14.10	-45.0	-47.9	16.9	0.00e+00	0	38	0	143654912	61	5077
2026-01-21 10:55:56.48	196.88	14.19	-45.0	-47.9	16.8	0.00e+00	0	38	0	145752064	61	5066
2026-01-21 10:55:57.47	196.97	14.28	-45.0	-47.9	16.7	0.00e+00	0	38	0	146800640	61	5073
2026-01-21 10:55:58.47	197.07	14.38	-44.9	-47.9	16.7	0.00e+00	0	38	0	148897792	61	5067
2026-01-21 10:55:59.47	197.16	14.47	-45.0	-48.0	16.6	0.00e+00	0	38	0	150994944	61	5108
2026-01-21 10:56:00.46	197.25	14.56	-44.9	-47.8	16.7	0.00e+00	0	38	0	153092096	61	5020
2026-01-21 10:56:01.45	197.35	14.66	-45.0	-47.9	16.8	0.00e+00	0	38	0	154140672	61	5077
2026-01-21 10:56:02.45	197.45	14.75	-45.1	-47.9	16.9	0.00e+00	0	38	0	156237824	61	5053
2026-01-21 10:56:03.44	197.54	14.84	-45.2	-48.0	17.1	0.00e+00	0	38	0	158334976	61	5125
2026-01-21 10:56:04.44	197.64	14.94	-45.2	-48.0	17.1	0.00e+00	0	38	0	160432128	61	5134
2026-01-21 10:56:05.43	197.74	15.03	-45.5	-48.3	17.1	0.00e+00	0	38	0	162529280	61	5291
2026-01-21 10:56:06.43	197.83	15.13	-45.4	-48.1	17.5	0.00e+00	0	39	0	163577856	61	5181
2026-01-21 10:56:07.42	197.93	15.22	-45.6	-48.3	17.4	0.00e+00	0	39	0	165675008	61	5321
2026-01-21 10:56:08.42	198.03	15.32	-45.5	-48.2	17.6	0.00e+00	0	38	0	167772160	61	5219
2026-01-21 10:56:09.41	198.13	15.42	-45.6	-48.3	17.5	0.00e+00	0	38	0	169869312	61	5296
2026-01-21 10:56:10.40	198.23	15.51	-45.8	-48.5	17.3	0.00e+00	0	38	0	170917888	62	5131
2026-01-21 10:56:11.40	198.33	15.61	-45.8	-48.5	17.3	0.00e+00	0	38	0	173015040	62	5129
2026-01-21 10:56:12.46	198.44	15.71	-46.0	-48.7	17.1	0.00e+00	0	39	0	175112192	62	5270
2026-01-21 10:56:13.34	198.53	15.80	-45.9	-48.6	17.3	0.00e+00	0	39	0	177209344	62	5175
2026-01-21 10:56:14.48	198.65	15.91	-45.9	-48.6	17.2	0.00e+00	0	38	0	179306496	62	5206
2026-01-21 10:56:15.33	198.74	15.99	-45.9	-48.6	17.2	0.00e+00	0	39	0	180355072	62	5211
2026-01-21 10:56:16.72	198.89	16.13	-45.8	-48.4	17.4	0.00e+00	0	38	0	183500800	62	5085
2026-01-21 10:56:17.43	198.96	16.20	-45.8	-48.4	17.4	0.00e+00	0	38	0	184549376	62	5081
2026-01-21 10:56:18.71	199.10	16.33	-45.7	-48.3	17.5	0.00e+00	0	38	0	186646528	62	5004
2026-01-21 10:56:19.44	199.18	16.40	-45.8	-48.5	17.4	0.00e+00	0	39	0	188743680	62	5119
2026-01-21 10:56:20.72	199.32	16.53	-45.6	-48.2	17.6	0.00e+00	0	39	0	190840832	62	4978
2026-01-21 10:56:21.47	199.40	16.60	-45.7	-48.3	17.5	0.00e+00	0	39	0	191889408	62	5015
2026-01-21 10:56:22.75	199.54	16.73	-45.8	-48.5	17.4	0.00e+00	0	38	0	195035136	62	5107
2026-01-21 10:56:23.46	199.62	16.81	-45.9	-48.6	17.3	0.00e+00	0	38	0	196083712	62	5161
2026-01-21 10:56:24.74	199.76	16.94	-45.9	-48.6	17.2	0.00e+00	0	38	0	198180864	62	5207
2026-01-21 10:56:25.47	199.84	17.01	-46.0	-48.8	17.2	0.00e+00	0	39	0	199229440	62	5288
2026-01-21 10:56:26.75	199.98	17.14	-46.1	-48.9	17.0	0.00e+00	0	38	0	202375168	63	5090
2026-01-21 10:56:27.46	200.06	17.21	-46.1	-48.9	17.1	0.00e+00	0	39	0	203423744	63	5063
2026-01-21 10:56:28.73	200.21	17.34	-46.0	-48.7	17.1	0.00e+00	0	38	0	205520896	63	4971
2026-01-21 10:56:29.46	200.29	17.42	-46.0	-48.7	17.1	0.00e+00	0	39	0	207618048	63	4966
2026-01-21 10:56:30.74	200.44	17.55	-45.9	-48.6	17.3	0.00e+00	0	38	0	209715200	63	4904
2026-01-21 10:56:31.45	200.52	17.62	-45.9	-48.6	17.2	0.00e+00	0	39	0	210763776	63	4925
2026-01-21 10:56:32.73	200.67	17.76	-45.8	-48.5	17.4	0.00e+00	0	39	0	212860928	63	4840
2026-01-21 10:56:33.47	200.76	17.83	-45.9	-48.6	17.3	0.00e+00	0	38	0	214958080	63	4922
2026-01-21 10:56:34.75	200.91	17.97	-45.7	-48.4	17.5	0.00e+00	0	39	0	217055232	63	4780
2026-01-21 10:56:35.48	201.00	18.04	-45.8	-48.4	17.5	0.00e+00	0	39	0	218103808	63	4806
2026-01-21 10:56:36.75	201.15	18.18	-45.8	-48.5	17.5	0.00e+00	0	39	0	221249536	63	4831
2026-01-21 10:56:37.46	201.23	18.25	-45.8	-48.5	17.5	0.00e+00	0	39	0	222298112	63	4827
2026-01-21 10:56:38.74	201.39	18.39	-45.8	-48.5	17.5	0.00e+00	0	38	0	224395264	63	4828
2026-01-21 10:56:39.53	201.49	18.47	-45.8	-48.4	17.5	0.00e+00	0	38	0	225443840	63	4803
2026-01-21 10:56:40.81	201.64	18.61	-45.8	-48.5	17.5	0.00e+00	0	38	0	228589568	63	4816
2026-01-21 10:56:41.52	201.73	18.68	-45.9	-48.6	17.3	0.00e+00	0	39	0	229638144	63	4895
2026-01-21 10:56:42.80	201.89	18.82	-45.8	-48.4	17.5	0.00e+00	0	39	0	231735296	63	4806
2026-01-21 10:56:43.53	201.98	18.90	-45.9	-48.5	17.4	0.00e+00	0	39	0	233832448	63	4861
2026-01-21 10:56:44.80	202.14	19.04	-45.7	-48.3	17.6	0.00e+00	0	39	0	235929600	63	4711
2026-01-21 10:56:45.53	202.24	19.12	-45.8	-48.4	17.6	0.00e+00	0	39	0	236978176	63	4764
2026-01-21 10:56:46.81	202.40	19.26	-45.8	-48.4	17.6	0.00e+00	0	38	0	240123904	63	4784
2026-01-21 10:56:47.55	202.50	19.34	-45.8	-48.3	17.6	0.00e+00	0	38	0	241172480	63	4758
2026-01-21 10:56:48.83	202.66	19.48	-45.8	-48.4	17.5	0.00e+00	0	38	0	243269632	63	4782
2026-01-21 10:56:49.56	202.76	19.56	-45.8	-48.4	17.6	0.00e+00	0	39	0	244318208	63	4780
2026-01-21 10:56:50.84	202.93	19.70	-46.1	-48.7	17.2	0.00e+00	0	38	0	247463936	63	4960
2026-01-21 10:56:51.56	203.02	19.78	-46.1	-48.8	17.2	0.00e+00	0	38	0	248512512	63	5000
2026-01-21 10:56:52.84	203.20	19.92	-46.1	-48.7	17.3	0.00e+00	0	38	0	250609664	63	4963
2026-01-21 10:56:53.55	203.29	20.00	-45.9	-48.4	17.5	0.00e+00	0	39	0	252706816	63	4800
2026-01-21 10:56:54.83	203.47	20.14	-45.9	-48.5	17.5	0.00e+00	0	38	0	254803968	63	4837
2026-01-21 10:56:55.54	203.56	20.22	-46.1	-48.7	17.3	0.00e+00	0	38	0	255852544	63	4969
2026-01-21 10:56:56.82	203.74	20.36	-45.9	-48.5	17.5	0.00e+00	0	38	0	257949696	63	4851
2026-01-21 10:56:57.55	203.84	20.44	-45.8	-48.4	17.6	0.00e+00	0	38	0	260046848	63	4795
2026-01-21 10:56:58.83	204.02	20.59	-45.9	-48.5	17.5	0.00e+00	0	38	0	262144000	63	4831
2026-01-21 10:56:59.54	204.12	20.67	-45.9	-48.5	17.5	0.00e+00	0	39	0	263192576	63	4867
2026-01-21 10:57:00.82	204.30	20.81	-46.0	-48.7	17.2	0.00e+00	0	38	0	266338304	63	4960
2026-01-21 10:57:01.69	204.43	20.91	-46.2	-48.9	17.0	0.00e+00	0	38	0	267386880	63	5096
2026-01-21 10:57:02.82	204.59	21.04	-46.1	-48.8	17.2	0.00e+00	0	39	0	269484032	63	5001
2026-01-21 10:57:03.68	204.71	21.14	-46.1	-48.7	17.3	0.00e+00	0	39	0	271581184	63	4969
2026-01-21 10:57:04.82	204.88	21.27	-46.2	-48.9	17.1	0.00e+00	0	39	0	273678336	63	5071
2026-01-21 10:57:05.67	205.00	21.37	-46.3	-49.0	17.0	0.00e+00	0	39	0	274726912	63	5155
2026-01-21 10:57:06.80	205.17	21.50	-46.1	-48.8	17.2	0.00e+00	0	39	0	276824064	63	5015
2026-01-21 10:57:07.66	205.30	21.60	-46.1	-48.8	17.3	0.00e+00	0	39	0	278921216	63	4993
2026-01-21 10:57:08.80	205.47	21.73	-46.2	-48.9	17.2	0.00e+00	0	38	0	281018368	63	5071
2026-01-21 10:57:09.65	205.60	21.83	-45.9	-48.5	17.4	0.00e+00	0	38	0	282066944	63	4837
2026-01-21 10:57:10.82	205.78	21.97	-46.2	-49.0	17.1	0.00e+00	0	39	0	284164096	63	5123
2026-01-21 10:57:11.67	205.91	22.07	-46.4	-49.2	16.8	0.00e+00	0	38	0	286261248	63	5267
2026-01-21 10:57:12.81	206.08	22.20	-46.3	-49.0	17.0	0.00e+00	0	39	0	288358400	63	5154
2026-01-21 10:57:13.66	206.22	22.30	-46.3	-49.1	16.9	0.00e+00	0	38	0	290455552	63	5160
2026-01-21 10:57:14.89	206.41	22.45	-46.4	-49.2	16.9	0.00e+00	0	39	0	292552704	63	5226
2026-01-21 10:57:15.75	206.55	22.55	-46.4	-49.1	16.9	0.00e+00	0	39	0	293601280	63	5193
2026-01-21 10:57:16.88	206.73	22.68	-46.5	-49.3	16.8	0.00e+00	0	39	0	295698432	63	5320
2026-01-21 10:57:17.74	206.86	22.78	-46.5	-49.3	16.7	0.00e+00	0	38	0	297795584	63	5300
2026-01-21 10:57:18.87	207.05	22.92	-46.2	-48.9	17.1	0.00e+00	0	39	0	299892736	63	5084
2026-01-21 10:57:19.73	207.19	23.02	-46.2	-48.9	17.1	0.00e+00	0	38	0	300941312	63	5099
2026-01-21 10:57:20.87	207.37	23.16	-46.4	-49.2	16.8	0.00e+00	0	38	0	303038464	63	5273
2026-01-21 10:57:21.81	207.53	23.27	-46.4	-49.2	16.9	0.00e+00	0	39	0	305135616	63	5221
2026-01-21 10:57:22.98	207.73	23.41	-46.4	-49.1	16.9	0.00e+00	0	39	0	307232768	63	5203
2026-01-21 10:57:23.84	207.87	23.52	-46.2	-48.9	17.1	0.00e+00	0	39	0	309329920	63	5077
2026-01-21 10:57:24.97	208.06	23.66	-45.9	-48.6	17.5	0.00e+00	0	39	0	311427072	63	4872
2026-01-21 10:57:25.83	208.21	23.76	-45.7	-48.2	17.7	0.00e+00	0	39	0	312475648	63	4699
2026-01-21 10:57:26.97	208.40	23.90	-45.6	-48.2	17.8	0.00e+00	0	38	0	314572800	63	4658
2026-01-21 10:57:27.82	208.55	24.00	-45.5	-48.0	18.0	0.00e+00	0	39	0	316669952	62	4853
2026-01-21 10:57:28.96	208.75	24.14	-45.3	-47.7	18.2	0.00e+00	0	38	0	318767104	62	4703
2026-01-21 10:57:29.81	208.90	24.25	-45.4	-47.8	18.2	0.00e+00	0	39	0	319815680	62	4737
2026-01-21 10:57:30.94	209.10	24.39	-45.2	-47.6	18.3	0.00e+00	0	39	0	321912832	62	4628
2026-01-21 10:57:31.80	209.25	24.49	-45.3	-47.7	18.2	0.00e+00	0	38	0	324009984	62	4668
2026-01-21 10:57:32.93	209.46	24.63	-45.5	-47.9	18.0	0.00e+00	0	39	0	326107136	62	4806
2026-01-21 10:57:33.79	209.61	24.74	-45.6	-48.1	17.9	0.00e+00	0	39	0	328204288	62	4908
2026-01-21 10:57:34.92	209.82	24.88	-45.9	-48.6	17.4	0.00e+00	0	38	0	330301440	62	5171
2026-01-21 10:57:35.78	209.98	24.99	-46.2	-48.9	17.2	0.00e+00	0	39	0	331350016	62	5341
2026-01-21 10:57:37.02	210.21	25.14	-46.4	-49.2	16.9	0.00e+00	0	39	0	333447168	63	5224
2026-01-21 10:57:37.88	210.37	25.25	-46.2	-48.9	17.1	0.00e+00	0	39	0	335544320	63	5088
2026-01-21 10:57:39.01	210.58	25.39	-46.3	-49.0	17.1	0.00e+00	0	39	0	337641472	63	5118
2026-01-21 10:57:39.87	210.75	25.50	-46.1	-48.8	17.2	0.00e+00	0	39	0	338690048	63	5007
2026-01-21 10:57:41.11	210.98	25.66	-45.9	-48.5	17.5	0.00e+00	0	39	0	341835776	63	4835
2026-01-21 10:57:41.97	211.15	25.77	-45.9	-48.4	17.6	0.00e+00	0	39	0	342884352	63	4791
2026-01-21 10:57:43.10	211.37	25.91	-45.7	-48.2	17.8	0.00e+00	0	39	0	344981504	63	4697
2026-01-21 10:57:43.95	211.54	26.02	-45.7	-48.3	17.7	0.00e+00	0	39	0	347078656	63	4719
2026-01-21 10:57:45.09	211.76	26.16	-45.9	-48.4	17.6	0.00e+00	0	39	0	349175808	63	4805
2026-01-21 10:57:46.00	211.94	26.28	-45.9	-48.4	17.5	0.00e+00	0	39	0	350224384	63	4812
2026-01-21 10:57:47.00	212.14	26.41	-46.2	-48.9	17.2	0.00e+00	0	38	0	352321536	63	5060
2026-01-21 10:57:47.99	212.34	26.53	-46.4	-49.2	16.7	0.00e+00	0	39	0	354418688	64	4965
2026-01-21 10:57:48.99	212.55	26.66	-46.4	-49.2	16.7	0.00e+00	0	39	0	356515840	64	4968
2026-01-21 10:57:49.99	212.75	26.79	-46.7	-49.7	16.3	0.00e+00	0	39	0	358612992	64	5239
2026-01-21 10:57:50.98	212.96	26.92	-46.7	-49.6	16.5	0.00e+00	0	39	0	359661568	64	5165
2026-01-21 10:57:51.98	213.17	27.04	-46.7	-49.5	16.5	0.00e+00	0	39	0	361758720	64	5152
2026-01-21 10:57:52.97	213.38	27.17	-46.5	-49.3	16.6	0.00e+00	0	39	0	363855872	64	5037
2026-01-21 10:57:53.97	213.59	27.30	-46.6	-49.4	16.6	0.00e+00	0	39	0	365953024	64	5093
2026-01-21 10:57:54.96	213.80	27.43	-46.7	-49.6	16.4	0.00e+00	0	39	0	367001600	64	5182
2026-01-21 10:57:55.96	214.02	27.56	-46.4	-49.1	16.9	0.00e+00	0	38	0	369098752	64	4895
2026-01-21 10:57:56.95	214.23	27.69	-46.6	-49.4	16.6	0.00e+00	0	39	0	371195904	64	5073
2026-01-21 10:57:57.95	214.45	27.82	-46.8	-49.7	16.3	0.00e+00	0	39	0	373293056	64	5251
2026-01-21 10:57:59.00	214.68	27.95	-46.7	-49.6	16.4	0.00e+00	0	39	0	375390208	64	5203
2026-01-21 10:57:59.89	214.88	28.07	-47.0	-50.0	16.1	0.00e+00	0	39	0	376438784	64	5435
2026-01-21 10:58:01.02	215.13	28.22	-47.1	-50.1	15.9	0.00e+00	0	39	0	378535936	65	5183
2026-01-21 10:58:01.88	215.33	28.33	-47.4	-50.6	15.5	0.00e+00	0	39	0	380633088	65	5475
2026-01-21 10:58:03.02	215.59	28.48	-47.6	-51.0	15.1	0.00e+00	0	39	0	382730240	65	5724
2026-01-21 10:58:03.87	215.78	28.59	-47.3	-50.5	15.5	0.00e+00	0	39	0	383778816	65	5448
2026-01-21 10:58:05.01	216.05	28.74	-47.2	-50.2	15.8	0.00e+00	0	39	0	385875968	65	5272
2026-01-21 10:58:05.86	216.25	28.85	-46.7	-49.5	16.5	0.00e+00	0	39	0	387973120	65	4836
2026-01-21 10:58:07.00	216.51	29.00	-46.3	-49.0	16.9	0.00e+00	0	39	0	390070272	64	4865
2026-01-21 10:58:07.85	216.72	29.11	-46.1	-48.8	17.2	0.00e+00	0	39	0	391118848	64	4712
2026-01-21 10:58:08.99	216.99	29.26	-46.4	-49.2	16.9	0.00e+00	0	39	0	394264576	64	4933
2026-01-21 10:58:09.84	217.19	29.37	-46.5	-49.2	16.8	0.00e+00	0	39	0	395313152	64	4962
2026-01-21 10:58:10.98	217.47	29.52	-46.5	-49.3	16.7	0.00e+00	0	39	0	397410304	64	5024
2026-01-21 10:58:11.83	217.68	29.64	-46.7	-49.6	16.4	0.00e+00	0	39	0	399507456	64	5172
2026-01-21 10:58:12.97	217.96	29.79	-46.6	-49.4	16.7	0.00e+00	0	39	0	401604608	64	5045
2026-01-21 10:58:13.82	218.17	29.90	-46.7	-49.5	16.5	0.00e+00	0	39	0	402653184	64	5128
2026-01-21 10:58:14.96	218.46	30.05	-46.2	-48.9	17.2	0.00e+00	0	39	0	404750336	64	4774
2026-01-21 10:58:15.81	218.67	30.16	-46.0	-48.6	17.4	0.00e+00	0	39	0	406847488	64	4620
2026-01-21 10:58:16.94	218.96	30.31	-46.1	-48.7	17.4	0.00e+00	0	39	0	408944640	63	4945
2026-01-21 10:58:17.80	219.18	30.42	-46.2	-48.9	17.1	0.00e+00	0	39	0	409993216	63	5077
2026-01-21 10:58:18.93	219.47	30.57	-46.1	-48.7	17.4	0.00e+00	0	39	0	412090368	63	4969
2026-01-21 10:58:19.78	219.69	30.68	-46.4	-49.2	16.9	0.00e+00	0	38	0	414187520	63	5239
2026-01-21 10:58:20.92	219.99	30.83	-46.5	-49.4	16.8	0.00e+00	0	39	0	416284672	64	5058
2026-01-21 10:58:21.78	220.22	30.95	-46.6	-49.5	16.5	0.00e+00	0	39	0	417333248	64	5142
2026-01-21 10:58:22.91	220.52	31.09	-46.8	-49.7	16.3	0.00e+00	0	39	0	419430400	64	5274
2026-01-21 10:58:23.76	220.75	31.21	-46.8	-49.8	16.3	0.00e+00	0	39	0	421527552	64	5281
2026-01-21 10:58:24.90	221.06	31.36	-46.5	-49.3	16.8	0.00e+00	0	39	0	423624704	64	4987
2026-01-21 10:58:25.76	221.30	31.47	-46.4	-49.2	16.8	0.00e+00	0	38	0	424673280	64	4960
2026-01-21 10:58:26.89	221.61	31.62	-46.6	-49.5	16.6	0.00e+00	0	39	0	427819008	64	5110
2026-01-21 10:58:27.74	221.85	31.73	-46.5	-49.3	16.8	0.00e+00	0	39	0	428867584	64	5019
2026-01-21 10:58:28.88	222.16	31.88	-46.6	-49.4	16.6	0.00e+00	0	38	0	430964736	64	5079
2026-01-21 10:58:29.73	222.40	31.99	-46.7	-49.5	16.5	0.00e+00	0	39	0	433061888	64	5135
2026-01-21 10:58:30.87	222.73	32.14	-47.1	-50.1	16.1	0.00e+00	0	39	0	435159040	64	5496
2026-01-21 10:58:31.72	222.97	32.25	-47.4	-50.6	15.5	0.00e+00	0	39	0	436207616	65	5475
2026-01-21 10:58:33.05	223.36	32.42	-48.1	-51.6	14.5	0.00e+00	0	38	0	439353344	66	5842
2026-01-21 10:58:33.76	223.56	32.51	-48.9	-52.8	13.5	3.00e-06	0	39	0	440401920	68	5978
2026-01-21 10:58:35.25	224.00	32.70	-49.7	-54.4	11.9	7.47e-05	0	39	0	442499072	69	6734
2026-01-21 10:58:35.96	224.21	32.80	-49.5	-54.1	12.2	1.68e-04	0	39	0	444596224	69	6498
2026-01-21 10:58:37.23	224.59	32.96	-49.1	-53.2	13.1	5.34e-05	0	39	0	446693376	69	5897
2026-01-21 10:58:37.94	224.81	33.05	-48.9	-52.8	13.4	3.58e-05	0	39	0	447741952	69	5638
2026-01-21 10:58:39.22	225.20	33.21	-48.1	-51.5	14.8	2.20e-06	0	39	0	450887680	68	5124
2026-01-21 10:58:39.95	225.42	33.31	-48.0	-51.4	14.8	0.00e+00	0	38	0	451936256	68	5074
2026-01-21 10:58:41.23	225.81	33.47	-48.3	-51.8	14.5	7.00e-07	0	39	0	454033408	68	5302
2026-01-21 10:58:41.95	226.04	33.56	-48.3	-51.8	14.5	7.00e-07	0	39	0	455081984	68	5331
2026-01-21 10:58:43.23	226.44	33.73	-48.3	-51.9	14.4	0.00e+00	0	39	0	458227712	68	5345
2026-01-21 10:58:43.99	226.68	33.82	-48.5	-52.1	14.2	7.00e-07	0	39	0	459276288	68	5490
2026-01-21 10:58:45.27	227.09	33.98	-48.8	-52.6	13.7	1.50e-06	0	39	0	461373440	68	5802
2026-01-21 10:58:46.00	227.32	34.07	-48.6	-52.2	13.8	4.50e-06	0	39	0	463470592	68	5587
2026-01-21 10:58:47.28	227.73	34.23	-48.6	-52.2	14.1	3.80e-06	0	39	0	465567744	68	5562
2026-01-21 10:58:47.99	227.96	34.32	-48.5	-52.1	14.2	7.00e-07	0	39	0	466616320	68	5473
2026-01-21 10:58:49.27	228.38	34.48	-48.5	-52.2	14.1	0.00e+00	0	39	0	468713472	68	5548
2026-01-21 10:58:50.21	228.69	34.60	-48.1	-51.6	14.7	7.00e-07	0	39	0	470810624	68	5189
2026-01-21 10:58:51.21	229.03	34.72	-48.3	-51.9	14.4	7.00e-07	0	39	0	472907776	68	5384
2026-01-21 10:58:52.20	229.36	34.84	-48.5	-52.2	14.1	1.50e-06	0	39	0	475004928	68	5534
2026-01-21 10:58:53.20	229.70	34.96	-48.7	-52.4	14.0	1.50e-06	0	39	0	477102080	68	5677
2026-01-21 10:58:54.20	230.04	35.08	-49.0	-52.9	13.6	9.90e-06	0	39	0	478150656	68	5993
2026-01-21 10:58:55.19	230.38	35.20	-49.1	-53.1	13.1	1.90e-05	0	39	0	480247808	68	6190
2026-01-21 10:58:56.19	230.72	35.32	-49.1	-53.0	13.2	2.13e-05	0	39	0	482344960	69	5782
2026-01-21 10:58:57.18	231.07	35.44	-48.7	-52.4	14.0	6.80e-06	0	39	0	484442112	69	5360
2026-01-21 10:58:58.18	231.42	35.56	-48.6	-52.4	13.9	3.80e-06	0	39	0	485490688	69	5347
2026-01-21 10:58:59.17	231.76	35.67	-48.7	-52.5	13.8	7.00e-07	0	39	0	487587840	68	5757
2026-01-21 10:59:00.17	232.12	35.79	-48.3	-51.7	14.6	0.00e+00	0	39	0	489684992	68	5257
2026-01-21 10:59:01.16	232.47	35.90	-48.5	-52.0	14.3	3.80e-06	0	39	0	491782144	68	5433
2026-01-21 10:59:02.16	232.83	36.02	-48.3	-51.7	14.6	1.50e-06	0	39	0	493879296	68	5272
2026-01-21 10:59:03.15	233.19	36.13	-48.7	-52.4	14.1	1.50e-06	0	39	0	494927872	68	5675
2026-01-21 10:59:04.15	233.56	36.25	-48.7	-52.5	13.8	5.30e-06	0	39	0	497025024	68	5752
2026-01-21 10:59:05.33	233.99	36.38	-48.4	-52.0	14.2	4.50e-06	0	39	0	499122176	68	5460
2026-01-21 10:59:06.22	234.32	36.48	-48.2	-51.6	14.5	0.00e+00	0	39	0	501219328	68	5214
2026-01-21 10:59:07.35	234.74	36.60	-47.9	-51.2	15.0	0.00e+00	0	39	0	503316480	67	5255
2026-01-21 10:59:08.21	235.07	36.70	-47.7	-50.9	15.2	0.00e+00	0	39	0	504365056	67	5078
2026-01-21 10:59:09.35	235.50	36.82	-48.1	-51.6	14.6	7.00e-07	0	39	0	506462208	67	5466
2026-01-21 10:59:10.20	235.82	36.91	-48.0	-51.3	14.9	0.00e+00	0	39	0	508559360	67	5299
2026-01-21 10:59:11.34	236.26	37.03	-48.5	-52.1	14.0	1.50e-06	0	39	0	510656512	67	5826
2026-01-21 10:59:12.19	236.58	37.12	-48.6	-52.4	13.8	2.20e-06	0	39	0	512753664	67	6024
2026-01-21 10:59:13.32	237.02	37.24	-47.8	-51.0	15.1	0.00e+00	0	39	0	514850816	67	5158
2026-01-21 10:59:14.18	237.36	37.33	-47.7	-50.9	15.2	0.00e+00	0	39	0	515899392	67	5060
2026-01-21 10:59:15.32	237.80	37.44	-47.1	-50.1	16.2	0.00e+00	0	39	0	517996544	66	4878
2026-01-21 10:59:16.17	238.14	37.53	-47.0	-49.9	16.3	0.00e+00	0	38	0	520093696	65	5045
2026-01-21 10:59:17.30	238.59	37.64	-47.0	-49.9	16.2	0.00e+00	0	39	0	522190848	65	5084
2026-01-21 10:59:18.16	238.93	37.73	-47.3	-50.3	15.8	0.00e+00	0	39	0	523239424	65	5313
2026-01-21 10:59:19.40	239.43	37.85	-47.5	-50.6	15.6	0.00e+00	0	39	0	525336576	65	5509
2026-01-21 10:59:20.25	239.77	37.93	-47.6	-50.8	15.4	0.00e+00	0	39	0	527433728	65	5600
2026-01-21 10:59:21.39	240.24	38.04	-47.4	-50.5	15.6	0.00e+00	0	39	0	529530880	65	5444
2026-01-21 10:59:22.24	240.59	38.12	-47.2	-50.2	15.8	0.00e+00	0	39	0	531628032	65	5275
2026-01-21 10:59:23.51	241.11	38.23	-47.4	-50.5	15.7	0.00e+00	0	39	0	533725184	65	5440
2026-01-21 10:59:24.31	241.44	38.30	-47.4	-50.6	15.6	0.00e+00	0	39	0	534773760	65	5467
2026-01-21 10:59:25.45	241.91	38.40	-47.0	-50.0	16.0	0.00e+00	0	39	0	536870912	65	5153
2026-01-21 10:59:26.30	242.27	38.48	-47.1	-50.1	16.1	0.00e+00	0	39	0	538968064	65	5165
2026-01-21 10:59:27.44	242.75	38.58	-47.6	-50.9	15.4	0.00e+00	0	39	0	541065216	65	5659
2026-01-21 10:59:28.29	243.11	38.65	-47.9	-51.4	14.8	0.00e+00	0	39	0	542113792	66	5664
2026-01-21 10:59:29.43	243.59	38.74	-47.4	-50.6	15.5	0.00e+00	0	39	0	544210944	66	5203
2026-01-21 10:59:30.28	243.95	38.81	-47.0	-50.0	16.1	0.00e+00	0	39	0	546308096	66	4822
2026-01-21 10:59:31.42	244.44	38.90	-47.0	-49.9	16.2	0.00e+00	0	39	0	548405248	65	5061
2026-01-21 10:59:32.27	244.81	38.97	-46.6	-49.3	16.8	0.00e+00	0	39	0	549453824	65	4736
2026-01-21 10:59:33.41	245.30	39.06	-46.5	-49.2	16.8	0.00e+00	0	39	0	551550976	64	4965
2026-01-21 10:59:34.26	245.67	39.12	-46.6	-49.3	16.8	0.00e+00	0	39	0	553648128	64	5028
2026-01-21 10:59:35.40	246.17	39.20	-47.3	-50.4	15.8	0.00e+00	0	39	0	555745280	65	5360
2026-01-21 10:59:36.25	246.54	39.26	-48.0	-51.5	14.7	0.00e+00	0	39	0	557842432	66	5769
2026-01-21 10:59:37.39	247.05	39.34	-48.9	-52.9	13.4	7.00e-07	0	39	0	559939584	68	6050
2026-01-21 10:59:38.24	247.42	39.40	-48.6	-52.4	13.9	4.50e-06	0	39	0	560988160	68	5695
2026-01-21 10:59:39.38	247.93	39.48	-48.3	-51.8	14.6	2.20e-06	0	39	0	563085312	68	5293
2026-01-21 10:59:40.24	248.31	39.53	-48.2	-51.6	14.7	0.00e+00	0	39	0	565182464	68	5176
2026-01-21 10:59:41.37	248.82	39.60	-47.1	-50.1	16.1	0.00e+00	0	39	0	567279616	66	4872
2026-01-21 10:59:42.29	249.23	39.66	-47.3	-50.3	15.9	0.00e+00	0	39	0	568328192	66	5026
2026-01-21 10:59:43.48	249.77	39.73	-47.1	-50.1	16.0	7.00e-07	0	39	0	570425344	66	4901
2026-01-21 10:59:44.33	250.15	39.78	-47.0	-49.9	16.2	0.00e+00	0	38	0	572522496	65	5054
2026-01-21 10:59:45.47	250.67	39.84	-47.2	-50.3	15.7	0.00e+00	0	39	0	574619648	65	5305
2026-01-21 10:59:46.32	251.06	39.89	-47.9	-51.2	15.0	0.00e+00	0	39	0	576716800	66	5583
2026-01-21 10:59:47.46	251.58	39.95	-48.5	-52.2	14.0	0.00e+00	0	39	0	578813952	67	5903
2026-01-21 10:59:48.32	251.97	39.99	-48.1	-51.6	14.6	0.00e+00	0	39	0	579862528	67	5497
2026-01-21 10:59:49.45	252.49	40.04	-47.8	-51.1	15.1	0.00e+00	0	39	0	581959680	67	5213
2026-01-21 10:59:50.31	252.89	40.08	-47.9	-51.2	15.1	7.00e-07	0	39	0	584056832	67	5246
2026-01-21 10:59:51.44	253.41	40.13	-47.7	-50.9	15.2	0.00e+00	0	39	0	586153984	67	5094
2026-01-21 10:59:52.29	253.81	40.16	-47.2	-50.2	16.0	0.00e+00	0	39	0	587202560	66	4932
2026-01-21 10:59:53.43	254.34	40.21	-46.6	-49.3	16.8	0.00e+00	0	39	0	589299712	65	4751
2026-01-21 10:59:54.28	254.73	40.24	-46.5	-49.3	16.8	0.00e+00	0	39	0	591396864	64	5019
2026-01-21 10:59:55.42	255.27	40.28	-47.4	-50.5	15.7	0.00e+00	0	39	0	593494016	65	5434
2026-01-21 10:59:56.27	255.66	40.31	-48.5	-52.1	14.1	7.00e-07	0	39	0	594542592	67	5835
2026-01-21 10:59:57.41	256.20	40.35	-49.1	-53.1	13.3	1.14e-05	0	39	0	596639744	69	5813
2026-01-21 10:59:58.26	256.60	40.37	-48.8	-52.4	13.8	9.90e-06	0	39	0	598736896	69	5396
2026-01-21 10:59:59.40	257.13	40.40	-48.4	-51.8	14.6	2.20e-06	0	39	0	600834048	68	5300
2026-01-21 11:00:00.25	257.53	40.42	-47.8	-51.1	15.2	0.00e+00	0	39	0	601882624	67	5162
2026-01-21 11:00:01.39	258.07	40.45	-47.6	-50.8	15.4	0.00e+00	0	39	0	605028352	67	4984
2026-01-21 11:00:02.24	258.47	40.47	-47.6	-50.8	15.4	0.00e+00	0	39	0	606076928	66	5301
2026-01-21 11:00:03.38	259.01	40.49	-47.9	-51.2	15.0	7.00e-07	0	39	0	608174080	66	5582
2026-01-21 11:00:04.23	259.41	40.50	-48.2	-51.6	14.6	0.00e+00	0	39	0	610271232	67	5473
2026-01-21 11:00:05.37	259.95	40.52	-49.2	-53.2	13.1	4.50e-06	0	39	0	612368384	69	5903
2026-01-21 11:00:06.23	260.36	40.53	-49.8	-54.4	12.0	3.81e-05	0	39	0	613416960	70	6394
2026-01-21 11:00:07.36	260.90	40.54	-50.1	-55.2	11.1	1.78e-03	0	39	0	615514112	71	6595
2026-01-21 11:00:08.21	261.30	40.55	-49.9	-54.7	11.7	6.61e-04	0	39	0	617611264	71	6272
2026-01-21 11:00:09.35	261.84	40.55	-49.1	-53.1	13.3	5.03e-05	0	39	0	619708416	70	5478
2026-01-21 11:00:10.20	262.25	40.56	-48.4	-51.9	14.5	3.00e-06	0	38	0	620756992	68	5365
2026-01-21 11:00:11.34	262.79	40.56	-47.3	-50.4	15.8	1.50e-06	0	39	0	622854144	66	5089
2026-01-21 11:00:12.20	263.20	40.56	-47.1	-50.1	16.0	0.00e+00	0	39	0	624951296	66	4924
2026-01-21 11:00:13.33	263.73	40.56	-47.3	-50.4	15.8	0.00e+00	0	39	0	627048448	65	5383
2026-01-21 11:00:14.19	264.14	40.55	-48.2	-51.7	14.6	0.00e+00	0	39	0	628097024	67	5566
2026-01-21 11:00:15.32	264.68	40.54	-49.7	-54.3	12.1	4.42e-05	0	39	0	630194176	69	6648
2026-01-21 11:00:16.17	265.08	40.53	-50.0	-55.0	11.4	5.97e-04	0	39	0	632291328	70	6810
2026-01-21 11:00:17.31	265.62	40.52	-49.1	-53.2	13.3	1.35e-04	0	39	0	634388480	70	5589
2026-01-21 11:00:18.17	266.03	40.51	-48.2	-51.7	14.4	7.00e-07	0	39	0	635437056	68	5279
2026-01-21 11:00:19.30	266.56	40.49	-47.5	-50.7	15.5	0.00e+00	0	39	0	638582784	66	5253
2026-01-21 11:00:20.16	266.97	40.48	-47.3	-50.4	15.7	0.00e+00	0	39	0	639631360	66	5095
2026-01-21 11:00:21.30	267.51	40.45	-47.0	-50.0	16.1	0.00e+00	0	39	0	641728512	65	5122
2026-01-21 11:00:22.15	267.91	40.44	-46.7	-49.5	16.6	0.00e+00	0	39	0	643825664	65	4852
2026-01-21 11:00:23.29	268.45	40.41	-46.7	-49.6	16.5	0.00e+00	0	39	0	645922816	65	4889
2026-01-21 11:00:24.14	268.85	40.39	-46.5	-49.3	16.8	0.00e+00	0	39	0	646971392	65	4727
2026-01-21 11:00:25.28	269.38	40.35	-45.9	-48.5	17.6	0.00e+00	0	39	0	649068544	63	4838
2026-01-21 11:00:26.13	269.78	40.33	-45.7	-48.3	17.9	0.00e+00	0	39	0	651165696	63	4709
2026-01-21 11:00:27.27	270.31	40.29	-45.8	-48.3	17.8	0.00e+00	0	39	0	653262848	63	4759
2026-01-21 11:00:28.12	270.71	40.26	-46.8	-49.7	16.5	0.00e+00	0	39	0	654311424	64	5219
2026-01-21 11:00:29.26	271.24	40.22	-47.5	-50.7	15.5	0.00e+00	0	39	0	656408576	65	5580
2026-01-21 11:00:30.11	271.64	40.19	-47.5	-50.6	15.6	0.00e+00	0	39	0	658505728	66	5199
2026-01-21 11:00:31.25	272.17	40.14	-46.6	-49.5	16.6	0.00e+00	0	39	0	660602880	65	4818
2026-01-21 11:00:32.10	272.56	40.10	-46.7	-49.5	16.7	0.00e+00	0	39	0	661651456	65	4852
2026-01-21 11:00:33.24	273.08	40.05	-47.1	-50.1	16.0	0.00e+00	0	39	0	663748608	65	5198
2026-01-21 11:00:34.09	273.47	40.01	-47.2	-50.3	15.8	0.00e+00	0	39	0	665845760	65	5316
2026-01-21 11:00:35.23	274.00	39.96	-47.2	-50.2	16.0	0.00e+00	0	39	0	667942912	65	5247
2026-01-21 11:00:36.09	274.39	39.91	-46.6	-49.3	16.8	0.00e+00	0	39	0	670040064	65	4745
2026-01-21 11:00:37.23	274.91	39.85	-46.7	-49.4	16.7	0.00e+00	0	39	0	672137216	64	5096
2026-01-21 11:00:38.08	275.30	39.81	-46.9	-49.7	16.4	0.00e+00	0	39	0	673185792	64	5271
2026-01-21 11:00:39.21	275.81	39.74	-47.5	-50.7	15.6	0.00e+00	0	39	0	675282944	65	5555
2026-01-21 11:00:40.07	276.20	39.69	-47.2	-50.2	16.0	0.00e+00	0	39	0	677380096	65	5245
2026-01-21 11:00:41.20	276.70	39.63	-46.1	-48.7	17.4	0.00e+00	0	39	0	679477248	64	4691
2026-01-21 11:00:42.06	277.09	39.57	-45.7	-48.2	18.0	0.00e+00	0	39	0	680525824	63	4668
2026-01-21 11:00:43.19	277.59	39.50	-46.3	-49.1	17.1	0.00e+00	0	39	0	682622976	63	5165
2026-01-21 11:00:44.05	277.97	39.45	-46.6	-49.4	16.8	0.00e+00	0	39	0	684720128	63	5366
2026-01-21 11:00:45.19	278.48	39.37	-46.7	-49.6	16.7	0.00e+00	0	39	0	686817280	64	5214
2026-01-21 11:00:46.04	278.85	39.31	-46.3	-49.0	17.1	0.00e+00	0	39	0	687865856	64	4829
2026-01-21 11:00:47.17	279.35	39.23	-45.9	-48.5	17.6	0.00e+00	0	39	0	689963008	63	4869
2026-01-21 11:00:48.06	279.74	39.17	-45.8	-48.3	17.8	0.00e+00	0	39	0	692060160	63	4758
2026-01-21 11:00:49.20	280.23	39.08	-45.8	-48.3	17.8	0.00e+00	0	39	0	694157312	63	4725
2026-01-21 11:00:50.05	280.60	39.02	-45.7	-48.2	17.9	0.00e+00	0	39	0	696254464	63	4698
2026-01-21 11:00:51.18	281.09	38.93	-45.5	-47.9	18.3	0.00e+00	0	39	0	697303040	62	4773
2026-01-21 11:00:52.03	281.45	38.87	-45.2	-47.5	18.6	0.00e+00	0	39	0	699400192	62	4577
2026-01-21 11:00:53.17	281.94	38.77	-44.8	-47.0	19.0	0.00e+00	0	39	0	701497344	61	4582
2026-01-21 11:00:54.02	282.30	38.70	-44.7	-47.0	19.0	0.00e+00	0	39	0	703594496	61	4569
2026-01-21 11:00:55.16	282.78	38.61	-44.8	-47.1	19.0	0.00e+00	0	39	0	705691648	61	4621
2026-01-21 11:00:56.01	283.14	38.54	-44.7	-47.0	19.1	0.00e+00	0	39	0	706740224	60	4831
2026-01-21 11:00:57.15	283.62	38.44	-44.9	-47.2	18.8	0.00e+00	0	39	0	708837376	60	4980
2026-01-21 11:00:58.00	283.97	38.36	-45.0	-47.3	18.7	0.00e+00	0	39	0	710934528	60	5020
2026-01-21 11:00:59.14	284.44	38.26	-45.8	-48.3	17.9	0.00e+00	0	39	0	713031680	62	4996
2026-01-21 11:01:00.00	284.80	38.18	-46.0	-48.6	17.5	0.00e+00	0	39	0	714080256	62	5212
2026-01-21 11:01:01.13	285.26	38.08	-46.2	-48.9	17.3	0.00e+00	0	39	0	716177408	63	5069
2026-01-21 11:01:02.02	285.62	38.00	-45.8	-48.4	17.7	0.00e+00	0	39	0	718274560	63	4780
2026-01-21 11:01:03.16	286.08	37.89	-45.8	-48.3	17.8	0.00e+00	0	39	0	720371712	63	4755
2026-01-21 11:01:04.10	286.46	37.80	-45.2	-47.7	18.4	0.00e+00	0	39	0	722468864	62	4665
2026-01-21 11:01:05.27	286.93	37.69	-44.4	-46.7	19.2	0.00e+00	0	38	0	724566016	60	4660
2026-01-21 11:01:06.13	287.27	37.60	-44.3	-46.5	19.5	0.00e+00	0	39	0	725614592	60	4559
2026-01-21 11:01:07.48	287.80	37.47	-43.8	-45.9	19.9	0.00e+00	0	39	0	728760320	59	4530
2026-01-21 11:01:08.19	288.08	37.39	-44.3	-46.4	19.4	0.00e+00	0	39	0	729808896	59	4807
2026-01-21 11:01:09.68	288.66	37.24	-45.6	-48.1	18.0	0.00e+00	0	39	0	732954624	61	5207
2026-01-21 11:01:10.39	288.94	37.17	-45.8	-48.4	17.7	0.00e+00	0	39	0	734003200	62	5059
2026-01-21 11:01:11.74	289.45	37.03	-45.4	-47.9	18.2	0.00e+00	0	39	0	736100352	62	4771
2026-01-21 11:01:12.46	289.73	36.95	-44.8	-47.1	18.9	0.00e+00	0	39	0	738197504	61	4645
2026-01-21 11:01:13.73	290.21	36.82	-44.7	-46.9	19.0	0.00e+00	0	39	0	740294656	61	4544
2026-01-21 11:01:14.44	290.48	36.74	-44.4	-46.6	19.3	0.00e+00	0	39	0	741343232	60	4616
2026-01-21 11:01:15.72	290.96	36.60	-43.6	-45.7	20.0	0.00e+00	0	39	0	743440384	59	4421
2026-01-21 11:01:16.45	291.23	36.52	-43.0	-44.9	20.7	0.00e+00	0	39	0	745537536	58	4291
2026-01-21 11:01:17.73	291.70	36.38	-42.3	-44.2	21.3	0.00e+00	0	39	0	747634688	56	4403
2026-01-21 11:01:18.44	291.96	36.30	-42.3	-44.2	21.2	0.00e+00	0	39	0	748683264	56	4424
2026-01-21 11:01:19.72	292.43	36.16	-43.3	-45.3	20.4	0.00e+00	0	39	0	751828992	57	4713
2026-01-21 11:01:20.48	292.70	36.07	-43.9	-46.0	19.8	0.00e+00	0	39	0	752877568	58	4825
2026-01-21 11:01:21.76	293.16	35.92	-44.7	-47.0	19.0	0.00e+00	0	39	0	754974720	60	4854
2026-01-21 11:01:22.47	293.42	35.84	-44.6	-46.8	19.1	0.00e+00	0	39	0	756023296	60	4757
2026-01-21 11:01:23.75	293.87	35.69	-44.7	-47.0	19.0	0.00e+00	0	39	0	759169024	60	4847
2026-01-21 11:01:24.59	294.17	35.59	-44.9	-47.3	18.7	0.00e+00	0	39	0	760217600	60	5006
2026-01-21 11:01:25.72	294.56	35.46	-45.6	-48.1	18.0	0.00e+00	0	39	0	762314752	61	5217
2026-01-21 11:01:26.80	294.94	35.33	-46.5	-49.2	17.0	0.00e+00	0	39	0	764411904	63	5273
2026-01-21 11:01:27.82	295.29	35.21	-46.7	-49.6	16.5	0.00e+00	0	39	0	766509056	64	5179
2026-01-21 11:01:28.82	295.63	35.09	-46.3	-49.0	17.0	0.00e+00	0	39	0	768606208	64	4859
2026-01-21 11:01:29.81	295.96	34.97	-45.4	-47.9	18.2	0.00e+00	0	39	0	770703360	62	4784
2026-01-21 11:01:30.81	296.30	34.85	-45.5	-47.9	18.2	0.00e+00	0	39	0	771751936	62	4798
2026-01-21 11:01:31.80	296.63	34.73	-46.2	-48.8	17.3	0.00e+00	0	39	0	773849088	63	5040
2026-01-21 11:01:32.80	296.96	34.61	-46.9	-49.8	16.2	0.00e+00	0	39	0	775946240	64	5318
2026-01-21 11:01:33.79	297.29	34.49	-47.8	-51.0	15.2	0.00e+00	0	39	0	778043392	66	5444
2026-01-21 11:01:34.79	297.62	34.37	-48.2	-51.7	14.5	0.00e+00	0	39	0	780140544	67	5531
2026-01-21 11:01:35.78	297.94	34.24	-47.6	-50.8	15.4	0.00e+00	0	39	0	781189120	67	4987
2026-01-21 11:01:36.77	298.26	34.12	-47.7	-50.9	15.3	0.00e+00	0	39	0	783286272	67	5051
2026-01-21 11:01:37.77	298.57	34.00	-48.0	-51.4	14.8	0.00e+00	0	39	0	785383424	67	5370
2026-01-21 11:01:38.76	298.89	33.87	-48.6	-52.5	13.7	1.50e-06	0	39	0	787480576	67	6078
2026-01-21 11:01:39.76	299.20	33.75	-49.3	-53.6	12.7	1.98e-05	0	39	0	788529152	69	6163
2026-01-21 11:01:40.75	299.51	33.62	-49.6	-54.3	12.0	2.50e-04	0	39	0	790626304	69	6710
2026-01-21 11:01:41.75	299.82	33.50	-49.2	-53.5	12.7	1.45e-04	0	39	0	792723456	70	5771
2026-01-21 11:01:42.74	300.13	33.37	-48.3	-51.9	14.2	2.13e-05	0	39	0	794820608	68	5402
2026-01-21 11:01:43.74	300.43	33.24	-47.5	-50.7	15.5	0.00e+00	0	39	0	796917760	66	5229
2026-01-21 11:01:44.73	300.73	33.12	-47.2	-50.3	15.8	0.00e+00	0	39	0	797966336	66	5024
2026-01-21 11:01:45.73	301.03	32.99	-47.2	-50.3	15.9	0.00e+00	0	39	0	800063488	66	5005
2026-01-21 11:01:46.72	301.33	32.86	-47.8	-51.2	15.0	0.00e+00	0	39	0	802160640	66	5544
2026-01-21 11:01:47.72	301.62	32.74	-48.5	-52.5	13.7	1.50e-06	0	39	0	804257792	67	6066
2026-01-21 11:01:48.72	301.92	32.61	-49.1	-53.4	13.0	2.67e-05	0	39	0	805306368	68	6348
2026-01-21 11:01:49.71	302.21	32.48	-48.9	-53.0	13.2	2.59e-05	0	39	0	807403520	68	6103
2026-01-21 11:01:50.71	302.50	32.35	-49.1	-53.3	13.0	2.13e-05	0	39	0	809500672	68	6330
2026-01-21 11:01:51.75	302.79	32.22	-49.0	-53.1	13.3	1.98e-05	0	39	0	811597824	68	6191
2026-01-21 11:01:52.76	303.08	32.09	-48.9	-52.9	13.5	2.20e-06	0	39	0	813694976	68	6004
2026-01-21 11:01:53.78	303.37	31.95	-48.7	-52.5	13.9	3.00e-06	0	39	0	814743552	68	5731
2026-01-21 11:01:54.78	303.65	31.82	-48.5	-52.2	14.1	1.50e-06	0	39	0	816840704	68	5580
2026-01-21 11:01:55.82	303.94	31.69	-47.6	-50.9	15.3	1.50e-06	0	39	0	818937856	67	5044
2026-01-21 11:01:56.88	304.23	31.55	-46.5	-49.3	16.8	0.00e+00	0	39	0	821035008	65	4732
2026-01-21 11:01:57.73	304.46	31.44	-46.6	-49.4	16.7	0.00e+00	0	39	0	822083584	64	5046
2026-01-21 11:01:58.87	304.77	31.29	-46.2	-48.9	17.2	0.00e+00	0	39	0	825229312	64	4769
2026-01-21 11:01:59.72	305.00	31.18	-46.8	-49.7	16.4	0.00e+00	0	39	0	826277888	64	5268
2026-01-21 11:02:00.86	305.31	31.03	-47.7	-51.1	15.1	0.00e+00	0	39	0	828375040	66	5479
2026-01-21 11:02:01.71	305.53	30.92	-47.8	-51.2	15.0	0.00e+00	0	39	0	830472192	66	5538
2026-01-21 11:02:03.18	305.92	30.73	-47.4	-50.7	15.5	0.00e+00	0	39	0	832569344	66	5236
2026-01-21 11:02:03.90	306.10	30.63	-47.2	-50.4	15.8	0.00e+00	0	39	0	834666496	66	5053
2026-01-21 11:02:05.18	306.43	30.47	-46.6	-49.4	16.7	0.00e+00	0	39	0	836763648	65	4812
2026-01-21 11:02:05.89	306.62	30.37	-46.4	-49.1	16.9	0.00e+00	0	39	0	837812224	64	4925
2026-01-21 11:02:07.17	306.94	30.21	-46.6	-49.4	16.7	0.00e+00	0	39	0	839909376	64	5082
2026-01-21 11:02:07.90	307.13	30.11	-46.9	-49.8	16.3	0.00e+00	0	39	0	842006528	64	5331
2026-01-21 11:02:09.18	307.45	29.94	-47.4	-50.7	15.5	0.00e+00	0	39	0	844103680	65	5535
2026-01-21 11:02:09.89	307.62	29.85	-47.2	-50.4	15.7	0.00e+00	0	39	0	845152256	65	5385
2026-01-21 11:02:11.16	307.93	29.69	-45.7	-48.3	17.7	0.00e+00	0	39	0	848297984	63	4751
2026-01-21 11:02:12.00	308.14	29.58	-45.3	-47.8	18.3	0.00e+00	0	39	0	849346560	62	4724
2026-01-21 11:02:13.14	308.42	29.43	-44.5	-46.8	19.1	0.00e+00	0	39	0	851443712	61	4466
2026-01-21 11:02:13.99	308.62	29.32	-44.3	-46.5	19.4	0.00e+00	0	39	0	853540864	60	4573
2026-01-21 11:02:15.13	308.89	29.17	-44.9	-47.3	18.6	0.00e+00	0	39	0	855638016	60	5005
2026-01-21 11:02:15.98	309.09	29.06	-45.3	-47.8	18.3	0.00e+00	0	39	0	856686592	61	5000
2026-01-21 11:02:17.12	309.36	28.91	-45.9	-48.5	17.6	0.00e+00	0	39	0	858783744	62	5109
2026-01-21 11:02:17.97	309.56	28.80	-45.6	-48.1	18.0	0.00e+00	0	39	0	860880896	62	4888
2026-01-21 11:02:19.11	309.82	28.65	-44.8	-47.1	18.8	0.00e+00	0	39	0	862978048	61	4648
2026-01-21 11:02:19.96	310.02	28.54	-44.0	-46.4	19.2	0.00e+00	0	39	0	864026624	60	4538
2026-01-21 11:02:21.13	310.28	28.39	-44.2	-46.4	19.5	0.00e+00	0	39	0	866123776	60	4510
2026-01-21 11:02:22.41	310.57	28.22	-44.5	-46.8	19.2	0.00e+00	0	39	0	869269504	60	4715
2026-01-21 11:02:23.12	310.73	28.13	-45.0	-47.3	18.7	0.00e+00	0	39	0	870318080	60	5014
2026-01-21 11:02:24.40	311.01	27.96	-45.8	-48.4	17.7	0.00e+00	0	39	0	872415232	62	5045
2026-01-21 11:02:25.11	311.17	27.87	-46.1	-48.8	17.3	0.00e+00	0	39	0	873463808	63	4989
2026-01-21 11:02:26.47	311.46	27.70	-46.0	-48.8	17.4	0.00e+00	0	39	0	876609536	63	4991
2026-01-21 11:02:27.18	311.62	27.61	-45.7	-48.3	17.8	0.00e+00	0	39	0	877658112	63	4735
2026-01-21 11:02:28.52	311.91	27.43	-45.1	-47.5	18.5	0.00e+00	0	39	0	880803840	62	4576
2026-01-21 11:02:29.23	312.06	27.34	-44.7	-47.0	18.9	0.00e+00	0	39	0	881852416	61	4573
2026-01-21 11:02:30.59	312.34	27.17	-43.8	-46.0	19.7	0.00e+00	0	39	0	883949568	59	4548
2026-01-21 11:02:31.55	312.54	27.04	-43.6	-45.7	20.0	0.00e+00	0	39	0	886046720	58	4685
2026-01-21 11:02:32.55	312.75	26.92	-43.8	-46.0	19.8	0.00e+00	0	39	0	888143872	58	4835
2026-01-21 11:02:33.54	312.96	26.79	-44.0	-46.2	19.6	0.00e+00	0	39	0	890241024	58	4981
2026-01-21 11:02:34.54	313.16	26.66	-44.3	-46.6	19.2	0.00e+00	0	39	0	891289600	59	4914
2026-01-21 11:02:35.53	313.36	26.54	-44.2	-46.6	19.2	0.00e+00	0	39	0	893386752	59	4922
2026-01-21 11:02:36.53	313.56	26.41	-44.1	-46.5	19.3	0.00e+00	0	39	0	895483904	59	4817
2026-01-21 11:02:37.53	313.76	26.28	-44.1	-46.4	19.4	0.00e+00	0	39	0	897581056	59	4802
2026-01-21 11:02:38.52	313.96	26.16	-43.7	-45.9	19.9	0.00e+00	0	39	0	898629632	59	4512
2026-01-21 11:02:39.51	314.15	26.03	-43.6	-45.8	19.9	0.00e+00	0	39	0	900726784	59	4457
2026-01-21 11:02:40.51	314.35	25.91	-43.8	-46.0	19.8	0.00e+00	0	39	0	902823936	59	4565
2026-01-21 11:02:41.50	314.54	25.78	-44.1	-46.3	19.6	0.00e+00	0	39	0	904921088	59	4718
2026-01-21 11:02:42.49	314.73	25.66	-44.6	-47.0	19.0	0.00e+00	0	39	0	907018240	59	5102
2026-01-21 11:02:43.49	314.92	25.53	-45.0	-47.4	18.6	0.00e+00	0	39	0	908066816	60	5093
2026-01-21 11:02:44.49	315.11	25.41	-45.3	-47.7	18.3	0.00e+00	0	39	0	910163968	61	4977
2026-01-21 11:02:45.48	315.29	25.29	-45.3	-47.8	18.3	0.00e+00	0	39	0	912261120	61	4990
2026-01-21 11:02:46.47	315.48	25.16	-44.9	-47.3	18.6	0.00e+00	0	39	0	914358272	61	4755
2026-01-21 11:02:47.47	315.66	25.04	-44.4	-46.7	19.2	0.00e+00	0	39	0	915406848	60	4691
2026-01-21 11:02:48.46	315.84	24.92	-44.0	-46.2	19.6	0.00e+00	0	39	0	917504000	60	4410
2026-01-21 11:02:49.45	316.02	24.79	-43.7	-45.8	19.9	0.00e+00	0	39	0	919601152	59	4492
2026-01-21 11:02:50.45	316.20	24.67	-43.5	-45.7	20.1	0.00e+00	0	39	0	921698304	58	4652
2026-01-21 11:02:51.44	316.38	24.55	-43.6	-45.7	20.0	0.00e+00	0	39	0	923795456	58	4691
2026-01-21 11:02:52.44	316.56	24.43	-43.8	-46.0	19.8	0.00e+00	0	39	0	924844032	58	4816
2026-01-21 11:02:53.45	316.74	24.30	-43.9	-46.1	19.7	0.00e+00	0	39	0	926941184	58	4904
2026-01-21 11:02:54.47	316.92	24.18	-44.2	-46.4	19.4	0.00e+00	0	39	0	929038336	59	4811
2026-01-21 11:02:55.50	317.10	24.05	-44.2	-46.5	19.4	0.00e+00	0	39	0	931135488	59	4829
2026-01-21 11:02:56.49	317.27	23.93	-44.5	-46.8	19.1	0.00e+00	0	39	0	933232640	59	5012
2026-01-21 11:02:57.55	317.45	23.81	-44.4	-46.7	19.2	0.00e+00	0	39	0	934281216	59	4935
2026-01-21 11:02:58.45	317.60	23.70	-44.1	-46.3	19.5	0.00e+00	0	39	0	936378368	59	4732
2026-01-21 11:02:59.68	317.81	23.55	-43.7	-45.9	19.9	0.00e+00	0	39	0	938475520	59	4499
2026-01-21 11:03:00.53	317.95	23.45	-43.6	-45.7	20.0	0.00e+00	0	39	0	940572672	59	4432
2026-01-21 11:03:01.67	318.14	23.31	-43.5	-45.7	20.0	0.00e+00	0	39	0	942669824	59	4412
2026-01-21 11:03:02.53	318.28	23.21	-43.6	-45.8	20.0	0.00e+00	0	39	0	943718400	58	4706
2026-01-21 11:03:03.66	318.47	23.07	-43.8	-46.0	19.8	0.00e+00	0	39	0	945815552	58	4826
2026-01-21 11:03:04.52	318.61	22.97	-43.7	-45.9	19.9	0.00e+00	0	39	0	947912704	58	4785
2026-01-21 11:03:05.65	318.79	22.84	-44.1	-46.4	19.4	0.00e+00	0	39	0	950009856	58	5076
2026-01-21 11:03:06.60	318.94	22.73	-44.3	-46.6	19.2	0.00e+00	0	39	0	952107008	59	4887
2026-01-21 11:03:07.77	319.13	22.59	-44.3	-46.7	19.2	0.00e+00	0	39	0	954204160	59	4943
2026-01-21 11:03:08.62	319.26	22.49	-44.5	-46.9	19.0	0.00e+00	0	39	0	955252736	59	5069
2026-01-21 11:03:09.98	319.47	22.33	-44.3	-46.7	19.1	0.00e+00	0	39	0	958398464	59	4982
2026-01-21 11:03:10.69	319.58	22.25	-44.3	-46.8	19.0	0.00e+00	0	39	0	959447040	59	5033
2026-01-21 11:03:11.97	319.78	22.10	-44.4	-46.9	18.9	0.00e+00	0	39	0	961544192	59	5084
2026-01-21 11:03:12.68	319.89	22.01	-44.3	-46.8	19.1	0.00e+00	0	39	0	962592768	59	4989
2026-01-21 11:03:14.23	320.12	21.83	-44.4	-46.8	19.0	0.00e+00	0	39	0	965738496	59	5003
2026-01-21 11:03:14.94	320.23	21.75	-44.3	-46.7	19.2	0.00e+00	0	39	0	967835648	59	4937
2026-01-21 11:03:16.21	320.42	21.61	-44.6	-47.0	18.9	0.00e+00	0	39	0	969932800	60	4851
2026-01-21 11:03:16.97	320.53	21.52	-44.5	-46.9	19.1	0.00e+00	0	39	0	970981376	60	4762
2026-01-21 11:03:18.25	320.72	21.37	-44.6	-47.0	19.0	0.00e+00	0	39	0	973078528	60	4823
2026-01-21 11:03:18.96	320.82	21.29	-44.6	-46.9	19.0	0.00e+00	0	39	0	975175680	60	4813
2026-01-21 11:03:20.24	321.01	21.15	-44.5	-46.9	19.0	0.00e+00	0	39	0	977272832	60	4761
2026-01-21 11:03:20.96	321.11	21.07	-44.6	-47.1	18.9	0.00e+00	0	39	0	978321408	60	4875
2026-01-21 11:03:22.24	321.30	20.92	-44.5	-46.9	19.0	0.00e+00	0	39	0	981467136	60	4805
2026-01-21 11:03:22.97	321.40	20.84	-44.5	-47.0	19.0	0.00e+00	0	39	0	982515712	60	4819
2026-01-21 11:03:24.25	321.58	20.69	-44.6	-47.1	18.8	0.00e+00	0	39	0	984612864	60	4902
2026-01-21 11:03:25.08	321.70	20.60	-44.6	-47.1	18.8	0.00e+00	0	39	0	986710016	60	4902
2026-01-21 11:03:26.52	321.90	20.44	-44.9	-47.5	18.5	0.00e+00	0	39	0	988807168	60	5110
2026-01-21 11:03:27.23	321.99	20.36	-45.0	-47.5	18.4	0.00e+00	0	39	0	989855744	60	5147
2026-01-21 11:03:28.51	322.17	20.22	-45.1	-47.7	18.3	0.00e+00	0	39	0	993001472	60	5251
2026-01-21 11:03:29.22	322.27	20.14	-45.0	-47.5	18.4	0.00e+00	0	39	0	994050048	61	4847
2026-01-21 11:03:30.50	322.44	20.00	-45.0	-47.5	18.5	0.00e+00	0	39	0	996147200	61	4862
2026-01-21 11:03:31.23	322.54	19.92	-45.1	-47.7	18.3	0.00e+00	0	39	0	998244352	61	4949
2026-01-21 11:03:32.51	322.71	19.78	-44.9	-47.4	18.5	0.00e+00	0	39	0	1000341504	61	4775
2026-01-21 11:03:33.22	322.80	19.70	-45.1	-47.7	18.3	0.00e+00	0	39	0	1001390080	61	4960
2026-01-21 11:03:34.50	322.97	19.56	-45.4	-48.1	17.9	0.00e+00	0	39	0	1004535808	61	5170
2026-01-21 11:03:35.21	323.06	19.49	-45.5	-48.1	17.9	0.00e+00	0	39	0	1005584384	61	5183
2026-01-21 11:03:36.49	323.23	19.35	-46.1	-49.0	17.0	0.00e+00	0	39	0	1007681536	63	5126
2026-01-21 11:03:37.20	323.32	19.27	-46.3	-49.2	16.9	0.00e+00	0	39	0	1008730112	63	5238
2026-01-21 11:03:38.48	323.48	19.13	-46.6	-49.8	16.3	0.00e+00	0	39	0	1011875840	64	5297
2026-01-21 11:03:39.22	323.58	19.05	-47.1	-50.5	15.5	0.00e+00	0	39	0	1012924416	64	5770
2026-01-21 11:03:40.50	323.74	18.92	-47.2	-50.7	15.3	0.00e+00	0	39	0	1015021568	65	5548
2026-01-21 11:03:41.22	323.83	18.84	-47.4	-51.1	14.9	0.00e+00	0	39	0	1017118720	65	5829
2026-01-21 11:03:42.50	323.99	18.71	-47.1	-50.5	15.5	0.00e+00	0	39	0	1019215872	65	5438
2026-01-21 11:03:43.23	324.08	18.63	-46.9	-50.2	15.8	0.00e+00	0	39	0	1020264448	65	5275
2026-01-21 11:03:44.50	324.23	18.49	-46.9	-50.1	15.9	0.00e+00	0	39	0	1022361600	65	5186
2026-01-21 11:03:45.22	324.32	18.42	-46.4	-49.4	16.6	0.00e+00	0	39	0	1024458752	64	5056
2026-01-21 11:03:46.49	324.47	18.29	-46.0	-48.8	17.2	0.00e+00	0	39	0	1026555904	63	5002
2026-01-21 11:03:47.22	324.56	18.21	-45.9	-48.7	17.3	0.00e+00	0	39	0	1027604480	63	4943
2026-01-21 11:03:48.50	324.71	18.08	-45.4	-47.9	18.0	0.00e+00	0	39	0	1030750208	62	4784
2026-01-21 11:03:49.23	324.80	18.00	-45.4	-47.9	18.1	0.00e+00	0	39	0	1031798784	62	4777
2026-01-21 11:03:50.51	324.95	17.87	-45.3	-47.8	18.1	0.00e+00	0	39	0	1033895936	62	4726
2026-01-21 11:03:51.22	325.03	17.79	-45.2	-47.7	18.2	0.00e+00	0	39	0	1034944512	62	4699
2026-01-21 11:03:52.50	325.18	17.66	-45.6	-48.3	17.7	0.00e+00	0	39	0	1038090240	62	5007
2026-01-21 11:03:53.22	325.27	17.59	-45.5	-48.2	17.8	0.00e+00	0	39	0	1039138816	62	4952
2026-01-21 11:03:54.50	325.41	17.46	-45.7	-48.5	17.5	0.00e+00	0	39	0	1041235968	62	5120
2026-01-21 11:03:55.21	325.49	17.39	-46.0	-48.9	17.1	0.00e+00	0	39	0	1043333120	62	5398
2026-01-21 11:03:56.57	325.65	17.25	-45.9	-48.8	17.2	0.00e+00	0	39	0	1045430272	62	5340
2026-01-21 11:03:57.28	325.73	17.18	-45.9	-48.9	17.1	0.00e+00	0	39	0	1046478848	62	5400
2026-01-21 11:03:58.56	325.87	17.05	-45.8	-48.9	17.1	0.00e+00	0	39	0	1049624576	62	5355
2026-01-21 11:03:59.28	325.95	16.97	-45.8	-48.9	17.1	0.00e+00	0	39	0	1050673152	62	5354
2026-01-21 11:04:00.66	326.10	16.84	-45.9	-49.0	17.0	0.00e+00	0	39	0	1052770304	62	5443
2026-01-21 11:04:01.37	326.18	16.76	-45.8	-48.8	17.1	0.00e+00	0	39	0	1054867456	62	5338
2026-01-21 11:04:02.65	326.32	16.64	-45.7	-48.6	17.3	0.00e+00	0	39	0	1056964608	62	5218
2026-01-21 11:04:03.69	326.43	16.53	-45.6	-48.4	17.5	0.00e+00	0	39	0	1059061760	62	5098
2026-01-21 11:04:05.00	326.57	16.40	-45.3	-48.1	17.8	0.00e+00	0	39	0	1061158912	62	4894
2026-01-21 11:04:05.72	326.65	16.33	-45.5	-48.4	17.6	0.00e+00	0	39	0	1062207488	62	5051
2026-01-21 11:04:07.00	326.79	16.21	-45.4	-48.3	17.7	0.00e+00	0	39	0	1065353216	62	4987
2026-01-21 11:04:07.72	326.86	16.14	-45.3	-48.1	17.8	0.00e+00	0	39	0	1066401792	62	4905
2026-01-21 11:04:09.00	327.00	16.01	-45.5	-48.3	17.6	0.00e+00	0	39	0	1068498944	62	5025
2026-01-21 11:04:09.73	327.07	15.94	-45.5	-48.3	17.6	0.00e+00	0	39	0	1069547520	62	5030
2026-01-21 11:04:11.01	327.20	15.82	-45.7	-48.7	17.3	0.00e+00	0	39	0	1072693248	62	5226
2026-01-21 11:04:11.72	327.28	15.75	-45.5	-48.4	17.5	0.00e+00	0	39	0	1073741824	62	5083
2026-01-21 11:04:13.00	327.41	15.62	-45.4	-48.3	17.6	0.00e+00	0	39	0	1075838976	62	5021
2026-01-21 11:04:13.73	327.48	15.55	-45.6	-48.6	17.3	0.00e+00	0	39	0	1077936128	62	5195
2026-01-21 11:04:15.01	327.61	15.43	-45.7	-48.6	17.3	0.00e+00	0	39	0	1080033280	62	5189
2026-01-21 11:04:15.73	327.68	15.36	-45.7	-48.6	17.4	0.00e+00	0	39	0	1081081856	62	5165
2026-01-21 11:04:17.15	327.82	15.23	-45.7	-48.6	17.4	0.00e+00	0	39	0	1084227584	62	5175
2026-01-21 11:04:17.86	327.89	15.16	-45.7	-48.6	17.4	0.00e+00	0	39	0	1085276160	62	5185
2026-01-21 11:04:19.14	328.02	15.04	-45.8	-48.6	17.3	0.00e+00	0	39	0	1087373312	62	5210
2026-01-21 11:04:20.22	328.13	14.94	-45.7	-48.5	17.4	0.00e+00	0	39	0	1089470464	62	5129
2026-01-21 11:04:21.07	328.21	14.86	-45.6	-48.3	17.6	0.00e+00	0	39	0	1091567616	62	5026
2026-01-21 11:04:22.66	328.36	14.71	-45.8	-48.6	17.4	0.00e+00	0	39	0	1094713344	62	5166
2026-01-21 11:04:23.23	328.42	14.65	-45.7	-48.4	17.5	0.00e+00	0	39	0	1095761920	62	5070
2026-01-21 11:04:24.94	328.58	14.50	-45.6	-48.2	17.7	0.00e+00	0	39	0	1098907648	62	4967
2026-01-21 11:04:25.51	328.63	14.44	-45.5	-48.1	17.7	0.00e+00	0	39	0	1099956224	62	4917
2026-01-21 11:04:27.21	328.79	14.29	-45.7	-48.3	17.6	0.00e+00	0	39	0	1103101952	62	5017
2026-01-21 11:04:27.78	328.85	14.23	-45.7	-48.4	17.6	0.00e+00	0	39	0	1104150528	62	5046
2026-01-21 11:04:29.49	329.00	14.08	-45.8	-48.5	17.4	0.00e+00	0	39	0	1107296256	62	5118
2026-01-21 11:04:30.05	329.06	14.03	-45.9	-48.6	17.2	0.00e+00	0	39	0	1108344832	62	5209
2026-01-21 11:04:31.76	329.21	13.87	-46.0	-48.9	16.9	0.00e+00	0	39	0	1111490560	63	5051
2026-01-21 11:04:32.33	329.26	13.82	-46.3	-49.2	16.7	0.00e+00	0	39	0	1112539136	63	5264
2026-01-21 11:04:34.04	329.42	13.66	-46.6	-49.7	16.2	0.00e+00	0	39	0	1115684864	63	5591
2026-01-21 11:04:34.60	329.47	13.61	-46.5	-49.5	16.4	0.00e+00	0	39	0	1116733440	63	5461
2026-01-21 11:04:36.31	329.62	13.46	-46.9	-50.2	15.8	0.00e+00	0	39	0	1119879168	64	5540
2026-01-21 11:04:36.88	329.67	13.41	-47.0	-50.2	15.7	0.00e+00	0	39	0	1120927744	64	5557
2026-01-21 11:04:38.71	329.83	13.25	-47.3	-50.6	15.3	0.00e+00	0	39	0	1124073472	65	5503
2026-01-21 11:04:39.28	329.88	13.19	-47.3	-50.7	15.2	0.00e+00	0	39	0	1125122048	65	5539
2026-01-21 11:04:40.98	330.03	13.04	-47.3	-50.7	15.2	0.00e+00	0	39	0	1128267776	65	5553
2026-01-21 11:04:41.55	330.08	12.99	-47.2	-50.7	15.2	0.00e+00	0	39	0	1129316352	65	5561
2026-01-21 11:04:43.26	330.22	12.84	-47.0	-50.4	15.4	0.00e+00	0	39	0	1132462080	65	5370
2026-01-21 11:04:43.83	330.27	12.79	-47.0	-50.4	15.5	0.00e+00	0	39	0	1133510656	65	5363
2026-01-21 11:04:45.53	330.41	12.65	-47.0	-50.4	15.4	0.00e+00	0	39	0	1137704960	65	5366
2026-01-21 11:04:46.10	330.46	12.60	-46.8	-50.1	15.7	0.00e+00	0	39	0	1138753536	65	5208
2026-01-21 11:04:47.80	330.60	12.45	-46.6	-49.7	16.1	0.00e+00	0	39	0	1141899264	65	4959
2026-01-21 11:04:48.37	330.65	12.40	-46.7	-49.8	16.0	0.00e+00	0	39	0	1142947840	65	5011
2026-01-21 11:04:50.08	330.79	12.25	-46.4	-49.4	16.4	0.00e+00	0	39	0	1146093568	64	5047
2026-01-21 11:04:50.65	330.84	12.20	-46.2	-49.1	16.6	0.00e+00	0	39	0	1147142144	64	4911
2026-01-21 11:04:52.59	331.00	12.04	-46.1	-49.0	16.8	0.00e+00	0	39	0	1150287872	64	4820
2026-01-21 11:04:53.16	331.04	11.99	-46.0	-48.8	16.9	0.00e+00	0	39	0	1151336448	64	4752
2026-01-21 11:04:54.86	331.18	11.84	-46.0	-48.8	17.0	0.00e+00	0	39	0	1154482176	63	5021
2026-01-21 11:04:55.56	331.23	11.78	-46.0	-48.8	17.0	0.00e+00	0	39	0	1155530752	63	5011
2026-01-21 11:04:56.96	331.34	11.67	-45.9	-48.6	17.2	0.00e+00	0	39	0	1158676480	63	4916
2026-01-21 11:04:57.67	331.40	11.61	-45.9	-48.7	17.1	0.00e+00	0	39	0	1159725056	63	4930
2026-01-21 11:04:58.95	331.50	11.50	-45.9	-48.7	17.1	0.00e+00	0	39	0	1162870784	63	4932
2026-01-21 11:04:59.66	331.56	11.44	-45.8	-48.5	17.3	0.00e+00	0	39	0	1163919360	63	4862
2026-01-21 11:05:00.94	331.66	11.33	-45.6	-48.3	17.5	0.00e+00	0	39	0	1166016512	63	4728
2026-01-21 11:05:01.67	331.71	11.27	-45.7	-48.5	17.3	0.00e+00	0	39	0	1167065088	63	4816
2026-01-21 11:05:02.94	331.81	11.17	-45.8	-48.6	17.2	0.00e+00	0	39	0	1170210816	63	4894
2026-01-21 11:05:03.67	331.86	11.11	-45.6	-48.3	17.4	0.00e+00	0	39	0	1171259392	63	4750
2026-01-21 11:05:04.95	331.96	11.00	-45.8	-48.6	17.2	0.00e+00	0	39	0	1173356544	63	4881
2026-01-21 11:05:05.66	332.01	10.94	-45.7	-48.4	17.3	0.00e+00	0	39	0	1175453696	63	4790
2026-01-21 11:05:07.16	332.13	10.82	-45.7	-48.5	17.3	0.00e+00	0	39	0	1177550848	63	4817
2026-01-21 11:05:07.88	332.18	10.76	-45.7	-48.5	17.2	0.00e+00	0	39	0	1178599424	63	4860
2026-01-21 11:05:09.15	332.28	10.66	-45.7	-48.5	17.2	0.00e+00	0	39	0	1181745152	63	4868
2026-01-21 11:05:10.23	332.35	10.57	-45.9	-48.7	17.0	0.00e+00	0	39	0	1183842304	63	4958
2026-01-21 11:05:11.08	332.42	10.50	-45.8	-48.6	17.1	0.00e+00	0	39	0	1184890880	63	4900
2026-01-21 11:05:12.22	332.50	10.41	-46.0	-48.8	16.9	0.00e+00	0	39	0	1186988032	63	5017
2026-01-21 11:05:13.43	332.59	10.31	-46.1	-48.9	16.7	0.00e+00	0	39	0	1189085184	63	5094
2026-01-21 11:05:14.29	332.65	10.24	-46.0	-48.9	16.8	0.00e+00	0	39	0	1191182336	63	5081
2026-01-21 11:05:15.42	332.73	10.15	-46.3	-49.3	16.5	0.00e+00	0	39	0	1193279488	63	5338
2026-01-21 11:05:16.27	332.79	10.08	-46.2	-49.2	16.5	0.00e+00	0	39	0	1194328064	63	5247
2026-01-21 11:05:17.41	332.87	9.99	-46.2	-49.1	16.6	0.00e+00	0	39	0	1197473792	63	5185
2026-01-21 11:05:18.27	332.93	9.93	-46.4	-49.5	16.2	0.00e+00	0	39	0	1198522368	63	5421
2026-01-21 11:05:19.40	333.01	9.84	-46.4	-49.5	16.2	0.00e+00	0	39	0	1200619520	63	5452
2026-01-21 11:05:20.25	333.07	9.77	-46.4	-49.5	16.3	0.00e+00	0	39	0	1202716672	63	5408
2026-01-21 11:05:21.39	333.15	9.68	-46.6	-49.9	15.8	0.00e+00	0	39	0	1204813824	63	5678
2026-01-21 11:05:22.24	333.21	9.61	-46.5	-49.7	15.9	0.00e+00	0	39	0	1205862400	64	5277
2026-01-21 11:05:23.38	333.29	9.52	-46.5	-49.8	15.8	0.00e+00	0	39	0	1207959552	64	5339
2026-01-21 11:05:24.23	333.35	9.46	-46.5	-49.9	15.7	0.00e+00	0	39	0	1210056704	64	5369
2026-01-21 11:05:25.37	333.43	9.37	-46.5	-49.9	15.7	0.00e+00	0	39	0	1212153856	64	5358
2026-01-21 11:05:26.30	333.49	9.30	-46.8	-50.3	15.3	0.00e+00	0	39	0	1213202432	64	5594
2026-01-21 11:05:27.47	333.57	9.21	-46.8	-50.4	15.3	0.00e+00	0	39	0	1216348160	64	5664
2026-01-21 11:05:28.32	333.63	9.14	-46.9	-50.4	15.2	0.00e+00	0	39	0	1217396736	64	5696
2026-01-21 11:05:29.46	333.70	9.05	-47.0	-50.5	15.1	0.00e+00	0	39	0	1219493888	64	5738
2026-01-21 11:05:30.31	333.76	8.99	-47.0	-50.4	15.1	0.00e+00	0	39	0	1221591040	64	5711
2026-01-21 11:05:31.45	333.83	8.90	-51.5	-67.0	3.8	4.49e-01	0	39	104	1222639616	73	22866
2026-01-21 11:05:32.30	333.89	8.84	-51.5	-67.3	3.8	1.49e+00	0	39	104	1222639616	74	22276
2026-01-21 11:05:33.44	333.96	8.75	-51.8	-67.5	3.8	1.49e+00	0	39	104	1222639616	74	22935
2026-01-21 11:05:34.29	334.02	8.68	-51.4	-67.6	3.8	1.49e+00	0	39	104	1222639616	73	24540
2026-01-21 11:05:35.42	334.09	8.60	-51.8	-67.7	3.8	1.49e+00	0	39	104	1222639616	74	23425
2026-01-21 11:05:36.27	334.15	8.53	-51.5	-67.7	3.8	1.49e+00	0	39	104	1222639616	74	23528
2026-01-21 11:05:37.41	334.22	8.45	-52.0	-67.8	3.8	1.49e+00	0	39	104	1222639616	74	23590
