passes_logs/2026/01/21/T1/T1__20260121_115133_FENGYUN_3D_rec.log

#Pass ID: 20260121_115133_FENGYUN 3D
#Satellite: FENGYUN 3D
#Configuration: FENGYUN 3D
#almurnet v.1.7.20251203
#Start time: 2026-01-21 11:51:32

#Version: 2.0.20230620
#Station: T1
#Location: 37.570604 lon 55.790049 lat
#TLE: 1 43010U 17072A   26020.92362722 -.00000077  00000+0 -14488-4 0  9992
#TLE: 2 43010  98.9946 352.8312 0002486  99.3651 260.7806 14.19696535424099

#Time	Az	El	Level	Level2	SNR	BER	BlckErr	Temp	State	Recorded	gain1	gain2
2026-01-21 11:51:32.87	156.18	4.99	-51.8	-63.8	3.8	8.47e-01	0	36	0	0	75	14178
2026-01-21 11:51:33.86	156.18	5.06	-51.8	-63.5	3.8	8.47e-01	0	36	104	0	75	13581
2026-01-21 11:51:34.85	156.17	5.13	-51.8	-63.5	3.8	8.47e-01	0	36	104	0	75	13647
2026-01-21 11:51:35.84	156.17	5.20	-51.8	-63.5	3.8	8.47e-01	0	36	104	0	75	13711
2026-01-21 11:51:36.84	156.16	5.28	-51.8	-63.6	3.8	8.47e-01	0	36	104	0	75	13827
2026-01-21 11:51:37.83	156.16	5.35	-51.8	-63.8	3.8	8.47e-01	0	36	104	0	75	14085
2026-01-21 11:51:38.82	156.15	5.42	-51.8	-63.9	3.8	8.47e-01	0	36	104	0	75	14241
2026-01-21 11:51:39.82	156.15	5.49	-51.8	-64.0	3.8	8.47e-01	0	36	104	0	75	14521
2026-01-21 11:51:40.81	156.14	5.57	-51.8	-64.0	3.8	8.47e-01	0	36	104	0	75	14537
2026-01-21 11:51:41.80	156.14	5.64	-51.8	-64.0	3.8	8.47e-01	0	36	104	0	75	14496
2026-01-21 11:51:42.80	156.13	5.71	-51.8	-63.8	3.8	8.47e-01	0	36	104	0	75	14097
2026-01-21 11:51:43.79	156.13	5.79	-51.8	-63.5	3.8	8.46e-01	0	36	104	0	75	13656
2026-01-21 11:51:44.78	156.12	5.86	-51.7	-63.1	3.8	8.48e-01	0	37	104	0	75	12978
2026-01-21 11:51:45.78	156.12	5.93	-51.7	-62.6	3.8	8.47e-01	0	37	104	0	75	12257
2026-01-21 11:51:46.77	156.11	6.01	-51.6	-62.3	3.8	8.47e-01	0	37	104	0	75	11926
2026-01-21 11:51:47.77	156.11	6.08	-51.6	-62.0	3.8	8.45e-01	0	37	104	0	75	11532
2026-01-21 11:51:48.76	156.10	6.16	-51.5	-61.7	3.8	8.45e-01	0	36	104	0	75	11056
2026-01-21 11:51:49.75	156.10	6.23	-51.5	-61.6	3.8	8.45e-01	0	37	104	0	75	11014
2026-01-21 11:51:50.74	156.09	6.31	-51.5	-61.7	3.8	8.45e-01	0	37	104	0	75	11060
2026-01-21 11:51:51.74	156.09	6.38	-51.6	-62.0	3.8	8.46e-01	0	37	104	0	75	11427
2026-01-21 11:51:52.73	156.08	6.46	-51.6	-62.2	3.8	8.45e-01	0	37	104	0	75	11804
2026-01-21 11:51:53.72	156.08	6.53	-51.6	-62.6	3.8	8.46e-01	0	37	104	0	75	12310
2026-01-21 11:51:54.72	156.07	6.61	-51.7	-63.1	3.8	8.47e-01	0	37	104	0	75	13030
2026-01-21 11:51:55.71	156.06	6.68	-51.7	-63.5	3.8	8.46e-01	0	37	104	0	75	13680
2026-01-21 11:51:56.71	156.06	6.76	-51.8	-63.9	3.8	8.47e-01	0	37	104	0	75	14248
2026-01-21 11:51:57.70	156.05	6.84	-51.8	-64.0	3.8	8.47e-01	0	37	104	0	75	14531
2026-01-21 11:51:58.69	156.05	6.91	-51.8	-64.0	3.8	8.47e-01	0	37	104	0	75	14521
2026-01-21 11:51:59.69	156.04	6.99	-51.8	-64.0	3.8	8.46e-01	0	37	104	0	75	14393
2026-01-21 11:52:00.68	156.04	7.07	-51.8	-63.8	3.8	8.47e-01	0	37	104	0	75	14118
2026-01-21 11:52:01.67	156.03	7.14	-51.8	-63.5	3.8	8.48e-01	0	37	104	0	75	13596
2026-01-21 11:52:02.67	156.02	7.22	-51.7	-63.0	3.8	8.46e-01	0	37	104	0	75	12949
2026-01-21 11:52:03.66	156.02	7.30	-51.6	-62.2	3.8	8.48e-01	0	37	104	0	75	11805
2026-01-21 11:52:04.65	156.01	7.38	-51.4	-61.0	3.9	8.44e-01	0	37	104	0	74	10787
2026-01-21 11:52:05.65	156.01	7.46	-51.1	-59.4	4.5	8.29e-01	0	37	0	0	74	9015
2026-01-21 11:52:06.64	156.00	7.53	-50.6	-57.3	5.7	7.20e-01	0	37	0	0	73	7536
2026-01-21 11:52:07.63	155.99	7.61	-50.1	-55.9	6.8	2.78e-01	0	37	0	5242880	72	6746
2026-01-21 11:52:08.63	155.99	7.69	-49.5	-54.3	8.4	7.28e-02	0	37	0	10485760	71	5938
2026-01-21 11:52:09.62	155.98	7.77	-48.9	-53.1	9.6	2.47e-02	0	37	0	16777216	69	5834
2026-01-21 11:52:10.61	155.98	7.85	-48.1	-51.7	11.0	4.31e-03	0	37	0	22020096	68	5278
2026-01-21 11:52:11.61	155.97	7.93	-47.3	-50.6	12.1	1.14e-03	0	38	0	27262976	66	5170
2026-01-21 11:52:12.60	155.96	8.01	-46.6	-49.7	13.0	8.69e-05	0	38	0	32505856	65	4931
2026-01-21 11:52:13.59	155.96	8.09	-46.2	-49.0	13.6	1.71e-05	0	37	0	38797312	64	4858
2026-01-21 11:52:14.59	155.95	8.17	-45.9	-48.7	14.1	9.95e-05	0	38	0	44040192	63	4931
2026-01-21 11:52:15.58	155.94	8.25	-45.6	-48.3	14.4	3.40e-06	0	37	0	50331648	63	4733
2026-01-21 11:52:16.57	155.94	8.33	-45.5	-48.1	14.6	1.10e-06	0	38	0	55574528	63	4627
2026-01-21 11:52:17.57	155.93	8.41	-45.5	-48.1	14.7	0.00e+00	0	37	0	60817408	62	4884
2026-01-21 11:52:18.56	155.92	8.50	-45.6	-48.2	14.5	0.00e+00	0	37	0	66060288	62	4974
2026-01-21 11:52:19.55	155.92	8.58	-45.9	-48.6	14.1	0.00e+00	0	38	0	72351744	62	5192
2026-01-21 11:52:20.55	155.91	8.66	-46.3	-49.1	13.6	5.70e-06	0	38	0	77594624	63	5218
2026-01-21 11:52:21.54	155.90	8.74	-46.7	-49.7	12.9	5.49e-05	0	38	0	82837504	64	5255
2026-01-21 11:52:22.53	155.90	8.82	-47.2	-50.5	12.1	1.85e-04	0	38	0	89128960	65	5452
2026-01-21 11:52:23.53	155.89	8.91	-48.0	-51.7	11.0	2.03e-03	0	37	0	94371840	66	5858
2026-01-21 11:52:24.52	155.88	8.99	-48.9	-53.1	9.6	1.06e-02	0	38	0	100663296	68	6202
2026-01-21 11:52:25.51	155.88	9.07	-46.4	-49.4	13.1	3.34e-02	0	38	0	105906176	65	4768
2026-01-21 11:52:26.51	155.87	9.16	-44.2	-46.5	16.3	0.00e+00	0	38	0	111149056	59	4821
2026-01-21 11:52:27.50	155.86	9.24	-48.6	-52.6	10.3	2.20e-06	0	38	0	116391936	67	6167
2026-01-21 11:52:28.50	155.85	9.33	-50.8	-58.0	4.3	8.44e-01	0	38	104	117440512	73	8111
2026-01-21 11:52:29.49	155.85	9.41	-46.5	-49.4	13.2	2.05e-02	0	38	0	120586240	65	4789
2026-01-21 11:52:30.49	155.84	9.50	-43.4	-45.6	17.0	0.00e+00	0	38	0	126877696	58	4646
2026-01-21 11:52:31.49	155.83	9.58	-43.1	-45.3	17.3	0.00e+00	0	38	0	132120576	58	4458
2026-01-21 11:52:32.48	155.82	9.67	-42.9	-45.1	17.5	0.00e+00	0	38	0	138412032	57	4600
2026-01-21 11:52:33.47	155.82	9.75	-42.5	-44.5	18.0	0.00e+00	0	38	0	143654912	56	4598
2026-01-21 11:52:34.50	155.81	9.84	-42.5	-44.6	18.0	0.00e+00	0	38	0	148897792	56	4600
2026-01-21 11:52:35.50	155.80	9.93	-42.3	-44.3	18.2	0.00e+00	0	38	0	155189248	56	4483
2026-01-21 11:52:36.56	155.79	10.02	-42.1	-44.1	18.5	0.00e+00	0	38	0	160432128	56	4364
2026-01-21 11:52:37.41	155.79	10.10	-41.7	-43.7	18.7	0.00e+00	0	38	0	165675008	55	4396
2026-01-21 11:52:38.55	155.78	10.20	-41.7	-43.8	18.6	0.00e+00	0	38	0	171966464	55	4450
2026-01-21 11:52:39.40	155.77	10.27	-41.7	-43.7	18.7	0.00e+00	0	38	0	177209344	55	4410
2026-01-21 11:52:40.54	155.76	10.37	-41.7	-43.6	18.7	0.00e+00	0	38	0	183500800	55	4390
2026-01-21 11:52:41.39	155.76	10.45	-41.6	-43.5	18.8	0.00e+00	0	38	0	187695104	55	4338
2026-01-21 11:52:42.53	155.75	10.55	-41.6	-43.6	18.8	0.00e+00	0	38	0	193986560	55	4352
2026-01-21 11:52:43.38	155.74	10.63	-41.5	-43.4	18.9	0.00e+00	0	38	0	199229440	55	4290
2026-01-21 11:52:44.52	155.73	10.73	-41.4	-43.3	19.0	0.00e+00	0	38	0	205520896	54	4487
2026-01-21 11:52:45.37	155.72	10.80	-41.6	-43.6	18.8	0.00e+00	0	38	0	210763776	54	4624
2026-01-21 11:52:46.50	155.71	10.91	-41.6	-43.5	18.9	0.00e+00	0	38	0	217055232	54	4585
2026-01-21 11:52:47.36	155.71	10.99	-41.5	-43.5	18.9	0.00e+00	0	38	0	221249536	54	4559
2026-01-21 11:52:48.50	155.70	11.09	-41.6	-43.5	18.9	0.00e+00	0	38	0	227540992	54	4594
2026-01-21 11:52:49.35	155.69	11.17	-41.5	-43.5	19.0	0.00e+00	0	38	0	232783872	54	4547
2026-01-21 11:52:50.64	155.68	11.29	-41.4	-43.4	19.1	0.00e+00	0	38	0	240123904	54	4495
2026-01-21 11:52:51.35	155.67	11.35	-41.4	-43.3	19.1	0.00e+00	0	38	0	244318208	54	4476
2026-01-21 11:52:52.63	155.66	11.47	-41.4	-43.3	19.1	0.00e+00	0	38	0	251658240	54	4482
2026-01-21 11:52:53.37	155.65	11.54	-41.4	-43.3	19.1	0.00e+00	0	38	0	255852544	54	4478
2026-01-21 11:52:54.65	155.64	11.66	-41.4	-43.4	19.1	0.00e+00	0	38	0	262144000	54	4495
2026-01-21 11:52:55.39	155.64	11.73	-41.4	-43.3	19.1	0.00e+00	0	38	0	266338304	54	4485
2026-01-21 11:52:56.67	155.62	11.85	-41.3	-43.2	19.1	0.00e+00	0	38	0	273678336	54	4433
2026-01-21 11:52:57.41	155.62	11.92	-41.5	-43.4	19.0	0.00e+00	0	38	0	277872640	54	4518
2026-01-21 11:52:58.69	155.61	12.04	-41.3	-43.2	19.2	0.00e+00	0	38	0	285212672	54	4423
2026-01-21 11:52:59.40	155.60	12.11	-41.3	-43.3	19.2	0.00e+00	0	38	0	289406976	54	4442
2026-01-21 11:53:00.68	155.59	12.23	-41.1	-43.1	19.3	6.04e-04	0	38	0	296747008	54	4347
2026-01-21 11:53:01.61	155.58	12.32	-41.1	-43.1	19.3	0.00e+00	0	38	0	301989888	54	4342
2026-01-21 11:53:02.61	155.57	12.41	-41.2	-43.2	19.2	0.00e+00	0	38	0	307232768	54	4411
2026-01-21 11:53:03.95	155.56	12.54	-41.2	-43.1	19.3	0.00e+00	0	38	0	314572800	54	4364
2026-01-21 11:53:04.67	155.55	12.61	-41.1	-43.1	19.3	0.00e+00	0	38	0	318767104	54	4341
2026-01-21 11:53:05.94	155.54	12.74	-41.3	-43.3	19.1	0.00e+00	0	38	0	326107136	54	4465
2026-01-21 11:53:06.68	155.53	12.81	-41.1	-43.0	19.4	0.00e+00	0	38	0	330301440	54	4329
2026-01-21 11:53:07.97	155.52	12.93	-41.0	-42.9	19.4	0.00e+00	0	38	0	337641472	54	4286
2026-01-21 11:53:08.68	155.51	13.01	-41.1	-43.1	19.3	0.00e+00	0	38	0	341835776	54	4341
2026-01-21 11:53:09.95	155.50	13.13	-41.0	-42.9	19.4	0.00e+00	0	38	0	348127232	54	4286
2026-01-21 11:53:10.66	155.49	13.20	-41.0	-42.9	19.5	0.00e+00	0	38	0	352321536	53	4530
2026-01-21 11:53:11.94	155.47	13.33	-41.0	-42.9	19.5	3.31e-05	0	38	0	359661568	53	4522
2026-01-21 11:53:12.68	155.47	13.40	-41.0	-42.9	19.4	0.00e+00	0	38	0	363855872	53	4534
2026-01-21 11:53:13.96	155.45	13.53	-41.0	-42.9	19.5	0.00e+00	0	38	0	371195904	53	4524
2026-01-21 11:53:14.69	155.45	13.61	-40.9	-42.8	19.5	0.00e+00	0	38	0	375390208	53	4493
2026-01-21 11:53:15.97	155.43	13.74	-41.0	-42.9	19.4	0.00e+00	0	38	0	382730240	53	4537
2026-01-21 11:53:16.68	155.42	13.81	-41.0	-42.9	19.5	0.00e+00	0	38	0	386924544	53	4533
2026-01-21 11:53:18.22	155.41	13.97	-40.8	-42.8	19.6	0.00e+00	0	38	0	395313152	53	4451
2026-01-21 11:53:18.93	155.40	14.04	-40.8	-42.7	19.6	0.00e+00	0	38	0	399507456	53	4439
2026-01-21 11:53:20.27	155.39	14.18	-40.8	-42.8	19.6	0.00e+00	0	38	0	406847488	53	4453
2026-01-21 11:53:20.98	155.38	14.25	-40.8	-42.7	19.6	0.00e+00	0	38	0	411041792	53	4430
2026-01-21 11:53:22.26	155.36	14.38	-40.8	-42.7	19.6	0.00e+00	0	38	0	417333248	53	4436
2026-01-21 11:53:22.97	155.35	14.46	-40.8	-42.7	19.7	0.00e+00	0	38	0	421527552	53	4405
2026-01-21 11:53:24.25	155.34	14.59	-40.7	-42.7	19.7	0.00e+00	0	38	0	428867584	53	4412
2026-01-21 11:53:24.96	155.33	14.67	-40.7	-42.6	19.8	0.00e+00	0	38	0	433061888	53	4357
2026-01-21 11:53:26.24	155.32	14.80	-40.6	-42.6	19.8	0.00e+00	0	38	0	440401920	53	4344
2026-01-21 11:53:26.97	155.31	14.88	-40.6	-42.5	19.8	0.00e+00	0	38	0	444596224	53	4335
2026-01-21 11:53:28.25	155.29	15.02	-40.5	-42.4	19.9	0.00e+00	0	38	0	451936256	53	4272
2026-01-21 11:53:28.96	155.28	15.10	-40.5	-42.4	19.9	0.00e+00	0	38	0	455081984	52	4523
2026-01-21 11:53:30.24	155.27	15.23	-40.4	-42.4	20.0	0.00e+00	0	38	0	462422016	52	4495
2026-01-21 11:53:30.95	155.26	15.31	-40.4	-42.3	20.1	0.00e+00	0	38	0	466616320	52	4451
2026-01-21 11:53:32.23	155.24	15.45	-40.5	-42.4	20.0	0.00e+00	0	38	0	473956352	52	4497
2026-01-21 11:53:32.94	155.24	15.53	-40.3	-42.2	20.1	0.00e+00	0	38	0	478150656	52	4403
2026-01-21 11:53:34.21	155.22	15.67	-40.2	-42.0	20.2	0.00e+00	0	38	0	485490688	52	4337
2026-01-21 11:53:35.10	155.21	15.77	-40.1	-42.0	20.4	0.00e+00	0	38	0	489684992	52	4292
2026-01-21 11:53:36.24	155.19	15.89	-40.1	-42.0	20.3	0.00e+00	0	38	0	497025024	52	4316
2026-01-21 11:53:37.09	155.18	15.99	-40.1	-42.0	20.4	0.00e+00	0	38	0	501219328	52	4299
2026-01-21 11:53:38.23	155.17	16.11	-40.1	-41.9	20.4	0.00e+00	0	38	0	507510784	52	4284
2026-01-21 11:53:39.08	155.16	16.21	-40.0	-41.8	20.5	0.00e+00	0	38	0	512753664	51	4490
2026-01-21 11:53:40.22	155.14	16.34	-39.9	-41.7	20.6	0.00e+00	0	38	0	519045120	51	4437
2026-01-21 11:53:41.07	155.13	16.44	-40.0	-41.9	20.5	0.00e+00	0	38	0	524288000	51	4495
2026-01-21 11:53:42.21	155.12	16.57	-40.0	-41.8	20.5	0.00e+00	0	38	0	529530880	51	4471
2026-01-21 11:53:43.07	155.10	16.66	-39.9	-41.7	20.7	0.00e+00	0	38	0	534773760	51	4406
2026-01-21 11:53:44.30	155.09	16.81	-39.8	-41.7	20.7	0.00e+00	0	38	0	542113792	51	4392
2026-01-21 11:53:45.15	155.07	16.90	-39.8	-41.6	20.7	0.00e+00	0	38	0	546308096	51	4364
2026-01-21 11:53:46.37	155.06	17.05	-39.8	-41.6	20.7	0.00e+00	0	38	0	553648128	51	4363
2026-01-21 11:53:47.22	155.05	17.14	-39.8	-41.6	20.7	0.00e+00	0	38	0	558891008	51	4375
2026-01-21 11:53:48.36	155.03	17.28	-39.7	-41.5	20.8	0.00e+00	0	38	0	564133888	51	4306
2026-01-21 11:53:49.21	155.02	17.38	-39.7	-41.5	20.8	0.00e+00	0	39	0	569376768	51	4326
2026-01-21 11:53:50.48	155.00	17.53	-39.8	-41.6	20.8	0.00e+00	0	38	0	576716800	51	4352
2026-01-21 11:53:51.20	154.99	17.62	-39.7	-41.6	20.8	0.00e+00	0	38	0	580911104	51	4347
2026-01-21 11:53:52.47	154.97	17.77	-39.7	-41.5	20.9	0.00e+00	0	39	0	588251136	51	4292
2026-01-21 11:53:53.19	154.96	17.85	-39.6	-41.4	20.9	0.00e+00	0	39	0	591396864	51	4275
2026-01-21 11:53:54.72	154.94	18.04	-39.7	-41.5	20.8	0.00e+00	0	38	0	600834048	51	4326
2026-01-21 11:53:55.43	154.92	18.13	-39.7	-41.5	20.8	0.00e+00	0	38	0	605028352	51	4304
2026-01-21 11:53:56.71	154.90	18.28	-39.7	-41.5	20.8	0.00e+00	0	39	0	611319808	51	4317
2026-01-21 11:53:57.45	154.89	18.37	-39.6	-41.4	20.8	0.00e+00	0	38	0	615514112	51	4289
2026-01-21 11:53:58.73	154.87	18.53	-39.6	-41.5	20.9	0.00e+00	0	38	0	622854144	51	4295
2026-01-21 11:53:59.44	154.86	18.62	-39.6	-41.4	20.9	0.00e+00	0	38	0	627048448	51	4264
2026-01-21 11:54:00.72	154.84	18.78	-39.6	-41.4	20.9	0.00e+00	0	38	0	634388480	51	4260
2026-01-21 11:54:01.45	154.83	18.87	-39.6	-41.4	20.8	0.00e+00	0	38	0	638582784	51	4290
2026-01-21 11:54:02.73	154.81	19.03	-39.6	-41.4	20.9	0.00e+00	0	38	0	645922816	51	4249
2026-01-21 11:54:03.46	154.80	19.12	-39.6	-41.5	20.8	0.00e+00	0	39	0	649068544	51	4292
2026-01-21 11:54:04.74	154.77	19.29	-39.6	-41.4	20.9	0.00e+00	0	38	0	656408576	51	4258
2026-01-21 11:54:05.45	154.76	19.38	-39.6	-41.5	20.8	0.00e+00	0	38	0	660602880	51	4292
2026-01-21 11:54:06.73	154.74	19.54	-39.6	-41.4	20.9	0.00e+00	0	38	0	667942912	51	4256
2026-01-21 11:54:07.44	154.73	19.63	-39.5	-41.4	20.9	0.00e+00	0	38	0	672137216	51	4246
2026-01-21 11:54:08.72	154.71	19.80	-39.5	-41.3	21.0	0.00e+00	0	39	0	679477248	51	4211
2026-01-21 11:54:09.53	154.69	19.91	-39.5	-41.3	20.9	0.00e+00	0	39	0	683671552	51	4236
2026-01-21 11:54:10.67	154.67	20.06	-39.5	-41.3	20.9	0.00e+00	0	38	0	689963008	51	4240
2026-01-21 11:54:11.71	154.65	20.19	-39.4	-41.3	21.0	0.00e+00	0	39	0	696254464	50	4444
2026-01-21 11:54:12.88	154.63	20.35	-39.4	-41.3	21.0	0.00e+00	0	38	0	702545920	50	4442
2026-01-21 11:54:13.76	154.62	20.47	-39.4	-41.2	21.0	0.00e+00	0	38	0	707788800	50	4439
2026-01-21 11:54:15.07	154.59	20.64	-39.3	-41.1	21.1	0.00e+00	0	38	0	715128832	50	4388
2026-01-21 11:54:15.78	154.58	20.74	-39.2	-41.0	21.2	0.00e+00	0	38	0	719323136	50	4308
2026-01-21 11:54:17.06	154.56	20.91	-39.1	-40.9	21.3	0.00e+00	0	39	0	725614592	50	4254
2026-01-21 11:54:17.80	154.54	21.01	-39.1	-40.8	21.3	0.00e+00	0	38	0	729808896	50	4242
2026-01-21 11:54:19.08	154.52	21.19	-39.0	-40.8	21.3	0.00e+00	0	39	0	737148928	50	4225
2026-01-21 11:54:19.79	154.50	21.29	-39.1	-40.8	21.4	0.00e+00	0	38	0	741343232	50	4233
2026-01-21 11:54:21.07	154.48	21.46	-39.0	-40.8	21.4	0.00e+00	0	38	0	748683264	50	4211
2026-01-21 11:54:21.79	154.46	21.56	-39.0	-40.8	21.4	0.00e+00	0	39	0	752877568	50	4229
2026-01-21 11:54:23.06	154.44	21.74	-38.9	-40.7	21.5	0.00e+00	0	38	0	760217600	49	4416
2026-01-21 11:54:23.78	154.42	21.84	-38.9	-40.7	21.5	0.00e+00	0	39	0	764411904	49	4404
2026-01-21 11:54:25.06	154.40	22.03	-39.0	-40.8	21.4	0.00e+00	0	38	0	770703360	49	4462
2026-01-21 11:54:25.78	154.38	22.13	-39.0	-40.8	21.4	0.00e+00	0	38	0	774897664	49	4467
2026-01-21 11:54:27.14	154.35	22.32	-38.9	-40.6	21.5	0.00e+00	0	38	0	783286272	49	4380
2026-01-21 11:54:27.85	154.34	22.43	-38.8	-40.5	21.6	0.00e+00	0	38	0	786432000	49	4326
2026-01-21 11:54:29.13	154.31	22.61	-38.7	-40.5	21.6	0.00e+00	0	38	0	793772032	49	4301
2026-01-21 11:54:29.85	154.30	22.72	-38.7	-40.5	21.6	0.00e+00	0	38	0	797966336	49	4319
2026-01-21 11:54:31.26	154.27	22.92	-38.7	-40.4	21.7	0.00e+00	0	39	0	806354944	49	4277
2026-01-21 11:54:31.97	154.25	23.03	-38.6	-40.4	21.7	0.00e+00	0	39	0	810549248	49	4259
2026-01-21 11:54:33.25	154.22	23.22	-38.6	-40.4	21.8	0.00e+00	0	38	0	816840704	49	4246
2026-01-21 11:54:33.96	154.20	23.32	-38.7	-40.4	21.7	0.00e+00	0	38	0	821035008	49	4286
2026-01-21 11:54:35.25	154.18	23.52	-38.6	-40.4	21.7	0.00e+00	0	38	0	828375040	49	4244
2026-01-21 11:54:35.97	154.16	23.63	-38.5	-40.3	21.8	0.00e+00	0	39	0	832569344	49	4213
2026-01-21 11:54:37.25	154.13	23.82	-38.6	-40.3	21.8	0.00e+00	0	39	0	839909376	49	4239
2026-01-21 11:54:37.96	154.11	23.93	-38.6	-40.3	21.8	0.00e+00	0	39	0	844103680	49	4223
2026-01-21 11:54:39.24	154.08	24.13	-38.6	-40.4	21.7	0.00e+00	0	39	0	851443712	49	4256
2026-01-21 11:54:39.96	154.06	24.24	-38.6	-40.4	21.8	0.00e+00	0	39	0	854589440	49	4261
2026-01-21 11:54:41.24	154.03	24.44	-38.6	-40.4	21.8	0.00e+00	0	39	0	861929472	49	4250
2026-01-21 11:54:41.97	154.02	24.55	-38.6	-40.3	21.8	0.00e+00	0	38	0	866123776	49	4238
2026-01-21 11:54:43.25	153.98	24.75	-38.6	-40.3	21.8	0.00e+00	0	38	0	873463808	49	4233
2026-01-21 11:54:43.96	153.97	24.87	-38.6	-40.3	21.8	0.00e+00	0	39	0	877658112	49	4224
2026-01-21 11:54:45.24	153.93	25.07	-38.5	-40.3	21.9	0.00e+00	0	39	0	884998144	49	4205
2026-01-21 11:54:45.97	153.91	25.19	-38.6	-40.3	21.8	0.00e+00	0	39	0	888143872	49	4227
2026-01-21 11:54:47.25	153.88	25.39	-38.6	-40.3	21.8	0.00e+00	0	38	0	895483904	49	4223
2026-01-21 11:54:48.12	153.86	25.54	-38.6	-40.3	21.8	0.00e+00	0	39	0	900726784	49	4224
2026-01-21 11:54:49.26	153.83	25.72	-38.4	-40.1	22.0	0.00e+00	0	39	0	907018240	48	4380
2026-01-21 11:54:50.11	153.81	25.86	-38.3	-40.0	22.1	0.00e+00	0	39	0	912261120	48	4323
2026-01-21 11:54:51.25	153.77	26.05	-38.2	-40.0	22.1	0.00e+00	0	38	0	918552576	48	4299
2026-01-21 11:54:52.10	153.75	26.19	-38.1	-39.9	22.2	0.00e+00	0	39	0	922746880	48	4256
2026-01-21 11:54:53.24	153.72	26.38	-38.2	-39.9	22.2	0.00e+00	0	38	0	930086912	48	4268
2026-01-21 11:54:54.09	153.69	26.53	-38.2	-40.0	22.1	0.00e+00	0	38	0	934281216	48	4293
2026-01-21 11:54:55.23	153.66	26.72	-38.2	-39.9	22.1	0.00e+00	0	39	0	940572672	48	4279
2026-01-21 11:54:56.08	153.64	26.86	-38.2	-40.0	22.1	0.00e+00	0	38	0	945815552	48	4320
2026-01-21 11:54:57.31	153.60	27.07	-38.4	-40.1	22.0	0.00e+00	0	39	0	952107008	48	4390
2026-01-21 11:54:58.17	153.58	27.22	-38.4	-40.1	21.9	0.00e+00	0	39	0	957349888	48	4389
2026-01-21 11:54:59.30	153.54	27.42	-38.5	-40.3	21.8	0.00e+00	0	38	0	963641344	48	4467
2026-01-21 11:55:00.16	153.52	27.57	-38.5	-40.3	21.8	0.00e+00	0	38	0	968884224	48	4459
2026-01-21 11:55:01.40	153.48	27.79	-38.5	-40.3	21.8	0.00e+00	0	38	0	975175680	48	4479
2026-01-21 11:55:02.26	153.45	27.94	-38.6	-40.4	21.7	0.00e+00	0	38	0	980418560	48	4525
2026-01-21 11:55:03.39	153.42	28.14	-38.6	-40.4	21.8	0.00e+00	0	39	0	986710016	48	4513
2026-01-21 11:55:04.25	153.39	28.30	-38.6	-40.4	21.8	0.00e+00	0	38	0	991952896	48	4518
2026-01-21 11:55:05.39	153.35	28.50	-38.5	-40.3	21.8	0.00e+00	0	38	0	998244352	48	4484
2026-01-21 11:55:06.24	153.32	28.66	-38.5	-40.4	21.8	0.00e+00	0	38	0	1002438656	48	4496
2026-01-21 11:55:07.58	153.28	28.90	-38.5	-40.3	21.9	0.00e+00	0	39	0	1010827264	48	4453
2026-01-21 11:55:08.29	153.26	29.03	-38.5	-40.3	21.9	0.00e+00	0	38	0	1013972992	48	4442
2026-01-21 11:55:09.57	153.21	29.27	-38.1	-39.8	22.2	0.00e+00	0	38	0	1021313024	48	4221
2026-01-21 11:55:10.30	153.19	29.41	-37.8	-39.6	22.1	0.00e+00	0	39	0	1025507328	47	4355
2026-01-21 11:55:11.58	153.14	29.65	-37.9	-39.7	22.0	0.00e+00	0	39	0	1032847360	47	4421
2026-01-21 11:55:12.29	153.12	29.78	-37.9	-39.6	22.1	0.00e+00	0	39	0	1037041664	47	4382
2026-01-21 11:55:13.57	153.07	30.03	-37.8	-39.6	22.1	0.00e+00	0	38	0	1044381696	47	4368
2026-01-21 11:55:14.29	153.05	30.17	-37.8	-39.6	22.1	0.00e+00	0	38	0	1048576000	47	4353
2026-01-21 11:55:15.57	153.00	30.41	-37.8	-39.6	22.1	0.00e+00	0	39	0	1055916032	47	4357
2026-01-21 11:55:16.30	152.97	30.55	-37.9	-39.6	22.1	0.00e+00	0	38	0	1059061760	47	4376
2026-01-21 11:55:17.58	152.92	30.81	-37.8	-39.6	22.1	0.00e+00	0	39	0	1066401792	47	4357
2026-01-21 11:55:18.29	152.90	30.94	-37.9	-39.7	22.0	0.00e+00	0	38	0	1070596096	47	4410
2026-01-21 11:55:19.59	152.85	31.20	-37.8	-39.6	22.1	0.00e+00	0	39	0	1077936128	47	4352
2026-01-21 11:55:20.56	152.81	31.40	-37.8	-39.5	22.1	0.00e+00	0	39	0	1083179008	47	4335
2026-01-21 11:55:21.56	152.77	31.60	-37.9	-39.7	22.0	0.00e+00	0	39	0	1088421888	47	4392
2026-01-21 11:55:22.56	152.73	31.80	-37.8	-39.6	22.0	0.00e+00	0	39	0	1094713344	47	4366
2026-01-21 11:55:23.55	152.69	32.00	-37.8	-39.6	22.0	0.00e+00	0	39	0	1099956224	47	4360
2026-01-21 11:55:24.55	152.65	32.21	-37.9	-39.6	22.0	0.00e+00	0	39	0	1106247680	47	4382
2026-01-21 11:55:25.54	152.61	32.41	-37.8	-39.6	22.0	0.00e+00	0	39	0	1111490560	47	4373
2026-01-21 11:55:26.54	152.56	32.62	-37.8	-39.6	22.1	0.00e+00	0	38	0	1116733440	47	4353
2026-01-21 11:55:27.54	152.52	32.83	-37.8	-39.5	22.1	0.00e+00	0	39	0	1123024896	47	4333
2026-01-21 11:55:28.53	152.48	33.04	-37.6	-39.4	22.3	0.00e+00	0	39	0	1128267776	47	4254
2026-01-21 11:55:29.53	152.43	33.25	-37.7	-39.4	22.2	0.00e+00	0	38	0	1133510656	47	4270
2026-01-21 11:55:30.52	152.39	33.46	-37.8	-39.5	22.2	0.00e+00	0	39	0	1139802112	47	4329
2026-01-21 11:55:31.52	152.34	33.68	-37.7	-39.4	22.2	0.00e+00	0	39	0	1145044992	47	4287
2026-01-21 11:55:32.51	152.30	33.89	-37.7	-39.4	22.2	0.00e+00	0	39	0	1150287872	47	4284
2026-01-21 11:55:33.51	152.25	34.11	-37.5	-39.2	22.4	0.00e+00	0	39	0	1156579328	47	4190
2026-01-21 11:55:34.50	152.20	34.33	-37.5	-39.2	22.5	0.00e+00	0	39	0	1161822208	46	4405
2026-01-21 11:55:35.50	152.16	34.55	-37.3	-39.0	22.7	0.00e+00	0	38	0	1167065088	46	4298
2026-01-21 11:55:36.49	152.11	34.77	-37.2	-38.9	22.7	0.00e+00	0	39	0	1173356544	46	4263
2026-01-21 11:55:37.49	152.06	35.00	-37.1	-38.8	22.8	0.00e+00	0	38	0	1178599424	46	4223
2026-01-21 11:55:38.48	152.01	35.22	-37.2	-38.9	22.8	0.00e+00	0	39	0	1183842304	46	4248
2026-01-21 11:55:39.48	151.96	35.45	-37.1	-38.8	22.8	0.00e+00	0	39	0	1190133760	46	4210
2026-01-21 11:55:40.47	151.91	35.68	-37.2	-38.9	22.7	0.00e+00	0	39	0	1195376640	46	4269
2026-01-21 11:55:41.47	151.85	35.91	-37.3	-39.0	22.7	0.00e+00	0	39	0	1200619520	46	4337
2026-01-21 11:55:42.46	151.80	36.14	-37.4	-39.1	22.6	0.00e+00	0	39	0	1206910976	46	4387
2026-01-21 11:55:43.49	151.75	36.38	-37.6	-39.4	22.4	0.00e+00	0	39	0	1212153856	46	4517
2026-01-21 11:55:44.48	151.69	36.61	-37.7	-39.5	22.3	0.00e+00	0	39	0	1218445312	46	4553
2026-01-21 11:55:45.54	151.63	36.86	-37.8	-39.6	22.2	0.00e+00	0	39	0	1223688192	46	4617
2026-01-21 11:55:46.40	151.58	37.07	-37.9	-39.7	22.1	0.00e+00	0	39	0	1228931072	46	4663
2026-01-21 11:55:47.54	151.52	37.34	-38.0	-39.8	22.0	0.00e+00	0	39	0	1235222528	46	4724
2026-01-21 11:55:48.39	151.47	37.55	-38.0	-39.7	22.0	0.00e+00	0	39	0	1239416832	46	4704
2026-01-21 11:55:49.53	151.40	37.83	-37.9	-39.7	22.1	0.00e+00	0	39	0	1246756864	46	4660
2026-01-21 11:55:50.38	151.35	38.04	-38.0	-39.7	22.0	0.00e+00	0	39	0	1250951168	46	4686
2026-01-21 11:55:51.52	151.28	38.32	-37.9	-39.6	22.1	0.00e+00	0	39	0	1257242624	46	4641
2026-01-21 11:55:52.37	151.23	38.53	-37.7	-39.4	22.2	0.00e+00	0	39	0	1262485504	46	4543
2026-01-21 11:55:53.51	151.16	38.82	-37.8	-39.5	22.2	0.00e+00	0	39	0	1268776960	46	4566
2026-01-21 11:55:54.36	151.10	39.04	-37.8	-39.5	22.1	0.00e+00	0	38	0	1272971264	46	4597
2026-01-21 11:55:55.49	151.03	39.32	-37.8	-39.6	22.1	0.00e+00	0	39	0	1280311296	46	4610
2026-01-21 11:55:56.35	150.97	39.55	-38.1	-39.8	21.9	0.00e+00	0	39	0	1284505600	46	4746
2026-01-21 11:55:57.49	150.89	39.84	-38.2	-40.0	21.8	0.00e+00	0	39	0	1290797056	47	4563
2026-01-21 11:55:58.34	150.83	40.06	-38.4	-40.2	21.6	0.00e+00	0	39	0	1296039936	47	4657
2026-01-21 11:55:59.48	150.75	40.36	-38.4	-40.2	21.6	0.00e+00	0	39	0	1302331392	47	4700
2026-01-21 11:56:00.33	150.69	40.59	-38.4	-40.2	21.6	0.00e+00	0	39	0	1307574272	47	4673
2026-01-21 11:56:01.47	150.61	40.89	-38.4	-40.2	21.7	0.00e+00	0	39	0	1312817152	47	4674
2026-01-21 11:56:02.32	150.55	41.12	-38.2	-39.9	21.9	0.00e+00	0	39	0	1318060032	47	4536
2026-01-21 11:56:03.45	150.47	41.42	-38.1	-39.8	22.0	0.00e+00	0	39	0	1324351488	47	4482
2026-01-21 11:56:04.31	150.40	41.66	-38.3	-40.1	21.8	0.00e+00	0	38	0	1329594368	47	4619
2026-01-21 11:56:05.44	150.31	41.97	-38.4	-40.2	21.7	0.00e+00	0	39	0	1335885824	47	4694
2026-01-21 11:56:06.30	150.25	42.21	-38.4	-40.3	21.7	0.00e+00	0	39	0	1340080128	47	4706
2026-01-21 11:56:07.43	150.15	42.52	-38.2	-40.0	21.9	0.00e+00	0	39	0	1347420160	47	4577
2026-01-21 11:56:08.29	150.08	42.76	-38.0	-39.7	22.1	0.00e+00	0	39	0	1351614464	47	4431
2026-01-21 11:56:09.42	149.99	43.08	-37.7	-39.4	22.4	0.00e+00	0	39	0	1357905920	47	4281
2026-01-21 11:56:10.28	149.92	43.33	-37.7	-39.4	22.4	0.00e+00	0	39	0	1363148800	47	4281
2026-01-21 11:56:11.41	149.82	43.65	-38.0	-39.8	22.1	0.00e+00	0	39	0	1369440256	47	4447
2026-01-21 11:56:12.27	149.75	43.90	-38.2	-39.9	22.0	0.00e+00	0	39	0	1374683136	47	4515
2026-01-21 11:56:13.40	149.64	44.23	-38.2	-39.9	22.0	0.00e+00	0	39	0	1380974592	47	4515
2026-01-21 11:56:14.26	149.57	44.48	-38.1	-39.8	22.0	0.00e+00	0	39	0	1385168896	47	4486
2026-01-21 11:56:15.49	149.45	44.84	-38.0	-39.8	22.1	0.00e+00	0	39	0	1392508928	47	4452
2026-01-21 11:56:16.34	149.37	45.09	-38.2	-39.9	22.0	0.00e+00	0	39	0	1396703232	47	4524
2026-01-21 11:56:17.48	149.26	45.43	-38.2	-40.0	21.9	0.00e+00	0	39	0	1404043264	47	4574
2026-01-21 11:56:18.33	149.18	45.69	-38.2	-40.0	22.0	0.00e+00	0	39	0	1408237568	47	4552
2026-01-21 11:56:19.61	149.05	46.08	-37.9	-39.6	22.2	0.00e+00	0	39	0	1415577600	47	4385
2026-01-21 11:56:20.32	148.98	46.29	-37.7	-39.5	22.4	0.00e+00	0	39	0	1419771904	47	4292
2026-01-21 11:56:21.60	148.84	46.69	-37.7	-39.5	22.4	0.00e+00	0	39	0	1427111936	47	4293
2026-01-21 11:56:22.33	148.76	46.91	-37.8	-39.5	22.3	0.00e+00	0	38	0	1431306240	47	4331
2026-01-21 11:56:23.61	148.62	47.31	-38.0	-39.8	22.1	0.00e+00	0	39	0	1437597696	47	4462
2026-01-21 11:56:24.32	148.55	47.54	-38.2	-40.0	22.0	0.00e+00	0	39	0	1441792000	47	4547
2026-01-21 11:56:25.60	148.40	47.94	-38.0	-39.8	22.1	0.00e+00	0	39	0	1449132032	47	4447
2026-01-21 11:56:26.31	148.32	48.17	-38.0	-39.7	22.2	0.00e+00	0	39	0	1453326336	47	4422
2026-01-21 11:56:27.59	148.17	48.58	-37.9	-39.6	22.3	0.00e+00	0	39	0	1460666368	47	4351
2026-01-21 11:56:28.46	148.06	48.86	-38.0	-39.8	22.2	0.00e+00	0	39	0	1464860672	47	4447
2026-01-21 11:56:29.60	147.92	49.23	-38.3	-40.0	22.0	0.00e+00	0	39	0	1471152128	47	4577
2026-01-21 11:56:30.45	147.81	49.51	-38.4	-40.2	21.8	0.00e+00	0	39	0	1476395008	47	4691
2026-01-21 11:56:31.59	147.66	49.89	-38.5	-40.3	21.8	0.00e+00	0	38	0	1482686464	47	4728
2026-01-21 11:56:32.44	147.55	50.17	-38.6	-40.4	21.7	0.00e+00	0	39	0	1487929344	47	4763
2026-01-21 11:56:33.58	147.40	50.55	-38.6	-40.3	21.8	0.00e+00	0	39	0	1494220800	47	4740
2026-01-21 11:56:34.43	147.28	50.84	-38.6	-40.4	21.7	0.00e+00	0	39	0	1498415104	47	4761
2026-01-21 11:56:35.56	147.12	51.22	-39.0	-40.7	21.8	0.00e+00	0	39	0	1504706560	48	4691
2026-01-21 11:56:36.42	146.99	51.52	-39.4	-41.1	21.4	0.00e+00	0	39	0	1509949440	49	4648
2026-01-21 11:56:37.62	146.82	51.93	-39.7	-41.5	21.1	0.00e+00	0	39	0	1516240896	49	4831
2026-01-21 11:56:38.47	146.69	52.22	-39.5	-41.3	21.2	0.00e+00	0	39	0	1521483776	50	4463
2026-01-21 11:56:39.61	146.51	52.62	-39.4	-41.1	21.4	0.00e+00	0	39	0	1527775232	50	4373
2026-01-21 11:56:40.46	146.37	52.92	-39.2	-41.0	21.5	0.00e+00	0	39	0	1533018112	50	4293
2026-01-21 11:56:41.60	146.19	53.32	-39.3	-41.1	21.4	0.00e+00	0	39	0	1539309568	50	4347
2026-01-21 11:56:42.45	146.05	53.62	-39.5	-41.2	21.3	0.00e+00	0	39	0	1543503872	50	4436
2026-01-21 11:56:43.59	145.85	54.03	-39.5	-41.2	21.3	0.00e+00	0	39	0	1550843904	50	4437
2026-01-21 11:56:44.44	145.70	54.33	-39.3	-41.1	21.4	0.00e+00	0	39	0	1555038208	50	4356
2026-01-21 11:56:45.58	145.49	54.75	-39.3	-41.1	21.4	0.00e+00	0	39	0	1561329664	50	4342
2026-01-21 11:56:46.43	145.34	55.05	-39.4	-41.1	21.3	0.00e+00	0	39	0	1566572544	50	4385
2026-01-21 11:56:47.56	145.12	55.47	-39.2	-40.9	21.5	0.00e+00	0	39	0	1572864000	50	4283
2026-01-21 11:56:48.42	144.95	55.78	-39.0	-40.7	21.7	0.00e+00	0	39	0	1577058304	50	4168
2026-01-21 11:56:49.55	144.73	56.20	-38.7	-40.4	21.9	0.00e+00	0	39	0	1583349760	49	4257
2026-01-21 11:56:50.41	144.55	56.52	-38.7	-40.4	21.9	0.00e+00	0	39	0	1588592640	49	4262
2026-01-21 11:56:51.54	144.31	56.95	-38.5	-40.2	22.1	0.00e+00	0	39	0	1594884096	49	4172
2026-01-21 11:56:52.39	144.13	57.27	-38.3	-40.1	22.2	0.00e+00	0	39	0	1600126976	48	4347
2026-01-21 11:56:53.53	143.87	57.70	-38.5	-40.2	22.1	0.00e+00	0	39	0	1606418432	48	4417
2026-01-21 11:56:54.38	143.67	58.02	-38.8	-40.6	21.8	0.00e+00	0	39	0	1611661312	48	4615
2026-01-21 11:56:55.52	143.40	58.46	-38.8	-40.6	21.8	0.00e+00	0	39	0	1617952768	48	4627
2026-01-21 11:56:56.37	143.20	58.78	-38.3	-40.0	22.3	0.00e+00	0	39	0	1622147072	48	4332
2026-01-21 11:56:57.59	142.89	59.26	-38.0	-39.7	22.5	0.00e+00	0	39	0	1629487104	48	4185
2026-01-21 11:56:58.44	142.67	59.59	-38.3	-40.0	22.3	0.00e+00	0	39	0	1633681408	48	4324
2026-01-21 11:56:59.64	142.35	60.06	-38.6	-40.3	22.0	0.00e+00	0	39	0	1641021440	48	4487
2026-01-21 11:57:00.50	142.11	60.39	-38.3	-40.0	22.2	0.00e+00	0	39	0	1645215744	48	4339
2026-01-21 11:57:01.70	141.77	60.87	-38.2	-40.0	22.3	0.00e+00	0	39	0	1652555776	48	4296
2026-01-21 11:57:02.55	141.52	61.20	-38.2	-39.9	22.4	0.00e+00	0	39	0	1656750080	48	4258
2026-01-21 11:57:03.69	141.17	61.66	-38.1	-39.8	22.5	0.00e+00	0	38	0	1663041536	48	4209
2026-01-21 11:57:04.54	140.90	62.00	-37.8	-39.5	22.5	0.00e+00	0	39	0	1668284416	47	4308
2026-01-21 11:57:05.68	140.53	62.45	-37.5	-39.2	22.7	0.00e+00	0	39	0	1674575872	47	4152
2026-01-21 11:57:06.58	140.23	62.82	-37.6	-39.3	22.6	0.00e+00	0	39	0	1679818752	46	4463
2026-01-21 11:57:07.81	139.80	63.31	-38.1	-39.9	22.1	0.00e+00	0	39	0	1686110208	46	4771
2026-01-21 11:57:08.66	139.50	63.66	-37.8	-39.6	22.3	0.00e+00	0	39	0	1691353088	46	4602
2026-01-21 11:57:09.80	139.07	64.12	-37.5	-39.2	22.6	0.00e+00	0	39	0	1697644544	46	4414
2026-01-21 11:57:10.69	138.73	64.48	-37.9	-39.6	22.2	0.00e+00	0	39	0	1702887424	46	4631
2026-01-21 11:57:12.00	138.20	65.02	-38.4	-40.2	21.7	0.00e+00	0	39	0	1710227456	47	4705
2026-01-21 11:57:12.71	137.90	65.31	-38.2	-39.9	21.9	0.00e+00	0	39	0	1714421760	47	4545
2026-01-21 11:57:13.99	137.34	65.84	-37.2	-38.9	22.8	0.00e+00	0	39	0	1721761792	46	4267
2026-01-21 11:57:14.70	137.02	66.13	-37.2	-38.9	22.9	0.00e+00	0	39	0	1724907520	46	4268
2026-01-21 11:57:16.24	136.30	66.77	-37.2	-38.9	22.9	0.00e+00	0	39	0	1734344704	46	4276
2026-01-21 11:57:16.95	135.95	67.06	-36.8	-38.5	23.1	0.00e+00	0	39	0	1737490432	45	4337
2026-01-21 11:57:18.23	135.30	67.59	-36.8	-38.4	23.1	0.00e+00	0	39	0	1744830464	45	4288
2026-01-21 11:57:18.97	134.90	67.90	-36.8	-38.5	23.1	0.00e+00	0	39	0	1749024768	45	4301
2026-01-21 11:57:20.25	134.19	68.43	-36.9	-38.6	23.0	0.00e+00	0	39	0	1756364800	45	4382
2026-01-21 11:57:20.96	133.78	68.72	-36.9	-38.6	23.0	0.00e+00	0	39	0	1760559104	45	4348
2026-01-21 11:57:22.24	133.00	69.25	-37.0	-38.7	22.9	0.00e+00	0	39	0	1767899136	45	4420
2026-01-21 11:57:22.95	132.56	69.54	-36.8	-38.5	23.1	0.00e+00	0	39	0	1772093440	45	4296
2026-01-21 11:57:24.22	131.72	70.07	-36.8	-38.4	23.1	0.00e+00	0	39	0	1779433472	45	4288
2026-01-21 11:57:25.00	131.18	70.39	-36.7	-38.4	23.2	0.00e+00	0	39	0	1783627776	45	4258
2026-01-21 11:57:26.28	130.26	70.92	-36.8	-38.5	23.1	0.00e+00	0	39	0	1790967808	45	4295
2026-01-21 11:57:26.99	129.72	71.21	-36.7	-38.4	23.2	0.00e+00	0	39	0	1794113536	45	4246
2026-01-21 11:57:28.27	128.71	71.73	-36.8	-38.5	23.1	0.00e+00	0	39	0	1801453568	45	4305
2026-01-21 11:57:29.11	128.01	72.07	-36.8	-38.5	23.1	0.00e+00	0	39	0	1806696448	45	4314
2026-01-21 11:57:30.24	127.03	72.52	-36.7	-38.4	23.1	0.00e+00	0	39	0	1812987904	45	4251
2026-01-21 11:57:31.09	126.25	72.87	-36.9	-38.6	23.0	0.00e+00	0	39	0	1817182208	45	4356
2026-01-21 11:57:32.23	125.15	73.32	-36.9	-38.6	23.0	0.00e+00	0	39	0	1824522240	45	4371
2026-01-21 11:57:33.09	124.29	73.66	-36.8	-38.5	23.1	0.00e+00	0	39	0	1828716544	45	4294
2026-01-21 11:57:34.22	123.09	74.10	-36.9	-38.6	23.0	0.00e+00	0	39	0	1835008000	45	4358
2026-01-21 11:57:35.08	122.13	74.43	-37.0	-38.7	22.9	0.00e+00	0	39	0	1840250880	45	4417
2026-01-21 11:57:36.21	120.80	74.86	-36.7	-38.3	23.2	0.00e+00	0	39	0	1846542336	45	4232
2026-01-21 11:57:37.07	119.73	75.19	-36.2	-37.9	23.5	0.00e+00	0	39	0	1850736640	44	4272
2026-01-21 11:57:38.28	118.15	75.64	-36.2	-37.9	23.5	0.00e+00	0	39	0	1858076672	44	4257
2026-01-21 11:57:39.13	116.97	75.94	-36.1	-37.8	23.5	0.00e+00	0	39	0	1863319552	44	4209
2026-01-21 11:57:40.33	115.22	76.37	-35.3	-36.9	23.9	0.00e+00	0	39	0	1869611008	42	4285
2026-01-21 11:57:41.19	113.90	76.67	-35.3	-37.0	23.9	0.00e+00	0	39	0	1874853888	42	4316
2026-01-21 11:57:42.40	111.93	77.08	-35.4	-37.1	23.8	0.00e+00	0	39	0	1881145344	42	4369
2026-01-21 11:57:43.26	110.45	77.36	-35.5	-37.1	23.8	0.00e+00	0	39	0	1886388224	42	4390
2026-01-21 11:57:44.46	108.27	77.74	-35.5	-37.1	23.9	0.00e+00	0	39	0	1892679680	42	4383
2026-01-21 11:57:45.31	106.65	78.00	-35.7	-37.4	23.8	0.00e+00	0	39	0	1897922560	42	4498
2026-01-21 11:57:46.45	104.35	78.33	-35.2	-36.9	24.1	0.00e+00	0	39	0	1904214016	42	4269
2026-01-21 11:57:47.30	102.56	78.56	-34.9	-36.5	24.3	0.00e+00	0	39	0	1908408320	41	4331
2026-01-21 11:57:48.43	100.05	78.86	-34.5	-36.2	24.5	0.00e+00	0	39	0	1914699776	41	4155
2026-01-21 11:57:49.29	98.05	79.07	-34.6	-36.3	24.4	0.00e+00	0	39	0	1919942656	41	4201
2026-01-21 11:57:50.42	95.31	79.32	-34.7	-36.4	24.3	0.00e+00	0	39	0	1926234112	41	4249
2026-01-21 11:57:51.27	93.16	79.50	-34.5	-36.2	24.5	0.00e+00	0	39	0	1931476992	41	4163
2026-01-21 11:57:52.41	90.17	79.71	-34.8	-36.4	24.3	0.00e+00	0	39	0	1937768448	41	4284
2026-01-21 11:57:53.26	87.86	79.85	-35.1	-36.7	24.2	0.00e+00	0	39	0	1941962752	41	4434
2026-01-21 11:57:54.40	84.67	80.01	-35.0	-36.6	24.2	0.00e+00	0	39	0	1948254208	41	4384
2026-01-21 11:57:55.25	82.23	80.11	-34.9	-36.5	24.3	0.00e+00	0	39	0	1953497088	41	4328
2026-01-21 11:57:56.39	78.88	80.21	-35.1	-36.8	24.1	0.00e+00	0	39	0	1959788544	41	4454
2026-01-21 11:57:57.24	76.34	80.27	-34.9	-36.6	24.2	0.00e+00	0	39	0	1965031424	41	4344
2026-01-21 11:57:58.38	72.90	80.32	-34.8	-36.4	24.2	0.00e+00	0	39	0	1971322880	41	4269
2026-01-21 11:57:59.23	70.32	80.33	-34.7	-36.4	24.3	0.00e+00	0	39	0	1975517184	41	4258
2026-01-21 11:58:00.43	66.67	80.31	-34.8	-36.5	24.1	0.00e+00	0	39	0	1982857216	41	4317
2026-01-21 11:58:01.28	64.11	80.28	-35.0	-36.7	24.1	0.00e+00	0	39	0	1987051520	41	4404
2026-01-21 11:58:02.42	60.71	80.20	-35.0	-36.7	24.1	0.00e+00	0	39	0	1994391552	41	4404
2026-01-21 11:58:03.27	58.21	80.12	-35.3	-36.9	24.0	0.00e+00	0	39	0	1998585856	41	4526
2026-01-21 11:58:04.52	54.62	79.97	-35.0	-36.6	24.2	0.00e+00	0	39	0	2005925888	41	4381
2026-01-21 11:58:05.37	52.25	79.85	-35.0	-36.7	24.2	0.00e+00	0	39	0	2010120192	41	4394
2026-01-21 11:58:06.51	49.17	79.66	-35.1	-36.7	24.1	0.00e+00	0	38	0	2016411648	41	4427
2026-01-21 11:58:07.36	46.95	79.50	-35.1	-36.8	24.1	0.00e+00	0	39	0	2021654528	41	4447
2026-01-21 11:58:08.50	44.08	79.26	-34.8	-36.4	24.2	0.00e+00	0	39	0	2027945984	41	4286
2026-01-21 11:58:09.35	42.03	79.07	-34.9	-36.6	24.2	0.00e+00	0	39	0	2033188864	41	4343
2026-01-21 11:58:10.49	39.40	78.79	-35.0	-36.7	24.1	0.00e+00	0	39	0	2039480320	41	4421
2026-01-21 11:58:11.34	37.53	78.57	-35.0	-36.7	24.2	0.00e+00	0	39	0	2043674624	41	4407
2026-01-21 11:58:12.48	35.14	78.25	-34.8	-36.5	24.3	0.00e+00	0	39	0	2049966080	41	4310
2026-01-21 11:58:13.33	33.44	78.00	-35.2	-36.9	24.1	0.00e+00	0	39	0	2055208960	41	4495
2026-01-21 11:58:14.47	31.27	77.65	-35.1	-36.8	24.1	0.00e+00	0	39	0	2061500416	41	4453
2026-01-21 11:58:15.32	29.74	77.39	-35.3	-36.9	24.0	0.00e+00	0	39	0	2066743296	41	4543
2026-01-21 11:58:16.46	27.79	77.01	-35.6	-37.3	23.7	0.00e+00	0	39	0	2073034752	41	4728
2026-01-21 11:58:17.31	26.41	76.72	-35.9	-37.6	23.5	0.00e+00	0	39	0	2077229056	42	4630
2026-01-21 11:58:18.45	24.65	76.33	-35.9	-37.6	23.6	0.00e+00	0	39	0	2083520512	42	4609
2026-01-21 11:58:19.30	23.41	76.03	-35.9	-37.6	23.6	0.00e+00	0	39	0	2088763392	42	4615
2026-01-21 11:58:20.43	21.84	75.62	-35.8	-37.5	23.7	0.00e+00	0	39	0	2095054848	42	4551
2026-01-21 11:58:21.29	20.71	75.30	-35.7	-37.3	23.8	0.00e+00	0	39	0	2100297728	42	4486
2026-01-21 11:58:22.42	19.30	74.88	-35.8	-37.4	23.7	0.00e+00	0	39	0	2106589184	42	4533
2026-01-21 11:58:23.28	18.28	74.55	-36.2	-37.9	23.4	0.00e+00	0	39	0	2110783488	42	4760
2026-01-21 11:58:24.41	17.01	74.12	-36.2	-37.9	23.4	0.00e+00	0	39	0	2117074944	43	4522
2026-01-21 11:58:25.26	16.10	73.78	-36.3	-38.0	23.3	0.00e+00	0	39	0	2122317824	43	4566
2026-01-21 11:58:26.62	14.73	73.25	-36.3	-38.0	23.3	0.00e+00	0	39	0	2129657856	43	4590
2026-01-21 11:58:27.33	14.04	72.97	-36.3	-38.0	23.3	0.00e+00	0	39	0	2133852160	43	4573
2026-01-21 11:58:28.61	12.87	72.45	-36.6	-38.3	23.0	0.00e+00	0	39	0	2141192192	43	4743
2026-01-21 11:58:29.32	12.25	72.17	-36.6	-38.4	23.0	0.00e+00	0	39	0	2145386496	43	4777
2026-01-21 11:58:30.60	11.19	71.65	-36.5	-38.2	23.1	0.00e+00	0	39	0	2152726528	43	4683
2026-01-21 11:58:31.33	10.61	71.35	-36.6	-38.3	23.1	0.00e+00	0	39	0	2156920832	43	4732
2026-01-21 11:58:32.61	9.64	70.83	-36.9	-38.6	22.9	0.00e+00	0	39	0	2163212288	44	4636
2026-01-21 11:58:33.32	9.13	70.54	-37.2	-38.9	22.7	0.00e+00	0	39	0	2167406592	45	4533
2026-01-21 11:58:34.60	8.24	70.01	-37.2	-38.9	22.7	0.00e+00	0	39	0	2174746624	45	4533
2026-01-21 11:58:35.32	7.77	69.72	-37.2	-38.9	22.7	0.00e+00	0	39	0	2178940928	45	4529
2026-01-21 11:58:36.60	6.96	69.19	-37.3	-39.0	22.7	0.00e+00	0	39	0	2186280960	45	4593
2026-01-21 11:58:37.53	6.40	68.80	-37.1	-38.8	22.9	0.00e+00	0	39	0	2191523840	45	4478
2026-01-21 11:58:38.53	5.82	68.39	-37.0	-38.7	23.0	0.00e+00	0	39	0	2196766720	45	4397
2026-01-21 11:58:39.52	5.27	67.98	-37.1	-38.8	22.9	0.00e+00	0	39	0	2203058176	45	4479
2026-01-21 11:58:40.52	4.73	67.57	-37.2	-38.9	22.9	0.00e+00	0	39	0	2208301056	45	4509
2026-01-21 11:58:41.51	4.23	67.16	-36.9	-38.6	23.0	0.00e+00	0	39	0	2213543936	45	4361
2026-01-21 11:58:42.51	3.73	66.75	-36.9	-38.5	23.2	0.00e+00	0	39	0	2218786816	45	4327
2026-01-21 11:58:43.50	3.27	66.34	-37.0	-38.7	23.0	0.00e+00	0	39	0	2225078272	45	4411
2026-01-21 11:58:44.49	2.81	65.93	-37.1	-38.8	22.9	0.00e+00	0	39	0	2230321152	45	4458
2026-01-21 11:58:45.49	2.37	65.52	-37.0	-38.6	23.0	0.00e+00	0	39	0	2235564032	45	4384
2026-01-21 11:58:46.48	1.96	65.12	-37.1	-38.8	22.9	0.00e+00	0	39	0	2241855488	45	4460
2026-01-21 11:58:47.48	1.55	64.71	-37.3	-39.0	22.7	0.00e+00	0	39	0	2247098368	45	4565
2026-01-21 11:58:48.55	1.13	64.27	-37.2	-38.9	22.8	0.00e+00	0	39	0	2253389824	45	4510
2026-01-21 11:58:49.41	0.80	63.92	-37.3	-39.0	22.7	0.00e+00	0	39	0	2257584128	45	4590
2026-01-21 11:58:50.54	0.39	63.46	-37.3	-39.0	22.7	0.00e+00	0	39	0	2264924160	45	4578
2026-01-21 11:58:51.40	0.08	63.12	-37.3	-39.0	22.8	0.00e+00	0	39	0	2269118464	45	4566
2026-01-21 11:58:52.53	359.70	62.66	-37.4	-39.1	22.8	0.00e+00	0	39	0	2275409920	45	4601
2026-01-21 11:58:53.39	359.41	62.32	-37.4	-39.1	22.7	0.00e+00	0	39	0	2280652800	45	4637
2026-01-21 11:58:54.52	359.05	61.87	-37.4	-39.1	22.8	0.00e+00	0	39	0	2286944256	45	4634
2026-01-21 11:58:55.37	358.79	61.53	-37.4	-39.1	22.8	0.00e+00	0	39	0	2292187136	45	4614
2026-01-21 11:58:56.51	358.45	61.08	-37.2	-38.9	23.0	0.00e+00	0	39	0	2298478592	45	4498
2026-01-21 11:58:57.36	358.20	60.74	-37.3	-38.9	22.9	0.00e+00	0	39	0	2302672896	45	4544
2026-01-21 11:58:58.50	357.88	60.29	-37.4	-39.0	22.8	0.00e+00	0	39	0	2308964352	45	4594
2026-01-21 11:58:59.35	357.65	59.96	-37.7	-39.4	22.6	0.00e+00	0	39	0	2314207232	45	4783
2026-01-21 11:59:00.50	357.34	59.51	-38.1	-39.8	22.2	0.00e+00	0	39	0	2320498688	46	4749
2026-01-21 11:59:01.36	357.12	59.18	-38.1	-39.9	22.0	0.00e+00	0	39	0	2325741568	46	4807
2026-01-21 11:59:02.49	356.84	58.75	-38.4	-40.1	21.9	0.00e+00	0	39	0	2332033024	47	4633
2026-01-21 11:59:03.35	356.63	58.42	-38.6	-40.3	21.7	0.00e+00	0	39	0	2336227328	47	4751
2026-01-21 11:59:04.48	356.36	57.99	-38.9	-40.7	21.7	0.00e+00	0	39	0	2342518784	48	4666
2026-01-21 11:59:05.34	356.17	57.66	-39.0	-40.8	21.6	0.00e+00	0	39	0	2347761664	48	4708
2026-01-21 11:59:06.47	355.92	57.23	-38.9	-40.7	21.7	0.00e+00	0	39	0	2354053120	48	4671
2026-01-21 11:59:07.33	355.73	56.91	-38.9	-40.7	21.7	0.00e+00	0	39	0	2359296000	48	4675
2026-01-21 11:59:08.46	355.49	56.49	-38.8	-40.5	21.9	0.00e+00	0	39	0	2365587456	48	4579
2026-01-21 11:59:09.31	355.32	56.17	-38.8	-40.5	21.9	0.00e+00	0	39	0	2369781760	48	4590
2026-01-21 11:59:10.45	355.09	55.75	-38.8	-40.6	21.8	0.00e+00	0	39	0	2376073216	48	4602
2026-01-21 11:59:11.30	354.93	55.44	-38.9	-40.6	21.8	0.00e+00	0	38	0	2381316096	48	4624
2026-01-21 11:59:12.44	354.71	55.03	-39.0	-40.8	21.7	0.00e+00	0	39	0	2387607552	48	4745
2026-01-21 11:59:13.29	354.56	54.72	-39.2	-41.0	21.4	0.00e+00	0	39	0	2392850432	49	4588
2026-01-21 11:59:14.49	354.34	54.29	-39.2	-41.0	21.5	0.00e+00	0	39	0	2399141888	49	4553
2026-01-21 11:59:15.35	354.19	53.98	-39.1	-40.8	21.6	0.00e+00	0	39	0	2404384768	49	4488
2026-01-21 11:59:16.48	354.00	53.58	-38.9	-40.6	21.8	0.00e+00	0	39	0	2410676224	49	4390
2026-01-21 11:59:17.34	353.86	53.27	-38.7	-40.5	21.9	0.00e+00	0	39	0	2414870528	49	4302
2026-01-21 11:59:18.47	353.67	52.88	-38.8	-40.6	21.9	0.00e+00	0	39	0	2422210560	49	4344
2026-01-21 11:59:19.33	353.54	52.58	-39.0	-40.7	21.7	0.00e+00	0	39	0	2426404864	49	4441
2026-01-21 11:59:20.46	353.36	52.19	-38.8	-40.5	21.9	0.00e+00	0	39	0	2432696320	49	4339
2026-01-21 11:59:21.31	353.23	51.89	-38.7	-40.4	22.3	0.00e+00	0	39	0	2437939200	49	4279
2026-01-21 11:59:22.45	353.07	51.50	-38.7	-40.4	22.4	0.00e+00	0	39	0	2444230656	49	4254
2026-01-21 11:59:23.31	352.94	51.21	-38.5	-40.1	22.5	0.00e+00	0	39	0	2448424960	49	4136
2026-01-21 11:59:24.44	352.78	50.83	-38.2	-39.8	22.8	0.00e+00	0	39	0	2454716416	48	4224
2026-01-21 11:59:25.30	352.67	50.54	-38.1	-39.8	22.9	0.00e+00	0	39	0	2459959296	48	4198
2026-01-21 11:59:26.43	352.51	50.17	-38.2	-39.9	22.8	0.00e+00	0	39	0	2466250752	48	4248
2026-01-21 11:59:27.28	352.40	49.88	-38.1	-39.8	22.8	0.00e+00	0	39	0	2471493632	48	4222
2026-01-21 11:59:28.42	352.26	49.51	-38.1	-39.8	22.8	0.00e+00	0	39	0	2477785088	48	4210
2026-01-21 11:59:29.27	352.15	49.23	-38.2	-39.8	22.8	0.00e+00	0	39	0	2481979392	48	4217
2026-01-21 11:59:30.46	352.00	48.85	-38.2	-39.9	22.8	0.00e+00	0	39	0	2489319424	48	4257
2026-01-21 11:59:31.31	351.90	48.57	-38.3	-40.0	22.7	0.00e+00	0	39	0	2493513728	48	4310
2026-01-21 11:59:32.45	351.77	48.21	-38.2	-39.8	22.8	0.00e+00	0	39	0	2499805184	48	4232
2026-01-21 11:59:33.30	351.67	47.94	-38.1	-39.8	22.9	0.00e+00	0	39	0	2505048064	48	4210
2026-01-21 11:59:34.43	351.54	47.58	-38.0	-39.7	22.9	0.00e+00	0	39	0	2511339520	48	4169
2026-01-21 11:59:35.28	351.45	47.32	-38.0	-39.7	22.9	0.00e+00	0	39	0	2516582400	48	4157
2026-01-21 11:59:36.42	351.32	46.96	-37.8	-39.4	22.8	0.00e+00	0	39	0	2522873856	47	4279
2026-01-21 11:59:37.28	351.23	46.70	-37.8	-39.4	22.8	0.00e+00	0	39	0	2527068160	47	4273
2026-01-21 11:59:38.64	351.09	46.28	-37.8	-39.4	22.8	0.00e+00	0	39	0	2535456768	47	4276
2026-01-21 11:59:39.35	351.02	46.06	-37.8	-39.5	22.8	0.00e+00	0	39	0	2538602496	47	4306
2026-01-21 11:59:40.83	350.87	45.62	-38.0	-39.7	22.6	0.00e+00	0	39	0	2546991104	47	4427
2026-01-21 11:59:41.54	350.80	45.40	-38.1	-39.8	22.5	0.00e+00	0	39	0	2551185408	47	4469
2026-01-21 11:59:42.82	350.68	45.02	-38.3	-40.0	22.4	0.00e+00	0	39	0	2558525440	47	4555
2026-01-21 11:59:43.55	350.61	44.81	-38.2	-39.8	22.5	0.00e+00	0	39	0	2562719744	47	4485
2026-01-21 11:59:44.83	350.49	44.43	-38.2	-39.9	22.5	0.00e+00	0	39	0	2570059776	47	4500
2026-01-21 11:59:45.56	350.43	44.22	-38.1	-39.8	22.5	0.00e+00	0	39	0	2574254080	47	4483
2026-01-21 11:59:46.84	350.31	43.85	-38.0	-39.7	22.6	0.00e+00	0	39	0	2581594112	47	4401
2026-01-21 11:59:47.56	350.25	43.65	-38.1	-39.7	22.6	0.00e+00	0	39	0	2584739840	47	4437
2026-01-21 11:59:48.84	350.14	43.28	-38.0	-39.7	22.6	0.00e+00	0	39	0	2592079872	47	4400
2026-01-21 11:59:49.57	350.08	43.07	-37.9	-39.6	22.7	0.00e+00	0	39	0	2596274176	47	4376
2026-01-21 11:59:50.85	349.98	42.72	-37.9	-39.6	22.7	0.00e+00	0	39	0	2603614208	47	4362
2026-01-21 11:59:51.56	349.92	42.52	-38.0	-39.6	22.7	0.00e+00	0	39	0	2607808512	47	4379
2026-01-21 11:59:52.84	349.82	42.16	-37.8	-39.4	22.8	0.00e+00	0	39	0	2615148544	47	4265
2026-01-21 11:59:53.56	349.76	41.97	-37.8	-39.4	22.9	0.00e+00	0	39	0	2619342848	47	4266
2026-01-21 11:59:54.84	349.67	41.62	-37.8	-39.4	22.8	0.00e+00	0	39	0	2626682880	47	4285
2026-01-21 11:59:55.68	349.60	41.39	-37.8	-39.5	22.8	0.00e+00	0	39	0	2630877184	47	4298
2026-01-21 11:59:57.10	349.50	41.01	-37.7	-39.4	22.9	0.00e+00	0	39	0	2639265792	47	4269
2026-01-21 11:59:57.82	349.45	40.82	-37.7	-39.4	22.9	0.00e+00	0	39	0	2642411520	47	4262
2026-01-21 11:59:59.09	349.36	40.48	-37.7	-39.4	22.9	0.00e+00	0	39	0	2649751552	47	4254
2026-01-21 11:59:59.80	349.31	40.30	-37.7	-39.3	22.9	0.00e+00	0	39	0	2653945856	47	4220
2026-01-21 12:00:01.09	349.22	39.96	-37.5	-39.1	23.0	0.00e+00	0	39	0	2661285888	47	4136
2026-01-21 12:00:01.80	349.17	39.78	-37.5	-39.1	23.1	0.00e+00	0	39	0	2665480192	46	4367
2026-01-21 12:00:03.08	349.09	39.45	-37.3	-39.0	23.2	0.00e+00	0	39	0	2672820224	46	4299
2026-01-21 12:00:03.90	349.03	39.24	-37.4	-39.0	23.2	0.00e+00	0	39	0	2677014528	46	4308
2026-01-21 12:00:05.04	348.96	38.95	-37.3	-39.0	23.2	0.00e+00	0	39	0	2683305984	46	4292
2026-01-21 12:00:05.89	348.91	38.74	-37.3	-38.9	23.2	0.00e+00	0	39	0	2688548864	46	4271
2026-01-21 12:00:07.02	348.83	38.45	-37.2	-38.8	23.3	0.00e+00	0	39	0	2694840320	46	4237
2026-01-21 12:00:07.88	348.78	38.24	-37.2	-38.9	23.3	0.00e+00	0	39	0	2700083200	46	4267
2026-01-21 12:00:09.01	348.71	37.96	-37.1	-38.8	23.3	0.00e+00	0	39	0	2705326080	46	4196
2026-01-21 12:00:09.86	348.66	37.76	-37.1	-38.8	23.3	0.00e+00	0	39	0	2710568960	46	4198
2026-01-21 12:00:11.00	348.60	37.48	-37.0	-38.7	23.4	0.00e+00	0	39	0	2716860416	46	4161
2026-01-21 12:00:11.86	348.55	37.27	-37.1	-38.7	23.4	0.00e+00	0	39	0	2722103296	46	4178
2026-01-21 12:00:13.09	348.48	36.98	-37.1	-38.7	23.4	0.00e+00	0	39	0	2728394752	46	4183
2026-01-21 12:00:13.94	348.43	36.78	-37.1	-38.8	23.3	0.00e+00	0	39	0	2733637632	46	4202
2026-01-21 12:00:15.08	348.37	36.51	-37.3	-39.0	23.2	0.00e+00	0	39	0	2739929088	46	4294
2026-01-21 12:00:15.93	348.32	36.31	-37.5	-39.1	23.0	0.00e+00	0	39	0	2745171968	46	4387
2026-01-21 12:00:17.07	348.26	36.04	-37.7	-39.4	22.8	0.00e+00	0	39	0	2751463424	46	4518
2026-01-21 12:00:17.92	348.22	35.85	-37.8	-39.4	22.8	0.00e+00	0	39	0	2755657728	46	4538
2026-01-21 12:00:19.06	348.16	35.59	-37.9	-39.6	22.7	0.00e+00	0	39	0	2761949184	46	4616
2026-01-21 12:00:19.91	348.12	35.39	-38.0	-39.7	22.6	0.00e+00	0	39	0	2767192064	46	4656
2026-01-21 12:00:21.05	348.06	35.14	-37.9	-39.6	22.7	0.00e+00	0	39	0	2773483520	46	4618
2026-01-21 12:00:21.90	348.02	34.95	-37.9	-39.6	22.6	0.00e+00	0	39	0	2778726400	46	4630
2026-01-21 12:00:23.04	347.96	34.69	-37.8	-39.5	22.7	0.00e+00	0	39	0	2785017856	46	4585
2026-01-21 12:00:23.89	347.92	34.50	-37.8	-39.4	22.8	0.00e+00	0	39	0	2789212160	46	4545
2026-01-21 12:00:25.03	347.87	34.25	-37.7	-39.4	22.8	0.00e+00	0	39	0	2796552192	46	4514
2026-01-21 12:00:25.88	347.83	34.07	-37.8	-39.4	22.8	0.00e+00	0	39	0	2800746496	46	4538
2026-01-21 12:00:27.05	347.78	33.82	-37.8	-39.5	22.7	0.00e+00	0	39	0	2807037952	46	4573
2026-01-21 12:00:27.90	347.74	33.63	-37.8	-39.5	22.8	0.00e+00	0	39	0	2812280832	46	4547
2026-01-21 12:00:29.04	347.69	33.39	-37.8	-39.5	22.8	0.00e+00	0	39	0	2818572288	46	4557
2026-01-21 12:00:29.89	347.65	33.21	-37.9	-39.6	22.7	0.00e+00	0	39	0	2823815168	46	4607
2026-01-21 12:00:31.03	347.60	32.97	-38.0	-39.7	22.6	0.00e+00	0	39	0	2830106624	46	4656
2026-01-21 12:00:31.88	347.56	32.79	-38.1	-39.8	22.6	0.00e+00	0	39	0	2834300928	46	4710
2026-01-21 12:00:33.02	347.52	32.55	-38.0	-39.7	22.6	0.00e+00	0	39	0	2840592384	46	4678
2026-01-21 12:00:33.87	347.48	32.38	-38.1	-39.8	22.5	0.00e+00	0	39	0	2845835264	46	4710
2026-01-21 12:00:35.01	347.43	32.15	-38.1	-39.8	22.5	0.00e+00	0	39	0	2852126720	46	4740
2026-01-21 12:00:35.86	347.40	31.97	-38.1	-39.7	22.5	0.00e+00	0	39	0	2856321024	47	4440
2026-01-21 12:00:37.00	347.36	31.74	-37.9	-39.6	22.6	0.00e+00	0	39	0	2863661056	47	4366
2026-01-21 12:00:37.85	347.32	31.57	-37.9	-39.6	22.6	0.00e+00	0	39	0	2867855360	47	4361
2026-01-21 12:00:38.99	347.28	31.34	-37.9	-39.6	22.6	0.00e+00	0	39	0	2874146816	47	4365
2026-01-21 12:00:39.84	347.25	31.18	-37.9	-39.5	22.7	0.00e+00	0	39	0	2879389696	47	4336
2026-01-21 12:00:41.01	347.20	30.95	-37.9	-39.5	22.7	0.00e+00	0	39	0	2885681152	47	4327
2026-01-21 12:00:41.86	347.17	30.78	-37.9	-39.5	22.7	0.00e+00	0	39	0	2890924032	47	4318
2026-01-21 12:00:43.00	347.13	30.56	-37.9	-39.6	22.7	0.00e+00	0	39	0	2897215488	47	4344
2026-01-21 12:00:43.85	347.10	30.39	-37.8	-39.4	22.8	0.00e+00	0	39	0	2901409792	47	4290
2026-01-21 12:00:44.99	347.06	30.17	-37.9	-39.6	22.7	0.00e+00	0	39	0	2908749824	47	4347
2026-01-21 12:00:45.84	347.03	30.01	-37.9	-39.6	22.7	0.00e+00	0	39	0	2912944128	47	4348
2026-01-21 12:00:46.97	346.99	29.80	-38.0	-39.7	22.6	0.00e+00	0	39	0	2919235584	47	4404
2026-01-21 12:00:47.83	346.96	29.64	-38.1	-39.7	22.5	0.00e+00	0	39	0	2924478464	47	4440
2026-01-21 12:00:48.97	346.92	29.42	-38.1	-39.8	22.5	0.00e+00	0	39	0	2930769920	47	4468
2026-01-21 12:00:49.82	346.89	29.27	-38.1	-39.9	22.4	0.00e+00	0	39	0	2936012800	47	4498
2026-01-21 12:00:50.96	346.85	29.06	-38.3	-40.0	22.3	0.00e+00	0	39	0	2941255680	47	4570
2026-01-21 12:00:51.81	346.82	28.90	-38.3	-40.1	22.3	0.00e+00	0	39	0	2946498560	47	4616
2026-01-21 12:00:52.94	346.79	28.70	-38.2	-39.9	22.4	0.00e+00	0	39	0	2952790016	47	4511
2026-01-21 12:00:53.80	346.76	28.54	-38.2	-39.9	22.4	0.00e+00	0	39	0	2958032896	47	4509
2026-01-21 12:00:54.93	346.72	28.34	-38.1	-39.8	22.5	0.00e+00	0	39	0	2964324352	47	4479
2026-01-21 12:00:55.79	346.70	28.18	-38.0	-39.7	22.6	0.00e+00	0	39	0	2968518656	47	4416
2026-01-21 12:00:56.92	346.66	27.98	-37.9	-39.6	22.6	0.00e+00	0	39	0	2975858688	47	4364
2026-01-21 12:00:57.78	346.64	27.83	-37.9	-39.6	22.6	0.00e+00	0	39	0	2980052992	47	4367
2026-01-21 12:00:58.91	346.60	27.63	-37.9	-39.6	22.7	0.00e+00	0	39	0	2986344448	47	4357
2026-01-21 12:00:59.77	346.58	27.48	-37.8	-39.5	22.7	0.00e+00	0	39	0	2991587328	47	4307
2026-01-21 12:01:00.91	346.54	27.29	-37.7	-39.4	22.8	0.00e+00	0	39	0	2997878784	47	4273
2026-01-21 12:01:01.76	346.52	27.14	-37.8	-39.4	22.7	0.00e+00	0	39	0	3002073088	47	4288
2026-01-21 12:01:03.11	346.48	26.91	-37.8	-39.4	22.8	0.00e+00	0	39	0	3010461696	47	4291
2026-01-21 12:01:03.82	346.46	26.79	-37.8	-39.4	22.8	0.00e+00	0	39	0	3014656000	47	4288
2026-01-21 12:01:05.10	346.43	26.57	-37.9	-39.5	22.7	0.00e+00	0	39	0	3020947456	47	4330
2026-01-21 12:01:05.81	346.41	26.46	-37.9	-39.6	22.7	0.00e+00	0	39	0	3025141760	47	4347
2026-01-21 12:01:07.09	346.37	26.24	-38.0	-39.7	22.6	0.00e+00	0	39	0	3032481792	47	4412
2026-01-21 12:01:07.81	346.35	26.12	-38.0	-39.7	22.5	0.00e+00	0	39	0	3036676096	47	4428
2026-01-21 12:01:09.10	346.32	25.91	-38.1	-39.7	22.5	0.00e+00	0	39	0	3044016128	47	4440
2026-01-21 12:01:09.82	346.30	25.79	-38.1	-39.8	22.5	0.00e+00	0	39	0	3048210432	47	4472
2026-01-21 12:01:11.10	346.27	25.59	-38.2	-39.9	22.4	0.00e+00	0	39	0	3055550464	47	4502
2026-01-21 12:01:11.99	346.24	25.44	-38.2	-40.0	22.3	0.00e+00	0	39	0	3059744768	47	4546
2026-01-21 12:01:13.13	346.21	25.26	-38.2	-40.0	22.3	0.00e+00	0	39	0	3067084800	47	4562
2026-01-21 12:01:13.98	346.19	25.12	-38.3	-40.0	22.3	0.00e+00	0	39	0	3071279104	47	4579
2026-01-21 12:01:15.12	346.17	24.94	-38.3	-40.0	22.2	0.00e+00	0	39	0	3077570560	47	4590
2026-01-21 12:01:16.22	346.14	24.77	-38.3	-40.0	22.3	0.00e+00	0	39	0	3083862016	47	4583
2026-01-21 12:01:17.08	346.12	24.64	-38.3	-40.0	22.3	0.00e+00	0	39	0	3089104896	47	4584
2026-01-21 12:01:18.21	346.09	24.46	-38.3	-40.0	22.3	0.00e+00	0	39	0	3095396352	47	4582
2026-01-21 12:01:19.07	346.07	24.33	-38.3	-40.0	22.2	0.00e+00	0	39	0	3099590656	47	4590
2026-01-21 12:01:20.20	346.04	24.15	-38.3	-40.0	22.2	0.00e+00	0	39	0	3105882112	47	4587
2026-01-21 12:01:21.06	346.02	24.02	-38.3	-40.0	22.2	0.00e+00	0	39	0	3111124992	47	4569
2026-01-21 12:01:22.19	346.00	23.85	-38.4	-40.1	22.2	0.00e+00	0	39	0	3117416448	47	4610
2026-01-21 12:01:23.04	345.98	23.72	-38.4	-40.0	22.2	0.00e+00	0	39	0	3122659328	47	4583
2026-01-21 12:01:24.18	345.95	23.55	-38.4	-40.1	22.1	0.00e+00	0	39	0	3128950784	47	4627
2026-01-21 12:01:25.03	345.94	23.42	-38.4	-40.2	22.1	0.00e+00	0	39	0	3133145088	47	4658
2026-01-21 12:01:26.17	345.91	23.25	-38.4	-40.1	22.2	0.00e+00	0	39	0	3140485120	47	4641
2026-01-21 12:01:27.06	345.89	23.12	-38.5	-40.2	22.1	0.00e+00	0	39	0	3144679424	47	4667
2026-01-21 12:01:28.19	345.87	22.96	-38.5	-40.3	22.0	0.00e+00	0	39	0	3150970880	47	4710
2026-01-21 12:01:29.11	345.85	22.82	-38.6	-40.4	21.9	0.00e+00	0	39	0	3156213760	47	4775
2026-01-21 12:01:30.27	345.82	22.65	-38.6	-40.4	21.9	0.00e+00	0	39	0	3163553792	47	4779
2026-01-21 12:01:31.16	345.81	22.53	-38.6	-40.4	21.9	0.00e+00	0	39	0	3167748096	47	4765
2026-01-21 12:01:32.30	345.78	22.36	-38.8	-40.5	22.1	0.00e+00	0	39	0	3174039552	48	4592
2026-01-21 12:01:33.21	345.76	22.23	-38.8	-40.6	22.0	0.00e+00	0	39	0	3179282432	48	4608
2026-01-21 12:01:34.38	345.74	22.07	-39.0	-40.7	21.9	0.00e+00	0	39	0	3186622464	48	4691
2026-01-21 12:01:35.23	345.72	21.95	-39.0	-40.7	21.9	0.00e+00	0	39	0	3190816768	48	4697
2026-01-21 12:01:36.37	345.70	21.79	-39.0	-40.7	21.9	0.00e+00	0	39	0	3197108224	48	4702
2026-01-21 12:01:37.32	345.68	21.65	-39.1	-40.8	21.9	0.00e+00	0	39	0	3202351104	48	4724
2026-01-21 12:01:38.49	345.66	21.49	-39.2	-40.9	21.8	0.00e+00	0	39	0	3209691136	48	4770
2026-01-21 12:01:39.34	345.65	21.37	-39.2	-41.0	21.7	0.00e+00	0	39	0	3213885440	49	4553
2026-01-21 12:01:40.70	345.62	21.19	-39.2	-40.9	21.7	0.00e+00	0	39	0	3221225472	49	4534
2026-01-21 12:01:41.41	345.61	21.09	-39.3	-41.0	21.7	0.00e+00	0	39	0	3225419776	49	4572
2026-01-21 12:01:42.69	345.58	20.92	-39.3	-41.1	21.7	0.00e+00	0	39	0	3232759808	49	4599
2026-01-21 12:01:43.42	345.57	20.82	-39.4	-41.1	21.6	0.00e+00	0	39	0	3236954112	49	4639
2026-01-21 12:01:44.70	345.55	20.65	-39.4	-41.1	21.6	0.00e+00	0	39	0	3244294144	49	4620
2026-01-21 12:01:45.41	345.54	20.55	-39.4	-41.1	21.5	0.00e+00	0	39	0	3248488448	49	4647
2026-01-21 12:01:46.69	345.51	20.38	-39.4	-41.1	21.5	0.00e+00	0	39	0	3255828480	49	4644
2026-01-21 12:01:47.40	345.50	20.29	-39.4	-41.1	21.6	0.00e+00	0	39	0	3258974208	49	4641
2026-01-21 12:01:48.68	345.48	20.12	-39.5	-41.3	21.4	0.00e+00	0	39	0	3266314240	49	4713
2026-01-21 12:01:49.39	345.47	20.03	-39.5	-41.3	21.5	0.00e+00	0	39	0	3270508544	49	4712
2026-01-21 12:01:50.67	345.45	19.86	-39.5	-41.3	21.5	0.00e+00	0	39	0	3277848576	49	4707
2026-01-21 12:01:51.38	345.43	19.77	-39.6	-41.3	21.4	0.00e+00	0	39	0	3282042880	49	4721
2026-01-21 12:01:52.69	345.41	19.60	-39.7	-41.4	21.3	0.00e+00	0	39	0	3289382912	50	4515
2026-01-21 12:01:53.40	345.40	19.51	-39.7	-41.4	21.3	0.00e+00	0	39	0	3292528640	50	4520
2026-01-21 12:01:54.74	345.38	19.34	-39.7	-41.4	21.3	0.00e+00	0	39	0	3300917248	50	4537
2026-01-21 12:01:55.45	345.37	19.25	-39.7	-41.4	21.3	0.00e+00	0	39	0	3304062976	50	4537
2026-01-21 12:01:56.78	345.35	19.08	-39.8	-41.6	21.2	0.00e+00	0	39	0	3312451584	50	4601
2026-01-21 12:01:57.49	345.34	18.99	-39.8	-41.5	21.2	0.00e+00	0	39	0	3315597312	50	4585
2026-01-21 12:01:58.83	345.32	18.83	-39.9	-41.7	21.1	0.00e+00	0	39	0	3323985920	50	4660
2026-01-21 12:01:59.54	345.31	18.74	-39.8	-41.6	21.2	0.00e+00	0	39	0	3327131648	50	4620
2026-01-21 12:02:00.83	345.29	18.58	-39.9	-41.7	21.1	0.00e+00	0	39	0	3334471680	50	4673
2026-01-21 12:02:01.54	345.28	18.49	-40.0	-41.8	21.0	0.00e+00	0	39	0	3338665984	50	4725
2026-01-21 12:02:02.82	345.26	18.34	-40.0	-41.8	21.0	0.00e+00	0	39	0	3346006016	50	4711
2026-01-21 12:02:03.54	345.25	18.25	-40.0	-41.7	21.0	0.00e+00	0	39	0	3350200320	50	4705
2026-01-21 12:02:04.82	345.23	18.09	-40.0	-41.8	21.0	0.00e+00	0	39	0	3357540352	50	4742
2026-01-21 12:02:05.54	345.22	18.01	-40.1	-41.8	20.9	0.00e+00	0	39	0	3361734656	50	4749
2026-01-21 12:02:06.82	345.20	17.85	-40.1	-41.9	20.9	0.00e+00	0	39	0	3369074688	50	4763
2026-01-21 12:02:07.61	345.19	17.76	-40.1	-41.9	20.9	0.00e+00	0	39	0	3373268992	50	4774
2026-01-21 12:02:08.80	345.17	17.62	-40.3	-42.0	20.7	0.00e+00	0	39	0	3379560448	51	4594
2026-01-21 12:02:09.65	345.16	17.52	-40.2	-42.0	20.8	0.00e+00	0	39	0	3384803328	51	4569
2026-01-21 12:02:11.11	345.14	17.35	-40.2	-42.0	20.7	0.00e+00	0	39	0	3392143360	51	4598
2026-01-21 12:02:11.82	345.13	17.26	-40.2	-42.0	20.8	0.00e+00	0	39	0	3396337664	51	4571
2026-01-21 12:02:13.10	345.11	17.12	-40.2	-42.1	20.7	0.00e+00	0	39	0	3403677696	51	4608
2026-01-21 12:02:13.82	345.10	17.03	-40.3	-42.2	20.6	0.00e+00	0	39	0	3407872000	51	4657
2026-01-21 12:02:15.10	345.09	16.88	-40.2	-42.1	20.7	0.00e+00	0	39	0	3415212032	51	4604
2026-01-21 12:02:15.82	345.08	16.80	-40.2	-42.1	20.6	0.00e+00	0	39	0	3419406336	51	4643
2026-01-21 12:02:17.09	345.06	16.66	-40.3	-42.3	20.5	0.00e+00	0	39	0	3426746368	51	4713
2026-01-21 12:02:17.95	345.05	16.56	-40.3	-42.2	20.5	0.00e+00	0	39	0	3430940672	51	4704
2026-01-21 12:02:19.08	345.04	16.43	-40.3	-42.2	20.6	0.00e+00	0	39	0	3437232128	51	4662
2026-01-21 12:02:19.94	345.03	16.34	-40.3	-42.2	20.6	0.00e+00	0	39	0	3442475008	51	4664
2026-01-21 12:02:21.07	345.01	16.21	-40.3	-42.2	20.5	0.00e+00	0	39	0	3448766464	51	4686
2026-01-21 12:02:22.20	345.00	16.08	-40.4	-42.3	20.5	0.00e+00	0	39	0	3455057920	51	4714
2026-01-21 12:02:23.24	344.99	15.97	-40.4	-42.2	20.5	0.00e+00	0	39	0	3461349376	51	4698
2026-01-21 12:02:24.17	344.97	15.87	-40.4	-42.2	20.5	0.00e+00	0	39	0	3466592256	51	4691
2026-01-21 12:02:25.17	344.96	15.76	-40.4	-42.2	20.5	0.00e+00	0	39	0	3471835136	51	4699
2026-01-21 12:02:26.16	344.95	15.65	-40.4	-42.2	20.5	0.00e+00	0	39	0	3477078016	51	4694
2026-01-21 12:02:27.16	344.94	15.54	-40.4	-42.2	20.5	0.00e+00	0	39	0	3482320896	51	4703
2026-01-21 12:02:28.16	344.93	15.43	-40.4	-42.2	20.5	0.00e+00	0	39	0	3488612352	51	4686
2026-01-21 12:02:29.15	344.92	15.32	-40.4	-42.3	20.5	0.00e+00	0	39	0	3493855232	51	4708
2026-01-21 12:02:30.14	344.91	15.22	-40.4	-42.3	20.5	0.00e+00	0	39	0	3500146688	51	4716
2026-01-21 12:02:31.14	344.89	15.11	-40.5	-42.4	20.3	0.00e+00	0	39	0	3505389568	51	4790
2026-01-21 12:02:32.13	344.88	15.00	-40.5	-42.4	20.3	0.00e+00	0	39	0	3510632448	51	4792
2026-01-21 12:02:33.13	344.87	14.90	-40.5	-42.4	20.4	0.00e+00	0	39	0	3516923904	51	4764
2026-01-21 12:02:34.17	344.86	14.79	-40.4	-42.3	20.4	0.00e+00	0	39	0	3522166784	51	4753
2026-01-21 12:02:35.18	344.85	14.68	-40.4	-42.4	20.4	0.00e+00	0	39	0	3528458240	51	4761
2026-01-21 12:02:36.17	344.84	14.58	-40.5	-42.4	20.3	0.00e+00	0	39	0	3533701120	51	4795
2026-01-21 12:02:37.17	344.83	14.47	-40.5	-42.4	20.3	0.00e+00	0	39	0	3538944000	51	4797
2026-01-21 12:02:38.17	344.82	14.37	-40.5	-42.4	20.3	0.00e+00	0	39	0	3545235456	51	4778
2026-01-21 12:02:39.16	344.81	14.27	-40.6	-42.5	20.2	0.00e+00	0	39	0	3550478336	51	4824
2026-01-21 12:02:40.16	344.80	14.17	-40.5	-42.4	20.3	0.00e+00	0	39	0	3555721216	51	4778
2026-01-21 12:02:41.36	344.79	14.04	-40.6	-42.5	20.2	0.00e+00	0	39	0	3563061248	51	4839
2026-01-21 12:02:42.24	344.78	13.95	-40.5	-42.4	20.2	0.00e+00	0	39	0	3567255552	52	4534
2026-01-21 12:02:43.38	344.77	13.84	-40.6	-42.4	20.2	0.00e+00	0	39	0	3574595584	52	4541
2026-01-21 12:02:44.23	344.76	13.75	-40.5	-42.4	20.2	0.00e+00	0	39	0	3578789888	52	4519
2026-01-21 12:02:45.37	344.75	13.64	-40.6	-42.5	20.2	0.00e+00	0	39	0	3585081344	52	4550
2026-01-21 12:02:46.22	344.74	13.55	-40.6	-42.4	20.2	0.00e+00	0	39	0	3590324224	52	4539
2026-01-21 12:02:47.36	344.73	13.44	-40.6	-42.5	20.2	0.00e+00	0	39	0	3596615680	52	4554
2026-01-21 12:02:48.21	344.72	13.35	-40.7	-42.6	20.1	0.00e+00	0	39	0	3600809984	52	4611
2026-01-21 12:02:49.36	344.71	13.24	-40.7	-42.5	20.1	0.00e+00	0	39	0	3608150016	52	4598
2026-01-21 12:02:50.21	344.70	13.16	-40.7	-42.6	20.1	0.00e+00	0	39	0	3612344320	52	4607
2026-01-21 12:02:51.35	344.69	13.04	-40.7	-42.6	20.0	0.00e+00	0	39	0	3618635776	52	4633
2026-01-21 12:02:52.20	344.68	12.96	-40.7	-42.7	20.0	0.00e+00	0	39	0	3623878656	52	4652
2026-01-21 12:02:53.34	344.67	12.85	-40.9	-42.8	19.8	0.00e+00	0	39	0	3630170112	52	4759
2026-01-21 12:02:54.19	344.67	12.77	-40.9	-42.8	19.8	0.00e+00	0	39	0	3635412992	52	4743
2026-01-21 12:02:55.33	344.66	12.66	-40.8	-42.8	19.9	0.00e+00	0	39	0	3641704448	52	4713
2026-01-21 12:02:56.18	344.65	12.57	-40.8	-42.8	19.9	0.00e+00	0	39	0	3645898752	52	4722
2026-01-21 12:02:57.32	344.64	12.46	-40.9	-42.9	19.8	0.00e+00	0	39	0	3652190208	52	4775
2026-01-21 12:02:58.17	344.63	12.38	-40.9	-42.9	19.7	0.00e+00	0	39	0	3657433088	52	4799
2026-01-21 12:02:59.31	344.62	12.28	-41.1	-43.1	19.6	0.00e+00	0	39	0	3663724544	52	4888
