passes_logs/2026/01/21/T1/T1__20260121_025749_AQUA_rec.log

#Pass ID: 20260121_025749_AQUA
#Satellite: AQUA
#Configuration: AQUA
#almurnet v.1.7.20251203
#Start time: 2026-01-21 02:57:48

#Version: 2.0.20230620
#Station: T1
#Location: 37.570604 lon 55.790049 lat
#TLE: 1 27424U 02022A   26020.30984080  .00001497  00000+0  30942-3 0  9998
#TLE: 2 27424  98.4092 346.8266 0001984  71.7888  69.0903 14.61835321261661

#Time	Az	El	Level	Level2	SNR	BER	BlckErr	Temp	State	Recorded	gain1	gain2
2026-01-21 02:57:48.75	2.60	5.00	-53.0	-74.2	3.8	7.46e-01	0	40	0	0	76	43924
2026-01-21 02:57:49.74	2.51	5.06	-50.0	-73.7	3.8	7.46e-01	0	40	104	0	72	52698
2026-01-21 02:57:50.74	2.41	5.13	-45.4	-70.6	3.3	7.76e-01	0	41	104	0	62	65535
2026-01-21 02:57:51.74	2.31	5.19	-45.4	-70.6	3.2	7.73e-01	0	41	104	0	62	65535
2026-01-21 02:57:52.74	2.22	5.25	-45.4	-70.6	3.2	7.75e-01	0	41	104	0	62	65535
2026-01-21 02:57:53.74	2.12	5.31	-45.4	-70.6	3.2	7.77e-01	0	41	104	0	62	65535
2026-01-21 02:57:54.74	2.02	5.38	-45.4	-70.6	3.2	7.75e-01	0	40	104	0	62	65535
2026-01-21 02:57:55.74	1.92	5.44	-45.4	-70.6	3.2	7.72e-01	0	41	104	0	62	65535
2026-01-21 02:57:56.73	1.83	5.50	-45.4	-70.6	3.2	7.74e-01	0	41	104	0	62	65535
2026-01-21 02:57:57.73	1.73	5.56	-45.4	-70.6	3.2	7.74e-01	0	41	104	0	62	65535
2026-01-21 02:57:58.72	1.63	5.62	-45.4	-70.6	3.3	7.76e-01	0	41	104	0	62	65535
2026-01-21 02:57:59.72	1.53	5.69	-45.4	-70.6	3.2	7.73e-01	0	41	104	0	62	65535
2026-01-21 02:58:00.72	1.43	5.75	-45.4	-70.6	3.2	7.75e-01	0	41	104	0	62	65535
2026-01-21 02:58:01.72	1.33	5.81	-45.4	-70.6	3.3	7.74e-01	0	41	104	0	62	65535
2026-01-21 02:58:02.72	1.22	5.88	-45.4	-70.6	3.2	7.78e-01	0	41	104	0	62	65535
2026-01-21 02:58:03.71	1.12	5.94	-45.4	-70.6	3.2	7.72e-01	0	41	104	0	62	65535
2026-01-21 02:58:04.71	1.02	6.00	-45.4	-70.6	3.3	7.75e-01	0	41	104	0	62	65535
2026-01-21 02:58:05.71	0.92	6.07	-45.4	-70.6	3.2	7.74e-01	0	41	104	0	62	65535
2026-01-21 02:58:06.70	0.81	6.13	-45.4	-70.6	3.3	7.73e-01	0	41	104	0	62	65535
2026-01-21 02:58:07.70	0.71	6.19	-45.4	-70.6	3.2	7.75e-01	0	41	104	0	62	65535
2026-01-21 02:58:08.70	0.61	6.26	-45.4	-70.6	3.2	7.76e-01	0	41	104	0	62	65535
2026-01-21 02:58:09.70	0.50	6.32	-45.4	-70.6	3.2	7.75e-01	0	41	104	0	62	65535
2026-01-21 02:58:10.69	0.40	6.38	-45.4	-70.6	3.2	7.71e-01	0	41	104	0	62	65535
2026-01-21 02:58:11.69	0.29	6.45	-45.4	-70.6	3.3	7.72e-01	0	41	104	0	62	65535
2026-01-21 02:58:12.69	0.18	6.51	-45.4	-70.6	3.2	7.73e-01	0	41	104	0	62	65535
2026-01-21 02:58:13.69	0.08	6.57	-45.4	-70.6	3.2	7.71e-01	0	42	104	0	62	65535
2026-01-21 02:58:14.69	359.97	6.64	-45.4	-70.6	3.2	7.76e-01	0	41	104	0	62	65535
2026-01-21 02:58:15.69	359.86	6.70	-45.4	-70.6	3.2	7.74e-01	0	42	104	0	62	65535
2026-01-21 02:58:16.69	359.75	6.77	-45.4	-70.6	3.3	7.75e-01	0	42	104	0	62	65535
2026-01-21 02:58:17.68	359.64	6.83	-45.4	-70.6	3.2	7.72e-01	0	42	104	0	62	65535
2026-01-21 02:58:18.68	359.53	6.89	-45.4	-70.6	3.3	7.72e-01	0	42	104	0	62	65535
2026-01-21 02:58:19.68	359.42	6.96	-45.4	-70.6	3.2	7.72e-01	0	42	104	0	62	65535
2026-01-21 02:58:20.68	359.31	7.02	-45.4	-70.6	3.2	7.75e-01	0	42	104	0	62	65535
2026-01-21 02:58:21.68	359.20	7.09	-45.4	-70.6	3.2	7.72e-01	0	42	104	0	62	65535
2026-01-21 02:58:22.68	359.09	7.15	-45.4	-70.6	3.2	7.75e-01	0	42	104	0	62	65535
2026-01-21 02:58:23.67	358.97	7.22	-45.4	-70.6	3.2	7.75e-01	0	42	104	0	62	65535
2026-01-21 02:58:24.67	358.86	7.28	-45.4	-70.6	3.2	7.74e-01	0	42	104	0	62	65535
2026-01-21 02:58:25.67	358.75	7.35	-45.4	-70.6	3.2	7.71e-01	0	42	104	0	62	65535
2026-01-21 02:58:26.67	358.63	7.41	-45.4	-70.6	3.2	7.76e-01	0	42	104	0	62	65535
2026-01-21 02:58:27.67	358.52	7.48	-45.4	-70.6	3.2	7.75e-01	0	42	104	0	62	65535
2026-01-21 02:58:28.67	358.40	7.54	-45.4	-70.6	3.2	7.76e-01	0	42	104	0	62	65535
2026-01-21 02:58:29.67	358.29	7.61	-45.4	-70.6	3.2	7.75e-01	0	42	104	0	62	65535
2026-01-21 02:58:30.66	358.17	7.67	-45.4	-70.6	3.2	7.74e-01	0	42	104	0	62	65535
2026-01-21 02:58:31.66	358.05	7.74	-45.5	-70.6	3.2	7.74e-01	0	42	104	0	62	65535
2026-01-21 02:58:32.66	357.93	7.80	-45.4	-70.6	3.2	7.72e-01	0	42	104	0	62	65535
2026-01-21 02:58:33.65	357.82	7.87	-45.4	-70.6	3.2	7.75e-01	0	42	104	0	62	65535
2026-01-21 02:58:34.65	357.70	7.94	-45.4	-70.6	3.2	7.77e-01	0	42	104	0	62	65535
2026-01-21 02:58:35.65	357.58	8.00	-45.4	-70.6	3.2	7.71e-01	0	42	104	0	62	65535
2026-01-21 02:58:36.65	357.46	8.07	-45.4	-70.6	3.3	7.70e-01	0	42	104	0	62	65535
2026-01-21 02:58:37.64	357.34	8.13	-45.4	-70.6	3.3	7.68e-01	0	42	104	0	62	65535
2026-01-21 02:58:38.64	357.22	8.20	-45.5	-70.6	3.3	7.68e-01	0	42	104	0	62	65535
2026-01-21 02:58:39.64	357.09	8.26	-45.5	-70.6	3.3	7.67e-01	0	42	104	0	62	65535
2026-01-21 02:58:40.63	356.97	8.33	-45.5	-70.6	3.3	7.67e-01	0	42	104	0	62	65535
2026-01-21 02:58:41.63	356.85	8.40	-45.5	-70.6	3.4	7.67e-01	0	42	104	0	62	65535
2026-01-21 02:58:42.63	356.72	8.46	-45.5	-70.6	3.4	7.62e-01	0	42	104	0	62	65535
2026-01-21 02:58:43.63	356.60	8.53	-45.4	-70.6	3.5	7.58e-01	0	42	104	0	62	65534
2026-01-21 02:58:44.63	356.47	8.60	-45.4	-70.6	3.7	7.51e-01	0	42	104	0	62	65534
2026-01-21 02:58:45.62	356.35	8.66	-45.3	-70.0	3.8	7.45e-01	0	42	104	0	62	60720
2026-01-21 02:58:46.62	356.22	8.73	-45.2	-68.5	3.8	7.45e-01	0	42	104	0	62	51228
2026-01-21 02:58:47.62	356.10	8.79	-45.1	-67.0	3.9	7.47e-01	0	42	104	0	62	42936
2026-01-21 02:58:48.62	355.97	8.86	-44.9	-65.2	3.9	7.47e-01	0	42	104	0	61	37057
2026-01-21 02:58:49.62	355.84	8.93	-44.8	-63.8	3.8	7.45e-01	0	42	104	0	61	31765
2026-01-21 02:58:50.61	355.71	8.99	-44.6	-62.6	3.8	7.44e-01	0	42	104	0	61	27681
2026-01-21 02:58:51.61	355.58	9.06	-44.6	-62.4	3.8	7.46e-01	0	42	104	0	61	26961
2026-01-21 02:58:52.61	355.45	9.13	-45.1	-63.8	3.8	7.45e-01	0	42	104	0	61	31474
2026-01-21 02:58:53.61	355.32	9.20	-44.6	-61.9	3.8	7.43e-01	0	42	104	0	61	25489
2026-01-21 02:58:54.61	355.19	9.26	-47.1	-65.9	3.8	7.53e-01	0	43	104	0	64	34068
2026-01-21 02:58:55.61	355.05	9.33	-44.1	-60.4	3.9	7.46e-01	0	42	104	0	59	24003
2026-01-21 02:58:56.61	354.92	9.40	-43.8	-59.7	3.8	7.45e-01	0	42	104	0	59	22104
2026-01-21 02:58:57.61	354.79	9.47	-43.9	-59.7	3.8	7.45e-01	0	42	104	0	59	22130
2026-01-21 02:58:58.60	354.65	9.53	-43.9	-59.7	3.8	7.49e-01	0	43	104	0	59	22186
2026-01-21 02:58:59.61	354.52	9.60	-44.0	-59.4	3.8	7.43e-01	0	42	104	0	59	21439
2026-01-21 02:59:00.60	354.38	9.67	-44.2	-59.4	3.8	7.43e-01	0	42	104	0	59	21408
2026-01-21 02:59:01.60	354.25	9.73	-44.4	-59.8	3.8	7.46e-01	0	42	104	0	59	22517
2026-01-21 02:59:02.60	354.11	9.80	-46.1	-63.8	3.7	7.51e-01	0	43	104	0	62	29868
2026-01-21 02:59:03.60	353.97	9.87	-46.2	-63.7	3.9	7.41e-01	0	42	104	0	63	27935
2026-01-21 02:59:04.59	353.83	9.94	-45.2	-59.5	3.8	7.43e-01	0	43	104	0	62	18188
2026-01-21 02:59:05.60	353.69	10.01	-44.8	-59.2	3.8	7.47e-01	0	43	104	0	61	18525
2026-01-21 02:59:06.59	353.55	10.07	-45.0	-59.0	3.8	7.46e-01	0	43	104	0	61	18277
2026-01-21 02:59:07.59	353.41	10.14	-44.9	-58.8	3.8	7.45e-01	0	43	104	0	61	17847
2026-01-21 02:59:08.59	353.27	10.21	-44.9	-59.0	3.8	7.44e-01	0	43	104	0	61	18102
2026-01-21 02:59:09.59	353.13	10.28	-44.8	-59.0	3.8	7.46e-01	0	43	104	0	61	18212
2026-01-21 02:59:10.59	352.98	10.34	-44.4	-59.2	3.8	7.44e-01	0	43	104	0	60	19756
2026-01-21 02:59:11.59	352.84	10.41	-45.2	-62.5	3.8	7.48e-01	0	43	104	0	60	28787
2026-01-21 02:59:12.59	352.70	10.48	-46.7	-66.5	3.7	7.47e-01	0	43	104	0	64	36408
2026-01-21 02:59:13.59	352.55	10.55	-44.3	-60.1	3.8	7.43e-01	0	43	104	0	60	21797
2026-01-21 02:59:14.59	352.40	10.62	-44.1	-59.1	3.8	7.44e-01	0	43	104	0	60	19475
2026-01-21 02:59:15.58	352.26	10.69	-44.4	-59.3	3.8	7.45e-01	0	43	104	0	59	21104
2026-01-21 02:59:16.57	352.11	10.75	-44.4	-59.3	3.8	7.42e-01	0	42	104	0	59	21029
2026-01-21 02:59:17.57	351.96	10.82	-44.4	-59.1	3.8	7.47e-01	0	43	104	0	59	20681
2026-01-21 02:59:18.57	351.81	10.89	-44.4	-59.1	3.9	7.44e-01	0	43	104	0	60	19585
2026-01-21 02:59:19.57	351.66	10.96	-45.1	-59.5	3.8	7.46e-01	0	43	104	0	60	20431
2026-01-21 02:59:20.57	351.51	11.03	-47.3	-62.4	3.8	7.46e-01	0	43	104	0	65	21430
2026-01-21 02:59:21.57	351.36	11.09	-49.3	-66.5	3.8	7.45e-01	0	43	104	0	69	27355
2026-01-21 02:59:22.56	351.21	11.16	-45.9	-59.5	3.9	7.46e-01	0	43	104	0	63	17196
2026-01-21 02:59:23.56	351.06	11.23	-45.2	-58.9	3.8	7.45e-01	0	43	104	0	61	17932
2026-01-21 02:59:24.56	350.90	11.30	-45.4	-58.8	3.8	7.43e-01	0	43	104	0	61	17691
2026-01-21 02:59:25.56	350.75	11.37	-45.5	-58.7	3.8	7.45e-01	0	43	104	0	61	17646
2026-01-21 02:59:26.56	350.59	11.44	-45.6	-58.8	3.8	7.48e-01	0	43	104	0	61	17777
2026-01-21 02:59:27.57	350.44	11.51	-46.1	-59.4	3.8	7.44e-01	0	43	104	0	62	17952
2026-01-21 02:59:28.57	350.28	11.57	-46.3	-59.6	3.8	7.43e-01	0	43	104	0	63	17373
2026-01-21 02:59:29.57	350.12	11.64	-47.5	-61.9	3.8	7.47e-01	0	43	104	0	65	20214
2026-01-21 02:59:30.57	349.96	11.71	-48.2	-65.9	3.8	7.47e-01	0	43	104	0	67	28581
2026-01-21 02:59:31.57	349.80	11.78	-46.0	-58.9	3.8	7.45e-01	0	43	104	0	63	16090
2026-01-21 02:59:32.57	349.64	11.85	-45.8	-58.7	3.8	7.46e-01	0	43	104	0	63	15668
2026-01-21 02:59:33.57	349.48	11.92	-45.6	-58.5	3.8	7.44e-01	0	43	104	0	63	15299
2026-01-21 02:59:34.56	349.32	11.99	-45.6	-58.5	3.8	7.46e-01	0	43	104	0	63	15372
2026-01-21 02:59:35.57	349.16	12.06	-45.5	-58.6	3.8	7.43e-01	0	43	104	0	63	15580
2026-01-21 02:59:36.57	348.99	12.12	-45.4	-58.6	3.8	7.42e-01	0	43	104	0	62	16466
2026-01-21 02:59:37.56	348.83	12.19	-45.6	-59.1	3.8	7.43e-01	0	43	104	0	62	17300
2026-01-21 02:59:38.56	348.66	12.26	-48.5	-62.5	3.8	7.44e-01	0	43	104	0	67	19339
2026-01-21 02:59:39.56	348.50	12.33	-51.1	-65.7	3.8	7.47e-01	0	43	104	0	73	19626
2026-01-21 02:59:40.56	348.33	12.40	-46.0	-59.0	3.9	7.45e-01	0	43	104	0	64	15316
2026-01-21 02:59:41.56	348.16	12.47	-45.7	-58.6	3.8	7.45e-01	0	43	104	0	63	15554
2026-01-21 02:59:42.55	348.00	12.53	-46.0	-58.4	3.8	7.43e-01	0	43	104	0	63	15058
2026-01-21 02:59:43.55	347.83	12.60	-46.3	-58.5	3.8	7.46e-01	0	43	104	0	63	15227
2026-01-21 02:59:44.55	347.65	12.67	-46.4	-58.4	3.8	7.46e-01	0	43	104	0	63	15225
2026-01-21 02:59:45.55	347.48	12.74	-46.5	-58.6	3.8	7.47e-01	0	43	104	0	63	15435
2026-01-21 02:59:46.55	347.31	12.81	-46.5	-58.8	3.8	7.45e-01	0	43	104	0	64	14889
2026-01-21 02:59:47.54	347.14	12.88	-48.2	-61.3	3.8	7.44e-01	0	43	104	0	66	17868
2026-01-21 02:59:48.54	346.97	12.95	-49.9	-65.4	3.9	7.44e-01	0	43	104	0	71	21338
2026-01-21 02:59:49.54	346.79	13.01	-46.7	-59.3	3.8	7.47e-01	0	43	104	0	65	15013
2026-01-21 02:59:50.54	346.61	13.08	-46.4	-58.8	3.8	7.44e-01	0	43	104	0	64	14940
2026-01-21 02:59:51.53	346.44	13.15	-46.0	-58.4	3.8	7.45e-01	0	43	104	0	63	15109
2026-01-21 02:59:52.53	346.26	13.22	-46.0	-58.5	3.8	7.41e-01	0	43	104	0	63	15256
2026-01-21 02:59:53.53	346.08	13.29	-46.0	-58.5	3.8	7.47e-01	0	43	104	0	63	15258
2026-01-21 02:59:54.52	345.91	13.35	-46.4	-58.9	3.8	7.45e-01	0	43	104	0	63	16040
2026-01-21 02:59:55.52	345.73	13.42	-46.8	-59.2	3.8	7.45e-01	0	43	104	0	65	14782
2026-01-21 02:59:56.52	345.54	13.49	-48.5	-61.7	3.8	7.44e-01	0	43	104	0	67	17615
2026-01-21 02:59:57.52	345.36	13.56	-49.8	-65.1	3.8	7.45e-01	0	43	104	0	70	21935
2026-01-21 02:59:58.52	345.18	13.63	-46.7	-59.2	3.8	7.42e-01	0	43	104	0	65	14873
2026-01-21 02:59:59.52	345.00	13.69	-46.2	-58.6	3.8	7.47e-01	0	43	104	0	64	14625
2026-01-21 03:00:00.52	344.81	13.76	-45.8	-58.2	3.8	7.44e-01	0	43	104	0	63	14769
2026-01-21 03:00:01.52	344.62	13.83	-45.8	-58.2	3.8	7.46e-01	0	43	104	0	63	14820
2026-01-21 03:00:02.52	344.44	13.90	-45.7	-58.2	3.8	7.45e-01	0	43	104	0	63	14798
2026-01-21 03:00:03.52	344.25	13.96	-46.0	-58.7	3.8	7.46e-01	0	43	104	0	63	15672
2026-01-21 03:00:04.52	344.06	14.03	-46.3	-59.2	3.8	7.42e-01	0	43	104	0	64	15723
2026-01-21 03:00:05.52	343.87	14.10	-48.3	-61.6	3.8	7.45e-01	0	43	104	0	67	17414
2026-01-21 03:00:06.52	343.68	14.17	-50.5	-65.8	3.9	7.45e-01	0	43	104	0	72	21153
2026-01-21 03:00:07.51	343.49	14.23	-46.7	-59.1	3.9	7.47e-01	0	43	104	0	65	14609
2026-01-21 03:00:08.52	343.30	14.30	-46.3	-58.7	3.8	7.45e-01	0	43	104	0	64	14742
2026-01-21 03:00:09.51	343.11	14.37	-46.0	-58.2	3.8	7.45e-01	0	43	104	0	63	14785
2026-01-21 03:00:10.51	342.91	14.43	-45.9	-58.2	3.8	7.46e-01	0	43	104	0	63	14731
2026-01-21 03:00:11.51	342.72	14.50	-45.8	-58.1	3.8	7.45e-01	0	43	104	0	63	14697
2026-01-21 03:00:12.51	342.52	14.57	-45.9	-58.4	3.8	7.48e-01	0	43	104	0	63	15191
2026-01-21 03:00:13.51	342.32	14.63	-46.1	-58.7	3.8	7.44e-01	0	43	104	0	63	15713
2026-01-21 03:00:14.51	342.13	14.70	-48.4	-61.6	3.8	7.45e-01	0	43	104	0	67	17342
2026-01-21 03:00:15.50	341.93	14.77	-50.5	-65.3	3.9	7.44e-01	0	43	104	0	72	20060
2026-01-21 03:00:16.50	341.73	14.83	-47.2	-59.7	3.9	7.43e-01	0	43	104	0	66	14759
2026-01-21 03:00:17.50	341.53	14.90	-46.5	-59.0	3.8	7.44e-01	0	43	104	0	64	15384
2026-01-21 03:00:18.50	341.33	14.97	-46.1	-58.3	3.8	7.45e-01	0	43	104	0	64	14148
2026-01-21 03:00:19.50	341.12	15.03	-46.0	-58.4	3.8	7.43e-01	0	43	104	0	64	14307
2026-01-21 03:00:20.50	340.92	15.10	-45.8	-58.3	3.8	7.41e-01	0	43	104	0	63	14955
2026-01-21 03:00:21.50	340.71	15.16	-46.1	-58.9	3.8	7.46e-01	0	43	104	0	63	15957
2026-01-21 03:00:22.50	340.51	15.23	-46.2	-59.0	3.8	7.45e-01	0	43	104	0	64	15252
2026-01-21 03:00:23.50	340.30	15.29	-47.9	-61.1	3.8	7.44e-01	0	43	104	0	66	17292
2026-01-21 03:00:24.50	340.09	15.36	-50.2	-65.6	3.8	7.45e-01	0	43	104	0	72	20692
2026-01-21 03:00:25.49	339.89	15.42	-47.1	-59.8	3.8	7.44e-01	0	43	104	0	66	14958
2026-01-21 03:00:26.49	339.68	15.49	-46.6	-59.2	3.8	7.43e-01	0	43	104	0	64	15651
2026-01-21 03:00:27.49	339.47	15.55	-46.1	-58.5	3.8	7.45e-01	0	43	104	0	64	14468
2026-01-21 03:00:28.48	339.26	15.61	-46.1	-58.7	3.8	7.44e-01	0	43	104	0	63	15600
2026-01-21 03:00:29.48	339.04	15.68	-46.0	-58.6	3.8	7.48e-01	0	43	104	0	63	15439
2026-01-21 03:00:30.49	338.83	15.74	-46.1	-58.8	3.8	7.47e-01	0	43	104	0	63	15889
2026-01-21 03:00:31.48	338.62	15.81	-46.8	-59.4	3.8	7.45e-01	0	43	104	0	65	15114
2026-01-21 03:00:32.48	338.40	15.87	-48.4	-61.1	3.8	7.46e-01	0	43	104	0	67	16412
2026-01-21 03:00:33.48	338.18	15.93	-51.4	-65.5	3.9	7.49e-01	0	43	104	0	74	18225
2026-01-21 03:00:34.48	337.97	16.00	-47.5	-59.7	3.8	7.48e-01	0	43	104	0	67	13947
2026-01-21 03:00:35.48	337.75	16.06	-47.2	-59.3	3.8	7.43e-01	0	43	104	0	66	14156
2026-01-21 03:00:36.48	337.53	16.12	-46.6	-58.6	3.8	7.44e-01	0	43	104	0	65	13755
2026-01-21 03:00:37.48	337.31	16.18	-46.4	-58.3	3.8	7.45e-01	0	43	104	0	64	14073
2026-01-21 03:00:38.48	337.08	16.25	-46.2	-58.1	3.8	7.44e-01	0	43	104	0	64	13883
2026-01-21 03:00:39.48	336.86	16.31	-46.1	-58.1	3.8	7.44e-01	0	43	104	0	64	13866
2026-01-21 03:00:40.48	336.64	16.37	-46.2	-58.3	3.8	7.44e-01	0	43	104	0	64	14082
2026-01-21 03:00:41.48	336.41	16.43	-48.5	-61.2	3.8	7.47e-01	0	43	104	0	67	16610
2026-01-21 03:00:42.48	336.19	16.49	-50.8	-65.5	3.8	7.47e-01	0	43	104	0	73	19361
2026-01-21 03:00:43.48	335.96	16.55	-47.1	-59.4	3.9	7.45e-01	0	43	104	0	66	14301
2026-01-21 03:00:44.47	335.74	16.61	-46.7	-58.9	3.8	7.47e-01	0	43	104	0	65	14254
2026-01-21 03:00:45.48	335.51	16.67	-46.2	-58.4	3.8	7.44e-01	0	43	104	0	64	14264
2026-01-21 03:00:46.48	335.28	16.73	-46.3	-58.6	3.8	7.49e-01	0	43	104	0	64	14607
2026-01-21 03:00:47.48	335.05	16.79	-46.2	-58.5	3.8	7.45e-01	0	43	104	0	64	14382
2026-01-21 03:00:48.48	334.81	16.85	-46.4	-58.8	3.8	7.50e-01	0	43	104	0	64	14957
2026-01-21 03:00:49.47	334.58	16.91	-46.6	-59.3	3.8	7.43e-01	0	43	104	0	65	14929
2026-01-21 03:00:50.47	334.35	16.97	-47.9	-61.1	3.8	7.51e-01	0	43	104	0	66	17386
2026-01-21 03:00:51.47	334.12	17.03	-50.5	-65.8	3.8	7.44e-01	0	43	104	0	73	19877
2026-01-21 03:00:52.47	333.88	17.09	-46.8	-59.3	3.8	7.46e-01	0	43	104	0	65	14939
2026-01-21 03:00:53.47	333.64	17.15	-46.5	-58.9	3.9	7.43e-01	0	43	104	0	65	14373
2026-01-21 03:00:54.47	333.41	17.20	-46.1	-58.4	3.8	7.46e-01	0	43	104	0	64	14210
2026-01-21 03:00:55.47	333.17	17.26	-46.0	-58.2	3.8	7.45e-01	0	43	104	0	64	14000
2026-01-21 03:00:56.46	332.93	17.32	-46.0	-58.3	3.8	7.45e-01	0	43	104	0	64	14057
2026-01-21 03:00:57.46	332.69	17.37	-46.4	-58.8	3.8	7.46e-01	0	43	104	0	64	15039
2026-01-21 03:00:58.46	332.45	17.43	-47.0	-59.7	3.8	7.42e-01	0	43	104	0	66	14830
2026-01-21 03:00:59.46	332.21	17.49	-48.1	-60.9	3.8	7.45e-01	0	43	104	0	66	16937
2026-01-21 03:01:00.46	331.96	17.54	-51.2	-66.2	3.8	7.43e-01	0	43	104	0	74	19698
2026-01-21 03:01:01.45	331.72	17.60	-47.3	-59.7	3.9	7.46e-01	0	43	104	0	66	14761
2026-01-21 03:01:02.45	331.48	17.65	-47.1	-59.5	3.9	7.42e-01	0	43	104	0	66	14423
2026-01-21 03:01:03.45	331.23	17.71	-46.8	-58.9	3.8	7.49e-01	0	43	104	0	65	14239
2026-01-21 03:01:04.45	330.98	17.76	-46.5	-58.5	3.8	7.44e-01	0	43	104	0	65	13649
2026-01-21 03:01:05.45	330.74	17.81	-46.5	-58.4	3.8	7.45e-01	0	43	104	0	64	14373
2026-01-21 03:01:06.45	330.49	17.87	-46.9	-58.9	3.8	7.45e-01	0	43	104	0	64	15112
2026-01-21 03:01:07.45	330.24	17.92	-47.1	-59.3	3.8	7.43e-01	0	43	104	0	66	14154
2026-01-21 03:01:08.45	329.99	17.97	-47.8	-60.8	3.8	7.46e-01	0	43	104	0	66	16748
2026-01-21 03:01:09.45	329.73	18.02	-50.0	-66.1	3.9	7.43e-01	0	43	104	0	71	23194
2026-01-21 03:01:10.45	329.48	18.08	-47.1	-60.2	3.9	7.44e-01	0	43	104	0	66	15593
2026-01-21 03:01:11.45	329.23	18.13	-46.9	-59.6	3.9	7.46e-01	0	43	104	0	65	15563
2026-01-21 03:01:12.44	328.98	18.18	-46.0	-58.5	3.8	7.46e-01	0	43	104	0	64	14510
2026-01-21 03:01:13.44	328.72	18.23	-46.2	-58.7	3.8	7.45e-01	0	43	104	0	63	15707
2026-01-21 03:01:14.44	328.46	18.28	-46.2	-58.6	3.8	7.47e-01	0	43	104	0	63	15559
2026-01-21 03:01:15.44	328.21	18.33	-46.6	-59.1	3.8	7.46e-01	0	43	104	0	63	16370
2026-01-21 03:01:16.45	327.95	18.38	-47.6	-60.3	3.8	7.42e-01	0	43	104	0	67	15045
2026-01-21 03:01:17.44	327.69	18.42	-47.7	-60.6	3.8	7.45e-01	0	43	104	0	65	17460
2026-01-21 03:01:18.44	327.43	18.47	-50.6	-66.1	3.9	7.48e-01	0	43	104	0	73	20692
2026-01-21 03:01:19.44	327.17	18.52	-47.3	-60.0	3.8	7.46e-01	0	43	104	0	66	15292
2026-01-21 03:01:20.44	326.91	18.57	-47.1	-60.0	3.8	7.46e-01	0	43	104	0	66	15272
2026-01-21 03:01:21.44	326.64	18.61	-46.6	-59.0	3.8	7.46e-01	0	43	104	0	65	14518
2026-01-21 03:01:22.44	326.38	18.66	-46.9	-59.1	3.8	7.49e-01	0	43	104	0	65	14707
2026-01-21 03:01:23.44	326.12	18.70	-46.6	-58.7	3.8	7.45e-01	0	43	104	0	65	13936
2026-01-21 03:01:24.43	325.85	18.75	-46.6	-58.6	3.8	7.44e-01	0	43	104	0	64	14566
2026-01-21 03:01:25.43	325.59	18.79	-47.2	-59.2	3.8	7.47e-01	0	43	104	0	66	14013
2026-01-21 03:01:26.43	325.32	18.84	-48.1	-60.6	3.8	7.44e-01	0	43	104	0	66	16407
2026-01-21 03:01:27.43	325.05	18.88	-50.8	-66.6	3.9	7.43e-01	0	43	104	0	73	21883
2026-01-21 03:01:28.43	324.79	18.92	-47.5	-60.2	3.8	7.45e-01	0	43	104	0	67	14733
2026-01-21 03:01:29.42	324.52	18.96	-47.7	-60.3	3.8	7.45e-01	0	43	104	0	67	14963
2026-01-21 03:01:30.42	324.25	19.01	-46.6	-58.9	3.8	7.41e-01	0	43	104	0	65	14246
2026-01-21 03:01:31.43	323.98	19.05	-46.3	-58.6	3.8	7.48e-01	0	43	104	0	64	14557
2026-01-21 03:01:32.42	323.71	19.09	-46.3	-58.5	3.8	7.47e-01	0	43	104	0	64	14450
2026-01-21 03:01:33.42	323.43	19.13	-46.7	-59.0	3.8	7.49e-01	0	43	104	0	64	15233
2026-01-21 03:01:34.42	323.16	19.17	-47.3	-59.8	3.8	7.44e-01	0	43	104	0	66	14881
2026-01-21 03:01:35.42	322.89	19.21	-48.2	-60.9	3.8	7.49e-01	0	43	104	0	66	16957
2026-01-21 03:01:36.42	322.61	19.24	-51.1	-66.3	3.9	7.47e-01	0	43	104	0	74	19908
2026-01-21 03:01:37.41	322.34	19.28	-47.5	-60.1	3.8	7.47e-01	0	43	104	0	67	14554
2026-01-21 03:01:38.41	322.06	19.32	-48.0	-60.6	3.8	7.45e-01	0	43	104	0	68	14632
2026-01-21 03:01:39.41	321.79	19.36	-46.8	-59.0	3.8	7.50e-01	0	43	104	0	65	14536
2026-01-21 03:01:40.41	321.51	19.39	-46.5	-58.7	3.8	7.44e-01	0	43	104	0	65	13954
2026-01-21 03:01:41.41	321.23	19.43	-46.6	-58.7	3.8	7.43e-01	0	43	104	0	65	14041
2026-01-21 03:01:42.41	320.95	19.46	-46.7	-59.0	3.8	7.42e-01	0	43	104	0	64	15257
2026-01-21 03:01:43.41	320.67	19.50	-47.4	-59.7	3.8	7.47e-01	0	43	104	0	66	14799
2026-01-21 03:01:44.41	320.39	19.53	-48.3	-61.1	3.9	7.44e-01	0	43	104	0	67	16353
2026-01-21 03:01:45.41	320.11	19.56	-50.8	-66.9	3.9	7.45e-01	0	43	104	0	73	22586
2026-01-21 03:01:46.41	319.83	19.59	-47.5	-60.0	3.9	7.41e-01	0	43	104	0	67	14434
2026-01-21 03:01:47.40	319.55	19.63	-48.0	-60.8	3.8	7.43e-01	0	43	104	0	68	14891
2026-01-21 03:01:48.40	319.27	19.66	-46.6	-59.2	3.8	7.43e-01	0	43	104	0	65	14838
2026-01-21 03:01:49.40	318.99	19.69	-46.4	-59.1	3.8	7.45e-01	0	43	104	0	64	15448
2026-01-21 03:01:50.40	318.70	19.72	-46.2	-58.9	3.8	7.43e-01	0	43	104	0	64	15183
2026-01-21 03:01:51.40	318.42	19.74	-46.2	-58.9	3.8	7.45e-01	0	43	104	0	64	15103
2026-01-21 03:01:52.39	318.14	19.77	-46.9	-59.6	3.8	7.47e-01	0	43	104	0	65	15471
2026-01-21 03:01:53.39	317.85	19.80	-47.9	-60.6	3.8	7.42e-01	0	43	104	0	66	16337
2026-01-21 03:01:54.39	317.56	19.83	-51.3	-66.9	3.9	7.43e-01	0	43	104	0	74	21364
2026-01-21 03:01:55.39	317.28	19.85	-48.0	-60.6	3.8	7.46e-01	0	43	104	0	68	14661
2026-01-21 03:01:56.39	316.99	19.88	-48.6	-61.5	3.8	7.46e-01	0	43	104	0	69	15363
2026-01-21 03:01:57.39	316.70	19.90	-47.1	-59.4	3.8	7.46e-01	0	43	104	0	66	14266
2026-01-21 03:01:58.39	316.41	19.93	-46.8	-59.0	3.8	7.49e-01	0	43	104	0	65	14504
2026-01-21 03:01:59.39	316.13	19.95	-46.6	-58.7	3.8	7.43e-01	0	43	104	0	65	13948
2026-01-21 03:02:00.39	315.84	19.97	-46.7	-58.8	3.8	7.45e-01	0	43	104	0	65	14191
2026-01-21 03:02:01.39	315.55	20.00	-47.3	-59.6	3.8	7.47e-01	0	43	104	0	65	15500
2026-01-21 03:02:02.39	315.26	20.02	-48.1	-60.7	3.8	7.45e-01	0	43	104	0	66	16565
2026-01-21 03:02:03.38	314.97	20.04	-51.6	-67.3	3.8	7.45e-01	0	43	104	0	75	21115
2026-01-21 03:02:04.38	314.68	20.06	-48.2	-61.0	3.8	7.45e-01	0	43	104	0	68	15263
2026-01-21 03:02:05.38	314.39	20.08	-48.7	-61.4	3.8	7.46e-01	0	43	104	0	69	15193
2026-01-21 03:02:06.38	314.09	20.09	-47.3	-59.6	3.8	7.44e-01	0	43	104	0	66	14608
2026-01-21 03:02:07.38	313.80	20.11	-47.1	-59.2	3.9	7.48e-01	0	43	104	0	66	13896
2026-01-21 03:02:08.38	313.51	20.13	-47.2	-59.4	3.8	7.44e-01	0	43	104	0	66	14370
2026-01-21 03:02:09.38	313.22	20.15	-47.5	-59.6	3.8	7.48e-01	0	43	104	0	66	14667
2026-01-21 03:02:10.38	312.92	20.16	-49.2	-62.1	3.9	7.46e-01	0	43	104	0	70	15455
2026-01-21 03:02:11.38	312.63	20.18	-48.5	-61.2	3.8	7.42e-01	0	43	104	0	67	16515
2026-01-21 03:02:12.38	312.34	20.19	-51.7	-67.2	3.9	7.43e-01	0	43	104	0	75	20859
2026-01-21 03:02:13.38	312.04	20.20	-48.0	-60.6	3.9	7.45e-01	0	43	104	0	68	14626
2026-01-21 03:02:14.38	311.75	20.21	-48.7	-61.3	3.8	7.43e-01	0	43	104	0	69	14965
2026-01-21 03:02:15.38	311.45	20.23	-47.5	-60.1	3.8	7.45e-01	0	43	104	0	66	15546
2026-01-21 03:02:16.38	311.16	20.24	-47.6	-59.8	3.8	7.43e-01	0	43	104	0	66	14921
2026-01-21 03:02:17.38	310.86	20.25	-47.6	-60.1	3.8	7.49e-01	0	43	104	0	66	15526
2026-01-21 03:02:18.37	310.57	20.26	-48.0	-60.4	3.8	7.43e-01	0	43	104	0	66	16065
2026-01-21 03:02:19.37	310.28	20.27	-49.1	-61.8	3.8	7.44e-01	0	43	104	0	70	14905
2026-01-21 03:02:20.37	309.98	20.27	-48.5	-61.1	3.8	7.47e-01	0	43	104	0	67	16336
2026-01-21 03:02:21.37	309.69	20.28	-52.1	-67.0	3.8	7.45e-01	0	43	104	0	76	19227
2026-01-21 03:02:22.37	309.39	20.29	-48.5	-61.2	3.8	7.46e-01	0	43	104	0	69	14779
2026-01-21 03:02:23.37	309.09	20.29	-49.2	-61.8	3.8	7.44e-01	0	43	104	0	70	14944
2026-01-21 03:02:24.37	308.80	20.30	-47.6	-59.7	3.8	7.45e-01	0	43	104	0	67	14041
2026-01-21 03:02:25.37	308.50	20.30	-47.8	-60.3	3.8	7.46e-01	0	43	104	0	67	14945
2026-01-21 03:02:26.37	308.21	20.30	-47.5	-59.2	3.8	7.47e-01	0	43	104	0	67	13229
2026-01-21 03:02:27.37	307.91	20.31	-48.2	-60.9	3.8	7.44e-01	0	43	104	0	67	16067
2026-01-21 03:02:28.37	307.61	20.31	-49.6	-62.4	3.8	7.45e-01	0	43	104	0	71	15056
2026-01-21 03:02:29.37	307.32	20.31	-48.5	-60.9	3.8	7.45e-01	0	43	104	0	67	16036
2026-01-21 03:02:30.37	307.02	20.31	-52.3	-68.1	3.8	7.43e-01	0	43	104	0	76	21864
2026-01-21 03:02:31.36	306.73	20.31	-48.7	-61.1	3.8	7.44e-01	0	43	104	0	69	14575
2026-01-21 03:02:32.36	306.43	20.31	-49.7	-62.8	3.8	7.47e-01	0	43	104	0	71	15810
2026-01-21 03:02:33.36	306.13	20.31	-47.9	-60.1	3.8	7.48e-01	0	43	104	0	67	14560
2026-01-21 03:02:34.36	305.84	20.30	-47.6	-59.9	3.8	7.46e-01	0	43	104	0	67	14227
2026-01-21 03:02:35.37	305.54	20.30	-47.5	-59.7	3.8	7.45e-01	0	43	104	0	66	14784
2026-01-21 03:02:36.36	305.25	20.30	-48.1	-60.3	3.8	7.45e-01	0	43	104	0	66	15942
2026-01-21 03:02:37.36	304.95	20.29	-49.6	-62.6	3.8	7.43e-01	0	43	104	0	71	15432
2026-01-21 03:02:38.36	304.65	20.28	-48.6	-61.0	3.8	7.48e-01	0	43	104	0	67	16172
2026-01-21 03:02:39.36	304.36	20.28	-52.2	-67.6	3.8	7.46e-01	0	43	104	0	76	20723
2026-01-21 03:02:40.35	304.06	20.27	-48.5	-61.1	3.9	7.42e-01	0	43	104	0	69	14615
2026-01-21 03:02:41.35	303.77	20.26	-49.8	-62.8	3.8	7.45e-01	0	43	104	0	71	15771
2026-01-21 03:02:42.35	303.47	20.25	-48.2	-60.2	3.8	7.44e-01	0	43	104	0	68	14046
2026-01-21 03:02:43.35	303.18	20.24	-47.9	-60.4	3.8	7.43e-01	0	43	104	0	67	15127
2026-01-21 03:02:44.35	302.88	20.23	-47.8	-59.8	3.8	7.43e-01	0	43	104	0	67	14154
2026-01-21 03:02:45.34	302.59	20.22	-48.1	-60.4	3.8	7.43e-01	0	43	104	0	67	15224
2026-01-21 03:02:46.34	302.30	20.21	-49.4	-62.4	3.8	7.42e-01	0	43	104	0	70	16094
2026-01-21 03:02:47.34	302.00	20.20	-48.1	-60.1	3.8	7.46e-01	0	43	104	0	66	15492
2026-01-21 03:02:48.34	301.71	20.18	-52.6	-68.2	3.9	7.42e-01	0	43	104	0	77	20857
2026-01-21 03:02:49.33	301.42	20.17	-48.8	-61.3	3.8	7.48e-01	0	43	104	0	69	15017
2026-01-21 03:02:50.33	301.12	20.15	-50.1	-63.3	3.8	7.44e-01	0	43	104	0	72	15789
2026-01-21 03:02:51.33	300.83	20.14	-48.0	-59.7	3.8	7.46e-01	0	43	104	0	68	13222
2026-01-21 03:02:52.33	300.54	20.12	-48.0	-60.8	3.8	7.42e-01	0	43	104	0	67	15884
2026-01-21 03:02:53.32	300.25	20.10	-48.1	-59.9	3.8	7.44e-01	0	43	104	0	67	14341
2026-01-21 03:02:54.32	299.96	20.09	-48.4	-61.4	3.8	7.47e-01	0	43	104	0	67	17011
2026-01-21 03:02:55.32	299.66	20.07	-49.6	-62.0	3.8	7.47e-01	0	43	104	0	71	14485
2026-01-21 03:02:56.32	299.37	20.05	-48.5	-61.8	3.8	7.46e-01	0	43	104	0	67	17749
2026-01-21 03:02:57.32	299.08	20.03	-52.6	-68.1	3.9	7.43e-01	0	43	104	0	76	21919
2026-01-21 03:02:58.32	298.79	20.01	-48.7	-62.1	3.8	7.44e-01	0	43	104	0	69	16430
2026-01-21 03:02:59.32	298.50	19.99	-49.8	-62.3	3.8	7.45e-01	0	43	104	0	71	15020
2026-01-21 03:03:00.31	298.21	19.96	-47.7	-60.0	3.8	7.46e-01	0	43	104	0	67	14515
2026-01-21 03:03:01.31	297.92	19.94	-47.6	-60.0	3.8	7.51e-01	0	43	104	0	67	14527
2026-01-21 03:03:02.31	297.64	19.92	-47.2	-59.1	3.8	7.45e-01	0	43	104	0	66	13757
2026-01-21 03:03:03.31	297.35	19.89	-47.6	-60.2	3.8	7.45e-01	0	43	104	0	66	15669
2026-01-21 03:03:04.31	297.06	19.87	-48.7	-60.9	3.8	7.42e-01	0	43	104	0	69	14215
2026-01-21 03:03:05.31	296.77	19.84	-48.6	-61.6	3.8	7.47e-01	0	43	104	0	67	17390
2026-01-21 03:03:06.31	296.48	19.82	-52.7	-68.0	3.9	7.42e-01	0	43	104	0	77	20435
2026-01-21 03:03:07.31	296.20	19.79	-48.6	-61.4	3.8	7.44e-01	0	43	104	0	69	15127
2026-01-21 03:03:08.31	295.91	19.76	-50.0	-62.9	3.9	7.44e-01	0	43	104	0	72	15213
2026-01-21 03:03:09.30	295.63	19.73	-47.9	-59.8	3.8	7.48e-01	0	43	104	0	67	14157
2026-01-21 03:03:10.30	295.34	19.70	-47.8	-60.4	3.8	7.45e-01	0	43	104	0	67	15130
2026-01-21 03:03:11.30	295.06	19.67	-47.1	-58.4	3.8	7.45e-01	0	43	104	0	66	12668
2026-01-21 03:03:12.30	294.78	19.64	-47.4	-60.4	3.8	7.46e-01	0	43	104	0	66	16003
2026-01-21 03:03:13.30	294.49	19.61	-49.0	-61.0	3.8	7.44e-01	0	43	104	0	70	13627
2026-01-21 03:03:14.30	294.21	19.58	-48.2	-61.1	3.8	7.46e-01	0	43	104	0	67	16401
2026-01-21 03:03:15.29	293.93	19.55	-52.4	-68.5	3.8	7.43e-01	0	43	104	0	76	22879
2026-01-21 03:03:16.29	293.65	19.51	-48.9	-61.5	3.8	7.47e-01	0	43	104	0	69	15394
2026-01-21 03:03:17.29	293.37	19.48	-50.2	-64.0	3.8	7.41e-01	0	43	104	0	72	17163
2026-01-21 03:03:18.29	293.09	19.45	-47.7	-59.8	3.8	7.50e-01	0	43	104	0	67	14063
2026-01-21 03:03:19.29	292.81	19.41	-47.5	-60.3	3.8	7.45e-01	0	43	104	0	66	15765
2026-01-21 03:03:20.29	292.53	19.38	-47.1	-59.0	3.8	7.48e-01	0	43	104	0	66	13588
2026-01-21 03:03:21.29	292.26	19.34	-47.2	-59.4	3.9	7.42e-01	0	43	104	0	66	14247
2026-01-21 03:03:22.28	291.98	19.30	-49.1	-61.9	3.8	7.43e-01	0	43	104	0	69	15981
2026-01-21 03:03:23.28	291.70	19.27	-48.4	-61.0	3.7	7.45e-01	0	43	104	0	67	16205
2026-01-21 03:03:24.28	291.43	19.23	-52.5	-60.5	4.8	7.14e-01	0	43	104	0	76	9135
2026-01-21 03:03:25.28	291.15	19.19	-48.5	-51.8	20.7	6.04e-01	0	43	0	1048576	69	5011
2026-01-21 03:03:26.27	290.88	19.15	-49.9	-53.9	18.5	6.04e-01	0	43	0	3145728	71	5680
2026-01-21 03:03:27.27	290.61	19.11	-47.5	-50.5	21.9	6.05e-01	0	43	0	4718592	66	5124
2026-01-21 03:03:28.27	290.34	19.07	-47.6	-50.6	21.8	6.03e-01	0	43	0	6815744	66	5172
2026-01-21 03:03:29.27	290.06	19.03	-46.5	-49.1	23.1	6.03e-01	0	43	0	8388608	65	4651
2026-01-21 03:03:30.26	289.80	18.99	-47.0	-49.8	22.6	6.04e-01	0	43	0	10485760	65	5027
2026-01-21 03:03:31.26	289.53	18.95	-46.7	-49.4	23.0	6.04e-01	0	43	0	12058624	65	4780
2026-01-21 03:03:32.26	289.26	18.90	-46.9	-49.6	22.7	6.06e-01	0	43	0	14155776	65	4912
2026-01-21 03:03:33.26	288.99	18.86	-46.5	-49.1	23.2	6.06e-01	0	43	0	16252928	65	4626
2026-01-21 03:03:34.26	288.72	18.82	-46.4	-49.0	23.3	6.03e-01	0	43	0	17825792	64	4833
2026-01-21 03:03:35.26	288.45	18.77	-46.4	-49.0	23.3	6.04e-01	0	43	0	19922944	64	4835
2026-01-21 03:03:36.25	288.19	18.73	-46.7	-49.3	23.0	6.03e-01	0	43	0	21495808	64	5019
2026-01-21 03:03:37.25	287.92	18.68	-46.6	-49.3	23.1	6.01e-01	0	43	0	23592960	64	4999
2026-01-21 03:03:38.25	287.66	18.64	-46.6	-49.2	23.2	6.03e-01	0	43	0	25165824	64	4947
2026-01-21 03:03:39.24	287.40	18.59	-46.5	-49.2	23.2	6.04e-01	0	43	0	27262976	64	4957
2026-01-21 03:03:40.25	287.13	18.54	-46.6	-49.3	23.0	6.02e-01	0	43	0	28835840	64	5009
2026-01-21 03:03:41.24	286.87	18.50	-46.3	-48.9	23.4	6.06e-01	0	43	0	30932992	64	4770
2026-01-21 03:03:42.24	286.61	18.45	-46.7	-49.5	22.9	6.01e-01	0	43	0	33030144	64	5136
2026-01-21 03:03:43.24	286.35	18.40	-46.5	-49.2	23.1	6.04e-01	0	43	0	34603008	64	4946
2026-01-21 03:03:44.24	286.09	18.35	-46.1	-48.6	23.7	6.05e-01	0	43	0	36700160	64	4607
2026-01-21 03:03:45.24	285.83	18.30	-46.9	-49.6	22.8	6.01e-01	0	43	0	38273024	64	5210
2026-01-21 03:03:46.24	285.57	18.25	-46.7	-49.3	23.0	6.03e-01	0	43	0	40370176	64	5003
2026-01-21 03:03:47.24	285.32	18.20	-46.7	-49.3	23.1	6.05e-01	0	43	0	41943040	64	4998
2026-01-21 03:03:48.24	285.06	18.15	-47.3	-50.1	22.4	6.02e-01	0	43	0	44040192	65	5200
2026-01-21 03:03:49.24	284.81	18.10	-46.5	-49.0	23.3	6.05e-01	0	43	0	46137344	64	4861
2026-01-21 03:03:50.23	284.55	18.05	-46.4	-48.9	23.4	6.03e-01	0	43	0	47710208	64	4810
2026-01-21 03:03:51.23	284.30	18.00	-46.7	-49.4	22.9	6.06e-01	0	43	0	49807360	64	5058
2026-01-21 03:03:52.23	284.05	17.95	-46.1	-48.6	23.6	6.04e-01	0	43	0	51380224	64	4627
2026-01-21 03:03:53.23	283.80	17.89	-46.7	-49.3	23.1	6.04e-01	0	43	0	53477376	64	5015
2026-01-21 03:03:54.23	283.55	17.84	-46.8	-49.5	22.8	6.03e-01	0	43	0	55050240	64	5109
2026-01-21 03:03:55.23	283.30	17.79	-46.0	-48.4	23.8	6.01e-01	0	43	0	57147392	64	4520
2026-01-21 03:03:56.23	283.05	17.73	-46.3	-48.9	23.5	6.03e-01	0	43	0	59244544	63	5058
2026-01-21 03:03:57.23	282.80	17.68	-46.9	-49.7	22.7	6.04e-01	0	43	0	60817408	64	5257
2026-01-21 03:03:58.23	282.55	17.62	-46.1	-48.6	23.5	6.02e-01	0	43	0	62914560	64	4651
2026-01-21 03:03:59.23	282.31	17.57	-46.2	-48.7	23.6	6.03e-01	0	43	0	64487424	63	4964
2026-01-21 03:04:00.23	282.06	17.51	-47.1	-49.9	22.5	6.05e-01	0	43	0	66584576	64	5384
2026-01-21 03:04:01.23	281.82	17.46	-46.8	-49.5	22.8	6.04e-01	0	43	0	68681728	64	5119
2026-01-21 03:04:02.23	281.58	17.40	-46.6	-49.3	23.0	6.04e-01	0	43	0	70254592	64	4991
2026-01-21 03:04:03.23	281.34	17.34	-47.0	-49.8	22.5	6.03e-01	0	43	0	72351744	64	5337
2026-01-21 03:04:04.23	281.09	17.29	-47.1	-50.0	22.4	6.03e-01	0	43	0	73924608	65	5122
2026-01-21 03:04:05.23	280.85	17.23	-46.0	-48.5	23.7	6.03e-01	0	43	0	76021760	64	4585
2026-01-21 03:04:06.23	280.62	17.17	-46.3	-48.9	23.5	6.02e-01	0	43	0	77594624	63	5051
2026-01-21 03:04:07.23	280.38	17.11	-46.7	-49.4	23.0	6.04e-01	0	43	0	79691776	64	5064
2026-01-21 03:04:08.23	280.14	17.06	-46.5	-49.1	23.2	6.04e-01	0	43	0	81788928	64	4916
2026-01-21 03:04:09.23	279.90	17.00	-46.5	-49.1	23.2	6.03e-01	0	43	0	83361792	64	4926
2026-01-21 03:04:10.22	279.67	16.94	-46.6	-49.3	23.1	6.01e-01	0	43	0	85458944	64	5009
2026-01-21 03:04:11.22	279.44	16.88	-46.7	-49.4	22.9	6.02e-01	0	43	0	87031808	64	5087
2026-01-21 03:04:12.21	279.21	16.82	-46.3	-48.8	23.5	6.06e-01	0	43	0	89128960	64	4729
2026-01-21 03:04:13.21	278.97	16.76	-46.2	-48.7	23.5	6.03e-01	0	43	0	90701824	64	4694
2026-01-21 03:04:14.21	278.74	16.70	-46.5	-49.1	23.2	6.04e-01	0	43	0	92798976	64	4900
2026-01-21 03:04:15.21	278.51	16.64	-46.6	-49.3	23.0	6.04e-01	0	44	0	94896128	64	5041
2026-01-21 03:04:16.20	278.29	16.58	-46.5	-49.1	23.2	6.05e-01	0	43	0	96468992	64	4924
2026-01-21 03:04:17.20	278.06	16.52	-46.3	-48.9	23.4	6.03e-01	0	43	0	98566144	64	4809
2026-01-21 03:04:18.20	277.83	16.46	-46.6	-49.2	23.1	6.03e-01	0	43	0	100139008	64	4980
2026-01-21 03:04:19.19	277.61	16.40	-46.7	-49.4	22.9	6.02e-01	0	43	0	102236160	64	5091
2026-01-21 03:04:20.20	277.38	16.33	-46.3	-48.9	23.4	6.04e-01	0	43	0	103809024	64	4773
2026-01-21 03:04:21.20	277.15	16.27	-46.2	-48.7	23.6	6.02e-01	0	43	0	105906176	64	4686
2026-01-21 03:04:22.20	276.93	16.21	-46.5	-49.1	23.2	6.03e-01	0	43	0	107479040	64	4885
2026-01-21 03:04:23.19	276.71	16.15	-46.5	-49.2	23.1	6.02e-01	0	43	0	109576192	64	4950
2026-01-21 03:04:24.19	276.49	16.09	-46.6	-49.2	23.1	6.05e-01	0	43	0	111673344	64	4953
2026-01-21 03:04:25.19	276.27	16.02	-46.4	-49.0	23.3	6.05e-01	0	43	0	113246208	64	4827
2026-01-21 03:04:26.18	276.05	15.96	-46.3	-48.9	23.4	6.04e-01	0	43	0	115343360	64	4796
2026-01-21 03:04:27.18	275.83	15.90	-46.5	-49.1	23.3	6.02e-01	0	43	0	116916224	64	4890
2026-01-21 03:04:28.18	275.62	15.83	-46.3	-48.9	23.4	6.04e-01	0	43	0	119013376	64	4786
2026-01-21 03:04:29.17	275.40	15.77	-46.2	-48.8	23.5	6.04e-01	0	43	0	120586240	64	4721
2026-01-21 03:04:30.17	275.19	15.71	-46.4	-49.0	23.3	6.02e-01	0	43	0	122683392	64	4829
2026-01-21 03:04:31.17	274.97	15.64	-46.5	-49.1	23.1	6.01e-01	0	43	0	124780544	64	4923
2026-01-21 03:04:32.16	274.76	15.58	-46.4	-49.1	23.2	6.02e-01	0	43	0	126353408	64	4873
2026-01-21 03:04:33.16	274.55	15.51	-46.2	-48.9	23.4	6.04e-01	0	43	0	128450560	64	4765
2026-01-21 03:04:34.16	274.34	15.45	-46.4	-49.0	23.3	6.01e-01	0	43	0	130023424	64	4856
2026-01-21 03:04:35.16	274.13	15.38	-46.4	-49.0	23.3	6.05e-01	0	43	0	132120576	64	4852
2026-01-21 03:04:36.16	273.92	15.32	-46.4	-49.0	23.2	6.03e-01	0	43	0	134217728	64	4868
2026-01-21 03:04:37.16	273.71	15.25	-46.4	-49.1	23.2	6.03e-01	0	43	0	135790592	64	4872
2026-01-21 03:04:38.16	273.50	15.19	-46.4	-49.0	23.3	6.02e-01	0	44	0	137887744	64	4849
2026-01-21 03:04:39.16	273.30	15.12	-46.4	-49.1	23.2	6.05e-01	0	43	0	139460608	64	4877
2026-01-21 03:04:40.16	273.09	15.06	-46.3	-48.9	23.4	6.03e-01	0	43	0	141557760	64	4795
2026-01-21 03:04:41.16	272.89	14.99	-46.5	-49.1	23.2	6.03e-01	0	43	0	143130624	64	4921
2026-01-21 03:04:42.16	272.68	14.92	-46.7	-49.4	22.9	6.04e-01	0	43	0	145227776	64	5073
2026-01-21 03:04:43.16	272.48	14.86	-46.6	-49.3	23.0	6.03e-01	0	43	0	147324928	64	4991
2026-01-21 03:04:44.15	272.28	14.79	-46.6	-49.3	23.0	6.01e-01	0	43	0	148897792	64	5013
2026-01-21 03:04:45.15	272.08	14.73	-46.5	-49.1	23.2	6.05e-01	0	43	0	150994944	64	4910
2026-01-21 03:04:46.15	271.88	14.66	-46.4	-49.0	23.2	6.03e-01	0	43	0	152567808	64	4868
2026-01-21 03:04:47.15	271.68	14.59	-46.4	-49.0	23.3	6.05e-01	0	43	0	154664960	64	4842
2026-01-21 03:04:48.15	271.48	14.52	-46.5	-49.1	23.1	6.02e-01	0	43	0	156237824	64	4910
2026-01-21 03:04:49.15	271.28	14.46	-46.6	-49.3	23.0	6.03e-01	0	43	0	158334976	64	4988
2026-01-21 03:04:50.15	271.09	14.39	-46.6	-49.4	22.9	6.06e-01	0	43	0	159907840	64	5052
2026-01-21 03:04:51.15	270.89	14.32	-46.6	-49.4	22.9	6.05e-01	0	43	0	162004992	64	5080
2026-01-21 03:04:52.14	270.70	14.26	-46.5	-49.3	23.0	6.04e-01	0	43	0	164102144	64	4985
2026-01-21 03:04:53.14	270.51	14.19	-46.6	-49.4	22.9	6.02e-01	0	43	0	165675008	64	5053
2026-01-21 03:04:54.14	270.32	14.12	-46.4	-49.1	23.2	6.03e-01	0	43	0	167772160	64	4899
2026-01-21 03:04:55.14	270.13	14.05	-46.5	-49.2	23.1	6.03e-01	0	43	0	169345024	64	4942
2026-01-21 03:04:56.14	269.94	13.99	-46.5	-49.2	23.1	6.04e-01	0	43	0	171442176	64	4957
2026-01-21 03:04:57.14	269.75	13.92	-46.4	-49.1	23.2	6.04e-01	0	43	0	173015040	64	4885
2026-01-21 03:04:58.14	269.56	13.85	-46.5	-49.2	23.0	6.05e-01	0	43	0	175112192	64	4978
2026-01-21 03:04:59.13	269.37	13.78	-46.5	-49.2	23.1	6.03e-01	0	43	0	177209344	64	4979
2026-01-21 03:05:00.13	269.19	13.72	-46.5	-49.2	23.1	6.02e-01	0	43	0	178782208	64	4939
2026-01-21 03:05:01.13	269.00	13.65	-46.6	-49.3	23.0	6.02e-01	0	43	0	180879360	64	5010
2026-01-21 03:05:02.13	268.81	13.58	-46.6	-49.3	23.0	6.02e-01	0	43	0	182452224	64	5027
2026-01-21 03:05:03.13	268.63	13.51	-46.5	-49.2	23.1	6.01e-01	0	43	0	184549376	64	4932
2026-01-21 03:05:04.13	268.45	13.44	-46.7	-49.4	22.9	6.03e-01	0	43	0	186122240	64	5067
2026-01-21 03:05:05.13	268.27	13.37	-46.6	-49.3	22.9	6.04e-01	0	44	0	188219392	64	5037
2026-01-21 03:05:06.13	268.09	13.31	-46.6	-49.4	22.9	6.05e-01	0	43	0	190316544	64	5052
2026-01-21 03:05:07.13	267.90	13.24	-46.7	-49.5	22.8	6.04e-01	0	43	0	191889408	64	5125
2026-01-21 03:05:08.13	267.73	13.17	-46.6	-49.4	22.9	6.03e-01	0	43	0	193986560	64	5068
2026-01-21 03:05:09.13	267.55	13.10	-46.5	-49.2	23.0	6.03e-01	0	43	0	195559424	64	4983
2026-01-21 03:05:10.13	267.37	13.03	-46.6	-49.3	22.9	6.04e-01	0	43	0	197656576	64	5029
2026-01-21 03:05:11.12	267.19	12.96	-46.4	-49.2	23.1	6.03e-01	0	43	0	199753728	64	4928
2026-01-21 03:05:12.12	267.02	12.89	-46.4	-49.1	23.2	6.02e-01	0	43	0	201326592	64	4881
2026-01-21 03:05:13.12	266.84	12.83	-46.6	-49.3	23.0	6.04e-01	0	43	0	203423744	64	4988
2026-01-21 03:05:14.11	266.67	12.76	-46.7	-49.4	22.8	6.04e-01	0	43	0	204996608	64	5097
2026-01-21 03:05:15.11	266.50	12.69	-46.8	-49.5	22.7	6.03e-01	0	43	0	207093760	64	5134
2026-01-21 03:05:16.12	266.33	12.62	-46.7	-49.4	22.8	6.02e-01	0	43	0	208666624	64	5088
2026-01-21 03:05:17.12	266.15	12.55	-46.5	-49.2	22.9	6.05e-01	0	43	0	210763776	64	4974
2026-01-21 03:05:18.11	265.99	12.48	-46.4	-49.1	23.1	6.03e-01	0	43	0	212860928	64	4911
2026-01-21 03:05:19.11	265.82	12.41	-46.6	-49.3	22.9	6.03e-01	0	43	0	214433792	64	5036
2026-01-21 03:05:20.11	265.65	12.34	-46.7	-49.5	22.8	6.03e-01	0	43	0	216530944	64	5112
2026-01-21 03:05:21.11	265.48	12.28	-46.8	-49.5	22.6	6.05e-01	0	43	0	218103808	64	5147
2026-01-21 03:05:22.11	265.31	12.21	-46.8	-49.6	22.7	6.03e-01	0	43	0	220200960	64	5160
2026-01-21 03:05:23.11	265.15	12.14	-46.7	-49.4	22.8	6.03e-01	0	43	0	221773824	64	5058
2026-01-21 03:05:24.10	264.98	12.07	-46.7	-49.3	22.8	5.99e-01	0	43	0	223870976	64	5035
2026-01-21 03:05:25.10	264.82	12.00	-46.7	-49.4	22.8	6.04e-01	0	43	0	225443840	64	5090
2026-01-21 03:05:26.09	264.66	11.93	-46.7	-49.4	22.2	6.04e-01	0	43	0	227540992	64	5063
2026-01-21 03:05:27.09	264.49	11.86	-46.7	-49.4	22.8	6.03e-01	0	43	0	229638144	64	5094
2026-01-21 03:05:28.09	264.33	11.79	-46.8	-49.6	22.6	6.05e-01	0	43	0	231211008	64	5196
2026-01-21 03:05:29.08	264.17	11.73	-46.8	-49.7	22.5	6.02e-01	0	43	0	233308160	64	5219
2026-01-21 03:05:30.08	264.01	11.66	-46.8	-49.7	22.6	6.04e-01	0	43	0	234881024	64	5223
2026-01-21 03:05:31.08	263.85	11.59	-46.7	-49.5	22.7	6.02e-01	0	43	0	236978176	64	5128
2026-01-21 03:05:32.08	263.69	11.52	-46.8	-49.6	22.6	6.05e-01	0	43	0	238551040	64	5195
2026-01-21 03:05:33.08	263.53	11.45	-46.7	-49.6	22.6	6.02e-01	0	44	0	240648192	64	5164
2026-01-21 03:05:34.08	263.38	11.38	-46.7	-49.6	22.6	6.02e-01	0	43	0	242745344	64	5169
2026-01-21 03:05:35.07	263.22	11.31	-46.7	-49.5	22.6	6.04e-01	0	43	0	244318208	64	5153
2026-01-21 03:05:36.07	263.07	11.24	-46.7	-49.6	22.6	6.03e-01	0	43	0	246415360	64	5187
2026-01-21 03:05:37.07	262.91	11.18	-46.9	-49.7	22.4	6.03e-01	0	43	0	247988224	64	5267
2026-01-21 03:05:38.07	262.76	11.11	-46.8	-49.7	22.4	6.05e-01	0	43	0	250085376	64	5233
2026-01-21 03:05:39.07	262.60	11.04	-47.0	-49.9	22.4	6.04e-01	0	43	0	251658240	64	5345
2026-01-21 03:05:40.07	262.45	10.97	-47.0	-49.8	22.4	6.02e-01	0	43	0	253755392	64	5318
2026-01-21 03:05:41.06	262.30	10.90	-46.9	-49.7	22.4	6.03e-01	0	43	0	255852544	64	5278
2026-01-21 03:05:42.06	262.15	10.83	-46.9	-49.7	22.4	6.05e-01	0	43	0	257425408	64	5272
2026-01-21 03:05:43.07	262.00	10.76	-47.0	-49.8	22.4	6.04e-01	0	43	0	259522560	64	5296
2026-01-21 03:05:44.06	261.85	10.69	-46.9	-49.7	22.4	6.02e-01	0	43	0	261095424	64	5260
2026-01-21 03:05:45.06	261.70	10.63	-46.9	-49.8	22.4	6.03e-01	0	43	0	263192576	64	5284
2026-01-21 03:05:46.07	261.55	10.56	-47.0	-49.9	22.3	6.03e-01	0	43	0	264765440	64	5356
2026-01-21 03:05:47.07	261.41	10.49	-47.1	-50.0	22.2	6.03e-01	0	43	0	266862592	64	5440
2026-01-21 03:05:48.07	261.26	10.42	-47.0	-49.9	22.2	6.06e-01	0	43	0	268959744	64	5401
2026-01-21 03:05:49.07	261.12	10.35	-47.0	-50.0	22.2	6.04e-01	0	43	0	270532608	64	5408
2026-01-21 03:05:50.07	260.97	10.28	-46.8	-49.7	22.4	6.03e-01	0	43	0	272629760	64	5243
2026-01-21 03:05:51.07	260.83	10.21	-46.9	-49.9	22.3	6.05e-01	0	44	0	274202624	64	5367
2026-01-21 03:05:52.07	260.68	10.15	-47.1	-50.1	22.1	6.03e-01	0	43	0	276299776	64	5486
2026-01-21 03:05:53.08	260.54	10.08	-46.9	-49.9	22.2	6.05e-01	0	43	0	278396928	64	5357
2026-01-21 03:05:54.08	260.40	10.01	-47.0	-49.9	22.2	6.02e-01	0	43	0	279969792	64	5384
2026-01-21 03:05:55.07	260.26	9.94	-47.2	-50.2	22.0	6.04e-01	0	43	0	282066944	64	5554
2026-01-21 03:05:56.07	260.12	9.87	-47.1	-50.1	22.1	6.04e-01	0	43	0	283639808	64	5471
2026-01-21 03:05:57.07	259.98	9.81	-47.2	-50.2	22.0	6.04e-01	0	43	0	285736960	65	5243
2026-01-21 03:05:58.08	259.84	9.74	-47.1	-50.1	22.1	6.03e-01	0	43	0	287309824	65	5164
2026-01-21 03:05:59.08	259.70	9.67	-47.1	-50.0	22.1	6.04e-01	0	43	0	289406976	65	5154
2026-01-21 03:06:00.08	259.56	9.60	-47.1	-50.1	22.0	6.07e-01	0	43	0	291504128	65	5167
2026-01-21 03:06:01.08	259.42	9.53	-47.0	-50.0	22.1	6.03e-01	0	43	0	293076992	65	5112
2026-01-21 03:06:02.08	259.29	9.47	-47.2	-50.2	22.0	6.04e-01	0	43	0	295174144	65	5247
2026-01-21 03:06:03.08	259.15	9.40	-47.3	-50.2	21.9	6.04e-01	0	43	0	296747008	65	5258
2026-01-21 03:06:04.08	259.02	9.33	-47.2	-50.2	22.0	6.01e-01	0	43	0	298844160	65	5236
2026-01-21 03:06:05.08	258.88	9.26	-47.2	-50.1	22.0	6.04e-01	0	43	0	300417024	65	5197
2026-01-21 03:06:06.08	258.75	9.20	-47.4	-50.3	21.8	6.02e-01	0	43	0	302514176	65	5314
2026-01-21 03:06:07.08	258.62	9.13	-47.3	-50.3	21.8	6.05e-01	0	43	0	304611328	65	5281
2026-01-21 03:06:08.09	258.48	9.06	-47.3	-50.2	21.9	6.03e-01	0	43	0	306184192	65	5241
2026-01-21 03:06:09.08	258.35	8.99	-53.1	-72.6	3.6	7.53e-01	0	43	104	307757056	77	34730
2026-01-21 03:06:10.08	258.22	8.93	-53.6	-73.8	3.8	7.46e-01	0	43	104	307757056	78	37806
2026-01-21 03:06:11.07	258.09	8.86	-53.9	-74.0	3.8	7.45e-01	0	43	104	307757056	78	38624
2026-01-21 03:06:12.07	257.97	8.79	-54.0	-74.1	3.8	7.43e-01	0	43	104	307757056	78	38866
2026-01-21 03:06:13.07	257.84	8.73	-54.2	-74.2	3.8	7.46e-01	0	43	104	307757056	78	39158
2026-01-21 03:06:14.06	257.71	8.66	-54.2	-74.2	3.8	7.45e-01	0	43	104	307757056	79	37342
2026-01-21 03:06:15.06	257.58	8.59	-54.3	-74.3	3.8	7.42e-01	0	43	104	307757056	79	37515
2026-01-21 03:06:16.05	257.46	8.53	-54.4	-74.3	3.8	7.42e-01	0	43	104	307757056	79	37597
2026-01-21 03:06:17.05	257.33	8.46	-54.3	-74.3	3.8	7.47e-01	0	43	104	307757056	79	37701
2026-01-21 03:06:18.04	257.21	8.39	-54.4	-74.4	3.8	7.46e-01	0	43	104	307757056	79	37826
2026-01-21 03:06:19.03	257.08	8.33	-54.3	-74.4	3.8	7.50e-01	0	43	104	307757056	79	37835
2026-01-21 03:06:20.03	256.96	8.26	-54.3	-74.4	3.8	7.45e-01	0	43	104	307757056	79	37930
2026-01-21 03:06:21.03	256.83	8.19	-54.2	-74.4	3.8	7.43e-01	0	43	104	307757056	79	38006
2026-01-21 03:06:22.02	256.71	8.13	-54.1	-74.4	3.8	7.43e-01	0	43	104	307757056	79	37976
2026-01-21 03:06:23.02	256.59	8.06	-54.0	-74.4	3.8	7.48e-01	0	43	104	307757056	79	37986
2026-01-21 03:06:24.02	256.47	8.00	-54.0	-74.4	3.8	7.43e-01	0	43	104	307757056	79	38113
2026-01-21 03:06:25.01	256.35	7.93	-53.9	-74.4	3.8	7.47e-01	0	43	104	307757056	79	37884
2026-01-21 03:06:26.01	256.23	7.87	-53.9	-74.4	3.8	7.45e-01	0	44	104	307757056	79	37955
2026-01-21 03:06:27.00	256.11	7.80	-54.0	-74.4	3.8	7.48e-01	0	43	104	307757056	79	37954
2026-01-21 03:06:28.00	255.99	7.73	-54.0	-74.4	3.8	7.42e-01	0	43	104	307757056	79	37909
2026-01-21 03:06:28.99	255.87	7.67	-54.1	-74.4	3.8	7.44e-01	0	43	104	307757056	79	37894
2026-01-21 03:06:29.99	255.75	7.60	-54.1	-74.4	3.8	7.44e-01	0	43	104	307757056	79	37883
2026-01-21 03:06:30.99	255.64	7.54	-53.8	-74.3	3.8	7.46e-01	0	43	104	307757056	79	37691
2026-01-21 03:06:31.98	255.52	7.47	-53.8	-74.3	3.8	7.49e-01	0	44	104	307757056	79	37743
2026-01-21 03:06:32.98	255.40	7.41	-53.8	-74.3	3.8	7.46e-01	0	43	104	307757056	79	37743
2026-01-21 03:06:33.98	255.29	7.34	-53.8	-74.3	3.8	7.45e-01	0	43	104	307757056	79	37539
2026-01-21 03:06:34.97	255.17	7.28	-53.8	-74.3	3.8	7.44e-01	0	44	104	307757056	79	37724
2026-01-21 03:06:35.97	255.06	7.21	-53.8	-74.3	3.8	7.47e-01	0	43	104	307757056	79	37638
2026-01-21 03:06:36.97	254.94	7.15	-53.8	-74.3	3.8	7.45e-01	0	44	104	307757056	79	37661
2026-01-21 03:06:37.96	254.83	7.08	-53.8	-74.3	3.8	7.48e-01	0	43	104	307757056	79	37555
2026-01-21 03:06:38.96	254.72	7.02	-53.8	-74.3	3.8	7.45e-01	0	43	104	307757056	79	37639
2026-01-21 03:06:39.95	254.61	6.95	-53.8	-74.3	3.8	7.48e-01	0	43	104	307757056	79	37610
2026-01-21 03:06:40.95	254.49	6.89	-53.8	-74.3	3.8	7.45e-01	0	44	104	307757056	79	37516
2026-01-21 03:06:41.94	254.38	6.82	-53.8	-74.3	3.8	7.46e-01	0	43	104	307757056	79	37609
2026-01-21 03:06:42.94	254.27	6.76	-53.8	-74.3	3.8	7.45e-01	0	43	104	307757056	79	37639
2026-01-21 03:06:43.93	254.16	6.70	-53.8	-74.3	3.8	7.47e-01	0	44	104	307757056	79	37563
2026-01-21 03:06:44.93	254.05	6.63	-53.8	-74.3	3.8	7.46e-01	0	43	104	307757056	79	37625
2026-01-21 03:06:45.93	253.94	6.57	-53.8	-74.3	3.8	7.48e-01	0	43	104	307757056	79	37487
2026-01-21 03:06:46.92	253.84	6.50	-53.8	-74.3	3.8	7.44e-01	0	44	104	307757056	79	37521
2026-01-21 03:06:47.92	253.73	6.44	-53.8	-74.3	3.8	7.46e-01	0	44	104	307757056	79	37600
2026-01-21 03:06:48.92	253.62	6.37	-53.8	-74.3	3.8	7.47e-01	0	43	104	307757056	79	37570
2026-01-21 03:06:49.91	253.52	6.31	-53.8	-74.3	3.8	7.45e-01	0	43	104	307757056	79	37506
2026-01-21 03:06:50.91	253.41	6.25	-53.8	-74.3	3.8	7.47e-01	0	43	104	307757056	79	37639
2026-01-21 03:06:51.91	253.30	6.18	-53.8	-74.3	3.8	7.50e-01	0	44	104	307757056	79	37547
2026-01-21 03:06:52.91	253.20	6.12	-53.8	-74.3	3.8	7.46e-01	0	44	104	307757056	79	37562
2026-01-21 03:06:53.90	253.09	6.06	-53.8	-74.3	3.8	7.50e-01	0	43	104	307757056	79	37505
2026-01-21 03:06:54.90	252.99	5.99	-53.8	-74.3	3.8	7.45e-01	0	44	104	307757056	79	37591
2026-01-21 03:06:55.90	252.88	5.93	-53.8	-74.3	3.8	7.47e-01	0	43	104	307757056	79	37549
2026-01-21 03:06:56.89	252.78	5.87	-53.8	-74.3	3.8	7.48e-01	0	44	104	307757056	79	37478
2026-01-21 03:06:57.89	252.68	5.80	-53.8	-74.3	3.8	7.46e-01	0	44	104	307757056	79	37565
2026-01-21 03:06:58.89	252.58	5.74	-53.8	-74.3	3.8	7.44e-01	0	44	104	307757056	79	37449
2026-01-21 03:06:59.88	252.47	5.68	-53.8	-74.3	3.8	7.47e-01	0	44	104	307757056	79	37535
2026-01-21 03:07:00.88	252.37	5.61	-53.8	-74.3	3.8	7.42e-01	0	44	104	307757056	79	37379
2026-01-21 03:07:01.88	252.27	5.55	-53.8	-74.3	3.8	7.47e-01	0	44	104	307757056	79	37482
2026-01-21 03:07:02.88	252.17	5.49	-53.8	-74.3	3.8	7.47e-01	0	43	104	307757056	79	37525
2026-01-21 03:07:03.88	252.07	5.43	-53.8	-74.3	3.8	7.45e-01	0	43	104	307757056	79	37477
2026-01-21 03:07:04.87	251.97	5.36	-53.8	-74.3	3.8	7.45e-01	0	43	104	307757056	79	37612
2026-01-21 03:07:05.87	251.87	5.30	-53.8	-74.3	3.8	7.45e-01	0	44	104	307757056	79	37595
2026-01-21 03:07:06.87	251.77	5.24	-53.8	-74.3	3.8	7.48e-01	0	43	104	307757056	79	37450
2026-01-21 03:07:07.86	251.68	5.18	-53.8	-74.3	3.8	7.46e-01	0	43	104	307757056	79	37402
2026-01-21 03:07:08.86	251.58	5.11	-53.8	-74.3	3.8	7.44e-01	0	44	104	307757056	79	37499
2026-01-21 03:07:09.86	251.48	5.05	-53.8	-74.3	3.8	7.46e-01	0	43	104	307757056	79	37463
2026-01-21 03:07:10.86	251.38	4.99	-53.8	-74.3	3.8	7.44e-01	0	44	104	307757056	79	37467
2026-01-21 03:07:11.85	251.29	4.93	-53.8	-74.3	3.8	7.44e-01	0	43	104	307757056	79	37560

#Closed at: 2026-01-21 03:07:12
#Recorded file [307 MB]: D:/Data/31040_260121_055748.dat