passes_logs/2026/01/21/T1/T1__20260121_123126_AQUA_rec.log

#Pass ID: 20260121_123126_AQUA
#Satellite: AQUA
#Configuration: AQUA
#almurnet v.1.7.20251203
#Start time: 2026-01-21 12:31:25

#Version: 2.0.20230620
#Station: T1
#Location: 37.570604 lon 55.790049 lat
#TLE: 1 27424U 02022A   26020.90316333  .00002787  00000+0  56766-3 0  9999
#TLE: 2 27424  98.4095 347.4297 0002000  71.6339 309.8236 14.61840001261750

#Time	Az	El	Level	Level2	SNR	BER	BlckErr	Temp	State	Recorded	gain1	gain2
2026-01-21 12:31:25.98	189.56	4.99	-51.6	-73.1	3.8	7.48e-01	0	36	0	0	75	41230
2026-01-21 12:31:26.97	189.62	5.06	-51.4	-73.3	3.8	7.48e-01	0	36	104	0	73	47331
2026-01-21 12:31:27.96	189.68	5.13	-51.4	-73.2	3.8	7.46e-01	0	36	104	0	73	47024
2026-01-21 12:31:28.96	189.74	5.20	-51.4	-73.3	3.8	7.47e-01	0	36	104	0	73	47546
2026-01-21 12:31:29.95	189.80	5.27	-51.4	-73.4	3.8	7.46e-01	0	36	104	0	73	47664
2026-01-21 12:31:30.94	189.86	5.35	-51.4	-73.4	3.8	7.45e-01	0	36	104	0	73	47932
2026-01-21 12:31:31.94	189.92	5.42	-51.3	-73.4	3.8	7.46e-01	0	36	104	0	73	47738
2026-01-21 12:31:32.93	189.98	5.49	-51.4	-73.3	3.8	7.45e-01	0	36	104	0	73	47158
2026-01-21 12:31:33.92	190.04	5.56	-51.4	-72.8	3.8	7.48e-01	0	36	104	0	73	44783
2026-01-21 12:31:34.91	190.10	5.63	-51.4	-72.9	3.8	7.47e-01	0	36	104	0	73	45024
2026-01-21 12:31:35.91	190.16	5.71	-51.3	-72.2	3.8	7.44e-01	0	36	104	0	73	41787
2026-01-21 12:31:36.90	190.22	5.78	-51.3	-72.0	3.8	7.50e-01	0	36	104	0	73	40960
2026-01-21 12:31:37.89	190.28	5.85	-51.3	-72.2	3.8	7.49e-01	0	36	104	0	73	41522
2026-01-21 12:31:38.88	190.34	5.92	-51.3	-72.3	3.8	7.45e-01	0	36	104	0	73	41963
2026-01-21 12:31:39.88	190.41	6.00	-51.3	-72.2	3.8	7.43e-01	0	37	104	0	73	41573
2026-01-21 12:31:40.87	190.47	6.07	-51.3	-72.5	3.8	7.47e-01	0	36	104	0	73	43304
2026-01-21 12:31:41.87	190.53	6.14	-51.3	-73.0	3.8	7.48e-01	0	36	104	0	73	45478
2026-01-21 12:31:42.86	190.60	6.22	-51.3	-73.0	3.8	7.45e-01	0	36	104	0	73	45930
2026-01-21 12:31:43.85	190.66	6.29	-51.3	-72.9	3.8	7.45e-01	0	36	104	0	73	44938
2026-01-21 12:31:44.85	190.72	6.36	-51.3	-72.3	3.8	7.47e-01	0	36	104	0	73	42104
2026-01-21 12:31:45.84	190.79	6.44	-51.3	-72.0	3.8	7.42e-01	0	37	104	0	73	40656
2026-01-21 12:31:46.83	190.85	6.51	-51.3	-72.0	3.8	7.44e-01	0	37	104	0	73	40894
2026-01-21 12:31:47.83	190.92	6.59	-51.3	-72.4	3.8	7.46e-01	0	37	104	0	73	42695
2026-01-21 12:31:48.82	190.98	6.66	-51.3	-72.6	3.8	7.44e-01	0	37	104	0	73	43413
2026-01-21 12:31:49.81	191.05	6.74	-51.3	-72.6	3.8	7.45e-01	0	37	104	0	73	43498
2026-01-21 12:31:50.81	191.12	6.81	-51.3	-72.5	3.8	7.44e-01	0	37	104	0	73	43164
2026-01-21 12:31:51.80	191.18	6.89	-51.3	-72.7	3.8	7.46e-01	0	37	104	0	73	44160
2026-01-21 12:31:52.79	191.25	6.96	-51.3	-72.8	3.8	7.45e-01	0	37	104	0	73	44854
2026-01-21 12:31:53.79	191.32	7.04	-51.3	-72.1	3.8	7.45e-01	0	37	104	0	73	41320
2026-01-21 12:31:54.78	191.38	7.12	-51.3	-70.9	3.8	7.43e-01	0	37	104	0	73	35825
2026-01-21 12:31:55.77	191.45	7.19	-51.2	-68.8	4.5	7.25e-01	0	37	104	0	73	28288
2026-01-21 12:31:56.77	191.52	7.27	-51.1	-67.4	5.2	7.08e-01	0	37	0	0	73	24046
2026-01-21 12:31:57.76	191.59	7.35	-51.2	-67.0	5.5	6.96e-01	0	37	0	0	73	22834
2026-01-21 12:31:58.75	191.66	7.42	-51.2	-67.6	5.2	7.06e-01	0	37	0	524288	73	24411
2026-01-21 12:31:59.74	191.73	7.50	-51.3	-70.6	3.8	7.45e-01	0	37	104	524288	73	34714
2026-01-21 12:32:00.74	191.80	7.58	-51.3	-73.2	3.8	7.43e-01	0	37	104	524288	73	47037
2026-01-21 12:32:01.73	191.87	7.66	-51.2	-69.7	4.2	7.32e-01	0	37	104	524288	73	31122
2026-01-21 12:32:02.73	191.94	7.73	-51.0	-63.9	8.0	6.48e-01	0	37	0	1048576	73	16058
2026-01-21 12:32:03.72	192.01	7.81	-50.5	-59.9	12.1	6.14e-01	0	37	0	3145728	73	10173
2026-01-21 12:32:04.71	192.08	7.89	-49.8	-56.6	15.6	6.09e-01	0	37	0	4718592	71	7767
2026-01-21 12:32:05.71	192.15	7.97	-49.0	-54.5	17.7	6.06e-01	0	37	0	6815744	70	6450
2026-01-21 12:32:06.70	192.22	8.05	-48.2	-52.8	18.8	6.07e-01	0	37	0	8388608	68	5927
2026-01-21 12:32:07.69	192.30	8.13	-47.6	-51.7	20.3	6.07e-01	0	37	0	10485760	67	5557
2026-01-21 12:32:08.69	192.37	8.21	-47.3	-51.2	20.8	6.06e-01	0	37	0	12582912	66	5582
2026-01-21 12:32:09.68	192.44	8.29	-47.1	-51.0	21.0	6.07e-01	0	37	0	14155776	66	5418
2026-01-21 12:32:10.67	192.52	8.37	-47.0	-50.8	21.2	6.07e-01	0	37	0	16252928	66	5310
2026-01-21 12:32:11.67	192.59	8.45	-47.3	-51.3	20.7	6.07e-01	0	37	0	17825792	66	5637
2026-01-21 12:32:12.66	192.67	8.53	-47.7	-51.9	20.2	6.07e-01	0	37	0	19922944	66	6040
2026-01-21 12:32:13.65	192.74	8.61	-48.4	-53.2	19.0	6.08e-01	0	37	0	21495808	67	6611
2026-01-21 12:32:14.65	192.82	8.69	-48.9	-54.3	18.0	6.07e-01	0	37	0	23592960	68	7071
2026-01-21 12:32:15.64	192.89	8.77	-49.6	-56.0	16.4	6.07e-01	0	37	0	25165824	69	8086
2026-01-21 12:32:16.63	192.97	8.85	-50.1	-57.7	14.6	6.07e-01	0	37	0	27262976	70	9335
2026-01-21 12:32:17.63	193.05	8.93	-50.5	-59.4	13.0	6.10e-01	0	37	0	28835840	71	10692
2026-01-21 12:32:18.62	193.12	9.02	-50.7	-61.1	11.0	6.17e-01	0	37	0	30932992	72	12289
2026-01-21 12:32:19.61	193.20	9.10	-50.2	-57.6	14.2	6.08e-01	0	37	0	33030144	72	8195
2026-01-21 12:32:20.61	193.28	9.18	-49.7	-55.7	16.6	6.07e-01	0	37	0	34603008	71	7024
2026-01-21 12:32:21.60	193.36	9.26	-51.1	-62.6	9.8	6.25e-01	0	37	0	36700160	72	14647
2026-01-21 12:32:22.60	193.44	9.35	-51.2	-63.6	8.3	6.39e-01	0	38	0	38273024	73	15525
2026-01-21 12:32:23.60	193.52	9.43	-49.3	-54.6	17.4	6.08e-01	0	38	0	40370176	70	6530
2026-01-21 12:32:24.68	193.61	9.52	-49.0	-53.6	18.7	6.08e-01	0	37	0	42467328	69	6178
2026-01-21 12:32:25.59	193.68	9.60	-48.9	-53.6	18.9	6.08e-01	0	38	0	44040192	69	6164
2026-01-21 12:32:26.79	193.78	9.70	-49.1	-54.0	18.7	6.06e-01	0	38	0	46137344	69	6449
2026-01-21 12:32:27.64	193.85	9.77	-49.1	-53.8	18.7	6.06e-01	0	38	0	47710208	69	6306
2026-01-21 12:32:28.97	193.96	9.89	-49.0	-53.7	18.8	6.08e-01	0	38	0	50331648	69	6227
2026-01-21 12:32:29.68	194.02	9.95	-48.8	-53.2	18.9	6.06e-01	0	37	0	51904512	69	5906
2026-01-21 12:32:30.95	194.12	10.06	-48.8	-53.1	19.3	6.05e-01	0	37	0	54001664	68	6190
2026-01-21 12:32:31.68	194.19	10.12	-48.6	-52.8	19.4	6.05e-01	0	38	0	55574528	68	5932
2026-01-21 12:32:32.96	194.29	10.23	-48.6	-52.7	19.6	6.07e-01	0	37	0	57671680	68	5858
2026-01-21 12:32:33.68	194.36	10.29	-48.5	-52.5	19.8	6.08e-01	0	38	0	59244544	68	5783
2026-01-21 12:32:34.96	194.47	10.40	-48.1	-51.9	20.4	6.07e-01	0	37	0	61865984	68	5370
2026-01-21 12:32:35.72	194.53	10.47	-48.3	-52.1	20.2	6.08e-01	0	38	0	62914560	68	5496
2026-01-21 12:32:36.99	194.64	10.58	-48.0	-51.7	20.8	6.08e-01	0	38	0	65536000	67	5582
2026-01-21 12:32:37.70	194.70	10.64	-47.7	-51.4	20.6	6.05e-01	0	37	0	66584576	67	5375
2026-01-21 12:32:38.98	194.82	10.76	-47.1	-50.4	21.7	6.06e-01	0	38	0	69206016	66	5095
2026-01-21 12:32:39.69	194.88	10.82	-46.9	-50.2	22.0	6.07e-01	0	38	0	70254592	65	5221
2026-01-21 12:32:40.97	194.99	10.93	-46.7	-49.8	22.3	6.04e-01	0	38	0	72876032	65	5012
2026-01-21 12:32:41.71	195.06	11.00	-46.6	-49.7	22.4	6.09e-01	0	38	0	74448896	65	4980
2026-01-21 12:32:43.12	195.19	11.13	-46.6	-49.7	22.5	6.07e-01	0	37	0	77070336	65	4933
2026-01-21 12:32:43.83	195.25	11.19	-46.6	-49.6	22.5	6.07e-01	0	38	0	78118912	65	4920
2026-01-21 12:32:45.16	195.37	11.31	-46.5	-49.6	22.5	6.07e-01	0	38	0	80740352	65	4898
2026-01-21 12:32:45.87	195.44	11.37	-46.3	-49.3	22.8	6.07e-01	0	38	0	81788928	64	5005
2026-01-21 12:32:47.21	195.56	11.49	-46.4	-49.4	22.7	6.05e-01	0	38	0	84410368	64	5073
2026-01-21 12:32:47.92	195.63	11.56	-46.5	-49.5	22.7	6.06e-01	0	38	0	85983232	64	5115
2026-01-21 12:32:49.25	195.76	11.68	-46.4	-49.4	22.7	6.06e-01	0	38	0	88604672	64	5060
2026-01-21 12:32:49.96	195.82	11.75	-46.3	-49.2	22.8	6.06e-01	0	38	0	89653248	64	4973
2026-01-21 12:32:51.27	195.95	11.87	-46.4	-49.3	22.8	6.08e-01	0	38	0	92274688	64	5000
2026-01-21 12:32:51.98	196.02	11.93	-46.4	-49.3	22.8	6.06e-01	0	38	0	93323264	64	5018
2026-01-21 12:32:53.26	196.14	12.05	-46.3	-49.3	22.8	6.06e-01	0	38	0	95944704	64	5015
2026-01-21 12:32:54.00	196.21	12.12	-46.3	-49.3	22.9	6.08e-01	0	38	0	97517568	64	4992
2026-01-21 12:32:55.28	196.34	12.24	-46.3	-49.3	22.8	6.07e-01	0	38	0	99614720	64	4997
2026-01-21 12:32:55.99	196.41	12.30	-46.2	-49.2	23.0	6.06e-01	0	38	0	101187584	64	4929
2026-01-21 12:32:57.27	196.53	12.43	-46.1	-49.1	23.0	6.07e-01	0	38	0	103284736	64	4887
2026-01-21 12:32:58.00	196.61	12.49	-46.2	-49.1	23.0	6.06e-01	0	38	0	104857600	64	4906
2026-01-21 12:32:59.27	196.73	12.61	-46.2	-49.2	22.9	6.08e-01	0	38	0	106954752	64	4961
2026-01-21 12:33:00.02	196.81	12.69	-46.2	-49.2	22.9	6.07e-01	0	38	0	108527616	64	4951
2026-01-21 12:33:01.30	196.94	12.81	-46.0	-49.0	23.2	6.06e-01	0	38	0	111149056	64	4838
2026-01-21 12:33:02.07	197.02	12.88	-46.0	-48.9	23.2	6.05e-01	0	38	0	112197632	64	4797
2026-01-21 12:33:03.65	197.18	13.03	-46.2	-49.1	23.1	6.09e-01	0	38	0	115343360	63	5206
2026-01-21 12:33:04.26	197.24	13.09	-46.2	-49.2	23.0	6.08e-01	0	38	0	116391936	63	5251
2026-01-21 12:33:05.83	197.41	13.24	-46.2	-49.2	23.0	6.08e-01	0	38	0	119537664	63	5274
2026-01-21 12:33:06.47	197.48	13.31	-46.2	-49.2	23.1	6.07e-01	0	38	0	120586240	63	5224
2026-01-21 12:33:07.90	197.63	13.45	-46.2	-49.1	23.1	6.08e-01	0	38	0	123207680	63	5184
2026-01-21 12:33:08.61	197.70	13.51	-46.1	-49.0	23.1	6.06e-01	0	38	0	124780544	63	5145
2026-01-21 12:33:09.89	197.84	13.64	-46.0	-48.9	23.3	6.05e-01	0	38	0	127401984	63	5076
2026-01-21 12:33:10.61	197.92	13.71	-46.0	-48.8	23.4	6.06e-01	0	38	0	128450560	63	5028
2026-01-21 12:33:11.89	198.06	13.84	-46.1	-48.9	23.3	6.06e-01	0	38	0	131072000	63	5077
2026-01-21 12:33:12.62	198.14	13.91	-46.1	-48.9	23.3	6.06e-01	0	38	0	132120576	63	5088
2026-01-21 12:33:13.90	198.28	14.04	-46.1	-48.9	23.3	6.08e-01	0	38	0	134742016	63	5083
2026-01-21 12:33:14.64	198.37	14.11	-46.1	-48.9	23.3	6.07e-01	0	38	0	135790592	63	5091
2026-01-21 12:33:16.04	198.52	14.25	-46.2	-49.0	23.2	6.06e-01	0	38	0	138412032	63	5113
2026-01-21 12:33:16.75	198.60	14.32	-46.0	-48.7	23.5	6.06e-01	0	38	0	139984896	63	4983
2026-01-21 12:33:18.03	198.75	14.45	-46.1	-48.8	23.4	6.06e-01	0	38	0	142606336	63	5036
2026-01-21 12:33:18.76	198.83	14.53	-46.1	-48.8	23.4	6.05e-01	0	38	0	143654912	63	5039
2026-01-21 12:33:20.17	199.00	14.67	-46.1	-48.8	23.5	6.06e-01	0	38	0	146276352	63	4997
2026-01-21 12:33:20.87	199.08	14.74	-46.1	-48.8	23.5	6.07e-01	0	38	0	147849216	63	4984
2026-01-21 12:33:22.15	199.23	14.88	-46.2	-48.8	23.5	6.08e-01	0	38	0	149946368	63	5003
2026-01-21 12:33:22.86	199.31	14.95	-46.2	-48.8	23.4	6.06e-01	0	38	0	151519232	63	5006
2026-01-21 12:33:24.24	199.48	15.09	-46.1	-48.7	23.6	6.06e-01	0	38	0	154140672	63	4932
2026-01-21 12:33:24.95	199.56	15.17	-46.2	-48.8	23.4	6.06e-01	0	38	0	155189248	63	5032
2026-01-21 12:33:26.23	199.72	15.30	-46.2	-48.8	23.5	6.07e-01	0	38	0	157810688	63	5006
2026-01-21 12:33:26.95	199.81	15.37	-46.2	-48.8	23.4	6.07e-01	0	38	0	158859264	63	5035
2026-01-21 12:33:28.24	199.96	15.51	-46.0	-48.6	23.7	6.09e-01	0	38	0	161480704	63	4874
2026-01-21 12:33:28.95	200.05	15.59	-45.9	-48.5	23.7	6.04e-01	0	38	0	163053568	63	4840
2026-01-21 12:33:30.23	200.21	15.72	-46.0	-48.6	23.6	6.07e-01	0	38	0	165150720	63	4895
2026-01-21 12:33:30.95	200.30	15.80	-46.0	-48.6	23.6	6.08e-01	0	38	0	166723584	63	4925
2026-01-21 12:33:32.23	200.46	15.93	-46.1	-48.8	23.5	6.06e-01	0	38	0	168820736	63	4987
2026-01-21 12:33:32.96	200.56	16.01	-46.1	-48.7	23.5	6.07e-01	0	38	0	170393600	63	4972
2026-01-21 12:33:34.24	200.72	16.15	-46.0	-48.6	23.6	6.07e-01	0	38	0	173015040	63	4892
2026-01-21 12:33:35.06	200.83	16.24	-46.0	-48.7	23.6	6.08e-01	0	38	0	174063616	63	4931
2026-01-21 12:33:36.49	201.01	16.39	-45.9	-48.5	23.7	6.05e-01	0	38	0	177209344	63	4836
2026-01-21 12:33:37.20	201.11	16.47	-45.8	-48.4	23.8	6.07e-01	0	38	0	178257920	63	4810
2026-01-21 12:33:38.69	201.30	16.63	-45.9	-48.5	23.7	6.05e-01	0	38	0	180879360	63	4843
2026-01-21 12:33:39.65	201.43	16.74	-46.0	-48.6	23.6	6.05e-01	0	38	0	182976512	63	4912
2026-01-21 12:33:40.97	201.61	16.88	-45.9	-48.6	23.6	6.04e-01	0	38	0	185597952	63	4903
2026-01-21 12:33:41.68	201.71	16.96	-46.0	-48.7	23.6	6.06e-01	0	38	0	186646528	63	4933
2026-01-21 12:33:42.95	201.88	17.10	-45.9	-48.6	23.6	6.08e-01	0	38	0	189267968	63	4884
2026-01-21 12:33:43.68	201.98	17.18	-45.8	-48.5	23.7	6.06e-01	0	38	0	190316544	63	4848
2026-01-21 12:33:44.96	202.16	17.33	-45.9	-48.5	23.7	6.05e-01	0	38	0	192937984	63	4868
2026-01-21 12:33:45.68	202.26	17.41	-45.9	-48.6	23.7	6.05e-01	0	38	0	194510848	63	4871
2026-01-21 12:33:46.96	202.44	17.55	-46.0	-48.6	23.6	6.07e-01	0	38	0	196608000	63	4906
2026-01-21 12:33:47.70	202.55	17.64	-46.1	-48.8	23.5	6.05e-01	0	38	0	198180864	63	4991
2026-01-21 12:33:49.04	202.74	17.79	-46.1	-48.7	23.6	6.05e-01	0	38	0	200802304	63	4976
2026-01-21 12:33:49.76	202.84	17.87	-46.1	-48.7	23.6	6.07e-01	0	38	0	201850880	63	4948
2026-01-21 12:33:51.03	203.03	18.01	-46.1	-48.7	23.6	6.07e-01	0	38	0	204472320	63	4961
2026-01-21 12:33:51.76	203.14	18.10	-46.0	-48.6	23.7	6.06e-01	0	38	0	205520896	63	4901
2026-01-21 12:33:53.04	203.32	18.25	-46.0	-48.6	23.7	6.07e-01	0	38	0	208142336	63	4875
2026-01-21 12:33:53.75	203.43	18.33	-46.1	-48.6	23.7	6.04e-01	0	38	0	209190912	63	4903
2026-01-21 12:33:55.25	203.66	18.50	-46.0	-48.5	23.7	6.07e-01	0	38	0	212336640	63	4870
2026-01-21 12:33:55.96	203.76	18.58	-46.1	-48.6	23.8	6.07e-01	0	38	0	213385216	63	4886
2026-01-21 12:33:57.24	203.96	18.73	-46.1	-48.7	23.6	6.07e-01	0	38	0	216006656	63	4943
2026-01-21 12:33:57.96	204.07	18.82	-46.2	-48.7	23.6	6.07e-01	0	38	0	217055232	63	4973
2026-01-21 12:33:59.24	204.27	18.97	-46.1	-48.7	23.7	6.06e-01	0	38	0	219676672	63	4943
2026-01-21 12:33:59.98	204.39	19.06	-46.1	-48.6	23.7	6.07e-01	0	38	0	221249536	63	4887
2026-01-21 12:34:01.26	204.59	19.21	-46.2	-48.8	23.6	6.07e-01	0	38	0	223346688	63	5010
2026-01-21 12:34:01.97	204.70	19.29	-46.2	-48.8	23.5	6.07e-01	0	38	0	224919552	63	4999
2026-01-21 12:34:03.25	204.91	19.45	-46.3	-49.0	23.4	6.05e-01	0	38	0	227016704	63	5105
2026-01-21 12:34:04.01	205.03	19.54	-46.3	-48.9	23.4	6.07e-01	0	38	0	228589568	63	5077
2026-01-21 12:34:05.29	205.24	19.69	-46.2	-48.7	23.6	6.07e-01	0	38	0	231211008	63	4976
2026-01-21 12:34:06.07	205.37	19.78	-46.1	-48.7	23.6	6.06e-01	0	38	0	232259584	63	4951
2026-01-21 12:34:07.54	205.61	19.96	-46.1	-48.7	23.7	6.07e-01	0	38	0	235405312	63	4938
2026-01-21 12:34:08.26	205.73	20.05	-46.1	-48.6	23.7	6.05e-01	0	38	0	236453888	63	4917
2026-01-21 12:34:09.54	205.95	20.21	-46.1	-48.7	23.7	6.08e-01	0	38	0	239075328	63	4943
2026-01-21 12:34:10.25	206.07	20.29	-46.2	-48.7	23.7	6.09e-01	0	38	0	240123904	63	4976
2026-01-21 12:34:11.53	206.29	20.45	-46.1	-48.7	23.7	6.09e-01	0	38	0	242745344	63	4957
2026-01-21 12:34:12.25	206.41	20.54	-46.1	-48.6	23.7	6.06e-01	0	38	0	243793920	63	4906
2026-01-21 12:34:13.53	206.64	20.70	-46.1	-48.6	23.7	6.06e-01	0	38	0	246415360	63	4907
2026-01-21 12:34:14.26	206.76	20.79	-46.1	-48.6	23.7	6.07e-01	0	38	0	247988224	63	4895
2026-01-21 12:34:15.53	206.99	20.95	-46.2	-48.7	23.7	6.06e-01	0	38	0	250085376	63	4946
2026-01-21 12:34:16.25	207.12	21.04	-46.3	-48.8	23.6	6.06e-01	0	38	0	251658240	63	5008
2026-01-21 12:34:17.52	207.35	21.19	-46.3	-48.9	23.5	6.07e-01	0	38	0	253755392	63	5048
2026-01-21 12:34:18.26	207.48	21.29	-46.3	-48.9	23.5	6.07e-01	0	38	0	255328256	63	5064
2026-01-21 12:34:19.54	207.72	21.45	-46.2	-48.8	23.6	6.07e-01	0	38	0	257949696	63	5017
2026-01-21 12:34:20.25	207.85	21.54	-46.3	-48.8	23.5	6.06e-01	0	38	0	258998272	63	5028
2026-01-21 12:34:21.53	208.09	21.70	-46.1	-48.6	23.7	6.05e-01	0	38	0	261619712	63	4925
2026-01-21 12:34:22.26	208.22	21.79	-46.1	-48.6	23.7	6.07e-01	0	38	0	262668288	63	4923
2026-01-21 12:34:23.54	208.47	21.96	-46.1	-48.6	23.8	6.08e-01	0	38	0	265289728	63	4898
2026-01-21 12:34:24.25	208.60	22.05	-46.2	-48.7	23.7	6.07e-01	0	38	0	266338304	63	4956
2026-01-21 12:34:25.53	208.85	22.21	-46.2	-48.8	23.6	6.06e-01	0	38	0	268959744	63	5005
2026-01-21 12:34:26.24	208.99	22.31	-46.2	-48.8	23.6	6.08e-01	0	38	0	270532608	63	4991
2026-01-21 12:34:27.52	209.24	22.47	-46.3	-48.9	23.5	6.04e-01	0	38	0	272629760	63	5043
2026-01-21 12:34:28.24	209.38	22.56	-46.2	-48.8	23.6	6.05e-01	0	38	0	274202624	63	5006
2026-01-21 12:34:29.81	209.70	22.77	-46.4	-49.0	22.2	6.09e-01	0	38	0	276824064	63	5139
2026-01-21 12:34:30.52	209.84	22.86	-46.2	-48.8	23.6	6.06e-01	0	38	0	278396928	63	5025
2026-01-21 12:34:31.83	210.11	23.03	-46.1	-48.6	23.7	6.05e-01	0	38	0	280494080	63	4911
2026-01-21 12:34:32.54	210.25	23.13	-46.1	-48.7	23.7	6.06e-01	0	38	0	282066944	63	4938
2026-01-21 12:34:33.82	210.52	23.29	-46.2	-48.8	23.6	6.07e-01	0	38	0	284688384	63	5003
2026-01-21 12:34:34.55	210.67	23.39	-46.3	-48.8	23.6	6.05e-01	0	38	0	285736960	63	5041
2026-01-21 12:34:35.83	210.94	23.56	-46.3	-48.9	23.6	6.06e-01	0	38	0	288358400	63	5051
2026-01-21 12:34:36.55	211.09	23.66	-46.4	-49.0	23.5	6.04e-01	0	38	0	289406976	63	5106
2026-01-21 12:34:37.83	211.37	23.83	-46.1	-48.7	23.7	6.07e-01	0	38	0	292028416	63	4951
2026-01-21 12:34:38.54	211.52	23.92	-46.1	-48.7	23.7	6.06e-01	0	38	0	293601280	63	4946
2026-01-21 12:34:39.82	211.80	24.09	-46.2	-48.8	23.6	6.06e-01	0	38	0	295698432	63	5013
2026-01-21 12:34:40.55	211.96	24.19	-46.2	-48.8	23.5	6.05e-01	0	38	0	297271296	63	5037
2026-01-21 12:34:41.83	212.24	24.36	-46.1	-48.7	23.7	6.05e-01	0	38	0	299368448	63	4964
2026-01-21 12:34:42.54	212.40	24.46	-46.2	-48.8	23.6	6.05e-01	0	38	0	300941312	63	5023
2026-01-21 12:34:43.82	212.69	24.63	-46.2	-48.8	23.6	6.06e-01	0	38	0	303038464	63	4993
2026-01-21 12:34:44.55	212.86	24.73	-46.2	-48.8	23.6	6.06e-01	0	38	0	304611328	63	5025
2026-01-21 12:34:45.82	213.15	24.90	-46.2	-48.7	23.6	6.09e-01	0	38	0	306708480	63	4969
2026-01-21 12:34:46.56	213.32	25.00	-46.2	-48.8	23.7	6.07e-01	0	38	0	308281344	63	4989
2026-01-21 12:34:47.84	213.62	25.18	-46.2	-48.8	23.6	6.06e-01	0	38	0	310902784	63	5016
2026-01-21 12:34:48.57	213.79	25.28	-46.3	-48.8	23.6	6.06e-01	0	38	0	311951360	63	5021
2026-01-21 12:34:49.85	214.10	25.45	-46.4	-48.9	23.5	6.07e-01	0	38	0	314572800	63	5099
2026-01-21 12:34:50.56	214.27	25.55	-46.4	-48.9	23.5	6.09e-01	0	38	0	315621376	63	5092
2026-01-21 12:34:51.84	214.58	25.72	-46.2	-48.7	23.7	6.07e-01	0	38	0	318242816	63	4943
2026-01-21 12:34:52.55	214.75	25.82	-46.2	-48.7	23.7	6.06e-01	0	38	0	319815680	63	4962
2026-01-21 12:34:53.83	215.07	26.00	-46.3	-48.8	23.6	6.07e-01	0	38	0	321912832	63	5005
2026-01-21 12:34:54.55	215.25	26.10	-46.4	-48.9	23.5	6.06e-01	0	38	0	323485696	63	5092
2026-01-21 12:34:55.83	215.57	26.28	-46.4	-49.0	23.5	6.07e-01	0	38	0	325582848	63	5113
2026-01-21 12:34:56.54	215.75	26.37	-46.4	-48.9	23.5	6.06e-01	0	38	0	327155712	63	5100
2026-01-21 12:34:57.82	216.08	26.55	-46.2	-48.8	23.7	6.07e-01	0	38	0	329252864	63	4991
2026-01-21 12:34:58.56	216.27	26.65	-46.2	-48.7	23.7	6.08e-01	0	38	0	330825728	63	4981
2026-01-21 12:34:59.84	216.60	26.83	-46.3	-48.9	23.6	6.06e-01	0	38	0	333447168	63	5060
2026-01-21 12:35:00.55	216.79	26.93	-46.3	-48.8	23.6	6.06e-01	0	38	0	334495744	63	5026
2026-01-21 12:35:01.83	217.13	27.11	-46.3	-48.9	23.6	6.06e-01	0	38	0	337117184	63	5059
2026-01-21 12:35:02.60	217.33	27.22	-46.3	-48.8	23.6	6.07e-01	0	38	0	338690048	63	5034
2026-01-21 12:35:03.88	217.68	27.39	-46.3	-48.9	23.6	6.07e-01	0	38	0	340787200	63	5045
2026-01-21 12:35:04.59	217.87	27.49	-46.4	-48.9	23.5	6.05e-01	0	38	0	342360064	63	5072
2026-01-21 12:35:06.23	218.32	27.72	-46.1	-48.7	23.7	6.05e-01	0	38	0	345505792	63	4934
2026-01-21 12:35:06.80	218.48	27.80	-46.1	-48.6	23.7	6.05e-01	0	38	0	346554368	63	4880
2026-01-21 12:35:08.51	218.96	28.04	-46.3	-48.8	23.6	6.07e-01	0	38	0	349700096	63	5016
2026-01-21 12:35:09.12	219.13	28.13	-46.1	-48.6	23.7	6.07e-01	0	38	0	350748672	63	4921
2026-01-21 12:35:10.69	219.58	28.35	-46.2	-48.7	23.7	6.05e-01	0	38	0	353894400	63	4964
2026-01-21 12:35:11.35	219.77	28.44	-46.3	-48.8	23.7	6.06e-01	0	38	0	354942976	63	5010
2026-01-21 12:35:12.77	220.19	28.64	-46.2	-48.7	23.7	6.05e-01	0	38	0	357564416	63	4950
2026-01-21 12:35:13.48	220.40	28.74	-46.2	-48.7	23.6	6.06e-01	0	38	0	359137280	63	4959
2026-01-21 12:35:14.76	220.78	28.92	-46.2	-48.8	23.7	6.05e-01	0	38	0	361234432	63	4990
2026-01-21 12:35:15.49	221.00	29.02	-46.2	-48.8	23.7	6.05e-01	0	38	0	362807296	63	4993
2026-01-21 12:35:16.77	221.38	29.20	-46.1	-48.7	23.7	6.08e-01	0	38	0	364904448	63	4938
2026-01-21 12:35:17.48	221.60	29.30	-46.2	-48.7	23.7	6.06e-01	0	38	0	366477312	63	4978
2026-01-21 12:35:18.76	221.99	29.48	-46.3	-48.8	23.5	6.05e-01	0	38	0	368574464	63	5033
2026-01-21 12:35:19.56	222.24	29.59	-46.3	-48.8	23.6	6.06e-01	0	38	0	370147328	63	5006
2026-01-21 12:35:20.70	222.60	29.75	-46.2	-48.7	23.7	6.06e-01	0	38	0	372244480	63	4962
2026-01-21 12:35:21.55	222.87	29.86	-46.4	-48.9	23.6	6.07e-01	0	38	0	373817344	63	5052
2026-01-21 12:35:22.69	223.23	30.02	-46.2	-48.7	23.7	6.07e-01	0	38	0	375914496	63	4932
2026-01-21 12:35:23.54	223.51	30.14	-46.1	-48.5	23.9	6.07e-01	0	38	0	377487360	63	4849
2026-01-21 12:35:24.68	223.88	30.30	-46.1	-48.6	23.8	6.07e-01	0	38	0	379584512	63	4913
2026-01-21 12:35:25.53	224.15	30.42	-46.4	-48.9	23.5	6.07e-01	0	38	0	381681664	63	5097
2026-01-21 12:35:26.67	224.53	30.57	-46.3	-48.9	23.6	6.09e-01	0	38	0	383778816	63	5051
2026-01-21 12:35:27.52	224.81	30.69	-46.2	-48.7	23.7	6.06e-01	0	38	0	385351680	63	4947
2026-01-21 12:35:28.66	225.20	30.85	-46.2	-48.6	23.8	6.04e-01	0	38	0	387448832	63	4923
2026-01-21 12:35:29.51	225.48	30.96	-46.2	-48.7	23.8	6.07e-01	0	38	0	389021696	63	4951
2026-01-21 12:35:30.64	225.87	31.12	-46.5	-49.0	23.4	6.09e-01	0	38	0	391118848	63	5149
2026-01-21 12:35:31.50	226.17	31.23	-46.3	-48.8	23.7	6.06e-01	0	38	0	392691712	63	4993
2026-01-21 12:35:32.63	226.56	31.39	-46.2	-48.7	23.8	6.05e-01	0	38	0	394788864	63	4937
2026-01-21 12:35:33.58	226.89	31.52	-46.2	-48.7	23.7	6.07e-01	0	38	0	396361728	63	4976
2026-01-21 12:35:34.58	227.25	31.65	-46.3	-48.8	23.6	6.07e-01	0	38	0	398458880	63	5017
2026-01-21 12:35:35.57	227.60	31.78	-46.2	-48.7	23.7	6.05e-01	0	38	0	400031744	63	4977
2026-01-21 12:35:36.56	227.95	31.92	-46.1	-48.6	23.8	6.07e-01	0	38	0	402128896	63	4917
2026-01-21 12:35:37.56	228.32	32.05	-46.3	-48.8	23.6	6.05e-01	0	38	0	404226048	63	5033
2026-01-21 12:35:38.55	228.68	32.18	-46.3	-48.8	23.6	6.04e-01	0	38	0	405798912	63	4990
2026-01-21 12:35:39.55	229.05	32.31	-46.3	-48.8	23.6	6.08e-01	0	38	0	407896064	63	5012
2026-01-21 12:35:40.54	229.41	32.44	-46.3	-48.8	23.6	6.07e-01	0	38	0	409468928	63	5032
2026-01-21 12:35:41.53	229.78	32.57	-46.1	-48.6	23.8	6.08e-01	0	38	0	411566080	63	4883
2026-01-21 12:35:42.53	230.16	32.70	-46.0	-48.6	23.9	6.06e-01	0	38	0	413138944	63	4886
2026-01-21 12:35:43.52	230.54	32.83	-46.2	-48.8	23.7	6.06e-01	0	38	0	415236096	63	4994
2026-01-21 12:35:44.55	230.93	32.96	-46.3	-48.8	23.6	6.07e-01	0	38	0	417333248	63	5040
2026-01-21 12:35:45.54	231.32	33.09	-46.2	-48.7	23.7	6.06e-01	0	38	0	418906112	63	4974
2026-01-21 12:35:46.54	231.71	33.21	-46.1	-48.6	23.8	6.06e-01	0	38	0	421003264	63	4903
2026-01-21 12:35:47.53	232.10	33.34	-46.2	-48.8	23.6	6.07e-01	0	39	0	422576128	63	5007
2026-01-21 12:35:48.52	232.49	33.46	-46.1	-48.7	23.7	6.05e-01	0	38	0	424673280	63	4934
2026-01-21 12:35:49.52	232.89	33.59	-46.1	-48.7	23.8	6.08e-01	0	38	0	426246144	63	4927
2026-01-21 12:35:50.52	233.29	33.71	-46.3	-48.8	23.6	6.07e-01	0	38	0	428343296	63	5041
2026-01-21 12:35:51.51	233.69	33.83	-46.3	-48.8	23.6	6.03e-01	0	38	0	429916160	63	5032
2026-01-21 12:35:52.51	234.10	33.95	-46.3	-48.8	23.7	6.07e-01	0	39	0	432013312	63	4993
2026-01-21 12:35:53.50	234.50	34.07	-46.4	-48.9	23.5	6.06e-01	0	38	0	434110464	63	5095
2026-01-21 12:35:54.50	234.92	34.19	-46.1	-48.7	23.7	6.07e-01	0	38	0	435683328	63	4949
2026-01-21 12:35:55.49	235.33	34.31	-46.0	-48.6	23.9	6.07e-01	0	38	0	437780480	63	4874
2026-01-21 12:35:56.49	235.75	34.42	-46.1	-48.6	23.9	6.06e-01	0	38	0	439353344	63	4900
2026-01-21 12:35:57.48	236.17	34.54	-46.4	-48.9	23.5	6.07e-01	0	38	0	441450496	63	5098
2026-01-21 12:35:58.48	236.60	34.65	-46.2	-48.7	23.7	6.09e-01	0	38	0	443023360	63	4975
2026-01-21 12:35:59.47	237.02	34.76	-46.2	-48.7	23.7	6.06e-01	0	38	0	445120512	63	4971
2026-01-21 12:36:00.47	237.45	34.87	-46.3	-48.8	23.6	6.06e-01	0	38	0	446693376	63	5030
2026-01-21 12:36:01.46	237.88	34.98	-46.2	-48.7	23.7	6.07e-01	0	38	0	448790528	63	4971
2026-01-21 12:36:02.45	238.32	35.09	-46.4	-48.9	23.6	6.08e-01	0	38	0	450887680	63	5072
2026-01-21 12:36:03.45	238.76	35.20	-46.3	-48.8	23.7	6.08e-01	0	38	0	452460544	63	5000
2026-01-21 12:36:04.44	239.20	35.30	-46.4	-49.0	23.6	6.08e-01	0	38	0	454557696	63	5117
2026-01-21 12:36:05.44	239.65	35.41	-46.3	-48.8	23.6	6.06e-01	0	38	0	456130560	63	5021
2026-01-21 12:36:06.43	240.09	35.51	-46.2	-48.7	23.8	6.08e-01	0	38	0	458227712	63	4936
2026-01-21 12:36:07.43	240.54	35.61	-46.1	-48.5	23.9	6.05e-01	0	38	0	459800576	63	4861
2026-01-21 12:36:08.42	240.99	35.71	-46.2	-48.7	23.7	6.05e-01	0	38	0	461897728	63	4971
2026-01-21 12:36:09.42	241.45	35.81	-46.1	-48.6	23.9	6.04e-01	0	38	0	463470592	63	4873
2026-01-21 12:36:10.41	241.91	35.90	-46.1	-48.6	23.9	6.04e-01	0	38	0	465567744	63	4906
2026-01-21 12:36:11.41	242.37	36.00	-46.3	-48.8	23.7	6.08e-01	0	38	0	467664896	63	4996
2026-01-21 12:36:12.40	242.83	36.09	-46.1	-48.5	23.9	6.06e-01	0	38	0	469237760	63	4863
2026-01-21 12:36:13.40	243.30	36.18	-46.3	-48.9	23.6	6.06e-01	0	38	0	471334912	63	5066
2026-01-21 12:36:14.39	243.77	36.27	-46.1	-48.7	23.8	6.06e-01	0	38	0	472907776	63	4930
2026-01-21 12:36:15.38	244.24	36.36	-46.5	-49.1	23.3	6.04e-01	0	38	0	475004928	63	5211
2026-01-21 12:36:16.38	244.71	36.44	-46.3	-48.9	23.6	6.05e-01	0	38	0	476577792	63	5049
2026-01-21 12:36:17.37	245.19	36.52	-46.1	-48.6	23.8	6.08e-01	0	38	0	478674944	63	4895
2026-01-21 12:36:18.45	245.71	36.61	-46.0	-48.4	24.0	6.06e-01	0	38	0	480772096	63	4801
2026-01-21 12:36:19.33	246.13	36.68	-46.1	-48.6	23.9	6.07e-01	0	38	0	482344960	63	4916
2026-01-21 12:36:20.47	246.69	36.77	-46.1	-48.6	23.8	6.07e-01	0	38	0	484442112	63	4908
2026-01-21 12:36:21.39	247.14	36.84	-46.2	-48.7	23.7	6.05e-01	0	38	0	486014976	63	4967
2026-01-21 12:36:22.38	247.62	36.91	-46.1	-48.5	23.9	6.04e-01	0	38	0	488112128	63	4867
2026-01-21 12:36:23.38	248.12	36.98	-46.1	-48.6	23.9	6.06e-01	0	38	0	489684992	63	4876
2026-01-21 12:36:24.37	248.61	37.05	-46.1	-48.6	23.9	6.07e-01	0	38	0	491782144	63	4902
2026-01-21 12:36:25.37	249.10	37.12	-46.2	-48.6	23.8	6.05e-01	0	38	0	493355008	63	4919
2026-01-21 12:36:26.37	249.60	37.19	-46.1	-48.6	23.9	6.07e-01	0	38	0	495452160	63	4892
2026-01-21 12:36:27.36	250.10	37.25	-46.1	-48.6	23.9	6.04e-01	0	38	0	497549312	63	4888
2026-01-21 12:36:28.35	250.60	37.31	-46.0	-48.5	23.9	6.05e-01	0	38	0	499122176	63	4821
2026-01-21 12:36:29.35	251.10	37.37	-46.0	-48.4	24.0	6.04e-01	0	38	0	501219328	63	4805
2026-01-21 12:36:30.34	251.60	37.42	-46.3	-48.8	23.7	6.06e-01	0	38	0	502792192	63	4999
2026-01-21 12:36:31.34	252.11	37.47	-46.1	-48.6	23.8	6.09e-01	0	38	0	504889344	63	4912
2026-01-21 12:36:32.33	252.62	37.52	-46.1	-48.6	23.8	6.06e-01	0	38	0	506986496	63	4900
2026-01-21 12:36:33.38	253.16	37.58	-46.2	-48.7	23.7	6.06e-01	0	38	0	508559360	63	4961
2026-01-21 12:36:34.35	253.65	37.62	-46.3	-48.8	23.6	6.07e-01	0	38	0	510656512	63	5025
2026-01-21 12:36:35.34	254.16	37.66	-46.3	-48.7	23.7	6.05e-01	0	38	0	512229376	63	4977
2026-01-21 12:36:36.43	254.72	37.71	-46.1	-48.6	23.8	6.07e-01	0	38	0	514326528	63	4896
2026-01-21 12:36:37.32	255.18	37.74	-46.1	-48.6	23.9	6.07e-01	0	38	0	515899392	63	4898
2026-01-21 12:36:38.64	255.87	37.79	-45.9	-48.4	24.0	6.07e-01	0	38	0	518520832	63	4790
2026-01-21 12:36:39.35	256.24	37.82	-46.1	-48.6	23.9	6.06e-01	0	38	0	520093696	63	4893
2026-01-21 12:36:40.63	256.90	37.86	-46.1	-48.6	23.9	6.08e-01	0	38	0	522190848	63	4876
2026-01-21 12:36:41.35	257.28	37.88	-46.1	-48.6	23.8	6.08e-01	0	38	0	523763712	63	4921
2026-01-21 12:36:42.62	257.94	37.91	-45.9	-48.4	24.0	6.07e-01	0	38	0	525860864	63	4794
2026-01-21 12:36:43.35	258.33	37.93	-46.0	-48.5	23.9	6.07e-01	0	38	0	527433728	63	4849
2026-01-21 12:36:44.63	259.00	37.95	-46.1	-48.6	23.9	6.07e-01	0	38	0	529530880	63	4894
2026-01-21 12:36:45.35	259.37	37.97	-46.1	-48.6	23.9	6.07e-01	0	38	0	531103744	63	4886
2026-01-21 12:36:46.63	260.05	37.98	-46.0	-48.5	23.9	6.06e-01	0	38	0	533725184	63	4840
2026-01-21 12:36:47.45	260.48	38.00	-46.0	-48.5	23.9	6.07e-01	0	38	0	535298048	63	4838
2026-01-21 12:36:48.59	261.08	38.01	-45.9	-48.4	23.8	6.05e-01	0	38	0	537395200	63	4770
2026-01-21 12:36:49.63	261.62	38.01	-46.0	-48.5	23.9	6.06e-01	0	38	0	538968064	63	4834
2026-01-21 12:36:50.78	262.23	38.02	-45.8	-48.3	24.1	6.06e-01	0	38	0	541589504	63	4723
2026-01-21 12:36:51.64	262.68	38.02	-45.9	-48.5	23.9	6.05e-01	0	38	0	543162368	63	4833
2026-01-21 12:36:52.77	263.28	38.02	-45.8	-48.4	24.1	6.07e-01	0	38	0	544735232	63	4770
2026-01-21 12:36:53.63	263.73	38.02	-45.8	-48.3	24.1	6.07e-01	0	38	0	546832384	63	4744
2026-01-21 12:36:54.76	264.32	38.01	-46.0	-48.5	24.0	6.08e-01	0	38	0	548929536	63	4854
2026-01-21 12:36:55.79	264.86	38.00	-46.0	-48.4	24.1	6.07e-01	0	38	0	550502400	63	4779
2026-01-21 12:36:56.96	265.48	37.99	-46.2	-48.7	23.7	6.06e-01	0	38	0	552599552	63	4930
2026-01-21 12:36:57.81	265.93	37.98	-46.1	-48.6	23.5	6.08e-01	0	38	0	554696704	63	4922
2026-01-21 12:36:58.95	266.52	37.96	-45.9	-48.3	23.9	6.06e-01	0	38	0	556793856	63	4725
2026-01-21 12:36:59.80	266.97	37.94	-45.8	-48.3	23.8	6.06e-01	0	38	0	558366720	63	4706
2026-01-21 12:37:00.94	267.56	37.92	-46.0	-48.5	24.0	6.07e-01	0	38	0	560463872	63	4822
2026-01-21 12:37:01.79	268.01	37.89	-45.9	-48.3	24.1	6.09e-01	0	38	0	562036736	63	4755
2026-01-21 12:37:02.93	268.60	37.86	-46.0	-48.5	24.0	6.06e-01	0	38	0	564133888	63	4825
2026-01-21 12:37:03.78	269.05	37.84	-45.9	-48.4	23.8	6.06e-01	0	38	0	565706752	63	4787
2026-01-21 12:37:04.92	269.64	37.80	-45.9	-48.4	23.8	6.06e-01	0	38	0	567803904	63	4777
2026-01-21 12:37:05.77	270.08	37.77	-46.0	-48.5	24.0	6.06e-01	0	38	0	569376768	63	4818
2026-01-21 12:37:06.97	270.70	37.73	-46.0	-48.5	23.9	6.07e-01	0	38	0	571473920	63	4853
2026-01-21 12:37:07.82	271.14	37.69	-45.8	-48.2	24.1	6.05e-01	0	38	0	573046784	63	4685
2026-01-21 12:37:09.02	271.76	37.64	-45.9	-48.3	24.1	6.07e-01	0	38	0	575668224	63	4743
2026-01-21 12:37:09.88	272.20	37.60	-45.8	-48.3	24.1	6.05e-01	0	38	0	577241088	63	4714
2026-01-21 12:37:11.01	272.78	37.55	-46.1	-48.5	23.4	6.07e-01	0	38	0	579338240	63	4858
2026-01-21 12:37:11.86	273.21	37.51	-45.8	-48.2	23.5	6.04e-01	0	38	0	580911104	63	4683
2026-01-21 12:37:13.11	273.84	37.44	-45.7	-48.1	23.7	6.06e-01	0	38	0	583008256	63	4599
2026-01-21 12:37:13.97	274.28	37.40	-46.0	-48.5	23.7	6.08e-01	0	38	0	584581120	63	4815
2026-01-21 12:37:15.10	274.85	37.33	-46.0	-48.5	23.2	6.05e-01	0	38	0	586678272	63	4837
2026-01-21 12:37:15.95	275.28	37.28	-45.9	-48.4	24.1	6.06e-01	0	38	0	588251136	63	4766
2026-01-21 12:37:17.09	275.85	37.21	-46.0	-48.4	24.0	6.06e-01	0	38	0	590872576	63	4793
2026-01-21 12:37:18.01	276.31	37.15	-45.8	-48.2	24.2	6.06e-01	0	38	0	592445440	63	4697
2026-01-21 12:37:19.00	276.80	37.09	-45.8	-48.3	24.2	6.06e-01	0	38	0	594018304	63	4725
2026-01-21 12:37:20.00	277.30	37.02	-45.9	-48.4	23.6	6.05e-01	0	38	0	596115456	63	4802
2026-01-21 12:37:20.99	277.78	36.95	-45.8	-48.2	23.8	6.06e-01	0	38	0	598212608	63	4700
2026-01-21 12:37:21.99	278.28	36.88	-45.7	-48.0	24.2	6.05e-01	0	38	0	599785472	63	4573
2026-01-21 12:37:22.98	278.76	36.80	-46.0	-48.5	24.0	6.07e-01	0	38	0	601882624	63	4817
2026-01-21 12:37:23.98	279.25	36.73	-45.9	-48.3	24.1	6.07e-01	0	38	0	603455488	63	4747
2026-01-21 12:37:24.97	279.72	36.65	-45.6	-48.0	24.4	6.05e-01	0	38	0	605552640	63	4553
2026-01-21 12:37:25.97	280.21	36.57	-45.7	-48.1	24.4	6.07e-01	0	38	0	607125504	63	4610
2026-01-21 12:37:26.96	280.68	36.49	-45.7	-48.1	24.3	6.08e-01	0	39	0	609222656	63	4615
2026-01-21 12:37:27.95	281.15	36.40	-45.5	-47.9	24.5	6.07e-01	0	38	0	610795520	63	4515
2026-01-21 12:37:28.98	281.64	36.31	-45.7	-48.1	24.3	6.07e-01	0	38	0	612892672	63	4621
2026-01-21 12:37:29.98	282.11	36.23	-45.9	-48.3	24.1	6.06e-01	0	38	0	614989824	63	4744
2026-01-21 12:37:30.98	282.58	36.14	-45.7	-48.1	24.3	6.07e-01	0	38	0	616562688	63	4646
2026-01-21 12:37:31.97	283.04	36.05	-45.6	-47.9	24.5	6.05e-01	0	38	0	618659840	63	4526
2026-01-21 12:37:32.97	283.51	35.95	-45.5	-47.9	24.5	6.07e-01	0	38	0	620232704	63	4516
2026-01-21 12:37:33.96	283.96	35.86	-45.6	-47.9	24.4	6.06e-01	0	38	0	622329856	63	4538
2026-01-21 12:37:34.96	284.42	35.76	-45.5	-47.9	24.5	6.06e-01	0	38	0	623902720	63	4521
2026-01-21 12:37:35.95	284.87	35.66	-45.4	-47.8	24.5	6.07e-01	0	38	0	625999872	62	4736
2026-01-21 12:37:36.94	285.32	35.56	-45.5	-47.9	24.5	6.07e-01	0	38	0	628097024	62	4766
2026-01-21 12:37:37.94	285.77	35.46	-45.2	-47.6	24.8	6.06e-01	0	38	0	629669888	62	4606
2026-01-21 12:37:38.93	286.21	35.36	-45.3	-47.6	24.7	6.06e-01	0	39	0	631767040	62	4624
2026-01-21 12:37:39.93	286.66	35.26	-45.5	-47.8	24.5	6.06e-01	0	38	0	633339904	62	4743
2026-01-21 12:37:40.92	287.09	35.15	-45.5	-47.8	24.5	6.07e-01	0	38	0	635437056	62	4734
2026-01-21 12:37:41.92	287.53	35.04	-45.4	-47.8	24.5	6.06e-01	0	38	0	637009920	62	4716
2026-01-21 12:37:42.91	287.96	34.93	-45.4	-47.7	24.6	6.05e-01	0	38	0	639107072	62	4680
2026-01-21 12:37:43.91	288.39	34.82	-45.4	-47.8	24.6	6.06e-01	0	38	0	640679936	62	4737
2026-01-21 12:37:44.98	288.85	34.70	-45.3	-47.6	24.7	6.08e-01	0	38	0	642777088	62	4640
2026-01-21 12:37:45.84	289.22	34.61	-45.2	-47.5	24.8	6.08e-01	0	38	0	644349952	62	4595
2026-01-21 12:37:46.97	289.70	34.48	-45.3	-47.6	24.7	6.07e-01	0	38	0	646447104	62	4618
2026-01-21 12:37:47.82	290.06	34.38	-45.4	-47.7	24.6	6.05e-01	0	38	0	648019968	62	4685
2026-01-21 12:37:48.96	290.53	34.25	-45.2	-47.5	24.7	6.07e-01	0	38	0	650117120	62	4590
2026-01-21 12:37:49.81	290.88	34.15	-45.2	-47.5	24.7	6.07e-01	0	38	0	652214272	62	4576
2026-01-21 12:37:50.95	291.35	34.01	-45.1	-47.4	24.8	6.08e-01	0	38	0	654311424	62	4538
2026-01-21 12:37:51.80	291.70	33.91	-45.2	-47.5	24.8	6.07e-01	0	38	0	655884288	62	4555
2026-01-21 12:37:52.93	292.16	33.77	-45.3	-47.6	24.7	6.06e-01	0	38	0	657981440	62	4621
2026-01-21 12:37:53.79	292.50	33.67	-45.1	-47.4	24.8	6.07e-01	0	38	0	659554304	62	4508
2026-01-21 12:37:54.97	292.97	33.52	-44.8	-47.1	25.1	6.08e-01	0	38	0	661651456	61	4606
2026-01-21 12:37:55.82	293.31	33.42	-44.7	-47.0	25.1	6.05e-01	0	38	0	663224320	61	4586
2026-01-21 12:37:57.04	293.79	33.27	-44.9	-47.2	25.0	6.08e-01	0	38	0	665321472	61	4680
2026-01-21 12:37:57.89	294.12	33.16	-45.0	-47.4	24.9	6.06e-01	0	38	0	666894336	61	4770
2026-01-21 12:37:59.08	294.58	33.01	-45.0	-47.4	24.8	6.07e-01	0	38	0	669515776	61	4778
2026-01-21 12:37:59.93	294.90	32.90	-45.0	-47.4	24.8	6.08e-01	0	39	0	671088640	61	4782
2026-01-21 12:38:01.10	295.35	32.75	-44.9	-47.3	25.0	6.08e-01	0	38	0	673185792	61	4713
2026-01-21 12:38:01.95	295.67	32.64	-44.9	-47.3	25.0	6.04e-01	0	38	0	674758656	61	4713
2026-01-21 12:38:03.09	296.10	32.49	-44.8	-47.1	25.1	6.06e-01	0	38	0	676855808	61	4617
2026-01-21 12:38:03.94	296.41	32.38	-44.9	-47.2	25.0	6.06e-01	0	38	0	678428672	61	4671
2026-01-21 12:38:05.08	296.83	32.23	-44.9	-47.3	24.9	6.08e-01	0	38	0	680525824	61	4709
2026-01-21 12:38:05.93	297.14	32.12	-44.9	-47.2	25.0	6.08e-01	0	38	0	682098688	61	4679
2026-01-21 12:38:07.06	297.55	31.97	-44.6	-46.9	25.3	6.06e-01	0	39	0	684195840	61	4521
2026-01-21 12:38:07.92	297.86	31.86	-44.8	-47.1	25.1	6.06e-01	0	38	0	685768704	61	4610
2026-01-21 12:38:09.06	298.26	31.71	-44.9	-47.2	25.0	6.07e-01	0	38	0	687865856	61	4654
2026-01-21 12:38:09.91	298.56	31.59	-44.8	-47.1	25.0	6.04e-01	0	38	0	689438720	61	4639
2026-01-21 12:38:11.05	298.96	31.44	-44.8	-47.1	25.1	6.07e-01	0	38	0	691535872	61	4636
2026-01-21 12:38:11.90	299.26	31.32	-44.8	-47.1	25.1	6.05e-01	0	38	0	693633024	61	4614
2026-01-21 12:38:13.04	299.65	31.17	-44.9	-47.2	25.0	6.03e-01	0	38	0	695730176	61	4675
2026-01-21 12:38:13.90	299.95	31.05	-44.9	-47.3	24.9	6.07e-01	0	38	0	697303040	61	4712
2026-01-21 12:38:15.03	300.33	30.90	-44.7	-47.0	25.2	6.04e-01	0	39	0	699400192	61	4587
2026-01-21 12:38:15.88	300.61	30.78	-44.7	-47.0	25.2	6.06e-01	0	38	0	700973056	61	4550
2026-01-21 12:38:17.10	301.02	30.62	-44.7	-47.0	25.1	6.07e-01	0	38	0	703070208	61	4597
2026-01-21 12:38:17.95	301.30	30.50	-44.8	-47.1	25.1	6.06e-01	0	39	0	704643072	61	4626
2026-01-21 12:38:19.09	301.67	30.35	-44.9	-47.2	25.0	6.07e-01	0	39	0	706740224	61	4679
2026-01-21 12:38:19.94	301.95	30.23	-44.9	-47.2	25.0	6.07e-01	0	38	0	708313088	61	4690
2026-01-21 12:38:21.08	302.31	30.07	-44.9	-47.2	25.0	6.06e-01	0	38	0	710410240	61	4664
2026-01-21 12:38:21.93	302.58	29.95	-44.9	-47.2	25.0	6.04e-01	0	38	0	711983104	61	4671
2026-01-21 12:38:23.07	302.94	29.80	-44.9	-47.2	24.9	6.06e-01	0	38	0	714080256	61	4689
2026-01-21 12:38:24.00	303.23	29.67	-44.9	-47.2	25.0	6.08e-01	0	38	0	716177408	61	4685
2026-01-21 12:38:24.99	303.54	29.53	-44.9	-47.2	24.9	6.07e-01	0	38	0	717750272	61	4697
2026-01-21 12:38:25.99	303.85	29.39	-44.9	-47.2	24.9	6.07e-01	0	38	0	719847424	61	4682
2026-01-21 12:38:26.99	304.15	29.25	-45.0	-47.3	24.9	6.07e-01	0	38	0	721944576	61	4743
2026-01-21 12:38:27.98	304.45	29.12	-45.1	-47.4	24.8	6.05e-01	0	38	0	723517440	61	4797
2026-01-21 12:38:28.98	304.75	28.98	-45.0	-47.4	24.8	6.08e-01	0	38	0	725614592	61	4774
2026-01-21 12:38:29.97	305.05	28.84	-45.0	-47.4	24.8	6.07e-01	0	38	0	727187456	61	4785
2026-01-21 12:38:30.96	305.34	28.70	-45.0	-47.3	24.9	6.07e-01	0	38	0	729284608	61	4744
2026-01-21 12:38:31.96	305.63	28.56	-45.0	-47.3	24.9	6.06e-01	0	38	0	730857472	61	4744
2026-01-21 12:38:32.95	305.92	28.43	-45.0	-47.4	24.8	6.06e-01	0	38	0	732954624	61	4765
2026-01-21 12:38:34.00	306.22	28.28	-45.1	-47.4	24.8	6.08e-01	0	38	0	735051776	61	4786
2026-01-21 12:38:34.91	306.47	28.15	-45.1	-47.4	24.8	6.06e-01	0	39	0	736624640	61	4813
2026-01-21 12:38:35.91	306.76	28.01	-45.1	-47.4	24.8	6.09e-01	0	38	0	738197504	61	4785
2026-01-21 12:38:36.90	307.03	27.88	-45.2	-47.5	24.7	6.05e-01	0	38	0	740294656	61	4860
2026-01-21 12:38:37.90	307.31	27.74	-45.1	-47.5	24.7	6.06e-01	0	38	0	742391808	61	4846
2026-01-21 12:38:38.89	307.58	27.60	-45.1	-47.5	24.7	6.05e-01	0	38	0	743964672	61	4846
2026-01-21 12:38:39.89	307.85	27.46	-45.2	-47.6	24.6	6.08e-01	0	38	0	746061824	61	4919
2026-01-21 12:38:40.88	308.12	27.32	-45.2	-47.6	24.6	6.05e-01	0	38	0	747634688	61	4922
2026-01-21 12:38:41.88	308.39	27.19	-45.3	-47.7	24.5	6.06e-01	0	38	0	749731840	61	4955
2026-01-21 12:38:42.87	308.65	27.05	-45.2	-47.6	24.5	6.08e-01	0	38	0	751304704	61	4921
2026-01-21 12:38:43.87	308.91	26.91	-45.2	-47.6	24.6	6.05e-01	0	38	0	753401856	61	4895
2026-01-21 12:38:44.87	309.17	26.77	-45.2	-47.6	24.5	6.06e-01	0	38	0	754974720	61	4910
2026-01-21 12:38:45.86	309.43	26.64	-45.2	-47.6	24.5	6.05e-01	0	38	0	757071872	61	4887
2026-01-21 12:38:46.95	309.71	26.49	-45.3	-47.7	24.4	6.06e-01	0	39	0	759169024	61	4962
2026-01-21 12:38:47.84	309.93	26.36	-45.3	-47.7	24.3	6.06e-01	0	39	0	760741888	61	4970
2026-01-21 12:38:48.97	310.21	26.21	-45.3	-47.7	24.3	6.07e-01	0	38	0	762839040	61	4982
2026-01-21 12:38:49.83	310.43	26.09	-45.2	-47.6	24.4	6.06e-01	0	39	0	764411904	61	4906
2026-01-21 12:38:50.96	310.71	25.94	-45.2	-47.6	24.4	6.07e-01	0	39	0	766509056	61	4895
2026-01-21 12:38:51.81	310.91	25.82	-45.2	-47.6	24.4	6.07e-01	0	39	0	768081920	61	4920
2026-01-21 12:38:52.95	311.19	25.66	-45.0	-47.5	24.5	6.06e-01	0	39	0	770179072	61	4833
2026-01-21 12:38:53.80	311.39	25.55	-45.0	-47.4	24.5	6.07e-01	0	38	0	771751936	61	4809
2026-01-21 12:38:54.94	311.67	25.39	-44.9	-47.4	24.5	6.08e-01	0	38	0	773849088	61	4803
2026-01-21 12:38:55.79	311.87	25.28	-44.9	-47.4	24.5	6.06e-01	0	38	0	775946240	61	4813
2026-01-21 12:38:56.93	312.13	25.12	-44.9	-47.5	24.4	6.06e-01	0	38	0	777519104	61	4849
2026-01-21 12:38:57.78	312.33	25.01	-44.9	-47.6	24.4	6.07e-01	0	38	0	779616256	61	4885
2026-01-21 12:38:59.01	312.61	24.84	-45.0	-47.6	24.3	6.07e-01	0	38	0	781713408	61	4922
2026-01-21 12:38:59.87	312.81	24.73	-44.9	-47.5	24.3	6.07e-01	0	39	0	783286272	61	4869
2026-01-21 12:39:01.00	313.06	24.58	-44.9	-47.5	24.4	6.06e-01	0	38	0	785383424	61	4852
2026-01-21 12:39:01.85	313.26	24.46	-44.9	-47.5	24.4	6.06e-01	0	38	0	786956288	61	4821
2026-01-21 12:39:02.99	313.51	24.31	-45.1	-47.7	24.2	6.06e-01	0	38	0	789053440	61	4938
2026-01-21 12:39:03.85	313.70	24.20	-45.2	-47.8	24.2	6.07e-01	0	39	0	790626304	61	4986
2026-01-21 12:39:04.98	313.94	24.05	-45.2	-47.7	24.2	6.08e-01	0	38	0	792723456	61	4976
2026-01-21 12:39:05.84	314.13	23.93	-45.1	-47.6	24.2	6.04e-01	0	38	0	794296320	61	4913
2026-01-21 12:39:06.97	314.37	23.78	-45.1	-47.6	24.3	6.07e-01	0	38	0	796393472	61	4915
2026-01-21 12:39:07.82	314.55	23.67	-45.2	-47.7	24.2	6.09e-01	0	38	0	797966336	61	4940
2026-01-21 12:39:08.96	314.79	23.52	-45.3	-47.8	24.1	6.06e-01	0	38	0	800587776	61	4993
2026-01-21 12:39:09.81	314.97	23.41	-45.3	-47.9	24.1	6.06e-01	0	38	0	802160640	61	5059
2026-01-21 12:39:10.95	315.21	23.26	-45.1	-47.6	24.2	6.06e-01	0	38	0	804257792	61	4923
2026-01-21 12:39:11.80	315.38	23.15	-45.1	-47.6	24.3	6.07e-01	0	38	0	805830656	61	4913
2026-01-21 12:39:12.94	315.61	23.00	-45.1	-47.7	24.2	6.06e-01	0	38	0	807927808	61	4927
2026-01-21 12:39:13.79	315.79	22.89	-45.0	-47.6	24.3	6.07e-01	0	39	0	809500672	61	4884
2026-01-21 12:39:14.93	316.01	22.74	-45.0	-47.5	24.3	6.07e-01	0	38	0	811597824	61	4868
2026-01-21 12:39:15.78	316.18	22.63	-45.0	-47.6	24.3	6.08e-01	0	38	0	813170688	61	4880
2026-01-21 12:39:16.92	316.41	22.49	-45.0	-47.5	24.3	6.05e-01	0	38	0	815267840	61	4859
2026-01-21 12:39:17.77	316.57	22.38	-45.0	-47.5	24.3	6.07e-01	0	38	0	816840704	61	4859
2026-01-21 12:39:18.91	316.79	22.23	-45.0	-47.6	24.3	6.08e-01	0	39	0	818937856	61	4873
2026-01-21 12:39:19.76	316.96	22.12	-45.0	-47.6	24.3	6.07e-01	0	38	0	820510720	61	4885
2026-01-21 12:39:20.90	317.17	21.98	-45.0	-47.7	24.2	6.05e-01	0	38	0	822607872	61	4938
2026-01-21 12:39:21.75	317.33	21.87	-45.0	-47.6	24.2	6.06e-01	0	38	0	824180736	61	4905
2026-01-21 12:39:22.89	317.55	21.73	-45.0	-47.6	24.2	6.08e-01	0	39	0	826277888	61	4923
2026-01-21 12:39:23.74	317.71	21.62	-45.0	-47.6	24.3	6.05e-01	0	38	0	827850752	61	4882
2026-01-21 12:39:24.88	317.92	21.48	-44.9	-47.5	24.4	6.05e-01	0	38	0	829947904	61	4835
2026-01-21 12:39:25.73	318.07	21.37	-44.9	-47.4	24.4	6.05e-01	0	38	0	831520768	61	4804
2026-01-21 12:39:26.86	318.28	21.23	-44.9	-47.5	24.3	6.08e-01	0	39	0	834142208	61	4840
2026-01-21 12:39:27.79	318.44	21.11	-44.9	-47.5	24.3	6.05e-01	0	38	0	835715072	61	4864
2026-01-21 12:39:28.96	318.65	20.97	-44.7	-47.5	24.4	6.07e-01	0	38	0	837812224	61	4821
2026-01-21 12:39:29.85	318.81	20.86	-44.6	-47.5	24.4	6.08e-01	0	39	0	839385088	61	4819
2026-01-21 12:39:30.98	319.01	20.72	-44.5	-47.4	24.4	6.04e-01	0	39	0	841482240	61	4773
2026-01-21 12:39:31.83	319.15	20.62	-44.6	-47.4	24.5	6.08e-01	0	39	0	843055104	61	4761
2026-01-21 12:39:32.97	319.35	20.48	-44.6	-47.3	24.5	6.07e-01	0	39	0	845152256	61	4738
2026-01-21 12:39:33.82	319.49	20.37	-44.8	-47.5	24.4	6.07e-01	0	39	0	846725120	61	4837
2026-01-21 12:39:34.96	319.69	20.23	-44.7	-47.3	24.5	6.06e-01	0	38	0	849346560	61	4726
2026-01-21 12:39:35.81	319.83	20.13	-44.8	-47.3	24.5	6.07e-01	0	39	0	850919424	61	4757
2026-01-21 12:39:36.95	320.02	19.99	-44.8	-47.3	24.5	6.08e-01	0	38	0	853016576	61	4747
2026-01-21 12:39:37.80	320.16	19.89	-44.8	-47.4	24.4	6.07e-01	0	39	0	854589440	61	4775
2026-01-21 12:39:38.94	320.35	19.76	-44.8	-47.4	24.4	6.04e-01	0	38	0	856686592	61	4813
2026-01-21 12:39:39.79	320.49	19.65	-44.9	-47.5	24.4	6.08e-01	0	38	0	858259456	61	4856
2026-01-21 12:39:41.02	320.69	19.51	-44.8	-47.5	24.4	6.06e-01	0	38	0	860356608	61	4846
2026-01-21 12:39:41.88	320.82	19.41	-44.9	-47.6	24.3	6.08e-01	0	38	0	861929472	61	4874
2026-01-21 12:39:43.08	321.01	19.26	-45.0	-47.6	24.3	6.05e-01	0	38	0	864550912	61	4904
2026-01-21 12:39:43.93	321.15	19.16	-44.9	-47.5	24.3	6.05e-01	0	38	0	866123776	61	4869
2026-01-21 12:39:45.15	321.34	19.02	-45.0	-47.6	24.3	6.06e-01	0	38	0	868220928	61	4886
2026-01-21 12:39:46.00	321.47	18.92	-45.0	-47.5	24.4	6.07e-01	0	38	0	869793792	61	4853
2026-01-21 12:39:47.14	321.65	18.79	-44.9	-47.4	24.4	6.05e-01	0	39	0	871890944	61	4788
2026-01-21 12:39:47.99	321.78	18.69	-44.9	-47.5	24.4	6.07e-01	0	38	0	873463808	61	4818
2026-01-21 12:39:49.13	321.95	18.56	-44.9	-47.4	24.4	6.06e-01	0	38	0	875560960	61	4809
2026-01-21 12:39:49.98	322.08	18.46	-45.0	-47.6	24.3	6.07e-01	0	38	0	877133824	61	4882
2026-01-21 12:39:51.12	322.25	18.33	-44.9	-47.5	24.3	6.07e-01	0	38	0	879230976	61	4845
2026-01-21 12:39:51.97	322.37	18.23	-44.9	-47.5	24.3	6.05e-01	0	38	0	880803840	61	4858
2026-01-21 12:39:53.11	322.54	18.10	-44.9	-47.5	24.3	6.07e-01	0	38	0	882900992	61	4856
2026-01-21 12:39:53.96	322.66	18.01	-45.0	-47.7	24.2	6.07e-01	0	38	0	884473856	61	4928
2026-01-21 12:39:55.10	322.83	17.88	-44.9	-47.6	24.4	6.06e-01	0	39	0	887095296	61	4880
2026-01-21 12:39:55.95	322.95	17.78	-45.0	-47.7	24.2	6.06e-01	0	39	0	888668160	61	4937
2026-01-21 12:39:57.09	323.11	17.66	-44.9	-47.6	24.3	6.07e-01	0	38	0	890765312	61	4899
2026-01-21 12:39:57.94	323.23	17.56	-44.9	-47.6	24.3	6.07e-01	0	39	0	892338176	61	4886
2026-01-21 12:39:59.08	323.39	17.43	-45.0	-47.6	24.3	6.08e-01	0	38	0	894435328	61	4926
2026-01-21 12:39:59.93	323.51	17.34	-45.0	-47.6	24.3	6.06e-01	0	38	0	896008192	61	4897
2026-01-21 12:40:01.06	323.67	17.21	-44.9	-47.4	24.5	6.06e-01	0	38	0	898105344	61	4794
2026-01-21 12:40:01.92	323.78	17.12	-45.0	-47.4	24.4	6.07e-01	0	38	0	899678208	61	4807
2026-01-21 12:40:03.05	323.94	17.00	-45.0	-47.5	24.5	6.05e-01	0	38	0	901775360	61	4827
2026-01-21 12:40:03.91	324.05	16.90	-45.0	-47.4	24.5	6.08e-01	0	38	0	903348224	61	4768
2026-01-21 12:40:05.04	324.21	16.78	-45.0	-47.5	24.4	6.07e-01	0	39	0	905445376	61	4820
2026-01-21 12:40:05.90	324.32	16.68	-45.1	-47.5	24.4	6.05e-01	0	39	0	907018240	61	4858
2026-01-21 12:40:07.03	324.47	16.56	-45.1	-47.5	24.4	6.07e-01	0	39	0	909115392	61	4849
2026-01-21 12:40:07.89	324.58	16.47	-45.0	-47.5	24.4	6.07e-01	0	38	0	910688256	61	4836
2026-01-21 12:40:09.02	324.73	16.35	-44.9	-47.5	24.5	6.06e-01	0	38	0	912785408	61	4817
2026-01-21 12:40:09.87	324.84	16.26	-44.8	-47.4	24.5	6.07e-01	0	39	0	914358272	61	4810
2026-01-21 12:40:11.09	325.00	16.13	-44.8	-47.6	24.4	6.07e-01	0	39	0	916979712	61	4881
2026-01-21 12:40:11.94	325.10	16.04	-44.7	-47.6	24.3	6.07e-01	0	38	0	918552576	61	4900
2026-01-21 12:40:13.08	325.25	15.92	-44.7	-47.7	24.2	6.04e-01	0	39	0	920649728	61	4980
2026-01-21 12:40:13.93	325.35	15.83	-44.6	-47.7	24.2	6.05e-01	0	39	0	922222592	61	4947
2026-01-21 12:40:15.07	325.50	15.71	-44.7	-47.8	24.2	6.06e-01	0	39	0	924319744	61	4990
2026-01-21 12:40:15.94	325.60	15.62	-44.8	-47.8	24.2	6.07e-01	0	39	0	925892608	61	5001
2026-01-21 12:40:17.08	325.74	15.50	-44.8	-47.8	24.2	6.05e-01	0	39	0	927989760	61	4997
2026-01-21 12:40:17.93	325.85	15.41	-45.0	-47.9	24.1	6.06e-01	0	39	0	929562624	61	5057
2026-01-21 12:40:19.07	325.99	15.29	-45.0	-47.7	24.2	6.06e-01	0	39	0	931659776	61	4971
2026-01-21 12:40:19.92	326.09	15.20	-45.0	-47.8	24.2	6.07e-01	0	38	0	933232640	61	4987
2026-01-21 12:40:21.06	326.22	15.09	-45.0	-47.8	24.2	6.06e-01	0	39	0	935329792	61	4992
2026-01-21 12:40:21.91	326.32	15.00	-45.0	-47.7	24.2	6.08e-01	0	39	0	936902656	61	4947
2026-01-21 12:40:23.05	326.46	14.88	-45.0	-47.8	24.2	6.05e-01	0	39	0	939524096	61	4988
2026-01-21 12:40:23.90	326.56	14.80	-44.9	-47.7	24.2	6.06e-01	0	39	0	941096960	61	4957
2026-01-21 12:40:25.04	326.69	14.68	-45.0	-47.8	24.1	6.07e-01	0	39	0	943194112	61	5027
2026-01-21 12:40:25.89	326.79	14.59	-45.0	-47.9	24.1	6.09e-01	0	39	0	944766976	61	5043
2026-01-21 12:40:27.03	326.92	14.48	-44.9	-47.8	24.2	6.06e-01	0	39	0	946864128	61	5016
2026-01-21 12:40:27.88	327.02	14.39	-45.0	-47.9	24.1	6.06e-01	0	38	0	948436992	61	5047
2026-01-21 12:40:29.02	327.14	14.28	-45.0	-47.9	24.0	6.04e-01	0	39	0	950534144	61	5072
2026-01-21 12:40:29.87	327.24	14.20	-45.1	-48.0	24.0	6.09e-01	0	39	0	952107008	61	5140
2026-01-21 12:40:31.01	327.37	14.08	-45.0	-47.8	24.1	6.06e-01	0	38	0	954204160	61	5014
2026-01-21 12:40:31.86	327.46	14.00	-45.1	-47.9	24.1	6.07e-01	0	39	0	955777024	61	5055
2026-01-21 12:40:33.00	327.59	13.89	-45.2	-48.0	24.0	6.08e-01	0	38	0	957874176	61	5138
2026-01-21 12:40:33.85	327.68	13.80	-45.3	-48.0	24.0	6.05e-01	0	38	0	959447040	61	5145
2026-01-21 12:40:34.99	327.80	13.69	-45.4	-48.1	23.9	6.06e-01	0	38	0	961544192	61	5186
2026-01-21 12:40:35.84	327.89	13.61	-45.7	-48.4	23.7	6.06e-01	0	39	0	963117056	61	5341
2026-01-21 12:40:36.98	328.02	13.50	-45.5	-48.1	23.9	6.08e-01	0	38	0	965214208	61	5182
2026-01-21 12:40:37.83	328.11	13.42	-45.6	-48.2	23.8	6.05e-01	0	39	0	966787072	61	5233
2026-01-21 12:40:38.97	328.23	13.31	-45.5	-48.1	23.9	6.06e-01	0	39	0	968884224	61	5183
2026-01-21 12:40:39.82	328.32	13.22	-45.6	-48.2	23.8	6.05e-01	0	38	0	970457088	61	5225
2026-01-21 12:40:40.96	328.43	13.12	-45.7	-48.3	23.7	6.05e-01	0	39	0	973078528	61	5315
2026-01-21 12:40:41.81	328.52	13.03	-45.6	-48.3	23.7	6.07e-01	0	39	0	974651392	62	5010
2026-01-21 12:40:43.08	328.65	12.91	-45.6	-48.3	23.7	6.07e-01	0	38	0	976748544	62	5023
2026-01-21 12:40:43.88	328.73	12.84	-45.5	-48.2	23.8	6.06e-01	0	39	0	978321408	62	4980
2026-01-21 12:40:45.11	328.86	12.72	-45.6	-48.3	23.7	6.06e-01	0	39	0	980418560	62	5022
2026-01-21 12:40:45.96	328.94	12.64	-45.6	-48.3	23.7	6.06e-01	0	39	0	981991424	62	5008
2026-01-21 12:40:47.10	329.06	12.54	-45.7	-48.3	23.7	6.07e-01	0	38	0	984612864	62	5033
2026-01-21 12:40:48.41	329.19	12.41	-45.7	-48.3	23.7	6.06e-01	0	39	0	986710016	62	5002
2026-01-21 12:40:49.12	329.26	12.35	-45.7	-48.3	23.7	6.05e-01	0	38	0	988282880	62	5034
2026-01-21 12:40:50.42	329.38	12.23	-45.8	-48.4	23.6	6.08e-01	0	38	0	990380032	62	5050
2026-01-21 12:40:51.13	329.45	12.16	-45.8	-48.4	23.6	6.07e-01	0	38	0	991952896	62	5078
2026-01-21 12:40:52.41	329.58	12.04	-45.8	-48.5	23.5	6.07e-01	0	38	0	994574336	62	5131
2026-01-21 12:40:53.12	329.65	11.98	-45.7	-48.3	23.7	6.07e-01	0	39	0	995622912	62	5040
2026-01-21 12:40:54.40	329.77	11.86	-45.8	-48.5	23.5	6.03e-01	0	39	0	998244352	62	5103
2026-01-21 12:40:55.13	329.84	11.80	-45.7	-48.4	23.6	6.07e-01	0	38	0	999292928	62	5086
2026-01-21 12:40:56.41	329.96	11.68	-45.8	-48.5	23.5	6.05e-01	0	38	0	1001914368	62	5107
2026-01-21 12:40:57.13	330.03	11.62	-45.7	-48.4	23.6	6.07e-01	0	39	0	1003487232	62	5060
2026-01-21 12:40:58.65	330.17	11.48	-45.8	-48.5	23.5	6.06e-01	0	38	0	1006108672	62	5123
2026-01-21 12:40:59.36	330.23	11.41	-45.8	-48.5	23.5	6.09e-01	0	39	0	1007157248	62	5116
2026-01-21 12:41:00.64	330.35	11.30	-45.8	-48.4	23.6	6.07e-01	0	39	0	1009778688	62	5100
2026-01-21 12:41:01.71	330.45	11.21	-45.8	-48.4	23.6	6.04e-01	0	38	0	1011875840	62	5083
2026-01-21 12:41:02.56	330.52	11.13	-45.9	-48.5	23.5	6.06e-01	0	38	0	1013448704	62	5137
2026-01-21 12:41:03.70	330.63	11.03	-46.0	-48.7	23.3	6.08e-01	0	39	0	1015545856	62	5232
2026-01-21 12:41:04.56	330.70	10.95	-45.9	-48.6	23.4	6.06e-01	0	38	0	1017118720	62	5177
2026-01-21 12:41:05.69	330.80	10.85	-46.0	-48.6	23.4	6.06e-01	0	39	0	1019215872	62	5209
2026-01-21 12:41:06.54	330.88	10.78	-46.0	-48.7	23.3	6.07e-01	0	38	0	1020788736	62	5232
2026-01-21 12:41:07.68	330.98	10.68	-46.0	-48.7	23.3	6.09e-01	0	38	0	1022885888	62	5264
2026-01-21 12:41:08.54	331.05	10.61	-46.0	-48.7	23.3	6.09e-01	0	39	0	1024458752	62	5249
2026-01-21 12:41:09.67	331.15	10.51	-46.1	-48.8	23.3	6.04e-01	0	39	0	1026555904	62	5281
2026-01-21 12:41:10.54	331.23	10.43	-46.0	-48.6	23.4	6.03e-01	0	39	0	1028128768	62	5209
2026-01-21 12:41:11.68	331.32	10.33	-46.0	-48.7	23.2	6.02e-01	0	39	0	1030225920	62	5256
2026-01-21 12:41:12.53	331.40	10.26	-46.1	-48.8	23.2	6.03e-01	0	39	0	1032323072	62	5297
2026-01-21 12:41:13.67	331.49	10.16	-46.1	-48.8	23.2	6.01e-01	0	39	0	1034420224	62	5310
2026-01-21 12:41:14.63	331.57	10.08	-46.1	-48.8	23.2	6.05e-01	0	39	0	1035993088	62	5320
2026-01-21 12:41:15.63	331.66	10.00	-46.1	-48.9	23.1	6.03e-01	0	39	0	1037565952	62	5359
2026-01-21 12:41:16.62	331.74	9.91	-46.1	-48.9	23.0	6.03e-01	0	39	0	1039663104	63	5089
2026-01-21 12:41:17.93	331.85	9.80	-46.1	-48.9	23.1	6.03e-01	0	39	0	1042284544	63	5046
2026-01-21 12:41:18.67	331.91	9.74	-46.1	-48.9	23.1	6.02e-01	0	39	0	1043333120	63	5064
2026-01-21 12:41:20.29	332.04	9.61	-46.1	-49.0	23.0	6.03e-01	0	38	0	1046478848	63	5102
2026-01-21 12:41:21.14	332.11	9.53	-46.2	-49.0	23.0	6.03e-01	0	38	0	1048051712	63	5118
2026-01-21 12:41:22.28	332.20	9.44	-46.3	-49.1	22.9	6.01e-01	0	38	0	1050148864	63	5166
2026-01-21 12:41:23.13	332.27	9.37	-46.3	-49.0	22.9	6.05e-01	0	38	0	1051721728	63	5149
2026-01-21 12:41:24.27	332.36	9.27	-46.3	-49.1	22.9	6.05e-01	0	39	0	1053818880	63	5188
2026-01-21 12:41:25.12	332.43	9.20	-46.3	-49.1	22.8	6.04e-01	0	38	0	1055391744	63	5203
2026-01-21 12:41:26.32	332.52	9.11	-46.3	-49.2	22.7	6.06e-01	0	38	0	1058013184	63	5265
2026-01-21 12:41:27.18	332.59	9.04	-46.3	-49.2	22.7	6.02e-01	0	38	0	1059586048	63	5265
2026-01-21 12:41:28.31	332.68	8.94	-53.1	-73.4	3.6	7.47e-01	0	39	104	1061158912	76	40155
2026-01-21 12:41:29.17	332.74	8.87	-53.3	-73.3	3.9	7.48e-01	0	39	104	1061158912	77	37503
2026-01-21 12:41:30.30	332.83	8.78	-51.0	-73.8	3.8	7.46e-01	0	39	104	1061158912	74	47258
2026-01-21 12:41:31.15	332.89	8.71	-52.9	-74.0	3.8	7.41e-01	0	38	104	1061158912	76	43292
2026-01-21 12:41:32.29	332.98	8.62	-52.7	-74.0	3.8	7.46e-01	0	38	104	1061158912	76	43182
2026-01-21 12:41:33.14	333.05	8.55	-53.0	-74.1	3.8	7.50e-01	0	39	104	1061158912	76	43531
2026-01-21 12:41:34.32	333.13	8.46	-52.4	-74.1	3.8	7.45e-01	0	39	104	1061158912	75	46373
2026-01-21 12:41:35.17	333.20	8.39	-53.7	-74.2	3.8	7.46e-01	0	39	104	1061158912	78	39387
2026-01-21 12:41:36.36	333.29	8.30	-53.6	-74.2	3.9	7.46e-01	0	39	104	1061158912	77	41873
2026-01-21 12:41:37.21	333.35	8.23	-53.5	-74.3	3.8	7.45e-01	0	39	104	1061158912	78	39607
2026-01-21 12:41:38.42	333.44	8.13	-53.6	-74.3	3.8	7.43e-01	0	39	104	1061158912	78	39738
2026-01-21 12:41:39.27	333.50	8.07	-54.0	-74.3	3.8	7.50e-01	0	39	104	1061158912	79	37641
2026-01-21 12:41:40.41	333.58	7.98	-53.7	-74.3	3.8	7.44e-01	0	39	104	1061158912	78	39841
2026-01-21 12:41:41.26	333.64	7.91	-54.3	-74.3	3.8	7.44e-01	0	39	104	1061158912	79	37615
2026-01-21 12:41:42.40	333.73	7.82	-54.0	-74.3	3.8	7.44e-01	0	38	104	1061158912	79	37606
2026-01-21 12:41:43.25	333.79	7.76	-54.4	-74.3	3.8	7.46e-01	0	39	104	1061158912	79	37746
2026-01-21 12:41:44.38	333.87	7.67	-54.4	-74.3	3.8	7.43e-01	0	39	104	1061158912	79	37680
2026-01-21 12:41:45.23	333.93	7.60	-54.3	-74.3	3.8	7.46e-01	0	39	104	1061158912	79	37747
2026-01-21 12:41:46.37	334.01	7.51	-54.3	-74.3	3.8	7.45e-01	0	39	104	1061158912	79	37700
2026-01-21 12:41:47.22	334.07	7.45	-54.3	-74.2	3.8	7.45e-01	0	39	104	1061158912	79	37113
2026-01-21 12:41:48.40	334.15	7.36	-53.8	-74.3	3.8	7.45e-01	0	38	104	1061158912	79	37520
2026-01-21 12:41:49.25	334.21	7.29	-54.2	-74.3	3.8	7.47e-01	0	39	104	1061158912	79	37437
2026-01-21 12:41:50.48	334.29	7.20	-53.6	-74.3	3.8	7.46e-01	0	39	104	1061158912	78	39735
2026-01-21 12:41:51.34	334.35	7.13	-53.6	-74.3	3.8	7.45e-01	0	39	104	1061158912	78	39707
2026-01-21 12:41:52.55	334.43	7.04	-53.6	-74.3	3.8	7.47e-01	0	38	104	1061158912	78	39592
2026-01-21 12:41:53.40	334.49	6.98	-53.7	-74.3	3.8	7.43e-01	0	39	104	1061158912	78	39711
2026-01-21 12:41:54.53	334.57	6.89	-53.6	-74.2	3.8	7.43e-01	0	38	104	1061158912	78	39475
2026-01-21 12:41:55.39	334.62	6.83	-53.6	-74.2	3.8	7.44e-01	0	39	104	1061158912	78	39542
2026-01-21 12:41:56.52	334.70	6.74	-53.6	-74.2	3.8	7.49e-01	0	38	104	1061158912	78	39552
2026-01-21 12:41:57.37	334.76	6.68	-53.6	-74.2	3.8	7.48e-01	0	38	104	1061158912	78	39576
2026-01-21 12:41:58.51	334.83	6.60	-53.6	-74.2	3.8	7.43e-01	0	39	104	1061158912	78	39506
2026-01-21 12:41:59.36	334.89	6.53	-53.6	-74.2	3.8	7.48e-01	0	39	104	1061158912	78	39485
2026-01-21 12:42:00.50	334.96	6.45	-53.6	-74.2	3.8	7.41e-01	0	39	104	1061158912	78	39442
2026-01-21 12:42:01.35	335.02	6.38	-53.7	-74.2	3.8	7.45e-01	0	39	104	1061158912	78	39533
2026-01-21 12:42:02.48	335.09	6.30	-53.6	-74.2	3.8	7.43e-01	0	39	104	1061158912	78	39521
2026-01-21 12:42:03.33	335.14	6.24	-53.6	-74.2	3.8	7.48e-01	0	39	104	1061158912	78	39459
2026-01-21 12:42:04.47	335.22	6.16	-53.6	-74.2	3.8	7.48e-01	0	39	104	1061158912	78	39499
2026-01-21 12:42:05.32	335.27	6.09	-53.6	-74.2	3.8	7.43e-01	0	39	104	1061158912	78	39574
2026-01-21 12:42:06.46	335.34	6.01	-53.6	-74.2	3.8	7.47e-01	0	39	104	1061158912	78	39374
2026-01-21 12:42:07.31	335.40	5.95	-53.6	-74.2	3.8	7.43e-01	0	39	104	1061158912	78	39349
2026-01-21 12:42:08.44	335.47	5.87	-53.6	-74.2	3.8	7.44e-01	0	38	104	1061158912	78	39486
2026-01-21 12:42:09.29	335.52	5.81	-53.6	-74.2	3.8	7.46e-01	0	39	104	1061158912	78	39416
2026-01-21 12:42:10.43	335.59	5.72	-53.6	-74.2	3.8	7.47e-01	0	39	104	1061158912	78	39396
2026-01-21 12:42:11.28	335.64	5.66	-53.6	-74.2	3.8	7.48e-01	0	39	104	1061158912	78	39382
2026-01-21 12:42:12.41	335.71	5.58	-53.6	-74.2	3.8	7.47e-01	0	39	104	1061158912	78	39370
2026-01-21 12:42:13.27	335.77	5.52	-53.6	-74.2	3.8	7.47e-01	0	39	104	1061158912	78	39363
2026-01-21 12:42:14.40	335.83	5.44	-53.6	-74.2	3.8	7.46e-01	0	39	104	1061158912	78	39488
2026-01-21 12:42:15.25	335.89	5.38	-53.6	-74.2	3.8	7.47e-01	0	39	104	1061158912	78	39422
2026-01-21 12:42:16.39	335.95	5.30	-53.6	-74.2	3.8	7.45e-01	0	38	104	1061158912	78	39356
2026-01-21 12:42:17.24	336.00	5.24	-53.6	-74.2	3.8	7.48e-01	0	39	104	1061158912	78	39344
2026-01-21 12:42:18.38	336.07	5.16	-53.6	-74.2	3.8	7.48e-01	0	39	104	1061158912	78	39388
2026-01-21 12:42:19.23	336.12	5.10	-53.6	-74.2	3.8	7.46e-01	0	39	104	1061158912	78	39419
2026-01-21 12:42:20.36	336.19	5.02	-53.6	-74.2	3.8	7.46e-01	0	39	104	1061158912	78	39256
2026-01-21 12:42:21.21	336.24	4.96	-53.6	-74.2	3.8	7.50e-01	0	38	104	1061158912	78	39324

#Closed at: 2026-01-21 12:42:22
#Recorded file [1061 MB]: D:/Data/31040_260121_153125.dat