passes_logs/2026/01/21/T1/T1__20260121_003325_NOAA_21_JPSS-2_rec.log

#Pass ID: 20260121_003325_NOAA 21 (JPSS-2)
#Satellite: NOAA 21 (JPSS-2)
#Configuration: NOAA 21
#almurnet v.1.7.20251203
#Start time: 2026-01-21 00:33:25

#Version: 2.0.20230620
#Station: T1
#Location: 37.570604 lon 55.790049 lat
#TLE: 1 54234U 22150A   26020.29910383  .00000141  00000+0  87571-4 0  9990
#TLE: 2 54234  98.7506 321.1348 0000615 250.8428 109.2682 14.19536295165564

#Time	Az	El	Level	Level2	SNR	BER	BlckErr	Temp	State	Recorded	gain1	gain2
2026-01-21 00:33:25.02	11.05	4.98	-51.2	-65.1	3.8	1.49e+00	0	41	0	0	73	18412
2026-01-21 00:33:26.01	11.01	5.05	-49.2	-65.1	3.8	1.49e+00	0	40	104	0	68	24440
2026-01-21 00:33:27.00	10.97	5.11	-49.1	-65.1	3.8	1.49e+00	0	41	104	0	68	24418
2026-01-21 00:33:27.99	10.93	5.18	-49.1	-65.1	3.8	1.49e+00	0	40	104	0	68	24457
2026-01-21 00:33:28.99	10.88	5.25	-49.2	-65.1	3.8	1.49e+00	0	40	104	0	68	24506
2026-01-21 00:33:29.98	10.84	5.32	-49.2	-65.1	3.8	1.49e+00	0	40	104	0	69	23120
2026-01-21 00:33:30.97	10.80	5.39	-49.2	-65.1	3.8	1.49e+00	0	40	104	0	69	23087
2026-01-21 00:33:31.96	10.76	5.46	-49.1	-65.1	3.8	1.49e+00	0	40	104	0	69	23084
2026-01-21 00:33:32.96	10.71	5.53	-49.2	-65.0	3.8	1.49e+00	0	41	104	0	69	23026
2026-01-21 00:33:33.95	10.67	5.60	-49.2	-65.1	3.8	1.49e+00	0	40	104	0	69	23094
2026-01-21 00:33:34.94	10.63	5.66	-49.1	-65.0	3.8	1.49e+00	0	41	104	0	69	22991
2026-01-21 00:33:35.94	10.59	5.73	-49.2	-65.0	3.8	1.49e+00	0	41	104	0	69	23017
2026-01-21 00:33:36.93	10.54	5.80	-49.2	-65.0	3.8	1.49e+00	0	40	104	0	69	23018
2026-01-21 00:33:37.92	10.50	5.87	-49.2	-65.1	3.8	1.49e+00	0	41	104	0	69	23067
2026-01-21 00:33:38.92	10.45	5.94	-49.2	-65.0	3.8	1.49e+00	0	41	104	0	69	22997
2026-01-21 00:33:39.91	10.41	6.01	-49.2	-65.1	3.8	1.49e+00	0	41	104	0	69	23049
2026-01-21 00:33:40.90	10.36	6.08	-49.2	-65.0	3.8	1.49e+00	0	40	104	0	69	23007
2026-01-21 00:33:41.90	10.32	6.16	-49.2	-65.0	3.8	1.49e+00	0	41	104	0	69	22913
2026-01-21 00:33:42.89	10.27	6.23	-49.2	-65.0	3.8	1.49e+00	0	40	104	0	69	22984
2026-01-21 00:33:43.88	10.23	6.30	-49.1	-65.0	3.8	1.49e+00	0	41	104	0	69	22870
2026-01-21 00:33:44.88	10.18	6.37	-49.2	-64.9	3.8	1.49e+00	0	41	104	0	69	22634
2026-01-21 00:33:45.87	10.14	6.44	-49.1	-64.8	3.8	1.49e+00	0	40	104	0	69	22390
2026-01-21 00:33:46.86	10.09	6.51	-49.2	-64.6	3.8	1.49e+00	0	41	104	0	69	21895
2026-01-21 00:33:47.85	10.05	6.58	-49.2	-64.4	3.8	1.49e+00	0	41	104	0	69	21364
2026-01-21 00:33:48.85	10.00	6.65	-49.1	-64.1	3.8	1.49e+00	0	41	104	0	69	20710
2026-01-21 00:33:49.84	9.95	6.73	-49.1	-63.7	3.8	1.49e+00	0	41	104	0	69	19694
2026-01-21 00:33:50.83	9.91	6.80	-49.1	-63.4	3.9	1.49e+00	0	41	104	0	69	19058
2026-01-21 00:33:51.83	9.86	6.87	-49.1	-62.9	3.9	1.49e+00	0	40	104	0	69	18070
2026-01-21 00:33:52.82	9.81	6.94	-49.1	-62.9	3.9	1.48e+00	0	41	104	0	69	17904
2026-01-21 00:33:53.81	9.76	7.01	-49.0	-62.2	4.0	1.48e+00	0	41	104	0	69	16648
2026-01-21 00:33:54.81	9.72	7.09	-49.1	-62.2	4.0	1.49e+00	0	41	104	0	69	16527
2026-01-21 00:33:55.80	9.67	7.16	-49.0	-62.3	4.0	1.48e+00	0	41	104	0	69	16842
2026-01-21 00:33:56.79	9.62	7.23	-49.0	-62.8	3.9	1.48e+00	0	41	104	0	69	17688
2026-01-21 00:33:57.78	9.57	7.31	-49.1	-63.3	3.8	1.49e+00	0	41	104	0	69	18740
2026-01-21 00:33:58.78	9.52	7.38	-49.1	-63.6	3.8	1.49e+00	0	41	104	0	69	19610
2026-01-21 00:33:59.77	9.47	7.45	-49.1	-63.9	3.8	1.49e+00	0	41	104	0	69	20268
2026-01-21 00:34:00.76	9.42	7.53	-49.1	-64.3	3.8	1.49e+00	0	41	104	0	69	21256
2026-01-21 00:34:01.76	9.37	7.60	-49.1	-64.6	3.8	1.49e+00	0	41	104	0	69	21989
2026-01-21 00:34:02.75	9.32	7.68	-49.2	-64.9	3.8	1.49e+00	0	41	104	0	69	22547
2026-01-21 00:34:03.74	9.27	7.75	-49.2	-65.0	3.8	1.49e+00	0	41	104	0	69	22880
2026-01-21 00:34:04.74	9.22	7.83	-49.2	-64.9	3.8	1.49e+00	0	41	104	0	69	22539
2026-01-21 00:34:05.73	9.17	7.90	-49.2	-64.1	3.8	1.49e+00	0	41	104	0	69	20616
2026-01-21 00:34:06.72	9.12	7.98	-49.0	-62.2	4.0	1.49e+00	0	41	104	0	69	16611
2026-01-21 00:34:07.71	9.07	8.05	-48.9	-60.1	4.7	1.23e+00	0	41	104	0	69	13046
2026-01-21 00:34:08.71	9.02	8.13	-48.6	-57.9	6.1	4.61e-01	0	41	0	0	69	10086
2026-01-21 00:34:09.70	8.96	8.20	-48.2	-55.8	7.9	1.19e-01	0	41	0	0	68	8410
2026-01-21 00:34:10.69	8.91	8.28	-47.6	-54.0	9.5	2.15e-02	0	41	0	0	67	7247
2026-01-21 00:34:11.69	8.86	8.36	-47.1	-52.5	11.1	2.61e-03	0	41	0	0	66	6483
2026-01-21 00:34:12.68	8.81	8.43	-46.6	-51.3	12.3	2.23e-04	0	41	0	0	65	5963
2026-01-21 00:34:13.67	8.75	8.51	-46.1	-50.3	13.3	4.34e-05	0	41	0	0	64	5650
2026-01-21 00:34:14.66	8.70	8.59	-45.8	-49.7	14.0	3.80e-06	0	41	0	0	63	5566
2026-01-21 00:34:15.66	8.64	8.66	-45.6	-49.3	14.4	1.50e-06	0	41	0	0	63	5337
2026-01-21 00:34:16.65	8.59	8.74	-45.4	-49.1	14.6	0.00e+00	0	41	0	0	62	5478
2026-01-21 00:34:17.64	8.54	8.82	-45.5	-49.2	14.5	0.00e+00	0	41	0	0	62	5534
2026-01-21 00:34:18.64	8.48	8.89	-45.7	-49.5	14.3	7.00e-07	0	41	0	0	62	5727
2026-01-21 00:34:19.63	8.43	8.97	-45.9	-49.8	13.9	3.00e-06	0	41	0	0	62	5950
2026-01-21 00:34:20.62	8.37	9.05	-46.6	-51.5	12.1	5.34e-05	0	41	0	0	64	6482
2026-01-21 00:34:21.62	8.31	9.13	-45.9	-49.5	14.2	4.95e-05	0	41	0	0	63	5450
2026-01-21 00:34:22.61	8.26	9.21	-46.4	-50.6	13.3	0.00e+00	0	41	0	0	63	6146
2026-01-21 00:34:23.61	8.20	9.29	-47.6	-53.7	9.9	1.49e-02	0	41	0	0	66	7444
2026-01-21 00:34:24.60	8.15	9.37	-45.0	-47.9	15.6	4.32e-03	0	41	0	0	62	4813
2026-01-21 00:34:25.60	8.09	9.45	-43.6	-45.8	17.6	0.00e+00	0	41	0	0	59	4481
2026-01-21 00:34:26.59	8.03	9.52	-43.5	-45.8	17.7	0.00e+00	0	41	0	0	59	4455
2026-01-21 00:34:27.59	7.97	9.60	-43.4	-45.6	17.9	0.00e+00	0	41	0	0	58	4617
2026-01-21 00:34:28.58	7.91	9.68	-43.4	-45.6	17.8	0.00e+00	0	41	0	0	58	4628
2026-01-21 00:34:29.58	7.86	9.76	-43.4	-45.6	17.9	0.00e+00	0	41	0	0	58	4610
2026-01-21 00:34:30.57	7.80	9.84	-43.3	-45.5	18.0	0.00e+00	0	41	0	0	58	4557
2026-01-21 00:34:31.57	7.74	9.93	-43.4	-45.6	17.9	0.00e+00	0	41	0	0	58	4603
2026-01-21 00:34:32.56	7.68	10.01	-43.3	-45.5	18.0	0.00e+00	0	41	0	0	58	4575
2026-01-21 00:34:33.56	7.62	10.09	-43.3	-45.5	17.9	0.00e+00	0	41	0	0	58	4580
2026-01-21 00:34:34.55	7.56	10.17	-43.3	-45.5	18.0	0.00e+00	0	41	0	0	58	4573
2026-01-21 00:34:35.55	7.50	10.25	-43.3	-45.5	18.0	0.00e+00	0	41	0	0	58	4550
2026-01-21 00:34:36.54	7.44	10.33	-43.2	-45.3	18.2	0.00e+00	0	41	0	0	58	4446
2026-01-21 00:34:37.54	7.37	10.41	-43.2	-45.3	18.1	0.00e+00	0	41	0	0	58	4492
2026-01-21 00:34:38.53	7.31	10.50	-43.2	-45.3	18.2	0.00e+00	0	41	0	0	58	4447
2026-01-21 00:34:39.53	7.25	10.58	-43.1	-45.3	18.2	0.00e+00	0	41	0	0	58	4450
2026-01-21 00:34:40.53	7.19	10.66	-43.3	-45.4	18.1	0.00e+00	0	41	0	0	58	4515
2026-01-21 00:34:41.52	7.13	10.75	-43.2	-45.3	18.2	0.00e+00	0	41	0	0	58	4466
2026-01-21 00:34:42.51	7.06	10.83	-43.2	-45.3	18.2	0.00e+00	0	41	0	0	58	4457
2026-01-21 00:34:43.51	7.00	10.91	-43.2	-45.3	18.2	0.00e+00	0	41	0	0	58	4464
2026-01-21 00:34:44.50	6.93	11.00	-43.3	-45.4	18.2	0.00e+00	0	41	0	0	58	4505
2026-01-21 00:34:45.50	6.87	11.08	-43.3	-45.3	18.2	0.00e+00	0	41	0	0	58	4492
2026-01-21 00:34:46.49	6.81	11.16	-43.3	-45.4	18.1	0.00e+00	0	41	0	0	58	4497
2026-01-21 00:34:47.49	6.74	11.25	-43.3	-45.3	18.2	0.00e+00	0	41	0	0	58	4483
2026-01-21 00:34:48.48	6.67	11.33	-43.1	-45.1	18.3	0.00e+00	0	41	0	0	58	4388
2026-01-21 00:34:49.47	6.61	11.42	-43.2	-45.2	18.3	0.00e+00	0	41	0	0	58	4419
2026-01-21 00:34:50.47	6.54	11.50	-43.2	-45.3	18.3	0.00e+00	0	41	0	0	58	4446
2026-01-21 00:34:51.46	6.48	11.59	-43.2	-45.1	18.3	0.00e+00	0	41	0	0	58	4389
2026-01-21 00:34:52.46	6.41	11.68	-43.2	-45.2	18.2	0.00e+00	0	41	0	0	58	4434
2026-01-21 00:34:53.45	6.34	11.76	-43.2	-45.2	18.3	0.00e+00	0	41	0	0	58	4422
2026-01-21 00:34:54.44	6.27	11.85	-43.2	-45.2	18.3	0.00e+00	0	41	0	0	58	4422
2026-01-21 00:34:55.44	6.20	11.93	-43.2	-45.2	18.3	0.00e+00	0	41	0	0	58	4416
2026-01-21 00:34:56.43	6.14	12.02	-43.3	-45.3	18.2	0.00e+00	0	41	0	0	58	4469
2026-01-21 00:34:57.43	6.07	12.11	-43.2	-45.2	18.3	0.00e+00	0	41	0	0	58	4410
2026-01-21 00:34:58.42	6.00	12.20	-43.2	-45.2	18.3	0.00e+00	0	41	0	0	58	4432
2026-01-21 00:34:59.42	5.93	12.28	-43.2	-45.2	18.3	0.00e+00	0	41	0	0	58	4435
2026-01-21 00:35:00.42	5.85	12.37	-43.1	-45.1	18.4	0.00e+00	0	41	0	0	58	4368
2026-01-21 00:35:01.41	5.78	12.46	-43.1	-45.1	18.5	0.00e+00	0	41	0	0	58	4366
2026-01-21 00:35:02.40	5.71	12.55	-43.2	-45.1	18.4	0.00e+00	0	41	0	0	58	4382
2026-01-21 00:35:03.40	5.64	12.64	-43.2	-45.1	18.4	0.00e+00	0	41	0	0	58	4391
2026-01-21 00:35:04.39	5.57	12.73	-43.1	-45.0	18.6	0.00e+00	0	41	0	0	58	4307
2026-01-21 00:35:05.39	5.50	12.82	-43.1	-45.0	18.6	0.00e+00	0	41	0	0	58	4315
2026-01-21 00:35:06.38	5.42	12.90	-43.1	-45.0	18.6	0.00e+00	0	41	0	0	58	4308
2026-01-21 00:35:07.38	5.35	13.00	-43.1	-45.0	18.6	0.00e+00	0	41	0	0	58	4316
2026-01-21 00:35:08.37	5.27	13.08	-43.2	-45.1	18.5	0.00e+00	0	41	0	0	58	4359
2026-01-21 00:35:09.37	5.20	13.18	-43.0	-44.9	18.6	0.00e+00	0	41	0	0	58	4278
2026-01-21 00:35:10.36	5.12	13.27	-42.9	-44.8	18.7	0.00e+00	0	41	0	0	57	4466
2026-01-21 00:35:11.36	5.05	13.36	-42.8	-44.7	18.8	0.00e+00	0	41	0	0	57	4414
2026-01-21 00:35:12.35	4.97	13.45	-42.8	-44.7	18.8	0.00e+00	0	41	0	0	57	4421
2026-01-21 00:35:13.35	4.89	13.54	-42.8	-44.7	18.9	0.00e+00	0	41	0	0	57	4400
2026-01-21 00:35:14.34	4.82	13.63	-42.8	-44.7	18.9	0.00e+00	0	41	0	0	57	4403
2026-01-21 00:35:15.33	4.74	13.72	-42.7	-44.6	19.0	0.00e+00	0	41	0	0	57	4355
2026-01-21 00:35:16.33	4.66	13.82	-42.7	-44.6	18.9	0.00e+00	0	41	0	0	57	4354
2026-01-21 00:35:17.32	4.58	13.91	-42.8	-44.6	18.9	0.00e+00	0	41	0	0	57	4388
2026-01-21 00:35:18.32	4.50	14.00	-42.7	-44.6	19.0	0.00e+00	0	41	0	0	57	4361
2026-01-21 00:35:19.31	4.42	14.10	-42.8	-44.7	18.9	0.00e+00	0	41	0	0	57	4401
2026-01-21 00:35:20.31	4.34	14.19	-42.8	-44.7	18.8	0.00e+00	0	41	0	0	57	4415
2026-01-21 00:35:21.30	4.26	14.28	-42.9	-44.7	18.8	0.00e+00	0	41	0	0	57	4436
2026-01-21 00:35:22.30	4.18	14.38	-42.9	-44.7	18.8	0.00e+00	0	41	0	0	57	4439
2026-01-21 00:35:23.29	4.10	14.47	-43.0	-44.8	18.7	0.00e+00	0	41	0	0	57	4484
2026-01-21 00:35:24.28	4.02	14.57	-43.0	-44.9	18.7	0.00e+00	0	41	0	0	57	4505
2026-01-21 00:35:25.28	3.93	14.66	-43.0	-44.9	18.7	0.00e+00	0	41	0	0	57	4527
2026-01-21 00:35:26.27	3.85	14.76	-43.1	-44.9	18.7	0.00e+00	0	41	0	0	57	4540
2026-01-21 00:35:27.27	3.77	14.85	-43.1	-44.9	18.7	0.00e+00	0	41	0	0	57	4538
2026-01-21 00:35:28.26	3.68	14.95	-43.1	-44.9	18.7	0.00e+00	0	41	0	0	57	4534
2026-01-21 00:35:29.26	3.60	15.05	-43.0	-44.9	18.7	0.00e+00	0	41	0	0	57	4535
2026-01-21 00:35:30.25	3.51	15.14	-43.1	-44.9	18.7	0.00e+00	0	41	0	0	57	4533
2026-01-21 00:35:31.25	3.42	15.24	-43.1	-44.9	18.7	0.00e+00	0	41	0	0	57	4535
2026-01-21 00:35:32.24	3.34	15.34	-43.0	-44.9	18.7	0.00e+00	0	41	0	0	57	4514
2026-01-21 00:35:33.24	3.25	15.44	-43.0	-44.9	18.8	0.00e+00	0	41	0	0	57	4507
2026-01-21 00:35:34.23	3.16	15.53	-43.1	-45.0	18.7	0.00e+00	0	41	0	0	57	4553
2026-01-21 00:35:35.23	3.07	15.63	-43.1	-44.9	18.7	0.00e+00	0	41	0	0	57	4536
2026-01-21 00:35:36.22	2.98	15.73	-43.1	-44.9	18.7	0.00e+00	0	41	0	0	57	4541
2026-01-21 00:35:37.22	2.89	15.83	-43.0	-44.9	18.8	0.00e+00	0	41	0	0	57	4514
2026-01-21 00:35:38.21	2.80	15.93	-42.9	-44.8	18.9	0.00e+00	0	41	0	0	57	4446
2026-01-21 00:35:39.21	2.71	16.03	-42.8	-44.6	19.0	0.00e+00	0	41	0	0	57	4367
2026-01-21 00:35:40.20	2.62	16.13	-42.8	-44.7	19.0	0.00e+00	0	41	0	0	57	4402
2026-01-21 00:35:41.20	2.52	16.23	-42.8	-44.6	19.0	0.00e+00	0	41	0	0	57	4389
2026-01-21 00:35:42.19	2.43	16.33	-42.8	-44.6	19.0	0.00e+00	0	41	0	0	57	4389
2026-01-21 00:35:43.19	2.34	16.43	-42.8	-44.6	19.0	0.00e+00	0	41	0	0	57	4361
2026-01-21 00:35:44.18	2.24	16.53	-42.8	-44.6	19.0	0.00e+00	0	41	0	0	57	4385
2026-01-21 00:35:45.18	2.15	16.64	-42.9	-44.7	18.9	0.00e+00	0	41	0	0	57	4430
2026-01-21 00:35:46.17	2.05	16.74	-42.8	-44.6	18.9	0.00e+00	0	41	0	0	57	4388
2026-01-21 00:35:47.17	1.95	16.84	-42.9	-44.7	18.9	0.00e+00	0	41	0	0	57	4436
2026-01-21 00:35:48.17	1.86	16.94	-43.0	-44.8	18.8	0.00e+00	0	41	0	0	57	4492
2026-01-21 00:35:49.16	1.76	17.05	-43.0	-44.9	18.7	0.00e+00	0	41	0	0	57	4531
2026-01-21 00:35:50.16	1.66	17.15	-43.2	-45.1	18.6	0.00e+00	0	41	0	0	57	4607
2026-01-21 00:35:51.15	1.56	17.25	-43.2	-45.1	18.5	0.00e+00	0	41	0	0	57	4631
2026-01-21 00:35:52.15	1.46	17.36	-43.2	-45.2	18.5	0.00e+00	0	41	0	0	57	4652
2026-01-21 00:35:53.14	1.36	17.46	-43.3	-45.2	18.5	0.00e+00	0	41	0	0	57	4671
2026-01-21 00:35:54.13	1.26	17.57	-43.3	-45.2	18.4	0.00e+00	0	41	0	0	57	4689
2026-01-21 00:35:55.13	1.16	17.67	-43.3	-45.2	18.4	0.00e+00	0	41	0	0	57	4693
2026-01-21 00:35:56.12	1.05	17.78	-43.4	-45.2	18.5	0.00e+00	0	41	0	0	57	4703
2026-01-21 00:35:57.12	0.95	17.88	-43.3	-45.2	18.5	0.00e+00	0	41	0	0	57	4678
2026-01-21 00:35:58.11	0.85	17.99	-43.4	-45.3	18.4	0.00e+00	0	41	0	0	57	4714
2026-01-21 00:35:59.11	0.74	18.10	-43.3	-45.2	18.5	0.00e+00	0	41	0	0	57	4663
2026-01-21 00:36:00.10	0.63	18.20	-43.3	-45.1	18.6	0.00e+00	0	41	0	0	57	4644
2026-01-21 00:36:01.10	0.53	18.31	-43.2	-45.1	18.6	0.00e+00	0	41	0	0	57	4614
2026-01-21 00:36:02.09	0.42	18.42	-43.2	-45.1	18.6	0.00e+00	0	41	0	0	57	4599
2026-01-21 00:36:03.09	0.31	18.53	-43.2	-45.0	18.7	0.00e+00	0	41	0	0	57	4582
2026-01-21 00:36:04.08	0.20	18.64	-43.2	-45.1	18.6	0.00e+00	0	41	0	0	57	4618
2026-01-21 00:36:05.07	0.09	18.74	-43.2	-45.0	18.7	0.00e+00	0	41	0	0	57	4570
2026-01-21 00:36:06.07	359.98	18.85	-43.2	-45.1	18.6	0.00e+00	0	41	0	0	57	4611
2026-01-21 00:36:07.06	359.87	18.96	-43.2	-45.0	18.6	0.00e+00	0	41	0	0	57	4571
2026-01-21 00:36:08.06	359.76	19.07	-43.2	-45.0	18.6	0.00e+00	0	41	0	0	57	4579
2026-01-21 00:36:09.05	359.64	19.18	-43.1	-45.0	18.6	0.00e+00	0	41	0	0	57	4575
2026-01-21 00:36:10.05	359.53	19.29	-43.1	-45.0	18.6	0.00e+00	0	41	0	0	57	4569
2026-01-21 00:36:11.04	359.41	19.40	-43.1	-44.9	18.7	0.00e+00	0	41	0	0	57	4521
2026-01-21 00:36:12.04	359.30	19.52	-43.1	-45.0	18.7	0.00e+00	0	41	0	0	57	4547
2026-01-21 00:36:13.03	359.18	19.63	-43.0	-44.9	18.8	0.00e+00	0	41	0	0	57	4498
2026-01-21 00:36:14.03	359.06	19.74	-43.0	-44.9	18.8	0.00e+00	0	41	0	0	57	4496
2026-01-21 00:36:15.02	358.95	19.85	-43.0	-44.9	18.8	0.00e+00	0	41	0	0	57	4508
2026-01-21 00:36:16.02	358.82	19.97	-43.0	-44.9	18.8	0.00e+00	0	41	0	0	57	4525
2026-01-21 00:36:17.02	358.70	20.08	-43.0	-44.8	18.9	0.00e+00	0	41	0	0	57	4481
2026-01-21 00:36:18.01	358.58	20.19	-42.8	-44.6	19.1	0.00e+00	0	41	0	0	57	4387
2026-01-21 00:36:19.00	358.46	20.31	-42.7	-44.5	19.2	0.00e+00	0	41	0	0	57	4311
2026-01-21 00:36:20.00	358.34	20.42	-42.6	-44.4	19.3	0.00e+00	0	41	0	0	57	4263
2026-01-21 00:36:21.00	358.21	20.54	-42.5	-44.3	19.4	0.00e+00	0	41	0	0	57	4214
2026-01-21 00:36:21.99	358.09	20.65	-42.3	-44.1	19.5	0.00e+00	0	41	0	0	56	4354
2026-01-21 00:36:22.99	357.96	20.77	-42.2	-43.9	19.7	0.00e+00	0	41	0	0	56	4261
2026-01-21 00:36:23.99	357.83	20.88	-42.1	-43.8	19.8	0.00e+00	0	41	0	0	56	4203
2026-01-21 00:36:24.98	357.71	21.00	-41.8	-43.5	19.9	0.00e+00	0	41	0	0	55	4294
2026-01-21 00:36:25.98	357.58	21.12	-41.9	-43.6	19.8	0.00e+00	0	41	0	0	55	4357
2026-01-21 00:36:26.97	357.45	21.23	-41.8	-43.5	19.8	0.00e+00	0	41	0	0	55	4324
2026-01-21 00:36:27.96	357.32	21.35	-41.7	-43.4	19.9	0.00e+00	0	41	0	0	55	4275
2026-01-21 00:36:28.96	357.18	21.47	-41.7	-43.4	19.9	0.00e+00	0	41	0	0	55	4286
2026-01-21 00:36:29.95	357.05	21.59	-41.7	-43.4	19.9	0.00e+00	0	41	0	0	55	4287
2026-01-21 00:36:30.95	356.92	21.71	-41.7	-43.4	19.9	0.00e+00	0	41	0	0	55	4274
2026-01-21 00:36:31.94	356.78	21.83	-41.8	-43.5	19.9	0.00e+00	0	41	0	0	55	4300
2026-01-21 00:36:32.94	356.65	21.95	-41.5	-43.2	20.1	0.00e+00	0	41	0	0	55	4173
2026-01-21 00:36:33.93	356.51	22.07	-41.7	-43.4	20.0	0.00e+00	0	41	0	0	55	4257
2026-01-21 00:36:34.93	356.37	22.19	-41.5	-43.2	20.2	0.00e+00	0	41	0	0	55	4158
2026-01-21 00:36:35.92	356.23	22.31	-41.5	-43.2	20.3	0.00e+00	0	41	0	0	54	4394
2026-01-21 00:36:36.92	356.09	22.43	-41.5	-43.1	20.3	0.00e+00	0	41	0	0	54	4390
2026-01-21 00:36:37.91	355.95	22.55	-41.5	-43.2	20.3	0.00e+00	0	41	0	0	54	4396
2026-01-21 00:36:38.90	355.81	22.67	-41.5	-43.2	20.3	0.00e+00	0	41	0	0	54	4398
2026-01-21 00:36:39.90	355.66	22.79	-41.4	-43.1	20.3	0.00e+00	0	41	0	0	54	4360
2026-01-21 00:36:40.89	355.52	22.91	-41.5	-43.2	20.3	0.00e+00	0	41	0	0	54	4395
2026-01-21 00:36:41.89	355.37	23.04	-41.3	-43.0	20.4	0.00e+00	0	41	0	0	54	4302
2026-01-21 00:36:42.89	355.22	23.16	-41.2	-42.9	20.5	0.00e+00	0	41	0	0	54	4255
2026-01-21 00:36:43.88	355.07	23.29	-41.3	-43.0	20.4	0.00e+00	0	41	0	0	54	4297
2026-01-21 00:36:44.88	354.92	23.41	-41.3	-43.0	20.3	0.00e+00	0	41	0	0	54	4305
2026-01-21 00:36:45.87	354.77	23.53	-41.4	-43.0	20.3	0.00e+00	0	41	0	0	54	4337
2026-01-21 00:36:46.86	354.62	23.66	-41.5	-43.2	20.2	0.00e+00	0	41	0	0	54	4392
2026-01-21 00:36:47.86	354.47	23.78	-41.4	-43.1	20.2	0.00e+00	0	41	0	0	54	4381
2026-01-21 00:36:48.85	354.31	23.91	-41.4	-43.1	20.2	0.00e+00	0	41	0	0	54	4387
2026-01-21 00:36:49.85	354.15	24.04	-41.4	-43.1	20.2	0.00e+00	0	41	0	0	54	4390
2026-01-21 00:36:50.85	354.00	24.16	-41.4	-43.1	20.2	0.00e+00	0	41	0	0	54	4374
2026-01-21 00:36:51.84	353.84	24.29	-41.6	-43.3	20.1	0.00e+00	0	41	0	0	54	4484
2026-01-21 00:36:52.84	353.68	24.42	-41.6	-43.3	20.1	0.00e+00	0	41	0	0	54	4478
2026-01-21 00:36:53.83	353.52	24.54	-41.6	-43.3	20.2	0.00e+00	0	41	0	0	54	4458
2026-01-21 00:36:54.83	353.35	24.67	-41.6	-43.3	20.2	0.00e+00	0	41	0	0	54	4476
2026-01-21 00:36:55.82	353.19	24.80	-41.7	-43.4	20.1	0.00e+00	0	41	0	0	54	4516
2026-01-21 00:36:56.82	353.02	24.93	-41.6	-43.3	20.2	0.00e+00	0	41	0	0	54	4462
2026-01-21 00:36:57.81	352.86	25.06	-41.6	-43.2	20.3	0.00e+00	0	41	0	0	54	4417
2026-01-21 00:36:58.81	352.69	25.19	-41.6	-43.2	20.3	0.00e+00	0	41	0	0	54	4441
2026-01-21 00:36:59.80	352.52	25.32	-41.7	-43.3	20.2	0.00e+00	0	41	0	0	54	4480
2026-01-21 00:37:00.80	352.35	25.45	-41.7	-43.3	20.1	0.00e+00	0	41	0	0	54	4489
2026-01-21 00:37:01.79	352.17	25.58	-41.8	-43.4	20.0	0.00e+00	0	41	0	0	54	4537
2026-01-21 00:37:02.79	352.00	25.71	-41.8	-43.5	20.0	0.00e+00	0	41	0	0	54	4557
2026-01-21 00:37:03.78	351.82	25.84	-41.9	-43.6	19.9	0.00e+00	0	41	0	0	54	4623
2026-01-21 00:37:04.77	351.65	25.97	-42.1	-43.8	19.7	0.00e+00	0	41	0	0	54	4717
2026-01-21 00:37:05.77	351.47	26.10	-42.0	-43.7	19.8	0.00e+00	0	41	0	0	54	4697
2026-01-21 00:37:06.76	351.29	26.23	-42.1	-43.9	19.6	0.00e+00	0	41	0	0	54	4762
2026-01-21 00:37:07.76	351.11	26.37	-42.1	-43.9	19.7	0.00e+00	0	41	0	0	54	4774
2026-01-21 00:37:08.75	350.92	26.50	-42.2	-43.9	19.6	0.00e+00	0	41	0	0	55	4537
2026-01-21 00:37:09.75	350.74	26.63	-42.2	-43.9	19.6	0.00e+00	0	41	0	0	55	4537
2026-01-21 00:37:10.74	350.55	26.77	-42.2	-44.0	19.6	0.00e+00	0	41	0	0	55	4556
2026-01-21 00:37:11.74	350.36	26.90	-42.3	-44.1	19.5	0.00e+00	0	41	0	0	55	4602
2026-01-21 00:37:12.73	350.18	27.03	-42.3	-44.0	19.5	0.00e+00	0	41	0	0	55	4597
2026-01-21 00:37:13.72	349.98	27.17	-42.4	-44.1	19.4	0.00e+00	0	41	0	0	55	4628
2026-01-21 00:37:14.72	349.79	27.30	-42.5	-44.3	19.2	0.00e+00	0	41	0	0	55	4728
2026-01-21 00:37:15.71	349.60	27.44	-42.6	-44.4	19.1	0.00e+00	0	41	0	0	55	4767
2026-01-21 00:37:16.71	349.40	27.57	-42.7	-44.5	19.0	0.00e+00	0	41	0	0	55	4845
2026-01-21 00:37:17.70	349.20	27.71	-43.0	-44.9	18.8	0.00e+00	0	41	0	0	56	4783
2026-01-21 00:37:18.70	349.00	27.84	-43.2	-45.0	18.8	0.00e+00	0	41	0	0	56	4870
2026-01-21 00:37:19.69	348.80	27.98	-43.1	-45.0	18.8	0.00e+00	0	41	0	0	57	4568
2026-01-21 00:37:20.69	348.60	28.12	-43.1	-45.0	18.9	0.00e+00	0	41	0	0	57	4550
2026-01-21 00:37:21.69	348.39	28.25	-42.9	-44.7	19.1	0.00e+00	0	41	0	0	57	4439
2026-01-21 00:37:22.68	348.19	28.39	-42.9	-44.7	19.2	0.00e+00	0	41	0	0	57	4398
2026-01-21 00:37:23.68	347.98	28.53	-42.7	-44.5	19.4	0.00e+00	0	41	0	0	57	4292
2026-01-21 00:37:24.67	347.77	28.67	-42.7	-44.5	19.4	0.00e+00	0	41	0	0	57	4297
2026-01-21 00:37:25.67	347.56	28.80	-42.7	-44.5	19.3	0.00e+00	0	41	0	0	57	4306
2026-01-21 00:37:26.66	347.34	28.94	-42.8	-44.6	19.1	0.00e+00	0	41	0	0	57	4389
2026-01-21 00:37:27.66	347.13	29.08	-42.8	-44.7	19.1	0.00e+00	0	41	0	0	57	4392
2026-01-21 00:37:28.65	346.91	29.22	-42.9	-44.8	18.9	0.00e+00	0	41	0	0	57	4462
2026-01-21 00:37:29.65	346.69	29.36	-42.9	-44.8	18.9	0.00e+00	0	41	0	0	57	4466
2026-01-21 00:37:30.65	346.47	29.50	-42.9	-44.8	19.0	0.00e+00	0	41	0	0	57	4464
2026-01-21 00:37:31.64	346.24	29.63	-42.8	-44.7	19.1	0.00e+00	0	41	0	0	57	4404
2026-01-21 00:37:32.63	346.02	29.77	-42.9	-44.7	19.1	0.00e+00	0	41	0	0	57	4433
2026-01-21 00:37:33.63	345.79	29.91	-42.8	-44.6	19.3	0.00e+00	0	41	0	0	57	4359
2026-01-21 00:37:34.62	345.56	30.05	-42.7	-44.4	19.4	0.00e+00	0	41	0	0	57	4289
2026-01-21 00:37:35.62	345.33	30.19	-42.7	-44.5	19.3	0.00e+00	0	41	0	0	57	4313
2026-01-21 00:37:36.61	345.10	30.33	-42.6	-44.4	19.3	0.00e+00	0	41	0	0	57	4276
2026-01-21 00:37:37.61	344.86	30.47	-42.6	-44.4	19.3	0.00e+00	0	41	0	0	57	4270
2026-01-21 00:37:38.60	344.62	30.61	-42.7	-44.5	19.3	0.00e+00	0	41	0	0	57	4294
2026-01-21 00:37:39.60	344.38	30.75	-42.7	-44.5	19.2	0.00e+00	0	41	0	0	57	4319
2026-01-21 00:37:40.59	344.14	30.89	-42.7	-44.6	19.2	0.00e+00	0	41	0	0	57	4343
2026-01-21 00:37:41.59	343.90	31.03	-42.6	-44.3	19.4	0.00e+00	0	41	0	0	57	4236
2026-01-21 00:37:42.58	343.65	31.17	-42.4	-44.2	19.6	0.00e+00	0	41	0	0	56	4417
2026-01-21 00:37:43.58	343.40	31.31	-42.4	-44.2	19.6	0.00e+00	0	41	0	0	56	4423
2026-01-21 00:37:44.57	343.15	31.45	-42.5	-44.2	19.6	0.00e+00	0	41	0	0	56	4441
2026-01-21 00:37:45.57	342.90	31.60	-42.4	-44.2	19.6	0.00e+00	0	41	0	0	56	4397
2026-01-21 00:37:46.56	342.64	31.74	-42.4	-44.1	19.6	0.00e+00	0	41	0	0	56	4374
2026-01-21 00:37:47.55	342.39	31.88	-42.4	-44.2	19.5	0.00e+00	0	41	0	0	56	4417
2026-01-21 00:37:48.55	342.13	32.02	-42.3	-44.1	19.6	0.00e+00	0	41	0	0	56	4378
2026-01-21 00:37:49.54	341.87	32.16	-42.3	-44.1	19.5	0.00e+00	0	41	0	0	56	4390
2026-01-21 00:37:50.54	341.60	32.30	-42.2	-44.1	19.6	0.00e+00	0	41	0	0	56	4347
2026-01-21 00:37:51.53	341.34	32.44	-42.4	-44.2	19.5	0.00e+00	0	41	0	0	56	4410
2026-01-21 00:37:52.53	341.07	32.58	-42.4	-44.2	19.5	0.00e+00	0	41	0	0	56	4439
2026-01-21 00:37:53.52	340.80	32.72	-42.6	-44.4	19.4	0.00e+00	0	41	0	0	56	4497
2026-01-21 00:37:54.52	340.52	32.86	-42.6	-44.4	19.3	0.00e+00	0	41	0	0	56	4527
2026-01-21 00:37:55.51	340.25	33.00	-42.8	-44.5	19.2	0.00e+00	0	41	0	0	56	4584
2026-01-21 00:37:56.51	339.97	33.14	-42.5	-44.3	19.4	0.00e+00	0	41	0	0	56	4454
2026-01-21 00:37:57.50	339.69	33.28	-42.6	-44.3	19.3	0.00e+00	0	41	0	0	56	4490
2026-01-21 00:37:58.50	339.40	33.42	-42.7	-44.5	19.2	0.00e+00	0	41	0	0	56	4574
2026-01-21 00:37:59.49	339.12	33.56	-42.9	-44.7	19.0	0.00e+00	0	41	0	0	56	4694
2026-01-21 00:38:00.49	338.83	33.70	-43.1	-44.9	18.9	0.00e+00	0	41	0	0	56	4777
2026-01-21 00:38:01.48	338.54	33.84	-43.3	-45.1	18.6	0.00e+00	0	41	0	0	57	4619
2026-01-21 00:38:02.48	338.25	33.98	-43.6	-45.5	18.3	0.00e+00	0	41	0	0	57	4818
2026-01-21 00:38:03.47	337.95	34.12	-43.7	-45.7	18.2	0.00e+00	0	41	0	0	58	4659
2026-01-21 00:38:04.47	337.65	34.26	-43.6	-45.5	18.3	0.00e+00	0	41	0	0	58	4588
2026-01-21 00:38:05.46	337.35	34.40	-43.6	-45.6	18.3	0.00e+00	0	41	0	0	58	4637
2026-01-21 00:38:06.46	337.05	34.53	-43.7	-45.7	18.2	0.00e+00	0	41	0	0	58	4667
2026-01-21 00:38:07.45	336.74	34.67	-43.7	-45.7	18.2	0.00e+00	0	41	0	0	58	4666
2026-01-21 00:38:08.45	336.43	34.81	-43.8	-45.7	18.2	0.00e+00	0	41	0	0	58	4704
2026-01-21 00:38:09.45	336.12	34.95	-43.7	-45.6	18.3	0.00e+00	0	41	0	0	58	4643
2026-01-21 00:38:10.44	335.81	35.08	-43.6	-45.6	18.4	0.00e+00	0	41	0	0	58	4605
2026-01-21 00:38:11.44	335.49	35.22	-43.7	-45.6	18.4	0.00e+00	0	41	0	0	58	4631
2026-01-21 00:38:12.43	335.17	35.36	-43.8	-45.7	18.2	0.00e+00	0	41	0	0	58	4682
2026-01-21 00:38:13.42	334.85	35.49	-44.0	-46.0	18.0	0.00e+00	0	41	0	0	58	4842
2026-01-21 00:38:14.42	334.52	35.63	-44.1	-46.1	17.9	0.00e+00	0	41	0	0	58	4892
2026-01-21 00:38:15.41	334.20	35.76	-44.2	-46.1	17.9	0.00e+00	0	41	0	0	59	4637
2026-01-21 00:38:16.41	333.86	35.90	-44.3	-46.3	17.7	0.00e+00	0	41	0	0	59	4740
2026-01-21 00:38:17.40	333.53	36.03	-44.3	-46.3	17.7	0.00e+00	0	41	0	0	59	4716
2026-01-21 00:38:18.40	333.20	36.16	-44.4	-46.4	17.6	0.00e+00	0	41	0	0	59	4784
2026-01-21 00:38:19.40	332.86	36.30	-44.6	-46.7	17.3	0.00e+00	0	41	0	0	59	4938
2026-01-21 00:38:20.39	332.52	36.43	-44.6	-46.6	17.4	0.00e+00	0	41	0	0	59	4906
2026-01-21 00:38:21.38	332.17	36.56	-44.5	-46.6	17.4	0.00e+00	0	41	0	0	59	4883
2026-01-21 00:38:22.38	331.82	36.69	-44.3	-46.4	17.6	0.00e+00	0	41	0	0	59	4778
2026-01-21 00:38:23.37	331.48	36.82	-44.1	-46.2	17.8	0.00e+00	0	41	0	0	59	4654
2026-01-21 00:38:24.37	331.12	36.95	-44.2	-46.2	17.7	0.00e+00	0	41	0	0	59	4698
2026-01-21 00:38:25.36	330.77	37.08	-44.3	-46.4	17.6	0.00e+00	0	41	0	0	59	4776
2026-01-21 00:38:26.35	330.41	37.20	-44.3	-46.3	17.6	0.00e+00	0	41	0	0	59	4752
2026-01-21 00:38:27.35	330.05	37.33	-44.2	-46.2	17.8	0.00e+00	0	41	0	0	59	4681
2026-01-21 00:38:28.34	329.69	37.46	-44.1	-46.1	17.9	0.00e+00	0	41	0	0	59	4608
2026-01-21 00:38:29.34	329.32	37.58	-44.1	-46.1	17.9	0.00e+00	0	41	0	0	59	4600
2026-01-21 00:38:30.33	328.95	37.70	-44.1	-46.1	17.9	0.00e+00	0	41	0	0	59	4604
2026-01-21 00:38:31.33	328.58	37.83	-44.3	-46.3	17.8	0.00e+00	0	41	0	0	59	4717
2026-01-21 00:38:32.32	328.20	37.95	-44.2	-46.2	17.8	0.00e+00	0	41	0	0	59	4691
2026-01-21 00:38:33.32	327.82	38.07	-44.1	-46.1	17.9	0.00e+00	0	41	0	0	59	4628
2026-01-21 00:38:34.31	327.44	38.19	-44.1	-46.1	17.9	0.00e+00	0	41	0	0	59	4623
2026-01-21 00:38:35.31	327.06	38.31	-44.1	-46.1	17.9	0.00e+00	0	41	0	0	59	4608
2026-01-21 00:38:36.31	326.67	38.43	-44.0	-46.1	17.8	0.00e+00	0	41	0	0	59	4606
2026-01-21 00:38:37.30	326.28	38.55	-44.3	-46.4	17.5	0.00e+00	0	41	0	0	59	4776
2026-01-21 00:38:38.30	325.89	38.66	-44.4	-46.6	17.4	0.00e+00	0	41	0	0	59	4898
2026-01-21 00:38:39.29	325.49	38.78	-44.6	-46.8	17.2	0.00e+00	0	41	0	0	59	5033
2026-01-21 00:38:40.29	325.09	38.89	-44.5	-46.7	17.4	0.00e+00	0	41	0	0	60	4677
2026-01-21 00:38:41.28	324.70	39.01	-44.4	-46.5	17.5	0.00e+00	0	41	0	0	60	4586
2026-01-21 00:38:42.28	324.29	39.12	-44.6	-46.8	17.3	0.00e+00	0	41	0	0	60	4715
2026-01-21 00:38:43.27	323.89	39.23	-45.0	-47.2	16.8	0.00e+00	0	41	0	0	60	4950
2026-01-21 00:38:44.27	323.47	39.34	-45.2	-47.5	16.5	0.00e+00	0	41	0	0	61	4816
2026-01-21 00:38:45.26	323.07	39.44	-45.4	-47.7	16.4	0.00e+00	0	41	0	0	61	4943
2026-01-21 00:38:46.26	322.65	39.55	-45.4	-47.6	16.5	0.00e+00	0	41	0	0	61	4901
2026-01-21 00:38:47.25	322.23	39.65	-45.1	-47.3	16.9	0.00e+00	0	41	0	0	61	4709
2026-01-21 00:38:48.24	321.82	39.76	-45.2	-47.4	16.8	0.00e+00	0	41	0	0	61	4761
2026-01-21 00:38:49.24	321.39	39.86	-45.2	-47.4	16.7	0.00e+00	0	41	0	0	61	4804
2026-01-21 00:38:50.23	320.97	39.96	-45.6	-47.9	16.2	0.00e+00	0	41	0	0	61	5073
2026-01-21 00:38:51.23	320.54	40.06	-45.5	-47.8	16.4	0.00e+00	0	41	0	0	61	5007
2026-01-21 00:38:52.22	320.11	40.15	-45.4	-47.6	16.6	0.00e+00	0	41	0	0	61	4902
2026-01-21 00:38:53.22	319.67	40.25	-45.4	-47.6	16.6	0.00e+00	0	41	0	0	61	4899
2026-01-21 00:38:54.21	319.24	40.34	-45.4	-47.6	16.6	0.00e+00	0	41	0	0	61	4905
2026-01-21 00:38:55.21	318.80	40.44	-45.4	-47.6	16.6	0.00e+00	0	41	0	0	61	4922
2026-01-21 00:38:56.20	318.36	40.53	-45.2	-47.3	16.9	0.00e+00	0	41	0	0	61	4751
2026-01-21 00:38:57.20	317.91	40.62	-45.0	-47.2	17.0	0.00e+00	0	41	0	0	61	4666
2026-01-21 00:38:58.20	317.47	40.70	-44.7	-46.7	17.4	0.00e+00	0	41	0	0	61	4428
2026-01-21 00:38:59.19	317.02	40.79	-44.5	-46.5	17.7	0.00e+00	0	41	0	0	60	4557
2026-01-21 00:39:00.19	316.57	40.87	-44.6	-46.6	17.6	0.00e+00	0	41	0	0	60	4636
2026-01-21 00:39:01.18	316.12	40.96	-44.5	-46.6	17.6	0.00e+00	0	41	0	0	60	4602
2026-01-21 00:39:02.17	315.66	41.03	-44.6	-46.7	17.4	0.00e+00	0	41	0	0	60	4660
2026-01-21 00:39:03.17	315.20	41.11	-44.6	-46.7	17.4	0.00e+00	0	41	0	0	60	4676
2026-01-21 00:39:04.16	314.75	41.19	-44.7	-46.7	17.4	0.00e+00	0	41	0	0	60	4694
2026-01-21 00:39:05.16	314.28	41.26	-44.8	-46.8	17.3	0.00e+00	0	41	0	0	60	4740
2026-01-21 00:39:06.15	313.82	41.34	-44.8	-46.9	17.3	0.00e+00	0	41	0	0	60	4775
2026-01-21 00:39:07.15	313.35	41.41	-44.6	-46.6	17.6	0.00e+00	0	41	0	0	60	4599
2026-01-21 00:39:08.15	312.88	41.47	-44.3	-46.2	17.8	0.00e+00	0	41	0	0	60	4432
2026-01-21 00:39:09.14	312.41	41.54	-44.3	-46.3	17.7	0.00e+00	0	41	0	0	60	4473
2026-01-21 00:39:10.14	311.94	41.61	-44.4	-46.4	17.6	0.00e+00	0	41	0	0	60	4524
2026-01-21 00:39:11.13	311.47	41.67	-44.4	-46.4	17.7	0.00e+00	0	41	0	0	60	4512
2026-01-21 00:39:12.12	311.00	41.73	-44.4	-46.4	17.7	0.00e+00	0	41	0	0	60	4504
2026-01-21 00:39:13.12	310.52	41.78	-44.4	-46.4	17.7	0.00e+00	0	41	0	0	60	4506
2026-01-21 00:39:14.11	310.04	41.84	-44.5	-46.5	17.5	0.00e+00	0	41	0	0	60	4569
2026-01-21 00:39:15.11	309.56	41.89	-44.7	-46.8	17.0	0.00e+00	0	41	0	0	60	4747
2026-01-21 00:39:16.10	309.08	41.94	-45.2	-47.4	16.5	0.00e+00	0	41	0	0	61	4805
2026-01-21 00:39:17.10	308.59	41.99	-45.2	-47.5	16.5	0.00e+00	0	41	0	0	61	4831
2026-01-21 00:39:18.09	308.11	42.04	-45.1	-47.3	16.8	0.00e+00	0	41	0	0	61	4720
2026-01-21 00:39:19.09	307.62	42.09	-45.1	-47.3	16.7	0.00e+00	0	41	0	0	61	4757
2026-01-21 00:39:20.08	307.13	42.13	-45.3	-47.5	16.6	0.00e+00	0	41	0	0	61	4830
2026-01-21 00:39:21.07	306.65	42.17	-45.5	-47.8	16.4	0.00e+00	0	41	0	0	61	5021
2026-01-21 00:39:22.07	306.15	42.20	-45.6	-47.9	16.2	0.00e+00	0	41	0	0	61	5094
2026-01-21 00:39:23.06	305.66	42.24	-45.6	-47.9	16.2	0.00e+00	0	41	0	0	61	5078
2026-01-21 00:39:24.06	305.17	42.27	-45.6	-47.9	16.3	0.00e+00	0	41	0	0	62	4772
2026-01-21 00:39:25.05	304.68	42.30	-45.6	-47.9	16.3	0.00e+00	0	41	0	0	62	4780
2026-01-21 00:39:26.05	304.18	42.33	-45.7	-48.0	16.3	0.00e+00	0	41	0	0	62	4817
2026-01-21 00:39:27.04	303.69	42.36	-45.3	-47.5	16.6	0.00e+00	0	41	0	0	62	4597
2026-01-21 00:39:28.03	303.19	42.38	-45.0	-47.1	17.0	0.00e+00	0	41	0	0	62	4375
2026-01-21 00:39:29.03	302.69	42.40	-44.8	-46.9	17.2	0.00e+00	0	41	0	0	61	4514
2026-01-21 00:39:30.02	302.20	42.42	-45.0	-47.1	16.9	0.00e+00	0	41	0	0	61	4625
2026-01-21 00:39:31.02	301.70	42.44	-45.3	-47.5	16.6	0.00e+00	0	41	0	0	61	4819
2026-01-21 00:39:32.01	301.20	42.45	-45.0	-47.0	17.0	0.00e+00	0	41	0	0	61	4597
2026-01-21 00:39:33.01	300.70	42.46	-45.1	-47.2	16.8	0.00e+00	0	41	0	0	61	4689
2026-01-21 00:39:34.00	300.20	42.47	-45.1	-47.2	16.8	0.00e+00	0	41	0	0	61	4684
2026-01-21 00:39:35.00	299.70	42.48	-44.9	-47.1	17.0	0.00e+00	0	41	0	0	61	4606
2026-01-21 00:39:35.99	299.21	42.48	-44.8	-46.9	17.2	0.00e+00	0	41	0	0	61	4494
2026-01-21 00:39:36.99	298.70	42.48	-44.7	-46.8	17.2	0.00e+00	0	41	0	0	61	4469
2026-01-21 00:39:37.98	298.21	42.48	-44.6	-46.6	17.4	0.00e+00	0	41	0	0	61	4371
2026-01-21 00:39:38.98	297.70	42.48	-44.9	-47.0	17.1	0.00e+00	0	41	0	0	61	4582
2026-01-21 00:39:39.97	297.21	42.47	-45.1	-47.3	16.9	0.00e+00	0	41	0	0	61	4728
2026-01-21 00:39:40.97	296.70	42.46	-45.3	-47.4	16.7	0.00e+00	0	41	0	0	61	4798
2026-01-21 00:39:41.96	296.21	42.45	-45.3	-47.5	16.7	0.00e+00	0	41	0	0	61	4850
2026-01-21 00:39:42.96	295.71	42.44	-44.8	-46.8	17.3	0.00e+00	0	41	0	0	61	4480
2026-01-21 00:39:43.95	295.21	42.42	-44.8	-46.9	17.2	0.00e+00	0	41	0	0	61	4501
2026-01-21 00:39:44.95	294.71	42.40	-44.7	-46.7	17.3	0.00e+00	0	41	0	0	61	4437
2026-01-21 00:39:45.94	294.22	42.38	-44.9	-46.9	17.2	0.00e+00	0	41	0	0	61	4525
2026-01-21 00:39:46.94	293.72	42.36	-44.9	-46.9	17.2	0.00e+00	0	41	0	0	61	4516
2026-01-21 00:39:47.94	293.22	42.34	-45.0	-47.0	17.1	0.00e+00	0	41	0	0	61	4588
2026-01-21 00:39:48.93	292.73	42.31	-45.2	-47.4	16.8	0.00e+00	0	41	0	0	61	4786
2026-01-21 00:39:49.92	292.23	42.28	-45.1	-47.3	16.9	0.00e+00	0	41	0	0	61	4728
2026-01-21 00:39:50.92	291.74	42.25	-44.9	-47.0	17.1	0.00e+00	0	41	0	0	61	4592
2026-01-21 00:39:51.91	291.25	42.21	-44.8	-46.8	17.3	0.00e+00	0	41	0	0	61	4492
2026-01-21 00:39:52.91	290.76	42.17	-44.7	-46.7	17.4	0.00e+00	0	41	0	0	61	4428
2026-01-21 00:39:53.90	290.27	42.13	-45.0	-47.1	17.1	0.00e+00	0	41	0	0	61	4625
2026-01-21 00:39:54.90	289.78	42.09	-45.0	-47.1	17.1	0.00e+00	0	41	0	0	61	4619
2026-01-21 00:39:55.89	289.29	42.05	-44.9	-46.9	17.2	0.00e+00	0	41	0	0	61	4522
2026-01-21 00:39:56.89	288.80	42.00	-44.6	-46.6	17.5	0.00e+00	0	41	0	0	61	4371
2026-01-21 00:39:57.88	288.32	41.95	-44.4	-46.4	17.7	0.00e+00	0	41	0	0	60	4512
2026-01-21 00:39:58.88	287.84	41.90	-44.4	-46.4	17.6	0.00e+00	0	41	0	0	60	4526
2026-01-21 00:39:59.87	287.36	41.85	-44.6	-46.6	17.4	0.00e+00	0	41	0	0	60	4641
2026-01-21 00:40:00.87	286.87	41.79	-44.6	-46.7	17.4	0.00e+00	0	41	0	0	60	4664
2026-01-21 00:40:01.86	286.40	41.74	-44.7	-46.8	17.3	0.00e+00	0	41	0	0	60	4710
2026-01-21 00:40:02.86	285.92	41.68	-45.0	-47.1	17.0	0.00e+00	0	41	0	0	60	4907
2026-01-21 00:40:03.85	285.45	41.61	-45.2	-47.4	16.8	0.00e+00	0	41	0	0	61	4766
2026-01-21 00:40:04.85	284.97	41.55	-45.3	-47.4	16.7	0.00e+00	0	41	0	0	61	4811
2026-01-21 00:40:05.84	284.50	41.48	-45.4	-47.6	16.4	0.00e+00	0	41	0	0	61	4892
2026-01-21 00:40:06.84	284.03	41.42	-45.4	-47.6	16.3	0.00e+00	0	41	0	0	61	4872
2026-01-21 00:40:07.83	283.57	41.35	-45.5	-47.7	16.2	0.00e+00	0	41	0	0	61	4953
2026-01-21 00:40:08.83	283.10	41.27	-45.5	-47.7	16.4	0.00e+00	0	41	0	0	61	4971
2026-01-21 00:40:09.82	282.64	41.20	-45.2	-47.3	16.8	0.00e+00	0	41	0	0	61	4749
2026-01-21 00:40:10.82	282.18	41.12	-44.9	-46.9	17.2	0.00e+00	0	41	0	0	61	4540
2026-01-21 00:40:11.81	281.72	41.05	-44.8	-46.9	17.3	0.00e+00	0	41	0	0	61	4500
2026-01-21 00:40:12.80	281.27	40.97	-44.5	-46.5	17.6	0.00e+00	0	41	0	0	61	4320
2026-01-21 00:40:13.80	280.81	40.88	-44.4	-46.4	17.7	0.00e+00	0	41	0	0	60	4523
2026-01-21 00:40:14.79	280.36	40.80	-44.5	-46.5	17.5	0.00e+00	0	41	0	0	60	4567
2026-01-21 00:40:15.79	279.91	40.71	-44.8	-46.8	17.3	0.00e+00	0	41	0	0	60	4734
2026-01-21 00:40:16.79	279.46	40.63	-44.8	-46.8	17.2	0.00e+00	0	41	0	0	60	4756
2026-01-21 00:40:17.78	279.02	40.54	-45.1	-47.2	16.9	0.00e+00	0	41	0	0	60	4957
2026-01-21 00:40:18.78	278.57	40.45	-45.0	-47.1	17.0	0.00e+00	0	41	0	0	60	4908
2026-01-21 00:40:19.77	278.13	40.36	-44.6	-46.6	17.5	0.00e+00	0	41	0	0	60	4637
2026-01-21 00:40:20.77	277.69	40.26	-44.2	-46.1	17.9	0.00e+00	0	41	0	0	60	4366
2026-01-21 00:40:21.76	277.26	40.17	-44.0	-45.9	18.1	0.00e+00	0	41	0	0	60	4256
2026-01-21 00:40:22.76	276.83	40.07	-43.8	-45.6	18.2	0.00e+00	0	41	0	0	59	4385
2026-01-21 00:40:23.75	276.40	39.97	-44.0	-45.9	17.9	0.00e+00	0	41	0	0	59	4534
2026-01-21 00:40:24.75	275.97	39.87	-44.5	-46.5	17.3	0.00e+00	0	41	0	0	59	4847
2026-01-21 00:40:25.74	275.55	39.77	-45.1	-47.2	16.7	0.00e+00	0	41	0	0	60	4949
2026-01-21 00:40:26.74	275.13	39.66	-45.6	-47.8	16.0	0.00e+00	0	41	0	0	61	5030
2026-01-21 00:40:27.73	274.71	39.56	-45.7	-48.0	15.8	0.00e+00	0	41	0	0	62	4854
2026-01-21 00:40:28.73	274.29	39.45	-45.3	-47.5	16.4	0.00e+00	0	41	0	0	62	4558
2026-01-21 00:40:29.72	273.88	39.35	-45.1	-47.2	16.7	0.00e+00	0	41	0	0	62	4424
2026-01-21 00:40:30.72	273.47	39.24	-45.0	-47.2	16.8	0.00e+00	0	41	0	0	61	4652
2026-01-21 00:40:31.71	273.06	39.13	-44.8	-46.9	17.3	0.00e+00	0	41	0	0	61	4504
2026-01-21 00:40:32.71	272.65	39.01	-44.7	-46.8	17.4	0.00e+00	0	41	0	0	61	4446
2026-01-21 00:40:33.70	272.25	38.90	-45.1	-47.2	17.1	0.00e+00	0	41	0	0	61	4662
2026-01-21 00:40:34.70	271.85	38.79	-45.4	-47.7	16.6	0.00e+00	0	41	0	0	61	4938
2026-01-21 00:40:35.69	271.46	38.67	-45.3	-47.5	16.7	0.00e+00	0	41	0	0	61	4843
2026-01-21 00:40:36.69	271.06	38.56	-44.9	-47.0	17.2	0.00e+00	0	41	0	0	61	4559
2026-01-21 00:40:37.68	270.67	38.44	-44.7	-46.8	17.3	0.00e+00	0	41	0	0	61	4470
2026-01-21 00:40:38.67	270.29	38.32	-44.6	-46.7	17.5	0.00e+00	0	41	0	0	61	4393
2026-01-21 00:40:39.67	269.90	38.20	-44.3	-46.3	17.9	0.00e+00	0	41	0	0	60	4459
2026-01-21 00:40:40.66	269.52	38.08	-44.6	-46.6	17.6	0.00e+00	0	41	0	0	60	4611
2026-01-21 00:40:41.66	269.14	37.96	-44.9	-47.0	17.2	0.00e+00	0	41	0	0	60	4821
2026-01-21 00:40:42.65	268.76	37.84	-45.0	-47.1	17.1	0.00e+00	0	41	0	0	60	4907
2026-01-21 00:40:43.65	268.39	37.71	-44.8	-46.9	17.3	0.00e+00	0	41	0	0	60	4778
2026-01-21 00:40:44.64	268.02	37.59	-44.6	-46.7	17.3	0.00e+00	0	41	0	0	60	4657
2026-01-21 00:40:45.64	267.65	37.46	-44.4	-46.4	17.6	0.00e+00	0	41	0	0	60	4497
2026-01-21 00:40:46.63	267.28	37.34	-44.1	-46.0	17.9	0.00e+00	0	41	0	0	60	4334
2026-01-21 00:40:47.63	266.92	37.21	-44.2	-46.2	17.8	0.00e+00	0	41	0	0	60	4405
2026-01-21 00:40:48.62	266.56	37.08	-44.7	-46.8	17.4	0.00e+00	0	41	0	0	60	4732
2026-01-21 00:40:49.62	266.20	36.95	-45.3	-47.5	16.6	0.00e+00	0	41	0	0	61	4847
2026-01-21 00:40:50.61	265.85	36.82	-45.9	-48.3	16.0	0.00e+00	0	41	0	0	62	4989
2026-01-21 00:40:51.61	265.50	36.69	-45.4	-47.7	16.6	0.00e+00	0	41	0	0	62	4661
2026-01-21 00:40:52.61	265.15	36.56	-44.3	-46.3	17.8	0.00e+00	0	41	0	0	60	4470
2026-01-21 00:40:53.60	264.80	36.43	-43.4	-45.3	18.8	0.00e+00	0	41	0	0	58	4452
2026-01-21 00:40:54.60	264.46	36.30	-43.2	-45.0	19.0	0.00e+00	0	41	0	0	58	4301
2026-01-21 00:40:55.60	264.11	36.16	-43.2	-45.0	18.9	0.00e+00	0	41	0	0	58	4323
2026-01-21 00:40:56.59	263.78	36.03	-43.4	-45.3	18.7	0.00e+00	0	41	0	0	58	4445
2026-01-21 00:40:57.58	263.45	35.90	-43.8	-45.7	18.3	0.00e+00	0	41	0	0	58	4705
2026-01-21 00:40:58.58	263.11	35.76	-44.2	-46.2	17.9	0.00e+00	0	41	0	0	59	4657
2026-01-21 00:40:59.57	262.79	35.63	-44.3	-46.3	17.7	0.00e+00	0	41	0	0	59	4712
2026-01-21 00:41:00.57	262.46	35.49	-43.9	-45.8	17.9	0.00e+00	0	41	0	0	59	4490
2026-01-21 00:41:01.56	262.13	35.36	-43.6	-45.4	18.3	0.00e+00	0	41	0	0	59	4274
2026-01-21 00:41:02.56	261.81	35.22	-43.1	-44.9	18.9	0.00e+00	0	41	0	0	58	4259
2026-01-21 00:41:03.55	261.50	35.08	-42.9	-44.7	19.2	0.00e+00	0	41	0	0	57	4409
2026-01-21 00:41:04.54	261.18	34.95	-42.8	-44.5	19.4	0.00e+00	0	41	0	0	57	4328
2026-01-21 00:41:05.54	260.87	34.81	-43.4	-45.3	18.7	0.00e+00	0	41	0	0	57	4728
2026-01-21 00:41:06.53	260.56	34.67	-44.1	-46.0	18.1	0.00e+00	0	41	0	0	58	4854
2026-01-21 00:41:07.53	260.25	34.53	-44.6	-46.7	17.4	0.00e+00	0	41	0	0	59	4941
2026-01-21 00:41:08.52	259.95	34.39	-44.6	-46.7	17.4	0.00e+00	0	41	0	0	60	4657
2026-01-21 00:41:09.52	259.64	34.25	-43.9	-45.8	18.1	0.00e+00	0	41	0	0	59	4447
2026-01-21 00:41:10.51	259.34	34.11	-43.1	-44.9	18.8	0.00e+00	0	41	0	0	58	4271
2026-01-21 00:41:11.51	259.04	33.97	-42.6	-44.3	19.4	0.00e+00	0	41	0	0	57	4230
2026-01-21 00:41:12.50	258.75	33.83	-42.5	-44.2	19.5	0.00e+00	0	41	0	0	56	4435
2026-01-21 00:41:13.50	258.46	33.69	-42.3	-44.0	19.7	0.00e+00	0	41	0	0	56	4318
2026-01-21 00:41:14.49	258.17	33.55	-42.4	-44.2	19.6	0.00e+00	0	41	0	0	56	4396
2026-01-21 00:41:15.48	257.88	33.41	-42.8	-44.5	19.4	0.00e+00	0	41	0	0	56	4585
2026-01-21 00:41:16.48	257.60	33.27	-43.4	-45.2	18.7	0.00e+00	0	41	0	0	57	4673
2026-01-21 00:41:17.47	257.32	33.13	-43.9	-45.8	18.2	0.00e+00	0	41	0	0	58	4723
2026-01-21 00:41:18.47	257.03	32.99	-44.0	-46.0	18.0	0.00e+00	0	41	0	0	58	4832
2026-01-21 00:41:19.46	256.76	32.85	-44.0	-46.0	17.9	0.00e+00	0	41	0	0	58	4831
2026-01-21 00:41:20.46	256.48	32.71	-43.6	-45.6	18.3	0.00e+00	0	41	0	0	58	4600
2026-01-21 00:41:21.45	256.21	32.57	-43.4	-45.2	18.6	0.00e+00	0	41	0	0	58	4440
2026-01-21 00:41:22.45	255.94	32.43	-43.4	-45.2	18.6	0.00e+00	0	41	0	0	58	4435
2026-01-21 00:41:23.44	255.67	32.29	-43.1	-44.9	18.9	0.00e+00	0	41	0	0	58	4261
2026-01-21 00:41:24.43	255.41	32.14	-42.9	-44.7	19.1	0.00e+00	0	41	0	0	57	4414
2026-01-21 00:41:25.43	255.14	32.00	-43.0	-44.8	19.0	0.00e+00	0	41	0	0	57	4453
2026-01-21 00:41:26.42	254.88	31.86	-43.1	-44.9	18.9	0.00e+00	0	41	0	0	57	4513
2026-01-21 00:41:27.42	254.62	31.72	-43.0	-44.7	19.0	0.00e+00	0	41	0	0	57	4428
2026-01-21 00:41:28.41	254.37	31.58	-42.9	-44.6	19.0	0.00e+00	0	41	0	0	57	4388
2026-01-21 00:41:29.41	254.11	31.44	-42.9	-44.7	19.0	0.00e+00	0	41	0	0	57	4395
2026-01-21 00:41:30.40	253.86	31.30	-42.9	-44.7	19.0	0.00e+00	0	41	0	0	57	4411
2026-01-21 00:41:31.40	253.61	31.15	-42.9	-44.7	19.1	0.00e+00	0	41	0	0	57	4428
2026-01-21 00:41:32.39	253.37	31.01	-42.9	-44.7	19.2	0.00e+00	0	41	0	0	57	4399
2026-01-21 00:41:33.39	253.12	30.87	-43.0	-44.8	19.1	0.00e+00	0	41	0	0	57	4451
2026-01-21 00:41:34.38	252.88	30.73	-43.1	-44.8	19.1	0.00e+00	0	41	0	0	57	4488
2026-01-21 00:41:35.38	252.63	30.59	-43.1	-44.9	19.0	0.00e+00	0	41	0	0	57	4516
2026-01-21 00:41:36.37	252.40	30.45	-42.9	-44.6	19.3	0.00e+00	0	41	0	0	57	4372
2026-01-21 00:41:37.37	252.16	30.31	-42.5	-44.2	19.6	0.00e+00	0	41	0	0	57	4167
2026-01-21 00:41:38.37	251.92	30.17	-42.5	-44.2	19.5	0.00e+00	0	41	0	0	56	4422
2026-01-21 00:41:39.36	251.69	30.03	-42.4	-44.1	19.6	0.00e+00	0	41	0	0	56	4374
2026-01-21 00:41:40.35	251.46	29.89	-42.1	-43.8	19.8	0.00e+00	0	41	0	0	56	4211
2026-01-21 00:41:41.35	251.23	29.75	-42.2	-43.9	19.8	0.00e+00	0	41	0	0	56	4249
2026-01-21 00:41:42.34	251.01	29.61	-42.4	-44.1	19.6	0.00e+00	0	41	0	0	56	4372
2026-01-21 00:41:43.34	250.78	29.47	-42.3	-44.0	19.7	0.00e+00	0	41	0	0	56	4320
2026-01-21 00:41:44.33	250.56	29.33	-42.4	-44.1	19.7	0.00e+00	0	41	0	0	56	4361
2026-01-21 00:41:45.33	250.34	29.19	-42.6	-44.4	19.4	0.00e+00	0	41	0	0	56	4516
2026-01-21 00:41:46.32	250.12	29.05	-43.1	-44.9	19.0	0.00e+00	0	41	0	0	56	4798
2026-01-21 00:41:47.31	249.90	28.91	-43.4	-45.3	18.5	0.00e+00	0	41	0	0	57	4747
2026-01-21 00:41:48.31	249.69	28.77	-43.6	-45.5	18.3	0.00e+00	0	41	0	0	57	4850
2026-01-21 00:41:49.30	249.47	28.64	-43.5	-45.4	18.3	0.00e+00	0	41	0	0	57	4804
2026-01-21 00:41:50.29	249.26	28.50	-43.3	-45.2	18.6	0.00e+00	0	41	0	0	57	4653
2026-01-21 00:41:51.29	249.05	28.36	-42.9	-44.7	18.9	0.00e+00	0	41	0	0	57	4429
2026-01-21 00:41:52.28	248.84	28.22	-42.5	-44.3	19.3	0.00e+00	0	41	0	0	57	4194
2026-01-21 00:41:53.28	248.64	28.08	-42.3	-44.0	19.5	0.00e+00	0	41	0	0	56	4339
2026-01-21 00:41:54.27	248.43	27.95	-42.3	-44.0	19.6	0.00e+00	0	41	0	0	56	4339
2026-01-21 00:41:55.26	248.23	27.81	-42.5	-44.2	19.4	0.00e+00	0	41	0	0	56	4432
2026-01-21 00:41:56.26	248.03	27.67	-42.5	-44.3	19.4	0.00e+00	0	41	0	0	56	4452
2026-01-21 00:41:57.26	247.83	27.54	-42.8	-44.5	19.2	0.00e+00	0	41	0	0	56	4588
2026-01-21 00:41:58.25	247.63	27.40	-42.8	-44.6	19.2	0.00e+00	0	41	0	0	56	4623
2026-01-21 00:41:59.25	247.44	27.27	-42.8	-44.6	19.2	0.00e+00	0	41	0	0	56	4633
2026-01-21 00:42:00.24	247.24	27.13	-42.8	-44.6	19.3	0.00e+00	0	41	0	0	56	4601
2026-01-21 00:42:01.24	247.05	26.99	-42.6	-44.3	19.5	0.00e+00	0	41	0	0	56	4474
2026-01-21 00:42:02.23	246.86	26.86	-42.6	-44.3	19.3	0.00e+00	0	41	0	0	56	4479
2026-01-21 00:42:03.23	246.67	26.73	-42.6	-44.4	19.2	0.00e+00	0	41	0	0	56	4520
2026-01-21 00:42:04.22	246.48	26.59	-42.6	-44.3	19.3	0.00e+00	0	41	0	0	56	4493
2026-01-21 00:42:05.22	246.30	26.46	-42.6	-44.3	19.3	0.00e+00	0	41	0	0	56	4490
2026-01-21 00:42:06.21	246.11	26.32	-42.6	-44.3	19.4	0.00e+00	0	41	0	0	56	4488
2026-01-21 00:42:07.21	245.93	26.19	-42.6	-44.3	19.4	0.00e+00	0	41	0	0	56	4479
2026-01-21 00:42:08.21	245.75	26.06	-42.5	-44.2	19.6	0.00e+00	0	41	0	0	56	4415
2026-01-21 00:42:09.20	245.57	25.93	-42.4	-44.1	19.6	0.00e+00	0	40	0	0	56	4361
2026-01-21 00:42:10.19	245.39	25.79	-42.3	-44.0	19.7	0.00e+00	0	41	0	0	56	4309
2026-01-21 00:42:11.19	245.21	25.66	-42.3	-44.0	19.6	0.00e+00	0	41	0	0	56	4315
2026-01-21 00:42:12.19	245.04	25.53	-42.5	-44.3	19.3	0.00e+00	0	41	0	0	56	4446
2026-01-21 00:42:13.18	244.86	25.40	-42.7	-44.4	19.1	0.00e+00	0	41	0	0	56	4538
2026-01-21 00:42:14.17	244.69	25.27	-42.7	-44.5	19.1	0.00e+00	0	41	0	0	56	4551
2026-01-21 00:42:15.17	244.52	25.14	-42.6	-44.3	19.3	0.00e+00	0	41	0	0	56	4490
2026-01-21 00:42:16.16	244.35	25.01	-42.6	-44.4	19.3	0.00e+00	0	41	0	0	56	4495
2026-01-21 00:42:17.16	244.18	24.88	-42.6	-44.4	19.4	0.00e+00	0	41	0	0	56	4502
2026-01-21 00:42:18.15	244.02	24.75	-42.6	-44.3	19.4	0.00e+00	0	41	0	0	56	4468
2026-01-21 00:42:19.15	243.85	24.62	-42.5	-44.3	19.5	0.00e+00	0	41	0	0	56	4446
2026-01-21 00:42:20.14	243.69	24.49	-42.3	-44.1	19.7	0.00e+00	0	41	0	0	56	4346
2026-01-21 00:42:21.14	243.52	24.36	-42.2	-43.9	19.8	0.00e+00	0	41	0	0	56	4279
2026-01-21 00:42:22.13	243.36	24.24	-42.2	-43.9	19.8	0.00e+00	0	41	0	0	56	4271
2026-01-21 00:42:23.13	243.20	24.11	-42.3	-43.9	19.8	0.00e+00	0	41	0	0	56	4290
2026-01-21 00:42:24.12	243.05	23.98	-42.2	-43.9	19.9	0.00e+00	0	41	0	0	56	4244
2026-01-21 00:42:25.12	242.89	23.85	-42.2	-43.9	19.8	0.00e+00	0	41	0	0	56	4263
2026-01-21 00:42:26.11	242.73	23.73	-42.3	-44.0	19.7	0.00e+00	0	41	0	0	56	4309
2026-01-21 00:42:27.11	242.58	23.60	-42.4	-44.1	19.6	0.00e+00	0	41	0	0	56	4357
2026-01-21 00:42:28.10	242.42	23.48	-42.4	-44.2	19.5	0.00e+00	0	41	0	0	56	4396
2026-01-21 00:42:29.10	242.27	23.35	-42.4	-44.1	19.5	0.00e+00	0	41	0	0	56	4385
2026-01-21 00:42:30.09	242.12	23.23	-42.3	-44.1	19.6	0.00e+00	0	41	0	0	56	4349
2026-01-21 00:42:31.09	241.97	23.10	-42.5	-44.2	19.5	0.00e+00	0	41	0	0	56	4407
2026-01-21 00:42:32.08	241.82	22.98	-42.4	-44.1	19.6	0.00e+00	0	41	0	0	56	4355
2026-01-21 00:42:33.08	241.67	22.85	-42.3	-44.0	19.6	0.00e+00	0	41	0	0	56	4319
2026-01-21 00:42:34.08	241.53	22.73	-42.3	-44.0	19.6	0.00e+00	0	41	0	0	56	4299
2026-01-21 00:42:35.07	241.38	22.61	-42.3	-44.0	19.6	0.00e+00	0	41	0	0	56	4321
2026-01-21 00:42:36.07	241.24	22.49	-42.4	-44.1	19.5	0.00e+00	0	41	0	0	56	4357
2026-01-21 00:42:37.06	241.09	22.36	-42.4	-44.1	19.5	0.00e+00	0	41	0	0	56	4377
2026-01-21 00:42:38.06	240.95	22.24	-42.5	-44.2	19.5	0.00e+00	0	41	0	0	56	4423
2026-01-21 00:42:39.05	240.81	22.12	-42.6	-44.3	19.4	0.00e+00	0	41	0	0	56	4470
2026-01-21 00:42:40.05	240.67	22.00	-42.7	-44.4	19.3	0.00e+00	0	41	0	0	56	4531
2026-01-21 00:42:41.04	240.53	21.88	-42.7	-44.4	19.3	0.00e+00	0	41	0	0	56	4533
2026-01-21 00:42:42.04	240.40	21.76	-42.5	-44.2	19.4	0.00e+00	0	41	0	0	56	4434
2026-01-21 00:42:43.03	240.26	21.64	-42.5	-44.2	19.4	0.00e+00	0	41	0	0	56	4439
2026-01-21 00:42:44.02	240.13	21.52	-42.5	-44.2	19.4	0.00e+00	0	41	0	0	56	4424
2026-01-21 00:42:45.02	239.99	21.40	-42.5	-44.2	19.4	0.00e+00	0	41	0	0	56	4439
2026-01-21 00:42:46.01	239.86	21.28	-42.5	-44.2	19.4	0.00e+00	0	41	0	0	56	4414
2026-01-21 00:42:47.01	239.72	21.16	-42.5	-44.2	19.4	0.00e+00	0	41	0	0	56	4424
2026-01-21 00:42:48.00	239.59	21.05	-42.3	-44.0	19.6	0.00e+00	0	41	0	0	56	4329
2026-01-21 00:42:49.00	239.46	20.93	-42.3	-44.0	19.6	0.00e+00	0	41	0	0	56	4311
2026-01-21 00:42:50.00	239.33	20.81	-42.2	-43.9	19.7	0.00e+00	0	41	0	0	56	4247
2026-01-21 00:42:50.99	239.21	20.70	-42.1	-43.8	19.7	0.00e+00	0	41	0	0	56	4233
2026-01-21 00:42:51.99	239.08	20.58	-42.0	-43.7	19.9	0.00e+00	0	41	0	0	56	4166
2026-01-21 00:42:52.98	238.95	20.46	-42.1	-43.8	19.8	0.00e+00	0	41	0	0	56	4200
2026-01-21 00:42:53.98	238.83	20.35	-42.1	-43.8	19.7	0.00e+00	0	41	0	0	56	4223
2026-01-21 00:42:54.97	238.70	20.23	-42.1	-43.8	19.7	0.00e+00	0	41	0	0	56	4210
2026-01-21 00:42:55.97	238.58	20.12	-42.2	-43.9	19.6	0.00e+00	0	40	0	0	56	4283
2026-01-21 00:42:56.96	238.46	20.00	-42.3	-44.1	19.5	0.00e+00	0	41	0	0	56	4348
2026-01-21 00:42:57.96	238.34	19.89	-42.4	-44.1	19.4	0.00e+00	0	41	0	0	56	4382
2026-01-21 00:42:58.95	238.22	19.78	-42.5	-44.2	19.3	0.00e+00	0	41	0	0	56	4429
2026-01-21 00:42:59.95	238.10	19.66	-42.5	-44.3	19.3	0.00e+00	0	41	0	0	56	4446
2026-01-21 00:43:00.94	237.98	19.55	-42.5	-44.2	19.4	0.00e+00	0	41	0	0	56	4421
2026-01-21 00:43:01.94	237.86	19.44	-42.5	-44.2	19.4	0.00e+00	0	41	0	0	56	4430
2026-01-21 00:43:02.93	237.74	19.33	-42.5	-44.2	19.4	0.00e+00	0	41	0	0	56	4435
2026-01-21 00:43:03.92	237.63	19.22	-42.3	-44.1	19.5	0.00e+00	0	41	0	0	56	4351
2026-01-21 00:43:04.92	237.51	19.10	-42.2	-43.8	19.7	0.00e+00	0	41	0	0	56	4239
2026-01-21 00:43:05.92	237.40	18.99	-42.2	-43.9	19.7	0.00e+00	0	41	0	0	56	4274
2026-01-21 00:43:06.91	237.28	18.88	-42.3	-44.0	19.6	0.00e+00	0	41	0	0	56	4315
2026-01-21 00:43:07.91	237.17	18.77	-42.4	-44.1	19.5	0.00e+00	0	41	0	0	56	4353
2026-01-21 00:43:08.90	237.06	18.66	-42.3	-44.1	19.5	0.00e+00	0	41	0	0	56	4341
2026-01-21 00:43:09.90	236.95	18.55	-42.4	-44.1	19.5	0.00e+00	0	41	0	0	56	4376
2026-01-21 00:43:10.89	236.84	18.44	-42.5	-44.2	19.4	0.00e+00	0	41	0	0	56	4436
2026-01-21 00:43:11.89	236.73	18.33	-42.5	-44.3	19.4	0.00e+00	0	41	0	0	56	4443
2026-01-21 00:43:12.88	236.62	18.23	-42.6	-44.3	19.3	0.00e+00	0	41	0	0	56	4465
2026-01-21 00:43:13.88	236.51	18.12	-42.7	-44.4	19.2	0.00e+00	0	41	0	0	56	4541
2026-01-21 00:43:14.88	236.40	18.01	-42.6	-44.4	19.3	0.00e+00	0	41	0	0	56	4494
2026-01-21 00:43:15.87	236.30	17.90	-42.7	-44.4	19.2	0.00e+00	0	41	0	0	56	4543
2026-01-21 00:43:16.87	236.19	17.80	-42.7	-44.5	19.2	0.00e+00	0	41	0	0	56	4585
2026-01-21 00:43:17.86	236.09	17.69	-42.8	-44.6	19.1	0.00e+00	0	41	0	0	56	4605
2026-01-21 00:43:18.86	235.98	17.58	-42.9	-44.7	19.1	0.00e+00	0	41	0	0	56	4653
2026-01-21 00:43:19.85	235.88	17.48	-42.9	-44.8	18.9	0.00e+00	0	41	0	0	56	4711
2026-01-21 00:43:20.85	235.78	17.37	-42.9	-44.7	19.0	0.00e+00	0	41	0	0	56	4674
2026-01-21 00:43:21.84	235.68	17.27	-43.0	-44.8	18.9	0.00e+00	0	41	0	0	56	4718
2026-01-21 00:43:22.84	235.57	17.16	-43.0	-44.9	18.8	0.00e+00	0	41	0	0	56	4772
2026-01-21 00:43:23.83	235.47	17.06	-43.0	-44.8	18.8	0.00e+00	0	41	0	0	56	4756
2026-01-21 00:43:24.83	235.37	16.95	-43.0	-44.9	18.7	0.00e+00	0	41	0	0	56	4773
2026-01-21 00:43:25.82	235.28	16.85	-42.9	-44.7	18.9	0.00e+00	0	40	0	0	56	4675
2026-01-21 00:43:26.82	235.18	16.75	-42.9	-44.7	18.8	0.00e+00	0	41	0	0	56	4668
2026-01-21 00:43:27.81	235.08	16.65	-42.9	-44.7	18.8	0.00e+00	0	41	0	0	56	4700
2026-01-21 00:43:28.81	234.98	16.54	-42.8	-44.6	18.8	0.00e+00	0	41	0	0	56	4622
2026-01-21 00:43:29.80	234.89	16.44	-42.6	-44.3	19.1	0.00e+00	0	41	0	0	56	4486
2026-01-21 00:43:30.80	234.79	16.34	-42.6	-44.3	19.1	0.00e+00	0	41	0	0	56	4475
2026-01-21 00:43:31.79	234.70	16.24	-42.5	-44.3	19.1	0.00e+00	0	41	0	0	56	4465
2026-01-21 00:43:32.79	234.60	16.14	-42.4	-44.1	19.3	0.00e+00	0	40	0	0	56	4370
2026-01-21 00:43:33.78	234.51	16.03	-42.4	-44.1	19.3	0.00e+00	0	41	0	0	56	4380
2026-01-21 00:43:34.78	234.41	15.93	-42.6	-44.3	19.2	0.00e+00	0	41	0	0	56	4466
2026-01-21 00:43:35.77	234.32	15.83	-42.4	-44.1	19.4	0.00e+00	0	41	0	0	56	4355
2026-01-21 00:43:36.76	234.23	15.73	-42.2	-43.9	19.5	0.00e+00	0	41	0	0	56	4287
2026-01-21 00:43:37.76	234.14	15.63	-42.4	-44.1	19.4	0.00e+00	0	41	0	0	56	4373
2026-01-21 00:43:38.75	234.05	15.54	-42.3	-44.0	19.5	0.00e+00	0	41	0	0	56	4337
2026-01-21 00:43:39.75	233.96	15.44	-42.4	-44.1	19.4	0.00e+00	0	41	0	0	56	4383
2026-01-21 00:43:40.74	233.87	15.34	-42.5	-44.2	19.4	0.00e+00	0	41	0	0	56	4426
2026-01-21 00:43:41.74	233.78	15.24	-42.5	-44.3	19.3	0.00e+00	0	40	0	0	56	4460
2026-01-21 00:43:42.73	233.69	15.14	-42.6	-44.3	19.3	0.00e+00	0	41	0	0	56	4489
2026-01-21 00:43:43.73	233.61	15.04	-42.6	-44.4	19.2	0.00e+00	0	41	0	0	56	4502
2026-01-21 00:43:44.72	233.52	14.95	-42.7	-44.5	19.1	0.00e+00	0	41	0	0	56	4572
2026-01-21 00:43:45.72	233.43	14.85	-42.8	-44.6	19.0	0.00e+00	0	41	0	0	56	4623
2026-01-21 00:43:46.71	233.35	14.75	-42.9	-44.7	18.9	0.00e+00	0	41	0	0	56	4678
2026-01-21 00:43:47.71	233.26	14.66	-43.0	-44.8	18.8	0.00e+00	0	41	0	0	56	4750
2026-01-21 00:43:48.70	233.18	14.56	-43.0	-44.8	18.8	0.00e+00	0	41	0	0	56	4729
2026-01-21 00:43:49.70	233.09	14.47	-43.0	-44.8	18.7	0.00e+00	0	41	0	0	56	4759
2026-01-21 00:43:50.69	233.01	14.37	-43.0	-44.9	18.6	0.00e+00	0	40	0	0	56	4764
2026-01-21 00:43:51.68	232.93	14.28	-43.0	-44.9	18.6	0.00e+00	0	40	0	0	56	4775
2026-01-21 00:43:52.68	232.84	14.18	-43.2	-45.0	18.5	0.00e+00	0	41	0	0	56	4845
2026-01-21 00:43:53.67	232.76	14.09	-43.1	-45.0	18.5	0.00e+00	0	40	0	0	57	4549
2026-01-21 00:43:54.67	232.68	13.99	-43.1	-44.9	18.5	0.00e+00	0	41	0	0	57	4533
2026-01-21 00:43:55.66	232.60	13.90	-43.0	-44.8	18.5	0.00e+00	0	41	0	0	57	4489
2026-01-21 00:43:56.66	232.52	13.81	-43.1	-45.0	18.4	0.00e+00	0	41	0	0	57	4550
2026-01-21 00:43:57.65	232.44	13.71	-43.0	-44.9	18.5	0.00e+00	0	40	0	0	57	4508
2026-01-21 00:43:58.65	232.36	13.62	-43.0	-44.9	18.5	0.00e+00	0	41	0	0	57	4504
2026-01-21 00:43:59.64	232.28	13.53	-43.0	-44.8	18.5	0.00e+00	0	41	0	0	57	4480
2026-01-21 00:44:00.64	232.20	13.43	-42.9	-44.8	18.6	0.00e+00	0	41	0	0	57	4446
2026-01-21 00:44:01.63	232.13	13.34	-43.0	-44.8	18.5	0.00e+00	0	40	0	0	57	4492
2026-01-21 00:44:02.63	232.05	13.25	-42.9	-44.7	18.6	0.00e+00	0	40	0	0	57	4431
2026-01-21 00:44:03.62	231.97	13.16	-43.0	-44.8	18.6	0.00e+00	0	41	0	0	57	4462
2026-01-21 00:44:04.62	231.89	13.07	-42.9	-44.7	18.7	0.00e+00	0	40	0	0	57	4430
2026-01-21 00:44:05.61	231.82	12.98	-42.9	-44.7	18.7	0.00e+00	0	40	0	0	57	4425
2026-01-21 00:44:06.60	231.74	12.89	-43.0	-44.8	18.6	0.00e+00	0	41	0	0	57	4471
2026-01-21 00:44:07.60	231.67	12.80	-43.0	-44.8	18.6	0.00e+00	0	41	0	0	57	4469
2026-01-21 00:44:08.60	231.59	12.71	-43.0	-44.8	18.6	0.00e+00	0	41	0	0	57	4489
2026-01-21 00:44:09.59	231.52	12.62	-43.0	-44.8	18.7	0.00e+00	0	41	0	0	57	4464
2026-01-21 00:44:10.59	231.45	12.53	-43.0	-44.8	18.6	0.00e+00	0	41	0	0	57	4477
2026-01-21 00:44:11.58	231.37	12.44	-43.1	-44.9	18.6	0.00e+00	0	41	0	0	57	4519
2026-01-21 00:44:12.58	231.30	12.35	-43.1	-44.9	18.6	0.00e+00	0	41	0	0	57	4521
2026-01-21 00:44:13.57	231.23	12.26	-43.1	-45.0	18.5	0.00e+00	0	41	0	0	57	4560
2026-01-21 00:44:14.57	231.16	12.17	-43.2	-45.0	18.4	0.00e+00	0	41	0	0	57	4589
2026-01-21 00:44:15.56	231.09	12.08	-43.2	-45.1	18.4	0.00e+00	0	41	0	0	57	4616
2026-01-21 00:44:16.56	231.02	12.00	-43.3	-45.1	18.4	0.00e+00	0	40	0	0	57	4636
2026-01-21 00:44:17.55	230.95	11.91	-43.3	-45.1	18.4	0.00e+00	0	40	0	0	57	4641
2026-01-21 00:44:18.55	230.87	11.82	-43.3	-45.2	18.3	0.00e+00	0	41	0	0	57	4686
2026-01-21 00:44:19.54	230.81	11.74	-43.4	-45.3	18.2	0.00e+00	0	41	0	0	57	4753
2026-01-21 00:44:20.54	230.74	11.65	-43.5	-45.4	18.1	0.00e+00	0	41	0	0	57	4777
2026-01-21 00:44:21.53	230.67	11.56	-43.5	-45.4	18.1	0.00e+00	0	41	0	0	57	4800
2026-01-21 00:44:22.53	230.60	11.48	-43.6	-45.5	18.0	0.00e+00	0	41	0	0	57	4866
2026-01-21 00:44:23.52	230.53	11.39	-43.6	-45.5	18.0	0.00e+00	0	41	0	0	57	4851
2026-01-21 00:44:24.52	230.46	11.30	-43.6	-45.5	18.0	0.00e+00	0	41	0	0	57	4854
2026-01-21 00:44:25.51	230.40	11.22	-43.7	-45.6	17.9	0.00e+00	0	41	0	0	57	4906
2026-01-21 00:44:26.51	230.33	11.13	-43.8	-45.7	17.8	0.00e+00	0	41	0	0	58	4703
2026-01-21 00:44:27.50	230.26	11.05	-43.8	-45.8	17.7	0.00e+00	0	40	0	0	58	4742
2026-01-21 00:44:28.50	230.20	10.96	-43.9	-45.9	17.6	0.00e+00	0	41	0	0	58	4787
2026-01-21 00:44:29.49	230.13	10.88	-43.9	-45.9	17.6	0.00e+00	0	41	0	0	58	4793
2026-01-21 00:44:30.49	230.07	10.80	-44.0	-46.0	17.5	0.00e+00	0	41	0	0	58	4827
2026-01-21 00:44:31.48	230.00	10.71	-43.9	-45.9	17.6	0.00e+00	0	41	0	0	58	4773
2026-01-21 00:44:32.48	229.94	10.63	-44.0	-46.0	17.5	0.00e+00	0	41	0	0	58	4830
2026-01-21 00:44:33.47	229.88	10.54	-44.1	-46.1	17.4	0.00e+00	0	40	0	0	58	4909
2026-01-21 00:44:34.47	229.81	10.46	-44.0	-46.0	17.4	0.00e+00	0	41	0	0	58	4863
2026-01-21 00:44:35.46	229.75	10.38	-44.2	-46.2	17.3	0.00e+00	0	40	0	0	58	4944
2026-01-21 00:44:36.46	229.69	10.30	-44.1	-46.1	17.4	0.00e+00	0	41	0	0	58	4895
2026-01-21 00:44:37.45	229.62	10.21	-44.1	-46.2	17.3	0.00e+00	0	40	0	0	58	4931
2026-01-21 00:44:38.45	229.56	10.13	-44.1	-46.2	17.3	0.00e+00	0	40	0	0	59	4653
2026-01-21 00:44:39.44	229.50	10.05	-44.1	-46.1	17.3	0.00e+00	0	41	0	0	59	4646
2026-01-21 00:44:40.44	229.44	9.97	-44.2	-46.2	17.2	0.00e+00	0	40	0	0	59	4690
2026-01-21 00:44:41.43	229.38	9.89	-44.2	-46.3	17.1	0.00e+00	0	40	0	0	59	4739
2026-01-21 00:44:42.43	229.32	9.81	-44.3	-46.3	17.1	0.00e+00	0	40	0	0	59	4753
2026-01-21 00:44:43.42	229.26	9.72	-44.4	-46.5	17.0	0.00e+00	0	41	0	0	59	4819
2026-01-21 00:44:44.42	229.20	9.64	-44.4	-46.5	17.0	0.00e+00	0	41	0	0	59	4817
2026-01-21 00:44:45.41	229.14	9.56	-44.4	-46.5	16.9	0.00e+00	0	41	0	0	59	4857
2026-01-21 00:44:46.41	229.08	9.48	-44.4	-46.5	16.9	0.00e+00	0	41	0	0	59	4868
2026-01-21 00:44:47.40	229.02	9.40	-44.5	-46.6	16.8	0.00e+00	0	41	0	0	59	4901
2026-01-21 00:44:48.39	228.96	9.32	-44.6	-46.7	16.7	0.00e+00	0	41	0	0	59	4971
2026-01-21 00:44:49.39	228.90	9.24	-44.6	-46.7	16.7	0.00e+00	0	41	0	0	59	4957
2026-01-21 00:44:50.38	228.84	9.16	-44.6	-46.7	16.7	0.00e+00	0	41	0	0	59	4972
2026-01-21 00:44:51.38	228.79	9.08	-44.5	-46.6	16.8	0.00e+00	0	40	0	0	59	4918
2026-01-21 00:44:52.37	228.73	9.01	-44.5	-46.6	16.8	0.00e+00	0	40	0	0	59	4897
2026-01-21 00:44:53.37	228.67	8.93	-52.1	-65.0	3.8	1.49e+00	0	41	104	0	74	17198
2026-01-21 00:44:54.36	228.62	8.85	-52.2	-65.2	3.8	1.49e+00	0	40	104	0	74	17609
2026-01-21 00:44:55.35	228.56	8.77	-52.2	-65.3	3.8	1.49e+00	0	40	104	0	75	16852
2026-01-21 00:44:56.34	228.50	8.69	-52.4	-65.5	3.8	1.49e+00	0	41	104	0	75	17129
2026-01-21 00:44:57.34	228.45	8.62	-52.5	-65.5	3.8	1.49e+00	0	40	104	0	75	17123
2026-01-21 00:44:58.33	228.39	8.54	-52.6	-65.5	3.8	1.49e+00	0	41	104	0	75	17249
2026-01-21 00:44:59.32	228.34	8.46	-52.6	-65.6	3.8	1.49e+00	0	40	104	0	75	17286
2026-01-21 00:45:00.31	228.28	8.38	-52.6	-65.6	3.8	1.49e+00	0	41	104	0	75	17454
2026-01-21 00:45:01.31	228.23	8.31	-52.5	-65.6	3.8	1.49e+00	0	41	104	0	75	17473
2026-01-21 00:45:02.30	228.18	8.23	-52.6	-65.6	3.8	1.49e+00	0	40	104	0	75	17474
2026-01-21 00:45:03.29	228.12	8.15	-52.6	-65.6	3.8	1.49e+00	0	40	104	0	75	17460
2026-01-21 00:45:04.29	228.07	8.08	-52.5	-65.7	3.8	1.49e+00	0	40	104	0	75	17510
2026-01-21 00:45:05.28	228.01	8.00	-52.4	-65.6	3.8	1.49e+00	0	40	104	0	75	17422
2026-01-21 00:45:06.27	227.96	7.93	-52.5	-65.6	3.8	1.49e+00	0	40	104	0	75	17445
2026-01-21 00:45:07.27	227.91	7.85	-52.4	-65.6	3.8	1.49e+00	0	40	104	0	75	17477
2026-01-21 00:45:08.26	227.86	7.78	-52.5	-65.6	3.8	1.49e+00	0	40	104	0	75	17448
2026-01-21 00:45:09.25	227.80	7.70	-52.5	-65.7	3.8	1.49e+00	0	41	104	0	75	17497
2026-01-21 00:45:10.25	227.75	7.62	-52.5	-65.6	3.8	1.49e+00	0	41	104	0	75	17449
2026-01-21 00:45:11.24	227.70	7.55	-52.5	-65.6	3.8	1.49e+00	0	41	104	0	75	17408
2026-01-21 00:45:12.24	227.65	7.47	-52.5	-65.6	3.8	1.49e+00	0	40	104	0	75	17342
2026-01-21 00:45:13.23	227.60	7.40	-52.4	-65.6	3.8	1.49e+00	0	40	104	0	75	17436
2026-01-21 00:45:14.22	227.55	7.33	-52.4	-65.6	3.8	1.49e+00	0	40	104	0	75	17326
2026-01-21 00:45:15.21	227.50	7.25	-52.4	-65.6	3.8	1.49e+00	0	41	104	0	75	17309
2026-01-21 00:45:16.21	227.45	7.18	-52.4	-65.6	3.8	1.49e+00	0	41	104	0	75	17327
2026-01-21 00:45:17.20	227.40	7.11	-52.4	-65.5	3.8	1.49e+00	0	40	104	0	75	17224
2026-01-21 00:45:18.19	227.35	7.03	-52.4	-65.6	3.8	1.49e+00	0	40	104	0	75	17293
2026-01-21 00:45:19.19	227.30	6.96	-52.4	-65.6	3.8	1.49e+00	0	40	104	0	75	17311
2026-01-21 00:45:20.18	227.25	6.89	-52.4	-65.5	3.8	1.49e+00	0	41	104	0	75	17275
2026-01-21 00:45:21.17	227.20	6.81	-52.4	-65.5	3.8	1.49e+00	0	40	104	0	75	17255
2026-01-21 00:45:22.16	227.15	6.74	-52.4	-65.5	3.8	1.49e+00	0	41	104	0	75	17232
2026-01-21 00:45:23.16	227.10	6.67	-52.3	-65.5	3.8	1.49e+00	0	41	104	0	75	17235
2026-01-21 00:45:24.15	227.06	6.59	-52.3	-65.5	3.8	1.49e+00	0	40	104	0	75	17204
2026-01-21 00:45:25.14	227.01	6.52	-52.3	-65.5	3.8	1.49e+00	0	41	104	0	75	17241
2026-01-21 00:45:26.14	226.96	6.45	-52.3	-65.5	3.8	1.49e+00	0	41	104	0	75	17188
2026-01-21 00:45:27.13	226.91	6.38	-52.3	-65.5	3.8	1.49e+00	0	41	104	0	75	17162
2026-01-21 00:45:28.12	226.87	6.31	-52.3	-65.5	3.8	1.49e+00	0	41	104	0	75	17150
2026-01-21 00:45:29.11	226.82	6.24	-52.3	-65.5	3.8	1.49e+00	0	40	104	0	75	17099
2026-01-21 00:45:30.11	226.77	6.16	-52.3	-65.5	3.8	1.49e+00	0	40	104	0	75	17084
2026-01-21 00:45:31.10	226.73	6.09	-52.3	-65.5	3.8	1.49e+00	0	40	104	0	75	17134
2026-01-21 00:45:32.09	226.68	6.02	-52.3	-65.5	3.8	1.49e+00	0	41	104	0	75	17112
2026-01-21 00:45:33.09	226.63	5.95	-52.3	-65.5	3.8	1.49e+00	0	41	104	0	75	17138
2026-01-21 00:45:34.08	226.59	5.88	-52.3	-65.5	3.8	1.49e+00	0	41	104	0	75	17107
2026-01-21 00:45:35.07	226.54	5.81	-52.3	-65.5	3.8	1.49e+00	0	41	104	0	75	17141
2026-01-21 00:45:36.07	226.50	5.74	-52.3	-65.4	3.8	1.49e+00	0	41	104	0	75	17051
2026-01-21 00:45:37.06	226.45	5.67	-52.3	-65.4	3.8	1.49e+00	0	41	104	0	75	17050
2026-01-21 00:45:38.05	226.41	5.60	-52.3	-65.4	3.8	1.49e+00	0	40	104	0	75	17063
2026-01-21 00:45:39.04	226.36	5.53	-52.3	-65.4	3.8	1.49e+00	0	40	104	0	75	17062
2026-01-21 00:45:40.04	226.32	5.46	-52.3	-65.4	3.8	1.49e+00	0	41	104	0	75	17077
2026-01-21 00:45:41.03	226.28	5.39	-52.3	-65.5	3.8	1.49e+00	0	41	104	0	75	17154
2026-01-21 00:45:42.02	226.23	5.32	-52.3	-65.4	3.8	1.49e+00	0	40	104	0	75	17077
2026-01-21 00:45:43.02	226.19	5.25	-52.3	-65.5	3.8	1.49e+00	0	41	104	0	75	17106
2026-01-21 00:45:44.01	226.14	5.19	-52.3	-65.5	3.8	1.49e+00	0	40	104	0	75	17131
2026-01-21 00:45:45.00	226.10	5.12	-52.3	-65.5	3.8	1.49e+00	0	41	104	0	75	17122
2026-01-21 00:45:46.00	226.06	5.05	-52.3	-65.5	3.8	1.49e+00	0	41	104	0	75	17108
2026-01-21 00:45:46.99	226.02	4.98	-52.3	-65.5	3.8	1.49e+00	0	41	104	0	75	17131

#Closed at: 2026-01-21 00:45:47
#Recorded file [0 MB]: D:/Data/31040_260121_033325.dat