passes_logs/2026/01/21/T1/T1__20260121_151608_FENGYUN_3E_rec.log

#Pass ID: 20260121_151608_FENGYUN 3E
#Satellite: FENGYUN 3E
#Configuration: FENGYUN 3E
#almurnet v.1.7.20251203
#Start time: 2026-01-21 15:16:09

#Version: 2.0.20230620
#Station: T1
#Location: 37.570604 lon 55.790049 lat
#TLE: 1 49008U 21062A   26020.99547197  .00000101  00000+0  68509-4 0  9996
#TLE: 2 49008  98.7483  26.0531 0002292 127.4634 232.6751 14.19886023235694

#Time	Az	El	Level	Level2	SNR	BER	BlckErr	Temp	State	Recorded	gain1	gain2
2026-01-21 15:16:09.39	194.35	5.10	-51.7	-62.9	3.8	8.47e-01	0	36	0	0	74	12604
2026-01-21 15:16:10.38	194.41	5.16	-51.7	-62.8	3.8	8.47e-01	0	36	104	0	74	12468
2026-01-21 15:16:11.38	194.47	5.23	-51.7	-62.8	3.8	8.48e-01	0	36	104	0	74	12504
2026-01-21 15:16:12.37	194.53	5.29	-51.7	-62.9	3.8	8.46e-01	0	36	104	0	74	12550
2026-01-21 15:16:13.36	194.59	5.36	-51.7	-62.7	3.8	8.46e-01	0	36	104	0	74	12345
2026-01-21 15:16:14.35	194.65	5.43	-51.7	-62.8	3.8	8.46e-01	0	36	104	0	74	12438
2026-01-21 15:16:15.35	194.71	5.49	-51.7	-62.7	3.8	8.47e-01	0	36	104	0	74	12241
2026-01-21 15:16:16.34	194.77	5.56	-51.7	-62.5	3.8	8.46e-01	0	36	104	0	74	11975
2026-01-21 15:16:17.33	194.84	5.63	-51.7	-62.2	3.8	8.48e-01	0	37	104	0	74	11675
2026-01-21 15:16:18.33	194.90	5.69	-51.6	-62.1	3.8	8.46e-01	0	37	104	0	74	11508
2026-01-21 15:16:19.32	194.96	5.76	-51.6	-62.0	3.8	8.48e-01	0	37	104	0	74	11379
2026-01-21 15:16:20.31	195.02	5.83	-51.6	-62.0	3.8	8.47e-01	0	37	104	0	74	11412
2026-01-21 15:16:21.31	195.09	5.90	-51.6	-62.0	3.8	8.46e-01	0	37	104	0	74	11343
2026-01-21 15:16:22.30	195.15	5.96	-51.6	-62.1	3.8	8.47e-01	0	37	104	0	74	11491
2026-01-21 15:16:23.29	195.21	6.03	-51.6	-62.1	3.8	8.46e-01	0	37	104	0	74	11513
2026-01-21 15:16:24.29	195.28	6.10	-51.6	-62.2	3.8	8.46e-01	0	37	104	0	74	11682
2026-01-21 15:16:25.28	195.34	6.17	-51.6	-62.1	3.8	8.48e-01	0	37	104	0	74	11532
2026-01-21 15:16:26.27	195.41	6.23	-51.6	-62.1	3.8	8.46e-01	0	37	104	0	74	11454
2026-01-21 15:16:27.26	195.47	6.30	-51.6	-61.9	3.8	8.46e-01	0	37	104	0	73	11869
2026-01-21 15:16:28.26	195.54	6.37	-51.6	-61.7	3.8	8.46e-01	0	37	104	0	73	11600
2026-01-21 15:16:29.25	195.60	6.44	-51.5	-61.7	3.8	8.46e-01	0	37	104	0	73	11639
2026-01-21 15:16:30.24	195.67	6.51	-51.5	-61.7	3.8	8.46e-01	0	37	104	0	73	11601
2026-01-21 15:16:31.24	195.73	6.58	-51.5	-61.7	3.8	8.47e-01	0	37	104	0	73	11646
2026-01-21 15:16:32.23	195.80	6.65	-51.6	-61.9	3.8	8.48e-01	0	37	104	0	73	11888
2026-01-21 15:16:33.22	195.87	6.72	-51.6	-62.1	3.8	8.48e-01	0	37	104	0	73	12122
2026-01-21 15:16:34.22	195.93	6.78	-51.6	-62.3	3.8	8.46e-01	0	37	104	0	73	12429
2026-01-21 15:16:35.21	196.00	6.85	-51.6	-62.5	3.8	8.47e-01	0	37	104	0	73	12705
2026-01-21 15:16:36.20	196.07	6.92	-51.6	-62.6	3.8	8.48e-01	0	37	104	0	73	12954
2026-01-21 15:16:37.20	196.14	6.99	-51.6	-62.6	3.8	8.47e-01	0	37	104	0	73	12941
2026-01-21 15:16:38.19	196.20	7.06	-51.6	-62.3	3.8	8.45e-01	0	37	104	0	73	12461
2026-01-21 15:16:39.18	196.27	7.13	-51.5	-61.8	3.8	8.46e-01	0	37	104	0	73	11733
2026-01-21 15:16:40.17	196.34	7.20	-51.4	-60.9	3.8	8.46e-01	0	37	104	0	73	10544
2026-01-21 15:16:41.17	196.41	7.27	-51.3	-60.5	3.8	8.46e-01	0	37	104	0	73	10104
2026-01-21 15:16:42.16	196.48	7.35	-51.2	-60.0	4.1	8.42e-01	0	38	0	0	73	9534
2026-01-21 15:16:43.15	196.55	7.42	-51.3	-60.4	4.0	8.45e-01	0	38	104	0	73	9961
2026-01-21 15:16:44.15	196.62	7.49	-51.5	-61.5	3.8	8.46e-01	0	37	104	0	73	11287
2026-01-21 15:16:45.14	196.69	7.56	-51.6	-62.7	3.8	8.47e-01	0	37	104	0	73	13034
2026-01-21 15:16:46.13	196.76	7.63	-51.6	-62.2	3.8	8.48e-01	0	38	104	0	73	12332
2026-01-21 15:16:47.12	196.83	7.70	-51.0	-58.5	4.4	8.41e-01	0	38	0	0	72	8552
2026-01-21 15:16:48.12	196.90	7.77	-49.8	-54.6	7.1	2.21e-01	0	37	0	3145728	70	6084
2026-01-21 15:16:49.11	196.97	7.84	-48.1	-51.5	10.1	1.87e-02	0	38	0	10485760	67	5048
2026-01-21 15:16:50.10	197.05	7.92	-46.6	-49.1	12.5	2.28e-04	0	38	0	17825792	63	4852
2026-01-21 15:16:51.10	197.12	7.99	-45.4	-47.6	14.1	6.80e-06	0	38	0	25165824	61	4547
2026-01-21 15:16:52.09	197.19	8.06	-44.1	-45.9	15.6	0.00e+00	0	38	0	31457280	58	4473
2026-01-21 15:16:53.08	197.26	8.13	-43.2	-44.9	16.5	0.00e+00	0	38	0	38797312	57	4218
2026-01-21 15:16:54.08	197.34	8.21	-42.4	-44.0	17.2	0.00e+00	0	38	0	46137344	55	4277
2026-01-21 15:16:55.07	197.41	8.28	-42.2	-43.8	17.3	0.00e+00	0	38	0	53477376	55	4187
2026-01-21 15:16:56.06	197.49	8.35	-41.9	-43.5	17.7	0.00e+00	0	38	0	60817408	54	4259
2026-01-21 15:16:57.06	197.56	8.42	-42.3	-43.9	17.2	0.00e+00	0	38	0	68157440	54	4486
2026-01-21 15:16:58.05	197.64	8.50	-43.0	-44.7	16.5	0.00e+00	0	38	0	75497472	55	4646
2026-01-21 15:16:59.04	197.71	8.57	-43.1	-44.8	16.4	0.00e+00	0	38	0	81788928	55	4688
2026-01-21 15:17:00.04	197.79	8.65	-44.2	-46.1	15.4	0.00e+00	0	38	0	89128960	57	4821
2026-01-21 15:17:01.03	197.86	8.72	-45.3	-47.4	14.2	1.10e-06	0	38	0	96468992	59	5004
2026-01-21 15:17:02.02	197.94	8.79	-46.4	-48.8	12.8	1.71e-05	0	38	0	103809024	62	4973
2026-01-21 15:17:03.01	198.01	8.87	-47.2	-50.1	11.5	3.95e-04	0	38	0	111149056	64	5123
2026-01-21 15:17:04.01	198.09	8.94	-48.3	-51.7	9.8	8.97e-03	0	38	0	117440512	65	5827
2026-01-21 15:17:05.00	198.17	9.02	-49.1	-53.2	8.3	3.77e-02	0	38	0	124780544	67	6185
2026-01-21 15:17:05.99	198.25	9.09	-44.8	-46.9	14.8	0.00e+00	0	38	0	132120576	60	4461
2026-01-21 15:17:06.99	198.33	9.17	-45.5	-47.8	14.0	5.70e-06	0	38	0	139460608	60	4931
2026-01-21 15:17:07.98	198.40	9.24	-50.5	-56.7	5.4	2.69e-01	0	38	0	145752064	70	7765
2026-01-21 15:17:08.98	198.48	9.32	-50.1	-55.3	6.5	2.49e-01	0	38	0	150994944	70	6620
2026-01-21 15:17:09.98	198.56	9.39	-44.3	-46.2	15.4	0.00e+00	0	38	0	158334976	59	4369
2026-01-21 15:17:10.97	198.64	9.47	-44.3	-46.1	15.4	0.00e+00	0	38	0	165675008	59	4340
2026-01-21 15:17:11.97	198.72	9.54	-44.1	-45.9	15.7	0.00e+00	0	38	0	171966464	58	4480
2026-01-21 15:17:12.96	198.80	9.62	-44.4	-46.2	15.4	0.00e+00	0	38	0	179306496	58	4648
2026-01-21 15:17:13.96	198.89	9.70	-43.9	-45.6	15.9	0.00e+00	0	38	0	186646528	58	4337
2026-01-21 15:17:14.95	198.97	9.77	-43.8	-45.5	16.0	0.00e+00	0	38	0	193986560	58	4276
2026-01-21 15:17:15.95	199.05	9.85	-43.1	-44.8	16.7	0.00e+00	0	38	0	201326592	57	4168
2026-01-21 15:17:16.94	199.13	9.93	-43.1	-44.7	16.8	0.00e+00	0	38	0	208666624	56	4372
2026-01-21 15:17:17.94	199.21	10.00	-42.9	-44.6	16.9	0.00e+00	0	38	0	214958080	56	4294
2026-01-21 15:17:18.93	199.30	10.08	-42.2	-43.7	17.6	0.00e+00	0	38	0	222298112	55	4140
2026-01-21 15:17:19.93	199.38	10.16	-42.5	-44.1	17.2	0.00e+00	0	38	0	229638144	55	4317
2026-01-21 15:17:20.92	199.46	10.24	-42.4	-44.0	17.3	0.00e+00	0	38	0	236978176	55	4266
2026-01-21 15:17:21.91	199.55	10.31	-42.1	-43.6	17.7	0.00e+00	0	38	0	244318208	54	4324
2026-01-21 15:17:22.93	199.64	10.39	-41.9	-43.5	17.8	0.00e+00	0	38	0	251658240	54	4249
2026-01-21 15:17:23.95	199.72	10.47	-41.9	-43.4	17.8	0.00e+00	0	38	0	258998272	54	4223
2026-01-21 15:17:24.95	199.81	10.55	-42.0	-43.5	17.7	0.00e+00	0	38	0	266338304	54	4267
2026-01-21 15:17:25.94	199.90	10.63	-41.7	-43.2	18.0	0.00e+00	0	38	0	272629760	54	4110
2026-01-21 15:17:26.94	199.98	10.71	-41.9	-43.4	17.8	0.00e+00	0	38	0	279969792	54	4224
2026-01-21 15:17:27.93	200.07	10.79	-41.7	-43.2	18.0	0.00e+00	0	38	0	287309824	54	4102
2026-01-21 15:17:28.92	200.16	10.87	-41.7	-43.3	18.0	0.00e+00	0	38	0	294649856	53	4400
2026-01-21 15:17:29.92	200.25	10.95	-41.7	-43.2	18.0	0.00e+00	0	38	0	301989888	53	4383
2026-01-21 15:17:30.91	200.33	11.03	-41.8	-43.3	17.9	0.00e+00	0	38	0	309329920	53	4440
2026-01-21 15:17:31.91	200.42	11.11	-41.7	-43.3	17.9	0.00e+00	0	38	0	316669952	53	4392
2026-01-21 15:17:32.90	200.51	11.19	-41.7	-43.2	18.0	0.00e+00	0	38	0	324009984	53	4370
2026-01-21 15:17:33.90	200.60	11.27	-41.5	-43.0	18.2	0.00e+00	0	38	0	331350016	53	4250
2026-01-21 15:17:34.89	200.69	11.35	-41.8	-43.3	18.0	0.00e+00	0	38	0	337641472	53	4393
2026-01-21 15:17:35.89	200.78	11.43	-41.9	-43.4	17.9	0.00e+00	0	38	0	344981504	53	4450
2026-01-21 15:17:36.88	200.87	11.51	-41.8	-43.3	17.9	0.00e+00	0	38	0	352321536	53	4426
2026-01-21 15:17:37.88	200.97	11.59	-42.0	-43.5	17.8	0.00e+00	0	38	0	359661568	53	4517
2026-01-21 15:17:38.88	201.06	11.67	-41.9	-43.4	17.9	0.00e+00	0	38	0	367001600	53	4461
2026-01-21 15:17:39.95	201.16	11.76	-41.9	-43.4	17.9	0.00e+00	0	38	0	374341632	53	4456
2026-01-21 15:17:40.80	201.24	11.83	-42.1	-43.6	17.8	0.00e+00	0	38	0	380633088	53	4547
2026-01-21 15:17:41.94	201.35	11.92	-42.1	-43.6	17.7	0.00e+00	0	38	0	389021696	53	4553
2026-01-21 15:17:42.79	201.43	11.99	-42.0	-43.4	17.9	0.00e+00	0	38	0	395313152	53	4483
2026-01-21 15:17:43.93	201.54	12.09	-41.6	-43.0	18.2	0.00e+00	0	39	0	402653184	53	4276
2026-01-21 15:17:44.78	201.62	12.16	-41.8	-43.3	18.0	0.00e+00	0	38	0	408944640	53	4404
2026-01-21 15:17:45.92	201.73	12.25	-41.7	-43.2	18.1	0.00e+00	0	38	0	417333248	53	4347
2026-01-21 15:17:46.77	201.81	12.32	-41.5	-43.0	18.3	0.00e+00	0	38	0	423624704	53	4246
2026-01-21 15:17:47.91	201.92	12.42	-41.2	-42.6	18.6	0.00e+00	0	38	0	432013312	53	4060
2026-01-21 15:17:48.76	202.00	12.49	-41.2	-42.6	18.6	0.00e+00	0	38	0	438304768	53	4091
2026-01-21 15:17:49.96	202.12	12.59	-41.1	-42.4	18.8	0.00e+00	0	38	0	446693376	53	3996
2026-01-21 15:17:50.82	202.21	12.66	-41.1	-42.5	18.7	0.00e+00	0	38	0	452984832	52	4267
2026-01-21 15:17:52.02	202.33	12.76	-40.9	-42.3	18.9	0.00e+00	0	38	0	461373440	52	4175
2026-01-21 15:17:52.87	202.41	12.84	-40.8	-42.2	19.0	0.00e+00	0	39	0	467664896	52	4112
2026-01-21 15:17:54.00	202.53	12.93	-40.7	-42.0	19.2	0.00e+00	0	39	0	476053504	52	4034
2026-01-21 15:17:54.86	202.61	13.00	-40.8	-42.1	19.1	0.00e+00	0	39	0	482344960	52	4095
2026-01-21 15:17:56.11	202.74	13.11	-40.8	-42.2	19.1	0.00e+00	0	39	0	490733568	51	4354
2026-01-21 15:17:56.96	202.83	13.18	-40.6	-42.0	19.3	0.00e+00	0	38	0	497025024	51	4245
2026-01-21 15:17:58.09	202.94	13.28	-40.7	-42.0	19.3	0.00e+00	0	38	0	505413632	51	4258
2026-01-21 15:17:58.95	203.03	13.36	-40.7	-42.0	19.3	0.00e+00	0	39	0	511705088	51	4289
2026-01-21 15:18:00.09	203.15	13.45	-40.6	-41.9	19.3	0.00e+00	0	39	0	520093696	51	4232
2026-01-21 15:18:00.94	203.24	13.53	-40.4	-41.7	19.6	0.00e+00	0	39	0	525336576	51	4127
2026-01-21 15:18:02.08	203.36	13.63	-40.5	-41.8	19.4	0.00e+00	0	39	0	533725184	51	4183
2026-01-21 15:18:03.04	203.46	13.71	-40.4	-41.7	19.6	0.00e+00	0	39	0	541065216	51	4121
2026-01-21 15:18:04.03	203.57	13.80	-40.4	-41.7	19.6	0.00e+00	0	39	0	548405248	51	4139
2026-01-21 15:18:05.03	203.68	13.88	-40.5	-41.8	19.5	0.00e+00	0	38	0	555745280	51	4151
2026-01-21 15:18:06.02	203.78	13.97	-40.6	-41.9	19.5	0.00e+00	0	39	0	563085312	51	4200
2026-01-21 15:18:07.02	203.89	14.06	-40.6	-41.9	19.5	0.00e+00	0	39	0	569376768	51	4201
2026-01-21 15:18:07.99	204.00	14.14	-40.6	-41.9	19.4	0.00e+00	0	39	0	576716800	51	4203
2026-01-21 15:18:08.99	204.11	14.23	-40.5	-41.8	19.5	0.00e+00	0	39	0	584056832	51	4180
2026-01-21 15:18:09.98	204.21	14.32	-40.4	-41.7	19.5	0.00e+00	0	38	0	591396864	51	4142
2026-01-21 15:18:10.97	204.32	14.41	-40.3	-41.6	19.7	0.00e+00	0	39	0	598736896	51	4086
2026-01-21 15:18:11.97	204.44	14.49	-40.4	-41.7	19.6	0.00e+00	0	39	0	605028352	51	4140
2026-01-21 15:18:12.97	204.55	14.58	-40.4	-41.7	19.6	0.00e+00	0	39	0	612368384	51	4136
2026-01-21 15:18:13.96	204.66	14.67	-40.4	-41.8	19.6	0.00e+00	0	38	0	619708416	51	4148
2026-01-21 15:18:14.96	204.77	14.76	-40.4	-41.7	19.6	0.00e+00	0	38	0	627048448	51	4126
2026-01-21 15:18:15.97	204.89	14.85	-40.1	-41.4	19.9	0.00e+00	0	39	0	634388480	51	3984
2026-01-21 15:18:16.96	205.00	14.94	-40.1	-41.5	19.9	0.00e+00	0	39	0	641728512	51	4009
2026-01-21 15:18:18.00	205.12	15.04	-40.0	-41.3	20.0	0.00e+00	0	38	0	649068544	50	4178
2026-01-21 15:18:18.95	205.23	15.12	-40.1	-41.4	19.9	0.00e+00	0	39	0	656408576	50	4232
2026-01-21 15:18:19.94	205.35	15.21	-40.3	-41.7	19.7	0.00e+00	0	39	0	663748608	50	4349
2026-01-21 15:18:20.94	205.47	15.30	-40.2	-41.5	19.8	0.00e+00	0	38	0	670040064	50	4273
2026-01-21 15:18:21.93	205.58	15.39	-40.4	-41.7	19.6	0.00e+00	0	39	0	677380096	50	4389
2026-01-21 15:18:22.92	205.70	15.48	-40.3	-41.7	19.6	0.00e+00	0	38	0	684720128	50	4343
2026-01-21 15:18:23.92	205.82	15.57	-40.2	-41.6	19.8	0.00e+00	0	39	0	692060160	50	4302
2026-01-21 15:18:24.92	205.94	15.67	-40.1	-41.4	19.9	0.00e+00	0	39	0	699400192	50	4234
2026-01-21 15:18:25.91	206.06	15.76	-39.9	-41.2	20.0	0.00e+00	0	38	0	706740224	50	4131
2026-01-21 15:18:26.90	206.18	15.85	-40.0	-41.4	19.9	0.00e+00	0	38	0	713031680	50	4206
2026-01-21 15:18:27.90	206.30	15.94	-39.9	-41.3	19.9	0.00e+00	0	38	0	720371712	50	4157
2026-01-21 15:18:28.89	206.43	16.03	-39.8	-41.2	20.0	0.00e+00	0	39	0	727711744	50	4128
2026-01-21 15:18:29.90	206.55	16.13	-39.9	-41.3	19.9	0.00e+00	0	38	0	735051776	50	4176
2026-01-21 15:18:30.93	206.68	16.22	-39.8	-41.2	20.0	0.00e+00	0	39	0	742391808	50	4124
2026-01-21 15:18:31.95	206.81	16.32	-39.9	-41.3	20.0	0.00e+00	0	39	0	749731840	50	4155
2026-01-21 15:18:32.95	206.93	16.41	-39.8	-41.2	20.1	0.00e+00	0	39	0	757071872	50	4110
2026-01-21 15:18:33.94	207.06	16.51	-39.7	-41.1	20.1	0.00e+00	0	39	0	764411904	50	4087
2026-01-21 15:18:34.94	207.19	16.60	-39.7	-41.1	20.1	0.00e+00	0	39	0	771751936	50	4054
2026-01-21 15:18:35.93	207.32	16.69	-39.7	-41.1	20.1	0.00e+00	0	39	0	779091968	50	4057
2026-01-21 15:18:36.92	207.44	16.79	-39.6	-41.0	20.2	0.00e+00	0	39	0	786432000	49	4248
2026-01-21 15:18:37.92	207.57	16.88	-39.7	-41.1	20.1	0.00e+00	0	39	0	792723456	49	4314
2026-01-21 15:18:38.91	207.70	16.98	-39.5	-40.9	20.2	0.00e+00	0	39	0	800063488	49	4231
2026-01-21 15:18:39.91	207.84	17.07	-39.7	-41.1	20.1	0.00e+00	0	38	0	807403520	49	4304
2026-01-21 15:18:40.90	207.97	17.17	-39.7	-41.1	20.1	0.00e+00	0	39	0	814743552	49	4317
2026-01-21 15:18:41.90	208.10	17.26	-39.6	-41.0	20.2	0.00e+00	0	39	0	822083584	49	4244
2026-01-21 15:18:42.89	208.23	17.36	-39.5	-40.9	20.2	0.00e+00	0	39	0	829423616	49	4212
2026-01-21 15:18:43.89	208.37	17.45	-39.7	-41.0	20.1	0.00e+00	0	39	0	835715072	49	4279
2026-01-21 15:18:44.88	208.50	17.55	-39.5	-40.8	20.3	0.00e+00	0	39	0	843055104	49	4175
2026-01-21 15:18:45.88	208.64	17.64	-39.2	-40.5	20.5	0.00e+00	0	39	0	850395136	49	4038
2026-01-21 15:18:46.90	208.78	17.74	-39.3	-40.6	20.5	0.00e+00	0	39	0	857735168	49	4060
2026-01-21 15:18:47.93	208.92	17.84	-39.1	-40.4	20.6	0.00e+00	0	39	0	865075200	49	3965
2026-01-21 15:18:48.92	209.06	17.94	-39.1	-40.4	20.6	0.00e+00	0	39	0	872415232	49	3982
2026-01-21 15:18:49.92	209.20	18.04	-39.2	-40.5	20.5	0.00e+00	0	39	0	879755264	49	4007
2026-01-21 15:18:50.91	209.34	18.13	-39.2	-40.5	20.5	0.00e+00	0	39	0	887095296	49	4022
2026-01-21 15:18:51.91	209.48	18.23	-39.3	-40.6	20.5	0.00e+00	0	39	0	894435328	49	4061
2026-01-21 15:18:52.90	209.62	18.33	-39.3	-40.6	20.5	0.00e+00	0	39	0	900726784	49	4059
2026-01-21 15:18:53.90	209.77	18.43	-39.3	-40.6	20.5	0.00e+00	0	39	0	908066816	49	4053
2026-01-21 15:18:54.90	209.91	18.53	-39.3	-40.6	20.4	0.00e+00	0	39	0	915406848	49	4090
2026-01-21 15:18:55.89	210.06	18.62	-39.3	-40.6	20.4	0.00e+00	0	39	0	922746880	49	4080
2026-01-21 15:18:56.89	210.20	18.72	-39.3	-40.6	20.5	0.00e+00	0	39	0	930086912	49	4059
2026-01-21 15:18:57.88	210.35	18.82	-39.3	-40.5	20.5	0.00e+00	0	39	0	937426944	49	4048
2026-01-21 15:18:58.87	210.49	18.92	-39.3	-40.6	20.5	0.00e+00	0	39	0	944766976	49	4065
2026-01-21 15:18:59.87	210.64	19.02	-39.3	-40.5	20.5	0.00e+00	0	39	0	951058432	49	4048
2026-01-21 15:19:00.86	210.79	19.12	-39.3	-40.6	20.5	0.00e+00	0	39	0	958398464	49	4081
2026-01-21 15:19:01.86	210.94	19.22	-39.1	-40.4	20.6	0.00e+00	0	39	0	965738496	49	3991
2026-01-21 15:19:02.85	211.09	19.32	-39.1	-40.4	20.7	0.00e+00	0	39	0	973078528	48	4203
2026-01-21 15:19:03.85	211.25	19.42	-39.1	-40.3	20.7	0.00e+00	0	39	0	980418560	48	4183
2026-01-21 15:19:04.84	211.40	19.52	-39.0	-40.2	20.8	0.00e+00	0	39	0	987758592	48	4128
2026-01-21 15:19:05.84	211.56	19.62	-38.9	-40.2	20.9	0.00e+00	0	39	0	995098624	48	4119
2026-01-21 15:19:06.83	211.71	19.72	-39.0	-40.2	20.9	0.00e+00	0	39	0	1001390080	48	4113
2026-01-21 15:19:07.82	211.87	19.82	-38.9	-40.2	20.9	0.00e+00	0	39	0	1008730112	48	4114
2026-01-21 15:19:08.82	212.02	19.92	-38.8	-40.0	21.0	0.00e+00	0	39	0	1016070144	48	4049
2026-01-21 15:19:09.81	212.18	20.02	-38.8	-40.0	21.0	0.00e+00	0	39	0	1023410176	48	4028
2026-01-21 15:19:10.80	212.34	20.12	-38.8	-40.0	21.0	0.00e+00	0	39	0	1030750208	48	4045
2026-01-21 15:19:11.80	212.50	20.23	-38.7	-39.9	21.1	0.00e+00	0	39	0	1038090240	48	3999
2026-01-21 15:19:12.79	212.66	20.33	-38.8	-40.0	21.1	0.00e+00	0	39	0	1044381696	48	4021
2026-01-21 15:19:13.79	212.82	20.43	-38.7	-39.9	21.1	0.00e+00	0	39	0	1051721728	48	3979
2026-01-21 15:19:14.81	212.99	20.53	-38.8	-40.0	21.0	0.00e+00	0	39	0	1059061760	48	4049
2026-01-21 15:19:15.85	213.16	20.64	-38.8	-40.1	21.0	0.00e+00	0	39	0	1066401792	48	4052
2026-01-21 15:19:16.83	213.33	20.74	-38.8	-40.0	21.0	0.00e+00	0	39	0	1073741824	48	4039
2026-01-21 15:19:17.91	213.51	20.85	-38.8	-40.1	21.0	0.00e+00	0	39	0	1082130432	48	4055
2026-01-21 15:19:18.76	213.65	20.94	-38.9	-40.1	20.9	0.00e+00	0	39	0	1087373312	48	4096
2026-01-21 15:19:20.08	213.88	21.08	-38.8	-40.1	21.0	0.00e+00	0	38	0	1097859072	48	4057
2026-01-21 15:19:20.79	214.00	21.15	-38.8	-40.1	21.0	0.00e+00	0	39	0	1102053376	48	4074
2026-01-21 15:19:22.07	214.22	21.29	-38.8	-40.0	21.0	0.00e+00	0	39	0	1111490560	48	4047
2026-01-21 15:19:22.78	214.34	21.36	-38.8	-40.1	21.0	0.00e+00	0	39	0	1116733440	48	4062
2026-01-21 15:19:24.06	214.56	21.49	-38.8	-40.0	21.0	0.00e+00	0	39	0	1126170624	48	4051
2026-01-21 15:19:24.77	214.69	21.57	-38.7	-40.0	21.0	0.00e+00	0	39	0	1131413504	48	4018
2026-01-21 15:19:26.06	214.92	21.70	-38.7	-40.0	21.0	0.00e+00	0	39	0	1140850688	48	4051
2026-01-21 15:19:26.86	215.06	21.79	-38.7	-40.0	21.0	0.00e+00	0	39	0	1146093568	48	4041
2026-01-21 15:19:28.00	215.26	21.91	-38.7	-40.0	21.0	0.00e+00	0	39	0	1154482176	48	4026
2026-01-21 15:19:28.85	215.42	22.00	-38.7	-40.0	21.0	0.00e+00	0	39	0	1160773632	48	4035
2026-01-21 15:19:29.99	215.62	22.12	-38.7	-39.9	21.1	0.00e+00	0	39	0	1169162240	48	4004
2026-01-21 15:19:30.84	215.78	22.21	-38.7	-40.0	21.1	0.00e+00	0	39	0	1175453696	48	4022
2026-01-21 15:19:31.98	215.99	22.33	-38.4	-39.7	20.9	0.00e+00	0	39	0	1183842304	47	4134
2026-01-21 15:19:32.83	216.15	22.42	-38.4	-39.7	20.9	0.00e+00	0	39	0	1189085184	47	4105
2026-01-21 15:19:33.97	216.36	22.54	-38.3	-39.6	21.0	0.00e+00	0	39	0	1197473792	47	4061
2026-01-21 15:19:34.82	216.52	22.63	-38.3	-39.5	21.1	0.00e+00	0	39	0	1203765248	47	4045
2026-01-21 15:19:36.05	216.75	22.76	-38.3	-39.6	21.0	0.00e+00	0	39	0	1212153856	47	4053
2026-01-21 15:19:36.91	216.91	22.85	-38.3	-39.5	21.1	0.00e+00	0	39	0	1218445312	47	4046
2026-01-21 15:19:38.04	217.13	22.97	-38.2	-39.5	21.1	0.00e+00	0	39	0	1226833920	47	4029
2026-01-21 15:19:38.90	217.30	23.06	-38.1	-39.4	21.2	0.00e+00	0	39	0	1233125376	47	3969
2026-01-21 15:19:40.03	217.51	23.18	-38.1	-39.4	21.2	0.00e+00	0	39	0	1241513984	47	3966
2026-01-21 15:19:40.96	217.70	23.28	-38.1	-39.3	21.2	0.00e+00	0	39	0	1247805440	46	4191
2026-01-21 15:19:41.96	217.89	23.39	-38.0	-39.3	21.2	0.00e+00	0	39	0	1255145472	46	4180
2026-01-21 15:19:42.95	218.09	23.50	-38.0	-39.2	21.3	0.00e+00	0	39	0	1262485504	46	4134
2026-01-21 15:19:43.94	218.29	23.60	-38.0	-39.3	21.3	0.00e+00	0	39	0	1269825536	46	4159
2026-01-21 15:19:44.94	218.49	23.71	-37.9	-39.2	21.3	0.00e+00	0	39	0	1277165568	46	4101
2026-01-21 15:19:45.93	218.69	23.81	-38.0	-39.3	21.3	0.00e+00	0	39	0	1284505600	46	4148
2026-01-21 15:19:46.93	218.89	23.92	-38.0	-39.3	21.2	0.00e+00	0	39	0	1290797056	46	4180
2026-01-21 15:19:47.92	219.09	24.03	-38.1	-39.4	21.2	0.00e+00	0	39	0	1298137088	46	4219
2026-01-21 15:19:48.92	219.30	24.14	-38.0	-39.3	21.2	0.00e+00	0	39	0	1305477120	46	4191
2026-01-21 15:19:49.91	219.50	24.24	-38.1	-39.4	21.2	0.00e+00	0	39	0	1312817152	46	4200
2026-01-21 15:19:50.91	219.71	24.35	-38.1	-39.4	21.1	0.00e+00	0	39	0	1320157184	46	4223
2026-01-21 15:19:51.92	219.92	24.46	-38.1	-39.4	21.2	0.00e+00	0	39	0	1327497216	46	4218
2026-01-21 15:19:52.94	220.14	24.57	-38.1	-39.4	21.2	0.00e+00	0	39	0	1334837248	46	4216
2026-01-21 15:19:53.94	220.35	24.68	-38.0	-39.3	21.3	0.00e+00	0	39	0	1342177280	46	4162
2026-01-21 15:19:54.94	220.57	24.78	-38.0	-39.3	21.3	0.00e+00	0	39	0	1349517312	46	4179
2026-01-21 15:19:55.93	220.78	24.89	-38.1	-39.4	21.2	0.00e+00	0	39	0	1355808768	46	4240
2026-01-21 15:19:56.92	221.00	25.00	-38.1	-39.4	21.2	0.00e+00	0	39	0	1363148800	46	4226
2026-01-21 15:19:57.92	221.22	25.11	-38.0	-39.3	21.3	0.00e+00	0	39	0	1370488832	46	4189
2026-01-21 15:19:58.91	221.43	25.21	-38.0	-39.3	21.3	0.00e+00	0	39	0	1377828864	46	4190
2026-01-21 15:19:59.91	221.66	25.32	-38.2	-39.5	21.1	0.00e+00	0	39	0	1385168896	46	4273
2026-01-21 15:20:00.90	221.88	25.43	-38.2	-39.5	21.1	0.00e+00	0	39	0	1392508928	46	4260
2026-01-21 15:20:01.90	222.10	25.53	-38.1	-39.3	21.2	0.00e+00	0	39	0	1398800384	46	4192
2026-01-21 15:20:02.89	222.32	25.64	-38.0	-39.3	21.3	0.00e+00	0	39	0	1406140416	46	4157
2026-01-21 15:20:03.89	222.55	25.75	-38.0	-39.2	21.3	0.00e+00	0	39	0	1413480448	46	4143
2026-01-21 15:20:04.88	222.78	25.86	-37.9	-39.2	21.3	0.00e+00	0	39	0	1420820480	46	4130
2026-01-21 15:20:05.88	223.01	25.96	-37.9	-39.2	21.4	0.00e+00	0	39	0	1428160512	46	4112
2026-01-21 15:20:06.90	223.25	26.07	-37.9	-39.2	21.3	0.00e+00	0	39	0	1435500544	46	4119
2026-01-21 15:20:07.93	223.49	26.18	-37.8	-39.1	21.4	0.00e+00	0	39	0	1442840576	46	4069
2026-01-21 15:20:08.95	223.73	26.29	-37.8	-39.1	21.4	0.00e+00	0	39	0	1450180608	46	4053
2026-01-21 15:20:09.95	223.96	26.40	-37.7	-38.9	21.6	0.00e+00	0	39	0	1457520640	46	3994
2026-01-21 15:20:10.94	224.20	26.51	-37.7	-38.9	21.5	0.00e+00	0	39	0	1464860672	45	4226
2026-01-21 15:20:11.94	224.44	26.61	-37.7	-39.0	21.5	0.00e+00	0	39	0	1472200704	45	4248
2026-01-21 15:20:12.94	224.68	26.72	-37.7	-39.0	21.5	0.00e+00	0	39	0	1478492160	45	4250
2026-01-21 15:20:13.93	224.92	26.83	-37.7	-38.9	21.5	0.00e+00	0	39	0	1485832192	45	4228
2026-01-21 15:20:14.92	225.17	26.93	-37.7	-38.9	21.6	0.00e+00	0	39	0	1493172224	45	4226
2026-01-21 15:20:15.92	225.41	27.04	-37.7	-38.9	21.6	0.00e+00	0	39	0	1500512256	45	4211
2026-01-21 15:20:16.91	225.66	27.14	-37.6	-38.9	21.6	0.00e+00	0	39	0	1507852288	45	4207
2026-01-21 15:20:17.90	225.91	27.25	-37.8	-39.0	21.5	0.00e+00	0	39	0	1515192320	45	4283
2026-01-21 15:20:18.90	226.16	27.36	-37.8	-39.1	21.5	0.00e+00	0	39	0	1521483776	45	4314
2026-01-21 15:20:19.89	226.41	27.46	-37.9	-39.1	21.5	0.00e+00	0	39	0	1528823808	45	4335
2026-01-21 15:20:20.89	226.66	27.57	-37.7	-39.0	21.6	0.00e+00	0	39	0	1536163840	45	4265
2026-01-21 15:20:21.89	226.92	27.67	-37.7	-39.0	21.6	0.00e+00	0	39	0	1543503872	45	4262
2026-01-21 15:20:22.91	227.18	27.78	-37.7	-38.9	21.6	0.00e+00	0	39	0	1550843904	45	4229
2026-01-21 15:20:23.94	227.45	27.89	-37.6	-38.8	21.7	0.00e+00	0	39	0	1558183936	45	4193
2026-01-21 15:20:24.95	227.71	28.00	-37.6	-38.9	21.7	0.00e+00	0	39	0	1565523968	45	4195
2026-01-21 15:20:25.96	227.98	28.10	-37.6	-38.9	21.6	0.00e+00	0	39	0	1572864000	45	4218
2026-01-21 15:20:26.95	228.24	28.20	-37.6	-38.9	21.6	0.00e+00	0	39	0	1580204032	45	4212
2026-01-21 15:20:27.95	228.51	28.31	-37.6	-38.9	21.6	0.00e+00	0	39	0	1587544064	45	4237
2026-01-21 15:20:28.94	228.77	28.41	-37.7	-39.0	21.5	0.00e+00	0	39	0	1594884096	45	4251
2026-01-21 15:20:29.94	229.04	28.52	-37.7	-39.0	21.5	0.00e+00	0	39	0	1602224128	45	4248
2026-01-21 15:20:30.93	229.31	28.62	-37.7	-39.0	21.5	0.00e+00	0	39	0	1608515584	45	4270
2026-01-21 15:20:31.93	229.58	28.72	-37.6	-38.9	21.5	0.00e+00	0	39	0	1615855616	45	4223
2026-01-21 15:20:32.92	229.86	28.82	-37.6	-38.9	21.6	0.00e+00	0	39	0	1623195648	45	4217
2026-01-21 15:20:33.92	230.13	28.93	-37.7	-38.9	21.5	0.00e+00	0	39	0	1630535680	45	4228
2026-01-21 15:20:34.91	230.41	29.03	-37.6	-38.9	21.6	0.00e+00	0	39	0	1637875712	45	4223
2026-01-21 15:20:35.91	230.69	29.13	-37.5	-38.7	21.7	0.00e+00	0	39	0	1644167168	45	4123
2026-01-21 15:20:36.90	230.97	29.23	-37.5	-38.8	21.7	0.00e+00	0	39	0	1651507200	45	4147
2026-01-21 15:20:37.90	231.25	29.33	-37.5	-38.7	21.7	0.00e+00	0	39	0	1658847232	45	4135
2026-01-21 15:20:38.89	231.53	29.43	-37.5	-38.7	21.7	0.00e+00	0	39	0	1666187264	45	4144
2026-01-21 15:20:39.89	231.82	29.53	-37.6	-38.8	21.7	0.00e+00	0	39	0	1673527296	45	4162
2026-01-21 15:20:40.91	232.12	29.63	-37.6	-38.9	21.6	0.00e+00	0	39	0	1680867328	45	4203
2026-01-21 15:20:41.96	232.42	29.74	-37.7	-38.9	21.6	0.00e+00	0	39	0	1688207360	45	4227
2026-01-21 15:20:42.93	232.70	29.83	-37.7	-38.9	21.5	0.00e+00	0	39	0	1695547392	45	4236
2026-01-21 15:20:43.92	233.00	29.93	-37.6	-38.9	21.6	0.00e+00	0	39	0	1702887424	45	4209
2026-01-21 15:20:44.92	233.29	30.03	-37.7	-39.0	21.5	0.00e+00	0	39	0	1709178880	45	4254
2026-01-21 15:20:45.91	233.59	30.12	-37.7	-39.0	21.5	0.00e+00	0	39	0	1716518912	45	4247
2026-01-21 15:20:46.91	233.89	30.22	-37.6	-38.9	21.6	0.00e+00	0	39	0	1723858944	45	4216
2026-01-21 15:20:47.90	234.18	30.32	-37.6	-38.9	21.6	0.00e+00	0	39	0	1731198976	45	4195
2026-01-21 15:20:48.90	234.49	30.41	-37.6	-38.8	21.6	0.00e+00	0	39	0	1738539008	45	4186
2026-01-21 15:20:49.89	234.79	30.51	-37.6	-38.9	21.6	0.00e+00	0	39	0	1745879040	45	4195
2026-01-21 15:20:50.89	235.10	30.60	-37.6	-38.9	21.6	0.00e+00	0	39	0	1753219072	45	4217
2026-01-21 15:20:51.88	235.40	30.70	-37.7	-39.0	21.5	0.00e+00	0	39	0	1760559104	45	4274
2026-01-21 15:20:52.88	235.71	30.79	-37.7	-39.0	21.5	0.00e+00	0	39	0	1767899136	45	4279
2026-01-21 15:20:53.92	236.03	30.89	-37.6	-38.9	21.5	0.00e+00	0	39	0	1775239168	45	4230
2026-01-21 15:20:54.93	236.35	30.98	-37.7	-39.1	21.4	0.00e+00	0	39	0	1782579200	45	4301
2026-01-21 15:20:55.92	236.66	31.07	-37.8	-39.1	21.4	0.00e+00	0	39	0	1789919232	45	4303
2026-01-21 15:20:56.92	236.98	31.16	-37.5	-38.8	21.6	0.00e+00	0	39	0	1796210688	45	4186
2026-01-21 15:20:57.91	237.30	31.25	-37.6	-38.9	21.5	0.00e+00	0	39	0	1803550720	45	4220
2026-01-21 15:20:58.91	237.62	31.34	-37.4	-38.7	21.7	0.00e+00	0	39	0	1810890752	45	4130
2026-01-21 15:20:59.90	237.94	31.43	-37.4	-38.7	21.7	0.00e+00	0	39	0	1818230784	45	4117
2026-01-21 15:21:00.90	238.26	31.52	-37.5	-38.7	21.6	0.00e+00	0	39	0	1825570816	45	4138
2026-01-21 15:21:01.90	238.59	31.61	-37.5	-38.7	21.7	0.00e+00	0	39	0	1831862272	45	4131
2026-01-21 15:21:02.89	238.91	31.69	-37.4	-38.6	21.8	0.00e+00	0	39	0	1839202304	45	4082
2026-01-21 15:21:03.89	239.24	31.78	-37.5	-38.7	21.7	0.00e+00	0	39	0	1846542336	45	4132
2026-01-21 15:21:04.88	239.57	31.86	-37.5	-38.8	21.7	0.00e+00	0	39	0	1853882368	45	4167
2026-01-21 15:21:05.87	239.90	31.95	-37.4	-38.7	21.8	0.00e+00	0	39	0	1861222400	45	4124
2026-01-21 15:21:06.87	240.23	32.03	-37.5	-38.7	21.7	0.00e+00	0	39	0	1868562432	45	4141
2026-01-21 15:21:07.86	240.56	32.11	-37.5	-38.8	21.6	0.00e+00	0	39	0	1874853888	45	4180
2026-01-21 15:21:08.86	240.90	32.19	-37.6	-38.8	21.7	0.00e+00	0	39	0	1882193920	45	4191
2026-01-21 15:21:09.85	241.24	32.27	-37.5	-38.8	21.7	0.00e+00	0	39	0	1889533952	45	4168
2026-01-21 15:21:10.85	241.58	32.35	-37.7	-39.0	21.6	0.00e+00	0	39	0	1896873984	45	4255
2026-01-21 15:21:11.84	241.92	32.43	-37.7	-39.0	21.5	0.00e+00	0	39	0	1904214016	45	4285
2026-01-21 15:21:12.84	242.26	32.51	-37.8	-39.1	21.5	0.00e+00	0	39	0	1911554048	45	4327
2026-01-21 15:21:13.83	242.60	32.59	-37.5	-38.8	21.7	0.00e+00	0	39	0	1918894080	45	4182
2026-01-21 15:21:14.83	242.95	32.67	-37.5	-38.7	21.8	0.00e+00	0	39	0	1926234112	45	4131
2026-01-21 15:21:15.82	243.30	32.74	-37.3	-38.6	21.8	0.00e+00	0	39	0	1933574144	45	4068
2026-01-21 15:21:16.82	243.65	32.81	-37.4	-38.7	21.7	0.00e+00	0	39	0	1939865600	45	4113
2026-01-21 15:21:17.81	244.00	32.89	-37.4	-38.7	21.7	0.00e+00	0	39	0	1947205632	45	4131
2026-01-21 15:21:18.81	244.35	32.96	-37.6	-38.9	21.6	0.00e+00	0	39	0	1954545664	45	4213
2026-01-21 15:21:19.80	244.70	33.03	-37.7	-39.0	21.5	0.00e+00	0	39	0	1961885696	45	4267
2026-01-21 15:21:20.79	245.05	33.10	-37.7	-39.0	21.4	0.00e+00	0	39	0	1969225728	45	4270
2026-01-21 15:21:21.79	245.41	33.17	-37.6	-38.9	21.5	0.00e+00	0	39	0	1975517184	45	4228
2026-01-21 15:21:22.78	245.77	33.24	-37.6	-38.9	21.6	0.00e+00	0	39	0	1982857216	45	4226
2026-01-21 15:21:23.78	246.13	33.31	-37.7	-38.9	21.6	0.00e+00	0	39	0	1990197248	45	4239
2026-01-21 15:21:24.82	246.51	33.38	-37.7	-38.9	21.6	0.00e+00	0	39	0	1997537280	45	4234
2026-01-21 15:21:25.80	246.86	33.44	-37.7	-39.0	21.5	0.00e+00	0	39	0	2004877312	45	4257
2026-01-21 15:21:26.79	247.23	33.50	-37.6	-38.9	21.6	0.00e+00	0	39	0	2012217344	45	4194
2026-01-21 15:21:27.79	247.59	33.57	-37.5	-38.8	21.7	0.00e+00	0	39	0	2019557376	45	4163
2026-01-21 15:21:28.78	247.96	33.63	-37.5	-38.8	21.7	0.00e+00	0	39	0	2026897408	45	4170
2026-01-21 15:21:29.77	248.32	33.69	-37.4	-38.6	21.9	0.00e+00	0	39	0	2034237440	45	4085
2026-01-21 15:21:30.77	248.69	33.75	-37.4	-38.6	21.9	0.00e+00	0	39	0	2040528896	45	4053
2026-01-21 15:21:31.76	249.06	33.80	-37.2	-38.5	22.0	0.00e+00	0	39	0	2047868928	45	4006
2026-01-21 15:21:32.76	249.44	33.86	-37.4	-38.6	21.9	0.00e+00	0	39	0	2055208960	45	4079
2026-01-21 15:21:33.75	249.81	33.92	-37.4	-38.6	21.9	0.00e+00	0	39	0	2062548992	45	4085
2026-01-21 15:21:34.74	250.18	33.97	-37.5	-38.8	21.8	0.00e+00	0	39	0	2069889024	45	4162
2026-01-21 15:21:35.74	250.56	34.02	-37.6	-38.9	21.6	0.00e+00	0	39	0	2077229056	45	4214
2026-01-21 15:21:36.73	250.93	34.08	-37.5	-38.8	21.7	0.00e+00	0	39	0	2083520512	45	4169
2026-01-21 15:21:37.72	251.31	34.13	-37.4	-38.7	21.8	0.00e+00	0	39	0	2090860544	45	4099
2026-01-21 15:21:38.77	251.71	34.18	-37.5	-38.8	21.7	0.00e+00	0	39	0	2098200576	45	4154
2026-01-21 15:21:39.74	252.08	34.23	-37.5	-38.8	21.7	0.00e+00	0	39	0	2105540608	45	4156
2026-01-21 15:21:40.74	252.46	34.27	-37.6	-38.9	21.6	0.00e+00	0	39	0	2112880640	45	4235
2026-01-21 15:21:41.82	252.88	34.32	-37.7	-39.0	21.5	0.00e+00	0	39	0	2121269248	45	4253
2026-01-21 15:21:42.71	253.22	34.36	-37.6	-38.9	21.6	0.00e+00	0	39	0	2126512128	45	4218
2026-01-21 15:21:44.02	253.73	34.42	-37.5	-38.7	21.7	0.00e+00	0	39	0	2135949312	45	4130
2026-01-21 15:21:44.73	254.00	34.45	-37.4	-38.6	21.9	0.00e+00	0	39	0	2141192192	45	4078
2026-01-21 15:21:46.01	254.50	34.50	-37.4	-38.6	21.9	0.00e+00	0	39	0	2150629376	45	4068
2026-01-21 15:21:46.76	254.79	34.53	-37.4	-38.6	21.9	0.00e+00	0	39	0	2155872256	45	4074
2026-01-21 15:21:48.22	255.36	34.58	-37.2	-38.4	22.1	0.00e+00	0	39	0	2167406592	45	3968
2026-01-21 15:21:49.20	255.74	34.61	-37.2	-38.4	22.1	0.00e+00	0	39	0	2173698048	45	3979
2026-01-21 15:21:50.20	256.14	34.65	-37.2	-38.4	22.1	0.00e+00	0	39	0	2181038080	45	3959
2026-01-21 15:21:51.52	256.65	34.69	-37.4	-38.6	21.9	0.00e+00	0	39	0	2190475264	45	4077
2026-01-21 15:21:52.24	256.94	34.71	-37.4	-38.6	21.9	0.00e+00	0	39	0	2195718144	45	4074
2026-01-21 15:21:53.52	257.44	34.75	-37.5	-38.8	21.8	0.00e+00	0	39	0	2205155328	45	4150
2026-01-21 15:21:54.24	257.73	34.77	-37.9	-38.7	22.4	0.00e+00	0	39	0	2210398208	45	4137
2026-01-21 15:21:55.52	258.23	34.80	-37.9	-38.7	22.5	0.00e+00	0	39	0	2218786816	45	4125
2026-01-21 15:21:56.27	258.53	34.82	-38.0	-38.8	22.4	0.00e+00	0	39	0	2225078272	45	4170
2026-01-21 15:21:57.55	259.04	34.85	-38.0	-38.8	22.4	0.00e+00	0	39	0	2234515456	45	4192
2026-01-21 15:21:58.29	259.33	34.87	-38.1	-39.0	22.2	0.00e+00	0	39	0	2239758336	45	4255
2026-01-21 15:21:59.57	259.84	34.89	-38.3	-39.1	22.1	0.00e+00	0	39	0	2249195520	46	4084
2026-01-21 15:22:00.28	260.12	34.91	-38.4	-39.3	22.0	0.00e+00	0	39	0	2254438400	46	4152
2026-01-21 15:22:01.56	260.63	34.93	-38.3	-39.1	22.1	0.00e+00	0	39	0	2262827008	46	4092
2026-01-21 15:22:02.29	260.93	34.94	-38.2	-39.1	22.1	0.00e+00	0	39	0	2268069888	46	4077
2026-01-21 15:22:03.60	261.45	34.96	-38.0	-38.8	22.4	0.00e+00	0	39	0	2277507072	46	3951
2026-01-21 15:22:04.31	261.73	34.97	-37.9	-38.7	22.5	0.00e+00	0	39	0	2282749952	46	3900
2026-01-21 15:22:05.65	262.27	34.98	-37.8	-38.7	22.5	0.00e+00	0	39	0	2292187136	46	3882
2026-01-21 15:22:06.36	262.55	34.99	-37.8	-38.6	22.5	0.00e+00	0	39	0	2297430016	46	3864
2026-01-21 15:22:07.70	263.09	35.00	-37.8	-38.6	22.6	0.00e+00	0	39	0	2306867200	46	3862
2026-01-21 15:22:08.41	263.37	35.00	-37.8	-38.6	22.6	0.00e+00	0	39	0	2312110080	46	3860
2026-01-21 15:22:09.76	263.92	35.01	-37.9	-38.8	22.5	0.00e+00	0	39	0	2322595840	46	3919
2026-01-21 15:22:10.47	264.20	35.01	-38.0	-38.9	22.4	0.00e+00	0	39	0	2326790144	46	3959
2026-01-21 15:22:11.75	264.71	35.01	-38.0	-38.8	22.4	0.00e+00	0	39	0	2336227328	46	3948
2026-01-21 15:22:12.46	265.00	35.01	-37.9	-38.8	22.4	0.00e+00	0	39	0	2341470208	46	3929
2026-01-21 15:22:13.74	265.51	35.01	-38.1	-39.0	22.3	0.00e+00	0	39	0	2350907392	46	4006
2026-01-21 15:22:14.45	265.80	35.01	-38.1	-39.0	22.2	0.00e+00	0	39	0	2356150272	46	4019
2026-01-21 15:22:15.73	266.31	35.00	-38.1	-39.0	22.2	0.00e+00	0	39	0	2365587456	46	4015
2026-01-21 15:22:16.45	266.60	35.00	-38.1	-38.9	22.3	0.00e+00	0	39	0	2370830336	46	3994
2026-01-21 15:22:17.73	267.11	34.99	-38.1	-38.9	22.3	0.00e+00	0	39	0	2380267520	46	3985
2026-01-21 15:22:18.44	267.39	34.98	-38.1	-38.9	22.3	0.00e+00	0	39	0	2384461824	46	3978
2026-01-21 15:22:19.72	267.91	34.97	-38.1	-38.9	22.3	0.00e+00	0	39	0	2393899008	46	3980
2026-01-21 15:22:20.46	268.20	34.96	-38.0	-38.8	22.4	0.00e+00	0	39	0	2399141888	46	3945
2026-01-21 15:22:21.74	268.71	34.94	-38.0	-38.9	22.3	0.00e+00	0	39	0	2408579072	46	3971
2026-01-21 15:22:22.45	269.00	34.93	-38.0	-38.9	22.3	0.00e+00	0	39	0	2413821952	46	3971
2026-01-21 15:22:23.73	269.51	34.91	-38.0	-38.9	22.3	0.00e+00	0	39	0	2423259136	46	3966
2026-01-21 15:22:24.63	269.86	34.89	-38.1	-38.9	22.3	0.00e+00	0	39	0	2429550592	46	3999
2026-01-21 15:22:26.03	270.42	34.86	-38.1	-38.9	22.3	0.00e+00	0	39	0	2440036352	46	3993
2026-01-21 15:22:26.74	270.70	34.85	-38.0	-38.8	22.4	0.00e+00	0	39	0	2445279232	46	3957
2026-01-21 15:22:28.26	271.30	34.81	-38.1	-38.9	22.3	0.00e+00	0	39	0	2455764992	46	3984
2026-01-21 15:22:28.97	271.59	34.80	-38.2	-39.0	22.2	0.00e+00	0	39	0	2461007872	46	4029
2026-01-21 15:22:30.25	272.09	34.76	-38.1	-39.0	22.2	0.00e+00	0	39	0	2470445056	46	4023
2026-01-21 15:22:30.96	272.37	34.74	-38.1	-39.0	22.3	0.00e+00	0	39	0	2475687936	46	4005
2026-01-21 15:22:32.27	272.89	34.70	-38.2	-39.0	22.2	0.00e+00	0	39	0	2484076544	46	4034
2026-01-21 15:22:32.98	273.17	34.68	-38.1	-38.9	22.4	0.00e+00	0	39	0	2490368000	46	3975
2026-01-21 15:22:34.26	273.67	34.64	-38.0	-38.9	22.4	0.00e+00	0	39	0	2498756608	46	3966
2026-01-21 15:22:34.97	273.95	34.62	-38.1	-38.9	22.3	0.00e+00	0	39	0	2503999488	46	3997
2026-01-21 15:22:36.25	274.45	34.57	-38.0	-38.9	22.4	0.00e+00	0	39	0	2513436672	46	3964
2026-01-21 15:22:36.99	274.74	34.54	-37.9	-38.8	22.5	0.00e+00	0	39	0	2518679552	46	3914
2026-01-21 15:22:38.27	275.23	34.50	-38.0	-38.8	22.4	0.00e+00	0	39	0	2528116736	46	3958
2026-01-21 15:22:38.98	275.51	34.47	-38.0	-38.9	22.3	0.00e+00	0	39	0	2533359616	46	3963
2026-01-21 15:22:40.26	276.00	34.41	-38.0	-38.9	22.3	0.00e+00	0	39	0	2542796800	46	3961
2026-01-21 15:22:40.97	276.28	34.38	-38.2	-39.1	22.2	0.00e+00	0	39	0	2546991104	46	4060
2026-01-21 15:22:42.25	276.77	34.33	-38.1	-38.9	22.3	0.00e+00	0	39	0	2556428288	46	3988
2026-01-21 15:22:42.96	277.04	34.30	-38.1	-39.0	22.3	0.00e+00	0	39	0	2561671168	46	4011
2026-01-21 15:22:44.24	277.53	34.24	-37.9	-38.8	22.4	0.00e+00	0	39	0	2571108352	46	3917
2026-01-21 15:22:44.95	277.80	34.20	-37.9	-38.7	22.5	0.00e+00	0	39	0	2576351232	46	3909
2026-01-21 15:22:46.24	278.30	34.14	-38.0	-38.8	22.4	0.00e+00	0	39	0	2585788416	46	3935
2026-01-21 15:22:46.95	278.56	34.11	-38.0	-38.8	22.4	0.00e+00	0	39	0	2591031296	46	3954
2026-01-21 15:22:48.31	279.08	34.04	-38.0	-38.8	22.4	0.00e+00	0	39	0	2600468480	46	3944
2026-01-21 15:22:49.02	279.35	34.00	-38.0	-38.8	22.4	0.00e+00	0	39	0	2605711360	46	3956
2026-01-21 15:22:50.30	279.83	33.93	-38.1	-38.9	22.3	0.00e+00	0	39	0	2615148544	46	3984
2026-01-21 15:22:51.01	280.09	33.89	-38.0	-38.8	22.4	0.00e+00	0	39	0	2620391424	46	3934
2026-01-21 15:22:52.42	280.62	33.81	-37.9	-38.7	22.5	0.00e+00	0	39	0	2629828608	46	3901
2026-01-21 15:22:53.13	280.88	33.77	-38.0	-38.8	22.4	0.00e+00	0	39	0	2635071488	46	3923
2026-01-21 15:22:54.41	281.36	33.69	-38.0	-38.8	22.4	0.00e+00	0	39	0	2644508672	46	3919
2026-01-21 15:22:55.12	281.62	33.65	-37.9	-38.7	22.4	0.00e+00	0	39	0	2649751552	46	3905
2026-01-21 15:22:56.52	282.14	33.56	-38.0	-38.8	22.4	0.00e+00	0	39	0	2660237312	46	3945
2026-01-21 15:22:57.23	282.40	33.52	-38.0	-38.8	22.4	0.00e+00	0	39	0	2665480192	46	3931
2026-01-21 15:22:58.51	282.86	33.44	-37.9	-38.7	22.4	0.00e+00	0	39	0	2673868800	46	3910
2026-01-21 15:22:59.24	283.13	33.39	-37.9	-38.7	22.4	0.00e+00	0	39	0	2679111680	46	3900
2026-01-21 15:23:00.52	283.59	33.31	-37.8	-38.7	22.5	0.00e+00	0	39	0	2688548864	46	3876
2026-01-21 15:23:01.23	283.85	33.26	-37.9	-38.7	22.4	0.00e+00	0	39	0	2693791744	46	3905
2026-01-21 15:23:02.51	284.31	33.17	-38.1	-38.9	22.3	0.00e+00	0	39	0	2703228928	46	3989
2026-01-21 15:23:03.22	284.56	33.12	-38.2	-39.0	22.2	0.00e+00	0	39	0	2708471808	46	4041
2026-01-21 15:23:04.50	285.02	33.03	-38.2	-39.1	22.2	0.00e+00	0	39	0	2716860416	46	4056
2026-01-21 15:23:05.21	285.27	32.98	-38.2	-39.0	22.2	0.00e+00	0	39	0	2722103296	46	4045
2026-01-21 15:23:06.49	285.72	32.89	-38.2	-39.1	22.2	0.00e+00	0	39	0	2731540480	46	4065
2026-01-21 15:23:07.21	285.97	32.84	-38.1	-38.9	22.3	0.00e+00	0	39	0	2736783360	46	3981
2026-01-21 15:23:08.49	286.42	32.74	-37.9	-38.8	22.4	0.00e+00	0	39	0	2746220544	46	3923
2026-01-21 15:23:09.20	286.67	32.69	-37.9	-38.7	22.5	0.00e+00	0	39	0	2751463424	46	3904
2026-01-21 15:23:10.48	287.11	32.59	-37.9	-38.8	22.4	0.00e+00	0	39	0	2760900608	46	3914
2026-01-21 15:23:11.19	287.36	32.53	-38.0	-38.8	22.4	0.00e+00	0	39	0	2766143488	46	3946
2026-01-21 15:23:12.47	287.80	32.43	-38.1	-38.9	22.3	0.00e+00	0	39	0	2775580672	46	3996
2026-01-21 15:23:13.18	288.04	32.38	-38.1	-38.9	22.3	0.00e+00	0	39	0	2779774976	46	3992
2026-01-21 15:23:14.46	288.48	32.28	-38.1	-38.9	22.3	0.00e+00	0	39	0	2789212160	46	3986
2026-01-21 15:23:15.17	288.72	32.22	-38.1	-38.9	22.3	0.00e+00	0	39	0	2794455040	46	3981
2026-01-21 15:23:16.61	289.20	32.10	-38.0	-38.9	22.4	0.00e+00	0	39	0	2804940800	46	3965
2026-01-21 15:23:17.32	289.44	32.04	-38.2	-39.0	22.2	0.00e+00	0	39	0	2810183680	46	4029
2026-01-21 15:23:18.60	289.86	31.94	-38.2	-39.1	22.2	0.00e+00	0	39	0	2819620864	46	4057
2026-01-21 15:23:19.64	290.21	31.85	-38.3	-39.2	22.0	0.00e+00	0	39	0	2826960896	46	4112
2026-01-21 15:23:20.93	290.63	31.74	-38.5	-39.3	21.8	0.00e+00	0	39	0	2836398080	46	4193
2026-01-21 15:23:21.68	290.88	31.67	-38.4	-39.3	22.0	0.00e+00	0	39	0	2841640960	46	4162
2026-01-21 15:23:22.96	291.30	31.56	-38.4	-39.3	21.9	0.00e+00	0	39	0	2851078144	46	4171
2026-01-21 15:23:23.67	291.53	31.50	-38.4	-39.3	22.0	0.00e+00	0	39	0	2855272448	46	4158
2026-01-21 15:23:24.95	291.94	31.39	-38.2	-39.1	22.2	0.00e+00	0	39	0	2864709632	46	4062
2026-01-21 15:23:25.66	292.17	31.32	-38.2	-39.0	22.2	0.00e+00	0	39	0	2869952512	46	4048
2026-01-21 15:23:26.94	292.57	31.21	-38.2	-39.0	22.2	0.00e+00	0	39	0	2879389696	46	4048
2026-01-21 15:23:27.66	292.80	31.14	-38.2	-39.0	22.2	0.00e+00	0	39	0	2884632576	46	4039
2026-01-21 15:23:28.94	293.21	31.03	-38.1	-38.9	22.3	0.00e+00	0	39	0	2894069760	46	3987
2026-01-21 15:23:29.67	293.44	30.96	-38.1	-39.0	22.2	0.00e+00	0	39	0	2899312640	46	4011
2026-01-21 15:23:31.12	293.89	30.83	-38.2	-39.0	22.2	0.00e+00	0	39	0	2909798400	46	4020
2026-01-21 15:23:31.83	294.11	30.76	-38.1	-38.9	22.2	0.00e+00	0	39	0	2915041280	46	3985
2026-01-21 15:23:33.11	294.50	30.64	-38.1	-38.9	22.3	0.00e+00	0	39	0	2923429888	46	3983
2026-01-21 15:23:34.17	294.83	30.54	-37.9	-38.7	22.4	0.00e+00	0	39	0	2931818496	46	3891
2026-01-21 15:23:35.03	295.09	30.46	-38.1	-38.9	22.3	0.00e+00	0	39	0	2938109952	46	3987
2026-01-21 15:23:36.16	295.43	30.35	-38.0	-38.8	22.4	0.00e+00	0	39	0	2945449984	46	3927
2026-01-21 15:23:37.02	295.69	30.27	-38.0	-38.8	22.4	0.00e+00	0	39	0	2951741440	46	3934
2026-01-21 15:23:38.15	296.03	30.16	-38.0	-38.8	22.4	0.00e+00	0	39	0	2960130048	46	3921
2026-01-21 15:23:39.00	296.28	30.08	-38.0	-38.8	22.4	0.00e+00	0	39	0	2966421504	46	3936
2026-01-21 15:23:40.14	296.62	29.97	-38.2	-39.0	22.2	0.00e+00	0	39	0	2974810112	46	4030
2026-01-21 15:23:40.99	296.86	29.88	-38.2	-39.0	22.2	0.00e+00	0	39	0	2981101568	46	4031
2026-01-21 15:23:42.13	297.20	29.77	-38.2	-39.0	22.1	0.00e+00	0	39	0	2989490176	46	4043
2026-01-21 15:23:43.08	297.47	29.68	-38.3	-39.1	22.1	0.00e+00	0	39	0	2995781632	46	4084
2026-01-21 15:23:44.23	297.80	29.56	-38.5	-39.4	21.9	0.00e+00	0	39	0	3004170240	46	4199
2026-01-21 15:23:45.17	298.07	29.47	-38.4	-39.3	22.0	0.00e+00	0	39	0	3011510272	46	4174
2026-01-21 15:23:46.34	298.41	29.35	-38.5	-39.3	21.9	0.00e+00	0	39	0	3019898880	46	4190
2026-01-21 15:23:47.24	298.66	29.26	-38.5	-39.3	21.9	0.00e+00	0	39	0	3026190336	46	4189
2026-01-21 15:23:48.55	299.03	29.13	-38.4	-39.3	22.0	0.00e+00	0	39	0	3035627520	46	4156
2026-01-21 15:23:49.26	299.23	29.06	-38.4	-39.3	22.0	0.00e+00	0	39	0	3040870400	46	4168
2026-01-21 15:23:50.54	299.58	28.93	-38.4	-39.2	22.0	0.00e+00	0	39	0	3049259008	46	4121
2026-01-21 15:23:51.26	299.78	28.86	-38.2	-39.0	22.2	0.00e+00	0	39	0	3054501888	46	4041
2026-01-21 15:23:52.54	300.13	28.73	-38.1	-38.9	22.2	0.00e+00	0	39	0	3063939072	46	3989
2026-01-21 15:23:53.26	300.33	28.65	-38.2	-39.0	22.0	0.00e+00	0	39	0	3069181952	46	4032
2026-01-21 15:23:54.53	300.67	28.52	-38.1	-39.0	22.2	0.00e+00	0	39	0	3078619136	46	4011
2026-01-21 15:23:55.26	300.87	28.45	-38.1	-38.9	22.3	0.00e+00	0	39	0	3083862016	46	3986
2026-01-21 15:23:56.54	301.21	28.31	-38.2	-39.1	22.2	0.00e+00	0	39	0	3093299200	46	4069
2026-01-21 15:23:57.25	301.40	28.24	-38.3	-39.2	22.1	0.00e+00	0	39	0	3098542080	46	4106
2026-01-21 15:23:58.53	301.74	28.11	-38.3	-39.2	22.0	0.00e+00	0	39	0	3107979264	46	4122
2026-01-21 15:23:59.24	301.92	28.03	-38.4	-39.2	22.0	0.00e+00	0	39	0	3112173568	46	4141
2026-01-21 15:24:00.52	302.26	27.90	-38.4	-39.3	22.0	0.00e+00	0	39	0	3121610752	46	4149
2026-01-21 15:24:01.23	302.44	27.82	-38.4	-39.2	22.0	0.00e+00	0	39	0	3126853632	46	4140
2026-01-21 15:24:02.74	302.83	27.67	-38.3	-39.2	22.1	0.00e+00	0	39	0	3137339392	46	4100
2026-01-21 15:24:03.46	303.01	27.59	-38.5	-39.3	21.9	0.00e+00	0	39	0	3142582272	46	4187
2026-01-21 15:24:04.82	303.36	27.45	-38.3	-39.1	22.1	0.00e+00	0	39	0	3153068032	46	4077
2026-01-21 15:24:05.53	303.53	27.37	-38.2	-39.0	22.2	0.00e+00	0	39	0	3158310912	46	4034
2026-01-21 15:24:06.81	303.85	27.24	-38.1	-38.9	22.3	0.00e+00	0	39	0	3166699520	46	3981
2026-01-21 15:24:07.53	304.03	27.16	-38.1	-39.0	22.2	0.00e+00	0	39	0	3172990976	46	4005
2026-01-21 15:24:08.81	304.35	27.03	-38.1	-38.9	22.3	0.00e+00	0	39	0	3181379584	46	3981
2026-01-21 15:24:09.52	304.52	26.95	-38.2	-39.0	22.2	0.00e+00	0	39	0	3186622464	46	4042
2026-01-21 15:24:10.80	304.84	26.81	-38.2	-39.1	22.1	0.00e+00	0	39	0	3196059648	46	4061
2026-01-21 15:24:11.53	305.01	26.74	-38.4	-39.2	22.0	0.00e+00	0	39	0	3201302528	46	4123
2026-01-21 15:24:12.81	305.32	26.60	-38.5	-39.3	22.0	0.00e+00	0	39	0	3210739712	46	4174
2026-01-21 15:24:13.53	305.49	26.52	-38.5	-39.4	21.9	0.00e+00	0	39	0	3215982592	46	4195
2026-01-21 15:24:14.81	305.80	26.39	-38.5	-39.4	21.9	0.00e+00	0	39	0	3224371200	46	4212
2026-01-21 15:24:15.52	305.96	26.31	-38.5	-39.4	21.9	0.00e+00	0	39	0	3229614080	46	4217
2026-01-21 15:24:16.80	306.26	26.18	-38.6	-39.4	21.9	0.00e+00	0	39	0	3239051264	46	4230
2026-01-21 15:24:17.53	306.43	26.10	-38.5	-39.4	21.9	0.00e+00	0	39	0	3244294144	46	4212
2026-01-21 15:24:18.80	306.73	25.96	-38.5	-39.4	21.8	0.00e+00	0	39	0	3253731328	46	4198
2026-01-21 15:24:19.52	306.89	25.88	-38.5	-39.3	21.9	0.00e+00	0	39	0	3258974208	46	4183
2026-01-21 15:24:20.80	307.18	25.75	-38.4	-39.3	21.9	0.00e+00	0	39	0	3268411392	46	4163
2026-01-21 15:24:21.52	307.35	25.67	-38.5	-39.3	21.9	0.00e+00	0	39	0	3273654272	46	4168
2026-01-21 15:24:22.80	307.63	25.53	-38.4	-39.3	22.0	0.00e+00	0	39	0	3283091456	46	4151
2026-01-21 15:24:23.53	307.80	25.46	-38.4	-39.2	22.0	0.00e+00	0	39	0	3288334336	46	4117
2026-01-21 15:24:24.81	308.08	25.32	-38.4	-39.3	21.9	0.00e+00	0	39	0	3296722944	46	4160
2026-01-21 15:24:25.55	308.24	25.24	-38.5	-39.3	21.9	0.00e+00	0	39	0	3301965824	46	4180
2026-01-21 15:24:26.83	308.53	25.10	-38.6	-39.5	21.8	0.00e+00	0	39	0	3311403008	46	4252
2026-01-21 15:24:27.54	308.68	25.03	-38.6	-39.5	21.8	0.00e+00	0	39	0	3316645888	46	4264
2026-01-21 15:24:28.82	308.96	24.89	-38.6	-39.5	21.8	0.00e+00	0	39	0	3326083072	46	4253
2026-01-21 15:24:29.54	309.11	24.81	-38.6	-39.5	21.8	0.00e+00	0	39	0	3331325952	46	4247
2026-01-21 15:24:30.82	309.38	24.68	-38.7	-39.6	21.7	0.00e+00	0	39	0	3340763136	46	4316
2026-01-21 15:24:31.53	309.54	24.60	-38.8	-39.6	21.6	0.00e+00	0	39	0	3346006016	47	4091
2026-01-21 15:24:32.81	309.80	24.46	-38.8	-39.6	21.6	0.00e+00	0	39	0	3354394624	47	4094
2026-01-21 15:24:33.53	309.96	24.39	-38.7	-39.6	21.7	0.00e+00	0	39	0	3360686080	47	4066
2026-01-21 15:24:34.81	310.22	24.25	-38.6	-39.5	21.7	0.00e+00	0	39	0	3369074688	47	4025
2026-01-21 15:24:35.53	310.37	24.17	-38.7	-39.5	21.7	0.00e+00	0	39	0	3374317568	47	4035
2026-01-21 15:24:36.81	310.63	24.04	-38.7	-39.5	21.7	0.00e+00	0	39	0	3383754752	47	4051
2026-01-21 15:24:37.54	310.78	23.96	-38.7	-39.6	21.7	0.00e+00	0	39	0	3388997632	47	4062
2026-01-21 15:24:38.82	311.04	23.82	-38.7	-39.5	21.7	0.00e+00	0	39	0	3398434816	47	4049
2026-01-21 15:24:39.53	311.18	23.75	-38.6	-39.5	21.7	0.00e+00	0	39	0	3403677696	47	4027
2026-01-21 15:24:40.81	311.44	23.61	-38.7	-39.6	21.7	0.00e+00	0	39	0	3412066304	47	4055
2026-01-21 15:24:41.54	311.58	23.53	-38.7	-39.6	21.7	0.00e+00	0	39	0	3418357760	47	4075
2026-01-21 15:24:42.82	311.84	23.40	-38.8	-39.7	21.6	0.00e+00	0	39	0	3426746368	47	4126
2026-01-21 15:24:43.55	311.98	23.32	-38.9	-39.8	21.5	0.00e+00	0	39	0	3431989248	47	4153
2026-01-21 15:24:44.83	312.23	23.18	-39.0	-39.9	21.4	0.00e+00	0	39	0	3441426432	47	4222
2026-01-21 15:24:45.55	312.37	23.11	-39.0	-39.9	21.4	0.00e+00	0	39	0	3446669312	47	4217
2026-01-21 15:24:46.83	312.61	22.97	-39.0	-39.9	21.4	0.00e+00	0	39	0	3456106496	47	4234
2026-01-21 15:24:47.55	312.75	22.90	-39.0	-39.9	21.4	0.00e+00	0	39	0	3461349376	47	4231
2026-01-21 15:24:48.83	312.99	22.76	-39.0	-39.9	21.3	0.00e+00	0	39	0	3470786560	47	4237
2026-01-21 15:24:49.54	313.12	22.69	-39.0	-39.9	21.4	0.00e+00	0	39	0	3476029440	47	4199
2026-01-21 15:24:50.82	313.36	22.55	-38.9	-39.8	21.5	0.00e+00	0	39	0	3485466624	47	4174
2026-01-21 15:24:51.56	313.50	22.47	-38.9	-39.8	21.4	0.00e+00	0	39	0	3489660928	47	4186
2026-01-21 15:24:53.13	313.79	22.31	-38.9	-39.8	21.5	0.00e+00	0	39	0	3501195264	47	4166
2026-01-21 15:24:53.80	313.91	22.24	-38.8	-39.7	21.6	0.00e+00	0	39	0	3506438144	47	4127
2026-01-21 15:24:55.22	314.17	22.09	-38.9	-39.7	21.6	0.00e+00	0	39	0	3516923904	47	4140
2026-01-21 15:24:56.14	314.34	21.99	-38.9	-39.8	21.5	0.00e+00	0	39	0	3523215360	47	4161
2026-01-21 15:24:57.47	314.57	21.85	-38.9	-39.8	21.4	0.00e+00	0	39	0	3532652544	47	4182
2026-01-21 15:24:58.18	314.70	21.78	-39.0	-39.8	21.4	0.00e+00	0	39	0	3537895424	47	4193
2026-01-21 15:24:59.46	314.93	21.65	-39.1	-40.0	21.3	0.00e+00	0	39	0	3547332608	47	4246
2026-01-21 15:25:00.18	315.05	21.57	-39.0	-39.9	21.4	0.00e+00	0	39	0	3552575488	47	4233
2026-01-21 15:25:01.46	315.28	21.44	-39.1	-40.0	21.3	0.00e+00	0	39	0	3562012672	47	4260
2026-01-21 15:25:02.17	315.40	21.37	-39.1	-40.0	21.3	0.00e+00	0	39	0	3566206976	47	4291
2026-01-21 15:25:03.45	315.62	21.23	-39.2	-40.1	21.2	0.00e+00	0	39	0	3575644160	47	4334
2026-01-21 15:25:04.17	315.74	21.16	-39.4	-40.3	21.4	0.00e+00	0	39	0	3581935616	48	4148
2026-01-21 15:25:05.45	315.96	21.03	-39.4	-40.3	21.4	0.00e+00	0	39	0	3590324224	48	4153
2026-01-21 15:25:06.17	316.08	20.95	-39.4	-40.3	21.3	0.00e+00	0	39	0	3595567104	48	4163
2026-01-21 15:25:07.44	316.29	20.82	-39.4	-40.3	21.4	0.00e+00	0	39	0	3605004288	48	4178
2026-01-21 15:25:08.15	316.41	20.75	-39.3	-40.2	21.4	0.00e+00	0	39	0	3610247168	48	4115
2026-01-21 15:25:09.56	316.64	20.61	-39.3	-40.2	21.4	0.00e+00	0	39	0	3619684352	48	4129
2026-01-21 15:25:10.27	316.76	20.53	-39.3	-40.2	21.4	0.00e+00	0	39	0	3625975808	48	4126
2026-01-21 15:25:11.61	316.98	20.40	-39.4	-40.2	21.4	0.00e+00	0	39	0	3634364416	48	4138
2026-01-21 15:25:12.33	317.10	20.32	-39.3	-40.2	21.4	0.00e+00	0	39	0	3640655872	48	4126
2026-01-21 15:25:13.61	317.30	20.19	-39.2	-40.1	21.5	0.00e+00	0	39	0	3649044480	48	4079
2026-01-21 15:25:14.68	317.47	20.09	-39.3	-40.2	21.5	0.00e+00	0	39	0	3657433088	48	4118
2026-01-21 15:25:15.53	317.61	20.00	-39.4	-40.2	21.3	0.00e+00	0	39	0	3663724544	48	4145
2026-01-21 15:25:16.67	317.79	19.89	-39.4	-40.4	21.3	0.00e+00	0	39	0	3671064576	48	4196
2026-01-21 15:25:17.52	317.92	19.80	-39.4	-40.3	21.4	0.00e+00	0	39	0	3677356032	48	4161
2026-01-21 15:25:18.66	318.10	19.68	-39.4	-40.3	21.3	0.00e+00	0	39	0	3685744640	48	4183
2026-01-21 15:25:19.51	318.23	19.60	-39.5	-40.4	21.2	0.00e+00	0	39	0	3692036096	48	4241
2026-01-21 15:25:20.65	318.41	19.49	-39.5	-40.4	21.2	0.00e+00	0	39	0	3700424704	48	4227
2026-01-21 15:25:21.50	318.54	19.40	-39.6	-40.5	21.2	0.00e+00	0	39	0	3706716160	48	4273
2026-01-21 15:25:22.63	318.71	19.29	-39.6	-40.5	21.1	0.00e+00	0	39	0	3715104768	48	4286
2026-01-21 15:25:23.49	318.84	19.20	-39.7	-40.6	21.0	0.00e+00	0	39	0	3720347648	48	4328
2026-01-21 15:25:24.62	319.01	19.09	-39.7	-40.6	21.1	0.00e+00	0	39	0	3728736256	48	4308
2026-01-21 15:25:25.48	319.14	19.01	-39.6	-40.5	21.2	0.00e+00	0	39	0	3735027712	48	4266
2026-01-21 15:25:26.61	319.30	18.89	-39.7	-40.7	21.0	0.00e+00	0	39	0	3743416320	48	4342
2026-01-21 15:25:27.70	319.46	18.79	-39.6	-40.5	21.2	0.00e+00	0	39	0	3750756352	49	4026
2026-01-21 15:25:28.73	319.61	18.69	-39.7	-40.6	21.0	0.00e+00	0	39	0	3759144960	49	4086
2026-01-21 15:25:29.72	319.76	18.59	-39.8	-40.7	21.0	0.00e+00	0	39	0	3765436416	49	4114
2026-01-21 15:25:30.92	319.93	18.47	-39.8	-40.6	21.0	0.00e+00	0	39	0	3774873600	49	4095
2026-01-21 15:25:31.82	320.06	18.38	-39.8	-40.7	21.0	0.00e+00	0	39	0	3781165056	49	4100
2026-01-21 15:25:32.86	320.21	18.28	-39.8	-40.7	21.0	0.00e+00	0	39	0	3788505088	49	4099
2026-01-21 15:25:33.86	320.35	18.18	-39.8	-40.7	21.0	0.00e+00	0	39	0	3795845120	49	4112
2026-01-21 15:25:34.85	320.49	18.09	-39.8	-40.7	21.0	0.00e+00	0	39	0	3803185152	49	4124
2026-01-21 15:25:35.85	320.63	17.99	-39.9	-40.8	20.9	0.00e+00	0	39	0	3809476608	49	4149
2026-01-21 15:25:36.84	320.77	17.90	-39.8	-40.7	21.0	0.00e+00	0	39	0	3816816640	49	4130
2026-01-21 15:25:37.84	320.90	17.80	-39.8	-40.7	20.9	0.00e+00	0	39	0	3824156672	49	4132
2026-01-21 15:25:38.83	321.04	17.70	-39.8	-40.7	20.9	0.00e+00	0	39	0	3831496704	49	4132
2026-01-21 15:25:39.82	321.17	17.61	-39.9	-40.8	20.9	0.00e+00	0	39	0	3838836736	49	4156
2026-01-21 15:25:40.82	321.31	17.51	-39.9	-40.8	20.8	0.00e+00	0	39	0	3845128192	49	4189
2026-01-21 15:25:41.81	321.44	17.42	-39.8	-40.7	20.9	0.00e+00	0	39	0	3852468224	49	4132
2026-01-21 15:25:42.81	321.58	17.32	-39.8	-40.7	20.9	0.00e+00	0	39	0	3859808256	49	4133
2026-01-21 15:25:43.81	321.71	17.23	-39.9	-40.8	20.9	0.00e+00	0	39	0	3867148288	49	4168
2026-01-21 15:25:44.81	321.84	17.13	-39.8	-40.7	20.9	0.00e+00	0	39	0	3874488320	49	4118
2026-01-21 15:25:45.84	321.98	17.04	-39.9	-40.8	20.8	0.00e+00	0	39	0	3881828352	49	4173
2026-01-21 15:25:46.84	322.11	16.94	-40.0	-40.9	20.8	0.00e+00	0	39	0	3889168384	49	4220
2026-01-21 15:25:47.83	322.24	16.85	-40.0	-40.9	20.8	0.00e+00	0	39	0	3896508416	49	4218
2026-01-21 15:25:48.83	322.37	16.76	-40.1	-41.1	20.6	0.00e+00	0	39	0	3903848448	49	4310
2026-01-21 15:25:49.82	322.49	16.66	-40.1	-41.1	20.6	0.00e+00	0	39	0	3911188480	49	4309
2026-01-21 15:25:50.82	322.62	16.57	-40.2	-41.2	20.5	0.00e+00	0	39	0	3917479936	49	4364
2026-01-21 15:25:51.81	322.75	16.48	-40.2	-41.2	20.5	0.00e+00	0	39	0	3924819968	49	4366
2026-01-21 15:25:52.81	322.87	16.38	-40.3	-41.2	20.5	0.00e+00	0	39	0	3932160000	50	4140
2026-01-21 15:25:53.80	323.00	16.29	-40.4	-41.3	20.4	0.00e+00	0	39	0	3939500032	50	4170
2026-01-21 15:25:54.80	323.12	16.20	-40.4	-41.3	20.4	0.00e+00	0	39	0	3946840064	50	4184
2026-01-21 15:25:55.79	323.25	16.11	-40.4	-41.3	20.4	0.00e+00	0	39	0	3954180096	50	4191
2026-01-21 15:25:56.78	323.37	16.02	-40.5	-41.5	20.3	0.00e+00	0	39	0	3961520128	50	4245
2026-01-21 15:25:57.78	323.49	15.93	-40.4	-41.3	20.4	0.00e+00	0	39	0	3968860160	50	4159
2026-01-21 15:25:58.77	323.61	15.84	-40.2	-41.1	20.5	0.00e+00	0	39	0	3975151616	50	4093
2026-01-21 15:25:59.76	323.73	15.75	-40.3	-41.2	20.4	0.00e+00	0	39	0	3982491648	50	4125
2026-01-21 15:26:00.76	323.85	15.65	-40.2	-41.1	20.6	0.00e+00	0	39	0	3989831680	50	4098
2026-01-21 15:26:01.75	323.97	15.56	-40.2	-41.1	20.6	0.00e+00	0	39	0	3997171712	50	4081
2026-01-21 15:26:02.83	324.10	15.47	-40.3	-41.2	20.5	0.00e+00	0	39	0	4004511744	50	4126
2026-01-21 15:26:03.71	324.20	15.39	-40.3	-41.3	20.4	0.00e+00	0	39	0	4010803200	50	4150
2026-01-21 15:26:04.85	324.33	15.28	-40.4	-41.4	20.3	0.00e+00	0	39	0	4019191808	50	4221
2026-01-21 15:26:05.78	324.44	15.20	-40.5	-41.5	20.2	0.00e+00	0	39	0	4026531840	50	4267
2026-01-21 15:26:06.97	324.58	15.09	-40.6	-41.6	20.2	0.00e+00	0	39	0	4033871872	50	4293
2026-01-21 15:26:07.82	324.68	15.02	-40.5	-41.5	20.2	0.00e+00	0	39	0	4040163328	50	4262
2026-01-21 15:26:08.96	324.81	14.92	-40.6	-41.6	20.1	0.00e+00	0	39	0	4048551936	50	4312
2026-01-21 15:26:09.81	324.91	14.84	-40.7	-41.7	20.0	0.00e+00	0	39	0	4054843392	50	4364
2026-01-21 15:26:10.95	325.04	14.74	-40.7	-41.7	20.0	0.00e+00	0	39	0	4063232000	50	4389
2026-01-21 15:26:11.80	325.13	14.66	-40.7	-41.8	19.9	0.00e+00	0	39	0	4069523456	50	4410
2026-01-21 15:26:12.94	325.26	14.56	-40.8	-41.8	19.9	0.00e+00	0	39	0	4077912064	51	4187
2026-01-21 15:26:13.79	325.36	14.49	-40.8	-41.9	19.8	0.00e+00	0	39	0	4084203520	51	4218
2026-01-21 15:26:14.92	325.48	14.39	-41.0	-42.0	19.7	0.00e+00	0	39	0	4092592128	51	4274
2026-01-21 15:26:15.78	325.58	14.31	-41.0	-42.0	19.7	0.00e+00	0	39	0	4097835008	51	4291
2026-01-21 15:26:16.91	325.70	14.21	-41.1	-42.2	19.6	0.00e+00	0	39	0	4106223616	51	4355
2026-01-21 15:26:17.77	325.79	14.14	-41.0	-42.1	19.6	0.00e+00	0	39	0	4112515072	51	4321
2026-01-21 15:26:18.98	325.92	14.03	-41.0	-42.0	19.7	0.00e+00	0	39	0	4120903680	51	4281
2026-01-21 15:26:19.84	326.02	13.96	-41.0	-42.0	19.7	0.00e+00	0	39	0	4127195136	51	4275
2026-01-21 15:26:20.97	326.14	13.86	-41.0	-42.1	19.7	0.00e+00	0	39	0	4135583744	51	4293
2026-01-21 15:26:21.82	326.23	13.79	-41.0	-42.0	19.7	0.00e+00	0	39	0	4141875200	51	4279
2026-01-21 15:26:23.09	326.36	13.68	-40.9	-41.9	19.8	0.00e+00	0	39	0	4151312384	51	4235
2026-01-21 15:26:23.82	326.44	13.62	-41.1	-42.1	19.6	0.00e+00	0	39	0	4155506688	51	4325
2026-01-21 15:26:25.09	326.57	13.51	-40.8	-41.8	19.9	0.00e+00	0	39	0	4164943872	51	4174
2026-01-21 15:26:25.81	326.65	13.45	-40.9	-41.9	19.8	0.00e+00	0	39	0	4170186752	51	4235
2026-01-21 15:26:27.08	326.78	13.34	-40.9	-42.0	19.7	0.00e+00	0	39	0	4179623936	51	4251
2026-01-21 15:26:27.82	326.86	13.27	-41.0	-42.1	19.6	0.00e+00	0	39	0	4184866816	51	4297
2026-01-21 15:26:29.10	326.99	13.17	-41.0	-42.1	19.6	0.00e+00	0	39	0	4194304000	51	4300
2026-01-21 15:26:29.81	327.06	13.11	-41.0	-42.0	19.7	0.00e+00	0	39	0	4199546880	51	4281
2026-01-21 15:26:31.09	327.19	13.00	-41.0	-42.1	19.7	0.00e+00	0	39	0	4208984064	51	4293
2026-01-21 15:26:31.80	327.26	12.94	-41.1	-42.1	19.6	0.00e+00	0	39	0	4214226944	51	4321
2026-01-21 15:26:33.08	327.39	12.83	-41.1	-42.2	19.5	0.00e+00	0	39	0	4223664128	51	4343
2026-01-21 15:26:33.79	327.46	12.77	-41.1	-42.2	19.5	0.00e+00	0	39	0	4227858432	51	4360
2026-01-21 15:26:35.10	327.59	12.66	-41.2	-42.3	19.4	0.00e+00	0	39	0	4237295616	51	4401
2026-01-21 15:26:35.82	327.66	12.60	-41.2	-42.3	19.4	0.00e+00	0	39	0	4242538496	52	4146
2026-01-21 15:26:37.10	327.79	12.50	-41.2	-42.2	19.5	0.00e+00	0	39	0	4251975680	52	4119
2026-01-21 15:26:37.81	327.86	12.44	-41.2	-42.2	19.4	0.00e+00	0	39	0	4257218560	52	4134
2026-01-21 15:26:39.08	327.98	12.33	-41.4	-42.4	19.2	0.00e+00	0	39	0	4266655744	52	4204
2026-01-21 15:26:39.81	328.05	12.27	-41.3	-42.3	19.3	0.00e+00	0	39	0	4271898624	52	4184
2026-01-21 15:26:41.09	328.17	12.17	-41.4	-42.4	19.3	0.00e+00	0	39	0	4281335808	52	4213
2026-01-21 15:26:41.80	328.24	12.11	-41.3	-42.3	19.3	0.00e+00	0	39	0	4285530112	52	4187
2026-01-21 15:26:43.08	328.36	12.00	-41.4	-42.4	19.2	0.00e+00	0	39	0	4294967296	52	4221
2026-01-21 15:26:43.79	328.43	11.95	-41.4	-42.4	19.3	0.00e+00	0	39	0	4300210176	52	4211
2026-01-21 15:26:45.07	328.55	11.84	-41.4	-42.4	19.2	0.00e+00	0	39	0	4309647360	52	4233
2026-01-21 15:26:45.78	328.62	11.78	-41.3	-42.4	19.2	0.00e+00	0	39	0	4314890240	52	4199
2026-01-21 15:26:47.06	328.74	11.68	-41.4	-42.5	19.2	0.00e+00	0	39	0	4324327424	52	4256
2026-01-21 15:26:47.76	328.80	11.62	-41.5	-42.5	19.1	0.00e+00	0	39	0	4328521728	52	4287
2026-01-21 15:26:49.08	328.92	11.52	-41.4	-42.5	19.2	0.00e+00	0	39	0	4339007488	52	4247
2026-01-21 15:26:49.79	328.99	11.46	-41.5	-42.5	19.1	0.00e+00	0	39	0	4343201792	52	4269
2026-01-21 15:26:51.07	329.10	11.36	-41.6	-42.7	19.0	0.00e+00	0	39	0	4352638976	52	4342
2026-01-21 15:26:51.79	329.17	11.30	-41.6	-42.6	19.0	0.00e+00	0	39	0	4357881856	52	4318
2026-01-21 15:26:53.07	329.29	11.20	-41.6	-42.6	19.0	0.00e+00	0	39	0	4367319040	52	4333
2026-01-21 15:26:53.78	329.35	11.14	-41.6	-42.6	19.0	0.00e+00	0	39	0	4372561920	52	4331
2026-01-21 15:26:55.22	329.48	11.03	-41.5	-42.5	19.1	0.00e+00	0	39	0	4383047680	52	4264
2026-01-21 15:26:55.93	329.54	10.97	-41.5	-42.5	19.1	0.00e+00	0	39	0	4388290560	52	4282
2026-01-21 15:26:57.21	329.65	10.87	-41.5	-42.6	19.0	0.00e+00	0	39	0	4396679168	52	4303
2026-01-21 15:26:57.92	329.72	10.81	-41.7	-42.7	18.9	0.00e+00	0	39	0	4402970624	52	4371
2026-01-21 15:26:59.20	329.83	10.71	-41.5	-42.6	19.0	0.00e+00	0	39	0	4411359232	52	4304
2026-01-21 15:26:59.91	329.89	10.66	-41.5	-42.6	19.0	0.00e+00	0	39	0	4416602112	52	4301
2026-01-21 15:27:01.19	330.00	10.56	-41.6	-42.6	18.9	0.00e+00	0	39	0	4426039296	52	4336
2026-01-21 15:27:01.91	330.06	10.50	-41.6	-42.7	18.9	0.00e+00	0	39	0	4431282176	52	4346
2026-01-21 15:27:03.19	330.17	10.40	-41.7	-42.7	18.9	0.00e+00	0	39	0	4440719360	52	4390
2026-01-21 15:27:03.99	330.24	10.34	-41.7	-42.7	18.8	0.00e+00	0	39	0	4445962240	52	4375
2026-01-21 15:27:05.13	330.34	10.25	-41.7	-42.8	18.8	0.00e+00	0	39	0	4454350848	53	4172
2026-01-21 15:27:05.98	330.41	10.19	-41.8	-42.8	18.7	0.00e+00	0	39	0	4460642304	53	4189
2026-01-21 15:27:07.12	330.50	10.10	-41.9	-43.0	18.5	0.00e+00	0	39	0	4469030912	53	4270
2026-01-21 15:27:07.97	330.58	10.03	-41.9	-43.0	18.6	0.00e+00	0	39	0	4475322368	53	4263
2026-01-21 15:27:09.11	330.67	9.95	-41.9	-42.9	18.6	0.00e+00	0	39	0	4482662400	53	4235
2026-01-21 15:27:10.31	330.77	9.85	-41.9	-42.9	18.6	0.00e+00	0	39	0	4492099584	53	4239
2026-01-21 15:27:11.16	330.84	9.79	-41.9	-43.0	18.6	0.00e+00	0	39	0	4497342464	53	4275
2026-01-21 15:27:12.30	330.93	9.70	-41.9	-43.0	18.6	0.00e+00	0	39	0	4505731072	53	4276
2026-01-21 15:27:13.16	331.00	9.64	-42.0	-43.1	18.5	0.00e+00	0	39	0	4512022528	53	4313
2026-01-21 15:27:14.29	331.09	9.55	-42.0	-43.1	18.5	0.00e+00	0	39	0	4520411136	53	4317
2026-01-21 15:27:15.14	331.16	9.49	-41.9	-43.0	18.6	0.00e+00	0	39	0	4526702592	53	4272
2026-01-21 15:27:16.30	331.26	9.40	-41.9	-43.0	18.5	0.00e+00	0	39	0	4535091200	53	4283
2026-01-21 15:27:17.15	331.32	9.34	-41.9	-43.1	18.5	0.00e+00	0	39	0	4541382656	53	4300
2026-01-21 15:27:18.29	331.41	9.25	-41.9	-43.0	18.5	0.00e+00	0	39	0	4549771264	53	4287
2026-01-21 15:27:19.14	331.48	9.19	-42.0	-43.1	18.5	0.00e+00	0	39	0	4556062720	53	4320
2026-01-21 15:27:20.28	331.57	9.10	-42.0	-43.2	18.3	0.00e+00	0	39	0	4563402752	53	4361
2026-01-21 15:27:21.13	331.64	9.04	-42.0	-43.2	18.4	0.00e+00	0	39	0	4569694208	53	4343
2026-01-21 15:27:22.44	331.74	8.94	-52.1	-63.1	3.8	8.45e-01	0	39	104	4575985664	73	13579
2026-01-21 15:27:23.15	331.80	8.89	-51.9	-63.0	3.8	8.47e-01	0	39	104	4575985664	73	13545
2026-01-21 15:27:24.63	331.91	8.78	-51.5	-63.4	3.8	8.47e-01	0	39	104	4575985664	73	14170
2026-01-21 15:27:25.34	331.96	8.73	-52.2	-63.5	3.8	8.46e-01	0	39	104	4575985664	74	13565
2026-01-21 15:27:26.65	332.06	8.63	-52.2	-63.7	3.8	8.47e-01	0	39	104	4575985664	74	13760
2026-01-21 15:27:27.36	332.12	8.58	-51.9	-63.7	3.8	8.47e-01	0	39	104	4575985664	74	13844
2026-01-21 15:27:28.65	332.22	8.48	-52.6	-63.8	3.8	8.47e-01	0	39	104	4575985664	74	13904
2026-01-21 15:27:29.36	332.27	8.43	-52.3	-63.8	3.8	8.46e-01	0	39	104	4575985664	75	13147
2026-01-21 15:27:30.72	332.37	8.33	-53.0	-63.8	3.8	8.47e-01	0	39	104	4575985664	75	13147
2026-01-21 15:27:31.43	332.42	8.28	-52.8	-63.8	3.8	8.46e-01	0	39	104	4575985664	75	13190
2026-01-21 15:27:32.74	332.52	8.19	-53.0	-63.8	3.8	8.48e-01	0	39	104	4575985664	75	13222
2026-01-21 15:27:33.44	332.57	8.14	-52.9	-63.9	3.8	8.47e-01	0	39	104	4575985664	75	13291
2026-01-21 15:27:34.75	332.67	8.04	-53.0	-63.9	3.8	8.47e-01	0	39	104	4575985664	75	13265
