passes_logs/2026/01/18/R3.2S-Naryan-Mar/R3.2S-Naryan-Mar__20260118_025245_FENGYUN_3D_rec.log

#Pass ID: 20260118_025245_FENGYUN 3D
#Satellite: FENGYUN 3D
#Configuration: FENGYUN 3D
#almurnet v.1.7.20240730
#Start time: 2026-01-18 02:52:46

#Version: 2.2.20231116
#Station: R3.2S-Naryan-Mar
#Location: 53.008057 lon 67.646978 lat
#TLE: 1 43010U 17072A   26017.25882587  .00000461  00000+0  23963-3 0  9992
#TLE: 2 43010  98.9934 349.1096 0002357 104.0487 256.0951 14.19697152423579

#Time	Az	El	Level	Level2	SNR	BER	BlckErr	Temp	State	Recorded	gain1	gain2
2026-01-18 02:52:46.39	31.29	0.05	-83.9	-88.8	2.5	3.10e+01	0	45	0	0	60	1048575
2026-01-18 02:52:47.39	31.26	0.10	-84.7	-88.6	6.0	3.28e-01	0	46	0	0	60	1048575
2026-01-18 02:52:48.40	31.23	0.16	-84.3	-88.6	6.5	2.76e-01	0	46	0	0	60	1048574
2026-01-18 02:52:49.40	31.20	0.22	-84.7	-88.6	5.5	2.79e-01	0	46	0	0	60	1048573
2026-01-18 02:52:50.41	31.17	0.28	-85.2	-88.6	5.9	2.78e-01	0	46	0	0	60	1048571
2026-01-18 02:52:51.41	31.14	0.34	-84.7	-88.6	6.1	2.74e-01	0	46	0	0	60	1048563
2026-01-18 02:52:52.42	31.10	0.40	-84.7	-88.6	5.9	2.77e-01	0	46	0	0	60	1048573
2026-01-18 02:52:53.43	31.07	0.46	-84.7	-88.6	5.8	2.77e-01	0	46	0	0	60	1048571
2026-01-18 02:52:54.44	31.04	0.52	-85.2	-88.6	5.7	2.83e-01	0	46	0	0	60	1048575
2026-01-18 02:52:55.44	31.01	0.58	-84.7	-88.6	6.3	2.80e-01	0	46	0	0	60	1048574
2026-01-18 02:52:56.45	30.98	0.64	-84.7	-88.6	5.7	2.80e-01	0	46	0	0	60	1048574
2026-01-18 02:52:57.45	30.95	0.69	-84.7	-88.6	6.0	2.80e-01	0	46	0	0	60	1048569
2026-01-18 02:52:58.46	30.91	0.75	-85.2	-88.6	5.7	2.77e-01	0	46	0	0	60	1048573
2026-01-18 02:52:59.46	30.88	0.81	-85.2	-88.6	6.4	2.80e-01	0	46	0	0	60	1048575
2026-01-18 02:53:00.47	30.85	0.87	-84.7	-88.6	5.9	2.76e-01	0	46	0	0	60	1048575
2026-01-18 02:53:01.47	30.82	0.93	-84.7	-88.6	5.9	2.77e-01	0	46	0	0	60	1048571
2026-01-18 02:53:02.48	30.79	0.99	-84.7	-88.6	5.8	2.79e-01	0	46	0	0	60	1048572
2026-01-18 02:53:03.49	30.75	1.05	-84.7	-88.6	6.1	2.77e-01	0	46	0	0	60	1048573
2026-01-18 02:53:04.49	30.72	1.11	-84.7	-88.6	6.1	2.77e-01	0	46	0	0	60	1048575
2026-01-18 02:53:05.49	30.69	1.17	-84.7	-88.6	6.1	2.76e-01	0	46	0	0	60	1048573
2026-01-18 02:53:06.49	30.66	1.23	-84.7	-88.6	5.6	2.78e-01	0	46	0	0	60	1048575
2026-01-18 02:53:07.50	30.62	1.30	-85.2	-88.6	5.7	2.77e-01	0	47	0	0	60	1048568
2026-01-18 02:53:08.50	30.59	1.36	-83.9	-88.6	5.6	2.72e-01	0	47	0	0	60	1048575
2026-01-18 02:53:09.51	30.55	1.42	-85.2	-88.6	5.9	2.81e-01	0	47	0	0	60	1048567
2026-01-18 02:53:10.51	30.52	1.48	-84.7	-88.6	6.1	2.76e-01	0	46	0	0	60	1048573
2026-01-18 02:53:11.52	30.49	1.54	-84.7	-88.6	6.0	2.78e-01	0	46	0	0	60	1048575
2026-01-18 02:53:12.53	30.45	1.60	-84.7	-88.6	6.2	2.76e-01	0	47	0	0	60	1048574
2026-01-18 02:53:13.53	30.42	1.66	-84.7	-88.6	5.9	2.80e-01	0	47	0	0	60	1048574
2026-01-18 02:53:14.54	30.38	1.72	-84.7	-88.6	6.1	2.73e-01	0	46	0	0	60	1048572
2026-01-18 02:53:15.55	30.35	1.79	-84.7	-88.6	6.0	2.75e-01	0	46	0	0	60	1048571
2026-01-18 02:53:16.56	30.32	1.85	-84.7	-88.6	6.5	2.75e-01	0	47	0	0	60	1048571
2026-01-18 02:53:17.56	30.28	1.91	-85.2	-88.6	6.1	2.75e-01	0	47	0	0	60	1048575
2026-01-18 02:53:18.56	30.25	1.97	-84.7	-88.6	6.2	2.78e-01	0	47	0	0	60	1048571
2026-01-18 02:53:19.57	30.21	2.03	-84.7	-88.6	5.6	2.80e-01	0	47	0	0	60	1048573
2026-01-18 02:53:20.57	30.18	2.09	-84.7	-88.6	6.4	2.79e-01	0	47	0	0	60	1048570
2026-01-18 02:53:21.58	30.14	2.16	-84.7	-88.6	6.2	2.78e-01	0	47	0	0	60	1048575
2026-01-18 02:53:22.58	30.10	2.22	-84.7	-88.6	5.9	2.79e-01	0	47	0	0	60	1048571
2026-01-18 02:53:23.59	30.07	2.28	-84.3	-88.6	5.5	2.79e-01	0	47	0	0	60	1048574
2026-01-18 02:53:24.59	30.03	2.34	-84.7	-88.6	6.2	2.77e-01	0	47	0	0	60	1048573
2026-01-18 02:53:25.59	30.00	2.41	-85.2	-88.6	6.0	2.77e-01	0	47	0	0	60	1048575
2026-01-18 02:53:26.60	29.96	2.47	-85.2	-88.6	6.0	2.76e-01	0	47	0	0	60	1048574
2026-01-18 02:53:27.60	29.92	2.53	-82.8	-88.6	5.1	2.82e-01	0	47	0	0	60	1048570
2026-01-18 02:53:28.60	29.89	2.60	-85.2	-88.6	6.1	2.79e-01	0	47	0	0	60	1048570
2026-01-18 02:53:29.61	29.85	2.66	-84.7	-88.6	6.5	2.79e-01	0	47	0	0	60	1048572
2026-01-18 02:53:30.62	29.81	2.72	-85.2	-88.6	5.6	2.77e-01	0	47	0	0	60	1048573
2026-01-18 02:53:31.62	29.78	2.79	-84.7	-88.6	5.7	2.80e-01	0	47	0	0	60	1048571
2026-01-18 02:53:32.63	29.74	2.85	-84.3	-88.6	6.3	2.77e-01	0	47	0	0	60	1048575
2026-01-18 02:53:33.64	29.70	2.91	-83.1	-88.6	6.0	2.80e-01	0	47	0	0	60	1048572
2026-01-18 02:53:34.65	29.66	2.98	-84.7	-88.6	5.8	2.75e-01	0	47	0	0	60	1048574
2026-01-18 02:53:35.65	29.63	3.04	-83.5	-88.6	5.4	2.78e-01	0	47	0	0	60	1048573
2026-01-18 02:53:36.66	29.59	3.11	-84.3	-88.6	6.6	2.79e-01	0	47	0	0	60	1048569
2026-01-18 02:53:37.67	29.55	3.17	-84.7	-88.6	6.5	2.78e-01	0	47	0	0	60	1048573
2026-01-18 02:53:38.67	29.51	3.24	-84.7	-88.6	6.0	2.75e-01	0	47	0	0	60	1048572
2026-01-18 02:53:39.68	29.47	3.30	-84.7	-88.6	5.9	2.79e-01	0	47	0	0	60	1048572
2026-01-18 02:53:40.68	29.43	3.37	-84.7	-88.6	5.9	2.76e-01	0	47	0	0	60	1048569
2026-01-18 02:53:41.69	29.39	3.43	-84.7	-88.6	6.2	2.83e-01	0	47	0	0	60	1048575
2026-01-18 02:53:42.69	29.36	3.50	-84.7	-88.6	6.6	2.85e-01	0	47	0	0	60	1048575
2026-01-18 02:53:43.70	29.32	3.56	-83.5	-88.6	6.0	2.82e-01	0	47	0	0	60	1048573
2026-01-18 02:53:44.71	29.28	3.63	-84.7	-88.6	6.0	2.76e-01	0	47	0	0	60	1048572
2026-01-18 02:53:45.71	29.24	3.69	-85.2	-88.6	5.9	2.81e-01	0	47	0	0	60	1048571
2026-01-18 02:53:46.72	29.20	3.76	-85.2	-88.6	6.3	2.78e-01	0	47	0	0	60	1048572
2026-01-18 02:53:47.72	29.16	3.82	-85.2	-88.6	6.4	2.77e-01	0	47	0	0	60	1048575
2026-01-18 02:53:48.72	29.12	3.89	-84.3	-88.6	6.5	2.76e-01	0	47	0	0	60	1048574
2026-01-18 02:53:49.73	29.08	3.96	-84.7	-88.6	5.8	2.74e-01	0	47	0	0	60	1048575
2026-01-18 02:53:50.73	29.03	4.02	-84.7	-88.6	5.8	2.74e-01	0	47	0	0	60	1048573
2026-01-18 02:53:51.74	28.99	4.09	-85.2	-88.6	6.0	2.76e-01	0	47	0	0	60	1048572
2026-01-18 02:53:52.75	28.95	4.15	-85.2	-88.6	6.4	2.76e-01	0	47	0	0	60	1048573
2026-01-18 02:53:53.75	28.91	4.22	-84.7	-88.6	6.0	2.78e-01	0	47	0	0	60	1048575
2026-01-18 02:53:54.76	28.87	4.29	-84.7	-88.6	5.8	2.77e-01	0	47	0	0	60	1048571
2026-01-18 02:53:55.77	28.83	4.36	-84.7	-88.6	5.8	2.77e-01	0	47	0	0	60	1048574
2026-01-18 02:53:56.77	28.79	4.42	-85.2	-88.6	6.0	2.79e-01	0	47	0	0	60	1048574
2026-01-18 02:53:57.78	28.74	4.49	-84.7	-88.6	5.5	2.77e-01	0	47	0	0	60	1048574
2026-01-18 02:53:58.78	28.70	4.56	-84.7	-88.6	6.2	2.79e-01	0	47	0	0	60	1048572
2026-01-18 02:53:59.79	28.66	4.62	-84.7	-88.6	6.0	2.78e-01	0	47	0	0	60	1048554
2026-01-18 02:54:00.79	28.61	4.69	-85.2	-88.6	5.8	2.75e-01	0	47	0	0	60	1048574
2026-01-18 02:54:01.80	28.57	4.76	-85.2	-88.6	6.4	2.81e-01	0	47	0	0	60	1048575
2026-01-18 02:54:02.80	28.53	4.83	-84.7	-88.6	6.2	2.77e-01	0	47	0	0	60	1048569
2026-01-18 02:54:03.81	28.48	4.90	-85.2	-88.6	6.1	2.77e-01	0	47	0	0	60	1048573
2026-01-18 02:54:04.82	28.44	4.97	-84.7	-88.6	6.2	2.77e-01	0	47	0	0	60	1048572
2026-01-18 02:54:05.83	28.40	5.03	-84.7	-88.6	6.3	2.75e-01	0	47	0	0	60	1048572
2026-01-18 02:54:06.84	28.35	5.10	-84.7	-88.6	5.4	2.75e-01	0	47	0	0	60	1048571
2026-01-18 02:54:07.84	28.31	5.17	-84.7	-88.6	6.1	2.76e-01	0	47	0	0	60	1048566
2026-01-18 02:54:08.85	28.26	5.24	-84.7	-88.6	6.4	2.77e-01	0	47	0	0	60	1048571
2026-01-18 02:54:09.86	28.22	5.31	-85.2	-88.6	6.3	2.82e-01	0	47	0	0	60	1048574
2026-01-18 02:54:10.87	28.17	5.38	-84.7	-88.6	6.1	2.76e-01	0	47	0	0	60	1048574
2026-01-18 02:54:11.87	28.13	5.45	-84.7	-88.6	6.0	2.77e-01	0	47	0	0	60	1048572
2026-01-18 02:54:12.88	28.08	5.52	-84.7	-88.6	6.1	2.76e-01	0	47	0	0	60	1048574
2026-01-18 02:54:13.89	28.04	5.59	-84.7	-88.6	5.9	2.77e-01	0	47	0	0	60	1048572
2026-01-18 02:54:14.90	27.99	5.66	-84.7	-88.6	6.1	2.80e-01	0	47	0	0	60	1048571
2026-01-18 02:54:15.90	27.94	5.73	-85.2	-88.6	6.0	2.80e-01	0	47	0	0	60	1048573
2026-01-18 02:54:16.91	27.90	5.80	-84.7	-88.6	6.4	2.77e-01	0	47	0	0	60	1048570
2026-01-18 02:54:17.92	27.85	5.87	-84.7	-88.6	5.6	2.75e-01	0	47	0	0	60	1048575
2026-01-18 02:54:18.93	27.80	5.94	-84.7	-88.6	5.7	2.77e-01	0	47	0	0	60	1048575
2026-01-18 02:54:19.93	27.75	6.01	-85.2	-88.6	6.1	2.78e-01	0	47	0	0	60	1048575
2026-01-18 02:54:20.94	27.71	6.08	-85.2	-88.6	6.4	2.77e-01	0	47	0	0	60	1048574
2026-01-18 02:54:21.94	27.66	6.15	-84.7	-88.6	6.0	2.80e-01	0	47	0	0	60	1048573
2026-01-18 02:54:22.95	27.61	6.23	-84.7	-88.6	5.6	2.74e-01	0	47	0	0	60	1048574
2026-01-18 02:54:23.96	27.56	6.30	-84.7	-88.6	6.1	2.79e-01	0	47	0	0	60	1048573
2026-01-18 02:54:24.97	27.51	6.37	-84.7	-88.6	6.2	2.80e-01	0	47	0	0	60	1048570
2026-01-18 02:54:25.97	27.46	6.44	-84.7	-88.6	5.9	2.75e-01	0	47	0	0	60	1048575
2026-01-18 02:54:26.98	27.42	6.51	-84.7	-88.6	6.0	2.80e-01	0	47	0	0	60	1048575
2026-01-18 02:54:27.98	27.37	6.59	-84.7	-88.6	6.4	2.75e-01	0	47	0	0	60	1048573
2026-01-18 02:54:28.99	27.32	6.66	-85.2	-88.6	3.2	6.10e-01	0	47	104	0	60	1048574
2026-01-18 02:54:29.99	27.27	6.73	-85.2	-88.6	3.3	7.63e-01	0	47	104	0	60	1048574
2026-01-18 02:54:31.00	27.22	6.80	-85.2	-88.6	3.0	7.65e-01	0	47	104	0	60	1048575
2026-01-18 02:54:32.00	27.17	6.88	-85.2	-88.6	3.5	7.65e-01	0	47	104	0	60	1048567
2026-01-18 02:54:33.01	27.12	6.95	-85.2	-88.6	2.8	7.63e-01	0	47	104	0	60	1048575
2026-01-18 02:54:34.02	27.06	7.02	-85.2	-88.6	3.0	7.64e-01	0	47	104	0	60	1048575
2026-01-18 02:54:35.03	27.01	7.10	-85.2	-88.6	3.2	7.63e-01	0	47	104	0	60	1048571
2026-01-18 02:54:36.04	26.96	7.17	-84.7	-88.6	3.0	7.63e-01	0	47	104	0	60	1048575
2026-01-18 02:54:37.04	26.91	7.25	-85.2	-88.6	2.9	7.63e-01	0	47	104	0	60	1048575
2026-01-18 02:54:38.05	26.86	7.32	-85.2	-88.6	3.2	7.63e-01	0	47	104	0	60	1048575
2026-01-18 02:54:39.06	26.80	7.39	-85.2	-88.6	3.7	7.64e-01	0	47	104	0	60	1048574
2026-01-18 02:54:40.07	26.75	7.47	-84.7	-88.6	3.0	7.54e-01	0	47	104	0	60	1048572
2026-01-18 02:54:41.08	26.70	7.54	-85.2	-88.6	2.9	7.62e-01	0	47	104	0	60	1048574
2026-01-18 02:54:42.09	26.64	7.62	-85.2	-88.6	2.9	7.63e-01	0	47	104	0	60	1048575
2026-01-18 02:54:43.09	26.59	7.69	-85.2	-88.6	3.6	7.62e-01	0	47	104	0	60	1048575
2026-01-18 02:54:44.10	26.54	7.77	-85.2	-88.6	3.3	7.63e-01	0	47	104	0	60	1048573
2026-01-18 02:54:45.11	26.48	7.85	-84.7	-88.6	2.9	7.63e-01	0	47	104	0	60	1048572
2026-01-18 02:54:46.12	26.43	7.92	-84.7	-88.6	2.9	7.63e-01	0	47	104	0	60	1048575
2026-01-18 02:54:47.13	26.37	8.00	-85.2	-88.6	2.9	7.64e-01	0	47	104	0	60	1048575
2026-01-18 02:54:48.13	26.32	8.07	-85.2	-88.6	2.8	7.61e-01	0	47	104	0	60	1048570
2026-01-18 02:54:49.14	26.26	8.15	-85.2	-88.6	3.1	7.62e-01	0	47	104	0	60	1048575
2026-01-18 02:54:50.15	26.21	8.23	-84.7	-88.6	3.1	7.64e-01	0	47	104	0	60	1048573
2026-01-18 02:54:51.16	26.15	8.30	-85.2	-88.6	3.2	7.63e-01	0	47	104	0	60	1048575
2026-01-18 02:54:52.16	26.09	8.38	-85.2	-88.6	3.6	7.63e-01	0	47	104	0	60	1048571
2026-01-18 02:54:53.16	26.04	8.46	-85.2	-88.6	3.6	7.62e-01	0	47	104	0	60	1048575
2026-01-18 02:54:54.16	25.98	8.53	-84.7	-88.6	3.1	7.64e-01	0	47	104	0	60	1048571
2026-01-18 02:54:55.17	25.92	8.61	-85.2	-88.6	3.0	7.60e-01	0	47	104	0	60	1048572
2026-01-18 02:54:56.18	25.86	8.69	-84.7	-88.6	3.3	7.62e-01	0	47	104	0	60	1048575
2026-01-18 02:54:57.18	25.81	8.77	-85.2	-88.6	3.2	7.63e-01	0	47	104	0	60	1048575
2026-01-18 02:54:58.19	25.75	8.85	-85.2	-88.6	2.9	7.63e-01	0	47	104	0	60	1048569
2026-01-18 02:54:59.20	25.69	8.92	-85.2	-88.6	2.9	7.62e-01	0	47	104	0	60	1048574
2026-01-18 02:55:00.20	25.63	9.00	-84.7	-88.6	3.2	7.63e-01	0	47	104	0	60	1048571
2026-01-18 02:55:01.21	25.57	9.08	-85.2	-88.6	3.3	7.63e-01	0	47	104	0	60	1048575
2026-01-18 02:55:02.22	25.51	9.16	-85.2	-88.6	3.8	7.62e-01	0	47	104	0	60	1048574
2026-01-18 02:55:03.23	25.45	9.24	-85.2	-88.6	3.3	7.62e-01	0	47	104	0	60	1048566
2026-01-18 02:55:04.23	25.39	9.32	-85.2	-88.6	2.7	7.64e-01	0	47	104	0	60	1048575
2026-01-18 02:55:05.24	25.33	9.40	-84.7	-88.6	3.3	7.63e-01	0	47	104	0	60	1048575
2026-01-18 02:55:06.25	25.27	9.48	-85.2	-88.6	3.6	7.63e-01	0	47	104	0	60	1048575
2026-01-18 02:55:07.25	25.21	9.56	-85.2	-88.6	3.3	7.63e-01	0	47	104	0	60	1048572
2026-01-18 02:55:08.26	25.14	9.64	-85.2	-88.6	3.1	7.63e-01	0	47	104	0	60	1048575
2026-01-18 02:55:09.26	25.08	9.72	-85.2	-88.6	3.0	7.63e-01	0	47	104	0	60	1048575
2026-01-18 02:55:10.27	25.02	9.80	-84.7	-88.6	3.7	7.61e-01	0	47	104	0	60	1048573
2026-01-18 02:55:11.28	24.96	9.88	-85.2	-88.6	3.3	7.63e-01	0	47	104	0	60	1048574
2026-01-18 02:55:12.28	24.89	9.96	-85.2	-88.6	3.1	7.63e-01	0	47	104	0	60	1048574
2026-01-18 02:55:13.29	24.83	10.05	-85.2	-88.6	3.6	7.64e-01	0	47	104	0	60	1048575
2026-01-18 02:55:14.30	24.77	10.13	-85.2	-88.6	3.0	7.63e-01	0	47	104	0	60	1048572
2026-01-18 02:55:15.31	24.70	10.21	-85.2	-88.6	3.6	7.64e-01	0	47	104	0	60	1048573
2026-01-18 02:55:16.32	24.64	10.29	-85.2	-88.6	3.6	7.63e-01	0	47	104	0	60	1048571
2026-01-18 02:55:17.32	24.57	10.38	-85.2	-88.6	3.2	7.64e-01	0	47	104	0	60	1048574
2026-01-18 02:55:18.33	24.51	10.46	-85.2	-88.6	2.9	7.63e-01	0	47	104	0	60	1048574
2026-01-18 02:55:19.33	24.44	10.54	-85.2	-88.6	3.2	7.64e-01	0	47	104	0	60	1048573
2026-01-18 02:55:20.34	24.37	10.62	-84.7	-88.6	2.8	7.63e-01	0	47	104	0	60	1048574
2026-01-18 02:55:21.35	24.31	10.71	-85.2	-88.6	2.9	7.61e-01	0	47	104	0	60	1048573
2026-01-18 02:55:22.36	24.24	10.79	-85.2	-88.6	2.8	7.65e-01	0	47	104	0	60	1048572
2026-01-18 02:55:23.36	24.17	10.88	-85.2	-88.6	3.7	7.62e-01	0	47	104	0	60	1048575
2026-01-18 02:55:24.37	24.10	10.96	-85.2	-88.6	2.9	7.63e-01	0	47	104	0	60	1048572
2026-01-18 02:55:25.37	24.03	11.04	-85.2	-88.6	3.0	7.64e-01	0	47	104	0	60	1048569
2026-01-18 02:55:26.38	23.97	11.13	-85.2	-88.6	3.0	7.63e-01	0	47	104	0	60	1048574
2026-01-18 02:55:27.38	23.90	11.21	-85.2	-88.6	3.1	7.63e-01	0	47	104	0	60	1048573
2026-01-18 02:55:28.39	23.83	11.30	-84.7	-88.6	3.6	7.64e-01	0	47	104	0	60	1048574
2026-01-18 02:55:29.40	23.76	11.38	-84.7	-88.6	3.0	7.64e-01	0	47	104	0	60	1048575
2026-01-18 02:55:30.41	23.68	11.47	-85.2	-88.6	3.7	7.63e-01	0	47	104	0	60	1048567
2026-01-18 02:55:31.42	23.61	11.56	-85.2	-88.6	3.2	7.64e-01	0	47	104	0	60	1048575
2026-01-18 02:55:32.43	23.54	11.64	-85.2	-88.6	2.9	7.63e-01	0	47	104	0	60	1048574
2026-01-18 02:55:33.44	23.47	11.73	-84.7	-88.6	3.7	7.65e-01	0	47	104	0	60	1048573
2026-01-18 02:55:34.44	23.40	11.82	-85.2	-88.6	3.5	7.62e-01	0	47	104	0	60	1048575
2026-01-18 02:55:35.45	23.32	11.90	-85.2	-88.6	3.0	7.64e-01	0	47	104	0	60	1048574
2026-01-18 02:55:36.46	23.25	11.99	-85.2	-88.6	2.7	7.62e-01	0	47	104	0	60	1048574
2026-01-18 02:55:37.46	23.18	12.08	-85.2	-88.6	3.5	7.64e-01	0	47	104	0	60	1048574
2026-01-18 02:55:38.47	23.10	12.17	-84.7	-88.6	3.5	7.63e-01	0	47	104	0	60	1048573
2026-01-18 02:55:39.47	23.03	12.25	-85.2	-88.6	3.3	7.64e-01	0	47	104	0	60	1048575
2026-01-18 02:55:40.47	22.95	12.34	-85.2	-88.6	3.0	7.62e-01	0	47	104	0	60	1048572
2026-01-18 02:55:41.48	22.88	12.43	-85.2	-88.6	3.4	7.64e-01	0	47	104	0	60	1048575
2026-01-18 02:55:42.48	22.80	12.52	-84.7	-88.6	3.2	7.64e-01	0	47	104	0	60	1048563
2026-01-18 02:55:43.49	22.73	12.61	-85.2	-88.6	2.9	7.64e-01	0	47	104	0	60	1048575
2026-01-18 02:55:44.49	22.65	12.70	-85.2	-88.6	3.2	7.63e-01	0	47	104	0	60	1048571
2026-01-18 02:55:45.50	22.57	12.79	-85.2	-88.6	3.6	7.63e-01	0	47	104	0	60	1048574
2026-01-18 02:55:46.51	22.49	12.88	-85.2	-88.6	3.3	7.64e-01	0	47	104	0	60	1048574
2026-01-18 02:55:47.52	22.41	12.97	-84.7	-88.6	3.3	7.63e-01	0	47	104	0	60	1048570
2026-01-18 02:55:48.53	22.33	13.06	-85.2	-88.6	3.4	7.62e-01	0	47	104	0	60	1048574
2026-01-18 02:55:49.53	22.26	13.15	-85.2	-88.6	3.6	7.63e-01	0	47	104	0	60	1048574
2026-01-18 02:55:50.54	22.17	13.24	-85.2	-88.6	3.5	7.61e-01	0	47	104	0	60	1048572
2026-01-18 02:55:51.54	22.09	13.33	-84.7	-88.6	2.6	7.63e-01	0	47	104	0	60	1048575
2026-01-18 02:55:52.55	22.01	13.42	-85.2	-88.6	3.0	7.64e-01	0	47	104	0	60	1048575
2026-01-18 02:55:53.55	21.93	13.51	-85.2	-88.6	3.3	7.63e-01	0	47	104	0	60	1048574
2026-01-18 02:55:54.56	21.85	13.61	-85.2	-88.6	2.7	7.63e-01	0	47	104	0	60	1048575
2026-01-18 02:55:55.57	21.77	13.70	-85.2	-88.6	3.3	7.64e-01	0	47	104	0	60	1048570
2026-01-18 02:55:56.58	21.68	13.79	-85.2	-88.6	3.1	7.64e-01	0	47	104	0	60	1048574
2026-01-18 02:55:57.58	21.60	13.89	-85.2	-88.6	2.9	7.63e-01	0	47	104	0	60	1048570
2026-01-18 02:55:58.59	21.51	13.98	-84.7	-88.6	3.4	7.64e-01	0	47	104	0	60	1048571
2026-01-18 02:55:59.60	21.43	14.07	-84.7	-88.6	3.5	7.64e-01	0	47	104	0	60	1048570
2026-01-18 02:56:00.60	21.34	14.17	-85.2	-88.6	3.4	7.63e-01	0	47	104	0	60	1048571
2026-01-18 02:56:01.62	21.26	14.26	-84.7	-88.6	2.8	7.66e-01	0	47	104	0	60	1048575
2026-01-18 02:56:02.62	21.17	14.36	-85.2	-88.6	3.0	7.62e-01	0	47	104	0	60	1048573
2026-01-18 02:56:03.63	21.08	14.45	-84.7	-88.6	3.0	7.63e-01	0	47	104	0	60	1048574
2026-01-18 02:56:04.64	21.00	14.55	-85.2	-88.6	3.5	7.63e-01	0	47	104	0	60	1048574
2026-01-18 02:56:05.65	20.91	14.64	-85.2	-88.6	3.1	7.63e-01	0	47	104	0	60	1048575
2026-01-18 02:56:06.65	20.82	14.74	-85.2	-88.6	3.1	7.64e-01	0	47	104	0	60	1048575
2026-01-18 02:56:07.66	20.73	14.83	-85.2	-88.6	3.0	7.61e-01	0	47	104	0	60	1048567
2026-01-18 02:56:08.66	20.64	14.93	-84.7	-88.6	3.6	7.63e-01	0	47	104	0	60	1048572
2026-01-18 02:56:09.67	20.55	15.03	-85.2	-88.6	3.6	7.63e-01	0	47	104	0	60	1048575
2026-01-18 02:56:10.68	20.46	15.12	-85.2	-88.6	3.2	7.63e-01	0	47	104	0	60	1048575
2026-01-18 02:56:11.69	20.36	15.22	-84.7	-88.6	3.6	7.62e-01	0	47	104	0	60	1048574
2026-01-18 02:56:12.69	20.27	15.32	-85.2	-88.6	3.1	7.58e-01	0	47	104	0	60	1048574
2026-01-18 02:56:13.70	20.18	15.42	-84.3	-88.6	3.0	7.64e-01	0	47	104	0	60	1048573
2026-01-18 02:56:14.71	20.08	15.52	-85.2	-88.6	3.4	7.64e-01	0	47	104	0	60	1048574
2026-01-18 02:56:15.72	19.99	15.62	-84.7	-88.6	3.2	7.63e-01	0	47	104	0	60	1048575
2026-01-18 02:56:16.72	19.89	15.71	-85.2	-88.6	3.1	7.62e-01	0	47	104	0	60	1048567
2026-01-18 02:56:17.73	19.80	15.81	-85.2	-88.6	3.0	7.63e-01	0	47	104	0	60	1048574
2026-01-18 02:56:18.74	19.70	15.91	-84.7	-88.6	3.0	7.63e-01	0	47	104	0	60	1048575
2026-01-18 02:56:19.75	19.60	16.01	-85.2	-88.6	3.1	7.63e-01	0	47	104	0	60	1048574
2026-01-18 02:56:20.76	19.50	16.11	-85.2	-88.6	3.2	7.63e-01	0	47	104	0	60	1048572
2026-01-18 02:56:21.77	19.40	16.22	-85.2	-88.6	3.5	7.63e-01	0	47	104	0	60	1048575
2026-01-18 02:56:22.77	19.31	16.32	-85.2	-88.6	2.8	7.63e-01	0	47	104	0	60	1048574
2026-01-18 02:56:23.78	19.21	16.42	-84.3	-88.6	2.8	7.63e-01	0	47	104	0	60	1048575
2026-01-18 02:56:24.79	19.10	16.52	-85.2	-88.6	3.7	7.64e-01	0	47	104	0	60	1048574
2026-01-18 02:56:25.80	19.00	16.62	-84.7	-88.6	3.6	7.64e-01	0	47	104	0	60	1048573
2026-01-18 02:56:26.80	18.90	16.72	-85.2	-88.6	2.9	7.64e-01	0	47	104	0	60	1048575
2026-01-18 02:56:27.81	18.80	16.83	-85.2	-88.6	3.6	7.62e-01	0	47	104	0	60	1048574
2026-01-18 02:56:28.81	18.69	16.93	-85.2	-88.6	3.0	7.63e-01	0	47	104	0	60	1048574
2026-01-18 02:56:29.82	18.59	17.03	-85.2	-88.6	3.1	7.65e-01	0	47	104	0	60	1048571
2026-01-18 02:56:30.83	18.48	17.14	-85.2	-88.6	3.6	7.64e-01	0	47	104	0	60	1048574
2026-01-18 02:56:31.83	18.38	17.24	-85.2	-88.6	3.7	7.64e-01	0	47	104	0	60	1048575
2026-01-18 02:56:32.84	18.27	17.34	-85.2	-88.6	3.0	7.63e-01	0	47	104	0	60	1048575
2026-01-18 02:56:33.85	18.16	17.45	-85.2	-88.6	2.9	7.62e-01	0	47	104	0	60	1048575
2026-01-18 02:56:34.86	18.06	17.55	-84.7	-88.6	3.1	7.61e-01	0	47	104	0	60	1048572
2026-01-18 02:56:35.87	17.95	17.66	-85.2	-88.6	2.9	7.64e-01	0	47	104	0	60	1048571
2026-01-18 02:56:36.87	17.84	17.76	-85.2	-88.6	3.1	7.64e-01	0	47	104	0	60	1048575
2026-01-18 02:56:37.88	17.73	17.87	-85.2	-88.6	3.2	7.63e-01	0	47	104	0	60	1048573
2026-01-18 02:56:38.89	17.62	17.98	-85.2	-88.6	3.6	7.58e-01	0	47	104	0	60	1048575
2026-01-18 02:56:39.90	17.50	18.08	-85.2	-88.6	2.9	7.64e-01	0	47	104	0	60	1048574
2026-01-18 02:56:40.90	17.39	18.19	-85.2	-88.6	3.5	7.64e-01	0	47	104	0	60	1048575
2026-01-18 02:56:41.91	17.28	18.30	-85.2	-88.6	3.5	7.62e-01	0	47	104	0	60	1048570
2026-01-18 02:56:42.91	17.16	18.40	-85.2	-88.6	3.0	7.64e-01	0	47	104	0	60	1048571
2026-01-18 02:56:43.92	17.05	18.51	-85.2	-88.6	3.1	7.64e-01	0	47	104	0	60	1048570
2026-01-18 02:56:44.92	16.93	18.62	-85.2	-88.6	3.6	7.64e-01	0	47	104	0	60	1048570
2026-01-18 02:56:45.93	16.81	18.73	-85.2	-88.6	3.4	7.65e-01	0	47	104	0	60	1048574
2026-01-18 02:56:46.94	16.69	18.84	-84.7	-88.6	2.9	7.63e-01	0	47	104	0	60	1048570
2026-01-18 02:56:47.95	16.58	18.95	-85.2	-88.6	3.0	7.64e-01	0	47	104	0	60	1048573
2026-01-18 02:56:48.95	16.46	19.06	-84.7	-88.6	3.1	7.63e-01	0	47	104	0	60	1048574
2026-01-18 02:56:49.96	16.34	19.17	-85.2	-88.6	3.2	7.64e-01	0	47	104	0	60	1048572
2026-01-18 02:56:50.96	16.21	19.28	-85.2	-88.6	3.0	7.63e-01	0	47	104	0	60	1048575
2026-01-18 02:56:51.97	16.09	19.39	-85.2	-88.6	3.0	7.64e-01	0	47	104	0	60	1048572
2026-01-18 02:56:52.98	15.97	19.50	-85.2	-88.6	3.7	7.63e-01	0	47	104	0	60	1048572
2026-01-18 02:56:53.99	15.84	19.61	-84.7	-88.6	2.9	7.62e-01	0	47	104	0	60	1048575
2026-01-18 02:56:55.00	15.72	19.72	-85.2	-88.6	3.2	7.65e-01	0	47	104	0	60	1048574
2026-01-18 02:56:56.00	15.59	19.84	-85.2	-88.6	3.5	7.64e-01	0	47	104	0	60	1048574
2026-01-18 02:56:57.01	15.46	19.95	-85.2	-88.6	3.0	7.64e-01	0	47	104	0	60	1048573
2026-01-18 02:56:58.01	15.34	20.06	-85.2	-88.6	3.0	7.64e-01	0	47	104	0	60	1048573
2026-01-18 02:56:59.02	15.21	20.18	-84.7	-88.6	2.8	7.63e-01	0	47	104	0	60	1048573
2026-01-18 02:57:00.02	15.08	20.29	-84.7	-88.6	3.6	7.62e-01	0	47	104	0	60	1048571
2026-01-18 02:57:01.02	14.95	20.40	-85.2	-88.6	3.0	7.64e-01	0	47	104	0	60	1048574
2026-01-18 02:57:02.03	14.82	20.52	-85.2	-88.6	3.0	7.63e-01	0	47	104	0	60	1048574
2026-01-18 02:57:03.04	14.68	20.63	-84.7	-88.6	3.6	7.63e-01	0	47	104	0	60	1048567
2026-01-18 02:57:04.04	14.55	20.75	-85.2	-88.6	3.1	7.64e-01	0	47	104	0	60	1048575
2026-01-18 02:57:05.05	14.41	20.86	-85.2	-88.6	3.0	7.63e-01	0	47	104	0	60	1048572
2026-01-18 02:57:06.06	14.28	20.98	-85.2	-88.6	3.2	7.63e-01	0	47	104	0	60	1048571
2026-01-18 02:57:07.07	14.14	21.09	-85.2	-88.6	3.5	7.63e-01	0	47	104	0	60	1048574
2026-01-18 02:57:08.08	14.00	21.21	-84.7	-88.6	3.1	7.63e-01	0	47	104	0	60	1048567
2026-01-18 02:57:09.09	13.86	21.33	-85.2	-88.6	2.7	7.63e-01	0	47	104	0	60	1048575
2026-01-18 02:57:10.09	13.72	21.44	-83.5	-88.6	3.6	7.63e-01	0	47	104	0	60	1048572
2026-01-18 02:57:11.10	13.58	21.56	-85.2	-88.6	3.5	7.64e-01	0	47	104	0	60	1048569
2026-01-18 02:57:12.10	13.44	21.68	-85.2	-88.6	3.7	7.64e-01	0	47	104	0	60	1048571
2026-01-18 02:57:13.11	13.29	21.80	-85.2	-88.6	3.5	7.62e-01	0	47	104	0	60	1048573
2026-01-18 02:57:14.12	13.15	21.92	-85.2	-88.6	3.1	7.63e-01	0	47	104	0	60	1048575
2026-01-18 02:57:15.12	13.00	22.04	-85.2	-88.6	3.3	7.64e-01	0	47	104	0	60	1048573
2026-01-18 02:57:16.13	12.85	22.16	-85.2	-88.6	3.2	7.63e-01	0	47	104	0	60	1048572
2026-01-18 02:57:17.14	12.70	22.28	-85.2	-88.6	3.3	7.64e-01	0	47	104	0	60	1048570
2026-01-18 02:57:18.15	12.55	22.40	-83.5	-88.6	3.1	7.61e-01	0	47	104	0	60	1048574
2026-01-18 02:57:19.15	12.40	22.52	-84.7	-88.6	3.0	7.62e-01	0	47	104	0	60	1048575
2026-01-18 02:57:20.16	12.25	22.64	-83.5	-88.6	3.6	7.64e-01	0	47	104	0	60	1048575
2026-01-18 02:57:21.17	12.10	22.76	-85.2	-88.6	3.6	7.64e-01	0	47	104	0	60	1048574
2026-01-18 02:57:22.17	11.94	22.88	-84.7	-88.6	3.0	7.63e-01	0	47	104	0	60	1048565
2026-01-18 02:57:23.18	11.79	23.00	-85.2	-88.6	3.0	7.62e-01	0	47	104	0	60	1048570
2026-01-18 02:57:24.19	11.63	23.12	-82.8	-88.6	3.4	7.62e-01	0	47	104	0	60	1048575
2026-01-18 02:57:25.20	11.47	23.25	-85.2	-88.6	2.7	7.63e-01	0	47	104	0	60	1048570
2026-01-18 02:57:26.20	11.31	23.37	-85.2	-88.6	2.9	7.64e-01	0	47	104	0	60	1048570
2026-01-18 02:57:27.21	11.15	23.49	-85.2	-88.6	2.8	7.63e-01	0	47	104	0	60	1048575
2026-01-18 02:57:28.21	10.99	23.62	-85.2	-88.6	3.1	7.65e-01	0	47	104	0	60	1048574
2026-01-18 02:57:29.22	10.83	23.74	-83.1	-88.6	3.1	7.61e-01	0	47	104	0	60	1048574
2026-01-18 02:57:30.23	10.66	23.86	-85.2	-88.6	3.0	7.64e-01	0	47	104	0	60	1048575
2026-01-18 02:57:31.24	10.50	23.99	-85.2	-88.6	3.6	7.65e-01	0	47	104	0	60	1048570
2026-01-18 02:57:32.24	10.33	24.11	-85.2	-88.6	3.0	7.64e-01	0	47	104	0	60	1048575
2026-01-18 02:57:33.25	10.16	24.24	-83.5	-88.6	3.4	7.64e-01	0	47	104	0	60	1048575
2026-01-18 02:57:34.26	9.99	24.37	-85.2	-88.6	3.5	7.63e-01	0	47	104	0	60	1048573
2026-01-18 02:57:35.27	9.82	24.49	-85.2	-88.6	3.4	7.64e-01	0	47	104	0	60	1048574
2026-01-18 02:57:36.27	9.65	24.62	-85.2	-88.6	3.4	7.64e-01	0	47	104	0	60	1048575
2026-01-18 02:57:37.28	9.47	24.74	-85.2	-88.6	3.3	7.63e-01	0	47	104	0	60	1048575
2026-01-18 02:57:38.29	9.29	24.87	-85.2	-88.6	3.2	7.63e-01	0	47	104	0	60	1048574
2026-01-18 02:57:39.29	9.12	25.00	-85.2	-88.6	3.2	7.63e-01	0	47	104	0	60	1048573
2026-01-18 02:57:40.29	8.94	25.12	-85.2	-88.6	2.8	7.64e-01	0	47	104	0	60	1048573
2026-01-18 02:57:41.30	8.76	25.25	-84.7	-88.6	3.3	7.64e-01	0	47	104	0	60	1048575
2026-01-18 02:57:42.30	8.58	25.38	-85.2	-88.6	3.0	7.65e-01	0	47	104	0	60	1048565
2026-01-18 02:57:43.31	8.40	25.51	-85.2	-88.6	3.5	7.63e-01	0	47	104	0	60	1048575
2026-01-18 02:57:44.32	8.21	25.64	-84.3	-88.6	2.9	7.63e-01	0	47	104	0	60	1048571
2026-01-18 02:57:45.33	8.02	25.77	-85.2	-88.6	3.1	7.63e-01	0	47	104	0	60	1048575
2026-01-18 02:57:46.34	7.83	25.90	-85.2	-88.6	3.5	7.62e-01	0	47	104	0	60	1048573
2026-01-18 02:57:47.34	7.65	26.03	-85.2	-88.6	3.0	7.63e-01	0	47	104	0	60	1048574
2026-01-18 02:57:48.34	7.46	26.15	-85.2	-88.6	3.2	7.64e-01	0	47	104	0	60	1048573
2026-01-18 02:57:49.35	7.26	26.28	-84.3	-88.6	3.1	7.63e-01	0	47	104	0	60	1048571
2026-01-18 02:57:50.36	7.07	26.42	-85.2	-88.6	3.0	7.62e-01	0	47	104	0	60	1048574
2026-01-18 02:57:51.36	6.87	26.54	-84.7	-88.6	3.7	7.63e-01	0	47	104	0	60	1048575
2026-01-18 02:57:52.37	6.68	26.68	-85.2	-88.6	3.2	7.62e-01	0	47	104	0	60	1048575
2026-01-18 02:57:53.37	6.48	26.81	-85.2	-88.6	3.0	7.63e-01	0	47	104	0	60	1048575
2026-01-18 02:57:54.38	6.28	26.94	-83.5	-88.6	2.8	7.64e-01	0	47	104	0	60	1048574
2026-01-18 02:57:55.38	6.08	27.07	-84.7	-88.6	3.4	7.64e-01	0	47	104	0	60	1048574
2026-01-18 02:57:56.39	5.87	27.20	-85.2	-88.6	3.2	7.64e-01	0	47	104	0	60	1048569
2026-01-18 02:57:57.40	5.66	27.33	-85.2	-88.6	2.8	7.64e-01	0	47	104	0	60	1048574
2026-01-18 02:57:58.41	5.46	27.47	-84.3	-88.6	3.4	7.65e-01	0	47	104	0	60	1048573
2026-01-18 02:57:59.41	5.25	27.60	-83.5	-88.6	3.0	7.62e-01	0	47	104	0	60	1048572
2026-01-18 02:58:00.42	5.04	27.73	-84.7	-88.6	3.2	7.64e-01	0	47	104	0	60	1048575
2026-01-18 02:58:01.43	4.82	27.86	-85.2	-88.6	3.9	7.64e-01	0	47	104	0	60	1048570
2026-01-18 02:58:02.44	4.61	28.00	-85.2	-88.6	3.4	7.64e-01	0	47	104	0	60	1048575
2026-01-18 02:58:03.43	4.39	28.13	-85.2	-88.6	3.2	7.63e-01	0	47	104	0	60	1048574
2026-01-18 02:58:04.44	4.18	28.26	-85.2	-88.6	3.6	7.63e-01	0	47	104	0	60	1048573
2026-01-18 02:58:05.44	3.96	28.40	-85.2	-88.6	3.4	7.64e-01	0	47	104	0	60	1048575
2026-01-18 02:58:06.45	3.73	28.53	-85.2	-88.6	3.2	7.63e-01	0	47	104	0	60	1048570
2026-01-18 02:58:07.45	3.51	28.66	-85.2	-88.6	3.0	7.63e-01	0	47	104	0	60	1048571
2026-01-18 02:58:08.46	3.28	28.80	-85.2	-88.6	3.6	7.64e-01	0	47	104	0	60	1048575
2026-01-18 02:58:09.47	3.06	28.93	-85.2	-88.6	3.1	7.63e-01	0	47	104	0	60	1048570
2026-01-18 02:58:10.48	2.83	29.07	-84.7	-88.6	2.7	7.63e-01	0	47	104	0	60	1048573
2026-01-18 02:58:11.48	2.60	29.20	-85.2	-88.6	3.5	7.64e-01	0	47	104	0	60	1048574
2026-01-18 02:58:12.49	2.36	29.34	-85.2	-88.6	3.1	7.61e-01	0	47	104	0	60	1048574
2026-01-18 02:58:13.50	2.12	29.47	-85.2	-88.6	3.4	7.64e-01	0	47	104	0	60	1048574
2026-01-18 02:58:14.51	1.89	29.61	-84.7	-88.6	3.6	7.64e-01	0	47	104	0	60	1048575
2026-01-18 02:58:15.52	1.65	29.74	-85.2	-88.6	3.0	7.64e-01	0	47	104	0	60	1048568
2026-01-18 02:58:16.53	1.40	29.88	-85.2	-88.6	3.0	7.62e-01	0	47	104	0	60	1048573
2026-01-18 02:58:17.53	1.16	30.01	-85.2	-88.6	2.8	7.63e-01	0	47	104	0	60	1048575
2026-01-18 02:58:18.54	0.91	30.15	-83.9	-88.6	2.9	7.64e-01	0	47	104	0	60	1048574
2026-01-18 02:58:19.55	0.67	30.28	-85.2	-88.6	3.0	7.64e-01	0	47	104	0	60	1048565
2026-01-18 02:58:20.56	0.41	30.42	-84.7	-88.6	3.1	7.64e-01	0	47	104	0	60	1048575
2026-01-18 02:58:21.57	0.16	30.55	-85.2	-88.6	3.6	7.62e-01	0	47	104	0	60	1048575
2026-01-18 02:58:22.57	359.91	30.69	-85.2	-88.6	3.3	7.63e-01	0	47	104	0	60	1048574
2026-01-18 02:58:23.58	359.65	30.82	-84.7	-88.6	3.1	7.63e-01	0	47	104	0	60	1048573
2026-01-18 02:58:24.59	359.39	30.96	-83.9	-88.6	2.9	7.62e-01	0	47	104	0	60	1048571
2026-01-18 02:58:25.59	359.13	31.09	-85.2	-88.6	3.3	7.63e-01	0	47	104	0	60	1048575
2026-01-18 02:58:26.60	358.87	31.23	-85.2	-88.6	3.6	7.63e-01	0	47	104	0	60	1048575
2026-01-18 02:58:27.60	358.60	31.36	-85.2	-88.6	3.6	7.63e-01	0	47	104	0	60	1048575
2026-01-18 02:58:28.60	358.34	31.49	-84.7	-88.6	3.3	7.63e-01	0	47	104	0	60	1048575
2026-01-18 02:58:29.61	358.07	31.63	-85.2	-88.6	3.0	7.63e-01	0	47	104	0	60	1048574
2026-01-18 02:58:30.62	357.80	31.76	-85.2	-88.6	3.0	7.62e-01	0	47	104	0	60	1048575
2026-01-18 02:58:31.63	357.52	31.90	-85.2	-88.6	3.8	7.62e-01	0	47	104	0	60	1048566
2026-01-18 02:58:32.63	357.24	32.03	-85.2	-88.6	3.2	7.63e-01	0	47	104	0	60	1048573
2026-01-18 02:58:33.64	356.96	32.17	-84.7	-88.6	3.1	7.63e-01	0	47	104	0	60	1048575
2026-01-18 02:58:34.65	356.68	32.30	-85.2	-88.6	3.2	7.63e-01	0	47	104	0	60	1048575
2026-01-18 02:58:35.66	356.40	32.44	-85.2	-88.6	3.0	7.64e-01	0	47	104	0	60	1048575
2026-01-18 02:58:36.66	356.11	32.57	-85.2	-88.6	3.3	7.63e-01	0	47	104	0	60	1048574
2026-01-18 02:58:37.67	355.82	32.70	-85.2	-88.6	2.7	7.65e-01	0	47	104	0	60	1048575
2026-01-18 02:58:38.68	355.53	32.84	-85.2	-88.6	3.0	7.62e-01	0	47	104	0	60	1048571
2026-01-18 02:58:39.68	355.24	32.97	-84.3	-88.6	3.3	7.63e-01	0	47	104	0	60	1048571
2026-01-18 02:58:40.69	354.94	33.10	-85.2	-88.6	3.2	7.63e-01	0	47	104	0	60	1048571
2026-01-18 02:58:41.69	354.65	33.23	-85.2	-88.6	3.2	7.64e-01	0	47	104	0	60	1048573
2026-01-18 02:58:42.70	354.35	33.36	-84.7	-88.6	3.0	7.64e-01	0	47	104	0	60	1048572
2026-01-18 02:58:43.70	354.04	33.50	-84.7	-88.6	3.7	7.63e-01	0	47	104	0	60	1048574
2026-01-18 02:58:44.71	353.74	33.63	-85.2	-88.6	2.8	7.64e-01	0	47	104	0	60	1048575
2026-01-18 02:58:45.72	353.43	33.76	-85.2	-88.6	3.3	7.64e-01	0	47	104	0	60	1048573
2026-01-18 02:58:46.72	353.12	33.89	-85.2	-88.6	3.3	7.64e-01	0	47	104	0	60	1048571
2026-01-18 02:58:47.73	352.81	34.02	-84.7	-88.6	2.9	7.63e-01	0	47	104	0	60	1048571
2026-01-18 02:58:48.73	352.49	34.15	-85.2	-88.6	3.2	7.63e-01	0	47	104	0	60	1048573
2026-01-18 02:58:49.74	352.17	34.28	-82.5	-88.6	3.1	7.62e-01	0	47	104	0	60	1048575
2026-01-18 02:58:50.74	351.85	34.40	-85.2	-88.6	3.2	7.64e-01	0	47	104	0	60	1048573
2026-01-18 02:58:51.75	351.53	34.53	-85.2	-88.6	3.5	7.62e-01	0	47	104	0	60	1048574
2026-01-18 02:58:52.76	351.20	34.66	-85.2	-88.6	3.3	7.63e-01	0	47	104	0	60	1048575
2026-01-18 02:58:53.77	350.87	34.79	-85.2	-88.6	3.0	7.63e-01	0	47	104	0	60	1048575
2026-01-18 02:58:54.77	350.54	34.91	-85.2	-88.6	3.1	7.61e-01	0	47	104	0	60	1048575
2026-01-18 02:58:55.78	350.21	35.04	-85.2	-88.6	3.2	7.64e-01	0	47	104	0	60	1048572
2026-01-18 02:58:56.78	349.88	35.16	-85.2	-88.6	3.4	7.63e-01	0	47	104	0	60	1048574
2026-01-18 02:58:57.79	349.54	35.29	-85.2	-88.6	3.5	7.63e-01	0	47	104	0	60	1048574
2026-01-18 02:58:58.79	349.20	35.41	-85.2	-88.6	2.8	7.63e-01	0	47	104	0	60	1048575
2026-01-18 02:58:59.80	348.85	35.54	-85.2	-88.6	3.0	7.63e-01	0	47	104	0	60	1048574
2026-01-18 02:59:00.80	348.51	35.66	-85.2	-88.6	3.8	7.64e-01	0	47	104	0	60	1048571
2026-01-18 02:59:01.80	348.16	35.78	-84.7	-88.6	3.4	7.64e-01	0	47	104	0	60	1048573
2026-01-18 02:59:02.80	347.81	35.90	-85.2	-88.6	3.7	7.61e-01	0	47	104	0	60	1048573
2026-01-18 02:59:03.81	347.45	36.02	-85.2	-88.6	3.5	7.64e-01	0	47	104	0	60	1048574
2026-01-18 02:59:04.81	347.10	36.14	-85.2	-88.6	3.1	7.61e-01	0	47	104	0	60	1048575
2026-01-18 02:59:05.82	346.74	36.26	-85.2	-88.6	3.1	7.64e-01	0	47	104	0	60	1048572
2026-01-18 02:59:06.83	346.37	36.38	-85.2	-88.6	3.2	7.63e-01	0	47	104	0	60	1048573
2026-01-18 02:59:07.84	346.01	36.49	-85.2	-88.6	3.5	7.62e-01	0	47	104	0	60	1048574
2026-01-18 02:59:08.85	345.64	36.61	-85.2	-88.6	3.2	7.63e-01	0	47	104	0	60	1048572
2026-01-18 02:59:09.85	345.27	36.72	-85.2	-88.6	3.2	7.62e-01	0	47	104	0	60	1048575
2026-01-18 02:59:10.86	344.90	36.84	-85.2	-88.6	3.2	7.63e-01	0	47	104	0	60	1048574
2026-01-18 02:59:11.86	344.52	36.95	-85.2	-88.6	3.2	7.63e-01	0	47	104	0	60	1048573
2026-01-18 02:59:12.87	344.14	37.06	-85.2	-88.6	3.4	7.63e-01	0	47	104	0	60	1048574
2026-01-18 02:59:13.87	343.77	37.17	-85.2	-88.6	2.9	7.63e-01	0	47	104	0	60	1048573
2026-01-18 02:59:14.87	343.38	37.28	-85.2	-88.6	3.4	7.64e-01	0	47	104	0	60	1048572
2026-01-18 02:59:15.88	343.00	37.39	-85.2	-88.6	2.7	7.63e-01	0	47	104	0	60	1048574
2026-01-18 02:59:16.89	342.61	37.50	-84.7	-88.6	2.9	7.63e-01	0	47	104	0	60	1048571
2026-01-18 02:59:17.90	342.21	37.61	-85.2	-88.6	3.6	7.62e-01	0	47	104	0	60	1048572
2026-01-18 02:59:18.91	341.82	37.71	-85.2	-88.6	3.0	7.62e-01	0	47	104	0	60	1048573
2026-01-18 02:59:19.91	341.43	37.81	-85.2	-88.6	3.1	7.63e-01	0	47	104	0	60	1048574
2026-01-18 02:59:20.92	341.02	37.92	-85.2	-88.6	3.5	7.63e-01	0	47	104	0	60	1048573
2026-01-18 02:59:21.92	340.63	38.02	-85.2	-88.6	3.2	7.64e-01	0	47	104	0	60	1048574
2026-01-18 02:59:22.93	340.22	38.12	-85.2	-88.6	3.0	7.64e-01	0	47	104	0	60	1048575
2026-01-18 02:59:23.94	339.81	38.22	-83.5	-88.6	3.1	7.64e-01	0	47	104	0	60	1048574
2026-01-18 02:59:24.95	339.40	38.32	-85.2	-88.6	3.1	7.64e-01	0	47	104	0	60	1048564
2026-01-18 02:59:25.96	338.99	38.41	-84.7	-88.6	2.6	7.65e-01	0	47	104	0	60	1048572
2026-01-18 02:59:26.96	338.58	38.51	-85.2	-88.6	3.0	7.63e-01	0	47	104	0	60	1048575
2026-01-18 02:59:27.97	338.16	38.60	-84.7	-88.6	3.4	7.59e-01	0	47	104	0	60	1048575
2026-01-18 02:59:28.98	337.74	38.69	-83.9	-88.6	3.6	7.63e-01	0	47	104	0	60	1048575
2026-01-18 02:59:29.99	337.32	38.78	-85.2	-88.6	2.7	7.64e-01	0	47	104	0	60	1048575
2026-01-18 02:59:31.00	336.89	38.87	-85.2	-88.6	2.9	7.64e-01	0	47	104	0	60	1048571
2026-01-18 02:59:32.00	336.47	38.96	-85.2	-88.6	3.2	7.63e-01	0	47	104	0	60	1048572
2026-01-18 02:59:33.01	336.04	39.04	-85.2	-88.6	3.0	7.65e-01	0	47	104	0	60	1048571
2026-01-18 02:59:34.02	335.61	39.13	-85.2	-88.6	2.9	7.63e-01	0	47	104	0	60	1048575
2026-01-18 02:59:35.03	335.17	39.21	-84.7	-88.6	3.5	7.64e-01	0	47	104	0	60	1048575
2026-01-18 02:59:36.03	334.74	39.29	-85.2	-88.6	3.0	7.63e-01	0	47	104	0	60	1048571
2026-01-18 02:59:37.03	334.31	39.37	-85.2	-88.6	2.8	7.64e-01	0	47	104	0	60	1048575
2026-01-18 02:59:38.04	333.87	39.44	-85.2	-88.6	3.6	7.62e-01	0	47	104	0	60	1048575
2026-01-18 02:59:39.05	333.43	39.52	-85.2	-88.6	3.4	7.64e-01	0	47	104	0	60	1048573
2026-01-18 02:59:40.05	332.99	39.59	-84.7	-88.6	3.2	7.63e-01	0	47	104	0	60	1048574
2026-01-18 02:59:41.06	332.54	39.66	-85.2	-88.6	3.0	7.63e-01	0	47	104	0	60	1048575
2026-01-18 02:59:42.07	332.09	39.73	-85.2	-88.6	3.7	7.64e-01	0	47	104	0	60	1048575
2026-01-18 02:59:43.08	331.64	39.80	-85.2	-88.6	3.7	7.61e-01	0	47	104	0	60	1048574
2026-01-18 02:59:44.08	331.19	39.87	-85.2	-88.6	3.1	7.65e-01	0	47	104	0	60	1048574
2026-01-18 02:59:45.09	330.74	39.93	-84.7	-88.6	3.0	7.64e-01	0	47	104	0	60	1048575
2026-01-18 02:59:46.10	330.28	39.99	-84.7	-88.6	3.5	7.64e-01	0	47	104	0	60	1048574
2026-01-18 02:59:47.11	329.82	40.06	-85.2	-88.6	3.0	7.63e-01	0	47	104	0	60	1048574
2026-01-18 02:59:48.11	329.37	40.11	-85.2	-88.6	3.5	7.63e-01	0	47	104	0	60	1048567
2026-01-18 02:59:49.12	328.91	40.17	-85.2	-88.6	3.4	7.62e-01	0	47	104	0	60	1048574
2026-01-18 02:59:50.13	328.45	40.22	-85.2	-88.6	3.1	7.63e-01	0	47	104	0	60	1048575
2026-01-18 02:59:51.14	327.98	40.28	-85.2	-88.6	2.7	7.63e-01	0	47	104	0	60	1048570
2026-01-18 02:59:52.14	327.52	40.33	-85.2	-88.6	3.0	7.65e-01	0	47	104	0	60	1048572
2026-01-18 02:59:53.15	327.05	40.37	-85.2	-88.6	3.7	7.64e-01	0	47	104	0	60	1048573
2026-01-18 02:59:54.15	326.59	40.42	-85.2	-88.6	2.9	7.64e-01	0	47	104	0	60	1048569
2026-01-18 02:59:55.16	326.12	40.46	-84.7	-88.6	3.0	7.64e-01	0	47	104	0	60	1048573
2026-01-18 02:59:56.17	325.65	40.51	-85.2	-88.6	3.7	7.61e-01	0	47	104	0	60	1048573
2026-01-18 02:59:57.18	325.18	40.55	-84.7	-88.6	3.2	7.63e-01	0	47	104	0	60	1048571
2026-01-18 02:59:58.18	324.71	40.58	-85.2	-88.6	3.1	7.62e-01	0	47	104	0	60	1048572
2026-01-18 02:59:59.19	324.23	40.62	-85.2	-88.6	3.0	7.63e-01	0	47	104	0	60	1048575
2026-01-18 03:00:00.20	323.76	40.65	-85.2	-88.6	3.6	7.63e-01	0	47	104	0	60	1048571
2026-01-18 03:00:01.21	323.28	40.68	-85.2	-88.6	3.0	7.64e-01	0	47	104	0	60	1048574
2026-01-18 03:00:02.21	322.81	40.71	-85.2	-88.6	3.3	7.63e-01	0	47	104	0	60	1048568
2026-01-18 03:00:03.22	322.33	40.74	-85.2	-88.6	3.6	7.61e-01	0	47	104	0	60	1048574
2026-01-18 03:00:04.22	321.86	40.76	-85.2	-88.6	3.1	7.64e-01	0	47	104	0	60	1048573
2026-01-18 03:00:05.23	321.38	40.78	-85.2	-88.6	3.0	7.63e-01	0	47	104	0	60	1048572
2026-01-18 03:00:06.24	320.90	40.80	-85.2	-88.6	3.6	7.62e-01	0	47	104	0	60	1048567
2026-01-18 03:00:07.25	320.42	40.82	-85.2	-88.6	3.2	7.63e-01	0	47	104	0	60	1048570
2026-01-18 03:00:08.26	319.93	40.84	-84.7	-88.6	3.1	7.63e-01	0	47	104	0	60	1048569
2026-01-18 03:00:09.27	319.45	40.85	-84.7	-88.6	3.6	7.64e-01	0	47	104	0	60	1048573
2026-01-18 03:00:10.27	318.97	40.86	-85.2	-88.6	2.9	7.64e-01	0	47	104	0	60	1048575
2026-01-18 03:00:11.28	318.49	40.87	-85.2	-88.6	3.2	7.63e-01	0	47	104	0	60	1048574
2026-01-18 03:00:12.28	318.01	40.87	-85.2	-88.6	3.5	7.64e-01	0	47	104	0	60	1048574
2026-01-18 03:00:13.29	317.53	40.88	-84.7	-88.6	3.4	7.63e-01	0	47	104	0	60	1048571
2026-01-18 03:00:14.30	317.05	40.88	-84.7	-88.6	3.3	7.63e-01	0	47	104	0	60	1048574
2026-01-18 03:00:15.31	316.57	40.88	-85.2	-88.6	3.0	7.64e-01	0	47	104	0	60	1048570
2026-01-18 03:00:16.31	316.09	40.88	-85.2	-88.6	3.1	7.64e-01	0	47	104	0	60	1048569
2026-01-18 03:00:17.32	315.61	40.87	-85.2	-88.6	3.6	7.63e-01	0	47	104	0	60	1048574
2026-01-18 03:00:18.32	315.13	40.86	-85.2	-88.6	3.1	7.65e-01	0	47	104	0	60	1048575
2026-01-18 03:00:19.33	314.65	40.85	-85.2	-88.6	3.4	7.61e-01	0	47	104	0	60	1048574
2026-01-18 03:00:20.33	314.17	40.84	-85.2	-88.6	3.6	7.63e-01	0	47	104	0	60	1048575
2026-01-18 03:00:21.34	313.69	40.83	-85.2	-88.6	3.1	7.63e-01	0	47	104	0	60	1048573
2026-01-18 03:00:22.34	313.21	40.81	-85.2	-88.6	2.9	7.63e-01	0	47	104	0	60	1048573
2026-01-18 03:00:23.34	312.73	40.79	-84.7	-88.6	3.0	7.64e-01	0	47	104	0	60	1048575
2026-01-18 03:00:24.35	312.25	40.77	-85.2	-88.6	3.5	7.64e-01	0	47	104	0	60	1048575
2026-01-18 03:00:25.36	311.78	40.74	-85.2	-88.6	3.0	7.63e-01	0	47	104	0	60	1048575
2026-01-18 03:00:26.37	311.30	40.72	-85.2	-88.6	3.1	7.63e-01	0	47	104	0	60	1048573
2026-01-18 03:00:27.37	310.82	40.69	-85.2	-88.6	2.8	7.64e-01	0	47	104	0	60	1048574
2026-01-18 03:00:28.38	310.35	40.66	-85.2	-88.6	2.8	7.64e-01	0	47	104	0	60	1048575
2026-01-18 03:00:29.38	309.88	40.63	-85.2	-88.6	2.9	7.62e-01	0	47	104	0	60	1048573
2026-01-18 03:00:30.39	309.40	40.59	-85.2	-88.6	2.9	7.63e-01	0	47	104	0	60	1048567
2026-01-18 03:00:31.39	308.93	40.56	-85.2	-88.6	3.2	7.64e-01	0	47	104	0	60	1048575
2026-01-18 03:00:32.40	308.46	40.52	-85.2	-88.6	3.5	7.64e-01	0	47	104	0	60	1048572
2026-01-18 03:00:33.40	307.99	40.48	-84.7	-88.6	3.4	7.64e-01	0	47	104	0	60	1048575
2026-01-18 03:00:34.41	307.52	40.43	-84.7	-88.6	3.0	7.61e-01	0	47	104	0	60	1048566
2026-01-18 03:00:35.41	307.06	40.39	-85.2	-88.6	3.0	7.61e-01	0	47	104	0	60	1048575
2026-01-18 03:00:36.42	306.59	40.34	-85.2	-88.6	3.1	7.62e-01	0	47	104	0	60	1048569
2026-01-18 03:00:37.42	306.13	40.29	-85.2	-88.6	2.7	7.65e-01	0	47	104	0	60	1048571
2026-01-18 03:00:38.43	305.66	40.24	-85.2	-88.6	3.6	7.64e-01	0	47	104	0	60	1048575
2026-01-18 03:00:39.43	305.20	40.19	-84.7	-88.6	3.0	7.62e-01	0	47	104	0	60	1048575
2026-01-18 03:00:40.44	304.74	40.13	-85.2	-88.6	2.9	7.65e-01	0	47	104	0	60	1048574
2026-01-18 03:00:41.44	304.29	40.07	-85.2	-88.6	2.7	7.64e-01	0	47	104	0	60	1048575
2026-01-18 03:00:42.44	303.83	40.01	-85.2	-88.6	3.3	7.63e-01	0	47	104	0	60	1048575
2026-01-18 03:00:43.44	303.38	39.95	-85.2	-88.6	2.9	7.64e-01	0	47	104	0	60	1048574
2026-01-18 03:00:44.45	302.92	39.89	-85.2	-88.6	3.2	7.63e-01	0	47	104	0	60	1048575
2026-01-18 03:00:45.46	302.47	39.82	-85.2	-88.6	3.5	7.63e-01	0	47	104	0	60	1048575
2026-01-18 03:00:46.47	302.02	39.76	-84.7	-88.6	3.0	7.64e-01	0	47	104	0	60	1048574
2026-01-18 03:00:47.47	301.57	39.69	-85.2	-88.6	3.4	7.63e-01	0	47	104	0	60	1048571
2026-01-18 03:00:48.48	301.13	39.61	-85.2	-88.6	3.2	7.64e-01	0	47	104	0	60	1048574
2026-01-18 03:00:49.48	300.68	39.54	-85.2	-88.6	3.0	7.63e-01	0	47	104	0	60	1048568
2026-01-18 03:00:50.49	300.24	39.47	-85.2	-88.6	3.0	7.62e-01	0	47	104	0	60	1048575
2026-01-18 03:00:51.50	299.80	39.39	-84.7	-88.6	3.0	7.63e-01	0	47	104	0	60	1048571
2026-01-18 03:00:52.50	299.36	39.31	-85.2	-88.6	3.4	7.63e-01	0	47	104	0	60	1048572
2026-01-18 03:00:53.51	298.93	39.23	-85.2	-88.6	3.2	7.65e-01	0	47	104	0	60	1048572
2026-01-18 03:00:54.51	298.50	39.15	-85.2	-88.6	2.8	7.62e-01	0	47	104	0	60	1048574
2026-01-18 03:00:55.52	298.06	39.07	-84.7	-88.6	3.5	7.65e-01	0	47	104	0	60	1048575
2026-01-18 03:00:56.53	297.63	38.98	-85.2	-88.6	3.0	7.65e-01	0	47	104	0	60	1048575
2026-01-18 03:00:57.53	297.21	38.90	-85.2	-88.6	3.0	7.64e-01	0	47	104	0	60	1048575
2026-01-18 03:00:58.54	296.78	38.81	-85.2	-88.6	3.5	7.63e-01	0	47	104	0	60	1048575
2026-01-18 03:00:59.55	296.36	38.72	-85.2	-88.6	3.1	7.63e-01	0	47	104	0	60	1048574
2026-01-18 03:01:00.55	295.94	38.63	-85.2	-88.6	2.9	7.62e-01	0	47	104	0	60	1048575
2026-01-18 03:01:01.56	295.52	38.53	-85.2	-88.6	3.6	7.62e-01	0	47	104	0	60	1048568
2026-01-18 03:01:02.57	295.10	38.44	-85.2	-88.6	3.4	7.64e-01	0	47	104	0	60	1048572
2026-01-18 03:01:03.57	294.69	38.34	-85.2	-88.6	3.2	7.62e-01	0	47	104	0	60	1048572
2026-01-18 03:01:04.58	294.28	38.25	-85.2	-88.6	3.1	7.63e-01	0	47	104	0	60	1048575
2026-01-18 03:01:05.59	293.87	38.15	-85.2	-88.6	3.1	7.63e-01	0	47	104	0	60	1048575
2026-01-18 03:01:06.60	293.47	38.05	-85.2	-88.6	3.6	7.64e-01	0	47	104	0	60	1048573
2026-01-18 03:01:07.60	293.07	37.95	-85.2	-88.6	3.5	7.62e-01	0	47	104	0	60	1048574
2026-01-18 03:01:08.61	292.66	37.85	-85.2	-88.6	3.7	7.65e-01	0	47	104	0	60	1048567
2026-01-18 03:01:09.62	292.26	37.74	-85.2	-88.6	2.8	7.63e-01	0	47	104	0	60	1048570
2026-01-18 03:01:10.62	291.87	37.64	-85.2	-88.6	2.9	7.63e-01	0	47	104	0	60	1048570
2026-01-18 03:01:11.63	291.48	37.53	-85.2	-88.6	3.4	7.62e-01	0	47	104	0	60	1048574
2026-01-18 03:01:12.63	291.09	37.42	-85.2	-88.6	3.1	7.63e-01	0	47	104	0	60	1048574
2026-01-18 03:01:13.64	290.70	37.31	-85.2	-88.6	3.2	7.65e-01	0	47	104	0	60	1048574
2026-01-18 03:01:14.64	290.32	37.21	-85.2	-88.6	3.0	7.63e-01	0	47	104	0	60	1048570
2026-01-18 03:01:15.65	289.93	37.09	-84.7	-88.6	3.4	7.63e-01	0	47	104	0	60	1048575
2026-01-18 03:01:16.66	289.55	36.98	-85.2	-88.6	3.4	7.63e-01	0	47	104	0	60	1048575
2026-01-18 03:01:17.67	289.17	36.87	-85.2	-88.6	3.1	7.63e-01	0	47	104	0	60	1048575
2026-01-18 03:01:18.67	288.80	36.76	-85.2	-88.6	2.8	7.62e-01	0	47	104	0	60	1048575
2026-01-18 03:01:19.68	288.43	36.64	-85.2	-88.6	3.7	7.65e-01	0	47	104	0	60	1048574
2026-01-18 03:01:20.69	288.06	36.52	-85.2	-88.6	2.9	7.63e-01	0	47	104	0	60	1048572
2026-01-18 03:01:21.70	287.69	36.41	-85.2	-88.6	2.8	7.63e-01	0	47	104	0	60	1048570
2026-01-18 03:01:22.71	287.33	36.29	-85.2	-88.6	3.2	7.63e-01	0	47	104	0	60	1048572
2026-01-18 03:01:23.72	286.96	36.17	-85.2	-88.6	3.2	7.62e-01	0	47	104	0	60	1048572
2026-01-18 03:01:24.72	286.61	36.05	-84.7	-88.6	2.9	7.64e-01	0	47	104	0	60	1048574
2026-01-18 03:01:25.73	286.25	35.93	-85.2	-88.6	3.7	7.61e-01	0	47	104	0	60	1048574
2026-01-18 03:01:26.73	285.90	35.81	-85.2	-88.6	3.2	7.62e-01	0	47	104	0	60	1048575
2026-01-18 03:01:27.73	285.55	35.69	-85.2	-88.6	2.7	7.64e-01	0	47	104	0	60	1048573
2026-01-18 03:01:28.74	285.20	35.57	-85.2	-88.6	3.4	7.64e-01	0	47	104	0	60	1048574
2026-01-18 03:01:29.75	284.85	35.44	-84.7	-88.6	3.6	7.63e-01	0	47	104	0	60	1048571
2026-01-18 03:01:30.76	284.51	35.32	-85.2	-88.6	3.0	7.63e-01	0	47	104	0	60	1048574
2026-01-18 03:01:31.76	284.17	35.19	-85.2	-88.6	3.1	7.62e-01	0	47	104	0	60	1048575
2026-01-18 03:01:32.77	283.83	35.07	-85.2	-88.6	3.8	7.63e-01	0	47	104	0	60	1048571
2026-01-18 03:01:33.77	283.50	34.94	-85.2	-88.6	3.2	7.63e-01	0	47	104	0	60	1048572
2026-01-18 03:01:34.78	283.17	34.82	-84.7	-88.6	3.2	7.63e-01	0	47	104	0	60	1048575
2026-01-18 03:01:35.79	282.83	34.69	-85.2	-88.6	3.6	7.63e-01	0	47	104	0	60	1048572
2026-01-18 03:01:36.80	282.51	34.56	-85.2	-88.6	2.9	7.64e-01	0	47	104	0	60	1048569
2026-01-18 03:01:37.81	282.18	34.43	-85.2	-88.6	2.9	7.63e-01	0	47	104	0	60	1048568
2026-01-18 03:01:38.81	281.86	34.30	-85.2	-88.6	3.4	7.63e-01	0	47	104	0	60	1048570
2026-01-18 03:01:39.82	281.54	34.17	-85.2	-88.6	2.7	7.63e-01	0	47	104	0	60	1048575
2026-01-18 03:01:40.83	281.22	34.04	-85.2	-88.6	3.0	7.63e-01	0	47	104	0	60	1048574
2026-01-18 03:01:41.83	280.91	33.91	-85.2	-88.6	2.9	7.63e-01	0	47	104	0	60	1048573
2026-01-18 03:01:42.84	280.60	33.78	-85.2	-88.6	3.6	7.64e-01	0	47	104	0	60	1048574
2026-01-18 03:01:43.85	280.29	33.65	-85.2	-88.6	3.1	7.61e-01	0	47	104	0	60	1048572
2026-01-18 03:01:44.85	279.98	33.52	-85.2	-88.6	2.8	7.63e-01	0	47	104	0	60	1048561
2026-01-18 03:01:45.86	279.67	33.39	-85.2	-88.6	3.4	7.62e-01	0	47	104	0	60	1048575
2026-01-18 03:01:46.87	279.37	33.26	-85.2	-88.6	3.4	7.62e-01	0	47	104	0	60	1048571
2026-01-18 03:01:47.87	279.07	33.12	-84.7	-88.6	3.1	7.64e-01	0	47	104	0	60	1048571
2026-01-18 03:01:48.88	278.78	32.99	-85.2	-88.6	3.4	7.63e-01	0	47	104	0	60	1048574
2026-01-18 03:01:49.89	278.48	32.86	-85.2	-88.6	3.2	7.64e-01	0	47	104	0	60	1048575
2026-01-18 03:01:50.90	278.19	32.72	-85.2	-88.6	3.1	7.63e-01	0	47	104	0	60	1048574
2026-01-18 03:01:51.90	277.90	32.59	-85.2	-88.6	2.8	7.63e-01	0	47	104	0	60	1048575
2026-01-18 03:01:52.91	277.61	32.46	-84.7	-88.6	3.7	7.65e-01	0	47	104	0	60	1048575
2026-01-18 03:01:53.92	277.32	32.32	-84.7	-88.6	3.3	7.63e-01	0	47	104	0	60	1048569
2026-01-18 03:01:54.93	277.04	32.19	-85.2	-88.6	3.2	7.63e-01	0	47	104	0	60	1048574
2026-01-18 03:01:55.94	276.76	32.05	-85.2	-88.6	3.9	7.64e-01	0	47	104	0	60	1048573
2026-01-18 03:01:56.95	276.48	31.92	-85.2	-88.6	3.0	7.64e-01	0	47	104	0	60	1048574
2026-01-18 03:01:57.95	276.21	31.78	-84.7	-88.6	3.3	7.62e-01	0	47	104	0	60	1048575
2026-01-18 03:01:58.95	275.93	31.65	-84.7	-88.6	3.5	7.63e-01	0	47	104	0	60	1048575
2026-01-18 03:01:59.95	275.67	31.52	-85.2	-88.6	3.5	7.63e-01	0	47	104	0	60	1048574
2026-01-18 03:02:00.96	275.40	31.38	-84.7	-88.6	3.3	7.63e-01	0	47	104	0	60	1048573
2026-01-18 03:02:01.97	275.13	31.24	-85.2	-88.6	3.3	7.62e-01	0	47	104	0	60	1048575
2026-01-18 03:02:02.98	274.86	31.11	-84.7	-88.6	3.1	7.63e-01	0	47	104	0	60	1048574
2026-01-18 03:02:03.99	274.60	30.97	-85.2	-88.6	3.5	7.62e-01	0	47	104	0	60	1048573
2026-01-18 03:02:04.99	274.34	30.84	-85.2	-88.6	3.5	7.63e-01	0	47	104	0	60	1048572
2026-01-18 03:02:06.00	274.08	30.70	-84.7	-88.6	3.1	7.65e-01	0	47	104	0	60	1048573
2026-01-18 03:02:07.01	273.83	30.57	-85.2	-88.6	3.2	7.63e-01	0	47	104	0	60	1048575
2026-01-18 03:02:08.01	273.57	30.43	-84.7	-88.6	2.9	7.64e-01	0	47	104	0	60	1048571
2026-01-18 03:02:09.02	273.32	30.30	-83.1	-88.6	3.7	7.63e-01	0	47	104	0	60	1048574
2026-01-18 03:02:10.03	273.07	30.16	-85.2	-88.6	3.5	7.61e-01	0	47	104	0	60	1048574
2026-01-18 03:02:11.04	272.82	30.02	-85.2	-88.6	2.8	7.64e-01	0	47	104	0	60	1048569
2026-01-18 03:02:12.05	272.58	29.89	-85.2	-88.6	2.8	7.64e-01	0	47	104	0	60	1048573
2026-01-18 03:02:13.05	272.34	29.75	-85.2	-88.6	3.6	7.64e-01	0	47	104	0	60	1048575
2026-01-18 03:02:14.06	272.10	29.62	-85.2	-88.6	3.2	7.64e-01	0	47	104	0	60	1048574
2026-01-18 03:02:15.07	271.86	29.48	-85.2	-88.6	3.5	7.64e-01	0	47	104	0	60	1048565
2026-01-18 03:02:16.07	271.62	29.35	-84.7	-88.6	2.9	7.63e-01	0	47	104	0	60	1048575
2026-01-18 03:02:17.08	271.38	29.21	-85.2	-88.6	3.1	7.64e-01	0	47	104	0	60	1048573
2026-01-18 03:02:18.08	271.15	29.08	-85.2	-88.6	3.7	7.63e-01	0	47	104	0	60	1048572
2026-01-18 03:02:19.09	270.92	28.94	-85.2	-88.6	3.3	7.63e-01	0	47	104	0	60	1048575
2026-01-18 03:02:20.10	270.69	28.81	-85.2	-88.6	3.2	7.64e-01	0	47	104	0	60	1048575
2026-01-18 03:02:21.11	270.46	28.67	-85.2	-88.6	3.0	7.63e-01	0	47	104	0	60	1048574
2026-01-18 03:02:22.12	270.24	28.54	-84.7	-88.6	2.9	7.63e-01	0	47	104	0	60	1048573
2026-01-18 03:02:23.13	270.01	28.41	-85.2	-88.6	3.0	7.63e-01	0	47	104	0	60	1048572
2026-01-18 03:02:24.13	269.79	28.27	-85.2	-88.6	3.1	7.65e-01	0	47	104	0	60	1048573
2026-01-18 03:02:25.14	269.57	28.14	-85.2	-88.6	3.1	7.63e-01	0	47	104	0	60	1048575
2026-01-18 03:02:26.15	269.36	28.00	-84.7	-88.6	3.0	7.64e-01	0	47	104	0	60	1048570
2026-01-18 03:02:27.15	269.14	27.87	-84.7	-88.6	3.0	7.63e-01	0	47	104	0	60	1048574
2026-01-18 03:02:28.16	268.93	27.74	-85.2	-88.6	2.9	7.64e-01	0	47	104	0	60	1048573
2026-01-18 03:02:29.16	268.72	27.60	-85.2	-88.6	3.6	7.64e-01	0	47	104	0	60	1048570
2026-01-18 03:02:30.17	268.50	27.47	-84.3	-88.6	2.8	7.63e-01	0	47	104	0	60	1048570
2026-01-18 03:02:31.18	268.30	27.34	-84.7	-88.6	3.0	7.62e-01	0	47	104	0	60	1048575
2026-01-18 03:02:32.18	268.09	27.21	-83.9	-88.6	3.1	7.64e-01	0	47	104	0	60	1048572
2026-01-18 03:02:33.19	267.88	27.07	-83.9	-88.6	2.6	7.62e-01	0	47	104	0	60	1048575
2026-01-18 03:02:34.19	267.68	26.94	-83.9	-88.6	3.3	7.63e-01	0	47	104	0	60	1048574
2026-01-18 03:02:35.20	267.48	26.81	-83.9	-88.6	3.0	7.62e-01	0	47	104	0	60	1048572
2026-01-18 03:02:36.21	267.28	26.68	-85.2	-88.6	3.0	7.63e-01	0	47	104	0	60	1048573
2026-01-18 03:02:37.21	267.08	26.55	-85.2	-88.6	2.9	7.61e-01	0	47	104	0	60	1048574
2026-01-18 03:02:38.22	266.88	26.42	-85.2	-88.6	3.4	7.63e-01	0	47	104	0	60	1048575
2026-01-18 03:02:39.23	266.69	26.29	-85.2	-88.6	2.9	7.63e-01	0	47	104	0	60	1048570
2026-01-18 03:02:40.23	266.50	26.16	-85.2	-88.6	3.3	7.64e-01	0	47	104	0	60	1048569
2026-01-18 03:02:41.24	266.30	26.03	-85.2	-88.6	3.7	7.63e-01	0	47	104	0	60	1048574
2026-01-18 03:02:42.25	266.11	25.90	-84.7	-88.6	2.9	7.62e-01	0	47	104	0	60	1048573
2026-01-18 03:02:43.26	265.92	25.76	-85.2	-88.6	3.1	7.60e-01	0	47	104	0	60	1048569
2026-01-18 03:02:44.27	265.74	25.64	-85.2	-88.6	3.2	7.63e-01	0	47	104	0	60	1048574
2026-01-18 03:02:45.28	265.55	25.51	-84.7	-88.6	3.2	7.64e-01	0	47	104	0	60	1048573
2026-01-18 03:02:46.28	265.37	25.38	-84.7	-88.6	3.1	7.64e-01	0	47	104	0	60	1048574
2026-01-18 03:02:47.29	265.18	25.25	-84.7	-88.6	3.0	7.63e-01	0	47	104	0	60	1048575
2026-01-18 03:02:48.30	265.00	25.12	-85.2	-88.6	3.1	7.63e-01	0	47	104	0	60	1048575
2026-01-18 03:02:49.31	264.82	24.99	-85.2	-88.6	3.4	7.64e-01	0	47	104	0	60	1048573
2026-01-18 03:02:50.32	264.64	24.86	-85.2	-88.6	3.1	7.63e-01	0	47	104	0	60	1048575
2026-01-18 03:02:51.33	264.46	24.74	-85.2	-88.6	2.9	7.64e-01	0	47	104	0	60	1048567
2026-01-18 03:02:52.33	264.29	24.61	-85.2	-88.6	3.2	7.63e-01	0	47	104	0	60	1048575
2026-01-18 03:02:53.34	264.12	24.48	-85.2	-88.6	3.0	7.64e-01	0	47	104	0	60	1048573
2026-01-18 03:02:54.35	263.94	24.36	-85.2	-88.6	3.3	7.64e-01	0	47	104	0	60	1048571
2026-01-18 03:02:55.35	263.77	24.23	-84.7	-88.6	3.3	7.63e-01	0	47	104	0	60	1048573
2026-01-18 03:02:56.36	263.60	24.10	-84.3	-88.6	2.6	7.63e-01	0	47	104	0	60	1048575
2026-01-18 03:02:57.36	263.44	23.98	-85.2	-88.6	2.8	7.64e-01	0	47	104	0	60	1048570
2026-01-18 03:02:58.37	263.27	23.86	-85.2	-88.6	3.7	7.65e-01	0	47	104	0	60	1048572
2026-01-18 03:02:59.37	263.10	23.73	-85.2	-88.6	3.2	7.63e-01	0	47	104	0	60	1048573
2026-01-18 03:03:00.38	262.94	23.61	-84.7	-88.6	3.0	7.64e-01	0	47	104	0	60	1048575
2026-01-18 03:03:01.39	262.78	23.48	-85.2	-88.6	3.2	7.64e-01	0	47	104	0	60	1048572
2026-01-18 03:03:02.39	262.62	23.36	-85.2	-88.6	3.7	7.63e-01	0	47	104	0	60	1048566
2026-01-18 03:03:03.39	262.46	23.24	-85.2	-88.6	3.2	7.64e-01	0	47	104	0	60	1048568
2026-01-18 03:03:04.40	262.30	23.11	-85.2	-88.6	3.4	7.62e-01	0	47	104	0	60	1048574
2026-01-18 03:03:05.41	262.14	22.99	-85.2	-88.6	3.4	7.63e-01	0	47	104	0	60	1048568
2026-01-18 03:03:06.41	261.98	22.87	-85.2	-88.6	2.9	7.63e-01	0	47	104	0	60	1048574
2026-01-18 03:03:07.42	261.83	22.75	-85.2	-88.6	3.0	7.64e-01	0	47	104	0	60	1048575
2026-01-18 03:03:08.42	261.67	22.63	-85.2	-88.6	3.5	7.63e-01	0	47	104	0	60	1048575
2026-01-18 03:03:09.43	261.52	22.50	-85.2	-88.6	3.4	7.63e-01	0	47	104	0	60	1048566
2026-01-18 03:03:10.43	261.37	22.38	-85.2	-88.6	3.1	7.62e-01	0	47	104	0	60	1048575
2026-01-18 03:03:11.44	261.22	22.26	-85.2	-88.6	2.7	7.64e-01	0	47	104	0	60	1048571
2026-01-18 03:03:12.45	261.07	22.14	-85.2	-88.6	3.3	7.63e-01	0	47	104	0	60	1048575
2026-01-18 03:03:13.45	260.92	22.02	-85.2	-88.6	3.1	7.64e-01	0	47	104	0	60	1048571
2026-01-18 03:03:14.46	260.77	21.90	-85.2	-88.6	3.0	7.63e-01	0	47	104	0	60	1048574
2026-01-18 03:03:15.47	260.63	21.78	-85.2	-88.6	3.1	7.63e-01	0	47	104	0	60	1048569
2026-01-18 03:03:16.48	260.48	21.66	-85.2	-88.6	3.7	7.62e-01	0	47	104	0	60	1048571
2026-01-18 03:03:17.48	260.34	21.55	-85.2	-88.6	3.2	7.62e-01	0	47	104	0	60	1048575
2026-01-18 03:03:18.49	260.20	21.43	-85.2	-88.6	3.2	7.64e-01	0	47	104	0	60	1048573
2026-01-18 03:03:19.50	260.06	21.31	-84.7	-88.6	3.0	7.63e-01	0	47	104	0	60	1048575
2026-01-18 03:03:20.51	259.91	21.19	-85.2	-88.6	3.0	7.63e-01	0	47	104	0	60	1048574
2026-01-18 03:03:21.52	259.78	21.08	-85.2	-88.6	2.8	7.63e-01	0	47	104	0	60	1048575
2026-01-18 03:03:22.53	259.64	20.96	-85.2	-88.6	3.0	7.63e-01	0	47	104	0	60	1048575
2026-01-18 03:03:23.53	259.50	20.84	-84.7	-88.6	3.1	7.61e-01	0	47	104	0	60	1048572
2026-01-18 03:03:24.54	259.36	20.73	-85.2	-88.6	3.6	7.63e-01	0	47	104	0	60	1048569
2026-01-18 03:03:25.54	259.23	20.61	-84.7	-88.6	3.4	7.63e-01	0	47	104	0	60	1048575
2026-01-18 03:03:26.54	259.10	20.50	-85.2	-88.6	3.0	7.64e-01	0	47	104	0	60	1048575
2026-01-18 03:03:27.54	258.96	20.38	-85.2	-88.6	3.2	7.64e-01	0	47	104	0	60	1048575
2026-01-18 03:03:28.55	258.83	20.27	-84.7	-88.6	2.9	7.64e-01	0	47	104	0	60	1048575
2026-01-18 03:03:29.55	258.70	20.16	-84.7	-88.6	3.7	7.64e-01	0	47	104	0	60	1048575
2026-01-18 03:03:30.56	258.57	20.04	-85.2	-88.6	3.0	7.64e-01	0	47	104	0	60	1048575
2026-01-18 03:03:31.57	258.44	19.93	-85.2	-88.6	2.7	7.62e-01	0	47	104	0	60	1048574
2026-01-18 03:03:32.58	258.31	19.81	-85.2	-88.6	3.1	7.64e-01	0	47	104	0	60	1048567
2026-01-18 03:03:33.59	258.19	19.70	-85.2	-88.6	3.2	7.63e-01	0	47	104	0	60	1048567
2026-01-18 03:03:34.60	258.06	19.59	-84.3	-88.6	3.5	7.64e-01	0	47	104	0	60	1048575
2026-01-18 03:03:35.60	257.94	19.48	-85.2	-88.6	3.0	7.63e-01	0	47	104	0	60	1048572
2026-01-18 03:03:36.61	257.81	19.37	-85.2	-88.6	3.1	7.64e-01	0	47	104	0	60	1048572
2026-01-18 03:03:37.62	257.69	19.25	-85.2	-88.6	3.1	7.64e-01	0	47	104	0	60	1048575
2026-01-18 03:03:38.63	257.56	19.14	-84.7	-88.6	3.1	7.63e-01	0	47	104	0	60	1048573
2026-01-18 03:03:39.64	257.44	19.03	-85.2	-88.6	3.6	7.62e-01	0	47	104	0	60	1048574
2026-01-18 03:03:40.64	257.32	18.92	-85.2	-88.6	3.2	7.65e-01	0	47	104	0	60	1048572
2026-01-18 03:03:41.65	257.20	18.81	-85.2	-88.6	3.0	7.64e-01	0	47	104	0	60	1048574
2026-01-18 03:03:42.66	257.08	18.70	-85.2	-88.6	3.2	7.63e-01	0	47	104	0	60	1048575
2026-01-18 03:03:43.67	256.97	18.59	-84.7	-88.6	3.4	7.62e-01	0	47	104	0	60	1048574
2026-01-18 03:03:44.68	256.85	18.48	-84.7	-88.6	2.8	7.64e-01	0	47	104	0	60	1048575
2026-01-18 03:03:45.68	256.73	18.38	-85.2	-88.6	3.0	7.63e-01	0	47	104	0	60	1048574
2026-01-18 03:03:46.69	256.62	18.27	-85.2	-88.6	3.0	7.64e-01	0	47	104	0	60	1048572
2026-01-18 03:03:47.70	256.50	18.16	-85.2	-88.6	3.1	7.63e-01	0	47	104	0	60	1048573
2026-01-18 03:03:48.71	256.39	18.05	-85.2	-88.6	3.2	7.63e-01	0	47	104	0	60	1048573
2026-01-18 03:03:49.71	256.28	17.95	-85.2	-88.6	3.7	7.63e-01	0	47	104	0	60	1048574
2026-01-18 03:03:50.72	256.16	17.84	-85.2	-88.6	3.6	7.64e-01	0	47	104	0	60	1048575
2026-01-18 03:03:51.73	256.05	17.73	-85.2	-88.6	3.1	7.63e-01	0	47	104	0	60	1048574
2026-01-18 03:03:52.74	255.94	17.63	-85.2	-88.6	3.4	7.64e-01	0	47	104	0	60	1048573
2026-01-18 03:03:53.75	255.83	17.52	-85.2	-88.6	3.7	7.63e-01	0	47	104	0	60	1048575
2026-01-18 03:03:54.75	255.72	17.42	-84.7	-88.6	3.8	7.63e-01	0	47	104	0	60	1048573
2026-01-18 03:03:55.76	255.61	17.31	-85.2	-88.6	3.2	7.63e-01	0	47	104	0	60	1048575
2026-01-18 03:03:56.77	255.51	17.21	-84.7	-88.6	3.3	7.63e-01	0	47	104	0	60	1048572
2026-01-18 03:03:57.77	255.40	17.10	-84.7	-88.6	3.4	7.63e-01	0	47	104	0	60	1048575
2026-01-18 03:03:58.78	255.29	17.00	-85.2	-88.6	3.0	7.63e-01	0	47	104	0	60	1048574
2026-01-18 03:03:59.78	255.19	16.89	-84.3	-88.6	2.9	7.64e-01	0	47	104	0	60	1048568
2026-01-18 03:04:00.79	255.09	16.79	-84.7	-88.6	3.5	7.63e-01	0	47	104	0	60	1048575
2026-01-18 03:04:01.79	254.98	16.69	-84.7	-88.6	3.0	7.65e-01	0	47	104	0	60	1048575
2026-01-18 03:04:02.80	254.88	16.59	-85.2	-88.6	3.1	7.64e-01	0	47	104	0	60	1048575
2026-01-18 03:04:03.81	254.78	16.48	-85.2	-88.6	3.4	7.63e-01	0	47	104	0	60	1048569
2026-01-18 03:04:04.81	254.68	16.38	-85.2	-88.6	3.2	7.64e-01	0	47	104	0	60	1048567
2026-01-18 03:04:05.82	254.58	16.28	-85.2	-88.6	3.1	7.64e-01	0	47	104	0	60	1048573
2026-01-18 03:04:06.83	254.47	16.18	-85.2	-88.6	2.9	7.65e-01	0	47	104	0	60	1048575
2026-01-18 03:04:07.84	254.37	16.08	-85.2	-88.6	3.1	7.64e-01	0	47	104	0	60	1048572
2026-01-18 03:04:08.85	254.28	15.98	-85.2	-88.6	2.9	7.63e-01	0	47	104	0	60	1048575
2026-01-18 03:04:09.86	254.18	15.88	-85.2	-88.6	3.1	7.62e-01	0	47	104	0	60	1048574
2026-01-18 03:04:10.87	254.08	15.78	-85.2	-88.6	2.8	7.63e-01	0	47	104	0	60	1048572
2026-01-18 03:04:11.87	253.98	15.68	-84.7	-88.6	3.3	7.63e-01	0	47	104	0	60	1048575
2026-01-18 03:04:12.88	253.89	15.58	-85.2	-88.6	3.0	7.64e-01	0	47	104	0	60	1048575
2026-01-18 03:04:13.88	253.79	15.48	-85.2	-88.6	2.9	7.64e-01	0	47	104	0	60	1048573
2026-01-18 03:04:14.89	253.70	15.38	-85.2	-88.6	2.8	7.65e-01	0	47	104	0	60	1048575
2026-01-18 03:04:15.89	253.60	15.28	-85.2	-88.6	3.6	7.64e-01	0	47	104	0	60	1048575
2026-01-18 03:04:16.90	253.51	15.18	-85.2	-88.6	3.2	7.60e-01	0	47	104	0	60	1048575
2026-01-18 03:04:17.90	253.42	15.09	-85.2	-88.6	3.2	7.65e-01	0	47	104	0	60	1048574
2026-01-18 03:04:18.91	253.33	14.99	-85.2	-88.6	3.1	7.64e-01	0	47	104	0	60	1048575
2026-01-18 03:04:19.92	253.23	14.89	-85.2	-88.6	3.3	7.64e-01	0	47	104	0	60	1048572
2026-01-18 03:04:20.93	253.14	14.80	-85.2	-88.6	3.5	7.64e-01	0	47	104	0	60	1048568
2026-01-18 03:04:21.93	253.05	14.70	-85.2	-88.6	3.1	7.64e-01	0	47	104	0	60	1048574
2026-01-18 03:04:22.94	252.96	14.60	-85.2	-88.6	3.0	7.62e-01	0	48	104	0	60	1048573
2026-01-18 03:04:23.95	252.87	14.51	-85.2	-88.6	3.8	7.64e-01	0	47	104	0	60	1048574
2026-01-18 03:04:24.96	252.78	14.41	-85.2	-88.6	3.4	7.64e-01	0	47	104	0	60	1048574
2026-01-18 03:04:25.97	252.70	14.32	-84.7	-88.6	3.1	7.63e-01	0	47	104	0	60	1048574
2026-01-18 03:04:26.97	252.61	14.22	-85.2	-88.6	3.0	7.63e-01	0	47	104	0	60	1048574
2026-01-18 03:04:27.98	252.52	14.13	-85.2	-88.6	3.1	7.63e-01	0	47	104	0	60	1048575
2026-01-18 03:04:28.97	252.44	14.03	-84.7	-88.6	3.4	7.63e-01	0	47	104	0	60	1048574
2026-01-18 03:04:29.97	252.35	13.94	-85.2	-88.6	3.6	7.63e-01	0	47	104	0	60	1048571
2026-01-18 03:04:30.98	252.27	13.85	-85.2	-88.6	2.9	7.64e-01	0	47	104	0	60	1048574
2026-01-18 03:04:31.99	252.18	13.75	-85.2	-88.6	2.9	7.62e-01	0	47	104	0	60	1048572
2026-01-18 03:04:33.00	252.10	13.66	-85.2	-88.6	3.3	7.64e-01	0	47	104	0	60	1048575
2026-01-18 03:04:34.00	252.02	13.57	-85.2	-88.6	3.6	7.64e-01	0	47	104	0	60	1048574
2026-01-18 03:04:35.00	251.93	13.47	-85.2	-88.6	3.4	7.65e-01	0	47	104	0	60	1048573
2026-01-18 03:04:36.01	251.85	13.38	-84.7	-88.6	2.8	7.63e-01	0	47	104	0	60	1048574
2026-01-18 03:04:37.02	251.77	13.29	-85.2	-88.6	3.1	7.63e-01	0	47	104	0	60	1048574
2026-01-18 03:04:38.03	251.69	13.20	-85.2	-88.6	3.0	7.62e-01	0	47	104	0	60	1048575
2026-01-18 03:04:39.04	251.61	13.11	-85.2	-88.6	3.9	7.63e-01	0	47	104	0	60	1048572
2026-01-18 03:04:40.05	251.52	13.01	-85.2	-88.6	3.4	7.63e-01	0	47	104	0	60	1048574
2026-01-18 03:04:41.05	251.45	12.92	-83.5	-88.6	3.4	7.62e-01	0	47	104	0	60	1048575
2026-01-18 03:04:42.06	251.37	12.83	-85.2	-88.6	2.8	7.60e-01	0	47	104	0	60	1048574
2026-01-18 03:04:43.07	251.29	12.74	-85.2	-88.6	3.0	7.63e-01	0	47	104	0	60	1048575
2026-01-18 03:04:44.08	251.21	12.65	-85.2	-88.6	2.9	7.63e-01	0	47	104	0	60	1048575
2026-01-18 03:04:45.08	251.13	12.56	-85.2	-88.6	2.9	7.63e-01	0	47	104	0	60	1048574
2026-01-18 03:04:46.09	251.05	12.47	-85.2	-88.6	2.9	7.64e-01	0	47	104	0	60	1048574
2026-01-18 03:04:47.10	250.98	12.38	-85.2	-88.6	3.6	7.64e-01	0	47	104	0	60	1048574
2026-01-18 03:04:48.10	250.90	12.30	-85.2	-88.6	2.7	7.63e-01	0	47	104	0	60	1048575
2026-01-18 03:04:49.11	250.82	12.21	-85.2	-88.6	3.1	7.62e-01	0	47	104	0	60	1048571
2026-01-18 03:04:50.11	250.75	12.12	-85.2	-88.6	3.0	7.63e-01	0	47	104	0	60	1048573
2026-01-18 03:04:51.11	250.68	12.03	-85.2	-88.6	3.1	7.64e-01	0	47	104	0	60	1048573
2026-01-18 03:04:52.12	250.60	11.94	-85.2	-88.6	3.6	7.63e-01	0	47	104	0	60	1048573
2026-01-18 03:04:53.13	250.53	11.86	-85.2	-88.6	3.1	7.64e-01	0	47	104	0	60	1048573
2026-01-18 03:04:54.14	250.45	11.77	-84.7	-88.6	3.0	7.62e-01	0	47	104	0	60	1048575
2026-01-18 03:04:55.15	250.38	11.68	-84.7	-88.6	3.0	7.64e-01	0	47	104	0	60	1048574
2026-01-18 03:04:56.16	250.31	11.59	-85.2	-88.6	3.4	7.64e-01	0	47	104	0	60	1048574
