passes_logs/2026/01/18/R3.2S-Naryan-Mar/R3.2S-Naryan-Mar__20260118_065042_SUOMI_NPP_rec.log

#Pass ID: 20260118_065042_SUOMI NPP
#Satellite: SUOMI NPP
#Configuration: NPP
#almurnet v.1.7.20240730
#Start time: 2026-01-18 06:54:36

#Version: 2.2.20231116
#Station: R3.2S-Naryan-Mar
#Location: 53.008057 lon 67.646978 lat
#TLE: 1 37849U 11061A   26017.28905266  .00000074  00000+0  55894-4 0  9999
#TLE: 2 37849  98.7814 319.3179 0002408  59.7048 300.4366 14.19525847737038

#Time	Az	El	Level	Level2	SNR	BER	BlckErr	Temp	State	Recorded	gain1	gain2
2026-01-18 06:54:36.96	103.78	18.23	-83.5	-79.0	2.4	0.00e+00	0	48	0	0	60	1048569
2026-01-18 06:54:37.96	103.67	18.33	-85.2	-88.6	2.9	1.56e+00	0	49	104	0	60	1048575
2026-01-18 06:54:38.97	103.55	18.44	-85.2	-88.6	2.9	1.56e+00	0	49	104	0	60	1048574
2026-01-18 06:54:39.98	103.43	18.55	-84.7	-88.6	3.1	1.55e+00	0	49	104	0	60	1048575
2026-01-18 06:54:40.99	103.31	18.66	-85.2	-88.6	3.1	1.56e+00	0	49	104	0	60	1048573
2026-01-18 06:54:42.00	103.19	18.77	-85.2	-88.6	2.9	1.56e+00	0	48	104	0	60	1048572
2026-01-18 06:54:43.00	103.07	18.88	-85.2	-88.6	3.0	1.56e+00	0	48	104	0	60	1048575
2026-01-18 06:54:44.01	102.95	18.99	-85.2	-88.6	2.9	1.56e+00	0	48	104	0	60	1048575
2026-01-18 06:54:45.01	102.83	19.10	-85.2	-88.6	3.1	1.55e+00	0	48	104	0	60	1048575
2026-01-18 06:54:46.02	102.71	19.21	-85.2	-88.6	3.1	1.55e+00	0	48	104	0	60	1048575
2026-01-18 06:54:47.03	102.58	19.32	-85.2	-88.6	2.9	1.56e+00	0	48	104	0	60	1048575
2026-01-18 06:54:48.04	102.46	19.43	-85.2	-88.6	2.9	1.55e+00	0	48	104	0	60	1048571
2026-01-18 06:54:49.05	102.33	19.54	-84.3	-88.6	2.7	1.56e+00	0	48	104	0	60	1048573
2026-01-18 06:54:50.05	102.21	19.65	-85.2	-88.6	3.0	1.55e+00	0	48	104	0	60	1048575
2026-01-18 06:54:51.06	102.08	19.77	-85.2	-88.6	2.9	1.56e+00	0	48	104	0	60	1048573
2026-01-18 06:54:52.07	101.95	19.88	-85.2	-88.6	3.1	1.56e+00	0	48	104	0	60	1048575
2026-01-18 06:54:53.08	101.82	19.99	-85.2	-88.6	3.2	1.56e+00	0	48	104	0	60	1048574
2026-01-18 06:54:54.08	101.69	20.10	-85.2	-88.6	2.6	1.55e+00	0	48	104	0	60	1048575
2026-01-18 06:54:55.09	101.56	20.22	-85.2	-88.6	3.1	1.56e+00	0	48	104	0	60	1048571
2026-01-18 06:54:56.10	101.43	20.33	-85.2	-88.6	2.9	1.56e+00	0	48	104	0	60	1048574
2026-01-18 06:54:57.11	101.29	20.45	-85.2	-88.6	3.0	1.56e+00	0	48	104	0	60	1048575
2026-01-18 06:54:58.12	101.16	20.56	-85.2	-88.6	2.9	1.55e+00	0	48	104	0	60	1048575
2026-01-18 06:54:59.12	101.02	20.68	-85.2	-88.6	3.1	1.55e+00	0	48	104	0	60	1048575
2026-01-18 06:55:00.13	100.89	20.79	-84.7	-88.6	3.1	1.56e+00	0	48	104	0	60	1048575
2026-01-18 06:55:01.14	100.75	20.91	-85.2	-88.6	3.1	1.56e+00	0	48	104	0	60	1048574
2026-01-18 06:55:02.14	100.61	21.02	-85.2	-88.6	2.8	1.56e+00	0	48	104	0	60	1048570
2026-01-18 06:55:03.15	100.47	21.14	-85.2	-88.6	3.1	1.55e+00	0	48	104	0	60	1048575
2026-01-18 06:55:04.15	100.33	21.26	-85.2	-88.6	2.9	1.56e+00	0	48	104	0	60	1048574
2026-01-18 06:55:05.16	100.19	21.37	-85.2	-88.6	3.2	1.56e+00	0	48	104	0	60	1048575
2026-01-18 06:55:06.16	100.05	21.49	-85.2	-88.6	2.8	1.56e+00	0	48	104	0	60	1048574
2026-01-18 06:55:07.17	99.90	21.61	-85.2	-88.6	2.9	1.56e+00	0	48	104	0	60	1048575
2026-01-18 06:55:08.18	99.76	21.73	-85.2	-88.6	2.9	1.56e+00	0	48	104	0	60	1048573
2026-01-18 06:55:09.19	99.61	21.85	-85.2	-88.6	2.8	1.56e+00	0	48	104	0	60	1048575
2026-01-18 06:55:10.20	99.46	21.97	-85.2	-88.6	2.9	1.56e+00	0	48	104	0	60	1048575
2026-01-18 06:55:11.20	99.31	22.08	-85.2	-88.6	3.2	1.56e+00	0	48	104	0	60	1048573
2026-01-18 06:55:12.21	99.16	22.20	-85.2	-88.6	3.1	1.56e+00	0	48	104	0	60	1048574
2026-01-18 06:55:13.22	99.01	22.32	-85.2	-88.6	3.0	1.56e+00	0	48	104	0	60	1048573
2026-01-18 06:55:14.23	98.86	22.44	-85.2	-88.6	3.0	1.56e+00	0	48	104	0	60	1048574
2026-01-18 06:55:15.24	98.71	22.57	-85.2	-88.6	3.1	1.55e+00	0	48	104	0	60	1048575
2026-01-18 06:55:16.24	98.55	22.69	-85.2	-88.6	3.0	1.56e+00	0	48	104	0	60	1048573
2026-01-18 06:55:17.25	98.40	22.81	-85.2	-88.6	2.9	1.55e+00	0	48	104	0	60	1048573
2026-01-18 06:55:18.25	98.24	22.93	-85.2	-88.6	2.9	1.56e+00	0	48	104	0	60	1048575
2026-01-18 06:55:19.25	98.08	23.05	-85.2	-88.6	3.1	1.56e+00	0	48	104	0	60	1048574
2026-01-18 06:55:20.25	97.92	23.17	-85.2	-88.6	2.9	1.55e+00	0	48	104	0	60	1048574
2026-01-18 06:55:21.26	97.76	23.29	-85.2	-88.6	2.9	1.56e+00	0	48	104	0	60	1048575
2026-01-18 06:55:22.27	97.60	23.42	-85.2	-88.6	2.8	1.56e+00	0	48	104	0	60	1048574
2026-01-18 06:55:23.27	97.44	23.54	-85.2	-88.6	3.1	1.56e+00	0	48	104	0	60	1048575
2026-01-18 06:55:24.28	97.27	23.66	-85.2	-88.6	2.9	1.56e+00	0	48	104	0	60	1048575
2026-01-18 06:55:25.28	97.11	23.79	-85.2	-88.6	2.8	1.56e+00	0	48	104	0	60	1048572
2026-01-18 06:55:26.29	96.94	23.91	-85.2	-88.6	3.3	1.56e+00	0	48	104	0	60	1048573
2026-01-18 06:55:27.30	96.77	24.04	-85.2	-88.6	2.9	1.56e+00	0	48	104	0	60	1048575
2026-01-18 06:55:28.30	96.60	24.16	-85.2	-88.6	3.1	1.56e+00	0	48	104	0	60	1048575
2026-01-18 06:55:29.31	96.43	24.29	-85.2	-88.6	3.1	1.56e+00	0	48	104	0	60	1048575
2026-01-18 06:55:30.32	96.26	24.41	-85.2	-88.6	3.0	1.55e+00	0	48	104	0	60	1048575
2026-01-18 06:55:31.33	96.08	24.54	-85.2	-88.6	3.1	1.56e+00	0	48	104	0	60	1048574
2026-01-18 06:55:32.33	95.91	24.66	-85.2	-88.6	3.0	1.56e+00	0	48	104	0	60	1048575
2026-01-18 06:55:33.34	95.73	24.79	-85.2	-88.6	3.1	1.56e+00	0	48	104	0	60	1048575
2026-01-18 06:55:34.35	95.55	24.92	-85.2	-88.6	3.1	1.56e+00	0	48	104	0	60	1048573
2026-01-18 06:55:35.36	95.37	25.05	-85.2	-88.6	3.0	1.55e+00	0	48	104	0	60	1048574
2026-01-18 06:55:36.36	95.19	25.17	-85.2	-88.6	2.9	1.56e+00	0	48	104	0	60	1048570
2026-01-18 06:55:37.37	95.01	25.30	-85.2	-88.6	3.2	1.56e+00	0	48	104	0	60	1048575
2026-01-18 06:55:38.37	94.82	25.43	-85.2	-88.6	3.0	1.56e+00	0	48	104	0	60	1048575
2026-01-18 06:55:39.38	94.64	25.56	-85.2	-88.6	2.9	1.55e+00	0	48	104	0	60	1048575
2026-01-18 06:55:40.38	94.45	25.68	-85.2	-88.6	2.8	1.56e+00	0	48	104	0	60	1048573
2026-01-18 06:55:41.39	94.26	25.81	-85.2	-88.6	2.9	1.56e+00	0	48	104	0	60	1048574
2026-01-18 06:55:42.40	94.07	25.94	-85.2	-88.6	3.0	1.56e+00	0	48	104	0	60	1048573
2026-01-18 06:55:43.41	93.88	26.07	-85.2	-88.6	3.0	1.56e+00	0	48	104	0	60	1048570
2026-01-18 06:55:44.41	93.68	26.20	-85.2	-88.6	3.0	1.56e+00	0	48	104	0	60	1048574
2026-01-18 06:55:45.42	93.49	26.33	-85.2	-88.6	2.9	1.56e+00	0	48	104	0	60	1048574
2026-01-18 06:55:46.43	93.29	26.46	-85.2	-88.6	3.0	1.56e+00	0	48	104	0	60	1048575
2026-01-18 06:55:47.44	93.09	26.59	-85.2	-88.6	2.9	1.55e+00	0	48	104	0	60	1048575
2026-01-18 06:55:48.44	92.89	26.72	-85.2	-88.6	2.9	1.56e+00	0	48	104	0	60	1048575
2026-01-18 06:55:49.44	92.69	26.85	-85.2	-88.6	3.0	1.55e+00	0	48	104	0	60	1048573
2026-01-18 06:55:50.45	92.49	26.98	-85.2	-88.6	3.0	1.56e+00	0	48	104	0	60	1048571
2026-01-18 06:55:51.46	92.28	27.12	-85.2	-88.6	3.0	1.56e+00	0	48	104	0	60	1048573
2026-01-18 06:55:52.46	92.08	27.25	-85.2	-88.6	3.2	1.56e+00	0	48	104	0	60	1048575
2026-01-18 06:55:53.47	91.87	27.38	-85.2	-88.6	3.1	1.56e+00	0	48	104	0	60	1048573
2026-01-18 06:55:54.48	91.66	27.51	-85.2	-88.6	2.9	1.55e+00	0	48	104	0	60	1048574
2026-01-18 06:55:55.48	91.44	27.64	-85.2	-88.6	3.0	1.55e+00	0	48	104	0	60	1048570
2026-01-18 06:55:56.48	91.23	27.77	-85.2	-88.6	2.9	1.55e+00	0	48	104	0	60	1048574
2026-01-18 06:55:57.49	91.02	27.91	-85.2	-88.6	3.0	1.56e+00	0	48	104	0	60	1048574
2026-01-18 06:55:58.50	90.80	28.04	-85.2	-88.6	2.9	1.56e+00	0	48	104	0	60	1048575
2026-01-18 06:55:59.51	90.58	28.17	-85.2	-88.6	3.1	1.56e+00	0	48	104	0	60	1048575
2026-01-18 06:56:00.52	90.35	28.31	-85.2	-88.6	3.0	1.55e+00	0	48	104	0	60	1048574
2026-01-18 06:56:01.52	90.13	28.44	-85.2	-88.6	3.0	1.56e+00	0	48	104	0	60	1048575
2026-01-18 06:56:02.53	89.91	28.57	-85.2	-88.6	3.2	1.56e+00	0	48	104	0	60	1048574
2026-01-18 06:56:03.54	89.68	28.71	-85.2	-88.6	3.0	1.56e+00	0	48	104	0	60	1048575
2026-01-18 06:56:04.55	89.45	28.84	-85.2	-88.6	2.9	1.56e+00	0	48	104	0	60	1048575
2026-01-18 06:56:05.56	89.22	28.98	-85.2	-88.6	3.0	1.55e+00	0	48	104	0	60	1048575
2026-01-18 06:56:06.56	88.99	29.11	-85.2	-88.6	3.1	1.55e+00	0	48	104	0	60	1048575
2026-01-18 06:56:07.57	88.75	29.24	-85.2	-88.6	2.8	1.56e+00	0	48	104	0	60	1048575
2026-01-18 06:56:08.57	88.52	29.38	-85.2	-88.6	3.0	1.55e+00	0	48	104	0	60	1048575
2026-01-18 06:56:09.58	88.28	29.51	-85.2	-88.6	3.0	1.56e+00	0	48	104	0	60	1048574
2026-01-18 06:56:10.58	88.04	29.64	-85.2	-88.6	2.9	1.56e+00	0	48	104	0	60	1048569
2026-01-18 06:56:11.59	87.79	29.78	-85.2	-88.6	3.0	1.56e+00	0	48	104	0	60	1048570
2026-01-18 06:56:12.60	87.55	29.91	-85.2	-88.6	2.9	1.56e+00	0	48	104	0	60	1048575
2026-01-18 06:56:13.61	87.30	30.05	-85.2	-88.6	2.9	1.56e+00	0	48	104	0	60	1048575
2026-01-18 06:56:14.61	87.05	30.18	-85.2	-88.6	2.9	1.56e+00	0	48	104	0	60	1048574
2026-01-18 06:56:15.62	86.80	30.32	-85.2	-88.6	3.0	1.56e+00	0	48	104	0	60	1048574
2026-01-18 06:56:16.63	86.55	30.45	-85.2	-88.6	3.0	1.56e+00	0	48	104	0	60	1048572
2026-01-18 06:56:17.63	86.29	30.58	-85.2	-88.6	3.1	1.56e+00	0	48	104	0	60	1048575
2026-01-18 06:56:18.64	86.03	30.72	-85.2	-88.6	3.0	1.56e+00	0	48	104	0	60	1048574
2026-01-18 06:56:19.64	85.78	30.85	-85.2	-88.6	3.1	1.56e+00	0	48	104	0	60	1048573
2026-01-18 06:56:20.65	85.51	30.99	-85.2	-88.6	2.7	1.56e+00	0	48	104	0	60	1048575
2026-01-18 06:56:21.66	85.25	31.12	-85.2	-88.6	3.0	1.55e+00	0	48	104	0	60	1048574
2026-01-18 06:56:22.67	84.98	31.26	-85.2	-88.6	3.2	1.56e+00	0	48	104	0	60	1048573
2026-01-18 06:56:23.67	84.72	31.39	-85.2	-88.6	3.1	1.56e+00	0	48	104	0	60	1048573
2026-01-18 06:56:24.68	84.44	31.52	-85.2	-88.6	3.1	1.56e+00	0	48	104	0	60	1048568
2026-01-18 06:56:25.68	84.17	31.66	-85.2	-88.6	3.0	1.56e+00	0	48	104	0	60	1048574
2026-01-18 06:56:26.68	83.90	31.79	-85.2	-88.6	3.0	1.56e+00	0	48	104	0	60	1048573
2026-01-18 06:56:27.69	83.62	31.92	-85.2	-88.6	3.0	1.56e+00	0	48	104	0	60	1048573
2026-01-18 06:56:28.70	83.34	32.06	-85.2	-88.6	2.9	1.55e+00	0	48	104	0	60	1048575
2026-01-18 06:56:29.71	83.06	32.19	-85.2	-88.6	3.0	1.55e+00	0	48	104	0	60	1048572
2026-01-18 06:56:30.72	82.77	32.32	-85.2	-88.6	3.0	1.56e+00	0	48	104	0	60	1048575
2026-01-18 06:56:31.73	82.48	32.46	-85.2	-88.6	3.1	1.56e+00	0	48	104	0	60	1048573
2026-01-18 06:56:32.73	82.20	32.59	-85.2	-88.6	3.2	1.56e+00	0	48	104	0	60	1048575
2026-01-18 06:56:33.74	81.90	32.72	-85.2	-88.6	3.0	1.55e+00	0	48	104	0	60	1048575
2026-01-18 06:56:34.75	81.61	32.85	-85.2	-88.6	3.0	1.55e+00	0	48	104	0	60	1048574
2026-01-18 06:56:35.76	81.31	32.98	-85.2	-88.6	3.0	1.56e+00	0	48	104	0	60	1048575
2026-01-18 06:56:36.76	81.01	33.11	-85.2	-88.6	3.0	1.56e+00	0	48	104	0	60	1048573
2026-01-18 06:56:37.77	80.71	33.25	-85.2	-88.6	3.3	1.56e+00	0	48	104	0	60	1048575
2026-01-18 06:56:38.78	80.41	33.38	-85.2	-88.6	3.0	1.55e+00	0	48	104	0	60	1048575
2026-01-18 06:56:39.79	80.10	33.51	-85.2	-88.6	3.0	1.56e+00	0	48	104	0	60	1048573
2026-01-18 06:56:40.79	79.79	33.64	-85.2	-88.6	2.9	1.56e+00	0	48	104	0	60	1048575
2026-01-18 06:56:41.80	79.48	33.77	-85.2	-88.6	3.1	1.55e+00	0	48	104	0	60	1048574
2026-01-18 06:56:42.81	79.17	33.89	-85.2	-88.6	2.8	1.56e+00	0	48	104	0	60	1048575
2026-01-18 06:56:43.82	78.85	34.02	-85.2	-88.6	2.8	1.56e+00	0	48	104	0	60	1048575
2026-01-18 06:56:44.83	78.53	34.15	-85.2	-88.6	3.0	1.56e+00	0	48	104	0	60	1048575
2026-01-18 06:56:45.83	78.21	34.28	-85.2	-88.6	3.0	1.56e+00	0	48	104	0	60	1048572
2026-01-18 06:56:46.84	77.89	34.41	-85.2	-88.6	2.8	1.56e+00	0	48	104	0	60	1048573
2026-01-18 06:56:47.84	77.56	34.53	-85.2	-88.6	2.9	1.55e+00	0	48	104	0	60	1048575
2026-01-18 06:56:48.85	77.23	34.66	-85.2	-88.6	3.1	1.55e+00	0	48	104	0	60	1048574
2026-01-18 06:56:49.85	76.90	34.78	-85.2	-88.6	3.0	1.56e+00	0	48	104	0	60	1048575
2026-01-18 06:56:50.85	76.57	34.91	-85.2	-88.6	3.1	1.55e+00	0	48	104	0	60	1048575
2026-01-18 06:56:51.86	76.23	35.03	-85.2	-88.6	3.0	1.56e+00	0	48	104	0	60	1048574
2026-01-18 06:56:52.87	75.89	35.15	-85.2	-88.6	3.2	1.56e+00	0	48	104	0	60	1048575
2026-01-18 06:56:53.87	75.55	35.28	-84.3	-88.6	2.8	1.56e+00	0	48	104	0	60	1048575
2026-01-18 06:56:54.88	75.21	35.40	-85.2	-88.6	2.8	1.56e+00	0	48	104	0	60	1048575
2026-01-18 06:56:55.89	74.86	35.52	-85.2	-88.6	3.1	1.55e+00	0	48	104	0	60	1048574
2026-01-18 06:56:56.89	74.51	35.64	-85.2	-88.6	3.2	1.56e+00	0	48	104	0	60	1048573
2026-01-18 06:56:57.90	74.16	35.76	-85.2	-88.6	2.9	1.55e+00	0	48	104	0	60	1048575
2026-01-18 06:56:58.90	73.81	35.88	-85.2	-88.6	3.0	1.56e+00	0	47	104	0	60	1048573
2026-01-18 06:56:59.90	73.45	36.00	-83.9	-88.6	3.1	1.56e+00	0	47	104	0	60	1048575
2026-01-18 06:57:00.91	73.09	36.11	-85.2	-88.6	3.1	1.55e+00	0	47	104	0	60	1048573
2026-01-18 06:57:01.92	72.73	36.23	-85.2	-88.6	3.0	1.56e+00	0	48	104	0	60	1048575
2026-01-18 06:57:02.92	72.37	36.35	-85.2	-88.6	3.0	1.56e+00	0	48	104	0	60	1048575
2026-01-18 06:57:03.93	72.00	36.46	-85.2	-88.6	2.8	1.56e+00	0	48	104	0	60	1048574
2026-01-18 06:57:04.93	71.63	36.57	-85.2	-88.6	3.0	1.56e+00	0	48	104	0	60	1048575
2026-01-18 06:57:05.94	71.26	36.69	-85.2	-88.6	3.0	1.56e+00	0	48	104	0	60	1048572
2026-01-18 06:57:06.95	70.88	36.80	-85.2	-88.6	3.0	1.55e+00	0	48	104	0	60	1048574
2026-01-18 06:57:07.95	70.50	36.91	-85.2	-88.6	3.0	1.55e+00	0	48	104	0	60	1048573
2026-01-18 06:57:08.96	70.12	37.02	-85.2	-88.6	3.0	1.56e+00	0	47	104	0	60	1048574
2026-01-18 06:57:09.97	69.74	37.13	-85.2	-88.6	3.1	1.56e+00	0	48	104	0	60	1048575
2026-01-18 06:57:10.98	69.35	37.23	-85.2	-88.6	2.9	1.56e+00	0	47	104	0	60	1048575
2026-01-18 06:57:11.98	68.96	37.34	-85.2	-88.6	3.2	1.55e+00	0	48	104	0	60	1048573
2026-01-18 06:57:12.99	68.57	37.45	-85.2	-88.6	2.9	1.55e+00	0	48	104	0	60	1048575
2026-01-18 06:57:14.00	68.18	37.55	-85.2	-88.6	2.9	1.56e+00	0	48	104	0	60	1048575
2026-01-18 06:57:15.01	67.78	37.65	-85.2	-88.6	2.8	1.56e+00	0	47	104	0	60	1048574
2026-01-18 06:57:16.01	67.39	37.75	-85.2	-88.6	3.1	1.56e+00	0	48	104	0	60	1048575
2026-01-18 06:57:17.02	66.98	37.85	-85.2	-88.6	2.9	1.56e+00	0	47	104	0	60	1048575
2026-01-18 06:57:18.02	66.58	37.95	-85.2	-88.6	3.1	1.56e+00	0	48	104	0	60	1048575
2026-01-18 06:57:19.03	66.18	38.05	-85.2	-88.6	3.0	1.56e+00	0	48	104	0	60	1048574
2026-01-18 06:57:20.03	65.77	38.14	-85.2	-88.6	3.0	1.56e+00	0	48	104	0	60	1048575
2026-01-18 06:57:21.04	65.36	38.24	-85.2	-88.6	3.0	1.55e+00	0	47	104	0	60	1048575
2026-01-18 06:57:22.04	64.95	38.33	-85.2	-88.6	2.9	1.56e+00	0	47	104	0	60	1048574
2026-01-18 06:57:23.05	64.53	38.42	-85.2	-88.6	3.2	1.55e+00	0	48	104	0	60	1048570
2026-01-18 06:57:24.05	64.12	38.51	-85.2	-88.6	2.9	1.56e+00	0	47	104	0	60	1048575
2026-01-18 06:57:25.06	63.70	38.60	-85.2	-88.6	3.1	1.55e+00	0	48	104	0	60	1048574
2026-01-18 06:57:26.06	63.28	38.69	-85.2	-88.6	3.0	1.55e+00	0	48	104	0	60	1048575
2026-01-18 06:57:27.07	62.85	38.77	-83.9	-88.6	3.0	1.55e+00	0	48	104	0	60	1048574
2026-01-18 06:57:28.08	62.42	38.86	-85.2	-88.6	3.0	1.56e+00	0	48	104	0	60	1048575
2026-01-18 06:57:29.08	62.00	38.94	-85.2	-88.6	2.9	1.56e+00	0	48	104	0	60	1048572
2026-01-18 06:57:30.08	61.57	39.02	-85.2	-88.6	3.2	1.55e+00	0	48	104	0	60	1048575
2026-01-18 06:57:31.09	61.14	39.10	-85.2	-88.6	2.8	1.55e+00	0	47	104	0	60	1048575
2026-01-18 06:57:32.10	60.70	39.18	-85.2	-88.6	3.2	1.56e+00	0	47	104	0	60	1048574
2026-01-18 06:57:33.10	60.27	39.25	-85.2	-88.6	3.0	1.56e+00	0	47	104	0	60	1048571
2026-01-18 06:57:34.11	59.83	39.33	-85.2	-88.6	3.1	1.56e+00	0	47	104	0	60	1048575
2026-01-18 06:57:35.12	59.38	39.40	-85.2	-88.6	3.1	1.56e+00	0	48	104	0	60	1048575
2026-01-18 06:57:36.13	58.94	39.47	-85.2	-88.6	2.9	1.56e+00	0	48	104	0	60	1048575
2026-01-18 06:57:37.13	58.50	39.54	-85.2	-88.6	3.0	1.55e+00	0	47	104	0	60	1048570
2026-01-18 06:57:38.14	58.05	39.61	-85.2	-88.6	2.9	1.55e+00	0	47	104	0	60	1048575
2026-01-18 06:57:39.14	57.60	39.67	-85.2	-88.6	2.8	1.56e+00	0	47	104	0	60	1048572
2026-01-18 06:57:40.15	57.15	39.73	-85.2	-88.6	3.0	1.55e+00	0	47	104	0	60	1048575
2026-01-18 06:57:41.15	56.70	39.79	-85.2	-88.6	3.0	1.56e+00	0	47	104	0	60	1048572
2026-01-18 06:57:42.16	56.25	39.85	-85.2	-88.6	2.9	1.56e+00	0	47	104	0	60	1048573
2026-01-18 06:57:43.17	55.79	39.91	-85.2	-88.6	3.0	1.56e+00	0	47	104	0	60	1048575
2026-01-18 06:57:44.18	55.33	39.97	-85.2	-88.6	3.1	1.56e+00	0	47	104	0	60	1048575
2026-01-18 06:57:45.19	54.87	40.02	-85.2	-88.6	2.8	1.56e+00	0	47	104	0	60	1048574
2026-01-18 06:57:46.19	54.41	40.07	-85.2	-88.6	3.0	1.56e+00	0	47	104	0	60	1048575
2026-01-18 06:57:47.20	53.95	40.12	-85.2	-88.6	2.9	1.55e+00	0	47	104	0	60	1048575
2026-01-18 06:57:48.21	53.49	40.17	-85.2	-88.6	3.0	1.56e+00	0	47	104	0	60	1048574
2026-01-18 06:57:49.22	53.02	40.21	-85.2	-88.6	2.9	1.56e+00	0	47	104	0	60	1048575
2026-01-18 06:57:50.23	52.55	40.25	-84.7	-88.6	3.0	1.56e+00	0	47	104	0	60	1048575
2026-01-18 06:57:51.23	52.09	40.29	-85.2	-88.6	3.0	1.55e+00	0	48	104	0	60	1048574
2026-01-18 06:57:52.24	51.62	40.33	-85.2	-88.6	2.9	1.55e+00	0	48	104	0	60	1048573
2026-01-18 06:57:53.25	51.15	40.37	-85.2	-88.6	3.1	1.56e+00	0	47	104	0	60	1048575
2026-01-18 06:57:54.26	50.68	40.40	-85.2	-88.6	3.0	1.56e+00	0	47	104	0	60	1048573
2026-01-18 06:57:55.26	50.21	40.44	-85.2	-88.6	2.8	1.56e+00	0	47	104	0	60	1048573
2026-01-18 06:57:56.27	49.74	40.47	-85.2	-88.6	3.0	1.56e+00	0	47	104	0	60	1048574
2026-01-18 06:57:57.28	49.27	40.49	-85.2	-88.6	2.9	1.56e+00	0	47	104	0	60	1048575
2026-01-18 06:57:58.29	48.79	40.52	-85.2	-88.6	2.9	1.56e+00	0	47	104	0	60	1048573
2026-01-18 06:57:59.30	48.32	40.54	-85.2	-88.6	3.2	1.56e+00	0	47	104	0	60	1048573
2026-01-18 06:58:00.31	47.84	40.56	-84.3	-88.6	2.8	1.56e+00	0	48	104	0	60	1048575
2026-01-18 06:58:01.31	47.37	40.58	-85.2	-88.6	3.0	1.56e+00	0	47	104	0	60	1048575
2026-01-18 06:58:02.32	46.89	40.60	-85.2	-88.6	3.1	1.56e+00	0	47	104	0	60	1048573
2026-01-18 06:58:03.33	46.41	40.61	-85.2	-88.6	3.1	1.56e+00	0	47	104	0	60	1048574
2026-01-18 06:58:04.33	45.94	40.63	-85.2	-88.6	3.0	1.55e+00	0	47	104	0	60	1048575
2026-01-18 06:58:05.33	45.47	40.64	-85.2	-88.6	2.9	1.55e+00	0	47	104	0	60	1048573
2026-01-18 06:58:06.34	44.99	40.64	-85.2	-88.6	3.0	1.56e+00	0	47	104	0	60	1048574
2026-01-18 06:58:07.34	44.51	40.65	-85.2	-88.6	3.1	1.56e+00	0	47	104	0	60	1048573
2026-01-18 06:58:08.35	44.03	40.65	-85.2	-88.6	2.9	1.56e+00	0	47	104	0	60	1048575
2026-01-18 06:58:09.36	43.55	40.65	-85.2	-88.6	3.0	1.55e+00	0	48	104	0	60	1048575
2026-01-18 06:58:10.36	43.08	40.65	-83.5	-88.6	2.9	1.55e+00	0	47	104	0	60	1048575
2026-01-18 06:58:11.37	42.60	40.65	-85.2	-88.6	2.9	1.56e+00	0	47	104	0	60	1048573
2026-01-18 06:58:12.38	42.12	40.64	-85.2	-88.6	3.1	1.55e+00	0	47	104	0	60	1048573
2026-01-18 06:58:13.38	41.65	40.64	-85.2	-88.6	3.0	1.56e+00	0	47	104	0	60	1048575
2026-01-18 06:58:14.39	41.17	40.63	-85.2	-88.6	2.9	1.55e+00	0	47	104	0	60	1048575
2026-01-18 06:58:15.40	40.69	40.61	-85.2	-88.6	2.8	1.55e+00	0	47	104	0	60	1048574
2026-01-18 06:58:16.41	40.21	40.60	-85.2	-88.6	2.9	1.55e+00	0	47	104	0	60	1048573
2026-01-18 06:58:17.42	39.74	40.58	-85.2	-88.6	2.8	1.55e+00	0	47	104	0	60	1048574
2026-01-18 06:58:18.42	39.27	40.56	-85.2	-88.6	3.0	1.55e+00	0	47	104	0	60	1048573
2026-01-18 06:58:19.43	38.79	40.54	-85.2	-88.6	2.9	1.56e+00	0	47	104	0	60	1048573
2026-01-18 06:58:20.44	38.31	40.52	-85.2	-88.6	2.9	1.56e+00	0	47	104	0	60	1048575
2026-01-18 06:58:21.44	37.84	40.49	-85.2	-88.6	2.9	1.56e+00	0	47	104	0	60	1048575
2026-01-18 06:58:22.45	37.37	40.46	-85.2	-88.6	3.1	1.56e+00	0	47	104	0	60	1048575
2026-01-18 06:58:23.46	36.90	40.43	-85.2	-88.6	2.8	1.56e+00	0	47	104	0	60	1048574
2026-01-18 06:58:24.46	36.43	40.40	-85.2	-88.6	2.9	1.55e+00	0	47	104	0	60	1048574
2026-01-18 06:58:25.46	35.96	40.37	-85.2	-88.6	3.1	1.55e+00	0	48	104	0	60	1048575
2026-01-18 06:58:26.47	35.49	40.33	-85.2	-88.6	3.0	1.56e+00	0	47	104	0	60	1048574
2026-01-18 06:58:27.48	35.03	40.29	-85.2	-88.6	3.0	1.55e+00	0	47	104	0	60	1048573
2026-01-18 06:58:28.48	34.56	40.25	-85.2	-88.6	3.1	1.56e+00	0	48	104	0	60	1048572
2026-01-18 06:58:29.48	34.10	40.21	-85.2	-88.6	2.7	1.56e+00	0	47	104	0	60	1048575
2026-01-18 06:58:30.48	33.64	40.16	-85.2	-88.6	3.0	1.55e+00	0	47	104	0	60	1048573
2026-01-18 06:58:31.49	33.18	40.11	-85.2	-88.6	3.0	1.56e+00	0	47	104	0	60	1048575
2026-01-18 06:58:32.50	32.71	40.06	-85.2	-88.6	3.0	1.56e+00	0	47	104	0	60	1048575
2026-01-18 06:58:33.51	32.25	40.01	-85.2	-88.6	3.0	1.55e+00	0	47	104	0	60	1048575
2026-01-18 06:58:34.52	31.79	39.96	-85.2	-88.6	2.8	1.56e+00	0	47	104	0	60	1048575
2026-01-18 06:58:35.52	31.34	39.90	-85.2	-88.6	2.9	1.55e+00	0	47	104	0	60	1048572
2026-01-18 06:58:36.53	30.88	39.85	-85.2	-88.6	2.9	1.56e+00	0	47	104	0	60	1048575
2026-01-18 06:58:37.53	30.43	39.79	-85.2	-88.6	3.0	1.56e+00	0	47	104	0	60	1048575
2026-01-18 06:58:38.54	29.98	39.73	-85.2	-88.6	3.1	1.55e+00	0	47	104	0	60	1048575
2026-01-18 06:58:39.54	29.54	39.66	-85.2	-88.6	3.1	1.56e+00	0	47	104	0	60	1048574
2026-01-18 06:58:40.55	29.09	39.60	-84.7	-88.6	3.1	1.55e+00	0	47	104	0	60	1048574
2026-01-18 06:58:41.56	28.64	39.53	-85.2	-88.6	3.0	1.56e+00	0	47	104	0	60	1048574
2026-01-18 06:58:42.57	28.19	39.46	-85.2	-88.6	3.1	1.56e+00	0	47	104	0	60	1048574
2026-01-18 06:58:43.57	27.75	39.39	-85.2	-88.6	3.1	1.56e+00	0	47	104	0	60	1048575
2026-01-18 06:58:44.58	27.31	39.32	-85.2	-88.6	3.1	1.56e+00	0	47	104	0	60	1048575
2026-01-18 06:58:45.59	26.87	39.25	-85.2	-88.6	2.8	1.55e+00	0	47	104	0	60	1048571
2026-01-18 06:58:46.60	26.43	39.17	-85.2	-88.6	3.2	1.56e+00	0	47	104	0	60	1048573
2026-01-18 06:58:47.61	26.00	39.09	-85.2	-88.6	2.9	1.55e+00	0	47	104	0	60	1048571
2026-01-18 06:58:48.61	25.57	39.01	-84.3	-88.6	3.0	1.56e+00	0	47	104	0	60	1048574
2026-01-18 06:58:49.62	25.14	38.93	-85.2	-88.6	3.0	1.56e+00	0	47	104	0	60	1048575
2026-01-18 06:58:50.63	24.71	38.85	-85.2	-88.6	3.1	1.55e+00	0	47	104	0	60	1048575
2026-01-18 06:58:51.64	24.28	38.77	-85.2	-88.6	2.8	1.55e+00	0	47	104	0	60	1048573
2026-01-18 06:58:52.65	23.86	38.68	-85.2	-88.6	3.0	1.56e+00	0	47	104	0	60	1048575
2026-01-18 06:58:53.65	23.44	38.59	-85.2	-88.6	3.1	1.56e+00	0	47	104	0	60	1048574
2026-01-18 06:58:54.66	23.02	38.50	-85.2	-88.6	3.1	1.56e+00	0	47	104	0	60	1048575
2026-01-18 06:58:55.67	22.60	38.41	-85.2	-88.6	3.0	1.56e+00	0	47	104	0	60	1048575
2026-01-18 06:58:56.68	22.18	38.32	-85.2	-88.6	3.0	1.56e+00	0	47	104	0	60	1048575
2026-01-18 06:58:57.68	21.78	38.23	-85.2	-88.6	2.9	1.56e+00	0	47	104	0	60	1048572
2026-01-18 06:58:58.68	21.37	38.14	-85.2	-88.6	3.0	1.56e+00	0	47	104	0	60	1048572
2026-01-18 06:58:59.68	20.96	38.04	-85.2	-88.6	3.0	1.55e+00	0	47	104	0	60	1048575
2026-01-18 06:59:00.68	20.56	37.94	-85.2	-88.6	3.1	1.56e+00	0	47	104	0	60	1048572
2026-01-18 06:59:01.69	20.16	37.84	-85.2	-88.6	2.9	1.56e+00	0	47	104	0	60	1048572
2026-01-18 06:59:02.70	19.76	37.74	-85.2	-88.6	3.0	1.56e+00	0	47	104	0	60	1048574
2026-01-18 06:59:03.70	19.36	37.64	-85.2	-88.6	2.8	1.56e+00	0	47	104	0	60	1048574
2026-01-18 06:59:04.71	18.97	37.54	-85.2	-88.6	3.0	1.56e+00	0	47	104	0	60	1048575
2026-01-18 06:59:05.72	18.57	37.44	-85.2	-88.6	3.1	1.55e+00	0	47	104	0	60	1048575
2026-01-18 06:59:06.73	18.18	37.33	-85.2	-88.6	3.1	1.55e+00	0	47	104	0	60	1048574
2026-01-18 06:59:07.74	17.80	37.22	-85.2	-88.6	2.7	1.56e+00	0	47	104	0	60	1048575
2026-01-18 06:59:08.74	17.41	37.12	-85.2	-88.6	2.9	1.55e+00	0	47	104	0	60	1048575
2026-01-18 06:59:09.75	17.03	37.01	-85.2	-88.6	3.0	1.56e+00	0	47	104	0	60	1048575
2026-01-18 06:59:10.76	16.65	36.90	-85.2	-88.6	3.2	1.56e+00	0	47	104	0	60	1048574
2026-01-18 06:59:11.77	16.27	36.79	-85.2	-88.6	3.0	1.56e+00	0	47	104	0	60	1048575
2026-01-18 06:59:12.77	15.90	36.68	-85.2	-88.6	3.1	1.56e+00	0	47	104	0	60	1048575
2026-01-18 06:59:13.78	15.53	36.57	-85.2	-88.6	3.0	1.55e+00	0	47	104	0	60	1048575
2026-01-18 06:59:14.78	15.16	36.45	-85.2	-88.6	3.1	1.56e+00	0	47	104	0	60	1048575
2026-01-18 06:59:15.79	14.79	36.34	-85.2	-88.6	2.9	1.56e+00	0	47	104	0	60	1048572
2026-01-18 06:59:16.80	14.43	36.22	-85.2	-88.6	3.2	1.56e+00	0	47	104	0	60	1048574
2026-01-18 06:59:17.80	14.07	36.11	-85.2	-88.6	3.0	1.55e+00	0	47	104	0	60	1048575
2026-01-18 06:59:18.81	13.71	35.99	-85.2	-88.6	2.7	1.56e+00	0	47	104	0	60	1048574
2026-01-18 06:59:19.82	13.35	35.87	-85.2	-88.6	3.1	1.55e+00	0	47	104	0	60	1048575
2026-01-18 06:59:20.82	13.00	35.75	-85.2	-88.6	3.2	1.55e+00	0	47	104	0	60	1048575
2026-01-18 06:59:21.83	12.65	35.63	-85.2	-88.6	3.0	1.56e+00	0	47	104	0	60	1048574
2026-01-18 06:59:22.84	12.30	35.51	-85.2	-88.6	3.1	1.56e+00	0	47	104	0	60	1048575
2026-01-18 06:59:23.84	11.95	35.39	-85.2	-88.6	3.0	1.56e+00	0	47	104	0	60	1048575
2026-01-18 06:59:24.85	11.61	35.27	-85.2	-88.6	2.9	1.56e+00	0	47	104	0	60	1048573
2026-01-18 06:59:25.86	11.27	35.15	-85.2	-88.6	3.0	1.56e+00	0	47	104	0	60	1048574
2026-01-18 06:59:26.87	10.93	35.02	-85.2	-88.6	3.2	1.56e+00	0	47	104	0	60	1048573
2026-01-18 06:59:27.87	10.60	34.90	-85.2	-88.6	3.0	1.56e+00	0	47	104	0	60	1048575
2026-01-18 06:59:28.88	10.26	34.78	-85.2	-88.6	3.0	1.56e+00	0	47	104	0	60	1048572
2026-01-18 06:59:29.89	9.93	34.65	-85.2	-88.6	3.1	1.55e+00	0	47	104	0	60	1048571
2026-01-18 06:59:30.89	9.61	34.52	-85.2	-88.6	2.9	1.55e+00	0	47	104	0	60	1048575
2026-01-18 06:59:31.90	9.28	34.40	-85.2	-88.6	2.9	1.55e+00	0	48	104	0	60	1048575
2026-01-18 06:59:32.91	8.96	34.27	-85.2	-88.6	2.8	1.55e+00	0	47	104	0	60	1048575
2026-01-18 06:59:33.92	8.64	34.14	-85.2	-88.6	3.2	1.56e+00	0	47	104	0	60	1048574
2026-01-18 06:59:34.93	8.32	34.02	-85.2	-88.6	3.1	1.56e+00	0	47	104	0	60	1048571
2026-01-18 06:59:35.93	8.00	33.89	-85.2	-88.6	3.1	1.56e+00	0	47	104	0	60	1048575
2026-01-18 06:59:36.94	7.69	33.76	-85.2	-88.6	3.1	1.55e+00	0	47	104	0	60	1048574
2026-01-18 06:59:37.95	7.38	33.63	-85.2	-88.6	2.9	1.56e+00	0	47	104	0	60	1048574
2026-01-18 06:59:38.96	7.07	33.50	-85.2	-88.6	2.7	1.56e+00	0	47	104	0	60	1048575
2026-01-18 06:59:39.97	6.76	33.37	-85.2	-88.6	3.0	1.56e+00	0	47	104	0	60	1048575
2026-01-18 06:59:40.97	6.46	33.24	-85.2	-88.6	2.9	1.56e+00	0	47	104	0	60	1048575
2026-01-18 06:59:41.98	6.16	33.11	-85.2	-88.6	2.9	1.56e+00	0	47	104	0	60	1048573
2026-01-18 06:59:42.99	5.86	32.98	-85.2	-88.6	2.9	1.56e+00	0	47	104	0	60	1048572
2026-01-18 06:59:44.00	5.57	32.85	-85.2	-88.6	3.2	1.56e+00	0	47	104	0	60	1048575
2026-01-18 06:59:45.01	5.27	32.71	-85.2	-88.6	2.9	1.56e+00	0	47	104	0	60	1048575
2026-01-18 06:59:46.01	4.99	32.58	-85.2	-88.6	3.1	1.56e+00	0	47	104	0	60	1048574
2026-01-18 06:59:47.02	4.70	32.45	-85.2	-88.6	2.9	1.55e+00	0	48	104	0	60	1048574
2026-01-18 06:59:48.02	4.41	32.32	-85.2	-88.6	3.1	1.56e+00	0	47	104	0	60	1048574
2026-01-18 06:59:49.03	4.13	32.19	-85.2	-88.6	2.9	1.56e+00	0	47	104	0	60	1048573
2026-01-18 06:59:50.04	3.85	32.05	-85.2	-88.6	3.2	1.55e+00	0	47	104	0	60	1048572
2026-01-18 06:59:51.04	3.57	31.92	-85.2	-88.6	2.9	1.56e+00	0	47	104	0	60	1048574
2026-01-18 06:59:52.05	3.29	31.79	-85.2	-88.6	2.9	1.55e+00	0	47	104	0	60	1048575
2026-01-18 06:59:53.06	3.02	31.65	-85.2	-88.6	3.1	1.56e+00	0	47	104	0	60	1048573
2026-01-18 06:59:54.07	2.74	31.52	-85.2	-88.6	3.1	1.56e+00	0	47	104	0	60	1048575
2026-01-18 06:59:55.08	2.47	31.39	-85.2	-88.6	3.0	1.55e+00	0	47	104	0	60	1048574
2026-01-18 06:59:56.09	2.20	31.25	-85.2	-88.6	3.0	1.55e+00	0	47	104	0	60	1048575
2026-01-18 06:59:57.09	1.94	31.12	-85.2	-88.6	2.8	1.55e+00	0	47	104	0	60	1048574
2026-01-18 06:59:58.10	1.68	30.99	-85.2	-88.6	3.2	1.56e+00	0	47	104	0	60	1048574
2026-01-18 06:59:59.11	1.42	30.85	-85.2	-88.6	3.0	1.56e+00	0	47	104	0	60	1048573
2026-01-18 07:00:00.12	1.16	30.72	-85.2	-88.6	3.0	1.56e+00	0	47	104	0	60	1048570
2026-01-18 07:00:01.12	0.90	30.58	-85.2	-88.6	2.9	1.56e+00	0	47	104	0	60	1048573
2026-01-18 07:00:02.13	0.65	30.45	-85.2	-88.6	3.0	1.55e+00	0	47	104	0	60	1048574
2026-01-18 07:00:03.13	0.40	30.32	-85.2	-88.6	3.2	1.56e+00	0	47	104	0	60	1048575
2026-01-18 07:00:04.14	0.15	30.18	-85.2	-88.6	3.4	1.55e+00	0	47	104	0	60	1048575
2026-01-18 07:00:05.15	359.90	30.05	-85.2	-88.6	3.1	1.56e+00	0	47	104	0	60	1048574
2026-01-18 07:00:06.15	359.65	29.92	-84.7	-88.6	3.0	1.56e+00	0	47	104	0	60	1048575
2026-01-18 07:00:07.16	359.41	29.78	-85.2	-88.6	3.1	1.56e+00	0	47	104	0	60	1048575
2026-01-18 07:00:08.16	359.17	29.65	-85.2	-88.6	3.0	1.55e+00	0	47	104	0	60	1048574
2026-01-18 07:00:09.17	358.93	29.51	-85.2	-88.6	3.0	1.56e+00	0	47	104	0	60	1048574
2026-01-18 07:00:10.18	358.69	29.38	-85.2	-88.6	3.0	1.56e+00	0	47	104	0	60	1048575
2026-01-18 07:00:11.19	358.45	29.25	-85.2	-88.6	3.1	1.56e+00	0	47	104	0	60	1048574
2026-01-18 07:00:12.20	358.22	29.11	-85.2	-88.6	2.8	1.55e+00	0	47	104	0	60	1048575
2026-01-18 07:00:13.21	357.98	28.98	-85.2	-88.6	3.2	1.56e+00	0	47	104	0	60	1048575
2026-01-18 07:00:14.21	357.76	28.85	-85.2	-88.6	2.8	1.56e+00	0	47	104	0	60	1048575
2026-01-18 07:00:15.22	357.53	28.71	-85.2	-88.6	2.9	1.55e+00	0	47	104	0	60	1048573
2026-01-18 07:00:16.23	357.30	28.58	-85.2	-88.6	3.0	1.55e+00	0	47	104	0	60	1048574
2026-01-18 07:00:17.23	357.08	28.45	-85.2	-88.6	3.2	1.56e+00	0	47	104	0	60	1048575
2026-01-18 07:00:18.23	356.86	28.32	-85.2	-88.6	3.0	1.55e+00	0	47	104	0	60	1048575
2026-01-18 07:00:19.24	356.64	28.18	-85.2	-88.6	3.1	1.56e+00	0	47	104	0	60	1048574
2026-01-18 07:00:20.24	356.42	28.05	-85.2	-88.6	2.9	1.56e+00	0	47	104	0	60	1048574
2026-01-18 07:00:21.25	356.20	27.92	-85.2	-88.6	3.1	1.56e+00	0	47	104	0	60	1048572
2026-01-18 07:00:22.26	355.99	27.79	-85.2	-88.6	3.0	1.56e+00	0	47	104	0	60	1048575
2026-01-18 07:00:23.27	355.77	27.65	-85.2	-88.6	3.0	1.55e+00	0	47	104	0	60	1048575
2026-01-18 07:00:24.28	355.56	27.52	-85.2	-88.6	3.0	1.56e+00	0	47	104	0	60	1048575
2026-01-18 07:00:25.28	355.35	27.39	-85.2	-88.6	2.9	1.56e+00	0	47	104	0	60	1048574
2026-01-18 07:00:26.29	355.14	27.26	-85.2	-88.6	3.1	1.56e+00	0	47	104	0	60	1048575
2026-01-18 07:00:27.30	354.94	27.13	-85.2	-88.6	3.3	1.56e+00	0	47	104	0	60	1048575
2026-01-18 07:00:28.31	354.73	27.00	-85.2	-88.6	3.0	1.55e+00	0	47	104	0	60	1048575
2026-01-18 07:00:29.32	354.53	26.87	-85.2	-88.6	3.0	1.56e+00	0	47	104	0	60	1048575
2026-01-18 07:00:30.33	354.33	26.73	-85.2	-88.6	3.0	1.56e+00	0	47	104	0	60	1048575
2026-01-18 07:00:31.33	354.13	26.61	-85.2	-88.6	3.1	1.55e+00	0	47	104	0	60	1048575
2026-01-18 07:00:32.34	353.93	26.47	-85.2	-88.6	2.9	1.56e+00	0	47	104	0	60	1048575
2026-01-18 07:00:33.35	353.73	26.34	-85.2	-88.6	3.1	1.56e+00	0	47	104	0	60	1048575
2026-01-18 07:00:34.36	353.54	26.21	-85.2	-88.6	3.1	1.56e+00	0	47	104	0	60	1048569
2026-01-18 07:00:35.37	353.34	26.09	-85.2	-88.6	3.0	1.56e+00	0	47	104	0	60	1048572
2026-01-18 07:00:36.37	353.15	25.96	-85.2	-88.6	3.2	1.56e+00	0	47	104	0	60	1048575
2026-01-18 07:00:37.38	352.96	25.83	-85.2	-88.6	2.9	1.56e+00	0	47	104	0	60	1048575
2026-01-18 07:00:38.39	352.78	25.70	-85.2	-88.6	2.9	1.55e+00	0	47	104	0	60	1048575
2026-01-18 07:00:39.40	352.59	25.57	-85.2	-88.6	3.1	1.56e+00	0	47	104	0	60	1048575
2026-01-18 07:00:40.40	352.40	25.44	-85.2	-88.6	3.0	1.55e+00	0	47	104	0	60	1048575
2026-01-18 07:00:41.41	352.22	25.32	-85.2	-88.6	2.9	1.55e+00	0	47	104	0	60	1048573
2026-01-18 07:00:42.41	352.04	25.19	-85.2	-88.6	3.1	1.55e+00	0	47	104	0	60	1048574
2026-01-18 07:00:43.42	351.86	25.06	-85.2	-88.6	2.9	1.55e+00	0	47	104	0	60	1048573
2026-01-18 07:00:44.42	351.68	24.94	-85.2	-88.6	2.9	1.56e+00	0	47	104	0	60	1048575
2026-01-18 07:00:45.43	351.50	24.81	-85.2	-88.6	2.9	1.55e+00	0	47	104	0	60	1048575
2026-01-18 07:00:46.44	351.33	24.68	-85.2	-88.6	3.2	1.56e+00	0	47	104	0	60	1048575
2026-01-18 07:00:47.45	351.15	24.56	-85.2	-88.6	3.0	1.56e+00	0	47	104	0	60	1048575
2026-01-18 07:00:48.46	350.98	24.43	-85.2	-88.6	3.1	1.55e+00	0	47	104	0	60	1048575
2026-01-18 07:00:49.47	350.80	24.31	-85.2	-88.6	3.0	1.56e+00	0	47	104	0	60	1048575
2026-01-18 07:00:50.47	350.63	24.18	-85.2	-88.6	2.9	1.56e+00	0	47	104	0	60	1048574
2026-01-18 07:00:51.48	350.46	24.06	-85.2	-88.6	3.0	1.56e+00	0	47	104	0	60	1048575
2026-01-18 07:00:52.49	350.30	23.93	-85.2	-88.6	3.1	1.55e+00	0	47	104	0	60	1048575
2026-01-18 07:00:53.49	350.13	23.81	-85.2	-88.6	3.1	1.55e+00	0	47	104	0	60	1048575
2026-01-18 07:00:54.50	349.96	23.69	-85.2	-88.6	3.1	1.55e+00	0	47	104	0	60	1048574
2026-01-18 07:00:55.51	349.80	23.56	-85.2	-88.6	3.0	1.55e+00	0	47	104	0	60	1048573
2026-01-18 07:00:56.51	349.64	23.44	-85.2	-88.6	2.9	1.56e+00	0	47	104	0	60	1048575
2026-01-18 07:00:57.52	349.48	23.32	-85.2	-88.6	3.1	1.55e+00	0	47	104	0	60	1048574
2026-01-18 07:00:58.53	349.32	23.19	-85.2	-88.6	3.1	1.56e+00	0	47	104	0	60	1048575
2026-01-18 07:00:59.53	349.16	23.07	-82.8	-88.6	3.0	1.56e+00	0	47	104	0	60	1048575
2026-01-18 07:01:00.54	349.00	22.95	-85.2	-88.6	3.0	1.56e+00	0	47	104	0	60	1048575
2026-01-18 07:01:01.55	348.84	22.83	-85.2	-88.6	2.9	1.55e+00	0	47	104	0	60	1048575
2026-01-18 07:01:02.56	348.69	22.71	-85.2	-88.6	2.9	1.56e+00	0	47	104	0	60	1048568
2026-01-18 07:01:03.56	348.54	22.59	-85.2	-88.6	3.0	1.56e+00	0	47	104	0	60	1048574
2026-01-18 07:01:04.57	348.38	22.47	-85.2	-88.6	3.0	1.56e+00	0	47	104	0	60	1048573
2026-01-18 07:01:05.58	348.23	22.35	-85.2	-88.6	3.0	1.56e+00	0	47	104	0	60	1048574
2026-01-18 07:01:06.59	348.08	22.23	-85.2	-88.6	3.1	1.56e+00	0	47	104	0	60	1048575
2026-01-18 07:01:07.60	347.93	22.11	-85.2	-88.6	3.1	1.56e+00	0	47	104	0	60	1048573
2026-01-18 07:01:08.60	347.79	21.99	-85.2	-88.6	3.2	1.56e+00	0	47	104	0	60	1048575
2026-01-18 07:01:09.61	347.64	21.87	-85.2	-88.6	3.1	1.56e+00	0	47	104	0	60	1048575
2026-01-18 07:01:10.61	347.49	21.75	-85.2	-88.6	3.0	1.55e+00	0	47	104	0	60	1048575
2026-01-18 07:01:11.62	347.35	21.64	-85.2	-88.6	2.9	1.56e+00	0	47	104	0	60	1048574
2026-01-18 07:01:12.63	347.21	21.52	-85.2	-88.6	3.0	1.56e+00	0	47	104	0	60	1048575
2026-01-18 07:01:13.63	347.06	21.40	-85.2	-88.6	3.0	1.55e+00	0	47	104	0	60	1048574
2026-01-18 07:01:14.64	346.92	21.29	-85.2	-88.6	3.0	1.56e+00	0	47	104	0	60	1048575
2026-01-18 07:01:15.65	346.78	21.17	-85.2	-88.6	3.0	1.56e+00	0	47	104	0	60	1048575
2026-01-18 07:01:16.66	346.64	21.05	-85.2	-88.6	3.0	1.56e+00	0	47	104	0	60	1048575
2026-01-18 07:01:17.67	346.50	20.94	-85.2	-88.6	3.2	1.56e+00	0	47	104	0	60	1048575
2026-01-18 07:01:18.67	346.37	20.82	-85.2	-88.6	3.1	1.56e+00	0	47	104	0	60	1048575
2026-01-18 07:01:19.68	346.23	20.71	-85.2	-88.6	3.0	1.56e+00	0	47	104	0	60	1048575
2026-01-18 07:01:20.69	346.10	20.59	-85.2	-88.6	2.9	1.56e+00	0	47	104	0	60	1048575
2026-01-18 07:01:21.69	345.97	20.48	-85.2	-88.6	3.1	1.56e+00	0	47	104	0	60	1048572
2026-01-18 07:01:22.70	345.83	20.36	-85.2	-88.6	2.9	1.56e+00	0	47	104	0	60	1048575
2026-01-18 07:01:23.71	345.70	20.25	-85.2	-88.6	2.8	1.56e+00	0	47	104	0	60	1048572
2026-01-18 07:01:24.72	345.57	20.14	-85.2	-88.6	3.1	1.55e+00	0	47	104	0	60	1048575
2026-01-18 07:01:25.72	345.44	20.02	-84.3	-88.6	3.1	1.56e+00	0	47	104	0	60	1048575
2026-01-18 07:01:26.73	345.31	19.91	-85.2	-88.6	3.1	1.56e+00	0	47	104	0	60	1048575
2026-01-18 07:01:27.74	345.18	19.80	-85.2	-88.6	2.9	1.56e+00	0	47	104	0	60	1048573
2026-01-18 07:01:28.75	345.06	19.69	-85.2	-88.6	3.1	1.56e+00	0	47	104	0	60	1048575
2026-01-18 07:01:29.76	344.93	19.58	-85.2	-88.6	3.1	1.56e+00	0	47	104	0	60	1048575
2026-01-18 07:01:30.76	344.81	19.46	-85.2	-88.6	2.7	1.56e+00	0	47	104	0	60	1048575
2026-01-18 07:01:31.76	344.68	19.35	-85.2	-88.6	3.1	1.56e+00	0	47	104	0	60	1048573
2026-01-18 07:01:32.77	344.56	19.24	-85.2	-88.6	3.0	1.56e+00	0	47	104	0	60	1048573
2026-01-18 07:01:33.78	344.44	19.13	-85.2	-88.6	3.2	1.56e+00	0	47	104	0	60	1048575
2026-01-18 07:01:34.79	344.32	19.02	-85.2	-88.6	3.0	1.56e+00	0	47	104	0	60	1048575
2026-01-18 07:01:35.80	344.19	18.91	-85.2	-88.6	3.1	1.56e+00	0	47	104	0	60	1048575
2026-01-18 07:01:36.81	344.07	18.80	-85.2	-88.6	2.9	1.55e+00	0	47	104	0	60	1048575
2026-01-18 07:01:37.82	343.96	18.70	-85.2	-88.6	2.9	1.55e+00	0	47	104	0	60	1048573
2026-01-18 07:01:38.82	343.84	18.59	-85.2	-88.6	2.8	1.55e+00	0	47	104	0	60	1048575
2026-01-18 07:01:39.83	343.72	18.48	-85.2	-88.6	3.0	1.56e+00	0	47	104	0	60	1048575
2026-01-18 07:01:40.84	343.61	18.37	-85.2	-88.6	3.2	1.56e+00	0	47	104	0	60	1048575
2026-01-18 07:01:41.84	343.49	18.27	-85.2	-88.6	2.7	1.56e+00	0	47	104	0	60	1048575
2026-01-18 07:01:42.85	343.38	18.16	-85.2	-88.6	2.7	1.56e+00	0	47	104	0	60	1048575
2026-01-18 07:01:43.86	343.26	18.05	-85.2	-88.6	3.1	1.56e+00	0	47	104	0	60	1048573
2026-01-18 07:01:44.86	343.15	17.95	-85.2	-88.6	3.1	1.56e+00	0	47	104	0	60	1048572
2026-01-18 07:01:45.86	343.04	17.84	-84.7	-88.6	3.1	1.56e+00	0	47	104	0	60	1048571
2026-01-18 07:01:46.87	342.93	17.74	-85.2	-88.6	3.2	1.56e+00	0	47	104	0	60	1048574
2026-01-18 07:01:47.87	342.82	17.63	-85.2	-88.6	3.0	1.56e+00	0	47	104	0	60	1048575
2026-01-18 07:01:48.88	342.71	17.53	-85.2	-88.6	3.0	1.56e+00	0	47	104	0	60	1048575
2026-01-18 07:01:49.89	342.60	17.42	-85.2	-88.6	2.8	1.56e+00	0	47	104	0	60	1048575
2026-01-18 07:01:50.90	342.49	17.32	-85.2	-88.6	3.0	1.56e+00	0	47	104	0	60	1048575
2026-01-18 07:01:51.90	342.39	17.21	-82.2	-88.6	2.8	1.55e+00	0	47	104	0	60	1048574
2026-01-18 07:01:52.91	342.28	17.11	-85.2	-88.6	3.0	1.56e+00	0	47	104	0	60	1048575
2026-01-18 07:01:53.91	342.17	17.01	-85.2	-88.6	2.8	1.56e+00	0	47	104	0	60	1048573
2026-01-18 07:01:54.92	342.07	16.90	-85.2	-88.6	3.0	1.56e+00	0	47	104	0	60	1048575
2026-01-18 07:01:55.93	341.96	16.80	-85.2	-88.6	3.0	1.56e+00	0	47	104	0	60	1048571
2026-01-18 07:01:56.93	341.86	16.70	-85.2	-88.6	3.1	1.56e+00	0	47	104	0	60	1048575
2026-01-18 07:01:57.94	341.76	16.60	-85.2	-88.6	3.2	1.56e+00	0	47	104	0	60	1048575
2026-01-18 07:01:58.95	341.66	16.50	-85.2	-88.6	3.1	1.55e+00	0	47	104	0	60	1048575
2026-01-18 07:01:59.96	341.55	16.39	-85.2	-88.6	3.1	1.55e+00	0	47	104	0	60	1048575
2026-01-18 07:02:00.96	341.45	16.29	-84.7	-88.6	3.0	1.56e+00	0	47	104	0	60	1048574
2026-01-18 07:02:01.97	341.35	16.19	-85.2	-88.6	3.0	1.56e+00	0	47	104	0	60	1048573
2026-01-18 07:02:02.98	341.26	16.09	-85.2	-88.6	2.9	1.56e+00	0	47	104	0	60	1048575
2026-01-18 07:02:03.98	341.16	15.99	-85.2	-88.6	2.8	1.56e+00	0	47	104	0	60	1048575
2026-01-18 07:02:04.99	341.06	15.89	-85.2	-88.6	3.2	1.56e+00	0	47	104	0	60	1048575
2026-01-18 07:02:06.00	340.96	15.79	-85.2	-88.6	3.0	1.56e+00	0	47	104	0	60	1048572
2026-01-18 07:02:07.01	340.86	15.69	-85.2	-88.6	3.2	1.56e+00	0	47	104	0	60	1048575
2026-01-18 07:02:08.01	340.77	15.60	-85.2	-88.6	3.2	1.55e+00	0	47	104	0	60	1048575
2026-01-18 07:02:09.02	340.67	15.50	-85.2	-88.6	3.0	1.56e+00	0	47	104	0	60	1048575
2026-01-18 07:02:10.03	340.58	15.40	-85.2	-88.6	3.2	1.56e+00	0	47	104	0	60	1048574
2026-01-18 07:02:11.04	340.49	15.30	-85.2	-88.6	3.3	1.55e+00	0	47	104	0	60	1048575
2026-01-18 07:02:12.05	340.39	15.20	-85.2	-88.6	3.0	1.56e+00	0	47	104	0	60	1048575
2026-01-18 07:02:13.05	340.30	15.11	-85.2	-88.6	3.0	1.55e+00	0	47	104	0	60	1048575
2026-01-18 07:02:14.06	340.21	15.01	-85.2	-88.6	3.2	1.56e+00	0	47	104	0	60	1048574
2026-01-18 07:02:15.07	340.12	14.91	-85.2	-88.6	3.0	1.56e+00	0	47	104	0	60	1048575
2026-01-18 07:02:16.08	340.03	14.82	-85.2	-88.6	2.8	1.56e+00	0	47	104	0	60	1048572
2026-01-18 07:02:17.08	339.94	14.72	-85.2	-88.6	3.0	1.56e+00	0	47	104	0	60	1048575
2026-01-18 07:02:18.09	339.85	14.63	-85.2	-88.6	3.1	1.55e+00	0	47	104	0	60	1048575
2026-01-18 07:02:19.10	339.76	14.53	-85.2	-88.6	3.2	1.56e+00	0	47	104	0	60	1048575
2026-01-18 07:02:20.10	339.67	14.44	-85.2	-88.6	3.0	1.56e+00	0	47	104	0	60	1048571
2026-01-18 07:02:21.11	339.58	14.34	-84.7	-88.6	2.9	1.56e+00	0	47	104	0	60	1048575
2026-01-18 07:02:22.11	339.49	14.25	-85.2	-88.6	3.1	1.56e+00	0	47	104	0	60	1048575
2026-01-18 07:02:23.12	339.41	14.15	-85.2	-88.6	3.0	1.56e+00	0	47	104	0	60	1048572
2026-01-18 07:02:24.13	339.32	14.06	-85.2	-88.6	2.8	1.56e+00	0	47	104	0	60	1048574
2026-01-18 07:02:25.13	339.24	13.97	-85.2	-88.6	3.3	1.56e+00	0	47	104	0	60	1048575
2026-01-18 07:02:26.14	339.15	13.87	-85.2	-88.6	3.0	1.56e+00	0	47	104	0	60	1048575
2026-01-18 07:02:27.15	339.07	13.78	-85.2	-88.6	3.2	1.55e+00	0	47	104	0	60	1048572
2026-01-18 07:02:28.16	338.98	13.69	-85.2	-88.6	2.8	1.56e+00	0	47	104	0	60	1048575
2026-01-18 07:02:29.17	338.90	13.59	-85.2	-88.6	2.9	1.55e+00	0	47	104	0	60	1048574
2026-01-18 07:02:30.17	338.82	13.50	-85.2	-88.6	3.1	1.56e+00	0	47	104	0	60	1048572
2026-01-18 07:02:31.18	338.73	13.41	-83.5	-88.6	3.2	1.56e+00	0	47	104	0	60	1048573
2026-01-18 07:02:32.19	338.65	13.32	-85.2	-88.6	2.9	1.56e+00	0	47	104	0	60	1048574
2026-01-18 07:02:33.20	338.57	13.23	-85.2	-88.6	3.0	1.56e+00	0	47	104	0	60	1048575
2026-01-18 07:02:34.20	338.49	13.14	-85.2	-88.6	3.0	1.56e+00	0	47	104	0	60	1048575
2026-01-18 07:02:35.21	338.41	13.05	-85.2	-88.6	3.1	1.56e+00	0	47	104	0	60	1048573
2026-01-18 07:02:36.22	338.33	12.96	-85.2	-88.6	3.2	1.56e+00	0	47	104	0	60	1048574
2026-01-18 07:02:37.22	338.25	12.87	-85.2	-88.6	2.8	1.56e+00	0	47	104	0	60	1048572
2026-01-18 07:02:38.23	338.17	12.78	-85.2	-88.6	3.0	1.56e+00	0	47	104	0	60	1048574
2026-01-18 07:02:39.23	338.10	12.69	-85.2	-88.6	3.2	1.56e+00	0	47	104	0	60	1048575
2026-01-18 07:02:40.24	338.02	12.60	-85.2	-88.6	3.0	1.56e+00	0	47	104	0	60	1048573
2026-01-18 07:02:41.25	337.94	12.51	-85.2	-88.6	3.0	1.56e+00	0	47	104	0	60	1048575
2026-01-18 07:02:42.26	337.86	12.42	-85.2	-88.6	3.1	1.56e+00	0	47	104	0	60	1048571
2026-01-18 07:02:43.26	337.79	12.33	-85.2	-88.6	2.9	1.56e+00	0	47	104	0	60	1048573
2026-01-18 07:02:44.27	337.71	12.24	-85.2	-88.6	3.1	1.56e+00	0	48	104	0	60	1048574
2026-01-18 07:02:45.28	337.64	12.15	-85.2	-88.6	2.9	1.55e+00	0	47	104	0	60	1048575
2026-01-18 07:02:46.29	337.56	12.07	-85.2	-88.6	3.1	1.55e+00	0	47	104	0	60	1048575
2026-01-18 07:02:47.30	337.49	11.98	-85.2	-88.6	3.2	1.55e+00	0	47	104	0	60	1048575
2026-01-18 07:02:48.31	337.41	11.89	-85.2	-88.6	2.9	1.56e+00	0	47	104	0	60	1048572
2026-01-18 07:02:49.31	337.34	11.81	-85.2	-88.6	2.8	1.56e+00	0	47	104	0	60	1048575
2026-01-18 07:02:50.32	337.27	11.72	-85.2	-88.6	3.0	1.56e+00	0	47	104	0	60	1048573
2026-01-18 07:02:51.32	337.20	11.63	-85.2	-88.6	3.1	1.56e+00	0	47	104	0	60	1048575
2026-01-18 07:02:52.33	337.12	11.55	-85.2	-88.6	3.0	1.55e+00	0	47	104	0	60	1048575
2026-01-18 07:02:53.33	337.05	11.46	-85.2	-88.6	3.1	1.55e+00	0	47	104	0	60	1048574
2026-01-18 07:02:54.34	336.98	11.38	-85.2	-88.6	2.9	1.55e+00	0	47	104	0	60	1048575
2026-01-18 07:02:55.34	336.91	11.29	-85.2	-88.6	3.0	1.56e+00	0	47	104	0	60	1048574
2026-01-18 07:02:56.35	336.84	11.21	-85.2	-88.6	3.0	1.55e+00	0	47	104	0	60	1048574
2026-01-18 07:02:57.36	336.77	11.12	-85.2	-88.6	3.0	1.56e+00	0	47	104	0	60	1048575
2026-01-18 07:02:58.36	336.70	11.04	-85.2	-88.6	2.8	1.56e+00	0	47	104	0	60	1048573
2026-01-18 07:02:59.36	336.63	10.95	-85.2	-88.6	3.1	1.55e+00	0	47	104	0	60	1048571
2026-01-18 07:03:00.37	336.56	10.87	-85.2	-88.6	3.0	1.56e+00	0	47	104	0	60	1048574
2026-01-18 07:03:01.37	336.50	10.79	-85.2	-88.6	2.9	1.55e+00	0	47	104	0	60	1048575
2026-01-18 07:03:02.38	336.43	10.70	-85.2	-88.6	3.0	1.56e+00	0	47	104	0	60	1048575
2026-01-18 07:03:03.38	336.36	10.62	-85.2	-88.6	3.0	1.55e+00	0	47	104	0	60	1048575
2026-01-18 07:03:04.39	336.29	10.54	-85.2	-88.6	2.8	1.55e+00	0	47	104	0	60	1048574
2026-01-18 07:03:05.39	336.23	10.45	-85.2	-88.6	2.8	1.56e+00	0	47	104	0	60	1048575
2026-01-18 07:03:06.39	336.16	10.37	-85.2	-88.6	2.8	1.56e+00	0	47	104	0	60	1048575
2026-01-18 07:03:07.40	336.10	10.29	-85.2	-88.6	3.1	1.56e+00	0	47	104	0	60	1048573
2026-01-18 07:03:08.41	336.03	10.21	-85.2	-88.6	3.1	1.56e+00	0	47	104	0	60	1048574
2026-01-18 07:03:09.42	335.97	10.12	-85.2	-88.6	2.8	1.55e+00	0	47	104	0	60	1048575
2026-01-18 07:03:10.42	335.90	10.04	-85.2	-88.6	3.0	1.56e+00	0	48	104	0	60	1048575
2026-01-18 07:03:11.43	335.84	9.96	-85.2	-88.6	3.1	1.56e+00	0	47	104	0	60	1048574
2026-01-18 07:03:12.43	335.77	9.88	-85.2	-88.6	2.9	1.56e+00	0	47	104	0	60	1048575
2026-01-18 07:03:13.43	335.71	9.80	-85.2	-88.6	3.1	1.56e+00	0	47	104	0	60	1048574
2026-01-18 07:03:14.44	335.65	9.72	-85.2	-88.6	2.8	1.56e+00	0	47	104	0	60	1048573
2026-01-18 07:03:15.45	335.59	9.64	-85.2	-88.6	3.1	1.55e+00	0	47	104	0	60	1048572
2026-01-18 07:03:16.46	335.52	9.56	-85.2	-88.6	2.9	1.55e+00	0	47	104	0	60	1048573
2026-01-18 07:03:17.47	335.46	9.48	-85.2	-88.6	3.2	1.56e+00	0	47	104	0	60	1048575
2026-01-18 07:03:18.48	335.40	9.40	-85.2	-88.6	3.1	1.56e+00	0	47	104	0	60	1048573
2026-01-18 07:03:19.48	335.34	9.32	-85.2	-88.6	3.0	1.56e+00	0	47	104	0	60	1048574
2026-01-18 07:03:20.49	335.28	9.24	-85.2	-88.6	3.0	1.56e+00	0	47	104	0	60	1048574
2026-01-18 07:03:21.50	335.22	9.16	-84.7	-88.6	3.0	1.56e+00	0	47	104	0	60	1048575
2026-01-18 07:03:22.51	335.16	9.08	-85.2	-88.6	3.0	1.56e+00	0	47	104	0	60	1048574
2026-01-18 07:03:23.51	335.10	9.00	-85.2	-88.6	3.1	1.55e+00	0	47	104	0	60	1048572
2026-01-18 07:03:24.51	335.04	8.92	-85.2	-88.6	3.2	1.55e+00	0	47	104	0	60	1048575
2026-01-18 07:03:25.52	334.98	8.84	-85.2	-88.6	3.1	1.56e+00	0	47	104	0	60	1048575
2026-01-18 07:03:26.52	334.92	8.77	-85.2	-88.6	2.9	1.56e+00	0	47	104	0	60	1048574
2026-01-18 07:03:27.53	334.86	8.69	-85.2	-88.6	3.2	1.55e+00	0	47	104	0	60	1048574
2026-01-18 07:03:28.53	334.80	8.61	-85.2	-88.6	3.0	1.56e+00	0	47	104	0	60	1048575
2026-01-18 07:03:29.54	334.75	8.53	-85.2	-88.6	3.2	1.56e+00	0	47	104	0	60	1048575
2026-01-18 07:03:30.54	334.69	8.46	-85.2	-88.6	2.9	1.56e+00	0	47	104	0	60	1048573
2026-01-18 07:03:31.55	334.63	8.38	-85.2	-88.6	3.2	1.56e+00	0	47	104	0	60	1048575
2026-01-18 07:03:32.54	334.58	8.30	-85.2	-88.6	3.1	1.56e+00	0	47	104	0	60	1048575
2026-01-18 07:03:33.55	334.52	8.23	-85.2	-88.6	2.9	1.56e+00	0	47	104	0	60	1048575
2026-01-18 07:03:34.56	334.46	8.15	-85.2	-88.6	3.1	1.56e+00	0	47	104	0	60	1048573
2026-01-18 07:03:35.56	334.41	8.08	-85.2	-88.6	3.0	1.56e+00	0	47	104	0	60	1048574
2026-01-18 07:03:36.57	334.35	8.00	-85.2	-88.6	3.0	1.56e+00	0	47	104	0	60	1048574
2026-01-18 07:03:37.58	334.30	7.92	-85.2	-88.6	3.2	1.55e+00	0	47	104	0	60	1048574
2026-01-18 07:03:38.58	334.24	7.85	-85.2	-88.6	3.2	1.55e+00	0	47	104	0	60	1048573
2026-01-18 07:03:39.58	334.19	7.77	-85.2	-88.6	3.0	1.55e+00	0	47	104	0	60	1048575
2026-01-18 07:03:40.58	334.13	7.70	-85.2	-88.6	3.2	1.55e+00	0	47	104	0	60	1048573
2026-01-18 07:03:41.59	334.08	7.62	-85.2	-88.6	3.3	1.56e+00	0	47	104	0	60	1048575
2026-01-18 07:03:42.59	334.03	7.55	-85.2	-88.6	3.2	1.56e+00	0	47	104	0	60	1048574
2026-01-18 07:03:43.60	333.97	7.47	-85.2	-88.6	2.8	1.56e+00	0	47	104	0	60	1048575
2026-01-18 07:03:44.60	333.92	7.40	-85.2	-88.6	3.1	1.56e+00	0	47	104	0	60	1048574
2026-01-18 07:03:45.61	333.87	7.32	-85.2	-88.6	3.0	1.56e+00	0	47	104	0	60	1048572
2026-01-18 07:03:46.62	333.81	7.25	-85.2	-88.6	3.0	1.56e+00	0	47	104	0	60	1048572
2026-01-18 07:03:47.63	333.76	7.18	-85.2	-88.6	3.0	1.56e+00	0	47	104	0	60	1048575
2026-01-18 07:03:48.64	333.71	7.10	-85.2	-88.6	3.0	1.55e+00	0	47	104	0	60	1048575
2026-01-18 07:03:49.64	333.66	7.03	-85.2	-88.6	3.0	1.55e+00	0	47	104	0	60	1048573
2026-01-18 07:03:50.65	333.61	6.96	-85.2	-88.6	2.9	1.55e+00	0	47	104	0	60	1048573
2026-01-18 07:03:51.66	333.55	6.88	-85.2	-88.6	3.1	1.55e+00	0	47	104	0	60	1048573
2026-01-18 07:03:52.67	333.50	6.81	-85.2	-88.6	3.1	1.56e+00	0	47	104	0	60	1048574
2026-01-18 07:03:53.68	333.45	6.74	-85.2	-88.6	3.1	1.56e+00	0	47	104	0	60	1048574
2026-01-18 07:03:54.68	333.40	6.66	-85.2	-88.6	3.1	1.56e+00	0	47	104	0	60	1048575
2026-01-18 07:03:55.68	333.35	6.59	-85.2	-88.6	2.7	1.56e+00	0	47	104	0	60	1048575
2026-01-18 07:03:56.68	333.30	6.52	-85.2	-88.6	3.0	1.56e+00	0	47	104	0	60	1048575
2026-01-18 07:03:57.69	333.25	6.45	-85.2	-88.6	2.9	1.56e+00	0	47	104	0	60	1048575
2026-01-18 07:03:58.69	333.20	6.38	-85.2	-88.6	3.0	1.56e+00	0	47	104	0	60	1048575
2026-01-18 07:03:59.70	333.15	6.30	-85.2	-88.6	3.2	1.56e+00	0	47	104	0	60	1048574
2026-01-18 07:04:00.70	333.11	6.23	-85.2	-88.6	3.2	1.56e+00	0	47	104	0	60	1048574
2026-01-18 07:04:01.71	333.06	6.16	-84.7	-88.6	2.9	1.56e+00	0	47	104	0	60	1048575
2026-01-18 07:04:02.70	333.01	6.09	-85.2	-88.6	2.9	1.55e+00	0	47	104	0	60	1048574
2026-01-18 07:04:03.71	332.96	6.02	-85.2	-88.6	2.8	1.56e+00	0	47	104	0	60	1048574
2026-01-18 07:04:04.71	332.91	5.95	-85.2	-88.6	3.0	1.56e+00	0	47	104	0	60	1048573
2026-01-18 07:04:05.72	332.87	5.88	-85.2	-88.6	2.9	1.56e+00	0	47	104	0	60	1048575
2026-01-18 07:04:06.73	332.82	5.81	-85.2	-88.6	3.2	1.56e+00	0	47	104	0	60	1048571
2026-01-18 07:04:07.73	332.77	5.74	-85.2	-88.6	3.1	1.56e+00	0	47	104	0	60	1048568
2026-01-18 07:04:08.74	332.73	5.67	-85.2	-88.6	2.9	1.55e+00	0	47	104	0	60	1048575
2026-01-18 07:04:09.74	332.68	5.60	-85.2	-88.6	3.1	1.56e+00	0	47	104	0	60	1048575
2026-01-18 07:04:10.75	332.63	5.53	-85.2	-88.6	3.0	1.56e+00	0	47	104	0	60	1048575
2026-01-18 07:04:11.76	332.59	5.46	-85.2	-88.6	3.1	1.55e+00	0	47	104	0	60	1048575
2026-01-18 07:04:12.76	332.54	5.39	-85.2	-88.6	3.1	1.56e+00	0	47	104	0	60	1048574
2026-01-18 07:04:13.77	332.50	5.32	-85.2	-88.6	2.9	1.56e+00	0	47	104	0	60	1048575
2026-01-18 07:04:14.78	332.45	5.25	-85.2	-88.6	3.0	1.56e+00	0	47	104	0	60	1048571
2026-01-18 07:04:15.79	332.41	5.18	-85.2	-88.6	2.9	1.56e+00	0	47	104	0	60	1048574
2026-01-18 07:04:16.80	332.36	5.11	-85.2	-88.6	3.0	1.56e+00	0	47	104	0	60	1048575
2026-01-18 07:04:17.81	332.32	5.04	-85.2	-88.6	3.0	1.56e+00	0	47	104	0	60	1048575
2026-01-18 07:04:18.82	332.27	4.97	-85.2	-88.6	3.2	1.56e+00	0	47	104	0	60	1048574
2026-01-18 07:04:19.82	332.23	4.91	-85.2	-88.6	2.8	1.55e+00	0	47	104	0	60	1048574
2026-01-18 07:04:20.83	332.18	4.84	-85.2	-88.6	3.0	1.56e+00	0	47	104	0	60	1048571
2026-01-18 07:04:21.84	332.14	4.77	-85.2	-88.6	3.0	1.56e+00	0	47	104	0	60	1048575
2026-01-18 07:04:22.85	332.10	4.70	-85.2	-88.6	3.2	1.56e+00	0	47	104	0	60	1048575
2026-01-18 07:04:23.85	332.05	4.63	-85.2	-88.6	3.0	1.56e+00	0	47	104	0	60	1048574
2026-01-18 07:04:24.86	332.01	4.57	-85.2	-88.6	2.9	1.56e+00	0	47	104	0	60	1048574
2026-01-18 07:04:25.87	331.97	4.50	-85.2	-88.6	3.0	1.56e+00	0	47	104	0	60	1048574
2026-01-18 07:04:26.87	331.92	4.43	-85.2	-88.6	3.0	1.56e+00	0	47	104	0	60	1048574
2026-01-18 07:04:27.88	331.88	4.37	-85.2	-88.6	3.2	1.55e+00	0	47	104	0	60	1048573
2026-01-18 07:04:28.88	331.84	4.30	-85.2	-88.6	3.1	1.56e+00	0	47	104	0	60	1048575
2026-01-18 07:04:29.89	331.80	4.23	-85.2	-88.6	2.9	1.56e+00	0	47	104	0	60	1048575
2026-01-18 07:04:30.90	331.76	4.16	-85.2	-88.6	3.1	1.56e+00	0	47	104	0	60	1048575
2026-01-18 07:04:31.91	331.71	4.10	-85.2	-88.6	2.9	1.56e+00	0	47	104	0	60	1048575
2026-01-18 07:04:32.92	331.67	4.03	-85.2	-88.6	3.1	1.56e+00	0	47	104	0	60	1048575
2026-01-18 07:04:33.93	331.63	3.96	-85.2	-88.6	2.8	1.56e+00	0	47	104	0	60	1048575
2026-01-18 07:04:34.93	331.59	3.90	-85.2	-88.6	3.1	1.56e+00	0	47	104	0	60	1048575
2026-01-18 07:04:35.93	331.55	3.83	-85.2	-88.6	3.0	1.56e+00	0	47	104	0	60	1048575
2026-01-18 07:04:36.94	331.51	3.77	-85.2	-88.6	2.8	1.55e+00	0	47	104	0	60	1048575
2026-01-18 07:04:37.95	331.47	3.70	-85.2	-88.6	3.1	1.56e+00	0	47	104	0	60	1048570
2026-01-18 07:04:38.96	331.43	3.64	-85.2	-88.6	2.9	1.56e+00	0	47	104	0	60	1048575
2026-01-18 07:04:39.96	331.39	3.57	-85.2	-88.6	3.0	1.55e+00	0	47	104	0	60	1048574
2026-01-18 07:04:40.97	331.35	3.51	-85.2	-88.6	3.3	1.56e+00	0	47	104	0	60	1048572
2026-01-18 07:04:41.98	331.31	3.44	-85.2	-88.6	3.0	1.55e+00	0	47	104	0	60	1048575
2026-01-18 07:04:42.99	331.27	3.38	-85.2	-88.6	3.0	1.56e+00	0	47	104	0	60	1048573
2026-01-18 07:04:43.99	331.23	3.31	-85.2	-88.6	3.3	1.55e+00	0	47	104	0	60	1048574
2026-01-18 07:04:45.00	331.19	3.25	-85.2	-88.6	3.1	1.56e+00	0	47	104	0	60	1048575
2026-01-18 07:04:46.00	331.15	3.18	-85.2	-88.6	3.0	1.56e+00	0	47	104	0	60	1048575
2026-01-18 07:04:47.01	331.11	3.12	-85.2	-88.6	2.9	1.56e+00	0	47	104	0	60	1048574
2026-01-18 07:04:48.01	331.08	3.05	-85.2	-88.6	3.1	1.56e+00	0	47	104	0	60	1048575
2026-01-18 07:04:49.01	331.04	2.99	-85.2	-88.6	3.0	1.56e+00	0	47	104	0	60	1048574
2026-01-18 07:04:50.02	331.00	2.93	-85.2	-88.6	3.2	1.56e+00	0	47	104	0	60	1048575
2026-01-18 07:04:51.03	330.96	2.86	-85.2	-88.6	3.2	1.56e+00	0	47	104	0	60	1048571
2026-01-18 07:04:52.04	330.92	2.80	-85.2	-88.6	2.9	1.56e+00	0	47	104	0	60	1048575
2026-01-18 07:04:53.04	330.89	2.73	-85.2	-88.6	3.1	1.56e+00	0	47	104	0	60	1048575
2026-01-18 07:04:54.05	330.85	2.67	-85.2	-88.6	3.0	1.56e+00	0	47	104	0	60	1048573
2026-01-18 07:04:55.06	330.81	2.61	-85.2	-88.6	3.2	1.56e+00	0	47	104	0	60	1048575
2026-01-18 07:04:56.07	330.78	2.54	-85.2	-88.6	2.9	1.56e+00	0	47	104	0	60	1048574
2026-01-18 07:04:57.08	330.74	2.48	-85.2	-88.6	2.9	1.56e+00	0	47	104	0	60	1048574
2026-01-18 07:04:58.09	330.70	2.42	-85.2	-88.6	2.9	1.56e+00	0	47	104	0	60	1048575
2026-01-18 07:04:59.10	330.67	2.35	-85.2	-88.6	2.8	1.55e+00	0	47	104	0	60	1048574
2026-01-18 07:05:00.10	330.63	2.29	-85.2	-88.6	3.0	1.55e+00	0	47	104	0	60	1048575
2026-01-18 07:05:01.11	330.59	2.23	-84.3	-88.6	3.0	1.56e+00	0	47	104	0	60	1048572
2026-01-18 07:05:02.11	330.56	2.17	-85.2	-88.6	3.0	1.55e+00	0	47	104	0	60	1048575
2026-01-18 07:05:03.12	330.52	2.10	-85.2	-88.6	3.0	1.55e+00	0	47	104	0	60	1048573
2026-01-18 07:05:04.12	330.49	2.04	-85.2	-88.6	2.9	1.56e+00	0	47	104	0	60	1048573
2026-01-18 07:05:05.13	330.45	1.98	-85.2	-88.6	3.0	1.56e+00	0	47	104	0	60	1048575
2026-01-18 07:05:06.14	330.41	1.92	-85.2	-88.6	2.9	1.55e+00	0	47	104	0	60	1048575
2026-01-18 07:05:07.15	330.38	1.86	-85.2	-88.6	2.9	1.56e+00	0	47	104	0	60	1048572
2026-01-18 07:05:08.15	330.35	1.79	-85.2	-88.6	2.9	1.56e+00	0	47	104	0	60	1048575
2026-01-18 07:05:09.16	330.31	1.73	-85.2	-88.6	3.0	1.55e+00	0	47	104	0	60	1048574
2026-01-18 07:05:10.17	330.28	1.67	-85.2	-88.6	2.9	1.55e+00	0	47	104	0	60	1048568
2026-01-18 07:05:11.17	330.24	1.61	-85.2	-88.6	2.8	1.56e+00	0	47	104	0	60	1048575
2026-01-18 07:05:12.18	330.21	1.55	-85.2	-88.6	3.0	1.56e+00	0	47	104	0	60	1048572
2026-01-18 07:05:13.19	330.17	1.49	-85.2	-88.6	3.0	1.55e+00	0	47	104	0	60	1048575
2026-01-18 07:05:14.20	330.14	1.43	-85.2	-88.6	3.1	1.56e+00	0	47	104	0	60	1048569
2026-01-18 07:05:15.20	330.10	1.37	-85.2	-88.6	3.1	1.56e+00	0	47	104	0	60	1048573
2026-01-18 07:05:16.21	330.07	1.30	-85.2	-88.6	3.0	1.56e+00	0	47	104	0	60	1048575
2026-01-18 07:05:17.22	330.04	1.24	-85.2	-88.6	3.0	1.56e+00	0	47	104	0	60	1048575
2026-01-18 07:05:18.23	330.00	1.18	-85.2	-88.6	3.1	1.55e+00	0	47	104	0	60	1048575
2026-01-18 07:05:19.24	329.97	1.12	-85.2	-88.6	2.9	1.55e+00	0	47	104	0	60	1048571
2026-01-18 07:05:20.25	329.94	1.06	-85.2	-88.6	3.0	1.56e+00	0	47	104	0	60	1048574
2026-01-18 07:05:21.25	329.90	1.00	-85.2	-88.6	2.8	1.56e+00	0	47	104	0	60	1048575
2026-01-18 07:05:22.26	329.87	0.94	-85.2	-88.6	3.1	1.56e+00	0	47	104	0	60	1048575
2026-01-18 07:05:23.26	329.84	0.88	-85.2	-88.6	3.0	1.56e+00	0	47	104	0	60	1048575
2026-01-18 07:05:24.27	329.81	0.82	-85.2	-88.6	2.9	1.56e+00	0	47	104	0	60	1048575
2026-01-18 07:05:25.28	329.77	0.76	-85.2	-88.6	2.8	1.56e+00	0	47	104	0	60	1048572
2026-01-18 07:05:26.28	329.74	0.70	-85.2	-88.6	3.1	1.56e+00	0	47	104	0	60	1048575
2026-01-18 07:05:27.29	329.71	0.64	-85.2	-88.6	2.8	1.56e+00	0	47	104	0	60	1048575
2026-01-18 07:05:28.30	329.68	0.58	-85.2	-88.6	2.9	1.56e+00	0	47	104	0	60	1048575
2026-01-18 07:05:29.30	329.65	0.52	-85.2	-88.6	3.1	1.56e+00	0	47	104	0	60	1048575
2026-01-18 07:05:30.31	329.62	0.47	-85.2	-88.6	2.9	1.55e+00	0	47	104	0	60	1048574
2026-01-18 07:05:31.32	329.58	0.41	-85.2	-88.6	3.0	1.55e+00	0	47	104	0	60	1048574
2026-01-18 07:05:32.33	329.55	0.35	-85.2	-88.6	3.1	1.56e+00	0	47	104	0	60	1048572
2026-01-18 07:05:33.33	329.52	0.29	-85.2	-88.6	3.0	1.55e+00	0	47	104	0	60	1048575
2026-01-18 07:05:34.33	329.49	0.23	-85.2	-88.6	3.0	1.56e+00	0	47	104	0	60	1048574
2026-01-18 07:05:35.34	329.46	0.17	-85.2	-88.6	3.0	1.55e+00	0	47	104	0	60	1048574
2026-01-18 07:05:36.34	329.43	0.11	-85.2	-88.6	2.9	1.55e+00	0	47	104	0	60	1048575
2026-01-18 07:05:37.35	329.40	0.05	-85.2	-88.6	3.0	1.56e+00	0	47	104	0	60	1048573
2026-01-18 07:05:38.36	329.37	-0.00	-85.2	-88.6	2.9	1.56e+00	0	47	104	0	60	1048574

#Closed at: 2026-01-18 07:05:39
#Recorded file [0 MB]: D:/Data/35015_260118_095436.dat