passes_logs/2026/01/18/R3.2S-Naryan-Mar/R3.2S-Naryan-Mar__20260118_155758_TY-42_rec.log

#Pass ID: 20260118_155758_TY-42
#Satellite: TY-42
#Configuration: TY-42
#almurnet v.1.7.20240730
#Start time: 2026-01-18 15:57:59

#Version: 2.2.20231116
#Station: R3.2S-Naryan-Mar
#Location: 53.008057 lon 67.646978 lat
#TLE: 1 64048U 25103A   26018.53100694  .00008009  00000-0  38191-3 0 09990
#TLE: 2 64048 097.4124 093.8820 0001871 093.1015 305.9816 15.19165829 37354

#Time	Az	El	Level	Level2	SNR	BER	BlckErr	Temp	State	Recorded	gain1	gain2
2026-01-18 15:57:59.65	116.31	0.04	-83.1	-79.0	2.3	0.00e+00	0	45	0	0	60	1048573
2026-01-18 15:58:00.64	116.25	0.10	-83.1	-79.0	2.3	0.00e+00	0	46	104	0	60	1048573
2026-01-18 15:58:01.65	116.19	0.17	-83.1	-79.0	2.5	0.00e+00	0	46	104	0	60	1048573
2026-01-18 15:58:02.65	116.13	0.23	-83.5	-79.0	2.4	0.00e+00	0	47	104	0	60	1048575
2026-01-18 15:58:03.66	116.08	0.29	-83.1	-79.0	2.4	0.00e+00	0	47	104	0	60	1048567
2026-01-18 15:58:04.67	116.02	0.35	-83.1	-79.0	2.4	0.00e+00	0	47	104	0	60	1048571
2026-01-18 15:58:05.67	115.96	0.41	-83.5	-79.0	2.1	0.00e+00	0	47	104	0	60	1048575
2026-01-18 15:58:06.68	115.90	0.47	-83.5	-79.0	2.3	0.00e+00	0	47	104	0	60	1048575
2026-01-18 15:58:07.69	115.84	0.54	-83.5	-79.0	2.5	0.00e+00	0	47	104	0	60	1048575
2026-01-18 15:58:08.70	115.78	0.60	-82.8	-79.0	2.3	0.00e+00	0	47	104	0	60	1048575
2026-01-18 15:58:09.70	115.72	0.66	-83.1	-79.0	2.4	0.00e+00	0	47	104	0	60	1048575
2026-01-18 15:58:10.71	115.66	0.72	-83.5	-79.0	2.4	0.00e+00	0	47	104	0	60	1048566
2026-01-18 15:58:11.72	115.60	0.78	-83.5	-79.0	2.3	0.00e+00	0	47	104	0	60	1048572
2026-01-18 15:58:12.73	115.54	0.85	-83.5	-79.0	2.6	0.00e+00	0	47	104	0	60	1048574
2026-01-18 15:58:13.73	115.48	0.91	-83.1	-79.0	2.4	0.00e+00	0	47	104	0	60	1048575
2026-01-18 15:58:14.74	115.42	0.97	-83.1	-79.0	2.5	0.00e+00	0	47	104	0	60	1048575
2026-01-18 15:58:15.74	115.36	1.04	-83.1	-79.0	2.3	0.00e+00	0	47	104	0	60	1048575
2026-01-18 15:58:16.75	115.29	1.10	-83.5	-79.0	2.7	0.00e+00	0	47	104	0	60	1048573
2026-01-18 15:58:17.76	115.23	1.16	-83.1	-79.0	2.3	0.00e+00	0	47	104	0	60	1048573
2026-01-18 15:58:18.77	115.17	1.23	-82.8	-79.0	2.4	0.00e+00	0	47	104	0	60	1048575
2026-01-18 15:58:19.77	115.10	1.29	-83.5	-79.0	2.4	0.00e+00	0	47	104	0	60	1048572
2026-01-18 15:58:20.78	115.04	1.35	-83.5	-79.0	2.4	0.00e+00	0	47	104	0	60	1048575
2026-01-18 15:58:21.78	114.98	1.42	-83.5	-79.0	2.5	0.00e+00	0	47	104	0	60	1048575
2026-01-18 15:58:22.79	114.91	1.48	-82.8	-79.0	2.4	0.00e+00	0	47	104	0	60	1048571
2026-01-18 15:58:23.80	114.85	1.55	-83.1	-79.0	2.4	0.00e+00	0	47	104	0	60	1048575
2026-01-18 15:58:24.80	114.78	1.61	-83.5	-79.0	2.3	0.00e+00	0	47	104	0	60	1048575
2026-01-18 15:58:25.81	114.72	1.67	-83.5	-79.0	2.4	0.00e+00	0	47	104	0	60	1048575
2026-01-18 15:58:26.82	114.65	1.74	-83.5	-79.0	2.5	0.00e+00	0	47	104	0	60	1048575
2026-01-18 15:58:27.82	114.58	1.80	-82.8	-79.0	2.4	0.00e+00	0	47	104	0	60	1048575
2026-01-18 15:58:28.83	114.52	1.87	-83.5	-79.0	2.4	0.00e+00	0	47	104	0	60	1048572
2026-01-18 15:58:29.84	114.45	1.93	-83.5	-79.0	2.4	0.00e+00	0	47	104	0	60	1048566
2026-01-18 15:58:30.85	114.38	2.00	-83.5	-79.0	2.4	0.00e+00	0	47	104	0	60	1048572
2026-01-18 15:58:31.86	114.31	2.07	-83.5	-79.0	2.5	0.00e+00	0	47	104	0	60	1048575
2026-01-18 15:58:32.87	114.25	2.13	-83.1	-79.0	2.3	0.00e+00	0	47	104	0	60	1048575
2026-01-18 15:58:33.88	114.18	2.20	-83.1	-79.0	2.4	0.00e+00	0	47	104	0	60	1048570
2026-01-18 15:58:34.88	114.11	2.26	-83.5	-79.0	2.4	0.00e+00	0	47	104	0	60	1048573
2026-01-18 15:58:35.89	114.04	2.33	-83.5	-79.0	2.4	0.00e+00	0	47	104	0	60	1048570
2026-01-18 15:58:36.90	113.97	2.40	-83.1	-79.0	2.4	0.00e+00	0	47	104	0	60	1048565
2026-01-18 15:58:37.91	113.90	2.46	-83.1	-79.0	2.4	0.00e+00	0	47	104	0	60	1048572
2026-01-18 15:58:38.91	113.83	2.53	-83.5	-79.0	2.3	0.00e+00	0	48	104	0	60	1048575
2026-01-18 15:58:39.92	113.76	2.60	-83.5	-79.0	2.3	0.00e+00	0	47	104	0	60	1048574
2026-01-18 15:58:40.93	113.68	2.66	-83.5	-79.0	2.3	0.00e+00	0	47	104	0	60	1048574
2026-01-18 15:58:41.94	113.61	2.73	-82.8	-79.0	2.4	0.00e+00	0	48	104	0	60	1048572
2026-01-18 15:58:42.95	113.54	2.80	-83.1	-79.0	2.4	0.00e+00	0	48	104	0	60	1048572
2026-01-18 15:58:43.96	113.46	2.87	-83.5	-79.0	2.5	0.00e+00	0	47	104	0	60	1048570
2026-01-18 15:58:44.96	113.39	2.94	-83.5	-79.0	2.4	0.00e+00	0	48	104	0	60	1048569
2026-01-18 15:58:45.97	113.32	3.00	-83.5	-79.0	2.5	0.00e+00	0	48	104	0	60	1048574
2026-01-18 15:58:46.98	113.24	3.07	-82.8	-79.0	2.5	0.00e+00	0	48	104	0	60	1048570
2026-01-18 15:58:47.99	113.17	3.14	-83.1	-79.0	2.5	0.00e+00	0	48	104	0	60	1048575
2026-01-18 15:58:49.00	113.09	3.21	-83.1	-79.0	2.4	0.00e+00	0	48	104	0	60	1048567
2026-01-18 15:58:50.01	113.02	3.28	-83.5	-79.0	2.4	0.00e+00	0	48	104	0	60	1048572
2026-01-18 15:58:51.01	112.94	3.35	-83.5	-79.0	2.3	0.00e+00	0	48	104	0	60	1048573
2026-01-18 15:58:52.02	112.86	3.42	-83.1	-79.0	2.4	0.00e+00	0	48	104	0	60	1048574
2026-01-18 15:58:53.03	112.79	3.49	-83.5	-79.0	2.3	0.00e+00	0	48	104	0	60	1048568
2026-01-18 15:58:54.04	112.71	3.55	-83.5	-79.0	2.5	0.00e+00	0	48	104	0	60	1048571
2026-01-18 15:58:55.04	112.63	3.62	-83.1	-79.0	2.3	0.00e+00	0	48	104	0	60	1048569
2026-01-18 15:58:56.05	112.55	3.69	-83.1	-79.0	2.4	0.00e+00	0	48	104	0	60	1048574
2026-01-18 15:58:57.06	112.47	3.76	-83.1	-79.0	2.4	0.00e+00	0	48	104	0	60	1048574
2026-01-18 15:58:58.06	112.39	3.83	-83.5	-79.0	2.5	0.00e+00	0	48	104	0	60	1048570
2026-01-18 15:58:59.06	112.31	3.90	-83.5	-79.0	2.4	0.00e+00	0	48	104	0	60	1048568
2026-01-18 15:59:00.07	112.23	3.98	-83.5	-79.0	2.3	0.00e+00	0	48	104	0	60	1048575
2026-01-18 15:59:01.07	112.15	4.05	-82.8	-79.0	2.5	0.00e+00	0	48	104	0	60	1048569
2026-01-18 15:59:02.08	112.07	4.12	-83.1	-79.0	2.4	0.00e+00	0	48	104	0	60	1048567
2026-01-18 15:59:03.09	111.99	4.19	-83.5	-79.0	2.4	0.00e+00	0	48	104	0	60	1048575
2026-01-18 15:59:04.10	111.90	4.26	-83.5	-79.0	2.3	0.00e+00	0	48	104	0	60	1048574
2026-01-18 15:59:05.10	111.82	4.33	-83.1	-79.0	2.4	0.00e+00	0	48	104	0	60	1048574
2026-01-18 15:59:06.11	111.74	4.40	-83.1	-79.0	2.2	0.00e+00	0	48	104	0	60	1048575
2026-01-18 15:59:07.11	111.65	4.47	-83.5	-79.0	2.4	0.00e+00	0	48	104	0	60	1048572
2026-01-18 15:59:08.12	111.57	4.55	-83.1	-79.0	2.4	0.00e+00	0	48	104	0	60	1048575
2026-01-18 15:59:09.12	111.48	4.62	-83.5	-79.0	2.4	0.00e+00	0	48	104	0	60	1048575
2026-01-18 15:59:10.13	111.40	4.69	-83.5	-79.0	2.3	0.00e+00	0	48	104	0	60	1048572
2026-01-18 15:59:11.14	111.31	4.77	-83.1	-79.0	2.4	0.00e+00	0	48	104	0	60	1048575
2026-01-18 15:59:12.14	111.22	4.84	-83.5	-79.0	2.4	0.00e+00	0	48	104	0	60	1048575
2026-01-18 15:59:13.15	111.14	4.91	-83.5	-79.0	2.5	0.00e+00	0	48	104	0	60	1048573
2026-01-18 15:59:14.16	111.05	4.98	-83.5	-79.0	2.4	0.00e+00	0	48	104	0	60	1048575
2026-01-18 15:59:15.16	110.96	5.06	-82.8	-79.0	2.4	0.00e+00	0	48	104	0	60	1048573
2026-01-18 15:59:16.17	110.87	5.13	-82.8	-79.0	2.4	0.00e+00	0	48	104	0	60	1048574
2026-01-18 15:59:17.18	110.78	5.21	-83.5	-79.0	2.4	0.00e+00	0	48	104	0	60	1048571
2026-01-18 15:59:18.19	110.69	5.28	-83.1	-79.0	2.4	0.00e+00	0	48	104	0	60	1048574
2026-01-18 15:59:19.19	110.60	5.36	-83.1	-79.0	2.4	0.00e+00	0	48	104	0	60	1048575
2026-01-18 15:59:20.20	110.51	5.43	-83.1	-79.0	2.4	0.00e+00	0	48	104	0	60	1048574
2026-01-18 15:59:21.21	110.41	5.51	-83.1	-79.0	2.3	0.00e+00	0	48	104	0	60	1048568
2026-01-18 15:59:22.22	110.32	5.58	-83.5	-79.0	2.4	0.00e+00	0	48	104	0	60	1048574
2026-01-18 15:59:23.22	110.23	5.66	-83.5	-79.0	2.4	0.00e+00	0	48	104	0	60	1048572
2026-01-18 15:59:24.23	110.13	5.73	-83.5	-79.0	2.4	0.00e+00	0	48	104	0	60	1048575
2026-01-18 15:59:25.24	110.04	5.81	-82.8	-79.0	2.4	0.00e+00	0	48	104	0	60	1048574
2026-01-18 15:59:26.24	109.94	5.88	-83.5	-79.0	2.2	0.00e+00	0	48	104	0	60	1048571
2026-01-18 15:59:27.25	109.85	5.96	-83.5	-79.0	2.5	0.00e+00	0	48	104	0	60	1048573
2026-01-18 15:59:28.26	109.75	6.04	-83.1	-79.0	2.4	0.00e+00	0	48	104	0	60	1048571
2026-01-18 15:59:29.27	109.65	6.11	-83.1	-79.0	2.4	0.00e+00	0	48	104	0	60	1048572
2026-01-18 15:59:30.28	109.55	6.19	-83.1	-79.0	2.4	0.00e+00	0	48	104	0	60	1048574
2026-01-18 15:59:31.28	109.45	6.27	-83.5	-79.0	2.4	0.00e+00	0	48	104	0	60	1048575
2026-01-18 15:59:32.29	109.35	6.35	-83.5	-79.0	2.4	0.00e+00	0	48	104	0	60	1048572
2026-01-18 15:59:33.30	109.25	6.43	-83.5	-79.0	2.3	0.00e+00	0	48	104	0	60	1048572
2026-01-18 15:59:34.31	109.15	6.50	-83.1	-79.0	2.4	0.00e+00	0	48	104	0	60	1048572
2026-01-18 15:59:35.31	109.05	6.58	-83.1	-79.0	2.4	0.00e+00	0	48	104	0	60	1048572
2026-01-18 15:59:36.31	108.95	6.66	-83.5	-79.0	2.4	0.00e+00	0	48	104	0	60	1048575
2026-01-18 15:59:37.32	108.85	6.74	-83.5	-79.0	2.4	0.00e+00	0	48	104	0	60	1048574
2026-01-18 15:59:38.33	108.74	6.82	-83.1	-79.0	2.4	0.00e+00	0	48	104	0	60	1048572
2026-01-18 15:59:39.34	108.64	6.90	-83.1	-79.0	2.4	0.00e+00	0	48	104	0	60	1048575
2026-01-18 15:59:40.34	108.53	6.98	-83.5	-79.0	2.7	0.00e+00	0	48	104	0	60	1048572
2026-01-18 15:59:41.35	108.43	7.06	-83.5	-79.0	2.4	0.00e+00	0	48	104	0	60	1048575
2026-01-18 15:59:42.35	108.32	7.14	-83.5	-79.0	2.5	0.00e+00	0	48	104	0	60	1048571
2026-01-18 15:59:43.36	108.21	7.22	-83.5	-79.0	2.4	0.00e+00	0	48	104	0	60	1048569
2026-01-18 15:59:44.36	108.10	7.30	-83.1	-79.0	2.4	0.00e+00	0	48	104	0	60	1048573
2026-01-18 15:59:45.37	108.00	7.38	-83.5	-79.0	2.4	0.00e+00	0	48	104	0	60	1048573
2026-01-18 15:59:46.38	107.88	7.46	-83.5	-79.0	2.5	0.00e+00	0	48	104	0	60	1048562
2026-01-18 15:59:47.38	107.78	7.54	-83.5	-79.0	2.4	0.00e+00	0	49	104	0	60	1048575
2026-01-18 15:59:48.39	107.66	7.62	-82.8	-79.0	2.4	0.00e+00	0	48	104	0	60	1048574
2026-01-18 15:59:49.40	107.55	7.70	-83.1	-79.0	2.3	0.00e+00	0	48	104	0	60	1048572
2026-01-18 15:59:50.41	107.44	7.79	-83.5	-79.0	2.3	0.00e+00	0	48	104	0	60	1048575
2026-01-18 15:59:51.42	107.32	7.87	-83.5	-79.0	2.4	0.00e+00	0	48	104	0	60	1048575
2026-01-18 15:59:52.42	107.21	7.95	-83.5	-79.0	2.4	0.00e+00	0	48	104	0	60	1048571
2026-01-18 15:59:53.43	107.09	8.03	-83.1	-79.0	2.3	0.00e+00	0	48	104	0	60	1048575
2026-01-18 15:59:54.44	106.98	8.12	-83.1	-79.0	2.5	0.00e+00	0	48	104	0	60	1048567
2026-01-18 15:59:55.45	106.86	8.20	-83.5	-79.0	2.4	0.00e+00	0	48	104	0	60	1048575
2026-01-18 15:59:56.46	106.74	8.28	-83.5	-79.0	2.8	0.00e+00	0	48	104	0	60	1048573
2026-01-18 15:59:57.46	106.62	8.37	-83.1	-79.0	2.5	0.00e+00	0	48	104	0	60	1048567
2026-01-18 15:59:58.47	106.50	8.45	-82.8	-79.0	2.4	0.00e+00	0	48	104	0	60	1048575
2026-01-18 15:59:59.48	106.38	8.54	-83.1	-79.0	2.4	0.00e+00	0	48	104	0	60	1048568
2026-01-18 16:00:00.49	106.26	8.62	-83.5	-79.0	2.5	0.00e+00	0	48	104	0	60	1048571
2026-01-18 16:00:01.50	106.14	8.71	-83.5	-79.0	2.4	0.00e+00	0	48	104	0	60	1048571
2026-01-18 16:00:02.50	106.02	8.79	-82.8	-79.0	2.4	0.00e+00	0	48	104	0	60	1048572
2026-01-18 16:00:03.50	105.89	8.88	-83.1	-79.0	2.4	0.00e+00	0	48	104	0	60	1048570
2026-01-18 16:00:04.51	105.77	8.96	-83.5	-79.0	2.4	0.00e+00	0	48	104	0	60	1048573
2026-01-18 16:00:05.51	105.64	9.05	-83.5	-79.0	2.4	0.00e+00	0	49	104	0	60	1048574
2026-01-18 16:00:06.52	105.51	9.14	-83.5	-79.0	2.4	0.00e+00	0	48	104	0	60	1048571
2026-01-18 16:00:07.52	105.39	9.22	-83.1	-79.0	2.3	0.00e+00	0	48	104	0	60	1048573
2026-01-18 16:00:08.53	105.26	9.31	-83.1	-79.0	2.4	0.00e+00	0	48	104	0	60	1048573
2026-01-18 16:00:09.54	105.13	9.40	-83.5	-79.0	2.4	0.00e+00	0	49	104	0	60	1048575
2026-01-18 16:00:10.54	105.00	9.48	-83.5	-79.0	2.4	0.00e+00	0	48	104	0	60	1048574
2026-01-18 16:00:11.55	104.87	9.57	-83.5	-79.0	2.4	0.00e+00	0	48	104	0	60	1048574
2026-01-18 16:00:12.56	104.73	9.66	-82.8	-79.0	2.4	0.00e+00	0	48	104	0	60	1048575
2026-01-18 16:00:13.56	104.60	9.75	-83.5	-79.0	2.4	0.00e+00	0	48	104	0	60	1048574
2026-01-18 16:00:14.57	104.46	9.84	-83.5	-79.0	2.4	0.00e+00	0	48	104	0	60	1048569
2026-01-18 16:00:15.58	104.33	9.93	-83.1	-79.0	2.5	0.00e+00	0	48	104	0	60	1048575
2026-01-18 16:00:16.58	104.19	10.02	-83.5	-79.0	2.4	0.00e+00	0	49	104	0	60	1048575
2026-01-18 16:00:17.59	104.05	10.11	-83.1	-79.0	2.5	0.00e+00	0	48	104	0	60	1048571
2026-01-18 16:00:18.60	103.91	10.20	-83.5	-79.0	2.4	0.00e+00	0	48	104	0	60	1048569
2026-01-18 16:00:19.60	103.77	10.28	-83.5	-79.0	2.4	0.00e+00	0	49	104	0	60	1048575
2026-01-18 16:00:20.61	103.63	10.38	-83.5	-79.0	2.5	0.00e+00	0	48	104	0	60	1048573
2026-01-18 16:00:21.62	103.49	10.47	-83.1	-79.0	2.4	0.00e+00	0	48	104	0	60	1048575
2026-01-18 16:00:22.63	103.35	10.56	-82.8	-79.0	2.4	0.00e+00	0	48	104	0	60	1048575
2026-01-18 16:00:23.64	103.20	10.65	-83.1	-79.0	2.5	0.00e+00	0	49	104	0	60	1048569
2026-01-18 16:00:24.65	103.06	10.74	-83.5	-79.0	2.4	0.00e+00	0	49	104	0	60	1048574
2026-01-18 16:00:25.65	102.91	10.83	-83.5	-79.0	2.5	0.00e+00	0	48	104	0	60	1048574
2026-01-18 16:00:26.66	102.76	10.93	-83.1	-79.0	2.3	0.00e+00	0	49	104	0	60	1048572
2026-01-18 16:00:27.67	102.61	11.02	-83.1	-79.0	2.3	0.00e+00	0	49	104	0	60	1048573
2026-01-18 16:00:28.67	102.46	11.11	-83.1	-79.0	2.4	0.00e+00	0	49	104	0	60	1048573
2026-01-18 16:00:29.68	102.31	11.20	-83.5	-79.0	2.4	0.00e+00	0	49	104	0	60	1048574
2026-01-18 16:00:30.68	102.16	11.30	-83.5	-79.0	2.4	0.00e+00	0	49	104	0	60	1048575
2026-01-18 16:00:31.69	102.01	11.39	-83.1	-79.0	2.4	0.00e+00	0	49	104	0	60	1048573
2026-01-18 16:00:32.70	101.85	11.48	-83.5	-79.0	2.5	0.00e+00	0	48	104	0	60	1048575
2026-01-18 16:00:33.70	101.69	11.58	-83.5	-79.0	2.4	0.00e+00	0	49	104	0	60	1048574
2026-01-18 16:00:34.71	101.54	11.67	-83.5	-79.0	2.5	0.00e+00	0	49	104	0	60	1048573
2026-01-18 16:00:35.72	101.38	11.77	-83.1	-79.0	2.3	0.00e+00	0	49	104	0	60	1048575
2026-01-18 16:00:36.72	101.22	11.86	-83.1	-79.0	2.5	0.00e+00	0	49	104	0	60	1048575
2026-01-18 16:00:37.73	101.06	11.96	-83.5	-79.0	2.5	0.00e+00	0	49	104	0	60	1048575
2026-01-18 16:00:38.73	100.90	12.05	-83.5	-79.0	2.4	0.00e+00	0	49	104	0	60	1048571
2026-01-18 16:00:39.74	100.73	12.15	-83.5	-79.0	2.4	0.00e+00	0	49	104	0	60	1048572
2026-01-18 16:00:40.75	100.57	12.25	-83.1	-79.0	2.3	0.00e+00	0	49	104	0	60	1048573
2026-01-18 16:00:41.76	100.40	12.34	-83.5	-79.0	2.4	0.00e+00	0	49	104	0	60	1048571
2026-01-18 16:00:42.76	100.23	12.44	-83.1	-79.0	2.4	0.00e+00	0	49	104	0	60	1048574
2026-01-18 16:00:43.77	100.06	12.54	-83.5	-79.0	2.3	0.00e+00	0	49	104	0	60	1048574
2026-01-18 16:00:44.78	99.89	12.64	-83.5	-79.0	2.4	0.00e+00	0	49	104	0	60	1048572
2026-01-18 16:00:45.79	99.72	12.73	-83.1	-79.0	2.6	0.00e+00	0	49	104	0	60	1048574
2026-01-18 16:00:46.80	99.55	12.83	-83.5	-79.0	2.5	0.00e+00	0	49	104	0	60	1048575
2026-01-18 16:00:47.80	99.37	12.93	-83.5	-79.0	2.3	0.00e+00	0	49	104	0	60	1048574
2026-01-18 16:00:48.81	99.20	13.03	-83.1	-79.0	2.4	0.00e+00	0	49	104	0	60	1048575
2026-01-18 16:00:49.82	99.02	13.13	-83.1	-79.0	2.2	0.00e+00	0	49	104	0	60	1048572
2026-01-18 16:00:50.82	98.84	13.23	-83.1	-79.0	2.4	0.00e+00	0	49	104	0	60	1048573
2026-01-18 16:00:51.83	98.66	13.33	-83.5	-79.0	2.4	0.00e+00	0	49	104	0	60	1048570
2026-01-18 16:00:52.84	98.48	13.43	-83.5	-79.0	2.5	0.00e+00	0	49	104	0	60	1048571
2026-01-18 16:00:53.85	98.29	13.53	-83.5	-79.0	2.4	0.00e+00	0	49	104	0	60	1048574
2026-01-18 16:00:54.85	98.11	13.63	-82.8	-79.0	2.5	0.00e+00	0	49	104	0	60	1048570
2026-01-18 16:00:55.86	97.92	13.73	-82.8	-79.0	2.2	0.00e+00	0	49	104	0	60	1048574
2026-01-18 16:00:56.87	97.73	13.83	-83.5	-79.0	2.4	0.00e+00	0	49	104	0	60	1048575
2026-01-18 16:00:57.88	97.54	13.93	-83.1	-79.0	2.4	0.00e+00	0	49	104	0	60	1048574
2026-01-18 16:00:58.88	97.35	14.03	-83.5	-79.0	2.4	0.00e+00	0	49	104	0	60	1048570
2026-01-18 16:00:59.89	97.16	14.13	-82.8	-79.0	2.4	0.00e+00	0	49	104	0	60	1048568
2026-01-18 16:01:00.90	96.96	14.24	-83.1	-79.0	2.4	0.00e+00	0	49	104	0	60	1048574
2026-01-18 16:01:01.90	96.77	14.34	-83.1	-79.0	2.4	0.00e+00	0	49	104	0	60	1048566
2026-01-18 16:01:02.91	96.57	14.44	-83.5	-79.0	2.7	0.00e+00	0	49	104	0	60	1048573
2026-01-18 16:01:03.92	96.37	14.54	-83.5	-79.0	2.4	0.00e+00	0	49	104	0	60	1048575
2026-01-18 16:01:04.93	96.17	14.65	-83.1	-79.0	2.4	0.00e+00	0	49	104	0	60	1048563
2026-01-18 16:01:05.93	95.97	14.75	-83.5	-79.0	2.3	0.00e+00	0	49	104	0	60	1048568
2026-01-18 16:01:06.94	95.77	14.85	-83.5	-79.0	2.4	0.00e+00	0	49	104	0	60	1048574
2026-01-18 16:01:07.95	95.56	14.96	-83.5	-79.0	2.5	0.00e+00	0	49	104	0	60	1048569
2026-01-18 16:01:08.96	95.35	15.06	-83.1	-79.0	2.4	0.00e+00	0	49	104	0	60	1048572
2026-01-18 16:01:09.96	95.14	15.17	-83.1	-79.0	2.5	0.00e+00	0	49	104	0	60	1048574
2026-01-18 16:01:10.97	94.93	15.27	-83.5	-79.0	2.4	0.00e+00	0	49	104	0	60	1048575
2026-01-18 16:01:11.98	94.72	15.38	-83.5	-79.0	2.5	0.00e+00	0	49	104	0	60	1048574
2026-01-18 16:01:12.99	94.50	15.48	-83.5	-79.0	2.4	0.00e+00	0	49	104	0	60	1048575
2026-01-18 16:01:13.99	94.29	15.59	-83.1	-79.0	2.4	0.00e+00	0	49	104	0	60	1048571
2026-01-18 16:01:15.00	94.07	15.69	-83.1	-79.0	2.3	0.00e+00	0	49	104	0	60	1048574
2026-01-18 16:01:16.01	93.85	15.80	-83.1	-79.0	2.4	0.00e+00	0	49	104	0	60	1048569
2026-01-18 16:01:17.02	93.63	15.90	-83.5	-79.0	2.4	0.00e+00	0	49	104	0	60	1048570
2026-01-18 16:01:18.03	93.40	16.01	-83.5	-79.0	2.4	0.00e+00	0	49	104	0	60	1048571
2026-01-18 16:01:19.04	93.17	16.12	-83.1	-79.0	2.4	0.00e+00	0	49	104	0	60	1048573
2026-01-18 16:01:20.05	92.95	16.22	-83.1	-79.0	2.4	0.00e+00	0	49	104	0	60	1048573
2026-01-18 16:01:21.05	92.72	16.33	-83.1	-79.0	2.4	0.00e+00	0	49	104	0	60	1048573
2026-01-18 16:01:22.06	92.49	16.44	-83.1	-79.0	2.5	0.00e+00	0	49	104	0	60	1048573
2026-01-18 16:01:23.06	92.25	16.54	-83.5	-79.0	2.3	0.00e+00	0	49	104	0	60	1048573
2026-01-18 16:01:24.07	92.02	16.65	-83.1	-79.0	2.5	0.00e+00	0	49	104	0	60	1048570
2026-01-18 16:01:25.07	91.78	16.76	-83.5	-79.0	2.3	0.00e+00	0	49	104	0	60	1048575
2026-01-18 16:01:26.07	91.54	16.86	-83.5	-79.0	2.4	0.00e+00	0	49	104	0	60	1048571
2026-01-18 16:01:27.08	91.30	16.97	-83.1	-79.0	2.3	0.00e+00	0	49	104	0	60	1048574
2026-01-18 16:01:28.09	91.06	17.08	-83.1	-79.0	2.4	0.00e+00	0	49	104	0	60	1048572
2026-01-18 16:01:29.10	90.81	17.19	-82.8	-79.0	2.4	0.00e+00	0	49	104	0	60	1048575
2026-01-18 16:01:30.11	90.56	17.30	-83.5	-79.0	2.4	0.00e+00	0	49	104	0	60	1048574
2026-01-18 16:01:31.12	90.31	17.41	-83.5	-79.0	2.3	0.00e+00	0	49	104	0	60	1048570
2026-01-18 16:01:32.12	90.06	17.51	-83.5	-79.0	2.4	0.00e+00	0	49	104	0	60	1048572
2026-01-18 16:01:33.13	89.81	17.62	-83.1	-79.0	2.4	0.00e+00	0	49	104	0	60	1048570
2026-01-18 16:01:34.14	89.55	17.73	-83.1	-79.0	2.3	0.00e+00	0	49	104	0	60	1048575
2026-01-18 16:01:35.15	89.29	17.84	-83.1	-79.0	2.5	0.00e+00	0	49	104	0	60	1048571
2026-01-18 16:01:36.15	89.04	17.95	-83.5	-79.0	2.4	0.00e+00	0	49	104	0	60	1048573
2026-01-18 16:01:37.16	88.77	18.06	-83.5	-79.0	2.2	0.00e+00	0	49	104	0	60	1048575
2026-01-18 16:01:38.16	88.51	18.16	-83.1	-79.0	2.3	0.00e+00	0	49	104	0	60	1048570
2026-01-18 16:01:39.17	88.24	18.27	-83.5	-79.0	2.3	0.00e+00	0	49	104	0	60	1048573
2026-01-18 16:01:40.18	87.97	18.38	-83.5	-79.0	2.4	0.00e+00	0	49	104	0	60	1048574
2026-01-18 16:01:41.18	87.70	18.49	-83.1	-79.0	2.4	0.00e+00	0	49	104	0	60	1048565
2026-01-18 16:01:42.19	87.43	18.60	-83.1	-79.0	2.3	0.00e+00	0	49	104	0	60	1048575
2026-01-18 16:01:43.20	87.15	18.71	-83.1	-79.0	2.4	0.00e+00	0	49	104	0	60	1048574
2026-01-18 16:01:44.20	86.88	18.82	-83.5	-79.0	2.4	0.00e+00	0	49	104	0	60	1048568
2026-01-18 16:01:45.20	86.60	18.93	-83.1	-79.0	2.2	0.00e+00	0	49	104	0	60	1048575
2026-01-18 16:01:46.21	86.31	19.03	-83.5	-79.0	2.4	0.00e+00	0	49	104	0	60	1048565
2026-01-18 16:01:47.22	86.03	19.14	-83.1	-79.0	2.3	0.00e+00	0	49	104	0	60	1048565
2026-01-18 16:01:48.22	85.74	19.25	-82.8	-79.0	2.4	0.00e+00	0	49	104	0	60	1048569
2026-01-18 16:01:49.23	85.45	19.36	-83.5	-79.0	2.4	0.00e+00	0	49	104	0	60	1048568
2026-01-18 16:01:50.24	85.16	19.47	-83.5	-79.0	2.4	0.00e+00	0	49	104	0	60	1048563
2026-01-18 16:01:51.25	84.86	19.58	-83.5	-79.0	2.4	0.00e+00	0	49	104	0	60	1048560
2026-01-18 16:01:52.26	84.56	19.69	-83.1	-79.0	2.4	0.00e+00	0	49	104	0	60	1048571
2026-01-18 16:01:53.27	84.26	19.80	-83.1	-79.0	2.4	0.00e+00	0	49	104	0	60	1048575
2026-01-18 16:01:54.28	83.96	19.90	-83.1	-79.0	2.4	0.00e+00	0	49	104	0	60	1048567
2026-01-18 16:01:55.28	83.66	20.01	-83.1	-79.0	2.4	0.00e+00	0	49	104	0	60	1048574
2026-01-18 16:01:56.29	83.35	20.12	-83.5	-79.0	2.5	0.00e+00	0	49	104	0	60	1048575
2026-01-18 16:01:57.30	83.04	20.23	-82.8	-79.0	2.4	0.00e+00	0	49	104	0	60	1048575
2026-01-18 16:01:58.29	82.74	20.33	-83.5	-79.0	2.4	0.00e+00	0	49	104	0	60	1048571
2026-01-18 16:01:59.30	82.42	20.44	-83.5	-79.0	2.4	0.00e+00	0	49	104	0	60	1048567
2026-01-18 16:02:00.31	82.10	20.55	-83.5	-79.0	2.4	0.00e+00	0	49	104	0	60	1048560
2026-01-18 16:02:01.31	81.79	20.65	-83.1	-79.0	2.4	0.00e+00	0	49	104	0	60	1048569
2026-01-18 16:02:02.32	81.46	20.76	-83.1	-79.0	2.3	0.00e+00	0	49	104	0	60	1048575
2026-01-18 16:02:03.32	81.14	20.86	-83.5	-79.0	2.4	0.00e+00	0	49	104	0	60	1048574
2026-01-18 16:02:04.33	80.81	20.97	-83.5	-79.0	2.4	0.00e+00	0	49	104	0	60	1048574
2026-01-18 16:02:05.34	80.48	21.07	-83.5	-79.0	2.4	0.00e+00	0	49	104	0	60	1048566
2026-01-18 16:02:06.35	80.15	21.18	-83.1	-79.0	2.4	0.00e+00	0	49	104	0	60	1048558
2026-01-18 16:02:07.36	79.81	21.28	-83.1	-79.0	2.4	0.00e+00	0	49	104	0	60	1048574
2026-01-18 16:02:08.37	79.48	21.39	-83.5	-79.0	2.5	0.00e+00	0	49	104	0	60	1048572
2026-01-18 16:02:09.37	79.14	21.49	-83.5	-79.0	2.4	0.00e+00	0	49	104	0	60	1048574
2026-01-18 16:02:10.38	78.80	21.60	-83.5	-79.0	2.5	0.00e+00	0	49	104	0	60	1048570
2026-01-18 16:02:11.38	78.45	21.70	-83.1	-79.0	2.4	0.00e+00	0	49	104	0	60	1048574
2026-01-18 16:02:12.39	78.11	21.80	-83.5	-79.0	2.4	0.00e+00	0	49	104	0	60	1048573
2026-01-18 16:02:13.40	77.75	21.90	-83.5	-79.0	2.4	0.00e+00	0	49	104	0	60	1048569
2026-01-18 16:02:14.41	77.40	22.00	-83.5	-79.0	2.4	0.00e+00	0	49	104	0	60	1048573
2026-01-18 16:02:15.41	77.05	22.10	-83.1	-79.0	2.4	0.00e+00	0	49	104	0	60	1048575
2026-01-18 16:02:16.42	76.69	22.20	-82.8	-79.0	2.4	0.00e+00	0	49	104	0	60	1048573
2026-01-18 16:02:17.42	76.33	22.30	-83.5	-79.0	2.4	0.00e+00	0	49	104	0	60	1048573
2026-01-18 16:02:18.43	75.97	22.40	-83.5	-79.0	2.4	0.00e+00	0	49	104	0	60	1048573
2026-01-18 16:02:19.44	75.60	22.50	-83.5	-79.0	2.5	0.00e+00	0	49	104	0	60	1048573
2026-01-18 16:02:20.45	75.23	22.60	-83.5	-79.0	2.4	0.00e+00	0	49	104	0	60	1048573
2026-01-18 16:02:21.46	74.86	22.69	-83.1	-79.0	2.5	0.00e+00	0	49	104	0	60	1048571
2026-01-18 16:02:22.47	74.49	22.79	-83.5	-79.0	2.4	0.00e+00	0	49	104	0	60	1048575
2026-01-18 16:02:23.47	74.11	22.88	-83.5	-79.0	2.4	0.00e+00	0	49	104	0	60	1048569
2026-01-18 16:02:24.48	73.73	22.98	-83.5	-79.0	2.4	0.00e+00	0	49	104	0	60	1048575
2026-01-18 16:02:25.48	73.35	23.07	-83.1	-79.0	2.4	0.00e+00	0	49	104	0	60	1048573
2026-01-18 16:02:26.49	72.97	23.17	-82.8	-79.0	2.2	0.00e+00	0	49	104	0	60	1048569
2026-01-18 16:02:27.50	72.58	23.26	-83.5	-79.0	2.4	0.00e+00	0	49	104	0	60	1048574
2026-01-18 16:02:28.50	72.20	23.35	-83.1	-79.0	2.3	0.00e+00	0	49	104	0	60	1048574
2026-01-18 16:02:29.50	71.81	23.44	-83.5	-79.0	2.4	0.00e+00	0	49	104	0	60	1048570
2026-01-18 16:02:30.51	71.41	23.53	-83.1	-79.0	2.4	0.00e+00	0	49	104	0	60	1048567
2026-01-18 16:02:31.52	71.02	23.62	-83.1	-79.0	2.3	0.00e+00	0	49	104	0	60	1048575
2026-01-18 16:02:32.52	70.62	23.70	-83.5	-79.0	2.4	0.00e+00	0	49	104	0	60	1048575
2026-01-18 16:02:33.53	70.22	23.79	-83.5	-79.0	2.4	0.00e+00	0	49	104	0	60	1048567
2026-01-18 16:02:34.54	69.81	23.87	-83.5	-79.0	2.3	0.00e+00	0	49	104	0	60	1048574
2026-01-18 16:02:35.55	69.41	23.96	-82.8	-79.0	2.4	0.00e+00	0	49	104	0	60	1048575
2026-01-18 16:02:36.55	69.00	24.04	-83.1	-79.0	2.4	0.00e+00	0	49	104	0	60	1048573
2026-01-18 16:02:37.56	68.59	24.12	-83.5	-79.0	2.4	0.00e+00	0	49	104	0	60	1048571
2026-01-18 16:02:38.57	68.17	24.20	-83.5	-79.0	2.4	0.00e+00	0	49	104	0	60	1048575
2026-01-18 16:02:39.57	67.76	24.28	-83.1	-79.0	2.5	0.00e+00	0	49	104	0	60	1048575
2026-01-18 16:02:40.58	67.34	24.36	-83.1	-79.0	2.4	0.00e+00	0	49	104	0	60	1048575
2026-01-18 16:02:41.59	66.92	24.44	-83.5	-79.0	2.5	0.00e+00	0	49	104	0	60	1048573
2026-01-18 16:02:42.60	66.50	24.51	-83.5	-79.0	2.4	0.00e+00	0	49	104	0	60	1048571
2026-01-18 16:02:43.60	66.07	24.59	-83.5	-79.0	2.4	0.00e+00	0	49	104	0	60	1048574
2026-01-18 16:02:44.61	65.65	24.66	-82.8	-79.0	2.4	0.00e+00	0	49	104	0	60	1048573
2026-01-18 16:02:45.62	65.22	24.73	-83.1	-79.0	2.5	0.00e+00	0	49	104	0	60	1048575
2026-01-18 16:02:46.63	64.78	24.80	-83.5	-79.0	2.4	0.00e+00	0	49	104	0	60	1048572
2026-01-18 16:02:47.63	64.35	24.87	-83.5	-79.0	2.5	0.00e+00	0	49	104	0	60	1048575
2026-01-18 16:02:48.64	63.92	24.94	-83.1	-79.0	2.4	0.00e+00	0	49	104	0	60	1048575
2026-01-18 16:02:49.65	63.48	25.01	-83.1	-79.0	2.5	0.00e+00	0	49	104	0	60	1048574
2026-01-18 16:02:50.65	63.04	25.07	-83.1	-79.0	2.4	0.00e+00	0	49	104	0	60	1048574
2026-01-18 16:02:51.66	62.60	25.13	-83.5	-79.0	2.4	0.00e+00	0	49	104	0	60	1048572
2026-01-18 16:02:52.67	62.15	25.20	-83.5	-79.0	2.4	0.00e+00	0	49	104	0	60	1048575
2026-01-18 16:02:53.67	61.71	25.26	-83.5	-79.0	2.4	0.00e+00	0	49	104	0	60	1048575
2026-01-18 16:02:54.68	61.26	25.32	-83.1	-79.0	2.3	0.00e+00	0	49	104	0	60	1048573
2026-01-18 16:02:55.69	60.81	25.37	-83.1	-79.0	2.4	0.00e+00	0	49	104	0	60	1048565
2026-01-18 16:02:56.69	60.36	25.43	-83.5	-79.0	2.3	0.00e+00	0	49	104	0	60	1048570
2026-01-18 16:02:57.70	59.91	25.48	-83.5	-79.0	2.4	0.00e+00	0	49	104	0	60	1048567
2026-01-18 16:02:58.70	59.46	25.53	-83.1	-79.0	2.4	0.00e+00	0	49	104	0	60	1048573
2026-01-18 16:02:59.71	59.00	25.58	-83.5	-79.0	2.1	0.00e+00	0	49	104	0	60	1048574
2026-01-18 16:03:00.72	58.54	25.63	-83.5	-79.0	2.3	0.00e+00	0	49	104	0	60	1048574
2026-01-18 16:03:01.72	58.09	25.68	-83.1	-79.0	2.4	0.00e+00	0	49	104	0	60	1048575
2026-01-18 16:03:02.72	57.63	25.72	-83.5	-79.0	2.4	0.00e+00	0	49	104	0	60	1048573
2026-01-18 16:03:03.73	57.17	25.77	-83.1	-79.0	2.3	0.00e+00	0	49	104	0	60	1048571
2026-01-18 16:03:04.74	56.70	25.81	-83.5	-79.0	2.4	0.00e+00	0	49	104	0	60	1048575
2026-01-18 16:03:05.74	56.24	25.85	-83.1	-79.0	2.4	0.00e+00	0	49	104	0	60	1048570
2026-01-18 16:03:06.75	55.78	25.89	-83.5	-79.0	2.3	0.00e+00	0	49	104	0	60	1048571
2026-01-18 16:03:07.75	55.31	25.92	-83.5	-79.0	2.4	0.00e+00	0	49	104	0	60	1048565
2026-01-18 16:03:08.76	54.84	25.96	-82.8	-79.0	2.4	0.00e+00	0	49	104	0	60	1048567
2026-01-18 16:03:09.77	54.37	25.99	-83.5	-79.0	2.4	0.00e+00	0	49	104	0	60	1048566
2026-01-18 16:03:10.77	53.91	26.02	-83.5	-79.0	2.5	0.00e+00	0	49	104	0	60	1048574
2026-01-18 16:03:11.78	53.43	26.05	-83.5	-79.0	2.4	0.00e+00	0	49	104	0	60	1048574
2026-01-18 16:03:12.79	52.96	26.07	-83.1	-79.0	2.5	0.00e+00	0	49	104	0	60	1048572
2026-01-18 16:03:13.80	52.49	26.10	-82.8	-79.0	2.4	0.00e+00	0	49	104	0	60	1048570
2026-01-18 16:03:14.80	52.02	26.12	-83.1	-79.0	2.4	0.00e+00	0	49	104	0	60	1048574
2026-01-18 16:03:15.81	51.54	26.14	-83.5	-79.0	2.4	0.00e+00	0	49	104	0	60	1048573
2026-01-18 16:03:16.82	51.06	26.16	-83.5	-79.0	2.7	0.00e+00	0	49	104	0	60	1048572
2026-01-18 16:03:17.83	50.59	26.18	-83.1	-79.0	2.3	0.00e+00	0	49	104	0	60	1048572
2026-01-18 16:03:18.84	50.11	26.19	-83.5	-79.0	2.4	0.00e+00	0	49	104	0	60	1048575
2026-01-18 16:03:19.84	49.64	26.21	-83.5	-79.0	2.5	0.00e+00	0	49	104	0	60	1048565
2026-01-18 16:03:20.85	49.16	26.22	-83.5	-79.0	2.6	0.00e+00	0	49	104	0	60	1048575
2026-01-18 16:03:21.85	48.68	26.23	-83.5	-79.0	2.4	0.00e+00	0	49	104	0	60	1048575
2026-01-18 16:03:22.86	48.21	26.23	-83.1	-79.0	2.5	0.00e+00	0	49	104	0	60	1048572
2026-01-18 16:03:23.87	47.73	26.24	-83.5	-79.0	2.4	0.00e+00	0	49	104	0	60	1048571
2026-01-18 16:03:24.87	47.25	26.24	-83.5	-79.0	2.6	0.00e+00	0	49	104	0	60	1048563
2026-01-18 16:03:25.88	46.77	26.24	-83.5	-79.0	2.3	0.00e+00	0	49	104	0	60	1048575
2026-01-18 16:03:26.89	46.29	26.24	-83.1	-79.0	2.4	0.00e+00	0	49	104	0	60	1048575
2026-01-18 16:03:27.90	45.82	26.24	-83.1	-79.0	2.4	0.00e+00	0	49	104	0	60	1048574
2026-01-18 16:03:28.90	45.34	26.23	-83.5	-79.0	2.3	0.00e+00	0	49	104	0	60	1048572
2026-01-18 16:03:29.91	44.86	26.22	-83.5	-79.0	2.4	0.00e+00	0	49	104	0	60	1048569
2026-01-18 16:03:30.92	44.38	26.21	-83.5	-79.0	2.6	0.00e+00	0	49	104	0	60	1048575
2026-01-18 16:03:31.92	43.91	26.20	-83.1	-79.0	2.3	0.00e+00	0	49	104	0	60	1048575
2026-01-18 16:03:32.93	43.43	26.19	-83.1	-79.0	2.7	0.00e+00	0	49	104	0	60	1048573
2026-01-18 16:03:33.94	42.96	26.17	-83.1	-79.0	2.5	0.00e+00	0	49	104	0	60	1048573
2026-01-18 16:03:34.95	42.48	26.16	-83.1	-79.0	2.4	0.00e+00	0	49	104	0	60	1048575
2026-01-18 16:03:35.96	42.00	26.14	-83.5	-79.0	2.4	0.00e+00	0	49	104	0	60	1048574
2026-01-18 16:03:36.96	41.53	26.12	-82.8	-79.0	2.3	0.00e+00	0	49	104	0	60	1048571
2026-01-18 16:03:37.96	41.06	26.09	-83.1	-79.0	2.5	0.00e+00	0	49	104	0	60	1048572
2026-01-18 16:03:38.97	40.59	26.07	-83.5	-79.0	2.3	0.00e+00	0	49	104	0	60	1048573
2026-01-18 16:03:39.98	40.12	26.04	-83.5	-79.0	2.4	0.00e+00	0	49	104	0	60	1048573
2026-01-18 16:03:40.98	39.65	26.01	-83.5	-79.0	2.4	0.00e+00	0	49	104	0	60	1048570
2026-01-18 16:03:41.99	39.18	25.98	-82.8	-79.0	2.4	0.00e+00	0	49	104	0	60	1048561
2026-01-18 16:03:43.00	38.71	25.95	-83.1	-79.0	2.4	0.00e+00	0	49	104	0	60	1048570
2026-01-18 16:03:44.00	38.25	25.92	-83.5	-79.0	2.4	0.00e+00	0	49	104	0	60	1048575
2026-01-18 16:03:45.01	37.78	25.88	-83.5	-79.0	2.5	0.00e+00	0	49	104	0	60	1048575
2026-01-18 16:03:46.02	37.31	25.84	-83.1	-79.0	2.3	0.00e+00	0	49	104	0	60	1048575
2026-01-18 16:03:47.03	36.85	25.80	-83.1	-79.0	2.5	0.00e+00	0	49	104	0	60	1048573
2026-01-18 16:03:48.03	36.39	25.76	-83.1	-79.0	2.4	0.00e+00	0	49	104	0	60	1048573
2026-01-18 16:03:49.04	35.93	25.72	-83.5	-79.0	2.4	0.00e+00	0	49	104	0	60	1048571
2026-01-18 16:03:50.05	35.46	25.67	-83.5	-79.0	2.4	0.00e+00	0	49	104	0	60	1048568
2026-01-18 16:03:51.06	35.01	25.62	-82.8	-79.0	2.5	0.00e+00	0	49	104	0	60	1048573
2026-01-18 16:03:52.06	34.55	25.57	-83.5	-79.0	2.3	0.00e+00	0	49	104	0	60	1048575
2026-01-18 16:03:53.07	34.10	25.52	-83.5	-79.0	2.4	0.00e+00	0	49	104	0	60	1048574
2026-01-18 16:03:54.08	33.64	25.47	-83.1	-79.0	2.5	0.00e+00	0	49	104	0	60	1048572
2026-01-18 16:03:55.08	33.19	25.42	-83.1	-79.0	2.4	0.00e+00	0	49	104	0	60	1048575
2026-01-18 16:03:56.09	32.74	25.36	-83.1	-79.0	2.5	0.00e+00	0	49	104	0	60	1048575
2026-01-18 16:03:57.09	32.30	25.31	-83.5	-79.0	2.5	0.00e+00	0	49	104	0	60	1048566
2026-01-18 16:03:58.10	31.85	25.25	-83.5	-79.0	2.4	0.00e+00	0	49	104	0	60	1048573
2026-01-18 16:03:59.10	31.41	25.19	-83.5	-79.0	2.5	0.00e+00	0	49	104	0	60	1048564
2026-01-18 16:04:00.11	30.96	25.12	-82.8	-79.0	2.3	0.00e+00	0	49	104	0	60	1048572
2026-01-18 16:04:01.12	30.52	25.06	-83.1	-79.0	2.4	0.00e+00	0	49	104	0	60	1048571
2026-01-18 16:04:02.13	30.08	25.00	-83.5	-79.0	2.4	0.00e+00	0	49	104	0	60	1048573
2026-01-18 16:04:03.14	29.65	24.93	-83.5	-79.0	2.4	0.00e+00	0	49	104	0	60	1048570
2026-01-18 16:04:04.15	29.21	24.86	-83.5	-79.0	2.3	0.00e+00	0	49	104	0	60	1048571
2026-01-18 16:04:05.16	28.78	24.79	-83.5	-79.0	2.4	0.00e+00	0	49	104	0	60	1048574
2026-01-18 16:04:06.16	28.35	24.72	-83.1	-79.0	2.4	0.00e+00	0	49	104	0	60	1048575
2026-01-18 16:04:07.17	27.92	24.65	-83.5	-79.0	2.5	0.00e+00	0	49	104	0	60	1048572
2026-01-18 16:04:08.18	27.49	24.58	-83.5	-79.0	2.4	0.00e+00	0	49	104	0	60	1048571
2026-01-18 16:04:09.19	27.07	24.50	-83.5	-79.0	2.4	0.00e+00	0	49	104	0	60	1048571
2026-01-18 16:04:10.20	26.65	24.43	-83.1	-79.0	2.4	0.00e+00	0	49	104	0	60	1048575
2026-01-18 16:04:11.20	26.23	24.35	-83.1	-79.0	2.5	0.00e+00	0	49	104	0	60	1048575
2026-01-18 16:04:12.20	25.82	24.27	-83.5	-79.0	2.4	0.00e+00	0	49	104	0	60	1048575
2026-01-18 16:04:13.21	25.40	24.19	-83.1	-79.0	2.5	0.00e+00	0	49	104	0	60	1048575
2026-01-18 16:04:14.22	24.99	24.11	-83.5	-79.0	2.5	0.00e+00	0	49	104	0	60	1048575
2026-01-18 16:04:15.23	24.58	24.03	-83.1	-79.0	2.5	0.00e+00	0	49	104	0	60	1048575
2026-01-18 16:04:16.23	24.17	23.95	-83.5	-79.0	2.5	0.00e+00	0	49	104	0	60	1048573
2026-01-18 16:04:17.24	23.77	23.86	-83.5	-79.0	2.3	0.00e+00	0	49	104	0	60	1048574
2026-01-18 16:04:18.25	23.36	23.78	-83.5	-79.0	2.4	0.00e+00	0	49	104	0	60	1048575
2026-01-18 16:04:19.25	22.97	23.69	-83.1	-79.0	2.4	0.00e+00	0	49	104	0	60	1048575
2026-01-18 16:04:20.26	22.57	23.60	-83.1	-79.0	2.4	0.00e+00	0	49	104	0	60	1048571
2026-01-18 16:04:21.27	22.17	23.52	-83.5	-79.0	2.4	0.00e+00	0	49	104	0	60	1048569
2026-01-18 16:04:22.28	21.78	23.43	-83.5	-79.0	2.4	0.00e+00	0	49	104	0	60	1048574
2026-01-18 16:04:23.28	21.39	23.34	-83.5	-79.0	2.7	0.00e+00	0	49	104	0	60	1048573
2026-01-18 16:04:24.28	21.01	23.25	-82.8	-79.0	2.3	0.00e+00	0	49	104	0	60	1048575
2026-01-18 16:04:25.29	20.62	23.15	-83.5	-79.0	2.6	0.00e+00	0	49	104	0	60	1048575
2026-01-18 16:04:26.29	20.24	23.06	-83.5	-79.0	2.4	0.00e+00	0	49	104	0	60	1048575
2026-01-18 16:04:27.30	19.86	22.97	-83.5	-79.0	2.4	0.00e+00	0	49	104	0	60	1048575
2026-01-18 16:04:28.30	19.49	22.87	-83.1	-79.0	2.4	0.00e+00	0	49	104	0	60	1048573
2026-01-18 16:04:29.31	19.11	22.78	-82.8	-79.0	2.4	0.00e+00	0	49	104	0	60	1048570
2026-01-18 16:04:30.32	18.74	22.68	-83.5	-79.0	2.3	0.00e+00	0	49	104	0	60	1048572
2026-01-18 16:04:31.33	18.37	22.59	-83.5	-79.0	2.4	0.00e+00	0	49	104	0	60	1048569
2026-01-18 16:04:32.33	18.01	22.49	-83.5	-79.0	2.4	0.00e+00	0	49	104	0	60	1048572
2026-01-18 16:04:33.34	17.64	22.39	-83.5	-79.0	2.3	0.00e+00	0	49	104	0	60	1048572
2026-01-18 16:04:34.34	17.28	22.29	-82.8	-79.0	2.4	0.00e+00	0	49	104	0	60	1048575
2026-01-18 16:04:35.35	16.92	22.19	-83.5	-79.0	2.4	0.00e+00	0	49	104	0	60	1048569
2026-01-18 16:04:36.36	16.56	22.09	-83.5	-79.0	2.3	0.00e+00	0	49	104	0	60	1048574
2026-01-18 16:04:37.36	16.21	22.00	-83.5	-79.0	2.3	0.00e+00	0	49	104	0	60	1048575
2026-01-18 16:04:38.37	15.86	21.89	-83.5	-79.0	2.4	0.00e+00	0	49	104	0	60	1048575
2026-01-18 16:04:39.38	15.51	21.79	-83.1	-79.0	2.6	0.00e+00	0	49	104	0	60	1048574
2026-01-18 16:04:40.39	15.17	21.69	-83.1	-79.0	2.4	0.00e+00	0	49	104	0	60	1048573
2026-01-18 16:04:41.40	14.82	21.59	-83.5	-79.0	2.5	0.00e+00	0	49	104	0	60	1048568
2026-01-18 16:04:42.40	14.48	21.49	-83.5	-79.0	2.4	0.00e+00	0	49	104	0	60	1048575
2026-01-18 16:04:43.41	14.14	21.38	-83.1	-79.0	2.4	0.00e+00	0	49	104	0	60	1048573
2026-01-18 16:04:44.42	13.81	21.28	-83.1	-79.0	2.5	0.00e+00	0	49	104	0	60	1048575
2026-01-18 16:04:45.42	13.48	21.17	-83.5	-79.0	2.4	0.00e+00	0	49	104	0	60	1048565
2026-01-18 16:04:46.42	13.15	21.07	-83.5	-79.0	2.5	0.00e+00	0	49	104	0	60	1048563
2026-01-18 16:04:47.43	12.82	20.97	-83.1	-79.0	2.4	0.00e+00	0	49	104	0	60	1048575
2026-01-18 16:04:48.44	12.49	20.86	-82.8	-79.0	2.4	0.00e+00	0	49	104	0	60	1048572
2026-01-18 16:04:49.45	12.17	20.75	-83.1	-79.0	2.4	0.00e+00	0	49	104	0	60	1048569
2026-01-18 16:04:50.46	11.85	20.65	-83.5	-79.0	2.4	0.00e+00	0	49	104	0	60	1048575
2026-01-18 16:04:51.47	11.53	20.54	-83.5	-79.0	2.5	0.00e+00	0	49	104	0	60	1048574
2026-01-18 16:04:52.47	11.22	20.44	-83.1	-79.0	2.4	0.00e+00	0	49	104	0	60	1048575
2026-01-18 16:04:53.48	10.90	20.33	-83.1	-79.0	2.4	0.00e+00	0	49	104	0	60	1048571
2026-01-18 16:04:54.49	10.59	20.22	-83.5	-79.0	2.3	0.00e+00	0	49	104	0	60	1048574
2026-01-18 16:04:55.49	10.29	20.12	-83.5	-79.0	2.6	0.00e+00	0	49	104	0	60	1048575
2026-01-18 16:04:56.50	9.98	20.01	-83.5	-79.0	2.4	0.00e+00	0	49	104	0	60	1048575
2026-01-18 16:04:57.50	9.68	19.90	-82.8	-79.0	2.3	0.00e+00	0	49	104	0	60	1048575
2026-01-18 16:04:58.51	9.38	19.79	-83.1	-79.0	2.5	0.00e+00	0	49	104	0	60	1048572
2026-01-18 16:04:59.52	9.08	19.69	-83.5	-79.0	2.5	0.00e+00	0	49	104	0	60	1048570
2026-01-18 16:05:00.52	8.79	19.58	-83.5	-79.0	2.4	0.00e+00	0	49	104	0	60	1048567
2026-01-18 16:05:01.52	8.50	19.47	-83.1	-79.0	2.5	0.00e+00	0	49	104	0	60	1048570
2026-01-18 16:05:02.53	8.20	19.36	-83.1	-79.0	2.4	0.00e+00	0	49	104	0	60	1048575
2026-01-18 16:05:03.53	7.92	19.26	-83.5	-79.0	2.5	0.00e+00	0	49	104	0	60	1048575
2026-01-18 16:05:04.54	7.63	19.15	-83.5	-79.0	2.4	0.00e+00	0	49	104	0	60	1048575
2026-01-18 16:05:05.55	7.35	19.04	-83.5	-79.0	2.4	0.00e+00	0	49	104	0	60	1048573
2026-01-18 16:05:06.55	7.07	18.93	-83.1	-79.0	2.4	0.00e+00	0	49	104	0	60	1048572
2026-01-18 16:05:07.56	6.79	18.82	-83.1	-79.0	2.4	0.00e+00	0	49	104	0	60	1048571
2026-01-18 16:05:08.57	6.51	18.71	-83.5	-79.0	2.4	0.00e+00	0	49	104	0	60	1048568
2026-01-18 16:05:09.57	6.24	18.61	-83.5	-79.0	2.5	0.00e+00	0	49	104	0	60	1048574
2026-01-18 16:05:10.58	5.96	18.50	-83.5	-79.0	2.4	0.00e+00	0	49	104	0	60	1048573
2026-01-18 16:05:11.58	5.70	18.39	-83.1	-79.0	2.4	0.00e+00	0	49	104	0	60	1048575
2026-01-18 16:05:12.59	5.43	18.28	-83.1	-79.0	2.4	0.00e+00	0	49	104	0	60	1048573
2026-01-18 16:05:13.60	5.16	18.17	-83.5	-79.0	2.4	0.00e+00	0	49	104	0	60	1048571
2026-01-18 16:05:14.60	4.90	18.06	-83.5	-79.0	2.3	0.00e+00	0	49	104	0	60	1048574
2026-01-18 16:05:15.61	4.64	17.96	-83.5	-79.0	2.4	0.00e+00	0	49	104	0	60	1048570
2026-01-18 16:05:16.62	4.38	17.85	-82.8	-79.0	2.5	0.00e+00	0	49	104	0	60	1048575
2026-01-18 16:05:17.62	4.12	17.74	-83.1	-79.0	2.5	0.00e+00	0	49	104	0	60	1048573
2026-01-18 16:05:18.63	3.87	17.63	-83.5	-79.0	2.4	0.00e+00	0	49	104	0	60	1048575
2026-01-18 16:05:19.63	3.62	17.52	-83.5	-79.0	2.5	0.00e+00	0	49	104	0	60	1048572
2026-01-18 16:05:20.64	3.37	17.42	-83.5	-79.0	2.4	0.00e+00	0	49	104	0	60	1048574
2026-01-18 16:05:21.65	3.12	17.31	-82.8	-79.0	2.5	0.00e+00	0	49	104	0	60	1048571
2026-01-18 16:05:22.66	2.87	17.20	-83.1	-79.0	2.5	0.00e+00	0	49	104	0	60	1048568
2026-01-18 16:05:23.66	2.63	17.09	-83.5	-79.0	2.4	0.00e+00	0	49	104	0	60	1048566
2026-01-18 16:05:24.67	2.38	16.99	-83.5	-79.0	2.4	0.00e+00	0	49	104	0	60	1048575
2026-01-18 16:05:25.68	2.14	16.88	-83.5	-79.0	2.5	0.00e+00	0	49	104	0	60	1048575
2026-01-18 16:05:26.69	1.91	16.77	-83.1	-79.0	2.4	0.00e+00	0	49	104	0	60	1048574
2026-01-18 16:05:27.70	1.67	16.66	-83.1	-79.0	2.4	0.00e+00	0	49	104	0	60	1048575
2026-01-18 16:05:28.70	1.44	16.56	-83.5	-79.0	2.4	0.00e+00	0	49	104	0	60	1048566
2026-01-18 16:05:29.71	1.20	16.45	-83.5	-79.0	2.2	0.00e+00	0	49	104	0	60	1048572
2026-01-18 16:05:30.72	0.97	16.34	-83.1	-79.0	2.3	0.00e+00	0	49	104	0	60	1048575
2026-01-18 16:05:31.73	0.74	16.24	-83.1	-79.0	2.3	0.00e+00	0	49	104	0	60	1048572
2026-01-18 16:05:32.74	0.52	16.13	-83.5	-79.0	2.4	0.00e+00	0	49	104	0	60	1048574
2026-01-18 16:05:33.75	0.29	16.02	-83.5	-79.0	2.4	0.00e+00	0	49	104	0	60	1048568
2026-01-18 16:05:34.75	0.07	15.92	-83.5	-79.0	2.4	0.00e+00	0	49	104	0	60	1048575
2026-01-18 16:05:35.76	359.85	15.81	-82.8	-79.0	2.4	0.00e+00	0	49	104	0	60	1048570
2026-01-18 16:05:36.76	359.63	15.71	-83.5	-79.0	2.5	0.00e+00	0	49	104	0	60	1048573
2026-01-18 16:05:37.77	359.41	15.60	-83.5	-79.0	2.4	0.00e+00	0	49	104	0	60	1048574
2026-01-18 16:05:38.78	359.20	15.50	-83.5	-79.0	2.4	0.00e+00	0	49	104	0	60	1048573
2026-01-18 16:05:39.79	358.98	15.39	-83.5	-79.0	2.4	0.00e+00	0	49	104	0	60	1048571
2026-01-18 16:05:40.80	358.77	15.29	-83.1	-79.0	2.4	0.00e+00	0	49	104	0	60	1048575
2026-01-18 16:05:41.81	358.56	15.18	-83.1	-79.0	2.3	0.00e+00	0	49	104	0	60	1048573
2026-01-18 16:05:42.82	358.35	15.08	-83.5	-79.0	2.4	0.00e+00	0	49	104	0	60	1048569
2026-01-18 16:05:43.82	358.15	14.98	-83.5	-79.0	2.3	0.00e+00	0	49	104	0	60	1048571
2026-01-18 16:05:44.83	357.94	14.87	-83.5	-79.0	2.5	0.00e+00	0	49	104	0	60	1048575
2026-01-18 16:05:45.84	357.74	14.77	-83.1	-79.0	2.3	0.00e+00	0	49	104	0	60	1048569
2026-01-18 16:05:46.85	357.54	14.67	-83.1	-79.0	2.4	0.00e+00	0	49	104	0	60	1048575
2026-01-18 16:05:47.85	357.34	14.57	-83.5	-79.0	2.3	0.00e+00	0	49	104	0	60	1048570
2026-01-18 16:05:48.86	357.14	14.46	-83.5	-79.0	2.4	0.00e+00	0	49	104	0	60	1048573
2026-01-18 16:05:49.87	356.94	14.36	-83.1	-79.0	2.4	0.00e+00	0	49	104	0	60	1048571
2026-01-18 16:05:50.88	356.75	14.26	-83.1	-79.0	2.5	0.00e+00	0	49	104	0	60	1048575
2026-01-18 16:05:51.88	356.56	14.16	-83.5	-79.0	2.4	0.00e+00	0	49	104	0	60	1048574
2026-01-18 16:05:52.89	356.36	14.06	-83.5	-79.0	2.6	0.00e+00	0	49	104	0	60	1048575
2026-01-18 16:05:53.90	356.17	13.95	-83.1	-79.0	2.4	0.00e+00	0	49	104	0	60	1048574
2026-01-18 16:05:54.91	355.98	13.85	-82.8	-79.0	2.3	0.00e+00	0	49	104	0	60	1048574
2026-01-18 16:05:55.91	355.80	13.75	-83.1	-79.0	2.4	0.00e+00	0	49	104	0	60	1048569
2026-01-18 16:05:56.92	355.61	13.65	-83.1	-79.0	2.4	0.00e+00	0	49	104	0	60	1048571
2026-01-18 16:05:57.93	355.43	13.55	-83.5	-79.0	2.4	0.00e+00	0	49	104	0	60	1048574
2026-01-18 16:05:58.93	355.25	13.45	-83.5	-79.0	2.4	0.00e+00	0	49	104	0	60	1048571
2026-01-18 16:05:59.94	355.07	13.35	-83.1	-79.0	2.3	0.00e+00	0	49	104	0	60	1048572
2026-01-18 16:06:00.95	354.89	13.25	-83.1	-79.0	2.4	0.00e+00	0	49	104	0	60	1048569
2026-01-18 16:06:01.96	354.71	13.15	-83.5	-79.0	2.4	0.00e+00	0	49	104	0	60	1048572
2026-01-18 16:06:02.96	354.53	13.06	-83.5	-79.0	2.6	0.00e+00	0	49	104	0	60	1048574
2026-01-18 16:06:03.97	354.36	12.96	-83.1	-79.0	2.5	0.00e+00	0	49	104	0	60	1048572
2026-01-18 16:06:04.98	354.18	12.86	-82.8	-79.0	2.5	0.00e+00	0	49	104	0	60	1048575
2026-01-18 16:06:05.99	354.01	12.76	-83.1	-79.0	2.4	0.00e+00	0	49	104	0	60	1048564
2026-01-18 16:06:07.00	353.84	12.66	-83.5	-79.0	2.4	0.00e+00	0	49	104	0	60	1048575
2026-01-18 16:06:08.00	353.67	12.57	-83.5	-79.0	2.4	0.00e+00	0	49	104	0	60	1048573
2026-01-18 16:06:09.01	353.50	12.47	-82.8	-79.0	2.3	0.00e+00	0	49	104	0	60	1048572
2026-01-18 16:06:10.02	353.33	12.37	-83.5	-79.0	2.6	0.00e+00	0	49	104	0	60	1048574
2026-01-18 16:06:11.03	353.17	12.28	-83.5	-79.0	2.4	0.00e+00	0	49	104	0	60	1048575
2026-01-18 16:06:12.04	353.00	12.18	-83.5	-79.0	2.6	0.00e+00	0	49	104	0	60	1048574
2026-01-18 16:06:13.04	352.84	12.09	-83.5	-79.0	2.4	0.00e+00	0	49	104	0	60	1048574
2026-01-18 16:06:14.05	352.68	11.99	-82.8	-79.0	2.5	0.00e+00	0	49	104	0	60	1048575
2026-01-18 16:06:15.06	352.52	11.90	-83.1	-79.0	2.4	0.00e+00	0	49	104	0	60	1048575
2026-01-18 16:06:16.07	352.36	11.80	-83.5	-79.0	2.4	0.00e+00	0	49	104	0	60	1048574
2026-01-18 16:06:17.08	352.20	11.71	-83.5	-79.0	2.5	0.00e+00	0	49	104	0	60	1048575
2026-01-18 16:06:18.09	352.04	11.61	-83.5	-79.0	2.4	0.00e+00	0	49	104	0	60	1048573
2026-01-18 16:06:19.09	351.89	11.52	-83.1	-79.0	2.5	0.00e+00	0	49	104	0	60	1048574
2026-01-18 16:06:20.10	351.74	11.42	-83.5	-79.0	2.2	0.00e+00	0	49	104	0	60	1048568
2026-01-18 16:06:21.11	351.58	11.33	-83.5	-79.0	2.4	0.00e+00	0	49	104	0	60	1048561
2026-01-18 16:06:22.12	351.43	11.24	-83.5	-79.0	2.4	0.00e+00	0	49	104	0	60	1048574
2026-01-18 16:06:23.12	351.28	11.14	-82.8	-79.0	2.4	0.00e+00	0	49	104	0	60	1048572
2026-01-18 16:06:24.13	351.13	11.05	-82.8	-79.0	2.4	0.00e+00	0	49	104	0	60	1048570
2026-01-18 16:06:25.14	350.98	10.96	-83.5	-79.0	2.4	0.00e+00	0	49	104	0	60	1048573
2026-01-18 16:06:26.15	350.84	10.87	-83.5	-79.0	2.4	0.00e+00	0	49	104	0	60	1048573
2026-01-18 16:06:27.16	350.69	10.78	-83.5	-79.0	2.3	0.00e+00	0	49	104	0	60	1048571
2026-01-18 16:06:28.17	350.54	10.68	-83.1	-79.0	2.4	0.00e+00	0	49	104	0	60	1048575
2026-01-18 16:06:29.18	350.40	10.59	-83.1	-79.0	2.5	0.00e+00	0	49	104	0	60	1048575
2026-01-18 16:06:30.18	350.26	10.50	-83.5	-79.0	2.4	0.00e+00	0	49	104	0	60	1048574
2026-01-18 16:06:31.19	350.12	10.41	-83.5	-79.0	2.5	0.00e+00	0	49	104	0	60	1048574
2026-01-18 16:06:32.20	349.98	10.32	-83.5	-79.0	2.4	0.00e+00	0	49	104	0	60	1048574
2026-01-18 16:06:33.21	349.84	10.23	-82.8	-79.0	2.5	0.00e+00	0	49	104	0	60	1048575
2026-01-18 16:06:34.22	349.70	10.14	-83.1	-79.0	2.4	0.00e+00	0	49	104	0	60	1048575
2026-01-18 16:06:35.22	349.56	10.05	-83.5	-79.0	2.4	0.00e+00	0	49	104	0	60	1048574
2026-01-18 16:06:36.23	349.43	9.96	-83.5	-79.0	2.3	0.00e+00	0	49	104	0	60	1048574
2026-01-18 16:06:37.24	349.29	9.88	-83.1	-79.0	2.3	0.00e+00	0	49	104	0	60	1048575
2026-01-18 16:06:38.24	349.16	9.79	-83.1	-79.0	2.5	0.00e+00	0	49	104	0	60	1048574
2026-01-18 16:06:39.25	349.02	9.70	-83.5	-79.0	2.4	0.00e+00	0	49	104	0	60	1048575
2026-01-18 16:06:40.25	348.89	9.61	-83.5	-79.0	2.5	0.00e+00	0	49	104	0	60	1048575
2026-01-18 16:06:41.26	348.76	9.52	-83.1	-79.0	2.4	0.00e+00	0	49	104	0	60	1048573
2026-01-18 16:06:42.27	348.63	9.44	-82.8	-79.0	2.3	0.00e+00	0	49	104	0	60	1048570
2026-01-18 16:06:43.27	348.50	9.35	-83.5	-79.0	2.4	0.00e+00	0	49	104	0	60	1048575
2026-01-18 16:06:44.28	348.38	9.26	-83.5	-79.0	2.4	0.00e+00	0	49	104	0	60	1048570
2026-01-18 16:06:45.28	348.25	9.18	-83.5	-79.0	2.4	0.00e+00	0	49	104	0	60	1048571
2026-01-18 16:06:46.29	348.12	9.09	-83.5	-79.0	2.4	0.00e+00	0	49	104	0	60	1048571
2026-01-18 16:06:47.30	348.00	9.00	-83.1	-79.0	2.3	0.00e+00	0	49	104	0	60	1048572
2026-01-18 16:06:48.31	347.87	8.92	-83.1	-79.0	2.3	0.00e+00	0	49	104	0	60	1048567
2026-01-18 16:06:49.32	347.75	8.83	-83.5	-79.0	2.3	0.00e+00	0	49	104	0	60	1048574
2026-01-18 16:06:50.32	347.63	8.75	-83.5	-79.0	2.4	0.00e+00	0	49	104	0	60	1048572
2026-01-18 16:06:51.33	347.51	8.66	-83.5	-79.0	2.4	0.00e+00	0	49	104	0	60	1048575
2026-01-18 16:06:52.34	347.38	8.58	-82.8	-79.0	2.3	0.00e+00	0	49	104	0	60	1048573
2026-01-18 16:06:53.35	347.26	8.49	-83.5	-79.0	2.6	0.00e+00	0	49	104	0	60	1048570
2026-01-18 16:06:54.36	347.15	8.41	-83.1	-79.0	2.3	0.00e+00	0	49	104	0	60	1048575
2026-01-18 16:06:55.36	347.03	8.33	-83.5	-79.0	2.3	0.00e+00	0	49	104	0	60	1048575
2026-01-18 16:06:56.37	346.91	8.24	-83.1	-79.0	2.5	0.00e+00	0	49	104	0	60	1048573
2026-01-18 16:06:57.38	346.79	8.16	-83.1	-79.0	2.3	0.00e+00	0	49	104	0	60	1048571
2026-01-18 16:06:58.39	346.68	8.08	-83.5	-79.0	2.3	0.00e+00	0	49	104	0	60	1048573
2026-01-18 16:06:59.39	346.56	8.00	-83.5	-79.0	2.3	0.00e+00	0	49	104	0	60	1048572
2026-01-18 16:07:00.39	346.45	7.91	-83.5	-79.0	2.5	0.00e+00	0	49	104	0	60	1048575
2026-01-18 16:07:01.40	346.34	7.83	-82.8	-79.0	2.4	0.00e+00	0	49	104	0	60	1048574
2026-01-18 16:07:02.41	346.23	7.75	-82.8	-79.0	2.5	0.00e+00	0	49	104	0	60	1048572
2026-01-18 16:07:03.42	346.11	7.67	-83.5	-79.0	2.4	0.00e+00	0	49	104	0	60	1048571
2026-01-18 16:07:04.43	346.00	7.59	-83.5	-79.0	2.5	0.00e+00	0	49	104	0	60	1048575
2026-01-18 16:07:05.44	345.89	7.50	-83.5	-79.0	2.4	0.00e+00	0	49	104	0	60	1048575
2026-01-18 16:07:06.45	345.78	7.42	-83.1	-79.0	2.4	0.00e+00	0	49	104	0	60	1048571
2026-01-18 16:07:07.45	345.68	7.34	-83.5	-79.0	2.3	0.00e+00	0	49	104	0	60	1048573
2026-01-18 16:07:08.46	345.57	7.26	-83.5	-79.0	2.7	0.00e+00	0	49	104	0	60	1048574
2026-01-18 16:07:09.46	345.46	7.18	-83.5	-79.0	2.4	0.00e+00	0	49	104	0	60	1048575
2026-01-18 16:07:10.47	345.36	7.10	-83.1	-79.0	2.4	0.00e+00	0	49	104	0	60	1048574
2026-01-18 16:07:11.48	345.25	7.02	-83.1	-79.0	2.4	0.00e+00	0	49	104	0	60	1048573
2026-01-18 16:07:12.48	345.15	6.95	-83.5	-79.0	2.4	0.00e+00	0	49	104	0	60	1048573
2026-01-18 16:07:13.49	345.04	6.87	-83.5	-79.0	2.3	0.00e+00	0	49	104	0	60	1048568
2026-01-18 16:07:14.50	344.94	6.79	-83.1	-79.0	2.4	0.00e+00	0	49	104	0	60	1048574
2026-01-18 16:07:15.50	344.84	6.71	-83.1	-79.0	2.4	0.00e+00	0	49	104	0	60	1048575
2026-01-18 16:07:16.51	344.74	6.63	-83.1	-79.0	2.3	0.00e+00	0	49	104	0	60	1048574
2026-01-18 16:07:17.51	344.64	6.55	-83.5	-79.0	2.4	0.00e+00	0	49	104	0	60	1048575
2026-01-18 16:07:18.52	344.54	6.47	-83.5	-79.0	2.4	0.00e+00	0	49	104	0	60	1048572
2026-01-18 16:07:19.53	344.44	6.40	-83.5	-79.0	2.4	0.00e+00	0	49	104	0	60	1048575
2026-01-18 16:07:20.54	344.34	6.32	-83.1	-79.0	2.3	0.00e+00	0	49	104	0	60	1048574
2026-01-18 16:07:21.54	344.24	6.24	-83.1	-79.0	2.4	0.00e+00	0	49	104	0	60	1048574
2026-01-18 16:07:22.55	344.14	6.17	-83.5	-79.0	2.4	0.00e+00	0	49	104	0	60	1048566
2026-01-18 16:07:23.56	344.04	6.09	-83.5	-79.0	2.5	0.00e+00	0	49	104	0	60	1048568
2026-01-18 16:07:24.57	343.95	6.01	-83.1	-79.0	2.4	0.00e+00	0	49	104	0	60	1048562
2026-01-18 16:07:25.58	343.85	5.94	-83.1	-79.0	2.5	0.00e+00	0	49	104	0	60	1048575
2026-01-18 16:07:26.58	343.76	5.86	-83.5	-79.0	2.3	0.00e+00	0	49	104	0	60	1048575
2026-01-18 16:07:27.59	343.66	5.78	-83.1	-79.0	2.5	0.00e+00	0	49	104	0	60	1048573
2026-01-18 16:07:28.59	343.57	5.71	-83.5	-79.0	2.3	0.00e+00	0	49	104	0	60	1048573
2026-01-18 16:07:29.60	343.48	5.63	-83.5	-79.0	2.5	0.00e+00	0	49	104	0	60	1048574
2026-01-18 16:07:30.61	343.39	5.56	-83.1	-79.0	2.4	0.00e+00	0	49	104	0	60	1048573
2026-01-18 16:07:31.62	343.29	5.48	-83.5	-79.0	2.5	0.00e+00	0	49	104	0	60	1048571
2026-01-18 16:07:32.63	343.20	5.41	-83.5	-79.0	2.4	0.00e+00	0	49	104	0	60	1048569
2026-01-18 16:07:33.64	343.11	5.33	-83.5	-79.0	2.6	0.00e+00	0	49	104	0	60	1048572
2026-01-18 16:07:34.64	343.02	5.26	-82.8	-79.0	2.5	0.00e+00	0	49	104	0	60	1048573
2026-01-18 16:07:35.65	342.93	5.19	-83.1	-79.0	2.4	0.00e+00	0	49	104	0	60	1048571
2026-01-18 16:07:36.66	342.84	5.11	-83.5	-79.0	2.4	0.00e+00	0	49	104	0	60	1048575
2026-01-18 16:07:37.67	342.76	5.04	-83.5	-79.0	2.3	0.00e+00	0	49	104	0	60	1048575
2026-01-18 16:07:38.68	342.67	4.97	-83.5	-79.0	2.5	0.00e+00	0	49	104	0	60	1048573
2026-01-18 16:07:39.68	342.58	4.89	-83.1	-79.0	2.4	0.00e+00	0	49	104	0	60	1048570
2026-01-18 16:07:40.69	342.49	4.82	-83.1	-79.0	2.4	0.00e+00	0	49	104	0	60	1048573
2026-01-18 16:07:41.70	342.41	4.75	-83.5	-79.0	2.4	0.00e+00	0	49	104	0	60	1048575
2026-01-18 16:07:42.71	342.32	4.67	-83.5	-79.0	2.3	0.00e+00	0	49	104	0	60	1048570
2026-01-18 16:07:43.71	342.24	4.60	-83.1	-79.0	2.4	0.00e+00	0	49	104	0	60	1048573
2026-01-18 16:07:44.72	342.15	4.53	-82.8	-79.0	2.5	0.00e+00	0	49	104	0	60	1048575
2026-01-18 16:07:45.72	342.07	4.46	-83.5	-79.0	2.4	0.00e+00	0	49	104	0	60	1048573
2026-01-18 16:07:46.73	341.99	4.39	-83.5	-79.0	2.4	0.00e+00	0	49	104	0	60	1048573
2026-01-18 16:07:47.74	341.91	4.32	-83.5	-79.0	2.2	0.00e+00	0	49	104	0	60	1048572
2026-01-18 16:07:48.75	341.82	4.24	-82.8	-79.0	2.4	0.00e+00	0	49	104	0	60	1048575
2026-01-18 16:07:49.76	341.74	4.17	-83.5	-79.0	2.4	0.00e+00	0	49	104	0	60	1048575
2026-01-18 16:07:50.77	341.66	4.10	-83.5	-79.0	2.3	0.00e+00	0	49	104	0	60	1048571
2026-01-18 16:07:51.77	341.58	4.03	-83.5	-79.0	2.4	0.00e+00	0	49	104	0	60	1048575
2026-01-18 16:07:52.78	341.50	3.96	-83.5	-79.0	2.2	0.00e+00	0	49	104	0	60	1048575
2026-01-18 16:07:53.79	341.42	3.89	-83.1	-79.0	2.4	0.00e+00	0	49	104	0	60	1048572
2026-01-18 16:07:54.80	341.34	3.82	-83.5	-79.0	2.4	0.00e+00	0	49	104	0	60	1048572
2026-01-18 16:07:55.80	341.26	3.75	-83.5	-79.0	2.4	0.00e+00	0	49	104	0	60	1048574
2026-01-18 16:07:56.81	341.19	3.68	-83.5	-79.0	2.3	0.00e+00	0	49	104	0	60	1048575
2026-01-18 16:07:57.82	341.11	3.61	-83.1	-79.0	2.4	0.00e+00	0	49	104	0	60	1048570
2026-01-18 16:07:58.83	341.03	3.54	-83.1	-79.0	2.4	0.00e+00	0	49	104	0	60	1048571
2026-01-18 16:07:59.83	340.95	3.47	-83.1	-79.0	2.7	0.00e+00	0	49	104	0	60	1048570
2026-01-18 16:08:00.84	340.88	3.40	-83.1	-79.0	2.4	0.00e+00	0	49	104	0	60	1048575
2026-01-18 16:08:01.84	340.80	3.34	-83.1	-79.0	2.4	0.00e+00	0	49	104	0	60	1048561
2026-01-18 16:08:02.85	340.73	3.27	-83.1	-79.0	2.4	0.00e+00	0	49	104	0	60	1048575
2026-01-18 16:08:03.86	340.65	3.20	-83.1	-79.0	2.4	0.00e+00	0	49	104	0	60	1048575
2026-01-18 16:08:04.86	340.58	3.13	-83.5	-79.0	2.4	0.00e+00	0	49	104	0	60	1048573
2026-01-18 16:08:05.87	340.51	3.06	-83.5	-79.0	2.3	0.00e+00	0	49	104	0	60	1048572
2026-01-18 16:08:06.88	340.43	2.99	-83.5	-79.0	2.5	0.00e+00	0	49	104	0	60	1048568
2026-01-18 16:08:07.88	340.36	2.93	-82.8	-79.0	2.4	0.00e+00	0	49	104	0	60	1048558
2026-01-18 16:08:08.88	340.29	2.86	-83.1	-79.0	2.4	0.00e+00	0	49	104	0	60	1048572
2026-01-18 16:08:09.89	340.22	2.79	-83.5	-79.0	2.4	0.00e+00	0	49	104	0	60	1048574
2026-01-18 16:08:10.90	340.15	2.73	-83.5	-79.0	2.4	0.00e+00	0	49	104	0	60	1048574
2026-01-18 16:08:11.91	340.07	2.66	-83.5	-79.0	2.4	0.00e+00	0	49	104	0	60	1048572
2026-01-18 16:08:12.92	340.00	2.59	-83.1	-79.0	2.4	0.00e+00	0	49	104	0	60	1048570
2026-01-18 16:08:13.92	339.93	2.53	-83.1	-79.0	2.4	0.00e+00	0	49	104	0	60	1048572
2026-01-18 16:08:14.93	339.86	2.46	-83.5	-79.0	2.4	0.00e+00	0	49	104	0	60	1048575
2026-01-18 16:08:15.94	339.79	2.39	-83.5	-79.0	2.6	0.00e+00	0	49	104	0	60	1048571
2026-01-18 16:08:16.95	339.73	2.33	-83.5	-79.0	2.5	0.00e+00	0	49	104	0	60	1048559
2026-01-18 16:08:17.95	339.66	2.26	-82.8	-79.0	2.4	0.00e+00	0	49	104	0	60	1048575
2026-01-18 16:08:18.96	339.59	2.19	-83.1	-79.0	2.3	0.00e+00	0	49	104	0	60	1048572
2026-01-18 16:08:19.97	339.52	2.13	-83.5	-79.0	2.4	0.00e+00	0	49	104	0	60	1048571
2026-01-18 16:08:20.97	339.45	2.06	-83.1	-79.0	2.3	0.00e+00	0	49	104	0	60	1048573
2026-01-18 16:08:21.98	339.39	2.00	-82.8	-79.0	2.5	0.00e+00	0	49	104	0	60	1048574
2026-01-18 16:08:22.98	339.32	1.93	-83.1	-79.0	2.4	0.00e+00	0	49	104	0	60	1048575
2026-01-18 16:08:23.98	339.26	1.87	-83.5	-79.0	2.5	0.00e+00	0	49	104	0	60	1048575
2026-01-18 16:08:24.98	339.19	1.81	-83.5	-79.0	2.4	0.00e+00	0	49	104	0	60	1048575
2026-01-18 16:08:25.99	339.13	1.74	-83.5	-79.0	2.4	0.00e+00	0	49	104	0	60	1048570
2026-01-18 16:08:27.00	339.06	1.68	-83.1	-79.0	2.4	0.00e+00	0	49	104	0	60	1048574
2026-01-18 16:08:28.01	339.00	1.61	-83.1	-79.0	2.4	0.00e+00	0	49	104	0	60	1048573
2026-01-18 16:08:29.01	338.93	1.55	-83.5	-79.0	2.3	0.00e+00	0	49	104	0	60	1048573
2026-01-18 16:08:30.02	338.87	1.48	-83.5	-79.0	2.4	0.00e+00	0	49	104	0	60	1048575
2026-01-18 16:08:31.03	338.80	1.42	-83.5	-79.0	2.4	0.00e+00	0	49	104	0	60	1048568
2026-01-18 16:08:32.04	338.74	1.36	-83.1	-79.0	2.4	0.00e+00	0	49	104	0	60	1048567
2026-01-18 16:08:33.04	338.68	1.29	-83.5	-79.0	2.7	0.00e+00	0	49	104	0	60	1048563
2026-01-18 16:08:34.05	338.62	1.23	-83.5	-79.0	2.3	0.00e+00	0	49	104	0	60	1048571
2026-01-18 16:08:35.06	338.55	1.17	-83.5	-79.0	2.4	0.00e+00	0	49	104	0	60	1048575
2026-01-18 16:08:36.07	338.49	1.10	-83.1	-79.0	2.4	0.00e+00	0	49	104	0	60	1048574
2026-01-18 16:08:37.08	338.43	1.04	-82.8	-79.0	2.4	0.00e+00	0	49	104	0	60	1048574
2026-01-18 16:08:38.08	338.37	0.98	-83.1	-79.0	2.4	0.00e+00	0	49	104	0	60	1048574
2026-01-18 16:08:39.08	338.31	0.91	-83.5	-79.0	2.4	0.00e+00	0	49	104	0	60	1048575
2026-01-18 16:08:40.09	338.25	0.85	-83.5	-79.0	2.5	0.00e+00	0	49	104	0	60	1048568
2026-01-18 16:08:41.09	338.19	0.79	-82.8	-79.0	2.3	0.00e+00	0	49	104	0	60	1048574
2026-01-18 16:08:42.10	338.13	0.73	-82.8	-79.0	2.4	0.00e+00	0	49	104	0	60	1048574
2026-01-18 16:08:43.11	338.07	0.67	-83.5	-79.0	2.4	0.00e+00	0	49	104	0	60	1048574
2026-01-18 16:08:44.12	338.01	0.60	-83.5	-79.0	2.4	0.00e+00	0	49	104	0	60	1048575
2026-01-18 16:08:45.12	337.96	0.54	-83.5	-79.0	2.4	0.00e+00	0	49	104	0	60	1048575
2026-01-18 16:08:46.13	337.90	0.48	-83.1	-79.0	2.5	0.00e+00	0	49	104	0	60	1048575
2026-01-18 16:08:47.14	337.84	0.42	-83.1	-79.0	2.4	0.00e+00	0	49	104	0	60	1048570
2026-01-18 16:08:48.15	337.78	0.36	-83.1	-79.0	2.4	0.00e+00	0	49	104	0	60	1048574
2026-01-18 16:08:49.16	337.72	0.30	-83.1	-79.0	2.4	0.00e+00	0	49	104	0	60	1048575
2026-01-18 16:08:50.16	337.67	0.23	-83.5	-79.0	2.5	0.00e+00	0	49	104	0	60	1048574
2026-01-18 16:08:51.17	337.61	0.17	-83.1	-79.0	2.4	0.00e+00	0	49	104	0	60	1048575
2026-01-18 16:08:52.17	337.55	0.11	-83.5	-79.0	2.4	0.00e+00	0	49	104	0	60	1048574
2026-01-18 16:08:53.18	337.50	0.05	-83.5	-79.0	2.5	0.00e+00	0	49	104	0	60	1048575
2026-01-18 16:08:54.19	337.44	-0.01	-83.5	-79.0	2.4	0.00e+00	0	49	104	0	60	1048575
2026-01-18 16:08:55.19	337.39	-0.07	-83.1	-79.0	2.5	0.00e+00	0	49	104	0	60	1048574

#Closed at: 2026-01-18 16:08:55
#Recorded file [0 MB]: D:/Data/35015_260118_185759.dat