passes_logs/2026/01/18/R3.2S-Naryan-Mar/R3.2S-Naryan-Mar__20260118_012425_NOAA_21_JPSS-2_rec.log

#Pass ID: 20260118_012425_NOAA 21 (JPSS-2)
#Satellite: NOAA 21 (JPSS-2)
#Configuration: NOAA-21
#almurnet v.1.7.20240730
#Start time: 2026-01-18 01:28:06

#Version: 2.2.20231116
#Station: R3.2S-Naryan-Mar
#Location: 53.008057 lon 67.646978 lat
#TLE: 1 54234U 22150A   26017.26823908  .00000042  00000+0  40962-4 0  9992
#TLE: 2 54234  98.7501 318.1405 0000613 274.2947  85.8159 14.19535194165131

#Time	Az	El	Level	Level2	SNR	BER	BlckErr	Temp	State	Recorded	gain1	gain2
2026-01-18 01:28:06.72	18.71	15.51	-85.2	-88.6	3.8	7.64e-01	0	47	0	0	60	1048573
2026-01-18 01:28:07.72	18.59	15.60	-84.7	-88.8	2.6	1.56e+00	0	48	104	0	60	1048575
2026-01-18 01:28:08.72	18.46	15.69	-84.7	-88.8	2.7	1.56e+00	0	48	104	0	60	1048574
2026-01-18 01:28:09.73	18.33	15.78	-85.2	-88.8	2.9	1.56e+00	0	47	104	0	60	1048575
2026-01-18 01:28:10.73	18.20	15.86	-85.2	-88.8	2.6	1.56e+00	0	47	104	0	60	1048575
2026-01-18 01:28:11.74	18.07	15.95	-85.2	-88.8	2.8	1.56e+00	0	47	104	0	60	1048572
2026-01-18 01:28:12.75	17.94	16.04	-85.2	-88.8	2.7	1.56e+00	0	47	104	0	60	1048575
2026-01-18 01:28:13.76	17.81	16.13	-85.2	-88.8	2.8	1.56e+00	0	48	104	0	60	1048575
2026-01-18 01:28:14.76	17.68	16.22	-85.2	-88.8	2.7	1.56e+00	0	48	104	0	60	1048569
2026-01-18 01:28:15.77	17.54	16.31	-85.2	-88.8	2.6	1.56e+00	0	48	104	0	60	1048575
2026-01-18 01:28:16.78	17.41	16.40	-85.2	-88.8	2.8	1.56e+00	0	48	104	0	60	1048573
2026-01-18 01:28:17.79	17.27	16.49	-85.2	-88.8	2.7	1.56e+00	0	47	104	0	60	1048565
2026-01-18 01:28:18.80	17.14	16.58	-85.2	-88.8	2.8	1.56e+00	0	48	104	0	60	1048575
2026-01-18 01:28:19.80	17.00	16.67	-85.2	-88.8	2.9	1.56e+00	0	47	104	0	60	1048572
2026-01-18 01:28:20.81	16.86	16.76	-85.2	-88.8	2.6	1.56e+00	0	47	104	0	60	1048570
2026-01-18 01:28:21.82	16.72	16.86	-85.2	-88.8	2.6	1.56e+00	0	47	104	0	60	1048572
2026-01-18 01:28:22.83	16.58	16.95	-85.2	-88.8	2.7	1.56e+00	0	48	104	0	60	1048573
2026-01-18 01:28:23.84	16.44	17.04	-85.2	-88.8	2.5	1.56e+00	0	47	104	0	60	1048574
2026-01-18 01:28:24.84	16.30	17.13	-85.2	-88.8	2.6	1.56e+00	0	47	104	0	60	1048572
2026-01-18 01:28:25.85	16.16	17.22	-85.2	-88.8	2.6	1.56e+00	0	47	104	0	60	1048575
2026-01-18 01:28:26.85	16.02	17.31	-85.2	-88.8	2.7	1.56e+00	0	47	104	0	60	1048575
2026-01-18 01:28:27.86	15.88	17.40	-85.2	-88.8	2.7	1.56e+00	0	47	104	0	60	1048574
2026-01-18 01:28:28.86	15.73	17.50	-83.9	-88.8	2.7	1.56e+00	0	47	104	0	60	1048575
2026-01-18 01:28:29.86	15.59	17.59	-85.2	-88.8	2.7	1.56e+00	0	48	104	0	60	1048574
2026-01-18 01:28:30.87	15.44	17.68	-85.2	-88.8	2.5	1.56e+00	0	47	104	0	60	1048575
2026-01-18 01:28:31.88	15.29	17.77	-85.2	-88.8	2.9	1.56e+00	0	47	104	0	60	1048573
2026-01-18 01:28:32.89	15.14	17.87	-85.2	-88.8	2.5	1.56e+00	0	47	104	0	60	1048574
2026-01-18 01:28:33.89	15.00	17.96	-85.2	-88.8	2.8	1.56e+00	0	48	104	0	60	1048573
2026-01-18 01:28:34.89	14.85	18.05	-85.2	-88.8	2.5	1.56e+00	0	48	104	0	60	1048574
2026-01-18 01:28:35.90	14.69	18.14	-85.2	-88.8	2.6	1.56e+00	0	48	104	0	60	1048575
2026-01-18 01:28:36.91	14.54	18.24	-85.2	-88.8	2.8	1.56e+00	0	48	104	0	60	1048573
2026-01-18 01:28:37.91	14.39	18.33	-85.2	-88.8	2.8	1.56e+00	0	47	104	0	60	1048570
2026-01-18 01:28:38.92	14.24	18.42	-83.9	-88.8	2.8	1.56e+00	0	48	104	0	60	1048574
2026-01-18 01:28:39.93	14.08	18.52	-85.2	-88.8	2.7	1.56e+00	0	48	104	0	60	1048575
2026-01-18 01:28:40.93	13.93	18.61	-85.2	-88.8	2.5	1.56e+00	0	47	104	0	60	1048572
2026-01-18 01:28:41.93	13.77	18.70	-85.2	-88.8	2.7	1.56e+00	0	48	104	0	60	1048574
2026-01-18 01:28:42.94	13.61	18.80	-85.2	-88.8	2.9	1.56e+00	0	47	104	0	60	1048573
2026-01-18 01:28:43.95	13.45	18.89	-85.2	-88.8	2.9	1.56e+00	0	48	104	0	60	1048574
2026-01-18 01:28:44.96	13.29	18.99	-85.2	-88.8	2.7	1.56e+00	0	47	104	0	60	1048575
2026-01-18 01:28:45.96	13.13	19.08	-85.2	-88.8	2.7	1.56e+00	0	47	104	0	60	1048575
2026-01-18 01:28:46.97	12.97	19.18	-85.2	-88.8	2.7	1.56e+00	0	47	104	0	60	1048573
2026-01-18 01:28:47.97	12.81	19.27	-85.2	-88.8	2.6	1.56e+00	0	47	104	0	60	1048575
2026-01-18 01:28:48.97	12.65	19.36	-85.2	-88.8	2.7	1.56e+00	0	48	104	0	60	1048574
2026-01-18 01:28:49.98	12.48	19.46	-85.2	-88.8	2.9	1.56e+00	0	48	104	0	60	1048566
2026-01-18 01:28:50.99	12.31	19.55	-85.2	-88.8	2.7	1.56e+00	0	47	104	0	60	1048575
2026-01-18 01:28:52.00	12.15	19.65	-85.2	-88.8	2.9	1.56e+00	0	48	104	0	60	1048575
2026-01-18 01:28:53.01	11.98	19.74	-85.2	-88.8	2.7	1.56e+00	0	48	104	0	60	1048575
2026-01-18 01:28:54.01	11.81	19.84	-85.2	-88.8	2.6	1.56e+00	0	48	104	0	60	1048575
2026-01-18 01:28:55.02	11.64	19.93	-85.2	-88.8	2.7	1.56e+00	0	47	104	0	60	1048575
2026-01-18 01:28:56.03	11.47	20.03	-85.2	-88.8	2.7	1.56e+00	0	48	104	0	60	1048575
2026-01-18 01:28:57.04	11.29	20.13	-85.2	-88.8	2.6	1.56e+00	0	48	104	0	60	1048575
2026-01-18 01:28:58.04	11.12	20.22	-85.2	-88.8	2.6	1.56e+00	0	48	104	0	60	1048575
2026-01-18 01:28:59.04	10.95	20.32	-85.2	-88.8	2.6	1.56e+00	0	47	104	0	60	1048574
2026-01-18 01:29:00.05	10.77	20.41	-84.7	-88.8	2.8	1.56e+00	0	48	104	0	60	1048575
2026-01-18 01:29:01.05	10.60	20.51	-85.2	-88.8	2.8	1.56e+00	0	48	104	0	60	1048575
2026-01-18 01:29:02.06	10.42	20.60	-85.2	-88.8	2.8	1.56e+00	0	48	104	0	60	1048575
2026-01-18 01:29:03.06	10.24	20.70	-85.2	-88.8	2.7	1.56e+00	0	48	104	0	60	1048574
2026-01-18 01:29:04.07	10.06	20.80	-85.2	-88.8	2.7	1.56e+00	0	48	104	0	60	1048575
2026-01-18 01:29:05.07	9.88	20.89	-82.2	-88.8	2.7	1.56e+00	0	48	104	0	60	1048566
2026-01-18 01:29:06.08	9.69	20.99	-85.2	-88.8	2.6	1.56e+00	0	48	104	0	60	1048575
2026-01-18 01:29:07.09	9.51	21.08	-85.2	-88.8	2.8	1.56e+00	0	48	104	0	60	1048564
2026-01-18 01:29:08.09	9.33	21.18	-85.2	-88.8	2.6	1.56e+00	0	47	104	0	60	1048575
2026-01-18 01:29:09.10	9.14	21.28	-85.2	-88.8	2.8	1.56e+00	0	48	104	0	60	1048574
2026-01-18 01:29:10.11	8.95	21.37	-85.2	-88.8	2.8	1.56e+00	0	47	104	0	60	1048574
2026-01-18 01:29:11.12	8.76	21.47	-85.2	-88.8	2.7	1.56e+00	0	47	104	0	60	1048571
2026-01-18 01:29:12.12	8.57	21.57	-85.2	-88.8	2.6	1.56e+00	0	47	104	0	60	1048575
2026-01-18 01:29:13.12	8.39	21.66	-85.2	-88.8	2.7	1.56e+00	0	47	104	0	60	1048574
2026-01-18 01:29:14.13	8.19	21.76	-85.2	-88.8	2.5	1.56e+00	0	48	104	0	60	1048568
2026-01-18 01:29:15.14	8.00	21.85	-85.2	-88.8	2.7	1.56e+00	0	48	104	0	60	1048574
2026-01-18 01:29:16.14	7.81	21.95	-85.2	-88.8	2.9	1.56e+00	0	48	104	0	60	1048575
2026-01-18 01:29:17.15	7.61	22.05	-85.2	-88.8	2.5	1.56e+00	0	48	104	0	60	1048574
2026-01-18 01:29:18.15	7.41	22.14	-85.2	-88.8	2.9	1.56e+00	0	48	104	0	60	1048573
2026-01-18 01:29:19.16	7.21	22.24	-85.2	-88.8	2.8	1.56e+00	0	48	104	0	60	1048575
2026-01-18 01:29:20.16	7.02	22.34	-85.2	-88.8	2.7	1.56e+00	0	47	104	0	60	1048574
2026-01-18 01:29:21.17	6.82	22.43	-85.2	-88.8	2.7	1.56e+00	0	48	104	0	60	1048575
2026-01-18 01:29:22.18	6.61	22.53	-85.2	-88.8	2.7	1.56e+00	0	47	104	0	60	1048575
2026-01-18 01:29:23.19	6.41	22.63	-85.2	-88.8	2.6	1.56e+00	0	48	104	0	60	1048572
2026-01-18 01:29:24.20	6.20	22.72	-85.2	-88.8	2.8	1.56e+00	0	48	104	0	60	1048572
2026-01-18 01:29:25.20	6.00	22.82	-84.7	-88.8	2.8	1.56e+00	0	48	104	0	60	1048574
2026-01-18 01:29:26.21	5.79	22.92	-85.2	-88.8	2.6	1.56e+00	0	48	104	0	60	1048575
2026-01-18 01:29:27.22	5.58	23.01	-85.2	-88.8	2.6	1.56e+00	0	48	104	0	60	1048570
2026-01-18 01:29:28.23	5.37	23.11	-85.2	-88.8	2.7	1.56e+00	0	48	104	0	60	1048575
2026-01-18 01:29:29.24	5.16	23.20	-84.3	-88.8	2.7	1.56e+00	0	48	104	0	60	1048570
2026-01-18 01:29:30.25	4.95	23.30	-85.2	-88.8	2.5	1.56e+00	0	48	104	0	60	1048573
2026-01-18 01:29:31.25	4.73	23.40	-85.2	-88.8	2.7	1.56e+00	0	48	104	0	60	1048570
2026-01-18 01:29:32.26	4.52	23.49	-85.2	-88.8	2.8	1.56e+00	0	48	104	0	60	1048573
2026-01-18 01:29:33.26	4.30	23.59	-85.2	-88.8	2.7	1.56e+00	0	48	104	0	60	1048574
2026-01-18 01:29:34.27	4.09	23.68	-85.2	-88.8	2.6	1.56e+00	0	48	104	0	60	1048574
2026-01-18 01:29:35.28	3.87	23.78	-84.7	-88.8	2.8	1.56e+00	0	48	104	0	60	1048575
2026-01-18 01:29:36.29	3.64	23.88	-84.7	-88.8	2.9	1.56e+00	0	48	104	0	60	1048575
2026-01-18 01:29:37.30	3.42	23.97	-85.2	-88.8	2.8	1.56e+00	0	48	104	0	60	1048575
2026-01-18 01:29:38.30	3.20	24.07	-85.2	-88.8	2.7	1.56e+00	0	48	104	0	60	1048571
2026-01-18 01:29:39.31	2.98	24.16	-85.2	-88.8	2.7	1.56e+00	0	48	104	0	60	1048573
2026-01-18 01:29:40.32	2.75	24.26	-85.2	-88.8	2.8	1.56e+00	0	47	104	0	60	1048574
2026-01-18 01:29:41.33	2.52	24.35	-85.2	-88.8	2.6	1.56e+00	0	48	104	0	60	1048575
2026-01-18 01:29:42.34	2.29	24.45	-85.2	-88.8	2.8	1.56e+00	0	47	104	0	60	1048573
2026-01-18 01:29:43.35	2.06	24.54	-85.2	-88.8	3.0	1.56e+00	0	48	104	0	60	1048573
2026-01-18 01:29:44.36	1.83	24.64	-85.2	-88.8	2.7	1.56e+00	0	47	104	0	60	1048573
2026-01-18 01:29:45.36	1.60	24.73	-85.2	-88.8	2.7	1.56e+00	0	48	104	0	60	1048570
2026-01-18 01:29:46.37	1.36	24.83	-85.2	-88.8	2.6	1.56e+00	0	47	104	0	60	1048575
2026-01-18 01:29:47.38	1.12	24.92	-85.2	-88.8	2.5	1.56e+00	0	47	104	0	60	1048575
2026-01-18 01:29:48.39	0.89	25.01	-85.2	-88.8	2.8	1.56e+00	0	48	104	0	60	1048570
2026-01-18 01:29:49.39	0.65	25.11	-85.2	-88.8	2.6	1.56e+00	0	47	104	0	60	1048572
2026-01-18 01:29:50.40	0.41	25.20	-85.2	-88.8	2.5	1.56e+00	0	47	104	0	60	1048571
2026-01-18 01:29:51.41	0.17	25.29	-85.2	-88.8	2.7	1.56e+00	0	48	104	0	60	1048571
2026-01-18 01:29:52.41	359.93	25.39	-85.2	-88.8	2.8	1.56e+00	0	47	104	0	60	1048574
2026-01-18 01:29:53.42	359.68	25.48	-84.3	-88.8	2.7	1.56e+00	0	47	104	0	60	1048574
2026-01-18 01:29:54.43	359.43	25.57	-85.2	-88.8	2.6	1.56e+00	0	47	104	0	60	1048572
2026-01-18 01:29:55.43	359.19	25.66	-85.2	-88.8	2.7	1.56e+00	0	47	104	0	60	1048573
2026-01-18 01:29:56.44	358.94	25.75	-85.2	-88.8	2.8	1.56e+00	0	48	104	0	60	1048575
2026-01-18 01:29:57.45	358.69	25.85	-85.2	-88.8	2.7	1.56e+00	0	48	104	0	60	1048575
2026-01-18 01:29:58.46	358.43	25.94	-84.3	-88.8	2.7	1.56e+00	0	47	104	0	60	1048566
2026-01-18 01:29:59.47	358.18	26.03	-85.2	-88.8	2.8	1.56e+00	0	48	104	0	60	1048573
2026-01-18 01:30:00.48	357.93	26.12	-85.2	-88.8	2.7	1.56e+00	0	48	104	0	60	1048575
2026-01-18 01:30:01.48	357.67	26.21	-85.2	-88.8	2.8	1.56e+00	0	48	104	0	60	1048574
2026-01-18 01:30:02.49	357.41	26.30	-85.2	-88.8	2.8	1.56e+00	0	47	104	0	60	1048572
2026-01-18 01:30:03.50	357.15	26.39	-85.2	-88.8	2.7	1.56e+00	0	47	104	0	60	1048573
2026-01-18 01:30:04.50	356.89	26.48	-83.9	-88.8	2.9	1.56e+00	0	47	104	0	60	1048574
2026-01-18 01:30:05.51	356.63	26.57	-85.2	-88.8	2.6	1.56e+00	0	48	104	0	60	1048575
2026-01-18 01:30:06.51	356.37	26.65	-85.2	-88.8	2.6	1.56e+00	0	48	104	0	60	1048574
2026-01-18 01:30:07.52	356.10	26.74	-85.2	-88.8	2.5	1.56e+00	0	47	104	0	60	1048574
2026-01-18 01:30:08.53	355.84	26.83	-84.7	-88.8	2.5	1.56e+00	0	47	104	0	60	1048575
2026-01-18 01:30:09.53	355.57	26.92	-84.3	-88.8	2.6	1.56e+00	0	47	104	0	60	1048574
2026-01-18 01:30:10.54	355.30	27.00	-85.2	-88.8	2.7	1.56e+00	0	48	104	0	60	1048574
2026-01-18 01:30:11.55	355.03	27.09	-85.2	-88.8	2.6	1.56e+00	0	48	104	0	60	1048574
2026-01-18 01:30:12.56	354.75	27.18	-85.2	-88.8	2.6	1.56e+00	0	47	104	0	60	1048575
2026-01-18 01:30:13.57	354.48	27.26	-84.3	-88.8	2.7	1.56e+00	0	48	104	0	60	1048575
2026-01-18 01:30:14.57	354.21	27.35	-84.7	-88.8	2.7	1.56e+00	0	47	104	0	60	1048571
2026-01-18 01:30:15.58	353.93	27.43	-85.2	-88.8	2.8	1.56e+00	0	47	104	0	60	1048575
2026-01-18 01:30:16.59	353.65	27.52	-85.2	-88.8	2.8	1.56e+00	0	48	104	0	60	1048574
2026-01-18 01:30:17.60	353.37	27.60	-85.2	-88.8	2.7	1.56e+00	0	47	104	0	60	1048575
2026-01-18 01:30:18.61	353.09	27.68	-83.5	-88.8	2.9	1.56e+00	0	48	104	0	60	1048571
2026-01-18 01:30:19.61	352.81	27.76	-85.2	-88.8	2.6	1.56e+00	0	47	104	0	60	1048575
2026-01-18 01:30:20.62	352.52	27.85	-85.2	-88.8	2.7	1.56e+00	0	47	104	0	60	1048575
2026-01-18 01:30:21.63	352.23	27.93	-85.2	-88.8	2.6	1.56e+00	0	47	104	0	60	1048569
2026-01-18 01:30:22.64	351.95	28.01	-85.2	-88.8	2.8	1.56e+00	0	48	104	0	60	1048575
2026-01-18 01:30:23.64	351.66	28.09	-85.2	-88.8	2.7	1.56e+00	0	47	104	0	60	1048574
2026-01-18 01:30:24.65	351.37	28.17	-85.2	-88.8	2.8	1.56e+00	0	47	104	0	60	1048574
2026-01-18 01:30:25.66	351.08	28.25	-85.2	-88.8	3.1	1.56e+00	0	48	104	0	60	1048575
2026-01-18 01:30:26.67	350.78	28.33	-85.2	-88.8	2.6	1.56e+00	0	47	104	0	60	1048573
2026-01-18 01:30:27.67	350.49	28.40	-85.2	-88.8	2.8	1.56e+00	0	48	104	0	60	1048573
2026-01-18 01:30:28.68	350.19	28.48	-85.2	-88.8	2.6	1.56e+00	0	48	104	0	60	1048575
2026-01-18 01:30:29.68	349.90	28.56	-85.2	-88.8	2.7	1.56e+00	0	48	104	0	60	1048574
2026-01-18 01:30:30.69	349.60	28.63	-85.2	-88.8	2.7	1.56e+00	0	47	104	0	60	1048575
2026-01-18 01:30:31.70	349.30	28.71	-85.2	-88.8	2.6	1.56e+00	0	48	104	0	60	1048575
2026-01-18 01:30:32.71	348.99	28.78	-85.2	-88.8	2.7	1.56e+00	0	47	104	0	60	1048575
2026-01-18 01:30:33.72	348.69	28.86	-85.2	-88.8	2.6	1.56e+00	0	48	104	0	60	1048574
2026-01-18 01:30:34.73	348.38	28.93	-85.2	-88.8	2.8	1.56e+00	0	48	104	0	60	1048573
2026-01-18 01:30:35.73	348.08	29.00	-85.2	-88.8	2.8	1.56e+00	0	48	104	0	60	1048572
2026-01-18 01:30:36.73	347.78	29.08	-85.2	-88.8	2.5	1.56e+00	0	48	104	0	60	1048571
2026-01-18 01:30:37.74	347.47	29.15	-85.2	-88.8	2.6	1.56e+00	0	48	104	0	60	1048569
2026-01-18 01:30:38.74	347.16	29.22	-85.2	-88.8	2.7	1.56e+00	0	48	104	0	60	1048573
2026-01-18 01:30:39.75	346.85	29.29	-85.2	-88.8	2.7	1.56e+00	0	48	104	0	60	1048575
2026-01-18 01:30:40.75	346.54	29.35	-85.2	-88.8	2.8	1.56e+00	0	48	104	0	60	1048574
2026-01-18 01:30:41.76	346.22	29.42	-85.2	-88.8	2.5	1.56e+00	0	48	104	0	60	1048574
2026-01-18 01:30:42.77	345.90	29.49	-85.2	-88.8	2.6	1.56e+00	0	47	104	0	60	1048567
2026-01-18 01:30:43.77	345.59	29.55	-85.2	-88.8	2.7	1.56e+00	0	47	104	0	60	1048573
2026-01-18 01:30:44.78	345.27	29.62	-85.2	-88.8	2.7	1.56e+00	0	47	104	0	60	1048569
2026-01-18 01:30:45.79	344.95	29.69	-85.2	-88.8	2.7	1.56e+00	0	48	104	0	60	1048573
2026-01-18 01:30:46.80	344.63	29.75	-84.7	-88.8	2.6	1.56e+00	0	48	104	0	60	1048575
2026-01-18 01:30:47.81	344.31	29.81	-85.2	-88.8	2.8	1.56e+00	0	48	104	0	60	1048575
2026-01-18 01:30:48.81	343.99	29.87	-85.2	-88.8	2.7	1.56e+00	0	47	104	0	60	1048575
2026-01-18 01:30:49.82	343.66	29.93	-85.2	-88.8	2.8	1.56e+00	0	48	104	0	60	1048573
2026-01-18 01:30:50.82	343.34	29.99	-85.2	-88.8	2.9	1.56e+00	0	48	104	0	60	1048568
2026-01-18 01:30:51.82	343.01	30.05	-85.2	-88.8	2.5	1.56e+00	0	48	104	0	60	1048573
2026-01-18 01:30:52.83	342.68	30.11	-85.2	-88.8	2.6	1.56e+00	0	48	104	0	60	1048574
2026-01-18 01:30:53.84	342.35	30.17	-85.2	-88.8	2.7	1.56e+00	0	48	104	0	60	1048572
2026-01-18 01:30:54.85	342.02	30.23	-85.2	-88.8	2.8	1.56e+00	0	48	104	0	60	1048575
2026-01-18 01:30:55.85	341.69	30.28	-85.2	-88.8	2.8	1.56e+00	0	48	104	0	60	1048575
2026-01-18 01:30:56.86	341.36	30.34	-85.2	-88.8	2.8	1.56e+00	0	48	104	0	60	1048568
2026-01-18 01:30:57.87	341.02	30.39	-85.2	-88.8	2.8	1.56e+00	0	48	104	0	60	1048572
2026-01-18 01:30:58.87	340.69	30.44	-85.2	-88.8	2.7	1.56e+00	0	48	104	0	60	1048575
2026-01-18 01:30:59.88	340.35	30.49	-85.2	-88.8	2.8	1.56e+00	0	48	104	0	60	1048575
2026-01-18 01:31:00.89	340.02	30.54	-85.2	-88.8	2.8	1.56e+00	0	48	104	0	60	1048575
2026-01-18 01:31:01.89	339.68	30.59	-85.2	-88.8	2.7	1.56e+00	0	48	104	0	60	1048572
2026-01-18 01:31:02.90	339.34	30.64	-85.2	-88.8	2.9	1.56e+00	0	48	104	0	60	1048575
2026-01-18 01:31:03.91	339.00	30.69	-85.2	-88.8	2.7	1.56e+00	0	48	104	0	60	1048575
2026-01-18 01:31:04.91	338.66	30.73	-85.2	-88.8	2.7	1.56e+00	0	48	104	0	60	1048572
2026-01-18 01:31:05.92	338.32	30.78	-85.2	-88.8	2.8	1.56e+00	0	48	104	0	60	1048573
2026-01-18 01:31:06.93	337.97	30.82	-85.2	-88.8	2.7	1.56e+00	0	48	104	0	60	1048575
2026-01-18 01:31:07.94	337.63	30.87	-85.2	-88.8	2.8	1.56e+00	0	48	104	0	60	1048575
2026-01-18 01:31:08.94	337.28	30.91	-85.2	-88.8	2.6	1.56e+00	0	48	104	0	60	1048574
2026-01-18 01:31:09.95	336.94	30.95	-85.2	-88.8	2.7	1.56e+00	0	48	104	0	60	1048573
2026-01-18 01:31:10.96	336.59	30.99	-85.2	-88.8	2.6	1.56e+00	0	48	104	0	60	1048574
2026-01-18 01:31:11.97	336.24	31.03	-85.2	-88.8	2.6	1.56e+00	0	48	104	0	60	1048575
2026-01-18 01:31:12.97	335.90	31.06	-85.2	-88.8	2.8	1.56e+00	0	48	104	0	60	1048575
2026-01-18 01:31:13.98	335.55	31.10	-85.2	-88.8	2.7	1.56e+00	0	48	104	0	60	1048573
2026-01-18 01:31:14.99	335.19	31.13	-85.2	-88.8	2.8	1.56e+00	0	48	104	0	60	1048573
2026-01-18 01:31:15.99	334.85	31.17	-85.2	-88.8	2.7	1.56e+00	0	48	104	0	60	1048572
2026-01-18 01:31:17.00	334.49	31.20	-85.2	-88.8	2.7	1.56e+00	0	48	104	0	60	1048574
2026-01-18 01:31:18.01	334.14	31.23	-85.2	-88.8	2.9	1.56e+00	0	48	104	0	60	1048575
2026-01-18 01:31:19.01	333.79	31.26	-85.2	-88.8	2.9	1.56e+00	0	48	104	0	60	1048574
2026-01-18 01:31:20.02	333.44	31.29	-85.2	-88.8	2.9	1.56e+00	0	47	104	0	60	1048571
2026-01-18 01:31:21.02	333.08	31.32	-85.2	-88.8	2.7	1.56e+00	0	47	104	0	60	1048574
2026-01-18 01:31:22.03	332.73	31.35	-85.2	-88.8	2.9	1.56e+00	0	47	104	0	60	1048574
2026-01-18 01:31:23.04	332.37	31.37	-85.2	-88.8	2.7	1.56e+00	0	48	104	0	60	1048575
2026-01-18 01:31:24.05	332.01	31.40	-85.2	-88.8	2.6	1.56e+00	0	48	104	0	60	1048574
2026-01-18 01:31:25.05	331.66	31.42	-85.2	-88.8	2.6	1.56e+00	0	48	104	0	60	1048574
2026-01-18 01:31:26.05	331.31	31.44	-85.2	-88.8	2.6	1.56e+00	0	48	104	0	60	1048573
2026-01-18 01:31:27.06	330.95	31.46	-85.2	-88.8	2.8	1.56e+00	0	48	104	0	60	1048574
2026-01-18 01:31:28.07	330.59	31.48	-85.2	-88.8	2.7	1.56e+00	0	48	104	0	60	1048571
2026-01-18 01:31:29.07	330.23	31.50	-85.2	-88.8	2.8	1.56e+00	0	48	104	0	60	1048574
2026-01-18 01:31:30.07	329.88	31.51	-85.2	-88.8	2.9	1.56e+00	0	48	104	0	60	1048575
2026-01-18 01:31:31.08	329.52	31.53	-85.2	-88.8	2.7	1.56e+00	0	48	104	0	60	1048574
2026-01-18 01:31:32.08	329.16	31.54	-85.2	-88.8	2.6	1.56e+00	0	48	104	0	60	1048572
2026-01-18 01:31:33.09	328.80	31.56	-85.2	-88.8	2.7	1.56e+00	0	48	104	0	60	1048574
2026-01-18 01:31:34.10	328.44	31.57	-85.2	-88.8	2.8	1.56e+00	0	48	104	0	60	1048574
2026-01-18 01:31:35.11	328.08	31.58	-85.2	-88.8	2.6	1.56e+00	0	48	104	0	60	1048573
2026-01-18 01:31:36.11	327.72	31.59	-85.2	-88.8	2.6	1.56e+00	0	48	104	0	60	1048573
2026-01-18 01:31:37.12	327.36	31.60	-85.2	-88.8	2.6	1.56e+00	0	48	104	0	60	1048574
2026-01-18 01:31:38.12	327.00	31.60	-84.7	-88.8	2.5	1.56e+00	0	48	104	0	60	1048571
2026-01-18 01:31:39.13	326.64	31.61	-85.2	-88.8	2.7	1.56e+00	0	48	104	0	60	1048573
2026-01-18 01:31:40.14	326.28	31.61	-85.2	-88.8	2.8	1.56e+00	0	48	104	0	60	1048570
2026-01-18 01:31:41.15	325.91	31.61	-85.2	-88.8	2.5	1.56e+00	0	48	104	0	60	1048575
2026-01-18 01:31:42.16	325.55	31.62	-85.2	-88.8	2.8	1.56e+00	0	48	104	0	60	1048574
2026-01-18 01:31:43.17	325.19	31.62	-85.2	-88.8	2.9	1.56e+00	0	48	104	0	60	1048568
2026-01-18 01:31:44.17	324.83	31.61	-85.2	-88.8	2.8	1.56e+00	0	48	104	0	60	1048573
2026-01-18 01:31:45.18	324.47	31.61	-85.2	-88.8	2.7	1.56e+00	0	48	104	0	60	1048574
2026-01-18 01:31:46.19	324.11	31.61	-85.2	-88.8	2.7	1.56e+00	0	48	104	0	60	1048571
2026-01-18 01:31:47.19	323.75	31.60	-85.2	-88.8	2.6	1.56e+00	0	48	104	0	60	1048575
2026-01-18 01:31:48.20	323.39	31.60	-84.7	-88.8	2.8	1.56e+00	0	48	104	0	60	1048574
2026-01-18 01:31:49.21	323.02	31.59	-85.2	-88.8	2.8	1.56e+00	0	48	104	0	60	1048575
2026-01-18 01:31:50.21	322.67	31.58	-85.2	-88.8	2.7	1.56e+00	0	48	104	0	60	1048573
2026-01-18 01:31:51.22	322.31	31.57	-85.2	-88.8	2.6	1.56e+00	0	48	104	0	60	1048575
2026-01-18 01:31:52.23	321.94	31.56	-85.2	-88.8	2.9	1.56e+00	0	48	104	0	60	1048574
2026-01-18 01:31:53.24	321.58	31.55	-85.2	-88.8	2.8	1.56e+00	0	48	104	0	60	1048572
2026-01-18 01:31:54.24	321.23	31.53	-85.2	-88.8	2.7	1.56e+00	0	48	104	0	60	1048573
2026-01-18 01:31:55.25	320.87	31.52	-85.2	-88.8	2.7	1.56e+00	0	48	104	0	60	1048572
2026-01-18 01:31:56.26	320.51	31.50	-85.2	-88.8	2.9	1.56e+00	0	48	104	0	60	1048575
2026-01-18 01:31:57.27	320.15	31.48	-85.2	-88.8	2.7	1.56e+00	0	48	104	0	60	1048575
2026-01-18 01:31:58.28	319.79	31.46	-85.2	-88.8	2.7	1.56e+00	0	48	104	0	60	1048565
2026-01-18 01:31:59.29	319.43	31.44	-85.2	-88.8	2.7	1.56e+00	0	48	104	0	60	1048575
2026-01-18 01:32:00.29	319.07	31.42	-85.2	-88.8	2.8	1.56e+00	0	48	104	0	60	1048574
2026-01-18 01:32:01.30	318.72	31.40	-85.2	-88.8	2.9	1.56e+00	0	48	104	0	60	1048573
2026-01-18 01:32:02.30	318.36	31.37	-85.2	-88.8	2.8	1.56e+00	0	48	104	0	60	1048575
2026-01-18 01:32:03.31	318.01	31.35	-85.2	-88.8	2.8	1.56e+00	0	48	104	0	60	1048568
2026-01-18 01:32:04.31	317.65	31.32	-85.2	-88.8	2.6	1.56e+00	0	48	104	0	60	1048575
2026-01-18 01:32:05.32	317.30	31.30	-85.2	-88.8	2.6	1.56e+00	0	48	104	0	60	1048575
2026-01-18 01:32:06.33	316.94	31.27	-85.2	-88.8	2.7	1.56e+00	0	48	104	0	60	1048574
2026-01-18 01:32:07.33	316.59	31.24	-85.2	-88.8	2.6	1.56e+00	0	48	104	0	60	1048574
2026-01-18 01:32:08.34	316.24	31.20	-85.2	-88.8	2.7	1.56e+00	0	48	104	0	60	1048575
2026-01-18 01:32:09.35	315.89	31.17	-85.2	-88.8	2.5	1.56e+00	0	48	104	0	60	1048575
2026-01-18 01:32:10.35	315.54	31.14	-85.2	-88.8	2.8	1.56e+00	0	48	104	0	60	1048574
2026-01-18 01:32:11.37	315.18	31.10	-85.2	-88.8	2.6	1.56e+00	0	48	104	0	60	1048572
2026-01-18 01:32:12.37	314.84	31.07	-85.2	-88.8	2.9	1.56e+00	0	48	104	0	60	1048575
2026-01-18 01:32:13.38	314.49	31.03	-85.2	-88.8	2.8	1.56e+00	0	48	104	0	60	1048572
2026-01-18 01:32:14.39	314.14	30.99	-85.2	-88.8	2.7	1.56e+00	0	48	104	0	60	1048575
2026-01-18 01:32:15.39	313.79	30.95	-85.2	-88.8	2.7	1.56e+00	0	48	104	0	60	1048573
2026-01-18 01:32:16.40	313.45	30.91	-84.7	-88.8	2.7	1.56e+00	0	48	104	0	60	1048571
2026-01-18 01:32:17.40	313.10	30.87	-85.2	-88.8	2.9	1.56e+00	0	48	104	0	60	1048567
2026-01-18 01:32:18.41	312.76	30.83	-85.2	-88.8	2.8	1.56e+00	0	48	104	0	60	1048572
2026-01-18 01:32:19.41	312.42	30.78	-84.7	-88.8	2.7	1.56e+00	0	48	104	0	60	1048566
2026-01-18 01:32:20.41	312.08	30.74	-85.2	-88.8	2.8	1.56e+00	0	48	104	0	60	1048575
2026-01-18 01:32:21.42	311.73	30.69	-85.2	-88.8	2.6	1.56e+00	0	48	104	0	60	1048574
2026-01-18 01:32:22.43	311.39	30.65	-85.2	-88.8	2.8	1.56e+00	0	48	104	0	60	1048575
2026-01-18 01:32:23.43	311.05	30.60	-85.2	-88.8	2.8	1.56e+00	0	48	104	0	60	1048575
2026-01-18 01:32:24.44	310.71	30.55	-85.2	-88.8	2.8	1.56e+00	0	48	104	0	60	1048573
2026-01-18 01:32:25.44	310.38	30.50	-85.2	-88.8	2.9	1.56e+00	0	48	104	0	60	1048575
2026-01-18 01:32:26.45	310.04	30.45	-85.2	-88.8	2.8	1.56e+00	0	48	104	0	60	1048574
2026-01-18 01:32:27.45	309.71	30.40	-85.2	-88.8	2.6	1.56e+00	0	48	104	0	60	1048574
2026-01-18 01:32:28.46	309.37	30.34	-85.2	-88.8	2.6	1.56e+00	0	48	104	0	60	1048574
2026-01-18 01:32:29.46	309.04	30.29	-85.2	-88.8	2.9	1.56e+00	0	48	104	0	60	1048574
2026-01-18 01:32:30.47	308.71	30.23	-85.2	-88.8	2.7	1.56e+00	0	48	104	0	60	1048575
2026-01-18 01:32:31.48	308.38	30.18	-85.2	-88.8	2.7	1.56e+00	0	48	104	0	60	1048575
2026-01-18 01:32:32.48	308.05	30.12	-85.2	-88.8	2.7	1.56e+00	0	48	104	0	60	1048573
2026-01-18 01:32:33.49	307.72	30.06	-85.2	-88.8	2.7	1.56e+00	0	48	104	0	60	1048572
2026-01-18 01:32:34.49	307.39	30.00	-85.2	-88.8	2.9	1.56e+00	0	48	104	0	60	1048574
2026-01-18 01:32:35.49	307.07	29.94	-85.2	-88.8	2.6	1.56e+00	0	48	104	0	60	1048572
2026-01-18 01:32:36.49	306.75	29.88	-85.2	-88.8	2.6	1.56e+00	0	48	104	0	60	1048573
2026-01-18 01:32:37.50	306.42	29.82	-85.2	-88.8	2.7	1.56e+00	0	48	104	0	60	1048575
2026-01-18 01:32:38.50	306.10	29.76	-85.2	-88.8	2.6	1.56e+00	0	47	104	0	60	1048575
2026-01-18 01:32:39.51	305.78	29.69	-85.2	-88.8	2.7	1.56e+00	0	48	104	0	60	1048570
2026-01-18 01:32:40.52	305.46	29.63	-85.2	-88.8	2.8	1.56e+00	0	48	104	0	60	1048575
2026-01-18 01:32:41.52	305.14	29.56	-85.2	-88.8	2.7	1.56e+00	0	48	104	0	60	1048574
2026-01-18 01:32:42.52	304.83	29.50	-85.2	-88.8	2.7	1.56e+00	0	48	104	0	60	1048573
2026-01-18 01:32:43.53	304.51	29.43	-85.2	-88.8	2.7	1.56e+00	0	48	104	0	60	1048574
2026-01-18 01:32:44.54	304.19	29.36	-85.2	-88.8	2.4	1.56e+00	0	48	104	0	60	1048571
2026-01-18 01:32:45.55	303.88	29.29	-85.2	-88.8	2.8	1.56e+00	0	48	104	0	60	1048575
2026-01-18 01:32:46.56	303.57	29.22	-85.2	-88.8	2.8	1.56e+00	0	48	104	0	60	1048575
2026-01-18 01:32:47.56	303.26	29.16	-85.2	-88.8	2.6	1.56e+00	0	47	104	0	60	1048575
2026-01-18 01:32:48.57	302.95	29.08	-85.2	-88.8	2.6	1.56e+00	0	48	104	0	60	1048572
2026-01-18 01:32:49.58	302.64	29.01	-85.2	-88.8	2.8	1.56e+00	0	47	104	0	60	1048567
2026-01-18 01:32:50.58	302.34	28.94	-84.7	-88.8	2.8	1.56e+00	0	48	104	0	60	1048569
2026-01-18 01:32:51.59	302.03	28.87	-85.2	-88.8	2.5	1.56e+00	0	48	104	0	60	1048575
2026-01-18 01:32:52.59	301.73	28.79	-85.2	-88.8	2.6	1.56e+00	0	48	104	0	60	1048574
2026-01-18 01:32:53.59	301.43	28.72	-85.2	-88.8	2.6	1.56e+00	0	48	104	0	60	1048575
2026-01-18 01:32:54.60	301.13	28.64	-85.2	-88.8	2.6	1.56e+00	0	48	104	0	60	1048574
2026-01-18 01:32:55.60	300.83	28.57	-85.2	-88.8	2.7	1.56e+00	0	47	104	0	60	1048575
2026-01-18 01:32:56.60	300.53	28.49	-85.2	-88.8	2.6	1.56e+00	0	48	104	0	60	1048575
2026-01-18 01:32:57.60	300.24	28.42	-85.2	-88.8	2.8	1.56e+00	0	48	104	0	60	1048573
2026-01-18 01:32:58.61	299.94	28.34	-85.2	-88.8	2.6	1.56e+00	0	48	104	0	60	1048571
2026-01-18 01:32:59.61	299.65	28.26	-85.2	-88.8	2.6	1.56e+00	0	48	104	0	60	1048572
2026-01-18 01:33:00.62	299.36	28.18	-85.2	-88.8	2.6	1.56e+00	0	48	104	0	60	1048575
2026-01-18 01:33:01.62	299.07	28.10	-85.2	-88.8	2.7	1.56e+00	0	48	104	0	60	1048575
2026-01-18 01:33:02.63	298.78	28.02	-85.2	-88.8	2.8	1.56e+00	0	48	104	0	60	1048563
2026-01-18 01:33:03.63	298.49	27.94	-85.2	-88.8	2.6	1.56e+00	0	48	104	0	60	1048575
2026-01-18 01:33:04.64	298.20	27.86	-85.2	-88.8	2.6	1.56e+00	0	48	104	0	60	1048575
2026-01-18 01:33:05.65	297.92	27.78	-85.2	-88.8	2.6	1.56e+00	0	48	104	0	60	1048569
2026-01-18 01:33:06.65	297.63	27.69	-85.2	-88.8	2.7	1.56e+00	0	48	104	0	60	1048573
2026-01-18 01:33:07.66	297.35	27.61	-85.2	-88.8	2.7	1.56e+00	0	48	104	0	60	1048572
2026-01-18 01:33:08.66	297.07	27.53	-84.7	-88.8	2.8	1.56e+00	0	48	104	0	60	1048573
2026-01-18 01:33:09.67	296.79	27.44	-85.2	-88.8	2.7	1.56e+00	0	48	104	0	60	1048574
2026-01-18 01:33:10.68	296.51	27.36	-84.7	-88.8	2.7	1.56e+00	0	48	104	0	60	1048575
2026-01-18 01:33:11.68	296.24	27.27	-85.2	-88.8	2.8	1.56e+00	0	48	104	0	60	1048575
2026-01-18 01:33:12.69	295.96	27.19	-85.2	-88.8	2.6	1.56e+00	0	48	104	0	60	1048575
2026-01-18 01:33:13.69	295.69	27.10	-85.2	-88.8	2.8	1.56e+00	0	48	104	0	60	1048575
2026-01-18 01:33:14.71	295.42	27.02	-85.2	-88.8	2.8	1.56e+00	0	48	104	0	60	1048567
2026-01-18 01:33:15.71	295.15	26.93	-85.2	-88.8	2.6	1.56e+00	0	47	104	0	60	1048569
2026-01-18 01:33:16.72	294.88	26.84	-85.2	-88.8	2.8	1.56e+00	0	48	104	0	60	1048572
2026-01-18 01:33:17.73	294.61	26.75	-85.2	-88.8	2.9	1.56e+00	0	48	104	0	60	1048573
2026-01-18 01:33:18.73	294.35	26.67	-85.2	-88.8	2.7	1.56e+00	0	48	104	0	60	1048575
2026-01-18 01:33:19.74	294.08	26.58	-85.2	-88.8	2.8	1.56e+00	0	48	104	0	60	1048573
2026-01-18 01:33:20.75	293.82	26.49	-85.2	-88.8	3.0	1.56e+00	0	48	104	0	60	1048575
2026-01-18 01:33:21.76	293.56	26.40	-85.2	-88.8	2.6	1.56e+00	0	48	104	0	60	1048572
2026-01-18 01:33:22.76	293.30	26.31	-85.2	-88.8	2.7	1.56e+00	0	47	104	0	60	1048575
2026-01-18 01:33:23.77	293.04	26.22	-85.2	-88.8	2.9	1.56e+00	0	48	104	0	60	1048575
2026-01-18 01:33:24.78	292.78	26.13	-85.2	-88.8	2.7	1.56e+00	0	48	104	0	60	1048575
2026-01-18 01:33:25.78	292.53	26.04	-85.2	-88.8	2.7	1.56e+00	0	48	104	0	60	1048571
2026-01-18 01:33:26.78	292.27	25.95	-85.2	-88.8	2.7	1.56e+00	0	48	104	0	60	1048575
2026-01-18 01:33:27.79	292.02	25.86	-85.2	-88.8	2.9	1.56e+00	0	48	104	0	60	1048573
2026-01-18 01:33:28.79	291.77	25.77	-85.2	-88.8	2.7	1.56e+00	0	48	104	0	60	1048566
2026-01-18 01:33:29.80	291.52	25.67	-85.2	-88.8	2.8	1.56e+00	0	48	104	0	60	1048574
2026-01-18 01:33:30.80	291.28	25.58	-85.2	-88.8	2.7	1.56e+00	0	48	104	0	60	1048570
2026-01-18 01:33:31.81	291.03	25.49	-85.2	-88.8	2.7	1.56e+00	0	48	104	0	60	1048574
2026-01-18 01:33:32.82	290.78	25.40	-85.2	-88.8	2.8	1.56e+00	0	47	104	0	60	1048574
2026-01-18 01:33:33.82	290.54	25.30	-85.2	-88.8	2.8	1.56e+00	0	47	104	0	60	1048569
2026-01-18 01:33:34.83	290.30	25.21	-85.2	-88.8	2.8	1.56e+00	0	48	104	0	60	1048572
2026-01-18 01:33:35.84	290.05	25.12	-85.2	-88.8	2.4	1.56e+00	0	48	104	0	60	1048574
2026-01-18 01:33:36.85	289.81	25.02	-85.2	-88.8	2.8	1.56e+00	0	48	104	0	60	1048575
2026-01-18 01:33:37.85	289.58	24.93	-85.2	-88.8	2.8	1.56e+00	0	47	104	0	60	1048573
2026-01-18 01:33:38.86	289.34	24.84	-85.2	-88.8	2.9	1.56e+00	0	48	104	0	60	1048575
2026-01-18 01:33:39.86	289.11	24.74	-85.2	-88.8	2.7	1.56e+00	0	48	104	0	60	1048575
2026-01-18 01:33:40.86	288.87	24.65	-85.2	-88.8	2.8	1.56e+00	0	48	104	0	60	1048575
2026-01-18 01:33:41.87	288.64	24.55	-85.2	-88.8	2.7	1.56e+00	0	48	104	0	60	1048575
2026-01-18 01:33:42.87	288.41	24.46	-85.2	-88.8	2.7	1.56e+00	0	48	104	0	60	1048573
2026-01-18 01:33:43.88	288.18	24.36	-84.7	-88.8	2.6	1.56e+00	0	48	104	0	60	1048575
2026-01-18 01:33:44.89	287.95	24.27	-85.2	-88.8	2.9	1.56e+00	0	48	104	0	60	1048574
2026-01-18 01:33:45.90	287.72	24.17	-85.2	-88.8	2.7	1.56e+00	0	48	104	0	60	1048574
2026-01-18 01:33:46.91	287.50	24.08	-85.2	-88.8	2.8	1.56e+00	0	48	104	0	60	1048574
2026-01-18 01:33:47.91	287.28	23.98	-85.2	-88.8	3.0	1.56e+00	0	48	104	0	60	1048574
2026-01-18 01:33:48.92	287.05	23.89	-85.2	-88.8	2.8	1.56e+00	0	48	104	0	60	1048573
2026-01-18 01:33:49.92	286.83	23.79	-85.2	-88.8	2.7	1.56e+00	0	48	104	0	60	1048573
2026-01-18 01:33:50.93	286.61	23.69	-84.7	-88.8	2.8	1.56e+00	0	48	104	0	60	1048572
2026-01-18 01:33:51.94	286.39	23.60	-85.2	-88.8	2.8	1.56e+00	0	48	104	0	60	1048574
2026-01-18 01:33:52.95	286.17	23.50	-85.2	-88.8	2.7	1.56e+00	0	48	104	0	60	1048575
2026-01-18 01:33:53.96	285.96	23.41	-85.2	-88.8	2.8	1.56e+00	0	48	104	0	60	1048575
2026-01-18 01:33:54.97	285.74	23.31	-85.2	-88.8	2.8	1.56e+00	0	48	104	0	60	1048572
2026-01-18 01:33:55.97	285.53	23.21	-85.2	-88.8	2.7	1.56e+00	0	48	104	0	60	1048575
2026-01-18 01:33:56.97	285.32	23.12	-85.2	-88.8	2.7	1.56e+00	0	48	104	0	60	1048574
2026-01-18 01:33:57.97	285.11	23.02	-85.2	-88.8	2.7	1.56e+00	0	48	104	0	60	1048575
2026-01-18 01:33:58.98	284.90	22.92	-85.2	-88.8	2.5	1.56e+00	0	48	104	0	60	1048575
2026-01-18 01:33:59.99	284.69	22.83	-85.2	-88.8	2.8	1.56e+00	0	48	104	0	60	1048573
2026-01-18 01:34:00.99	284.49	22.73	-85.2	-88.8	2.6	1.56e+00	0	48	104	0	60	1048574
2026-01-18 01:34:02.00	284.28	22.63	-85.2	-88.8	2.6	1.56e+00	0	48	104	0	60	1048574
2026-01-18 01:34:03.01	284.08	22.54	-85.2	-88.8	2.6	1.56e+00	0	48	104	0	60	1048574
2026-01-18 01:34:04.01	283.87	22.44	-85.2	-88.8	2.8	1.56e+00	0	48	104	0	60	1048573
2026-01-18 01:34:05.02	283.67	22.34	-85.2	-88.8	2.7	1.56e+00	0	48	104	0	60	1048575
2026-01-18 01:34:06.02	283.47	22.25	-85.2	-88.8	3.0	1.56e+00	0	48	104	0	60	1048575
2026-01-18 01:34:07.03	283.27	22.15	-85.2	-88.8	2.8	1.56e+00	0	48	104	0	60	1048574
2026-01-18 01:34:08.04	283.07	22.05	-85.2	-88.8	2.7	1.56e+00	0	48	104	0	60	1048574
2026-01-18 01:34:09.05	282.88	21.96	-85.2	-88.8	2.7	1.56e+00	0	48	104	0	60	1048575
2026-01-18 01:34:10.05	282.68	21.86	-85.2	-88.8	3.0	1.56e+00	0	48	104	0	60	1048573
2026-01-18 01:34:11.05	282.49	21.77	-85.2	-88.8	2.6	1.56e+00	0	48	104	0	60	1048574
2026-01-18 01:34:12.06	282.30	21.67	-85.2	-88.8	2.6	1.56e+00	0	48	104	0	60	1048575
2026-01-18 01:34:13.07	282.10	21.57	-85.2	-88.8	2.9	1.56e+00	0	48	104	0	60	1048570
2026-01-18 01:34:14.07	281.92	21.47	-85.2	-88.8	2.8	1.56e+00	0	48	104	0	60	1048572
2026-01-18 01:34:15.08	281.73	21.38	-84.7	-88.8	2.8	1.56e+00	0	48	104	0	60	1048574
2026-01-18 01:34:16.08	281.54	21.28	-85.2	-88.8	2.8	1.56e+00	0	48	104	0	60	1048570
2026-01-18 01:34:17.09	281.35	21.19	-85.2	-88.8	2.5	1.56e+00	0	48	104	0	60	1048575
2026-01-18 01:34:18.10	281.16	21.09	-85.2	-88.8	2.5	1.56e+00	0	47	104	0	60	1048574
2026-01-18 01:34:19.10	280.98	20.99	-85.2	-88.8	2.8	1.56e+00	0	47	104	0	60	1048568
2026-01-18 01:34:20.11	280.80	20.90	-85.2	-88.8	2.7	1.56e+00	0	48	104	0	60	1048572
2026-01-18 01:34:21.12	280.61	20.80	-85.2	-88.8	2.6	1.56e+00	0	47	104	0	60	1048575
2026-01-18 01:34:22.13	280.43	20.70	-85.2	-88.8	2.8	1.56e+00	0	48	104	0	60	1048574
2026-01-18 01:34:23.14	280.25	20.61	-85.2	-88.8	2.5	1.56e+00	0	48	104	0	60	1048573
2026-01-18 01:34:24.14	280.07	20.51	-85.2	-88.8	2.7	1.56e+00	0	48	104	0	60	1048573
2026-01-18 01:34:25.15	279.90	20.41	-85.2	-88.8	2.7	1.56e+00	0	48	104	0	60	1048575
2026-01-18 01:34:26.16	279.72	20.32	-85.2	-88.8	2.7	1.56e+00	0	48	104	0	60	1048574
2026-01-18 01:34:27.17	279.54	20.22	-85.2	-88.8	2.7	1.56e+00	0	47	104	0	60	1048575
2026-01-18 01:34:28.17	279.37	20.13	-85.2	-88.8	2.6	1.56e+00	0	48	104	0	60	1048575
2026-01-18 01:34:29.18	279.20	20.03	-85.2	-88.8	2.8	1.56e+00	0	48	104	0	60	1048575
2026-01-18 01:34:30.19	279.02	19.93	-85.2	-88.8	3.0	1.56e+00	0	48	104	0	60	1048574
2026-01-18 01:34:31.19	278.85	19.84	-85.2	-88.8	2.7	1.56e+00	0	48	104	0	60	1048575
2026-01-18 01:34:32.19	278.68	19.74	-85.2	-88.8	2.8	1.56e+00	0	48	104	0	60	1048574
2026-01-18 01:34:33.20	278.51	19.65	-85.2	-88.8	3.0	1.56e+00	0	48	104	0	60	1048574
2026-01-18 01:34:34.21	278.35	19.55	-85.2	-88.8	2.7	1.56e+00	0	48	104	0	60	1048575
2026-01-18 01:34:35.21	278.18	19.46	-85.2	-88.8	2.6	1.56e+00	0	48	104	0	60	1048574
2026-01-18 01:34:36.22	278.01	19.36	-85.2	-88.8	2.5	1.56e+00	0	48	104	0	60	1048575
2026-01-18 01:34:37.23	277.85	19.27	-85.2	-88.8	2.6	1.56e+00	0	48	104	0	60	1048575
2026-01-18 01:34:38.23	277.69	19.17	-85.2	-88.8	2.7	1.56e+00	0	48	104	0	60	1048575
2026-01-18 01:34:39.24	277.52	19.08	-85.2	-88.8	2.5	1.56e+00	0	48	104	0	60	1048574
2026-01-18 01:34:40.25	277.36	18.98	-85.2	-88.8	2.6	1.56e+00	0	48	104	0	60	1048575
2026-01-18 01:34:41.25	277.20	18.89	-85.2	-88.8	2.7	1.56e+00	0	48	104	0	60	1048574
2026-01-18 01:34:42.26	277.04	18.79	-85.2	-88.8	2.7	1.56e+00	0	48	104	0	60	1048573
2026-01-18 01:34:43.27	276.88	18.70	-85.2	-88.8	2.7	1.56e+00	0	48	104	0	60	1048573
2026-01-18 01:34:44.28	276.72	18.61	-84.3	-88.8	2.8	1.56e+00	0	48	104	0	60	1048574
2026-01-18 01:34:45.29	276.57	18.51	-85.2	-88.8	2.7	1.56e+00	0	48	104	0	60	1048575
2026-01-18 01:34:46.29	276.41	18.42	-85.2	-88.8	2.6	1.56e+00	0	48	104	0	60	1048573
2026-01-18 01:34:47.29	276.26	18.33	-85.2	-88.8	2.8	1.56e+00	0	48	104	0	60	1048572
2026-01-18 01:34:48.30	276.10	18.23	-85.2	-88.8	2.7	1.56e+00	0	48	104	0	60	1048573
2026-01-18 01:34:49.30	275.95	18.14	-84.7	-88.8	2.7	1.56e+00	0	48	104	0	60	1048573
2026-01-18 01:34:50.31	275.80	18.04	-85.2	-88.8	2.8	1.56e+00	0	48	104	0	60	1048569
2026-01-18 01:34:51.32	275.65	17.95	-85.2	-88.8	2.8	1.56e+00	0	48	104	0	60	1048573
2026-01-18 01:34:52.32	275.50	17.86	-85.2	-88.8	2.7	1.56e+00	0	48	104	0	60	1048570
2026-01-18 01:34:53.33	275.35	17.77	-85.2	-88.8	2.7	1.56e+00	0	48	104	0	60	1048575
2026-01-18 01:34:54.34	275.20	17.67	-84.7	-88.8	2.8	1.56e+00	0	48	104	0	60	1048572
2026-01-18 01:34:55.35	275.05	17.58	-85.2	-88.8	2.7	1.56e+00	0	48	104	0	60	1048574
2026-01-18 01:34:56.35	274.91	17.49	-85.2	-88.8	2.5	1.56e+00	0	48	104	0	60	1048571
2026-01-18 01:34:57.35	274.77	17.40	-85.2	-88.8	2.8	1.56e+00	0	48	104	0	60	1048574
2026-01-18 01:34:58.36	274.62	17.30	-85.2	-88.8	2.7	1.56e+00	0	48	104	0	60	1048571
2026-01-18 01:34:59.37	274.48	17.21	-85.2	-88.8	2.6	1.56e+00	0	48	104	0	60	1048575
2026-01-18 01:35:00.38	274.33	17.12	-84.3	-88.8	2.7	1.56e+00	0	48	104	0	60	1048571
2026-01-18 01:35:01.38	274.19	17.03	-85.2	-88.8	2.6	1.56e+00	0	48	104	0	60	1048572
2026-01-18 01:35:02.39	274.05	16.94	-85.2	-88.8	2.7	1.56e+00	0	48	104	0	60	1048575
2026-01-18 01:35:03.40	273.91	16.85	-85.2	-88.8	2.7	1.56e+00	0	48	104	0	60	1048574
2026-01-18 01:35:04.40	273.77	16.75	-85.2	-88.8	2.7	1.56e+00	0	48	104	0	60	1048573
2026-01-18 01:35:05.41	273.63	16.66	-85.2	-88.8	2.8	1.56e+00	0	48	104	0	60	1048570
2026-01-18 01:35:06.42	273.50	16.57	-85.2	-88.8	2.5	1.56e+00	0	48	104	0	60	1048575
2026-01-18 01:35:07.43	273.36	16.48	-85.2	-88.8	2.9	1.56e+00	0	48	104	0	60	1048575
2026-01-18 01:35:08.44	273.22	16.39	-85.2	-88.8	2.6	1.56e+00	0	48	104	0	60	1048575
2026-01-18 01:35:09.44	273.09	16.30	-84.7	-88.8	2.8	1.56e+00	0	48	104	0	60	1048575
2026-01-18 01:35:10.45	272.95	16.21	-84.7	-88.8	2.7	1.56e+00	0	48	104	0	60	1048570
2026-01-18 01:35:11.46	272.82	16.12	-85.2	-88.8	2.8	1.56e+00	0	48	104	0	60	1048574
2026-01-18 01:35:12.47	272.69	16.03	-85.2	-88.8	2.7	1.56e+00	0	48	104	0	60	1048571
2026-01-18 01:35:13.47	272.56	15.94	-85.2	-88.8	2.9	1.56e+00	0	48	104	0	60	1048575
2026-01-18 01:35:14.48	272.42	15.85	-85.2	-88.8	2.8	1.56e+00	0	48	104	0	60	1048575
2026-01-18 01:35:15.49	272.29	15.76	-85.2	-88.8	2.8	1.56e+00	0	48	104	0	60	1048575
2026-01-18 01:35:16.50	272.16	15.67	-85.2	-88.8	2.9	1.56e+00	0	48	104	0	60	1048574
2026-01-18 01:35:17.50	272.04	15.58	-85.2	-88.8	2.7	1.56e+00	0	48	104	0	60	1048575
2026-01-18 01:35:18.51	271.91	15.49	-85.2	-88.8	2.8	1.56e+00	0	48	104	0	60	1048573
2026-01-18 01:35:19.51	271.78	15.41	-85.2	-88.8	2.8	1.56e+00	0	48	104	0	60	1048575
2026-01-18 01:35:20.52	271.66	15.32	-85.2	-88.8	2.5	1.56e+00	0	48	104	0	60	1048574
2026-01-18 01:35:21.53	271.53	15.23	-85.2	-88.8	2.6	1.56e+00	0	48	104	0	60	1048570
2026-01-18 01:35:22.53	271.41	15.14	-85.2	-88.8	2.7	1.56e+00	0	48	104	0	60	1048572
2026-01-18 01:35:23.54	271.28	15.05	-85.2	-88.8	2.7	1.56e+00	0	48	104	0	60	1048575
2026-01-18 01:35:24.55	271.16	14.97	-84.3	-88.8	2.7	1.56e+00	0	47	104	0	60	1048575
2026-01-18 01:35:25.56	271.04	14.88	-85.2	-88.8	2.5	1.56e+00	0	47	104	0	60	1048574
2026-01-18 01:35:26.56	270.91	14.79	-85.2	-88.8	2.6	1.56e+00	0	47	104	0	60	1048575
2026-01-18 01:35:27.57	270.79	14.70	-85.2	-88.8	2.8	1.56e+00	0	48	104	0	60	1048569
2026-01-18 01:35:28.57	270.67	14.62	-85.2	-88.8	2.7	1.56e+00	0	48	104	0	60	1048575
2026-01-18 01:35:29.58	270.55	14.53	-84.3	-88.8	2.8	1.56e+00	0	47	104	0	60	1048572
2026-01-18 01:35:30.58	270.44	14.44	-85.2	-88.8	2.7	1.56e+00	0	48	104	0	60	1048573
2026-01-18 01:35:31.59	270.32	14.36	-85.2	-88.8	2.7	1.56e+00	0	48	104	0	60	1048575
2026-01-18 01:35:32.60	270.20	14.27	-85.2	-88.8	2.6	1.56e+00	0	48	104	0	60	1048574
2026-01-18 01:35:33.60	270.08	14.19	-85.2	-88.8	2.9	1.56e+00	0	48	104	0	60	1048575
2026-01-18 01:35:34.61	269.97	14.10	-85.2	-88.8	2.7	1.56e+00	0	48	104	0	60	1048574
2026-01-18 01:35:35.61	269.85	14.01	-85.2	-88.8	2.7	1.56e+00	0	47	104	0	60	1048574
2026-01-18 01:35:36.62	269.74	13.93	-85.2	-88.8	2.6	1.56e+00	0	48	104	0	60	1048575
2026-01-18 01:35:37.63	269.62	13.84	-85.2	-88.8	2.7	1.56e+00	0	48	104	0	60	1048574
2026-01-18 01:35:38.63	269.51	13.76	-85.2	-88.8	2.6	1.56e+00	0	48	104	0	60	1048575
2026-01-18 01:35:39.64	269.40	13.67	-85.2	-88.8	2.7	1.56e+00	0	48	104	0	60	1048574
2026-01-18 01:35:40.65	269.28	13.59	-85.2	-88.8	2.5	1.56e+00	0	47	104	0	60	1048571
2026-01-18 01:35:41.65	269.17	13.50	-85.2	-88.8	2.5	1.56e+00	0	47	104	0	60	1048573
2026-01-18 01:35:42.65	269.06	13.42	-85.2	-88.8	2.9	1.56e+00	0	47	104	0	60	1048575
2026-01-18 01:35:43.66	268.95	13.34	-85.2	-88.8	2.7	1.56e+00	0	48	104	0	60	1048574
2026-01-18 01:35:44.67	268.84	13.25	-85.2	-88.8	3.0	1.56e+00	0	48	104	0	60	1048575
2026-01-18 01:35:45.68	268.73	13.17	-85.2	-88.8	2.6	1.56e+00	0	48	104	0	60	1048574
2026-01-18 01:35:46.68	268.63	13.08	-85.2	-88.8	3.0	1.56e+00	0	47	104	0	60	1048570
2026-01-18 01:35:47.69	268.52	13.00	-85.2	-88.8	2.8	1.56e+00	0	48	104	0	60	1048571
2026-01-18 01:35:48.70	268.41	12.92	-85.2	-88.8	2.4	1.56e+00	0	48	104	0	60	1048573
2026-01-18 01:35:49.71	268.30	12.83	-85.2	-88.8	2.6	1.56e+00	0	48	104	0	60	1048575
2026-01-18 01:35:50.72	268.20	12.75	-85.2	-88.8	2.5	1.56e+00	0	47	104	0	60	1048575
2026-01-18 01:35:51.72	268.09	12.67	-85.2	-88.8	2.8	1.56e+00	0	48	104	0	60	1048575
2026-01-18 01:35:52.74	267.99	12.58	-85.2	-88.8	2.9	1.56e+00	0	48	104	0	60	1048573
2026-01-18 01:35:53.74	267.89	12.50	-85.2	-88.8	2.7	1.56e+00	0	48	104	0	60	1048572
2026-01-18 01:35:54.75	267.78	12.42	-85.2	-88.8	2.6	1.56e+00	0	48	104	0	60	1048574
2026-01-18 01:35:55.76	267.68	12.34	-85.2	-88.8	2.7	1.56e+00	0	48	104	0	60	1048575
2026-01-18 01:35:56.76	267.58	12.26	-85.2	-88.8	2.6	1.56e+00	0	48	104	0	60	1048573
2026-01-18 01:35:57.77	267.48	12.17	-85.2	-88.8	2.6	1.56e+00	0	47	104	0	60	1048573
2026-01-18 01:35:58.78	267.37	12.09	-85.2	-88.8	2.6	1.56e+00	0	47	104	0	60	1048574
2026-01-18 01:35:59.78	267.27	12.01	-85.2	-88.8	2.7	1.56e+00	0	48	104	0	60	1048575
2026-01-18 01:36:00.79	267.17	11.93	-85.2	-88.8	2.4	1.56e+00	0	48	104	0	60	1048575
2026-01-18 01:36:01.79	267.08	11.85	-85.2	-88.8	2.5	1.56e+00	0	47	104	0	60	1048575
2026-01-18 01:36:02.80	266.98	11.77	-85.2	-88.8	2.6	1.56e+00	0	47	104	0	60	1048573
2026-01-18 01:36:03.81	266.88	11.69	-84.3	-88.8	2.6	1.56e+00	0	47	104	0	60	1048575
2026-01-18 01:36:04.82	266.78	11.61	-85.2	-88.8	2.6	1.56e+00	0	47	104	0	60	1048575
2026-01-18 01:36:05.82	266.68	11.53	-84.3	-88.8	2.6	1.56e+00	0	47	104	0	60	1048572
2026-01-18 01:36:06.83	266.59	11.45	-85.2	-88.8	2.7	1.56e+00	0	48	104	0	60	1048568
2026-01-18 01:36:07.84	266.49	11.37	-85.2	-88.8	2.7	1.56e+00	0	48	104	0	60	1048571
2026-01-18 01:36:08.85	266.39	11.29	-85.2	-88.8	2.8	1.56e+00	0	47	104	0	60	1048575
2026-01-18 01:36:09.85	266.30	11.21	-85.2	-88.8	2.6	1.56e+00	0	48	104	0	60	1048575
2026-01-18 01:36:10.86	266.21	11.13	-85.2	-88.8	2.6	1.56e+00	0	47	104	0	60	1048572
2026-01-18 01:36:11.86	266.11	11.05	-85.2	-88.8	2.5	1.56e+00	0	48	104	0	60	1048574
2026-01-18 01:36:12.87	266.02	10.97	-85.2	-88.8	2.6	1.56e+00	0	48	104	0	60	1048575
2026-01-18 01:36:13.87	265.93	10.89	-85.2	-88.8	2.7	1.56e+00	0	48	104	0	60	1048574
2026-01-18 01:36:14.88	265.83	10.81	-85.2	-88.8	2.7	1.56e+00	0	47	104	0	60	1048573
2026-01-18 01:36:15.88	265.74	10.74	-85.2	-88.8	2.6	1.56e+00	0	48	104	0	60	1048574
2026-01-18 01:36:16.89	265.65	10.66	-85.2	-88.8	2.8	1.56e+00	0	47	104	0	60	1048572
2026-01-18 01:36:17.90	265.56	10.58	-85.2	-88.8	2.7	1.56e+00	0	47	104	0	60	1048570
2026-01-18 01:36:18.91	265.47	10.50	-85.2	-88.8	2.7	1.56e+00	0	48	104	0	60	1048574
2026-01-18 01:36:19.92	265.38	10.42	-85.2	-88.8	2.9	1.56e+00	0	48	104	0	60	1048575
2026-01-18 01:36:20.93	265.29	10.34	-85.2	-88.8	2.8	1.56e+00	0	47	104	0	60	1048574
2026-01-18 01:36:21.93	265.20	10.27	-85.2	-88.8	2.7	1.56e+00	0	47	104	0	60	1048575
2026-01-18 01:36:22.94	265.11	10.19	-85.2	-88.8	2.7	1.56e+00	0	47	104	0	60	1048575
2026-01-18 01:36:23.95	265.02	10.11	-85.2	-88.8	2.8	1.56e+00	0	47	104	0	60	1048572
2026-01-18 01:36:24.96	264.94	10.04	-85.2	-88.8	2.8	1.56e+00	0	47	104	0	60	1048575
2026-01-18 01:36:25.96	264.85	9.96	-85.2	-88.8	2.7	1.56e+00	0	48	104	0	60	1048574
2026-01-18 01:36:26.97	264.76	9.88	-84.7	-88.8	2.6	1.56e+00	0	48	104	0	60	1048570
2026-01-18 01:36:27.97	264.68	9.81	-85.2	-88.8	2.6	1.56e+00	0	48	104	0	60	1048575
2026-01-18 01:36:28.98	264.59	9.73	-85.2	-88.8	2.7	1.56e+00	0	48	104	0	60	1048573
2026-01-18 01:36:29.98	264.51	9.66	-85.2	-88.8	2.6	1.56e+00	0	48	104	0	60	1048575
2026-01-18 01:36:30.99	264.42	9.58	-85.2	-88.8	2.8	1.56e+00	0	48	104	0	60	1048573
2026-01-18 01:36:32.00	264.34	9.50	-85.2	-88.8	2.6	1.56e+00	0	48	104	0	60	1048574
2026-01-18 01:36:33.01	264.26	9.43	-85.2	-88.8	2.8	1.56e+00	0	47	104	0	60	1048573
2026-01-18 01:36:34.01	264.17	9.35	-85.2	-88.8	2.7	1.56e+00	0	47	104	0	60	1048575
2026-01-18 01:36:35.02	264.09	9.28	-85.2	-88.8	2.7	1.56e+00	0	47	104	0	60	1048573
2026-01-18 01:36:36.03	264.01	9.20	-85.2	-88.8	2.6	1.56e+00	0	48	104	0	60	1048572
2026-01-18 01:36:37.04	263.92	9.13	-85.2	-88.8	2.6	1.56e+00	0	47	104	0	60	1048575
2026-01-18 01:36:38.04	263.84	9.05	-85.2	-88.8	2.6	1.56e+00	0	48	104	0	60	1048575
2026-01-18 01:36:39.05	263.76	8.98	-85.2	-88.8	2.5	1.56e+00	0	47	104	0	60	1048575
2026-01-18 01:36:40.06	263.68	8.90	-85.2	-88.8	2.6	1.56e+00	0	47	104	0	60	1048568
2026-01-18 01:36:41.07	263.60	8.83	-85.2	-88.8	2.7	1.56e+00	0	48	104	0	60	1048563
2026-01-18 01:36:42.08	263.52	8.75	-85.2	-88.8	2.6	1.56e+00	0	48	104	0	60	1048571
2026-01-18 01:36:43.09	263.44	8.68	-85.2	-88.8	2.7	1.56e+00	0	48	104	0	60	1048575
2026-01-18 01:36:44.09	263.36	8.61	-85.2	-88.8	2.8	1.56e+00	0	48	104	0	60	1048574
2026-01-18 01:36:45.10	263.28	8.53	-85.2	-88.8	2.8	1.56e+00	0	48	104	0	60	1048573
2026-01-18 01:36:46.10	263.21	8.46	-85.2	-88.8	2.7	1.56e+00	0	48	104	0	60	1048571
2026-01-18 01:36:47.11	263.13	8.39	-85.2	-88.8	2.6	1.56e+00	0	48	104	0	60	1048569
2026-01-18 01:36:48.12	263.05	8.31	-85.2	-88.8	2.6	1.56e+00	0	47	104	0	60	1048571
2026-01-18 01:36:49.13	262.97	8.24	-85.2	-88.8	2.8	1.56e+00	0	48	104	0	60	1048574
2026-01-18 01:36:50.13	262.90	8.17	-85.2	-88.8	2.8	1.56e+00	0	47	104	0	60	1048574
2026-01-18 01:36:51.14	262.82	8.10	-85.2	-88.8	2.7	1.56e+00	0	48	104	0	60	1048575
2026-01-18 01:36:52.15	262.75	8.02	-85.2	-88.8	2.7	1.56e+00	0	47	104	0	60	1048575
2026-01-18 01:36:53.16	262.67	7.95	-85.2	-88.8	2.9	1.56e+00	0	48	104	0	60	1048574
2026-01-18 01:36:54.17	262.59	7.88	-85.2	-88.8	2.6	1.56e+00	0	48	104	0	60	1048575
2026-01-18 01:36:55.17	262.52	7.81	-85.2	-88.8	2.6	1.56e+00	0	48	104	0	60	1048569
2026-01-18 01:36:56.18	262.45	7.73	-85.2	-88.8	2.6	1.56e+00	0	48	104	0	60	1048575
2026-01-18 01:36:57.19	262.37	7.66	-85.2	-88.8	2.7	1.56e+00	0	47	104	0	60	1048574
2026-01-18 01:36:58.20	262.30	7.59	-85.2	-88.8	2.7	1.56e+00	0	47	104	0	60	1048573
2026-01-18 01:36:59.20	262.23	7.52	-85.2	-88.8	2.9	1.56e+00	0	48	104	0	60	1048575
2026-01-18 01:37:00.21	262.15	7.45	-85.2	-88.8	2.8	1.56e+00	0	48	104	0	60	1048574
2026-01-18 01:37:01.22	262.08	7.38	-85.2	-88.8	2.6	1.56e+00	0	47	104	0	60	1048574
2026-01-18 01:37:02.22	262.01	7.31	-85.2	-88.8	2.8	1.56e+00	0	48	104	0	60	1048571
2026-01-18 01:37:03.22	261.94	7.24	-85.2	-88.8	2.9	1.56e+00	0	47	104	0	60	1048575
2026-01-18 01:37:04.23	261.87	7.17	-85.2	-88.8	2.8	1.56e+00	0	47	104	0	60	1048568
2026-01-18 01:37:05.24	261.79	7.10	-84.7	-88.8	2.8	1.56e+00	0	48	104	0	60	1048575
2026-01-18 01:37:06.24	261.72	7.03	-85.2	-88.8	2.6	1.56e+00	0	48	104	0	60	1048575
2026-01-18 01:37:07.25	261.65	6.96	-85.2	-88.8	2.6	1.56e+00	0	48	104	0	60	1048573
2026-01-18 01:37:08.26	261.58	6.89	-85.2	-88.8	2.7	1.56e+00	0	48	104	0	60	1048574
2026-01-18 01:37:09.26	261.52	6.82	-85.2	-88.8	2.6	1.56e+00	0	47	104	0	60	1048575
2026-01-18 01:37:10.27	261.45	6.75	-85.2	-88.8	2.7	1.56e+00	0	48	104	0	60	1048571
2026-01-18 01:37:11.28	261.38	6.68	-85.2	-88.8	2.8	1.56e+00	0	48	104	0	60	1048574
2026-01-18 01:37:12.29	261.31	6.61	-85.2	-88.8	2.9	1.56e+00	0	48	104	0	60	1048573
2026-01-18 01:37:13.30	261.24	6.54	-85.2	-88.8	2.7	1.56e+00	0	48	104	0	60	1048575
2026-01-18 01:37:14.31	261.17	6.47	-85.2	-88.8	2.6	1.56e+00	0	48	104	0	60	1048574
2026-01-18 01:37:15.31	261.11	6.40	-85.2	-88.8	2.8	1.56e+00	0	47	104	0	60	1048575
2026-01-18 01:37:16.32	261.04	6.33	-85.2	-88.8	2.5	1.56e+00	0	47	104	0	60	1048568
2026-01-18 01:37:17.33	260.97	6.26	-85.2	-88.8	2.7	1.56e+00	0	47	104	0	60	1048574
2026-01-18 01:37:18.34	260.90	6.19	-85.2	-88.8	2.5	1.56e+00	0	47	104	0	60	1048575
2026-01-18 01:37:19.34	260.84	6.13	-85.2	-88.8	2.7	1.56e+00	0	48	104	0	60	1048575
2026-01-18 01:37:20.35	260.77	6.06	-85.2	-88.8	2.6	1.56e+00	0	48	104	0	60	1048575
2026-01-18 01:37:21.35	260.71	5.99	-85.2	-88.8	2.5	1.56e+00	0	47	104	0	60	1048568
2026-01-18 01:37:22.36	260.64	5.92	-85.2	-88.8	2.8	1.56e+00	0	48	104	0	60	1048575
2026-01-18 01:37:23.36	260.58	5.85	-85.2	-88.8	2.7	1.56e+00	0	48	104	0	60	1048574
2026-01-18 01:37:24.37	260.51	5.79	-85.2	-88.8	2.6	1.56e+00	0	47	104	0	60	1048574
2026-01-18 01:37:25.37	260.45	5.72	-85.2	-88.8	2.9	1.56e+00	0	47	104	0	60	1048575
2026-01-18 01:37:26.38	260.39	5.65	-85.2	-88.8	2.7	1.56e+00	0	47	104	0	60	1048571
2026-01-18 01:37:27.39	260.32	5.58	-85.2	-88.8	2.7	1.56e+00	0	47	104	0	60	1048572
2026-01-18 01:37:28.39	260.26	5.52	-85.2	-88.8	2.8	1.56e+00	0	48	104	0	60	1048573
2026-01-18 01:37:29.40	260.20	5.45	-85.2	-88.8	2.8	1.56e+00	0	47	104	0	60	1048575
2026-01-18 01:37:30.41	260.13	5.38	-85.2	-88.8	2.5	1.56e+00	0	48	104	0	60	1048574
2026-01-18 01:37:31.42	260.07	5.32	-85.2	-88.8	2.9	1.56e+00	0	48	104	0	60	1048575
2026-01-18 01:37:32.42	260.01	5.25	-85.2	-88.8	2.7	1.56e+00	0	47	104	0	60	1048573
2026-01-18 01:37:33.43	259.95	5.18	-85.2	-88.8	2.7	1.56e+00	0	48	104	0	60	1048574
2026-01-18 01:37:34.44	259.88	5.12	-85.2	-88.8	2.9	1.56e+00	0	47	104	0	60	1048574
2026-01-18 01:37:35.44	259.82	5.05	-84.3	-88.8	2.9	1.56e+00	0	48	104	0	60	1048574
2026-01-18 01:37:36.45	259.76	4.98	-85.2	-88.8	2.8	1.56e+00	0	47	104	0	60	1048574
2026-01-18 01:37:37.46	259.70	4.92	-85.2	-88.8	2.7	1.56e+00	0	47	104	0	60	1048575
2026-01-18 01:37:38.46	259.64	4.85	-85.2	-88.8	2.8	1.56e+00	0	48	104	0	60	1048574
2026-01-18 01:37:39.47	259.58	4.79	-85.2	-88.8	2.6	1.56e+00	0	48	104	0	60	1048570
2026-01-18 01:37:40.48	259.52	4.72	-85.2	-88.8	2.7	1.56e+00	0	47	104	0	60	1048575
2026-01-18 01:37:41.48	259.46	4.66	-85.2	-88.8	2.6	1.56e+00	0	48	104	0	60	1048575
2026-01-18 01:37:42.49	259.40	4.59	-85.2	-88.8	2.6	1.56e+00	0	48	104	0	60	1048575
2026-01-18 01:37:43.50	259.34	4.53	-85.2	-88.8	2.7	1.56e+00	0	48	104	0	60	1048573
2026-01-18 01:37:44.51	259.29	4.46	-85.2	-88.8	2.7	1.56e+00	0	48	104	0	60	1048573
2026-01-18 01:37:45.52	259.23	4.40	-85.2	-88.8	2.6	1.56e+00	0	48	104	0	60	1048573
2026-01-18 01:37:46.52	259.17	4.33	-85.2	-88.8	2.6	1.56e+00	0	48	104	0	60	1048575
2026-01-18 01:37:47.53	259.11	4.27	-85.2	-88.8	2.8	1.56e+00	0	48	104	0	60	1048574
2026-01-18 01:37:48.54	259.05	4.20	-85.2	-88.8	2.6	1.56e+00	0	48	104	0	60	1048573
2026-01-18 01:37:49.55	259.00	4.14	-85.2	-88.8	2.7	1.56e+00	0	48	104	0	60	1048575
2026-01-18 01:37:50.56	258.94	4.07	-85.2	-88.8	2.6	1.56e+00	0	48	104	0	60	1048575
2026-01-18 01:37:51.56	258.88	4.01	-84.7	-88.8	2.7	1.56e+00	0	48	104	0	60	1048575
2026-01-18 01:37:52.57	258.83	3.95	-85.2	-88.8	2.6	1.56e+00	0	48	104	0	60	1048574
2026-01-18 01:37:53.57	258.77	3.88	-85.2	-88.8	2.8	1.56e+00	0	48	104	0	60	1048575
2026-01-18 01:37:54.58	258.71	3.82	-85.2	-88.8	2.6	1.56e+00	0	48	104	0	60	1048575
2026-01-18 01:37:55.59	258.66	3.75	-85.2	-88.8	2.7	1.56e+00	0	48	104	0	60	1048572
2026-01-18 01:37:56.59	258.60	3.69	-85.2	-88.8	2.7	1.56e+00	0	48	104	0	60	1048573
2026-01-18 01:37:57.60	258.55	3.63	-85.2	-88.8	2.7	1.56e+00	0	47	104	0	60	1048574
2026-01-18 01:37:58.60	258.49	3.56	-85.2	-88.8	2.8	1.56e+00	0	48	104	0	60	1048575
2026-01-18 01:37:59.62	258.44	3.50	-85.2	-88.8	2.6	1.56e+00	0	48	104	0	60	1048575
2026-01-18 01:38:00.62	258.38	3.44	-85.2	-88.8	2.5	1.56e+00	0	48	104	0	60	1048575
2026-01-18 01:38:01.63	258.33	3.37	-85.2	-88.8	2.7	1.56e+00	0	48	104	0	60	1048575
2026-01-18 01:38:02.64	258.27	3.31	-85.2	-88.8	2.6	1.56e+00	0	48	104	0	60	1048575
2026-01-18 01:38:03.65	258.22	3.25	-84.7	-88.8	2.7	1.56e+00	0	48	104	0	60	1048574
2026-01-18 01:38:04.65	258.17	3.19	-85.2	-88.8	2.7	1.56e+00	0	47	104	0	60	1048575
2026-01-18 01:38:05.66	258.11	3.12	-85.2	-88.8	2.6	1.56e+00	0	48	104	0	60	1048575
2026-01-18 01:38:06.67	258.06	3.06	-85.2	-88.8	2.8	1.56e+00	0	47	104	0	60	1048573
2026-01-18 01:38:07.68	258.01	3.00	-85.2	-88.8	2.6	1.56e+00	0	48	104	0	60	1048572
2026-01-18 01:38:08.68	257.95	2.94	-85.2	-88.8	2.6	1.56e+00	0	48	104	0	60	1048575
2026-01-18 01:38:09.69	257.90	2.88	-85.2	-88.8	2.6	1.56e+00	0	48	104	0	60	1048575
2026-01-18 01:38:10.69	257.85	2.81	-85.2	-88.8	2.7	1.56e+00	0	48	104	0	60	1048575
2026-01-18 01:38:11.70	257.80	2.75	-85.2	-88.8	2.6	1.56e+00	0	48	104	0	60	1048575
2026-01-18 01:38:12.70	257.75	2.69	-85.2	-88.8	2.8	1.56e+00	0	48	104	0	60	1048574
2026-01-18 01:38:13.71	257.70	2.63	-85.2	-88.8	2.8	1.56e+00	0	47	104	0	60	1048574
2026-01-18 01:38:14.72	257.64	2.57	-85.2	-88.8	2.8	1.56e+00	0	48	104	0	60	1048575
2026-01-18 01:38:15.73	257.59	2.51	-85.2	-88.8	2.6	1.56e+00	0	48	104	0	60	1048574
2026-01-18 01:38:16.73	257.54	2.45	-85.2	-88.8	2.6	1.56e+00	0	47	104	0	60	1048575
2026-01-18 01:38:17.74	257.49	2.38	-85.2	-88.8	2.5	1.56e+00	0	47	104	0	60	1048574
2026-01-18 01:38:18.75	257.44	2.32	-85.2	-88.8	2.8	1.56e+00	0	47	104	0	60	1048573
2026-01-18 01:38:19.76	257.39	2.26	-85.2	-88.8	2.8	1.56e+00	0	48	104	0	60	1048571
2026-01-18 01:38:20.76	257.34	2.20	-85.2	-88.8	2.5	1.56e+00	0	47	104	0	60	1048575
2026-01-18 01:38:21.77	257.29	2.14	-85.2	-88.8	2.8	1.56e+00	0	48	104	0	60	1048569
2026-01-18 01:38:22.78	257.24	2.08	-85.2	-88.8	2.9	1.56e+00	0	48	104	0	60	1048573
2026-01-18 01:38:23.78	257.19	2.02	-85.2	-88.8	2.6	1.56e+00	0	48	104	0	60	1048575
2026-01-18 01:38:24.79	257.14	1.96	-85.2	-88.8	2.7	1.56e+00	0	47	104	0	60	1048569
2026-01-18 01:38:25.79	257.10	1.90	-85.2	-88.8	2.6	1.56e+00	0	48	104	0	60	1048571
2026-01-18 01:38:26.80	257.05	1.84	-83.5	-88.8	2.7	1.56e+00	0	48	104	0	60	1048570
2026-01-18 01:38:27.80	257.00	1.78	-85.2	-88.8	2.6	1.56e+00	0	47	104	0	60	1048573
2026-01-18 01:38:28.80	256.95	1.72	-85.2	-88.8	2.9	1.56e+00	0	47	104	0	60	1048572
2026-01-18 01:38:29.81	256.90	1.66	-85.2	-88.8	2.8	1.56e+00	0	48	104	0	60	1048574
2026-01-18 01:38:30.81	256.86	1.60	-83.9	-88.8	2.7	1.56e+00	0	48	104	0	60	1048575
2026-01-18 01:38:31.82	256.81	1.54	-85.2	-88.8	2.8	1.56e+00	0	47	104	0	60	1048571
2026-01-18 01:38:32.83	256.76	1.48	-85.2	-88.8	2.8	1.56e+00	0	48	104	0	60	1048574
2026-01-18 01:38:33.84	256.71	1.42	-85.2	-88.8	2.7	1.56e+00	0	47	104	0	60	1048575
2026-01-18 01:38:34.84	256.67	1.36	-85.2	-88.8	2.7	1.56e+00	0	48	104	0	60	1048573
2026-01-18 01:38:35.85	256.62	1.30	-85.2	-88.8	2.6	1.56e+00	0	48	104	0	60	1048573
2026-01-18 01:38:36.85	256.57	1.25	-85.2	-88.8	2.7	1.56e+00	0	48	104	0	60	1048575
2026-01-18 01:38:37.86	256.53	1.19	-85.2	-88.8	2.8	1.56e+00	0	48	104	0	60	1048575
2026-01-18 01:38:38.86	256.48	1.13	-85.2	-88.8	2.6	1.56e+00	0	48	104	0	60	1048573
2026-01-18 01:38:39.87	256.44	1.07	-85.2	-88.8	2.9	1.56e+00	0	48	104	0	60	1048573
2026-01-18 01:38:40.87	256.39	1.01	-85.2	-88.8	2.7	1.56e+00	0	48	104	0	60	1048565
2026-01-18 01:38:41.88	256.34	0.95	-85.2	-88.8	2.9	1.56e+00	0	47	104	0	60	1048575
2026-01-18 01:38:42.89	256.30	0.89	-85.2	-88.8	2.9	1.56e+00	0	48	104	0	60	1048574
2026-01-18 01:38:43.90	256.25	0.83	-85.2	-88.8	2.8	1.56e+00	0	48	104	0	60	1048575
2026-01-18 01:38:44.90	256.21	0.78	-85.2	-88.8	2.6	1.56e+00	0	48	104	0	60	1048573
2026-01-18 01:38:45.91	256.16	0.72	-85.2	-88.8	2.7	1.56e+00	0	48	104	0	60	1048574
2026-01-18 01:38:46.92	256.12	0.66	-85.2	-88.8	2.8	1.56e+00	0	48	104	0	60	1048574
2026-01-18 01:38:47.93	256.07	0.60	-85.2	-88.8	2.8	1.56e+00	0	47	104	0	60	1048575
2026-01-18 01:38:48.93	256.03	0.54	-85.2	-88.8	2.8	1.56e+00	0	47	104	0	60	1048575
2026-01-18 01:38:49.94	255.99	0.49	-85.2	-88.8	2.7	1.56e+00	0	48	104	0	60	1048575
2026-01-18 01:38:50.95	255.94	0.43	-85.2	-88.8	2.6	1.56e+00	0	48	104	0	60	1048575
2026-01-18 01:38:51.96	255.90	0.37	-85.2	-88.8	2.6	1.56e+00	0	47	104	0	60	1048575
2026-01-18 01:38:52.97	255.85	0.31	-85.2	-88.8	2.8	1.56e+00	0	48	104	0	60	1048574
2026-01-18 01:38:53.98	255.81	0.26	-85.2	-88.8	2.7	1.56e+00	0	48	104	0	60	1048573
2026-01-18 01:38:54.98	255.77	0.20	-84.3	-88.8	2.8	1.56e+00	0	48	104	0	60	1048575
2026-01-18 01:38:55.99	255.73	0.14	-84.7	-88.8	2.7	1.56e+00	0	48	104	0	60	1048575
2026-01-18 01:38:56.99	255.68	0.08	-85.2	-88.8	2.9	1.56e+00	0	48	104	0	60	1048570
2026-01-18 01:38:57.99	255.64	0.03	-85.2	-88.8	2.6	1.56e+00	0	48	104	0	60	1048574
2026-01-18 01:38:59.00	255.60	-0.03	-85.2	-88.8	2.7	1.56e+00	0	48	104	0	60	1048575
2026-01-18 01:39:00.01	255.56	-0.09	-85.2	-88.8	2.6	1.56e+00	0	48	104	0	60	1048573

#Closed at: 2026-01-18 01:39:00
#Recorded file [0 MB]: D:/Data/35015_260118_042806.dat