passes_logs/2026/01/18/R3.2S-Naryan-Mar/R3.2S-Naryan-Mar__20260118_001358_SUOMI_NPP_rec.log

#Pass ID: 20260118_001358_SUOMI NPP
#Satellite: SUOMI NPP
#Configuration: NPP
#almurnet v.1.7.20240730
#Start time: 2026-01-18 00:14:00

#Version: 2.2.20231116
#Station: R3.2S-Naryan-Mar
#Location: 53.008057 lon 67.646978 lat
#TLE: 1 37849U 11061A   26017.28905266  .00000074  00000+0  55894-4 0  9999
#TLE: 2 37849  98.7814 319.3179 0002408  59.7048 300.4366 14.19525847737038

#Time	Az	El	Level	Level2	SNR	BER	BlckErr	Temp	State	Recorded	gain1	gain2
2026-01-18 00:14:00.37	27.11	0.12	-85.2	-88.8	3.2	1.56e+00	0	44	0	0	60	1048572
2026-01-18 00:14:01.37	27.09	0.18	-85.2	-88.6	3.0	1.57e+00	0	45	104	0	60	1048574
2026-01-18 00:14:02.38	27.07	0.24	-85.2	-88.6	2.9	1.55e+00	0	46	104	0	60	1048575
2026-01-18 00:14:03.38	27.05	0.30	-85.2	-88.6	2.9	1.56e+00	0	45	104	0	60	1048575
2026-01-18 00:14:04.39	27.04	0.36	-85.2	-88.6	3.0	1.55e+00	0	46	104	0	60	1048575
2026-01-18 00:14:05.40	27.02	0.42	-85.2	-88.6	3.1	1.56e+00	0	46	104	0	60	1048575
2026-01-18 00:14:06.40	27.00	0.48	-85.2	-88.6	2.9	1.55e+00	0	46	104	0	60	1048574
2026-01-18 00:14:07.41	26.98	0.54	-85.2	-88.6	3.0	1.55e+00	0	46	104	0	60	1048574
2026-01-18 00:14:08.42	26.96	0.60	-85.2	-88.6	3.0	1.55e+00	0	46	104	0	60	1048575
2026-01-18 00:14:09.43	26.94	0.66	-85.2	-88.6	2.8	1.56e+00	0	46	104	0	60	1048575
2026-01-18 00:14:10.44	26.93	0.72	-85.2	-88.6	3.1	1.56e+00	0	46	104	0	60	1048572
2026-01-18 00:14:11.44	26.91	0.78	-85.2	-88.6	3.1	1.56e+00	0	46	104	0	60	1048570
2026-01-18 00:14:12.45	26.89	0.84	-85.2	-88.6	3.2	1.55e+00	0	46	104	0	60	1048573
2026-01-18 00:14:13.46	26.87	0.90	-85.2	-88.6	2.8	1.55e+00	0	46	104	0	60	1048575
2026-01-18 00:14:14.46	26.85	0.96	-85.2	-88.6	3.1	1.56e+00	0	46	104	0	60	1048573
2026-01-18 00:14:15.47	26.83	1.03	-85.2	-88.6	3.2	1.55e+00	0	46	104	0	60	1048574
2026-01-18 00:14:16.48	26.81	1.09	-85.2	-88.6	3.1	1.55e+00	0	46	104	0	60	1048574
2026-01-18 00:14:17.48	26.79	1.15	-85.2	-88.6	3.1	1.56e+00	0	46	104	0	60	1048574
2026-01-18 00:14:18.48	26.77	1.21	-85.2	-88.6	2.8	1.56e+00	0	46	104	0	60	1048575
2026-01-18 00:14:19.49	26.75	1.27	-85.2	-88.6	2.9	1.56e+00	0	46	104	0	60	1048575
2026-01-18 00:14:20.49	26.73	1.33	-85.2	-88.6	2.9	1.56e+00	0	46	104	0	60	1048575
2026-01-18 00:14:21.50	26.71	1.40	-85.2	-88.6	2.8	1.55e+00	0	46	104	0	60	1048573
2026-01-18 00:14:22.51	26.69	1.46	-85.2	-88.6	3.2	1.55e+00	0	46	104	0	60	1048575
2026-01-18 00:14:23.51	26.67	1.52	-85.2	-88.6	2.9	1.56e+00	0	46	104	0	60	1048575
2026-01-18 00:14:24.52	26.65	1.58	-85.2	-88.6	2.9	1.56e+00	0	46	104	0	60	1048572
2026-01-18 00:14:25.53	26.63	1.65	-85.2	-88.6	3.0	1.56e+00	0	46	104	0	60	1048575
2026-01-18 00:14:26.54	26.61	1.71	-85.2	-88.6	3.0	1.56e+00	0	46	104	0	60	1048574
2026-01-18 00:14:27.54	26.59	1.77	-85.2	-88.6	3.1	1.56e+00	0	46	104	0	60	1048574
2026-01-18 00:14:28.55	26.57	1.84	-85.2	-88.6	2.9	1.56e+00	0	46	104	0	60	1048575
2026-01-18 00:14:29.55	26.55	1.90	-85.2	-88.6	3.0	1.56e+00	0	46	104	0	60	1048575
2026-01-18 00:14:30.56	26.53	1.96	-85.2	-88.6	3.0	1.56e+00	0	46	104	0	60	1048575
2026-01-18 00:14:31.57	26.51	2.03	-85.2	-88.6	3.1	1.56e+00	0	46	104	0	60	1048575
2026-01-18 00:14:32.58	26.49	2.09	-85.2	-88.6	3.0	1.56e+00	0	46	104	0	60	1048575
2026-01-18 00:14:33.58	26.47	2.15	-85.2	-88.6	3.1	1.56e+00	0	46	104	0	60	1048574
2026-01-18 00:14:34.58	26.45	2.22	-85.2	-88.6	3.1	1.56e+00	0	46	104	0	60	1048575
2026-01-18 00:14:35.59	26.43	2.28	-85.2	-88.6	3.0	1.56e+00	0	46	104	0	60	1048574
2026-01-18 00:14:36.60	26.41	2.35	-85.2	-88.6	2.9	1.56e+00	0	46	104	0	60	1048574
2026-01-18 00:14:37.60	26.39	2.41	-85.2	-88.6	3.0	1.56e+00	0	46	104	0	60	1048575
2026-01-18 00:14:38.61	26.36	2.47	-85.2	-88.6	3.1	1.56e+00	0	46	104	0	60	1048574
2026-01-18 00:14:39.62	26.34	2.54	-85.2	-88.6	3.1	1.56e+00	0	46	104	0	60	1048575
2026-01-18 00:14:40.63	26.32	2.60	-85.2	-88.6	3.0	1.56e+00	0	46	104	0	60	1048575
2026-01-18 00:14:41.64	26.30	2.67	-85.2	-88.6	3.0	1.55e+00	0	46	104	0	60	1048575
2026-01-18 00:14:42.65	26.28	2.73	-85.2	-88.6	2.8	1.56e+00	0	46	104	0	60	1048570
2026-01-18 00:14:43.65	26.25	2.80	-85.2	-88.6	3.1	1.56e+00	0	46	104	0	60	1048574
2026-01-18 00:14:44.66	26.23	2.86	-85.2	-88.6	2.9	1.56e+00	0	46	104	0	60	1048572
2026-01-18 00:14:45.67	26.21	2.93	-85.2	-88.6	3.0	1.55e+00	0	46	104	0	60	1048575
2026-01-18 00:14:46.67	26.19	3.00	-85.2	-88.6	2.9	1.55e+00	0	46	104	0	60	1048575
2026-01-18 00:14:47.68	26.17	3.06	-85.2	-88.6	2.8	1.55e+00	0	46	104	0	60	1048572
2026-01-18 00:14:48.69	26.14	3.13	-85.2	-88.6	3.0	1.56e+00	0	46	104	0	60	1048569
2026-01-18 00:14:49.70	26.12	3.19	-85.2	-88.6	3.0	1.56e+00	0	46	104	0	60	1048575
2026-01-18 00:14:50.71	26.10	3.26	-85.2	-88.6	3.0	1.56e+00	0	46	104	0	60	1048570
2026-01-18 00:14:51.71	26.07	3.33	-85.2	-88.6	2.9	1.56e+00	0	46	104	0	60	1048571
2026-01-18 00:14:52.72	26.05	3.39	-85.2	-88.6	2.9	1.55e+00	0	46	104	0	60	1048573
2026-01-18 00:14:53.73	26.03	3.46	-85.2	-88.6	3.1	1.55e+00	0	46	104	0	60	1048575
2026-01-18 00:14:54.74	26.00	3.53	-85.2	-88.6	2.9	1.56e+00	0	46	104	0	60	1048575
2026-01-18 00:14:55.74	25.98	3.59	-85.2	-88.6	3.0	1.56e+00	0	46	104	0	60	1048574
2026-01-18 00:14:56.75	25.96	3.66	-85.2	-88.6	2.9	1.55e+00	0	47	104	0	60	1048575
2026-01-18 00:14:57.76	25.93	3.73	-85.2	-88.6	3.0	1.55e+00	0	47	104	0	60	1048575
2026-01-18 00:14:58.76	25.91	3.80	-85.2	-88.6	2.8	1.55e+00	0	46	104	0	60	1048575
2026-01-18 00:14:59.77	25.88	3.86	-85.2	-88.6	2.8	1.56e+00	0	46	104	0	60	1048573
2026-01-18 00:15:00.78	25.86	3.93	-85.2	-88.6	3.0	1.55e+00	0	46	104	0	60	1048575
2026-01-18 00:15:01.79	25.84	4.00	-85.2	-88.6	3.1	1.55e+00	0	46	104	0	60	1048574
2026-01-18 00:15:02.79	25.81	4.07	-85.2	-88.6	3.0	1.55e+00	0	46	104	0	60	1048572
2026-01-18 00:15:03.80	25.79	4.14	-84.7	-88.6	2.9	1.55e+00	0	46	104	0	60	1048575
2026-01-18 00:15:04.81	25.76	4.21	-85.2	-88.6	3.1	1.56e+00	0	46	104	0	60	1048575
2026-01-18 00:15:05.81	25.74	4.27	-85.2	-88.6	3.0	1.56e+00	0	46	104	0	60	1048575
2026-01-18 00:15:06.82	25.71	4.34	-85.2	-88.6	3.0	1.56e+00	0	46	104	0	60	1048575
2026-01-18 00:15:07.83	25.69	4.41	-85.2	-88.6	3.0	1.56e+00	0	46	104	0	60	1048575
2026-01-18 00:15:08.83	25.66	4.48	-85.2	-88.6	3.2	1.56e+00	0	46	104	0	60	1048575
2026-01-18 00:15:09.84	25.64	4.55	-85.2	-88.6	3.0	1.56e+00	0	46	104	0	60	1048575
2026-01-18 00:15:10.85	25.61	4.62	-85.2	-88.6	3.0	1.56e+00	0	46	104	0	60	1048574
2026-01-18 00:15:11.85	25.59	4.69	-85.2	-88.6	3.0	1.56e+00	0	46	104	0	60	1048575
2026-01-18 00:15:12.86	25.56	4.76	-84.3	-88.6	3.1	1.56e+00	0	46	104	0	60	1048575
2026-01-18 00:15:13.86	25.53	4.83	-85.2	-88.6	3.1	1.56e+00	0	46	104	0	60	1048575
2026-01-18 00:15:14.87	25.51	4.90	-85.2	-88.6	3.1	1.56e+00	0	46	104	0	60	1048575
2026-01-18 00:15:15.88	25.48	4.97	-85.2	-88.6	2.9	1.55e+00	0	46	104	0	60	1048571
2026-01-18 00:15:16.89	25.45	5.04	-85.2	-88.6	2.8	1.56e+00	0	47	104	0	60	1048575
2026-01-18 00:15:17.90	25.43	5.11	-85.2	-88.6	3.0	1.56e+00	0	46	104	0	60	1048575
2026-01-18 00:15:18.91	25.40	5.18	-85.2	-88.6	3.1	1.56e+00	0	47	104	0	60	1048575
2026-01-18 00:15:19.91	25.37	5.25	-85.2	-88.6	3.0	1.55e+00	0	46	104	0	60	1048573
2026-01-18 00:15:20.92	25.35	5.33	-85.2	-88.6	3.0	1.56e+00	0	47	104	0	60	1048575
2026-01-18 00:15:21.92	25.32	5.40	-85.2	-88.6	3.0	1.56e+00	0	47	104	0	60	1048575
2026-01-18 00:15:22.92	25.29	5.47	-85.2	-88.6	3.1	1.55e+00	0	47	104	0	60	1048575
2026-01-18 00:15:23.93	25.27	5.54	-85.2	-88.6	3.1	1.56e+00	0	47	104	0	60	1048574
2026-01-18 00:15:24.93	25.24	5.61	-85.2	-88.6	3.0	1.56e+00	0	47	104	0	60	1048575
2026-01-18 00:15:25.94	25.21	5.68	-85.2	-88.6	2.9	1.56e+00	0	46	104	0	60	1048573
2026-01-18 00:15:26.95	25.18	5.76	-85.2	-88.6	3.0	1.56e+00	0	47	104	0	60	1048575
2026-01-18 00:15:27.96	25.15	5.83	-85.2	-88.6	3.1	1.55e+00	0	47	104	0	60	1048574
2026-01-18 00:15:28.97	25.13	5.90	-85.2	-88.6	3.0	1.56e+00	0	47	104	0	60	1048575
2026-01-18 00:15:29.97	25.10	5.97	-85.2	-88.6	2.9	1.56e+00	0	46	104	0	60	1048572
2026-01-18 00:15:30.98	25.07	6.05	-85.2	-88.6	3.2	1.56e+00	0	46	104	0	60	1048575
2026-01-18 00:15:31.99	25.04	6.12	-85.2	-88.6	3.0	1.56e+00	0	47	104	0	60	1048574
2026-01-18 00:15:33.00	25.01	6.20	-85.2	-88.6	2.9	1.55e+00	0	47	104	0	60	1048575
2026-01-18 00:15:34.00	24.98	6.27	-85.2	-88.6	3.2	1.56e+00	0	47	104	0	60	1048575
2026-01-18 00:15:35.01	24.95	6.34	-85.2	-88.6	2.8	1.56e+00	0	47	104	0	60	1048575
2026-01-18 00:15:36.00	24.92	6.42	-85.2	-88.6	3.0	1.56e+00	0	47	104	0	60	1048575
2026-01-18 00:15:37.01	24.89	6.49	-85.2	-88.6	3.1	1.56e+00	0	47	104	0	60	1048574
2026-01-18 00:15:38.02	24.86	6.57	-85.2	-88.6	3.1	1.56e+00	0	47	104	0	60	1048573
2026-01-18 00:15:39.03	24.83	6.64	-85.2	-88.6	3.0	1.56e+00	0	47	104	0	60	1048575
2026-01-18 00:15:40.03	24.80	6.72	-85.2	-88.6	3.1	1.56e+00	0	47	104	0	60	1048575
2026-01-18 00:15:41.04	24.77	6.79	-85.2	-88.6	3.0	1.56e+00	0	47	104	0	60	1048572
2026-01-18 00:15:42.04	24.74	6.87	-85.2	-88.6	3.1	1.56e+00	0	47	104	0	60	1048575
2026-01-18 00:15:43.05	24.71	6.94	-85.2	-88.6	3.1	1.56e+00	0	47	104	0	60	1048575
2026-01-18 00:15:44.05	24.68	7.02	-85.2	-88.6	3.0	1.56e+00	0	47	104	0	60	1048574
2026-01-18 00:15:45.06	24.65	7.09	-85.2	-88.6	2.9	1.55e+00	0	47	104	0	60	1048575
2026-01-18 00:15:46.07	24.62	7.17	-85.2	-88.6	3.0	1.55e+00	0	47	104	0	60	1048569
2026-01-18 00:15:47.08	24.59	7.25	-85.2	-88.6	2.9	1.56e+00	0	47	104	0	60	1048574
2026-01-18 00:15:48.09	24.56	7.32	-85.2	-88.6	2.9	1.55e+00	0	47	104	0	60	1048573
2026-01-18 00:15:49.09	24.53	7.40	-85.2	-88.6	3.0	1.56e+00	0	47	104	0	60	1048575
2026-01-18 00:15:50.10	24.49	7.48	-85.2	-88.6	2.9	1.56e+00	0	47	104	0	60	1048575
2026-01-18 00:15:51.11	24.46	7.56	-85.2	-88.6	3.0	1.55e+00	0	47	104	0	60	1048572
2026-01-18 00:15:52.12	24.43	7.63	-85.2	-88.6	3.0	1.56e+00	0	47	104	0	60	1048575
2026-01-18 00:15:53.13	24.40	7.71	-85.2	-88.6	2.9	1.55e+00	0	47	104	0	60	1048575
2026-01-18 00:15:54.13	24.36	7.79	-85.2	-88.6	2.8	1.55e+00	0	47	104	0	60	1048575
2026-01-18 00:15:55.14	24.33	7.87	-85.2	-88.6	2.9	1.55e+00	0	47	104	0	60	1048574
2026-01-18 00:15:56.14	24.30	7.95	-85.2	-88.6	3.1	1.55e+00	0	47	104	0	60	1048575
2026-01-18 00:15:57.15	24.26	8.03	-85.2	-88.6	3.0	1.56e+00	0	47	104	0	60	1048572
2026-01-18 00:15:58.15	24.23	8.10	-85.2	-88.6	2.8	1.56e+00	0	47	104	0	60	1048575
2026-01-18 00:15:59.16	24.20	8.18	-85.2	-88.6	2.9	1.56e+00	0	47	104	0	60	1048574
2026-01-18 00:16:00.16	24.16	8.26	-85.2	-88.6	3.0	1.55e+00	0	47	104	0	60	1048575
2026-01-18 00:16:01.17	24.13	8.34	-85.2	-88.6	2.9	1.56e+00	0	47	104	0	60	1048575
2026-01-18 00:16:02.18	24.09	8.42	-85.2	-88.6	3.2	1.55e+00	0	47	104	0	60	1048569
2026-01-18 00:16:03.19	24.06	8.50	-85.2	-88.6	2.9	1.56e+00	0	47	104	0	60	1048575
2026-01-18 00:16:04.20	24.02	8.58	-85.2	-88.6	2.9	1.56e+00	0	47	104	0	60	1048573
2026-01-18 00:16:05.21	23.99	8.67	-85.2	-88.6	2.8	1.55e+00	0	47	104	0	60	1048575
2026-01-18 00:16:06.21	23.95	8.75	-85.2	-88.6	2.7	1.56e+00	0	47	104	0	60	1048574
2026-01-18 00:16:07.22	23.92	8.83	-85.2	-88.6	3.1	1.56e+00	0	47	104	0	60	1048575
2026-01-18 00:16:08.23	23.88	8.91	-85.2	-88.6	3.0	1.56e+00	0	47	104	0	60	1048574
2026-01-18 00:16:09.24	23.85	8.99	-85.2	-88.6	3.2	1.56e+00	0	47	104	0	60	1048574
2026-01-18 00:16:10.24	23.81	9.07	-85.2	-88.6	3.1	1.56e+00	0	47	104	0	60	1048575
2026-01-18 00:16:11.24	23.77	9.15	-85.2	-88.6	2.9	1.56e+00	0	47	104	0	60	1048573
2026-01-18 00:16:12.25	23.74	9.24	-85.2	-88.6	2.8	1.55e+00	0	47	104	0	60	1048573
2026-01-18 00:16:13.25	23.70	9.32	-85.2	-88.6	3.0	1.55e+00	0	47	104	0	60	1048573
2026-01-18 00:16:14.26	23.66	9.40	-85.2	-88.6	3.0	1.56e+00	0	47	104	0	60	1048575
2026-01-18 00:16:15.27	23.63	9.49	-85.2	-88.6	2.8	1.56e+00	0	47	104	0	60	1048574
2026-01-18 00:16:16.27	23.59	9.57	-85.2	-88.6	3.0	1.55e+00	0	47	104	0	60	1048575
2026-01-18 00:16:17.28	23.55	9.65	-85.2	-88.6	2.9	1.55e+00	0	47	104	0	60	1048575
2026-01-18 00:16:18.28	23.51	9.74	-85.2	-88.6	3.0	1.55e+00	0	47	104	0	60	1048572
2026-01-18 00:16:19.29	23.48	9.82	-85.2	-88.6	2.8	1.56e+00	0	47	104	0	60	1048575
2026-01-18 00:16:20.30	23.44	9.91	-85.2	-88.6	3.1	1.56e+00	0	47	104	0	60	1048575
2026-01-18 00:16:21.31	23.40	9.99	-85.2	-88.6	2.9	1.56e+00	0	47	104	0	60	1048575
2026-01-18 00:16:22.32	23.36	10.08	-85.2	-88.6	2.9	1.56e+00	0	47	104	0	60	1048574
2026-01-18 00:16:23.33	23.32	10.16	-85.2	-88.6	2.9	1.56e+00	0	47	104	0	60	1048575
2026-01-18 00:16:24.33	23.28	10.25	-85.2	-88.6	3.2	1.55e+00	0	47	104	0	60	1048575
2026-01-18 00:16:25.33	23.24	10.33	-85.2	-88.6	3.0	1.56e+00	0	47	104	0	60	1048575
2026-01-18 00:16:26.33	23.20	10.42	-85.2	-88.6	2.9	1.56e+00	0	47	104	0	60	1048575
2026-01-18 00:16:27.34	23.16	10.51	-85.2	-88.6	3.0	1.56e+00	0	47	104	0	60	1048572
2026-01-18 00:16:28.34	23.12	10.59	-85.2	-88.6	3.2	1.56e+00	0	47	104	0	60	1048573
2026-01-18 00:16:29.35	23.08	10.68	-85.2	-88.6	3.1	1.56e+00	0	47	104	0	60	1048575
2026-01-18 00:16:30.35	23.04	10.77	-85.2	-88.6	3.1	1.56e+00	0	47	104	0	60	1048574
2026-01-18 00:16:31.36	23.00	10.86	-85.2	-88.6	3.1	1.56e+00	0	47	104	0	60	1048575
2026-01-18 00:16:32.35	22.96	10.94	-84.7	-88.6	3.1	1.55e+00	0	47	104	0	60	1048574
2026-01-18 00:16:33.36	22.91	11.03	-85.2	-88.6	3.0	1.56e+00	0	47	104	0	60	1048571
2026-01-18 00:16:34.37	22.87	11.12	-85.2	-88.6	3.1	1.56e+00	0	47	104	0	60	1048575
2026-01-18 00:16:35.37	22.83	11.21	-85.2	-88.6	3.0	1.56e+00	0	47	104	0	60	1048574
2026-01-18 00:16:36.38	22.79	11.30	-85.2	-88.6	3.0	1.56e+00	0	47	104	0	60	1048575
2026-01-18 00:16:37.39	22.74	11.39	-85.2	-88.6	2.8	1.55e+00	0	47	104	0	60	1048573
2026-01-18 00:16:38.39	22.70	11.48	-85.2	-88.6	3.0	1.56e+00	0	47	104	0	60	1048575
2026-01-18 00:16:39.40	22.66	11.57	-85.2	-88.6	3.0	1.55e+00	0	47	104	0	60	1048575
2026-01-18 00:16:40.41	22.61	11.66	-85.2	-88.6	3.0	1.56e+00	0	47	104	0	60	1048575
2026-01-18 00:16:41.41	22.57	11.75	-85.2	-88.6	3.1	1.56e+00	0	47	104	0	60	1048575
2026-01-18 00:16:42.42	22.52	11.84	-85.2	-88.6	3.1	1.55e+00	0	47	104	0	60	1048573
2026-01-18 00:16:43.42	22.48	11.93	-85.2	-88.6	3.0	1.55e+00	0	47	104	0	60	1048575
2026-01-18 00:16:44.43	22.43	12.02	-85.2	-88.6	3.0	1.56e+00	0	47	104	0	60	1048575
2026-01-18 00:16:45.43	22.39	12.12	-85.2	-88.6	2.8	1.56e+00	0	47	104	0	60	1048573
2026-01-18 00:16:46.44	22.34	12.21	-85.2	-88.6	3.1	1.56e+00	0	47	104	0	60	1048575
2026-01-18 00:16:47.45	22.30	12.30	-85.2	-88.6	2.9	1.56e+00	0	47	104	0	60	1048575
2026-01-18 00:16:48.45	22.25	12.39	-85.2	-88.6	3.0	1.56e+00	0	47	104	0	60	1048575
2026-01-18 00:16:49.45	22.20	12.49	-85.2	-88.6	3.2	1.56e+00	0	47	104	0	60	1048575
2026-01-18 00:16:50.46	22.16	12.58	-85.2	-88.6	3.1	1.56e+00	0	47	104	0	60	1048568
2026-01-18 00:16:51.47	22.11	12.68	-84.3	-88.6	2.8	1.56e+00	0	47	104	0	60	1048575
2026-01-18 00:16:52.48	22.06	12.77	-85.2	-88.6	3.0	1.56e+00	0	47	104	0	60	1048575
2026-01-18 00:16:53.49	22.01	12.87	-85.2	-88.6	2.9	1.56e+00	0	47	104	0	60	1048575
2026-01-18 00:16:54.49	21.97	12.96	-85.2	-88.6	3.1	1.56e+00	0	47	104	0	60	1048574
2026-01-18 00:16:55.50	21.92	13.06	-85.2	-88.6	3.2	1.56e+00	0	47	104	0	60	1048570
2026-01-18 00:16:56.51	21.87	13.15	-85.2	-88.6	2.9	1.56e+00	0	47	104	0	60	1048573
2026-01-18 00:16:57.52	21.82	13.25	-85.2	-88.6	2.7	1.56e+00	0	47	104	0	60	1048575
2026-01-18 00:16:58.52	21.77	13.35	-85.2	-88.6	3.2	1.56e+00	0	47	104	0	60	1048574
2026-01-18 00:16:59.53	21.72	13.44	-85.2	-88.6	2.9	1.56e+00	0	47	104	0	60	1048572
2026-01-18 00:17:00.54	21.67	13.54	-85.2	-88.6	2.9	1.56e+00	0	47	104	0	60	1048575
2026-01-18 00:17:01.55	21.62	13.64	-85.2	-88.6	2.8	1.56e+00	0	47	104	0	60	1048575
2026-01-18 00:17:02.56	21.57	13.74	-85.2	-88.6	3.0	1.56e+00	0	47	104	0	60	1048575
2026-01-18 00:17:03.56	21.52	13.83	-85.2	-88.6	2.9	1.56e+00	0	47	104	0	60	1048574
2026-01-18 00:17:04.56	21.46	13.93	-85.2	-88.6	2.8	1.56e+00	0	47	104	0	60	1048572
2026-01-18 00:17:05.57	21.41	14.03	-85.2	-88.6	2.9	1.56e+00	0	47	104	0	60	1048574
2026-01-18 00:17:06.58	21.36	14.13	-85.2	-88.6	3.1	1.56e+00	0	47	104	0	60	1048574
2026-01-18 00:17:07.58	21.31	14.23	-85.2	-88.6	3.0	1.56e+00	0	47	104	0	60	1048575
2026-01-18 00:17:08.59	21.25	14.33	-85.2	-88.6	3.1	1.56e+00	0	47	104	0	60	1048575
2026-01-18 00:17:09.59	21.20	14.43	-85.2	-88.6	3.1	1.56e+00	0	47	104	0	60	1048575
2026-01-18 00:17:10.60	21.14	14.53	-85.2	-88.6	3.0	1.56e+00	0	47	104	0	60	1048574
2026-01-18 00:17:11.61	21.09	14.64	-85.2	-88.6	3.2	1.55e+00	0	47	104	0	60	1048572
2026-01-18 00:17:12.61	21.04	14.74	-85.2	-88.6	2.8	1.56e+00	0	47	104	0	60	1048575
2026-01-18 00:17:13.62	20.98	14.84	-84.7	-88.6	3.1	1.55e+00	0	47	104	0	60	1048575
2026-01-18 00:17:14.63	20.92	14.94	-85.2	-88.6	2.9	1.56e+00	0	47	104	0	60	1048574
2026-01-18 00:17:15.63	20.87	15.05	-85.2	-88.6	3.1	1.56e+00	0	47	104	0	60	1048575
2026-01-18 00:17:16.64	20.81	15.15	-85.2	-88.6	3.1	1.56e+00	0	47	104	0	60	1048574
2026-01-18 00:17:17.65	20.75	15.25	-81.5	-88.6	3.0	1.56e+00	0	47	104	0	60	1048575
2026-01-18 00:17:18.66	20.70	15.36	-85.2	-88.6	3.1	1.56e+00	0	47	104	0	60	1048574
2026-01-18 00:17:19.66	20.64	15.46	-85.2	-88.6	3.1	1.56e+00	0	47	104	0	60	1048564
2026-01-18 00:17:20.67	20.58	15.57	-85.2	-88.6	3.1	1.56e+00	0	47	104	0	60	1048575
2026-01-18 00:17:21.67	20.52	15.67	-85.2	-88.6	2.8	1.56e+00	0	47	104	0	60	1048574
2026-01-18 00:17:22.68	20.46	15.78	-85.2	-88.6	3.0	1.56e+00	0	47	104	0	60	1048574
2026-01-18 00:17:23.68	20.40	15.89	-84.7	-88.6	3.1	1.56e+00	0	47	104	0	60	1048575
2026-01-18 00:17:24.68	20.34	15.99	-85.2	-88.6	2.9	1.55e+00	0	47	104	0	60	1048575
2026-01-18 00:17:25.69	20.28	16.10	-85.2	-88.6	3.0	1.56e+00	0	47	104	0	60	1048574
2026-01-18 00:17:26.70	20.22	16.21	-85.2	-88.6	2.9	1.56e+00	0	47	104	0	60	1048573
2026-01-18 00:17:27.71	20.16	16.32	-85.2	-88.6	2.9	1.56e+00	0	47	104	0	60	1048575
2026-01-18 00:17:28.72	20.10	16.43	-85.2	-88.6	2.8	1.56e+00	0	47	104	0	60	1048575
2026-01-18 00:17:29.72	20.04	16.53	-85.2	-88.6	2.8	1.56e+00	0	47	104	0	60	1048572
2026-01-18 00:17:30.73	19.97	16.64	-85.2	-88.6	3.1	1.56e+00	0	47	104	0	60	1048574
2026-01-18 00:17:31.74	19.91	16.75	-85.2	-88.6	3.1	1.55e+00	0	47	104	0	60	1048573
2026-01-18 00:17:32.74	19.84	16.86	-85.2	-88.6	3.0	1.56e+00	0	47	104	0	60	1048575
2026-01-18 00:17:33.75	19.78	16.98	-85.2	-88.6	3.1	1.56e+00	0	47	104	0	60	1048575
2026-01-18 00:17:34.76	19.72	17.09	-85.2	-88.6	3.1	1.56e+00	0	47	104	0	60	1048574
2026-01-18 00:17:35.77	19.65	17.20	-85.2	-88.6	3.0	1.56e+00	0	47	104	0	60	1048575
2026-01-18 00:17:36.77	19.58	17.31	-85.2	-88.6	3.1	1.56e+00	0	47	104	0	60	1048575
2026-01-18 00:17:37.78	19.52	17.42	-85.2	-88.6	3.1	1.55e+00	0	47	104	0	60	1048573
2026-01-18 00:17:38.79	19.45	17.54	-85.2	-88.6	3.0	1.56e+00	0	47	104	0	60	1048575
2026-01-18 00:17:39.80	19.38	17.65	-85.2	-88.6	3.1	1.56e+00	0	47	104	0	60	1048575
2026-01-18 00:17:40.80	19.31	17.77	-85.2	-88.6	3.1	1.56e+00	0	47	104	0	60	1048573
2026-01-18 00:17:41.81	19.25	17.88	-85.2	-88.6	2.9	1.56e+00	0	47	104	0	60	1048575
2026-01-18 00:17:42.82	19.18	18.00	-85.2	-88.6	3.1	1.56e+00	0	47	104	0	60	1048575
2026-01-18 00:17:43.83	19.11	18.11	-85.2	-88.6	3.0	1.56e+00	0	47	104	0	60	1048575
2026-01-18 00:17:44.83	19.04	18.23	-85.2	-88.6	3.1	1.55e+00	0	47	104	0	60	1048575
2026-01-18 00:17:45.84	18.97	18.35	-85.2	-88.6	3.2	1.56e+00	0	47	104	0	60	1048575
2026-01-18 00:17:46.85	18.89	18.46	-85.2	-88.6	3.1	1.55e+00	0	47	104	0	60	1048572
2026-01-18 00:17:47.86	18.82	18.58	-85.2	-88.6	3.0	1.56e+00	0	47	104	0	60	1048573
2026-01-18 00:17:48.86	18.75	18.70	-85.2	-88.6	3.0	1.55e+00	0	47	104	0	60	1048575
2026-01-18 00:17:49.87	18.68	18.82	-85.2	-88.6	3.1	1.56e+00	0	47	104	0	60	1048574
2026-01-18 00:17:50.87	18.60	18.94	-85.2	-88.6	2.8	1.56e+00	0	47	104	0	60	1048572
2026-01-18 00:17:51.87	18.53	19.06	-85.2	-88.6	2.8	1.56e+00	0	47	104	0	60	1048575
2026-01-18 00:17:52.88	18.45	19.18	-85.2	-88.6	2.9	1.56e+00	0	47	104	0	60	1048573
2026-01-18 00:17:53.88	18.38	19.30	-85.2	-88.6	2.8	1.56e+00	0	47	104	0	60	1048572
2026-01-18 00:17:54.88	18.30	19.42	-85.2	-88.6	3.1	1.56e+00	0	47	104	0	60	1048575
2026-01-18 00:17:55.89	18.22	19.54	-85.2	-88.6	3.1	1.55e+00	0	47	104	0	60	1048574
2026-01-18 00:17:56.89	18.15	19.66	-85.2	-88.6	2.8	1.56e+00	0	47	104	0	60	1048575
2026-01-18 00:17:57.90	18.07	19.79	-85.2	-88.6	2.8	1.55e+00	0	47	104	0	60	1048572
2026-01-18 00:17:58.90	17.99	19.91	-85.2	-88.6	3.1	1.55e+00	0	47	104	0	60	1048568
2026-01-18 00:17:59.91	17.91	20.03	-85.2	-88.6	3.1	1.56e+00	0	47	104	0	60	1048574
2026-01-18 00:18:00.92	17.83	20.16	-85.2	-88.6	3.2	1.56e+00	0	47	104	0	60	1048573
2026-01-18 00:18:01.93	17.75	20.29	-85.2	-88.6	3.1	1.55e+00	0	47	104	0	60	1048575
2026-01-18 00:18:02.93	17.67	20.41	-85.2	-88.6	2.8	1.55e+00	0	47	104	0	60	1048575
2026-01-18 00:18:03.94	17.58	20.54	-85.2	-88.6	3.0	1.55e+00	0	47	104	0	60	1048574
2026-01-18 00:18:04.95	17.50	20.67	-85.2	-88.6	2.9	1.56e+00	0	47	104	0	60	1048572
2026-01-18 00:18:05.96	17.42	20.79	-85.2	-88.6	3.0	1.56e+00	0	47	104	0	60	1048575
2026-01-18 00:18:06.96	17.33	20.92	-85.2	-88.6	3.0	1.55e+00	0	47	104	0	60	1048572
2026-01-18 00:18:07.97	17.25	21.05	-85.2	-88.6	2.8	1.55e+00	0	47	104	0	60	1048575
2026-01-18 00:18:08.97	17.16	21.18	-85.2	-88.6	3.1	1.56e+00	0	47	104	0	60	1048571
2026-01-18 00:18:09.97	17.08	21.31	-85.2	-88.6	3.0	1.56e+00	0	47	104	0	60	1048574
2026-01-18 00:18:10.98	16.99	21.44	-85.2	-88.6	3.1	1.56e+00	0	47	104	0	60	1048574
2026-01-18 00:18:11.98	16.90	21.57	-85.2	-88.6	2.9	1.56e+00	0	47	104	0	60	1048575
2026-01-18 00:18:12.99	16.81	21.70	-85.2	-88.6	2.9	1.55e+00	0	47	104	0	60	1048575
2026-01-18 00:18:14.00	16.72	21.83	-85.2	-88.6	3.1	1.56e+00	0	47	104	0	60	1048569
2026-01-18 00:18:15.00	16.63	21.97	-85.2	-88.6	2.8	1.56e+00	0	47	104	0	60	1048573
2026-01-18 00:18:16.01	16.54	22.10	-85.2	-88.6	2.9	1.56e+00	0	47	104	0	60	1048574
2026-01-18 00:18:17.02	16.45	22.24	-85.2	-88.6	2.8	1.56e+00	0	47	104	0	60	1048574
2026-01-18 00:18:18.02	16.35	22.37	-85.2	-88.6	3.1	1.56e+00	0	47	104	0	60	1048575
2026-01-18 00:18:19.03	16.26	22.51	-85.2	-88.6	3.0	1.56e+00	0	47	104	0	60	1048575
2026-01-18 00:18:20.04	16.16	22.64	-85.2	-88.6	3.1	1.56e+00	0	47	104	0	60	1048575
2026-01-18 00:18:21.04	16.07	22.78	-85.2	-88.6	2.9	1.55e+00	0	47	104	0	60	1048575
2026-01-18 00:18:22.05	15.97	22.92	-85.2	-88.6	3.2	1.56e+00	0	47	104	0	60	1048570
2026-01-18 00:18:23.06	15.87	23.06	-85.2	-88.6	3.1	1.55e+00	0	47	104	0	60	1048575
2026-01-18 00:18:24.07	15.78	23.19	-85.2	-88.6	2.9	1.56e+00	0	47	104	0	60	1048575
2026-01-18 00:18:25.07	15.68	23.33	-83.9	-88.6	2.8	1.56e+00	0	47	104	0	60	1048575
2026-01-18 00:18:26.08	15.58	23.47	-85.2	-88.6	2.9	1.56e+00	0	47	104	0	60	1048575
2026-01-18 00:18:27.08	15.48	23.61	-85.2	-88.6	3.1	1.56e+00	0	47	104	0	60	1048570
2026-01-18 00:18:28.08	15.37	23.75	-85.2	-88.6	3.1	1.55e+00	0	47	104	0	60	1048575
2026-01-18 00:18:29.08	15.27	23.90	-85.2	-88.6	3.0	1.56e+00	0	47	104	0	60	1048575
2026-01-18 00:18:30.09	15.17	24.04	-85.2	-88.6	3.0	1.56e+00	0	47	104	0	60	1048575
2026-01-18 00:18:31.10	15.06	24.18	-85.2	-88.6	2.9	1.56e+00	0	47	104	0	60	1048575
2026-01-18 00:18:32.10	14.96	24.33	-85.2	-88.6	2.9	1.56e+00	0	47	104	0	60	1048575
2026-01-18 00:18:33.11	14.85	24.47	-85.2	-88.6	3.2	1.56e+00	0	47	104	0	60	1048575
2026-01-18 00:18:34.11	14.74	24.62	-85.2	-88.6	2.8	1.56e+00	0	47	104	0	60	1048575
2026-01-18 00:18:35.12	14.63	24.76	-85.2	-88.6	2.8	1.55e+00	0	47	104	0	60	1048574
2026-01-18 00:18:36.13	14.52	24.91	-85.2	-88.6	3.1	1.56e+00	0	47	104	0	60	1048572
2026-01-18 00:18:37.13	14.41	25.06	-85.2	-88.6	3.0	1.56e+00	0	47	104	0	60	1048575
2026-01-18 00:18:38.14	14.30	25.21	-85.2	-88.6	2.9	1.55e+00	0	47	104	0	60	1048574
2026-01-18 00:18:39.15	14.18	25.36	-85.2	-88.6	3.0	1.55e+00	0	47	104	0	60	1048575
2026-01-18 00:18:40.16	14.07	25.51	-85.2	-88.6	3.0	1.56e+00	0	47	104	0	60	1048574
2026-01-18 00:18:41.16	13.95	25.65	-85.2	-88.6	2.9	1.55e+00	0	47	104	0	60	1048575
2026-01-18 00:18:42.17	13.84	25.81	-85.2	-88.6	2.8	1.56e+00	0	47	104	0	60	1048575
2026-01-18 00:18:43.18	13.72	25.96	-85.2	-88.6	2.8	1.56e+00	0	47	104	0	60	1048575
2026-01-18 00:18:44.19	13.60	26.11	-85.2	-88.6	3.0	1.56e+00	0	47	104	0	60	1048574
2026-01-18 00:18:45.20	13.48	26.27	-85.2	-88.6	3.2	1.55e+00	0	47	104	0	60	1048574
2026-01-18 00:18:46.20	13.36	26.42	-85.2	-88.6	3.0	1.55e+00	0	47	104	0	60	1048575
2026-01-18 00:18:47.21	13.23	26.57	-85.2	-88.6	3.1	1.56e+00	0	47	104	0	60	1048575
2026-01-18 00:18:48.21	13.11	26.73	-85.2	-88.6	2.9	1.56e+00	0	47	104	0	60	1048575
2026-01-18 00:18:49.22	12.99	26.89	-85.2	-88.6	2.8	1.56e+00	0	47	104	0	60	1048575
2026-01-18 00:18:50.23	12.86	27.04	-85.2	-88.6	2.9	1.55e+00	0	47	104	0	60	1048575
2026-01-18 00:18:51.23	12.73	27.20	-85.2	-88.6	3.0	1.55e+00	0	47	104	0	60	1048575
2026-01-18 00:18:52.24	12.60	27.36	-85.2	-88.6	3.1	1.56e+00	0	47	104	0	60	1048575
2026-01-18 00:18:53.25	12.47	27.52	-85.2	-88.6	3.0	1.56e+00	0	47	104	0	60	1048575
2026-01-18 00:18:54.26	12.34	27.68	-85.2	-88.6	3.1	1.56e+00	0	47	104	0	60	1048574
2026-01-18 00:18:55.26	12.21	27.84	-85.2	-88.6	3.0	1.55e+00	0	47	104	0	60	1048575
2026-01-18 00:18:56.27	12.07	28.00	-85.2	-88.6	3.1	1.55e+00	0	47	104	0	60	1048575
2026-01-18 00:18:57.28	11.93	28.17	-85.2	-88.6	3.1	1.56e+00	0	47	104	0	60	1048575
2026-01-18 00:18:58.28	11.80	28.33	-85.2	-88.6	3.0	1.56e+00	0	47	104	0	60	1048575
2026-01-18 00:18:59.29	11.66	28.49	-85.2	-88.6	2.8	1.56e+00	0	47	104	0	60	1048574
2026-01-18 00:19:00.30	11.52	28.66	-85.2	-88.6	3.0	1.56e+00	0	47	104	0	60	1048575
2026-01-18 00:19:01.30	11.38	28.82	-85.2	-88.6	3.0	1.56e+00	0	47	104	0	60	1048573
2026-01-18 00:19:02.30	11.23	28.99	-85.2	-88.6	3.0	1.56e+00	0	47	104	0	60	1048573
2026-01-18 00:19:03.31	11.09	29.15	-85.2	-88.6	3.0	1.56e+00	0	47	104	0	60	1048575
2026-01-18 00:19:04.31	10.94	29.32	-85.2	-88.6	3.0	1.56e+00	0	47	104	0	60	1048573
2026-01-18 00:19:05.32	10.80	29.49	-85.2	-88.6	3.2	1.56e+00	0	47	104	0	60	1048575
2026-01-18 00:19:06.32	10.65	29.66	-85.2	-88.6	2.9	1.56e+00	0	47	104	0	60	1048575
2026-01-18 00:19:07.33	10.50	29.83	-85.2	-88.6	3.1	1.56e+00	0	47	104	0	60	1048575
2026-01-18 00:19:08.33	10.34	30.00	-85.2	-88.6	3.3	1.55e+00	0	47	104	0	60	1048575
2026-01-18 00:19:09.34	10.19	30.17	-85.2	-88.6	2.7	1.55e+00	0	47	104	0	60	1048575
2026-01-18 00:19:10.35	10.03	30.34	-85.2	-88.6	3.0	1.56e+00	0	47	104	0	60	1048575
2026-01-18 00:19:11.36	9.87	30.52	-85.2	-88.6	2.9	1.55e+00	0	47	104	0	60	1048571
2026-01-18 00:19:12.36	9.71	30.69	-85.2	-88.6	2.9	1.56e+00	0	47	104	0	60	1048574
2026-01-18 00:19:13.37	9.55	30.87	-85.2	-88.6	3.0	1.56e+00	0	47	104	0	60	1048575
2026-01-18 00:19:14.37	9.39	31.04	-85.2	-88.6	2.9	1.55e+00	0	47	104	0	60	1048575
2026-01-18 00:19:15.38	9.22	31.22	-85.2	-88.6	2.8	1.55e+00	0	47	104	0	60	1048572
2026-01-18 00:19:16.38	9.06	31.40	-85.2	-88.6	3.1	1.56e+00	0	47	104	0	60	1048573
2026-01-18 00:19:17.39	8.89	31.57	-85.2	-88.6	3.0	1.56e+00	0	47	104	0	60	1048575
2026-01-18 00:19:18.40	8.72	31.75	-85.2	-88.6	3.1	1.56e+00	0	47	104	0	60	1048574
2026-01-18 00:19:19.40	8.55	31.93	-85.2	-88.6	3.2	1.56e+00	0	47	104	0	60	1048574
2026-01-18 00:19:20.42	8.37	32.11	-85.2	-88.6	3.1	1.56e+00	0	47	104	0	60	1048572
2026-01-18 00:19:21.42	8.19	32.29	-85.2	-88.6	3.0	1.56e+00	0	47	104	0	60	1048573
2026-01-18 00:19:22.43	8.02	32.48	-85.2	-88.6	3.2	1.56e+00	0	47	104	0	60	1048575
2026-01-18 00:19:23.44	7.83	32.66	-85.2	-88.6	2.9	1.55e+00	0	47	104	0	60	1048575
2026-01-18 00:19:24.44	7.65	32.84	-85.2	-88.6	3.0	1.55e+00	0	47	104	0	60	1048574
2026-01-18 00:19:25.45	7.47	33.03	-85.2	-88.6	2.8	1.56e+00	0	47	104	0	60	1048572
2026-01-18 00:19:26.46	7.28	33.21	-85.2	-88.6	3.1	1.56e+00	0	47	104	0	60	1048574
2026-01-18 00:19:27.47	7.09	33.40	-85.2	-88.6	2.9	1.56e+00	0	47	104	0	60	1048574
2026-01-18 00:19:28.47	6.90	33.59	-83.5	-88.6	3.0	1.56e+00	0	47	104	0	60	1048575
2026-01-18 00:19:29.48	6.70	33.78	-85.2	-88.6	3.0	1.56e+00	0	47	104	0	60	1048575
2026-01-18 00:19:30.49	6.51	33.96	-85.2	-88.6	3.2	1.56e+00	0	47	104	0	60	1048575
2026-01-18 00:19:31.49	6.31	34.15	-85.2	-88.6	3.0	1.56e+00	0	47	104	0	60	1048574
2026-01-18 00:19:32.50	6.11	34.34	-85.2	-88.6	2.9	1.56e+00	0	47	104	0	60	1048573
2026-01-18 00:19:33.51	5.91	34.53	-85.2	-88.6	3.0	1.56e+00	0	47	104	0	60	1048575
2026-01-18 00:19:34.52	5.70	34.73	-85.2	-88.6	2.9	1.56e+00	0	47	104	0	60	1048575
2026-01-18 00:19:35.52	5.49	34.92	-85.2	-88.6	3.1	1.56e+00	0	47	104	0	60	1048572
2026-01-18 00:19:36.53	5.28	35.11	-85.2	-88.6	3.0	1.56e+00	0	47	104	0	60	1048574
2026-01-18 00:19:37.54	5.07	35.30	-85.2	-88.6	2.9	1.55e+00	0	47	104	0	60	1048575
2026-01-18 00:19:38.54	4.85	35.50	-84.3	-88.6	2.9	1.55e+00	0	47	104	0	60	1048575
2026-01-18 00:19:39.54	4.64	35.69	-85.2	-88.6	3.1	1.56e+00	0	47	104	0	60	1048575
2026-01-18 00:19:40.55	4.42	35.89	-85.2	-88.6	2.8	1.55e+00	0	47	104	0	60	1048574
2026-01-18 00:19:41.56	4.19	36.08	-85.2	-88.6	2.8	1.56e+00	0	47	104	0	60	1048575
2026-01-18 00:19:42.57	3.96	36.28	-85.2	-88.6	3.0	1.56e+00	0	47	104	0	60	1048572
2026-01-18 00:19:43.57	3.74	36.48	-85.2	-88.6	2.9	1.56e+00	0	47	104	0	60	1048572
2026-01-18 00:19:44.58	3.50	36.68	-85.2	-88.6	3.1	1.56e+00	0	47	104	0	60	1048573
2026-01-18 00:19:45.59	3.27	36.88	-85.2	-88.6	3.0	1.56e+00	0	47	104	0	60	1048574
2026-01-18 00:19:46.59	3.03	37.08	-85.2	-88.6	2.8	1.55e+00	0	47	104	0	60	1048575
2026-01-18 00:19:47.60	2.79	37.28	-85.2	-88.6	2.9	1.56e+00	0	47	104	0	60	1048575
2026-01-18 00:19:48.60	2.55	37.48	-85.2	-88.6	3.1	1.56e+00	0	47	104	0	60	1048574
2026-01-18 00:19:49.61	2.30	37.68	-85.2	-88.6	3.0	1.56e+00	0	47	104	0	60	1048574
2026-01-18 00:19:50.61	2.05	37.88	-85.2	-88.6	2.9	1.55e+00	0	47	104	0	60	1048575
2026-01-18 00:19:51.62	1.80	38.08	-85.2	-88.6	3.0	1.55e+00	0	47	104	0	60	1048575
2026-01-18 00:19:52.63	1.54	38.29	-85.2	-88.6	2.7	1.55e+00	0	47	104	0	60	1048574
2026-01-18 00:19:53.64	1.28	38.49	-84.3	-88.6	3.0	1.56e+00	0	47	104	0	60	1048575
2026-01-18 00:19:54.65	1.01	38.70	-85.2	-88.6	3.0	1.56e+00	0	47	104	0	60	1048574
2026-01-18 00:19:55.65	0.75	38.90	-85.2	-88.6	3.0	1.56e+00	0	47	104	0	60	1048575
2026-01-18 00:19:56.66	0.48	39.11	-85.2	-88.6	3.0	1.56e+00	0	47	104	0	60	1048575
2026-01-18 00:19:57.67	0.20	39.31	-85.2	-88.6	3.1	1.56e+00	0	47	104	0	60	1048573
2026-01-18 00:19:58.68	359.93	39.52	-84.7	-88.6	3.1	1.55e+00	0	47	104	0	60	1048574
2026-01-18 00:19:59.69	359.65	39.73	-85.2	-88.6	3.0	1.55e+00	0	47	104	0	60	1048575
2026-01-18 00:20:00.70	359.36	39.94	-85.2	-88.6	2.9	1.56e+00	0	47	104	0	60	1048574
2026-01-18 00:20:01.71	359.07	40.15	-85.2	-88.6	2.9	1.55e+00	0	47	104	0	60	1048574
2026-01-18 00:20:02.71	358.78	40.35	-85.2	-88.6	3.1	1.56e+00	0	47	104	0	60	1048574
2026-01-18 00:20:03.72	358.49	40.56	-85.2	-88.6	2.9	1.56e+00	0	47	104	0	60	1048574
2026-01-18 00:20:04.72	358.19	40.77	-85.2	-88.6	3.0	1.56e+00	0	47	104	0	60	1048574
2026-01-18 00:20:05.72	357.89	40.98	-85.2	-88.6	3.1	1.55e+00	0	47	104	0	60	1048573
2026-01-18 00:20:06.72	357.58	41.19	-85.2	-88.6	3.1	1.56e+00	0	47	104	0	60	1048575
2026-01-18 00:20:07.73	357.27	41.40	-85.2	-88.6	2.7	1.56e+00	0	47	104	0	60	1048574
2026-01-18 00:20:08.74	356.95	41.61	-84.7	-88.6	3.0	1.55e+00	0	47	104	0	60	1048575
2026-01-18 00:20:09.74	356.64	41.82	-85.2	-88.6	2.9	1.56e+00	0	47	104	0	60	1048575
2026-01-18 00:20:10.75	356.31	42.03	-85.2	-88.6	3.2	1.56e+00	0	47	104	0	60	1048574
2026-01-18 00:20:11.76	355.98	42.24	-85.2	-88.6	2.9	1.56e+00	0	47	104	0	60	1048574
2026-01-18 00:20:12.77	355.65	42.45	-85.2	-88.6	2.9	1.55e+00	0	47	104	0	60	1048574
2026-01-18 00:20:13.77	355.31	42.66	-85.2	-88.6	2.9	1.56e+00	0	47	104	0	60	1048575
2026-01-18 00:20:14.78	354.97	42.87	-85.2	-88.6	3.0	1.56e+00	0	47	104	0	60	1048573
2026-01-18 00:20:15.79	354.62	43.08	-85.2	-88.6	2.9	1.56e+00	0	47	104	0	60	1048575
2026-01-18 00:20:16.80	354.27	43.29	-85.2	-88.6	2.9	1.56e+00	0	47	104	0	60	1048575
2026-01-18 00:20:17.80	353.92	43.50	-84.7	-88.6	3.0	1.56e+00	0	47	104	0	60	1048575
2026-01-18 00:20:18.81	353.56	43.71	-85.2	-88.6	3.0	1.55e+00	0	47	104	0	60	1048574
2026-01-18 00:20:19.82	353.19	43.93	-83.5	-88.6	2.9	1.56e+00	0	47	104	0	60	1048574
2026-01-18 00:20:20.83	352.82	44.14	-85.2	-88.6	3.1	1.56e+00	0	47	104	0	60	1048575
2026-01-18 00:20:21.84	352.44	44.35	-85.2	-88.6	2.9	1.56e+00	0	47	104	0	60	1048571
2026-01-18 00:20:22.84	352.07	44.56	-85.2	-88.6	2.9	1.56e+00	0	47	104	0	60	1048575
2026-01-18 00:20:23.85	351.68	44.77	-84.7	-88.6	2.9	1.55e+00	0	47	104	0	60	1048575
2026-01-18 00:20:24.86	351.29	44.98	-85.2	-88.6	2.9	1.55e+00	0	47	104	0	60	1048574
2026-01-18 00:20:25.87	350.89	45.19	-85.2	-88.6	2.6	1.56e+00	0	47	104	0	60	1048574
2026-01-18 00:20:26.87	350.49	45.39	-85.2	-88.6	3.2	1.56e+00	0	47	104	0	60	1048574
2026-01-18 00:20:27.87	350.09	45.60	-85.2	-88.6	3.0	1.56e+00	0	47	104	0	60	1048575
2026-01-18 00:20:28.88	349.68	45.81	-84.7	-88.6	2.8	1.55e+00	0	47	104	0	60	1048573
2026-01-18 00:20:29.88	349.27	46.01	-85.2	-88.6	2.9	1.55e+00	0	47	104	0	60	1048575
2026-01-18 00:20:30.89	348.84	46.22	-85.2	-88.6	3.2	1.56e+00	0	47	104	0	60	1048575
2026-01-18 00:20:31.90	348.41	46.42	-85.2	-88.6	3.1	1.56e+00	0	47	104	0	60	1048574
2026-01-18 00:20:32.91	347.98	46.63	-85.2	-88.6	3.0	1.56e+00	0	47	104	0	60	1048575
2026-01-18 00:20:33.91	347.54	46.83	-85.2	-88.6	2.9	1.56e+00	0	47	104	0	60	1048575
2026-01-18 00:20:34.92	347.09	47.04	-85.2	-88.6	2.9	1.55e+00	0	47	104	0	60	1048573
2026-01-18 00:20:35.93	346.64	47.24	-85.2	-88.6	3.1	1.55e+00	0	47	104	0	60	1048575
2026-01-18 00:20:36.93	346.19	47.44	-85.2	-88.6	3.0	1.55e+00	0	47	104	0	60	1048574
2026-01-18 00:20:37.94	345.72	47.64	-85.2	-88.6	3.2	1.56e+00	0	47	104	0	60	1048572
2026-01-18 00:20:38.95	345.25	47.84	-85.2	-88.6	2.9	1.56e+00	0	47	104	0	60	1048575
2026-01-18 00:20:39.96	344.78	48.04	-85.2	-88.6	3.0	1.56e+00	0	47	104	0	60	1048574
2026-01-18 00:20:40.96	344.30	48.23	-85.2	-88.6	3.1	1.56e+00	0	47	104	0	60	1048574
2026-01-18 00:20:41.97	343.81	48.43	-85.2	-88.6	3.0	1.56e+00	0	47	104	0	60	1048574
2026-01-18 00:20:42.98	343.32	48.62	-85.2	-88.6	2.8	1.56e+00	0	47	104	0	60	1048575
2026-01-18 00:20:43.99	342.82	48.81	-85.2	-88.6	2.8	1.56e+00	0	47	104	0	60	1048573
2026-01-18 00:20:44.99	342.31	49.00	-85.2	-88.6	3.0	1.56e+00	0	47	104	0	60	1048573
2026-01-18 00:20:46.00	341.80	49.19	-85.2	-88.6	2.9	1.56e+00	0	47	104	0	60	1048571
2026-01-18 00:20:47.01	341.28	49.38	-85.2	-88.6	3.0	1.56e+00	0	47	104	0	60	1048575
2026-01-18 00:20:48.02	340.75	49.56	-85.2	-88.6	2.9	1.56e+00	0	47	104	0	60	1048574
2026-01-18 00:20:49.03	340.22	49.75	-85.2	-88.6	3.2	1.56e+00	0	47	104	0	60	1048570
2026-01-18 00:20:50.04	339.68	49.93	-85.2	-88.6	2.9	1.55e+00	0	47	104	0	60	1048575
2026-01-18 00:20:51.04	339.14	50.11	-85.2	-88.6	3.0	1.55e+00	0	47	104	0	60	1048573
2026-01-18 00:20:52.05	338.59	50.29	-85.2	-88.6	2.9	1.56e+00	0	47	104	0	60	1048574
2026-01-18 00:20:53.06	338.03	50.46	-85.2	-88.6	2.9	1.56e+00	0	47	104	0	60	1048573
2026-01-18 00:20:54.06	337.47	50.63	-85.2	-88.6	3.1	1.55e+00	0	47	104	0	60	1048575
2026-01-18 00:20:55.07	336.89	50.80	-85.2	-88.6	3.1	1.56e+00	0	47	104	0	60	1048573
2026-01-18 00:20:56.07	336.32	50.97	-85.2	-88.6	3.0	1.56e+00	0	47	104	0	60	1048575
2026-01-18 00:20:57.08	335.74	51.14	-85.2	-88.6	2.9	1.56e+00	0	47	104	0	60	1048574
2026-01-18 00:20:58.08	335.15	51.30	-85.2	-88.6	3.0	1.56e+00	0	47	104	0	60	1048574
2026-01-18 00:20:59.09	334.55	51.46	-85.2	-88.6	2.9	1.56e+00	0	47	104	0	60	1048574
2026-01-18 00:21:00.09	333.95	51.62	-85.2	-88.6	3.0	1.56e+00	0	47	104	0	60	1048575
2026-01-18 00:21:01.10	333.34	51.77	-85.2	-88.6	3.0	1.55e+00	0	47	104	0	60	1048575
2026-01-18 00:21:02.11	332.73	51.92	-85.2	-88.6	2.9	1.55e+00	0	47	104	0	60	1048574
2026-01-18 00:21:03.11	332.11	52.07	-85.2	-88.6	3.2	1.55e+00	0	47	104	0	60	1048574
2026-01-18 00:21:04.12	331.48	52.22	-85.2	-88.6	3.0	1.56e+00	0	47	104	0	60	1048574
2026-01-18 00:21:05.13	330.84	52.36	-85.2	-88.6	3.1	1.56e+00	0	47	104	0	60	1048575
2026-01-18 00:21:06.14	330.20	52.50	-85.2	-88.6	3.0	1.56e+00	0	47	104	0	60	1048575
2026-01-18 00:21:07.14	329.56	52.64	-85.2	-88.6	3.2	1.56e+00	0	47	104	0	60	1048575
2026-01-18 00:21:08.14	328.91	52.77	-85.2	-88.6	3.0	1.56e+00	0	47	104	0	60	1048575
2026-01-18 00:21:09.15	328.25	52.90	-85.2	-88.6	2.9	1.55e+00	0	47	104	0	60	1048573
2026-01-18 00:21:10.16	327.58	53.02	-85.2	-88.6	3.1	1.55e+00	0	47	104	0	60	1048574
2026-01-18 00:21:11.16	326.92	53.14	-85.2	-88.6	3.0	1.56e+00	0	47	104	0	60	1048575
2026-01-18 00:21:12.17	326.24	53.26	-85.2	-88.6	3.0	1.56e+00	0	47	104	0	60	1048575
2026-01-18 00:21:13.18	325.56	53.38	-85.2	-88.6	3.0	1.56e+00	0	47	104	0	60	1048574
2026-01-18 00:21:14.19	324.87	53.49	-85.2	-88.6	3.1	1.56e+00	0	47	104	0	60	1048574
2026-01-18 00:21:15.19	324.19	53.59	-85.2	-88.6	3.0	1.56e+00	0	47	104	0	60	1048575
2026-01-18 00:21:16.20	323.49	53.69	-85.2	-88.6	2.8	1.56e+00	0	47	104	0	60	1048574
2026-01-18 00:21:17.21	322.78	53.79	-85.2	-88.6	3.0	1.56e+00	0	47	104	0	60	1048575
2026-01-18 00:21:18.20	322.09	53.89	-85.2	-88.6	2.9	1.56e+00	0	47	104	0	60	1048572
2026-01-18 00:21:19.21	321.38	53.98	-85.2	-88.6	2.9	1.55e+00	0	47	104	0	60	1048574
2026-01-18 00:21:20.22	320.66	54.06	-85.2	-88.6	2.9	1.55e+00	0	47	104	0	60	1048575
2026-01-18 00:21:21.23	319.94	54.14	-85.2	-88.6	3.1	1.56e+00	0	47	104	0	60	1048573
2026-01-18 00:21:22.24	319.22	54.22	-85.2	-88.6	3.2	1.56e+00	0	47	104	0	60	1048575
2026-01-18 00:21:23.25	318.49	54.29	-85.2	-88.6	2.9	1.56e+00	0	47	104	0	60	1048575
2026-01-18 00:21:24.25	317.76	54.36	-85.2	-88.6	3.2	1.56e+00	0	47	104	0	60	1048575
2026-01-18 00:21:25.26	317.03	54.42	-85.2	-88.6	3.1	1.56e+00	0	47	104	0	60	1048575
2026-01-18 00:21:26.27	316.29	54.48	-85.2	-88.6	3.1	1.56e+00	0	47	104	0	60	1048574
2026-01-18 00:21:27.28	315.55	54.53	-85.2	-88.6	3.1	1.55e+00	0	47	104	0	60	1048574
2026-01-18 00:21:28.28	314.81	54.58	-85.2	-88.6	3.0	1.56e+00	0	47	104	0	60	1048573
2026-01-18 00:21:29.29	314.06	54.62	-85.2	-88.6	3.0	1.56e+00	0	47	104	0	60	1048575
2026-01-18 00:21:30.30	313.32	54.66	-85.2	-88.6	3.1	1.56e+00	0	47	104	0	60	1048574
2026-01-18 00:21:31.31	312.56	54.70	-85.2	-88.6	3.1	1.56e+00	0	47	104	0	60	1048572
2026-01-18 00:21:32.31	311.82	54.73	-85.2	-88.6	2.9	1.56e+00	0	47	104	0	60	1048575
2026-01-18 00:21:33.32	311.07	54.75	-85.2	-88.6	3.0	1.56e+00	0	47	104	0	60	1048574
2026-01-18 00:21:34.33	310.31	54.77	-84.7	-88.6	3.0	1.56e+00	0	47	104	0	60	1048574
2026-01-18 00:21:35.34	309.55	54.78	-85.2	-88.6	3.1	1.56e+00	0	47	104	0	60	1048575
2026-01-18 00:21:36.34	308.81	54.79	-85.2	-88.6	3.1	1.56e+00	0	47	104	0	60	1048573
2026-01-18 00:21:37.35	308.05	54.80	-85.2	-88.6	3.2	1.55e+00	0	47	104	0	60	1048575
2026-01-18 00:21:38.35	307.30	54.80	-85.2	-88.6	2.9	1.55e+00	0	47	104	0	60	1048574
2026-01-18 00:21:39.36	306.54	54.79	-84.7	-88.6	3.0	1.56e+00	0	47	104	0	60	1048573
2026-01-18 00:21:40.37	305.79	54.78	-85.2	-88.6	3.2	1.56e+00	0	47	104	0	60	1048574
2026-01-18 00:21:41.38	305.03	54.77	-85.2	-88.6	2.9	1.55e+00	0	47	104	0	60	1048574
2026-01-18 00:21:42.38	304.28	54.75	-85.2	-88.6	3.0	1.56e+00	0	47	104	0	60	1048574
2026-01-18 00:21:43.39	303.53	54.72	-85.2	-88.6	3.0	1.56e+00	0	47	104	0	60	1048573
2026-01-18 00:21:44.40	302.78	54.69	-84.7	-88.6	3.1	1.55e+00	0	47	104	0	60	1048573
2026-01-18 00:21:45.41	302.02	54.66	-85.2	-88.6	2.9	1.56e+00	0	47	104	0	60	1048575
2026-01-18 00:21:46.41	301.28	54.62	-85.2	-88.6	2.9	1.56e+00	0	47	104	0	60	1048573
2026-01-18 00:21:47.41	300.54	54.57	-85.2	-88.6	3.1	1.56e+00	0	47	104	0	60	1048575
2026-01-18 00:21:48.41	299.81	54.52	-85.2	-88.6	3.0	1.56e+00	0	47	104	0	60	1048575
2026-01-18 00:21:49.42	299.07	54.47	-85.2	-88.6	2.9	1.56e+00	0	47	104	0	60	1048575
2026-01-18 00:21:50.42	298.34	54.41	-85.2	-88.6	3.0	1.56e+00	0	47	104	0	60	1048573
2026-01-18 00:21:51.43	297.60	54.35	-85.2	-88.6	3.1	1.56e+00	0	47	104	0	60	1048574
2026-01-18 00:21:52.43	296.88	54.28	-85.2	-88.6	2.8	1.56e+00	0	47	104	0	60	1048575
2026-01-18 00:21:53.44	296.15	54.21	-85.2	-88.6	2.8	1.55e+00	0	47	104	0	60	1048575
2026-01-18 00:21:54.45	295.42	54.13	-85.2	-88.6	3.0	1.56e+00	0	47	104	0	60	1048573
2026-01-18 00:21:55.45	294.71	54.05	-85.2	-88.6	3.2	1.56e+00	0	47	104	0	60	1048573
2026-01-18 00:21:56.46	293.99	53.96	-85.2	-88.6	3.1	1.56e+00	0	47	104	0	60	1048573
2026-01-18 00:21:57.47	293.28	53.87	-85.2	-88.6	3.0	1.56e+00	0	47	104	0	60	1048574
2026-01-18 00:21:58.48	292.57	53.77	-85.2	-88.6	3.1	1.55e+00	0	47	104	0	60	1048575
2026-01-18 00:21:59.48	291.88	53.68	-85.2	-88.6	3.3	1.56e+00	0	47	104	0	60	1048574
2026-01-18 00:22:00.49	291.18	53.57	-85.2	-88.6	3.1	1.55e+00	0	47	104	0	60	1048575
2026-01-18 00:22:01.50	290.49	53.47	-85.2	-88.6	2.9	1.56e+00	0	47	104	0	60	1048575
2026-01-18 00:22:02.51	289.80	53.35	-85.2	-88.6	3.0	1.56e+00	0	47	104	0	60	1048573
2026-01-18 00:22:03.52	289.12	53.24	-85.2	-88.6	3.1	1.56e+00	0	47	104	0	60	1048575
2026-01-18 00:22:04.53	288.44	53.12	-85.2	-88.6	3.2	1.56e+00	0	47	104	0	60	1048575
2026-01-18 00:22:05.53	287.78	53.00	-85.2	-88.6	2.8	1.56e+00	0	47	104	0	60	1048573
2026-01-18 00:22:06.54	287.11	52.87	-85.2	-88.6	2.9	1.56e+00	0	47	104	0	60	1048574
2026-01-18 00:22:07.55	286.45	52.74	-85.2	-88.6	3.2	1.55e+00	0	47	104	0	60	1048573
2026-01-18 00:22:08.55	285.80	52.61	-85.2	-88.6	3.0	1.55e+00	0	47	104	0	60	1048574
2026-01-18 00:22:09.56	285.16	52.47	-85.2	-88.6	3.1	1.56e+00	0	47	104	0	60	1048574
2026-01-18 00:22:10.57	284.52	52.33	-85.2	-88.6	2.8	1.56e+00	0	47	104	0	60	1048573
2026-01-18 00:22:11.58	283.88	52.19	-85.2	-88.6	3.1	1.56e+00	0	47	104	0	60	1048575
2026-01-18 00:22:12.59	283.25	52.04	-85.2	-88.6	3.0	1.56e+00	0	47	104	0	60	1048574
2026-01-18 00:22:13.59	282.63	51.89	-85.2	-88.6	3.1	1.56e+00	0	47	104	0	60	1048575
2026-01-18 00:22:14.60	282.02	51.74	-85.2	-88.6	3.1	1.55e+00	0	47	104	0	60	1048574
2026-01-18 00:22:15.61	281.41	51.58	-85.2	-88.6	2.9	1.55e+00	0	47	104	0	60	1048572
2026-01-18 00:22:16.62	280.80	51.42	-85.2	-88.6	3.0	1.56e+00	0	47	104	0	60	1048575
2026-01-18 00:22:17.62	280.21	51.26	-85.2	-88.6	3.0	1.56e+00	0	47	104	0	60	1048574
2026-01-18 00:22:18.62	279.63	51.10	-85.2	-88.6	2.9	1.56e+00	0	47	104	0	60	1048574
2026-01-18 00:22:19.63	279.04	50.93	-85.2	-88.6	3.1	1.56e+00	0	47	104	0	60	1048575
2026-01-18 00:22:20.63	278.47	50.77	-85.2	-88.6	3.0	1.56e+00	0	47	104	0	60	1048570
2026-01-18 00:22:21.63	277.90	50.60	-85.2	-88.6	3.1	1.56e+00	0	47	104	0	60	1048573
2026-01-18 00:22:22.64	277.34	50.42	-85.2	-88.6	2.9	1.56e+00	0	47	104	0	60	1048575
2026-01-18 00:22:23.64	276.79	50.25	-85.2	-88.6	3.1	1.56e+00	0	47	104	0	60	1048574
2026-01-18 00:22:24.65	276.23	50.07	-85.2	-88.6	2.8	1.56e+00	0	47	104	0	60	1048575
2026-01-18 00:22:25.65	275.69	49.89	-85.2	-88.6	3.0	1.56e+00	0	47	104	0	60	1048575
2026-01-18 00:22:26.66	275.15	49.71	-85.2	-88.6	3.0	1.56e+00	0	47	104	0	60	1048574
2026-01-18 00:22:27.67	274.62	49.52	-84.7	-88.6	3.0	1.56e+00	0	47	104	0	60	1048571
2026-01-18 00:22:28.68	274.10	49.34	-82.2	-88.6	2.8	1.56e+00	0	47	104	0	60	1048574
2026-01-18 00:22:29.68	273.58	49.15	-85.2	-88.6	3.1	1.56e+00	0	47	104	0	60	1048574
2026-01-18 00:22:30.69	273.07	48.96	-85.2	-88.6	3.1	1.56e+00	0	47	104	0	60	1048573
2026-01-18 00:22:31.70	272.56	48.77	-85.2	-88.6	3.1	1.56e+00	0	47	104	0	60	1048575
2026-01-18 00:22:32.71	272.06	48.58	-85.2	-88.6	2.8	1.56e+00	0	47	104	0	60	1048575
2026-01-18 00:22:33.71	271.57	48.38	-85.2	-88.6	3.0	1.56e+00	0	47	104	0	60	1048569
2026-01-18 00:22:34.72	271.08	48.19	-85.2	-88.6	3.1	1.56e+00	0	47	104	0	60	1048575
2026-01-18 00:22:35.72	270.60	47.99	-85.2	-88.6	3.1	1.56e+00	0	47	104	0	60	1048573
2026-01-18 00:22:36.73	270.13	47.79	-85.2	-88.6	2.8	1.56e+00	0	47	104	0	60	1048574
2026-01-18 00:22:37.74	269.66	47.59	-85.2	-88.6	3.0	1.56e+00	0	47	104	0	60	1048575
2026-01-18 00:22:38.74	269.20	47.39	-85.2	-88.6	2.8	1.56e+00	0	47	104	0	60	1048575
2026-01-18 00:22:39.75	268.74	47.19	-85.2	-88.6	3.0	1.56e+00	0	47	104	0	60	1048575
2026-01-18 00:22:40.76	268.29	46.99	-85.2	-88.6	3.1	1.56e+00	0	47	104	0	60	1048575
2026-01-18 00:22:41.76	267.85	46.79	-85.2	-88.6	3.0	1.56e+00	0	47	104	0	60	1048574
2026-01-18 00:22:42.77	267.41	46.58	-84.3	-88.6	3.0	1.56e+00	0	47	104	0	60	1048575
2026-01-18 00:22:43.78	266.97	46.38	-85.2	-88.6	3.1	1.55e+00	0	47	104	0	60	1048575
2026-01-18 00:22:44.79	266.54	46.17	-85.2	-88.6	2.7	1.56e+00	0	47	104	0	60	1048573
2026-01-18 00:22:45.80	266.12	45.96	-85.2	-88.6	3.1	1.56e+00	0	47	104	0	60	1048573
2026-01-18 00:22:46.80	265.71	45.76	-85.2	-88.6	3.0	1.55e+00	0	47	104	0	60	1048573
2026-01-18 00:22:47.81	265.29	45.55	-85.2	-88.6	3.0	1.56e+00	0	47	104	0	60	1048573
2026-01-18 00:22:48.81	264.89	45.34	-85.2	-88.6	3.1	1.56e+00	0	47	104	0	60	1048575
2026-01-18 00:22:49.82	264.49	45.13	-85.2	-88.6	2.9	1.56e+00	0	47	104	0	60	1048575
2026-01-18 00:22:50.83	264.09	44.92	-85.2	-88.6	3.1	1.56e+00	0	47	104	0	60	1048575
2026-01-18 00:22:51.84	263.70	44.71	-85.2	-88.6	3.1	1.56e+00	0	47	104	0	60	1048575
2026-01-18 00:22:52.85	263.32	44.50	-85.2	-88.6	3.0	1.56e+00	0	47	104	0	60	1048565
2026-01-18 00:22:53.85	262.94	44.29	-84.7	-88.6	2.8	1.56e+00	0	47	104	0	60	1048575
2026-01-18 00:22:54.86	262.56	44.08	-85.2	-88.6	3.0	1.56e+00	0	47	104	0	60	1048575
2026-01-18 00:22:55.86	262.20	43.87	-85.2	-88.6	3.0	1.56e+00	0	47	104	0	60	1048574
2026-01-18 00:22:56.86	261.84	43.66	-85.2	-88.6	3.1	1.56e+00	0	47	104	0	60	1048570
2026-01-18 00:22:57.87	261.47	43.45	-85.2	-88.6	2.9	1.56e+00	0	47	104	0	60	1048574
2026-01-18 00:22:58.87	261.12	43.24	-85.2	-88.6	3.0	1.56e+00	0	47	104	0	60	1048569
2026-01-18 00:22:59.88	260.77	43.03	-85.2	-88.6	3.0	1.56e+00	0	47	104	0	60	1048575
2026-01-18 00:23:00.88	260.43	42.82	-85.2	-88.6	3.0	1.56e+00	0	47	104	0	60	1048575
2026-01-18 00:23:01.89	260.08	42.61	-85.2	-88.6	3.1	1.56e+00	0	47	104	0	60	1048575
2026-01-18 00:23:02.90	259.75	42.39	-85.2	-88.6	3.0	1.56e+00	0	47	104	0	60	1048574
2026-01-18 00:23:03.90	259.42	42.18	-85.2	-88.6	3.0	1.56e+00	0	47	104	0	60	1048574
2026-01-18 00:23:04.91	259.09	41.97	-85.2	-88.6	2.9	1.56e+00	0	47	104	0	60	1048575
2026-01-18 00:23:05.91	258.77	41.76	-85.2	-88.6	3.0	1.55e+00	0	47	104	0	60	1048574
2026-01-18 00:23:06.91	258.45	41.55	-85.2	-88.6	3.2	1.55e+00	0	47	104	0	60	1048571
2026-01-18 00:23:07.91	258.13	41.34	-85.2	-88.6	2.9	1.56e+00	0	47	104	0	60	1048575
2026-01-18 00:23:08.92	257.82	41.13	-85.2	-88.6	2.6	1.56e+00	0	47	104	0	60	1048575
2026-01-18 00:23:09.93	257.51	40.92	-85.2	-88.6	3.1	1.55e+00	0	47	104	0	60	1048575
2026-01-18 00:23:10.94	257.21	40.71	-85.2	-88.6	3.0	1.56e+00	0	47	104	0	60	1048575
2026-01-18 00:23:11.94	256.91	40.50	-85.2	-88.6	3.0	1.56e+00	0	47	104	0	60	1048571
2026-01-18 00:23:12.95	256.62	40.29	-85.2	-88.6	3.0	1.55e+00	0	47	104	0	60	1048573
2026-01-18 00:23:13.96	256.32	40.08	-85.2	-88.6	3.0	1.55e+00	0	47	104	0	60	1048575
2026-01-18 00:23:14.96	256.04	39.88	-85.2	-88.6	2.9	1.56e+00	0	47	104	0	60	1048575
2026-01-18 00:23:15.97	255.75	39.67	-85.2	-88.6	3.0	1.56e+00	0	47	104	0	60	1048574
2026-01-18 00:23:16.98	255.47	39.46	-85.2	-88.6	3.0	1.56e+00	0	47	104	0	60	1048575
2026-01-18 00:23:17.99	255.19	39.25	-85.2	-88.6	3.1	1.56e+00	0	47	104	0	60	1048575
2026-01-18 00:23:19.00	254.92	39.05	-85.2	-88.6	3.0	1.56e+00	0	47	104	0	60	1048574
2026-01-18 00:23:20.00	254.65	38.84	-85.2	-88.6	3.1	1.56e+00	0	47	104	0	60	1048574
2026-01-18 00:23:21.01	254.38	38.64	-85.2	-88.6	3.1	1.56e+00	0	47	104	0	60	1048572
2026-01-18 00:23:22.02	254.12	38.43	-85.2	-88.6	3.2	1.56e+00	0	47	104	0	60	1048574
2026-01-18 00:23:23.03	253.86	38.22	-85.2	-88.6	3.0	1.55e+00	0	47	104	0	60	1048574
2026-01-18 00:23:24.03	253.60	38.02	-85.2	-88.6	3.1	1.56e+00	0	47	104	0	60	1048575
2026-01-18 00:23:25.03	253.35	37.82	-85.2	-88.6	2.8	1.56e+00	0	47	104	0	60	1048575
2026-01-18 00:23:26.04	253.10	37.62	-85.2	-88.6	3.3	1.56e+00	0	47	104	0	60	1048572
2026-01-18 00:23:27.04	252.86	37.42	-85.2	-88.6	2.8	1.55e+00	0	47	104	0	60	1048572
2026-01-18 00:23:28.04	252.61	37.22	-85.2	-88.6	3.0	1.56e+00	0	47	104	0	60	1048575
2026-01-18 00:23:29.05	252.37	37.01	-85.2	-88.6	3.0	1.56e+00	0	47	104	0	60	1048575
2026-01-18 00:23:30.06	252.13	36.81	-85.2	-88.6	3.1	1.56e+00	0	47	104	0	60	1048572
2026-01-18 00:23:31.06	251.90	36.62	-85.2	-88.6	3.0	1.55e+00	0	47	104	0	60	1048575
2026-01-18 00:23:32.07	251.67	36.42	-85.2	-88.6	3.1	1.56e+00	0	47	104	0	60	1048575
2026-01-18 00:23:33.08	251.44	36.22	-85.2	-88.6	3.1	1.56e+00	0	47	104	0	60	1048575
2026-01-18 00:23:34.08	251.21	36.02	-85.2	-88.6	3.2	1.56e+00	0	47	104	0	60	1048575
2026-01-18 00:23:35.09	250.99	35.82	-85.2	-88.6	3.0	1.56e+00	0	47	104	0	60	1048572
2026-01-18 00:23:36.10	250.77	35.63	-85.2	-88.6	2.8	1.55e+00	0	47	104	0	60	1048573
2026-01-18 00:23:37.11	250.55	35.43	-85.2	-88.6	2.9	1.56e+00	0	47	104	0	60	1048573
2026-01-18 00:23:38.12	250.33	35.23	-85.2	-88.6	3.1	1.56e+00	0	47	104	0	60	1048575
2026-01-18 00:23:39.12	250.12	35.04	-85.2	-88.6	3.2	1.56e+00	0	47	104	0	60	1048575
2026-01-18 00:23:40.13	249.91	34.85	-85.2	-88.6	3.1	1.56e+00	0	47	104	0	60	1048575
2026-01-18 00:23:41.14	249.70	34.66	-85.2	-88.6	3.0	1.55e+00	0	47	104	0	60	1048573
2026-01-18 00:23:42.15	249.49	34.46	-85.2	-88.6	2.9	1.55e+00	0	47	104	0	60	1048575
2026-01-18 00:23:43.15	249.29	34.27	-85.2	-88.6	3.1	1.56e+00	0	47	104	0	60	1048575
2026-01-18 00:23:44.16	249.09	34.08	-85.2	-88.6	3.0	1.55e+00	0	47	104	0	60	1048572
2026-01-18 00:23:45.16	248.89	33.89	-85.2	-88.6	2.8	1.56e+00	0	47	104	0	60	1048575
2026-01-18 00:23:46.17	248.70	33.70	-85.2	-88.6	3.0	1.55e+00	0	47	104	0	60	1048575
2026-01-18 00:23:47.18	248.50	33.52	-85.2	-88.6	3.1	1.56e+00	0	47	104	0	60	1048574
2026-01-18 00:23:48.18	248.31	33.33	-85.2	-88.6	3.2	1.56e+00	0	47	104	0	60	1048573
2026-01-18 00:23:49.19	248.12	33.14	-84.7	-88.6	3.0	1.56e+00	0	47	104	0	60	1048575
2026-01-18 00:23:50.20	247.93	32.96	-85.2	-88.6	3.0	1.56e+00	0	47	104	0	60	1048575
2026-01-18 00:23:51.21	247.75	32.77	-85.2	-88.6	2.8	1.56e+00	0	47	104	0	60	1048574
2026-01-18 00:23:52.21	247.57	32.59	-85.2	-88.6	3.2	1.56e+00	0	47	104	0	60	1048572
2026-01-18 00:23:53.22	247.38	32.40	-85.2	-88.6	3.0	1.56e+00	0	47	104	0	60	1048575
2026-01-18 00:23:54.23	247.20	32.22	-85.2	-88.6	2.9	1.56e+00	0	47	104	0	60	1048569
2026-01-18 00:23:55.23	247.03	32.04	-85.2	-88.6	3.1	1.55e+00	0	47	104	0	60	1048572
2026-01-18 00:23:56.23	246.86	31.86	-85.2	-88.6	3.1	1.56e+00	0	47	104	0	60	1048573
2026-01-18 00:23:57.24	246.68	31.68	-85.2	-88.6	3.1	1.56e+00	0	47	104	0	60	1048575
2026-01-18 00:23:58.24	246.51	31.50	-85.2	-88.6	3.0	1.55e+00	0	47	104	0	60	1048575
2026-01-18 00:23:59.25	246.34	31.32	-85.2	-88.6	2.8	1.55e+00	0	47	104	0	60	1048575
2026-01-18 00:24:00.26	246.17	31.15	-85.2	-88.6	3.1	1.56e+00	0	47	104	0	60	1048573
2026-01-18 00:24:01.26	246.01	30.97	-85.2	-88.6	3.1	1.56e+00	0	47	104	0	60	1048573
2026-01-18 00:24:02.27	245.85	30.79	-85.2	-88.6	3.0	1.56e+00	0	47	104	0	60	1048574
2026-01-18 00:24:03.28	245.68	30.62	-85.2	-88.6	3.0	1.56e+00	0	47	104	0	60	1048575
2026-01-18 00:24:04.28	245.53	30.44	-85.2	-88.6	2.9	1.56e+00	0	47	104	0	60	1048574
2026-01-18 00:24:05.29	245.37	30.27	-85.2	-88.6	3.0	1.56e+00	0	47	104	0	60	1048575
2026-01-18 00:24:06.30	245.21	30.10	-85.2	-88.6	3.0	1.56e+00	0	47	104	0	60	1048573
2026-01-18 00:24:07.30	245.06	29.93	-85.2	-88.6	2.9	1.56e+00	0	47	104	0	60	1048575
2026-01-18 00:24:08.30	244.90	29.76	-85.2	-88.6	3.2	1.56e+00	0	47	104	0	60	1048575
2026-01-18 00:24:09.31	244.75	29.58	-85.2	-88.6	3.1	1.56e+00	0	47	104	0	60	1048573
2026-01-18 00:24:10.32	244.60	29.41	-85.2	-88.6	3.0	1.56e+00	0	47	104	0	60	1048575
2026-01-18 00:24:11.32	244.46	29.25	-85.2	-88.6	3.0	1.56e+00	0	47	104	0	60	1048573
2026-01-18 00:24:12.33	244.31	29.08	-85.2	-88.6	3.1	1.56e+00	0	47	104	0	60	1048573
2026-01-18 00:24:13.34	244.16	28.91	-85.2	-88.6	3.1	1.56e+00	0	47	104	0	60	1048574
2026-01-18 00:24:14.34	244.02	28.74	-85.2	-88.6	3.1	1.55e+00	0	47	104	0	60	1048574
2026-01-18 00:24:15.35	243.88	28.58	-85.2	-88.6	3.2	1.55e+00	0	47	104	0	60	1048575
2026-01-18 00:24:16.36	243.74	28.41	-85.2	-88.6	2.7	1.55e+00	0	47	104	0	60	1048575
2026-01-18 00:24:17.36	243.60	28.25	-85.2	-88.6	2.8	1.56e+00	0	47	104	0	60	1048575
2026-01-18 00:24:18.36	243.46	28.09	-85.2	-88.6	3.1	1.55e+00	0	47	104	0	60	1048573
2026-01-18 00:24:19.37	243.32	27.92	-84.7	-88.6	2.8	1.56e+00	0	47	104	0	60	1048575
2026-01-18 00:24:20.38	243.19	27.76	-85.2	-88.6	2.9	1.56e+00	0	47	104	0	60	1048574
2026-01-18 00:24:21.39	243.06	27.60	-85.2	-88.6	3.0	1.56e+00	0	47	104	0	60	1048567
2026-01-18 00:24:22.40	242.92	27.44	-85.2	-88.6	3.1	1.55e+00	0	47	104	0	60	1048574
2026-01-18 00:24:23.40	242.79	27.28	-85.2	-88.6	3.0	1.56e+00	0	47	104	0	60	1048575
2026-01-18 00:24:24.41	242.66	27.12	-85.2	-88.6	2.8	1.56e+00	0	47	104	0	60	1048575
2026-01-18 00:24:25.42	242.53	26.96	-85.2	-88.6	2.9	1.56e+00	0	47	104	0	60	1048575
2026-01-18 00:24:26.42	242.41	26.81	-85.2	-88.6	2.9	1.56e+00	0	47	104	0	60	1048574
2026-01-18 00:24:27.44	242.28	26.65	-85.2	-88.6	3.0	1.56e+00	0	47	104	0	60	1048575
2026-01-18 00:24:28.44	242.16	26.49	-85.2	-88.6	3.1	1.55e+00	0	47	104	0	60	1048574
2026-01-18 00:24:29.44	242.04	26.34	-85.2	-88.6	2.8	1.56e+00	0	47	104	0	60	1048575
2026-01-18 00:24:30.45	241.91	26.18	-85.2	-88.6	3.1	1.56e+00	0	47	104	0	60	1048575
2026-01-18 00:24:31.45	241.79	26.03	-85.2	-88.6	2.8	1.55e+00	0	47	104	0	60	1048572
2026-01-18 00:24:32.46	241.67	25.88	-85.2	-88.6	3.2	1.56e+00	0	47	104	0	60	1048574
2026-01-18 00:24:33.46	241.56	25.73	-85.2	-88.6	2.9	1.55e+00	0	47	104	0	60	1048574
2026-01-18 00:24:34.47	241.44	25.57	-84.7	-88.6	3.0	1.55e+00	0	47	104	0	60	1048572
2026-01-18 00:24:35.48	241.32	25.42	-85.2	-88.6	3.1	1.55e+00	0	47	104	0	60	1048575
2026-01-18 00:24:36.48	241.21	25.27	-85.2	-88.6	3.1	1.55e+00	0	47	104	0	60	1048575
2026-01-18 00:24:37.49	241.09	25.12	-85.2	-88.6	2.8	1.56e+00	0	47	104	0	60	1048575
2026-01-18 00:24:38.50	240.98	24.97	-85.2	-88.6	2.9	1.56e+00	0	47	104	0	60	1048574
2026-01-18 00:24:39.50	240.87	24.83	-85.2	-88.6	3.0	1.56e+00	0	47	104	0	60	1048573
2026-01-18 00:24:40.51	240.76	24.68	-85.2	-88.6	3.2	1.56e+00	0	47	104	0	60	1048574
2026-01-18 00:24:41.51	240.65	24.53	-85.2	-88.6	3.0	1.56e+00	0	47	104	0	60	1048575
2026-01-18 00:24:42.52	240.54	24.39	-85.2	-88.6	3.1	1.56e+00	0	47	104	0	60	1048575
2026-01-18 00:24:43.53	240.43	24.24	-85.2	-88.6	3.1	1.56e+00	0	47	104	0	60	1048575
2026-01-18 00:24:44.54	240.33	24.10	-85.2	-88.6	3.0	1.56e+00	0	47	104	0	60	1048575
2026-01-18 00:24:45.55	240.22	23.95	-85.2	-88.6	2.9	1.56e+00	0	47	104	0	60	1048575
2026-01-18 00:24:46.56	240.12	23.81	-85.2	-88.6	2.9	1.56e+00	0	47	104	0	60	1048575
2026-01-18 00:24:47.57	240.01	23.67	-85.2	-88.6	3.1	1.55e+00	0	47	104	0	60	1048575
2026-01-18 00:24:48.56	239.91	23.53	-85.2	-88.6	3.0	1.56e+00	0	47	104	0	60	1048575
2026-01-18 00:24:49.57	239.81	23.39	-85.2	-88.6	3.0	1.56e+00	0	47	104	0	60	1048575
2026-01-18 00:24:50.58	239.71	23.25	-85.2	-88.6	3.0	1.55e+00	0	47	104	0	60	1048571
2026-01-18 00:24:51.59	239.61	23.11	-85.2	-88.6	3.1	1.56e+00	0	47	104	0	60	1048575
2026-01-18 00:24:52.59	239.51	22.97	-85.2	-88.6	2.9	1.56e+00	0	47	104	0	60	1048574
2026-01-18 00:24:53.60	239.41	22.83	-85.2	-88.6	3.0	1.56e+00	0	47	104	0	60	1048575
2026-01-18 00:24:54.60	239.32	22.69	-85.2	-88.6	2.9	1.56e+00	0	47	104	0	60	1048575
2026-01-18 00:24:55.61	239.22	22.55	-85.2	-88.6	3.1	1.56e+00	0	47	104	0	60	1048574
2026-01-18 00:24:56.61	239.13	22.42	-85.2	-88.6	2.9	1.56e+00	0	47	104	0	60	1048575
2026-01-18 00:24:57.62	239.03	22.28	-85.2	-88.6	3.0	1.56e+00	0	47	104	0	60	1048569
2026-01-18 00:24:58.63	238.94	22.15	-85.2	-88.6	3.1	1.56e+00	0	47	104	0	60	1048575
2026-01-18 00:24:59.64	238.85	22.01	-85.2	-88.6	2.7	1.56e+00	0	47	104	0	60	1048574
2026-01-18 00:25:00.65	238.75	21.88	-85.2	-88.6	2.8	1.56e+00	0	47	104	0	60	1048569
2026-01-18 00:25:01.65	238.66	21.74	-85.2	-88.6	2.9	1.55e+00	0	47	104	0	60	1048575
2026-01-18 00:25:02.65	238.57	21.61	-85.2	-88.6	2.8	1.56e+00	0	47	104	0	60	1048575
2026-01-18 00:25:03.65	238.48	21.48	-85.2	-88.6	3.0	1.56e+00	0	47	104	0	60	1048575
2026-01-18 00:25:04.66	238.40	21.35	-85.2	-88.6	3.1	1.56e+00	0	47	104	0	60	1048575
2026-01-18 00:25:05.66	238.31	21.22	-85.2	-88.6	2.8	1.56e+00	0	47	104	0	60	1048575
2026-01-18 00:25:06.67	238.22	21.09	-85.2	-88.6	3.0	1.56e+00	0	47	104	0	60	1048575
2026-01-18 00:25:07.67	238.13	20.96	-85.2	-88.6	3.0	1.55e+00	0	47	104	0	60	1048575
2026-01-18 00:25:08.67	238.05	20.83	-85.2	-88.6	3.0	1.55e+00	0	47	104	0	60	1048573
2026-01-18 00:25:09.68	237.96	20.70	-85.2	-88.6	3.0	1.56e+00	0	47	104	0	60	1048575
2026-01-18 00:25:10.69	237.88	20.58	-85.2	-88.6	2.8	1.56e+00	0	47	104	0	60	1048575
2026-01-18 00:25:11.69	237.80	20.45	-85.2	-88.6	3.0	1.56e+00	0	47	104	0	60	1048574
2026-01-18 00:25:12.70	237.71	20.32	-85.2	-88.6	2.7	1.56e+00	0	47	104	0	60	1048575
2026-01-18 00:25:13.71	237.63	20.19	-85.2	-88.6	2.9	1.56e+00	0	47	104	0	60	1048575
2026-01-18 00:25:14.72	237.55	20.07	-85.2	-88.6	2.9	1.56e+00	0	47	104	0	60	1048572
2026-01-18 00:25:15.73	237.47	19.94	-85.2	-88.6	2.9	1.56e+00	0	47	104	0	60	1048575
2026-01-18 00:25:16.73	237.39	19.82	-85.2	-88.6	3.0	1.56e+00	0	47	104	0	60	1048575
2026-01-18 00:25:17.74	237.31	19.70	-85.2	-88.6	3.1	1.56e+00	0	47	104	0	60	1048574
2026-01-18 00:25:18.74	237.23	19.57	-85.2	-88.6	2.8	1.56e+00	0	47	104	0	60	1048571
2026-01-18 00:25:19.75	237.15	19.45	-85.2	-88.6	3.0	1.56e+00	0	47	104	0	60	1048574
2026-01-18 00:25:20.76	237.08	19.33	-85.2	-88.6	2.8	1.56e+00	0	47	104	0	60	1048575
2026-01-18 00:25:21.77	237.00	19.21	-85.2	-88.6	3.0	1.56e+00	0	47	104	0	60	1048573
2026-01-18 00:25:22.78	236.92	19.08	-85.2	-88.6	3.0	1.56e+00	0	47	104	0	60	1048575
2026-01-18 00:25:23.78	236.85	18.96	-85.2	-88.6	3.1	1.55e+00	0	47	104	0	60	1048575
2026-01-18 00:25:24.79	236.77	18.84	-85.2	-88.6	3.1	1.56e+00	0	47	104	0	60	1048575
2026-01-18 00:25:25.80	236.70	18.72	-84.7	-88.6	2.9	1.55e+00	0	47	104	0	60	1048575
2026-01-18 00:25:26.80	236.63	18.60	-85.2	-88.6	3.0	1.56e+00	0	47	104	0	60	1048575
2026-01-18 00:25:27.81	236.55	18.49	-85.2	-88.6	3.1	1.56e+00	0	47	104	0	60	1048574
2026-01-18 00:25:28.82	236.48	18.37	-85.2	-88.6	2.9	1.55e+00	0	47	104	0	60	1048575
2026-01-18 00:25:29.83	236.41	18.25	-85.2	-88.6	3.1	1.56e+00	0	47	104	0	60	1048575
2026-01-18 00:25:30.84	236.34	18.13	-85.2	-88.6	3.0	1.56e+00	0	47	104	0	60	1048575
2026-01-18 00:25:31.85	236.27	18.02	-85.2	-88.6	2.8	1.56e+00	0	47	104	0	60	1048575
2026-01-18 00:25:32.85	236.20	17.90	-85.2	-88.6	3.1	1.55e+00	0	47	104	0	60	1048573
2026-01-18 00:25:33.86	236.13	17.78	-85.2	-88.6	3.1	1.56e+00	0	47	104	0	60	1048575
2026-01-18 00:25:34.87	236.06	17.67	-85.2	-88.6	3.2	1.56e+00	0	47	104	0	60	1048573
2026-01-18 00:25:35.87	235.99	17.56	-85.2	-88.6	3.2	1.56e+00	0	47	104	0	60	1048573
2026-01-18 00:25:36.88	235.92	17.44	-85.2	-88.6	3.1	1.55e+00	0	47	104	0	60	1048575
2026-01-18 00:25:37.89	235.85	17.33	-85.2	-88.6	3.1	1.55e+00	0	47	104	0	60	1048573
2026-01-18 00:25:38.89	235.79	17.21	-85.2	-88.6	3.0	1.56e+00	0	47	104	0	60	1048575
2026-01-18 00:25:39.89	235.72	17.10	-85.2	-88.6	3.0	1.56e+00	0	47	104	0	60	1048575
2026-01-18 00:25:40.90	235.65	16.99	-85.2	-88.6	2.9	1.56e+00	0	47	104	0	60	1048575
2026-01-18 00:25:41.91	235.59	16.88	-85.2	-88.6	3.3	1.55e+00	0	47	104	0	60	1048574
2026-01-18 00:25:42.91	235.52	16.77	-85.2	-88.6	3.0	1.56e+00	0	47	104	0	60	1048575
2026-01-18 00:25:43.92	235.46	16.66	-85.2	-88.6	3.0	1.55e+00	0	47	104	0	60	1048575
2026-01-18 00:25:44.93	235.40	16.55	-85.2	-88.6	2.9	1.56e+00	0	47	104	0	60	1048571
2026-01-18 00:25:45.93	235.33	16.44	-85.2	-88.6	2.9	1.56e+00	0	47	104	0	60	1048575
2026-01-18 00:25:46.94	235.27	16.33	-85.2	-88.6	3.1	1.55e+00	0	47	104	0	60	1048575
2026-01-18 00:25:47.95	235.21	16.22	-85.2	-88.6	3.2	1.56e+00	0	47	104	0	60	1048575
2026-01-18 00:25:48.95	235.15	16.11	-85.2	-88.6	3.0	1.55e+00	0	47	104	0	60	1048571
2026-01-18 00:25:49.96	235.08	16.00	-85.2	-88.6	3.1	1.55e+00	0	47	104	0	60	1048575
2026-01-18 00:25:50.97	235.02	15.89	-85.2	-88.6	2.9	1.55e+00	0	47	104	0	60	1048573
2026-01-18 00:25:51.97	234.96	15.79	-85.2	-88.6	2.9	1.56e+00	0	47	104	0	60	1048574
2026-01-18 00:25:52.98	234.90	15.68	-85.2	-88.6	3.1	1.55e+00	0	47	104	0	60	1048575
2026-01-18 00:25:53.98	234.84	15.58	-85.2	-88.6	3.0	1.55e+00	0	47	104	0	60	1048575
2026-01-18 00:25:54.99	234.78	15.47	-85.2	-88.6	3.1	1.56e+00	0	47	104	0	60	1048574
2026-01-18 00:25:56.00	234.72	15.36	-85.2	-88.6	3.2	1.56e+00	0	47	104	0	60	1048572
2026-01-18 00:25:57.01	234.67	15.26	-85.2	-88.6	3.0	1.56e+00	0	47	104	0	60	1048574
2026-01-18 00:25:58.02	234.61	15.15	-85.2	-88.6	3.0	1.55e+00	0	47	104	0	60	1048574
2026-01-18 00:25:59.02	234.55	15.05	-85.2	-88.6	2.9	1.55e+00	0	47	104	0	60	1048575
2026-01-18 00:26:00.03	234.49	14.95	-85.2	-88.6	3.1	1.56e+00	0	47	104	0	60	1048575
2026-01-18 00:26:01.04	234.44	14.84	-85.2	-88.6	3.2	1.55e+00	0	47	104	0	60	1048575
2026-01-18 00:26:02.05	234.38	14.74	-85.2	-88.6	3.1	1.56e+00	0	47	104	0	60	1048574
2026-01-18 00:26:03.05	234.32	14.64	-85.2	-88.6	3.0	1.56e+00	0	47	104	0	60	1048575
2026-01-18 00:26:04.06	234.27	14.53	-85.2	-88.6	2.8	1.56e+00	0	47	104	0	60	1048575
2026-01-18 00:26:05.06	234.21	14.43	-85.2	-88.6	3.1	1.56e+00	0	47	104	0	60	1048574
2026-01-18 00:26:06.07	234.16	14.33	-85.2	-88.6	3.2	1.56e+00	0	47	104	0	60	1048574
2026-01-18 00:26:07.08	234.11	14.23	-85.2	-88.6	3.1	1.56e+00	0	47	104	0	60	1048574
2026-01-18 00:26:08.08	234.05	14.13	-85.2	-88.6	3.0	1.56e+00	0	47	104	0	60	1048575
