passes_logs/2026/01/18/R3.2S-Naryan-Mar/R3.2S-Naryan-Mar__20260118_033318_SUOMI_NPP_rec.log

#Pass ID: 20260118_033318_SUOMI NPP
#Satellite: SUOMI NPP
#Configuration: NPP
#almurnet v.1.7.20240730
#Start time: 2026-01-18 03:33:20

#Version: 2.2.20231116
#Station: R3.2S-Naryan-Mar
#Location: 53.008057 lon 67.646978 lat
#TLE: 1 37849U 11061A   26017.28905266  .00000074  00000+0  55894-4 0  9999
#TLE: 2 37849  98.7814 319.3179 0002408  59.7048 300.4366 14.19525847737038

#Time	Az	El	Level	Level2	SNR	BER	BlckErr	Temp	State	Recorded	gain1	gain2
2026-01-18 03:33:20.29	56.47	0.12	-85.2	-88.6	5.1	1.63e+00	0	46	0	0	60	1048575
2026-01-18 03:33:21.29	56.41	0.17	-85.2	-88.6	2.9	1.56e+00	0	46	104	0	60	1048575
2026-01-18 03:33:22.30	56.35	0.22	-85.2	-88.6	3.0	1.55e+00	0	46	104	0	60	1048574
2026-01-18 03:33:23.30	56.29	0.28	-85.2	-88.6	3.2	1.56e+00	0	46	104	0	60	1048575
2026-01-18 03:33:24.31	56.22	0.33	-85.2	-88.6	3.0	1.56e+00	0	46	104	0	60	1048574
2026-01-18 03:33:25.31	56.16	0.38	-85.2	-88.6	2.9	1.56e+00	0	46	104	0	60	1048575
2026-01-18 03:33:26.31	56.10	0.44	-85.2	-88.6	3.1	1.56e+00	0	46	104	0	60	1048574
2026-01-18 03:33:27.32	56.03	0.49	-85.2	-88.6	3.0	1.56e+00	0	46	104	0	60	1048575
2026-01-18 03:33:28.32	55.97	0.54	-85.2	-88.6	3.0	1.56e+00	0	46	104	0	60	1048574
2026-01-18 03:33:29.32	55.91	0.60	-85.2	-88.6	3.0	1.56e+00	0	46	104	0	60	1048574
2026-01-18 03:33:30.33	55.84	0.65	-85.2	-88.6	3.1	1.56e+00	0	46	104	0	60	1048575
2026-01-18 03:33:31.34	55.78	0.70	-85.2	-88.6	2.9	1.55e+00	0	46	104	0	60	1048574
2026-01-18 03:33:32.35	55.72	0.76	-85.2	-88.6	3.0	1.55e+00	0	46	104	0	60	1048575
2026-01-18 03:33:33.36	55.65	0.81	-85.2	-88.6	2.9	1.56e+00	0	46	104	0	60	1048574
2026-01-18 03:33:34.37	55.59	0.86	-85.2	-88.6	3.0	1.55e+00	0	46	104	0	60	1048575
2026-01-18 03:33:35.37	55.52	0.92	-85.2	-88.6	3.2	1.56e+00	0	46	104	0	60	1048575
2026-01-18 03:33:36.38	55.45	0.97	-85.2	-88.6	2.8	1.56e+00	0	46	104	0	60	1048574
2026-01-18 03:33:37.39	55.39	1.03	-85.2	-88.6	3.1	1.56e+00	0	46	104	0	60	1048574
2026-01-18 03:33:38.40	55.32	1.08	-85.2	-88.6	3.0	1.56e+00	0	46	104	0	60	1048575
2026-01-18 03:33:39.41	55.26	1.14	-85.2	-88.6	2.9	1.55e+00	0	46	104	0	60	1048575
2026-01-18 03:33:40.41	55.19	1.19	-85.2	-88.6	2.8	1.56e+00	0	46	104	0	60	1048574
2026-01-18 03:33:41.42	55.12	1.24	-85.2	-88.6	3.0	1.55e+00	0	46	104	0	60	1048574
2026-01-18 03:33:42.42	55.06	1.30	-85.2	-88.6	3.0	1.55e+00	0	46	104	0	60	1048575
2026-01-18 03:33:43.43	54.99	1.35	-85.2	-88.6	3.1	1.56e+00	0	46	104	0	60	1048574
2026-01-18 03:33:44.44	54.92	1.41	-84.3	-88.6	2.9	1.56e+00	0	46	104	0	60	1048574
2026-01-18 03:33:45.44	54.85	1.46	-84.7	-88.6	2.9	1.56e+00	0	46	104	0	60	1048575
2026-01-18 03:33:46.45	54.79	1.52	-85.2	-88.6	2.8	1.55e+00	0	46	104	0	60	1048574
2026-01-18 03:33:47.46	54.72	1.57	-85.2	-88.6	3.1	1.56e+00	0	46	104	0	60	1048575
2026-01-18 03:33:48.47	54.65	1.63	-85.2	-88.6	3.0	1.55e+00	0	46	104	0	60	1048574
2026-01-18 03:33:49.47	54.58	1.68	-84.7	-88.6	3.1	1.56e+00	0	46	104	0	60	1048575
2026-01-18 03:33:50.48	54.51	1.74	-85.2	-88.6	2.9	1.56e+00	0	46	104	0	60	1048573
2026-01-18 03:33:51.49	54.44	1.79	-85.2	-88.6	3.1	1.55e+00	0	46	104	0	60	1048575
2026-01-18 03:33:52.49	54.37	1.85	-85.2	-88.6	3.0	1.56e+00	0	46	104	0	60	1048575
2026-01-18 03:33:53.50	54.30	1.90	-85.2	-88.6	3.0	1.56e+00	0	46	104	0	60	1048572
2026-01-18 03:33:54.51	54.23	1.96	-85.2	-88.6	2.8	1.56e+00	0	46	104	0	60	1048575
2026-01-18 03:33:55.51	54.16	2.01	-85.2	-88.6	2.8	1.56e+00	0	46	104	0	60	1048575
2026-01-18 03:33:56.52	54.09	2.07	-85.2	-88.6	2.9	1.55e+00	0	46	104	0	60	1048575
2026-01-18 03:33:57.52	54.02	2.12	-85.2	-88.6	3.0	1.56e+00	0	46	104	0	60	1048574
2026-01-18 03:33:58.53	53.95	2.18	-85.2	-88.6	3.1	1.56e+00	0	46	104	0	60	1048574
2026-01-18 03:33:59.53	53.88	2.23	-85.2	-88.6	2.8	1.56e+00	0	46	104	0	60	1048572
2026-01-18 03:34:00.54	53.81	2.29	-85.2	-88.6	2.9	1.56e+00	0	46	104	0	60	1048575
2026-01-18 03:34:01.55	53.73	2.34	-85.2	-88.6	2.8	1.56e+00	0	47	104	0	60	1048573
2026-01-18 03:34:02.56	53.66	2.40	-85.2	-88.6	2.9	1.56e+00	0	47	104	0	60	1048573
2026-01-18 03:34:03.57	53.59	2.46	-85.2	-88.6	2.9	1.56e+00	0	46	104	0	60	1048575
2026-01-18 03:34:04.57	53.51	2.51	-85.2	-88.6	3.0	1.56e+00	0	46	104	0	60	1048575
2026-01-18 03:34:05.58	53.44	2.57	-84.7	-88.6	3.0	1.56e+00	0	47	104	0	60	1048574
2026-01-18 03:34:06.59	53.37	2.62	-85.2	-88.6	2.8	1.56e+00	0	47	104	0	60	1048572
2026-01-18 03:34:07.59	53.29	2.68	-85.2	-88.6	3.0	1.56e+00	0	46	104	0	60	1048574
2026-01-18 03:34:08.59	53.22	2.74	-85.2	-88.6	3.3	1.56e+00	0	46	104	0	60	1048574
2026-01-18 03:34:09.60	53.15	2.79	-85.2	-88.6	2.8	1.56e+00	0	47	104	0	60	1048574
2026-01-18 03:34:10.61	53.07	2.85	-85.2	-88.6	2.7	1.56e+00	0	47	104	0	60	1048575
2026-01-18 03:34:11.62	52.99	2.90	-85.2	-88.6	3.3	1.56e+00	0	47	104	0	60	1048575
2026-01-18 03:34:12.62	52.92	2.96	-85.2	-88.6	2.8	1.56e+00	0	47	104	0	60	1048575
2026-01-18 03:34:13.63	52.84	3.02	-85.2	-88.6	2.9	1.56e+00	0	47	104	0	60	1048573
2026-01-18 03:34:14.64	52.77	3.07	-84.3	-88.6	3.0	1.56e+00	0	47	104	0	60	1048575
2026-01-18 03:34:15.64	52.69	3.13	-85.2	-88.6	3.1	1.55e+00	0	47	104	0	60	1048573
2026-01-18 03:34:16.64	52.62	3.19	-85.2	-88.6	3.0	1.55e+00	0	47	104	0	60	1048573
2026-01-18 03:34:17.65	52.54	3.24	-85.2	-88.6	3.2	1.56e+00	0	47	104	0	60	1048573
2026-01-18 03:34:18.65	52.46	3.30	-84.7	-88.6	3.2	1.56e+00	0	47	104	0	60	1048575
2026-01-18 03:34:19.66	52.38	3.36	-85.2	-88.6	3.2	1.56e+00	0	47	104	0	60	1048571
2026-01-18 03:34:20.66	52.31	3.41	-85.2	-88.6	3.1	1.56e+00	0	47	104	0	60	1048573
2026-01-18 03:34:21.67	52.23	3.47	-85.2	-88.6	3.1	1.56e+00	0	47	104	0	60	1048573
2026-01-18 03:34:22.67	52.15	3.53	-85.2	-88.6	3.0	1.56e+00	0	47	104	0	60	1048575
2026-01-18 03:34:23.68	52.07	3.58	-85.2	-88.6	3.0	1.55e+00	0	47	104	0	60	1048573
2026-01-18 03:34:24.69	51.99	3.64	-85.2	-88.6	3.0	1.55e+00	0	47	104	0	60	1048574
2026-01-18 03:34:25.70	51.91	3.70	-85.2	-88.6	2.9	1.56e+00	0	47	104	0	60	1048573
2026-01-18 03:34:26.71	51.83	3.76	-85.2	-88.6	3.0	1.55e+00	0	47	104	0	60	1048575
2026-01-18 03:34:27.72	51.75	3.81	-85.2	-88.6	3.0	1.56e+00	0	47	104	0	60	1048575
2026-01-18 03:34:28.72	51.67	3.87	-85.2	-88.6	2.9	1.55e+00	0	47	104	0	60	1048575
2026-01-18 03:34:29.73	51.59	3.93	-85.2	-88.6	3.0	1.56e+00	0	47	104	0	60	1048575
2026-01-18 03:34:30.73	51.51	3.99	-84.7	-88.6	2.7	1.56e+00	0	47	104	0	60	1048575
2026-01-18 03:34:31.74	51.43	4.04	-85.2	-88.6	2.9	1.56e+00	0	47	104	0	60	1048572
2026-01-18 03:34:32.74	51.35	4.10	-85.2	-88.6	3.1	1.55e+00	0	47	104	0	60	1048575
2026-01-18 03:34:33.74	51.27	4.16	-83.5	-88.6	2.9	1.56e+00	0	47	104	0	60	1048575
2026-01-18 03:34:34.75	51.18	4.22	-85.2	-88.6	3.0	1.55e+00	0	47	104	0	60	1048575
2026-01-18 03:34:35.75	51.10	4.27	-85.2	-88.6	2.8	1.56e+00	0	47	104	0	60	1048573
2026-01-18 03:34:36.76	51.02	4.33	-85.2	-88.6	3.1	1.56e+00	0	47	104	0	60	1048575
2026-01-18 03:34:37.76	50.93	4.39	-85.2	-88.6	3.2	1.56e+00	0	47	104	0	60	1048575
2026-01-18 03:34:38.77	50.85	4.45	-85.2	-88.6	3.2	1.56e+00	0	47	104	0	60	1048573
2026-01-18 03:34:39.77	50.77	4.51	-83.1	-88.6	2.9	1.56e+00	0	47	104	0	60	1048574
2026-01-18 03:34:40.78	50.68	4.56	-85.2	-88.6	2.9	1.56e+00	0	47	104	0	60	1048574
2026-01-18 03:34:41.79	50.60	4.62	-85.2	-88.6	2.9	1.56e+00	0	47	104	0	60	1048574
2026-01-18 03:34:42.80	50.51	4.68	-85.2	-88.6	2.9	1.56e+00	0	47	104	0	60	1048575
2026-01-18 03:34:43.81	50.43	4.74	-85.2	-88.6	3.1	1.56e+00	0	47	104	0	60	1048571
2026-01-18 03:34:44.81	50.34	4.80	-85.2	-88.6	3.1	1.56e+00	0	47	104	0	60	1048572
2026-01-18 03:34:45.82	50.25	4.86	-85.2	-88.6	2.9	1.56e+00	0	47	104	0	60	1048573
2026-01-18 03:34:46.83	50.17	4.92	-85.2	-88.6	3.1	1.56e+00	0	47	104	0	60	1048571
2026-01-18 03:34:47.84	50.08	4.97	-85.2	-88.6	2.9	1.56e+00	0	47	104	0	60	1048574
2026-01-18 03:34:48.84	49.99	5.03	-85.2	-88.6	3.1	1.56e+00	0	47	104	0	60	1048575
2026-01-18 03:34:49.85	49.91	5.09	-84.3	-88.6	3.1	1.55e+00	0	47	104	0	60	1048575
2026-01-18 03:34:50.86	49.82	5.15	-85.2	-88.6	3.2	1.56e+00	0	47	104	0	60	1048574
2026-01-18 03:34:51.86	49.73	5.21	-85.2	-88.6	3.1	1.55e+00	0	47	104	0	60	1048575
2026-01-18 03:34:52.87	49.64	5.27	-85.2	-88.6	2.8	1.55e+00	0	47	104	0	60	1048574
2026-01-18 03:34:53.88	49.55	5.33	-85.2	-88.6	3.0	1.56e+00	0	47	104	0	60	1048572
2026-01-18 03:34:54.89	49.46	5.39	-85.2	-88.6	3.0	1.56e+00	0	47	104	0	60	1048574
2026-01-18 03:34:55.89	49.37	5.45	-85.2	-88.6	3.0	1.56e+00	0	47	104	0	60	1048575
2026-01-18 03:34:56.90	49.28	5.51	-85.2	-88.6	2.8	1.56e+00	0	47	104	0	60	1048574
2026-01-18 03:34:57.91	49.19	5.57	-85.2	-88.6	2.8	1.56e+00	0	47	104	0	60	1048575
2026-01-18 03:34:58.92	49.10	5.63	-84.3	-88.6	2.9	1.56e+00	0	47	104	0	60	1048574
2026-01-18 03:34:59.93	49.01	5.68	-85.2	-88.6	3.0	1.56e+00	0	47	104	0	60	1048575
2026-01-18 03:35:00.93	48.91	5.74	-85.2	-88.6	3.0	1.56e+00	0	47	104	0	60	1048574
2026-01-18 03:35:01.94	48.82	5.80	-85.2	-88.6	3.0	1.55e+00	0	47	104	0	60	1048569
2026-01-18 03:35:02.95	48.73	5.86	-85.2	-88.6	3.1	1.56e+00	0	47	104	0	60	1048575
2026-01-18 03:35:03.96	48.64	5.92	-84.3	-88.6	3.0	1.56e+00	0	47	104	0	60	1048575
2026-01-18 03:35:04.96	48.54	5.98	-85.2	-88.6	2.9	1.55e+00	0	47	104	0	60	1048574
2026-01-18 03:35:05.96	48.45	6.04	-85.2	-88.6	3.0	1.56e+00	0	47	104	0	60	1048574
2026-01-18 03:35:06.97	48.36	6.10	-85.2	-88.6	2.9	1.55e+00	0	47	104	0	60	1048573
2026-01-18 03:35:07.98	48.26	6.16	-85.2	-88.6	2.9	1.56e+00	0	47	104	0	60	1048575
2026-01-18 03:35:08.98	48.17	6.22	-85.2	-88.6	3.1	1.55e+00	0	47	104	0	60	1048574
2026-01-18 03:35:09.99	48.07	6.28	-85.2	-88.6	3.0	1.55e+00	0	47	104	0	60	1048575
2026-01-18 03:35:11.00	47.97	6.34	-85.2	-88.6	2.9	1.56e+00	0	47	104	0	60	1048574
2026-01-18 03:35:12.01	47.88	6.40	-85.2	-88.6	2.8	1.56e+00	0	47	104	0	60	1048575
2026-01-18 03:35:13.02	47.78	6.46	-85.2	-88.6	3.0	1.55e+00	0	47	104	0	60	1048575
2026-01-18 03:35:14.03	47.68	6.53	-85.2	-88.6	3.0	1.56e+00	0	47	104	0	60	1048575
2026-01-18 03:35:15.04	47.59	6.59	-85.2	-88.6	3.0	1.55e+00	0	47	104	0	60	1048574
2026-01-18 03:35:16.05	47.49	6.65	-85.2	-88.6	2.8	1.56e+00	0	47	104	0	60	1048574
2026-01-18 03:35:17.05	47.39	6.71	-85.2	-88.6	2.9	1.56e+00	0	47	104	0	60	1048574
2026-01-18 03:35:18.06	47.29	6.77	-85.2	-88.6	3.1	1.56e+00	0	47	104	0	60	1048575
2026-01-18 03:35:19.07	47.19	6.83	-82.8	-88.6	2.9	1.55e+00	0	47	104	0	60	1048575
2026-01-18 03:35:20.08	47.09	6.89	-84.3	-88.6	3.0	1.56e+00	0	47	104	0	60	1048575
2026-01-18 03:35:21.08	46.99	6.95	-85.2	-88.6	3.0	1.56e+00	0	47	104	0	60	1048573
2026-01-18 03:35:22.09	46.89	7.01	-85.2	-88.6	3.2	1.56e+00	0	47	104	0	60	1048574
2026-01-18 03:35:23.10	46.79	7.07	-85.2	-88.6	3.1	1.56e+00	0	47	104	0	60	1048573
2026-01-18 03:35:24.11	46.69	7.13	-85.2	-88.6	2.9	1.55e+00	0	47	104	0	60	1048575
2026-01-18 03:35:25.11	46.59	7.19	-85.2	-88.6	2.9	1.56e+00	0	47	104	0	60	1048574
2026-01-18 03:35:26.12	46.48	7.26	-85.2	-88.6	3.1	1.56e+00	0	47	104	0	60	1048570
2026-01-18 03:35:27.12	46.38	7.32	-85.2	-88.6	2.9	1.56e+00	0	47	104	0	60	1048575
2026-01-18 03:35:28.13	46.28	7.38	-85.2	-88.6	3.1	1.55e+00	0	47	104	0	60	1048574
2026-01-18 03:35:29.14	46.17	7.44	-85.2	-88.6	2.9	1.55e+00	0	47	104	0	60	1048575
2026-01-18 03:35:30.15	46.07	7.50	-85.2	-88.6	2.9	1.56e+00	0	47	104	0	60	1048573
2026-01-18 03:35:31.15	45.97	7.56	-85.2	-88.6	2.9	1.55e+00	0	47	104	0	60	1048574
2026-01-18 03:35:32.16	45.86	7.62	-85.2	-88.6	3.1	1.55e+00	0	47	104	0	60	1048574
2026-01-18 03:35:33.17	45.75	7.68	-85.2	-88.6	2.9	1.55e+00	0	47	104	0	60	1048575
2026-01-18 03:35:34.18	45.65	7.75	-85.2	-88.6	2.8	1.56e+00	0	47	104	0	60	1048575
2026-01-18 03:35:35.19	45.54	7.81	-85.2	-88.6	3.1	1.56e+00	0	47	104	0	60	1048575
2026-01-18 03:35:36.19	45.44	7.87	-85.2	-88.6	2.7	1.56e+00	0	47	104	0	60	1048575
2026-01-18 03:35:37.20	45.33	7.93	-85.2	-88.6	2.9	1.56e+00	0	47	104	0	60	1048575
2026-01-18 03:35:38.21	45.22	7.99	-85.2	-88.6	3.0	1.56e+00	0	47	104	0	60	1048575
2026-01-18 03:35:39.21	45.11	8.05	-85.2	-88.6	2.9	1.56e+00	0	47	104	0	60	1048571
2026-01-18 03:35:40.22	45.00	8.12	-85.2	-88.6	3.1	1.55e+00	0	47	104	0	60	1048574
2026-01-18 03:35:41.23	44.89	8.18	-85.2	-88.6	3.0	1.56e+00	0	47	104	0	60	1048575
2026-01-18 03:35:42.24	44.78	8.24	-85.2	-88.6	3.1	1.55e+00	0	47	104	0	60	1048575
2026-01-18 03:35:43.25	44.67	8.30	-85.2	-88.6	3.0	1.56e+00	0	47	104	0	60	1048571
2026-01-18 03:35:44.25	44.56	8.37	-85.2	-88.6	3.0	1.55e+00	0	47	104	0	60	1048575
2026-01-18 03:35:45.26	44.45	8.43	-85.2	-88.6	3.0	1.56e+00	0	47	104	0	60	1048574
2026-01-18 03:35:46.27	44.34	8.49	-85.2	-88.6	2.9	1.56e+00	0	47	104	0	60	1048574
2026-01-18 03:35:47.27	44.23	8.55	-85.2	-88.6	3.0	1.56e+00	0	47	104	0	60	1048572
2026-01-18 03:35:48.28	44.12	8.61	-85.2	-88.6	3.0	1.56e+00	0	47	104	0	60	1048575
2026-01-18 03:35:49.29	44.00	8.68	-85.2	-88.6	2.8	1.56e+00	0	47	104	0	60	1048573
2026-01-18 03:35:50.30	43.89	8.74	-85.2	-88.6	2.8	1.55e+00	0	47	104	0	60	1048574
2026-01-18 03:35:51.31	43.77	8.80	-85.2	-88.6	2.7	1.56e+00	0	47	104	0	60	1048575
2026-01-18 03:35:52.31	43.66	8.86	-85.2	-88.6	2.9	1.56e+00	0	47	104	0	60	1048573
2026-01-18 03:35:53.32	43.54	8.93	-85.2	-88.6	3.1	1.56e+00	0	47	104	0	60	1048573
2026-01-18 03:35:54.33	43.43	8.99	-85.2	-88.6	3.0	1.56e+00	0	47	104	0	60	1048572
2026-01-18 03:35:55.33	43.31	9.05	-85.2	-88.6	2.9	1.55e+00	0	47	104	0	60	1048574
2026-01-18 03:35:56.34	43.20	9.11	-85.2	-88.6	2.9	1.56e+00	0	47	104	0	60	1048575
2026-01-18 03:35:57.35	43.08	9.18	-85.2	-88.6	2.9	1.56e+00	0	47	104	0	60	1048575
2026-01-18 03:35:58.36	42.96	9.24	-85.2	-88.6	2.8	1.56e+00	0	47	104	0	60	1048575
2026-01-18 03:35:59.37	42.84	9.30	-85.2	-88.6	3.1	1.55e+00	0	47	104	0	60	1048573
2026-01-18 03:36:00.37	42.72	9.37	-85.2	-88.6	3.0	1.56e+00	0	47	104	0	60	1048574
2026-01-18 03:36:01.38	42.60	9.43	-85.2	-88.6	3.0	1.56e+00	0	47	104	0	60	1048573
2026-01-18 03:36:02.39	42.48	9.49	-85.2	-88.6	3.0	1.56e+00	0	47	104	0	60	1048572
2026-01-18 03:36:03.40	42.36	9.56	-85.2	-88.6	3.0	1.56e+00	0	47	104	0	60	1048575
2026-01-18 03:36:04.41	42.24	9.62	-85.2	-88.6	3.0	1.56e+00	0	47	104	0	60	1048575
2026-01-18 03:36:05.41	42.12	9.68	-85.2	-88.6	3.1	1.56e+00	0	47	104	0	60	1048575
2026-01-18 03:36:06.42	42.00	9.74	-85.2	-88.6	2.9	1.56e+00	0	47	104	0	60	1048571
2026-01-18 03:36:07.43	41.88	9.81	-85.2	-88.6	3.0	1.56e+00	0	47	104	0	60	1048575
2026-01-18 03:36:08.43	41.75	9.87	-85.2	-88.6	2.8	1.55e+00	0	47	104	0	60	1048571
2026-01-18 03:36:09.44	41.63	9.93	-85.2	-88.6	2.9	1.55e+00	0	47	104	0	60	1048575
2026-01-18 03:36:10.45	41.51	10.00	-85.2	-88.6	3.2	1.55e+00	0	47	104	0	60	1048575
2026-01-18 03:36:11.46	41.38	10.06	-85.2	-88.6	3.1	1.56e+00	0	47	104	0	60	1048574
2026-01-18 03:36:12.47	41.25	10.12	-85.2	-88.6	3.0	1.56e+00	0	47	104	0	60	1048572
2026-01-18 03:36:13.48	41.13	10.19	-85.2	-88.6	2.9	1.55e+00	0	47	104	0	60	1048575
2026-01-18 03:36:14.48	41.00	10.25	-85.2	-88.6	3.2	1.56e+00	0	47	104	0	60	1048573
2026-01-18 03:36:15.49	40.88	10.31	-85.2	-88.6	3.0	1.55e+00	0	47	104	0	60	1048574
2026-01-18 03:36:16.50	40.75	10.38	-85.2	-88.6	3.2	1.56e+00	0	47	104	0	60	1048575
2026-01-18 03:36:17.50	40.62	10.44	-85.2	-88.6	3.0	1.55e+00	0	47	104	0	60	1048575
2026-01-18 03:36:18.51	40.49	10.50	-85.2	-88.6	3.0	1.55e+00	0	47	104	0	60	1048575
2026-01-18 03:36:19.52	40.36	10.57	-85.2	-88.6	3.0	1.55e+00	0	47	104	0	60	1048575
2026-01-18 03:36:20.52	40.23	10.63	-85.2	-88.6	3.0	1.56e+00	0	47	104	0	60	1048575
2026-01-18 03:36:21.53	40.10	10.69	-85.2	-88.6	3.0	1.56e+00	0	47	104	0	60	1048574
2026-01-18 03:36:22.54	39.97	10.76	-84.3	-88.6	3.2	1.55e+00	0	47	104	0	60	1048572
2026-01-18 03:36:23.55	39.84	10.82	-85.2	-88.6	3.1	1.56e+00	0	47	104	0	60	1048575
2026-01-18 03:36:24.56	39.71	10.88	-85.2	-88.6	2.9	1.56e+00	0	47	104	0	60	1048575
2026-01-18 03:36:25.56	39.58	10.95	-85.2	-88.6	3.1	1.55e+00	0	47	104	0	60	1048573
2026-01-18 03:36:26.57	39.44	11.01	-85.2	-88.6	3.1	1.56e+00	0	47	104	0	60	1048574
2026-01-18 03:36:27.58	39.31	11.07	-85.2	-88.6	2.8	1.56e+00	0	47	104	0	60	1048575
2026-01-18 03:36:28.59	39.17	11.14	-85.2	-88.6	3.0	1.56e+00	0	47	104	0	60	1048575
2026-01-18 03:36:29.60	39.04	11.20	-85.2	-88.6	2.9	1.55e+00	0	47	104	0	60	1048575
2026-01-18 03:36:30.61	38.90	11.27	-85.2	-88.6	3.0	1.56e+00	0	47	104	0	60	1048575
2026-01-18 03:36:31.61	38.77	11.33	-85.2	-88.6	2.8	1.56e+00	0	47	104	0	60	1048575
2026-01-18 03:36:32.62	38.63	11.39	-85.2	-88.6	2.9	1.56e+00	0	47	104	0	60	1048575
2026-01-18 03:36:33.63	38.49	11.46	-85.2	-88.6	3.0	1.55e+00	0	47	104	0	60	1048575
2026-01-18 03:36:34.64	38.35	11.52	-85.2	-88.6	3.2	1.56e+00	0	47	104	0	60	1048573
2026-01-18 03:36:35.64	38.21	11.58	-85.2	-88.6	3.2	1.56e+00	0	47	104	0	60	1048573
2026-01-18 03:36:36.65	38.07	11.65	-85.2	-88.6	2.9	1.56e+00	0	47	104	0	60	1048574
2026-01-18 03:36:37.66	37.93	11.71	-85.2	-88.6	3.0	1.56e+00	0	47	104	0	60	1048574
2026-01-18 03:36:38.67	37.79	11.77	-85.2	-88.6	3.1	1.56e+00	0	47	104	0	60	1048575
2026-01-18 03:36:39.68	37.65	11.84	-85.2	-88.6	3.0	1.56e+00	0	47	104	0	60	1048574
2026-01-18 03:36:40.69	37.51	11.90	-85.2	-88.6	3.0	1.56e+00	0	47	104	0	60	1048575
2026-01-18 03:36:41.69	37.37	11.96	-85.2	-88.6	3.0	1.56e+00	0	47	104	0	60	1048574
2026-01-18 03:36:42.70	37.22	12.03	-85.2	-88.6	2.9	1.56e+00	0	47	104	0	60	1048574
2026-01-18 03:36:43.71	37.08	12.09	-85.2	-88.6	3.0	1.56e+00	0	47	104	0	60	1048574
2026-01-18 03:36:44.72	36.94	12.16	-85.2	-88.6	3.0	1.56e+00	0	47	104	0	60	1048573
2026-01-18 03:36:45.72	36.79	12.22	-85.2	-88.6	3.0	1.56e+00	0	47	104	0	60	1048575
2026-01-18 03:36:46.73	36.65	12.28	-85.2	-88.6	3.1	1.55e+00	0	47	104	0	60	1048575
2026-01-18 03:36:47.73	36.50	12.35	-85.2	-88.6	3.2	1.55e+00	0	47	104	0	60	1048575
2026-01-18 03:36:48.73	36.35	12.41	-85.2	-88.6	3.1	1.56e+00	0	47	104	0	60	1048574
2026-01-18 03:36:49.74	36.21	12.47	-85.2	-88.6	3.3	1.56e+00	0	47	104	0	60	1048575
2026-01-18 03:36:50.75	36.06	12.54	-85.2	-88.6	3.1	1.56e+00	0	47	104	0	60	1048574
2026-01-18 03:36:51.76	35.91	12.60	-85.2	-88.6	2.8	1.56e+00	0	47	104	0	60	1048570
2026-01-18 03:36:52.77	35.76	12.66	-85.2	-88.6	3.2	1.56e+00	0	47	104	0	60	1048575
2026-01-18 03:36:53.77	35.61	12.73	-85.2	-88.6	2.9	1.56e+00	0	47	104	0	60	1048574
2026-01-18 03:36:54.78	35.46	12.79	-85.2	-88.6	3.0	1.56e+00	0	47	104	0	60	1048573
2026-01-18 03:36:55.79	35.31	12.85	-85.2	-88.6	3.0	1.56e+00	0	47	104	0	60	1048573
2026-01-18 03:36:56.80	35.15	12.92	-85.2	-88.6	3.2	1.56e+00	0	47	104	0	60	1048575
2026-01-18 03:36:57.80	35.00	12.98	-85.2	-88.6	2.9	1.56e+00	0	47	104	0	60	1048575
2026-01-18 03:36:58.81	34.85	13.04	-85.2	-88.6	2.9	1.56e+00	0	47	104	0	60	1048575
2026-01-18 03:36:59.82	34.69	13.10	-85.2	-88.6	2.8	1.55e+00	0	47	104	0	60	1048574
2026-01-18 03:37:00.83	34.54	13.17	-84.3	-88.6	3.0	1.55e+00	0	47	104	0	60	1048574
2026-01-18 03:37:01.83	34.38	13.23	-85.2	-88.6	3.2	1.56e+00	0	47	104	0	60	1048570
2026-01-18 03:37:02.84	34.23	13.29	-85.2	-88.6	3.2	1.56e+00	0	47	104	0	60	1048574
2026-01-18 03:37:03.84	34.07	13.36	-85.2	-88.6	3.0	1.56e+00	0	47	104	0	60	1048573
2026-01-18 03:37:04.85	33.91	13.42	-85.2	-88.6	3.1	1.56e+00	0	47	104	0	60	1048573
2026-01-18 03:37:05.86	33.76	13.48	-85.2	-88.6	3.1	1.56e+00	0	47	104	0	60	1048573
2026-01-18 03:37:06.86	33.60	13.54	-85.2	-88.6	2.9	1.56e+00	0	47	104	0	60	1048575
2026-01-18 03:37:07.87	33.44	13.61	-85.2	-88.6	2.9	1.55e+00	0	47	104	0	60	1048574
2026-01-18 03:37:08.88	33.28	13.67	-85.2	-88.6	3.0	1.55e+00	0	47	104	0	60	1048575
2026-01-18 03:37:09.88	33.12	13.73	-85.2	-88.6	3.2	1.56e+00	0	47	104	0	60	1048575
2026-01-18 03:37:10.89	32.96	13.79	-85.2	-88.6	3.0	1.56e+00	0	47	104	0	60	1048575
2026-01-18 03:37:11.90	32.79	13.86	-85.2	-88.6	3.1	1.56e+00	0	47	104	0	60	1048575
2026-01-18 03:37:12.91	32.63	13.92	-85.2	-88.6	2.9	1.56e+00	0	47	104	0	60	1048575
2026-01-18 03:37:13.92	32.46	13.98	-85.2	-88.6	2.8	1.56e+00	0	47	104	0	60	1048575
2026-01-18 03:37:14.93	32.30	14.04	-85.2	-88.6	2.8	1.56e+00	0	47	104	0	60	1048575
2026-01-18 03:37:15.93	32.14	14.11	-85.2	-88.6	2.8	1.56e+00	0	47	104	0	60	1048575
2026-01-18 03:37:16.94	31.97	14.17	-85.2	-88.6	2.8	1.56e+00	0	47	104	0	60	1048575
2026-01-18 03:37:17.95	31.80	14.23	-85.2	-88.6	2.8	1.56e+00	0	47	104	0	60	1048575
2026-01-18 03:37:18.95	31.64	14.29	-85.2	-88.6	2.9	1.56e+00	0	47	104	0	60	1048575
2026-01-18 03:37:19.96	31.47	14.35	-85.2	-88.6	3.1	1.56e+00	0	47	104	0	60	1048575
2026-01-18 03:37:20.96	31.30	14.41	-85.2	-88.6	2.9	1.56e+00	0	47	104	0	60	1048575
2026-01-18 03:37:21.97	31.13	14.48	-85.2	-88.6	3.1	1.56e+00	0	47	104	0	60	1048575
2026-01-18 03:37:22.98	30.96	14.54	-85.2	-88.6	3.1	1.56e+00	0	47	104	0	60	1048575
2026-01-18 03:37:23.99	30.79	14.60	-85.2	-88.6	3.1	1.56e+00	0	47	104	0	60	1048575
2026-01-18 03:37:25.00	30.62	14.66	-85.2	-88.6	3.0	1.55e+00	0	47	104	0	60	1048575
2026-01-18 03:37:26.00	30.45	14.72	-85.2	-88.6	3.0	1.56e+00	0	47	104	0	60	1048574
2026-01-18 03:37:27.01	30.27	14.78	-85.2	-88.6	2.9	1.56e+00	0	47	104	0	60	1048575
2026-01-18 03:37:28.02	30.10	14.84	-85.2	-88.6	3.2	1.56e+00	0	47	104	0	60	1048570
2026-01-18 03:37:29.03	29.92	14.90	-85.2	-88.6	3.1	1.56e+00	0	47	104	0	60	1048573
2026-01-18 03:37:30.03	29.75	14.96	-85.2	-88.6	3.1	1.56e+00	0	47	104	0	60	1048572
2026-01-18 03:37:31.04	29.57	15.03	-85.2	-88.6	2.8	1.55e+00	0	47	104	0	60	1048574
2026-01-18 03:37:32.05	29.40	15.09	-85.2	-88.6	3.1	1.55e+00	0	47	104	0	60	1048568
2026-01-18 03:37:33.05	29.22	15.15	-85.2	-88.6	3.0	1.56e+00	0	47	104	0	60	1048575
2026-01-18 03:37:34.06	29.04	15.21	-85.2	-88.6	2.9	1.55e+00	0	47	104	0	60	1048574
2026-01-18 03:37:35.07	28.86	15.27	-85.2	-88.6	3.0	1.56e+00	0	47	104	0	60	1048574
2026-01-18 03:37:36.08	28.68	15.33	-85.2	-88.6	2.9	1.56e+00	0	47	104	0	60	1048574
2026-01-18 03:37:37.09	28.50	15.39	-85.2	-88.6	3.0	1.56e+00	0	47	104	0	60	1048572
2026-01-18 03:37:38.09	28.32	15.45	-85.2	-88.6	3.1	1.56e+00	0	47	104	0	60	1048575
2026-01-18 03:37:39.10	28.14	15.51	-84.3	-88.6	3.1	1.56e+00	0	47	104	0	60	1048574
2026-01-18 03:37:40.11	27.96	15.56	-85.2	-88.6	3.2	1.56e+00	0	47	104	0	60	1048575
2026-01-18 03:37:41.12	27.77	15.62	-85.2	-88.6	3.0	1.56e+00	0	47	104	0	60	1048575
2026-01-18 03:37:42.12	27.59	15.68	-85.2	-88.6	3.0	1.56e+00	0	47	104	0	60	1048571
2026-01-18 03:37:43.13	27.41	15.74	-85.2	-88.6	2.9	1.56e+00	0	47	104	0	60	1048574
2026-01-18 03:37:44.14	27.22	15.80	-85.2	-88.6	2.9	1.56e+00	0	47	104	0	60	1048575
2026-01-18 03:37:45.15	27.03	15.86	-85.2	-88.6	2.8	1.56e+00	0	47	104	0	60	1048575
2026-01-18 03:37:46.16	26.85	15.92	-85.2	-88.6	3.1	1.56e+00	0	47	104	0	60	1048575
2026-01-18 03:37:47.17	26.66	15.98	-85.2	-88.6	3.0	1.56e+00	0	47	104	0	60	1048573
2026-01-18 03:37:48.16	26.47	16.03	-85.2	-88.6	3.1	1.55e+00	0	47	104	0	60	1048575
2026-01-18 03:37:49.17	26.28	16.09	-85.2	-88.6	3.1	1.56e+00	0	47	104	0	60	1048575
2026-01-18 03:37:50.18	26.09	16.15	-85.2	-88.6	2.9	1.56e+00	0	47	104	0	60	1048574
2026-01-18 03:37:51.19	25.90	16.21	-85.2	-88.6	3.0	1.56e+00	0	47	104	0	60	1048574
2026-01-18 03:37:52.20	25.71	16.26	-85.2	-88.6	3.2	1.55e+00	0	47	104	0	60	1048574
2026-01-18 03:37:53.20	25.52	16.32	-85.2	-88.6	2.8	1.56e+00	0	47	104	0	60	1048575
2026-01-18 03:37:54.21	25.33	16.38	-85.2	-88.6	3.1	1.56e+00	0	47	104	0	60	1048575
2026-01-18 03:37:55.21	25.13	16.43	-85.2	-88.6	2.8	1.56e+00	0	47	104	0	60	1048569
2026-01-18 03:37:56.22	24.94	16.49	-85.2	-88.6	3.1	1.56e+00	0	47	104	0	60	1048575
2026-01-18 03:37:57.23	24.74	16.55	-85.2	-88.6	2.9	1.56e+00	0	47	104	0	60	1048575
2026-01-18 03:37:58.24	24.55	16.60	-85.2	-88.6	3.1	1.56e+00	0	47	104	0	60	1048575
2026-01-18 03:37:59.25	24.35	16.66	-85.2	-88.6	3.1	1.56e+00	0	47	104	0	60	1048574
2026-01-18 03:38:00.26	24.15	16.71	-85.2	-88.6	3.0	1.56e+00	0	47	104	0	60	1048570
2026-01-18 03:38:01.26	23.96	16.77	-85.2	-88.6	2.7	1.55e+00	0	47	104	0	60	1048575
2026-01-18 03:38:02.27	23.76	16.82	-85.2	-88.6	3.1	1.55e+00	0	47	104	0	60	1048575
2026-01-18 03:38:03.28	23.56	16.88	-85.2	-88.6	2.9	1.56e+00	0	47	104	0	60	1048575
2026-01-18 03:38:04.29	23.36	16.93	-85.2	-88.6	3.0	1.56e+00	0	47	104	0	60	1048574
2026-01-18 03:38:05.29	23.16	16.99	-82.8	-88.6	3.0	1.55e+00	0	47	104	0	60	1048575
2026-01-18 03:38:06.30	22.95	17.04	-85.2	-88.6	3.0	1.55e+00	0	47	104	0	60	1048574
2026-01-18 03:38:07.31	22.75	17.10	-85.2	-88.6	3.0	1.55e+00	0	47	104	0	60	1048570
2026-01-18 03:38:08.31	22.55	17.15	-85.2	-88.6	3.2	1.56e+00	0	47	104	0	60	1048575
2026-01-18 03:38:09.32	22.35	17.20	-84.3	-88.6	3.0	1.56e+00	0	47	104	0	60	1048570
2026-01-18 03:38:10.32	22.14	17.26	-85.2	-88.6	2.9	1.56e+00	0	47	104	0	60	1048575
2026-01-18 03:38:11.33	21.94	17.31	-85.2	-88.6	3.0	1.56e+00	0	47	104	0	60	1048574
2026-01-18 03:38:12.34	21.73	17.36	-85.2	-88.6	3.1	1.56e+00	0	47	104	0	60	1048575
2026-01-18 03:38:13.34	21.52	17.41	-85.2	-88.6	2.9	1.56e+00	0	47	104	0	60	1048575
2026-01-18 03:38:14.35	21.32	17.47	-85.2	-88.6	3.1	1.56e+00	0	47	104	0	60	1048572
2026-01-18 03:38:15.36	21.11	17.52	-85.2	-88.6	3.0	1.56e+00	0	47	104	0	60	1048575
2026-01-18 03:38:16.37	20.90	17.57	-85.2	-88.6	3.0	1.56e+00	0	47	104	0	60	1048572
2026-01-18 03:38:17.38	20.69	17.62	-85.2	-88.6	3.0	1.56e+00	0	47	104	0	60	1048574
2026-01-18 03:38:18.39	20.48	17.67	-85.2	-88.6	3.0	1.56e+00	0	47	104	0	60	1048574
2026-01-18 03:38:19.39	20.27	17.72	-85.2	-88.6	3.0	1.55e+00	0	47	104	0	60	1048575
2026-01-18 03:38:20.40	20.06	17.77	-85.2	-88.6	3.0	1.55e+00	0	47	104	0	60	1048574
2026-01-18 03:38:21.40	19.84	17.82	-85.2	-88.6	3.0	1.55e+00	0	47	104	0	60	1048575
2026-01-18 03:38:22.41	19.63	17.87	-85.2	-88.6	3.1	1.55e+00	0	47	104	0	60	1048574
2026-01-18 03:38:23.42	19.42	17.92	-85.2	-88.6	3.1	1.56e+00	0	47	104	0	60	1048571
2026-01-18 03:38:24.43	19.20	17.97	-85.2	-88.6	3.0	1.56e+00	0	47	104	0	60	1048575
2026-01-18 03:38:25.44	18.98	18.02	-85.2	-88.6	2.9	1.56e+00	0	47	104	0	60	1048574
2026-01-18 03:38:26.45	18.77	18.07	-85.2	-88.6	3.2	1.55e+00	0	47	104	0	60	1048575
2026-01-18 03:38:27.45	18.55	18.12	-85.2	-88.6	3.0	1.56e+00	0	47	104	0	60	1048575
2026-01-18 03:38:28.45	18.34	18.17	-85.2	-88.6	2.8	1.56e+00	0	47	104	0	60	1048573
2026-01-18 03:38:29.45	18.12	18.21	-84.3	-88.6	3.2	1.56e+00	0	47	104	0	60	1048575
2026-01-18 03:38:30.46	17.90	18.26	-84.3	-88.6	2.8	1.55e+00	0	47	104	0	60	1048575
2026-01-18 03:38:31.47	17.68	18.31	-85.2	-88.6	3.1	1.56e+00	0	47	104	0	60	1048575
2026-01-18 03:38:32.48	17.46	18.35	-85.2	-88.6	3.2	1.56e+00	0	47	104	0	60	1048574
2026-01-18 03:38:33.48	17.24	18.40	-85.2	-88.6	3.0	1.55e+00	0	47	104	0	60	1048570
2026-01-18 03:38:34.49	17.02	18.45	-84.3	-88.6	3.1	1.56e+00	0	47	104	0	60	1048575
2026-01-18 03:38:35.50	16.80	18.49	-84.3	-88.6	3.2	1.56e+00	0	47	104	0	60	1048573
2026-01-18 03:38:36.51	16.57	18.54	-85.2	-88.6	3.2	1.56e+00	0	47	104	0	60	1048573
2026-01-18 03:38:37.51	16.35	18.58	-85.2	-88.6	2.9	1.56e+00	0	47	104	0	60	1048574
2026-01-18 03:38:38.52	16.13	18.62	-85.2	-88.6	3.0	1.56e+00	0	47	104	0	60	1048575
2026-01-18 03:38:39.52	15.90	18.67	-84.3	-88.6	3.0	1.56e+00	0	47	104	0	60	1048572
2026-01-18 03:38:40.53	15.68	18.71	-85.2	-88.6	2.8	1.55e+00	0	47	104	0	60	1048575
2026-01-18 03:38:41.54	15.45	18.76	-85.2	-88.6	3.0	1.56e+00	0	47	104	0	60	1048574
2026-01-18 03:38:42.55	15.22	18.80	-85.2	-88.6	2.9	1.56e+00	0	47	104	0	60	1048573
2026-01-18 03:38:43.55	15.00	18.84	-85.2	-88.6	3.1	1.56e+00	0	47	104	0	60	1048574
2026-01-18 03:38:44.56	14.77	18.88	-83.5	-88.6	2.8	1.56e+00	0	47	104	0	60	1048575
2026-01-18 03:38:45.57	14.54	18.92	-85.2	-88.6	2.8	1.56e+00	0	47	104	0	60	1048575
2026-01-18 03:38:46.58	14.31	18.97	-85.2	-88.6	3.0	1.56e+00	0	47	104	0	60	1048574
2026-01-18 03:38:47.59	14.08	19.01	-85.2	-88.6	2.9	1.56e+00	0	47	104	0	60	1048575
2026-01-18 03:38:48.59	13.85	19.05	-85.2	-88.6	3.0	1.56e+00	0	47	104	0	60	1048575
2026-01-18 03:38:49.60	13.62	19.09	-85.2	-88.6	2.8	1.56e+00	0	47	104	0	60	1048575
2026-01-18 03:38:50.61	13.39	19.13	-84.7	-88.6	3.0	1.56e+00	0	47	104	0	60	1048571
2026-01-18 03:38:51.62	13.15	19.16	-85.2	-88.6	2.9	1.56e+00	0	47	104	0	60	1048571
2026-01-18 03:38:52.63	12.92	19.20	-85.2	-88.6	2.9	1.56e+00	0	47	104	0	60	1048575
2026-01-18 03:38:53.63	12.69	19.24	-85.2	-88.6	3.1	1.55e+00	0	47	104	0	60	1048572
2026-01-18 03:38:54.64	12.45	19.28	-85.2	-88.6	3.1	1.56e+00	0	47	104	0	60	1048574
2026-01-18 03:38:55.65	12.22	19.32	-85.2	-88.6	3.0	1.55e+00	0	47	104	0	60	1048575
2026-01-18 03:38:56.66	11.98	19.35	-85.2	-88.6	3.0	1.55e+00	0	47	104	0	60	1048575
2026-01-18 03:38:57.66	11.75	19.39	-85.2	-88.6	2.9	1.56e+00	0	47	104	0	60	1048575
2026-01-18 03:38:58.67	11.51	19.43	-85.2	-88.6	3.2	1.56e+00	0	47	104	0	60	1048575
2026-01-18 03:38:59.67	11.27	19.46	-85.2	-88.6	3.0	1.56e+00	0	47	104	0	60	1048575
2026-01-18 03:39:00.68	11.04	19.50	-85.2	-88.6	3.0	1.56e+00	0	47	104	0	60	1048574
2026-01-18 03:39:01.68	10.80	19.53	-85.2	-88.6	3.0	1.56e+00	0	47	104	0	60	1048574
2026-01-18 03:39:02.69	10.56	19.56	-85.2	-88.6	3.0	1.56e+00	0	47	104	0	60	1048575
2026-01-18 03:39:03.70	10.32	19.60	-85.2	-88.6	3.1	1.56e+00	0	47	104	0	60	1048575
2026-01-18 03:39:04.70	10.08	19.63	-85.2	-88.6	2.9	1.56e+00	0	47	104	0	60	1048574
2026-01-18 03:39:05.71	9.84	19.66	-85.2	-88.6	3.0	1.56e+00	0	47	104	0	60	1048573
2026-01-18 03:39:06.72	9.60	19.70	-85.2	-88.6	2.9	1.56e+00	0	47	104	0	60	1048574
2026-01-18 03:39:07.72	9.36	19.73	-85.2	-88.6	3.1	1.56e+00	0	47	104	0	60	1048572
2026-01-18 03:39:08.73	9.12	19.76	-85.2	-88.6	2.8	1.56e+00	0	47	104	0	60	1048575
2026-01-18 03:39:09.74	8.87	19.79	-85.2	-88.6	3.0	1.56e+00	0	47	104	0	60	1048575
2026-01-18 03:39:10.74	8.63	19.82	-85.2	-88.6	3.0	1.56e+00	0	47	104	0	60	1048575
2026-01-18 03:39:11.75	8.39	19.85	-85.2	-88.6	3.0	1.55e+00	0	47	104	0	60	1048575
2026-01-18 03:39:12.76	8.15	19.88	-85.2	-88.6	2.9	1.56e+00	0	47	104	0	60	1048575
2026-01-18 03:39:13.76	7.90	19.91	-85.2	-88.6	3.0	1.56e+00	0	47	104	0	60	1048575
2026-01-18 03:39:14.77	7.66	19.93	-85.2	-88.6	2.9	1.56e+00	0	47	104	0	60	1048575
2026-01-18 03:39:15.78	7.41	19.96	-85.2	-88.6	2.9	1.56e+00	0	47	104	0	60	1048575
2026-01-18 03:39:16.78	7.17	19.99	-85.2	-88.6	3.1	1.55e+00	0	47	104	0	60	1048574
2026-01-18 03:39:17.79	6.92	20.02	-85.2	-88.6	2.9	1.56e+00	0	47	104	0	60	1048574
2026-01-18 03:39:18.80	6.67	20.04	-85.2	-88.6	3.0	1.56e+00	0	47	104	0	60	1048575
2026-01-18 03:39:19.81	6.43	20.07	-85.2	-88.6	3.1	1.56e+00	0	47	104	0	60	1048575
2026-01-18 03:39:20.82	6.18	20.09	-85.2	-88.6	3.0	1.56e+00	0	47	104	0	60	1048575
2026-01-18 03:39:21.83	5.93	20.12	-85.2	-88.6	3.0	1.56e+00	0	47	104	0	60	1048575
2026-01-18 03:39:22.83	5.68	20.14	-85.2	-88.6	3.0	1.56e+00	0	47	104	0	60	1048573
2026-01-18 03:39:23.84	5.44	20.16	-85.2	-88.6	2.9	1.56e+00	0	47	104	0	60	1048571
2026-01-18 03:39:24.85	5.19	20.19	-85.2	-88.6	3.0	1.56e+00	0	47	104	0	60	1048575
2026-01-18 03:39:25.86	4.94	20.21	-84.7	-88.6	3.1	1.56e+00	0	47	104	0	60	1048575
2026-01-18 03:39:26.86	4.69	20.23	-85.2	-88.6	3.0	1.56e+00	0	47	104	0	60	1048575
2026-01-18 03:39:27.87	4.44	20.25	-85.2	-88.6	2.9	1.56e+00	0	47	104	0	60	1048574
2026-01-18 03:39:28.88	4.19	20.27	-85.2	-88.6	3.1	1.56e+00	0	47	104	0	60	1048573
2026-01-18 03:39:29.88	3.94	20.29	-85.2	-88.6	3.0	1.56e+00	0	47	104	0	60	1048574
2026-01-18 03:39:30.89	3.69	20.31	-85.2	-88.6	3.0	1.56e+00	0	47	104	0	60	1048575
2026-01-18 03:39:31.89	3.44	20.33	-85.2	-88.6	2.8	1.56e+00	0	47	104	0	60	1048574
2026-01-18 03:39:32.90	3.19	20.35	-85.2	-88.6	3.0	1.56e+00	0	47	104	0	60	1048574
2026-01-18 03:39:33.91	2.93	20.37	-85.2	-88.6	2.9	1.56e+00	0	47	104	0	60	1048575
2026-01-18 03:39:34.91	2.68	20.38	-85.2	-88.6	3.2	1.56e+00	0	47	104	0	60	1048574
2026-01-18 03:39:35.92	2.43	20.40	-85.2	-88.6	3.2	1.56e+00	0	47	104	0	60	1048575
2026-01-18 03:39:36.93	2.18	20.42	-85.2	-88.6	3.0	1.56e+00	0	47	104	0	60	1048575
2026-01-18 03:39:37.94	1.92	20.43	-85.2	-88.6	3.1	1.56e+00	0	47	104	0	60	1048575
2026-01-18 03:39:38.95	1.67	20.45	-85.2	-88.6	3.0	1.56e+00	0	47	104	0	60	1048574
2026-01-18 03:39:39.96	1.42	20.46	-85.2	-88.6	3.0	1.55e+00	0	47	104	0	60	1048575
2026-01-18 03:39:40.97	1.16	20.47	-85.2	-88.6	3.0	1.56e+00	0	47	104	0	60	1048575
2026-01-18 03:39:41.97	0.91	20.49	-85.2	-88.6	3.0	1.55e+00	0	47	104	0	60	1048575
2026-01-18 03:39:42.98	0.65	20.50	-85.2	-88.6	3.0	1.56e+00	0	47	104	0	60	1048575
2026-01-18 03:39:43.99	0.40	20.51	-85.2	-88.6	2.8	1.56e+00	0	47	104	0	60	1048574
2026-01-18 03:39:44.99	0.15	20.52	-85.2	-88.6	3.2	1.56e+00	0	47	104	0	60	1048575
2026-01-18 03:39:46.00	359.89	20.53	-85.2	-88.6	3.0	1.56e+00	0	47	104	0	60	1048574
2026-01-18 03:39:47.00	359.64	20.54	-85.2	-88.6	3.0	1.56e+00	0	47	104	0	60	1048575
2026-01-18 03:39:48.01	359.38	20.55	-85.2	-88.6	3.1	1.56e+00	0	47	104	0	60	1048574
2026-01-18 03:39:49.01	359.13	20.56	-85.2	-88.6	3.2	1.56e+00	0	47	104	0	60	1048570
2026-01-18 03:39:50.02	358.87	20.57	-85.2	-88.6	2.8	1.56e+00	0	47	104	0	60	1048572
2026-01-18 03:39:51.03	358.62	20.58	-85.2	-88.6	3.0	1.56e+00	0	47	104	0	60	1048573
2026-01-18 03:39:52.03	358.36	20.58	-85.2	-88.6	3.1	1.56e+00	0	47	104	0	60	1048573
2026-01-18 03:39:53.04	358.11	20.59	-85.2	-88.6	2.8	1.56e+00	0	47	104	0	60	1048575
2026-01-18 03:39:54.05	357.85	20.60	-85.2	-88.6	3.1	1.56e+00	0	47	104	0	60	1048574
2026-01-18 03:39:55.06	357.60	20.60	-85.2	-88.6	3.1	1.56e+00	0	47	104	0	60	1048574
2026-01-18 03:39:56.07	357.34	20.61	-85.2	-88.6	2.9	1.56e+00	0	47	104	0	60	1048575
2026-01-18 03:39:57.08	357.08	20.61	-85.2	-88.6	3.0	1.56e+00	0	47	104	0	60	1048575
2026-01-18 03:39:58.08	356.83	20.62	-85.2	-88.6	2.9	1.56e+00	0	47	104	0	60	1048575
2026-01-18 03:39:59.09	356.57	20.62	-85.2	-88.6	3.1	1.55e+00	0	47	104	0	60	1048572
2026-01-18 03:40:00.09	356.32	20.62	-84.3	-88.6	2.9	1.55e+00	0	47	104	0	60	1048573
2026-01-18 03:40:01.10	356.06	20.62	-85.2	-88.6	3.1	1.56e+00	0	47	104	0	60	1048575
2026-01-18 03:40:02.11	355.80	20.62	-85.2	-88.6	3.0	1.56e+00	0	47	104	0	60	1048568
2026-01-18 03:40:03.12	355.55	20.62	-85.2	-88.6	2.9	1.55e+00	0	47	104	0	60	1048575
2026-01-18 03:40:04.13	355.29	20.62	-85.2	-88.6	3.0	1.56e+00	0	47	104	0	60	1048572
2026-01-18 03:40:05.13	355.04	20.62	-85.2	-88.6	3.0	1.56e+00	0	47	104	0	60	1048572
2026-01-18 03:40:06.14	354.78	20.62	-85.2	-88.6	3.0	1.55e+00	0	47	104	0	60	1048574
2026-01-18 03:40:07.15	354.52	20.62	-85.2	-88.6	3.1	1.56e+00	0	47	104	0	60	1048575
2026-01-18 03:40:08.15	354.27	20.62	-83.9	-88.6	3.0	1.56e+00	0	47	104	0	60	1048573
2026-01-18 03:40:09.16	354.01	20.61	-85.2	-88.6	3.0	1.56e+00	0	47	104	0	60	1048575
2026-01-18 03:40:10.17	353.75	20.61	-85.2	-88.6	3.2	1.56e+00	0	47	104	0	60	1048575
2026-01-18 03:40:11.17	353.50	20.61	-85.2	-88.6	2.9	1.56e+00	0	47	104	0	60	1048575
2026-01-18 03:40:12.18	353.24	20.60	-85.2	-88.6	3.0	1.55e+00	0	47	104	0	60	1048574
2026-01-18 03:40:13.19	352.99	20.60	-85.2	-88.6	3.0	1.56e+00	0	47	104	0	60	1048574
2026-01-18 03:40:14.20	352.73	20.59	-85.2	-88.6	2.9	1.56e+00	0	47	104	0	60	1048575
2026-01-18 03:40:15.20	352.48	20.58	-85.2	-88.6	2.8	1.56e+00	0	47	104	0	60	1048575
2026-01-18 03:40:16.21	352.22	20.58	-85.2	-88.6	2.9	1.55e+00	0	47	104	0	60	1048573
2026-01-18 03:40:17.22	351.96	20.57	-85.2	-88.6	3.1	1.56e+00	0	47	104	0	60	1048575
2026-01-18 03:40:18.23	351.71	20.56	-85.2	-88.6	2.9	1.56e+00	0	47	104	0	60	1048569
2026-01-18 03:40:19.24	351.45	20.55	-85.2	-88.6	3.2	1.56e+00	0	47	104	0	60	1048575
2026-01-18 03:40:20.24	351.20	20.54	-85.2	-88.6	3.0	1.56e+00	0	47	104	0	60	1048575
2026-01-18 03:40:21.25	350.95	20.53	-85.2	-88.6	2.8	1.56e+00	0	47	104	0	60	1048575
2026-01-18 03:40:22.25	350.69	20.52	-85.2	-88.6	3.0	1.56e+00	0	47	104	0	60	1048573
2026-01-18 03:40:23.26	350.44	20.51	-85.2	-88.6	2.9	1.56e+00	0	47	104	0	60	1048575
2026-01-18 03:40:24.27	350.18	20.49	-85.2	-88.6	2.8	1.55e+00	0	47	104	0	60	1048574
2026-01-18 03:40:25.28	349.93	20.48	-85.2	-88.6	3.1	1.56e+00	0	47	104	0	60	1048575
2026-01-18 03:40:26.28	349.68	20.47	-85.2	-88.6	3.1	1.55e+00	0	47	104	0	60	1048574
2026-01-18 03:40:27.29	349.42	20.46	-85.2	-88.6	2.9	1.56e+00	0	47	104	0	60	1048574
2026-01-18 03:40:28.30	349.17	20.44	-85.2	-88.6	2.9	1.56e+00	0	47	104	0	60	1048574
2026-01-18 03:40:29.31	348.91	20.43	-85.2	-88.6	2.9	1.55e+00	0	47	104	0	60	1048572
2026-01-18 03:40:30.32	348.66	20.41	-85.2	-88.6	2.9	1.55e+00	0	47	104	0	60	1048575
2026-01-18 03:40:31.33	348.41	20.39	-85.2	-88.6	2.9	1.56e+00	0	47	104	0	60	1048575
2026-01-18 03:40:32.33	348.16	20.38	-85.2	-88.6	2.9	1.56e+00	0	47	104	0	60	1048575
2026-01-18 03:40:33.34	347.90	20.36	-85.2	-88.6	3.0	1.56e+00	0	47	104	0	60	1048575
2026-01-18 03:40:34.34	347.65	20.34	-84.7	-88.6	2.9	1.56e+00	0	47	104	0	60	1048575
2026-01-18 03:40:35.35	347.40	20.32	-85.2	-88.6	3.2	1.56e+00	0	47	104	0	60	1048571
2026-01-18 03:40:36.36	347.15	20.30	-85.2	-88.6	2.8	1.56e+00	0	47	104	0	60	1048575
2026-01-18 03:40:37.36	346.90	20.28	-85.2	-88.6	3.1	1.56e+00	0	47	104	0	60	1048575
2026-01-18 03:40:38.37	346.65	20.26	-85.2	-88.6	3.0	1.56e+00	0	47	104	0	60	1048575
2026-01-18 03:40:39.38	346.40	20.24	-85.2	-88.6	3.1	1.55e+00	0	47	104	0	60	1048575
2026-01-18 03:40:40.39	346.15	20.22	-85.2	-88.6	3.1	1.56e+00	0	47	104	0	60	1048575
2026-01-18 03:40:41.39	345.90	20.20	-85.2	-88.6	3.2	1.56e+00	0	47	104	0	60	1048573
2026-01-18 03:40:42.39	345.66	20.18	-85.2	-88.6	3.1	1.56e+00	0	47	104	0	60	1048572
2026-01-18 03:40:43.40	345.41	20.16	-85.2	-88.6	3.2	1.56e+00	0	47	104	0	60	1048574
2026-01-18 03:40:44.41	345.16	20.13	-85.2	-88.6	3.1	1.56e+00	0	47	104	0	60	1048575
2026-01-18 03:40:45.41	344.91	20.11	-85.2	-88.6	2.9	1.55e+00	0	47	104	0	60	1048575
2026-01-18 03:40:46.42	344.66	20.08	-85.2	-88.6	2.9	1.56e+00	0	47	104	0	60	1048574
2026-01-18 03:40:47.43	344.42	20.06	-85.2	-88.6	3.1	1.56e+00	0	47	104	0	60	1048575
2026-01-18 03:40:48.43	344.17	20.03	-85.2	-88.6	3.0	1.56e+00	0	47	104	0	60	1048575
2026-01-18 03:40:49.44	343.92	20.01	-85.2	-88.6	3.1	1.55e+00	0	47	104	0	60	1048572
2026-01-18 03:40:50.45	343.68	19.98	-85.2	-88.6	2.9	1.55e+00	0	47	104	0	60	1048573
2026-01-18 03:40:51.46	343.43	19.95	-85.2	-88.6	3.0	1.56e+00	0	47	104	0	60	1048575
2026-01-18 03:40:52.46	343.19	19.92	-85.2	-88.6	3.1	1.56e+00	0	47	104	0	60	1048575
2026-01-18 03:40:53.47	342.94	19.90	-85.2	-88.6	3.1	1.55e+00	0	47	104	0	60	1048574
2026-01-18 03:40:54.48	342.70	19.87	-85.2	-88.6	3.0	1.55e+00	0	47	104	0	60	1048575
2026-01-18 03:40:55.48	342.46	19.84	-85.2	-88.6	3.1	1.56e+00	0	47	104	0	60	1048574
2026-01-18 03:40:56.48	342.22	19.81	-85.2	-88.6	2.9	1.56e+00	0	47	104	0	60	1048572
2026-01-18 03:40:57.49	341.97	19.78	-85.2	-88.6	3.1	1.56e+00	0	47	104	0	60	1048575
2026-01-18 03:40:58.50	341.73	19.75	-85.2	-88.6	3.0	1.56e+00	0	47	104	0	60	1048575
2026-01-18 03:40:59.50	341.49	19.72	-85.2	-88.6	3.1	1.56e+00	0	47	104	0	60	1048575
2026-01-18 03:41:00.51	341.25	19.68	-85.2	-88.6	3.0	1.56e+00	0	47	104	0	60	1048574
2026-01-18 03:41:01.52	341.01	19.65	-85.2	-88.6	2.9	1.55e+00	0	47	104	0	60	1048574
2026-01-18 03:41:02.52	340.77	19.62	-85.2	-88.6	3.0	1.56e+00	0	47	104	0	60	1048575
2026-01-18 03:41:03.53	340.53	19.59	-85.2	-88.6	2.6	1.56e+00	0	47	104	0	60	1048574
2026-01-18 03:41:04.54	340.29	19.55	-85.2	-88.6	3.1	1.56e+00	0	47	104	0	60	1048574
2026-01-18 03:41:05.55	340.05	19.52	-85.2	-88.6	3.0	1.55e+00	0	47	104	0	60	1048574
2026-01-18 03:41:06.55	339.81	19.48	-85.2	-88.6	2.9	1.56e+00	0	47	104	0	60	1048575
2026-01-18 03:41:07.56	339.57	19.45	-85.2	-88.6	3.0	1.55e+00	0	47	104	0	60	1048574
2026-01-18 03:41:08.56	339.34	19.41	-85.2	-88.6	3.0	1.56e+00	0	47	104	0	60	1048575
2026-01-18 03:41:09.57	339.10	19.38	-85.2	-88.6	3.0	1.56e+00	0	47	104	0	60	1048575
2026-01-18 03:41:10.58	338.87	19.34	-85.2	-88.6	3.0	1.56e+00	0	47	104	0	60	1048573
2026-01-18 03:41:11.58	338.63	19.30	-85.2	-88.6	3.2	1.56e+00	0	47	104	0	60	1048575
2026-01-18 03:41:12.59	338.40	19.27	-85.2	-88.6	2.8	1.55e+00	0	47	104	0	60	1048574
2026-01-18 03:41:13.59	338.17	19.23	-85.2	-88.6	3.0	1.56e+00	0	47	104	0	60	1048568
2026-01-18 03:41:14.60	337.93	19.19	-85.2	-88.6	3.1	1.56e+00	0	47	104	0	60	1048575
2026-01-18 03:41:15.61	337.70	19.15	-85.2	-88.6	3.0	1.55e+00	0	47	104	0	60	1048571
2026-01-18 03:41:16.61	337.47	19.11	-85.2	-88.6	3.2	1.55e+00	0	47	104	0	60	1048575
2026-01-18 03:41:17.62	337.24	19.07	-85.2	-88.6	2.7	1.56e+00	0	47	104	0	60	1048575
2026-01-18 03:41:18.63	337.00	19.03	-85.2	-88.6	3.1	1.56e+00	0	47	104	0	60	1048574
2026-01-18 03:41:19.63	336.77	18.99	-85.2	-88.6	2.9	1.55e+00	0	47	104	0	60	1048575
2026-01-18 03:41:20.64	336.54	18.95	-85.2	-88.6	2.8	1.56e+00	0	47	104	0	60	1048574
2026-01-18 03:41:21.65	336.31	18.91	-85.2	-88.6	3.0	1.56e+00	0	47	104	0	60	1048575
2026-01-18 03:41:22.65	336.09	18.87	-85.2	-88.6	3.1	1.56e+00	0	47	104	0	60	1048574
2026-01-18 03:41:23.66	335.86	18.83	-85.2	-88.6	2.7	1.56e+00	0	47	104	0	60	1048574
2026-01-18 03:41:24.67	335.63	18.78	-85.2	-88.6	3.0	1.56e+00	0	47	104	0	60	1048575
2026-01-18 03:41:25.67	335.41	18.74	-85.2	-88.6	3.1	1.56e+00	0	47	104	0	60	1048574
2026-01-18 03:41:26.68	335.18	18.70	-85.2	-88.6	3.0	1.56e+00	0	47	104	0	60	1048574
2026-01-18 03:41:27.68	334.96	18.66	-85.2	-88.6	3.1	1.56e+00	0	47	104	0	60	1048575
2026-01-18 03:41:28.69	334.73	18.61	-85.2	-88.6	3.3	1.56e+00	0	47	104	0	60	1048575
2026-01-18 03:41:29.69	334.51	18.57	-85.2	-88.6	3.0	1.55e+00	0	47	104	0	60	1048575
2026-01-18 03:41:30.70	334.28	18.52	-85.2	-88.6	3.1	1.56e+00	0	47	104	0	60	1048575
2026-01-18 03:41:31.71	334.06	18.48	-85.2	-88.6	3.0	1.56e+00	0	47	104	0	60	1048573
2026-01-18 03:41:32.72	333.84	18.43	-85.2	-88.6	3.0	1.56e+00	0	47	104	0	60	1048573
2026-01-18 03:41:33.72	333.62	18.39	-85.2	-88.6	3.1	1.55e+00	0	47	104	0	60	1048572
2026-01-18 03:41:34.73	333.40	18.34	-85.2	-88.6	2.9	1.56e+00	0	47	104	0	60	1048574
2026-01-18 03:41:35.74	333.18	18.29	-85.2	-88.6	3.0	1.56e+00	0	47	104	0	60	1048575
2026-01-18 03:41:36.75	332.96	18.25	-85.2	-88.6	3.0	1.56e+00	0	47	104	0	60	1048572
2026-01-18 03:41:37.76	332.74	18.20	-85.2	-88.6	3.1	1.56e+00	0	47	104	0	60	1048574
2026-01-18 03:41:38.77	332.52	18.15	-85.2	-88.6	3.0	1.56e+00	0	47	104	0	60	1048575
2026-01-18 03:41:39.77	332.30	18.10	-85.2	-88.6	3.1	1.56e+00	0	47	104	0	60	1048572
2026-01-18 03:41:40.78	332.09	18.05	-85.2	-88.6	3.1	1.55e+00	0	47	104	0	60	1048575
2026-01-18 03:41:41.78	331.87	18.01	-85.2	-88.6	3.0	1.56e+00	0	47	104	0	60	1048573
2026-01-18 03:41:42.79	331.66	17.96	-85.2	-88.6	2.8	1.56e+00	0	47	104	0	60	1048575
2026-01-18 03:41:43.80	331.44	17.91	-85.2	-88.6	3.0	1.56e+00	0	47	104	0	60	1048572
2026-01-18 03:41:44.81	331.23	17.86	-85.2	-88.6	3.1	1.56e+00	0	47	104	0	60	1048575
2026-01-18 03:41:45.81	331.02	17.81	-85.2	-88.6	2.8	1.56e+00	0	47	104	0	60	1048570
2026-01-18 03:41:46.82	330.80	17.76	-85.2	-88.6	3.2	1.56e+00	0	47	104	0	60	1048574
2026-01-18 03:41:47.82	330.59	17.71	-85.2	-88.6	3.0	1.56e+00	0	47	104	0	60	1048574
2026-01-18 03:41:48.83	330.38	17.66	-85.2	-88.6	3.0	1.56e+00	0	47	104	0	60	1048574
2026-01-18 03:41:49.84	330.17	17.61	-85.2	-88.6	2.9	1.56e+00	0	47	104	0	60	1048574
2026-01-18 03:41:50.85	329.96	17.55	-85.2	-88.6	3.2	1.56e+00	0	47	104	0	60	1048574
2026-01-18 03:41:51.85	329.75	17.50	-85.2	-88.6	2.9	1.55e+00	0	47	104	0	60	1048575
2026-01-18 03:41:52.86	329.55	17.45	-85.2	-88.6	3.0	1.56e+00	0	47	104	0	60	1048574
2026-01-18 03:41:53.87	329.34	17.40	-85.2	-88.6	3.0	1.56e+00	0	47	104	0	60	1048575
2026-01-18 03:41:54.88	329.13	17.35	-85.2	-88.6	3.0	1.56e+00	0	47	104	0	60	1048575
2026-01-18 03:41:55.89	328.92	17.29	-85.2	-88.6	2.9	1.55e+00	0	47	104	0	60	1048572
2026-01-18 03:41:56.89	328.72	17.24	-85.2	-88.6	3.0	1.55e+00	0	47	104	0	60	1048575
2026-01-18 03:41:57.90	328.52	17.19	-85.2	-88.6	2.9	1.56e+00	0	47	104	0	60	1048574
2026-01-18 03:41:58.91	328.31	17.13	-85.2	-88.6	3.1	1.55e+00	0	47	104	0	60	1048575
2026-01-18 03:41:59.92	328.11	17.08	-85.2	-88.6	2.8	1.55e+00	0	47	104	0	60	1048575
2026-01-18 03:42:00.93	327.91	17.03	-85.2	-88.6	2.9	1.55e+00	0	47	104	0	60	1048574
2026-01-18 03:42:01.93	327.71	16.97	-84.3	-88.6	2.9	1.55e+00	0	47	104	0	60	1048575
2026-01-18 03:42:02.94	327.51	16.92	-85.2	-88.6	3.0	1.56e+00	0	47	104	0	60	1048575
2026-01-18 03:42:03.94	327.31	16.86	-85.2	-88.6	2.9	1.56e+00	0	47	104	0	60	1048573
2026-01-18 03:42:04.95	327.11	16.81	-85.2	-88.6	2.9	1.56e+00	0	47	104	0	60	1048575
2026-01-18 03:42:05.96	326.91	16.75	-85.2	-88.6	2.9	1.56e+00	0	47	104	0	60	1048575
2026-01-18 03:42:06.97	326.71	16.70	-85.2	-88.6	3.0	1.55e+00	0	47	104	0	60	1048575
2026-01-18 03:42:07.97	326.51	16.64	-85.2	-88.6	2.9	1.55e+00	0	47	104	0	60	1048575
2026-01-18 03:42:08.98	326.32	16.59	-85.2	-88.6	3.1	1.56e+00	0	47	104	0	60	1048572
2026-01-18 03:42:09.99	326.12	16.53	-85.2	-88.6	2.9	1.56e+00	0	47	104	0	60	1048575
2026-01-18 03:42:11.00	325.93	16.47	-85.2	-88.6	3.0	1.56e+00	0	47	104	0	60	1048574
2026-01-18 03:42:12.01	325.73	16.42	-85.2	-88.6	3.0	1.56e+00	0	47	104	0	60	1048572
2026-01-18 03:42:13.01	325.54	16.36	-85.2	-88.6	3.0	1.56e+00	0	47	104	0	60	1048574
2026-01-18 03:42:14.02	325.35	16.30	-85.2	-88.6	2.9	1.56e+00	0	47	104	0	60	1048575
2026-01-18 03:42:15.03	325.15	16.25	-85.2	-88.6	2.9	1.56e+00	0	47	104	0	60	1048575
2026-01-18 03:42:16.03	324.96	16.19	-85.2	-88.6	3.2	1.56e+00	0	47	104	0	60	1048573
2026-01-18 03:42:17.04	324.77	16.13	-85.2	-88.6	2.9	1.55e+00	0	47	104	0	60	1048574
2026-01-18 03:42:18.05	324.58	16.07	-85.2	-88.6	2.9	1.55e+00	0	47	104	0	60	1048575
2026-01-18 03:42:19.05	324.40	16.02	-85.2	-88.6	2.9	1.55e+00	0	47	104	0	60	1048575
2026-01-18 03:42:20.05	324.21	15.96	-85.2	-88.6	3.1	1.56e+00	0	47	104	0	60	1048575
2026-01-18 03:42:21.06	324.02	15.90	-85.2	-88.6	3.1	1.56e+00	0	47	104	0	60	1048575
2026-01-18 03:42:22.07	323.83	15.84	-85.2	-88.6	2.8	1.56e+00	0	47	104	0	60	1048572
2026-01-18 03:42:23.08	323.65	15.78	-85.2	-88.6	3.0	1.56e+00	0	47	104	0	60	1048575
2026-01-18 03:42:24.08	323.46	15.72	-85.2	-88.6	2.8	1.56e+00	0	47	104	0	60	1048575
2026-01-18 03:42:25.09	323.28	15.66	-85.2	-88.6	2.8	1.56e+00	0	47	104	0	60	1048572
2026-01-18 03:42:26.10	323.10	15.61	-85.2	-88.6	3.1	1.56e+00	0	47	104	0	60	1048575
2026-01-18 03:42:27.10	322.91	15.55	-85.2	-88.6	2.9	1.55e+00	0	47	104	0	60	1048575
2026-01-18 03:42:28.11	322.73	15.49	-85.2	-88.6	3.0	1.56e+00	0	47	104	0	60	1048573
2026-01-18 03:42:29.11	322.55	15.43	-85.2	-88.6	3.1	1.55e+00	0	47	104	0	60	1048573
2026-01-18 03:42:30.12	322.37	15.37	-85.2	-88.6	3.1	1.56e+00	0	47	104	0	60	1048575
2026-01-18 03:42:31.13	322.19	15.31	-85.2	-88.6	2.9	1.56e+00	0	47	104	0	60	1048575
2026-01-18 03:42:32.14	322.01	15.25	-84.7	-88.6	2.7	1.56e+00	0	47	104	0	60	1048575
2026-01-18 03:42:33.14	321.83	15.19	-85.2	-88.6	3.0	1.56e+00	0	47	104	0	60	1048575
2026-01-18 03:42:34.15	321.65	15.13	-85.2	-88.6	3.0	1.56e+00	0	47	104	0	60	1048575
2026-01-18 03:42:35.16	321.48	15.07	-85.2	-88.6	2.9	1.56e+00	0	47	104	0	60	1048575
2026-01-18 03:42:36.16	321.30	15.01	-85.2	-88.6	3.0	1.56e+00	0	47	104	0	60	1048575
2026-01-18 03:42:37.17	321.12	14.95	-84.7	-88.6	3.0	1.56e+00	0	47	104	0	60	1048575
2026-01-18 03:42:38.18	320.95	14.89	-85.2	-88.6	3.1	1.56e+00	0	47	104	0	60	1048575
2026-01-18 03:42:39.19	320.77	14.83	-85.2	-88.6	3.0	1.56e+00	0	47	104	0	60	1048573
2026-01-18 03:42:40.20	320.60	14.76	-85.2	-88.6	3.2	1.55e+00	0	47	104	0	60	1048573
2026-01-18 03:42:41.20	320.43	14.70	-85.2	-88.6	3.1	1.56e+00	0	47	104	0	60	1048575
2026-01-18 03:42:42.21	320.26	14.64	-85.2	-88.6	3.1	1.56e+00	0	47	104	0	60	1048575
2026-01-18 03:42:43.22	320.09	14.58	-85.2	-88.6	3.0	1.55e+00	0	47	104	0	60	1048574
2026-01-18 03:42:44.23	319.91	14.52	-85.2	-88.6	3.2	1.56e+00	0	47	104	0	60	1048575
2026-01-18 03:42:45.24	319.74	14.46	-85.2	-88.6	2.9	1.56e+00	0	47	104	0	60	1048574
2026-01-18 03:42:46.25	319.57	14.40	-85.2	-88.6	3.0	1.55e+00	0	47	104	0	60	1048575
2026-01-18 03:42:47.25	319.41	14.33	-85.2	-88.6	3.1	1.56e+00	0	47	104	0	60	1048575
2026-01-18 03:42:48.25	319.24	14.27	-85.2	-88.6	3.0	1.56e+00	0	47	104	0	60	1048574
2026-01-18 03:42:49.26	319.07	14.21	-85.2	-88.6	3.1	1.56e+00	0	47	104	0	60	1048573
2026-01-18 03:42:50.26	318.91	14.15	-85.2	-88.6	3.1	1.56e+00	0	47	104	0	60	1048575
2026-01-18 03:42:51.27	318.74	14.09	-85.2	-88.6	3.2	1.55e+00	0	47	104	0	60	1048572
2026-01-18 03:42:52.27	318.58	14.03	-85.2	-88.6	3.1	1.56e+00	0	47	104	0	60	1048570
2026-01-18 03:42:53.28	318.41	13.96	-85.2	-88.6	3.0	1.56e+00	0	47	104	0	60	1048575
2026-01-18 03:42:54.29	318.25	13.90	-85.2	-88.6	3.0	1.55e+00	0	47	104	0	60	1048572
2026-01-18 03:42:55.29	318.09	13.84	-85.2	-88.6	2.9	1.56e+00	0	47	104	0	60	1048575
2026-01-18 03:42:56.30	317.93	13.78	-84.7	-88.6	3.1	1.56e+00	0	47	104	0	60	1048574
2026-01-18 03:42:57.30	317.76	13.71	-85.2	-88.6	3.0	1.55e+00	0	47	104	0	60	1048575
2026-01-18 03:42:58.31	317.60	13.65	-85.2	-88.6	2.9	1.56e+00	0	47	104	0	60	1048571
2026-01-18 03:42:59.31	317.44	13.59	-85.2	-88.6	3.1	1.56e+00	0	47	104	0	60	1048574
2026-01-18 03:43:00.32	317.28	13.53	-85.2	-88.6	3.1	1.55e+00	0	47	104	0	60	1048575
2026-01-18 03:43:01.33	317.13	13.46	-85.2	-88.6	2.8	1.55e+00	0	47	104	0	60	1048575
2026-01-18 03:43:02.33	316.97	13.40	-85.2	-88.6	3.2	1.56e+00	0	47	104	0	60	1048575
2026-01-18 03:43:03.33	316.81	13.34	-85.2	-88.6	3.2	1.56e+00	0	47	104	0	60	1048575
2026-01-18 03:43:04.34	316.66	13.28	-85.2	-88.6	3.1	1.56e+00	0	47	104	0	60	1048575
2026-01-18 03:43:05.34	316.50	13.21	-85.2	-88.6	3.0	1.56e+00	0	47	104	0	60	1048573
2026-01-18 03:43:06.35	316.35	13.15	-84.3	-88.6	3.1	1.56e+00	0	47	104	0	60	1048574
2026-01-18 03:43:07.35	316.19	13.09	-85.2	-88.6	3.1	1.56e+00	0	47	104	0	60	1048575
2026-01-18 03:43:08.36	316.04	13.03	-85.2	-88.6	3.2	1.56e+00	0	47	104	0	60	1048575
2026-01-18 03:43:09.36	315.88	12.96	-85.2	-88.6	3.1	1.56e+00	0	47	104	0	60	1048573
2026-01-18 03:43:10.37	315.73	12.90	-85.2	-88.6	2.9	1.56e+00	0	47	104	0	60	1048575
2026-01-18 03:43:11.37	315.58	12.84	-85.2	-88.6	3.0	1.55e+00	0	47	104	0	60	1048575
2026-01-18 03:43:12.38	315.43	12.77	-85.2	-88.6	3.0	1.56e+00	0	47	104	0	60	1048575
2026-01-18 03:43:13.39	315.28	12.71	-85.2	-88.6	3.0	1.56e+00	0	47	104	0	60	1048575
2026-01-18 03:43:14.40	315.13	12.65	-85.2	-88.6	3.2	1.56e+00	0	47	104	0	60	1048575
2026-01-18 03:43:15.41	314.98	12.58	-85.2	-88.6	2.9	1.56e+00	0	47	104	0	60	1048572
2026-01-18 03:43:16.41	314.83	12.52	-85.2	-88.6	3.0	1.56e+00	0	47	104	0	60	1048575
2026-01-18 03:43:17.42	314.68	12.46	-85.2	-88.6	2.8	1.56e+00	0	47	104	0	60	1048573
2026-01-18 03:43:18.43	314.53	12.39	-85.2	-88.6	3.2	1.56e+00	0	47	104	0	60	1048575
2026-01-18 03:43:19.44	314.39	12.33	-85.2	-88.6	3.0	1.56e+00	0	47	104	0	60	1048574
2026-01-18 03:43:20.45	314.24	12.27	-85.2	-88.6	3.1	1.56e+00	0	47	104	0	60	1048571
2026-01-18 03:43:21.45	314.10	12.20	-84.3	-88.6	3.1	1.56e+00	0	47	104	0	60	1048571
2026-01-18 03:43:22.46	313.95	12.14	-85.2	-88.6	3.0	1.56e+00	0	47	104	0	60	1048575
2026-01-18 03:43:23.45	313.81	12.08	-85.2	-88.6	3.1	1.56e+00	0	47	104	0	60	1048572
2026-01-18 03:43:24.46	313.67	12.01	-85.2	-88.6	3.1	1.55e+00	0	47	104	0	60	1048575
2026-01-18 03:43:25.47	313.52	11.95	-85.2	-88.6	3.0	1.56e+00	0	47	104	0	60	1048575
2026-01-18 03:43:26.47	313.38	11.89	-85.2	-88.6	2.9	1.56e+00	0	47	104	0	60	1048570
2026-01-18 03:43:27.47	313.24	11.82	-85.2	-88.6	3.1	1.56e+00	0	47	104	0	60	1048574
2026-01-18 03:43:28.47	313.10	11.76	-85.2	-88.6	2.9	1.55e+00	0	47	104	0	60	1048575
2026-01-18 03:43:29.47	312.96	11.70	-85.2	-88.6	3.0	1.56e+00	0	47	104	0	60	1048575
2026-01-18 03:43:30.48	312.82	11.63	-85.2	-88.6	2.9	1.56e+00	0	47	104	0	60	1048575
2026-01-18 03:43:31.49	312.68	11.57	-85.2	-88.6	3.0	1.56e+00	0	47	104	0	60	1048574
2026-01-18 03:43:32.50	312.54	11.51	-85.2	-88.6	3.2	1.55e+00	0	47	104	0	60	1048575
2026-01-18 03:43:33.51	312.40	11.44	-85.2	-88.6	2.9	1.56e+00	0	47	104	0	60	1048575
2026-01-18 03:43:34.52	312.27	11.38	-85.2	-88.6	3.1	1.56e+00	0	47	104	0	60	1048574
2026-01-18 03:43:35.53	312.13	11.31	-85.2	-88.6	2.9	1.56e+00	0	47	104	0	60	1048572
2026-01-18 03:43:36.53	311.99	11.25	-85.2	-88.6	2.9	1.56e+00	0	47	104	0	60	1048571
2026-01-18 03:43:37.54	311.86	11.19	-85.2	-88.6	3.1	1.56e+00	0	47	104	0	60	1048574
2026-01-18 03:43:38.54	311.72	11.12	-85.2	-88.6	3.0	1.56e+00	0	47	104	0	60	1048575
2026-01-18 03:43:39.55	311.59	11.06	-85.2	-88.6	3.0	1.56e+00	0	47	104	0	60	1048575
2026-01-18 03:43:40.56	311.45	11.00	-85.2	-88.6	2.9	1.56e+00	0	47	104	0	60	1048575
2026-01-18 03:43:41.57	311.32	10.93	-85.2	-88.6	3.0	1.56e+00	0	47	104	0	60	1048575
2026-01-18 03:43:42.57	311.19	10.87	-85.2	-88.6	3.0	1.55e+00	0	47	104	0	60	1048573
2026-01-18 03:43:43.58	311.06	10.81	-85.2	-88.6	3.1	1.56e+00	0	47	104	0	60	1048572
2026-01-18 03:43:44.59	310.93	10.74	-85.2	-88.6	3.2	1.56e+00	0	47	104	0	60	1048573
2026-01-18 03:43:45.60	310.79	10.68	-85.2	-88.6	3.2	1.55e+00	0	47	104	0	60	1048575
2026-01-18 03:43:46.60	310.66	10.62	-85.2	-88.6	3.0	1.55e+00	0	47	104	0	60	1048572
2026-01-18 03:43:47.62	310.53	10.55	-85.2	-88.6	2.8	1.55e+00	0	47	104	0	60	1048572
2026-01-18 03:43:48.62	310.41	10.49	-85.2	-88.6	3.0	1.56e+00	0	47	104	0	60	1048573
2026-01-18 03:43:49.63	310.28	10.43	-85.2	-88.6	3.0	1.56e+00	0	47	104	0	60	1048575
2026-01-18 03:43:50.64	310.15	10.36	-85.2	-88.6	2.9	1.56e+00	0	47	104	0	60	1048575
2026-01-18 03:43:51.65	310.02	10.30	-85.2	-88.6	3.2	1.56e+00	0	47	104	0	60	1048573
2026-01-18 03:43:52.65	309.89	10.24	-85.2	-88.6	3.1	1.56e+00	0	47	104	0	60	1048574
2026-01-18 03:43:53.66	309.77	10.17	-85.2	-88.6	3.2	1.55e+00	0	47	104	0	60	1048575
2026-01-18 03:43:54.67	309.64	10.11	-85.2	-88.6	3.0	1.56e+00	0	47	104	0	60	1048575
2026-01-18 03:43:55.67	309.52	10.05	-85.2	-88.6	2.9	1.55e+00	0	47	104	0	60	1048573
2026-01-18 03:43:56.68	309.39	9.98	-85.2	-88.6	3.0	1.56e+00	0	47	104	0	60	1048574
2026-01-18 03:43:57.68	309.27	9.92	-85.2	-88.6	3.0	1.56e+00	0	47	104	0	60	1048575
2026-01-18 03:43:58.69	309.15	9.86	-85.2	-88.6	3.0	1.56e+00	0	47	104	0	60	1048574
2026-01-18 03:43:59.70	309.02	9.79	-85.2	-88.6	2.9	1.56e+00	0	47	104	0	60	1048574
2026-01-18 03:44:00.70	308.90	9.73	-85.2	-88.6	2.9	1.55e+00	0	47	104	0	60	1048573
2026-01-18 03:44:01.71	308.78	9.67	-85.2	-88.6	3.1	1.56e+00	0	47	104	0	60	1048575
2026-01-18 03:44:02.72	308.66	9.61	-85.2	-88.6	3.0	1.56e+00	0	47	104	0	60	1048575
2026-01-18 03:44:03.73	308.54	9.54	-85.2	-88.6	2.9	1.56e+00	0	47	104	0	60	1048570
2026-01-18 03:44:04.73	308.42	9.48	-85.2	-88.6	3.0	1.56e+00	0	47	104	0	60	1048573
2026-01-18 03:44:05.74	308.30	9.42	-85.2	-88.6	3.0	1.56e+00	0	47	104	0	60	1048573
2026-01-18 03:44:06.75	308.18	9.35	-85.2	-88.6	3.1	1.56e+00	0	47	104	0	60	1048575
2026-01-18 03:44:07.75	308.06	9.29	-85.2	-88.6	3.0	1.55e+00	0	47	104	0	60	1048570
2026-01-18 03:44:08.76	307.94	9.23	-85.2	-88.6	2.9	1.56e+00	0	47	104	0	60	1048574
2026-01-18 03:44:09.77	307.82	9.17	-85.2	-88.6	3.2	1.55e+00	0	47	104	0	60	1048574
2026-01-18 03:44:10.77	307.71	9.10	-85.2	-88.6	3.0	1.55e+00	0	47	104	0	60	1048572
2026-01-18 03:44:11.78	307.59	9.04	-85.2	-88.6	3.0	1.55e+00	0	47	104	0	60	1048574
2026-01-18 03:44:12.78	307.47	8.98	-85.2	-88.6	3.2	1.56e+00	0	47	104	0	60	1048575
2026-01-18 03:44:13.79	307.36	8.92	-85.2	-88.6	2.9	1.56e+00	0	47	104	0	60	1048574
2026-01-18 03:44:14.79	307.24	8.85	-85.2	-88.6	2.9	1.55e+00	0	47	104	0	60	1048575
2026-01-18 03:44:15.80	307.13	8.79	-85.2	-88.6	2.8	1.56e+00	0	47	104	0	60	1048574
2026-01-18 03:44:16.81	307.01	8.73	-85.2	-88.6	3.1	1.55e+00	0	47	104	0	60	1048574
2026-01-18 03:44:17.81	306.90	8.67	-85.2	-88.6	3.1	1.56e+00	0	47	104	0	60	1048575
2026-01-18 03:44:18.82	306.79	8.60	-85.2	-88.6	3.1	1.56e+00	0	47	104	0	60	1048572
2026-01-18 03:44:19.83	306.68	8.54	-85.2	-88.6	2.8	1.56e+00	0	47	104	0	60	1048574
2026-01-18 03:44:20.83	306.56	8.48	-85.2	-88.6	2.9	1.56e+00	0	47	104	0	60	1048575
2026-01-18 03:44:21.84	306.45	8.42	-85.2	-88.6	2.9	1.56e+00	0	47	104	0	60	1048574
2026-01-18 03:44:22.85	306.34	8.35	-85.2	-88.6	3.0	1.56e+00	0	47	104	0	60	1048575
2026-01-18 03:44:23.86	306.23	8.29	-85.2	-88.6	3.1	1.56e+00	0	47	104	0	60	1048575
2026-01-18 03:44:24.87	306.12	8.23	-85.2	-88.6	3.2	1.55e+00	0	47	104	0	60	1048572
2026-01-18 03:44:25.88	306.01	8.17	-85.2	-88.6	3.1	1.55e+00	0	47	104	0	60	1048574
2026-01-18 03:44:26.89	305.90	8.11	-85.2	-88.6	3.1	1.56e+00	0	47	104	0	60	1048575
2026-01-18 03:44:27.89	305.79	8.04	-85.2	-88.6	2.8	1.56e+00	0	47	104	0	60	1048574
2026-01-18 03:44:28.89	305.68	7.98	-85.2	-88.6	3.0	1.56e+00	0	47	104	0	60	1048573
2026-01-18 03:44:29.90	305.58	7.92	-85.2	-88.6	3.1	1.56e+00	0	47	104	0	60	1048575
2026-01-18 03:44:30.90	305.47	7.86	-85.2	-88.6	3.0	1.56e+00	0	47	104	0	60	1048575
2026-01-18 03:44:31.91	305.36	7.80	-85.2	-88.6	3.0	1.56e+00	0	47	104	0	60	1048574
2026-01-18 03:44:32.92	305.26	7.74	-85.2	-88.6	2.8	1.56e+00	0	47	104	0	60	1048575
2026-01-18 03:44:33.92	305.15	7.68	-85.2	-88.6	3.2	1.56e+00	0	47	104	0	60	1048575
2026-01-18 03:44:34.93	305.05	7.61	-85.2	-88.6	2.8	1.56e+00	0	47	104	0	60	1048572
2026-01-18 03:44:35.94	304.94	7.55	-85.2	-88.6	3.0	1.56e+00	0	47	104	0	60	1048575
2026-01-18 03:44:36.95	304.84	7.49	-85.2	-88.6	2.9	1.56e+00	0	47	104	0	60	1048575
2026-01-18 03:44:37.95	304.73	7.43	-85.2	-88.6	3.0	1.56e+00	0	47	104	0	60	1048575
2026-01-18 03:44:38.96	304.63	7.37	-85.2	-88.6	3.1	1.55e+00	0	47	104	0	60	1048573
2026-01-18 03:44:39.97	304.52	7.31	-85.2	-88.6	2.9	1.56e+00	0	47	104	0	60	1048575
2026-01-18 03:44:40.98	304.42	7.24	-85.2	-88.6	3.1	1.55e+00	0	47	104	0	60	1048572
2026-01-18 03:44:41.99	304.32	7.18	-85.2	-88.6	2.8	1.56e+00	0	47	104	0	60	1048574
2026-01-18 03:44:43.00	304.22	7.12	-85.2	-88.6	3.1	1.55e+00	0	47	104	0	60	1048575
2026-01-18 03:44:44.00	304.12	7.06	-85.2	-88.6	3.1	1.56e+00	0	47	104	0	60	1048575
2026-01-18 03:44:45.01	304.02	7.00	-85.2	-88.6	2.9	1.56e+00	0	47	104	0	60	1048574
2026-01-18 03:44:46.01	303.92	6.94	-85.2	-88.6	2.9	1.56e+00	0	47	104	0	60	1048574
2026-01-18 03:44:47.02	303.81	6.88	-85.2	-88.6	3.0	1.56e+00	0	47	104	0	60	1048575
2026-01-18 03:44:48.03	303.71	6.82	-85.2	-88.6	2.9	1.56e+00	0	47	104	0	60	1048574
2026-01-18 03:44:49.03	303.62	6.76	-85.2	-88.6	3.1	1.56e+00	0	47	104	0	60	1048574
2026-01-18 03:44:50.04	303.52	6.70	-85.2	-88.6	2.9	1.56e+00	0	47	104	0	60	1048575
2026-01-18 03:44:51.04	303.42	6.64	-85.2	-88.6	3.0	1.56e+00	0	47	104	0	60	1048572
2026-01-18 03:44:52.04	303.32	6.58	-85.2	-88.6	3.1	1.55e+00	0	47	104	0	60	1048574
2026-01-18 03:44:53.05	303.22	6.52	-85.2	-88.6	3.1	1.55e+00	0	47	104	0	60	1048575
2026-01-18 03:44:54.05	303.13	6.46	-85.2	-88.6	3.0	1.56e+00	0	47	104	0	60	1048575
2026-01-18 03:44:55.06	303.03	6.40	-85.2	-88.6	3.0	1.56e+00	0	47	104	0	60	1048573
2026-01-18 03:44:56.07	302.93	6.34	-85.2	-88.6	3.1	1.56e+00	0	47	104	0	60	1048573
2026-01-18 03:44:57.08	302.84	6.28	-85.2	-88.6	2.9	1.55e+00	0	47	104	0	60	1048574
2026-01-18 03:44:58.09	302.74	6.21	-85.2	-88.6	3.0	1.56e+00	0	47	104	0	60	1048573
2026-01-18 03:44:59.10	302.65	6.15	-85.2	-88.6	3.0	1.56e+00	0	47	104	0	60	1048574
2026-01-18 03:45:00.10	302.55	6.10	-85.2	-88.6	3.1	1.56e+00	0	47	104	0	60	1048575
2026-01-18 03:45:01.10	302.46	6.04	-85.2	-88.6	3.0	1.56e+00	0	47	104	0	60	1048571
2026-01-18 03:45:02.11	302.37	5.98	-85.2	-88.6	2.8	1.55e+00	0	47	104	0	60	1048575
2026-01-18 03:45:03.11	302.27	5.92	-85.2	-88.6	2.9	1.56e+00	0	47	104	0	60	1048575
2026-01-18 03:45:04.12	302.18	5.86	-85.2	-88.6	3.0	1.56e+00	0	47	104	0	60	1048575
2026-01-18 03:45:05.12	302.09	5.80	-85.2	-88.6	2.9	1.56e+00	0	47	104	0	60	1048572
2026-01-18 03:45:06.13	301.99	5.74	-85.2	-88.6	3.1	1.56e+00	0	47	104	0	60	1048572
2026-01-18 03:45:07.14	301.90	5.68	-85.2	-88.6	2.9	1.56e+00	0	47	104	0	60	1048574
2026-01-18 03:45:08.15	301.81	5.62	-85.2	-88.6	3.2	1.56e+00	0	47	104	0	60	1048575
2026-01-18 03:45:09.15	301.72	5.56	-85.2	-88.6	3.1	1.56e+00	0	47	104	0	60	1048575
2026-01-18 03:45:10.16	301.63	5.50	-85.2	-88.6	2.9	1.56e+00	0	47	104	0	60	1048573
2026-01-18 03:45:11.17	301.54	5.44	-85.2	-88.6	3.0	1.56e+00	0	47	104	0	60	1048575
2026-01-18 03:45:12.18	301.45	5.38	-85.2	-88.6	2.8	1.56e+00	0	47	104	0	60	1048575
2026-01-18 03:45:13.19	301.36	5.32	-85.2	-88.6	3.1	1.55e+00	0	47	104	0	60	1048571
2026-01-18 03:45:14.19	301.27	5.26	-85.2	-88.6	2.9	1.56e+00	0	47	104	0	60	1048572
2026-01-18 03:45:15.20	301.18	5.20	-85.2	-88.6	3.1	1.56e+00	0	47	104	0	60	1048574
2026-01-18 03:45:16.21	301.09	5.14	-85.2	-88.6	3.0	1.56e+00	0	47	104	0	60	1048575
2026-01-18 03:45:17.22	301.00	5.08	-85.2	-88.6	3.0	1.56e+00	0	47	104	0	60	1048574
2026-01-18 03:45:18.23	300.92	5.03	-85.2	-88.6	2.9	1.55e+00	0	47	104	0	60	1048574
2026-01-18 03:45:19.23	300.83	4.97	-85.2	-88.6	3.1	1.56e+00	0	47	104	0	60	1048570
2026-01-18 03:45:20.24	300.74	4.91	-85.2	-88.6	2.9	1.56e+00	0	47	104	0	60	1048575
2026-01-18 03:45:21.25	300.66	4.85	-85.2	-88.6	2.9	1.56e+00	0	47	104	0	60	1048575
2026-01-18 03:45:22.26	300.57	4.79	-85.2	-88.6	3.1	1.56e+00	0	47	104	0	60	1048574
2026-01-18 03:45:23.26	300.48	4.73	-85.2	-88.6	2.8	1.55e+00	0	47	104	0	60	1048575
2026-01-18 03:45:24.27	300.40	4.67	-85.2	-88.6	3.0	1.55e+00	0	47	104	0	60	1048574
2026-01-18 03:45:25.27	300.31	4.62	-85.2	-88.6	3.0	1.55e+00	0	47	104	0	60	1048575
2026-01-18 03:45:26.28	300.23	4.56	-85.2	-88.6	3.1	1.56e+00	0	47	104	0	60	1048575
2026-01-18 03:45:27.29	300.14	4.50	-85.2	-88.6	3.1	1.56e+00	0	47	104	0	60	1048573
2026-01-18 03:45:28.29	300.06	4.44	-85.2	-88.6	3.0	1.56e+00	0	47	104	0	60	1048575
2026-01-18 03:45:29.30	299.98	4.38	-85.2	-88.6	3.0	1.55e+00	0	47	104	0	60	1048575
