passes_logs/2026/01/18/R3.2S-Naryan-Mar/R3.2S-Naryan-Mar__20260118_140727_TY-41_rec.log

#Pass ID: 20260118_140727_TY-41
#Satellite: TY-41
#Configuration: TY-39
#almurnet v.1.7.20240730
#Start time: 2026-01-18 14:07:30

#Version: 2.2.20231116
#Station: R3.2S-Naryan-Mar
#Location: 53.008057 lon 67.646978 lat
#TLE: 1 61231U 24173E   26018.25438657  .00008012  00000-0  38191-3 0 09993
#TLE: 2 61231 097.4123 093.2273 0001689 092.2184 306.3117 15.19177353 72997

#Time	Az	El	Level	Level2	SNR	BER	BlckErr	Temp	State	Recorded	gain1	gain2
2026-01-18 14:07:30.33	72.92	0.16	-84.7	-88.6	3.7	7.61e-01	0	45	0	0	60	1048571
2026-01-18 14:07:31.33	72.81	0.21	-83.1	-79.0	2.6	0.00e+00	0	46	104	0	60	1048570
2026-01-18 14:07:32.33	72.71	0.26	-83.1	-79.0	2.5	0.00e+00	0	46	104	0	60	1048573
2026-01-18 14:07:33.34	72.61	0.31	-83.5	-79.0	2.4	0.00e+00	0	46	104	0	60	1048573
2026-01-18 14:07:34.35	72.50	0.36	-83.5	-79.0	2.5	0.00e+00	0	46	104	0	60	1048564
2026-01-18 14:07:35.36	72.40	0.42	-83.5	-79.0	2.5	0.00e+00	0	46	104	0	60	1048566
2026-01-18 14:07:36.37	72.29	0.47	-83.1	-79.0	2.5	0.00e+00	0	46	104	0	60	1048571
2026-01-18 14:07:37.38	72.18	0.52	-83.1	-79.0	2.3	0.00e+00	0	46	104	0	60	1048575
2026-01-18 14:07:38.39	72.08	0.57	-83.5	-79.0	2.1	0.00e+00	0	46	104	0	60	1048574
2026-01-18 14:07:39.39	71.97	0.62	-83.5	-79.0	2.5	0.00e+00	0	46	104	0	60	1048569
2026-01-18 14:07:40.40	71.86	0.67	-83.5	-79.0	2.4	0.00e+00	0	47	104	0	60	1048572
2026-01-18 14:07:41.41	71.75	0.73	-82.8	-79.0	2.6	0.00e+00	0	46	104	0	60	1048575
2026-01-18 14:07:42.42	71.64	0.78	-83.1	-79.0	2.4	0.00e+00	0	46	104	0	60	1048575
2026-01-18 14:07:43.42	71.54	0.83	-83.5	-79.0	2.5	0.00e+00	0	47	104	0	60	1048575
2026-01-18 14:07:44.43	71.43	0.88	-83.5	-79.0	2.4	0.00e+00	0	47	104	0	60	1048575
2026-01-18 14:07:45.44	71.32	0.93	-83.5	-79.0	2.6	0.00e+00	0	47	104	0	60	1048571
2026-01-18 14:07:46.44	71.21	0.99	-83.1	-79.0	2.4	0.00e+00	0	47	104	0	60	1048575
2026-01-18 14:07:47.45	71.09	1.04	-83.5	-79.0	2.5	0.00e+00	0	47	104	0	60	1048574
2026-01-18 14:07:48.46	70.98	1.09	-83.5	-79.0	2.4	0.00e+00	0	47	104	0	60	1048571
2026-01-18 14:07:49.47	70.87	1.14	-83.1	-79.0	2.5	0.00e+00	0	47	104	0	60	1048571
2026-01-18 14:07:50.48	70.76	1.20	-82.8	-79.0	2.4	0.00e+00	0	47	104	0	60	1048575
2026-01-18 14:07:51.48	70.64	1.25	-83.1	-79.0	2.3	0.00e+00	0	47	104	0	60	1048575
2026-01-18 14:07:52.49	70.53	1.30	-83.5	-79.0	2.4	0.00e+00	0	47	104	0	60	1048573
2026-01-18 14:07:53.50	70.42	1.35	-83.5	-79.0	2.5	0.00e+00	0	47	104	0	60	1048574
2026-01-18 14:07:54.50	70.30	1.41	-83.5	-79.0	2.4	0.00e+00	0	47	104	0	60	1048572
2026-01-18 14:07:55.51	70.19	1.46	-83.1	-79.0	2.7	0.00e+00	0	47	104	0	60	1048575
2026-01-18 14:07:56.52	70.07	1.51	-83.1	-79.0	2.5	0.00e+00	0	47	104	0	60	1048569
2026-01-18 14:07:57.52	69.95	1.56	-83.5	-79.0	2.4	0.00e+00	0	47	104	0	60	1048573
2026-01-18 14:07:58.53	69.84	1.62	-83.5	-79.0	2.3	0.00e+00	0	47	104	0	60	1048574
2026-01-18 14:07:59.54	69.72	1.67	-83.5	-79.0	2.5	0.00e+00	0	47	104	0	60	1048570
2026-01-18 14:08:00.55	69.60	1.72	-83.1	-79.0	2.5	0.00e+00	0	47	104	0	60	1048574
2026-01-18 14:08:01.56	69.48	1.77	-83.5	-79.0	2.4	0.00e+00	0	47	104	0	60	1048571
2026-01-18 14:08:02.56	69.36	1.83	-83.1	-79.0	2.4	0.00e+00	0	47	104	0	60	1048569
2026-01-18 14:08:03.57	69.24	1.88	-83.5	-79.0	2.5	0.00e+00	0	47	104	0	60	1048560
2026-01-18 14:08:04.58	69.12	1.93	-83.1	-79.0	2.4	0.00e+00	0	47	104	0	60	1048574
2026-01-18 14:08:05.59	69.00	1.98	-83.1	-79.0	2.4	0.00e+00	0	47	104	0	60	1048573
2026-01-18 14:08:06.59	68.88	2.04	-83.5	-79.0	2.4	0.00e+00	0	47	104	0	60	1048575
2026-01-18 14:08:07.59	68.76	2.09	-83.5	-79.0	2.5	0.00e+00	0	47	104	0	60	1048574
2026-01-18 14:08:08.60	68.64	2.14	-83.5	-79.0	2.4	0.00e+00	0	47	104	0	60	1048566
2026-01-18 14:08:09.60	68.51	2.19	-82.8	-79.0	2.4	0.00e+00	0	47	104	0	60	1048573
2026-01-18 14:08:10.61	68.39	2.25	-83.1	-79.0	2.5	0.00e+00	0	47	104	0	60	1048575
2026-01-18 14:08:11.62	68.27	2.30	-83.5	-79.0	2.4	0.00e+00	0	47	104	0	60	1048567
2026-01-18 14:08:12.63	68.14	2.35	-83.5	-79.0	2.3	0.00e+00	0	47	104	0	60	1048573
2026-01-18 14:08:13.64	68.02	2.41	-83.5	-79.0	2.2	0.00e+00	0	47	104	0	60	1048575
2026-01-18 14:08:14.64	67.89	2.46	-83.1	-79.0	2.4	0.00e+00	0	47	104	0	60	1048575
2026-01-18 14:08:15.65	67.76	2.51	-83.1	-79.0	2.5	0.00e+00	0	47	104	0	60	1048575
2026-01-18 14:08:16.66	67.64	2.57	-83.5	-79.0	2.3	0.00e+00	0	47	104	0	60	1048570
2026-01-18 14:08:17.67	67.51	2.62	-83.5	-79.0	2.5	0.00e+00	0	47	104	0	60	1048574
2026-01-18 14:08:18.68	67.38	2.67	-83.5	-79.0	2.4	0.00e+00	0	47	104	0	60	1048573
2026-01-18 14:08:19.68	67.25	2.73	-83.1	-79.0	2.5	0.00e+00	0	47	104	0	60	1048567
2026-01-18 14:08:20.69	67.12	2.78	-83.5	-79.0	2.4	0.00e+00	0	47	104	0	60	1048575
2026-01-18 14:08:21.70	66.99	2.83	-83.5	-79.0	2.4	0.00e+00	0	47	104	0	60	1048575
2026-01-18 14:08:22.70	66.86	2.89	-83.1	-79.0	2.5	0.00e+00	0	47	104	0	60	1048575
2026-01-18 14:08:23.70	66.73	2.94	-82.8	-79.0	2.4	0.00e+00	0	47	104	0	60	1048573
2026-01-18 14:08:24.71	66.60	2.99	-83.1	-79.0	2.4	0.00e+00	0	47	104	0	60	1048573
2026-01-18 14:08:25.72	66.46	3.04	-83.5	-79.0	2.5	0.00e+00	0	48	104	0	60	1048573
2026-01-18 14:08:26.73	66.33	3.10	-83.5	-79.0	2.7	0.00e+00	0	48	104	0	60	1048573
2026-01-18 14:08:27.74	66.20	3.15	-83.5	-79.0	2.4	0.00e+00	0	48	104	0	60	1048575
2026-01-18 14:08:28.74	66.06	3.20	-83.1	-79.0	2.4	0.00e+00	0	47	104	0	60	1048575
2026-01-18 14:08:29.75	65.93	3.26	-83.1	-79.0	2.5	0.00e+00	0	47	104	0	60	1048575
2026-01-18 14:08:30.76	65.79	3.31	-83.5	-79.0	2.3	0.00e+00	0	47	104	0	60	1048575
2026-01-18 14:08:31.77	65.65	3.36	-83.5	-79.0	2.4	0.00e+00	0	48	104	0	60	1048570
2026-01-18 14:08:32.78	65.52	3.42	-83.1	-79.0	2.5	0.00e+00	0	47	104	0	60	1048572
2026-01-18 14:08:33.78	65.38	3.47	-83.1	-79.0	2.4	0.00e+00	0	48	104	0	60	1048568
2026-01-18 14:08:34.79	65.24	3.52	-83.5	-79.0	2.6	0.00e+00	0	47	104	0	60	1048575
2026-01-18 14:08:35.80	65.10	3.58	-83.5	-79.0	2.4	0.00e+00	0	48	104	0	60	1048574
2026-01-18 14:08:36.81	64.96	3.63	-83.5	-79.0	2.6	0.00e+00	0	48	104	0	60	1048571
2026-01-18 14:08:37.81	64.82	3.68	-83.5	-79.0	2.3	0.00e+00	0	48	104	0	60	1048568
2026-01-18 14:08:38.82	64.68	3.74	-83.1	-79.0	2.3	0.00e+00	0	48	104	0	60	1048573
2026-01-18 14:08:39.83	64.54	3.79	-83.5	-79.0	2.4	0.00e+00	0	48	104	0	60	1048567
2026-01-18 14:08:40.83	64.40	3.84	-83.5	-79.0	2.4	0.00e+00	0	47	104	0	60	1048568
2026-01-18 14:08:41.84	64.25	3.90	-83.5	-79.0	2.5	0.00e+00	0	48	104	0	60	1048571
2026-01-18 14:08:42.84	64.11	3.95	-83.1	-79.0	2.6	0.00e+00	0	48	104	0	60	1048575
2026-01-18 14:08:43.85	63.97	4.00	-83.5	-79.0	2.4	0.00e+00	0	48	104	0	60	1048569
2026-01-18 14:08:44.86	63.82	4.06	-83.5	-79.0	2.6	0.00e+00	0	47	104	0	60	1048573
2026-01-18 14:08:45.87	63.67	4.11	-83.5	-79.0	2.4	0.00e+00	0	48	104	0	60	1048573
2026-01-18 14:08:46.87	63.53	4.17	-83.5	-79.0	2.3	0.00e+00	0	48	104	0	60	1048575
2026-01-18 14:08:47.88	63.38	4.22	-83.1	-79.0	2.3	0.00e+00	0	48	104	0	60	1048573
2026-01-18 14:08:48.89	63.23	4.27	-83.5	-79.0	2.4	0.00e+00	0	48	104	0	60	1048575
2026-01-18 14:08:49.90	63.08	4.33	-83.5	-79.0	2.4	0.00e+00	0	48	104	0	60	1048567
2026-01-18 14:08:50.90	62.94	4.38	-83.5	-79.0	2.5	0.00e+00	0	48	104	0	60	1048575
2026-01-18 14:08:51.91	62.79	4.43	-83.5	-79.0	2.5	0.00e+00	0	48	104	0	60	1048572
2026-01-18 14:08:52.91	62.64	4.48	-82.8	-79.0	2.4	0.00e+00	0	48	104	0	60	1048569
2026-01-18 14:08:53.91	62.49	4.54	-83.5	-79.0	2.5	0.00e+00	0	48	104	0	60	1048573
2026-01-18 14:08:54.92	62.33	4.59	-83.5	-79.0	2.6	0.00e+00	0	48	104	0	60	1048575
2026-01-18 14:08:55.93	62.18	4.64	-83.5	-79.0	2.5	0.00e+00	0	48	104	0	60	1048575
2026-01-18 14:08:56.94	62.03	4.70	-83.1	-79.0	2.4	0.00e+00	0	48	104	0	60	1048571
2026-01-18 14:08:57.94	61.87	4.75	-83.1	-79.0	2.4	0.00e+00	0	48	104	0	60	1048569
2026-01-18 14:08:58.94	61.72	4.80	-83.5	-79.0	2.7	0.00e+00	0	48	104	0	60	1048575
2026-01-18 14:08:59.94	61.57	4.86	-83.1	-79.0	2.6	0.00e+00	0	48	104	0	60	1048575
2026-01-18 14:09:00.94	61.41	4.91	-83.5	-79.0	2.5	0.00e+00	0	48	104	0	60	1048575
2026-01-18 14:09:01.95	61.25	4.96	-83.1	-79.0	2.1	0.00e+00	0	48	104	0	60	1048570
2026-01-18 14:09:02.96	61.09	5.02	-83.1	-79.0	2.5	0.00e+00	0	48	104	0	60	1048573
2026-01-18 14:09:03.97	60.94	5.07	-83.5	-79.0	2.7	0.00e+00	0	48	104	0	60	1048570
2026-01-18 14:09:04.98	60.78	5.12	-83.5	-79.0	2.2	0.00e+00	0	48	104	0	60	1048574
2026-01-18 14:09:05.98	60.62	5.17	-83.5	-79.0	2.4	0.00e+00	0	48	104	0	60	1048573
2026-01-18 14:09:06.99	60.46	5.23	-83.1	-79.0	2.6	0.00e+00	0	48	104	0	60	1048575
2026-01-18 14:09:08.00	60.29	5.28	-83.5	-79.0	2.5	0.00e+00	0	48	104	0	60	1048568
2026-01-18 14:09:09.00	60.13	5.33	-83.5	-79.0	2.5	0.00e+00	0	48	104	0	60	1048570
2026-01-18 14:09:10.00	59.97	5.39	-83.1	-79.0	2.6	0.00e+00	0	48	104	0	60	1048574
2026-01-18 14:09:11.01	59.81	5.44	-83.1	-79.0	2.5	0.00e+00	0	48	104	0	60	1048575
2026-01-18 14:09:12.02	59.64	5.49	-83.1	-79.0	2.5	0.00e+00	0	48	104	0	60	1048574
2026-01-18 14:09:13.02	59.48	5.54	-83.5	-79.0	2.4	0.00e+00	0	48	104	0	60	1048574
2026-01-18 14:09:14.03	59.31	5.60	-83.5	-79.0	2.5	0.00e+00	0	48	104	0	60	1048568
2026-01-18 14:09:15.04	59.14	5.65	-83.5	-79.0	2.4	0.00e+00	0	48	104	0	60	1048570
2026-01-18 14:09:16.04	58.98	5.70	-83.1	-79.0	2.5	0.00e+00	0	48	104	0	60	1048570
2026-01-18 14:09:17.05	58.81	5.75	-83.1	-79.0	2.5	0.00e+00	0	48	104	0	60	1048575
2026-01-18 14:09:18.06	58.64	5.81	-83.1	-79.0	2.4	0.00e+00	0	48	104	0	60	1048574
2026-01-18 14:09:19.07	58.47	5.86	-83.5	-79.0	2.5	0.00e+00	0	48	104	0	60	1048573
2026-01-18 14:09:20.07	58.30	5.91	-83.5	-79.0	2.4	0.00e+00	0	48	104	0	60	1048575
2026-01-18 14:09:21.08	58.13	5.96	-83.1	-79.0	2.2	0.00e+00	0	48	104	0	60	1048571
2026-01-18 14:09:22.09	57.96	6.02	-83.1	-79.0	2.3	0.00e+00	0	48	104	0	60	1048569
2026-01-18 14:09:23.10	57.78	6.07	-83.1	-79.0	2.4	0.00e+00	0	48	104	0	60	1048573
2026-01-18 14:09:24.11	57.61	6.12	-83.5	-79.0	2.4	0.00e+00	0	48	104	0	60	1048573
2026-01-18 14:09:25.11	57.43	6.17	-83.1	-79.0	2.4	0.00e+00	0	48	104	0	60	1048574
2026-01-18 14:09:26.12	57.26	6.22	-83.1	-79.0	2.7	0.00e+00	0	48	104	0	60	1048574
2026-01-18 14:09:27.12	57.08	6.28	-83.5	-79.0	2.4	0.00e+00	0	48	104	0	60	1048560
2026-01-18 14:09:28.13	56.91	6.33	-83.5	-79.0	2.7	0.00e+00	0	48	104	0	60	1048575
2026-01-18 14:09:29.14	56.73	6.38	-83.5	-79.0	2.4	0.00e+00	0	48	104	0	60	1048573
2026-01-18 14:09:30.14	56.55	6.43	-82.8	-79.0	2.5	0.00e+00	0	48	104	0	60	1048570
2026-01-18 14:09:31.15	56.37	6.48	-83.5	-79.0	2.4	0.00e+00	0	48	104	0	60	1048575
2026-01-18 14:09:32.15	56.19	6.53	-83.5	-79.0	2.5	0.00e+00	0	48	104	0	60	1048571
2026-01-18 14:09:33.16	56.01	6.59	-83.5	-79.0	2.5	0.00e+00	0	48	104	0	60	1048562
2026-01-18 14:09:34.17	55.83	6.64	-83.5	-79.0	2.7	0.00e+00	0	48	104	0	60	1048574
2026-01-18 14:09:35.17	55.65	6.69	-83.1	-79.0	2.5	0.00e+00	0	48	104	0	60	1048572
2026-01-18 14:09:36.18	55.46	6.74	-83.1	-79.0	2.3	0.00e+00	0	48	104	0	60	1048568
2026-01-18 14:09:37.19	55.28	6.79	-83.5	-79.0	2.4	0.00e+00	0	48	104	0	60	1048573
2026-01-18 14:09:38.20	55.09	6.84	-83.5	-79.0	2.5	0.00e+00	0	48	104	0	60	1048573
2026-01-18 14:09:39.21	54.91	6.89	-83.5	-79.0	2.4	0.00e+00	0	48	104	0	60	1048572
2026-01-18 14:09:40.21	54.72	6.94	-82.8	-79.0	2.6	0.00e+00	0	48	104	0	60	1048574
2026-01-18 14:09:41.22	54.53	6.99	-83.5	-79.0	2.4	0.00e+00	0	48	104	0	60	1048573
2026-01-18 14:09:42.22	54.35	7.04	-83.5	-79.0	2.8	0.00e+00	0	48	104	0	60	1048573
2026-01-18 14:09:43.23	54.16	7.09	-83.1	-79.0	2.4	0.00e+00	0	48	104	0	60	1048574
2026-01-18 14:09:44.23	53.97	7.14	-83.1	-79.0	2.7	0.00e+00	0	48	104	0	60	1048569
2026-01-18 14:09:45.24	53.78	7.19	-83.1	-79.0	2.5	0.00e+00	0	48	104	0	60	1048575
2026-01-18 14:09:46.24	53.59	7.24	-83.5	-79.0	2.4	0.00e+00	0	48	104	0	60	1048573
2026-01-18 14:09:47.25	53.39	7.29	-83.5	-79.0	2.5	0.00e+00	0	48	104	0	60	1048572
2026-01-18 14:09:48.25	53.20	7.34	-83.5	-79.0	2.5	0.00e+00	0	48	104	0	60	1048575
2026-01-18 14:09:49.26	53.01	7.39	-83.5	-79.0	2.4	0.00e+00	0	48	104	0	60	1048574
2026-01-18 14:09:50.27	52.81	7.44	-83.1	-79.0	2.2	0.00e+00	0	48	104	0	60	1048572
2026-01-18 14:09:51.28	52.61	7.49	-83.1	-79.0	2.5	0.00e+00	0	48	104	0	60	1048571
2026-01-18 14:09:52.28	52.42	7.54	-83.5	-79.0	2.5	0.00e+00	0	48	104	0	60	1048572
2026-01-18 14:09:53.29	52.22	7.59	-83.5	-79.0	2.5	0.00e+00	0	48	104	0	60	1048575
2026-01-18 14:09:54.30	52.02	7.64	-83.1	-79.0	2.5	0.00e+00	0	48	104	0	60	1048574
2026-01-18 14:09:55.30	51.83	7.69	-83.5	-79.0	2.4	0.00e+00	0	48	104	0	60	1048575
2026-01-18 14:09:56.31	51.62	7.74	-83.1	-79.0	2.5	0.00e+00	0	48	104	0	60	1048571
2026-01-18 14:09:57.31	51.43	7.78	-83.5	-79.0	2.4	0.00e+00	0	48	104	0	60	1048575
2026-01-18 14:09:58.32	51.22	7.83	-83.5	-79.0	2.3	0.00e+00	0	48	104	0	60	1048575
2026-01-18 14:09:59.32	51.02	7.88	-83.1	-79.0	2.5	0.00e+00	0	48	104	0	60	1048574
2026-01-18 14:10:00.33	50.82	7.93	-83.5	-79.0	2.4	0.00e+00	0	48	104	0	60	1048568
2026-01-18 14:10:01.33	50.62	7.98	-83.5	-79.0	2.4	0.00e+00	0	48	104	0	60	1048572
2026-01-18 14:10:02.34	50.41	8.02	-83.1	-79.0	2.5	0.00e+00	0	48	104	0	60	1048567
2026-01-18 14:10:03.35	50.20	8.07	-82.8	-79.0	2.4	0.00e+00	0	48	104	0	60	1048574
2026-01-18 14:10:04.36	50.00	8.12	-83.1	-79.0	2.5	0.00e+00	0	48	104	0	60	1048558
2026-01-18 14:10:05.36	49.79	8.17	-83.5	-79.0	2.6	0.00e+00	0	48	104	0	60	1048573
2026-01-18 14:10:06.37	49.58	8.21	-83.5	-79.0	2.4	0.00e+00	0	48	104	0	60	1048575
2026-01-18 14:10:07.38	49.37	8.26	-83.5	-79.0	2.5	0.00e+00	0	48	104	0	60	1048574
2026-01-18 14:10:08.39	49.16	8.31	-83.1	-79.0	2.3	0.00e+00	0	48	104	0	60	1048573
2026-01-18 14:10:09.40	48.95	8.35	-82.8	-79.0	2.6	0.00e+00	0	48	104	0	60	1048575
2026-01-18 14:10:10.40	48.74	8.40	-83.5	-79.0	2.7	0.00e+00	0	48	104	0	60	1048570
2026-01-18 14:10:11.41	48.53	8.44	-83.5	-79.0	2.2	0.00e+00	0	48	104	0	60	1048574
2026-01-18 14:10:12.41	48.32	8.49	-83.5	-79.0	2.6	0.00e+00	0	48	104	0	60	1048573
2026-01-18 14:10:13.42	48.10	8.54	-83.1	-79.0	2.4	0.00e+00	0	48	104	0	60	1048575
2026-01-18 14:10:14.43	47.88	8.58	-83.1	-79.0	2.6	0.00e+00	0	48	104	0	60	1048571
2026-01-18 14:10:15.43	47.67	8.63	-83.5	-79.0	2.3	0.00e+00	0	48	104	0	60	1048575
2026-01-18 14:10:16.44	47.45	8.67	-83.5	-79.0	2.6	0.00e+00	0	48	104	0	60	1048568
2026-01-18 14:10:17.44	47.24	8.72	-83.1	-79.0	2.5	0.00e+00	0	48	104	0	60	1048575
2026-01-18 14:10:18.45	47.02	8.76	-83.1	-79.0	2.4	0.00e+00	0	48	104	0	60	1048575
2026-01-18 14:10:19.46	46.80	8.80	-83.5	-79.0	2.5	0.00e+00	0	48	104	0	60	1048575
2026-01-18 14:10:20.47	46.58	8.85	-83.5	-79.0	2.5	0.00e+00	0	48	104	0	60	1048572
2026-01-18 14:10:21.48	46.36	8.89	-83.5	-79.0	2.4	0.00e+00	0	48	104	0	60	1048570
2026-01-18 14:10:22.48	46.14	8.93	-83.1	-79.0	2.6	0.00e+00	0	48	104	0	60	1048565
2026-01-18 14:10:23.49	45.91	8.98	-83.1	-79.0	2.4	0.00e+00	0	48	104	0	60	1048574
2026-01-18 14:10:24.50	45.69	9.02	-83.5	-79.0	2.4	0.00e+00	0	48	104	0	60	1048570
2026-01-18 14:10:25.51	45.47	9.06	-83.5	-79.0	2.4	0.00e+00	0	48	104	0	60	1048573
2026-01-18 14:10:26.51	45.24	9.11	-83.5	-79.0	2.3	0.00e+00	0	49	104	0	60	1048573
2026-01-18 14:10:27.52	45.02	9.15	-83.1	-79.0	2.6	0.00e+00	0	48	104	0	60	1048571
2026-01-18 14:10:28.52	44.79	9.19	-83.1	-79.0	2.4	0.00e+00	0	48	104	0	60	1048574
2026-01-18 14:10:29.53	44.56	9.23	-83.5	-79.0	2.4	0.00e+00	0	48	104	0	60	1048571
2026-01-18 14:10:30.54	44.33	9.27	-83.5	-79.0	2.4	0.00e+00	0	48	104	0	60	1048573
2026-01-18 14:10:31.54	44.11	9.31	-83.5	-79.0	2.6	0.00e+00	0	48	104	0	60	1048572
2026-01-18 14:10:32.55	43.88	9.35	-83.1	-79.0	2.5	0.00e+00	0	48	104	0	60	1048572
2026-01-18 14:10:33.55	43.65	9.40	-83.5	-79.0	2.4	0.00e+00	0	48	104	0	60	1048575
2026-01-18 14:10:34.56	43.42	9.44	-83.5	-79.0	2.5	0.00e+00	0	48	104	0	60	1048571
2026-01-18 14:10:35.57	43.18	9.48	-83.5	-79.0	2.5	0.00e+00	0	48	104	0	60	1048574
2026-01-18 14:10:36.57	42.95	9.51	-83.1	-79.0	2.4	0.00e+00	0	48	104	0	60	1048569
2026-01-18 14:10:37.58	42.72	9.55	-83.1	-79.0	2.4	0.00e+00	0	48	104	0	60	1048572
2026-01-18 14:10:38.59	42.48	9.59	-83.5	-79.0	2.5	0.00e+00	0	48	104	0	60	1048574
2026-01-18 14:10:39.60	42.25	9.63	-83.5	-79.0	2.6	0.00e+00	0	49	104	0	60	1048574
2026-01-18 14:10:40.60	42.01	9.67	-83.1	-79.0	2.3	0.00e+00	0	48	104	0	60	1048572
2026-01-18 14:10:41.61	41.78	9.71	-83.1	-79.0	2.3	0.00e+00	0	48	104	0	60	1048574
2026-01-18 14:10:42.62	41.54	9.75	-83.1	-79.0	2.3	0.00e+00	0	48	104	0	60	1048575
2026-01-18 14:10:43.63	41.30	9.78	-83.5	-79.0	2.5	0.00e+00	0	48	104	0	60	1048574
2026-01-18 14:10:44.64	41.06	9.82	-83.5	-79.0	2.4	0.00e+00	0	48	104	0	60	1048573
2026-01-18 14:10:45.64	40.82	9.86	-83.5	-79.0	2.3	0.00e+00	0	49	104	0	60	1048571
2026-01-18 14:10:46.65	40.58	9.89	-82.8	-79.0	2.4	0.00e+00	0	48	104	0	60	1048572
2026-01-18 14:10:47.66	40.34	9.93	-83.5	-79.0	2.5	0.00e+00	0	48	104	0	60	1048572
2026-01-18 14:10:48.67	40.10	9.97	-83.5	-79.0	2.3	0.00e+00	0	48	104	0	60	1048568
2026-01-18 14:10:49.68	39.85	10.00	-83.5	-79.0	2.4	0.00e+00	0	49	104	0	60	1048573
2026-01-18 14:10:50.68	39.61	10.04	-83.5	-79.0	2.4	0.00e+00	0	49	104	0	60	1048571
2026-01-18 14:10:51.69	39.37	10.07	-83.1	-79.0	2.5	0.00e+00	0	49	104	0	60	1048575
2026-01-18 14:10:52.69	39.12	10.11	-83.5	-79.0	2.4	0.00e+00	0	48	104	0	60	1048575
2026-01-18 14:10:53.70	38.88	10.14	-83.5	-79.0	2.4	0.00e+00	0	49	104	0	60	1048575
2026-01-18 14:10:54.70	38.63	10.17	-83.5	-79.0	2.4	0.00e+00	0	49	104	0	60	1048573
2026-01-18 14:10:55.71	38.39	10.21	-83.1	-79.0	2.4	0.00e+00	0	49	104	0	60	1048574
2026-01-18 14:10:56.72	38.14	10.24	-82.8	-79.0	2.4	0.00e+00	0	48	104	0	60	1048575
2026-01-18 14:10:57.72	37.89	10.27	-83.5	-79.0	2.3	0.00e+00	0	49	104	0	60	1048574
2026-01-18 14:10:58.73	37.64	10.30	-83.5	-79.0	2.5	0.00e+00	0	48	104	0	60	1048572
2026-01-18 14:10:59.74	37.39	10.33	-83.5	-79.0	2.4	0.00e+00	0	49	104	0	60	1048573
2026-01-18 14:11:00.75	37.14	10.37	-83.1	-79.0	2.6	0.00e+00	0	48	104	0	60	1048571
2026-01-18 14:11:01.76	36.89	10.40	-83.1	-79.0	2.4	0.00e+00	0	49	104	0	60	1048571
2026-01-18 14:11:02.77	36.64	10.43	-83.5	-79.0	2.8	0.00e+00	0	48	104	0	60	1048574
2026-01-18 14:11:03.77	36.39	10.46	-83.5	-79.0	2.5	0.00e+00	0	48	104	0	60	1048575
2026-01-18 14:11:04.78	36.13	10.49	-83.1	-79.0	2.1	0.00e+00	0	48	104	0	60	1048572
2026-01-18 14:11:05.79	35.88	10.52	-83.1	-79.0	2.6	0.00e+00	0	48	104	0	60	1048574
2026-01-18 14:11:06.79	35.63	10.54	-83.5	-79.0	2.3	0.00e+00	0	48	104	0	60	1048574
2026-01-18 14:11:07.80	35.37	10.57	-83.5	-79.0	2.4	0.00e+00	0	48	104	0	60	1048573
2026-01-18 14:11:08.81	35.12	10.60	-83.5	-79.0	2.5	0.00e+00	0	48	104	0	60	1048575
2026-01-18 14:11:09.82	34.86	10.63	-83.1	-79.0	2.4	0.00e+00	0	48	104	0	60	1048568
2026-01-18 14:11:10.82	34.61	10.66	-83.1	-79.0	2.4	0.00e+00	0	48	104	0	60	1048571
2026-01-18 14:11:11.83	34.35	10.68	-83.5	-79.0	2.5	0.00e+00	0	49	104	0	60	1048575
2026-01-18 14:11:12.84	34.09	10.71	-83.5	-79.0	2.5	0.00e+00	0	49	104	0	60	1048574
2026-01-18 14:11:13.84	33.83	10.73	-83.5	-79.0	2.4	0.00e+00	0	48	104	0	60	1048571
2026-01-18 14:11:14.85	33.57	10.76	-83.1	-79.0	2.7	0.00e+00	0	49	104	0	60	1048573
2026-01-18 14:11:15.86	33.31	10.79	-82.8	-79.0	2.4	0.00e+00	0	49	104	0	60	1048573
2026-01-18 14:11:16.87	33.05	10.81	-83.5	-79.0	2.3	0.00e+00	0	49	104	0	60	1048574
2026-01-18 14:11:17.88	32.79	10.83	-83.5	-79.0	2.3	0.00e+00	0	49	104	0	60	1048575
2026-01-18 14:11:18.88	32.53	10.86	-83.5	-79.0	2.5	0.00e+00	0	49	104	0	60	1048569
2026-01-18 14:11:19.89	32.27	10.88	-83.1	-79.0	2.4	0.00e+00	0	49	104	0	60	1048575
2026-01-18 14:11:20.90	32.01	10.90	-83.1	-79.0	2.4	0.00e+00	0	49	104	0	60	1048567
2026-01-18 14:11:21.91	31.75	10.93	-83.5	-79.0	2.4	0.00e+00	0	49	104	0	60	1048574
2026-01-18 14:11:22.92	31.48	10.95	-83.1	-79.0	2.4	0.00e+00	0	49	104	0	60	1048574
2026-01-18 14:11:23.92	31.22	10.97	-83.1	-79.0	2.5	0.00e+00	0	49	104	0	60	1048575
2026-01-18 14:11:24.93	30.96	10.99	-83.1	-79.0	2.5	0.00e+00	0	49	104	0	60	1048575
2026-01-18 14:11:25.94	30.69	11.01	-83.5	-79.0	2.4	0.00e+00	0	49	104	0	60	1048568
2026-01-18 14:11:26.95	30.43	11.03	-83.5	-79.0	2.5	0.00e+00	0	49	104	0	60	1048563
2026-01-18 14:11:27.95	30.16	11.05	-83.1	-79.0	2.4	0.00e+00	0	49	104	0	60	1048573
2026-01-18 14:11:28.96	29.90	11.07	-83.1	-79.0	2.5	0.00e+00	0	49	104	0	60	1048568
2026-01-18 14:11:29.97	29.63	11.09	-83.1	-79.0	2.4	0.00e+00	0	49	104	0	60	1048575
2026-01-18 14:11:30.98	29.37	11.10	-83.5	-79.0	2.5	0.00e+00	0	49	104	0	60	1048575
2026-01-18 14:11:31.99	29.10	11.12	-83.5	-79.0	2.5	0.00e+00	0	49	104	0	60	1048574
2026-01-18 14:11:33.00	28.83	11.14	-83.5	-79.0	2.5	0.00e+00	0	49	104	0	60	1048569
2026-01-18 14:11:34.00	28.57	11.15	-83.1	-79.0	2.4	0.00e+00	0	49	104	0	60	1048569
2026-01-18 14:11:35.01	28.30	11.17	-83.1	-79.0	2.4	0.00e+00	0	49	104	0	60	1048575
2026-01-18 14:11:36.02	28.03	11.18	-83.1	-79.0	2.4	0.00e+00	0	49	104	0	60	1048573
2026-01-18 14:11:37.03	27.76	11.20	-83.5	-79.0	2.4	0.00e+00	0	49	104	0	60	1048575
2026-01-18 14:11:38.04	27.49	11.21	-83.5	-79.0	2.5	0.00e+00	0	48	104	0	60	1048575
2026-01-18 14:11:39.04	27.22	11.23	-83.1	-79.0	2.4	0.00e+00	0	49	104	0	60	1048575
2026-01-18 14:11:40.05	26.95	11.24	-83.5	-79.0	2.5	0.00e+00	0	49	104	0	60	1048575
2026-01-18 14:11:41.05	26.69	11.25	-83.5	-79.0	2.5	0.00e+00	0	48	104	0	60	1048571
2026-01-18 14:11:42.06	26.41	11.27	-83.5	-79.0	2.4	0.00e+00	0	49	104	0	60	1048573
2026-01-18 14:11:43.07	26.14	11.28	-83.1	-79.0	2.4	0.00e+00	0	49	104	0	60	1048572
2026-01-18 14:11:44.07	25.88	11.29	-83.5	-79.0	2.4	0.00e+00	0	49	104	0	60	1048574
2026-01-18 14:11:45.07	25.61	11.30	-83.1	-79.0	2.4	0.00e+00	0	49	104	0	60	1048574
2026-01-18 14:11:46.08	25.34	11.31	-83.5	-79.0	2.5	0.00e+00	0	49	104	0	60	1048575
2026-01-18 14:11:47.08	25.07	11.32	-83.5	-79.0	2.4	0.00e+00	0	49	104	0	60	1048559
2026-01-18 14:11:48.09	24.79	11.33	-83.1	-79.0	2.7	0.00e+00	0	49	104	0	60	1048575
2026-01-18 14:11:49.09	24.52	11.34	-83.5	-79.0	2.3	0.00e+00	0	49	104	0	60	1048572
2026-01-18 14:11:50.10	24.25	11.34	-83.5	-79.0	2.4	0.00e+00	0	49	104	0	60	1048573
2026-01-18 14:11:51.11	23.98	11.35	-83.5	-79.0	2.3	0.00e+00	0	49	104	0	60	1048570
2026-01-18 14:11:52.12	23.71	11.36	-83.5	-79.0	2.4	0.00e+00	0	49	104	0	60	1048574
2026-01-18 14:11:53.12	23.44	11.36	-82.8	-79.0	2.5	0.00e+00	0	49	104	0	60	1048572
2026-01-18 14:11:54.13	23.16	11.37	-83.5	-79.0	2.3	0.00e+00	0	49	104	0	60	1048573
2026-01-18 14:11:55.14	22.89	11.38	-83.5	-79.0	2.4	0.00e+00	0	49	104	0	60	1048572
2026-01-18 14:11:56.14	22.62	11.38	-83.1	-79.0	2.4	0.00e+00	0	49	104	0	60	1048571
2026-01-18 14:11:57.15	22.35	11.39	-83.1	-79.0	2.4	0.00e+00	0	49	104	0	60	1048575
2026-01-18 14:11:58.15	22.08	11.39	-83.1	-79.0	2.5	0.00e+00	0	49	104	0	60	1048575
2026-01-18 14:11:59.16	21.80	11.39	-83.5	-79.0	2.4	0.00e+00	0	49	104	0	60	1048562
2026-01-18 14:12:00.17	21.53	11.39	-83.5	-79.0	2.5	0.00e+00	0	49	104	0	60	1048573
2026-01-18 14:12:01.18	21.26	11.40	-83.5	-79.0	2.4	0.00e+00	0	49	104	0	60	1048575
2026-01-18 14:12:02.18	20.98	11.40	-82.8	-79.0	2.4	0.00e+00	0	49	104	0	60	1048571
2026-01-18 14:12:03.19	20.71	11.40	-82.8	-79.0	2.4	0.00e+00	0	49	104	0	60	1048568
2026-01-18 14:12:04.20	20.44	11.40	-83.5	-79.0	2.4	0.00e+00	0	49	104	0	60	1048572
2026-01-18 14:12:05.21	20.16	11.40	-83.5	-79.0	2.4	0.00e+00	0	49	104	0	60	1048574
2026-01-18 14:12:06.22	19.89	11.40	-83.5	-79.0	2.4	0.00e+00	0	49	104	0	60	1048567
2026-01-18 14:12:07.22	19.62	11.40	-83.1	-79.0	2.4	0.00e+00	0	49	104	0	60	1048566
2026-01-18 14:12:08.24	19.34	11.40	-83.5	-79.0	2.5	0.00e+00	0	49	104	0	60	1048570
2026-01-18 14:12:09.24	19.07	11.39	-83.5	-79.0	2.4	0.00e+00	0	49	104	0	60	1048575
2026-01-18 14:12:10.25	18.80	11.39	-83.5	-79.0	2.6	0.00e+00	0	49	104	0	60	1048575
2026-01-18 14:12:11.26	18.53	11.39	-83.5	-79.0	2.4	0.00e+00	0	49	104	0	60	1048575
2026-01-18 14:12:12.27	18.25	11.38	-83.1	-79.0	2.7	0.00e+00	0	49	104	0	60	1048569
2026-01-18 14:12:13.27	17.98	11.38	-83.1	-79.0	2.4	0.00e+00	0	49	104	0	60	1048575
2026-01-18 14:12:14.28	17.71	11.38	-83.5	-79.0	2.6	0.00e+00	0	49	104	0	60	1048575
2026-01-18 14:12:15.29	17.44	11.37	-83.5	-79.0	2.3	0.00e+00	0	49	104	0	60	1048575
2026-01-18 14:12:16.29	17.16	11.36	-83.1	-79.0	2.4	0.00e+00	0	49	104	0	60	1048575
2026-01-18 14:12:17.29	16.89	11.36	-83.1	-79.0	2.3	0.00e+00	0	49	104	0	60	1048573
2026-01-18 14:12:18.30	16.62	11.35	-83.5	-79.0	2.4	0.00e+00	0	49	104	0	60	1048574
2026-01-18 14:12:19.31	16.35	11.34	-83.5	-79.0	2.7	0.00e+00	0	49	104	0	60	1048564
2026-01-18 14:12:20.32	16.08	11.33	-83.5	-79.0	2.2	0.00e+00	0	49	104	0	60	1048575
2026-01-18 14:12:21.33	15.81	11.33	-83.1	-79.0	2.7	0.00e+00	0	49	104	0	60	1048572
2026-01-18 14:12:22.33	15.54	11.32	-83.1	-79.0	2.6	0.00e+00	0	49	104	0	60	1048574
2026-01-18 14:12:23.34	15.26	11.31	-83.5	-79.0	2.3	0.00e+00	0	49	104	0	60	1048574
2026-01-18 14:12:24.35	14.99	11.30	-83.5	-79.0	2.4	0.00e+00	0	49	104	0	60	1048570
2026-01-18 14:12:25.36	14.72	11.29	-83.5	-79.0	2.4	0.00e+00	0	49	104	0	60	1048575
2026-01-18 14:12:26.36	14.45	11.28	-83.1	-79.0	2.5	0.00e+00	0	49	104	0	60	1048569
2026-01-18 14:12:27.37	14.18	11.26	-83.5	-79.0	2.3	0.00e+00	0	49	104	0	60	1048574
2026-01-18 14:12:28.38	13.91	11.25	-83.5	-79.0	2.5	0.00e+00	0	49	104	0	60	1048565
2026-01-18 14:12:29.38	13.65	11.24	-83.5	-79.0	2.4	0.00e+00	0	49	104	0	60	1048574
2026-01-18 14:12:30.39	13.38	11.22	-83.5	-79.0	2.5	0.00e+00	0	49	104	0	60	1048564
2026-01-18 14:12:31.39	13.11	11.21	-83.1	-79.0	2.3	0.00e+00	0	49	104	0	60	1048561
2026-01-18 14:12:32.40	12.84	11.20	-83.5	-79.0	2.4	0.00e+00	0	49	104	0	60	1048571
2026-01-18 14:12:33.41	12.57	11.18	-83.5	-79.0	2.4	0.00e+00	0	49	104	0	60	1048570
2026-01-18 14:12:34.42	12.30	11.17	-83.5	-79.0	2.4	0.00e+00	0	49	104	0	60	1048573
2026-01-18 14:12:35.43	12.03	11.15	-83.1	-79.0	2.4	0.00e+00	0	49	104	0	60	1048564
2026-01-18 14:12:36.43	11.77	11.13	-83.1	-79.0	2.4	0.00e+00	0	49	104	0	60	1048575
2026-01-18 14:12:37.44	11.50	11.12	-83.5	-79.0	2.4	0.00e+00	0	49	104	0	60	1048572
2026-01-18 14:12:38.45	11.23	11.10	-83.5	-79.0	2.6	0.00e+00	0	49	104	0	60	1048573
2026-01-18 14:12:39.46	10.97	11.08	-83.5	-79.0	2.1	0.00e+00	0	49	104	0	60	1048573
2026-01-18 14:12:40.46	10.70	11.06	-83.5	-79.0	2.4	0.00e+00	0	49	104	0	60	1048557
2026-01-18 14:12:41.47	10.44	11.04	-83.5	-79.0	2.6	0.00e+00	0	49	104	0	60	1048563
2026-01-18 14:12:42.48	10.17	11.03	-83.1	-79.0	2.3	0.00e+00	0	49	104	0	60	1048570
2026-01-18 14:12:43.49	9.91	11.01	-83.1	-79.0	2.7	0.00e+00	0	49	104	0	60	1048568
2026-01-18 14:12:44.49	9.65	10.99	-83.5	-79.0	2.2	0.00e+00	0	49	104	0	60	1048575
2026-01-18 14:12:45.50	9.38	10.96	-83.1	-79.0	2.8	0.00e+00	0	49	104	0	60	1048575
2026-01-18 14:12:46.51	9.12	10.94	-83.5	-79.0	2.4	0.00e+00	0	49	104	0	60	1048575
2026-01-18 14:12:47.51	8.86	10.92	-83.5	-79.0	2.4	0.00e+00	0	49	104	0	60	1048571
2026-01-18 14:12:48.52	8.60	10.90	-83.5	-79.0	2.4	0.00e+00	0	49	104	0	60	1048574
2026-01-18 14:12:49.53	8.33	10.88	-83.1	-79.0	2.4	0.00e+00	0	49	104	0	60	1048571
2026-01-18 14:12:50.53	8.07	10.85	-83.5	-79.0	2.4	0.00e+00	0	49	104	0	60	1048574
2026-01-18 14:12:51.54	7.81	10.83	-83.5	-79.0	2.4	0.00e+00	0	49	104	0	60	1048572
2026-01-18 14:12:52.55	7.55	10.81	-83.5	-79.0	2.6	0.00e+00	0	49	104	0	60	1048568
2026-01-18 14:12:53.55	7.30	10.78	-83.5	-79.0	2.4	0.00e+00	0	49	104	0	60	1048572
2026-01-18 14:12:54.56	7.04	10.76	-83.1	-79.0	2.4	0.00e+00	0	49	104	0	60	1048572
2026-01-18 14:12:55.57	6.78	10.73	-83.1	-79.0	2.4	0.00e+00	0	49	104	0	60	1048574
2026-01-18 14:12:56.58	6.52	10.71	-83.5	-79.0	2.7	0.00e+00	0	49	104	0	60	1048575
2026-01-18 14:12:57.58	6.26	10.68	-83.5	-79.0	2.3	0.00e+00	0	49	104	0	60	1048574
2026-01-18 14:12:58.59	6.01	10.65	-83.5	-79.0	2.4	0.00e+00	0	49	104	0	60	1048573
2026-01-18 14:12:59.60	5.75	10.63	-82.8	-79.0	2.4	0.00e+00	0	49	104	0	60	1048572
2026-01-18 14:13:00.60	5.50	10.60	-83.1	-79.0	2.4	0.00e+00	0	49	104	0	60	1048572
2026-01-18 14:13:01.61	5.24	10.57	-83.5	-79.0	2.5	0.00e+00	0	49	104	0	60	1048570
2026-01-18 14:13:02.62	4.99	10.54	-83.5	-79.0	2.4	0.00e+00	0	49	104	0	60	1048575
2026-01-18 14:13:03.63	4.73	10.51	-83.5	-79.0	2.5	0.00e+00	0	49	104	0	60	1048565
2026-01-18 14:13:04.63	4.48	10.48	-83.1	-79.0	2.5	0.00e+00	0	49	104	0	60	1048575
2026-01-18 14:13:05.63	4.23	10.45	-83.5	-79.0	2.5	0.00e+00	0	49	104	0	60	1048569
2026-01-18 14:13:06.64	3.98	10.42	-83.5	-79.0	2.4	0.00e+00	0	49	104	0	60	1048575
2026-01-18 14:13:07.65	3.73	10.39	-83.5	-79.0	2.4	0.00e+00	0	49	104	0	60	1048571
2026-01-18 14:13:08.66	3.47	10.36	-83.1	-79.0	2.3	0.00e+00	0	49	104	0	60	1048574
2026-01-18 14:13:09.66	3.23	10.33	-83.1	-79.0	2.4	0.00e+00	0	49	104	0	60	1048573
2026-01-18 14:13:10.67	2.98	10.30	-83.5	-79.0	2.5	0.00e+00	0	49	104	0	60	1048572
2026-01-18 14:13:11.68	2.73	10.27	-83.5	-79.0	2.4	0.00e+00	0	49	104	0	60	1048575
2026-01-18 14:13:12.69	2.48	10.23	-83.5	-79.0	2.4	0.00e+00	0	49	104	0	60	1048569
2026-01-18 14:13:13.70	2.23	10.20	-83.1	-79.0	2.3	0.00e+00	0	49	104	0	60	1048572
2026-01-18 14:13:14.70	1.99	10.17	-83.1	-79.0	2.3	0.00e+00	0	49	104	0	60	1048567
2026-01-18 14:13:15.71	1.74	10.14	-83.1	-79.0	2.5	0.00e+00	0	49	104	0	60	1048575
2026-01-18 14:13:16.71	1.50	10.10	-83.5	-79.0	2.5	0.00e+00	0	49	104	0	60	1048575
2026-01-18 14:13:17.71	1.25	10.07	-83.5	-79.0	2.6	0.00e+00	0	49	104	0	60	1048572
2026-01-18 14:13:18.72	1.01	10.03	-82.8	-79.0	2.5	0.00e+00	0	49	104	0	60	1048575
2026-01-18 14:13:19.73	0.77	10.00	-83.5	-79.0	2.7	0.00e+00	0	49	104	0	60	1048574
2026-01-18 14:13:20.73	0.53	9.96	-83.5	-79.0	2.4	0.00e+00	0	49	104	0	60	1048575
2026-01-18 14:13:21.74	0.28	9.93	-83.5	-79.0	2.4	0.00e+00	0	49	104	0	60	1048573
2026-01-18 14:13:22.74	0.05	9.89	-83.1	-79.0	2.3	0.00e+00	0	49	104	0	60	1048564
2026-01-18 14:13:23.75	359.81	9.85	-83.1	-79.0	2.4	0.00e+00	0	49	104	0	60	1048574
2026-01-18 14:13:24.76	359.57	9.82	-83.5	-79.0	2.4	0.00e+00	0	49	104	0	60	1048573
2026-01-18 14:13:25.76	359.33	9.78	-83.5	-79.0	2.5	0.00e+00	0	49	104	0	60	1048569
2026-01-18 14:13:26.77	359.09	9.74	-83.5	-79.0	2.4	0.00e+00	0	49	104	0	60	1048570
2026-01-18 14:13:27.77	358.86	9.71	-83.1	-79.0	2.6	0.00e+00	0	49	104	0	60	1048568
2026-01-18 14:13:28.78	358.62	9.67	-83.1	-79.0	2.6	0.00e+00	0	49	104	0	60	1048572
2026-01-18 14:13:29.78	358.38	9.63	-83.5	-79.0	2.6	0.00e+00	0	49	104	0	60	1048575
2026-01-18 14:13:30.79	358.15	9.59	-83.5	-79.0	2.2	0.00e+00	0	49	104	0	60	1048575
2026-01-18 14:13:31.80	357.91	9.55	-83.5	-79.0	2.6	0.00e+00	0	49	104	0	60	1048574
2026-01-18 14:13:32.80	357.68	9.51	-83.1	-79.0	2.4	0.00e+00	0	49	104	0	60	1048575
2026-01-18 14:13:33.81	357.45	9.47	-82.8	-79.0	2.5	0.00e+00	0	49	104	0	60	1048575
2026-01-18 14:13:34.82	357.22	9.43	-83.5	-79.0	2.4	0.00e+00	0	49	104	0	60	1048573
2026-01-18 14:13:35.83	356.99	9.39	-83.1	-79.0	2.6	0.00e+00	0	49	104	0	60	1048575
2026-01-18 14:13:36.83	356.76	9.35	-83.1	-79.0	2.4	0.00e+00	0	49	104	0	60	1048571
2026-01-18 14:13:37.84	356.53	9.31	-83.1	-79.0	2.6	0.00e+00	0	49	104	0	60	1048575
2026-01-18 14:13:38.85	356.30	9.27	-83.5	-79.0	2.4	0.00e+00	0	49	104	0	60	1048565
2026-01-18 14:13:39.86	356.07	9.23	-83.5	-79.0	2.4	0.00e+00	0	49	104	0	60	1048574
2026-01-18 14:13:40.86	355.85	9.19	-83.5	-79.0	2.4	0.00e+00	0	49	104	0	60	1048574
2026-01-18 14:13:41.87	355.62	9.15	-83.1	-79.0	2.5	0.00e+00	0	49	104	0	60	1048574
2026-01-18 14:13:42.88	355.39	9.10	-83.1	-79.0	2.4	0.00e+00	0	49	104	0	60	1048574
2026-01-18 14:13:43.89	355.17	9.06	-83.5	-79.0	2.7	0.00e+00	0	49	104	0	60	1048570
2026-01-18 14:13:44.90	354.95	9.02	-83.5	-79.0	2.5	0.00e+00	0	49	104	0	60	1048574
2026-01-18 14:13:45.90	354.72	8.98	-83.5	-79.0	2.4	0.00e+00	0	49	104	0	60	1048575
2026-01-18 14:13:46.92	354.50	8.93	-83.1	-79.0	2.5	0.00e+00	0	49	104	0	60	1048573
2026-01-18 14:13:47.92	354.28	8.89	-83.1	-79.0	2.1	0.00e+00	0	49	104	0	60	1048573
2026-01-18 14:13:48.93	354.06	8.84	-83.5	-79.0	2.5	0.00e+00	0	49	104	0	60	1048575
2026-01-18 14:13:49.94	353.84	8.80	-83.5	-79.0	2.4	0.00e+00	0	49	104	0	60	1048573
2026-01-18 14:13:50.95	353.62	8.76	-83.5	-79.0	2.5	0.00e+00	0	49	104	0	60	1048575
2026-01-18 14:13:51.96	353.40	8.71	-83.1	-79.0	2.5	0.00e+00	0	49	104	0	60	1048575
2026-01-18 14:13:52.96	353.19	8.67	-83.5	-79.0	2.4	0.00e+00	0	49	104	0	60	1048572
2026-01-18 14:13:53.97	352.97	8.62	-83.5	-79.0	2.5	0.00e+00	0	49	104	0	60	1048575
2026-01-18 14:13:54.97	352.76	8.58	-83.5	-79.0	2.3	0.00e+00	0	49	104	0	60	1048566
2026-01-18 14:13:55.98	352.54	8.53	-83.1	-79.0	2.4	0.00e+00	0	49	104	0	60	1048574
2026-01-18 14:13:56.99	352.33	8.49	-83.1	-79.0	2.4	0.00e+00	0	49	104	0	60	1048575
2026-01-18 14:13:58.00	352.11	8.44	-83.5	-79.0	2.4	0.00e+00	0	49	104	0	60	1048575
2026-01-18 14:13:59.00	351.90	8.40	-83.5	-79.0	2.4	0.00e+00	0	49	104	0	60	1048573
2026-01-18 14:14:00.01	351.69	8.35	-83.5	-79.0	2.4	0.00e+00	0	49	104	0	60	1048574
2026-01-18 14:14:01.02	351.48	8.30	-83.5	-79.0	2.4	0.00e+00	0	49	104	0	60	1048575
2026-01-18 14:14:02.03	351.27	8.26	-83.1	-79.0	2.5	0.00e+00	0	49	104	0	60	1048572
2026-01-18 14:14:03.03	351.06	8.21	-83.5	-79.0	2.3	0.00e+00	0	49	104	0	60	1048575
2026-01-18 14:14:04.04	350.86	8.16	-83.5	-79.0	2.5	0.00e+00	0	49	104	0	60	1048575
2026-01-18 14:14:05.05	350.65	8.12	-83.5	-79.0	2.3	0.00e+00	0	49	104	0	60	1048574
2026-01-18 14:14:06.06	350.44	8.07	-83.1	-79.0	2.6	0.00e+00	0	49	104	0	60	1048575
2026-01-18 14:14:07.07	350.24	8.02	-83.1	-79.0	2.5	0.00e+00	0	49	104	0	60	1048572
2026-01-18 14:14:08.08	350.03	7.97	-83.1	-79.0	2.3	0.00e+00	0	49	104	0	60	1048574
2026-01-18 14:14:09.08	349.83	7.93	-83.1	-79.0	2.4	0.00e+00	0	49	104	0	60	1048573
2026-01-18 14:14:10.09	349.63	7.88	-83.5	-79.0	2.4	0.00e+00	0	49	104	0	60	1048575
2026-01-18 14:14:11.09	349.42	7.83	-83.1	-79.0	2.5	0.00e+00	0	49	104	0	60	1048573
2026-01-18 14:14:12.10	349.22	7.78	-83.5	-79.0	2.5	0.00e+00	0	49	104	0	60	1048575
2026-01-18 14:14:13.11	349.02	7.73	-83.5	-79.0	2.5	0.00e+00	0	49	104	0	60	1048565
2026-01-18 14:14:14.12	348.82	7.68	-83.5	-79.0	2.3	0.00e+00	0	49	104	0	60	1048572
2026-01-18 14:14:15.12	348.63	7.64	-83.1	-79.0	2.5	0.00e+00	0	49	104	0	60	1048574
2026-01-18 14:14:16.13	348.43	7.59	-82.8	-79.0	2.4	0.00e+00	0	49	104	0	60	1048573
2026-01-18 14:14:17.13	348.23	7.54	-83.5	-79.0	2.6	0.00e+00	0	49	104	0	60	1048573
2026-01-18 14:14:18.14	348.04	7.49	-83.5	-79.0	2.5	0.00e+00	0	49	104	0	60	1048574
2026-01-18 14:14:19.15	347.84	7.44	-83.5	-79.0	2.5	0.00e+00	0	49	104	0	60	1048575
2026-01-18 14:14:20.16	347.64	7.39	-83.5	-79.0	2.4	0.00e+00	0	49	104	0	60	1048575
2026-01-18 14:14:21.16	347.45	7.34	-83.1	-79.0	2.3	0.00e+00	0	49	104	0	60	1048571
2026-01-18 14:14:22.17	347.26	7.29	-83.1	-79.0	2.4	0.00e+00	0	49	104	0	60	1048573
2026-01-18 14:14:23.18	347.07	7.24	-83.5	-79.0	2.4	0.00e+00	0	49	104	0	60	1048572
2026-01-18 14:14:24.19	346.88	7.19	-83.5	-79.0	2.4	0.00e+00	0	49	104	0	60	1048574
2026-01-18 14:14:25.20	346.68	7.14	-83.1	-79.0	2.4	0.00e+00	0	49	104	0	60	1048564
2026-01-18 14:14:26.20	346.50	7.09	-83.1	-79.0	2.4	0.00e+00	0	49	104	0	60	1048567
2026-01-18 14:14:27.21	346.31	7.04	-83.5	-79.0	2.4	0.00e+00	0	49	104	0	60	1048571
2026-01-18 14:14:28.21	346.12	6.99	-83.5	-79.0	2.4	0.00e+00	0	49	104	0	60	1048572
2026-01-18 14:14:29.21	345.94	6.94	-83.1	-79.0	2.4	0.00e+00	0	49	104	0	60	1048571
2026-01-18 14:14:30.22	345.75	6.89	-83.1	-79.0	2.4	0.00e+00	0	49	104	0	60	1048574
2026-01-18 14:14:31.22	345.57	6.84	-83.5	-79.0	2.3	0.00e+00	0	49	104	0	60	1048574
2026-01-18 14:14:32.23	345.38	6.79	-83.5	-79.0	2.4	0.00e+00	0	49	104	0	60	1048573
2026-01-18 14:14:33.24	345.20	6.74	-83.5	-79.0	2.4	0.00e+00	0	49	104	0	60	1048572
2026-01-18 14:14:34.24	345.01	6.69	-83.5	-79.0	2.3	0.00e+00	0	49	104	0	60	1048573
2026-01-18 14:14:35.25	344.83	6.64	-83.1	-79.0	2.5	0.00e+00	0	49	104	0	60	1048574
2026-01-18 14:14:36.26	344.65	6.58	-83.5	-79.0	2.4	0.00e+00	0	49	104	0	60	1048574
2026-01-18 14:14:37.26	344.47	6.53	-83.5	-79.0	2.4	0.00e+00	0	49	104	0	60	1048574
2026-01-18 14:14:38.27	344.29	6.48	-83.5	-79.0	2.4	0.00e+00	0	49	104	0	60	1048573
2026-01-18 14:14:39.28	344.11	6.43	-83.1	-79.0	2.5	0.00e+00	0	49	104	0	60	1048573
2026-01-18 14:14:40.29	343.93	6.38	-83.1	-79.0	2.4	0.00e+00	0	49	104	0	60	1048573
2026-01-18 14:14:41.30	343.76	6.33	-83.5	-79.0	2.3	0.00e+00	0	49	104	0	60	1048573
2026-01-18 14:14:42.30	343.58	6.28	-83.5	-79.0	2.3	0.00e+00	0	49	104	0	60	1048575
2026-01-18 14:14:43.31	343.40	6.22	-83.5	-79.0	2.3	0.00e+00	0	49	104	0	60	1048574
2026-01-18 14:14:44.32	343.23	6.17	-83.1	-79.0	2.4	0.00e+00	0	49	104	0	60	1048572
2026-01-18 14:14:45.32	343.06	6.12	-83.5	-79.0	2.4	0.00e+00	0	49	104	0	60	1048574
2026-01-18 14:14:46.33	342.88	6.07	-83.5	-79.0	2.5	0.00e+00	0	49	104	0	60	1048574
2026-01-18 14:14:47.34	342.71	6.02	-83.5	-79.0	2.5	0.00e+00	0	49	104	0	60	1048573
2026-01-18 14:14:48.35	342.54	5.96	-83.1	-79.0	2.4	0.00e+00	0	49	104	0	60	1048572
2026-01-18 14:14:49.36	342.37	5.91	-83.1	-79.0	2.7	0.00e+00	0	49	104	0	60	1048575
2026-01-18 14:14:50.37	342.20	5.86	-83.5	-79.0	2.4	0.00e+00	0	49	104	0	60	1048574
2026-01-18 14:14:51.37	342.03	5.81	-83.5	-79.0	2.6	0.00e+00	0	49	104	0	60	1048575
2026-01-18 14:14:52.38	341.86	5.75	-83.5	-79.0	2.4	0.00e+00	0	49	104	0	60	1048567
2026-01-18 14:14:53.39	341.69	5.70	-83.5	-79.0	2.3	0.00e+00	0	49	104	0	60	1048574
2026-01-18 14:14:54.40	341.52	5.65	-83.1	-79.0	2.4	0.00e+00	0	49	104	0	60	1048574
2026-01-18 14:14:55.40	341.36	5.60	-83.1	-79.0	2.5	0.00e+00	0	49	104	0	60	1048571
2026-01-18 14:14:56.41	341.19	5.54	-83.5	-79.0	2.4	0.00e+00	0	49	104	0	60	1048575
2026-01-18 14:14:57.42	341.03	5.49	-83.5	-79.0	2.5	0.00e+00	0	49	104	0	60	1048573
2026-01-18 14:14:58.43	340.86	5.44	-83.1	-79.0	2.4	0.00e+00	0	49	104	0	60	1048575
2026-01-18 14:14:59.43	340.70	5.39	-83.1	-79.0	2.4	0.00e+00	0	49	104	0	60	1048575
2026-01-18 14:15:00.43	340.54	5.33	-83.5	-79.0	2.4	0.00e+00	0	49	104	0	60	1048573
2026-01-18 14:15:01.44	340.38	5.28	-83.5	-79.0	2.4	0.00e+00	0	49	104	0	60	1048574
2026-01-18 14:15:02.44	340.22	5.23	-83.5	-79.0	2.4	0.00e+00	0	49	104	0	60	1048573
2026-01-18 14:15:03.45	340.06	5.17	-82.8	-79.0	2.4	0.00e+00	0	49	104	0	60	1048573
2026-01-18 14:15:04.45	339.90	5.12	-83.1	-79.0	2.4	0.00e+00	0	49	104	0	60	1048565
2026-01-18 14:15:05.46	339.74	5.07	-83.5	-79.0	2.4	0.00e+00	0	49	104	0	60	1048573
2026-01-18 14:15:06.47	339.58	5.02	-83.5	-79.0	2.8	0.00e+00	0	49	104	0	60	1048571
2026-01-18 14:15:07.47	339.43	4.96	-83.5	-79.0	2.3	0.00e+00	0	49	104	0	60	1048569
2026-01-18 14:15:08.48	339.27	4.91	-83.1	-79.0	2.7	0.00e+00	0	49	104	0	60	1048567
2026-01-18 14:15:09.49	339.11	4.86	-83.5	-79.0	2.4	0.00e+00	0	49	104	0	60	1048574
2026-01-18 14:15:10.50	338.96	4.80	-83.5	-79.0	2.3	0.00e+00	0	49	104	0	60	1048570
2026-01-18 14:15:11.51	338.80	4.75	-83.5	-79.0	2.3	0.00e+00	0	49	104	0	60	1048570
2026-01-18 14:15:12.52	338.65	4.70	-83.1	-79.0	2.4	0.00e+00	0	49	104	0	60	1048574
2026-01-18 14:15:13.52	338.50	4.64	-83.1	-79.0	2.4	0.00e+00	0	49	104	0	60	1048575
2026-01-18 14:15:14.53	338.34	4.59	-83.5	-79.0	2.4	0.00e+00	0	49	104	0	60	1048572
2026-01-18 14:15:15.54	338.19	4.54	-83.5	-79.0	2.6	0.00e+00	0	49	104	0	60	1048575
2026-01-18 14:15:16.55	338.04	4.48	-83.5	-79.0	2.4	0.00e+00	0	49	104	0	60	1048567
2026-01-18 14:15:17.55	337.89	4.43	-83.1	-79.0	2.7	0.00e+00	0	49	104	0	60	1048573
2026-01-18 14:15:18.56	337.74	4.38	-83.5	-79.0	2.4	0.00e+00	0	49	104	0	60	1048574
2026-01-18 14:15:19.57	337.59	4.32	-83.5	-79.0	2.3	0.00e+00	0	49	104	0	60	1048574
2026-01-18 14:15:20.58	337.44	4.27	-83.5	-79.0	2.4	0.00e+00	0	49	104	0	60	1048573
2026-01-18 14:15:21.59	337.30	4.22	-83.1	-79.0	2.5	0.00e+00	0	49	104	0	60	1048575
2026-01-18 14:15:22.60	337.15	4.16	-82.8	-79.0	2.4	0.00e+00	0	49	104	0	60	1048563
2026-01-18 14:15:23.60	337.01	4.11	-83.5	-79.0	2.4	0.00e+00	0	49	104	0	60	1048570
2026-01-18 14:15:24.61	336.86	4.06	-83.5	-79.0	2.6	0.00e+00	0	49	104	0	60	1048573
2026-01-18 14:15:25.62	336.72	4.00	-83.5	-79.0	2.4	0.00e+00	0	49	104	0	60	1048575
2026-01-18 14:15:26.63	336.57	3.95	-83.1	-79.0	2.5	0.00e+00	0	49	104	0	60	1048561
2026-01-18 14:15:27.64	336.43	3.90	-83.1	-79.0	2.2	0.00e+00	0	49	104	0	60	1048574
2026-01-18 14:15:28.64	336.29	3.85	-83.1	-79.0	2.4	0.00e+00	0	49	104	0	60	1048573
2026-01-18 14:15:29.65	336.14	3.79	-83.5	-79.0	2.5	0.00e+00	0	49	104	0	60	1048571
2026-01-18 14:15:30.65	336.00	3.74	-83.5	-79.0	2.5	0.00e+00	0	49	104	0	60	1048572
2026-01-18 14:15:31.66	335.86	3.69	-83.1	-79.0	2.4	0.00e+00	0	49	104	0	60	1048573
2026-01-18 14:15:32.66	335.72	3.63	-83.5	-79.0	2.6	0.00e+00	0	49	104	0	60	1048573
2026-01-18 14:15:33.67	335.58	3.58	-83.5	-79.0	2.4	0.00e+00	0	49	104	0	60	1048567
2026-01-18 14:15:34.67	335.45	3.53	-83.5	-79.0	2.4	0.00e+00	0	49	104	0	60	1048575
2026-01-18 14:15:35.68	335.31	3.47	-83.5	-79.0	2.4	0.00e+00	0	49	104	0	60	1048568
2026-01-18 14:15:36.69	335.17	3.42	-82.8	-79.0	2.5	0.00e+00	0	49	104	0	60	1048574
2026-01-18 14:15:37.69	335.04	3.37	-83.5	-79.0	2.4	0.00e+00	0	49	104	0	60	1048575
2026-01-18 14:15:38.70	334.90	3.31	-83.5	-79.0	2.4	0.00e+00	0	49	104	0	60	1048572
2026-01-18 14:15:39.71	334.76	3.26	-83.5	-79.0	2.4	0.00e+00	0	49	104	0	60	1048572
2026-01-18 14:15:40.72	334.63	3.21	-83.5	-79.0	2.5	0.00e+00	0	49	104	0	60	1048571
2026-01-18 14:15:41.72	334.50	3.15	-83.1	-79.0	2.5	0.00e+00	0	49	104	0	60	1048574
2026-01-18 14:15:42.73	334.36	3.10	-83.5	-79.0	2.4	0.00e+00	0	49	104	0	60	1048573
2026-01-18 14:15:43.74	334.23	3.05	-83.5	-79.0	2.4	0.00e+00	0	49	104	0	60	1048575
2026-01-18 14:15:44.75	334.10	2.99	-83.5	-79.0	2.5	0.00e+00	0	49	104	0	60	1048574
2026-01-18 14:15:45.76	333.96	2.94	-83.1	-79.0	2.4	0.00e+00	0	49	104	0	60	1048575
2026-01-18 14:15:46.76	333.83	2.89	-83.1	-79.0	2.5	0.00e+00	0	49	104	0	60	1048575
2026-01-18 14:15:47.77	333.70	2.83	-83.5	-79.0	2.4	0.00e+00	0	49	104	0	60	1048575
2026-01-18 14:15:48.77	333.58	2.78	-83.1	-79.0	2.5	0.00e+00	0	49	104	0	60	1048573
2026-01-18 14:15:49.78	333.45	2.73	-83.5	-79.0	2.4	0.00e+00	0	49	104	0	60	1048575
2026-01-18 14:15:50.78	333.32	2.68	-83.1	-79.0	2.6	0.00e+00	0	49	104	0	60	1048571
2026-01-18 14:15:51.79	333.19	2.62	-83.5	-79.0	2.4	0.00e+00	0	49	104	0	60	1048574
2026-01-18 14:15:52.80	333.06	2.57	-83.5	-79.0	2.4	0.00e+00	0	49	104	0	60	1048572
2026-01-18 14:15:53.80	332.94	2.52	-83.5	-79.0	2.4	0.00e+00	0	49	104	0	60	1048575
2026-01-18 14:15:54.81	332.81	2.46	-83.1	-79.0	2.4	0.00e+00	0	49	104	0	60	1048572
2026-01-18 14:15:55.82	332.68	2.41	-82.8	-79.0	2.6	0.00e+00	0	49	104	0	60	1048575
2026-01-18 14:15:56.82	332.56	2.36	-83.5	-79.0	2.3	0.00e+00	0	49	104	0	60	1048570
2026-01-18 14:15:57.83	332.44	2.30	-83.5	-79.0	2.5	0.00e+00	0	49	104	0	60	1048572
2026-01-18 14:15:58.84	332.31	2.25	-83.5	-79.0	2.5	0.00e+00	0	49	104	0	60	1048574
2026-01-18 14:15:59.85	332.19	2.20	-83.1	-79.0	2.7	0.00e+00	0	49	104	0	60	1048575
2026-01-18 14:16:00.86	332.07	2.15	-83.1	-79.0	2.4	0.00e+00	0	49	104	0	60	1048575
2026-01-18 14:16:01.87	331.94	2.09	-83.5	-79.0	2.4	0.00e+00	0	49	104	0	60	1048574
2026-01-18 14:16:02.87	331.82	2.04	-83.5	-79.0	2.4	0.00e+00	0	49	104	0	60	1048568
2026-01-18 14:16:03.88	331.70	1.99	-83.5	-79.0	2.5	0.00e+00	0	49	104	0	60	1048574
2026-01-18 14:16:04.89	331.58	1.93	-83.5	-79.0	2.5	0.00e+00	0	49	104	0	60	1048575
2026-01-18 14:16:05.89	331.46	1.88	-83.1	-79.0	2.4	0.00e+00	0	49	104	0	60	1048571
2026-01-18 14:16:06.90	331.34	1.83	-83.5	-79.0	2.5	0.00e+00	0	49	104	0	60	1048575
2026-01-18 14:16:07.91	331.22	1.78	-83.5	-79.0	2.4	0.00e+00	0	49	104	0	60	1048573
2026-01-18 14:16:08.92	331.11	1.72	-83.1	-79.0	2.3	0.00e+00	0	49	104	0	60	1048572
2026-01-18 14:16:09.93	330.99	1.67	-82.8	-79.0	2.4	0.00e+00	0	49	104	0	60	1048573
2026-01-18 14:16:10.93	330.87	1.62	-83.1	-79.0	2.5	0.00e+00	0	49	104	0	60	1048575
2026-01-18 14:16:11.94	330.75	1.57	-83.5	-79.0	2.4	0.00e+00	0	49	104	0	60	1048575
2026-01-18 14:16:12.95	330.64	1.51	-83.5	-79.0	2.6	0.00e+00	0	49	104	0	60	1048575
2026-01-18 14:16:13.96	330.52	1.46	-83.5	-79.0	2.6	0.00e+00	0	49	104	0	60	1048572
2026-01-18 14:16:14.96	330.41	1.41	-83.1	-79.0	2.5	0.00e+00	0	49	104	0	60	1048575
2026-01-18 14:16:15.97	330.29	1.36	-83.5	-79.0	2.4	0.00e+00	0	49	104	0	60	1048575
2026-01-18 14:16:16.98	330.18	1.30	-83.5	-79.0	2.5	0.00e+00	0	49	104	0	60	1048571
2026-01-18 14:16:17.99	330.07	1.25	-83.5	-79.0	2.5	0.00e+00	0	49	104	0	60	1048571
2026-01-18 14:16:18.99	329.95	1.20	-83.1	-79.0	2.4	0.00e+00	0	49	104	0	60	1048574
2026-01-18 14:16:20.00	329.84	1.15	-83.1	-79.0	2.4	0.00e+00	0	49	104	0	60	1048574
2026-01-18 14:16:21.00	329.73	1.10	-83.5	-79.0	2.4	0.00e+00	0	49	104	0	60	1048575
2026-01-18 14:16:22.01	329.62	1.04	-83.1	-79.0	2.8	0.00e+00	0	49	104	0	60	1048573
2026-01-18 14:16:23.02	329.51	0.99	-83.5	-79.0	2.4	0.00e+00	0	49	104	0	60	1048573
2026-01-18 14:16:24.02	329.40	0.94	-83.1	-79.0	2.4	0.00e+00	0	49	104	0	60	1048574
2026-01-18 14:16:25.02	329.29	0.89	-83.5	-79.0	2.4	0.00e+00	0	49	104	0	60	1048574
2026-01-18 14:16:26.03	329.18	0.84	-83.5	-79.0	2.5	0.00e+00	0	49	104	0	60	1048567
2026-01-18 14:16:27.03	329.07	0.78	-83.5	-79.0	2.4	0.00e+00	0	49	104	0	60	1048574
2026-01-18 14:16:28.04	328.97	0.73	-83.5	-79.0	2.4	0.00e+00	0	49	104	0	60	1048572
2026-01-18 14:16:29.04	328.86	0.68	-82.8	-79.0	2.6	0.00e+00	0	49	104	0	60	1048573
2026-01-18 14:16:30.05	328.75	0.63	-83.5	-79.0	2.3	0.00e+00	0	49	104	0	60	1048573
2026-01-18 14:16:31.06	328.64	0.58	-83.5	-79.0	2.6	0.00e+00	0	49	104	0	60	1048575
2026-01-18 14:16:32.06	328.54	0.53	-83.5	-79.0	2.6	0.00e+00	0	49	104	0	60	1048570
2026-01-18 14:16:33.07	328.43	0.47	-83.5	-79.0	2.4	0.00e+00	0	49	104	0	60	1048571
2026-01-18 14:16:34.08	328.33	0.42	-83.1	-79.0	2.2	0.00e+00	0	49	104	0	60	1048575
2026-01-18 14:16:35.09	328.22	0.37	-83.1	-79.0	2.3	0.00e+00	0	49	104	0	60	1048574
2026-01-18 14:16:36.09	328.12	0.32	-83.5	-79.0	2.4	0.00e+00	0	49	104	0	60	1048574
2026-01-18 14:16:37.10	328.01	0.27	-83.5	-79.0	2.3	0.00e+00	0	49	104	0	60	1048574
2026-01-18 14:16:38.10	327.91	0.22	-83.1	-79.0	2.5	0.00e+00	0	49	104	0	60	1048570
2026-01-18 14:16:39.11	327.81	0.17	-82.8	-79.0	2.3	0.00e+00	0	49	104	0	60	1048575
2026-01-18 14:16:40.12	327.71	0.11	-83.5	-79.0	2.4	0.00e+00	0	49	104	0	60	1048573
2026-01-18 14:16:41.12	327.61	0.06	-83.5	-79.0	2.4	0.00e+00	0	49	104	0	60	1048574
2026-01-18 14:16:42.13	327.50	0.01	-83.5	-79.0	2.4	0.00e+00	0	49	104	0	60	1048573
2026-01-18 14:16:43.14	327.40	-0.04	-82.8	-79.0	2.5	0.00e+00	0	49	104	0	60	1048574

#Closed at: 2026-01-18 14:16:43
#Recorded file [0 MB]: D:/Data/35015_260118_170730.dat