passes_logs/2026/01/18/R3.2S-Naryan-Mar/R3.2S-Naryan-Mar__20260118_110210_TY-41_rec.log

#Pass ID: 20260118_110210_TY-41
#Satellite: TY-41
#Configuration: TY-39
#almurnet v.1.7.20240730
#Start time: 2026-01-18 11:02:14

#Version: 2.2.20231116
#Station: R3.2S-Naryan-Mar
#Location: 53.008057 lon 67.646978 lat
#TLE: 1 61231U 24173E   26017.70896991  .00008013  00000-0  38191-3 0 09992
#TLE: 2 61231 097.4119 092.6921 0001804 091.8360 205.6844 15.19179825 72900

#Time	Az	El	Level	Level2	SNR	BER	BlckErr	Temp	State	Recorded	gain1	gain2
2026-01-18 11:02:14.65	29.40	0.20	-84.3	-88.8	2.1	3.12e+01	0	45	0	0	60	1048574
2026-01-18 11:02:15.65	29.30	0.25	-83.1	-79.0	2.2	0.00e+00	0	46	104	0	60	1048572
2026-01-18 11:02:16.66	29.21	0.31	-82.8	-79.0	2.4	0.00e+00	0	46	104	0	60	1048566
2026-01-18 11:02:17.67	29.11	0.36	-83.5	-79.0	2.4	0.00e+00	0	46	104	0	60	1048570
2026-01-18 11:02:18.68	29.01	0.41	-83.5	-79.0	2.6	0.00e+00	0	46	104	0	60	1048574
2026-01-18 11:02:19.68	28.91	0.47	-83.5	-79.0	2.6	0.00e+00	0	46	104	0	60	1048573
2026-01-18 11:02:20.68	28.81	0.52	-83.1	-79.0	2.4	0.00e+00	0	46	104	0	60	1048574
2026-01-18 11:02:21.69	28.71	0.57	-82.8	-79.0	2.4	0.00e+00	0	46	104	0	60	1048572
2026-01-18 11:02:22.70	28.61	0.63	-83.5	-79.0	2.5	0.00e+00	0	46	104	0	60	1048570
2026-01-18 11:02:23.71	28.51	0.68	-83.5	-79.0	2.3	0.00e+00	0	47	104	0	60	1048575
2026-01-18 11:02:24.72	28.41	0.74	-83.5	-79.0	2.5	0.00e+00	0	47	104	0	60	1048563
2026-01-18 11:02:25.73	28.31	0.79	-83.1	-79.0	2.4	0.00e+00	0	47	104	0	60	1048573
2026-01-18 11:02:26.73	28.21	0.84	-83.1	-79.0	2.5	0.00e+00	0	47	104	0	60	1048573
2026-01-18 11:02:27.74	28.11	0.90	-83.1	-79.0	2.2	0.00e+00	0	47	104	0	60	1048573
2026-01-18 11:02:28.75	28.00	0.95	-83.5	-79.0	2.4	0.00e+00	0	46	104	0	60	1048575
2026-01-18 11:02:29.76	27.90	1.01	-83.5	-79.0	2.2	0.00e+00	0	47	104	0	60	1048566
2026-01-18 11:02:30.76	27.80	1.06	-83.1	-79.0	2.4	0.00e+00	0	47	104	0	60	1048573
2026-01-18 11:02:31.77	27.69	1.11	-83.1	-79.0	2.3	0.00e+00	0	47	104	0	60	1048573
2026-01-18 11:02:32.78	27.59	1.17	-83.5	-79.0	2.5	0.00e+00	0	47	104	0	60	1048573
2026-01-18 11:02:33.78	27.48	1.22	-83.5	-79.0	2.5	0.00e+00	0	47	104	0	60	1048575
2026-01-18 11:02:34.78	27.38	1.28	-82.8	-79.0	2.4	0.00e+00	0	47	104	0	60	1048571
2026-01-18 11:02:35.79	27.27	1.33	-82.8	-79.0	2.3	0.00e+00	0	47	104	0	60	1048563
2026-01-18 11:02:36.80	27.16	1.39	-83.1	-79.0	2.4	0.00e+00	0	47	104	0	60	1048575
2026-01-18 11:02:37.80	27.06	1.44	-83.5	-79.0	2.1	0.00e+00	0	47	104	0	60	1048575
2026-01-18 11:02:38.81	26.95	1.49	-83.5	-79.0	2.5	0.00e+00	0	47	104	0	60	1048575
2026-01-18 11:02:39.82	26.84	1.55	-83.5	-79.0	2.2	0.00e+00	0	47	104	0	60	1048575
2026-01-18 11:02:40.83	26.73	1.60	-82.8	-79.0	2.4	0.00e+00	0	47	104	0	60	1048570
2026-01-18 11:02:41.84	26.62	1.66	-83.5	-79.0	2.5	0.00e+00	0	47	104	0	60	1048572
2026-01-18 11:02:42.85	26.51	1.71	-83.5	-79.0	2.6	0.00e+00	0	47	104	0	60	1048575
2026-01-18 11:02:43.85	26.40	1.77	-83.5	-79.0	2.5	0.00e+00	0	47	104	0	60	1048574
2026-01-18 11:02:44.86	26.29	1.82	-83.1	-79.0	2.5	0.00e+00	0	47	104	0	60	1048573
2026-01-18 11:02:45.87	26.18	1.88	-83.5	-79.0	2.3	0.00e+00	0	47	104	0	60	1048568
2026-01-18 11:02:46.88	26.06	1.93	-83.5	-79.0	2.5	0.00e+00	0	47	104	0	60	1048573
2026-01-18 11:02:47.89	25.95	1.99	-83.1	-79.0	2.4	0.00e+00	0	47	104	0	60	1048575
2026-01-18 11:02:48.89	25.84	2.04	-83.5	-79.0	2.4	0.00e+00	0	47	104	0	60	1048574
2026-01-18 11:02:49.90	25.72	2.10	-82.8	-79.0	2.2	0.00e+00	0	47	104	0	60	1048574
2026-01-18 11:02:50.91	25.61	2.15	-83.5	-79.0	2.4	0.00e+00	0	47	104	0	60	1048575
2026-01-18 11:02:51.92	25.49	2.21	-83.5	-79.0	2.1	0.00e+00	0	47	104	0	60	1048574
2026-01-18 11:02:52.93	25.38	2.26	-83.5	-79.0	2.5	0.00e+00	0	47	104	0	60	1048566
2026-01-18 11:02:53.93	25.26	2.32	-83.1	-79.0	2.5	0.00e+00	0	47	104	0	60	1048574
2026-01-18 11:02:54.94	25.14	2.37	-82.8	-79.0	2.4	0.00e+00	0	47	104	0	60	1048573
2026-01-18 11:02:55.95	25.03	2.43	-83.5	-79.0	2.5	0.00e+00	0	47	104	0	60	1048575
2026-01-18 11:02:56.95	24.91	2.49	-83.5	-79.0	2.5	0.00e+00	0	47	104	0	60	1048571
2026-01-18 11:02:57.95	24.79	2.54	-83.5	-79.0	2.5	0.00e+00	0	47	104	0	60	1048575
2026-01-18 11:02:58.95	24.67	2.60	-83.1	-79.0	2.4	0.00e+00	0	47	104	0	60	1048568
2026-01-18 11:02:59.96	24.55	2.65	-83.1	-79.0	2.2	0.00e+00	0	47	104	0	60	1048574
2026-01-18 11:03:00.97	24.43	2.71	-83.1	-79.0	2.4	0.00e+00	0	47	104	0	60	1048575
2026-01-18 11:03:01.98	24.31	2.76	-83.1	-79.0	2.2	0.00e+00	0	47	104	0	60	1048573
2026-01-18 11:03:02.98	24.19	2.82	-83.5	-79.0	2.4	0.00e+00	0	47	104	0	60	1048566
2026-01-18 11:03:03.99	24.07	2.87	-83.1	-79.0	2.1	0.00e+00	0	47	104	0	60	1048574
2026-01-18 11:03:04.98	23.95	2.93	-83.5	-79.0	2.5	0.00e+00	0	47	104	0	60	1048571
2026-01-18 11:03:05.99	23.82	2.99	-83.5	-79.0	2.5	0.00e+00	0	47	104	0	60	1048570
2026-01-18 11:03:06.99	23.70	3.04	-83.5	-79.0	2.5	0.00e+00	0	47	104	0	60	1048573
2026-01-18 11:03:08.00	23.58	3.10	-83.1	-79.0	2.5	0.00e+00	0	47	104	0	60	1048575
2026-01-18 11:03:09.01	23.45	3.15	-82.8	-79.0	2.5	0.00e+00	0	47	104	0	60	1048574
2026-01-18 11:03:10.02	23.32	3.21	-83.1	-79.0	2.5	0.00e+00	0	47	104	0	60	1048571
2026-01-18 11:03:11.03	23.20	3.27	-83.5	-79.0	2.5	0.00e+00	0	47	104	0	60	1048570
2026-01-18 11:03:12.03	23.07	3.32	-83.5	-79.0	2.5	0.00e+00	0	47	104	0	60	1048572
2026-01-18 11:03:13.04	22.94	3.38	-83.1	-79.0	2.4	0.00e+00	0	47	104	0	60	1048572
2026-01-18 11:03:14.05	22.82	3.43	-82.8	-79.0	2.4	0.00e+00	0	47	104	0	60	1048572
2026-01-18 11:03:15.05	22.69	3.49	-83.5	-79.0	2.3	0.00e+00	0	47	104	0	60	1048575
2026-01-18 11:03:16.06	22.56	3.55	-83.5	-79.0	2.4	0.00e+00	0	48	104	0	60	1048567
2026-01-18 11:03:17.07	22.43	3.60	-83.5	-79.0	2.5	0.00e+00	0	48	104	0	60	1048575
2026-01-18 11:03:18.07	22.30	3.66	-83.1	-79.0	2.4	0.00e+00	0	48	104	0	60	1048569
2026-01-18 11:03:19.08	22.16	3.72	-83.1	-79.0	2.6	0.00e+00	0	48	104	0	60	1048574
2026-01-18 11:03:20.08	22.03	3.77	-83.5	-79.0	2.6	0.00e+00	0	48	104	0	60	1048573
2026-01-18 11:03:21.09	21.90	3.83	-83.1	-79.0	2.6	0.00e+00	0	48	104	0	60	1048575
2026-01-18 11:03:22.10	21.77	3.89	-83.5	-79.0	2.5	0.00e+00	0	48	104	0	60	1048570
2026-01-18 11:03:23.11	21.63	3.94	-83.1	-79.0	2.6	0.00e+00	0	48	104	0	60	1048574
2026-01-18 11:03:24.11	21.50	4.00	-83.5	-79.0	2.4	0.00e+00	0	48	104	0	60	1048573
2026-01-18 11:03:25.11	21.36	4.05	-83.5	-79.0	2.6	0.00e+00	0	48	104	0	60	1048573
2026-01-18 11:03:26.12	21.23	4.11	-83.5	-79.0	2.4	0.00e+00	0	48	104	0	60	1048574
2026-01-18 11:03:27.12	21.09	4.17	-83.5	-79.0	2.1	0.00e+00	0	48	104	0	60	1048574
2026-01-18 11:03:28.13	20.95	4.22	-83.1	-79.0	2.4	0.00e+00	0	48	104	0	60	1048573
2026-01-18 11:03:29.14	20.81	4.28	-83.5	-79.0	2.3	0.00e+00	0	48	104	0	60	1048568
2026-01-18 11:03:30.14	20.68	4.34	-83.5	-79.0	2.3	0.00e+00	0	48	104	0	60	1048573
2026-01-18 11:03:31.15	20.54	4.39	-83.5	-79.0	2.1	0.00e+00	0	48	104	0	60	1048572
2026-01-18 11:03:32.15	20.40	4.45	-83.1	-79.0	2.5	0.00e+00	0	48	104	0	60	1048567
2026-01-18 11:03:33.16	20.25	4.51	-83.1	-79.0	2.5	0.00e+00	0	48	104	0	60	1048575
2026-01-18 11:03:34.17	20.11	4.57	-83.1	-79.0	2.4	0.00e+00	0	48	104	0	60	1048571
2026-01-18 11:03:35.17	19.97	4.62	-83.5	-79.0	2.4	0.00e+00	0	48	104	0	60	1048575
2026-01-18 11:03:36.18	19.83	4.68	-83.5	-79.0	2.3	0.00e+00	0	48	104	0	60	1048565
2026-01-18 11:03:37.19	19.68	4.74	-83.1	-79.0	2.2	0.00e+00	0	48	104	0	60	1048574
2026-01-18 11:03:38.20	19.54	4.79	-83.1	-79.0	2.5	0.00e+00	0	48	104	0	60	1048571
2026-01-18 11:03:39.21	19.39	4.85	-83.5	-79.0	2.0	0.00e+00	0	48	104	0	60	1048574
2026-01-18 11:03:40.21	19.25	4.91	-83.5	-79.0	2.4	0.00e+00	0	48	104	0	60	1048567
2026-01-18 11:03:41.22	19.10	4.96	-83.1	-79.0	2.1	0.00e+00	0	48	104	0	60	1048570
2026-01-18 11:03:42.23	18.95	5.02	-82.8	-79.0	2.4	0.00e+00	0	48	104	0	60	1048567
2026-01-18 11:03:43.24	18.80	5.08	-83.5	-79.0	2.6	0.00e+00	0	48	104	0	60	1048575
2026-01-18 11:03:44.25	18.65	5.14	-83.5	-79.0	2.5	0.00e+00	0	48	104	0	60	1048575
2026-01-18 11:03:45.25	18.50	5.19	-83.5	-79.0	2.4	0.00e+00	0	48	104	0	60	1048570
2026-01-18 11:03:46.26	18.35	5.25	-83.5	-79.0	2.6	0.00e+00	0	48	104	0	60	1048574
2026-01-18 11:03:47.27	18.20	5.31	-83.1	-79.0	2.3	0.00e+00	0	48	104	0	60	1048575
2026-01-18 11:03:48.28	18.05	5.36	-83.5	-79.0	2.6	0.00e+00	0	48	104	0	60	1048574
2026-01-18 11:03:49.28	17.90	5.42	-83.5	-79.0	2.3	0.00e+00	0	48	104	0	60	1048573
2026-01-18 11:03:50.29	17.74	5.48	-83.5	-79.0	2.6	0.00e+00	0	48	104	0	60	1048566
2026-01-18 11:03:51.30	17.59	5.53	-83.1	-79.0	2.2	0.00e+00	0	48	104	0	60	1048570
2026-01-18 11:03:52.31	17.43	5.59	-83.1	-79.0	2.4	0.00e+00	0	48	104	0	60	1048575
2026-01-18 11:03:53.32	17.28	5.65	-83.5	-79.0	2.1	0.00e+00	0	48	104	0	60	1048575
2026-01-18 11:03:54.32	17.12	5.71	-83.5	-79.0	2.6	0.00e+00	0	48	104	0	60	1048573
2026-01-18 11:03:55.32	16.96	5.76	-83.5	-79.0	2.4	0.00e+00	0	48	104	0	60	1048575
2026-01-18 11:03:56.33	16.81	5.82	-83.1	-79.0	2.5	0.00e+00	0	48	104	0	60	1048573
2026-01-18 11:03:57.34	16.65	5.88	-83.5	-79.0	2.5	0.00e+00	0	48	104	0	60	1048569
2026-01-18 11:03:58.35	16.48	5.93	-83.5	-79.0	2.4	0.00e+00	0	48	104	0	60	1048573
2026-01-18 11:03:59.36	16.32	5.99	-83.5	-79.0	2.6	0.00e+00	0	48	104	0	60	1048568
2026-01-18 11:04:00.37	16.16	6.05	-83.5	-79.0	2.4	0.00e+00	0	48	104	0	60	1048567
2026-01-18 11:04:01.37	16.00	6.10	-83.1	-79.0	2.2	0.00e+00	0	48	104	0	60	1048574
2026-01-18 11:04:02.38	15.84	6.16	-83.5	-79.0	2.6	0.00e+00	0	48	104	0	60	1048575
2026-01-18 11:04:03.39	15.67	6.22	-83.5	-79.0	2.0	0.00e+00	0	48	104	0	60	1048567
2026-01-18 11:04:04.39	15.51	6.28	-83.5	-79.0	2.5	0.00e+00	0	48	104	0	60	1048572
2026-01-18 11:04:05.40	15.34	6.33	-83.1	-79.0	2.5	0.00e+00	0	48	104	0	60	1048574
2026-01-18 11:04:06.41	15.18	6.39	-83.1	-79.0	2.5	0.00e+00	0	48	104	0	60	1048574
2026-01-18 11:04:07.42	15.01	6.45	-83.1	-79.0	2.5	0.00e+00	0	48	104	0	60	1048568
2026-01-18 11:04:08.43	14.84	6.50	-83.1	-79.0	2.7	0.00e+00	0	48	104	0	60	1048573
2026-01-18 11:04:09.44	14.67	6.56	-83.5	-79.0	2.5	0.00e+00	0	48	104	0	60	1048575
2026-01-18 11:04:10.44	14.50	6.62	-83.1	-79.0	2.5	0.00e+00	0	48	104	0	60	1048574
2026-01-18 11:04:11.45	14.33	6.67	-83.1	-79.0	2.5	0.00e+00	0	48	104	0	60	1048575
2026-01-18 11:04:12.46	14.16	6.73	-83.5	-79.0	2.5	0.00e+00	0	48	104	0	60	1048574
2026-01-18 11:04:13.47	13.98	6.79	-83.5	-79.0	2.1	0.00e+00	0	48	104	0	60	1048572
2026-01-18 11:04:14.47	13.81	6.84	-83.5	-79.0	2.4	0.00e+00	0	48	104	0	60	1048572
2026-01-18 11:04:15.48	13.64	6.90	-83.1	-79.0	2.1	0.00e+00	0	48	104	0	60	1048568
2026-01-18 11:04:16.48	13.46	6.96	-83.5	-79.0	2.6	0.00e+00	0	48	104	0	60	1048573
2026-01-18 11:04:17.49	13.29	7.01	-83.5	-79.0	2.5	0.00e+00	0	48	104	0	60	1048575
2026-01-18 11:04:18.50	13.11	7.07	-83.5	-79.0	2.6	0.00e+00	0	48	104	0	60	1048573
2026-01-18 11:04:19.50	12.93	7.13	-83.5	-79.0	2.4	0.00e+00	0	48	104	0	60	1048575
2026-01-18 11:04:20.51	12.76	7.18	-83.1	-79.0	2.6	0.00e+00	0	48	104	0	60	1048562
2026-01-18 11:04:21.52	12.58	7.24	-83.5	-79.0	2.4	0.00e+00	0	48	104	0	60	1048574
2026-01-18 11:04:22.53	12.40	7.29	-83.5	-79.0	2.3	0.00e+00	0	48	104	0	60	1048574
2026-01-18 11:04:23.53	12.22	7.35	-83.5	-79.0	2.4	0.00e+00	0	48	104	0	60	1048573
2026-01-18 11:04:24.54	12.03	7.41	-83.1	-79.0	2.5	0.00e+00	0	48	104	0	60	1048572
2026-01-18 11:04:25.55	11.85	7.46	-83.1	-79.0	2.5	0.00e+00	0	48	104	0	60	1048575
2026-01-18 11:04:26.55	11.67	7.52	-83.5	-79.0	2.3	0.00e+00	0	48	104	0	60	1048574
2026-01-18 11:04:27.56	11.48	7.57	-83.5	-79.0	2.4	0.00e+00	0	48	104	0	60	1048574
2026-01-18 11:04:28.57	11.30	7.63	-83.5	-79.0	2.5	0.00e+00	0	49	104	0	60	1048566
2026-01-18 11:04:29.57	11.11	7.69	-82.8	-79.0	2.5	0.00e+00	0	49	104	0	60	1048569
2026-01-18 11:04:30.57	10.92	7.74	-83.1	-79.0	2.5	0.00e+00	0	48	104	0	60	1048573
2026-01-18 11:04:31.58	10.74	7.80	-83.5	-79.0	2.5	0.00e+00	0	48	104	0	60	1048574
2026-01-18 11:04:32.59	10.55	7.85	-83.5	-79.0	2.5	0.00e+00	0	48	104	0	60	1048570
2026-01-18 11:04:33.60	10.36	7.91	-83.5	-79.0	2.4	0.00e+00	0	48	104	0	60	1048575
2026-01-18 11:04:34.61	10.16	7.96	-83.1	-79.0	2.4	0.00e+00	0	48	104	0	60	1048573
2026-01-18 11:04:35.61	9.97	8.02	-83.5	-79.0	2.4	0.00e+00	0	48	104	0	60	1048574
2026-01-18 11:04:36.62	9.78	8.07	-83.5	-79.0	2.5	0.00e+00	0	48	104	0	60	1048575
2026-01-18 11:04:37.63	9.59	8.13	-83.5	-79.0	2.5	0.00e+00	0	48	104	0	60	1048575
2026-01-18 11:04:38.64	9.39	8.18	-83.5	-79.0	2.4	0.00e+00	0	48	104	0	60	1048575
2026-01-18 11:04:39.65	9.20	8.24	-83.1	-79.0	2.4	0.00e+00	0	48	104	0	60	1048573
2026-01-18 11:04:40.65	9.00	8.29	-83.1	-79.0	2.3	0.00e+00	0	48	104	0	60	1048575
2026-01-18 11:04:41.66	8.80	8.35	-83.5	-79.0	2.4	0.00e+00	0	48	104	0	60	1048575
2026-01-18 11:04:42.67	8.60	8.40	-83.5	-79.0	2.6	0.00e+00	0	48	104	0	60	1048570
2026-01-18 11:04:43.67	8.41	8.46	-83.1	-79.0	2.4	0.00e+00	0	48	104	0	60	1048570
2026-01-18 11:04:44.67	8.21	8.51	-83.5	-79.0	2.3	0.00e+00	0	48	104	0	60	1048568
2026-01-18 11:04:45.68	8.01	8.56	-83.5	-79.0	2.4	0.00e+00	0	48	104	0	60	1048572
2026-01-18 11:04:46.68	7.80	8.62	-83.5	-79.0	2.3	0.00e+00	0	48	104	0	60	1048571
2026-01-18 11:04:47.68	7.60	8.67	-83.1	-79.0	2.5	0.00e+00	0	48	104	0	60	1048571
2026-01-18 11:04:48.69	7.40	8.72	-82.8	-79.0	2.4	0.00e+00	0	48	104	0	60	1048573
2026-01-18 11:04:49.69	7.20	8.78	-83.1	-79.0	2.4	0.00e+00	0	48	104	0	60	1048575
2026-01-18 11:04:50.70	6.99	8.83	-83.5	-79.0	2.3	0.00e+00	0	49	104	0	60	1048571
2026-01-18 11:04:51.71	6.78	8.88	-83.5	-79.0	2.4	0.00e+00	0	48	104	0	60	1048575
2026-01-18 11:04:52.72	6.57	8.94	-83.5	-79.0	2.0	0.00e+00	0	48	104	0	60	1048575
2026-01-18 11:04:53.73	6.36	8.99	-83.1	-79.0	2.5	0.00e+00	0	48	104	0	60	1048574
2026-01-18 11:04:54.73	6.16	9.04	-83.5	-79.0	2.5	0.00e+00	0	48	104	0	60	1048571
2026-01-18 11:04:55.74	5.94	9.10	-83.5	-79.0	2.5	0.00e+00	0	48	104	0	60	1048575
2026-01-18 11:04:56.75	5.73	9.15	-83.5	-79.0	2.4	0.00e+00	0	48	104	0	60	1048573
2026-01-18 11:04:57.76	5.52	9.20	-83.5	-79.0	2.5	0.00e+00	0	49	104	0	60	1048564
2026-01-18 11:04:58.76	5.31	9.25	-83.1	-79.0	2.5	0.00e+00	0	48	104	0	60	1048572
2026-01-18 11:04:59.77	5.09	9.30	-83.1	-79.0	2.3	0.00e+00	0	48	104	0	60	1048574
2026-01-18 11:05:00.77	4.88	9.36	-83.5	-79.0	2.2	0.00e+00	0	48	104	0	60	1048573
2026-01-18 11:05:01.78	4.66	9.41	-83.1	-79.0	2.3	0.00e+00	0	48	104	0	60	1048571
2026-01-18 11:05:02.78	4.45	9.46	-82.8	-79.0	2.1	0.00e+00	0	48	104	0	60	1048573
2026-01-18 11:05:03.79	4.23	9.51	-83.5	-79.0	2.3	0.00e+00	0	48	104	0	60	1048570
2026-01-18 11:05:04.79	4.01	9.56	-83.5	-79.0	2.3	0.00e+00	0	48	104	0	60	1048574
2026-01-18 11:05:05.80	3.79	9.61	-83.5	-79.0	2.4	0.00e+00	0	48	104	0	60	1048574
2026-01-18 11:05:06.81	3.57	9.66	-83.5	-79.0	2.4	0.00e+00	0	48	104	0	60	1048575
2026-01-18 11:05:07.81	3.35	9.71	-83.1	-79.0	2.5	0.00e+00	0	48	104	0	60	1048572
2026-01-18 11:05:08.82	3.13	9.76	-83.1	-79.0	2.4	0.00e+00	0	48	104	0	60	1048571
2026-01-18 11:05:09.83	2.90	9.81	-83.5	-79.0	2.5	0.00e+00	0	48	104	0	60	1048571
2026-01-18 11:05:10.84	2.68	9.86	-83.5	-79.0	2.5	0.00e+00	0	48	104	0	60	1048572
2026-01-18 11:05:11.85	2.45	9.91	-83.1	-79.0	2.5	0.00e+00	0	49	104	0	60	1048574
2026-01-18 11:05:12.86	2.22	9.96	-82.8	-79.0	2.4	0.00e+00	0	49	104	0	60	1048568
2026-01-18 11:05:13.86	2.00	10.01	-83.5	-79.0	2.3	0.00e+00	0	48	104	0	60	1048574
2026-01-18 11:05:14.87	1.77	10.06	-83.5	-79.0	2.2	0.00e+00	0	48	104	0	60	1048573
2026-01-18 11:05:15.87	1.54	10.10	-83.5	-79.0	2.5	0.00e+00	0	48	104	0	60	1048573
2026-01-18 11:05:16.88	1.31	10.15	-83.1	-79.0	2.6	0.00e+00	0	48	104	0	60	1048572
2026-01-18 11:05:17.88	1.08	10.20	-83.1	-79.0	2.5	0.00e+00	0	48	104	0	60	1048575
2026-01-18 11:05:18.89	0.85	10.25	-83.5	-79.0	2.5	0.00e+00	0	49	104	0	60	1048572
2026-01-18 11:05:19.89	0.61	10.29	-83.5	-79.0	2.6	0.00e+00	0	49	104	0	60	1048575
2026-01-18 11:05:20.90	0.38	10.34	-83.1	-79.0	2.4	0.00e+00	0	49	104	0	60	1048575
2026-01-18 11:05:21.91	0.14	10.39	-82.8	-79.0	2.4	0.00e+00	0	48	104	0	60	1048571
2026-01-18 11:05:22.92	359.91	10.44	-83.1	-79.0	2.4	0.00e+00	0	48	104	0	60	1048575
2026-01-18 11:05:23.93	359.67	10.48	-83.1	-79.0	2.5	0.00e+00	0	49	104	0	60	1048573
2026-01-18 11:05:24.93	359.43	10.53	-83.5	-79.0	2.4	0.00e+00	0	49	104	0	60	1048575
2026-01-18 11:05:25.94	359.19	10.57	-83.5	-79.0	2.4	0.00e+00	0	49	104	0	60	1048575
2026-01-18 11:05:26.95	358.95	10.62	-82.8	-79.0	2.5	0.00e+00	0	48	104	0	60	1048574
2026-01-18 11:05:27.95	358.71	10.66	-83.1	-79.0	2.4	0.00e+00	0	48	104	0	60	1048572
2026-01-18 11:05:28.96	358.47	10.71	-83.5	-79.0	2.6	0.00e+00	0	48	104	0	60	1048565
2026-01-18 11:05:29.97	358.23	10.75	-83.5	-79.0	2.5	0.00e+00	0	48	104	0	60	1048574
2026-01-18 11:05:30.98	357.99	10.80	-83.5	-79.0	2.5	0.00e+00	0	48	104	0	60	1048573
2026-01-18 11:05:31.98	357.74	10.84	-83.1	-79.0	2.4	0.00e+00	0	48	104	0	60	1048575
2026-01-18 11:05:32.98	357.50	10.88	-83.5	-79.0	2.5	0.00e+00	0	49	104	0	60	1048575
2026-01-18 11:05:33.99	357.25	10.93	-83.5	-79.0	2.5	0.00e+00	0	49	104	0	60	1048575
2026-01-18 11:05:35.00	357.01	10.97	-83.5	-79.0	2.4	0.00e+00	0	49	104	0	60	1048575
2026-01-18 11:05:36.01	356.76	11.01	-83.1	-79.0	2.4	0.00e+00	0	49	104	0	60	1048571
2026-01-18 11:05:37.01	356.51	11.05	-83.5	-79.0	2.2	0.00e+00	0	49	104	0	60	1048572
2026-01-18 11:05:38.02	356.26	11.10	-83.5	-79.0	2.2	0.00e+00	0	49	104	0	60	1048575
2026-01-18 11:05:39.03	356.01	11.14	-83.5	-79.0	2.4	0.00e+00	0	48	104	0	60	1048575
2026-01-18 11:05:40.04	355.76	11.18	-83.5	-79.0	2.2	0.00e+00	0	49	104	0	60	1048574
2026-01-18 11:05:41.05	355.50	11.22	-83.1	-79.0	2.4	0.00e+00	0	49	104	0	60	1048570
2026-01-18 11:05:42.05	355.25	11.26	-83.5	-79.0	2.1	0.00e+00	0	48	104	0	60	1048575
2026-01-18 11:05:43.06	355.00	11.30	-83.5	-79.0	2.4	0.00e+00	0	48	104	0	60	1048573
2026-01-18 11:05:44.07	354.74	11.34	-83.5	-79.0	2.5	0.00e+00	0	49	104	0	60	1048574
2026-01-18 11:05:45.08	354.49	11.38	-83.1	-79.0	2.5	0.00e+00	0	49	104	0	60	1048575
2026-01-18 11:05:46.08	354.23	11.42	-83.1	-79.0	2.4	0.00e+00	0	49	104	0	60	1048573
2026-01-18 11:05:47.09	353.97	11.45	-83.1	-79.0	2.5	0.00e+00	0	49	104	0	60	1048575
2026-01-18 11:05:48.10	353.72	11.49	-83.5	-79.0	2.4	0.00e+00	0	48	104	0	60	1048574
2026-01-18 11:05:49.11	353.46	11.53	-83.5	-79.0	2.5	0.00e+00	0	48	104	0	60	1048571
2026-01-18 11:05:50.12	353.20	11.57	-83.5	-79.0	2.3	0.00e+00	0	49	104	0	60	1048573
2026-01-18 11:05:51.12	352.94	11.60	-83.1	-79.0	2.4	0.00e+00	0	48	104	0	60	1048575
2026-01-18 11:05:52.13	352.68	11.64	-83.1	-79.0	2.0	0.00e+00	0	49	104	0	60	1048575
2026-01-18 11:05:53.14	352.41	11.68	-83.5	-79.0	2.7	0.00e+00	0	49	104	0	60	1048572
2026-01-18 11:05:54.14	352.15	11.71	-83.5	-79.0	2.1	0.00e+00	0	49	104	0	60	1048575
2026-01-18 11:05:55.15	351.89	11.75	-82.8	-79.0	2.4	0.00e+00	0	48	104	0	60	1048575
2026-01-18 11:05:56.16	351.62	11.78	-83.5	-79.0	2.4	0.00e+00	0	49	104	0	60	1048574
2026-01-18 11:05:57.16	351.36	11.81	-83.5	-79.0	2.6	0.00e+00	0	49	104	0	60	1048574
2026-01-18 11:05:58.17	351.09	11.85	-83.5	-79.0	2.5	0.00e+00	0	49	104	0	60	1048573
2026-01-18 11:05:59.18	350.83	11.88	-83.5	-79.0	2.5	0.00e+00	0	49	104	0	60	1048575
2026-01-18 11:06:00.18	350.56	11.91	-83.1	-79.0	2.4	0.00e+00	0	49	104	0	60	1048574
2026-01-18 11:06:01.19	350.29	11.95	-83.1	-79.0	2.4	0.00e+00	0	49	104	0	60	1048575
2026-01-18 11:06:02.20	350.02	11.98	-83.5	-79.0	2.5	0.00e+00	0	49	104	0	60	1048575
2026-01-18 11:06:03.21	349.75	12.01	-83.5	-79.0	2.5	0.00e+00	0	49	104	0	60	1048574
2026-01-18 11:06:04.21	349.49	12.04	-83.5	-79.0	2.1	0.00e+00	0	49	104	0	60	1048571
2026-01-18 11:06:05.22	349.21	12.07	-83.1	-79.0	2.5	0.00e+00	0	49	104	0	60	1048575
2026-01-18 11:06:06.23	348.94	12.10	-83.5	-79.0	2.5	0.00e+00	0	49	104	0	60	1048565
2026-01-18 11:06:07.23	348.67	12.13	-83.5	-79.0	2.6	0.00e+00	0	49	104	0	60	1048575
2026-01-18 11:06:08.24	348.40	12.16	-83.1	-79.0	2.4	0.00e+00	0	49	104	0	60	1048573
2026-01-18 11:06:09.25	348.12	12.19	-82.8	-79.0	2.5	0.00e+00	0	49	104	0	60	1048575
2026-01-18 11:06:10.26	347.85	12.21	-83.1	-79.0	2.4	0.00e+00	0	49	104	0	60	1048573
2026-01-18 11:06:11.27	347.57	12.24	-83.5	-79.0	2.5	0.00e+00	0	49	104	0	60	1048574
2026-01-18 11:06:12.27	347.30	12.27	-83.5	-79.0	2.3	0.00e+00	0	49	104	0	60	1048573
2026-01-18 11:06:13.28	347.02	12.29	-83.5	-79.0	2.5	0.00e+00	0	49	104	0	60	1048572
2026-01-18 11:06:14.29	346.75	12.32	-83.1	-79.0	2.3	0.00e+00	0	49	104	0	60	1048575
2026-01-18 11:06:15.30	346.47	12.34	-83.5	-79.0	2.6	0.00e+00	0	49	104	0	60	1048570
2026-01-18 11:06:16.30	346.19	12.37	-83.5	-79.0	2.2	0.00e+00	0	49	104	0	60	1048568
2026-01-18 11:06:17.31	345.91	12.39	-83.5	-79.0	2.5	0.00e+00	0	49	104	0	60	1048575
2026-01-18 11:06:18.31	345.64	12.42	-83.1	-79.0	2.4	0.00e+00	0	49	104	0	60	1048569
2026-01-18 11:06:19.32	345.36	12.44	-83.1	-79.0	2.5	0.00e+00	0	49	104	0	60	1048570
2026-01-18 11:06:20.32	345.08	12.46	-83.1	-79.0	2.5	0.00e+00	0	49	104	0	60	1048572
2026-01-18 11:06:21.33	344.80	12.48	-83.1	-79.0	2.4	0.00e+00	0	49	104	0	60	1048575
2026-01-18 11:06:22.34	344.52	12.51	-83.5	-79.0	2.5	0.00e+00	0	49	104	0	60	1048575
2026-01-18 11:06:23.34	344.24	12.53	-83.1	-79.0	2.4	0.00e+00	0	49	104	0	60	1048575
2026-01-18 11:06:24.35	343.96	12.55	-83.1	-79.0	2.4	0.00e+00	0	49	104	0	60	1048567
2026-01-18 11:06:25.35	343.68	12.57	-83.1	-79.0	2.3	0.00e+00	0	49	104	0	60	1048575
2026-01-18 11:06:26.36	343.39	12.59	-83.5	-79.0	2.3	0.00e+00	0	49	104	0	60	1048569
2026-01-18 11:06:27.37	343.11	12.60	-83.1	-79.0	2.4	0.00e+00	0	49	104	0	60	1048574
2026-01-18 11:06:28.37	342.83	12.62	-82.8	-79.0	2.7	0.00e+00	0	49	104	0	60	1048574
2026-01-18 11:06:29.37	342.54	12.64	-83.1	-79.0	2.4	0.00e+00	0	49	104	0	60	1048575
2026-01-18 11:06:30.37	342.26	12.66	-83.5	-79.0	2.4	0.00e+00	0	49	104	0	60	1048573
2026-01-18 11:06:31.38	341.98	12.67	-83.5	-79.0	2.5	0.00e+00	0	49	104	0	60	1048573
2026-01-18 11:06:32.39	341.69	12.69	-83.5	-79.0	2.4	0.00e+00	0	49	104	0	60	1048575
2026-01-18 11:06:33.40	341.40	12.70	-83.1	-79.0	2.5	0.00e+00	0	49	104	0	60	1048575
2026-01-18 11:06:34.40	341.12	12.72	-83.1	-79.0	2.5	0.00e+00	0	49	104	0	60	1048574
2026-01-18 11:06:35.41	340.83	12.73	-83.5	-79.0	2.5	0.00e+00	0	49	104	0	60	1048575
2026-01-18 11:06:36.42	340.55	12.74	-83.5	-79.0	2.5	0.00e+00	0	49	104	0	60	1048574
2026-01-18 11:06:37.43	340.26	12.76	-83.5	-79.0	2.5	0.00e+00	0	49	104	0	60	1048571
2026-01-18 11:06:38.44	339.97	12.77	-83.1	-79.0	2.5	0.00e+00	0	49	104	0	60	1048574
2026-01-18 11:06:39.44	339.69	12.78	-83.5	-79.0	2.4	0.00e+00	0	49	104	0	60	1048573
2026-01-18 11:06:40.45	339.40	12.79	-83.5	-79.0	2.4	0.00e+00	0	49	104	0	60	1048574
2026-01-18 11:06:41.46	339.11	12.80	-83.1	-79.0	2.1	0.00e+00	0	49	104	0	60	1048574
2026-01-18 11:06:42.47	338.82	12.81	-82.8	-79.0	2.5	0.00e+00	0	49	104	0	60	1048573
2026-01-18 11:06:43.48	338.53	12.82	-83.5	-79.0	2.4	0.00e+00	0	49	104	0	60	1048575
2026-01-18 11:06:44.48	338.24	12.83	-83.5	-79.0	2.3	0.00e+00	0	49	104	0	60	1048567
2026-01-18 11:06:45.49	337.95	12.84	-83.5	-79.0	2.5	0.00e+00	0	49	104	0	60	1048574
2026-01-18 11:06:46.50	337.66	12.84	-83.5	-79.0	2.5	0.00e+00	0	49	104	0	60	1048571
2026-01-18 11:06:47.51	337.37	12.85	-83.1	-79.0	2.5	0.00e+00	0	49	104	0	60	1048570
2026-01-18 11:06:48.52	337.08	12.86	-83.1	-79.0	2.3	0.00e+00	0	49	104	0	60	1048574
2026-01-18 11:06:49.52	336.80	12.86	-83.5	-79.0	2.5	0.00e+00	0	49	104	0	60	1048575
2026-01-18 11:06:50.53	336.51	12.87	-83.5	-79.0	2.5	0.00e+00	0	49	104	0	60	1048574
2026-01-18 11:06:51.54	336.22	12.87	-83.5	-79.0	2.2	0.00e+00	0	49	104	0	60	1048574
2026-01-18 11:06:52.54	335.93	12.87	-82.8	-79.0	2.4	0.00e+00	0	49	104	0	60	1048573
2026-01-18 11:06:53.55	335.64	12.88	-83.5	-79.0	2.1	0.00e+00	0	49	104	0	60	1048570
2026-01-18 11:06:54.56	335.35	12.88	-83.1	-79.0	2.6	0.00e+00	0	49	104	0	60	1048575
2026-01-18 11:06:55.56	335.06	12.88	-83.5	-79.0	2.5	0.00e+00	0	49	104	0	60	1048574
2026-01-18 11:06:56.57	334.77	12.88	-82.8	-79.0	2.4	0.00e+00	0	49	104	0	60	1048574
2026-01-18 11:06:57.58	334.48	12.88	-83.1	-79.0	2.4	0.00e+00	0	49	104	0	60	1048572
2026-01-18 11:06:58.58	334.19	12.88	-83.5	-79.0	2.4	0.00e+00	0	49	104	0	60	1048573
2026-01-18 11:06:59.59	333.90	12.88	-83.5	-79.0	2.4	0.00e+00	0	49	104	0	60	1048572
2026-01-18 11:07:00.60	333.61	12.88	-83.5	-79.0	2.4	0.00e+00	0	49	104	0	60	1048573
2026-01-18 11:07:01.60	333.32	12.88	-83.1	-79.0	2.4	0.00e+00	0	49	104	0	60	1048575
2026-01-18 11:07:02.60	333.03	12.88	-83.1	-79.0	2.4	0.00e+00	0	49	104	0	60	1048573
2026-01-18 11:07:03.61	332.74	12.87	-83.1	-79.0	2.2	0.00e+00	0	49	104	0	60	1048574
2026-01-18 11:07:04.62	332.45	12.87	-83.5	-79.0	2.4	0.00e+00	0	49	104	0	60	1048571
2026-01-18 11:07:05.63	332.16	12.86	-83.5	-79.0	2.1	0.00e+00	0	49	104	0	60	1048575
2026-01-18 11:07:06.63	331.87	12.86	-82.8	-79.0	2.4	0.00e+00	0	49	104	0	60	1048572
2026-01-18 11:07:07.63	331.59	12.85	-83.5	-79.0	2.5	0.00e+00	0	49	104	0	60	1048574
2026-01-18 11:07:08.64	331.30	12.85	-83.5	-79.0	2.6	0.00e+00	0	49	104	0	60	1048572
2026-01-18 11:07:09.65	331.01	12.84	-83.5	-79.0	2.5	0.00e+00	0	49	104	0	60	1048575
2026-01-18 11:07:10.66	330.72	12.83	-83.5	-79.0	2.5	0.00e+00	0	49	104	0	60	1048574
2026-01-18 11:07:11.67	330.43	12.82	-83.1	-79.0	2.4	0.00e+00	0	49	104	0	60	1048569
2026-01-18 11:07:12.67	330.14	12.81	-83.5	-79.0	2.4	0.00e+00	0	49	104	0	60	1048574
2026-01-18 11:07:13.68	329.85	12.80	-83.5	-79.0	2.3	0.00e+00	0	49	104	0	60	1048575
2026-01-18 11:07:14.69	329.56	12.79	-83.1	-79.0	2.4	0.00e+00	0	49	104	0	60	1048569
2026-01-18 11:07:15.69	329.28	12.78	-83.1	-79.0	2.1	0.00e+00	0	49	104	0	60	1048575
2026-01-18 11:07:16.69	328.99	12.77	-83.1	-79.0	2.4	0.00e+00	0	49	104	0	60	1048575
2026-01-18 11:07:17.69	328.71	12.76	-83.5	-79.0	2.0	0.00e+00	0	49	104	0	60	1048575
2026-01-18 11:07:18.70	328.42	12.75	-83.5	-79.0	2.4	0.00e+00	0	49	104	0	60	1048571
2026-01-18 11:07:19.70	328.13	12.74	-83.5	-79.0	2.5	0.00e+00	0	49	104	0	60	1048575
2026-01-18 11:07:20.71	327.85	12.72	-83.1	-79.0	2.5	0.00e+00	0	49	104	0	60	1048574
2026-01-18 11:07:21.71	327.56	12.71	-83.1	-79.0	2.5	0.00e+00	0	49	104	0	60	1048574
2026-01-18 11:07:22.72	327.28	12.69	-83.5	-79.0	2.5	0.00e+00	0	49	104	0	60	1048572
2026-01-18 11:07:23.72	326.99	12.68	-83.5	-79.0	2.4	0.00e+00	0	49	104	0	60	1048573
2026-01-18 11:07:24.73	326.71	12.66	-83.5	-79.0	2.5	0.00e+00	0	49	104	0	60	1048575
2026-01-18 11:07:25.74	326.42	12.64	-83.1	-79.0	2.5	0.00e+00	0	49	104	0	60	1048570
2026-01-18 11:07:26.74	326.14	12.63	-83.5	-79.0	2.5	0.00e+00	0	49	104	0	60	1048575
2026-01-18 11:07:27.75	325.85	12.61	-83.1	-79.0	2.4	0.00e+00	0	49	104	0	60	1048572
2026-01-18 11:07:28.76	325.57	12.59	-83.5	-79.0	2.2	0.00e+00	0	49	104	0	60	1048575
2026-01-18 11:07:29.76	325.29	12.57	-83.1	-79.0	2.4	0.00e+00	0	49	104	0	60	1048573
2026-01-18 11:07:30.77	325.01	12.55	-82.8	-79.0	2.6	0.00e+00	0	49	104	0	60	1048574
2026-01-18 11:07:31.78	324.72	12.53	-83.5	-79.0	2.4	0.00e+00	0	49	104	0	60	1048575
2026-01-18 11:07:32.78	324.44	12.51	-83.5	-79.0	2.5	0.00e+00	0	49	104	0	60	1048575
2026-01-18 11:07:33.79	324.16	12.49	-83.1	-79.0	2.3	0.00e+00	0	49	104	0	60	1048574
2026-01-18 11:07:34.78	323.89	12.47	-83.1	-79.0	2.4	0.00e+00	0	49	104	0	60	1048574
2026-01-18 11:07:35.79	323.60	12.45	-83.1	-79.0	2.4	0.00e+00	0	49	104	0	60	1048575
2026-01-18 11:07:36.80	323.32	12.42	-83.5	-79.0	2.3	0.00e+00	0	49	104	0	60	1048570
2026-01-18 11:07:37.80	323.05	12.40	-83.5	-79.0	2.4	0.00e+00	0	49	104	0	60	1048574
2026-01-18 11:07:38.81	322.77	12.38	-83.5	-79.0	2.3	0.00e+00	0	49	104	0	60	1048572
2026-01-18 11:07:39.82	322.49	12.35	-83.1	-79.0	2.5	0.00e+00	0	49	104	0	60	1048574
2026-01-18 11:07:40.83	322.21	12.33	-83.1	-79.0	2.2	0.00e+00	0	49	104	0	60	1048571
2026-01-18 11:07:41.83	321.94	12.30	-83.5	-79.0	2.5	0.00e+00	0	49	104	0	60	1048575
2026-01-18 11:07:42.84	321.66	12.28	-83.5	-79.0	2.2	0.00e+00	0	49	104	0	60	1048568
2026-01-18 11:07:43.85	321.38	12.25	-83.1	-79.0	2.6	0.00e+00	0	49	104	0	60	1048575
2026-01-18 11:07:44.86	321.11	12.22	-83.1	-79.0	2.1	0.00e+00	0	49	104	0	60	1048568
2026-01-18 11:07:45.86	320.83	12.19	-83.5	-79.0	2.6	0.00e+00	0	49	104	0	60	1048572
2026-01-18 11:07:46.87	320.56	12.17	-83.5	-79.0	2.5	0.00e+00	0	49	104	0	60	1048574
2026-01-18 11:07:47.88	320.28	12.14	-83.5	-79.0	2.4	0.00e+00	0	49	104	0	60	1048570
2026-01-18 11:07:48.89	320.01	12.11	-83.1	-79.0	2.5	0.00e+00	0	49	104	0	60	1048569
2026-01-18 11:07:49.89	319.74	12.08	-82.8	-79.0	2.5	0.00e+00	0	49	104	0	60	1048574
2026-01-18 11:07:50.90	319.47	12.05	-83.5	-79.0	2.5	0.00e+00	0	49	104	0	60	1048573
2026-01-18 11:07:51.91	319.20	12.02	-83.1	-79.0	2.3	0.00e+00	0	49	104	0	60	1048573
2026-01-18 11:07:52.91	318.93	11.99	-83.5	-79.0	2.3	0.00e+00	0	49	104	0	60	1048573
2026-01-18 11:07:53.92	318.66	11.95	-83.1	-79.0	2.4	0.00e+00	0	49	104	0	60	1048575
2026-01-18 11:07:54.92	318.39	11.92	-83.1	-79.0	2.3	0.00e+00	0	49	104	0	60	1048571
2026-01-18 11:07:55.93	318.12	11.89	-83.5	-79.0	2.6	0.00e+00	0	49	104	0	60	1048575
2026-01-18 11:07:56.94	317.86	11.86	-83.5	-79.0	2.6	0.00e+00	0	49	104	0	60	1048575
2026-01-18 11:07:57.95	317.59	11.82	-83.5	-79.0	2.4	0.00e+00	0	49	104	0	60	1048574
2026-01-18 11:07:58.96	317.32	11.79	-83.1	-79.0	2.6	0.00e+00	0	49	104	0	60	1048572
2026-01-18 11:07:59.96	317.06	11.76	-83.1	-79.0	2.5	0.00e+00	0	49	104	0	60	1048573
2026-01-18 11:08:00.97	316.79	11.72	-83.5	-79.0	2.3	0.00e+00	0	49	104	0	60	1048575
2026-01-18 11:08:01.98	316.53	11.69	-83.5	-79.0	2.4	0.00e+00	0	49	104	0	60	1048575
2026-01-18 11:08:02.99	316.27	11.65	-83.5	-79.0	2.3	0.00e+00	0	49	104	0	60	1048574
2026-01-18 11:08:03.99	316.01	11.61	-83.1	-79.0	2.5	0.00e+00	0	49	104	0	60	1048573
2026-01-18 11:08:05.00	315.75	11.58	-83.5	-79.0	2.2	0.00e+00	0	49	104	0	60	1048575
2026-01-18 11:08:06.00	315.49	11.54	-83.5	-79.0	2.5	0.00e+00	0	49	104	0	60	1048575
2026-01-18 11:08:07.01	315.23	11.50	-83.5	-79.0	2.1	0.00e+00	0	49	104	0	60	1048574
2026-01-18 11:08:08.01	314.97	11.47	-83.1	-79.0	2.5	0.00e+00	0	49	104	0	60	1048568
2026-01-18 11:08:09.02	314.71	11.43	-82.8	-79.0	2.5	0.00e+00	0	49	104	0	60	1048574
2026-01-18 11:08:10.03	314.45	11.39	-83.5	-79.0	2.5	0.00e+00	0	49	104	0	60	1048573
2026-01-18 11:08:11.04	314.20	11.35	-83.5	-79.0	2.4	0.00e+00	0	49	104	0	60	1048573
2026-01-18 11:08:12.04	313.94	11.31	-83.5	-79.0	2.6	0.00e+00	0	49	104	0	60	1048572
2026-01-18 11:08:13.05	313.69	11.27	-83.1	-79.0	2.4	0.00e+00	0	49	104	0	60	1048575
2026-01-18 11:08:14.06	313.43	11.23	-83.1	-79.0	2.4	0.00e+00	0	49	104	0	60	1048570
2026-01-18 11:08:15.07	313.18	11.19	-83.5	-79.0	2.1	0.00e+00	0	49	104	0	60	1048561
2026-01-18 11:08:16.07	312.93	11.15	-83.5	-79.0	2.4	0.00e+00	0	49	104	0	60	1048569
2026-01-18 11:08:17.08	312.68	11.11	-83.5	-79.0	2.3	0.00e+00	0	49	104	0	60	1048573
2026-01-18 11:08:18.09	312.43	11.07	-83.1	-79.0	2.5	0.00e+00	0	49	104	0	60	1048575
2026-01-18 11:08:19.10	312.18	11.02	-83.5	-79.0	2.5	0.00e+00	0	49	104	0	60	1048571
2026-01-18 11:08:20.11	311.93	10.98	-83.5	-79.0	2.4	0.00e+00	0	49	104	0	60	1048573
2026-01-18 11:08:21.11	311.68	10.94	-83.1	-79.0	2.6	0.00e+00	0	49	104	0	60	1048573
2026-01-18 11:08:22.12	311.43	10.90	-83.5	-79.0	2.5	0.00e+00	0	49	104	0	60	1048574
2026-01-18 11:08:23.13	311.19	10.85	-82.8	-79.0	2.5	0.00e+00	0	49	104	0	60	1048574
2026-01-18 11:08:24.14	310.94	10.81	-83.5	-79.0	2.6	0.00e+00	0	49	104	0	60	1048575
2026-01-18 11:08:25.14	310.70	10.76	-83.5	-79.0	2.5	0.00e+00	0	49	104	0	60	1048573
2026-01-18 11:08:26.15	310.46	10.72	-83.5	-79.0	2.5	0.00e+00	0	49	104	0	60	1048575
2026-01-18 11:08:27.15	310.22	10.68	-83.1	-79.0	2.5	0.00e+00	0	49	104	0	60	1048575
2026-01-18 11:08:28.15	309.98	10.63	-83.1	-79.0	2.5	0.00e+00	0	49	104	0	60	1048574
2026-01-18 11:08:29.16	309.74	10.59	-83.5	-79.0	2.5	0.00e+00	0	49	104	0	60	1048571
2026-01-18 11:08:30.17	309.49	10.54	-83.5	-79.0	2.5	0.00e+00	0	49	104	0	60	1048575
2026-01-18 11:08:31.18	309.26	10.49	-83.5	-79.0	2.4	0.00e+00	0	49	104	0	60	1048572
2026-01-18 11:08:32.18	309.02	10.45	-83.1	-79.0	2.6	0.00e+00	0	49	104	0	60	1048575
2026-01-18 11:08:33.19	308.78	10.40	-83.1	-79.0	2.6	0.00e+00	0	49	104	0	60	1048568
2026-01-18 11:08:34.20	308.55	10.35	-83.1	-79.0	2.5	0.00e+00	0	49	104	0	60	1048572
2026-01-18 11:08:35.21	308.31	10.31	-83.5	-79.0	2.4	0.00e+00	0	49	104	0	60	1048569
2026-01-18 11:08:36.21	308.08	10.26	-83.5	-79.0	2.5	0.00e+00	0	49	104	0	60	1048575
2026-01-18 11:08:37.22	307.84	10.21	-83.1	-79.0	2.4	0.00e+00	0	49	104	0	60	1048573
2026-01-18 11:08:38.23	307.61	10.16	-83.1	-79.0	2.4	0.00e+00	0	49	104	0	60	1048571
2026-01-18 11:08:39.24	307.38	10.12	-83.5	-79.0	2.5	0.00e+00	0	49	104	0	60	1048575
2026-01-18 11:08:40.24	307.15	10.07	-83.5	-79.0	2.1	0.00e+00	0	49	104	0	60	1048560
2026-01-18 11:08:41.25	306.92	10.02	-83.1	-79.0	2.5	0.00e+00	0	49	104	0	60	1048574
2026-01-18 11:08:42.26	306.69	9.97	-83.1	-79.0	2.4	0.00e+00	0	49	104	0	60	1048571
2026-01-18 11:08:43.27	306.46	9.92	-83.5	-79.0	2.5	0.00e+00	0	49	104	0	60	1048572
2026-01-18 11:08:44.28	306.24	9.87	-83.5	-79.0	2.6	0.00e+00	0	49	104	0	60	1048569
2026-01-18 11:08:45.28	306.01	9.82	-83.5	-79.0	2.4	0.00e+00	0	49	104	0	60	1048571
2026-01-18 11:08:46.29	305.79	9.77	-83.1	-79.0	2.5	0.00e+00	0	49	104	0	60	1048568
2026-01-18 11:08:47.30	305.56	9.72	-83.1	-79.0	2.5	0.00e+00	0	49	104	0	60	1048572
2026-01-18 11:08:48.31	305.34	9.67	-83.5	-79.0	2.4	0.00e+00	0	49	104	0	60	1048575
2026-01-18 11:08:49.31	305.12	9.62	-83.5	-79.0	2.4	0.00e+00	0	49	104	0	60	1048574
2026-01-18 11:08:50.32	304.90	9.57	-83.5	-79.0	2.4	0.00e+00	0	49	104	0	60	1048573
2026-01-18 11:08:51.33	304.68	9.52	-83.1	-79.0	2.4	0.00e+00	0	49	104	0	60	1048575
2026-01-18 11:08:52.34	304.46	9.47	-83.5	-79.0	2.3	0.00e+00	0	49	104	0	60	1048565
2026-01-18 11:08:53.34	304.24	9.42	-83.5	-79.0	2.3	0.00e+00	0	49	104	0	60	1048573
2026-01-18 11:08:54.35	304.02	9.37	-83.1	-79.0	1.9	0.00e+00	0	49	104	0	60	1048573
2026-01-18 11:08:55.36	303.81	9.31	-83.5	-79.0	2.4	0.00e+00	0	49	104	0	60	1048573
2026-01-18 11:08:56.37	303.59	9.26	-82.8	-79.0	2.4	0.00e+00	0	49	104	0	60	1048575
2026-01-18 11:08:57.37	303.38	9.21	-83.5	-79.0	2.5	0.00e+00	0	49	104	0	60	1048574
2026-01-18 11:08:58.38	303.16	9.16	-83.5	-79.0	2.5	0.00e+00	0	49	104	0	60	1048572
2026-01-18 11:08:59.38	302.95	9.11	-83.5	-79.0	2.4	0.00e+00	0	49	104	0	60	1048575
2026-01-18 11:09:00.38	302.74	9.05	-83.5	-79.0	2.3	0.00e+00	0	49	104	0	60	1048575
2026-01-18 11:09:01.39	302.53	9.00	-83.1	-79.0	2.4	0.00e+00	0	49	104	0	60	1048574
2026-01-18 11:09:02.40	302.32	8.95	-83.5	-79.0	2.3	0.00e+00	0	49	104	0	60	1048575
2026-01-18 11:09:03.41	302.11	8.89	-83.5	-79.0	2.5	0.00e+00	0	49	104	0	60	1048571
2026-01-18 11:09:04.41	301.91	8.84	-83.5	-79.0	2.1	0.00e+00	0	49	104	0	60	1048564
2026-01-18 11:09:05.41	301.70	8.79	-83.1	-79.0	2.6	0.00e+00	0	49	104	0	60	1048571
2026-01-18 11:09:06.42	301.50	8.73	-83.5	-79.0	2.1	0.00e+00	0	49	104	0	60	1048573
2026-01-18 11:09:07.43	301.29	8.68	-83.5	-79.0	2.4	0.00e+00	0	49	104	0	60	1048574
2026-01-18 11:09:08.43	301.09	8.63	-83.5	-79.0	2.4	0.00e+00	0	49	104	0	60	1048568
2026-01-18 11:09:09.44	300.89	8.57	-83.5	-79.0	2.5	0.00e+00	0	49	104	0	60	1048575
2026-01-18 11:09:10.45	300.68	8.52	-83.1	-79.0	2.5	0.00e+00	0	49	104	0	60	1048570
2026-01-18 11:09:11.45	300.48	8.46	-83.1	-79.0	2.5	0.00e+00	0	49	104	0	60	1048574
2026-01-18 11:09:12.46	300.28	8.41	-83.5	-79.0	2.3	0.00e+00	0	49	104	0	60	1048569
2026-01-18 11:09:13.47	300.08	8.36	-83.5	-79.0	2.4	0.00e+00	0	49	104	0	60	1048568
2026-01-18 11:09:14.48	299.88	8.30	-83.1	-79.0	2.2	0.00e+00	0	49	104	0	60	1048572
2026-01-18 11:09:15.48	299.69	8.25	-83.1	-79.0	2.3	0.00e+00	0	49	104	0	60	1048572
2026-01-18 11:09:16.49	299.49	8.19	-83.5	-79.0	2.3	0.00e+00	0	49	104	0	60	1048575
2026-01-18 11:09:17.50	299.30	8.14	-83.5	-79.0	2.5	0.00e+00	0	49	104	0	60	1048575
2026-01-18 11:09:18.51	299.10	8.08	-83.5	-79.0	2.0	0.00e+00	0	49	104	0	60	1048559
2026-01-18 11:09:19.51	298.91	8.03	-83.1	-79.0	2.4	0.00e+00	0	49	104	0	60	1048575
2026-01-18 11:09:20.52	298.71	7.97	-83.1	-79.0	2.5	0.00e+00	0	49	104	0	60	1048571
2026-01-18 11:09:21.52	298.52	7.92	-83.5	-79.0	2.5	0.00e+00	0	49	104	0	60	1048573
2026-01-18 11:09:22.53	298.33	7.86	-83.5	-79.0	2.5	0.00e+00	0	49	104	0	60	1048574
2026-01-18 11:09:23.54	298.14	7.80	-83.5	-79.0	2.5	0.00e+00	0	49	104	0	60	1048571
2026-01-18 11:09:24.55	297.95	7.75	-82.8	-79.0	2.6	0.00e+00	0	49	104	0	60	1048575
2026-01-18 11:09:25.56	297.76	7.69	-83.5	-79.0	2.4	0.00e+00	0	49	104	0	60	1048571
2026-01-18 11:09:26.56	297.58	7.64	-83.5	-79.0	2.2	0.00e+00	0	49	104	0	60	1048574
2026-01-18 11:09:27.57	297.39	7.58	-83.1	-79.0	2.4	0.00e+00	0	49	104	0	60	1048575
2026-01-18 11:09:28.58	297.21	7.53	-83.1	-79.0	2.0	0.00e+00	0	49	104	0	60	1048574
2026-01-18 11:09:29.59	297.02	7.47	-83.1	-79.0	2.5	0.00e+00	0	49	104	0	60	1048574
2026-01-18 11:09:30.59	296.84	7.41	-83.5	-79.0	2.4	0.00e+00	0	49	104	0	60	1048571
2026-01-18 11:09:31.60	296.65	7.36	-83.5	-79.0	2.5	0.00e+00	0	49	104	0	60	1048573
2026-01-18 11:09:32.61	296.47	7.30	-83.5	-79.0	2.4	0.00e+00	0	49	104	0	60	1048573
2026-01-18 11:09:33.62	296.29	7.24	-82.8	-79.0	2.4	0.00e+00	0	49	104	0	60	1048575
2026-01-18 11:09:34.63	296.11	7.19	-83.1	-79.0	2.4	0.00e+00	0	49	104	0	60	1048574
2026-01-18 11:09:35.64	295.93	7.13	-83.5	-79.0	2.4	0.00e+00	0	49	104	0	60	1048575
2026-01-18 11:09:36.64	295.75	7.08	-83.5	-79.0	2.5	0.00e+00	0	49	104	0	60	1048575
2026-01-18 11:09:37.65	295.57	7.02	-83.5	-79.0	2.4	0.00e+00	0	49	104	0	60	1048573
2026-01-18 11:09:38.65	295.40	6.96	-83.1	-79.0	2.4	0.00e+00	0	49	104	0	60	1048574
2026-01-18 11:09:39.66	295.22	6.91	-83.1	-79.0	2.3	0.00e+00	0	49	104	0	60	1048574
2026-01-18 11:09:40.66	295.05	6.85	-83.1	-79.0	2.3	0.00e+00	0	49	104	0	60	1048574
2026-01-18 11:09:41.67	294.87	6.79	-83.5	-79.0	2.5	0.00e+00	0	49	104	0	60	1048574
2026-01-18 11:09:42.68	294.70	6.74	-83.5	-79.0	2.4	0.00e+00	0	49	104	0	60	1048575
2026-01-18 11:09:43.69	294.53	6.68	-83.1	-79.0	2.5	0.00e+00	0	49	104	0	60	1048573
2026-01-18 11:09:44.69	294.36	6.62	-83.1	-79.0	2.5	0.00e+00	0	49	104	0	60	1048575
2026-01-18 11:09:45.70	294.19	6.57	-83.5	-79.0	2.5	0.00e+00	0	49	104	0	60	1048574
2026-01-18 11:09:46.70	294.02	6.51	-83.1	-79.0	2.3	0.00e+00	0	49	104	0	60	1048571
2026-01-18 11:09:47.71	293.85	6.45	-83.1	-79.0	2.5	0.00e+00	0	49	104	0	60	1048570
2026-01-18 11:09:48.71	293.68	6.39	-83.1	-79.0	2.4	0.00e+00	0	49	104	0	60	1048571
2026-01-18 11:09:49.72	293.51	6.34	-83.5	-79.0	2.4	0.00e+00	0	49	104	0	60	1048575
2026-01-18 11:09:50.73	293.35	6.28	-83.5	-79.0	2.4	0.00e+00	0	49	104	0	60	1048569
2026-01-18 11:09:51.74	293.18	6.22	-83.5	-79.0	2.1	0.00e+00	0	49	104	0	60	1048574
2026-01-18 11:09:52.74	293.02	6.17	-83.5	-79.0	2.5	0.00e+00	0	49	104	0	60	1048573
2026-01-18 11:09:53.75	292.85	6.11	-83.1	-79.0	2.3	0.00e+00	0	49	104	0	60	1048573
2026-01-18 11:09:54.76	292.69	6.05	-83.5	-79.0	2.4	0.00e+00	0	49	104	0	60	1048574
2026-01-18 11:09:55.77	292.53	5.99	-83.5	-79.0	2.5	0.00e+00	0	49	104	0	60	1048575
2026-01-18 11:09:56.77	292.37	5.94	-83.5	-79.0	2.4	0.00e+00	0	49	104	0	60	1048572
2026-01-18 11:09:57.78	292.20	5.88	-83.1	-79.0	2.5	0.00e+00	0	49	104	0	60	1048569
2026-01-18 11:09:58.79	292.04	5.82	-83.5	-79.0	2.5	0.00e+00	0	49	104	0	60	1048575
2026-01-18 11:09:59.80	291.88	5.77	-83.5	-79.0	2.5	0.00e+00	0	49	104	0	60	1048572
2026-01-18 11:10:00.80	291.73	5.71	-83.5	-79.0	2.4	0.00e+00	0	49	104	0	60	1048574
2026-01-18 11:10:01.80	291.57	5.65	-83.5	-79.0	2.4	0.00e+00	0	49	104	0	60	1048566
2026-01-18 11:10:02.81	291.41	5.60	-82.8	-79.0	2.6	0.00e+00	0	49	104	0	60	1048575
2026-01-18 11:10:03.81	291.26	5.54	-83.5	-79.0	2.3	0.00e+00	0	49	104	0	60	1048571
2026-01-18 11:10:04.82	291.10	5.48	-83.5	-79.0	2.2	0.00e+00	0	49	104	0	60	1048574
2026-01-18 11:10:05.82	290.95	5.42	-83.5	-79.0	2.4	0.00e+00	0	49	104	0	60	1048572
2026-01-18 11:10:06.83	290.80	5.37	-83.1	-79.0	2.1	0.00e+00	0	49	104	0	60	1048574
2026-01-18 11:10:07.84	290.64	5.31	-82.8	-79.0	2.4	0.00e+00	0	49	104	0	60	1048575
2026-01-18 11:10:08.85	290.49	5.25	-83.5	-79.0	2.4	0.00e+00	0	49	104	0	60	1048560
2026-01-18 11:10:09.85	290.34	5.20	-83.5	-79.0	2.4	0.00e+00	0	49	104	0	60	1048572
2026-01-18 11:10:10.86	290.19	5.14	-83.5	-79.0	2.4	0.00e+00	0	49	104	0	60	1048572
2026-01-18 11:10:11.87	290.04	5.08	-83.1	-79.0	2.3	0.00e+00	0	49	104	0	60	1048573
2026-01-18 11:10:12.88	289.89	5.02	-83.1	-79.0	2.5	0.00e+00	0	49	104	0	60	1048575
2026-01-18 11:10:13.89	289.74	4.97	-83.1	-79.0	2.5	0.00e+00	0	49	104	0	60	1048571
2026-01-18 11:10:14.89	289.59	4.91	-83.5	-79.0	2.2	0.00e+00	0	49	104	0	60	1048572
2026-01-18 11:10:15.90	289.44	4.85	-83.1	-79.0	2.5	0.00e+00	0	49	104	0	60	1048568
2026-01-18 11:10:16.91	289.30	4.80	-83.1	-79.0	2.2	0.00e+00	0	49	104	0	60	1048570
2026-01-18 11:10:17.91	289.15	4.74	-83.5	-79.0	2.5	0.00e+00	0	49	104	0	60	1048575
2026-01-18 11:10:18.92	289.01	4.68	-83.5	-79.0	2.2	0.00e+00	0	49	104	0	60	1048571
2026-01-18 11:10:19.93	288.86	4.62	-83.5	-79.0	2.5	0.00e+00	0	49	104	0	60	1048575
2026-01-18 11:10:20.93	288.72	4.57	-83.1	-79.0	2.6	0.00e+00	0	49	104	0	60	1048574
2026-01-18 11:10:21.94	288.58	4.51	-82.8	-79.0	2.4	0.00e+00	0	49	104	0	60	1048573
2026-01-18 11:10:22.94	288.44	4.45	-83.5	-79.0	2.5	0.00e+00	0	49	104	0	60	1048569
2026-01-18 11:10:23.95	288.30	4.40	-83.5	-79.0	2.5	0.00e+00	0	49	104	0	60	1048574
2026-01-18 11:10:24.96	288.16	4.34	-83.5	-79.0	2.4	0.00e+00	0	49	104	0	60	1048567
2026-01-18 11:10:25.97	288.02	4.28	-83.1	-79.0	2.4	0.00e+00	0	49	104	0	60	1048567
2026-01-18 11:10:26.97	287.88	4.23	-83.1	-79.0	2.3	0.00e+00	0	49	104	0	60	1048575
2026-01-18 11:10:27.98	287.74	4.17	-83.5	-79.0	2.5	0.00e+00	0	49	104	0	60	1048569
2026-01-18 11:10:28.99	287.60	4.11	-83.5	-79.0	2.1	0.00e+00	0	49	104	0	60	1048574
2026-01-18 11:10:30.00	287.46	4.06	-83.1	-79.0	2.3	0.00e+00	0	49	104	0	60	1048568
2026-01-18 11:10:31.00	287.33	4.00	-83.1	-79.0	2.4	0.00e+00	0	49	104	0	60	1048564
2026-01-18 11:10:32.01	287.19	3.94	-83.1	-79.0	2.5	0.00e+00	0	49	104	0	60	1048572
2026-01-18 11:10:33.02	287.06	3.88	-83.5	-79.0	2.5	0.00e+00	0	49	104	0	60	1048574
2026-01-18 11:10:34.03	286.92	3.83	-83.5	-79.0	2.5	0.00e+00	0	49	104	0	60	1048575
2026-01-18 11:10:35.03	286.79	3.77	-83.5	-79.0	2.4	0.00e+00	0	49	104	0	60	1048574
2026-01-18 11:10:36.03	286.66	3.72	-83.1	-79.0	2.6	0.00e+00	0	49	104	0	60	1048570
2026-01-18 11:10:37.04	286.52	3.66	-83.5	-79.0	2.4	0.00e+00	0	49	104	0	60	1048573
2026-01-18 11:10:38.05	286.39	3.60	-83.5	-79.0	2.4	0.00e+00	0	49	104	0	60	1048573
2026-01-18 11:10:39.06	286.26	3.55	-83.5	-79.0	2.5	0.00e+00	0	49	104	0	60	1048563
2026-01-18 11:10:40.06	286.13	3.49	-83.1	-79.0	2.6	0.00e+00	0	49	104	0	60	1048572
2026-01-18 11:10:41.07	286.00	3.43	-83.1	-79.0	2.1	0.00e+00	0	49	104	0	60	1048569
2026-01-18 11:10:42.08	285.87	3.38	-83.5	-79.0	2.5	0.00e+00	0	49	104	0	60	1048574
2026-01-18 11:10:43.09	285.74	3.32	-83.5	-79.0	2.4	0.00e+00	0	49	104	0	60	1048574
2026-01-18 11:10:44.09	285.62	3.26	-83.5	-79.0	2.5	0.00e+00	0	49	104	0	60	1048573
2026-01-18 11:10:45.11	285.49	3.21	-82.8	-79.0	2.4	0.00e+00	0	49	104	0	60	1048573
2026-01-18 11:10:46.12	285.36	3.15	-83.1	-79.0	2.5	0.00e+00	0	49	104	0	60	1048575
2026-01-18 11:10:47.12	285.24	3.10	-83.5	-79.0	2.4	0.00e+00	0	49	104	0	60	1048574
2026-01-18 11:10:48.12	285.11	3.04	-83.5	-79.0	2.5	0.00e+00	0	49	104	0	60	1048572
2026-01-18 11:10:49.13	284.99	2.98	-83.5	-79.0	2.4	0.00e+00	0	49	104	0	60	1048572
2026-01-18 11:10:50.14	284.86	2.93	-83.1	-79.0	2.3	0.00e+00	0	49	104	0	60	1048570
2026-01-18 11:10:51.15	284.74	2.87	-83.1	-79.0	2.4	0.00e+00	0	49	104	0	60	1048574
2026-01-18 11:10:52.16	284.62	2.81	-83.5	-79.0	2.5	0.00e+00	0	49	104	0	60	1048570
2026-01-18 11:10:53.16	284.49	2.76	-83.5	-79.0	2.3	0.00e+00	0	49	104	0	60	1048574
2026-01-18 11:10:54.17	284.37	2.70	-83.1	-79.0	2.5	0.00e+00	0	49	104	0	60	1048575
2026-01-18 11:10:55.18	284.25	2.65	-83.1	-79.0	2.5	0.00e+00	0	49	104	0	60	1048573
2026-01-18 11:10:56.19	284.13	2.59	-83.5	-79.0	2.5	0.00e+00	0	49	104	0	60	1048573
2026-01-18 11:10:57.20	284.01	2.54	-83.5	-79.0	2.4	0.00e+00	0	49	104	0	60	1048574
2026-01-18 11:10:58.21	283.89	2.48	-83.5	-79.0	2.5	0.00e+00	0	49	104	0	60	1048573
2026-01-18 11:10:59.21	283.77	2.42	-82.8	-79.0	2.5	0.00e+00	0	49	104	0	60	1048571
2026-01-18 11:11:00.22	283.65	2.37	-83.1	-79.0	2.4	0.00e+00	0	49	104	0	60	1048574
2026-01-18 11:11:01.23	283.54	2.31	-83.5	-79.0	2.4	0.00e+00	0	49	104	0	60	1048571
2026-01-18 11:11:02.24	283.42	2.26	-83.5	-79.0	2.3	0.00e+00	0	49	104	0	60	1048571
2026-01-18 11:11:03.24	283.30	2.20	-83.5	-79.0	2.4	0.00e+00	0	49	104	0	60	1048574
2026-01-18 11:11:04.25	283.19	2.15	-83.1	-79.0	2.2	0.00e+00	0	49	104	0	60	1048573
2026-01-18 11:11:05.26	283.07	2.09	-83.1	-79.0	2.3	0.00e+00	0	49	104	0	60	1048574
2026-01-18 11:11:06.26	282.96	2.04	-83.5	-79.0	2.4	0.00e+00	0	49	104	0	60	1048572
2026-01-18 11:11:07.27	282.84	1.98	-83.1	-79.0	2.4	0.00e+00	0	49	104	0	60	1048575
2026-01-18 11:11:08.27	282.73	1.93	-83.5	-79.0	2.5	0.00e+00	0	49	104	0	60	1048574
2026-01-18 11:11:09.28	282.62	1.87	-82.8	-79.0	2.4	0.00e+00	0	49	104	0	60	1048573
2026-01-18 11:11:10.29	282.51	1.82	-83.1	-79.0	2.4	0.00e+00	0	49	104	0	60	1048570
2026-01-18 11:11:11.30	282.39	1.76	-83.5	-79.0	2.5	0.00e+00	0	49	104	0	60	1048575
2026-01-18 11:11:12.31	282.28	1.71	-83.5	-79.0	2.5	0.00e+00	0	49	104	0	60	1048571
2026-01-18 11:11:13.31	282.17	1.65	-83.5	-79.0	2.5	0.00e+00	0	49	104	0	60	1048574
2026-01-18 11:11:14.32	282.06	1.60	-83.1	-79.0	2.3	0.00e+00	0	49	104	0	60	1048574
2026-01-18 11:11:15.33	281.95	1.54	-83.5	-79.0	2.4	0.00e+00	0	49	104	0	60	1048574
2026-01-18 11:11:16.34	281.84	1.49	-83.5	-79.0	2.2	0.00e+00	0	49	104	0	60	1048575
2026-01-18 11:11:17.35	281.73	1.43	-83.1	-79.0	2.5	0.00e+00	0	49	104	0	60	1048568
2026-01-18 11:11:18.36	281.62	1.38	-83.1	-79.0	2.2	0.00e+00	0	49	104	0	60	1048571
2026-01-18 11:11:19.37	281.52	1.32	-83.1	-79.0	2.5	0.00e+00	0	49	104	0	60	1048567
2026-01-18 11:11:20.37	281.41	1.27	-83.1	-79.0	2.5	0.00e+00	0	49	104	0	60	1048574
2026-01-18 11:11:21.38	281.30	1.21	-83.5	-79.0	2.5	0.00e+00	0	49	104	0	60	1048575
2026-01-18 11:11:22.39	281.20	1.16	-83.5	-79.0	2.5	0.00e+00	0	49	104	0	60	1048570
2026-01-18 11:11:23.40	281.09	1.10	-83.1	-79.0	2.4	0.00e+00	0	49	104	0	60	1048575
2026-01-18 11:11:24.40	280.99	1.05	-83.1	-79.0	2.4	0.00e+00	0	49	104	0	60	1048574
2026-01-18 11:11:25.41	280.88	1.00	-83.5	-79.0	2.4	0.00e+00	0	49	104	0	60	1048571
2026-01-18 11:11:26.42	280.78	0.94	-83.5	-79.0	2.4	0.00e+00	0	49	104	0	60	1048564
2026-01-18 11:11:27.43	280.67	0.89	-83.1	-79.0	2.3	0.00e+00	0	49	104	0	60	1048575
2026-01-18 11:11:28.43	280.57	0.83	-83.1	-79.0	2.3	0.00e+00	0	49	104	0	60	1048566
2026-01-18 11:11:29.44	280.47	0.78	-83.5	-79.0	2.4	0.00e+00	0	49	104	0	60	1048573
2026-01-18 11:11:30.44	280.37	0.73	-83.5	-79.0	2.4	0.00e+00	0	49	104	0	60	1048575
2026-01-18 11:11:31.45	280.27	0.67	-83.5	-79.0	2.4	0.00e+00	0	49	104	0	60	1048571
2026-01-18 11:11:32.45	280.16	0.62	-83.5	-79.0	2.5	0.00e+00	0	49	104	0	60	1048573
2026-01-18 11:11:33.46	280.06	0.57	-83.1	-79.0	2.4	0.00e+00	0	49	104	0	60	1048570
2026-01-18 11:11:34.47	279.96	0.51	-83.5	-79.0	2.5	0.00e+00	0	49	104	0	60	1048571
2026-01-18 11:11:35.48	279.86	0.46	-83.5	-79.0	2.3	0.00e+00	0	49	104	0	60	1048573
2026-01-18 11:11:36.48	279.77	0.40	-83.5	-79.0	2.4	0.00e+00	0	49	104	0	60	1048575
2026-01-18 11:11:37.49	279.67	0.35	-83.1	-79.0	2.5	0.00e+00	0	49	104	0	60	1048573
2026-01-18 11:11:38.49	279.57	0.30	-83.1	-79.0	2.2	0.00e+00	0	49	104	0	60	1048574
2026-01-18 11:11:39.50	279.47	0.24	-83.5	-79.0	2.5	0.00e+00	0	49	104	0	60	1048568
2026-01-18 11:11:40.51	279.37	0.19	-83.1	-79.0	2.2	0.00e+00	0	49	104	0	60	1048575
2026-01-18 11:11:41.52	279.28	0.14	-83.5	-79.0	2.5	0.00e+00	0	49	104	0	60	1048574
2026-01-18 11:11:42.52	279.18	0.08	-82.8	-79.0	2.0	0.00e+00	0	49	104	0	60	1048573
2026-01-18 11:11:43.53	279.08	0.03	-83.1	-79.0	2.5	0.00e+00	0	49	104	0	60	1048573
2026-01-18 11:11:44.53	278.99	-0.02	-83.5	-79.0	2.5	0.00e+00	0	49	104	0	60	1048574
2026-01-18 11:11:45.54	278.89	-0.07	-83.5	-79.0	2.3	0.00e+00	0	49	104	0	60	1048573

#Closed at: 2026-01-18 11:11:46
#Recorded file [0 MB]: D:/Data/35015_260118_140214.dat