passes_logs/2026/01/18/R3.2S-Naryan-Mar/R3.2S-Naryan-Mar__20260118_153936_TY-41_rec.log

#Pass ID: 20260118_153936_TY-41
#Satellite: TY-41
#Configuration: TY-39
#almurnet v.1.7.20240730
#Start time: 2026-01-18 15:39:41

#Version: 2.2.20231116
#Station: R3.2S-Naryan-Mar
#Location: 53.008057 lon 67.646978 lat
#TLE: 1 61231U 24173E   26018.25438657  .00008012  00000-0  38191-3 0 09993
#TLE: 2 61231 097.4123 093.2273 0001689 092.2184 306.3117 15.19177353 72997

#Time	Az	El	Level	Level2	SNR	BER	BlckErr	Temp	State	Recorded	gain1	gain2
2026-01-18 15:39:41.26	108.95	0.28	-84.7	-88.6	2.8	7.77e-01	0	45	0	0	60	1048572
2026-01-18 15:39:42.26	108.88	0.34	-83.5	-79.0	2.4	0.00e+00	0	46	104	0	60	1048573
2026-01-18 15:39:43.27	108.82	0.40	-83.1	-79.0	2.4	0.00e+00	0	46	104	0	60	1048574
2026-01-18 15:39:44.27	108.75	0.46	-83.5	-79.0	2.4	0.00e+00	0	46	104	0	60	1048556
2026-01-18 15:39:45.28	108.68	0.52	-83.5	-79.0	2.6	0.00e+00	0	46	104	0	60	1048573
2026-01-18 15:39:46.28	108.61	0.58	-83.5	-79.0	2.2	0.00e+00	0	46	104	0	60	1048566
2026-01-18 15:39:47.28	108.54	0.64	-83.5	-79.0	2.4	0.00e+00	0	46	104	0	60	1048574
2026-01-18 15:39:48.29	108.47	0.71	-83.1	-79.0	2.3	0.00e+00	0	46	104	0	60	1048575
2026-01-18 15:39:49.30	108.40	0.77	-83.1	-79.0	2.5	0.00e+00	0	46	104	0	60	1048570
2026-01-18 15:39:50.31	108.33	0.83	-83.1	-79.0	2.4	0.00e+00	0	47	104	0	60	1048574
2026-01-18 15:39:51.32	108.26	0.89	-83.5	-79.0	2.4	0.00e+00	0	47	104	0	60	1048575
2026-01-18 15:39:52.32	108.19	0.95	-83.1	-79.0	2.5	0.00e+00	0	47	104	0	60	1048563
2026-01-18 15:39:53.33	108.12	1.01	-83.1	-79.0	2.4	0.00e+00	0	47	104	0	60	1048569
2026-01-18 15:39:54.34	108.05	1.07	-83.1	-79.0	2.5	0.00e+00	0	47	104	0	60	1048575
2026-01-18 15:39:55.35	107.97	1.14	-83.5	-79.0	2.4	0.00e+00	0	47	104	0	60	1048575
2026-01-18 15:39:56.36	107.90	1.20	-83.5	-79.0	2.3	0.00e+00	0	47	104	0	60	1048575
2026-01-18 15:39:57.36	107.83	1.26	-83.5	-79.0	2.4	0.00e+00	0	47	104	0	60	1048575
2026-01-18 15:39:58.37	107.75	1.32	-83.1	-79.0	2.4	0.00e+00	0	47	104	0	60	1048575
2026-01-18 15:39:59.37	107.68	1.38	-83.5	-79.0	2.4	0.00e+00	0	47	104	0	60	1048567
2026-01-18 15:40:00.38	107.60	1.45	-83.5	-79.0	2.4	0.00e+00	0	47	104	0	60	1048570
2026-01-18 15:40:01.38	107.53	1.51	-83.5	-79.0	2.5	0.00e+00	0	47	104	0	60	1048573
2026-01-18 15:40:02.39	107.46	1.57	-82.8	-79.0	2.4	0.00e+00	0	47	104	0	60	1048569
2026-01-18 15:40:03.40	107.38	1.63	-83.1	-79.0	2.3	0.00e+00	0	47	104	0	60	1048574
2026-01-18 15:40:04.41	107.30	1.70	-83.5	-79.0	2.3	0.00e+00	0	47	104	0	60	1048569
2026-01-18 15:40:05.42	107.23	1.76	-83.5	-79.0	2.4	0.00e+00	0	47	104	0	60	1048573
2026-01-18 15:40:06.43	107.15	1.82	-83.5	-79.0	2.5	0.00e+00	0	47	104	0	60	1048573
2026-01-18 15:40:07.44	107.07	1.89	-83.1	-79.0	2.4	0.00e+00	0	47	104	0	60	1048571
2026-01-18 15:40:08.44	106.99	1.95	-83.1	-79.0	2.4	0.00e+00	0	47	104	0	60	1048572
2026-01-18 15:40:09.45	106.92	2.01	-83.5	-79.0	2.4	0.00e+00	0	47	104	0	60	1048573
2026-01-18 15:40:10.46	106.84	2.08	-83.5	-79.0	2.3	0.00e+00	0	47	104	0	60	1048568
2026-01-18 15:40:11.47	106.76	2.14	-83.5	-79.0	2.3	0.00e+00	0	47	104	0	60	1048575
2026-01-18 15:40:12.48	106.68	2.21	-83.1	-79.0	2.4	0.00e+00	0	47	104	0	60	1048574
2026-01-18 15:40:13.48	106.60	2.27	-83.5	-79.0	2.3	0.00e+00	0	47	104	0	60	1048575
2026-01-18 15:40:14.49	106.52	2.34	-83.5	-79.0	2.3	0.00e+00	0	47	104	0	60	1048575
2026-01-18 15:40:15.50	106.44	2.40	-83.5	-79.0	2.4	0.00e+00	0	47	104	0	60	1048574
2026-01-18 15:40:16.51	106.35	2.47	-83.1	-79.0	2.2	0.00e+00	0	47	104	0	60	1048574
2026-01-18 15:40:17.51	106.27	2.53	-83.1	-79.0	2.4	0.00e+00	0	47	104	0	60	1048573
2026-01-18 15:40:18.51	106.19	2.59	-83.5	-79.0	2.3	0.00e+00	0	47	104	0	60	1048574
2026-01-18 15:40:19.52	106.11	2.66	-83.1	-79.0	2.4	0.00e+00	0	47	104	0	60	1048571
2026-01-18 15:40:20.53	106.02	2.73	-83.5	-79.0	2.3	0.00e+00	0	47	104	0	60	1048568
2026-01-18 15:40:21.54	105.94	2.79	-82.8	-79.0	2.3	0.00e+00	0	47	104	0	60	1048572
2026-01-18 15:40:22.54	105.86	2.86	-83.5	-79.0	2.3	0.00e+00	0	47	104	0	60	1048575
2026-01-18 15:40:23.55	105.77	2.92	-83.5	-79.0	2.4	0.00e+00	0	47	104	0	60	1048574
2026-01-18 15:40:24.56	105.68	2.99	-83.5	-79.0	2.2	0.00e+00	0	47	104	0	60	1048575
2026-01-18 15:40:25.56	105.60	3.05	-83.1	-79.0	2.3	0.00e+00	0	47	104	0	60	1048569
2026-01-18 15:40:26.57	105.51	3.12	-83.1	-79.0	2.3	0.00e+00	0	47	104	0	60	1048571
2026-01-18 15:40:27.58	105.43	3.19	-83.1	-79.0	2.4	0.00e+00	0	48	104	0	60	1048563
2026-01-18 15:40:28.58	105.34	3.25	-83.5	-79.0	2.4	0.00e+00	0	47	104	0	60	1048571
2026-01-18 15:40:29.59	105.25	3.32	-83.5	-79.0	2.4	0.00e+00	0	47	104	0	60	1048572
2026-01-18 15:40:30.60	105.16	3.39	-83.5	-79.0	2.3	0.00e+00	0	47	104	0	60	1048575
2026-01-18 15:40:31.60	105.07	3.45	-83.1	-79.0	2.4	0.00e+00	0	47	104	0	60	1048574
2026-01-18 15:40:32.61	104.98	3.52	-83.5	-79.0	2.4	0.00e+00	0	47	104	0	60	1048575
2026-01-18 15:40:33.61	104.89	3.59	-83.5	-79.0	2.4	0.00e+00	0	47	104	0	60	1048573
2026-01-18 15:40:34.62	104.80	3.66	-83.1	-79.0	2.4	0.00e+00	0	48	104	0	60	1048572
2026-01-18 15:40:35.63	104.71	3.72	-83.1	-79.0	2.4	0.00e+00	0	48	104	0	60	1048575
2026-01-18 15:40:36.64	104.62	3.79	-83.5	-79.0	2.4	0.00e+00	0	48	104	0	60	1048572
2026-01-18 15:40:37.64	104.53	3.86	-83.1	-79.0	2.3	0.00e+00	0	47	104	0	60	1048574
2026-01-18 15:40:38.64	104.44	3.93	-83.5	-79.0	2.4	0.00e+00	0	48	104	0	60	1048573
2026-01-18 15:40:39.65	104.34	3.99	-83.5	-79.0	2.4	0.00e+00	0	48	104	0	60	1048574
2026-01-18 15:40:40.66	104.25	4.06	-83.1	-79.0	2.5	0.00e+00	0	48	104	0	60	1048571
2026-01-18 15:40:41.67	104.15	4.13	-83.5	-79.0	2.3	0.00e+00	0	48	104	0	60	1048574
2026-01-18 15:40:42.68	104.06	4.20	-83.5	-79.0	2.4	0.00e+00	0	48	104	0	60	1048575
2026-01-18 15:40:43.68	103.96	4.27	-83.5	-79.0	2.4	0.00e+00	0	47	104	0	60	1048572
2026-01-18 15:40:44.69	103.87	4.34	-83.1	-79.0	2.4	0.00e+00	0	48	104	0	60	1048572
2026-01-18 15:40:45.70	103.77	4.41	-83.1	-79.0	2.4	0.00e+00	0	48	104	0	60	1048573
2026-01-18 15:40:46.70	103.67	4.48	-83.5	-79.0	2.4	0.00e+00	0	48	104	0	60	1048575
2026-01-18 15:40:47.71	103.57	4.55	-83.1	-79.0	2.4	0.00e+00	0	48	104	0	60	1048571
2026-01-18 15:40:48.72	103.47	4.62	-83.5	-79.0	2.4	0.00e+00	0	48	104	0	60	1048574
2026-01-18 15:40:49.73	103.37	4.69	-83.1	-79.0	2.2	0.00e+00	0	48	104	0	60	1048572
2026-01-18 15:40:50.73	103.28	4.76	-83.1	-79.0	2.4	0.00e+00	0	48	104	0	60	1048574
2026-01-18 15:40:51.74	103.17	4.83	-83.1	-79.0	2.2	0.00e+00	0	48	104	0	60	1048569
2026-01-18 15:40:52.75	103.07	4.90	-83.5	-79.0	2.4	0.00e+00	0	48	104	0	60	1048571
2026-01-18 15:40:53.76	102.97	4.97	-83.5	-79.0	2.4	0.00e+00	0	48	104	0	60	1048574
2026-01-18 15:40:54.76	102.87	5.04	-82.8	-79.0	2.5	0.00e+00	0	48	104	0	60	1048569
2026-01-18 15:40:55.76	102.77	5.11	-83.1	-79.0	2.4	0.00e+00	0	48	104	0	60	1048573
2026-01-18 15:40:56.77	102.66	5.18	-83.5	-79.0	2.4	0.00e+00	0	48	104	0	60	1048563
2026-01-18 15:40:57.78	102.56	5.25	-83.5	-79.0	2.4	0.00e+00	0	48	104	0	60	1048575
2026-01-18 15:40:58.79	102.45	5.33	-83.5	-79.0	2.4	0.00e+00	0	48	104	0	60	1048574
2026-01-18 15:40:59.80	102.35	5.40	-83.1	-79.0	2.4	0.00e+00	0	48	104	0	60	1048574
2026-01-18 15:41:00.81	102.24	5.47	-83.1	-79.0	2.4	0.00e+00	0	48	104	0	60	1048575
2026-01-18 15:41:01.81	102.13	5.54	-83.5	-79.0	2.4	0.00e+00	0	48	104	0	60	1048571
2026-01-18 15:41:02.82	102.02	5.61	-83.5	-79.0	2.4	0.00e+00	0	48	104	0	60	1048573
2026-01-18 15:41:03.83	101.92	5.69	-83.5	-79.0	2.4	0.00e+00	0	48	104	0	60	1048575
2026-01-18 15:41:04.83	101.81	5.76	-83.1	-79.0	2.3	0.00e+00	0	48	104	0	60	1048575
2026-01-18 15:41:05.84	101.70	5.83	-83.5	-79.0	2.3	0.00e+00	0	48	104	0	60	1048574
2026-01-18 15:41:06.84	101.59	5.91	-83.1	-79.0	2.4	0.00e+00	0	48	104	0	60	1048574
2026-01-18 15:41:07.85	101.48	5.98	-83.1	-79.0	2.2	0.00e+00	0	48	104	0	60	1048575
2026-01-18 15:41:08.86	101.36	6.05	-83.1	-79.0	2.4	0.00e+00	0	48	104	0	60	1048574
2026-01-18 15:41:09.87	101.25	6.13	-83.5	-79.0	2.3	0.00e+00	0	48	104	0	60	1048573
2026-01-18 15:41:10.88	101.14	6.20	-83.5	-79.0	2.4	0.00e+00	0	48	104	0	60	1048571
2026-01-18 15:41:11.88	101.02	6.27	-83.5	-79.0	2.2	0.00e+00	0	48	104	0	60	1048567
2026-01-18 15:41:12.89	100.91	6.35	-83.5	-79.0	2.4	0.00e+00	0	48	104	0	60	1048565
2026-01-18 15:41:13.90	100.79	6.42	-83.1	-79.0	2.3	0.00e+00	0	48	104	0	60	1048571
2026-01-18 15:41:14.91	100.67	6.50	-83.5	-79.0	2.5	0.00e+00	0	48	104	0	60	1048571
2026-01-18 15:41:15.92	100.56	6.57	-83.5	-79.0	2.4	0.00e+00	0	48	104	0	60	1048571
2026-01-18 15:41:16.92	100.44	6.65	-83.5	-79.0	2.4	0.00e+00	0	48	104	0	60	1048575
2026-01-18 15:41:17.93	100.32	6.72	-83.5	-79.0	2.4	0.00e+00	0	48	104	0	60	1048575
2026-01-18 15:41:18.94	100.20	6.80	-83.1	-79.0	2.5	0.00e+00	0	48	104	0	60	1048570
2026-01-18 15:41:19.95	100.08	6.87	-83.5	-79.0	2.4	0.00e+00	0	48	104	0	60	1048570
2026-01-18 15:41:20.95	99.96	6.95	-83.1	-79.0	2.4	0.00e+00	0	48	104	0	60	1048575
2026-01-18 15:41:21.96	99.84	7.03	-83.5	-79.0	2.3	0.00e+00	0	48	104	0	60	1048573
2026-01-18 15:41:22.96	99.71	7.10	-83.1	-79.0	2.4	0.00e+00	0	48	104	0	60	1048575
2026-01-18 15:41:23.97	99.59	7.18	-83.1	-79.0	2.5	0.00e+00	0	48	104	0	60	1048571
2026-01-18 15:41:24.98	99.46	7.26	-83.1	-79.0	2.2	0.00e+00	0	48	104	0	60	1048574
2026-01-18 15:41:25.98	99.34	7.33	-83.5	-79.0	2.3	0.00e+00	0	48	104	0	60	1048575
2026-01-18 15:41:26.98	99.22	7.41	-83.5	-79.0	2.5	0.00e+00	0	48	104	0	60	1048564
2026-01-18 15:41:27.99	99.09	7.49	-83.1	-79.0	2.3	0.00e+00	0	48	104	0	60	1048575
2026-01-18 15:41:28.99	98.96	7.56	-83.5	-79.0	2.4	0.00e+00	0	48	104	0	60	1048572
2026-01-18 15:41:30.00	98.83	7.64	-83.5	-79.0	2.4	0.00e+00	0	48	104	0	60	1048573
2026-01-18 15:41:31.01	98.70	7.72	-83.5	-79.0	2.3	0.00e+00	0	48	104	0	60	1048572
2026-01-18 15:41:32.01	98.57	7.79	-83.5	-79.0	2.3	0.00e+00	0	48	104	0	60	1048575
2026-01-18 15:41:33.02	98.44	7.87	-83.1	-79.0	2.4	0.00e+00	0	48	104	0	60	1048566
2026-01-18 15:41:34.02	98.31	7.95	-83.5	-79.0	2.4	0.00e+00	0	48	104	0	60	1048575
2026-01-18 15:41:35.03	98.17	8.03	-83.5	-79.0	2.5	0.00e+00	0	48	104	0	60	1048574
2026-01-18 15:41:36.04	98.04	8.11	-83.5	-79.0	2.3	0.00e+00	0	48	104	0	60	1048575
2026-01-18 15:41:37.05	97.90	8.19	-83.1	-79.0	2.4	0.00e+00	0	48	104	0	60	1048573
2026-01-18 15:41:38.05	97.77	8.27	-83.1	-79.0	2.4	0.00e+00	0	48	104	0	60	1048574
2026-01-18 15:41:39.06	97.63	8.35	-83.5	-79.0	2.5	0.00e+00	0	48	104	0	60	1048574
2026-01-18 15:41:40.07	97.49	8.43	-83.5	-79.0	2.4	0.00e+00	0	48	104	0	60	1048574
2026-01-18 15:41:41.08	97.36	8.51	-83.5	-79.0	2.5	0.00e+00	0	48	104	0	60	1048570
2026-01-18 15:41:42.08	97.22	8.58	-82.8	-79.0	2.2	0.00e+00	0	48	104	0	60	1048574
2026-01-18 15:41:43.09	97.08	8.67	-83.1	-79.0	2.3	0.00e+00	0	48	104	0	60	1048574
2026-01-18 15:41:44.09	96.93	8.74	-83.5	-79.0	2.5	0.00e+00	0	48	104	0	60	1048573
2026-01-18 15:41:45.10	96.79	8.83	-83.5	-79.0	2.4	0.00e+00	0	48	104	0	60	1048575
2026-01-18 15:41:46.11	96.65	8.91	-83.5	-79.0	2.4	0.00e+00	0	48	104	0	60	1048572
2026-01-18 15:41:47.11	96.50	8.99	-83.1	-79.0	2.4	0.00e+00	0	48	104	0	60	1048571
2026-01-18 15:41:48.12	96.36	9.07	-83.5	-79.0	2.5	0.00e+00	0	48	104	0	60	1048575
2026-01-18 15:41:49.13	96.21	9.15	-83.5	-79.0	2.4	0.00e+00	0	48	104	0	60	1048575
2026-01-18 15:41:50.13	96.06	9.23	-83.5	-79.0	2.3	0.00e+00	0	48	104	0	60	1048573
2026-01-18 15:41:51.14	95.91	9.31	-83.5	-79.0	2.4	0.00e+00	0	48	104	0	60	1048569
2026-01-18 15:41:52.15	95.76	9.39	-83.1	-79.0	2.4	0.00e+00	0	48	104	0	60	1048572
2026-01-18 15:41:53.15	95.61	9.48	-83.5	-79.0	2.3	0.00e+00	0	48	104	0	60	1048573
2026-01-18 15:41:54.16	95.46	9.56	-83.1	-79.0	2.4	0.00e+00	0	48	104	0	60	1048573
2026-01-18 15:41:55.17	95.31	9.64	-83.5	-79.0	2.4	0.00e+00	0	48	104	0	60	1048575
2026-01-18 15:41:56.17	95.16	9.72	-82.8	-79.0	2.4	0.00e+00	0	48	104	0	60	1048572
2026-01-18 15:41:57.18	95.00	9.81	-83.1	-79.0	2.4	0.00e+00	0	48	104	0	60	1048574
2026-01-18 15:41:58.18	94.85	9.89	-83.5	-79.0	2.4	0.00e+00	0	48	104	0	60	1048571
2026-01-18 15:41:59.19	94.69	9.97	-83.5	-79.0	2.4	0.00e+00	0	48	104	0	60	1048575
2026-01-18 15:42:00.20	94.53	10.06	-83.5	-79.0	2.3	0.00e+00	0	48	104	0	60	1048573
2026-01-18 15:42:01.20	94.37	10.14	-82.8	-79.0	2.4	0.00e+00	0	48	104	0	60	1048575
2026-01-18 15:42:02.21	94.21	10.22	-82.8	-79.0	2.4	0.00e+00	0	48	104	0	60	1048575
2026-01-18 15:42:03.22	94.05	10.31	-83.1	-79.0	2.4	0.00e+00	0	48	104	0	60	1048575
2026-01-18 15:42:04.23	93.88	10.39	-83.5	-79.0	2.4	0.00e+00	0	48	104	0	60	1048574
2026-01-18 15:42:05.24	93.72	10.48	-83.5	-79.0	2.4	0.00e+00	0	49	104	0	60	1048571
2026-01-18 15:42:06.24	93.55	10.56	-83.1	-79.0	2.3	0.00e+00	0	48	104	0	60	1048572
2026-01-18 15:42:07.25	93.39	10.65	-82.8	-79.0	2.4	0.00e+00	0	48	104	0	60	1048572
2026-01-18 15:42:08.26	93.22	10.73	-83.5	-79.0	2.4	0.00e+00	0	48	104	0	60	1048564
2026-01-18 15:42:09.27	93.05	10.82	-83.5	-79.0	2.3	0.00e+00	0	48	104	0	60	1048573
2026-01-18 15:42:10.27	92.88	10.90	-83.5	-79.0	2.3	0.00e+00	0	48	104	0	60	1048574
2026-01-18 15:42:11.28	92.71	10.99	-83.1	-79.0	2.4	0.00e+00	0	48	104	0	60	1048573
2026-01-18 15:42:12.29	92.54	11.07	-83.5	-79.0	2.4	0.00e+00	0	48	104	0	60	1048568
2026-01-18 15:42:13.30	92.36	11.16	-83.5	-79.0	2.4	0.00e+00	0	48	104	0	60	1048575
2026-01-18 15:42:14.31	92.19	11.24	-83.5	-79.0	2.4	0.00e+00	0	48	104	0	60	1048573
2026-01-18 15:42:15.31	92.01	11.33	-83.1	-79.0	2.4	0.00e+00	0	48	104	0	60	1048574
2026-01-18 15:42:16.32	91.83	11.42	-83.1	-79.0	2.5	0.00e+00	0	48	104	0	60	1048574
2026-01-18 15:42:17.33	91.65	11.50	-83.5	-79.0	2.4	0.00e+00	0	48	104	0	60	1048570
2026-01-18 15:42:18.34	91.47	11.59	-83.5	-79.0	2.4	0.00e+00	0	48	104	0	60	1048575
2026-01-18 15:42:19.35	91.29	11.68	-83.5	-79.0	2.5	0.00e+00	0	48	104	0	60	1048575
2026-01-18 15:42:20.35	91.11	11.76	-83.1	-79.0	2.4	0.00e+00	0	48	104	0	60	1048575
2026-01-18 15:42:21.36	90.92	11.85	-83.1	-79.0	2.5	0.00e+00	0	48	104	0	60	1048573
2026-01-18 15:42:22.36	90.74	11.94	-83.5	-79.0	2.4	0.00e+00	0	48	104	0	60	1048574
2026-01-18 15:42:23.37	90.55	12.02	-83.5	-79.0	2.4	0.00e+00	0	48	104	0	60	1048569
2026-01-18 15:42:24.38	90.36	12.11	-83.1	-79.0	2.3	0.00e+00	0	48	104	0	60	1048575
2026-01-18 15:42:25.38	90.17	12.20	-83.1	-79.0	2.4	0.00e+00	0	48	104	0	60	1048574
2026-01-18 15:42:26.39	89.98	12.29	-83.5	-79.0	2.4	0.00e+00	0	48	104	0	60	1048572
2026-01-18 15:42:27.39	89.79	12.37	-83.5	-79.0	2.4	0.00e+00	0	48	104	0	60	1048575
2026-01-18 15:42:28.39	89.60	12.46	-83.5	-79.0	2.4	0.00e+00	0	48	104	0	60	1048573
2026-01-18 15:42:29.40	89.40	12.55	-83.1	-79.0	2.4	0.00e+00	0	48	104	0	60	1048568
2026-01-18 15:42:30.41	89.21	12.64	-83.1	-79.0	2.3	0.00e+00	0	48	104	0	60	1048572
2026-01-18 15:42:31.42	89.01	12.73	-83.5	-79.0	2.4	0.00e+00	0	48	104	0	60	1048575
2026-01-18 15:42:32.43	88.81	12.82	-83.5	-79.0	2.4	0.00e+00	0	49	104	0	60	1048575
2026-01-18 15:42:33.43	88.61	12.91	-83.5	-79.0	2.2	0.00e+00	0	48	104	0	60	1048575
2026-01-18 15:42:34.44	88.40	12.99	-82.8	-79.0	2.3	0.00e+00	0	48	104	0	60	1048572
2026-01-18 15:42:35.45	88.20	13.08	-83.5	-79.0	2.4	0.00e+00	0	48	104	0	60	1048574
2026-01-18 15:42:36.46	87.99	13.17	-83.5	-79.0	2.5	0.00e+00	0	48	104	0	60	1048572
2026-01-18 15:42:37.46	87.79	13.26	-83.5	-79.0	2.5	0.00e+00	0	48	104	0	60	1048572
2026-01-18 15:42:38.47	87.58	13.35	-83.5	-79.0	2.4	0.00e+00	0	48	104	0	60	1048574
2026-01-18 15:42:39.48	87.37	13.44	-83.1	-79.0	2.4	0.00e+00	0	48	104	0	60	1048572
2026-01-18 15:42:40.48	87.16	13.53	-83.1	-79.0	2.4	0.00e+00	0	48	104	0	60	1048575
2026-01-18 15:42:41.49	86.95	13.62	-83.5	-79.0	2.4	0.00e+00	0	48	104	0	60	1048565
2026-01-18 15:42:42.50	86.73	13.71	-83.5	-79.0	2.4	0.00e+00	0	48	104	0	60	1048575
2026-01-18 15:42:43.51	86.51	13.80	-83.5	-79.0	2.4	0.00e+00	0	49	104	0	60	1048570
2026-01-18 15:42:44.51	86.30	13.89	-83.1	-79.0	2.4	0.00e+00	0	48	104	0	60	1048572
2026-01-18 15:42:45.52	86.08	13.98	-83.5	-79.0	2.4	0.00e+00	0	48	104	0	60	1048575
2026-01-18 15:42:46.53	85.86	14.07	-83.5	-79.0	2.5	0.00e+00	0	48	104	0	60	1048575
2026-01-18 15:42:47.54	85.63	14.16	-83.1	-79.0	2.3	0.00e+00	0	48	104	0	60	1048572
2026-01-18 15:42:48.54	85.41	14.25	-83.1	-79.0	2.3	0.00e+00	0	49	104	0	60	1048572
2026-01-18 15:42:49.55	85.18	14.34	-83.1	-79.0	2.4	0.00e+00	0	49	104	0	60	1048575
2026-01-18 15:42:50.56	84.96	14.43	-83.5	-79.0	2.4	0.00e+00	0	48	104	0	60	1048573
2026-01-18 15:42:51.57	84.73	14.52	-83.5	-79.0	2.4	0.00e+00	0	48	104	0	60	1048574
2026-01-18 15:42:52.58	84.49	14.61	-83.5	-79.0	2.5	0.00e+00	0	48	104	0	60	1048575
2026-01-18 15:42:53.58	84.26	14.70	-83.1	-79.0	2.4	0.00e+00	0	48	104	0	60	1048574
2026-01-18 15:42:54.59	84.03	14.79	-83.1	-79.0	2.6	0.00e+00	0	48	104	0	60	1048566
2026-01-18 15:42:55.59	83.79	14.88	-83.5	-79.0	2.4	0.00e+00	0	48	104	0	60	1048574
2026-01-18 15:42:56.60	83.56	14.97	-83.5	-79.0	2.5	0.00e+00	0	49	104	0	60	1048569
2026-01-18 15:42:57.61	83.32	15.06	-83.5	-79.0	2.5	0.00e+00	0	49	104	0	60	1048570
2026-01-18 15:42:58.61	83.08	15.15	-83.1	-79.0	2.4	0.00e+00	0	49	104	0	60	1048570
2026-01-18 15:42:59.62	82.83	15.24	-83.5	-79.0	2.4	0.00e+00	0	49	104	0	60	1048575
2026-01-18 15:43:00.62	82.59	15.33	-83.5	-79.0	2.4	0.00e+00	0	49	104	0	60	1048575
2026-01-18 15:43:01.62	82.35	15.42	-83.5	-79.0	2.5	0.00e+00	0	48	104	0	60	1048573
2026-01-18 15:43:02.63	82.10	15.51	-83.5	-79.0	2.5	0.00e+00	0	48	104	0	60	1048575
2026-01-18 15:43:03.63	81.85	15.60	-83.1	-79.0	2.5	0.00e+00	0	48	104	0	60	1048575
2026-01-18 15:43:04.63	81.60	15.69	-83.5	-79.0	2.5	0.00e+00	0	48	104	0	60	1048575
2026-01-18 15:43:05.64	81.35	15.78	-83.5	-79.0	2.2	0.00e+00	0	49	104	0	60	1048573
2026-01-18 15:43:06.64	81.09	15.87	-83.5	-79.0	2.3	0.00e+00	0	48	104	0	60	1048575
2026-01-18 15:43:07.65	80.84	15.96	-83.1	-79.0	2.3	0.00e+00	0	48	104	0	60	1048574
2026-01-18 15:43:08.66	80.58	16.05	-83.1	-79.0	2.3	0.00e+00	0	48	104	0	60	1048568
2026-01-18 15:43:09.66	80.32	16.14	-83.1	-79.0	2.4	0.00e+00	0	48	104	0	60	1048563
2026-01-18 15:43:10.68	80.05	16.23	-83.5	-79.0	2.4	0.00e+00	0	48	104	0	60	1048575
2026-01-18 15:43:11.68	79.79	16.32	-83.5	-79.0	2.3	0.00e+00	0	48	104	0	60	1048563
2026-01-18 15:43:12.69	79.52	16.41	-83.1	-79.0	2.4	0.00e+00	0	48	104	0	60	1048575
2026-01-18 15:43:13.69	79.26	16.50	-83.1	-79.0	2.3	0.00e+00	0	49	104	0	60	1048573
2026-01-18 15:43:14.70	78.99	16.59	-83.5	-79.0	2.5	0.00e+00	0	49	104	0	60	1048569
2026-01-18 15:43:15.70	78.72	16.67	-83.5	-79.0	2.3	0.00e+00	0	49	104	0	60	1048571
2026-01-18 15:43:16.71	78.44	16.76	-83.5	-79.0	2.5	0.00e+00	0	48	104	0	60	1048571
2026-01-18 15:43:17.72	78.17	16.85	-83.1	-79.0	2.3	0.00e+00	0	49	104	0	60	1048573
2026-01-18 15:43:18.72	77.89	16.94	-83.1	-79.0	2.4	0.00e+00	0	49	104	0	60	1048569
2026-01-18 15:43:19.73	77.61	17.03	-83.5	-79.0	2.3	0.00e+00	0	49	104	0	60	1048575
2026-01-18 15:43:20.74	77.33	17.12	-83.1	-79.0	2.4	0.00e+00	0	49	104	0	60	1048575
2026-01-18 15:43:21.75	77.04	17.20	-83.5	-79.0	2.3	0.00e+00	0	49	104	0	60	1048573
2026-01-18 15:43:22.75	76.76	17.29	-83.5	-79.0	2.4	0.00e+00	0	49	104	0	60	1048570
2026-01-18 15:43:23.75	76.48	17.38	-83.5	-79.0	2.4	0.00e+00	0	49	104	0	60	1048568
2026-01-18 15:43:24.76	76.19	17.46	-83.5	-79.0	2.4	0.00e+00	0	49	104	0	60	1048568
2026-01-18 15:43:25.76	75.90	17.55	-83.5	-79.0	2.3	0.00e+00	0	48	104	0	60	1048574
2026-01-18 15:43:26.77	75.60	17.64	-83.1	-79.0	2.3	0.00e+00	0	49	104	0	60	1048573
2026-01-18 15:43:27.76	75.31	17.72	-83.1	-79.0	2.3	0.00e+00	0	48	104	0	60	1048575
2026-01-18 15:43:28.76	75.02	17.81	-83.5	-79.0	2.4	0.00e+00	0	48	104	0	60	1048575
2026-01-18 15:43:29.76	74.72	17.89	-83.5	-79.0	2.4	0.00e+00	0	49	104	0	60	1048575
2026-01-18 15:43:30.77	74.42	17.98	-83.5	-79.0	2.4	0.00e+00	0	49	104	0	60	1048571
2026-01-18 15:43:31.78	74.12	18.06	-83.1	-79.0	2.3	0.00e+00	0	49	104	0	60	1048572
2026-01-18 15:43:32.79	73.81	18.15	-83.5	-79.0	2.3	0.00e+00	0	48	104	0	60	1048567
2026-01-18 15:43:33.80	73.51	18.23	-83.5	-79.0	2.4	0.00e+00	0	49	104	0	60	1048573
2026-01-18 15:43:34.80	73.20	18.31	-83.5	-79.0	2.4	0.00e+00	0	49	104	0	60	1048572
2026-01-18 15:43:35.80	72.89	18.40	-83.1	-79.0	2.4	0.00e+00	0	48	104	0	60	1048573
2026-01-18 15:43:36.81	72.58	18.48	-83.1	-79.0	2.4	0.00e+00	0	48	104	0	60	1048575
2026-01-18 15:43:37.82	72.26	18.56	-83.5	-79.0	2.6	0.00e+00	0	49	104	0	60	1048575
2026-01-18 15:43:38.83	71.95	18.64	-83.5	-79.0	2.2	0.00e+00	0	49	104	0	60	1048574
2026-01-18 15:43:39.84	71.63	18.72	-83.5	-79.0	2.4	0.00e+00	0	49	104	0	60	1048572
2026-01-18 15:43:40.84	71.31	18.80	-83.5	-79.0	2.3	0.00e+00	0	49	104	0	60	1048574
2026-01-18 15:43:41.85	70.99	18.88	-83.1	-79.0	2.4	0.00e+00	0	49	104	0	60	1048573
2026-01-18 15:43:42.86	70.66	18.96	-83.1	-79.0	2.3	0.00e+00	0	49	104	0	60	1048572
2026-01-18 15:43:43.87	70.33	19.04	-83.5	-79.0	2.4	0.00e+00	0	49	104	0	60	1048573
2026-01-18 15:43:44.88	70.01	19.12	-83.5	-79.0	2.4	0.00e+00	0	49	104	0	60	1048575
2026-01-18 15:43:45.88	69.68	19.20	-83.1	-79.0	2.4	0.00e+00	0	49	104	0	60	1048574
2026-01-18 15:43:46.89	69.35	19.28	-83.1	-79.0	2.4	0.00e+00	0	49	104	0	60	1048573
2026-01-18 15:43:47.90	69.01	19.36	-83.1	-79.0	2.4	0.00e+00	0	49	104	0	60	1048575
2026-01-18 15:43:48.91	68.67	19.43	-83.5	-79.0	2.4	0.00e+00	0	49	104	0	60	1048575
2026-01-18 15:43:49.92	68.34	19.51	-83.5	-79.0	2.3	0.00e+00	0	49	104	0	60	1048575
2026-01-18 15:43:50.92	68.00	19.58	-83.1	-79.0	2.4	0.00e+00	0	49	104	0	60	1048575
2026-01-18 15:43:51.93	67.66	19.66	-83.1	-79.0	2.4	0.00e+00	0	49	104	0	60	1048575
2026-01-18 15:43:52.94	67.31	19.73	-83.5	-79.0	2.5	0.00e+00	0	49	104	0	60	1048574
2026-01-18 15:43:53.95	66.97	19.81	-83.5	-79.0	2.4	0.00e+00	0	49	104	0	60	1048575
2026-01-18 15:43:54.95	66.62	19.88	-83.5	-79.0	2.6	0.00e+00	0	49	104	0	60	1048575
2026-01-18 15:43:55.95	66.27	19.95	-83.1	-79.0	2.4	0.00e+00	0	49	104	0	60	1048561
2026-01-18 15:43:56.96	65.92	20.02	-83.5	-79.0	2.4	0.00e+00	0	49	104	0	60	1048574
2026-01-18 15:43:57.97	65.57	20.09	-83.5	-79.0	2.5	0.00e+00	0	49	104	0	60	1048573
2026-01-18 15:43:58.97	65.22	20.16	-83.5	-79.0	2.3	0.00e+00	0	49	104	0	60	1048571
2026-01-18 15:43:59.98	64.86	20.23	-83.1	-79.0	2.3	0.00e+00	0	49	104	0	60	1048565
2026-01-18 15:44:00.99	64.50	20.29	-83.1	-79.0	2.5	0.00e+00	0	49	104	0	60	1048575
2026-01-18 15:44:02.00	64.14	20.36	-83.5	-79.0	2.4	0.00e+00	0	49	104	0	60	1048572
2026-01-18 15:44:03.00	63.78	20.43	-83.5	-79.0	2.3	0.00e+00	0	49	104	0	60	1048571
2026-01-18 15:44:04.01	63.42	20.49	-83.5	-79.0	2.4	0.00e+00	0	49	104	0	60	1048572
2026-01-18 15:44:05.01	63.05	20.56	-83.1	-79.0	2.5	0.00e+00	0	49	104	0	60	1048574
2026-01-18 15:44:06.02	62.69	20.62	-83.1	-79.0	2.4	0.00e+00	0	49	104	0	60	1048571
2026-01-18 15:44:07.02	62.32	20.68	-83.1	-79.0	2.4	0.00e+00	0	49	104	0	60	1048574
2026-01-18 15:44:08.03	61.95	20.74	-83.1	-79.0	2.5	0.00e+00	0	49	104	0	60	1048575
2026-01-18 15:44:09.03	61.58	20.80	-83.5	-79.0	2.3	0.00e+00	0	49	104	0	60	1048575
2026-01-18 15:44:10.04	61.20	20.86	-83.1	-79.0	2.3	0.00e+00	0	49	104	0	60	1048568
2026-01-18 15:44:11.04	60.83	20.92	-83.5	-79.0	2.3	0.00e+00	0	49	104	0	60	1048572
2026-01-18 15:44:12.05	60.45	20.98	-83.5	-79.0	2.8	0.00e+00	0	49	104	0	60	1048575
2026-01-18 15:44:13.06	60.07	21.04	-83.5	-79.0	2.2	0.00e+00	0	49	104	0	60	1048571
2026-01-18 15:44:14.06	59.70	21.09	-82.8	-79.0	2.5	0.00e+00	0	49	104	0	60	1048568
2026-01-18 15:44:15.07	59.31	21.15	-83.1	-79.0	2.3	0.00e+00	0	49	104	0	60	1048575
2026-01-18 15:44:16.07	58.93	21.20	-83.5	-79.0	2.4	0.00e+00	0	49	104	0	60	1048575
2026-01-18 15:44:17.08	58.55	21.25	-83.5	-79.0	2.5	0.00e+00	0	49	104	0	60	1048565
2026-01-18 15:44:18.09	58.16	21.30	-83.5	-79.0	2.3	0.00e+00	0	49	104	0	60	1048567
2026-01-18 15:44:19.10	57.77	21.35	-83.1	-79.0	2.4	0.00e+00	0	49	104	0	60	1048570
2026-01-18 15:44:20.10	57.39	21.40	-83.1	-79.0	2.3	0.00e+00	0	49	104	0	60	1048573
2026-01-18 15:44:21.10	57.00	21.45	-83.5	-79.0	2.4	0.00e+00	0	49	104	0	60	1048575
2026-01-18 15:44:22.11	56.61	21.50	-83.5	-79.0	2.4	0.00e+00	0	49	104	0	60	1048562
2026-01-18 15:44:23.12	56.21	21.54	-83.5	-79.0	2.4	0.00e+00	0	49	104	0	60	1048573
2026-01-18 15:44:24.12	55.82	21.59	-83.1	-79.0	2.4	0.00e+00	0	49	104	0	60	1048572
2026-01-18 15:44:25.13	55.42	21.63	-83.1	-79.0	2.3	0.00e+00	0	49	104	0	60	1048575
2026-01-18 15:44:26.13	55.03	21.67	-83.5	-79.0	2.4	0.00e+00	0	49	104	0	60	1048574
2026-01-18 15:44:27.14	54.63	21.71	-83.5	-79.0	2.4	0.00e+00	0	49	104	0	60	1048572
2026-01-18 15:44:28.14	54.24	21.75	-83.1	-79.0	2.5	0.00e+00	0	49	104	0	60	1048573
2026-01-18 15:44:29.14	53.84	21.79	-83.1	-79.0	2.4	0.00e+00	0	49	104	0	60	1048574
2026-01-18 15:44:30.15	53.44	21.83	-83.5	-79.0	2.2	0.00e+00	0	49	104	0	60	1048574
2026-01-18 15:44:31.16	53.03	21.86	-83.5	-79.0	2.5	0.00e+00	0	49	104	0	60	1048572
2026-01-18 15:44:32.17	52.63	21.90	-83.5	-79.0	2.4	0.00e+00	0	49	104	0	60	1048572
2026-01-18 15:44:33.17	52.23	21.93	-83.1	-79.0	2.4	0.00e+00	0	49	104	0	60	1048575
2026-01-18 15:44:34.18	51.82	21.96	-82.8	-79.0	2.4	0.00e+00	0	49	104	0	60	1048571
2026-01-18 15:44:35.19	51.41	21.99	-83.5	-79.0	2.5	0.00e+00	0	49	104	0	60	1048573
2026-01-18 15:44:36.20	51.01	22.02	-83.5	-79.0	2.4	0.00e+00	0	49	104	0	60	1048572
2026-01-18 15:44:37.20	50.60	22.05	-83.5	-79.0	2.5	0.00e+00	0	49	104	0	60	1048575
2026-01-18 15:44:38.21	50.19	22.07	-83.1	-79.0	2.5	0.00e+00	0	49	104	0	60	1048575
2026-01-18 15:44:39.22	49.78	22.10	-83.5	-79.0	2.4	0.00e+00	0	49	104	0	60	1048567
2026-01-18 15:44:40.23	49.37	22.12	-83.5	-79.0	2.4	0.00e+00	0	49	104	0	60	1048573
2026-01-18 15:44:41.23	48.96	22.14	-83.5	-79.0	2.4	0.00e+00	0	49	104	0	60	1048575
2026-01-18 15:44:42.23	48.55	22.16	-83.5	-79.0	2.3	0.00e+00	0	49	104	0	60	1048575
2026-01-18 15:44:43.24	48.14	22.18	-83.1	-79.0	2.4	0.00e+00	0	49	104	0	60	1048574
2026-01-18 15:44:44.25	47.73	22.20	-83.1	-79.0	2.4	0.00e+00	0	49	104	0	60	1048574
2026-01-18 15:44:45.25	47.32	22.22	-83.5	-79.0	2.4	0.00e+00	0	49	104	0	60	1048574
2026-01-18 15:44:46.26	46.90	22.23	-83.5	-79.0	2.4	0.00e+00	0	49	104	0	60	1048572
2026-01-18 15:44:47.26	46.49	22.25	-83.1	-79.0	2.3	0.00e+00	0	49	104	0	60	1048570
2026-01-18 15:44:48.26	46.08	22.26	-82.8	-79.0	2.4	0.00e+00	0	49	104	0	60	1048570
2026-01-18 15:44:49.27	45.66	22.27	-83.5	-79.0	2.4	0.00e+00	0	49	104	0	60	1048566
2026-01-18 15:44:50.27	45.25	22.28	-83.5	-79.0	2.4	0.00e+00	0	49	104	0	60	1048575
2026-01-18 15:44:51.28	44.84	22.29	-83.5	-79.0	2.4	0.00e+00	0	49	104	0	60	1048575
2026-01-18 15:44:52.29	44.42	22.29	-83.5	-79.0	2.5	0.00e+00	0	49	104	0	60	1048573
2026-01-18 15:44:53.30	44.00	22.30	-82.8	-79.0	2.4	0.00e+00	0	49	104	0	60	1048570
2026-01-18 15:44:54.31	43.59	22.30	-83.1	-79.0	2.4	0.00e+00	0	49	104	0	60	1048573
2026-01-18 15:44:55.31	43.17	22.30	-83.5	-79.0	2.3	0.00e+00	0	49	104	0	60	1048570
2026-01-18 15:44:56.31	42.76	22.30	-83.5	-79.0	2.4	0.00e+00	0	49	104	0	60	1048570
2026-01-18 15:44:57.32	42.34	22.30	-83.1	-79.0	2.4	0.00e+00	0	49	104	0	60	1048572
2026-01-18 15:44:58.33	41.93	22.30	-83.1	-79.0	2.4	0.00e+00	0	49	104	0	60	1048573
2026-01-18 15:44:59.33	41.51	22.30	-83.5	-79.0	2.3	0.00e+00	0	49	104	0	60	1048574
2026-01-18 15:45:00.34	41.10	22.29	-83.1	-79.0	2.4	0.00e+00	0	49	104	0	60	1048575
2026-01-18 15:45:01.34	40.69	22.29	-83.5	-79.0	2.3	0.00e+00	0	49	104	0	60	1048573
2026-01-18 15:45:02.35	40.27	22.28	-82.8	-79.0	2.4	0.00e+00	0	49	104	0	60	1048574
2026-01-18 15:45:03.35	39.86	22.27	-83.5	-79.0	2.3	0.00e+00	0	49	104	0	60	1048566
2026-01-18 15:45:04.35	39.45	22.26	-83.5	-79.0	2.2	0.00e+00	0	49	104	0	60	1048568
2026-01-18 15:45:05.36	39.03	22.24	-83.5	-79.0	2.5	0.00e+00	0	49	104	0	60	1048574
2026-01-18 15:45:06.37	38.62	22.23	-83.1	-79.0	2.4	0.00e+00	0	49	104	0	60	1048559
2026-01-18 15:45:07.38	38.20	22.21	-83.1	-79.0	2.3	0.00e+00	0	49	104	0	60	1048572
2026-01-18 15:45:08.38	37.79	22.20	-83.5	-79.0	2.3	0.00e+00	0	49	104	0	60	1048572
2026-01-18 15:45:09.39	37.38	22.18	-83.1	-79.0	2.3	0.00e+00	0	49	104	0	60	1048573
2026-01-18 15:45:10.40	36.97	22.16	-83.5	-79.0	2.4	0.00e+00	0	49	104	0	60	1048575
2026-01-18 15:45:11.40	36.56	22.14	-83.1	-79.0	2.4	0.00e+00	0	49	104	0	60	1048571
2026-01-18 15:45:12.41	36.15	22.12	-83.1	-79.0	2.4	0.00e+00	0	49	104	0	60	1048575
2026-01-18 15:45:13.42	35.74	22.09	-83.5	-79.0	2.4	0.00e+00	0	49	104	0	60	1048574
2026-01-18 15:45:14.43	35.33	22.07	-83.5	-79.0	2.4	0.00e+00	0	49	104	0	60	1048573
2026-01-18 15:45:15.43	34.92	22.04	-83.5	-79.0	2.4	0.00e+00	0	49	104	0	60	1048574
2026-01-18 15:45:16.44	34.51	22.01	-83.1	-79.0	2.4	0.00e+00	0	49	104	0	60	1048575
2026-01-18 15:45:17.45	34.10	21.98	-83.5	-79.0	2.4	0.00e+00	0	49	104	0	60	1048566
2026-01-18 15:45:18.46	33.70	21.95	-83.5	-79.0	2.2	0.00e+00	0	49	104	0	60	1048574
2026-01-18 15:45:19.47	33.29	21.92	-83.5	-79.0	2.3	0.00e+00	0	49	104	0	60	1048574
2026-01-18 15:45:20.47	32.89	21.89	-83.1	-79.0	2.5	0.00e+00	0	49	104	0	60	1048572
2026-01-18 15:45:21.48	32.49	21.85	-83.1	-79.0	2.4	0.00e+00	0	49	104	0	60	1048575
2026-01-18 15:45:22.49	32.09	21.82	-83.1	-79.0	2.5	0.00e+00	0	49	104	0	60	1048574
2026-01-18 15:45:23.50	31.68	21.78	-83.5	-79.0	2.5	0.00e+00	0	49	104	0	60	1048574
2026-01-18 15:45:24.50	31.29	21.74	-83.5	-79.0	2.5	0.00e+00	0	49	104	0	60	1048575
2026-01-18 15:45:25.51	30.89	21.70	-83.1	-79.0	2.4	0.00e+00	0	49	104	0	60	1048573
2026-01-18 15:45:26.52	30.49	21.66	-83.1	-79.0	2.4	0.00e+00	0	49	104	0	60	1048575
2026-01-18 15:45:27.53	30.09	21.62	-83.5	-79.0	2.4	0.00e+00	0	49	104	0	60	1048574
2026-01-18 15:45:28.53	29.70	21.58	-83.5	-79.0	2.4	0.00e+00	0	49	104	0	60	1048574
2026-01-18 15:45:29.54	29.31	21.53	-83.5	-79.0	2.4	0.00e+00	0	49	104	0	60	1048575
2026-01-18 15:45:30.55	28.91	21.49	-83.1	-79.0	2.4	0.00e+00	0	49	104	0	60	1048575
2026-01-18 15:45:31.55	28.53	21.44	-83.1	-79.0	2.4	0.00e+00	0	49	104	0	60	1048567
2026-01-18 15:45:32.56	28.14	21.39	-83.5	-79.0	2.5	0.00e+00	0	49	104	0	60	1048572
2026-01-18 15:45:33.56	27.75	21.34	-83.5	-79.0	2.4	0.00e+00	0	49	104	0	60	1048569
2026-01-18 15:45:34.57	27.36	21.29	-83.5	-79.0	2.4	0.00e+00	0	49	104	0	60	1048573
2026-01-18 15:45:35.58	26.98	21.24	-83.1	-79.0	2.2	0.00e+00	0	49	104	0	60	1048571
2026-01-18 15:45:36.59	26.59	21.19	-83.5	-79.0	2.4	0.00e+00	0	49	104	0	60	1048568
2026-01-18 15:45:37.60	26.21	21.14	-83.5	-79.0	2.4	0.00e+00	0	49	104	0	60	1048574
2026-01-18 15:45:38.60	25.83	21.08	-83.5	-79.0	2.4	0.00e+00	0	49	104	0	60	1048575
2026-01-18 15:45:39.61	25.45	21.03	-83.5	-79.0	2.4	0.00e+00	0	49	104	0	60	1048566
2026-01-18 15:45:40.62	25.07	20.97	-83.1	-79.0	2.4	0.00e+00	0	49	104	0	60	1048573
2026-01-18 15:45:41.63	24.70	20.91	-83.5	-79.0	2.4	0.00e+00	0	49	104	0	60	1048569
2026-01-18 15:45:42.64	24.32	20.85	-83.5	-79.0	2.3	0.00e+00	0	49	104	0	60	1048575
2026-01-18 15:45:43.64	23.95	20.79	-83.5	-79.0	2.4	0.00e+00	0	49	104	0	60	1048574
2026-01-18 15:45:44.65	23.58	20.73	-83.1	-79.0	2.3	0.00e+00	0	49	104	0	60	1048575
2026-01-18 15:45:45.66	23.21	20.67	-83.1	-79.0	2.3	0.00e+00	0	49	104	0	60	1048574
2026-01-18 15:45:46.67	22.84	20.61	-83.5	-79.0	2.3	0.00e+00	0	49	104	0	60	1048572
2026-01-18 15:45:47.67	22.48	20.54	-83.5	-79.0	2.4	0.00e+00	0	49	104	0	60	1048571
2026-01-18 15:45:48.68	22.11	20.48	-83.5	-79.0	2.4	0.00e+00	0	49	104	0	60	1048575
2026-01-18 15:45:49.68	21.75	20.42	-83.1	-79.0	2.4	0.00e+00	0	49	104	0	60	1048573
2026-01-18 15:45:50.69	21.39	20.35	-83.1	-79.0	2.4	0.00e+00	0	49	104	0	60	1048573
2026-01-18 15:45:51.70	21.03	20.28	-83.5	-79.0	2.5	0.00e+00	0	49	104	0	60	1048571
2026-01-18 15:45:52.70	20.68	20.22	-83.5	-79.0	2.4	0.00e+00	0	49	104	0	60	1048565
2026-01-18 15:45:53.71	20.32	20.15	-83.5	-79.0	2.2	0.00e+00	0	49	104	0	60	1048569
2026-01-18 15:45:54.72	19.97	20.08	-82.8	-79.0	2.4	0.00e+00	0	49	104	0	60	1048575
2026-01-18 15:45:55.72	19.62	20.01	-83.5	-79.0	2.4	0.00e+00	0	49	104	0	60	1048573
2026-01-18 15:45:56.73	19.27	19.94	-83.5	-79.0	2.5	0.00e+00	0	49	104	0	60	1048573
2026-01-18 15:45:57.74	18.92	19.86	-83.5	-79.0	2.4	0.00e+00	0	49	104	0	60	1048567
2026-01-18 15:45:58.75	18.57	19.79	-83.5	-79.0	2.4	0.00e+00	0	49	104	0	60	1048575
2026-01-18 15:45:59.76	18.23	19.72	-83.1	-79.0	2.4	0.00e+00	0	49	104	0	60	1048563
2026-01-18 15:46:00.77	17.88	19.64	-83.5	-79.0	2.4	0.00e+00	0	49	104	0	60	1048571
2026-01-18 15:46:01.77	17.55	19.57	-83.5	-79.0	2.4	0.00e+00	0	49	104	0	60	1048557
2026-01-18 15:46:02.78	17.21	19.50	-83.5	-79.0	2.4	0.00e+00	0	49	104	0	60	1048573
2026-01-18 15:46:03.79	16.87	19.42	-83.1	-79.0	2.4	0.00e+00	0	49	104	0	60	1048574
2026-01-18 15:46:04.79	16.54	19.34	-83.1	-79.0	2.3	0.00e+00	0	49	104	0	60	1048570
2026-01-18 15:46:05.80	16.21	19.27	-83.5	-79.0	2.4	0.00e+00	0	49	104	0	60	1048574
2026-01-18 15:46:06.80	15.88	19.19	-83.5	-79.0	2.3	0.00e+00	0	49	104	0	60	1048574
2026-01-18 15:46:07.81	15.55	19.11	-83.1	-79.0	2.4	0.00e+00	0	49	104	0	60	1048575
2026-01-18 15:46:08.82	15.22	19.03	-82.8	-79.0	2.5	0.00e+00	0	49	104	0	60	1048572
2026-01-18 15:46:09.82	14.90	18.95	-83.1	-79.0	2.3	0.00e+00	0	49	104	0	60	1048573
2026-01-18 15:46:10.83	14.57	18.87	-83.1	-79.0	2.4	0.00e+00	0	49	104	0	60	1048574
2026-01-18 15:46:11.83	14.26	18.79	-83.5	-79.0	2.3	0.00e+00	0	49	104	0	60	1048575
2026-01-18 15:46:12.84	13.94	18.71	-83.5	-79.0	2.4	0.00e+00	0	49	104	0	60	1048573
2026-01-18 15:46:13.84	13.62	18.63	-83.1	-79.0	2.4	0.00e+00	0	49	104	0	60	1048575
2026-01-18 15:46:14.85	13.31	18.55	-83.5	-79.0	2.4	0.00e+00	0	49	104	0	60	1048575
2026-01-18 15:46:15.86	12.99	18.47	-83.5	-79.0	2.4	0.00e+00	0	49	104	0	60	1048568
2026-01-18 15:46:16.87	12.68	18.39	-83.5	-79.0	2.4	0.00e+00	0	49	104	0	60	1048570
2026-01-18 15:46:17.88	12.37	18.30	-83.1	-79.0	2.6	0.00e+00	0	49	104	0	60	1048566
2026-01-18 15:46:18.88	12.07	18.22	-83.1	-79.0	2.4	0.00e+00	0	49	104	0	60	1048572
2026-01-18 15:46:19.89	11.76	18.14	-83.5	-79.0	2.3	0.00e+00	0	49	104	0	60	1048573
2026-01-18 15:46:20.90	11.46	18.05	-83.1	-79.0	2.4	0.00e+00	0	49	104	0	60	1048575
2026-01-18 15:46:21.91	11.15	17.97	-83.5	-79.0	2.4	0.00e+00	0	49	104	0	60	1048573
2026-01-18 15:46:22.92	10.85	17.88	-83.1	-79.0	2.4	0.00e+00	0	49	104	0	60	1048575
2026-01-18 15:46:23.92	10.56	17.80	-83.1	-79.0	2.3	0.00e+00	0	49	104	0	60	1048574
2026-01-18 15:46:24.93	10.26	17.71	-83.5	-79.0	2.4	0.00e+00	0	49	104	0	60	1048575
2026-01-18 15:46:25.93	9.97	17.63	-83.5	-79.0	2.2	0.00e+00	0	49	104	0	60	1048571
2026-01-18 15:46:26.94	9.68	17.54	-83.1	-79.0	2.2	0.00e+00	0	49	104	0	60	1048575
2026-01-18 15:46:27.95	9.39	17.45	-82.8	-79.0	2.5	0.00e+00	0	49	104	0	60	1048575
2026-01-18 15:46:28.95	9.11	17.37	-83.5	-79.0	2.4	0.00e+00	0	49	104	0	60	1048567
2026-01-18 15:46:29.96	8.82	17.28	-83.5	-79.0	2.4	0.00e+00	0	49	104	0	60	1048575
2026-01-18 15:46:30.97	8.53	17.19	-83.5	-79.0	2.4	0.00e+00	0	49	104	0	60	1048571
2026-01-18 15:46:31.97	8.25	17.11	-83.5	-79.0	2.4	0.00e+00	0	49	104	0	60	1048571
2026-01-18 15:46:32.98	7.97	17.02	-83.1	-79.0	2.4	0.00e+00	0	49	104	0	60	1048567
2026-01-18 15:46:33.99	7.70	16.93	-83.5	-79.0	2.3	0.00e+00	0	49	104	0	60	1048562
2026-01-18 15:46:35.00	7.42	16.84	-83.5	-79.0	2.5	0.00e+00	0	49	104	0	60	1048570
2026-01-18 15:46:36.00	7.15	16.76	-83.5	-79.0	2.4	0.00e+00	0	49	104	0	60	1048575
2026-01-18 15:46:37.01	6.87	16.67	-83.1	-79.0	2.4	0.00e+00	0	49	104	0	60	1048563
2026-01-18 15:46:38.02	6.60	16.58	-82.8	-79.0	2.4	0.00e+00	0	49	104	0	60	1048570
2026-01-18 15:46:39.02	6.34	16.49	-83.5	-79.0	2.5	0.00e+00	0	49	104	0	60	1048573
2026-01-18 15:46:40.03	6.07	16.40	-83.5	-79.0	2.4	0.00e+00	0	49	104	0	60	1048575
2026-01-18 15:46:41.03	5.81	16.31	-83.1	-79.0	2.3	0.00e+00	0	49	104	0	60	1048573
2026-01-18 15:46:42.04	5.54	16.22	-83.1	-79.0	2.5	0.00e+00	0	49	104	0	60	1048574
2026-01-18 15:46:43.05	5.28	16.13	-83.1	-79.0	2.4	0.00e+00	0	49	104	0	60	1048575
2026-01-18 15:46:44.06	5.02	16.04	-83.5	-79.0	2.3	0.00e+00	0	49	104	0	60	1048570
2026-01-18 15:46:45.07	4.76	15.95	-83.5	-79.0	2.4	0.00e+00	0	49	104	0	60	1048566
2026-01-18 15:46:46.07	4.51	15.87	-83.5	-79.0	2.4	0.00e+00	0	49	104	0	60	1048575
2026-01-18 15:46:47.08	4.26	15.78	-83.1	-79.0	2.4	0.00e+00	0	49	104	0	60	1048575
2026-01-18 15:46:48.09	4.00	15.69	-83.5	-79.0	2.4	0.00e+00	0	49	104	0	60	1048563
2026-01-18 15:46:49.09	3.75	15.60	-83.5	-79.0	2.4	0.00e+00	0	49	104	0	60	1048567
2026-01-18 15:46:50.10	3.51	15.51	-83.5	-79.0	2.4	0.00e+00	0	49	104	0	60	1048572
2026-01-18 15:46:51.11	3.26	15.42	-83.5	-79.0	2.4	0.00e+00	0	49	104	0	60	1048574
2026-01-18 15:46:52.12	3.01	15.33	-83.1	-79.0	2.4	0.00e+00	0	49	104	0	60	1048573
2026-01-18 15:46:53.13	2.77	15.24	-83.5	-79.0	2.4	0.00e+00	0	49	104	0	60	1048574
2026-01-18 15:46:54.13	2.53	15.15	-83.5	-79.0	2.3	0.00e+00	0	49	104	0	60	1048574
2026-01-18 15:46:55.14	2.29	15.06	-83.5	-79.0	2.4	0.00e+00	0	49	104	0	60	1048572
2026-01-18 15:46:56.15	2.05	14.97	-83.1	-79.0	2.4	0.00e+00	0	49	104	0	60	1048569
2026-01-18 15:46:57.16	1.81	14.88	-83.5	-79.0	2.3	0.00e+00	0	49	104	0	60	1048569
2026-01-18 15:46:58.16	1.58	14.79	-83.5	-79.0	2.2	0.00e+00	0	49	104	0	60	1048572
2026-01-18 15:46:59.17	1.35	14.70	-83.5	-79.0	2.4	0.00e+00	0	49	104	0	60	1048572
2026-01-18 15:47:00.17	1.12	14.61	-83.1	-79.0	2.4	0.00e+00	0	49	104	0	60	1048564
2026-01-18 15:47:01.18	0.89	14.52	-82.8	-79.0	2.3	0.00e+00	0	49	104	0	60	1048568
2026-01-18 15:47:02.19	0.66	14.43	-83.1	-79.0	2.4	0.00e+00	0	49	104	0	60	1048571
2026-01-18 15:47:03.20	0.43	14.34	-83.5	-79.0	2.4	0.00e+00	0	49	104	0	60	1048573
2026-01-18 15:47:04.20	0.21	14.25	-83.5	-79.0	2.3	0.00e+00	0	49	104	0	60	1048571
2026-01-18 15:47:05.21	359.99	14.16	-83.5	-79.0	2.4	0.00e+00	0	49	104	0	60	1048565
2026-01-18 15:47:06.22	359.77	14.07	-83.1	-79.0	2.3	0.00e+00	0	49	104	0	60	1048575
2026-01-18 15:47:07.23	359.55	13.98	-83.1	-79.0	2.4	0.00e+00	0	49	104	0	60	1048574
2026-01-18 15:47:08.23	359.33	13.89	-83.5	-79.0	2.5	0.00e+00	0	49	104	0	60	1048572
2026-01-18 15:47:09.24	359.11	13.80	-83.5	-79.0	2.4	0.00e+00	0	49	104	0	60	1048574
2026-01-18 15:47:10.25	358.90	13.71	-83.1	-79.0	2.4	0.00e+00	0	49	104	0	60	1048573
2026-01-18 15:47:11.25	358.69	13.62	-83.1	-79.0	2.4	0.00e+00	0	49	104	0	60	1048574
2026-01-18 15:47:12.26	358.47	13.53	-83.5	-79.0	2.4	0.00e+00	0	49	104	0	60	1048573
2026-01-18 15:47:13.27	358.26	13.44	-83.5	-79.0	2.6	0.00e+00	0	49	104	0	60	1048575
2026-01-18 15:47:14.28	358.05	13.35	-83.5	-79.0	2.6	0.00e+00	0	49	104	0	60	1048573
2026-01-18 15:47:15.28	357.85	13.26	-82.8	-79.0	2.1	0.00e+00	0	49	104	0	60	1048575
2026-01-18 15:47:16.29	357.64	13.18	-83.1	-79.0	2.3	0.00e+00	0	49	104	0	60	1048566
2026-01-18 15:47:17.30	357.44	13.09	-83.5	-79.0	2.4	0.00e+00	0	49	104	0	60	1048574
2026-01-18 15:47:18.31	357.23	13.00	-83.5	-79.0	2.4	0.00e+00	0	49	104	0	60	1048575
2026-01-18 15:47:19.32	357.03	12.91	-83.5	-79.0	2.4	0.00e+00	0	49	104	0	60	1048571
2026-01-18 15:47:20.32	356.83	12.82	-83.1	-79.0	2.4	0.00e+00	0	49	104	0	60	1048571
2026-01-18 15:47:21.33	356.63	12.73	-83.5	-79.0	2.4	0.00e+00	0	49	104	0	60	1048575
2026-01-18 15:47:22.34	356.44	12.64	-83.5	-79.0	2.4	0.00e+00	0	49	104	0	60	1048574
2026-01-18 15:47:23.34	356.24	12.56	-83.5	-79.0	2.4	0.00e+00	0	49	104	0	60	1048575
2026-01-18 15:47:24.35	356.05	12.47	-83.1	-79.0	2.4	0.00e+00	0	49	104	0	60	1048573
2026-01-18 15:47:25.36	355.86	12.38	-83.1	-79.0	2.4	0.00e+00	0	49	104	0	60	1048575
2026-01-18 15:47:26.36	355.67	12.29	-83.5	-79.0	2.4	0.00e+00	0	49	104	0	60	1048575
2026-01-18 15:47:27.37	355.48	12.21	-83.1	-79.0	2.2	0.00e+00	0	49	104	0	60	1048574
2026-01-18 15:47:28.38	355.29	12.12	-83.5	-79.0	2.4	0.00e+00	0	49	104	0	60	1048575
2026-01-18 15:47:29.39	355.10	12.03	-83.1	-79.0	2.4	0.00e+00	0	49	104	0	60	1048575
2026-01-18 15:47:30.39	354.91	11.94	-83.5	-79.0	2.4	0.00e+00	0	49	104	0	60	1048559
2026-01-18 15:47:31.39	354.73	11.86	-83.5	-79.0	2.4	0.00e+00	0	49	104	0	60	1048573
2026-01-18 15:47:32.40	354.55	11.77	-83.5	-79.0	2.3	0.00e+00	0	49	104	0	60	1048572
2026-01-18 15:47:33.41	354.37	11.68	-83.5	-79.0	2.3	0.00e+00	0	49	104	0	60	1048575
2026-01-18 15:47:34.42	354.19	11.60	-82.8	-79.0	2.3	0.00e+00	0	49	104	0	60	1048564
2026-01-18 15:47:35.42	354.01	11.51	-83.1	-79.0	2.4	0.00e+00	0	49	104	0	60	1048574
2026-01-18 15:47:36.43	353.83	11.43	-83.5	-79.0	2.4	0.00e+00	0	49	104	0	60	1048572
2026-01-18 15:47:37.44	353.65	11.34	-83.5	-79.0	2.4	0.00e+00	0	49	104	0	60	1048572
2026-01-18 15:47:38.45	353.48	11.25	-83.1	-79.0	2.5	0.00e+00	0	49	104	0	60	1048575
2026-01-18 15:47:39.46	353.30	11.17	-83.1	-79.0	2.5	0.00e+00	0	49	104	0	60	1048571
2026-01-18 15:47:40.47	353.13	11.08	-83.1	-79.0	2.3	0.00e+00	0	49	104	0	60	1048574
2026-01-18 15:47:41.47	352.96	11.00	-83.1	-79.0	2.4	0.00e+00	0	49	104	0	60	1048574
2026-01-18 15:47:42.48	352.79	10.91	-83.5	-79.0	2.3	0.00e+00	0	49	104	0	60	1048570
2026-01-18 15:47:43.49	352.62	10.83	-83.5	-79.0	2.4	0.00e+00	0	49	104	0	60	1048574
2026-01-18 15:47:44.49	352.45	10.74	-83.5	-79.0	2.3	0.00e+00	0	49	104	0	60	1048575
2026-01-18 15:47:45.50	352.28	10.66	-83.5	-79.0	2.4	0.00e+00	0	49	104	0	60	1048574
2026-01-18 15:47:46.51	352.12	10.57	-83.5	-79.0	2.4	0.00e+00	0	49	104	0	60	1048575
2026-01-18 15:47:47.51	351.96	10.49	-83.5	-79.0	2.3	0.00e+00	0	49	104	0	60	1048574
2026-01-18 15:47:48.52	351.79	10.41	-83.1	-79.0	2.6	0.00e+00	0	49	104	0	60	1048574
2026-01-18 15:47:49.53	351.63	10.32	-83.5	-79.0	2.4	0.00e+00	0	49	104	0	60	1048573
2026-01-18 15:47:50.53	351.47	10.24	-83.5	-79.0	2.4	0.00e+00	0	49	104	0	60	1048575
2026-01-18 15:47:51.54	351.31	10.16	-83.5	-79.0	2.4	0.00e+00	0	49	104	0	60	1048574
2026-01-18 15:47:52.54	351.15	10.07	-83.5	-79.0	2.4	0.00e+00	0	49	104	0	60	1048575
2026-01-18 15:47:53.55	350.99	9.99	-83.1	-79.0	2.4	0.00e+00	0	49	104	0	60	1048565
2026-01-18 15:47:54.56	350.84	9.91	-83.5	-79.0	2.4	0.00e+00	0	49	104	0	60	1048574
2026-01-18 15:47:55.57	350.68	9.82	-83.1	-79.0	2.4	0.00e+00	0	49	104	0	60	1048567
2026-01-18 15:47:56.58	350.53	9.74	-83.5	-79.0	2.4	0.00e+00	0	49	104	0	60	1048570
2026-01-18 15:47:57.59	350.37	9.66	-83.1	-79.0	2.4	0.00e+00	0	49	104	0	60	1048575
2026-01-18 15:47:58.59	350.22	9.58	-83.1	-79.0	2.5	0.00e+00	0	49	104	0	60	1048568
2026-01-18 15:47:59.60	350.07	9.49	-83.5	-79.0	2.4	0.00e+00	0	49	104	0	60	1048568
2026-01-18 15:48:00.60	349.92	9.41	-83.5	-79.0	2.4	0.00e+00	0	49	104	0	60	1048572
2026-01-18 15:48:01.61	349.77	9.33	-83.5	-79.0	2.4	0.00e+00	0	49	104	0	60	1048570
2026-01-18 15:48:02.62	349.63	9.25	-83.5	-79.0	2.5	0.00e+00	0	49	104	0	60	1048571
2026-01-18 15:48:03.63	349.48	9.17	-83.1	-79.0	2.4	0.00e+00	0	49	104	0	60	1048575
2026-01-18 15:48:04.64	349.33	9.09	-83.5	-79.0	2.5	0.00e+00	0	49	104	0	60	1048575
2026-01-18 15:48:05.64	349.19	9.01	-83.5	-79.0	2.3	0.00e+00	0	49	104	0	60	1048575
2026-01-18 15:48:06.65	349.05	8.93	-83.5	-79.0	2.2	0.00e+00	0	49	104	0	60	1048573
2026-01-18 15:48:07.66	348.90	8.85	-82.8	-79.0	2.3	0.00e+00	0	49	104	0	60	1048566
2026-01-18 15:48:08.67	348.76	8.77	-83.5	-79.0	2.4	0.00e+00	0	49	104	0	60	1048575
2026-01-18 15:48:09.68	348.62	8.69	-83.5	-79.0	2.4	0.00e+00	0	49	104	0	60	1048574
2026-01-18 15:48:10.68	348.48	8.61	-83.5	-79.0	2.3	0.00e+00	0	49	104	0	60	1048568
2026-01-18 15:48:11.69	348.34	8.53	-83.5	-79.0	2.4	0.00e+00	0	49	104	0	60	1048572
2026-01-18 15:48:12.69	348.20	8.45	-82.8	-79.0	2.4	0.00e+00	0	49	104	0	60	1048567
2026-01-18 15:48:13.70	348.07	8.37	-82.8	-79.0	2.4	0.00e+00	0	49	104	0	60	1048574
2026-01-18 15:48:14.71	347.93	8.29	-83.5	-79.0	2.4	0.00e+00	0	49	104	0	60	1048574
2026-01-18 15:48:15.72	347.80	8.21	-83.5	-79.0	2.4	0.00e+00	0	49	104	0	60	1048570
2026-01-18 15:48:16.72	347.66	8.13	-83.5	-79.0	2.3	0.00e+00	0	49	104	0	60	1048575
2026-01-18 15:48:17.73	347.53	8.05	-83.1	-79.0	2.4	0.00e+00	0	49	104	0	60	1048574
2026-01-18 15:48:18.74	347.40	7.98	-83.5	-79.0	2.3	0.00e+00	0	49	104	0	60	1048572
2026-01-18 15:48:19.75	347.26	7.90	-83.5	-79.0	2.4	0.00e+00	0	49	104	0	60	1048574
2026-01-18 15:48:20.75	347.14	7.82	-83.1	-79.0	2.3	0.00e+00	0	49	104	0	60	1048561
2026-01-18 15:48:21.76	347.01	7.74	-82.8	-79.0	2.4	0.00e+00	0	49	104	0	60	1048575
2026-01-18 15:48:22.76	346.88	7.66	-83.5	-79.0	2.4	0.00e+00	0	49	104	0	60	1048575
2026-01-18 15:48:23.77	346.75	7.59	-83.5	-79.0	2.4	0.00e+00	0	49	104	0	60	1048570
2026-01-18 15:48:24.78	346.62	7.51	-83.5	-79.0	2.4	0.00e+00	0	49	104	0	60	1048572
2026-01-18 15:48:25.79	346.50	7.43	-83.5	-79.0	2.4	0.00e+00	0	49	104	0	60	1048572
2026-01-18 15:48:26.79	346.37	7.36	-83.1	-79.0	2.4	0.00e+00	0	49	104	0	60	1048569
2026-01-18 15:48:27.80	346.25	7.28	-83.5	-79.0	2.4	0.00e+00	0	49	104	0	60	1048574
2026-01-18 15:48:28.81	346.12	7.20	-83.5	-79.0	2.5	0.00e+00	0	49	104	0	60	1048573
2026-01-18 15:48:29.82	346.00	7.13	-83.5	-79.0	2.5	0.00e+00	0	49	104	0	60	1048574
2026-01-18 15:48:30.82	345.88	7.05	-83.5	-79.0	2.3	0.00e+00	0	49	104	0	60	1048574
2026-01-18 15:48:31.83	345.76	6.98	-83.1	-79.0	2.4	0.00e+00	0	49	104	0	60	1048575
2026-01-18 15:48:32.84	345.64	6.90	-83.5	-79.0	2.4	0.00e+00	0	49	104	0	60	1048567
2026-01-18 15:48:33.85	345.52	6.83	-83.1	-79.0	2.4	0.00e+00	0	49	104	0	60	1048573
2026-01-18 15:48:34.85	345.40	6.75	-83.5	-79.0	2.3	0.00e+00	0	49	104	0	60	1048570
2026-01-18 15:48:35.86	345.28	6.68	-83.1	-79.0	2.3	0.00e+00	0	49	104	0	60	1048573
2026-01-18 15:48:36.86	345.16	6.60	-82.8	-79.0	2.3	0.00e+00	0	49	104	0	60	1048575
2026-01-18 15:48:37.87	345.05	6.53	-83.5	-79.0	2.4	0.00e+00	0	49	104	0	60	1048573
2026-01-18 15:48:38.87	344.93	6.45	-83.5	-79.0	2.3	0.00e+00	0	49	104	0	60	1048573
2026-01-18 15:48:39.88	344.82	6.38	-83.5	-79.0	2.4	0.00e+00	0	49	104	0	60	1048573
2026-01-18 15:48:40.89	344.70	6.30	-82.8	-79.0	2.3	0.00e+00	0	49	104	0	60	1048573
2026-01-18 15:48:41.90	344.59	6.23	-83.5	-79.0	2.4	0.00e+00	0	49	104	0	60	1048574
2026-01-18 15:48:42.91	344.48	6.16	-83.5	-79.0	2.4	0.00e+00	0	49	104	0	60	1048574
2026-01-18 15:48:43.92	344.36	6.08	-83.5	-79.0	2.3	0.00e+00	0	49	104	0	60	1048574
2026-01-18 15:48:44.92	344.25	6.01	-83.5	-79.0	2.4	0.00e+00	0	49	104	0	60	1048568
2026-01-18 15:48:45.93	344.14	5.94	-83.1	-79.0	2.4	0.00e+00	0	49	104	0	60	1048575
2026-01-18 15:48:46.94	344.03	5.86	-83.1	-79.0	2.4	0.00e+00	0	49	104	0	60	1048574
2026-01-18 15:48:47.95	343.92	5.79	-83.5	-79.0	2.4	0.00e+00	0	49	104	0	60	1048558
2026-01-18 15:48:48.96	343.81	5.72	-83.5	-79.0	2.4	0.00e+00	0	49	104	0	60	1048573
2026-01-18 15:48:49.96	343.71	5.65	-83.1	-79.0	2.5	0.00e+00	0	49	104	0	60	1048571
2026-01-18 15:48:50.97	343.60	5.57	-83.1	-79.0	2.4	0.00e+00	0	49	104	0	60	1048572
2026-01-18 15:48:51.98	343.49	5.50	-83.1	-79.0	2.4	0.00e+00	0	49	104	0	60	1048573
2026-01-18 15:48:52.98	343.39	5.43	-83.5	-79.0	2.4	0.00e+00	0	49	104	0	60	1048575
2026-01-18 15:48:53.99	343.28	5.36	-83.1	-79.0	2.4	0.00e+00	0	49	104	0	60	1048571
2026-01-18 15:48:54.99	343.18	5.29	-82.8	-79.0	2.7	0.00e+00	0	49	104	0	60	1048574
2026-01-18 15:48:55.99	343.08	5.22	-83.1	-79.0	2.3	0.00e+00	0	49	104	0	60	1048575
2026-01-18 15:48:57.00	342.97	5.15	-83.5	-79.0	2.4	0.00e+00	0	49	104	0	60	1048575
2026-01-18 15:48:58.01	342.87	5.08	-83.5	-79.0	2.4	0.00e+00	0	49	104	0	60	1048574
2026-01-18 15:48:59.02	342.77	5.00	-83.5	-79.0	2.4	0.00e+00	0	49	104	0	60	1048575
2026-01-18 15:49:00.02	342.67	4.93	-83.1	-79.0	2.4	0.00e+00	0	49	104	0	60	1048567
2026-01-18 15:49:01.03	342.57	4.86	-83.5	-79.0	2.4	0.00e+00	0	49	104	0	60	1048571
2026-01-18 15:49:02.03	342.47	4.79	-83.5	-79.0	2.3	0.00e+00	0	49	104	0	60	1048574
2026-01-18 15:49:03.04	342.37	4.72	-83.5	-79.0	2.4	0.00e+00	0	49	104	0	60	1048575
2026-01-18 15:49:04.04	342.27	4.65	-83.5	-79.0	2.4	0.00e+00	0	49	104	0	60	1048575
2026-01-18 15:49:05.05	342.17	4.58	-82.8	-79.0	2.4	0.00e+00	0	49	104	0	60	1048574
2026-01-18 15:49:06.06	342.08	4.52	-83.1	-79.0	2.4	0.00e+00	0	49	104	0	60	1048575
2026-01-18 15:49:07.07	341.98	4.45	-83.1	-79.0	2.4	0.00e+00	0	49	104	0	60	1048575
2026-01-18 15:49:08.07	341.88	4.38	-83.5	-79.0	2.4	0.00e+00	0	49	104	0	60	1048575
2026-01-18 15:49:09.08	341.79	4.31	-83.1	-79.0	2.4	0.00e+00	0	49	104	0	60	1048574
2026-01-18 15:49:10.09	341.69	4.24	-83.1	-79.0	2.5	0.00e+00	0	49	104	0	60	1048567
2026-01-18 15:49:11.10	341.60	4.17	-83.5	-79.0	2.3	0.00e+00	0	49	104	0	60	1048573
2026-01-18 15:49:12.11	341.50	4.10	-83.5	-79.0	2.2	0.00e+00	0	49	104	0	60	1048575
2026-01-18 15:49:13.12	341.41	4.03	-83.5	-79.0	2.2	0.00e+00	0	49	104	0	60	1048570
2026-01-18 15:49:14.12	341.32	3.97	-83.1	-79.0	2.4	0.00e+00	0	49	104	0	60	1048575
2026-01-18 15:49:15.13	341.23	3.90	-83.1	-79.0	2.4	0.00e+00	0	49	104	0	60	1048574
2026-01-18 15:49:16.13	341.14	3.83	-83.1	-79.0	2.4	0.00e+00	0	49	104	0	60	1048575
2026-01-18 15:49:17.14	341.04	3.76	-83.5	-79.0	2.4	0.00e+00	0	49	104	0	60	1048566
2026-01-18 15:49:18.15	340.95	3.69	-83.5	-79.0	2.4	0.00e+00	0	49	104	0	60	1048575
2026-01-18 15:49:19.16	340.86	3.63	-83.1	-79.0	2.4	0.00e+00	0	49	104	0	60	1048563
2026-01-18 15:49:20.17	340.77	3.56	-83.5	-79.0	2.4	0.00e+00	0	49	104	0	60	1048574
2026-01-18 15:49:21.17	340.69	3.49	-83.5	-79.0	2.5	0.00e+00	0	49	104	0	60	1048573
2026-01-18 15:49:22.18	340.60	3.43	-83.5	-79.0	2.4	0.00e+00	0	49	104	0	60	1048571
2026-01-18 15:49:23.19	340.51	3.36	-83.5	-79.0	2.4	0.00e+00	0	49	104	0	60	1048574
2026-01-18 15:49:24.20	340.42	3.29	-83.1	-79.0	2.4	0.00e+00	0	49	104	0	60	1048574
2026-01-18 15:49:25.20	340.34	3.23	-83.5	-79.0	2.4	0.00e+00	0	49	104	0	60	1048573
2026-01-18 15:49:26.21	340.25	3.16	-83.5	-79.0	2.4	0.00e+00	0	49	104	0	60	1048574
2026-01-18 15:49:27.22	340.16	3.09	-83.1	-79.0	2.4	0.00e+00	0	49	104	0	60	1048573
2026-01-18 15:49:28.23	340.08	3.03	-83.1	-79.0	2.6	0.00e+00	0	49	104	0	60	1048574
2026-01-18 15:49:29.23	340.00	2.96	-83.1	-79.0	2.5	0.00e+00	0	49	104	0	60	1048574
2026-01-18 15:49:30.24	339.91	2.90	-83.5	-79.0	2.3	0.00e+00	0	49	104	0	60	1048573
2026-01-18 15:49:31.24	339.83	2.83	-83.5	-79.0	2.3	0.00e+00	0	49	104	0	60	1048569
2026-01-18 15:49:32.25	339.74	2.77	-83.5	-79.0	2.4	0.00e+00	0	49	104	0	60	1048573
2026-01-18 15:49:33.26	339.66	2.70	-83.1	-79.0	2.4	0.00e+00	0	49	104	0	60	1048575
2026-01-18 15:49:34.26	339.58	2.64	-83.1	-79.0	2.4	0.00e+00	0	49	104	0	60	1048575
2026-01-18 15:49:35.27	339.50	2.57	-83.5	-79.0	2.4	0.00e+00	0	49	104	0	60	1048574
2026-01-18 15:49:36.27	339.42	2.51	-83.5	-79.0	2.4	0.00e+00	0	49	104	0	60	1048571
2026-01-18 15:49:37.28	339.34	2.44	-83.5	-79.0	2.5	0.00e+00	0	49	104	0	60	1048572
2026-01-18 15:49:38.29	339.26	2.38	-82.8	-79.0	2.4	0.00e+00	0	49	104	0	60	1048575
2026-01-18 15:49:39.30	339.18	2.31	-83.5	-79.0	2.4	0.00e+00	0	49	104	0	60	1048575
2026-01-18 15:49:40.31	339.10	2.25	-83.1	-79.0	2.5	0.00e+00	0	49	104	0	60	1048571
2026-01-18 15:49:41.31	339.02	2.19	-83.5	-79.0	2.3	0.00e+00	0	49	104	0	60	1048572
2026-01-18 15:49:42.32	338.94	2.12	-83.1	-79.0	2.4	0.00e+00	0	49	104	0	60	1048575
2026-01-18 15:49:43.32	338.86	2.06	-83.1	-79.0	2.5	0.00e+00	0	49	104	0	60	1048573
2026-01-18 15:49:44.32	338.79	2.00	-83.5	-79.0	2.4	0.00e+00	0	49	104	0	60	1048573
2026-01-18 15:49:45.32	338.71	1.93	-83.5	-79.0	2.4	0.00e+00	0	49	104	0	60	1048573
2026-01-18 15:49:46.32	338.63	1.87	-83.5	-79.0	2.2	0.00e+00	0	49	104	0	60	1048568
2026-01-18 15:49:47.33	338.56	1.81	-82.8	-79.0	2.3	0.00e+00	0	49	104	0	60	1048574
2026-01-18 15:49:48.34	338.48	1.74	-82.8	-79.0	2.4	0.00e+00	0	49	104	0	60	1048575
2026-01-18 15:49:49.35	338.40	1.68	-83.5	-79.0	2.3	0.00e+00	0	49	104	0	60	1048575
2026-01-18 15:49:50.35	338.33	1.62	-83.5	-79.0	2.4	0.00e+00	0	49	104	0	60	1048571
2026-01-18 15:49:51.36	338.26	1.56	-83.5	-79.0	2.4	0.00e+00	0	49	104	0	60	1048574
2026-01-18 15:49:52.37	338.18	1.49	-82.8	-79.0	2.3	0.00e+00	0	49	104	0	60	1048575
2026-01-18 15:49:53.37	338.11	1.43	-83.1	-79.0	2.4	0.00e+00	0	49	104	0	60	1048575
2026-01-18 15:49:54.38	338.04	1.37	-83.5	-79.0	2.4	0.00e+00	0	49	104	0	60	1048571
2026-01-18 15:49:55.39	337.96	1.31	-83.5	-79.0	2.4	0.00e+00	0	49	104	0	60	1048569
2026-01-18 15:49:56.39	337.89	1.25	-83.5	-79.0	2.3	0.00e+00	0	49	104	0	60	1048574
2026-01-18 15:49:57.40	337.82	1.18	-83.1	-79.0	2.3	0.00e+00	0	49	104	0	60	1048565
2026-01-18 15:49:58.41	337.75	1.12	-83.5	-79.0	2.4	0.00e+00	0	49	104	0	60	1048573
2026-01-18 15:49:59.42	337.67	1.06	-83.5	-79.0	2.3	0.00e+00	0	49	104	0	60	1048575
2026-01-18 15:50:00.42	337.60	1.00	-83.5	-79.0	2.4	0.00e+00	0	49	104	0	60	1048574
2026-01-18 15:50:01.43	337.53	0.94	-83.1	-79.0	2.5	0.00e+00	0	49	104	0	60	1048573
2026-01-18 15:50:02.44	337.46	0.88	-83.1	-79.0	2.4	0.00e+00	0	49	104	0	60	1048573
2026-01-18 15:50:03.44	337.39	0.82	-83.5	-79.0	2.3	0.00e+00	0	49	104	0	60	1048575
2026-01-18 15:50:04.45	337.33	0.76	-83.5	-79.0	2.4	0.00e+00	0	49	104	0	60	1048575
2026-01-18 15:50:05.46	337.26	0.69	-83.5	-79.0	2.4	0.00e+00	0	49	104	0	60	1048574
2026-01-18 15:50:06.47	337.19	0.63	-83.1	-79.0	2.4	0.00e+00	0	49	104	0	60	1048574
2026-01-18 15:50:07.48	337.12	0.57	-83.5	-79.0	2.4	0.00e+00	0	49	104	0	60	1048575
2026-01-18 15:50:08.48	337.05	0.51	-83.5	-79.0	2.4	0.00e+00	0	49	104	0	60	1048575
2026-01-18 15:50:09.49	336.98	0.45	-83.5	-79.0	2.4	0.00e+00	0	49	104	0	60	1048565
2026-01-18 15:50:10.50	336.92	0.39	-83.1	-79.0	2.4	0.00e+00	0	49	104	0	60	1048572
2026-01-18 15:50:11.51	336.85	0.33	-83.1	-79.0	2.3	0.00e+00	0	49	104	0	60	1048571
2026-01-18 15:50:12.51	336.78	0.27	-83.5	-79.0	2.4	0.00e+00	0	49	104	0	60	1048575
2026-01-18 15:50:13.52	336.72	0.21	-83.5	-79.0	2.3	0.00e+00	0	49	104	0	60	1048575
2026-01-18 15:50:14.53	336.65	0.15	-83.5	-79.0	2.4	0.00e+00	0	49	104	0	60	1048575
2026-01-18 15:50:15.53	336.59	0.09	-83.5	-79.0	2.4	0.00e+00	0	49	104	0	60	1048575
2026-01-18 15:50:16.54	336.52	0.04	-83.1	-79.0	2.4	0.00e+00	0	49	104	0	60	1048570
2026-01-18 15:50:17.55	336.46	-0.02	-83.1	-79.0	2.3	0.00e+00	0	49	104	0	60	1048575
2026-01-18 15:50:18.56	336.39	-0.08	-83.5	-79.0	2.3	0.00e+00	0	49	104	0	60	1048575

#Closed at: 2026-01-18 15:50:19
#Recorded file [0 MB]: D:/Data/35015_260118_183941.dat