passes_logs/2026/01/18/R3.2S-Naryan-Mar/R3.2S-Naryan-Mar__20260118_061703_FENGYUN_3E_rec.log

#Pass ID: 20260118_061703_FENGYUN 3E
#Satellite: FENGYUN 3E
#Configuration: FENGYUN 3E
#almurnet v.1.7.20240730
#Start time: 2026-01-18 06:25:09

#Version: 2.2.20231116
#Station: R3.2S-Naryan-Mar
#Location: 53.008057 lon 67.646978 lat
#TLE: 1 49008U 21062A   26017.26067429  .00000278  00000+0  15192-3 0  9991
#TLE: 2 49008  98.7484  22.3628 0002125 132.6872 227.4483 14.19886454235162

#Time	Az	El	Level	Level2	SNR	BER	BlckErr	Temp	State	Recorded	gain1	gain2
2026-01-18 06:25:09.03	315.83	24.58	-85.2	-88.6	3.6	7.64e-01	0	47	0	0	60	1048574
2026-01-18 06:25:10.04	315.55	24.54	-84.7	-88.6	5.4	4.14e-01	0	47	0	0	60	1048565
2026-01-18 06:25:11.05	315.28	24.48	-84.7	-88.6	5.7	4.07e-01	0	47	0	0	60	1048573
2026-01-18 06:25:12.05	315.00	24.43	-84.7	-88.6	4.8	4.05e-01	0	47	0	0	60	1048575
2026-01-18 06:25:13.06	314.73	24.38	-84.7	-88.6	5.2	4.02e-01	0	47	0	0	60	1048572
2026-01-18 06:25:14.07	314.46	24.33	-84.7	-88.6	5.6	4.02e-01	0	47	0	0	60	1048571
2026-01-18 06:25:15.08	314.18	24.28	-84.7	-88.6	5.1	4.04e-01	0	47	0	0	60	1048559
2026-01-18 06:25:16.09	313.91	24.22	-84.7	-88.6	5.6	4.06e-01	0	47	0	0	60	1048572
2026-01-18 06:25:17.09	313.64	24.17	-84.7	-88.6	5.4	4.07e-01	0	47	0	0	60	1048558
2026-01-18 06:25:18.10	313.37	24.12	-84.7	-88.6	3.0	7.68e-01	0	47	104	0	60	1048575
2026-01-18 06:25:19.11	313.11	24.06	-84.7	-88.6	2.6	7.76e-01	0	47	104	0	60	1048544
2026-01-18 06:25:20.12	312.84	24.01	-84.7	-88.6	2.9	7.77e-01	0	47	104	0	60	1048574
2026-01-18 06:25:21.12	312.57	23.95	-84.7	-88.6	3.2	7.76e-01	0	47	104	0	60	1048575
2026-01-18 06:25:22.13	312.31	23.89	-84.7	-88.6	2.7	7.78e-01	0	47	104	0	60	1048575
2026-01-18 06:25:23.13	312.04	23.84	-84.7	-88.6	3.5	7.77e-01	0	47	104	0	60	1048575
2026-01-18 06:25:24.14	311.78	23.78	-84.7	-88.6	3.5	7.76e-01	0	47	104	0	60	1048575
2026-01-18 06:25:25.15	311.52	23.72	-84.7	-88.6	2.9	7.75e-01	0	47	104	0	60	1048567
2026-01-18 06:25:26.15	311.26	23.66	-84.7	-88.6	3.1	7.77e-01	0	47	104	0	60	1048574
2026-01-18 06:25:27.16	311.00	23.60	-84.7	-88.6	3.6	7.79e-01	0	47	104	0	60	1048575
2026-01-18 06:25:28.17	310.74	23.54	-84.7	-88.6	3.0	7.77e-01	0	47	104	0	60	1048575
2026-01-18 06:25:29.17	310.48	23.48	-84.7	-88.6	2.9	7.76e-01	0	47	104	0	60	1048575
2026-01-18 06:25:30.18	310.22	23.42	-84.7	-88.6	3.5	7.76e-01	0	47	104	0	60	1048570
2026-01-18 06:25:31.19	309.96	23.36	-84.7	-88.6	2.9	7.76e-01	0	47	104	0	60	1048574
2026-01-18 06:25:32.20	309.71	23.30	-84.7	-88.6	3.2	7.76e-01	0	47	104	0	60	1048575
2026-01-18 06:25:33.20	309.46	23.24	-84.7	-88.6	3.2	7.76e-01	0	47	104	0	60	1048575
2026-01-18 06:25:34.21	309.20	23.17	-84.7	-88.6	3.1	7.77e-01	0	47	104	0	60	1048573
2026-01-18 06:25:35.22	308.95	23.11	-84.7	-88.6	2.8	7.75e-01	0	47	104	0	60	1048573
2026-01-18 06:25:36.23	308.70	23.05	-84.7	-88.6	3.6	7.76e-01	0	47	104	0	60	1048567
2026-01-18 06:25:37.23	308.45	22.98	-84.7	-88.6	3.3	7.75e-01	0	47	104	0	60	1048574
2026-01-18 06:25:38.24	308.20	22.92	-84.7	-88.6	2.9	7.78e-01	0	47	104	0	60	1048574
2026-01-18 06:25:39.24	307.95	22.86	-84.7	-88.6	3.0	7.77e-01	0	47	104	0	60	1048570
2026-01-18 06:25:40.25	307.70	22.79	-84.7	-88.6	2.6	7.77e-01	0	47	104	0	60	1048571
2026-01-18 06:25:41.26	307.46	22.72	-84.7	-88.6	2.9	7.77e-01	0	47	104	0	60	1048569
2026-01-18 06:25:42.27	307.21	22.66	-84.7	-88.6	3.0	7.78e-01	0	47	104	0	60	1048575
2026-01-18 06:25:43.28	306.97	22.59	-84.7	-88.6	3.1	7.77e-01	0	47	104	0	60	1048575
2026-01-18 06:25:44.29	306.72	22.52	-84.7	-88.6	3.2	7.77e-01	0	47	104	0	60	1048575
2026-01-18 06:25:45.29	306.48	22.46	-84.7	-88.6	3.0	7.76e-01	0	47	104	0	60	1048570
2026-01-18 06:25:46.30	306.24	22.39	-84.7	-88.6	3.0	7.76e-01	0	47	104	0	60	1048570
2026-01-18 06:25:47.31	306.00	22.32	-84.7	-88.6	3.3	7.76e-01	0	47	104	0	60	1048573
2026-01-18 06:25:48.32	305.76	22.25	-84.7	-88.6	3.5	7.75e-01	0	47	104	0	60	1048574
2026-01-18 06:25:49.32	305.52	22.19	-84.7	-88.6	2.7	7.76e-01	0	47	104	0	60	1048575
2026-01-18 06:25:50.33	305.29	22.12	-84.7	-88.6	2.7	7.76e-01	0	47	104	0	60	1048573
2026-01-18 06:25:51.34	305.05	22.05	-84.7	-88.6	3.2	7.77e-01	0	47	104	0	60	1048569
2026-01-18 06:25:52.34	304.82	21.98	-84.7	-88.6	2.9	7.76e-01	0	47	104	0	60	1048575
2026-01-18 06:25:53.35	304.58	21.91	-84.7	-88.6	2.9	7.72e-01	0	47	104	0	60	1048561
2026-01-18 06:25:54.36	304.35	21.84	-84.7	-88.6	2.9	7.76e-01	0	47	104	0	60	1048574
2026-01-18 06:25:55.36	304.12	21.77	-84.7	-88.6	2.7	7.77e-01	0	47	104	0	60	1048571
2026-01-18 06:25:56.37	303.89	21.70	-84.7	-88.6	3.2	7.76e-01	0	47	104	0	60	1048573
2026-01-18 06:25:57.38	303.66	21.63	-84.7	-88.6	3.5	7.76e-01	0	47	104	0	60	1048569
2026-01-18 06:25:58.38	303.43	21.55	-84.7	-88.6	3.1	7.75e-01	0	47	104	0	60	1048574
2026-01-18 06:25:59.39	303.21	21.48	-84.7	-88.6	3.1	7.75e-01	0	47	104	0	60	1048573
2026-01-18 06:26:00.40	302.98	21.41	-84.7	-88.6	2.3	7.77e-01	0	47	104	0	60	1048572
2026-01-18 06:26:01.41	302.75	21.34	-84.7	-88.6	3.0	7.71e-01	0	47	104	0	60	1048569
2026-01-18 06:26:02.42	302.53	21.27	-84.7	-88.6	3.6	7.76e-01	0	47	104	0	60	1048573
2026-01-18 06:26:03.42	302.31	21.19	-84.7	-88.6	2.5	7.77e-01	0	47	104	0	60	1048575
2026-01-18 06:26:04.43	302.09	21.12	-84.7	-88.6	3.1	7.76e-01	0	47	104	0	60	1048574
2026-01-18 06:26:05.44	301.86	21.05	-84.7	-88.6	2.9	7.77e-01	0	47	104	0	60	1048574
2026-01-18 06:26:06.44	301.65	20.97	-84.7	-88.6	2.9	7.77e-01	0	47	104	0	60	1048565
2026-01-18 06:26:07.45	301.43	20.90	-84.7	-88.6	2.9	7.77e-01	0	47	104	0	60	1048572
2026-01-18 06:26:08.46	301.21	20.83	-84.7	-88.6	3.5	7.76e-01	0	47	104	0	60	1048571
2026-01-18 06:26:09.47	300.99	20.75	-84.7	-88.6	2.5	7.77e-01	0	47	104	0	60	1048569
2026-01-18 06:26:10.47	300.78	20.68	-84.7	-88.6	2.9	7.70e-01	0	47	104	0	60	1048573
2026-01-18 06:26:11.48	300.56	20.60	-84.7	-88.6	3.2	7.76e-01	0	47	104	0	60	1048575
2026-01-18 06:26:12.48	300.35	20.53	-84.7	-88.6	3.0	7.77e-01	0	47	104	0	60	1048566
2026-01-18 06:26:13.49	300.14	20.45	-84.7	-88.6	3.1	7.77e-01	0	47	104	0	60	1048570
2026-01-18 06:26:14.50	299.93	20.38	-84.7	-88.6	2.6	7.75e-01	0	47	104	0	60	1048570
2026-01-18 06:26:15.51	299.71	20.30	-84.7	-88.6	3.1	7.76e-01	0	47	104	0	60	1048569
2026-01-18 06:26:16.51	299.51	20.23	-84.7	-88.6	2.9	7.76e-01	0	47	104	0	60	1048574
2026-01-18 06:26:17.52	299.30	20.15	-84.7	-88.6	2.7	7.76e-01	0	47	104	0	60	1048573
2026-01-18 06:26:18.53	299.09	20.07	-84.7	-88.6	2.7	7.76e-01	0	47	104	0	60	1048575
2026-01-18 06:26:19.54	298.88	20.00	-84.7	-88.6	2.9	7.76e-01	0	47	104	0	60	1048575
2026-01-18 06:26:20.55	298.68	19.92	-84.7	-88.6	3.0	7.77e-01	0	47	104	0	60	1048574
2026-01-18 06:26:21.56	298.47	19.85	-84.7	-88.6	3.0	7.77e-01	0	47	104	0	60	1048570
2026-01-18 06:26:22.57	298.27	19.77	-84.7	-88.6	2.9	7.76e-01	0	47	104	0	60	1048575
2026-01-18 06:26:23.57	298.07	19.69	-84.7	-88.6	3.1	7.76e-01	0	47	104	0	60	1048572
2026-01-18 06:26:24.58	297.87	19.62	-84.7	-88.6	3.0	7.77e-01	0	47	104	0	60	1048575
2026-01-18 06:26:25.58	297.67	19.54	-84.7	-88.6	2.9	7.75e-01	0	47	104	0	60	1048575
2026-01-18 06:26:26.58	297.47	19.46	-84.7	-88.6	3.0	7.76e-01	0	47	104	0	60	1048566
2026-01-18 06:26:27.59	297.27	19.39	-84.7	-88.6	3.3	7.78e-01	0	47	104	0	60	1048574
2026-01-18 06:26:28.60	297.08	19.31	-84.7	-88.6	3.1	7.77e-01	0	47	104	0	60	1048575
2026-01-18 06:26:29.60	296.88	19.23	-84.7	-88.6	3.0	7.75e-01	0	47	104	0	60	1048574
2026-01-18 06:26:30.60	296.69	19.15	-84.7	-88.6	3.0	7.77e-01	0	47	104	0	60	1048574
2026-01-18 06:26:31.60	296.49	19.08	-84.7	-88.6	2.9	7.76e-01	0	47	104	0	60	1048574
2026-01-18 06:26:32.61	296.30	19.00	-84.7	-88.6	3.5	7.76e-01	0	47	104	0	60	1048569
2026-01-18 06:26:33.62	296.11	18.92	-84.7	-88.6	2.6	7.77e-01	0	47	104	0	60	1048575
2026-01-18 06:26:34.62	295.92	18.84	-84.7	-88.6	2.8	7.77e-01	0	47	104	0	60	1048572
2026-01-18 06:26:35.63	295.73	18.77	-84.7	-88.6	3.0	7.76e-01	0	47	104	0	60	1048575
2026-01-18 06:26:36.64	295.54	18.69	-84.7	-88.6	2.9	7.76e-01	0	47	104	0	60	1048572
2026-01-18 06:26:37.64	295.35	18.61	-84.7	-88.6	3.1	7.75e-01	0	47	104	0	60	1048575
2026-01-18 06:26:38.65	295.16	18.53	-84.7	-88.6	3.1	7.77e-01	0	47	104	0	60	1048573
2026-01-18 06:26:39.66	294.98	18.45	-84.7	-88.6	2.6	7.75e-01	0	47	104	0	60	1048570
2026-01-18 06:26:40.66	294.79	18.38	-84.7	-88.6	3.1	7.76e-01	0	47	104	0	60	1048573
2026-01-18 06:26:41.67	294.61	18.30	-84.7	-88.6	3.1	7.77e-01	0	47	104	0	60	1048572
2026-01-18 06:26:42.68	294.43	18.22	-84.7	-88.6	3.2	7.76e-01	0	47	104	0	60	1048572
2026-01-18 06:26:43.68	294.24	18.14	-84.7	-88.6	3.2	7.75e-01	0	47	104	0	60	1048575
2026-01-18 06:26:44.69	294.06	18.06	-84.7	-88.6	3.0	7.74e-01	0	47	104	0	60	1048575
2026-01-18 06:26:45.70	293.88	17.98	-84.7	-88.6	2.9	7.76e-01	0	48	104	0	60	1048572
2026-01-18 06:26:46.70	293.70	17.90	-84.7	-88.6	3.1	7.77e-01	0	47	104	0	60	1048574
2026-01-18 06:26:47.71	293.53	17.83	-84.7	-88.6	3.4	7.76e-01	0	48	104	0	60	1048575
2026-01-18 06:26:48.71	293.35	17.75	-84.7	-88.6	2.8	7.77e-01	0	47	104	0	60	1048571
2026-01-18 06:26:49.72	293.17	17.67	-84.7	-88.6	3.4	7.76e-01	0	47	104	0	60	1048572
2026-01-18 06:26:50.73	293.00	17.59	-84.7	-88.6	2.7	7.71e-01	0	47	104	0	60	1048573
2026-01-18 06:26:51.73	292.82	17.51	-84.7	-88.6	3.2	7.75e-01	0	47	104	0	60	1048569
2026-01-18 06:26:52.74	292.65	17.43	-84.7	-88.6	2.9	7.75e-01	0	47	104	0	60	1048575
2026-01-18 06:26:53.75	292.47	17.35	-84.7	-88.6	3.0	7.76e-01	0	47	104	0	60	1048574
2026-01-18 06:26:54.76	292.30	17.27	-84.7	-88.6	3.1	7.76e-01	0	47	104	0	60	1048575
2026-01-18 06:26:55.77	292.13	17.19	-84.7	-88.6	3.5	7.77e-01	0	47	104	0	60	1048574
2026-01-18 06:26:56.77	291.96	17.12	-84.7	-88.6	3.5	7.77e-01	0	47	104	0	60	1048574
2026-01-18 06:26:57.78	291.79	17.04	-84.7	-88.6	2.7	7.77e-01	0	47	104	0	60	1048574
2026-01-18 06:26:58.78	291.62	16.96	-84.7	-88.6	3.0	7.76e-01	0	47	104	0	60	1048572
2026-01-18 06:26:59.79	291.46	16.88	-84.7	-88.6	2.9	7.78e-01	0	47	104	0	60	1048574
2026-01-18 06:27:00.79	291.29	16.80	-84.7	-88.6	3.0	7.77e-01	0	47	104	0	60	1048574
2026-01-18 06:27:01.80	291.13	16.72	-84.7	-88.6	2.9	7.77e-01	0	47	104	0	60	1048574
2026-01-18 06:27:02.81	290.96	16.64	-84.7	-88.6	2.4	7.75e-01	0	47	104	0	60	1048573
2026-01-18 06:27:03.81	290.80	16.57	-84.7	-88.6	2.8	7.77e-01	0	47	104	0	60	1048573
2026-01-18 06:27:04.81	290.64	16.49	-84.7	-88.6	2.7	7.76e-01	0	47	104	0	60	1048574
2026-01-18 06:27:05.82	290.47	16.41	-84.7	-88.6	3.0	7.76e-01	0	47	104	0	60	1048573
2026-01-18 06:27:06.83	290.31	16.33	-84.7	-88.6	3.2	7.76e-01	0	47	104	0	60	1048572
2026-01-18 06:27:07.84	290.15	16.25	-84.7	-88.6	2.9	7.75e-01	0	47	104	0	60	1048575
2026-01-18 06:27:08.84	289.99	16.17	-84.7	-88.6	3.1	7.77e-01	0	47	104	0	60	1048570
2026-01-18 06:27:09.85	289.83	16.09	-84.7	-88.6	2.8	7.74e-01	0	47	104	0	60	1048575
2026-01-18 06:27:10.86	289.67	16.01	-84.7	-88.6	3.1	7.77e-01	0	47	104	0	60	1048569
2026-01-18 06:27:11.87	289.52	15.93	-84.7	-88.6	3.2	7.76e-01	0	47	104	0	60	1048571
2026-01-18 06:27:12.88	289.36	15.86	-84.7	-88.6	2.7	7.77e-01	0	47	104	0	60	1048574
2026-01-18 06:27:13.88	289.21	15.78	-84.7	-88.6	2.7	7.76e-01	0	47	104	0	60	1048574
2026-01-18 06:27:14.89	289.05	15.70	-84.7	-88.6	2.7	7.77e-01	0	47	104	0	60	1048574
2026-01-18 06:27:15.89	288.90	15.62	-84.7	-88.6	3.0	7.76e-01	0	47	104	0	60	1048573
2026-01-18 06:27:16.90	288.74	15.54	-84.7	-88.6	3.0	7.77e-01	0	47	104	0	60	1048575
2026-01-18 06:27:17.91	288.59	15.46	-84.7	-88.6	3.2	7.77e-01	0	47	104	0	60	1048569
2026-01-18 06:27:18.92	288.44	15.39	-84.7	-88.6	2.6	7.76e-01	0	47	104	0	60	1048573
2026-01-18 06:27:19.92	288.29	15.31	-84.7	-88.6	3.2	7.76e-01	0	47	104	0	60	1048572
2026-01-18 06:27:20.93	288.14	15.23	-84.7	-88.6	3.0	7.76e-01	0	47	104	0	60	1048574
2026-01-18 06:27:21.94	287.99	15.15	-84.7	-88.6	2.9	7.78e-01	0	47	104	0	60	1048572
2026-01-18 06:27:22.95	287.84	15.07	-84.7	-88.6	2.9	7.76e-01	0	47	104	0	60	1048570
2026-01-18 06:27:23.95	287.70	14.99	-84.7	-88.6	2.9	7.76e-01	0	47	104	0	60	1048575
2026-01-18 06:27:24.96	287.55	14.92	-84.7	-88.6	3.0	7.77e-01	0	47	104	0	60	1048570
2026-01-18 06:27:25.97	287.40	14.84	-84.7	-88.6	2.9	7.77e-01	0	47	104	0	60	1048571
2026-01-18 06:27:26.98	287.26	14.76	-84.7	-88.6	3.0	7.76e-01	0	47	104	0	60	1048567
2026-01-18 06:27:27.99	287.11	14.68	-84.7	-88.6	3.5	7.78e-01	0	47	104	0	60	1048575
2026-01-18 06:27:29.00	286.97	14.60	-84.7	-88.6	2.5	7.76e-01	0	47	104	0	60	1048567
2026-01-18 06:27:30.00	286.83	14.53	-84.7	-88.6	2.8	7.77e-01	0	47	104	0	60	1048574
2026-01-18 06:27:31.01	286.68	14.45	-84.7	-88.6	3.0	7.77e-01	0	47	104	0	60	1048574
2026-01-18 06:27:32.02	286.54	14.37	-84.7	-88.6	3.2	7.76e-01	0	47	104	0	60	1048560
2026-01-18 06:27:33.02	286.40	14.29	-84.7	-88.6	3.5	7.77e-01	0	47	104	0	60	1048567
2026-01-18 06:27:34.02	286.27	14.22	-84.7	-88.6	3.5	7.76e-01	0	47	104	0	60	1048575
2026-01-18 06:27:35.03	286.13	14.14	-84.7	-88.6	3.0	7.76e-01	0	47	104	0	60	1048574
2026-01-18 06:27:36.03	285.99	14.06	-84.7	-88.6	3.1	7.76e-01	0	47	104	0	60	1048574
2026-01-18 06:27:37.03	285.85	13.99	-84.7	-88.6	3.1	7.77e-01	0	47	104	0	60	1048574
2026-01-18 06:27:38.04	285.71	13.91	-84.7	-88.6	2.9	7.76e-01	0	47	104	0	60	1048574
2026-01-18 06:27:39.04	285.58	13.83	-84.7	-88.6	2.9	7.76e-01	0	47	104	0	60	1048568
2026-01-18 06:27:40.05	285.44	13.75	-84.7	-88.6	2.9	7.77e-01	0	47	104	0	60	1048572
2026-01-18 06:27:41.06	285.31	13.68	-84.7	-88.6	3.0	7.76e-01	0	47	104	0	60	1048568
2026-01-18 06:27:42.06	285.18	13.60	-84.7	-88.6	3.3	7.77e-01	0	47	104	0	60	1048575
2026-01-18 06:27:43.07	285.04	13.52	-84.7	-88.6	2.5	7.76e-01	0	47	104	0	60	1048575
2026-01-18 06:27:44.08	284.91	13.45	-84.7	-88.6	3.5	7.77e-01	0	47	104	0	60	1048574
2026-01-18 06:27:45.09	284.78	13.37	-84.7	-88.6	2.9	7.76e-01	0	47	104	0	60	1048567
2026-01-18 06:27:46.10	284.65	13.29	-84.7	-88.6	3.0	7.76e-01	0	47	104	0	60	1048563
2026-01-18 06:27:47.11	284.52	13.22	-84.7	-88.6	2.9	7.78e-01	0	47	104	0	60	1048570
2026-01-18 06:27:48.12	284.39	13.14	-84.7	-88.6	3.6	7.76e-01	0	47	104	0	60	1048572
2026-01-18 06:27:49.13	284.26	13.06	-84.7	-88.6	3.4	7.77e-01	0	47	104	0	60	1048574
2026-01-18 06:27:50.13	284.13	12.99	-84.7	-88.6	2.9	7.77e-01	0	47	104	0	60	1048574
2026-01-18 06:27:51.14	284.00	12.91	-84.7	-88.6	3.1	7.76e-01	0	47	104	0	60	1048572
2026-01-18 06:27:52.15	283.87	12.84	-84.7	-88.6	2.8	7.77e-01	0	47	104	0	60	1048574
2026-01-18 06:27:53.16	283.75	12.76	-84.7	-88.6	3.0	7.77e-01	0	47	104	0	60	1048572
2026-01-18 06:27:54.16	283.62	12.69	-84.7	-88.6	2.9	7.76e-01	0	47	104	0	60	1048574
2026-01-18 06:27:55.17	283.50	12.61	-84.7	-88.6	3.1	7.76e-01	0	47	104	0	60	1048575
2026-01-18 06:27:56.17	283.37	12.53	-84.7	-88.6	3.4	7.76e-01	0	47	104	0	60	1048574
2026-01-18 06:27:57.18	283.25	12.46	-84.7	-88.6	3.0	7.75e-01	0	47	104	0	60	1048575
2026-01-18 06:27:58.18	283.13	12.38	-84.7	-88.6	3.0	7.78e-01	0	47	104	0	60	1048570
2026-01-18 06:27:59.19	283.00	12.31	-84.7	-88.6	3.0	7.74e-01	0	47	104	0	60	1048555
2026-01-18 06:28:00.20	282.88	12.23	-84.7	-88.6	3.0	7.77e-01	0	47	104	0	60	1048569
2026-01-18 06:28:01.21	282.76	12.16	-84.7	-88.6	3.2	7.77e-01	0	47	104	0	60	1048571
2026-01-18 06:28:02.22	282.64	12.08	-84.7	-88.6	3.2	7.77e-01	0	47	104	0	60	1048571
2026-01-18 06:28:03.23	282.52	12.01	-84.7	-88.6	2.9	7.76e-01	0	47	104	0	60	1048575
2026-01-18 06:28:04.23	282.40	11.93	-84.7	-88.6	3.2	7.76e-01	0	47	104	0	60	1048572
2026-01-18 06:28:05.24	282.28	11.86	-84.7	-88.6	2.5	7.77e-01	0	47	104	0	60	1048575
2026-01-18 06:28:06.24	282.16	11.79	-84.7	-88.6	3.2	7.76e-01	0	47	104	0	60	1048558
2026-01-18 06:28:07.25	282.05	11.71	-84.7	-88.6	3.1	7.78e-01	0	47	104	0	60	1048573
2026-01-18 06:28:08.26	281.93	11.64	-84.7	-88.6	3.0	7.76e-01	0	47	104	0	60	1048571
2026-01-18 06:28:09.26	281.81	11.56	-84.7	-88.6	2.9	7.78e-01	0	47	104	0	60	1048573
2026-01-18 06:28:10.26	281.70	11.49	-84.7	-88.6	2.9	7.76e-01	0	47	104	0	60	1048574
2026-01-18 06:28:11.27	281.58	11.41	-84.7	-88.6	2.8	7.77e-01	0	47	104	0	60	1048573
2026-01-18 06:28:12.28	281.47	11.34	-84.7	-88.6	3.4	7.77e-01	0	47	104	0	60	1048568
2026-01-18 06:28:13.29	281.35	11.27	-84.7	-88.6	3.0	7.77e-01	0	47	104	0	60	1048575
2026-01-18 06:28:14.29	281.24	11.19	-84.7	-88.6	2.9	7.77e-01	0	47	104	0	60	1048574
2026-01-18 06:28:15.30	281.13	11.12	-84.7	-88.6	2.9	7.77e-01	0	47	104	0	60	1048574
2026-01-18 06:28:16.31	281.02	11.05	-84.7	-88.6	3.0	7.76e-01	0	47	104	0	60	1048573
2026-01-18 06:28:17.31	280.91	10.97	-84.7	-88.6	3.0	7.77e-01	0	47	104	0	60	1048570
2026-01-18 06:28:18.32	280.79	10.90	-84.7	-88.6	2.7	7.75e-01	0	47	104	0	60	1048573
2026-01-18 06:28:19.33	280.68	10.83	-84.7	-88.6	3.4	7.78e-01	0	47	104	0	60	1048573
2026-01-18 06:28:20.33	280.57	10.75	-84.7	-88.6	3.0	7.76e-01	0	47	104	0	60	1048575
2026-01-18 06:28:21.34	280.46	10.68	-84.7	-88.6	3.1	7.76e-01	0	47	104	0	60	1048573
2026-01-18 06:28:22.35	280.36	10.61	-84.7	-88.6	3.1	7.78e-01	0	47	104	0	60	1048572
2026-01-18 06:28:23.36	280.25	10.54	-84.7	-88.6	3.1	7.76e-01	0	47	104	0	60	1048561
2026-01-18 06:28:24.37	280.14	10.46	-84.7	-88.6	3.3	7.76e-01	0	47	104	0	60	1048575
2026-01-18 06:28:25.37	280.03	10.39	-84.7	-88.6	3.0	7.77e-01	0	47	104	0	60	1048563
2026-01-18 06:28:26.38	279.93	10.32	-84.7	-88.6	3.4	7.76e-01	0	47	104	0	60	1048573
2026-01-18 06:28:27.39	279.82	10.25	-84.7	-88.6	2.8	7.76e-01	0	47	104	0	60	1048571
2026-01-18 06:28:28.40	279.71	10.17	-84.7	-88.6	2.9	7.77e-01	0	47	104	0	60	1048574
2026-01-18 06:28:29.40	279.61	10.10	-84.7	-88.6	3.1	7.76e-01	0	47	104	0	60	1048569
2026-01-18 06:28:30.41	279.51	10.03	-84.7	-88.6	3.1	7.76e-01	0	47	104	0	60	1048572
2026-01-18 06:28:31.41	279.40	9.96	-84.7	-88.6	3.0	7.75e-01	0	47	104	0	60	1048572
2026-01-18 06:28:32.42	279.30	9.89	-84.7	-88.6	2.9	7.77e-01	0	47	104	0	60	1048575
2026-01-18 06:28:33.43	279.20	9.82	-84.7	-88.6	3.6	7.77e-01	0	47	104	0	60	1048575
2026-01-18 06:28:34.44	279.09	9.74	-84.7	-88.6	2.8	7.78e-01	0	47	104	0	60	1048574
2026-01-18 06:28:35.45	278.99	9.67	-84.7	-88.6	3.0	7.78e-01	0	47	104	0	60	1048575
2026-01-18 06:28:36.45	278.89	9.60	-84.7	-88.6	3.0	7.76e-01	0	47	104	0	60	1048575
2026-01-18 06:28:37.46	278.79	9.53	-84.7	-88.6	2.6	7.77e-01	0	47	104	0	60	1048572
2026-01-18 06:28:38.46	278.69	9.46	-84.7	-88.6	2.9	7.76e-01	0	47	104	0	60	1048562
2026-01-18 06:28:39.46	278.59	9.39	-84.7	-88.6	2.6	7.77e-01	0	47	104	0	60	1048573
2026-01-18 06:28:40.47	278.49	9.32	-84.7	-88.6	3.1	7.76e-01	0	47	104	0	60	1048575
2026-01-18 06:28:41.48	278.39	9.25	-84.7	-88.6	2.9	7.78e-01	0	47	104	0	60	1048575
2026-01-18 06:28:42.49	278.29	9.18	-84.7	-88.6	3.2	7.75e-01	0	47	104	0	60	1048562
2026-01-18 06:28:43.50	278.19	9.11	-84.7	-88.6	2.6	7.77e-01	0	47	104	0	60	1048572
2026-01-18 06:28:44.50	278.10	9.04	-84.7	-88.6	2.8	7.78e-01	0	47	104	0	60	1048574
2026-01-18 06:28:45.51	278.00	8.97	-84.7	-88.6	3.1	7.75e-01	0	47	104	0	60	1048571
2026-01-18 06:28:46.52	277.90	8.90	-84.7	-88.6	3.0	7.77e-01	0	47	104	0	60	1048572
2026-01-18 06:28:47.53	277.81	8.83	-84.7	-88.6	3.1	7.77e-01	0	47	104	0	60	1048575
2026-01-18 06:28:48.54	277.71	8.76	-84.7	-88.6	3.0	7.76e-01	0	47	104	0	60	1048567
2026-01-18 06:28:49.54	277.62	8.69	-84.7	-88.6	3.7	7.76e-01	0	47	104	0	60	1048565
2026-01-18 06:28:50.55	277.52	8.62	-84.7	-88.6	3.1	7.74e-01	0	47	104	0	60	1048575
2026-01-18 06:28:51.56	277.43	8.55	-84.7	-88.6	3.4	7.78e-01	0	47	104	0	60	1048574
2026-01-18 06:28:52.57	277.34	8.48	-84.7	-88.6	3.0	7.77e-01	0	47	104	0	60	1048574
2026-01-18 06:28:53.57	277.24	8.41	-84.7	-88.6	3.0	7.77e-01	0	47	104	0	60	1048573
2026-01-18 06:28:54.58	277.15	8.34	-84.7	-88.6	3.3	7.76e-01	0	47	104	0	60	1048574
2026-01-18 06:28:55.59	277.06	8.27	-84.7	-88.6	3.1	7.76e-01	0	47	104	0	60	1048575
2026-01-18 06:28:56.59	276.97	8.20	-84.7	-88.6	3.4	7.76e-01	0	47	104	0	60	1048571
2026-01-18 06:28:57.60	276.87	8.14	-84.7	-88.6	2.9	7.76e-01	0	47	104	0	60	1048572
2026-01-18 06:28:58.60	276.78	8.07	-84.7	-88.6	3.0	7.77e-01	0	47	104	0	60	1048573
2026-01-18 06:28:59.61	276.69	8.00	-84.7	-88.6	3.0	7.77e-01	0	47	104	0	60	1048573
2026-01-18 06:29:00.61	276.60	7.93	-84.7	-88.6	2.5	7.76e-01	0	47	104	0	60	1048575
2026-01-18 06:29:01.62	276.51	7.86	-84.7	-88.6	2.9	7.76e-01	0	47	104	0	60	1048575
2026-01-18 06:29:02.62	276.43	7.79	-84.7	-88.6	2.6	7.76e-01	0	47	104	0	60	1048571
2026-01-18 06:29:03.63	276.34	7.73	-84.7	-88.6	3.5	7.76e-01	0	48	104	0	60	1048566
2026-01-18 06:29:04.63	276.25	7.66	-84.7	-88.6	3.2	7.76e-01	0	48	104	0	60	1048574
2026-01-18 06:29:05.64	276.16	7.59	-84.7	-88.6	2.8	7.77e-01	0	48	104	0	60	1048567
2026-01-18 06:29:06.64	276.07	7.52	-84.7	-88.6	3.0	7.76e-01	0	47	104	0	60	1048569
2026-01-18 06:29:07.65	275.99	7.46	-84.7	-88.6	3.0	7.77e-01	0	47	104	0	60	1048575
2026-01-18 06:29:08.66	275.90	7.39	-84.7	-88.6	3.0	7.73e-01	0	47	104	0	60	1048575
2026-01-18 06:29:09.66	275.82	7.32	-84.7	-88.6	3.0	7.76e-01	0	47	104	0	60	1048574
2026-01-18 06:29:10.67	275.73	7.25	-84.7	-88.6	3.0	7.76e-01	0	47	104	0	60	1048568
2026-01-18 06:29:11.68	275.64	7.19	-84.7	-88.6	3.0	7.75e-01	0	47	104	0	60	1048571
2026-01-18 06:29:12.69	275.56	7.12	-84.7	-88.6	3.6	7.76e-01	0	47	104	0	60	1048572
2026-01-18 06:29:13.69	275.47	7.05	-84.7	-88.6	3.2	7.76e-01	0	47	104	0	60	1048575
2026-01-18 06:29:14.70	275.39	6.99	-84.7	-88.6	3.1	7.76e-01	0	47	104	0	60	1048572
2026-01-18 06:29:15.71	275.31	6.92	-84.7	-88.6	3.0	7.76e-01	0	47	104	0	60	1048575
2026-01-18 06:29:16.71	275.22	6.85	-84.7	-88.6	3.0	7.78e-01	0	47	104	0	60	1048569
2026-01-18 06:29:17.72	275.14	6.79	-84.7	-88.6	3.2	7.77e-01	0	47	104	0	60	1048572
2026-01-18 06:29:18.72	275.06	6.72	-84.7	-88.6	3.0	7.77e-01	0	47	104	0	60	1048575
2026-01-18 06:29:19.73	274.98	6.66	-84.7	-88.6	3.2	7.77e-01	0	47	104	0	60	1048575
2026-01-18 06:29:20.74	274.89	6.59	-84.7	-88.6	2.8	7.77e-01	0	47	104	0	60	1048573
2026-01-18 06:29:21.74	274.81	6.52	-84.7	-88.6	3.3	7.76e-01	0	48	104	0	60	1048572
2026-01-18 06:29:22.76	274.73	6.46	-84.7	-88.6	3.1	7.78e-01	0	47	104	0	60	1048572
2026-01-18 06:29:23.77	274.65	6.39	-84.7	-88.6	3.0	7.75e-01	0	47	104	0	60	1048575
2026-01-18 06:29:24.77	274.57	6.33	-84.7	-88.6	3.0	7.76e-01	0	47	104	0	60	1048574
2026-01-18 06:29:25.78	274.49	6.26	-84.7	-88.6	3.3	7.78e-01	0	47	104	0	60	1048570
2026-01-18 06:29:26.78	274.41	6.20	-84.7	-88.6	2.8	7.77e-01	0	47	104	0	60	1048567
2026-01-18 06:29:27.79	274.33	6.13	-84.7	-88.6	3.2	7.78e-01	0	47	104	0	60	1048570
2026-01-18 06:29:28.79	274.25	6.07	-84.7	-88.6	3.4	7.77e-01	0	47	104	0	60	1048555
2026-01-18 06:29:29.79	274.18	6.00	-84.7	-88.6	3.1	7.76e-01	0	47	104	0	60	1048575
2026-01-18 06:29:30.80	274.10	5.94	-84.7	-88.6	2.7	7.76e-01	0	47	104	0	60	1048572
2026-01-18 06:29:31.81	274.02	5.87	-84.7	-88.6	2.9	7.77e-01	0	48	104	0	60	1048575
2026-01-18 06:29:32.81	273.94	5.81	-84.7	-88.6	3.3	7.77e-01	0	47	104	0	60	1048572
2026-01-18 06:29:33.82	273.87	5.74	-84.7	-88.6	3.0	7.77e-01	0	47	104	0	60	1048575
2026-01-18 06:29:34.83	273.79	5.68	-84.7	-88.6	3.4	7.76e-01	0	47	104	0	60	1048573
2026-01-18 06:29:35.84	273.71	5.61	-84.7	-88.6	3.0	7.77e-01	0	47	104	0	60	1048570
2026-01-18 06:29:36.85	273.64	5.55	-84.7	-88.6	3.3	7.76e-01	0	48	104	0	60	1048574
2026-01-18 06:29:37.85	273.56	5.48	-84.7	-88.6	3.0	7.76e-01	0	47	104	0	60	1048575
2026-01-18 06:29:38.86	273.49	5.42	-84.7	-88.6	2.7	7.76e-01	0	48	104	0	60	1048564
2026-01-18 06:29:39.87	273.41	5.36	-84.7	-88.6	3.3	7.78e-01	0	47	104	0	60	1048567
2026-01-18 06:29:40.88	273.34	5.29	-84.7	-88.6	3.0	7.77e-01	0	47	104	0	60	1048573
2026-01-18 06:29:41.89	273.26	5.23	-84.7	-88.6	3.2	7.76e-01	0	47	104	0	60	1048554
2026-01-18 06:29:42.89	273.19	5.16	-84.7	-88.6	3.0	7.76e-01	0	48	104	0	60	1048573
2026-01-18 06:29:43.90	273.11	5.10	-84.7	-88.6	3.1	7.76e-01	0	47	104	0	60	1048575
2026-01-18 06:29:44.91	273.04	5.04	-84.7	-88.6	2.4	7.77e-01	0	48	104	0	60	1048570
2026-01-18 06:29:45.91	272.97	4.97	-84.7	-88.6	3.2	7.76e-01	0	48	104	0	60	1048569
2026-01-18 06:29:46.92	272.90	4.91	-84.7	-88.6	2.6	7.76e-01	0	48	104	0	60	1048574
2026-01-18 06:29:47.93	272.82	4.85	-84.7	-88.6	3.3	7.77e-01	0	47	104	0	60	1048575
2026-01-18 06:29:48.93	272.75	4.79	-84.7	-88.6	2.8	7.75e-01	0	47	104	0	60	1048575
2026-01-18 06:29:49.94	272.68	4.72	-84.7	-88.6	2.8	7.76e-01	0	47	104	0	60	1048575
2026-01-18 06:29:50.95	272.61	4.66	-84.7	-88.6	3.5	7.78e-01	0	47	104	0	60	1048573
2026-01-18 06:29:51.95	272.54	4.60	-84.7	-88.6	2.9	7.78e-01	0	47	104	0	60	1048573
2026-01-18 06:29:52.95	272.47	4.53	-84.7	-88.6	3.1	7.76e-01	0	47	104	0	60	1048574
2026-01-18 06:29:53.96	272.40	4.47	-84.7	-88.6	3.0	7.77e-01	0	47	104	0	60	1048572
2026-01-18 06:29:54.97	272.33	4.41	-84.7	-88.6	3.2	7.77e-01	0	47	104	0	60	1048575
2026-01-18 06:29:55.98	272.26	4.35	-84.7	-88.6	3.5	7.78e-01	0	47	104	0	60	1048571
2026-01-18 06:29:56.99	272.19	4.28	-84.7	-88.6	2.7	7.76e-01	0	47	104	0	60	1048574
2026-01-18 06:29:58.00	272.12	4.22	-84.7	-88.6	2.9	7.78e-01	0	47	104	0	60	1048575
2026-01-18 06:29:59.00	272.05	4.16	-84.7	-88.6	2.3	7.75e-01	0	47	104	0	60	1048574
2026-01-18 06:30:00.00	271.98	4.10	-84.7	-88.6	3.0	7.76e-01	0	47	104	0	60	1048570
2026-01-18 06:30:01.01	271.91	4.04	-84.7	-88.6	3.0	7.77e-01	0	47	104	0	60	1048575
2026-01-18 06:30:02.02	271.85	3.98	-84.7	-88.6	3.0	7.76e-01	0	48	104	0	60	1048575
2026-01-18 06:30:03.02	271.78	3.91	-84.7	-88.6	3.3	7.75e-01	0	47	104	0	60	1048574
2026-01-18 06:30:04.03	271.71	3.85	-84.7	-88.6	3.3	7.75e-01	0	48	104	0	60	1048575
2026-01-18 06:30:05.03	271.64	3.79	-84.7	-88.6	2.9	7.76e-01	0	47	104	0	60	1048575
2026-01-18 06:30:06.03	271.58	3.73	-84.7	-88.6	3.6	7.76e-01	0	48	104	0	60	1048573
2026-01-18 06:30:07.04	271.51	3.67	-84.7	-88.6	3.2	7.73e-01	0	48	104	0	60	1048574
2026-01-18 06:30:08.04	271.45	3.61	-84.7	-88.6	2.8	7.74e-01	0	48	104	0	60	1048569
2026-01-18 06:30:09.05	271.38	3.55	-84.7	-88.6	2.9	7.76e-01	0	48	104	0	60	1048573
2026-01-18 06:30:10.05	271.32	3.49	-84.7	-88.6	3.4	7.77e-01	0	48	104	0	60	1048575
2026-01-18 06:30:11.06	271.25	3.43	-84.7	-88.6	2.4	7.76e-01	0	48	104	0	60	1048572
2026-01-18 06:30:12.07	271.18	3.37	-84.7	-88.6	2.5	7.77e-01	0	47	104	0	60	1048572
2026-01-18 06:30:13.07	271.12	3.31	-84.7	-88.6	2.9	7.76e-01	0	48	104	0	60	1048571
2026-01-18 06:30:14.08	271.06	3.25	-84.7	-88.6	3.0	7.77e-01	0	47	104	0	60	1048574
2026-01-18 06:30:15.09	270.99	3.18	-84.7	-88.6	2.8	7.76e-01	0	47	104	0	60	1048572
2026-01-18 06:30:16.09	270.93	3.13	-84.7	-88.6	3.1	7.77e-01	0	48	104	0	60	1048574
2026-01-18 06:30:17.10	270.86	3.06	-84.7	-88.6	2.8	7.76e-01	0	48	104	0	60	1048570
2026-01-18 06:30:18.10	270.80	3.01	-84.7	-88.6	2.6	7.76e-01	0	48	104	0	60	1048575
2026-01-18 06:30:19.10	270.74	2.95	-84.7	-88.6	2.7	7.77e-01	0	48	104	0	60	1048573
2026-01-18 06:30:20.11	270.68	2.89	-84.7	-88.6	2.8	7.78e-01	0	47	104	0	60	1048572
2026-01-18 06:30:21.11	270.61	2.83	-84.7	-88.6	2.5	7.77e-01	0	47	104	0	60	1048566
2026-01-18 06:30:22.12	270.55	2.77	-84.7	-88.6	3.2	7.76e-01	0	47	104	0	60	1048574
2026-01-18 06:30:23.12	270.49	2.71	-84.7	-88.6	3.0	7.76e-01	0	48	104	0	60	1048575
2026-01-18 06:30:24.13	270.43	2.65	-84.7	-88.6	2.5	7.77e-01	0	47	104	0	60	1048571
2026-01-18 06:30:25.13	270.37	2.59	-84.7	-88.6	3.0	7.76e-01	0	48	104	0	60	1048575
2026-01-18 06:30:26.13	270.31	2.53	-84.7	-88.6	3.5	7.75e-01	0	48	104	0	60	1048575
2026-01-18 06:30:27.14	270.25	2.47	-84.7	-88.6	2.3	7.76e-01	0	47	104	0	60	1048570
2026-01-18 06:30:28.14	270.18	2.41	-84.7	-88.6	2.8	7.76e-01	0	47	104	0	60	1048572
2026-01-18 06:30:29.14	270.12	2.35	-84.7	-88.6	3.0	7.76e-01	0	48	104	0	60	1048574
2026-01-18 06:30:30.15	270.06	2.29	-84.7	-88.6	3.1	7.77e-01	0	47	104	0	60	1048574
2026-01-18 06:30:31.16	270.00	2.23	-84.7	-88.6	3.2	7.77e-01	0	47	104	0	60	1048574
2026-01-18 06:30:32.17	269.94	2.18	-84.7	-88.6	2.9	7.77e-01	0	47	104	0	60	1048573
2026-01-18 06:30:33.17	269.89	2.12	-84.7	-88.6	3.3	7.75e-01	0	48	104	0	60	1048575
2026-01-18 06:30:34.18	269.83	2.06	-84.7	-88.6	3.2	7.76e-01	0	48	104	0	60	1048575
2026-01-18 06:30:35.19	269.77	2.00	-84.7	-88.6	3.0	7.77e-01	0	47	104	0	60	1048572
2026-01-18 06:30:36.20	269.71	1.94	-84.7	-88.6	3.2	7.76e-01	0	47	104	0	60	1048573
2026-01-18 06:30:37.21	269.65	1.88	-84.7	-88.6	3.1	7.77e-01	0	47	104	0	60	1048572
2026-01-18 06:30:38.21	269.59	1.83	-84.7	-88.6	3.0	7.76e-01	0	47	104	0	60	1048572
2026-01-18 06:30:39.22	269.53	1.77	-84.7	-88.6	2.9	7.76e-01	0	48	104	0	60	1048570
2026-01-18 06:30:40.23	269.48	1.71	-84.7	-88.6	3.1	7.77e-01	0	48	104	0	60	1048571
2026-01-18 06:30:41.23	269.42	1.65	-84.7	-88.6	3.0	7.78e-01	0	48	104	0	60	1048572
2026-01-18 06:30:42.25	269.36	1.59	-84.7	-88.6	2.8	7.77e-01	0	48	104	0	60	1048573
2026-01-18 06:30:43.25	269.30	1.54	-84.7	-88.6	2.5	7.77e-01	0	47	104	0	60	1048564
2026-01-18 06:30:44.26	269.25	1.48	-84.7	-88.6	3.1	7.75e-01	0	48	104	0	60	1048574
2026-01-18 06:30:45.27	269.19	1.42	-84.7	-88.6	2.8	7.77e-01	0	47	104	0	60	1048572
2026-01-18 06:30:46.28	269.13	1.36	-84.7	-88.6	2.8	7.77e-01	0	48	104	0	60	1048575
2026-01-18 06:30:47.29	269.08	1.30	-84.7	-88.6	3.1	7.76e-01	0	48	104	0	60	1048563
2026-01-18 06:30:48.29	269.02	1.25	-84.7	-88.6	2.7	7.76e-01	0	48	104	0	60	1048575
2026-01-18 06:30:49.30	268.97	1.19	-84.7	-88.6	2.7	7.72e-01	0	48	104	0	60	1048572
2026-01-18 06:30:50.31	268.91	1.13	-84.7	-88.6	3.4	7.76e-01	0	48	104	0	60	1048574
2026-01-18 06:30:51.32	268.86	1.08	-84.7	-88.6	2.3	7.75e-01	0	48	104	0	60	1048564
2026-01-18 06:30:52.32	268.80	1.02	-84.7	-88.6	3.1	7.77e-01	0	47	104	0	60	1048575
2026-01-18 06:30:53.33	268.75	0.96	-84.7	-88.6	3.0	7.75e-01	0	48	104	0	60	1048571
2026-01-18 06:30:54.34	268.69	0.91	-84.7	-88.6	2.4	7.75e-01	0	47	104	0	60	1048573
2026-01-18 06:30:55.35	268.64	0.85	-84.7	-88.6	2.9	7.76e-01	0	47	104	0	60	1048575
2026-01-18 06:30:56.34	268.58	0.79	-84.7	-88.6	2.9	7.77e-01	0	47	104	0	60	1048574
2026-01-18 06:30:57.35	268.53	0.74	-84.7	-88.6	3.3	7.77e-01	0	47	104	0	60	1048575
2026-01-18 06:30:58.36	268.48	0.68	-84.7	-88.6	3.3	7.76e-01	0	47	104	0	60	1048570
2026-01-18 06:30:59.37	268.42	0.62	-84.7	-88.6	2.9	7.78e-01	0	47	104	0	60	1048575
2026-01-18 06:31:00.37	268.37	0.57	-84.7	-88.6	3.0	7.75e-01	0	47	104	0	60	1048575
2026-01-18 06:31:01.38	268.32	0.51	-84.7	-88.6	3.1	7.76e-01	0	47	104	0	60	1048575
2026-01-18 06:31:02.39	268.26	0.45	-84.7	-88.6	3.0	7.77e-01	0	47	104	0	60	1048575
2026-01-18 06:31:03.40	268.21	0.40	-84.7	-88.6	2.9	7.76e-01	0	48	104	0	60	1048573
2026-01-18 06:31:04.41	268.16	0.34	-84.7	-88.6	3.3	7.77e-01	0	47	104	0	60	1048572
2026-01-18 06:31:05.41	268.11	0.29	-84.7	-88.6	2.3	7.76e-01	0	47	104	0	60	1048575
2026-01-18 06:31:06.42	268.06	0.23	-84.7	-88.6	2.8	7.72e-01	0	48	104	0	60	1048572
2026-01-18 06:31:07.43	268.00	0.17	-84.7	-88.6	2.6	7.75e-01	0	47	104	0	60	1048575
2026-01-18 06:31:08.43	267.95	0.12	-84.7	-88.6	2.8	7.76e-01	0	47	104	0	60	1048572
2026-01-18 06:31:09.44	267.90	0.06	-84.7	-88.6	2.6	7.76e-01	0	47	104	0	60	1048569
2026-01-18 06:31:10.45	267.85	0.01	-84.7	-88.6	2.6	7.76e-01	0	47	104	0	60	1048574

#Closed at: 2026-01-18 06:31:11
#Recorded file [0 MB]: D:/Data/35015_260118_092509.dat