passes_logs/2026/01/18/R3.2S-Naryan-Mar/R3.2S-Naryan-Mar__20260118_021426_NOAA_20_JPSS-1_rec.log

#Pass ID: 20260118_021426_NOAA 20 (JPSS-1)
#Satellite: NOAA 20 (JPSS-1)
#Configuration: NOAA 20
#almurnet v.1.7.20240730
#Start time: 2026-01-18 02:14:27

#Version: 2.2.20231116
#Station: R3.2S-Naryan-Mar
#Location: 53.008057 lon 67.646978 lat
#TLE: 1 43013U 17073A   26017.30359522  .00000067  00000+0  52526-4 0  9990
#TLE: 2 43013  98.7639 318.2187 0001419  36.2087 323.9184 14.19536557423067

#Time	Az	El	Level	Level2	SNR	BER	BlckErr	Temp	State	Recorded	gain1	gain2
2026-01-18 02:14:27.32	42.01	0.05	-85.2	-88.6	3.1	1.56e+00	0	45	0	0	60	1048575
2026-01-18 02:14:28.32	41.96	0.11	-85.2	-88.6	2.8	1.56e+00	0	46	104	0	60	1048575
2026-01-18 02:14:29.33	41.90	0.16	-84.3	-88.6	3.0	1.56e+00	0	46	104	0	60	1048575
2026-01-18 02:14:30.33	41.85	0.22	-85.2	-88.6	3.1	1.55e+00	0	46	104	0	60	1048573
2026-01-18 02:14:31.34	41.80	0.27	-85.2	-88.6	3.1	1.56e+00	0	46	104	0	60	1048570
2026-01-18 02:14:32.35	41.74	0.33	-85.2	-88.6	3.2	1.56e+00	0	46	104	0	60	1048575
2026-01-18 02:14:33.36	41.69	0.38	-85.2	-88.6	3.0	1.56e+00	0	46	104	0	60	1048575
2026-01-18 02:14:34.36	41.63	0.44	-85.2	-88.6	2.9	1.56e+00	0	46	104	0	60	1048575
2026-01-18 02:14:35.36	41.58	0.49	-85.2	-88.6	3.1	1.55e+00	0	46	104	0	60	1048575
2026-01-18 02:14:36.37	41.53	0.55	-85.2	-88.6	3.0	1.56e+00	0	46	104	0	60	1048575
2026-01-18 02:14:37.37	41.47	0.61	-85.2	-88.6	3.1	1.56e+00	0	46	104	0	60	1048569
2026-01-18 02:14:38.38	41.42	0.66	-85.2	-88.6	3.0	1.55e+00	0	46	104	0	60	1048572
2026-01-18 02:14:39.39	41.36	0.72	-85.2	-88.6	2.9	1.56e+00	0	46	104	0	60	1048573
2026-01-18 02:14:40.40	41.30	0.77	-85.2	-88.6	3.2	1.56e+00	0	46	104	0	60	1048575
2026-01-18 02:14:41.40	41.25	0.83	-85.2	-88.6	3.0	1.55e+00	0	46	104	0	60	1048574
2026-01-18 02:14:42.41	41.19	0.88	-85.2	-88.6	3.1	1.55e+00	0	46	104	0	60	1048575
2026-01-18 02:14:43.42	41.13	0.94	-85.2	-88.6	2.8	1.56e+00	0	46	104	0	60	1048572
2026-01-18 02:14:44.42	41.08	1.00	-85.2	-88.6	3.1	1.56e+00	0	46	104	0	60	1048575
2026-01-18 02:14:45.43	41.02	1.05	-85.2	-88.6	3.1	1.56e+00	0	46	104	0	60	1048575
2026-01-18 02:14:46.43	40.96	1.11	-85.2	-88.6	3.0	1.56e+00	0	46	104	0	60	1048571
2026-01-18 02:14:47.44	40.91	1.17	-85.2	-88.6	3.0	1.56e+00	0	46	104	0	60	1048573
2026-01-18 02:14:48.45	40.85	1.22	-84.3	-88.6	3.2	1.56e+00	0	46	104	0	60	1048574
2026-01-18 02:14:49.45	40.79	1.28	-83.5	-88.6	3.3	1.56e+00	0	46	104	0	60	1048575
2026-01-18 02:14:50.46	40.73	1.33	-84.3	-88.6	3.1	1.56e+00	0	46	104	0	60	1048573
2026-01-18 02:14:51.46	40.68	1.39	-85.2	-88.6	2.9	1.56e+00	0	46	104	0	60	1048575
2026-01-18 02:14:52.47	40.62	1.45	-85.2	-88.6	3.1	1.55e+00	0	46	104	0	60	1048575
2026-01-18 02:14:53.48	40.56	1.50	-85.2	-88.6	2.8	1.56e+00	0	46	104	0	60	1048575
2026-01-18 02:14:54.49	40.50	1.56	-84.3	-88.6	3.1	1.56e+00	0	46	104	0	60	1048572
2026-01-18 02:14:55.50	40.44	1.62	-83.9	-88.6	2.9	1.56e+00	0	46	104	0	60	1048575
2026-01-18 02:14:56.50	40.38	1.68	-85.2	-88.6	3.0	1.55e+00	0	46	104	0	60	1048574
2026-01-18 02:14:57.51	40.32	1.73	-85.2	-88.6	3.1	1.55e+00	0	46	104	0	60	1048573
2026-01-18 02:14:58.52	40.26	1.79	-85.2	-88.6	3.0	1.55e+00	0	46	104	0	60	1048575
2026-01-18 02:14:59.53	40.20	1.85	-85.2	-88.6	3.0	1.56e+00	0	47	104	0	60	1048574
2026-01-18 02:15:00.54	40.14	1.91	-84.3	-88.6	2.9	1.56e+00	0	46	104	0	60	1048575
2026-01-18 02:15:01.54	40.08	1.96	-85.2	-88.6	3.0	1.56e+00	0	46	104	0	60	1048575
2026-01-18 02:15:02.55	40.02	2.02	-85.2	-88.6	3.0	1.56e+00	0	47	104	0	60	1048574
2026-01-18 02:15:03.56	39.96	2.08	-85.2	-88.6	3.1	1.56e+00	0	46	104	0	60	1048569
2026-01-18 02:15:04.56	39.89	2.14	-85.2	-88.6	3.0	1.56e+00	0	46	104	0	60	1048574
2026-01-18 02:15:05.57	39.83	2.19	-83.5	-88.6	3.0	1.56e+00	0	46	104	0	60	1048572
2026-01-18 02:15:06.57	39.77	2.25	-85.2	-88.6	3.0	1.56e+00	0	46	104	0	60	1048575
2026-01-18 02:15:07.58	39.71	2.31	-85.2	-88.6	3.0	1.56e+00	0	46	104	0	60	1048574
2026-01-18 02:15:08.59	39.65	2.37	-85.2	-88.6	3.0	1.56e+00	0	46	104	0	60	1048574
2026-01-18 02:15:09.60	39.58	2.43	-85.2	-88.6	2.7	1.56e+00	0	46	104	0	60	1048575
2026-01-18 02:15:10.60	39.52	2.48	-85.2	-88.6	3.2	1.56e+00	0	46	104	0	60	1048575
2026-01-18 02:15:11.61	39.46	2.54	-85.2	-88.6	3.0	1.55e+00	0	46	104	0	60	1048575
2026-01-18 02:15:12.62	39.39	2.60	-85.2	-88.6	2.7	1.55e+00	0	46	104	0	60	1048575
2026-01-18 02:15:13.62	39.33	2.66	-85.2	-88.6	2.9	1.56e+00	0	46	104	0	60	1048575
2026-01-18 02:15:14.63	39.26	2.72	-85.2	-88.6	3.0	1.56e+00	0	46	104	0	60	1048570
2026-01-18 02:15:15.63	39.20	2.78	-85.2	-88.6	3.0	1.56e+00	0	46	104	0	60	1048574
2026-01-18 02:15:16.64	39.14	2.84	-85.2	-88.6	3.1	1.56e+00	0	46	104	0	60	1048575
2026-01-18 02:15:17.64	39.07	2.89	-85.2	-88.6	3.1	1.56e+00	0	46	104	0	60	1048575
2026-01-18 02:15:18.65	39.01	2.95	-85.2	-88.6	3.0	1.55e+00	0	46	104	0	60	1048575
2026-01-18 02:15:19.66	38.94	3.01	-85.2	-88.6	3.0	1.56e+00	0	46	104	0	60	1048574
2026-01-18 02:15:20.66	38.87	3.07	-85.2	-88.6	2.8	1.56e+00	0	46	104	0	60	1048575
2026-01-18 02:15:21.67	38.81	3.13	-85.2	-88.6	3.1	1.56e+00	0	46	104	0	60	1048567
2026-01-18 02:15:22.68	38.74	3.19	-85.2	-88.6	3.0	1.56e+00	0	46	104	0	60	1048575
2026-01-18 02:15:23.68	38.68	3.25	-85.2	-88.6	2.9	1.56e+00	0	47	104	0	60	1048574
2026-01-18 02:15:24.69	38.61	3.31	-85.2	-88.6	3.1	1.56e+00	0	47	104	0	60	1048574
2026-01-18 02:15:25.70	38.54	3.37	-85.2	-88.6	3.0	1.55e+00	0	47	104	0	60	1048573
2026-01-18 02:15:26.70	38.47	3.43	-85.2	-88.6	3.0	1.56e+00	0	47	104	0	60	1048575
2026-01-18 02:15:27.71	38.41	3.49	-85.2	-88.6	3.2	1.56e+00	0	47	104	0	60	1048574
2026-01-18 02:15:28.72	38.34	3.55	-85.2	-88.6	3.0	1.55e+00	0	47	104	0	60	1048572
2026-01-18 02:15:29.72	38.27	3.61	-85.2	-88.6	3.0	1.56e+00	0	47	104	0	60	1048575
2026-01-18 02:15:30.73	38.20	3.67	-85.2	-88.6	2.9	1.55e+00	0	47	104	0	60	1048574
2026-01-18 02:15:31.74	38.13	3.73	-85.2	-88.6	3.3	1.55e+00	0	47	104	0	60	1048575
2026-01-18 02:15:32.75	38.06	3.79	-85.2	-88.6	3.0	1.56e+00	0	47	104	0	60	1048573
2026-01-18 02:15:33.76	37.99	3.85	-85.2	-88.6	3.0	1.56e+00	0	46	104	0	60	1048574
2026-01-18 02:15:34.76	37.92	3.91	-85.2	-88.6	3.2	1.56e+00	0	47	104	0	60	1048573
2026-01-18 02:15:35.76	37.85	3.97	-85.2	-88.6	3.0	1.56e+00	0	47	104	0	60	1048575
2026-01-18 02:15:36.76	37.78	4.03	-85.2	-88.6	3.2	1.56e+00	0	46	104	0	60	1048575
2026-01-18 02:15:37.77	37.71	4.09	-85.2	-88.6	3.1	1.55e+00	0	47	104	0	60	1048574
2026-01-18 02:15:38.78	37.64	4.15	-85.2	-88.6	2.9	1.56e+00	0	47	104	0	60	1048575
2026-01-18 02:15:39.78	37.57	4.21	-85.2	-88.6	3.1	1.56e+00	0	47	104	0	60	1048574
2026-01-18 02:15:40.79	37.50	4.27	-84.3	-88.6	3.0	1.56e+00	0	47	104	0	60	1048575
2026-01-18 02:15:41.80	37.43	4.33	-85.2	-88.6	3.0	1.55e+00	0	47	104	0	60	1048573
2026-01-18 02:15:42.80	37.35	4.40	-85.2	-88.6	3.1	1.56e+00	0	47	104	0	60	1048575
2026-01-18 02:15:43.81	37.28	4.46	-85.2	-88.6	2.9	1.55e+00	0	47	104	0	60	1048575
2026-01-18 02:15:44.82	37.21	4.52	-85.2	-88.6	3.2	1.56e+00	0	47	104	0	60	1048575
2026-01-18 02:15:45.82	37.14	4.58	-85.2	-88.6	3.0	1.55e+00	0	47	104	0	60	1048573
2026-01-18 02:15:46.83	37.06	4.64	-85.2	-88.6	3.1	1.55e+00	0	46	104	0	60	1048573
2026-01-18 02:15:47.84	36.99	4.70	-85.2	-88.6	3.0	1.55e+00	0	46	104	0	60	1048575
2026-01-18 02:15:48.85	36.91	4.76	-85.2	-88.6	3.0	1.55e+00	0	46	104	0	60	1048575
2026-01-18 02:15:49.85	36.84	4.83	-85.2	-88.6	2.8	1.56e+00	0	46	104	0	60	1048575
2026-01-18 02:15:50.86	36.76	4.89	-85.2	-88.6	3.3	1.56e+00	0	46	104	0	60	1048575
2026-01-18 02:15:51.87	36.69	4.95	-85.2	-88.6	3.1	1.56e+00	0	47	104	0	60	1048575
2026-01-18 02:15:52.88	36.61	5.01	-85.2	-88.6	3.0	1.56e+00	0	47	104	0	60	1048573
2026-01-18 02:15:53.88	36.54	5.07	-85.2	-88.6	2.9	1.56e+00	0	47	104	0	60	1048574
2026-01-18 02:15:54.88	36.46	5.14	-85.2	-88.6	3.1	1.56e+00	0	47	104	0	60	1048573
2026-01-18 02:15:55.89	36.38	5.20	-85.2	-88.6	3.0	1.56e+00	0	47	104	0	60	1048575
2026-01-18 02:15:56.90	36.31	5.26	-85.2	-88.6	3.1	1.56e+00	0	47	104	0	60	1048574
2026-01-18 02:15:57.91	36.23	5.32	-85.2	-88.6	3.0	1.55e+00	0	47	104	0	60	1048575
2026-01-18 02:15:58.91	36.15	5.39	-85.2	-88.6	3.1	1.56e+00	0	47	104	0	60	1048575
2026-01-18 02:15:59.92	36.07	5.45	-85.2	-88.6	2.8	1.55e+00	0	47	104	0	60	1048575
2026-01-18 02:16:00.93	35.99	5.51	-83.9	-88.6	3.1	1.55e+00	0	47	104	0	60	1048574
2026-01-18 02:16:01.93	35.92	5.58	-85.2	-88.6	3.0	1.56e+00	0	47	104	0	60	1048574
2026-01-18 02:16:02.93	35.84	5.64	-85.2	-88.6	3.2	1.56e+00	0	47	104	0	60	1048575
2026-01-18 02:16:03.94	35.76	5.70	-85.2	-88.6	2.9	1.56e+00	0	47	104	0	60	1048575
2026-01-18 02:16:04.95	35.68	5.77	-85.2	-88.6	3.1	1.56e+00	0	47	104	0	60	1048575
2026-01-18 02:16:05.96	35.60	5.83	-85.2	-88.6	3.0	1.55e+00	0	47	104	0	60	1048575
2026-01-18 02:16:06.97	35.52	5.89	-85.2	-88.6	3.0	1.55e+00	0	47	104	0	60	1048575
2026-01-18 02:16:07.97	35.44	5.96	-85.2	-88.6	3.0	1.56e+00	0	47	104	0	60	1048575
2026-01-18 02:16:08.98	35.35	6.02	-85.2	-88.6	3.1	1.56e+00	0	47	104	0	60	1048574
2026-01-18 02:16:09.99	35.27	6.08	-85.2	-88.6	2.9	1.56e+00	0	47	104	0	60	1048574
2026-01-18 02:16:11.00	35.19	6.15	-85.2	-88.6	3.0	1.56e+00	0	47	104	0	60	1048575
2026-01-18 02:16:12.00	35.11	6.21	-85.2	-88.6	3.1	1.56e+00	0	47	104	0	60	1048575
2026-01-18 02:16:13.01	35.03	6.28	-85.2	-88.6	3.0	1.56e+00	0	47	104	0	60	1048571
2026-01-18 02:16:14.02	34.94	6.34	-85.2	-88.6	3.1	1.56e+00	0	47	104	0	60	1048575
2026-01-18 02:16:15.02	34.86	6.40	-85.2	-88.6	3.2	1.56e+00	0	47	104	0	60	1048575
2026-01-18 02:16:16.03	34.77	6.47	-85.2	-88.6	2.9	1.56e+00	0	47	104	0	60	1048574
2026-01-18 02:16:17.04	34.69	6.53	-85.2	-88.6	2.9	1.56e+00	0	47	104	0	60	1048570
2026-01-18 02:16:18.05	34.61	6.60	-85.2	-88.6	2.8	1.56e+00	0	47	104	0	60	1048574
2026-01-18 02:16:19.06	34.52	6.66	-85.2	-88.6	2.9	1.56e+00	0	47	104	0	60	1048575
2026-01-18 02:16:20.06	34.44	6.73	-85.2	-88.6	3.1	1.56e+00	0	47	104	0	60	1048573
2026-01-18 02:16:21.06	34.35	6.79	-85.2	-88.6	2.8	1.56e+00	0	47	104	0	60	1048575
2026-01-18 02:16:22.07	34.26	6.86	-85.2	-88.6	3.2	1.56e+00	0	47	104	0	60	1048574
2026-01-18 02:16:23.08	34.18	6.92	-85.2	-88.6	2.9	1.56e+00	0	47	104	0	60	1048574
2026-01-18 02:16:24.09	34.09	6.99	-85.2	-88.6	3.0	1.56e+00	0	47	104	0	60	1048574
2026-01-18 02:16:25.09	34.00	7.05	-85.2	-88.6	2.9	1.56e+00	0	47	104	0	60	1048575
2026-01-18 02:16:26.10	33.91	7.12	-85.2	-88.6	3.0	1.56e+00	0	47	104	0	60	1048573
2026-01-18 02:16:27.11	33.82	7.18	-85.2	-88.6	3.1	1.56e+00	0	47	104	0	60	1048575
2026-01-18 02:16:28.11	33.74	7.25	-85.2	-88.6	2.9	1.56e+00	0	47	104	0	60	1048573
2026-01-18 02:16:29.10	33.65	7.31	-85.2	-88.6	3.0	1.56e+00	0	47	104	0	60	1048574
2026-01-18 02:16:30.11	33.56	7.38	-85.2	-88.6	3.1	1.56e+00	0	47	104	0	60	1048572
2026-01-18 02:16:31.11	33.47	7.44	-85.2	-88.6	3.0	1.56e+00	0	47	104	0	60	1048573
2026-01-18 02:16:32.12	33.38	7.51	-85.2	-88.6	3.4	1.56e+00	0	47	104	0	60	1048566
2026-01-18 02:16:33.12	33.29	7.58	-85.2	-88.6	3.0	1.56e+00	0	47	104	0	60	1048575
2026-01-18 02:16:34.13	33.20	7.64	-85.2	-88.6	3.2	1.56e+00	0	47	104	0	60	1048575
2026-01-18 02:16:35.13	33.11	7.71	-85.2	-88.6	2.9	1.56e+00	0	47	104	0	60	1048572
2026-01-18 02:16:36.14	33.01	7.78	-85.2	-88.6	3.0	1.56e+00	0	47	104	0	60	1048575
2026-01-18 02:16:37.15	32.92	7.84	-85.2	-88.6	3.0	1.56e+00	0	47	104	0	60	1048572
2026-01-18 02:16:38.15	32.83	7.91	-85.2	-88.6	3.2	1.56e+00	0	47	104	0	60	1048575
2026-01-18 02:16:39.16	32.73	7.98	-85.2	-88.6	3.1	1.55e+00	0	47	104	0	60	1048575
2026-01-18 02:16:40.16	32.64	8.04	-85.2	-88.6	3.0	1.55e+00	0	47	104	0	60	1048568
2026-01-18 02:16:41.17	32.55	8.11	-85.2	-88.6	2.8	1.56e+00	0	47	104	0	60	1048574
2026-01-18 02:16:42.18	32.45	8.18	-85.2	-88.6	2.9	1.56e+00	0	47	104	0	60	1048575
2026-01-18 02:16:43.18	32.36	8.24	-85.2	-88.6	3.1	1.55e+00	0	47	104	0	60	1048574
2026-01-18 02:16:44.18	32.26	8.31	-85.2	-88.6	3.1	1.55e+00	0	47	104	0	60	1048575
2026-01-18 02:16:45.19	32.17	8.38	-85.2	-88.6	3.0	1.56e+00	0	47	104	0	60	1048573
2026-01-18 02:16:46.19	32.07	8.44	-85.2	-88.6	3.0	1.56e+00	0	47	104	0	60	1048572
2026-01-18 02:16:47.20	31.97	8.51	-85.2	-88.6	2.9	1.56e+00	0	47	104	0	60	1048575
2026-01-18 02:16:48.21	31.87	8.58	-85.2	-88.6	3.0	1.56e+00	0	47	104	0	60	1048574
2026-01-18 02:16:49.21	31.78	8.65	-85.2	-88.6	2.9	1.56e+00	0	47	104	0	60	1048574
2026-01-18 02:16:50.22	31.68	8.71	-85.2	-88.6	3.0	1.56e+00	0	47	104	0	60	1048575
2026-01-18 02:16:51.22	31.58	8.78	-84.7	-88.6	3.0	1.56e+00	0	47	104	0	60	1048573
2026-01-18 02:16:52.23	31.48	8.85	-85.2	-88.6	2.8	1.56e+00	0	47	104	0	60	1048575
2026-01-18 02:16:53.24	31.38	8.92	-85.2	-88.6	2.8	1.56e+00	0	47	104	0	60	1048575
2026-01-18 02:16:54.25	31.28	8.99	-85.2	-88.6	3.0	1.55e+00	0	47	104	0	60	1048575
2026-01-18 02:16:55.25	31.18	9.05	-85.2	-88.6	3.0	1.56e+00	0	47	104	0	60	1048575
2026-01-18 02:16:56.26	31.08	9.12	-85.2	-88.6	3.1	1.55e+00	0	47	104	0	60	1048571
2026-01-18 02:16:57.27	30.97	9.19	-85.2	-88.6	3.2	1.56e+00	0	47	104	0	60	1048574
2026-01-18 02:16:58.26	30.87	9.26	-85.2	-88.6	3.0	1.56e+00	0	47	104	0	60	1048575
2026-01-18 02:16:59.27	30.77	9.33	-85.2	-88.6	3.2	1.55e+00	0	47	104	0	60	1048575
2026-01-18 02:17:00.27	30.67	9.40	-85.2	-88.6	3.0	1.56e+00	0	47	104	0	60	1048573
2026-01-18 02:17:01.28	30.56	9.47	-85.2	-88.6	3.1	1.56e+00	0	47	104	0	60	1048574
2026-01-18 02:17:02.28	30.46	9.53	-85.2	-88.6	2.8	1.56e+00	0	47	104	0	60	1048575
2026-01-18 02:17:03.29	30.35	9.60	-85.2	-88.6	3.0	1.56e+00	0	47	104	0	60	1048574
2026-01-18 02:17:04.30	30.25	9.67	-85.2	-88.6	2.9	1.56e+00	0	47	104	0	60	1048574
2026-01-18 02:17:05.31	30.14	9.74	-85.2	-88.6	2.9	1.56e+00	0	47	104	0	60	1048574
2026-01-18 02:17:06.31	30.04	9.81	-85.2	-88.6	3.1	1.55e+00	0	47	104	0	60	1048575
2026-01-18 02:17:07.32	29.93	9.88	-85.2	-88.6	3.0	1.56e+00	0	47	104	0	60	1048575
2026-01-18 02:17:08.32	29.82	9.95	-85.2	-88.6	2.9	1.56e+00	0	47	104	0	60	1048574
2026-01-18 02:17:09.33	29.71	10.02	-85.2	-88.6	2.9	1.56e+00	0	47	104	0	60	1048574
2026-01-18 02:17:10.34	29.61	10.09	-85.2	-88.6	2.8	1.56e+00	0	47	104	0	60	1048575
2026-01-18 02:17:11.35	29.50	10.16	-85.2	-88.6	2.9	1.55e+00	0	47	104	0	60	1048574
2026-01-18 02:17:12.36	29.39	10.23	-85.2	-88.6	2.9	1.56e+00	0	47	104	0	60	1048575
2026-01-18 02:17:13.37	29.28	10.30	-85.2	-88.6	2.9	1.56e+00	0	47	104	0	60	1048571
2026-01-18 02:17:14.37	29.17	10.37	-85.2	-88.6	3.0	1.56e+00	0	47	104	0	60	1048575
2026-01-18 02:17:15.38	29.05	10.44	-85.2	-88.6	3.0	1.56e+00	0	47	104	0	60	1048574
2026-01-18 02:17:16.38	28.94	10.51	-85.2	-88.6	3.2	1.56e+00	0	47	104	0	60	1048575
2026-01-18 02:17:17.38	28.83	10.58	-85.2	-88.6	2.8	1.56e+00	0	47	104	0	60	1048572
2026-01-18 02:17:18.39	28.72	10.65	-85.2	-88.6	3.1	1.56e+00	0	47	104	0	60	1048575
2026-01-18 02:17:19.39	28.61	10.72	-85.2	-88.6	2.9	1.56e+00	0	47	104	0	60	1048575
2026-01-18 02:17:20.40	28.49	10.79	-85.2	-88.6	3.1	1.56e+00	0	47	104	0	60	1048574
2026-01-18 02:17:21.41	28.38	10.86	-84.7	-88.6	3.1	1.56e+00	0	47	104	0	60	1048574
2026-01-18 02:17:22.42	28.26	10.93	-85.2	-88.6	3.0	1.56e+00	0	47	104	0	60	1048575
2026-01-18 02:17:23.42	28.14	11.01	-85.2	-88.6	2.9	1.56e+00	0	47	104	0	60	1048573
2026-01-18 02:17:24.43	28.03	11.08	-85.2	-88.6	3.0	1.56e+00	0	47	104	0	60	1048574
2026-01-18 02:17:25.44	27.91	11.15	-85.2	-88.6	3.1	1.56e+00	0	47	104	0	60	1048574
2026-01-18 02:17:26.45	27.79	11.22	-85.2	-88.6	3.2	1.55e+00	0	47	104	0	60	1048573
2026-01-18 02:17:27.45	27.68	11.29	-85.2	-88.6	3.1	1.55e+00	0	47	104	0	60	1048575
2026-01-18 02:17:28.46	27.56	11.36	-85.2	-88.6	3.0	1.56e+00	0	47	104	0	60	1048575
2026-01-18 02:17:29.46	27.44	11.43	-85.2	-88.6	3.0	1.56e+00	0	47	104	0	60	1048575
2026-01-18 02:17:30.47	27.32	11.50	-85.2	-88.6	3.2	1.56e+00	0	47	104	0	60	1048575
2026-01-18 02:17:31.48	27.20	11.58	-85.2	-88.6	3.2	1.56e+00	0	47	104	0	60	1048574
2026-01-18 02:17:32.49	27.08	11.65	-85.2	-88.6	3.0	1.56e+00	0	47	104	0	60	1048575
2026-01-18 02:17:33.49	26.95	11.72	-85.2	-88.6	3.1	1.56e+00	0	47	104	0	60	1048575
2026-01-18 02:17:34.50	26.83	11.79	-85.2	-88.6	3.2	1.56e+00	0	47	104	0	60	1048574
2026-01-18 02:17:35.51	26.71	11.86	-85.2	-88.6	3.1	1.55e+00	0	47	104	0	60	1048575
2026-01-18 02:17:36.51	26.59	11.94	-85.2	-88.6	3.1	1.56e+00	0	47	104	0	60	1048575
2026-01-18 02:17:37.51	26.46	12.01	-85.2	-88.6	3.0	1.56e+00	0	47	104	0	60	1048574
2026-01-18 02:17:38.52	26.34	12.08	-85.2	-88.6	2.9	1.56e+00	0	47	104	0	60	1048574
2026-01-18 02:17:39.53	26.21	12.15	-85.2	-88.6	2.9	1.55e+00	0	47	104	0	60	1048574
2026-01-18 02:17:40.53	26.09	12.22	-85.2	-88.6	2.9	1.55e+00	0	47	104	0	60	1048575
2026-01-18 02:17:41.54	25.96	12.30	-85.2	-88.6	3.1	1.56e+00	0	47	104	0	60	1048573
2026-01-18 02:17:42.55	25.83	12.37	-85.2	-88.6	3.0	1.55e+00	0	47	104	0	60	1048575
2026-01-18 02:17:43.56	25.70	12.44	-85.2	-88.6	3.0	1.55e+00	0	47	104	0	60	1048575
2026-01-18 02:17:44.56	25.57	12.51	-85.2	-88.6	3.1	1.55e+00	0	47	104	0	60	1048574
2026-01-18 02:17:45.57	25.44	12.59	-85.2	-88.6	3.1	1.56e+00	0	47	104	0	60	1048575
2026-01-18 02:17:46.58	25.31	12.66	-85.2	-88.6	3.1	1.56e+00	0	47	104	0	60	1048575
2026-01-18 02:17:47.59	25.18	12.73	-85.2	-88.6	2.7	1.56e+00	0	47	104	0	60	1048574
2026-01-18 02:17:48.60	25.05	12.81	-85.2	-88.6	3.0	1.56e+00	0	47	104	0	60	1048574
2026-01-18 02:17:49.60	24.92	12.88	-85.2	-88.6	3.0	1.56e+00	0	47	104	0	60	1048575
2026-01-18 02:17:50.61	24.79	12.95	-85.2	-88.6	2.8	1.56e+00	0	47	104	0	60	1048574
2026-01-18 02:17:51.62	24.65	13.03	-85.2	-88.6	2.8	1.56e+00	0	47	104	0	60	1048575
2026-01-18 02:17:52.63	24.52	13.10	-85.2	-88.6	2.8	1.56e+00	0	47	104	0	60	1048573
2026-01-18 02:17:53.63	24.39	13.17	-85.2	-88.6	3.0	1.56e+00	0	47	104	0	60	1048575
2026-01-18 02:17:54.64	24.25	13.25	-85.2	-88.6	3.1	1.56e+00	0	47	104	0	60	1048575
2026-01-18 02:17:55.64	24.11	13.32	-85.2	-88.6	3.1	1.56e+00	0	47	104	0	60	1048574
2026-01-18 02:17:56.65	23.98	13.39	-85.2	-88.6	3.0	1.55e+00	0	47	104	0	60	1048575
2026-01-18 02:17:57.66	23.84	13.47	-85.2	-88.6	3.2	1.56e+00	0	47	104	0	60	1048575
2026-01-18 02:17:58.67	23.70	13.54	-85.2	-88.6	2.9	1.56e+00	0	47	104	0	60	1048575
2026-01-18 02:17:59.68	23.56	13.61	-85.2	-88.6	2.9	1.56e+00	0	47	104	0	60	1048574
2026-01-18 02:18:00.69	23.42	13.69	-85.2	-88.6	3.0	1.56e+00	0	47	104	0	60	1048570
2026-01-18 02:18:01.69	23.28	13.76	-85.2	-88.6	3.1	1.56e+00	0	47	104	0	60	1048575
2026-01-18 02:18:02.70	23.14	13.83	-85.2	-88.6	3.0	1.56e+00	0	47	104	0	60	1048575
2026-01-18 02:18:03.71	23.00	13.91	-85.2	-88.6	3.2	1.55e+00	0	47	104	0	60	1048575
2026-01-18 02:18:04.72	22.86	13.98	-85.2	-88.6	3.0	1.56e+00	0	47	104	0	60	1048575
2026-01-18 02:18:05.72	22.71	14.06	-85.2	-88.6	3.0	1.56e+00	0	47	104	0	60	1048575
2026-01-18 02:18:06.73	22.57	14.13	-85.2	-88.6	3.0	1.56e+00	0	47	104	0	60	1048574
2026-01-18 02:18:07.74	22.42	14.20	-85.2	-88.6	2.9	1.55e+00	0	47	104	0	60	1048574
2026-01-18 02:18:08.75	22.28	14.28	-84.7	-88.6	3.2	1.56e+00	0	47	104	0	60	1048575
2026-01-18 02:18:09.76	22.13	14.35	-85.2	-88.6	3.0	1.56e+00	0	47	104	0	60	1048575
2026-01-18 02:18:10.76	21.99	14.43	-85.2	-88.6	2.9	1.56e+00	0	47	104	0	60	1048572
2026-01-18 02:18:11.77	21.84	14.50	-85.2	-88.6	3.0	1.56e+00	0	47	104	0	60	1048573
2026-01-18 02:18:12.78	21.69	14.58	-85.2	-88.6	3.0	1.56e+00	0	47	104	0	60	1048573
2026-01-18 02:18:13.78	21.54	14.65	-85.2	-88.6	3.0	1.56e+00	0	47	104	0	60	1048575
2026-01-18 02:18:14.79	21.39	14.72	-85.2	-88.6	2.9	1.56e+00	0	47	104	0	60	1048575
2026-01-18 02:18:15.80	21.24	14.80	-85.2	-88.6	3.0	1.56e+00	0	47	104	0	60	1048575
2026-01-18 02:18:16.81	21.09	14.87	-85.2	-88.6	2.9	1.56e+00	0	47	104	0	60	1048575
2026-01-18 02:18:17.81	20.94	14.95	-85.2	-88.6	3.2	1.56e+00	0	47	104	0	60	1048575
2026-01-18 02:18:18.82	20.78	15.02	-85.2	-88.6	3.1	1.56e+00	0	47	104	0	60	1048575
2026-01-18 02:18:19.83	20.63	15.10	-85.2	-88.6	2.8	1.56e+00	0	47	104	0	60	1048575
2026-01-18 02:18:20.84	20.47	15.17	-85.2	-88.6	3.1	1.56e+00	0	47	104	0	60	1048575
2026-01-18 02:18:21.84	20.32	15.24	-85.2	-88.6	3.1	1.55e+00	0	47	104	0	60	1048573
2026-01-18 02:18:22.85	20.16	15.32	-85.2	-88.6	2.9	1.55e+00	0	47	104	0	60	1048573
2026-01-18 02:18:23.85	20.01	15.39	-85.2	-88.6	2.9	1.56e+00	0	47	104	0	60	1048573
2026-01-18 02:18:24.86	19.85	15.47	-85.2	-88.6	3.0	1.56e+00	0	47	104	0	60	1048575
2026-01-18 02:18:25.87	19.69	15.54	-85.2	-88.6	2.8	1.56e+00	0	47	104	0	60	1048575
2026-01-18 02:18:26.87	19.53	15.62	-85.2	-88.6	3.1	1.56e+00	0	47	104	0	60	1048569
2026-01-18 02:18:27.87	19.37	15.69	-85.2	-88.6	3.0	1.56e+00	0	47	104	0	60	1048574
2026-01-18 02:18:28.88	19.21	15.76	-85.2	-88.6	3.0	1.56e+00	0	47	104	0	60	1048575
2026-01-18 02:18:29.89	19.05	15.84	-84.3	-88.6	3.1	1.55e+00	0	47	104	0	60	1048575
2026-01-18 02:18:30.89	18.89	15.91	-85.2	-88.6	2.9	1.56e+00	0	47	104	0	60	1048574
2026-01-18 02:18:31.90	18.72	15.99	-85.2	-88.6	3.0	1.55e+00	0	47	104	0	60	1048575
2026-01-18 02:18:32.91	18.56	16.06	-85.2	-88.6	3.0	1.55e+00	0	47	104	0	60	1048575
2026-01-18 02:18:33.92	18.39	16.14	-85.2	-88.6	3.0	1.56e+00	0	47	104	0	60	1048575
2026-01-18 02:18:34.93	18.23	16.21	-85.2	-88.6	3.2	1.56e+00	0	47	104	0	60	1048574
2026-01-18 02:18:35.93	18.06	16.28	-85.2	-88.6	2.9	1.56e+00	0	47	104	0	60	1048573
2026-01-18 02:18:36.94	17.89	16.36	-85.2	-88.6	3.0	1.56e+00	0	47	104	0	60	1048575
2026-01-18 02:18:37.94	17.73	16.43	-85.2	-88.6	2.9	1.56e+00	0	47	104	0	60	1048575
2026-01-18 02:18:38.95	17.56	16.51	-85.2	-88.6	3.0	1.56e+00	0	47	104	0	60	1048575
2026-01-18 02:18:39.96	17.39	16.58	-85.2	-88.6	2.7	1.56e+00	0	47	104	0	60	1048575
2026-01-18 02:18:40.96	17.22	16.65	-85.2	-88.6	3.1	1.56e+00	0	47	104	0	60	1048575
2026-01-18 02:18:41.97	17.04	16.73	-85.2	-88.6	3.0	1.56e+00	0	47	104	0	60	1048575
2026-01-18 02:18:42.98	16.87	16.80	-85.2	-88.6	3.0	1.55e+00	0	47	104	0	60	1048575
2026-01-18 02:18:43.98	16.70	16.88	-85.2	-88.6	3.0	1.55e+00	0	47	104	0	60	1048572
2026-01-18 02:18:44.99	16.52	16.95	-85.2	-88.6	3.0	1.56e+00	0	47	104	0	60	1048574
2026-01-18 02:18:46.00	16.35	17.02	-85.2	-88.6	3.1	1.56e+00	0	47	104	0	60	1048574
2026-01-18 02:18:47.00	16.17	17.10	-85.2	-88.6	3.0	1.56e+00	0	47	104	0	60	1048574
2026-01-18 02:18:48.01	15.99	17.17	-85.2	-88.6	2.9	1.56e+00	0	47	104	0	60	1048575
2026-01-18 02:18:49.01	15.82	17.25	-85.2	-88.6	2.9	1.56e+00	0	47	104	0	60	1048574
2026-01-18 02:18:50.02	15.64	17.32	-85.2	-88.6	2.9	1.56e+00	0	47	104	0	60	1048573
2026-01-18 02:18:51.02	15.46	17.39	-85.2	-88.6	3.0	1.56e+00	0	47	104	0	60	1048575
2026-01-18 02:18:52.04	15.28	17.47	-85.2	-88.6	2.8	1.56e+00	0	47	104	0	60	1048575
2026-01-18 02:18:53.05	15.09	17.54	-85.2	-88.6	3.0	1.56e+00	0	47	104	0	60	1048574
2026-01-18 02:18:54.05	14.91	17.61	-85.2	-88.6	3.1	1.56e+00	0	47	104	0	60	1048570
2026-01-18 02:18:55.06	14.73	17.69	-85.2	-88.6	2.9	1.56e+00	0	47	104	0	60	1048575
2026-01-18 02:18:56.07	14.54	17.76	-85.2	-88.6	2.9	1.56e+00	0	47	104	0	60	1048575
2026-01-18 02:18:57.07	14.36	17.83	-85.2	-88.6	3.1	1.56e+00	0	47	104	0	60	1048573
2026-01-18 02:18:58.08	14.17	17.91	-85.2	-88.6	2.9	1.56e+00	0	47	104	0	60	1048575
2026-01-18 02:18:59.08	13.99	17.98	-85.2	-88.6	3.0	1.56e+00	0	47	104	0	60	1048575
2026-01-18 02:19:00.09	13.80	18.05	-85.2	-88.6	3.0	1.56e+00	0	47	104	0	60	1048574
2026-01-18 02:19:01.09	13.61	18.12	-85.2	-88.6	2.9	1.56e+00	0	47	104	0	60	1048574
2026-01-18 02:19:02.10	13.42	18.20	-85.2	-88.6	3.0	1.56e+00	0	47	104	0	60	1048574
2026-01-18 02:19:03.10	13.23	18.27	-85.2	-88.6	3.1	1.56e+00	0	47	104	0	60	1048575
2026-01-18 02:19:04.10	13.04	18.34	-85.2	-88.6	3.0	1.56e+00	0	47	104	0	60	1048575
2026-01-18 02:19:05.11	12.85	18.41	-85.2	-88.6	3.0	1.56e+00	0	47	104	0	60	1048571
2026-01-18 02:19:06.11	12.66	18.48	-85.2	-88.6	3.0	1.56e+00	0	47	104	0	60	1048575
2026-01-18 02:19:07.12	12.46	18.56	-85.2	-88.6	3.0	1.55e+00	0	47	104	0	60	1048575
2026-01-18 02:19:08.12	12.27	18.63	-85.2	-88.6	2.9	1.56e+00	0	47	104	0	60	1048575
2026-01-18 02:19:09.13	12.07	18.70	-85.2	-88.6	2.9	1.56e+00	0	47	104	0	60	1048575
2026-01-18 02:19:10.14	11.87	18.77	-85.2	-88.6	3.0	1.55e+00	0	47	104	0	60	1048574
2026-01-18 02:19:11.14	11.68	18.84	-85.2	-88.6	2.8	1.56e+00	0	47	104	0	60	1048570
2026-01-18 02:19:12.15	11.48	18.91	-85.2	-88.6	2.9	1.56e+00	0	47	104	0	60	1048575
2026-01-18 02:19:13.15	11.28	18.98	-85.2	-88.6	3.0	1.56e+00	0	47	104	0	60	1048575
2026-01-18 02:19:14.16	11.08	19.06	-85.2	-88.6	3.0	1.56e+00	0	47	104	0	60	1048575
2026-01-18 02:19:15.17	10.88	19.13	-85.2	-88.6	3.1	1.55e+00	0	47	104	0	60	1048575
2026-01-18 02:19:16.17	10.67	19.20	-85.2	-88.6	3.0	1.56e+00	0	47	104	0	60	1048575
2026-01-18 02:19:17.18	10.47	19.27	-85.2	-88.6	3.0	1.55e+00	0	47	104	0	60	1048575
2026-01-18 02:19:18.18	10.27	19.34	-85.2	-88.6	2.9	1.55e+00	0	47	104	0	60	1048575
2026-01-18 02:19:19.19	10.06	19.41	-85.2	-88.6	3.1	1.56e+00	0	47	104	0	60	1048575
2026-01-18 02:19:20.19	9.86	19.48	-85.2	-88.6	3.2	1.56e+00	0	47	104	0	60	1048574
2026-01-18 02:19:21.20	9.65	19.55	-84.3	-88.6	3.1	1.56e+00	0	47	104	0	60	1048573
2026-01-18 02:19:22.20	9.44	19.61	-85.2	-88.6	3.1	1.55e+00	0	47	104	0	60	1048575
2026-01-18 02:19:23.21	9.23	19.68	-85.2	-88.6	3.2	1.55e+00	0	47	104	0	60	1048572
2026-01-18 02:19:24.22	9.02	19.75	-85.2	-88.6	2.8	1.56e+00	0	47	104	0	60	1048575
2026-01-18 02:19:25.23	8.81	19.82	-85.2	-88.6	3.1	1.56e+00	0	47	104	0	60	1048575
2026-01-18 02:19:26.24	8.59	19.89	-85.2	-88.6	2.9	1.56e+00	0	47	104	0	60	1048575
2026-01-18 02:19:27.24	8.38	19.96	-85.2	-88.6	2.8	1.56e+00	0	47	104	0	60	1048575
2026-01-18 02:19:28.25	8.17	20.03	-85.2	-88.6	3.2	1.56e+00	0	47	104	0	60	1048575
2026-01-18 02:19:29.26	7.95	20.10	-85.2	-88.6	3.1	1.56e+00	0	47	104	0	60	1048574
2026-01-18 02:19:30.26	7.74	20.16	-85.2	-88.6	3.1	1.56e+00	0	47	104	0	60	1048573
2026-01-18 02:19:31.27	7.52	20.23	-85.2	-88.6	3.2	1.56e+00	0	47	104	0	60	1048575
2026-01-18 02:19:32.27	7.30	20.30	-85.2	-88.6	3.0	1.55e+00	0	47	104	0	60	1048575
2026-01-18 02:19:33.28	7.08	20.36	-85.2	-88.6	2.9	1.56e+00	0	47	104	0	60	1048573
2026-01-18 02:19:34.28	6.86	20.43	-85.2	-88.6	3.0	1.56e+00	0	47	104	0	60	1048575
2026-01-18 02:19:35.29	6.64	20.50	-85.2	-88.6	2.9	1.56e+00	0	47	104	0	60	1048575
2026-01-18 02:19:36.30	6.42	20.56	-85.2	-88.6	2.9	1.56e+00	0	47	104	0	60	1048575
2026-01-18 02:19:37.31	6.20	20.63	-84.7	-88.6	3.2	1.55e+00	0	47	104	0	60	1048574
2026-01-18 02:19:38.31	5.97	20.69	-85.2	-88.6	2.8	1.56e+00	0	47	104	0	60	1048572
2026-01-18 02:19:39.32	5.75	20.76	-85.2	-88.6	3.0	1.56e+00	0	47	104	0	60	1048572
2026-01-18 02:19:40.32	5.52	20.82	-85.2	-88.6	3.1	1.56e+00	0	47	104	0	60	1048575
2026-01-18 02:19:41.33	5.30	20.89	-84.3	-88.6	3.0	1.55e+00	0	47	104	0	60	1048572
2026-01-18 02:19:42.34	5.07	20.95	-85.2	-88.6	3.0	1.55e+00	0	47	104	0	60	1048575
2026-01-18 02:19:43.35	4.84	21.02	-85.2	-88.6	3.0	1.56e+00	0	47	104	0	60	1048575
2026-01-18 02:19:44.36	4.61	21.08	-85.2	-88.6	2.9	1.56e+00	0	47	104	0	60	1048575
2026-01-18 02:19:45.36	4.38	21.14	-85.2	-88.6	3.0	1.56e+00	0	47	104	0	60	1048575
2026-01-18 02:19:46.36	4.15	21.20	-85.2	-88.6	3.0	1.56e+00	0	47	104	0	60	1048571
2026-01-18 02:19:47.36	3.92	21.27	-85.2	-88.6	3.1	1.56e+00	0	47	104	0	60	1048574
2026-01-18 02:19:48.36	3.69	21.33	-85.2	-88.6	3.0	1.56e+00	0	47	104	0	60	1048575
2026-01-18 02:19:49.37	3.45	21.39	-85.2	-88.6	3.0	1.56e+00	0	47	104	0	60	1048573
2026-01-18 02:19:50.37	3.22	21.45	-85.2	-88.6	2.8	1.56e+00	0	47	104	0	60	1048574
2026-01-18 02:19:51.38	2.98	21.51	-85.2	-88.6	3.0	1.55e+00	0	47	104	0	60	1048575
2026-01-18 02:19:52.38	2.74	21.57	-84.3	-88.6	2.9	1.55e+00	0	47	104	0	60	1048575
2026-01-18 02:19:53.39	2.51	21.63	-85.2	-88.6	2.9	1.56e+00	0	47	104	0	60	1048575
2026-01-18 02:19:54.39	2.27	21.69	-85.2	-88.6	3.1	1.55e+00	0	47	104	0	60	1048568
2026-01-18 02:19:55.40	2.03	21.75	-85.2	-88.6	2.9	1.56e+00	0	47	104	0	60	1048575
2026-01-18 02:19:56.40	1.79	21.81	-85.2	-88.6	2.9	1.55e+00	0	47	104	0	60	1048575
2026-01-18 02:19:57.41	1.54	21.87	-85.2	-88.6	2.9	1.56e+00	0	47	104	0	60	1048575
2026-01-18 02:19:58.41	1.30	21.93	-85.2	-88.6	3.2	1.55e+00	0	47	104	0	60	1048575
2026-01-18 02:19:59.41	1.06	21.99	-85.2	-88.6	2.8	1.56e+00	0	47	104	0	60	1048575
2026-01-18 02:20:00.42	0.82	22.04	-85.2	-88.6	3.0	1.55e+00	0	47	104	0	60	1048575
2026-01-18 02:20:01.43	0.57	22.10	-85.2	-88.6	3.1	1.56e+00	0	47	104	0	60	1048573
2026-01-18 02:20:02.43	0.33	22.16	-85.2	-88.6	3.0	1.55e+00	0	47	104	0	60	1048574
2026-01-18 02:20:03.44	0.08	22.21	-85.2	-88.6	2.9	1.56e+00	0	47	104	0	60	1048574
2026-01-18 02:20:04.44	359.83	22.27	-85.2	-88.6	3.0	1.56e+00	0	47	104	0	60	1048573
2026-01-18 02:20:05.44	359.58	22.32	-83.9	-88.6	3.3	1.56e+00	0	47	104	0	60	1048574
2026-01-18 02:20:06.44	359.33	22.38	-85.2	-88.6	3.0	1.56e+00	0	47	104	0	60	1048573
2026-01-18 02:20:07.44	359.09	22.43	-85.2	-88.6	3.0	1.56e+00	0	47	104	0	60	1048574
2026-01-18 02:20:08.45	358.83	22.49	-85.2	-88.6	2.9	1.56e+00	0	47	104	0	60	1048573
2026-01-18 02:20:09.45	358.58	22.54	-85.2	-88.6	3.2	1.56e+00	0	47	104	0	60	1048570
2026-01-18 02:20:10.46	358.33	22.59	-85.2	-88.6	3.0	1.56e+00	0	47	104	0	60	1048575
2026-01-18 02:20:11.46	358.07	22.64	-85.2	-88.6	3.0	1.56e+00	0	47	104	0	60	1048572
2026-01-18 02:20:12.47	357.82	22.70	-85.2	-88.6	3.1	1.56e+00	0	47	104	0	60	1048574
2026-01-18 02:20:13.47	357.56	22.75	-85.2	-88.6	3.1	1.55e+00	0	47	104	0	60	1048575
2026-01-18 02:20:14.48	357.31	22.80	-85.2	-88.6	3.2	1.56e+00	0	47	104	0	60	1048575
2026-01-18 02:20:15.48	357.05	22.85	-85.2	-88.6	2.9	1.55e+00	0	47	104	0	60	1048575
2026-01-18 02:20:16.49	356.79	22.90	-85.2	-88.6	2.9	1.55e+00	0	47	104	0	60	1048575
2026-01-18 02:20:17.50	356.53	22.95	-85.2	-88.6	3.0	1.55e+00	0	47	104	0	60	1048571
2026-01-18 02:20:18.51	356.27	23.00	-85.2	-88.6	3.1	1.56e+00	0	47	104	0	60	1048573
2026-01-18 02:20:19.51	356.01	23.04	-85.2	-88.6	3.0	1.55e+00	0	47	104	0	60	1048573
2026-01-18 02:20:20.52	355.75	23.09	-85.2	-88.6	2.9	1.56e+00	0	47	104	0	60	1048575
2026-01-18 02:20:21.52	355.49	23.14	-85.2	-88.6	2.8	1.56e+00	0	47	104	0	60	1048575
2026-01-18 02:20:22.53	355.22	23.19	-85.2	-88.6	3.0	1.55e+00	0	47	104	0	60	1048574
2026-01-18 02:20:23.54	354.96	23.23	-85.2	-88.6	2.9	1.56e+00	0	47	104	0	60	1048572
2026-01-18 02:20:24.55	354.69	23.28	-85.2	-88.6	2.9	1.56e+00	0	47	104	0	60	1048574
2026-01-18 02:20:25.55	354.43	23.32	-85.2	-88.6	3.0	1.56e+00	0	47	104	0	60	1048574
2026-01-18 02:20:26.56	354.16	23.37	-85.2	-88.6	2.9	1.56e+00	0	47	104	0	60	1048575
2026-01-18 02:20:27.57	353.89	23.41	-85.2	-88.6	3.0	1.56e+00	0	47	104	0	60	1048573
2026-01-18 02:20:28.57	353.62	23.45	-82.8	-88.6	3.0	1.56e+00	0	47	104	0	60	1048575
2026-01-18 02:20:29.58	353.35	23.49	-85.2	-88.6	2.9	1.56e+00	0	47	104	0	60	1048573
2026-01-18 02:20:30.59	353.08	23.54	-85.2	-88.6	3.0	1.55e+00	0	47	104	0	60	1048574
2026-01-18 02:20:31.60	352.81	23.58	-85.2	-88.6	2.9	1.55e+00	0	47	104	0	60	1048573
2026-01-18 02:20:32.61	352.54	23.62	-85.2	-88.6	3.0	1.56e+00	0	47	104	0	60	1048575
2026-01-18 02:20:33.62	352.27	23.66	-85.2	-88.6	2.9	1.56e+00	0	47	104	0	60	1048575
2026-01-18 02:20:34.62	352.00	23.70	-85.2	-88.6	2.8	1.56e+00	0	47	104	0	60	1048575
2026-01-18 02:20:35.63	351.72	23.74	-85.2	-88.6	3.0	1.56e+00	0	47	104	0	60	1048575
2026-01-18 02:20:36.64	351.45	23.77	-85.2	-88.6	3.1	1.56e+00	0	47	104	0	60	1048574
2026-01-18 02:20:37.64	351.18	23.81	-85.2	-88.6	3.0	1.56e+00	0	47	104	0	60	1048575
2026-01-18 02:20:38.65	350.90	23.85	-85.2	-88.6	3.2	1.56e+00	0	47	104	0	60	1048573
2026-01-18 02:20:39.65	350.63	23.88	-85.2	-88.6	3.2	1.56e+00	0	47	104	0	60	1048574
2026-01-18 02:20:40.66	350.35	23.92	-84.7	-88.6	3.0	1.56e+00	0	47	104	0	60	1048575
2026-01-18 02:20:41.66	350.07	23.95	-84.3	-88.6	3.1	1.56e+00	0	47	104	0	60	1048575
2026-01-18 02:20:42.67	349.79	23.99	-85.2	-88.6	3.0	1.56e+00	0	47	104	0	60	1048575
2026-01-18 02:20:43.68	349.52	24.02	-85.2	-88.6	3.0	1.56e+00	0	47	104	0	60	1048572
2026-01-18 02:20:44.69	349.24	24.05	-85.2	-88.6	3.1	1.56e+00	0	47	104	0	60	1048573
2026-01-18 02:20:45.70	348.96	24.08	-85.2	-88.6	3.1	1.56e+00	0	47	104	0	60	1048575
2026-01-18 02:20:46.71	348.67	24.12	-85.2	-88.6	3.0	1.56e+00	0	47	104	0	60	1048575
2026-01-18 02:20:47.72	348.39	24.15	-85.2	-88.6	2.9	1.55e+00	0	47	104	0	60	1048574
2026-01-18 02:20:48.72	348.11	24.18	-85.2	-88.6	3.2	1.56e+00	0	47	104	0	60	1048574
2026-01-18 02:20:49.73	347.83	24.20	-85.2	-88.6	3.0	1.56e+00	0	47	104	0	60	1048575
2026-01-18 02:20:50.73	347.55	24.23	-85.2	-88.6	3.0	1.56e+00	0	47	104	0	60	1048575
2026-01-18 02:20:51.74	347.27	24.26	-85.2	-88.6	3.0	1.56e+00	0	47	104	0	60	1048575
2026-01-18 02:20:52.74	346.99	24.29	-85.2	-88.6	3.0	1.56e+00	0	47	104	0	60	1048575
2026-01-18 02:20:53.75	346.70	24.31	-85.2	-88.6	3.0	1.56e+00	0	47	104	0	60	1048574
2026-01-18 02:20:54.76	346.42	24.34	-85.2	-88.6	3.0	1.55e+00	0	47	104	0	60	1048575
2026-01-18 02:20:55.76	346.13	24.36	-85.2	-88.6	3.1	1.56e+00	0	47	104	0	60	1048573
2026-01-18 02:20:56.77	345.85	24.39	-85.2	-88.6	3.2	1.56e+00	0	47	104	0	60	1048574
2026-01-18 02:20:57.77	345.56	24.41	-85.2	-88.6	3.0	1.56e+00	0	47	104	0	60	1048575
2026-01-18 02:20:58.77	345.28	24.43	-85.2	-88.6	3.1	1.56e+00	0	47	104	0	60	1048573
2026-01-18 02:20:59.78	344.99	24.45	-85.2	-88.6	3.1	1.56e+00	0	47	104	0	60	1048575
2026-01-18 02:21:00.79	344.71	24.47	-85.2	-88.6	3.1	1.56e+00	0	47	104	0	60	1048573
2026-01-18 02:21:01.80	344.42	24.49	-85.2	-88.6	3.2	1.56e+00	0	47	104	0	60	1048575
2026-01-18 02:21:02.80	344.13	24.51	-85.2	-88.6	3.1	1.55e+00	0	47	104	0	60	1048574
2026-01-18 02:21:03.80	343.85	24.53	-85.2	-88.6	3.1	1.56e+00	0	47	104	0	60	1048575
2026-01-18 02:21:04.81	343.56	24.55	-85.2	-88.6	3.2	1.56e+00	0	47	104	0	60	1048575
2026-01-18 02:21:05.82	343.27	24.57	-85.2	-88.6	2.9	1.55e+00	0	47	104	0	60	1048574
2026-01-18 02:21:06.83	342.98	24.58	-85.2	-88.6	3.2	1.56e+00	0	47	104	0	60	1048573
2026-01-18 02:21:07.83	342.69	24.60	-85.2	-88.6	3.0	1.56e+00	0	47	104	0	60	1048575
2026-01-18 02:21:08.83	342.40	24.61	-85.2	-88.6	2.8	1.56e+00	0	47	104	0	60	1048575
2026-01-18 02:21:09.84	342.11	24.63	-85.2	-88.6	3.0	1.56e+00	0	47	104	0	60	1048575
2026-01-18 02:21:10.84	341.83	24.64	-85.2	-88.6	2.9	1.56e+00	0	47	104	0	60	1048574
2026-01-18 02:21:11.85	341.54	24.65	-85.2	-88.6	3.0	1.55e+00	0	47	104	0	60	1048573
2026-01-18 02:21:12.86	341.24	24.66	-85.2	-88.6	3.1	1.55e+00	0	47	104	0	60	1048574
2026-01-18 02:21:13.87	340.95	24.67	-85.2	-88.6	2.9	1.56e+00	0	47	104	0	60	1048575
2026-01-18 02:21:14.88	340.66	24.68	-85.2	-88.6	3.0	1.56e+00	0	47	104	0	60	1048575
2026-01-18 02:21:15.88	340.37	24.69	-85.2	-88.6	3.0	1.56e+00	0	47	104	0	60	1048575
2026-01-18 02:21:16.88	340.08	24.70	-85.2	-88.6	3.1	1.56e+00	0	47	104	0	60	1048575
2026-01-18 02:21:17.89	339.79	24.71	-85.2	-88.6	3.0	1.55e+00	0	47	104	0	60	1048574
2026-01-18 02:21:18.90	339.50	24.71	-85.2	-88.6	3.1	1.56e+00	0	47	104	0	60	1048575
2026-01-18 02:21:19.90	339.21	24.72	-85.2	-88.6	3.1	1.56e+00	0	47	104	0	60	1048575
2026-01-18 02:21:20.91	338.92	24.72	-85.2	-88.6	3.0	1.56e+00	0	47	104	0	60	1048575
2026-01-18 02:21:21.92	338.63	24.73	-85.2	-88.6	2.9	1.56e+00	0	47	104	0	60	1048573
2026-01-18 02:21:22.93	338.33	24.73	-85.2	-88.6	2.9	1.56e+00	0	47	104	0	60	1048575
2026-01-18 02:21:23.94	338.04	24.73	-85.2	-88.6	2.9	1.56e+00	0	47	104	0	60	1048575
2026-01-18 02:21:24.94	337.75	24.74	-85.2	-88.6	3.1	1.56e+00	0	47	104	0	60	1048575
2026-01-18 02:21:25.94	337.46	24.74	-85.2	-88.6	3.0	1.56e+00	0	47	104	0	60	1048575
2026-01-18 02:21:26.95	337.17	24.74	-85.2	-88.6	3.1	1.55e+00	0	47	104	0	60	1048575
2026-01-18 02:21:27.96	336.88	24.74	-85.2	-88.6	3.0	1.55e+00	0	47	104	0	60	1048574
2026-01-18 02:21:28.96	336.59	24.73	-85.2	-88.6	2.9	1.55e+00	0	47	104	0	60	1048575
2026-01-18 02:21:29.96	336.30	24.73	-85.2	-88.6	3.0	1.55e+00	0	47	104	0	60	1048575
2026-01-18 02:21:30.97	336.00	24.73	-85.2	-88.6	2.9	1.56e+00	0	47	104	0	60	1048573
2026-01-18 02:21:31.98	335.71	24.72	-85.2	-88.6	2.7	1.56e+00	0	47	104	0	60	1048572
2026-01-18 02:21:32.98	335.42	24.72	-85.2	-88.6	2.8	1.55e+00	0	47	104	0	60	1048574
2026-01-18 02:21:33.99	335.13	24.71	-85.2	-88.6	3.1	1.56e+00	0	47	104	0	60	1048575
2026-01-18 02:21:34.99	334.84	24.71	-85.2	-88.6	3.0	1.56e+00	0	47	104	0	60	1048574
2026-01-18 02:21:36.00	334.55	24.70	-85.2	-88.6	3.0	1.56e+00	0	47	104	0	60	1048575
2026-01-18 02:21:37.01	334.26	24.69	-85.2	-88.6	2.9	1.56e+00	0	47	104	0	60	1048575
2026-01-18 02:21:38.01	333.97	24.68	-85.2	-88.6	3.1	1.56e+00	0	47	104	0	60	1048570
2026-01-18 02:21:39.02	333.68	24.67	-85.2	-88.6	3.1	1.56e+00	0	47	104	0	60	1048573
2026-01-18 02:21:40.03	333.38	24.66	-85.2	-88.6	3.1	1.56e+00	0	47	104	0	60	1048575
2026-01-18 02:21:41.04	333.09	24.65	-85.2	-88.6	2.9	1.56e+00	0	47	104	0	60	1048574
2026-01-18 02:21:42.05	332.80	24.64	-85.2	-88.6	2.8	1.56e+00	0	47	104	0	60	1048575
2026-01-18 02:21:43.05	332.51	24.63	-85.2	-88.6	3.0	1.56e+00	0	47	104	0	60	1048575
2026-01-18 02:21:44.06	332.22	24.61	-85.2	-88.6	2.9	1.56e+00	0	47	104	0	60	1048572
2026-01-18 02:21:45.06	331.94	24.60	-85.2	-88.6	3.0	1.56e+00	0	47	104	0	60	1048574
2026-01-18 02:21:46.07	331.65	24.59	-85.2	-88.6	2.9	1.55e+00	0	47	104	0	60	1048575
2026-01-18 02:21:47.07	331.36	24.57	-85.2	-88.6	3.1	1.56e+00	0	47	104	0	60	1048574
2026-01-18 02:21:48.07	331.07	24.55	-85.2	-88.6	3.0	1.56e+00	0	47	104	0	60	1048574
2026-01-18 02:21:49.08	330.78	24.54	-85.2	-88.6	3.0	1.55e+00	0	47	104	0	60	1048575
2026-01-18 02:21:50.08	330.50	24.52	-85.2	-88.6	3.2	1.56e+00	0	47	104	0	60	1048575
2026-01-18 02:21:51.08	330.21	24.50	-85.2	-88.6	3.0	1.56e+00	0	47	104	0	60	1048575
2026-01-18 02:21:52.09	329.92	24.48	-85.2	-88.6	3.0	1.56e+00	0	47	104	0	60	1048573
2026-01-18 02:21:53.10	329.64	24.46	-85.2	-88.6	3.0	1.56e+00	0	47	104	0	60	1048575
2026-01-18 02:21:54.10	329.35	24.44	-85.2	-88.6	2.8	1.56e+00	0	47	104	0	60	1048575
2026-01-18 02:21:55.12	329.06	24.41	-85.2	-88.6	2.7	1.56e+00	0	47	104	0	60	1048575
2026-01-18 02:21:56.12	328.78	24.39	-85.2	-88.6	3.0	1.56e+00	0	47	104	0	60	1048575
2026-01-18 02:21:57.13	328.49	24.37	-85.2	-88.6	3.1	1.56e+00	0	47	104	0	60	1048574
2026-01-18 02:21:58.14	328.21	24.34	-85.2	-88.6	3.2	1.56e+00	0	47	104	0	60	1048575
2026-01-18 02:21:59.15	327.92	24.32	-85.2	-88.6	3.0	1.56e+00	0	47	104	0	60	1048574
2026-01-18 02:22:00.16	327.64	24.29	-85.2	-88.6	2.8	1.56e+00	0	47	104	0	60	1048574
2026-01-18 02:22:01.16	327.35	24.27	-85.2	-88.6	3.1	1.56e+00	0	47	104	0	60	1048572
2026-01-18 02:22:02.17	327.07	24.24	-84.7	-88.6	2.9	1.55e+00	0	47	104	0	60	1048570
2026-01-18 02:22:03.17	326.79	24.21	-85.2	-88.6	3.1	1.56e+00	0	47	104	0	60	1048574
2026-01-18 02:22:04.18	326.51	24.18	-85.2	-88.6	3.1	1.56e+00	0	47	104	0	60	1048575
2026-01-18 02:22:05.18	326.23	24.15	-85.2	-88.6	3.1	1.56e+00	0	47	104	0	60	1048575
2026-01-18 02:22:06.19	325.95	24.12	-85.2	-88.6	3.0	1.56e+00	0	47	104	0	60	1048575
2026-01-18 02:22:07.20	325.66	24.09	-85.2	-88.6	3.0	1.55e+00	0	47	104	0	60	1048575
2026-01-18 02:22:08.21	325.38	24.06	-85.2	-88.6	3.0	1.55e+00	0	47	104	0	60	1048575
2026-01-18 02:22:09.22	325.10	24.03	-85.2	-88.6	3.0	1.56e+00	0	47	104	0	60	1048575
2026-01-18 02:22:10.23	324.82	23.99	-85.2	-88.6	3.0	1.55e+00	0	47	104	0	60	1048571
2026-01-18 02:22:11.24	324.55	23.96	-85.2	-88.6	3.1	1.56e+00	0	47	104	0	60	1048575
2026-01-18 02:22:12.25	324.27	23.93	-85.2	-88.6	3.0	1.56e+00	0	47	104	0	60	1048574
2026-01-18 02:22:13.25	323.99	23.89	-85.2	-88.6	3.0	1.55e+00	0	47	104	0	60	1048573
2026-01-18 02:22:14.26	323.72	23.85	-85.2	-88.6	3.1	1.55e+00	0	47	104	0	60	1048574
2026-01-18 02:22:15.26	323.44	23.82	-85.2	-88.6	3.3	1.56e+00	0	47	104	0	60	1048575
2026-01-18 02:22:16.27	323.17	23.78	-85.2	-88.6	3.0	1.55e+00	0	47	104	0	60	1048573
2026-01-18 02:22:17.28	322.89	23.74	-85.2	-88.6	3.1	1.55e+00	0	47	104	0	60	1048574
2026-01-18 02:22:18.28	322.62	23.71	-85.2	-88.6	3.1	1.56e+00	0	47	104	0	60	1048572
2026-01-18 02:22:19.29	322.35	23.67	-85.2	-88.6	3.0	1.56e+00	0	47	104	0	60	1048574
2026-01-18 02:22:20.30	322.07	23.63	-85.2	-88.6	3.1	1.55e+00	0	47	104	0	60	1048574
2026-01-18 02:22:21.31	321.80	23.59	-85.2	-88.6	3.1	1.56e+00	0	47	104	0	60	1048575
2026-01-18 02:22:22.32	321.53	23.54	-83.5	-88.6	3.0	1.56e+00	0	47	104	0	60	1048573
2026-01-18 02:22:23.33	321.26	23.50	-85.2	-88.6	3.0	1.56e+00	0	47	104	0	60	1048573
2026-01-18 02:22:24.33	320.99	23.46	-85.2	-88.6	2.7	1.56e+00	0	47	104	0	60	1048575
2026-01-18 02:22:25.34	320.72	23.42	-85.2	-88.6	3.1	1.56e+00	0	47	104	0	60	1048574
2026-01-18 02:22:26.35	320.45	23.37	-85.2	-88.6	3.1	1.56e+00	0	47	104	0	60	1048575
2026-01-18 02:22:27.35	320.19	23.33	-85.2	-88.6	2.8	1.56e+00	0	47	104	0	60	1048573
2026-01-18 02:22:28.36	319.92	23.29	-85.2	-88.6	3.0	1.56e+00	0	47	104	0	60	1048571
2026-01-18 02:22:29.37	319.65	23.24	-85.2	-88.6	2.8	1.56e+00	0	47	104	0	60	1048575
2026-01-18 02:22:30.38	319.39	23.19	-85.2	-88.6	2.9	1.55e+00	0	47	104	0	60	1048574
2026-01-18 02:22:31.39	319.12	23.15	-85.2	-88.6	2.9	1.56e+00	0	47	104	0	60	1048575
2026-01-18 02:22:32.40	318.86	23.10	-85.2	-88.6	3.0	1.56e+00	0	47	104	0	60	1048575
2026-01-18 02:22:33.40	318.60	23.05	-85.2	-88.6	3.2	1.56e+00	0	47	104	0	60	1048573
2026-01-18 02:22:34.41	318.34	23.01	-85.2	-88.6	2.7	1.56e+00	0	47	104	0	60	1048575
2026-01-18 02:22:35.41	318.08	22.96	-85.2	-88.6	3.0	1.56e+00	0	47	104	0	60	1048575
2026-01-18 02:22:36.42	317.82	22.91	-85.2	-88.6	2.9	1.56e+00	0	47	104	0	60	1048575
2026-01-18 02:22:37.43	317.56	22.86	-85.2	-88.6	3.1	1.56e+00	0	47	104	0	60	1048575
2026-01-18 02:22:38.43	317.30	22.81	-85.2	-88.6	3.0	1.56e+00	0	47	104	0	60	1048573
2026-01-18 02:22:39.44	317.04	22.76	-85.2	-88.6	2.8	1.56e+00	0	47	104	0	60	1048574
2026-01-18 02:22:40.45	316.79	22.71	-85.2	-88.6	3.0	1.55e+00	0	47	104	0	60	1048575
2026-01-18 02:22:41.45	316.53	22.65	-85.2	-88.6	3.0	1.56e+00	0	47	104	0	60	1048574
2026-01-18 02:22:42.46	316.28	22.60	-85.2	-88.6	2.8	1.56e+00	0	47	104	0	60	1048575
2026-01-18 02:22:43.47	316.02	22.55	-85.2	-88.6	3.0	1.56e+00	0	47	104	0	60	1048575
2026-01-18 02:22:44.48	315.77	22.50	-85.2	-88.6	2.9	1.56e+00	0	47	104	0	60	1048575
2026-01-18 02:22:45.49	315.51	22.44	-85.2	-88.6	2.9	1.56e+00	0	47	104	0	60	1048572
2026-01-18 02:22:46.49	315.26	22.39	-85.2	-88.6	3.1	1.56e+00	0	47	104	0	60	1048575
2026-01-18 02:22:47.50	315.01	22.33	-85.2	-88.6	2.7	1.56e+00	0	47	104	0	60	1048574
2026-01-18 02:22:48.50	314.76	22.28	-85.2	-88.6	2.9	1.56e+00	0	47	104	0	60	1048574
2026-01-18 02:22:49.51	314.52	22.22	-85.2	-88.6	3.2	1.56e+00	0	47	104	0	60	1048572
2026-01-18 02:22:50.52	314.27	22.17	-85.2	-88.6	3.0	1.56e+00	0	47	104	0	60	1048572
2026-01-18 02:22:51.52	314.02	22.11	-85.2	-88.6	2.7	1.56e+00	0	47	104	0	60	1048574
2026-01-18 02:22:52.53	313.77	22.05	-85.2	-88.6	2.9	1.56e+00	0	47	104	0	60	1048574
2026-01-18 02:22:53.53	313.53	21.99	-85.2	-88.6	2.8	1.56e+00	0	47	104	0	60	1048575
2026-01-18 02:22:54.54	313.29	21.94	-85.2	-88.6	2.9	1.56e+00	0	47	104	0	60	1048569
2026-01-18 02:22:55.55	313.04	21.88	-85.2	-88.6	3.0	1.56e+00	0	47	104	0	60	1048572
2026-01-18 02:22:56.55	312.80	21.82	-85.2	-88.6	3.0	1.56e+00	0	47	104	0	60	1048573
2026-01-18 02:22:57.56	312.56	21.76	-85.2	-88.6	3.0	1.56e+00	0	47	104	0	60	1048575
2026-01-18 02:22:58.56	312.32	21.70	-85.2	-88.6	2.7	1.56e+00	0	47	104	0	60	1048572
2026-01-18 02:22:59.56	312.08	21.64	-85.2	-88.6	3.2	1.56e+00	0	47	104	0	60	1048575
2026-01-18 02:23:00.57	311.84	21.58	-85.2	-88.6	2.9	1.56e+00	0	47	104	0	60	1048573
2026-01-18 02:23:01.58	311.61	21.52	-85.2	-88.6	3.2	1.56e+00	0	47	104	0	60	1048574
2026-01-18 02:23:02.58	311.37	21.46	-85.2	-88.6	3.0	1.55e+00	0	47	104	0	60	1048571
2026-01-18 02:23:03.59	311.13	21.40	-85.2	-88.6	3.0	1.56e+00	0	47	104	0	60	1048573
2026-01-18 02:23:04.59	310.90	21.34	-85.2	-88.6	3.1	1.56e+00	0	47	104	0	60	1048574
2026-01-18 02:23:05.60	310.67	21.27	-85.2	-88.6	3.1	1.55e+00	0	47	104	0	60	1048573
2026-01-18 02:23:06.60	310.43	21.21	-85.2	-88.6	3.1	1.56e+00	0	47	104	0	60	1048575
2026-01-18 02:23:07.60	310.20	21.15	-85.2	-88.6	2.9	1.56e+00	0	47	104	0	60	1048575
2026-01-18 02:23:08.61	309.97	21.09	-85.2	-88.6	3.0	1.56e+00	0	47	104	0	60	1048575
2026-01-18 02:23:09.62	309.74	21.02	-85.2	-88.6	3.1	1.56e+00	0	47	104	0	60	1048573
2026-01-18 02:23:10.63	309.51	20.96	-85.2	-88.6	2.9	1.56e+00	0	47	104	0	60	1048573
2026-01-18 02:23:11.63	309.28	20.89	-85.2	-88.6	3.2	1.56e+00	0	47	104	0	60	1048574
2026-01-18 02:23:12.64	309.06	20.83	-85.2	-88.6	3.1	1.56e+00	0	47	104	0	60	1048575
2026-01-18 02:23:13.65	308.83	20.77	-85.2	-88.6	3.2	1.56e+00	0	47	104	0	60	1048574
2026-01-18 02:23:14.65	308.61	20.70	-85.2	-88.6	3.0	1.56e+00	0	47	104	0	60	1048573
2026-01-18 02:23:15.66	308.38	20.63	-85.2	-88.6	3.0	1.56e+00	0	47	104	0	60	1048575
2026-01-18 02:23:16.67	308.16	20.57	-85.2	-88.6	2.9	1.56e+00	0	47	104	0	60	1048575
2026-01-18 02:23:17.68	307.93	20.50	-85.2	-88.6	3.0	1.55e+00	0	47	104	0	60	1048573
2026-01-18 02:23:18.69	307.71	20.44	-85.2	-88.6	3.0	1.55e+00	0	47	104	0	60	1048575
2026-01-18 02:23:19.69	307.49	20.37	-85.2	-88.6	3.0	1.56e+00	0	47	104	0	60	1048575
2026-01-18 02:23:20.70	307.27	20.30	-85.2	-88.6	3.1	1.55e+00	0	47	104	0	60	1048575
2026-01-18 02:23:21.70	307.06	20.24	-85.2	-88.6	3.0	1.56e+00	0	47	104	0	60	1048573
2026-01-18 02:23:22.71	306.84	20.17	-85.2	-88.6	3.2	1.56e+00	0	47	104	0	60	1048573
2026-01-18 02:23:23.71	306.62	20.10	-85.2	-88.6	3.0	1.55e+00	0	47	104	0	60	1048575
2026-01-18 02:23:24.71	306.41	20.03	-85.2	-88.6	3.0	1.56e+00	0	47	104	0	60	1048575
2026-01-18 02:23:25.72	306.19	19.97	-85.2	-88.6	3.0	1.56e+00	0	47	104	0	60	1048575
2026-01-18 02:23:26.72	305.98	19.90	-85.2	-88.6	3.0	1.56e+00	0	47	104	0	60	1048575
2026-01-18 02:23:27.73	305.77	19.83	-85.2	-88.6	2.9	1.56e+00	0	47	104	0	60	1048573
2026-01-18 02:23:28.73	305.56	19.76	-85.2	-88.6	2.6	1.55e+00	0	47	104	0	60	1048575
2026-01-18 02:23:29.73	305.35	19.69	-85.2	-88.6	2.9	1.56e+00	0	47	104	0	60	1048574
2026-01-18 02:23:30.74	305.14	19.62	-85.2	-88.6	3.0	1.56e+00	0	47	104	0	60	1048574
2026-01-18 02:23:31.75	304.93	19.55	-85.2	-88.6	2.9	1.55e+00	0	47	104	0	60	1048574
2026-01-18 02:23:32.76	304.72	19.48	-85.2	-88.6	3.1	1.55e+00	0	47	104	0	60	1048575
2026-01-18 02:23:33.77	304.51	19.41	-85.2	-88.6	3.1	1.55e+00	0	47	104	0	60	1048572
2026-01-18 02:23:34.77	304.31	19.34	-85.2	-88.6	3.1	1.55e+00	0	47	104	0	60	1048575
2026-01-18 02:23:35.78	304.10	19.27	-85.2	-88.6	3.1	1.56e+00	0	47	104	0	60	1048574
2026-01-18 02:23:36.79	303.90	19.20	-85.2	-88.6	2.9	1.56e+00	0	47	104	0	60	1048574
2026-01-18 02:23:37.80	303.69	19.13	-83.5	-88.6	3.0	1.55e+00	0	47	104	0	60	1048572
2026-01-18 02:23:38.80	303.49	19.06	-85.2	-88.6	2.9	1.56e+00	0	47	104	0	60	1048575
2026-01-18 02:23:39.81	303.29	18.99	-85.2	-88.6	3.1	1.56e+00	0	47	104	0	60	1048575
2026-01-18 02:23:40.81	303.09	18.92	-85.2	-88.6	2.9	1.56e+00	0	47	104	0	60	1048574
2026-01-18 02:23:41.82	302.89	18.85	-85.2	-88.6	3.0	1.56e+00	0	47	104	0	60	1048575
2026-01-18 02:23:42.82	302.69	18.78	-85.2	-88.6	2.9	1.56e+00	0	47	104	0	60	1048573
2026-01-18 02:23:43.83	302.49	18.71	-85.2	-88.6	3.0	1.56e+00	0	47	104	0	60	1048573
2026-01-18 02:23:44.83	302.30	18.63	-85.2	-88.6	3.0	1.56e+00	0	47	104	0	60	1048575
2026-01-18 02:23:45.83	302.10	18.56	-85.2	-88.6	3.1	1.56e+00	0	47	104	0	60	1048574
2026-01-18 02:23:46.84	301.91	18.49	-85.2	-88.6	3.0	1.56e+00	0	47	104	0	60	1048575
2026-01-18 02:23:47.84	301.72	18.42	-84.3	-88.6	2.8	1.56e+00	0	47	104	0	60	1048575
2026-01-18 02:23:48.85	301.52	18.35	-85.2	-88.6	3.2	1.55e+00	0	47	104	0	60	1048574
2026-01-18 02:23:49.86	301.33	18.27	-85.2	-88.6	2.9	1.56e+00	0	47	104	0	60	1048575
2026-01-18 02:23:50.87	301.14	18.20	-85.2	-88.6	3.2	1.56e+00	0	47	104	0	60	1048575
2026-01-18 02:23:51.88	300.95	18.13	-85.2	-88.6	3.0	1.56e+00	0	47	104	0	60	1048575
2026-01-18 02:23:52.89	300.76	18.06	-85.2	-88.6	3.1	1.56e+00	0	47	104	0	60	1048575
2026-01-18 02:23:53.89	300.57	17.98	-85.2	-88.6	2.9	1.56e+00	0	47	104	0	60	1048575
2026-01-18 02:23:54.90	300.38	17.91	-85.2	-88.6	3.3	1.56e+00	0	47	104	0	60	1048574
2026-01-18 02:23:55.91	300.20	17.84	-85.2	-88.6	3.1	1.56e+00	0	47	104	0	60	1048575
2026-01-18 02:23:56.91	300.01	17.76	-85.2	-88.6	3.3	1.56e+00	0	47	104	0	60	1048574
2026-01-18 02:23:57.92	299.83	17.69	-85.2	-88.6	3.0	1.56e+00	0	47	104	0	60	1048575
2026-01-18 02:23:58.93	299.64	17.62	-85.2	-88.6	3.1	1.56e+00	0	47	104	0	60	1048575
2026-01-18 02:23:59.93	299.46	17.54	-85.2	-88.6	3.1	1.56e+00	0	47	104	0	60	1048573
2026-01-18 02:24:00.93	299.28	17.47	-85.2	-88.6	3.1	1.56e+00	0	47	104	0	60	1048575
2026-01-18 02:24:01.94	299.10	17.40	-85.2	-88.6	2.9	1.56e+00	0	47	104	0	60	1048575
2026-01-18 02:24:02.94	298.92	17.32	-85.2	-88.6	3.0	1.56e+00	0	47	104	0	60	1048575
2026-01-18 02:24:03.95	298.74	17.25	-85.2	-88.6	2.9	1.56e+00	0	47	104	0	60	1048575
2026-01-18 02:24:04.95	298.56	17.18	-85.2	-88.6	3.2	1.55e+00	0	47	104	0	60	1048574
2026-01-18 02:24:05.96	298.38	17.10	-85.2	-88.6	3.2	1.56e+00	0	47	104	0	60	1048575
2026-01-18 02:24:06.97	298.21	17.03	-85.2	-88.6	3.0	1.56e+00	0	47	104	0	60	1048575
2026-01-18 02:24:07.97	298.03	16.96	-85.2	-88.6	2.9	1.56e+00	0	47	104	0	60	1048573
2026-01-18 02:24:08.98	297.86	16.88	-85.2	-88.6	3.1	1.56e+00	0	47	104	0	60	1048575
2026-01-18 02:24:09.99	297.68	16.81	-85.2	-88.6	3.1	1.55e+00	0	47	104	0	60	1048575
2026-01-18 02:24:11.00	297.51	16.73	-85.2	-88.6	2.7	1.56e+00	0	47	104	0	60	1048575
2026-01-18 02:24:12.00	297.34	16.66	-85.2	-88.6	3.0	1.56e+00	0	47	104	0	60	1048575
2026-01-18 02:24:13.00	297.17	16.58	-84.7	-88.6	3.0	1.56e+00	0	47	104	0	60	1048574
2026-01-18 02:24:14.01	297.00	16.51	-85.2	-88.6	3.0	1.56e+00	0	47	104	0	60	1048575
2026-01-18 02:24:15.02	296.83	16.44	-85.2	-88.6	3.0	1.56e+00	0	47	104	0	60	1048574
2026-01-18 02:24:16.03	296.66	16.36	-85.2	-88.6	3.0	1.56e+00	0	47	104	0	60	1048575
2026-01-18 02:24:17.03	296.49	16.29	-85.2	-88.6	3.0	1.55e+00	0	47	104	0	60	1048574
2026-01-18 02:24:18.04	296.32	16.21	-85.2	-88.6	2.9	1.55e+00	0	47	104	0	60	1048573
2026-01-18 02:24:19.05	296.16	16.14	-85.2	-88.6	2.8	1.56e+00	0	47	104	0	60	1048575
2026-01-18 02:24:20.05	295.99	16.06	-85.2	-88.6	2.9	1.56e+00	0	47	104	0	60	1048575
2026-01-18 02:24:21.06	295.83	15.99	-85.2	-88.6	3.0	1.55e+00	0	47	104	0	60	1048573
2026-01-18 02:24:22.07	295.66	15.92	-85.2	-88.6	3.2	1.56e+00	0	47	104	0	60	1048575
2026-01-18 02:24:23.08	295.50	15.84	-85.2	-88.6	3.0	1.56e+00	0	47	104	0	60	1048575
2026-01-18 02:24:24.08	295.34	15.77	-85.2	-88.6	3.1	1.56e+00	0	47	104	0	60	1048571
2026-01-18 02:24:25.09	295.18	15.69	-85.2	-88.6	2.9	1.56e+00	0	47	104	0	60	1048575
2026-01-18 02:24:26.09	295.02	15.62	-85.2	-88.6	3.0	1.56e+00	0	47	104	0	60	1048574
2026-01-18 02:24:27.10	294.86	15.54	-85.2	-88.6	2.7	1.56e+00	0	47	104	0	60	1048575
2026-01-18 02:24:28.11	294.70	15.47	-84.7	-88.6	3.1	1.55e+00	0	47	104	0	60	1048575
2026-01-18 02:24:29.11	294.54	15.39	-85.2	-88.6	2.9	1.56e+00	0	47	104	0	60	1048574
2026-01-18 02:24:30.12	294.38	15.32	-85.2	-88.6	2.8	1.55e+00	0	47	104	0	60	1048575
2026-01-18 02:24:31.12	294.23	15.25	-85.2	-88.6	3.1	1.55e+00	0	47	104	0	60	1048574
2026-01-18 02:24:32.13	294.07	15.17	-85.2	-88.6	3.1	1.56e+00	0	47	104	0	60	1048575
2026-01-18 02:24:33.13	293.92	15.10	-84.7	-88.6	3.0	1.56e+00	0	47	104	0	60	1048575
2026-01-18 02:24:34.14	293.76	15.02	-85.2	-88.6	3.0	1.56e+00	0	47	104	0	60	1048573
2026-01-18 02:24:35.15	293.61	14.95	-85.2	-88.6	3.0	1.55e+00	0	47	104	0	60	1048575
2026-01-18 02:24:36.14	293.46	14.88	-85.2	-88.6	3.0	1.56e+00	0	47	104	0	60	1048575
2026-01-18 02:24:37.15	293.30	14.80	-85.2	-88.6	3.2	1.55e+00	0	47	104	0	60	1048574
2026-01-18 02:24:38.15	293.15	14.73	-84.7	-88.6	3.1	1.56e+00	0	47	104	0	60	1048575
2026-01-18 02:24:39.16	293.00	14.65	-85.2	-88.6	3.0	1.55e+00	0	47	104	0	60	1048572
2026-01-18 02:24:40.17	292.85	14.58	-84.7	-88.6	3.0	1.55e+00	0	47	104	0	60	1048575
2026-01-18 02:24:41.17	292.71	14.50	-85.2	-88.6	2.9	1.56e+00	0	47	104	0	60	1048575
2026-01-18 02:24:42.18	292.56	14.43	-85.2	-88.6	3.0	1.56e+00	0	47	104	0	60	1048575
2026-01-18 02:24:43.19	292.41	14.36	-85.2	-88.6	3.0	1.56e+00	0	47	104	0	60	1048573
2026-01-18 02:24:44.20	292.26	14.28	-85.2	-88.6	2.9	1.56e+00	0	47	104	0	60	1048574
2026-01-18 02:24:45.20	292.12	14.21	-85.2	-88.6	2.9	1.56e+00	0	47	104	0	60	1048575
2026-01-18 02:24:46.21	291.97	14.13	-85.2	-88.6	3.1	1.56e+00	0	47	104	0	60	1048574
2026-01-18 02:24:47.21	291.83	14.06	-85.2	-88.6	3.2	1.55e+00	0	47	104	0	60	1048574
2026-01-18 02:24:48.22	291.68	13.99	-85.2	-88.6	3.0	1.55e+00	0	47	104	0	60	1048575
2026-01-18 02:24:49.23	291.54	13.91	-85.2	-88.6	3.1	1.56e+00	0	47	104	0	60	1048575
2026-01-18 02:24:50.23	291.40	13.84	-85.2	-88.6	2.9	1.56e+00	0	47	104	0	60	1048574
2026-01-18 02:24:51.24	291.26	13.76	-85.2	-88.6	3.1	1.55e+00	0	47	104	0	60	1048575
2026-01-18 02:24:52.24	291.12	13.69	-85.2	-88.6	3.1	1.56e+00	0	47	104	0	60	1048573
2026-01-18 02:24:53.25	290.98	13.62	-85.2	-88.6	3.2	1.56e+00	0	47	104	0	60	1048572
2026-01-18 02:24:54.26	290.84	13.54	-85.2	-88.6	2.8	1.56e+00	0	47	104	0	60	1048574
2026-01-18 02:24:55.26	290.70	13.47	-85.2	-88.6	3.0	1.56e+00	0	47	104	0	60	1048574
2026-01-18 02:24:56.27	290.56	13.40	-85.2	-88.6	3.0	1.56e+00	0	47	104	0	60	1048575
2026-01-18 02:24:57.28	290.42	13.32	-85.2	-88.6	2.8	1.56e+00	0	47	104	0	60	1048572
2026-01-18 02:24:58.29	290.29	13.25	-85.2	-88.6	2.7	1.56e+00	0	47	104	0	60	1048575
2026-01-18 02:24:59.29	290.15	13.17	-85.2	-88.6	3.0	1.56e+00	0	47	104	0	60	1048575
2026-01-18 02:25:00.30	290.02	13.10	-85.2	-88.6	2.9	1.56e+00	0	47	104	0	60	1048572
2026-01-18 02:25:01.31	289.88	13.03	-85.2	-88.6	3.1	1.55e+00	0	47	104	0	60	1048573
2026-01-18 02:25:02.32	289.75	12.95	-85.2	-88.6	2.9	1.56e+00	0	47	104	0	60	1048575
2026-01-18 02:25:03.33	289.61	12.88	-85.2	-88.6	2.9	1.55e+00	0	47	104	0	60	1048572
2026-01-18 02:25:04.33	289.48	12.81	-85.2	-88.6	2.9	1.56e+00	0	47	104	0	60	1048575
2026-01-18 02:25:05.33	289.35	12.74	-85.2	-88.6	3.1	1.55e+00	0	47	104	0	60	1048575
2026-01-18 02:25:06.33	289.22	12.66	-85.2	-88.6	2.8	1.55e+00	0	47	104	0	60	1048574
2026-01-18 02:25:07.34	289.09	12.59	-85.2	-88.6	3.0	1.56e+00	0	47	104	0	60	1048566
2026-01-18 02:25:08.35	288.96	12.52	-84.7	-88.6	3.1	1.56e+00	0	47	104	0	60	1048575
2026-01-18 02:25:09.35	288.83	12.44	-85.2	-88.6	2.9	1.56e+00	0	47	104	0	60	1048575
2026-01-18 02:25:10.36	288.70	12.37	-85.2	-88.6	3.0	1.56e+00	0	47	104	0	60	1048573
2026-01-18 02:25:11.37	288.58	12.30	-85.2	-88.6	2.8	1.56e+00	0	47	104	0	60	1048574
2026-01-18 02:25:12.38	288.45	12.23	-85.2	-88.6	3.2	1.56e+00	0	47	104	0	60	1048573
2026-01-18 02:25:13.38	288.32	12.15	-85.2	-88.6	3.0	1.56e+00	0	47	104	0	60	1048574
2026-01-18 02:25:14.39	288.20	12.08	-85.2	-88.6	3.1	1.56e+00	0	47	104	0	60	1048575
2026-01-18 02:25:15.39	288.07	12.01	-85.2	-88.6	2.9	1.56e+00	0	47	104	0	60	1048575
2026-01-18 02:25:16.40	287.95	11.94	-85.2	-88.6	3.1	1.56e+00	0	47	104	0	60	1048573
2026-01-18 02:25:17.41	287.82	11.87	-85.2	-88.6	3.2	1.56e+00	0	47	104	0	60	1048575
2026-01-18 02:25:18.42	287.70	11.79	-85.2	-88.6	3.1	1.56e+00	0	47	104	0	60	1048574
2026-01-18 02:25:19.42	287.58	11.72	-85.2	-88.6	2.9	1.56e+00	0	47	104	0	60	1048575
2026-01-18 02:25:20.43	287.45	11.65	-85.2	-88.6	3.0	1.56e+00	0	47	104	0	60	1048575
2026-01-18 02:25:21.43	287.33	11.58	-85.2	-88.6	3.0	1.55e+00	0	47	104	0	60	1048575
2026-01-18 02:25:22.44	287.21	11.51	-85.2	-88.6	3.0	1.56e+00	0	47	104	0	60	1048575
2026-01-18 02:25:23.45	287.09	11.43	-85.2	-88.6	3.0	1.56e+00	0	47	104	0	60	1048573
2026-01-18 02:25:24.45	286.97	11.36	-85.2	-88.6	3.0	1.56e+00	0	47	104	0	60	1048575
2026-01-18 02:25:25.46	286.85	11.29	-85.2	-88.6	3.0	1.56e+00	0	47	104	0	60	1048575
2026-01-18 02:25:26.47	286.73	11.22	-85.2	-88.6	2.8	1.55e+00	0	47	104	0	60	1048575
2026-01-18 02:25:27.47	286.62	11.15	-85.2	-88.6	3.0	1.56e+00	0	47	104	0	60	1048575
2026-01-18 02:25:28.48	286.50	11.08	-85.2	-88.6	3.0	1.56e+00	0	47	104	0	60	1048572
2026-01-18 02:25:29.49	286.38	11.01	-85.2	-88.6	3.1	1.56e+00	0	47	104	0	60	1048574
2026-01-18 02:25:30.50	286.26	10.93	-85.2	-88.6	3.0	1.56e+00	0	47	104	0	60	1048575
2026-01-18 02:25:31.50	286.15	10.86	-85.2	-88.6	3.1	1.56e+00	0	47	104	0	60	1048575
2026-01-18 02:25:32.51	286.03	10.79	-85.2	-88.6	3.0	1.56e+00	0	47	104	0	60	1048574
2026-01-18 02:25:33.52	285.92	10.72	-85.2	-88.6	2.9	1.56e+00	0	47	104	0	60	1048575
2026-01-18 02:25:34.53	285.80	10.65	-85.2	-88.6	2.9	1.56e+00	0	47	104	0	60	1048575
2026-01-18 02:25:35.54	285.69	10.58	-85.2	-88.6	2.9	1.56e+00	0	47	104	0	60	1048575
2026-01-18 02:25:36.54	285.58	10.51	-83.5	-88.6	3.1	1.56e+00	0	47	104	0	60	1048574
2026-01-18 02:25:37.55	285.47	10.44	-85.2	-88.6	3.0	1.55e+00	0	47	104	0	60	1048573
2026-01-18 02:25:38.55	285.36	10.37	-84.3	-88.6	3.1	1.55e+00	0	47	104	0	60	1048570
2026-01-18 02:25:39.56	285.24	10.30	-85.2	-88.6	2.8	1.56e+00	0	47	104	0	60	1048571
2026-01-18 02:25:40.57	285.13	10.23	-85.2	-88.6	3.2	1.56e+00	0	47	104	0	60	1048575
2026-01-18 02:25:41.57	285.02	10.16	-85.2	-88.6	2.8	1.56e+00	0	47	104	0	60	1048572
2026-01-18 02:25:42.58	284.91	10.09	-85.2	-88.6	3.0	1.56e+00	0	47	104	0	60	1048575
2026-01-18 02:25:43.58	284.81	10.02	-85.2	-88.6	2.7	1.55e+00	0	47	104	0	60	1048575
2026-01-18 02:25:44.59	284.70	9.95	-85.2	-88.6	3.1	1.56e+00	0	47	104	0	60	1048575
2026-01-18 02:25:45.60	284.59	9.88	-85.2	-88.6	2.9	1.56e+00	0	47	104	0	60	1048575
2026-01-18 02:25:46.60	284.48	9.81	-85.2	-88.6	3.0	1.55e+00	0	47	104	0	60	1048575
2026-01-18 02:25:47.61	284.37	9.74	-84.3	-88.6	3.1	1.55e+00	0	47	104	0	60	1048575
2026-01-18 02:25:48.62	284.27	9.67	-85.2	-88.6	3.0	1.55e+00	0	47	104	0	60	1048575
2026-01-18 02:25:49.63	284.16	9.60	-85.2	-88.6	3.1	1.55e+00	0	47	104	0	60	1048573
2026-01-18 02:25:50.64	284.06	9.53	-85.2	-88.6	3.2	1.56e+00	0	47	104	0	60	1048575
2026-01-18 02:25:51.64	283.95	9.46	-85.2	-88.6	3.0	1.56e+00	0	47	104	0	60	1048575
2026-01-18 02:25:52.65	283.85	9.39	-85.2	-88.6	2.9	1.56e+00	0	47	104	0	60	1048575
2026-01-18 02:25:53.65	283.74	9.33	-85.2	-88.6	2.9	1.56e+00	0	47	104	0	60	1048573
2026-01-18 02:25:54.65	283.64	9.26	-85.2	-88.6	3.1	1.55e+00	0	47	104	0	60	1048575
2026-01-18 02:25:55.66	283.54	9.19	-85.2	-88.6	3.2	1.55e+00	0	47	104	0	60	1048575
2026-01-18 02:25:56.67	283.44	9.12	-85.2	-88.6	2.8	1.55e+00	0	47	104	0	60	1048575
2026-01-18 02:25:57.67	283.33	9.05	-85.2	-88.6	3.2	1.55e+00	0	47	104	0	60	1048574
2026-01-18 02:25:58.68	283.23	8.98	-85.2	-88.6	3.1	1.55e+00	0	47	104	0	60	1048573
2026-01-18 02:25:59.68	283.13	8.92	-85.2	-88.6	3.1	1.56e+00	0	47	104	0	60	1048575
2026-01-18 02:26:00.69	283.03	8.85	-85.2	-88.6	3.2	1.55e+00	0	47	104	0	60	1048574
2026-01-18 02:26:01.70	282.93	8.78	-85.2	-88.6	3.1	1.55e+00	0	47	104	0	60	1048574
2026-01-18 02:26:02.71	282.83	8.71	-85.2	-88.6	2.9	1.55e+00	0	47	104	0	60	1048572
2026-01-18 02:26:03.72	282.73	8.64	-85.2	-88.6	3.0	1.55e+00	0	47	104	0	60	1048575
2026-01-18 02:26:04.73	282.63	8.57	-85.2	-88.6	3.0	1.56e+00	0	47	104	0	60	1048569
2026-01-18 02:26:05.73	282.54	8.51	-85.2	-88.6	3.0	1.56e+00	0	47	104	0	60	1048574
2026-01-18 02:26:06.74	282.44	8.44	-83.1	-88.6	3.2	1.56e+00	0	47	104	0	60	1048574
2026-01-18 02:26:07.75	282.34	8.37	-85.2	-88.6	2.8	1.55e+00	0	47	104	0	60	1048574
2026-01-18 02:26:08.76	282.24	8.30	-85.2	-88.6	3.0	1.56e+00	0	47	104	0	60	1048575
2026-01-18 02:26:09.76	282.15	8.24	-85.2	-88.6	2.9	1.55e+00	0	47	104	0	60	1048575
2026-01-18 02:26:10.77	282.05	8.17	-85.2	-88.6	2.7	1.55e+00	0	47	104	0	60	1048573
2026-01-18 02:26:11.78	281.96	8.10	-85.2	-88.6	3.2	1.56e+00	0	47	104	0	60	1048575
2026-01-18 02:26:12.78	281.86	8.04	-85.2	-88.6	3.0	1.56e+00	0	47	104	0	60	1048575
2026-01-18 02:26:13.79	281.77	7.97	-85.2	-88.6	3.2	1.56e+00	0	47	104	0	60	1048574
2026-01-18 02:26:14.80	281.67	7.90	-85.2	-88.6	3.0	1.56e+00	0	47	104	0	60	1048574
2026-01-18 02:26:15.80	281.58	7.84	-85.2	-88.6	3.0	1.56e+00	0	47	104	0	60	1048575
2026-01-18 02:26:16.80	281.49	7.77	-85.2	-88.6	3.0	1.56e+00	0	47	104	0	60	1048572
2026-01-18 02:26:17.81	281.40	7.70	-85.2	-88.6	3.2	1.56e+00	0	47	104	0	60	1048575
2026-01-18 02:26:18.82	281.30	7.64	-85.2	-88.6	3.1	1.55e+00	0	47	104	0	60	1048575
2026-01-18 02:26:19.82	281.21	7.57	-85.2	-88.6	2.8	1.56e+00	0	47	104	0	60	1048575
2026-01-18 02:26:20.83	281.12	7.50	-85.2	-88.6	2.9	1.56e+00	0	47	104	0	60	1048575
2026-01-18 02:26:21.84	281.03	7.44	-85.2	-88.6	3.1	1.56e+00	0	47	104	0	60	1048575
2026-01-18 02:26:22.85	280.94	7.37	-85.2	-88.6	3.2	1.56e+00	0	47	104	0	60	1048574
2026-01-18 02:26:23.85	280.85	7.31	-85.2	-88.6	3.2	1.55e+00	0	47	104	0	60	1048573
2026-01-18 02:26:24.86	280.76	7.24	-85.2	-88.6	3.0	1.55e+00	0	47	104	0	60	1048575
2026-01-18 02:26:25.86	280.67	7.18	-85.2	-88.6	3.2	1.55e+00	0	47	104	0	60	1048573
2026-01-18 02:26:26.87	280.58	7.11	-85.2	-88.6	3.1	1.55e+00	0	47	104	0	60	1048575
2026-01-18 02:26:27.87	280.49	7.04	-85.2	-88.6	3.2	1.56e+00	0	47	104	0	60	1048575
2026-01-18 02:26:28.88	280.41	6.98	-85.2	-88.6	3.1	1.55e+00	0	47	104	0	60	1048574
2026-01-18 02:26:29.89	280.32	6.91	-85.2	-88.6	2.9	1.55e+00	0	47	104	0	60	1048574
2026-01-18 02:26:30.89	280.23	6.85	-85.2	-88.6	3.1	1.56e+00	0	47	104	0	60	1048575
2026-01-18 02:26:31.90	280.14	6.78	-85.2	-88.6	3.0	1.56e+00	0	47	104	0	60	1048575
2026-01-18 02:26:32.90	280.06	6.72	-85.2	-88.6	3.1	1.56e+00	0	47	104	0	60	1048575
2026-01-18 02:26:33.90	279.97	6.65	-85.2	-88.6	3.0	1.56e+00	0	47	104	0	60	1048574
2026-01-18 02:26:34.91	279.89	6.59	-85.2	-88.6	2.8	1.56e+00	0	47	104	0	60	1048575
