passes_logs/2026/01/18/R3.2S-Naryan-Mar/R3.2S-Naryan-Mar__20260118_030356_NOAA_21_JPSS-2_rec.log

#Pass ID: 20260118_030356_NOAA 21 (JPSS-2)
#Satellite: NOAA 21 (JPSS-2)
#Configuration: NOAA-21
#almurnet v.1.7.20240730
#Start time: 2026-01-18 03:07:45

#Version: 2.2.20231116
#Station: R3.2S-Naryan-Mar
#Location: 53.008057 lon 67.646978 lat
#TLE: 1 54234U 22150A   26017.26823908  .00000042  00000+0  40962-4 0  9992
#TLE: 2 54234  98.7501 318.1405 0000613 274.2947  85.8159 14.19535194165131

#Time	Az	El	Level	Level2	SNR	BER	BlckErr	Temp	State	Recorded	gain1	gain2
2026-01-18 03:07:45.37	28.61	13.76	-84.7	-88.6	4.0	7.64e-01	0	47	0	0	60	1048574
2026-01-18 03:07:46.37	28.45	13.82	-85.2	-88.8	2.8	1.56e+00	0	47	104	0	60	1048574
2026-01-18 03:07:47.38	28.29	13.89	-85.2	-88.8	2.4	1.56e+00	0	48	104	0	60	1048574
2026-01-18 03:07:48.39	28.14	13.95	-85.2	-88.8	2.7	1.56e+00	0	47	104	0	60	1048568
2026-01-18 03:07:49.40	27.97	14.02	-85.2	-88.8	2.6	1.56e+00	0	47	104	0	60	1048573
2026-01-18 03:07:50.41	27.81	14.08	-85.2	-88.8	2.6	1.56e+00	0	48	104	0	60	1048575
2026-01-18 03:07:51.41	27.65	14.15	-85.2	-88.8	2.6	1.56e+00	0	47	104	0	60	1048573
2026-01-18 03:07:52.42	27.49	14.21	-85.2	-88.8	2.8	1.56e+00	0	47	104	0	60	1048575
2026-01-18 03:07:53.42	27.33	14.27	-85.2	-88.8	2.6	1.56e+00	0	47	104	0	60	1048574
2026-01-18 03:07:54.43	27.17	14.34	-85.2	-88.8	2.8	1.56e+00	0	48	104	0	60	1048574
2026-01-18 03:07:55.43	27.00	14.40	-85.2	-88.8	2.5	1.56e+00	0	48	104	0	60	1048574
2026-01-18 03:07:56.44	26.84	14.47	-85.2	-88.8	2.7	1.56e+00	0	47	104	0	60	1048573
2026-01-18 03:07:57.44	26.67	14.53	-85.2	-88.8	2.6	1.56e+00	0	48	104	0	60	1048573
2026-01-18 03:07:58.45	26.51	14.59	-84.7	-88.8	2.7	1.56e+00	0	48	104	0	60	1048572
2026-01-18 03:07:59.45	26.34	14.66	-85.2	-88.8	2.5	1.56e+00	0	48	104	0	60	1048575
2026-01-18 03:08:00.46	26.17	14.72	-85.2	-88.8	2.7	1.56e+00	0	48	104	0	60	1048570
2026-01-18 03:08:01.47	26.00	14.79	-85.2	-88.8	2.9	1.56e+00	0	48	104	0	60	1048575
2026-01-18 03:08:02.48	25.83	14.85	-85.2	-88.8	2.7	1.56e+00	0	48	104	0	60	1048575
2026-01-18 03:08:03.48	25.66	14.91	-84.7	-88.8	2.8	1.56e+00	0	48	104	0	60	1048575
2026-01-18 03:08:04.49	25.49	14.98	-85.2	-88.8	2.8	1.56e+00	0	48	104	0	60	1048575
2026-01-18 03:08:05.50	25.32	15.04	-85.2	-88.8	2.7	1.56e+00	0	48	104	0	60	1048574
2026-01-18 03:08:06.51	25.15	15.10	-85.2	-88.8	2.8	1.56e+00	0	48	104	0	60	1048575
2026-01-18 03:08:07.52	24.97	15.17	-85.2	-88.8	2.7	1.56e+00	0	48	104	0	60	1048571
2026-01-18 03:08:08.52	24.80	15.23	-84.7	-88.8	2.7	1.56e+00	0	48	104	0	60	1048574
2026-01-18 03:08:09.53	24.63	15.29	-85.2	-88.8	2.9	1.56e+00	0	48	104	0	60	1048575
2026-01-18 03:08:10.54	24.45	15.35	-85.2	-88.8	2.6	1.56e+00	0	47	104	0	60	1048574
2026-01-18 03:08:11.55	24.27	15.42	-85.2	-88.8	2.6	1.56e+00	0	48	104	0	60	1048572
2026-01-18 03:08:12.55	24.10	15.48	-85.2	-88.8	2.8	1.56e+00	0	47	104	0	60	1048563
2026-01-18 03:08:13.56	23.92	15.54	-84.7	-88.8	2.9	1.56e+00	0	47	104	0	60	1048570
2026-01-18 03:08:14.57	23.74	15.60	-85.2	-88.8	2.6	1.56e+00	0	48	104	0	60	1048574
2026-01-18 03:08:15.58	23.56	15.67	-85.2	-88.8	2.7	1.56e+00	0	48	104	0	60	1048574
2026-01-18 03:08:16.58	23.38	15.73	-84.7	-88.8	2.6	1.56e+00	0	48	104	0	60	1048569
2026-01-18 03:08:17.59	23.20	15.79	-83.5	-88.8	2.6	1.56e+00	0	48	104	0	60	1048575
2026-01-18 03:08:18.60	23.02	15.85	-85.2	-88.8	2.8	1.56e+00	0	47	104	0	60	1048575
2026-01-18 03:08:19.61	22.84	15.91	-85.2	-88.8	2.6	1.56e+00	0	47	104	0	60	1048574
2026-01-18 03:08:20.61	22.66	15.98	-85.2	-88.8	2.9	1.56e+00	0	48	104	0	60	1048575
2026-01-18 03:08:21.62	22.47	16.04	-85.2	-88.8	2.8	1.56e+00	0	48	104	0	60	1048575
2026-01-18 03:08:22.63	22.29	16.10	-85.2	-88.8	2.4	1.56e+00	0	47	104	0	60	1048575
2026-01-18 03:08:23.64	22.10	16.16	-85.2	-88.8	2.8	1.56e+00	0	48	104	0	60	1048575
2026-01-18 03:08:24.64	21.92	16.22	-85.2	-88.8	2.7	1.56e+00	0	48	104	0	60	1048573
2026-01-18 03:08:25.65	21.73	16.28	-84.7	-88.8	2.6	1.56e+00	0	48	104	0	60	1048575
2026-01-18 03:08:26.66	21.54	16.34	-85.2	-88.8	2.7	1.56e+00	0	47	104	0	60	1048575
2026-01-18 03:08:27.66	21.36	16.40	-85.2	-88.8	2.7	1.56e+00	0	48	104	0	60	1048572
2026-01-18 03:08:28.67	21.17	16.46	-84.7	-88.8	2.6	1.56e+00	0	48	104	0	60	1048574
2026-01-18 03:08:29.67	20.98	16.52	-85.2	-88.8	2.7	1.56e+00	0	48	104	0	60	1048574
2026-01-18 03:08:30.67	20.79	16.58	-85.2	-88.8	2.6	1.56e+00	0	48	104	0	60	1048574
2026-01-18 03:08:31.68	20.60	16.64	-85.2	-88.8	2.5	1.56e+00	0	48	104	0	60	1048575
2026-01-18 03:08:32.68	20.41	16.70	-83.5	-88.8	2.7	1.56e+00	0	47	104	0	60	1048575
2026-01-18 03:08:33.69	20.21	16.76	-85.2	-88.8	2.9	1.56e+00	0	47	104	0	60	1048575
2026-01-18 03:08:34.70	20.02	16.82	-85.2	-88.8	2.8	1.56e+00	0	48	104	0	60	1048575
2026-01-18 03:08:35.71	19.83	16.88	-85.2	-88.8	2.6	1.56e+00	0	47	104	0	60	1048575
2026-01-18 03:08:36.72	19.63	16.94	-85.2	-88.8	2.9	1.56e+00	0	47	104	0	60	1048574
2026-01-18 03:08:37.73	19.43	17.00	-85.2	-88.8	2.6	1.56e+00	0	47	104	0	60	1048575
2026-01-18 03:08:38.73	19.24	17.05	-85.2	-88.8	2.7	1.56e+00	0	48	104	0	60	1048575
2026-01-18 03:08:39.74	19.04	17.11	-85.2	-88.8	2.6	1.56e+00	0	48	104	0	60	1048574
2026-01-18 03:08:40.75	18.84	17.17	-85.2	-88.8	2.6	1.56e+00	0	47	104	0	60	1048575
2026-01-18 03:08:41.76	18.64	17.23	-84.3	-88.8	2.6	1.56e+00	0	47	104	0	60	1048574
2026-01-18 03:08:42.76	18.44	17.29	-85.2	-88.8	2.7	1.56e+00	0	48	104	0	60	1048575
2026-01-18 03:08:43.77	18.24	17.34	-85.2	-88.8	2.7	1.56e+00	0	48	104	0	60	1048573
2026-01-18 03:08:44.78	18.04	17.40	-85.2	-88.8	2.6	1.56e+00	0	47	104	0	60	1048574
2026-01-18 03:08:45.78	17.84	17.46	-85.2	-88.8	2.7	1.56e+00	0	47	104	0	60	1048574
2026-01-18 03:08:46.79	17.64	17.51	-85.2	-88.8	2.6	1.56e+00	0	48	104	0	60	1048572
2026-01-18 03:08:47.80	17.43	17.57	-85.2	-88.8	2.8	1.56e+00	0	48	104	0	60	1048573
2026-01-18 03:08:48.81	17.23	17.63	-85.2	-88.8	2.7	1.56e+00	0	47	104	0	60	1048568
2026-01-18 03:08:49.81	17.02	17.68	-85.2	-88.8	2.8	1.56e+00	0	47	104	0	60	1048575
2026-01-18 03:08:50.82	16.82	17.74	-85.2	-88.8	2.6	1.56e+00	0	48	104	0	60	1048570
2026-01-18 03:08:51.83	16.61	17.79	-85.2	-88.8	2.8	1.56e+00	0	47	104	0	60	1048571
2026-01-18 03:08:52.84	16.40	17.85	-85.2	-88.8	2.6	1.56e+00	0	47	104	0	60	1048572
2026-01-18 03:08:53.85	16.19	17.90	-85.2	-88.8	2.6	1.56e+00	0	48	104	0	60	1048574
2026-01-18 03:08:54.85	15.99	17.96	-85.2	-88.8	2.9	1.56e+00	0	48	104	0	60	1048575
2026-01-18 03:08:55.86	15.78	18.01	-85.2	-88.8	2.7	1.56e+00	0	48	104	0	60	1048574
2026-01-18 03:08:56.86	15.57	18.06	-83.5	-88.8	2.8	1.56e+00	0	48	104	0	60	1048575
2026-01-18 03:08:57.87	15.36	18.12	-83.5	-88.8	2.7	1.56e+00	0	48	104	0	60	1048573
2026-01-18 03:08:58.88	15.14	18.17	-85.2	-88.8	2.8	1.56e+00	0	48	104	0	60	1048575
2026-01-18 03:08:59.89	14.93	18.23	-85.2	-88.8	2.7	1.56e+00	0	48	104	0	60	1048575
2026-01-18 03:09:00.88	14.72	18.28	-85.2	-88.8	2.8	1.56e+00	0	48	104	0	60	1048569
2026-01-18 03:09:01.89	14.50	18.33	-85.2	-88.8	2.7	1.56e+00	0	48	104	0	60	1048575
2026-01-18 03:09:02.90	14.29	18.38	-85.2	-88.8	2.6	1.56e+00	0	48	104	0	60	1048570
2026-01-18 03:09:03.90	14.08	18.43	-85.2	-88.8	2.6	1.56e+00	0	48	104	0	60	1048568
2026-01-18 03:09:04.91	13.86	18.49	-85.2	-88.8	2.6	1.56e+00	0	48	104	0	60	1048575
2026-01-18 03:09:05.92	13.64	18.54	-85.2	-88.8	2.7	1.56e+00	0	47	104	0	60	1048575
2026-01-18 03:09:06.93	13.42	18.59	-85.2	-88.8	2.8	1.56e+00	0	48	104	0	60	1048568
2026-01-18 03:09:07.93	13.20	18.64	-85.2	-88.8	2.6	1.56e+00	0	48	104	0	60	1048572
2026-01-18 03:09:08.94	12.98	18.69	-85.2	-88.8	2.6	1.56e+00	0	48	104	0	60	1048575
2026-01-18 03:09:09.95	12.76	18.74	-85.2	-88.8	2.8	1.56e+00	0	48	104	0	60	1048571
2026-01-18 03:09:10.96	12.54	18.79	-85.2	-88.8	2.8	1.56e+00	0	48	104	0	60	1048571
2026-01-18 03:09:11.96	12.32	18.84	-85.2	-88.8	2.7	1.56e+00	0	48	104	0	60	1048574
2026-01-18 03:09:12.97	12.10	18.89	-85.2	-88.8	2.8	1.56e+00	0	48	104	0	60	1048575
2026-01-18 03:09:13.98	11.88	18.93	-85.2	-88.8	2.6	1.56e+00	0	48	104	0	60	1048572
2026-01-18 03:09:14.99	11.65	18.98	-85.2	-88.8	2.6	1.56e+00	0	48	104	0	60	1048575
2026-01-18 03:09:15.99	11.43	19.03	-85.2	-88.8	2.8	1.56e+00	0	47	104	0	60	1048573
2026-01-18 03:09:17.00	11.20	19.08	-85.2	-88.8	2.5	1.56e+00	0	48	104	0	60	1048573
2026-01-18 03:09:18.00	10.98	19.12	-84.3	-88.8	2.8	1.56e+00	0	48	104	0	60	1048571
2026-01-18 03:09:19.00	10.75	19.17	-83.9	-88.8	2.7	1.56e+00	0	48	104	0	60	1048575
2026-01-18 03:09:20.01	10.53	19.22	-85.2	-88.8	2.9	1.56e+00	0	48	104	0	60	1048573
2026-01-18 03:09:21.02	10.30	19.26	-85.2	-88.8	2.5	1.56e+00	0	48	104	0	60	1048570
2026-01-18 03:09:22.03	10.07	19.31	-85.2	-88.8	2.7	1.56e+00	0	48	104	0	60	1048574
2026-01-18 03:09:23.03	9.84	19.35	-85.2	-88.8	2.6	1.56e+00	0	48	104	0	60	1048575
2026-01-18 03:09:24.04	9.61	19.40	-85.2	-88.8	2.6	1.56e+00	0	48	104	0	60	1048573
2026-01-18 03:09:25.05	9.38	19.44	-85.2	-88.8	2.9	1.56e+00	0	48	104	0	60	1048569
2026-01-18 03:09:26.06	9.15	19.49	-85.2	-88.8	2.5	1.56e+00	0	48	104	0	60	1048575
2026-01-18 03:09:27.07	8.91	19.53	-84.3	-88.8	2.7	1.56e+00	0	48	104	0	60	1048575
2026-01-18 03:09:28.08	8.68	19.57	-85.2	-88.8	2.5	1.56e+00	0	48	104	0	60	1048573
2026-01-18 03:09:29.08	8.45	19.62	-85.2	-88.8	2.7	1.56e+00	0	48	104	0	60	1048573
2026-01-18 03:09:30.08	8.22	19.66	-85.2	-88.8	2.8	1.56e+00	0	48	104	0	60	1048575
2026-01-18 03:09:31.09	7.98	19.70	-85.2	-88.8	2.7	1.56e+00	0	48	104	0	60	1048575
2026-01-18 03:09:32.10	7.74	19.74	-85.2	-88.8	2.8	1.56e+00	0	48	104	0	60	1048573
2026-01-18 03:09:33.11	7.51	19.78	-85.2	-88.8	2.8	1.56e+00	0	48	104	0	60	1048574
2026-01-18 03:09:34.11	7.27	19.82	-85.2	-88.8	2.9	1.56e+00	0	48	104	0	60	1048573
2026-01-18 03:09:35.12	7.04	19.86	-84.3	-88.8	2.7	1.56e+00	0	48	104	0	60	1048568
2026-01-18 03:09:36.13	6.80	19.90	-85.2	-88.8	2.6	1.56e+00	0	48	104	0	60	1048575
2026-01-18 03:09:37.14	6.56	19.94	-85.2	-88.8	2.8	1.56e+00	0	48	104	0	60	1048570
2026-01-18 03:09:38.14	6.32	19.98	-85.2	-88.8	2.7	1.56e+00	0	48	104	0	60	1048574
2026-01-18 03:09:39.15	6.08	20.02	-85.2	-88.8	2.9	1.56e+00	0	48	104	0	60	1048573
2026-01-18 03:09:40.16	5.84	20.06	-85.2	-88.8	2.7	1.56e+00	0	48	104	0	60	1048574
2026-01-18 03:09:41.17	5.60	20.09	-85.2	-88.8	2.8	1.56e+00	0	48	104	0	60	1048573
2026-01-18 03:09:42.18	5.36	20.13	-84.7	-88.8	2.7	1.56e+00	0	48	104	0	60	1048574
2026-01-18 03:09:43.19	5.11	20.17	-85.2	-88.8	2.8	1.56e+00	0	48	104	0	60	1048575
2026-01-18 03:09:44.20	4.87	20.20	-85.2	-88.8	2.4	1.56e+00	0	48	104	0	60	1048570
2026-01-18 03:09:45.21	4.63	20.24	-85.2	-88.8	2.9	1.56e+00	0	48	104	0	60	1048573
2026-01-18 03:09:46.21	4.38	20.27	-85.2	-88.8	2.9	1.56e+00	0	48	104	0	60	1048574
2026-01-18 03:09:47.22	4.14	20.31	-85.2	-88.8	2.8	1.56e+00	0	48	104	0	60	1048575
2026-01-18 03:09:48.22	3.90	20.34	-85.2	-88.8	2.9	1.56e+00	0	47	104	0	60	1048575
2026-01-18 03:09:49.23	3.65	20.37	-85.2	-88.8	2.7	1.56e+00	0	48	104	0	60	1048575
2026-01-18 03:09:50.24	3.40	20.41	-85.2	-88.8	2.7	1.56e+00	0	48	104	0	60	1048575
2026-01-18 03:09:51.25	3.16	20.44	-85.2	-88.8	2.7	1.56e+00	0	48	104	0	60	1048575
2026-01-18 03:09:52.25	2.91	20.47	-85.2	-88.8	2.8	1.56e+00	0	48	104	0	60	1048572
2026-01-18 03:09:53.26	2.66	20.50	-85.2	-88.8	2.8	1.56e+00	0	48	104	0	60	1048574
2026-01-18 03:09:54.26	2.42	20.53	-85.2	-88.8	2.6	1.56e+00	0	48	104	0	60	1048573
2026-01-18 03:09:55.27	2.17	20.56	-85.2	-88.8	2.6	1.56e+00	0	48	104	0	60	1048575
2026-01-18 03:09:56.28	1.92	20.59	-85.2	-88.8	2.7	1.56e+00	0	48	104	0	60	1048572
2026-01-18 03:09:57.28	1.67	20.62	-85.2	-88.8	2.6	1.56e+00	0	48	104	0	60	1048575
2026-01-18 03:09:58.28	1.42	20.65	-85.2	-88.8	2.9	1.56e+00	0	48	104	0	60	1048574
2026-01-18 03:09:59.29	1.17	20.68	-85.2	-88.8	2.7	1.56e+00	0	47	104	0	60	1048575
2026-01-18 03:10:00.30	0.92	20.70	-85.2	-88.8	2.8	1.56e+00	0	47	104	0	60	1048575
2026-01-18 03:10:01.31	0.67	20.73	-85.2	-88.8	2.5	1.56e+00	0	48	104	0	60	1048575
2026-01-18 03:10:02.31	0.42	20.76	-85.2	-88.8	2.9	1.56e+00	0	48	104	0	60	1048572
2026-01-18 03:10:03.32	0.16	20.78	-84.7	-88.8	2.6	1.56e+00	0	48	104	0	60	1048575
2026-01-18 03:10:04.32	359.91	20.81	-85.2	-88.8	2.6	1.56e+00	0	48	104	0	60	1048574
2026-01-18 03:10:05.33	359.66	20.83	-85.2	-88.8	2.6	1.56e+00	0	48	104	0	60	1048574
2026-01-18 03:10:06.33	359.41	20.86	-85.2	-88.8	2.7	1.56e+00	0	48	104	0	60	1048574
2026-01-18 03:10:07.34	359.15	20.88	-85.2	-88.8	2.7	1.56e+00	0	48	104	0	60	1048574
2026-01-18 03:10:08.35	358.90	20.90	-85.2	-88.8	2.8	1.56e+00	0	48	104	0	60	1048573
2026-01-18 03:10:09.35	358.65	20.92	-85.2	-88.8	2.7	1.56e+00	0	48	104	0	60	1048575
2026-01-18 03:10:10.36	358.39	20.95	-85.2	-88.8	2.8	1.56e+00	0	48	104	0	60	1048573
2026-01-18 03:10:11.37	358.13	20.97	-85.2	-88.8	2.6	1.56e+00	0	48	104	0	60	1048574
2026-01-18 03:10:12.37	357.88	20.99	-85.2	-88.8	2.7	1.56e+00	0	48	104	0	60	1048572
2026-01-18 03:10:13.38	357.62	21.01	-85.2	-88.8	2.7	1.56e+00	0	48	104	0	60	1048569
2026-01-18 03:10:14.39	357.37	21.03	-85.2	-88.8	2.5	1.56e+00	0	48	104	0	60	1048574
2026-01-18 03:10:15.40	357.11	21.05	-85.2	-88.8	2.8	1.56e+00	0	48	104	0	60	1048573
2026-01-18 03:10:16.41	356.85	21.06	-85.2	-88.8	2.7	1.56e+00	0	48	104	0	60	1048573
2026-01-18 03:10:17.41	356.60	21.08	-85.2	-88.8	2.8	1.56e+00	0	48	104	0	60	1048574
2026-01-18 03:10:18.42	356.34	21.10	-85.2	-88.8	2.9	1.56e+00	0	48	104	0	60	1048575
2026-01-18 03:10:19.43	356.08	21.11	-85.2	-88.8	2.8	1.56e+00	0	48	104	0	60	1048571
2026-01-18 03:10:20.44	355.82	21.13	-85.2	-88.8	2.9	1.56e+00	0	48	104	0	60	1048572
2026-01-18 03:10:21.45	355.56	21.15	-85.2	-88.8	2.5	1.56e+00	0	48	104	0	60	1048574
2026-01-18 03:10:22.45	355.31	21.16	-85.2	-88.8	2.7	1.56e+00	0	48	104	0	60	1048575
2026-01-18 03:10:23.46	355.05	21.17	-85.2	-88.8	2.8	1.56e+00	0	48	104	0	60	1048575
2026-01-18 03:10:24.47	354.79	21.19	-85.2	-88.8	2.8	1.56e+00	0	48	104	0	60	1048575
2026-01-18 03:10:25.48	354.53	21.20	-85.2	-88.8	2.6	1.56e+00	0	48	104	0	60	1048572
2026-01-18 03:10:26.48	354.27	21.21	-85.2	-88.8	2.7	1.56e+00	0	48	104	0	60	1048572
2026-01-18 03:10:27.49	354.01	21.22	-85.2	-88.8	2.8	1.56e+00	0	48	104	0	60	1048575
2026-01-18 03:10:28.50	353.75	21.23	-85.2	-88.8	2.8	1.56e+00	0	48	104	0	60	1048572
2026-01-18 03:10:29.51	353.49	21.24	-85.2	-88.8	2.6	1.56e+00	0	48	104	0	60	1048575
2026-01-18 03:10:30.52	353.23	21.25	-85.2	-88.8	2.7	1.56e+00	0	48	104	0	60	1048575
2026-01-18 03:10:31.53	352.97	21.26	-85.2	-88.8	2.7	1.56e+00	0	47	104	0	60	1048571
2026-01-18 03:10:32.53	352.71	21.27	-85.2	-88.8	2.6	1.56e+00	0	48	104	0	60	1048575
2026-01-18 03:10:33.54	352.45	21.28	-85.2	-88.8	2.7	1.56e+00	0	48	104	0	60	1048574
2026-01-18 03:10:34.55	352.18	21.29	-85.2	-88.8	2.8	1.56e+00	0	48	104	0	60	1048574
2026-01-18 03:10:35.56	351.92	21.29	-85.2	-88.8	2.7	1.56e+00	0	48	104	0	60	1048571
2026-01-18 03:10:36.55	351.67	21.30	-85.2	-88.8	2.7	1.56e+00	0	48	104	0	60	1048575
2026-01-18 03:10:37.56	351.40	21.30	-85.2	-88.8	2.8	1.56e+00	0	48	104	0	60	1048569
2026-01-18 03:10:38.57	351.14	21.31	-85.2	-88.8	2.7	1.56e+00	0	48	104	0	60	1048575
2026-01-18 03:10:39.57	350.88	21.31	-85.2	-88.8	2.9	1.56e+00	0	48	104	0	60	1048575
2026-01-18 03:10:40.58	350.62	21.32	-85.2	-88.8	2.6	1.56e+00	0	48	104	0	60	1048573
2026-01-18 03:10:41.58	350.36	21.32	-85.2	-88.8	2.8	1.56e+00	0	48	104	0	60	1048567
2026-01-18 03:10:42.59	350.10	21.32	-85.2	-88.8	2.7	1.56e+00	0	48	104	0	60	1048574
2026-01-18 03:10:43.60	349.84	21.32	-85.2	-88.8	2.6	1.56e+00	0	48	104	0	60	1048575
2026-01-18 03:10:44.61	349.57	21.32	-85.2	-88.8	2.7	1.56e+00	0	48	104	0	60	1048574
2026-01-18 03:10:45.61	349.31	21.32	-85.2	-88.8	2.6	1.56e+00	0	48	104	0	60	1048568
2026-01-18 03:10:46.62	349.05	21.32	-85.2	-88.8	2.6	1.56e+00	0	48	104	0	60	1048575
2026-01-18 03:10:47.63	348.79	21.32	-85.2	-88.8	2.7	1.56e+00	0	47	104	0	60	1048574
2026-01-18 03:10:48.64	348.53	21.32	-85.2	-88.8	2.9	1.56e+00	0	48	104	0	60	1048575
2026-01-18 03:10:49.64	348.27	21.32	-85.2	-88.8	2.7	1.56e+00	0	47	104	0	60	1048575
2026-01-18 03:10:50.65	348.01	21.31	-85.2	-88.8	2.4	1.56e+00	0	48	104	0	60	1048574
2026-01-18 03:10:51.66	347.74	21.31	-85.2	-88.8	2.7	1.56e+00	0	47	104	0	60	1048575
2026-01-18 03:10:52.67	347.48	21.31	-84.3	-88.8	2.7	1.56e+00	0	48	104	0	60	1048575
2026-01-18 03:10:53.67	347.22	21.30	-85.2	-88.8	2.8	1.56e+00	0	48	104	0	60	1048574
2026-01-18 03:10:54.67	346.96	21.29	-85.2	-88.8	2.8	1.56e+00	0	48	104	0	60	1048574
2026-01-18 03:10:55.68	346.70	21.29	-85.2	-88.8	2.7	1.56e+00	0	48	104	0	60	1048575
2026-01-18 03:10:56.68	346.44	21.28	-85.2	-88.8	2.9	1.56e+00	0	48	104	0	60	1048572
2026-01-18 03:10:57.69	346.18	21.27	-85.2	-88.8	2.6	1.56e+00	0	47	104	0	60	1048573
2026-01-18 03:10:58.70	345.92	21.27	-83.9	-88.8	2.6	1.56e+00	0	47	104	0	60	1048575
2026-01-18 03:10:59.70	345.66	21.26	-85.2	-88.8	2.7	1.56e+00	0	48	104	0	60	1048575
2026-01-18 03:11:00.71	345.40	21.25	-85.2	-88.8	2.7	1.56e+00	0	48	104	0	60	1048575
2026-01-18 03:11:01.72	345.14	21.24	-85.2	-88.8	2.5	1.56e+00	0	47	104	0	60	1048573
2026-01-18 03:11:02.73	344.88	21.23	-85.2	-88.8	2.7	1.56e+00	0	48	104	0	60	1048575
2026-01-18 03:11:03.73	344.62	21.22	-85.2	-88.8	2.6	1.56e+00	0	48	104	0	60	1048571
2026-01-18 03:11:04.74	344.36	21.20	-85.2	-88.8	2.7	1.56e+00	0	48	104	0	60	1048575
2026-01-18 03:11:05.75	344.10	21.19	-85.2	-88.8	2.7	1.56e+00	0	48	104	0	60	1048574
2026-01-18 03:11:06.75	343.84	21.18	-85.2	-88.8	3.0	1.56e+00	0	48	104	0	60	1048575
2026-01-18 03:11:07.76	343.58	21.17	-85.2	-88.8	2.5	1.56e+00	0	47	104	0	60	1048575
2026-01-18 03:11:08.76	343.33	21.15	-85.2	-88.8	2.8	1.56e+00	0	48	104	0	60	1048573
2026-01-18 03:11:09.77	343.07	21.14	-85.2	-88.8	2.8	1.56e+00	0	48	104	0	60	1048574
2026-01-18 03:11:10.77	342.81	21.12	-85.2	-88.8	2.5	1.56e+00	0	48	104	0	60	1048575
2026-01-18 03:11:11.78	342.55	21.10	-85.2	-88.8	2.5	1.56e+00	0	48	104	0	60	1048570
2026-01-18 03:11:12.78	342.30	21.09	-85.2	-88.8	2.5	1.56e+00	0	48	104	0	60	1048574
2026-01-18 03:11:13.79	342.04	21.07	-85.2	-88.8	2.8	1.56e+00	0	48	104	0	60	1048574
2026-01-18 03:11:14.80	341.78	21.05	-85.2	-88.8	2.8	1.56e+00	0	48	104	0	60	1048572
2026-01-18 03:11:15.81	341.52	21.03	-85.2	-88.8	2.7	1.56e+00	0	48	104	0	60	1048573
2026-01-18 03:11:16.82	341.27	21.01	-85.2	-88.8	2.6	1.56e+00	0	48	104	0	60	1048573
2026-01-18 03:11:17.82	341.01	21.00	-85.2	-88.8	2.7	1.56e+00	0	48	104	0	60	1048575
2026-01-18 03:11:18.83	340.76	20.97	-85.2	-88.8	2.7	1.56e+00	0	48	104	0	60	1048574
2026-01-18 03:11:19.83	340.50	20.95	-85.2	-88.8	2.7	1.56e+00	0	48	104	0	60	1048574
2026-01-18 03:11:20.84	340.25	20.93	-85.2	-88.8	2.7	1.56e+00	0	48	104	0	60	1048575
2026-01-18 03:11:21.85	339.99	20.91	-85.2	-88.8	2.7	1.56e+00	0	48	104	0	60	1048575
2026-01-18 03:11:22.86	339.74	20.89	-85.2	-88.8	2.6	1.56e+00	0	48	104	0	60	1048575
2026-01-18 03:11:23.87	339.48	20.86	-85.2	-88.8	2.7	1.56e+00	0	48	104	0	60	1048575
2026-01-18 03:11:24.87	339.23	20.84	-85.2	-88.8	2.7	1.56e+00	0	48	104	0	60	1048574
2026-01-18 03:11:25.88	338.98	20.82	-85.2	-88.8	2.9	1.56e+00	0	48	104	0	60	1048574
2026-01-18 03:11:26.89	338.72	20.79	-84.7	-88.8	3.0	1.56e+00	0	48	104	0	60	1048569
2026-01-18 03:11:27.89	338.47	20.77	-85.2	-88.8	2.7	1.56e+00	0	48	104	0	60	1048575
2026-01-18 03:11:28.90	338.22	20.74	-84.3	-88.8	2.8	1.56e+00	0	48	104	0	60	1048574
2026-01-18 03:11:29.91	337.97	20.71	-85.2	-88.8	2.8	1.56e+00	0	48	104	0	60	1048574
2026-01-18 03:11:30.92	337.72	20.69	-85.2	-88.8	2.9	1.56e+00	0	48	104	0	60	1048574
2026-01-18 03:11:31.92	337.47	20.66	-85.2	-88.8	2.6	1.56e+00	0	48	104	0	60	1048574
2026-01-18 03:11:32.93	337.22	20.63	-85.2	-88.8	2.6	1.56e+00	0	48	104	0	60	1048575
2026-01-18 03:11:33.94	336.97	20.60	-85.2	-88.8	2.6	1.56e+00	0	48	104	0	60	1048575
2026-01-18 03:11:34.95	336.72	20.57	-85.2	-88.8	2.6	1.56e+00	0	48	104	0	60	1048572
2026-01-18 03:11:35.96	336.47	20.54	-85.2	-88.8	2.7	1.56e+00	0	48	104	0	60	1048575
2026-01-18 03:11:36.97	336.22	20.51	-85.2	-88.8	2.6	1.56e+00	0	48	104	0	60	1048575
2026-01-18 03:11:37.97	335.97	20.48	-85.2	-88.8	2.8	1.56e+00	0	48	104	0	60	1048575
2026-01-18 03:11:38.98	335.72	20.45	-85.2	-88.8	2.8	1.56e+00	0	48	104	0	60	1048575
2026-01-18 03:11:39.99	335.48	20.42	-85.2	-88.8	2.8	1.56e+00	0	48	104	0	60	1048572
2026-01-18 03:11:40.99	335.23	20.38	-85.2	-88.8	2.8	1.56e+00	0	48	104	0	60	1048574
2026-01-18 03:11:42.00	334.98	20.35	-85.2	-88.8	2.7	1.56e+00	0	48	104	0	60	1048575
2026-01-18 03:11:43.00	334.74	20.32	-85.2	-88.8	2.6	1.56e+00	0	48	104	0	60	1048567
2026-01-18 03:11:44.01	334.50	20.28	-85.2	-88.8	2.8	1.56e+00	0	48	104	0	60	1048570
2026-01-18 03:11:45.01	334.25	20.25	-85.2	-88.8	2.7	1.56e+00	0	48	104	0	60	1048575
2026-01-18 03:11:46.02	334.01	20.21	-85.2	-88.8	2.8	1.56e+00	0	48	104	0	60	1048575
2026-01-18 03:11:47.02	333.77	20.18	-85.2	-88.8	2.7	1.56e+00	0	48	104	0	60	1048575
2026-01-18 03:11:48.03	333.53	20.14	-85.2	-88.8	2.6	1.56e+00	0	48	104	0	60	1048571
2026-01-18 03:11:49.03	333.29	20.11	-85.2	-88.8	2.4	1.56e+00	0	48	104	0	60	1048575
2026-01-18 03:11:50.04	333.04	20.07	-85.2	-88.8	2.8	1.56e+00	0	48	104	0	60	1048574
2026-01-18 03:11:51.04	332.80	20.03	-85.2	-88.8	2.7	1.56e+00	0	48	104	0	60	1048574
2026-01-18 03:11:52.05	332.56	19.99	-85.2	-88.8	2.7	1.56e+00	0	48	104	0	60	1048575
2026-01-18 03:11:53.05	332.33	19.96	-85.2	-88.8	2.6	1.56e+00	0	48	104	0	60	1048568
2026-01-18 03:11:54.06	332.09	19.92	-85.2	-88.8	2.8	1.56e+00	0	48	104	0	60	1048575
2026-01-18 03:11:55.07	331.85	19.88	-85.2	-88.8	2.6	1.56e+00	0	48	104	0	60	1048569
2026-01-18 03:11:56.07	331.61	19.84	-85.2	-88.8	2.9	1.56e+00	0	48	104	0	60	1048575
2026-01-18 03:11:57.08	331.37	19.80	-85.2	-88.8	2.8	1.56e+00	0	48	104	0	60	1048575
2026-01-18 03:11:58.09	331.14	19.76	-85.2	-88.8	2.8	1.56e+00	0	48	104	0	60	1048573
2026-01-18 03:11:59.09	330.90	19.72	-85.2	-88.8	2.6	1.56e+00	0	48	104	0	60	1048568
2026-01-18 03:12:00.09	330.67	19.67	-85.2	-88.8	2.5	1.56e+00	0	48	104	0	60	1048573
2026-01-18 03:12:01.10	330.43	19.63	-85.2	-88.8	2.8	1.56e+00	0	48	104	0	60	1048567
2026-01-18 03:12:02.10	330.20	19.59	-85.2	-88.8	2.6	1.56e+00	0	48	104	0	60	1048575
2026-01-18 03:12:03.11	329.97	19.55	-85.2	-88.8	2.7	1.56e+00	0	48	104	0	60	1048571
2026-01-18 03:12:04.12	329.74	19.50	-84.7	-88.8	2.8	1.56e+00	0	48	104	0	60	1048574
2026-01-18 03:12:05.12	329.51	19.46	-85.2	-88.8	2.7	1.56e+00	0	48	104	0	60	1048571
2026-01-18 03:12:06.13	329.27	19.42	-85.2	-88.8	2.7	1.56e+00	0	48	104	0	60	1048566
2026-01-18 03:12:07.14	329.04	19.37	-85.2	-88.8	2.6	1.56e+00	0	48	104	0	60	1048575
2026-01-18 03:12:08.15	328.81	19.33	-85.2	-88.8	2.7	1.56e+00	0	48	104	0	60	1048565
2026-01-18 03:12:09.15	328.59	19.28	-85.2	-88.8	2.8	1.56e+00	0	48	104	0	60	1048575
2026-01-18 03:12:10.16	328.36	19.23	-85.2	-88.8	2.9	1.56e+00	0	48	104	0	60	1048573
2026-01-18 03:12:11.17	328.13	19.19	-85.2	-88.8	2.8	1.56e+00	0	48	104	0	60	1048572
2026-01-18 03:12:12.17	327.90	19.14	-85.2	-88.8	2.7	1.56e+00	0	48	104	0	60	1048570
2026-01-18 03:12:13.18	327.68	19.10	-85.2	-88.8	2.7	1.56e+00	0	48	104	0	60	1048575
2026-01-18 03:12:14.19	327.45	19.05	-84.7	-88.8	2.6	1.56e+00	0	48	104	0	60	1048574
2026-01-18 03:12:15.20	327.22	19.00	-85.2	-88.8	2.8	1.56e+00	0	48	104	0	60	1048572
2026-01-18 03:12:16.20	327.00	18.95	-85.2	-88.8	2.6	1.56e+00	0	48	104	0	60	1048575
2026-01-18 03:12:17.21	326.78	18.90	-85.2	-88.8	2.8	1.56e+00	0	48	104	0	60	1048574
2026-01-18 03:12:18.21	326.56	18.86	-85.2	-88.8	2.6	1.56e+00	0	48	104	0	60	1048575
2026-01-18 03:12:19.22	326.33	18.81	-84.7	-88.8	2.9	1.56e+00	0	48	104	0	60	1048574
2026-01-18 03:12:20.23	326.11	18.76	-85.2	-88.8	2.4	1.56e+00	0	48	104	0	60	1048575
2026-01-18 03:12:21.23	325.89	18.71	-85.2	-88.8	2.8	1.56e+00	0	48	104	0	60	1048575
2026-01-18 03:12:22.24	325.67	18.66	-85.2	-88.8	2.8	1.56e+00	0	48	104	0	60	1048575
2026-01-18 03:12:23.25	325.45	18.61	-85.2	-88.8	2.9	1.56e+00	0	48	104	0	60	1048575
2026-01-18 03:12:24.26	325.23	18.56	-85.2	-88.8	2.6	1.56e+00	0	48	104	0	60	1048574
2026-01-18 03:12:25.26	325.02	18.50	-85.2	-88.8	2.6	1.56e+00	0	48	104	0	60	1048572
2026-01-18 03:12:26.27	324.80	18.45	-85.2	-88.8	2.8	1.56e+00	0	48	104	0	60	1048572
2026-01-18 03:12:27.28	324.58	18.40	-85.2	-88.8	2.8	1.56e+00	0	48	104	0	60	1048574
2026-01-18 03:12:28.29	324.37	18.35	-85.2	-88.8	2.6	1.56e+00	0	48	104	0	60	1048573
2026-01-18 03:12:29.29	324.15	18.30	-85.2	-88.8	2.6	1.56e+00	0	48	104	0	60	1048566
2026-01-18 03:12:30.30	323.94	18.24	-85.2	-88.8	2.6	1.56e+00	0	48	104	0	60	1048575
2026-01-18 03:12:31.31	323.73	18.19	-85.2	-88.8	2.5	1.56e+00	0	47	104	0	60	1048575
2026-01-18 03:12:32.32	323.51	18.14	-83.9	-88.8	2.9	1.56e+00	0	48	104	0	60	1048573
2026-01-18 03:12:33.32	323.30	18.08	-85.2	-88.8	2.7	1.56e+00	0	48	104	0	60	1048574
2026-01-18 03:12:34.33	323.09	18.03	-85.2	-88.8	2.7	1.56e+00	0	48	104	0	60	1048575
2026-01-18 03:12:35.33	322.88	17.98	-85.2	-88.8	2.5	1.56e+00	0	48	104	0	60	1048575
2026-01-18 03:12:36.34	322.67	17.92	-85.2	-88.8	2.7	1.56e+00	0	48	104	0	60	1048575
2026-01-18 03:12:37.35	322.46	17.87	-85.2	-88.8	2.6	1.56e+00	0	48	104	0	60	1048575
2026-01-18 03:12:38.35	322.26	17.81	-85.2	-88.8	2.7	1.56e+00	0	48	104	0	60	1048571
2026-01-18 03:12:39.36	322.05	17.76	-85.2	-88.8	2.8	1.56e+00	0	48	104	0	60	1048566
2026-01-18 03:12:40.37	321.84	17.70	-85.2	-88.8	2.6	1.56e+00	0	48	104	0	60	1048574
2026-01-18 03:12:41.38	321.64	17.65	-85.2	-88.8	2.8	1.56e+00	0	48	104	0	60	1048575
2026-01-18 03:12:42.39	321.43	17.59	-85.2	-88.8	2.7	1.56e+00	0	48	104	0	60	1048575
2026-01-18 03:12:43.40	321.23	17.53	-85.2	-88.8	2.8	1.56e+00	0	48	104	0	60	1048571
2026-01-18 03:12:44.40	321.02	17.48	-85.2	-88.8	2.7	1.56e+00	0	48	104	0	60	1048571
2026-01-18 03:12:45.41	320.82	17.42	-85.2	-88.8	2.9	1.56e+00	0	48	104	0	60	1048575
2026-01-18 03:12:46.42	320.62	17.36	-85.2	-88.8	2.8	1.56e+00	0	48	104	0	60	1048573
2026-01-18 03:12:47.43	320.42	17.31	-85.2	-88.8	2.6	1.56e+00	0	48	104	0	60	1048571
2026-01-18 03:12:48.43	320.22	17.25	-83.5	-88.8	2.5	1.56e+00	0	48	104	0	60	1048575
2026-01-18 03:12:49.44	320.02	17.19	-85.2	-88.8	2.6	1.56e+00	0	48	104	0	60	1048575
2026-01-18 03:12:50.45	319.82	17.13	-85.2	-88.8	2.8	1.56e+00	0	48	104	0	60	1048574
2026-01-18 03:12:51.46	319.62	17.07	-85.2	-88.8	2.9	1.56e+00	0	48	104	0	60	1048575
2026-01-18 03:12:52.46	319.43	17.02	-85.2	-88.8	2.7	1.56e+00	0	47	104	0	60	1048575
2026-01-18 03:12:53.47	319.23	16.96	-84.3	-88.8	2.8	1.56e+00	0	48	104	0	60	1048575
2026-01-18 03:12:54.47	319.03	16.90	-85.2	-88.8	2.7	1.56e+00	0	48	104	0	60	1048575
2026-01-18 03:12:55.47	318.84	16.84	-85.2	-88.8	2.4	1.56e+00	0	48	104	0	60	1048564
2026-01-18 03:12:56.48	318.65	16.78	-84.7	-88.8	2.7	1.56e+00	0	48	104	0	60	1048573
2026-01-18 03:12:57.48	318.45	16.72	-85.2	-88.8	2.9	1.56e+00	0	48	104	0	60	1048573
2026-01-18 03:12:58.48	318.26	16.66	-85.2	-88.8	2.6	1.56e+00	0	48	104	0	60	1048574
2026-01-18 03:12:59.49	318.07	16.60	-85.2	-88.8	2.5	1.56e+00	0	47	104	0	60	1048575
2026-01-18 03:13:00.49	317.88	16.54	-85.2	-88.8	2.6	1.56e+00	0	48	104	0	60	1048571
2026-01-18 03:13:01.50	317.69	16.48	-85.2	-88.8	2.6	1.56e+00	0	48	104	0	60	1048575
2026-01-18 03:13:02.51	317.50	16.42	-85.2	-88.8	2.8	1.56e+00	0	48	104	0	60	1048571
2026-01-18 03:13:03.51	317.31	16.36	-84.3	-88.8	2.9	1.56e+00	0	48	104	0	60	1048575
2026-01-18 03:13:04.52	317.13	16.30	-85.2	-88.8	2.6	1.56e+00	0	48	104	0	60	1048574
2026-01-18 03:13:05.52	316.94	16.24	-85.2	-88.8	2.8	1.56e+00	0	48	104	0	60	1048572
2026-01-18 03:13:06.53	316.75	16.18	-85.2	-88.8	2.6	1.56e+00	0	48	104	0	60	1048575
2026-01-18 03:13:07.53	316.57	16.12	-85.2	-88.8	2.7	1.56e+00	0	48	104	0	60	1048575
2026-01-18 03:13:08.53	316.38	16.06	-84.7	-88.8	2.8	1.56e+00	0	48	104	0	60	1048574
2026-01-18 03:13:09.54	316.20	16.00	-85.2	-88.8	2.7	1.56e+00	0	48	104	0	60	1048575
2026-01-18 03:13:10.55	316.02	15.94	-85.2	-88.8	2.8	1.56e+00	0	48	104	0	60	1048572
2026-01-18 03:13:11.54	315.84	15.88	-85.2	-88.8	2.7	1.56e+00	0	48	104	0	60	1048575
2026-01-18 03:13:12.55	315.65	15.81	-85.2	-88.8	2.7	1.56e+00	0	48	104	0	60	1048572
2026-01-18 03:13:13.56	315.47	15.75	-85.2	-88.8	2.6	1.56e+00	0	48	104	0	60	1048569
2026-01-18 03:13:14.57	315.29	15.69	-85.2	-88.8	2.8	1.56e+00	0	48	104	0	60	1048574
2026-01-18 03:13:15.57	315.11	15.63	-85.2	-88.8	2.7	1.56e+00	0	48	104	0	60	1048574
2026-01-18 03:13:16.58	314.93	15.57	-85.2	-88.8	2.6	1.56e+00	0	48	104	0	60	1048574
2026-01-18 03:13:17.59	314.76	15.50	-85.2	-88.8	2.8	1.56e+00	0	48	104	0	60	1048575
2026-01-18 03:13:18.60	314.58	15.44	-83.9	-88.8	2.7	1.56e+00	0	48	104	0	60	1048574
2026-01-18 03:13:19.61	314.40	15.38	-85.2	-88.8	2.7	1.56e+00	0	48	104	0	60	1048575
2026-01-18 03:13:20.62	314.23	15.31	-85.2	-88.8	2.7	1.56e+00	0	48	104	0	60	1048574
2026-01-18 03:13:21.62	314.05	15.25	-85.2	-88.8	2.7	1.56e+00	0	48	104	0	60	1048575
2026-01-18 03:13:22.63	313.88	15.19	-85.2	-88.8	2.6	1.56e+00	0	48	104	0	60	1048575
2026-01-18 03:13:23.64	313.70	15.13	-85.2	-88.8	2.6	1.56e+00	0	48	104	0	60	1048575
2026-01-18 03:13:24.63	313.53	15.06	-85.2	-88.8	2.8	1.56e+00	0	48	104	0	60	1048574
2026-01-18 03:13:25.63	313.36	15.00	-85.2	-88.8	2.8	1.56e+00	0	48	104	0	60	1048571
2026-01-18 03:13:26.64	313.19	14.94	-85.2	-88.8	2.7	1.56e+00	0	48	104	0	60	1048575
2026-01-18 03:13:27.64	313.02	14.87	-85.2	-88.8	2.8	1.56e+00	0	48	104	0	60	1048573
2026-01-18 03:13:28.65	312.85	14.81	-85.2	-88.8	2.7	1.56e+00	0	48	104	0	60	1048575
2026-01-18 03:13:29.65	312.68	14.75	-85.2	-88.8	2.7	1.56e+00	0	48	104	0	60	1048575
2026-01-18 03:13:30.66	312.51	14.68	-85.2	-88.8	2.8	1.56e+00	0	48	104	0	60	1048572
2026-01-18 03:13:31.67	312.35	14.62	-85.2	-88.8	2.6	1.56e+00	0	48	104	0	60	1048574
2026-01-18 03:13:32.68	312.18	14.56	-84.3	-88.8	2.7	1.56e+00	0	48	104	0	60	1048575
2026-01-18 03:13:33.69	312.01	14.49	-85.2	-88.8	2.6	1.56e+00	0	48	104	0	60	1048573
2026-01-18 03:13:34.69	311.85	14.43	-85.2	-88.8	2.8	1.56e+00	0	48	104	0	60	1048574
2026-01-18 03:13:35.70	311.68	14.36	-85.2	-88.8	2.7	1.56e+00	0	48	104	0	60	1048572
2026-01-18 03:13:36.71	311.52	14.30	-85.2	-88.8	2.5	1.56e+00	0	48	104	0	60	1048575
2026-01-18 03:13:37.72	311.35	14.23	-85.2	-88.8	2.7	1.56e+00	0	48	104	0	60	1048575
2026-01-18 03:13:38.72	311.19	14.17	-85.2	-88.8	2.8	1.56e+00	0	48	104	0	60	1048572
2026-01-18 03:13:39.73	311.03	14.11	-85.2	-88.8	2.6	1.56e+00	0	48	104	0	60	1048574
2026-01-18 03:13:40.73	310.87	14.04	-85.2	-88.8	3.0	1.56e+00	0	48	104	0	60	1048572
2026-01-18 03:13:41.74	310.71	13.98	-85.2	-88.8	2.8	1.56e+00	0	48	104	0	60	1048572
2026-01-18 03:13:42.75	310.55	13.91	-85.2	-88.8	2.8	1.56e+00	0	48	104	0	60	1048571
2026-01-18 03:13:43.76	310.39	13.85	-85.2	-88.8	2.8	1.56e+00	0	48	104	0	60	1048575
2026-01-18 03:13:44.76	310.23	13.78	-85.2	-88.8	2.8	1.56e+00	0	48	104	0	60	1048572
2026-01-18 03:13:45.76	310.08	13.72	-85.2	-88.8	2.5	1.56e+00	0	48	104	0	60	1048573
2026-01-18 03:13:46.77	309.92	13.65	-85.2	-88.8	2.9	1.56e+00	0	48	104	0	60	1048572
2026-01-18 03:13:47.78	309.76	13.59	-85.2	-88.8	2.9	1.56e+00	0	48	104	0	60	1048574
2026-01-18 03:13:48.78	309.61	13.52	-85.2	-88.8	2.7	1.56e+00	0	48	104	0	60	1048572
2026-01-18 03:13:49.79	309.45	13.46	-85.2	-88.8	2.7	1.56e+00	0	48	104	0	60	1048569
2026-01-18 03:13:50.80	309.30	13.39	-85.2	-88.8	2.8	1.56e+00	0	48	104	0	60	1048574
2026-01-18 03:13:51.81	309.14	13.33	-85.2	-88.8	2.6	1.56e+00	0	48	104	0	60	1048569
2026-01-18 03:13:52.82	308.99	13.26	-85.2	-88.8	2.6	1.56e+00	0	48	104	0	60	1048575
2026-01-18 03:13:53.82	308.84	13.20	-85.2	-88.8	2.6	1.56e+00	0	48	104	0	60	1048575
2026-01-18 03:13:54.83	308.69	13.13	-85.2	-88.8	2.8	1.56e+00	0	48	104	0	60	1048575
2026-01-18 03:13:55.83	308.54	13.07	-85.2	-88.8	2.7	1.56e+00	0	48	104	0	60	1048572
2026-01-18 03:13:56.83	308.39	13.01	-85.2	-88.8	2.8	1.56e+00	0	48	104	0	60	1048575
2026-01-18 03:13:57.83	308.24	12.94	-85.2	-88.8	2.7	1.56e+00	0	48	104	0	60	1048574
2026-01-18 03:13:58.84	308.09	12.88	-85.2	-88.8	2.9	1.56e+00	0	48	104	0	60	1048574
2026-01-18 03:13:59.83	307.95	12.81	-85.2	-88.8	2.6	1.56e+00	0	48	104	0	60	1048568
2026-01-18 03:14:00.84	307.80	12.75	-85.2	-88.8	2.9	1.56e+00	0	48	104	0	60	1048575
2026-01-18 03:14:01.85	307.65	12.68	-85.2	-88.8	2.5	1.56e+00	0	48	104	0	60	1048575
2026-01-18 03:14:02.85	307.51	12.62	-84.7	-88.8	2.9	1.56e+00	0	47	104	0	60	1048574
2026-01-18 03:14:03.86	307.36	12.55	-84.3	-88.8	2.7	1.56e+00	0	47	104	0	60	1048573
2026-01-18 03:14:04.86	307.22	12.49	-85.2	-88.8	2.6	1.56e+00	0	47	104	0	60	1048574
2026-01-18 03:14:05.87	307.07	12.42	-85.2	-88.8	2.7	1.56e+00	0	47	104	0	60	1048575
2026-01-18 03:14:06.88	306.93	12.35	-85.2	-88.8	2.7	1.56e+00	0	48	104	0	60	1048574
2026-01-18 03:14:07.88	306.79	12.29	-85.2	-88.8	2.8	1.56e+00	0	48	104	0	60	1048575
2026-01-18 03:14:08.89	306.64	12.22	-85.2	-88.8	2.6	1.56e+00	0	48	104	0	60	1048574
2026-01-18 03:14:09.90	306.50	12.16	-85.2	-88.8	2.7	1.56e+00	0	48	104	0	60	1048570
2026-01-18 03:14:10.91	306.36	12.09	-85.2	-88.8	2.5	1.56e+00	0	48	104	0	60	1048574
2026-01-18 03:14:11.91	306.22	12.03	-85.2	-88.8	2.8	1.56e+00	0	48	104	0	60	1048570
2026-01-18 03:14:12.91	306.08	11.96	-85.2	-88.8	2.6	1.56e+00	0	48	104	0	60	1048575
2026-01-18 03:14:13.92	305.94	11.90	-85.2	-88.8	2.7	1.56e+00	0	48	104	0	60	1048572
2026-01-18 03:14:14.92	305.81	11.83	-85.2	-88.8	2.6	1.56e+00	0	48	104	0	60	1048575
2026-01-18 03:14:15.93	305.67	11.77	-85.2	-88.8	2.5	1.56e+00	0	48	104	0	60	1048574
2026-01-18 03:14:16.93	305.53	11.70	-85.2	-88.8	2.9	1.56e+00	0	48	104	0	60	1048575
2026-01-18 03:14:17.94	305.39	11.64	-85.2	-88.8	2.7	1.56e+00	0	48	104	0	60	1048575
2026-01-18 03:14:18.94	305.26	11.57	-85.2	-88.8	2.8	1.56e+00	0	48	104	0	60	1048574
2026-01-18 03:14:19.95	305.12	11.51	-85.2	-88.8	2.7	1.56e+00	0	48	104	0	60	1048575
2026-01-18 03:14:20.95	304.99	11.44	-85.2	-88.8	2.9	1.56e+00	0	48	104	0	60	1048573
2026-01-18 03:14:21.96	304.86	11.38	-85.2	-88.8	2.6	1.56e+00	0	48	104	0	60	1048572
2026-01-18 03:14:22.97	304.72	11.31	-85.2	-88.8	2.8	1.56e+00	0	48	104	0	60	1048575
2026-01-18 03:14:23.98	304.59	11.25	-85.2	-88.8	2.6	1.56e+00	0	48	104	0	60	1048574
2026-01-18 03:14:24.99	304.46	11.18	-85.2	-88.8	2.9	1.56e+00	0	48	104	0	60	1048573
2026-01-18 03:14:26.00	304.32	11.12	-85.2	-88.8	2.6	1.56e+00	0	48	104	0	60	1048572
2026-01-18 03:14:27.00	304.19	11.05	-85.2	-88.8	2.7	1.56e+00	0	48	104	0	60	1048569
2026-01-18 03:14:28.01	304.06	10.99	-85.2	-88.8	2.7	1.56e+00	0	48	104	0	60	1048575
2026-01-18 03:14:29.01	303.93	10.92	-85.2	-88.8	2.9	1.56e+00	0	48	104	0	60	1048575
2026-01-18 03:14:30.02	303.80	10.86	-85.2	-88.8	2.7	1.56e+00	0	48	104	0	60	1048575
2026-01-18 03:14:31.02	303.68	10.79	-85.2	-88.8	2.7	1.56e+00	0	48	104	0	60	1048574
2026-01-18 03:14:32.03	303.55	10.73	-85.2	-88.8	2.6	1.56e+00	0	48	104	0	60	1048569
2026-01-18 03:14:33.04	303.42	10.66	-85.2	-88.8	2.5	1.56e+00	0	48	104	0	60	1048573
2026-01-18 03:14:34.05	303.29	10.60	-85.2	-88.8	2.7	1.56e+00	0	48	104	0	60	1048573
2026-01-18 03:14:35.06	303.17	10.53	-85.2	-88.8	2.7	1.56e+00	0	48	104	0	60	1048574
2026-01-18 03:14:36.07	303.04	10.47	-85.2	-88.8	2.8	1.56e+00	0	48	104	0	60	1048574
2026-01-18 03:14:37.07	302.92	10.40	-85.2	-88.8	2.7	1.56e+00	0	48	104	0	60	1048575
2026-01-18 03:14:38.08	302.79	10.34	-85.2	-88.8	2.7	1.56e+00	0	48	104	0	60	1048575
2026-01-18 03:14:39.08	302.67	10.28	-84.3	-88.8	2.6	1.56e+00	0	48	104	0	60	1048574
2026-01-18 03:14:40.09	302.54	10.21	-85.2	-88.8	2.7	1.56e+00	0	48	104	0	60	1048575
2026-01-18 03:14:41.10	302.42	10.15	-85.2	-88.8	2.7	1.56e+00	0	48	104	0	60	1048574
2026-01-18 03:14:42.11	302.30	10.08	-85.2	-88.8	2.7	1.56e+00	0	48	104	0	60	1048572
2026-01-18 03:14:43.12	302.17	10.02	-84.7	-88.8	2.7	1.56e+00	0	48	104	0	60	1048573
2026-01-18 03:14:44.12	302.05	9.95	-84.7	-88.8	2.6	1.56e+00	0	48	104	0	60	1048575
2026-01-18 03:14:45.13	301.93	9.89	-83.5	-88.8	2.4	1.56e+00	0	48	104	0	60	1048575
2026-01-18 03:14:46.13	301.81	9.82	-84.3	-88.8	2.6	1.56e+00	0	48	104	0	60	1048572
2026-01-18 03:14:47.14	301.69	9.76	-85.2	-88.8	2.7	1.56e+00	0	48	104	0	60	1048575
2026-01-18 03:14:48.15	301.57	9.70	-85.2	-88.8	2.7	1.56e+00	0	48	104	0	60	1048575
2026-01-18 03:14:49.16	301.45	9.63	-85.2	-88.8	2.9	1.56e+00	0	48	104	0	60	1048574
2026-01-18 03:14:50.16	301.34	9.57	-85.2	-88.8	2.8	1.56e+00	0	48	104	0	60	1048575
2026-01-18 03:14:51.17	301.22	9.50	-85.2	-88.8	2.5	1.56e+00	0	48	104	0	60	1048575
2026-01-18 03:14:52.18	301.10	9.44	-83.1	-88.8	2.7	1.56e+00	0	48	104	0	60	1048575
2026-01-18 03:14:53.19	300.98	9.37	-85.2	-88.8	2.8	1.56e+00	0	48	104	0	60	1048574
2026-01-18 03:14:54.19	300.87	9.31	-85.2	-88.8	2.6	1.56e+00	0	48	104	0	60	1048575
2026-01-18 03:14:55.20	300.75	9.25	-85.2	-88.8	2.7	1.56e+00	0	48	104	0	60	1048571
2026-01-18 03:14:56.21	300.64	9.18	-85.2	-88.8	2.6	1.56e+00	0	48	104	0	60	1048574
2026-01-18 03:14:57.22	300.52	9.12	-85.2	-88.8	2.4	1.56e+00	0	48	104	0	60	1048575
2026-01-18 03:14:58.22	300.41	9.06	-85.2	-88.8	2.6	1.56e+00	0	48	104	0	60	1048575
2026-01-18 03:14:59.23	300.30	8.99	-85.2	-88.8	2.6	1.56e+00	0	48	104	0	60	1048575
2026-01-18 03:15:00.23	300.18	8.93	-85.2	-88.8	2.7	1.56e+00	0	48	104	0	60	1048575
2026-01-18 03:15:01.24	300.07	8.86	-83.9	-88.8	2.8	1.56e+00	0	48	104	0	60	1048575
2026-01-18 03:15:02.25	299.96	8.80	-85.2	-88.8	2.7	1.56e+00	0	48	104	0	60	1048574
2026-01-18 03:15:03.25	299.85	8.74	-85.2	-88.8	2.6	1.56e+00	0	48	104	0	60	1048574
2026-01-18 03:15:04.25	299.74	8.67	-85.2	-88.8	2.8	1.56e+00	0	48	104	0	60	1048575
2026-01-18 03:15:05.26	299.63	8.61	-85.2	-88.8	2.6	1.56e+00	0	48	104	0	60	1048572
2026-01-18 03:15:06.27	299.52	8.55	-83.1	-88.8	2.7	1.56e+00	0	48	104	0	60	1048575
2026-01-18 03:15:07.27	299.41	8.48	-85.2	-88.8	2.8	1.56e+00	0	48	104	0	60	1048573
2026-01-18 03:15:08.28	299.30	8.42	-85.2	-88.8	2.8	1.56e+00	0	48	104	0	60	1048573
2026-01-18 03:15:09.29	299.19	8.36	-85.2	-88.8	2.4	1.56e+00	0	48	104	0	60	1048574
2026-01-18 03:15:10.29	299.08	8.30	-85.2	-88.8	2.7	1.56e+00	0	48	104	0	60	1048573
2026-01-18 03:15:11.30	298.98	8.23	-85.2	-88.8	2.7	1.56e+00	0	48	104	0	60	1048575
2026-01-18 03:15:12.31	298.87	8.17	-85.2	-88.8	2.8	1.56e+00	0	48	104	0	60	1048575
2026-01-18 03:15:13.32	298.76	8.11	-83.1	-88.8	2.6	1.56e+00	0	48	104	0	60	1048575
2026-01-18 03:15:14.32	298.66	8.04	-85.2	-88.8	2.7	1.56e+00	0	48	104	0	60	1048573
2026-01-18 03:15:15.33	298.55	7.98	-85.2	-88.8	2.6	1.56e+00	0	48	104	0	60	1048575
2026-01-18 03:15:16.33	298.45	7.92	-83.1	-88.8	2.7	1.56e+00	0	48	104	0	60	1048575
2026-01-18 03:15:17.34	298.34	7.86	-85.2	-88.8	2.8	1.56e+00	0	48	104	0	60	1048575
2026-01-18 03:15:18.34	298.24	7.79	-85.2	-88.8	2.8	1.56e+00	0	48	104	0	60	1048574
2026-01-18 03:15:19.35	298.13	7.73	-85.2	-88.8	2.7	1.56e+00	0	48	104	0	60	1048575
2026-01-18 03:15:20.35	298.03	7.67	-85.2	-88.8	2.9	1.56e+00	0	48	104	0	60	1048573
2026-01-18 03:15:21.36	297.93	7.61	-83.1	-88.8	2.5	1.56e+00	0	48	104	0	60	1048573
2026-01-18 03:15:22.37	297.82	7.54	-85.2	-88.8	2.5	1.56e+00	0	48	104	0	60	1048574
2026-01-18 03:15:23.37	297.72	7.48	-83.1	-88.8	2.8	1.56e+00	0	48	104	0	60	1048564
2026-01-18 03:15:24.38	297.62	7.42	-85.2	-88.8	2.8	1.56e+00	0	48	104	0	60	1048571
2026-01-18 03:15:25.39	297.52	7.36	-85.2	-88.8	2.7	1.56e+00	0	48	104	0	60	1048574
2026-01-18 03:15:26.40	297.42	7.29	-85.2	-88.8	2.8	1.56e+00	0	48	104	0	60	1048572
2026-01-18 03:15:27.40	297.32	7.23	-85.2	-88.8	2.8	1.56e+00	0	48	104	0	60	1048569
2026-01-18 03:15:28.41	297.22	7.17	-85.2	-88.8	2.7	1.56e+00	0	48	104	0	60	1048575
2026-01-18 03:15:29.42	297.12	7.11	-85.2	-88.8	2.5	1.56e+00	0	48	104	0	60	1048574
2026-01-18 03:15:30.42	297.02	7.05	-85.2	-88.8	2.7	1.56e+00	0	48	104	0	60	1048575
2026-01-18 03:15:31.43	296.92	6.98	-85.2	-88.8	2.7	1.56e+00	0	48	104	0	60	1048575
2026-01-18 03:15:32.44	296.82	6.92	-85.2	-88.8	2.7	1.56e+00	0	48	104	0	60	1048575
2026-01-18 03:15:33.45	296.73	6.86	-83.1	-88.8	2.6	1.56e+00	0	48	104	0	60	1048575
2026-01-18 03:15:34.45	296.63	6.80	-85.2	-88.8	2.6	1.56e+00	0	48	104	0	60	1048575
2026-01-18 03:15:35.46	296.53	6.74	-85.2	-88.8	2.6	1.56e+00	0	48	104	0	60	1048573
2026-01-18 03:15:36.46	296.44	6.68	-85.2	-88.8	2.7	1.56e+00	0	48	104	0	60	1048574
2026-01-18 03:15:37.47	296.34	6.62	-85.2	-88.8	2.8	1.56e+00	0	48	104	0	60	1048575
2026-01-18 03:15:38.47	296.25	6.55	-84.7	-88.8	3.0	1.56e+00	0	48	104	0	60	1048572
2026-01-18 03:15:39.47	296.15	6.49	-85.2	-88.8	2.5	1.56e+00	0	48	104	0	60	1048575
2026-01-18 03:15:40.48	296.06	6.43	-85.2	-88.8	2.6	1.56e+00	0	48	104	0	60	1048575
2026-01-18 03:15:41.49	295.96	6.37	-85.2	-88.8	2.6	1.56e+00	0	48	104	0	60	1048575
2026-01-18 03:15:42.50	295.87	6.31	-85.2	-88.8	2.6	1.56e+00	0	48	104	0	60	1048573
2026-01-18 03:15:43.51	295.77	6.25	-85.2	-88.8	2.7	1.56e+00	0	48	104	0	60	1048575
2026-01-18 03:15:44.51	295.68	6.19	-85.2	-88.8	2.7	1.56e+00	0	48	104	0	60	1048573
2026-01-18 03:15:45.52	295.59	6.13	-85.2	-88.8	2.6	1.56e+00	0	48	104	0	60	1048575
2026-01-18 03:15:46.53	295.50	6.07	-85.2	-88.8	2.7	1.56e+00	0	48	104	0	60	1048575
2026-01-18 03:15:47.54	295.40	6.01	-85.2	-88.8	2.9	1.56e+00	0	48	104	0	60	1048575
2026-01-18 03:15:48.54	295.31	5.95	-83.9	-88.8	2.8	1.56e+00	0	48	104	0	60	1048566
2026-01-18 03:15:49.55	295.22	5.89	-85.2	-88.8	2.5	1.56e+00	0	48	104	0	60	1048568
2026-01-18 03:15:50.55	295.13	5.83	-85.2	-88.8	2.8	1.56e+00	0	48	104	0	60	1048571
2026-01-18 03:15:51.56	295.04	5.76	-85.2	-88.8	2.6	1.56e+00	0	48	104	0	60	1048568
2026-01-18 03:15:52.56	294.95	5.70	-85.2	-88.8	2.7	1.56e+00	0	48	104	0	60	1048575
2026-01-18 03:15:53.57	294.86	5.64	-85.2	-88.8	2.6	1.56e+00	0	48	104	0	60	1048574
2026-01-18 03:15:54.58	294.77	5.58	-85.2	-88.8	2.9	1.56e+00	0	48	104	0	60	1048575
2026-01-18 03:15:55.58	294.68	5.52	-85.2	-88.8	2.6	1.56e+00	0	48	104	0	60	1048575
2026-01-18 03:15:56.59	294.60	5.46	-85.2	-88.8	2.6	1.56e+00	0	48	104	0	60	1048570
2026-01-18 03:15:57.60	294.51	5.40	-85.2	-88.8	2.8	1.56e+00	0	48	104	0	60	1048575
2026-01-18 03:15:58.60	294.42	5.34	-85.2	-88.8	2.7	1.56e+00	0	48	104	0	60	1048575
2026-01-18 03:15:59.61	294.33	5.28	-85.2	-88.8	2.8	1.56e+00	0	48	104	0	60	1048570
2026-01-18 03:16:00.61	294.25	5.22	-82.2	-88.8	2.7	1.56e+00	0	48	104	0	60	1048575
2026-01-18 03:16:01.62	294.16	5.17	-85.2	-88.8	2.8	1.56e+00	0	48	104	0	60	1048575
2026-01-18 03:16:02.63	294.07	5.11	-85.2	-88.8	2.5	1.56e+00	0	48	104	0	60	1048575
2026-01-18 03:16:03.63	293.99	5.05	-85.2	-88.8	2.6	1.56e+00	0	48	104	0	60	1048570
2026-01-18 03:16:04.65	293.90	4.99	-85.2	-88.8	2.6	1.56e+00	0	48	104	0	60	1048574
2026-01-18 03:16:05.65	293.82	4.93	-82.2	-88.8	2.6	1.56e+00	0	48	104	0	60	1048575
2026-01-18 03:16:06.66	293.73	4.87	-85.2	-88.8	2.8	1.56e+00	0	48	104	0	60	1048574
2026-01-18 03:16:07.67	293.65	4.81	-82.8	-88.8	2.7	1.56e+00	0	48	104	0	60	1048571
2026-01-18 03:16:08.67	293.56	4.75	-85.2	-88.8	2.5	1.56e+00	0	48	104	0	60	1048572
2026-01-18 03:16:09.68	293.48	4.69	-85.2	-88.8	2.8	1.56e+00	0	48	104	0	60	1048575
2026-01-18 03:16:10.69	293.40	4.63	-85.2	-88.8	2.7	1.56e+00	0	48	104	0	60	1048574
2026-01-18 03:16:11.70	293.31	4.57	-85.2	-88.8	2.7	1.56e+00	0	48	104	0	60	1048575
2026-01-18 03:16:12.70	293.23	4.51	-83.1	-88.8	2.8	1.56e+00	0	48	104	0	60	1048575
2026-01-18 03:16:13.70	293.15	4.45	-85.2	-88.8	2.8	1.56e+00	0	48	104	0	60	1048574
2026-01-18 03:16:14.71	293.07	4.40	-85.2	-88.8	2.6	1.56e+00	0	48	104	0	60	1048574
2026-01-18 03:16:15.72	292.99	4.34	-85.2	-88.8	2.9	1.56e+00	0	48	104	0	60	1048573
2026-01-18 03:16:16.72	292.91	4.28	-85.2	-88.8	2.8	1.56e+00	0	48	104	0	60	1048574
2026-01-18 03:16:17.73	292.82	4.22	-85.2	-88.8	2.7	1.56e+00	0	48	104	0	60	1048571
2026-01-18 03:16:18.74	292.74	4.16	-85.2	-88.8	2.6	1.56e+00	0	48	104	0	60	1048573
2026-01-18 03:16:19.74	292.66	4.10	-85.2	-88.8	2.6	1.56e+00	0	48	104	0	60	1048575
2026-01-18 03:16:20.75	292.58	4.05	-85.2	-88.8	2.8	1.56e+00	0	48	104	0	60	1048574
2026-01-18 03:16:21.76	292.50	3.99	-85.2	-88.8	2.8	1.56e+00	0	48	104	0	60	1048575
2026-01-18 03:16:22.77	292.42	3.93	-85.2	-88.8	2.7	1.56e+00	0	48	104	0	60	1048574
2026-01-18 03:16:23.77	292.35	3.87	-85.2	-88.8	2.8	1.56e+00	0	48	104	0	60	1048575
2026-01-18 03:16:24.78	292.27	3.81	-85.2	-88.8	2.9	1.56e+00	0	48	104	0	60	1048575
2026-01-18 03:16:25.79	292.19	3.75	-82.0	-88.8	2.8	1.56e+00	0	48	104	0	60	1048568
2026-01-18 03:16:26.79	292.11	3.70	-85.2	-88.8	2.9	1.56e+00	0	48	104	0	60	1048573
2026-01-18 03:16:27.79	292.03	3.64	-85.2	-88.8	2.6	1.56e+00	0	48	104	0	60	1048575
2026-01-18 03:16:28.80	291.96	3.58	-85.2	-88.8	2.7	1.56e+00	0	48	104	0	60	1048575
2026-01-18 03:16:29.80	291.88	3.52	-85.2	-88.8	2.8	1.56e+00	0	48	104	0	60	1048565
2026-01-18 03:16:30.81	291.80	3.47	-82.2	-88.8	2.6	1.56e+00	0	48	104	0	60	1048574
2026-01-18 03:16:31.82	291.73	3.41	-83.1	-88.8	2.9	1.56e+00	0	48	104	0	60	1048567
2026-01-18 03:16:32.82	291.65	3.35	-85.2	-88.8	2.8	1.56e+00	0	48	104	0	60	1048574
2026-01-18 03:16:33.83	291.57	3.29	-85.2	-88.8	2.7	1.56e+00	0	48	104	0	60	1048575
2026-01-18 03:16:34.84	291.50	3.24	-85.2	-88.8	2.7	1.56e+00	0	48	104	0	60	1048574
2026-01-18 03:16:35.84	291.42	3.18	-85.2	-88.8	2.5	1.56e+00	0	48	104	0	60	1048573
2026-01-18 03:16:36.85	291.35	3.12	-85.2	-88.8	2.5	1.56e+00	0	48	104	0	60	1048572
2026-01-18 03:16:37.86	291.27	3.07	-82.8	-88.8	2.8	1.56e+00	0	48	104	0	60	1048575
2026-01-18 03:16:38.87	291.20	3.01	-85.2	-88.8	2.7	1.56e+00	0	48	104	0	60	1048572
2026-01-18 03:16:39.88	291.13	2.95	-85.2	-88.8	2.8	1.56e+00	0	48	104	0	60	1048571
2026-01-18 03:16:40.89	291.05	2.89	-85.2	-88.8	3.1	1.56e+00	0	48	104	0	60	1048573
2026-01-18 03:16:41.89	290.98	2.84	-85.2	-88.8	2.7	1.56e+00	0	48	104	0	60	1048573
2026-01-18 03:16:42.90	290.91	2.78	-82.8	-88.8	2.7	1.56e+00	0	48	104	0	60	1048574
2026-01-18 03:16:43.91	290.83	2.72	-85.2	-88.8	2.8	1.56e+00	0	48	104	0	60	1048575
2026-01-18 03:16:44.91	290.76	2.67	-85.2	-88.8	2.6	1.56e+00	0	48	104	0	60	1048572
2026-01-18 03:16:45.92	290.69	2.61	-82.8	-88.8	2.9	1.56e+00	0	48	104	0	60	1048572
2026-01-18 03:16:46.93	290.62	2.55	-85.2	-88.8	2.7	1.56e+00	0	48	104	0	60	1048575
2026-01-18 03:16:47.93	290.55	2.50	-85.2	-88.8	2.7	1.56e+00	0	48	104	0	60	1048573
2026-01-18 03:16:48.93	290.47	2.44	-85.2	-88.8	2.8	1.56e+00	0	48	104	0	60	1048575
2026-01-18 03:16:49.94	290.40	2.39	-85.2	-88.8	2.6	1.56e+00	0	48	104	0	60	1048572
2026-01-18 03:16:50.95	290.33	2.33	-85.2	-88.8	2.7	1.56e+00	0	48	104	0	60	1048574
2026-01-18 03:16:51.96	290.26	2.27	-82.8	-88.8	2.7	1.56e+00	0	48	104	0	60	1048575
2026-01-18 03:16:52.97	290.19	2.22	-85.2	-88.8	2.7	1.56e+00	0	48	104	0	60	1048575
2026-01-18 03:16:53.97	290.12	2.16	-82.8	-88.8	2.7	1.56e+00	0	48	104	0	60	1048574
2026-01-18 03:16:54.98	290.05	2.11	-85.2	-88.8	2.7	1.56e+00	0	48	104	0	60	1048575
2026-01-18 03:16:55.99	289.98	2.05	-85.2	-88.8	2.7	1.56e+00	0	48	104	0	60	1048575
2026-01-18 03:16:56.99	289.91	1.99	-83.1	-88.8	2.6	1.56e+00	0	48	104	0	60	1048572
2026-01-18 03:16:58.00	289.84	1.94	-85.2	-88.8	2.7	1.56e+00	0	48	104	0	60	1048573
2026-01-18 03:16:59.01	289.78	1.88	-85.2	-88.8	2.7	1.56e+00	0	48	104	0	60	1048575
2026-01-18 03:17:00.01	289.71	1.83	-85.2	-88.8	2.7	1.56e+00	0	48	104	0	60	1048575
2026-01-18 03:17:01.01	289.64	1.77	-85.2	-88.8	2.7	1.56e+00	0	48	104	0	60	1048573
2026-01-18 03:17:02.02	289.57	1.72	-85.2	-88.8	2.7	1.56e+00	0	48	104	0	60	1048567
2026-01-18 03:17:03.03	289.50	1.66	-85.2	-88.8	2.7	1.56e+00	0	48	104	0	60	1048574
2026-01-18 03:17:04.04	289.44	1.61	-85.2	-88.8	2.5	1.56e+00	0	48	104	0	60	1048575
2026-01-18 03:17:05.05	289.37	1.55	-85.2	-88.8	2.8	1.56e+00	0	48	104	0	60	1048573
2026-01-18 03:17:06.05	289.30	1.50	-85.2	-88.8	2.6	1.56e+00	0	48	104	0	60	1048573
2026-01-18 03:17:07.06	289.24	1.44	-83.1	-88.8	2.6	1.56e+00	0	48	104	0	60	1048575
2026-01-18 03:17:08.07	289.17	1.39	-85.2	-88.8	2.6	1.56e+00	0	48	104	0	60	1048573
2026-01-18 03:17:09.08	289.10	1.33	-83.1	-88.8	2.7	1.56e+00	0	48	104	0	60	1048574
2026-01-18 03:17:10.09	289.04	1.28	-85.2	-88.8	2.7	1.56e+00	0	48	104	0	60	1048575
2026-01-18 03:17:11.09	288.97	1.22	-85.2	-88.8	2.7	1.56e+00	0	48	104	0	60	1048575
2026-01-18 03:17:12.10	288.91	1.17	-83.1	-88.8	2.9	1.56e+00	0	48	104	0	60	1048575
2026-01-18 03:17:13.11	288.84	1.11	-83.1	-88.8	2.6	1.56e+00	0	48	104	0	60	1048574
2026-01-18 03:17:14.12	288.78	1.06	-83.1	-88.8	2.7	1.56e+00	0	48	104	0	60	1048574
2026-01-18 03:17:15.12	288.71	1.00	-85.2	-88.8	2.6	1.56e+00	0	48	104	0	60	1048569
2026-01-18 03:17:16.13	288.65	0.95	-85.2	-88.8	2.7	1.56e+00	0	48	104	0	60	1048575
2026-01-18 03:17:17.13	288.59	0.89	-83.1	-88.8	2.8	1.56e+00	0	48	104	0	60	1048575
2026-01-18 03:17:18.14	288.52	0.84	-84.3	-88.8	2.7	1.55e+00	0	48	104	0	60	1048574
2026-01-18 03:17:19.14	288.46	0.79	-84.7	-88.8	2.8	1.56e+00	0	48	104	0	60	1048572
2026-01-18 03:17:20.15	288.40	0.73	-85.2	-88.8	2.4	1.56e+00	0	48	104	0	60	1048574
2026-01-18 03:17:21.15	288.33	0.68	-85.2	-88.8	2.9	1.56e+00	0	48	104	0	60	1048574
2026-01-18 03:17:22.16	288.27	0.62	-85.2	-88.8	2.8	1.56e+00	0	48	104	0	60	1048574
2026-01-18 03:17:23.17	288.21	0.57	-85.2	-88.8	2.5	1.56e+00	0	48	104	0	60	1048575
2026-01-18 03:17:24.17	288.15	0.52	-85.2	-88.8	2.6	1.56e+00	0	48	104	0	60	1048575
2026-01-18 03:17:25.18	288.08	0.46	-85.2	-88.8	2.8	1.56e+00	0	48	104	0	60	1048570
2026-01-18 03:17:26.19	288.02	0.41	-85.2	-88.8	2.8	1.56e+00	0	48	104	0	60	1048575
2026-01-18 03:17:27.19	287.96	0.35	-83.1	-88.8	2.7	1.56e+00	0	48	104	0	60	1048568
2026-01-18 03:17:28.20	287.90	0.30	-85.2	-88.8	2.7	1.56e+00	0	48	104	0	60	1048571
2026-01-18 03:17:29.21	287.84	0.25	-83.5	-88.8	2.8	1.56e+00	0	48	104	0	60	1048575
2026-01-18 03:17:30.21	287.78	0.19	-85.2	-88.8	2.8	1.56e+00	0	48	104	0	60	1048574
2026-01-18 03:17:31.22	287.72	0.14	-85.2	-88.8	2.5	1.56e+00	0	48	104	0	60	1048565
2026-01-18 03:17:32.23	287.66	0.09	-85.2	-88.8	2.6	1.56e+00	0	48	104	0	60	1048573
2026-01-18 03:17:33.24	287.60	0.03	-82.8	-88.8	2.8	1.56e+00	0	48	104	0	60	1048573
2026-01-18 03:17:34.24	287.54	-0.02	-85.2	-88.8	2.7	1.56e+00	0	48	104	0	60	1048572
2026-01-18 03:17:35.25	287.48	-0.07	-83.1	-88.8	2.7	1.56e+00	0	48	104	0	60	1048575

#Closed at: 2026-01-18 03:17:35
#Recorded file [0 MB]: D:/Data/35015_260118_060745.dat