passes_logs/2026/01/18/R3.2S-Naryan-Mar/R3.2S-Naryan-Mar__20260118_080043_NOAA_21_JPSS-2_rec.log

#Pass ID: 20260118_080043_NOAA 21 (JPSS-2)
#Satellite: NOAA 21 (JPSS-2)
#Configuration: NOAA-21
#almurnet v.1.7.20240730
#Start time: 2026-01-18 08:09:49

#Version: 2.2.20231116
#Station: R3.2S-Naryan-Mar
#Location: 53.008057 lon 67.646978 lat
#TLE: 1 54234U 22150A   26017.26823908  .00000042  00000+0  40962-4 0  9992
#TLE: 2 54234  98.7501 318.1405 0000613 274.2947  85.8159 14.19535194165131

#Time	Az	El	Level	Level2	SNR	BER	BlckErr	Temp	State	Recorded	gain1	gain2
2026-01-18 08:09:49.00	348.81	51.59	-84.7	-88.6	5.0	7.76e-01	0	47	0	0	60	1048575
2026-01-18 08:09:50.01	348.61	51.25	-85.2	-88.8	2.9	1.56e+00	0	48	104	0	60	1048571
2026-01-18 08:09:51.02	348.42	50.92	-85.2	-88.8	2.8	1.56e+00	0	48	104	0	60	1048575
2026-01-18 08:09:52.02	348.23	50.60	-85.2	-88.8	2.7	1.56e+00	0	48	104	0	60	1048572
2026-01-18 08:09:53.03	348.05	50.27	-85.2	-88.8	3.0	1.56e+00	0	48	104	0	60	1048573
2026-01-18 08:09:54.04	347.87	49.94	-85.2	-88.8	2.7	1.56e+00	0	48	104	0	60	1048574
2026-01-18 08:09:55.04	347.69	49.62	-85.2	-88.8	2.7	1.56e+00	0	48	104	0	60	1048573
2026-01-18 08:09:56.05	347.52	49.30	-85.2	-88.8	2.6	1.56e+00	0	48	104	0	60	1048573
2026-01-18 08:09:57.06	347.35	48.98	-85.2	-88.8	2.6	1.56e+00	0	48	104	0	60	1048574
2026-01-18 08:09:58.07	347.18	48.66	-85.2	-88.8	2.8	1.56e+00	0	48	104	0	60	1048567
2026-01-18 08:09:59.08	347.02	48.34	-85.2	-88.8	2.9	1.56e+00	0	48	104	0	60	1048574
2026-01-18 08:10:00.09	346.86	48.03	-85.2	-88.8	2.7	1.56e+00	0	48	104	0	60	1048575
2026-01-18 08:10:01.09	346.71	47.72	-85.2	-88.8	2.8	1.56e+00	0	48	104	0	60	1048574
2026-01-18 08:10:02.10	346.55	47.41	-85.2	-88.8	2.9	1.56e+00	0	48	104	0	60	1048574
2026-01-18 08:10:03.10	346.41	47.10	-85.2	-88.8	2.7	1.56e+00	0	47	104	0	60	1048568
2026-01-18 08:10:04.11	346.26	46.80	-85.2	-88.8	2.6	1.56e+00	0	47	104	0	60	1048575
2026-01-18 08:10:05.11	346.12	46.50	-85.2	-88.8	2.6	1.56e+00	0	48	104	0	60	1048575
2026-01-18 08:10:06.12	345.98	46.19	-85.2	-88.8	2.9	1.56e+00	0	48	104	0	60	1048575
2026-01-18 08:10:07.12	345.84	45.90	-85.2	-88.8	2.4	1.56e+00	0	48	104	0	60	1048572
2026-01-18 08:10:08.13	345.70	45.60	-85.2	-88.8	2.8	1.56e+00	0	48	104	0	60	1048566
2026-01-18 08:10:09.14	345.57	45.30	-85.2	-88.8	2.7	1.56e+00	0	48	104	0	60	1048574
2026-01-18 08:10:10.15	345.44	45.01	-85.2	-88.8	2.7	1.56e+00	0	48	104	0	60	1048574
2026-01-18 08:10:11.16	345.31	44.72	-85.2	-88.8	2.6	1.56e+00	0	48	104	0	60	1048571
2026-01-18 08:10:12.17	345.19	44.43	-85.2	-88.8	2.8	1.56e+00	0	47	104	0	60	1048573
2026-01-18 08:10:13.17	345.06	44.14	-85.2	-88.8	2.6	1.56e+00	0	48	104	0	60	1048575
2026-01-18 08:10:14.18	344.94	43.86	-85.2	-88.8	2.9	1.56e+00	0	47	104	0	60	1048575
2026-01-18 08:10:15.19	344.82	43.57	-85.2	-88.8	2.8	1.56e+00	0	47	104	0	60	1048572
2026-01-18 08:10:16.20	344.71	43.29	-85.2	-88.8	2.6	1.56e+00	0	47	104	0	60	1048574
2026-01-18 08:10:17.20	344.59	43.01	-85.2	-88.8	2.9	1.56e+00	0	47	104	0	60	1048574
2026-01-18 08:10:18.21	344.48	42.73	-85.2	-88.8	2.7	1.56e+00	0	47	104	0	60	1048575
2026-01-18 08:10:19.22	344.37	42.46	-85.2	-88.8	2.8	1.56e+00	0	48	104	0	60	1048575
2026-01-18 08:10:20.22	344.26	42.18	-85.2	-88.8	2.7	1.56e+00	0	47	104	0	60	1048572
2026-01-18 08:10:21.23	344.16	41.91	-85.2	-88.8	2.8	1.56e+00	0	48	104	0	60	1048573
2026-01-18 08:10:22.23	344.05	41.64	-85.2	-88.8	2.7	1.56e+00	0	47	104	0	60	1048574
2026-01-18 08:10:23.24	343.95	41.37	-85.2	-88.8	2.7	1.56e+00	0	48	104	0	60	1048575
2026-01-18 08:10:24.24	343.85	41.11	-85.2	-88.8	2.6	1.56e+00	0	47	104	0	60	1048571
2026-01-18 08:10:25.25	343.75	40.85	-85.2	-88.8	2.6	1.56e+00	0	48	104	0	60	1048575
2026-01-18 08:10:26.26	343.65	40.58	-85.2	-88.8	2.8	1.56e+00	0	48	104	0	60	1048575
2026-01-18 08:10:27.27	343.56	40.32	-85.2	-88.8	2.8	1.56e+00	0	48	104	0	60	1048575
2026-01-18 08:10:28.28	343.46	40.06	-85.2	-88.8	2.7	1.56e+00	0	48	104	0	60	1048575
2026-01-18 08:10:29.28	343.37	39.81	-85.2	-88.8	2.7	1.56e+00	0	47	104	0	60	1048571
2026-01-18 08:10:30.29	343.28	39.55	-85.2	-88.8	2.8	1.56e+00	0	47	104	0	60	1048574
2026-01-18 08:10:31.30	343.19	39.30	-85.2	-88.8	2.6	1.56e+00	0	48	104	0	60	1048574
2026-01-18 08:10:32.31	343.10	39.04	-85.2	-88.8	2.6	1.56e+00	0	47	104	0	60	1048573
2026-01-18 08:10:33.31	343.01	38.79	-85.2	-88.8	2.7	1.56e+00	0	48	104	0	60	1048573
2026-01-18 08:10:34.32	342.93	38.55	-85.2	-88.8	2.8	1.56e+00	0	47	104	0	60	1048575
2026-01-18 08:10:35.32	342.84	38.30	-85.2	-88.8	2.8	1.56e+00	0	48	104	0	60	1048572
2026-01-18 08:10:36.33	342.76	38.05	-85.2	-88.8	2.7	1.56e+00	0	47	104	0	60	1048574
2026-01-18 08:10:37.33	342.68	37.81	-85.2	-88.8	2.8	1.56e+00	0	48	104	0	60	1048574
2026-01-18 08:10:38.34	342.60	37.57	-85.2	-88.8	3.0	1.56e+00	0	47	104	0	60	1048575
2026-01-18 08:10:39.35	342.52	37.33	-85.2	-88.8	2.7	1.56e+00	0	48	104	0	60	1048573
2026-01-18 08:10:40.35	342.44	37.09	-85.2	-88.8	2.5	1.56e+00	0	48	104	0	60	1048575
2026-01-18 08:10:41.35	342.36	36.86	-85.2	-88.8	2.7	1.56e+00	0	47	104	0	60	1048575
2026-01-18 08:10:42.36	342.29	36.62	-85.2	-88.8	2.6	1.56e+00	0	47	104	0	60	1048575
2026-01-18 08:10:43.36	342.21	36.39	-85.2	-88.8	2.8	1.56e+00	0	47	104	0	60	1048575
2026-01-18 08:10:44.37	342.14	36.16	-85.2	-88.8	2.5	1.56e+00	0	48	104	0	60	1048573
2026-01-18 08:10:45.38	342.07	35.93	-85.2	-88.8	2.7	1.56e+00	0	48	104	0	60	1048574
2026-01-18 08:10:46.39	342.00	35.70	-85.2	-88.8	2.7	1.56e+00	0	48	104	0	60	1048572
2026-01-18 08:10:47.40	341.93	35.47	-84.7	-88.8	2.9	1.56e+00	0	47	104	0	60	1048571
2026-01-18 08:10:48.41	341.86	35.25	-85.2	-88.8	2.8	1.56e+00	0	48	104	0	60	1048575
2026-01-18 08:10:49.41	341.79	35.02	-85.2	-88.8	2.7	1.56e+00	0	48	104	0	60	1048573
2026-01-18 08:10:50.42	341.72	34.80	-85.2	-88.8	2.6	1.56e+00	0	47	104	0	60	1048575
2026-01-18 08:10:51.42	341.66	34.58	-85.2	-88.8	2.7	1.56e+00	0	47	104	0	60	1048575
2026-01-18 08:10:52.43	341.59	34.36	-85.2	-88.8	2.8	1.56e+00	0	47	104	0	60	1048574
2026-01-18 08:10:53.43	341.53	34.15	-85.2	-88.8	2.5	1.56e+00	0	47	104	0	60	1048574
2026-01-18 08:10:54.44	341.46	33.93	-85.2	-88.8	2.7	1.56e+00	0	48	104	0	60	1048571
2026-01-18 08:10:55.45	341.40	33.71	-85.2	-88.8	2.9	1.56e+00	0	48	104	0	60	1048572
2026-01-18 08:10:56.45	341.34	33.50	-85.2	-88.8	2.8	1.56e+00	0	48	104	0	60	1048565
2026-01-18 08:10:57.46	341.28	33.29	-85.2	-88.8	2.6	1.56e+00	0	48	104	0	60	1048573
2026-01-18 08:10:58.47	341.22	33.08	-85.2	-88.8	2.8	1.56e+00	0	48	104	0	60	1048573
2026-01-18 08:10:59.48	341.16	32.87	-85.2	-88.8	2.7	1.56e+00	0	48	104	0	60	1048574
2026-01-18 08:11:00.49	341.10	32.66	-85.2	-88.8	2.8	1.56e+00	0	47	104	0	60	1048575
2026-01-18 08:11:01.49	341.04	32.46	-85.2	-88.8	2.6	1.56e+00	0	48	104	0	60	1048575
2026-01-18 08:11:02.50	340.98	32.25	-85.2	-88.8	2.8	1.56e+00	0	48	104	0	60	1048575
2026-01-18 08:11:03.51	340.93	32.05	-85.2	-88.8	2.5	1.56e+00	0	48	104	0	60	1048575
2026-01-18 08:11:04.52	340.87	31.84	-85.2	-88.8	2.9	1.56e+00	0	48	104	0	60	1048575
2026-01-18 08:11:05.52	340.82	31.64	-85.2	-88.8	2.9	1.56e+00	0	48	104	0	60	1048574
2026-01-18 08:11:06.53	340.76	31.44	-85.2	-88.8	2.5	1.56e+00	0	47	104	0	60	1048575
2026-01-18 08:11:07.54	340.71	31.24	-85.2	-88.8	2.7	1.56e+00	0	47	104	0	60	1048575
2026-01-18 08:11:08.54	340.66	31.05	-85.2	-88.8	2.7	1.56e+00	0	47	104	0	60	1048574
2026-01-18 08:11:09.55	340.61	30.85	-85.2	-88.8	2.6	1.56e+00	0	48	104	0	60	1048575
2026-01-18 08:11:10.56	340.55	30.66	-84.7	-88.8	2.7	1.56e+00	0	48	104	0	60	1048574
2026-01-18 08:11:11.56	340.50	30.47	-85.2	-88.8	2.7	1.56e+00	0	47	104	0	60	1048575
2026-01-18 08:11:12.56	340.46	30.28	-85.2	-88.8	2.7	1.56e+00	0	48	104	0	60	1048574
2026-01-18 08:11:13.57	340.41	30.09	-85.2	-88.8	2.6	1.56e+00	0	48	104	0	60	1048573
2026-01-18 08:11:14.58	340.36	29.90	-85.2	-88.8	2.8	1.56e+00	0	47	104	0	60	1048574
2026-01-18 08:11:15.58	340.31	29.71	-84.7	-88.8	2.8	1.56e+00	0	47	104	0	60	1048573
2026-01-18 08:11:16.59	340.26	29.52	-85.2	-88.8	2.7	1.56e+00	0	48	104	0	60	1048575
2026-01-18 08:11:17.60	340.21	29.33	-85.2	-88.8	2.6	1.56e+00	0	47	104	0	60	1048570
2026-01-18 08:11:18.61	340.17	29.15	-85.2	-88.8	2.6	1.56e+00	0	48	104	0	60	1048572
2026-01-18 08:11:19.62	340.12	28.97	-85.2	-88.8	2.6	1.56e+00	0	47	104	0	60	1048575
2026-01-18 08:11:20.62	340.08	28.79	-85.2	-88.8	2.7	1.56e+00	0	48	104	0	60	1048574
2026-01-18 08:11:21.63	340.03	28.60	-85.2	-88.8	2.6	1.56e+00	0	48	104	0	60	1048574
2026-01-18 08:11:22.64	339.99	28.42	-85.2	-88.8	2.5	1.56e+00	0	48	104	0	60	1048568
2026-01-18 08:11:23.64	339.95	28.25	-85.2	-88.8	2.6	1.56e+00	0	48	104	0	60	1048574
2026-01-18 08:11:24.64	339.90	28.07	-85.2	-88.8	2.8	1.56e+00	0	48	104	0	60	1048568
2026-01-18 08:11:25.65	339.86	27.89	-85.2	-88.8	2.7	1.56e+00	0	48	104	0	60	1048575
2026-01-18 08:11:26.66	339.82	27.72	-85.2	-88.8	2.7	1.56e+00	0	48	104	0	60	1048575
2026-01-18 08:11:27.67	339.78	27.54	-85.2	-88.8	2.7	1.56e+00	0	48	104	0	60	1048574
2026-01-18 08:11:28.67	339.74	27.37	-85.2	-88.8	2.5	1.56e+00	0	48	104	0	60	1048574
2026-01-18 08:11:29.68	339.70	27.20	-85.2	-88.8	2.6	1.56e+00	0	48	104	0	60	1048574
2026-01-18 08:11:30.68	339.66	27.03	-85.2	-88.8	2.7	1.56e+00	0	48	104	0	60	1048574
2026-01-18 08:11:31.68	339.62	26.86	-85.2	-88.8	2.8	1.56e+00	0	48	104	0	60	1048574
2026-01-18 08:11:32.69	339.58	26.69	-85.2	-88.8	2.7	1.56e+00	0	48	104	0	60	1048574
2026-01-18 08:11:33.70	339.54	26.52	-85.2	-88.8	2.9	1.56e+00	0	48	104	0	60	1048575
2026-01-18 08:11:34.71	339.50	26.35	-85.2	-88.8	2.7	1.56e+00	0	48	104	0	60	1048572
2026-01-18 08:11:35.71	339.46	26.19	-85.2	-88.8	2.7	1.56e+00	0	48	104	0	60	1048573
2026-01-18 08:11:36.72	339.43	26.02	-85.2	-88.8	2.7	1.56e+00	0	47	104	0	60	1048574
2026-01-18 08:11:37.73	339.39	25.86	-85.2	-88.8	2.8	1.56e+00	0	47	104	0	60	1048571
2026-01-18 08:11:38.73	339.35	25.70	-85.2	-88.8	2.8	1.56e+00	0	48	104	0	60	1048574
2026-01-18 08:11:39.74	339.32	25.54	-85.2	-88.8	2.6	1.56e+00	0	47	104	0	60	1048575
2026-01-18 08:11:40.74	339.28	25.38	-84.7	-88.8	2.4	1.56e+00	0	48	104	0	60	1048575
2026-01-18 08:11:41.75	339.25	25.21	-85.2	-88.8	2.7	1.56e+00	0	48	104	0	60	1048570
2026-01-18 08:11:42.75	339.21	25.06	-85.2	-88.8	2.7	1.56e+00	0	48	104	0	60	1048573
2026-01-18 08:11:43.75	339.18	24.90	-85.2	-88.8	2.6	1.56e+00	0	47	104	0	60	1048574
2026-01-18 08:11:44.76	339.14	24.74	-83.5	-88.8	2.7	1.56e+00	0	48	104	0	60	1048575
2026-01-18 08:11:45.76	339.11	24.59	-84.7	-88.8	2.7	1.56e+00	0	47	104	0	60	1048575
2026-01-18 08:11:46.76	339.08	24.43	-85.2	-88.8	2.6	1.56e+00	0	48	104	0	60	1048575
2026-01-18 08:11:47.77	339.04	24.28	-85.2	-88.8	2.8	1.56e+00	0	48	104	0	60	1048570
2026-01-18 08:11:48.76	339.01	24.13	-85.2	-88.8	2.9	1.56e+00	0	48	104	0	60	1048570
2026-01-18 08:11:49.77	338.98	23.97	-84.7	-88.8	2.5	1.56e+00	0	48	104	0	60	1048573
2026-01-18 08:11:50.77	338.95	23.82	-84.7	-88.8	2.8	1.56e+00	0	48	104	0	60	1048573
2026-01-18 08:11:51.78	338.91	23.67	-85.2	-88.8	2.7	1.56e+00	0	48	104	0	60	1048573
2026-01-18 08:11:52.79	338.88	23.52	-85.2	-88.8	2.7	1.56e+00	0	48	104	0	60	1048573
2026-01-18 08:11:53.79	338.85	23.37	-85.2	-88.8	2.7	1.56e+00	0	48	104	0	60	1048575
2026-01-18 08:11:54.80	338.82	23.22	-85.2	-88.8	2.5	1.56e+00	0	48	104	0	60	1048567
2026-01-18 08:11:55.81	338.79	23.08	-85.2	-88.8	2.7	1.56e+00	0	48	104	0	60	1048575
2026-01-18 08:11:56.82	338.76	22.93	-85.2	-88.8	2.8	1.56e+00	0	48	104	0	60	1048572
2026-01-18 08:11:57.82	338.73	22.78	-85.2	-88.8	2.7	1.56e+00	0	48	104	0	60	1048574
2026-01-18 08:11:58.83	338.70	22.64	-85.2	-88.8	2.9	1.56e+00	0	48	104	0	60	1048575
2026-01-18 08:11:59.84	338.67	22.49	-85.2	-88.8	2.8	1.56e+00	0	48	104	0	60	1048575
2026-01-18 08:12:00.84	338.65	22.35	-84.7	-88.8	2.9	1.56e+00	0	48	104	0	60	1048574
2026-01-18 08:12:01.84	338.62	22.21	-85.2	-88.8	2.7	1.56e+00	0	48	104	0	60	1048573
2026-01-18 08:12:02.85	338.59	22.07	-85.2	-88.8	2.7	1.56e+00	0	48	104	0	60	1048571
2026-01-18 08:12:03.85	338.56	21.93	-85.2	-88.8	2.7	1.56e+00	0	48	104	0	60	1048575
2026-01-18 08:12:04.86	338.53	21.79	-85.2	-88.8	2.7	1.56e+00	0	48	104	0	60	1048575
2026-01-18 08:12:05.87	338.51	21.65	-84.7	-88.8	2.6	1.56e+00	0	48	104	0	60	1048575
2026-01-18 08:12:06.87	338.48	21.51	-85.2	-88.8	2.6	1.56e+00	0	48	104	0	60	1048572
2026-01-18 08:12:07.88	338.45	21.37	-85.2	-88.8	2.6	1.56e+00	0	48	104	0	60	1048575
2026-01-18 08:12:08.89	338.43	21.23	-85.2	-88.8	2.6	1.56e+00	0	48	104	0	60	1048572
2026-01-18 08:12:09.89	338.40	21.10	-85.2	-88.8	2.6	1.56e+00	0	48	104	0	60	1048573
2026-01-18 08:12:10.90	338.37	20.96	-85.2	-88.8	2.9	1.56e+00	0	48	104	0	60	1048575
2026-01-18 08:12:11.91	338.35	20.83	-85.2	-88.8	2.6	1.56e+00	0	48	104	0	60	1048572
2026-01-18 08:12:12.92	338.32	20.69	-85.2	-88.8	2.7	1.56e+00	0	48	104	0	60	1048571
2026-01-18 08:12:13.93	338.30	20.56	-82.8	-88.8	2.9	1.56e+00	0	48	104	0	60	1048574
2026-01-18 08:12:14.93	338.27	20.42	-85.2	-88.8	2.7	1.56e+00	0	48	104	0	60	1048573
2026-01-18 08:12:15.94	338.25	20.29	-85.2	-88.8	2.7	1.56e+00	0	48	104	0	60	1048575
2026-01-18 08:12:16.95	338.22	20.16	-85.2	-88.8	2.7	1.56e+00	0	47	104	0	60	1048572
2026-01-18 08:12:17.95	338.20	20.03	-85.2	-88.8	2.7	1.56e+00	0	48	104	0	60	1048575
2026-01-18 08:12:18.96	338.18	19.90	-84.3	-88.8	2.7	1.56e+00	0	47	104	0	60	1048575
2026-01-18 08:12:19.97	338.15	19.77	-85.2	-88.8	2.8	1.56e+00	0	48	104	0	60	1048570
2026-01-18 08:12:20.97	338.13	19.64	-85.2	-88.8	2.6	1.56e+00	0	48	104	0	60	1048572
2026-01-18 08:12:21.98	338.11	19.51	-85.2	-88.8	2.6	1.56e+00	0	48	104	0	60	1048575
2026-01-18 08:12:22.99	338.08	19.38	-85.2	-88.8	2.9	1.56e+00	0	48	104	0	60	1048574
2026-01-18 08:12:24.00	338.06	19.26	-85.2	-88.8	2.8	1.56e+00	0	48	104	0	60	1048575
2026-01-18 08:12:25.00	338.04	19.13	-85.2	-88.8	2.8	1.56e+00	0	48	104	0	60	1048573
2026-01-18 08:12:26.01	338.02	19.01	-85.2	-88.8	2.6	1.56e+00	0	47	104	0	60	1048574
2026-01-18 08:12:27.02	337.99	18.88	-83.9	-88.8	2.6	1.56e+00	0	48	104	0	60	1048572
2026-01-18 08:12:28.03	337.97	18.76	-85.2	-88.8	2.6	1.56e+00	0	48	104	0	60	1048568
2026-01-18 08:12:29.03	337.95	18.63	-85.2	-88.8	2.7	1.56e+00	0	48	104	0	60	1048575
2026-01-18 08:12:30.04	337.93	18.51	-84.3	-88.8	2.6	1.56e+00	0	48	104	0	60	1048573
2026-01-18 08:12:31.04	337.91	18.39	-85.2	-88.8	2.7	1.56e+00	0	48	104	0	60	1048575
2026-01-18 08:12:32.05	337.89	18.26	-85.2	-88.8	2.7	1.56e+00	0	48	104	0	60	1048573
2026-01-18 08:12:33.06	337.87	18.14	-85.2	-88.8	2.8	1.56e+00	0	48	104	0	60	1048575
2026-01-18 08:12:34.06	337.85	18.02	-85.2	-88.8	2.7	1.56e+00	0	48	104	0	60	1048575
2026-01-18 08:12:35.07	337.83	17.90	-83.5	-88.8	2.8	1.56e+00	0	48	104	0	60	1048575
2026-01-18 08:12:36.08	337.81	17.78	-85.2	-88.8	2.8	1.56e+00	0	48	104	0	60	1048571
2026-01-18 08:12:37.09	337.79	17.66	-85.2	-88.8	2.8	1.56e+00	0	48	104	0	60	1048575
2026-01-18 08:12:38.10	337.77	17.54	-85.2	-88.8	2.8	1.56e+00	0	47	104	0	60	1048571
2026-01-18 08:12:39.10	337.75	17.43	-85.2	-88.8	2.7	1.56e+00	0	47	104	0	60	1048573
2026-01-18 08:12:40.11	337.73	17.31	-85.2	-88.8	2.6	1.56e+00	0	48	104	0	60	1048572
2026-01-18 08:12:41.12	337.71	17.19	-85.2	-88.8	2.6	1.56e+00	0	48	104	0	60	1048574
2026-01-18 08:12:42.13	337.69	17.08	-85.2	-88.8	2.8	1.56e+00	0	47	104	0	60	1048574
2026-01-18 08:12:43.14	337.67	16.96	-85.2	-88.8	2.6	1.56e+00	0	47	104	0	60	1048575
2026-01-18 08:12:44.15	337.65	16.84	-85.2	-88.8	2.7	1.56e+00	0	48	104	0	60	1048573
2026-01-18 08:12:45.15	337.63	16.73	-83.5	-88.8	2.9	1.56e+00	0	48	104	0	60	1048574
2026-01-18 08:12:46.16	337.61	16.62	-85.2	-88.8	2.7	1.56e+00	0	48	104	0	60	1048574
2026-01-18 08:12:47.17	337.59	16.50	-85.2	-88.8	2.7	1.56e+00	0	48	104	0	60	1048575
2026-01-18 08:12:48.17	337.58	16.39	-85.2	-88.8	2.8	1.55e+00	0	48	104	0	60	1048572
2026-01-18 08:12:49.18	337.56	16.28	-84.3	-88.8	2.7	1.56e+00	0	48	104	0	60	1048573
2026-01-18 08:12:50.19	337.54	16.16	-84.3	-88.8	2.8	1.56e+00	0	48	104	0	60	1048575
2026-01-18 08:12:51.20	337.52	16.05	-85.2	-88.8	2.7	1.56e+00	0	48	104	0	60	1048573
2026-01-18 08:12:52.21	337.51	15.94	-85.2	-88.8	2.7	1.56e+00	0	47	104	0	60	1048575
2026-01-18 08:12:53.21	337.49	15.83	-85.2	-88.8	2.9	1.56e+00	0	47	104	0	60	1048572
2026-01-18 08:12:54.22	337.47	15.72	-85.2	-88.8	2.6	1.56e+00	0	48	104	0	60	1048574
2026-01-18 08:12:55.21	337.46	15.61	-85.2	-88.8	2.5	1.56e+00	0	48	104	0	60	1048573
2026-01-18 08:12:56.22	337.44	15.50	-85.2	-88.8	2.8	1.56e+00	0	48	104	0	60	1048572
2026-01-18 08:12:57.23	337.42	15.40	-85.2	-88.8	2.7	1.56e+00	0	48	104	0	60	1048574
2026-01-18 08:12:58.23	337.41	15.29	-85.2	-88.8	2.6	1.56e+00	0	48	104	0	60	1048573
2026-01-18 08:12:59.24	337.39	15.18	-83.5	-88.8	2.8	1.56e+00	0	48	104	0	60	1048564
2026-01-18 08:13:00.24	337.37	15.07	-85.2	-88.8	2.6	1.56e+00	0	48	104	0	60	1048574
2026-01-18 08:13:01.25	337.36	14.97	-85.2	-88.8	2.7	1.56e+00	0	48	104	0	60	1048573
2026-01-18 08:13:02.26	337.34	14.86	-85.2	-88.8	2.7	1.56e+00	0	48	104	0	60	1048574
2026-01-18 08:13:03.26	337.32	14.76	-85.2	-88.8	2.6	1.56e+00	0	48	104	0	60	1048573
2026-01-18 08:13:04.27	337.31	14.65	-85.2	-88.8	2.8	1.56e+00	0	47	104	0	60	1048572
2026-01-18 08:13:05.27	337.29	14.55	-84.7	-88.8	2.9	1.56e+00	0	47	104	0	60	1048574
2026-01-18 08:13:06.27	337.28	14.44	-85.2	-88.8	2.7	1.56e+00	0	48	104	0	60	1048575
2026-01-18 08:13:07.28	337.26	14.34	-85.2	-88.8	2.8	1.56e+00	0	48	104	0	60	1048574
2026-01-18 08:13:08.28	337.25	14.24	-85.2	-88.8	2.8	1.56e+00	0	48	104	0	60	1048575
2026-01-18 08:13:09.29	337.23	14.13	-85.2	-88.8	2.8	1.56e+00	0	48	104	0	60	1048573
2026-01-18 08:13:10.30	337.22	14.03	-85.2	-88.8	2.6	1.56e+00	0	48	104	0	60	1048575
2026-01-18 08:13:11.31	337.20	13.93	-85.2	-88.8	2.7	1.56e+00	0	48	104	0	60	1048571
2026-01-18 08:13:12.31	337.19	13.83	-85.2	-88.8	2.6	1.56e+00	0	48	104	0	60	1048574
2026-01-18 08:13:13.32	337.17	13.72	-85.2	-88.8	2.6	1.56e+00	0	48	104	0	60	1048573
2026-01-18 08:13:14.33	337.16	13.62	-85.2	-88.8	2.4	1.56e+00	0	48	104	0	60	1048574
2026-01-18 08:13:15.34	337.15	13.52	-85.2	-88.8	2.5	1.56e+00	0	48	104	0	60	1048572
2026-01-18 08:13:16.35	337.13	13.42	-85.2	-88.8	2.7	1.56e+00	0	48	104	0	60	1048575
2026-01-18 08:13:17.36	337.12	13.32	-85.2	-88.8	2.5	1.56e+00	0	48	104	0	60	1048574
2026-01-18 08:13:18.37	337.10	13.22	-85.2	-88.8	2.7	1.56e+00	0	48	104	0	60	1048575
2026-01-18 08:13:19.37	337.09	13.12	-84.3	-88.8	2.6	1.56e+00	0	48	104	0	60	1048575
2026-01-18 08:13:20.38	337.08	13.02	-85.2	-88.8	2.8	1.56e+00	0	48	104	0	60	1048573
2026-01-18 08:13:21.39	337.06	12.93	-85.2	-88.8	2.7	1.56e+00	0	48	104	0	60	1048569
2026-01-18 08:13:22.39	337.05	12.83	-85.2	-88.8	2.7	1.56e+00	0	48	104	0	60	1048574
2026-01-18 08:13:23.39	337.04	12.73	-85.2	-88.8	2.8	1.56e+00	0	48	104	0	60	1048574
2026-01-18 08:13:24.40	337.02	12.64	-85.2	-88.8	2.8	1.56e+00	0	48	104	0	60	1048573
2026-01-18 08:13:25.40	337.01	12.54	-85.2	-88.8	2.8	1.56e+00	0	48	104	0	60	1048575
2026-01-18 08:13:26.40	337.00	12.44	-85.2	-88.8	2.7	1.56e+00	0	48	104	0	60	1048572
2026-01-18 08:13:27.40	336.99	12.35	-85.2	-88.8	2.7	1.56e+00	0	48	104	0	60	1048575
2026-01-18 08:13:28.41	336.97	12.25	-85.2	-88.8	2.6	1.56e+00	0	48	104	0	60	1048575
2026-01-18 08:13:29.42	336.96	12.16	-85.2	-88.8	2.7	1.56e+00	0	48	104	0	60	1048571
2026-01-18 08:13:30.42	336.95	12.06	-85.2	-88.8	2.7	1.56e+00	0	48	104	0	60	1048574
2026-01-18 08:13:31.42	336.94	11.97	-85.2	-88.8	2.7	1.56e+00	0	48	104	0	60	1048569
2026-01-18 08:13:32.43	336.92	11.88	-85.2	-88.8	2.6	1.56e+00	0	48	104	0	60	1048573
2026-01-18 08:13:33.44	336.91	11.78	-85.2	-88.8	2.8	1.56e+00	0	48	104	0	60	1048575
2026-01-18 08:13:34.45	336.90	11.69	-85.2	-88.8	2.8	1.56e+00	0	48	104	0	60	1048575
2026-01-18 08:13:35.46	336.89	11.60	-85.2	-88.8	2.5	1.56e+00	0	48	104	0	60	1048575
2026-01-18 08:13:36.47	336.88	11.50	-85.2	-88.8	2.7	1.56e+00	0	48	104	0	60	1048573
2026-01-18 08:13:37.47	336.86	11.41	-85.2	-88.8	2.7	1.56e+00	0	48	104	0	60	1048575
2026-01-18 08:13:38.48	336.85	11.32	-85.2	-88.8	2.5	1.56e+00	0	48	104	0	60	1048571
2026-01-18 08:13:39.48	336.84	11.23	-85.2	-88.8	2.7	1.56e+00	0	48	104	0	60	1048574
2026-01-18 08:13:40.49	336.83	11.14	-85.2	-88.8	2.6	1.56e+00	0	48	104	0	60	1048574
2026-01-18 08:13:41.49	336.82	11.05	-85.2	-88.8	2.7	1.56e+00	0	48	104	0	60	1048572
2026-01-18 08:13:42.50	336.81	10.96	-85.2	-88.8	2.8	1.56e+00	0	48	104	0	60	1048575
2026-01-18 08:13:43.51	336.80	10.86	-85.2	-88.8	2.7	1.56e+00	0	47	104	0	60	1048573
2026-01-18 08:13:44.51	336.79	10.78	-84.3	-88.8	2.8	1.56e+00	0	47	104	0	60	1048574
2026-01-18 08:13:45.52	336.77	10.69	-85.2	-88.8	2.6	1.56e+00	0	48	104	0	60	1048568
2026-01-18 08:13:46.52	336.76	10.60	-85.2	-88.8	2.9	1.56e+00	0	48	104	0	60	1048572
2026-01-18 08:13:47.53	336.75	10.51	-85.2	-88.8	2.7	1.56e+00	0	48	104	0	60	1048572
2026-01-18 08:13:48.54	336.74	10.42	-85.2	-88.8	2.7	1.56e+00	0	48	104	0	60	1048573
2026-01-18 08:13:49.55	336.73	10.33	-85.2	-88.8	2.6	1.56e+00	0	48	104	0	60	1048575
2026-01-18 08:13:50.55	336.72	10.24	-85.2	-88.8	3.0	1.55e+00	0	48	104	0	60	1048573
2026-01-18 08:13:51.56	336.71	10.16	-85.2	-88.8	2.6	1.56e+00	0	48	104	0	60	1048573
2026-01-18 08:13:52.57	336.70	10.07	-85.2	-88.8	2.7	1.56e+00	0	48	104	0	60	1048575
2026-01-18 08:13:53.57	336.69	9.98	-85.2	-88.8	2.8	1.56e+00	0	48	104	0	60	1048572
2026-01-18 08:13:54.58	336.68	9.89	-85.2	-88.8	2.7	1.56e+00	0	48	104	0	60	1048574
2026-01-18 08:13:55.58	336.67	9.81	-85.2	-88.8	2.7	1.56e+00	0	48	104	0	60	1048575
2026-01-18 08:13:56.59	336.66	9.72	-85.2	-88.8	2.9	1.56e+00	0	47	104	0	60	1048573
2026-01-18 08:13:57.59	336.65	9.64	-85.2	-88.8	2.8	1.56e+00	0	48	104	0	60	1048575
2026-01-18 08:13:58.60	336.64	9.55	-85.2	-88.8	2.7	1.56e+00	0	47	104	0	60	1048573
2026-01-18 08:13:59.61	336.63	9.47	-85.2	-88.8	2.8	1.56e+00	0	47	104	0	60	1048571
2026-01-18 08:14:00.61	336.62	9.38	-85.2	-88.8	2.6	1.56e+00	0	48	104	0	60	1048575
2026-01-18 08:14:01.62	336.61	9.30	-84.3	-88.8	2.7	1.56e+00	0	48	104	0	60	1048574
2026-01-18 08:14:02.62	336.60	9.21	-85.2	-88.8	2.7	1.56e+00	0	48	104	0	60	1048575
2026-01-18 08:14:03.63	336.59	9.13	-85.2	-88.8	2.6	1.56e+00	0	48	104	0	60	1048572
2026-01-18 08:14:04.63	336.58	9.04	-85.2	-88.8	2.4	1.56e+00	0	48	104	0	60	1048573
2026-01-18 08:14:05.64	336.57	8.96	-85.2	-88.8	2.6	1.56e+00	0	48	104	0	60	1048575
2026-01-18 08:14:06.65	336.56	8.88	-85.2	-88.8	2.7	1.56e+00	0	48	104	0	60	1048569
2026-01-18 08:14:07.66	336.56	8.79	-85.2	-88.8	2.9	1.56e+00	0	48	104	0	60	1048569
2026-01-18 08:14:08.66	336.55	8.71	-85.2	-88.8	2.6	1.56e+00	0	48	104	0	60	1048574
2026-01-18 08:14:09.67	336.54	8.63	-85.2	-88.8	2.6	1.56e+00	0	48	104	0	60	1048573
2026-01-18 08:14:10.67	336.53	8.55	-85.2	-88.8	2.6	1.56e+00	0	48	104	0	60	1048574
2026-01-18 08:14:11.67	336.52	8.47	-85.2	-88.8	2.7	1.56e+00	0	48	104	0	60	1048575
2026-01-18 08:14:12.68	336.51	8.38	-85.2	-88.8	2.7	1.56e+00	0	48	104	0	60	1048575
2026-01-18 08:14:13.69	336.50	8.30	-85.2	-88.8	2.8	1.56e+00	0	48	104	0	60	1048574
2026-01-18 08:14:14.69	336.49	8.22	-85.2	-88.8	2.7	1.56e+00	0	48	104	0	60	1048574
2026-01-18 08:14:15.70	336.49	8.14	-85.2	-88.8	2.8	1.56e+00	0	48	104	0	60	1048575
2026-01-18 08:14:16.71	336.48	8.06	-85.2	-88.8	2.6	1.56e+00	0	48	104	0	60	1048572
2026-01-18 08:14:17.72	336.47	7.98	-85.2	-88.8	2.4	1.56e+00	0	48	104	0	60	1048575
2026-01-18 08:14:18.73	336.46	7.90	-85.2	-88.8	2.7	1.56e+00	0	48	104	0	60	1048573
2026-01-18 08:14:19.73	336.45	7.82	-85.2	-88.8	2.6	1.56e+00	0	48	104	0	60	1048572
2026-01-18 08:14:20.74	336.44	7.74	-85.2	-88.8	2.6	1.56e+00	0	48	104	0	60	1048575
2026-01-18 08:14:21.75	336.44	7.66	-85.2	-88.8	2.7	1.56e+00	0	48	104	0	60	1048573
2026-01-18 08:14:22.76	336.43	7.58	-85.2	-88.8	2.6	1.56e+00	0	48	104	0	60	1048575
2026-01-18 08:14:23.77	336.42	7.50	-85.2	-88.8	2.7	1.56e+00	0	48	104	0	60	1048572
2026-01-18 08:14:24.77	336.41	7.42	-84.7	-88.8	2.7	1.56e+00	0	48	104	0	60	1048575
2026-01-18 08:14:25.78	336.40	7.35	-85.2	-88.8	2.6	1.56e+00	0	48	104	0	60	1048575
2026-01-18 08:14:26.79	336.40	7.27	-85.2	-88.8	2.6	1.56e+00	0	48	104	0	60	1048574
2026-01-18 08:14:27.79	336.39	7.19	-85.2	-88.8	2.8	1.56e+00	0	48	104	0	60	1048572
2026-01-18 08:14:28.80	336.38	7.11	-85.2	-88.8	2.7	1.56e+00	0	48	104	0	60	1048574
2026-01-18 08:14:29.80	336.37	7.04	-84.7	-88.8	2.8	1.56e+00	0	48	104	0	60	1048575
2026-01-18 08:14:30.81	336.37	6.96	-85.2	-88.8	2.6	1.56e+00	0	48	104	0	60	1048574
2026-01-18 08:14:31.81	336.36	6.88	-85.2	-88.8	2.7	1.56e+00	0	48	104	0	60	1048574
2026-01-18 08:14:32.81	336.35	6.80	-85.2	-88.8	2.8	1.56e+00	0	48	104	0	60	1048574
2026-01-18 08:14:33.82	336.34	6.73	-85.2	-88.8	2.6	1.56e+00	0	48	104	0	60	1048573
2026-01-18 08:14:34.83	336.34	6.65	-85.2	-88.8	2.7	1.56e+00	0	48	104	0	60	1048573
2026-01-18 08:14:35.84	336.33	6.58	-85.2	-88.8	2.8	1.56e+00	0	48	104	0	60	1048565
2026-01-18 08:14:36.85	336.32	6.50	-85.2	-88.8	2.7	1.56e+00	0	48	104	0	60	1048575
2026-01-18 08:14:37.85	336.32	6.42	-85.2	-88.8	2.6	1.56e+00	0	48	104	0	60	1048574
2026-01-18 08:14:38.86	336.31	6.35	-85.2	-88.8	2.9	1.56e+00	0	48	104	0	60	1048575
2026-01-18 08:14:39.87	336.30	6.27	-85.2	-88.8	2.7	1.56e+00	0	48	104	0	60	1048575
2026-01-18 08:14:40.88	336.29	6.20	-85.2	-88.8	2.5	1.56e+00	0	48	104	0	60	1048575
2026-01-18 08:14:41.89	336.29	6.12	-85.2	-88.8	2.7	1.56e+00	0	48	104	0	60	1048574
2026-01-18 08:14:42.89	336.28	6.05	-85.2	-88.8	2.9	1.56e+00	0	48	104	0	60	1048575
2026-01-18 08:14:43.90	336.27	5.97	-85.2	-88.8	2.7	1.56e+00	0	48	104	0	60	1048575
2026-01-18 08:14:44.91	336.27	5.90	-84.7	-88.8	2.6	1.56e+00	0	48	104	0	60	1048575
2026-01-18 08:14:45.91	336.26	5.83	-85.2	-88.8	2.6	1.56e+00	0	48	104	0	60	1048575
2026-01-18 08:14:46.92	336.25	5.75	-85.2	-88.8	2.8	1.56e+00	0	48	104	0	60	1048574
2026-01-18 08:14:47.93	336.25	5.68	-85.2	-88.8	2.5	1.56e+00	0	48	104	0	60	1048575
2026-01-18 08:14:48.94	336.24	5.61	-85.2	-88.8	2.7	1.56e+00	0	48	104	0	60	1048574
2026-01-18 08:14:49.95	336.24	5.53	-85.2	-88.8	2.7	1.56e+00	0	48	104	0	60	1048566
2026-01-18 08:14:50.95	336.23	5.46	-85.2	-88.8	2.7	1.56e+00	0	48	104	0	60	1048573
2026-01-18 08:14:51.95	336.22	5.39	-85.2	-88.8	2.7	1.56e+00	0	48	104	0	60	1048574
2026-01-18 08:14:52.96	336.22	5.31	-85.2	-88.8	2.7	1.56e+00	0	48	104	0	60	1048572
2026-01-18 08:14:53.96	336.21	5.24	-85.2	-88.8	2.5	1.56e+00	0	48	104	0	60	1048575
2026-01-18 08:14:54.97	336.20	5.17	-85.2	-88.8	2.6	1.56e+00	0	48	104	0	60	1048575
2026-01-18 08:14:55.98	336.20	5.10	-85.2	-88.8	2.5	1.56e+00	0	48	104	0	60	1048574
2026-01-18 08:14:56.99	336.19	5.03	-85.2	-88.8	2.6	1.56e+00	0	48	104	0	60	1048574
2026-01-18 08:14:58.00	336.19	4.96	-85.2	-88.8	2.9	1.56e+00	0	48	104	0	60	1048575
2026-01-18 08:14:59.01	336.18	4.88	-85.2	-88.8	2.8	1.56e+00	0	48	104	0	60	1048575
2026-01-18 08:15:00.01	336.17	4.81	-85.2	-88.8	2.8	1.56e+00	0	48	104	0	60	1048575
2026-01-18 08:15:01.02	336.17	4.74	-84.7	-88.8	2.6	1.56e+00	0	48	104	0	60	1048572
2026-01-18 08:15:02.03	336.16	4.67	-85.2	-88.8	2.8	1.56e+00	0	48	104	0	60	1048575
2026-01-18 08:15:03.03	336.16	4.60	-85.2	-88.8	2.8	1.56e+00	0	48	104	0	60	1048570
2026-01-18 08:15:04.04	336.15	4.53	-85.2	-88.8	2.6	1.56e+00	0	48	104	0	60	1048573
2026-01-18 08:15:05.05	336.15	4.46	-85.2	-88.8	2.7	1.56e+00	0	48	104	0	60	1048575
2026-01-18 08:15:06.05	336.14	4.39	-85.2	-88.8	2.7	1.56e+00	0	48	104	0	60	1048575
2026-01-18 08:15:07.06	336.13	4.32	-85.2	-88.8	2.8	1.56e+00	0	48	104	0	60	1048567
2026-01-18 08:15:08.07	336.13	4.25	-85.2	-88.8	2.8	1.56e+00	0	48	104	0	60	1048574
2026-01-18 08:15:09.07	336.12	4.18	-85.2	-88.8	2.6	1.56e+00	0	48	104	0	60	1048574
2026-01-18 08:15:10.08	336.12	4.11	-85.2	-88.8	2.7	1.56e+00	0	48	104	0	60	1048574
2026-01-18 08:15:11.08	336.11	4.04	-85.2	-88.8	2.4	1.56e+00	0	48	104	0	60	1048569
2026-01-18 08:15:12.09	336.11	3.97	-85.2	-88.8	2.8	1.56e+00	0	48	104	0	60	1048573
2026-01-18 08:15:13.10	336.10	3.90	-85.2	-88.8	2.7	1.56e+00	0	48	104	0	60	1048573
2026-01-18 08:15:14.11	336.10	3.84	-85.2	-88.8	3.0	1.56e+00	0	48	104	0	60	1048575
2026-01-18 08:15:15.12	336.09	3.77	-84.7	-88.8	2.9	1.56e+00	0	48	104	0	60	1048573
2026-01-18 08:15:16.12	336.09	3.70	-85.2	-88.8	2.7	1.56e+00	0	48	104	0	60	1048569
2026-01-18 08:15:17.13	336.08	3.63	-85.2	-88.8	2.7	1.56e+00	0	48	104	0	60	1048570
2026-01-18 08:15:18.14	336.08	3.56	-85.2	-88.8	2.7	1.56e+00	0	48	104	0	60	1048573
2026-01-18 08:15:19.14	336.07	3.50	-85.2	-88.8	2.9	1.56e+00	0	47	104	0	60	1048575
2026-01-18 08:15:20.15	336.07	3.43	-85.2	-88.8	2.8	1.56e+00	0	48	104	0	60	1048572
2026-01-18 08:15:21.15	336.06	3.36	-85.2	-88.8	2.7	1.56e+00	0	47	104	0	60	1048575
2026-01-18 08:15:22.16	336.06	3.29	-85.2	-88.8	2.6	1.56e+00	0	47	104	0	60	1048575
2026-01-18 08:15:23.17	336.05	3.23	-85.2	-88.8	2.6	1.56e+00	0	48	104	0	60	1048572
2026-01-18 08:15:24.17	336.05	3.16	-85.2	-88.8	2.7	1.56e+00	0	48	104	0	60	1048574
2026-01-18 08:15:25.18	336.04	3.09	-85.2	-88.8	2.7	1.56e+00	0	48	104	0	60	1048574
2026-01-18 08:15:26.18	336.04	3.03	-85.2	-88.8	2.6	1.56e+00	0	48	104	0	60	1048566
2026-01-18 08:15:27.19	336.03	2.96	-85.2	-88.8	2.8	1.56e+00	0	48	104	0	60	1048571
2026-01-18 08:15:28.19	336.03	2.89	-85.2	-88.8	2.6	1.56e+00	0	48	104	0	60	1048573
2026-01-18 08:15:29.19	336.02	2.83	-85.2	-88.8	2.5	1.56e+00	0	48	104	0	60	1048573
2026-01-18 08:15:30.20	336.02	2.76	-85.2	-88.8	2.7	1.56e+00	0	48	104	0	60	1048570
2026-01-18 08:15:31.21	336.02	2.70	-85.2	-88.8	2.7	1.56e+00	0	48	104	0	60	1048575
2026-01-18 08:15:32.22	336.01	2.63	-85.2	-88.8	2.7	1.56e+00	0	48	104	0	60	1048575
2026-01-18 08:15:33.22	336.01	2.57	-85.2	-88.8	2.6	1.56e+00	0	48	104	0	60	1048575
2026-01-18 08:15:34.23	336.00	2.50	-85.2	-88.8	2.8	1.56e+00	0	48	104	0	60	1048575
2026-01-18 08:15:35.24	336.00	2.43	-85.2	-88.8	2.8	1.56e+00	0	48	104	0	60	1048575
2026-01-18 08:15:36.24	335.99	2.37	-85.2	-88.8	2.7	1.56e+00	0	48	104	0	60	1048575
2026-01-18 08:15:37.25	335.99	2.30	-85.2	-88.8	2.6	1.56e+00	0	48	104	0	60	1048575
2026-01-18 08:15:38.25	335.99	2.24	-85.2	-88.8	2.8	1.56e+00	0	48	104	0	60	1048574
2026-01-18 08:15:39.26	335.98	2.18	-85.2	-88.8	2.5	1.56e+00	0	48	104	0	60	1048574
2026-01-18 08:15:40.27	335.98	2.11	-85.2	-88.8	2.8	1.56e+00	0	48	104	0	60	1048573
2026-01-18 08:15:41.28	335.97	2.05	-85.2	-88.8	2.4	1.56e+00	0	48	104	0	60	1048573
2026-01-18 08:15:42.28	335.97	1.98	-85.2	-88.8	2.6	1.56e+00	0	48	104	0	60	1048572
2026-01-18 08:15:43.29	335.96	1.92	-85.2	-88.8	2.8	1.56e+00	0	48	104	0	60	1048571
2026-01-18 08:15:44.29	335.96	1.85	-85.2	-88.8	2.6	1.56e+00	0	48	104	0	60	1048575
2026-01-18 08:15:45.30	335.96	1.79	-85.2	-88.8	2.7	1.56e+00	0	48	104	0	60	1048575
2026-01-18 08:15:46.31	335.95	1.73	-85.2	-88.8	2.3	1.56e+00	0	47	104	0	60	1048575
2026-01-18 08:15:47.32	335.95	1.66	-85.2	-88.8	2.7	1.56e+00	0	48	104	0	60	1048575
2026-01-18 08:15:48.32	335.95	1.60	-85.2	-88.8	2.8	1.56e+00	0	48	104	0	60	1048575
2026-01-18 08:15:49.33	335.94	1.54	-85.2	-88.8	2.8	1.56e+00	0	48	104	0	60	1048571
2026-01-18 08:15:50.33	335.94	1.47	-85.2	-88.8	2.7	1.56e+00	0	47	104	0	60	1048569
2026-01-18 08:15:51.34	335.93	1.41	-85.2	-88.8	2.7	1.56e+00	0	48	104	0	60	1048572
2026-01-18 08:15:52.35	335.93	1.35	-85.2	-88.8	2.7	1.56e+00	0	48	104	0	60	1048575
2026-01-18 08:15:53.35	335.93	1.29	-85.2	-88.8	2.6	1.56e+00	0	48	104	0	60	1048575
2026-01-18 08:15:54.36	335.92	1.22	-85.2	-88.8	2.6	1.56e+00	0	48	104	0	60	1048575
2026-01-18 08:15:55.36	335.92	1.16	-84.7	-88.8	2.7	1.56e+00	0	48	104	0	60	1048575
2026-01-18 08:15:56.37	335.92	1.10	-84.7	-88.8	2.6	1.56e+00	0	48	104	0	60	1048575
2026-01-18 08:15:57.37	335.91	1.04	-85.2	-88.8	2.4	1.56e+00	0	48	104	0	60	1048573
2026-01-18 08:15:58.38	335.91	0.97	-85.2	-88.8	2.7	1.56e+00	0	48	104	0	60	1048572
2026-01-18 08:15:59.39	335.91	0.91	-85.2	-88.8	2.7	1.56e+00	0	48	104	0	60	1048573
2026-01-18 08:16:00.40	335.90	0.85	-85.2	-88.8	2.7	1.56e+00	0	48	104	0	60	1048574
2026-01-18 08:16:01.40	335.90	0.79	-85.2	-88.8	2.8	1.56e+00	0	48	104	0	60	1048572
2026-01-18 08:16:02.41	335.90	0.73	-85.2	-88.8	2.8	1.56e+00	0	48	104	0	60	1048571
2026-01-18 08:16:03.42	335.89	0.67	-85.2	-88.8	2.7	1.56e+00	0	48	104	0	60	1048574
2026-01-18 08:16:04.43	335.89	0.60	-85.2	-88.8	2.6	1.56e+00	0	48	104	0	60	1048575
2026-01-18 08:16:05.44	335.89	0.54	-85.2	-88.8	2.7	1.56e+00	0	48	104	0	60	1048574
2026-01-18 08:16:06.44	335.88	0.48	-85.2	-88.8	2.7	1.56e+00	0	48	104	0	60	1048575
2026-01-18 08:16:07.44	335.88	0.42	-85.2	-88.8	2.6	1.56e+00	0	48	104	0	60	1048573
2026-01-18 08:16:08.45	335.88	0.36	-85.2	-88.8	2.7	1.56e+00	0	48	104	0	60	1048574
2026-01-18 08:16:09.45	335.87	0.30	-85.2	-88.8	2.8	1.56e+00	0	48	104	0	60	1048571
2026-01-18 08:16:10.46	335.87	0.24	-85.2	-88.8	2.9	1.56e+00	0	48	104	0	60	1048574
2026-01-18 08:16:11.46	335.87	0.18	-85.2	-88.8	2.7	1.56e+00	0	48	104	0	60	1048572
2026-01-18 08:16:12.47	335.86	0.12	-84.7	-88.8	2.8	1.56e+00	0	48	104	0	60	1048574
2026-01-18 08:16:13.48	335.86	0.06	-85.2	-88.8	2.8	1.56e+00	0	48	104	0	60	1048575
2026-01-18 08:16:14.48	335.86	-0.00	-85.2	-88.8	2.8	1.56e+00	0	48	104	0	60	1048575

#Closed at: 2026-01-18 08:16:14
#Recorded file [0 MB]: D:/Data/35015_260118_110948.dat