passes_logs/2026/01/18/R3.2S-Naryan-Mar/R3.2S-Naryan-Mar__20260118_092828_TY-41_rec.log

#Pass ID: 20260118_092828_TY-41
#Satellite: TY-41
#Configuration: TY-39
#almurnet v.1.7.20240730
#Start time: 2026-01-18 09:28:32

#Version: 2.2.20231116
#Station: R3.2S-Naryan-Mar
#Location: 53.008057 lon 67.646978 lat
#TLE: 1 61231U 24173E   26017.70896991  .00008013  00000-0  38191-3 0 09992
#TLE: 2 61231 097.4119 092.6921 0001804 091.8360 205.6844 15.19179825 72900

#Time	Az	El	Level	Level2	SNR	BER	BlckErr	Temp	State	Recorded	gain1	gain2
2026-01-18 09:28:32.04	22.15	0.19	-84.3	-88.8	2.1	3.12e+01	0	45	0	0	60	1048575
2026-01-18 09:28:33.05	22.10	0.25	-83.5	-79.0	2.4	0.00e+00	0	46	104	0	60	1048575
2026-01-18 09:28:34.05	22.04	0.31	-83.5	-79.0	2.5	0.00e+00	0	46	104	0	60	1048571
2026-01-18 09:28:35.06	21.99	0.38	-83.5	-79.0	2.5	0.00e+00	0	46	104	0	60	1048570
2026-01-18 09:28:36.07	21.93	0.44	-83.1	-79.0	2.3	0.00e+00	0	46	104	0	60	1048574
2026-01-18 09:28:37.08	21.88	0.50	-83.5	-79.0	2.4	0.00e+00	0	46	104	0	60	1048575
2026-01-18 09:28:38.08	21.82	0.56	-83.5	-79.0	2.3	0.00e+00	0	46	104	0	60	1048570
2026-01-18 09:28:39.09	21.76	0.62	-83.1	-79.0	2.3	0.00e+00	0	47	104	0	60	1048569
2026-01-18 09:28:40.10	21.71	0.69	-83.1	-79.0	2.4	0.00e+00	0	46	104	0	60	1048574
2026-01-18 09:28:41.11	21.65	0.75	-83.1	-79.0	2.4	0.00e+00	0	46	104	0	60	1048574
2026-01-18 09:28:42.12	21.59	0.81	-83.5	-79.0	2.4	0.00e+00	0	46	104	0	60	1048575
2026-01-18 09:28:43.12	21.54	0.87	-83.5	-79.0	2.4	0.00e+00	0	46	104	0	60	1048573
2026-01-18 09:28:44.13	21.48	0.94	-83.5	-79.0	2.4	0.00e+00	0	46	104	0	60	1048573
2026-01-18 09:28:45.14	21.42	1.00	-83.1	-79.0	2.5	0.00e+00	0	46	104	0	60	1048574
2026-01-18 09:28:46.15	21.36	1.06	-83.1	-79.0	2.3	0.00e+00	0	47	104	0	60	1048573
2026-01-18 09:28:47.16	21.30	1.13	-83.5	-79.0	2.4	0.00e+00	0	47	104	0	60	1048572
2026-01-18 09:28:48.17	21.25	1.19	-83.5	-79.0	2.5	0.00e+00	0	47	104	0	60	1048568
2026-01-18 09:28:49.17	21.19	1.25	-83.5	-79.0	2.5	0.00e+00	0	47	104	0	60	1048573
2026-01-18 09:28:50.18	21.13	1.32	-83.1	-79.0	2.4	0.00e+00	0	47	104	0	60	1048573
2026-01-18 09:28:51.19	21.07	1.38	-83.1	-79.0	2.4	0.00e+00	0	47	104	0	60	1048573
2026-01-18 09:28:52.20	21.01	1.45	-83.1	-79.0	2.4	0.00e+00	0	47	104	0	60	1048575
2026-01-18 09:28:53.20	20.95	1.51	-83.5	-79.0	2.6	0.00e+00	0	47	104	0	60	1048573
2026-01-18 09:28:54.21	20.88	1.57	-83.5	-79.0	2.4	0.00e+00	0	47	104	0	60	1048575
2026-01-18 09:28:55.22	20.82	1.64	-83.1	-79.0	2.3	0.00e+00	0	47	104	0	60	1048572
2026-01-18 09:28:56.22	20.76	1.70	-83.5	-79.0	2.4	0.00e+00	0	47	104	0	60	1048572
2026-01-18 09:28:57.23	20.70	1.77	-83.5	-79.0	2.5	0.00e+00	0	47	104	0	60	1048575
2026-01-18 09:28:58.24	20.64	1.83	-83.5	-79.0	2.4	0.00e+00	0	47	104	0	60	1048575
2026-01-18 09:28:59.25	20.57	1.90	-83.5	-79.0	2.3	0.00e+00	0	47	104	0	60	1048566
2026-01-18 09:29:00.25	20.51	1.96	-83.1	-79.0	2.3	0.00e+00	0	47	104	0	60	1048575
2026-01-18 09:29:01.26	20.45	2.03	-83.5	-79.0	2.4	0.00e+00	0	47	104	0	60	1048575
2026-01-18 09:29:02.26	20.38	2.10	-83.5	-79.0	2.4	0.00e+00	0	47	104	0	60	1048570
2026-01-18 09:29:03.27	20.32	2.16	-83.5	-79.0	2.4	0.00e+00	0	47	104	0	60	1048573
2026-01-18 09:29:04.28	20.25	2.23	-83.1	-79.0	2.5	0.00e+00	0	47	104	0	60	1048574
2026-01-18 09:29:05.28	20.19	2.29	-83.1	-79.0	2.4	0.00e+00	0	47	104	0	60	1048575
2026-01-18 09:29:06.29	20.12	2.36	-83.5	-79.0	2.3	0.00e+00	0	47	104	0	60	1048575
2026-01-18 09:29:07.29	20.06	2.43	-83.5	-79.0	2.4	0.00e+00	0	47	104	0	60	1048569
2026-01-18 09:29:08.30	19.99	2.49	-83.5	-79.0	2.4	0.00e+00	0	47	104	0	60	1048574
2026-01-18 09:29:09.30	19.92	2.56	-82.8	-79.0	2.3	0.00e+00	0	47	104	0	60	1048573
2026-01-18 09:29:10.31	19.86	2.63	-83.5	-79.0	2.2	0.00e+00	0	47	104	0	60	1048574
2026-01-18 09:29:11.31	19.79	2.69	-83.5	-79.0	2.4	0.00e+00	0	47	104	0	60	1048572
2026-01-18 09:29:12.32	19.72	2.76	-83.5	-79.0	2.3	0.00e+00	0	47	104	0	60	1048575
2026-01-18 09:29:13.33	19.65	2.83	-83.1	-79.0	2.5	0.00e+00	0	47	104	0	60	1048567
2026-01-18 09:29:14.34	19.58	2.90	-83.1	-79.0	2.4	0.00e+00	0	47	104	0	60	1048575
2026-01-18 09:29:15.35	19.51	2.97	-83.1	-79.0	2.3	0.00e+00	0	47	104	0	60	1048575
2026-01-18 09:29:16.35	19.45	3.03	-83.5	-79.0	2.3	0.00e+00	0	47	104	0	60	1048575
2026-01-18 09:29:17.36	19.37	3.10	-83.5	-79.0	2.4	0.00e+00	0	47	104	0	60	1048572
2026-01-18 09:29:18.37	19.30	3.17	-83.5	-79.0	2.4	0.00e+00	0	47	104	0	60	1048567
2026-01-18 09:29:19.38	19.23	3.24	-83.1	-79.0	2.4	0.00e+00	0	47	104	0	60	1048574
2026-01-18 09:29:20.39	19.16	3.31	-83.5	-79.0	2.4	0.00e+00	0	47	104	0	60	1048573
2026-01-18 09:29:21.39	19.09	3.38	-83.5	-79.0	2.4	0.00e+00	0	47	104	0	60	1048573
2026-01-18 09:29:22.40	19.02	3.45	-83.5	-79.0	2.4	0.00e+00	0	47	104	0	60	1048567
2026-01-18 09:29:23.42	18.94	3.52	-83.1	-79.0	2.3	0.00e+00	0	47	104	0	60	1048574
2026-01-18 09:29:24.42	18.87	3.59	-83.1	-79.0	2.3	0.00e+00	0	47	104	0	60	1048573
2026-01-18 09:29:25.43	18.80	3.66	-83.1	-79.0	2.4	0.00e+00	0	47	104	0	60	1048574
2026-01-18 09:29:26.43	18.72	3.73	-83.1	-79.0	2.7	0.00e+00	0	47	104	0	60	1048575
2026-01-18 09:29:27.44	18.65	3.80	-83.5	-79.0	2.3	0.00e+00	0	47	104	0	60	1048575
2026-01-18 09:29:28.44	18.57	3.87	-83.1	-79.0	2.5	0.00e+00	0	47	104	0	60	1048574
2026-01-18 09:29:29.45	18.50	3.94	-83.1	-79.0	2.4	0.00e+00	0	47	104	0	60	1048573
2026-01-18 09:29:30.46	18.42	4.01	-83.5	-79.0	2.4	0.00e+00	0	47	104	0	60	1048573
2026-01-18 09:29:31.46	18.34	4.08	-83.5	-79.0	2.4	0.00e+00	0	47	104	0	60	1048575
2026-01-18 09:29:32.47	18.27	4.15	-82.8	-79.0	2.4	0.00e+00	0	47	104	0	60	1048574
2026-01-18 09:29:33.48	18.19	4.22	-82.8	-79.0	2.3	0.00e+00	0	47	104	0	60	1048573
2026-01-18 09:29:34.48	18.11	4.30	-83.5	-79.0	2.4	0.00e+00	0	47	104	0	60	1048575
2026-01-18 09:29:35.49	18.03	4.37	-83.5	-79.0	2.4	0.00e+00	0	47	104	0	60	1048573
2026-01-18 09:29:36.50	17.95	4.44	-83.5	-79.0	2.5	0.00e+00	0	47	104	0	60	1048575
2026-01-18 09:29:37.51	17.87	4.51	-83.1	-79.0	2.4	0.00e+00	0	47	104	0	60	1048574
2026-01-18 09:29:38.52	17.79	4.59	-82.8	-79.0	2.4	0.00e+00	0	47	104	0	60	1048568
2026-01-18 09:29:39.52	17.71	4.66	-83.5	-79.0	2.4	0.00e+00	0	48	104	0	60	1048569
2026-01-18 09:29:40.53	17.63	4.73	-83.5	-79.0	2.4	0.00e+00	0	48	104	0	60	1048574
2026-01-18 09:29:41.54	17.55	4.80	-83.5	-79.0	2.4	0.00e+00	0	48	104	0	60	1048574
2026-01-18 09:29:42.55	17.46	4.88	-83.1	-79.0	2.6	0.00e+00	0	48	104	0	60	1048575
2026-01-18 09:29:43.56	17.38	4.95	-83.5	-79.0	2.2	0.00e+00	0	48	104	0	60	1048571
2026-01-18 09:29:44.56	17.30	5.03	-83.5	-79.0	2.2	0.00e+00	0	48	104	0	60	1048575
2026-01-18 09:29:45.57	17.21	5.10	-83.5	-79.0	2.5	0.00e+00	0	48	104	0	60	1048575
2026-01-18 09:29:46.58	17.13	5.17	-83.1	-79.0	2.4	0.00e+00	0	48	104	0	60	1048574
2026-01-18 09:29:47.58	17.04	5.25	-82.8	-79.0	2.5	0.00e+00	0	48	104	0	60	1048570
2026-01-18 09:29:48.59	16.96	5.32	-83.5	-79.0	2.2	0.00e+00	0	48	104	0	60	1048572
2026-01-18 09:29:49.59	16.87	5.40	-83.5	-79.0	2.4	0.00e+00	0	48	104	0	60	1048575
2026-01-18 09:29:50.60	16.79	5.47	-83.5	-79.0	2.4	0.00e+00	0	48	104	0	60	1048572
2026-01-18 09:29:51.60	16.70	5.55	-83.1	-79.0	2.3	0.00e+00	0	48	104	0	60	1048567
2026-01-18 09:29:52.61	16.61	5.62	-83.1	-79.0	2.4	0.00e+00	0	48	104	0	60	1048567
2026-01-18 09:29:53.62	16.52	5.70	-83.5	-79.0	2.4	0.00e+00	0	48	104	0	60	1048575
2026-01-18 09:29:54.63	16.43	5.78	-83.5	-79.0	2.4	0.00e+00	0	48	104	0	60	1048575
2026-01-18 09:29:55.64	16.34	5.85	-83.5	-79.0	2.4	0.00e+00	0	48	104	0	60	1048574
2026-01-18 09:29:56.65	16.25	5.93	-83.1	-79.0	2.3	0.00e+00	0	48	104	0	60	1048574
2026-01-18 09:29:57.65	16.16	6.01	-83.1	-79.0	2.4	0.00e+00	0	48	104	0	60	1048570
2026-01-18 09:29:58.66	16.07	6.08	-83.5	-79.0	2.4	0.00e+00	0	48	104	0	60	1048571
2026-01-18 09:29:59.67	15.97	6.16	-83.1	-79.0	2.8	0.00e+00	0	48	104	0	60	1048573
2026-01-18 09:30:00.68	15.88	6.24	-83.5	-79.0	2.5	0.00e+00	0	48	104	0	60	1048574
2026-01-18 09:30:01.69	15.79	6.32	-82.8	-79.0	2.3	0.00e+00	0	48	104	0	60	1048575
2026-01-18 09:30:02.69	15.69	6.40	-83.1	-79.0	2.4	0.00e+00	0	48	104	0	60	1048571
2026-01-18 09:30:03.70	15.60	6.47	-83.5	-79.0	2.3	0.00e+00	0	48	104	0	60	1048574
2026-01-18 09:30:04.71	15.50	6.55	-83.5	-79.0	2.5	0.00e+00	0	48	104	0	60	1048567
2026-01-18 09:30:05.71	15.41	6.63	-83.1	-79.0	2.5	0.00e+00	0	48	104	0	60	1048574
2026-01-18 09:30:06.72	15.31	6.71	-82.8	-79.0	2.4	0.00e+00	0	48	104	0	60	1048568
2026-01-18 09:30:07.72	15.21	6.79	-83.5	-79.0	2.4	0.00e+00	0	48	104	0	60	1048575
2026-01-18 09:30:08.74	15.11	6.87	-83.5	-79.0	2.4	0.00e+00	0	48	104	0	60	1048572
2026-01-18 09:30:09.74	15.01	6.95	-83.5	-79.0	2.3	0.00e+00	0	48	104	0	60	1048572
2026-01-18 09:30:10.75	14.91	7.03	-83.1	-79.0	2.4	0.00e+00	0	48	104	0	60	1048575
2026-01-18 09:30:11.76	14.81	7.11	-82.8	-79.0	2.2	0.00e+00	0	48	104	0	60	1048569
2026-01-18 09:30:12.77	14.71	7.19	-83.5	-79.0	2.5	0.00e+00	0	48	104	0	60	1048575
2026-01-18 09:30:13.77	14.61	7.27	-83.5	-79.0	2.3	0.00e+00	0	48	104	0	60	1048573
2026-01-18 09:30:14.78	14.50	7.35	-83.5	-79.0	2.5	0.00e+00	0	48	104	0	60	1048572
2026-01-18 09:30:15.79	14.40	7.44	-83.1	-79.0	2.3	0.00e+00	0	48	104	0	60	1048574
2026-01-18 09:30:16.80	14.30	7.52	-83.5	-79.0	2.3	0.00e+00	0	48	104	0	60	1048572
2026-01-18 09:30:17.80	14.19	7.60	-83.5	-79.0	2.4	0.00e+00	0	48	104	0	60	1048575
2026-01-18 09:30:18.81	14.09	7.68	-83.1	-79.0	2.4	0.00e+00	0	48	104	0	60	1048571
2026-01-18 09:30:19.81	13.98	7.76	-83.5	-79.0	2.3	0.00e+00	0	48	104	0	60	1048572
2026-01-18 09:30:20.82	13.87	7.85	-82.8	-79.0	2.3	0.00e+00	0	48	104	0	60	1048570
2026-01-18 09:30:21.83	13.76	7.93	-83.5	-79.0	2.4	0.00e+00	0	48	104	0	60	1048573
2026-01-18 09:30:22.83	13.66	8.01	-83.5	-79.0	2.3	0.00e+00	0	48	104	0	60	1048573
2026-01-18 09:30:23.84	13.55	8.10	-83.5	-79.0	2.4	0.00e+00	0	48	104	0	60	1048575
2026-01-18 09:30:24.85	13.43	8.18	-83.1	-79.0	2.3	0.00e+00	0	48	104	0	60	1048575
2026-01-18 09:30:25.86	13.32	8.27	-83.1	-79.0	2.3	0.00e+00	0	48	104	0	60	1048575
2026-01-18 09:30:26.87	13.21	8.35	-83.5	-79.0	2.4	0.00e+00	0	48	104	0	60	1048574
2026-01-18 09:30:27.87	13.10	8.44	-83.5	-79.0	2.4	0.00e+00	0	48	104	0	60	1048575
2026-01-18 09:30:28.88	12.98	8.52	-83.5	-79.0	2.4	0.00e+00	0	48	104	0	60	1048571
2026-01-18 09:30:29.89	12.87	8.61	-83.1	-79.0	2.4	0.00e+00	0	48	104	0	60	1048573
2026-01-18 09:30:30.90	12.75	8.69	-83.1	-79.0	2.4	0.00e+00	0	48	104	0	60	1048572
2026-01-18 09:30:31.91	12.63	8.78	-83.1	-79.0	2.4	0.00e+00	0	48	104	0	60	1048566
2026-01-18 09:30:32.91	12.52	8.86	-83.5	-79.0	2.2	0.00e+00	0	48	104	0	60	1048574
2026-01-18 09:30:33.92	12.40	8.95	-83.5	-79.0	2.4	0.00e+00	0	48	104	0	60	1048571
2026-01-18 09:30:34.92	12.28	9.04	-83.1	-79.0	2.6	0.00e+00	0	48	104	0	60	1048575
2026-01-18 09:30:35.93	12.16	9.13	-83.5	-79.0	2.5	0.00e+00	0	48	104	0	60	1048574
2026-01-18 09:30:36.94	12.04	9.21	-83.5	-79.0	2.5	0.00e+00	0	48	104	0	60	1048573
2026-01-18 09:30:37.94	11.92	9.30	-83.1	-79.0	2.5	0.00e+00	0	48	104	0	60	1048573
2026-01-18 09:30:38.95	11.80	9.39	-83.1	-79.0	2.4	0.00e+00	0	48	104	0	60	1048575
2026-01-18 09:30:39.96	11.67	9.48	-82.8	-79.0	2.7	0.00e+00	0	48	104	0	60	1048573
2026-01-18 09:30:40.96	11.55	9.57	-83.5	-79.0	2.4	0.00e+00	0	48	104	0	60	1048567
2026-01-18 09:30:41.97	11.42	9.65	-83.5	-79.0	2.3	0.00e+00	0	48	104	0	60	1048574
2026-01-18 09:30:42.98	11.29	9.74	-83.5	-79.0	2.5	0.00e+00	0	48	104	0	60	1048575
2026-01-18 09:30:43.99	11.17	9.83	-83.1	-79.0	2.3	0.00e+00	0	48	104	0	60	1048571
2026-01-18 09:30:44.99	11.04	9.92	-83.1	-79.0	2.4	0.00e+00	0	48	104	0	60	1048575
2026-01-18 09:30:46.00	10.91	10.01	-83.5	-79.0	2.4	0.00e+00	0	48	104	0	60	1048573
2026-01-18 09:30:47.01	10.78	10.10	-83.5	-79.0	2.4	0.00e+00	0	48	104	0	60	1048574
2026-01-18 09:30:48.02	10.64	10.20	-83.5	-79.0	2.4	0.00e+00	0	48	104	0	60	1048574
2026-01-18 09:30:49.03	10.51	10.29	-83.1	-79.0	2.3	0.00e+00	0	48	104	0	60	1048572
2026-01-18 09:30:50.04	10.38	10.38	-83.1	-79.0	2.3	0.00e+00	0	48	104	0	60	1048572
2026-01-18 09:30:51.04	10.24	10.47	-83.5	-79.0	2.5	0.00e+00	0	48	104	0	60	1048575
2026-01-18 09:30:52.05	10.11	10.56	-83.1	-79.0	2.5	0.00e+00	0	48	104	0	60	1048569
2026-01-18 09:30:53.06	9.97	10.66	-83.5	-79.0	2.3	0.00e+00	0	48	104	0	60	1048575
2026-01-18 09:30:54.07	9.83	10.75	-82.8	-79.0	2.3	0.00e+00	0	48	104	0	60	1048570
2026-01-18 09:30:55.07	9.69	10.84	-83.5	-79.0	2.2	0.00e+00	0	48	104	0	60	1048573
2026-01-18 09:30:56.07	9.55	10.93	-83.5	-79.0	2.4	0.00e+00	0	49	104	0	60	1048570
2026-01-18 09:30:57.08	9.41	11.03	-83.5	-79.0	2.4	0.00e+00	0	48	104	0	60	1048572
2026-01-18 09:30:58.09	9.27	11.12	-83.5	-79.0	2.4	0.00e+00	0	48	104	0	60	1048574
2026-01-18 09:30:59.09	9.13	11.22	-83.1	-79.0	2.3	0.00e+00	0	48	104	0	60	1048569
2026-01-18 09:31:00.10	8.98	11.31	-83.5	-79.0	2.4	0.00e+00	0	48	104	0	60	1048572
2026-01-18 09:31:01.11	8.83	11.41	-83.5	-79.0	2.2	0.00e+00	0	48	104	0	60	1048575
2026-01-18 09:31:02.11	8.69	11.50	-83.5	-79.0	2.5	0.00e+00	0	48	104	0	60	1048575
2026-01-18 09:31:03.12	8.54	11.60	-83.1	-79.0	2.4	0.00e+00	0	48	104	0	60	1048572
2026-01-18 09:31:04.13	8.39	11.69	-83.1	-79.0	2.3	0.00e+00	0	48	104	0	60	1048575
2026-01-18 09:31:05.13	8.24	11.79	-83.5	-79.0	2.4	0.00e+00	0	48	104	0	60	1048573
2026-01-18 09:31:06.14	8.09	11.89	-83.5	-79.0	2.2	0.00e+00	0	48	104	0	60	1048573
2026-01-18 09:31:07.15	7.93	11.98	-83.5	-79.0	2.3	0.00e+00	0	48	104	0	60	1048575
2026-01-18 09:31:08.16	7.78	12.08	-83.1	-79.0	2.3	0.00e+00	0	48	104	0	60	1048572
2026-01-18 09:31:09.17	7.62	12.18	-83.1	-79.0	2.5	0.00e+00	0	48	104	0	60	1048571
2026-01-18 09:31:10.17	7.47	12.28	-83.5	-79.0	2.5	0.00e+00	0	48	104	0	60	1048571
2026-01-18 09:31:11.18	7.31	12.37	-83.5	-79.0	2.4	0.00e+00	0	48	104	0	60	1048574
2026-01-18 09:31:12.19	7.15	12.47	-83.5	-79.0	2.4	0.00e+00	0	48	104	0	60	1048575
2026-01-18 09:31:13.20	6.99	12.57	-83.1	-79.0	2.5	0.00e+00	0	48	104	0	60	1048572
2026-01-18 09:31:14.20	6.82	12.67	-83.1	-79.0	2.4	0.00e+00	0	48	104	0	60	1048574
2026-01-18 09:31:15.21	6.66	12.77	-83.1	-79.0	2.4	0.00e+00	0	48	104	0	60	1048572
2026-01-18 09:31:16.22	6.50	12.87	-83.5	-79.0	2.3	0.00e+00	0	48	104	0	60	1048567
2026-01-18 09:31:17.23	6.33	12.97	-83.1	-79.0	2.4	0.00e+00	0	49	104	0	60	1048568
2026-01-18 09:31:18.24	6.16	13.07	-83.1	-79.0	2.5	0.00e+00	0	48	104	0	60	1048570
2026-01-18 09:31:19.25	5.99	13.17	-83.5	-79.0	2.4	0.00e+00	0	48	104	0	60	1048574
2026-01-18 09:31:20.25	5.82	13.28	-83.5	-79.0	2.4	0.00e+00	0	49	104	0	60	1048573
2026-01-18 09:31:21.26	5.65	13.38	-83.5	-79.0	2.5	0.00e+00	0	49	104	0	60	1048573
2026-01-18 09:31:22.27	5.47	13.48	-83.1	-79.0	2.4	0.00e+00	0	49	104	0	60	1048575
2026-01-18 09:31:23.28	5.30	13.58	-83.5	-79.0	2.4	0.00e+00	0	49	104	0	60	1048571
2026-01-18 09:31:24.29	5.12	13.68	-83.5	-79.0	2.4	0.00e+00	0	49	104	0	60	1048569
2026-01-18 09:31:25.29	4.95	13.79	-83.1	-79.0	2.3	0.00e+00	0	49	104	0	60	1048573
2026-01-18 09:31:26.30	4.77	13.89	-83.1	-79.0	2.3	0.00e+00	0	48	104	0	60	1048574
2026-01-18 09:31:27.30	4.59	13.99	-82.8	-79.0	2.4	0.00e+00	0	48	104	0	60	1048570
2026-01-18 09:31:28.31	4.40	14.10	-83.5	-79.0	2.5	0.00e+00	0	49	104	0	60	1048575
2026-01-18 09:31:29.32	4.22	14.20	-83.5	-79.0	2.4	0.00e+00	0	49	104	0	60	1048575
2026-01-18 09:31:30.33	4.03	14.31	-83.5	-79.0	2.4	0.00e+00	0	49	104	0	60	1048575
2026-01-18 09:31:31.33	3.85	14.41	-83.5	-79.0	2.4	0.00e+00	0	49	104	0	60	1048571
2026-01-18 09:31:32.33	3.66	14.52	-82.8	-79.0	2.5	0.00e+00	0	48	104	0	60	1048575
2026-01-18 09:31:33.34	3.47	14.62	-83.5	-79.0	2.3	0.00e+00	0	49	104	0	60	1048572
2026-01-18 09:31:34.35	3.27	14.73	-83.5	-79.0	2.4	0.00e+00	0	48	104	0	60	1048566
2026-01-18 09:31:35.36	3.08	14.83	-83.5	-79.0	2.4	0.00e+00	0	48	104	0	60	1048571
2026-01-18 09:31:36.37	2.88	14.94	-83.1	-79.0	2.4	0.00e+00	0	49	104	0	60	1048569
2026-01-18 09:31:37.37	2.69	15.05	-83.1	-79.0	2.3	0.00e+00	0	49	104	0	60	1048571
2026-01-18 09:31:38.38	2.49	15.15	-83.1	-79.0	2.5	0.00e+00	0	49	104	0	60	1048573
2026-01-18 09:31:39.39	2.29	15.26	-83.5	-79.0	2.4	0.00e+00	0	48	104	0	60	1048575
2026-01-18 09:31:40.39	2.09	15.37	-83.5	-79.0	2.3	0.00e+00	0	48	104	0	60	1048575
2026-01-18 09:31:41.39	1.88	15.48	-83.1	-79.0	2.4	0.00e+00	0	48	104	0	60	1048572
2026-01-18 09:31:42.40	1.68	15.58	-83.1	-79.0	2.3	0.00e+00	0	48	104	0	60	1048566
2026-01-18 09:31:43.41	1.47	15.69	-83.5	-79.0	2.4	0.00e+00	0	48	104	0	60	1048572
2026-01-18 09:31:44.41	1.26	15.80	-83.5	-79.0	2.5	0.00e+00	0	49	104	0	60	1048569
2026-01-18 09:31:45.41	1.05	15.91	-83.5	-79.0	2.4	0.00e+00	0	49	104	0	60	1048575
2026-01-18 09:31:46.42	0.84	16.02	-83.1	-79.0	2.4	0.00e+00	0	49	104	0	60	1048572
2026-01-18 09:31:47.42	0.63	16.13	-83.1	-79.0	2.4	0.00e+00	0	48	104	0	60	1048568
2026-01-18 09:31:48.43	0.41	16.24	-83.5	-79.0	2.4	0.00e+00	0	49	104	0	60	1048572
2026-01-18 09:31:49.43	0.19	16.35	-83.5	-79.0	2.4	0.00e+00	0	48	104	0	60	1048575
2026-01-18 09:31:50.44	359.97	16.46	-83.5	-79.0	2.3	0.00e+00	0	48	104	0	60	1048574
2026-01-18 09:31:51.45	359.75	16.57	-83.1	-79.0	2.4	0.00e+00	0	49	104	0	60	1048574
2026-01-18 09:31:52.46	359.52	16.68	-83.5	-79.0	2.4	0.00e+00	0	49	104	0	60	1048575
2026-01-18 09:31:53.46	359.30	16.79	-83.5	-79.0	2.4	0.00e+00	0	49	104	0	60	1048573
2026-01-18 09:31:54.47	359.07	16.90	-83.5	-79.0	2.4	0.00e+00	0	49	104	0	60	1048571
2026-01-18 09:31:55.48	358.84	17.02	-83.1	-79.0	2.4	0.00e+00	0	49	104	0	60	1048573
2026-01-18 09:31:56.49	358.60	17.13	-83.5	-79.0	2.4	0.00e+00	0	49	104	0	60	1048564
2026-01-18 09:31:57.49	358.37	17.24	-83.5	-79.0	2.4	0.00e+00	0	49	104	0	60	1048573
2026-01-18 09:31:58.49	358.14	17.35	-83.5	-79.0	2.4	0.00e+00	0	49	104	0	60	1048574
2026-01-18 09:31:59.50	357.90	17.46	-83.5	-79.0	2.5	0.00e+00	0	49	104	0	60	1048569
2026-01-18 09:32:00.51	357.66	17.58	-82.8	-79.0	2.4	0.00e+00	0	49	104	0	60	1048567
2026-01-18 09:32:01.52	357.41	17.69	-83.5	-79.0	2.5	0.00e+00	0	49	104	0	60	1048573
2026-01-18 09:32:02.53	357.17	17.80	-83.5	-79.0	2.4	0.00e+00	0	49	104	0	60	1048572
2026-01-18 09:32:03.53	356.92	17.92	-83.5	-79.0	2.4	0.00e+00	0	49	104	0	60	1048573
2026-01-18 09:32:04.54	356.67	18.03	-83.1	-79.0	2.4	0.00e+00	0	49	104	0	60	1048573
2026-01-18 09:32:05.55	356.42	18.14	-83.1	-79.0	2.4	0.00e+00	0	48	104	0	60	1048568
2026-01-18 09:32:06.55	356.17	18.26	-83.5	-79.0	2.4	0.00e+00	0	49	104	0	60	1048571
2026-01-18 09:32:07.56	355.91	18.37	-83.5	-79.0	2.4	0.00e+00	0	49	104	0	60	1048568
2026-01-18 09:32:08.57	355.65	18.48	-83.5	-79.0	2.4	0.00e+00	0	48	104	0	60	1048575
2026-01-18 09:32:09.58	355.39	18.60	-83.1	-79.0	2.5	0.00e+00	0	49	104	0	60	1048568
2026-01-18 09:32:10.58	355.13	18.71	-83.5	-79.0	2.4	0.00e+00	0	49	104	0	60	1048574
2026-01-18 09:32:11.59	354.86	18.83	-83.5	-79.0	2.5	0.00e+00	0	49	104	0	60	1048573
2026-01-18 09:32:12.58	354.60	18.94	-83.1	-79.0	2.4	0.00e+00	0	49	104	0	60	1048575
2026-01-18 09:32:13.58	354.33	19.05	-83.1	-79.0	2.5	0.00e+00	0	49	104	0	60	1048566
2026-01-18 09:32:14.58	354.06	19.17	-83.1	-79.0	2.4	0.00e+00	0	49	104	0	60	1048569
2026-01-18 09:32:15.58	353.79	19.28	-83.1	-79.0	2.3	0.00e+00	0	49	104	0	60	1048575
2026-01-18 09:32:16.58	353.52	19.40	-83.5	-79.0	2.4	0.00e+00	0	49	104	0	60	1048574
2026-01-18 09:32:17.59	353.24	19.51	-83.5	-79.0	2.3	0.00e+00	0	49	104	0	60	1048574
2026-01-18 09:32:18.59	352.96	19.62	-83.1	-79.0	2.4	0.00e+00	0	49	104	0	60	1048570
2026-01-18 09:32:19.60	352.67	19.74	-82.8	-79.0	2.4	0.00e+00	0	49	104	0	60	1048570
2026-01-18 09:32:20.61	352.38	19.85	-83.1	-79.0	2.3	0.00e+00	0	49	104	0	60	1048574
2026-01-18 09:32:21.62	352.09	19.97	-83.5	-79.0	2.4	0.00e+00	0	49	104	0	60	1048574
2026-01-18 09:32:22.63	351.80	20.08	-83.5	-79.0	2.3	0.00e+00	0	49	104	0	60	1048574
2026-01-18 09:32:23.64	351.51	20.20	-83.1	-79.0	2.4	0.00e+00	0	49	104	0	60	1048573
2026-01-18 09:32:24.64	351.21	20.31	-83.1	-79.0	2.4	0.00e+00	0	49	104	0	60	1048575
2026-01-18 09:32:25.65	350.91	20.43	-83.1	-79.0	2.3	0.00e+00	0	49	104	0	60	1048567
2026-01-18 09:32:26.66	350.61	20.54	-83.5	-79.0	2.4	0.00e+00	0	49	104	0	60	1048574
2026-01-18 09:32:27.67	350.30	20.66	-83.5	-79.0	2.4	0.00e+00	0	49	104	0	60	1048573
2026-01-18 09:32:28.67	350.00	20.77	-83.1	-79.0	2.4	0.00e+00	0	49	104	0	60	1048562
2026-01-18 09:32:29.68	349.69	20.89	-83.1	-79.0	2.6	0.00e+00	0	49	104	0	60	1048570
2026-01-18 09:32:30.68	349.38	21.00	-83.1	-79.0	2.3	0.00e+00	0	49	104	0	60	1048575
2026-01-18 09:32:31.68	349.07	21.11	-83.5	-79.0	2.4	0.00e+00	0	49	104	0	60	1048573
2026-01-18 09:32:32.69	348.75	21.23	-83.5	-79.0	2.2	0.00e+00	0	49	104	0	60	1048573
2026-01-18 09:32:33.69	348.43	21.34	-83.1	-79.0	2.4	0.00e+00	0	49	104	0	60	1048573
2026-01-18 09:32:34.69	348.11	21.45	-83.1	-79.0	2.3	0.00e+00	0	49	104	0	60	1048565
2026-01-18 09:32:35.70	347.78	21.56	-83.5	-79.0	2.5	0.00e+00	0	49	104	0	60	1048574
2026-01-18 09:32:36.70	347.46	21.68	-83.5	-79.0	2.4	0.00e+00	0	49	104	0	60	1048574
2026-01-18 09:32:37.70	347.13	21.79	-83.1	-79.0	2.5	0.00e+00	0	49	104	0	60	1048573
2026-01-18 09:32:38.71	346.79	21.90	-83.1	-79.0	2.4	0.00e+00	0	49	104	0	60	1048575
2026-01-18 09:32:39.71	346.46	22.01	-83.5	-79.0	2.3	0.00e+00	0	49	104	0	60	1048573
2026-01-18 09:32:40.71	346.12	22.12	-83.5	-79.0	2.4	0.00e+00	0	49	104	0	60	1048575
2026-01-18 09:32:41.72	345.78	22.23	-83.5	-79.0	2.4	0.00e+00	0	49	104	0	60	1048573
2026-01-18 09:32:42.73	345.43	22.34	-83.5	-79.0	2.5	0.00e+00	0	49	104	0	60	1048575
2026-01-18 09:32:43.73	345.09	22.45	-83.1	-79.0	2.4	0.00e+00	0	49	104	0	60	1048574
2026-01-18 09:32:44.74	344.74	22.56	-83.5	-79.0	2.4	0.00e+00	0	49	104	0	60	1048572
2026-01-18 09:32:45.74	344.39	22.67	-83.5	-79.0	2.3	0.00e+00	0	49	104	0	60	1048572
2026-01-18 09:32:46.75	344.03	22.78	-83.5	-79.0	2.3	0.00e+00	0	49	104	0	60	1048575
2026-01-18 09:32:47.75	343.67	22.89	-83.1	-79.0	2.5	0.00e+00	0	49	104	0	60	1048569
2026-01-18 09:32:48.76	343.31	23.00	-83.1	-79.0	2.4	0.00e+00	0	49	104	0	60	1048574
2026-01-18 09:32:49.76	342.95	23.10	-83.5	-79.0	2.3	0.00e+00	0	49	104	0	60	1048574
2026-01-18 09:32:50.77	342.58	23.21	-83.5	-79.0	2.4	0.00e+00	0	49	104	0	60	1048569
2026-01-18 09:32:51.77	342.21	23.31	-83.1	-79.0	2.4	0.00e+00	0	49	104	0	60	1048575
2026-01-18 09:32:52.78	341.84	23.42	-82.8	-79.0	2.3	0.00e+00	0	49	104	0	60	1048569
2026-01-18 09:32:53.78	341.47	23.52	-83.1	-79.0	2.4	0.00e+00	0	49	104	0	60	1048574
2026-01-18 09:32:54.79	341.09	23.63	-83.5	-79.0	2.3	0.00e+00	0	49	104	0	60	1048575
2026-01-18 09:32:55.80	340.70	23.73	-83.5	-79.0	2.3	0.00e+00	0	49	104	0	60	1048572
2026-01-18 09:32:56.81	340.32	23.83	-83.5	-79.0	2.4	0.00e+00	0	49	104	0	60	1048571
2026-01-18 09:32:57.81	339.93	23.94	-83.1	-79.0	2.4	0.00e+00	0	49	104	0	60	1048571
2026-01-18 09:32:58.82	339.54	24.04	-83.5	-79.0	2.4	0.00e+00	0	49	104	0	60	1048570
2026-01-18 09:32:59.82	339.15	24.14	-83.5	-79.0	2.3	0.00e+00	0	49	104	0	60	1048575
2026-01-18 09:33:00.83	338.76	24.23	-83.5	-79.0	2.4	0.00e+00	0	49	104	0	60	1048575
2026-01-18 09:33:01.84	338.36	24.33	-83.1	-79.0	2.4	0.00e+00	0	49	104	0	60	1048571
2026-01-18 09:33:02.84	337.96	24.43	-83.1	-79.0	2.5	0.00e+00	0	49	104	0	60	1048566
2026-01-18 09:33:03.84	337.56	24.53	-83.5	-79.0	2.4	0.00e+00	0	49	104	0	60	1048575
2026-01-18 09:33:04.85	337.15	24.62	-83.5	-79.0	2.4	0.00e+00	0	49	104	0	60	1048572
2026-01-18 09:33:05.85	336.74	24.71	-83.5	-79.0	2.4	0.00e+00	0	49	104	0	60	1048574
2026-01-18 09:33:06.86	336.33	24.81	-83.1	-79.0	2.4	0.00e+00	0	49	104	0	60	1048573
2026-01-18 09:33:07.87	335.92	24.90	-83.5	-79.0	2.4	0.00e+00	0	49	104	0	60	1048575
2026-01-18 09:33:08.88	335.50	24.99	-83.5	-79.0	2.4	0.00e+00	0	49	104	0	60	1048574
2026-01-18 09:33:09.88	335.08	25.08	-83.5	-79.0	2.4	0.00e+00	0	49	104	0	60	1048575
2026-01-18 09:33:10.89	334.66	25.17	-83.5	-79.0	2.4	0.00e+00	0	49	104	0	60	1048575
2026-01-18 09:33:11.90	334.23	25.26	-82.8	-79.0	2.4	0.00e+00	0	49	104	0	60	1048575
2026-01-18 09:33:12.91	333.80	25.34	-83.1	-79.0	2.5	0.00e+00	0	49	104	0	60	1048574
2026-01-18 09:33:13.92	333.37	25.43	-83.5	-79.0	2.4	0.00e+00	0	49	104	0	60	1048574
2026-01-18 09:33:14.93	332.93	25.51	-83.5	-79.0	2.4	0.00e+00	0	49	104	0	60	1048564
2026-01-18 09:33:15.93	332.50	25.59	-83.1	-79.0	2.5	0.00e+00	0	49	104	0	60	1048575
2026-01-18 09:33:16.94	332.06	25.68	-83.1	-79.0	2.5	0.00e+00	0	49	104	0	60	1048575
2026-01-18 09:33:17.95	331.62	25.75	-83.5	-79.0	2.4	0.00e+00	0	49	104	0	60	1048574
2026-01-18 09:33:18.96	331.18	25.83	-83.5	-79.0	2.4	0.00e+00	0	49	104	0	60	1048573
2026-01-18 09:33:19.97	330.73	25.91	-83.5	-79.0	2.3	0.00e+00	0	49	104	0	60	1048574
2026-01-18 09:33:20.97	330.28	25.98	-83.1	-79.0	2.2	0.00e+00	0	49	104	0	60	1048573
2026-01-18 09:33:21.98	329.83	26.06	-83.1	-79.0	2.5	0.00e+00	0	49	104	0	60	1048574
2026-01-18 09:33:22.97	329.39	26.13	-83.5	-79.0	2.3	0.00e+00	0	49	104	0	60	1048575
2026-01-18 09:33:23.98	328.93	26.20	-83.5	-79.0	2.4	0.00e+00	0	49	104	0	60	1048574
2026-01-18 09:33:24.98	328.48	26.27	-83.5	-79.0	2.5	0.00e+00	0	49	104	0	60	1048574
2026-01-18 09:33:25.99	328.02	26.34	-83.1	-79.0	2.3	0.00e+00	0	49	104	0	60	1048574
2026-01-18 09:33:27.00	327.55	26.40	-83.1	-79.0	2.3	0.00e+00	0	49	104	0	60	1048575
2026-01-18 09:33:28.01	327.09	26.46	-83.5	-79.0	2.4	0.00e+00	0	49	104	0	60	1048573
2026-01-18 09:33:29.01	326.63	26.53	-83.5	-79.0	2.3	0.00e+00	0	49	104	0	60	1048575
2026-01-18 09:33:30.02	326.16	26.59	-83.5	-79.0	2.3	0.00e+00	0	49	104	0	60	1048574
2026-01-18 09:33:31.02	325.69	26.65	-83.1	-79.0	2.5	0.00e+00	0	49	104	0	60	1048572
2026-01-18 09:33:32.03	325.22	26.70	-83.5	-79.0	2.5	0.00e+00	0	49	104	0	60	1048573
2026-01-18 09:33:33.04	324.74	26.76	-83.5	-79.0	2.4	0.00e+00	0	49	104	0	60	1048573
2026-01-18 09:33:34.05	324.27	26.81	-83.5	-79.0	2.4	0.00e+00	0	49	104	0	60	1048567
2026-01-18 09:33:35.05	323.80	26.86	-83.1	-79.0	2.3	0.00e+00	0	49	104	0	60	1048570
2026-01-18 09:33:36.06	323.32	26.91	-83.1	-79.0	2.3	0.00e+00	0	49	104	0	60	1048575
2026-01-18 09:33:37.07	322.83	26.96	-83.5	-79.0	2.7	0.00e+00	0	49	104	0	60	1048574
2026-01-18 09:33:38.07	322.36	27.00	-83.5	-79.0	2.2	0.00e+00	0	49	104	0	60	1048571
2026-01-18 09:33:39.07	321.88	27.05	-83.1	-79.0	2.4	0.00e+00	0	49	104	0	60	1048562
2026-01-18 09:33:40.08	321.39	27.09	-83.5	-79.0	2.4	0.00e+00	0	49	104	0	60	1048572
2026-01-18 09:33:41.09	320.90	27.13	-83.5	-79.0	2.4	0.00e+00	0	49	104	0	60	1048574
2026-01-18 09:33:42.09	320.42	27.16	-83.5	-79.0	2.4	0.00e+00	0	49	104	0	60	1048575
2026-01-18 09:33:43.10	319.93	27.20	-83.5	-79.0	2.4	0.00e+00	0	49	104	0	60	1048569
2026-01-18 09:33:44.10	319.44	27.23	-83.5	-79.0	2.4	0.00e+00	0	49	104	0	60	1048573
2026-01-18 09:33:45.11	318.95	27.26	-83.1	-79.0	2.3	0.00e+00	0	49	104	0	60	1048572
2026-01-18 09:33:46.12	318.46	27.29	-83.5	-79.0	2.4	0.00e+00	0	49	104	0	60	1048573
2026-01-18 09:33:47.13	317.96	27.32	-83.5	-79.0	2.4	0.00e+00	0	49	104	0	60	1048571
2026-01-18 09:33:48.14	317.47	27.34	-83.1	-79.0	2.4	0.00e+00	0	49	104	0	60	1048569
2026-01-18 09:33:49.15	316.97	27.37	-83.5	-79.0	2.4	0.00e+00	0	49	104	0	60	1048575
2026-01-18 09:33:50.16	316.48	27.39	-83.1	-79.0	2.4	0.00e+00	0	49	104	0	60	1048570
2026-01-18 09:33:51.17	315.98	27.41	-83.5	-79.0	2.4	0.00e+00	0	49	104	0	60	1048572
2026-01-18 09:33:52.17	315.49	27.42	-83.1	-79.0	2.4	0.00e+00	0	49	104	0	60	1048564
2026-01-18 09:33:53.18	314.99	27.44	-83.5	-79.0	2.4	0.00e+00	0	49	104	0	60	1048574
2026-01-18 09:33:54.18	314.50	27.45	-83.1	-79.0	2.4	0.00e+00	0	49	104	0	60	1048566
2026-01-18 09:33:55.18	314.00	27.46	-82.8	-79.0	2.3	0.00e+00	0	49	104	0	60	1048573
2026-01-18 09:33:56.19	313.50	27.46	-83.5	-79.0	2.4	0.00e+00	0	49	104	0	60	1048575
2026-01-18 09:33:57.20	313.00	27.47	-83.5	-79.0	2.3	0.00e+00	0	49	104	0	60	1048575
2026-01-18 09:33:58.21	312.50	27.47	-83.5	-79.0	2.4	0.00e+00	0	49	104	0	60	1048566
2026-01-18 09:33:59.21	312.01	27.47	-82.8	-79.0	2.4	0.00e+00	0	49	104	0	60	1048575
2026-01-18 09:34:00.22	311.51	27.47	-83.5	-79.0	2.4	0.00e+00	0	49	104	0	60	1048573
2026-01-18 09:34:01.23	311.01	27.47	-83.5	-79.0	2.4	0.00e+00	0	49	104	0	60	1048570
2026-01-18 09:34:02.24	310.51	27.46	-83.5	-79.0	2.4	0.00e+00	0	49	104	0	60	1048572
2026-01-18 09:34:03.24	310.01	27.45	-83.5	-79.0	2.3	0.00e+00	0	49	104	0	60	1048568
2026-01-18 09:34:04.25	309.52	27.44	-83.1	-79.0	2.3	0.00e+00	0	49	104	0	60	1048570
2026-01-18 09:34:05.26	309.02	27.43	-83.5	-79.0	2.4	0.00e+00	0	49	104	0	60	1048575
2026-01-18 09:34:06.27	308.52	27.41	-83.5	-79.0	2.3	0.00e+00	0	49	104	0	60	1048572
2026-01-18 09:34:07.28	308.02	27.40	-83.1	-79.0	2.4	0.00e+00	0	49	104	0	60	1048572
2026-01-18 09:34:08.28	307.53	27.38	-83.1	-79.0	2.4	0.00e+00	0	49	104	0	60	1048572
2026-01-18 09:34:09.29	307.03	27.36	-83.1	-79.0	2.4	0.00e+00	0	49	104	0	60	1048575
2026-01-18 09:34:10.30	306.54	27.33	-83.5	-79.0	2.4	0.00e+00	0	49	104	0	60	1048574
2026-01-18 09:34:11.30	306.05	27.31	-83.5	-79.0	2.3	0.00e+00	0	49	104	0	60	1048574
2026-01-18 09:34:12.31	305.55	27.28	-83.1	-79.0	2.4	0.00e+00	0	49	104	0	60	1048575
2026-01-18 09:34:13.32	305.06	27.25	-83.1	-79.0	2.4	0.00e+00	0	49	104	0	60	1048572
2026-01-18 09:34:14.32	304.57	27.22	-83.5	-79.0	2.4	0.00e+00	0	49	104	0	60	1048574
2026-01-18 09:34:15.32	304.09	27.18	-83.5	-79.0	2.3	0.00e+00	0	49	104	0	60	1048573
2026-01-18 09:34:16.33	303.60	27.15	-83.5	-79.0	2.4	0.00e+00	0	49	104	0	60	1048575
2026-01-18 09:34:17.33	303.11	27.11	-83.5	-79.0	2.4	0.00e+00	0	49	104	0	60	1048575
2026-01-18 09:34:18.34	302.63	27.07	-83.1	-79.0	2.4	0.00e+00	0	49	104	0	60	1048573
2026-01-18 09:34:19.35	302.14	27.03	-83.1	-79.0	2.5	0.00e+00	0	49	104	0	60	1048575
2026-01-18 09:34:20.36	301.66	26.98	-83.5	-79.0	2.4	0.00e+00	0	49	104	0	60	1048569
2026-01-18 09:34:21.36	301.18	26.94	-83.5	-79.0	2.4	0.00e+00	0	49	104	0	60	1048575
2026-01-18 09:34:22.37	300.70	26.89	-83.5	-79.0	2.5	0.00e+00	0	49	104	0	60	1048575
2026-01-18 09:34:23.38	300.22	26.84	-83.1	-79.0	2.4	0.00e+00	0	49	104	0	60	1048574
2026-01-18 09:34:24.39	299.74	26.79	-83.1	-79.0	2.4	0.00e+00	0	49	104	0	60	1048575
2026-01-18 09:34:25.40	299.26	26.73	-83.1	-79.0	2.4	0.00e+00	0	49	104	0	60	1048571
2026-01-18 09:34:26.40	298.79	26.68	-83.5	-79.0	2.4	0.00e+00	0	49	104	0	60	1048575
2026-01-18 09:34:27.41	298.32	26.62	-83.5	-79.0	2.5	0.00e+00	0	49	104	0	60	1048575
2026-01-18 09:34:28.42	297.85	26.56	-83.1	-79.0	2.3	0.00e+00	0	49	104	0	60	1048570
2026-01-18 09:34:29.42	297.39	26.50	-83.5	-79.0	2.4	0.00e+00	0	49	104	0	60	1048574
2026-01-18 09:34:30.43	296.92	26.43	-83.5	-79.0	2.4	0.00e+00	0	49	104	0	60	1048572
2026-01-18 09:34:31.43	296.46	26.37	-83.5	-79.0	2.3	0.00e+00	0	49	104	0	60	1048573
2026-01-18 09:34:32.43	296.00	26.30	-82.8	-79.0	2.5	0.00e+00	0	49	104	0	60	1048572
2026-01-18 09:34:33.44	295.54	26.24	-83.1	-79.0	2.4	0.00e+00	0	49	104	0	60	1048575
2026-01-18 09:34:34.45	295.08	26.17	-83.5	-79.0	2.4	0.00e+00	0	49	104	0	60	1048570
2026-01-18 09:34:35.46	294.63	26.09	-83.5	-79.0	2.4	0.00e+00	0	49	104	0	60	1048573
2026-01-18 09:34:36.47	294.17	26.02	-83.1	-79.0	2.4	0.00e+00	0	49	104	0	60	1048569
2026-01-18 09:34:37.48	293.72	25.95	-83.1	-79.0	2.4	0.00e+00	0	49	104	0	60	1048575
2026-01-18 09:34:38.48	293.28	25.87	-83.1	-79.0	2.4	0.00e+00	0	49	104	0	60	1048572
2026-01-18 09:34:39.49	292.83	25.79	-83.5	-79.0	2.4	0.00e+00	0	49	104	0	60	1048575
2026-01-18 09:34:40.50	292.39	25.71	-83.5	-79.0	2.4	0.00e+00	0	49	104	0	60	1048573
2026-01-18 09:34:41.51	291.95	25.63	-83.5	-79.0	2.4	0.00e+00	0	49	104	0	60	1048575
2026-01-18 09:34:42.52	291.51	25.55	-83.1	-79.0	2.4	0.00e+00	0	49	104	0	60	1048574
2026-01-18 09:34:43.52	291.07	25.47	-83.5	-79.0	2.3	0.00e+00	0	49	104	0	60	1048575
2026-01-18 09:34:44.53	290.64	25.38	-83.5	-79.0	2.3	0.00e+00	0	49	104	0	60	1048574
2026-01-18 09:34:45.54	290.21	25.30	-83.1	-79.0	2.3	0.00e+00	0	49	104	0	60	1048569
2026-01-18 09:34:46.54	289.78	25.21	-83.1	-79.0	2.4	0.00e+00	0	49	104	0	60	1048572
2026-01-18 09:34:47.55	289.36	25.12	-83.5	-79.0	2.4	0.00e+00	0	49	104	0	60	1048573
2026-01-18 09:34:48.56	288.93	25.03	-83.5	-79.0	2.4	0.00e+00	0	49	104	0	60	1048568
2026-01-18 09:34:49.57	288.51	24.94	-83.5	-79.0	2.4	0.00e+00	0	49	104	0	60	1048575
2026-01-18 09:34:50.57	288.10	24.85	-83.5	-79.0	2.4	0.00e+00	0	49	104	0	60	1048574
2026-01-18 09:34:51.58	287.68	24.76	-83.1	-79.0	2.3	0.00e+00	0	49	104	0	60	1048575
2026-01-18 09:34:52.59	287.27	24.66	-83.1	-79.0	2.4	0.00e+00	0	49	104	0	60	1048573
2026-01-18 09:34:53.60	286.86	24.57	-83.5	-79.0	2.3	0.00e+00	0	49	104	0	60	1048575
2026-01-18 09:34:54.60	286.46	24.47	-83.5	-79.0	2.5	0.00e+00	0	49	104	0	60	1048572
2026-01-18 09:34:55.61	286.05	24.38	-83.5	-79.0	2.4	0.00e+00	0	49	104	0	60	1048575
2026-01-18 09:34:56.62	285.65	24.28	-83.1	-79.0	2.3	0.00e+00	0	49	104	0	60	1048575
2026-01-18 09:34:57.63	285.25	24.18	-83.5	-79.0	2.5	0.00e+00	0	49	104	0	60	1048574
2026-01-18 09:34:58.64	284.85	24.08	-83.1	-79.0	2.4	0.00e+00	0	49	104	0	60	1048573
2026-01-18 09:34:59.65	284.46	23.98	-83.5	-79.0	2.8	0.00e+00	0	49	104	0	60	1048575
2026-01-18 09:35:00.65	284.07	23.88	-83.5	-79.0	2.5	0.00e+00	0	49	104	0	60	1048575
2026-01-18 09:35:01.66	283.69	23.77	-83.1	-79.0	2.4	0.00e+00	0	49	104	0	60	1048575
2026-01-18 09:35:02.66	283.30	23.67	-83.1	-79.0	2.4	0.00e+00	0	49	104	0	60	1048573
2026-01-18 09:35:03.67	282.92	23.57	-83.5	-79.0	2.4	0.00e+00	0	49	104	0	60	1048568
2026-01-18 09:35:04.68	282.54	23.46	-83.5	-79.0	2.4	0.00e+00	0	49	104	0	60	1048570
2026-01-18 09:35:05.68	282.17	23.36	-82.8	-79.0	2.3	0.00e+00	0	49	104	0	60	1048572
2026-01-18 09:35:06.69	281.80	23.25	-83.1	-79.0	2.4	0.00e+00	0	49	104	0	60	1048571
2026-01-18 09:35:07.70	281.43	23.15	-83.5	-79.0	2.4	0.00e+00	0	49	104	0	60	1048572
2026-01-18 09:35:08.71	281.06	23.04	-83.5	-79.0	2.4	0.00e+00	0	49	104	0	60	1048571
2026-01-18 09:35:09.71	280.70	22.93	-83.5	-79.0	2.3	0.00e+00	0	49	104	0	60	1048575
2026-01-18 09:35:10.73	280.33	22.82	-83.1	-79.0	2.3	0.00e+00	0	49	104	0	60	1048575
2026-01-18 09:35:11.74	279.97	22.71	-83.1	-79.0	2.3	0.00e+00	0	49	104	0	60	1048575
2026-01-18 09:35:12.74	279.62	22.60	-83.5	-79.0	2.4	0.00e+00	0	49	104	0	60	1048568
2026-01-18 09:35:13.75	279.26	22.49	-83.5	-79.0	2.4	0.00e+00	0	49	104	0	60	1048572
2026-01-18 09:35:14.76	278.91	22.38	-83.1	-79.0	2.4	0.00e+00	0	49	104	0	60	1048573
2026-01-18 09:35:15.77	278.57	22.27	-83.1	-79.0	2.3	0.00e+00	0	49	104	0	60	1048575
2026-01-18 09:35:16.77	278.22	22.16	-83.5	-79.0	2.4	0.00e+00	0	49	104	0	60	1048569
2026-01-18 09:35:17.78	277.88	22.05	-83.5	-79.0	2.2	0.00e+00	0	49	104	0	60	1048564
2026-01-18 09:35:18.78	277.54	21.94	-83.5	-79.0	2.4	0.00e+00	0	49	104	0	60	1048567
2026-01-18 09:35:19.79	277.21	21.83	-83.5	-79.0	2.4	0.00e+00	0	49	104	0	60	1048573
2026-01-18 09:35:20.79	276.88	21.71	-83.5	-79.0	2.5	0.00e+00	0	49	104	0	60	1048573
2026-01-18 09:35:21.80	276.54	21.60	-83.5	-79.0	2.4	0.00e+00	0	49	104	0	60	1048574
2026-01-18 09:35:22.81	276.22	21.49	-83.5	-79.0	2.4	0.00e+00	0	49	104	0	60	1048574
2026-01-18 09:35:23.82	275.89	21.37	-83.5	-79.0	2.4	0.00e+00	0	49	104	0	60	1048575
2026-01-18 09:35:24.82	275.57	21.26	-83.1	-79.0	2.4	0.00e+00	0	49	104	0	60	1048574
2026-01-18 09:35:25.83	275.25	21.15	-83.1	-79.0	2.4	0.00e+00	0	49	104	0	60	1048573
2026-01-18 09:35:26.84	274.93	21.03	-83.5	-79.0	2.4	0.00e+00	0	49	104	0	60	1048573
2026-01-18 09:35:27.85	274.61	20.92	-83.5	-79.0	2.4	0.00e+00	0	49	104	0	60	1048570
2026-01-18 09:35:28.85	274.31	20.80	-83.5	-79.0	2.4	0.00e+00	0	49	104	0	60	1048575
2026-01-18 09:35:29.86	274.00	20.69	-83.1	-79.0	2.5	0.00e+00	0	49	104	0	60	1048572
2026-01-18 09:35:30.87	273.69	20.57	-83.5	-79.0	2.4	0.00e+00	0	49	104	0	60	1048570
2026-01-18 09:35:31.88	273.38	20.46	-83.1	-79.0	2.4	0.00e+00	0	49	104	0	60	1048574
2026-01-18 09:35:32.89	273.08	20.34	-83.5	-79.0	2.7	0.00e+00	0	49	104	0	60	1048573
2026-01-18 09:35:33.89	272.78	20.23	-83.1	-79.0	2.5	0.00e+00	0	49	104	0	60	1048573
2026-01-18 09:35:34.90	272.49	20.11	-83.1	-79.0	2.4	0.00e+00	0	49	104	0	60	1048575
2026-01-18 09:35:35.91	272.19	20.00	-83.5	-79.0	2.4	0.00e+00	0	49	104	0	60	1048569
2026-01-18 09:35:36.92	271.90	19.88	-83.5	-79.0	2.5	0.00e+00	0	49	104	0	60	1048575
2026-01-18 09:35:37.93	271.61	19.77	-83.5	-79.0	2.4	0.00e+00	0	49	104	0	60	1048575
2026-01-18 09:35:38.93	271.33	19.65	-82.8	-79.0	2.5	0.00e+00	0	49	104	0	60	1048568
2026-01-18 09:35:39.94	271.04	19.54	-83.5	-79.0	2.4	0.00e+00	0	49	104	0	60	1048573
2026-01-18 09:35:40.95	270.76	19.42	-83.5	-79.0	2.4	0.00e+00	0	49	104	0	60	1048575
2026-01-18 09:35:41.96	270.48	19.30	-83.5	-79.0	2.4	0.00e+00	0	49	104	0	60	1048575
2026-01-18 09:35:42.97	270.20	19.19	-83.5	-79.0	2.4	0.00e+00	0	49	104	0	60	1048575
2026-01-18 09:35:43.97	269.93	19.07	-83.1	-79.0	2.4	0.00e+00	0	49	104	0	60	1048575
2026-01-18 09:35:44.98	269.66	18.96	-83.5	-79.0	2.4	0.00e+00	0	49	104	0	60	1048574
2026-01-18 09:35:45.99	269.39	18.84	-83.1	-79.0	2.4	0.00e+00	0	49	104	0	60	1048573
2026-01-18 09:35:47.00	269.12	18.73	-83.5	-79.0	2.4	0.00e+00	0	49	104	0	60	1048574
2026-01-18 09:35:48.00	268.86	18.61	-83.1	-79.0	2.3	0.00e+00	0	49	104	0	60	1048570
2026-01-18 09:35:49.01	268.59	18.50	-83.1	-79.0	2.6	0.00e+00	0	49	104	0	60	1048575
2026-01-18 09:35:50.02	268.33	18.38	-83.5	-79.0	2.2	0.00e+00	0	49	104	0	60	1048575
2026-01-18 09:35:51.03	268.08	18.27	-83.5	-79.0	2.3	0.00e+00	0	49	104	0	60	1048575
2026-01-18 09:35:52.04	267.82	18.16	-83.1	-79.0	2.5	0.00e+00	0	49	104	0	60	1048568
2026-01-18 09:35:53.04	267.57	18.04	-83.1	-79.0	2.3	0.00e+00	0	49	104	0	60	1048573
2026-01-18 09:35:54.05	267.32	17.93	-83.1	-79.0	2.4	0.00e+00	0	49	104	0	60	1048572
2026-01-18 09:35:55.05	267.07	17.81	-83.5	-79.0	2.5	0.00e+00	0	49	104	0	60	1048575
2026-01-18 09:35:56.06	266.82	17.70	-83.5	-79.0	2.4	0.00e+00	0	49	104	0	60	1048575
2026-01-18 09:35:57.07	266.58	17.59	-83.5	-79.0	2.4	0.00e+00	0	49	104	0	60	1048575
2026-01-18 09:35:58.08	266.33	17.47	-83.1	-79.0	2.4	0.00e+00	0	49	104	0	60	1048575
2026-01-18 09:35:59.09	266.09	17.36	-83.1	-79.0	2.4	0.00e+00	0	49	104	0	60	1048565
2026-01-18 09:36:00.09	265.86	17.25	-83.5	-79.0	2.5	0.00e+00	0	49	104	0	60	1048575
2026-01-18 09:36:01.10	265.62	17.13	-83.5	-79.0	2.4	0.00e+00	0	49	104	0	60	1048573
2026-01-18 09:36:02.10	265.39	17.02	-83.5	-79.0	2.4	0.00e+00	0	49	104	0	60	1048569
2026-01-18 09:36:03.11	265.15	16.91	-83.1	-79.0	2.6	0.00e+00	0	49	104	0	60	1048568
2026-01-18 09:36:04.12	264.92	16.80	-83.1	-79.0	2.3	0.00e+00	0	49	104	0	60	1048572
2026-01-18 09:36:05.13	264.69	16.69	-83.1	-79.0	2.5	0.00e+00	0	49	104	0	60	1048574
2026-01-18 09:36:06.13	264.47	16.58	-83.5	-79.0	2.4	0.00e+00	0	49	104	0	60	1048572
2026-01-18 09:36:07.14	264.24	16.46	-83.1	-79.0	2.6	0.00e+00	0	49	104	0	60	1048573
2026-01-18 09:36:08.15	264.02	16.35	-83.1	-79.0	2.3	0.00e+00	0	49	104	0	60	1048573
2026-01-18 09:36:09.15	263.80	16.24	-83.5	-79.0	2.5	0.00e+00	0	49	104	0	60	1048575
2026-01-18 09:36:10.16	263.58	16.13	-83.1	-79.0	2.4	0.00e+00	0	49	104	0	60	1048574
2026-01-18 09:36:11.17	263.37	16.02	-83.5	-79.0	2.4	0.00e+00	0	49	104	0	60	1048575
2026-01-18 09:36:12.17	263.15	15.91	-82.8	-79.0	2.4	0.00e+00	0	49	104	0	60	1048575
2026-01-18 09:36:13.18	262.94	15.80	-83.1	-79.0	2.4	0.00e+00	0	49	104	0	60	1048574
2026-01-18 09:36:14.18	262.73	15.69	-83.5	-79.0	2.5	0.00e+00	0	49	104	0	60	1048573
2026-01-18 09:36:15.19	262.52	15.58	-83.1	-79.0	2.4	0.00e+00	0	49	104	0	60	1048575
2026-01-18 09:36:16.20	262.31	15.48	-83.5	-79.0	2.4	0.00e+00	0	49	104	0	60	1048557
2026-01-18 09:36:17.20	262.11	15.37	-83.1	-79.0	2.3	0.00e+00	0	49	104	0	60	1048573
2026-01-18 09:36:18.21	261.90	15.26	-83.5	-79.0	2.4	0.00e+00	0	49	104	0	60	1048562
2026-01-18 09:36:19.22	261.70	15.15	-83.5	-79.0	2.4	0.00e+00	0	49	104	0	60	1048575
2026-01-18 09:36:20.23	261.50	15.04	-83.5	-79.0	2.5	0.00e+00	0	49	104	0	60	1048571
2026-01-18 09:36:21.24	261.30	14.94	-83.5	-79.0	2.4	0.00e+00	0	49	104	0	60	1048568
2026-01-18 09:36:22.25	261.10	14.83	-83.1	-79.0	2.4	0.00e+00	0	49	104	0	60	1048575
2026-01-18 09:36:23.26	260.91	14.72	-83.5	-79.0	2.6	0.00e+00	0	49	104	0	60	1048575
2026-01-18 09:36:24.26	260.72	14.62	-83.5	-79.0	2.3	0.00e+00	0	49	104	0	60	1048572
2026-01-18 09:36:25.27	260.52	14.51	-83.1	-79.0	2.3	0.00e+00	0	49	104	0	60	1048574
2026-01-18 09:36:26.27	260.34	14.40	-83.1	-79.0	2.4	0.00e+00	0	49	104	0	60	1048575
2026-01-18 09:36:27.28	260.15	14.30	-83.1	-79.0	2.3	0.00e+00	0	49	104	0	60	1048574
2026-01-18 09:36:28.29	259.96	14.19	-83.5	-79.0	2.4	0.00e+00	0	49	104	0	60	1048574
2026-01-18 09:36:29.29	259.77	14.09	-83.5	-79.0	2.5	0.00e+00	0	49	104	0	60	1048575
2026-01-18 09:36:30.30	259.59	13.98	-83.5	-79.0	2.5	0.00e+00	0	49	104	0	60	1048575
2026-01-18 09:36:31.31	259.41	13.88	-83.1	-79.0	2.4	0.00e+00	0	49	104	0	60	1048572
2026-01-18 09:36:32.32	259.23	13.78	-83.1	-79.0	2.3	0.00e+00	0	49	104	0	60	1048575
2026-01-18 09:36:33.32	259.05	13.67	-83.1	-79.0	2.4	0.00e+00	0	49	104	0	60	1048574
2026-01-18 09:36:34.33	258.87	13.57	-83.5	-79.0	2.4	0.00e+00	0	49	104	0	60	1048569
2026-01-18 09:36:35.34	258.69	13.47	-83.5	-79.0	2.5	0.00e+00	0	49	104	0	60	1048575
2026-01-18 09:36:36.35	258.52	13.36	-83.1	-79.0	2.4	0.00e+00	0	49	104	0	60	1048572
2026-01-18 09:36:37.36	258.34	13.26	-83.5	-79.0	2.4	0.00e+00	0	49	104	0	60	1048575
2026-01-18 09:36:38.37	258.17	13.16	-83.1	-79.0	2.3	0.00e+00	0	49	104	0	60	1048564
2026-01-18 09:36:39.37	258.00	13.06	-83.5	-79.0	2.4	0.00e+00	0	49	104	0	60	1048573
2026-01-18 09:36:40.38	257.83	12.96	-83.5	-79.0	2.4	0.00e+00	0	49	104	0	60	1048570
2026-01-18 09:36:41.39	257.66	12.86	-83.5	-79.0	2.4	0.00e+00	0	49	104	0	60	1048574
2026-01-18 09:36:42.40	257.50	12.76	-83.5	-79.0	2.3	0.00e+00	0	49	104	0	60	1048575
2026-01-18 09:36:43.40	257.33	12.66	-83.5	-79.0	2.4	0.00e+00	0	49	104	0	60	1048575
2026-01-18 09:36:44.41	257.17	12.56	-82.8	-79.0	2.4	0.00e+00	0	49	104	0	60	1048574
2026-01-18 09:36:45.42	257.01	12.46	-82.8	-79.0	2.4	0.00e+00	0	49	104	0	60	1048571
2026-01-18 09:36:46.43	256.85	12.36	-83.1	-79.0	2.3	0.00e+00	0	49	104	0	60	1048569
2026-01-18 09:36:47.43	256.69	12.26	-83.5	-79.0	2.3	0.00e+00	0	49	104	0	60	1048574
2026-01-18 09:36:48.44	256.53	12.16	-83.5	-79.0	2.5	0.00e+00	0	49	104	0	60	1048573
2026-01-18 09:36:49.45	256.37	12.06	-83.5	-79.0	2.4	0.00e+00	0	49	104	0	60	1048567
2026-01-18 09:36:50.46	256.22	11.96	-83.1	-79.0	2.3	0.00e+00	0	49	104	0	60	1048575
2026-01-18 09:36:51.47	256.06	11.87	-83.5	-79.0	2.4	0.00e+00	0	49	104	0	60	1048571
2026-01-18 09:36:52.47	255.91	11.77	-83.5	-79.0	2.5	0.00e+00	0	49	104	0	60	1048575
2026-01-18 09:36:53.48	255.76	11.67	-83.5	-79.0	2.4	0.00e+00	0	49	104	0	60	1048574
2026-01-18 09:36:54.49	255.60	11.57	-83.5	-79.0	2.5	0.00e+00	0	49	104	0	60	1048574
2026-01-18 09:36:55.50	255.45	11.48	-83.1	-79.0	2.4	0.00e+00	0	49	104	0	60	1048575
2026-01-18 09:36:56.51	255.31	11.38	-83.5	-79.0	2.5	0.00e+00	0	49	104	0	60	1048569
2026-01-18 09:36:57.52	255.16	11.29	-83.5	-79.0	2.3	0.00e+00	0	49	104	0	60	1048572
2026-01-18 09:36:58.53	255.01	11.19	-83.5	-79.0	2.4	0.00e+00	0	49	104	0	60	1048573
2026-01-18 09:36:59.53	254.87	11.10	-83.1	-79.0	2.4	0.00e+00	0	49	104	0	60	1048575
2026-01-18 09:37:00.53	254.73	11.00	-83.1	-79.0	2.4	0.00e+00	0	49	104	0	60	1048574
2026-01-18 09:37:01.54	254.58	10.91	-83.5	-79.0	2.3	0.00e+00	0	49	104	0	60	1048573
2026-01-18 09:37:02.55	254.44	10.81	-83.1	-79.0	2.1	0.00e+00	0	49	104	0	60	1048574
2026-01-18 09:37:03.55	254.30	10.72	-83.5	-79.0	2.4	0.00e+00	0	49	104	0	60	1048573
2026-01-18 09:37:04.56	254.16	10.63	-83.1	-79.0	2.4	0.00e+00	0	49	104	0	60	1048572
2026-01-18 09:37:05.57	254.02	10.53	-83.5	-79.0	2.4	0.00e+00	0	49	104	0	60	1048575
2026-01-18 09:37:06.58	253.89	10.44	-83.5	-79.0	2.4	0.00e+00	0	49	104	0	60	1048575
2026-01-18 09:37:07.59	253.75	10.35	-83.5	-79.0	2.4	0.00e+00	0	49	104	0	60	1048572
2026-01-18 09:37:08.59	253.62	10.26	-83.1	-79.0	2.4	0.00e+00	0	49	104	0	60	1048575
2026-01-18 09:37:09.60	253.48	10.17	-83.1	-79.0	2.4	0.00e+00	0	49	104	0	60	1048575
2026-01-18 09:37:10.61	253.35	10.07	-83.5	-79.0	2.4	0.00e+00	0	49	104	0	60	1048572
2026-01-18 09:37:11.61	253.22	9.98	-83.5	-79.0	2.4	0.00e+00	0	49	104	0	60	1048571
2026-01-18 09:37:12.62	253.09	9.89	-83.1	-79.0	2.4	0.00e+00	0	49	104	0	60	1048573
2026-01-18 09:37:13.63	252.96	9.80	-83.5	-79.0	2.7	0.00e+00	0	49	104	0	60	1048571
2026-01-18 09:37:14.64	252.83	9.71	-83.1	-79.0	2.4	0.00e+00	0	49	104	0	60	1048575
2026-01-18 09:37:15.65	252.70	9.62	-83.5	-79.0	2.4	0.00e+00	0	49	104	0	60	1048571
2026-01-18 09:37:16.65	252.57	9.53	-83.5	-79.0	2.4	0.00e+00	0	49	104	0	60	1048568
2026-01-18 09:37:17.65	252.45	9.45	-83.5	-79.0	2.4	0.00e+00	0	49	104	0	60	1048575
2026-01-18 09:37:18.66	252.32	9.36	-82.8	-79.0	2.4	0.00e+00	0	49	104	0	60	1048575
2026-01-18 09:37:19.67	252.20	9.27	-83.1	-79.0	2.4	0.00e+00	0	49	104	0	60	1048574
2026-01-18 09:37:20.68	252.08	9.18	-83.5	-79.0	2.3	0.00e+00	0	49	104	0	60	1048575
2026-01-18 09:37:21.69	251.95	9.09	-83.5	-79.0	2.4	0.00e+00	0	49	104	0	60	1048571
2026-01-18 09:37:22.69	251.83	9.00	-83.5	-79.0	2.4	0.00e+00	0	49	104	0	60	1048573
2026-01-18 09:37:23.70	251.71	8.92	-83.1	-79.0	2.4	0.00e+00	0	49	104	0	60	1048574
2026-01-18 09:37:24.71	251.59	8.83	-83.1	-79.0	2.5	0.00e+00	0	49	104	0	60	1048575
2026-01-18 09:37:25.71	251.47	8.74	-83.5	-79.0	2.4	0.00e+00	0	49	104	0	60	1048572
2026-01-18 09:37:26.72	251.36	8.66	-83.5	-79.0	2.4	0.00e+00	0	49	104	0	60	1048563
2026-01-18 09:37:27.73	251.24	8.57	-83.5	-79.0	2.3	0.00e+00	0	49	104	0	60	1048572
2026-01-18 09:37:28.74	251.12	8.48	-83.1	-79.0	2.4	0.00e+00	0	49	104	0	60	1048572
2026-01-18 09:37:29.74	251.01	8.40	-83.5	-79.0	2.6	0.00e+00	0	49	104	0	60	1048570
2026-01-18 09:37:30.74	250.90	8.31	-83.1	-79.0	2.1	0.00e+00	0	49	104	0	60	1048572
2026-01-18 09:37:31.75	250.78	8.23	-83.1	-79.0	2.4	0.00e+00	0	49	104	0	60	1048573
2026-01-18 09:37:32.76	250.67	8.14	-83.5	-79.0	2.3	0.00e+00	0	49	104	0	60	1048575
2026-01-18 09:37:33.76	250.56	8.06	-83.1	-79.0	2.4	0.00e+00	0	49	104	0	60	1048574
2026-01-18 09:37:34.77	250.45	7.98	-83.5	-79.0	2.5	0.00e+00	0	49	104	0	60	1048574
2026-01-18 09:37:35.78	250.34	7.89	-83.5	-79.0	2.5	0.00e+00	0	49	104	0	60	1048574
2026-01-18 09:37:36.78	250.23	7.81	-83.5	-79.0	2.4	0.00e+00	0	49	104	0	60	1048574
2026-01-18 09:37:37.79	250.12	7.73	-83.1	-79.0	2.4	0.00e+00	0	49	104	0	60	1048571
2026-01-18 09:37:38.79	250.01	7.64	-83.5	-79.0	2.4	0.00e+00	0	49	104	0	60	1048561
2026-01-18 09:37:39.80	249.91	7.56	-83.5	-79.0	2.4	0.00e+00	0	49	104	0	60	1048573
2026-01-18 09:37:40.81	249.80	7.48	-83.5	-79.0	2.4	0.00e+00	0	49	104	0	60	1048570
2026-01-18 09:37:41.82	249.69	7.40	-83.1	-79.0	2.5	0.00e+00	0	49	104	0	60	1048568
2026-01-18 09:37:42.83	249.59	7.31	-83.1	-79.0	2.3	0.00e+00	0	49	104	0	60	1048575
2026-01-18 09:37:43.83	249.49	7.23	-83.1	-79.0	2.5	0.00e+00	0	49	104	0	60	1048575
2026-01-18 09:37:44.84	249.38	7.15	-83.1	-79.0	2.5	0.00e+00	0	49	104	0	60	1048572
2026-01-18 09:37:45.85	249.28	7.07	-83.5	-79.0	2.4	0.00e+00	0	49	104	0	60	1048572
2026-01-18 09:37:46.85	249.18	6.99	-83.5	-79.0	2.4	0.00e+00	0	49	104	0	60	1048575
2026-01-18 09:37:47.86	249.08	6.91	-83.1	-79.0	2.5	0.00e+00	0	49	104	0	60	1048575
2026-01-18 09:37:48.86	248.98	6.83	-83.5	-79.0	2.4	0.00e+00	0	49	104	0	60	1048575
2026-01-18 09:37:49.87	248.88	6.75	-83.1	-79.0	2.4	0.00e+00	0	49	104	0	60	1048569
2026-01-18 09:37:50.88	248.78	6.67	-83.5	-79.0	2.5	0.00e+00	0	49	104	0	60	1048565
2026-01-18 09:37:51.89	248.68	6.59	-83.1	-79.0	2.4	0.00e+00	0	49	104	0	60	1048574
2026-01-18 09:37:52.90	248.58	6.51	-83.1	-79.0	2.5	0.00e+00	0	49	104	0	60	1048572
2026-01-18 09:37:53.91	248.49	6.43	-83.5	-79.0	2.5	0.00e+00	0	49	104	0	60	1048573
2026-01-18 09:37:54.91	248.39	6.35	-83.5	-79.0	2.4	0.00e+00	0	49	104	0	60	1048574
2026-01-18 09:37:55.93	248.30	6.27	-83.5	-79.0	2.5	0.00e+00	0	49	104	0	60	1048575
2026-01-18 09:37:56.93	248.20	6.20	-83.1	-79.0	2.3	0.00e+00	0	49	104	0	60	1048575
2026-01-18 09:37:57.95	248.11	6.12	-83.1	-79.0	2.4	0.00e+00	0	49	104	0	60	1048575
2026-01-18 09:37:58.96	248.01	6.04	-83.5	-79.0	2.4	0.00e+00	0	49	104	0	60	1048575
2026-01-18 09:37:59.96	247.92	5.96	-83.5	-79.0	2.4	0.00e+00	0	49	104	0	60	1048575
2026-01-18 09:38:00.97	247.83	5.88	-83.5	-79.0	2.5	0.00e+00	0	49	104	0	60	1048571
2026-01-18 09:38:01.97	247.74	5.81	-83.1	-79.0	2.3	0.00e+00	0	49	104	0	60	1048571
2026-01-18 09:38:02.98	247.65	5.73	-83.5	-79.0	2.4	0.00e+00	0	49	104	0	60	1048572
2026-01-18 09:38:03.99	247.56	5.65	-83.5	-79.0	2.4	0.00e+00	0	49	104	0	60	1048570
2026-01-18 09:38:05.00	247.47	5.58	-83.5	-79.0	2.2	0.00e+00	0	49	104	0	60	1048575
2026-01-18 09:38:06.01	247.38	5.50	-83.1	-79.0	2.4	0.00e+00	0	49	104	0	60	1048574
2026-01-18 09:38:07.01	247.29	5.43	-83.1	-79.0	2.4	0.00e+00	0	49	104	0	60	1048572
2026-01-18 09:38:08.02	247.20	5.35	-83.5	-79.0	2.4	0.00e+00	0	49	104	0	60	1048572
2026-01-18 09:38:09.03	247.11	5.27	-83.5	-79.0	2.4	0.00e+00	0	49	104	0	60	1048575
2026-01-18 09:38:10.03	247.03	5.20	-83.5	-79.0	2.4	0.00e+00	0	49	104	0	60	1048575
2026-01-18 09:38:11.04	246.94	5.12	-83.1	-79.0	2.5	0.00e+00	0	49	104	0	60	1048575
2026-01-18 09:38:12.05	246.85	5.05	-83.5	-79.0	2.3	0.00e+00	0	49	104	0	60	1048572
2026-01-18 09:38:13.06	246.77	4.98	-83.5	-79.0	2.5	0.00e+00	0	49	104	0	60	1048575
2026-01-18 09:38:14.07	246.68	4.90	-83.5	-79.0	2.3	0.00e+00	0	49	104	0	60	1048572
2026-01-18 09:38:15.07	246.60	4.83	-83.5	-79.0	2.4	0.00e+00	0	49	104	0	60	1048573
2026-01-18 09:38:16.08	246.52	4.75	-82.8	-79.0	2.4	0.00e+00	0	49	104	0	60	1048575
2026-01-18 09:38:17.09	246.43	4.68	-83.1	-79.0	2.4	0.00e+00	0	49	104	0	60	1048569
2026-01-18 09:38:18.10	246.35	4.61	-82.8	-79.0	2.4	0.00e+00	0	49	104	0	60	1048575
2026-01-18 09:38:19.11	246.27	4.53	-83.5	-79.0	2.5	0.00e+00	0	49	104	0	60	1048573
2026-01-18 09:38:20.11	246.19	4.46	-83.1	-79.0	2.5	0.00e+00	0	49	104	0	60	1048574
2026-01-18 09:38:21.12	246.11	4.39	-83.1	-79.0	2.4	0.00e+00	0	49	104	0	60	1048573
2026-01-18 09:38:22.13	246.03	4.31	-83.5	-79.0	2.2	0.00e+00	0	49	104	0	60	1048575
2026-01-18 09:38:23.13	245.95	4.24	-83.5	-79.0	2.4	0.00e+00	0	49	104	0	60	1048565
2026-01-18 09:38:24.13	245.87	4.17	-83.5	-79.0	2.4	0.00e+00	0	49	104	0	60	1048564
2026-01-18 09:38:25.14	245.79	4.10	-83.1	-79.0	2.4	0.00e+00	0	49	104	0	60	1048573
2026-01-18 09:38:26.15	245.71	4.03	-83.5	-79.0	2.3	0.00e+00	0	49	104	0	60	1048568
2026-01-18 09:38:27.15	245.64	3.96	-83.5	-79.0	2.5	0.00e+00	0	49	104	0	60	1048575
2026-01-18 09:38:28.16	245.56	3.89	-83.5	-79.0	2.3	0.00e+00	0	49	104	0	60	1048571
2026-01-18 09:38:29.17	245.48	3.81	-83.5	-79.0	2.4	0.00e+00	0	49	104	0	60	1048570
2026-01-18 09:38:30.17	245.41	3.74	-83.1	-79.0	2.3	0.00e+00	0	49	104	0	60	1048575
2026-01-18 09:38:31.18	245.33	3.67	-83.1	-79.0	2.4	0.00e+00	0	49	104	0	60	1048574
2026-01-18 09:38:32.19	245.26	3.60	-83.5	-79.0	2.4	0.00e+00	0	49	104	0	60	1048571
2026-01-18 09:38:33.20	245.18	3.53	-83.5	-79.0	2.3	0.00e+00	0	49	104	0	60	1048567
2026-01-18 09:38:34.20	245.11	3.46	-83.5	-79.0	2.3	0.00e+00	0	49	104	0	60	1048574
2026-01-18 09:38:35.21	245.03	3.39	-82.8	-79.0	2.4	0.00e+00	0	49	104	0	60	1048572
2026-01-18 09:38:36.22	244.96	3.32	-83.5	-79.0	2.7	0.00e+00	0	49	104	0	60	1048574
2026-01-18 09:38:37.22	244.89	3.25	-83.5	-79.0	2.4	0.00e+00	0	49	104	0	60	1048571
2026-01-18 09:38:38.23	244.82	3.18	-83.1	-79.0	2.5	0.00e+00	0	49	104	0	60	1048575
2026-01-18 09:38:39.23	244.74	3.12	-83.1	-79.0	2.2	0.00e+00	0	49	104	0	60	1048575
2026-01-18 09:38:40.23	244.67	3.05	-83.1	-79.0	2.4	0.00e+00	0	49	104	0	60	1048572
2026-01-18 09:38:41.24	244.60	2.98	-83.5	-79.0	2.3	0.00e+00	0	49	104	0	60	1048573
2026-01-18 09:38:42.25	244.53	2.91	-83.5	-79.0	2.3	0.00e+00	0	49	104	0	60	1048575
2026-01-18 09:38:43.25	244.46	2.84	-83.5	-79.0	2.4	0.00e+00	0	49	104	0	60	1048575
2026-01-18 09:38:44.26	244.39	2.77	-83.5	-79.0	2.3	0.00e+00	0	49	104	0	60	1048570
2026-01-18 09:38:45.27	244.32	2.71	-83.5	-79.0	2.3	0.00e+00	0	49	104	0	60	1048575
2026-01-18 09:38:46.28	244.25	2.64	-83.5	-79.0	2.4	0.00e+00	0	49	104	0	60	1048574
2026-01-18 09:38:47.28	244.18	2.57	-83.1	-79.0	2.4	0.00e+00	0	49	104	0	60	1048571
2026-01-18 09:38:48.29	244.12	2.50	-83.5	-79.0	2.5	0.00e+00	0	49	104	0	60	1048559
2026-01-18 09:38:49.30	244.05	2.44	-83.1	-79.0	2.4	0.00e+00	0	49	104	0	60	1048573
2026-01-18 09:38:50.31	243.98	2.37	-83.1	-79.0	2.4	0.00e+00	0	49	104	0	60	1048574
2026-01-18 09:38:51.32	243.91	2.30	-83.1	-79.0	2.5	0.00e+00	0	49	104	0	60	1048574
2026-01-18 09:38:52.32	243.85	2.24	-83.5	-79.0	2.5	0.00e+00	0	49	104	0	60	1048564
2026-01-18 09:38:53.33	243.78	2.17	-83.5	-79.0	2.3	0.00e+00	0	49	104	0	60	1048570
2026-01-18 09:38:54.34	243.72	2.10	-82.8	-79.0	2.4	0.00e+00	0	49	104	0	60	1048575
2026-01-18 09:38:55.34	243.65	2.04	-83.1	-79.0	2.5	0.00e+00	0	49	104	0	60	1048573
2026-01-18 09:38:56.35	243.59	1.97	-83.5	-79.0	2.4	0.00e+00	0	49	104	0	60	1048570
2026-01-18 09:38:57.35	243.52	1.91	-83.5	-79.0	2.4	0.00e+00	0	49	104	0	60	1048571
2026-01-18 09:38:58.36	243.46	1.84	-83.1	-79.0	2.5	0.00e+00	0	49	104	0	60	1048573
2026-01-18 09:38:59.36	243.39	1.77	-83.1	-79.0	2.5	0.00e+00	0	49	104	0	60	1048575
2026-01-18 09:39:00.37	243.33	1.71	-83.5	-79.0	2.3	0.00e+00	0	49	104	0	60	1048568
2026-01-18 09:39:01.37	243.27	1.64	-83.5	-79.0	2.3	0.00e+00	0	49	104	0	60	1048574
2026-01-18 09:39:02.37	243.21	1.58	-83.5	-79.0	2.4	0.00e+00	0	49	104	0	60	1048574
2026-01-18 09:39:03.38	243.14	1.51	-83.1	-79.0	2.4	0.00e+00	0	49	104	0	60	1048575
2026-01-18 09:39:04.38	243.08	1.45	-83.1	-79.0	2.6	0.00e+00	0	49	104	0	60	1048570
2026-01-18 09:39:05.39	243.02	1.39	-83.5	-79.0	2.4	0.00e+00	0	49	104	0	60	1048573
2026-01-18 09:39:06.40	242.96	1.32	-83.5	-79.0	2.4	0.00e+00	0	49	104	0	60	1048573
2026-01-18 09:39:07.41	242.90	1.26	-83.5	-79.0	2.3	0.00e+00	0	49	104	0	60	1048575
2026-01-18 09:39:08.42	242.84	1.19	-83.1	-79.0	2.3	0.00e+00	0	49	104	0	60	1048575
2026-01-18 09:39:09.42	242.78	1.13	-83.5	-79.0	2.8	0.00e+00	0	49	104	0	60	1048574
2026-01-18 09:39:10.43	242.72	1.07	-83.5	-79.0	2.4	0.00e+00	0	49	104	0	60	1048575
2026-01-18 09:39:11.43	242.66	1.00	-83.1	-79.0	2.5	0.00e+00	0	49	104	0	60	1048570
2026-01-18 09:39:12.43	242.60	0.94	-83.5	-79.0	2.2	0.00e+00	0	49	104	0	60	1048573
2026-01-18 09:39:13.44	242.54	0.88	-82.8	-79.0	2.4	0.00e+00	0	49	104	0	60	1048567
2026-01-18 09:39:14.45	242.48	0.81	-83.5	-79.0	2.5	0.00e+00	0	49	104	0	60	1048575
2026-01-18 09:39:15.46	242.43	0.75	-83.5	-79.0	2.4	0.00e+00	0	49	104	0	60	1048569
2026-01-18 09:39:16.46	242.37	0.69	-83.5	-79.0	2.4	0.00e+00	0	49	104	0	60	1048568
2026-01-18 09:39:17.47	242.31	0.62	-82.8	-79.0	2.4	0.00e+00	0	49	104	0	60	1048571
2026-01-18 09:39:18.48	242.25	0.56	-83.1	-79.0	2.3	0.00e+00	0	49	104	0	60	1048574
2026-01-18 09:39:19.49	242.20	0.50	-83.5	-79.0	2.3	0.00e+00	0	49	104	0	60	1048573
2026-01-18 09:39:20.49	242.14	0.44	-83.5	-79.0	2.5	0.00e+00	0	49	104	0	60	1048562
2026-01-18 09:39:21.50	242.08	0.38	-83.5	-79.0	2.5	0.00e+00	0	49	104	0	60	1048572
2026-01-18 09:39:22.51	242.03	0.31	-83.1	-79.0	2.3	0.00e+00	0	49	104	0	60	1048571
2026-01-18 09:39:23.51	241.97	0.25	-83.1	-79.0	2.4	0.00e+00	0	49	104	0	60	1048575
2026-01-18 09:39:24.52	241.92	0.19	-83.1	-79.0	2.3	0.00e+00	0	49	104	0	60	1048574
2026-01-18 09:39:25.53	241.86	0.13	-83.5	-79.0	2.5	0.00e+00	0	49	104	0	60	1048568
2026-01-18 09:39:26.53	241.81	0.07	-83.5	-79.0	2.2	0.00e+00	0	49	104	0	60	1048572
2026-01-18 09:39:27.53	241.75	0.01	-82.8	-79.0	2.3	0.00e+00	0	49	104	0	60	1048573

#Closed at: 2026-01-18 09:39:27
#Recorded file [0 MB]: D:/Data/35015_260118_122832.dat