passes_logs/2026/01/18/R3.2S-Naryan-Mar/R3.2S-Naryan-Mar__20260118_061130_FENGYUN_3D_rec.log

#Pass ID: 20260118_061130_FENGYUN 3D
#Satellite: FENGYUN 3D
#Configuration: FENGYUN 3D
#almurnet v.1.7.20240730
#Start time: 2026-01-18 06:11:31

#Version: 2.2.20231116
#Station: R3.2S-Naryan-Mar
#Location: 53.008057 lon 67.646978 lat
#TLE: 1 43010U 17072A   26017.25882587  .00000461  00000+0  23963-3 0  9992
#TLE: 2 43010  98.9934 349.1096 0002357 104.0487 256.0951 14.19697152423579

#Time	Az	El	Level	Level2	SNR	BER	BlckErr	Temp	State	Recorded	gain1	gain2
2026-01-18 06:11:31.45	66.68	0.03	-83.9	-88.8	1.9	3.13e+01	0	44	0	0	60	1048571
2026-01-18 06:11:32.45	66.62	0.08	-84.7	-88.6	5.9	3.23e-01	0	45	0	0	60	1048572
2026-01-18 06:11:33.46	66.56	0.14	-84.7	-88.6	6.4	2.83e-01	0	46	0	0	60	1048574
2026-01-18 06:11:34.47	66.50	0.19	-84.7	-88.6	5.7	2.79e-01	0	46	0	0	60	1048575
2026-01-18 06:11:35.48	66.44	0.24	-84.7	-88.6	5.8	2.81e-01	0	46	0	0	60	1048574
2026-01-18 06:11:36.49	66.38	0.30	-84.7	-88.6	6.1	2.80e-01	0	46	0	0	60	1048569
2026-01-18 06:11:37.49	66.31	0.35	-84.7	-88.6	6.4	2.82e-01	0	46	0	0	60	1048574
2026-01-18 06:11:38.50	66.25	0.40	-84.7	-88.6	5.9	2.81e-01	0	46	0	0	60	1048573
2026-01-18 06:11:39.51	66.19	0.46	-84.7	-88.6	5.5	2.80e-01	0	46	0	0	60	1048572
2026-01-18 06:11:40.52	66.13	0.51	-84.7	-88.6	6.4	2.78e-01	0	46	0	0	60	1048570
2026-01-18 06:11:41.52	66.07	0.57	-84.7	-88.6	6.3	2.77e-01	0	46	0	0	60	1048574
2026-01-18 06:11:42.52	66.00	0.62	-84.7	-88.6	5.8	2.84e-01	0	46	0	0	60	1048574
2026-01-18 06:11:43.53	65.94	0.67	-84.7	-88.6	5.7	2.83e-01	0	46	0	0	60	1048574
2026-01-18 06:11:44.54	65.88	0.73	-83.5	-88.6	5.5	2.80e-01	0	46	0	0	60	1048574
2026-01-18 06:11:45.54	65.81	0.78	-84.7	-88.6	6.4	2.81e-01	0	46	0	0	60	1048575
2026-01-18 06:11:46.55	65.75	0.84	-84.7	-88.6	5.6	2.80e-01	0	46	0	0	60	1048575
2026-01-18 06:11:47.55	65.68	0.89	-84.7	-88.6	6.2	2.82e-01	0	46	0	0	60	1048573
2026-01-18 06:11:48.56	65.62	0.94	-84.7	-88.6	5.3	2.82e-01	0	46	0	0	60	1048575
2026-01-18 06:11:49.57	65.56	1.00	-85.2	-88.6	6.2	2.79e-01	0	46	0	0	60	1048575
2026-01-18 06:11:50.57	65.49	1.05	-84.7	-88.6	5.7	2.79e-01	0	46	0	0	60	1048575
2026-01-18 06:11:51.58	65.43	1.11	-84.7	-88.6	5.9	2.79e-01	0	46	0	0	60	1048572
2026-01-18 06:11:52.59	65.36	1.16	-84.7	-88.6	6.3	2.78e-01	0	46	0	0	60	1048567
2026-01-18 06:11:53.60	65.29	1.22	-85.2	-88.6	5.6	2.75e-01	0	46	0	0	60	1048575
2026-01-18 06:11:54.61	65.23	1.27	-84.7	-88.6	5.6	2.77e-01	0	46	0	0	60	1048568
2026-01-18 06:11:55.62	65.16	1.33	-84.7	-88.6	5.8	2.82e-01	0	46	0	0	60	1048573
2026-01-18 06:11:56.62	65.10	1.38	-84.7	-88.6	6.2	2.84e-01	0	46	0	0	60	1048566
2026-01-18 06:11:57.63	65.03	1.44	-84.7	-88.6	5.8	2.80e-01	0	46	0	0	60	1048575
2026-01-18 06:11:58.63	64.96	1.49	-85.2	-88.6	5.8	2.83e-01	0	46	0	0	60	1048575
2026-01-18 06:11:59.63	64.90	1.54	-84.3	-88.6	5.8	2.84e-01	0	46	0	0	60	1048573
2026-01-18 06:12:00.64	64.83	1.60	-85.2	-88.6	6.1	2.80e-01	0	46	0	0	60	1048572
2026-01-18 06:12:01.64	64.76	1.65	-84.7	-88.6	6.3	2.76e-01	0	46	0	0	60	1048572
2026-01-18 06:12:02.65	64.69	1.71	-84.7	-88.6	6.2	2.79e-01	0	46	0	0	60	1048573
2026-01-18 06:12:03.66	64.63	1.77	-85.2	-88.6	6.0	2.75e-01	0	46	0	0	60	1048571
2026-01-18 06:12:04.67	64.56	1.82	-84.7	-88.6	6.2	2.78e-01	0	46	0	0	60	1048574
2026-01-18 06:12:05.67	64.49	1.88	-85.2	-88.6	6.3	2.78e-01	0	46	0	0	60	1048571
2026-01-18 06:12:06.68	64.42	1.93	-84.7	-88.6	6.0	2.77e-01	0	46	0	0	60	1048572
2026-01-18 06:12:07.68	64.35	1.99	-84.7	-88.6	5.6	2.79e-01	0	46	0	0	60	1048575
2026-01-18 06:12:08.69	64.28	2.04	-85.2	-88.6	6.1	2.85e-01	0	46	0	0	60	1048575
2026-01-18 06:12:09.70	64.21	2.10	-85.2	-88.6	5.9	2.79e-01	0	46	0	0	60	1048572
2026-01-18 06:12:10.71	64.14	2.15	-85.2	-88.6	5.9	2.81e-01	0	46	0	0	60	1048573
2026-01-18 06:12:11.72	64.07	2.21	-84.7	-88.6	5.6	2.80e-01	0	46	0	0	60	1048575
2026-01-18 06:12:12.72	64.00	2.27	-85.2	-88.6	5.9	2.80e-01	0	46	0	0	60	1048575
2026-01-18 06:12:13.73	63.93	2.32	-84.7	-88.6	6.3	2.83e-01	0	46	0	0	60	1048575
2026-01-18 06:12:14.74	63.86	2.38	-85.2	-88.6	6.1	2.85e-01	0	46	0	0	60	1048570
2026-01-18 06:12:15.74	63.79	2.43	-84.7	-88.6	5.8	2.76e-01	0	46	0	0	60	1048574
2026-01-18 06:12:16.75	63.71	2.49	-84.7	-88.6	6.0	2.80e-01	0	46	0	0	60	1048569
2026-01-18 06:12:17.75	63.64	2.55	-84.7	-88.6	6.1	2.79e-01	0	46	0	0	60	1048575
2026-01-18 06:12:18.76	63.57	2.60	-85.2	-88.6	6.1	2.82e-01	0	46	0	0	60	1048574
2026-01-18 06:12:19.76	63.50	2.66	-85.2	-88.6	6.1	2.82e-01	0	46	0	0	60	1048570
2026-01-18 06:12:20.77	63.42	2.72	-85.2	-88.6	6.0	2.80e-01	0	46	0	0	60	1048575
2026-01-18 06:12:21.78	63.35	2.77	-85.2	-88.6	6.0	2.77e-01	0	46	0	0	60	1048571
2026-01-18 06:12:22.79	63.28	2.83	-84.7	-88.6	6.2	2.72e-01	0	46	0	0	60	1048574
2026-01-18 06:12:23.79	63.20	2.89	-85.2	-88.6	6.2	2.78e-01	0	46	0	0	60	1048575
2026-01-18 06:12:24.80	63.13	2.94	-84.7	-88.6	5.7	2.74e-01	0	46	0	0	60	1048574
2026-01-18 06:12:25.81	63.05	3.00	-85.2	-88.6	5.9	2.80e-01	0	46	0	0	60	1048575
2026-01-18 06:12:26.82	62.98	3.06	-84.7	-88.6	6.3	2.79e-01	0	46	0	0	60	1048575
2026-01-18 06:12:27.83	62.90	3.11	-85.2	-88.6	3.3	7.63e-01	0	46	104	0	60	1048575
2026-01-18 06:12:28.84	62.83	3.17	-84.7	-88.6	3.7	7.64e-01	0	46	104	0	60	1048574
2026-01-18 06:12:29.84	62.75	3.23	-85.2	-88.6	3.0	7.64e-01	0	46	104	0	60	1048571
2026-01-18 06:12:30.85	62.68	3.29	-84.7	-88.6	2.8	7.64e-01	0	46	104	0	60	1048569
2026-01-18 06:12:31.86	62.60	3.34	-85.2	-88.6	3.4	7.64e-01	0	46	104	0	60	1048575
2026-01-18 06:12:32.87	62.52	3.40	-85.2	-88.6	3.3	7.64e-01	0	46	104	0	60	1048575
2026-01-18 06:12:33.87	62.45	3.46	-84.3	-88.6	3.3	7.63e-01	0	46	104	0	60	1048573
2026-01-18 06:12:34.88	62.37	3.51	-85.2	-88.6	3.4	7.62e-01	0	46	104	0	60	1048574
2026-01-18 06:12:35.89	62.29	3.57	-85.2	-88.6	2.8	7.64e-01	0	46	104	0	60	1048568
2026-01-18 06:12:36.89	62.22	3.63	-85.2	-88.6	3.1	7.61e-01	0	46	104	0	60	1048574
2026-01-18 06:12:37.90	62.14	3.69	-85.2	-88.6	2.9	7.64e-01	0	46	104	0	60	1048572
2026-01-18 06:12:38.91	62.06	3.75	-85.2	-88.6	3.6	7.63e-01	0	46	104	0	60	1048574
2026-01-18 06:12:39.92	61.98	3.80	-84.7	-88.6	3.0	7.64e-01	0	46	104	0	60	1048574
2026-01-18 06:12:40.92	61.90	3.86	-85.2	-88.6	3.0	7.63e-01	0	46	104	0	60	1048574
2026-01-18 06:12:41.93	61.82	3.92	-85.2	-88.6	3.7	7.62e-01	0	46	104	0	60	1048570
2026-01-18 06:12:42.94	61.74	3.98	-85.2	-88.6	3.3	7.62e-01	0	46	104	0	60	1048575
2026-01-18 06:12:43.94	61.66	4.04	-85.2	-88.6	2.8	7.62e-01	0	46	104	0	60	1048575
2026-01-18 06:12:44.95	61.58	4.09	-85.2	-88.6	3.0	7.64e-01	0	47	104	0	60	1048575
2026-01-18 06:12:45.96	61.50	4.15	-85.2	-88.6	3.5	7.64e-01	0	46	104	0	60	1048575
2026-01-18 06:12:46.96	61.42	4.21	-85.2	-88.6	3.4	7.63e-01	0	46	104	0	60	1048573
2026-01-18 06:12:47.97	61.34	4.27	-85.2	-88.6	2.5	7.61e-01	0	47	104	0	60	1048574
2026-01-18 06:12:48.98	61.25	4.33	-84.3	-88.6	2.7	7.63e-01	0	46	104	0	60	1048574
2026-01-18 06:12:49.98	61.17	4.39	-84.7	-88.6	3.1	7.64e-01	0	47	104	0	60	1048573
2026-01-18 06:12:50.99	61.09	4.44	-85.2	-88.6	3.1	7.64e-01	0	47	104	0	60	1048575
2026-01-18 06:12:52.00	61.01	4.50	-85.2	-88.6	2.9	7.63e-01	0	47	104	0	60	1048575
2026-01-18 06:12:53.01	60.92	4.56	-85.2	-88.6	3.3	7.63e-01	0	47	104	0	60	1048573
2026-01-18 06:12:54.01	60.84	4.62	-84.7	-88.6	3.0	7.63e-01	0	47	104	0	60	1048574
2026-01-18 06:12:55.01	60.76	4.68	-84.7	-88.6	3.0	7.63e-01	0	47	104	0	60	1048575
2026-01-18 06:12:56.02	60.67	4.74	-85.2	-88.6	3.4	7.63e-01	0	47	104	0	60	1048575
2026-01-18 06:12:57.01	60.59	4.80	-85.2	-88.6	3.3	7.64e-01	0	47	104	0	60	1048572
2026-01-18 06:12:58.02	60.50	4.86	-85.2	-88.6	3.1	7.62e-01	0	47	104	0	60	1048572
2026-01-18 06:12:59.03	60.42	4.91	-85.2	-88.6	3.1	7.63e-01	0	47	104	0	60	1048575
2026-01-18 06:13:00.03	60.33	4.97	-85.2	-88.6	3.5	7.63e-01	0	47	104	0	60	1048575
2026-01-18 06:13:01.04	60.25	5.03	-85.2	-88.6	3.0	7.64e-01	0	47	104	0	60	1048570
2026-01-18 06:13:02.05	60.16	5.09	-85.2	-88.6	2.9	7.63e-01	0	47	104	0	60	1048571
2026-01-18 06:13:03.05	60.08	5.15	-85.2	-88.6	3.1	7.64e-01	0	47	104	0	60	1048574
2026-01-18 06:13:04.06	59.99	5.21	-84.7	-88.6	3.6	7.62e-01	0	46	104	0	60	1048567
2026-01-18 06:13:05.06	59.90	5.27	-85.2	-88.6	2.9	7.65e-01	0	47	104	0	60	1048573
2026-01-18 06:13:06.07	59.81	5.33	-85.2	-88.6	3.1	7.63e-01	0	47	104	0	60	1048575
2026-01-18 06:13:07.07	59.73	5.39	-85.2	-88.6	3.4	7.61e-01	0	47	104	0	60	1048575
2026-01-18 06:13:08.08	59.64	5.45	-84.3	-88.6	3.1	7.64e-01	0	47	104	0	60	1048574
2026-01-18 06:13:09.08	59.55	5.51	-85.2	-88.6	3.5	7.64e-01	0	47	104	0	60	1048575
2026-01-18 06:13:10.09	59.46	5.57	-85.2	-88.6	2.9	7.63e-01	0	47	104	0	60	1048573
2026-01-18 06:13:11.10	59.37	5.63	-85.2	-88.6	2.9	7.64e-01	0	47	104	0	60	1048570
2026-01-18 06:13:12.11	59.28	5.69	-85.2	-88.6	3.1	7.63e-01	0	47	104	0	60	1048569
2026-01-18 06:13:13.11	59.19	5.75	-84.3	-88.6	3.5	7.62e-01	0	47	104	0	60	1048575
2026-01-18 06:13:14.12	59.10	5.81	-85.2	-88.6	3.7	7.63e-01	0	47	104	0	60	1048575
2026-01-18 06:13:15.12	59.01	5.87	-85.2	-88.6	3.1	7.61e-01	0	47	104	0	60	1048573
2026-01-18 06:13:16.13	58.91	5.93	-85.2	-88.6	2.9	7.63e-01	0	47	104	0	60	1048573
2026-01-18 06:13:17.14	58.82	5.99	-85.2	-88.6	3.2	7.64e-01	0	47	104	0	60	1048571
2026-01-18 06:13:18.15	58.73	6.05	-85.2	-88.6	3.4	7.65e-01	0	47	104	0	60	1048575
2026-01-18 06:13:19.16	58.64	6.11	-85.2	-88.6	2.7	7.63e-01	0	47	104	0	60	1048575
2026-01-18 06:13:20.16	58.54	6.17	-85.2	-88.6	3.3	7.64e-01	0	47	104	0	60	1048575
2026-01-18 06:13:21.17	58.45	6.23	-85.2	-88.6	3.1	7.63e-01	0	47	104	0	60	1048571
2026-01-18 06:13:22.18	58.35	6.29	-85.2	-88.6	3.0	7.62e-01	0	47	104	0	60	1048572
2026-01-18 06:13:23.18	58.26	6.35	-84.7	-88.6	3.2	7.65e-01	0	47	104	0	60	1048575
2026-01-18 06:13:24.19	58.17	6.42	-85.2	-88.6	3.7	7.66e-01	0	47	104	0	60	1048575
2026-01-18 06:13:25.20	58.07	6.48	-85.2	-88.6	3.0	7.62e-01	0	47	104	0	60	1048575
2026-01-18 06:13:26.20	57.98	6.54	-85.2	-88.6	2.9	7.64e-01	0	47	104	0	60	1048575
2026-01-18 06:13:27.21	57.88	6.60	-84.7	-88.6	3.6	7.63e-01	0	47	104	0	60	1048571
2026-01-18 06:13:28.21	57.78	6.66	-84.7	-88.6	3.4	7.63e-01	0	47	104	0	60	1048573
2026-01-18 06:13:29.22	57.69	6.72	-85.2	-88.6	3.1	7.64e-01	0	47	104	0	60	1048575
2026-01-18 06:13:30.22	57.59	6.78	-85.2	-88.6	3.3	7.63e-01	0	47	104	0	60	1048574
2026-01-18 06:13:31.23	57.49	6.84	-85.2	-88.6	3.1	7.64e-01	0	47	104	0	60	1048571
2026-01-18 06:13:32.24	57.39	6.90	-84.7	-88.6	2.7	7.62e-01	0	47	104	0	60	1048575
2026-01-18 06:13:33.25	57.29	6.97	-85.2	-88.6	3.1	7.64e-01	0	47	104	0	60	1048573
2026-01-18 06:13:34.25	57.19	7.03	-84.7	-88.6	3.2	7.63e-01	0	47	104	0	60	1048574
2026-01-18 06:13:35.26	57.09	7.09	-85.2	-88.6	3.4	7.65e-01	0	47	104	0	60	1048571
2026-01-18 06:13:36.27	56.99	7.15	-84.7	-88.6	3.4	7.64e-01	0	47	104	0	60	1048574
2026-01-18 06:13:37.28	56.89	7.21	-85.2	-88.6	3.3	7.63e-01	0	47	104	0	60	1048571
2026-01-18 06:13:38.29	56.79	7.28	-85.2	-88.6	3.4	7.64e-01	0	47	104	0	60	1048575
2026-01-18 06:13:39.29	56.69	7.34	-84.7	-88.6	2.8	7.63e-01	0	47	104	0	60	1048570
2026-01-18 06:13:40.30	56.59	7.40	-85.2	-88.6	3.4	7.63e-01	0	47	104	0	60	1048571
2026-01-18 06:13:41.31	56.49	7.46	-85.2	-88.6	3.4	7.62e-01	0	47	104	0	60	1048573
2026-01-18 06:13:42.32	56.38	7.52	-85.2	-88.6	3.3	7.63e-01	0	47	104	0	60	1048574
2026-01-18 06:13:43.32	56.28	7.59	-85.2	-88.6	2.9	7.64e-01	0	47	104	0	60	1048575
2026-01-18 06:13:44.33	56.18	7.65	-85.2	-88.6	3.6	7.63e-01	0	47	104	0	60	1048571
2026-01-18 06:13:45.33	56.08	7.71	-85.2	-88.6	2.8	7.64e-01	0	47	104	0	60	1048572
2026-01-18 06:13:46.34	55.97	7.77	-83.9	-88.6	2.9	7.62e-01	0	47	104	0	60	1048574
2026-01-18 06:13:47.35	55.86	7.83	-85.2	-88.6	2.9	7.63e-01	0	47	104	0	60	1048572
2026-01-18 06:13:48.36	55.76	7.90	-85.2	-88.6	3.2	7.63e-01	0	47	104	0	60	1048575
2026-01-18 06:13:49.37	55.65	7.96	-85.2	-88.6	3.0	7.61e-01	0	47	104	0	60	1048575
2026-01-18 06:13:50.37	55.55	8.02	-85.2	-88.6	3.4	7.63e-01	0	47	104	0	60	1048574
2026-01-18 06:13:51.38	55.44	8.08	-84.7	-88.6	3.5	7.63e-01	0	47	104	0	60	1048571
2026-01-18 06:13:52.39	55.33	8.15	-85.2	-88.6	3.1	7.63e-01	0	47	104	0	60	1048575
2026-01-18 06:13:53.40	55.22	8.21	-85.2	-88.6	3.2	7.62e-01	0	47	104	0	60	1048575
2026-01-18 06:13:54.41	55.12	8.27	-85.2	-88.6	3.6	7.62e-01	0	47	104	0	60	1048574
2026-01-18 06:13:55.41	55.01	8.34	-85.2	-88.6	3.6	7.64e-01	0	47	104	0	60	1048575
2026-01-18 06:13:56.42	54.90	8.40	-85.2	-88.6	2.9	7.64e-01	0	47	104	0	60	1048575
2026-01-18 06:13:57.42	54.79	8.46	-85.2	-88.6	3.4	7.64e-01	0	47	104	0	60	1048570
2026-01-18 06:13:58.42	54.68	8.52	-85.2	-88.6	3.5	7.63e-01	0	47	104	0	60	1048572
2026-01-18 06:13:59.42	54.57	8.59	-85.2	-88.6	3.0	7.61e-01	0	47	104	0	60	1048575
2026-01-18 06:14:00.43	54.46	8.65	-84.7	-88.6	3.0	7.64e-01	0	47	104	0	60	1048569
2026-01-18 06:14:01.43	54.35	8.71	-85.2	-88.6	3.0	7.61e-01	0	47	104	0	60	1048571
2026-01-18 06:14:02.43	54.24	8.78	-85.2	-88.6	2.9	7.63e-01	0	47	104	0	60	1048573
2026-01-18 06:14:03.44	54.12	8.84	-85.2	-88.6	2.8	7.63e-01	0	47	104	0	60	1048573
2026-01-18 06:14:04.45	54.01	8.90	-85.2	-88.6	2.9	7.63e-01	0	47	104	0	60	1048575
2026-01-18 06:14:05.46	53.90	8.97	-84.7	-88.6	3.1	7.61e-01	0	47	104	0	60	1048575
2026-01-18 06:14:06.47	53.78	9.03	-85.2	-88.6	3.2	7.62e-01	0	47	104	0	60	1048575
2026-01-18 06:14:07.48	53.67	9.09	-85.2	-88.6	3.6	7.60e-01	0	47	104	0	60	1048575
2026-01-18 06:14:08.48	53.55	9.16	-85.2	-88.6	3.7	7.62e-01	0	47	104	0	60	1048574
2026-01-18 06:14:09.49	53.44	9.22	-85.2	-88.6	3.1	7.63e-01	0	47	104	0	60	1048573
2026-01-18 06:14:10.50	53.32	9.28	-85.2	-88.6	3.0	7.64e-01	0	47	104	0	60	1048575
2026-01-18 06:14:11.51	53.20	9.35	-85.2	-88.6	3.2	7.63e-01	0	47	104	0	60	1048570
2026-01-18 06:14:12.52	53.08	9.41	-85.2	-88.6	2.9	7.63e-01	0	47	104	0	60	1048575
2026-01-18 06:14:13.53	52.97	9.48	-85.2	-88.6	3.3	7.64e-01	0	47	104	0	60	1048570
2026-01-18 06:14:14.53	52.85	9.54	-85.2	-88.6	2.8	7.63e-01	0	47	104	0	60	1048575
2026-01-18 06:14:15.54	52.73	9.60	-85.2	-88.6	2.9	7.65e-01	0	47	104	0	60	1048573
2026-01-18 06:14:16.54	52.61	9.67	-85.2	-88.6	3.3	7.65e-01	0	47	104	0	60	1048575
2026-01-18 06:14:17.55	52.49	9.73	-85.2	-88.6	3.1	7.65e-01	0	47	104	0	60	1048575
2026-01-18 06:14:18.56	52.37	9.80	-85.2	-88.6	3.3	7.63e-01	0	47	104	0	60	1048572
2026-01-18 06:14:19.56	52.25	9.86	-84.3	-88.6	3.1	7.64e-01	0	47	104	0	60	1048572
2026-01-18 06:14:20.57	52.13	9.92	-85.2	-88.6	3.1	7.63e-01	0	47	104	0	60	1048571
2026-01-18 06:14:21.58	52.01	9.99	-85.2	-88.6	3.6	7.64e-01	0	47	104	0	60	1048573
2026-01-18 06:14:22.59	51.88	10.05	-85.2	-88.6	3.6	7.63e-01	0	47	104	0	60	1048573
2026-01-18 06:14:23.60	51.76	10.12	-85.2	-88.6	3.1	7.62e-01	0	47	104	0	60	1048575
2026-01-18 06:14:24.60	51.64	10.18	-85.2	-88.6	3.4	7.63e-01	0	47	104	0	60	1048573
2026-01-18 06:14:25.61	51.51	10.25	-85.2	-88.6	2.8	7.63e-01	0	47	104	0	60	1048567
2026-01-18 06:14:26.62	51.39	10.31	-85.2	-88.6	3.0	7.64e-01	0	47	104	0	60	1048573
2026-01-18 06:14:27.63	51.26	10.37	-85.2	-88.6	3.1	7.63e-01	0	47	104	0	60	1048575
2026-01-18 06:14:28.63	51.13	10.44	-85.2	-88.6	3.3	7.62e-01	0	47	104	0	60	1048572
2026-01-18 06:14:29.64	51.01	10.50	-85.2	-88.6	3.2	7.63e-01	0	47	104	0	60	1048573
2026-01-18 06:14:30.64	50.88	10.57	-85.2	-88.6	3.0	7.63e-01	0	47	104	0	60	1048575
2026-01-18 06:14:31.65	50.75	10.63	-85.2	-88.6	3.0	7.57e-01	0	47	104	0	60	1048571
2026-01-18 06:14:32.66	50.62	10.70	-85.2	-88.6	3.3	7.62e-01	0	47	104	0	60	1048575
2026-01-18 06:14:33.67	50.49	10.76	-84.7	-88.6	3.0	7.62e-01	0	47	104	0	60	1048575
2026-01-18 06:14:34.68	50.36	10.83	-84.7	-88.6	3.4	7.63e-01	0	47	104	0	60	1048574
2026-01-18 06:14:35.68	50.24	10.89	-85.2	-88.6	3.3	7.63e-01	0	47	104	0	60	1048573
2026-01-18 06:14:36.69	50.10	10.95	-85.2	-88.6	3.1	7.63e-01	0	47	104	0	60	1048574
2026-01-18 06:14:37.70	49.97	11.02	-85.2	-88.6	3.1	7.64e-01	0	47	104	0	60	1048574
2026-01-18 06:14:38.71	49.84	11.08	-84.7	-88.6	3.2	7.65e-01	0	47	104	0	60	1048575
2026-01-18 06:14:39.72	49.71	11.15	-85.2	-88.6	3.5	7.64e-01	0	47	104	0	60	1048569
2026-01-18 06:14:40.72	49.58	11.21	-85.2	-88.6	2.9	7.63e-01	0	47	104	0	60	1048575
2026-01-18 06:14:41.74	49.44	11.28	-85.2	-88.6	3.5	7.64e-01	0	47	104	0	60	1048573
2026-01-18 06:14:42.74	49.31	11.34	-85.2	-88.6	3.6	7.62e-01	0	47	104	0	60	1048575
2026-01-18 06:14:43.74	49.17	11.41	-85.2	-88.6	2.8	7.63e-01	0	47	104	0	60	1048575
2026-01-18 06:14:44.75	49.04	11.47	-84.7	-88.6	3.1	7.65e-01	0	47	104	0	60	1048572
2026-01-18 06:14:45.76	48.90	11.54	-85.2	-88.6	3.3	7.64e-01	0	47	104	0	60	1048575
2026-01-18 06:14:46.76	48.76	11.60	-85.2	-88.6	3.4	7.63e-01	0	47	104	0	60	1048573
2026-01-18 06:14:47.77	48.63	11.67	-84.7	-88.6	3.0	7.63e-01	0	47	104	0	60	1048572
2026-01-18 06:14:48.78	48.49	11.73	-84.7	-88.6	3.3	7.64e-01	0	47	104	0	60	1048575
2026-01-18 06:14:49.79	48.35	11.80	-84.7	-88.6	3.5	7.63e-01	0	47	104	0	60	1048571
2026-01-18 06:14:50.79	48.21	11.86	-85.2	-88.6	2.7	7.63e-01	0	47	104	0	60	1048575
2026-01-18 06:14:51.80	48.07	11.93	-85.2	-88.6	3.6	7.63e-01	0	47	104	0	60	1048573
2026-01-18 06:14:52.81	47.93	11.99	-84.7	-88.6	3.6	7.65e-01	0	47	104	0	60	1048575
2026-01-18 06:14:53.82	47.79	12.06	-85.2	-88.6	3.2	7.63e-01	0	47	104	0	60	1048573
2026-01-18 06:14:54.83	47.65	12.12	-85.2	-88.6	3.2	7.61e-01	0	47	104	0	60	1048569
2026-01-18 06:14:55.83	47.51	12.19	-85.2	-88.6	3.0	7.63e-01	0	47	104	0	60	1048575
2026-01-18 06:14:56.84	47.36	12.25	-85.2	-88.6	3.2	7.63e-01	0	47	104	0	60	1048575
2026-01-18 06:14:57.85	47.22	12.32	-84.7	-88.6	2.8	7.64e-01	0	47	104	0	60	1048573
2026-01-18 06:14:58.85	47.07	12.38	-85.2	-88.6	3.7	7.64e-01	0	47	104	0	60	1048575
2026-01-18 06:14:59.86	46.93	12.45	-85.2	-88.6	3.4	7.64e-01	0	47	104	0	60	1048575
2026-01-18 06:15:00.87	46.78	12.51	-85.2	-88.6	3.0	7.62e-01	0	47	104	0	60	1048571
2026-01-18 06:15:01.88	46.64	12.58	-84.7	-88.6	3.1	7.63e-01	0	47	104	0	60	1048573
2026-01-18 06:15:02.88	46.49	12.64	-84.7	-88.6	3.3	7.64e-01	0	47	104	0	60	1048572
2026-01-18 06:15:03.89	46.34	12.70	-85.2	-88.6	2.9	7.62e-01	0	47	104	0	60	1048573
2026-01-18 06:15:04.89	46.19	12.77	-85.2	-88.6	3.1	7.63e-01	0	47	104	0	60	1048574
2026-01-18 06:15:05.90	46.05	12.83	-85.2	-88.6	3.4	7.62e-01	0	47	104	0	60	1048575
2026-01-18 06:15:06.91	45.90	12.90	-84.7	-88.6	3.1	7.63e-01	0	47	104	0	60	1048571
2026-01-18 06:15:07.92	45.74	12.96	-85.2	-88.6	2.9	7.62e-01	0	47	104	0	60	1048573
2026-01-18 06:15:08.93	45.59	13.03	-85.2	-88.6	3.7	7.62e-01	0	47	104	0	60	1048573
2026-01-18 06:15:09.93	45.44	13.09	-85.2	-88.6	3.5	7.63e-01	0	47	104	0	60	1048566
2026-01-18 06:15:10.94	45.29	13.16	-85.2	-88.6	2.9	7.63e-01	0	47	104	0	60	1048565
2026-01-18 06:15:11.95	45.14	13.22	-84.7	-88.6	3.3	7.63e-01	0	47	104	0	60	1048574
2026-01-18 06:15:12.96	44.98	13.29	-85.2	-88.6	3.0	7.63e-01	0	47	104	0	60	1048570
2026-01-18 06:15:13.97	44.83	13.35	-85.2	-88.6	3.1	7.62e-01	0	47	104	0	60	1048575
2026-01-18 06:15:14.97	44.67	13.42	-85.2	-88.6	3.7	7.62e-01	0	47	104	0	60	1048573
2026-01-18 06:15:15.98	44.52	13.48	-85.2	-88.6	3.4	7.61e-01	0	47	104	0	60	1048575
2026-01-18 06:15:16.99	44.36	13.54	-85.2	-88.6	3.1	7.64e-01	0	47	104	0	60	1048574
2026-01-18 06:15:17.99	44.20	13.61	-85.2	-88.6	3.1	7.64e-01	0	47	104	0	60	1048574
2026-01-18 06:15:19.00	44.05	13.67	-85.2	-88.6	3.6	7.63e-01	0	47	104	0	60	1048569
2026-01-18 06:15:20.00	43.89	13.74	-85.2	-88.6	3.3	7.63e-01	0	47	104	0	60	1048573
2026-01-18 06:15:21.00	43.73	13.80	-84.7	-88.6	3.0	7.63e-01	0	47	104	0	60	1048575
2026-01-18 06:15:22.01	43.57	13.86	-85.2	-88.6	3.1	7.64e-01	0	47	104	0	60	1048574
2026-01-18 06:15:23.02	43.41	13.93	-84.7	-88.6	3.3	7.63e-01	0	47	104	0	60	1048573
2026-01-18 06:15:24.02	43.25	13.99	-85.2	-88.6	3.3	7.63e-01	0	47	104	0	60	1048572
2026-01-18 06:15:25.03	43.09	14.06	-85.2	-88.6	3.0	7.63e-01	0	47	104	0	60	1048568
2026-01-18 06:15:26.04	42.92	14.12	-84.7	-88.6	2.9	7.63e-01	0	47	104	0	60	1048567
2026-01-18 06:15:27.05	42.76	14.18	-84.7	-88.6	2.9	7.63e-01	0	47	104	0	60	1048575
2026-01-18 06:15:28.05	42.60	14.25	-84.7	-88.6	2.7	7.63e-01	0	47	104	0	60	1048575
2026-01-18 06:15:29.06	42.43	14.31	-84.7	-88.6	3.1	7.63e-01	0	47	104	0	60	1048571
2026-01-18 06:15:30.06	42.27	14.37	-85.2	-88.6	2.7	7.62e-01	0	47	104	0	60	1048573
2026-01-18 06:15:31.07	42.10	14.44	-84.7	-88.6	3.0	7.59e-01	0	47	104	0	60	1048575
2026-01-18 06:15:32.08	41.93	14.50	-85.2	-88.6	3.3	7.62e-01	0	47	104	0	60	1048575
2026-01-18 06:15:33.09	41.76	14.57	-85.2	-88.6	3.1	7.64e-01	0	47	104	0	60	1048573
2026-01-18 06:15:34.09	41.60	14.63	-85.2	-88.6	3.4	7.62e-01	0	47	104	0	60	1048572
2026-01-18 06:15:35.10	41.43	14.69	-85.2	-88.6	3.3	7.63e-01	0	47	104	0	60	1048572
2026-01-18 06:15:36.10	41.26	14.75	-85.2	-88.6	3.0	7.63e-01	0	47	104	0	60	1048575
2026-01-18 06:15:37.11	41.09	14.82	-85.2	-88.6	3.4	7.62e-01	0	47	104	0	60	1048573
2026-01-18 06:15:38.11	40.92	14.88	-85.2	-88.6	3.3	7.62e-01	0	47	104	0	60	1048571
2026-01-18 06:15:39.12	40.74	14.94	-85.2	-88.6	3.1	7.63e-01	0	47	104	0	60	1048574
2026-01-18 06:15:40.12	40.57	15.01	-84.7	-88.6	3.6	7.64e-01	0	47	104	0	60	1048572
2026-01-18 06:15:41.12	40.40	15.07	-85.2	-88.6	3.7	7.64e-01	0	47	104	0	60	1048575
2026-01-18 06:15:42.13	40.23	15.13	-85.2	-88.6	3.2	7.62e-01	0	47	104	0	60	1048575
2026-01-18 06:15:43.14	40.05	15.19	-84.7	-88.6	3.1	7.63e-01	0	47	104	0	60	1048574
2026-01-18 06:15:44.15	39.87	15.25	-85.2	-88.6	3.3	7.62e-01	0	47	104	0	60	1048575
2026-01-18 06:15:45.15	39.70	15.32	-84.7	-88.6	3.5	7.63e-01	0	47	104	0	60	1048574
2026-01-18 06:15:46.16	39.52	15.38	-85.2	-88.6	3.1	7.63e-01	0	47	104	0	60	1048568
2026-01-18 06:15:47.17	39.34	15.44	-85.2	-88.6	3.8	7.64e-01	0	47	104	0	60	1048574
2026-01-18 06:15:48.18	39.16	15.50	-85.2	-88.6	3.2	7.63e-01	0	47	104	0	60	1048574
2026-01-18 06:15:49.18	38.98	15.56	-85.2	-88.6	2.9	7.64e-01	0	47	104	0	60	1048574
2026-01-18 06:15:50.19	38.80	15.63	-84.7	-88.6	3.0	7.64e-01	0	47	104	0	60	1048569
2026-01-18 06:15:51.19	38.62	15.69	-85.2	-88.6	3.7	7.62e-01	0	47	104	0	60	1048575
2026-01-18 06:15:52.20	38.44	15.75	-85.2	-88.6	3.2	7.63e-01	0	47	104	0	60	1048573
2026-01-18 06:15:53.21	38.26	15.81	-85.2	-88.6	2.8	7.62e-01	0	47	104	0	60	1048566
2026-01-18 06:15:54.21	38.08	15.87	-84.7	-88.6	3.0	7.62e-01	0	47	104	0	60	1048575
2026-01-18 06:15:55.21	37.89	15.93	-84.3	-88.6	3.3	7.64e-01	0	47	104	0	60	1048572
2026-01-18 06:15:56.22	37.71	15.99	-85.2	-88.6	3.1	7.60e-01	0	47	104	0	60	1048575
2026-01-18 06:15:57.23	37.52	16.05	-85.2	-88.6	3.1	7.63e-01	0	47	104	0	60	1048571
2026-01-18 06:15:58.23	37.34	16.11	-85.2	-88.6	3.2	7.64e-01	0	47	104	0	60	1048571
2026-01-18 06:15:59.24	37.15	16.17	-84.7	-88.6	3.4	7.62e-01	0	47	104	0	60	1048573
2026-01-18 06:16:00.24	36.96	16.23	-85.2	-88.6	3.0	7.62e-01	0	47	104	0	60	1048575
2026-01-18 06:16:01.25	36.77	16.29	-85.2	-88.6	3.0	7.63e-01	0	47	104	0	60	1048573
2026-01-18 06:16:02.25	36.58	16.35	-85.2	-88.6	3.4	7.61e-01	0	47	104	0	60	1048575
2026-01-18 06:16:03.26	36.39	16.41	-85.2	-88.6	3.5	7.62e-01	0	47	104	0	60	1048573
2026-01-18 06:16:04.27	36.20	16.47	-84.3	-88.6	3.4	7.65e-01	0	47	104	0	60	1048573
2026-01-18 06:16:05.28	36.01	16.53	-84.3	-88.6	2.5	7.64e-01	0	47	104	0	60	1048574
2026-01-18 06:16:06.29	35.82	16.59	-85.2	-88.6	3.2	7.63e-01	0	47	104	0	60	1048575
2026-01-18 06:16:07.29	35.63	16.65	-85.2	-88.6	3.6	7.62e-01	0	47	104	0	60	1048573
2026-01-18 06:16:08.30	35.43	16.71	-85.2	-88.6	3.3	7.64e-01	0	47	104	0	60	1048566
2026-01-18 06:16:09.31	35.24	16.76	-85.2	-88.6	3.1	7.64e-01	0	47	104	0	60	1048575
2026-01-18 06:16:10.32	35.04	16.82	-85.2	-88.6	3.1	7.63e-01	0	47	104	0	60	1048575
2026-01-18 06:16:11.32	34.84	16.88	-85.2	-88.6	3.4	7.62e-01	0	47	104	0	60	1048575
2026-01-18 06:16:12.33	34.65	16.94	-85.2	-88.6	3.5	7.63e-01	0	47	104	0	60	1048574
2026-01-18 06:16:13.33	34.45	17.00	-85.2	-88.6	3.1	7.63e-01	0	47	104	0	60	1048568
2026-01-18 06:16:14.33	34.25	17.05	-85.2	-88.6	3.0	7.64e-01	0	47	104	0	60	1048572
2026-01-18 06:16:15.34	34.05	17.11	-85.2	-88.6	3.4	7.64e-01	0	47	104	0	60	1048574
2026-01-18 06:16:16.35	33.85	17.17	-85.2	-88.6	3.6	7.63e-01	0	47	104	0	60	1048573
2026-01-18 06:16:17.36	33.65	17.22	-85.2	-88.6	3.2	7.63e-01	0	47	104	0	60	1048568
2026-01-18 06:16:18.36	33.45	17.28	-85.2	-88.6	3.6	7.63e-01	0	47	104	0	60	1048575
2026-01-18 06:16:19.37	33.25	17.34	-85.2	-88.6	3.5	7.63e-01	0	47	104	0	60	1048573
2026-01-18 06:16:20.38	33.04	17.39	-85.2	-88.6	3.0	7.63e-01	0	47	104	0	60	1048575
2026-01-18 06:16:21.39	32.84	17.45	-85.2	-88.6	3.0	7.63e-01	0	47	104	0	60	1048575
2026-01-18 06:16:22.40	32.63	17.50	-85.2	-88.6	3.5	7.60e-01	0	47	104	0	60	1048575
2026-01-18 06:16:23.40	32.43	17.56	-85.2	-88.6	2.9	7.62e-01	0	47	104	0	60	1048572
2026-01-18 06:16:24.41	32.22	17.61	-85.2	-88.6	3.0	7.63e-01	0	47	104	0	60	1048574
2026-01-18 06:16:25.42	32.02	17.67	-85.2	-88.6	3.4	7.64e-01	0	47	104	0	60	1048572
2026-01-18 06:16:26.42	31.81	17.72	-85.2	-88.6	3.3	7.62e-01	0	47	104	0	60	1048575
2026-01-18 06:16:27.43	31.60	17.78	-85.2	-88.6	3.0	7.62e-01	0	47	104	0	60	1048574
2026-01-18 06:16:28.43	31.39	17.83	-84.7	-88.6	3.1	7.64e-01	0	47	104	0	60	1048575
2026-01-18 06:16:29.44	31.18	17.88	-85.2	-88.6	3.7	7.63e-01	0	47	104	0	60	1048575
2026-01-18 06:16:30.44	30.97	17.94	-85.2	-88.6	3.3	7.63e-01	0	47	104	0	60	1048573
2026-01-18 06:16:31.44	30.76	17.99	-85.2	-88.6	2.9	7.62e-01	0	47	104	0	60	1048570
2026-01-18 06:16:32.44	30.55	18.04	-85.2	-88.6	3.1	7.64e-01	0	47	104	0	60	1048575
2026-01-18 06:16:33.44	30.34	18.09	-85.2	-88.6	2.9	7.63e-01	0	47	104	0	60	1048571
2026-01-18 06:16:34.45	30.13	18.15	-85.2	-88.6	3.2	7.63e-01	0	47	104	0	60	1048574
2026-01-18 06:16:35.45	29.91	18.20	-85.2	-88.6	3.0	7.63e-01	0	47	104	0	60	1048575
2026-01-18 06:16:36.46	29.70	18.25	-85.2	-88.6	3.0	7.64e-01	0	47	104	0	60	1048575
2026-01-18 06:16:37.47	29.48	18.30	-85.2	-88.6	3.0	7.63e-01	0	47	104	0	60	1048574
2026-01-18 06:16:38.48	29.26	18.35	-85.2	-88.6	2.8	7.63e-01	0	47	104	0	60	1048575
2026-01-18 06:16:39.48	29.05	18.40	-85.2	-88.6	3.6	7.63e-01	0	47	104	0	60	1048574
2026-01-18 06:16:40.49	28.83	18.45	-84.7	-88.6	3.7	7.62e-01	0	47	104	0	60	1048573
2026-01-18 06:16:41.50	28.61	18.50	-85.2	-88.6	3.1	7.65e-01	0	47	104	0	60	1048572
2026-01-18 06:16:42.50	28.39	18.55	-84.7	-88.6	3.0	7.62e-01	0	47	104	0	60	1048565
2026-01-18 06:16:43.50	28.17	18.60	-85.2	-88.6	3.7	7.63e-01	0	47	104	0	60	1048575
2026-01-18 06:16:44.51	27.95	18.65	-85.2	-88.6	3.4	7.63e-01	0	47	104	0	60	1048575
2026-01-18 06:16:45.52	27.73	18.70	-85.2	-88.6	3.0	7.62e-01	0	47	104	0	60	1048575
2026-01-18 06:16:46.52	27.51	18.75	-85.2	-88.6	3.3	7.63e-01	0	47	104	0	60	1048575
2026-01-18 06:16:47.53	27.28	18.79	-84.7	-88.6	2.7	7.63e-01	0	47	104	0	60	1048575
2026-01-18 06:16:48.53	27.06	18.84	-85.2	-88.6	3.3	7.63e-01	0	47	104	0	60	1048574
2026-01-18 06:16:49.54	26.83	18.89	-85.2	-88.6	3.0	7.61e-01	0	47	104	0	60	1048571
2026-01-18 06:16:50.54	26.61	18.93	-85.2	-88.6	3.6	7.63e-01	0	47	104	0	60	1048573
2026-01-18 06:16:51.55	26.38	18.98	-85.2	-88.6	3.4	7.63e-01	0	47	104	0	60	1048574
2026-01-18 06:16:52.56	26.16	19.03	-84.7	-88.6	2.8	7.65e-01	0	47	104	0	60	1048575
2026-01-18 06:16:53.56	25.93	19.07	-85.2	-88.6	3.1	7.63e-01	0	47	104	0	60	1048575
2026-01-18 06:16:54.56	25.70	19.12	-85.2	-88.6	3.4	7.63e-01	0	47	104	0	60	1048572
2026-01-18 06:16:55.57	25.48	19.16	-85.2	-88.6	3.2	7.63e-01	0	47	104	0	60	1048574
2026-01-18 06:16:56.57	25.25	19.21	-84.7	-88.6	3.6	7.61e-01	0	47	104	0	60	1048574
2026-01-18 06:16:57.58	25.02	19.25	-84.7	-88.6	3.0	7.63e-01	0	47	104	0	60	1048574
2026-01-18 06:16:58.59	24.79	19.29	-85.2	-88.6	2.9	7.63e-01	0	47	104	0	60	1048573
2026-01-18 06:16:59.60	24.55	19.34	-85.2	-88.6	3.1	7.64e-01	0	47	104	0	60	1048574
2026-01-18 06:17:00.60	24.32	19.38	-85.2	-88.6	3.7	7.64e-01	0	47	104	0	60	1048570
2026-01-18 06:17:01.61	24.09	19.42	-84.7	-88.6	3.0	7.63e-01	0	47	104	0	60	1048569
2026-01-18 06:17:02.61	23.86	19.46	-85.2	-88.6	2.8	7.62e-01	0	47	104	0	60	1048573
2026-01-18 06:17:03.62	23.62	19.51	-85.2	-88.6	3.0	7.62e-01	0	47	104	0	60	1048573
2026-01-18 06:17:04.63	23.39	19.55	-85.2	-88.6	3.4	7.64e-01	0	47	104	0	60	1048571
2026-01-18 06:17:05.63	23.15	19.59	-85.2	-88.6	2.6	7.64e-01	0	47	104	0	60	1048570
2026-01-18 06:17:06.64	22.92	19.63	-84.7	-88.6	3.0	7.62e-01	0	47	104	0	60	1048574
2026-01-18 06:17:07.65	22.68	19.67	-85.2	-88.6	2.8	7.62e-01	0	47	104	0	60	1048575
2026-01-18 06:17:08.65	22.44	19.71	-85.2	-88.6	3.1	7.64e-01	0	47	104	0	60	1048575
2026-01-18 06:17:09.66	22.21	19.75	-85.2	-88.6	3.4	7.63e-01	0	47	104	0	60	1048573
2026-01-18 06:17:10.67	21.97	19.78	-85.2	-88.6	2.6	7.63e-01	0	47	104	0	60	1048569
2026-01-18 06:17:11.67	21.73	19.82	-85.2	-88.6	3.1	7.63e-01	0	47	104	0	60	1048575
2026-01-18 06:17:12.68	21.49	19.86	-85.2	-88.6	3.0	7.64e-01	0	47	104	0	60	1048575
2026-01-18 06:17:13.69	21.25	19.90	-85.2	-88.6	2.8	7.63e-01	0	47	104	0	60	1048571
2026-01-18 06:17:14.70	21.01	19.93	-85.2	-88.6	3.7	7.61e-01	0	47	104	0	60	1048573
2026-01-18 06:17:15.71	20.77	19.97	-85.2	-88.6	3.7	7.63e-01	0	47	104	0	60	1048574
2026-01-18 06:17:16.71	20.52	20.00	-85.2	-88.6	3.0	7.64e-01	0	47	104	0	60	1048575
2026-01-18 06:17:17.72	20.28	20.04	-84.7	-88.6	2.8	7.64e-01	0	47	104	0	60	1048574
2026-01-18 06:17:18.73	20.04	20.07	-85.2	-88.6	3.0	7.63e-01	0	47	104	0	60	1048575
2026-01-18 06:17:19.73	19.80	20.11	-85.2	-88.6	3.1	7.62e-01	0	47	104	0	60	1048573
2026-01-18 06:17:20.73	19.55	20.14	-84.7	-88.6	3.0	7.63e-01	0	47	104	0	60	1048574
2026-01-18 06:17:21.74	19.31	20.17	-85.2	-88.6	3.8	7.63e-01	0	47	104	0	60	1048574
2026-01-18 06:17:22.75	19.06	20.21	-85.2	-88.6	3.1	7.64e-01	0	47	104	0	60	1048573
2026-01-18 06:17:23.76	18.82	20.24	-85.2	-88.6	2.8	7.64e-01	0	47	104	0	60	1048570
2026-01-18 06:17:24.76	18.57	20.27	-85.2	-88.6	3.4	7.62e-01	0	47	104	0	60	1048565
2026-01-18 06:17:25.77	18.32	20.30	-85.2	-88.6	3.1	7.63e-01	0	47	104	0	60	1048572
2026-01-18 06:17:26.78	18.08	20.33	-85.2	-88.6	3.0	7.63e-01	0	47	104	0	60	1048570
2026-01-18 06:17:27.79	17.83	20.36	-85.2	-88.6	3.7	7.63e-01	0	47	104	0	60	1048575
2026-01-18 06:17:28.80	17.58	20.39	-85.2	-88.6	2.7	7.63e-01	0	47	104	0	60	1048569
2026-01-18 06:17:29.80	17.33	20.42	-84.7	-88.6	3.4	7.64e-01	0	47	104	0	60	1048574
2026-01-18 06:17:30.81	17.08	20.45	-85.2	-88.6	3.5	7.63e-01	0	47	104	0	60	1048567
2026-01-18 06:17:31.81	16.83	20.48	-85.2	-88.6	3.4	7.63e-01	0	47	104	0	60	1048574
2026-01-18 06:17:32.81	16.59	20.50	-85.2	-88.6	3.3	7.64e-01	0	47	104	0	60	1048572
2026-01-18 06:17:33.82	16.34	20.53	-85.2	-88.6	3.0	7.64e-01	0	47	104	0	60	1048569
2026-01-18 06:17:34.83	16.08	20.56	-85.2	-88.6	3.7	7.63e-01	0	47	104	0	60	1048575
2026-01-18 06:17:35.84	15.83	20.58	-84.7	-88.6	3.5	7.65e-01	0	47	104	0	60	1048574
2026-01-18 06:17:36.84	15.58	20.61	-85.2	-88.6	3.2	7.63e-01	0	47	104	0	60	1048572
2026-01-18 06:17:37.85	15.33	20.63	-85.2	-88.6	2.9	7.63e-01	0	47	104	0	60	1048574
2026-01-18 06:17:38.85	15.08	20.65	-85.2	-88.6	3.6	7.63e-01	0	47	104	0	60	1048573
2026-01-18 06:17:39.86	14.82	20.68	-84.3	-88.6	3.1	7.64e-01	0	47	104	0	60	1048574
2026-01-18 06:17:40.86	14.57	20.70	-85.2	-88.6	3.7	7.63e-01	0	47	104	0	60	1048575
2026-01-18 06:17:41.87	14.32	20.72	-85.2	-88.6	3.5	7.64e-01	0	47	104	0	60	1048572
2026-01-18 06:17:42.88	14.06	20.74	-85.2	-88.6	2.9	7.62e-01	0	47	104	0	60	1048573
2026-01-18 06:17:43.89	13.81	20.76	-84.3	-88.6	3.1	7.63e-01	0	47	104	0	60	1048568
2026-01-18 06:17:44.90	13.55	20.79	-85.2	-88.6	3.3	7.63e-01	0	47	104	0	60	1048574
2026-01-18 06:17:45.91	13.30	20.81	-85.2	-88.6	3.4	7.62e-01	0	47	104	0	60	1048574
2026-01-18 06:17:46.91	13.04	20.82	-85.2	-88.6	2.9	7.59e-01	0	47	104	0	60	1048574
2026-01-18 06:17:47.92	12.79	20.84	-85.2	-88.6	3.0	7.64e-01	0	47	104	0	60	1048575
2026-01-18 06:17:48.93	12.53	20.86	-84.3	-88.6	3.4	7.63e-01	0	47	104	0	60	1048574
2026-01-18 06:17:49.94	12.27	20.88	-85.2	-88.6	3.3	7.63e-01	0	47	104	0	60	1048575
2026-01-18 06:17:50.94	12.02	20.90	-85.2	-88.6	3.0	7.61e-01	0	47	104	0	60	1048565
2026-01-18 06:17:51.95	11.76	20.91	-85.2	-88.6	2.9	7.64e-01	0	47	104	0	60	1048572
2026-01-18 06:17:52.95	11.51	20.93	-85.2	-88.6	3.1	7.63e-01	0	47	104	0	60	1048573
2026-01-18 06:17:53.96	11.25	20.94	-85.2	-88.6	2.9	7.63e-01	0	47	104	0	60	1048568
2026-01-18 06:17:54.96	10.99	20.96	-84.3	-88.6	3.3	7.64e-01	0	47	104	0	60	1048572
2026-01-18 06:17:55.97	10.73	20.97	-85.2	-88.6	3.5	7.63e-01	0	47	104	0	60	1048566
2026-01-18 06:17:56.98	10.47	20.98	-85.2	-88.6	3.1	7.63e-01	0	47	104	0	60	1048574
2026-01-18 06:17:57.99	10.21	21.00	-85.2	-88.6	3.0	7.64e-01	0	47	104	0	60	1048574
2026-01-18 06:17:59.00	9.95	21.01	-84.3	-88.6	3.8	7.62e-01	0	47	104	0	60	1048572
2026-01-18 06:18:00.00	9.70	21.02	-85.2	-88.6	3.2	7.62e-01	0	47	104	0	60	1048574
2026-01-18 06:18:01.01	9.44	21.03	-85.2	-88.6	2.9	7.62e-01	0	47	104	0	60	1048573
2026-01-18 06:18:02.02	9.18	21.04	-85.2	-88.6	3.4	7.63e-01	0	47	104	0	60	1048575
2026-01-18 06:18:03.02	8.92	21.05	-85.2	-88.6	2.9	7.64e-01	0	47	104	0	60	1048575
2026-01-18 06:18:04.03	8.66	21.06	-85.2	-88.6	3.2	7.62e-01	0	47	104	0	60	1048572
2026-01-18 06:18:05.04	8.40	21.07	-84.7	-88.6	3.3	7.64e-01	0	47	104	0	60	1048572
2026-01-18 06:18:06.04	8.14	21.08	-85.2	-88.6	3.7	7.64e-01	0	47	104	0	60	1048571
2026-01-18 06:18:07.05	7.88	21.08	-85.2	-88.6	3.5	7.65e-01	0	47	104	0	60	1048575
2026-01-18 06:18:08.06	7.62	21.09	-85.2	-88.6	3.3	7.63e-01	0	47	104	0	60	1048574
2026-01-18 06:18:09.06	7.36	21.10	-85.2	-88.6	3.2	7.62e-01	0	47	104	0	60	1048575
2026-01-18 06:18:10.07	7.10	21.10	-85.2	-88.6	3.4	7.62e-01	0	47	104	0	60	1048569
2026-01-18 06:18:11.08	6.84	21.11	-85.2	-88.6	3.2	7.63e-01	0	47	104	0	60	1048570
2026-01-18 06:18:12.08	6.58	21.11	-85.2	-88.6	2.8	7.63e-01	0	47	104	0	60	1048575
2026-01-18 06:18:13.09	6.32	21.11	-84.7	-88.6	3.6	7.62e-01	0	47	104	0	60	1048572
2026-01-18 06:18:14.10	6.06	21.12	-85.2	-88.6	3.1	7.65e-01	0	47	104	0	60	1048574
2026-01-18 06:18:15.11	5.80	21.12	-85.2	-88.6	3.2	7.65e-01	0	47	104	0	60	1048573
2026-01-18 06:18:16.12	5.54	21.12	-85.2	-88.6	3.6	7.62e-01	0	47	104	0	60	1048575
2026-01-18 06:18:17.13	5.28	21.12	-85.2	-88.6	3.2	7.63e-01	0	47	104	0	60	1048571
2026-01-18 06:18:18.13	5.02	21.12	-85.2	-88.6	3.4	7.63e-01	0	47	104	0	60	1048570
2026-01-18 06:18:19.14	4.76	21.12	-84.3	-88.6	3.0	7.64e-01	0	47	104	0	60	1048574
2026-01-18 06:18:20.15	4.49	21.12	-85.2	-88.6	3.7	7.63e-01	0	47	104	0	60	1048574
2026-01-18 06:18:21.15	4.24	21.12	-85.2	-88.6	3.7	7.63e-01	0	47	104	0	60	1048574
2026-01-18 06:18:22.16	3.97	21.11	-85.2	-88.6	2.9	7.63e-01	0	47	104	0	60	1048575
2026-01-18 06:18:23.17	3.71	21.11	-85.2	-88.6	2.6	7.64e-01	0	47	104	0	60	1048575
2026-01-18 06:18:24.18	3.45	21.11	-85.2	-88.6	3.0	7.64e-01	0	47	104	0	60	1048573
2026-01-18 06:18:25.18	3.19	21.10	-85.2	-88.6	3.1	7.64e-01	0	47	104	0	60	1048574
2026-01-18 06:18:26.19	2.93	21.10	-85.2	-88.6	3.2	7.63e-01	0	47	104	0	60	1048570
2026-01-18 06:18:27.20	2.67	21.09	-84.7	-88.6	3.6	7.63e-01	0	47	104	0	60	1048574
2026-01-18 06:18:28.20	2.41	21.09	-85.2	-88.6	2.9	7.65e-01	0	47	104	0	60	1048575
2026-01-18 06:18:29.21	2.15	21.08	-85.2	-88.6	3.1	7.63e-01	0	47	104	0	60	1048573
2026-01-18 06:18:30.22	1.89	21.07	-85.2	-88.6	3.5	7.64e-01	0	47	104	0	60	1048575
2026-01-18 06:18:31.23	1.63	21.07	-85.2	-88.6	3.7	7.64e-01	0	47	104	0	60	1048571
2026-01-18 06:18:32.24	1.37	21.06	-85.2	-88.6	3.2	7.61e-01	0	47	104	0	60	1048575
2026-01-18 06:18:33.25	1.11	21.05	-84.7	-88.6	3.4	7.63e-01	0	47	104	0	60	1048574
2026-01-18 06:18:34.25	0.85	21.04	-85.2	-88.6	3.3	7.62e-01	0	47	104	0	60	1048573
2026-01-18 06:18:35.26	0.59	21.03	-85.2	-88.6	2.9	7.63e-01	0	47	104	0	60	1048574
2026-01-18 06:18:36.27	0.33	21.02	-85.2	-88.6	3.7	7.63e-01	0	47	104	0	60	1048575
2026-01-18 06:18:37.27	0.08	21.01	-85.2	-88.6	3.3	7.63e-01	0	47	104	0	60	1048569
2026-01-18 06:18:38.28	359.82	20.99	-85.2	-88.6	3.0	7.63e-01	0	47	104	0	60	1048575
2026-01-18 06:18:39.29	359.56	20.98	-85.2	-88.6	3.0	7.62e-01	0	47	104	0	60	1048572
2026-01-18 06:18:40.29	359.30	20.97	-85.2	-88.6	3.6	7.64e-01	0	47	104	0	60	1048575
2026-01-18 06:18:41.29	359.05	20.95	-84.7	-88.6	3.2	7.63e-01	0	47	104	0	60	1048575
2026-01-18 06:18:42.29	358.79	20.94	-84.7	-88.6	3.1	7.64e-01	0	47	104	0	60	1048572
2026-01-18 06:18:43.29	358.54	20.92	-85.2	-88.6	3.1	7.62e-01	0	47	104	0	60	1048575
2026-01-18 06:18:44.30	358.28	20.91	-85.2	-88.6	3.1	7.63e-01	0	47	104	0	60	1048573
2026-01-18 06:18:45.31	358.02	20.89	-85.2	-88.6	3.5	7.63e-01	0	47	104	0	60	1048573
2026-01-18 06:18:46.31	357.77	20.87	-84.7	-88.6	2.8	7.63e-01	0	47	104	0	60	1048571
2026-01-18 06:18:47.32	357.51	20.86	-85.2	-88.6	3.5	7.64e-01	0	47	104	0	60	1048571
2026-01-18 06:18:48.33	357.25	20.84	-85.2	-88.6	3.0	7.64e-01	0	47	104	0	60	1048575
2026-01-18 06:18:49.34	357.00	20.82	-85.2	-88.6	3.1	7.63e-01	0	47	104	0	60	1048575
2026-01-18 06:18:50.35	356.74	20.80	-85.2	-88.6	3.0	7.63e-01	0	47	104	0	60	1048574
2026-01-18 06:18:51.36	356.48	20.78	-85.2	-88.6	3.1	7.63e-01	0	47	104	0	60	1048575
2026-01-18 06:18:52.37	356.23	20.76	-85.2	-88.6	3.3	7.63e-01	0	47	104	0	60	1048575
2026-01-18 06:18:53.37	355.98	20.74	-85.2	-88.6	3.2	7.64e-01	0	47	104	0	60	1048573
2026-01-18 06:18:54.38	355.72	20.72	-85.2	-88.6	3.1	7.63e-01	0	47	104	0	60	1048575
2026-01-18 06:18:55.38	355.47	20.69	-84.7	-88.6	3.1	7.64e-01	0	47	104	0	60	1048573
2026-01-18 06:18:56.39	355.22	20.67	-85.2	-88.6	3.4	7.63e-01	0	47	104	0	60	1048574
2026-01-18 06:18:57.40	354.96	20.65	-85.2	-88.6	3.2	7.63e-01	0	47	104	0	60	1048575
2026-01-18 06:18:58.40	354.71	20.62	-85.2	-88.6	3.2	7.63e-01	0	47	104	0	60	1048575
2026-01-18 06:18:59.41	354.46	20.60	-85.2	-88.6	3.1	7.64e-01	0	47	104	0	60	1048574
2026-01-18 06:19:00.41	354.21	20.57	-84.7	-88.6	3.0	7.64e-01	0	47	104	0	60	1048573
2026-01-18 06:19:01.41	353.96	20.55	-85.2	-88.6	3.1	7.62e-01	0	47	104	0	60	1048572
2026-01-18 06:19:02.42	353.71	20.52	-85.2	-88.6	3.1	7.63e-01	0	47	104	0	60	1048575
2026-01-18 06:19:03.43	353.46	20.49	-85.2	-88.6	2.8	7.64e-01	0	47	104	0	60	1048570
2026-01-18 06:19:04.43	353.21	20.47	-85.2	-88.6	3.0	7.63e-01	0	47	104	0	60	1048575
2026-01-18 06:19:05.43	352.96	20.44	-84.7	-88.6	3.2	7.64e-01	0	47	104	0	60	1048573
2026-01-18 06:19:06.44	352.71	20.41	-85.2	-88.6	3.0	7.65e-01	0	47	104	0	60	1048572
2026-01-18 06:19:07.45	352.46	20.38	-85.2	-88.6	3.0	7.65e-01	0	47	104	0	60	1048573
2026-01-18 06:19:08.45	352.22	20.35	-85.2	-88.6	3.2	7.64e-01	0	47	104	0	60	1048575
2026-01-18 06:19:09.46	351.97	20.32	-85.2	-88.6	3.1	7.64e-01	0	47	104	0	60	1048574
2026-01-18 06:19:10.47	351.72	20.29	-84.7	-88.6	3.3	7.63e-01	0	47	104	0	60	1048575
2026-01-18 06:19:11.47	351.48	20.26	-85.2	-88.6	3.5	7.63e-01	0	47	104	0	60	1048573
2026-01-18 06:19:12.47	351.23	20.23	-85.2	-88.6	2.9	7.62e-01	0	47	104	0	60	1048575
2026-01-18 06:19:13.48	350.98	20.20	-85.2	-88.6	3.1	7.63e-01	0	47	104	0	60	1048570
2026-01-18 06:19:14.48	350.74	20.16	-84.7	-88.6	3.0	7.64e-01	0	47	104	0	60	1048575
2026-01-18 06:19:15.49	350.50	20.13	-85.2	-88.6	3.4	7.63e-01	0	47	104	0	60	1048575
2026-01-18 06:19:16.50	350.25	20.10	-85.2	-88.6	2.7	7.64e-01	0	47	104	0	60	1048574
2026-01-18 06:19:17.50	350.01	20.06	-85.2	-88.6	3.2	7.62e-01	0	47	104	0	60	1048574
2026-01-18 06:19:18.50	349.77	20.03	-85.2	-88.6	3.3	7.64e-01	0	47	104	0	60	1048573
2026-01-18 06:19:19.51	349.53	19.99	-84.7	-88.6	3.0	7.62e-01	0	47	104	0	60	1048573
2026-01-18 06:19:20.52	349.28	19.96	-85.2	-88.6	2.8	7.64e-01	0	47	104	0	60	1048568
2026-01-18 06:19:21.53	349.04	19.92	-85.2	-88.6	3.4	7.64e-01	0	47	104	0	60	1048573
2026-01-18 06:19:22.53	348.80	19.89	-85.2	-88.6	3.7	7.63e-01	0	47	104	0	60	1048575
2026-01-18 06:19:23.54	348.56	19.85	-84.7	-88.6	3.4	7.63e-01	0	47	104	0	60	1048575
2026-01-18 06:19:24.55	348.32	19.81	-85.2	-88.6	3.1	7.64e-01	0	47	104	0	60	1048573
2026-01-18 06:19:25.56	348.08	19.77	-84.7	-88.6	3.5	7.63e-01	0	47	104	0	60	1048575
2026-01-18 06:19:26.57	347.84	19.73	-85.2	-88.6	3.1	7.61e-01	0	47	104	0	60	1048573
2026-01-18 06:19:27.57	347.61	19.69	-85.2	-88.6	3.2	7.64e-01	0	47	104	0	60	1048574
2026-01-18 06:19:28.58	347.37	19.66	-85.2	-88.6	3.0	7.63e-01	0	47	104	0	60	1048573
2026-01-18 06:19:29.58	347.14	19.62	-84.7	-88.6	3.3	7.62e-01	0	47	104	0	60	1048573
2026-01-18 06:19:30.59	346.90	19.58	-85.2	-88.6	3.2	7.64e-01	0	47	104	0	60	1048575
2026-01-18 06:19:31.59	346.67	19.53	-85.2	-88.6	3.4	7.64e-01	0	47	104	0	60	1048574
2026-01-18 06:19:32.59	346.43	19.49	-85.2	-88.6	3.6	7.64e-01	0	47	104	0	60	1048569
2026-01-18 06:19:33.60	346.20	19.45	-84.7	-88.6	3.1	7.64e-01	0	47	104	0	60	1048575
2026-01-18 06:19:34.61	345.96	19.41	-85.2	-88.6	3.1	7.64e-01	0	47	104	0	60	1048572
2026-01-18 06:19:35.62	345.73	19.37	-85.2	-88.6	3.0	7.63e-01	0	47	104	0	60	1048575
2026-01-18 06:19:36.63	345.50	19.32	-85.2	-88.6	3.1	7.62e-01	0	47	104	0	60	1048568
2026-01-18 06:19:37.64	345.27	19.28	-85.2	-88.6	3.1	7.62e-01	0	47	104	0	60	1048575
2026-01-18 06:19:38.65	345.04	19.24	-84.7	-88.6	2.4	7.63e-01	0	47	104	0	60	1048575
2026-01-18 06:19:39.65	344.81	19.19	-84.7	-88.6	3.7	7.62e-01	0	47	104	0	60	1048571
2026-01-18 06:19:40.66	344.58	19.15	-85.2	-88.6	3.6	7.63e-01	0	47	104	0	60	1048573
2026-01-18 06:19:41.67	344.35	19.10	-85.2	-88.6	3.5	7.64e-01	0	47	104	0	60	1048575
2026-01-18 06:19:42.67	344.12	19.06	-85.2	-88.6	3.5	7.63e-01	0	47	104	0	60	1048574
2026-01-18 06:19:43.68	343.89	19.01	-85.2	-88.6	3.3	7.64e-01	0	47	104	0	60	1048570
2026-01-18 06:19:44.68	343.67	18.97	-84.7	-88.6	2.9	7.63e-01	0	47	104	0	60	1048574
2026-01-18 06:19:45.69	343.44	18.92	-85.2	-88.6	3.7	7.63e-01	0	47	104	0	60	1048568
2026-01-18 06:19:46.69	343.22	18.87	-85.2	-88.6	3.5	7.64e-01	0	47	104	0	60	1048575
2026-01-18 06:19:47.70	343.00	18.83	-85.2	-88.6	3.0	7.62e-01	0	47	104	0	60	1048575
2026-01-18 06:19:48.70	342.77	18.78	-85.2	-88.6	3.1	7.63e-01	0	47	104	0	60	1048575
2026-01-18 06:19:49.71	342.55	18.73	-85.2	-88.6	3.6	7.65e-01	0	47	104	0	60	1048575
2026-01-18 06:19:50.72	342.33	18.68	-85.2	-88.6	3.7	7.63e-01	0	47	104	0	60	1048569
2026-01-18 06:19:51.72	342.11	18.63	-85.2	-88.6	3.1	7.64e-01	0	47	104	0	60	1048572
2026-01-18 06:19:52.73	341.89	18.59	-84.7	-88.6	2.9	7.63e-01	0	47	104	0	60	1048575
2026-01-18 06:19:53.73	341.67	18.54	-85.2	-88.6	3.3	7.63e-01	0	47	104	0	60	1048573
2026-01-18 06:19:54.74	341.45	18.49	-85.2	-88.6	3.1	7.63e-01	0	47	104	0	60	1048575
2026-01-18 06:19:55.75	341.23	18.44	-85.2	-88.6	3.1	7.63e-01	0	47	104	0	60	1048575
2026-01-18 06:19:56.76	341.01	18.39	-85.2	-88.6	2.9	7.64e-01	0	47	104	0	60	1048575
2026-01-18 06:19:57.76	340.79	18.34	-85.2	-88.6	3.4	7.64e-01	0	47	104	0	60	1048573
2026-01-18 06:19:58.77	340.58	18.29	-85.2	-88.6	2.9	7.63e-01	0	47	104	0	60	1048575
2026-01-18 06:19:59.78	340.36	18.23	-85.2	-88.6	3.4	7.62e-01	0	47	104	0	60	1048573
2026-01-18 06:20:00.78	340.15	18.18	-85.2	-88.6	3.1	7.63e-01	0	47	104	0	60	1048575
2026-01-18 06:20:01.79	339.93	18.13	-85.2	-88.6	3.2	7.61e-01	0	47	104	0	60	1048574
2026-01-18 06:20:02.80	339.72	18.08	-84.7	-88.6	3.5	7.64e-01	0	47	104	0	60	1048573
2026-01-18 06:20:03.81	339.50	18.03	-85.2	-88.6	3.0	7.64e-01	0	47	104	0	60	1048574
2026-01-18 06:20:04.81	339.29	17.97	-85.2	-88.6	3.1	7.64e-01	0	47	104	0	60	1048572
2026-01-18 06:20:05.82	339.08	17.92	-85.2	-88.6	2.6	7.62e-01	0	47	104	0	60	1048575
2026-01-18 06:20:06.83	338.87	17.87	-84.7	-88.6	3.2	7.63e-01	0	47	104	0	60	1048575
2026-01-18 06:20:07.84	338.66	17.81	-85.2	-88.6	3.6	7.62e-01	0	47	104	0	60	1048573
2026-01-18 06:20:08.85	338.45	17.76	-85.2	-88.6	3.2	7.64e-01	0	47	104	0	60	1048570
2026-01-18 06:20:09.85	338.24	17.70	-85.2	-88.6	2.9	7.64e-01	0	47	104	0	60	1048573
2026-01-18 06:20:10.86	338.04	17.65	-85.2	-88.6	3.6	7.62e-01	0	47	104	0	60	1048571
2026-01-18 06:20:11.87	337.83	17.59	-84.7	-88.6	3.1	7.64e-01	0	47	104	0	60	1048575
2026-01-18 06:20:12.88	337.62	17.54	-85.2	-88.6	3.4	7.61e-01	0	47	104	0	60	1048572
2026-01-18 06:20:13.89	337.42	17.48	-85.2	-88.6	3.6	7.64e-01	0	47	104	0	60	1048571
2026-01-18 06:20:14.89	337.21	17.43	-85.2	-88.6	3.4	7.63e-01	0	47	104	0	60	1048575
2026-01-18 06:20:15.90	337.01	17.37	-85.2	-88.6	3.0	7.63e-01	0	47	104	0	60	1048575
2026-01-18 06:20:16.91	336.81	17.32	-85.2	-88.6	3.4	7.63e-01	0	47	104	0	60	1048575
2026-01-18 06:20:17.91	336.60	17.26	-85.2	-88.6	3.0	7.63e-01	0	47	104	0	60	1048574
2026-01-18 06:20:18.92	336.40	17.20	-85.2	-88.6	2.9	7.63e-01	0	47	104	0	60	1048575
2026-01-18 06:20:19.93	336.20	17.15	-85.2	-88.6	3.0	7.63e-01	0	47	104	0	60	1048575
2026-01-18 06:20:20.93	336.00	17.09	-85.2	-88.6	3.1	7.64e-01	0	47	104	0	60	1048571
2026-01-18 06:20:21.94	335.80	17.03	-85.2	-88.6	3.5	7.64e-01	0	47	104	0	60	1048575
2026-01-18 06:20:22.94	335.61	16.98	-85.2	-88.6	2.9	7.63e-01	0	47	104	0	60	1048575
2026-01-18 06:20:23.95	335.41	16.92	-85.2	-88.6	3.0	7.65e-01	0	47	104	0	60	1048573
2026-01-18 06:20:24.95	335.21	16.86	-84.7	-88.6	3.4	7.63e-01	0	47	104	0	60	1048575
2026-01-18 06:20:25.96	335.02	16.80	-85.2	-88.6	3.3	7.64e-01	0	47	104	0	60	1048573
2026-01-18 06:20:26.97	334.82	16.74	-85.2	-88.6	2.9	7.63e-01	0	47	104	0	60	1048574
2026-01-18 06:20:27.98	334.63	16.69	-85.2	-88.6	3.5	7.64e-01	0	47	104	0	60	1048573
2026-01-18 06:20:28.98	334.43	16.63	-85.2	-88.6	3.1	7.64e-01	0	47	104	0	60	1048571
2026-01-18 06:20:29.99	334.24	16.57	-85.2	-88.6	3.0	7.64e-01	0	47	104	0	60	1048575
2026-01-18 06:20:31.00	334.05	16.51	-85.2	-88.6	3.5	7.63e-01	0	47	104	0	60	1048575
2026-01-18 06:20:32.01	333.86	16.45	-85.2	-88.6	3.7	7.64e-01	0	47	104	0	60	1048575
2026-01-18 06:20:33.01	333.67	16.39	-85.2	-88.6	2.8	7.62e-01	0	47	104	0	60	1048573
2026-01-18 06:20:34.02	333.48	16.33	-84.7	-88.6	3.0	7.62e-01	0	47	104	0	60	1048575
2026-01-18 06:20:35.03	333.29	16.27	-85.2	-88.6	2.8	7.62e-01	0	47	104	0	60	1048573
2026-01-18 06:20:36.04	333.10	16.21	-85.2	-88.6	3.4	7.65e-01	0	47	104	0	60	1048571
2026-01-18 06:20:37.04	332.91	16.15	-85.2	-88.6	3.0	7.63e-01	0	47	104	0	60	1048570
2026-01-18 06:20:38.05	332.72	16.09	-85.2	-88.6	3.2	7.64e-01	0	47	104	0	60	1048573
2026-01-18 06:20:39.06	332.54	16.03	-85.2	-88.6	3.6	7.64e-01	0	47	104	0	60	1048565
2026-01-18 06:20:40.07	332.35	15.97	-85.2	-88.6	3.0	7.63e-01	0	47	104	0	60	1048575
2026-01-18 06:20:41.08	332.17	15.91	-84.7	-88.6	3.3	7.64e-01	0	47	104	0	60	1048568
2026-01-18 06:20:42.08	331.98	15.85	-85.2	-88.6	3.7	7.64e-01	0	47	104	0	60	1048574
2026-01-18 06:20:43.09	331.80	15.79	-85.2	-88.6	3.0	7.63e-01	0	47	104	0	60	1048567
2026-01-18 06:20:44.10	331.62	15.73	-85.2	-88.6	3.0	7.62e-01	0	47	104	0	60	1048570
2026-01-18 06:20:45.10	331.44	15.67	-85.2	-88.6	3.7	7.64e-01	0	47	104	0	60	1048572
2026-01-18 06:20:46.11	331.26	15.60	-85.2	-88.6	3.7	7.62e-01	0	47	104	0	60	1048573
2026-01-18 06:20:47.12	331.07	15.54	-85.2	-88.6	3.0	7.64e-01	0	47	104	0	60	1048571
2026-01-18 06:20:48.13	330.89	15.48	-85.2	-88.6	3.0	7.63e-01	0	47	104	0	60	1048572
2026-01-18 06:20:49.13	330.72	15.42	-85.2	-88.6	2.9	7.62e-01	0	47	104	0	60	1048573
2026-01-18 06:20:50.14	330.54	15.36	-85.2	-88.6	3.2	7.64e-01	0	47	104	0	60	1048574
2026-01-18 06:20:51.14	330.36	15.30	-85.2	-88.6	3.0	7.64e-01	0	47	104	0	60	1048575
2026-01-18 06:20:52.15	330.19	15.23	-85.2	-88.6	3.0	7.62e-01	0	47	104	0	60	1048573
2026-01-18 06:20:53.15	330.01	15.17	-85.2	-88.6	3.5	7.63e-01	0	47	104	0	60	1048575
2026-01-18 06:20:54.16	329.84	15.11	-85.2	-88.6	2.9	7.64e-01	0	47	104	0	60	1048573
2026-01-18 06:20:55.16	329.66	15.05	-84.3	-88.6	3.0	7.64e-01	0	47	104	0	60	1048575
2026-01-18 06:20:56.17	329.49	14.98	-85.2	-88.6	3.4	7.64e-01	0	47	104	0	60	1048575
2026-01-18 06:20:57.18	329.32	14.92	-85.2	-88.6	3.3	7.63e-01	0	47	104	0	60	1048574
2026-01-18 06:20:58.19	329.15	14.86	-84.3	-88.6	3.2	7.64e-01	0	47	104	0	60	1048575
2026-01-18 06:20:59.20	328.97	14.79	-84.7	-88.6	3.5	7.62e-01	0	47	104	0	60	1048573
2026-01-18 06:21:00.20	328.80	14.73	-85.2	-88.6	3.3	7.63e-01	0	47	104	0	60	1048571
2026-01-18 06:21:01.21	328.63	14.67	-85.2	-88.6	3.1	7.64e-01	0	47	104	0	60	1048575
2026-01-18 06:21:02.22	328.46	14.60	-85.2	-88.6	3.6	7.63e-01	0	47	104	0	60	1048574
2026-01-18 06:21:03.23	328.30	14.54	-85.2	-88.6	2.8	7.63e-01	0	47	104	0	60	1048575
2026-01-18 06:21:04.24	328.13	14.48	-84.7	-88.6	3.0	7.62e-01	0	47	104	0	60	1048572
2026-01-18 06:21:05.25	327.96	14.41	-85.2	-88.6	3.2	7.62e-01	0	47	104	0	60	1048575
2026-01-18 06:21:06.25	327.80	14.35	-84.7	-88.6	3.7	7.64e-01	0	47	104	0	60	1048571
2026-01-18 06:21:07.26	327.63	14.29	-85.2	-88.6	3.8	7.63e-01	0	47	104	0	60	1048575
2026-01-18 06:21:08.27	327.47	14.22	-84.7	-88.6	3.2	7.64e-01	0	47	104	0	60	1048574
2026-01-18 06:21:09.28	327.30	14.16	-84.7	-88.6	3.3	7.63e-01	0	47	104	0	60	1048574
2026-01-18 06:21:10.28	327.14	14.10	-85.2	-88.6	2.8	7.64e-01	0	47	104	0	60	1048574
2026-01-18 06:21:11.29	326.98	14.03	-85.2	-88.6	3.5	7.62e-01	0	47	104	0	60	1048571
2026-01-18 06:21:12.29	326.82	13.97	-85.2	-88.6	3.4	7.65e-01	0	47	104	0	60	1048574
2026-01-18 06:21:13.30	326.65	13.90	-84.7	-88.6	2.8	7.65e-01	0	47	104	0	60	1048575
2026-01-18 06:21:14.31	326.49	13.84	-85.2	-88.6	2.7	7.62e-01	0	47	104	0	60	1048574
2026-01-18 06:21:15.32	326.33	13.78	-85.2	-88.6	3.6	7.62e-01	0	47	104	0	60	1048574
2026-01-18 06:21:16.32	326.18	13.71	-84.7	-88.6	3.1	7.63e-01	0	47	104	0	60	1048575
2026-01-18 06:21:17.33	326.02	13.65	-85.2	-88.6	3.4	7.63e-01	0	47	104	0	60	1048575
2026-01-18 06:21:18.33	325.86	13.58	-85.2	-88.6	3.0	7.64e-01	0	47	104	0	60	1048574
2026-01-18 06:21:19.34	325.70	13.52	-85.2	-88.6	2.9	7.63e-01	0	47	104	0	60	1048574
2026-01-18 06:21:20.35	325.55	13.45	-85.2	-88.6	3.6	7.63e-01	0	47	104	0	60	1048575
2026-01-18 06:21:21.36	325.39	13.39	-84.7	-88.6	3.1	7.64e-01	0	47	104	0	60	1048575
2026-01-18 06:21:22.36	325.24	13.33	-85.2	-88.6	2.8	7.63e-01	0	47	104	0	60	1048575
2026-01-18 06:21:23.37	325.08	13.26	-85.2	-88.6	3.3	7.64e-01	0	47	104	0	60	1048574
2026-01-18 06:21:24.37	324.93	13.20	-85.2	-88.6	3.0	7.62e-01	0	47	104	0	60	1048575
2026-01-18 06:21:25.38	324.78	13.13	-85.2	-88.6	3.7	7.63e-01	0	47	104	0	60	1048575
2026-01-18 06:21:26.38	324.63	13.07	-85.2	-88.6	3.3	7.64e-01	0	47	104	0	60	1048573
2026-01-18 06:21:27.39	324.48	13.00	-85.2	-88.6	3.2	7.65e-01	0	47	104	0	60	1048574
2026-01-18 06:21:28.40	324.32	12.94	-85.2	-88.6	3.0	7.64e-01	0	47	104	0	60	1048572
2026-01-18 06:21:29.41	324.17	12.87	-85.2	-88.6	3.0	7.63e-01	0	47	104	0	60	1048575
2026-01-18 06:21:30.42	324.02	12.81	-85.2	-88.6	3.6	7.64e-01	0	47	104	0	60	1048570
2026-01-18 06:21:31.43	323.88	12.74	-85.2	-88.6	3.2	7.63e-01	0	47	104	0	60	1048564
2026-01-18 06:21:32.43	323.73	12.68	-85.2	-88.6	3.1	7.63e-01	0	47	104	0	60	1048575
2026-01-18 06:21:33.44	323.58	12.62	-85.2	-88.6	3.2	7.63e-01	0	47	104	0	60	1048575
2026-01-18 06:21:34.45	323.43	12.55	-85.2	-88.6	3.2	7.62e-01	0	47	104	0	60	1048570
2026-01-18 06:21:35.46	323.29	12.49	-85.2	-88.6	3.5	7.64e-01	0	47	104	0	60	1048575
2026-01-18 06:21:36.47	323.14	12.42	-85.2	-88.6	3.4	7.59e-01	0	47	104	0	60	1048575
2026-01-18 06:21:37.47	323.00	12.36	-85.2	-88.6	3.0	7.62e-01	0	47	104	0	60	1048574
2026-01-18 06:21:38.48	322.85	12.29	-84.7	-88.6	3.0	7.63e-01	0	47	104	0	60	1048570
2026-01-18 06:21:39.49	322.71	12.23	-85.2	-88.6	2.9	7.62e-01	0	47	104	0	60	1048573
2026-01-18 06:21:40.50	322.57	12.16	-85.2	-88.6	3.7	7.63e-01	0	47	104	0	60	1048573
2026-01-18 06:21:41.50	322.43	12.10	-84.7	-88.6	3.2	7.63e-01	0	47	104	0	60	1048574
2026-01-18 06:21:42.51	322.28	12.03	-85.2	-88.6	3.1	7.64e-01	0	47	104	0	60	1048572
2026-01-18 06:21:43.52	322.14	11.97	-85.2	-88.6	3.0	7.63e-01	0	47	104	0	60	1048569
2026-01-18 06:21:44.53	322.00	11.90	-85.2	-88.6	3.1	7.63e-01	0	47	104	0	60	1048574
2026-01-18 06:21:45.53	321.86	11.84	-85.2	-88.6	3.3	7.64e-01	0	47	104	0	60	1048575
2026-01-18 06:21:46.53	321.73	11.77	-85.2	-88.6	2.5	7.57e-01	0	47	104	0	60	1048574
2026-01-18 06:21:47.54	321.59	11.71	-85.2	-88.6	3.3	7.56e-01	0	47	104	0	60	1048575
2026-01-18 06:21:48.54	321.45	11.64	-85.2	-88.6	3.0	7.63e-01	0	47	104	0	60	1048570
2026-01-18 06:21:49.55	321.31	11.58	-85.2	-88.6	3.1	7.64e-01	0	47	104	0	60	1048575
2026-01-18 06:21:50.55	321.18	11.51	-85.2	-88.6	3.6	7.64e-01	0	47	104	0	60	1048574
2026-01-18 06:21:51.56	321.04	11.45	-85.2	-88.6	3.4	7.64e-01	0	47	104	0	60	1048574
2026-01-18 06:21:52.56	320.91	11.39	-85.2	-88.6	2.8	7.62e-01	0	47	104	0	60	1048573
2026-01-18 06:21:53.57	320.77	11.32	-85.2	-88.6	2.7	7.61e-01	0	47	104	0	60	1048572
2026-01-18 06:21:54.58	320.64	11.26	-84.3	-88.6	3.4	7.65e-01	0	47	104	0	60	1048569
2026-01-18 06:21:55.59	320.50	11.19	-83.5	-88.6	3.1	7.63e-01	0	47	104	0	60	1048575
2026-01-18 06:21:56.60	320.37	11.13	-84.7	-88.6	3.0	7.64e-01	0	47	104	0	60	1048574
2026-01-18 06:21:57.60	320.24	11.06	-85.2	-88.6	3.6	7.64e-01	0	47	104	0	60	1048575
2026-01-18 06:21:58.61	320.11	11.00	-85.2	-88.6	3.2	7.63e-01	0	47	104	0	60	1048575
2026-01-18 06:21:59.61	319.98	10.93	-85.2	-88.6	3.0	7.63e-01	0	47	104	0	60	1048572
2026-01-18 06:22:00.62	319.85	10.87	-85.2	-88.6	3.2	7.62e-01	0	47	104	0	60	1048572
2026-01-18 06:22:01.62	319.72	10.80	-85.2	-88.6	3.1	7.63e-01	0	47	104	0	60	1048574
2026-01-18 06:22:02.63	319.59	10.74	-85.2	-88.6	3.1	7.61e-01	0	47	104	0	60	1048575
2026-01-18 06:22:03.63	319.46	10.67	-85.2	-88.6	3.0	7.62e-01	0	47	104	0	60	1048573
2026-01-18 06:22:04.64	319.33	10.61	-85.2	-88.6	3.7	7.62e-01	0	47	104	0	60	1048575
2026-01-18 06:22:05.65	319.20	10.55	-84.7	-88.6	3.1	7.63e-01	0	47	104	0	60	1048574
2026-01-18 06:22:06.66	319.08	10.48	-85.2	-88.6	3.6	7.64e-01	0	47	104	0	60	1048573
2026-01-18 06:22:07.67	318.95	10.42	-85.2	-88.6	3.1	7.63e-01	0	47	104	0	60	1048573
2026-01-18 06:22:08.68	318.82	10.35	-85.2	-88.6	2.8	7.63e-01	0	47	104	0	60	1048575
2026-01-18 06:22:09.69	318.70	10.29	-83.5	-88.6	3.1	7.63e-01	0	47	104	0	60	1048570
2026-01-18 06:22:10.69	318.57	10.22	-85.2	-88.6	3.4	7.64e-01	0	47	104	0	60	1048570
2026-01-18 06:22:11.70	318.45	10.16	-85.2	-88.6	3.5	7.63e-01	0	47	104	0	60	1048575
2026-01-18 06:22:12.71	318.33	10.09	-85.2	-88.6	2.9	7.62e-01	0	47	104	0	60	1048571
2026-01-18 06:22:13.71	318.20	10.03	-85.2	-88.6	2.9	7.62e-01	0	47	104	0	60	1048571
2026-01-18 06:22:14.72	318.08	9.97	-85.2	-88.6	3.6	7.63e-01	0	47	104	0	60	1048575
2026-01-18 06:22:15.72	317.96	9.90	-85.2	-88.6	3.4	7.64e-01	0	47	104	0	60	1048574
2026-01-18 06:22:16.73	317.84	9.84	-84.7	-88.6	3.1	7.63e-01	0	47	104	0	60	1048575
2026-01-18 06:22:17.74	317.72	9.77	-85.2	-88.6	2.9	7.63e-01	0	47	104	0	60	1048574
2026-01-18 06:22:18.75	317.60	9.71	-85.2	-88.6	2.9	7.62e-01	0	47	104	0	60	1048575
2026-01-18 06:22:19.76	317.48	9.65	-84.7	-88.6	3.3	7.61e-01	0	47	104	0	60	1048573
2026-01-18 06:22:20.76	317.36	9.58	-85.2	-88.6	3.1	7.64e-01	0	47	104	0	60	1048573
2026-01-18 06:22:21.77	317.24	9.52	-85.2	-88.6	3.5	7.62e-01	0	47	104	0	60	1048573
2026-01-18 06:22:22.77	317.12	9.45	-85.2	-88.6	2.9	7.62e-01	0	47	104	0	60	1048572
2026-01-18 06:22:23.78	317.00	9.39	-85.2	-88.6	3.1	7.62e-01	0	47	104	0	60	1048574
2026-01-18 06:22:24.79	316.89	9.33	-84.7	-88.6	3.5	7.63e-01	0	47	104	0	60	1048575
2026-01-18 06:22:25.80	316.77	9.26	-85.2	-88.6	3.7	7.64e-01	0	47	104	0	60	1048574
2026-01-18 06:22:26.81	316.65	9.20	-85.2	-88.6	3.1	7.63e-01	0	47	104	0	60	1048570
2026-01-18 06:22:27.81	316.54	9.14	-85.2	-88.6	3.0	7.63e-01	0	47	104	0	60	1048574
2026-01-18 06:22:28.82	316.42	9.07	-85.2	-88.6	3.1	7.64e-01	0	47	104	0	60	1048575
2026-01-18 06:22:29.82	316.31	9.01	-84.7	-88.6	2.8	7.64e-01	0	47	104	0	60	1048575
2026-01-18 06:22:30.83	316.20	8.95	-85.2	-88.6	3.2	7.63e-01	0	47	104	0	60	1048575
2026-01-18 06:22:31.84	316.08	8.88	-85.2	-88.6	2.9	7.62e-01	0	47	104	0	60	1048574
2026-01-18 06:22:32.84	315.97	8.82	-85.2	-88.6	3.7	7.62e-01	0	47	104	0	60	1048572
2026-01-18 06:22:33.84	315.86	8.76	-84.7	-88.6	3.0	7.64e-01	0	47	104	0	60	1048572
2026-01-18 06:22:34.85	315.75	8.69	-84.3	-88.6	2.9	7.63e-01	0	47	104	0	60	1048573
2026-01-18 06:22:35.86	315.63	8.63	-84.7	-88.6	3.1	7.62e-01	0	47	104	0	60	1048574
2026-01-18 06:22:36.87	315.52	8.57	-85.2	-88.6	3.5	7.65e-01	0	47	104	0	60	1048568
2026-01-18 06:22:37.88	315.41	8.50	-85.2	-88.6	3.0	7.63e-01	0	47	104	0	60	1048574
2026-01-18 06:22:38.88	315.30	8.44	-84.7	-88.6	3.7	7.63e-01	0	47	104	0	60	1048575
2026-01-18 06:22:39.89	315.19	8.38	-83.9	-88.6	3.3	7.65e-01	0	47	104	0	60	1048574
2026-01-18 06:22:40.90	315.08	8.31	-85.2	-88.6	2.9	7.62e-01	0	47	104	0	60	1048574
2026-01-18 06:22:41.90	314.98	8.25	-85.2	-88.6	3.1	7.62e-01	0	47	104	0	60	1048572
2026-01-18 06:22:42.91	314.87	8.19	-85.2	-88.6	3.5	7.62e-01	0	47	104	0	60	1048575
2026-01-18 06:22:43.92	314.76	8.13	-84.7	-88.6	3.0	7.63e-01	0	47	104	0	60	1048575
2026-01-18 06:22:44.93	314.65	8.06	-84.3	-88.6	3.1	7.63e-01	0	47	104	0	60	1048574
2026-01-18 06:22:45.93	314.55	8.00	-85.2	-88.6	3.5	7.62e-01	0	47	104	0	60	1048575
2026-01-18 06:22:46.94	314.44	7.94	-85.2	-88.6	3.5	7.62e-01	0	47	104	0	60	1048575
2026-01-18 06:22:47.94	314.33	7.88	-85.2	-88.6	3.2	7.62e-01	0	47	104	0	60	1048574
2026-01-18 06:22:48.95	314.23	7.81	-84.7	-88.6	2.9	7.63e-01	0	47	104	0	60	1048575
2026-01-18 06:22:49.96	314.12	7.75	-82.2	-88.6	3.4	7.63e-01	0	47	104	0	60	1048571
2026-01-18 06:22:50.96	314.02	7.69	-85.2	-88.6	3.9	7.63e-01	0	47	104	0	60	1048575
2026-01-18 06:22:51.96	313.92	7.63	-85.2	-88.6	2.8	7.64e-01	0	47	104	0	60	1048573
2026-01-18 06:22:52.97	313.81	7.56	-85.2	-88.6	3.4	7.64e-01	0	47	104	0	60	1048575
2026-01-18 06:22:53.97	313.71	7.50	-85.2	-88.6	2.8	7.61e-01	0	47	104	0	60	1048574
2026-01-18 06:22:54.98	313.61	7.44	-85.2	-88.6	3.0	7.62e-01	0	47	104	0	60	1048574
2026-01-18 06:22:55.98	313.51	7.38	-85.2	-88.6	3.5	7.63e-01	0	47	104	0	60	1048575
2026-01-18 06:22:56.98	313.41	7.32	-85.2	-88.6	3.2	7.63e-01	0	47	104	0	60	1048575
2026-01-18 06:22:57.99	313.31	7.26	-84.7	-88.6	3.0	7.63e-01	0	47	104	0	60	1048574
2026-01-18 06:22:58.99	313.21	7.19	-85.2	-88.6	2.9	7.62e-01	0	47	104	0	60	1048575
2026-01-18 06:22:59.99	313.11	7.13	-85.2	-88.6	3.4	7.64e-01	0	47	104	0	60	1048575
2026-01-18 06:23:01.00	313.01	7.07	-85.2	-88.6	3.1	7.63e-01	0	47	104	0	60	1048575
2026-01-18 06:23:02.00	312.91	7.01	-85.2	-88.6	3.0	7.65e-01	0	47	104	0	60	1048575
2026-01-18 06:23:03.01	312.81	6.95	-85.2	-88.6	3.0	7.64e-01	0	47	104	0	60	1048575
2026-01-18 06:23:04.01	312.71	6.89	-85.2	-88.6	3.1	7.63e-01	0	47	104	0	60	1048573
2026-01-18 06:23:05.01	312.61	6.83	-85.2	-88.6	3.2	7.64e-01	0	47	104	0	60	1048573
2026-01-18 06:23:06.02	312.52	6.76	-84.7	-88.6	3.0	7.63e-01	0	47	104	0	60	1048575
2026-01-18 06:23:07.01	312.42	6.70	-85.2	-88.6	3.6	7.63e-01	0	47	104	0	60	1048575
2026-01-18 06:23:08.01	312.32	6.64	-85.2	-88.6	3.5	7.63e-01	0	47	104	0	60	1048575
2026-01-18 06:23:09.02	312.23	6.58	-85.2	-88.6	3.0	7.63e-01	0	47	104	0	60	1048575
2026-01-18 06:23:10.02	312.13	6.52	-85.2	-88.6	3.0	7.63e-01	0	47	104	0	60	1048573
2026-01-18 06:23:11.03	312.04	6.46	-85.2	-88.6	2.8	7.63e-01	0	47	104	0	60	1048573
2026-01-18 06:23:12.04	311.94	6.40	-84.7	-88.6	3.4	7.63e-01	0	47	104	0	60	1048571
2026-01-18 06:23:13.05	311.85	6.34	-84.7	-88.6	3.1	7.63e-01	0	47	104	0	60	1048565
2026-01-18 06:23:14.05	311.75	6.28	-85.2	-88.6	3.0	7.63e-01	0	47	104	0	60	1048575
2026-01-18 06:23:15.06	311.66	6.22	-85.2	-88.6	2.9	7.63e-01	0	47	104	0	60	1048575
2026-01-18 06:23:16.07	311.56	6.16	-84.7	-88.6	2.8	7.64e-01	0	47	104	0	60	1048574
2026-01-18 06:23:17.08	311.47	6.10	-85.2	-88.6	3.7	7.62e-01	0	47	104	0	60	1048573
2026-01-18 06:23:18.09	311.38	6.03	-84.7	-88.6	3.6	7.64e-01	0	47	104	0	60	1048570
2026-01-18 06:23:19.09	311.29	5.97	-85.2	-88.6	3.1	7.63e-01	0	47	104	0	60	1048571
2026-01-18 06:23:20.10	311.19	5.91	-85.2	-88.6	2.9	7.64e-01	0	47	104	0	60	1048572
2026-01-18 06:23:21.11	311.10	5.85	-84.7	-88.6	3.6	7.63e-01	0	47	104	0	60	1048572
2026-01-18 06:23:22.11	311.01	5.79	-84.7	-88.6	3.4	7.63e-01	0	47	104	0	60	1048570
2026-01-18 06:23:23.11	310.92	5.73	-85.2	-88.6	3.0	7.63e-01	0	47	104	0	60	1048575
2026-01-18 06:23:24.11	310.83	5.67	-85.2	-88.6	3.0	7.62e-01	0	47	104	0	60	1048575
2026-01-18 06:23:25.12	310.74	5.61	-85.2	-88.6	3.3	7.63e-01	0	47	104	0	60	1048571
2026-01-18 06:23:26.12	310.65	5.55	-85.2	-88.6	3.0	7.64e-01	0	47	104	0	60	1048575
2026-01-18 06:23:27.12	310.56	5.49	-84.7	-88.6	2.9	7.63e-01	0	47	104	0	60	1048575
2026-01-18 06:23:28.13	310.47	5.43	-85.2	-88.6	3.0	7.63e-01	0	47	104	0	60	1048574
2026-01-18 06:23:29.13	310.39	5.38	-84.3	-88.6	3.7	7.61e-01	0	47	104	0	60	1048574
2026-01-18 06:23:30.14	310.30	5.32	-85.2	-88.6	3.4	7.63e-01	0	47	104	0	60	1048571
2026-01-18 06:23:31.15	310.21	5.26	-85.2	-88.6	3.1	7.63e-01	0	47	104	0	60	1048574
2026-01-18 06:23:32.15	310.12	5.20	-85.2	-88.6	2.9	7.64e-01	0	47	104	0	60	1048572
2026-01-18 06:23:33.16	310.04	5.14	-85.2	-88.6	3.6	7.64e-01	0	47	104	0	60	1048573
2026-01-18 06:23:34.16	309.95	5.08	-85.2	-88.6	2.8	7.63e-01	0	47	104	0	60	1048574
2026-01-18 06:23:35.17	309.86	5.02	-85.2	-88.6	3.2	7.63e-01	0	47	104	0	60	1048574
2026-01-18 06:23:36.18	309.78	4.96	-85.2	-88.6	3.2	7.63e-01	0	47	104	0	60	1048572
2026-01-18 06:23:37.19	309.69	4.90	-85.2	-88.6	3.1	7.61e-01	0	47	104	0	60	1048574
2026-01-18 06:23:38.19	309.61	4.84	-85.2	-88.6	3.4	7.64e-01	0	47	104	0	60	1048575
2026-01-18 06:23:39.20	309.52	4.78	-85.2	-88.6	3.1	7.62e-01	0	47	104	0	60	1048575
2026-01-18 06:23:40.20	309.44	4.72	-85.2	-88.6	3.3	7.63e-01	0	47	104	0	60	1048575
2026-01-18 06:23:41.20	309.36	4.66	-84.7	-88.6	3.5	7.63e-01	0	47	104	0	60	1048574
2026-01-18 06:23:42.21	309.27	4.61	-85.2	-88.6	3.6	7.64e-01	0	47	104	0	60	1048570
