passes_logs/2026/01/18/R3.2S-Naryan-Mar/R3.2S-Naryan-Mar__20260118_054859_AQUA_rec.log

#Pass ID: 20260118_054859_AQUA
#Satellite: AQUA
#Configuration: AQUA
#almurnet v.1.7.20240730
#Start time: 2026-01-18 05:49:00

#Version: 2.2.20231116
#Station: R3.2S-Naryan-Mar
#Location: 53.008057 lon 67.646978 lat
#TLE: 1 27424U 02022A   26017.29152041  .00000842  00000+0  17841-3 0  9992
#TLE: 2 27424  98.4085 343.7574 0002011  75.4099  30.6811 14.61825797261228

#Time	Az	El	Level	Level2	SNR	BER	BlckErr	Temp	State	Recorded	gain1	gain2
2026-01-18 05:49:00.45	61.96	0.05	-85.2	-88.6	3.3	1.55e+00	0	45	0	0	60	1048573
2026-01-18 05:49:01.46	61.88	0.10	-83.9	-88.8	2.7	3.13e+01	0	46	104	0	60	1048575
2026-01-18 05:49:02.46	61.80	0.16	-83.9	-88.8	2.3	3.13e+01	0	46	104	0	60	1048575
2026-01-18 05:49:03.47	61.72	0.21	-84.3	-88.8	2.6	3.13e+01	0	46	104	0	60	1048575
2026-01-18 05:49:04.47	61.65	0.26	-84.3	-88.8	2.4	3.13e+01	0	46	104	0	60	1048575
2026-01-18 05:49:05.47	61.57	0.31	-84.3	-88.8	2.7	3.13e+01	0	46	104	0	60	1048575
2026-01-18 05:49:06.48	61.49	0.37	-83.5	-88.8	2.4	3.13e+01	0	46	104	0	60	1048575
2026-01-18 05:49:07.48	61.41	0.42	-84.3	-88.8	2.7	3.13e+01	0	46	104	0	60	1048575
2026-01-18 05:49:08.49	61.33	0.47	-84.3	-88.8	2.6	3.13e+01	0	46	104	0	60	1048575
2026-01-18 05:49:09.50	61.25	0.52	-84.3	-88.8	2.7	3.13e+01	0	46	104	0	60	1048575
2026-01-18 05:49:10.50	61.17	0.58	-84.3	-88.8	2.6	3.13e+01	0	46	104	0	60	1048575
2026-01-18 05:49:11.50	61.09	0.63	-83.9	-88.8	2.6	3.13e+01	0	46	104	0	60	1048575
2026-01-18 05:49:12.51	61.01	0.68	-84.3	-88.8	2.7	3.13e+01	0	46	104	0	60	1048575
2026-01-18 05:49:13.51	60.93	0.73	-84.3	-88.8	2.6	3.13e+01	0	46	104	0	60	1048575
2026-01-18 05:49:14.52	60.85	0.79	-84.3	-88.8	2.4	3.13e+01	0	46	104	0	60	1048575
2026-01-18 05:49:15.52	60.77	0.84	-83.9	-88.8	2.7	3.13e+01	0	46	104	0	60	1048575
2026-01-18 05:49:16.53	60.69	0.89	-83.9	-88.8	2.7	3.13e+01	0	46	104	0	60	1048575
2026-01-18 05:49:17.54	60.61	0.95	-84.3	-88.8	2.5	3.13e+01	0	46	104	0	60	1048575
2026-01-18 05:49:18.55	60.52	1.00	-84.3	-88.8	2.5	3.13e+01	0	46	104	0	60	1048575
2026-01-18 05:49:19.55	60.44	1.05	-84.3	-88.8	2.6	3.13e+01	0	46	104	0	60	1048575
2026-01-18 05:49:20.56	60.36	1.11	-83.9	-88.8	2.6	3.13e+01	0	47	104	0	60	1048575
2026-01-18 05:49:21.56	60.28	1.16	-83.9	-88.8	2.6	3.13e+01	0	46	104	0	60	1048575
2026-01-18 05:49:22.57	60.19	1.21	-84.3	-88.8	2.6	3.13e+01	0	46	104	0	60	1048575
2026-01-18 05:49:23.58	60.11	1.27	-84.3	-88.8	2.6	3.13e+01	0	46	104	0	60	1048575
2026-01-18 05:49:24.59	60.02	1.32	-83.9	-88.8	2.7	3.13e+01	0	47	104	0	60	1048575
2026-01-18 05:49:25.59	59.94	1.38	-83.5	-88.8	2.4	3.13e+01	0	47	104	0	60	1048575
2026-01-18 05:49:26.60	59.85	1.43	-84.3	-88.8	2.7	3.13e+01	0	46	104	0	60	1048575
2026-01-18 05:49:27.60	59.77	1.48	-84.3	-88.8	2.8	3.13e+01	0	47	104	0	60	1048575
2026-01-18 05:49:28.61	59.68	1.54	-84.3	-88.8	2.6	3.13e+01	0	47	104	0	60	1048575
2026-01-18 05:49:29.61	59.60	1.59	-83.9	-88.8	2.5	3.13e+01	0	47	104	0	60	1048575
2026-01-18 05:49:30.61	59.51	1.64	-83.9	-88.8	2.6	3.13e+01	0	47	104	0	60	1048575
2026-01-18 05:49:31.62	59.42	1.70	-84.3	-88.8	2.6	3.13e+01	0	47	104	0	60	1048575
2026-01-18 05:49:32.62	59.34	1.75	-84.3	-88.8	2.7	3.13e+01	0	46	104	0	60	1048575
2026-01-18 05:49:33.63	59.25	1.81	-84.3	-88.8	2.6	3.13e+01	0	47	104	0	60	1048575
2026-01-18 05:49:34.63	59.16	1.86	-83.9	-88.8	2.7	3.13e+01	0	47	104	0	60	1048575
2026-01-18 05:49:35.64	59.07	1.92	-83.9	-88.8	2.4	3.13e+01	0	47	104	0	60	1048575
2026-01-18 05:49:36.64	58.98	1.97	-84.3	-88.8	2.6	3.13e+01	0	47	104	0	60	1048575
2026-01-18 05:49:37.65	58.89	2.02	-84.3	-88.8	2.6	3.13e+01	0	47	104	0	60	1048575
2026-01-18 05:49:38.65	58.81	2.08	-84.3	-88.8	2.6	3.13e+01	0	47	104	0	60	1048575
2026-01-18 05:49:39.66	58.71	2.13	-83.9	-88.8	2.6	3.13e+01	0	47	104	0	60	1048575
2026-01-18 05:49:40.67	58.62	2.19	-83.9	-88.8	2.5	3.13e+01	0	47	104	0	60	1048575
2026-01-18 05:49:41.68	58.53	2.24	-84.3	-88.8	2.7	3.13e+01	0	47	104	0	60	1048575
2026-01-18 05:49:42.69	58.44	2.30	-84.3	-88.8	2.7	3.13e+01	0	46	104	0	60	1048575
2026-01-18 05:49:43.69	58.35	2.35	-84.3	-88.8	2.6	3.13e+01	0	46	104	0	60	1048575
2026-01-18 05:49:44.70	58.26	2.41	-83.9	-88.8	2.7	3.13e+01	0	46	104	0	60	1048575
2026-01-18 05:49:45.71	58.17	2.46	-84.3	-88.8	2.5	3.13e+01	0	47	104	0	60	1048575
2026-01-18 05:49:46.72	58.07	2.52	-84.3	-88.8	2.5	3.13e+01	0	47	104	0	60	1048575
2026-01-18 05:49:47.72	57.98	2.57	-84.3	-88.8	2.9	3.13e+01	0	47	104	0	60	1048575
2026-01-18 05:49:48.72	57.89	2.62	-83.9	-88.8	2.7	3.13e+01	0	47	104	0	60	1048575
2026-01-18 05:49:49.73	57.79	2.68	-83.9	-88.8	2.7	3.13e+01	0	47	104	0	60	1048575
2026-01-18 05:49:50.74	57.70	2.74	-84.3	-88.8	2.7	3.13e+01	0	47	104	0	60	1048575
2026-01-18 05:49:51.75	57.61	2.79	-84.3	-88.8	2.5	3.13e+01	0	47	104	0	60	1048575
2026-01-18 05:49:52.76	57.51	2.85	-84.3	-88.8	2.5	3.13e+01	0	47	104	0	60	1048575
2026-01-18 05:49:53.77	57.41	2.90	-83.9	-88.8	2.3	3.13e+01	0	47	104	0	60	1048575
2026-01-18 05:49:54.77	57.32	2.96	-83.9	-88.8	2.7	3.13e+01	0	47	104	0	60	1048575
2026-01-18 05:49:55.78	57.22	3.01	-84.3	-88.8	2.7	3.13e+01	0	47	104	0	60	1048575
2026-01-18 05:49:56.79	57.13	3.07	-84.3	-88.8	2.6	3.13e+01	0	47	104	0	60	1048575
2026-01-18 05:49:57.80	57.03	3.12	-84.3	-88.8	2.6	3.13e+01	0	47	104	0	60	1048575
2026-01-18 05:49:58.81	56.93	3.18	-83.9	-88.8	2.7	3.13e+01	0	47	104	0	60	1048575
2026-01-18 05:49:59.81	56.83	3.23	-84.3	-88.8	2.4	3.13e+01	0	47	104	0	60	1048575
2026-01-18 05:50:00.82	56.73	3.29	-84.3	-88.8	2.4	3.13e+01	0	47	104	0	60	1048575
2026-01-18 05:50:01.82	56.64	3.34	-84.3	-88.8	2.6	3.13e+01	0	47	104	0	60	1048575
2026-01-18 05:50:02.83	56.54	3.40	-84.3	-88.8	2.6	3.13e+01	0	47	104	0	60	1048575
2026-01-18 05:50:03.83	56.44	3.46	-83.9	-88.8	2.7	3.13e+01	0	47	104	0	60	1048575
2026-01-18 05:50:04.84	56.34	3.51	-84.3	-88.8	2.4	3.13e+01	0	47	104	0	60	1048575
2026-01-18 05:50:05.84	56.24	3.57	-84.3	-88.8	2.5	3.13e+01	0	47	104	0	60	1048575
2026-01-18 05:50:06.85	56.14	3.62	-84.3	-88.8	2.5	3.13e+01	0	47	104	0	60	1048575
2026-01-18 05:50:07.86	56.04	3.68	-83.9	-88.8	2.8	3.13e+01	0	47	104	0	60	1048575
2026-01-18 05:50:08.87	55.93	3.74	-83.9	-88.8	2.5	3.13e+01	0	47	104	0	60	1048575
2026-01-18 05:50:09.87	55.83	3.79	-84.3	-88.8	2.7	3.13e+01	0	47	104	0	60	1048575
2026-01-18 05:50:10.88	55.73	3.85	-84.3	-88.8	2.7	3.13e+01	0	47	104	0	60	1048575
2026-01-18 05:50:11.89	55.63	3.90	-84.3	-88.8	2.4	3.13e+01	0	47	104	0	60	1048575
2026-01-18 05:50:12.89	55.52	3.96	-83.9	-88.8	2.5	3.13e+01	0	47	104	0	60	1048575
2026-01-18 05:50:13.90	55.42	4.02	-83.9	-88.8	2.5	3.13e+01	0	47	104	0	60	1048575
2026-01-18 05:50:14.91	55.31	4.07	-84.3	-88.8	2.7	3.13e+01	0	47	104	0	60	1048575
2026-01-18 05:50:15.92	55.21	4.13	-84.3	-88.8	2.4	3.13e+01	0	47	104	0	60	1048575
2026-01-18 05:50:16.92	55.10	4.18	-84.3	-88.8	2.6	3.13e+01	0	47	104	0	60	1048575
2026-01-18 05:50:17.93	55.00	4.24	-83.9	-88.8	2.4	3.13e+01	0	47	104	0	60	1048575
2026-01-18 05:50:18.94	54.89	4.30	-83.9	-88.8	2.4	3.13e+01	0	47	104	0	60	1048575
2026-01-18 05:50:19.95	54.78	4.35	-84.3	-88.8	2.5	3.13e+01	0	47	104	0	60	1048575
2026-01-18 05:50:20.95	54.68	4.41	-84.3	-88.8	2.5	3.13e+01	0	47	104	0	60	1048575
2026-01-18 05:50:21.96	54.57	4.47	-84.3	-88.8	2.5	3.13e+01	0	47	104	0	60	1048575
2026-01-18 05:50:22.97	54.46	4.52	-83.5	-88.8	2.5	3.13e+01	0	47	104	0	60	1048575
2026-01-18 05:50:23.98	54.35	4.58	-84.3	-88.8	2.5	3.13e+01	0	47	104	0	60	1048575
2026-01-18 05:50:24.98	54.24	4.64	-84.3	-88.8	2.5	3.13e+01	0	47	104	0	60	1048575
2026-01-18 05:50:25.99	54.13	4.69	-84.3	-88.8	2.5	3.13e+01	0	47	104	0	60	1048575
2026-01-18 05:50:27.00	54.02	4.75	-83.9	-88.8	2.7	3.13e+01	0	47	104	0	60	1048575
2026-01-18 05:50:28.00	53.91	4.81	-83.9	-88.8	2.6	3.13e+01	0	47	104	0	60	1048575
2026-01-18 05:50:29.01	53.80	4.86	-84.3	-88.8	2.7	3.13e+01	0	47	104	0	60	1048575
2026-01-18 05:50:30.02	53.69	4.92	-84.3	-88.8	2.7	3.13e+01	0	47	104	0	60	1048575
2026-01-18 05:50:31.03	53.58	4.98	-84.3	-88.8	2.5	3.13e+01	0	47	104	0	60	1048575
2026-01-18 05:50:32.03	53.47	5.04	-83.9	-88.8	2.6	3.13e+01	0	47	104	0	60	1048575
2026-01-18 05:50:33.04	53.35	5.09	-83.9	-88.8	2.7	3.13e+01	0	47	104	0	60	1048575
2026-01-18 05:50:34.05	53.24	5.15	-84.3	-88.8	2.6	3.13e+01	0	47	104	0	60	1048575
2026-01-18 05:50:35.05	53.13	5.21	-84.3	-88.8	2.5	3.13e+01	0	47	104	0	60	1048575
2026-01-18 05:50:36.06	53.01	5.26	-84.3	-88.8	2.6	3.13e+01	0	47	104	0	60	1048575
2026-01-18 05:50:37.07	52.90	5.32	-83.9	-88.8	2.4	3.13e+01	0	47	104	0	60	1048575
2026-01-18 05:50:38.07	52.78	5.38	-84.3	-88.8	2.4	3.13e+01	0	47	104	0	60	1048575
2026-01-18 05:50:39.07	52.67	5.44	-84.3	-88.8	2.5	3.13e+01	0	47	104	0	60	1048575
2026-01-18 05:50:40.08	52.55	5.49	-84.3	-88.8	2.5	3.13e+01	0	47	104	0	60	1048575
2026-01-18 05:50:41.08	52.43	5.55	-83.9	-88.8	2.7	3.13e+01	0	47	104	0	60	1048575
2026-01-18 05:50:42.09	52.32	5.61	-84.3	-88.8	2.2	3.13e+01	0	47	104	0	60	1048575
2026-01-18 05:50:43.10	52.20	5.66	-84.3	-88.8	2.3	3.13e+01	0	47	104	0	60	1048575
2026-01-18 05:50:44.11	52.08	5.72	-84.3	-88.8	2.5	3.13e+01	0	47	104	0	60	1048575
2026-01-18 05:50:45.12	51.96	5.78	-84.3	-88.8	2.5	3.13e+01	0	47	104	0	60	1048575
2026-01-18 05:50:46.13	51.84	5.84	-83.9	-88.8	2.6	3.13e+01	0	47	104	0	60	1048575
2026-01-18 05:50:47.13	51.72	5.89	-83.9	-88.8	2.7	3.13e+01	0	47	104	0	60	1048575
2026-01-18 05:50:48.14	51.60	5.95	-83.9	-88.8	2.6	3.13e+01	0	47	104	0	60	1048575
2026-01-18 05:50:49.15	51.48	6.01	-84.3	-88.8	2.5	3.13e+01	0	47	104	0	60	1048575
2026-01-18 05:50:50.15	51.36	6.07	-84.3	-88.8	2.6	3.13e+01	0	47	104	0	60	1048575
2026-01-18 05:50:51.16	51.23	6.12	-83.9	-88.8	2.3	3.13e+01	0	47	104	0	60	1048575
2026-01-18 05:50:52.16	51.11	6.18	-83.9	-88.8	2.4	3.13e+01	0	47	104	0	60	1048575
2026-01-18 05:50:53.17	50.99	6.24	-84.3	-88.8	2.6	3.13e+01	0	47	104	0	60	1048575
2026-01-18 05:50:54.18	50.86	6.30	-84.3	-88.8	2.5	3.13e+01	0	47	104	0	60	1048575
2026-01-18 05:50:55.19	50.74	6.36	-84.3	-88.8	2.6	3.13e+01	0	47	104	0	60	1048575
2026-01-18 05:50:56.19	50.62	6.41	-83.9	-88.8	2.7	3.13e+01	0	47	104	0	60	1048575
2026-01-18 05:50:57.20	50.49	6.47	-84.3	-88.8	2.6	3.13e+01	0	47	104	0	60	1048575
2026-01-18 05:50:58.21	50.36	6.53	-84.3	-88.8	2.8	3.13e+01	0	47	104	0	60	1048575
2026-01-18 05:50:59.22	50.24	6.59	-84.3	-88.8	2.7	3.13e+01	0	47	104	0	60	1048575
2026-01-18 05:51:00.22	50.11	6.64	-84.3	-88.8	2.5	3.13e+01	0	47	104	0	60	1048575
2026-01-18 05:51:01.23	49.98	6.70	-83.9	-88.8	2.7	3.13e+01	0	47	104	0	60	1048575
2026-01-18 05:51:02.24	49.85	6.76	-84.3	-88.8	2.6	3.13e+01	0	47	104	0	60	1048575
2026-01-18 05:51:03.25	49.72	6.82	-84.3	-88.8	2.5	3.13e+01	0	47	104	0	60	1048575
2026-01-18 05:51:04.25	49.60	6.88	-84.3	-88.8	2.5	3.13e+01	0	47	104	0	60	1048575
2026-01-18 05:51:05.26	49.46	6.93	-83.9	-88.8	2.7	3.13e+01	0	47	104	0	60	1048575
2026-01-18 05:51:06.27	49.33	6.99	-83.9	-88.8	2.5	3.13e+01	0	47	104	0	60	1048575
2026-01-18 05:51:07.28	49.20	7.05	-84.3	-88.8	2.3	3.13e+01	0	47	104	0	60	1048575
2026-01-18 05:51:08.28	49.07	7.11	-84.3	-88.8	2.5	3.13e+01	0	47	104	0	60	1048575
2026-01-18 05:51:09.28	48.94	7.17	-83.9	-88.8	2.1	3.13e+01	0	47	104	0	60	1048575
2026-01-18 05:51:10.29	48.81	7.22	-83.9	-88.8	2.4	3.13e+01	0	47	104	0	60	1048575
2026-01-18 05:51:11.30	48.67	7.28	-83.9	-88.8	2.6	3.13e+01	0	47	104	0	60	1048575
2026-01-18 05:51:12.31	48.54	7.34	-84.3	-88.8	2.6	3.13e+01	0	47	104	0	60	1048575
2026-01-18 05:51:13.32	48.40	7.40	-84.3	-88.8	2.7	3.13e+01	0	47	104	0	60	1048575
2026-01-18 05:51:14.33	48.27	7.46	-84.3	-88.8	2.7	3.13e+01	0	47	104	0	60	1048575
2026-01-18 05:51:15.33	48.13	7.51	-83.9	-88.8	2.6	3.13e+01	0	47	104	0	60	1048575
2026-01-18 05:51:16.34	47.99	7.57	-84.3	-88.8	2.3	3.13e+01	0	47	104	0	60	1048575
2026-01-18 05:51:17.35	47.86	7.63	-84.3	-88.8	2.5	3.13e+01	0	47	104	0	60	1048575
2026-01-18 05:51:18.36	47.72	7.69	-84.3	-88.8	2.3	3.13e+01	0	47	104	0	60	1048575
2026-01-18 05:51:19.36	47.58	7.75	-83.9	-88.8	2.5	3.13e+01	0	47	104	0	60	1048575
2026-01-18 05:51:20.37	47.44	7.80	-83.9	-88.8	2.6	3.13e+01	0	47	104	0	60	1048575
2026-01-18 05:51:21.38	47.30	7.86	-84.3	-88.8	2.7	3.13e+01	0	47	104	0	60	1048575
2026-01-18 05:51:22.39	47.16	7.92	-84.3	-88.8	2.7	3.13e+01	0	47	104	0	60	1048575
2026-01-18 05:51:23.40	47.02	7.98	-84.3	-88.8	2.3	3.13e+01	0	47	104	0	60	1048575
2026-01-18 05:51:24.40	46.88	8.04	-83.9	-88.8	2.6	3.13e+01	0	47	104	0	60	1048575
2026-01-18 05:51:25.41	46.74	8.09	-83.9	-88.8	2.5	3.13e+01	0	47	104	0	60	1048575
2026-01-18 05:51:26.41	46.60	8.15	-84.3	-88.8	2.7	3.13e+01	0	47	104	0	60	1048575
2026-01-18 05:51:27.42	46.45	8.21	-84.3	-88.8	2.6	3.13e+01	0	47	104	0	60	1048575
2026-01-18 05:51:28.42	46.31	8.27	-83.9	-88.8	2.6	3.13e+01	0	47	104	0	60	1048575
2026-01-18 05:51:29.43	46.16	8.32	-83.9	-88.8	2.5	3.13e+01	0	47	104	0	60	1048575
2026-01-18 05:51:30.43	46.02	8.38	-83.9	-88.8	2.7	3.13e+01	0	47	104	0	60	1048575
2026-01-18 05:51:31.44	45.87	8.44	-84.3	-88.8	2.7	3.13e+01	0	47	104	0	60	1048575
2026-01-18 05:51:32.44	45.73	8.50	-84.3	-88.8	2.7	3.13e+01	0	47	104	0	60	1048575
2026-01-18 05:51:33.45	45.58	8.56	-83.9	-88.8	2.7	3.13e+01	0	47	104	0	60	1048575
2026-01-18 05:51:34.46	45.43	8.61	-83.9	-88.8	2.4	3.13e+01	0	47	104	0	60	1048575
2026-01-18 05:51:35.47	45.28	8.67	-84.3	-88.8	2.6	3.13e+01	0	47	104	0	60	1048575
2026-01-18 05:51:36.47	45.13	8.73	-84.3	-88.8	2.5	3.13e+01	0	47	104	0	60	1048575
2026-01-18 05:51:37.48	44.98	8.79	-84.3	-88.8	2.4	3.13e+01	0	47	104	0	60	1048575
2026-01-18 05:51:38.49	44.83	8.84	-83.9	-88.8	2.7	3.13e+01	0	47	104	0	60	1048575
2026-01-18 05:51:39.50	44.68	8.90	-84.3	-88.8	2.5	3.13e+01	0	47	104	0	60	1048575
2026-01-18 05:51:40.51	44.53	8.96	-84.3	-88.8	2.4	3.13e+01	0	47	104	0	60	1048575
2026-01-18 05:51:41.52	44.38	9.02	-84.3	-88.8	2.3	3.13e+01	0	47	104	0	60	1048575
2026-01-18 05:51:42.52	44.23	9.08	-84.3	-88.8	2.4	3.13e+01	0	47	104	0	60	1048575
2026-01-18 05:51:43.53	44.07	9.13	-83.9	-88.8	2.5	3.13e+01	0	47	104	0	60	1048575
2026-01-18 05:51:44.54	43.92	9.19	-83.9	-88.8	2.5	3.13e+01	0	47	104	0	60	1048575
2026-01-18 05:51:45.55	43.76	9.25	-84.3	-88.8	2.6	3.13e+01	0	47	104	0	60	1048575
2026-01-18 05:51:46.55	43.61	9.31	-84.3	-88.8	2.5	3.13e+01	0	47	104	0	60	1048575
2026-01-18 05:51:47.56	43.45	9.36	-84.3	-88.8	2.5	3.13e+01	0	47	104	0	60	1048575
2026-01-18 05:51:48.56	43.29	9.42	-83.9	-88.8	2.5	3.13e+01	0	47	104	0	60	1048575
2026-01-18 05:51:49.56	43.14	9.48	-84.3	-88.8	2.5	3.13e+01	0	47	104	0	60	1048575
2026-01-18 05:51:50.57	42.98	9.53	-84.3	-88.8	2.7	3.13e+01	0	47	104	0	60	1048575
2026-01-18 05:51:51.58	42.82	9.59	-84.3	-88.8	2.7	3.13e+01	0	47	104	0	60	1048575
2026-01-18 05:51:52.59	42.66	9.65	-83.9	-88.8	2.7	3.13e+01	0	47	104	0	60	1048573
2026-01-18 05:51:53.60	42.50	9.71	-83.9	-88.8	2.5	3.13e+01	0	47	104	0	60	1048573
2026-01-18 05:51:54.60	42.34	9.76	-84.3	-88.8	2.7	3.13e+01	0	47	104	0	60	1048573
2026-01-18 05:51:55.61	42.17	9.82	-84.3	-88.8	2.5	3.13e+01	0	47	104	0	60	1048573
2026-01-18 05:51:56.62	42.01	9.88	-84.3	-88.8	2.6	3.13e+01	0	47	104	0	60	1048573
2026-01-18 05:51:57.63	41.85	9.93	-83.9	-88.8	2.6	3.13e+01	0	47	104	0	60	1048573
2026-01-18 05:51:58.63	41.68	9.99	-84.3	-88.8	2.7	3.13e+01	0	47	104	0	60	1048573
2026-01-18 05:51:59.63	41.52	10.05	-83.9	-88.8	2.6	3.13e+01	0	47	104	0	60	1048573
2026-01-18 05:52:00.64	41.35	10.10	-84.3	-88.8	2.8	3.13e+01	0	47	104	0	60	1048573
2026-01-18 05:52:01.65	41.19	10.16	-84.3	-88.8	2.5	3.13e+01	0	47	104	0	60	1048573
2026-01-18 05:52:02.65	41.02	10.22	-83.9	-88.8	2.8	3.13e+01	0	47	104	0	60	1048573
2026-01-18 05:52:03.66	40.85	10.27	-84.3	-88.8	2.6	3.13e+01	0	47	104	0	60	1048573
2026-01-18 05:52:04.67	40.69	10.33	-84.3	-88.8	2.5	3.13e+01	0	47	104	0	60	1048573
2026-01-18 05:52:05.67	40.52	10.38	-84.3	-88.8	2.5	3.13e+01	0	47	104	0	60	1048573
2026-01-18 05:52:06.68	40.35	10.44	-83.9	-88.8	2.5	3.13e+01	0	47	104	0	60	1048573
2026-01-18 05:52:07.69	40.18	10.50	-83.9	-88.8	2.5	3.13e+01	0	47	104	0	60	1048573
2026-01-18 05:52:08.69	40.01	10.55	-84.3	-88.8	2.3	3.13e+01	0	47	104	0	60	1048573
2026-01-18 05:52:09.70	39.83	10.61	-84.3	-88.8	2.7	3.13e+01	0	47	104	0	60	1048573
2026-01-18 05:52:10.70	39.66	10.66	-84.3	-88.8	2.4	3.13e+01	0	47	104	0	60	1048573
2026-01-18 05:52:11.71	39.49	10.72	-83.9	-88.8	2.4	3.13e+01	0	47	104	0	60	1048573
2026-01-18 05:52:12.72	39.31	10.77	-84.3	-88.8	2.4	3.13e+01	0	47	104	0	60	1048573
2026-01-18 05:52:13.73	39.14	10.83	-84.3	-88.8	2.7	3.13e+01	0	47	104	0	60	1048573
2026-01-18 05:52:14.73	38.97	10.88	-84.3	-88.8	2.6	3.13e+01	0	47	104	0	60	1048573
2026-01-18 05:52:15.74	38.79	10.94	-84.3	-88.8	2.5	3.13e+01	0	47	104	0	60	1048573
2026-01-18 05:52:16.75	38.61	11.00	-83.9	-88.8	2.5	3.13e+01	0	47	104	0	60	1048573
2026-01-18 05:52:17.76	38.43	11.05	-84.3	-88.8	2.6	3.13e+01	0	47	104	0	60	1048573
2026-01-18 05:52:18.76	38.26	11.11	-84.3	-88.8	2.6	3.13e+01	0	47	104	0	60	1048573
2026-01-18 05:52:19.77	38.08	11.16	-84.3	-88.8	2.4	3.13e+01	0	47	104	0	60	1048573
2026-01-18 05:52:20.78	37.90	11.21	-83.9	-88.8	2.7	3.13e+01	0	47	104	0	60	1048573
2026-01-18 05:52:21.79	37.72	11.27	-83.5	-88.8	2.6	3.13e+01	0	47	104	0	60	1048573
2026-01-18 05:52:22.79	37.54	11.32	-84.3	-88.8	2.7	3.13e+01	0	47	104	0	60	1048573
2026-01-18 05:52:23.80	37.35	11.38	-84.3	-88.8	2.5	3.13e+01	0	47	104	0	60	1048573
2026-01-18 05:52:24.80	37.17	11.43	-84.3	-88.8	2.6	3.13e+01	0	47	104	0	60	1048573
2026-01-18 05:52:25.81	36.99	11.49	-83.9	-88.8	2.6	3.13e+01	0	47	104	0	60	1048574
2026-01-18 05:52:26.82	36.80	11.54	-83.9	-88.8	2.6	3.13e+01	0	47	104	0	60	1048574
2026-01-18 05:52:27.82	36.62	11.59	-84.3	-88.8	2.4	3.13e+01	0	47	104	0	60	1048574
2026-01-18 05:52:28.83	36.43	11.65	-84.3	-88.8	2.7	3.13e+01	0	47	104	0	60	1048574
2026-01-18 05:52:29.83	36.25	11.70	-84.3	-88.8	2.6	3.13e+01	0	47	104	0	60	1048574
2026-01-18 05:52:30.84	36.06	11.75	-83.9	-88.8	2.7	3.13e+01	0	47	104	0	60	1048574
2026-01-18 05:52:31.84	35.87	11.81	-83.9	-88.8	2.6	3.13e+01	0	47	104	0	60	1048574
2026-01-18 05:52:32.84	35.69	11.86	-84.3	-88.8	2.7	3.13e+01	0	47	104	0	60	1048574
2026-01-18 05:52:33.85	35.50	11.91	-84.3	-88.8	2.7	3.13e+01	0	47	104	0	60	1048574
2026-01-18 05:52:34.86	35.31	11.96	-84.3	-88.8	2.6	3.13e+01	0	47	104	0	60	1048574
2026-01-18 05:52:35.86	35.12	12.02	-83.9	-88.8	2.5	3.13e+01	0	47	104	0	60	1048574
2026-01-18 05:52:36.86	34.93	12.07	-84.3	-88.8	2.6	3.13e+01	0	47	104	0	60	1048574
2026-01-18 05:52:37.86	34.73	12.12	-84.3	-88.8	2.6	3.13e+01	0	47	104	0	60	1048574
2026-01-18 05:52:38.87	34.54	12.17	-84.3	-88.8	2.7	3.13e+01	0	47	104	0	60	1048574
2026-01-18 05:52:39.87	34.35	12.22	-83.9	-88.8	2.7	3.13e+01	0	47	104	0	60	1048574
2026-01-18 05:52:40.88	34.15	12.27	-83.9	-88.8	2.5	3.13e+01	0	47	104	0	60	1048574
2026-01-18 05:52:41.88	33.96	12.33	-83.9	-88.8	2.4	3.13e+01	0	47	104	0	60	1048574
2026-01-18 05:52:42.89	33.76	12.38	-84.3	-88.8	2.5	3.13e+01	0	47	104	0	60	1048574
2026-01-18 05:52:43.90	33.57	12.43	-84.3	-88.8	2.6	3.13e+01	0	47	104	0	60	1048574
2026-01-18 05:52:44.90	33.37	12.48	-83.9	-88.8	2.7	3.13e+01	0	47	104	0	60	1048575
2026-01-18 05:52:45.91	33.17	12.53	-83.9	-88.8	2.7	3.13e+01	0	47	104	0	60	1048575
2026-01-18 05:52:46.92	32.97	12.58	-84.3	-88.8	2.7	3.13e+01	0	47	104	0	60	1048575
2026-01-18 05:52:47.92	32.77	12.63	-84.3	-88.8	2.5	3.13e+01	0	47	104	0	60	1048575
2026-01-18 05:52:48.92	32.57	12.68	-84.3	-88.8	2.4	3.13e+01	0	47	104	0	60	1048575
2026-01-18 05:52:49.92	32.37	12.73	-83.9	-88.8	2.4	3.13e+01	0	47	104	0	60	1048575
2026-01-18 05:52:50.92	32.17	12.78	-84.3	-88.8	2.6	3.13e+01	0	47	104	0	60	1048575
2026-01-18 05:52:51.93	31.97	12.83	-84.3	-88.8	2.6	3.13e+01	0	47	104	0	60	1048575
2026-01-18 05:52:52.93	31.77	12.87	-84.3	-88.8	2.7	3.13e+01	0	47	104	0	60	1048575
2026-01-18 05:52:53.94	31.56	12.92	-84.3	-88.8	2.5	3.13e+01	0	47	104	0	60	1048575
2026-01-18 05:52:54.94	31.36	12.97	-83.9	-88.8	2.3	3.13e+01	0	47	104	0	60	1048575
2026-01-18 05:52:55.95	31.15	13.02	-83.9	-88.8	2.6	3.13e+01	0	47	104	0	60	1048575
2026-01-18 05:52:56.95	30.95	13.07	-84.3	-88.8	2.6	3.13e+01	0	47	104	0	60	1048575
2026-01-18 05:52:57.96	30.74	13.12	-84.3	-88.8	2.5	3.13e+01	0	47	104	0	60	1048575
2026-01-18 05:52:58.96	30.54	13.16	-84.3	-88.8	2.5	3.13e+01	0	47	104	0	60	1048575
2026-01-18 05:52:59.96	30.33	13.21	-83.9	-88.8	2.6	3.13e+01	0	47	104	0	60	1048575
2026-01-18 05:53:00.96	30.12	13.26	-84.3	-88.8	2.6	3.13e+01	0	47	104	0	60	1048575
2026-01-18 05:53:01.97	29.91	13.30	-84.3	-88.8	2.7	3.13e+01	0	47	104	0	60	1048575
2026-01-18 05:53:02.97	29.70	13.35	-84.3	-88.8	2.6	3.13e+01	0	47	104	0	60	1048575
2026-01-18 05:53:03.98	29.49	13.40	-83.9	-88.8	2.6	3.13e+01	0	47	104	0	60	1048575
2026-01-18 05:53:04.98	29.28	13.44	-83.9	-88.8	2.5	3.13e+01	0	47	104	0	60	1048575
2026-01-18 05:53:05.99	29.06	13.49	-83.9	-88.8	2.3	3.13e+01	0	47	104	0	60	1048575
2026-01-18 05:53:06.99	28.85	13.53	-83.9	-88.8	2.6	3.13e+01	0	47	104	0	60	1048575
2026-01-18 05:53:08.00	28.64	13.58	-84.3	-88.8	2.7	3.13e+01	0	47	104	0	60	1048575
2026-01-18 05:53:09.01	28.42	13.62	-83.9	-88.8	2.7	3.13e+01	0	47	104	0	60	1048575
2026-01-18 05:53:10.01	28.21	13.67	-83.9	-88.8	2.5	3.13e+01	0	47	104	0	60	1048575
2026-01-18 05:53:11.01	27.99	13.71	-84.3	-88.8	2.4	3.13e+01	0	47	104	0	60	1048575
2026-01-18 05:53:12.02	27.78	13.76	-84.3	-88.8	2.7	3.13e+01	0	47	104	0	60	1048575
2026-01-18 05:53:13.03	27.56	13.80	-84.3	-88.8	2.4	3.13e+01	0	47	104	0	60	1048575
2026-01-18 05:53:14.03	27.34	13.84	-83.9	-88.8	2.7	3.13e+01	0	47	104	0	60	1048575
2026-01-18 05:53:15.04	27.12	13.89	-84.3	-88.8	2.5	3.13e+01	0	47	104	0	60	1048575
2026-01-18 05:53:16.05	26.90	13.93	-84.3	-88.8	2.4	3.13e+01	0	47	104	0	60	1048575
2026-01-18 05:53:17.06	26.68	13.97	-84.3	-88.8	2.6	3.13e+01	0	47	104	0	60	1048575
2026-01-18 05:53:18.07	26.46	14.01	-83.9	-88.8	2.6	3.13e+01	0	47	104	0	60	1048575
2026-01-18 05:53:19.08	26.24	14.06	-83.9	-88.8	2.5	3.13e+01	0	47	104	0	60	1048575
2026-01-18 05:53:20.09	26.01	14.10	-84.3	-88.8	2.5	3.13e+01	0	47	104	0	60	1048575
2026-01-18 05:53:21.09	25.79	14.14	-84.3	-88.8	2.4	3.13e+01	0	47	104	0	60	1048575
2026-01-18 05:53:22.10	25.57	14.18	-84.3	-88.8	2.7	3.13e+01	0	47	104	0	60	1048575
2026-01-18 05:53:23.10	25.34	14.22	-83.9	-88.8	2.4	3.13e+01	0	47	104	0	60	1048575
2026-01-18 05:53:24.10	25.12	14.26	-83.9	-88.8	2.6	3.13e+01	0	47	104	0	60	1048575
2026-01-18 05:53:25.10	24.90	14.30	-84.3	-88.8	2.5	3.13e+01	0	47	104	0	60	1048575
2026-01-18 05:53:26.11	24.67	14.34	-84.3	-88.8	2.6	3.13e+01	0	47	104	0	60	1048575
2026-01-18 05:53:27.11	24.44	14.38	-84.3	-88.8	2.5	3.13e+01	0	47	104	0	60	1048575
2026-01-18 05:53:28.10	24.22	14.42	-83.9	-88.8	2.8	3.13e+01	0	47	104	0	60	1048575
2026-01-18 05:53:29.11	23.99	14.46	-84.3	-88.8	2.5	3.13e+01	0	47	104	0	60	1048575
2026-01-18 05:53:30.12	23.76	14.49	-84.3	-88.8	2.4	3.13e+01	0	47	104	0	60	1048575
2026-01-18 05:53:31.13	23.53	14.53	-84.3	-88.8	2.5	3.13e+01	0	47	104	0	60	1048575
2026-01-18 05:53:32.14	23.30	14.57	-84.3	-88.8	2.6	3.13e+01	0	47	104	0	60	1048575
2026-01-18 05:53:33.14	23.07	14.61	-83.9	-88.8	2.5	3.13e+01	0	47	104	0	60	1048575
2026-01-18 05:53:34.15	22.84	14.64	-84.3	-88.8	2.6	3.13e+01	0	47	104	0	60	1048575
2026-01-18 05:53:35.16	22.60	14.68	-84.3	-88.8	2.7	3.13e+01	0	47	104	0	60	1048575
2026-01-18 05:53:36.17	22.37	14.71	-84.3	-88.8	2.6	3.13e+01	0	47	104	0	60	1048575
2026-01-18 05:53:37.17	22.14	14.75	-83.9	-88.8	2.7	3.13e+01	0	47	104	0	60	1048575
2026-01-18 05:53:38.18	21.91	14.78	-83.9	-88.8	2.5	3.13e+01	0	47	104	0	60	1048575
2026-01-18 05:53:39.18	21.67	14.82	-84.3	-88.8	2.8	3.13e+01	0	47	104	0	60	1048575
2026-01-18 05:53:40.19	21.44	14.85	-84.3	-88.8	2.5	3.13e+01	0	47	104	0	60	1048575
2026-01-18 05:53:41.19	21.20	14.89	-84.3	-88.8	2.5	3.13e+01	0	47	104	0	60	1048575
2026-01-18 05:53:42.20	20.97	14.92	-83.9	-88.8	2.5	3.13e+01	0	47	104	0	60	1048575
2026-01-18 05:53:43.21	20.73	14.95	-83.9	-88.8	2.6	3.13e+01	0	47	104	0	60	1048575
2026-01-18 05:53:44.21	20.49	14.99	-84.3	-88.8	2.3	3.13e+01	0	47	104	0	60	1048575
2026-01-18 05:53:45.22	20.25	15.02	-84.3	-88.8	2.5	3.13e+01	0	47	104	0	60	1048575
2026-01-18 05:53:46.23	20.01	15.05	-84.3	-88.8	2.6	3.13e+01	0	47	104	0	60	1048575
2026-01-18 05:53:47.24	19.77	15.08	-83.9	-88.8	2.5	3.13e+01	0	47	104	0	60	1048575
2026-01-18 05:53:48.25	19.53	15.11	-83.9	-88.8	2.5	3.13e+01	0	47	104	0	60	1048575
2026-01-18 05:53:49.25	19.30	15.14	-84.3	-88.8	2.7	3.13e+01	0	47	104	0	60	1048575
2026-01-18 05:53:50.26	19.05	15.17	-84.3	-88.8	2.4	3.13e+01	0	47	104	0	60	1048575
2026-01-18 05:53:51.27	18.81	15.20	-84.3	-88.8	2.5	3.13e+01	0	47	104	0	60	1048575
2026-01-18 05:53:52.28	18.57	15.23	-83.9	-88.8	2.4	3.13e+01	0	47	104	0	60	1048575
2026-01-18 05:53:53.28	18.33	15.26	-84.3	-88.8	2.7	3.13e+01	0	47	104	0	60	1048575
2026-01-18 05:53:54.28	18.09	15.29	-84.3	-88.8	2.6	3.13e+01	0	47	104	0	60	1048575
2026-01-18 05:53:55.29	17.85	15.31	-84.3	-88.8	2.6	3.13e+01	0	47	104	0	60	1048575
2026-01-18 05:53:56.29	17.60	15.34	-83.9	-88.8	2.6	3.13e+01	0	47	104	0	60	1048575
2026-01-18 05:53:57.30	17.36	15.37	-83.9	-88.8	2.7	3.13e+01	0	47	104	0	60	1048575
2026-01-18 05:53:58.31	17.11	15.39	-84.3	-88.8	2.7	3.13e+01	0	47	104	0	60	1048575
2026-01-18 05:53:59.32	16.87	15.42	-84.3	-88.8	2.5	3.13e+01	0	47	104	0	60	1048575
2026-01-18 05:54:00.32	16.62	15.45	-83.9	-88.8	2.3	3.13e+01	0	47	104	0	60	1048575
2026-01-18 05:54:01.33	16.38	15.47	-83.9	-88.8	2.6	3.13e+01	0	47	104	0	60	1048575
2026-01-18 05:54:02.33	16.13	15.49	-84.3	-88.8	2.6	3.13e+01	0	47	104	0	60	1048575
2026-01-18 05:54:03.34	15.89	15.52	-84.3	-88.8	2.5	3.13e+01	0	47	104	0	60	1048575
2026-01-18 05:54:04.35	15.64	15.54	-84.3	-88.8	2.7	3.13e+01	0	47	104	0	60	1048575
2026-01-18 05:54:05.36	15.39	15.57	-84.3	-88.8	2.6	3.13e+01	0	47	104	0	60	1048575
2026-01-18 05:54:06.37	15.14	15.59	-83.9	-88.8	2.4	3.13e+01	0	47	104	0	60	1048575
2026-01-18 05:54:07.37	14.89	15.61	-84.3	-88.8	2.3	3.13e+01	0	47	104	0	60	1048575
2026-01-18 05:54:08.38	14.64	15.63	-84.3	-88.8	2.4	3.13e+01	0	47	104	0	60	1048575
2026-01-18 05:54:09.39	14.39	15.65	-84.3	-88.8	2.3	3.13e+01	0	47	104	0	60	1048575
2026-01-18 05:54:10.40	14.14	15.67	-83.9	-88.8	2.6	3.13e+01	0	47	104	0	60	1048575
2026-01-18 05:54:11.40	13.90	15.69	-83.9	-88.8	2.6	3.13e+01	0	47	104	0	60	1048575
2026-01-18 05:54:12.41	13.65	15.71	-84.3	-88.8	2.5	3.13e+01	0	47	104	0	60	1048575
2026-01-18 05:54:13.42	13.39	15.73	-84.3	-88.8	2.6	3.13e+01	0	47	104	0	60	1048575
2026-01-18 05:54:14.42	13.15	15.75	-84.3	-88.8	2.5	3.13e+01	0	47	104	0	60	1048575
2026-01-18 05:54:15.43	12.89	15.77	-83.9	-88.8	2.5	3.13e+01	0	47	104	0	60	1048575
2026-01-18 05:54:16.44	12.64	15.78	-84.3	-88.8	2.4	3.13e+01	0	47	104	0	60	1048575
2026-01-18 05:54:17.44	12.39	15.80	-84.3	-88.8	2.2	3.13e+01	0	47	104	0	60	1048575
2026-01-18 05:54:18.45	12.14	15.82	-84.3	-88.8	2.4	3.13e+01	0	47	104	0	60	1048575
2026-01-18 05:54:19.45	11.89	15.83	-84.3	-88.8	2.6	3.13e+01	0	47	104	0	60	1048575
2026-01-18 05:54:20.46	11.63	15.85	-83.9	-88.8	2.6	3.13e+01	0	47	104	0	60	1048575
2026-01-18 05:54:21.46	11.38	15.86	-84.3	-88.8	2.7	3.13e+01	0	47	104	0	60	1048575
2026-01-18 05:54:22.46	11.13	15.88	-84.3	-88.8	2.5	3.13e+01	0	47	104	0	60	1048575
2026-01-18 05:54:23.47	10.88	15.89	-84.3	-88.8	2.7	3.13e+01	0	47	104	0	60	1048575
2026-01-18 05:54:24.48	10.62	15.90	-84.3	-88.8	2.5	3.13e+01	0	47	104	0	60	1048575
2026-01-18 05:54:25.49	10.37	15.92	-83.9	-88.8	2.6	3.13e+01	0	47	104	0	60	1048575
2026-01-18 05:54:26.49	10.12	15.93	-84.3	-88.8	2.5	3.13e+01	0	47	104	0	60	1048575
2026-01-18 05:54:27.50	9.86	15.94	-84.3	-88.8	2.7	3.13e+01	0	47	104	0	60	1048575
2026-01-18 05:54:28.51	9.60	15.95	-84.3	-88.8	2.5	3.13e+01	0	47	104	0	60	1048575
2026-01-18 05:54:29.51	9.35	15.96	-83.9	-88.8	2.6	3.13e+01	0	47	104	0	60	1048575
2026-01-18 05:54:30.52	9.10	15.97	-84.3	-88.8	2.5	3.13e+01	0	47	104	0	60	1048575
2026-01-18 05:54:31.53	8.84	15.98	-84.3	-88.8	2.8	3.13e+01	0	47	104	0	60	1048575
2026-01-18 05:54:32.54	8.58	15.99	-84.3	-88.8	2.5	3.13e+01	0	47	104	0	60	1048575
2026-01-18 05:54:33.55	8.33	16.00	-84.3	-88.8	2.6	3.13e+01	0	47	104	0	60	1048575
2026-01-18 05:54:34.55	8.07	16.01	-83.5	-88.8	2.5	3.13e+01	0	47	104	0	60	1048575
2026-01-18 05:54:35.56	7.82	16.01	-83.9	-88.8	2.6	3.13e+01	0	47	104	0	60	1048575
2026-01-18 05:54:36.56	7.56	16.02	-84.3	-88.8	2.5	3.13e+01	0	47	104	0	60	1048575
2026-01-18 05:54:37.57	7.31	16.03	-83.9	-88.8	2.5	3.13e+01	0	47	104	0	60	1048575
2026-01-18 05:54:38.58	7.05	16.03	-84.3	-88.8	2.5	3.13e+01	0	47	104	0	60	1048575
2026-01-18 05:54:39.59	6.79	16.04	-83.9	-88.8	2.4	3.13e+01	0	47	104	0	60	1048575
2026-01-18 05:54:40.59	6.54	16.04	-84.3	-88.8	2.5	3.13e+01	0	47	104	0	60	1048575
2026-01-18 05:54:41.60	6.28	16.05	-84.3	-88.8	2.6	3.13e+01	0	47	104	0	60	1048575
2026-01-18 05:54:42.61	6.02	16.05	-84.3	-88.8	2.7	3.13e+01	0	47	104	0	60	1048575
2026-01-18 05:54:43.62	5.77	16.05	-84.3	-88.8	2.4	3.13e+01	0	47	104	0	60	1048575
2026-01-18 05:54:44.62	5.51	16.05	-83.9	-88.8	2.6	3.13e+01	0	47	104	0	60	1048575
2026-01-18 05:54:45.63	5.25	16.06	-84.3	-88.8	2.6	3.13e+01	0	47	104	0	60	1048575
2026-01-18 05:54:46.64	5.00	16.06	-84.3	-88.8	2.5	3.13e+01	0	47	104	0	60	1048575
2026-01-18 05:54:47.64	4.74	16.06	-84.3	-88.8	2.4	3.13e+01	0	47	104	0	60	1048575
2026-01-18 05:54:48.65	4.48	16.06	-83.9	-88.8	2.4	3.13e+01	0	47	104	0	60	1048575
2026-01-18 05:54:49.65	4.23	16.06	-83.9	-88.8	2.3	3.13e+01	0	47	104	0	60	1048575
2026-01-18 05:54:50.65	3.97	16.06	-84.3	-88.8	2.5	3.13e+01	0	47	104	0	60	1048575
2026-01-18 05:54:51.66	3.72	16.05	-84.3	-88.8	2.4	3.13e+01	0	47	104	0	60	1048575
2026-01-18 05:54:52.67	3.46	16.05	-84.3	-88.8	2.8	3.13e+01	0	47	104	0	60	1048575
2026-01-18 05:54:53.68	3.20	16.05	-83.9	-88.8	2.6	3.13e+01	0	47	104	0	60	1048575
2026-01-18 05:54:54.68	2.95	16.05	-83.9	-88.8	2.7	3.13e+01	0	47	104	0	60	1048575
2026-01-18 05:54:55.69	2.69	16.04	-84.3	-88.8	2.5	3.13e+01	0	47	104	0	60	1048575
2026-01-18 05:54:56.70	2.43	16.04	-84.3	-88.8	2.6	3.13e+01	0	47	104	0	60	1048575
2026-01-18 05:54:57.70	2.18	16.03	-83.9	-88.8	2.6	3.13e+01	0	47	104	0	60	1048575
2026-01-18 05:54:58.71	1.92	16.03	-83.9	-88.8	2.6	3.13e+01	0	47	104	0	60	1048575
2026-01-18 05:54:59.72	1.67	16.02	-84.3	-88.8	2.9	3.13e+01	0	47	104	0	60	1048575
2026-01-18 05:55:00.72	1.41	16.02	-84.3	-88.8	2.6	3.13e+01	0	47	104	0	60	1048575
2026-01-18 05:55:01.73	1.15	16.01	-84.3	-88.8	2.5	3.13e+01	0	47	104	0	60	1048575
2026-01-18 05:55:02.74	0.90	16.00	-84.3	-88.8	2.5	3.13e+01	0	47	104	0	60	1048575
2026-01-18 05:55:03.75	0.64	15.99	-83.9	-88.8	2.8	3.13e+01	0	47	104	0	60	1048575
2026-01-18 05:55:04.76	0.39	15.98	-84.3	-88.8	2.6	3.13e+01	0	47	104	0	60	1048575
2026-01-18 05:55:05.76	0.13	15.97	-84.3	-88.8	2.8	3.13e+01	0	47	104	0	60	1048575
2026-01-18 05:55:06.77	359.88	15.96	-83.9	-88.8	2.6	3.13e+01	0	47	104	0	60	1048575
2026-01-18 05:55:07.78	359.62	15.95	-83.9	-88.8	2.5	3.13e+01	0	47	104	0	60	1048575
2026-01-18 05:55:08.78	359.37	15.94	-83.9	-88.8	2.6	3.13e+01	0	47	104	0	60	1048575
2026-01-18 05:55:09.79	359.11	15.93	-84.3	-88.8	2.6	3.13e+01	0	47	104	0	60	1048575
2026-01-18 05:55:10.80	358.86	15.92	-84.3	-88.8	2.6	3.13e+01	0	47	104	0	60	1048575
2026-01-18 05:55:11.81	358.60	15.91	-84.3	-88.8	2.6	3.13e+01	0	47	104	0	60	1048575
2026-01-18 05:55:12.81	358.35	15.89	-83.9	-88.8	2.5	3.13e+01	0	47	104	0	60	1048575
2026-01-18 05:55:13.82	358.10	15.88	-84.3	-88.8	2.6	3.13e+01	0	47	104	0	60	1048575
2026-01-18 05:55:14.83	357.84	15.87	-84.3	-88.8	2.4	3.13e+01	0	47	104	0	60	1048575
2026-01-18 05:55:15.83	357.59	15.85	-84.3	-88.8	2.4	3.13e+01	0	47	104	0	60	1048575
2026-01-18 05:55:16.84	357.34	15.84	-83.9	-88.8	2.7	3.13e+01	0	47	104	0	60	1048575
2026-01-18 05:55:17.85	357.09	15.82	-83.9	-88.8	2.8	3.13e+01	0	47	104	0	60	1048575
2026-01-18 05:55:18.85	356.84	15.80	-84.3	-88.8	2.6	3.13e+01	0	47	104	0	60	1048575
2026-01-18 05:55:19.85	356.58	15.79	-84.3	-88.8	2.6	3.13e+01	0	47	104	0	60	1048575
2026-01-18 05:55:20.86	356.33	15.77	-84.3	-88.8	2.6	3.13e+01	0	47	104	0	60	1048575
2026-01-18 05:55:21.86	356.08	15.75	-83.9	-88.8	2.6	3.13e+01	0	47	104	0	60	1048575
2026-01-18 05:55:22.87	355.83	15.73	-83.9	-88.8	2.9	3.13e+01	0	47	104	0	60	1048575
2026-01-18 05:55:23.87	355.58	15.72	-84.3	-88.8	2.5	3.13e+01	0	47	104	0	60	1048575
2026-01-18 05:55:24.88	355.33	15.70	-84.3	-88.8	2.7	3.13e+01	0	47	104	0	60	1048575
2026-01-18 05:55:25.88	355.08	15.68	-84.3	-88.8	2.8	3.13e+01	0	47	104	0	60	1048575
2026-01-18 05:55:26.89	354.83	15.66	-83.9	-88.8	2.8	3.13e+01	0	47	104	0	60	1048575
2026-01-18 05:55:27.90	354.58	15.64	-84.3	-88.8	2.6	3.13e+01	0	47	104	0	60	1048575
2026-01-18 05:55:28.91	354.33	15.61	-84.3	-88.8	2.6	3.13e+01	0	47	104	0	60	1048575
2026-01-18 05:55:29.91	354.09	15.59	-83.9	-88.8	2.4	3.13e+01	0	47	104	0	60	1048575
2026-01-18 05:55:30.92	353.84	15.57	-84.3	-88.8	2.6	3.13e+01	0	47	104	0	60	1048575
2026-01-18 05:55:31.93	353.59	15.55	-83.9	-88.8	2.7	3.13e+01	0	47	104	0	60	1048575
2026-01-18 05:55:32.94	353.34	15.52	-84.3	-88.8	2.5	3.13e+01	0	47	104	0	60	1048575
2026-01-18 05:55:33.95	353.09	15.50	-84.3	-88.8	2.6	3.13e+01	0	47	104	0	60	1048575
2026-01-18 05:55:34.95	352.85	15.48	-84.3	-88.8	2.5	3.13e+01	0	47	104	0	60	1048575
2026-01-18 05:55:35.96	352.60	15.45	-84.3	-88.8	2.6	3.13e+01	0	47	104	0	60	1048575
2026-01-18 05:55:36.96	352.36	15.43	-83.9	-88.8	2.2	3.13e+01	0	47	104	0	60	1048575
2026-01-18 05:55:37.97	352.11	15.40	-84.3	-88.8	2.4	3.13e+01	0	47	104	0	60	1048575
2026-01-18 05:55:38.98	351.87	15.37	-84.3	-88.8	2.3	3.13e+01	0	47	104	0	60	1048575
2026-01-18 05:55:39.98	351.63	15.35	-84.3	-88.8	2.6	3.13e+01	0	47	104	0	60	1048575
2026-01-18 05:55:40.99	351.38	15.32	-83.9	-88.8	2.4	3.13e+01	0	47	104	0	60	1048575
2026-01-18 05:55:42.00	351.14	15.29	-83.9	-88.8	2.8	3.13e+01	0	47	104	0	60	1048575
2026-01-18 05:55:43.01	350.90	15.26	-84.3	-88.8	2.7	3.13e+01	0	47	104	0	60	1048575
2026-01-18 05:55:44.02	350.65	15.24	-84.3	-88.8	2.4	3.13e+01	0	47	104	0	60	1048575
2026-01-18 05:55:45.03	350.41	15.21	-84.3	-88.8	2.7	3.13e+01	0	47	104	0	60	1048575
2026-01-18 05:55:46.04	350.17	15.18	-83.9	-88.8	2.5	3.13e+01	0	47	104	0	60	1048575
2026-01-18 05:55:47.05	349.93	15.15	-84.3	-88.8	2.5	3.13e+01	0	47	104	0	60	1048575
2026-01-18 05:55:48.05	349.69	15.12	-84.3	-88.8	2.2	3.13e+01	0	47	104	0	60	1048575
2026-01-18 05:55:49.06	349.45	15.09	-84.3	-88.8	2.5	3.13e+01	0	47	104	0	60	1048575
2026-01-18 05:55:50.07	349.21	15.06	-83.9	-88.8	2.7	3.13e+01	0	47	104	0	60	1048575
2026-01-18 05:55:51.07	348.97	15.02	-83.9	-88.8	2.4	3.13e+01	0	47	104	0	60	1048575
2026-01-18 05:55:52.08	348.73	14.99	-84.3	-88.8	2.6	3.13e+01	0	47	104	0	60	1048575
2026-01-18 05:55:53.09	348.49	14.96	-84.3	-88.8	2.7	3.13e+01	0	47	104	0	60	1048575
2026-01-18 05:55:54.09	348.26	14.93	-84.3	-88.8	2.5	3.13e+01	0	47	104	0	60	1048575
2026-01-18 05:55:55.11	348.02	14.89	-83.9	-88.8	2.7	3.13e+01	0	47	104	0	60	1048575
2026-01-18 05:55:56.11	347.79	14.86	-83.9	-88.8	2.7	3.13e+01	0	47	104	0	60	1048575
2026-01-18 05:55:57.12	347.55	14.83	-84.3	-88.8	2.5	3.13e+01	0	47	104	0	60	1048575
2026-01-18 05:55:58.13	347.32	14.79	-84.3	-88.8	2.6	3.13e+01	0	47	104	0	60	1048575
2026-01-18 05:55:59.13	347.08	14.76	-84.3	-88.8	2.6	3.13e+01	0	47	104	0	60	1048575
2026-01-18 05:56:00.14	346.85	14.72	-83.9	-88.8	2.7	3.13e+01	0	47	104	0	60	1048575
2026-01-18 05:56:01.15	346.62	14.68	-84.3	-88.8	2.8	3.13e+01	0	47	104	0	60	1048575
2026-01-18 05:56:02.16	346.38	14.65	-84.3	-88.8	2.7	3.13e+01	0	47	104	0	60	1048575
2026-01-18 05:56:03.16	346.15	14.61	-84.3	-88.8	2.8	3.13e+01	0	47	104	0	60	1048575
2026-01-18 05:56:04.17	345.92	14.58	-84.3	-88.8	2.4	3.13e+01	0	47	104	0	60	1048575
2026-01-18 05:56:05.18	345.69	14.54	-83.9	-88.8	2.5	3.13e+01	0	47	104	0	60	1048575
2026-01-18 05:56:06.19	345.46	14.50	-83.9	-88.8	2.5	3.13e+01	0	47	104	0	60	1048575
2026-01-18 05:56:07.19	345.23	14.46	-84.3	-88.8	2.7	3.13e+01	0	47	104	0	60	1048575
2026-01-18 05:56:08.20	345.00	14.42	-84.3	-88.8	2.7	3.13e+01	0	47	104	0	60	1048575
2026-01-18 05:56:09.20	344.78	14.39	-84.3	-88.8	2.6	3.13e+01	0	47	104	0	60	1048575
2026-01-18 05:56:10.21	344.55	14.35	-83.9	-88.8	2.7	3.13e+01	0	47	104	0	60	1048575
2026-01-18 05:56:11.21	344.32	14.31	-84.3	-88.8	2.4	3.13e+01	0	47	104	0	60	1048575
2026-01-18 05:56:12.21	344.10	14.27	-84.3	-88.8	2.6	3.13e+01	0	47	104	0	60	1048575
2026-01-18 05:56:13.22	343.87	14.23	-84.3	-88.8	2.5	3.13e+01	0	47	104	0	60	1048575
2026-01-18 05:56:14.23	343.65	14.19	-83.9	-88.8	2.4	3.13e+01	0	47	104	0	60	1048575
2026-01-18 05:56:15.23	343.43	14.15	-84.3	-88.8	2.6	3.13e+01	0	47	104	0	60	1048575
2026-01-18 05:56:16.24	343.20	14.11	-84.3	-88.8	2.7	3.13e+01	0	47	104	0	60	1048575
2026-01-18 05:56:17.25	342.98	14.06	-84.3	-88.8	2.5	3.13e+01	0	47	104	0	60	1048575
2026-01-18 05:56:18.25	342.76	14.02	-84.3	-88.8	2.6	3.13e+01	0	47	104	0	60	1048575
2026-01-18 05:56:19.26	342.54	13.98	-83.9	-88.8	2.7	3.13e+01	0	47	104	0	60	1048575
2026-01-18 05:56:20.27	342.32	13.94	-83.9	-88.8	2.6	3.13e+01	0	47	104	0	60	1048575
2026-01-18 05:56:21.27	342.10	13.90	-84.3	-88.8	2.5	3.13e+01	0	47	104	0	60	1048575
2026-01-18 05:56:22.28	341.88	13.85	-84.3	-88.8	2.8	3.13e+01	0	47	104	0	60	1048575
2026-01-18 05:56:23.28	341.66	13.81	-84.3	-88.8	2.6	3.13e+01	0	47	104	0	60	1048575
2026-01-18 05:56:24.29	341.44	13.77	-83.9	-88.8	2.5	3.13e+01	0	47	104	0	60	1048575
2026-01-18 05:56:25.29	341.23	13.72	-84.3	-88.8	2.5	3.13e+01	0	47	104	0	60	1048575
2026-01-18 05:56:26.29	341.01	13.68	-84.3	-88.8	2.6	3.13e+01	0	47	104	0	60	1048575
2026-01-18 05:56:27.30	340.80	13.63	-84.3	-88.8	2.4	3.13e+01	0	47	104	0	60	1048575
2026-01-18 05:56:28.30	340.58	13.59	-83.9	-88.8	2.5	3.13e+01	0	47	104	0	60	1048575
2026-01-18 05:56:29.31	340.37	13.54	-83.9	-88.8	2.8	3.13e+01	0	47	104	0	60	1048575
2026-01-18 05:56:30.31	340.16	13.50	-84.3	-88.8	2.8	3.13e+01	0	47	104	0	60	1048575
2026-01-18 05:56:31.31	339.95	13.45	-84.3	-88.8	2.5	3.13e+01	0	47	104	0	60	1048575
2026-01-18 05:56:32.32	339.73	13.41	-84.3	-88.8	2.5	3.13e+01	0	47	104	0	60	1048575
2026-01-18 05:56:33.32	339.52	13.36	-84.3	-88.8	2.6	3.13e+01	0	47	104	0	60	1048575
2026-01-18 05:56:34.33	339.31	13.31	-83.9	-88.8	2.6	3.13e+01	0	47	104	0	60	1048575
2026-01-18 05:56:35.34	339.10	13.27	-84.3	-88.8	2.4	3.13e+01	0	47	104	0	60	1048575
2026-01-18 05:56:36.35	338.89	13.22	-84.3	-88.8	2.6	3.13e+01	0	47	104	0	60	1048575
2026-01-18 05:56:37.35	338.68	13.17	-84.3	-88.8	2.6	3.13e+01	0	47	104	0	60	1048575
2026-01-18 05:56:38.36	338.48	13.13	-83.9	-88.8	2.4	3.13e+01	0	47	104	0	60	1048575
2026-01-18 05:56:39.37	338.27	13.08	-84.3	-88.8	2.4	3.13e+01	0	47	104	0	60	1048575
2026-01-18 05:56:40.38	338.06	13.03	-84.3	-88.8	2.6	3.13e+01	0	47	104	0	60	1048575
2026-01-18 05:56:41.39	337.86	12.98	-84.3	-88.8	2.6	3.13e+01	0	47	104	0	60	1048575
2026-01-18 05:56:42.39	337.65	12.93	-84.3	-88.8	2.6	3.13e+01	0	47	104	0	60	1048574
2026-01-18 05:56:43.40	337.45	12.88	-83.9	-88.8	2.6	3.13e+01	0	47	104	0	60	1048574
2026-01-18 05:56:44.41	337.24	12.83	-84.3	-88.8	2.6	3.13e+01	0	47	104	0	60	1048574
2026-01-18 05:56:45.41	337.04	12.79	-84.3	-88.8	2.4	3.13e+01	0	47	104	0	60	1048574
2026-01-18 05:56:46.42	336.84	12.74	-84.3	-88.8	2.4	3.13e+01	0	47	104	0	60	1048574
2026-01-18 05:56:47.43	336.64	12.69	-83.9	-88.8	2.5	3.13e+01	0	47	104	0	60	1048574
2026-01-18 05:56:48.44	336.44	12.64	-83.9	-88.8	2.7	3.13e+01	0	47	104	0	60	1048574
2026-01-18 05:56:49.45	336.24	12.59	-84.3	-88.8	2.7	3.13e+01	0	47	104	0	60	1048574
2026-01-18 05:56:50.45	336.04	12.54	-84.3	-88.8	2.6	3.13e+01	0	47	104	0	60	1048574
2026-01-18 05:56:51.46	335.84	12.49	-84.3	-88.8	2.7	3.13e+01	0	47	104	0	60	1048574
2026-01-18 05:56:52.46	335.64	12.44	-83.9	-88.8	2.5	3.13e+01	0	47	104	0	60	1048574
2026-01-18 05:56:53.47	335.45	12.38	-83.9	-88.8	2.5	3.13e+01	0	47	104	0	60	1048574
2026-01-18 05:56:54.48	335.25	12.33	-84.3	-88.8	2.6	3.13e+01	0	47	104	0	60	1048574
2026-01-18 05:56:55.49	335.05	12.28	-84.3	-88.8	2.6	3.13e+01	0	47	104	0	60	1048574
2026-01-18 05:56:56.50	334.86	12.23	-84.3	-88.8	2.6	3.13e+01	0	47	104	0	60	1048574
2026-01-18 05:56:57.51	334.67	12.18	-83.9	-88.8	2.5	3.13e+01	0	47	104	0	60	1048574
2026-01-18 05:56:58.52	334.47	12.13	-84.3	-88.8	2.4	3.13e+01	0	47	104	0	60	1048574
2026-01-18 05:56:59.52	334.28	12.07	-84.3	-88.8	2.6	3.13e+01	0	47	104	0	60	1048574
2026-01-18 05:57:00.52	334.09	12.02	-84.3	-88.8	2.5	3.13e+01	0	47	104	0	60	1048574
2026-01-18 05:57:01.53	333.90	11.97	-84.3	-88.8	2.6	3.13e+01	0	47	104	0	60	1048574
2026-01-18 05:57:02.53	333.71	11.92	-83.9	-88.8	2.3	3.13e+01	0	47	104	0	60	1048574
2026-01-18 05:57:03.54	333.52	11.87	-84.3	-88.8	2.7	3.13e+01	0	47	104	0	60	1048574
2026-01-18 05:57:04.55	333.33	11.81	-84.3	-88.8	2.5	3.13e+01	0	47	104	0	60	1048574
2026-01-18 05:57:05.56	333.14	11.76	-84.3	-88.8	2.6	3.13e+01	0	47	104	0	60	1048574
2026-01-18 05:57:06.56	332.96	11.71	-83.9	-88.8	2.3	3.13e+01	0	47	104	0	60	1048574
2026-01-18 05:57:07.57	332.77	11.65	-83.9	-88.8	2.6	3.13e+01	0	47	104	0	60	1048574
2026-01-18 05:57:08.58	332.58	11.60	-84.3	-88.8	2.7	3.13e+01	0	47	104	0	60	1048574
2026-01-18 05:57:09.59	332.40	11.55	-83.9	-88.8	2.5	3.13e+01	0	47	104	0	60	1048574
2026-01-18 05:57:10.60	332.21	11.49	-84.3	-88.8	2.4	3.13e+01	0	47	104	0	60	1048574
2026-01-18 05:57:11.60	332.03	11.44	-83.9	-88.8	2.4	3.13e+01	0	47	104	0	60	1048574
2026-01-18 05:57:12.61	331.85	11.38	-83.9	-88.8	2.6	3.13e+01	0	47	104	0	60	1048574
2026-01-18 05:57:13.62	331.67	11.33	-84.3	-88.8	2.7	3.13e+01	0	47	104	0	60	1048574
2026-01-18 05:57:14.63	331.48	11.28	-84.3	-88.8	2.4	3.13e+01	0	47	104	0	60	1048574
2026-01-18 05:57:15.64	331.30	11.22	-84.3	-88.8	2.7	3.13e+01	0	47	104	0	60	1048574
2026-01-18 05:57:16.65	331.12	11.17	-83.9	-88.8	2.7	3.13e+01	0	47	104	0	60	1048574
2026-01-18 05:57:17.65	330.95	11.11	-84.3	-88.8	2.6	3.13e+01	0	47	104	0	60	1048574
2026-01-18 05:57:18.66	330.77	11.06	-84.3	-88.8	2.4	3.13e+01	0	47	104	0	60	1048574
2026-01-18 05:57:19.67	330.59	11.00	-84.3	-88.8	2.5	3.13e+01	0	47	104	0	60	1048574
2026-01-18 05:57:20.67	330.41	10.95	-83.9	-88.8	2.6	3.13e+01	0	47	104	0	60	1048574
2026-01-18 05:57:21.68	330.24	10.89	-83.9	-88.8	2.4	3.13e+01	0	47	104	0	60	1048574
2026-01-18 05:57:22.68	330.06	10.84	-84.3	-88.8	2.6	3.13e+01	0	47	104	0	60	1048574
2026-01-18 05:57:23.69	329.89	10.78	-84.3	-88.8	2.7	3.13e+01	0	47	104	0	60	1048574
2026-01-18 05:57:24.70	329.71	10.73	-84.3	-88.8	2.5	3.13e+01	0	47	104	0	60	1048574
2026-01-18 05:57:25.71	329.54	10.67	-83.9	-88.8	2.7	3.13e+01	0	47	104	0	60	1048574
2026-01-18 05:57:26.72	329.37	10.61	-84.3	-88.8	2.3	3.13e+01	0	47	104	0	60	1048574
2026-01-18 05:57:27.73	329.19	10.56	-84.3	-88.8	2.6	3.13e+01	0	47	104	0	60	1048574
2026-01-18 05:57:28.73	329.02	10.50	-84.3	-88.8	2.5	3.13e+01	0	47	104	0	60	1048574
2026-01-18 05:57:29.74	328.85	10.45	-84.3	-88.8	2.6	3.13e+01	0	47	104	0	60	1048574
2026-01-18 05:57:30.74	328.69	10.39	-83.9	-88.8	2.5	3.13e+01	0	47	104	0	60	1048574
2026-01-18 05:57:31.74	328.52	10.33	-84.3	-88.8	2.5	3.13e+01	0	47	104	0	60	1048574
2026-01-18 05:57:32.75	328.35	10.28	-84.3	-88.8	2.5	3.13e+01	0	47	104	0	60	1048574
2026-01-18 05:57:33.75	328.18	10.22	-84.3	-88.8	2.4	3.13e+01	0	47	104	0	60	1048574
2026-01-18 05:57:34.76	328.02	10.17	-84.3	-88.8	2.5	3.13e+01	0	47	104	0	60	1048574
2026-01-18 05:57:35.76	327.85	10.11	-83.9	-88.8	2.7	3.13e+01	0	47	104	0	60	1048574
2026-01-18 05:57:36.77	327.68	10.05	-84.3	-88.8	2.3	3.13e+01	0	47	104	0	60	1048574
2026-01-18 05:57:37.78	327.52	10.00	-84.3	-88.8	2.5	3.13e+01	0	47	104	0	60	1048574
2026-01-18 05:57:38.78	327.36	9.94	-84.3	-88.8	2.8	3.13e+01	0	47	104	0	60	1048574
2026-01-18 05:57:39.79	327.19	9.88	-83.9	-88.8	2.7	3.13e+01	0	47	104	0	60	1048574
2026-01-18 05:57:40.80	327.03	9.83	-84.3	-88.8	2.5	3.13e+01	0	47	104	0	60	1048574
2026-01-18 05:57:41.80	326.87	9.77	-84.3	-88.8	2.5	3.13e+01	0	47	104	0	60	1048574
2026-01-18 05:57:42.81	326.71	9.71	-84.3	-88.8	2.7	3.13e+01	0	47	104	0	60	1048574
2026-01-18 05:57:43.82	326.55	9.66	-84.3	-88.8	2.6	3.13e+01	0	47	104	0	60	1048574
2026-01-18 05:57:44.83	326.39	9.60	-83.9	-88.8	2.5	3.13e+01	0	47	104	0	60	1048574
2026-01-18 05:57:45.84	326.23	9.54	-83.9	-88.8	2.4	3.13e+01	0	47	104	0	60	1048574
2026-01-18 05:57:46.84	326.07	9.48	-84.3	-88.8	2.6	3.13e+01	0	47	104	0	60	1048574
2026-01-18 05:57:47.85	325.91	9.43	-84.3	-88.8	2.7	3.13e+01	0	47	104	0	60	1048574
2026-01-18 05:57:48.86	325.75	9.37	-84.3	-88.8	2.6	3.13e+01	0	47	104	0	60	1048574
2026-01-18 05:57:49.87	325.60	9.31	-83.9	-88.8	2.4	3.13e+01	0	47	104	0	60	1048574
2026-01-18 05:57:50.88	325.44	9.25	-84.3	-88.8	2.6	3.13e+01	0	47	104	0	60	1048574
2026-01-18 05:57:51.89	325.29	9.20	-84.3	-88.8	2.9	3.13e+01	0	47	104	0	60	1048574
2026-01-18 05:57:52.89	325.13	9.14	-84.3	-88.8	2.6	3.13e+01	0	47	104	0	60	1048574
2026-01-18 05:57:53.90	324.98	9.08	-84.3	-88.8	2.5	3.13e+01	0	47	104	0	60	1048574
2026-01-18 05:57:54.91	324.82	9.02	-83.9	-88.8	2.7	3.13e+01	0	47	104	0	60	1048574
2026-01-18 05:57:55.92	324.67	8.97	-84.3	-88.8	2.5	3.13e+01	0	47	104	0	60	1048574
2026-01-18 05:57:56.92	324.52	8.91	-84.3	-88.8	2.5	3.13e+01	0	47	104	0	60	1048574
2026-01-18 05:57:57.93	324.37	8.85	-84.3	-88.8	2.4	3.13e+01	0	47	104	0	60	1048574
2026-01-18 05:57:58.94	324.22	8.79	-83.9	-88.8	2.6	3.13e+01	0	47	104	0	60	1048574
2026-01-18 05:57:59.95	324.07	8.74	-83.9	-88.8	2.4	3.13e+01	0	47	104	0	60	1048574
2026-01-18 05:58:00.96	323.92	8.68	-84.3	-88.8	2.7	3.13e+01	0	47	104	0	60	1048574
2026-01-18 05:58:01.97	323.77	8.62	-84.3	-88.8	2.3	3.13e+01	0	47	104	0	60	1048574
2026-01-18 05:58:02.97	323.62	8.56	-84.3	-88.8	2.6	3.13e+01	0	47	104	0	60	1048574
2026-01-18 05:58:03.98	323.48	8.51	-83.9	-88.8	2.6	3.13e+01	0	47	104	0	60	1048574
2026-01-18 05:58:04.99	323.33	8.45	-83.9	-88.8	2.7	3.13e+01	0	47	104	0	60	1048574
2026-01-18 05:58:05.99	323.18	8.39	-84.3	-88.8	2.7	3.13e+01	0	47	104	0	60	1048574
2026-01-18 05:58:06.99	323.04	8.33	-84.3	-88.8	2.5	3.13e+01	0	47	104	0	60	1048574
2026-01-18 05:58:08.00	322.90	8.27	-83.9	-88.8	2.6	3.13e+01	0	47	104	0	60	1048574
2026-01-18 05:58:09.01	322.75	8.22	-83.9	-88.8	2.5	3.13e+01	0	47	104	0	60	1048574
2026-01-18 05:58:10.01	322.61	8.16	-83.9	-88.8	2.5	3.13e+01	0	47	104	0	60	1048574
2026-01-18 05:58:11.02	322.47	8.10	-84.3	-88.8	2.6	3.13e+01	0	47	104	0	60	1048574
2026-01-18 05:58:12.02	322.32	8.04	-84.3	-88.8	2.3	3.13e+01	0	47	104	0	60	1048574
2026-01-18 05:58:13.03	322.18	7.99	-84.3	-88.8	2.6	3.13e+01	0	47	104	0	60	1048574
2026-01-18 05:58:14.03	322.04	7.93	-83.9	-88.8	2.8	3.13e+01	0	47	104	0	60	1048574
2026-01-18 05:58:15.04	321.90	7.87	-84.3	-88.8	2.7	3.13e+01	0	47	104	0	60	1048574
2026-01-18 05:58:16.05	321.76	7.81	-84.3	-88.8	2.6	3.13e+01	0	47	104	0	60	1048574
2026-01-18 05:58:17.06	321.62	7.75	-84.3	-88.8	2.4	3.13e+01	0	47	104	0	60	1048574
2026-01-18 05:58:18.07	321.48	7.70	-83.9	-88.8	2.6	3.13e+01	0	47	104	0	60	1048575
2026-01-18 05:58:19.08	321.35	7.64	-83.9	-88.8	2.7	3.13e+01	0	47	104	0	60	1048575
2026-01-18 05:58:20.08	321.21	7.58	-84.3	-88.8	2.7	3.13e+01	0	47	104	0	60	1048575
2026-01-18 05:58:21.09	321.07	7.52	-84.3	-88.8	2.5	3.13e+01	0	47	104	0	60	1048575
2026-01-18 05:58:22.10	320.94	7.46	-84.3	-88.8	2.2	3.13e+01	0	47	104	0	60	1048575
2026-01-18 05:58:23.11	320.80	7.41	-83.9	-88.8	2.7	3.13e+01	0	47	104	0	60	1048575
2026-01-18 05:58:24.12	320.67	7.35	-84.3	-88.8	2.6	3.13e+01	0	47	104	0	60	1048575
2026-01-18 05:58:25.13	320.53	7.29	-83.9	-88.8	2.7	3.13e+01	0	47	104	0	60	1048575
2026-01-18 05:58:26.13	320.40	7.23	-84.3	-88.8	2.7	3.13e+01	0	47	104	0	60	1048575
2026-01-18 05:58:27.14	320.27	7.17	-84.3	-88.8	2.6	3.13e+01	0	47	104	0	60	1048575
2026-01-18 05:58:28.15	320.13	7.12	-83.9	-88.8	2.3	3.13e+01	0	47	104	0	60	1048575
2026-01-18 05:58:29.16	320.00	7.06	-84.3	-88.8	2.4	3.13e+01	0	47	104	0	60	1048575
2026-01-18 05:58:30.16	319.87	7.00	-84.3	-88.8	2.5	3.13e+01	0	47	104	0	60	1048575
2026-01-18 05:58:31.17	319.74	6.94	-84.3	-88.8	2.7	3.13e+01	0	47	104	0	60	1048575
2026-01-18 05:58:32.18	319.61	6.88	-83.9	-88.8	2.7	3.13e+01	0	47	104	0	60	1048575
2026-01-18 05:58:33.18	319.48	6.83	-83.9	-88.8	2.6	3.13e+01	0	47	104	0	60	1048575
2026-01-18 05:58:34.19	319.35	6.77	-84.3	-88.8	2.3	3.13e+01	0	47	104	0	60	1048575
2026-01-18 05:58:35.20	319.22	6.71	-84.3	-88.8	2.7	3.13e+01	0	47	104	0	60	1048575
2026-01-18 05:58:36.21	319.09	6.65	-84.3	-88.8	2.7	3.13e+01	0	47	104	0	60	1048575
2026-01-18 05:58:37.22	318.97	6.59	-83.9	-88.8	2.5	3.13e+01	0	47	104	0	60	1048575
2026-01-18 05:58:38.23	318.84	6.54	-84.3	-88.8	2.6	3.13e+01	0	47	104	0	60	1048575
2026-01-18 05:58:39.23	318.72	6.48	-84.3	-88.8	2.6	3.13e+01	0	47	104	0	60	1048575
2026-01-18 05:58:40.23	318.59	6.42	-84.3	-88.8	2.7	3.13e+01	0	47	104	0	60	1048575
2026-01-18 05:58:41.24	318.47	6.36	-83.9	-88.8	2.3	3.13e+01	0	47	104	0	60	1048575
2026-01-18 05:58:42.25	318.34	6.31	-83.9	-88.8	2.6	3.13e+01	0	47	104	0	60	1048575
2026-01-18 05:58:43.26	318.22	6.25	-84.3	-88.8	2.6	3.13e+01	0	47	104	0	60	1048575
2026-01-18 05:58:44.26	318.09	6.19	-84.3	-88.8	2.4	3.13e+01	0	47	104	0	60	1048575
2026-01-18 05:58:45.27	317.97	6.13	-84.3	-88.8	2.6	3.13e+01	0	47	104	0	60	1048575
2026-01-18 05:58:46.27	317.85	6.08	-84.3	-88.8	2.5	3.13e+01	0	47	104	0	60	1048575
2026-01-18 05:58:47.28	317.73	6.02	-83.9	-88.8	2.6	3.13e+01	0	47	104	0	60	1048575
2026-01-18 05:58:48.28	317.61	5.96	-84.3	-88.8	2.6	3.13e+01	0	47	104	0	60	1048575
2026-01-18 05:58:49.29	317.49	5.90	-84.3	-88.8	2.7	3.13e+01	0	47	104	0	60	1048575
2026-01-18 05:58:50.30	317.37	5.85	-84.3	-88.8	2.7	3.13e+01	0	47	104	0	60	1048575
2026-01-18 05:58:51.31	317.25	5.79	-83.9	-88.8	2.4	3.13e+01	0	47	104	0	60	1048575
2026-01-18 05:58:52.31	317.13	5.73	-83.9	-88.8	2.6	3.13e+01	0	47	104	0	60	1048575
2026-01-18 05:58:53.32	317.01	5.67	-84.3	-88.8	2.8	3.13e+01	0	47	104	0	60	1048575
2026-01-18 05:58:54.32	316.89	5.62	-84.3	-88.8	2.4	3.13e+01	0	47	104	0	60	1048575
2026-01-18 05:58:55.33	316.77	5.56	-84.3	-88.8	2.6	3.13e+01	0	47	104	0	60	1048575
2026-01-18 05:58:56.34	316.66	5.50	-83.5	-88.8	2.5	3.13e+01	0	47	104	0	60	1048575
2026-01-18 05:58:57.35	316.54	5.44	-83.9	-88.8	2.5	3.13e+01	0	47	104	0	60	1048575
2026-01-18 05:58:58.36	316.42	5.39	-84.3	-88.8	2.6	3.13e+01	0	47	104	0	60	1048575
2026-01-18 05:58:59.36	316.31	5.33	-84.3	-88.8	2.6	3.13e+01	0	47	104	0	60	1048575
2026-01-18 05:59:00.36	316.20	5.27	-84.3	-88.8	2.8	3.13e+01	0	47	104	0	60	1048575
2026-01-18 05:59:01.37	316.08	5.22	-83.9	-88.8	2.5	3.13e+01	0	47	104	0	60	1048575
2026-01-18 05:59:02.37	315.97	5.16	-84.3	-88.8	2.6	3.13e+01	0	47	104	0	60	1048575
2026-01-18 05:59:03.38	315.85	5.10	-84.3	-88.8	2.6	3.13e+01	0	47	104	0	60	1048575
2026-01-18 05:59:04.38	315.74	5.05	-84.3	-88.8	2.5	3.13e+01	0	47	104	0	60	1048575
2026-01-18 05:59:05.39	315.63	4.99	-83.9	-88.8	2.5	3.13e+01	0	47	104	0	60	1048575
2026-01-18 05:59:06.39	315.52	4.93	-83.9	-88.8	2.5	3.13e+01	0	47	104	0	60	1048575
2026-01-18 05:59:07.40	315.41	4.87	-84.3	-88.8	2.7	3.13e+01	0	47	104	0	60	1048575
2026-01-18 05:59:08.41	315.30	4.82	-84.3	-88.8	2.6	3.13e+01	0	47	104	0	60	1048575
2026-01-18 05:59:09.42	315.18	4.76	-84.3	-88.8	2.4	3.13e+01	0	47	104	0	60	1048575
2026-01-18 05:59:10.42	315.08	4.70	-83.9	-88.8	2.5	3.13e+01	0	47	104	0	60	1048575
2026-01-18 05:59:11.43	314.97	4.65	-84.3	-88.8	2.7	3.13e+01	0	47	104	0	60	1048575
2026-01-18 05:59:12.43	314.86	4.59	-84.3	-88.8	2.6	3.13e+01	0	47	104	0	60	1048575
2026-01-18 05:59:13.43	314.75	4.54	-84.3	-88.8	2.4	3.13e+01	0	47	104	0	60	1048575
2026-01-18 05:59:14.44	314.64	4.48	-84.3	-88.8	2.5	3.13e+01	0	47	104	0	60	1048575
2026-01-18 05:59:15.45	314.53	4.42	-83.9	-88.8	2.6	3.13e+01	0	47	104	0	60	1048575
2026-01-18 05:59:16.45	314.43	4.37	-84.3	-88.8	2.7	3.13e+01	0	47	104	0	60	1048575
2026-01-18 05:59:17.46	314.32	4.31	-84.3	-88.8	2.5	3.13e+01	0	47	104	0	60	1048575
2026-01-18 05:59:18.47	314.21	4.25	-84.3	-88.8	2.6	3.13e+01	0	47	104	0	60	1048575
2026-01-18 05:59:19.48	314.11	4.20	-84.3	-88.8	2.5	3.13e+01	0	47	104	0	60	1048575
2026-01-18 05:59:20.48	314.00	4.14	-83.9	-88.8	2.5	3.13e+01	0	47	104	0	60	1048575
2026-01-18 05:59:21.49	313.90	4.08	-83.9	-88.8	2.5	3.13e+01	0	47	104	0	60	1048575
2026-01-18 05:59:22.49	313.79	4.03	-84.3	-88.8	2.5	3.13e+01	0	47	104	0	60	1048575
2026-01-18 05:59:23.50	313.69	3.97	-84.3	-88.8	2.6	3.13e+01	0	47	104	0	60	1048575
2026-01-18 05:59:24.50	313.59	3.92	-83.9	-88.8	2.7	3.13e+01	0	47	104	0	60	1048575
2026-01-18 05:59:25.51	313.48	3.86	-83.9	-88.8	2.4	3.13e+01	0	47	104	0	60	1048575
2026-01-18 05:59:26.52	313.38	3.80	-84.3	-88.8	2.6	3.13e+01	0	47	104	0	60	1048575
2026-01-18 05:59:27.52	313.28	3.75	-84.3	-88.8	2.5	3.13e+01	0	47	104	0	60	1048575
2026-01-18 05:59:28.53	313.18	3.69	-84.3	-88.8	2.5	3.13e+01	0	47	104	0	60	1048575
2026-01-18 05:59:29.54	313.08	3.64	-83.9	-88.8	2.3	3.13e+01	0	47	104	0	60	1048575
2026-01-18 05:59:30.54	312.98	3.58	-83.9	-88.8	2.6	3.13e+01	0	47	104	0	60	1048575
2026-01-18 05:59:31.55	312.88	3.52	-84.3	-88.8	2.6	3.13e+01	0	47	104	0	60	1048575
2026-01-18 05:59:32.55	312.78	3.47	-83.9	-88.8	2.7	3.13e+01	0	47	104	0	60	1048575
2026-01-18 05:59:33.56	312.68	3.41	-84.3	-88.8	2.7	3.13e+01	0	47	104	0	60	1048575
2026-01-18 05:59:34.56	312.58	3.36	-83.9	-88.8	2.6	3.13e+01	0	47	104	0	60	1048575
2026-01-18 05:59:35.57	312.48	3.30	-83.9	-88.8	2.4	3.13e+01	0	47	104	0	60	1048575
2026-01-18 05:59:36.58	312.38	3.25	-84.3	-88.8	2.5	3.13e+01	0	47	104	0	60	1048575
2026-01-18 05:59:37.59	312.28	3.19	-84.3	-88.8	2.5	3.13e+01	0	47	104	0	60	1048575
2026-01-18 05:59:38.59	312.19	3.13	-83.9	-88.8	2.5	3.13e+01	0	47	104	0	60	1048575
2026-01-18 05:59:39.60	312.09	3.08	-83.9	-88.8	2.5	3.13e+01	0	47	104	0	60	1048575
2026-01-18 05:59:40.62	311.99	3.02	-84.3	-88.8	2.5	3.13e+01	0	47	104	0	60	1048575
2026-01-18 05:59:41.63	311.89	2.97	-84.3	-88.8	2.4	3.13e+01	0	47	104	0	60	1048575
2026-01-18 05:59:42.63	311.80	2.91	-84.3	-88.8	2.4	3.13e+01	0	47	104	0	60	1048575
2026-01-18 05:59:43.64	311.70	2.86	-83.9	-88.8	2.7	3.13e+01	0	47	104	0	60	1048575
2026-01-18 05:59:44.65	311.61	2.80	-83.9	-88.8	2.6	3.13e+01	0	47	104	0	60	1048575
2026-01-18 05:59:45.66	311.51	2.75	-84.3	-88.8	2.6	3.13e+01	0	47	104	0	60	1048575
2026-01-18 05:59:46.66	311.42	2.69	-84.3	-88.8	2.6	3.13e+01	0	47	104	0	60	1048575
2026-01-18 05:59:47.67	311.33	2.64	-84.3	-88.8	2.7	3.13e+01	0	47	104	0	60	1048575
2026-01-18 05:59:48.68	311.23	2.58	-83.9	-88.8	2.6	3.13e+01	0	47	104	0	60	1048575
2026-01-18 05:59:49.68	311.14	2.53	-84.3	-88.8	2.6	3.13e+01	0	47	104	0	60	1048575
2026-01-18 05:59:50.69	311.05	2.47	-84.3	-88.8	2.6	3.13e+01	0	47	104	0	60	1048575
2026-01-18 05:59:51.70	310.95	2.42	-84.3	-88.8	2.6	3.13e+01	0	47	104	0	60	1048575
2026-01-18 05:59:52.71	310.86	2.36	-83.9	-88.8	2.5	3.13e+01	0	47	104	0	60	1048575
2026-01-18 05:59:53.72	310.77	2.31	-83.9	-88.8	2.4	3.13e+01	0	47	104	0	60	1048575
2026-01-18 05:59:54.73	310.68	2.25	-84.3	-88.8	2.6	3.13e+01	0	47	104	0	60	1048575
2026-01-18 05:59:55.73	310.59	2.20	-84.3	-88.8	2.5	3.13e+01	0	47	104	0	60	1048575
2026-01-18 05:59:56.74	310.50	2.14	-84.3	-88.8	2.7	3.13e+01	0	47	104	0	60	1048575
2026-01-18 05:59:57.75	310.41	2.09	-84.3	-88.8	2.7	3.13e+01	0	47	104	0	60	1048575
2026-01-18 05:59:58.76	310.32	2.03	-83.9	-88.8	2.7	3.13e+01	0	47	104	0	60	1048575
2026-01-18 05:59:59.76	310.23	1.98	-84.3	-88.8	2.5	3.13e+01	0	47	104	0	60	1048575
2026-01-18 06:00:00.77	310.14	1.93	-84.3	-88.8	2.5	3.13e+01	0	47	104	0	60	1048575
2026-01-18 06:00:01.77	310.05	1.87	-84.3	-88.8	2.6	3.13e+01	0	47	104	0	60	1048575
2026-01-18 06:00:02.78	309.97	1.82	-83.9	-88.8	2.5	3.13e+01	0	47	104	0	60	1048575
2026-01-18 06:00:03.79	309.88	1.76	-84.3	-88.8	2.5	3.13e+01	0	47	104	0	60	1048575
2026-01-18 06:00:04.80	309.79	1.71	-84.3	-88.8	2.5	3.13e+01	0	47	104	0	60	1048575
2026-01-18 06:00:05.81	309.70	1.66	-84.3	-88.8	2.4	3.13e+01	0	47	104	0	60	1048575
2026-01-18 06:00:06.81	309.62	1.60	-84.3	-88.8	2.5	3.13e+01	0	47	104	0	60	1048575
2026-01-18 06:00:07.82	309.53	1.55	-83.9	-88.8	2.2	3.13e+01	0	47	104	0	60	1048575
2026-01-18 06:00:08.83	309.45	1.49	-83.9	-88.8	2.7	3.13e+01	0	47	104	0	60	1048575
2026-01-18 06:00:09.83	309.36	1.44	-84.3	-88.8	2.6	3.13e+01	0	47	104	0	60	1048575
2026-01-18 06:00:10.84	309.27	1.39	-84.3	-88.8	2.7	3.13e+01	0	47	104	0	60	1048571
2026-01-18 06:00:11.84	309.19	1.33	-83.9	-88.8	2.4	3.13e+01	0	47	104	0	60	1048571
2026-01-18 06:00:12.85	309.11	1.28	-83.9	-88.8	2.6	3.13e+01	0	47	104	0	60	1048571
2026-01-18 06:00:13.86	309.02	1.23	-84.3	-88.8	2.5	3.13e+01	0	47	104	0	60	1048571
2026-01-18 06:00:14.87	308.94	1.17	-84.3	-88.8	2.7	3.13e+01	0	47	104	0	60	1048571
2026-01-18 06:00:15.88	308.85	1.12	-84.3	-88.8	2.7	3.13e+01	0	47	104	0	60	1048571
2026-01-18 06:00:16.89	308.77	1.06	-83.9	-88.8	2.6	3.13e+01	0	47	104	0	60	1048571
2026-01-18 06:00:17.89	308.69	1.01	-83.9	-88.8	2.6	3.13e+01	0	47	104	0	60	1048571
2026-01-18 06:00:18.90	308.61	0.96	-84.3	-88.8	2.7	3.13e+01	0	47	104	0	60	1048571
2026-01-18 06:00:19.91	308.52	0.90	-84.3	-88.8	2.5	3.13e+01	0	47	104	0	60	1048571
2026-01-18 06:00:20.92	308.44	0.85	-84.3	-88.8	2.5	3.13e+01	0	47	104	0	60	1048571
2026-01-18 06:00:21.92	308.36	0.80	-83.9	-88.8	2.4	3.13e+01	0	47	104	0	60	1048571
2026-01-18 06:00:22.92	308.28	0.75	-83.9	-88.8	2.7	3.13e+01	0	47	104	0	60	1048571
2026-01-18 06:00:23.92	308.20	0.69	-84.3	-88.8	2.7	3.13e+01	0	47	104	0	60	1048571
2026-01-18 06:00:24.93	308.12	0.64	-84.3	-88.8	2.6	3.13e+01	0	47	104	0	60	1048571
2026-01-18 06:00:25.93	308.04	0.59	-84.3	-88.8	2.6	3.13e+01	0	47	104	0	60	1048571
2026-01-18 06:00:26.94	307.96	0.53	-83.9	-88.8	2.7	3.13e+01	0	47	104	0	60	1048571
2026-01-18 06:00:27.95	307.88	0.48	-83.9	-88.8	2.4	3.13e+01	0	47	104	0	60	1048571
2026-01-18 06:00:28.96	307.80	0.43	-84.3	-88.8	2.7	3.13e+01	0	47	104	0	60	1048571
2026-01-18 06:00:29.96	307.72	0.38	-84.3	-88.8	2.7	3.13e+01	0	47	104	0	60	1048571
2026-01-18 06:00:30.97	307.64	0.32	-83.9	-88.8	2.6	3.13e+01	0	47	104	0	60	1048571
2026-01-18 06:00:31.98	307.57	0.27	-83.9	-88.8	2.7	3.13e+01	0	47	104	0	60	1048571
2026-01-18 06:00:32.99	307.49	0.22	-84.3	-88.8	2.5	3.13e+01	0	47	104	0	60	1048571
2026-01-18 06:00:33.99	307.41	0.17	-84.3	-88.8	2.6	3.13e+01	0	47	104	0	60	1048571
2026-01-18 06:00:35.00	307.33	0.11	-84.3	-88.8	2.4	3.13e+01	0	47	104	0	60	1048571
2026-01-18 06:00:36.00	307.26	0.06	-83.9	-88.8	2.5	3.13e+01	0	47	104	0	60	1048571
2026-01-18 06:00:37.00	307.18	0.01	-83.9	-88.8	2.6	3.13e+01	0	47	104	0	60	1048571
2026-01-18 06:00:38.01	307.11	-0.04	-84.3	-88.8	2.5	3.13e+01	0	47	104	0	60	1048571

#Closed at: 2026-01-18 06:00:38
#Recorded file [0 MB]: D:/Data/35015_260118_084900.dat