passes_logs/2026/01/18/R3.2S-Naryan-Mar/R3.2S-Naryan-Mar__20260118_053210_NOAA_20_JPSS-1_rec.log

#Pass ID: 20260118_053210_NOAA 20 (JPSS-1)
#Satellite: NOAA 20 (JPSS-1)
#Configuration: NOAA 20
#almurnet v.1.7.20240730
#Start time: 2026-01-18 05:32:12

#Version: 2.2.20231116
#Station: R3.2S-Naryan-Mar
#Location: 53.008057 lon 67.646978 lat
#TLE: 1 43013U 17073A   26017.30359522  .00000067  00000+0  52526-4 0  9990
#TLE: 2 43013  98.7639 318.2187 0001419  36.2087 323.9184 14.19536557423067

#Time	Az	El	Level	Level2	SNR	BER	BlckErr	Temp	State	Recorded	gain1	gain2
2026-01-18 05:32:12.03	91.72	0.08	-85.2	-88.6	3.4	1.55e+00	0	45	0	0	60	1048575
2026-01-18 05:32:13.04	91.67	0.13	-83.5	-88.6	3.0	1.56e+00	0	45	104	0	60	1048575
2026-01-18 05:32:14.05	91.62	0.19	-85.2	-88.6	3.0	1.56e+00	0	46	104	0	60	1048574
2026-01-18 05:32:15.05	91.57	0.24	-85.2	-88.6	3.0	1.55e+00	0	46	104	0	60	1048575
2026-01-18 05:32:16.06	91.52	0.30	-85.2	-88.6	2.9	1.56e+00	0	46	104	0	60	1048575
2026-01-18 05:32:17.07	91.46	0.35	-85.2	-88.6	3.0	1.56e+00	0	46	104	0	60	1048575
2026-01-18 05:32:18.07	91.41	0.41	-85.2	-88.6	3.1	1.55e+00	0	46	104	0	60	1048571
2026-01-18 05:32:19.08	91.36	0.47	-85.2	-88.6	2.7	1.55e+00	0	46	104	0	60	1048574
2026-01-18 05:32:20.08	91.31	0.52	-85.2	-88.6	3.1	1.56e+00	0	46	104	0	60	1048575
2026-01-18 05:32:21.09	91.25	0.58	-85.2	-88.6	3.0	1.56e+00	0	46	104	0	60	1048573
2026-01-18 05:32:22.10	91.20	0.64	-85.2	-88.6	3.1	1.55e+00	0	46	104	0	60	1048574
2026-01-18 05:32:23.10	91.15	0.69	-85.2	-88.6	3.0	1.56e+00	0	46	104	0	60	1048573
2026-01-18 05:32:24.11	91.09	0.75	-85.2	-88.6	2.7	1.55e+00	0	46	104	0	60	1048575
2026-01-18 05:32:25.12	91.04	0.80	-85.2	-88.6	2.8	1.56e+00	0	46	104	0	60	1048575
2026-01-18 05:32:26.13	90.99	0.86	-85.2	-88.6	3.0	1.55e+00	0	46	104	0	60	1048575
2026-01-18 05:32:27.13	90.93	0.92	-85.2	-88.6	2.9	1.56e+00	0	46	104	0	60	1048573
2026-01-18 05:32:28.14	90.88	0.97	-84.3	-88.6	3.0	1.55e+00	0	46	104	0	60	1048575
2026-01-18 05:32:29.15	90.82	1.03	-85.2	-88.6	3.1	1.56e+00	0	46	104	0	60	1048575
2026-01-18 05:32:30.16	90.77	1.09	-85.2	-88.6	2.9	1.56e+00	0	46	104	0	60	1048572
2026-01-18 05:32:31.16	90.71	1.15	-85.2	-88.6	3.0	1.56e+00	0	46	104	0	60	1048572
2026-01-18 05:32:32.16	90.66	1.20	-85.2	-88.6	2.9	1.56e+00	0	46	104	0	60	1048575
2026-01-18 05:32:33.17	90.60	1.26	-85.2	-88.6	3.0	1.56e+00	0	46	104	0	60	1048574
2026-01-18 05:32:34.17	90.54	1.32	-85.2	-88.6	3.0	1.56e+00	0	46	104	0	60	1048575
2026-01-18 05:32:35.18	90.49	1.37	-85.2	-88.6	2.9	1.55e+00	0	46	104	0	60	1048573
2026-01-18 05:32:36.19	90.43	1.43	-85.2	-88.6	2.8	1.55e+00	0	46	104	0	60	1048575
2026-01-18 05:32:37.20	90.38	1.49	-85.2	-88.6	3.1	1.56e+00	0	46	104	0	60	1048575
2026-01-18 05:32:38.20	90.32	1.55	-85.2	-88.6	2.9	1.56e+00	0	46	104	0	60	1048574
2026-01-18 05:32:39.21	90.26	1.60	-85.2	-88.6	3.0	1.56e+00	0	46	104	0	60	1048575
2026-01-18 05:32:40.22	90.20	1.66	-85.2	-88.6	3.1	1.55e+00	0	46	104	0	60	1048572
2026-01-18 05:32:41.23	90.15	1.72	-85.2	-88.6	2.9	1.55e+00	0	46	104	0	60	1048575
2026-01-18 05:32:42.23	90.09	1.78	-85.2	-88.6	3.0	1.56e+00	0	46	104	0	60	1048575
2026-01-18 05:32:43.24	90.03	1.84	-85.2	-88.6	3.0	1.55e+00	0	46	104	0	60	1048575
2026-01-18 05:32:44.25	89.97	1.89	-85.2	-88.6	3.1	1.55e+00	0	46	104	0	60	1048574
2026-01-18 05:32:45.25	89.91	1.95	-85.2	-88.6	3.2	1.56e+00	0	46	104	0	60	1048575
2026-01-18 05:32:46.26	89.86	2.01	-85.2	-88.6	2.8	1.56e+00	0	46	104	0	60	1048575
2026-01-18 05:32:47.26	89.80	2.07	-85.2	-88.6	3.0	1.56e+00	0	46	104	0	60	1048572
2026-01-18 05:32:48.26	89.74	2.13	-85.2	-88.6	3.0	1.56e+00	0	46	104	0	60	1048574
2026-01-18 05:32:49.27	89.68	2.19	-85.2	-88.6	3.1	1.56e+00	0	46	104	0	60	1048573
2026-01-18 05:32:50.28	89.62	2.24	-85.2	-88.6	2.9	1.55e+00	0	46	104	0	60	1048575
2026-01-18 05:32:51.29	89.56	2.30	-85.2	-88.6	2.9	1.55e+00	0	46	104	0	60	1048573
2026-01-18 05:32:52.29	89.50	2.36	-85.2	-88.6	3.1	1.56e+00	0	46	104	0	60	1048573
2026-01-18 05:32:53.30	89.44	2.42	-85.2	-88.6	2.7	1.56e+00	0	46	104	0	60	1048575
2026-01-18 05:32:54.30	89.38	2.48	-84.7	-88.6	2.9	1.56e+00	0	46	104	0	60	1048574
2026-01-18 05:32:55.31	89.32	2.54	-85.2	-88.6	3.4	1.56e+00	0	46	104	0	60	1048574
2026-01-18 05:32:56.32	89.25	2.60	-85.2	-88.6	3.1	1.56e+00	0	46	104	0	60	1048575
2026-01-18 05:32:57.33	89.19	2.66	-85.2	-88.6	2.9	1.56e+00	0	46	104	0	60	1048575
2026-01-18 05:32:58.33	89.13	2.72	-85.2	-88.6	2.9	1.56e+00	0	46	104	0	60	1048571
2026-01-18 05:32:59.33	89.07	2.78	-85.2	-88.6	2.8	1.56e+00	0	46	104	0	60	1048574
2026-01-18 05:33:00.34	89.01	2.84	-85.2	-88.6	2.8	1.56e+00	0	46	104	0	60	1048573
2026-01-18 05:33:01.35	88.94	2.90	-85.2	-88.6	2.7	1.55e+00	0	46	104	0	60	1048573
2026-01-18 05:33:02.35	88.88	2.96	-85.2	-88.6	3.1	1.56e+00	0	46	104	0	60	1048574
2026-01-18 05:33:03.36	88.82	3.02	-85.2	-88.6	3.0	1.56e+00	0	46	104	0	60	1048574
2026-01-18 05:33:04.37	88.75	3.08	-85.2	-88.6	3.1	1.56e+00	0	46	104	0	60	1048575
2026-01-18 05:33:05.37	88.69	3.14	-85.2	-88.6	3.1	1.56e+00	0	46	104	0	60	1048575
2026-01-18 05:33:06.37	88.63	3.19	-85.2	-88.6	2.9	1.56e+00	0	46	104	0	60	1048574
2026-01-18 05:33:07.38	88.56	3.26	-85.2	-88.6	3.2	1.56e+00	0	46	104	0	60	1048575
2026-01-18 05:33:08.38	88.50	3.32	-85.2	-88.6	2.8	1.56e+00	0	46	104	0	60	1048575
2026-01-18 05:33:09.39	88.43	3.38	-85.2	-88.6	3.0	1.55e+00	0	46	104	0	60	1048575
2026-01-18 05:33:10.40	88.37	3.44	-85.2	-88.6	3.0	1.55e+00	0	46	104	0	60	1048575
2026-01-18 05:33:11.40	88.30	3.50	-85.2	-88.6	3.1	1.56e+00	0	46	104	0	60	1048575
2026-01-18 05:33:12.41	88.24	3.56	-85.2	-88.6	3.2	1.55e+00	0	46	104	0	60	1048575
2026-01-18 05:33:13.42	88.17	3.62	-83.1	-88.6	2.8	1.55e+00	0	46	104	0	60	1048575
2026-01-18 05:33:14.43	88.11	3.68	-85.2	-88.6	3.1	1.56e+00	0	47	104	0	60	1048572
2026-01-18 05:33:15.43	88.04	3.74	-85.2	-88.6	3.0	1.55e+00	0	47	104	0	60	1048575
2026-01-18 05:33:16.44	87.97	3.80	-85.2	-88.6	2.9	1.56e+00	0	47	104	0	60	1048575
2026-01-18 05:33:17.44	87.91	3.86	-85.2	-88.6	3.0	1.56e+00	0	47	104	0	60	1048570
2026-01-18 05:33:18.45	87.84	3.92	-85.2	-88.6	3.0	1.56e+00	0	47	104	0	60	1048575
2026-01-18 05:33:19.46	87.77	3.99	-85.2	-88.6	3.1	1.55e+00	0	47	104	0	60	1048574
2026-01-18 05:33:20.46	87.70	4.05	-85.2	-88.6	3.0	1.56e+00	0	46	104	0	60	1048572
2026-01-18 05:33:21.47	87.64	4.11	-85.2	-88.6	3.0	1.56e+00	0	47	104	0	60	1048574
2026-01-18 05:33:22.47	87.57	4.17	-85.2	-88.6	3.2	1.55e+00	0	46	104	0	60	1048575
2026-01-18 05:33:23.48	87.50	4.23	-83.9	-88.6	3.1	1.56e+00	0	47	104	0	60	1048575
2026-01-18 05:33:24.48	87.43	4.29	-85.2	-88.6	3.0	1.56e+00	0	47	104	0	60	1048575
2026-01-18 05:33:25.48	87.36	4.36	-85.2	-88.6	3.0	1.56e+00	0	47	104	0	60	1048575
2026-01-18 05:33:26.49	87.29	4.42	-85.2	-88.6	3.0	1.55e+00	0	46	104	0	60	1048574
2026-01-18 05:33:27.50	87.22	4.48	-85.2	-88.6	3.0	1.56e+00	0	47	104	0	60	1048573
2026-01-18 05:33:28.50	87.15	4.54	-85.2	-88.6	3.1	1.56e+00	0	46	104	0	60	1048573
2026-01-18 05:33:29.50	87.08	4.60	-85.2	-88.6	2.9	1.56e+00	0	47	104	0	60	1048575
2026-01-18 05:33:30.51	87.01	4.67	-85.2	-88.6	3.0	1.56e+00	0	47	104	0	60	1048574
2026-01-18 05:33:31.52	86.94	4.73	-85.2	-88.6	2.8	1.55e+00	0	47	104	0	60	1048575
2026-01-18 05:33:32.52	86.87	4.79	-85.2	-88.6	3.1	1.55e+00	0	47	104	0	60	1048575
2026-01-18 05:33:33.53	86.79	4.86	-84.3	-88.6	2.8	1.56e+00	0	47	104	0	60	1048575
2026-01-18 05:33:34.54	86.72	4.92	-85.2	-88.6	2.9	1.56e+00	0	47	104	0	60	1048575
2026-01-18 05:33:35.54	86.65	4.98	-85.2	-88.6	2.9	1.56e+00	0	47	104	0	60	1048575
2026-01-18 05:33:36.55	86.58	5.05	-85.2	-88.6	3.0	1.55e+00	0	47	104	0	60	1048574
2026-01-18 05:33:37.56	86.50	5.11	-84.7	-88.6	3.0	1.55e+00	0	47	104	0	60	1048575
2026-01-18 05:33:38.57	86.43	5.17	-84.3	-88.6	2.9	1.56e+00	0	47	104	0	60	1048575
2026-01-18 05:33:39.57	86.36	5.24	-85.2	-88.6	3.1	1.56e+00	0	47	104	0	60	1048575
2026-01-18 05:33:40.57	86.28	5.30	-85.2	-88.6	3.1	1.56e+00	0	47	104	0	60	1048574
2026-01-18 05:33:41.58	86.21	5.36	-85.2	-88.6	3.0	1.56e+00	0	47	104	0	60	1048575
2026-01-18 05:33:42.59	86.13	5.43	-85.2	-88.6	2.8	1.56e+00	0	47	104	0	60	1048575
2026-01-18 05:33:43.59	86.06	5.49	-85.2	-88.6	3.0	1.56e+00	0	47	104	0	60	1048574
2026-01-18 05:33:44.60	85.98	5.55	-84.3	-88.6	3.0	1.56e+00	0	47	104	0	60	1048575
2026-01-18 05:33:45.61	85.90	5.62	-85.2	-88.6	3.0	1.56e+00	0	47	104	0	60	1048575
2026-01-18 05:33:46.62	85.83	5.68	-85.2	-88.6	3.0	1.56e+00	0	47	104	0	60	1048571
2026-01-18 05:33:47.63	85.75	5.75	-85.2	-88.6	3.0	1.56e+00	0	47	104	0	60	1048575
2026-01-18 05:33:48.63	85.67	5.81	-85.2	-88.6	3.2	1.56e+00	0	47	104	0	60	1048575
2026-01-18 05:33:49.64	85.60	5.88	-85.2	-88.6	3.1	1.56e+00	0	47	104	0	60	1048575
2026-01-18 05:33:50.65	85.52	5.94	-85.2	-88.6	2.9	1.55e+00	0	47	104	0	60	1048575
2026-01-18 05:33:51.66	85.44	6.01	-85.2	-88.6	3.1	1.56e+00	0	47	104	0	60	1048572
2026-01-18 05:33:52.67	85.36	6.07	-85.2	-88.6	3.0	1.56e+00	0	47	104	0	60	1048575
2026-01-18 05:33:53.68	85.28	6.14	-85.2	-88.6	2.9	1.56e+00	0	47	104	0	60	1048575
2026-01-18 05:33:54.68	85.20	6.20	-85.2	-88.6	3.0	1.56e+00	0	47	104	0	60	1048575
2026-01-18 05:33:55.69	85.12	6.27	-85.2	-88.6	3.0	1.56e+00	0	47	104	0	60	1048573
2026-01-18 05:33:56.70	85.04	6.33	-85.2	-88.6	3.0	1.56e+00	0	47	104	0	60	1048572
2026-01-18 05:33:57.71	84.96	6.40	-85.2	-88.6	3.0	1.56e+00	0	47	104	0	60	1048575
2026-01-18 05:33:58.72	84.88	6.46	-85.2	-88.6	3.2	1.56e+00	0	47	104	0	60	1048574
2026-01-18 05:33:59.72	84.80	6.53	-85.2	-88.6	3.0	1.56e+00	0	47	104	0	60	1048575
2026-01-18 05:34:00.71	84.72	6.59	-85.2	-88.6	3.1	1.56e+00	0	47	104	0	60	1048575
2026-01-18 05:34:01.72	84.64	6.66	-85.2	-88.6	2.9	1.56e+00	0	47	104	0	60	1048575
2026-01-18 05:34:02.73	84.56	6.73	-85.2	-88.6	2.9	1.56e+00	0	47	104	0	60	1048574
2026-01-18 05:34:03.73	84.47	6.79	-85.2	-88.6	3.1	1.56e+00	0	47	104	0	60	1048574
2026-01-18 05:34:04.74	84.39	6.86	-85.2	-88.6	2.8	1.56e+00	0	47	104	0	60	1048575
2026-01-18 05:34:05.75	84.31	6.93	-85.2	-88.6	3.0	1.56e+00	0	47	104	0	60	1048575
2026-01-18 05:34:06.76	84.22	6.99	-85.2	-88.6	3.0	1.55e+00	0	47	104	0	60	1048575
2026-01-18 05:34:07.76	84.14	7.06	-84.3	-88.6	2.9	1.56e+00	0	47	104	0	60	1048575
2026-01-18 05:34:08.77	84.05	7.13	-84.7	-88.6	2.9	1.56e+00	0	47	104	0	60	1048575
2026-01-18 05:34:09.78	83.97	7.19	-85.2	-88.6	3.1	1.55e+00	0	47	104	0	60	1048574
2026-01-18 05:34:10.79	83.88	7.26	-85.2	-88.6	3.0	1.55e+00	0	47	104	0	60	1048573
2026-01-18 05:34:11.79	83.80	7.33	-85.2	-88.6	2.8	1.55e+00	0	47	104	0	60	1048574
2026-01-18 05:34:12.80	83.71	7.39	-85.2	-88.6	3.0	1.56e+00	0	47	104	0	60	1048574
2026-01-18 05:34:13.81	83.63	7.46	-85.2	-88.6	3.1	1.56e+00	0	47	104	0	60	1048575
2026-01-18 05:34:14.81	83.54	7.53	-85.2	-88.6	2.9	1.56e+00	0	47	104	0	60	1048575
2026-01-18 05:34:15.81	83.45	7.60	-85.2	-88.6	3.0	1.56e+00	0	47	104	0	60	1048574
2026-01-18 05:34:16.82	83.36	7.66	-85.2	-88.6	2.9	1.56e+00	0	47	104	0	60	1048575
2026-01-18 05:34:17.83	83.28	7.73	-85.2	-88.6	3.0	1.56e+00	0	47	104	0	60	1048573
2026-01-18 05:34:18.83	83.19	7.80	-84.3	-88.6	2.9	1.55e+00	0	47	104	0	60	1048572
2026-01-18 05:34:19.84	83.10	7.87	-85.2	-88.6	2.9	1.56e+00	0	47	104	0	60	1048571
2026-01-18 05:34:20.85	83.01	7.94	-85.2	-88.6	3.0	1.56e+00	0	47	104	0	60	1048575
2026-01-18 05:34:21.86	82.92	8.00	-85.2	-88.6	3.1	1.56e+00	0	47	104	0	60	1048573
2026-01-18 05:34:22.87	82.83	8.07	-85.2	-88.6	3.0	1.56e+00	0	47	104	0	60	1048574
2026-01-18 05:34:23.88	82.74	8.14	-85.2	-88.6	3.1	1.55e+00	0	47	104	0	60	1048573
2026-01-18 05:34:24.88	82.64	8.21	-85.2	-88.6	2.9	1.56e+00	0	47	104	0	60	1048574
2026-01-18 05:34:25.89	82.55	8.28	-85.2	-88.6	3.1	1.55e+00	0	47	104	0	60	1048573
2026-01-18 05:34:26.90	82.46	8.35	-83.5	-88.6	2.9	1.56e+00	0	47	104	0	60	1048574
2026-01-18 05:34:27.90	82.37	8.42	-85.2	-88.6	3.1	1.55e+00	0	47	104	0	60	1048573
2026-01-18 05:34:28.91	82.27	8.48	-85.2	-88.6	2.9	1.56e+00	0	47	104	0	60	1048572
2026-01-18 05:34:29.91	82.18	8.55	-85.2	-88.6	3.0	1.56e+00	0	47	104	0	60	1048575
2026-01-18 05:34:30.92	82.09	8.62	-85.2	-88.6	3.0	1.56e+00	0	47	104	0	60	1048575
2026-01-18 05:34:31.92	81.99	8.69	-85.2	-88.6	2.9	1.56e+00	0	47	104	0	60	1048575
2026-01-18 05:34:32.93	81.90	8.76	-85.2	-88.6	3.2	1.56e+00	0	47	104	0	60	1048575
2026-01-18 05:34:33.94	81.80	8.83	-85.2	-88.6	3.1	1.55e+00	0	47	104	0	60	1048575
2026-01-18 05:34:34.94	81.71	8.90	-85.2	-88.6	3.1	1.56e+00	0	47	104	0	60	1048575
2026-01-18 05:34:35.95	81.61	8.97	-85.2	-88.6	3.2	1.56e+00	0	47	104	0	60	1048574
2026-01-18 05:34:36.96	81.51	9.04	-85.2	-88.6	3.2	1.56e+00	0	47	104	0	60	1048574
2026-01-18 05:34:37.97	81.42	9.11	-85.2	-88.6	2.9	1.56e+00	0	47	104	0	60	1048574
2026-01-18 05:34:38.98	81.32	9.18	-85.2	-88.6	3.1	1.56e+00	0	47	104	0	60	1048575
2026-01-18 05:34:39.99	81.22	9.25	-85.2	-88.6	2.9	1.56e+00	0	47	104	0	60	1048575
2026-01-18 05:34:41.00	81.12	9.32	-85.2	-88.6	3.1	1.55e+00	0	47	104	0	60	1048573
2026-01-18 05:34:42.01	81.02	9.39	-85.2	-88.6	3.0	1.56e+00	0	47	104	0	60	1048574
2026-01-18 05:34:43.01	80.92	9.46	-85.2	-88.6	2.9	1.55e+00	0	47	104	0	60	1048573
2026-01-18 05:34:44.02	80.82	9.53	-85.2	-88.6	3.2	1.56e+00	0	47	104	0	60	1048572
2026-01-18 05:34:45.02	80.72	9.60	-85.2	-88.6	2.7	1.56e+00	0	47	104	0	60	1048575
2026-01-18 05:34:46.04	80.62	9.68	-85.2	-88.6	2.9	1.56e+00	0	47	104	0	60	1048572
2026-01-18 05:34:47.04	80.52	9.75	-85.2	-88.6	3.0	1.56e+00	0	47	104	0	60	1048574
2026-01-18 05:34:48.04	80.41	9.82	-85.2	-88.6	3.0	1.55e+00	0	47	104	0	60	1048575
2026-01-18 05:34:49.05	80.31	9.89	-85.2	-88.6	3.1	1.56e+00	0	47	104	0	60	1048573
2026-01-18 05:34:50.06	80.21	9.96	-85.2	-88.6	3.0	1.55e+00	0	47	104	0	60	1048571
2026-01-18 05:34:51.06	80.10	10.03	-85.2	-88.6	2.9	1.55e+00	0	47	104	0	60	1048575
2026-01-18 05:34:52.07	80.00	10.10	-85.2	-88.6	3.1	1.56e+00	0	47	104	0	60	1048573
2026-01-18 05:34:53.08	79.89	10.18	-85.2	-88.6	3.1	1.56e+00	0	47	104	0	60	1048573
2026-01-18 05:34:54.09	79.79	10.25	-85.2	-88.6	3.1	1.56e+00	0	47	104	0	60	1048573
2026-01-18 05:34:55.10	79.68	10.32	-84.3	-88.6	3.0	1.56e+00	0	47	104	0	60	1048570
2026-01-18 05:34:56.11	79.57	10.39	-85.2	-88.6	2.8	1.56e+00	0	47	104	0	60	1048575
2026-01-18 05:34:57.12	79.47	10.47	-85.2	-88.6	2.9	1.55e+00	0	47	104	0	60	1048574
2026-01-18 05:34:58.13	79.36	10.54	-85.2	-88.6	2.8	1.56e+00	0	47	104	0	60	1048575
2026-01-18 05:34:59.13	79.25	10.61	-85.2	-88.6	2.9	1.55e+00	0	47	104	0	60	1048574
2026-01-18 05:35:00.14	79.14	10.68	-85.2	-88.6	2.9	1.56e+00	0	47	104	0	60	1048575
2026-01-18 05:35:01.14	79.03	10.75	-85.2	-88.6	3.3	1.56e+00	0	47	104	0	60	1048575
2026-01-18 05:35:02.15	78.92	10.83	-85.2	-88.6	2.9	1.56e+00	0	47	104	0	60	1048572
2026-01-18 05:35:03.16	78.81	10.90	-85.2	-88.6	3.1	1.56e+00	0	47	104	0	60	1048574
2026-01-18 05:35:04.16	78.70	10.97	-85.2	-88.6	3.0	1.55e+00	0	47	104	0	60	1048574
2026-01-18 05:35:05.17	78.59	11.05	-85.2	-88.6	3.2	1.56e+00	0	47	104	0	60	1048575
2026-01-18 05:35:06.18	78.48	11.12	-85.2	-88.6	3.0	1.56e+00	0	47	104	0	60	1048573
2026-01-18 05:35:07.19	78.37	11.19	-85.2	-88.6	3.0	1.56e+00	0	47	104	0	60	1048575
2026-01-18 05:35:08.20	78.25	11.27	-85.2	-88.6	2.9	1.55e+00	0	47	104	0	60	1048570
2026-01-18 05:35:09.21	78.14	11.34	-85.2	-88.6	2.9	1.56e+00	0	47	104	0	60	1048575
2026-01-18 05:35:10.22	78.02	11.42	-83.5	-88.6	3.0	1.56e+00	0	47	104	0	60	1048574
2026-01-18 05:35:11.22	77.91	11.49	-85.2	-88.6	3.0	1.56e+00	0	47	104	0	60	1048572
2026-01-18 05:35:12.23	77.79	11.56	-85.2	-88.6	3.1	1.56e+00	0	47	104	0	60	1048572
2026-01-18 05:35:13.24	77.68	11.64	-85.2	-88.6	2.9	1.55e+00	0	47	104	0	60	1048573
2026-01-18 05:35:14.25	77.56	11.71	-85.2	-88.6	2.9	1.55e+00	0	47	104	0	60	1048573
2026-01-18 05:35:15.25	77.44	11.78	-84.3	-88.6	2.8	1.56e+00	0	47	104	0	60	1048575
2026-01-18 05:35:16.26	77.32	11.86	-85.2	-88.6	3.2	1.56e+00	0	47	104	0	60	1048570
2026-01-18 05:35:17.27	77.20	11.93	-85.2	-88.6	3.0	1.56e+00	0	47	104	0	60	1048572
2026-01-18 05:35:18.28	77.08	12.01	-85.2	-88.6	2.9	1.55e+00	0	47	104	0	60	1048575
2026-01-18 05:35:19.28	76.97	12.08	-85.2	-88.6	3.0	1.56e+00	0	47	104	0	60	1048575
2026-01-18 05:35:20.29	76.84	12.16	-85.2	-88.6	3.0	1.56e+00	0	47	104	0	60	1048574
2026-01-18 05:35:21.29	76.72	12.23	-85.2	-88.6	3.0	1.56e+00	0	47	104	0	60	1048575
2026-01-18 05:35:22.30	76.60	12.31	-85.2	-88.6	3.0	1.55e+00	0	47	104	0	60	1048575
2026-01-18 05:35:23.30	76.48	12.38	-85.2	-88.6	2.9	1.56e+00	0	47	104	0	60	1048575
2026-01-18 05:35:24.31	76.36	12.46	-85.2	-88.6	2.9	1.56e+00	0	47	104	0	60	1048574
2026-01-18 05:35:25.32	76.23	12.53	-85.2	-88.6	3.0	1.56e+00	0	47	104	0	60	1048574
2026-01-18 05:35:26.33	76.11	12.61	-85.2	-88.6	3.0	1.56e+00	0	47	104	0	60	1048574
2026-01-18 05:35:27.33	75.98	12.68	-85.2	-88.6	3.1	1.56e+00	0	47	104	0	60	1048572
2026-01-18 05:35:28.34	75.86	12.76	-84.7	-88.6	3.1	1.56e+00	0	47	104	0	60	1048566
2026-01-18 05:35:29.35	75.73	12.83	-85.2	-88.6	2.9	1.56e+00	0	47	104	0	60	1048575
2026-01-18 05:35:30.35	75.61	12.91	-84.7	-88.6	2.9	1.55e+00	0	47	104	0	60	1048574
2026-01-18 05:35:31.36	75.48	12.99	-85.2	-88.6	2.9	1.56e+00	0	47	104	0	60	1048575
2026-01-18 05:35:32.36	75.35	13.06	-85.2	-88.6	2.9	1.55e+00	0	47	104	0	60	1048574
2026-01-18 05:35:33.37	75.22	13.14	-85.2	-88.6	2.9	1.55e+00	0	47	104	0	60	1048575
2026-01-18 05:35:34.38	75.09	13.21	-85.2	-88.6	2.9	1.55e+00	0	47	104	0	60	1048575
2026-01-18 05:35:35.39	74.96	13.29	-84.7	-88.6	2.9	1.55e+00	0	47	104	0	60	1048575
2026-01-18 05:35:36.39	74.83	13.37	-85.2	-88.6	2.8	1.55e+00	0	47	104	0	60	1048575
2026-01-18 05:35:37.39	74.70	13.44	-85.2	-88.6	3.0	1.56e+00	0	47	104	0	60	1048571
2026-01-18 05:35:38.40	74.57	13.52	-85.2	-88.6	3.0	1.55e+00	0	47	104	0	60	1048575
2026-01-18 05:35:39.40	74.43	13.59	-85.2	-88.6	2.9	1.55e+00	0	47	104	0	60	1048574
2026-01-18 05:35:40.41	74.30	13.67	-85.2	-88.6	3.1	1.56e+00	0	47	104	0	60	1048575
2026-01-18 05:35:41.42	74.16	13.75	-85.2	-88.6	3.1	1.56e+00	0	47	104	0	60	1048575
2026-01-18 05:35:42.42	74.03	13.82	-85.2	-88.6	3.0	1.55e+00	0	47	104	0	60	1048575
2026-01-18 05:35:43.42	73.89	13.90	-85.2	-88.6	3.0	1.55e+00	0	47	104	0	60	1048575
2026-01-18 05:35:44.43	73.76	13.98	-84.7	-88.6	3.0	1.55e+00	0	47	104	0	60	1048575
2026-01-18 05:35:45.44	73.62	14.06	-85.2	-88.6	3.2	1.56e+00	0	47	104	0	60	1048575
2026-01-18 05:35:46.44	73.48	14.13	-85.2	-88.6	3.2	1.56e+00	0	47	104	0	60	1048575
2026-01-18 05:35:47.45	73.34	14.21	-85.2	-88.6	3.1	1.56e+00	0	47	104	0	60	1048575
2026-01-18 05:35:48.46	73.20	14.29	-83.5	-88.6	3.1	1.56e+00	0	47	104	0	60	1048575
2026-01-18 05:35:49.47	73.06	14.36	-85.2	-88.6	3.1	1.55e+00	0	47	104	0	60	1048572
2026-01-18 05:35:50.47	72.92	14.44	-85.2	-88.6	3.0	1.55e+00	0	47	104	0	60	1048573
2026-01-18 05:35:51.47	72.78	14.52	-85.2	-88.6	3.0	1.56e+00	0	47	104	0	60	1048572
2026-01-18 05:35:52.48	72.64	14.60	-85.2	-88.6	3.0	1.55e+00	0	47	104	0	60	1048574
2026-01-18 05:35:53.48	72.50	14.67	-84.7	-88.6	3.0	1.56e+00	0	47	104	0	60	1048572
2026-01-18 05:35:54.49	72.35	14.75	-85.2	-88.6	3.1	1.56e+00	0	47	104	0	60	1048574
2026-01-18 05:35:55.49	72.21	14.83	-85.2	-88.6	2.8	1.56e+00	0	47	104	0	60	1048571
2026-01-18 05:35:56.50	72.06	14.91	-85.2	-88.6	3.0	1.56e+00	0	47	104	0	60	1048575
2026-01-18 05:35:57.51	71.91	14.98	-85.2	-88.6	3.0	1.55e+00	0	47	104	0	60	1048575
2026-01-18 05:35:58.51	71.77	15.06	-84.3	-88.6	2.9	1.56e+00	0	47	104	0	60	1048574
2026-01-18 05:35:59.52	71.62	15.14	-83.1	-88.6	2.8	1.56e+00	0	47	104	0	60	1048572
2026-01-18 05:36:00.53	71.47	15.22	-85.2	-88.6	3.2	1.56e+00	0	47	104	0	60	1048575
2026-01-18 05:36:01.53	71.32	15.29	-85.2	-88.6	2.9	1.55e+00	0	47	104	0	60	1048574
2026-01-18 05:36:02.54	71.17	15.37	-85.2	-88.6	2.8	1.56e+00	0	47	104	0	60	1048575
2026-01-18 05:36:03.54	71.02	15.45	-84.7	-88.6	2.8	1.56e+00	0	47	104	0	60	1048575
2026-01-18 05:36:04.55	70.87	15.53	-85.2	-88.6	3.1	1.56e+00	0	47	104	0	60	1048571
2026-01-18 05:36:05.56	70.72	15.61	-85.2	-88.6	2.8	1.56e+00	0	47	104	0	60	1048575
2026-01-18 05:36:06.57	70.56	15.69	-85.2	-88.6	3.0	1.56e+00	0	47	104	0	60	1048573
2026-01-18 05:36:07.57	70.41	15.76	-85.2	-88.6	3.2	1.55e+00	0	47	104	0	60	1048575
2026-01-18 05:36:08.58	70.25	15.84	-85.2	-88.6	3.1	1.56e+00	0	47	104	0	60	1048573
2026-01-18 05:36:09.58	70.10	15.92	-85.2	-88.6	3.0	1.55e+00	0	47	104	0	60	1048574
2026-01-18 05:36:10.59	69.94	16.00	-85.2	-88.6	3.1	1.56e+00	0	47	104	0	60	1048575
2026-01-18 05:36:11.60	69.78	16.08	-85.2	-88.6	3.1	1.56e+00	0	47	104	0	60	1048575
2026-01-18 05:36:12.60	69.62	16.16	-85.2	-88.6	2.8	1.56e+00	0	47	104	0	60	1048575
2026-01-18 05:36:13.60	69.47	16.23	-85.2	-88.6	3.1	1.55e+00	0	47	104	0	60	1048572
2026-01-18 05:36:14.61	69.30	16.31	-84.7	-88.6	3.2	1.56e+00	0	47	104	0	60	1048572
2026-01-18 05:36:15.62	69.14	16.39	-85.2	-88.6	3.1	1.56e+00	0	47	104	0	60	1048575
2026-01-18 05:36:16.63	68.98	16.47	-85.2	-88.6	2.9	1.56e+00	0	47	104	0	60	1048573
2026-01-18 05:36:17.63	68.82	16.55	-84.7	-88.6	3.0	1.56e+00	0	47	104	0	60	1048574
2026-01-18 05:36:18.64	68.65	16.63	-85.2	-88.6	2.9	1.56e+00	0	47	104	0	60	1048572
2026-01-18 05:36:19.65	68.49	16.71	-85.2	-88.6	2.9	1.56e+00	0	47	104	0	60	1048573
2026-01-18 05:36:20.66	68.32	16.78	-84.7	-88.6	2.9	1.55e+00	0	47	104	0	60	1048575
2026-01-18 05:36:21.66	68.16	16.86	-85.2	-88.6	3.1	1.56e+00	0	47	104	0	60	1048575
2026-01-18 05:36:22.67	67.99	16.94	-84.7	-88.6	2.9	1.56e+00	0	47	104	0	60	1048575
2026-01-18 05:36:23.68	67.82	17.02	-85.2	-88.6	3.0	1.56e+00	0	47	104	0	60	1048575
2026-01-18 05:36:24.69	67.65	17.10	-83.9	-88.6	3.0	1.55e+00	0	47	104	0	60	1048574
2026-01-18 05:36:25.70	67.48	17.18	-84.7	-88.6	3.0	1.55e+00	0	47	104	0	60	1048573
2026-01-18 05:36:26.71	67.31	17.26	-84.3	-88.6	3.0	1.55e+00	0	47	104	0	60	1048574
2026-01-18 05:36:27.71	67.14	17.33	-84.7	-88.6	3.0	1.56e+00	0	47	104	0	60	1048570
2026-01-18 05:36:28.72	66.97	17.41	-85.2	-88.6	2.9	1.55e+00	0	47	104	0	60	1048575
2026-01-18 05:36:29.72	66.79	17.49	-85.2	-88.6	3.1	1.56e+00	0	47	104	0	60	1048575
2026-01-18 05:36:30.73	66.62	17.57	-85.2	-88.6	2.9	1.56e+00	0	47	104	0	60	1048575
2026-01-18 05:36:31.73	66.45	17.65	-85.2	-88.6	2.8	1.55e+00	0	47	104	0	60	1048575
2026-01-18 05:36:32.74	66.27	17.73	-85.2	-88.6	2.9	1.56e+00	0	47	104	0	60	1048575
2026-01-18 05:36:33.74	66.09	17.80	-84.7	-88.6	3.3	1.56e+00	0	47	104	0	60	1048575
2026-01-18 05:36:34.75	65.91	17.88	-84.7	-88.6	3.1	1.55e+00	0	47	104	0	60	1048575
2026-01-18 05:36:35.76	65.73	17.96	-85.2	-88.6	3.0	1.56e+00	0	47	104	0	60	1048571
2026-01-18 05:36:36.77	65.55	18.04	-85.2	-88.6	2.9	1.56e+00	0	47	104	0	60	1048574
2026-01-18 05:36:37.78	65.37	18.12	-85.2	-88.6	3.1	1.56e+00	0	47	104	0	60	1048574
2026-01-18 05:36:38.79	65.19	18.20	-84.7	-88.6	3.2	1.56e+00	0	47	104	0	60	1048575
2026-01-18 05:36:39.80	65.01	18.28	-83.5	-88.6	2.9	1.56e+00	0	47	104	0	60	1048575
2026-01-18 05:36:40.81	64.82	18.35	-84.7	-88.6	3.1	1.56e+00	0	47	104	0	60	1048575
2026-01-18 05:36:41.81	64.64	18.43	-84.7	-88.6	3.0	1.55e+00	0	47	104	0	60	1048573
2026-01-18 05:36:42.82	64.45	18.51	-85.2	-88.6	3.1	1.56e+00	0	47	104	0	60	1048574
2026-01-18 05:36:43.82	64.27	18.59	-84.3	-88.6	3.1	1.56e+00	0	47	104	0	60	1048574
2026-01-18 05:36:44.83	64.08	18.66	-85.2	-88.6	2.9	1.56e+00	0	47	104	0	60	1048575
2026-01-18 05:36:45.84	63.89	18.74	-85.2	-88.6	3.0	1.56e+00	0	47	104	0	60	1048575
2026-01-18 05:36:46.85	63.70	18.82	-85.2	-88.6	3.0	1.56e+00	0	47	104	0	60	1048575
2026-01-18 05:36:47.85	63.51	18.90	-85.2	-88.6	3.1	1.56e+00	0	47	104	0	60	1048575
2026-01-18 05:36:48.86	63.32	18.98	-85.2	-88.6	3.0	1.56e+00	0	47	104	0	60	1048571
2026-01-18 05:36:49.86	63.13	19.05	-84.7	-88.6	3.0	1.56e+00	0	47	104	0	60	1048575
2026-01-18 05:36:50.87	62.93	19.13	-84.7	-88.6	3.0	1.56e+00	0	47	104	0	60	1048575
2026-01-18 05:36:51.87	62.74	19.21	-85.2	-88.6	2.8	1.55e+00	0	47	104	0	60	1048575
2026-01-18 05:36:52.88	62.54	19.28	-85.2	-88.6	3.0	1.55e+00	0	47	104	0	60	1048575
2026-01-18 05:36:53.89	62.35	19.36	-85.2	-88.6	3.1	1.56e+00	0	47	104	0	60	1048572
2026-01-18 05:36:54.90	62.15	19.44	-84.7	-88.6	2.9	1.56e+00	0	47	104	0	60	1048575
2026-01-18 05:36:55.91	61.95	19.51	-84.7	-88.6	2.9	1.56e+00	0	47	104	0	60	1048575
2026-01-18 05:36:56.92	61.75	19.59	-85.2	-88.6	3.0	1.55e+00	0	47	104	0	60	1048575
2026-01-18 05:36:57.92	61.55	19.67	-85.2	-88.6	2.9	1.55e+00	0	47	104	0	60	1048575
2026-01-18 05:36:58.93	61.35	19.74	-85.2	-88.6	2.9	1.56e+00	0	47	104	0	60	1048573
2026-01-18 05:36:59.94	61.14	19.82	-84.7	-88.6	3.1	1.56e+00	0	47	104	0	60	1048574
2026-01-18 05:37:00.94	60.94	19.90	-85.2	-88.6	3.0	1.56e+00	0	47	104	0	60	1048569
2026-01-18 05:37:01.95	60.74	19.97	-85.2	-88.6	3.0	1.56e+00	0	47	104	0	60	1048575
2026-01-18 05:37:02.95	60.53	20.05	-85.2	-88.6	2.9	1.56e+00	0	47	104	0	60	1048575
2026-01-18 05:37:03.96	60.32	20.12	-85.2	-88.6	2.8	1.55e+00	0	47	104	0	60	1048574
2026-01-18 05:37:04.96	60.12	20.20	-84.7	-88.6	3.1	1.56e+00	0	47	104	0	60	1048575
2026-01-18 05:37:05.97	59.91	20.27	-84.7	-88.6	2.9	1.55e+00	0	47	104	0	60	1048571
2026-01-18 05:37:06.98	59.70	20.35	-85.2	-88.6	2.8	1.55e+00	0	47	104	0	60	1048575
2026-01-18 05:37:07.99	59.49	20.42	-85.2	-88.6	3.2	1.55e+00	0	47	104	0	60	1048575
2026-01-18 05:37:09.00	59.27	20.50	-85.2	-88.6	3.0	1.56e+00	0	47	104	0	60	1048573
2026-01-18 05:37:10.01	59.06	20.57	-85.2	-88.6	3.0	1.56e+00	0	47	104	0	60	1048575
2026-01-18 05:37:11.02	58.85	20.65	-85.2	-88.6	3.0	1.56e+00	0	47	104	0	60	1048574
2026-01-18 05:37:12.02	58.63	20.72	-85.2	-88.6	3.1	1.56e+00	0	47	104	0	60	1048575
2026-01-18 05:37:13.03	58.42	20.79	-85.2	-88.6	2.9	1.56e+00	0	47	104	0	60	1048574
2026-01-18 05:37:14.04	58.20	20.87	-84.7	-88.6	2.9	1.55e+00	0	47	104	0	60	1048575
2026-01-18 05:37:15.04	57.98	20.94	-85.2	-88.6	2.9	1.56e+00	0	47	104	0	60	1048575
2026-01-18 05:37:16.05	57.76	21.01	-85.2	-88.6	3.1	1.55e+00	0	47	104	0	60	1048575
2026-01-18 05:37:17.06	57.54	21.09	-85.2	-88.6	3.1	1.56e+00	0	47	104	0	60	1048575
2026-01-18 05:37:18.06	57.32	21.16	-85.2	-88.6	3.2	1.56e+00	0	47	104	0	60	1048574
2026-01-18 05:37:19.06	57.10	21.23	-84.7	-88.6	3.0	1.56e+00	0	47	104	0	60	1048575
2026-01-18 05:37:20.07	56.88	21.30	-84.7	-88.6	2.9	1.56e+00	0	47	104	0	60	1048571
2026-01-18 05:37:21.08	56.65	21.38	-85.2	-88.6	3.0	1.56e+00	0	47	104	0	60	1048575
2026-01-18 05:37:22.08	56.43	21.45	-85.2	-88.6	3.0	1.56e+00	0	47	104	0	60	1048574
2026-01-18 05:37:23.09	56.20	21.52	-85.2	-88.6	3.1	1.56e+00	0	47	104	0	60	1048575
2026-01-18 05:37:24.10	55.97	21.59	-84.7	-88.6	2.9	1.56e+00	0	47	104	0	60	1048575
2026-01-18 05:37:25.11	55.74	21.66	-84.7	-88.6	3.1	1.56e+00	0	47	104	0	60	1048575
2026-01-18 05:37:26.12	55.51	21.73	-85.2	-88.6	2.8	1.56e+00	0	47	104	0	60	1048575
2026-01-18 05:37:27.13	55.28	21.80	-84.7	-88.6	3.2	1.56e+00	0	47	104	0	60	1048575
2026-01-18 05:37:28.13	55.05	21.87	-85.2	-88.6	3.0	1.56e+00	0	47	104	0	60	1048572
2026-01-18 05:37:29.14	54.82	21.94	-84.7	-88.6	2.9	1.56e+00	0	47	104	0	60	1048575
2026-01-18 05:37:30.15	54.58	22.01	-84.7	-88.6	3.1	1.56e+00	0	47	104	0	60	1048575
2026-01-18 05:37:31.16	54.35	22.08	-85.2	-88.6	3.0	1.56e+00	0	47	104	0	60	1048574
2026-01-18 05:37:32.16	54.11	22.15	-85.2	-88.6	3.0	1.56e+00	0	47	104	0	60	1048574
2026-01-18 05:37:33.16	53.88	22.22	-84.7	-88.6	3.0	1.56e+00	0	47	104	0	60	1048574
2026-01-18 05:37:34.17	53.64	22.28	-85.2	-88.6	3.1	1.55e+00	0	47	104	0	60	1048573
2026-01-18 05:37:35.17	53.40	22.35	-84.7	-88.6	2.9	1.55e+00	0	47	104	0	60	1048574
2026-01-18 05:37:36.18	53.16	22.42	-85.2	-88.6	2.8	1.55e+00	0	47	104	0	60	1048573
2026-01-18 05:37:37.19	52.92	22.49	-85.2	-88.6	2.9	1.56e+00	0	47	104	0	60	1048575
2026-01-18 05:37:38.19	52.68	22.55	-84.7	-88.6	2.9	1.56e+00	0	47	104	0	60	1048575
2026-01-18 05:37:39.20	52.43	22.62	-85.2	-88.6	3.0	1.55e+00	0	47	104	0	60	1048574
2026-01-18 05:37:40.21	52.19	22.68	-85.2	-88.6	3.0	1.56e+00	0	47	104	0	60	1048575
2026-01-18 05:37:41.22	51.94	22.75	-85.2	-88.6	2.9	1.56e+00	0	47	104	0	60	1048575
2026-01-18 05:37:42.23	51.69	22.81	-85.2	-88.6	2.9	1.55e+00	0	47	104	0	60	1048573
2026-01-18 05:37:43.23	51.45	22.88	-84.7	-88.6	2.9	1.56e+00	0	47	104	0	60	1048573
2026-01-18 05:37:44.24	51.20	22.94	-85.2	-88.6	3.1	1.56e+00	0	47	104	0	60	1048575
2026-01-18 05:37:45.25	50.95	23.01	-85.2	-88.6	2.9	1.55e+00	0	47	104	0	60	1048572
2026-01-18 05:37:46.26	50.70	23.07	-85.2	-88.6	2.9	1.55e+00	0	47	104	0	60	1048575
2026-01-18 05:37:47.26	50.45	23.13	-85.2	-88.6	3.0	1.56e+00	0	47	104	0	60	1048575
2026-01-18 05:37:48.27	50.19	23.19	-84.7	-88.6	3.0	1.56e+00	0	47	104	0	60	1048573
2026-01-18 05:37:49.28	49.94	23.26	-85.2	-88.6	2.9	1.56e+00	0	47	104	0	60	1048566
2026-01-18 05:37:50.28	49.69	23.32	-85.2	-88.6	3.1	1.56e+00	0	47	104	0	60	1048575
2026-01-18 05:37:51.29	49.43	23.38	-84.7	-88.6	3.0	1.56e+00	0	47	104	0	60	1048574
2026-01-18 05:37:52.30	49.17	23.44	-84.7	-88.6	3.1	1.56e+00	0	47	104	0	60	1048575
2026-01-18 05:37:53.31	48.91	23.50	-85.2	-88.6	3.0	1.56e+00	0	47	104	0	60	1048575
2026-01-18 05:37:54.32	48.66	23.56	-85.2	-88.6	3.1	1.56e+00	0	47	104	0	60	1048573
2026-01-18 05:37:55.33	48.39	23.62	-85.2	-88.6	3.1	1.56e+00	0	47	104	0	60	1048573
2026-01-18 05:37:56.33	48.14	23.68	-85.2	-88.6	2.9	1.56e+00	0	47	104	0	60	1048574
2026-01-18 05:37:57.34	47.87	23.73	-85.2	-88.6	2.9	1.56e+00	0	47	104	0	60	1048574
2026-01-18 05:37:58.35	47.61	23.79	-85.2	-88.6	3.0	1.56e+00	0	47	104	0	60	1048574
2026-01-18 05:37:59.36	47.35	23.85	-85.2	-88.6	3.1	1.56e+00	0	47	104	0	60	1048572
2026-01-18 05:38:00.36	47.08	23.90	-85.2	-88.6	3.2	1.56e+00	0	47	104	0	60	1048575
2026-01-18 05:38:01.37	46.82	23.96	-84.7	-88.6	2.8	1.56e+00	0	47	104	0	60	1048574
2026-01-18 05:38:02.37	46.55	24.01	-84.7	-88.6	2.8	1.56e+00	0	47	104	0	60	1048575
2026-01-18 05:38:03.38	46.28	24.07	-85.2	-88.6	3.0	1.55e+00	0	47	104	0	60	1048575
2026-01-18 05:38:04.39	46.02	24.12	-84.7	-88.6	2.9	1.56e+00	0	47	104	0	60	1048575
2026-01-18 05:38:05.39	45.75	24.18	-85.2	-88.6	3.0	1.56e+00	0	47	104	0	60	1048575
2026-01-18 05:38:06.40	45.48	24.23	-85.2	-88.6	3.0	1.55e+00	0	47	104	0	60	1048575
2026-01-18 05:38:07.41	45.21	24.28	-84.7	-88.6	3.1	1.56e+00	0	47	104	0	60	1048572
2026-01-18 05:38:08.42	44.93	24.33	-85.2	-88.6	3.0	1.56e+00	0	47	104	0	60	1048575
2026-01-18 05:38:09.43	44.66	24.39	-85.2	-88.6	2.9	1.56e+00	0	47	104	0	60	1048575
2026-01-18 05:38:10.44	44.39	24.44	-85.2	-88.6	2.7	1.56e+00	0	47	104	0	60	1048573
2026-01-18 05:38:11.44	44.11	24.49	-84.7	-88.6	3.0	1.56e+00	0	47	104	0	60	1048575
2026-01-18 05:38:12.45	43.84	24.54	-85.2	-88.6	3.0	1.56e+00	0	47	104	0	60	1048574
2026-01-18 05:38:13.45	43.56	24.58	-85.2	-88.6	2.7	1.56e+00	0	47	104	0	60	1048573
2026-01-18 05:38:14.46	43.28	24.63	-85.2	-88.6	3.0	1.55e+00	0	47	104	0	60	1048575
2026-01-18 05:38:15.47	43.01	24.68	-84.7	-88.6	3.0	1.56e+00	0	47	104	0	60	1048575
2026-01-18 05:38:16.48	42.73	24.73	-84.7	-88.6	2.9	1.56e+00	0	47	104	0	60	1048571
2026-01-18 05:38:17.48	42.45	24.77	-85.2	-88.6	3.1	1.55e+00	0	47	104	0	60	1048573
2026-01-18 05:38:18.49	42.17	24.82	-85.2	-88.6	2.8	1.56e+00	0	47	104	0	60	1048574
2026-01-18 05:38:19.50	41.88	24.86	-85.2	-88.6	3.0	1.56e+00	0	47	104	0	60	1048574
2026-01-18 05:38:20.51	41.60	24.91	-85.2	-88.6	3.0	1.56e+00	0	47	104	0	60	1048575
2026-01-18 05:38:21.52	41.32	24.95	-85.2	-88.6	3.2	1.55e+00	0	47	104	0	60	1048575
2026-01-18 05:38:22.53	41.03	24.99	-85.2	-88.6	3.0	1.55e+00	0	47	104	0	60	1048571
2026-01-18 05:38:23.53	40.75	25.03	-85.2	-88.6	3.1	1.55e+00	0	47	104	0	60	1048574
2026-01-18 05:38:24.53	40.47	25.07	-85.2	-88.6	3.0	1.56e+00	0	47	104	0	60	1048575
2026-01-18 05:38:25.54	40.18	25.12	-85.2	-88.6	2.8	1.56e+00	0	47	104	0	60	1048575
2026-01-18 05:38:26.55	39.89	25.16	-83.9	-88.6	2.9	1.56e+00	0	47	104	0	60	1048575
2026-01-18 05:38:27.55	39.61	25.19	-85.2	-88.6	2.9	1.56e+00	0	47	104	0	60	1048575
2026-01-18 05:38:28.56	39.32	25.23	-85.2	-88.6	3.0	1.56e+00	0	47	104	0	60	1048573
2026-01-18 05:38:29.56	39.03	25.27	-85.2	-88.6	3.0	1.56e+00	0	47	104	0	60	1048575
2026-01-18 05:38:30.57	38.74	25.31	-84.7	-88.6	3.1	1.55e+00	0	47	104	0	60	1048575
2026-01-18 05:38:31.57	38.45	25.34	-85.2	-88.6	2.9	1.56e+00	0	47	104	0	60	1048574
2026-01-18 05:38:32.58	38.16	25.38	-85.2	-88.6	3.3	1.56e+00	0	47	104	0	60	1048573
2026-01-18 05:38:33.59	37.87	25.41	-85.2	-88.6	2.9	1.56e+00	0	47	104	0	60	1048575
2026-01-18 05:38:34.60	37.58	25.45	-85.2	-88.6	2.8	1.56e+00	0	47	104	0	60	1048574
2026-01-18 05:38:35.60	37.29	25.48	-85.2	-88.6	3.2	1.56e+00	0	47	104	0	60	1048573
2026-01-18 05:38:36.61	36.99	25.51	-85.2	-88.6	3.0	1.56e+00	0	47	104	0	60	1048575
2026-01-18 05:38:37.62	36.70	25.54	-85.2	-88.6	3.1	1.56e+00	0	47	104	0	60	1048574
2026-01-18 05:38:38.63	36.40	25.57	-85.2	-88.6	3.0	1.56e+00	0	47	104	0	60	1048575
2026-01-18 05:38:39.63	36.11	25.60	-85.2	-88.6	2.9	1.55e+00	0	47	104	0	60	1048570
2026-01-18 05:38:40.64	35.81	25.63	-85.2	-88.6	3.1	1.56e+00	0	47	104	0	60	1048570
2026-01-18 05:38:41.65	35.52	25.66	-85.2	-88.6	3.0	1.55e+00	0	47	104	0	60	1048574
2026-01-18 05:38:42.66	35.22	25.69	-85.2	-88.6	3.1	1.56e+00	0	47	104	0	60	1048575
2026-01-18 05:38:43.66	34.93	25.72	-85.2	-88.6	3.0	1.56e+00	0	47	104	0	60	1048574
2026-01-18 05:38:44.66	34.63	25.74	-85.2	-88.6	3.0	1.56e+00	0	47	104	0	60	1048574
2026-01-18 05:38:45.67	34.33	25.77	-84.7	-88.6	3.1	1.55e+00	0	47	104	0	60	1048574
2026-01-18 05:38:46.68	34.03	25.79	-85.2	-88.6	3.0	1.56e+00	0	47	104	0	60	1048575
2026-01-18 05:38:47.69	33.73	25.81	-85.2	-88.6	3.0	1.55e+00	0	47	104	0	60	1048575
2026-01-18 05:38:48.69	33.43	25.84	-85.2	-88.6	3.1	1.55e+00	0	47	104	0	60	1048573
2026-01-18 05:38:49.70	33.13	25.86	-85.2	-88.6	3.0	1.56e+00	0	47	104	0	60	1048574
2026-01-18 05:38:50.71	32.83	25.88	-85.2	-88.6	2.9	1.55e+00	0	47	104	0	60	1048574
2026-01-18 05:38:51.72	32.53	25.90	-85.2	-88.6	3.1	1.56e+00	0	47	104	0	60	1048575
2026-01-18 05:38:52.72	32.23	25.92	-85.2	-88.6	2.8	1.56e+00	0	47	104	0	60	1048574
2026-01-18 05:38:53.73	31.93	25.94	-85.2	-88.6	3.1	1.56e+00	0	47	104	0	60	1048575
2026-01-18 05:38:54.73	31.63	25.95	-85.2	-88.6	3.0	1.56e+00	0	47	104	0	60	1048574
2026-01-18 05:38:55.74	31.33	25.97	-85.2	-88.6	3.1	1.55e+00	0	47	104	0	60	1048573
2026-01-18 05:38:56.74	31.03	25.98	-85.2	-88.6	3.0	1.56e+00	0	47	104	0	60	1048575
2026-01-18 05:38:57.75	30.72	26.00	-85.2	-88.6	2.8	1.56e+00	0	47	104	0	60	1048575
2026-01-18 05:38:58.76	30.42	26.01	-84.7	-88.6	2.9	1.56e+00	0	47	104	0	60	1048575
2026-01-18 05:38:59.76	30.12	26.03	-85.2	-88.6	3.1	1.56e+00	0	47	104	0	60	1048575
2026-01-18 05:39:00.76	29.82	26.04	-85.2	-88.6	3.1	1.56e+00	0	47	104	0	60	1048574
2026-01-18 05:39:01.77	29.51	26.05	-85.2	-88.6	3.1	1.56e+00	0	47	104	0	60	1048575
2026-01-18 05:39:02.77	29.21	26.06	-85.2	-88.6	3.1	1.55e+00	0	47	104	0	60	1048574
2026-01-18 05:39:03.78	28.91	26.07	-85.2	-88.6	3.2	1.56e+00	0	47	104	0	60	1048574
2026-01-18 05:39:04.78	28.61	26.08	-85.2	-88.6	3.1	1.55e+00	0	47	104	0	60	1048573
2026-01-18 05:39:05.79	28.30	26.09	-85.2	-88.6	2.8	1.55e+00	0	47	104	0	60	1048575
2026-01-18 05:39:06.79	28.00	26.09	-85.2	-88.6	3.1	1.56e+00	0	47	104	0	60	1048573
2026-01-18 05:39:07.80	27.69	26.10	-85.2	-88.6	3.0	1.56e+00	0	47	104	0	60	1048574
2026-01-18 05:39:08.80	27.39	26.10	-85.2	-88.6	3.1	1.55e+00	0	47	104	0	60	1048575
2026-01-18 05:39:09.81	27.08	26.11	-85.2	-88.6	3.0	1.56e+00	0	47	104	0	60	1048574
2026-01-18 05:39:10.82	26.78	26.11	-85.2	-88.6	3.1	1.55e+00	0	47	104	0	60	1048574
2026-01-18 05:39:11.83	26.47	26.11	-85.2	-88.6	3.0	1.56e+00	0	47	104	0	60	1048574
2026-01-18 05:39:12.84	26.17	26.12	-85.2	-88.6	2.8	1.56e+00	0	47	104	0	60	1048575
2026-01-18 05:39:13.85	25.86	26.12	-85.2	-88.6	3.1	1.55e+00	0	47	104	0	60	1048575
2026-01-18 05:39:14.85	25.56	26.12	-85.2	-88.6	3.1	1.55e+00	0	47	104	0	60	1048575
2026-01-18 05:39:15.86	25.25	26.11	-85.2	-88.6	2.8	1.56e+00	0	47	104	0	60	1048571
2026-01-18 05:39:16.87	24.95	26.11	-85.2	-88.6	2.7	1.55e+00	0	47	104	0	60	1048575
2026-01-18 05:39:17.88	24.64	26.11	-85.2	-88.6	2.9	1.56e+00	0	47	104	0	60	1048574
2026-01-18 05:39:18.88	24.34	26.11	-85.2	-88.6	3.1	1.56e+00	0	47	104	0	60	1048566
2026-01-18 05:39:19.89	24.03	26.10	-85.2	-88.6	3.2	1.56e+00	0	47	104	0	60	1048570
2026-01-18 05:39:20.90	23.73	26.09	-85.2	-88.6	2.9	1.56e+00	0	47	104	0	60	1048575
2026-01-18 05:39:21.91	23.42	26.09	-85.2	-88.6	3.1	1.56e+00	0	47	104	0	60	1048575
2026-01-18 05:39:22.92	23.12	26.08	-85.2	-88.6	2.9	1.55e+00	0	47	104	0	60	1048574
2026-01-18 05:39:23.92	22.82	26.07	-85.2	-88.6	3.0	1.56e+00	0	47	104	0	60	1048575
2026-01-18 05:39:24.93	22.51	26.06	-85.2	-88.6	2.8	1.56e+00	0	47	104	0	60	1048574
2026-01-18 05:39:25.94	22.21	26.05	-84.7	-88.6	2.9	1.56e+00	0	47	104	0	60	1048573
2026-01-18 05:39:26.94	21.91	26.04	-85.2	-88.6	3.1	1.56e+00	0	47	104	0	60	1048571
2026-01-18 05:39:27.95	21.60	26.03	-85.2	-88.6	3.0	1.56e+00	0	47	104	0	60	1048575
2026-01-18 05:39:28.96	21.30	26.02	-85.2	-88.6	3.1	1.56e+00	0	47	104	0	60	1048574
2026-01-18 05:39:29.97	20.99	26.00	-85.2	-88.6	2.9	1.55e+00	0	47	104	0	60	1048575
2026-01-18 05:39:30.97	20.69	25.99	-85.2	-88.6	3.1	1.56e+00	0	47	104	0	60	1048575
2026-01-18 05:39:31.98	20.39	25.97	-85.2	-88.6	2.9	1.56e+00	0	47	104	0	60	1048575
2026-01-18 05:39:32.99	20.09	25.96	-85.2	-88.6	3.0	1.56e+00	0	47	104	0	60	1048575
2026-01-18 05:39:33.99	19.79	25.94	-85.2	-88.6	3.0	1.56e+00	0	47	104	0	60	1048575
2026-01-18 05:39:35.00	19.49	25.92	-85.2	-88.6	2.9	1.56e+00	0	47	104	0	60	1048575
2026-01-18 05:39:36.01	19.18	25.90	-84.7	-88.6	2.9	1.56e+00	0	47	104	0	60	1048575
2026-01-18 05:39:37.01	18.89	25.89	-85.2	-88.6	3.1	1.56e+00	0	47	104	0	60	1048574
2026-01-18 05:39:38.02	18.58	25.86	-85.2	-88.6	2.9	1.56e+00	0	47	104	0	60	1048575
2026-01-18 05:39:39.02	18.29	25.84	-85.2	-88.6	3.0	1.56e+00	0	47	104	0	60	1048574
2026-01-18 05:39:40.03	17.99	25.82	-85.2	-88.6	3.0	1.56e+00	0	47	104	0	60	1048575
2026-01-18 05:39:41.04	17.69	25.80	-85.2	-88.6	3.1	1.56e+00	0	47	104	0	60	1048574
2026-01-18 05:39:42.05	17.39	25.77	-85.2	-88.6	3.1	1.56e+00	0	47	104	0	60	1048574
2026-01-18 05:39:43.05	17.09	25.75	-85.2	-88.6	3.0	1.56e+00	0	47	104	0	60	1048573
2026-01-18 05:39:44.06	16.79	25.72	-85.2	-88.6	3.1	1.56e+00	0	47	104	0	60	1048575
2026-01-18 05:39:45.07	16.50	25.70	-85.2	-88.6	3.0	1.56e+00	0	47	104	0	60	1048575
2026-01-18 05:39:46.08	16.20	25.67	-84.7	-88.6	3.0	1.56e+00	0	47	104	0	60	1048575
2026-01-18 05:39:47.09	15.90	25.64	-85.2	-88.6	3.1	1.56e+00	0	47	104	0	60	1048575
2026-01-18 05:39:48.09	15.61	25.61	-85.2	-88.6	2.9	1.56e+00	0	47	104	0	60	1048575
2026-01-18 05:39:49.10	15.31	25.58	-85.2	-88.6	3.0	1.56e+00	0	47	104	0	60	1048575
2026-01-18 05:39:50.10	15.02	25.55	-85.2	-88.6	3.1	1.55e+00	0	47	104	0	60	1048569
2026-01-18 05:39:51.11	14.72	25.52	-85.2	-88.6	2.9	1.55e+00	0	47	104	0	60	1048574
2026-01-18 05:39:52.12	14.43	25.49	-85.2	-88.6	2.9	1.56e+00	0	47	104	0	60	1048575
2026-01-18 05:39:53.13	14.14	25.46	-85.2	-88.6	3.2	1.56e+00	0	47	104	0	60	1048574
2026-01-18 05:39:54.13	13.85	25.42	-85.2	-88.6	3.1	1.56e+00	0	47	104	0	60	1048574
2026-01-18 05:39:55.14	13.56	25.39	-85.2	-88.6	3.1	1.56e+00	0	47	104	0	60	1048573
2026-01-18 05:39:56.14	13.27	25.36	-84.7	-88.6	3.1	1.56e+00	0	47	104	0	60	1048575
2026-01-18 05:39:57.15	12.98	25.32	-85.2	-88.6	3.0	1.56e+00	0	47	104	0	60	1048575
2026-01-18 05:39:58.16	12.69	25.28	-85.2	-88.6	3.2	1.56e+00	0	47	104	0	60	1048575
2026-01-18 05:39:59.17	12.40	25.25	-85.2	-88.6	3.2	1.56e+00	0	47	104	0	60	1048575
2026-01-18 05:40:00.17	12.11	25.21	-85.2	-88.6	3.1	1.56e+00	0	47	104	0	60	1048573
2026-01-18 05:40:01.18	11.82	25.17	-84.7	-88.6	2.9	1.55e+00	0	47	104	0	60	1048575
2026-01-18 05:40:02.19	11.53	25.13	-85.2	-88.6	3.0	1.56e+00	0	47	104	0	60	1048575
2026-01-18 05:40:03.19	11.25	25.09	-85.2	-88.6	3.0	1.56e+00	0	47	104	0	60	1048575
2026-01-18 05:40:04.20	10.97	25.05	-85.2	-88.6	3.0	1.55e+00	0	47	104	0	60	1048573
2026-01-18 05:40:05.20	10.68	25.01	-85.2	-88.6	2.9	1.55e+00	0	47	104	0	60	1048575
2026-01-18 05:40:06.21	10.40	24.96	-84.7	-88.6	3.0	1.55e+00	0	47	104	0	60	1048575
2026-01-18 05:40:07.22	10.11	24.92	-85.2	-88.6	2.8	1.56e+00	0	47	104	0	60	1048575
2026-01-18 05:40:08.22	9.83	24.88	-85.2	-88.6	2.9	1.56e+00	0	47	104	0	60	1048573
2026-01-18 05:40:09.23	9.55	24.83	-85.2	-88.6	3.0	1.56e+00	0	47	104	0	60	1048574
2026-01-18 05:40:10.24	9.27	24.79	-85.2	-88.6	3.3	1.55e+00	0	47	104	0	60	1048574
2026-01-18 05:40:11.25	8.99	24.74	-85.2	-88.6	3.0	1.56e+00	0	47	104	0	60	1048575
2026-01-18 05:40:12.25	8.71	24.70	-85.2	-88.6	3.0	1.56e+00	0	47	104	0	60	1048575
2026-01-18 05:40:13.26	8.44	24.65	-85.2	-88.6	2.9	1.55e+00	0	47	104	0	60	1048572
2026-01-18 05:40:14.27	8.16	24.60	-85.2	-88.6	3.0	1.55e+00	0	47	104	0	60	1048575
2026-01-18 05:40:15.28	7.88	24.55	-85.2	-88.6	3.0	1.56e+00	0	47	104	0	60	1048575
2026-01-18 05:40:16.28	7.61	24.50	-85.2	-88.6	3.0	1.56e+00	0	47	104	0	60	1048575
2026-01-18 05:40:17.29	7.33	24.45	-85.2	-88.6	3.1	1.56e+00	0	47	104	0	60	1048572
2026-01-18 05:40:18.30	7.06	24.40	-85.2	-88.6	3.1	1.55e+00	0	47	104	0	60	1048574
2026-01-18 05:40:19.31	6.78	24.35	-85.2	-88.6	2.9	1.56e+00	0	47	104	0	60	1048575
2026-01-18 05:40:20.32	6.51	24.30	-85.2	-88.6	2.8	1.56e+00	0	47	104	0	60	1048573
2026-01-18 05:40:21.32	6.24	24.25	-84.7	-88.6	3.3	1.56e+00	0	47	104	0	60	1048572
2026-01-18 05:40:22.33	5.97	24.20	-85.2	-88.6	3.1	1.56e+00	0	47	104	0	60	1048573
2026-01-18 05:40:23.34	5.70	24.14	-85.2	-88.6	2.8	1.56e+00	0	47	104	0	60	1048572
2026-01-18 05:40:24.35	5.43	24.09	-85.2	-88.6	3.1	1.56e+00	0	47	104	0	60	1048574
2026-01-18 05:40:25.36	5.17	24.03	-85.2	-88.6	3.1	1.55e+00	0	47	104	0	60	1048575
2026-01-18 05:40:26.36	4.90	23.98	-85.2	-88.6	2.8	1.55e+00	0	47	104	0	60	1048575
2026-01-18 05:40:27.37	4.63	23.92	-85.2	-88.6	2.9	1.56e+00	0	47	104	0	60	1048572
2026-01-18 05:40:28.38	4.37	23.87	-85.2	-88.6	2.9	1.55e+00	0	47	104	0	60	1048573
2026-01-18 05:40:29.39	4.11	23.81	-84.3	-88.6	2.7	1.55e+00	0	47	104	0	60	1048574
2026-01-18 05:40:30.39	3.84	23.75	-83.5	-88.6	3.2	1.56e+00	0	47	104	0	60	1048575
2026-01-18 05:40:31.40	3.58	23.70	-85.2	-88.6	2.8	1.55e+00	0	47	104	0	60	1048574
2026-01-18 05:40:32.41	3.32	23.64	-85.2	-88.6	3.0	1.56e+00	0	47	104	0	60	1048570
2026-01-18 05:40:33.42	3.06	23.58	-85.2	-88.6	2.9	1.56e+00	0	47	104	0	60	1048575
2026-01-18 05:40:34.43	2.80	23.52	-83.1	-88.6	3.0	1.56e+00	0	47	104	0	60	1048573
2026-01-18 05:40:35.43	2.55	23.46	-85.2	-88.6	3.3	1.55e+00	0	47	104	0	60	1048570
2026-01-18 05:40:36.44	2.29	23.40	-85.2	-88.6	3.1	1.56e+00	0	47	104	0	60	1048575
2026-01-18 05:40:37.44	2.04	23.34	-85.2	-88.6	3.1	1.56e+00	0	47	104	0	60	1048574
2026-01-18 05:40:38.45	1.78	23.28	-85.2	-88.6	2.9	1.56e+00	0	47	104	0	60	1048574
2026-01-18 05:40:39.46	1.53	23.22	-85.2	-88.6	3.1	1.56e+00	0	47	104	0	60	1048573
2026-01-18 05:40:40.47	1.27	23.16	-85.2	-88.6	3.2	1.55e+00	0	47	104	0	60	1048575
2026-01-18 05:40:41.47	1.02	23.09	-85.2	-88.6	2.8	1.56e+00	0	47	104	0	60	1048575
2026-01-18 05:40:42.48	0.77	23.03	-85.2	-88.6	3.0	1.56e+00	0	47	104	0	60	1048574
2026-01-18 05:40:43.49	0.52	22.97	-85.2	-88.6	3.2	1.55e+00	0	47	104	0	60	1048575
2026-01-18 05:40:44.50	0.27	22.90	-85.2	-88.6	3.0	1.56e+00	0	47	104	0	60	1048575
2026-01-18 05:40:45.51	0.02	22.84	-85.2	-88.6	3.1	1.56e+00	0	47	104	0	60	1048571
2026-01-18 05:40:46.51	359.78	22.77	-85.2	-88.6	3.1	1.56e+00	0	47	104	0	60	1048575
2026-01-18 05:40:47.52	359.53	22.71	-85.2	-88.6	2.8	1.56e+00	0	47	104	0	60	1048575
2026-01-18 05:40:48.53	359.29	22.64	-85.2	-88.6	2.9	1.56e+00	0	47	104	0	60	1048575
2026-01-18 05:40:49.54	359.04	22.58	-84.3	-88.6	2.9	1.55e+00	0	47	104	0	60	1048572
2026-01-18 05:40:50.54	358.80	22.51	-85.2	-88.6	2.8	1.55e+00	0	47	104	0	60	1048575
2026-01-18 05:40:51.54	358.56	22.45	-85.2	-88.6	3.1	1.55e+00	0	47	104	0	60	1048574
2026-01-18 05:40:52.55	358.32	22.38	-85.2	-88.6	3.1	1.56e+00	0	47	104	0	60	1048575
2026-01-18 05:40:53.56	358.08	22.31	-85.2	-88.6	3.0	1.55e+00	0	47	104	0	60	1048575
2026-01-18 05:40:54.56	357.85	22.24	-85.2	-88.6	3.0	1.55e+00	0	47	104	0	60	1048575
2026-01-18 05:40:55.57	357.61	22.18	-85.2	-88.6	2.9	1.56e+00	0	47	104	0	60	1048575
2026-01-18 05:40:56.57	357.38	22.11	-85.2	-88.6	3.0	1.56e+00	0	47	104	0	60	1048574
2026-01-18 05:40:57.58	357.14	22.04	-85.2	-88.6	3.0	1.56e+00	0	47	104	0	60	1048575
2026-01-18 05:40:58.59	356.91	21.97	-85.2	-88.6	3.1	1.56e+00	0	47	104	0	60	1048575
2026-01-18 05:40:59.59	356.67	21.90	-85.2	-88.6	3.3	1.55e+00	0	47	104	0	60	1048575
2026-01-18 05:41:00.60	356.44	21.83	-85.2	-88.6	2.8	1.56e+00	0	47	104	0	60	1048573
2026-01-18 05:41:01.60	356.21	21.76	-85.2	-88.6	3.0	1.55e+00	0	47	104	0	60	1048575
2026-01-18 05:41:02.61	355.98	21.69	-85.2	-88.6	2.7	1.56e+00	0	47	104	0	60	1048574
2026-01-18 05:41:03.62	355.75	21.62	-85.2	-88.6	3.1	1.56e+00	0	47	104	0	60	1048574
2026-01-18 05:41:04.63	355.53	21.55	-85.2	-88.6	3.1	1.55e+00	0	47	104	0	60	1048574
2026-01-18 05:41:05.64	355.30	21.48	-85.2	-88.6	3.1	1.56e+00	0	47	104	0	60	1048575
2026-01-18 05:41:06.64	355.07	21.41	-85.2	-88.6	3.2	1.56e+00	0	47	104	0	60	1048575
2026-01-18 05:41:07.65	354.85	21.34	-85.2	-88.6	3.1	1.56e+00	0	47	104	0	60	1048574
2026-01-18 05:41:08.66	354.63	21.26	-85.2	-88.6	3.0	1.56e+00	0	47	104	0	60	1048574
2026-01-18 05:41:09.66	354.41	21.19	-85.2	-88.6	3.1	1.56e+00	0	47	104	0	60	1048575
2026-01-18 05:41:10.67	354.18	21.12	-85.2	-88.6	3.1	1.56e+00	0	47	104	0	60	1048571
2026-01-18 05:41:11.67	353.96	21.05	-85.2	-88.6	3.0	1.56e+00	0	47	104	0	60	1048572
2026-01-18 05:41:12.68	353.74	20.97	-85.2	-88.6	2.9	1.56e+00	0	47	104	0	60	1048574
2026-01-18 05:41:13.69	353.53	20.90	-85.2	-88.6	3.2	1.56e+00	0	47	104	0	60	1048570
2026-01-18 05:41:14.69	353.31	20.83	-85.2	-88.6	3.0	1.56e+00	0	47	104	0	60	1048575
2026-01-18 05:41:15.70	353.09	20.75	-85.2	-88.6	3.0	1.56e+00	0	47	104	0	60	1048575
2026-01-18 05:41:16.71	352.88	20.68	-85.2	-88.6	3.1	1.55e+00	0	47	104	0	60	1048575
2026-01-18 05:41:17.72	352.66	20.61	-85.2	-88.6	3.1	1.56e+00	0	47	104	0	60	1048574
2026-01-18 05:41:18.73	352.45	20.53	-85.2	-88.6	3.1	1.56e+00	0	47	104	0	60	1048574
2026-01-18 05:41:19.73	352.24	20.46	-85.2	-88.6	3.0	1.56e+00	0	47	104	0	60	1048574
2026-01-18 05:41:20.74	352.03	20.38	-84.3	-88.6	3.1	1.56e+00	0	47	104	0	60	1048575
2026-01-18 05:41:21.75	351.82	20.31	-85.2	-88.6	3.0	1.56e+00	0	47	104	0	60	1048571
2026-01-18 05:41:22.76	351.61	20.23	-85.2	-88.6	3.0	1.56e+00	0	47	104	0	60	1048575
2026-01-18 05:41:23.76	351.40	20.16	-85.2	-88.6	3.2	1.56e+00	0	47	104	0	60	1048575
2026-01-18 05:41:24.77	351.20	20.08	-85.2	-88.6	3.1	1.56e+00	0	47	104	0	60	1048575
2026-01-18 05:41:25.78	350.99	20.01	-85.2	-88.6	3.2	1.56e+00	0	47	104	0	60	1048574
2026-01-18 05:41:26.78	350.79	19.93	-85.2	-88.6	3.1	1.56e+00	0	47	104	0	60	1048573
2026-01-18 05:41:27.79	350.58	19.86	-85.2	-88.6	3.1	1.56e+00	0	47	104	0	60	1048574
2026-01-18 05:41:28.79	350.38	19.78	-85.2	-88.6	2.9	1.55e+00	0	47	104	0	60	1048572
2026-01-18 05:41:29.79	350.18	19.70	-85.2	-88.6	3.0	1.56e+00	0	47	104	0	60	1048572
2026-01-18 05:41:30.79	349.98	19.63	-85.2	-88.6	2.7	1.56e+00	0	47	104	0	60	1048575
2026-01-18 05:41:31.80	349.78	19.55	-85.2	-88.6	3.0	1.55e+00	0	47	104	0	60	1048575
2026-01-18 05:41:32.81	349.58	19.48	-85.2	-88.6	3.0	1.56e+00	0	47	104	0	60	1048574
2026-01-18 05:41:33.82	349.39	19.40	-85.2	-88.6	2.9	1.56e+00	0	47	104	0	60	1048574
2026-01-18 05:41:34.82	349.19	19.32	-85.2	-88.6	3.0	1.56e+00	0	47	104	0	60	1048574
2026-01-18 05:41:35.83	348.99	19.25	-84.7	-88.6	3.2	1.56e+00	0	47	104	0	60	1048574
2026-01-18 05:41:36.84	348.80	19.17	-85.2	-88.6	3.0	1.56e+00	0	47	104	0	60	1048575
2026-01-18 05:41:37.85	348.61	19.09	-85.2	-88.6	3.0	1.55e+00	0	47	104	0	60	1048575
2026-01-18 05:41:38.85	348.41	19.01	-85.2	-88.6	3.0	1.56e+00	0	47	104	0	60	1048575
2026-01-18 05:41:39.86	348.22	18.94	-85.2	-88.6	3.0	1.56e+00	0	47	104	0	60	1048573
2026-01-18 05:41:40.87	348.03	18.86	-85.2	-88.6	3.0	1.56e+00	0	47	104	0	60	1048574
2026-01-18 05:41:41.88	347.84	18.78	-85.2	-88.6	2.9	1.56e+00	0	47	104	0	60	1048575
2026-01-18 05:41:42.89	347.65	18.70	-85.2	-88.6	2.9	1.55e+00	0	47	104	0	60	1048573
2026-01-18 05:41:43.89	347.47	18.63	-85.2	-88.6	3.1	1.56e+00	0	47	104	0	60	1048574
2026-01-18 05:41:44.90	347.28	18.55	-85.2	-88.6	3.1	1.56e+00	0	47	104	0	60	1048575
2026-01-18 05:41:45.90	347.09	18.47	-85.2	-88.6	3.1	1.56e+00	0	47	104	0	60	1048575
2026-01-18 05:41:46.90	346.91	18.39	-85.2	-88.6	2.8	1.55e+00	0	47	104	0	60	1048574
2026-01-18 05:41:47.91	346.73	18.32	-85.2	-88.6	2.9	1.55e+00	0	47	104	0	60	1048575
2026-01-18 05:41:48.91	346.55	18.24	-85.2	-88.6	3.2	1.56e+00	0	47	104	0	60	1048572
2026-01-18 05:41:49.92	346.36	18.16	-85.2	-88.6	2.9	1.56e+00	0	47	104	0	60	1048575
2026-01-18 05:41:50.93	346.18	18.08	-85.2	-88.6	3.3	1.56e+00	0	47	104	0	60	1048575
2026-01-18 05:41:51.93	346.00	18.00	-85.2	-88.6	3.1	1.56e+00	0	47	104	0	60	1048575
2026-01-18 05:41:52.94	345.82	17.93	-85.2	-88.6	2.9	1.55e+00	0	47	104	0	60	1048575
2026-01-18 05:41:53.95	345.65	17.85	-84.3	-88.6	3.0	1.55e+00	0	47	104	0	60	1048573
2026-01-18 05:41:54.96	345.47	17.77	-85.2	-88.6	3.0	1.56e+00	0	47	104	0	60	1048575
2026-01-18 05:41:55.97	345.29	17.69	-85.2	-88.6	3.0	1.56e+00	0	47	104	0	60	1048575
2026-01-18 05:41:56.97	345.12	17.61	-85.2	-88.6	2.9	1.56e+00	0	47	104	0	60	1048575
2026-01-18 05:41:57.97	344.94	17.54	-85.2	-88.6	3.1	1.55e+00	0	47	104	0	60	1048575
2026-01-18 05:41:58.97	344.77	17.46	-85.2	-88.6	3.0	1.56e+00	0	47	104	0	60	1048574
2026-01-18 05:41:59.98	344.60	17.38	-85.2	-88.6	3.0	1.55e+00	0	47	104	0	60	1048574
2026-01-18 05:42:00.98	344.43	17.30	-85.2	-88.6	3.0	1.56e+00	0	47	104	0	60	1048572
2026-01-18 05:42:01.99	344.26	17.22	-85.2	-88.6	3.0	1.56e+00	0	47	104	0	60	1048575
2026-01-18 05:42:03.00	344.09	17.14	-85.2	-88.6	2.9	1.56e+00	0	47	104	0	60	1048575
2026-01-18 05:42:04.00	343.92	17.07	-85.2	-88.6	2.9	1.56e+00	0	47	104	0	60	1048573
2026-01-18 05:42:05.01	343.75	16.99	-85.2	-88.6	3.1	1.56e+00	0	47	104	0	60	1048575
2026-01-18 05:42:06.02	343.58	16.91	-85.2	-88.6	3.0	1.56e+00	0	47	104	0	60	1048575
2026-01-18 05:42:07.02	343.42	16.83	-84.7	-88.6	2.8	1.56e+00	0	47	104	0	60	1048574
2026-01-18 05:42:08.03	343.25	16.75	-85.2	-88.6	3.0	1.55e+00	0	47	104	0	60	1048575
2026-01-18 05:42:09.04	343.09	16.67	-85.2	-88.6	3.2	1.56e+00	0	47	104	0	60	1048575
2026-01-18 05:42:10.05	342.92	16.59	-85.2	-88.6	3.0	1.55e+00	0	47	104	0	60	1048574
2026-01-18 05:42:11.05	342.76	16.52	-84.3	-88.6	3.1	1.56e+00	0	47	104	0	60	1048575
2026-01-18 05:42:12.06	342.60	16.44	-85.2	-88.6	2.9	1.56e+00	0	47	104	0	60	1048574
2026-01-18 05:42:13.07	342.44	16.36	-85.2	-88.6	3.1	1.55e+00	0	47	104	0	60	1048573
2026-01-18 05:42:14.08	342.28	16.28	-85.2	-88.6	3.2	1.56e+00	0	47	104	0	60	1048574
2026-01-18 05:42:15.08	342.12	16.20	-85.2	-88.6	2.9	1.56e+00	0	47	104	0	60	1048575
2026-01-18 05:42:16.09	341.96	16.13	-85.2	-88.6	3.1	1.56e+00	0	47	104	0	60	1048570
2026-01-18 05:42:17.10	341.80	16.05	-85.2	-88.6	3.0	1.56e+00	0	47	104	0	60	1048575
2026-01-18 05:42:18.11	341.64	15.97	-85.2	-88.6	2.7	1.56e+00	0	47	104	0	60	1048574
2026-01-18 05:42:19.11	341.49	15.89	-85.2	-88.6	3.0	1.55e+00	0	47	104	0	60	1048575
2026-01-18 05:42:20.12	341.33	15.81	-85.2	-88.6	2.9	1.56e+00	0	47	104	0	60	1048575
2026-01-18 05:42:21.12	341.18	15.73	-85.2	-88.6	2.9	1.56e+00	0	47	104	0	60	1048575
2026-01-18 05:42:22.13	341.03	15.66	-85.2	-88.6	3.2	1.55e+00	0	47	104	0	60	1048574
2026-01-18 05:42:23.13	340.88	15.58	-85.2	-88.6	2.9	1.56e+00	0	47	104	0	60	1048574
2026-01-18 05:42:24.14	340.72	15.50	-85.2	-88.6	2.9	1.56e+00	0	47	104	0	60	1048575
2026-01-18 05:42:25.15	340.57	15.42	-85.2	-88.6	3.2	1.55e+00	0	47	104	0	60	1048575
2026-01-18 05:42:26.15	340.42	15.34	-85.2	-88.6	2.9	1.56e+00	0	47	104	0	60	1048575
2026-01-18 05:42:27.16	340.27	15.27	-85.2	-88.6	2.8	1.56e+00	0	47	104	0	60	1048575
2026-01-18 05:42:28.17	340.12	15.19	-85.2	-88.6	3.0	1.56e+00	0	47	104	0	60	1048575
2026-01-18 05:42:29.18	339.98	15.11	-85.2	-88.6	2.9	1.55e+00	0	47	104	0	60	1048574
2026-01-18 05:42:30.19	339.83	15.03	-85.2	-88.6	3.0	1.56e+00	0	47	104	0	60	1048574
2026-01-18 05:42:31.20	339.68	14.95	-85.2	-88.6	3.0	1.56e+00	0	47	104	0	60	1048574
2026-01-18 05:42:32.20	339.54	14.88	-85.2	-88.6	3.0	1.56e+00	0	47	104	0	60	1048573
2026-01-18 05:42:33.21	339.39	14.80	-85.2	-88.6	3.1	1.56e+00	0	47	104	0	60	1048574
2026-01-18 05:42:34.22	339.25	14.72	-85.2	-88.6	2.9	1.56e+00	0	47	104	0	60	1048575
2026-01-18 05:42:35.22	339.11	14.65	-85.2	-88.6	3.0	1.55e+00	0	47	104	0	60	1048575
2026-01-18 05:42:36.23	338.96	14.57	-85.2	-88.6	2.9	1.55e+00	0	47	104	0	60	1048574
2026-01-18 05:42:37.23	338.82	14.49	-85.2	-88.6	3.0	1.55e+00	0	47	104	0	60	1048575
2026-01-18 05:42:38.24	338.68	14.41	-85.2	-88.6	2.9	1.56e+00	0	47	104	0	60	1048574
2026-01-18 05:42:39.25	338.54	14.34	-85.2	-88.6	3.0	1.55e+00	0	47	104	0	60	1048573
2026-01-18 05:42:40.25	338.40	14.26	-84.7	-88.6	3.0	1.56e+00	0	47	104	0	60	1048575
2026-01-18 05:42:41.26	338.26	14.18	-85.2	-88.6	2.9	1.55e+00	0	47	104	0	60	1048574
2026-01-18 05:42:42.27	338.12	14.11	-85.2	-88.6	3.0	1.56e+00	0	47	104	0	60	1048575
2026-01-18 05:42:43.27	337.99	14.03	-85.2	-88.6	3.1	1.55e+00	0	47	104	0	60	1048572
2026-01-18 05:42:44.28	337.85	13.95	-85.2	-88.6	3.0	1.56e+00	0	47	104	0	60	1048574
2026-01-18 05:42:45.29	337.71	13.88	-85.2	-88.6	3.0	1.56e+00	0	47	104	0	60	1048575
2026-01-18 05:42:46.29	337.58	13.80	-85.2	-88.6	3.0	1.56e+00	0	47	104	0	60	1048572
2026-01-18 05:42:47.30	337.45	13.72	-85.2	-88.6	2.8	1.55e+00	0	47	104	0	60	1048573
2026-01-18 05:42:48.30	337.31	13.65	-85.2	-88.6	2.9	1.56e+00	0	47	104	0	60	1048573
2026-01-18 05:42:49.31	337.18	13.57	-85.2	-88.6	2.8	1.56e+00	0	47	104	0	60	1048575
2026-01-18 05:42:50.31	337.05	13.49	-84.3	-88.6	2.9	1.56e+00	0	47	104	0	60	1048575
2026-01-18 05:42:51.32	336.92	13.42	-85.2	-88.6	3.1	1.55e+00	0	47	104	0	60	1048575
2026-01-18 05:42:52.32	336.79	13.34	-85.2	-88.6	3.1	1.56e+00	0	47	104	0	60	1048575
2026-01-18 05:42:53.33	336.66	13.27	-85.2	-88.6	3.1	1.56e+00	0	47	104	0	60	1048575
2026-01-18 05:42:54.33	336.53	13.19	-85.2	-88.6	2.9	1.56e+00	0	47	104	0	60	1048575
2026-01-18 05:42:55.34	336.40	13.11	-85.2	-88.6	3.0	1.56e+00	0	47	104	0	60	1048572
2026-01-18 05:42:56.34	336.27	13.04	-84.7	-88.6	3.1	1.56e+00	0	47	104	0	60	1048575
2026-01-18 05:42:57.35	336.14	12.96	-85.2	-88.6	3.0	1.56e+00	0	47	104	0	60	1048575
2026-01-18 05:42:58.36	336.02	12.89	-85.2	-88.6	3.0	1.55e+00	0	47	104	0	60	1048574
2026-01-18 05:42:59.35	335.89	12.81	-85.2	-88.6	3.0	1.56e+00	0	47	104	0	60	1048575
2026-01-18 05:43:00.36	335.77	12.74	-85.2	-88.6	2.8	1.56e+00	0	47	104	0	60	1048574
2026-01-18 05:43:01.36	335.64	12.66	-85.2	-88.6	2.8	1.55e+00	0	47	104	0	60	1048573
2026-01-18 05:43:02.37	335.52	12.59	-85.2	-88.6	2.9	1.56e+00	0	47	104	0	60	1048575
2026-01-18 05:43:03.37	335.39	12.51	-85.2	-88.6	3.0	1.56e+00	0	47	104	0	60	1048575
2026-01-18 05:43:04.36	335.27	12.44	-85.2	-88.6	2.9	1.56e+00	0	47	104	0	60	1048575
2026-01-18 05:43:05.36	335.15	12.36	-85.2	-88.6	3.0	1.56e+00	0	47	104	0	60	1048575
2026-01-18 05:43:06.36	335.03	12.29	-85.2	-88.6	3.0	1.55e+00	0	47	104	0	60	1048574
2026-01-18 05:43:07.36	334.91	12.22	-85.2	-88.6	2.8	1.55e+00	0	47	104	0	60	1048575
2026-01-18 05:43:08.37	334.79	12.14	-85.2	-88.6	2.9	1.55e+00	0	47	104	0	60	1048574
2026-01-18 05:43:09.37	334.67	12.07	-84.3	-88.6	2.9	1.56e+00	0	47	104	0	60	1048574
2026-01-18 05:43:10.38	334.55	11.99	-85.2	-88.6	2.9	1.56e+00	0	47	104	0	60	1048574
2026-01-18 05:43:11.39	334.43	11.92	-85.2	-88.6	3.1	1.56e+00	0	47	104	0	60	1048572
2026-01-18 05:43:12.40	334.32	11.84	-85.2	-88.6	2.9	1.56e+00	0	47	104	0	60	1048575
2026-01-18 05:43:13.41	334.20	11.77	-85.2	-88.6	3.1	1.56e+00	0	47	104	0	60	1048574
2026-01-18 05:43:14.41	334.08	11.70	-85.2	-88.6	3.0	1.56e+00	0	47	104	0	60	1048573
2026-01-18 05:43:15.42	333.97	11.62	-85.2	-88.6	2.8	1.56e+00	0	47	104	0	60	1048574
2026-01-18 05:43:16.43	333.85	11.55	-85.2	-88.6	2.9	1.55e+00	0	47	104	0	60	1048575
2026-01-18 05:43:17.44	333.73	11.47	-85.2	-88.6	3.1	1.55e+00	0	47	104	0	60	1048575
2026-01-18 05:43:18.45	333.62	11.40	-85.2	-88.6	3.0	1.56e+00	0	47	104	0	60	1048575
2026-01-18 05:43:19.45	333.51	11.33	-85.2	-88.6	3.1	1.55e+00	0	47	104	0	60	1048575
2026-01-18 05:43:20.46	333.39	11.25	-85.2	-88.6	3.2	1.55e+00	0	47	104	0	60	1048575
2026-01-18 05:43:21.46	333.28	11.18	-85.2	-88.6	2.8	1.56e+00	0	47	104	0	60	1048572
2026-01-18 05:43:22.47	333.17	11.11	-85.2	-88.6	3.0	1.56e+00	0	47	104	0	60	1048575
2026-01-18 05:43:23.47	333.06	11.03	-85.2	-88.6	3.0	1.56e+00	0	47	104	0	60	1048575
2026-01-18 05:43:24.48	332.95	10.96	-85.2	-88.6	3.1	1.56e+00	0	47	104	0	60	1048573
2026-01-18 05:43:25.48	332.84	10.89	-85.2	-88.6	2.9	1.55e+00	0	47	104	0	60	1048574
2026-01-18 05:43:26.48	332.73	10.82	-85.2	-88.6	2.9	1.56e+00	0	47	104	0	60	1048572
2026-01-18 05:43:27.48	332.62	10.75	-85.2	-88.6	3.1	1.56e+00	0	47	104	0	60	1048575
2026-01-18 05:43:28.49	332.51	10.67	-85.2	-88.6	3.1	1.55e+00	0	47	104	0	60	1048574
2026-01-18 05:43:29.49	332.40	10.60	-85.2	-88.6	3.0	1.56e+00	0	47	104	0	60	1048574
2026-01-18 05:43:30.50	332.30	10.53	-84.7	-88.6	3.0	1.55e+00	0	47	104	0	60	1048574
2026-01-18 05:43:31.51	332.19	10.46	-85.2	-88.6	3.0	1.56e+00	0	47	104	0	60	1048572
2026-01-18 05:43:32.52	332.08	10.38	-85.2	-88.6	3.0	1.55e+00	0	47	104	0	60	1048574
2026-01-18 05:43:33.53	331.98	10.31	-85.2	-88.6	2.9	1.56e+00	0	47	104	0	60	1048575
2026-01-18 05:43:34.53	331.87	10.24	-85.2	-88.6	2.8	1.56e+00	0	47	104	0	60	1048575
2026-01-18 05:43:35.54	331.77	10.17	-85.2	-88.6	3.0	1.55e+00	0	47	104	0	60	1048575
2026-01-18 05:43:36.55	331.66	10.10	-85.2	-88.6	3.0	1.56e+00	0	47	104	0	60	1048575
2026-01-18 05:43:37.56	331.56	10.02	-85.2	-88.6	2.9	1.56e+00	0	47	104	0	60	1048575
2026-01-18 05:43:38.56	331.46	9.95	-85.2	-88.6	2.8	1.56e+00	0	47	104	0	60	1048574
2026-01-18 05:43:39.57	331.35	9.88	-85.2	-88.6	2.9	1.56e+00	0	47	104	0	60	1048572
2026-01-18 05:43:40.58	331.25	9.81	-85.2	-88.6	3.1	1.56e+00	0	47	104	0	60	1048575
2026-01-18 05:43:41.58	331.15	9.74	-85.2	-88.6	2.7	1.56e+00	0	47	104	0	60	1048574
2026-01-18 05:43:42.59	331.05	9.67	-85.2	-88.6	3.0	1.55e+00	0	47	104	0	60	1048574
2026-01-18 05:43:43.60	330.95	9.60	-85.2	-88.6	2.9	1.55e+00	0	47	104	0	60	1048575
2026-01-18 05:43:44.61	330.85	9.53	-85.2	-88.6	2.7	1.56e+00	0	47	104	0	60	1048575
2026-01-18 05:43:45.61	330.75	9.46	-85.2	-88.6	3.1	1.56e+00	0	47	104	0	60	1048572
2026-01-18 05:43:46.62	330.65	9.39	-85.2	-88.6	3.0	1.55e+00	0	47	104	0	60	1048575
2026-01-18 05:43:47.63	330.55	9.32	-85.2	-88.6	2.9	1.55e+00	0	47	104	0	60	1048574
2026-01-18 05:43:48.64	330.45	9.25	-85.2	-88.6	3.0	1.56e+00	0	47	104	0	60	1048573
2026-01-18 05:43:49.64	330.35	9.18	-85.2	-88.6	3.1	1.56e+00	0	47	104	0	60	1048575
2026-01-18 05:43:50.65	330.26	9.11	-85.2	-88.6	3.3	1.56e+00	0	47	104	0	60	1048575
2026-01-18 05:43:51.66	330.16	9.04	-85.2	-88.6	3.1	1.56e+00	0	47	104	0	60	1048574
2026-01-18 05:43:52.67	330.06	8.97	-85.2	-88.6	3.1	1.56e+00	0	47	104	0	60	1048573
2026-01-18 05:43:53.68	329.97	8.90	-85.2	-88.6	2.9	1.55e+00	0	47	104	0	60	1048573
2026-01-18 05:43:54.69	329.87	8.83	-85.2	-88.6	2.9	1.56e+00	0	47	104	0	60	1048575
2026-01-18 05:43:55.69	329.78	8.76	-85.2	-88.6	2.9	1.55e+00	0	47	104	0	60	1048575
2026-01-18 05:43:56.70	329.68	8.69	-85.2	-88.6	2.8	1.56e+00	0	47	104	0	60	1048575
2026-01-18 05:43:57.70	329.59	8.62	-85.2	-88.6	3.0	1.56e+00	0	47	104	0	60	1048573
2026-01-18 05:43:58.71	329.50	8.55	-85.2	-88.6	3.1	1.55e+00	0	47	104	0	60	1048575
2026-01-18 05:43:59.71	329.40	8.48	-85.2	-88.6	3.1	1.56e+00	0	47	104	0	60	1048573
2026-01-18 05:44:00.72	329.31	8.41	-85.2	-88.6	2.9	1.56e+00	0	47	104	0	60	1048575
2026-01-18 05:44:01.73	329.22	8.34	-85.2	-88.6	3.1	1.55e+00	0	47	104	0	60	1048574
2026-01-18 05:44:02.73	329.13	8.28	-85.2	-88.6	3.1	1.56e+00	0	47	104	0	60	1048574
2026-01-18 05:44:03.74	329.04	8.21	-85.2	-88.6	3.1	1.56e+00	0	47	104	0	60	1048573
2026-01-18 05:44:04.75	328.95	8.14	-85.2	-88.6	3.0	1.56e+00	0	47	104	0	60	1048575
2026-01-18 05:44:05.75	328.86	8.07	-85.2	-88.6	3.1	1.56e+00	0	47	104	0	60	1048575
2026-01-18 05:44:06.76	328.77	8.00	-85.2	-88.6	3.1	1.56e+00	0	47	104	0	60	1048574
2026-01-18 05:44:07.77	328.68	7.93	-85.2	-88.6	2.8	1.55e+00	0	47	104	0	60	1048574
2026-01-18 05:44:08.77	328.59	7.87	-85.2	-88.6	3.0	1.55e+00	0	47	104	0	60	1048574
2026-01-18 05:44:09.78	328.50	7.80	-85.2	-88.6	3.1	1.56e+00	0	47	104	0	60	1048574
2026-01-18 05:44:10.79	328.41	7.73	-85.2	-88.6	3.3	1.55e+00	0	47	104	0	60	1048573
2026-01-18 05:44:11.79	328.32	7.66	-85.2	-88.6	2.9	1.56e+00	0	47	104	0	60	1048571
2026-01-18 05:44:12.80	328.24	7.60	-85.2	-88.6	3.2	1.56e+00	0	47	104	0	60	1048575
2026-01-18 05:44:13.81	328.15	7.53	-85.2	-88.6	3.3	1.56e+00	0	47	104	0	60	1048575
2026-01-18 05:44:14.82	328.06	7.46	-85.2	-88.6	3.1	1.55e+00	0	47	104	0	60	1048575
2026-01-18 05:44:15.82	327.98	7.39	-85.2	-88.6	2.8	1.56e+00	0	47	104	0	60	1048575
2026-01-18 05:44:16.83	327.89	7.33	-85.2	-88.6	2.9	1.55e+00	0	47	104	0	60	1048575
2026-01-18 05:44:17.84	327.81	7.26	-85.2	-88.6	2.9	1.56e+00	0	47	104	0	60	1048575
2026-01-18 05:44:18.85	327.72	7.19	-85.2	-88.6	3.2	1.56e+00	0	47	104	0	60	1048573
2026-01-18 05:44:19.85	327.64	7.13	-85.2	-88.6	3.0	1.55e+00	0	47	104	0	60	1048575
2026-01-18 05:44:20.86	327.55	7.06	-85.2	-88.6	3.1	1.56e+00	0	47	104	0	60	1048575
2026-01-18 05:44:21.87	327.47	6.99	-85.2	-88.6	3.2	1.56e+00	0	47	104	0	60	1048574
