passes_logs/2026/01/18/R3.2S-Naryan-Mar/R3.2S-Naryan-Mar__20260118_041243_AQUA_rec.log

#Pass ID: 20260118_041243_AQUA
#Satellite: AQUA
#Configuration: AQUA
#almurnet v.1.7.20240730
#Start time: 2026-01-18 04:12:45

#Version: 2.2.20231116
#Station: R3.2S-Naryan-Mar
#Location: 53.008057 lon 67.646978 lat
#TLE: 1 27424U 02022A   26017.29152041  .00000842  00000+0  17841-3 0  9992
#TLE: 2 27424  98.4085 343.7574 0002011  75.4099  30.6811 14.61825797261228

#Time	Az	El	Level	Level2	SNR	BER	BlckErr	Temp	State	Recorded	gain1	gain2
2026-01-18 04:12:45.26	41.12	0.09	-85.2	-88.6	4.7	1.56e+00	0	45	0	0	60	1048575
2026-01-18 04:12:46.27	41.05	0.14	-84.3	-88.8	2.1	3.12e+01	0	46	104	0	60	1048575
2026-01-18 04:12:47.28	40.98	0.19	-84.3	-88.8	2.5	3.12e+01	0	46	104	0	60	1048575
2026-01-18 04:12:48.28	40.91	0.25	-84.3	-88.8	2.3	3.12e+01	0	46	104	0	60	1048575
2026-01-18 04:12:49.29	40.84	0.30	-83.9	-88.8	2.2	3.12e+01	0	46	104	0	60	1048575
2026-01-18 04:12:50.29	40.77	0.36	-83.9	-88.8	2.3	3.12e+01	0	46	104	0	60	1048575
2026-01-18 04:12:51.30	40.70	0.41	-84.3	-88.8	2.3	3.12e+01	0	46	104	0	60	1048575
2026-01-18 04:12:52.31	40.62	0.47	-84.3	-88.8	2.2	3.12e+01	0	46	104	0	60	1048575
2026-01-18 04:12:53.32	40.55	0.52	-84.3	-88.8	2.1	3.12e+01	0	46	104	0	60	1048575
2026-01-18 04:12:54.33	40.48	0.58	-83.9	-88.8	2.2	3.12e+01	0	46	104	0	60	1048575
2026-01-18 04:12:55.33	40.41	0.63	-84.3	-88.8	2.2	3.12e+01	0	46	104	0	60	1048575
2026-01-18 04:12:56.33	40.33	0.69	-84.3	-88.8	2.1	3.12e+01	0	46	104	0	60	1048575
2026-01-18 04:12:57.33	40.26	0.74	-84.3	-88.8	2.3	3.12e+01	0	46	104	0	60	1048575
2026-01-18 04:12:58.34	40.19	0.79	-84.3	-88.8	2.1	3.12e+01	0	46	104	0	60	1048575
2026-01-18 04:12:59.34	40.11	0.85	-83.9	-88.8	2.4	3.12e+01	0	46	104	0	60	1048575
2026-01-18 04:13:00.35	40.04	0.90	-84.3	-88.8	2.3	3.12e+01	0	46	104	0	60	1048575
2026-01-18 04:13:01.36	39.97	0.96	-84.3	-88.8	2.0	3.12e+01	0	46	104	0	60	1048575
2026-01-18 04:13:02.36	39.89	1.02	-84.3	-88.8	2.2	3.12e+01	0	46	104	0	60	1048575
2026-01-18 04:13:03.37	39.82	1.07	-83.9	-88.8	2.1	3.12e+01	0	46	104	0	60	1048575
2026-01-18 04:13:04.37	39.74	1.13	-83.9	-88.8	2.3	3.12e+01	0	46	104	0	60	1048575
2026-01-18 04:13:05.38	39.66	1.18	-84.3	-88.8	2.2	3.12e+01	0	46	104	0	60	1048575
2026-01-18 04:13:06.39	39.59	1.24	-84.3	-88.8	2.6	3.12e+01	0	46	104	0	60	1048575
2026-01-18 04:13:07.39	39.51	1.29	-84.3	-88.8	2.4	3.12e+01	0	46	104	0	60	1048575
2026-01-18 04:13:08.40	39.43	1.35	-84.3	-88.8	2.1	3.12e+01	0	46	104	0	60	1048575
2026-01-18 04:13:09.41	39.36	1.40	-83.9	-88.8	2.4	3.12e+01	0	46	104	0	60	1048575
2026-01-18 04:13:10.41	39.28	1.46	-84.3	-88.8	2.3	3.12e+01	0	46	104	0	60	1048575
2026-01-18 04:13:11.42	39.20	1.52	-84.3	-88.8	2.2	3.12e+01	0	46	104	0	60	1048575
2026-01-18 04:13:12.43	39.12	1.57	-84.3	-88.8	2.2	3.12e+01	0	46	104	0	60	1048575
2026-01-18 04:13:13.44	39.04	1.63	-83.9	-88.8	2.5	3.12e+01	0	46	104	0	60	1048575
2026-01-18 04:13:14.45	38.97	1.68	-84.3	-88.8	2.5	3.12e+01	0	46	104	0	60	1048575
2026-01-18 04:13:15.45	38.89	1.74	-84.3	-88.8	2.2	3.12e+01	0	46	104	0	60	1048575
2026-01-18 04:13:16.46	38.81	1.80	-83.9	-88.8	2.2	3.12e+01	0	46	104	0	60	1048575
2026-01-18 04:13:17.47	38.73	1.85	-84.3	-88.8	2.1	3.12e+01	0	46	104	0	60	1048575
2026-01-18 04:13:18.48	38.65	1.91	-83.9	-88.8	2.6	3.12e+01	0	46	104	0	60	1048575
2026-01-18 04:13:19.48	38.57	1.97	-84.3	-88.8	2.0	3.12e+01	0	46	104	0	60	1048575
2026-01-18 04:13:20.49	38.48	2.02	-84.3	-88.8	2.2	3.12e+01	0	46	104	0	60	1048575
2026-01-18 04:13:21.50	38.40	2.08	-84.3	-88.8	2.2	3.12e+01	0	46	104	0	60	1048575
2026-01-18 04:13:22.51	38.32	2.14	-83.9	-88.8	2.1	3.12e+01	0	46	104	0	60	1048575
2026-01-18 04:13:23.51	38.24	2.19	-83.9	-88.8	2.0	3.12e+01	0	46	104	0	60	1048575
2026-01-18 04:13:24.51	38.16	2.25	-84.3	-88.8	2.2	3.12e+01	0	46	104	0	60	1048575
2026-01-18 04:13:25.51	38.08	2.31	-84.3	-88.8	2.3	3.12e+01	0	46	104	0	60	1048575
2026-01-18 04:13:26.52	37.99	2.36	-84.3	-88.8	2.3	3.12e+01	0	46	104	0	60	1048575
2026-01-18 04:13:27.53	37.91	2.42	-83.9	-88.8	2.4	3.12e+01	0	46	104	0	60	1048575
2026-01-18 04:13:28.53	37.82	2.48	-84.3	-88.8	2.0	3.12e+01	0	46	104	0	60	1048575
2026-01-18 04:13:29.53	37.74	2.53	-84.3	-88.8	1.9	3.12e+01	0	46	104	0	60	1048575
2026-01-18 04:13:30.53	37.66	2.59	-84.3	-88.8	2.1	3.12e+01	0	46	104	0	60	1048575
2026-01-18 04:13:31.54	37.57	2.65	-84.3	-88.8	2.0	3.12e+01	0	46	104	0	60	1048575
2026-01-18 04:13:32.55	37.49	2.71	-83.9	-88.8	2.3	3.12e+01	0	47	104	0	60	1048575
2026-01-18 04:13:33.56	37.40	2.76	-83.9	-88.8	2.3	3.12e+01	0	46	104	0	60	1048575
2026-01-18 04:13:34.56	37.31	2.82	-83.9	-88.8	2.2	3.12e+01	0	46	104	0	60	1048575
2026-01-18 04:13:35.57	37.23	2.88	-84.3	-88.8	2.1	3.12e+01	0	46	104	0	60	1048575
2026-01-18 04:13:36.58	37.14	2.94	-84.3	-88.8	2.2	3.12e+01	0	47	104	0	60	1048575
2026-01-18 04:13:37.58	37.05	3.00	-83.9	-88.8	2.5	3.12e+01	0	46	104	0	60	1048575
2026-01-18 04:13:38.59	36.97	3.05	-84.3	-88.8	2.2	3.12e+01	0	47	104	0	60	1048575
2026-01-18 04:13:39.60	36.88	3.11	-84.3	-88.8	2.2	3.12e+01	0	46	104	0	60	1048575
2026-01-18 04:13:40.61	36.79	3.17	-84.3	-88.8	2.3	3.12e+01	0	47	104	0	60	1048575
2026-01-18 04:13:41.61	36.70	3.23	-83.9	-88.8	2.4	3.12e+01	0	47	104	0	60	1048575
2026-01-18 04:13:42.62	36.61	3.29	-83.9	-88.8	2.2	3.12e+01	0	47	104	0	60	1048575
2026-01-18 04:13:43.63	36.52	3.34	-84.3	-88.8	2.2	3.12e+01	0	47	104	0	60	1048575
2026-01-18 04:13:44.63	36.43	3.40	-84.3	-88.8	2.2	3.12e+01	0	47	104	0	60	1048575
2026-01-18 04:13:45.64	36.34	3.46	-84.3	-88.8	2.4	3.12e+01	0	47	104	0	60	1048575
2026-01-18 04:13:46.64	36.25	3.52	-83.9	-88.8	2.1	3.12e+01	0	47	104	0	60	1048575
2026-01-18 04:13:47.65	36.16	3.58	-84.3	-88.8	2.2	3.12e+01	0	46	104	0	60	1048575
2026-01-18 04:13:48.66	36.07	3.64	-84.3	-88.8	2.5	3.12e+01	0	47	104	0	60	1048575
2026-01-18 04:13:49.67	35.97	3.70	-84.3	-88.8	2.6	3.12e+01	0	47	104	0	60	1048575
2026-01-18 04:13:50.68	35.88	3.76	-84.3	-88.8	2.3	3.12e+01	0	47	104	0	60	1048575
2026-01-18 04:13:51.68	35.79	3.81	-83.9	-88.8	2.3	3.12e+01	0	47	104	0	60	1048575
2026-01-18 04:13:52.69	35.69	3.87	-83.9	-88.8	2.3	3.12e+01	0	47	104	0	60	1048575
2026-01-18 04:13:53.70	35.60	3.93	-84.3	-88.8	2.0	3.12e+01	0	47	104	0	60	1048575
2026-01-18 04:13:54.71	35.50	3.99	-84.3	-88.8	2.1	3.12e+01	0	47	104	0	60	1048575
2026-01-18 04:13:55.71	35.41	4.05	-83.9	-88.8	2.0	3.12e+01	0	46	104	0	60	1048575
2026-01-18 04:13:56.72	35.31	4.11	-83.9	-88.8	1.9	3.12e+01	0	46	104	0	60	1048575
2026-01-18 04:13:57.73	35.22	4.17	-84.3	-88.8	2.2	3.12e+01	0	47	104	0	60	1048575
2026-01-18 04:13:58.73	35.12	4.23	-84.3	-88.8	2.2	3.12e+01	0	46	104	0	60	1048575
2026-01-18 04:13:59.73	35.03	4.29	-84.3	-88.8	2.3	3.12e+01	0	47	104	0	60	1048575
2026-01-18 04:14:00.74	34.93	4.35	-83.9	-88.8	2.1	3.12e+01	0	47	104	0	60	1048575
2026-01-18 04:14:01.74	34.83	4.41	-84.3	-88.8	1.8	3.12e+01	0	47	104	0	60	1048575
2026-01-18 04:14:02.75	34.74	4.47	-84.3	-88.8	2.2	3.12e+01	0	47	104	0	60	1048575
2026-01-18 04:14:03.75	34.64	4.53	-83.9	-88.8	2.0	3.12e+01	0	47	104	0	60	1048575
2026-01-18 04:14:04.76	34.54	4.59	-84.3	-88.8	2.1	3.12e+01	0	47	104	0	60	1048575
2026-01-18 04:14:05.77	34.44	4.65	-83.9	-88.8	2.1	3.12e+01	0	47	104	0	60	1048575
2026-01-18 04:14:06.77	34.34	4.71	-84.3	-88.8	2.2	3.12e+01	0	47	104	0	60	1048575
2026-01-18 04:14:07.78	34.24	4.77	-84.3	-88.8	2.2	3.12e+01	0	47	104	0	60	1048575
2026-01-18 04:14:08.79	34.14	4.83	-84.3	-88.8	2.2	3.12e+01	0	47	104	0	60	1048575
2026-01-18 04:14:09.80	34.04	4.89	-84.3	-88.8	2.6	3.12e+01	0	47	104	0	60	1048575
2026-01-18 04:14:10.80	33.94	4.95	-83.9	-88.8	2.4	3.12e+01	0	47	104	0	60	1048575
2026-01-18 04:14:11.81	33.83	5.01	-83.9	-88.8	2.3	3.12e+01	0	47	104	0	60	1048575
2026-01-18 04:14:12.82	33.73	5.07	-84.3	-88.8	2.2	3.12e+01	0	47	104	0	60	1048575
2026-01-18 04:14:13.82	33.63	5.13	-84.3	-88.8	2.1	3.12e+01	0	47	104	0	60	1048575
2026-01-18 04:14:14.83	33.52	5.19	-83.9	-88.8	2.2	3.12e+01	0	47	104	0	60	1048575
2026-01-18 04:14:15.84	33.42	5.25	-83.9	-88.8	2.4	3.12e+01	0	47	104	0	60	1048575
2026-01-18 04:14:16.85	33.32	5.31	-84.3	-88.8	2.1	3.12e+01	0	47	104	0	60	1048575
2026-01-18 04:14:17.85	33.21	5.37	-84.3	-88.8	2.1	3.12e+01	0	47	104	0	60	1048575
2026-01-18 04:14:18.86	33.10	5.43	-84.3	-88.8	2.0	3.12e+01	0	47	104	0	60	1048575
2026-01-18 04:14:19.87	33.00	5.49	-83.9	-88.8	2.3	3.12e+01	0	47	104	0	60	1048575
2026-01-18 04:14:20.88	32.89	5.55	-83.9	-88.8	2.3	3.12e+01	0	47	104	0	60	1048575
2026-01-18 04:14:21.89	32.78	5.61	-84.3	-88.8	2.1	3.12e+01	0	47	104	0	60	1048575
2026-01-18 04:14:22.89	32.68	5.68	-84.3	-88.8	2.2	3.12e+01	0	47	104	0	60	1048575
2026-01-18 04:14:23.90	32.57	5.74	-84.3	-88.8	2.1	3.12e+01	0	47	104	0	60	1048575
2026-01-18 04:14:24.90	32.46	5.80	-83.9	-88.8	2.4	3.12e+01	0	47	104	0	60	1048575
2026-01-18 04:14:25.91	32.35	5.86	-84.3	-88.8	2.3	3.12e+01	0	47	104	0	60	1048575
2026-01-18 04:14:26.91	32.24	5.92	-84.3	-88.8	2.0	3.12e+01	0	47	104	0	60	1048575
2026-01-18 04:14:27.92	32.13	5.98	-84.3	-88.8	2.3	3.12e+01	0	47	104	0	60	1048575
2026-01-18 04:14:28.92	32.02	6.04	-84.3	-88.8	2.2	3.12e+01	0	47	104	0	60	1048575
2026-01-18 04:14:29.93	31.91	6.10	-83.9	-88.8	1.8	3.12e+01	0	47	104	0	60	1048575
2026-01-18 04:14:30.93	31.80	6.17	-84.3	-88.8	2.2	3.12e+01	0	47	104	0	60	1048575
2026-01-18 04:14:31.94	31.69	6.23	-84.3	-88.8	2.0	3.12e+01	0	47	104	0	60	1048575
2026-01-18 04:14:32.95	31.58	6.29	-84.3	-88.8	2.5	3.12e+01	0	47	104	0	60	1048575
2026-01-18 04:14:33.95	31.46	6.35	-83.9	-88.8	2.2	3.12e+01	0	47	104	0	60	1048575
2026-01-18 04:14:34.96	31.35	6.41	-83.9	-88.8	2.6	3.12e+01	0	47	104	0	60	1048575
2026-01-18 04:14:35.97	31.23	6.48	-84.3	-88.8	2.1	3.12e+01	0	47	104	0	60	1048575
2026-01-18 04:14:36.97	31.12	6.54	-84.3	-88.8	2.4	3.12e+01	0	47	104	0	60	1048575
2026-01-18 04:14:37.98	31.00	6.60	-84.3	-88.8	2.3	3.12e+01	0	47	104	0	60	1048575
2026-01-18 04:14:38.99	30.89	6.66	-83.9	-88.8	2.5	3.12e+01	0	47	104	0	60	1048575
2026-01-18 04:14:40.00	30.77	6.72	-84.3	-88.8	2.1	3.12e+01	0	47	104	0	60	1048575
2026-01-18 04:14:41.00	30.65	6.79	-84.3	-88.8	2.2	3.12e+01	0	47	104	0	60	1048575
2026-01-18 04:14:42.02	30.53	6.85	-84.3	-88.8	2.0	3.12e+01	0	47	104	0	60	1048575
2026-01-18 04:14:43.02	30.42	6.91	-83.9	-88.8	2.2	3.12e+01	0	47	104	0	60	1048575
2026-01-18 04:14:44.02	30.30	6.97	-83.9	-88.8	2.5	3.12e+01	0	47	104	0	60	1048575
2026-01-18 04:14:45.03	30.18	7.04	-84.3	-88.8	2.1	3.12e+01	0	47	104	0	60	1048575
2026-01-18 04:14:46.03	30.06	7.10	-84.3	-88.8	2.4	3.12e+01	0	47	104	0	60	1048575
2026-01-18 04:14:47.04	29.94	7.16	-84.3	-88.8	2.2	3.12e+01	0	47	104	0	60	1048575
2026-01-18 04:14:48.05	29.82	7.22	-84.3	-88.8	2.2	3.12e+01	0	47	104	0	60	1048575
2026-01-18 04:14:49.05	29.70	7.29	-83.9	-88.8	2.0	3.12e+01	0	47	104	0	60	1048575
2026-01-18 04:14:50.06	29.57	7.35	-84.3	-88.8	2.2	3.12e+01	0	47	104	0	60	1048575
2026-01-18 04:14:51.07	29.45	7.41	-84.3	-88.8	2.1	3.12e+01	0	47	104	0	60	1048575
2026-01-18 04:14:52.07	29.33	7.48	-84.3	-88.8	2.0	3.12e+01	0	47	104	0	60	1048575
2026-01-18 04:14:53.08	29.20	7.54	-83.9	-88.8	2.1	3.12e+01	0	47	104	0	60	1048575
2026-01-18 04:14:54.09	29.08	7.60	-83.9	-88.8	2.1	3.12e+01	0	47	104	0	60	1048575
2026-01-18 04:14:55.09	28.95	7.66	-84.3	-88.8	2.0	3.12e+01	0	47	104	0	60	1048575
2026-01-18 04:14:56.10	28.83	7.73	-84.3	-88.8	2.2	3.12e+01	0	47	104	0	60	1048575
2026-01-18 04:14:57.11	28.70	7.79	-84.3	-88.8	2.2	3.12e+01	0	47	104	0	60	1048575
2026-01-18 04:14:58.12	28.57	7.85	-83.9	-88.8	2.6	3.12e+01	0	47	104	0	60	1048575
2026-01-18 04:14:59.12	28.45	7.92	-84.3	-88.8	2.3	3.12e+01	0	47	104	0	60	1048575
2026-01-18 04:15:00.13	28.32	7.98	-84.3	-88.8	2.0	3.12e+01	0	47	104	0	60	1048575
2026-01-18 04:15:01.13	28.19	8.04	-84.3	-88.8	2.0	3.12e+01	0	47	104	0	60	1048575
2026-01-18 04:15:02.14	28.06	8.11	-83.9	-88.8	2.2	3.12e+01	0	47	104	0	60	1048575
2026-01-18 04:15:03.14	27.93	8.17	-83.9	-88.8	2.5	3.12e+01	0	47	104	0	60	1048575
2026-01-18 04:15:04.15	27.80	8.23	-84.3	-88.8	2.2	3.12e+01	0	47	104	0	60	1048575
2026-01-18 04:15:05.16	27.67	8.30	-84.3	-88.8	2.1	3.12e+01	0	47	104	0	60	1048575
2026-01-18 04:15:06.16	27.54	8.36	-84.3	-88.8	2.5	3.12e+01	0	47	104	0	60	1048575
2026-01-18 04:15:07.17	27.40	8.42	-84.3	-88.8	2.3	3.12e+01	0	47	104	0	60	1048575
2026-01-18 04:15:08.17	27.27	8.49	-83.9	-88.8	2.2	3.12e+01	0	47	104	0	60	1048575
2026-01-18 04:15:09.18	27.14	8.55	-84.3	-88.8	2.0	3.12e+01	0	47	104	0	60	1048575
2026-01-18 04:15:10.19	27.00	8.62	-84.3	-88.8	2.6	3.12e+01	0	47	104	0	60	1048575
2026-01-18 04:15:11.19	26.87	8.68	-84.3	-88.8	2.6	3.12e+01	0	47	104	0	60	1048575
2026-01-18 04:15:12.20	26.73	8.74	-83.9	-88.8	2.2	3.12e+01	0	47	104	0	60	1048575
2026-01-18 04:15:13.21	26.59	8.81	-83.9	-88.8	1.9	3.12e+01	0	47	104	0	60	1048575
2026-01-18 04:15:14.22	26.46	8.87	-84.3	-88.8	2.3	3.12e+01	0	47	104	0	60	1048575
2026-01-18 04:15:15.23	26.32	8.94	-84.3	-88.8	2.3	3.12e+01	0	47	104	0	60	1048575
2026-01-18 04:15:16.24	26.18	9.00	-84.3	-88.8	2.4	3.12e+01	0	47	104	0	60	1048575
2026-01-18 04:15:17.24	26.04	9.06	-83.9	-88.8	2.2	3.12e+01	0	47	104	0	60	1048575
2026-01-18 04:15:18.25	25.90	9.13	-84.3	-88.8	2.5	3.12e+01	0	47	104	0	60	1048575
2026-01-18 04:15:19.25	25.76	9.19	-84.3	-88.8	2.1	3.12e+01	0	47	104	0	60	1048575
2026-01-18 04:15:20.26	25.62	9.26	-84.3	-88.8	2.2	3.12e+01	0	47	104	0	60	1048575
2026-01-18 04:15:21.27	25.47	9.32	-84.3	-88.8	2.3	3.12e+01	0	47	104	0	60	1048575
2026-01-18 04:15:22.27	25.33	9.38	-83.9	-88.8	2.5	3.12e+01	0	47	104	0	60	1048575
2026-01-18 04:15:23.28	25.19	9.45	-84.3	-88.8	2.5	3.12e+01	0	47	104	0	60	1048575
2026-01-18 04:15:24.29	25.04	9.51	-84.3	-88.8	2.4	3.12e+01	0	47	104	0	60	1048575
2026-01-18 04:15:25.30	24.90	9.58	-84.3	-88.8	1.9	3.12e+01	0	47	104	0	60	1048575
2026-01-18 04:15:26.30	24.75	9.64	-83.9	-88.8	2.1	3.12e+01	0	47	104	0	60	1048575
2026-01-18 04:15:27.31	24.61	9.70	-83.9	-88.8	1.9	3.12e+01	0	47	104	0	60	1048575
2026-01-18 04:15:28.31	24.46	9.77	-84.3	-88.8	2.1	3.12e+01	0	47	104	0	60	1048575
2026-01-18 04:15:29.31	24.31	9.83	-84.3	-88.8	1.9	3.12e+01	0	47	104	0	60	1048575
2026-01-18 04:15:30.32	24.17	9.90	-84.3	-88.8	2.4	3.12e+01	0	47	104	0	60	1048575
2026-01-18 04:15:31.33	24.02	9.96	-83.9	-88.8	2.2	3.12e+01	0	47	104	0	60	1048575
2026-01-18 04:15:32.34	23.87	10.03	-83.9	-88.8	2.5	3.12e+01	0	47	104	0	60	1048575
2026-01-18 04:15:33.34	23.72	10.09	-83.9	-88.8	2.0	3.12e+01	0	47	104	0	60	1048575
2026-01-18 04:15:34.35	23.56	10.15	-84.3	-88.8	2.3	3.12e+01	0	47	104	0	60	1048575
2026-01-18 04:15:35.36	23.41	10.22	-84.3	-88.8	2.4	3.12e+01	0	47	104	0	60	1048575
2026-01-18 04:15:36.36	23.26	10.28	-83.9	-88.8	2.4	3.12e+01	0	47	104	0	60	1048575
2026-01-18 04:15:37.37	23.11	10.35	-84.3	-88.8	2.3	3.12e+01	0	47	104	0	60	1048575
2026-01-18 04:15:38.38	22.95	10.41	-84.3	-88.8	2.2	3.12e+01	0	47	104	0	60	1048575
2026-01-18 04:15:39.38	22.80	10.47	-84.3	-88.8	2.4	3.12e+01	0	47	104	0	60	1048575
2026-01-18 04:15:40.38	22.64	10.54	-83.9	-88.8	2.2	3.12e+01	0	47	104	0	60	1048575
2026-01-18 04:15:41.39	22.49	10.60	-83.9	-88.8	1.9	3.12e+01	0	47	104	0	60	1048575
2026-01-18 04:15:42.40	22.33	10.67	-84.3	-88.8	2.2	3.12e+01	0	47	104	0	60	1048575
2026-01-18 04:15:43.41	22.17	10.73	-84.3	-88.8	2.3	3.12e+01	0	47	104	0	60	1048575
2026-01-18 04:15:44.42	22.01	10.80	-84.3	-88.8	2.3	3.12e+01	0	47	104	0	60	1048575
2026-01-18 04:15:45.43	21.85	10.86	-83.9	-88.8	2.4	3.12e+01	0	47	104	0	60	1048575
2026-01-18 04:15:46.43	21.69	10.92	-84.3	-88.8	2.3	3.12e+01	0	47	104	0	60	1048575
2026-01-18 04:15:47.44	21.53	10.99	-84.3	-88.8	2.0	3.12e+01	0	47	104	0	60	1048575
2026-01-18 04:15:48.45	21.37	11.05	-84.3	-88.8	2.2	3.12e+01	0	47	104	0	60	1048575
2026-01-18 04:15:49.46	21.20	11.12	-84.3	-88.8	2.3	3.12e+01	0	47	104	0	60	1048575
2026-01-18 04:15:50.47	21.04	11.18	-83.9	-88.8	2.3	3.12e+01	0	47	104	0	60	1048575
2026-01-18 04:15:51.47	20.88	11.24	-83.9	-88.8	2.2	3.12e+01	0	47	104	0	60	1048575
2026-01-18 04:15:52.48	20.71	11.31	-84.3	-88.8	1.9	3.12e+01	0	47	104	0	60	1048575
2026-01-18 04:15:53.49	20.54	11.37	-84.3	-88.8	2.1	3.12e+01	0	47	104	0	60	1048575
2026-01-18 04:15:54.49	20.38	11.44	-84.3	-88.8	1.9	3.12e+01	0	47	104	0	60	1048575
2026-01-18 04:15:55.50	20.21	11.50	-83.9	-88.8	2.6	3.12e+01	0	47	104	0	60	1048575
2026-01-18 04:15:56.51	20.04	11.56	-84.3	-88.8	2.3	3.12e+01	0	47	104	0	60	1048575
2026-01-18 04:15:57.51	19.87	11.63	-84.3	-88.8	2.4	3.12e+01	0	47	104	0	60	1048575
2026-01-18 04:15:58.52	19.70	11.69	-84.3	-88.8	2.2	3.12e+01	0	47	104	0	60	1048575
2026-01-18 04:15:59.52	19.53	11.75	-84.3	-88.8	2.2	3.12e+01	0	47	104	0	60	1048575
2026-01-18 04:16:00.53	19.36	11.82	-83.9	-88.8	2.4	3.12e+01	0	47	104	0	60	1048575
2026-01-18 04:16:01.54	19.19	11.88	-83.9	-88.8	2.3	3.12e+01	0	47	104	0	60	1048575
2026-01-18 04:16:02.55	19.01	11.95	-83.9	-88.8	2.4	3.12e+01	0	47	104	0	60	1048575
2026-01-18 04:16:03.56	18.84	12.01	-84.3	-88.8	2.3	3.12e+01	0	47	104	0	60	1048575
2026-01-18 04:16:04.57	18.66	12.07	-83.9	-88.8	2.0	3.12e+01	0	47	104	0	60	1048575
2026-01-18 04:16:05.57	18.49	12.14	-83.9	-88.8	2.2	3.12e+01	0	47	104	0	60	1048575
2026-01-18 04:16:06.58	18.31	12.20	-84.3	-88.8	2.1	3.12e+01	0	47	104	0	60	1048575
2026-01-18 04:16:07.59	18.14	12.26	-84.3	-88.8	2.5	3.12e+01	0	47	104	0	60	1048575
2026-01-18 04:16:08.60	17.96	12.33	-84.3	-88.8	2.5	3.12e+01	0	47	104	0	60	1048575
2026-01-18 04:16:09.61	17.78	12.39	-83.9	-88.8	2.0	3.12e+01	0	47	104	0	60	1048575
2026-01-18 04:16:10.61	17.60	12.45	-84.3	-88.8	2.3	3.12e+01	0	47	104	0	60	1048575
2026-01-18 04:16:11.62	17.42	12.51	-84.3	-88.8	2.0	3.12e+01	0	47	104	0	60	1048575
2026-01-18 04:16:12.62	17.24	12.58	-84.3	-88.8	2.2	3.12e+01	0	47	104	0	60	1048575
2026-01-18 04:16:13.62	17.06	12.64	-83.9	-88.8	2.0	3.12e+01	0	47	104	0	60	1048575
2026-01-18 04:16:14.63	16.87	12.70	-83.9	-88.8	2.1	3.12e+01	0	47	104	0	60	1048575
2026-01-18 04:16:15.63	16.69	12.76	-83.9	-88.8	2.3	3.12e+01	0	47	104	0	60	1048575
2026-01-18 04:16:16.64	16.50	12.83	-84.3	-88.8	2.2	3.12e+01	0	47	104	0	60	1048575
2026-01-18 04:16:17.65	16.32	12.89	-84.3	-88.8	2.2	3.12e+01	0	47	104	0	60	1048575
2026-01-18 04:16:18.66	16.13	12.95	-84.3	-88.8	2.2	3.12e+01	0	47	104	0	60	1048575
2026-01-18 04:16:19.67	15.94	13.01	-83.9	-88.8	2.1	3.12e+01	0	47	104	0	60	1048575
2026-01-18 04:16:20.68	15.75	13.08	-84.3	-88.8	2.3	3.12e+01	0	47	104	0	60	1048575
2026-01-18 04:16:21.69	15.56	13.14	-84.3	-88.8	2.2	3.12e+01	0	47	104	0	60	1048575
2026-01-18 04:16:22.69	15.38	13.20	-84.3	-88.8	2.2	3.12e+01	0	47	104	0	60	1048575
2026-01-18 04:16:23.70	15.18	13.26	-83.9	-88.8	2.4	3.12e+01	0	47	104	0	60	1048575
2026-01-18 04:16:24.71	14.99	13.32	-84.3	-88.8	2.5	3.12e+01	0	47	104	0	60	1048575
2026-01-18 04:16:25.71	14.80	13.38	-84.3	-88.8	2.0	3.12e+01	0	47	104	0	60	1048575
2026-01-18 04:16:26.72	14.61	13.44	-84.3	-88.8	2.1	3.12e+01	0	47	104	0	60	1048575
2026-01-18 04:16:27.72	14.41	13.51	-84.3	-88.8	2.0	3.12e+01	0	47	104	0	60	1048575
2026-01-18 04:16:28.72	14.22	13.57	-83.9	-88.8	2.4	3.12e+01	0	47	104	0	60	1048575
2026-01-18 04:16:29.73	14.02	13.63	-84.3	-88.8	2.2	3.12e+01	0	47	104	0	60	1048575
2026-01-18 04:16:30.74	13.82	13.69	-83.9	-88.8	2.2	3.12e+01	0	47	104	0	60	1048575
2026-01-18 04:16:31.75	13.63	13.75	-84.3	-88.8	2.2	3.12e+01	0	47	104	0	60	1048575
2026-01-18 04:16:32.76	13.43	13.81	-84.3	-88.8	2.3	3.12e+01	0	47	104	0	60	1048575
2026-01-18 04:16:33.76	13.23	13.87	-83.9	-88.8	2.3	3.12e+01	0	47	104	0	60	1048575
2026-01-18 04:16:34.77	13.03	13.93	-84.3	-88.8	2.1	3.12e+01	0	47	104	0	60	1048575
2026-01-18 04:16:35.78	12.83	13.99	-84.3	-88.8	2.5	3.12e+01	0	47	104	0	60	1048575
2026-01-18 04:16:36.79	12.62	14.05	-84.3	-88.8	2.1	3.12e+01	0	47	104	0	60	1048575
2026-01-18 04:16:37.80	12.42	14.11	-83.9	-88.8	2.2	3.12e+01	0	47	104	0	60	1048575
2026-01-18 04:16:38.81	12.21	14.17	-83.9	-88.8	2.3	3.12e+01	0	47	104	0	60	1048575
2026-01-18 04:16:39.82	12.01	14.23	-84.3	-88.8	2.3	3.12e+01	0	47	104	0	60	1048575
2026-01-18 04:16:40.82	11.80	14.29	-84.3	-88.8	2.1	3.12e+01	0	47	104	0	60	1048575
2026-01-18 04:16:41.82	11.60	14.34	-84.3	-88.8	2.0	3.12e+01	0	47	104	0	60	1048575
2026-01-18 04:16:42.82	11.39	14.40	-83.9	-88.8	2.1	3.12e+01	0	47	104	0	60	1048575
2026-01-18 04:16:43.83	11.18	14.46	-84.3	-88.8	2.4	3.12e+01	0	47	104	0	60	1048575
2026-01-18 04:16:44.84	10.97	14.52	-84.3	-88.8	2.3	3.12e+01	0	47	104	0	60	1048575
2026-01-18 04:16:45.84	10.76	14.58	-84.3	-88.8	2.0	3.12e+01	0	47	104	0	60	1048575
2026-01-18 04:16:46.84	10.56	14.63	-84.3	-88.8	2.3	3.12e+01	0	47	104	0	60	1048575
2026-01-18 04:16:47.85	10.34	14.69	-83.9	-88.8	2.3	3.12e+01	0	47	104	0	60	1048575
2026-01-18 04:16:48.85	10.13	14.75	-84.3	-88.8	2.1	3.12e+01	0	47	104	0	60	1048575
2026-01-18 04:16:49.86	9.92	14.80	-84.3	-88.8	2.3	3.12e+01	0	47	104	0	60	1048575
2026-01-18 04:16:50.87	9.70	14.86	-84.3	-88.8	2.1	3.12e+01	0	47	104	0	60	1048575
2026-01-18 04:16:51.88	9.49	14.92	-83.9	-88.8	2.5	3.12e+01	0	47	104	0	60	1048575
2026-01-18 04:16:52.89	9.27	14.97	-83.9	-88.8	2.0	3.12e+01	0	47	104	0	60	1048575
2026-01-18 04:16:53.89	9.05	15.03	-84.3	-88.8	2.1	3.12e+01	0	47	104	0	60	1048575
2026-01-18 04:16:54.89	8.84	15.09	-84.3	-88.8	2.1	3.12e+01	0	47	104	0	60	1048575
2026-01-18 04:16:55.90	8.62	15.14	-84.3	-88.8	2.1	3.12e+01	0	47	104	0	60	1048575
2026-01-18 04:16:56.91	8.40	15.20	-83.9	-88.8	2.3	3.12e+01	0	47	104	0	60	1048575
2026-01-18 04:16:57.92	8.17	15.25	-84.3	-88.8	2.2	3.12e+01	0	47	104	0	60	1048575
2026-01-18 04:16:58.92	7.95	15.31	-83.9	-88.8	2.3	3.12e+01	0	47	104	0	60	1048575
2026-01-18 04:16:59.92	7.73	15.36	-84.3	-88.8	2.0	3.12e+01	0	47	104	0	60	1048575
2026-01-18 04:17:00.93	7.51	15.41	-84.3	-88.8	2.2	3.12e+01	0	47	104	0	60	1048575
2026-01-18 04:17:01.93	7.29	15.47	-83.9	-88.8	2.5	3.12e+01	0	47	104	0	60	1048575
2026-01-18 04:17:02.94	7.06	15.52	-83.9	-88.8	2.2	3.12e+01	0	47	104	0	60	1048575
2026-01-18 04:17:03.95	6.83	15.57	-84.3	-88.8	2.4	3.12e+01	0	47	104	0	60	1048575
2026-01-18 04:17:04.95	6.61	15.63	-84.3	-88.8	2.0	3.12e+01	0	47	104	0	60	1048575
2026-01-18 04:17:05.95	6.38	15.68	-83.9	-88.8	2.0	3.12e+01	0	47	104	0	60	1048575
2026-01-18 04:17:06.96	6.15	15.73	-83.9	-88.8	2.2	3.12e+01	0	47	104	0	60	1048575
2026-01-18 04:17:07.96	5.92	15.78	-84.3	-88.8	2.0	3.12e+01	0	47	104	0	60	1048575
2026-01-18 04:17:08.97	5.69	15.83	-84.3	-88.8	2.2	3.12e+01	0	47	104	0	60	1048575
2026-01-18 04:17:09.98	5.46	15.89	-84.3	-88.8	2.1	3.12e+01	0	47	104	0	60	1048575
2026-01-18 04:17:10.99	5.23	15.94	-83.9	-88.8	2.2	3.12e+01	0	47	104	0	60	1048575
2026-01-18 04:17:12.00	4.99	15.99	-83.9	-88.8	1.9	3.12e+01	0	47	104	0	60	1048575
2026-01-18 04:17:13.00	4.76	16.04	-84.3	-88.8	2.1	3.12e+01	0	47	104	0	60	1048575
2026-01-18 04:17:14.01	4.53	16.09	-84.3	-88.8	2.4	3.12e+01	0	47	104	0	60	1048575
2026-01-18 04:17:15.01	4.29	16.14	-84.3	-88.8	2.2	3.12e+01	0	47	104	0	60	1048575
2026-01-18 04:17:16.02	4.06	16.19	-83.9	-88.8	2.0	3.12e+01	0	47	104	0	60	1048575
2026-01-18 04:17:17.03	3.82	16.24	-84.3	-88.8	2.3	3.12e+01	0	47	104	0	60	1048575
2026-01-18 04:17:18.03	3.58	16.28	-84.3	-88.8	1.9	3.12e+01	0	47	104	0	60	1048575
2026-01-18 04:17:19.04	3.34	16.33	-84.3	-88.8	2.4	3.12e+01	0	47	104	0	60	1048575
2026-01-18 04:17:20.05	3.10	16.38	-84.3	-88.8	2.0	3.12e+01	0	47	104	0	60	1048575
2026-01-18 04:17:21.06	2.86	16.43	-83.9	-88.8	2.3	3.12e+01	0	47	104	0	60	1048575
2026-01-18 04:17:22.06	2.62	16.47	-83.9	-88.8	2.1	3.12e+01	0	47	104	0	60	1048575
2026-01-18 04:17:23.06	2.38	16.52	-84.3	-88.8	2.2	3.12e+01	0	47	104	0	60	1048575
2026-01-18 04:17:24.07	2.14	16.57	-84.3	-88.8	2.3	3.12e+01	0	47	104	0	60	1048575
2026-01-18 04:17:25.08	1.89	16.61	-83.9	-88.8	2.0	3.12e+01	0	47	104	0	60	1048575
2026-01-18 04:17:26.09	1.65	16.66	-83.9	-88.8	2.5	3.12e+01	0	47	104	0	60	1048575
2026-01-18 04:17:27.09	1.40	16.70	-84.3	-88.8	2.1	3.12e+01	0	47	104	0	60	1048575
2026-01-18 04:17:28.10	1.16	16.75	-84.3	-88.8	2.4	3.12e+01	0	47	104	0	60	1048575
2026-01-18 04:17:29.10	0.91	16.79	-84.3	-88.8	2.1	3.12e+01	0	47	104	0	60	1048575
2026-01-18 04:17:30.11	0.66	16.84	-83.9	-88.8	2.2	3.12e+01	0	47	104	0	60	1048575
2026-01-18 04:17:31.12	0.42	16.88	-84.3	-88.8	2.5	3.12e+01	0	47	104	0	60	1048575
2026-01-18 04:17:32.13	0.17	16.92	-84.3	-88.8	2.0	3.12e+01	0	47	104	0	60	1048575
2026-01-18 04:17:33.13	359.92	16.96	-84.3	-88.8	2.2	3.12e+01	0	47	104	0	60	1048575
2026-01-18 04:17:34.14	359.67	17.01	-84.3	-88.8	2.1	3.12e+01	0	47	104	0	60	1048575
2026-01-18 04:17:35.14	359.42	17.05	-83.9	-88.8	2.4	3.12e+01	0	47	104	0	60	1048575
2026-01-18 04:17:36.15	359.16	17.09	-84.3	-88.8	2.1	3.12e+01	0	47	104	0	60	1048575
2026-01-18 04:17:37.16	358.91	17.13	-84.3	-88.8	2.1	3.12e+01	0	47	104	0	60	1048575
2026-01-18 04:17:38.16	358.66	17.17	-84.3	-88.8	1.8	3.12e+01	0	47	104	0	60	1048575
2026-01-18 04:17:39.17	358.40	17.21	-84.3	-88.8	2.4	3.12e+01	0	47	104	0	60	1048575
2026-01-18 04:17:40.18	358.15	17.25	-83.9	-88.8	2.1	3.12e+01	0	47	104	0	60	1048575
2026-01-18 04:17:41.19	357.89	17.29	-83.9	-88.8	2.2	3.12e+01	0	47	104	0	60	1048575
2026-01-18 04:17:42.20	357.63	17.32	-84.3	-88.8	2.3	3.12e+01	0	47	104	0	60	1048575
2026-01-18 04:17:43.21	357.38	17.36	-84.3	-88.8	2.1	3.12e+01	0	47	104	0	60	1048575
2026-01-18 04:17:44.21	357.12	17.40	-83.9	-88.8	2.0	3.12e+01	0	47	104	0	60	1048575
2026-01-18 04:17:45.22	356.86	17.44	-83.9	-88.8	2.2	3.12e+01	0	47	104	0	60	1048575
2026-01-18 04:17:46.23	356.60	17.47	-84.3	-88.8	2.2	3.12e+01	0	47	104	0	60	1048575
2026-01-18 04:17:47.23	356.34	17.51	-84.3	-88.8	2.7	3.12e+01	0	47	104	0	60	1048575
2026-01-18 04:17:48.24	356.08	17.54	-84.3	-88.8	2.1	3.12e+01	0	47	104	0	60	1048575
2026-01-18 04:17:49.24	355.82	17.58	-83.9	-88.8	2.2	3.12e+01	0	47	104	0	60	1048575
2026-01-18 04:17:50.25	355.56	17.61	-84.3	-88.8	2.1	3.12e+01	0	47	104	0	60	1048575
2026-01-18 04:17:51.26	355.30	17.64	-84.3	-88.8	2.0	3.12e+01	0	47	104	0	60	1048575
2026-01-18 04:17:52.27	355.03	17.68	-84.3	-88.8	2.2	3.12e+01	0	47	104	0	60	1048575
2026-01-18 04:17:53.27	354.77	17.71	-84.3	-88.8	2.3	3.12e+01	0	47	104	0	60	1048575
2026-01-18 04:17:54.28	354.51	17.74	-83.9	-88.8	2.1	3.12e+01	0	47	104	0	60	1048575
2026-01-18 04:17:55.29	354.24	17.77	-84.3	-88.8	2.2	3.12e+01	0	47	104	0	60	1048575
2026-01-18 04:17:56.30	353.97	17.80	-84.3	-88.8	2.0	3.12e+01	0	47	104	0	60	1048575
2026-01-18 04:17:57.30	353.71	17.83	-84.3	-88.8	2.2	3.12e+01	0	47	104	0	60	1048575
2026-01-18 04:17:58.31	353.44	17.86	-84.3	-88.8	2.3	3.12e+01	0	47	104	0	60	1048575
2026-01-18 04:17:59.32	353.17	17.89	-83.5	-88.8	2.4	3.12e+01	0	47	104	0	60	1048575
2026-01-18 04:18:00.33	352.91	17.92	-84.3	-88.8	2.0	3.12e+01	0	47	104	0	60	1048575
2026-01-18 04:18:01.33	352.64	17.95	-84.3	-88.8	2.0	3.12e+01	0	47	104	0	60	1048575
2026-01-18 04:18:02.34	352.37	17.97	-84.3	-88.8	2.2	3.12e+01	0	47	104	0	60	1048575
2026-01-18 04:18:03.35	352.10	18.00	-83.9	-88.8	2.4	3.12e+01	0	47	104	0	60	1048575
2026-01-18 04:18:04.36	351.83	18.03	-83.9	-88.8	2.1	3.12e+01	0	47	104	0	60	1048575
2026-01-18 04:18:05.36	351.56	18.05	-83.9	-88.8	2.2	3.12e+01	0	47	104	0	60	1048575
2026-01-18 04:18:06.37	351.29	18.08	-84.3	-88.8	2.1	3.12e+01	0	47	104	0	60	1048575
2026-01-18 04:18:07.37	351.02	18.10	-84.3	-88.8	2.4	3.12e+01	0	47	104	0	60	1048575
2026-01-18 04:18:08.38	350.75	18.13	-83.9	-88.8	2.0	3.12e+01	0	47	104	0	60	1048575
2026-01-18 04:18:09.38	350.48	18.15	-83.9	-88.8	2.1	3.12e+01	0	47	104	0	60	1048575
2026-01-18 04:18:10.39	350.21	18.17	-84.3	-88.8	2.3	3.12e+01	0	47	104	0	60	1048575
2026-01-18 04:18:11.39	349.93	18.19	-84.3	-88.8	2.2	3.12e+01	0	47	104	0	60	1048575
2026-01-18 04:18:12.40	349.66	18.21	-84.3	-88.8	2.1	3.12e+01	0	47	104	0	60	1048575
2026-01-18 04:18:13.40	349.39	18.23	-83.9	-88.8	2.3	3.12e+01	0	47	104	0	60	1048575
2026-01-18 04:18:14.41	349.11	18.25	-84.3	-88.8	2.2	3.12e+01	0	47	104	0	60	1048575
2026-01-18 04:18:15.41	348.84	18.27	-84.3	-88.8	2.5	3.12e+01	0	47	104	0	60	1048575
2026-01-18 04:18:16.42	348.57	18.29	-84.3	-88.8	2.1	3.12e+01	0	47	104	0	60	1048575
2026-01-18 04:18:17.43	348.29	18.31	-83.9	-88.8	2.3	3.12e+01	0	47	104	0	60	1048575
2026-01-18 04:18:18.44	348.01	18.33	-83.9	-88.8	2.3	3.12e+01	0	47	104	0	60	1048575
2026-01-18 04:18:19.44	347.74	18.34	-84.3	-88.8	2.1	3.12e+01	0	47	104	0	60	1048575
2026-01-18 04:18:20.45	347.46	18.36	-84.3	-88.8	2.1	3.12e+01	0	47	104	0	60	1048575
2026-01-18 04:18:21.46	347.19	18.38	-84.3	-88.8	2.2	3.12e+01	0	47	104	0	60	1048575
2026-01-18 04:18:22.46	346.91	18.39	-83.9	-88.8	2.3	3.12e+01	0	47	104	0	60	1048575
2026-01-18 04:18:23.47	346.63	18.40	-83.9	-88.8	2.0	3.12e+01	0	47	104	0	60	1048575
2026-01-18 04:18:24.48	346.35	18.42	-84.3	-88.8	2.3	3.12e+01	0	47	104	0	60	1048575
2026-01-18 04:18:25.48	346.08	18.43	-84.3	-88.8	2.2	3.12e+01	0	47	104	0	60	1048575
2026-01-18 04:18:26.49	345.80	18.44	-84.3	-88.8	2.5	3.12e+01	0	47	104	0	60	1048575
2026-01-18 04:18:27.50	345.52	18.45	-83.5	-88.8	2.0	3.12e+01	0	47	104	0	60	1048575
2026-01-18 04:18:28.50	345.25	18.47	-83.9	-88.8	2.2	3.12e+01	0	47	104	0	60	1048575
2026-01-18 04:18:29.50	344.97	18.48	-84.3	-88.8	2.1	3.12e+01	0	47	104	0	60	1048575
2026-01-18 04:18:30.51	344.69	18.48	-84.3	-88.8	2.5	3.12e+01	0	47	104	0	60	1048575
2026-01-18 04:18:31.52	344.41	18.49	-84.3	-88.8	2.0	3.12e+01	0	47	104	0	60	1048575
2026-01-18 04:18:32.53	344.13	18.50	-83.9	-88.8	2.0	3.12e+01	0	47	104	0	60	1048575
2026-01-18 04:18:33.53	343.85	18.51	-84.3	-88.8	2.1	3.12e+01	0	47	104	0	60	1048575
2026-01-18 04:18:34.54	343.57	18.52	-84.3	-88.8	2.3	3.12e+01	0	47	104	0	60	1048575
2026-01-18 04:18:35.55	343.29	18.52	-84.3	-88.8	2.5	3.12e+01	0	47	104	0	60	1048575
2026-01-18 04:18:36.56	343.01	18.53	-83.9	-88.8	2.4	3.12e+01	0	47	104	0	60	1048575
2026-01-18 04:18:37.57	342.73	18.53	-84.3	-88.8	2.3	3.12e+01	0	47	104	0	60	1048575
2026-01-18 04:18:38.58	342.45	18.54	-83.9	-88.8	2.1	3.12e+01	0	47	104	0	60	1048575
2026-01-18 04:18:39.59	342.17	18.54	-84.3	-88.8	2.2	3.12e+01	0	47	104	0	60	1048575
2026-01-18 04:18:40.59	341.89	18.54	-84.3	-88.8	2.3	3.12e+01	0	47	104	0	60	1048575
2026-01-18 04:18:41.60	341.61	18.55	-83.9	-88.8	2.1	3.12e+01	0	47	104	0	60	1048575
2026-01-18 04:18:42.61	341.33	18.55	-83.9	-88.8	2.0	3.12e+01	0	47	104	0	60	1048575
2026-01-18 04:18:43.62	341.05	18.55	-84.3	-88.8	2.2	3.12e+01	0	47	104	0	60	1048575
2026-01-18 04:18:44.62	340.77	18.55	-84.3	-88.8	2.3	3.12e+01	0	47	104	0	60	1048575
2026-01-18 04:18:45.63	340.49	18.55	-84.3	-88.8	2.0	3.12e+01	0	47	104	0	60	1048575
2026-01-18 04:18:46.64	340.21	18.55	-83.9	-88.8	2.2	3.12e+01	0	47	104	0	60	1048575
2026-01-18 04:18:47.65	339.93	18.54	-84.3	-88.8	2.5	3.12e+01	0	47	104	0	60	1048575
2026-01-18 04:18:48.65	339.65	18.54	-84.3	-88.8	2.3	3.12e+01	0	47	104	0	60	1048575
2026-01-18 04:18:49.66	339.37	18.54	-84.3	-88.8	2.2	3.12e+01	0	47	104	0	60	1048575
2026-01-18 04:18:50.67	339.09	18.53	-83.9	-88.8	2.1	3.12e+01	0	47	104	0	60	1048575
2026-01-18 04:18:51.68	338.81	18.53	-83.9	-88.8	2.0	3.12e+01	0	47	104	0	60	1048575
2026-01-18 04:18:52.68	338.53	18.52	-84.3	-88.8	2.4	3.12e+01	0	47	104	0	60	1048575
2026-01-18 04:18:53.69	338.25	18.52	-84.3	-88.8	2.1	3.12e+01	0	47	104	0	60	1048575
2026-01-18 04:18:54.70	337.97	18.51	-84.3	-88.8	2.3	3.12e+01	0	47	104	0	60	1048575
2026-01-18 04:18:55.71	337.69	18.50	-83.9	-88.8	2.3	3.12e+01	0	47	104	0	60	1048575
2026-01-18 04:18:56.71	337.41	18.50	-83.9	-88.8	2.3	3.12e+01	0	47	104	0	60	1048575
2026-01-18 04:18:57.72	337.13	18.49	-84.3	-88.8	2.2	3.12e+01	0	47	104	0	60	1048575
2026-01-18 04:18:58.73	336.85	18.48	-84.3	-88.8	2.3	3.12e+01	0	47	104	0	60	1048575
2026-01-18 04:18:59.73	336.58	18.47	-84.3	-88.8	2.3	3.12e+01	0	47	104	0	60	1048575
2026-01-18 04:19:00.74	336.30	18.46	-83.9	-88.8	2.3	3.12e+01	0	47	104	0	60	1048575
2026-01-18 04:19:01.74	336.02	18.45	-84.3	-88.8	2.0	3.12e+01	0	47	104	0	60	1048575
2026-01-18 04:19:02.75	335.74	18.43	-84.3	-88.8	2.2	3.12e+01	0	47	104	0	60	1048575
2026-01-18 04:19:03.75	335.47	18.42	-84.3	-88.8	2.7	3.12e+01	0	47	104	0	60	1048575
2026-01-18 04:19:04.76	335.19	18.41	-83.9	-88.8	2.2	3.12e+01	0	47	104	0	60	1048575
2026-01-18 04:19:05.76	334.91	18.39	-83.9	-88.8	2.6	3.12e+01	0	47	104	0	60	1048575
2026-01-18 04:19:06.77	334.64	18.38	-84.3	-88.8	2.2	3.12e+01	0	47	104	0	60	1048575
2026-01-18 04:19:07.78	334.36	18.36	-84.3	-88.8	2.0	3.12e+01	0	47	104	0	60	1048575
2026-01-18 04:19:08.79	334.08	18.35	-84.3	-88.8	2.2	3.12e+01	0	47	104	0	60	1048575
2026-01-18 04:19:09.80	333.80	18.33	-83.9	-88.8	2.4	3.12e+01	0	47	104	0	60	1048575
2026-01-18 04:19:10.81	333.53	18.31	-83.9	-88.8	2.7	3.12e+01	0	47	104	0	60	1048575
2026-01-18 04:19:11.81	333.25	18.30	-84.3	-88.8	2.3	3.12e+01	0	47	104	0	60	1048575
2026-01-18 04:19:12.82	332.98	18.28	-84.3	-88.8	2.5	3.12e+01	0	47	104	0	60	1048575
2026-01-18 04:19:13.83	332.70	18.26	-84.3	-88.8	2.1	3.12e+01	0	47	104	0	60	1048575
2026-01-18 04:19:14.83	332.43	18.24	-83.9	-88.8	2.3	3.12e+01	0	47	104	0	60	1048575
2026-01-18 04:19:15.84	332.16	18.22	-83.9	-88.8	2.0	3.12e+01	0	47	104	0	60	1048575
2026-01-18 04:19:16.84	331.89	18.20	-84.3	-88.8	2.2	3.12e+01	0	47	104	0	60	1048575
2026-01-18 04:19:17.85	331.61	18.17	-84.3	-88.8	2.1	3.12e+01	0	47	104	0	60	1048575
2026-01-18 04:19:18.86	331.34	18.15	-84.3	-88.8	2.1	3.12e+01	0	47	104	0	60	1048575
2026-01-18 04:19:19.87	331.06	18.13	-83.9	-88.8	2.4	3.12e+01	0	47	104	0	60	1048575
2026-01-18 04:19:20.88	330.79	18.11	-84.3	-88.8	2.2	3.12e+01	0	47	104	0	60	1048573
2026-01-18 04:19:21.89	330.52	18.08	-84.3	-88.8	2.2	3.12e+01	0	47	104	0	60	1048573
2026-01-18 04:19:22.89	330.25	18.06	-84.3	-88.8	2.5	3.12e+01	0	47	104	0	60	1048573
2026-01-18 04:19:23.90	329.98	18.03	-84.3	-88.8	2.3	3.12e+01	0	47	104	0	60	1048573
2026-01-18 04:19:24.91	329.71	18.01	-83.9	-88.8	2.5	3.12e+01	0	47	104	0	60	1048573
2026-01-18 04:19:25.92	329.44	17.98	-84.3	-88.8	2.2	3.12e+01	0	47	104	0	60	1048573
2026-01-18 04:19:26.93	329.17	17.95	-84.3	-88.8	2.4	3.12e+01	0	47	104	0	60	1048573
2026-01-18 04:19:27.93	328.90	17.92	-84.3	-88.8	1.9	3.12e+01	0	47	104	0	60	1048573
2026-01-18 04:19:28.93	328.64	17.90	-83.9	-88.8	2.2	3.12e+01	0	47	104	0	60	1048573
2026-01-18 04:19:29.94	328.37	17.87	-83.9	-88.8	2.2	3.12e+01	0	47	104	0	60	1048573
2026-01-18 04:19:30.94	328.10	17.84	-84.3	-88.8	2.2	3.12e+01	0	47	104	0	60	1048573
2026-01-18 04:19:31.95	327.84	17.81	-84.3	-88.8	2.5	3.12e+01	0	47	104	0	60	1048573
2026-01-18 04:19:32.96	327.57	17.78	-84.3	-88.8	2.3	3.12e+01	0	47	104	0	60	1048573
2026-01-18 04:19:33.96	327.31	17.75	-83.5	-88.8	2.1	3.12e+01	0	47	104	0	60	1048573
2026-01-18 04:19:34.97	327.04	17.71	-83.9	-88.8	2.2	3.12e+01	0	47	104	0	60	1048573
2026-01-18 04:19:35.98	326.78	17.68	-84.3	-88.8	2.4	3.12e+01	0	47	104	0	60	1048573
2026-01-18 04:19:36.98	326.52	17.65	-84.3	-88.8	2.2	3.12e+01	0	47	104	0	60	1048573
2026-01-18 04:19:37.99	326.25	17.62	-84.3	-88.8	1.9	3.12e+01	0	47	104	0	60	1048573
2026-01-18 04:19:39.00	325.99	17.58	-83.9	-88.8	2.4	3.12e+01	0	47	104	0	60	1048573
2026-01-18 04:19:40.01	325.73	17.55	-84.3	-88.8	2.1	3.12e+01	0	47	104	0	60	1048573
2026-01-18 04:19:41.02	325.47	17.51	-84.3	-88.8	2.3	3.12e+01	0	47	104	0	60	1048573
2026-01-18 04:19:42.02	325.21	17.48	-84.3	-88.8	2.2	3.12e+01	0	47	104	0	60	1048573
2026-01-18 04:19:43.03	324.95	17.44	-84.3	-88.8	2.0	3.12e+01	0	47	104	0	60	1048573
2026-01-18 04:19:44.03	324.69	17.41	-83.9	-88.8	2.3	3.12e+01	0	47	104	0	60	1048573
2026-01-18 04:19:45.04	324.43	17.37	-84.3	-88.8	2.1	3.12e+01	0	47	104	0	60	1048573
2026-01-18 04:19:46.04	324.18	17.33	-84.3	-88.8	2.1	3.12e+01	0	47	104	0	60	1048573
2026-01-18 04:19:47.05	323.92	17.29	-84.3	-88.8	2.1	3.12e+01	0	47	104	0	60	1048573
2026-01-18 04:19:48.06	323.66	17.25	-83.9	-88.8	2.6	3.12e+01	0	47	104	0	60	1048573
2026-01-18 04:19:49.06	323.41	17.22	-84.3	-88.8	2.1	3.12e+01	0	47	104	0	60	1048573
2026-01-18 04:19:50.07	323.15	17.18	-84.3	-88.8	2.2	3.12e+01	0	47	104	0	60	1048573
2026-01-18 04:19:51.08	322.90	17.14	-84.3	-88.8	2.2	3.12e+01	0	47	104	0	60	1048573
2026-01-18 04:19:52.08	322.65	17.10	-84.3	-88.8	2.1	3.12e+01	0	47	104	0	60	1048573
2026-01-18 04:19:53.09	322.39	17.05	-83.9	-88.8	2.0	3.12e+01	0	47	104	0	60	1048573
2026-01-18 04:19:54.10	322.14	17.01	-84.3	-88.8	2.2	3.12e+01	0	47	104	0	60	1048573
2026-01-18 04:19:55.11	321.89	16.97	-84.3	-88.8	2.1	3.12e+01	0	47	104	0	60	1048573
2026-01-18 04:19:56.12	321.64	16.93	-84.3	-88.8	2.4	3.12e+01	0	47	104	0	60	1048573
2026-01-18 04:19:57.13	321.39	16.89	-83.9	-88.8	2.5	3.12e+01	0	47	104	0	60	1048573
2026-01-18 04:19:58.13	321.14	16.84	-83.9	-88.8	2.4	3.12e+01	0	47	104	0	60	1048573
2026-01-18 04:19:59.14	320.89	16.80	-84.3	-88.8	2.1	3.12e+01	0	47	104	0	60	1048573
2026-01-18 04:20:00.15	320.64	16.76	-84.3	-88.8	2.5	3.12e+01	0	47	104	0	60	1048573
2026-01-18 04:20:01.16	320.40	16.71	-84.3	-88.8	2.2	3.12e+01	0	47	104	0	60	1048573
2026-01-18 04:20:02.16	320.15	16.67	-83.9	-88.8	2.3	3.12e+01	0	47	104	0	60	1048573
2026-01-18 04:20:03.17	319.91	16.62	-83.5	-88.8	1.9	3.12e+01	0	47	104	0	60	1048573
2026-01-18 04:20:04.17	319.66	16.57	-84.3	-88.8	2.2	3.12e+01	0	47	104	0	60	1048573
2026-01-18 04:20:05.18	319.42	16.53	-84.3	-88.8	2.2	3.12e+01	0	47	104	0	60	1048573
2026-01-18 04:20:06.19	319.18	16.48	-84.3	-88.8	2.0	3.12e+01	0	47	104	0	60	1048573
2026-01-18 04:20:07.20	318.94	16.43	-83.9	-88.8	1.9	3.12e+01	0	47	104	0	60	1048573
2026-01-18 04:20:08.21	318.69	16.39	-84.3	-88.8	2.0	3.12e+01	0	47	104	0	60	1048573
2026-01-18 04:20:09.21	318.46	16.34	-84.3	-88.8	2.1	3.12e+01	0	47	104	0	60	1048573
2026-01-18 04:20:10.22	318.22	16.29	-84.3	-88.8	2.4	3.12e+01	0	47	104	0	60	1048573
2026-01-18 04:20:11.23	317.98	16.24	-84.3	-88.8	2.4	3.12e+01	0	47	104	0	60	1048573
2026-01-18 04:20:12.23	317.74	16.19	-83.9	-88.8	2.5	3.12e+01	0	47	104	0	60	1048573
2026-01-18 04:20:13.24	317.50	16.15	-83.9	-88.8	2.1	3.12e+01	0	47	104	0	60	1048573
2026-01-18 04:20:14.25	317.27	16.10	-84.3	-88.8	1.9	3.12e+01	0	47	104	0	60	1048573
2026-01-18 04:20:15.26	317.03	16.05	-84.3	-88.8	2.2	3.12e+01	0	47	104	0	60	1048573
2026-01-18 04:20:16.27	316.80	15.99	-83.9	-88.8	2.1	3.12e+01	0	47	104	0	60	1048573
2026-01-18 04:20:17.27	316.56	15.94	-83.9	-88.8	2.4	3.12e+01	0	47	104	0	60	1048573
2026-01-18 04:20:18.28	316.33	15.89	-84.3	-88.8	2.0	3.12e+01	0	47	104	0	60	1048573
2026-01-18 04:20:19.29	316.10	15.84	-84.3	-88.8	2.1	3.12e+01	0	47	104	0	60	1048573
2026-01-18 04:20:20.29	315.87	15.79	-84.3	-88.8	2.0	3.12e+01	0	47	104	0	60	1048573
2026-01-18 04:20:21.30	315.64	15.74	-83.9	-88.8	2.3	3.12e+01	0	47	104	0	60	1048573
2026-01-18 04:20:22.31	315.41	15.69	-83.9	-88.8	2.3	3.12e+01	0	47	104	0	60	1048573
2026-01-18 04:20:23.32	315.18	15.63	-84.3	-88.8	2.3	3.12e+01	0	47	104	0	60	1048573
2026-01-18 04:20:24.33	314.95	15.58	-84.3	-88.8	2.1	3.12e+01	0	47	104	0	60	1048573
2026-01-18 04:20:25.33	314.73	15.53	-84.3	-88.8	2.3	3.12e+01	0	47	104	0	60	1048573
2026-01-18 04:20:26.34	314.50	15.47	-83.9	-88.8	1.9	3.12e+01	0	47	104	0	60	1048573
2026-01-18 04:20:27.35	314.28	15.42	-84.3	-88.8	2.1	3.12e+01	0	47	104	0	60	1048573
2026-01-18 04:20:28.35	314.05	15.37	-84.3	-88.8	2.1	3.12e+01	0	47	104	0	60	1048573
2026-01-18 04:20:29.35	313.83	15.31	-84.3	-88.8	2.3	3.12e+01	0	47	104	0	60	1048573
2026-01-18 04:20:30.35	313.61	15.26	-84.3	-88.8	2.3	3.12e+01	0	47	104	0	60	1048573
2026-01-18 04:20:31.36	313.39	15.20	-83.9	-88.8	2.3	3.12e+01	0	47	104	0	60	1048573
2026-01-18 04:20:32.37	313.17	15.15	-84.3	-88.8	2.2	3.12e+01	0	47	104	0	60	1048573
2026-01-18 04:20:33.38	312.95	15.09	-84.3	-88.8	2.5	3.12e+01	0	47	104	0	60	1048573
2026-01-18 04:20:34.38	312.73	15.04	-84.3	-88.8	2.0	3.12e+01	0	47	104	0	60	1048573
2026-01-18 04:20:35.39	312.51	14.98	-83.9	-88.8	2.2	3.12e+01	0	47	104	0	60	1048569
2026-01-18 04:20:36.40	312.29	14.92	-83.9	-88.8	2.2	3.12e+01	0	47	104	0	60	1048569
2026-01-18 04:20:37.40	312.08	14.87	-84.3	-88.8	2.2	3.12e+01	0	47	104	0	60	1048569
2026-01-18 04:20:38.41	311.86	14.81	-83.9	-88.8	2.3	3.12e+01	0	47	104	0	60	1048569
2026-01-18 04:20:39.42	311.65	14.75	-84.3	-88.8	2.1	3.12e+01	0	47	104	0	60	1048575
2026-01-18 04:20:40.42	311.44	14.70	-83.9	-88.8	2.3	3.12e+01	0	47	104	0	60	1048575
2026-01-18 04:20:41.43	311.22	14.64	-83.9	-88.8	2.2	3.12e+01	0	47	104	0	60	1048575
2026-01-18 04:20:42.44	311.01	14.58	-84.3	-88.8	2.0	3.12e+01	0	47	104	0	60	1048575
2026-01-18 04:20:43.44	310.80	14.52	-84.3	-88.8	2.4	3.12e+01	0	47	104	0	60	1048575
2026-01-18 04:20:44.45	310.59	14.47	-84.3	-88.8	2.2	3.12e+01	0	47	104	0	60	1048575
2026-01-18 04:20:45.45	310.39	14.41	-83.9	-88.8	2.4	3.12e+01	0	47	104	0	60	1048575
2026-01-18 04:20:46.46	310.18	14.35	-84.3	-88.8	2.1	3.12e+01	0	47	104	0	60	1048575
2026-01-18 04:20:47.47	309.97	14.29	-84.3	-88.8	2.2	3.12e+01	0	47	104	0	60	1048575
2026-01-18 04:20:48.48	309.76	14.23	-84.3	-88.8	2.0	3.12e+01	0	47	104	0	60	1048575
2026-01-18 04:20:49.48	309.56	14.17	-83.9	-88.8	2.4	3.12e+01	0	47	104	0	60	1048575
2026-01-18 04:20:50.49	309.35	14.11	-83.9	-88.8	1.9	3.12e+01	0	47	104	0	60	1048575
2026-01-18 04:20:51.49	309.15	14.05	-84.3	-88.8	2.2	3.12e+01	0	47	104	0	60	1048575
2026-01-18 04:20:52.50	308.95	13.99	-84.3	-88.8	2.2	3.12e+01	0	47	104	0	60	1048575
2026-01-18 04:20:53.51	308.74	13.93	-84.3	-88.8	2.6	3.12e+01	0	47	104	0	60	1048575
2026-01-18 04:20:54.52	308.54	13.87	-83.9	-88.8	2.4	3.12e+01	0	47	104	0	60	1048575
2026-01-18 04:20:55.52	308.34	13.81	-83.9	-88.8	2.2	3.12e+01	0	47	104	0	60	1048575
2026-01-18 04:20:56.53	308.14	13.75	-84.3	-88.8	2.3	3.12e+01	0	47	104	0	60	1048575
2026-01-18 04:20:57.54	307.95	13.69	-84.3	-88.8	2.1	3.12e+01	0	47	104	0	60	1048575
2026-01-18 04:20:58.54	307.75	13.63	-84.3	-88.8	2.3	3.12e+01	0	47	104	0	60	1048575
2026-01-18 04:20:59.55	307.55	13.57	-83.9	-88.8	2.1	3.12e+01	0	47	104	0	60	1048575
2026-01-18 04:21:00.56	307.36	13.51	-84.3	-88.8	2.0	3.12e+01	0	47	104	0	60	1048575
2026-01-18 04:21:01.56	307.16	13.45	-83.9	-88.8	2.1	3.12e+01	0	47	104	0	60	1048575
2026-01-18 04:21:02.57	306.97	13.39	-84.3	-88.8	2.2	3.12e+01	0	47	104	0	60	1048575
2026-01-18 04:21:03.58	306.77	13.33	-84.3	-88.8	2.0	3.12e+01	0	47	104	0	60	1048575
2026-01-18 04:21:04.59	306.58	13.27	-83.9	-88.8	2.3	3.12e+01	0	47	104	0	60	1048575
2026-01-18 04:21:05.60	306.39	13.20	-84.3	-88.8	2.2	3.12e+01	0	47	104	0	60	1048575
2026-01-18 04:21:06.60	306.20	13.14	-84.3	-88.8	2.2	3.12e+01	0	47	104	0	60	1048575
2026-01-18 04:21:07.61	306.01	13.08	-84.3	-88.8	2.2	3.12e+01	0	47	104	0	60	1048575
2026-01-18 04:21:08.62	305.82	13.02	-83.9	-88.8	2.5	3.12e+01	0	47	104	0	60	1048575
2026-01-18 04:21:09.62	305.63	12.96	-83.9	-88.8	2.1	3.12e+01	0	47	104	0	60	1048575
2026-01-18 04:21:10.62	305.45	12.89	-84.3	-88.8	2.0	3.12e+01	0	47	104	0	60	1048575
2026-01-18 04:21:11.63	305.26	12.83	-84.3	-88.8	2.2	3.12e+01	0	47	104	0	60	1048575
2026-01-18 04:21:12.64	305.08	12.77	-84.3	-88.8	2.3	3.12e+01	0	47	104	0	60	1048575
2026-01-18 04:21:13.64	304.89	12.71	-83.9	-88.8	2.3	3.12e+01	0	47	104	0	60	1048575
2026-01-18 04:21:14.64	304.71	12.64	-83.9	-88.8	2.3	3.12e+01	0	47	104	0	60	1048575
2026-01-18 04:21:15.65	304.53	12.58	-84.3	-88.8	2.0	3.12e+01	0	47	104	0	60	1048575
2026-01-18 04:21:16.66	304.34	12.52	-84.3	-88.8	2.5	3.12e+01	0	47	104	0	60	1048575
2026-01-18 04:21:17.67	304.16	12.46	-84.3	-88.8	2.2	3.12e+01	0	47	104	0	60	1048575
2026-01-18 04:21:18.67	303.98	12.39	-83.9	-88.8	2.0	3.12e+01	0	47	104	0	60	1048575
2026-01-18 04:21:19.68	303.80	12.33	-84.3	-88.8	2.4	3.12e+01	0	47	104	0	60	1048575
2026-01-18 04:21:20.69	303.62	12.27	-84.3	-88.8	2.5	3.12e+01	0	47	104	0	60	1048575
2026-01-18 04:21:21.69	303.45	12.20	-84.3	-88.8	2.2	3.12e+01	0	47	104	0	60	1048575
2026-01-18 04:21:22.70	303.27	12.14	-84.3	-88.8	2.1	3.12e+01	0	47	104	0	60	1048575
2026-01-18 04:21:23.71	303.09	12.08	-83.9	-88.8	2.2	3.12e+01	0	47	104	0	60	1048575
2026-01-18 04:21:24.72	302.92	12.01	-84.3	-88.8	2.2	3.12e+01	0	47	104	0	60	1048575
2026-01-18 04:21:25.72	302.75	11.95	-84.3	-88.8	2.0	3.12e+01	0	47	104	0	60	1048575
2026-01-18 04:21:26.73	302.57	11.89	-84.3	-88.8	2.3	3.12e+01	0	47	104	0	60	1048575
2026-01-18 04:21:27.74	302.40	11.82	-83.9	-88.8	2.1	3.12e+01	0	47	104	0	60	1048575
2026-01-18 04:21:28.74	302.23	11.76	-83.9	-88.8	2.2	3.12e+01	0	47	104	0	60	1048575
2026-01-18 04:21:29.73	302.06	11.70	-84.3	-88.8	2.1	3.12e+01	0	47	104	0	60	1048575
2026-01-18 04:21:30.74	301.89	11.63	-83.9	-88.8	2.4	3.12e+01	0	47	104	0	60	1048575
2026-01-18 04:21:31.74	301.72	11.57	-84.3	-88.8	2.1	3.12e+01	0	47	104	0	60	1048575
2026-01-18 04:21:32.75	301.55	11.51	-83.9	-88.8	2.0	3.12e+01	0	47	104	0	60	1048575
2026-01-18 04:21:33.75	301.38	11.44	-83.9	-88.8	2.3	3.12e+01	0	47	104	0	60	1048575
2026-01-18 04:21:34.76	301.22	11.38	-84.3	-88.8	2.3	3.12e+01	0	47	104	0	60	1048575
2026-01-18 04:21:35.76	301.05	11.31	-84.3	-88.8	2.4	3.12e+01	0	47	104	0	60	1048575
2026-01-18 04:21:36.77	300.88	11.25	-84.3	-88.8	2.6	3.12e+01	0	47	104	0	60	1048575
2026-01-18 04:21:37.78	300.72	11.19	-83.9	-88.8	2.3	3.12e+01	0	47	104	0	60	1048575
2026-01-18 04:21:38.79	300.55	11.12	-84.3	-88.8	2.0	3.12e+01	0	47	104	0	60	1048575
2026-01-18 04:21:39.80	300.39	11.06	-84.3	-88.8	2.2	3.12e+01	0	47	104	0	60	1048575
2026-01-18 04:21:40.80	300.23	10.99	-84.3	-88.8	2.5	3.12e+01	0	47	104	0	60	1048575
2026-01-18 04:21:41.81	300.07	10.93	-84.3	-88.8	2.5	3.12e+01	0	47	104	0	60	1048575
2026-01-18 04:21:42.80	299.91	10.87	-83.9	-88.8	2.1	3.12e+01	0	47	104	0	60	1048575
2026-01-18 04:21:43.81	299.75	10.80	-84.3	-88.8	2.2	3.12e+01	0	47	104	0	60	1048575
2026-01-18 04:21:44.82	299.59	10.74	-84.3	-88.8	2.2	3.12e+01	0	47	104	0	60	1048575
2026-01-18 04:21:45.82	299.43	10.67	-84.3	-88.8	2.2	3.12e+01	0	47	104	0	60	1048575
2026-01-18 04:21:46.82	299.27	10.61	-83.9	-88.8	2.2	3.12e+01	0	47	104	0	60	1048575
2026-01-18 04:21:47.83	299.12	10.54	-83.9	-88.8	2.1	3.12e+01	0	47	104	0	60	1048575
2026-01-18 04:21:48.83	298.96	10.48	-83.9	-88.8	2.4	3.12e+01	0	47	104	0	60	1048575
2026-01-18 04:21:49.83	298.81	10.42	-84.3	-88.8	2.2	3.12e+01	0	47	104	0	60	1048575
2026-01-18 04:21:50.83	298.65	10.35	-84.3	-88.8	2.6	3.12e+01	0	47	104	0	60	1048575
2026-01-18 04:21:51.84	298.50	10.29	-83.9	-88.8	2.6	3.12e+01	0	47	104	0	60	1048575
2026-01-18 04:21:52.84	298.35	10.22	-83.9	-88.8	2.5	3.12e+01	0	47	104	0	60	1048575
2026-01-18 04:21:53.85	298.19	10.16	-83.9	-88.8	2.1	3.12e+01	0	47	104	0	60	1048575
2026-01-18 04:21:54.86	298.04	10.10	-84.3	-88.8	2.3	3.12e+01	0	47	104	0	60	1048575
2026-01-18 04:21:55.86	297.89	10.03	-84.3	-88.8	2.1	3.12e+01	0	47	104	0	60	1048575
2026-01-18 04:21:56.87	297.74	9.97	-83.9	-88.8	2.5	3.12e+01	0	47	104	0	60	1048575
2026-01-18 04:21:57.87	297.59	9.90	-84.3	-88.8	2.2	3.12e+01	0	47	104	0	60	1048575
2026-01-18 04:21:58.88	297.44	9.84	-84.3	-88.8	2.3	3.12e+01	0	47	104	0	60	1048575
2026-01-18 04:21:59.89	297.29	9.77	-84.3	-88.8	2.1	3.12e+01	0	47	104	0	60	1048575
2026-01-18 04:22:00.89	297.15	9.71	-84.3	-88.8	2.4	3.12e+01	0	47	104	0	60	1048575
2026-01-18 04:22:01.90	297.00	9.65	-83.9	-88.8	2.1	3.12e+01	0	47	104	0	60	1048575
2026-01-18 04:22:02.91	296.85	9.58	-84.3	-88.8	2.3	3.12e+01	0	47	104	0	60	1048575
2026-01-18 04:22:03.91	296.71	9.52	-84.3	-88.8	2.6	3.12e+01	0	47	104	0	60	1048575
2026-01-18 04:22:04.92	296.56	9.45	-84.3	-88.8	2.4	3.12e+01	0	47	104	0	60	1048575
2026-01-18 04:22:05.92	296.42	9.39	-83.9	-88.8	2.1	3.12e+01	0	47	104	0	60	1048575
2026-01-18 04:22:06.93	296.28	9.32	-83.9	-88.8	2.0	3.12e+01	0	47	104	0	60	1048575
2026-01-18 04:22:07.94	296.13	9.26	-84.3	-88.8	2.2	3.12e+01	0	47	104	0	60	1048575
2026-01-18 04:22:08.95	295.99	9.20	-84.3	-88.8	1.9	3.12e+01	0	47	104	0	60	1048575
2026-01-18 04:22:09.95	295.85	9.13	-84.3	-88.8	2.5	3.12e+01	0	47	104	0	60	1048575
2026-01-18 04:22:10.96	295.71	9.07	-83.9	-88.8	2.4	3.12e+01	0	47	104	0	60	1048575
2026-01-18 04:22:11.97	295.57	9.00	-83.9	-88.8	2.3	3.12e+01	0	47	104	0	60	1048575
2026-01-18 04:22:12.98	295.43	8.94	-84.3	-88.8	2.3	3.12e+01	0	47	104	0	60	1048575
2026-01-18 04:22:13.99	295.29	8.88	-84.3	-88.8	2.1	3.12e+01	0	47	104	0	60	1048575
2026-01-18 04:22:15.00	295.15	8.81	-84.3	-88.8	2.6	3.12e+01	0	47	104	0	60	1048575
2026-01-18 04:22:16.00	295.02	8.75	-83.9	-88.8	2.3	3.12e+01	0	47	104	0	60	1048575
2026-01-18 04:22:17.01	294.88	8.68	-83.9	-88.8	2.6	3.12e+01	0	47	104	0	60	1048575
2026-01-18 04:22:18.02	294.74	8.62	-84.3	-88.8	2.4	3.12e+01	0	47	104	0	60	1048575
2026-01-18 04:22:19.02	294.61	8.56	-84.3	-88.8	2.1	3.12e+01	0	47	104	0	60	1048575
2026-01-18 04:22:20.03	294.47	8.49	-84.3	-88.8	1.9	3.12e+01	0	47	104	0	60	1048575
2026-01-18 04:22:21.04	294.34	8.43	-83.9	-88.8	2.2	3.12e+01	0	47	104	0	60	1048575
2026-01-18 04:22:22.05	294.21	8.36	-84.3	-88.8	2.2	3.12e+01	0	47	104	0	60	1048575
2026-01-18 04:22:23.05	294.07	8.30	-84.3	-88.8	2.3	3.12e+01	0	47	104	0	60	1048575
2026-01-18 04:22:24.06	293.94	8.24	-84.3	-88.8	2.0	3.12e+01	0	47	104	0	60	1048575
2026-01-18 04:22:25.07	293.81	8.17	-83.9	-88.8	2.3	3.12e+01	0	47	104	0	60	1048575
2026-01-18 04:22:26.08	293.68	8.11	-83.9	-88.8	2.0	3.12e+01	0	47	104	0	60	1048575
2026-01-18 04:22:27.09	293.55	8.05	-84.3	-88.8	2.3	3.12e+01	0	47	104	0	60	1048575
2026-01-18 04:22:28.10	293.42	7.98	-84.3	-88.8	2.5	3.12e+01	0	47	104	0	60	1048575
2026-01-18 04:22:29.11	293.29	7.92	-84.3	-88.8	2.4	3.12e+01	0	47	104	0	60	1048575
2026-01-18 04:22:30.11	293.16	7.86	-83.5	-88.8	2.2	3.12e+01	0	47	104	0	60	1048575
2026-01-18 04:22:31.12	293.03	7.79	-84.3	-88.8	2.2	3.12e+01	0	47	104	0	60	1048575
2026-01-18 04:22:32.13	292.91	7.73	-84.3	-88.8	2.1	3.12e+01	0	47	104	0	60	1048575
2026-01-18 04:22:33.13	292.78	7.67	-84.3	-88.8	2.3	3.12e+01	0	47	104	0	60	1048575
2026-01-18 04:22:34.14	292.66	7.60	-84.3	-88.8	2.0	3.12e+01	0	47	104	0	60	1048575
2026-01-18 04:22:35.15	292.53	7.54	-83.9	-88.8	2.2	3.12e+01	0	47	104	0	60	1048575
2026-01-18 04:22:36.15	292.41	7.48	-84.3	-88.8	2.2	3.12e+01	0	47	104	0	60	1048575
2026-01-18 04:22:37.16	292.28	7.41	-84.3	-88.8	2.5	3.12e+01	0	47	104	0	60	1048575
2026-01-18 04:22:38.16	292.16	7.35	-84.3	-88.8	2.4	3.12e+01	0	47	104	0	60	1048575
2026-01-18 04:22:39.17	292.04	7.29	-83.9	-88.8	2.1	3.12e+01	0	47	104	0	60	1048575
2026-01-18 04:22:40.18	291.91	7.23	-83.9	-88.8	2.4	3.12e+01	0	47	104	0	60	1048575
2026-01-18 04:22:41.19	291.79	7.16	-84.3	-88.8	2.2	3.12e+01	0	47	104	0	60	1048575
2026-01-18 04:22:42.20	291.67	7.10	-84.3	-88.8	2.3	3.12e+01	0	47	104	0	60	1048575
2026-01-18 04:22:43.20	291.55	7.04	-84.3	-88.8	2.1	3.12e+01	0	47	104	0	60	1048575
2026-01-18 04:22:44.21	291.43	6.97	-83.9	-88.8	2.3	3.12e+01	0	47	104	0	60	1048575
2026-01-18 04:22:45.22	291.31	6.91	-83.9	-88.8	2.1	3.12e+01	0	47	104	0	60	1048575
2026-01-18 04:22:46.23	291.19	6.85	-84.3	-88.8	2.1	3.12e+01	0	47	104	0	60	1048575
2026-01-18 04:22:47.24	291.07	6.79	-84.3	-88.8	2.2	3.12e+01	0	47	104	0	60	1048575
2026-01-18 04:22:48.24	290.96	6.72	-83.9	-88.8	2.2	3.12e+01	0	47	104	0	60	1048575
2026-01-18 04:22:49.25	290.84	6.66	-83.9	-88.8	2.1	3.12e+01	0	47	104	0	60	1048575
2026-01-18 04:22:50.26	290.72	6.60	-84.3	-88.8	2.2	3.12e+01	0	47	104	0	60	1048575
2026-01-18 04:22:51.26	290.61	6.54	-84.3	-88.8	2.1	3.12e+01	0	47	104	0	60	1048575
2026-01-18 04:22:52.27	290.49	6.47	-84.3	-88.8	2.3	3.12e+01	0	47	104	0	60	1048575
2026-01-18 04:22:53.27	290.38	6.41	-84.3	-88.8	2.3	3.12e+01	0	47	104	0	60	1048575
2026-01-18 04:22:54.28	290.26	6.35	-83.9	-88.8	2.2	3.12e+01	0	47	104	0	60	1048575
2026-01-18 04:22:55.28	290.15	6.29	-84.3	-88.8	2.3	3.12e+01	0	47	104	0	60	1048575
2026-01-18 04:22:56.29	290.04	6.23	-84.3	-88.8	2.0	3.12e+01	0	47	104	0	60	1048575
2026-01-18 04:22:57.29	289.93	6.17	-84.3	-88.8	2.3	3.12e+01	0	47	104	0	60	1048575
2026-01-18 04:22:58.29	289.81	6.10	-83.9	-88.8	2.3	3.12e+01	0	47	104	0	60	1048575
2026-01-18 04:22:59.29	289.70	6.04	-83.9	-88.8	2.2	3.12e+01	0	47	104	0	60	1048575
2026-01-18 04:23:00.30	289.59	5.98	-84.3	-88.8	2.2	3.12e+01	0	47	104	0	60	1048575
2026-01-18 04:23:01.30	289.48	5.92	-84.3	-88.8	2.1	3.12e+01	0	47	104	0	60	1048575
2026-01-18 04:23:02.31	289.37	5.86	-84.3	-88.8	2.3	3.12e+01	0	47	104	0	60	1048575
2026-01-18 04:23:03.32	289.26	5.80	-83.9	-88.8	2.3	3.12e+01	0	47	104	0	60	1048575
2026-01-18 04:23:04.32	289.15	5.74	-83.9	-88.8	2.4	3.12e+01	0	47	104	0	60	1048575
2026-01-18 04:23:05.32	289.05	5.68	-84.3	-88.8	2.2	3.12e+01	0	47	104	0	60	1048575
2026-01-18 04:23:06.32	288.94	5.61	-84.3	-88.8	2.4	3.12e+01	0	47	104	0	60	1048575
2026-01-18 04:23:07.33	288.83	5.55	-84.3	-88.8	1.9	3.12e+01	0	47	104	0	60	1048575
2026-01-18 04:23:08.34	288.72	5.49	-83.9	-88.8	2.3	3.12e+01	0	47	104	0	60	1048575
2026-01-18 04:23:09.34	288.62	5.43	-84.3	-88.8	2.2	3.12e+01	0	47	104	0	60	1048575
2026-01-18 04:23:10.35	288.51	5.37	-84.3	-88.8	2.3	3.12e+01	0	47	104	0	60	1048575
2026-01-18 04:23:11.35	288.41	5.31	-84.3	-88.8	2.1	3.12e+01	0	47	104	0	60	1048575
2026-01-18 04:23:12.36	288.30	5.25	-84.3	-88.8	2.0	3.12e+01	0	47	104	0	60	1048575
2026-01-18 04:23:13.36	288.20	5.19	-83.5	-88.8	2.0	3.12e+01	0	47	104	0	60	1048575
2026-01-18 04:23:14.37	288.09	5.13	-84.3	-88.8	2.0	3.12e+01	0	47	104	0	60	1048575
2026-01-18 04:23:15.38	287.99	5.07	-84.3	-88.8	2.4	3.12e+01	0	47	104	0	60	1048575
2026-01-18 04:23:16.38	287.89	5.01	-84.3	-88.8	1.9	3.12e+01	0	47	104	0	60	1048575
2026-01-18 04:23:17.39	287.78	4.95	-83.9	-88.8	2.0	3.12e+01	0	47	104	0	60	1048575
2026-01-18 04:23:18.40	287.68	4.89	-84.3	-88.8	2.2	3.12e+01	0	47	104	0	60	1048575
2026-01-18 04:23:19.41	287.58	4.83	-84.3	-88.8	2.0	3.12e+01	0	47	104	0	60	1048575
2026-01-18 04:23:20.41	287.48	4.77	-84.3	-88.8	2.4	3.12e+01	0	47	104	0	60	1048575
2026-01-18 04:23:21.42	287.38	4.71	-84.3	-88.8	2.1	3.12e+01	0	47	104	0	60	1048575
2026-01-18 04:23:22.42	287.28	4.65	-83.9	-88.8	2.3	3.12e+01	0	47	104	0	60	1048575
2026-01-18 04:23:23.43	287.18	4.59	-83.9	-88.8	2.5	3.12e+01	0	47	104	0	60	1048575
2026-01-18 04:23:24.43	287.08	4.53	-83.9	-88.8	2.2	3.12e+01	0	47	104	0	60	1048575
2026-01-18 04:23:25.44	286.98	4.47	-84.3	-88.8	2.0	3.12e+01	0	47	104	0	60	1048575
2026-01-18 04:23:26.44	286.88	4.41	-83.9	-88.8	2.0	3.12e+01	0	47	104	0	60	1048575
2026-01-18 04:23:27.44	286.79	4.35	-83.9	-88.8	2.1	3.12e+01	0	47	104	0	60	1048575
2026-01-18 04:23:28.44	286.69	4.29	-84.3	-88.8	1.9	3.12e+01	0	47	104	0	60	1048575
2026-01-18 04:23:29.44	286.59	4.23	-84.3	-88.8	2.3	3.12e+01	0	47	104	0	60	1048575
2026-01-18 04:23:30.45	286.50	4.17	-84.3	-88.8	2.0	3.12e+01	0	47	104	0	60	1048575
2026-01-18 04:23:31.45	286.40	4.11	-84.3	-88.8	2.3	3.12e+01	0	47	104	0	60	1048575
2026-01-18 04:23:32.46	286.31	4.05	-84.3	-88.8	2.2	3.12e+01	0	47	104	0	60	1048575
2026-01-18 04:23:33.47	286.21	3.99	-84.3	-88.8	2.6	3.12e+01	0	47	104	0	60	1048575
2026-01-18 04:23:34.48	286.11	3.93	-84.3	-88.8	2.1	3.12e+01	0	47	104	0	60	1048575
2026-01-18 04:23:35.49	286.02	3.87	-84.3	-88.8	2.2	3.12e+01	0	47	104	0	60	1048575
2026-01-18 04:23:36.49	285.93	3.81	-83.9	-88.8	2.5	3.12e+01	0	47	104	0	60	1048575
2026-01-18 04:23:37.50	285.83	3.75	-83.9	-88.8	2.1	3.12e+01	0	47	104	0	60	1048574
2026-01-18 04:23:38.50	285.74	3.70	-84.3	-88.8	2.4	3.12e+01	0	47	104	0	60	1048574
2026-01-18 04:23:39.51	285.65	3.64	-84.3	-88.8	2.3	3.12e+01	0	47	104	0	60	1048574
2026-01-18 04:23:40.52	285.56	3.58	-84.3	-88.8	2.1	3.12e+01	0	47	104	0	60	1048574
2026-01-18 04:23:41.53	285.46	3.52	-83.5	-88.8	2.3	3.12e+01	0	47	104	0	60	1048574
2026-01-18 04:23:42.53	285.37	3.46	-83.9	-88.8	2.3	3.12e+01	0	47	104	0	60	1048574
2026-01-18 04:23:43.54	285.28	3.40	-84.3	-88.8	2.3	3.12e+01	0	47	104	0	60	1048574
2026-01-18 04:23:44.54	285.19	3.34	-84.3	-88.8	2.4	3.12e+01	0	47	104	0	60	1048574
2026-01-18 04:23:45.55	285.10	3.29	-83.9	-88.8	2.2	3.12e+01	0	47	104	0	60	1048574
2026-01-18 04:23:46.56	285.01	3.23	-83.9	-88.8	2.4	3.12e+01	0	47	104	0	60	1048574
2026-01-18 04:23:47.56	284.92	3.17	-83.9	-88.8	1.9	3.12e+01	0	47	104	0	60	1048574
2026-01-18 04:23:48.57	284.83	3.11	-84.3	-88.8	2.3	3.12e+01	0	47	104	0	60	1048574
2026-01-18 04:23:49.57	284.74	3.05	-84.3	-88.8	2.3	3.12e+01	0	47	104	0	60	1048574
2026-01-18 04:23:50.58	284.66	3.00	-84.3	-88.8	2.2	3.12e+01	0	47	104	0	60	1048574
2026-01-18 04:23:51.59	284.57	2.94	-84.3	-88.8	2.1	3.12e+01	0	47	104	0	60	1048574
2026-01-18 04:23:52.60	284.48	2.88	-84.3	-88.8	1.9	3.12e+01	0	47	104	0	60	1048574
2026-01-18 04:23:53.60	284.39	2.82	-84.3	-88.8	2.4	3.12e+01	0	47	104	0	60	1048574
2026-01-18 04:23:54.61	284.31	2.76	-84.3	-88.8	2.5	3.12e+01	0	47	104	0	60	1048574
2026-01-18 04:23:55.61	284.22	2.71	-83.9	-88.8	2.5	3.12e+01	0	47	104	0	60	1048574
2026-01-18 04:23:56.62	284.13	2.65	-84.3	-88.8	2.1	3.12e+01	0	47	104	0	60	1048574
2026-01-18 04:23:57.63	284.05	2.59	-84.3	-88.8	2.1	3.12e+01	0	47	104	0	60	1048574
2026-01-18 04:23:58.63	283.96	2.53	-84.3	-88.8	2.1	3.12e+01	0	47	104	0	60	1048574
2026-01-18 04:23:59.63	283.88	2.48	-84.3	-88.8	2.1	3.12e+01	0	47	104	0	60	1048574
2026-01-18 04:24:00.64	283.80	2.42	-83.9	-88.8	2.2	3.12e+01	0	47	104	0	60	1048574
2026-01-18 04:24:01.64	283.71	2.36	-83.9	-88.8	2.2	3.12e+01	0	47	104	0	60	1048574
2026-01-18 04:24:02.65	283.63	2.31	-84.3	-88.8	2.3	3.12e+01	0	47	104	0	60	1048574
2026-01-18 04:24:03.66	283.55	2.25	-84.3	-88.8	1.9	3.12e+01	0	47	104	0	60	1048574
2026-01-18 04:24:04.67	283.46	2.19	-84.3	-88.8	2.1	3.12e+01	0	47	104	0	60	1048574
2026-01-18 04:24:05.68	283.38	2.13	-83.9	-88.8	2.2	3.12e+01	0	47	104	0	60	1048574
2026-01-18 04:24:06.68	283.30	2.08	-84.3	-88.8	2.4	3.12e+01	0	47	104	0	60	1048574
2026-01-18 04:24:07.69	283.22	2.02	-84.3	-88.8	2.2	3.12e+01	0	47	104	0	60	1048574
2026-01-18 04:24:08.70	283.13	1.96	-83.9	-88.8	2.4	3.12e+01	0	47	104	0	60	1048574
2026-01-18 04:24:09.71	283.05	1.91	-83.9	-88.8	2.3	3.12e+01	0	47	104	0	60	1048574
2026-01-18 04:24:10.72	282.97	1.85	-84.3	-88.8	2.3	3.12e+01	0	47	104	0	60	1048574
2026-01-18 04:24:11.72	282.89	1.79	-84.3	-88.8	2.1	3.12e+01	0	47	104	0	60	1048574
2026-01-18 04:24:12.73	282.81	1.74	-84.3	-88.8	2.4	3.12e+01	0	47	104	0	60	1048574
2026-01-18 04:24:13.74	282.73	1.68	-84.3	-88.8	2.1	3.12e+01	0	47	104	0	60	1048574
2026-01-18 04:24:14.74	282.65	1.63	-83.9	-88.8	2.6	3.12e+01	0	47	104	0	60	1048574
2026-01-18 04:24:15.75	282.57	1.57	-84.3	-88.8	2.3	3.12e+01	0	47	104	0	60	1048574
2026-01-18 04:24:16.76	282.49	1.51	-84.3	-88.8	2.2	3.12e+01	0	47	104	0	60	1048574
2026-01-18 04:24:17.77	282.42	1.46	-84.3	-88.8	2.4	3.12e+01	0	47	104	0	60	1048574
2026-01-18 04:24:18.77	282.34	1.40	-83.9	-88.8	2.2	3.12e+01	0	47	104	0	60	1048574
2026-01-18 04:24:19.78	282.26	1.35	-83.9	-88.8	2.1	3.12e+01	0	47	104	0	60	1048574
2026-01-18 04:24:20.79	282.18	1.29	-83.9	-88.8	2.2	3.12e+01	0	47	104	0	60	1048574
2026-01-18 04:24:21.79	282.11	1.23	-84.3	-88.8	2.1	3.12e+01	0	47	104	0	60	1048574
2026-01-18 04:24:22.80	282.03	1.18	-84.3	-88.8	2.4	3.12e+01	0	47	104	0	60	1048574
2026-01-18 04:24:23.81	281.95	1.12	-83.9	-88.8	2.0	3.12e+01	0	47	104	0	60	1048574
2026-01-18 04:24:24.82	281.88	1.07	-83.5	-88.8	2.2	3.12e+01	0	47	104	0	60	1048574
2026-01-18 04:24:25.83	281.80	1.01	-84.3	-88.8	2.2	3.12e+01	0	47	104	0	60	1048574
2026-01-18 04:24:26.83	281.73	0.96	-84.3	-88.8	2.3	3.12e+01	0	47	104	0	60	1048574
2026-01-18 04:24:27.84	281.65	0.90	-84.3	-88.8	2.2	3.12e+01	0	47	104	0	60	1048574
2026-01-18 04:24:28.83	281.58	0.85	-83.9	-88.8	2.2	3.12e+01	0	47	104	0	60	1048574
2026-01-18 04:24:29.84	281.50	0.79	-84.3	-88.8	2.3	3.12e+01	0	47	104	0	60	1048574
2026-01-18 04:24:30.84	281.43	0.74	-84.3	-88.8	2.3	3.12e+01	0	47	104	0	60	1048574
2026-01-18 04:24:31.85	281.36	0.68	-84.3	-88.8	1.9	3.12e+01	0	47	104	0	60	1048574
2026-01-18 04:24:32.85	281.28	0.63	-84.3	-88.8	2.3	3.12e+01	0	47	104	0	60	1048574
2026-01-18 04:24:33.86	281.21	0.57	-83.9	-88.8	2.3	3.12e+01	0	47	104	0	60	1048574
2026-01-18 04:24:34.86	281.14	0.52	-84.3	-88.8	2.2	3.12e+01	0	47	104	0	60	1048574
2026-01-18 04:24:35.87	281.06	0.46	-84.3	-88.8	2.2	3.12e+01	0	47	104	0	60	1048574
2026-01-18 04:24:36.88	280.99	0.41	-84.3	-88.8	2.4	3.12e+01	0	47	104	0	60	1048574
2026-01-18 04:24:37.89	280.92	0.35	-83.9	-88.8	2.2	3.12e+01	0	47	104	0	60	1048574
2026-01-18 04:24:38.90	280.85	0.30	-83.9	-88.8	2.2	3.12e+01	0	47	104	0	60	1048574
2026-01-18 04:24:39.91	280.78	0.24	-84.3	-88.8	2.4	3.12e+01	0	47	104	0	60	1048574
2026-01-18 04:24:40.91	280.70	0.19	-84.3	-88.8	2.4	3.12e+01	0	47	104	0	60	1048574
2026-01-18 04:24:41.92	280.63	0.14	-84.3	-88.8	2.4	3.12e+01	0	47	104	0	60	1048574
2026-01-18 04:24:42.93	280.56	0.08	-83.9	-88.8	2.3	3.12e+01	0	47	104	0	60	1048574
2026-01-18 04:24:43.94	280.49	0.03	-83.9	-88.8	2.0	3.12e+01	0	47	104	0	60	1048574
2026-01-18 04:24:44.95	280.42	-0.03	-84.3	-88.8	2.4	3.12e+01	0	47	104	0	60	1048574
2026-01-18 04:24:45.95	280.35	-0.08	-84.3	-88.8	2.2	3.12e+01	0	47	104	0	60	1048574

#Closed at: 2026-01-18 04:24:46
#Recorded file [0 MB]: D:/Data/35015_260118_071245.dat