passes_logs/2026/01/18/R3.2S-Naryan-Mar/R3.2S-Naryan-Mar__20260118_071103_NOAA_20_JPSS-1_rec.log

#Pass ID: 20260118_071103_NOAA 20 (JPSS-1)
#Satellite: NOAA 20 (JPSS-1)
#Configuration: NOAA 20
#almurnet v.1.7.20240730
#Start time: 2026-01-18 07:11:04

#Version: 2.2.20231116
#Station: R3.2S-Naryan-Mar
#Location: 53.008057 lon 67.646978 lat
#TLE: 1 43013U 17073A   26017.30359522  .00000067  00000+0  52526-4 0  9990
#TLE: 2 43013  98.7639 318.2187 0001419  36.2087 323.9184 14.19536557423067

#Time	Az	El	Level	Level2	SNR	BER	BlckErr	Temp	State	Recorded	gain1	gain2
2026-01-18 07:11:04.71	127.24	0.09	-85.2	-88.6	3.4	1.56e+00	0	45	0	0	60	1048574
2026-01-18 07:11:05.72	127.22	0.15	-85.2	-88.6	3.0	1.56e+00	0	46	104	0	60	1048575
2026-01-18 07:11:06.73	127.19	0.21	-85.2	-88.6	3.0	1.56e+00	0	46	104	0	60	1048575
2026-01-18 07:11:07.73	127.17	0.27	-85.2	-88.6	2.9	1.56e+00	0	46	104	0	60	1048575
2026-01-18 07:11:08.74	127.15	0.33	-85.2	-88.6	3.3	1.56e+00	0	46	104	0	60	1048574
2026-01-18 07:11:09.74	127.12	0.39	-85.2	-88.6	3.1	1.56e+00	0	46	104	0	60	1048575
2026-01-18 07:11:10.75	127.10	0.45	-85.2	-88.6	2.8	1.55e+00	0	46	104	0	60	1048575
2026-01-18 07:11:11.75	127.08	0.51	-85.2	-88.6	3.2	1.56e+00	0	46	104	0	60	1048572
2026-01-18 07:11:12.76	127.05	0.57	-85.2	-88.6	2.8	1.55e+00	0	46	104	0	60	1048575
2026-01-18 07:11:13.76	127.03	0.63	-85.2	-88.6	3.1	1.56e+00	0	46	104	0	60	1048574
2026-01-18 07:11:14.77	127.00	0.69	-85.2	-88.6	2.9	1.56e+00	0	46	104	0	60	1048573
2026-01-18 07:11:15.78	126.98	0.75	-85.2	-88.6	3.1	1.55e+00	0	46	104	0	60	1048574
2026-01-18 07:11:16.79	126.95	0.81	-84.3	-88.6	3.0	1.56e+00	0	46	104	0	60	1048575
2026-01-18 07:11:17.80	126.93	0.87	-85.2	-88.6	3.2	1.56e+00	0	46	104	0	60	1048575
2026-01-18 07:11:18.80	126.90	0.94	-85.2	-88.6	3.0	1.56e+00	0	46	104	0	60	1048574
2026-01-18 07:11:19.81	126.88	1.00	-85.2	-88.6	3.1	1.55e+00	0	46	104	0	60	1048575
2026-01-18 07:11:20.82	126.86	1.06	-85.2	-88.6	3.1	1.55e+00	0	46	104	0	60	1048574
2026-01-18 07:11:21.83	126.83	1.12	-85.2	-88.6	2.9	1.56e+00	0	46	104	0	60	1048573
2026-01-18 07:11:22.83	126.81	1.18	-85.2	-88.6	2.9	1.56e+00	0	46	104	0	60	1048575
2026-01-18 07:11:23.84	126.78	1.24	-85.2	-88.6	3.2	1.56e+00	0	46	104	0	60	1048575
2026-01-18 07:11:24.84	126.75	1.30	-85.2	-88.6	3.1	1.56e+00	0	46	104	0	60	1048575
2026-01-18 07:11:25.85	126.73	1.37	-85.2	-88.6	3.0	1.55e+00	0	46	104	0	60	1048575
2026-01-18 07:11:26.86	126.70	1.43	-85.2	-88.6	3.0	1.55e+00	0	46	104	0	60	1048573
2026-01-18 07:11:27.87	126.68	1.49	-85.2	-88.6	3.1	1.55e+00	0	46	104	0	60	1048574
2026-01-18 07:11:28.88	126.65	1.55	-82.5	-88.6	3.0	1.56e+00	0	46	104	0	60	1048574
2026-01-18 07:11:29.88	126.63	1.62	-85.2	-88.6	2.8	1.56e+00	0	46	104	0	60	1048575
2026-01-18 07:11:30.89	126.60	1.68	-85.2	-88.6	2.9	1.55e+00	0	46	104	0	60	1048575
2026-01-18 07:11:31.90	126.57	1.74	-85.2	-88.6	2.9	1.56e+00	0	46	104	0	60	1048575
2026-01-18 07:11:32.91	126.55	1.81	-85.2	-88.6	3.1	1.56e+00	0	46	104	0	60	1048575
2026-01-18 07:11:33.92	126.52	1.87	-85.2	-88.6	2.9	1.55e+00	0	46	104	0	60	1048572
2026-01-18 07:11:34.92	126.49	1.93	-85.2	-88.6	3.1	1.56e+00	0	46	104	0	60	1048571
2026-01-18 07:11:35.93	126.47	2.00	-85.2	-88.6	2.9	1.56e+00	0	46	104	0	60	1048575
2026-01-18 07:11:36.94	126.44	2.06	-85.2	-88.6	3.0	1.56e+00	0	46	104	0	60	1048575
2026-01-18 07:11:37.95	126.41	2.12	-85.2	-88.6	3.0	1.56e+00	0	46	104	0	60	1048572
2026-01-18 07:11:38.95	126.39	2.19	-85.2	-88.6	3.0	1.56e+00	0	46	104	0	60	1048573
2026-01-18 07:11:39.96	126.36	2.25	-85.2	-88.6	3.0	1.55e+00	0	46	104	0	60	1048575
2026-01-18 07:11:40.97	126.33	2.31	-85.2	-88.6	3.1	1.56e+00	0	46	104	0	60	1048574
2026-01-18 07:11:41.97	126.30	2.38	-85.2	-88.6	3.0	1.56e+00	0	46	104	0	60	1048567
2026-01-18 07:11:42.98	126.28	2.44	-85.2	-88.6	2.8	1.56e+00	0	46	104	0	60	1048575
2026-01-18 07:11:43.99	126.25	2.51	-85.2	-88.6	3.0	1.56e+00	0	46	104	0	60	1048575
2026-01-18 07:11:45.00	126.22	2.57	-85.2	-88.6	3.1	1.56e+00	0	46	104	0	60	1048575
2026-01-18 07:11:46.00	126.19	2.64	-85.2	-88.6	3.1	1.55e+00	0	46	104	0	60	1048573
2026-01-18 07:11:47.00	126.17	2.70	-85.2	-88.6	3.0	1.56e+00	0	46	104	0	60	1048574
2026-01-18 07:11:48.01	126.14	2.77	-85.2	-88.6	3.3	1.56e+00	0	46	104	0	60	1048575
2026-01-18 07:11:49.01	126.11	2.83	-85.2	-88.6	3.1	1.56e+00	0	46	104	0	60	1048574
2026-01-18 07:11:50.02	126.08	2.90	-85.2	-88.6	3.0	1.55e+00	0	46	104	0	60	1048574
2026-01-18 07:11:51.02	126.05	2.96	-85.2	-88.6	3.1	1.55e+00	0	47	104	0	60	1048574
2026-01-18 07:11:52.03	126.02	3.03	-85.2	-88.6	2.8	1.55e+00	0	46	104	0	60	1048575
2026-01-18 07:11:53.03	125.99	3.09	-85.2	-88.6	3.0	1.56e+00	0	46	104	0	60	1048575
2026-01-18 07:11:54.04	125.96	3.16	-85.2	-88.6	2.9	1.56e+00	0	46	104	0	60	1048572
2026-01-18 07:11:55.04	125.94	3.22	-85.2	-88.6	3.1	1.56e+00	0	46	104	0	60	1048575
2026-01-18 07:11:56.05	125.91	3.29	-85.2	-88.6	3.2	1.56e+00	0	47	104	0	60	1048575
2026-01-18 07:11:57.06	125.88	3.36	-85.2	-88.6	3.0	1.56e+00	0	47	104	0	60	1048575
2026-01-18 07:11:58.07	125.85	3.42	-85.2	-88.6	3.1	1.56e+00	0	47	104	0	60	1048575
2026-01-18 07:11:59.07	125.82	3.49	-85.2	-88.6	3.0	1.56e+00	0	47	104	0	60	1048572
2026-01-18 07:12:00.08	125.79	3.56	-85.2	-88.6	3.1	1.55e+00	0	46	104	0	60	1048575
2026-01-18 07:12:01.08	125.76	3.62	-85.2	-88.6	3.0	1.56e+00	0	47	104	0	60	1048575
2026-01-18 07:12:02.09	125.73	3.69	-85.2	-88.6	3.0	1.55e+00	0	47	104	0	60	1048572
2026-01-18 07:12:03.09	125.70	3.76	-85.2	-88.6	3.0	1.56e+00	0	47	104	0	60	1048573
2026-01-18 07:12:04.10	125.67	3.83	-85.2	-88.6	2.9	1.56e+00	0	47	104	0	60	1048575
2026-01-18 07:12:05.11	125.63	3.89	-84.3	-88.6	3.3	1.56e+00	0	47	104	0	60	1048575
2026-01-18 07:12:06.11	125.60	3.96	-85.2	-88.6	3.0	1.55e+00	0	47	104	0	60	1048574
2026-01-18 07:12:07.12	125.57	4.03	-85.2	-88.6	2.8	1.55e+00	0	47	104	0	60	1048574
2026-01-18 07:12:08.13	125.54	4.10	-85.2	-88.6	3.1	1.56e+00	0	47	104	0	60	1048574
2026-01-18 07:12:09.14	125.51	4.17	-85.2	-88.6	2.9	1.55e+00	0	47	104	0	60	1048575
2026-01-18 07:12:10.15	125.48	4.23	-85.2	-88.6	3.2	1.56e+00	0	47	104	0	60	1048575
2026-01-18 07:12:11.15	125.45	4.30	-85.2	-88.6	3.1	1.55e+00	0	47	104	0	60	1048575
2026-01-18 07:12:12.16	125.41	4.37	-85.2	-88.6	2.9	1.56e+00	0	47	104	0	60	1048575
2026-01-18 07:12:13.17	125.38	4.44	-85.2	-88.6	3.0	1.56e+00	0	47	104	0	60	1048571
2026-01-18 07:12:14.17	125.35	4.51	-85.2	-88.6	3.2	1.55e+00	0	47	104	0	60	1048574
2026-01-18 07:12:15.18	125.32	4.58	-85.2	-88.6	3.0	1.55e+00	0	47	104	0	60	1048573
2026-01-18 07:12:16.19	125.28	4.65	-85.2	-88.6	3.3	1.55e+00	0	46	104	0	60	1048574
2026-01-18 07:12:17.20	125.25	4.72	-85.2	-88.6	3.0	1.56e+00	0	47	104	0	60	1048574
2026-01-18 07:12:18.21	125.22	4.79	-85.2	-88.6	3.0	1.56e+00	0	47	104	0	60	1048572
2026-01-18 07:12:19.21	125.19	4.86	-85.2	-88.6	3.1	1.56e+00	0	47	104	0	60	1048575
2026-01-18 07:12:20.22	125.15	4.93	-85.2	-88.6	3.1	1.56e+00	0	47	104	0	60	1048575
2026-01-18 07:12:21.23	125.12	5.00	-85.2	-88.6	3.1	1.56e+00	0	47	104	0	60	1048575
2026-01-18 07:12:22.23	125.09	5.07	-85.2	-88.6	2.8	1.56e+00	0	47	104	0	60	1048572
2026-01-18 07:12:23.24	125.05	5.14	-85.2	-88.6	2.8	1.56e+00	0	47	104	0	60	1048575
2026-01-18 07:12:24.25	125.02	5.21	-85.2	-88.6	3.3	1.56e+00	0	47	104	0	60	1048575
2026-01-18 07:12:25.25	124.98	5.28	-85.2	-88.6	3.2	1.56e+00	0	47	104	0	60	1048574
2026-01-18 07:12:26.26	124.95	5.35	-85.2	-88.6	3.1	1.56e+00	0	47	104	0	60	1048573
2026-01-18 07:12:27.27	124.91	5.42	-85.2	-88.6	3.1	1.56e+00	0	47	104	0	60	1048573
2026-01-18 07:12:28.28	124.88	5.49	-85.2	-88.6	3.2	1.56e+00	0	47	104	0	60	1048575
2026-01-18 07:12:29.29	124.84	5.57	-85.2	-88.6	3.1	1.56e+00	0	46	104	0	60	1048575
2026-01-18 07:12:30.29	124.81	5.64	-85.2	-88.6	2.9	1.56e+00	0	47	104	0	60	1048573
2026-01-18 07:12:31.29	124.77	5.71	-85.2	-88.6	3.1	1.56e+00	0	47	104	0	60	1048575
2026-01-18 07:12:32.30	124.74	5.78	-85.2	-88.6	3.0	1.56e+00	0	47	104	0	60	1048571
2026-01-18 07:12:33.31	124.70	5.85	-85.2	-88.6	3.2	1.56e+00	0	47	104	0	60	1048570
2026-01-18 07:12:34.31	124.67	5.93	-85.2	-88.6	3.2	1.56e+00	0	47	104	0	60	1048575
2026-01-18 07:12:35.32	124.63	6.00	-85.2	-88.6	3.1	1.55e+00	0	47	104	0	60	1048575
2026-01-18 07:12:36.33	124.60	6.07	-85.2	-88.6	3.1	1.56e+00	0	47	104	0	60	1048575
2026-01-18 07:12:37.33	124.56	6.15	-85.2	-88.6	3.1	1.55e+00	0	47	104	0	60	1048575
2026-01-18 07:12:38.34	124.52	6.22	-85.2	-88.6	2.8	1.56e+00	0	47	104	0	60	1048575
2026-01-18 07:12:39.34	124.49	6.29	-85.2	-88.6	3.1	1.56e+00	0	47	104	0	60	1048575
2026-01-18 07:12:40.35	124.45	6.37	-85.2	-88.6	3.1	1.55e+00	0	47	104	0	60	1048575
2026-01-18 07:12:41.36	124.41	6.44	-85.2	-88.6	3.3	1.56e+00	0	47	104	0	60	1048575
2026-01-18 07:12:42.37	124.37	6.52	-85.2	-88.6	3.0	1.55e+00	0	47	104	0	60	1048571
2026-01-18 07:12:43.38	124.34	6.59	-85.2	-88.6	3.0	1.56e+00	0	47	104	0	60	1048573
2026-01-18 07:12:44.38	124.30	6.66	-85.2	-88.6	3.0	1.55e+00	0	47	104	0	60	1048575
2026-01-18 07:12:45.39	124.26	6.74	-85.2	-88.6	3.0	1.56e+00	0	47	104	0	60	1048575
2026-01-18 07:12:46.40	124.22	6.81	-85.2	-88.6	3.2	1.56e+00	0	47	104	0	60	1048572
2026-01-18 07:12:47.40	124.18	6.89	-85.2	-88.6	3.0	1.56e+00	0	47	104	0	60	1048575
2026-01-18 07:12:48.41	124.14	6.96	-85.2	-88.6	3.0	1.56e+00	0	47	104	0	60	1048575
2026-01-18 07:12:49.42	124.11	7.04	-85.2	-88.6	3.1	1.56e+00	0	47	104	0	60	1048575
2026-01-18 07:12:50.42	124.07	7.12	-85.2	-88.6	3.1	1.56e+00	0	47	104	0	60	1048573
2026-01-18 07:12:51.43	124.03	7.19	-85.2	-88.6	3.0	1.56e+00	0	47	104	0	60	1048573
2026-01-18 07:12:52.44	123.99	7.27	-85.2	-88.6	3.2	1.55e+00	0	47	104	0	60	1048574
2026-01-18 07:12:53.45	123.95	7.35	-85.2	-88.6	2.8	1.56e+00	0	47	104	0	60	1048575
2026-01-18 07:12:54.45	123.91	7.42	-85.2	-88.6	3.0	1.56e+00	0	47	104	0	60	1048573
2026-01-18 07:12:55.45	123.87	7.50	-85.2	-88.6	3.0	1.56e+00	0	47	104	0	60	1048575
2026-01-18 07:12:56.46	123.83	7.58	-85.2	-88.6	3.3	1.56e+00	0	47	104	0	60	1048573
2026-01-18 07:12:57.47	123.79	7.65	-85.2	-88.6	3.1	1.56e+00	0	47	104	0	60	1048574
2026-01-18 07:12:58.47	123.75	7.73	-85.2	-88.6	2.9	1.56e+00	0	47	104	0	60	1048574
2026-01-18 07:12:59.47	123.70	7.81	-85.2	-88.6	3.0	1.56e+00	0	47	104	0	60	1048575
2026-01-18 07:13:00.48	123.66	7.89	-85.2	-88.6	2.9	1.56e+00	0	47	104	0	60	1048575
2026-01-18 07:13:01.49	123.62	7.96	-85.2	-88.6	3.2	1.56e+00	0	47	104	0	60	1048575
2026-01-18 07:13:02.50	123.58	8.04	-84.7	-88.6	3.1	1.56e+00	0	47	104	0	60	1048575
2026-01-18 07:13:03.50	123.54	8.12	-84.7	-88.6	3.1	1.55e+00	0	47	104	0	60	1048574
2026-01-18 07:13:04.49	123.50	8.20	-85.2	-88.6	3.1	1.56e+00	0	47	104	0	60	1048575
2026-01-18 07:13:05.50	123.45	8.28	-85.2	-88.6	3.1	1.55e+00	0	47	104	0	60	1048575
2026-01-18 07:13:06.50	123.41	8.36	-85.2	-88.6	3.2	1.56e+00	0	47	104	0	60	1048573
2026-01-18 07:13:07.51	123.37	8.44	-85.2	-88.6	3.0	1.55e+00	0	47	104	0	60	1048572
2026-01-18 07:13:08.51	123.32	8.52	-85.2	-88.6	3.1	1.55e+00	0	47	104	0	60	1048575
2026-01-18 07:13:09.52	123.28	8.60	-85.2	-88.6	3.1	1.56e+00	0	47	104	0	60	1048574
2026-01-18 07:13:10.53	123.24	8.68	-85.2	-88.6	3.1	1.56e+00	0	47	104	0	60	1048575
2026-01-18 07:13:11.53	123.19	8.76	-85.2	-88.6	3.0	1.56e+00	0	47	104	0	60	1048574
2026-01-18 07:13:12.54	123.15	8.84	-85.2	-88.6	3.0	1.56e+00	0	47	104	0	60	1048575
2026-01-18 07:13:13.55	123.10	8.92	-85.2	-88.6	2.9	1.56e+00	0	47	104	0	60	1048573
2026-01-18 07:13:14.56	123.06	9.00	-85.2	-88.6	2.9	1.55e+00	0	47	104	0	60	1048575
2026-01-18 07:13:15.57	123.01	9.08	-85.2	-88.6	3.0	1.55e+00	0	47	104	0	60	1048574
2026-01-18 07:13:16.57	122.97	9.16	-85.2	-88.6	3.1	1.56e+00	0	47	104	0	60	1048572
2026-01-18 07:13:17.58	122.92	9.25	-85.2	-88.6	3.0	1.56e+00	0	47	104	0	60	1048572
2026-01-18 07:13:18.59	122.87	9.33	-85.2	-88.6	3.1	1.56e+00	0	47	104	0	60	1048575
2026-01-18 07:13:19.60	122.83	9.41	-85.2	-88.6	3.0	1.56e+00	0	47	104	0	60	1048575
2026-01-18 07:13:20.60	122.78	9.49	-85.2	-88.6	3.0	1.56e+00	0	47	104	0	60	1048573
2026-01-18 07:13:21.61	122.73	9.58	-85.2	-88.6	2.9	1.56e+00	0	47	104	0	60	1048575
2026-01-18 07:13:22.61	122.69	9.66	-85.2	-88.6	3.0	1.56e+00	0	47	104	0	60	1048575
2026-01-18 07:13:23.62	122.64	9.74	-85.2	-88.6	3.2	1.56e+00	0	47	104	0	60	1048575
2026-01-18 07:13:24.62	122.59	9.83	-85.2	-88.6	2.9	1.56e+00	0	47	104	0	60	1048573
2026-01-18 07:13:25.63	122.54	9.91	-85.2	-88.6	3.1	1.56e+00	0	47	104	0	60	1048575
2026-01-18 07:13:26.63	122.50	10.00	-85.2	-88.6	3.1	1.56e+00	0	47	104	0	60	1048575
2026-01-18 07:13:27.63	122.45	10.08	-85.2	-88.6	2.8	1.56e+00	0	47	104	0	60	1048575
2026-01-18 07:13:28.64	122.40	10.16	-85.2	-88.6	3.1	1.55e+00	0	47	104	0	60	1048573
2026-01-18 07:13:29.65	122.35	10.25	-85.2	-88.6	3.2	1.56e+00	0	47	104	0	60	1048574
2026-01-18 07:13:30.65	122.30	10.33	-85.2	-88.6	2.9	1.56e+00	0	47	104	0	60	1048574
2026-01-18 07:13:31.65	122.25	10.42	-85.2	-88.6	3.1	1.56e+00	0	47	104	0	60	1048575
2026-01-18 07:13:32.66	122.20	10.51	-85.2	-88.6	2.8	1.56e+00	0	47	104	0	60	1048574
2026-01-18 07:13:33.67	122.15	10.59	-85.2	-88.6	3.1	1.56e+00	0	47	104	0	60	1048575
2026-01-18 07:13:34.68	122.10	10.68	-85.2	-88.6	3.0	1.56e+00	0	47	104	0	60	1048573
2026-01-18 07:13:35.68	122.05	10.77	-83.5	-88.6	3.0	1.56e+00	0	47	104	0	60	1048575
2026-01-18 07:13:36.69	122.00	10.85	-85.2	-88.6	3.2	1.56e+00	0	47	104	0	60	1048575
2026-01-18 07:13:37.70	121.94	10.94	-85.2	-88.6	2.9	1.56e+00	0	47	104	0	60	1048575
2026-01-18 07:13:38.71	121.89	11.03	-85.2	-88.6	3.1	1.56e+00	0	47	104	0	60	1048571
2026-01-18 07:13:39.71	121.84	11.12	-85.2	-88.6	3.1	1.56e+00	0	47	104	0	60	1048575
2026-01-18 07:13:40.72	121.79	11.20	-85.2	-88.6	3.0	1.56e+00	0	47	104	0	60	1048574
2026-01-18 07:13:41.72	121.73	11.29	-85.2	-88.6	3.0	1.56e+00	0	47	104	0	60	1048575
2026-01-18 07:13:42.73	121.68	11.38	-85.2	-88.6	3.0	1.56e+00	0	47	104	0	60	1048573
2026-01-18 07:13:43.74	121.63	11.47	-85.2	-88.6	3.1	1.56e+00	0	47	104	0	60	1048575
2026-01-18 07:13:44.75	121.57	11.56	-85.2	-88.6	3.0	1.56e+00	0	47	104	0	60	1048574
2026-01-18 07:13:45.76	121.52	11.65	-85.2	-88.6	2.9	1.56e+00	0	47	104	0	60	1048575
2026-01-18 07:13:46.76	121.46	11.74	-85.2	-88.6	3.2	1.56e+00	0	47	104	0	60	1048575
2026-01-18 07:13:47.77	121.41	11.83	-85.2	-88.6	3.1	1.56e+00	0	47	104	0	60	1048575
2026-01-18 07:13:48.78	121.35	11.92	-85.2	-88.6	2.9	1.56e+00	0	47	104	0	60	1048575
2026-01-18 07:13:49.78	121.30	12.01	-85.2	-88.6	2.8	1.56e+00	0	47	104	0	60	1048573
2026-01-18 07:13:50.79	121.24	12.10	-85.2	-88.6	2.9	1.55e+00	0	47	104	0	60	1048575
2026-01-18 07:13:51.80	121.18	12.20	-85.2	-88.6	3.0	1.55e+00	0	47	104	0	60	1048575
2026-01-18 07:13:52.81	121.13	12.29	-85.2	-88.6	3.1	1.56e+00	0	47	104	0	60	1048575
2026-01-18 07:13:53.81	121.07	12.38	-85.2	-88.6	3.1	1.56e+00	0	47	104	0	60	1048574
2026-01-18 07:13:54.82	121.01	12.47	-85.2	-88.6	3.1	1.56e+00	0	47	104	0	60	1048575
2026-01-18 07:13:55.83	120.95	12.57	-85.2	-88.6	3.0	1.56e+00	0	47	104	0	60	1048573
2026-01-18 07:13:56.83	120.89	12.66	-85.2	-88.6	3.1	1.56e+00	0	47	104	0	60	1048574
2026-01-18 07:13:57.83	120.83	12.75	-85.2	-88.6	3.1	1.56e+00	0	47	104	0	60	1048574
2026-01-18 07:13:58.84	120.78	12.85	-85.2	-88.6	3.0	1.56e+00	0	47	104	0	60	1048574
2026-01-18 07:13:59.84	120.72	12.94	-85.2	-88.6	3.1	1.56e+00	0	47	104	0	60	1048573
2026-01-18 07:14:00.85	120.66	13.03	-85.2	-88.6	3.1	1.55e+00	0	47	104	0	60	1048575
2026-01-18 07:14:01.85	120.60	13.13	-85.2	-88.6	3.0	1.55e+00	0	47	104	0	60	1048573
2026-01-18 07:14:02.86	120.53	13.22	-85.2	-88.6	2.9	1.55e+00	0	47	104	0	60	1048575
2026-01-18 07:14:03.87	120.47	13.32	-85.2	-88.6	3.1	1.56e+00	0	47	104	0	60	1048570
2026-01-18 07:14:04.87	120.41	13.41	-85.2	-88.6	3.1	1.56e+00	0	47	104	0	60	1048575
2026-01-18 07:14:05.88	120.35	13.51	-85.2	-88.6	3.1	1.55e+00	0	47	104	0	60	1048573
2026-01-18 07:14:06.89	120.29	13.61	-83.5	-88.6	3.0	1.56e+00	0	47	104	0	60	1048575
2026-01-18 07:14:07.90	120.22	13.71	-85.2	-88.6	3.1	1.56e+00	0	47	104	0	60	1048572
2026-01-18 07:14:08.90	120.16	13.80	-85.2	-88.6	3.1	1.55e+00	0	47	104	0	60	1048572
2026-01-18 07:14:09.91	120.10	13.90	-85.2	-88.6	2.9	1.56e+00	0	47	104	0	60	1048574
2026-01-18 07:14:10.92	120.03	14.00	-85.2	-88.6	2.9	1.56e+00	0	47	104	0	60	1048574
2026-01-18 07:14:11.92	119.97	14.10	-85.2	-88.6	3.1	1.56e+00	0	47	104	0	60	1048575
2026-01-18 07:14:12.92	119.90	14.19	-85.2	-88.6	3.1	1.56e+00	0	47	104	0	60	1048574
2026-01-18 07:14:13.93	119.84	14.29	-85.2	-88.6	3.0	1.55e+00	0	47	104	0	60	1048572
2026-01-18 07:14:14.94	119.77	14.39	-85.2	-88.6	3.1	1.55e+00	0	47	104	0	60	1048574
2026-01-18 07:14:15.94	119.70	14.49	-85.2	-88.6	3.1	1.56e+00	0	47	104	0	60	1048575
2026-01-18 07:14:16.95	119.64	14.59	-82.8	-88.6	2.9	1.56e+00	0	47	104	0	60	1048575
2026-01-18 07:14:17.96	119.57	14.69	-84.3	-88.6	2.9	1.56e+00	0	47	104	0	60	1048575
2026-01-18 07:14:18.97	119.50	14.79	-85.2	-88.6	2.9	1.56e+00	0	47	104	0	60	1048574
2026-01-18 07:14:19.98	119.43	14.90	-85.2	-88.6	3.1	1.55e+00	0	47	104	0	60	1048574
2026-01-18 07:14:20.99	119.36	15.00	-85.2	-88.6	3.0	1.55e+00	0	47	104	0	60	1048575
2026-01-18 07:14:21.99	119.29	15.10	-85.2	-88.6	2.9	1.55e+00	0	47	104	0	60	1048573
2026-01-18 07:14:23.00	119.22	15.20	-84.3	-88.6	3.1	1.56e+00	0	47	104	0	60	1048575
2026-01-18 07:14:24.01	119.15	15.31	-85.2	-88.6	3.1	1.56e+00	0	47	104	0	60	1048572
2026-01-18 07:14:25.02	119.08	15.41	-85.2	-88.6	2.9	1.56e+00	0	47	104	0	60	1048574
2026-01-18 07:14:26.03	119.01	15.51	-85.2	-88.6	2.9	1.56e+00	0	47	104	0	60	1048573
2026-01-18 07:14:27.03	118.94	15.62	-85.2	-88.6	3.1	1.56e+00	0	47	104	0	60	1048574
2026-01-18 07:14:28.04	118.86	15.72	-85.2	-88.6	2.8	1.56e+00	0	47	104	0	60	1048575
2026-01-18 07:14:29.05	118.79	15.83	-85.2	-88.6	3.1	1.55e+00	0	47	104	0	60	1048575
2026-01-18 07:14:30.05	118.72	15.93	-85.2	-88.6	2.9	1.56e+00	0	47	104	0	60	1048575
2026-01-18 07:14:31.05	118.64	16.04	-85.2	-88.6	3.0	1.56e+00	0	47	104	0	60	1048574
2026-01-18 07:14:32.05	118.57	16.14	-84.3	-88.6	3.0	1.56e+00	0	47	104	0	60	1048574
2026-01-18 07:14:33.06	118.49	16.25	-85.2	-88.6	3.1	1.56e+00	0	47	104	0	60	1048575
2026-01-18 07:14:34.07	118.42	16.35	-85.2	-88.6	2.9	1.55e+00	0	47	104	0	60	1048574
2026-01-18 07:14:35.08	118.34	16.46	-85.2	-88.6	3.1	1.56e+00	0	47	104	0	60	1048574
2026-01-18 07:14:36.08	118.26	16.57	-85.2	-88.6	3.2	1.56e+00	0	47	104	0	60	1048575
2026-01-18 07:14:37.09	118.18	16.68	-85.2	-88.6	2.9	1.55e+00	0	47	104	0	60	1048575
2026-01-18 07:14:38.10	118.11	16.79	-85.2	-88.6	3.0	1.56e+00	0	47	104	0	60	1048574
2026-01-18 07:14:39.11	118.03	16.90	-85.2	-88.6	3.0	1.56e+00	0	47	104	0	60	1048575
2026-01-18 07:14:40.12	117.95	17.00	-85.2	-88.6	3.1	1.56e+00	0	47	104	0	60	1048575
2026-01-18 07:14:41.13	117.87	17.12	-85.2	-88.6	3.0	1.55e+00	0	47	104	0	60	1048574
2026-01-18 07:14:42.13	117.79	17.22	-85.2	-88.6	3.0	1.55e+00	0	47	104	0	60	1048575
2026-01-18 07:14:43.14	117.71	17.34	-85.2	-88.6	3.0	1.56e+00	0	47	104	0	60	1048575
2026-01-18 07:14:44.15	117.62	17.45	-85.2	-88.6	3.1	1.56e+00	0	47	104	0	60	1048574
2026-01-18 07:14:45.15	117.54	17.56	-85.2	-88.6	2.9	1.56e+00	0	47	104	0	60	1048573
2026-01-18 07:14:46.16	117.46	17.67	-85.2	-88.6	3.1	1.56e+00	0	47	104	0	60	1048573
2026-01-18 07:14:47.17	117.37	17.78	-85.2	-88.6	3.2	1.56e+00	0	47	104	0	60	1048575
2026-01-18 07:14:48.17	117.29	17.89	-85.2	-88.6	3.1	1.56e+00	0	47	104	0	60	1048575
2026-01-18 07:14:49.17	117.21	18.01	-85.2	-88.6	3.0	1.56e+00	0	47	104	0	60	1048574
2026-01-18 07:14:50.18	117.12	18.12	-85.2	-88.6	3.1	1.56e+00	0	47	104	0	60	1048570
2026-01-18 07:14:51.19	117.03	18.24	-85.2	-88.6	3.1	1.56e+00	0	47	104	0	60	1048571
2026-01-18 07:14:52.20	116.95	18.35	-85.2	-88.6	3.1	1.56e+00	0	47	104	0	60	1048570
2026-01-18 07:14:53.20	116.86	18.47	-84.7	-88.6	2.8	1.55e+00	0	47	104	0	60	1048574
2026-01-18 07:14:54.21	116.77	18.58	-85.2	-88.6	2.8	1.55e+00	0	47	104	0	60	1048573
2026-01-18 07:14:55.22	116.68	18.70	-85.2	-88.6	3.1	1.55e+00	0	47	104	0	60	1048571
2026-01-18 07:14:56.23	116.59	18.82	-85.2	-88.6	3.0	1.56e+00	0	47	104	0	60	1048575
2026-01-18 07:14:57.23	116.50	18.93	-85.2	-88.6	3.2	1.56e+00	0	47	104	0	60	1048575
2026-01-18 07:14:58.24	116.41	19.05	-85.2	-88.6	3.0	1.56e+00	0	47	104	0	60	1048575
2026-01-18 07:14:59.25	116.32	19.17	-85.2	-88.6	2.9	1.56e+00	0	47	104	0	60	1048575
2026-01-18 07:15:00.25	116.22	19.29	-85.2	-88.6	3.2	1.55e+00	0	47	104	0	60	1048575
2026-01-18 07:15:01.25	116.13	19.40	-85.2	-88.6	3.2	1.56e+00	0	47	104	0	60	1048574
2026-01-18 07:15:02.26	116.04	19.52	-85.2	-88.6	3.0	1.56e+00	0	47	104	0	60	1048574
2026-01-18 07:15:03.27	115.94	19.64	-85.2	-88.6	2.9	1.56e+00	0	47	104	0	60	1048575
2026-01-18 07:15:04.28	115.85	19.76	-85.2	-88.6	3.1	1.56e+00	0	47	104	0	60	1048575
2026-01-18 07:15:05.28	115.75	19.88	-85.2	-88.6	2.9	1.56e+00	0	47	104	0	60	1048575
2026-01-18 07:15:06.29	115.65	20.01	-85.2	-88.6	3.2	1.56e+00	0	47	104	0	60	1048573
2026-01-18 07:15:07.30	115.55	20.13	-84.7	-88.6	2.9	1.55e+00	0	47	104	0	60	1048575
2026-01-18 07:15:08.31	115.45	20.25	-85.2	-88.6	3.1	1.56e+00	0	47	104	0	60	1048571
2026-01-18 07:15:09.32	115.35	20.37	-85.2	-88.6	3.2	1.56e+00	0	47	104	0	60	1048574
2026-01-18 07:15:10.33	115.25	20.50	-85.2	-88.6	3.0	1.56e+00	0	47	104	0	60	1048574
2026-01-18 07:15:11.34	115.15	20.62	-85.2	-88.6	2.9	1.56e+00	0	47	104	0	60	1048575
2026-01-18 07:15:12.34	115.05	20.75	-85.2	-88.6	2.9	1.56e+00	0	47	104	0	60	1048575
2026-01-18 07:15:13.35	114.95	20.87	-85.2	-88.6	3.0	1.56e+00	0	47	104	0	60	1048573
2026-01-18 07:15:14.36	114.84	21.00	-85.2	-88.6	2.9	1.56e+00	0	47	104	0	60	1048575
2026-01-18 07:15:15.36	114.74	21.12	-85.2	-88.6	3.1	1.56e+00	0	47	104	0	60	1048572
2026-01-18 07:15:16.37	114.63	21.25	-85.2	-88.6	3.0	1.56e+00	0	47	104	0	60	1048575
2026-01-18 07:15:17.37	114.53	21.38	-85.2	-88.6	3.1	1.56e+00	0	47	104	0	60	1048575
2026-01-18 07:15:18.37	114.42	21.50	-85.2	-88.6	3.1	1.56e+00	0	47	104	0	60	1048575
2026-01-18 07:15:19.38	114.31	21.63	-85.2	-88.6	3.1	1.56e+00	0	47	104	0	60	1048574
2026-01-18 07:15:20.39	114.20	21.76	-85.2	-88.6	3.1	1.56e+00	0	47	104	0	60	1048575
2026-01-18 07:15:21.39	114.09	21.89	-85.2	-88.6	3.1	1.55e+00	0	47	104	0	60	1048575
2026-01-18 07:15:22.40	113.98	22.02	-85.2	-88.6	3.1	1.55e+00	0	47	104	0	60	1048574
2026-01-18 07:15:23.41	113.87	22.15	-85.2	-88.6	3.0	1.56e+00	0	47	104	0	60	1048575
2026-01-18 07:15:24.41	113.75	22.28	-85.2	-88.6	3.1	1.56e+00	0	47	104	0	60	1048570
2026-01-18 07:15:25.42	113.64	22.41	-85.2	-88.6	3.1	1.56e+00	0	47	104	0	60	1048574
2026-01-18 07:15:26.43	113.52	22.54	-85.2	-88.6	3.1	1.55e+00	0	47	104	0	60	1048574
2026-01-18 07:15:27.44	113.41	22.68	-84.3	-88.6	3.0	1.56e+00	0	47	104	0	60	1048575
2026-01-18 07:15:28.44	113.29	22.81	-85.2	-88.6	3.1	1.56e+00	0	47	104	0	60	1048574
2026-01-18 07:15:29.45	113.17	22.94	-85.2	-88.6	2.9	1.56e+00	0	47	104	0	60	1048574
2026-01-18 07:15:30.46	113.05	23.08	-85.2	-88.6	3.0	1.56e+00	0	47	104	0	60	1048573
2026-01-18 07:15:31.46	112.93	23.21	-85.2	-88.6	3.1	1.56e+00	0	47	104	0	60	1048572
2026-01-18 07:15:32.47	112.81	23.35	-85.2	-88.6	3.1	1.56e+00	0	47	104	0	60	1048575
2026-01-18 07:15:33.48	112.69	23.48	-85.2	-88.6	3.1	1.55e+00	0	47	104	0	60	1048575
2026-01-18 07:15:34.49	112.56	23.62	-85.2	-88.6	3.1	1.56e+00	0	47	104	0	60	1048575
2026-01-18 07:15:35.49	112.44	23.76	-85.2	-88.6	2.9	1.56e+00	0	47	104	0	60	1048575
2026-01-18 07:15:36.49	112.32	23.89	-85.2	-88.6	2.9	1.56e+00	0	47	104	0	60	1048575
2026-01-18 07:15:37.50	112.19	24.03	-84.7	-88.6	3.0	1.56e+00	0	47	104	0	60	1048570
2026-01-18 07:15:38.51	112.06	24.17	-85.2	-88.6	3.0	1.55e+00	0	47	104	0	60	1048573
2026-01-18 07:15:39.51	111.93	24.31	-85.2	-88.6	3.3	1.56e+00	0	47	104	0	60	1048575
2026-01-18 07:15:40.52	111.80	24.45	-85.2	-88.6	2.8	1.56e+00	0	47	104	0	60	1048574
2026-01-18 07:15:41.53	111.67	24.59	-85.2	-88.6	3.1	1.56e+00	0	47	104	0	60	1048575
2026-01-18 07:15:42.53	111.54	24.73	-85.2	-88.6	3.1	1.56e+00	0	47	104	0	60	1048575
2026-01-18 07:15:43.54	111.40	24.87	-85.2	-88.6	3.1	1.56e+00	0	47	104	0	60	1048573
2026-01-18 07:15:44.55	111.27	25.02	-85.2	-88.6	3.0	1.56e+00	0	47	104	0	60	1048573
2026-01-18 07:15:45.55	111.13	25.16	-85.2	-88.6	3.0	1.56e+00	0	47	104	0	60	1048575
2026-01-18 07:15:46.56	110.99	25.30	-85.2	-88.6	3.0	1.56e+00	0	47	104	0	60	1048574
2026-01-18 07:15:47.57	110.85	25.45	-85.2	-88.6	3.0	1.56e+00	0	47	104	0	60	1048570
2026-01-18 07:15:48.57	110.71	25.59	-85.2	-88.6	3.0	1.56e+00	0	47	104	0	60	1048574
2026-01-18 07:15:49.58	110.57	25.74	-85.2	-88.6	3.0	1.56e+00	0	47	104	0	60	1048574
2026-01-18 07:15:50.59	110.43	25.88	-85.2	-88.6	2.9	1.55e+00	0	47	104	0	60	1048574
2026-01-18 07:15:51.60	110.28	26.03	-85.2	-88.6	2.9	1.55e+00	0	47	104	0	60	1048573
2026-01-18 07:15:52.60	110.14	26.18	-84.3	-88.6	3.0	1.56e+00	0	47	104	0	60	1048575
2026-01-18 07:15:53.61	109.99	26.32	-85.2	-88.6	3.1	1.55e+00	0	47	104	0	60	1048575
2026-01-18 07:15:54.61	109.84	26.47	-85.2	-88.6	3.2	1.56e+00	0	47	104	0	60	1048575
2026-01-18 07:15:55.62	109.69	26.62	-85.2	-88.6	3.0	1.56e+00	0	47	104	0	60	1048573
2026-01-18 07:15:56.63	109.54	26.77	-85.2	-88.6	3.1	1.55e+00	0	47	104	0	60	1048573
2026-01-18 07:15:57.64	109.39	26.92	-85.2	-88.6	3.0	1.56e+00	0	47	104	0	60	1048575
2026-01-18 07:15:58.64	109.23	27.07	-85.2	-88.6	3.0	1.55e+00	0	47	104	0	60	1048575
2026-01-18 07:15:59.65	109.08	27.22	-85.2	-88.6	2.7	1.56e+00	0	47	104	0	60	1048575
2026-01-18 07:16:00.65	108.92	27.37	-85.2	-88.6	3.1	1.56e+00	0	47	104	0	60	1048575
2026-01-18 07:16:01.66	108.76	27.52	-85.2	-88.6	3.0	1.55e+00	0	47	104	0	60	1048575
2026-01-18 07:16:02.67	108.60	27.68	-85.2	-88.6	3.1	1.55e+00	0	47	104	0	60	1048575
2026-01-18 07:16:03.68	108.44	27.83	-85.2	-88.6	2.8	1.56e+00	0	47	104	0	60	1048575
2026-01-18 07:16:04.69	108.28	27.99	-85.2	-88.6	3.1	1.55e+00	0	47	104	0	60	1048575
2026-01-18 07:16:05.69	108.11	28.14	-85.2	-88.6	3.1	1.55e+00	0	47	104	0	60	1048575
2026-01-18 07:16:06.70	107.94	28.30	-85.2	-88.6	3.0	1.55e+00	0	47	104	0	60	1048574
2026-01-18 07:16:07.70	107.78	28.45	-85.2	-88.6	2.9	1.56e+00	0	47	104	0	60	1048573
2026-01-18 07:16:08.70	107.61	28.61	-85.2	-88.6	3.0	1.56e+00	0	47	104	0	60	1048575
2026-01-18 07:16:09.71	107.44	28.76	-85.2	-88.6	2.7	1.56e+00	0	47	104	0	60	1048574
2026-01-18 07:16:10.72	107.26	28.92	-85.2	-88.6	3.0	1.55e+00	0	47	104	0	60	1048573
2026-01-18 07:16:11.73	107.09	29.08	-85.2	-88.6	3.2	1.55e+00	0	47	104	0	60	1048575
2026-01-18 07:16:12.74	106.91	29.24	-85.2	-88.6	3.1	1.56e+00	0	47	104	0	60	1048575
2026-01-18 07:16:13.75	106.73	29.40	-85.2	-88.6	3.3	1.56e+00	0	47	104	0	60	1048573
2026-01-18 07:16:14.75	106.55	29.56	-85.2	-88.6	3.0	1.56e+00	0	47	104	0	60	1048575
2026-01-18 07:16:15.76	106.37	29.72	-85.2	-88.6	3.0	1.56e+00	0	47	104	0	60	1048575
2026-01-18 07:16:16.76	106.18	29.88	-85.2	-88.6	3.2	1.56e+00	0	47	104	0	60	1048574
2026-01-18 07:16:17.77	106.00	30.04	-85.2	-88.6	3.0	1.55e+00	0	47	104	0	60	1048572
2026-01-18 07:16:18.78	105.81	30.21	-85.2	-88.6	3.0	1.55e+00	0	47	104	0	60	1048572
2026-01-18 07:16:19.79	105.62	30.37	-85.2	-88.6	3.0	1.56e+00	0	47	104	0	60	1048574
2026-01-18 07:16:20.80	105.42	30.53	-85.2	-88.6	3.2	1.56e+00	0	47	104	0	60	1048575
2026-01-18 07:16:21.81	105.23	30.70	-85.2	-88.6	3.1	1.56e+00	0	47	104	0	60	1048573
2026-01-18 07:16:22.81	105.03	30.86	-85.2	-88.6	2.9	1.56e+00	0	47	104	0	60	1048575
2026-01-18 07:16:23.82	104.84	31.03	-85.2	-88.6	3.0	1.55e+00	0	47	104	0	60	1048571
2026-01-18 07:16:24.82	104.64	31.19	-85.2	-88.6	2.9	1.55e+00	0	47	104	0	60	1048575
2026-01-18 07:16:25.83	104.43	31.36	-85.2	-88.6	3.2	1.55e+00	0	47	104	0	60	1048571
2026-01-18 07:16:26.83	104.23	31.52	-85.2	-88.6	3.0	1.56e+00	0	47	104	0	60	1048575
2026-01-18 07:16:27.83	104.03	31.69	-85.2	-88.6	3.2	1.56e+00	0	47	104	0	60	1048574
2026-01-18 07:16:28.83	103.82	31.86	-85.2	-88.6	2.9	1.56e+00	0	47	104	0	60	1048573
2026-01-18 07:16:29.84	103.61	32.03	-85.2	-88.6	3.0	1.56e+00	0	47	104	0	60	1048575
2026-01-18 07:16:30.85	103.39	32.19	-85.2	-88.6	2.9	1.56e+00	0	47	104	0	60	1048575
2026-01-18 07:16:31.85	103.18	32.36	-85.2	-88.6	3.1	1.56e+00	0	47	104	0	60	1048575
2026-01-18 07:16:32.86	102.96	32.53	-85.2	-88.6	3.0	1.56e+00	0	47	104	0	60	1048575
2026-01-18 07:16:33.87	102.74	32.70	-85.2	-88.6	3.0	1.56e+00	0	47	104	0	60	1048575
2026-01-18 07:16:34.87	102.52	32.87	-85.2	-88.6	2.9	1.56e+00	0	47	104	0	60	1048574
2026-01-18 07:16:35.88	102.30	33.05	-85.2	-88.6	3.1	1.56e+00	0	47	104	0	60	1048574
2026-01-18 07:16:36.89	102.07	33.22	-85.2	-88.6	3.1	1.55e+00	0	47	104	0	60	1048574
2026-01-18 07:16:37.90	101.84	33.39	-85.2	-88.6	3.0	1.55e+00	0	47	104	0	60	1048575
2026-01-18 07:16:38.91	101.61	33.56	-85.2	-88.6	2.9	1.56e+00	0	47	104	0	60	1048572
2026-01-18 07:16:39.90	101.38	33.73	-85.2	-88.6	2.9	1.56e+00	0	47	104	0	60	1048575
2026-01-18 07:16:40.91	101.14	33.91	-85.2	-88.6	2.8	1.55e+00	0	47	104	0	60	1048575
2026-01-18 07:16:41.92	100.90	34.08	-85.2	-88.6	3.1	1.56e+00	0	47	104	0	60	1048575
2026-01-18 07:16:42.93	100.65	34.26	-85.2	-88.6	3.2	1.55e+00	0	47	104	0	60	1048573
2026-01-18 07:16:43.94	100.41	34.43	-85.2	-88.6	3.1	1.56e+00	0	47	104	0	60	1048575
2026-01-18 07:16:44.94	100.16	34.61	-85.2	-88.6	3.1	1.56e+00	0	47	104	0	60	1048574
2026-01-18 07:16:45.94	99.91	34.78	-85.2	-88.6	3.1	1.56e+00	0	47	104	0	60	1048575
2026-01-18 07:16:46.95	99.66	34.96	-85.2	-88.6	3.2	1.56e+00	0	47	104	0	60	1048574
2026-01-18 07:16:47.95	99.41	35.13	-85.2	-88.6	3.1	1.56e+00	0	47	104	0	60	1048573
2026-01-18 07:16:48.96	99.15	35.31	-85.2	-88.6	3.0	1.56e+00	0	47	104	0	60	1048574
2026-01-18 07:16:49.97	98.89	35.48	-85.2	-88.6	3.3	1.56e+00	0	47	104	0	60	1048575
2026-01-18 07:16:50.97	98.62	35.66	-85.2	-88.6	3.0	1.56e+00	0	47	104	0	60	1048575
2026-01-18 07:16:51.98	98.36	35.84	-85.2	-88.6	3.0	1.56e+00	0	47	104	0	60	1048575
2026-01-18 07:16:52.99	98.09	36.02	-85.2	-88.6	3.0	1.56e+00	0	47	104	0	60	1048575
2026-01-18 07:16:54.00	97.81	36.19	-85.2	-88.6	3.2	1.55e+00	0	47	104	0	60	1048574
2026-01-18 07:16:55.01	97.54	36.37	-85.2	-88.6	3.2	1.55e+00	0	47	104	0	60	1048575
2026-01-18 07:16:56.01	97.26	36.55	-85.2	-88.6	3.0	1.56e+00	0	47	104	0	60	1048575
2026-01-18 07:16:57.02	96.98	36.73	-85.2	-88.6	3.1	1.56e+00	0	47	104	0	60	1048573
2026-01-18 07:16:58.03	96.69	36.91	-85.2	-88.6	3.1	1.56e+00	0	47	104	0	60	1048575
2026-01-18 07:16:59.03	96.40	37.08	-85.2	-88.6	3.0	1.55e+00	0	47	104	0	60	1048574
2026-01-18 07:17:00.04	96.11	37.26	-85.2	-88.6	3.0	1.56e+00	0	47	104	0	60	1048573
2026-01-18 07:17:01.05	95.82	37.44	-85.2	-88.6	2.9	1.56e+00	0	47	104	0	60	1048574
2026-01-18 07:17:02.05	95.52	37.62	-85.2	-88.6	3.0	1.56e+00	0	47	104	0	60	1048574
2026-01-18 07:17:03.06	95.22	37.80	-85.2	-88.6	2.8	1.56e+00	0	47	104	0	60	1048575
2026-01-18 07:17:04.07	94.91	37.98	-85.2	-88.6	3.0	1.56e+00	0	47	104	0	60	1048575
2026-01-18 07:17:05.07	94.61	38.16	-85.2	-88.6	2.9	1.56e+00	0	47	104	0	60	1048575
2026-01-18 07:17:06.08	94.29	38.34	-85.2	-88.6	2.9	1.56e+00	0	47	104	0	60	1048573
2026-01-18 07:17:07.09	93.98	38.52	-85.2	-88.6	3.2	1.56e+00	0	47	104	0	60	1048574
2026-01-18 07:17:08.09	93.66	38.69	-85.2	-88.6	2.9	1.55e+00	0	47	104	0	60	1048573
2026-01-18 07:17:09.10	93.34	38.87	-85.2	-88.6	2.9	1.55e+00	0	47	104	0	60	1048575
2026-01-18 07:17:10.11	93.01	39.05	-85.2	-88.6	3.2	1.55e+00	0	47	104	0	60	1048574
2026-01-18 07:17:11.12	92.68	39.23	-85.2	-88.6	3.1	1.55e+00	0	47	104	0	60	1048573
2026-01-18 07:17:12.12	92.35	39.41	-85.2	-88.6	3.0	1.56e+00	0	47	104	0	60	1048574
2026-01-18 07:17:13.13	92.01	39.59	-85.2	-88.6	3.1	1.55e+00	0	47	104	0	60	1048574
2026-01-18 07:17:14.13	91.67	39.76	-85.2	-88.6	3.2	1.56e+00	0	47	104	0	60	1048575
2026-01-18 07:17:15.14	91.33	39.94	-85.2	-88.6	3.1	1.56e+00	0	47	104	0	60	1048574
2026-01-18 07:17:16.14	90.98	40.12	-85.2	-88.6	3.0	1.56e+00	0	47	104	0	60	1048575
2026-01-18 07:17:17.15	90.63	40.30	-85.2	-88.6	3.0	1.56e+00	0	47	104	0	60	1048574
2026-01-18 07:17:18.15	90.28	40.47	-85.2	-88.6	2.9	1.56e+00	0	47	104	0	60	1048575
2026-01-18 07:17:19.16	89.92	40.65	-85.2	-88.6	2.9	1.56e+00	0	47	104	0	60	1048575
2026-01-18 07:17:20.16	89.56	40.82	-85.2	-88.6	3.1	1.55e+00	0	47	104	0	60	1048575
2026-01-18 07:17:21.17	89.19	41.00	-85.2	-88.6	3.0	1.56e+00	0	47	104	0	60	1048575
2026-01-18 07:17:22.17	88.82	41.17	-85.2	-88.6	2.9	1.56e+00	0	47	104	0	60	1048574
2026-01-18 07:17:23.18	88.44	41.35	-85.2	-88.6	3.0	1.56e+00	0	47	104	0	60	1048575
2026-01-18 07:17:24.18	88.07	41.52	-85.2	-88.6	3.3	1.56e+00	0	47	104	0	60	1048573
2026-01-18 07:17:25.19	87.68	41.69	-85.2	-88.6	3.1	1.56e+00	0	47	104	0	60	1048571
2026-01-18 07:17:26.19	87.30	41.86	-85.2	-88.6	3.0	1.55e+00	0	47	104	0	60	1048575
2026-01-18 07:17:27.19	86.91	42.03	-85.2	-88.6	3.0	1.56e+00	0	47	104	0	60	1048575
2026-01-18 07:17:28.20	86.51	42.21	-85.2	-88.6	2.9	1.55e+00	0	47	104	0	60	1048575
2026-01-18 07:17:29.20	86.11	42.37	-85.2	-88.6	2.8	1.56e+00	0	47	104	0	60	1048575
2026-01-18 07:17:30.20	85.71	42.54	-85.2	-88.6	2.9	1.55e+00	0	47	104	0	60	1048575
2026-01-18 07:17:31.20	85.30	42.71	-85.2	-88.6	3.0	1.56e+00	0	47	104	0	60	1048574
2026-01-18 07:17:32.21	84.89	42.88	-85.2	-88.6	3.1	1.56e+00	0	47	104	0	60	1048573
2026-01-18 07:17:33.21	84.48	43.04	-85.2	-88.6	2.7	1.56e+00	0	47	104	0	60	1048575
2026-01-18 07:17:34.22	84.05	43.21	-85.2	-88.6	2.9	1.56e+00	0	47	104	0	60	1048574
2026-01-18 07:17:35.23	83.62	43.37	-85.2	-88.6	3.0	1.55e+00	0	47	104	0	60	1048571
2026-01-18 07:17:36.24	83.19	43.54	-85.2	-88.6	2.9	1.55e+00	0	47	104	0	60	1048575
2026-01-18 07:17:37.24	82.76	43.70	-85.2	-88.6	3.1	1.56e+00	0	47	104	0	60	1048575
2026-01-18 07:17:38.25	82.32	43.86	-85.2	-88.6	2.9	1.56e+00	0	47	104	0	60	1048574
2026-01-18 07:17:39.24	81.88	44.02	-85.2	-88.6	3.0	1.56e+00	0	47	104	0	60	1048575
2026-01-18 07:17:40.25	81.43	44.18	-85.2	-88.6	3.2	1.55e+00	0	47	104	0	60	1048572
2026-01-18 07:17:41.26	80.98	44.33	-85.2	-88.6	3.0	1.56e+00	0	47	104	0	60	1048573
2026-01-18 07:17:42.26	80.53	44.49	-85.2	-88.6	2.9	1.56e+00	0	47	104	0	60	1048574
2026-01-18 07:17:43.27	80.06	44.64	-85.2	-88.6	2.9	1.56e+00	0	47	104	0	60	1048575
2026-01-18 07:17:44.28	79.59	44.80	-85.2	-88.6	2.9	1.56e+00	0	47	104	0	60	1048575
2026-01-18 07:17:45.29	79.12	44.95	-85.2	-88.6	3.1	1.56e+00	0	47	104	0	60	1048575
2026-01-18 07:17:46.29	78.65	45.10	-85.2	-88.6	3.0	1.55e+00	0	47	104	0	60	1048575
2026-01-18 07:17:47.29	78.17	45.25	-84.3	-88.6	3.0	1.55e+00	0	47	104	0	60	1048575
2026-01-18 07:17:48.30	77.69	45.39	-85.2	-88.6	3.2	1.55e+00	0	47	104	0	60	1048575
2026-01-18 07:17:49.31	77.20	45.54	-85.2	-88.6	2.7	1.56e+00	0	47	104	0	60	1048574
2026-01-18 07:17:50.32	76.70	45.68	-85.2	-88.6	2.9	1.56e+00	0	47	104	0	60	1048573
2026-01-18 07:17:51.33	76.20	45.82	-85.2	-88.6	3.2	1.56e+00	0	47	104	0	60	1048575
2026-01-18 07:17:52.33	75.71	45.96	-85.2	-88.6	3.1	1.56e+00	0	47	104	0	60	1048575
2026-01-18 07:17:53.34	75.20	46.10	-85.2	-88.6	3.0	1.56e+00	0	47	104	0	60	1048575
2026-01-18 07:17:54.35	74.68	46.23	-85.2	-88.6	3.0	1.56e+00	0	47	104	0	60	1048575
2026-01-18 07:17:55.36	74.17	46.36	-85.2	-88.6	3.0	1.56e+00	0	47	104	0	60	1048575
2026-01-18 07:17:56.37	73.65	46.50	-85.2	-88.6	3.0	1.56e+00	0	47	104	0	60	1048574
2026-01-18 07:17:57.37	73.13	46.62	-85.2	-88.6	3.1	1.55e+00	0	47	104	0	60	1048575
2026-01-18 07:17:58.38	72.60	46.75	-85.2	-88.6	3.2	1.56e+00	0	47	104	0	60	1048575
2026-01-18 07:17:59.39	72.06	46.87	-85.2	-88.6	3.0	1.56e+00	0	47	104	0	60	1048574
2026-01-18 07:18:00.40	71.52	47.00	-85.2	-88.6	2.9	1.55e+00	0	47	104	0	60	1048575
2026-01-18 07:18:01.41	70.98	47.11	-85.2	-88.6	3.2	1.56e+00	0	47	104	0	60	1048574
2026-01-18 07:18:02.41	70.44	47.23	-85.2	-88.6	2.9	1.56e+00	0	47	104	0	60	1048575
2026-01-18 07:18:03.42	69.89	47.34	-85.2	-88.6	3.1	1.56e+00	0	47	104	0	60	1048575
2026-01-18 07:18:04.43	69.33	47.46	-85.2	-88.6	3.0	1.55e+00	0	47	104	0	60	1048575
2026-01-18 07:18:05.44	68.78	47.56	-85.2	-88.6	2.9	1.56e+00	0	47	104	0	60	1048568
2026-01-18 07:18:06.44	68.22	47.67	-85.2	-88.6	3.1	1.56e+00	0	47	104	0	60	1048575
2026-01-18 07:18:07.45	67.65	47.77	-85.2	-88.6	3.2	1.56e+00	0	47	104	0	60	1048575
2026-01-18 07:18:08.46	67.08	47.87	-85.2	-88.6	3.0	1.56e+00	0	47	104	0	60	1048565
2026-01-18 07:18:09.47	66.51	47.97	-85.2	-88.6	3.0	1.56e+00	0	47	104	0	60	1048574
2026-01-18 07:18:10.47	65.94	48.07	-85.2	-88.6	3.3	1.56e+00	0	47	104	0	60	1048573
2026-01-18 07:18:11.48	65.36	48.16	-85.2	-88.6	3.2	1.56e+00	0	47	104	0	60	1048573
2026-01-18 07:18:12.49	64.77	48.25	-85.2	-88.6	3.1	1.55e+00	0	47	104	0	60	1048575
2026-01-18 07:18:13.50	64.19	48.33	-85.2	-88.6	3.0	1.55e+00	0	47	104	0	60	1048575
2026-01-18 07:18:14.51	63.59	48.41	-85.2	-88.6	3.0	1.56e+00	0	47	104	0	60	1048574
2026-01-18 07:18:15.52	63.00	48.49	-85.2	-88.6	2.9	1.56e+00	0	47	104	0	60	1048575
2026-01-18 07:18:16.53	62.40	48.57	-85.2	-88.6	3.2	1.56e+00	0	47	104	0	60	1048575
2026-01-18 07:18:17.53	61.81	48.64	-85.2	-88.6	3.2	1.56e+00	0	47	104	0	60	1048575
2026-01-18 07:18:18.54	61.21	48.71	-85.2	-88.6	2.9	1.56e+00	0	47	104	0	60	1048575
2026-01-18 07:18:19.55	60.60	48.78	-85.2	-88.6	2.9	1.56e+00	0	47	104	0	60	1048571
2026-01-18 07:18:20.56	60.00	48.84	-85.2	-88.6	3.0	1.56e+00	0	47	104	0	60	1048573
2026-01-18 07:18:21.56	59.39	48.90	-85.2	-88.6	2.9	1.56e+00	0	47	104	0	60	1048575
2026-01-18 07:18:22.57	58.78	48.96	-85.2	-88.6	3.1	1.56e+00	0	47	104	0	60	1048575
2026-01-18 07:18:23.58	58.16	49.01	-85.2	-88.6	3.0	1.56e+00	0	47	104	0	60	1048575
2026-01-18 07:18:24.59	57.55	49.06	-85.2	-88.6	2.9	1.56e+00	0	47	104	0	60	1048575
2026-01-18 07:18:25.60	56.93	49.10	-85.2	-88.6	2.9	1.55e+00	0	47	104	0	60	1048574
2026-01-18 07:18:26.60	56.32	49.14	-85.2	-88.6	3.0	1.56e+00	0	47	104	0	60	1048573
2026-01-18 07:18:27.61	55.69	49.18	-85.2	-88.6	3.2	1.56e+00	0	47	104	0	60	1048575
2026-01-18 07:18:28.61	55.08	49.22	-85.2	-88.6	3.1	1.56e+00	0	47	104	0	60	1048575
2026-01-18 07:18:29.62	54.45	49.25	-85.2	-88.6	3.1	1.56e+00	0	47	104	0	60	1048575
2026-01-18 07:18:30.62	53.83	49.28	-85.2	-88.6	2.9	1.56e+00	0	47	104	0	60	1048575
2026-01-18 07:18:31.63	53.21	49.30	-85.2	-88.6	3.1	1.55e+00	0	47	104	0	60	1048575
2026-01-18 07:18:32.64	52.58	49.32	-85.2	-88.6	3.0	1.56e+00	0	47	104	0	60	1048575
2026-01-18 07:18:33.65	51.95	49.34	-85.2	-88.6	2.9	1.56e+00	0	47	104	0	60	1048574
2026-01-18 07:18:34.65	51.33	49.35	-85.2	-88.6	2.8	1.55e+00	0	47	104	0	60	1048575
2026-01-18 07:18:35.66	50.70	49.36	-85.2	-88.6	2.9	1.56e+00	0	47	104	0	60	1048575
2026-01-18 07:18:36.67	50.07	49.37	-85.2	-88.6	3.1	1.56e+00	0	47	104	0	60	1048575
2026-01-18 07:18:37.68	49.44	49.37	-84.3	-88.6	2.8	1.55e+00	0	47	104	0	60	1048575
2026-01-18 07:18:38.68	48.81	49.37	-85.2	-88.6	2.9	1.55e+00	0	47	104	0	60	1048575
2026-01-18 07:18:39.69	48.18	49.36	-85.2	-88.6	3.0	1.55e+00	0	47	104	0	60	1048572
2026-01-18 07:18:40.69	47.56	49.35	-85.2	-88.6	2.9	1.56e+00	0	47	104	0	60	1048575
2026-01-18 07:18:41.69	46.94	49.34	-85.2	-88.6	3.1	1.56e+00	0	47	104	0	60	1048573
2026-01-18 07:18:42.70	46.31	49.32	-85.2	-88.6	2.7	1.56e+00	0	47	104	0	60	1048575
2026-01-18 07:18:43.71	45.68	49.30	-85.2	-88.6	3.2	1.55e+00	0	47	104	0	60	1048575
2026-01-18 07:18:44.72	45.06	49.28	-85.2	-88.6	3.0	1.56e+00	0	47	104	0	60	1048574
2026-01-18 07:18:45.73	44.43	49.25	-85.2	-88.6	3.0	1.56e+00	0	47	104	0	60	1048575
2026-01-18 07:18:46.73	43.81	49.22	-85.2	-88.6	3.0	1.56e+00	0	47	104	0	60	1048572
2026-01-18 07:18:47.74	43.19	49.18	-85.2	-88.6	3.2	1.55e+00	0	47	104	0	60	1048570
2026-01-18 07:18:48.75	42.57	49.15	-85.2	-88.6	2.8	1.56e+00	0	47	104	0	60	1048572
2026-01-18 07:18:49.76	41.95	49.10	-85.2	-88.6	2.9	1.55e+00	0	47	104	0	60	1048571
2026-01-18 07:18:50.77	41.33	49.06	-85.2	-88.6	3.1	1.56e+00	0	47	104	0	60	1048574
2026-01-18 07:18:51.77	40.72	49.01	-85.2	-88.6	3.0	1.56e+00	0	47	104	0	60	1048573
2026-01-18 07:18:52.77	40.11	48.96	-85.2	-88.6	3.0	1.55e+00	0	47	104	0	60	1048575
2026-01-18 07:18:53.78	39.50	48.90	-85.2	-88.6	3.0	1.56e+00	0	47	104	0	60	1048575
2026-01-18 07:18:54.79	38.89	48.84	-85.2	-88.6	3.0	1.56e+00	0	47	104	0	60	1048575
2026-01-18 07:18:55.79	38.29	48.78	-85.2	-88.6	3.0	1.56e+00	0	47	104	0	60	1048573
2026-01-18 07:18:56.80	37.68	48.71	-85.2	-88.6	3.0	1.56e+00	0	47	104	0	60	1048574
2026-01-18 07:18:57.81	37.08	48.64	-84.7	-88.6	3.0	1.56e+00	0	47	104	0	60	1048574
2026-01-18 07:18:58.82	36.48	48.57	-85.2	-88.6	3.1	1.56e+00	0	47	104	0	60	1048575
2026-01-18 07:18:59.82	35.89	48.50	-85.2	-88.6	3.0	1.56e+00	0	47	104	0	60	1048575
2026-01-18 07:19:00.82	35.30	48.42	-85.2	-88.6	2.9	1.56e+00	0	47	104	0	60	1048575
2026-01-18 07:19:01.83	34.71	48.33	-85.2	-88.6	3.0	1.56e+00	0	47	104	0	60	1048574
2026-01-18 07:19:02.83	34.13	48.25	-85.2	-88.6	2.9	1.56e+00	0	47	104	0	60	1048574
2026-01-18 07:19:03.84	33.55	48.16	-85.2	-88.6	3.2	1.56e+00	0	47	104	0	60	1048572
2026-01-18 07:19:04.85	32.97	48.07	-85.2	-88.6	2.9	1.56e+00	0	47	104	0	60	1048574
2026-01-18 07:19:05.86	32.39	47.98	-85.2	-88.6	3.0	1.56e+00	0	47	104	0	60	1048575
2026-01-18 07:19:06.87	31.82	47.88	-85.2	-88.6	3.0	1.56e+00	0	47	104	0	60	1048575
2026-01-18 07:19:07.88	31.25	47.78	-85.2	-88.6	2.8	1.56e+00	0	47	104	0	60	1048573
2026-01-18 07:19:08.88	30.69	47.68	-85.2	-88.6	3.0	1.56e+00	0	47	104	0	60	1048575
2026-01-18 07:19:09.89	30.13	47.57	-85.2	-88.6	2.7	1.55e+00	0	47	104	0	60	1048575
2026-01-18 07:19:10.90	29.57	47.46	-85.2	-88.6	3.0	1.56e+00	0	47	104	0	60	1048574
2026-01-18 07:19:11.91	29.02	47.35	-85.2	-88.6	3.0	1.56e+00	0	47	104	0	60	1048574
2026-01-18 07:19:12.92	28.47	47.24	-85.2	-88.6	3.3	1.56e+00	0	47	104	0	60	1048575
2026-01-18 07:19:13.93	27.92	47.12	-85.2	-88.6	3.1	1.56e+00	0	47	104	0	60	1048575
2026-01-18 07:19:14.93	27.38	47.00	-85.2	-88.6	2.9	1.55e+00	0	47	104	0	60	1048574
2026-01-18 07:19:15.94	26.84	46.88	-85.2	-88.6	3.1	1.55e+00	0	47	104	0	60	1048575
2026-01-18 07:19:16.95	26.31	46.76	-85.2	-88.6	3.1	1.56e+00	0	47	104	0	60	1048573
2026-01-18 07:19:17.96	25.78	46.63	-84.7	-88.6	3.1	1.56e+00	0	47	104	0	60	1048575
2026-01-18 07:19:18.96	25.26	46.50	-85.2	-88.6	3.2	1.56e+00	0	47	104	0	60	1048575
2026-01-18 07:19:19.97	24.74	46.37	-85.2	-88.6	2.9	1.55e+00	0	47	104	0	60	1048572
2026-01-18 07:19:20.98	24.23	46.24	-85.2	-88.6	3.0	1.56e+00	0	47	104	0	60	1048575
2026-01-18 07:19:21.99	23.71	46.10	-85.2	-88.6	3.0	1.56e+00	0	47	104	0	60	1048574
2026-01-18 07:19:23.00	23.21	45.97	-85.2	-88.6	3.0	1.56e+00	0	47	104	0	60	1048575
2026-01-18 07:19:24.00	22.71	45.83	-85.2	-88.6	3.0	1.56e+00	0	47	104	0	60	1048571
2026-01-18 07:19:25.01	22.21	45.69	-85.2	-88.6	2.8	1.55e+00	0	47	104	0	60	1048573
2026-01-18 07:19:26.02	21.72	45.55	-85.2	-88.6	2.8	1.56e+00	0	47	104	0	60	1048575
2026-01-18 07:19:27.03	21.23	45.40	-84.3	-88.6	2.9	1.56e+00	0	47	104	0	60	1048574
2026-01-18 07:19:28.04	20.74	45.26	-85.2	-88.6	3.1	1.56e+00	0	47	104	0	60	1048575
2026-01-18 07:19:29.04	20.26	45.11	-83.5	-88.6	2.9	1.56e+00	0	47	104	0	60	1048573
2026-01-18 07:19:30.04	19.79	44.96	-85.2	-88.6	3.2	1.55e+00	0	47	104	0	60	1048574
2026-01-18 07:19:31.05	19.32	44.81	-85.2	-88.6	3.1	1.56e+00	0	47	104	0	60	1048575
2026-01-18 07:19:32.06	18.86	44.66	-85.2	-88.6	3.1	1.56e+00	0	47	104	0	60	1048568
2026-01-18 07:19:33.07	18.39	44.50	-84.3	-88.6	2.9	1.56e+00	0	47	104	0	60	1048575
2026-01-18 07:19:34.08	17.93	44.35	-85.2	-88.6	2.9	1.55e+00	0	47	104	0	60	1048573
2026-01-18 07:19:35.08	17.49	44.19	-85.2	-88.6	3.1	1.56e+00	0	47	104	0	60	1048575
2026-01-18 07:19:36.09	17.04	44.03	-85.2	-88.6	3.0	1.56e+00	0	47	104	0	60	1048574
2026-01-18 07:19:37.10	16.59	43.87	-85.2	-88.6	3.0	1.56e+00	0	47	104	0	60	1048575
2026-01-18 07:19:38.11	16.15	43.71	-85.2	-88.6	3.1	1.55e+00	0	47	104	0	60	1048573
2026-01-18 07:19:39.12	15.72	43.55	-85.2	-88.6	3.2	1.56e+00	0	47	104	0	60	1048575
2026-01-18 07:19:40.13	15.29	43.39	-85.2	-88.6	3.3	1.56e+00	0	47	104	0	60	1048575
2026-01-18 07:19:41.13	14.86	43.22	-85.2	-88.6	3.2	1.56e+00	0	47	104	0	60	1048574
2026-01-18 07:19:42.14	14.44	43.06	-85.2	-88.6	2.9	1.55e+00	0	47	104	0	60	1048575
2026-01-18 07:19:43.15	14.02	42.89	-85.2	-88.6	3.1	1.55e+00	0	47	104	0	60	1048575
2026-01-18 07:19:44.16	13.61	42.72	-84.3	-88.6	3.2	1.56e+00	0	47	104	0	60	1048575
2026-01-18 07:19:45.16	13.20	42.56	-85.2	-88.6	3.0	1.56e+00	0	47	104	0	60	1048575
2026-01-18 07:19:46.17	12.80	42.39	-85.2	-88.6	3.2	1.56e+00	0	47	104	0	60	1048575
2026-01-18 07:19:47.17	12.40	42.22	-85.2	-88.6	2.9	1.55e+00	0	47	104	0	60	1048571
2026-01-18 07:19:48.18	12.01	42.05	-85.2	-88.6	2.9	1.56e+00	0	47	104	0	60	1048573
2026-01-18 07:19:49.19	11.61	41.88	-84.7	-88.6	3.1	1.56e+00	0	47	104	0	60	1048574
2026-01-18 07:19:50.19	11.23	41.70	-85.2	-88.6	3.1	1.56e+00	0	47	104	0	60	1048575
2026-01-18 07:19:51.20	10.85	41.53	-85.2	-88.6	2.9	1.55e+00	0	47	104	0	60	1048575
2026-01-18 07:19:52.20	10.47	41.36	-85.2	-88.6	2.9	1.55e+00	0	47	104	0	60	1048575
2026-01-18 07:19:53.21	10.09	41.19	-84.3	-88.6	3.0	1.55e+00	0	47	104	0	60	1048574
2026-01-18 07:19:54.22	9.72	41.01	-85.2	-88.6	3.2	1.56e+00	0	47	104	0	60	1048572
2026-01-18 07:19:55.23	9.35	40.83	-85.2	-88.6	3.0	1.56e+00	0	47	104	0	60	1048573
2026-01-18 07:19:56.24	8.99	40.66	-85.2	-88.6	3.1	1.56e+00	0	47	104	0	60	1048575
2026-01-18 07:19:57.25	8.63	40.48	-85.2	-88.6	2.8	1.56e+00	0	47	104	0	60	1048575
2026-01-18 07:19:58.25	8.28	40.31	-85.2	-88.6	3.0	1.56e+00	0	47	104	0	60	1048574
2026-01-18 07:19:59.26	7.93	40.13	-85.2	-88.6	3.1	1.56e+00	0	47	104	0	60	1048575
2026-01-18 07:20:00.27	7.58	39.95	-85.2	-88.6	3.2	1.56e+00	0	47	104	0	60	1048575
2026-01-18 07:20:01.28	7.24	39.78	-85.2	-88.6	3.0	1.56e+00	0	47	104	0	60	1048573
2026-01-18 07:20:02.28	6.90	39.60	-85.2	-88.6	3.0	1.55e+00	0	47	104	0	60	1048575
2026-01-18 07:20:03.29	6.56	39.42	-85.2	-88.6	3.0	1.56e+00	0	47	104	0	60	1048575
2026-01-18 07:20:04.30	6.23	39.24	-85.2	-88.6	3.1	1.56e+00	0	47	104	0	60	1048575
2026-01-18 07:20:05.31	5.90	39.07	-85.2	-88.6	3.1	1.55e+00	0	47	104	0	60	1048573
2026-01-18 07:20:06.31	5.58	38.89	-85.2	-88.6	3.0	1.56e+00	0	47	104	0	60	1048574
2026-01-18 07:20:07.31	5.26	38.71	-85.2	-88.6	2.9	1.56e+00	0	47	104	0	60	1048575
2026-01-18 07:20:08.32	4.94	38.53	-85.2	-88.6	3.1	1.56e+00	0	47	104	0	60	1048573
2026-01-18 07:20:09.33	4.62	38.35	-85.2	-88.6	3.2	1.56e+00	0	47	104	0	60	1048572
2026-01-18 07:20:10.34	4.31	38.17	-85.2	-88.6	3.1	1.55e+00	0	47	104	0	60	1048574
2026-01-18 07:20:11.35	4.00	38.00	-85.2	-88.6	3.0	1.56e+00	0	47	104	0	60	1048574
2026-01-18 07:20:12.35	3.70	37.82	-85.2	-88.6	2.8	1.56e+00	0	47	104	0	60	1048574
2026-01-18 07:20:13.36	3.40	37.64	-82.8	-88.6	2.9	1.56e+00	0	47	104	0	60	1048574
2026-01-18 07:20:14.37	3.10	37.46	-85.2	-88.6	3.0	1.56e+00	0	47	104	0	60	1048573
2026-01-18 07:20:15.38	2.81	37.28	-85.2	-88.6	3.2	1.56e+00	0	47	104	0	60	1048573
2026-01-18 07:20:16.38	2.52	37.11	-85.2	-88.6	3.2	1.56e+00	0	47	104	0	60	1048574
2026-01-18 07:20:17.39	2.23	36.93	-85.2	-88.6	2.9	1.55e+00	0	47	104	0	60	1048575
2026-01-18 07:20:18.40	1.95	36.75	-83.1	-88.6	3.1	1.56e+00	0	47	104	0	60	1048575
2026-01-18 07:20:19.41	1.66	36.57	-85.2	-88.6	3.0	1.56e+00	0	47	104	0	60	1048575
2026-01-18 07:20:20.42	1.39	36.39	-85.2	-88.6	3.1	1.56e+00	0	47	104	0	60	1048574
2026-01-18 07:20:21.42	1.11	36.22	-85.2	-88.6	3.0	1.56e+00	0	47	104	0	60	1048575
2026-01-18 07:20:22.43	0.84	36.04	-85.2	-88.6	3.0	1.56e+00	0	47	104	0	60	1048572
2026-01-18 07:20:23.44	0.57	35.86	-85.2	-88.6	3.0	1.56e+00	0	47	104	0	60	1048575
2026-01-18 07:20:24.44	0.31	35.69	-85.2	-88.6	3.0	1.56e+00	0	47	104	0	60	1048575
2026-01-18 07:20:25.45	0.04	35.51	-85.2	-88.6	3.2	1.56e+00	0	47	104	0	60	1048575
2026-01-18 07:20:26.46	359.78	35.33	-85.2	-88.6	3.1	1.55e+00	0	47	104	0	60	1048574
2026-01-18 07:20:27.47	359.52	35.16	-85.2	-88.6	3.0	1.55e+00	0	47	104	0	60	1048574
2026-01-18 07:20:28.47	359.27	34.98	-85.2	-88.6	2.9	1.56e+00	0	47	104	0	60	1048574
2026-01-18 07:20:29.48	359.02	34.81	-85.2	-88.6	2.9	1.56e+00	0	47	104	0	60	1048575
2026-01-18 07:20:30.48	358.77	34.63	-85.2	-88.6	3.0	1.56e+00	0	47	104	0	60	1048573
2026-01-18 07:20:31.49	358.52	34.46	-85.2	-88.6	2.8	1.56e+00	0	47	104	0	60	1048575
2026-01-18 07:20:32.50	358.28	34.28	-85.2	-88.6	2.9	1.55e+00	0	47	104	0	60	1048575
2026-01-18 07:20:33.51	358.03	34.11	-85.2	-88.6	3.0	1.56e+00	0	47	104	0	60	1048575
2026-01-18 07:20:34.52	357.79	33.94	-85.2	-88.6	2.9	1.56e+00	0	47	104	0	60	1048573
2026-01-18 07:20:35.53	357.56	33.76	-85.2	-88.6	2.8	1.56e+00	0	47	104	0	60	1048575
2026-01-18 07:20:36.53	357.33	33.59	-85.2	-88.6	3.2	1.55e+00	0	47	104	0	60	1048573
2026-01-18 07:20:37.54	357.09	33.42	-85.2	-88.6	3.0	1.56e+00	0	47	104	0	60	1048575
2026-01-18 07:20:38.55	356.86	33.25	-85.2	-88.6	2.9	1.55e+00	0	47	104	0	60	1048575
2026-01-18 07:20:39.56	356.64	33.08	-85.2	-88.6	3.1	1.56e+00	0	47	104	0	60	1048573
2026-01-18 07:20:40.56	356.42	32.91	-85.2	-88.6	3.1	1.56e+00	0	47	104	0	60	1048575
2026-01-18 07:20:41.57	356.19	32.73	-85.2	-88.6	3.0	1.55e+00	0	47	104	0	60	1048572
2026-01-18 07:20:42.58	355.97	32.56	-85.2	-88.6	3.3	1.55e+00	0	47	104	0	60	1048575
2026-01-18 07:20:43.59	355.76	32.40	-85.2	-88.6	3.0	1.55e+00	0	47	104	0	60	1048574
2026-01-18 07:20:44.59	355.54	32.23	-85.2	-88.6	3.0	1.56e+00	0	47	104	0	60	1048573
2026-01-18 07:20:45.60	355.33	32.06	-85.2	-88.6	2.9	1.56e+00	0	47	104	0	60	1048574
2026-01-18 07:20:46.61	355.12	31.89	-85.2	-88.6	3.2	1.56e+00	0	47	104	0	60	1048575
2026-01-18 07:20:47.61	354.91	31.72	-85.2	-88.6	3.0	1.56e+00	0	47	104	0	60	1048574
2026-01-18 07:20:48.62	354.71	31.56	-85.2	-88.6	3.1	1.55e+00	0	47	104	0	60	1048575
2026-01-18 07:20:49.63	354.50	31.39	-85.2	-88.6	3.1	1.56e+00	0	47	104	0	60	1048575
2026-01-18 07:20:50.64	354.30	31.22	-85.2	-88.6	3.1	1.56e+00	0	47	104	0	60	1048575
2026-01-18 07:20:51.64	354.10	31.06	-85.2	-88.6	3.1	1.56e+00	0	47	104	0	60	1048573
2026-01-18 07:20:52.65	353.91	30.90	-85.2	-88.6	3.1	1.56e+00	0	47	104	0	60	1048575
2026-01-18 07:20:53.66	353.71	30.73	-85.2	-88.6	3.2	1.56e+00	0	47	104	0	60	1048575
2026-01-18 07:20:54.67	353.52	30.57	-85.2	-88.6	3.0	1.56e+00	0	47	104	0	60	1048575
2026-01-18 07:20:55.67	353.33	30.41	-85.2	-88.6	3.1	1.56e+00	0	47	104	0	60	1048573
2026-01-18 07:20:56.68	353.14	30.24	-85.2	-88.6	3.1	1.55e+00	0	47	104	0	60	1048575
2026-01-18 07:20:57.68	352.95	30.08	-85.2	-88.6	3.0	1.55e+00	0	47	104	0	60	1048574
2026-01-18 07:20:58.69	352.76	29.92	-85.2	-88.6	3.1	1.56e+00	0	47	104	0	60	1048574
2026-01-18 07:20:59.70	352.58	29.76	-85.2	-88.6	3.2	1.56e+00	0	47	104	0	60	1048575
2026-01-18 07:21:00.70	352.40	29.60	-85.2	-88.6	3.1	1.56e+00	0	47	104	0	60	1048573
2026-01-18 07:21:01.71	352.22	29.44	-85.2	-88.6	2.9	1.56e+00	0	47	104	0	60	1048575
2026-01-18 07:21:02.72	352.04	29.28	-85.2	-88.6	2.7	1.55e+00	0	47	104	0	60	1048574
2026-01-18 07:21:03.73	351.86	29.12	-85.2	-88.6	2.8	1.56e+00	0	47	104	0	60	1048575
2026-01-18 07:21:04.73	351.69	28.97	-85.2	-88.6	3.3	1.56e+00	0	47	104	0	60	1048575
2026-01-18 07:21:05.74	351.52	28.81	-85.2	-88.6	3.1	1.56e+00	0	47	104	0	60	1048574
2026-01-18 07:21:06.75	351.34	28.65	-85.2	-88.6	2.8	1.56e+00	0	47	104	0	60	1048573
2026-01-18 07:21:07.76	351.17	28.49	-85.2	-88.6	2.8	1.56e+00	0	47	104	0	60	1048575
2026-01-18 07:21:08.76	351.01	28.34	-85.2	-88.6	3.1	1.56e+00	0	47	104	0	60	1048575
2026-01-18 07:21:09.77	350.84	28.18	-85.2	-88.6	3.1	1.55e+00	0	47	104	0	60	1048575
2026-01-18 07:21:10.77	350.68	28.03	-85.2	-88.6	3.0	1.56e+00	0	47	104	0	60	1048572
2026-01-18 07:21:11.78	350.51	27.88	-85.2	-88.6	3.0	1.55e+00	0	47	104	0	60	1048575
2026-01-18 07:21:12.79	350.35	27.72	-85.2	-88.6	2.9	1.56e+00	0	47	104	0	60	1048575
2026-01-18 07:21:13.79	350.19	27.57	-85.2	-88.6	2.9	1.56e+00	0	47	104	0	60	1048575
2026-01-18 07:21:14.80	350.03	27.42	-85.2	-88.6	3.0	1.56e+00	0	47	104	0	60	1048574
2026-01-18 07:21:15.80	349.88	27.27	-85.2	-88.6	3.1	1.55e+00	0	47	104	0	60	1048573
2026-01-18 07:21:16.81	349.72	27.12	-85.2	-88.6	3.0	1.56e+00	0	47	104	0	60	1048573
2026-01-18 07:21:17.81	349.57	26.97	-85.2	-88.6	3.0	1.56e+00	0	47	104	0	60	1048573
2026-01-18 07:21:18.82	349.42	26.82	-85.2	-88.6	3.0	1.56e+00	0	47	104	0	60	1048573
2026-01-18 07:21:19.83	349.27	26.67	-85.2	-88.6	3.1	1.55e+00	0	47	104	0	60	1048574
2026-01-18 07:21:20.84	349.12	26.52	-85.2	-88.6	3.0	1.56e+00	0	47	104	0	60	1048575
2026-01-18 07:21:21.84	348.97	26.38	-85.2	-88.6	2.9	1.56e+00	0	47	104	0	60	1048575
2026-01-18 07:21:22.85	348.82	26.23	-85.2	-88.6	3.0	1.55e+00	0	47	104	0	60	1048575
2026-01-18 07:21:23.86	348.68	26.08	-85.2	-88.6	3.0	1.55e+00	0	47	104	0	60	1048575
2026-01-18 07:21:24.87	348.53	25.93	-85.2	-88.6	3.0	1.55e+00	0	47	104	0	60	1048574
2026-01-18 07:21:25.88	348.39	25.79	-85.2	-88.6	3.1	1.56e+00	0	47	104	0	60	1048575
2026-01-18 07:21:26.88	348.25	25.64	-84.7	-88.6	3.2	1.55e+00	0	47	104	0	60	1048571
2026-01-18 07:21:27.89	348.11	25.50	-85.2	-88.6	3.0	1.56e+00	0	47	104	0	60	1048574
2026-01-18 07:21:28.89	347.97	25.36	-84.7	-88.6	3.0	1.56e+00	0	47	104	0	60	1048575
2026-01-18 07:21:29.90	347.84	25.21	-85.2	-88.6	3.0	1.55e+00	0	47	104	0	60	1048571
2026-01-18 07:21:30.90	347.70	25.07	-85.2	-88.6	3.2	1.55e+00	0	47	104	0	60	1048575
2026-01-18 07:21:31.91	347.56	24.93	-85.2	-88.6	3.0	1.56e+00	0	47	104	0	60	1048575
2026-01-18 07:21:32.92	347.43	24.79	-85.2	-88.6	3.1	1.56e+00	0	47	104	0	60	1048572
2026-01-18 07:21:33.93	347.30	24.65	-85.2	-88.6	3.1	1.56e+00	0	47	104	0	60	1048574
2026-01-18 07:21:34.94	347.17	24.51	-85.2	-88.6	3.0	1.56e+00	0	47	104	0	60	1048575
2026-01-18 07:21:35.95	347.04	24.37	-85.2	-88.6	3.0	1.56e+00	0	47	104	0	60	1048575
2026-01-18 07:21:36.96	346.91	24.23	-85.2	-88.6	2.9	1.55e+00	0	47	104	0	60	1048574
2026-01-18 07:21:37.96	346.78	24.09	-85.2	-88.6	2.9	1.56e+00	0	47	104	0	60	1048575
2026-01-18 07:21:38.97	346.65	23.95	-85.2	-88.6	3.0	1.56e+00	0	47	104	0	60	1048575
2026-01-18 07:21:39.98	346.53	23.82	-85.2	-88.6	3.0	1.56e+00	0	47	104	0	60	1048573
2026-01-18 07:21:40.99	346.40	23.68	-85.2	-88.6	3.0	1.55e+00	0	47	104	0	60	1048575
2026-01-18 07:21:41.99	346.28	23.54	-85.2	-88.6	3.0	1.56e+00	0	47	104	0	60	1048575
2026-01-18 07:21:43.00	346.16	23.41	-85.2	-88.6	2.9	1.56e+00	0	47	104	0	60	1048575
2026-01-18 07:21:44.01	346.04	23.27	-85.2	-88.6	3.1	1.55e+00	0	47	104	0	60	1048575
2026-01-18 07:21:45.01	345.92	23.14	-85.2	-88.6	3.0	1.55e+00	0	47	104	0	60	1048572
2026-01-18 07:21:46.01	345.80	23.01	-85.2	-88.6	3.3	1.56e+00	0	47	104	0	60	1048575
2026-01-18 07:21:47.01	345.68	22.87	-85.2	-88.6	3.0	1.56e+00	0	47	104	0	60	1048573
2026-01-18 07:21:48.01	345.57	22.74	-85.2	-88.6	3.1	1.56e+00	0	47	104	0	60	1048574
2026-01-18 07:21:49.02	345.45	22.61	-85.2	-88.6	3.1	1.56e+00	0	47	104	0	60	1048575
2026-01-18 07:21:50.02	345.34	22.48	-85.2	-88.6	3.0	1.56e+00	0	47	104	0	60	1048575
2026-01-18 07:21:51.03	345.23	22.35	-85.2	-88.6	3.0	1.56e+00	0	47	104	0	60	1048575
2026-01-18 07:21:52.04	345.11	22.22	-85.2	-88.6	3.0	1.56e+00	0	47	104	0	60	1048572
2026-01-18 07:21:53.05	345.00	22.09	-85.2	-88.6	3.1	1.56e+00	0	47	104	0	60	1048575
2026-01-18 07:21:54.05	344.89	21.96	-85.2	-88.6	3.3	1.56e+00	0	47	104	0	60	1048575
2026-01-18 07:21:55.06	344.78	21.83	-85.2	-88.6	2.9	1.56e+00	0	47	104	0	60	1048575
2026-01-18 07:21:56.07	344.67	21.70	-85.2	-88.6	3.0	1.56e+00	0	47	104	0	60	1048575
2026-01-18 07:21:57.08	344.56	21.57	-85.2	-88.6	3.1	1.56e+00	0	47	104	0	60	1048575
2026-01-18 07:21:58.08	344.46	21.45	-85.2	-88.6	3.1	1.56e+00	0	47	104	0	60	1048574
2026-01-18 07:21:59.09	344.35	21.32	-85.2	-88.6	3.2	1.55e+00	0	47	104	0	60	1048575
2026-01-18 07:22:00.10	344.24	21.19	-85.2	-88.6	3.1	1.56e+00	0	47	104	0	60	1048575
2026-01-18 07:22:01.10	344.14	21.07	-85.2	-88.6	3.0	1.56e+00	0	47	104	0	60	1048575
2026-01-18 07:22:02.11	344.04	20.94	-85.2	-88.6	3.0	1.56e+00	0	47	104	0	60	1048573
2026-01-18 07:22:03.12	343.93	20.82	-85.2	-88.6	2.9	1.56e+00	0	47	104	0	60	1048575
2026-01-18 07:22:04.12	343.83	20.69	-85.2	-88.6	2.9	1.56e+00	0	47	104	0	60	1048572
2026-01-18 07:22:05.13	343.73	20.57	-85.2	-88.6	3.1	1.56e+00	0	47	104	0	60	1048574
2026-01-18 07:22:06.14	343.63	20.45	-85.2	-88.6	3.1	1.56e+00	0	47	104	0	60	1048573
2026-01-18 07:22:07.15	343.53	20.32	-85.2	-88.6	3.1	1.56e+00	0	47	104	0	60	1048574
2026-01-18 07:22:08.15	343.43	20.20	-85.2	-88.6	2.9	1.56e+00	0	47	104	0	60	1048574
2026-01-18 07:22:09.15	343.34	20.08	-85.2	-88.6	3.0	1.56e+00	0	47	104	0	60	1048575
2026-01-18 07:22:10.16	343.24	19.96	-85.2	-88.6	3.1	1.56e+00	0	47	104	0	60	1048573
2026-01-18 07:22:11.17	343.14	19.84	-85.2	-88.6	3.1	1.55e+00	0	47	104	0	60	1048575
2026-01-18 07:22:12.17	343.05	19.72	-85.2	-88.6	2.9	1.55e+00	0	47	104	0	60	1048575
2026-01-18 07:22:13.18	342.95	19.60	-83.9	-88.6	2.9	1.56e+00	0	47	104	0	60	1048575
2026-01-18 07:22:14.18	342.86	19.48	-85.2	-88.6	3.0	1.56e+00	0	47	104	0	60	1048574
2026-01-18 07:22:15.19	342.77	19.36	-85.2	-88.6	2.8	1.56e+00	0	47	104	0	60	1048574
2026-01-18 07:22:16.19	342.68	19.24	-85.2	-88.6	3.0	1.56e+00	0	47	104	0	60	1048575
2026-01-18 07:22:17.20	342.58	19.13	-85.2	-88.6	2.8	1.55e+00	0	47	104	0	60	1048569
2026-01-18 07:22:18.21	342.49	19.01	-83.5	-88.6	2.9	1.55e+00	0	47	104	0	60	1048575
2026-01-18 07:22:19.21	342.40	18.89	-85.2	-88.6	3.2	1.56e+00	0	47	104	0	60	1048574
2026-01-18 07:22:20.22	342.31	18.78	-85.2	-88.6	3.0	1.55e+00	0	47	104	0	60	1048574
2026-01-18 07:22:21.22	342.23	18.66	-85.2	-88.6	2.8	1.56e+00	0	47	104	0	60	1048575
2026-01-18 07:22:22.23	342.14	18.55	-85.2	-88.6	3.3	1.56e+00	0	47	104	0	60	1048574
2026-01-18 07:22:23.24	342.05	18.43	-85.2	-88.6	2.8	1.56e+00	0	47	104	0	60	1048574
2026-01-18 07:22:24.25	341.96	18.32	-85.2	-88.6	2.7	1.55e+00	0	47	104	0	60	1048575
2026-01-18 07:22:25.26	341.88	18.20	-85.2	-88.6	3.1	1.55e+00	0	47	104	0	60	1048573
2026-01-18 07:22:26.27	341.79	18.09	-85.2	-88.6	3.2	1.55e+00	0	47	104	0	60	1048574
2026-01-18 07:22:27.28	341.71	17.97	-85.2	-88.6	3.1	1.56e+00	0	47	104	0	60	1048575
2026-01-18 07:22:28.28	341.62	17.86	-85.2	-88.6	2.9	1.56e+00	0	47	104	0	60	1048573
2026-01-18 07:22:29.29	341.54	17.75	-85.2	-88.6	3.0	1.56e+00	0	47	104	0	60	1048575
2026-01-18 07:22:30.30	341.46	17.64	-85.2	-88.6	3.1	1.56e+00	0	47	104	0	60	1048575
2026-01-18 07:22:31.30	341.38	17.53	-85.2	-88.6	2.9	1.56e+00	0	47	104	0	60	1048572
2026-01-18 07:22:32.31	341.30	17.42	-85.2	-88.6	3.2	1.55e+00	0	47	104	0	60	1048572
2026-01-18 07:22:33.31	341.22	17.31	-82.8	-88.6	3.1	1.56e+00	0	47	104	0	60	1048573
2026-01-18 07:22:34.32	341.14	17.20	-85.2	-88.6	2.9	1.56e+00	0	47	104	0	60	1048573
2026-01-18 07:22:35.32	341.06	17.09	-85.2	-88.6	3.2	1.55e+00	0	47	104	0	60	1048574
2026-01-18 07:22:36.33	340.98	16.98	-85.2	-88.6	3.1	1.56e+00	0	47	104	0	60	1048574
2026-01-18 07:22:37.34	340.90	16.87	-85.2	-88.6	3.2	1.56e+00	0	47	104	0	60	1048575
2026-01-18 07:22:38.35	340.82	16.76	-84.7	-88.6	3.0	1.56e+00	0	47	104	0	60	1048575
2026-01-18 07:22:39.35	340.74	16.65	-85.2	-88.6	3.1	1.56e+00	0	47	104	0	60	1048575
2026-01-18 07:22:40.36	340.67	16.55	-85.2	-88.6	2.7	1.56e+00	0	47	104	0	60	1048572
2026-01-18 07:22:41.36	340.59	16.44	-85.2	-88.6	3.2	1.56e+00	0	47	104	0	60	1048573
2026-01-18 07:22:42.37	340.52	16.33	-85.2	-88.6	3.2	1.56e+00	0	47	104	0	60	1048575
2026-01-18 07:22:43.38	340.44	16.23	-84.7	-88.6	3.2	1.56e+00	0	47	104	0	60	1048574
2026-01-18 07:22:44.38	340.37	16.12	-85.2	-88.6	3.0	1.56e+00	0	47	104	0	60	1048575
2026-01-18 07:22:45.39	340.29	16.02	-85.2	-88.6	3.0	1.56e+00	0	47	104	0	60	1048574
2026-01-18 07:22:46.39	340.22	15.91	-85.2	-88.6	3.1	1.55e+00	0	47	104	0	60	1048575
2026-01-18 07:22:47.40	340.15	15.81	-85.2	-88.6	3.0	1.56e+00	0	47	104	0	60	1048572
2026-01-18 07:22:48.41	340.08	15.70	-84.7	-88.6	3.1	1.56e+00	0	47	104	0	60	1048575
2026-01-18 07:22:49.41	340.00	15.60	-85.2	-88.6	3.2	1.56e+00	0	47	104	0	60	1048574
2026-01-18 07:22:50.42	339.93	15.50	-85.2	-88.6	3.0	1.56e+00	0	47	104	0	60	1048575
2026-01-18 07:22:51.43	339.86	15.39	-85.2	-88.6	3.0	1.56e+00	0	47	104	0	60	1048575
2026-01-18 07:22:52.44	339.79	15.29	-85.2	-88.6	2.9	1.55e+00	0	47	104	0	60	1048573
2026-01-18 07:22:53.44	339.72	15.19	-85.2	-88.6	3.0	1.55e+00	0	47	104	0	60	1048575
2026-01-18 07:22:54.45	339.65	15.09	-85.2	-88.6	3.1	1.56e+00	0	47	104	0	60	1048574
2026-01-18 07:22:55.45	339.59	14.99	-85.2	-88.6	2.9	1.56e+00	0	47	104	0	60	1048575
2026-01-18 07:22:56.45	339.52	14.89	-85.2	-88.6	3.2	1.56e+00	0	47	104	0	60	1048572
2026-01-18 07:22:57.46	339.45	14.79	-85.2	-88.6	3.1	1.56e+00	0	47	104	0	60	1048575
2026-01-18 07:22:58.46	339.38	14.69	-85.2	-88.6	2.8	1.56e+00	0	47	104	0	60	1048575
2026-01-18 07:22:59.47	339.32	14.59	-85.2	-88.6	3.0	1.56e+00	0	47	104	0	60	1048572
2026-01-18 07:23:00.47	339.25	14.49	-85.2	-88.6	3.0	1.56e+00	0	47	104	0	60	1048575
2026-01-18 07:23:01.48	339.19	14.39	-84.7	-88.6	3.0	1.56e+00	0	47	104	0	60	1048573
2026-01-18 07:23:02.48	339.12	14.29	-84.7	-88.6	3.2	1.55e+00	0	47	104	0	60	1048573
2026-01-18 07:23:03.48	339.06	14.19	-82.8	-88.6	2.9	1.56e+00	0	47	104	0	60	1048575
2026-01-18 07:23:04.49	338.99	14.09	-85.2	-88.6	3.2	1.55e+00	0	47	104	0	60	1048575
2026-01-18 07:23:05.49	338.93	14.00	-85.2	-88.6	2.9	1.56e+00	0	47	104	0	60	1048575
2026-01-18 07:23:06.50	338.86	13.90	-85.2	-88.6	3.0	1.55e+00	0	47	104	0	60	1048575
2026-01-18 07:23:07.50	338.80	13.80	-85.2	-88.6	3.0	1.56e+00	0	47	104	0	60	1048573
2026-01-18 07:23:08.51	338.74	13.70	-85.2	-88.6	3.0	1.56e+00	0	47	104	0	60	1048574
2026-01-18 07:23:09.52	338.68	13.61	-85.2	-88.6	2.8	1.56e+00	0	47	104	0	60	1048575
