passes_logs/2026/01/18/R3.2S-Naryan-Mar/R3.2S-Naryan-Mar__20260118_043229_FENGYUN_3D_rec.log

#Pass ID: 20260118_043229_FENGYUN 3D
#Satellite: FENGYUN 3D
#Configuration: FENGYUN 3D
#almurnet v.1.7.20240730
#Start time: 2026-01-18 04:32:30

#Version: 2.2.20231116
#Station: R3.2S-Naryan-Mar
#Location: 53.008057 lon 67.646978 lat
#TLE: 1 43010U 17072A   26017.25882587  .00000461  00000+0  23963-3 0  9992
#TLE: 2 43010  98.9934 349.1096 0002357 104.0487 256.0951 14.19697152423579

#Time	Az	El	Level	Level2	SNR	BER	BlckErr	Temp	State	Recorded	gain1	gain2
2026-01-18 04:32:30.62	44.92	0.04	-83.9	-88.8	2.8	3.12e+01	0	45	0	0	60	1048574
2026-01-18 04:32:31.63	44.86	0.10	-84.7	-88.6	6.4	3.14e-01	0	46	0	0	60	1048575
2026-01-18 04:32:32.63	44.81	0.15	-84.7	-88.6	6.3	2.78e-01	0	46	0	0	60	1048571
2026-01-18 04:32:33.63	44.75	0.21	-84.7	-88.6	5.7	2.84e-01	0	46	0	0	60	1048575
2026-01-18 04:32:34.63	44.70	0.26	-84.7	-88.6	6.0	2.80e-01	0	46	0	0	60	1048567
2026-01-18 04:32:35.63	44.64	0.31	-84.7	-88.6	5.8	2.73e-01	0	46	0	0	60	1048575
2026-01-18 04:32:36.64	44.59	0.37	-84.7	-88.6	6.3	2.79e-01	0	46	0	0	60	1048568
2026-01-18 04:32:37.65	44.53	0.42	-84.7	-88.6	6.0	2.80e-01	0	46	0	0	60	1048575
2026-01-18 04:32:38.65	44.47	0.48	-84.7	-88.6	6.2	2.79e-01	0	46	0	0	60	1048573
2026-01-18 04:32:39.66	44.42	0.53	-84.7	-88.6	6.1	2.83e-01	0	46	0	0	60	1048570
2026-01-18 04:32:40.67	44.36	0.59	-84.7	-88.6	6.2	2.83e-01	0	46	0	0	60	1048575
2026-01-18 04:32:41.67	44.30	0.65	-84.7	-88.6	5.9	2.77e-01	0	46	0	0	60	1048574
2026-01-18 04:32:42.68	44.25	0.70	-84.7	-88.6	6.2	2.82e-01	0	46	0	0	60	1048571
2026-01-18 04:32:43.69	44.19	0.76	-85.2	-88.6	6.1	2.83e-01	0	46	0	0	60	1048573
2026-01-18 04:32:44.69	44.13	0.81	-84.7	-88.6	6.3	2.79e-01	0	46	0	0	60	1048571
2026-01-18 04:32:45.70	44.07	0.87	-84.7	-88.6	5.5	2.81e-01	0	46	0	0	60	1048575
2026-01-18 04:32:46.71	44.02	0.92	-85.2	-88.6	5.8	2.86e-01	0	46	0	0	60	1048573
2026-01-18 04:32:47.72	43.96	0.98	-85.2	-88.6	5.6	2.76e-01	0	46	0	0	60	1048574
2026-01-18 04:32:48.72	43.90	1.03	-84.7	-88.6	6.0	2.81e-01	0	46	0	0	60	1048575
2026-01-18 04:32:49.73	43.84	1.09	-84.7	-88.6	6.2	2.82e-01	0	46	0	0	60	1048575
2026-01-18 04:32:50.73	43.78	1.15	-84.7	-88.6	5.8	2.80e-01	0	46	0	0	60	1048573
2026-01-18 04:32:51.74	43.72	1.20	-84.7	-88.6	6.2	2.80e-01	0	47	0	0	60	1048569
2026-01-18 04:32:52.74	43.66	1.26	-84.7	-88.6	6.2	2.79e-01	0	46	0	0	60	1048575
2026-01-18 04:32:53.75	43.60	1.32	-84.7	-88.6	5.7	2.80e-01	0	46	0	0	60	1048574
2026-01-18 04:32:54.76	43.54	1.37	-85.2	-88.6	6.3	2.83e-01	0	46	0	0	60	1048575
2026-01-18 04:32:55.76	43.49	1.43	-84.7	-88.6	6.1	2.81e-01	0	47	0	0	60	1048570
2026-01-18 04:32:56.77	43.42	1.48	-84.7	-88.6	5.6	2.82e-01	0	47	0	0	60	1048575
2026-01-18 04:32:57.78	43.36	1.54	-84.7	-88.6	6.1	2.74e-01	0	47	0	0	60	1048570
2026-01-18 04:32:58.78	43.30	1.60	-84.7	-88.6	5.7	2.78e-01	0	47	0	0	60	1048570
2026-01-18 04:32:59.79	43.24	1.65	-84.7	-88.6	5.9	2.80e-01	0	46	0	0	60	1048575
2026-01-18 04:33:00.79	43.18	1.71	-84.7	-88.6	6.0	2.84e-01	0	47	0	0	60	1048570
2026-01-18 04:33:01.80	43.12	1.77	-84.7	-88.6	6.3	2.75e-01	0	47	0	0	60	1048575
2026-01-18 04:33:02.80	43.06	1.82	-84.7	-88.6	5.8	2.78e-01	0	46	0	0	60	1048572
2026-01-18 04:33:03.81	43.00	1.88	-84.7	-88.6	6.0	2.78e-01	0	46	0	0	60	1048575
2026-01-18 04:33:04.82	42.93	1.94	-85.2	-88.6	6.0	2.80e-01	0	46	0	0	60	1048569
2026-01-18 04:33:05.83	42.87	2.00	-85.2	-88.6	6.0	2.75e-01	0	46	0	0	60	1048575
2026-01-18 04:33:06.83	42.81	2.05	-85.2	-88.6	5.6	2.75e-01	0	46	0	0	60	1048571
2026-01-18 04:33:07.84	42.75	2.11	-84.7	-88.6	5.8	2.84e-01	0	46	0	0	60	1048573
2026-01-18 04:33:08.84	42.68	2.17	-84.7	-88.6	6.1	2.78e-01	0	46	0	0	60	1048572
2026-01-18 04:33:09.85	42.62	2.23	-84.7	-88.6	6.0	2.77e-01	0	47	0	0	60	1048575
2026-01-18 04:33:10.85	42.56	2.28	-84.7	-88.6	5.7	2.78e-01	0	47	0	0	60	1048574
2026-01-18 04:33:11.86	42.49	2.34	-84.7	-88.6	5.5	2.73e-01	0	46	0	0	60	1048574
2026-01-18 04:33:12.86	42.43	2.40	-84.7	-88.6	6.4	2.79e-01	0	47	0	0	60	1048575
2026-01-18 04:33:13.87	42.36	2.46	-84.7	-88.6	6.2	2.76e-01	0	46	0	0	60	1048571
2026-01-18 04:33:14.88	42.30	2.51	-85.2	-88.6	6.0	2.76e-01	0	47	0	0	60	1048574
2026-01-18 04:33:15.88	42.23	2.57	-85.2	-88.6	5.4	2.81e-01	0	47	0	0	60	1048573
2026-01-18 04:33:16.89	42.17	2.63	-84.7	-88.6	6.4	2.76e-01	0	47	0	0	60	1048568
2026-01-18 04:33:17.90	42.10	2.69	-84.7	-88.6	6.3	2.76e-01	0	46	0	0	60	1048575
2026-01-18 04:33:18.90	42.04	2.75	-84.7	-88.6	5.9	2.77e-01	0	46	0	0	60	1048575
2026-01-18 04:33:19.91	41.97	2.81	-84.7	-88.6	5.7	2.75e-01	0	47	0	0	60	1048573
2026-01-18 04:33:20.92	41.90	2.86	-84.7	-88.6	5.9	2.78e-01	0	46	0	0	60	1048574
2026-01-18 04:33:21.92	41.84	2.92	-84.7	-88.6	5.9	2.78e-01	0	46	0	0	60	1048574
2026-01-18 04:33:22.93	41.77	2.98	-84.7	-88.6	5.9	2.81e-01	0	47	0	0	60	1048573
2026-01-18 04:33:23.93	41.70	3.04	-85.2	-88.6	5.8	2.80e-01	0	47	0	0	60	1048575
2026-01-18 04:33:24.94	41.63	3.10	-84.7	-88.6	5.9	2.76e-01	0	47	0	0	60	1048569
2026-01-18 04:33:25.94	41.57	3.16	-85.2	-88.6	6.2	2.77e-01	0	47	0	0	60	1048575
2026-01-18 04:33:26.95	41.50	3.22	-84.7	-88.6	6.3	2.76e-01	0	47	0	0	60	1048573
2026-01-18 04:33:27.95	41.43	3.27	-84.7	-88.6	5.9	2.79e-01	0	47	0	0	60	1048572
2026-01-18 04:33:28.95	41.36	3.33	-84.7	-88.6	6.2	2.73e-01	0	47	0	0	60	1048574
2026-01-18 04:33:29.96	41.29	3.39	-84.7	-88.6	5.7	2.80e-01	0	47	0	0	60	1048575
2026-01-18 04:33:30.97	41.22	3.45	-84.7	-88.6	5.9	2.74e-01	0	47	0	0	60	1048572
2026-01-18 04:33:31.98	41.15	3.51	-84.7	-88.6	6.2	2.80e-01	0	47	0	0	60	1048574
2026-01-18 04:33:32.98	41.08	3.57	-84.7	-88.6	5.8	2.76e-01	0	47	0	0	60	1048568
2026-01-18 04:33:33.99	41.01	3.63	-85.2	-88.6	6.0	2.77e-01	0	47	0	0	60	1048573
2026-01-18 04:33:35.00	40.94	3.69	-84.7	-88.6	6.3	2.75e-01	0	47	0	0	60	1048572
2026-01-18 04:33:36.01	40.87	3.75	-84.7	-88.6	5.9	2.78e-01	0	47	0	0	60	1048574
2026-01-18 04:33:37.02	40.80	3.81	-84.7	-88.6	5.7	2.81e-01	0	47	0	0	60	1048567
2026-01-18 04:33:38.02	40.73	3.87	-85.2	-88.6	6.1	2.81e-01	0	47	0	0	60	1048573
2026-01-18 04:33:39.02	40.66	3.93	-84.7	-88.6	5.9	2.79e-01	0	47	0	0	60	1048574
2026-01-18 04:33:40.03	40.58	3.99	-84.7	-88.6	5.8	2.78e-01	0	47	0	0	60	1048574
2026-01-18 04:33:41.04	40.51	4.05	-84.7	-88.6	6.2	2.79e-01	0	47	0	0	60	1048572
2026-01-18 04:33:42.04	40.44	4.11	-84.7	-88.6	5.9	2.83e-01	0	47	0	0	60	1048573
2026-01-18 04:33:43.05	40.37	4.17	-85.2	-88.6	5.9	2.78e-01	0	47	0	0	60	1048574
2026-01-18 04:33:44.06	40.29	4.23	-84.7	-88.6	6.4	2.80e-01	0	47	0	0	60	1048575
2026-01-18 04:33:45.07	40.22	4.29	-84.7	-88.6	6.2	2.80e-01	0	47	0	0	60	1048570
2026-01-18 04:33:46.08	40.14	4.35	-84.7	-88.6	6.1	2.78e-01	0	47	0	0	60	1048572
2026-01-18 04:33:47.08	40.07	4.41	-85.2	-88.6	5.5	2.74e-01	0	47	0	0	60	1048575
2026-01-18 04:33:48.09	39.99	4.47	-84.7	-88.6	6.4	2.82e-01	0	47	0	0	60	1048575
2026-01-18 04:33:49.09	39.92	4.53	-84.7	-88.6	6.2	2.83e-01	0	47	0	0	60	1048572
2026-01-18 04:33:50.10	39.84	4.60	-84.7	-88.6	5.5	2.79e-01	0	47	0	0	60	1048574
2026-01-18 04:33:51.11	39.77	4.66	-84.7	-88.6	5.9	2.79e-01	0	47	0	0	60	1048574
2026-01-18 04:33:52.12	39.69	4.72	-85.2	-88.6	6.3	2.81e-01	0	47	0	0	60	1048572
2026-01-18 04:33:53.13	39.62	4.78	-85.2	-88.6	5.9	2.74e-01	0	47	0	0	60	1048575
2026-01-18 04:33:54.13	39.54	4.84	-84.7	-88.6	5.9	2.76e-01	0	47	0	0	60	1048575
2026-01-18 04:33:55.14	39.46	4.90	-84.7	-88.6	6.3	2.77e-01	0	47	0	0	60	1048570
2026-01-18 04:33:56.14	39.39	4.96	-84.7	-88.6	6.1	2.78e-01	0	47	0	0	60	1048575
2026-01-18 04:33:57.15	39.31	5.03	-84.7	-88.6	5.7	2.79e-01	0	47	0	0	60	1048572
2026-01-18 04:33:58.16	39.23	5.09	-84.7	-88.6	5.9	2.78e-01	0	47	0	0	60	1048575
2026-01-18 04:33:59.16	39.15	5.15	-84.7	-88.6	5.7	2.78e-01	0	47	0	0	60	1048574
2026-01-18 04:34:00.17	39.07	5.21	-84.7	-88.6	6.0	2.78e-01	0	47	0	0	60	1048569
2026-01-18 04:34:01.18	38.99	5.27	-84.7	-88.6	6.1	2.77e-01	0	47	0	0	60	1048575
2026-01-18 04:34:02.18	38.91	5.34	-85.2	-88.6	5.9	2.77e-01	0	47	0	0	60	1048567
2026-01-18 04:34:03.18	38.83	5.40	-84.7	-88.6	5.6	2.77e-01	0	47	0	0	60	1048572
2026-01-18 04:34:04.19	38.75	5.46	-85.2	-88.6	5.8	2.80e-01	0	47	0	0	60	1048573
2026-01-18 04:34:05.20	38.67	5.52	-84.7	-88.6	6.3	2.80e-01	0	47	0	0	60	1048573
2026-01-18 04:34:06.20	38.59	5.58	-84.7	-88.6	5.2	2.74e-01	0	47	0	0	60	1048575
2026-01-18 04:34:07.21	38.51	5.65	-84.7	-88.6	5.6	2.75e-01	0	47	0	0	60	1048571
2026-01-18 04:34:08.22	38.43	5.71	-84.7	-88.6	6.2	2.79e-01	0	47	0	0	60	1048569
2026-01-18 04:34:09.22	38.35	5.77	-84.7	-88.6	6.1	2.79e-01	0	47	0	0	60	1048571
2026-01-18 04:34:10.23	38.27	5.84	-84.7	-88.6	6.0	2.79e-01	0	47	0	0	60	1048574
2026-01-18 04:34:11.24	38.18	5.90	-84.7	-88.6	5.5	2.74e-01	0	47	0	0	60	1048572
2026-01-18 04:34:12.24	38.10	5.96	-85.2	-88.6	6.2	2.76e-01	0	47	0	0	60	1048574
2026-01-18 04:34:13.24	38.02	6.02	-84.7	-88.6	6.3	2.77e-01	0	47	0	0	60	1048574
2026-01-18 04:34:14.25	37.93	6.09	-84.7	-88.6	5.5	2.80e-01	0	47	0	0	60	1048570
2026-01-18 04:34:15.26	37.85	6.15	-84.7	-88.6	6.2	2.76e-01	0	47	0	0	60	1048568
2026-01-18 04:34:16.26	37.76	6.21	-84.7	-88.6	5.9	2.77e-01	0	47	0	0	60	1048574
2026-01-18 04:34:17.27	37.68	6.28	-84.7	-88.6	6.4	2.80e-01	0	47	0	0	60	1048571
2026-01-18 04:34:18.27	37.59	6.34	-84.7	-88.6	5.7	2.72e-01	0	47	0	0	60	1048573
2026-01-18 04:34:19.28	37.51	6.40	-84.7	-88.6	5.8	2.76e-01	0	47	0	0	60	1048573
2026-01-18 04:34:20.28	37.42	6.47	-84.7	-88.6	6.2	2.80e-01	0	47	0	0	60	1048574
2026-01-18 04:34:21.29	37.34	6.53	-85.2	-88.6	6.3	2.78e-01	0	47	0	0	60	1048560
2026-01-18 04:34:22.30	37.25	6.60	-84.7	-88.6	5.9	2.81e-01	0	47	0	0	60	1048563
2026-01-18 04:34:23.31	37.16	6.66	-85.2	-88.6	6.0	2.77e-01	0	47	0	0	60	1048571
2026-01-18 04:34:24.32	37.07	6.72	-84.7	-88.6	5.7	2.77e-01	0	47	0	0	60	1048575
2026-01-18 04:34:25.33	36.98	6.79	-84.7	-88.6	6.1	2.78e-01	0	47	0	0	60	1048575
2026-01-18 04:34:26.33	36.90	6.85	-84.7	-88.6	6.0	2.77e-01	0	47	0	0	60	1048568
2026-01-18 04:34:27.34	36.81	6.92	-85.2	-88.6	6.3	2.78e-01	0	47	0	0	60	1048574
2026-01-18 04:34:28.35	36.72	6.98	-84.7	-88.6	6.4	2.77e-01	0	47	0	0	60	1048573
2026-01-18 04:34:29.35	36.63	7.05	-83.9	-88.6	5.7	2.82e-01	0	47	0	0	60	1048574
2026-01-18 04:34:30.36	36.54	7.11	-84.7	-88.6	6.2	2.81e-01	0	47	0	0	60	1048573
2026-01-18 04:34:31.36	36.45	7.18	-84.7	-88.6	6.2	2.80e-01	0	47	0	0	60	1048574
2026-01-18 04:34:32.37	36.36	7.24	-84.7	-88.6	6.3	2.82e-01	0	47	0	0	60	1048575
2026-01-18 04:34:33.38	36.26	7.31	-84.7	-88.6	5.8	2.80e-01	0	47	0	0	60	1048563
2026-01-18 04:34:34.39	36.17	7.37	-84.7	-88.6	5.7	2.76e-01	0	47	0	0	60	1048573
2026-01-18 04:34:35.39	36.08	7.44	-85.2	-88.6	5.8	2.78e-01	0	47	0	0	60	1048569
2026-01-18 04:34:36.40	35.99	7.50	-84.7	-88.6	6.0	2.83e-01	0	47	0	0	60	1048575
2026-01-18 04:34:37.41	35.89	7.57	-84.7	-88.6	6.0	2.77e-01	0	47	0	0	60	1048571
2026-01-18 04:34:38.42	35.80	7.63	-84.7	-88.6	6.3	2.77e-01	0	47	0	0	60	1048575
2026-01-18 04:34:39.43	35.70	7.70	-84.7	-88.6	5.7	2.76e-01	0	47	0	0	60	1048574
2026-01-18 04:34:40.44	35.61	7.77	-84.7	-88.6	6.8	2.79e-01	0	47	0	0	60	1048574
2026-01-18 04:34:41.45	35.51	7.83	-84.7	-88.6	5.9	2.80e-01	0	47	0	0	60	1048563
2026-01-18 04:34:42.45	35.42	7.90	-84.7	-88.6	6.0	2.79e-01	0	47	0	0	60	1048574
2026-01-18 04:34:43.46	35.32	7.96	-84.7	-88.6	6.3	2.78e-01	0	47	0	0	60	1048575
2026-01-18 04:34:44.47	35.23	8.03	-85.2	-88.6	5.9	2.78e-01	0	47	0	0	60	1048569
2026-01-18 04:34:45.47	35.13	8.09	-84.7	-88.6	6.0	2.82e-01	0	47	0	0	60	1048574
2026-01-18 04:34:46.48	35.03	8.16	-84.7	-88.6	6.0	2.82e-01	0	47	0	0	60	1048568
2026-01-18 04:34:47.49	34.94	8.23	-84.7	-88.6	6.6	2.78e-01	0	47	0	0	60	1048571
2026-01-18 04:34:48.50	34.84	8.29	-84.7	-88.6	6.0	2.84e-01	0	47	0	0	60	1048574
2026-01-18 04:34:49.50	34.74	8.36	-84.3	-88.6	6.4	2.78e-01	0	47	0	0	60	1048575
2026-01-18 04:34:50.51	34.64	8.43	-84.7	-88.6	5.6	2.80e-01	0	47	0	0	60	1048573
2026-01-18 04:34:51.52	34.54	8.49	-84.7	-88.6	5.9	2.75e-01	0	47	0	0	60	1048571
2026-01-18 04:34:52.52	34.44	8.56	-84.7	-88.6	6.3	2.81e-01	0	47	0	0	60	1048574
2026-01-18 04:34:53.53	34.34	8.63	-84.7	-88.6	6.1	2.81e-01	0	47	0	0	60	1048573
2026-01-18 04:34:54.53	34.24	8.69	-85.2	-88.6	6.4	2.79e-01	0	47	0	0	60	1048568
2026-01-18 04:34:55.54	34.14	8.76	-85.2	-88.6	6.3	2.76e-01	0	47	0	0	60	1048575
2026-01-18 04:34:56.55	34.04	8.83	-84.7	-88.6	5.6	2.79e-01	0	47	0	0	60	1048575
2026-01-18 04:34:57.56	33.93	8.90	-84.7	-88.6	6.0	2.76e-01	0	47	0	0	60	1048573
2026-01-18 04:34:58.57	33.83	8.96	-84.7	-88.6	6.1	2.78e-01	0	47	0	0	60	1048575
2026-01-18 04:34:59.57	33.73	9.03	-85.2	-88.6	6.5	2.77e-01	0	47	0	0	60	1048569
2026-01-18 04:35:00.57	33.62	9.10	-84.7	-88.6	6.2	2.77e-01	0	47	0	0	60	1048575
2026-01-18 04:35:01.57	33.52	9.17	-84.7	-88.6	3.0	8.04e-01	0	47	104	0	60	1048572
2026-01-18 04:35:02.58	33.41	9.23	-84.7	-88.6	3.0	7.64e-01	0	47	104	0	60	1048570
2026-01-18 04:35:03.58	33.31	9.30	-85.2	-88.6	3.4	7.64e-01	0	47	104	0	60	1048575
2026-01-18 04:35:04.59	33.20	9.37	-85.2	-88.6	3.5	7.62e-01	0	47	104	0	60	1048573
2026-01-18 04:35:05.60	33.10	9.44	-84.7	-88.6	3.1	7.62e-01	0	47	104	0	60	1048575
2026-01-18 04:35:06.60	32.99	9.50	-84.7	-88.6	3.0	7.63e-01	0	47	104	0	60	1048575
2026-01-18 04:35:07.61	32.88	9.57	-84.7	-88.6	2.8	7.63e-01	0	47	104	0	60	1048572
2026-01-18 04:35:08.61	32.77	9.64	-85.2	-88.6	3.3	7.64e-01	0	47	104	0	60	1048571
2026-01-18 04:35:09.62	32.67	9.71	-85.2	-88.6	3.0	7.63e-01	0	47	104	0	60	1048574
2026-01-18 04:35:10.62	32.56	9.78	-85.2	-88.6	2.9	7.63e-01	0	47	104	0	60	1048572
2026-01-18 04:35:11.63	32.45	9.85	-84.7	-88.6	3.5	7.63e-01	0	47	104	0	60	1048575
2026-01-18 04:35:12.63	32.34	9.91	-84.7	-88.6	3.1	7.63e-01	0	47	104	0	60	1048575
2026-01-18 04:35:13.64	32.23	9.98	-85.2	-88.6	3.5	7.63e-01	0	47	104	0	60	1048572
2026-01-18 04:35:14.64	32.12	10.05	-85.2	-88.6	3.2	7.62e-01	0	47	104	0	60	1048573
2026-01-18 04:35:15.65	32.01	10.12	-85.2	-88.6	3.1	7.62e-01	0	47	104	0	60	1048574
2026-01-18 04:35:16.65	31.89	10.19	-85.2	-88.6	3.1	7.63e-01	0	47	104	0	60	1048570
2026-01-18 04:35:17.66	31.78	10.26	-85.2	-88.6	3.5	7.62e-01	0	47	104	0	60	1048572
2026-01-18 04:35:18.67	31.67	10.33	-85.2	-88.6	3.4	7.63e-01	0	47	104	0	60	1048573
2026-01-18 04:35:19.67	31.55	10.40	-85.2	-88.6	3.0	7.64e-01	0	47	104	0	60	1048575
2026-01-18 04:35:20.68	31.44	10.47	-84.7	-88.6	2.9	7.63e-01	0	47	104	0	60	1048572
2026-01-18 04:35:21.69	31.32	10.54	-85.2	-88.6	2.5	7.62e-01	0	47	104	0	60	1048573
2026-01-18 04:35:22.69	31.21	10.60	-85.2	-88.6	3.4	7.63e-01	0	47	104	0	60	1048573
2026-01-18 04:35:23.70	31.09	10.67	-85.2	-88.6	3.5	7.63e-01	0	47	104	0	60	1048574
2026-01-18 04:35:24.71	30.97	10.74	-85.2	-88.6	3.5	7.64e-01	0	47	104	0	60	1048571
2026-01-18 04:35:25.72	30.86	10.81	-85.2	-88.6	3.2	7.63e-01	0	47	104	0	60	1048572
2026-01-18 04:35:26.73	30.74	10.88	-84.7	-88.6	3.2	7.63e-01	0	47	104	0	60	1048575
2026-01-18 04:35:27.73	30.62	10.95	-85.2	-88.6	3.1	7.64e-01	0	47	104	0	60	1048571
2026-01-18 04:35:28.74	30.50	11.02	-85.2	-88.6	3.2	7.63e-01	0	47	104	0	60	1048572
2026-01-18 04:35:29.74	30.38	11.09	-84.7	-88.6	3.4	7.64e-01	0	47	104	0	60	1048567
2026-01-18 04:35:30.75	30.26	11.16	-85.2	-88.6	3.7	7.63e-01	0	47	104	0	60	1048575
2026-01-18 04:35:31.76	30.14	11.23	-85.2	-88.6	3.6	7.64e-01	0	47	104	0	60	1048575
2026-01-18 04:35:32.76	30.02	11.30	-85.2	-88.6	3.2	7.61e-01	0	47	104	0	60	1048574
2026-01-18 04:35:33.77	29.90	11.37	-85.2	-88.6	3.6	7.62e-01	0	47	104	0	60	1048573
2026-01-18 04:35:34.77	29.78	11.44	-85.2	-88.6	3.0	7.63e-01	0	47	104	0	60	1048572
2026-01-18 04:35:35.78	29.65	11.51	-84.7	-88.6	2.8	7.65e-01	0	47	104	0	60	1048568
2026-01-18 04:35:36.78	29.53	11.58	-85.2	-88.6	3.1	7.63e-01	0	47	104	0	60	1048574
2026-01-18 04:35:37.79	29.41	11.65	-85.2	-88.6	3.1	7.63e-01	0	47	104	0	60	1048571
2026-01-18 04:35:38.80	29.28	11.73	-85.2	-88.6	3.7	7.62e-01	0	47	104	0	60	1048573
2026-01-18 04:35:39.81	29.15	11.80	-84.7	-88.6	3.3	7.63e-01	0	47	104	0	60	1048575
2026-01-18 04:35:40.82	29.03	11.87	-85.2	-88.6	3.2	7.62e-01	0	47	104	0	60	1048575
2026-01-18 04:35:41.82	28.90	11.94	-85.2	-88.6	3.5	7.59e-01	0	47	104	0	60	1048575
2026-01-18 04:35:42.83	28.77	12.01	-85.2	-88.6	3.3	7.63e-01	0	47	104	0	60	1048573
2026-01-18 04:35:43.84	28.64	12.08	-85.2	-88.6	3.6	7.57e-01	0	47	104	0	60	1048575
2026-01-18 04:35:44.84	28.52	12.15	-85.2	-88.6	3.6	7.63e-01	0	47	104	0	60	1048574
2026-01-18 04:35:45.85	28.39	12.22	-85.2	-88.6	3.0	7.63e-01	0	47	104	0	60	1048574
2026-01-18 04:35:46.86	28.26	12.29	-85.2	-88.6	3.0	7.63e-01	0	47	104	0	60	1048572
2026-01-18 04:35:47.87	28.12	12.36	-85.2	-88.6	3.7	7.64e-01	0	47	104	0	60	1048565
2026-01-18 04:35:48.88	27.99	12.44	-85.2	-88.6	3.7	7.63e-01	0	47	104	0	60	1048571
2026-01-18 04:35:49.89	27.86	12.51	-85.2	-88.6	3.2	7.63e-01	0	47	104	0	60	1048574
2026-01-18 04:35:50.89	27.73	12.58	-85.2	-88.6	3.2	7.63e-01	0	47	104	0	60	1048570
2026-01-18 04:35:51.90	27.60	12.65	-85.2	-88.6	2.9	7.63e-01	0	47	104	0	60	1048573
2026-01-18 04:35:52.89	27.46	12.72	-85.2	-88.6	3.7	7.62e-01	0	47	104	0	60	1048566
2026-01-18 04:35:53.90	27.33	12.79	-84.7	-88.6	3.3	7.61e-01	0	47	104	0	60	1048575
2026-01-18 04:35:54.91	27.19	12.86	-85.2	-88.6	3.1	7.65e-01	0	47	104	0	60	1048565
2026-01-18 04:35:55.92	27.06	12.94	-85.2	-88.6	3.3	7.63e-01	0	47	104	0	60	1048573
2026-01-18 04:35:56.93	26.92	13.01	-85.2	-88.6	3.3	7.63e-01	0	47	104	0	60	1048569
2026-01-18 04:35:57.93	26.78	13.08	-85.2	-88.6	3.2	7.63e-01	0	47	104	0	60	1048571
2026-01-18 04:35:58.94	26.64	13.15	-84.7	-88.6	3.5	7.64e-01	0	47	104	0	60	1048572
2026-01-18 04:35:59.95	26.50	13.22	-85.2	-88.6	3.6	7.62e-01	0	47	104	0	60	1048575
2026-01-18 04:36:00.95	26.37	13.29	-85.2	-88.6	2.8	7.65e-01	0	47	104	0	60	1048575
2026-01-18 04:36:01.96	26.23	13.37	-85.2	-88.6	3.0	7.63e-01	0	47	104	0	60	1048574
2026-01-18 04:36:02.97	26.08	13.44	-85.2	-88.6	3.3	7.60e-01	0	47	104	0	60	1048575
2026-01-18 04:36:03.98	25.94	13.51	-84.7	-88.6	3.4	7.62e-01	0	47	104	0	60	1048574
2026-01-18 04:36:04.99	25.80	13.58	-85.2	-88.6	3.3	7.64e-01	0	47	104	0	60	1048575
2026-01-18 04:36:06.00	25.66	13.66	-85.2	-88.6	3.6	7.64e-01	0	47	104	0	60	1048563
2026-01-18 04:36:07.00	25.51	13.73	-85.2	-88.6	3.4	7.64e-01	0	47	104	0	60	1048575
2026-01-18 04:36:08.01	25.37	13.80	-85.2	-88.6	3.4	7.63e-01	0	47	104	0	60	1048568
2026-01-18 04:36:09.02	25.22	13.87	-84.7	-88.6	3.5	7.63e-01	0	47	104	0	60	1048574
2026-01-18 04:36:10.03	25.08	13.94	-85.2	-88.6	3.2	7.63e-01	0	47	104	0	60	1048575
2026-01-18 04:36:11.03	24.93	14.02	-85.2	-88.6	3.3	7.63e-01	0	47	104	0	60	1048574
2026-01-18 04:36:12.04	24.78	14.09	-85.2	-88.6	2.9	7.62e-01	0	47	104	0	60	1048569
2026-01-18 04:36:13.04	24.64	14.16	-85.2	-88.6	3.5	7.63e-01	0	47	104	0	60	1048573
2026-01-18 04:36:14.05	24.49	14.23	-85.2	-88.6	3.0	7.64e-01	0	47	104	0	60	1048575
2026-01-18 04:36:15.05	24.34	14.30	-84.7	-88.6	3.5	7.64e-01	0	47	104	0	60	1048575
2026-01-18 04:36:16.06	24.19	14.38	-85.2	-88.6	3.6	7.64e-01	0	47	104	0	60	1048572
2026-01-18 04:36:17.07	24.04	14.45	-85.2	-88.6	3.0	7.62e-01	0	47	104	0	60	1048575
2026-01-18 04:36:18.08	23.88	14.52	-85.2	-88.6	3.0	7.62e-01	0	47	104	0	60	1048574
2026-01-18 04:36:19.08	23.73	14.59	-85.2	-88.6	3.1	7.63e-01	0	47	104	0	60	1048574
2026-01-18 04:36:20.09	23.58	14.67	-85.2	-88.6	3.2	7.64e-01	0	47	104	0	60	1048574
2026-01-18 04:36:21.10	23.42	14.74	-85.2	-88.6	2.8	7.63e-01	0	47	104	0	60	1048574
2026-01-18 04:36:22.11	23.27	14.81	-84.7	-88.6	3.1	7.64e-01	0	47	104	0	60	1048572
2026-01-18 04:36:23.12	23.11	14.88	-85.2	-88.6	2.7	7.64e-01	0	47	104	0	60	1048574
2026-01-18 04:36:24.12	22.96	14.96	-85.2	-88.6	3.5	7.64e-01	0	47	104	0	60	1048575
2026-01-18 04:36:25.13	22.80	15.03	-85.2	-88.6	3.1	7.63e-01	0	47	104	0	60	1048575
2026-01-18 04:36:26.14	22.64	15.10	-85.2	-88.6	3.2	7.64e-01	0	47	104	0	60	1048574
2026-01-18 04:36:27.14	22.48	15.17	-84.7	-88.6	3.0	7.63e-01	0	47	104	0	60	1048574
2026-01-18 04:36:28.15	22.32	15.25	-85.2	-88.6	3.0	7.63e-01	0	47	104	0	60	1048574
2026-01-18 04:36:29.15	22.16	15.32	-85.2	-88.6	3.8	7.63e-01	0	47	104	0	60	1048575
2026-01-18 04:36:30.16	22.00	15.39	-85.2	-88.6	3.2	7.63e-01	0	47	104	0	60	1048572
2026-01-18 04:36:31.16	21.84	15.46	-85.2	-88.6	3.2	7.64e-01	0	47	104	0	60	1048574
2026-01-18 04:36:32.17	21.68	15.53	-85.2	-88.6	3.4	7.63e-01	0	47	104	0	60	1048573
2026-01-18 04:36:33.18	21.51	15.61	-85.2	-88.6	3.4	7.64e-01	0	47	104	0	60	1048570
2026-01-18 04:36:34.18	21.35	15.68	-85.2	-88.6	3.6	7.63e-01	0	47	104	0	60	1048574
2026-01-18 04:36:35.19	21.19	15.75	-85.2	-88.6	2.9	7.64e-01	0	47	104	0	60	1048575
2026-01-18 04:36:36.20	21.02	15.82	-85.2	-88.6	3.0	7.64e-01	0	47	104	0	60	1048574
2026-01-18 04:36:37.21	20.85	15.90	-84.7	-88.6	3.8	7.65e-01	0	47	104	0	60	1048574
2026-01-18 04:36:38.21	20.69	15.97	-85.2	-88.6	3.6	7.62e-01	0	47	104	0	60	1048572
2026-01-18 04:36:39.22	20.52	16.04	-85.2	-88.6	3.4	7.62e-01	0	47	104	0	60	1048573
2026-01-18 04:36:40.23	20.35	16.11	-84.7	-88.6	3.2	7.63e-01	0	47	104	0	60	1048575
2026-01-18 04:36:41.24	20.18	16.18	-85.2	-88.6	2.9	7.64e-01	0	47	104	0	60	1048573
2026-01-18 04:36:42.24	20.01	16.26	-85.2	-88.6	2.7	7.64e-01	0	47	104	0	60	1048575
2026-01-18 04:36:43.25	19.83	16.33	-85.2	-88.6	3.5	7.62e-01	0	47	104	0	60	1048574
2026-01-18 04:36:44.26	19.66	16.40	-85.2	-88.6	3.4	7.64e-01	0	47	104	0	60	1048575
2026-01-18 04:36:45.25	19.49	16.47	-85.2	-88.6	3.1	7.64e-01	0	47	104	0	60	1048573
2026-01-18 04:36:46.26	19.32	16.54	-85.2	-88.6	3.0	7.64e-01	0	47	104	0	60	1048570
2026-01-18 04:36:47.27	19.14	16.61	-85.2	-88.6	3.7	7.63e-01	0	47	104	0	60	1048574
2026-01-18 04:36:48.27	18.97	16.68	-85.2	-88.6	3.4	7.62e-01	0	47	104	0	60	1048575
2026-01-18 04:36:49.27	18.79	16.76	-85.2	-88.6	3.3	7.63e-01	0	47	104	0	60	1048571
2026-01-18 04:36:50.28	18.61	16.83	-85.2	-88.6	3.2	7.64e-01	0	47	104	0	60	1048574
2026-01-18 04:36:51.29	18.43	16.90	-85.2	-88.6	3.3	7.62e-01	0	47	104	0	60	1048569
2026-01-18 04:36:52.29	18.26	16.97	-85.2	-88.6	3.3	7.63e-01	0	47	104	0	60	1048570
2026-01-18 04:36:53.30	18.07	17.04	-85.2	-88.6	3.3	7.63e-01	0	47	104	0	60	1048573
2026-01-18 04:36:54.31	17.89	17.11	-85.2	-88.6	3.5	7.65e-01	0	47	104	0	60	1048568
2026-01-18 04:36:55.32	17.71	17.18	-85.2	-88.6	2.9	7.62e-01	0	47	104	0	60	1048574
2026-01-18 04:36:56.32	17.53	17.25	-85.2	-88.6	2.7	7.64e-01	0	47	104	0	60	1048574
2026-01-18 04:36:57.33	17.34	17.33	-85.2	-88.6	3.0	7.63e-01	0	47	104	0	60	1048572
2026-01-18 04:36:58.34	17.16	17.40	-85.2	-88.6	3.4	7.63e-01	0	47	104	0	60	1048574
2026-01-18 04:36:59.34	16.98	17.47	-85.2	-88.6	3.1	7.64e-01	0	47	104	0	60	1048572
2026-01-18 04:37:00.35	16.79	17.54	-85.2	-88.6	3.1	7.65e-01	0	47	104	0	60	1048574
2026-01-18 04:37:01.35	16.60	17.61	-84.7	-88.6	3.6	7.62e-01	0	47	104	0	60	1048575
2026-01-18 04:37:02.36	16.41	17.68	-85.2	-88.6	3.0	7.63e-01	0	47	104	0	60	1048574
2026-01-18 04:37:03.37	16.22	17.75	-85.2	-88.6	3.1	7.63e-01	0	47	104	0	60	1048574
2026-01-18 04:37:04.37	16.04	17.82	-85.2	-88.6	2.9	7.64e-01	0	47	104	0	60	1048572
2026-01-18 04:37:05.38	15.84	17.89	-85.2	-88.6	3.3	7.63e-01	0	47	104	0	60	1048574
2026-01-18 04:37:06.39	15.65	17.96	-84.7	-88.6	3.3	7.64e-01	0	47	104	0	60	1048575
2026-01-18 04:37:07.40	15.46	18.03	-85.2	-88.6	3.1	7.63e-01	0	47	104	0	60	1048574
2026-01-18 04:37:08.41	15.26	18.10	-85.2	-88.6	3.8	7.63e-01	0	47	104	0	60	1048574
2026-01-18 04:37:09.41	15.07	18.17	-85.2	-88.6	3.5	7.64e-01	0	47	104	0	60	1048575
2026-01-18 04:37:10.42	14.88	18.24	-84.7	-88.6	2.9	7.64e-01	0	47	104	0	60	1048574
2026-01-18 04:37:11.43	14.68	18.30	-85.2	-88.6	3.1	7.64e-01	0	47	104	0	60	1048574
2026-01-18 04:37:12.44	14.48	18.37	-85.2	-88.6	2.9	7.63e-01	0	47	104	0	60	1048573
2026-01-18 04:37:13.45	14.28	18.44	-85.2	-88.6	3.2	7.63e-01	0	47	104	0	60	1048574
2026-01-18 04:37:14.45	14.08	18.51	-85.2	-88.6	3.6	7.64e-01	0	47	104	0	60	1048574
2026-01-18 04:37:15.46	13.88	18.58	-84.7	-88.6	3.5	7.63e-01	0	47	104	0	60	1048573
2026-01-18 04:37:16.47	13.68	18.65	-85.2	-88.6	2.8	7.63e-01	0	47	104	0	60	1048571
2026-01-18 04:37:17.47	13.48	18.72	-84.3	-88.6	3.1	7.61e-01	0	47	104	0	60	1048575
2026-01-18 04:37:18.48	13.28	18.78	-85.2	-88.6	3.2	7.63e-01	0	47	104	0	60	1048572
2026-01-18 04:37:19.49	13.08	18.85	-84.7	-88.6	3.6	7.62e-01	0	47	104	0	60	1048570
2026-01-18 04:37:20.49	12.87	18.92	-85.2	-88.6	3.0	7.64e-01	0	47	104	0	60	1048573
2026-01-18 04:37:21.50	12.67	18.99	-85.2	-88.6	3.0	7.64e-01	0	47	104	0	60	1048574
2026-01-18 04:37:22.51	12.46	19.05	-85.2	-88.6	3.3	7.63e-01	0	47	104	0	60	1048572
2026-01-18 04:37:23.51	12.25	19.12	-85.2	-88.6	3.3	7.61e-01	0	47	104	0	60	1048575
2026-01-18 04:37:24.52	12.05	19.19	-84.7	-88.6	3.0	7.63e-01	0	47	104	0	60	1048573
2026-01-18 04:37:25.53	11.84	19.25	-84.7	-88.6	3.0	7.64e-01	0	47	104	0	60	1048566
2026-01-18 04:37:26.54	11.62	19.32	-85.2	-88.6	3.1	7.63e-01	0	47	104	0	60	1048573
2026-01-18 04:37:27.55	11.41	19.38	-84.7	-88.6	3.2	7.63e-01	0	47	104	0	60	1048573
2026-01-18 04:37:28.55	11.20	19.45	-85.2	-88.6	3.0	7.63e-01	0	47	104	0	60	1048575
2026-01-18 04:37:29.56	10.99	19.52	-85.2	-88.6	3.3	7.62e-01	0	47	104	0	60	1048573
2026-01-18 04:37:30.57	10.78	19.58	-85.2	-88.6	3.0	7.61e-01	0	47	104	0	60	1048572
2026-01-18 04:37:31.57	10.56	19.65	-85.2	-88.6	3.2	7.64e-01	0	47	104	0	60	1048575
2026-01-18 04:37:32.58	10.35	19.71	-85.2	-88.6	3.4	7.63e-01	0	47	104	0	60	1048573
2026-01-18 04:37:33.58	10.13	19.77	-85.2	-88.6	3.6	7.63e-01	0	47	104	0	60	1048575
2026-01-18 04:37:34.59	9.91	19.84	-85.2	-88.6	3.0	7.63e-01	0	47	104	0	60	1048575
2026-01-18 04:37:35.60	9.69	19.90	-85.2	-88.6	3.3	7.63e-01	0	47	104	0	60	1048566
2026-01-18 04:37:36.60	9.48	19.97	-85.2	-88.6	2.8	7.64e-01	0	47	104	0	60	1048572
2026-01-18 04:37:37.60	9.26	20.03	-85.2	-88.6	2.9	7.63e-01	0	47	104	0	60	1048572
2026-01-18 04:37:38.61	9.04	20.09	-84.7	-88.6	3.1	7.64e-01	0	47	104	0	60	1048574
2026-01-18 04:37:39.61	8.82	20.15	-85.2	-88.6	3.6	7.62e-01	0	47	104	0	60	1048567
2026-01-18 04:37:40.62	8.59	20.22	-85.2	-88.6	3.0	7.62e-01	0	47	104	0	60	1048575
2026-01-18 04:37:41.63	8.37	20.28	-85.2	-88.6	3.0	7.63e-01	0	47	104	0	60	1048575
2026-01-18 04:37:42.64	8.14	20.34	-85.2	-88.6	3.1	7.64e-01	0	47	104	0	60	1048575
2026-01-18 04:37:43.65	7.92	20.40	-85.2	-88.6	3.2	7.63e-01	0	47	104	0	60	1048574
2026-01-18 04:37:44.65	7.69	20.46	-85.2	-88.6	3.2	7.62e-01	0	47	104	0	60	1048569
2026-01-18 04:37:45.66	7.46	20.53	-85.2	-88.6	3.0	7.58e-01	0	47	104	0	60	1048575
2026-01-18 04:37:46.67	7.23	20.59	-85.2	-88.6	3.5	7.62e-01	0	47	104	0	60	1048574
2026-01-18 04:37:47.68	7.00	20.65	-85.2	-88.6	3.7	7.63e-01	0	47	104	0	60	1048575
2026-01-18 04:37:48.69	6.77	20.71	-84.7	-88.6	3.0	7.63e-01	0	47	104	0	60	1048574
2026-01-18 04:37:49.69	6.54	20.77	-85.2	-88.6	2.9	7.62e-01	0	47	104	0	60	1048573
2026-01-18 04:37:50.70	6.31	20.83	-85.2	-88.6	3.7	7.63e-01	0	47	104	0	60	1048573
2026-01-18 04:37:51.71	6.08	20.88	-85.2	-88.6	3.0	7.61e-01	0	47	104	0	60	1048575
2026-01-18 04:37:52.72	5.84	20.94	-85.2	-88.6	3.0	7.63e-01	0	47	104	0	60	1048575
2026-01-18 04:37:53.73	5.61	21.00	-84.7	-88.6	3.7	7.64e-01	0	47	104	0	60	1048572
2026-01-18 04:37:54.73	5.37	21.06	-85.2	-88.6	3.4	7.63e-01	0	47	104	0	60	1048574
2026-01-18 04:37:55.74	5.14	21.12	-85.2	-88.6	3.7	7.64e-01	0	47	104	0	60	1048575
2026-01-18 04:37:56.75	4.90	21.17	-84.7	-88.6	3.0	7.63e-01	0	47	104	0	60	1048575
2026-01-18 04:37:57.76	4.66	21.23	-85.2	-88.6	3.0	7.64e-01	0	47	104	0	60	1048575
2026-01-18 04:37:58.76	4.42	21.29	-85.2	-88.6	3.0	7.61e-01	0	47	104	0	60	1048572
2026-01-18 04:37:59.77	4.18	21.34	-85.2	-88.6	3.3	7.61e-01	0	47	104	0	60	1048571
2026-01-18 04:38:00.78	3.94	21.40	-85.2	-88.6	3.0	7.64e-01	0	47	104	0	60	1048575
2026-01-18 04:38:01.79	3.70	21.45	-83.5	-88.6	3.0	7.63e-01	0	47	104	0	60	1048571
2026-01-18 04:38:02.79	3.46	21.51	-85.2	-88.6	3.1	7.64e-01	0	47	104	0	60	1048575
2026-01-18 04:38:03.79	3.21	21.56	-85.2	-88.6	3.0	7.64e-01	0	47	104	0	60	1048575
2026-01-18 04:38:04.80	2.97	21.61	-85.2	-88.6	3.0	7.64e-01	0	47	104	0	60	1048575
2026-01-18 04:38:05.81	2.72	21.67	-85.2	-88.6	3.5	7.63e-01	0	47	104	0	60	1048574
2026-01-18 04:38:06.81	2.48	21.72	-85.2	-88.6	3.0	7.63e-01	0	47	104	0	60	1048573
2026-01-18 04:38:07.82	2.23	21.77	-85.2	-88.6	3.5	7.64e-01	0	47	104	0	60	1048571
2026-01-18 04:38:08.83	1.98	21.82	-85.2	-88.6	3.1	7.63e-01	0	47	104	0	60	1048574
2026-01-18 04:38:09.84	1.73	21.87	-85.2	-88.6	2.9	7.64e-01	0	47	104	0	60	1048575
2026-01-18 04:38:10.84	1.49	21.92	-85.2	-88.6	2.9	7.63e-01	0	47	104	0	60	1048574
2026-01-18 04:38:11.85	1.24	21.98	-84.7	-88.6	3.0	7.64e-01	0	47	104	0	60	1048575
2026-01-18 04:38:12.86	0.98	22.03	-84.7	-88.6	3.6	7.63e-01	0	47	104	0	60	1048573
2026-01-18 04:38:13.87	0.73	22.07	-85.2	-88.6	3.4	7.63e-01	0	47	104	0	60	1048574
2026-01-18 04:38:14.88	0.48	22.12	-85.2	-88.6	3.2	7.64e-01	0	47	104	0	60	1048567
2026-01-18 04:38:15.88	0.23	22.17	-85.2	-88.6	3.1	7.64e-01	0	47	104	0	60	1048574
2026-01-18 04:38:16.89	359.97	22.22	-85.2	-88.6	3.3	7.63e-01	0	47	104	0	60	1048573
2026-01-18 04:38:17.90	359.72	22.27	-85.2	-88.6	2.9	7.63e-01	0	47	104	0	60	1048575
2026-01-18 04:38:18.91	359.46	22.31	-85.2	-88.6	3.0	7.63e-01	0	47	104	0	60	1048572
2026-01-18 04:38:19.92	359.20	22.36	-85.2	-88.6	3.5	7.63e-01	0	47	104	0	60	1048575
2026-01-18 04:38:20.92	358.95	22.41	-85.2	-88.6	3.3	7.63e-01	0	47	104	0	60	1048575
2026-01-18 04:38:21.93	358.69	22.45	-83.5	-88.6	3.0	7.63e-01	0	47	104	0	60	1048573
2026-01-18 04:38:22.94	358.43	22.50	-85.2	-88.6	3.2	7.65e-01	0	47	104	0	60	1048574
2026-01-18 04:38:23.95	358.17	22.54	-85.2	-88.6	3.0	7.62e-01	0	47	104	0	60	1048572
2026-01-18 04:38:24.95	357.91	22.58	-85.2	-88.6	3.3	7.64e-01	0	47	104	0	60	1048570
2026-01-18 04:38:25.95	357.65	22.63	-85.2	-88.6	3.6	7.63e-01	0	47	104	0	60	1048571
2026-01-18 04:38:26.96	357.39	22.67	-85.2	-88.6	3.6	7.64e-01	0	47	104	0	60	1048572
2026-01-18 04:38:27.97	357.12	22.71	-85.2	-88.6	3.2	7.63e-01	0	47	104	0	60	1048574
2026-01-18 04:38:28.97	356.86	22.75	-85.2	-88.6	3.1	7.64e-01	0	47	104	0	60	1048575
2026-01-18 04:38:29.98	356.60	22.79	-85.2	-88.6	3.0	7.64e-01	0	47	104	0	60	1048575
2026-01-18 04:38:30.99	356.33	22.83	-84.7	-88.6	3.2	7.64e-01	0	47	104	0	60	1048571
2026-01-18 04:38:32.00	356.07	22.87	-84.7	-88.6	3.2	7.64e-01	0	47	104	0	60	1048575
2026-01-18 04:38:33.01	355.80	22.91	-85.2	-88.6	3.1	7.63e-01	0	47	104	0	60	1048574
2026-01-18 04:38:34.01	355.53	22.95	-85.2	-88.6	3.8	7.58e-01	0	47	104	0	60	1048575
2026-01-18 04:38:35.02	355.27	22.99	-85.2	-88.6	3.1	7.63e-01	0	47	104	0	60	1048573
2026-01-18 04:38:36.03	355.00	23.02	-84.7	-88.6	3.0	7.64e-01	0	47	104	0	60	1048570
2026-01-18 04:38:37.04	354.73	23.06	-84.7	-88.6	2.9	7.63e-01	0	47	104	0	60	1048573
2026-01-18 04:38:38.05	354.46	23.10	-85.2	-88.6	3.2	7.63e-01	0	47	104	0	60	1048574
2026-01-18 04:38:39.05	354.19	23.13	-85.2	-88.6	3.1	7.63e-01	0	47	104	0	60	1048573
2026-01-18 04:38:40.05	353.92	23.16	-85.2	-88.6	3.6	7.62e-01	0	47	104	0	60	1048575
2026-01-18 04:38:41.06	353.65	23.20	-84.7	-88.6	3.7	7.64e-01	0	47	104	0	60	1048575
2026-01-18 04:38:42.07	353.38	23.23	-84.7	-88.6	3.1	7.62e-01	0	47	104	0	60	1048575
2026-01-18 04:38:43.08	353.10	23.26	-85.2	-88.6	2.8	7.63e-01	0	47	104	0	60	1048574
2026-01-18 04:38:44.08	352.83	23.30	-85.2	-88.6	3.6	7.62e-01	0	47	104	0	60	1048570
2026-01-18 04:38:45.09	352.56	23.33	-85.2	-88.6	3.6	7.62e-01	0	47	104	0	60	1048574
2026-01-18 04:38:46.10	352.28	23.36	-84.7	-88.6	3.0	7.63e-01	0	47	104	0	60	1048575
2026-01-18 04:38:47.11	352.01	23.39	-84.7	-88.6	3.0	7.63e-01	0	47	104	0	60	1048575
2026-01-18 04:38:48.11	351.73	23.42	-85.2	-88.6	3.7	7.64e-01	0	47	104	0	60	1048575
2026-01-18 04:38:49.12	351.46	23.45	-85.2	-88.6	3.2	7.63e-01	0	47	104	0	60	1048574
2026-01-18 04:38:50.13	351.18	23.47	-84.7	-88.6	3.2	7.63e-01	0	47	104	0	60	1048575
2026-01-18 04:38:51.14	350.90	23.50	-85.2	-88.6	3.5	7.64e-01	0	47	104	0	60	1048568
2026-01-18 04:38:52.14	350.63	23.53	-84.7	-88.6	3.0	7.63e-01	0	47	104	0	60	1048573
2026-01-18 04:38:53.15	350.35	23.55	-85.2	-88.6	3.1	7.63e-01	0	47	104	0	60	1048574
2026-01-18 04:38:54.15	350.08	23.58	-85.2	-88.6	3.6	7.63e-01	0	47	104	0	60	1048575
2026-01-18 04:38:55.16	349.80	23.60	-84.7	-88.6	3.4	7.64e-01	0	47	104	0	60	1048572
2026-01-18 04:38:56.16	349.52	23.63	-85.2	-88.6	3.1	7.64e-01	0	47	104	0	60	1048570
2026-01-18 04:38:57.17	349.24	23.65	-84.7	-88.6	3.1	7.62e-01	0	47	104	0	60	1048571
2026-01-18 04:38:58.18	348.96	23.67	-85.2	-88.6	3.1	7.62e-01	0	47	104	0	60	1048575
2026-01-18 04:38:59.19	348.68	23.69	-85.2	-88.6	3.3	7.63e-01	0	47	104	0	60	1048575
2026-01-18 04:39:00.18	348.40	23.71	-84.7	-88.6	3.4	7.65e-01	0	47	104	0	60	1048574
2026-01-18 04:39:01.19	348.12	23.73	-85.2	-88.6	3.1	7.62e-01	0	47	104	0	60	1048572
2026-01-18 04:39:02.19	347.84	23.75	-85.2	-88.6	3.2	7.63e-01	0	47	104	0	60	1048573
2026-01-18 04:39:03.19	347.56	23.77	-85.2	-88.6	3.1	7.63e-01	0	47	104	0	60	1048574
2026-01-18 04:39:04.20	347.28	23.79	-84.7	-88.6	3.1	7.63e-01	0	47	104	0	60	1048575
2026-01-18 04:39:05.20	347.00	23.80	-84.7	-88.6	3.5	7.63e-01	0	47	104	0	60	1048573
2026-01-18 04:39:06.21	346.72	23.82	-85.2	-88.6	3.3	7.63e-01	0	47	104	0	60	1048575
2026-01-18 04:39:07.22	346.43	23.84	-85.2	-88.6	3.2	7.63e-01	0	47	104	0	60	1048575
2026-01-18 04:39:08.23	346.15	23.85	-85.2	-88.6	3.0	7.63e-01	0	47	104	0	60	1048574
2026-01-18 04:39:09.23	345.87	23.87	-84.7	-88.6	3.5	7.63e-01	0	47	104	0	60	1048575
2026-01-18 04:39:10.24	345.58	23.88	-85.2	-88.6	2.5	7.64e-01	0	47	104	0	60	1048574
2026-01-18 04:39:11.24	345.30	23.89	-85.2	-88.6	3.3	7.64e-01	0	47	104	0	60	1048573
2026-01-18 04:39:12.25	345.02	23.90	-85.2	-88.6	2.7	7.63e-01	0	47	104	0	60	1048569
2026-01-18 04:39:13.26	344.73	23.91	-85.2	-88.6	3.1	7.63e-01	0	47	104	0	60	1048575
2026-01-18 04:39:14.27	344.45	23.92	-84.7	-88.6	3.1	7.63e-01	0	47	104	0	60	1048575
2026-01-18 04:39:15.28	344.16	23.93	-85.2	-88.6	3.6	7.63e-01	0	47	104	0	60	1048575
2026-01-18 04:39:16.28	343.88	23.94	-84.7	-88.6	3.8	7.64e-01	0	47	104	0	60	1048574
2026-01-18 04:39:17.28	343.60	23.95	-84.7	-88.6	3.1	7.63e-01	0	47	104	0	60	1048575
2026-01-18 04:39:18.29	343.31	23.96	-85.2	-88.6	3.1	7.63e-01	0	47	104	0	60	1048574
2026-01-18 04:39:19.30	343.02	23.96	-84.7	-88.6	3.1	7.62e-01	0	47	104	0	60	1048573
2026-01-18 04:39:20.30	342.74	23.97	-85.2	-88.6	2.9	7.63e-01	0	47	104	0	60	1048571
2026-01-18 04:39:21.31	342.45	23.98	-85.2	-88.6	3.2	7.64e-01	0	47	104	0	60	1048572
2026-01-18 04:39:22.32	342.17	23.98	-85.2	-88.6	3.0	7.62e-01	0	47	104	0	60	1048573
2026-01-18 04:39:23.33	341.88	23.98	-85.2	-88.6	3.2	7.62e-01	0	47	104	0	60	1048574
2026-01-18 04:39:24.33	341.60	23.99	-85.2	-88.6	2.9	7.62e-01	0	47	104	0	60	1048574
2026-01-18 04:39:25.34	341.31	23.99	-85.2	-88.6	3.5	7.63e-01	0	47	104	0	60	1048571
2026-01-18 04:39:26.35	341.03	23.99	-85.2	-88.6	3.0	7.62e-01	0	47	104	0	60	1048569
2026-01-18 04:39:27.36	340.74	23.99	-85.2	-88.6	3.1	7.63e-01	0	47	104	0	60	1048571
2026-01-18 04:39:28.36	340.46	23.99	-84.7	-88.6	2.9	7.63e-01	0	47	104	0	60	1048572
2026-01-18 04:39:29.36	340.17	23.99	-85.2	-88.6	3.4	7.63e-01	0	47	104	0	60	1048570
2026-01-18 04:39:30.37	339.89	23.98	-85.2	-88.6	3.5	7.65e-01	0	47	104	0	60	1048567
2026-01-18 04:39:31.38	339.60	23.98	-85.2	-88.6	3.0	7.62e-01	0	47	104	0	60	1048570
2026-01-18 04:39:32.39	339.31	23.98	-85.2	-88.6	3.7	7.62e-01	0	47	104	0	60	1048573
2026-01-18 04:39:33.40	339.03	23.97	-84.7	-88.6	2.9	7.62e-01	0	47	104	0	60	1048575
2026-01-18 04:39:34.41	338.74	23.97	-85.2	-88.6	3.1	7.63e-01	0	47	104	0	60	1048575
2026-01-18 04:39:35.41	338.46	23.96	-85.2	-88.6	2.9	7.63e-01	0	47	104	0	60	1048569
2026-01-18 04:39:36.42	338.17	23.96	-85.2	-88.6	3.6	7.64e-01	0	47	104	0	60	1048570
2026-01-18 04:39:37.42	337.89	23.95	-85.2	-88.6	3.1	7.63e-01	0	47	104	0	60	1048565
2026-01-18 04:39:38.42	337.61	23.94	-84.7	-88.6	3.0	7.64e-01	0	47	104	0	60	1048575
2026-01-18 04:39:39.43	337.32	23.93	-85.2	-88.6	3.8	7.63e-01	0	47	104	0	60	1048574
2026-01-18 04:39:40.44	337.03	23.92	-84.3	-88.6	2.9	7.65e-01	0	47	104	0	60	1048573
2026-01-18 04:39:41.45	336.75	23.91	-85.2	-88.6	3.6	7.63e-01	0	47	104	0	60	1048573
2026-01-18 04:39:42.45	336.47	23.90	-85.2	-88.6	3.8	7.64e-01	0	47	104	0	60	1048575
2026-01-18 04:39:43.46	336.18	23.89	-85.2	-88.6	2.9	7.63e-01	0	47	104	0	60	1048571
2026-01-18 04:39:44.47	335.90	23.88	-85.2	-88.6	3.0	7.63e-01	0	47	104	0	60	1048575
2026-01-18 04:39:45.47	335.62	23.86	-85.2	-88.6	3.6	7.63e-01	0	47	104	0	60	1048575
2026-01-18 04:39:46.48	335.33	23.85	-85.2	-88.6	2.8	7.63e-01	0	47	104	0	60	1048575
2026-01-18 04:39:47.49	335.05	23.83	-85.2	-88.6	2.7	7.64e-01	0	47	104	0	60	1048575
2026-01-18 04:39:48.50	334.76	23.82	-85.2	-88.6	3.1	7.64e-01	0	47	104	0	60	1048574
2026-01-18 04:39:49.51	334.48	23.80	-85.2	-88.6	3.4	7.64e-01	0	47	104	0	60	1048575
2026-01-18 04:39:50.51	334.20	23.78	-85.2	-88.6	3.8	7.65e-01	0	47	104	0	60	1048575
2026-01-18 04:39:51.52	333.92	23.77	-84.7	-88.6	3.2	7.62e-01	0	47	104	0	60	1048575
2026-01-18 04:39:52.53	333.64	23.75	-85.2	-88.6	3.1	7.62e-01	0	47	104	0	60	1048574
2026-01-18 04:39:53.54	333.35	23.73	-85.2	-88.6	2.9	7.62e-01	0	47	104	0	60	1048575
2026-01-18 04:39:54.54	333.08	23.71	-85.2	-88.6	3.0	7.63e-01	0	47	104	0	60	1048564
2026-01-18 04:39:55.55	332.79	23.69	-85.2	-88.6	3.4	7.63e-01	0	47	104	0	60	1048572
2026-01-18 04:39:56.56	332.51	23.66	-84.7	-88.6	3.6	7.64e-01	0	47	104	0	60	1048570
2026-01-18 04:39:57.57	332.23	23.64	-85.2	-88.6	2.8	7.63e-01	0	47	104	0	60	1048574
2026-01-18 04:39:58.58	331.95	23.62	-85.2	-88.6	3.3	7.63e-01	0	47	104	0	60	1048574
2026-01-18 04:39:59.58	331.68	23.60	-85.2	-88.6	3.3	7.64e-01	0	47	104	0	60	1048571
2026-01-18 04:40:00.59	331.40	23.57	-85.2	-88.6	2.7	7.62e-01	0	47	104	0	60	1048572
2026-01-18 04:40:01.59	331.12	23.55	-84.7	-88.6	3.0	7.62e-01	0	47	104	0	60	1048573
2026-01-18 04:40:02.60	330.84	23.52	-85.2	-88.6	3.6	7.62e-01	0	47	104	0	60	1048569
2026-01-18 04:40:03.61	330.57	23.49	-85.2	-88.6	3.5	7.65e-01	0	47	104	0	60	1048573
2026-01-18 04:40:04.61	330.29	23.47	-85.2	-88.6	3.0	7.63e-01	0	47	104	0	60	1048575
2026-01-18 04:40:05.61	330.02	23.44	-85.2	-88.6	3.0	7.65e-01	0	47	104	0	60	1048575
2026-01-18 04:40:06.62	329.74	23.41	-84.7	-88.6	3.5	7.63e-01	0	47	104	0	60	1048575
2026-01-18 04:40:07.63	329.46	23.38	-85.2	-88.6	3.3	7.63e-01	0	47	104	0	60	1048568
2026-01-18 04:40:08.63	329.19	23.35	-85.2	-88.6	2.8	7.65e-01	0	47	104	0	60	1048575
2026-01-18 04:40:09.64	328.92	23.32	-85.2	-88.6	3.2	7.62e-01	0	47	104	0	60	1048575
2026-01-18 04:40:10.65	328.64	23.29	-84.7	-88.6	3.3	7.64e-01	0	47	104	0	60	1048574
2026-01-18 04:40:11.66	328.37	23.26	-85.2	-88.6	3.5	7.63e-01	0	47	104	0	60	1048572
2026-01-18 04:40:12.67	328.10	23.22	-85.2	-88.6	2.8	7.62e-01	0	47	104	0	60	1048569
2026-01-18 04:40:13.67	327.83	23.19	-85.2	-88.6	3.0	7.62e-01	0	47	104	0	60	1048572
2026-01-18 04:40:14.68	327.55	23.16	-85.2	-88.6	2.9	7.61e-01	0	47	104	0	60	1048575
2026-01-18 04:40:15.69	327.28	23.12	-85.2	-88.6	3.0	7.62e-01	0	47	104	0	60	1048574
2026-01-18 04:40:16.69	327.02	23.09	-85.2	-88.6	3.7	7.64e-01	0	47	104	0	60	1048575
2026-01-18 04:40:17.70	326.74	23.05	-84.7	-88.6	3.3	7.62e-01	0	47	104	0	60	1048572
2026-01-18 04:40:18.70	326.48	23.01	-85.2	-88.6	3.1	7.63e-01	0	47	104	0	60	1048575
2026-01-18 04:40:19.71	326.21	22.98	-85.2	-88.6	3.0	7.64e-01	0	47	104	0	60	1048575
2026-01-18 04:40:20.71	325.94	22.94	-85.2	-88.6	3.3	7.64e-01	0	47	104	0	60	1048575
2026-01-18 04:40:21.72	325.68	22.90	-85.2	-88.6	3.5	7.63e-01	0	47	104	0	60	1048575
2026-01-18 04:40:22.73	325.41	22.86	-85.2	-88.6	3.2	7.63e-01	0	47	104	0	60	1048575
2026-01-18 04:40:23.74	325.14	22.82	-85.2	-88.6	3.3	7.64e-01	0	47	104	0	60	1048575
2026-01-18 04:40:24.74	324.88	22.78	-83.9	-88.6	3.0	7.58e-01	0	47	104	0	60	1048570
2026-01-18 04:40:25.75	324.62	22.74	-84.7	-88.6	3.1	7.62e-01	0	47	104	0	60	1048570
2026-01-18 04:40:26.76	324.35	22.70	-85.2	-88.6	3.5	7.65e-01	0	47	104	0	60	1048574
2026-01-18 04:40:27.77	324.09	22.66	-85.2	-88.6	3.4	7.64e-01	0	47	104	0	60	1048575
2026-01-18 04:40:28.77	323.83	22.62	-85.2	-88.6	3.0	7.63e-01	0	47	104	0	60	1048574
2026-01-18 04:40:29.78	323.57	22.57	-85.2	-88.6	2.9	7.62e-01	0	47	104	0	60	1048572
2026-01-18 04:40:30.78	323.31	22.53	-85.2	-88.6	3.6	7.64e-01	0	47	104	0	60	1048573
2026-01-18 04:40:31.79	323.05	22.48	-85.2	-88.6	2.8	7.65e-01	0	47	104	0	60	1048574
2026-01-18 04:40:32.80	322.79	22.44	-85.2	-88.6	3.0	7.64e-01	0	47	104	0	60	1048568
2026-01-18 04:40:33.81	322.53	22.39	-85.2	-88.6	3.0	7.60e-01	0	47	104	0	60	1048566
2026-01-18 04:40:34.80	322.28	22.35	-84.7	-88.6	3.4	7.63e-01	0	47	104	0	60	1048574
2026-01-18 04:40:35.81	322.02	22.30	-85.2	-88.6	3.2	7.64e-01	0	47	104	0	60	1048575
2026-01-18 04:40:36.80	321.77	22.26	-85.2	-88.6	3.2	7.63e-01	0	47	104	0	60	1048570
2026-01-18 04:40:37.81	321.51	22.21	-85.2	-88.6	2.8	7.64e-01	0	47	104	0	60	1048574
2026-01-18 04:40:38.81	321.26	22.16	-85.2	-88.6	3.6	7.63e-01	0	47	104	0	60	1048575
2026-01-18 04:40:39.82	321.00	22.11	-84.7	-88.6	2.9	7.63e-01	0	47	104	0	60	1048574
2026-01-18 04:40:40.83	320.75	22.06	-85.2	-88.6	2.8	7.63e-01	0	47	104	0	60	1048575
2026-01-18 04:40:41.84	320.50	22.01	-85.2	-88.6	3.1	7.64e-01	0	47	104	0	60	1048574
2026-01-18 04:40:42.84	320.25	21.96	-85.2	-88.6	3.2	7.63e-01	0	47	104	0	60	1048572
2026-01-18 04:40:43.85	320.00	21.91	-84.7	-88.6	2.9	7.63e-01	0	47	104	0	60	1048575
2026-01-18 04:40:44.85	319.75	21.86	-84.7	-88.6	3.0	7.63e-01	0	47	104	0	60	1048575
2026-01-18 04:40:45.86	319.50	21.81	-85.2	-88.6	3.2	7.63e-01	0	47	104	0	60	1048573
2026-01-18 04:40:46.87	319.25	21.76	-85.2	-88.6	3.0	7.63e-01	0	47	104	0	60	1048572
2026-01-18 04:40:47.88	319.00	21.71	-85.2	-88.6	3.6	7.63e-01	0	47	104	0	60	1048574
2026-01-18 04:40:48.88	318.76	21.65	-84.7	-88.6	3.2	7.63e-01	0	47	104	0	60	1048574
2026-01-18 04:40:49.89	318.51	21.60	-84.7	-88.6	3.1	7.64e-01	0	47	104	0	60	1048574
2026-01-18 04:40:50.90	318.27	21.55	-85.2	-88.6	2.8	7.62e-01	0	47	104	0	60	1048575
2026-01-18 04:40:51.90	318.03	21.49	-84.7	-88.6	3.6	7.64e-01	0	47	104	0	60	1048575
2026-01-18 04:40:52.91	317.78	21.44	-85.2	-88.6	2.8	7.62e-01	0	47	104	0	60	1048567
2026-01-18 04:40:53.91	317.54	21.38	-85.2	-88.6	3.1	7.63e-01	0	47	104	0	60	1048574
2026-01-18 04:40:54.92	317.30	21.33	-85.2	-88.6	3.0	7.63e-01	0	47	104	0	60	1048574
2026-01-18 04:40:55.92	317.06	21.27	-85.2	-88.6	3.6	7.63e-01	0	47	104	0	60	1048575
2026-01-18 04:40:56.93	316.82	21.22	-85.2	-88.6	3.1	7.63e-01	0	47	104	0	60	1048567
2026-01-18 04:40:57.93	316.59	21.16	-85.2	-88.6	2.8	7.64e-01	0	47	104	0	60	1048574
2026-01-18 04:40:58.94	316.35	21.10	-85.2	-88.6	3.2	7.64e-01	0	47	104	0	60	1048572
2026-01-18 04:40:59.95	316.11	21.04	-85.2	-88.6	3.1	7.64e-01	0	47	104	0	60	1048572
2026-01-18 04:41:00.95	315.88	20.99	-85.2	-88.6	3.7	7.64e-01	0	47	104	0	60	1048565
2026-01-18 04:41:01.96	315.64	20.93	-85.2	-88.6	3.6	7.63e-01	0	47	104	0	60	1048572
2026-01-18 04:41:02.96	315.41	20.87	-85.2	-88.6	3.0	7.63e-01	0	47	104	0	60	1048575
2026-01-18 04:41:03.97	315.17	20.81	-85.2	-88.6	3.2	7.63e-01	0	47	104	0	60	1048574
2026-01-18 04:41:04.97	314.94	20.75	-85.2	-88.6	3.0	7.63e-01	0	47	104	0	60	1048570
2026-01-18 04:41:05.98	314.71	20.69	-84.3	-88.6	3.0	7.64e-01	0	47	104	0	60	1048571
2026-01-18 04:41:06.99	314.48	20.63	-85.2	-88.6	3.2	7.61e-01	0	47	104	0	60	1048574
2026-01-18 04:41:08.00	314.25	20.57	-84.7	-88.6	3.1	7.61e-01	0	47	104	0	60	1048568
2026-01-18 04:41:09.01	314.02	20.51	-85.2	-88.6	3.6	7.63e-01	0	47	104	0	60	1048569
2026-01-18 04:41:10.01	313.80	20.45	-84.7	-88.6	2.9	7.62e-01	0	47	104	0	60	1048570
2026-01-18 04:41:11.02	313.57	20.39	-85.2	-88.6	2.9	7.64e-01	0	47	104	0	60	1048572
2026-01-18 04:41:12.02	313.34	20.33	-85.2	-88.6	3.4	7.64e-01	0	47	104	0	60	1048573
2026-01-18 04:41:13.03	313.12	20.27	-84.7	-88.6	3.4	7.63e-01	0	47	104	0	60	1048573
2026-01-18 04:41:14.04	312.89	20.20	-85.2	-88.6	3.0	7.64e-01	0	47	104	0	60	1048575
2026-01-18 04:41:15.05	312.67	20.14	-85.2	-88.6	3.2	7.63e-01	0	47	104	0	60	1048572
2026-01-18 04:41:16.05	312.45	20.08	-85.2	-88.6	2.8	7.65e-01	0	47	104	0	60	1048560
2026-01-18 04:41:17.06	312.23	20.01	-84.3	-88.6	3.1	7.61e-01	0	47	104	0	60	1048575
2026-01-18 04:41:18.07	312.01	19.95	-85.2	-88.6	3.1	7.63e-01	0	47	104	0	60	1048572
2026-01-18 04:41:19.07	311.79	19.89	-85.2	-88.6	3.6	7.63e-01	0	47	104	0	60	1048573
2026-01-18 04:41:20.08	311.57	19.82	-85.2	-88.6	3.2	7.62e-01	0	47	104	0	60	1048574
2026-01-18 04:41:21.09	311.35	19.76	-85.2	-88.6	3.0	7.62e-01	0	47	104	0	60	1048574
2026-01-18 04:41:22.09	311.14	19.69	-85.2	-88.6	3.7	7.64e-01	0	47	104	0	60	1048574
2026-01-18 04:41:23.10	310.92	19.63	-84.7	-88.6	3.1	7.63e-01	0	47	104	0	60	1048573
2026-01-18 04:41:24.11	310.71	19.56	-85.2	-88.6	3.0	7.64e-01	0	47	104	0	60	1048574
2026-01-18 04:41:25.12	310.49	19.50	-85.2	-88.6	3.2	7.63e-01	0	47	104	0	60	1048575
2026-01-18 04:41:26.13	310.28	19.43	-85.2	-88.6	3.4	7.64e-01	0	47	104	0	60	1048569
2026-01-18 04:41:27.13	310.07	19.37	-84.7	-88.6	3.5	7.62e-01	0	47	104	0	60	1048575
2026-01-18 04:41:28.13	309.86	19.30	-85.2	-88.6	2.9	7.62e-01	0	47	104	0	60	1048575
2026-01-18 04:41:29.14	309.65	19.24	-83.1	-88.6	3.4	7.63e-01	0	47	104	0	60	1048575
2026-01-18 04:41:30.15	309.44	19.17	-85.2	-88.6	3.1	7.61e-01	0	47	104	0	60	1048574
2026-01-18 04:41:31.16	309.23	19.10	-85.2	-88.6	2.9	7.62e-01	0	47	104	0	60	1048570
2026-01-18 04:41:32.17	309.02	19.03	-84.3	-88.6	3.2	7.64e-01	0	47	104	0	60	1048570
2026-01-18 04:41:33.17	308.81	18.97	-85.2	-88.6	3.7	7.64e-01	0	47	104	0	60	1048573
2026-01-18 04:41:34.18	308.61	18.90	-85.2	-88.6	3.0	7.64e-01	0	47	104	0	60	1048573
2026-01-18 04:41:35.19	308.40	18.83	-85.2	-88.6	2.9	7.63e-01	0	47	104	0	60	1048575
2026-01-18 04:41:36.20	308.20	18.76	-85.2	-88.6	3.7	7.62e-01	0	47	104	0	60	1048574
2026-01-18 04:41:37.21	308.00	18.70	-85.2	-88.6	3.6	7.64e-01	0	47	104	0	60	1048572
2026-01-18 04:41:38.21	307.80	18.63	-85.2	-88.6	3.1	7.64e-01	0	47	104	0	60	1048574
2026-01-18 04:41:39.22	307.59	18.56	-85.2	-88.6	3.0	7.64e-01	0	47	104	0	60	1048569
2026-01-18 04:41:40.23	307.39	18.49	-84.7	-88.6	3.6	7.62e-01	0	47	104	0	60	1048574
2026-01-18 04:41:41.24	307.19	18.42	-84.7	-88.6	3.0	7.63e-01	0	47	104	0	60	1048573
2026-01-18 04:41:42.24	307.00	18.35	-85.2	-88.6	3.4	7.63e-01	0	47	104	0	60	1048574
2026-01-18 04:41:43.25	306.80	18.29	-85.2	-88.6	3.6	7.64e-01	0	47	104	0	60	1048573
2026-01-18 04:41:44.26	306.60	18.22	-84.7	-88.6	3.1	7.63e-01	0	47	104	0	60	1048575
2026-01-18 04:41:45.27	306.41	18.15	-85.2	-88.6	3.0	7.63e-01	0	47	104	0	60	1048566
2026-01-18 04:41:46.27	306.21	18.08	-84.7	-88.6	3.5	7.63e-01	0	47	104	0	60	1048574
2026-01-18 04:41:47.27	306.02	18.01	-85.2	-88.6	3.6	7.64e-01	0	47	104	0	60	1048575
2026-01-18 04:41:48.28	305.83	17.94	-85.2	-88.6	2.9	7.63e-01	0	47	104	0	60	1048575
2026-01-18 04:41:49.28	305.64	17.87	-85.2	-88.6	3.0	7.64e-01	0	47	104	0	60	1048573
2026-01-18 04:41:50.28	305.45	17.80	-85.2	-88.6	3.3	7.63e-01	0	47	104	0	60	1048572
2026-01-18 04:41:51.28	305.26	17.73	-85.2	-88.6	3.4	7.63e-01	0	47	104	0	60	1048575
2026-01-18 04:41:52.29	305.07	17.66	-85.2	-88.6	3.1	7.62e-01	0	47	104	0	60	1048571
2026-01-18 04:41:53.30	304.88	17.59	-85.2	-88.6	2.9	7.62e-01	0	47	104	0	60	1048574
2026-01-18 04:41:54.31	304.69	17.52	-85.2	-88.6	3.1	7.63e-01	0	47	104	0	60	1048573
2026-01-18 04:41:55.31	304.51	17.45	-84.3	-88.6	3.0	7.63e-01	0	47	104	0	60	1048575
2026-01-18 04:41:56.32	304.32	17.38	-84.7	-88.6	3.0	7.63e-01	0	47	104	0	60	1048575
2026-01-18 04:41:57.33	304.13	17.31	-85.2	-88.6	3.1	7.64e-01	0	47	104	0	60	1048573
2026-01-18 04:41:58.33	303.95	17.23	-85.2	-88.6	3.6	7.64e-01	0	47	104	0	60	1048575
2026-01-18 04:41:59.34	303.77	17.16	-85.2	-88.6	3.0	7.63e-01	0	47	104	0	60	1048572
2026-01-18 04:42:00.34	303.59	17.09	-85.2	-88.6	3.6	7.61e-01	0	47	104	0	60	1048573
2026-01-18 04:42:01.34	303.41	17.02	-84.7	-88.6	3.1	7.62e-01	0	47	104	0	60	1048573
2026-01-18 04:42:02.35	303.23	16.95	-85.2	-88.6	2.8	7.63e-01	0	47	104	0	60	1048574
2026-01-18 04:42:03.35	303.05	16.88	-85.2	-88.6	3.1	7.62e-01	0	47	104	0	60	1048575
2026-01-18 04:42:04.36	302.87	16.81	-85.2	-88.6	3.2	7.63e-01	0	47	104	0	60	1048571
2026-01-18 04:42:05.37	302.69	16.74	-84.7	-88.6	3.5	7.63e-01	0	47	104	0	60	1048574
2026-01-18 04:42:06.37	302.51	16.67	-85.2	-88.6	3.0	7.61e-01	0	47	104	0	60	1048571
2026-01-18 04:42:07.38	302.34	16.59	-83.5	-88.6	3.8	7.63e-01	0	47	104	0	60	1048575
2026-01-18 04:42:08.38	302.16	16.52	-85.2	-88.6	3.5	7.63e-01	0	47	104	0	60	1048574
2026-01-18 04:42:09.39	301.99	16.45	-85.2	-88.6	3.1	7.62e-01	0	47	104	0	60	1048570
2026-01-18 04:42:10.40	301.82	16.38	-85.2	-88.6	3.1	7.63e-01	0	47	104	0	60	1048575
2026-01-18 04:42:11.40	301.64	16.31	-84.7	-88.6	3.1	7.64e-01	0	47	104	0	60	1048575
2026-01-18 04:42:12.41	301.47	16.23	-85.2	-88.6	3.0	7.63e-01	0	47	104	0	60	1048559
2026-01-18 04:42:13.42	301.30	16.16	-85.2	-88.6	2.8	7.64e-01	0	47	104	0	60	1048572
2026-01-18 04:42:14.42	301.13	16.09	-84.7	-88.6	2.9	7.64e-01	0	47	104	0	60	1048565
2026-01-18 04:42:15.43	300.96	16.02	-85.2	-88.6	3.5	7.63e-01	0	47	104	0	60	1048567
2026-01-18 04:42:16.44	300.79	15.95	-85.2	-88.6	2.8	7.63e-01	0	47	104	0	60	1048575
2026-01-18 04:42:17.43	300.63	15.87	-85.2	-88.6	2.9	7.63e-01	0	47	104	0	60	1048572
2026-01-18 04:42:18.44	300.46	15.80	-85.2	-88.6	3.1	7.62e-01	0	47	104	0	60	1048571
2026-01-18 04:42:19.45	300.29	15.73	-84.7	-88.6	2.9	7.63e-01	0	47	104	0	60	1048573
2026-01-18 04:42:20.45	300.13	15.66	-84.7	-88.6	3.1	7.63e-01	0	47	104	0	60	1048571
2026-01-18 04:42:21.46	299.96	15.59	-85.2	-88.6	3.2	7.63e-01	0	47	104	0	60	1048573
2026-01-18 04:42:22.47	299.80	15.51	-85.2	-88.6	3.5	7.64e-01	0	47	104	0	60	1048575
2026-01-18 04:42:23.48	299.64	15.44	-85.2	-88.6	3.2	7.63e-01	0	47	104	0	60	1048575
2026-01-18 04:42:24.49	299.47	15.37	-85.2	-88.6	3.1	7.65e-01	0	47	104	0	60	1048575
2026-01-18 04:42:25.49	299.31	15.30	-84.7	-88.6	3.5	7.65e-01	0	47	104	0	60	1048575
2026-01-18 04:42:26.50	299.15	15.22	-85.2	-88.6	2.8	7.63e-01	0	47	104	0	60	1048573
2026-01-18 04:42:27.51	298.99	15.15	-85.2	-88.6	2.9	7.62e-01	0	47	104	0	60	1048574
2026-01-18 04:42:28.52	298.83	15.08	-85.2	-88.6	3.2	7.62e-01	0	47	104	0	60	1048575
2026-01-18 04:42:29.52	298.68	15.01	-84.7	-88.6	3.6	7.63e-01	0	47	104	0	60	1048570
2026-01-18 04:42:30.53	298.52	14.93	-85.2	-88.6	3.2	7.63e-01	0	47	104	0	60	1048575
2026-01-18 04:42:31.53	298.36	14.86	-85.2	-88.6	3.2	7.63e-01	0	47	104	0	60	1048575
2026-01-18 04:42:32.54	298.21	14.79	-85.2	-88.6	3.1	7.63e-01	0	47	104	0	60	1048574
2026-01-18 04:42:33.54	298.05	14.72	-85.2	-88.6	2.8	7.65e-01	0	47	104	0	60	1048573
2026-01-18 04:42:34.55	297.90	14.64	-85.2	-88.6	3.1	7.64e-01	0	47	104	0	60	1048573
2026-01-18 04:42:35.56	297.74	14.57	-85.2	-88.6	3.5	7.63e-01	0	47	104	0	60	1048575
2026-01-18 04:42:36.56	297.59	14.50	-85.2	-88.6	3.2	7.63e-01	0	47	104	0	60	1048567
2026-01-18 04:42:37.57	297.44	14.43	-85.2	-88.6	2.9	7.64e-01	0	47	104	0	60	1048575
2026-01-18 04:42:38.57	297.29	14.35	-84.7	-88.6	3.0	7.64e-01	0	47	104	0	60	1048574
2026-01-18 04:42:39.58	297.14	14.28	-85.2	-88.6	3.4	7.63e-01	0	47	104	0	60	1048573
2026-01-18 04:42:40.59	296.99	14.21	-85.2	-88.6	3.2	7.64e-01	0	47	104	0	60	1048573
2026-01-18 04:42:41.60	296.84	14.14	-85.2	-88.6	3.6	7.63e-01	0	47	104	0	60	1048575
2026-01-18 04:42:42.60	296.69	14.06	-85.2	-88.6	3.6	7.64e-01	0	47	104	0	60	1048574
2026-01-18 04:42:43.61	296.54	13.99	-85.2	-88.6	3.0	7.63e-01	0	47	104	0	60	1048575
2026-01-18 04:42:44.62	296.40	13.92	-85.2	-88.6	2.9	7.62e-01	0	47	104	0	60	1048574
2026-01-18 04:42:45.63	296.25	13.85	-84.7	-88.6	3.0	7.64e-01	0	47	104	0	60	1048570
2026-01-18 04:42:46.63	296.10	13.78	-85.2	-88.6	3.4	7.63e-01	0	47	104	0	60	1048574
2026-01-18 04:42:47.64	295.96	13.70	-84.3	-88.6	2.9	7.64e-01	0	47	104	0	60	1048575
2026-01-18 04:42:48.65	295.81	13.63	-84.7	-88.6	3.2	7.62e-01	0	47	104	0	60	1048575
2026-01-18 04:42:49.66	295.67	13.56	-85.2	-88.6	3.0	7.63e-01	0	47	104	0	60	1048570
2026-01-18 04:42:50.66	295.53	13.49	-85.2	-88.6	2.9	7.62e-01	0	47	104	0	60	1048575
2026-01-18 04:42:51.67	295.39	13.41	-85.2	-88.6	3.1	7.64e-01	0	47	104	0	60	1048575
2026-01-18 04:42:52.68	295.25	13.34	-84.7	-88.6	3.6	7.64e-01	0	47	104	0	60	1048575
2026-01-18 04:42:53.69	295.11	13.27	-84.7	-88.6	3.7	7.63e-01	0	47	104	0	60	1048573
2026-01-18 04:42:54.70	294.96	13.20	-85.2	-88.6	2.9	7.63e-01	0	47	104	0	60	1048573
2026-01-18 04:42:55.70	294.83	13.13	-85.2	-88.6	3.1	7.62e-01	0	47	104	0	60	1048570
2026-01-18 04:42:56.70	294.69	13.05	-85.2	-88.6	3.7	7.63e-01	0	47	104	0	60	1048572
2026-01-18 04:42:57.70	294.55	12.98	-84.7	-88.6	3.6	7.63e-01	0	47	104	0	60	1048574
2026-01-18 04:42:58.71	294.42	12.91	-85.2	-88.6	2.9	7.64e-01	0	47	104	0	60	1048566
2026-01-18 04:42:59.71	294.28	12.84	-85.2	-88.6	3.0	7.63e-01	0	47	104	0	60	1048573
2026-01-18 04:43:00.72	294.14	12.77	-85.2	-88.6	3.5	7.63e-01	0	47	104	0	60	1048573
2026-01-18 04:43:01.73	294.01	12.70	-84.3	-88.6	3.0	7.64e-01	0	47	104	0	60	1048575
2026-01-18 04:43:02.73	293.88	12.63	-84.7	-88.6	3.0	7.63e-01	0	47	104	0	60	1048572
2026-01-18 04:43:03.73	293.74	12.55	-85.2	-88.6	3.2	7.63e-01	0	47	104	0	60	1048574
2026-01-18 04:43:04.74	293.61	12.48	-85.2	-88.6	3.2	7.63e-01	0	47	104	0	60	1048574
2026-01-18 04:43:05.74	293.48	12.41	-85.2	-88.6	3.0	7.62e-01	0	47	104	0	60	1048573
2026-01-18 04:43:06.74	293.35	12.34	-84.7	-88.6	3.3	7.62e-01	0	47	104	0	60	1048575
2026-01-18 04:43:07.75	293.22	12.27	-85.2	-88.6	3.2	7.63e-01	0	47	104	0	60	1048575
2026-01-18 04:43:08.75	293.09	12.20	-85.2	-88.6	3.0	7.63e-01	0	47	104	0	60	1048572
2026-01-18 04:43:09.76	292.96	12.13	-84.7	-88.6	2.9	7.63e-01	0	47	104	0	60	1048573
2026-01-18 04:43:10.76	292.83	12.06	-85.2	-88.6	3.5	7.63e-01	0	47	104	0	60	1048575
2026-01-18 04:43:11.76	292.70	11.99	-84.7	-88.6	3.3	7.63e-01	0	47	104	0	60	1048574
2026-01-18 04:43:12.77	292.57	11.91	-84.7	-88.6	2.8	7.64e-01	0	47	104	0	60	1048573
2026-01-18 04:43:13.78	292.44	11.84	-85.2	-88.6	2.9	7.63e-01	0	47	104	0	60	1048575
2026-01-18 04:43:14.79	292.32	11.77	-84.7	-88.6	3.2	7.63e-01	0	47	104	0	60	1048572
2026-01-18 04:43:15.80	292.19	11.70	-85.2	-88.6	2.7	7.64e-01	0	47	104	0	60	1048575
2026-01-18 04:43:16.80	292.07	11.63	-84.7	-88.6	2.8	7.62e-01	0	47	104	0	60	1048566
2026-01-18 04:43:17.81	291.94	11.56	-84.7	-88.6	3.3	7.64e-01	0	47	104	0	60	1048572
2026-01-18 04:43:18.82	291.82	11.49	-85.2	-88.6	3.0	7.63e-01	0	47	104	0	60	1048572
2026-01-18 04:43:19.83	291.69	11.42	-84.7	-88.6	3.0	7.64e-01	0	47	104	0	60	1048570
2026-01-18 04:43:20.83	291.57	11.35	-84.7	-88.6	3.2	7.63e-01	0	47	104	0	60	1048574
2026-01-18 04:43:21.84	291.45	11.28	-85.2	-88.6	2.7	7.63e-01	0	47	104	0	60	1048575
2026-01-18 04:43:22.85	291.33	11.21	-84.7	-88.6	3.1	7.63e-01	0	47	104	0	60	1048571
2026-01-18 04:43:23.85	291.21	11.14	-84.7	-88.6	3.5	7.64e-01	0	47	104	0	60	1048575
2026-01-18 04:43:24.86	291.09	11.07	-85.2	-88.6	3.1	7.64e-01	0	47	104	0	60	1048574
2026-01-18 04:43:25.86	290.97	11.00	-84.7	-88.6	3.0	7.64e-01	0	47	104	0	60	1048570
2026-01-18 04:43:26.87	290.85	10.93	-83.5	-88.6	3.4	7.63e-01	0	47	104	0	60	1048574
2026-01-18 04:43:27.87	290.73	10.86	-84.7	-88.6	3.7	7.62e-01	0	47	104	0	60	1048575
2026-01-18 04:43:28.87	290.61	10.79	-85.2	-88.6	3.2	7.63e-01	0	47	104	0	60	1048575
2026-01-18 04:43:29.88	290.49	10.72	-85.2	-88.6	3.1	7.62e-01	0	47	104	0	60	1048575
2026-01-18 04:43:30.89	290.38	10.65	-84.7	-88.6	3.6	7.63e-01	0	47	104	0	60	1048573
2026-01-18 04:43:31.90	290.26	10.58	-85.2	-88.6	3.8	7.63e-01	0	47	104	0	60	1048571
2026-01-18 04:43:32.91	290.14	10.51	-84.7	-88.6	3.7	7.63e-01	0	47	104	0	60	1048567
2026-01-18 04:43:33.92	290.03	10.44	-84.7	-88.6	3.1	7.64e-01	0	47	104	0	60	1048570
2026-01-18 04:43:34.93	289.91	10.37	-84.7	-88.6	3.3	7.63e-01	0	47	104	0	60	1048573
2026-01-18 04:43:35.94	289.80	10.30	-84.7	-88.6	2.7	7.62e-01	0	47	104	0	60	1048575
2026-01-18 04:43:36.94	289.69	10.23	-84.7	-88.6	2.9	7.64e-01	0	47	104	0	60	1048575
2026-01-18 04:43:37.95	289.57	10.16	-84.7	-88.6	3.3	7.63e-01	0	47	104	0	60	1048574
2026-01-18 04:43:38.95	289.46	10.09	-84.7	-88.6	3.4	7.63e-01	0	47	104	0	60	1048575
2026-01-18 04:43:39.96	289.35	10.03	-84.7	-88.6	3.1	7.63e-01	0	47	104	0	60	1048573
2026-01-18 04:43:40.96	289.24	9.96	-85.2	-88.6	3.2	7.63e-01	0	47	104	0	60	1048574
2026-01-18 04:43:41.97	289.13	9.89	-84.7	-88.6	3.2	7.63e-01	0	47	104	0	60	1048572
2026-01-18 04:43:42.98	289.02	9.82	-85.2	-88.6	2.7	7.63e-01	0	47	104	0	60	1048573
2026-01-18 04:43:43.98	288.91	9.75	-84.7	-88.6	3.0	7.63e-01	0	47	104	0	60	1048573
2026-01-18 04:43:44.99	288.80	9.68	-84.7	-88.6	3.0	7.62e-01	0	47	104	0	60	1048571
2026-01-18 04:43:46.00	288.69	9.61	-85.2	-88.6	3.1	7.64e-01	0	47	104	0	60	1048572
2026-01-18 04:43:47.01	288.58	9.54	-84.7	-88.6	2.8	7.62e-01	0	47	104	0	60	1048571
2026-01-18 04:43:48.02	288.47	9.48	-84.7	-88.6	3.1	7.64e-01	0	47	104	0	60	1048568
2026-01-18 04:43:49.02	288.36	9.41	-85.2	-88.6	2.8	7.64e-01	0	47	104	0	60	1048575
2026-01-18 04:43:50.03	288.26	9.34	-84.7	-88.6	3.4	7.62e-01	0	47	104	0	60	1048575
2026-01-18 04:43:51.04	288.15	9.27	-84.7	-88.6	3.6	7.63e-01	0	47	104	0	60	1048573
2026-01-18 04:43:52.05	288.04	9.20	-85.2	-88.6	3.4	7.64e-01	0	47	104	0	60	1048575
2026-01-18 04:43:53.05	287.94	9.14	-84.7	-88.6	2.8	7.63e-01	0	47	104	0	60	1048567
2026-01-18 04:43:54.06	287.84	9.07	-84.7	-88.6	3.1	7.62e-01	0	47	104	0	60	1048572
2026-01-18 04:43:55.07	287.73	9.00	-84.7	-88.6	3.0	7.63e-01	0	47	104	0	60	1048569
2026-01-18 04:43:56.08	287.63	8.93	-84.7	-88.6	2.9	7.64e-01	0	47	104	0	60	1048572
2026-01-18 04:43:57.08	287.52	8.87	-85.2	-88.6	3.3	7.64e-01	0	47	104	0	60	1048573
2026-01-18 04:43:58.09	287.42	8.80	-84.7	-88.6	3.5	7.64e-01	0	47	104	0	60	1048575
2026-01-18 04:43:59.10	287.32	8.73	-85.2	-88.6	3.0	7.64e-01	0	47	104	0	60	1048558
2026-01-18 04:44:00.11	287.22	8.66	-85.2	-88.6	2.9	7.63e-01	0	47	104	0	60	1048572
2026-01-18 04:44:01.11	287.12	8.60	-84.7	-88.6	2.9	7.62e-01	0	47	104	0	60	1048574
2026-01-18 04:44:02.12	287.01	8.53	-84.7	-88.6	3.2	7.63e-01	0	47	104	0	60	1048575
2026-01-18 04:44:03.12	286.92	8.46	-84.7	-88.6	3.6	7.64e-01	0	47	104	0	60	1048568
2026-01-18 04:44:04.13	286.81	8.40	-84.7	-88.6	2.9	7.62e-01	0	47	104	0	60	1048573
2026-01-18 04:44:05.14	286.72	8.33	-85.2	-88.6	3.5	7.64e-01	0	47	104	0	60	1048570
2026-01-18 04:44:06.15	286.62	8.26	-84.7	-88.6	3.3	7.57e-01	0	47	104	0	60	1048575
2026-01-18 04:44:07.16	286.52	8.20	-84.7	-88.6	3.0	7.62e-01	0	47	104	0	60	1048573
2026-01-18 04:44:08.16	286.42	8.13	-85.2	-88.6	3.4	7.63e-01	0	47	104	0	60	1048571
2026-01-18 04:44:09.17	286.32	8.06	-84.7	-88.6	3.2	7.63e-01	0	47	104	0	60	1048573
2026-01-18 04:44:10.18	286.22	8.00	-85.2	-88.6	3.2	7.64e-01	0	47	104	0	60	1048569
2026-01-18 04:44:11.19	286.13	7.93	-84.7	-88.6	2.9	7.63e-01	0	47	104	0	60	1048571
2026-01-18 04:44:12.19	286.03	7.87	-84.7	-88.6	3.6	7.64e-01	0	47	104	0	60	1048572
2026-01-18 04:44:13.20	285.94	7.80	-84.7	-88.6	3.2	7.63e-01	0	47	104	0	60	1048575
2026-01-18 04:44:14.21	285.84	7.73	-84.7	-88.6	3.1	7.63e-01	0	47	104	0	60	1048568
2026-01-18 04:44:15.22	285.75	7.67	-84.7	-88.6	3.1	7.62e-01	0	47	104	0	60	1048566
2026-01-18 04:44:16.22	285.65	7.60	-84.7	-88.6	3.5	7.63e-01	0	47	104	0	60	1048573
2026-01-18 04:44:17.23	285.56	7.54	-84.7	-88.6	3.0	7.64e-01	0	47	104	0	60	1048574
2026-01-18 04:44:18.24	285.46	7.47	-84.7	-88.6	3.4	7.62e-01	0	47	104	0	60	1048573
2026-01-18 04:44:19.24	285.37	7.41	-84.7	-88.6	3.3	7.63e-01	0	47	104	0	60	1048575
2026-01-18 04:44:20.25	285.28	7.34	-84.7	-88.6	2.9	7.62e-01	0	47	104	0	60	1048575
2026-01-18 04:44:21.26	285.19	7.27	-84.7	-88.6	3.1	7.62e-01	0	47	104	0	60	1048574
2026-01-18 04:44:22.27	285.09	7.21	-84.7	-88.6	3.5	7.63e-01	0	47	104	0	60	1048574
2026-01-18 04:44:23.27	285.00	7.14	-84.7	-88.6	3.6	7.65e-01	0	47	104	0	60	1048575
2026-01-18 04:44:24.28	284.91	7.08	-84.7	-88.6	3.3	7.63e-01	0	47	104	0	60	1048572
2026-01-18 04:44:25.29	284.82	7.01	-84.7	-88.6	3.2	7.63e-01	0	47	104	0	60	1048575
2026-01-18 04:44:26.30	284.73	6.95	-85.2	-88.6	3.3	7.63e-01	0	47	104	0	60	1048574
2026-01-18 04:44:27.31	284.64	6.88	-84.7	-88.6	3.7	7.64e-01	0	47	104	0	60	1048575
2026-01-18 04:44:28.32	284.55	6.82	-84.7	-88.6	3.0	7.63e-01	0	47	104	0	60	1048574
2026-01-18 04:44:29.32	284.46	6.76	-84.3	-88.6	3.1	7.64e-01	0	47	104	0	60	1048571
2026-01-18 04:44:30.32	284.38	6.69	-84.7	-88.6	3.3	7.64e-01	0	47	104	0	60	1048572
2026-01-18 04:44:31.33	284.29	6.63	-84.7	-88.6	3.4	7.62e-01	0	47	104	0	60	1048572
2026-01-18 04:44:32.34	284.20	6.56	-84.7	-88.6	3.5	7.64e-01	0	47	104	0	60	1048575
2026-01-18 04:44:33.35	284.11	6.50	-84.7	-88.6	3.6	7.64e-01	0	47	104	0	60	1048569
2026-01-18 04:44:34.35	284.03	6.44	-84.7	-88.6	3.0	7.63e-01	0	47	104	0	60	1048575
2026-01-18 04:44:35.36	283.94	6.37	-84.7	-88.6	3.1	7.65e-01	0	47	104	0	60	1048570
2026-01-18 04:44:36.37	283.85	6.31	-84.7	-88.6	3.3	7.63e-01	0	47	104	0	60	1048567
2026-01-18 04:44:37.38	283.77	6.24	-84.7	-88.6	3.4	7.64e-01	0	47	104	0	60	1048570
2026-01-18 04:44:38.39	283.68	6.18	-84.7	-88.6	3.0	7.63e-01	0	47	104	0	60	1048574
2026-01-18 04:44:39.39	283.60	6.12	-84.7	-88.6	3.2	7.63e-01	0	47	104	0	60	1048572
2026-01-18 04:44:40.40	283.51	6.05	-84.7	-88.6	3.5	7.65e-01	0	47	104	0	60	1048574
2026-01-18 04:44:41.40	283.43	5.99	-84.7	-88.6	3.3	7.62e-01	0	47	104	0	60	1048575
2026-01-18 04:44:42.41	283.34	5.93	-84.7	-88.6	3.3	7.64e-01	0	47	104	0	60	1048575
