passes_logs/2026/01/18/R3.2S-Naryan-Mar/R3.2S-Naryan-Mar__20260118_103258_NOAA_20_JPSS-1_rec.log

#Pass ID: 20260118_103258_NOAA 20 (JPSS-1)
#Satellite: NOAA 20 (JPSS-1)
#Configuration: NOAA 20
#almurnet v.1.7.20240730
#Start time: 2026-01-18 10:33:00

#Version: 2.2.20231116
#Station: R3.2S-Naryan-Mar
#Location: 53.008057 lon 67.646978 lat
#TLE: 1 43013U 17073A   26017.30359522  .00000067  00000+0  52526-4 0  9990
#TLE: 2 43013  98.7639 318.2187 0001419  36.2087 323.9184 14.19536557423067

#Time	Az	El	Level	Level2	SNR	BER	BlckErr	Temp	State	Recorded	gain1	gain2
2026-01-18 10:33:00.37	209.14	0.12	-85.2	-88.6	3.2	1.56e+00	0	45	0	0	60	1048575
2026-01-18 10:33:01.37	209.20	0.17	-85.2	-88.6	3.0	1.56e+00	0	46	104	0	60	1048574
2026-01-18 10:33:02.37	209.27	0.22	-85.2	-88.6	3.2	1.56e+00	0	46	104	0	60	1048574
2026-01-18 10:33:03.38	209.33	0.27	-85.2	-88.6	3.1	1.56e+00	0	46	104	0	60	1048575
2026-01-18 10:33:04.38	209.39	0.33	-85.2	-88.6	2.9	1.56e+00	0	46	104	0	60	1048573
2026-01-18 10:33:05.39	209.46	0.38	-85.2	-88.6	3.2	1.56e+00	0	46	104	0	60	1048575
2026-01-18 10:33:06.39	209.52	0.43	-85.2	-88.6	2.9	1.55e+00	0	46	104	0	60	1048572
2026-01-18 10:33:07.40	209.59	0.49	-85.2	-88.6	3.1	1.55e+00	0	46	104	0	60	1048574
2026-01-18 10:33:08.41	209.65	0.54	-85.2	-88.6	3.0	1.56e+00	0	46	104	0	60	1048575
2026-01-18 10:33:09.41	209.71	0.59	-85.2	-88.6	3.2	1.56e+00	0	46	104	0	60	1048572
2026-01-18 10:33:10.42	209.78	0.65	-85.2	-88.6	3.1	1.56e+00	0	46	104	0	60	1048572
2026-01-18 10:33:11.43	209.85	0.70	-85.2	-88.6	3.0	1.56e+00	0	46	104	0	60	1048575
2026-01-18 10:33:12.43	209.91	0.76	-85.2	-88.6	2.9	1.56e+00	0	46	104	0	60	1048573
2026-01-18 10:33:13.44	209.98	0.81	-85.2	-88.6	3.2	1.56e+00	0	46	104	0	60	1048575
2026-01-18 10:33:14.45	210.04	0.86	-85.2	-88.6	2.9	1.56e+00	0	46	104	0	60	1048575
2026-01-18 10:33:15.46	210.11	0.92	-85.2	-88.6	3.1	1.56e+00	0	46	104	0	60	1048574
2026-01-18 10:33:16.46	210.17	0.97	-85.2	-88.6	3.0	1.56e+00	0	46	104	0	60	1048575
2026-01-18 10:33:17.47	210.24	1.03	-85.2	-88.6	3.0	1.56e+00	0	46	104	0	60	1048573
2026-01-18 10:33:18.48	210.31	1.08	-85.2	-88.6	3.0	1.56e+00	0	46	104	0	60	1048574
2026-01-18 10:33:19.49	210.38	1.14	-85.2	-88.6	2.8	1.55e+00	0	46	104	0	60	1048572
2026-01-18 10:33:20.49	210.44	1.19	-85.2	-88.6	2.9	1.56e+00	0	46	104	0	60	1048572
2026-01-18 10:33:21.50	210.51	1.24	-85.2	-88.6	3.1	1.55e+00	0	46	104	0	60	1048575
2026-01-18 10:33:22.50	210.58	1.30	-84.3	-88.6	2.9	1.55e+00	0	46	104	0	60	1048575
2026-01-18 10:33:23.51	210.64	1.35	-85.2	-88.6	2.7	1.56e+00	0	46	104	0	60	1048575
2026-01-18 10:33:24.51	210.71	1.41	-85.2	-88.6	3.2	1.56e+00	0	46	104	0	60	1048574
2026-01-18 10:33:25.52	210.78	1.46	-85.2	-88.6	2.9	1.56e+00	0	46	104	0	60	1048575
2026-01-18 10:33:26.52	210.85	1.52	-85.2	-88.6	3.1	1.56e+00	0	46	104	0	60	1048574
2026-01-18 10:33:27.53	210.92	1.57	-85.2	-88.6	3.2	1.56e+00	0	46	104	0	60	1048575
2026-01-18 10:33:28.53	210.99	1.63	-85.2	-88.6	3.0	1.56e+00	0	46	104	0	60	1048575
2026-01-18 10:33:29.54	211.06	1.68	-85.2	-88.6	3.0	1.55e+00	0	46	104	0	60	1048575
2026-01-18 10:33:30.55	211.13	1.74	-85.2	-88.6	3.2	1.56e+00	0	46	104	0	60	1048575
2026-01-18 10:33:31.55	211.20	1.79	-85.2	-88.6	2.7	1.56e+00	0	46	104	0	60	1048575
2026-01-18 10:33:32.55	211.27	1.85	-85.2	-88.6	3.1	1.56e+00	0	46	104	0	60	1048574
2026-01-18 10:33:33.56	211.34	1.90	-85.2	-88.6	3.0	1.55e+00	0	46	104	0	60	1048575
2026-01-18 10:33:34.57	211.41	1.96	-85.2	-88.6	3.2	1.56e+00	0	46	104	0	60	1048572
2026-01-18 10:33:35.57	211.48	2.01	-85.2	-88.6	2.9	1.56e+00	0	46	104	0	60	1048574
2026-01-18 10:33:36.58	211.55	2.07	-85.2	-88.6	3.1	1.56e+00	0	46	104	0	60	1048575
2026-01-18 10:33:37.59	211.62	2.13	-85.2	-88.6	3.0	1.55e+00	0	46	104	0	60	1048575
2026-01-18 10:33:38.59	211.69	2.18	-85.2	-88.6	2.8	1.56e+00	0	46	104	0	60	1048570
2026-01-18 10:33:39.60	211.76	2.24	-85.2	-88.6	2.9	1.55e+00	0	46	104	0	60	1048574
2026-01-18 10:33:40.61	211.84	2.29	-85.2	-88.6	2.9	1.56e+00	0	46	104	0	60	1048573
2026-01-18 10:33:41.62	211.91	2.35	-85.2	-88.6	2.8	1.56e+00	0	46	104	0	60	1048575
2026-01-18 10:33:42.63	211.98	2.41	-85.2	-88.6	3.1	1.56e+00	0	47	104	0	60	1048571
2026-01-18 10:33:43.63	212.05	2.46	-85.2	-88.6	3.1	1.55e+00	0	46	104	0	60	1048573
2026-01-18 10:33:44.64	212.13	2.52	-85.2	-88.6	3.0	1.56e+00	0	46	104	0	60	1048575
2026-01-18 10:33:45.65	212.20	2.57	-85.2	-88.6	2.9	1.56e+00	0	47	104	0	60	1048575
2026-01-18 10:33:46.66	212.27	2.63	-85.2	-88.6	3.1	1.55e+00	0	46	104	0	60	1048575
2026-01-18 10:33:47.67	212.35	2.69	-85.2	-88.6	3.0	1.56e+00	0	47	104	0	60	1048574
2026-01-18 10:33:48.68	212.42	2.74	-85.2	-88.6	3.1	1.56e+00	0	46	104	0	60	1048574
2026-01-18 10:33:49.69	212.50	2.80	-85.2	-88.6	3.2	1.56e+00	0	47	104	0	60	1048575
2026-01-18 10:33:50.69	212.57	2.86	-85.2	-88.6	3.2	1.56e+00	0	47	104	0	60	1048575
2026-01-18 10:33:51.69	212.65	2.91	-85.2	-88.6	3.2	1.55e+00	0	47	104	0	60	1048575
2026-01-18 10:33:52.70	212.72	2.97	-85.2	-88.6	3.1	1.55e+00	0	47	104	0	60	1048574
2026-01-18 10:33:53.71	212.80	3.03	-85.2	-88.6	3.0	1.56e+00	0	47	104	0	60	1048575
2026-01-18 10:33:54.71	212.87	3.08	-85.2	-88.6	3.0	1.55e+00	0	47	104	0	60	1048574
2026-01-18 10:33:55.72	212.95	3.14	-85.2	-88.6	3.1	1.55e+00	0	47	104	0	60	1048575
2026-01-18 10:33:56.72	213.03	3.20	-85.2	-88.6	3.0	1.56e+00	0	47	104	0	60	1048575
2026-01-18 10:33:57.73	213.10	3.26	-85.2	-88.6	3.1	1.56e+00	0	47	104	0	60	1048572
2026-01-18 10:33:58.73	213.18	3.31	-85.2	-88.6	2.9	1.55e+00	0	47	104	0	60	1048573
2026-01-18 10:33:59.74	213.26	3.37	-85.2	-88.6	3.0	1.56e+00	0	47	104	0	60	1048575
2026-01-18 10:34:00.75	213.33	3.43	-85.2	-88.6	3.1	1.56e+00	0	47	104	0	60	1048574
2026-01-18 10:34:01.76	213.41	3.49	-85.2	-88.6	3.0	1.55e+00	0	47	104	0	60	1048572
2026-01-18 10:34:02.77	213.49	3.54	-85.2	-88.6	2.9	1.56e+00	0	47	104	0	60	1048574
2026-01-18 10:34:03.77	213.57	3.60	-85.2	-88.6	3.2	1.55e+00	0	47	104	0	60	1048575
2026-01-18 10:34:04.78	213.65	3.66	-85.2	-88.6	2.9	1.55e+00	0	47	104	0	60	1048574
2026-01-18 10:34:05.79	213.73	3.72	-85.2	-88.6	3.1	1.56e+00	0	47	104	0	60	1048575
2026-01-18 10:34:06.80	213.81	3.78	-85.2	-88.6	3.1	1.55e+00	0	47	104	0	60	1048573
2026-01-18 10:34:07.80	213.89	3.83	-85.2	-88.6	3.1	1.56e+00	0	46	104	0	60	1048575
2026-01-18 10:34:08.81	213.97	3.89	-85.2	-88.6	2.8	1.56e+00	0	47	104	0	60	1048575
2026-01-18 10:34:09.82	214.05	3.95	-85.2	-88.6	2.8	1.55e+00	0	47	104	0	60	1048574
2026-01-18 10:34:10.82	214.13	4.01	-85.2	-88.6	3.1	1.56e+00	0	47	104	0	60	1048575
2026-01-18 10:34:11.83	214.21	4.07	-85.2	-88.6	3.1	1.56e+00	0	47	104	0	60	1048575
2026-01-18 10:34:12.84	214.29	4.12	-85.2	-88.6	3.1	1.56e+00	0	47	104	0	60	1048573
2026-01-18 10:34:13.84	214.37	4.18	-85.2	-88.6	3.2	1.56e+00	0	47	104	0	60	1048575
2026-01-18 10:34:14.85	214.45	4.24	-85.2	-88.6	3.0	1.56e+00	0	47	104	0	60	1048574
2026-01-18 10:34:15.86	214.53	4.30	-85.2	-88.6	3.1	1.56e+00	0	47	104	0	60	1048573
2026-01-18 10:34:16.86	214.62	4.36	-85.2	-88.6	2.9	1.55e+00	0	47	104	0	60	1048573
2026-01-18 10:34:17.87	214.70	4.42	-85.2	-88.6	3.1	1.55e+00	0	47	104	0	60	1048575
2026-01-18 10:34:18.88	214.78	4.48	-85.2	-88.6	3.2	1.56e+00	0	47	104	0	60	1048575
2026-01-18 10:34:19.89	214.86	4.54	-85.2	-88.6	2.7	1.56e+00	0	47	104	0	60	1048574
2026-01-18 10:34:20.89	214.95	4.59	-85.2	-88.6	2.9	1.56e+00	0	47	104	0	60	1048575
2026-01-18 10:34:21.90	215.03	4.65	-85.2	-88.6	3.0	1.56e+00	0	47	104	0	60	1048575
2026-01-18 10:34:22.91	215.12	4.71	-85.2	-88.6	3.1	1.56e+00	0	47	104	0	60	1048575
2026-01-18 10:34:23.92	215.20	4.77	-85.2	-88.6	3.1	1.56e+00	0	47	104	0	60	1048575
2026-01-18 10:34:24.93	215.29	4.83	-85.2	-88.6	2.8	1.56e+00	0	47	104	0	60	1048575
2026-01-18 10:34:25.93	215.37	4.89	-85.2	-88.6	3.1	1.56e+00	0	47	104	0	60	1048575
2026-01-18 10:34:26.94	215.46	4.95	-85.2	-88.6	2.9	1.56e+00	0	47	104	0	60	1048569
2026-01-18 10:34:27.94	215.54	5.01	-85.2	-88.6	3.0	1.56e+00	0	47	104	0	60	1048575
2026-01-18 10:34:28.95	215.63	5.07	-85.2	-88.6	3.1	1.56e+00	0	47	104	0	60	1048573
2026-01-18 10:34:29.96	215.72	5.13	-85.2	-88.6	3.1	1.56e+00	0	47	104	0	60	1048574
2026-01-18 10:34:30.97	215.80	5.19	-85.2	-88.6	2.8	1.56e+00	0	47	104	0	60	1048574
2026-01-18 10:34:31.97	215.89	5.25	-85.2	-88.6	2.7	1.56e+00	0	47	104	0	60	1048574
2026-01-18 10:34:32.98	215.98	5.31	-85.2	-88.6	3.0	1.56e+00	0	47	104	0	60	1048575
2026-01-18 10:34:33.98	216.07	5.37	-85.2	-88.6	3.1	1.56e+00	0	47	104	0	60	1048571
2026-01-18 10:34:34.99	216.15	5.43	-85.2	-88.6	2.9	1.56e+00	0	47	104	0	60	1048575
2026-01-18 10:34:36.00	216.24	5.49	-85.2	-88.6	3.1	1.56e+00	0	47	104	0	60	1048575
2026-01-18 10:34:37.01	216.33	5.55	-85.2	-88.6	2.8	1.56e+00	0	47	104	0	60	1048575
2026-01-18 10:34:38.01	216.42	5.61	-85.2	-88.6	3.0	1.55e+00	0	47	104	0	60	1048574
2026-01-18 10:34:39.02	216.51	5.67	-85.2	-88.6	3.1	1.55e+00	0	47	104	0	60	1048575
2026-01-18 10:34:40.03	216.60	5.73	-85.2	-88.6	3.0	1.56e+00	0	47	104	0	60	1048575
2026-01-18 10:34:41.04	216.69	5.79	-85.2	-88.6	3.0	1.56e+00	0	47	104	0	60	1048575
2026-01-18 10:34:42.04	216.78	5.85	-85.2	-88.6	3.2	1.56e+00	0	47	104	0	60	1048575
2026-01-18 10:34:43.05	216.87	5.92	-85.2	-88.6	3.1	1.56e+00	0	47	104	0	60	1048573
2026-01-18 10:34:44.05	216.96	5.98	-84.7	-88.6	3.0	1.55e+00	0	47	104	0	60	1048572
2026-01-18 10:34:45.06	217.06	6.04	-85.2	-88.6	3.0	1.56e+00	0	47	104	0	60	1048575
2026-01-18 10:34:46.07	217.15	6.10	-85.2	-88.6	2.9	1.56e+00	0	47	104	0	60	1048574
2026-01-18 10:34:47.07	217.24	6.16	-85.2	-88.6	3.2	1.56e+00	0	47	104	0	60	1048575
2026-01-18 10:34:48.08	217.33	6.22	-85.2	-88.6	3.2	1.55e+00	0	47	104	0	60	1048575
2026-01-18 10:34:49.08	217.43	6.28	-85.2	-88.6	2.7	1.56e+00	0	47	104	0	60	1048574
2026-01-18 10:34:50.09	217.52	6.34	-85.2	-88.6	2.9	1.56e+00	0	47	104	0	60	1048572
2026-01-18 10:34:51.10	217.62	6.41	-85.2	-88.6	2.8	1.56e+00	0	47	104	0	60	1048575
2026-01-18 10:34:52.11	217.71	6.47	-85.2	-88.6	3.0	1.56e+00	0	47	104	0	60	1048575
2026-01-18 10:34:53.12	217.81	6.53	-85.2	-88.6	2.8	1.56e+00	0	47	104	0	60	1048574
2026-01-18 10:34:54.13	217.90	6.59	-85.2	-88.6	2.7	1.56e+00	0	47	104	0	60	1048575
2026-01-18 10:34:55.14	218.00	6.65	-85.2	-88.6	3.0	1.55e+00	0	47	104	0	60	1048574
2026-01-18 10:34:56.14	218.09	6.71	-85.2	-88.6	3.1	1.55e+00	0	47	104	0	60	1048573
2026-01-18 10:34:57.15	218.19	6.78	-85.2	-88.6	2.9	1.55e+00	0	47	104	0	60	1048575
2026-01-18 10:34:58.16	218.29	6.84	-85.2	-88.6	3.0	1.56e+00	0	47	104	0	60	1048574
2026-01-18 10:34:59.16	218.38	6.90	-85.2	-88.6	3.1	1.56e+00	0	47	104	0	60	1048573
2026-01-18 10:35:00.17	218.48	6.96	-85.2	-88.6	3.0	1.56e+00	0	47	104	0	60	1048571
2026-01-18 10:35:01.18	218.58	7.03	-85.2	-88.6	3.0	1.56e+00	0	47	104	0	60	1048575
2026-01-18 10:35:02.19	218.68	7.09	-85.2	-88.6	3.1	1.55e+00	0	47	104	0	60	1048573
2026-01-18 10:35:03.20	218.78	7.15	-85.2	-88.6	3.1	1.56e+00	0	47	104	0	60	1048574
2026-01-18 10:35:04.20	218.88	7.21	-85.2	-88.6	2.8	1.56e+00	0	47	104	0	60	1048574
2026-01-18 10:35:05.21	218.98	7.28	-85.2	-88.6	2.9	1.55e+00	0	47	104	0	60	1048574
2026-01-18 10:35:06.22	219.08	7.34	-85.2	-88.6	3.1	1.56e+00	0	47	104	0	60	1048572
2026-01-18 10:35:07.22	219.18	7.40	-85.2	-88.6	3.0	1.56e+00	0	47	104	0	60	1048574
2026-01-18 10:35:08.23	219.28	7.47	-85.2	-88.6	3.0	1.56e+00	0	47	104	0	60	1048570
2026-01-18 10:35:09.24	219.38	7.53	-85.2	-88.6	2.9	1.56e+00	0	47	104	0	60	1048573
2026-01-18 10:35:10.24	219.48	7.59	-85.2	-88.6	3.0	1.55e+00	0	47	104	0	60	1048573
2026-01-18 10:35:11.25	219.58	7.65	-85.2	-88.6	3.0	1.56e+00	0	47	104	0	60	1048575
2026-01-18 10:35:12.26	219.68	7.72	-85.2	-88.6	3.0	1.56e+00	0	47	104	0	60	1048574
2026-01-18 10:35:13.26	219.79	7.78	-85.2	-88.6	3.1	1.55e+00	0	47	104	0	60	1048573
2026-01-18 10:35:14.27	219.89	7.85	-85.2	-88.6	3.0	1.56e+00	0	47	104	0	60	1048572
2026-01-18 10:35:15.28	219.99	7.91	-85.2	-88.6	2.8	1.56e+00	0	47	104	0	60	1048573
2026-01-18 10:35:16.29	220.10	7.97	-85.2	-88.6	3.0	1.56e+00	0	47	104	0	60	1048574
2026-01-18 10:35:17.30	220.20	8.04	-85.2	-88.6	2.7	1.56e+00	0	47	104	0	60	1048572
2026-01-18 10:35:18.31	220.31	8.10	-85.2	-88.6	3.0	1.55e+00	0	47	104	0	60	1048575
2026-01-18 10:35:19.31	220.41	8.16	-85.2	-88.6	3.0	1.56e+00	0	47	104	0	60	1048574
2026-01-18 10:35:20.32	220.52	8.23	-85.2	-88.6	2.9	1.56e+00	0	47	104	0	60	1048575
2026-01-18 10:35:21.33	220.63	8.29	-85.2	-88.6	3.1	1.55e+00	0	47	104	0	60	1048575
2026-01-18 10:35:22.33	220.73	8.36	-85.2	-88.6	3.0	1.55e+00	0	47	104	0	60	1048574
2026-01-18 10:35:23.34	220.84	8.42	-85.2	-88.6	3.0	1.56e+00	0	47	104	0	60	1048575
2026-01-18 10:35:24.35	220.95	8.48	-85.2	-88.6	3.0	1.56e+00	0	47	104	0	60	1048575
2026-01-18 10:35:25.36	221.06	8.55	-85.2	-88.6	3.0	1.56e+00	0	47	104	0	60	1048574
2026-01-18 10:35:26.37	221.17	8.61	-85.2	-88.6	3.1	1.55e+00	0	47	104	0	60	1048574
2026-01-18 10:35:27.37	221.28	8.68	-85.2	-88.6	3.0	1.55e+00	0	47	104	0	60	1048575
2026-01-18 10:35:28.38	221.39	8.74	-85.2	-88.6	3.1	1.56e+00	0	47	104	0	60	1048575
2026-01-18 10:35:29.39	221.50	8.81	-85.2	-88.6	2.9	1.56e+00	0	47	104	0	60	1048575
2026-01-18 10:35:30.40	221.61	8.87	-85.2	-88.6	3.0	1.56e+00	0	47	104	0	60	1048574
2026-01-18 10:35:31.40	221.72	8.94	-85.2	-88.6	2.9	1.56e+00	0	47	104	0	60	1048575
2026-01-18 10:35:32.41	221.83	9.00	-85.2	-88.6	3.1	1.55e+00	0	47	104	0	60	1048574
2026-01-18 10:35:33.42	221.94	9.07	-85.2	-88.6	3.0	1.55e+00	0	47	104	0	60	1048573
2026-01-18 10:35:34.43	222.06	9.13	-85.2	-88.6	2.9	1.55e+00	0	47	104	0	60	1048575
2026-01-18 10:35:35.44	222.17	9.20	-85.2	-88.6	3.1	1.56e+00	0	47	104	0	60	1048575
2026-01-18 10:35:36.44	222.28	9.26	-85.2	-88.6	3.2	1.56e+00	0	47	104	0	60	1048575
2026-01-18 10:35:37.44	222.39	9.33	-85.2	-88.6	3.1	1.56e+00	0	47	104	0	60	1048574
2026-01-18 10:35:38.45	222.51	9.39	-85.2	-88.6	2.9	1.56e+00	0	47	104	0	60	1048575
2026-01-18 10:35:39.46	222.62	9.46	-85.2	-88.6	3.1	1.55e+00	0	47	104	0	60	1048573
2026-01-18 10:35:40.47	222.74	9.52	-85.2	-88.6	3.0	1.56e+00	0	47	104	0	60	1048574
2026-01-18 10:35:41.48	222.86	9.59	-85.2	-88.6	3.0	1.56e+00	0	47	104	0	60	1048570
2026-01-18 10:35:42.48	222.97	9.66	-85.2	-88.6	2.7	1.55e+00	0	47	104	0	60	1048575
2026-01-18 10:35:43.49	223.09	9.72	-85.2	-88.6	2.9	1.56e+00	0	47	104	0	60	1048573
2026-01-18 10:35:44.50	223.21	9.79	-85.2	-88.6	3.0	1.56e+00	0	47	104	0	60	1048575
2026-01-18 10:35:45.51	223.33	9.85	-85.2	-88.6	3.1	1.55e+00	0	47	104	0	60	1048571
2026-01-18 10:35:46.52	223.45	9.92	-85.2	-88.6	3.0	1.55e+00	0	47	104	0	60	1048575
2026-01-18 10:35:47.53	223.56	9.99	-85.2	-88.6	3.0	1.56e+00	0	47	104	0	60	1048575
2026-01-18 10:35:48.54	223.68	10.05	-85.2	-88.6	3.1	1.56e+00	0	47	104	0	60	1048575
2026-01-18 10:35:49.54	223.80	10.12	-85.2	-88.6	3.0	1.56e+00	0	47	104	0	60	1048574
2026-01-18 10:35:50.55	223.92	10.18	-85.2	-88.6	3.2	1.56e+00	0	47	104	0	60	1048575
2026-01-18 10:35:51.55	224.05	10.25	-85.2	-88.6	3.2	1.56e+00	0	47	104	0	60	1048574
2026-01-18 10:35:52.56	224.17	10.32	-84.3	-88.6	3.1	1.56e+00	0	47	104	0	60	1048574
2026-01-18 10:35:53.57	224.29	10.38	-85.2	-88.6	3.0	1.55e+00	0	47	104	0	60	1048575
2026-01-18 10:35:54.57	224.41	10.45	-85.2	-88.6	2.9	1.55e+00	0	47	104	0	60	1048574
2026-01-18 10:35:55.58	224.54	10.52	-84.3	-88.6	2.9	1.55e+00	0	47	104	0	60	1048575
2026-01-18 10:35:56.58	224.66	10.58	-85.2	-88.6	3.1	1.56e+00	0	47	104	0	60	1048574
2026-01-18 10:35:57.59	224.78	10.65	-85.2	-88.6	3.1	1.56e+00	0	47	104	0	60	1048575
2026-01-18 10:35:58.60	224.91	10.72	-85.2	-88.6	3.0	1.56e+00	0	47	104	0	60	1048573
2026-01-18 10:35:59.61	225.03	10.78	-85.2	-88.6	2.8	1.55e+00	0	47	104	0	60	1048573
2026-01-18 10:36:00.62	225.16	10.85	-85.2	-88.6	3.1	1.56e+00	0	47	104	0	60	1048574
2026-01-18 10:36:01.62	225.29	10.92	-85.2	-88.6	2.8	1.55e+00	0	47	104	0	60	1048575
2026-01-18 10:36:02.64	225.41	10.98	-85.2	-88.6	3.0	1.55e+00	0	47	104	0	60	1048572
2026-01-18 10:36:03.64	225.54	11.05	-85.2	-88.6	3.1	1.56e+00	0	47	104	0	60	1048575
2026-01-18 10:36:04.65	225.67	11.12	-85.2	-88.6	3.1	1.56e+00	0	47	104	0	60	1048575
2026-01-18 10:36:05.66	225.80	11.18	-84.7	-88.6	3.0	1.55e+00	0	47	104	0	60	1048574
2026-01-18 10:36:06.66	225.93	11.25	-85.2	-88.6	3.0	1.56e+00	0	47	104	0	60	1048575
2026-01-18 10:36:07.66	226.06	11.32	-85.2	-88.6	3.0	1.56e+00	0	47	104	0	60	1048575
2026-01-18 10:36:08.67	226.19	11.39	-85.2	-88.6	3.0	1.56e+00	0	47	104	0	60	1048575
2026-01-18 10:36:09.68	226.32	11.45	-85.2	-88.6	3.1	1.56e+00	0	47	104	0	60	1048574
2026-01-18 10:36:10.68	226.45	11.52	-85.2	-88.6	2.9	1.55e+00	0	47	104	0	60	1048575
2026-01-18 10:36:11.69	226.58	11.59	-85.2	-88.6	3.1	1.55e+00	0	47	104	0	60	1048575
2026-01-18 10:36:12.70	226.72	11.66	-85.2	-88.6	3.0	1.56e+00	0	47	104	0	60	1048575
2026-01-18 10:36:13.70	226.85	11.72	-85.2	-88.6	2.8	1.55e+00	0	47	104	0	60	1048575
2026-01-18 10:36:14.71	226.98	11.79	-85.2	-88.6	3.1	1.56e+00	0	47	104	0	60	1048575
2026-01-18 10:36:15.71	227.12	11.86	-85.2	-88.6	3.1	1.56e+00	0	47	104	0	60	1048575
2026-01-18 10:36:16.72	227.25	11.93	-85.2	-88.6	3.0	1.56e+00	0	47	104	0	60	1048571
2026-01-18 10:36:17.73	227.39	11.99	-85.2	-88.6	2.9	1.55e+00	0	47	104	0	60	1048571
2026-01-18 10:36:18.74	227.52	12.06	-83.5	-88.6	3.0	1.56e+00	0	47	104	0	60	1048574
2026-01-18 10:36:19.74	227.66	12.13	-84.3	-88.6	3.0	1.56e+00	0	47	104	0	60	1048570
2026-01-18 10:36:20.75	227.80	12.20	-85.2	-88.6	2.9	1.56e+00	0	47	104	0	60	1048571
2026-01-18 10:36:21.76	227.94	12.26	-85.2	-88.6	3.2	1.56e+00	0	47	104	0	60	1048574
2026-01-18 10:36:22.77	228.08	12.33	-85.2	-88.6	3.1	1.56e+00	0	47	104	0	60	1048573
2026-01-18 10:36:23.77	228.22	12.40	-85.2	-88.6	3.1	1.56e+00	0	47	104	0	60	1048575
2026-01-18 10:36:24.78	228.36	12.47	-85.2	-88.6	3.1	1.56e+00	0	47	104	0	60	1048574
2026-01-18 10:36:25.78	228.50	12.54	-84.7	-88.6	2.8	1.56e+00	0	47	104	0	60	1048573
2026-01-18 10:36:26.79	228.64	12.60	-85.2	-88.6	3.0	1.56e+00	0	47	104	0	60	1048575
2026-01-18 10:36:27.79	228.78	12.67	-85.2	-88.6	3.0	1.55e+00	0	47	104	0	60	1048575
2026-01-18 10:36:28.80	228.92	12.74	-85.2	-88.6	2.9	1.56e+00	0	47	104	0	60	1048575
2026-01-18 10:36:29.80	229.06	12.81	-85.2	-88.6	2.9	1.56e+00	0	47	104	0	60	1048575
2026-01-18 10:36:30.81	229.21	12.88	-85.2	-88.6	3.0	1.56e+00	0	47	104	0	60	1048574
2026-01-18 10:36:31.82	229.35	12.95	-85.2	-88.6	2.8	1.56e+00	0	47	104	0	60	1048575
2026-01-18 10:36:32.83	229.50	13.01	-85.2	-88.6	3.1	1.56e+00	0	47	104	0	60	1048575
2026-01-18 10:36:33.83	229.64	13.08	-85.2	-88.6	2.9	1.55e+00	0	47	104	0	60	1048575
2026-01-18 10:36:34.83	229.79	13.15	-83.5	-88.6	3.0	1.56e+00	0	47	104	0	60	1048575
2026-01-18 10:36:35.84	229.94	13.22	-85.2	-88.6	3.1	1.55e+00	0	47	104	0	60	1048573
2026-01-18 10:36:36.85	230.08	13.29	-85.2	-88.6	3.1	1.56e+00	0	47	104	0	60	1048575
2026-01-18 10:36:37.86	230.23	13.36	-85.2	-88.6	3.0	1.56e+00	0	47	104	0	60	1048575
2026-01-18 10:36:38.86	230.38	13.42	-85.2	-88.6	3.2	1.55e+00	0	47	104	0	60	1048575
2026-01-18 10:36:39.87	230.53	13.49	-85.2	-88.6	3.1	1.56e+00	0	47	104	0	60	1048574
2026-01-18 10:36:40.87	230.68	13.56	-85.2	-88.6	3.0	1.55e+00	0	47	104	0	60	1048573
2026-01-18 10:36:41.87	230.83	13.63	-85.2	-88.6	2.9	1.55e+00	0	47	104	0	60	1048575
2026-01-18 10:36:42.88	230.98	13.70	-85.2	-88.6	3.1	1.56e+00	0	47	104	0	60	1048575
2026-01-18 10:36:43.89	231.14	13.77	-85.2	-88.6	3.0	1.56e+00	0	47	104	0	60	1048575
2026-01-18 10:36:44.89	231.29	13.83	-85.2	-88.6	3.2	1.56e+00	0	47	104	0	60	1048573
2026-01-18 10:36:45.90	231.44	13.90	-85.2	-88.6	3.0	1.56e+00	0	47	104	0	60	1048575
2026-01-18 10:36:46.91	231.60	13.97	-85.2	-88.6	3.1	1.55e+00	0	47	104	0	60	1048572
2026-01-18 10:36:47.92	231.75	14.04	-85.2	-88.6	3.2	1.56e+00	0	47	104	0	60	1048574
2026-01-18 10:36:48.92	231.91	14.11	-85.2	-88.6	3.1	1.56e+00	0	47	104	0	60	1048573
2026-01-18 10:36:49.93	232.07	14.18	-85.2	-88.6	3.1	1.56e+00	0	47	104	0	60	1048575
2026-01-18 10:36:50.94	232.22	14.24	-85.2	-88.6	3.0	1.56e+00	0	47	104	0	60	1048575
2026-01-18 10:36:51.94	232.38	14.31	-85.2	-88.6	3.0	1.56e+00	0	47	104	0	60	1048575
2026-01-18 10:36:52.95	232.54	14.38	-85.2	-88.6	3.0	1.56e+00	0	47	104	0	60	1048575
2026-01-18 10:36:53.96	232.70	14.45	-85.2	-88.6	3.1	1.56e+00	0	47	104	0	60	1048574
2026-01-18 10:36:54.97	232.86	14.52	-85.2	-88.6	3.0	1.56e+00	0	47	104	0	60	1048574
2026-01-18 10:36:55.97	233.02	14.59	-85.2	-88.6	3.1	1.56e+00	0	47	104	0	60	1048571
2026-01-18 10:36:56.98	233.18	14.66	-85.2	-88.6	2.8	1.56e+00	0	47	104	0	60	1048575
2026-01-18 10:36:57.99	233.34	14.72	-85.2	-88.6	3.0	1.56e+00	0	47	104	0	60	1048573
2026-01-18 10:36:58.99	233.51	14.79	-84.3	-88.6	3.1	1.55e+00	0	47	104	0	60	1048574
2026-01-18 10:37:00.00	233.67	14.86	-85.2	-88.6	3.2	1.56e+00	0	47	104	0	60	1048575
2026-01-18 10:37:01.00	233.83	14.93	-85.2	-88.6	3.0	1.56e+00	0	47	104	0	60	1048574
2026-01-18 10:37:02.01	234.00	15.00	-85.2	-88.6	3.0	1.55e+00	0	47	104	0	60	1048570
2026-01-18 10:37:03.01	234.16	15.06	-85.2	-88.6	3.0	1.55e+00	0	47	104	0	60	1048573
2026-01-18 10:37:04.02	234.33	15.13	-84.3	-88.6	3.1	1.56e+00	0	47	104	0	60	1048571
2026-01-18 10:37:05.03	234.50	15.20	-85.2	-88.6	2.9	1.56e+00	0	47	104	0	60	1048574
2026-01-18 10:37:06.04	234.67	15.27	-85.2	-88.6	2.8	1.55e+00	0	47	104	0	60	1048573
2026-01-18 10:37:07.04	234.84	15.34	-85.2	-88.6	3.1	1.55e+00	0	47	104	0	60	1048574
2026-01-18 10:37:08.05	235.01	15.41	-85.2	-88.6	3.0	1.56e+00	0	47	104	0	60	1048573
2026-01-18 10:37:09.05	235.17	15.47	-85.2	-88.6	3.0	1.55e+00	0	47	104	0	60	1048574
2026-01-18 10:37:10.06	235.35	15.54	-85.2	-88.6	2.7	1.56e+00	0	47	104	0	60	1048573
2026-01-18 10:37:11.07	235.52	15.61	-85.2	-88.6	3.2	1.55e+00	0	47	104	0	60	1048575
2026-01-18 10:37:12.08	235.69	15.68	-85.2	-88.6	2.9	1.56e+00	0	47	104	0	60	1048575
2026-01-18 10:37:13.08	235.86	15.75	-85.2	-88.6	3.1	1.56e+00	0	47	104	0	60	1048574
2026-01-18 10:37:14.09	236.04	15.81	-85.2	-88.6	3.2	1.56e+00	0	47	104	0	60	1048572
2026-01-18 10:37:15.10	236.21	15.88	-85.2	-88.6	3.2	1.55e+00	0	47	104	0	60	1048573
2026-01-18 10:37:16.11	236.39	15.95	-85.2	-88.6	3.0	1.56e+00	0	47	104	0	60	1048569
2026-01-18 10:37:17.11	236.57	16.02	-85.2	-88.6	2.9	1.56e+00	0	47	104	0	60	1048572
2026-01-18 10:37:18.12	236.74	16.08	-85.2	-88.6	3.1	1.56e+00	0	47	104	0	60	1048575
2026-01-18 10:37:19.13	236.92	16.15	-85.2	-88.6	3.0	1.56e+00	0	47	104	0	60	1048575
2026-01-18 10:37:20.13	237.10	16.22	-85.2	-88.6	3.0	1.56e+00	0	47	104	0	60	1048575
2026-01-18 10:37:21.14	237.28	16.29	-85.2	-88.6	3.2	1.56e+00	0	47	104	0	60	1048575
2026-01-18 10:37:22.15	237.46	16.35	-85.2	-88.6	3.2	1.56e+00	0	47	104	0	60	1048575
2026-01-18 10:37:23.16	237.64	16.42	-85.2	-88.6	3.1	1.56e+00	0	47	104	0	60	1048575
2026-01-18 10:37:24.17	237.82	16.49	-85.2	-88.6	3.1	1.56e+00	0	47	104	0	60	1048575
2026-01-18 10:37:25.17	238.01	16.56	-85.2	-88.6	2.9	1.56e+00	0	47	104	0	60	1048572
2026-01-18 10:37:26.18	238.19	16.62	-85.2	-88.6	3.0	1.56e+00	0	47	104	0	60	1048574
2026-01-18 10:37:27.19	238.37	16.69	-85.2	-88.6	3.2	1.56e+00	0	47	104	0	60	1048574
2026-01-18 10:37:28.20	238.56	16.76	-85.2	-88.6	3.2	1.55e+00	0	47	104	0	60	1048575
2026-01-18 10:37:29.21	238.75	16.82	-85.2	-88.6	3.2	1.56e+00	0	47	104	0	60	1048568
2026-01-18 10:37:30.21	238.93	16.89	-85.2	-88.6	3.0	1.55e+00	0	47	104	0	60	1048575
2026-01-18 10:37:31.22	239.12	16.96	-85.2	-88.6	3.1	1.56e+00	0	47	104	0	60	1048573
2026-01-18 10:37:32.22	239.31	17.02	-85.2	-88.6	3.0	1.56e+00	0	47	104	0	60	1048573
2026-01-18 10:37:33.23	239.50	17.09	-85.2	-88.6	2.9	1.56e+00	0	47	104	0	60	1048575
2026-01-18 10:37:34.24	239.69	17.15	-85.2	-88.6	3.2	1.56e+00	0	47	104	0	60	1048569
2026-01-18 10:37:35.25	239.88	17.22	-85.2	-88.6	3.1	1.56e+00	0	47	104	0	60	1048575
2026-01-18 10:37:36.25	240.07	17.29	-85.2	-88.6	3.0	1.56e+00	0	47	104	0	60	1048575
2026-01-18 10:37:37.26	240.26	17.35	-85.2	-88.6	2.9	1.55e+00	0	47	104	0	60	1048573
2026-01-18 10:37:38.27	240.46	17.42	-85.2	-88.6	3.1	1.55e+00	0	47	104	0	60	1048573
2026-01-18 10:37:39.28	240.65	17.48	-85.2	-88.6	3.1	1.56e+00	0	47	104	0	60	1048575
2026-01-18 10:37:40.29	240.85	17.55	-85.2	-88.6	3.3	1.56e+00	0	47	104	0	60	1048575
2026-01-18 10:37:41.30	241.04	17.61	-85.2	-88.6	3.1	1.56e+00	0	47	104	0	60	1048575
2026-01-18 10:37:42.30	241.24	17.68	-85.2	-88.6	2.9	1.55e+00	0	47	104	0	60	1048570
2026-01-18 10:37:43.31	241.43	17.74	-85.2	-88.6	3.0	1.55e+00	0	47	104	0	60	1048575
2026-01-18 10:37:44.32	241.63	17.81	-85.2	-88.6	3.1	1.55e+00	0	47	104	0	60	1048574
2026-01-18 10:37:45.32	241.83	17.87	-85.2	-88.6	3.1	1.56e+00	0	47	104	0	60	1048575
2026-01-18 10:37:46.33	242.03	17.94	-85.2	-88.6	3.0	1.56e+00	0	47	104	0	60	1048575
2026-01-18 10:37:47.34	242.23	18.00	-85.2	-88.6	2.9	1.56e+00	0	47	104	0	60	1048575
2026-01-18 10:37:48.34	242.43	18.06	-85.2	-88.6	3.1	1.56e+00	0	47	104	0	60	1048575
2026-01-18 10:37:49.35	242.63	18.13	-85.2	-88.6	3.2	1.56e+00	0	47	104	0	60	1048575
2026-01-18 10:37:50.35	242.84	18.19	-85.2	-88.6	3.2	1.56e+00	0	47	104	0	60	1048575
2026-01-18 10:37:51.36	243.04	18.26	-85.2	-88.6	3.2	1.56e+00	0	47	104	0	60	1048575
2026-01-18 10:37:52.37	243.25	18.32	-85.2	-88.6	3.1	1.56e+00	0	47	104	0	60	1048575
2026-01-18 10:37:53.37	243.45	18.38	-85.2	-88.6	3.1	1.55e+00	0	47	104	0	60	1048573
2026-01-18 10:37:54.38	243.66	18.44	-85.2	-88.6	3.0	1.56e+00	0	47	104	0	60	1048575
2026-01-18 10:37:55.39	243.86	18.51	-85.2	-88.6	3.1	1.56e+00	0	47	104	0	60	1048571
2026-01-18 10:37:56.40	244.07	18.57	-85.2	-88.6	3.0	1.56e+00	0	47	104	0	60	1048574
2026-01-18 10:37:57.41	244.28	18.63	-85.2	-88.6	3.0	1.56e+00	0	47	104	0	60	1048574
2026-01-18 10:37:58.41	244.49	18.69	-85.2	-88.6	3.2	1.56e+00	0	47	104	0	60	1048575
2026-01-18 10:37:59.42	244.70	18.76	-85.2	-88.6	3.0	1.56e+00	0	47	104	0	60	1048575
2026-01-18 10:38:00.43	244.91	18.82	-85.2	-88.6	3.0	1.55e+00	0	47	104	0	60	1048574
2026-01-18 10:38:01.44	245.13	18.88	-85.2	-88.6	2.9	1.55e+00	0	47	104	0	60	1048574
2026-01-18 10:38:02.44	245.34	18.94	-85.2	-88.6	3.0	1.56e+00	0	47	104	0	60	1048574
2026-01-18 10:38:03.45	245.55	19.00	-85.2	-88.6	3.1	1.56e+00	0	47	104	0	60	1048574
2026-01-18 10:38:04.46	245.77	19.06	-85.2	-88.6	2.9	1.56e+00	0	47	104	0	60	1048572
2026-01-18 10:38:05.47	245.98	19.12	-85.2	-88.6	2.9	1.56e+00	0	47	104	0	60	1048575
2026-01-18 10:38:06.48	246.20	19.18	-85.2	-88.6	3.1	1.56e+00	0	47	104	0	60	1048575
2026-01-18 10:38:07.48	246.42	19.24	-85.2	-88.6	3.0	1.55e+00	0	47	104	0	60	1048574
2026-01-18 10:38:08.49	246.63	19.30	-85.2	-88.6	3.0	1.55e+00	0	47	104	0	60	1048573
2026-01-18 10:38:09.49	246.85	19.36	-85.2	-88.6	3.0	1.56e+00	0	47	104	0	60	1048574
2026-01-18 10:38:10.50	247.07	19.42	-85.2	-88.6	3.1	1.55e+00	0	47	104	0	60	1048573
2026-01-18 10:38:11.51	247.29	19.48	-85.2	-88.6	3.1	1.56e+00	0	47	104	0	60	1048575
2026-01-18 10:38:12.52	247.51	19.54	-85.2	-88.6	2.8	1.56e+00	0	47	104	0	60	1048574
2026-01-18 10:38:13.53	247.74	19.60	-85.2	-88.6	3.1	1.56e+00	0	47	104	0	60	1048573
2026-01-18 10:38:14.53	247.96	19.65	-85.2	-88.6	2.9	1.56e+00	0	47	104	0	60	1048575
2026-01-18 10:38:15.54	248.18	19.71	-85.2	-88.6	2.9	1.56e+00	0	47	104	0	60	1048575
2026-01-18 10:38:16.55	248.41	19.77	-85.2	-88.6	3.2	1.56e+00	0	47	104	0	60	1048574
2026-01-18 10:38:17.56	248.63	19.83	-85.2	-88.6	2.9	1.56e+00	0	47	104	0	60	1048575
2026-01-18 10:38:18.56	248.86	19.88	-85.2	-88.6	3.0	1.56e+00	0	47	104	0	60	1048575
2026-01-18 10:38:19.57	249.09	19.94	-85.2	-88.6	3.1	1.56e+00	0	47	104	0	60	1048575
2026-01-18 10:38:20.58	249.31	20.00	-85.2	-88.6	3.1	1.55e+00	0	47	104	0	60	1048574
2026-01-18 10:38:21.59	249.54	20.05	-85.2	-88.6	2.7	1.55e+00	0	47	104	0	60	1048575
2026-01-18 10:38:22.59	249.77	20.11	-85.2	-88.6	2.9	1.56e+00	0	47	104	0	60	1048573
2026-01-18 10:38:23.60	250.00	20.16	-85.2	-88.6	2.9	1.56e+00	0	47	104	0	60	1048575
2026-01-18 10:38:24.61	250.23	20.22	-85.2	-88.6	3.0	1.56e+00	0	47	104	0	60	1048573
2026-01-18 10:38:25.61	250.46	20.27	-85.2	-88.6	3.1	1.56e+00	0	47	104	0	60	1048574
2026-01-18 10:38:26.62	250.70	20.33	-85.2	-88.6	3.0	1.56e+00	0	47	104	0	60	1048575
2026-01-18 10:38:27.62	250.93	20.38	-85.2	-88.6	3.0	1.56e+00	0	47	104	0	60	1048575
2026-01-18 10:38:28.63	251.16	20.43	-85.2	-88.6	3.1	1.55e+00	0	47	104	0	60	1048575
2026-01-18 10:38:29.64	251.40	20.49	-85.2	-88.6	3.1	1.56e+00	0	47	104	0	60	1048575
2026-01-18 10:38:30.65	251.64	20.54	-85.2	-88.6	2.8	1.56e+00	0	47	104	0	60	1048573
2026-01-18 10:38:31.65	251.87	20.59	-85.2	-88.6	3.1	1.56e+00	0	47	104	0	60	1048575
2026-01-18 10:38:32.66	252.11	20.64	-85.2	-88.6	3.2	1.55e+00	0	47	104	0	60	1048575
2026-01-18 10:38:33.67	252.35	20.70	-85.2	-88.6	3.2	1.56e+00	0	47	104	0	60	1048572
2026-01-18 10:38:34.68	252.59	20.75	-85.2	-88.6	3.1	1.55e+00	0	47	104	0	60	1048575
2026-01-18 10:38:35.69	252.83	20.80	-84.7	-88.6	2.9	1.56e+00	0	47	104	0	60	1048572
2026-01-18 10:38:36.69	253.07	20.85	-85.2	-88.6	3.0	1.56e+00	0	47	104	0	60	1048574
2026-01-18 10:38:37.70	253.31	20.90	-84.7	-88.6	3.0	1.56e+00	0	47	104	0	60	1048575
2026-01-18 10:38:38.70	253.55	20.95	-85.2	-88.6	3.1	1.56e+00	0	47	104	0	60	1048574
2026-01-18 10:38:39.71	253.79	21.00	-85.2	-88.6	3.0	1.56e+00	0	47	104	0	60	1048575
2026-01-18 10:38:40.71	254.03	21.05	-85.2	-88.6	2.8	1.56e+00	0	47	104	0	60	1048572
2026-01-18 10:38:41.72	254.28	21.09	-85.2	-88.6	2.9	1.56e+00	0	47	104	0	60	1048574
2026-01-18 10:38:42.73	254.52	21.14	-85.2	-88.6	3.0	1.55e+00	0	47	104	0	60	1048572
2026-01-18 10:38:43.74	254.77	21.19	-85.2	-88.6	3.0	1.56e+00	0	47	104	0	60	1048575
2026-01-18 10:38:44.74	255.01	21.24	-85.2	-88.6	3.1	1.56e+00	0	47	104	0	60	1048575
2026-01-18 10:38:45.75	255.26	21.28	-85.2	-88.6	2.7	1.55e+00	0	47	104	0	60	1048575
2026-01-18 10:38:46.76	255.51	21.33	-85.2	-88.6	3.3	1.56e+00	0	47	104	0	60	1048575
2026-01-18 10:38:47.77	255.76	21.38	-85.2	-88.6	3.0	1.55e+00	0	47	104	0	60	1048575
2026-01-18 10:38:48.78	256.01	21.42	-85.2	-88.6	3.2	1.55e+00	0	47	104	0	60	1048574
2026-01-18 10:38:49.79	256.26	21.47	-85.2	-88.6	2.8	1.55e+00	0	47	104	0	60	1048572
2026-01-18 10:38:50.79	256.51	21.51	-85.2	-88.6	3.0	1.55e+00	0	47	104	0	60	1048575
2026-01-18 10:38:51.80	256.76	21.55	-85.2	-88.6	3.0	1.56e+00	0	47	104	0	60	1048575
2026-01-18 10:38:52.81	257.01	21.60	-85.2	-88.6	3.0	1.56e+00	0	47	104	0	60	1048573
2026-01-18 10:38:53.82	257.27	21.64	-85.2	-88.6	3.1	1.55e+00	0	47	104	0	60	1048570
2026-01-18 10:38:54.82	257.52	21.68	-85.2	-88.6	3.0	1.56e+00	0	47	104	0	60	1048567
2026-01-18 10:38:55.83	257.77	21.72	-85.2	-88.6	3.0	1.56e+00	0	47	104	0	60	1048573
2026-01-18 10:38:56.84	258.03	21.77	-85.2	-88.6	3.1	1.56e+00	0	47	104	0	60	1048575
2026-01-18 10:38:57.84	258.28	21.81	-85.2	-88.6	3.0	1.56e+00	0	47	104	0	60	1048573
2026-01-18 10:38:58.84	258.54	21.85	-85.2	-88.6	2.7	1.56e+00	0	47	104	0	60	1048574
2026-01-18 10:38:59.84	258.79	21.89	-85.2	-88.6	3.0	1.56e+00	0	47	104	0	60	1048575
2026-01-18 10:39:00.85	259.05	21.93	-85.2	-88.6	3.1	1.56e+00	0	47	104	0	60	1048575
2026-01-18 10:39:01.85	259.31	21.96	-85.2	-88.6	3.0	1.56e+00	0	47	104	0	60	1048575
2026-01-18 10:39:02.86	259.57	22.00	-85.2	-88.6	3.0	1.56e+00	0	47	104	0	60	1048575
2026-01-18 10:39:03.86	259.82	22.04	-85.2	-88.6	3.1	1.56e+00	0	47	104	0	60	1048575
2026-01-18 10:39:04.87	260.08	22.08	-85.2	-88.6	3.0	1.56e+00	0	47	104	0	60	1048573
2026-01-18 10:39:05.88	260.34	22.12	-85.2	-88.6	3.1	1.56e+00	0	47	104	0	60	1048575
2026-01-18 10:39:06.88	260.60	22.15	-85.2	-88.6	3.0	1.56e+00	0	47	104	0	60	1048575
2026-01-18 10:39:07.89	260.87	22.19	-85.2	-88.6	3.1	1.56e+00	0	47	104	0	60	1048575
2026-01-18 10:39:08.90	261.13	22.22	-85.2	-88.6	2.8	1.56e+00	0	47	104	0	60	1048569
2026-01-18 10:39:09.91	261.39	22.26	-85.2	-88.6	3.0	1.56e+00	0	47	104	0	60	1048575
2026-01-18 10:39:10.92	261.66	22.29	-85.2	-88.6	3.3	1.56e+00	0	47	104	0	60	1048575
2026-01-18 10:39:11.92	261.92	22.32	-85.2	-88.6	3.0	1.56e+00	0	47	104	0	60	1048575
2026-01-18 10:39:12.93	262.18	22.36	-85.2	-88.6	3.0	1.56e+00	0	47	104	0	60	1048575
2026-01-18 10:39:13.94	262.45	22.39	-85.2	-88.6	3.0	1.56e+00	0	47	104	0	60	1048575
2026-01-18 10:39:14.95	262.72	22.42	-85.2	-88.6	3.1	1.55e+00	0	47	104	0	60	1048575
2026-01-18 10:39:15.95	262.98	22.45	-85.2	-88.6	2.9	1.56e+00	0	47	104	0	60	1048572
2026-01-18 10:39:16.96	263.25	22.48	-85.2	-88.6	2.6	1.55e+00	0	47	104	0	60	1048575
2026-01-18 10:39:17.96	263.51	22.51	-85.2	-88.6	3.2	1.56e+00	0	47	104	0	60	1048575
2026-01-18 10:39:18.97	263.78	22.54	-85.2	-88.6	2.8	1.55e+00	0	47	104	0	60	1048575
2026-01-18 10:39:19.98	264.05	22.57	-85.2	-88.6	2.9	1.56e+00	0	47	104	0	60	1048575
2026-01-18 10:39:20.99	264.32	22.60	-85.2	-88.6	2.8	1.56e+00	0	47	104	0	60	1048575
2026-01-18 10:39:22.00	264.59	22.63	-85.2	-88.6	3.2	1.56e+00	0	47	104	0	60	1048575
2026-01-18 10:39:23.01	264.86	22.65	-85.2	-88.6	3.2	1.56e+00	0	47	104	0	60	1048571
2026-01-18 10:39:24.01	265.13	22.68	-85.2	-88.6	3.0	1.56e+00	0	47	104	0	60	1048575
2026-01-18 10:39:25.02	265.40	22.70	-85.2	-88.6	2.9	1.56e+00	0	47	104	0	60	1048573
2026-01-18 10:39:26.03	265.67	22.73	-85.2	-88.6	3.1	1.56e+00	0	47	104	0	60	1048574
2026-01-18 10:39:27.03	265.94	22.75	-84.7	-88.6	3.0	1.56e+00	0	47	104	0	60	1048574
2026-01-18 10:39:28.03	266.21	22.78	-85.2	-88.6	3.0	1.56e+00	0	47	104	0	60	1048575
2026-01-18 10:39:29.04	266.48	22.80	-85.2	-88.6	2.9	1.56e+00	0	47	104	0	60	1048575
2026-01-18 10:39:30.04	266.75	22.82	-85.2	-88.6	3.0	1.56e+00	0	47	104	0	60	1048575
2026-01-18 10:39:31.05	267.02	22.85	-84.7	-88.6	2.9	1.56e+00	0	47	104	0	60	1048575
2026-01-18 10:39:32.06	267.30	22.87	-85.2	-88.6	3.1	1.55e+00	0	47	104	0	60	1048572
2026-01-18 10:39:33.07	267.57	22.89	-85.2	-88.6	2.9	1.56e+00	0	47	104	0	60	1048575
2026-01-18 10:39:34.08	267.85	22.91	-85.2	-88.6	3.1	1.56e+00	0	47	104	0	60	1048575
2026-01-18 10:39:35.09	268.12	22.93	-85.2	-88.6	2.9	1.56e+00	0	47	104	0	60	1048575
2026-01-18 10:39:36.09	268.39	22.95	-85.2	-88.6	3.1	1.55e+00	0	47	104	0	60	1048574
2026-01-18 10:39:37.10	268.67	22.96	-85.2	-88.6	3.2	1.56e+00	0	47	104	0	60	1048574
2026-01-18 10:39:38.11	268.94	22.98	-85.2	-88.6	3.0	1.56e+00	0	47	104	0	60	1048575
2026-01-18 10:39:39.12	269.22	23.00	-85.2	-88.6	3.1	1.56e+00	0	47	104	0	60	1048574
2026-01-18 10:39:40.13	269.50	23.01	-85.2	-88.6	3.1	1.56e+00	0	47	104	0	60	1048575
2026-01-18 10:39:41.13	269.77	23.03	-84.7	-88.6	3.0	1.56e+00	0	47	104	0	60	1048575
2026-01-18 10:39:42.14	270.05	23.04	-85.2	-88.6	3.0	1.56e+00	0	47	104	0	60	1048573
2026-01-18 10:39:43.15	270.32	23.06	-85.2	-88.6	3.0	1.56e+00	0	47	104	0	60	1048574
2026-01-18 10:39:44.15	270.60	23.07	-85.2	-88.6	2.9	1.56e+00	0	47	104	0	60	1048574
2026-01-18 10:39:45.15	270.87	23.08	-85.2	-88.6	3.1	1.56e+00	0	47	104	0	60	1048575
2026-01-18 10:39:46.16	271.15	23.10	-85.2	-88.6	3.2	1.56e+00	0	47	104	0	60	1048575
2026-01-18 10:39:47.16	271.43	23.11	-85.2	-88.6	2.9	1.56e+00	0	47	104	0	60	1048575
2026-01-18 10:39:48.17	271.70	23.12	-85.2	-88.6	3.1	1.55e+00	0	47	104	0	60	1048575
2026-01-18 10:39:49.17	271.98	23.13	-85.2	-88.6	2.9	1.56e+00	0	47	104	0	60	1048575
2026-01-18 10:39:50.18	272.26	23.14	-85.2	-88.6	3.1	1.56e+00	0	47	104	0	60	1048575
2026-01-18 10:39:51.18	272.53	23.15	-85.2	-88.6	3.0	1.56e+00	0	47	104	0	60	1048569
2026-01-18 10:39:52.19	272.81	23.15	-85.2	-88.6	3.0	1.56e+00	0	47	104	0	60	1048572
2026-01-18 10:39:53.20	273.09	23.16	-85.2	-88.6	2.9	1.55e+00	0	47	104	0	60	1048573
2026-01-18 10:39:54.20	273.37	23.17	-85.2	-88.6	3.2	1.56e+00	0	47	104	0	60	1048574
2026-01-18 10:39:55.21	273.65	23.17	-85.2	-88.6	2.9	1.56e+00	0	47	104	0	60	1048575
2026-01-18 10:39:56.22	273.93	23.18	-85.2	-88.6	3.2	1.56e+00	0	47	104	0	60	1048571
2026-01-18 10:39:57.23	274.20	23.18	-85.2	-88.6	3.3	1.56e+00	0	47	104	0	60	1048575
2026-01-18 10:39:58.23	274.48	23.19	-85.2	-88.6	2.9	1.55e+00	0	47	104	0	60	1048575
2026-01-18 10:39:59.23	274.76	23.19	-85.2	-88.6	2.9	1.56e+00	0	47	104	0	60	1048575
2026-01-18 10:40:00.24	275.04	23.19	-85.2	-88.6	3.0	1.56e+00	0	47	104	0	60	1048575
2026-01-18 10:40:01.24	275.31	23.19	-84.7	-88.6	3.0	1.56e+00	0	47	104	0	60	1048574
2026-01-18 10:40:02.25	275.59	23.19	-85.2	-88.6	3.1	1.56e+00	0	47	104	0	60	1048575
2026-01-18 10:40:03.25	275.87	23.20	-85.2	-88.6	3.0	1.56e+00	0	47	104	0	60	1048571
2026-01-18 10:40:04.26	276.15	23.20	-85.2	-88.6	2.9	1.55e+00	0	47	104	0	60	1048575
2026-01-18 10:40:05.26	276.43	23.19	-85.2	-88.6	2.8	1.56e+00	0	47	104	0	60	1048572
2026-01-18 10:40:06.27	276.71	23.19	-84.7	-88.6	3.1	1.56e+00	0	47	104	0	60	1048575
2026-01-18 10:40:07.28	276.98	23.19	-85.2	-88.6	3.0	1.55e+00	0	47	104	0	60	1048575
2026-01-18 10:40:08.29	277.26	23.19	-85.2	-88.6	3.2	1.56e+00	0	47	104	0	60	1048574
2026-01-18 10:40:09.30	277.54	23.18	-84.7	-88.6	3.2	1.55e+00	0	47	104	0	60	1048574
2026-01-18 10:40:10.31	277.82	23.18	-85.2	-88.6	3.1	1.55e+00	0	47	104	0	60	1048574
2026-01-18 10:40:11.31	278.10	23.17	-85.2	-88.6	3.1	1.56e+00	0	47	104	0	60	1048574
2026-01-18 10:40:12.32	278.38	23.17	-85.2	-88.6	3.0	1.55e+00	0	47	104	0	60	1048573
2026-01-18 10:40:13.33	278.66	23.16	-85.2	-88.6	3.0	1.55e+00	0	47	104	0	60	1048575
2026-01-18 10:40:14.34	278.94	23.15	-85.2	-88.6	3.1	1.55e+00	0	47	104	0	60	1048575
2026-01-18 10:40:15.34	279.21	23.15	-85.2	-88.6	2.9	1.55e+00	0	47	104	0	60	1048572
2026-01-18 10:40:16.35	279.49	23.14	-85.2	-88.6	2.9	1.56e+00	0	47	104	0	60	1048574
2026-01-18 10:40:17.35	279.77	23.13	-85.2	-88.6	3.1	1.56e+00	0	47	104	0	60	1048575
2026-01-18 10:40:18.36	280.04	23.12	-85.2	-88.6	3.0	1.56e+00	0	47	104	0	60	1048571
2026-01-18 10:40:19.36	280.32	23.11	-85.2	-88.6	3.1	1.56e+00	0	47	104	0	60	1048575
2026-01-18 10:40:20.37	280.60	23.10	-85.2	-88.6	3.2	1.55e+00	0	47	104	0	60	1048575
2026-01-18 10:40:21.37	280.87	23.09	-85.2	-88.6	3.2	1.56e+00	0	47	104	0	60	1048574
2026-01-18 10:40:22.38	281.15	23.07	-85.2	-88.6	3.3	1.56e+00	0	47	104	0	60	1048574
2026-01-18 10:40:23.39	281.43	23.06	-85.2	-88.6	3.2	1.56e+00	0	47	104	0	60	1048573
2026-01-18 10:40:24.40	281.70	23.05	-84.7	-88.6	3.1	1.55e+00	0	47	104	0	60	1048574
2026-01-18 10:40:25.40	281.98	23.03	-83.5	-88.6	3.0	1.56e+00	0	47	104	0	60	1048568
2026-01-18 10:40:26.40	282.25	23.02	-85.2	-88.6	2.9	1.56e+00	0	47	104	0	60	1048575
2026-01-18 10:40:27.41	282.53	23.00	-85.2	-88.6	2.9	1.55e+00	0	47	104	0	60	1048575
2026-01-18 10:40:28.42	282.80	22.98	-85.2	-88.6	3.0	1.55e+00	0	47	104	0	60	1048575
2026-01-18 10:40:29.43	283.08	22.97	-85.2	-88.6	3.0	1.56e+00	0	47	104	0	60	1048575
2026-01-18 10:40:30.43	283.35	22.95	-84.3	-88.6	3.2	1.56e+00	0	47	104	0	60	1048575
2026-01-18 10:40:31.44	283.62	22.93	-85.2	-88.6	3.0	1.56e+00	0	47	104	0	60	1048575
2026-01-18 10:40:32.45	283.90	22.91	-85.2	-88.6	3.1	1.55e+00	0	47	104	0	60	1048574
2026-01-18 10:40:33.46	284.17	22.89	-85.2	-88.6	2.9	1.55e+00	0	47	104	0	60	1048574
2026-01-18 10:40:34.46	284.44	22.87	-85.2	-88.6	2.8	1.56e+00	0	47	104	0	60	1048574
2026-01-18 10:40:35.46	284.71	22.85	-85.2	-88.6	3.0	1.55e+00	0	47	104	0	60	1048570
2026-01-18 10:40:36.46	284.98	22.83	-85.2	-88.6	3.1	1.56e+00	0	47	104	0	60	1048572
2026-01-18 10:40:37.46	285.25	22.81	-85.2	-88.6	3.1	1.56e+00	0	47	104	0	60	1048573
2026-01-18 10:40:38.47	285.53	22.78	-85.2	-88.6	3.2	1.56e+00	0	47	104	0	60	1048574
2026-01-18 10:40:39.47	285.80	22.76	-84.3	-88.6	3.1	1.56e+00	0	47	104	0	60	1048573
2026-01-18 10:40:40.48	286.07	22.73	-85.2	-88.6	3.0	1.56e+00	0	47	104	0	60	1048571
2026-01-18 10:40:41.48	286.34	22.71	-85.2	-88.6	3.0	1.56e+00	0	47	104	0	60	1048573
2026-01-18 10:40:42.49	286.61	22.68	-85.2	-88.6	3.0	1.56e+00	0	47	104	0	60	1048574
2026-01-18 10:40:43.50	286.88	22.66	-85.2	-88.6	3.0	1.56e+00	0	47	104	0	60	1048574
2026-01-18 10:40:44.51	287.15	22.63	-85.2	-88.6	3.2	1.56e+00	0	47	104	0	60	1048575
2026-01-18 10:40:45.52	287.42	22.60	-85.2	-88.6	3.1	1.56e+00	0	47	104	0	60	1048575
2026-01-18 10:40:46.53	287.68	22.58	-85.2	-88.6	2.9	1.56e+00	0	47	104	0	60	1048574
2026-01-18 10:40:47.53	287.95	22.55	-85.2	-88.6	2.9	1.56e+00	0	47	104	0	60	1048575
2026-01-18 10:40:48.54	288.22	22.52	-85.2	-88.6	2.9	1.55e+00	0	47	104	0	60	1048575
2026-01-18 10:40:49.55	288.49	22.49	-85.2	-88.6	3.1	1.56e+00	0	47	104	0	60	1048574
2026-01-18 10:40:50.56	288.75	22.46	-85.2	-88.6	2.9	1.56e+00	0	47	104	0	60	1048574
2026-01-18 10:40:51.57	289.02	22.43	-85.2	-88.6	3.0	1.56e+00	0	47	104	0	60	1048574
2026-01-18 10:40:52.57	289.28	22.40	-85.2	-88.6	3.0	1.55e+00	0	47	104	0	60	1048575
2026-01-18 10:40:53.58	289.55	22.36	-85.2	-88.6	3.0	1.56e+00	0	47	104	0	60	1048574
2026-01-18 10:40:54.59	289.81	22.33	-85.2	-88.6	3.0	1.56e+00	0	47	104	0	60	1048575
2026-01-18 10:40:55.59	290.07	22.30	-85.2	-88.6	2.9	1.56e+00	0	47	104	0	60	1048574
2026-01-18 10:40:56.59	290.33	22.26	-85.2	-88.6	3.0	1.56e+00	0	47	104	0	60	1048574
2026-01-18 10:40:57.60	290.60	22.23	-85.2	-88.6	3.1	1.56e+00	0	47	104	0	60	1048575
2026-01-18 10:40:58.61	290.86	22.19	-85.2	-88.6	3.0	1.56e+00	0	47	104	0	60	1048574
2026-01-18 10:40:59.62	291.12	22.16	-83.5	-88.6	3.1	1.55e+00	0	47	104	0	60	1048575
2026-01-18 10:41:00.63	291.38	22.12	-84.3	-88.6	3.0	1.56e+00	0	47	104	0	60	1048573
2026-01-18 10:41:01.63	291.64	22.09	-85.2	-88.6	2.9	1.56e+00	0	47	104	0	60	1048575
2026-01-18 10:41:02.64	291.90	22.05	-85.2	-88.6	2.9	1.56e+00	0	47	104	0	60	1048573
2026-01-18 10:41:03.65	292.16	22.01	-85.2	-88.6	2.9	1.56e+00	0	47	104	0	60	1048574
2026-01-18 10:41:04.66	292.42	21.97	-85.2	-88.6	2.9	1.56e+00	0	47	104	0	60	1048573
2026-01-18 10:41:05.67	292.68	21.93	-84.3	-88.6	2.9	1.56e+00	0	47	104	0	60	1048575
2026-01-18 10:41:06.67	292.93	21.90	-85.2	-88.6	2.9	1.56e+00	0	47	104	0	60	1048575
2026-01-18 10:41:07.68	293.19	21.86	-85.2	-88.6	3.1	1.55e+00	0	47	104	0	60	1048572
2026-01-18 10:41:08.68	293.44	21.82	-85.2	-88.6	3.1	1.55e+00	0	47	104	0	60	1048574
2026-01-18 10:41:09.69	293.70	21.78	-84.3	-88.6	3.0	1.56e+00	0	47	104	0	60	1048575
2026-01-18 10:41:10.70	293.95	21.73	-85.2	-88.6	3.2	1.56e+00	0	47	104	0	60	1048572
2026-01-18 10:41:11.71	294.21	21.69	-85.2	-88.6	3.1	1.56e+00	0	47	104	0	60	1048573
2026-01-18 10:41:12.72	294.46	21.65	-85.2	-88.6	3.0	1.56e+00	0	47	104	0	60	1048573
2026-01-18 10:41:13.73	294.71	21.61	-85.2	-88.6	3.0	1.56e+00	0	47	104	0	60	1048574
2026-01-18 10:41:14.73	294.96	21.56	-85.2	-88.6	3.1	1.56e+00	0	47	104	0	60	1048575
2026-01-18 10:41:15.74	295.21	21.52	-85.2	-88.6	2.8	1.55e+00	0	47	104	0	60	1048574
2026-01-18 10:41:16.75	295.46	21.48	-85.2	-88.6	3.0	1.55e+00	0	47	104	0	60	1048574
2026-01-18 10:41:17.76	295.71	21.43	-85.2	-88.6	2.8	1.56e+00	0	47	104	0	60	1048575
2026-01-18 10:41:18.77	295.96	21.39	-85.2	-88.6	3.0	1.56e+00	0	47	104	0	60	1048572
2026-01-18 10:41:19.77	296.21	21.34	-85.2	-88.6	3.1	1.56e+00	0	47	104	0	60	1048571
2026-01-18 10:41:20.78	296.46	21.30	-85.2	-88.6	3.0	1.55e+00	0	47	104	0	60	1048575
2026-01-18 10:41:21.79	296.70	21.25	-85.2	-88.6	3.1	1.56e+00	0	47	104	0	60	1048571
2026-01-18 10:41:22.79	296.95	21.20	-85.2	-88.6	2.9	1.55e+00	0	47	104	0	60	1048575
2026-01-18 10:41:23.79	297.19	21.16	-85.2	-88.6	3.2	1.56e+00	0	47	104	0	60	1048573
2026-01-18 10:41:24.80	297.44	21.11	-85.2	-88.6	3.0	1.56e+00	0	47	104	0	60	1048575
2026-01-18 10:41:25.81	297.68	21.06	-85.2	-88.6	2.7	1.56e+00	0	47	104	0	60	1048575
2026-01-18 10:41:26.81	297.92	21.01	-85.2	-88.6	3.0	1.56e+00	0	47	104	0	60	1048575
2026-01-18 10:41:27.81	298.16	20.96	-85.2	-88.6	3.2	1.56e+00	0	47	104	0	60	1048573
2026-01-18 10:41:28.82	298.40	20.91	-85.2	-88.6	3.0	1.56e+00	0	47	104	0	60	1048570
2026-01-18 10:41:29.82	298.64	20.86	-85.2	-88.6	3.1	1.56e+00	0	47	104	0	60	1048574
2026-01-18 10:41:30.83	298.88	20.81	-85.2	-88.6	3.1	1.56e+00	0	47	104	0	60	1048575
2026-01-18 10:41:31.84	299.12	20.76	-85.2	-88.6	3.1	1.56e+00	0	47	104	0	60	1048575
2026-01-18 10:41:32.85	299.36	20.71	-85.2	-88.6	2.8	1.56e+00	0	47	104	0	60	1048575
2026-01-18 10:41:33.86	299.60	20.66	-85.2	-88.6	3.0	1.56e+00	0	47	104	0	60	1048573
2026-01-18 10:41:34.87	299.84	20.61	-85.2	-88.6	3.2	1.56e+00	0	47	104	0	60	1048574
2026-01-18 10:41:35.88	300.07	20.56	-85.2	-88.6	3.0	1.56e+00	0	47	104	0	60	1048575
2026-01-18 10:41:36.89	300.31	20.50	-85.2	-88.6	3.1	1.55e+00	0	47	104	0	60	1048575
2026-01-18 10:41:37.89	300.54	20.45	-85.2	-88.6	3.3	1.55e+00	0	47	104	0	60	1048574
2026-01-18 10:41:38.90	300.78	20.40	-85.2	-88.6	2.9	1.56e+00	0	47	104	0	60	1048575
2026-01-18 10:41:39.91	301.01	20.34	-85.2	-88.6	2.9	1.56e+00	0	47	104	0	60	1048573
2026-01-18 10:41:40.91	301.24	20.29	-85.2	-88.6	3.1	1.56e+00	0	47	104	0	60	1048575
2026-01-18 10:41:41.92	301.47	20.24	-85.2	-88.6	3.1	1.56e+00	0	47	104	0	60	1048573
2026-01-18 10:41:42.92	301.70	20.18	-85.2	-88.6	3.0	1.55e+00	0	47	104	0	60	1048572
2026-01-18 10:41:43.93	301.93	20.13	-85.2	-88.6	2.9	1.55e+00	0	47	104	0	60	1048575
2026-01-18 10:41:44.93	302.16	20.07	-85.2	-88.6	2.8	1.56e+00	0	47	104	0	60	1048574
2026-01-18 10:41:45.93	302.38	20.02	-85.2	-88.6	2.9	1.56e+00	0	47	104	0	60	1048573
2026-01-18 10:41:46.93	302.61	19.96	-85.2	-88.6	3.2	1.56e+00	0	47	104	0	60	1048575
2026-01-18 10:41:47.94	302.84	19.91	-85.2	-88.6	3.0	1.56e+00	0	47	104	0	60	1048572
2026-01-18 10:41:48.95	303.06	19.85	-85.2	-88.6	3.1	1.56e+00	0	47	104	0	60	1048572
2026-01-18 10:41:49.95	303.29	19.79	-85.2	-88.6	3.2	1.55e+00	0	47	104	0	60	1048573
2026-01-18 10:41:50.96	303.51	19.74	-85.2	-88.6	3.1	1.56e+00	0	47	104	0	60	1048575
2026-01-18 10:41:51.97	303.73	19.68	-85.2	-88.6	3.1	1.56e+00	0	47	104	0	60	1048573
2026-01-18 10:41:52.98	303.96	19.62	-85.2	-88.6	3.1	1.56e+00	0	47	104	0	60	1048572
2026-01-18 10:41:53.98	304.18	19.56	-85.2	-88.6	3.0	1.55e+00	0	47	104	0	60	1048575
2026-01-18 10:41:54.99	304.40	19.51	-85.2	-88.6	3.0	1.56e+00	0	47	104	0	60	1048575
2026-01-18 10:41:56.00	304.62	19.45	-85.2	-88.6	3.2	1.56e+00	0	47	104	0	60	1048575
2026-01-18 10:41:57.01	304.84	19.39	-85.2	-88.6	2.9	1.55e+00	0	47	104	0	60	1048575
2026-01-18 10:41:58.01	305.05	19.33	-85.2	-88.6	3.1	1.56e+00	0	47	104	0	60	1048574
2026-01-18 10:41:59.01	305.27	19.27	-85.2	-88.6	3.0	1.55e+00	0	47	104	0	60	1048575
2026-01-18 10:42:00.02	305.49	19.21	-85.2	-88.6	3.1	1.56e+00	0	47	104	0	60	1048575
2026-01-18 10:42:01.03	305.70	19.15	-85.2	-88.6	2.9	1.56e+00	0	47	104	0	60	1048575
2026-01-18 10:42:02.03	305.92	19.09	-85.2	-88.6	2.9	1.56e+00	0	47	104	0	60	1048574
2026-01-18 10:42:03.05	306.13	19.03	-85.2	-88.6	2.8	1.56e+00	0	47	104	0	60	1048575
2026-01-18 10:42:04.05	306.34	18.97	-85.2	-88.6	3.1	1.55e+00	0	47	104	0	60	1048575
2026-01-18 10:42:05.06	306.56	18.91	-85.2	-88.6	3.0	1.55e+00	0	47	104	0	60	1048575
2026-01-18 10:42:06.07	306.77	18.85	-85.2	-88.6	3.1	1.56e+00	0	47	104	0	60	1048575
2026-01-18 10:42:07.08	306.98	18.79	-85.2	-88.6	3.0	1.56e+00	0	47	104	0	60	1048572
2026-01-18 10:42:08.08	307.19	18.73	-85.2	-88.6	2.9	1.56e+00	0	47	104	0	60	1048571
2026-01-18 10:42:09.09	307.40	18.66	-85.2	-88.6	2.9	1.56e+00	0	47	104	0	60	1048574
2026-01-18 10:42:10.10	307.61	18.60	-85.2	-88.6	3.0	1.56e+00	0	47	104	0	60	1048574
2026-01-18 10:42:11.11	307.82	18.54	-85.2	-88.6	2.9	1.56e+00	0	47	104	0	60	1048573
2026-01-18 10:42:12.12	308.02	18.48	-85.2	-88.6	3.0	1.56e+00	0	47	104	0	60	1048574
2026-01-18 10:42:13.13	308.23	18.41	-85.2	-88.6	3.1	1.56e+00	0	47	104	0	60	1048575
2026-01-18 10:42:14.13	308.43	18.35	-85.2	-88.6	3.2	1.55e+00	0	47	104	0	60	1048575
2026-01-18 10:42:15.14	308.64	18.29	-85.2	-88.6	2.9	1.56e+00	0	47	104	0	60	1048573
2026-01-18 10:42:16.14	308.84	18.23	-85.2	-88.6	2.8	1.56e+00	0	47	104	0	60	1048574
2026-01-18 10:42:17.15	309.04	18.16	-85.2	-88.6	3.0	1.56e+00	0	47	104	0	60	1048575
2026-01-18 10:42:18.16	309.24	18.10	-85.2	-88.6	3.2	1.56e+00	0	47	104	0	60	1048572
2026-01-18 10:42:19.16	309.44	18.04	-85.2	-88.6	2.9	1.56e+00	0	47	104	0	60	1048574
2026-01-18 10:42:20.17	309.64	17.97	-85.2	-88.6	2.8	1.56e+00	0	47	104	0	60	1048575
2026-01-18 10:42:21.18	309.84	17.91	-85.2	-88.6	2.9	1.55e+00	0	47	104	0	60	1048575
2026-01-18 10:42:22.19	310.04	17.85	-85.2	-88.6	3.0	1.56e+00	0	47	104	0	60	1048573
2026-01-18 10:42:23.20	310.24	17.78	-85.2	-88.6	3.1	1.55e+00	0	47	104	0	60	1048575
2026-01-18 10:42:24.20	310.44	17.72	-85.2	-88.6	2.8	1.56e+00	0	47	104	0	60	1048574
2026-01-18 10:42:25.22	310.63	17.65	-85.2	-88.6	2.9	1.56e+00	0	47	104	0	60	1048574
2026-01-18 10:42:26.22	310.83	17.59	-84.3	-88.6	3.0	1.56e+00	0	47	104	0	60	1048572
2026-01-18 10:42:27.23	311.02	17.52	-85.2	-88.6	3.0	1.56e+00	0	47	104	0	60	1048574
2026-01-18 10:42:28.24	311.22	17.46	-85.2	-88.6	3.1	1.56e+00	0	47	104	0	60	1048575
2026-01-18 10:42:29.25	311.41	17.39	-85.2	-88.6	3.0	1.56e+00	0	47	104	0	60	1048574
2026-01-18 10:42:30.25	311.60	17.33	-85.2	-88.6	3.0	1.56e+00	0	47	104	0	60	1048575
2026-01-18 10:42:31.26	311.79	17.26	-85.2	-88.6	2.9	1.56e+00	0	47	104	0	60	1048575
2026-01-18 10:42:32.27	311.98	17.20	-85.2	-88.6	3.0	1.56e+00	0	47	104	0	60	1048573
2026-01-18 10:42:33.27	312.17	17.13	-85.2	-88.6	3.2	1.56e+00	0	47	104	0	60	1048574
2026-01-18 10:42:34.26	312.36	17.07	-85.2	-88.6	3.0	1.56e+00	0	47	104	0	60	1048575
2026-01-18 10:42:35.27	312.54	17.00	-85.2	-88.6	3.0	1.55e+00	0	47	104	0	60	1048573
2026-01-18 10:42:36.28	312.73	16.93	-85.2	-88.6	3.1	1.55e+00	0	47	104	0	60	1048572
2026-01-18 10:42:37.29	312.92	16.87	-85.2	-88.6	3.1	1.56e+00	0	47	104	0	60	1048574
2026-01-18 10:42:38.29	313.10	16.80	-85.2	-88.6	3.2	1.56e+00	0	47	104	0	60	1048574
2026-01-18 10:42:39.30	313.29	16.74	-85.2	-88.6	3.0	1.56e+00	0	47	104	0	60	1048573
2026-01-18 10:42:40.31	313.47	16.67	-85.2	-88.6	3.1	1.56e+00	0	47	104	0	60	1048575
2026-01-18 10:42:41.32	313.66	16.60	-85.2	-88.6	2.9	1.55e+00	0	47	104	0	60	1048575
2026-01-18 10:42:42.33	313.84	16.54	-85.2	-88.6	3.0	1.56e+00	0	47	104	0	60	1048575
2026-01-18 10:42:43.33	314.02	16.47	-85.2	-88.6	3.1	1.56e+00	0	47	104	0	60	1048575
2026-01-18 10:42:44.34	314.20	16.40	-85.2	-88.6	3.0	1.55e+00	0	47	104	0	60	1048575
2026-01-18 10:42:45.35	314.38	16.34	-85.2	-88.6	2.9	1.55e+00	0	47	104	0	60	1048575
2026-01-18 10:42:46.35	314.56	16.27	-85.2	-88.6	3.0	1.56e+00	0	47	104	0	60	1048575
2026-01-18 10:42:47.36	314.74	16.20	-85.2	-88.6	3.3	1.56e+00	0	47	104	0	60	1048574
2026-01-18 10:42:48.36	314.91	16.14	-85.2	-88.6	3.1	1.56e+00	0	47	104	0	60	1048575
2026-01-18 10:42:49.36	315.09	16.07	-85.2	-88.6	3.0	1.55e+00	0	47	104	0	60	1048574
2026-01-18 10:42:50.37	315.26	16.00	-85.2	-88.6	3.0	1.56e+00	0	47	104	0	60	1048575
2026-01-18 10:42:51.38	315.44	15.94	-85.2	-88.6	3.0	1.55e+00	0	47	104	0	60	1048575
2026-01-18 10:42:52.38	315.61	15.87	-85.2	-88.6	2.9	1.56e+00	0	47	104	0	60	1048573
2026-01-18 10:42:53.39	315.79	15.80	-85.2	-88.6	3.1	1.56e+00	0	47	104	0	60	1048575
2026-01-18 10:42:54.39	315.96	15.73	-85.2	-88.6	3.0	1.56e+00	0	47	104	0	60	1048574
2026-01-18 10:42:55.40	316.13	15.67	-85.2	-88.6	3.0	1.56e+00	0	47	104	0	60	1048572
2026-01-18 10:42:56.41	316.30	15.60	-85.2	-88.6	3.0	1.56e+00	0	47	104	0	60	1048573
2026-01-18 10:42:57.41	316.47	15.53	-85.2	-88.6	2.9	1.55e+00	0	47	104	0	60	1048575
2026-01-18 10:42:58.42	316.64	15.46	-85.2	-88.6	2.9	1.56e+00	0	47	104	0	60	1048574
2026-01-18 10:42:59.42	316.81	15.40	-85.2	-88.6	3.0	1.56e+00	0	47	104	0	60	1048575
2026-01-18 10:43:00.43	316.98	15.33	-85.2	-88.6	3.3	1.56e+00	0	47	104	0	60	1048575
2026-01-18 10:43:01.43	317.15	15.26	-85.2	-88.6	3.0	1.56e+00	0	47	104	0	60	1048574
2026-01-18 10:43:02.44	317.32	15.19	-85.2	-88.6	3.0	1.55e+00	0	47	104	0	60	1048573
2026-01-18 10:43:03.44	317.48	15.13	-85.2	-88.6	2.7	1.55e+00	0	47	104	0	60	1048575
2026-01-18 10:43:04.44	317.65	15.06	-85.2	-88.6	2.8	1.56e+00	0	47	104	0	60	1048573
2026-01-18 10:43:05.44	317.81	14.99	-85.2	-88.6	3.1	1.56e+00	0	47	104	0	60	1048574
2026-01-18 10:43:06.45	317.97	14.92	-85.2	-88.6	3.1	1.56e+00	0	47	104	0	60	1048574
2026-01-18 10:43:07.46	318.14	14.86	-85.2	-88.6	2.9	1.56e+00	0	47	104	0	60	1048573
2026-01-18 10:43:08.47	318.30	14.79	-85.2	-88.6	3.0	1.56e+00	0	47	104	0	60	1048575
2026-01-18 10:43:09.48	318.46	14.72	-85.2	-88.6	3.1	1.55e+00	0	47	104	0	60	1048571
2026-01-18 10:43:10.49	318.62	14.65	-85.2	-88.6	2.9	1.56e+00	0	47	104	0	60	1048570
2026-01-18 10:43:11.49	318.78	14.59	-84.7	-88.6	3.2	1.56e+00	0	47	104	0	60	1048574
2026-01-18 10:43:12.50	318.94	14.52	-85.2	-88.6	3.2	1.56e+00	0	47	104	0	60	1048574
2026-01-18 10:43:13.51	319.10	14.45	-85.2	-88.6	2.9	1.55e+00	0	47	104	0	60	1048575
2026-01-18 10:43:14.52	319.26	14.38	-85.2	-88.6	2.9	1.55e+00	0	47	104	0	60	1048574
2026-01-18 10:43:15.53	319.42	14.31	-85.2	-88.6	3.1	1.56e+00	0	47	104	0	60	1048575
2026-01-18 10:43:16.53	319.58	14.25	-85.2	-88.6	3.0	1.55e+00	0	47	104	0	60	1048575
2026-01-18 10:43:17.54	319.73	14.18	-85.2	-88.6	2.8	1.56e+00	0	47	104	0	60	1048575
2026-01-18 10:43:18.55	319.89	14.11	-85.2	-88.6	2.8	1.56e+00	0	47	104	0	60	1048575
2026-01-18 10:43:19.56	320.04	14.04	-85.2	-88.6	3.1	1.55e+00	0	47	104	0	60	1048575
2026-01-18 10:43:20.56	320.20	13.97	-85.2	-88.6	3.1	1.55e+00	0	47	104	0	60	1048575
2026-01-18 10:43:21.56	320.35	13.91	-85.2	-88.6	3.2	1.56e+00	0	47	104	0	60	1048572
2026-01-18 10:43:22.57	320.50	13.84	-85.2	-88.6	3.0	1.56e+00	0	47	104	0	60	1048575
2026-01-18 10:43:23.57	320.65	13.77	-85.2	-88.6	3.0	1.56e+00	0	47	104	0	60	1048575
2026-01-18 10:43:24.57	320.81	13.70	-85.2	-88.6	3.3	1.56e+00	0	47	104	0	60	1048575
2026-01-18 10:43:25.58	320.96	13.63	-85.2	-88.6	3.1	1.56e+00	0	47	104	0	60	1048574
2026-01-18 10:43:26.58	321.11	13.57	-85.2	-88.6	3.0	1.56e+00	0	47	104	0	60	1048574
2026-01-18 10:43:27.58	321.25	13.50	-85.2	-88.6	3.0	1.56e+00	0	47	104	0	60	1048575
2026-01-18 10:43:28.59	321.40	13.43	-85.2	-88.6	3.1	1.56e+00	0	47	104	0	60	1048575
2026-01-18 10:43:29.60	321.55	13.36	-85.2	-88.6	3.0	1.56e+00	0	47	104	0	60	1048574
2026-01-18 10:43:30.61	321.70	13.30	-85.2	-88.6	3.0	1.56e+00	0	47	104	0	60	1048575
2026-01-18 10:43:31.61	321.85	13.23	-85.2	-88.6	3.0	1.56e+00	0	47	104	0	60	1048575
2026-01-18 10:43:32.62	321.99	13.16	-85.2	-88.6	3.2	1.55e+00	0	47	104	0	60	1048574
2026-01-18 10:43:33.63	322.14	13.09	-85.2	-88.6	3.0	1.55e+00	0	47	104	0	60	1048575
2026-01-18 10:43:34.64	322.28	13.02	-85.2	-88.6	3.0	1.56e+00	0	47	104	0	60	1048575
2026-01-18 10:43:35.64	322.43	12.96	-85.2	-88.6	2.8	1.56e+00	0	47	104	0	60	1048575
2026-01-18 10:43:36.65	322.57	12.89	-85.2	-88.6	3.1	1.55e+00	0	47	104	0	60	1048574
2026-01-18 10:43:37.66	322.72	12.82	-85.2	-88.6	3.0	1.56e+00	0	47	104	0	60	1048571
2026-01-18 10:43:38.67	322.86	12.75	-85.2	-88.6	2.9	1.56e+00	0	47	104	0	60	1048571
2026-01-18 10:43:39.67	323.00	12.69	-85.2	-88.6	3.0	1.56e+00	0	47	104	0	60	1048573
2026-01-18 10:43:40.68	323.14	12.62	-85.2	-88.6	2.8	1.56e+00	0	47	104	0	60	1048575
2026-01-18 10:43:41.69	323.28	12.55	-85.2	-88.6	3.1	1.55e+00	0	47	104	0	60	1048573
2026-01-18 10:43:42.69	323.42	12.48	-85.2	-88.6	3.0	1.56e+00	0	47	104	0	60	1048575
2026-01-18 10:43:43.70	323.56	12.42	-85.2	-88.6	2.9	1.56e+00	0	47	104	0	60	1048571
2026-01-18 10:43:44.71	323.70	12.35	-85.2	-88.6	3.2	1.56e+00	0	47	104	0	60	1048574
2026-01-18 10:43:45.71	323.84	12.28	-85.2	-88.6	3.2	1.55e+00	0	47	104	0	60	1048575
2026-01-18 10:43:46.72	323.97	12.21	-84.7	-88.6	3.1	1.56e+00	0	47	104	0	60	1048575
2026-01-18 10:43:47.73	324.11	12.15	-85.2	-88.6	3.1	1.56e+00	0	47	104	0	60	1048572
2026-01-18 10:43:48.74	324.25	12.08	-85.2	-88.6	3.0	1.55e+00	0	47	104	0	60	1048575
2026-01-18 10:43:49.75	324.38	12.01	-85.2	-88.6	3.1	1.56e+00	0	47	104	0	60	1048575
2026-01-18 10:43:50.75	324.52	11.94	-85.2	-88.6	3.1	1.56e+00	0	47	104	0	60	1048574
2026-01-18 10:43:51.76	324.65	11.88	-84.7	-88.6	3.0	1.56e+00	0	47	104	0	60	1048573
2026-01-18 10:43:52.77	324.79	11.81	-84.7	-88.6	3.1	1.56e+00	0	47	104	0	60	1048573
2026-01-18 10:43:53.78	324.92	11.74	-85.2	-88.6	2.9	1.56e+00	0	47	104	0	60	1048574
2026-01-18 10:43:54.79	325.05	11.68	-85.2	-88.6	3.1	1.56e+00	0	47	104	0	60	1048575
2026-01-18 10:43:55.79	325.19	11.61	-85.2	-88.6	3.0	1.56e+00	0	47	104	0	60	1048573
2026-01-18 10:43:56.79	325.32	11.54	-85.2	-88.6	2.9	1.56e+00	0	47	104	0	60	1048575
2026-01-18 10:43:57.80	325.45	11.48	-85.2	-88.6	3.0	1.55e+00	0	47	104	0	60	1048575
2026-01-18 10:43:58.80	325.58	11.41	-85.2	-88.6	2.9	1.56e+00	0	47	104	0	60	1048573
2026-01-18 10:43:59.81	325.71	11.34	-85.2	-88.6	2.9	1.55e+00	0	47	104	0	60	1048574
2026-01-18 10:44:00.82	325.84	11.28	-85.2	-88.6	2.9	1.56e+00	0	47	104	0	60	1048575
2026-01-18 10:44:01.83	325.97	11.21	-85.2	-88.6	2.9	1.56e+00	0	47	104	0	60	1048575
2026-01-18 10:44:02.84	326.09	11.14	-85.2	-88.6	3.0	1.55e+00	0	47	104	0	60	1048573
2026-01-18 10:44:03.85	326.22	11.08	-85.2	-88.6	3.0	1.56e+00	0	47	104	0	60	1048575
2026-01-18 10:44:04.85	326.35	11.01	-85.2	-88.6	3.2	1.56e+00	0	47	104	0	60	1048575
2026-01-18 10:44:05.86	326.48	10.94	-85.2	-88.6	3.0	1.56e+00	0	47	104	0	60	1048574
2026-01-18 10:44:06.87	326.60	10.88	-85.2	-88.6	3.0	1.56e+00	0	47	104	0	60	1048575
2026-01-18 10:44:07.88	326.73	10.81	-85.2	-88.6	3.0	1.56e+00	0	47	104	0	60	1048575
2026-01-18 10:44:08.89	326.85	10.74	-85.2	-88.6	3.1	1.56e+00	0	47	104	0	60	1048574
2026-01-18 10:44:09.89	326.98	10.68	-85.2	-88.6	2.8	1.56e+00	0	47	104	0	60	1048575
2026-01-18 10:44:10.90	327.10	10.61	-85.2	-88.6	2.9	1.56e+00	0	47	104	0	60	1048573
2026-01-18 10:44:11.91	327.22	10.55	-85.2	-88.6	3.0	1.55e+00	0	47	104	0	60	1048572
2026-01-18 10:44:12.92	327.35	10.48	-85.2	-88.6	3.1	1.56e+00	0	47	104	0	60	1048575
2026-01-18 10:44:13.93	327.47	10.41	-85.2	-88.6	3.1	1.56e+00	0	47	104	0	60	1048573
2026-01-18 10:44:14.93	327.59	10.35	-85.2	-88.6	3.0	1.56e+00	0	47	104	0	60	1048573
2026-01-18 10:44:15.94	327.71	10.28	-85.2	-88.6	2.9	1.56e+00	0	47	104	0	60	1048574
2026-01-18 10:44:16.95	327.83	10.22	-85.2	-88.6	3.0	1.56e+00	0	47	104	0	60	1048575
2026-01-18 10:44:17.96	327.95	10.15	-85.2	-88.6	3.0	1.56e+00	0	47	104	0	60	1048575
2026-01-18 10:44:18.96	328.07	10.09	-85.2	-88.6	3.1	1.56e+00	0	47	104	0	60	1048573
2026-01-18 10:44:19.97	328.19	10.02	-85.2	-88.6	3.0	1.56e+00	0	47	104	0	60	1048570
2026-01-18 10:44:20.98	328.31	9.95	-85.2	-88.6	2.8	1.55e+00	0	47	104	0	60	1048574
2026-01-18 10:44:21.99	328.43	9.89	-85.2	-88.6	2.9	1.55e+00	0	47	104	0	60	1048575
2026-01-18 10:44:23.00	328.55	9.82	-85.2	-88.6	3.0	1.56e+00	0	47	104	0	60	1048572
2026-01-18 10:44:24.01	328.66	9.76	-85.2	-88.6	2.9	1.56e+00	0	47	104	0	60	1048575
2026-01-18 10:44:25.01	328.78	9.69	-85.2	-88.6	3.1	1.56e+00	0	47	104	0	60	1048575
2026-01-18 10:44:26.02	328.90	9.63	-84.7	-88.6	3.0	1.55e+00	0	47	104	0	60	1048574
2026-01-18 10:44:27.03	329.01	9.56	-85.2	-88.6	2.9	1.55e+00	0	47	104	0	60	1048575
2026-01-18 10:44:28.03	329.13	9.50	-85.2	-88.6	3.0	1.55e+00	0	47	104	0	60	1048575
2026-01-18 10:44:29.04	329.24	9.43	-85.2	-88.6	2.8	1.56e+00	0	47	104	0	60	1048573
2026-01-18 10:44:30.04	329.35	9.37	-85.2	-88.6	2.9	1.56e+00	0	47	104	0	60	1048575
2026-01-18 10:44:31.05	329.47	9.30	-85.2	-88.6	3.0	1.56e+00	0	47	104	0	60	1048574
2026-01-18 10:44:32.05	329.58	9.24	-85.2	-88.6	3.1	1.55e+00	0	47	104	0	60	1048573
2026-01-18 10:44:33.06	329.69	9.18	-85.2	-88.6	3.2	1.56e+00	0	47	104	0	60	1048573
2026-01-18 10:44:34.06	329.81	9.11	-85.2	-88.6	3.0	1.56e+00	0	47	104	0	60	1048574
2026-01-18 10:44:35.07	329.92	9.05	-85.2	-88.6	2.9	1.56e+00	0	47	104	0	60	1048575
2026-01-18 10:44:36.07	330.03	8.98	-85.2	-88.6	3.1	1.56e+00	0	47	104	0	60	1048574
2026-01-18 10:44:37.08	330.14	8.92	-85.2	-88.6	3.0	1.56e+00	0	47	104	0	60	1048575
2026-01-18 10:44:38.09	330.25	8.85	-85.2	-88.6	3.0	1.55e+00	0	47	104	0	60	1048573
2026-01-18 10:44:39.09	330.36	8.79	-85.2	-88.6	2.9	1.56e+00	0	47	104	0	60	1048575
2026-01-18 10:44:40.10	330.47	8.73	-85.2	-88.6	3.2	1.55e+00	0	47	104	0	60	1048574
2026-01-18 10:44:41.11	330.58	8.66	-85.2	-88.6	3.0	1.56e+00	0	47	104	0	60	1048573
2026-01-18 10:44:42.12	330.69	8.60	-84.7	-88.6	3.1	1.56e+00	0	47	104	0	60	1048574
2026-01-18 10:44:43.12	330.79	8.53	-85.2	-88.6	3.2	1.56e+00	0	47	104	0	60	1048574
2026-01-18 10:44:44.13	330.90	8.47	-85.2	-88.6	3.1	1.56e+00	0	47	104	0	60	1048575
2026-01-18 10:44:45.14	331.01	8.41	-85.2	-88.6	3.1	1.56e+00	0	47	104	0	60	1048574
2026-01-18 10:44:46.14	331.11	8.34	-85.2	-88.6	3.0	1.56e+00	0	47	104	0	60	1048575
2026-01-18 10:44:47.15	331.22	8.28	-85.2	-88.6	3.0	1.56e+00	0	47	104	0	60	1048575
2026-01-18 10:44:48.15	331.33	8.22	-85.2	-88.6	3.0	1.55e+00	0	47	104	0	60	1048575
2026-01-18 10:44:49.16	331.43	8.15	-85.2	-88.6	2.9	1.55e+00	0	47	104	0	60	1048572
2026-01-18 10:44:50.17	331.54	8.09	-85.2	-88.6	3.0	1.55e+00	0	47	104	0	60	1048575
2026-01-18 10:44:51.17	331.64	8.03	-85.2	-88.6	3.0	1.56e+00	0	47	104	0	60	1048573
2026-01-18 10:44:52.18	331.75	7.96	-85.2	-88.6	3.0	1.56e+00	0	47	104	0	60	1048575
2026-01-18 10:44:53.19	331.85	7.90	-85.2	-88.6	3.0	1.56e+00	0	47	104	0	60	1048575
2026-01-18 10:44:54.20	331.95	7.84	-85.2	-88.6	3.0	1.55e+00	0	47	104	0	60	1048570
2026-01-18 10:44:55.20	332.05	7.78	-85.2	-88.6	3.1	1.55e+00	0	47	104	0	60	1048574
2026-01-18 10:44:56.21	332.16	7.71	-85.2	-88.6	3.0	1.55e+00	0	47	104	0	60	1048575
2026-01-18 10:44:57.22	332.26	7.65	-85.2	-88.6	3.0	1.56e+00	0	47	104	0	60	1048575
2026-01-18 10:44:58.23	332.36	7.59	-85.2	-88.6	3.0	1.56e+00	0	47	104	0	60	1048575
2026-01-18 10:44:59.23	332.46	7.52	-85.2	-88.6	3.0	1.56e+00	0	47	104	0	60	1048575
2026-01-18 10:45:00.24	332.56	7.46	-85.2	-88.6	2.8	1.55e+00	0	47	104	0	60	1048575
2026-01-18 10:45:01.24	332.66	7.40	-85.2	-88.6	3.0	1.56e+00	0	47	104	0	60	1048575
2026-01-18 10:45:02.25	332.76	7.34	-85.2	-88.6	2.9	1.56e+00	0	47	104	0	60	1048572
2026-01-18 10:45:03.26	332.86	7.28	-85.2	-88.6	2.9	1.56e+00	0	47	104	0	60	1048575
