passes_logs/2026/01/18/R3.2S-Naryan-Mar/R3.2S-Naryan-Mar__20260118_075005_FENGYUN_3D_rec.log

#Pass ID: 20260118_075005_FENGYUN 3D
#Satellite: FENGYUN 3D
#Configuration: FENGYUN 3D
#almurnet v.1.7.20240730
#Start time: 2026-01-18 07:50:08

#Version: 2.2.20231116
#Station: R3.2S-Naryan-Mar
#Location: 53.008057 lon 67.646978 lat
#TLE: 1 43010U 17072A   26017.25882587  .00000461  00000+0  23963-3 0  9992
#TLE: 2 43010  98.9934 349.1096 0002357 104.0487 256.0951 14.19697152423579

#Time	Az	El	Level	Level2	SNR	BER	BlckErr	Temp	State	Recorded	gain1	gain2
2026-01-18 07:50:08.89	96.83	0.18	-84.7	-88.6	6.3	2.78e-01	0	45	0	0	60	1048570
2026-01-18 07:50:09.89	96.78	0.23	-84.7	-88.6	6.2	2.78e-01	0	46	0	0	60	1048569
2026-01-18 07:50:10.90	96.73	0.29	-84.7	-88.6	6.1	2.75e-01	0	46	0	0	60	1048574
2026-01-18 07:50:11.91	96.68	0.35	-85.2	-88.6	6.3	2.73e-01	0	46	0	0	60	1048572
2026-01-18 07:50:12.92	96.64	0.40	-84.7	-88.6	6.3	2.78e-01	0	46	0	0	60	1048574
2026-01-18 07:50:13.92	96.59	0.46	-85.2	-88.6	3.0	7.63e-01	0	46	104	0	60	1048575
2026-01-18 07:50:14.93	96.54	0.52	-85.2	-88.6	3.0	7.63e-01	0	46	104	0	60	1048573
2026-01-18 07:50:15.94	96.49	0.57	-85.2	-88.6	3.1	7.64e-01	0	46	104	0	60	1048574
2026-01-18 07:50:16.95	96.44	0.63	-85.2	-88.6	3.3	7.64e-01	0	46	104	0	60	1048574
2026-01-18 07:50:17.96	96.39	0.69	-84.7	-88.6	2.8	7.64e-01	0	46	104	0	60	1048573
2026-01-18 07:50:18.96	96.34	0.74	-85.2	-88.6	2.9	7.62e-01	0	46	104	0	60	1048574
2026-01-18 07:50:19.97	96.29	0.80	-85.2	-88.6	3.5	7.64e-01	0	46	104	0	60	1048575
2026-01-18 07:50:20.98	96.24	0.86	-85.2	-88.6	3.4	7.62e-01	0	46	104	0	60	1048575
2026-01-18 07:50:21.98	96.19	0.92	-85.2	-88.6	3.0	7.64e-01	0	46	104	0	60	1048575
2026-01-18 07:50:22.99	96.14	0.97	-85.2	-88.6	3.4	7.64e-01	0	46	104	0	60	1048574
2026-01-18 07:50:23.99	96.09	1.03	-84.7	-88.6	2.5	7.63e-01	0	46	104	0	60	1048575
2026-01-18 07:50:25.00	96.04	1.09	-84.7	-88.6	2.6	7.63e-01	0	46	104	0	60	1048575
2026-01-18 07:50:26.00	95.99	1.15	-85.2	-88.6	3.3	7.64e-01	0	46	104	0	60	1048565
2026-01-18 07:50:27.01	95.94	1.21	-84.7	-88.6	3.5	7.65e-01	0	46	104	0	60	1048574
2026-01-18 07:50:28.02	95.89	1.26	-85.2	-88.6	2.9	7.63e-01	0	46	104	0	60	1048574
2026-01-18 07:50:29.03	95.84	1.32	-84.7	-88.6	3.1	7.64e-01	0	46	104	0	60	1048575
2026-01-18 07:50:30.03	95.78	1.38	-85.2	-88.6	3.1	7.57e-01	0	46	104	0	60	1048565
2026-01-18 07:50:31.04	95.73	1.44	-84.7	-88.6	3.0	7.64e-01	0	46	104	0	60	1048571
2026-01-18 07:50:32.04	95.68	1.50	-85.2	-88.6	3.5	7.64e-01	0	46	104	0	60	1048573
2026-01-18 07:50:33.05	95.63	1.56	-85.2	-88.6	2.9	7.63e-01	0	46	104	0	60	1048574
2026-01-18 07:50:34.06	95.57	1.61	-85.2	-88.6	3.1	7.63e-01	0	46	104	0	60	1048574
2026-01-18 07:50:35.06	95.52	1.67	-85.2	-88.6	2.8	7.64e-01	0	46	104	0	60	1048567
2026-01-18 07:50:36.06	95.47	1.73	-85.2	-88.6	3.5	7.62e-01	0	46	104	0	60	1048575
2026-01-18 07:50:37.07	95.42	1.79	-85.2	-88.6	3.3	7.64e-01	0	46	104	0	60	1048573
2026-01-18 07:50:38.07	95.36	1.85	-84.7	-88.6	3.0	7.63e-01	0	46	104	0	60	1048573
2026-01-18 07:50:39.08	95.31	1.91	-85.2	-88.6	3.1	7.63e-01	0	46	104	0	60	1048573
2026-01-18 07:50:40.09	95.25	1.97	-85.2	-88.6	3.2	7.64e-01	0	46	104	0	60	1048571
2026-01-18 07:50:41.09	95.20	2.03	-85.2	-88.6	3.2	7.63e-01	0	46	104	0	60	1048571
2026-01-18 07:50:42.09	95.15	2.09	-82.8	-88.6	3.4	7.65e-01	0	46	104	0	60	1048574
2026-01-18 07:50:43.11	95.09	2.15	-85.2	-88.6	3.5	7.63e-01	0	46	104	0	60	1048574
2026-01-18 07:50:44.11	95.04	2.21	-85.2	-88.6	2.6	7.63e-01	0	46	104	0	60	1048575
2026-01-18 07:50:45.12	94.98	2.27	-85.2	-88.6	3.0	7.62e-01	0	46	104	0	60	1048569
2026-01-18 07:50:46.13	94.93	2.33	-84.7	-88.6	3.3	7.63e-01	0	46	104	0	60	1048573
2026-01-18 07:50:47.13	94.87	2.39	-85.2	-88.6	3.6	7.64e-01	0	46	104	0	60	1048575
2026-01-18 07:50:48.14	94.81	2.45	-85.2	-88.6	3.1	7.63e-01	0	46	104	0	60	1048575
2026-01-18 07:50:49.15	94.76	2.51	-85.2	-88.6	3.0	7.64e-01	0	46	104	0	60	1048575
2026-01-18 07:50:50.16	94.70	2.57	-85.2	-88.6	3.0	7.63e-01	0	46	104	0	60	1048574
2026-01-18 07:50:51.17	94.65	2.63	-84.3	-88.6	3.3	7.63e-01	0	46	104	0	60	1048574
2026-01-18 07:50:52.17	94.59	2.69	-84.7	-88.6	3.1	7.63e-01	0	46	104	0	60	1048573
2026-01-18 07:50:53.18	94.53	2.75	-84.7	-88.6	3.1	7.63e-01	0	46	104	0	60	1048573
2026-01-18 07:50:54.19	94.47	2.81	-85.2	-88.6	3.4	7.63e-01	0	46	104	0	60	1048574
2026-01-18 07:50:55.18	94.42	2.87	-85.2	-88.6	3.2	7.63e-01	0	46	104	0	60	1048575
2026-01-18 07:50:56.19	94.36	2.93	-82.8	-88.6	3.2	7.63e-01	0	46	104	0	60	1048564
2026-01-18 07:50:57.20	94.30	2.99	-85.2	-88.6	3.1	7.64e-01	0	46	104	0	60	1048575
2026-01-18 07:50:58.21	94.24	3.05	-85.2	-88.6	2.9	7.63e-01	0	46	104	0	60	1048575
2026-01-18 07:50:59.22	94.18	3.11	-85.2	-88.6	3.0	7.63e-01	0	46	104	0	60	1048574
2026-01-18 07:51:00.22	94.13	3.17	-85.2	-88.6	3.5	7.64e-01	0	46	104	0	60	1048575
2026-01-18 07:51:01.22	94.07	3.24	-84.7	-88.6	2.5	7.63e-01	0	46	104	0	60	1048575
2026-01-18 07:51:02.23	94.01	3.30	-85.2	-88.6	2.7	7.63e-01	0	46	104	0	60	1048574
2026-01-18 07:51:03.24	93.95	3.36	-84.7	-88.6	3.4	7.63e-01	0	46	104	0	60	1048570
2026-01-18 07:51:04.24	93.89	3.42	-85.2	-88.6	3.7	7.63e-01	0	46	104	0	60	1048572
2026-01-18 07:51:05.25	93.83	3.48	-84.7	-88.6	3.4	7.63e-01	0	46	104	0	60	1048568
2026-01-18 07:51:06.26	93.77	3.54	-84.7	-88.6	3.0	7.63e-01	0	47	104	0	60	1048575
2026-01-18 07:51:07.27	93.71	3.61	-84.7	-88.6	3.4	7.65e-01	0	46	104	0	60	1048569
2026-01-18 07:51:08.28	93.64	3.67	-85.2	-88.6	3.3	7.62e-01	0	46	104	0	60	1048575
2026-01-18 07:51:09.28	93.58	3.73	-84.7	-88.6	2.9	7.63e-01	0	46	104	0	60	1048575
2026-01-18 07:51:10.29	93.52	3.79	-85.2	-88.6	3.1	7.63e-01	0	46	104	0	60	1048575
2026-01-18 07:51:11.29	93.46	3.86	-84.7	-88.6	2.9	7.64e-01	0	46	104	0	60	1048573
2026-01-18 07:51:12.30	93.40	3.92	-85.2	-88.6	3.5	7.63e-01	0	47	104	0	60	1048567
2026-01-18 07:51:13.31	93.34	3.98	-85.2	-88.6	3.0	7.63e-01	0	47	104	0	60	1048573
2026-01-18 07:51:14.31	93.27	4.04	-85.2	-88.6	2.9	7.62e-01	0	47	104	0	60	1048575
2026-01-18 07:51:15.32	93.21	4.11	-85.2	-88.6	3.2	7.62e-01	0	47	104	0	60	1048570
2026-01-18 07:51:16.33	93.15	4.17	-85.2	-88.6	3.1	7.64e-01	0	47	104	0	60	1048571
2026-01-18 07:51:17.33	93.08	4.23	-85.2	-88.6	3.2	7.63e-01	0	46	104	0	60	1048575
2026-01-18 07:51:18.34	93.02	4.30	-85.2	-88.6	3.5	7.63e-01	0	46	104	0	60	1048575
2026-01-18 07:51:19.34	92.96	4.36	-85.2	-88.6	3.1	7.64e-01	0	46	104	0	60	1048575
2026-01-18 07:51:20.35	92.89	4.42	-84.7	-88.6	2.8	7.63e-01	0	47	104	0	60	1048574
2026-01-18 07:51:21.36	92.83	4.49	-85.2	-88.6	3.3	7.63e-01	0	47	104	0	60	1048575
2026-01-18 07:51:22.37	92.76	4.55	-85.2	-88.6	3.6	7.63e-01	0	46	104	0	60	1048567
2026-01-18 07:51:23.37	92.70	4.61	-85.2	-88.6	2.9	7.64e-01	0	46	104	0	60	1048574
2026-01-18 07:51:24.37	92.63	4.68	-85.2	-88.6	3.0	7.62e-01	0	47	104	0	60	1048575
2026-01-18 07:51:25.38	92.57	4.74	-85.2	-88.6	3.6	7.63e-01	0	47	104	0	60	1048571
2026-01-18 07:51:26.38	92.50	4.81	-85.2	-88.6	3.5	7.63e-01	0	46	104	0	60	1048572
2026-01-18 07:51:27.39	92.43	4.87	-85.2	-88.6	3.0	7.63e-01	0	46	104	0	60	1048574
2026-01-18 07:51:28.39	92.37	4.93	-85.2	-88.6	3.0	7.64e-01	0	47	104	0	60	1048575
2026-01-18 07:51:29.39	92.30	5.00	-85.2	-88.6	3.3	7.65e-01	0	46	104	0	60	1048571
2026-01-18 07:51:30.40	92.23	5.06	-85.2	-88.6	3.2	7.60e-01	0	46	104	0	60	1048574
2026-01-18 07:51:31.40	92.17	5.13	-85.2	-88.6	3.7	7.65e-01	0	46	104	0	60	1048572
2026-01-18 07:51:32.40	92.10	5.19	-85.2	-88.6	3.2	7.64e-01	0	47	104	0	60	1048574
2026-01-18 07:51:33.40	92.03	5.26	-85.2	-88.6	3.1	7.63e-01	0	47	104	0	60	1048572
2026-01-18 07:51:34.41	91.96	5.32	-85.2	-88.6	3.0	7.64e-01	0	47	104	0	60	1048570
2026-01-18 07:51:35.41	91.89	5.39	-85.2	-88.6	3.2	7.62e-01	0	47	104	0	60	1048575
2026-01-18 07:51:36.42	91.82	5.45	-85.2	-88.6	2.7	7.62e-01	0	47	104	0	60	1048574
2026-01-18 07:51:37.43	91.75	5.52	-85.2	-88.6	3.2	7.63e-01	0	47	104	0	60	1048573
2026-01-18 07:51:38.43	91.68	5.58	-84.7	-88.6	3.4	7.62e-01	0	47	104	0	60	1048575
2026-01-18 07:51:39.44	91.61	5.65	-84.7	-88.6	2.9	7.62e-01	0	47	104	0	60	1048569
2026-01-18 07:51:40.44	91.54	5.72	-84.7	-88.6	3.1	7.60e-01	0	47	104	0	60	1048570
2026-01-18 07:51:41.45	91.47	5.78	-85.2	-88.6	2.9	7.62e-01	0	47	104	0	60	1048569
2026-01-18 07:51:42.45	91.40	5.85	-85.2	-88.6	3.6	7.64e-01	0	47	104	0	60	1048574
2026-01-18 07:51:43.46	91.33	5.91	-85.2	-88.6	3.4	7.62e-01	0	47	104	0	60	1048573
2026-01-18 07:51:44.47	91.26	5.98	-84.7	-88.6	3.1	7.63e-01	0	47	104	0	60	1048571
2026-01-18 07:51:45.48	91.18	6.05	-84.7	-88.6	2.9	7.64e-01	0	47	104	0	60	1048574
2026-01-18 07:51:46.48	91.11	6.11	-85.2	-88.6	3.1	7.62e-01	0	47	104	0	60	1048575
2026-01-18 07:51:47.48	91.04	6.18	-85.2	-88.6	3.2	7.63e-01	0	47	104	0	60	1048572
2026-01-18 07:51:48.49	90.97	6.25	-85.2	-88.6	3.0	7.64e-01	0	47	104	0	60	1048570
2026-01-18 07:51:49.49	90.89	6.31	-85.2	-88.6	2.9	7.64e-01	0	47	104	0	60	1048571
2026-01-18 07:51:50.50	90.82	6.38	-85.2	-88.6	3.1	7.63e-01	0	47	104	0	60	1048573
2026-01-18 07:51:51.51	90.74	6.45	-85.2	-88.6	2.8	7.62e-01	0	47	104	0	60	1048572
2026-01-18 07:51:52.52	90.67	6.52	-85.2	-88.6	3.2	7.63e-01	0	47	104	0	60	1048567
2026-01-18 07:51:53.52	90.59	6.58	-85.2	-88.6	3.7	7.63e-01	0	47	104	0	60	1048575
2026-01-18 07:51:54.53	90.52	6.65	-85.2	-88.6	3.0	7.63e-01	0	47	104	0	60	1048575
2026-01-18 07:51:55.54	90.44	6.72	-85.2	-88.6	3.3	7.64e-01	0	47	104	0	60	1048575
2026-01-18 07:51:56.55	90.37	6.79	-85.2	-88.6	3.5	7.60e-01	0	47	104	0	60	1048574
2026-01-18 07:51:57.56	90.29	6.85	-85.2	-88.6	3.4	7.64e-01	0	47	104	0	60	1048575
2026-01-18 07:51:58.57	90.21	6.92	-85.2	-88.6	3.0	7.63e-01	0	47	104	0	60	1048572
2026-01-18 07:51:59.57	90.14	6.99	-84.7	-88.6	3.0	7.64e-01	0	47	104	0	60	1048574
2026-01-18 07:52:00.58	90.06	7.06	-85.2	-88.6	3.3	7.62e-01	0	47	104	0	60	1048575
2026-01-18 07:52:01.58	89.98	7.13	-85.2	-88.6	3.1	7.64e-01	0	47	104	0	60	1048572
2026-01-18 07:52:02.59	89.90	7.20	-85.2	-88.6	3.2	7.61e-01	0	47	104	0	60	1048575
2026-01-18 07:52:03.59	89.82	7.27	-84.7	-88.6	3.7	7.64e-01	0	47	104	0	60	1048574
2026-01-18 07:52:04.60	89.74	7.33	-85.2	-88.6	3.6	7.63e-01	0	47	104	0	60	1048574
2026-01-18 07:52:05.60	89.66	7.40	-85.2	-88.6	3.0	7.63e-01	0	47	104	0	60	1048570
2026-01-18 07:52:06.61	89.58	7.47	-85.2	-88.6	3.2	7.63e-01	0	47	104	0	60	1048575
2026-01-18 07:52:07.62	89.50	7.54	-85.2	-88.6	3.4	7.63e-01	0	47	104	0	60	1048575
2026-01-18 07:52:08.63	89.42	7.61	-85.2	-88.6	2.9	7.63e-01	0	47	104	0	60	1048570
2026-01-18 07:52:09.64	89.34	7.68	-85.2	-88.6	3.5	7.64e-01	0	47	104	0	60	1048572
2026-01-18 07:52:10.65	89.26	7.75	-85.2	-88.6	3.5	7.65e-01	0	47	104	0	60	1048573
2026-01-18 07:52:11.65	89.18	7.82	-85.2	-88.6	3.1	7.63e-01	0	47	104	0	60	1048575
2026-01-18 07:52:12.66	89.09	7.89	-85.2	-88.6	2.9	7.62e-01	0	47	104	0	60	1048574
2026-01-18 07:52:13.67	89.01	7.96	-85.2	-88.6	3.3	7.64e-01	0	47	104	0	60	1048574
2026-01-18 07:52:14.67	88.93	8.03	-85.2	-88.6	2.7	7.63e-01	0	47	104	0	60	1048573
2026-01-18 07:52:15.68	88.84	8.10	-85.2	-88.6	3.0	7.63e-01	0	47	104	0	60	1048573
2026-01-18 07:52:16.68	88.76	8.17	-85.2	-88.6	3.1	7.63e-01	0	47	104	0	60	1048573
2026-01-18 07:52:17.69	88.68	8.24	-84.7	-88.6	3.1	7.61e-01	0	47	104	0	60	1048575
2026-01-18 07:52:18.70	88.59	8.31	-84.7	-88.6	3.2	7.63e-01	0	47	104	0	60	1048575
2026-01-18 07:52:19.70	88.51	8.39	-85.2	-88.6	2.9	7.61e-01	0	47	104	0	60	1048572
2026-01-18 07:52:20.71	88.42	8.46	-84.7	-88.6	3.4	7.63e-01	0	47	104	0	60	1048572
2026-01-18 07:52:21.72	88.33	8.53	-85.2	-88.6	2.9	7.62e-01	0	47	104	0	60	1048574
2026-01-18 07:52:22.72	88.25	8.60	-85.2	-88.6	3.5	7.63e-01	0	47	104	0	60	1048572
2026-01-18 07:52:23.73	88.16	8.67	-85.2	-88.6	3.8	7.62e-01	0	47	104	0	60	1048572
2026-01-18 07:52:24.74	88.07	8.74	-84.7	-88.6	3.3	7.63e-01	0	47	104	0	60	1048569
2026-01-18 07:52:25.75	87.98	8.81	-85.2	-88.6	3.0	7.64e-01	0	47	104	0	60	1048573
2026-01-18 07:52:26.76	87.89	8.89	-85.2	-88.6	2.8	7.63e-01	0	47	104	0	60	1048574
2026-01-18 07:52:27.77	87.81	8.96	-84.7	-88.6	3.7	7.62e-01	0	47	104	0	60	1048572
2026-01-18 07:52:28.77	87.72	9.03	-85.2	-88.6	3.3	7.64e-01	0	47	104	0	60	1048575
2026-01-18 07:52:29.78	87.63	9.10	-85.2	-88.6	3.0	7.63e-01	0	47	104	0	60	1048571
2026-01-18 07:52:30.79	87.54	9.18	-85.2	-88.6	3.0	7.64e-01	0	47	104	0	60	1048575
2026-01-18 07:52:31.79	87.45	9.25	-85.2	-88.6	3.3	7.64e-01	0	47	104	0	60	1048572
2026-01-18 07:52:32.80	87.35	9.32	-84.7	-88.6	3.4	7.63e-01	0	47	104	0	60	1048546
2026-01-18 07:52:33.81	87.26	9.40	-85.2	-88.6	3.3	7.63e-01	0	47	104	0	60	1048572
2026-01-18 07:52:34.81	87.17	9.47	-85.2	-88.6	3.0	7.62e-01	0	47	104	0	60	1048575
2026-01-18 07:52:35.82	87.08	9.54	-85.2	-88.6	3.1	7.62e-01	0	47	104	0	60	1048575
2026-01-18 07:52:36.82	86.98	9.61	-84.7	-88.6	3.3	7.63e-01	0	47	104	0	60	1048572
2026-01-18 07:52:37.83	86.89	9.69	-84.7	-88.6	3.4	7.63e-01	0	47	104	0	60	1048570
2026-01-18 07:52:38.84	86.80	9.76	-85.2	-88.6	3.6	7.63e-01	0	47	104	0	60	1048574
2026-01-18 07:52:39.85	86.70	9.84	-85.2	-88.6	2.9	7.63e-01	0	47	104	0	60	1048574
2026-01-18 07:52:40.86	86.61	9.91	-85.2	-88.6	3.0	7.64e-01	0	47	104	0	60	1048570
2026-01-18 07:52:41.87	86.51	9.98	-84.7	-88.6	3.0	7.63e-01	0	47	104	0	60	1048575
2026-01-18 07:52:42.87	86.41	10.06	-85.2	-88.6	2.8	7.63e-01	0	47	104	0	60	1048571
2026-01-18 07:52:43.88	86.32	10.13	-85.2	-88.6	3.0	7.64e-01	0	47	104	0	60	1048570
2026-01-18 07:52:44.89	86.22	10.21	-85.2	-88.6	3.5	7.62e-01	0	47	104	0	60	1048575
2026-01-18 07:52:45.89	86.12	10.28	-85.2	-88.6	3.3	7.64e-01	0	47	104	0	60	1048573
2026-01-18 07:52:46.90	86.02	10.36	-85.2	-88.6	3.6	7.61e-01	0	47	104	0	60	1048573
2026-01-18 07:52:47.91	85.93	10.43	-85.2	-88.6	3.6	7.61e-01	0	47	104	0	60	1048575
2026-01-18 07:52:48.92	85.83	10.51	-85.2	-88.6	3.2	7.61e-01	0	47	104	0	60	1048573
2026-01-18 07:52:49.92	85.73	10.58	-85.2	-88.6	2.8	7.62e-01	0	47	104	0	60	1048575
2026-01-18 07:52:50.93	85.63	10.66	-85.2	-88.6	3.3	7.63e-01	0	47	104	0	60	1048571
2026-01-18 07:52:51.93	85.53	10.73	-85.2	-88.6	3.5	7.62e-01	0	47	104	0	60	1048575
2026-01-18 07:52:52.93	85.43	10.81	-84.7	-88.6	3.5	7.62e-01	0	47	104	0	60	1048575
2026-01-18 07:52:53.94	85.32	10.88	-85.2	-88.6	3.2	7.63e-01	0	47	104	0	60	1048575
2026-01-18 07:52:54.94	85.22	10.96	-85.2	-88.6	2.9	7.62e-01	0	47	104	0	60	1048566
2026-01-18 07:52:55.95	85.12	11.04	-85.2	-88.6	3.2	7.62e-01	0	47	104	0	60	1048572
2026-01-18 07:52:56.95	85.02	11.11	-85.2	-88.6	3.1	7.64e-01	0	47	104	0	60	1048573
2026-01-18 07:52:57.96	84.91	11.19	-85.2	-88.6	3.1	7.65e-01	0	47	104	0	60	1048570
2026-01-18 07:52:58.97	84.81	11.27	-85.2	-88.6	3.0	7.63e-01	0	47	104	0	60	1048574
2026-01-18 07:52:59.97	84.70	11.34	-85.2	-88.6	2.8	7.62e-01	0	47	104	0	60	1048575
2026-01-18 07:53:00.97	84.60	11.42	-85.2	-88.6	2.9	7.64e-01	0	47	104	0	60	1048570
2026-01-18 07:53:01.97	84.49	11.49	-85.2	-88.6	3.6	7.62e-01	0	47	104	0	60	1048572
2026-01-18 07:53:02.98	84.38	11.57	-85.2	-88.6	3.7	7.63e-01	0	47	104	0	60	1048567
2026-01-18 07:53:03.98	84.28	11.65	-84.7	-88.6	2.6	7.62e-01	0	47	104	0	60	1048575
2026-01-18 07:53:04.99	84.17	11.73	-84.7	-88.6	3.1	7.63e-01	0	47	104	0	60	1048568
2026-01-18 07:53:05.99	84.06	11.80	-84.7	-88.6	3.1	7.63e-01	0	47	104	0	60	1048575
2026-01-18 07:53:06.99	83.95	11.88	-84.7	-88.6	3.2	7.63e-01	0	47	104	0	60	1048575
2026-01-18 07:53:08.00	83.84	11.96	-85.2	-88.6	3.6	7.64e-01	0	47	104	0	60	1048572
2026-01-18 07:53:09.00	83.73	12.04	-85.2	-88.6	3.4	7.63e-01	0	47	104	0	60	1048573
2026-01-18 07:53:10.01	83.62	12.11	-84.7	-88.6	3.3	7.63e-01	0	47	104	0	60	1048575
2026-01-18 07:53:11.02	83.51	12.19	-85.2	-88.6	2.9	7.62e-01	0	47	104	0	60	1048575
2026-01-18 07:53:12.03	83.40	12.27	-85.2	-88.6	3.3	7.62e-01	0	47	104	0	60	1048575
2026-01-18 07:53:13.04	83.28	12.35	-85.2	-88.6	3.1	7.64e-01	0	47	104	0	60	1048572
2026-01-18 07:53:14.05	83.17	12.43	-85.2	-88.6	2.8	7.66e-01	0	47	104	0	60	1048572
2026-01-18 07:53:15.05	83.06	12.51	-85.2	-88.6	3.0	7.64e-01	0	47	104	0	60	1048571
2026-01-18 07:53:16.06	82.94	12.59	-85.2	-88.6	3.1	7.63e-01	0	47	104	0	60	1048575
2026-01-18 07:53:17.07	82.82	12.67	-85.2	-88.6	3.3	7.63e-01	0	47	104	0	60	1048573
2026-01-18 07:53:18.08	82.71	12.75	-84.7	-88.6	3.0	7.63e-01	0	47	104	0	60	1048575
2026-01-18 07:53:19.08	82.59	12.82	-85.2	-88.6	3.0	7.63e-01	0	47	104	0	60	1048573
2026-01-18 07:53:20.09	82.47	12.90	-85.2	-88.6	3.1	7.63e-01	0	47	104	0	60	1048575
2026-01-18 07:53:21.10	82.36	12.98	-85.2	-88.6	3.3	7.63e-01	0	47	104	0	60	1048575
2026-01-18 07:53:22.10	82.24	13.06	-85.2	-88.6	3.6	7.62e-01	0	47	104	0	60	1048569
2026-01-18 07:53:23.11	82.12	13.14	-84.7	-88.6	3.6	7.64e-01	0	47	104	0	60	1048575
2026-01-18 07:53:24.11	82.00	13.22	-85.2	-88.6	2.7	7.63e-01	0	47	104	0	60	1048574
2026-01-18 07:53:25.12	81.88	13.30	-85.2	-88.6	3.0	7.63e-01	0	47	104	0	60	1048570
2026-01-18 07:53:26.12	81.76	13.38	-85.2	-88.6	3.2	7.63e-01	0	47	104	0	60	1048573
2026-01-18 07:53:27.12	81.64	13.46	-85.2	-88.6	3.3	7.64e-01	0	47	104	0	60	1048570
2026-01-18 07:53:28.13	81.51	13.54	-85.2	-88.6	3.2	7.64e-01	0	47	104	0	60	1048575
2026-01-18 07:53:29.13	81.39	13.62	-84.7	-88.6	3.4	7.63e-01	0	47	104	0	60	1048574
2026-01-18 07:53:30.14	81.27	13.71	-85.2	-88.6	3.1	7.64e-01	0	47	104	0	60	1048565
2026-01-18 07:53:31.15	81.14	13.79	-85.2	-88.6	3.1	7.63e-01	0	47	104	0	60	1048572
2026-01-18 07:53:32.15	81.02	13.87	-85.2	-88.6	3.1	7.63e-01	0	47	104	0	60	1048573
2026-01-18 07:53:33.16	80.89	13.95	-85.2	-88.6	2.8	7.63e-01	0	47	104	0	60	1048569
2026-01-18 07:53:34.17	80.76	14.03	-84.7	-88.6	3.4	7.63e-01	0	47	104	0	60	1048567
2026-01-18 07:53:35.18	80.64	14.11	-85.2	-88.6	3.2	7.62e-01	0	47	104	0	60	1048575
2026-01-18 07:53:36.18	80.51	14.19	-85.2	-88.6	3.0	7.62e-01	0	47	104	0	60	1048573
2026-01-18 07:53:37.19	80.38	14.28	-85.2	-88.6	3.4	7.63e-01	0	47	104	0	60	1048575
2026-01-18 07:53:38.20	80.25	14.36	-85.2	-88.6	3.4	7.63e-01	0	47	104	0	60	1048572
2026-01-18 07:53:39.21	80.12	14.44	-85.2	-88.6	3.5	7.63e-01	0	47	104	0	60	1048572
2026-01-18 07:53:40.21	79.99	14.52	-85.2	-88.6	3.3	7.65e-01	0	47	104	0	60	1048572
2026-01-18 07:53:41.22	79.85	14.60	-85.2	-88.6	3.4	7.61e-01	0	47	104	0	60	1048571
2026-01-18 07:53:42.23	79.72	14.69	-85.2	-88.6	3.0	7.63e-01	0	47	104	0	60	1048571
2026-01-18 07:53:43.24	79.59	14.77	-84.7	-88.6	3.2	7.62e-01	0	47	104	0	60	1048575
2026-01-18 07:53:44.24	79.45	14.85	-85.2	-88.6	3.3	7.63e-01	0	47	104	0	60	1048571
2026-01-18 07:53:45.25	79.32	14.94	-85.2	-88.6	3.1	7.64e-01	0	47	104	0	60	1048575
2026-01-18 07:53:46.26	79.18	15.02	-85.2	-88.6	3.1	7.63e-01	0	47	104	0	60	1048574
2026-01-18 07:53:47.27	79.05	15.10	-85.2	-88.6	3.6	7.63e-01	0	47	104	0	60	1048575
2026-01-18 07:53:48.28	78.91	15.19	-84.7	-88.6	3.6	7.63e-01	0	47	104	0	60	1048575
2026-01-18 07:53:49.29	78.77	15.27	-85.2	-88.6	2.9	7.61e-01	0	47	104	0	60	1048574
2026-01-18 07:53:50.29	78.63	15.35	-85.2	-88.6	2.9	7.62e-01	0	47	104	0	60	1048574
2026-01-18 07:53:51.30	78.49	15.44	-85.2	-88.6	3.5	7.65e-01	0	47	104	0	60	1048573
2026-01-18 07:53:52.31	78.35	15.52	-85.2	-88.6	2.8	7.62e-01	0	47	104	0	60	1048571
2026-01-18 07:53:53.32	78.21	15.60	-84.7	-88.6	3.6	7.62e-01	0	47	104	0	60	1048573
2026-01-18 07:53:54.32	78.07	15.69	-85.2	-88.6	2.9	7.64e-01	0	47	104	0	60	1048575
2026-01-18 07:53:55.33	77.92	15.77	-85.2	-88.6	2.9	7.63e-01	0	47	104	0	60	1048575
2026-01-18 07:53:56.34	77.78	15.85	-85.2	-88.6	2.9	7.62e-01	0	47	104	0	60	1048575
2026-01-18 07:53:57.34	77.64	15.94	-85.2	-88.6	3.6	7.62e-01	0	47	104	0	60	1048572
2026-01-18 07:53:58.35	77.49	16.02	-85.2	-88.6	3.6	7.64e-01	0	47	104	0	60	1048575
2026-01-18 07:53:59.36	77.34	16.11	-85.2	-88.6	3.1	7.63e-01	0	47	104	0	60	1048573
2026-01-18 07:54:00.36	77.20	16.19	-85.2	-88.6	3.3	7.63e-01	0	47	104	0	60	1048569
2026-01-18 07:54:01.37	77.05	16.28	-85.2	-88.6	3.3	7.64e-01	0	47	104	0	60	1048574
2026-01-18 07:54:02.37	76.90	16.36	-85.2	-88.6	3.5	7.63e-01	0	47	104	0	60	1048570
2026-01-18 07:54:03.37	76.75	16.44	-85.2	-88.6	3.0	7.63e-01	0	47	104	0	60	1048575
2026-01-18 07:54:04.38	76.60	16.53	-85.2	-88.6	2.7	7.62e-01	0	47	104	0	60	1048572
2026-01-18 07:54:05.39	76.45	16.61	-85.2	-88.6	3.1	7.62e-01	0	47	104	0	60	1048574
2026-01-18 07:54:06.39	76.30	16.70	-85.2	-88.6	2.9	7.62e-01	0	47	104	0	60	1048575
2026-01-18 07:54:07.40	76.15	16.78	-84.7	-88.6	3.1	7.63e-01	0	47	104	0	60	1048575
2026-01-18 07:54:08.40	75.99	16.87	-85.2	-88.6	3.5	7.63e-01	0	47	104	0	60	1048569
2026-01-18 07:54:09.41	75.84	16.95	-85.2	-88.6	3.1	7.62e-01	0	47	104	0	60	1048574
2026-01-18 07:54:10.42	75.68	17.04	-85.2	-88.6	3.0	7.63e-01	0	47	104	0	60	1048574
2026-01-18 07:54:11.42	75.53	17.13	-85.2	-88.6	3.3	7.63e-01	0	47	104	0	60	1048575
2026-01-18 07:54:12.43	75.37	17.21	-85.2	-88.6	2.9	7.60e-01	0	47	104	0	60	1048571
2026-01-18 07:54:13.44	75.21	17.30	-85.2	-88.6	2.9	7.63e-01	0	47	104	0	60	1048575
2026-01-18 07:54:14.43	75.05	17.38	-85.2	-88.6	3.3	7.63e-01	0	47	104	0	60	1048566
2026-01-18 07:54:15.44	74.89	17.47	-85.2	-88.6	3.3	7.62e-01	0	47	104	0	60	1048575
2026-01-18 07:54:16.45	74.73	17.55	-85.2	-88.6	3.3	7.63e-01	0	47	104	0	60	1048567
2026-01-18 07:54:17.45	74.57	17.64	-85.2	-88.6	3.1	7.64e-01	0	47	104	0	60	1048572
2026-01-18 07:54:18.46	74.41	17.72	-85.2	-88.6	3.4	7.63e-01	0	47	104	0	60	1048573
2026-01-18 07:54:19.47	74.24	17.81	-85.2	-88.6	3.6	7.61e-01	0	47	104	0	60	1048572
2026-01-18 07:54:20.48	74.08	17.90	-85.2	-88.6	3.1	7.63e-01	0	47	104	0	60	1048575
2026-01-18 07:54:21.49	73.91	17.98	-85.2	-88.6	3.1	7.64e-01	0	47	104	0	60	1048573
2026-01-18 07:54:22.49	73.74	18.07	-85.2	-88.6	2.9	7.64e-01	0	47	104	0	60	1048573
2026-01-18 07:54:23.50	73.58	18.16	-85.2	-88.6	3.2	7.63e-01	0	47	104	0	60	1048575
2026-01-18 07:54:24.51	73.41	18.24	-85.2	-88.6	2.8	7.64e-01	0	47	104	0	60	1048574
2026-01-18 07:54:25.52	73.24	18.33	-85.2	-88.6	3.5	7.63e-01	0	47	104	0	60	1048574
2026-01-18 07:54:26.52	73.07	18.41	-84.7	-88.6	3.1	7.62e-01	0	47	104	0	60	1048572
2026-01-18 07:54:27.53	72.89	18.50	-85.2	-88.6	3.1	7.63e-01	0	47	104	0	60	1048571
2026-01-18 07:54:28.54	72.72	18.59	-85.2	-88.6	3.6	7.63e-01	0	47	104	0	60	1048574
2026-01-18 07:54:29.54	72.55	18.67	-85.2	-88.6	3.6	7.62e-01	0	47	104	0	60	1048574
2026-01-18 07:54:30.55	72.37	18.76	-85.2	-88.6	3.1	7.63e-01	0	47	104	0	60	1048575
2026-01-18 07:54:31.55	72.20	18.85	-85.2	-88.6	3.1	7.63e-01	0	47	104	0	60	1048572
2026-01-18 07:54:32.56	72.02	18.93	-85.2	-88.6	3.7	7.61e-01	0	47	104	0	60	1048575
2026-01-18 07:54:33.56	71.84	19.02	-85.2	-88.6	3.4	7.63e-01	0	47	104	0	60	1048575
2026-01-18 07:54:34.57	71.67	19.10	-85.2	-88.6	3.0	7.61e-01	0	47	104	0	60	1048573
2026-01-18 07:54:35.57	71.49	19.19	-84.7	-88.6	3.0	7.63e-01	0	47	104	0	60	1048572
2026-01-18 07:54:36.58	71.31	19.28	-85.2	-88.6	3.1	7.62e-01	0	47	104	0	60	1048573
2026-01-18 07:54:37.59	71.12	19.36	-85.2	-88.6	3.7	7.64e-01	0	47	104	0	60	1048569
2026-01-18 07:54:38.59	70.94	19.45	-85.2	-88.6	3.0	7.62e-01	0	47	104	0	60	1048572
2026-01-18 07:54:39.60	70.76	19.54	-85.2	-88.6	3.5	7.62e-01	0	47	104	0	60	1048564
2026-01-18 07:54:40.61	70.57	19.62	-84.7	-88.6	3.0	7.62e-01	0	47	104	0	60	1048575
2026-01-18 07:54:41.62	70.38	19.71	-85.2	-88.6	3.2	7.62e-01	0	47	104	0	60	1048574
2026-01-18 07:54:42.63	70.20	19.80	-85.2	-88.6	3.0	7.62e-01	0	47	104	0	60	1048574
2026-01-18 07:54:43.63	70.01	19.88	-85.2	-88.6	3.2	7.64e-01	0	47	104	0	60	1048574
2026-01-18 07:54:44.64	69.82	19.97	-84.7	-88.6	3.0	7.63e-01	0	47	104	0	60	1048575
2026-01-18 07:54:45.64	69.63	20.05	-84.7	-88.6	3.0	7.63e-01	0	47	104	0	60	1048572
2026-01-18 07:54:46.65	69.44	20.14	-85.2	-88.6	3.5	7.63e-01	0	47	104	0	60	1048573
2026-01-18 07:54:47.66	69.25	20.23	-85.2	-88.6	2.9	7.63e-01	0	47	104	0	60	1048575
2026-01-18 07:54:48.67	69.05	20.31	-85.2	-88.6	3.0	7.64e-01	0	47	104	0	60	1048575
2026-01-18 07:54:49.68	68.86	20.40	-85.2	-88.6	2.9	7.61e-01	0	47	104	0	60	1048575
2026-01-18 07:54:50.68	68.66	20.49	-85.2	-88.6	3.1	7.62e-01	0	47	104	0	60	1048574
2026-01-18 07:54:51.69	68.46	20.57	-85.2	-88.6	3.3	7.62e-01	0	47	104	0	60	1048575
2026-01-18 07:54:52.70	68.26	20.66	-85.2	-88.6	3.3	7.62e-01	0	47	104	0	60	1048574
2026-01-18 07:54:53.71	68.06	20.74	-85.2	-88.6	3.3	7.62e-01	0	47	104	0	60	1048574
2026-01-18 07:54:54.72	67.86	20.83	-84.7	-88.6	3.0	7.64e-01	0	47	104	0	60	1048570
2026-01-18 07:54:55.73	67.66	20.92	-85.2	-88.6	3.1	7.63e-01	0	47	104	0	60	1048572
2026-01-18 07:54:56.73	67.46	21.00	-85.2	-88.6	3.5	7.63e-01	0	47	104	0	60	1048572
2026-01-18 07:54:57.74	67.26	21.09	-85.2	-88.6	3.2	7.63e-01	0	47	104	0	60	1048572
2026-01-18 07:54:58.75	67.05	21.17	-85.2	-88.6	2.9	7.63e-01	0	47	104	0	60	1048574
2026-01-18 07:54:59.76	66.84	21.26	-84.7	-88.6	3.1	7.63e-01	0	47	104	0	60	1048575
2026-01-18 07:55:00.76	66.64	21.34	-85.2	-88.6	3.1	7.62e-01	0	47	104	0	60	1048572
2026-01-18 07:55:01.77	66.43	21.43	-85.2	-88.6	3.3	7.63e-01	0	47	104	0	60	1048573
2026-01-18 07:55:02.77	66.22	21.51	-85.2	-88.6	3.0	7.63e-01	0	47	104	0	60	1048572
2026-01-18 07:55:03.77	66.01	21.60	-85.2	-88.6	3.7	7.63e-01	0	47	104	0	60	1048574
2026-01-18 07:55:04.78	65.80	21.68	-85.2	-88.6	3.0	7.53e-01	0	47	104	0	60	1048575
2026-01-18 07:55:05.78	65.59	21.77	-85.2	-88.6	2.8	7.62e-01	0	47	104	0	60	1048574
2026-01-18 07:55:06.79	65.37	21.85	-85.2	-88.6	3.0	7.63e-01	0	47	104	0	60	1048575
2026-01-18 07:55:07.79	65.16	21.93	-84.7	-88.6	3.5	7.63e-01	0	47	104	0	60	1048575
2026-01-18 07:55:08.80	64.94	22.02	-85.2	-88.6	3.4	7.63e-01	0	47	104	0	60	1048572
2026-01-18 07:55:09.81	64.72	22.10	-84.7	-88.6	3.2	7.64e-01	0	47	104	0	60	1048575
2026-01-18 07:55:10.82	64.50	22.19	-85.2	-88.6	3.4	7.63e-01	0	47	104	0	60	1048574
2026-01-18 07:55:11.82	64.28	22.27	-85.2	-88.6	3.1	7.64e-01	0	47	104	0	60	1048574
2026-01-18 07:55:12.83	64.06	22.35	-85.2	-88.6	2.8	7.63e-01	0	47	104	0	60	1048573
2026-01-18 07:55:13.84	63.84	22.44	-85.2	-88.6	3.4	7.62e-01	0	47	104	0	60	1048573
2026-01-18 07:55:14.85	63.61	22.52	-85.2	-88.6	3.1	7.64e-01	0	47	104	0	60	1048575
2026-01-18 07:55:15.85	63.39	22.60	-85.2	-88.6	3.1	7.63e-01	0	47	104	0	60	1048574
2026-01-18 07:55:16.86	63.16	22.69	-85.2	-88.6	3.0	7.63e-01	0	47	104	0	60	1048574
2026-01-18 07:55:17.87	62.94	22.77	-84.3	-88.6	3.1	7.62e-01	0	47	104	0	60	1048575
2026-01-18 07:55:18.88	62.71	22.85	-85.2	-88.6	3.6	7.63e-01	0	47	104	0	60	1048575
2026-01-18 07:55:19.89	62.48	22.93	-85.2	-88.6	3.2	7.63e-01	0	47	104	0	60	1048574
2026-01-18 07:55:20.89	62.25	23.01	-85.2	-88.6	3.0	7.65e-01	0	47	104	0	60	1048573
2026-01-18 07:55:21.90	62.01	23.10	-85.2	-88.6	2.9	7.65e-01	0	47	104	0	60	1048575
2026-01-18 07:55:22.90	61.78	23.18	-85.2	-88.6	3.4	7.61e-01	0	47	104	0	60	1048575
2026-01-18 07:55:23.91	61.55	23.26	-84.7	-88.6	3.2	7.64e-01	0	47	104	0	60	1048575
2026-01-18 07:55:24.91	61.31	23.34	-85.2	-88.6	2.9	7.64e-01	0	47	104	0	60	1048575
2026-01-18 07:55:25.92	61.07	23.42	-85.2	-88.6	3.2	7.63e-01	0	47	104	0	60	1048572
2026-01-18 07:55:26.93	60.84	23.50	-85.2	-88.6	3.1	7.62e-01	0	47	104	0	60	1048575
2026-01-18 07:55:27.94	60.59	23.58	-85.2	-88.6	3.2	7.62e-01	0	47	104	0	60	1048574
2026-01-18 07:55:28.94	60.36	23.66	-84.7	-88.6	3.7	7.64e-01	0	47	104	0	60	1048574
2026-01-18 07:55:29.95	60.11	23.74	-85.2	-88.6	2.9	7.63e-01	0	47	104	0	60	1048575
2026-01-18 07:55:30.96	59.87	23.82	-85.2	-88.6	2.9	7.62e-01	0	47	104	0	60	1048570
2026-01-18 07:55:31.97	59.62	23.89	-85.2	-88.6	3.2	7.63e-01	0	47	104	0	60	1048574
2026-01-18 07:55:32.98	59.38	23.97	-84.7	-88.6	3.0	7.64e-01	0	47	104	0	60	1048574
2026-01-18 07:55:33.99	59.13	24.05	-84.7	-88.6	3.0	7.64e-01	0	47	104	0	60	1048573
2026-01-18 07:55:34.99	58.88	24.13	-85.2	-88.6	3.3	7.63e-01	0	47	104	0	60	1048574
2026-01-18 07:55:36.00	58.63	24.21	-85.2	-88.6	3.3	7.63e-01	0	47	104	0	60	1048572
2026-01-18 07:55:37.00	58.38	24.28	-85.2	-88.6	3.0	7.63e-01	0	47	104	0	60	1048573
2026-01-18 07:55:38.01	58.13	24.36	-84.3	-88.6	3.4	7.63e-01	0	47	104	0	60	1048575
2026-01-18 07:55:39.01	57.88	24.43	-85.2	-88.6	3.1	7.63e-01	0	47	104	0	60	1048565
2026-01-18 07:55:40.02	57.62	24.51	-85.2	-88.6	3.0	7.63e-01	0	47	104	0	60	1048568
2026-01-18 07:55:41.02	57.37	24.58	-85.2	-88.6	3.1	7.62e-01	0	47	104	0	60	1048570
2026-01-18 07:55:42.03	57.11	24.66	-85.2	-88.6	3.2	7.62e-01	0	47	104	0	60	1048571
2026-01-18 07:55:43.04	56.85	24.73	-85.2	-88.6	3.3	7.63e-01	0	47	104	0	60	1048568
2026-01-18 07:55:44.05	56.59	24.81	-85.2	-88.6	3.1	7.62e-01	0	47	104	0	60	1048574
2026-01-18 07:55:45.05	56.33	24.88	-85.2	-88.6	3.6	7.65e-01	0	47	104	0	60	1048574
2026-01-18 07:55:46.06	56.07	24.95	-85.2	-88.6	3.1	7.63e-01	0	47	104	0	60	1048564
2026-01-18 07:55:47.07	55.81	25.03	-85.2	-88.6	3.0	7.64e-01	0	47	104	0	60	1048572
2026-01-18 07:55:48.08	55.54	25.10	-85.2	-88.6	3.7	7.63e-01	0	47	104	0	60	1048575
2026-01-18 07:55:49.08	55.28	25.17	-85.2	-88.6	3.6	7.63e-01	0	47	104	0	60	1048574
2026-01-18 07:55:50.09	55.01	25.24	-85.2	-88.6	2.8	7.64e-01	0	47	104	0	60	1048574
2026-01-18 07:55:51.10	54.74	25.31	-85.2	-88.6	3.0	7.64e-01	0	47	104	0	60	1048574
2026-01-18 07:55:52.11	54.47	25.38	-85.2	-88.6	3.0	7.63e-01	0	47	104	0	60	1048574
2026-01-18 07:55:53.12	54.20	25.45	-85.2	-88.6	3.0	7.64e-01	0	47	104	0	60	1048575
2026-01-18 07:55:54.12	53.93	25.52	-85.2	-88.6	3.0	7.63e-01	0	47	104	0	60	1048569
2026-01-18 07:55:55.13	53.66	25.59	-85.2	-88.6	2.9	7.63e-01	0	47	104	0	60	1048572
2026-01-18 07:55:56.14	53.38	25.66	-84.7	-88.6	3.0	7.58e-01	0	47	104	0	60	1048575
2026-01-18 07:55:57.14	53.11	25.73	-85.2	-88.6	3.2	7.64e-01	0	47	104	0	60	1048573
2026-01-18 07:55:58.15	52.83	25.79	-85.2	-88.6	3.7	7.63e-01	0	47	104	0	60	1048567
2026-01-18 07:55:59.16	52.55	25.86	-85.2	-88.6	3.4	7.64e-01	0	47	104	0	60	1048571
2026-01-18 07:56:00.16	52.28	25.92	-85.2	-88.6	3.0	7.63e-01	0	47	104	0	60	1048574
2026-01-18 07:56:01.17	52.00	25.99	-84.7	-88.6	3.1	7.63e-01	0	47	104	0	60	1048571
2026-01-18 07:56:02.18	51.72	26.06	-85.2	-88.6	3.1	7.62e-01	0	47	104	0	60	1048575
2026-01-18 07:56:03.18	51.44	26.12	-85.2	-88.6	3.2	7.62e-01	0	47	104	0	60	1048575
2026-01-18 07:56:04.19	51.15	26.18	-85.2	-88.6	3.0	7.61e-01	0	47	104	0	60	1048565
2026-01-18 07:56:05.20	50.87	26.25	-85.2	-88.6	3.1	7.63e-01	0	47	104	0	60	1048574
2026-01-18 07:56:06.21	50.58	26.31	-84.7	-88.6	3.1	7.64e-01	0	47	104	0	60	1048574
2026-01-18 07:56:07.22	50.29	26.37	-84.7	-88.6	2.9	7.62e-01	0	47	104	0	60	1048574
2026-01-18 07:56:08.22	50.01	26.43	-85.2	-88.6	3.3	7.63e-01	0	47	104	0	60	1048575
2026-01-18 07:56:09.23	49.72	26.49	-85.2	-88.6	3.3	7.63e-01	0	47	104	0	60	1048575
2026-01-18 07:56:10.23	49.43	26.55	-85.2	-88.6	3.0	7.63e-01	0	47	104	0	60	1048571
2026-01-18 07:56:11.23	49.14	26.61	-85.2	-88.6	3.0	7.63e-01	0	47	104	0	60	1048575
2026-01-18 07:56:12.24	48.85	26.67	-85.2	-88.6	3.6	7.63e-01	0	47	104	0	60	1048571
2026-01-18 07:56:13.25	48.55	26.72	-85.2	-88.6	3.7	7.64e-01	0	47	104	0	60	1048572
2026-01-18 07:56:14.26	48.26	26.78	-85.2	-88.6	3.1	7.63e-01	0	47	104	0	60	1048574
2026-01-18 07:56:15.26	47.97	26.84	-85.2	-88.6	3.0	7.64e-01	0	47	104	0	60	1048572
2026-01-18 07:56:16.27	47.67	26.89	-84.7	-88.6	3.1	7.62e-01	0	47	104	0	60	1048573
2026-01-18 07:56:17.28	47.37	26.95	-85.2	-88.6	3.4	7.62e-01	0	47	104	0	60	1048573
2026-01-18 07:56:18.28	47.07	27.00	-85.2	-88.6	3.1	7.62e-01	0	47	104	0	60	1048575
2026-01-18 07:56:19.29	46.77	27.05	-85.2	-88.6	3.3	7.64e-01	0	47	104	0	60	1048569
2026-01-18 07:56:20.30	46.47	27.10	-85.2	-88.6	3.4	7.65e-01	0	47	104	0	60	1048569
2026-01-18 07:56:21.30	46.17	27.16	-85.2	-88.6	3.0	7.64e-01	0	47	104	0	60	1048571
2026-01-18 07:56:22.31	45.87	27.21	-85.2	-88.6	3.5	7.62e-01	0	47	104	0	60	1048574
2026-01-18 07:56:23.32	45.57	27.26	-85.2	-88.6	3.6	7.63e-01	0	47	104	0	60	1048575
2026-01-18 07:56:24.33	45.26	27.31	-85.2	-88.6	3.0	7.64e-01	0	47	104	0	60	1048572
2026-01-18 07:56:25.33	44.96	27.35	-84.7	-88.6	3.1	7.63e-01	0	47	104	0	60	1048570
2026-01-18 07:56:26.34	44.65	27.40	-84.7	-88.6	3.3	7.63e-01	0	47	104	0	60	1048574
2026-01-18 07:56:27.35	44.34	27.45	-85.2	-88.6	3.2	7.62e-01	0	47	104	0	60	1048573
2026-01-18 07:56:28.36	44.03	27.49	-85.2	-88.6	3.1	7.65e-01	0	47	104	0	60	1048574
2026-01-18 07:56:29.36	43.73	27.54	-85.2	-88.6	3.3	7.62e-01	0	47	104	0	60	1048575
2026-01-18 07:56:30.37	43.42	27.58	-85.2	-88.6	3.2	7.63e-01	0	47	104	0	60	1048574
2026-01-18 07:56:31.38	43.11	27.63	-85.2	-88.6	2.7	7.63e-01	0	47	104	0	60	1048573
2026-01-18 07:56:32.38	42.80	27.67	-85.2	-88.6	3.2	7.63e-01	0	47	104	0	60	1048575
2026-01-18 07:56:33.39	42.48	27.71	-84.7	-88.6	3.6	7.63e-01	0	47	104	0	60	1048573
2026-01-18 07:56:34.40	42.17	27.75	-85.2	-88.6	3.8	7.63e-01	0	47	104	0	60	1048574
2026-01-18 07:56:35.41	41.86	27.79	-85.2	-88.6	2.8	7.64e-01	0	47	104	0	60	1048573
2026-01-18 07:56:36.41	41.54	27.83	-85.2	-88.6	2.5	7.63e-01	0	47	104	0	60	1048573
2026-01-18 07:56:37.42	41.23	27.87	-85.2	-88.6	2.3	7.62e-01	0	47	104	0	60	1048573
2026-01-18 07:56:38.43	40.91	27.90	-85.2	-88.6	3.0	7.63e-01	0	47	104	0	60	1048574
2026-01-18 07:56:39.44	40.59	27.94	-84.7	-88.6	3.6	7.62e-01	0	47	104	0	60	1048571
2026-01-18 07:56:40.44	40.28	27.97	-84.7	-88.6	3.2	7.62e-01	0	47	104	0	60	1048572
2026-01-18 07:56:41.45	39.96	28.01	-85.2	-88.6	3.2	7.63e-01	0	47	104	0	60	1048573
2026-01-18 07:56:42.46	39.64	28.04	-85.2	-88.6	3.0	7.63e-01	0	47	104	0	60	1048573
2026-01-18 07:56:43.46	39.32	28.07	-84.7	-88.6	3.6	7.63e-01	0	47	104	0	60	1048575
2026-01-18 07:56:44.47	39.00	28.11	-84.7	-88.6	3.4	7.62e-01	0	47	104	0	60	1048575
2026-01-18 07:56:45.48	38.68	28.14	-85.2	-88.6	2.8	7.65e-01	0	47	104	0	60	1048573
2026-01-18 07:56:46.48	38.36	28.17	-85.2	-88.6	2.9	7.63e-01	0	47	104	0	60	1048575
2026-01-18 07:56:47.48	38.04	28.19	-85.2	-88.6	3.4	7.63e-01	0	47	104	0	60	1048574
2026-01-18 07:56:48.48	37.72	28.22	-85.2	-88.6	3.2	7.63e-01	0	47	104	0	60	1048571
2026-01-18 07:56:49.49	37.40	28.25	-84.7	-88.6	3.2	7.62e-01	0	47	104	0	60	1048575
2026-01-18 07:56:50.50	37.07	28.27	-85.2	-88.6	3.4	7.64e-01	0	47	104	0	60	1048572
2026-01-18 07:56:51.51	36.75	28.30	-85.2	-88.6	3.4	7.63e-01	0	47	104	0	60	1048574
2026-01-18 07:56:52.52	36.42	28.32	-85.2	-88.6	3.2	7.61e-01	0	47	104	0	60	1048572
2026-01-18 07:56:53.52	36.10	28.34	-85.2	-88.6	3.3	7.62e-01	0	47	104	0	60	1048575
2026-01-18 07:56:54.53	35.77	28.36	-84.7	-88.6	3.5	7.61e-01	0	47	104	0	60	1048572
2026-01-18 07:56:55.54	35.45	28.39	-85.2	-88.6	2.9	7.63e-01	0	47	104	0	60	1048575
2026-01-18 07:56:56.55	35.12	28.40	-85.2	-88.6	3.1	7.65e-01	0	47	104	0	60	1048572
2026-01-18 07:56:57.56	34.79	28.42	-85.2	-88.6	3.6	7.63e-01	0	47	104	0	60	1048570
2026-01-18 07:56:58.57	34.46	28.44	-84.7	-88.6	2.9	7.62e-01	0	47	104	0	60	1048575
2026-01-18 07:56:59.57	34.14	28.46	-84.7	-88.6	3.2	7.62e-01	0	47	104	0	60	1048575
2026-01-18 07:57:00.57	33.81	28.47	-85.2	-88.6	3.0	7.62e-01	0	47	104	0	60	1048570
2026-01-18 07:57:01.58	33.48	28.49	-84.7	-88.6	3.5	7.64e-01	0	47	104	0	60	1048575
2026-01-18 07:57:02.59	33.15	28.50	-85.2	-88.6	3.3	7.62e-01	0	47	104	0	60	1048575
2026-01-18 07:57:03.59	32.83	28.51	-84.7	-88.6	3.4	7.63e-01	0	47	104	0	60	1048573
2026-01-18 07:57:04.60	32.50	28.52	-85.2	-88.6	3.6	7.63e-01	0	47	104	0	60	1048574
2026-01-18 07:57:05.61	32.17	28.53	-85.2	-88.6	2.9	7.63e-01	0	47	104	0	60	1048573
2026-01-18 07:57:06.62	31.84	28.54	-85.2	-88.6	3.0	7.62e-01	0	47	104	0	60	1048569
2026-01-18 07:57:07.63	31.51	28.55	-85.2	-88.6	3.5	7.62e-01	0	47	104	0	60	1048571
2026-01-18 07:57:08.63	31.18	28.56	-85.2	-88.6	3.6	7.63e-01	0	47	104	0	60	1048574
2026-01-18 07:57:09.64	30.85	28.56	-85.2	-88.6	2.9	7.64e-01	0	47	104	0	60	1048574
2026-01-18 07:57:10.65	30.52	28.57	-85.2	-88.6	3.0	7.65e-01	0	47	104	0	60	1048575
2026-01-18 07:57:11.66	30.19	28.57	-85.2	-88.6	3.2	7.62e-01	0	47	104	0	60	1048575
2026-01-18 07:57:12.67	29.86	28.57	-85.2	-88.6	3.2	7.62e-01	0	47	104	0	60	1048575
2026-01-18 07:57:13.67	29.53	28.58	-85.2	-88.6	3.2	7.61e-01	0	47	104	0	60	1048574
2026-01-18 07:57:14.68	29.20	28.58	-85.2	-88.6	3.5	7.62e-01	0	47	104	0	60	1048575
2026-01-18 07:57:15.69	28.87	28.58	-85.2	-88.6	3.1	7.63e-01	0	47	104	0	60	1048574
2026-01-18 07:57:16.69	28.54	28.57	-85.2	-88.6	3.1	7.61e-01	0	47	104	0	60	1048574
2026-01-18 07:57:17.69	28.22	28.57	-85.2	-88.6	3.3	7.61e-01	0	47	104	0	60	1048575
2026-01-18 07:57:18.70	27.88	28.57	-85.2	-88.6	3.8	7.66e-01	0	47	104	0	60	1048575
2026-01-18 07:57:19.71	27.55	28.56	-85.2	-88.6	2.8	7.63e-01	0	47	104	0	60	1048570
2026-01-18 07:57:20.72	27.22	28.56	-85.2	-88.6	3.4	7.62e-01	0	47	104	0	60	1048573
2026-01-18 07:57:21.72	26.90	28.55	-85.2	-88.6	3.3	7.63e-01	0	47	104	0	60	1048571
2026-01-18 07:57:22.73	26.57	28.54	-85.2	-88.6	3.2	7.63e-01	0	47	104	0	60	1048572
2026-01-18 07:57:23.74	26.24	28.53	-85.2	-88.6	3.2	7.64e-01	0	47	104	0	60	1048571
2026-01-18 07:57:24.75	25.91	28.52	-85.2	-88.6	3.6	7.63e-01	0	47	104	0	60	1048575
2026-01-18 07:57:25.75	25.58	28.51	-84.7	-88.6	3.3	7.63e-01	0	47	104	0	60	1048575
2026-01-18 07:57:26.76	25.25	28.50	-84.7	-88.6	2.9	7.63e-01	0	47	104	0	60	1048574
2026-01-18 07:57:27.77	24.92	28.49	-84.7	-88.6	2.9	7.62e-01	0	47	104	0	60	1048575
2026-01-18 07:57:28.78	24.59	28.47	-85.2	-88.6	3.3	7.63e-01	0	47	104	0	60	1048574
2026-01-18 07:57:29.79	24.26	28.46	-85.2	-88.6	3.7	7.63e-01	0	47	104	0	60	1048575
2026-01-18 07:57:30.80	23.94	28.44	-85.2	-88.6	2.7	7.62e-01	0	47	104	0	60	1048570
2026-01-18 07:57:31.80	23.61	28.42	-85.2	-88.6	3.3	7.62e-01	0	47	104	0	60	1048574
2026-01-18 07:57:32.81	23.28	28.40	-85.2	-88.6	3.1	7.62e-01	0	47	104	0	60	1048575
2026-01-18 07:57:33.82	22.96	28.39	-85.2	-88.6	3.0	7.62e-01	0	47	104	0	60	1048572
2026-01-18 07:57:34.82	22.63	28.37	-85.2	-88.6	3.7	7.61e-01	0	47	104	0	60	1048565
2026-01-18 07:57:35.83	22.31	28.34	-85.2	-88.6	3.0	7.61e-01	0	47	104	0	60	1048572
2026-01-18 07:57:36.84	21.98	28.32	-85.2	-88.6	3.0	7.63e-01	0	47	104	0	60	1048571
2026-01-18 07:57:37.84	21.66	28.30	-85.2	-88.6	3.7	7.64e-01	0	47	104	0	60	1048572
2026-01-18 07:57:38.85	21.34	28.27	-85.2	-88.6	3.7	7.63e-01	0	47	104	0	60	1048575
2026-01-18 07:57:39.85	21.01	28.25	-85.2	-88.6	2.9	7.63e-01	0	47	104	0	60	1048575
2026-01-18 07:57:40.86	20.69	28.22	-85.2	-88.6	3.2	7.63e-01	0	47	104	0	60	1048574
2026-01-18 07:57:41.86	20.37	28.19	-84.7	-88.6	2.8	7.63e-01	0	47	104	0	60	1048574
2026-01-18 07:57:42.87	20.05	28.17	-85.2	-88.6	3.4	7.63e-01	0	47	104	0	60	1048573
2026-01-18 07:57:43.88	19.73	28.14	-85.2	-88.6	3.0	7.63e-01	0	47	104	0	60	1048573
2026-01-18 07:57:44.89	19.40	28.11	-85.2	-88.6	3.0	7.65e-01	0	47	104	0	60	1048573
2026-01-18 07:57:45.89	19.09	28.08	-85.2	-88.6	3.0	7.63e-01	0	47	104	0	60	1048570
2026-01-18 07:57:46.90	18.77	28.04	-85.2	-88.6	3.5	7.63e-01	0	47	104	0	60	1048575
2026-01-18 07:57:47.90	18.45	28.01	-85.2	-88.6	3.7	7.62e-01	0	47	104	0	60	1048574
2026-01-18 07:57:48.91	18.13	27.98	-85.2	-88.6	3.6	7.64e-01	0	47	104	0	60	1048572
2026-01-18 07:57:49.92	17.81	27.94	-85.2	-88.6	3.0	7.62e-01	0	47	104	0	60	1048572
2026-01-18 07:57:50.92	17.50	27.91	-84.7	-88.6	3.1	7.63e-01	0	47	104	0	60	1048572
2026-01-18 07:57:51.93	17.18	27.87	-85.2	-88.6	2.9	7.64e-01	0	47	104	0	60	1048574
2026-01-18 07:57:52.93	16.87	27.83	-85.2	-88.6	3.6	7.63e-01	0	47	104	0	60	1048575
2026-01-18 07:57:53.94	16.55	27.79	-85.2	-88.6	3.1	7.63e-01	0	47	104	0	60	1048574
2026-01-18 07:57:54.95	16.24	27.75	-85.2	-88.6	3.0	7.64e-01	0	47	104	0	60	1048573
2026-01-18 07:57:55.95	15.93	27.71	-84.7	-88.6	3.4	7.64e-01	0	47	104	0	60	1048570
2026-01-18 07:57:56.96	15.62	27.67	-85.2	-88.6	3.5	7.64e-01	0	47	104	0	60	1048573
2026-01-18 07:57:57.96	15.31	27.63	-85.2	-88.6	2.6	7.64e-01	0	47	104	0	60	1048575
2026-01-18 07:57:58.97	15.00	27.58	-85.2	-88.6	3.4	7.63e-01	0	47	104	0	60	1048575
2026-01-18 07:57:59.98	14.69	27.54	-85.2	-88.6	3.2	7.64e-01	0	47	104	0	60	1048572
2026-01-18 07:58:00.99	14.38	27.50	-84.7	-88.6	2.9	7.64e-01	0	47	104	0	60	1048573
2026-01-18 07:58:01.99	14.07	27.45	-85.2	-88.6	3.1	7.63e-01	0	47	104	0	60	1048575
2026-01-18 07:58:03.00	13.76	27.40	-85.2	-88.6	3.5	7.62e-01	0	47	104	0	60	1048572
2026-01-18 07:58:04.00	13.46	27.36	-85.2	-88.6	3.5	7.63e-01	0	47	104	0	60	1048572
2026-01-18 07:58:05.01	13.15	27.31	-85.2	-88.6	3.1	7.65e-01	0	47	104	0	60	1048574
2026-01-18 07:58:06.01	12.85	27.26	-85.2	-88.6	3.5	7.63e-01	0	47	104	0	60	1048575
2026-01-18 07:58:07.02	12.55	27.21	-85.2	-88.6	3.4	7.63e-01	0	47	104	0	60	1048574
2026-01-18 07:58:08.02	12.25	27.16	-85.2	-88.6	2.9	7.63e-01	0	47	104	0	60	1048571
2026-01-18 07:58:09.03	11.95	27.11	-85.2	-88.6	3.4	7.64e-01	0	47	104	0	60	1048575
2026-01-18 07:58:10.03	11.65	27.06	-84.7	-88.6	2.9	7.62e-01	0	47	104	0	60	1048575
2026-01-18 07:58:11.04	11.35	27.00	-85.2	-88.6	2.7	7.59e-01	0	47	104	0	60	1048573
2026-01-18 07:58:12.05	11.05	26.95	-84.7	-88.6	2.9	7.62e-01	0	47	104	0	60	1048566
2026-01-18 07:58:13.05	10.76	26.90	-85.2	-88.6	3.5	7.62e-01	0	47	104	0	60	1048569
2026-01-18 07:58:14.05	10.46	26.84	-85.2	-88.6	3.4	7.62e-01	0	47	104	0	60	1048574
2026-01-18 07:58:15.06	10.17	26.78	-84.7	-88.6	2.9	7.63e-01	0	47	104	0	60	1048566
2026-01-18 07:58:16.07	9.87	26.73	-84.7	-88.6	3.0	7.63e-01	0	47	104	0	60	1048573
2026-01-18 07:58:17.08	9.58	26.67	-85.2	-88.6	2.9	7.62e-01	0	47	104	0	60	1048568
2026-01-18 07:58:18.08	9.29	26.61	-85.2	-88.6	2.8	7.63e-01	0	47	104	0	60	1048573
2026-01-18 07:58:19.09	9.00	26.55	-85.2	-88.6	3.3	7.63e-01	0	47	104	0	60	1048575
2026-01-18 07:58:20.09	8.71	26.50	-84.7	-88.6	3.0	7.64e-01	0	47	104	0	60	1048573
2026-01-18 07:58:21.09	8.42	26.44	-85.2	-88.6	3.0	7.64e-01	0	47	104	0	60	1048575
2026-01-18 07:58:22.09	8.14	26.38	-85.2	-88.6	3.8	7.64e-01	0	47	104	0	60	1048575
2026-01-18 07:58:23.09	7.85	26.31	-85.2	-88.6	3.5	7.63e-01	0	47	104	0	60	1048574
2026-01-18 07:58:24.10	7.57	26.25	-85.2	-88.6	3.2	7.63e-01	0	47	104	0	60	1048570
2026-01-18 07:58:25.10	7.28	26.19	-85.2	-88.6	2.8	7.63e-01	0	47	104	0	60	1048574
2026-01-18 07:58:26.11	7.00	26.13	-85.2	-88.6	3.0	7.64e-01	0	47	104	0	60	1048572
2026-01-18 07:58:27.12	6.72	26.06	-84.7	-88.6	3.5	7.63e-01	0	47	104	0	60	1048571
2026-01-18 07:58:28.13	6.44	26.00	-82.8	-88.6	3.3	7.61e-01	0	47	104	0	60	1048574
2026-01-18 07:58:29.13	6.16	25.93	-84.3	-88.6	2.8	7.63e-01	0	47	104	0	60	1048575
2026-01-18 07:58:30.14	5.88	25.87	-85.2	-88.6	3.1	7.62e-01	0	47	104	0	60	1048573
2026-01-18 07:58:31.15	5.60	25.80	-85.2	-88.6	3.3	7.62e-01	0	47	104	0	60	1048574
2026-01-18 07:58:32.15	5.33	25.73	-85.2	-88.6	3.1	7.62e-01	0	47	104	0	60	1048567
2026-01-18 07:58:33.16	5.05	25.67	-85.2	-88.6	3.5	7.62e-01	0	47	104	0	60	1048573
2026-01-18 07:58:34.17	4.78	25.60	-85.2	-88.6	3.1	7.62e-01	0	47	104	0	60	1048573
2026-01-18 07:58:35.18	4.50	25.53	-85.2	-88.6	2.9	7.63e-01	0	47	104	0	60	1048574
2026-01-18 07:58:36.19	4.23	25.46	-85.2	-88.6	3.1	7.63e-01	0	47	104	0	60	1048572
2026-01-18 07:58:37.19	3.96	25.39	-85.2	-88.6	3.0	7.63e-01	0	47	104	0	60	1048574
2026-01-18 07:58:38.20	3.69	25.32	-84.7	-88.6	3.7	7.63e-01	0	47	104	0	60	1048568
2026-01-18 07:58:39.21	3.43	25.25	-85.2	-88.6	3.1	7.64e-01	0	47	104	0	60	1048575
2026-01-18 07:58:40.22	3.16	25.18	-85.2	-88.6	3.0	7.63e-01	0	47	104	0	60	1048573
2026-01-18 07:58:41.23	2.89	25.11	-85.2	-88.6	3.5	7.62e-01	0	47	104	0	60	1048571
2026-01-18 07:58:42.23	2.63	25.04	-85.2	-88.6	3.0	7.62e-01	0	47	104	0	60	1048570
2026-01-18 07:58:43.24	2.37	24.96	-84.7	-88.6	3.2	7.57e-01	0	47	104	0	60	1048573
2026-01-18 07:58:44.25	2.10	24.89	-85.2	-88.6	3.0	7.65e-01	0	47	104	0	60	1048574
2026-01-18 07:58:45.25	1.85	24.82	-85.2	-88.6	3.4	7.64e-01	0	47	104	0	60	1048574
2026-01-18 07:58:46.26	1.59	24.74	-85.2	-88.6	2.9	7.60e-01	0	47	104	0	60	1048570
2026-01-18 07:58:47.27	1.33	24.67	-85.2	-88.6	2.9	7.63e-01	0	47	104	0	60	1048571
2026-01-18 07:58:48.28	1.07	24.59	-85.2	-88.6	3.3	7.63e-01	0	47	104	0	60	1048569
2026-01-18 07:58:49.28	0.82	24.52	-85.2	-88.6	3.7	7.63e-01	0	47	104	0	60	1048575
2026-01-18 07:58:50.29	0.56	24.44	-85.2	-88.6	3.1	7.63e-01	0	47	104	0	60	1048570
2026-01-18 07:58:51.30	0.31	24.37	-85.2	-88.6	3.4	7.64e-01	0	47	104	0	60	1048575
2026-01-18 07:58:52.31	0.06	24.29	-85.2	-88.6	3.3	7.64e-01	0	47	104	0	60	1048573
2026-01-18 07:58:53.32	359.80	24.21	-84.7	-88.6	3.0	7.62e-01	0	47	104	0	60	1048575
2026-01-18 07:58:54.33	359.55	24.14	-85.2	-88.6	3.0	7.65e-01	0	47	104	0	60	1048573
2026-01-18 07:58:55.34	359.31	24.06	-85.2	-88.6	3.3	7.62e-01	0	47	104	0	60	1048573
2026-01-18 07:58:56.34	359.06	23.98	-85.2	-88.6	3.1	7.64e-01	0	47	104	0	60	1048575
2026-01-18 07:58:57.35	358.81	23.90	-85.2	-88.6	2.8	7.63e-01	0	47	104	0	60	1048570
2026-01-18 07:58:58.36	358.57	23.83	-85.2	-88.6	3.6	7.64e-01	0	47	104	0	60	1048568
2026-01-18 07:58:59.37	358.33	23.75	-85.2	-88.6	3.3	7.64e-01	0	47	104	0	60	1048575
2026-01-18 07:59:00.37	358.09	23.67	-85.2	-88.6	2.9	7.64e-01	0	47	104	0	60	1048575
2026-01-18 07:59:01.36	357.85	23.59	-85.2	-88.6	2.9	7.64e-01	0	47	104	0	60	1048572
2026-01-18 07:59:02.37	357.61	23.51	-85.2	-88.6	3.4	7.63e-01	0	47	104	0	60	1048569
2026-01-18 07:59:03.37	357.37	23.43	-85.2	-88.6	3.7	7.63e-01	0	47	104	0	60	1048575
2026-01-18 07:59:04.37	357.14	23.35	-85.2	-88.6	2.9	7.63e-01	0	47	104	0	60	1048573
2026-01-18 07:59:05.38	356.90	23.27	-85.2	-88.6	2.9	7.63e-01	0	47	104	0	60	1048574
2026-01-18 07:59:06.39	356.67	23.19	-84.7	-88.6	3.0	7.62e-01	0	47	104	0	60	1048573
2026-01-18 07:59:07.40	356.43	23.11	-84.7	-88.6	3.0	7.64e-01	0	47	104	0	60	1048575
2026-01-18 07:59:08.40	356.20	23.03	-85.2	-88.6	3.2	7.61e-01	0	47	104	0	60	1048573
2026-01-18 07:59:09.41	355.97	22.95	-85.2	-88.6	3.1	7.63e-01	0	47	104	0	60	1048572
2026-01-18 07:59:10.41	355.74	22.86	-85.2	-88.6	3.1	7.64e-01	0	47	104	0	60	1048575
2026-01-18 07:59:11.42	355.51	22.78	-84.7	-88.6	2.9	7.63e-01	0	47	104	0	60	1048572
2026-01-18 07:59:12.43	355.29	22.70	-84.7	-88.6	3.3	7.62e-01	0	47	104	0	60	1048575
2026-01-18 07:59:13.44	355.06	22.62	-85.2	-88.6	3.3	7.63e-01	0	47	104	0	60	1048569
2026-01-18 07:59:14.45	354.83	22.53	-85.2	-88.6	3.0	7.64e-01	0	47	104	0	60	1048575
2026-01-18 07:59:15.45	354.61	22.45	-85.2	-88.6	3.3	7.62e-01	0	47	104	0	60	1048570
2026-01-18 07:59:16.46	354.39	22.37	-84.7	-88.6	3.7	7.63e-01	0	47	104	0	60	1048568
2026-01-18 07:59:17.46	354.17	22.29	-85.2	-88.6	3.4	7.63e-01	0	47	104	0	60	1048574
2026-01-18 07:59:18.47	353.95	22.20	-85.2	-88.6	3.0	7.58e-01	0	47	104	0	60	1048573
2026-01-18 07:59:19.47	353.73	22.12	-85.2	-88.6	3.0	7.64e-01	0	47	104	0	60	1048575
2026-01-18 07:59:20.48	353.51	22.04	-85.2	-88.6	3.1	7.63e-01	0	47	104	0	60	1048575
2026-01-18 07:59:21.49	353.30	21.95	-85.2	-88.6	3.4	7.63e-01	0	47	104	0	60	1048575
2026-01-18 07:59:22.50	353.08	21.87	-85.2	-88.6	2.9	7.63e-01	0	47	104	0	60	1048575
2026-01-18 07:59:23.50	352.87	21.78	-85.2	-88.6	3.2	7.64e-01	0	47	104	0	60	1048573
2026-01-18 07:59:24.51	352.65	21.70	-85.2	-88.6	3.1	7.62e-01	0	47	104	0	60	1048562
2026-01-18 07:59:25.52	352.44	21.61	-85.2	-88.6	3.0	7.63e-01	0	47	104	0	60	1048573
2026-01-18 07:59:26.53	352.23	21.53	-85.2	-88.6	3.6	7.62e-01	0	47	104	0	60	1048575
2026-01-18 07:59:27.53	352.02	21.44	-85.2	-88.6	3.1	7.63e-01	0	47	104	0	60	1048575
2026-01-18 07:59:28.54	351.81	21.36	-85.2	-88.6	2.9	7.64e-01	0	47	104	0	60	1048570
2026-01-18 07:59:29.53	351.61	21.28	-85.2	-88.6	3.6	7.64e-01	0	47	104	0	60	1048574
2026-01-18 07:59:30.54	351.40	21.19	-84.7	-88.6	3.0	7.63e-01	0	47	104	0	60	1048571
2026-01-18 07:59:31.55	351.20	21.10	-84.7	-88.6	3.1	7.63e-01	0	47	104	0	60	1048574
2026-01-18 07:59:32.55	351.00	21.02	-85.2	-88.6	2.7	7.63e-01	0	47	104	0	60	1048574
2026-01-18 07:59:33.57	350.79	20.93	-84.7	-88.6	3.6	7.63e-01	0	47	104	0	60	1048573
2026-01-18 07:59:34.57	350.59	20.85	-85.2	-88.6	3.7	7.64e-01	0	47	104	0	60	1048573
2026-01-18 07:59:35.58	350.39	20.76	-85.2	-88.6	2.8	7.64e-01	0	47	104	0	60	1048572
2026-01-18 07:59:36.59	350.19	20.68	-84.7	-88.6	3.1	7.63e-01	0	47	104	0	60	1048575
2026-01-18 07:59:37.60	349.99	20.59	-85.2	-88.6	3.7	7.61e-01	0	47	104	0	60	1048575
2026-01-18 07:59:38.60	349.80	20.51	-85.2	-88.6	2.8	7.63e-01	0	47	104	0	60	1048573
2026-01-18 07:59:39.61	349.60	20.42	-85.2	-88.6	3.3	7.63e-01	0	47	104	0	60	1048573
2026-01-18 07:59:40.62	349.41	20.33	-84.7	-88.6	3.4	7.64e-01	0	47	104	0	60	1048575
2026-01-18 07:59:41.63	349.21	20.25	-85.2	-88.6	2.9	7.64e-01	0	47	104	0	60	1048568
2026-01-18 07:59:42.64	349.02	20.16	-85.2	-88.6	3.2	7.62e-01	0	47	104	0	60	1048575
2026-01-18 07:59:43.65	348.83	20.07	-85.2	-88.6	3.1	7.64e-01	0	47	104	0	60	1048574
2026-01-18 07:59:44.65	348.64	19.99	-85.2	-88.6	2.9	7.63e-01	0	47	104	0	60	1048571
2026-01-18 07:59:45.66	348.45	19.90	-85.2	-88.6	3.0	7.63e-01	0	47	104	0	60	1048574
2026-01-18 07:59:46.67	348.26	19.82	-85.2	-88.6	2.9	7.63e-01	0	47	104	0	60	1048573
2026-01-18 07:59:47.67	348.08	19.73	-85.2	-88.6	3.7	7.63e-01	0	47	104	0	60	1048575
2026-01-18 07:59:48.68	347.89	19.64	-85.2	-88.6	3.3	7.63e-01	0	47	104	0	60	1048574
2026-01-18 07:59:49.68	347.71	19.56	-84.7	-88.6	2.9	7.64e-01	0	47	104	0	60	1048570
2026-01-18 07:59:50.69	347.52	19.47	-85.2	-88.6	3.2	7.64e-01	0	47	104	0	60	1048575
2026-01-18 07:59:51.70	347.34	19.38	-85.2	-88.6	3.7	7.63e-01	0	47	104	0	60	1048572
2026-01-18 07:59:52.71	347.16	19.30	-85.2	-88.6	2.9	7.62e-01	0	47	104	0	60	1048573
2026-01-18 07:59:53.71	346.98	19.21	-85.2	-88.6	3.4	7.64e-01	0	47	104	0	60	1048575
2026-01-18 07:59:54.72	346.80	19.13	-85.2	-88.6	3.7	7.62e-01	0	47	104	0	60	1048572
2026-01-18 07:59:55.73	346.62	19.04	-85.2	-88.6	2.8	7.64e-01	0	47	104	0	60	1048575
2026-01-18 07:59:56.73	346.44	18.95	-84.7	-88.6	3.1	7.64e-01	0	47	104	0	60	1048568
2026-01-18 07:59:57.74	346.27	18.87	-85.2	-88.6	3.5	7.62e-01	0	47	104	0	60	1048572
2026-01-18 07:59:58.75	346.09	18.78	-85.2	-88.6	3.1	7.63e-01	0	47	104	0	60	1048575
2026-01-18 07:59:59.76	345.91	18.69	-85.2	-88.6	3.3	7.63e-01	0	47	104	0	60	1048571
2026-01-18 08:00:00.77	345.74	18.61	-85.2	-88.6	2.9	7.61e-01	0	47	104	0	60	1048572
2026-01-18 08:00:01.77	345.57	18.52	-85.2	-88.6	3.6	7.61e-01	0	47	104	0	60	1048575
2026-01-18 08:00:02.78	345.40	18.44	-85.2	-88.6	2.7	7.63e-01	0	47	104	0	60	1048574
2026-01-18 08:00:03.79	345.23	18.35	-82.8	-88.6	3.1	7.64e-01	0	47	104	0	60	1048571
2026-01-18 08:00:04.79	345.06	18.26	-84.7	-88.6	3.3	7.62e-01	0	47	104	0	60	1048575
2026-01-18 08:00:05.80	344.89	18.18	-85.2	-88.6	3.0	7.63e-01	0	47	104	0	60	1048567
2026-01-18 08:00:06.81	344.72	18.09	-85.2	-88.6	3.4	7.63e-01	0	47	104	0	60	1048571
2026-01-18 08:00:07.81	344.56	18.01	-85.2	-88.6	3.7	7.63e-01	0	47	104	0	60	1048575
2026-01-18 08:00:08.81	344.39	17.92	-85.2	-88.6	3.2	7.63e-01	0	47	104	0	60	1048575
2026-01-18 08:00:09.82	344.23	17.83	-85.2	-88.6	3.3	7.63e-01	0	47	104	0	60	1048574
2026-01-18 08:00:10.83	344.06	17.75	-85.2	-88.6	3.0	7.64e-01	0	47	104	0	60	1048573
2026-01-18 08:00:11.83	343.90	17.66	-85.2	-88.6	3.4	7.63e-01	0	47	104	0	60	1048575
2026-01-18 08:00:12.84	343.74	17.58	-85.2	-88.6	3.0	7.64e-01	0	47	104	0	60	1048571
2026-01-18 08:00:13.85	343.58	17.49	-85.2	-88.6	3.5	7.63e-01	0	47	104	0	60	1048575
2026-01-18 08:00:14.85	343.42	17.41	-85.2	-88.6	3.3	7.62e-01	0	47	104	0	60	1048574
2026-01-18 08:00:15.86	343.26	17.32	-85.2	-88.6	3.0	7.63e-01	0	47	104	0	60	1048573
2026-01-18 08:00:16.87	343.10	17.23	-85.2	-88.6	3.0	7.62e-01	0	47	104	0	60	1048575
2026-01-18 08:00:17.87	342.94	17.15	-84.7	-88.6	3.3	7.64e-01	0	47	104	0	60	1048575
2026-01-18 08:00:18.88	342.79	17.06	-85.2	-88.6	3.2	7.65e-01	0	47	104	0	60	1048573
2026-01-18 08:00:19.89	342.63	16.98	-85.2	-88.6	3.0	7.64e-01	0	47	104	0	60	1048575
2026-01-18 08:00:20.90	342.48	16.89	-85.2	-88.6	3.0	7.64e-01	0	47	104	0	60	1048574
2026-01-18 08:00:21.91	342.32	16.81	-85.2	-88.6	2.8	7.63e-01	0	47	104	0	60	1048573
2026-01-18 08:00:22.91	342.17	16.72	-84.7	-88.6	2.9	7.63e-01	0	47	104	0	60	1048573
2026-01-18 08:00:23.92	342.02	16.64	-85.2	-88.6	3.4	7.62e-01	0	47	104	0	60	1048573
2026-01-18 08:00:24.92	341.87	16.55	-84.7	-88.6	3.5	7.63e-01	0	47	104	0	60	1048574
2026-01-18 08:00:25.93	341.72	16.47	-85.2	-88.6	3.2	7.64e-01	0	47	104	0	60	1048572
2026-01-18 08:00:26.94	341.57	16.38	-85.2	-88.6	3.0	7.63e-01	0	47	104	0	60	1048573
2026-01-18 08:00:27.95	341.42	16.30	-85.2	-88.6	2.9	7.62e-01	0	47	104	0	60	1048574
2026-01-18 08:00:28.95	341.27	16.22	-84.7	-88.6	3.3	7.64e-01	0	47	104	0	60	1048575
2026-01-18 08:00:29.96	341.13	16.13	-85.2	-88.6	3.0	7.64e-01	0	47	104	0	60	1048575
2026-01-18 08:00:30.97	340.98	16.05	-85.2	-88.6	3.1	7.61e-01	0	47	104	0	60	1048572
2026-01-18 08:00:31.98	340.83	15.96	-85.2	-88.6	2.9	7.63e-01	0	47	104	0	60	1048575
2026-01-18 08:00:32.98	340.69	15.88	-84.7	-88.6	3.7	7.63e-01	0	47	104	0	60	1048570
2026-01-18 08:00:33.99	340.55	15.80	-85.2	-88.6	3.1	7.64e-01	0	47	104	0	60	1048573
2026-01-18 08:00:34.99	340.41	15.71	-85.2	-88.6	3.1	7.64e-01	0	47	104	0	60	1048575
2026-01-18 08:00:36.00	340.26	15.63	-85.2	-88.6	2.9	7.60e-01	0	47	104	0	60	1048573
2026-01-18 08:00:37.00	340.12	15.55	-85.2	-88.6	3.4	7.63e-01	0	47	104	0	60	1048574
2026-01-18 08:00:38.00	339.99	15.46	-85.2	-88.6	3.0	7.63e-01	0	47	104	0	60	1048575
2026-01-18 08:00:39.01	339.85	15.38	-85.2	-88.6	3.2	7.63e-01	0	47	104	0	60	1048573
2026-01-18 08:00:40.01	339.71	15.30	-85.2	-88.6	3.1	7.64e-01	0	47	104	0	60	1048574
2026-01-18 08:00:41.02	339.57	15.21	-85.2	-88.6	3.0	7.63e-01	0	47	104	0	60	1048574
2026-01-18 08:00:42.03	339.43	15.13	-85.2	-88.6	3.1	7.58e-01	0	47	104	0	60	1048573
2026-01-18 08:00:43.04	339.30	15.05	-85.2	-88.6	3.2	7.62e-01	0	47	104	0	60	1048575
2026-01-18 08:00:44.04	339.16	14.96	-84.3	-88.6	3.3	7.63e-01	0	47	104	0	60	1048573
2026-01-18 08:00:45.05	339.03	14.88	-85.2	-88.6	3.1	7.64e-01	0	47	104	0	60	1048575
2026-01-18 08:00:46.06	338.89	14.80	-85.2	-88.6	3.2	7.62e-01	0	47	104	0	60	1048573
2026-01-18 08:00:47.07	338.76	14.72	-84.7	-88.6	3.3	7.64e-01	0	47	104	0	60	1048568
2026-01-18 08:00:48.08	338.63	14.63	-85.2	-88.6	3.2	7.64e-01	0	47	104	0	60	1048570
2026-01-18 08:00:49.08	338.50	14.55	-84.3	-88.6	3.0	7.64e-01	0	47	104	0	60	1048570
2026-01-18 08:00:50.09	338.36	14.47	-85.2	-88.6	3.3	7.63e-01	0	47	104	0	60	1048564
2026-01-18 08:00:51.10	338.23	14.39	-85.2	-88.6	2.9	7.63e-01	0	47	104	0	60	1048574
2026-01-18 08:00:52.10	338.10	14.31	-84.7	-88.6	3.5	7.63e-01	0	47	104	0	60	1048575
2026-01-18 08:00:53.11	337.98	14.22	-85.2	-88.6	3.4	7.63e-01	0	47	104	0	60	1048573
2026-01-18 08:00:54.11	337.85	14.14	-85.2	-88.6	3.2	7.63e-01	0	47	104	0	60	1048575
2026-01-18 08:00:55.12	337.72	14.06	-85.2	-88.6	3.4	7.63e-01	0	47	104	0	60	1048575
2026-01-18 08:00:56.13	337.59	13.98	-84.7	-88.6	3.3	7.64e-01	0	47	104	0	60	1048571
2026-01-18 08:00:57.13	337.47	13.90	-85.2	-88.6	3.3	7.63e-01	0	47	104	0	60	1048565
2026-01-18 08:00:58.14	337.34	13.82	-85.2	-88.6	2.8	7.62e-01	0	47	104	0	60	1048574
2026-01-18 08:00:59.15	337.22	13.74	-85.2	-88.6	3.6	7.63e-01	0	47	104	0	60	1048570
2026-01-18 08:01:00.16	337.10	13.66	-85.2	-88.6	2.9	7.63e-01	0	47	104	0	60	1048573
2026-01-18 08:01:01.16	336.97	13.58	-84.7	-88.6	3.0	7.61e-01	0	47	104	0	60	1048574
2026-01-18 08:01:02.17	336.85	13.49	-85.2	-88.6	3.0	7.63e-01	0	47	104	0	60	1048575
2026-01-18 08:01:03.17	336.73	13.41	-85.2	-88.6	3.5	7.63e-01	0	47	104	0	60	1048575
2026-01-18 08:01:04.18	336.61	13.33	-84.7	-88.6	3.1	7.64e-01	0	47	104	0	60	1048575
2026-01-18 08:01:05.19	336.49	13.25	-85.2	-88.6	3.1	7.63e-01	0	47	104	0	60	1048573
2026-01-18 08:01:06.20	336.37	13.17	-85.2	-88.6	3.2	7.63e-01	0	47	104	0	60	1048572
2026-01-18 08:01:07.21	336.25	13.09	-85.2	-88.6	2.8	7.63e-01	0	47	104	0	60	1048567
2026-01-18 08:01:08.21	336.13	13.01	-85.2	-88.6	3.2	7.64e-01	0	47	104	0	60	1048575
2026-01-18 08:01:09.22	336.01	12.93	-85.2	-88.6	2.9	7.64e-01	0	47	104	0	60	1048572
2026-01-18 08:01:10.23	335.90	12.85	-84.7	-88.6	3.3	7.63e-01	0	47	104	0	60	1048574
2026-01-18 08:01:11.23	335.78	12.78	-85.2	-88.6	3.4	7.63e-01	0	47	104	0	60	1048575
2026-01-18 08:01:12.24	335.66	12.70	-85.2	-88.6	3.2	7.62e-01	0	47	104	0	60	1048574
2026-01-18 08:01:13.25	335.55	12.62	-85.2	-88.6	3.5	7.64e-01	0	47	104	0	60	1048575
2026-01-18 08:01:14.26	335.43	12.54	-85.2	-88.6	3.7	7.63e-01	0	47	104	0	60	1048574
2026-01-18 08:01:15.27	335.32	12.46	-84.7	-88.6	3.0	7.64e-01	0	47	104	0	60	1048574
2026-01-18 08:01:16.27	335.21	12.38	-85.2	-88.6	3.0	7.62e-01	0	47	104	0	60	1048573
2026-01-18 08:01:17.28	335.09	12.30	-85.2	-88.6	3.5	7.62e-01	0	47	104	0	60	1048575
2026-01-18 08:01:18.29	334.98	12.22	-83.1	-88.6	3.5	7.63e-01	0	47	104	0	60	1048570
2026-01-18 08:01:19.29	334.87	12.15	-85.2	-88.6	2.9	7.64e-01	0	47	104	0	60	1048575
2026-01-18 08:01:20.30	334.76	12.07	-84.7	-88.6	3.7	7.64e-01	0	47	104	0	60	1048570
2026-01-18 08:01:21.31	334.65	11.99	-85.2	-88.6	3.0	7.63e-01	0	47	104	0	60	1048572
2026-01-18 08:01:22.32	334.54	11.91	-85.2	-88.6	3.1	7.64e-01	0	47	104	0	60	1048574
2026-01-18 08:01:23.32	334.43	11.84	-85.2	-88.6	3.4	7.63e-01	0	47	104	0	60	1048574
2026-01-18 08:01:24.32	334.32	11.76	-85.2	-88.6	3.3	7.63e-01	0	47	104	0	60	1048572
2026-01-18 08:01:25.33	334.22	11.68	-85.2	-88.6	3.0	7.61e-01	0	47	104	0	60	1048570
2026-01-18 08:01:26.33	334.11	11.60	-85.2	-88.6	3.0	7.63e-01	0	47	104	0	60	1048573
2026-01-18 08:01:27.34	334.00	11.53	-85.2	-88.6	3.5	7.62e-01	0	47	104	0	60	1048569
2026-01-18 08:01:28.34	333.90	11.45	-85.2	-88.6	2.8	7.63e-01	0	47	104	0	60	1048574
2026-01-18 08:01:29.35	333.79	11.37	-85.2	-88.6	3.1	7.63e-01	0	47	104	0	60	1048575
2026-01-18 08:01:30.35	333.69	11.30	-85.2	-88.6	2.9	7.63e-01	0	47	104	0	60	1048569
2026-01-18 08:01:31.36	333.58	11.22	-85.2	-88.6	2.9	7.62e-01	0	47	104	0	60	1048569
2026-01-18 08:01:32.36	333.48	11.14	-85.2	-88.6	2.8	7.63e-01	0	47	104	0	60	1048575
2026-01-18 08:01:33.37	333.38	11.07	-83.5	-88.6	3.3	7.62e-01	0	47	104	0	60	1048574
2026-01-18 08:01:34.38	333.27	10.99	-85.2	-88.6	3.0	7.64e-01	0	47	104	0	60	1048574
2026-01-18 08:01:35.39	333.17	10.92	-85.2	-88.6	3.0	7.62e-01	0	47	104	0	60	1048571
2026-01-18 08:01:36.39	333.07	10.84	-85.2	-88.6	3.1	7.63e-01	0	47	104	0	60	1048572
2026-01-18 08:01:37.40	332.97	10.77	-84.7	-88.6	3.1	7.63e-01	0	47	104	0	60	1048572
2026-01-18 08:01:38.41	332.87	10.69	-85.2	-88.6	3.2	7.63e-01	0	47	104	0	60	1048575
2026-01-18 08:01:39.41	332.77	10.61	-85.2	-88.6	3.1	7.63e-01	0	47	104	0	60	1048574
2026-01-18 08:01:40.42	332.67	10.54	-85.2	-88.6	2.7	7.63e-01	0	47	104	0	60	1048571
2026-01-18 08:01:41.43	332.57	10.46	-85.2	-88.6	3.3	7.65e-01	0	47	104	0	60	1048574
2026-01-18 08:01:42.43	332.47	10.39	-85.2	-88.6	3.0	7.64e-01	0	47	104	0	60	1048575
2026-01-18 08:01:43.44	332.38	10.31	-84.7	-88.6	2.9	7.65e-01	0	47	104	0	60	1048568
2026-01-18 08:01:44.45	332.28	10.24	-84.7	-88.6	3.5	7.62e-01	0	47	104	0	60	1048573
2026-01-18 08:01:45.46	332.18	10.17	-85.2	-88.6	3.5	7.63e-01	0	47	104	0	60	1048573
2026-01-18 08:01:46.46	332.08	10.09	-85.2	-88.6	3.2	7.62e-01	0	47	104	0	60	1048573
2026-01-18 08:01:47.46	331.99	10.02	-85.2	-88.6	3.2	7.63e-01	0	47	104	0	60	1048573
2026-01-18 08:01:48.47	331.89	9.94	-84.7	-88.6	3.6	7.63e-01	0	47	104	0	60	1048575
2026-01-18 08:01:49.47	331.80	9.87	-85.2	-88.6	3.6	7.64e-01	0	47	104	0	60	1048573
2026-01-18 08:01:50.48	331.71	9.80	-85.2	-88.6	2.9	7.63e-01	0	47	104	0	60	1048574
2026-01-18 08:01:51.48	331.61	9.72	-85.2	-88.6	2.9	7.63e-01	0	47	104	0	60	1048575
2026-01-18 08:01:52.49	331.52	9.65	-85.2	-88.6	3.3	7.63e-01	0	47	104	0	60	1048571
2026-01-18 08:01:53.50	331.43	9.58	-84.7	-88.6	3.6	7.62e-01	0	47	104	0	60	1048574
2026-01-18 08:01:54.51	331.33	9.50	-84.7	-88.6	3.5	7.63e-01	0	47	104	0	60	1048573
2026-01-18 08:01:55.52	331.24	9.43	-85.2	-88.6	3.1	7.63e-01	0	47	104	0	60	1048570
2026-01-18 08:01:56.52	331.15	9.36	-85.2	-88.6	3.1	7.63e-01	0	47	104	0	60	1048575
2026-01-18 08:01:57.53	331.06	9.28	-85.2	-88.6	3.1	7.63e-01	0	47	104	0	60	1048572
2026-01-18 08:01:58.53	330.97	9.21	-84.7	-88.6	3.6	7.63e-01	0	47	104	0	60	1048573
2026-01-18 08:01:59.54	330.88	9.14	-85.2	-88.6	3.5	7.62e-01	0	47	104	0	60	1048572
2026-01-18 08:02:00.55	330.79	9.07	-85.2	-88.6	2.9	7.64e-01	0	47	104	0	60	1048573
2026-01-18 08:02:01.55	330.70	8.99	-85.2	-88.6	3.0	7.61e-01	0	47	104	0	60	1048572
2026-01-18 08:02:02.56	330.61	8.92	-84.7	-88.6	3.7	7.63e-01	0	47	104	0	60	1048572
2026-01-18 08:02:03.56	330.52	8.85	-85.2	-88.6	3.6	7.62e-01	0	47	104	0	60	1048575
2026-01-18 08:02:04.57	330.44	8.78	-85.2	-88.6	3.1	7.64e-01	0	47	104	0	60	1048575
2026-01-18 08:02:05.58	330.35	8.71	-85.2	-88.6	3.5	7.63e-01	0	47	104	0	60	1048574
2026-01-18 08:02:06.58	330.26	8.64	-85.2	-88.6	3.3	7.64e-01	0	47	104	0	60	1048575
2026-01-18 08:02:07.59	330.18	8.56	-85.2	-88.6	2.8	7.63e-01	0	47	104	0	60	1048571
2026-01-18 08:02:08.60	330.09	8.49	-84.7	-88.6	3.0	7.63e-01	0	47	104	0	60	1048571
2026-01-18 08:02:09.60	330.01	8.42	-85.2	-88.6	3.4	7.63e-01	0	47	104	0	60	1048574
2026-01-18 08:02:10.61	329.92	8.35	-85.2	-88.6	2.9	7.63e-01	0	47	104	0	60	1048572
2026-01-18 08:02:11.62	329.83	8.28	-85.2	-88.6	3.0	7.64e-01	0	47	104	0	60	1048572
2026-01-18 08:02:12.63	329.75	8.21	-84.7	-88.6	3.4	7.64e-01	0	47	104	0	60	1048562
2026-01-18 08:02:13.64	329.67	8.14	-84.3	-88.6	3.8	7.64e-01	0	47	104	0	60	1048574
2026-01-18 08:02:14.64	329.58	8.07	-85.2	-88.6	3.0	7.63e-01	0	47	104	0	60	1048574
2026-01-18 08:02:15.65	329.50	8.00	-85.2	-88.6	3.1	7.64e-01	0	47	104	0	60	1048574
2026-01-18 08:02:16.65	329.42	7.93	-85.2	-88.6	3.6	7.62e-01	0	47	104	0	60	1048572
2026-01-18 08:02:17.66	329.34	7.86	-84.7	-88.6	3.0	7.63e-01	0	47	104	0	60	1048575
2026-01-18 08:02:18.67	329.25	7.79	-85.2	-88.6	3.0	7.63e-01	0	47	104	0	60	1048570
