passes_logs/2026/01/18/R3.2S-Naryan-Mar/R3.2S-Naryan-Mar__20260118_051158_SUOMI_NPP_rec.log

#Pass ID: 20260118_051158_SUOMI NPP
#Satellite: SUOMI NPP
#Configuration: NPP
#almurnet v.1.7.20240730
#Start time: 2026-01-18 05:12:02

#Version: 2.2.20231116
#Station: R3.2S-Naryan-Mar
#Location: 53.008057 lon 67.646978 lat
#TLE: 1 37849U 11061A   26017.28905266  .00000074  00000+0  55894-4 0  9999
#TLE: 2 37849  98.7814 319.3179 0002408  59.7048 300.4366 14.19525847737038

#Time	Az	El	Level	Level2	SNR	BER	BlckErr	Temp	State	Recorded	gain1	gain2
2026-01-18 05:12:02.51	83.58	0.19	-82.8	-79.0	2.5	0.00e+00	0	45	0	0	60	1048574
2026-01-18 05:12:03.51	83.53	0.25	-85.2	-88.6	2.9	1.55e+00	0	46	104	0	60	1048575
2026-01-18 05:12:04.52	83.47	0.30	-85.2	-88.6	3.0	1.56e+00	0	46	104	0	60	1048574
2026-01-18 05:12:05.53	83.41	0.36	-85.2	-88.6	2.9	1.55e+00	0	46	104	0	60	1048575
2026-01-18 05:12:06.54	83.36	0.41	-85.2	-88.6	3.0	1.55e+00	0	46	104	0	60	1048575
2026-01-18 05:12:07.55	83.30	0.47	-85.2	-88.6	3.0	1.55e+00	0	46	104	0	60	1048574
2026-01-18 05:12:08.55	83.24	0.52	-85.2	-88.6	3.0	1.55e+00	0	46	104	0	60	1048575
2026-01-18 05:12:09.56	83.19	0.58	-85.2	-88.6	3.0	1.56e+00	0	46	104	0	60	1048574
2026-01-18 05:12:10.56	83.13	0.63	-85.2	-88.6	3.0	1.56e+00	0	46	104	0	60	1048574
2026-01-18 05:12:11.57	83.07	0.69	-85.2	-88.6	2.8	1.56e+00	0	46	104	0	60	1048575
2026-01-18 05:12:12.58	83.01	0.74	-85.2	-88.6	3.0	1.55e+00	0	46	104	0	60	1048570
2026-01-18 05:12:13.59	82.95	0.80	-85.2	-88.6	3.2	1.56e+00	0	46	104	0	60	1048575
2026-01-18 05:12:14.60	82.89	0.86	-85.2	-88.6	3.2	1.56e+00	0	46	104	0	60	1048575
2026-01-18 05:12:15.60	82.83	0.91	-85.2	-88.6	3.2	1.56e+00	0	46	104	0	60	1048574
2026-01-18 05:12:16.61	82.78	0.97	-85.2	-88.6	3.1	1.55e+00	0	46	104	0	60	1048574
2026-01-18 05:12:17.62	82.72	1.02	-85.2	-88.6	2.9	1.55e+00	0	46	104	0	60	1048573
2026-01-18 05:12:18.62	82.66	1.08	-85.2	-88.6	2.9	1.56e+00	0	46	104	0	60	1048574
2026-01-18 05:12:19.62	82.60	1.13	-85.2	-88.6	3.1	1.56e+00	0	46	104	0	60	1048574
2026-01-18 05:12:20.63	82.54	1.19	-85.2	-88.6	2.9	1.56e+00	0	46	104	0	60	1048575
2026-01-18 05:12:21.63	82.48	1.25	-85.2	-88.6	2.9	1.56e+00	0	46	104	0	60	1048575
2026-01-18 05:12:22.64	82.42	1.30	-85.2	-88.6	2.8	1.56e+00	0	46	104	0	60	1048572
2026-01-18 05:12:23.65	82.35	1.36	-85.2	-88.6	3.0	1.56e+00	0	46	104	0	60	1048574
2026-01-18 05:12:24.66	82.29	1.41	-85.2	-88.6	3.0	1.56e+00	0	46	104	0	60	1048574
2026-01-18 05:12:25.67	82.23	1.47	-85.2	-88.6	3.0	1.56e+00	0	46	104	0	60	1048572
2026-01-18 05:12:26.68	82.17	1.53	-84.7	-88.6	3.1	1.56e+00	0	46	104	0	60	1048574
2026-01-18 05:12:27.68	82.11	1.58	-85.2	-88.6	2.9	1.55e+00	0	46	104	0	60	1048574
2026-01-18 05:12:28.69	82.05	1.64	-85.2	-88.6	2.9	1.56e+00	0	46	104	0	60	1048571
2026-01-18 05:12:29.70	81.98	1.70	-85.2	-88.6	3.2	1.56e+00	0	46	104	0	60	1048575
2026-01-18 05:12:30.70	81.92	1.75	-85.2	-88.6	3.0	1.56e+00	0	46	104	0	60	1048574
2026-01-18 05:12:31.71	81.86	1.81	-84.7	-88.6	3.0	1.56e+00	0	46	104	0	60	1048574
2026-01-18 05:12:32.72	81.79	1.87	-85.2	-88.6	3.0	1.56e+00	0	46	104	0	60	1048574
2026-01-18 05:12:33.72	81.73	1.92	-85.2	-88.6	3.1	1.56e+00	0	46	104	0	60	1048575
2026-01-18 05:12:34.73	81.67	1.98	-85.2	-88.6	2.9	1.56e+00	0	46	104	0	60	1048575
2026-01-18 05:12:35.73	81.60	2.04	-85.2	-88.6	2.9	1.56e+00	0	46	104	0	60	1048575
2026-01-18 05:12:36.74	81.54	2.10	-85.2	-88.6	3.3	1.56e+00	0	46	104	0	60	1048575
2026-01-18 05:12:37.75	81.48	2.15	-85.2	-88.6	2.9	1.56e+00	0	46	104	0	60	1048575
2026-01-18 05:12:38.76	81.41	2.21	-85.2	-88.6	3.0	1.55e+00	0	47	104	0	60	1048575
2026-01-18 05:12:39.77	81.35	2.27	-85.2	-88.6	2.9	1.55e+00	0	47	104	0	60	1048575
2026-01-18 05:12:40.77	81.28	2.33	-85.2	-88.6	2.9	1.55e+00	0	46	104	0	60	1048575
2026-01-18 05:12:41.78	81.21	2.38	-85.2	-88.6	3.0	1.55e+00	0	46	104	0	60	1048572
2026-01-18 05:12:42.79	81.15	2.44	-85.2	-88.6	3.0	1.55e+00	0	47	104	0	60	1048574
2026-01-18 05:12:43.80	81.08	2.50	-85.2	-88.6	2.9	1.55e+00	0	46	104	0	60	1048574
2026-01-18 05:12:44.81	81.02	2.56	-85.2	-88.6	3.1	1.56e+00	0	46	104	0	60	1048575
2026-01-18 05:12:45.81	80.95	2.62	-85.2	-88.6	3.2	1.56e+00	0	46	104	0	60	1048573
2026-01-18 05:12:46.82	80.88	2.67	-84.7	-88.6	3.1	1.56e+00	0	46	104	0	60	1048572
2026-01-18 05:12:47.83	80.82	2.73	-85.2	-88.6	3.0	1.56e+00	0	47	104	0	60	1048574
2026-01-18 05:12:48.83	80.75	2.79	-85.2	-88.6	2.8	1.55e+00	0	47	104	0	60	1048575
2026-01-18 05:12:49.84	80.68	2.85	-85.2	-88.6	2.9	1.55e+00	0	47	104	0	60	1048570
2026-01-18 05:12:50.84	80.61	2.91	-85.2	-88.6	3.0	1.56e+00	0	47	104	0	60	1048575
2026-01-18 05:12:51.85	80.54	2.97	-85.2	-88.6	3.0	1.56e+00	0	47	104	0	60	1048575
2026-01-18 05:12:52.85	80.48	3.02	-85.2	-88.6	2.9	1.56e+00	0	47	104	0	60	1048574
2026-01-18 05:12:53.86	80.41	3.08	-85.2	-88.6	3.1	1.56e+00	0	47	104	0	60	1048575
2026-01-18 05:12:54.86	80.34	3.14	-85.2	-88.6	3.0	1.56e+00	0	47	104	0	60	1048575
2026-01-18 05:12:55.87	80.27	3.20	-85.2	-88.6	3.0	1.55e+00	0	47	104	0	60	1048574
2026-01-18 05:12:56.87	80.20	3.26	-85.2	-88.6	3.0	1.56e+00	0	47	104	0	60	1048575
2026-01-18 05:12:57.88	80.13	3.32	-85.2	-88.6	3.1	1.56e+00	0	47	104	0	60	1048571
2026-01-18 05:12:58.88	80.06	3.38	-85.2	-88.6	3.0	1.55e+00	0	47	104	0	60	1048575
2026-01-18 05:12:59.89	79.99	3.44	-85.2	-88.6	2.9	1.56e+00	0	47	104	0	60	1048575
2026-01-18 05:13:00.90	79.92	3.50	-85.2	-88.6	2.8	1.56e+00	0	47	104	0	60	1048575
2026-01-18 05:13:01.90	79.85	3.55	-85.2	-88.6	3.1	1.56e+00	0	47	104	0	60	1048574
2026-01-18 05:13:02.91	79.78	3.61	-85.2	-88.6	3.1	1.55e+00	0	47	104	0	60	1048574
2026-01-18 05:13:03.92	79.70	3.67	-85.2	-88.6	3.0	1.56e+00	0	47	104	0	60	1048575
2026-01-18 05:13:04.92	79.63	3.73	-85.2	-88.6	3.1	1.56e+00	0	47	104	0	60	1048572
2026-01-18 05:13:05.92	79.56	3.79	-85.2	-88.6	2.8	1.55e+00	0	47	104	0	60	1048575
2026-01-18 05:13:06.93	79.49	3.85	-85.2	-88.6	3.0	1.56e+00	0	47	104	0	60	1048574
2026-01-18 05:13:07.93	79.41	3.91	-85.2	-88.6	3.1	1.56e+00	0	47	104	0	60	1048574
2026-01-18 05:13:08.94	79.34	3.97	-85.2	-88.6	2.8	1.56e+00	0	47	104	0	60	1048575
2026-01-18 05:13:09.95	79.27	4.03	-85.2	-88.6	3.0	1.56e+00	0	47	104	0	60	1048574
2026-01-18 05:13:10.94	79.19	4.09	-85.2	-88.6	3.0	1.56e+00	0	47	104	0	60	1048574
2026-01-18 05:13:11.95	79.12	4.15	-85.2	-88.6	3.0	1.56e+00	0	47	104	0	60	1048575
2026-01-18 05:13:12.96	79.04	4.21	-85.2	-88.6	3.1	1.56e+00	0	47	104	0	60	1048575
2026-01-18 05:13:13.97	78.97	4.27	-85.2	-88.6	2.9	1.56e+00	0	47	104	0	60	1048574
2026-01-18 05:13:14.97	78.89	4.33	-85.2	-88.6	3.1	1.56e+00	0	47	104	0	60	1048573
2026-01-18 05:13:15.98	78.82	4.39	-84.3	-88.6	3.1	1.56e+00	0	47	104	0	60	1048575
2026-01-18 05:13:16.99	78.74	4.45	-84.7	-88.6	3.1	1.56e+00	0	47	104	0	60	1048574
2026-01-18 05:13:18.00	78.67	4.51	-85.2	-88.6	2.7	1.56e+00	0	47	104	0	60	1048575
2026-01-18 05:13:19.00	78.59	4.58	-85.2	-88.6	3.2	1.56e+00	0	47	104	0	60	1048575
2026-01-18 05:13:20.01	78.51	4.64	-85.2	-88.6	2.9	1.55e+00	0	47	104	0	60	1048575
2026-01-18 05:13:21.02	78.44	4.70	-85.2	-88.6	3.1	1.56e+00	0	47	104	0	60	1048570
2026-01-18 05:13:22.03	78.36	4.76	-85.2	-88.6	2.9	1.56e+00	0	47	104	0	60	1048574
2026-01-18 05:13:23.03	78.28	4.82	-85.2	-88.6	2.9	1.56e+00	0	47	104	0	60	1048574
2026-01-18 05:13:24.04	78.20	4.88	-85.2	-88.6	2.9	1.55e+00	0	47	104	0	60	1048575
2026-01-18 05:13:25.04	78.12	4.94	-85.2	-88.6	2.9	1.55e+00	0	47	104	0	60	1048574
2026-01-18 05:13:26.05	78.04	5.00	-84.3	-88.6	3.0	1.56e+00	0	47	104	0	60	1048572
2026-01-18 05:13:27.06	77.97	5.07	-85.2	-88.6	2.9	1.56e+00	0	47	104	0	60	1048574
2026-01-18 05:13:28.06	77.89	5.13	-85.2	-88.6	3.1	1.56e+00	0	47	104	0	60	1048570
2026-01-18 05:13:29.06	77.81	5.19	-84.7	-88.6	3.0	1.56e+00	0	47	104	0	60	1048575
2026-01-18 05:13:30.06	77.73	5.25	-85.2	-88.6	2.9	1.56e+00	0	47	104	0	60	1048573
2026-01-18 05:13:31.07	77.65	5.31	-85.2	-88.6	3.0	1.55e+00	0	47	104	0	60	1048574
2026-01-18 05:13:32.08	77.56	5.37	-85.2	-88.6	3.0	1.56e+00	0	47	104	0	60	1048573
2026-01-18 05:13:33.09	77.48	5.44	-85.2	-88.6	3.1	1.56e+00	0	47	104	0	60	1048575
2026-01-18 05:13:34.09	77.40	5.50	-85.2	-88.6	3.1	1.56e+00	0	47	104	0	60	1048575
2026-01-18 05:13:35.10	77.32	5.56	-85.2	-88.6	3.0	1.56e+00	0	47	104	0	60	1048574
2026-01-18 05:13:36.11	77.24	5.62	-85.2	-88.6	3.0	1.56e+00	0	47	104	0	60	1048574
2026-01-18 05:13:37.12	77.15	5.69	-85.2	-88.6	3.0	1.55e+00	0	47	104	0	60	1048575
2026-01-18 05:13:38.12	77.07	5.75	-85.2	-88.6	3.0	1.56e+00	0	47	104	0	60	1048568
2026-01-18 05:13:39.12	76.99	5.81	-85.2	-88.6	2.9	1.56e+00	0	47	104	0	60	1048575
2026-01-18 05:13:40.13	76.90	5.87	-85.2	-88.6	3.0	1.56e+00	0	47	104	0	60	1048575
2026-01-18 05:13:41.14	76.82	5.94	-84.3	-88.6	2.9	1.56e+00	0	47	104	0	60	1048571
2026-01-18 05:13:42.14	76.73	6.00	-85.2	-88.6	3.0	1.56e+00	0	47	104	0	60	1048575
2026-01-18 05:13:43.15	76.65	6.06	-85.2	-88.6	3.1	1.56e+00	0	47	104	0	60	1048575
2026-01-18 05:13:44.16	76.56	6.12	-85.2	-88.6	3.0	1.55e+00	0	47	104	0	60	1048574
2026-01-18 05:13:45.16	76.48	6.19	-85.2	-88.6	3.0	1.56e+00	0	47	104	0	60	1048570
2026-01-18 05:13:46.17	76.39	6.25	-85.2	-88.6	3.0	1.55e+00	0	47	104	0	60	1048574
2026-01-18 05:13:47.18	76.30	6.31	-85.2	-88.6	2.8	1.56e+00	0	47	104	0	60	1048574
2026-01-18 05:13:48.19	76.22	6.38	-85.2	-88.6	3.1	1.55e+00	0	47	104	0	60	1048574
2026-01-18 05:13:49.20	76.13	6.44	-85.2	-88.6	2.8	1.56e+00	0	47	104	0	60	1048575
2026-01-18 05:13:50.21	76.04	6.51	-85.2	-88.6	3.0	1.56e+00	0	47	104	0	60	1048574
2026-01-18 05:13:51.21	75.95	6.57	-84.3	-88.6	3.0	1.56e+00	0	47	104	0	60	1048574
2026-01-18 05:13:52.22	75.87	6.63	-85.2	-88.6	2.9	1.56e+00	0	47	104	0	60	1048574
2026-01-18 05:13:53.22	75.78	6.70	-85.2	-88.6	2.9	1.56e+00	0	47	104	0	60	1048572
2026-01-18 05:13:54.23	75.69	6.76	-85.2	-88.6	2.9	1.56e+00	0	47	104	0	60	1048574
2026-01-18 05:13:55.24	75.60	6.83	-85.2	-88.6	3.0	1.55e+00	0	47	104	0	60	1048575
2026-01-18 05:13:56.25	75.51	6.89	-85.2	-88.6	3.0	1.56e+00	0	47	104	0	60	1048575
2026-01-18 05:13:57.25	75.42	6.95	-85.2	-88.6	3.1	1.55e+00	0	47	104	0	60	1048574
2026-01-18 05:13:58.26	75.33	7.02	-85.2	-88.6	3.1	1.56e+00	0	47	104	0	60	1048575
2026-01-18 05:13:59.26	75.23	7.08	-85.2	-88.6	3.1	1.55e+00	0	47	104	0	60	1048575
2026-01-18 05:14:00.26	75.14	7.15	-85.2	-88.6	3.1	1.55e+00	0	47	104	0	60	1048572
2026-01-18 05:14:01.27	75.05	7.21	-85.2	-88.6	3.1	1.56e+00	0	47	104	0	60	1048573
2026-01-18 05:14:02.27	74.96	7.28	-85.2	-88.6	2.9	1.56e+00	0	47	104	0	60	1048575
2026-01-18 05:14:03.27	74.87	7.34	-85.2	-88.6	3.1	1.56e+00	0	47	104	0	60	1048572
2026-01-18 05:14:04.28	74.77	7.40	-85.2	-88.6	3.2	1.56e+00	0	47	104	0	60	1048575
2026-01-18 05:14:05.29	74.68	7.47	-85.2	-88.6	3.0	1.56e+00	0	47	104	0	60	1048575
2026-01-18 05:14:06.29	74.58	7.53	-84.3	-88.6	3.1	1.55e+00	0	47	104	0	60	1048575
2026-01-18 05:14:07.30	74.49	7.60	-85.2	-88.6	2.9	1.56e+00	0	47	104	0	60	1048574
2026-01-18 05:14:08.31	74.39	7.67	-85.2	-88.6	3.1	1.55e+00	0	47	104	0	60	1048574
2026-01-18 05:14:09.32	74.30	7.73	-85.2	-88.6	3.0	1.56e+00	0	47	104	0	60	1048575
2026-01-18 05:14:10.33	74.20	7.80	-85.2	-88.6	2.9	1.56e+00	0	47	104	0	60	1048574
2026-01-18 05:14:11.33	74.10	7.86	-85.2	-88.6	3.1	1.56e+00	0	47	104	0	60	1048574
2026-01-18 05:14:12.34	74.01	7.93	-85.2	-88.6	2.9	1.56e+00	0	47	104	0	60	1048573
2026-01-18 05:14:13.35	73.91	7.99	-85.2	-88.6	3.1	1.55e+00	0	47	104	0	60	1048575
2026-01-18 05:14:14.36	73.81	8.06	-85.2	-88.6	2.8	1.56e+00	0	47	104	0	60	1048575
2026-01-18 05:14:15.36	73.71	8.13	-84.3	-88.6	2.9	1.56e+00	0	47	104	0	60	1048573
2026-01-18 05:14:16.37	73.61	8.19	-85.2	-88.6	2.7	1.56e+00	0	47	104	0	60	1048575
2026-01-18 05:14:17.37	73.51	8.26	-85.2	-88.6	2.9	1.56e+00	0	47	104	0	60	1048574
2026-01-18 05:14:18.38	73.41	8.32	-85.2	-88.6	3.0	1.56e+00	0	47	104	0	60	1048575
2026-01-18 05:14:19.39	73.31	8.39	-85.2	-88.6	2.8	1.56e+00	0	47	104	0	60	1048573
2026-01-18 05:14:20.39	73.21	8.46	-85.2	-88.6	3.1	1.56e+00	0	47	104	0	60	1048575
2026-01-18 05:14:21.40	73.11	8.52	-85.2	-88.6	3.0	1.56e+00	0	47	104	0	60	1048574
2026-01-18 05:14:22.41	73.01	8.59	-85.2	-88.6	2.9	1.55e+00	0	47	104	0	60	1048575
2026-01-18 05:14:23.42	72.91	8.66	-85.2	-88.6	3.1	1.55e+00	0	47	104	0	60	1048575
2026-01-18 05:14:24.43	72.80	8.72	-85.2	-88.6	2.9	1.56e+00	0	47	104	0	60	1048574
2026-01-18 05:14:25.43	72.70	8.79	-83.5	-88.6	3.0	1.56e+00	0	47	104	0	60	1048575
2026-01-18 05:14:26.44	72.60	8.86	-85.2	-88.6	3.2	1.56e+00	0	47	104	0	60	1048571
2026-01-18 05:14:27.45	72.49	8.92	-85.2	-88.6	2.9	1.56e+00	0	47	104	0	60	1048573
2026-01-18 05:14:28.45	72.39	8.99	-85.2	-88.6	3.0	1.55e+00	0	47	104	0	60	1048575
2026-01-18 05:14:29.46	72.28	9.06	-85.2	-88.6	2.9	1.56e+00	0	47	104	0	60	1048575
2026-01-18 05:14:30.46	72.18	9.12	-85.2	-88.6	2.9	1.56e+00	0	47	104	0	60	1048574
2026-01-18 05:14:31.47	72.07	9.19	-85.2	-88.6	2.7	1.55e+00	0	47	104	0	60	1048574
2026-01-18 05:14:32.47	71.97	9.26	-85.2	-88.6	3.0	1.56e+00	0	47	104	0	60	1048574
2026-01-18 05:14:33.47	71.86	9.33	-85.2	-88.6	3.0	1.56e+00	0	47	104	0	60	1048575
2026-01-18 05:14:34.48	71.75	9.39	-85.2	-88.6	3.1	1.56e+00	0	47	104	0	60	1048574
2026-01-18 05:14:35.49	71.64	9.46	-85.2	-88.6	3.1	1.56e+00	0	47	104	0	60	1048575
2026-01-18 05:14:36.49	71.53	9.53	-84.3	-88.6	3.1	1.56e+00	0	47	104	0	60	1048573
2026-01-18 05:14:37.50	71.42	9.60	-85.2	-88.6	2.7	1.55e+00	0	47	104	0	60	1048575
2026-01-18 05:14:38.51	71.31	9.67	-85.2	-88.6	2.8	1.56e+00	0	47	104	0	60	1048575
2026-01-18 05:14:39.51	71.21	9.73	-85.2	-88.6	2.8	1.56e+00	0	47	104	0	60	1048575
2026-01-18 05:14:40.52	71.09	9.80	-85.2	-88.6	3.1	1.55e+00	0	47	104	0	60	1048575
2026-01-18 05:14:41.53	70.98	9.87	-85.2	-88.6	3.0	1.55e+00	0	47	104	0	60	1048575
2026-01-18 05:14:42.54	70.87	9.94	-85.2	-88.6	3.0	1.55e+00	0	47	104	0	60	1048574
2026-01-18 05:14:43.54	70.76	10.01	-85.2	-88.6	2.9	1.56e+00	0	47	104	0	60	1048575
2026-01-18 05:14:44.55	70.64	10.07	-85.2	-88.6	3.1	1.55e+00	0	47	104	0	60	1048574
2026-01-18 05:14:45.56	70.53	10.14	-84.3	-88.6	3.0	1.56e+00	0	47	104	0	60	1048574
2026-01-18 05:14:46.57	70.42	10.21	-85.2	-88.6	2.9	1.56e+00	0	47	104	0	60	1048574
2026-01-18 05:14:47.58	70.30	10.28	-85.2	-88.6	3.1	1.56e+00	0	47	104	0	60	1048575
2026-01-18 05:14:48.58	70.19	10.35	-85.2	-88.6	2.9	1.55e+00	0	47	104	0	60	1048575
2026-01-18 05:14:49.59	70.07	10.42	-85.2	-88.6	3.1	1.56e+00	0	47	104	0	60	1048574
2026-01-18 05:14:50.60	69.95	10.49	-85.2	-88.6	3.1	1.56e+00	0	47	104	0	60	1048574
2026-01-18 05:14:51.60	69.84	10.56	-85.2	-88.6	3.0	1.56e+00	0	47	104	0	60	1048573
2026-01-18 05:14:52.61	69.72	10.62	-85.2	-88.6	2.9	1.56e+00	0	47	104	0	60	1048573
2026-01-18 05:14:53.61	69.60	10.69	-85.2	-88.6	3.2	1.56e+00	0	47	104	0	60	1048575
2026-01-18 05:14:54.62	69.48	10.76	-85.2	-88.6	2.9	1.56e+00	0	47	104	0	60	1048574
2026-01-18 05:14:55.62	69.37	10.83	-84.7	-88.6	2.8	1.56e+00	0	47	104	0	60	1048573
2026-01-18 05:14:56.63	69.25	10.90	-85.2	-88.6	2.7	1.55e+00	0	47	104	0	60	1048573
2026-01-18 05:14:57.64	69.12	10.97	-85.2	-88.6	3.1	1.56e+00	0	47	104	0	60	1048571
2026-01-18 05:14:58.65	69.00	11.04	-85.2	-88.6	3.0	1.56e+00	0	47	104	0	60	1048574
2026-01-18 05:14:59.65	68.88	11.11	-85.2	-88.6	3.1	1.56e+00	0	47	104	0	60	1048573
2026-01-18 05:15:00.65	68.76	11.18	-85.2	-88.6	3.2	1.56e+00	0	47	104	0	60	1048573
2026-01-18 05:15:01.66	68.64	11.25	-85.2	-88.6	3.0	1.56e+00	0	47	104	0	60	1048575
2026-01-18 05:15:02.66	68.52	11.32	-85.2	-88.6	3.1	1.55e+00	0	47	104	0	60	1048574
2026-01-18 05:15:03.67	68.39	11.39	-85.2	-88.6	3.0	1.55e+00	0	47	104	0	60	1048575
2026-01-18 05:15:04.67	68.27	11.46	-85.2	-88.6	3.1	1.56e+00	0	47	104	0	60	1048575
2026-01-18 05:15:05.68	68.14	11.53	-84.3	-88.6	3.0	1.56e+00	0	47	104	0	60	1048575
2026-01-18 05:15:06.68	68.02	11.60	-85.2	-88.6	3.0	1.56e+00	0	47	104	0	60	1048575
2026-01-18 05:15:07.68	67.89	11.67	-85.2	-88.6	3.0	1.56e+00	0	47	104	0	60	1048574
2026-01-18 05:15:08.69	67.77	11.74	-85.2	-88.6	3.0	1.55e+00	0	47	104	0	60	1048574
2026-01-18 05:15:09.70	67.64	11.81	-85.2	-88.6	2.8	1.56e+00	0	47	104	0	60	1048574
2026-01-18 05:15:10.71	67.51	11.88	-84.3	-88.6	2.9	1.56e+00	0	47	104	0	60	1048573
2026-01-18 05:15:11.72	67.38	11.95	-85.2	-88.6	3.0	1.56e+00	0	47	104	0	60	1048575
2026-01-18 05:15:12.73	67.25	12.02	-85.2	-88.6	3.1	1.55e+00	0	47	104	0	60	1048574
2026-01-18 05:15:13.73	67.12	12.09	-85.2	-88.6	3.0	1.56e+00	0	47	104	0	60	1048573
2026-01-18 05:15:14.74	66.99	12.16	-85.2	-88.6	3.1	1.56e+00	0	47	104	0	60	1048570
2026-01-18 05:15:15.75	66.86	12.23	-85.2	-88.6	3.1	1.56e+00	0	47	104	0	60	1048571
2026-01-18 05:15:16.76	66.73	12.30	-85.2	-88.6	2.9	1.56e+00	0	47	104	0	60	1048570
2026-01-18 05:15:17.77	66.59	12.37	-85.2	-88.6	2.9	1.56e+00	0	47	104	0	60	1048575
2026-01-18 05:15:18.77	66.46	12.44	-85.2	-88.6	3.0	1.56e+00	0	47	104	0	60	1048575
2026-01-18 05:15:19.77	66.33	12.51	-85.2	-88.6	2.9	1.56e+00	0	47	104	0	60	1048573
2026-01-18 05:15:20.78	66.19	12.58	-85.2	-88.6	3.2	1.56e+00	0	47	104	0	60	1048575
2026-01-18 05:15:21.78	66.06	12.65	-85.2	-88.6	2.9	1.55e+00	0	47	104	0	60	1048574
2026-01-18 05:15:22.79	65.92	12.72	-85.2	-88.6	3.0	1.56e+00	0	47	104	0	60	1048575
2026-01-18 05:15:23.80	65.78	12.80	-85.2	-88.6	3.1	1.55e+00	0	47	104	0	60	1048575
2026-01-18 05:15:24.80	65.65	12.87	-85.2	-88.6	3.1	1.55e+00	0	47	104	0	60	1048575
2026-01-18 05:15:25.81	65.51	12.94	-85.2	-88.6	3.0	1.56e+00	0	47	104	0	60	1048575
2026-01-18 05:15:26.81	65.37	13.01	-84.7	-88.6	3.0	1.56e+00	0	47	104	0	60	1048574
2026-01-18 05:15:27.82	65.23	13.08	-85.2	-88.6	3.1	1.56e+00	0	47	104	0	60	1048573
2026-01-18 05:15:28.83	65.09	13.15	-85.2	-88.6	3.0	1.56e+00	0	47	104	0	60	1048574
2026-01-18 05:15:29.83	64.95	13.22	-85.2	-88.6	3.0	1.55e+00	0	47	104	0	60	1048575
2026-01-18 05:15:30.84	64.81	13.29	-85.2	-88.6	2.9	1.56e+00	0	47	104	0	60	1048574
2026-01-18 05:15:31.85	64.67	13.36	-85.2	-88.6	2.9	1.56e+00	0	47	104	0	60	1048575
2026-01-18 05:15:32.85	64.53	13.44	-85.2	-88.6	2.8	1.56e+00	0	47	104	0	60	1048569
2026-01-18 05:15:33.85	64.38	13.51	-85.2	-88.6	3.0	1.55e+00	0	47	104	0	60	1048571
2026-01-18 05:15:34.86	64.24	13.58	-85.2	-88.6	2.8	1.56e+00	0	47	104	0	60	1048575
2026-01-18 05:15:35.87	64.09	13.65	-85.2	-88.6	3.1	1.56e+00	0	47	104	0	60	1048575
2026-01-18 05:15:36.88	63.95	13.72	-84.7	-88.6	3.0	1.56e+00	0	47	104	0	60	1048572
2026-01-18 05:15:37.88	63.80	13.79	-85.2	-88.6	2.8	1.55e+00	0	47	104	0	60	1048574
2026-01-18 05:15:38.89	63.65	13.86	-85.2	-88.6	3.0	1.56e+00	0	47	104	0	60	1048575
2026-01-18 05:15:39.89	63.51	13.93	-85.2	-88.6	3.1	1.55e+00	0	47	104	0	60	1048574
2026-01-18 05:15:40.90	63.36	14.01	-85.2	-88.6	3.0	1.56e+00	0	47	104	0	60	1048575
2026-01-18 05:15:41.90	63.21	14.08	-85.2	-88.6	3.0	1.56e+00	0	47	104	0	60	1048575
2026-01-18 05:15:42.91	63.06	14.15	-85.2	-88.6	3.0	1.55e+00	0	47	104	0	60	1048575
2026-01-18 05:15:43.92	62.91	14.22	-85.2	-88.6	2.9	1.56e+00	0	47	104	0	60	1048575
2026-01-18 05:15:44.92	62.76	14.29	-85.2	-88.6	3.3	1.56e+00	0	47	104	0	60	1048575
2026-01-18 05:15:45.93	62.61	14.36	-85.2	-88.6	2.9	1.56e+00	0	47	104	0	60	1048574
2026-01-18 05:15:46.94	62.45	14.43	-85.2	-88.6	3.3	1.56e+00	0	47	104	0	60	1048575
2026-01-18 05:15:47.95	62.30	14.51	-85.2	-88.6	3.0	1.56e+00	0	47	104	0	60	1048573
2026-01-18 05:15:48.96	62.14	14.58	-85.2	-88.6	2.9	1.56e+00	0	47	104	0	60	1048572
2026-01-18 05:15:49.96	61.99	14.65	-85.2	-88.6	2.9	1.56e+00	0	47	104	0	60	1048573
2026-01-18 05:15:50.97	61.83	14.72	-85.2	-88.6	2.9	1.56e+00	0	47	104	0	60	1048575
2026-01-18 05:15:51.98	61.68	14.79	-85.2	-88.6	3.0	1.56e+00	0	47	104	0	60	1048573
2026-01-18 05:15:52.98	61.52	14.86	-85.2	-88.6	2.9	1.56e+00	0	47	104	0	60	1048574
2026-01-18 05:15:53.99	61.36	14.94	-85.2	-88.6	2.9	1.56e+00	0	47	104	0	60	1048574
2026-01-18 05:15:54.99	61.20	15.01	-85.2	-88.6	2.8	1.56e+00	0	47	104	0	60	1048575
2026-01-18 05:15:55.99	61.04	15.08	-84.7	-88.6	2.9	1.56e+00	0	47	104	0	60	1048575
2026-01-18 05:15:57.00	60.88	15.15	-85.2	-88.6	2.7	1.56e+00	0	47	104	0	60	1048575
2026-01-18 05:15:58.00	60.72	15.22	-85.2	-88.6	2.8	1.56e+00	0	47	104	0	60	1048575
2026-01-18 05:15:59.01	60.56	15.29	-85.2	-88.6	2.9	1.55e+00	0	47	104	0	60	1048572
2026-01-18 05:16:00.01	60.40	15.36	-85.2	-88.6	2.6	1.56e+00	0	47	104	0	60	1048574
2026-01-18 05:16:01.02	60.23	15.43	-85.2	-88.6	2.9	1.56e+00	0	47	104	0	60	1048575
2026-01-18 05:16:02.02	60.07	15.50	-85.2	-88.6	3.1	1.56e+00	0	47	104	0	60	1048575
2026-01-18 05:16:03.03	59.91	15.58	-85.2	-88.6	3.1	1.56e+00	0	47	104	0	60	1048575
2026-01-18 05:16:04.04	59.74	15.65	-85.2	-88.6	3.0	1.56e+00	0	47	104	0	60	1048571
2026-01-18 05:16:05.04	59.57	15.72	-85.2	-88.6	2.8	1.55e+00	0	47	104	0	60	1048575
2026-01-18 05:16:06.05	59.40	15.79	-85.2	-88.6	3.0	1.56e+00	0	47	104	0	60	1048575
2026-01-18 05:16:07.06	59.24	15.86	-85.2	-88.6	2.9	1.56e+00	0	47	104	0	60	1048574
2026-01-18 05:16:08.07	59.07	15.93	-85.2	-88.6	3.0	1.55e+00	0	47	104	0	60	1048575
2026-01-18 05:16:09.08	58.90	16.00	-85.2	-88.6	2.9	1.55e+00	0	47	104	0	60	1048575
2026-01-18 05:16:10.08	58.73	16.07	-85.2	-88.6	3.1	1.56e+00	0	47	104	0	60	1048574
2026-01-18 05:16:11.09	58.55	16.15	-85.2	-88.6	2.7	1.56e+00	0	47	104	0	60	1048570
2026-01-18 05:16:12.10	58.38	16.22	-85.2	-88.6	3.0	1.56e+00	0	47	104	0	60	1048575
2026-01-18 05:16:13.10	58.21	16.29	-85.2	-88.6	2.9	1.56e+00	0	47	104	0	60	1048575
2026-01-18 05:16:14.11	58.03	16.36	-85.2	-88.6	3.1	1.56e+00	0	47	104	0	60	1048573
2026-01-18 05:16:15.12	57.86	16.43	-85.2	-88.6	3.0	1.56e+00	0	47	104	0	60	1048575
2026-01-18 05:16:16.13	57.68	16.50	-85.2	-88.6	3.1	1.55e+00	0	47	104	0	60	1048575
2026-01-18 05:16:17.13	57.51	16.57	-85.2	-88.6	2.9	1.56e+00	0	47	104	0	60	1048575
2026-01-18 05:16:18.14	57.33	16.64	-85.2	-88.6	2.9	1.56e+00	0	47	104	0	60	1048571
2026-01-18 05:16:19.15	57.15	16.71	-85.2	-88.6	2.9	1.56e+00	0	47	104	0	60	1048575
2026-01-18 05:16:20.15	56.97	16.78	-85.2	-88.6	3.0	1.55e+00	0	47	104	0	60	1048575
2026-01-18 05:16:21.16	56.79	16.85	-85.2	-88.6	3.0	1.56e+00	0	47	104	0	60	1048574
2026-01-18 05:16:22.17	56.61	16.92	-85.2	-88.6	3.0	1.56e+00	0	47	104	0	60	1048574
2026-01-18 05:16:23.18	56.43	16.99	-85.2	-88.6	3.2	1.56e+00	0	47	104	0	60	1048574
2026-01-18 05:16:24.19	56.24	17.06	-85.2	-88.6	3.0	1.56e+00	0	47	104	0	60	1048572
2026-01-18 05:16:25.19	56.06	17.13	-85.2	-88.6	3.1	1.56e+00	0	47	104	0	60	1048574
2026-01-18 05:16:26.20	55.87	17.20	-85.2	-88.6	3.0	1.56e+00	0	47	104	0	60	1048574
2026-01-18 05:16:27.20	55.69	17.27	-85.2	-88.6	3.2	1.56e+00	0	47	104	0	60	1048575
2026-01-18 05:16:28.21	55.50	17.34	-85.2	-88.6	3.0	1.56e+00	0	47	104	0	60	1048575
2026-01-18 05:16:29.22	55.32	17.41	-85.2	-88.6	3.1	1.56e+00	0	47	104	0	60	1048574
2026-01-18 05:16:30.22	55.13	17.48	-85.2	-88.6	2.9	1.56e+00	0	47	104	0	60	1048572
2026-01-18 05:16:31.22	54.94	17.55	-85.2	-88.6	3.0	1.56e+00	0	47	104	0	60	1048575
2026-01-18 05:16:32.23	54.75	17.62	-85.2	-88.6	2.9	1.56e+00	0	47	104	0	60	1048574
2026-01-18 05:16:33.24	54.56	17.68	-85.2	-88.6	2.9	1.56e+00	0	47	104	0	60	1048575
2026-01-18 05:16:34.25	54.37	17.75	-85.2	-88.6	3.0	1.56e+00	0	47	104	0	60	1048575
2026-01-18 05:16:35.25	54.18	17.82	-85.2	-88.6	3.1	1.56e+00	0	47	104	0	60	1048575
2026-01-18 05:16:36.26	53.98	17.89	-85.2	-88.6	3.0	1.55e+00	0	47	104	0	60	1048574
2026-01-18 05:16:37.27	53.79	17.96	-85.2	-88.6	2.9	1.55e+00	0	47	104	0	60	1048575
2026-01-18 05:16:38.28	53.59	18.03	-85.2	-88.6	2.8	1.55e+00	0	47	104	0	60	1048575
2026-01-18 05:16:39.28	53.40	18.09	-85.2	-88.6	2.9	1.56e+00	0	47	104	0	60	1048574
2026-01-18 05:16:40.29	53.20	18.16	-85.2	-88.6	3.0	1.56e+00	0	47	104	0	60	1048575
2026-01-18 05:16:41.30	53.00	18.23	-85.2	-88.6	3.0	1.56e+00	0	47	104	0	60	1048574
2026-01-18 05:16:42.31	52.80	18.30	-85.2	-88.6	2.9	1.56e+00	0	47	104	0	60	1048575
2026-01-18 05:16:43.32	52.60	18.37	-85.2	-88.6	3.1	1.56e+00	0	47	104	0	60	1048574
2026-01-18 05:16:44.32	52.41	18.43	-85.2	-88.6	3.2	1.56e+00	0	47	104	0	60	1048573
2026-01-18 05:16:45.33	52.20	18.50	-85.2	-88.6	2.9	1.56e+00	0	47	104	0	60	1048575
2026-01-18 05:16:46.34	52.00	18.57	-85.2	-88.6	3.2	1.56e+00	0	47	104	0	60	1048575
2026-01-18 05:16:47.34	51.80	18.63	-84.7	-88.6	2.8	1.56e+00	0	47	104	0	60	1048572
2026-01-18 05:16:48.35	51.60	18.70	-85.2	-88.6	2.7	1.56e+00	0	47	104	0	60	1048575
2026-01-18 05:16:49.36	51.39	18.76	-85.2	-88.6	2.9	1.55e+00	0	47	104	0	60	1048575
2026-01-18 05:16:50.36	51.19	18.83	-85.2	-88.6	3.1	1.55e+00	0	47	104	0	60	1048575
2026-01-18 05:16:51.37	50.98	18.90	-85.2	-88.6	2.9	1.55e+00	0	47	104	0	60	1048575
2026-01-18 05:16:52.38	50.77	18.96	-85.2	-88.6	3.0	1.56e+00	0	47	104	0	60	1048575
2026-01-18 05:16:53.39	50.56	19.03	-85.2	-88.6	2.6	1.56e+00	0	47	104	0	60	1048574
2026-01-18 05:16:54.40	50.35	19.09	-85.2	-88.6	3.1	1.56e+00	0	47	104	0	60	1048575
2026-01-18 05:16:55.40	50.14	19.16	-85.2	-88.6	3.0	1.56e+00	0	47	104	0	60	1048573
2026-01-18 05:16:56.41	49.93	19.22	-85.2	-88.6	3.0	1.56e+00	0	47	104	0	60	1048575
2026-01-18 05:16:57.42	49.72	19.29	-85.2	-88.6	2.9	1.56e+00	0	47	104	0	60	1048575
2026-01-18 05:16:58.43	49.50	19.35	-85.2	-88.6	2.8	1.55e+00	0	47	104	0	60	1048573
2026-01-18 05:16:59.43	49.29	19.41	-85.2	-88.6	3.0	1.56e+00	0	47	104	0	60	1048574
2026-01-18 05:17:00.43	49.08	19.48	-85.2	-88.6	3.0	1.56e+00	0	47	104	0	60	1048574
2026-01-18 05:17:01.44	48.86	19.54	-85.2	-88.6	3.1	1.56e+00	0	47	104	0	60	1048575
2026-01-18 05:17:02.45	48.65	19.60	-85.2	-88.6	3.1	1.55e+00	0	47	104	0	60	1048574
2026-01-18 05:17:03.45	48.43	19.67	-85.2	-88.6	3.0	1.56e+00	0	47	104	0	60	1048575
2026-01-18 05:17:04.46	48.21	19.73	-85.2	-88.6	3.0	1.56e+00	0	47	104	0	60	1048575
2026-01-18 05:17:05.47	47.99	19.79	-85.2	-88.6	2.9	1.56e+00	0	47	104	0	60	1048575
2026-01-18 05:17:06.47	47.77	19.85	-85.2	-88.6	3.0	1.56e+00	0	47	104	0	60	1048575
2026-01-18 05:17:07.48	47.55	19.91	-85.2	-88.6	3.0	1.56e+00	0	47	104	0	60	1048575
2026-01-18 05:17:08.49	47.33	19.98	-85.2	-88.6	3.1	1.55e+00	0	47	104	0	60	1048575
2026-01-18 05:17:09.49	47.11	20.04	-85.2	-88.6	3.1	1.55e+00	0	47	104	0	60	1048575
2026-01-18 05:17:10.50	46.88	20.10	-85.2	-88.6	3.1	1.56e+00	0	47	104	0	60	1048574
2026-01-18 05:17:11.51	46.66	20.16	-85.2	-88.6	3.1	1.56e+00	0	47	104	0	60	1048575
2026-01-18 05:17:12.52	46.43	20.22	-85.2	-88.6	3.1	1.56e+00	0	47	104	0	60	1048575
2026-01-18 05:17:13.52	46.21	20.28	-85.2	-88.6	3.0	1.56e+00	0	47	104	0	60	1048575
2026-01-18 05:17:14.53	45.98	20.34	-85.2	-88.6	3.2	1.56e+00	0	47	104	0	60	1048575
2026-01-18 05:17:15.54	45.75	20.40	-85.2	-88.6	3.0	1.56e+00	0	47	104	0	60	1048573
2026-01-18 05:17:16.54	45.52	20.45	-84.7	-88.6	3.1	1.56e+00	0	47	104	0	60	1048575
2026-01-18 05:17:17.55	45.29	20.51	-85.2	-88.6	3.0	1.56e+00	0	47	104	0	60	1048574
2026-01-18 05:17:18.56	45.06	20.57	-85.2	-88.6	3.0	1.55e+00	0	47	104	0	60	1048572
2026-01-18 05:17:19.56	44.83	20.63	-85.2	-88.6	2.9	1.56e+00	0	47	104	0	60	1048574
2026-01-18 05:17:20.57	44.60	20.69	-85.2	-88.6	2.9	1.55e+00	0	47	104	0	60	1048573
2026-01-18 05:17:21.58	44.36	20.74	-85.2	-88.6	3.0	1.56e+00	0	47	104	0	60	1048575
2026-01-18 05:17:22.58	44.13	20.80	-85.2	-88.6	2.9	1.55e+00	0	47	104	0	60	1048575
2026-01-18 05:17:23.59	43.89	20.86	-85.2	-88.6	3.1	1.55e+00	0	47	104	0	60	1048575
2026-01-18 05:17:24.60	43.66	20.91	-85.2	-88.6	2.9	1.56e+00	0	47	104	0	60	1048575
2026-01-18 05:17:25.61	43.42	20.97	-85.2	-88.6	2.7	1.56e+00	0	47	104	0	60	1048574
2026-01-18 05:17:26.61	43.18	21.02	-85.2	-88.6	3.0	1.56e+00	0	47	104	0	60	1048570
2026-01-18 05:17:27.62	42.94	21.08	-85.2	-88.6	2.9	1.56e+00	0	47	104	0	60	1048575
2026-01-18 05:17:28.63	42.70	21.13	-85.2	-88.6	3.1	1.56e+00	0	47	104	0	60	1048572
2026-01-18 05:17:29.63	42.47	21.18	-85.2	-88.6	2.8	1.55e+00	0	47	104	0	60	1048575
2026-01-18 05:17:30.64	42.22	21.24	-85.2	-88.6	3.1	1.55e+00	0	47	104	0	60	1048571
2026-01-18 05:17:31.64	41.98	21.29	-85.2	-88.6	3.0	1.55e+00	0	47	104	0	60	1048575
2026-01-18 05:17:32.65	41.74	21.34	-85.2	-88.6	3.0	1.55e+00	0	47	104	0	60	1048574
2026-01-18 05:17:33.65	41.50	21.39	-85.2	-88.6	2.8	1.56e+00	0	47	104	0	60	1048575
2026-01-18 05:17:34.66	41.25	21.45	-85.2	-88.6	2.8	1.56e+00	0	47	104	0	60	1048575
2026-01-18 05:17:35.67	41.01	21.50	-85.2	-88.6	2.9	1.56e+00	0	47	104	0	60	1048574
2026-01-18 05:17:36.68	40.76	21.55	-85.2	-88.6	2.8	1.56e+00	0	47	104	0	60	1048574
2026-01-18 05:17:37.68	40.52	21.60	-85.2	-88.6	2.8	1.56e+00	0	47	104	0	60	1048573
2026-01-18 05:17:38.69	40.27	21.65	-85.2	-88.6	3.0	1.56e+00	0	47	104	0	60	1048575
2026-01-18 05:17:39.70	40.02	21.70	-85.2	-88.6	3.0	1.56e+00	0	47	104	0	60	1048575
2026-01-18 05:17:40.70	39.77	21.74	-85.2	-88.6	2.8	1.55e+00	0	47	104	0	60	1048575
2026-01-18 05:17:41.71	39.52	21.79	-85.2	-88.6	3.1	1.56e+00	0	47	104	0	60	1048575
2026-01-18 05:17:42.72	39.27	21.84	-85.2	-88.6	2.9	1.55e+00	0	47	104	0	60	1048573
2026-01-18 05:17:43.73	39.02	21.89	-85.2	-88.6	3.0	1.56e+00	0	47	104	0	60	1048575
2026-01-18 05:17:44.73	38.77	21.94	-85.2	-88.6	3.2	1.56e+00	0	47	104	0	60	1048573
2026-01-18 05:17:45.74	38.51	21.98	-85.2	-88.6	3.3	1.56e+00	0	47	104	0	60	1048575
2026-01-18 05:17:46.75	38.26	22.03	-85.2	-88.6	3.0	1.55e+00	0	47	104	0	60	1048572
2026-01-18 05:17:47.76	38.00	22.07	-85.2	-88.6	2.9	1.55e+00	0	47	104	0	60	1048574
2026-01-18 05:17:48.76	37.75	22.12	-85.2	-88.6	3.0	1.56e+00	0	47	104	0	60	1048573
2026-01-18 05:17:49.77	37.49	22.16	-85.2	-88.6	2.9	1.56e+00	0	47	104	0	60	1048575
2026-01-18 05:17:50.77	37.24	22.20	-85.2	-88.6	2.9	1.55e+00	0	47	104	0	60	1048575
2026-01-18 05:17:51.78	36.98	22.25	-85.2	-88.6	3.2	1.55e+00	0	47	104	0	60	1048571
2026-01-18 05:17:52.79	36.72	22.29	-85.2	-88.6	3.1	1.55e+00	0	47	104	0	60	1048574
2026-01-18 05:17:53.79	36.46	22.33	-85.2	-88.6	2.8	1.56e+00	0	47	104	0	60	1048575
2026-01-18 05:17:54.80	36.20	22.37	-85.2	-88.6	2.7	1.56e+00	0	47	104	0	60	1048575
2026-01-18 05:17:55.80	35.94	22.41	-85.2	-88.6	2.8	1.55e+00	0	47	104	0	60	1048570
2026-01-18 05:17:56.81	35.68	22.45	-85.2	-88.6	2.9	1.55e+00	0	47	104	0	60	1048575
2026-01-18 05:17:57.82	35.42	22.49	-85.2	-88.6	2.9	1.56e+00	0	47	104	0	60	1048573
2026-01-18 05:17:58.83	35.16	22.53	-85.2	-88.6	2.8	1.56e+00	0	47	104	0	60	1048575
2026-01-18 05:17:59.83	34.89	22.57	-85.2	-88.6	3.0	1.56e+00	0	47	104	0	60	1048573
2026-01-18 05:18:00.84	34.63	22.61	-85.2	-88.6	2.8	1.56e+00	0	47	104	0	60	1048573
2026-01-18 05:18:01.85	34.36	22.65	-85.2	-88.6	3.1	1.56e+00	0	47	104	0	60	1048575
2026-01-18 05:18:02.86	34.10	22.68	-85.2	-88.6	3.0	1.55e+00	0	47	104	0	60	1048575
2026-01-18 05:18:03.86	33.84	22.72	-85.2	-88.6	3.0	1.55e+00	0	47	104	0	60	1048574
2026-01-18 05:18:04.86	33.57	22.75	-85.2	-88.6	3.0	1.56e+00	0	47	104	0	60	1048572
2026-01-18 05:18:05.86	33.31	22.79	-85.2	-88.6	2.9	1.56e+00	0	47	104	0	60	1048575
2026-01-18 05:18:06.87	33.04	22.82	-84.3	-88.6	2.8	1.55e+00	0	47	104	0	60	1048575
2026-01-18 05:18:07.88	32.77	22.86	-85.2	-88.6	3.0	1.55e+00	0	47	104	0	60	1048571
2026-01-18 05:18:08.88	32.50	22.89	-85.2	-88.6	2.7	1.56e+00	0	47	104	0	60	1048575
2026-01-18 05:18:09.89	32.23	22.92	-85.2	-88.6	3.1	1.56e+00	0	47	104	0	60	1048575
2026-01-18 05:18:10.90	31.96	22.95	-85.2	-88.6	2.9	1.56e+00	0	47	104	0	60	1048571
2026-01-18 05:18:11.90	31.69	22.99	-85.2	-88.6	2.8	1.56e+00	0	47	104	0	60	1048575
2026-01-18 05:18:12.91	31.42	23.02	-85.2	-88.6	3.2	1.56e+00	0	47	104	0	60	1048575
2026-01-18 05:18:13.91	31.15	23.05	-85.2	-88.6	3.0	1.56e+00	0	47	104	0	60	1048572
2026-01-18 05:18:14.92	30.88	23.07	-85.2	-88.6	3.0	1.55e+00	0	47	104	0	60	1048574
2026-01-18 05:18:15.92	30.61	23.10	-85.2	-88.6	2.7	1.56e+00	0	47	104	0	60	1048574
2026-01-18 05:18:16.93	30.34	23.13	-85.2	-88.6	2.9	1.55e+00	0	47	104	0	60	1048575
2026-01-18 05:18:17.94	30.06	23.16	-85.2	-88.6	2.9	1.56e+00	0	47	104	0	60	1048574
2026-01-18 05:18:18.95	29.79	23.18	-85.2	-88.6	2.9	1.55e+00	0	47	104	0	60	1048575
2026-01-18 05:18:19.96	29.51	23.21	-85.2	-88.6	2.8	1.56e+00	0	47	104	0	60	1048574
2026-01-18 05:18:20.97	29.24	23.24	-85.2	-88.6	3.0	1.55e+00	0	47	104	0	60	1048574
2026-01-18 05:18:21.97	28.96	23.26	-85.2	-88.6	2.9	1.56e+00	0	47	104	0	60	1048575
2026-01-18 05:18:22.98	28.69	23.28	-85.2	-88.6	3.0	1.55e+00	0	47	104	0	60	1048575
2026-01-18 05:18:23.99	28.41	23.31	-85.2	-88.6	2.9	1.56e+00	0	47	104	0	60	1048575
2026-01-18 05:18:25.00	28.13	23.33	-85.2	-88.6	3.0	1.56e+00	0	47	104	0	60	1048573
2026-01-18 05:18:26.00	27.86	23.35	-85.2	-88.6	3.1	1.56e+00	0	47	104	0	60	1048575
2026-01-18 05:18:27.01	27.58	23.37	-83.9	-88.6	3.0	1.56e+00	0	47	104	0	60	1048575
2026-01-18 05:18:28.02	27.30	23.39	-84.7	-88.6	3.0	1.55e+00	0	47	104	0	60	1048575
2026-01-18 05:18:29.02	27.03	23.41	-85.2	-88.6	2.9	1.56e+00	0	47	104	0	60	1048575
2026-01-18 05:18:30.03	26.75	23.43	-85.2	-88.6	2.9	1.56e+00	0	47	104	0	60	1048575
2026-01-18 05:18:31.04	26.47	23.45	-85.2	-88.6	3.0	1.56e+00	0	47	104	0	60	1048575
2026-01-18 05:18:32.04	26.19	23.46	-85.2	-88.6	3.0	1.56e+00	0	47	104	0	60	1048575
2026-01-18 05:18:33.05	25.91	23.48	-85.2	-88.6	2.9	1.56e+00	0	47	104	0	60	1048574
2026-01-18 05:18:34.06	25.63	23.50	-85.2	-88.6	3.1	1.56e+00	0	47	104	0	60	1048573
2026-01-18 05:18:35.07	25.35	23.51	-85.2	-88.6	3.0	1.56e+00	0	47	104	0	60	1048575
2026-01-18 05:18:36.07	25.07	23.53	-85.2	-88.6	3.0	1.56e+00	0	47	104	0	60	1048575
2026-01-18 05:18:37.08	24.79	23.54	-83.5	-88.6	2.9	1.56e+00	0	47	104	0	60	1048575
2026-01-18 05:18:38.08	24.51	23.55	-85.2	-88.6	3.0	1.56e+00	0	47	104	0	60	1048575
2026-01-18 05:18:39.09	24.23	23.57	-85.2	-88.6	2.9	1.56e+00	0	47	104	0	60	1048575
2026-01-18 05:18:40.10	23.95	23.58	-85.2	-88.6	3.0	1.55e+00	0	47	104	0	60	1048574
2026-01-18 05:18:41.11	23.67	23.59	-85.2	-88.6	2.9	1.56e+00	0	47	104	0	60	1048574
2026-01-18 05:18:42.11	23.39	23.60	-85.2	-88.6	3.1	1.56e+00	0	47	104	0	60	1048574
2026-01-18 05:18:43.12	23.11	23.61	-85.2	-88.6	2.8	1.56e+00	0	47	104	0	60	1048574
2026-01-18 05:18:44.13	22.83	23.62	-85.2	-88.6	3.1	1.56e+00	0	47	104	0	60	1048573
2026-01-18 05:18:45.13	22.55	23.62	-85.2	-88.6	2.9	1.55e+00	0	47	104	0	60	1048575
2026-01-18 05:18:46.14	22.26	23.63	-85.2	-88.6	3.2	1.56e+00	0	47	104	0	60	1048575
2026-01-18 05:18:47.15	21.98	23.64	-85.2	-88.6	3.1	1.56e+00	0	47	104	0	60	1048572
2026-01-18 05:18:48.16	21.70	23.64	-85.2	-88.6	2.9	1.55e+00	0	47	104	0	60	1048574
2026-01-18 05:18:49.17	21.41	23.65	-85.2	-88.6	3.0	1.56e+00	0	47	104	0	60	1048575
2026-01-18 05:18:50.17	21.13	23.65	-85.2	-88.6	3.2	1.56e+00	0	47	104	0	60	1048571
2026-01-18 05:18:51.18	20.85	23.65	-85.2	-88.6	2.8	1.56e+00	0	47	104	0	60	1048574
2026-01-18 05:18:52.19	20.57	23.66	-84.7	-88.6	2.7	1.56e+00	0	47	104	0	60	1048574
2026-01-18 05:18:53.19	20.29	23.66	-85.2	-88.6	2.9	1.55e+00	0	47	104	0	60	1048574
2026-01-18 05:18:54.20	20.00	23.66	-85.2	-88.6	3.2	1.56e+00	0	47	104	0	60	1048575
2026-01-18 05:18:55.21	19.72	23.66	-85.2	-88.6	3.0	1.56e+00	0	47	104	0	60	1048575
2026-01-18 05:18:56.21	19.44	23.66	-85.2	-88.6	3.1	1.56e+00	0	47	104	0	60	1048575
2026-01-18 05:18:57.22	19.16	23.66	-85.2	-88.6	3.0	1.55e+00	0	47	104	0	60	1048574
2026-01-18 05:18:58.22	18.88	23.65	-85.2	-88.6	2.9	1.56e+00	0	47	104	0	60	1048575
2026-01-18 05:18:59.23	18.59	23.65	-85.2	-88.6	3.1	1.56e+00	0	47	104	0	60	1048574
2026-01-18 05:19:00.23	18.31	23.65	-85.2	-88.6	3.0	1.56e+00	0	47	104	0	60	1048574
2026-01-18 05:19:01.23	18.03	23.64	-85.2	-88.6	3.0	1.56e+00	0	47	104	0	60	1048574
2026-01-18 05:19:02.23	17.75	23.64	-85.2	-88.6	3.0	1.56e+00	0	47	104	0	60	1048575
2026-01-18 05:19:03.23	17.47	23.63	-85.2	-88.6	3.0	1.55e+00	0	47	104	0	60	1048575
2026-01-18 05:19:04.23	17.19	23.63	-85.2	-88.6	3.1	1.56e+00	0	47	104	0	60	1048575
2026-01-18 05:19:05.24	16.91	23.62	-85.2	-88.6	2.9	1.56e+00	0	47	104	0	60	1048574
2026-01-18 05:19:06.25	16.63	23.61	-85.2	-88.6	2.9	1.56e+00	0	47	104	0	60	1048575
2026-01-18 05:19:07.25	16.35	23.60	-85.2	-88.6	2.9	1.56e+00	0	47	104	0	60	1048575
2026-01-18 05:19:08.26	16.07	23.59	-85.2	-88.6	2.9	1.56e+00	0	47	104	0	60	1048572
2026-01-18 05:19:09.27	15.79	23.58	-85.2	-88.6	3.2	1.56e+00	0	47	104	0	60	1048575
2026-01-18 05:19:10.28	15.50	23.57	-85.2	-88.6	3.0	1.56e+00	0	47	104	0	60	1048573
2026-01-18 05:19:11.29	15.22	23.56	-85.2	-88.6	3.0	1.56e+00	0	47	104	0	60	1048573
2026-01-18 05:19:12.30	14.94	23.55	-85.2	-88.6	3.0	1.56e+00	0	47	104	0	60	1048575
2026-01-18 05:19:13.31	14.66	23.53	-85.2	-88.6	3.2	1.55e+00	0	47	104	0	60	1048575
2026-01-18 05:19:14.31	14.38	23.52	-85.2	-88.6	3.0	1.56e+00	0	47	104	0	60	1048575
2026-01-18 05:19:15.32	14.10	23.51	-85.2	-88.6	2.9	1.56e+00	0	47	104	0	60	1048573
2026-01-18 05:19:16.33	13.82	23.49	-85.2	-88.6	3.1	1.56e+00	0	47	104	0	60	1048575
2026-01-18 05:19:17.34	13.54	23.47	-85.2	-88.6	3.1	1.56e+00	0	47	104	0	60	1048574
2026-01-18 05:19:18.34	13.27	23.46	-85.2	-88.6	3.2	1.56e+00	0	47	104	0	60	1048574
2026-01-18 05:19:19.35	12.99	23.44	-85.2	-88.6	2.8	1.55e+00	0	47	104	0	60	1048575
2026-01-18 05:19:20.36	12.71	23.42	-85.2	-88.6	3.1	1.56e+00	0	47	104	0	60	1048574
2026-01-18 05:19:21.37	12.43	23.40	-85.2	-88.6	3.1	1.56e+00	0	47	104	0	60	1048573
2026-01-18 05:19:22.38	12.15	23.38	-84.3	-88.6	2.9	1.55e+00	0	47	104	0	60	1048574
2026-01-18 05:19:23.39	11.87	23.36	-85.2	-88.6	3.0	1.56e+00	0	47	104	0	60	1048575
2026-01-18 05:19:24.40	11.59	23.34	-85.2	-88.6	2.9	1.55e+00	0	47	104	0	60	1048574
2026-01-18 05:19:25.41	11.32	23.32	-85.2	-88.6	3.1	1.55e+00	0	47	104	0	60	1048571
2026-01-18 05:19:26.42	11.04	23.30	-85.2	-88.6	3.1	1.56e+00	0	47	104	0	60	1048575
2026-01-18 05:19:27.42	10.77	23.27	-85.2	-88.6	2.9	1.56e+00	0	47	104	0	60	1048574
2026-01-18 05:19:28.43	10.49	23.25	-85.2	-88.6	3.0	1.56e+00	0	47	104	0	60	1048574
2026-01-18 05:19:29.44	10.22	23.22	-85.2	-88.6	3.0	1.55e+00	0	47	104	0	60	1048574
2026-01-18 05:19:30.44	9.94	23.20	-85.2	-88.6	2.9	1.56e+00	0	47	104	0	60	1048575
2026-01-18 05:19:31.44	9.67	23.17	-85.2	-88.6	3.0	1.56e+00	0	47	104	0	60	1048575
2026-01-18 05:19:32.45	9.40	23.15	-85.2	-88.6	2.8	1.56e+00	0	47	104	0	60	1048571
2026-01-18 05:19:33.45	9.13	23.12	-85.2	-88.6	3.0	1.55e+00	0	47	104	0	60	1048575
2026-01-18 05:19:34.46	8.85	23.09	-85.2	-88.6	3.0	1.56e+00	0	47	104	0	60	1048575
2026-01-18 05:19:35.46	8.58	23.06	-85.2	-88.6	3.0	1.56e+00	0	47	104	0	60	1048574
2026-01-18 05:19:36.47	8.31	23.03	-85.2	-88.6	3.0	1.55e+00	0	47	104	0	60	1048574
2026-01-18 05:19:37.48	8.04	23.00	-85.2	-88.6	3.1	1.56e+00	0	47	104	0	60	1048575
2026-01-18 05:19:38.49	7.77	22.97	-85.2	-88.6	2.9	1.56e+00	0	47	104	0	60	1048574
2026-01-18 05:19:39.50	7.50	22.94	-85.2	-88.6	3.0	1.56e+00	0	47	104	0	60	1048575
2026-01-18 05:19:40.51	7.23	22.91	-85.2	-88.6	2.9	1.55e+00	0	47	104	0	60	1048575
2026-01-18 05:19:41.51	6.96	22.88	-85.2	-88.6	3.0	1.56e+00	0	47	104	0	60	1048573
2026-01-18 05:19:42.52	6.69	22.84	-85.2	-88.6	3.0	1.56e+00	0	47	104	0	60	1048574
2026-01-18 05:19:43.53	6.42	22.81	-85.2	-88.6	2.9	1.56e+00	0	47	104	0	60	1048575
2026-01-18 05:19:44.54	6.16	22.78	-85.2	-88.6	3.1	1.56e+00	0	47	104	0	60	1048574
2026-01-18 05:19:45.54	5.89	22.74	-85.2	-88.6	2.9	1.56e+00	0	47	104	0	60	1048574
2026-01-18 05:19:46.55	5.62	22.70	-85.2	-88.6	3.1	1.56e+00	0	47	104	0	60	1048573
2026-01-18 05:19:47.56	5.36	22.67	-84.7	-88.6	3.1	1.55e+00	0	47	104	0	60	1048574
2026-01-18 05:19:48.57	5.09	22.63	-85.2	-88.6	3.1	1.56e+00	0	47	104	0	60	1048575
2026-01-18 05:19:49.57	4.83	22.59	-85.2	-88.6	3.1	1.56e+00	0	47	104	0	60	1048572
2026-01-18 05:19:50.58	4.57	22.56	-85.2	-88.6	2.9	1.55e+00	0	47	104	0	60	1048572
2026-01-18 05:19:51.59	4.30	22.52	-85.2	-88.6	3.0	1.56e+00	0	47	104	0	60	1048573
2026-01-18 05:19:52.60	4.04	22.48	-85.2	-88.6	3.0	1.55e+00	0	47	104	0	60	1048573
2026-01-18 05:19:53.60	3.78	22.44	-85.2	-88.6	3.1	1.56e+00	0	47	104	0	60	1048575
2026-01-18 05:19:54.61	3.52	22.40	-85.2	-88.6	3.1	1.56e+00	0	47	104	0	60	1048575
2026-01-18 05:19:55.62	3.26	22.36	-85.2	-88.6	2.9	1.56e+00	0	47	104	0	60	1048575
2026-01-18 05:19:56.62	3.00	22.31	-85.2	-88.6	3.1	1.55e+00	0	47	104	0	60	1048575
2026-01-18 05:19:57.63	2.74	22.27	-85.2	-88.6	3.0	1.56e+00	0	47	104	0	60	1048574
2026-01-18 05:19:58.64	2.49	22.23	-85.2	-88.6	3.1	1.56e+00	0	47	104	0	60	1048574
2026-01-18 05:19:59.64	2.23	22.19	-85.2	-88.6	2.9	1.56e+00	0	47	104	0	60	1048575
2026-01-18 05:20:00.65	1.97	22.14	-85.2	-88.6	3.0	1.56e+00	0	47	104	0	60	1048575
2026-01-18 05:20:01.66	1.72	22.10	-85.2	-88.6	2.8	1.56e+00	0	47	104	0	60	1048574
2026-01-18 05:20:02.67	1.46	22.05	-85.2	-88.6	2.9	1.55e+00	0	47	104	0	60	1048572
2026-01-18 05:20:03.67	1.21	22.01	-85.2	-88.6	3.2	1.56e+00	0	47	104	0	60	1048575
2026-01-18 05:20:04.68	0.96	21.96	-85.2	-88.6	3.1	1.56e+00	0	47	104	0	60	1048575
2026-01-18 05:20:05.68	0.70	21.92	-85.2	-88.6	3.0	1.56e+00	0	47	104	0	60	1048575
2026-01-18 05:20:06.69	0.45	21.87	-85.2	-88.6	2.9	1.56e+00	0	47	104	0	60	1048574
2026-01-18 05:20:07.70	0.20	21.82	-85.2	-88.6	3.1	1.56e+00	0	47	104	0	60	1048575
2026-01-18 05:20:08.70	359.95	21.77	-85.2	-88.6	2.8	1.56e+00	0	47	104	0	60	1048575
2026-01-18 05:20:09.71	359.70	21.73	-85.2	-88.6	3.1	1.56e+00	0	47	104	0	60	1048574
2026-01-18 05:20:10.72	359.45	21.68	-85.2	-88.6	2.8	1.56e+00	0	47	104	0	60	1048575
2026-01-18 05:20:11.72	359.21	21.63	-85.2	-88.6	2.9	1.56e+00	0	47	104	0	60	1048573
2026-01-18 05:20:12.73	358.96	21.58	-85.2	-88.6	2.9	1.56e+00	0	47	104	0	60	1048575
2026-01-18 05:20:13.74	358.71	21.53	-85.2	-88.6	2.9	1.55e+00	0	47	104	0	60	1048573
2026-01-18 05:20:14.75	358.47	21.48	-85.2	-88.6	2.9	1.56e+00	0	47	104	0	60	1048574
2026-01-18 05:20:15.76	358.22	21.42	-85.2	-88.6	3.0	1.56e+00	0	47	104	0	60	1048575
2026-01-18 05:20:16.77	357.98	21.37	-85.2	-88.6	3.0	1.56e+00	0	47	104	0	60	1048575
2026-01-18 05:20:17.77	357.74	21.32	-85.2	-88.6	3.0	1.56e+00	0	47	104	0	60	1048573
2026-01-18 05:20:18.78	357.49	21.27	-85.2	-88.6	2.9	1.56e+00	0	47	104	0	60	1048573
2026-01-18 05:20:19.78	357.25	21.22	-85.2	-88.6	3.0	1.55e+00	0	47	104	0	60	1048575
2026-01-18 05:20:20.78	357.01	21.16	-85.2	-88.6	3.0	1.56e+00	0	47	104	0	60	1048574
2026-01-18 05:20:21.79	356.77	21.11	-85.2	-88.6	2.8	1.55e+00	0	47	104	0	60	1048574
2026-01-18 05:20:22.80	356.53	21.05	-85.2	-88.6	3.1	1.56e+00	0	47	104	0	60	1048575
2026-01-18 05:20:23.81	356.30	21.00	-85.2	-88.6	2.8	1.56e+00	0	47	104	0	60	1048573
2026-01-18 05:20:24.81	356.06	20.94	-85.2	-88.6	2.9	1.55e+00	0	47	104	0	60	1048575
2026-01-18 05:20:25.82	355.82	20.89	-85.2	-88.6	3.0	1.56e+00	0	47	104	0	60	1048574
2026-01-18 05:20:26.83	355.59	20.83	-85.2	-88.6	3.0	1.56e+00	0	47	104	0	60	1048575
2026-01-18 05:20:27.84	355.35	20.78	-85.2	-88.6	2.8	1.56e+00	0	47	104	0	60	1048573
2026-01-18 05:20:28.85	355.12	20.72	-85.2	-88.6	3.1	1.56e+00	0	47	104	0	60	1048574
2026-01-18 05:20:29.85	354.89	20.66	-85.2	-88.6	3.1	1.55e+00	0	47	104	0	60	1048574
2026-01-18 05:20:30.86	354.66	20.61	-85.2	-88.6	3.1	1.56e+00	0	47	104	0	60	1048574
2026-01-18 05:20:31.87	354.42	20.55	-85.2	-88.6	3.2	1.56e+00	0	47	104	0	60	1048573
2026-01-18 05:20:32.88	354.19	20.49	-85.2	-88.6	3.0	1.56e+00	0	47	104	0	60	1048575
2026-01-18 05:20:33.88	353.97	20.43	-85.2	-88.6	3.0	1.56e+00	0	47	104	0	60	1048575
2026-01-18 05:20:34.88	353.74	20.37	-85.2	-88.6	2.8	1.55e+00	0	47	104	0	60	1048575
2026-01-18 05:20:35.89	353.51	20.31	-85.2	-88.6	3.1	1.56e+00	0	47	104	0	60	1048575
2026-01-18 05:20:36.89	353.29	20.25	-85.2	-88.6	3.1	1.56e+00	0	47	104	0	60	1048574
2026-01-18 05:20:37.90	353.06	20.19	-85.2	-88.6	3.0	1.55e+00	0	47	104	0	60	1048575
2026-01-18 05:20:38.91	352.83	20.13	-85.2	-88.6	3.0	1.56e+00	0	47	104	0	60	1048574
2026-01-18 05:20:39.92	352.61	20.07	-85.2	-88.6	3.0	1.56e+00	0	47	104	0	60	1048574
2026-01-18 05:20:40.92	352.39	20.01	-85.2	-88.6	2.9	1.55e+00	0	47	104	0	60	1048571
2026-01-18 05:20:41.93	352.17	19.95	-85.2	-88.6	3.0	1.56e+00	0	47	104	0	60	1048575
2026-01-18 05:20:42.93	351.95	19.89	-85.2	-88.6	3.0	1.56e+00	0	47	104	0	60	1048575
2026-01-18 05:20:43.94	351.73	19.83	-85.2	-88.6	2.7	1.56e+00	0	47	104	0	60	1048575
2026-01-18 05:20:44.95	351.51	19.77	-85.2	-88.6	3.0	1.56e+00	0	47	104	0	60	1048575
2026-01-18 05:20:45.96	351.29	19.71	-85.2	-88.6	3.1	1.56e+00	0	47	104	0	60	1048575
2026-01-18 05:20:46.96	351.07	19.64	-85.2	-88.6	2.8	1.56e+00	0	47	104	0	60	1048574
2026-01-18 05:20:47.97	350.85	19.58	-85.2	-88.6	2.9	1.56e+00	0	47	104	0	60	1048573
2026-01-18 05:20:48.98	350.64	19.52	-85.2	-88.6	2.8	1.56e+00	0	47	104	0	60	1048575
2026-01-18 05:20:49.99	350.42	19.45	-85.2	-88.6	3.2	1.56e+00	0	47	104	0	60	1048574
2026-01-18 05:20:51.00	350.21	19.39	-85.2	-88.6	3.1	1.56e+00	0	48	104	0	60	1048575
2026-01-18 05:20:52.00	349.99	19.33	-85.2	-88.6	3.0	1.56e+00	0	47	104	0	60	1048575
2026-01-18 05:20:53.01	349.78	19.26	-85.2	-88.6	3.0	1.55e+00	0	47	104	0	60	1048574
2026-01-18 05:20:54.02	349.57	19.20	-85.2	-88.6	3.1	1.55e+00	0	47	104	0	60	1048575
2026-01-18 05:20:55.02	349.36	19.13	-85.2	-88.6	3.2	1.56e+00	0	47	104	0	60	1048575
2026-01-18 05:20:56.03	349.15	19.07	-85.2	-88.6	3.0	1.56e+00	0	47	104	0	60	1048573
2026-01-18 05:20:57.04	348.94	19.00	-85.2	-88.6	3.1	1.56e+00	0	47	104	0	60	1048575
2026-01-18 05:20:58.05	348.73	18.94	-85.2	-88.6	3.1	1.56e+00	0	47	104	0	60	1048573
2026-01-18 05:20:59.05	348.53	18.87	-85.2	-88.6	3.0	1.55e+00	0	47	104	0	60	1048575
2026-01-18 05:21:00.05	348.32	18.81	-85.2	-88.6	2.8	1.55e+00	0	47	104	0	60	1048575
2026-01-18 05:21:01.06	348.12	18.74	-85.2	-88.6	3.2	1.56e+00	0	47	104	0	60	1048575
2026-01-18 05:21:02.07	347.91	18.68	-85.2	-88.6	3.0	1.56e+00	0	47	104	0	60	1048574
2026-01-18 05:21:03.07	347.71	18.61	-85.2	-88.6	3.0	1.55e+00	0	48	104	0	60	1048570
2026-01-18 05:21:04.08	347.51	18.54	-85.2	-88.6	3.1	1.55e+00	0	47	104	0	60	1048569
2026-01-18 05:21:05.09	347.31	18.48	-85.2	-88.6	3.2	1.56e+00	0	47	104	0	60	1048574
2026-01-18 05:21:06.10	347.11	18.41	-85.2	-88.6	3.0	1.56e+00	0	47	104	0	60	1048575
2026-01-18 05:21:07.11	346.91	18.34	-85.2	-88.6	2.8	1.56e+00	0	47	104	0	60	1048572
2026-01-18 05:21:08.12	346.71	18.27	-85.2	-88.6	3.1	1.56e+00	0	47	104	0	60	1048574
2026-01-18 05:21:09.12	346.51	18.21	-85.2	-88.6	3.0	1.56e+00	0	47	104	0	60	1048575
2026-01-18 05:21:10.13	346.31	18.14	-85.2	-88.6	2.9	1.56e+00	0	47	104	0	60	1048571
2026-01-18 05:21:11.14	346.12	18.07	-85.2	-88.6	2.9	1.55e+00	0	47	104	0	60	1048573
2026-01-18 05:21:12.15	345.92	18.00	-85.2	-88.6	2.9	1.56e+00	0	48	104	0	60	1048575
2026-01-18 05:21:13.16	345.73	17.94	-85.2	-88.6	3.0	1.55e+00	0	47	104	0	60	1048575
2026-01-18 05:21:14.17	345.53	17.87	-85.2	-88.6	2.8	1.55e+00	0	47	104	0	60	1048575
2026-01-18 05:21:15.17	345.34	17.80	-85.2	-88.6	2.9	1.56e+00	0	47	104	0	60	1048575
2026-01-18 05:21:16.18	345.15	17.73	-85.2	-88.6	2.8	1.56e+00	0	47	104	0	60	1048574
2026-01-18 05:21:17.19	344.96	17.66	-85.2	-88.6	2.9	1.55e+00	0	47	104	0	60	1048574
2026-01-18 05:21:18.20	344.77	17.59	-85.2	-88.6	3.0	1.55e+00	0	47	104	0	60	1048575
2026-01-18 05:21:19.21	344.58	17.52	-85.2	-88.6	3.0	1.56e+00	0	47	104	0	60	1048574
2026-01-18 05:21:20.21	344.39	17.45	-85.2	-88.6	3.0	1.56e+00	0	47	104	0	60	1048574
2026-01-18 05:21:21.22	344.20	17.39	-85.2	-88.6	3.0	1.56e+00	0	47	104	0	60	1048573
2026-01-18 05:21:22.23	344.02	17.32	-85.2	-88.6	2.8	1.55e+00	0	47	104	0	60	1048572
2026-01-18 05:21:23.24	343.83	17.25	-85.2	-88.6	3.0	1.56e+00	0	47	104	0	60	1048573
2026-01-18 05:21:24.25	343.65	17.18	-85.2	-88.6	2.8	1.56e+00	0	47	104	0	60	1048575
2026-01-18 05:21:25.25	343.46	17.11	-85.2	-88.6	2.7	1.55e+00	0	47	104	0	60	1048575
2026-01-18 05:21:26.26	343.28	17.04	-85.2	-88.6	3.0	1.55e+00	0	47	104	0	60	1048574
2026-01-18 05:21:27.26	343.10	16.97	-85.2	-88.6	3.0	1.56e+00	0	47	104	0	60	1048575
2026-01-18 05:21:28.27	342.92	16.90	-85.2	-88.6	3.0	1.55e+00	0	47	104	0	60	1048575
2026-01-18 05:21:29.28	342.74	16.83	-85.2	-88.6	2.9	1.55e+00	0	47	104	0	60	1048574
2026-01-18 05:21:30.29	342.56	16.76	-85.2	-88.6	3.0	1.56e+00	0	47	104	0	60	1048572
2026-01-18 05:21:31.29	342.38	16.69	-85.2	-88.6	2.8	1.56e+00	0	47	104	0	60	1048575
2026-01-18 05:21:32.30	342.20	16.62	-85.2	-88.6	2.9	1.56e+00	0	47	104	0	60	1048575
2026-01-18 05:21:33.30	342.03	16.55	-85.2	-88.6	3.1	1.56e+00	0	47	104	0	60	1048572
2026-01-18 05:21:34.31	341.85	16.48	-85.2	-88.6	2.9	1.56e+00	0	47	104	0	60	1048575
2026-01-18 05:21:35.31	341.68	16.41	-85.2	-88.6	3.2	1.55e+00	0	47	104	0	60	1048572
2026-01-18 05:21:36.32	341.50	16.34	-85.2	-88.6	3.0	1.56e+00	0	47	104	0	60	1048575
2026-01-18 05:21:37.33	341.33	16.27	-85.2	-88.6	3.0	1.56e+00	0	47	104	0	60	1048573
2026-01-18 05:21:38.34	341.15	16.19	-85.2	-88.6	3.0	1.56e+00	0	47	104	0	60	1048575
2026-01-18 05:21:39.35	340.98	16.12	-85.2	-88.6	3.0	1.56e+00	0	47	104	0	60	1048575
2026-01-18 05:21:40.36	340.81	16.05	-85.2	-88.6	2.9	1.56e+00	0	47	104	0	60	1048575
2026-01-18 05:21:41.36	340.64	15.98	-85.2	-88.6	2.9	1.55e+00	0	47	104	0	60	1048574
2026-01-18 05:21:42.37	340.47	15.91	-85.2	-88.6	2.8	1.56e+00	0	47	104	0	60	1048569
2026-01-18 05:21:43.37	340.30	15.84	-85.2	-88.6	3.2	1.56e+00	0	47	104	0	60	1048575
2026-01-18 05:21:44.38	340.14	15.77	-85.2	-88.6	3.0	1.56e+00	0	47	104	0	60	1048575
2026-01-18 05:21:45.38	339.97	15.70	-85.2	-88.6	3.3	1.56e+00	0	47	104	0	60	1048574
2026-01-18 05:21:46.38	339.80	15.63	-85.2	-88.6	3.1	1.56e+00	0	47	104	0	60	1048575
2026-01-18 05:21:47.38	339.64	15.56	-85.2	-88.6	2.9	1.55e+00	0	47	104	0	60	1048575
2026-01-18 05:21:48.39	339.48	15.49	-85.2	-88.6	2.9	1.56e+00	0	47	104	0	60	1048575
2026-01-18 05:21:49.39	339.31	15.42	-85.2	-88.6	3.1	1.55e+00	0	47	104	0	60	1048575
2026-01-18 05:21:50.40	339.15	15.34	-85.2	-88.6	2.9	1.56e+00	0	47	104	0	60	1048575
2026-01-18 05:21:51.40	338.99	15.27	-85.2	-88.6	2.9	1.56e+00	0	48	104	0	60	1048571
2026-01-18 05:21:52.41	338.83	15.20	-85.2	-88.6	3.1	1.56e+00	0	48	104	0	60	1048574
2026-01-18 05:21:53.41	338.67	15.13	-85.2	-88.6	2.9	1.56e+00	0	47	104	0	60	1048575
2026-01-18 05:21:54.42	338.51	15.06	-85.2	-88.6	2.8	1.56e+00	0	47	104	0	60	1048575
2026-01-18 05:21:55.43	338.35	14.99	-85.2	-88.6	2.9	1.56e+00	0	47	104	0	60	1048573
2026-01-18 05:21:56.43	338.19	14.92	-85.2	-88.6	3.1	1.55e+00	0	47	104	0	60	1048575
2026-01-18 05:21:57.44	338.03	14.85	-85.2	-88.6	3.0	1.56e+00	0	47	104	0	60	1048574
2026-01-18 05:21:58.45	337.87	14.77	-85.2	-88.6	2.9	1.56e+00	0	47	104	0	60	1048574
2026-01-18 05:21:59.45	337.72	14.70	-85.2	-88.6	2.9	1.56e+00	0	47	104	0	60	1048575
2026-01-18 05:22:00.46	337.56	14.63	-85.2	-88.6	3.0	1.56e+00	0	47	104	0	60	1048575
2026-01-18 05:22:01.47	337.41	14.56	-85.2	-88.6	3.0	1.55e+00	0	47	104	0	60	1048575
2026-01-18 05:22:02.47	337.26	14.49	-85.2	-88.6	3.0	1.55e+00	0	47	104	0	60	1048571
2026-01-18 05:22:03.48	337.10	14.42	-84.7	-88.6	3.0	1.55e+00	0	47	104	0	60	1048575
2026-01-18 05:22:04.49	336.95	14.35	-85.2	-88.6	2.9	1.56e+00	0	47	104	0	60	1048573
2026-01-18 05:22:05.49	336.80	14.27	-85.2	-88.6	2.7	1.56e+00	0	47	104	0	60	1048575
2026-01-18 05:22:06.50	336.65	14.20	-85.2	-88.6	3.0	1.56e+00	0	47	104	0	60	1048574
2026-01-18 05:22:07.51	336.50	14.13	-85.2	-88.6	3.0	1.56e+00	0	47	104	0	60	1048575
2026-01-18 05:22:08.52	336.35	14.06	-85.2	-88.6	3.1	1.55e+00	0	47	104	0	60	1048574
2026-01-18 05:22:09.53	336.20	13.99	-85.2	-88.6	2.8	1.55e+00	0	47	104	0	60	1048574
2026-01-18 05:22:10.53	336.05	13.92	-85.2	-88.6	3.0	1.56e+00	0	47	104	0	60	1048575
2026-01-18 05:22:11.54	335.91	13.85	-85.2	-88.6	2.6	1.56e+00	0	47	104	0	60	1048575
2026-01-18 05:22:12.55	335.76	13.77	-85.2	-88.6	3.0	1.56e+00	0	47	104	0	60	1048573
2026-01-18 05:22:13.55	335.61	13.70	-85.2	-88.6	2.9	1.56e+00	0	47	104	0	60	1048575
2026-01-18 05:22:14.56	335.47	13.63	-85.2	-88.6	3.1	1.55e+00	0	47	104	0	60	1048574
2026-01-18 05:22:15.56	335.33	13.56	-85.2	-88.6	3.1	1.56e+00	0	47	104	0	60	1048573
2026-01-18 05:22:16.56	335.18	13.49	-85.2	-88.6	2.8	1.56e+00	0	47	104	0	60	1048575
2026-01-18 05:22:17.56	335.04	13.42	-85.2	-88.6	2.9	1.55e+00	0	47	104	0	60	1048575
2026-01-18 05:22:18.57	334.90	13.35	-85.2	-88.6	3.1	1.56e+00	0	47	104	0	60	1048575
2026-01-18 05:22:19.58	334.76	13.28	-85.2	-88.6	2.9	1.56e+00	0	47	104	0	60	1048573
2026-01-18 05:22:20.58	334.62	13.21	-85.2	-88.6	2.7	1.56e+00	0	47	104	0	60	1048568
2026-01-18 05:22:21.59	334.48	13.14	-85.2	-88.6	3.1	1.56e+00	0	47	104	0	60	1048575
2026-01-18 05:22:22.60	334.34	13.06	-85.2	-88.6	2.8	1.56e+00	0	47	104	0	60	1048574
2026-01-18 05:22:23.60	334.20	12.99	-85.2	-88.6	3.2	1.55e+00	0	47	104	0	60	1048574
2026-01-18 05:22:24.61	334.06	12.92	-85.2	-88.6	3.2	1.55e+00	0	47	104	0	60	1048573
2026-01-18 05:22:25.62	333.92	12.85	-85.2	-88.6	3.0	1.56e+00	0	47	104	0	60	1048574
2026-01-18 05:22:26.62	333.79	12.78	-85.2	-88.6	3.0	1.55e+00	0	47	104	0	60	1048575
2026-01-18 05:22:27.63	333.65	12.71	-85.2	-88.6	3.1	1.55e+00	0	47	104	0	60	1048575
2026-01-18 05:22:28.64	333.52	12.64	-83.9	-88.6	2.9	1.56e+00	0	47	104	0	60	1048575
2026-01-18 05:22:29.65	333.38	12.57	-85.2	-88.6	3.2	1.56e+00	0	47	104	0	60	1048575
2026-01-18 05:22:30.65	333.25	12.50	-85.2	-88.6	2.8	1.55e+00	0	47	104	0	60	1048575
2026-01-18 05:22:31.66	333.11	12.43	-85.2	-88.6	3.1	1.56e+00	0	47	104	0	60	1048572
2026-01-18 05:22:32.67	332.98	12.36	-83.5	-88.6	2.8	1.56e+00	0	47	104	0	60	1048574
2026-01-18 05:22:33.67	332.85	12.29	-85.2	-88.6	3.0	1.56e+00	0	47	104	0	60	1048575
2026-01-18 05:22:34.68	332.72	12.22	-85.2	-88.6	3.0	1.56e+00	0	47	104	0	60	1048571
2026-01-18 05:22:35.68	332.59	12.15	-85.2	-88.6	2.9	1.55e+00	0	47	104	0	60	1048575
2026-01-18 05:22:36.69	332.46	12.08	-84.7	-88.6	2.9	1.55e+00	0	47	104	0	60	1048575
2026-01-18 05:22:37.70	332.33	12.01	-85.2	-88.6	2.9	1.56e+00	0	47	104	0	60	1048575
2026-01-18 05:22:38.70	332.20	11.94	-85.2	-88.6	2.8	1.56e+00	0	47	104	0	60	1048575
2026-01-18 05:22:39.71	332.07	11.87	-85.2	-88.6	2.9	1.56e+00	0	47	104	0	60	1048575
2026-01-18 05:22:40.72	331.94	11.80	-85.2	-88.6	3.0	1.56e+00	0	48	104	0	60	1048572
2026-01-18 05:22:41.72	331.82	11.73	-85.2	-88.6	2.9	1.55e+00	0	47	104	0	60	1048574
2026-01-18 05:22:42.73	331.69	11.66	-85.2	-88.6	3.2	1.55e+00	0	47	104	0	60	1048575
2026-01-18 05:22:43.74	331.56	11.59	-85.2	-88.6	3.2	1.56e+00	0	47	104	0	60	1048574
2026-01-18 05:22:44.75	331.44	11.52	-85.2	-88.6	2.9	1.56e+00	0	47	104	0	60	1048575
2026-01-18 05:22:45.76	331.31	11.45	-85.2	-88.6	3.0	1.56e+00	0	47	104	0	60	1048575
2026-01-18 05:22:46.75	331.19	11.38	-85.2	-88.6	3.1	1.56e+00	0	47	104	0	60	1048575
2026-01-18 05:22:47.76	331.07	11.31	-84.3	-88.6	3.0	1.56e+00	0	47	104	0	60	1048575
2026-01-18 05:22:48.76	330.95	11.24	-85.2	-88.6	2.8	1.56e+00	0	47	104	0	60	1048571
2026-01-18 05:22:49.77	330.83	11.17	-85.2	-88.6	2.9	1.56e+00	0	47	104	0	60	1048575
2026-01-18 05:22:50.78	330.70	11.10	-85.2	-88.6	2.9	1.56e+00	0	47	104	0	60	1048575
2026-01-18 05:22:51.79	330.58	11.03	-85.2	-88.6	2.7	1.56e+00	0	47	104	0	60	1048575
2026-01-18 05:22:52.80	330.46	10.96	-85.2	-88.6	3.1	1.56e+00	0	47	104	0	60	1048575
2026-01-18 05:22:53.80	330.34	10.89	-85.2	-88.6	2.9	1.56e+00	0	47	104	0	60	1048574
2026-01-18 05:22:54.81	330.22	10.82	-85.2	-88.6	3.0	1.55e+00	0	47	104	0	60	1048574
2026-01-18 05:22:55.81	330.11	10.75	-85.2	-88.6	3.0	1.56e+00	0	47	104	0	60	1048573
2026-01-18 05:22:56.81	329.99	10.68	-85.2	-88.6	2.9	1.56e+00	0	47	104	0	60	1048575
2026-01-18 05:22:57.82	329.87	10.61	-85.2	-88.6	3.1	1.56e+00	0	47	104	0	60	1048575
2026-01-18 05:22:58.83	329.75	10.55	-85.2	-88.6	3.1	1.55e+00	0	47	104	0	60	1048575
2026-01-18 05:22:59.83	329.64	10.48	-85.2	-88.6	2.8	1.56e+00	0	47	104	0	60	1048574
2026-01-18 05:23:00.85	329.52	10.41	-85.2	-88.6	2.8	1.56e+00	0	47	104	0	60	1048575
2026-01-18 05:23:01.85	329.41	10.34	-85.2	-88.6	3.0	1.56e+00	0	47	104	0	60	1048574
2026-01-18 05:23:02.86	329.29	10.27	-85.2	-88.6	2.9	1.56e+00	0	47	104	0	60	1048575
2026-01-18 05:23:03.86	329.18	10.20	-85.2	-88.6	3.1	1.55e+00	0	47	104	0	60	1048572
2026-01-18 05:23:04.87	329.06	10.13	-85.2	-88.6	3.0	1.56e+00	0	47	104	0	60	1048574
2026-01-18 05:23:05.87	328.95	10.07	-85.2	-88.6	3.1	1.56e+00	0	47	104	0	60	1048575
2026-01-18 05:23:06.88	328.84	10.00	-85.2	-88.6	2.7	1.56e+00	0	47	104	0	60	1048575
2026-01-18 05:23:07.88	328.73	9.93	-84.3	-88.6	3.0	1.56e+00	0	47	104	0	60	1048572
2026-01-18 05:23:08.89	328.62	9.86	-85.2	-88.6	2.8	1.56e+00	0	47	104	0	60	1048575
2026-01-18 05:23:09.89	328.51	9.79	-85.2	-88.6	3.0	1.56e+00	0	47	104	0	60	1048573
2026-01-18 05:23:10.90	328.40	9.73	-85.2	-88.6	2.9	1.55e+00	0	47	104	0	60	1048571
2026-01-18 05:23:11.91	328.29	9.66	-85.2	-88.6	3.1	1.56e+00	0	47	104	0	60	1048571
2026-01-18 05:23:12.92	328.18	9.59	-84.3	-88.6	3.0	1.55e+00	0	47	104	0	60	1048575
2026-01-18 05:23:13.93	328.07	9.52	-85.2	-88.6	3.0	1.55e+00	0	47	104	0	60	1048574
2026-01-18 05:23:14.93	327.96	9.46	-85.2	-88.6	3.0	1.56e+00	0	47	104	0	60	1048575
2026-01-18 05:23:15.94	327.85	9.39	-85.2	-88.6	3.0	1.56e+00	0	47	104	0	60	1048575
2026-01-18 05:23:16.95	327.74	9.32	-84.3	-88.6	3.1	1.56e+00	0	47	104	0	60	1048575
2026-01-18 05:23:17.96	327.64	9.25	-85.2	-88.6	2.9	1.56e+00	0	47	104	0	60	1048574
2026-01-18 05:23:18.97	327.53	9.18	-85.2	-88.6	3.1	1.56e+00	0	48	104	0	60	1048575
2026-01-18 05:23:19.97	327.43	9.12	-85.2	-88.6	2.9	1.55e+00	0	47	104	0	60	1048575
2026-01-18 05:23:20.98	327.32	9.05	-85.2	-88.6	2.9	1.56e+00	0	47	104	0	60	1048575
2026-01-18 05:23:21.98	327.22	8.98	-85.2	-88.6	2.9	1.56e+00	0	47	104	0	60	1048575
2026-01-18 05:23:22.99	327.11	8.92	-85.2	-88.6	2.9	1.56e+00	0	47	104	0	60	1048575
2026-01-18 05:23:23.99	327.01	8.85	-85.2	-88.6	3.0	1.56e+00	0	47	104	0	60	1048575
2026-01-18 05:23:25.00	326.91	8.78	-85.2	-88.6	2.8	1.56e+00	0	47	104	0	60	1048575
2026-01-18 05:23:26.00	326.80	8.72	-85.2	-88.6	3.0	1.56e+00	0	47	104	0	60	1048573
2026-01-18 05:23:27.00	326.70	8.65	-84.3	-88.6	3.1	1.56e+00	0	47	104	0	60	1048574
2026-01-18 05:23:28.01	326.60	8.58	-85.2	-88.6	3.0	1.55e+00	0	47	104	0	60	1048574
2026-01-18 05:23:29.02	326.50	8.52	-83.9	-88.6	3.1	1.56e+00	0	47	104	0	60	1048571
2026-01-18 05:23:30.02	326.40	8.45	-85.2	-88.6	3.1	1.56e+00	0	47	104	0	60	1048575
2026-01-18 05:23:31.02	326.30	8.39	-85.2	-88.6	2.9	1.56e+00	0	47	104	0	60	1048573
2026-01-18 05:23:32.03	326.20	8.32	-84.7	-88.6	3.0	1.56e+00	0	47	104	0	60	1048575
2026-01-18 05:23:33.04	326.10	8.25	-85.2	-88.6	3.0	1.56e+00	0	47	104	0	60	1048571
2026-01-18 05:23:34.05	326.00	8.19	-85.2	-88.6	3.0	1.56e+00	0	47	104	0	60	1048575
2026-01-18 05:23:35.06	325.90	8.12	-85.2	-88.6	3.2	1.56e+00	0	47	104	0	60	1048572
2026-01-18 05:23:36.06	325.80	8.06	-85.2	-88.6	2.8	1.56e+00	0	47	104	0	60	1048574
2026-01-18 05:23:37.07	325.71	7.99	-85.2	-88.6	3.2	1.56e+00	0	47	104	0	60	1048573
2026-01-18 05:23:38.07	325.61	7.93	-85.2	-88.6	2.7	1.56e+00	0	47	104	0	60	1048572
2026-01-18 05:23:39.08	325.51	7.86	-85.2	-88.6	3.1	1.56e+00	0	47	104	0	60	1048574
2026-01-18 05:23:40.09	325.42	7.79	-85.2	-88.6	3.1	1.56e+00	0	47	104	0	60	1048574
2026-01-18 05:23:41.09	325.32	7.73	-85.2	-88.6	3.1	1.56e+00	0	47	104	0	60	1048575
2026-01-18 05:23:42.10	325.23	7.66	-85.2	-88.6	3.0	1.56e+00	0	47	104	0	60	1048575
2026-01-18 05:23:43.11	325.13	7.60	-84.3	-88.6	3.0	1.56e+00	0	47	104	0	60	1048574
2026-01-18 05:23:44.12	325.04	7.53	-85.2	-88.6	3.1	1.56e+00	0	47	104	0	60	1048575
2026-01-18 05:23:45.12	324.94	7.47	-85.2	-88.6	3.2	1.55e+00	0	47	104	0	60	1048575
2026-01-18 05:23:46.13	324.85	7.40	-85.2	-88.6	3.0	1.56e+00	0	47	104	0	60	1048574
2026-01-18 05:23:47.14	324.76	7.34	-85.2	-88.6	3.2	1.56e+00	0	47	104	0	60	1048575
2026-01-18 05:23:48.15	324.66	7.27	-85.2	-88.6	2.8	1.55e+00	0	47	104	0	60	1048571
2026-01-18 05:23:49.15	324.57	7.21	-85.2	-88.6	3.1	1.55e+00	0	47	104	0	60	1048572
2026-01-18 05:23:50.16	324.48	7.14	-85.2	-88.6	2.9	1.56e+00	0	47	104	0	60	1048575
2026-01-18 05:23:51.17	324.39	7.08	-85.2	-88.6	3.0	1.56e+00	0	47	104	0	60	1048573
2026-01-18 05:23:52.17	324.30	7.02	-85.2	-88.6	2.8	1.56e+00	0	47	104	0	60	1048575
2026-01-18 05:23:53.18	324.21	6.95	-85.2	-88.6	3.1	1.55e+00	0	47	104	0	60	1048575
2026-01-18 05:23:54.19	324.12	6.89	-85.2	-88.6	3.0	1.55e+00	0	47	104	0	60	1048575
2026-01-18 05:23:55.20	324.03	6.82	-85.2	-88.6	2.9	1.56e+00	0	47	104	0	60	1048575
2026-01-18 05:23:56.20	323.94	6.76	-85.2	-88.6	2.9	1.56e+00	0	47	104	0	60	1048575
2026-01-18 05:23:57.21	323.85	6.70	-85.2	-88.6	3.0	1.56e+00	0	47	104	0	60	1048575
2026-01-18 05:23:58.21	323.76	6.63	-85.2	-88.6	3.1	1.55e+00	0	47	104	0	60	1048573
2026-01-18 05:23:59.21	323.67	6.57	-85.2	-88.6	2.9	1.56e+00	0	47	104	0	60	1048575
2026-01-18 05:24:00.22	323.58	6.50	-85.2	-88.6	3.0	1.56e+00	0	47	104	0	60	1048575
2026-01-18 05:24:01.23	323.50	6.44	-85.2	-88.6	2.9	1.56e+00	0	47	104	0	60	1048573
2026-01-18 05:24:02.23	323.41	6.38	-85.2	-88.6	3.0	1.55e+00	0	47	104	0	60	1048575
2026-01-18 05:24:03.24	323.32	6.31	-84.7	-88.6	3.1	1.56e+00	0	47	104	0	60	1048575
2026-01-18 05:24:04.25	323.24	6.25	-85.2	-88.6	3.0	1.56e+00	0	47	104	0	60	1048575
2026-01-18 05:24:05.25	323.15	6.19	-85.2	-88.6	3.1	1.56e+00	0	47	104	0	60	1048575
2026-01-18 05:24:06.26	323.07	6.13	-85.2	-88.6	2.9	1.56e+00	0	47	104	0	60	1048575
2026-01-18 05:24:07.27	322.98	6.06	-85.2	-88.6	3.1	1.56e+00	0	47	104	0	60	1048575
2026-01-18 05:24:08.28	322.90	6.00	-85.2	-88.6	3.1	1.56e+00	0	47	104	0	60	1048575
2026-01-18 05:24:09.28	322.81	5.94	-85.2	-88.6	3.1	1.55e+00	0	47	104	0	60	1048575
2026-01-18 05:24:10.29	322.73	5.87	-85.2	-88.6	2.7	1.56e+00	0	47	104	0	60	1048574
2026-01-18 05:24:11.30	322.65	5.81	-85.2	-88.6	3.0	1.56e+00	0	47	104	0	60	1048575
2026-01-18 05:24:12.31	322.56	5.75	-85.2	-88.6	3.3	1.55e+00	0	47	104	0	60	1048574
