passes_logs/2026/01/18/R3.2S-Naryan-Mar/R3.2S-Naryan-Mar__20260118_072444_AQUA_rec.log

#Pass ID: 20260118_072444_AQUA
#Satellite: AQUA
#Configuration: AQUA
#almurnet v.1.7.20240730
#Start time: 2026-01-18 07:26:18

#Version: 2.2.20231116
#Station: R3.2S-Naryan-Mar
#Location: 53.008057 lon 67.646978 lat
#TLE: 1 27424U 02022A   26017.29152041  .00000842  00000+0  17841-3 0  9992
#TLE: 2 27424  98.4085 343.7574 0002011  75.4099  30.6811 14.61825797261228

#Time	Az	El	Level	Level2	SNR	BER	BlckErr	Temp	State	Recorded	gain1	gain2
2026-01-18 07:26:18.65	84.96	5.62	-85.2	-88.6	3.4	1.56e+00	0	47	0	0	60	1048574
2026-01-18 07:26:19.66	84.87	5.68	-83.9	-88.8	2.5	3.11e+01	0	47	104	0	60	1048573
2026-01-18 07:26:20.67	84.77	5.75	-83.9	-88.8	2.5	3.11e+01	0	47	104	0	60	1048573
2026-01-18 07:26:21.67	84.68	5.81	-84.3	-88.8	2.3	3.11e+01	0	47	104	0	60	1048573
2026-01-18 07:26:22.68	84.58	5.88	-83.9	-88.8	2.5	3.11e+01	0	47	104	0	60	1048573
2026-01-18 07:26:23.68	84.48	5.95	-84.3	-88.8	2.6	3.11e+01	0	47	104	0	60	1048573
2026-01-18 07:26:24.69	84.38	6.01	-83.9	-88.8	2.5	3.11e+01	0	47	104	0	60	1048573
2026-01-18 07:26:25.70	84.28	6.08	-84.3	-88.8	2.6	3.11e+01	0	47	104	0	60	1048573
2026-01-18 07:26:26.71	84.19	6.14	-84.3	-88.8	2.6	3.11e+01	0	47	104	0	60	1048573
2026-01-18 07:26:27.71	84.09	6.21	-84.3	-88.8	2.8	3.11e+01	0	47	104	0	60	1048573
2026-01-18 07:26:28.72	83.99	6.28	-83.9	-88.8	2.5	3.11e+01	0	47	104	0	60	1048573
2026-01-18 07:26:29.73	83.89	6.34	-83.9	-88.8	2.5	3.11e+01	0	47	104	0	60	1048573
2026-01-18 07:26:30.73	83.79	6.41	-83.9	-88.8	2.6	3.11e+01	0	47	104	0	60	1048573
2026-01-18 07:26:31.74	83.68	6.48	-84.3	-88.8	2.7	3.11e+01	0	47	104	0	60	1048573
2026-01-18 07:26:32.74	83.58	6.54	-84.3	-88.8	2.6	3.11e+01	0	47	104	0	60	1048573
2026-01-18 07:26:33.75	83.48	6.61	-83.9	-88.8	2.6	3.11e+01	0	47	104	0	60	1048573
2026-01-18 07:26:34.75	83.38	6.67	-83.9	-88.8	2.3	3.11e+01	0	47	104	0	60	1048573
2026-01-18 07:26:35.76	83.27	6.74	-84.3	-88.8	2.6	3.11e+01	0	47	104	0	60	1048573
2026-01-18 07:26:36.77	83.17	6.81	-84.3	-88.8	2.6	3.11e+01	0	47	104	0	60	1048573
2026-01-18 07:26:37.78	83.06	6.88	-84.3	-88.8	2.5	3.11e+01	0	47	104	0	60	1048573
2026-01-18 07:26:38.79	82.96	6.94	-83.9	-88.8	2.4	3.11e+01	0	47	104	0	60	1048573
2026-01-18 07:26:39.80	82.85	7.01	-84.3	-88.8	2.5	3.11e+01	0	47	104	0	60	1048573
2026-01-18 07:26:40.80	82.75	7.08	-84.3	-88.8	2.6	3.11e+01	0	47	104	0	60	1048573
2026-01-18 07:26:41.81	82.64	7.15	-84.3	-88.8	2.5	3.11e+01	0	47	104	0	60	1048573
2026-01-18 07:26:42.82	82.53	7.21	-83.9	-88.8	2.5	3.11e+01	0	47	104	0	60	1048573
2026-01-18 07:26:43.82	82.42	7.28	-83.9	-88.8	2.5	3.11e+01	0	47	104	0	60	1048573
2026-01-18 07:26:44.83	82.32	7.35	-84.3	-88.8	2.6	3.11e+01	0	47	104	0	60	1048573
2026-01-18 07:26:45.84	82.21	7.42	-84.3	-88.8	2.4	3.11e+01	0	47	104	0	60	1048573
2026-01-18 07:26:46.85	82.10	7.49	-84.3	-88.8	2.5	3.11e+01	0	47	104	0	60	1048573
2026-01-18 07:26:47.86	81.99	7.56	-84.3	-88.8	2.5	3.11e+01	0	47	104	0	60	1048573
2026-01-18 07:26:48.87	81.87	7.62	-83.9	-88.8	2.5	3.11e+01	0	47	104	0	60	1048573
2026-01-18 07:26:49.87	81.76	7.69	-84.3	-88.8	2.5	3.11e+01	0	47	104	0	60	1048573
2026-01-18 07:26:50.88	81.65	7.76	-84.3	-88.8	2.5	3.11e+01	0	47	104	0	60	1048573
2026-01-18 07:26:51.89	81.54	7.83	-84.3	-88.8	2.4	3.11e+01	0	47	104	0	60	1048573
2026-01-18 07:26:52.90	81.42	7.90	-83.9	-88.8	2.7	3.11e+01	0	47	104	0	60	1048573
2026-01-18 07:26:53.91	81.31	7.97	-83.9	-88.8	2.5	3.11e+01	0	47	104	0	60	1048573
2026-01-18 07:26:54.92	81.20	8.04	-84.3	-88.8	2.5	3.11e+01	0	47	104	0	60	1048573
2026-01-18 07:26:55.93	81.08	8.11	-84.3	-88.8	2.6	3.11e+01	0	47	104	0	60	1048573
2026-01-18 07:26:56.93	80.97	8.18	-84.3	-88.8	2.5	3.11e+01	0	47	104	0	60	1048573
2026-01-18 07:26:57.93	80.85	8.24	-83.9	-88.8	2.7	3.11e+01	0	47	104	0	60	1048573
2026-01-18 07:26:58.94	80.73	8.31	-84.3	-88.8	2.3	3.11e+01	0	47	104	0	60	1048575
2026-01-18 07:26:59.95	80.62	8.38	-84.3	-88.8	2.8	3.11e+01	0	47	104	0	60	1048575
2026-01-18 07:27:00.95	80.50	8.45	-84.3	-88.8	2.8	3.11e+01	0	47	104	0	60	1048575
2026-01-18 07:27:01.95	80.38	8.52	-83.9	-88.8	2.7	3.11e+01	0	47	104	0	60	1048575
2026-01-18 07:27:02.96	80.26	8.59	-83.9	-88.8	2.8	3.11e+01	0	47	104	0	60	1048575
2026-01-18 07:27:03.97	80.14	8.66	-84.3	-88.8	2.4	3.11e+01	0	47	104	0	60	1048575
2026-01-18 07:27:04.98	80.02	8.73	-84.3	-88.8	2.6	3.11e+01	0	47	104	0	60	1048575
2026-01-18 07:27:05.98	79.90	8.80	-84.3	-88.8	2.4	3.11e+01	0	47	104	0	60	1048575
2026-01-18 07:27:06.99	79.78	8.87	-83.9	-88.8	2.6	3.11e+01	0	47	104	0	60	1048575
2026-01-18 07:27:08.00	79.65	8.94	-84.3	-88.8	2.6	3.11e+01	0	47	104	0	60	1048575
2026-01-18 07:27:09.01	79.53	9.02	-84.3	-88.8	2.5	3.11e+01	0	47	104	0	60	1048575
2026-01-18 07:27:10.02	79.41	9.09	-84.3	-88.8	2.5	3.11e+01	0	47	104	0	60	1048575
2026-01-18 07:27:11.03	79.28	9.16	-84.3	-88.8	2.5	3.11e+01	0	47	104	0	60	1048575
2026-01-18 07:27:12.04	79.15	9.23	-83.5	-88.8	2.6	3.11e+01	0	47	104	0	60	1048575
2026-01-18 07:27:13.05	79.03	9.30	-84.3	-88.8	2.7	3.11e+01	0	47	104	0	60	1048575
2026-01-18 07:27:14.05	78.90	9.37	-84.3	-88.8	2.7	3.11e+01	0	47	104	0	60	1048575
2026-01-18 07:27:15.06	78.77	9.44	-84.3	-88.8	2.6	3.11e+01	0	47	104	0	60	1048575
2026-01-18 07:27:16.06	78.65	9.51	-84.3	-88.8	2.8	3.11e+01	0	47	104	0	60	1048575
2026-01-18 07:27:17.07	78.52	9.58	-83.9	-88.8	2.3	3.11e+01	0	47	104	0	60	1048575
2026-01-18 07:27:18.08	78.39	9.66	-84.3	-88.8	2.7	3.11e+01	0	47	104	0	60	1048575
2026-01-18 07:27:19.08	78.26	9.73	-84.3	-88.8	2.5	3.11e+01	0	47	104	0	60	1048575
2026-01-18 07:27:20.09	78.13	9.80	-84.3	-88.8	2.5	3.11e+01	0	47	104	0	60	1048575
2026-01-18 07:27:21.09	78.00	9.87	-83.9	-88.8	2.8	3.11e+01	0	47	104	0	60	1048575
2026-01-18 07:27:22.10	77.87	9.94	-83.9	-88.8	2.4	3.11e+01	0	47	104	0	60	1048575
2026-01-18 07:27:23.10	77.73	10.01	-84.3	-88.8	2.8	3.11e+01	0	47	104	0	60	1048575
2026-01-18 07:27:24.11	77.60	10.09	-84.3	-88.8	2.5	3.11e+01	0	47	104	0	60	1048575
2026-01-18 07:27:25.12	77.46	10.16	-84.3	-88.8	2.6	3.11e+01	0	47	104	0	60	1048575
2026-01-18 07:27:26.13	77.33	10.23	-83.9	-88.8	2.6	3.11e+01	0	47	104	0	60	1048575
2026-01-18 07:27:27.14	77.19	10.30	-83.9	-88.8	2.7	3.11e+01	0	47	104	0	60	1048575
2026-01-18 07:27:28.15	77.06	10.37	-84.3	-88.8	2.7	3.11e+01	0	47	104	0	60	1048575
2026-01-18 07:27:29.15	76.92	10.45	-84.3	-88.8	2.7	3.11e+01	0	47	104	0	60	1048575
2026-01-18 07:27:30.16	76.78	10.52	-84.3	-88.8	2.6	3.11e+01	0	47	104	0	60	1048575
2026-01-18 07:27:31.16	76.64	10.59	-83.9	-88.8	2.7	3.11e+01	0	47	104	0	60	1048575
2026-01-18 07:27:32.17	76.50	10.66	-84.3	-88.8	2.6	3.11e+01	0	47	104	0	60	1048575
2026-01-18 07:27:33.17	76.36	10.74	-84.3	-88.8	2.7	3.11e+01	0	47	104	0	60	1048575
2026-01-18 07:27:34.18	76.22	10.81	-84.3	-88.8	2.7	3.11e+01	0	47	104	0	60	1048575
2026-01-18 07:27:35.18	76.08	10.88	-83.9	-88.8	2.8	3.11e+01	0	47	104	0	60	1048575
2026-01-18 07:27:36.19	75.94	10.96	-83.9	-88.8	2.7	3.11e+01	0	47	104	0	60	1048575
2026-01-18 07:27:37.20	75.79	11.03	-84.3	-88.8	2.6	3.11e+01	0	47	104	0	60	1048575
2026-01-18 07:27:38.21	75.65	11.10	-84.3	-88.8	2.5	3.11e+01	0	47	104	0	60	1048575
2026-01-18 07:27:39.21	75.51	11.17	-84.3	-88.8	2.7	3.11e+01	0	47	104	0	60	1048575
2026-01-18 07:27:40.22	75.36	11.25	-83.9	-88.8	2.5	3.11e+01	0	47	104	0	60	1048575
2026-01-18 07:27:41.23	75.21	11.32	-83.9	-88.8	2.7	3.11e+01	0	47	104	0	60	1048575
2026-01-18 07:27:42.24	75.06	11.40	-84.3	-88.8	2.6	3.11e+01	0	47	104	0	60	1048575
2026-01-18 07:27:43.24	74.92	11.47	-84.3	-88.8	2.6	3.11e+01	0	47	104	0	60	1048575
2026-01-18 07:27:44.25	74.77	11.54	-84.3	-88.8	2.5	3.11e+01	0	47	104	0	60	1048575
2026-01-18 07:27:45.26	74.62	11.62	-83.9	-88.8	2.6	3.11e+01	0	47	104	0	60	1048575
2026-01-18 07:27:46.27	74.47	11.69	-84.3	-88.8	2.6	3.11e+01	0	47	104	0	60	1048575
2026-01-18 07:27:47.28	74.31	11.76	-84.3	-88.8	2.5	3.11e+01	0	47	104	0	60	1048575
2026-01-18 07:27:48.28	74.16	11.84	-84.3	-88.8	2.7	3.11e+01	0	47	104	0	60	1048575
2026-01-18 07:27:49.29	74.01	11.91	-84.3	-88.8	2.5	3.11e+01	0	47	104	0	60	1048575
2026-01-18 07:27:50.29	73.86	11.98	-83.9	-88.8	2.6	3.11e+01	0	47	104	0	60	1048575
2026-01-18 07:27:51.30	73.70	12.06	-84.3	-88.8	2.6	3.11e+01	0	47	104	0	60	1048575
2026-01-18 07:27:52.30	73.55	12.13	-84.3	-88.8	2.5	3.11e+01	0	47	104	0	60	1048575
2026-01-18 07:27:53.31	73.39	12.21	-84.3	-88.8	2.7	3.11e+01	0	47	104	0	60	1048575
2026-01-18 07:27:54.32	73.23	12.28	-83.9	-88.8	2.5	3.11e+01	0	47	104	0	60	1048575
2026-01-18 07:27:55.33	73.07	12.36	-83.9	-88.8	2.5	3.11e+01	0	47	104	0	60	1048575
2026-01-18 07:27:56.34	72.91	12.43	-84.3	-88.8	2.6	3.11e+01	0	47	104	0	60	1048575
2026-01-18 07:27:57.34	72.75	12.50	-84.3	-88.8	2.5	3.11e+01	0	47	104	0	60	1048575
2026-01-18 07:27:58.35	72.59	12.58	-84.3	-88.8	2.5	3.11e+01	0	47	104	0	60	1048575
2026-01-18 07:27:59.36	72.43	12.65	-83.9	-88.8	2.4	3.11e+01	0	47	104	0	60	1048575
2026-01-18 07:28:00.37	72.27	12.73	-83.9	-88.8	2.5	3.11e+01	0	47	104	0	60	1048575
2026-01-18 07:28:01.38	72.10	12.80	-84.3	-88.8	2.7	3.11e+01	0	47	104	0	60	1048575
2026-01-18 07:28:02.39	71.94	12.88	-84.3	-88.8	2.5	3.11e+01	0	47	104	0	60	1048575
2026-01-18 07:28:03.39	71.77	12.95	-84.3	-88.8	2.5	3.11e+01	0	47	104	0	60	1048575
2026-01-18 07:28:04.39	71.61	13.02	-83.9	-88.8	2.6	3.11e+01	0	47	104	0	60	1048575
2026-01-18 07:28:05.40	71.44	13.10	-84.3	-88.8	2.5	3.11e+01	0	47	104	0	60	1048575
2026-01-18 07:28:06.40	71.27	13.17	-84.3	-88.8	2.7	3.11e+01	0	47	104	0	60	1048575
2026-01-18 07:28:07.41	71.10	13.25	-84.3	-88.8	2.7	3.11e+01	0	47	104	0	60	1048575
2026-01-18 07:28:08.42	70.93	13.32	-84.3	-88.8	2.5	3.11e+01	0	47	104	0	60	1048575
2026-01-18 07:28:09.43	70.76	13.40	-83.5	-88.8	2.6	3.11e+01	0	47	104	0	60	1048575
2026-01-18 07:28:10.44	70.59	13.47	-84.3	-88.8	2.3	3.11e+01	0	47	104	0	60	1048575
2026-01-18 07:28:11.45	70.42	13.55	-84.3	-88.8	2.6	3.11e+01	0	47	104	0	60	1048575
2026-01-18 07:28:12.45	70.24	13.62	-84.3	-88.8	2.6	3.11e+01	0	47	104	0	60	1048575
2026-01-18 07:28:13.46	70.07	13.70	-83.9	-88.8	2.6	3.11e+01	0	47	104	0	60	1048575
2026-01-18 07:28:14.47	69.89	13.77	-83.9	-88.8	2.6	3.11e+01	0	47	104	0	60	1048575
2026-01-18 07:28:15.48	69.71	13.85	-84.3	-88.8	2.4	3.11e+01	0	47	104	0	60	1048575
2026-01-18 07:28:16.49	69.54	13.92	-84.3	-88.8	2.3	3.11e+01	0	47	104	0	60	1048575
2026-01-18 07:28:17.50	69.36	14.00	-84.3	-88.8	2.5	3.11e+01	0	47	104	0	60	1048575
2026-01-18 07:28:18.51	69.18	14.07	-83.9	-88.8	2.6	3.11e+01	0	47	104	0	60	1048575
2026-01-18 07:28:19.51	69.00	14.14	-84.3	-88.8	2.6	3.11e+01	0	47	104	0	60	1048575
2026-01-18 07:28:20.52	68.81	14.22	-84.3	-88.8	2.6	3.11e+01	0	47	104	0	60	1048575
2026-01-18 07:28:21.52	68.63	14.29	-84.3	-88.8	2.5	3.11e+01	0	47	104	0	60	1048575
2026-01-18 07:28:22.53	68.45	14.37	-84.3	-88.8	2.5	3.11e+01	0	47	104	0	60	1048575
2026-01-18 07:28:23.53	68.27	14.44	-83.9	-88.8	2.5	3.11e+01	0	47	104	0	60	1048575
2026-01-18 07:28:24.54	68.08	14.52	-84.3	-88.8	2.5	3.11e+01	0	47	104	0	60	1048575
2026-01-18 07:28:25.55	67.89	14.59	-84.3	-88.8	2.5	3.11e+01	0	47	104	0	60	1048575
2026-01-18 07:28:26.56	67.70	14.67	-84.3	-88.8	2.6	3.11e+01	0	47	104	0	60	1048575
2026-01-18 07:28:27.56	67.52	14.74	-84.3	-88.8	2.5	3.11e+01	0	47	104	0	60	1048575
2026-01-18 07:28:28.57	67.33	14.81	-83.9	-88.8	2.6	3.11e+01	0	47	104	0	60	1048575
2026-01-18 07:28:29.58	67.14	14.89	-84.3	-88.8	2.5	3.11e+01	0	47	104	0	60	1048575
2026-01-18 07:28:30.59	66.94	14.96	-84.3	-88.8	2.7	3.11e+01	0	47	104	0	60	1048575
2026-01-18 07:28:31.59	66.75	15.04	-84.3	-88.8	2.5	3.11e+01	0	47	104	0	60	1048575
2026-01-18 07:28:32.60	66.56	15.11	-83.9	-88.8	2.6	3.11e+01	0	47	104	0	60	1048575
2026-01-18 07:28:33.61	66.36	15.18	-83.9	-88.8	2.5	3.11e+01	0	47	104	0	60	1048575
2026-01-18 07:28:34.62	66.17	15.26	-84.3	-88.8	2.7	3.11e+01	0	47	104	0	60	1048575
2026-01-18 07:28:35.63	65.97	15.33	-84.3	-88.8	2.4	3.11e+01	0	47	104	0	60	1048575
2026-01-18 07:28:36.64	65.77	15.41	-84.3	-88.8	2.7	3.11e+01	0	47	104	0	60	1048575
2026-01-18 07:28:37.63	65.57	15.48	-83.9	-88.8	2.6	3.11e+01	0	47	104	0	60	1048575
2026-01-18 07:28:38.64	65.37	15.55	-83.9	-88.8	2.7	3.11e+01	0	47	104	0	60	1048575
2026-01-18 07:28:39.65	65.17	15.63	-84.3	-88.8	2.8	3.11e+01	0	47	104	0	60	1048575
2026-01-18 07:28:40.66	64.97	15.70	-84.3	-88.8	2.6	3.11e+01	0	47	104	0	60	1048575
2026-01-18 07:28:41.66	64.77	15.77	-84.3	-88.8	2.7	3.11e+01	0	47	104	0	60	1048575
2026-01-18 07:28:42.67	64.56	15.85	-83.9	-88.8	2.5	3.11e+01	0	47	104	0	60	1048575
2026-01-18 07:28:43.68	64.36	15.92	-83.9	-88.8	2.4	3.11e+01	0	47	104	0	60	1048575
2026-01-18 07:28:44.69	64.15	15.99	-84.3	-88.8	2.6	3.11e+01	0	47	104	0	60	1048575
2026-01-18 07:28:45.70	63.94	16.07	-84.3	-88.8	2.6	3.11e+01	0	47	104	0	60	1048575
2026-01-18 07:28:46.70	63.73	16.14	-84.3	-88.8	2.4	3.11e+01	0	47	104	0	60	1048575
2026-01-18 07:28:47.72	63.52	16.21	-84.3	-88.8	2.6	3.11e+01	0	47	104	0	60	1048575
2026-01-18 07:28:48.72	63.31	16.28	-84.3	-88.8	2.4	3.11e+01	0	47	104	0	60	1048575
2026-01-18 07:28:49.73	63.10	16.36	-84.3	-88.8	2.5	3.11e+01	0	47	104	0	60	1048575
2026-01-18 07:28:50.74	62.88	16.43	-84.3	-88.8	2.6	3.11e+01	0	47	104	0	60	1048575
2026-01-18 07:28:51.74	62.67	16.50	-83.9	-88.8	2.5	3.11e+01	0	47	104	0	60	1048575
2026-01-18 07:28:52.75	62.46	16.57	-83.9	-88.8	2.7	3.11e+01	0	47	104	0	60	1048575
2026-01-18 07:28:53.76	62.24	16.64	-84.3	-88.8	2.3	3.11e+01	0	47	104	0	60	1048575
2026-01-18 07:28:54.76	62.02	16.71	-84.3	-88.8	2.5	3.11e+01	0	47	104	0	60	1048575
2026-01-18 07:28:55.77	61.80	16.79	-83.9	-88.8	2.5	3.11e+01	0	47	104	0	60	1048575
2026-01-18 07:28:56.78	61.58	16.86	-83.9	-88.8	2.7	3.11e+01	0	47	104	0	60	1048575
2026-01-18 07:28:57.79	61.36	16.93	-84.3	-88.8	2.6	3.11e+01	0	47	104	0	60	1048575
2026-01-18 07:28:58.80	61.14	17.00	-84.3	-88.8	2.6	3.11e+01	0	47	104	0	60	1048575
2026-01-18 07:28:59.80	60.92	17.07	-84.3	-88.8	2.7	3.11e+01	0	47	104	0	60	1048575
2026-01-18 07:29:00.80	60.70	17.14	-84.3	-88.8	2.5	3.11e+01	0	47	104	0	60	1048575
2026-01-18 07:29:01.81	60.47	17.21	-83.9	-88.8	2.8	3.11e+01	0	47	104	0	60	1048575
2026-01-18 07:29:02.81	60.24	17.28	-84.3	-88.8	2.8	3.11e+01	0	47	104	0	60	1048575
2026-01-18 07:29:03.82	60.02	17.35	-84.3	-88.8	2.7	3.11e+01	0	47	104	0	60	1048575
2026-01-18 07:29:04.82	59.79	17.42	-84.3	-88.8	2.7	3.11e+01	0	47	104	0	60	1048575
2026-01-18 07:29:05.83	59.56	17.49	-83.9	-88.8	2.7	3.11e+01	0	47	104	0	60	1048575
2026-01-18 07:29:06.84	59.33	17.56	-83.9	-88.8	2.5	3.11e+01	0	47	104	0	60	1048575
2026-01-18 07:29:07.84	59.10	17.62	-84.3	-88.8	2.5	3.11e+01	0	47	104	0	60	1048575
2026-01-18 07:29:08.85	58.86	17.69	-84.3	-88.8	2.7	3.11e+01	0	47	104	0	60	1048575
2026-01-18 07:29:09.86	58.63	17.76	-84.3	-88.8	2.5	3.11e+01	0	47	104	0	60	1048575
2026-01-18 07:29:10.86	58.39	17.83	-83.9	-88.8	2.8	3.11e+01	0	47	104	0	60	1048575
2026-01-18 07:29:11.87	58.16	17.90	-84.3	-88.8	2.2	3.11e+01	0	47	104	0	60	1048575
2026-01-18 07:29:12.88	57.92	17.96	-84.3	-88.8	2.5	3.11e+01	0	47	104	0	60	1048575
2026-01-18 07:29:13.88	57.68	18.03	-84.3	-88.8	2.3	3.11e+01	0	47	104	0	60	1048575
2026-01-18 07:29:14.88	57.44	18.10	-83.9	-88.8	2.3	3.11e+01	0	47	104	0	60	1048575
2026-01-18 07:29:15.89	57.20	18.16	-83.9	-88.8	2.7	3.11e+01	0	47	104	0	60	1048575
2026-01-18 07:29:16.90	56.96	18.23	-84.3	-88.8	2.4	3.11e+01	0	47	104	0	60	1048575
2026-01-18 07:29:17.91	56.71	18.30	-84.3	-88.8	2.7	3.11e+01	0	47	104	0	60	1048575
2026-01-18 07:29:18.91	56.47	18.36	-84.3	-88.8	2.5	3.11e+01	0	47	104	0	60	1048575
2026-01-18 07:29:19.92	56.23	18.43	-84.3	-88.8	2.6	3.11e+01	0	47	104	0	60	1048575
2026-01-18 07:29:20.93	55.98	18.49	-83.9	-88.8	2.5	3.11e+01	0	47	104	0	60	1048575
2026-01-18 07:29:21.94	55.73	18.56	-83.9	-88.8	2.6	3.11e+01	0	47	104	0	60	1048575
2026-01-18 07:29:22.95	55.48	18.62	-84.3	-88.8	2.4	3.11e+01	0	47	104	0	60	1048575
2026-01-18 07:29:23.96	55.23	18.69	-84.3	-88.8	2.7	3.11e+01	0	47	104	0	60	1048575
2026-01-18 07:29:24.96	54.98	18.75	-83.9	-88.8	2.3	3.11e+01	0	47	104	0	60	1048575
2026-01-18 07:29:25.97	54.73	18.81	-84.3	-88.8	2.6	3.11e+01	0	47	104	0	60	1048575
2026-01-18 07:29:26.98	54.47	18.87	-84.3	-88.8	2.7	3.11e+01	0	47	104	0	60	1048575
2026-01-18 07:29:27.99	54.22	18.94	-84.3	-88.8	2.6	3.11e+01	0	47	104	0	60	1048575
2026-01-18 07:29:28.99	53.96	19.00	-84.3	-88.8	2.7	3.11e+01	0	47	104	0	60	1048575
2026-01-18 07:29:30.00	53.71	19.06	-83.9	-88.8	2.8	3.11e+01	0	47	104	0	60	1048575
2026-01-18 07:29:31.00	53.45	19.12	-84.3	-88.8	2.5	3.11e+01	0	47	104	0	60	1048575
2026-01-18 07:29:32.01	53.19	19.18	-84.3	-88.8	2.6	3.11e+01	0	47	104	0	60	1048575
2026-01-18 07:29:33.01	52.93	19.24	-84.3	-88.8	2.8	3.11e+01	0	47	104	0	60	1048575
2026-01-18 07:29:34.02	52.67	19.30	-84.3	-88.8	2.6	3.11e+01	0	47	104	0	60	1048575
2026-01-18 07:29:35.03	52.41	19.36	-83.9	-88.8	2.8	3.11e+01	0	47	104	0	60	1048575
2026-01-18 07:29:36.04	52.14	19.42	-84.3	-88.8	2.8	3.11e+01	0	47	104	0	60	1048575
2026-01-18 07:29:37.04	51.88	19.48	-84.3	-88.8	2.7	3.11e+01	0	47	104	0	60	1048575
2026-01-18 07:29:38.05	51.62	19.54	-84.3	-88.8	2.6	3.11e+01	0	47	104	0	60	1048575
2026-01-18 07:29:39.06	51.35	19.59	-83.9	-88.8	2.7	3.11e+01	0	47	104	0	60	1048575
2026-01-18 07:29:40.07	51.08	19.65	-83.9	-88.8	2.7	3.11e+01	0	47	104	0	60	1048575
2026-01-18 07:29:41.08	50.81	19.71	-84.3	-88.8	2.5	3.11e+01	0	47	104	0	60	1048575
2026-01-18 07:29:42.09	50.54	19.77	-84.3	-88.8	2.6	3.11e+01	0	47	104	0	60	1048575
2026-01-18 07:29:43.09	50.27	19.82	-84.3	-88.8	2.6	3.11e+01	0	47	104	0	60	1048575
2026-01-18 07:29:44.10	50.00	19.88	-83.9	-88.8	2.5	3.11e+01	0	47	104	0	60	1048575
2026-01-18 07:29:45.11	49.73	19.93	-84.3	-88.8	2.6	3.11e+01	0	47	104	0	60	1048575
2026-01-18 07:29:46.11	49.45	19.98	-84.3	-88.8	2.4	3.11e+01	0	47	104	0	60	1048575
2026-01-18 07:29:47.12	49.18	20.04	-84.3	-88.8	2.7	3.11e+01	0	47	104	0	60	1048575
2026-01-18 07:29:48.13	48.90	20.09	-84.3	-88.8	2.5	3.11e+01	0	47	104	0	60	1048575
2026-01-18 07:29:49.13	48.63	20.14	-83.9	-88.8	2.7	3.11e+01	0	47	104	0	60	1048575
2026-01-18 07:29:50.14	48.35	20.19	-83.9	-88.8	2.6	3.11e+01	0	47	104	0	60	1048575
2026-01-18 07:29:51.14	48.07	20.25	-84.3	-88.8	2.5	3.11e+01	0	47	104	0	60	1048575
2026-01-18 07:29:52.14	47.79	20.30	-84.3	-88.8	2.7	3.11e+01	0	47	104	0	60	1048575
2026-01-18 07:29:53.15	47.51	20.35	-83.9	-88.8	2.3	3.11e+01	0	47	104	0	60	1048575
2026-01-18 07:29:54.16	47.23	20.40	-83.9	-88.8	2.6	3.11e+01	0	47	104	0	60	1048575
2026-01-18 07:29:55.16	46.95	20.44	-84.3	-88.8	2.5	3.11e+01	0	47	104	0	60	1048575
2026-01-18 07:29:56.17	46.66	20.49	-83.9	-88.8	2.7	3.11e+01	0	47	104	0	60	1048575
2026-01-18 07:29:57.17	46.38	20.54	-84.3	-88.8	2.8	3.11e+01	0	47	104	0	60	1048575
2026-01-18 07:29:58.18	46.10	20.59	-83.9	-88.8	2.5	3.11e+01	0	47	104	0	60	1048575
2026-01-18 07:29:59.19	45.81	20.63	-83.9	-88.8	2.7	3.11e+01	0	47	104	0	60	1048575
2026-01-18 07:30:00.20	45.52	20.68	-84.3	-88.8	2.7	3.11e+01	0	47	104	0	60	1048575
2026-01-18 07:30:01.20	45.23	20.73	-84.3	-88.8	2.6	3.11e+01	0	47	104	0	60	1048575
2026-01-18 07:30:02.20	44.95	20.77	-84.3	-88.8	2.6	3.11e+01	0	47	104	0	60	1048575
2026-01-18 07:30:03.21	44.66	20.81	-83.9	-88.8	2.7	3.11e+01	0	47	104	0	60	1048575
2026-01-18 07:30:04.22	44.36	20.86	-83.9	-88.8	2.7	3.11e+01	0	47	104	0	60	1048575
2026-01-18 07:30:05.22	44.07	20.90	-84.3	-88.8	2.7	3.11e+01	0	47	104	0	60	1048575
2026-01-18 07:30:06.23	43.78	20.94	-84.3	-88.8	2.7	3.11e+01	0	47	104	0	60	1048575
2026-01-18 07:30:07.23	43.49	20.98	-83.9	-88.8	2.5	3.11e+01	0	47	104	0	60	1048575
2026-01-18 07:30:08.24	43.19	21.02	-83.5	-88.8	2.6	3.11e+01	0	47	104	0	60	1048575
2026-01-18 07:30:09.25	42.90	21.06	-83.9	-88.8	2.5	3.11e+01	0	47	104	0	60	1048575
2026-01-18 07:30:10.26	42.60	21.10	-84.3	-88.8	2.5	3.11e+01	0	47	104	0	60	1048575
2026-01-18 07:30:11.26	42.31	21.14	-84.3	-88.8	2.7	3.11e+01	0	47	104	0	60	1048575
2026-01-18 07:30:12.27	42.01	21.18	-83.9	-88.8	2.6	3.11e+01	0	47	104	0	60	1048575
2026-01-18 07:30:13.28	41.71	21.22	-83.9	-88.8	2.7	3.11e+01	0	47	104	0	60	1048575
2026-01-18 07:30:14.29	41.41	21.25	-84.3	-88.8	2.5	3.11e+01	0	47	104	0	60	1048575
2026-01-18 07:30:15.30	41.11	21.29	-84.3	-88.8	2.5	3.11e+01	0	47	104	0	60	1048575
2026-01-18 07:30:16.31	40.81	21.32	-84.3	-88.8	2.6	3.11e+01	0	47	104	0	60	1048575
2026-01-18 07:30:17.31	40.51	21.36	-83.9	-88.8	2.7	3.11e+01	0	47	104	0	60	1048575
2026-01-18 07:30:18.31	40.21	21.39	-84.3	-88.8	2.7	3.11e+01	0	47	104	0	60	1048575
2026-01-18 07:30:19.32	39.91	21.42	-84.3	-88.8	2.8	3.11e+01	0	47	104	0	60	1048575
2026-01-18 07:30:20.33	39.60	21.45	-83.9	-88.8	2.7	3.11e+01	0	47	104	0	60	1048575
2026-01-18 07:30:21.33	39.30	21.48	-84.3	-88.8	2.6	3.11e+01	0	47	104	0	60	1048575
2026-01-18 07:30:22.34	39.00	21.51	-83.9	-88.8	2.6	3.11e+01	0	47	104	0	60	1048575
2026-01-18 07:30:23.34	38.69	21.54	-84.3	-88.8	2.4	3.11e+01	0	47	104	0	60	1048575
2026-01-18 07:30:24.35	38.39	21.57	-84.3	-88.8	2.7	3.11e+01	0	47	104	0	60	1048575
2026-01-18 07:30:25.36	38.08	21.60	-84.3	-88.8	2.4	3.11e+01	0	47	104	0	60	1048575
2026-01-18 07:30:26.36	37.78	21.63	-84.3	-88.8	2.6	3.11e+01	0	47	104	0	60	1048575
2026-01-18 07:30:27.37	37.47	21.65	-83.9	-88.8	2.7	3.11e+01	0	47	104	0	60	1048575
2026-01-18 07:30:28.38	37.16	21.68	-84.3	-88.8	2.7	3.11e+01	0	47	104	0	60	1048575
2026-01-18 07:30:29.39	36.85	21.70	-84.3	-88.8	2.5	3.11e+01	0	47	104	0	60	1048575
2026-01-18 07:30:30.39	36.54	21.73	-84.3	-88.8	2.6	3.11e+01	0	47	104	0	60	1048575
2026-01-18 07:30:31.40	36.23	21.75	-84.3	-88.8	2.5	3.11e+01	0	47	104	0	60	1048575
2026-01-18 07:30:32.40	35.93	21.77	-83.9	-88.8	2.7	3.11e+01	0	47	104	0	60	1048575
2026-01-18 07:30:33.41	35.61	21.79	-84.3	-88.8	2.3	3.11e+01	0	47	104	0	60	1048575
2026-01-18 07:30:34.42	35.30	21.81	-84.3	-88.8	2.5	3.11e+01	0	47	104	0	60	1048575
2026-01-18 07:30:35.42	34.99	21.83	-84.3	-88.8	2.7	3.11e+01	0	47	104	0	60	1048575
2026-01-18 07:30:36.43	34.68	21.85	-83.9	-88.8	2.7	3.11e+01	0	47	104	0	60	1048575
2026-01-18 07:30:37.44	34.37	21.87	-84.3	-88.8	2.3	3.11e+01	0	47	104	0	60	1048575
2026-01-18 07:30:38.45	34.06	21.89	-84.3	-88.8	2.5	3.11e+01	0	47	104	0	60	1048575
2026-01-18 07:30:39.45	33.75	21.90	-84.3	-88.8	2.5	3.11e+01	0	47	104	0	60	1048575
2026-01-18 07:30:40.45	33.44	21.92	-84.3	-88.8	2.6	3.11e+01	0	47	104	0	60	1048575
2026-01-18 07:30:41.46	33.12	21.93	-83.9	-88.8	2.8	3.11e+01	0	47	104	0	60	1048575
2026-01-18 07:30:42.46	32.81	21.95	-84.3	-88.8	2.6	3.11e+01	0	47	104	0	60	1048575
2026-01-18 07:30:43.47	32.50	21.96	-84.3	-88.8	2.6	3.11e+01	0	47	104	0	60	1048575
2026-01-18 07:30:44.48	32.18	21.97	-84.3	-88.8	2.5	3.11e+01	0	47	104	0	60	1048575
2026-01-18 07:30:45.48	31.87	21.98	-83.9	-88.8	2.4	3.11e+01	0	47	104	0	60	1048575
2026-01-18 07:30:46.49	31.55	21.99	-83.9	-88.8	2.7	3.11e+01	0	47	104	0	60	1048575
2026-01-18 07:30:47.50	31.24	22.00	-84.3	-88.8	2.7	3.11e+01	0	47	104	0	60	1048575
2026-01-18 07:30:48.51	30.92	22.01	-84.3	-88.8	2.6	3.11e+01	0	47	104	0	60	1048575
2026-01-18 07:30:49.51	30.61	22.02	-84.3	-88.8	2.7	3.11e+01	0	47	104	0	60	1048575
2026-01-18 07:30:50.52	30.29	22.02	-83.9	-88.8	2.5	3.11e+01	0	47	104	0	60	1048575
2026-01-18 07:30:51.52	29.98	22.03	-83.9	-88.8	2.6	3.11e+01	0	47	104	0	60	1048575
2026-01-18 07:30:52.53	29.66	22.03	-84.3	-88.8	2.7	3.11e+01	0	47	104	0	60	1048575
2026-01-18 07:30:53.53	29.35	22.04	-84.3	-88.8	2.6	3.11e+01	0	47	104	0	60	1048575
2026-01-18 07:30:54.54	29.03	22.04	-84.3	-88.8	2.8	3.11e+01	0	47	104	0	60	1048575
2026-01-18 07:30:55.54	28.72	22.04	-83.9	-88.8	2.7	3.11e+01	0	47	104	0	60	1048575
2026-01-18 07:30:56.54	28.41	22.04	-84.3	-88.8	2.6	3.11e+01	0	47	104	0	60	1048575
2026-01-18 07:30:57.54	28.09	22.04	-84.3	-88.8	2.7	3.11e+01	0	47	104	0	60	1048575
2026-01-18 07:30:58.55	27.78	22.04	-84.3	-88.8	2.7	3.11e+01	0	47	104	0	60	1048575
2026-01-18 07:30:59.55	27.46	22.04	-84.3	-88.8	2.6	3.11e+01	0	47	104	0	60	1048575
2026-01-18 07:31:00.56	27.15	22.04	-83.9	-88.8	2.5	3.11e+01	0	47	104	0	60	1048575
2026-01-18 07:31:01.57	26.83	22.03	-84.3	-88.8	2.6	3.11e+01	0	47	104	0	60	1048575
2026-01-18 07:31:02.57	26.52	22.03	-84.3	-88.8	2.5	3.11e+01	0	47	104	0	60	1048575
2026-01-18 07:31:03.58	26.20	22.02	-84.3	-88.8	2.4	3.11e+01	0	47	104	0	60	1048575
2026-01-18 07:31:04.59	25.89	22.02	-83.9	-88.8	2.5	3.11e+01	0	47	104	0	60	1048575
2026-01-18 07:31:05.60	25.57	22.01	-83.9	-88.8	2.4	3.11e+01	0	47	104	0	60	1048575
2026-01-18 07:31:06.61	25.25	22.00	-84.3	-88.8	2.3	3.11e+01	0	47	104	0	60	1048575
2026-01-18 07:31:07.61	24.94	22.00	-84.3	-88.8	2.6	3.11e+01	0	47	104	0	60	1048575
2026-01-18 07:31:08.62	24.63	21.99	-84.3	-88.8	2.4	3.11e+01	0	47	104	0	60	1048575
2026-01-18 07:31:09.63	24.31	21.98	-83.9	-88.8	2.5	3.11e+01	0	47	104	0	60	1048575
2026-01-18 07:31:10.63	24.00	21.96	-84.3	-88.8	2.6	3.11e+01	0	47	104	0	60	1048575
2026-01-18 07:31:11.64	23.68	21.95	-84.3	-88.8	2.6	3.11e+01	0	47	104	0	60	1048575
2026-01-18 07:31:12.64	23.37	21.94	-84.3	-88.8	2.5	3.11e+01	0	47	104	0	60	1048575
2026-01-18 07:31:13.65	23.06	21.93	-83.9	-88.8	2.7	3.11e+01	0	47	104	0	60	1048575
2026-01-18 07:31:14.65	22.75	21.91	-83.9	-88.8	2.6	3.11e+01	0	47	104	0	60	1048575
2026-01-18 07:31:15.66	22.43	21.90	-83.9	-88.8	2.5	3.11e+01	0	47	104	0	60	1048575
2026-01-18 07:31:16.66	22.12	21.88	-84.3	-88.8	2.5	3.11e+01	0	47	104	0	60	1048575
2026-01-18 07:31:17.67	21.81	21.86	-83.9	-88.8	2.6	3.11e+01	0	47	104	0	60	1048575
2026-01-18 07:31:18.68	21.50	21.84	-84.3	-88.8	2.7	3.11e+01	0	47	104	0	60	1048575
2026-01-18 07:31:19.68	21.19	21.82	-83.9	-88.8	2.8	3.11e+01	0	47	104	0	60	1048575
2026-01-18 07:31:20.69	20.88	21.80	-84.3	-88.8	2.8	3.11e+01	0	47	104	0	60	1048575
2026-01-18 07:31:21.70	20.57	21.78	-84.3	-88.8	2.7	3.11e+01	0	47	104	0	60	1048575
2026-01-18 07:31:22.71	20.26	21.76	-84.3	-88.8	2.8	3.11e+01	0	47	104	0	60	1048575
2026-01-18 07:31:23.72	19.95	21.74	-83.9	-88.8	2.7	3.11e+01	0	47	104	0	60	1048575
2026-01-18 07:31:24.73	19.64	21.72	-83.9	-88.8	2.7	3.11e+01	0	47	104	0	60	1048575
2026-01-18 07:31:25.73	19.33	21.69	-84.3	-88.8	2.5	3.11e+01	0	47	104	0	60	1048575
2026-01-18 07:31:26.74	19.02	21.67	-84.3	-88.8	2.5	3.11e+01	0	47	104	0	60	1048575
2026-01-18 07:31:27.75	18.71	21.64	-84.3	-88.8	2.7	3.11e+01	0	47	104	0	60	1048575
2026-01-18 07:31:28.76	18.41	21.61	-83.9	-88.8	2.7	3.11e+01	0	47	104	0	60	1048575
2026-01-18 07:31:29.76	18.10	21.59	-84.3	-88.8	2.5	3.11e+01	0	47	104	0	60	1048575
2026-01-18 07:31:30.77	17.80	21.56	-84.3	-88.8	2.6	3.11e+01	0	47	104	0	60	1048575
2026-01-18 07:31:31.77	17.49	21.53	-84.3	-88.8	2.6	3.11e+01	0	47	104	0	60	1048575
2026-01-18 07:31:32.78	17.19	21.50	-84.3	-88.8	2.6	3.11e+01	0	47	104	0	60	1048575
2026-01-18 07:31:33.79	16.88	21.47	-83.9	-88.8	2.6	3.11e+01	0	47	104	0	60	1048575
2026-01-18 07:31:34.80	16.58	21.44	-84.3	-88.8	2.7	3.11e+01	0	47	104	0	60	1048575
2026-01-18 07:31:35.80	16.28	21.41	-84.3	-88.8	2.6	3.11e+01	0	47	104	0	60	1048575
2026-01-18 07:31:36.81	15.98	21.37	-84.3	-88.8	2.6	3.11e+01	0	47	104	0	60	1048575
2026-01-18 07:31:37.82	15.67	21.34	-84.3	-88.8	2.5	3.11e+01	0	47	104	0	60	1048575
2026-01-18 07:31:38.82	15.38	21.31	-83.9	-88.8	2.5	3.11e+01	0	47	104	0	60	1048575
2026-01-18 07:31:39.83	15.08	21.27	-84.3	-88.8	2.5	3.11e+01	0	47	104	0	60	1048575
2026-01-18 07:31:40.84	14.78	21.24	-84.3	-88.8	2.5	3.11e+01	0	47	104	0	60	1048575
2026-01-18 07:31:41.85	14.48	21.20	-84.3	-88.8	2.6	3.11e+01	0	47	104	0	60	1048575
2026-01-18 07:31:42.85	14.18	21.16	-83.9	-88.8	2.7	3.11e+01	0	47	104	0	60	1048575
2026-01-18 07:31:43.86	13.88	21.12	-83.9	-88.8	2.4	3.11e+01	0	47	104	0	60	1048575
2026-01-18 07:31:44.86	13.59	21.08	-84.3	-88.8	2.6	3.11e+01	0	47	104	0	60	1048575
2026-01-18 07:31:45.87	13.29	21.05	-84.3	-88.8	2.3	3.11e+01	0	47	104	0	60	1048575
2026-01-18 07:31:46.87	13.00	21.01	-84.3	-88.8	2.7	3.11e+01	0	47	104	0	60	1048575
2026-01-18 07:31:47.88	12.71	20.96	-83.9	-88.8	2.5	3.11e+01	0	47	104	0	60	1048575
2026-01-18 07:31:48.88	12.42	20.92	-84.3	-88.8	2.6	3.11e+01	0	47	104	0	60	1048575
2026-01-18 07:31:49.89	12.12	20.88	-84.3	-88.8	2.5	3.11e+01	0	47	104	0	60	1048575
2026-01-18 07:31:50.90	11.83	20.84	-84.3	-88.8	2.7	3.11e+01	0	47	104	0	60	1048575
2026-01-18 07:31:51.91	11.54	20.79	-84.3	-88.8	2.5	3.11e+01	0	47	104	0	60	1048575
2026-01-18 07:31:52.91	11.25	20.75	-83.9	-88.8	2.7	3.11e+01	0	47	104	0	60	1048575
2026-01-18 07:31:53.93	10.96	20.71	-84.3	-88.8	2.6	3.11e+01	0	47	104	0	60	1048575
2026-01-18 07:31:54.93	10.68	20.66	-84.3	-88.8	2.7	3.11e+01	0	47	104	0	60	1048575
2026-01-18 07:31:55.94	10.39	20.61	-84.3	-88.8	2.6	3.11e+01	0	47	104	0	60	1048575
2026-01-18 07:31:56.95	10.10	20.57	-83.9	-88.8	2.7	3.11e+01	0	47	104	0	60	1048575
2026-01-18 07:31:57.95	9.82	20.52	-83.9	-88.8	2.6	3.11e+01	0	47	104	0	60	1048575
2026-01-18 07:31:58.96	9.54	20.47	-84.3	-88.8	2.8	3.11e+01	0	47	104	0	60	1048575
2026-01-18 07:31:59.96	9.26	20.42	-84.3	-88.8	2.4	3.11e+01	0	47	104	0	60	1048575
2026-01-18 07:32:00.96	8.98	20.37	-84.3	-88.8	2.7	3.11e+01	0	47	104	0	60	1048575
2026-01-18 07:32:01.97	8.69	20.32	-83.9	-88.8	2.5	3.11e+01	0	47	104	0	60	1048575
2026-01-18 07:32:02.97	8.42	20.27	-84.3	-88.8	2.5	3.11e+01	0	47	104	0	60	1048575
2026-01-18 07:32:03.97	8.14	20.22	-84.3	-88.8	2.7	3.11e+01	0	47	104	0	60	1048575
2026-01-18 07:32:04.98	7.86	20.17	-84.3	-88.8	2.5	3.11e+01	0	47	104	0	60	1048575
2026-01-18 07:32:05.99	7.58	20.12	-84.3	-88.8	2.5	3.11e+01	0	47	104	0	60	1048575
2026-01-18 07:32:07.00	7.31	20.07	-83.9	-88.8	2.3	3.11e+01	0	47	104	0	60	1048575
2026-01-18 07:32:08.01	7.03	20.01	-84.3	-88.8	2.5	3.11e+01	0	47	104	0	60	1048575
2026-01-18 07:32:09.01	6.76	19.96	-84.3	-88.8	2.3	3.11e+01	0	47	104	0	60	1048575
2026-01-18 07:32:10.02	6.49	19.91	-84.3	-88.8	2.4	3.11e+01	0	47	104	0	60	1048575
2026-01-18 07:32:11.03	6.21	19.85	-84.3	-88.8	2.6	3.11e+01	0	47	104	0	60	1048575
2026-01-18 07:32:12.04	5.94	19.80	-83.9	-88.8	2.6	3.11e+01	0	47	104	0	60	1048575
2026-01-18 07:32:13.04	5.67	19.74	-84.3	-88.8	2.6	3.11e+01	0	47	104	0	60	1048575
2026-01-18 07:32:14.05	5.40	19.68	-84.3	-88.8	2.6	3.11e+01	0	47	104	0	60	1048575
2026-01-18 07:32:15.06	5.14	19.63	-84.3	-88.8	2.5	3.11e+01	0	47	104	0	60	1048575
2026-01-18 07:32:16.06	4.87	19.57	-83.9	-88.8	2.7	3.11e+01	0	47	104	0	60	1048575
2026-01-18 07:32:17.07	4.61	19.51	-83.9	-88.8	2.6	3.11e+01	0	47	104	0	60	1048575
2026-01-18 07:32:18.08	4.34	19.45	-83.9	-88.8	2.8	3.11e+01	0	47	104	0	60	1048575
2026-01-18 07:32:19.08	4.08	19.40	-84.3	-88.8	2.8	3.11e+01	0	47	104	0	60	1048575
2026-01-18 07:32:20.09	3.82	19.34	-84.3	-88.8	2.8	3.11e+01	0	47	104	0	60	1048575
2026-01-18 07:32:21.10	3.55	19.28	-83.9	-88.8	2.7	3.11e+01	0	47	104	0	60	1048575
2026-01-18 07:32:22.11	3.29	19.22	-83.9	-88.8	2.6	3.11e+01	0	47	104	0	60	1048575
2026-01-18 07:32:23.12	3.03	19.16	-84.3	-88.8	2.6	3.11e+01	0	47	104	0	60	1048575
2026-01-18 07:32:24.12	2.78	19.10	-84.3	-88.8	2.6	3.11e+01	0	47	104	0	60	1048575
2026-01-18 07:32:25.13	2.52	19.03	-84.3	-88.8	2.6	3.11e+01	0	47	104	0	60	1048575
2026-01-18 07:32:26.14	2.26	18.97	-83.9	-88.8	2.8	3.11e+01	0	47	104	0	60	1048575
2026-01-18 07:32:27.15	2.01	18.91	-84.3	-88.8	2.6	3.11e+01	0	47	104	0	60	1048575
2026-01-18 07:32:28.16	1.75	18.85	-84.3	-88.8	2.7	3.11e+01	0	47	104	0	60	1048575
2026-01-18 07:32:29.16	1.50	18.79	-84.3	-88.8	2.8	3.11e+01	0	47	104	0	60	1048575
2026-01-18 07:32:30.17	1.25	18.72	-84.3	-88.8	2.4	3.11e+01	0	47	104	0	60	1048575
2026-01-18 07:32:31.17	1.00	18.66	-83.9	-88.8	2.6	3.11e+01	0	47	104	0	60	1048575
2026-01-18 07:32:32.17	0.76	18.60	-84.3	-88.8	2.6	3.11e+01	0	47	104	0	60	1048575
2026-01-18 07:32:33.18	0.51	18.53	-84.3	-88.8	2.5	3.11e+01	0	47	104	0	60	1048575
2026-01-18 07:32:34.19	0.26	18.47	-84.3	-88.8	2.8	3.11e+01	0	47	104	0	60	1048575
2026-01-18 07:32:35.20	0.01	18.40	-83.9	-88.8	2.3	3.11e+01	0	47	104	0	60	1048575
2026-01-18 07:32:36.21	359.77	18.34	-84.3	-88.8	2.8	3.11e+01	0	47	104	0	60	1048575
2026-01-18 07:32:37.21	359.53	18.27	-84.3	-88.8	2.5	3.11e+01	0	47	104	0	60	1048575
2026-01-18 07:32:38.22	359.28	18.20	-84.3	-88.8	2.7	3.11e+01	0	47	104	0	60	1048575
2026-01-18 07:32:39.23	359.04	18.14	-84.3	-88.8	2.4	3.11e+01	0	47	104	0	60	1048575
2026-01-18 07:32:40.23	358.80	18.07	-83.9	-88.8	2.6	3.11e+01	0	47	104	0	60	1048575
2026-01-18 07:32:41.24	358.56	18.01	-83.9	-88.8	2.6	3.11e+01	0	47	104	0	60	1048575
2026-01-18 07:32:42.25	358.33	17.94	-84.3	-88.8	2.4	3.11e+01	0	47	104	0	60	1048575
2026-01-18 07:32:43.26	358.09	17.87	-83.9	-88.8	2.6	3.11e+01	0	47	104	0	60	1048575
2026-01-18 07:32:44.26	357.85	17.80	-84.3	-88.8	2.6	3.11e+01	0	47	104	0	60	1048575
2026-01-18 07:32:45.27	357.62	17.74	-83.9	-88.8	2.5	3.11e+01	0	47	104	0	60	1048575
2026-01-18 07:32:46.28	357.39	17.67	-84.3	-88.8	2.6	3.11e+01	0	47	104	0	60	1048575
2026-01-18 07:32:47.29	357.15	17.60	-84.3	-88.8	2.5	3.11e+01	0	47	104	0	60	1048575
2026-01-18 07:32:48.29	356.92	17.53	-84.3	-88.8	2.6	3.11e+01	0	47	104	0	60	1048575
2026-01-18 07:32:49.30	356.69	17.46	-83.9	-88.8	2.5	3.11e+01	0	47	104	0	60	1048575
2026-01-18 07:32:50.31	356.46	17.39	-83.9	-88.8	2.4	3.11e+01	0	47	104	0	60	1048575
2026-01-18 07:32:51.31	356.24	17.32	-84.3	-88.8	2.7	3.11e+01	0	47	104	0	60	1048575
2026-01-18 07:32:52.31	356.01	17.25	-84.3	-88.8	2.5	3.11e+01	0	47	104	0	60	1048575
2026-01-18 07:32:53.31	355.79	17.18	-84.3	-88.8	2.8	3.11e+01	0	47	104	0	60	1048575
2026-01-18 07:32:54.32	355.56	17.11	-83.9	-88.8	2.6	3.11e+01	0	47	104	0	60	1048573
2026-01-18 07:32:55.32	355.34	17.04	-83.9	-88.8	2.6	3.11e+01	0	47	104	0	60	1048573
2026-01-18 07:32:56.33	355.12	16.97	-84.3	-88.8	2.7	3.11e+01	0	47	104	0	60	1048573
2026-01-18 07:32:57.34	354.90	16.90	-84.3	-88.8	2.6	3.11e+01	0	47	104	0	60	1048573
2026-01-18 07:32:58.34	354.68	16.83	-84.3	-88.8	2.7	3.11e+01	0	47	104	0	60	1048573
2026-01-18 07:32:59.35	354.46	16.76	-83.9	-88.8	2.6	3.11e+01	0	47	104	0	60	1048573
2026-01-18 07:33:00.35	354.25	16.69	-83.9	-88.8	2.8	3.11e+01	0	47	104	0	60	1048573
2026-01-18 07:33:01.36	354.03	16.62	-84.3	-88.8	2.7	3.11e+01	0	47	104	0	60	1048573
2026-01-18 07:33:02.37	353.81	16.55	-84.3	-88.8	2.6	3.11e+01	0	47	104	0	60	1048573
2026-01-18 07:33:03.37	353.60	16.48	-83.9	-88.8	2.3	3.11e+01	0	47	104	0	60	1048573
2026-01-18 07:33:04.38	353.39	16.40	-83.9	-88.8	2.6	3.11e+01	0	47	104	0	60	1048573
2026-01-18 07:33:05.39	353.17	16.33	-84.3	-88.8	2.3	3.11e+01	0	47	104	0	60	1048573
2026-01-18 07:33:06.39	352.96	16.26	-84.3	-88.8	2.6	3.11e+01	0	47	104	0	60	1048573
2026-01-18 07:33:07.40	352.75	16.19	-84.3	-88.8	2.6	3.11e+01	0	47	104	0	60	1048573
2026-01-18 07:33:08.41	352.54	16.11	-83.9	-88.8	2.6	3.11e+01	0	47	104	0	60	1048573
2026-01-18 07:33:09.41	352.34	16.04	-84.3	-88.8	2.6	3.11e+01	0	47	104	0	60	1048573
2026-01-18 07:33:10.42	352.13	15.97	-84.3	-88.8	2.6	3.11e+01	0	47	104	0	60	1048573
2026-01-18 07:33:11.42	351.93	15.90	-84.3	-88.8	2.5	3.11e+01	0	47	104	0	60	1048573
2026-01-18 07:33:12.43	351.72	15.82	-84.3	-88.8	2.6	3.11e+01	0	47	104	0	60	1048573
2026-01-18 07:33:13.44	351.52	15.75	-83.9	-88.8	2.6	3.11e+01	0	47	104	0	60	1048573
2026-01-18 07:33:14.44	351.32	15.68	-84.3	-88.8	2.5	3.11e+01	0	47	104	0	60	1048573
2026-01-18 07:33:15.45	351.12	15.60	-84.3	-88.8	2.5	3.11e+01	0	47	104	0	60	1048573
2026-01-18 07:33:16.46	350.91	15.53	-84.3	-88.8	2.4	3.11e+01	0	47	104	0	60	1048573
2026-01-18 07:33:17.47	350.72	15.46	-83.9	-88.8	2.6	3.11e+01	0	47	104	0	60	1048573
2026-01-18 07:33:18.48	350.52	15.38	-83.9	-88.8	2.7	3.11e+01	0	47	104	0	60	1048573
2026-01-18 07:33:19.49	350.32	15.31	-84.3	-88.8	2.4	3.11e+01	0	47	104	0	60	1048573
2026-01-18 07:33:20.49	350.12	15.24	-84.3	-88.8	2.6	3.11e+01	0	47	104	0	60	1048573
2026-01-18 07:33:21.50	349.93	15.16	-84.3	-88.8	2.6	3.11e+01	0	47	104	0	60	1048573
2026-01-18 07:33:22.51	349.73	15.09	-84.3	-88.8	2.6	3.11e+01	0	47	104	0	60	1048573
2026-01-18 07:33:23.51	349.54	15.02	-83.9	-88.8	2.8	3.11e+01	0	47	104	0	60	1048573
2026-01-18 07:33:24.51	349.35	14.94	-84.3	-88.8	2.5	3.11e+01	0	47	104	0	60	1048573
2026-01-18 07:33:25.52	349.16	14.87	-84.3	-88.8	2.6	3.11e+01	0	47	104	0	60	1048573
2026-01-18 07:33:26.52	348.97	14.79	-84.3	-88.8	2.5	3.11e+01	0	47	104	0	60	1048573
2026-01-18 07:33:27.52	348.79	14.72	-83.9	-88.8	2.4	3.11e+01	0	47	104	0	60	1048573
2026-01-18 07:33:28.53	348.60	14.65	-83.9	-88.8	2.7	3.11e+01	0	47	104	0	60	1048573
2026-01-18 07:33:29.54	348.41	14.57	-84.3	-88.8	2.5	3.11e+01	0	47	104	0	60	1048573
2026-01-18 07:33:30.54	348.23	14.50	-84.3	-88.8	2.6	3.11e+01	0	47	104	0	60	1048573
2026-01-18 07:33:31.54	348.04	14.42	-84.3	-88.8	2.4	3.11e+01	0	47	104	0	60	1048573
2026-01-18 07:33:32.55	347.86	14.35	-83.9	-88.8	2.5	3.11e+01	0	47	104	0	60	1048573
2026-01-18 07:33:33.56	347.68	14.28	-84.3	-88.8	2.6	3.11e+01	0	47	104	0	60	1048573
2026-01-18 07:33:34.56	347.50	14.20	-83.9	-88.8	2.6	3.11e+01	0	47	104	0	60	1048573
2026-01-18 07:33:35.57	347.31	14.13	-84.3	-88.8	2.5	3.11e+01	0	47	104	0	60	1048573
2026-01-18 07:33:36.58	347.13	14.05	-83.9	-88.8	2.6	3.11e+01	0	47	104	0	60	1048573
2026-01-18 07:33:37.58	346.96	13.98	-83.9	-88.8	2.6	3.11e+01	0	47	104	0	60	1048573
2026-01-18 07:33:38.59	346.78	13.90	-83.9	-88.8	2.6	3.11e+01	0	47	104	0	60	1048573
2026-01-18 07:33:39.60	346.60	13.83	-84.3	-88.8	2.6	3.11e+01	0	47	104	0	60	1048573
2026-01-18 07:33:40.60	346.43	13.76	-84.3	-88.8	2.7	3.11e+01	0	47	104	0	60	1048573
2026-01-18 07:33:41.61	346.25	13.68	-83.9	-88.8	2.5	3.11e+01	0	47	104	0	60	1048573
2026-01-18 07:33:42.62	346.08	13.61	-83.9	-88.8	2.7	3.11e+01	0	47	104	0	60	1048573
2026-01-18 07:33:43.63	345.90	13.53	-84.3	-88.8	2.6	3.11e+01	0	47	104	0	60	1048573
2026-01-18 07:33:44.64	345.73	13.46	-84.3	-88.8	2.7	3.11e+01	0	47	104	0	60	1048573
2026-01-18 07:33:45.65	345.56	13.38	-84.3	-88.8	2.8	3.11e+01	0	47	104	0	60	1048573
2026-01-18 07:33:46.65	345.39	13.31	-83.9	-88.8	2.6	3.11e+01	0	47	104	0	60	1048573
2026-01-18 07:33:47.66	345.22	13.23	-84.3	-88.8	2.7	3.11e+01	0	47	104	0	60	1048573
2026-01-18 07:33:48.67	345.05	13.16	-84.3	-88.8	2.5	3.11e+01	0	47	104	0	60	1048573
2026-01-18 07:33:49.68	344.88	13.08	-84.3	-88.8	2.6	3.11e+01	0	47	104	0	60	1048573
2026-01-18 07:33:50.69	344.72	13.01	-84.3	-88.8	2.5	3.11e+01	0	47	104	0	60	1048573
2026-01-18 07:33:51.69	344.55	12.94	-83.9	-88.8	2.7	3.11e+01	0	47	104	0	60	1048573
2026-01-18 07:33:52.70	344.39	12.86	-83.9	-88.8	2.7	3.11e+01	0	47	104	0	60	1048573
2026-01-18 07:33:53.71	344.22	12.79	-84.3	-88.8	2.6	3.11e+01	0	47	104	0	60	1048573
2026-01-18 07:33:54.72	344.06	12.71	-84.3	-88.8	2.7	3.11e+01	0	47	104	0	60	1048573
2026-01-18 07:33:55.72	343.90	12.64	-84.3	-88.8	2.5	3.11e+01	0	47	104	0	60	1048573
2026-01-18 07:33:56.73	343.74	12.56	-83.5	-88.8	2.7	3.11e+01	0	47	104	0	60	1048573
2026-01-18 07:33:57.73	343.58	12.49	-84.3	-88.8	2.6	3.11e+01	0	47	104	0	60	1048573
2026-01-18 07:33:58.74	343.42	12.42	-84.3	-88.8	2.6	3.11e+01	0	47	104	0	60	1048573
2026-01-18 07:33:59.75	343.26	12.34	-84.3	-88.8	2.5	3.11e+01	0	47	104	0	60	1048573
2026-01-18 07:34:00.75	343.10	12.27	-83.9	-88.8	2.6	3.11e+01	0	47	104	0	60	1048573
2026-01-18 07:34:01.76	342.95	12.20	-84.3	-88.8	2.7	3.11e+01	0	47	104	0	60	1048573
2026-01-18 07:34:02.77	342.79	12.12	-83.9	-88.8	2.7	3.11e+01	0	47	104	0	60	1048573
2026-01-18 07:34:03.77	342.64	12.05	-84.3	-88.8	2.6	3.11e+01	0	47	104	0	60	1048573
2026-01-18 07:34:04.78	342.48	11.97	-84.3	-88.8	2.5	3.11e+01	0	47	104	0	60	1048573
2026-01-18 07:34:05.79	342.33	11.90	-83.9	-88.8	2.4	3.11e+01	0	47	104	0	60	1048573
2026-01-18 07:34:06.80	342.18	11.83	-84.3	-88.8	2.6	3.11e+01	0	47	104	0	60	1048573
2026-01-18 07:34:07.81	342.02	11.75	-84.3	-88.8	2.6	3.11e+01	0	47	104	0	60	1048573
2026-01-18 07:34:08.81	341.88	11.68	-84.3	-88.8	2.6	3.11e+01	0	47	104	0	60	1048573
2026-01-18 07:34:09.82	341.72	11.61	-84.3	-88.8	2.5	3.11e+01	0	47	104	0	60	1048573
2026-01-18 07:34:10.83	341.58	11.53	-83.9	-88.8	2.6	3.11e+01	0	47	104	0	60	1048573
2026-01-18 07:34:11.84	341.43	11.46	-84.3	-88.8	2.7	3.11e+01	0	47	104	0	60	1048573
2026-01-18 07:34:12.84	341.28	11.39	-84.3	-88.8	2.6	3.11e+01	0	47	104	0	60	1048573
2026-01-18 07:34:13.85	341.13	11.31	-84.3	-88.8	2.6	3.11e+01	0	47	104	0	60	1048573
2026-01-18 07:34:14.85	340.99	11.24	-83.9	-88.8	2.5	3.11e+01	0	47	104	0	60	1048573
2026-01-18 07:34:15.86	340.84	11.17	-83.9	-88.8	2.4	3.11e+01	0	47	104	0	60	1048573
2026-01-18 07:34:16.86	340.70	11.09	-83.9	-88.8	2.7	3.11e+01	0	47	104	0	60	1048573
2026-01-18 07:34:17.87	340.56	11.02	-84.3	-88.8	2.6	3.11e+01	0	47	104	0	60	1048573
2026-01-18 07:34:18.88	340.41	10.95	-84.3	-88.8	2.5	3.11e+01	0	47	104	0	60	1048573
2026-01-18 07:34:19.88	340.27	10.88	-83.9	-88.8	2.5	3.11e+01	0	47	104	0	60	1048573
2026-01-18 07:34:20.89	340.13	10.80	-83.9	-88.8	2.6	3.11e+01	0	47	104	0	60	1048573
2026-01-18 07:34:21.90	339.99	10.73	-84.3	-88.8	2.4	3.11e+01	0	47	104	0	60	1048573
2026-01-18 07:34:22.91	339.85	10.66	-84.3	-88.8	2.6	3.11e+01	0	47	104	0	60	1048573
2026-01-18 07:34:23.92	339.71	10.58	-84.3	-88.8	2.6	3.11e+01	0	47	104	0	60	1048573
2026-01-18 07:34:24.93	339.57	10.51	-83.9	-88.8	2.6	3.11e+01	0	47	104	0	60	1048573
2026-01-18 07:34:25.93	339.44	10.44	-84.3	-88.8	2.4	3.11e+01	0	47	104	0	60	1048573
2026-01-18 07:34:26.94	339.30	10.37	-84.3	-88.8	2.6	3.11e+01	0	47	104	0	60	1048573
2026-01-18 07:34:27.94	339.16	10.30	-84.3	-88.8	2.5	3.11e+01	0	47	104	0	60	1048573
2026-01-18 07:34:28.95	339.03	10.22	-84.3	-88.8	2.6	3.11e+01	0	47	104	0	60	1048573
2026-01-18 07:34:29.96	338.89	10.15	-83.9	-88.8	2.5	3.11e+01	0	47	104	0	60	1048573
2026-01-18 07:34:30.96	338.76	10.08	-84.3	-88.8	2.5	3.11e+01	0	47	104	0	60	1048573
2026-01-18 07:34:31.97	338.63	10.01	-84.3	-88.8	2.6	3.11e+01	0	47	104	0	60	1048573
2026-01-18 07:34:32.97	338.50	9.94	-84.3	-88.8	2.3	3.11e+01	0	47	104	0	60	1048573
2026-01-18 07:34:33.98	338.37	9.86	-83.9	-88.8	2.4	3.11e+01	0	47	104	0	60	1048573
2026-01-18 07:34:34.99	338.23	9.79	-84.3	-88.8	2.4	3.11e+01	0	47	104	0	60	1048573
2026-01-18 07:34:36.00	338.10	9.72	-84.3	-88.8	2.6	3.11e+01	0	47	104	0	60	1048573
2026-01-18 07:34:37.00	337.98	9.65	-84.3	-88.8	2.5	3.11e+01	0	47	104	0	60	1048573
2026-01-18 07:34:38.01	337.85	9.58	-83.9	-88.8	2.7	3.11e+01	0	47	104	0	60	1048573
2026-01-18 07:34:39.02	337.72	9.51	-83.9	-88.8	2.5	3.11e+01	0	47	104	0	60	1048573
2026-01-18 07:34:40.03	337.59	9.44	-84.3	-88.8	2.7	3.11e+01	0	47	104	0	60	1048573
2026-01-18 07:34:41.04	337.46	9.37	-84.3	-88.8	2.5	3.11e+01	0	47	104	0	60	1048573
2026-01-18 07:34:42.05	337.34	9.29	-84.3	-88.8	2.5	3.11e+01	0	47	104	0	60	1048573
2026-01-18 07:34:43.05	337.21	9.22	-84.3	-88.8	2.6	3.11e+01	0	47	104	0	60	1048573
2026-01-18 07:34:44.06	337.09	9.15	-83.9	-88.8	2.4	3.11e+01	0	47	104	0	60	1048573
2026-01-18 07:34:45.07	336.96	9.08	-84.3	-88.8	2.6	3.11e+01	0	47	104	0	60	1048573
2026-01-18 07:34:46.07	336.84	9.01	-84.3	-88.8	2.6	3.11e+01	0	47	104	0	60	1048573
2026-01-18 07:34:47.07	336.72	8.94	-84.3	-88.8	2.5	3.11e+01	0	47	104	0	60	1048573
2026-01-18 07:34:48.08	336.60	8.87	-83.9	-88.8	2.6	3.11e+01	0	47	104	0	60	1048573
2026-01-18 07:34:49.09	336.48	8.80	-83.9	-88.8	2.4	3.11e+01	0	47	104	0	60	1048573
2026-01-18 07:34:50.10	336.36	8.73	-84.3	-88.8	2.6	3.11e+01	0	47	104	0	60	1048573
2026-01-18 07:34:51.10	336.24	8.66	-84.3	-88.8	2.4	3.11e+01	0	47	104	0	60	1048573
2026-01-18 07:34:52.11	336.12	8.59	-84.3	-88.8	2.4	3.11e+01	0	47	104	0	60	1048573
2026-01-18 07:34:53.12	336.00	8.52	-84.3	-88.8	2.6	3.11e+01	0	47	104	0	60	1048573
2026-01-18 07:34:54.13	335.88	8.45	-83.9	-88.8	2.5	3.11e+01	0	47	104	0	60	1048573
2026-01-18 07:34:55.14	335.76	8.38	-84.3	-88.8	2.6	3.11e+01	0	47	104	0	60	1048573
2026-01-18 07:34:56.15	335.65	8.31	-84.3	-88.8	2.4	3.11e+01	0	47	104	0	60	1048573
2026-01-18 07:34:57.15	335.53	8.24	-84.3	-88.8	2.5	3.11e+01	0	47	104	0	60	1048573
2026-01-18 07:34:58.16	335.41	8.17	-83.9	-88.8	2.5	3.11e+01	0	47	104	0	60	1048573
2026-01-18 07:34:59.17	335.30	8.11	-84.3	-88.8	2.5	3.11e+01	0	47	104	0	60	1048573
2026-01-18 07:35:00.18	335.19	8.04	-84.3	-88.8	2.6	3.11e+01	0	47	104	0	60	1048573
2026-01-18 07:35:01.18	335.07	7.97	-84.3	-88.8	2.6	3.11e+01	0	47	104	0	60	1048573
2026-01-18 07:35:02.19	334.96	7.90	-84.3	-88.8	2.5	3.11e+01	0	47	104	0	60	1048573
2026-01-18 07:35:03.20	334.85	7.83	-83.9	-88.8	2.7	3.11e+01	0	47	104	0	60	1048573
2026-01-18 07:35:04.20	334.73	7.76	-84.3	-88.8	2.4	3.11e+01	0	47	104	0	60	1048573
2026-01-18 07:35:05.20	334.62	7.69	-84.3	-88.8	2.4	3.11e+01	0	47	104	0	60	1048573
2026-01-18 07:35:06.21	334.51	7.63	-84.3	-88.8	2.5	3.11e+01	0	47	104	0	60	1048573
2026-01-18 07:35:07.21	334.40	7.56	-83.9	-88.8	2.5	3.11e+01	0	47	104	0	60	1048573
2026-01-18 07:35:08.22	334.29	7.49	-83.9	-88.8	2.4	3.11e+01	0	47	104	0	60	1048573
2026-01-18 07:35:09.23	334.18	7.42	-84.3	-88.8	2.6	3.11e+01	0	47	104	0	60	1048573
2026-01-18 07:35:10.23	334.08	7.35	-84.3	-88.8	2.6	3.11e+01	0	47	104	0	60	1048573
2026-01-18 07:35:11.24	333.97	7.29	-84.3	-88.8	2.7	3.11e+01	0	47	104	0	60	1048573
2026-01-18 07:35:12.25	333.86	7.22	-83.9	-88.8	2.7	3.11e+01	0	47	104	0	60	1048573
2026-01-18 07:35:13.25	333.76	7.15	-83.9	-88.8	2.6	3.11e+01	0	47	104	0	60	1048573
2026-01-18 07:35:14.26	333.65	7.08	-84.3	-88.8	2.6	3.11e+01	0	47	104	0	60	1048573
2026-01-18 07:35:15.27	333.54	7.02	-84.3	-88.8	2.7	3.11e+01	0	47	104	0	60	1048573
2026-01-18 07:35:16.28	333.44	6.95	-84.3	-88.8	2.6	3.11e+01	0	47	104	0	60	1048573
2026-01-18 07:35:17.28	333.33	6.88	-83.9	-88.8	2.6	3.11e+01	0	47	104	0	60	1048573
2026-01-18 07:35:18.29	333.23	6.81	-84.3	-88.8	2.3	3.11e+01	0	47	104	0	60	1048573
2026-01-18 07:35:19.30	333.13	6.75	-84.3	-88.8	2.5	3.11e+01	0	47	104	0	60	1048573
2026-01-18 07:35:20.31	333.02	6.68	-84.3	-88.8	2.7	3.11e+01	0	47	104	0	60	1048573
2026-01-18 07:35:21.31	332.92	6.61	-84.3	-88.8	2.4	3.11e+01	0	47	104	0	60	1048573
2026-01-18 07:35:22.32	332.82	6.55	-83.9	-88.8	2.6	3.11e+01	0	47	104	0	60	1048573
2026-01-18 07:35:23.32	332.72	6.48	-84.3	-88.8	2.7	3.11e+01	0	47	104	0	60	1048573
2026-01-18 07:35:24.33	332.62	6.41	-84.3	-88.8	2.6	3.11e+01	0	47	104	0	60	1048573
2026-01-18 07:35:25.34	332.52	6.35	-84.3	-88.8	2.5	3.11e+01	0	47	104	0	60	1048573
2026-01-18 07:35:26.35	332.42	6.28	-83.9	-88.8	2.4	3.11e+01	0	47	104	0	60	1048573
2026-01-18 07:35:27.35	332.32	6.22	-83.9	-88.8	2.5	3.11e+01	0	47	104	0	60	1048573
2026-01-18 07:35:28.36	332.22	6.15	-84.3	-88.8	2.4	3.11e+01	0	47	104	0	60	1048573
2026-01-18 07:35:29.36	332.12	6.08	-84.3	-88.8	2.5	3.11e+01	0	47	104	0	60	1048573
2026-01-18 07:35:30.37	332.02	6.02	-84.3	-88.8	2.8	3.11e+01	0	47	104	0	60	1048573
2026-01-18 07:35:31.38	331.93	5.95	-83.9	-88.8	2.6	3.11e+01	0	47	104	0	60	1048575
2026-01-18 07:35:32.39	331.83	5.89	-84.3	-88.8	2.8	3.11e+01	0	47	104	0	60	1048575
2026-01-18 07:35:33.39	331.73	5.82	-84.3	-88.8	2.5	3.11e+01	0	47	104	0	60	1048575
2026-01-18 07:35:34.39	331.64	5.76	-84.3	-88.8	2.5	3.11e+01	0	47	104	0	60	1048575
2026-01-18 07:35:35.40	331.54	5.69	-84.3	-88.8	2.5	3.11e+01	0	47	104	0	60	1048575
2026-01-18 07:35:36.41	331.45	5.63	-83.9	-88.8	2.7	3.11e+01	0	47	104	0	60	1048575
2026-01-18 07:35:37.41	331.35	5.56	-84.3	-88.8	2.4	3.11e+01	0	47	104	0	60	1048575
2026-01-18 07:35:38.42	331.26	5.50	-84.3	-88.8	2.8	3.11e+01	0	47	104	0	60	1048575
2026-01-18 07:35:39.43	331.17	5.43	-84.3	-88.8	2.7	3.11e+01	0	47	104	0	60	1048575
2026-01-18 07:35:40.43	331.07	5.37	-83.9	-88.8	2.7	3.11e+01	0	47	104	0	60	1048575
2026-01-18 07:35:41.44	330.98	5.30	-83.9	-88.8	2.4	3.11e+01	0	47	104	0	60	1048575
2026-01-18 07:35:42.45	330.89	5.24	-84.3	-88.8	2.8	3.11e+01	0	47	104	0	60	1048575
2026-01-18 07:35:43.46	330.80	5.17	-84.3	-88.8	2.5	3.11e+01	0	47	104	0	60	1048575
2026-01-18 07:35:44.47	330.71	5.11	-84.3	-88.8	2.7	3.11e+01	0	47	104	0	60	1048575
2026-01-18 07:35:45.47	330.62	5.05	-83.9	-88.8	2.5	3.11e+01	0	47	104	0	60	1048575
2026-01-18 07:35:46.49	330.52	4.98	-83.9	-88.8	2.6	3.11e+01	0	47	104	0	60	1048575
2026-01-18 07:35:47.49	330.44	4.92	-84.3	-88.8	2.6	3.11e+01	0	47	104	0	60	1048575
2026-01-18 07:35:48.50	330.35	4.85	-84.3	-88.8	2.5	3.11e+01	0	47	104	0	60	1048575
2026-01-18 07:35:49.51	330.26	4.79	-84.3	-88.8	2.8	3.11e+01	0	47	104	0	60	1048575
2026-01-18 07:35:50.52	330.17	4.73	-83.9	-88.8	2.4	3.11e+01	0	47	104	0	60	1048575
2026-01-18 07:35:51.52	330.08	4.66	-84.3	-88.8	2.5	3.11e+01	0	47	104	0	60	1048575
2026-01-18 07:35:52.53	329.99	4.60	-84.3	-88.8	2.4	3.11e+01	0	47	104	0	60	1048575
2026-01-18 07:35:53.54	329.91	4.54	-84.3	-88.8	2.6	3.11e+01	0	47	104	0	60	1048575
2026-01-18 07:35:54.54	329.82	4.47	-84.3	-88.8	2.7	3.11e+01	0	47	104	0	60	1048575
2026-01-18 07:35:55.55	329.73	4.41	-83.9	-88.8	2.6	3.11e+01	0	47	104	0	60	1048575
2026-01-18 07:35:56.55	329.65	4.35	-84.3	-88.8	2.8	3.11e+01	0	47	104	0	60	1048575
2026-01-18 07:35:57.56	329.56	4.28	-84.3	-88.8	2.5	3.11e+01	0	47	104	0	60	1048575
2026-01-18 07:35:58.57	329.48	4.22	-84.3	-88.8	2.8	3.11e+01	0	47	104	0	60	1048575
2026-01-18 07:35:59.57	329.39	4.16	-83.9	-88.8	2.5	3.11e+01	0	47	104	0	60	1048575
2026-01-18 07:36:00.58	329.31	4.10	-84.3	-88.8	2.7	3.11e+01	0	47	104	0	60	1048575
2026-01-18 07:36:01.59	329.22	4.03	-84.3	-88.8	2.7	3.11e+01	0	47	104	0	60	1048575
2026-01-18 07:36:02.59	329.14	3.97	-84.3	-88.8	2.6	3.11e+01	0	47	104	0	60	1048575
2026-01-18 07:36:03.60	329.06	3.91	-84.3	-88.8	2.8	3.11e+01	0	47	104	0	60	1048575
2026-01-18 07:36:04.61	328.98	3.85	-83.9	-88.8	2.5	3.11e+01	0	47	104	0	60	1048575
2026-01-18 07:36:05.62	328.89	3.78	-83.9	-88.8	2.7	3.11e+01	0	47	104	0	60	1048575
2026-01-18 07:36:06.63	328.81	3.72	-84.3	-88.8	2.7	3.11e+01	0	47	104	0	60	1048575
2026-01-18 07:36:07.64	328.73	3.66	-84.3	-88.8	2.5	3.11e+01	0	47	104	0	60	1048575
2026-01-18 07:36:08.65	328.65	3.60	-83.9	-88.8	2.7	3.11e+01	0	47	104	0	60	1048575
2026-01-18 07:36:09.65	328.57	3.54	-83.9	-88.8	2.5	3.11e+01	0	47	104	0	60	1048575
2026-01-18 07:36:10.66	328.49	3.48	-84.3	-88.8	2.6	3.11e+01	0	47	104	0	60	1048575
2026-01-18 07:36:11.66	328.41	3.42	-84.3	-88.8	2.6	3.11e+01	0	47	104	0	60	1048575
2026-01-18 07:36:12.67	328.33	3.35	-84.3	-88.8	2.5	3.11e+01	0	47	104	0	60	1048575
2026-01-18 07:36:13.68	328.25	3.29	-84.3	-88.8	2.7	3.11e+01	0	47	104	0	60	1048575
2026-01-18 07:36:14.68	328.17	3.23	-83.9	-88.8	2.5	3.11e+01	0	47	104	0	60	1048575
2026-01-18 07:36:15.69	328.09	3.17	-84.3	-88.8	2.5	3.11e+01	0	47	104	0	60	1048575
2026-01-18 07:36:16.70	328.02	3.11	-84.3	-88.8	2.6	3.11e+01	0	47	104	0	60	1048575
2026-01-18 07:36:17.71	327.94	3.05	-84.3	-88.8	2.6	3.11e+01	0	47	104	0	60	1048575
2026-01-18 07:36:18.72	327.86	2.99	-83.9	-88.8	2.6	3.11e+01	0	47	104	0	60	1048575
2026-01-18 07:36:19.73	327.78	2.93	-83.9	-88.8	2.6	3.11e+01	0	47	104	0	60	1048575
2026-01-18 07:36:20.73	327.71	2.87	-84.3	-88.8	2.8	3.11e+01	0	47	104	0	60	1048575
2026-01-18 07:36:21.74	327.63	2.81	-84.3	-88.8	2.7	3.11e+01	0	47	104	0	60	1048575
2026-01-18 07:36:22.75	327.55	2.75	-84.3	-88.8	2.7	3.11e+01	0	47	104	0	60	1048575
2026-01-18 07:36:23.75	327.48	2.69	-83.9	-88.8	2.4	3.11e+01	0	47	104	0	60	1048575
2026-01-18 07:36:24.75	327.41	2.63	-84.3	-88.8	2.4	3.11e+01	0	47	104	0	60	1048575
2026-01-18 07:36:25.76	327.33	2.57	-84.3	-88.8	2.6	3.11e+01	0	47	104	0	60	1048575
2026-01-18 07:36:26.77	327.26	2.51	-84.3	-88.8	2.7	3.11e+01	0	47	104	0	60	1048575
2026-01-18 07:36:27.77	327.18	2.45	-83.9	-88.8	2.5	3.11e+01	0	47	104	0	60	1048575
2026-01-18 07:36:28.78	327.11	2.39	-83.9	-88.8	2.5	3.11e+01	0	47	104	0	60	1048575
2026-01-18 07:36:29.78	327.04	2.33	-84.3	-88.8	2.4	3.11e+01	0	47	104	0	60	1048575
2026-01-18 07:36:30.79	326.96	2.27	-84.3	-88.8	2.5	3.11e+01	0	47	104	0	60	1048575
2026-01-18 07:36:31.80	326.89	2.21	-84.3	-88.8	2.8	3.11e+01	0	47	104	0	60	1048575
2026-01-18 07:36:32.80	326.82	2.15	-84.3	-88.8	2.6	3.11e+01	0	47	104	0	60	1048575
2026-01-18 07:36:33.81	326.75	2.09	-83.9	-88.8	2.8	3.11e+01	0	47	104	0	60	1048575
2026-01-18 07:36:34.81	326.67	2.03	-84.3	-88.8	2.7	3.11e+01	0	47	104	0	60	1048575
2026-01-18 07:36:35.82	326.60	1.97	-84.3	-88.8	2.5	3.11e+01	0	47	104	0	60	1048575
2026-01-18 07:36:36.83	326.53	1.91	-84.3	-88.8	2.6	3.11e+01	0	47	104	0	60	1048575
2026-01-18 07:36:37.84	326.46	1.85	-83.9	-88.8	2.6	3.11e+01	0	47	104	0	60	1048575
2026-01-18 07:36:38.84	326.39	1.80	-83.9	-88.8	2.7	3.11e+01	0	47	104	0	60	1048575
2026-01-18 07:36:39.85	326.32	1.74	-84.3	-88.8	2.6	3.11e+01	0	47	104	0	60	1048575
2026-01-18 07:36:40.86	326.25	1.68	-84.3	-88.8	2.5	3.11e+01	0	47	104	0	60	1048575
2026-01-18 07:36:41.86	326.18	1.62	-84.3	-88.8	2.6	3.11e+01	0	47	104	0	60	1048575
2026-01-18 07:36:42.87	326.11	1.56	-83.9	-88.8	2.7	3.11e+01	0	47	104	0	60	1048575
2026-01-18 07:36:43.88	326.04	1.50	-83.9	-88.8	2.4	3.11e+01	0	47	104	0	60	1048575
2026-01-18 07:36:44.88	325.98	1.45	-84.3	-88.8	2.7	3.11e+01	0	47	104	0	60	1048575
2026-01-18 07:36:45.89	325.91	1.39	-84.3	-88.8	2.6	3.11e+01	0	47	104	0	60	1048575
2026-01-18 07:36:46.89	325.84	1.33	-84.3	-88.8	2.7	3.11e+01	0	47	104	0	60	1048575
2026-01-18 07:36:47.90	325.77	1.27	-83.9	-88.8	2.6	3.11e+01	0	47	104	0	60	1048575
2026-01-18 07:36:48.91	325.71	1.21	-84.3	-88.8	2.6	3.11e+01	0	47	104	0	60	1048575
2026-01-18 07:36:49.91	325.64	1.16	-84.3	-88.8	2.7	3.11e+01	0	47	104	0	60	1048575
2026-01-18 07:36:50.92	325.57	1.10	-84.3	-88.8	2.3	3.11e+01	0	47	104	0	60	1048575
2026-01-18 07:36:51.93	325.51	1.04	-83.9	-88.8	2.5	3.11e+01	0	47	104	0	60	1048575
2026-01-18 07:36:52.93	325.44	0.98	-83.9	-88.8	2.6	3.11e+01	0	47	104	0	60	1048575
2026-01-18 07:36:53.94	325.37	0.93	-84.3	-88.8	2.6	3.11e+01	0	47	104	0	60	1048575
2026-01-18 07:36:54.95	325.31	0.87	-84.3	-88.8	2.6	3.11e+01	0	47	104	0	60	1048575
2026-01-18 07:36:55.96	325.24	0.81	-84.3	-88.8	2.6	3.11e+01	0	47	104	0	60	1048575
2026-01-18 07:36:56.97	325.18	0.75	-83.9	-88.8	2.6	3.11e+01	0	47	104	0	60	1048575
2026-01-18 07:36:57.97	325.12	0.70	-84.3	-88.8	2.4	3.11e+01	0	47	104	0	60	1048575
2026-01-18 07:36:58.98	325.05	0.64	-84.3	-88.8	2.4	3.11e+01	0	47	104	0	60	1048575
2026-01-18 07:36:59.99	324.99	0.58	-84.3	-88.8	2.5	3.11e+01	0	47	104	0	60	1048575
2026-01-18 07:37:00.99	324.92	0.53	-84.3	-88.8	2.4	3.11e+01	0	47	104	0	60	1048575
2026-01-18 07:37:02.00	324.86	0.47	-83.9	-88.8	2.4	3.11e+01	0	47	104	0	60	1048575
2026-01-18 07:37:03.00	324.80	0.41	-84.3	-88.8	2.4	3.11e+01	0	47	104	0	60	1048575
2026-01-18 07:37:04.01	324.73	0.36	-84.3	-88.8	2.3	3.11e+01	0	47	104	0	60	1048575
2026-01-18 07:37:05.02	324.67	0.30	-84.3	-88.8	2.5	3.11e+01	0	47	104	0	60	1048575
2026-01-18 07:37:06.03	324.61	0.25	-84.3	-88.8	2.5	3.11e+01	0	47	104	0	60	1048575
2026-01-18 07:37:07.04	324.55	0.19	-83.9	-88.8	2.5	3.11e+01	0	47	104	0	60	1048575
2026-01-18 07:37:08.04	324.49	0.13	-84.3	-88.8	2.5	3.11e+01	0	47	104	0	60	1048575
2026-01-18 07:37:09.05	324.42	0.08	-84.3	-88.8	2.4	3.11e+01	0	47	104	0	60	1048575
2026-01-18 07:37:10.06	324.36	0.02	-84.3	-88.8	2.5	3.11e+01	0	47	104	0	60	1048575
2026-01-18 07:37:11.07	324.30	-0.04	-83.9	-88.8	2.5	3.11e+01	0	47	104	0	60	1048575
2026-01-18 07:37:12.08	324.24	-0.09	-84.3	-88.8	2.5	3.11e+01	0	47	104	0	60	1048575

#Closed at: 2026-01-18 07:37:12
#Recorded file [0 MB]: D:/Data/35015_260118_102618.dat