passes_logs/2026/01/18/R3.2S-Naryan-Mar/R3.2S-Naryan-Mar__20260118_173112_TY-42_rec.log

#Pass ID: 20260118_173112_TY-42
#Satellite: TY-42
#Configuration: TY-42
#almurnet v.1.7.20240730
#Start time: 2026-01-18 17:31:15

#Version: 2.2.20231116
#Station: R3.2S-Naryan-Mar
#Location: 53.008057 lon 67.646978 lat
#TLE: 1 64048U 25103A   26018.53100694  .00008009  00000-0  38191-3 0 09990
#TLE: 2 64048 097.4124 093.8820 0001871 093.1015 305.9816 15.19165829 37354

#Time	Az	El	Level	Level2	SNR	BER	BlckErr	Temp	State	Recorded	gain1	gain2
2026-01-18 17:31:15.08	157.05	0.16	-83.5	-79.0	2.6	0.00e+00	0	47	0	0	60	1048575
2026-01-18 17:31:16.08	157.05	0.22	-83.5	-79.0	2.3	0.00e+00	0	47	104	0	60	1048575
2026-01-18 17:31:17.09	157.05	0.29	-83.5	-79.0	2.4	0.00e+00	0	47	104	0	60	1048575
2026-01-18 17:31:18.09	157.05	0.35	-83.5	-79.0	2.5	0.00e+00	0	47	104	0	60	1048567
2026-01-18 17:31:19.10	157.06	0.42	-83.1	-79.0	2.4	0.00e+00	0	47	104	0	60	1048573
2026-01-18 17:31:20.11	157.06	0.48	-83.5	-79.0	2.4	0.00e+00	0	47	104	0	60	1048573
2026-01-18 17:31:21.12	157.06	0.55	-83.5	-79.0	2.4	0.00e+00	0	47	104	0	60	1048575
2026-01-18 17:31:22.12	157.06	0.61	-83.1	-79.0	2.5	0.00e+00	0	47	104	0	60	1048568
2026-01-18 17:31:23.13	157.07	0.68	-83.5	-79.0	2.4	0.00e+00	0	47	104	0	60	1048570
2026-01-18 17:31:24.13	157.07	0.75	-82.8	-79.0	2.4	0.00e+00	0	47	104	0	60	1048574
2026-01-18 17:31:25.14	157.07	0.81	-83.5	-79.0	2.4	0.00e+00	0	47	104	0	60	1048573
2026-01-18 17:31:26.15	157.07	0.88	-83.5	-79.0	2.4	0.00e+00	0	47	104	0	60	1048575
2026-01-18 17:31:27.15	157.08	0.95	-83.5	-79.0	2.4	0.00e+00	0	47	104	0	60	1048575
2026-01-18 17:31:28.16	157.08	1.02	-83.1	-79.0	2.4	0.00e+00	0	47	104	0	60	1048567
2026-01-18 17:31:29.17	157.08	1.08	-83.1	-79.0	2.3	0.00e+00	0	47	104	0	60	1048575
2026-01-18 17:31:30.18	157.08	1.15	-83.5	-79.0	2.4	0.00e+00	0	48	104	0	60	1048569
2026-01-18 17:31:31.18	157.09	1.22	-83.5	-79.0	2.4	0.00e+00	0	47	104	0	60	1048571
2026-01-18 17:31:32.19	157.09	1.29	-83.5	-79.0	2.4	0.00e+00	0	47	104	0	60	1048575
2026-01-18 17:31:33.20	157.09	1.36	-83.5	-79.0	2.3	0.00e+00	0	47	104	0	60	1048575
2026-01-18 17:31:34.21	157.09	1.42	-83.5	-79.0	2.8	0.00e+00	0	47	104	0	60	1048570
2026-01-18 17:31:35.22	157.10	1.49	-83.5	-79.0	2.5	0.00e+00	0	47	104	0	60	1048570
2026-01-18 17:31:36.22	157.10	1.56	-83.1	-79.0	2.3	0.00e+00	0	47	104	0	60	1048572
2026-01-18 17:31:37.23	157.10	1.63	-83.5	-79.0	2.4	0.00e+00	0	48	104	0	60	1048567
2026-01-18 17:31:38.24	157.10	1.70	-83.1	-79.0	2.3	0.00e+00	0	48	104	0	60	1048574
2026-01-18 17:31:39.25	157.11	1.77	-83.1	-79.0	2.4	0.00e+00	0	47	104	0	60	1048574
2026-01-18 17:31:40.25	157.11	1.84	-83.5	-79.0	2.4	0.00e+00	0	48	104	0	60	1048568
2026-01-18 17:31:41.25	157.11	1.91	-83.5	-79.0	2.3	0.00e+00	0	48	104	0	60	1048565
2026-01-18 17:31:42.26	157.11	1.98	-83.1	-79.0	2.4	0.00e+00	0	48	104	0	60	1048574
2026-01-18 17:31:43.27	157.11	2.05	-82.8	-79.0	2.4	0.00e+00	0	48	104	0	60	1048575
2026-01-18 17:31:44.27	157.12	2.12	-83.1	-79.0	2.5	0.00e+00	0	48	104	0	60	1048565
2026-01-18 17:31:45.28	157.12	2.19	-83.5	-79.0	2.4	0.00e+00	0	48	104	0	60	1048571
2026-01-18 17:31:46.28	157.12	2.26	-83.5	-79.0	2.4	0.00e+00	0	48	104	0	60	1048572
2026-01-18 17:31:47.29	157.12	2.34	-83.1	-79.0	2.4	0.00e+00	0	48	104	0	60	1048573
2026-01-18 17:31:48.29	157.13	2.41	-82.8	-79.0	2.5	0.00e+00	0	48	104	0	60	1048573
2026-01-18 17:31:49.30	157.13	2.48	-83.5	-79.0	2.4	0.00e+00	0	48	104	0	60	1048575
2026-01-18 17:31:50.30	157.13	2.55	-83.1	-79.0	2.4	0.00e+00	0	48	104	0	60	1048575
2026-01-18 17:31:51.31	157.13	2.62	-83.5	-79.0	2.4	0.00e+00	0	48	104	0	60	1048572
2026-01-18 17:31:52.32	157.14	2.70	-83.1	-79.0	2.3	0.00e+00	0	48	104	0	60	1048575
2026-01-18 17:31:53.33	157.14	2.77	-83.1	-79.0	2.4	0.00e+00	0	48	104	0	60	1048575
2026-01-18 17:31:54.33	157.14	2.84	-83.5	-79.0	2.4	0.00e+00	0	48	104	0	60	1048573
2026-01-18 17:31:55.34	157.14	2.92	-83.1	-79.0	2.4	0.00e+00	0	48	104	0	60	1048575
2026-01-18 17:31:56.34	157.15	2.99	-83.5	-79.0	2.4	0.00e+00	0	48	104	0	60	1048574
2026-01-18 17:31:57.35	157.15	3.06	-83.1	-79.0	2.3	0.00e+00	0	48	104	0	60	1048574
2026-01-18 17:31:58.36	157.15	3.14	-83.5	-79.0	2.5	0.00e+00	0	48	104	0	60	1048574
2026-01-18 17:31:59.36	157.15	3.21	-83.5	-79.0	2.4	0.00e+00	0	48	104	0	60	1048574
2026-01-18 17:32:00.37	157.15	3.29	-83.5	-79.0	2.4	0.00e+00	0	48	104	0	60	1048575
2026-01-18 17:32:01.38	157.16	3.36	-83.5	-79.0	2.4	0.00e+00	0	48	104	0	60	1048574
2026-01-18 17:32:02.39	157.16	3.44	-82.8	-79.0	2.4	0.00e+00	0	48	104	0	60	1048566
2026-01-18 17:32:03.40	157.16	3.51	-83.1	-79.0	2.4	0.00e+00	0	48	104	0	60	1048568
2026-01-18 17:32:04.40	157.16	3.59	-83.5	-79.0	2.3	0.00e+00	0	48	104	0	60	1048572
2026-01-18 17:32:05.41	157.17	3.66	-83.5	-79.0	2.5	0.00e+00	0	48	104	0	60	1048575
2026-01-18 17:32:06.42	157.17	3.74	-83.1	-79.0	2.6	0.00e+00	0	48	104	0	60	1048570
2026-01-18 17:32:07.43	157.17	3.82	-83.1	-79.0	2.4	0.00e+00	0	48	104	0	60	1048573
2026-01-18 17:32:08.44	157.17	3.90	-83.5	-79.0	2.5	0.00e+00	0	48	104	0	60	1048571
2026-01-18 17:32:09.45	157.18	3.97	-83.5	-79.0	2.5	0.00e+00	0	48	104	0	60	1048574
2026-01-18 17:32:10.45	157.18	4.05	-83.5	-79.0	2.4	0.00e+00	0	48	104	0	60	1048574
2026-01-18 17:32:11.46	157.18	4.13	-83.1	-79.0	2.4	0.00e+00	0	48	104	0	60	1048575
2026-01-18 17:32:12.47	157.18	4.21	-83.1	-79.0	2.5	0.00e+00	0	48	104	0	60	1048572
2026-01-18 17:32:13.48	157.18	4.29	-83.5	-79.0	2.4	0.00e+00	0	48	104	0	60	1048575
2026-01-18 17:32:14.48	157.19	4.36	-83.5	-79.0	2.5	0.00e+00	0	48	104	0	60	1048569
2026-01-18 17:32:15.48	157.19	4.44	-83.1	-79.0	2.3	0.00e+00	0	48	104	0	60	1048574
2026-01-18 17:32:16.49	157.19	4.52	-83.1	-79.0	2.4	0.00e+00	0	48	104	0	60	1048570
2026-01-18 17:32:17.49	157.19	4.60	-83.5	-79.0	2.4	0.00e+00	0	48	104	0	60	1048564
2026-01-18 17:32:18.50	157.20	4.68	-83.5	-79.0	2.4	0.00e+00	0	48	104	0	60	1048575
2026-01-18 17:32:19.51	157.20	4.76	-83.5	-79.0	2.5	0.00e+00	0	48	104	0	60	1048572
2026-01-18 17:32:20.52	157.20	4.84	-83.1	-79.0	2.4	0.00e+00	0	48	104	0	60	1048573
2026-01-18 17:32:21.52	157.20	4.92	-82.8	-79.0	2.4	0.00e+00	0	48	104	0	60	1048570
2026-01-18 17:32:22.53	157.20	5.00	-83.5	-79.0	2.5	0.00e+00	0	48	104	0	60	1048574
2026-01-18 17:32:23.54	157.21	5.09	-83.5	-79.0	2.4	0.00e+00	0	48	104	0	60	1048572
2026-01-18 17:32:24.55	157.21	5.17	-83.5	-79.0	2.4	0.00e+00	0	48	104	0	60	1048575
2026-01-18 17:32:25.55	157.21	5.25	-83.1	-79.0	2.4	0.00e+00	0	48	104	0	60	1048573
2026-01-18 17:32:26.56	157.21	5.33	-82.8	-79.0	2.4	0.00e+00	0	48	104	0	60	1048574
2026-01-18 17:32:27.56	157.21	5.42	-83.5	-79.0	2.4	0.00e+00	0	48	104	0	60	1048575
2026-01-18 17:32:28.57	157.22	5.50	-83.1	-79.0	2.3	0.00e+00	0	48	104	0	60	1048575
2026-01-18 17:32:29.58	157.22	5.58	-83.5	-79.0	2.5	0.00e+00	0	48	104	0	60	1048575
2026-01-18 17:32:30.58	157.22	5.67	-82.8	-79.0	2.4	0.00e+00	0	48	104	0	60	1048570
2026-01-18 17:32:31.59	157.22	5.75	-83.1	-79.0	2.5	0.00e+00	0	48	104	0	60	1048573
2026-01-18 17:32:32.60	157.22	5.84	-83.5	-79.0	2.4	0.00e+00	0	48	104	0	60	1048572
2026-01-18 17:32:33.60	157.23	5.92	-83.5	-79.0	2.4	0.00e+00	0	48	104	0	60	1048573
2026-01-18 17:32:34.61	157.23	6.01	-83.5	-79.0	2.4	0.00e+00	0	48	104	0	60	1048575
2026-01-18 17:32:35.62	157.23	6.09	-83.1	-79.0	2.3	0.00e+00	0	48	104	0	60	1048574
2026-01-18 17:32:36.62	157.23	6.18	-83.5	-79.0	2.4	0.00e+00	0	48	104	0	60	1048575
2026-01-18 17:32:37.63	157.23	6.27	-83.5	-79.0	2.3	0.00e+00	0	48	104	0	60	1048573
2026-01-18 17:32:38.64	157.24	6.35	-83.5	-79.0	2.4	0.00e+00	0	48	104	0	60	1048573
2026-01-18 17:32:39.64	157.24	6.44	-83.1	-79.0	2.5	0.00e+00	0	48	104	0	60	1048567
2026-01-18 17:32:40.65	157.24	6.53	-82.8	-79.0	2.4	0.00e+00	0	48	104	0	60	1048575
2026-01-18 17:32:41.66	157.24	6.62	-83.5	-79.0	2.3	0.00e+00	0	49	104	0	60	1048575
2026-01-18 17:32:42.66	157.24	6.70	-83.5	-79.0	2.5	0.00e+00	0	48	104	0	60	1048567
2026-01-18 17:32:43.67	157.25	6.79	-83.1	-79.0	2.4	0.00e+00	0	48	104	0	60	1048575
2026-01-18 17:32:44.68	157.25	6.88	-82.8	-79.0	2.4	0.00e+00	0	48	104	0	60	1048573
2026-01-18 17:32:45.68	157.25	6.97	-83.1	-79.0	2.6	0.00e+00	0	48	104	0	60	1048575
2026-01-18 17:32:46.68	157.25	7.06	-83.5	-79.0	2.5	0.00e+00	0	48	104	0	60	1048575
2026-01-18 17:32:47.68	157.25	7.15	-83.5	-79.0	2.5	0.00e+00	0	48	104	0	60	1048572
2026-01-18 17:32:48.68	157.26	7.24	-83.1	-79.0	2.4	0.00e+00	0	49	104	0	60	1048570
2026-01-18 17:32:49.68	157.26	7.33	-83.1	-79.0	2.4	0.00e+00	0	48	104	0	60	1048575
2026-01-18 17:32:50.69	157.26	7.43	-83.1	-79.0	2.5	0.00e+00	0	48	104	0	60	1048574
2026-01-18 17:32:51.69	157.26	7.52	-83.5	-79.0	2.4	0.00e+00	0	49	104	0	60	1048574
2026-01-18 17:32:52.69	157.26	7.61	-83.5	-79.0	2.4	0.00e+00	0	49	104	0	60	1048573
2026-01-18 17:32:53.69	157.27	7.70	-83.5	-79.0	2.5	0.00e+00	0	49	104	0	60	1048574
2026-01-18 17:32:54.70	157.27	7.80	-83.1	-79.0	2.5	0.00e+00	0	48	104	0	60	1048571
2026-01-18 17:32:55.71	157.27	7.89	-83.5	-79.0	2.3	0.00e+00	0	49	104	0	60	1048569
2026-01-18 17:32:56.70	157.27	7.98	-83.5	-79.0	2.4	0.00e+00	0	48	104	0	60	1048573
2026-01-18 17:32:57.71	157.27	8.08	-83.5	-79.0	2.4	0.00e+00	0	48	104	0	60	1048572
2026-01-18 17:32:58.72	157.27	8.17	-83.1	-79.0	2.4	0.00e+00	0	49	104	0	60	1048570
2026-01-18 17:32:59.72	157.28	8.27	-83.1	-79.0	2.5	0.00e+00	0	48	104	0	60	1048572
2026-01-18 17:33:00.72	157.28	8.37	-83.1	-79.0	2.3	0.00e+00	0	48	104	0	60	1048574
2026-01-18 17:33:01.73	157.28	8.46	-83.5	-79.0	2.3	0.00e+00	0	49	104	0	60	1048572
2026-01-18 17:33:02.73	157.28	8.56	-83.1	-79.0	2.4	0.00e+00	0	49	104	0	60	1048573
2026-01-18 17:33:03.74	157.28	8.66	-83.1	-79.0	2.5	0.00e+00	0	48	104	0	60	1048565
2026-01-18 17:33:04.74	157.28	8.76	-83.1	-79.0	2.3	0.00e+00	0	48	104	0	60	1048574
2026-01-18 17:33:05.75	157.29	8.86	-83.5	-79.0	2.4	0.00e+00	0	49	104	0	60	1048572
2026-01-18 17:33:06.75	157.29	8.96	-83.5	-79.0	2.5	0.00e+00	0	48	104	0	60	1048569
2026-01-18 17:33:07.76	157.29	9.06	-83.5	-79.0	2.5	0.00e+00	0	49	104	0	60	1048574
2026-01-18 17:33:08.77	157.29	9.16	-83.1	-79.0	2.5	0.00e+00	0	49	104	0	60	1048571
2026-01-18 17:33:09.77	157.29	9.26	-83.1	-79.0	2.4	0.00e+00	0	49	104	0	60	1048575
2026-01-18 17:33:10.78	157.29	9.36	-83.5	-79.0	2.5	0.00e+00	0	49	104	0	60	1048575
2026-01-18 17:33:11.78	157.30	9.46	-83.5	-79.0	2.4	0.00e+00	0	49	104	0	60	1048567
2026-01-18 17:33:12.78	157.30	9.56	-83.5	-79.0	2.4	0.00e+00	0	49	104	0	60	1048574
2026-01-18 17:33:13.79	157.30	9.67	-83.1	-79.0	2.4	0.00e+00	0	49	104	0	60	1048574
2026-01-18 17:33:14.80	157.30	9.77	-82.8	-79.0	2.3	0.00e+00	0	49	104	0	60	1048575
2026-01-18 17:33:15.80	157.30	9.88	-83.1	-79.0	2.3	0.00e+00	0	48	104	0	60	1048566
2026-01-18 17:33:16.81	157.30	9.98	-83.5	-79.0	2.3	0.00e+00	0	49	104	0	60	1048575
2026-01-18 17:33:17.82	157.30	10.09	-83.1	-79.0	2.4	0.00e+00	0	49	104	0	60	1048572
2026-01-18 17:33:18.83	157.31	10.19	-83.1	-79.0	2.4	0.00e+00	0	49	104	0	60	1048575
2026-01-18 17:33:19.83	157.31	10.30	-83.5	-79.0	2.4	0.00e+00	0	49	104	0	60	1048574
2026-01-18 17:33:20.84	157.31	10.41	-83.5	-79.0	2.4	0.00e+00	0	49	104	0	60	1048573
2026-01-18 17:33:21.85	157.31	10.52	-83.1	-79.0	2.4	0.00e+00	0	48	104	0	60	1048575
2026-01-18 17:33:22.86	157.31	10.63	-82.8	-79.0	2.4	0.00e+00	0	49	104	0	60	1048575
2026-01-18 17:33:23.86	157.31	10.73	-83.1	-79.0	2.4	0.00e+00	0	49	104	0	60	1048575
2026-01-18 17:33:24.86	157.31	10.84	-83.5	-79.0	2.5	0.00e+00	0	49	104	0	60	1048575
2026-01-18 17:33:25.87	157.31	10.96	-83.5	-79.0	2.4	0.00e+00	0	49	104	0	60	1048572
2026-01-18 17:33:26.88	157.32	11.07	-83.5	-79.0	2.5	0.00e+00	0	49	104	0	60	1048567
2026-01-18 17:33:27.88	157.32	11.18	-82.8	-79.0	2.4	0.00e+00	0	49	104	0	60	1048571
2026-01-18 17:33:28.89	157.32	11.29	-83.1	-79.0	2.4	0.00e+00	0	49	104	0	60	1048574
2026-01-18 17:33:29.89	157.32	11.40	-83.5	-79.0	2.3	0.00e+00	0	49	104	0	60	1048574
2026-01-18 17:33:30.90	157.32	11.52	-83.5	-79.0	2.8	0.00e+00	0	49	104	0	60	1048573
2026-01-18 17:33:31.90	157.32	11.63	-83.5	-79.0	2.4	0.00e+00	0	49	104	0	60	1048572
2026-01-18 17:33:32.91	157.32	11.75	-82.8	-79.0	2.4	0.00e+00	0	49	104	0	60	1048575
2026-01-18 17:33:33.92	157.32	11.87	-83.5	-79.0	2.4	0.00e+00	0	49	104	0	60	1048575
2026-01-18 17:33:34.93	157.33	11.98	-83.5	-79.0	2.4	0.00e+00	0	49	104	0	60	1048566
2026-01-18 17:33:35.94	157.33	12.10	-83.1	-79.0	2.3	0.00e+00	0	49	104	0	60	1048574
2026-01-18 17:33:36.94	157.33	12.22	-83.1	-79.0	2.4	0.00e+00	0	49	104	0	60	1048575
2026-01-18 17:33:37.95	157.33	12.34	-83.1	-79.0	2.4	0.00e+00	0	49	104	0	60	1048569
2026-01-18 17:33:38.96	157.33	12.46	-83.5	-79.0	2.3	0.00e+00	0	49	104	0	60	1048574
2026-01-18 17:33:39.97	157.33	12.58	-83.5	-79.0	2.3	0.00e+00	0	49	104	0	60	1048575
2026-01-18 17:33:40.98	157.33	12.70	-83.5	-79.0	2.4	0.00e+00	0	49	104	0	60	1048571
2026-01-18 17:33:41.98	157.33	12.82	-83.1	-79.0	2.4	0.00e+00	0	49	104	0	60	1048575
2026-01-18 17:33:42.99	157.33	12.95	-83.1	-79.0	2.4	0.00e+00	0	49	104	0	60	1048574
2026-01-18 17:33:44.00	157.33	13.07	-83.5	-79.0	2.4	0.00e+00	0	49	104	0	60	1048573
2026-01-18 17:33:45.01	157.33	13.20	-83.5	-79.0	2.5	0.00e+00	0	49	104	0	60	1048575
2026-01-18 17:33:46.02	157.34	13.32	-83.5	-79.0	2.4	0.00e+00	0	49	104	0	60	1048575
2026-01-18 17:33:47.03	157.34	13.45	-82.8	-79.0	2.4	0.00e+00	0	49	104	0	60	1048575
2026-01-18 17:33:48.04	157.34	13.58	-83.1	-79.0	2.3	0.00e+00	0	49	104	0	60	1048574
2026-01-18 17:33:49.04	157.34	13.71	-83.1	-79.0	2.4	0.00e+00	0	49	104	0	60	1048573
2026-01-18 17:33:50.05	157.34	13.84	-83.5	-79.0	2.4	0.00e+00	0	49	104	0	60	1048574
2026-01-18 17:33:51.06	157.34	13.97	-83.5	-79.0	2.4	0.00e+00	0	49	104	0	60	1048571
2026-01-18 17:33:52.07	157.34	14.10	-83.5	-79.0	2.5	0.00e+00	0	49	104	0	60	1048564
2026-01-18 17:33:53.08	157.34	14.23	-83.5	-79.0	2.4	0.00e+00	0	49	104	0	60	1048575
2026-01-18 17:33:54.08	157.34	14.36	-83.5	-79.0	2.4	0.00e+00	0	49	104	0	60	1048573
2026-01-18 17:33:55.09	157.34	14.50	-83.1	-79.0	2.4	0.00e+00	0	49	104	0	60	1048571
2026-01-18 17:33:56.10	157.34	14.63	-82.8	-79.0	2.5	0.00e+00	0	49	104	0	60	1048572
2026-01-18 17:33:57.10	157.34	14.77	-83.1	-79.0	2.3	0.00e+00	0	49	104	0	60	1048574
2026-01-18 17:33:58.11	157.34	14.91	-83.5	-79.0	2.5	0.00e+00	0	49	104	0	60	1048567
2026-01-18 17:33:59.11	157.34	15.04	-83.5	-79.0	2.4	0.00e+00	0	49	104	0	60	1048575
2026-01-18 17:34:00.12	157.34	15.18	-83.5	-79.0	2.3	0.00e+00	0	49	104	0	60	1048573
2026-01-18 17:34:01.13	157.34	15.32	-82.8	-79.0	2.4	0.00e+00	0	49	104	0	60	1048570
2026-01-18 17:34:02.13	157.34	15.46	-83.1	-79.0	2.4	0.00e+00	0	49	104	0	60	1048569
2026-01-18 17:34:03.14	157.34	15.60	-83.5	-79.0	2.5	0.00e+00	0	49	104	0	60	1048570
2026-01-18 17:34:04.15	157.34	15.75	-83.5	-79.0	2.7	0.00e+00	0	49	104	0	60	1048575
2026-01-18 17:34:05.15	157.34	15.89	-83.5	-79.0	2.2	0.00e+00	0	49	104	0	60	1048575
2026-01-18 17:34:06.16	157.34	16.04	-82.8	-79.0	2.3	0.00e+00	0	49	104	0	60	1048570
2026-01-18 17:34:07.17	157.34	16.18	-83.5	-79.0	2.3	0.00e+00	0	49	104	0	60	1048574
2026-01-18 17:34:08.17	157.34	16.33	-83.5	-79.0	2.3	0.00e+00	0	49	104	0	60	1048574
2026-01-18 17:34:09.17	157.34	16.48	-83.5	-79.0	2.4	0.00e+00	0	49	104	0	60	1048574
2026-01-18 17:34:10.18	157.34	16.63	-83.5	-79.0	2.3	0.00e+00	0	49	104	0	60	1048570
2026-01-18 17:34:11.19	157.34	16.78	-83.1	-79.0	2.5	0.00e+00	0	49	104	0	60	1048570
2026-01-18 17:34:12.20	157.34	16.93	-83.5	-79.0	2.4	0.00e+00	0	49	104	0	60	1048569
2026-01-18 17:34:13.20	157.34	17.08	-83.5	-79.0	2.4	0.00e+00	0	49	104	0	60	1048572
2026-01-18 17:34:14.21	157.34	17.24	-83.5	-79.0	2.5	0.00e+00	0	49	104	0	60	1048572
2026-01-18 17:34:15.22	157.34	17.40	-82.8	-79.0	2.4	0.00e+00	0	49	104	0	60	1048567
2026-01-18 17:34:16.23	157.34	17.55	-83.1	-79.0	2.4	0.00e+00	0	49	104	0	60	1048574
2026-01-18 17:34:17.24	157.34	17.71	-83.5	-79.0	2.4	0.00e+00	0	49	104	0	60	1048571
2026-01-18 17:34:18.25	157.34	17.87	-83.5	-79.0	2.4	0.00e+00	0	49	104	0	60	1048574
2026-01-18 17:34:19.25	157.34	18.03	-83.5	-79.0	2.4	0.00e+00	0	49	104	0	60	1048571
2026-01-18 17:34:20.26	157.34	18.20	-83.1	-79.0	2.4	0.00e+00	0	49	104	0	60	1048573
2026-01-18 17:34:21.27	157.34	18.36	-83.5	-79.0	2.4	0.00e+00	0	49	104	0	60	1048572
2026-01-18 17:34:22.28	157.34	18.53	-83.5	-79.0	2.4	0.00e+00	0	49	104	0	60	1048572
2026-01-18 17:34:23.28	157.34	18.69	-83.5	-79.0	2.3	0.00e+00	0	49	104	0	60	1048567
2026-01-18 17:34:24.29	157.34	18.86	-83.5	-79.0	2.5	0.00e+00	0	49	104	0	60	1048575
2026-01-18 17:34:25.30	157.34	19.03	-83.1	-79.0	2.3	0.00e+00	0	49	104	0	60	1048567
2026-01-18 17:34:26.30	157.34	19.20	-83.5	-79.0	2.4	0.00e+00	0	49	104	0	60	1048574
2026-01-18 17:34:27.31	157.34	19.37	-83.5	-79.0	2.3	0.00e+00	0	49	104	0	60	1048573
2026-01-18 17:34:28.31	157.34	19.55	-83.1	-79.0	2.4	0.00e+00	0	49	104	0	60	1048575
2026-01-18 17:34:29.32	157.34	19.72	-82.8	-79.0	2.4	0.00e+00	0	49	104	0	60	1048574
2026-01-18 17:34:30.32	157.33	19.90	-82.8	-79.0	2.5	0.00e+00	0	49	104	0	60	1048569
2026-01-18 17:34:31.33	157.33	20.08	-83.1	-79.0	2.4	0.00e+00	0	49	104	0	60	1048570
2026-01-18 17:34:32.34	157.33	20.26	-83.5	-79.0	2.4	0.00e+00	0	49	104	0	60	1048574
2026-01-18 17:34:33.35	157.33	20.44	-83.5	-79.0	2.4	0.00e+00	0	49	104	0	60	1048573
2026-01-18 17:34:34.36	157.33	20.62	-82.8	-79.0	2.4	0.00e+00	0	49	104	0	60	1048575
2026-01-18 17:34:35.36	157.33	20.81	-83.1	-79.0	2.4	0.00e+00	0	49	104	0	60	1048575
2026-01-18 17:34:36.37	157.33	21.00	-83.5	-79.0	2.4	0.00e+00	0	49	104	0	60	1048574
2026-01-18 17:34:37.38	157.33	21.19	-83.1	-79.0	2.4	0.00e+00	0	49	104	0	60	1048575
2026-01-18 17:34:38.39	157.32	21.38	-83.1	-79.0	2.6	0.00e+00	0	49	104	0	60	1048565
2026-01-18 17:34:39.39	157.32	21.57	-83.1	-79.0	2.5	0.00e+00	0	49	104	0	60	1048570
2026-01-18 17:34:40.40	157.32	21.76	-83.5	-79.0	2.4	0.00e+00	0	49	104	0	60	1048572
2026-01-18 17:34:41.40	157.32	21.96	-83.1	-79.0	2.4	0.00e+00	0	49	104	0	60	1048574
2026-01-18 17:34:42.41	157.32	22.16	-83.5	-79.0	2.3	0.00e+00	0	49	104	0	60	1048570
2026-01-18 17:34:43.41	157.31	22.35	-83.5	-79.0	2.4	0.00e+00	0	49	104	0	60	1048570
2026-01-18 17:34:44.42	157.31	22.56	-83.1	-79.0	2.3	0.00e+00	0	49	104	0	60	1048575
2026-01-18 17:34:45.42	157.31	22.76	-83.5	-79.0	2.4	0.00e+00	0	49	104	0	60	1048574
2026-01-18 17:34:46.43	157.31	22.97	-83.5	-79.0	2.5	0.00e+00	0	49	104	0	60	1048566
2026-01-18 17:34:47.43	157.31	23.17	-83.5	-79.0	2.4	0.00e+00	0	49	104	0	60	1048575
2026-01-18 17:34:48.44	157.30	23.38	-83.1	-79.0	2.4	0.00e+00	0	49	104	0	60	1048575
2026-01-18 17:34:49.45	157.30	23.59	-83.5	-79.0	2.4	0.00e+00	0	49	104	0	60	1048574
2026-01-18 17:34:50.46	157.30	23.81	-83.5	-79.0	2.4	0.00e+00	0	49	104	0	60	1048572
2026-01-18 17:34:51.47	157.30	24.03	-83.5	-79.0	2.3	0.00e+00	0	49	104	0	60	1048574
2026-01-18 17:34:52.48	157.29	24.25	-83.5	-79.0	2.5	0.00e+00	0	49	104	0	60	1048575
2026-01-18 17:34:53.48	157.29	24.47	-83.1	-79.0	2.4	0.00e+00	0	49	104	0	60	1048574
2026-01-18 17:34:54.49	157.29	24.69	-83.1	-79.0	2.2	0.00e+00	0	49	104	0	60	1048568
2026-01-18 17:34:55.50	157.28	24.91	-83.1	-79.0	2.3	0.00e+00	0	49	104	0	60	1048575
2026-01-18 17:34:56.51	157.28	25.14	-83.5	-79.0	2.5	0.00e+00	0	49	104	0	60	1048568
2026-01-18 17:34:57.52	157.28	25.37	-83.5	-79.0	2.4	0.00e+00	0	49	104	0	60	1048569
2026-01-18 17:34:58.52	157.27	25.61	-83.1	-79.0	2.4	0.00e+00	0	49	104	0	60	1048571
2026-01-18 17:34:59.53	157.27	25.84	-83.5	-79.0	2.4	0.00e+00	0	49	104	0	60	1048570
2026-01-18 17:35:00.53	157.27	26.08	-83.5	-79.0	2.4	0.00e+00	0	49	104	0	60	1048570
2026-01-18 17:35:01.54	157.26	26.32	-83.1	-79.0	2.3	0.00e+00	0	49	104	0	60	1048575
2026-01-18 17:35:02.54	157.26	26.56	-83.1	-79.0	2.4	0.00e+00	0	49	104	0	60	1048573
2026-01-18 17:35:03.55	157.26	26.81	-83.5	-79.0	2.1	0.00e+00	0	49	104	0	60	1048575
2026-01-18 17:35:04.56	157.25	27.05	-83.5	-79.0	2.4	0.00e+00	0	49	104	0	60	1048574
2026-01-18 17:35:05.56	157.25	27.30	-83.5	-79.0	2.4	0.00e+00	0	49	104	0	60	1048571
2026-01-18 17:35:06.57	157.24	27.56	-83.5	-79.0	2.4	0.00e+00	0	49	104	0	60	1048575
2026-01-18 17:35:07.58	157.24	27.81	-83.1	-79.0	2.3	0.00e+00	0	49	104	0	60	1048575
2026-01-18 17:35:08.59	157.23	28.07	-83.1	-79.0	2.4	0.00e+00	0	49	104	0	60	1048574
2026-01-18 17:35:09.60	157.23	28.34	-83.1	-79.0	2.4	0.00e+00	0	49	104	0	60	1048575
2026-01-18 17:35:10.61	157.22	28.60	-83.5	-79.0	2.4	0.00e+00	0	49	104	0	60	1048575
2026-01-18 17:35:11.62	157.22	28.87	-83.5	-79.0	2.4	0.00e+00	0	49	104	0	60	1048571
2026-01-18 17:35:12.62	157.21	29.14	-83.1	-79.0	2.4	0.00e+00	0	49	104	0	60	1048574
2026-01-18 17:35:13.63	157.21	29.42	-83.5	-79.0	2.4	0.00e+00	0	49	104	0	60	1048574
2026-01-18 17:35:14.63	157.20	29.69	-83.5	-79.0	2.5	0.00e+00	0	49	104	0	60	1048572
2026-01-18 17:35:15.64	157.20	29.98	-83.1	-79.0	2.3	0.00e+00	0	49	104	0	60	1048571
2026-01-18 17:35:16.64	157.19	30.26	-83.1	-79.0	2.4	0.00e+00	0	49	104	0	60	1048569
2026-01-18 17:35:17.64	157.18	30.54	-83.1	-79.0	2.4	0.00e+00	0	49	104	0	60	1048574
2026-01-18 17:35:18.65	157.18	30.84	-83.5	-79.0	2.4	0.00e+00	0	49	104	0	60	1048575
2026-01-18 17:35:19.66	157.17	31.13	-83.5	-79.0	2.3	0.00e+00	0	49	104	0	60	1048570
2026-01-18 17:35:20.67	157.16	31.43	-83.5	-79.0	2.4	0.00e+00	0	49	104	0	60	1048574
2026-01-18 17:35:21.68	157.16	31.73	-83.1	-79.0	2.4	0.00e+00	0	49	104	0	60	1048573
2026-01-18 17:35:22.68	157.15	32.04	-83.1	-79.0	2.4	0.00e+00	0	49	104	0	60	1048574
2026-01-18 17:35:23.69	157.14	32.34	-83.5	-79.0	2.4	0.00e+00	0	49	104	0	60	1048571
2026-01-18 17:35:24.70	157.14	32.66	-83.5	-79.0	2.4	0.00e+00	0	49	104	0	60	1048575
2026-01-18 17:35:25.71	157.13	32.98	-83.5	-79.0	2.4	0.00e+00	0	49	104	0	60	1048575
2026-01-18 17:35:26.71	157.12	33.29	-83.1	-79.0	2.5	0.00e+00	0	49	104	0	60	1048568
2026-01-18 17:35:27.72	157.11	33.62	-82.8	-79.0	2.5	0.00e+00	0	49	104	0	60	1048574
2026-01-18 17:35:28.73	157.10	33.95	-83.1	-79.0	2.2	0.00e+00	0	49	104	0	60	1048574
2026-01-18 17:35:29.73	157.09	34.28	-83.5	-79.0	2.4	0.00e+00	0	49	104	0	60	1048573
2026-01-18 17:35:30.74	157.08	34.62	-83.1	-79.0	2.4	0.00e+00	0	49	104	0	60	1048575
2026-01-18 17:35:31.75	157.07	34.96	-82.8	-79.0	2.4	0.00e+00	0	49	104	0	60	1048575
2026-01-18 17:35:32.75	157.06	35.30	-83.5	-79.0	2.4	0.00e+00	0	49	104	0	60	1048574
2026-01-18 17:35:33.76	157.05	35.65	-83.5	-79.0	2.5	0.00e+00	0	49	104	0	60	1048575
2026-01-18 17:35:34.77	157.04	36.01	-83.5	-79.0	2.5	0.00e+00	0	49	104	0	60	1048575
2026-01-18 17:35:35.78	157.03	36.37	-82.8	-79.0	2.4	0.00e+00	0	49	104	0	60	1048574
2026-01-18 17:35:36.78	157.02	36.73	-83.1	-79.0	2.4	0.00e+00	0	49	104	0	60	1048573
2026-01-18 17:35:37.79	157.01	37.10	-83.5	-79.0	2.4	0.00e+00	0	49	104	0	60	1048575
2026-01-18 17:35:38.80	157.00	37.47	-83.1	-79.0	2.4	0.00e+00	0	49	104	0	60	1048575
2026-01-18 17:35:39.81	156.99	37.85	-83.5	-79.0	2.5	0.00e+00	0	49	104	0	60	1048575
2026-01-18 17:35:40.81	156.97	38.23	-83.1	-79.0	2.4	0.00e+00	0	49	104	0	60	1048564
2026-01-18 17:35:41.82	156.96	38.62	-83.1	-79.0	2.3	0.00e+00	0	49	104	0	60	1048563
2026-01-18 17:35:42.83	156.95	39.01	-83.5	-79.0	2.4	0.00e+00	0	49	104	0	60	1048571
2026-01-18 17:35:43.84	156.93	39.41	-83.5	-79.0	2.3	0.00e+00	0	49	104	0	60	1048573
2026-01-18 17:35:44.85	156.92	39.82	-83.5	-79.0	2.7	0.00e+00	0	49	104	0	60	1048568
2026-01-18 17:35:45.86	156.90	40.23	-83.1	-79.0	2.2	0.00e+00	0	49	104	0	60	1048574
2026-01-18 17:35:46.87	156.89	40.64	-83.5	-79.0	2.4	0.00e+00	0	49	104	0	60	1048574
2026-01-18 17:35:47.87	156.87	41.06	-83.5	-79.0	2.4	0.00e+00	0	49	104	0	60	1048575
2026-01-18 17:35:48.88	156.86	41.48	-83.1	-79.0	2.4	0.00e+00	0	49	104	0	60	1048566
2026-01-18 17:35:49.88	156.84	41.91	-83.1	-79.0	2.3	0.00e+00	0	49	104	0	60	1048575
2026-01-18 17:35:50.89	156.82	42.35	-83.1	-79.0	2.5	0.00e+00	0	49	104	0	60	1048568
2026-01-18 17:35:51.89	156.80	42.79	-83.5	-79.0	2.4	0.00e+00	0	49	104	0	60	1048574
2026-01-18 17:35:52.90	156.79	43.24	-83.5	-79.0	2.5	0.00e+00	0	49	104	0	60	1048570
2026-01-18 17:35:53.91	156.77	43.69	-83.5	-79.0	2.5	0.00e+00	0	49	104	0	60	1048575
2026-01-18 17:35:54.91	156.75	44.15	-83.5	-79.0	2.5	0.00e+00	0	49	104	0	60	1048575
2026-01-18 17:35:55.92	156.72	44.62	-83.5	-79.0	2.4	0.00e+00	0	49	104	0	60	1048575
2026-01-18 17:35:56.93	156.70	45.09	-83.1	-79.0	2.4	0.00e+00	0	49	104	0	60	1048574
2026-01-18 17:35:57.93	156.68	45.56	-83.5	-79.0	2.3	0.00e+00	0	49	104	0	60	1048575
2026-01-18 17:35:58.94	156.66	46.05	-83.5	-79.0	2.4	0.00e+00	0	49	104	0	60	1048572
2026-01-18 17:35:59.95	156.63	46.54	-83.1	-79.0	2.4	0.00e+00	0	49	104	0	60	1048574
2026-01-18 17:36:00.96	156.61	47.04	-83.1	-79.0	2.5	0.00e+00	0	49	104	0	60	1048572
2026-01-18 17:36:01.97	156.58	47.55	-83.1	-79.0	2.5	0.00e+00	0	49	104	0	60	1048573
2026-01-18 17:36:02.97	156.55	48.06	-83.1	-79.0	2.4	0.00e+00	0	49	104	0	60	1048575
2026-01-18 17:36:03.97	156.53	48.57	-83.5	-79.0	2.4	0.00e+00	0	49	104	0	60	1048566
2026-01-18 17:36:04.98	156.50	49.10	-83.1	-79.0	2.3	0.00e+00	0	49	104	0	60	1048575
2026-01-18 17:36:05.99	156.47	49.63	-83.5	-79.0	2.4	0.00e+00	0	49	104	0	60	1048573
2026-01-18 17:36:06.99	156.44	50.17	-83.5	-79.0	2.4	0.00e+00	0	49	104	0	60	1048573
2026-01-18 17:36:08.00	156.40	50.72	-83.1	-79.0	2.4	0.00e+00	0	49	104	0	60	1048571
2026-01-18 17:36:09.01	156.37	51.27	-82.8	-79.0	2.4	0.00e+00	0	49	104	0	60	1048574
2026-01-18 17:36:10.02	156.33	51.83	-83.1	-79.0	2.4	0.00e+00	0	49	104	0	60	1048561
2026-01-18 17:36:11.03	156.29	52.40	-83.5	-79.0	2.4	0.00e+00	0	49	104	0	60	1048563
2026-01-18 17:36:12.04	156.26	52.98	-83.5	-79.0	2.4	0.00e+00	0	49	104	0	60	1048574
2026-01-18 17:36:13.04	156.21	53.56	-83.5	-79.0	2.4	0.00e+00	0	49	104	0	60	1048572
2026-01-18 17:36:14.05	156.17	54.15	-83.1	-79.0	2.5	0.00e+00	0	49	104	0	60	1048566
2026-01-18 17:36:15.06	156.13	54.75	-83.1	-79.0	2.4	0.00e+00	0	49	104	0	60	1048574
2026-01-18 17:36:16.07	156.08	55.35	-83.5	-79.0	2.4	0.00e+00	0	49	104	0	60	1048574
2026-01-18 17:36:17.08	156.03	55.97	-83.5	-79.0	2.4	0.00e+00	0	49	104	0	60	1048569
2026-01-18 17:36:18.08	155.98	56.58	-83.5	-79.0	2.6	0.00e+00	0	49	104	0	60	1048574
2026-01-18 17:36:19.09	155.92	57.21	-83.1	-79.0	2.5	0.00e+00	0	49	104	0	60	1048575
2026-01-18 17:36:20.10	155.87	57.85	-83.5	-79.0	2.4	0.00e+00	0	49	104	0	60	1048574
2026-01-18 17:36:21.10	155.81	58.49	-83.5	-79.0	2.5	0.00e+00	0	49	104	0	60	1048572
2026-01-18 17:36:22.11	155.74	59.14	-83.1	-79.0	2.4	0.00e+00	0	49	104	0	60	1048568
2026-01-18 17:36:23.11	155.68	59.79	-83.1	-79.0	2.5	0.00e+00	0	49	104	0	60	1048575
2026-01-18 17:36:24.12	155.61	60.46	-83.1	-79.0	2.3	0.00e+00	0	49	104	0	60	1048569
2026-01-18 17:36:25.13	155.53	61.14	-83.5	-79.0	2.4	0.00e+00	0	49	104	0	60	1048570
2026-01-18 17:36:26.13	155.45	61.81	-83.1	-79.0	2.4	0.00e+00	0	49	104	0	60	1048574
2026-01-18 17:36:27.13	155.37	62.50	-83.5	-79.0	2.4	0.00e+00	0	49	104	0	60	1048574
2026-01-18 17:36:28.14	155.28	63.19	-82.8	-79.0	2.3	0.00e+00	0	49	104	0	60	1048571
2026-01-18 17:36:29.14	155.19	63.89	-82.8	-79.0	2.4	0.00e+00	0	49	104	0	60	1048573
2026-01-18 17:36:30.15	155.09	64.60	-83.5	-79.0	2.3	0.00e+00	0	49	104	0	60	1048575
2026-01-18 17:36:31.16	154.98	65.32	-83.5	-79.0	2.4	0.00e+00	0	49	104	0	60	1048572
2026-01-18 17:36:32.16	154.87	66.04	-83.1	-79.0	2.4	0.00e+00	0	49	104	0	60	1048573
2026-01-18 17:36:33.17	154.74	66.77	-83.1	-79.0	2.4	0.00e+00	0	49	104	0	60	1048574
2026-01-18 17:36:34.18	154.61	67.52	-83.1	-79.0	2.5	0.00e+00	0	49	104	0	60	1048575
2026-01-18 17:36:35.19	154.47	68.26	-83.1	-79.0	2.4	0.00e+00	0	49	104	0	60	1048575
2026-01-18 17:36:36.20	154.31	69.02	-83.5	-79.0	2.5	0.00e+00	0	49	104	0	60	1048574
2026-01-18 17:36:37.21	154.14	69.78	-83.5	-79.0	2.3	0.00e+00	0	49	104	0	60	1048574
2026-01-18 17:36:38.21	153.96	70.54	-83.1	-79.0	2.4	0.00e+00	0	49	104	0	60	1048574
2026-01-18 17:36:39.22	153.77	71.31	-83.5	-79.0	2.4	0.00e+00	0	49	104	0	60	1048575
2026-01-18 17:36:40.22	153.55	72.08	-83.5	-79.0	2.4	0.00e+00	0	49	104	0	60	1048567
2026-01-18 17:36:41.23	153.31	72.87	-83.1	-79.0	2.4	0.00e+00	0	49	104	0	60	1048575
2026-01-18 17:36:42.24	153.05	73.66	-83.1	-79.0	2.4	0.00e+00	0	49	104	0	60	1048575
2026-01-18 17:36:43.25	152.76	74.45	-82.8	-79.0	2.5	0.00e+00	0	49	104	0	60	1048572
2026-01-18 17:36:44.26	152.43	75.25	-83.5	-79.0	2.5	0.00e+00	0	49	104	0	60	1048575
2026-01-18 17:36:45.27	152.07	76.06	-83.5	-79.0	2.6	0.00e+00	0	49	104	0	60	1048569
2026-01-18 17:36:46.27	151.66	76.86	-83.5	-79.0	2.3	0.00e+00	0	49	104	0	60	1048575
2026-01-18 17:36:47.28	151.19	77.67	-83.1	-79.0	2.4	0.00e+00	0	49	104	0	60	1048574
2026-01-18 17:36:48.29	150.66	78.49	-83.1	-79.0	2.4	0.00e+00	0	49	104	0	60	1048573
2026-01-18 17:36:49.30	150.04	79.31	-83.5	-79.0	2.3	0.00e+00	0	49	104	0	60	1048566
2026-01-18 17:36:50.31	149.31	80.13	-83.5	-79.0	2.4	0.00e+00	0	49	104	0	60	1048572
2026-01-18 17:36:51.32	148.45	80.96	-83.5	-79.0	2.5	0.00e+00	0	49	104	0	60	1048572
2026-01-18 17:36:52.32	147.42	81.77	-83.1	-79.0	2.3	0.00e+00	0	49	104	0	60	1048568
2026-01-18 17:36:53.33	146.14	82.60	-83.5	-79.0	2.4	0.00e+00	0	49	104	0	60	1048559
2026-01-18 17:36:54.34	144.55	83.42	-83.5	-79.0	2.4	0.00e+00	0	49	104	0	60	1048574
2026-01-18 17:36:55.35	142.49	84.24	-83.5	-79.0	2.4	0.00e+00	0	49	104	0	60	1048574
2026-01-18 17:36:56.35	139.78	85.04	-83.5	-79.0	2.4	0.00e+00	0	49	104	0	60	1048574
2026-01-18 17:36:57.36	135.99	85.84	-82.8	-79.0	2.4	0.00e+00	0	49	104	0	60	1048573
2026-01-18 17:36:58.36	130.49	86.60	-83.5	-79.0	2.4	0.00e+00	0	49	104	0	60	1048574
2026-01-18 17:36:59.36	121.92	87.32	-83.5	-79.0	2.3	0.00e+00	0	49	104	0	60	1048575
2026-01-18 17:37:00.37	107.55	87.94	-83.5	-79.0	2.4	0.00e+00	0	49	104	0	60	1048575
2026-01-18 17:37:01.38	83.91	88.34	-83.1	-79.0	2.4	0.00e+00	0	49	104	0	60	1048573
2026-01-18 17:37:02.39	53.98	88.34	-83.1	-79.0	2.4	0.00e+00	0	49	104	0	60	1048573
2026-01-18 17:37:03.39	30.30	87.96	-83.1	-79.0	2.4	0.00e+00	0	49	104	0	60	1048574
2026-01-18 17:37:04.40	15.67	87.34	-83.5	-79.0	2.5	0.00e+00	0	49	104	0	60	1048574
2026-01-18 17:37:05.41	6.90	86.62	-83.5	-79.0	2.5	0.00e+00	0	49	104	0	60	1048575
2026-01-18 17:37:06.42	1.30	85.85	-82.8	-79.0	2.4	0.00e+00	0	49	104	0	60	1048574
2026-01-18 17:37:07.43	357.49	85.05	-83.1	-79.0	2.5	0.00e+00	0	49	104	0	60	1048575
2026-01-18 17:37:08.44	354.75	84.24	-83.1	-79.0	2.3	0.00e+00	0	49	104	0	60	1048573
2026-01-18 17:37:09.44	352.71	83.43	-83.5	-79.0	2.4	0.00e+00	0	49	104	0	60	1048571
2026-01-18 17:37:10.45	351.10	82.61	-83.5	-79.0	2.2	0.00e+00	0	49	104	0	60	1048567
2026-01-18 17:37:11.46	349.83	81.79	-83.1	-79.0	2.3	0.00e+00	0	49	104	0	60	1048569
2026-01-18 17:37:12.46	348.80	80.97	-83.5	-79.0	2.3	0.00e+00	0	49	104	0	60	1048571
2026-01-18 17:37:13.47	347.93	80.15	-83.5	-79.0	2.4	0.00e+00	0	49	104	0	60	1048575
2026-01-18 17:37:14.47	347.21	79.33	-83.5	-79.0	2.4	0.00e+00	0	49	104	0	60	1048574
2026-01-18 17:37:15.48	346.59	78.51	-83.1	-79.0	2.4	0.00e+00	0	49	104	0	60	1048570
2026-01-18 17:37:16.49	346.05	77.70	-82.8	-79.0	2.5	0.00e+00	0	49	104	0	60	1048575
2026-01-18 17:37:17.49	345.58	76.89	-83.5	-79.0	2.4	0.00e+00	0	49	104	0	60	1048572
2026-01-18 17:37:18.50	345.17	76.08	-83.5	-79.0	2.3	0.00e+00	0	49	104	0	60	1048574
2026-01-18 17:37:19.51	344.80	75.28	-83.5	-79.0	2.4	0.00e+00	0	49	104	0	60	1048575
2026-01-18 17:37:20.52	344.48	74.48	-83.1	-79.0	2.4	0.00e+00	0	49	104	0	60	1048571
2026-01-18 17:37:21.52	344.19	73.69	-82.8	-79.0	2.4	0.00e+00	0	49	104	0	60	1048575
2026-01-18 17:37:22.53	343.93	72.90	-83.5	-79.0	2.4	0.00e+00	0	49	104	0	60	1048574
2026-01-18 17:37:23.54	343.69	72.12	-83.5	-79.0	2.5	0.00e+00	0	49	104	0	60	1048573
2026-01-18 17:37:24.55	343.47	71.34	-83.5	-79.0	2.4	0.00e+00	0	49	104	0	60	1048572
2026-01-18 17:37:25.55	343.27	70.58	-83.1	-79.0	2.4	0.00e+00	0	49	104	0	60	1048571
2026-01-18 17:37:26.56	343.09	69.81	-83.1	-79.0	2.4	0.00e+00	0	49	104	0	60	1048573
2026-01-18 17:37:27.56	342.92	69.06	-83.1	-79.0	2.4	0.00e+00	0	49	104	0	60	1048574
2026-01-18 17:37:28.57	342.77	68.31	-83.1	-79.0	2.5	0.00e+00	0	49	104	0	60	1048574
2026-01-18 17:37:29.57	342.63	67.57	-83.1	-79.0	2.3	0.00e+00	0	49	104	0	60	1048575
2026-01-18 17:37:30.57	342.49	66.84	-83.1	-79.0	2.4	0.00e+00	0	49	104	0	60	1048572
2026-01-18 17:37:31.58	342.37	66.10	-83.1	-79.0	2.3	0.00e+00	0	49	104	0	60	1048570
2026-01-18 17:37:32.59	342.25	65.38	-83.5	-79.0	2.3	0.00e+00	0	49	104	0	60	1048573
2026-01-18 17:37:33.60	342.15	64.66	-83.5	-79.0	2.4	0.00e+00	0	49	104	0	60	1048575
2026-01-18 17:37:34.60	342.05	63.96	-83.5	-79.0	2.4	0.00e+00	0	49	104	0	60	1048573
2026-01-18 17:37:35.61	341.95	63.25	-83.1	-79.0	2.4	0.00e+00	0	49	104	0	60	1048569
2026-01-18 17:37:36.62	341.86	62.56	-83.5	-79.0	2.3	0.00e+00	0	49	104	0	60	1048574
2026-01-18 17:37:37.63	341.78	61.87	-83.1	-79.0	2.5	0.00e+00	0	49	104	0	60	1048565
2026-01-18 17:37:38.64	341.70	61.19	-83.5	-79.0	2.4	0.00e+00	0	49	104	0	60	1048566
2026-01-18 17:37:39.64	341.62	60.52	-83.1	-79.0	2.5	0.00e+00	0	49	104	0	60	1048575
2026-01-18 17:37:40.65	341.55	59.85	-82.8	-79.0	2.7	0.00e+00	0	49	104	0	60	1048574
2026-01-18 17:37:41.66	341.49	59.19	-83.5	-79.0	2.4	0.00e+00	0	49	104	0	60	1048571
2026-01-18 17:37:42.67	341.42	58.54	-83.5	-79.0	2.5	0.00e+00	0	49	104	0	60	1048573
2026-01-18 17:37:43.67	341.36	57.91	-83.5	-79.0	2.4	0.00e+00	0	49	104	0	60	1048573
2026-01-18 17:37:44.68	341.31	57.27	-83.1	-79.0	2.3	0.00e+00	0	49	104	0	60	1048575
2026-01-18 17:37:45.69	341.25	56.64	-83.5	-79.0	2.5	0.00e+00	0	49	104	0	60	1048573
2026-01-18 17:37:46.69	341.20	56.03	-83.5	-79.0	2.4	0.00e+00	0	49	104	0	60	1048572
2026-01-18 17:37:47.70	341.15	55.42	-83.5	-79.0	2.5	0.00e+00	0	49	104	0	60	1048574
2026-01-18 17:37:48.71	341.11	54.81	-83.1	-79.0	2.3	0.00e+00	0	49	104	0	60	1048574
2026-01-18 17:37:49.71	341.06	54.22	-83.1	-79.0	2.4	0.00e+00	0	49	104	0	60	1048569
2026-01-18 17:37:50.72	341.02	53.63	-83.1	-79.0	2.4	0.00e+00	0	49	104	0	60	1048572
2026-01-18 17:37:51.73	340.98	53.05	-83.5	-79.0	2.3	0.00e+00	0	49	104	0	60	1048575
2026-01-18 17:37:52.73	340.94	52.48	-83.5	-79.0	2.5	0.00e+00	0	49	104	0	60	1048572
2026-01-18 17:37:53.74	340.90	51.91	-83.1	-79.0	2.4	0.00e+00	0	49	104	0	60	1048565
2026-01-18 17:37:54.75	340.86	51.35	-82.8	-79.0	2.3	0.00e+00	0	49	104	0	60	1048573
2026-01-18 17:37:55.76	340.83	50.79	-83.5	-79.0	2.3	0.00e+00	0	49	104	0	60	1048575
2026-01-18 17:37:56.76	340.80	50.25	-83.5	-79.0	2.4	0.00e+00	0	49	104	0	60	1048571
2026-01-18 17:37:57.77	340.77	49.71	-83.5	-79.0	2.5	0.00e+00	0	49	104	0	60	1048573
2026-01-18 17:37:58.78	340.74	49.18	-83.1	-79.0	2.6	0.00e+00	0	49	104	0	60	1048574
2026-01-18 17:37:59.79	340.71	48.65	-83.5	-79.0	2.4	0.00e+00	0	49	104	0	60	1048572
2026-01-18 17:38:00.80	340.68	48.14	-83.5	-79.0	2.3	0.00e+00	0	49	104	0	60	1048575
2026-01-18 17:38:01.80	340.65	47.63	-83.1	-79.0	2.5	0.00e+00	0	49	104	0	60	1048570
2026-01-18 17:38:02.81	340.63	47.12	-83.1	-79.0	2.4	0.00e+00	0	49	104	0	60	1048573
2026-01-18 17:38:03.81	340.60	46.63	-82.8	-79.0	2.4	0.00e+00	0	49	104	0	60	1048572
2026-01-18 17:38:04.82	340.58	46.14	-83.5	-79.0	2.4	0.00e+00	0	49	104	0	60	1048570
2026-01-18 17:38:05.82	340.55	45.66	-83.5	-79.0	2.3	0.00e+00	0	49	104	0	60	1048573
2026-01-18 17:38:06.82	340.53	45.18	-83.5	-79.0	2.4	0.00e+00	0	49	104	0	60	1048545
2026-01-18 17:38:07.83	340.51	44.71	-83.5	-79.0	2.5	0.00e+00	0	49	104	0	60	1048575
2026-01-18 17:38:08.84	340.49	44.24	-82.8	-79.0	2.5	0.00e+00	0	49	104	0	60	1048573
2026-01-18 17:38:09.85	340.47	43.78	-83.5	-79.0	2.4	0.00e+00	0	49	104	0	60	1048573
2026-01-18 17:38:10.86	340.45	43.33	-83.5	-79.0	2.4	0.00e+00	0	49	104	0	60	1048573
2026-01-18 17:38:11.87	340.43	42.88	-83.5	-79.0	2.5	0.00e+00	0	49	104	0	60	1048572
2026-01-18 17:38:12.87	340.41	42.44	-83.1	-79.0	2.5	0.00e+00	0	49	104	0	60	1048568
2026-01-18 17:38:13.88	340.40	42.01	-83.5	-79.0	2.4	0.00e+00	0	49	104	0	60	1048569
2026-01-18 17:38:14.89	340.38	41.58	-83.1	-79.0	2.3	0.00e+00	0	49	104	0	60	1048571
2026-01-18 17:38:15.90	340.36	41.15	-83.5	-79.0	2.4	0.00e+00	0	49	104	0	60	1048572
2026-01-18 17:38:16.90	340.35	40.73	-83.5	-79.0	2.4	0.00e+00	0	49	104	0	60	1048574
2026-01-18 17:38:17.91	340.33	40.32	-83.1	-79.0	2.4	0.00e+00	0	49	104	0	60	1048575
2026-01-18 17:38:18.91	340.32	39.92	-83.1	-79.0	2.4	0.00e+00	0	49	104	0	60	1048572
2026-01-18 17:38:19.92	340.30	39.51	-83.5	-79.0	2.5	0.00e+00	0	49	104	0	60	1048573
2026-01-18 17:38:20.92	340.29	39.12	-83.5	-79.0	2.4	0.00e+00	0	49	104	0	60	1048571
2026-01-18 17:38:21.93	340.28	38.73	-83.1	-79.0	2.4	0.00e+00	0	49	104	0	60	1048572
2026-01-18 17:38:22.94	340.26	38.34	-83.1	-79.0	2.4	0.00e+00	0	49	104	0	60	1048574
2026-01-18 17:38:23.94	340.25	37.96	-83.5	-79.0	2.4	0.00e+00	0	49	104	0	60	1048575
2026-01-18 17:38:24.95	340.24	37.58	-83.5	-79.0	2.3	0.00e+00	0	49	104	0	60	1048575
2026-01-18 17:38:25.96	340.23	37.21	-83.5	-79.0	2.4	0.00e+00	0	49	104	0	60	1048573
2026-01-18 17:38:26.96	340.22	36.84	-83.1	-79.0	2.4	0.00e+00	0	49	104	0	60	1048569
2026-01-18 17:38:27.97	340.20	36.48	-83.1	-79.0	2.5	0.00e+00	0	49	104	0	60	1048571
2026-01-18 17:38:28.98	340.19	36.12	-83.5	-79.0	2.4	0.00e+00	0	49	104	0	60	1048574
2026-01-18 17:38:29.98	340.18	35.77	-83.5	-79.0	2.4	0.00e+00	0	49	104	0	60	1048573
2026-01-18 17:38:30.99	340.17	35.42	-83.5	-79.0	2.4	0.00e+00	0	49	104	0	60	1048571
2026-01-18 17:38:32.00	340.16	35.07	-83.1	-79.0	2.1	0.00e+00	0	49	104	0	60	1048571
2026-01-18 17:38:33.01	340.15	34.73	-83.5	-79.0	2.4	0.00e+00	0	49	104	0	60	1048575
2026-01-18 17:38:34.01	340.15	34.40	-83.5	-79.0	2.3	0.00e+00	0	49	104	0	60	1048574
2026-01-18 17:38:35.02	340.14	34.06	-83.1	-79.0	2.3	0.00e+00	0	49	104	0	60	1048574
2026-01-18 17:38:36.02	340.13	33.74	-83.5	-79.0	2.4	0.00e+00	0	49	104	0	60	1048571
2026-01-18 17:38:37.03	340.12	33.41	-82.8	-79.0	2.4	0.00e+00	0	49	104	0	60	1048574
2026-01-18 17:38:38.03	340.11	33.10	-83.1	-79.0	2.4	0.00e+00	0	49	104	0	60	1048575
2026-01-18 17:38:39.04	340.10	32.78	-83.5	-79.0	2.5	0.00e+00	0	49	104	0	60	1048574
2026-01-18 17:38:40.05	340.10	32.47	-83.5	-79.0	2.4	0.00e+00	0	49	104	0	60	1048575
2026-01-18 17:38:41.06	340.09	32.16	-83.1	-79.0	2.4	0.00e+00	0	49	104	0	60	1048564
2026-01-18 17:38:42.06	340.08	31.85	-82.8	-79.0	2.4	0.00e+00	0	49	104	0	60	1048575
2026-01-18 17:38:43.07	340.08	31.55	-83.5	-79.0	2.4	0.00e+00	0	49	104	0	60	1048571
2026-01-18 17:38:44.08	340.07	31.25	-83.5	-79.0	2.4	0.00e+00	0	49	104	0	60	1048574
2026-01-18 17:38:45.09	340.06	30.96	-83.5	-79.0	2.4	0.00e+00	0	49	104	0	60	1048573
2026-01-18 17:38:46.10	340.06	30.67	-83.1	-79.0	2.4	0.00e+00	0	49	104	0	60	1048575
2026-01-18 17:38:47.10	340.05	30.38	-83.1	-79.0	2.5	0.00e+00	0	49	104	0	60	1048575
2026-01-18 17:38:48.11	340.04	30.10	-83.1	-79.0	2.4	0.00e+00	0	49	104	0	60	1048572
2026-01-18 17:38:49.12	340.04	29.82	-83.5	-79.0	2.4	0.00e+00	0	49	104	0	60	1048575
2026-01-18 17:38:50.13	340.03	29.54	-83.5	-79.0	2.4	0.00e+00	0	49	104	0	60	1048574
2026-01-18 17:38:51.14	340.03	29.26	-83.1	-79.0	2.4	0.00e+00	0	49	104	0	60	1048575
2026-01-18 17:38:52.15	340.02	28.99	-82.8	-79.0	2.3	0.00e+00	0	49	104	0	60	1048570
2026-01-18 17:38:53.15	340.02	28.73	-83.5	-79.0	2.5	0.00e+00	0	49	104	0	60	1048569
2026-01-18 17:38:54.16	340.01	28.46	-83.5	-79.0	2.3	0.00e+00	0	49	104	0	60	1048559
2026-01-18 17:38:55.17	340.01	28.20	-83.1	-79.0	2.5	0.00e+00	0	49	104	0	60	1048568
2026-01-18 17:38:56.18	340.00	27.94	-83.1	-79.0	2.4	0.00e+00	0	49	104	0	60	1048574
2026-01-18 17:38:57.18	340.00	27.68	-83.5	-79.0	2.4	0.00e+00	0	49	104	0	60	1048575
2026-01-18 17:38:58.18	340.00	27.43	-83.5	-79.0	2.4	0.00e+00	0	49	104	0	60	1048563
2026-01-18 17:38:59.18	339.99	27.18	-83.5	-79.0	2.4	0.00e+00	0	49	104	0	60	1048575
2026-01-18 17:39:00.19	339.99	26.94	-82.8	-79.0	2.4	0.00e+00	0	49	104	0	60	1048575
2026-01-18 17:39:01.20	339.98	26.69	-83.1	-79.0	2.5	0.00e+00	0	49	104	0	60	1048573
2026-01-18 17:39:02.20	339.98	26.45	-83.5	-79.0	2.4	0.00e+00	0	49	104	0	60	1048572
2026-01-18 17:39:03.21	339.98	26.21	-83.5	-79.0	2.4	0.00e+00	0	49	104	0	60	1048567
2026-01-18 17:39:04.21	339.97	25.97	-83.5	-79.0	2.4	0.00e+00	0	49	104	0	60	1048575
2026-01-18 17:39:05.21	339.97	25.74	-83.1	-79.0	2.6	0.00e+00	0	49	104	0	60	1048575
2026-01-18 17:39:06.22	339.97	25.51	-83.5	-79.0	2.3	0.00e+00	0	49	104	0	60	1048574
2026-01-18 17:39:07.23	339.96	25.28	-83.5	-79.0	2.4	0.00e+00	0	49	104	0	60	1048574
2026-01-18 17:39:08.24	339.96	25.05	-83.5	-79.0	2.3	0.00e+00	0	49	104	0	60	1048573
2026-01-18 17:39:09.24	339.96	24.83	-83.5	-79.0	2.4	0.00e+00	0	49	104	0	60	1048566
2026-01-18 17:39:10.25	339.96	24.60	-83.1	-79.0	2.4	0.00e+00	0	49	104	0	60	1048570
2026-01-18 17:39:11.25	339.95	24.38	-83.5	-79.0	2.4	0.00e+00	0	49	104	0	60	1048573
2026-01-18 17:39:12.26	339.95	24.16	-83.5	-79.0	2.5	0.00e+00	0	49	104	0	60	1048574
2026-01-18 17:39:13.27	339.95	23.95	-83.5	-79.0	2.4	0.00e+00	0	49	104	0	60	1048566
2026-01-18 17:39:14.28	339.95	23.73	-83.1	-79.0	2.4	0.00e+00	0	49	104	0	60	1048575
2026-01-18 17:39:15.28	339.94	23.52	-83.1	-79.0	2.4	0.00e+00	0	49	104	0	60	1048575
2026-01-18 17:39:16.29	339.94	23.31	-83.1	-79.0	2.4	0.00e+00	0	49	104	0	60	1048572
2026-01-18 17:39:17.30	339.94	23.10	-83.5	-79.0	2.4	0.00e+00	0	49	104	0	60	1048571
2026-01-18 17:39:18.30	339.94	22.90	-83.5	-79.0	2.4	0.00e+00	0	49	104	0	60	1048574
2026-01-18 17:39:19.31	339.94	22.70	-83.5	-79.0	2.5	0.00e+00	0	49	104	0	60	1048572
2026-01-18 17:39:20.32	339.93	22.49	-83.1	-79.0	2.4	0.00e+00	0	49	104	0	60	1048573
2026-01-18 17:39:21.32	339.93	22.30	-83.1	-79.0	2.6	0.00e+00	0	49	104	0	60	1048574
2026-01-18 17:39:22.33	339.93	22.10	-83.5	-79.0	2.3	0.00e+00	0	49	104	0	60	1048571
2026-01-18 17:39:23.33	339.93	21.90	-83.5	-79.0	2.3	0.00e+00	0	49	104	0	60	1048574
2026-01-18 17:39:24.34	339.93	21.71	-83.1	-79.0	2.4	0.00e+00	0	49	104	0	60	1048575
2026-01-18 17:39:25.35	339.93	21.52	-83.5	-79.0	2.5	0.00e+00	0	49	104	0	60	1048571
2026-01-18 17:39:26.35	339.93	21.33	-83.5	-79.0	2.4	0.00e+00	0	49	104	0	60	1048575
2026-01-18 17:39:27.36	339.93	21.14	-83.5	-79.0	2.3	0.00e+00	0	49	104	0	60	1048573
2026-01-18 17:39:28.37	339.92	20.95	-83.1	-79.0	2.3	0.00e+00	0	49	104	0	60	1048573
2026-01-18 17:39:29.37	339.92	20.77	-82.8	-79.0	2.4	0.00e+00	0	49	104	0	60	1048572
2026-01-18 17:39:30.38	339.92	20.58	-83.5	-79.0	2.4	0.00e+00	0	49	104	0	60	1048573
2026-01-18 17:39:31.39	339.92	20.40	-83.5	-79.0	2.4	0.00e+00	0	49	104	0	60	1048574
2026-01-18 17:39:32.40	339.92	20.22	-83.5	-79.0	2.4	0.00e+00	0	49	104	0	60	1048566
2026-01-18 17:39:33.40	339.92	20.04	-83.1	-79.0	2.3	0.00e+00	0	49	104	0	60	1048575
2026-01-18 17:39:34.41	339.92	19.87	-82.8	-79.0	2.5	0.00e+00	0	49	104	0	60	1048573
2026-01-18 17:39:35.42	339.92	19.69	-83.5	-79.0	2.4	0.00e+00	0	49	104	0	60	1048572
2026-01-18 17:39:36.43	339.92	19.52	-83.1	-79.0	2.4	0.00e+00	0	49	104	0	60	1048567
2026-01-18 17:39:37.44	339.92	19.34	-83.5	-79.0	2.4	0.00e+00	0	49	104	0	60	1048571
2026-01-18 17:39:38.44	339.92	19.17	-83.1	-79.0	2.6	0.00e+00	0	49	104	0	60	1048575
2026-01-18 17:39:39.45	339.92	19.00	-83.1	-79.0	2.4	0.00e+00	0	49	104	0	60	1048574
2026-01-18 17:39:40.46	339.92	18.83	-83.5	-79.0	2.5	0.00e+00	0	49	104	0	60	1048574
2026-01-18 17:39:41.46	339.92	18.67	-83.1	-79.0	2.4	0.00e+00	0	49	104	0	60	1048575
2026-01-18 17:39:42.47	339.92	18.50	-83.5	-79.0	2.4	0.00e+00	0	49	104	0	60	1048572
2026-01-18 17:39:43.47	339.92	18.34	-83.1	-79.0	2.5	0.00e+00	0	49	104	0	60	1048571
2026-01-18 17:39:44.47	339.91	18.18	-83.5	-79.0	2.3	0.00e+00	0	49	104	0	60	1048574
2026-01-18 17:39:45.48	339.91	18.02	-83.5	-79.0	2.4	0.00e+00	0	49	104	0	60	1048573
2026-01-18 17:39:46.48	339.91	17.86	-83.5	-79.0	2.4	0.00e+00	0	49	104	0	60	1048567
2026-01-18 17:39:47.49	339.91	17.70	-83.5	-79.0	2.4	0.00e+00	0	49	104	0	60	1048574
2026-01-18 17:39:48.50	339.91	17.54	-82.8	-79.0	2.3	0.00e+00	0	49	104	0	60	1048575
2026-01-18 17:39:49.51	339.92	17.39	-83.1	-79.0	2.3	0.00e+00	0	49	104	0	60	1048558
2026-01-18 17:39:50.52	339.92	17.23	-83.5	-79.0	2.4	0.00e+00	0	49	104	0	60	1048573
2026-01-18 17:39:51.52	339.92	17.08	-83.5	-79.0	2.5	0.00e+00	0	49	104	0	60	1048568
2026-01-18 17:39:52.53	339.92	16.93	-83.1	-79.0	2.3	0.00e+00	0	49	104	0	60	1048574
2026-01-18 17:39:53.54	339.92	16.78	-83.1	-79.0	2.4	0.00e+00	0	49	104	0	60	1048575
2026-01-18 17:39:54.55	339.92	16.63	-83.1	-79.0	2.6	0.00e+00	0	49	104	0	60	1048574
2026-01-18 17:39:55.56	339.92	16.48	-83.5	-79.0	2.4	0.00e+00	0	49	104	0	60	1048569
2026-01-18 17:39:56.56	339.92	16.33	-83.5	-79.0	2.3	0.00e+00	0	49	104	0	60	1048569
2026-01-18 17:39:57.57	339.92	16.18	-82.8	-79.0	2.5	0.00e+00	0	49	104	0	60	1048575
2026-01-18 17:39:58.58	339.92	16.04	-83.1	-79.0	2.6	0.00e+00	0	49	104	0	60	1048566
2026-01-18 17:39:59.58	339.92	15.90	-83.5	-79.0	2.4	0.00e+00	0	49	104	0	60	1048573
2026-01-18 17:40:00.59	339.92	15.75	-83.5	-79.0	2.4	0.00e+00	0	49	104	0	60	1048574
2026-01-18 17:40:01.60	339.92	15.61	-83.1	-79.0	2.4	0.00e+00	0	49	104	0	60	1048566
2026-01-18 17:40:02.60	339.92	15.47	-83.1	-79.0	2.4	0.00e+00	0	49	104	0	60	1048567
2026-01-18 17:40:03.61	339.92	15.33	-83.5	-79.0	2.4	0.00e+00	0	49	104	0	60	1048575
2026-01-18 17:40:04.62	339.92	15.19	-83.5	-79.0	2.5	0.00e+00	0	49	104	0	60	1048571
2026-01-18 17:40:05.63	339.92	15.05	-83.5	-79.0	2.4	0.00e+00	0	49	104	0	60	1048571
2026-01-18 17:40:06.64	339.92	14.92	-83.5	-79.0	2.5	0.00e+00	0	49	104	0	60	1048574
2026-01-18 17:40:07.64	339.92	14.78	-82.8	-79.0	2.3	0.00e+00	0	49	104	0	60	1048573
2026-01-18 17:40:08.64	339.93	14.65	-83.5	-79.0	2.4	0.00e+00	0	49	104	0	60	1048574
2026-01-18 17:40:09.65	339.93	14.51	-83.5	-79.0	2.4	0.00e+00	0	49	104	0	60	1048575
2026-01-18 17:40:10.66	339.93	14.38	-83.5	-79.0	2.5	0.00e+00	0	49	104	0	60	1048574
2026-01-18 17:40:11.67	339.93	14.25	-83.1	-79.0	2.6	0.00e+00	0	49	104	0	60	1048575
2026-01-18 17:40:12.68	339.93	14.12	-82.8	-79.0	2.4	0.00e+00	0	49	104	0	60	1048574
2026-01-18 17:40:13.68	339.93	13.99	-83.5	-79.0	2.4	0.00e+00	0	49	104	0	60	1048574
2026-01-18 17:40:14.69	339.93	13.86	-83.1	-79.0	2.3	0.00e+00	0	49	104	0	60	1048572
2026-01-18 17:40:15.70	339.93	13.73	-83.5	-79.0	2.4	0.00e+00	0	49	104	0	60	1048570
2026-01-18 17:40:16.70	339.93	13.60	-83.1	-79.0	2.3	0.00e+00	0	49	104	0	60	1048566
2026-01-18 17:40:17.71	339.94	13.48	-83.5	-79.0	2.4	0.00e+00	0	49	104	0	60	1048575
2026-01-18 17:40:18.71	339.94	13.35	-83.5	-79.0	2.4	0.00e+00	0	49	104	0	60	1048571
2026-01-18 17:40:19.72	339.94	13.23	-83.5	-79.0	2.5	0.00e+00	0	49	104	0	60	1048573
2026-01-18 17:40:20.72	339.94	13.10	-83.5	-79.0	2.3	0.00e+00	0	49	104	0	60	1048575
2026-01-18 17:40:21.73	339.94	12.98	-82.8	-79.0	2.4	0.00e+00	0	49	104	0	60	1048574
2026-01-18 17:40:22.74	339.94	12.86	-83.5	-79.0	2.4	0.00e+00	0	49	104	0	60	1048575
2026-01-18 17:40:23.75	339.94	12.73	-83.5	-79.0	2.4	0.00e+00	0	49	104	0	60	1048575
2026-01-18 17:40:24.76	339.94	12.61	-83.5	-79.0	2.4	0.00e+00	0	49	104	0	60	1048572
2026-01-18 17:40:25.76	339.95	12.49	-83.5	-79.0	2.4	0.00e+00	0	49	104	0	60	1048567
2026-01-18 17:40:26.77	339.95	12.37	-83.1	-79.0	2.4	0.00e+00	0	49	104	0	60	1048573
2026-01-18 17:40:27.78	339.95	12.26	-83.1	-79.0	2.5	0.00e+00	0	49	104	0	60	1048575
2026-01-18 17:40:28.79	339.95	12.14	-83.1	-79.0	2.2	0.00e+00	0	49	104	0	60	1048569
2026-01-18 17:40:29.79	339.95	12.02	-83.5	-79.0	2.3	0.00e+00	0	49	104	0	60	1048563
2026-01-18 17:40:30.80	339.95	11.90	-83.1	-79.0	2.3	0.00e+00	0	49	104	0	60	1048575
2026-01-18 17:40:31.81	339.96	11.79	-83.1	-79.0	2.4	0.00e+00	0	49	104	0	60	1048563
2026-01-18 17:40:32.81	339.96	11.67	-83.5	-79.0	2.4	0.00e+00	0	49	104	0	60	1048568
2026-01-18 17:40:33.82	339.96	11.56	-83.5	-79.0	2.4	0.00e+00	0	49	104	0	60	1048574
2026-01-18 17:40:34.82	339.96	11.45	-83.1	-79.0	2.4	0.00e+00	0	49	104	0	60	1048569
2026-01-18 17:40:35.83	339.96	11.33	-83.1	-79.0	2.4	0.00e+00	0	49	104	0	60	1048574
2026-01-18 17:40:36.84	339.96	11.22	-83.5	-79.0	2.4	0.00e+00	0	49	104	0	60	1048570
2026-01-18 17:40:37.84	339.97	11.11	-83.5	-79.0	2.5	0.00e+00	0	49	104	0	60	1048574
2026-01-18 17:40:38.85	339.97	11.00	-83.5	-79.0	2.3	0.00e+00	0	49	104	0	60	1048568
2026-01-18 17:40:39.86	339.97	10.89	-83.5	-79.0	2.4	0.00e+00	0	50	104	0	60	1048574
2026-01-18 17:40:40.87	339.97	10.78	-83.1	-79.0	2.4	0.00e+00	0	50	104	0	60	1048572
2026-01-18 17:40:41.88	339.97	10.67	-83.5	-79.0	2.5	0.00e+00	0	49	104	0	60	1048570
2026-01-18 17:40:42.88	339.97	10.56	-83.5	-79.0	2.4	0.00e+00	0	49	104	0	60	1048575
2026-01-18 17:40:43.89	339.98	10.46	-83.5	-79.0	2.4	0.00e+00	0	49	104	0	60	1048575
2026-01-18 17:40:44.90	339.98	10.35	-83.1	-79.0	2.6	0.00e+00	0	49	104	0	60	1048573
2026-01-18 17:40:45.91	339.98	10.24	-82.8	-79.0	2.3	0.00e+00	0	49	104	0	60	1048571
2026-01-18 17:40:46.91	339.98	10.14	-83.5	-79.0	2.3	0.00e+00	0	49	104	0	60	1048574
2026-01-18 17:40:47.92	339.98	10.03	-83.1	-79.0	2.4	0.00e+00	0	50	104	0	60	1048573
2026-01-18 17:40:48.93	339.99	9.93	-83.5	-79.0	2.4	0.00e+00	0	49	104	0	60	1048571
2026-01-18 17:40:49.94	339.99	9.82	-83.1	-79.0	2.3	0.00e+00	0	49	104	0	60	1048571
2026-01-18 17:40:50.95	339.99	9.72	-83.1	-79.0	2.5	0.00e+00	0	49	104	0	60	1048575
2026-01-18 17:40:51.94	339.99	9.62	-83.5	-79.0	2.4	0.00e+00	0	49	104	0	60	1048568
2026-01-18 17:40:52.95	339.99	9.51	-83.5	-79.0	2.4	0.00e+00	0	49	104	0	60	1048574
2026-01-18 17:40:53.96	340.00	9.41	-83.5	-79.0	2.4	0.00e+00	0	49	104	0	60	1048569
2026-01-18 17:40:54.97	340.00	9.31	-82.8	-79.0	2.4	0.00e+00	0	49	104	0	60	1048573
2026-01-18 17:40:55.98	340.00	9.21	-83.1	-79.0	2.4	0.00e+00	0	49	104	0	60	1048564
2026-01-18 17:40:56.98	340.00	9.11	-83.5	-79.0	2.3	0.00e+00	0	49	104	0	60	1048567
2026-01-18 17:40:57.99	340.00	9.01	-83.5	-79.0	2.5	0.00e+00	0	49	104	0	60	1048575
2026-01-18 17:40:59.00	340.01	8.91	-83.5	-79.0	2.5	0.00e+00	0	49	104	0	60	1048569
2026-01-18 17:41:00.00	340.01	8.81	-82.8	-79.0	2.4	0.00e+00	0	49	104	0	60	1048575
2026-01-18 17:41:01.01	340.01	8.72	-83.1	-79.0	2.7	0.00e+00	0	49	104	0	60	1048564
2026-01-18 17:41:02.02	340.01	8.62	-83.5	-79.0	2.4	0.00e+00	0	49	104	0	60	1048575
2026-01-18 17:41:03.03	340.02	8.52	-83.5	-79.0	2.3	0.00e+00	0	49	104	0	60	1048562
2026-01-18 17:41:04.04	340.02	8.42	-83.1	-79.0	2.5	0.00e+00	0	49	104	0	60	1048575
2026-01-18 17:41:05.04	340.02	8.33	-82.8	-79.0	2.3	0.00e+00	0	49	104	0	60	1048572
2026-01-18 17:41:06.05	340.02	8.23	-83.5	-79.0	2.4	0.00e+00	0	49	104	0	60	1048574
2026-01-18 17:41:07.06	340.02	8.14	-83.5	-79.0	2.4	0.00e+00	0	49	104	0	60	1048572
2026-01-18 17:41:08.06	340.03	8.04	-83.5	-79.0	2.5	0.00e+00	0	49	104	0	60	1048563
2026-01-18 17:41:09.07	340.03	7.95	-82.8	-79.0	2.4	0.00e+00	0	49	104	0	60	1048575
2026-01-18 17:41:10.08	340.03	7.86	-83.5	-79.0	2.4	0.00e+00	0	49	104	0	60	1048570
2026-01-18 17:41:11.09	340.03	7.76	-83.5	-79.0	2.5	0.00e+00	0	49	104	0	60	1048566
2026-01-18 17:41:12.10	340.04	7.67	-83.1	-79.0	2.4	0.00e+00	0	49	104	0	60	1048571
2026-01-18 17:41:13.10	340.04	7.58	-83.5	-79.0	2.4	0.00e+00	0	49	104	0	60	1048570
2026-01-18 17:41:14.11	340.04	7.48	-83.1	-79.0	2.4	0.00e+00	0	49	104	0	60	1048573
2026-01-18 17:41:15.12	340.04	7.39	-83.5	-79.0	2.4	0.00e+00	0	50	104	0	60	1048572
2026-01-18 17:41:16.12	340.05	7.30	-83.5	-79.0	2.4	0.00e+00	0	49	104	0	60	1048574
2026-01-18 17:41:17.13	340.05	7.21	-83.5	-79.0	2.4	0.00e+00	0	49	104	0	60	1048571
2026-01-18 17:41:18.14	340.05	7.12	-83.5	-79.0	2.5	0.00e+00	0	49	104	0	60	1048574
2026-01-18 17:41:19.15	340.05	7.03	-83.1	-79.0	2.2	0.00e+00	0	49	104	0	60	1048571
2026-01-18 17:41:20.15	340.06	6.94	-83.5	-79.0	2.4	0.00e+00	0	49	104	0	60	1048575
2026-01-18 17:41:21.16	340.06	6.85	-83.5	-79.0	2.4	0.00e+00	0	50	104	0	60	1048569
2026-01-18 17:41:22.16	340.06	6.77	-83.5	-79.0	2.4	0.00e+00	0	49	104	0	60	1048569
2026-01-18 17:41:23.17	340.06	6.68	-83.1	-79.0	2.4	0.00e+00	0	49	104	0	60	1048573
2026-01-18 17:41:24.18	340.07	6.59	-83.5	-79.0	2.4	0.00e+00	0	49	104	0	60	1048574
2026-01-18 17:41:25.18	340.07	6.50	-83.5	-79.0	2.5	0.00e+00	0	49	104	0	60	1048575
2026-01-18 17:41:26.19	340.07	6.42	-83.5	-79.0	2.5	0.00e+00	0	49	104	0	60	1048572
2026-01-18 17:41:27.19	340.07	6.33	-83.5	-79.0	2.3	0.00e+00	0	49	104	0	60	1048575
2026-01-18 17:41:28.20	340.08	6.24	-83.1	-79.0	2.4	0.00e+00	0	49	104	0	60	1048575
2026-01-18 17:41:29.20	340.08	6.16	-83.1	-79.0	2.4	0.00e+00	0	49	104	0	60	1048568
2026-01-18 17:41:30.21	340.08	6.07	-83.5	-79.0	2.5	0.00e+00	0	49	104	0	60	1048575
2026-01-18 17:41:31.21	340.08	5.99	-83.5	-79.0	2.4	0.00e+00	0	50	104	0	60	1048570
2026-01-18 17:41:32.22	340.09	5.90	-83.5	-79.0	2.4	0.00e+00	0	49	104	0	60	1048575
2026-01-18 17:41:33.23	340.09	5.82	-83.1	-79.0	2.4	0.00e+00	0	49	104	0	60	1048575
2026-01-18 17:41:34.24	340.09	5.73	-83.1	-79.0	2.4	0.00e+00	0	49	104	0	60	1048567
2026-01-18 17:41:35.24	340.09	5.65	-83.1	-79.0	2.2	0.00e+00	0	49	104	0	60	1048573
2026-01-18 17:41:36.25	340.10	5.57	-83.5	-79.0	2.3	0.00e+00	0	49	104	0	60	1048575
2026-01-18 17:41:37.26	340.10	5.49	-83.5	-79.0	2.5	0.00e+00	0	49	104	0	60	1048575
2026-01-18 17:41:38.27	340.10	5.40	-82.8	-79.0	2.3	0.00e+00	0	49	104	0	60	1048572
2026-01-18 17:41:39.28	340.11	5.32	-83.5	-79.0	2.5	0.00e+00	0	49	104	0	60	1048568
2026-01-18 17:41:40.29	340.11	5.24	-83.5	-79.0	2.4	0.00e+00	0	49	104	0	60	1048571
2026-01-18 17:41:41.29	340.11	5.16	-83.5	-79.0	2.4	0.00e+00	0	49	104	0	60	1048572
2026-01-18 17:41:42.30	340.11	5.08	-82.8	-79.0	2.4	0.00e+00	0	49	104	0	60	1048573
2026-01-18 17:41:43.30	340.12	5.00	-83.5	-79.0	2.4	0.00e+00	0	49	104	0	60	1048574
2026-01-18 17:41:44.30	340.12	4.92	-83.5	-79.0	2.4	0.00e+00	0	49	104	0	60	1048566
2026-01-18 17:41:45.31	340.12	4.83	-83.5	-79.0	2.4	0.00e+00	0	49	104	0	60	1048570
2026-01-18 17:41:46.32	340.12	4.75	-83.1	-79.0	2.4	0.00e+00	0	49	104	0	60	1048563
2026-01-18 17:41:47.32	340.13	4.68	-83.1	-79.0	2.3	0.00e+00	0	49	104	0	60	1048571
2026-01-18 17:41:48.32	340.13	4.60	-83.5	-79.0	2.4	0.00e+00	0	49	104	0	60	1048572
2026-01-18 17:41:49.33	340.13	4.52	-83.5	-79.0	2.4	0.00e+00	0	49	104	0	60	1048574
2026-01-18 17:41:50.34	340.14	4.44	-83.5	-79.0	2.4	0.00e+00	0	49	104	0	60	1048572
2026-01-18 17:41:51.35	340.14	4.36	-83.1	-79.0	2.4	0.00e+00	0	49	104	0	60	1048575
2026-01-18 17:41:52.36	340.14	4.28	-82.8	-79.0	2.4	0.00e+00	0	49	104	0	60	1048575
2026-01-18 17:41:53.36	340.14	4.20	-83.5	-79.0	2.3	0.00e+00	0	49	104	0	60	1048575
2026-01-18 17:41:54.37	340.15	4.13	-83.1	-79.0	2.3	0.00e+00	0	49	104	0	60	1048575
2026-01-18 17:41:55.38	340.15	4.05	-83.5	-79.0	2.4	0.00e+00	0	49	104	0	60	1048575
2026-01-18 17:41:56.39	340.15	3.97	-83.1	-79.0	2.5	0.00e+00	0	49	104	0	60	1048574
2026-01-18 17:41:57.39	340.16	3.90	-83.1	-79.0	2.4	0.00e+00	0	49	104	0	60	1048573
2026-01-18 17:41:58.40	340.16	3.82	-83.5	-79.0	2.4	0.00e+00	0	49	104	0	60	1048574
2026-01-18 17:41:59.40	340.16	3.74	-83.5	-79.0	2.5	0.00e+00	0	49	104	0	60	1048574
2026-01-18 17:42:00.41	340.16	3.67	-83.5	-79.0	2.4	0.00e+00	0	49	104	0	60	1048572
2026-01-18 17:42:01.42	340.17	3.59	-82.8	-79.0	2.3	0.00e+00	0	49	104	0	60	1048573
2026-01-18 17:42:02.43	340.17	3.52	-82.8	-79.0	2.4	0.00e+00	0	49	104	0	60	1048572
2026-01-18 17:42:03.44	340.17	3.44	-83.1	-79.0	2.4	0.00e+00	0	49	104	0	60	1048563
2026-01-18 17:42:04.44	340.18	3.37	-83.5	-79.0	2.4	0.00e+00	0	49	104	0	60	1048574
2026-01-18 17:42:05.45	340.18	3.29	-83.5	-79.0	2.4	0.00e+00	0	49	104	0	60	1048573
2026-01-18 17:42:06.46	340.18	3.22	-83.1	-79.0	2.5	0.00e+00	0	49	104	0	60	1048574
2026-01-18 17:42:07.47	340.19	3.15	-83.5	-79.0	2.4	0.00e+00	0	49	104	0	60	1048571
2026-01-18 17:42:08.47	340.19	3.07	-83.5	-79.0	2.3	0.00e+00	0	49	104	0	60	1048575
2026-01-18 17:42:09.48	340.19	3.00	-83.5	-79.0	2.4	0.00e+00	0	49	104	0	60	1048566
2026-01-18 17:42:10.49	340.19	2.93	-83.5	-79.0	2.3	0.00e+00	0	49	104	0	60	1048574
2026-01-18 17:42:11.50	340.20	2.85	-83.1	-79.0	2.3	0.00e+00	0	49	104	0	60	1048574
2026-01-18 17:42:12.50	340.20	2.78	-83.5	-79.0	2.4	0.00e+00	0	49	104	0	60	1048573
2026-01-18 17:42:13.50	340.20	2.71	-83.5	-79.0	2.4	0.00e+00	0	49	104	0	60	1048574
2026-01-18 17:42:14.51	340.21	2.64	-83.1	-79.0	2.5	0.00e+00	0	49	104	0	60	1048573
2026-01-18 17:42:15.51	340.21	2.56	-83.1	-79.0	2.4	0.00e+00	0	50	104	0	60	1048574
2026-01-18 17:42:16.52	340.21	2.49	-83.1	-79.0	2.4	0.00e+00	0	49	104	0	60	1048574
2026-01-18 17:42:17.53	340.22	2.42	-83.5	-79.0	2.4	0.00e+00	0	49	104	0	60	1048571
2026-01-18 17:42:18.54	340.22	2.35	-83.5	-79.0	2.5	0.00e+00	0	49	104	0	60	1048572
2026-01-18 17:42:19.54	340.22	2.28	-83.5	-79.0	2.3	0.00e+00	0	49	104	0	60	1048575
2026-01-18 17:42:20.54	340.23	2.21	-83.1	-79.0	2.2	0.00e+00	0	49	104	0	60	1048574
2026-01-18 17:42:21.55	340.23	2.14	-83.5	-79.0	2.5	0.00e+00	0	49	104	0	60	1048571
2026-01-18 17:42:22.56	340.23	2.07	-83.5	-79.0	2.4	0.00e+00	0	49	104	0	60	1048570
2026-01-18 17:42:23.56	340.24	2.00	-83.5	-79.0	2.5	0.00e+00	0	49	104	0	60	1048571
2026-01-18 17:42:24.57	340.24	1.93	-83.1	-79.0	2.4	0.00e+00	0	49	104	0	60	1048575
2026-01-18 17:42:25.58	340.24	1.86	-83.1	-79.0	2.4	0.00e+00	0	49	104	0	60	1048573
2026-01-18 17:42:26.58	340.24	1.79	-83.1	-79.0	2.4	0.00e+00	0	49	104	0	60	1048574
2026-01-18 17:42:27.59	340.25	1.72	-83.1	-79.0	2.4	0.00e+00	0	49	104	0	60	1048573
2026-01-18 17:42:28.59	340.25	1.65	-83.5	-79.0	2.4	0.00e+00	0	49	104	0	60	1048571
2026-01-18 17:42:29.60	340.25	1.58	-83.5	-79.0	2.4	0.00e+00	0	49	104	0	60	1048574
2026-01-18 17:42:30.61	340.26	1.51	-83.1	-79.0	2.3	0.00e+00	0	49	104	0	60	1048572
2026-01-18 17:42:31.61	340.26	1.45	-83.1	-79.0	2.4	0.00e+00	0	49	104	0	60	1048575
2026-01-18 17:42:32.62	340.26	1.38	-83.5	-79.0	2.3	0.00e+00	0	49	104	0	60	1048575
2026-01-18 17:42:33.63	340.27	1.31	-83.5	-79.0	2.4	0.00e+00	0	49	104	0	60	1048573
2026-01-18 17:42:34.64	340.27	1.24	-83.1	-79.0	2.4	0.00e+00	0	49	104	0	60	1048575
2026-01-18 17:42:35.64	340.27	1.17	-83.1	-79.0	2.3	0.00e+00	0	49	104	0	60	1048575
2026-01-18 17:42:36.65	340.28	1.11	-83.5	-79.0	2.4	0.00e+00	0	49	104	0	60	1048570
2026-01-18 17:42:37.66	340.28	1.04	-83.5	-79.0	2.5	0.00e+00	0	49	104	0	60	1048568
2026-01-18 17:42:38.67	340.28	0.97	-83.5	-79.0	2.3	0.00e+00	0	49	104	0	60	1048572
2026-01-18 17:42:39.68	340.29	0.91	-83.1	-79.0	2.5	0.00e+00	0	49	104	0	60	1048574
2026-01-18 17:42:40.68	340.29	0.84	-83.1	-79.0	2.4	0.00e+00	0	49	104	0	60	1048575
2026-01-18 17:42:41.69	340.29	0.77	-83.5	-79.0	2.6	0.00e+00	0	49	104	0	60	1048575
2026-01-18 17:42:42.70	340.30	0.71	-83.5	-79.0	2.3	0.00e+00	0	49	104	0	60	1048575
2026-01-18 17:42:43.71	340.30	0.64	-83.1	-79.0	2.5	0.00e+00	0	49	104	0	60	1048572
2026-01-18 17:42:44.71	340.30	0.58	-83.1	-79.0	2.4	0.00e+00	0	49	104	0	60	1048574
2026-01-18 17:42:45.72	340.31	0.51	-83.5	-79.0	2.4	0.00e+00	0	49	104	0	60	1048575
2026-01-18 17:42:46.73	340.31	0.44	-83.5	-79.0	2.5	0.00e+00	0	49	104	0	60	1048574
2026-01-18 17:42:47.74	340.31	0.38	-83.5	-79.0	2.3	0.00e+00	0	49	104	0	60	1048575
2026-01-18 17:42:48.75	340.32	0.31	-82.8	-79.0	2.3	0.00e+00	0	49	104	0	60	1048574
2026-01-18 17:42:49.75	340.32	0.25	-83.5	-79.0	2.5	0.00e+00	0	49	104	0	60	1048571
2026-01-18 17:42:50.76	340.32	0.19	-83.5	-79.0	2.4	0.00e+00	0	49	104	0	60	1048570
2026-01-18 17:42:51.76	340.33	0.12	-83.5	-79.0	2.3	0.00e+00	0	49	104	0	60	1048573
2026-01-18 17:42:52.77	340.33	0.06	-83.5	-79.0	2.4	0.00e+00	0	49	104	0	60	1048574
2026-01-18 17:42:53.78	340.33	-0.01	-83.1	-79.0	2.4	0.00e+00	0	49	104	0	60	1048574
2026-01-18 17:42:54.78	340.34	-0.07	-83.1	-79.0	2.4	0.00e+00	0	49	104	0	60	1048569
2026-01-18 17:42:55.79	340.34	-0.13	-83.5	-79.0	2.4	0.00e+00	0	49	104	0	60	1048572

#Closed at: 2026-01-18 17:42:55
#Recorded file [0 MB]: D:/Data/35015_260118_203115.dat