passes_logs/2026/01/18/R3.2S-Naryan-Mar/R3.2S-Naryan-Mar__20260118_005817_AQUA_rec.log

#Pass ID: 20260118_005817_AQUA
#Satellite: AQUA
#Configuration: AQUA
#almurnet v.1.7.20240730
#Start time: 2026-01-18 00:58:20

#Version: 2.2.20231116
#Station: R3.2S-Naryan-Mar
#Location: 53.008057 lon 67.646978 lat
#TLE: 1 27424U 02022A   26017.29152041  .00000842  00000+0  17841-3 0  9992
#TLE: 2 27424  98.4085 343.7574 0002011  75.4099  30.6811 14.61825797261228

#Time	Az	El	Level	Level2	SNR	BER	BlckErr	Temp	State	Recorded	gain1	gain2
2026-01-18 00:58:20.02	22.42	0.18	-83.9	-88.8	1.9	3.11e+01	0	46	0	0	60	1048574
2026-01-18 00:58:21.03	22.42	0.24	-83.9	-88.8	2.6	3.11e+01	0	46	104	0	60	1048575
2026-01-18 00:58:22.04	22.42	0.30	-83.9	-88.8	2.8	3.11e+01	0	46	104	0	60	1048575
2026-01-18 00:58:23.04	22.42	0.37	-84.3	-88.8	2.6	3.11e+01	0	46	104	0	60	1048575
2026-01-18 00:58:24.05	22.42	0.43	-84.3	-88.8	2.4	3.11e+01	0	46	104	0	60	1048575
2026-01-18 00:58:25.05	22.42	0.49	-83.9	-88.8	2.6	3.11e+01	0	46	104	0	60	1048575
2026-01-18 00:58:26.05	22.43	0.55	-83.9	-88.8	2.3	3.11e+01	0	46	104	0	60	1048575
2026-01-18 00:58:27.06	22.43	0.62	-83.9	-88.8	2.6	3.11e+01	0	46	104	0	60	1048575
2026-01-18 00:58:28.07	22.43	0.68	-84.3	-88.8	2.7	3.11e+01	0	46	104	0	60	1048575
2026-01-18 00:58:29.07	22.43	0.74	-84.3	-88.8	2.6	3.11e+01	0	46	104	0	60	1048575
2026-01-18 00:58:30.08	22.43	0.81	-83.5	-88.8	2.6	3.11e+01	0	46	104	0	60	1048575
2026-01-18 00:58:31.08	22.43	0.87	-83.9	-88.8	2.6	3.11e+01	0	46	104	0	60	1048575
2026-01-18 00:58:32.09	22.44	0.94	-84.3	-88.8	2.6	3.11e+01	0	46	104	0	60	1048575
2026-01-18 00:58:33.10	22.44	1.00	-84.3	-88.8	2.6	3.11e+01	0	46	104	0	60	1048575
2026-01-18 00:58:34.11	22.44	1.06	-84.3	-88.8	2.4	3.11e+01	0	46	104	0	60	1048575
2026-01-18 00:58:35.11	22.44	1.13	-83.9	-88.8	2.4	3.11e+01	0	46	104	0	60	1048575
2026-01-18 00:58:36.12	22.44	1.19	-84.3	-88.8	2.5	3.11e+01	0	46	104	0	60	1048575
2026-01-18 00:58:37.12	22.44	1.26	-84.3	-88.8	2.6	3.11e+01	0	46	104	0	60	1048575
2026-01-18 00:58:38.13	22.44	1.32	-84.3	-88.8	2.7	3.11e+01	0	46	104	0	60	1048575
2026-01-18 00:58:39.13	22.45	1.39	-84.3	-88.8	2.7	3.11e+01	0	46	104	0	60	1048575
2026-01-18 00:58:40.14	22.45	1.45	-83.9	-88.8	2.5	3.11e+01	0	46	104	0	60	1048575
2026-01-18 00:58:41.14	22.45	1.52	-83.9	-88.8	2.6	3.11e+01	0	46	104	0	60	1048575
2026-01-18 00:58:42.15	22.45	1.58	-84.3	-88.8	2.7	3.11e+01	0	46	104	0	60	1048575
2026-01-18 00:58:43.15	22.45	1.65	-84.3	-88.8	2.6	3.11e+01	0	46	104	0	60	1048575
2026-01-18 00:58:44.15	22.45	1.71	-84.3	-88.8	2.5	3.11e+01	0	46	104	0	60	1048575
2026-01-18 00:58:45.16	22.45	1.78	-83.9	-88.8	2.7	3.11e+01	0	46	104	0	60	1048575
2026-01-18 00:58:46.16	22.45	1.84	-83.9	-88.8	2.5	3.11e+01	0	46	104	0	60	1048575
2026-01-18 00:58:47.17	22.46	1.91	-84.3	-88.8	2.6	3.11e+01	0	46	104	0	60	1048575
2026-01-18 00:58:48.17	22.46	1.98	-84.3	-88.8	2.8	3.11e+01	0	46	104	0	60	1048575
2026-01-18 00:58:49.17	22.46	2.04	-84.3	-88.8	2.6	3.11e+01	0	46	104	0	60	1048575
2026-01-18 00:58:50.18	22.46	2.11	-83.9	-88.8	2.6	3.11e+01	0	46	104	0	60	1048575
2026-01-18 00:58:51.19	22.46	2.18	-84.3	-88.8	2.6	3.11e+01	0	46	104	0	60	1048575
2026-01-18 00:58:52.19	22.46	2.24	-84.3	-88.8	2.6	3.11e+01	0	46	104	0	60	1048575
2026-01-18 00:58:53.20	22.46	2.31	-84.3	-88.8	2.5	3.11e+01	0	46	104	0	60	1048575
2026-01-18 00:58:54.21	22.46	2.38	-83.9	-88.8	2.5	3.11e+01	0	46	104	0	60	1048575
2026-01-18 00:58:55.22	22.47	2.45	-83.9	-88.8	2.4	3.11e+01	0	46	104	0	60	1048575
2026-01-18 00:58:56.22	22.47	2.51	-84.3	-88.8	2.5	3.11e+01	0	46	104	0	60	1048575
2026-01-18 00:58:57.23	22.47	2.58	-84.3	-88.8	2.5	3.11e+01	0	46	104	0	60	1048575
2026-01-18 00:58:58.23	22.47	2.65	-84.3	-88.8	2.7	3.11e+01	0	46	104	0	60	1048575
2026-01-18 00:58:59.24	22.47	2.72	-83.9	-88.8	2.5	3.11e+01	0	46	104	0	60	1048575
2026-01-18 00:59:00.24	22.47	2.79	-84.3	-88.8	2.7	3.11e+01	0	46	104	0	60	1048575
2026-01-18 00:59:01.24	22.47	2.85	-84.3	-88.8	2.5	3.11e+01	0	46	104	0	60	1048575
2026-01-18 00:59:02.25	22.47	2.92	-84.3	-88.8	2.3	3.11e+01	0	46	104	0	60	1048575
2026-01-18 00:59:03.25	22.47	2.99	-83.9	-88.8	2.5	3.11e+01	0	46	104	0	60	1048575
2026-01-18 00:59:04.26	22.48	3.06	-83.9	-88.8	2.7	3.11e+01	0	46	104	0	60	1048575
2026-01-18 00:59:05.26	22.48	3.13	-84.3	-88.8	2.6	3.11e+01	0	46	104	0	60	1048575
2026-01-18 00:59:06.27	22.48	3.20	-84.3	-88.8	2.5	3.11e+01	0	46	104	0	60	1048575
2026-01-18 00:59:07.27	22.48	3.27	-84.3	-88.8	2.4	3.11e+01	0	46	104	0	60	1048575
2026-01-18 00:59:08.27	22.48	3.34	-83.9	-88.8	2.6	3.11e+01	0	46	104	0	60	1048575
2026-01-18 00:59:09.28	22.48	3.41	-83.9	-88.8	2.5	3.11e+01	0	46	104	0	60	1048575
2026-01-18 00:59:10.29	22.48	3.48	-84.3	-88.8	2.5	3.11e+01	0	46	104	0	60	1048575
2026-01-18 00:59:11.30	22.48	3.55	-84.3	-88.8	2.4	3.11e+01	0	46	104	0	60	1048575
2026-01-18 00:59:12.31	22.48	3.62	-84.3	-88.8	2.6	3.11e+01	0	46	104	0	60	1048575
2026-01-18 00:59:13.31	22.48	3.69	-83.9	-88.8	2.5	3.11e+01	0	47	104	0	60	1048575
2026-01-18 00:59:14.32	22.48	3.76	-84.3	-88.8	2.4	3.11e+01	0	47	104	0	60	1048575
2026-01-18 00:59:15.32	22.48	3.84	-84.3	-88.8	2.5	3.11e+01	0	46	104	0	60	1048575
2026-01-18 00:59:16.32	22.49	3.91	-84.3	-88.8	2.5	3.11e+01	0	47	104	0	60	1048575
2026-01-18 00:59:17.33	22.49	3.98	-84.3	-88.8	2.5	3.11e+01	0	47	104	0	60	1048575
2026-01-18 00:59:18.33	22.49	4.05	-83.9	-88.8	2.4	3.11e+01	0	46	104	0	60	1048575
2026-01-18 00:59:19.34	22.49	4.12	-84.3	-88.8	2.6	3.11e+01	0	47	104	0	60	1048575
2026-01-18 00:59:20.35	22.49	4.20	-84.3	-88.8	2.6	3.11e+01	0	47	104	0	60	1048575
2026-01-18 00:59:21.36	22.49	4.27	-84.3	-88.8	2.6	3.11e+01	0	47	104	0	60	1048575
2026-01-18 00:59:22.36	22.49	4.34	-83.9	-88.8	2.7	3.11e+01	0	47	104	0	60	1048575
2026-01-18 00:59:23.37	22.49	4.41	-83.9	-88.8	2.7	3.11e+01	0	46	104	0	60	1048575
2026-01-18 00:59:24.38	22.49	4.49	-84.3	-88.8	2.7	3.11e+01	0	47	104	0	60	1048575
2026-01-18 00:59:25.39	22.49	4.56	-84.3	-88.8	2.7	3.11e+01	0	47	104	0	60	1048575
2026-01-18 00:59:26.40	22.49	4.64	-84.3	-88.8	2.7	3.11e+01	0	46	104	0	60	1048575
2026-01-18 00:59:27.41	22.49	4.71	-83.9	-88.8	2.6	3.11e+01	0	46	104	0	60	1048575
2026-01-18 00:59:28.41	22.49	4.78	-83.9	-88.8	2.5	3.11e+01	0	46	104	0	60	1048575
2026-01-18 00:59:29.42	22.49	4.86	-84.3	-88.8	2.5	3.11e+01	0	46	104	0	60	1048575
2026-01-18 00:59:30.42	22.49	4.93	-84.3	-88.8	2.8	3.11e+01	0	47	104	0	60	1048575
2026-01-18 00:59:31.43	22.49	5.01	-84.3	-88.8	2.6	3.11e+01	0	47	104	0	60	1048575
2026-01-18 00:59:32.44	22.49	5.08	-83.9	-88.8	2.5	3.11e+01	0	47	104	0	60	1048575
2026-01-18 00:59:33.44	22.50	5.16	-84.3	-88.8	2.5	3.11e+01	0	47	104	0	60	1048575
2026-01-18 00:59:34.45	22.50	5.24	-84.3	-88.8	2.4	3.11e+01	0	47	104	0	60	1048575
2026-01-18 00:59:35.46	22.50	5.31	-84.3	-88.8	2.6	3.11e+01	0	47	104	0	60	1048575
2026-01-18 00:59:36.47	22.50	5.39	-83.9	-88.8	2.6	3.11e+01	0	46	104	0	60	1048575
2026-01-18 00:59:37.47	22.50	5.46	-83.9	-88.8	2.3	3.11e+01	0	47	104	0	60	1048575
2026-01-18 00:59:38.48	22.50	5.54	-83.9	-88.8	2.5	3.11e+01	0	47	104	0	60	1048575
2026-01-18 00:59:39.49	22.50	5.62	-84.3	-88.8	2.6	3.11e+01	0	47	104	0	60	1048575
2026-01-18 00:59:40.50	22.50	5.70	-83.9	-88.8	2.4	3.11e+01	0	47	104	0	60	1048575
2026-01-18 00:59:41.51	22.50	5.77	-83.9	-88.8	2.3	3.11e+01	0	47	104	0	60	1048575
2026-01-18 00:59:42.52	22.50	5.85	-83.9	-88.8	2.5	3.11e+01	0	47	104	0	60	1048575
2026-01-18 00:59:43.52	22.50	5.93	-84.3	-88.8	2.8	3.11e+01	0	47	104	0	60	1048575
2026-01-18 00:59:44.53	22.50	6.01	-84.3	-88.8	2.5	3.11e+01	0	47	104	0	60	1048575
2026-01-18 00:59:45.53	22.50	6.09	-84.3	-88.8	2.6	3.11e+01	0	47	104	0	60	1048575
2026-01-18 00:59:46.54	22.50	6.16	-83.9	-88.8	2.6	3.11e+01	0	47	104	0	60	1048575
2026-01-18 00:59:47.55	22.50	6.24	-84.3	-88.8	2.5	3.11e+01	0	47	104	0	60	1048575
2026-01-18 00:59:48.56	22.50	6.32	-84.3	-88.8	2.7	3.11e+01	0	47	104	0	60	1048575
2026-01-18 00:59:49.56	22.50	6.40	-84.3	-88.8	2.6	3.11e+01	0	47	104	0	60	1048575
2026-01-18 00:59:50.56	22.50	6.48	-83.9	-88.8	2.6	3.11e+01	0	47	104	0	60	1048575
2026-01-18 00:59:51.57	22.50	6.56	-83.9	-88.8	2.6	3.11e+01	0	47	104	0	60	1048575
2026-01-18 00:59:52.56	22.50	6.64	-84.3	-88.8	2.4	3.11e+01	0	47	104	0	60	1048575
2026-01-18 00:59:53.57	22.50	6.72	-84.3	-88.8	2.6	3.11e+01	0	47	104	0	60	1048575
2026-01-18 00:59:54.58	22.50	6.80	-84.3	-88.8	2.6	3.11e+01	0	47	104	0	60	1048575
2026-01-18 00:59:55.59	22.50	6.89	-83.9	-88.8	2.8	3.11e+01	0	47	104	0	60	1048575
2026-01-18 00:59:56.60	22.50	6.97	-83.9	-88.8	2.5	3.11e+01	0	47	104	0	60	1048575
2026-01-18 00:59:57.60	22.50	7.05	-84.3	-88.8	2.6	3.11e+01	0	47	104	0	60	1048575
2026-01-18 00:59:58.61	22.50	7.13	-84.3	-88.8	2.6	3.11e+01	0	47	104	0	60	1048575
2026-01-18 00:59:59.62	22.50	7.21	-84.3	-88.8	2.6	3.11e+01	0	47	104	0	60	1048575
2026-01-18 01:00:00.63	22.50	7.30	-83.9	-88.8	2.7	3.11e+01	0	47	104	0	60	1048575
2026-01-18 01:00:01.64	22.50	7.38	-83.9	-88.8	2.6	3.11e+01	0	47	104	0	60	1048575
2026-01-18 01:00:02.64	22.50	7.46	-84.3	-88.8	2.6	3.11e+01	0	47	104	0	60	1048575
2026-01-18 01:00:03.64	22.50	7.55	-84.3	-88.8	2.6	3.11e+01	0	47	104	0	60	1048575
2026-01-18 01:00:04.65	22.50	7.63	-84.3	-88.8	2.5	3.11e+01	0	47	104	0	60	1048575
2026-01-18 01:00:05.66	22.50	7.71	-83.9	-88.8	2.5	3.11e+01	0	47	104	0	60	1048575
2026-01-18 01:00:06.67	22.49	7.80	-83.9	-88.8	2.4	3.11e+01	0	47	104	0	60	1048575
2026-01-18 01:00:07.67	22.49	7.88	-84.3	-88.8	2.6	3.11e+01	0	47	104	0	60	1048575
2026-01-18 01:00:08.68	22.49	7.97	-84.3	-88.8	2.8	3.11e+01	0	47	104	0	60	1048575
2026-01-18 01:00:09.68	22.49	8.05	-84.3	-88.8	2.6	3.11e+01	0	47	104	0	60	1048575
2026-01-18 01:00:10.69	22.49	8.14	-83.9	-88.8	2.6	3.11e+01	0	47	104	0	60	1048575
2026-01-18 01:00:11.70	22.49	8.23	-84.3	-88.8	2.5	3.11e+01	0	47	104	0	60	1048575
2026-01-18 01:00:12.71	22.49	8.31	-84.3	-88.8	2.5	3.11e+01	0	47	104	0	60	1048575
2026-01-18 01:00:13.72	22.49	8.40	-84.3	-88.8	2.6	3.11e+01	0	47	104	0	60	1048575
2026-01-18 01:00:14.73	22.49	8.49	-83.9	-88.8	2.5	3.11e+01	0	47	104	0	60	1048575
2026-01-18 01:00:15.73	22.49	8.57	-83.9	-88.8	2.6	3.11e+01	0	47	104	0	60	1048575
2026-01-18 01:00:16.74	22.49	8.66	-84.3	-88.8	2.6	3.11e+01	0	47	104	0	60	1048575
2026-01-18 01:00:17.74	22.49	8.75	-84.3	-88.8	2.7	3.11e+01	0	47	104	0	60	1048575
2026-01-18 01:00:18.75	22.49	8.84	-84.3	-88.8	2.8	3.11e+01	0	47	104	0	60	1048575
2026-01-18 01:00:19.76	22.49	8.93	-83.5	-88.8	2.5	3.11e+01	0	47	104	0	60	1048575
2026-01-18 01:00:20.76	22.48	9.02	-83.9	-88.8	2.5	3.11e+01	0	47	104	0	60	1048575
2026-01-18 01:00:21.77	22.48	9.11	-84.3	-88.8	2.9	3.11e+01	0	47	104	0	60	1048575
2026-01-18 01:00:22.77	22.48	9.20	-84.3	-88.8	2.8	3.11e+01	0	47	104	0	60	1048575
2026-01-18 01:00:23.78	22.48	9.29	-84.3	-88.8	2.6	3.11e+01	0	47	104	0	60	1048575
2026-01-18 01:00:24.78	22.48	9.38	-83.5	-88.8	2.7	3.11e+01	0	47	104	0	60	1048575
2026-01-18 01:00:25.79	22.48	9.47	-84.3	-88.8	2.6	3.11e+01	0	47	104	0	60	1048575
2026-01-18 01:00:26.79	22.48	9.56	-84.3	-88.8	2.6	3.11e+01	0	47	104	0	60	1048575
2026-01-18 01:00:27.80	22.48	9.65	-84.3	-88.8	2.5	3.11e+01	0	47	104	0	60	1048575
2026-01-18 01:00:28.80	22.48	9.74	-84.3	-88.8	2.7	3.11e+01	0	47	104	0	60	1048575
2026-01-18 01:00:29.80	22.47	9.84	-83.9	-88.8	2.6	3.11e+01	0	47	104	0	60	1048575
2026-01-18 01:00:30.81	22.47	9.93	-84.3	-88.8	2.5	3.11e+01	0	47	104	0	60	1048575
2026-01-18 01:00:31.82	22.47	10.02	-84.3	-88.8	2.5	3.11e+01	0	47	104	0	60	1048575
2026-01-18 01:00:32.83	22.47	10.12	-84.3	-88.8	2.6	3.11e+01	0	47	104	0	60	1048575
2026-01-18 01:00:33.84	22.47	10.21	-83.9	-88.8	2.7	3.11e+01	0	47	104	0	60	1048575
2026-01-18 01:00:34.84	22.47	10.30	-83.9	-88.8	2.7	3.11e+01	0	47	104	0	60	1048575
2026-01-18 01:00:35.85	22.47	10.40	-84.3	-88.8	2.5	3.11e+01	0	47	104	0	60	1048575
2026-01-18 01:00:36.85	22.47	10.49	-84.3	-88.8	2.6	3.11e+01	0	47	104	0	60	1048575
2026-01-18 01:00:37.86	22.46	10.59	-83.9	-88.8	2.6	3.11e+01	0	47	104	0	60	1048575
2026-01-18 01:00:38.87	22.46	10.69	-83.5	-88.8	2.5	3.11e+01	0	47	104	0	60	1048575
2026-01-18 01:00:39.87	22.46	10.78	-83.9	-88.8	2.5	3.11e+01	0	47	104	0	60	1048575
2026-01-18 01:00:40.88	22.46	10.88	-84.3	-88.8	2.6	3.11e+01	0	47	104	0	60	1048575
2026-01-18 01:00:41.89	22.46	10.98	-84.3	-88.8	2.7	3.11e+01	0	47	104	0	60	1048575
2026-01-18 01:00:42.90	22.46	11.08	-84.3	-88.8	2.6	3.11e+01	0	47	104	0	60	1048575
2026-01-18 01:00:43.90	22.45	11.17	-83.9	-88.8	2.5	3.11e+01	0	47	104	0	60	1048575
2026-01-18 01:00:44.91	22.45	11.27	-84.3	-88.8	2.7	3.11e+01	0	47	104	0	60	1048575
2026-01-18 01:00:45.92	22.45	11.37	-84.3	-88.8	2.6	3.11e+01	0	47	104	0	60	1048575
2026-01-18 01:00:46.92	22.45	11.47	-84.3	-88.8	2.5	3.11e+01	0	47	104	0	60	1048575
2026-01-18 01:00:47.93	22.45	11.57	-84.3	-88.8	2.6	3.11e+01	0	47	104	0	60	1048575
2026-01-18 01:00:48.94	22.44	11.67	-83.9	-88.8	2.7	3.11e+01	0	47	104	0	60	1048575
2026-01-18 01:00:49.94	22.44	11.77	-84.3	-88.8	2.7	3.11e+01	0	47	104	0	60	1048575
2026-01-18 01:00:50.95	22.44	11.88	-84.3	-88.8	2.3	3.11e+01	0	47	104	0	60	1048575
2026-01-18 01:00:51.96	22.44	11.98	-84.3	-88.8	2.6	3.11e+01	0	47	104	0	60	1048575
2026-01-18 01:00:52.97	22.43	12.08	-83.9	-88.8	2.6	3.11e+01	0	47	104	0	60	1048575
2026-01-18 01:00:53.97	22.43	12.18	-83.9	-88.8	2.6	3.11e+01	0	47	104	0	60	1048575
2026-01-18 01:00:54.98	22.43	12.29	-84.3	-88.8	2.7	3.11e+01	0	47	104	0	60	1048575
2026-01-18 01:00:55.98	22.43	12.39	-84.3	-88.8	2.4	3.11e+01	0	47	104	0	60	1048575
2026-01-18 01:00:56.99	22.43	12.49	-84.3	-88.8	2.6	3.11e+01	0	47	104	0	60	1048575
2026-01-18 01:00:57.99	22.42	12.60	-83.9	-88.8	2.8	3.11e+01	0	47	104	0	60	1048575
2026-01-18 01:00:59.00	22.42	12.70	-84.3	-88.8	2.7	3.11e+01	0	47	104	0	60	1048575
2026-01-18 01:01:00.01	22.42	12.81	-84.3	-88.8	2.4	3.11e+01	0	47	104	0	60	1048575
2026-01-18 01:01:01.01	22.42	12.92	-84.3	-88.8	2.6	3.11e+01	0	47	104	0	60	1048575
2026-01-18 01:01:02.01	22.41	13.02	-84.3	-88.8	2.6	3.11e+01	0	47	104	0	60	1048575
2026-01-18 01:01:03.02	22.41	13.13	-83.9	-88.8	2.8	3.11e+01	0	47	104	0	60	1048575
2026-01-18 01:01:04.03	22.41	13.24	-84.3	-88.8	2.6	3.11e+01	0	47	104	0	60	1048575
2026-01-18 01:01:05.04	22.40	13.35	-84.3	-88.8	2.6	3.11e+01	0	47	104	0	60	1048575
2026-01-18 01:01:06.04	22.40	13.46	-84.3	-88.8	2.3	3.11e+01	0	47	104	0	60	1048575
2026-01-18 01:01:07.05	22.40	13.57	-83.9	-88.8	2.8	3.11e+01	0	47	104	0	60	1048575
2026-01-18 01:01:08.06	22.40	13.68	-83.9	-88.8	2.7	3.11e+01	0	47	104	0	60	1048575
2026-01-18 01:01:09.06	22.39	13.79	-84.3	-88.8	2.7	3.11e+01	0	47	104	0	60	1048575
2026-01-18 01:01:10.07	22.39	13.90	-84.3	-88.8	2.2	3.11e+01	0	47	104	0	60	1048575
2026-01-18 01:01:11.08	22.39	14.01	-84.3	-88.8	2.7	3.11e+01	0	47	104	0	60	1048575
2026-01-18 01:01:12.09	22.38	14.12	-83.9	-88.8	2.6	3.11e+01	0	47	104	0	60	1048575
2026-01-18 01:01:13.09	22.38	14.24	-83.9	-88.8	2.7	3.11e+01	0	47	104	0	60	1048575
2026-01-18 01:01:14.10	22.38	14.35	-84.3	-88.8	2.6	3.11e+01	0	47	104	0	60	1048575
2026-01-18 01:01:15.10	22.37	14.46	-84.3	-88.8	2.7	3.11e+01	0	47	104	0	60	1048575
2026-01-18 01:01:16.11	22.37	14.58	-84.3	-88.8	2.4	3.11e+01	0	47	104	0	60	1048575
2026-01-18 01:01:17.12	22.37	14.69	-83.9	-88.8	2.6	3.11e+01	0	47	104	0	60	1048575
2026-01-18 01:01:18.12	22.36	14.81	-83.9	-88.8	2.7	3.11e+01	0	47	104	0	60	1048575
2026-01-18 01:01:19.13	22.36	14.93	-84.3	-88.8	2.7	3.11e+01	0	47	104	0	60	1048575
2026-01-18 01:01:20.13	22.35	15.04	-84.3	-88.8	2.5	3.11e+01	0	47	104	0	60	1048575
2026-01-18 01:01:21.14	22.35	15.16	-84.3	-88.8	2.5	3.11e+01	0	47	104	0	60	1048575
2026-01-18 01:01:22.15	22.35	15.28	-83.9	-88.8	2.8	3.11e+01	0	47	104	0	60	1048575
2026-01-18 01:01:23.16	22.34	15.40	-83.9	-88.8	2.6	3.11e+01	0	47	104	0	60	1048575
2026-01-18 01:01:24.17	22.34	15.52	-84.3	-88.8	2.6	3.11e+01	0	47	104	0	60	1048575
2026-01-18 01:01:25.17	22.33	15.64	-84.3	-88.8	2.3	3.11e+01	0	47	104	0	60	1048575
2026-01-18 01:01:26.18	22.33	15.76	-83.9	-88.8	2.6	3.11e+01	0	47	104	0	60	1048575
2026-01-18 01:01:27.19	22.33	15.88	-84.3	-88.8	2.6	3.11e+01	0	47	104	0	60	1048575
2026-01-18 01:01:28.20	22.32	16.01	-84.3	-88.8	2.7	3.11e+01	0	47	104	0	60	1048575
2026-01-18 01:01:29.20	22.32	16.13	-83.9	-88.8	2.7	3.11e+01	0	47	104	0	60	1048575
2026-01-18 01:01:30.20	22.31	16.25	-84.3	-88.8	2.6	3.11e+01	0	47	104	0	60	1048575
2026-01-18 01:01:31.21	22.31	16.38	-83.9	-88.8	2.7	3.11e+01	0	47	104	0	60	1048575
2026-01-18 01:01:32.22	22.30	16.50	-83.9	-88.8	2.6	3.11e+01	0	47	104	0	60	1048575
2026-01-18 01:01:33.23	22.30	16.63	-84.3	-88.8	2.5	3.11e+01	0	47	104	0	60	1048575
2026-01-18 01:01:34.23	22.29	16.75	-84.3	-88.8	2.7	3.11e+01	0	47	104	0	60	1048575
2026-01-18 01:01:35.24	22.29	16.88	-84.3	-88.8	2.6	3.11e+01	0	47	104	0	60	1048575
2026-01-18 01:01:36.25	22.28	17.01	-83.9	-88.8	2.4	3.11e+01	0	47	104	0	60	1048575
2026-01-18 01:01:37.25	22.28	17.14	-84.3	-88.8	2.6	3.11e+01	0	47	104	0	60	1048575
2026-01-18 01:01:38.26	22.27	17.27	-84.3	-88.8	2.7	3.11e+01	0	47	104	0	60	1048575
2026-01-18 01:01:39.27	22.27	17.40	-84.3	-88.8	2.6	3.11e+01	0	47	104	0	60	1048575
2026-01-18 01:01:40.28	22.26	17.53	-84.3	-88.8	2.6	3.11e+01	0	47	104	0	60	1048575
2026-01-18 01:01:41.29	22.26	17.66	-83.9	-88.8	2.7	3.11e+01	0	47	104	0	60	1048575
2026-01-18 01:01:42.29	22.25	17.79	-84.3	-88.8	2.8	3.11e+01	0	47	104	0	60	1048575
2026-01-18 01:01:43.30	22.25	17.93	-84.3	-88.8	2.5	3.11e+01	0	47	104	0	60	1048575
2026-01-18 01:01:44.31	22.24	18.06	-84.3	-88.8	2.6	3.11e+01	0	47	104	0	60	1048575
2026-01-18 01:01:45.31	22.23	18.20	-83.9	-88.8	2.4	3.11e+01	0	47	104	0	60	1048575
2026-01-18 01:01:46.32	22.23	18.33	-83.9	-88.8	2.6	3.11e+01	0	47	104	0	60	1048575
2026-01-18 01:01:47.32	22.22	18.47	-84.3	-88.8	2.6	3.11e+01	0	47	104	0	60	1048575
2026-01-18 01:01:48.32	22.22	18.61	-84.3	-88.8	2.4	3.11e+01	0	47	104	0	60	1048575
2026-01-18 01:01:49.31	22.21	18.74	-84.3	-88.8	2.6	3.11e+01	0	47	104	0	60	1048575
2026-01-18 01:01:50.32	22.20	18.88	-83.9	-88.8	2.8	3.11e+01	0	47	104	0	60	1048575
2026-01-18 01:01:51.32	22.20	19.02	-84.3	-88.8	2.6	3.11e+01	0	47	104	0	60	1048575
2026-01-18 01:01:52.33	22.19	19.16	-84.3	-88.8	2.8	3.11e+01	0	47	104	0	60	1048575
2026-01-18 01:01:53.34	22.19	19.31	-84.3	-88.8	2.7	3.11e+01	0	47	104	0	60	1048575
2026-01-18 01:01:54.34	22.18	19.45	-83.9	-88.8	2.7	3.11e+01	0	47	104	0	60	1048575
2026-01-18 01:01:55.35	22.17	19.59	-83.9	-88.8	2.6	3.11e+01	0	47	104	0	60	1048575
2026-01-18 01:01:56.36	22.16	19.74	-83.9	-88.8	2.4	3.11e+01	0	47	104	0	60	1048575
2026-01-18 01:01:57.37	22.16	19.88	-84.3	-88.8	2.5	3.11e+01	0	47	104	0	60	1048575
2026-01-18 01:01:58.37	22.15	20.03	-84.3	-88.8	2.5	3.11e+01	0	47	104	0	60	1048575
2026-01-18 01:01:59.37	22.14	20.17	-84.3	-88.8	2.6	3.11e+01	0	47	104	0	60	1048575
2026-01-18 01:02:00.38	22.14	20.32	-83.9	-88.8	2.6	3.11e+01	0	47	104	0	60	1048575
2026-01-18 01:02:01.38	22.13	20.47	-84.3	-88.8	2.7	3.11e+01	0	47	104	0	60	1048575
2026-01-18 01:02:02.39	22.12	20.62	-84.3	-88.8	2.6	3.11e+01	0	47	104	0	60	1048575
2026-01-18 01:02:03.39	22.11	20.77	-84.3	-88.8	2.6	3.11e+01	0	47	104	0	60	1048575
2026-01-18 01:02:04.40	22.11	20.93	-83.9	-88.8	2.5	3.11e+01	0	47	104	0	60	1048575
2026-01-18 01:02:05.41	22.10	21.08	-83.9	-88.8	2.8	3.11e+01	0	47	104	0	60	1048575
2026-01-18 01:02:06.42	22.09	21.23	-84.3	-88.8	2.5	3.11e+01	0	47	104	0	60	1048575
2026-01-18 01:02:07.42	22.08	21.39	-84.3	-88.8	2.5	3.11e+01	0	47	104	0	60	1048575
2026-01-18 01:02:08.43	22.07	21.55	-84.3	-88.8	2.4	3.11e+01	0	47	104	0	60	1048575
2026-01-18 01:02:09.43	22.06	21.70	-83.9	-88.8	2.8	3.11e+01	0	47	104	0	60	1048575
2026-01-18 01:02:10.44	22.06	21.86	-84.3	-88.8	2.6	3.11e+01	0	47	104	0	60	1048575
2026-01-18 01:02:11.45	22.05	22.02	-84.3	-88.8	2.4	3.11e+01	0	47	104	0	60	1048575
2026-01-18 01:02:12.46	22.04	22.18	-83.9	-88.8	2.5	3.11e+01	0	47	104	0	60	1048575
2026-01-18 01:02:13.46	22.03	22.34	-83.9	-88.8	2.7	3.11e+01	0	47	104	0	60	1048575
2026-01-18 01:02:14.47	22.02	22.51	-83.9	-88.8	2.6	3.11e+01	0	47	104	0	60	1048575
2026-01-18 01:02:15.47	22.01	22.67	-84.3	-88.8	2.8	3.11e+01	0	47	104	0	60	1048575
2026-01-18 01:02:16.47	22.00	22.84	-84.3	-88.8	2.5	3.11e+01	0	47	104	0	60	1048575
2026-01-18 01:02:17.48	21.99	23.00	-84.3	-88.8	2.7	3.11e+01	0	47	104	0	60	1048575
2026-01-18 01:02:18.49	21.98	23.17	-83.9	-88.8	2.4	3.11e+01	0	47	104	0	60	1048575
2026-01-18 01:02:19.50	21.97	23.34	-83.9	-88.8	2.3	3.11e+01	0	47	104	0	60	1048575
2026-01-18 01:02:20.50	21.96	23.51	-84.3	-88.8	2.5	3.11e+01	0	47	104	0	60	1048575
2026-01-18 01:02:21.51	21.95	23.68	-84.3	-88.8	2.7	3.11e+01	0	47	104	0	60	1048575
2026-01-18 01:02:22.51	21.94	23.85	-84.3	-88.8	2.5	3.11e+01	0	47	104	0	60	1048575
2026-01-18 01:02:23.52	21.93	24.03	-83.9	-88.8	2.7	3.11e+01	0	47	104	0	60	1048575
2026-01-18 01:02:24.53	21.92	24.20	-83.9	-88.8	2.6	3.11e+01	0	47	104	0	60	1048575
2026-01-18 01:02:25.54	21.91	24.38	-84.3	-88.8	2.6	3.11e+01	0	47	104	0	60	1048575
2026-01-18 01:02:26.54	21.90	24.56	-84.3	-88.8	2.6	3.11e+01	0	47	104	0	60	1048575
2026-01-18 01:02:27.55	21.89	24.74	-83.9	-88.8	2.5	3.11e+01	0	47	104	0	60	1048575
2026-01-18 01:02:28.56	21.88	24.92	-83.9	-88.8	2.4	3.11e+01	0	47	104	0	60	1048575
2026-01-18 01:02:29.57	21.86	25.10	-84.3	-88.8	2.4	3.11e+01	0	47	104	0	60	1048575
2026-01-18 01:02:30.57	21.85	25.28	-84.3	-88.8	2.5	3.11e+01	0	47	104	0	60	1048575
2026-01-18 01:02:31.58	21.84	25.47	-84.3	-88.8	2.5	3.11e+01	0	47	104	0	60	1048575
2026-01-18 01:02:32.59	21.83	25.65	-84.3	-88.8	2.6	3.11e+01	0	47	104	0	60	1048575
2026-01-18 01:02:33.59	21.81	25.84	-83.9	-88.8	2.3	3.11e+01	0	47	104	0	60	1048575
2026-01-18 01:02:34.59	21.80	26.03	-84.3	-88.8	2.5	3.11e+01	0	47	104	0	60	1048575
2026-01-18 01:02:35.60	21.79	26.22	-84.3	-88.8	2.5	3.11e+01	0	47	104	0	60	1048575
2026-01-18 01:02:36.61	21.78	26.41	-84.3	-88.8	2.5	3.11e+01	0	47	104	0	60	1048575
2026-01-18 01:02:37.61	21.76	26.60	-83.9	-88.8	2.5	3.11e+01	0	47	104	0	60	1048575
2026-01-18 01:02:38.62	21.75	26.80	-84.3	-88.8	2.6	3.11e+01	0	47	104	0	60	1048575
2026-01-18 01:02:39.63	21.74	26.99	-84.3	-88.8	2.6	3.11e+01	0	47	104	0	60	1048575
2026-01-18 01:02:40.64	21.72	27.19	-84.3	-88.8	2.6	3.11e+01	0	47	104	0	60	1048575
2026-01-18 01:02:41.64	21.71	27.39	-83.9	-88.8	2.6	3.11e+01	0	47	104	0	60	1048575
2026-01-18 01:02:42.65	21.69	27.59	-83.9	-88.8	2.6	3.11e+01	0	47	104	0	60	1048575
2026-01-18 01:02:43.66	21.68	27.79	-83.9	-88.8	2.6	3.11e+01	0	47	104	0	60	1048575
2026-01-18 01:02:44.67	21.66	28.00	-84.3	-88.8	2.4	3.11e+01	0	47	104	0	60	1048575
2026-01-18 01:02:45.68	21.65	28.20	-84.3	-88.8	2.5	3.11e+01	0	47	104	0	60	1048575
2026-01-18 01:02:46.68	21.63	28.41	-84.3	-88.8	2.6	3.11e+01	0	47	104	0	60	1048575
2026-01-18 01:02:47.69	21.62	28.62	-83.9	-88.8	2.6	3.11e+01	0	47	104	0	60	1048575
2026-01-18 01:02:48.70	21.60	28.83	-83.9	-88.8	2.5	3.11e+01	0	47	104	0	60	1048575
2026-01-18 01:02:49.70	21.58	29.04	-83.9	-88.8	2.7	3.11e+01	0	47	104	0	60	1048575
2026-01-18 01:02:50.71	21.57	29.26	-84.3	-88.8	2.7	3.11e+01	0	47	104	0	60	1048575
2026-01-18 01:02:51.72	21.55	29.47	-83.9	-88.8	2.6	3.11e+01	0	47	104	0	60	1048575
2026-01-18 01:02:52.72	21.53	29.69	-83.9	-88.8	2.4	3.11e+01	0	47	104	0	60	1048575
2026-01-18 01:02:53.73	21.52	29.91	-84.3	-88.8	2.5	3.11e+01	0	47	104	0	60	1048575
2026-01-18 01:02:54.74	21.50	30.13	-84.3	-88.8	2.5	3.11e+01	0	47	104	0	60	1048575
2026-01-18 01:02:55.74	21.48	30.35	-84.3	-88.8	2.5	3.11e+01	0	47	104	0	60	1048575
2026-01-18 01:02:56.74	21.46	30.58	-83.9	-88.8	2.5	3.11e+01	0	47	104	0	60	1048575
2026-01-18 01:02:57.75	21.44	30.80	-84.3	-88.8	2.3	3.11e+01	0	47	104	0	60	1048575
2026-01-18 01:02:58.75	21.43	31.03	-84.3	-88.8	2.4	3.11e+01	0	47	104	0	60	1048575
2026-01-18 01:02:59.75	21.41	31.26	-83.9	-88.8	2.7	3.11e+01	0	47	104	0	60	1048575
2026-01-18 01:03:00.76	21.39	31.49	-84.3	-88.8	2.6	3.11e+01	0	47	104	0	60	1048575
2026-01-18 01:03:01.76	21.37	31.73	-83.9	-88.8	2.4	3.11e+01	0	47	104	0	60	1048575
2026-01-18 01:03:02.77	21.35	31.96	-83.9	-88.8	2.6	3.11e+01	0	47	104	0	60	1048575
2026-01-18 01:03:03.78	21.33	32.20	-84.3	-88.8	2.4	3.11e+01	0	47	104	0	60	1048575
2026-01-18 01:03:04.78	21.30	32.44	-84.3	-88.8	2.7	3.11e+01	0	47	104	0	60	1048575
2026-01-18 01:03:05.78	21.28	32.68	-83.9	-88.8	2.1	3.11e+01	0	47	104	0	60	1048575
2026-01-18 01:03:06.79	21.26	32.93	-83.9	-88.8	2.5	3.11e+01	0	47	104	0	60	1048575
2026-01-18 01:03:07.79	21.24	33.17	-84.3	-88.8	2.5	3.11e+01	0	47	104	0	60	1048575
2026-01-18 01:03:08.79	21.22	33.42	-84.3	-88.8	2.5	3.11e+01	0	47	104	0	60	1048575
2026-01-18 01:03:09.80	21.19	33.67	-84.3	-88.8	2.3	3.11e+01	0	47	104	0	60	1048575
2026-01-18 01:03:10.81	21.17	33.93	-83.9	-88.8	2.3	3.11e+01	0	47	104	0	60	1048575
2026-01-18 01:03:11.81	21.15	34.18	-84.3	-88.8	2.4	3.11e+01	0	47	104	0	60	1048575
2026-01-18 01:03:12.82	21.12	34.44	-84.3	-88.8	2.7	3.11e+01	0	47	104	0	60	1048575
2026-01-18 01:03:13.83	21.10	34.70	-84.3	-88.8	2.2	3.11e+01	0	47	104	0	60	1048575
2026-01-18 01:03:14.84	21.07	34.96	-84.3	-88.8	2.7	3.11e+01	0	47	104	0	60	1048575
2026-01-18 01:03:15.85	21.04	35.23	-83.9	-88.8	2.6	3.11e+01	0	47	104	0	60	1048575
2026-01-18 01:03:16.85	21.02	35.50	-84.3	-88.8	2.6	3.11e+01	0	47	104	0	60	1048575
2026-01-18 01:03:17.86	20.99	35.77	-84.3	-88.8	2.6	3.11e+01	0	47	104	0	60	1048575
2026-01-18 01:03:18.87	20.96	36.04	-84.3	-88.8	2.6	3.11e+01	0	47	104	0	60	1048575
2026-01-18 01:03:19.88	20.93	36.32	-84.3	-88.8	2.6	3.11e+01	0	47	104	0	60	1048575
2026-01-18 01:03:20.89	20.91	36.59	-83.9	-88.8	2.6	3.11e+01	0	47	104	0	60	1048575
2026-01-18 01:03:21.89	20.88	36.87	-84.3	-88.8	2.5	3.11e+01	0	47	104	0	60	1048575
2026-01-18 01:03:22.90	20.85	37.15	-84.3	-88.8	2.7	3.11e+01	0	47	104	0	60	1048575
2026-01-18 01:03:23.90	20.82	37.44	-84.3	-88.8	2.6	3.11e+01	0	47	104	0	60	1048575
2026-01-18 01:03:24.90	20.79	37.72	-83.9	-88.8	2.6	3.11e+01	0	47	104	0	60	1048575
2026-01-18 01:03:25.91	20.75	38.01	-83.9	-88.8	2.6	3.11e+01	0	47	104	0	60	1048575
2026-01-18 01:03:26.92	20.72	38.31	-84.3	-88.8	2.8	3.11e+01	0	47	104	0	60	1048575
2026-01-18 01:03:27.92	20.69	38.60	-84.3	-88.8	2.5	3.11e+01	0	47	104	0	60	1048575
2026-01-18 01:03:28.92	20.66	38.90	-84.3	-88.8	2.4	3.11e+01	0	47	104	0	60	1048575
2026-01-18 01:03:29.93	20.62	39.20	-83.9	-88.8	2.6	3.11e+01	0	47	104	0	60	1048575
2026-01-18 01:03:30.94	20.59	39.50	-83.9	-88.8	2.4	3.11e+01	0	47	104	0	60	1048575
2026-01-18 01:03:31.94	20.55	39.81	-84.3	-88.8	2.6	3.11e+01	0	47	104	0	60	1048575
2026-01-18 01:03:32.95	20.51	40.12	-84.3	-88.8	2.6	3.11e+01	0	47	104	0	60	1048575
2026-01-18 01:03:33.95	20.48	40.43	-84.3	-88.8	2.6	3.11e+01	0	47	104	0	60	1048575
2026-01-18 01:03:34.96	20.44	40.74	-83.9	-88.8	2.4	3.11e+01	0	47	104	0	60	1048575
2026-01-18 01:03:35.97	20.40	41.06	-84.3	-88.8	2.5	3.11e+01	0	47	104	0	60	1048575
2026-01-18 01:03:36.97	20.36	41.38	-84.3	-88.8	2.5	3.11e+01	0	47	104	0	60	1048575
2026-01-18 01:03:37.98	20.32	41.71	-84.3	-88.8	2.6	3.11e+01	0	47	104	0	60	1048575
2026-01-18 01:03:38.99	20.28	42.03	-84.3	-88.8	2.6	3.11e+01	0	47	104	0	60	1048575
2026-01-18 01:03:39.99	20.23	42.36	-83.9	-88.8	2.4	3.11e+01	0	47	104	0	60	1048575
2026-01-18 01:03:41.00	20.19	42.70	-84.3	-88.8	2.5	3.11e+01	0	47	104	0	60	1048575
2026-01-18 01:03:42.00	20.14	43.03	-84.3	-88.8	2.7	3.11e+01	0	47	104	0	60	1048575
2026-01-18 01:03:43.01	20.10	43.37	-84.3	-88.8	2.5	3.11e+01	0	47	104	0	60	1048575
2026-01-18 01:03:44.01	20.05	43.71	-83.9	-88.8	2.5	3.11e+01	0	47	104	0	60	1048575
2026-01-18 01:03:45.02	20.00	44.06	-83.9	-88.8	2.5	3.11e+01	0	47	104	0	60	1048575
2026-01-18 01:03:46.03	19.95	44.41	-84.3	-88.8	2.4	3.11e+01	0	47	104	0	60	1048575
2026-01-18 01:03:47.03	19.90	44.76	-84.3	-88.8	2.5	3.11e+01	0	47	104	0	60	1048575
2026-01-18 01:03:48.04	19.85	45.11	-84.3	-88.8	2.8	3.11e+01	0	47	104	0	60	1048575
2026-01-18 01:03:49.04	19.80	45.47	-83.9	-88.8	2.6	3.11e+01	0	47	104	0	60	1048575
2026-01-18 01:03:50.05	19.75	45.83	-83.9	-88.8	2.4	3.11e+01	0	47	104	0	60	1048575
2026-01-18 01:03:51.06	19.69	46.20	-84.3	-88.8	2.5	3.11e+01	0	47	104	0	60	1048575
2026-01-18 01:03:52.07	19.63	46.57	-84.3	-88.8	2.7	3.11e+01	0	47	104	0	60	1048575
2026-01-18 01:03:53.08	19.57	46.95	-84.3	-88.8	2.7	3.11e+01	0	47	104	0	60	1048575
2026-01-18 01:03:54.08	19.51	47.32	-83.9	-88.8	2.4	3.11e+01	0	47	104	0	60	1048575
2026-01-18 01:03:55.09	19.45	47.70	-84.3	-88.8	2.7	3.11e+01	0	47	104	0	60	1048575
2026-01-18 01:03:56.10	19.39	48.08	-84.3	-88.8	2.7	3.11e+01	0	47	104	0	60	1048575
2026-01-18 01:03:57.10	19.32	48.47	-84.3	-88.8	2.6	3.11e+01	0	47	104	0	60	1048575
2026-01-18 01:03:58.11	19.26	48.86	-84.3	-88.8	2.5	3.11e+01	0	47	104	0	60	1048575
2026-01-18 01:03:59.11	19.19	49.25	-83.9	-88.8	2.4	3.11e+01	0	47	104	0	60	1048575
2026-01-18 01:04:00.12	19.12	49.65	-84.3	-88.8	2.9	3.11e+01	0	47	104	0	60	1048575
2026-01-18 01:04:01.13	19.04	50.05	-84.3	-88.8	2.8	3.11e+01	0	47	104	0	60	1048575
2026-01-18 01:04:02.13	18.97	50.45	-84.3	-88.8	2.7	3.11e+01	0	47	104	0	60	1048575
2026-01-18 01:04:03.14	18.89	50.86	-83.9	-88.8	2.6	3.11e+01	0	47	104	0	60	1048575
2026-01-18 01:04:04.15	18.81	51.28	-83.9	-88.8	2.5	3.11e+01	0	47	104	0	60	1048575
2026-01-18 01:04:05.15	18.73	51.69	-84.3	-88.8	2.6	3.11e+01	0	47	104	0	60	1048575
2026-01-18 01:04:06.16	18.65	52.11	-84.3	-88.8	2.8	3.11e+01	0	47	104	0	60	1048575
2026-01-18 01:04:07.17	18.56	52.54	-84.3	-88.8	2.5	3.11e+01	0	47	104	0	60	1048575
2026-01-18 01:04:08.17	18.47	52.96	-83.9	-88.8	2.6	3.11e+01	0	47	104	0	60	1048575
2026-01-18 01:04:09.18	18.38	53.39	-83.9	-88.8	2.5	3.11e+01	0	47	104	0	60	1048575
2026-01-18 01:04:10.19	18.29	53.83	-84.3	-88.8	2.7	3.11e+01	0	47	104	0	60	1048575
2026-01-18 01:04:11.19	18.19	54.26	-84.3	-88.8	2.6	3.11e+01	0	47	104	0	60	1048575
2026-01-18 01:04:12.20	18.09	54.71	-84.3	-88.8	2.6	3.11e+01	0	47	104	0	60	1048575
2026-01-18 01:04:13.20	17.98	55.15	-83.9	-88.8	2.3	3.11e+01	0	47	104	0	60	1048575
2026-01-18 01:04:14.21	17.87	55.60	-84.3	-88.8	2.6	3.11e+01	0	47	104	0	60	1048575
2026-01-18 01:04:15.21	17.76	56.05	-84.3	-88.8	2.8	3.11e+01	0	47	104	0	60	1048575
2026-01-18 01:04:16.22	17.65	56.51	-84.3	-88.8	2.6	3.11e+01	0	47	104	0	60	1048575
2026-01-18 01:04:17.23	17.53	56.97	-84.3	-88.8	2.7	3.11e+01	0	47	104	0	60	1048575
2026-01-18 01:04:18.23	17.40	57.44	-83.9	-88.8	2.4	3.11e+01	0	47	104	0	60	1048575
2026-01-18 01:04:19.24	17.28	57.91	-84.3	-88.8	2.6	3.11e+01	0	47	104	0	60	1048575
2026-01-18 01:04:20.25	17.14	58.38	-84.3	-88.8	2.8	3.11e+01	0	47	104	0	60	1048575
2026-01-18 01:04:21.25	17.00	58.86	-84.3	-88.8	2.5	3.11e+01	0	47	104	0	60	1048575
2026-01-18 01:04:22.26	16.86	59.34	-83.9	-88.8	2.4	3.11e+01	0	47	104	0	60	1048575
2026-01-18 01:04:23.27	16.71	59.82	-83.9	-88.8	2.5	3.11e+01	0	47	104	0	60	1048575
2026-01-18 01:04:24.28	16.56	60.31	-84.3	-88.8	2.7	3.11e+01	0	47	104	0	60	1048575
2026-01-18 01:04:25.28	16.40	60.80	-84.3	-88.8	2.7	3.11e+01	0	47	104	0	60	1048575
2026-01-18 01:04:26.29	16.23	61.30	-84.3	-88.8	2.4	3.11e+01	0	47	104	0	60	1048575
2026-01-18 01:04:27.30	16.05	61.80	-83.9	-88.8	2.7	3.11e+01	0	47	104	0	60	1048575
2026-01-18 01:04:28.31	15.87	62.30	-83.9	-88.8	2.9	3.11e+01	0	47	104	0	60	1048575
2026-01-18 01:04:29.31	15.68	62.81	-84.3	-88.8	2.7	3.11e+01	0	47	104	0	60	1048575
2026-01-18 01:04:30.32	15.48	63.32	-84.3	-88.8	2.6	3.11e+01	0	47	104	0	60	1048575
2026-01-18 01:04:31.32	15.27	63.83	-84.3	-88.8	2.5	3.11e+01	0	47	104	0	60	1048575
2026-01-18 01:04:32.32	15.06	64.34	-83.9	-88.8	2.4	3.11e+01	0	47	104	0	60	1048575
2026-01-18 01:04:33.33	14.83	64.86	-84.3	-88.8	2.5	3.11e+01	0	47	104	0	60	1048575
2026-01-18 01:04:34.33	14.59	65.38	-84.3	-88.8	2.6	3.11e+01	0	47	104	0	60	1048575
2026-01-18 01:04:35.34	14.34	65.91	-84.3	-88.8	2.4	3.11e+01	0	47	104	0	60	1048575
2026-01-18 01:04:36.35	14.08	66.44	-83.9	-88.8	2.3	3.11e+01	0	47	104	0	60	1048575
2026-01-18 01:04:37.36	13.80	66.98	-83.9	-88.8	2.5	3.11e+01	0	47	104	0	60	1048575
2026-01-18 01:04:38.36	13.51	67.51	-84.3	-88.8	2.7	3.11e+01	0	47	104	0	60	1048575
2026-01-18 01:04:39.37	13.20	68.05	-84.3	-88.8	2.7	3.11e+01	0	47	104	0	60	1048575
2026-01-18 01:04:40.38	12.88	68.60	-84.3	-88.8	2.7	3.11e+01	0	47	104	0	60	1048575
2026-01-18 01:04:41.39	12.54	69.14	-83.9	-88.8	2.6	3.11e+01	0	47	104	0	60	1048575
2026-01-18 01:04:42.39	12.18	69.69	-83.9	-88.8	2.7	3.11e+01	0	47	104	0	60	1048575
2026-01-18 01:04:43.40	11.79	70.24	-84.3	-88.8	2.5	3.11e+01	0	47	104	0	60	1048575
2026-01-18 01:04:44.41	11.38	70.79	-84.3	-88.8	2.5	3.11e+01	0	47	104	0	60	1048575
2026-01-18 01:04:45.42	10.94	71.35	-84.3	-88.8	2.5	3.11e+01	0	47	104	0	60	1048575
2026-01-18 01:04:46.43	10.48	71.90	-83.9	-88.8	2.7	3.11e+01	0	47	104	0	60	1048575
2026-01-18 01:04:47.43	9.99	72.46	-84.3	-88.8	2.7	3.11e+01	0	47	104	0	60	1048575
2026-01-18 01:04:48.43	9.46	73.01	-84.3	-88.8	2.5	3.11e+01	0	47	104	0	60	1048575
2026-01-18 01:04:49.44	8.89	73.58	-84.3	-88.8	2.6	3.11e+01	0	47	104	0	60	1048575
2026-01-18 01:04:50.45	8.28	74.14	-84.3	-88.8	2.5	3.11e+01	0	47	104	0	60	1048575
2026-01-18 01:04:51.46	7.62	74.71	-83.9	-88.8	2.5	3.11e+01	0	47	104	0	60	1048575
2026-01-18 01:04:52.47	6.90	75.27	-84.3	-88.8	2.5	3.11e+01	0	47	104	0	60	1048575
2026-01-18 01:04:53.47	6.14	75.83	-84.3	-88.8	2.5	3.11e+01	0	47	104	0	60	1048575
2026-01-18 01:04:54.48	5.30	76.40	-84.3	-88.8	2.4	3.11e+01	0	47	104	0	60	1048575
2026-01-18 01:04:55.49	4.38	76.96	-83.9	-88.8	2.6	3.11e+01	0	47	104	0	60	1048575
2026-01-18 01:04:56.50	3.38	77.52	-83.9	-88.8	2.3	3.11e+01	0	47	104	0	60	1048575
2026-01-18 01:04:57.51	2.28	78.08	-84.3	-88.8	2.6	3.11e+01	0	47	104	0	60	1048575
2026-01-18 01:04:58.52	1.08	78.64	-84.3	-88.8	2.5	3.11e+01	0	47	104	0	60	1048575
2026-01-18 01:04:59.52	359.75	79.19	-84.3	-88.8	2.7	3.11e+01	0	47	104	0	60	1048575
2026-01-18 01:05:00.53	358.27	79.74	-83.9	-88.8	2.4	3.11e+01	0	47	104	0	60	1048575
2026-01-18 01:05:01.54	356.61	80.28	-84.3	-88.8	2.6	3.11e+01	0	47	104	0	60	1048575
2026-01-18 01:05:02.55	354.76	80.82	-84.3	-88.8	2.5	3.11e+01	0	47	104	0	60	1048575
2026-01-18 01:05:03.56	352.68	81.35	-84.3	-88.8	2.5	3.11e+01	0	47	104	0	60	1048575
2026-01-18 01:05:04.56	350.35	81.86	-83.9	-88.8	2.7	3.11e+01	0	47	104	0	60	1048575
2026-01-18 01:05:05.57	347.68	82.36	-83.9	-88.8	2.5	3.11e+01	0	47	104	0	60	1048575
2026-01-18 01:05:06.58	344.64	82.84	-84.3	-88.8	2.6	3.11e+01	0	47	104	0	60	1048575
2026-01-18 01:05:07.59	341.16	83.30	-84.3	-88.8	2.6	3.11e+01	0	47	104	0	60	1048575
2026-01-18 01:05:08.59	337.22	83.73	-84.3	-88.8	2.6	3.11e+01	0	47	104	0	60	1048575
2026-01-18 01:05:09.60	332.68	84.13	-84.3	-88.8	2.7	3.11e+01	0	47	104	0	60	1048575
2026-01-18 01:05:10.61	327.50	84.49	-83.9	-88.8	2.6	3.11e+01	0	47	104	0	60	1048575
2026-01-18 01:05:11.62	321.65	84.80	-84.3	-88.8	2.4	3.11e+01	0	47	104	0	60	1048575
2026-01-18 01:05:12.63	315.14	85.05	-84.3	-88.8	2.5	3.11e+01	0	47	104	0	60	1048575
2026-01-18 01:05:13.64	308.04	85.23	-84.3	-88.8	2.5	3.11e+01	0	47	104	0	60	1048575
2026-01-18 01:05:14.65	300.51	85.33	-83.9	-88.8	2.4	3.11e+01	0	47	104	0	60	1048575
2026-01-18 01:05:15.65	292.87	85.34	-83.9	-88.8	2.4	3.11e+01	0	47	104	0	60	1048575
2026-01-18 01:05:16.66	285.23	85.28	-84.3	-88.8	2.6	3.11e+01	0	47	104	0	60	1048575
2026-01-18 01:05:17.67	277.93	85.13	-84.3	-88.8	2.6	3.11e+01	0	47	104	0	60	1048575
2026-01-18 01:05:18.68	271.16	84.91	-84.3	-88.8	2.4	3.11e+01	0	47	104	0	60	1048575
2026-01-18 01:05:19.69	265.02	84.63	-83.9	-88.8	2.3	3.11e+01	0	47	104	0	60	1048575
2026-01-18 01:05:20.69	259.62	84.29	-84.3	-88.8	2.4	3.11e+01	0	47	104	0	60	1048575
2026-01-18 01:05:21.69	254.85	83.91	-83.9	-88.8	2.5	3.11e+01	0	47	104	0	60	1048575
2026-01-18 01:05:22.70	250.63	83.49	-84.3	-88.8	2.5	3.11e+01	0	47	104	0	60	1048575
2026-01-18 01:05:23.71	246.95	83.04	-84.3	-88.8	2.7	3.11e+01	0	47	104	0	60	1048575
2026-01-18 01:05:24.71	243.76	82.57	-83.9	-88.8	2.4	3.11e+01	0	47	104	0	60	1048575
2026-01-18 01:05:25.72	240.93	82.08	-84.3	-88.8	2.7	3.11e+01	0	47	104	0	60	1048575
2026-01-18 01:05:26.72	238.47	81.57	-84.3	-88.8	2.4	3.11e+01	0	47	104	0	60	1048575
2026-01-18 01:05:27.73	236.27	81.05	-84.3	-88.8	2.3	3.11e+01	0	47	104	0	60	1048575
2026-01-18 01:05:28.73	234.34	80.52	-84.3	-88.8	2.7	3.11e+01	0	47	104	0	60	1048575
2026-01-18 01:05:29.73	232.61	79.99	-83.9	-88.8	2.5	3.11e+01	0	47	104	0	60	1048575
2026-01-18 01:05:30.74	231.06	79.44	-84.3	-88.8	2.6	3.11e+01	0	47	104	0	60	1048575
2026-01-18 01:05:31.75	229.65	78.89	-84.3	-88.8	2.6	3.11e+01	0	47	104	0	60	1048575
2026-01-18 01:05:32.75	228.40	78.34	-84.3	-88.8	2.6	3.11e+01	0	47	104	0	60	1048575
2026-01-18 01:05:33.76	227.25	77.78	-83.9	-88.8	2.6	3.11e+01	0	47	104	0	60	1048575
2026-01-18 01:05:34.77	226.21	77.21	-84.3	-88.8	2.5	3.11e+01	0	47	104	0	60	1048575
2026-01-18 01:05:35.77	225.27	76.65	-84.3	-88.8	2.6	3.11e+01	0	47	104	0	60	1048575
2026-01-18 01:05:36.77	224.40	76.09	-84.3	-88.8	2.4	3.11e+01	0	47	104	0	60	1048575
2026-01-18 01:05:37.78	223.60	75.53	-84.3	-88.8	2.6	3.11e+01	0	47	104	0	60	1048575
2026-01-18 01:05:38.78	222.86	74.97	-83.9	-88.8	2.6	3.11e+01	0	47	104	0	60	1048575
2026-01-18 01:05:39.79	222.18	74.40	-84.3	-88.8	2.7	3.11e+01	0	47	104	0	60	1048575
2026-01-18 01:05:40.80	221.54	73.84	-84.3	-88.8	2.7	3.11e+01	0	47	104	0	60	1048575
2026-01-18 01:05:41.80	220.96	73.28	-84.3	-88.8	2.6	3.11e+01	0	47	104	0	60	1048575
2026-01-18 01:05:42.81	220.41	72.72	-84.3	-88.8	2.6	3.11e+01	0	47	104	0	60	1048575
2026-01-18 01:05:43.82	219.90	72.16	-83.9	-88.8	2.7	3.11e+01	0	47	104	0	60	1048575
2026-01-18 01:05:44.83	219.42	71.60	-84.3	-88.8	2.5	3.11e+01	0	47	104	0	60	1048575
2026-01-18 01:05:45.84	218.97	71.04	-84.3	-88.8	2.7	3.11e+01	0	47	104	0	60	1048575
2026-01-18 01:05:46.84	218.55	70.49	-84.3	-88.8	2.5	3.11e+01	0	47	104	0	60	1048575
2026-01-18 01:05:47.84	218.15	69.94	-83.9	-88.8	2.6	3.11e+01	0	47	104	0	60	1048575
2026-01-18 01:05:48.85	217.78	69.39	-83.9	-88.8	2.4	3.11e+01	0	47	104	0	60	1048575
2026-01-18 01:05:49.85	217.43	68.85	-83.9	-88.8	2.4	3.11e+01	0	47	104	0	60	1048575
2026-01-18 01:05:50.85	217.10	68.31	-84.3	-88.8	2.4	3.11e+01	0	47	104	0	60	1048575
2026-01-18 01:05:51.86	216.78	67.76	-84.3	-88.8	2.5	3.11e+01	0	47	104	0	60	1048575
2026-01-18 01:05:52.87	216.48	67.22	-83.9	-88.8	2.7	3.11e+01	0	47	104	0	60	1048574
2026-01-18 01:05:53.87	216.20	66.69	-83.9	-88.8	2.5	3.11e+01	0	47	104	0	60	1048574
2026-01-18 01:05:54.88	215.93	66.16	-84.3	-88.8	2.4	3.11e+01	0	47	104	0	60	1048574
2026-01-18 01:05:55.88	215.68	65.63	-84.3	-88.8	2.5	3.11e+01	0	47	104	0	60	1048574
2026-01-18 01:05:56.89	215.43	65.10	-84.3	-88.8	2.5	3.11e+01	0	47	104	0	60	1048574
2026-01-18 01:05:57.89	215.20	64.58	-83.9	-88.8	2.5	3.11e+01	0	47	104	0	60	1048574
2026-01-18 01:05:58.89	214.98	64.07	-84.3	-88.8	2.5	3.11e+01	0	47	104	0	60	1048574
2026-01-18 01:05:59.89	214.77	63.55	-84.3	-88.8	2.4	3.11e+01	0	47	104	0	60	1048574
2026-01-18 01:06:00.89	214.56	63.04	-84.3	-88.8	2.6	3.11e+01	0	47	104	0	60	1048574
2026-01-18 01:06:01.90	214.37	62.53	-83.9	-88.8	2.4	3.11e+01	0	47	104	0	60	1048574
2026-01-18 01:06:02.91	214.18	62.03	-83.9	-88.8	2.5	3.11e+01	0	47	104	0	60	1048574
2026-01-18 01:06:03.92	214.00	61.52	-84.3	-88.8	2.3	3.11e+01	0	47	104	0	60	1048574
2026-01-18 01:06:04.93	213.83	61.02	-84.3	-88.8	2.4	3.11e+01	0	47	104	0	60	1048574
2026-01-18 01:06:05.93	213.67	60.53	-84.3	-88.8	2.5	3.11e+01	0	47	104	0	60	1048574
2026-01-18 01:06:06.94	213.51	60.04	-83.9	-88.8	2.6	3.11e+01	0	47	104	0	60	1048574
2026-01-18 01:06:07.94	213.36	59.56	-84.3	-88.8	2.4	3.11e+01	0	47	104	0	60	1048574
2026-01-18 01:06:08.95	213.21	59.07	-84.3	-88.8	2.6	3.11e+01	0	47	104	0	60	1048574
2026-01-18 01:06:09.95	213.07	58.59	-84.3	-88.8	2.6	3.11e+01	0	47	104	0	60	1048574
2026-01-18 01:06:10.96	212.93	58.12	-84.3	-88.8	2.8	3.11e+01	0	47	104	0	60	1048574
2026-01-18 01:06:11.96	212.80	57.65	-83.9	-88.8	2.7	3.11e+01	0	47	104	0	60	1048574
2026-01-18 01:06:12.97	212.68	57.18	-84.3	-88.8	2.6	3.11e+01	0	47	104	0	60	1048574
2026-01-18 01:06:13.98	212.56	56.71	-84.3	-88.8	2.8	3.11e+01	0	47	104	0	60	1048574
2026-01-18 01:06:14.98	212.44	56.25	-84.3	-88.8	2.7	3.11e+01	0	47	104	0	60	1048574
2026-01-18 01:06:15.99	212.32	55.80	-83.9	-88.8	2.4	3.11e+01	0	47	104	0	60	1048574
2026-01-18 01:06:17.00	212.21	55.34	-83.9	-88.8	2.7	3.11e+01	0	47	104	0	60	1048574
2026-01-18 01:06:18.00	212.11	54.90	-83.9	-88.8	2.6	3.11e+01	0	47	104	0	60	1048574
2026-01-18 01:06:19.01	212.00	54.45	-84.3	-88.8	2.8	3.11e+01	0	47	104	0	60	1048574
2026-01-18 01:06:20.01	211.91	54.01	-84.3	-88.8	2.6	3.11e+01	0	47	104	0	60	1048574
2026-01-18 01:06:21.02	211.81	53.57	-84.3	-88.8	2.5	3.11e+01	0	47	104	0	60	1048574
2026-01-18 01:06:22.03	211.71	53.14	-83.9	-88.8	2.6	3.11e+01	0	47	104	0	60	1048574
2026-01-18 01:06:23.04	211.62	52.70	-84.3	-88.8	2.6	3.11e+01	0	47	104	0	60	1048574
2026-01-18 01:06:24.04	211.54	52.28	-84.3	-88.8	2.7	3.11e+01	0	47	104	0	60	1048574
2026-01-18 01:06:25.05	211.45	51.86	-84.3	-88.8	2.5	3.11e+01	0	47	104	0	60	1048574
2026-01-18 01:06:26.06	211.37	51.44	-83.9	-88.8	2.5	3.11e+01	0	47	104	0	60	1048574
2026-01-18 01:06:27.06	211.29	51.02	-83.9	-88.8	2.6	3.11e+01	0	47	104	0	60	1048574
2026-01-18 01:06:28.07	211.21	50.61	-84.3	-88.8	2.7	3.11e+01	0	47	104	0	60	1048574
2026-01-18 01:06:29.07	211.13	50.21	-84.3	-88.8	2.5	3.11e+01	0	47	104	0	60	1048574
2026-01-18 01:06:30.08	211.06	49.80	-84.3	-88.8	2.5	3.11e+01	0	47	104	0	60	1048574
2026-01-18 01:06:31.09	210.99	49.40	-83.9	-88.8	2.5	3.11e+01	0	47	104	0	60	1048574
2026-01-18 01:06:32.09	210.92	49.01	-84.3	-88.8	2.5	3.11e+01	0	47	104	0	60	1048574
2026-01-18 01:06:33.10	210.85	48.61	-84.3	-88.8	2.6	3.11e+01	0	47	104	0	60	1048574
2026-01-18 01:06:34.11	210.78	48.22	-84.3	-88.8	2.6	3.11e+01	0	47	104	0	60	1048574
2026-01-18 01:06:35.12	210.72	47.83	-84.3	-88.8	2.4	3.11e+01	0	47	104	0	60	1048574
2026-01-18 01:06:36.12	210.66	47.46	-83.9	-88.8	2.6	3.11e+01	0	47	104	0	60	1048574
2026-01-18 01:06:37.13	210.60	47.08	-83.9	-88.8	2.6	3.11e+01	0	47	104	0	60	1048574
2026-01-18 01:06:38.14	210.54	46.70	-84.3	-88.8	2.7	3.11e+01	0	47	104	0	60	1048574
2026-01-18 01:06:39.15	210.48	46.33	-84.3	-88.8	2.8	3.11e+01	0	47	104	0	60	1048574
2026-01-18 01:06:40.16	210.42	45.96	-83.9	-88.8	2.5	3.11e+01	0	47	104	0	60	1048574
2026-01-18 01:06:41.17	210.37	45.59	-84.3	-88.8	2.7	3.11e+01	0	47	104	0	60	1048574
2026-01-18 01:06:42.17	210.31	45.23	-84.3	-88.8	2.5	3.11e+01	0	47	104	0	60	1048574
2026-01-18 01:06:43.18	210.26	44.87	-84.3	-88.8	2.8	3.11e+01	0	47	104	0	60	1048574
2026-01-18 01:06:44.19	210.21	44.52	-84.3	-88.8	2.6	3.11e+01	0	47	104	0	60	1048574
2026-01-18 01:06:45.20	210.16	44.16	-83.9	-88.8	2.7	3.11e+01	0	47	104	0	60	1048574
2026-01-18 01:06:46.21	210.11	43.81	-84.3	-88.8	2.6	3.11e+01	0	47	104	0	60	1048574
2026-01-18 01:06:47.21	210.06	43.47	-84.3	-88.8	2.6	3.11e+01	0	47	104	0	60	1048574
2026-01-18 01:06:48.22	210.01	43.13	-84.3	-88.8	2.6	3.11e+01	0	47	104	0	60	1048574
2026-01-18 01:06:49.22	209.97	42.79	-84.3	-88.8	2.7	3.11e+01	0	47	104	0	60	1048574
2026-01-18 01:06:50.23	209.92	42.46	-83.9	-88.8	2.6	3.11e+01	0	47	104	0	60	1048574
2026-01-18 01:06:51.24	209.88	42.12	-84.3	-88.8	2.6	3.11e+01	0	47	104	0	60	1048574
2026-01-18 01:06:52.25	209.84	41.79	-84.3	-88.8	2.7	3.11e+01	0	47	104	0	60	1048574
2026-01-18 01:06:53.25	209.80	41.47	-84.3	-88.8	2.7	3.11e+01	0	47	104	0	60	1048574
2026-01-18 01:06:54.26	209.76	41.14	-84.3	-88.8	2.5	3.11e+01	0	47	104	0	60	1048574
2026-01-18 01:06:55.27	209.72	40.82	-83.9	-88.8	2.6	3.11e+01	0	47	104	0	60	1048574
2026-01-18 01:06:56.28	209.68	40.50	-83.9	-88.8	2.7	3.11e+01	0	47	104	0	60	1048574
2026-01-18 01:06:57.29	209.64	40.19	-84.3	-88.8	2.6	3.11e+01	0	47	104	0	60	1048574
2026-01-18 01:06:58.29	209.60	39.88	-84.3	-88.8	2.6	3.11e+01	0	47	104	0	60	1048574
2026-01-18 01:06:59.30	209.57	39.57	-83.9	-88.8	2.4	3.11e+01	0	47	104	0	60	1048574
2026-01-18 01:07:00.30	209.53	39.27	-83.9	-88.8	2.6	3.11e+01	0	47	104	0	60	1048574
2026-01-18 01:07:01.31	209.49	38.96	-84.3	-88.8	2.4	3.11e+01	0	47	104	0	60	1048574
2026-01-18 01:07:02.31	209.46	38.66	-84.3	-88.8	2.7	3.11e+01	0	47	104	0	60	1048574
2026-01-18 01:07:03.32	209.43	38.37	-84.3	-88.8	2.4	3.11e+01	0	47	104	0	60	1048574
2026-01-18 01:07:04.33	209.39	38.07	-83.9	-88.8	2.7	3.11e+01	0	47	104	0	60	1048574
2026-01-18 01:07:05.33	209.36	37.78	-83.9	-88.8	2.8	3.11e+01	0	47	104	0	60	1048574
2026-01-18 01:07:06.34	209.33	37.49	-84.3	-88.8	2.3	3.11e+01	0	47	104	0	60	1048574
2026-01-18 01:07:07.35	209.30	37.20	-84.3	-88.8	2.7	3.11e+01	0	47	104	0	60	1048574
2026-01-18 01:07:08.35	209.27	36.92	-84.3	-88.8	2.6	3.11e+01	0	47	104	0	60	1048574
2026-01-18 01:07:09.35	209.24	36.64	-83.9	-88.8	2.6	3.11e+01	0	47	104	0	60	1048574
2026-01-18 01:07:10.36	209.21	36.36	-84.3	-88.8	2.5	3.11e+01	0	47	104	0	60	1048574
2026-01-18 01:07:11.37	209.18	36.08	-84.3	-88.8	2.5	3.11e+01	0	47	104	0	60	1048574
2026-01-18 01:07:12.37	209.15	35.81	-84.3	-88.8	2.7	3.11e+01	0	47	104	0	60	1048574
2026-01-18 01:07:13.38	209.13	35.54	-83.9	-88.8	2.7	3.11e+01	0	47	104	0	60	1048574
2026-01-18 01:07:14.39	209.10	35.27	-83.9	-88.8	2.5	3.11e+01	0	47	104	0	60	1048574
2026-01-18 01:07:15.39	209.07	35.00	-84.3	-88.8	2.5	3.11e+01	0	47	104	0	60	1048574
2026-01-18 01:07:16.40	209.05	34.74	-84.3	-88.8	2.4	3.11e+01	0	47	104	0	60	1048574
2026-01-18 01:07:17.41	209.02	34.48	-84.3	-88.8	2.5	3.11e+01	0	47	104	0	60	1048574
2026-01-18 01:07:18.41	209.00	34.22	-83.9	-88.8	2.5	3.11e+01	0	47	104	0	60	1048574
2026-01-18 01:07:19.41	208.97	33.96	-84.3	-88.8	2.6	3.11e+01	0	47	104	0	60	1048574
2026-01-18 01:07:20.42	208.95	33.71	-84.3	-88.8	2.6	3.11e+01	0	47	104	0	60	1048574
2026-01-18 01:07:21.42	208.92	33.45	-84.3	-88.8	2.4	3.11e+01	0	47	104	0	60	1048574
2026-01-18 01:07:22.43	208.90	33.20	-84.3	-88.8	2.4	3.11e+01	0	47	104	0	60	1048574
2026-01-18 01:07:23.44	208.88	32.95	-83.9	-88.8	2.7	3.11e+01	0	47	104	0	60	1048574
2026-01-18 01:07:24.45	208.86	32.71	-84.3	-88.8	2.5	3.11e+01	0	47	104	0	60	1048574
2026-01-18 01:07:25.46	208.83	32.46	-83.9	-88.8	2.4	3.11e+01	0	47	104	0	60	1048574
2026-01-18 01:07:26.46	208.81	32.22	-84.3	-88.8	2.6	3.11e+01	0	47	104	0	60	1048574
2026-01-18 01:07:27.47	208.79	31.98	-84.3	-88.8	2.7	3.11e+01	0	47	104	0	60	1048574
2026-01-18 01:07:28.48	208.77	31.74	-83.9	-88.8	2.6	3.11e+01	0	47	104	0	60	1048574
2026-01-18 01:07:29.48	208.75	31.51	-84.3	-88.8	2.6	3.11e+01	0	47	104	0	60	1048574
2026-01-18 01:07:30.49	208.73	31.27	-84.3	-88.8	2.3	3.11e+01	0	47	104	0	60	1048574
2026-01-18 01:07:31.50	208.71	31.04	-84.3	-88.8	2.6	3.11e+01	0	47	104	0	60	1048574
2026-01-18 01:07:32.51	208.69	30.81	-83.9	-88.8	2.5	3.11e+01	0	47	104	0	60	1048574
2026-01-18 01:07:33.52	208.67	30.58	-83.9	-88.8	2.5	3.11e+01	0	47	104	0	60	1048575
2026-01-18 01:07:34.53	208.65	30.35	-84.3	-88.8	2.5	3.11e+01	0	47	104	0	60	1048575
2026-01-18 01:07:35.53	208.63	30.13	-84.3	-88.8	2.5	3.11e+01	0	47	104	0	60	1048575
2026-01-18 01:07:36.54	208.62	29.91	-84.3	-88.8	2.6	3.11e+01	0	47	104	0	60	1048575
2026-01-18 01:07:37.55	208.60	29.68	-83.9	-88.8	2.4	3.11e+01	0	47	104	0	60	1048575
2026-01-18 01:07:38.55	208.58	29.47	-84.3	-88.8	2.4	3.11e+01	0	47	104	0	60	1048575
2026-01-18 01:07:39.55	208.56	29.25	-84.3	-88.8	2.6	3.11e+01	0	47	104	0	60	1048575
2026-01-18 01:07:40.56	208.55	29.04	-84.3	-88.8	2.8	3.11e+01	0	47	104	0	60	1048575
2026-01-18 01:07:41.57	208.53	28.82	-84.3	-88.8	2.4	3.11e+01	0	47	104	0	60	1048575
2026-01-18 01:07:42.57	208.51	28.61	-83.5	-88.8	2.6	3.11e+01	0	47	104	0	60	1048575
2026-01-18 01:07:43.58	208.50	28.40	-84.3	-88.8	2.7	3.11e+01	0	47	104	0	60	1048575
2026-01-18 01:07:44.59	208.48	28.19	-84.3	-88.8	2.6	3.11e+01	0	47	104	0	60	1048575
2026-01-18 01:07:45.60	208.46	27.98	-84.3	-88.8	2.5	3.11e+01	0	47	104	0	60	1048575
2026-01-18 01:07:46.61	208.45	27.78	-83.9	-88.8	2.7	3.11e+01	0	47	104	0	60	1048575
2026-01-18 01:07:47.61	208.43	27.58	-83.9	-88.8	2.6	3.11e+01	0	47	104	0	60	1048575
2026-01-18 01:07:48.62	208.42	27.37	-84.3	-88.8	2.6	3.11e+01	0	47	104	0	60	1048575
2026-01-18 01:07:49.63	208.40	27.17	-84.3	-88.8	2.5	3.11e+01	0	47	104	0	60	1048575
2026-01-18 01:07:50.63	208.39	26.97	-84.3	-88.8	2.6	3.11e+01	0	47	104	0	60	1048575
2026-01-18 01:07:51.64	208.38	26.78	-83.9	-88.8	2.6	3.11e+01	0	47	104	0	60	1048575
2026-01-18 01:07:52.65	208.36	26.58	-84.3	-88.8	2.6	3.11e+01	0	47	104	0	60	1048575
2026-01-18 01:07:53.65	208.35	26.39	-84.3	-88.8	2.4	3.11e+01	0	47	104	0	60	1048575
2026-01-18 01:07:54.66	208.34	26.19	-84.3	-88.8	2.6	3.11e+01	0	47	104	0	60	1048575
2026-01-18 01:07:55.67	208.32	26.00	-84.3	-88.8	2.7	3.11e+01	0	47	104	0	60	1048575
2026-01-18 01:07:56.68	208.31	25.81	-83.9	-88.8	2.7	3.11e+01	0	47	104	0	60	1048575
2026-01-18 01:07:57.68	208.30	25.63	-84.3	-88.8	2.6	3.11e+01	0	47	104	0	60	1048575
2026-01-18 01:07:58.69	208.28	25.44	-84.3	-88.8	2.7	3.11e+01	0	47	104	0	60	1048575
2026-01-18 01:07:59.70	208.27	25.25	-84.3	-88.8	2.4	3.11e+01	0	47	104	0	60	1048575
2026-01-18 01:08:00.71	208.26	25.07	-84.3	-88.8	2.5	3.11e+01	0	47	104	0	60	1048575
2026-01-18 01:08:01.72	208.25	24.88	-83.9	-88.8	2.7	3.11e+01	0	47	104	0	60	1048575
2026-01-18 01:08:02.73	208.23	24.70	-84.3	-88.8	2.8	3.11e+01	0	47	104	0	60	1048575
2026-01-18 01:08:03.73	208.22	24.52	-84.3	-88.8	2.6	3.11e+01	0	47	104	0	60	1048575
2026-01-18 01:08:04.74	208.21	24.34	-84.3	-88.8	2.7	3.11e+01	0	47	104	0	60	1048575
2026-01-18 01:08:05.75	208.20	24.17	-83.9	-88.8	2.5	3.11e+01	0	47	104	0	60	1048575
2026-01-18 01:08:06.75	208.19	23.99	-83.9	-88.8	2.5	3.11e+01	0	47	104	0	60	1048575
2026-01-18 01:08:07.76	208.18	23.82	-84.3	-88.8	2.4	3.11e+01	0	47	104	0	60	1048575
2026-01-18 01:08:08.77	208.17	23.64	-84.3	-88.8	2.5	3.11e+01	0	47	104	0	60	1048575
2026-01-18 01:08:09.77	208.16	23.47	-83.9	-88.8	2.6	3.11e+01	0	47	104	0	60	1048575
2026-01-18 01:08:10.78	208.15	23.30	-83.9	-88.8	2.5	3.11e+01	0	47	104	0	60	1048575
2026-01-18 01:08:11.78	208.14	23.13	-84.3	-88.8	2.5	3.11e+01	0	47	104	0	60	1048575
2026-01-18 01:08:12.79	208.12	22.96	-84.3	-88.8	2.7	3.11e+01	0	47	104	0	60	1048575
2026-01-18 01:08:13.80	208.11	22.79	-84.3	-88.8	2.5	3.11e+01	0	47	104	0	60	1048575
2026-01-18 01:08:14.80	208.10	22.63	-84.3	-88.8	2.3	3.11e+01	0	47	104	0	60	1048575
2026-01-18 01:08:15.81	208.10	22.46	-83.9	-88.8	2.4	3.11e+01	0	47	104	0	60	1048575
2026-01-18 01:08:16.82	208.09	22.30	-84.3	-88.8	2.4	3.11e+01	0	47	104	0	60	1048575
2026-01-18 01:08:17.83	208.08	22.14	-84.3	-88.8	2.4	3.11e+01	0	47	104	0	60	1048575
2026-01-18 01:08:18.83	208.07	21.97	-84.3	-88.8	2.3	3.11e+01	0	47	104	0	60	1048575
2026-01-18 01:08:19.84	208.06	21.81	-83.9	-88.8	2.5	3.11e+01	0	47	104	0	60	1048575
2026-01-18 01:08:20.85	208.05	21.65	-83.9	-88.8	2.7	3.11e+01	0	47	104	0	60	1048575
2026-01-18 01:08:21.85	208.04	21.50	-84.3	-88.8	2.6	3.11e+01	0	47	104	0	60	1048575
2026-01-18 01:08:22.86	208.03	21.34	-84.3	-88.8	2.5	3.11e+01	0	47	104	0	60	1048575
2026-01-18 01:08:23.86	208.02	21.18	-84.3	-88.8	2.6	3.11e+01	0	47	104	0	60	1048575
2026-01-18 01:08:24.87	208.01	21.03	-83.9	-88.8	2.5	3.11e+01	0	47	104	0	60	1048575
2026-01-18 01:08:25.88	208.01	20.87	-83.9	-88.8	2.7	3.11e+01	0	47	104	0	60	1048575
2026-01-18 01:08:26.88	208.00	20.72	-84.3	-88.8	2.7	3.11e+01	0	47	104	0	60	1048575
2026-01-18 01:08:27.88	207.99	20.57	-84.3	-88.8	2.5	3.11e+01	0	47	104	0	60	1048575
2026-01-18 01:08:28.89	207.98	20.42	-83.9	-88.8	2.7	3.11e+01	0	47	104	0	60	1048575
2026-01-18 01:08:29.90	207.97	20.27	-83.9	-88.8	2.7	3.11e+01	0	47	104	0	60	1048575
2026-01-18 01:08:30.91	207.97	20.12	-83.9	-88.8	2.5	3.11e+01	0	47	104	0	60	1048575
2026-01-18 01:08:31.91	207.96	19.97	-84.3	-88.8	2.6	3.11e+01	0	47	104	0	60	1048575
2026-01-18 01:08:32.92	207.95	19.82	-84.3	-88.8	2.6	3.11e+01	0	47	104	0	60	1048575
2026-01-18 01:08:33.93	207.94	19.68	-84.3	-88.8	2.6	3.11e+01	0	47	104	0	60	1048575
2026-01-18 01:08:34.94	207.93	19.53	-83.9	-88.8	2.5	3.11e+01	0	47	104	0	60	1048575
2026-01-18 01:08:35.94	207.93	19.39	-83.9	-88.8	2.7	3.11e+01	0	47	104	0	60	1048575
2026-01-18 01:08:36.95	207.92	19.24	-84.3	-88.8	2.5	3.11e+01	0	47	104	0	60	1048575
2026-01-18 01:08:37.96	207.91	19.10	-84.3	-88.8	2.6	3.11e+01	0	47	104	0	60	1048575
2026-01-18 01:08:38.96	207.91	18.96	-83.9	-88.8	2.4	3.11e+01	0	47	104	0	60	1048575
2026-01-18 01:08:39.96	207.90	18.82	-83.9	-88.8	2.5	3.11e+01	0	47	104	0	60	1048575
2026-01-18 01:08:40.97	207.89	18.68	-84.3	-88.8	2.6	3.11e+01	0	47	104	0	60	1048575
2026-01-18 01:08:41.98	207.89	18.54	-84.3	-88.8	2.7	3.11e+01	0	47	104	0	60	1048575
2026-01-18 01:08:42.99	207.88	18.40	-84.3	-88.8	2.5	3.11e+01	0	47	104	0	60	1048575
2026-01-18 01:08:44.00	207.87	18.26	-83.9	-88.8	2.5	3.11e+01	0	47	104	0	60	1048575
2026-01-18 01:08:45.00	207.87	18.13	-84.3	-88.8	2.5	3.11e+01	0	47	104	0	60	1048575
2026-01-18 01:08:46.01	207.86	17.99	-84.3	-88.8	2.4	3.11e+01	0	47	104	0	60	1048575
2026-01-18 01:08:47.02	207.85	17.86	-84.3	-88.8	2.2	3.11e+01	0	47	104	0	60	1048575
2026-01-18 01:08:48.03	207.85	17.72	-84.3	-88.8	2.4	3.11e+01	0	47	104	0	60	1048575
2026-01-18 01:08:49.03	207.84	17.59	-83.9	-88.8	2.6	3.11e+01	0	47	104	0	60	1048575
2026-01-18 01:08:50.04	207.84	17.46	-84.3	-88.8	2.3	3.11e+01	0	47	104	0	60	1048575
2026-01-18 01:08:51.05	207.83	17.32	-84.3	-88.8	2.7	3.11e+01	0	47	104	0	60	1048575
2026-01-18 01:08:52.06	207.83	17.19	-84.3	-88.8	2.6	3.11e+01	0	47	104	0	60	1048575
2026-01-18 01:08:53.07	207.82	17.06	-83.9	-88.8	2.7	3.11e+01	0	47	104	0	60	1048575
2026-01-18 01:08:54.08	207.81	16.93	-83.9	-88.8	2.6	3.11e+01	0	47	104	0	60	1048575
2026-01-18 01:08:55.08	207.81	16.80	-84.3	-88.8	2.5	3.11e+01	0	47	104	0	60	1048575
2026-01-18 01:08:56.09	207.80	16.68	-84.3	-88.8	2.5	3.11e+01	0	47	104	0	60	1048575
2026-01-18 01:08:57.09	207.80	16.55	-84.3	-88.8	2.7	3.11e+01	0	47	104	0	60	1048575
2026-01-18 01:08:58.10	207.79	16.42	-83.9	-88.8	2.6	3.11e+01	0	47	104	0	60	1048575
2026-01-18 01:08:59.10	207.79	16.30	-84.3	-88.8	2.7	3.11e+01	0	47	104	0	60	1048575
2026-01-18 01:09:00.11	207.78	16.17	-84.3	-88.8	2.5	3.11e+01	0	47	104	0	60	1048575
2026-01-18 01:09:01.11	207.78	16.05	-84.3	-88.8	2.6	3.11e+01	0	47	104	0	60	1048575
2026-01-18 01:09:02.11	207.77	15.93	-84.3	-88.8	2.6	3.11e+01	0	47	104	0	60	1048575
2026-01-18 01:09:03.12	207.77	15.80	-83.9	-88.8	2.5	3.11e+01	0	47	104	0	60	1048575
2026-01-18 01:09:04.12	207.76	15.68	-83.9	-88.8	2.7	3.11e+01	0	47	104	0	60	1048575
2026-01-18 01:09:05.13	207.76	15.56	-84.3	-88.8	2.7	3.11e+01	0	47	104	0	60	1048575
2026-01-18 01:09:06.13	207.75	15.44	-84.3	-88.8	2.7	3.11e+01	0	47	104	0	60	1048575
2026-01-18 01:09:07.13	207.75	15.32	-84.3	-88.8	2.5	3.11e+01	0	47	104	0	60	1048575
2026-01-18 01:09:08.14	207.74	15.20	-83.9	-88.8	2.4	3.11e+01	0	47	104	0	60	1048575
2026-01-18 01:09:09.15	207.74	15.08	-84.3	-88.8	2.5	3.11e+01	0	47	104	0	60	1048575
2026-01-18 01:09:10.15	207.74	14.96	-84.3	-88.8	2.3	3.11e+01	0	47	104	0	60	1048575
2026-01-18 01:09:11.16	207.73	14.85	-84.3	-88.8	2.4	3.11e+01	0	47	104	0	60	1048575
2026-01-18 01:09:12.17	207.73	14.73	-84.3	-88.8	2.2	3.11e+01	0	47	104	0	60	1048575
2026-01-18 01:09:13.17	207.72	14.61	-83.9	-88.8	2.5	3.11e+01	0	47	104	0	60	1048575
2026-01-18 01:09:14.17	207.72	14.50	-84.3	-88.8	2.7	3.11e+01	0	47	104	0	60	1048575
2026-01-18 01:09:15.17	207.71	14.38	-84.3	-88.8	2.5	3.11e+01	0	47	104	0	60	1048575
2026-01-18 01:09:16.17	207.71	14.27	-84.3	-88.8	2.4	3.11e+01	0	47	104	0	60	1048575
2026-01-18 01:09:17.18	207.71	14.15	-83.9	-88.8	2.3	3.11e+01	0	47	104	0	60	1048575
2026-01-18 01:09:18.19	207.70	14.04	-83.9	-88.8	2.5	3.11e+01	0	47	104	0	60	1048575
2026-01-18 01:09:19.20	207.70	13.93	-84.3	-88.8	2.3	3.11e+01	0	47	104	0	60	1048575
2026-01-18 01:09:20.21	207.70	13.81	-84.3	-88.8	2.5	3.11e+01	0	47	104	0	60	1048575
2026-01-18 01:09:21.21	207.69	13.70	-84.3	-88.8	2.5	3.11e+01	0	47	104	0	60	1048575
2026-01-18 01:09:22.22	207.69	13.59	-83.9	-88.8	2.4	3.11e+01	0	47	104	0	60	1048575
2026-01-18 01:09:23.23	207.68	13.48	-84.3	-88.8	2.4	3.11e+01	0	47	104	0	60	1048575
2026-01-18 01:09:24.24	207.68	13.37	-84.3	-88.8	2.5	3.11e+01	0	47	104	0	60	1048575
2026-01-18 01:09:25.25	207.68	13.26	-84.3	-88.8	2.7	3.11e+01	0	47	104	0	60	1048575
2026-01-18 01:09:26.25	207.67	13.15	-83.9	-88.8	2.7	3.11e+01	0	47	104	0	60	1048575
2026-01-18 01:09:27.26	207.67	13.04	-83.5	-88.8	2.7	3.11e+01	0	47	104	0	60	1048575
2026-01-18 01:09:28.26	207.67	12.94	-84.3	-88.8	2.6	3.11e+01	0	47	104	0	60	1048575
2026-01-18 01:09:29.27	207.66	12.83	-84.3	-88.8	2.5	3.11e+01	0	47	104	0	60	1048575
2026-01-18 01:09:30.27	207.66	12.72	-84.3	-88.8	2.5	3.11e+01	0	47	104	0	60	1048575
2026-01-18 01:09:31.28	207.66	12.62	-84.3	-88.8	2.6	3.11e+01	0	47	104	0	60	1048575
2026-01-18 01:09:32.29	207.65	12.51	-83.9	-88.8	2.6	3.11e+01	0	47	104	0	60	1048575
2026-01-18 01:09:33.29	207.65	12.41	-84.3	-88.8	2.5	3.11e+01	0	47	104	0	60	1048575
2026-01-18 01:09:34.29	207.65	12.30	-84.3	-88.8	2.6	3.11e+01	0	47	104	0	60	1048575
2026-01-18 01:09:35.30	207.65	12.20	-84.3	-88.8	2.7	3.11e+01	0	47	104	0	60	1048575
2026-01-18 01:09:36.31	207.64	12.09	-83.9	-88.8	2.8	3.11e+01	0	47	104	0	60	1048575
2026-01-18 01:09:37.32	207.64	11.99	-84.3	-88.8	2.6	3.11e+01	0	47	104	0	60	1048575
2026-01-18 01:09:38.32	207.64	11.89	-84.3	-88.8	2.6	3.11e+01	0	47	104	0	60	1048575
2026-01-18 01:09:39.33	207.63	11.78	-84.3	-88.8	2.7	3.11e+01	0	47	104	0	60	1048575
2026-01-18 01:09:40.33	207.63	11.68	-84.3	-88.8	2.6	3.11e+01	0	47	104	0	60	1048575
2026-01-18 01:09:41.34	207.63	11.58	-83.9	-88.8	2.5	3.11e+01	0	47	104	0	60	1048575
2026-01-18 01:09:42.35	207.63	11.48	-83.9	-88.8	2.5	3.11e+01	0	47	104	0	60	1048575
2026-01-18 01:09:43.36	207.62	11.38	-84.3	-88.8	2.6	3.11e+01	0	47	104	0	60	1048575
2026-01-18 01:09:44.37	207.62	11.28	-84.3	-88.8	2.4	3.11e+01	0	47	104	0	60	1048575
2026-01-18 01:09:45.37	207.62	11.18	-84.3	-88.8	2.5	3.11e+01	0	47	104	0	60	1048575
2026-01-18 01:09:46.38	207.62	11.08	-83.9	-88.8	2.5	3.11e+01	0	47	104	0	60	1048575
2026-01-18 01:09:47.39	207.61	10.98	-83.9	-88.8	2.5	3.11e+01	0	47	104	0	60	1048575
2026-01-18 01:09:48.39	207.61	10.88	-84.3	-88.8	2.4	3.11e+01	0	47	104	0	60	1048575
2026-01-18 01:09:49.40	207.61	10.79	-84.3	-88.8	2.6	3.11e+01	0	47	104	0	60	1048575
2026-01-18 01:09:50.40	207.61	10.69	-83.9	-88.8	2.5	3.11e+01	0	47	104	0	60	1048575
2026-01-18 01:09:51.41	207.60	10.59	-84.3	-88.8	2.6	3.11e+01	0	47	104	0	60	1048575
2026-01-18 01:09:52.42	207.60	10.50	-84.3	-88.8	2.6	3.11e+01	0	47	104	0	60	1048575
2026-01-18 01:09:53.43	207.60	10.40	-84.3	-88.8	2.6	3.11e+01	0	47	104	0	60	1048575
2026-01-18 01:09:54.43	207.60	10.30	-84.3	-88.8	2.5	3.11e+01	0	47	104	0	60	1048575
2026-01-18 01:09:55.44	207.60	10.21	-83.9	-88.8	2.7	3.11e+01	0	47	104	0	60	1048575
2026-01-18 01:09:56.44	207.59	10.11	-84.3	-88.8	2.7	3.11e+01	0	47	104	0	60	1048575
2026-01-18 01:09:57.45	207.59	10.02	-84.3	-88.8	2.7	3.11e+01	0	47	104	0	60	1048575
2026-01-18 01:09:58.46	207.59	9.93	-84.3	-88.8	2.4	3.11e+01	0	47	104	0	60	1048575
2026-01-18 01:09:59.47	207.59	9.83	-84.3	-88.8	2.7	3.11e+01	0	47	104	0	60	1048575
2026-01-18 01:10:00.48	207.59	9.74	-83.9	-88.8	2.5	3.11e+01	0	47	104	0	60	1048575
2026-01-18 01:10:01.48	207.58	9.65	-83.9	-88.8	2.5	3.11e+01	0	47	104	0	60	1048575
2026-01-18 01:10:02.49	207.58	9.55	-84.3	-88.8	2.5	3.11e+01	0	47	104	0	60	1048575
2026-01-18 01:10:03.50	207.58	9.46	-84.3	-88.8	2.8	3.11e+01	0	47	104	0	60	1048575
2026-01-18 01:10:04.51	207.58	9.37	-83.9	-88.8	2.5	3.11e+01	0	47	104	0	60	1048575
2026-01-18 01:10:05.52	207.58	9.28	-83.9	-88.8	2.6	3.11e+01	0	47	104	0	60	1048575
2026-01-18 01:10:06.52	207.58	9.19	-84.3	-88.8	2.6	3.11e+01	0	47	104	0	60	1048575
2026-01-18 01:10:07.52	207.57	9.10	-84.3	-88.8	2.6	3.11e+01	0	47	104	0	60	1048575
2026-01-18 01:10:08.53	207.57	9.01	-84.3	-88.8	2.4	3.11e+01	0	47	104	0	60	1048575
2026-01-18 01:10:09.53	207.57	8.92	-83.9	-88.8	2.6	3.11e+01	0	47	104	0	60	1048575
2026-01-18 01:10:10.54	207.57	8.83	-84.3	-88.8	2.5	3.11e+01	0	47	104	0	60	1048575
2026-01-18 01:10:11.55	207.57	8.74	-84.3	-88.8	2.6	3.11e+01	0	47	104	0	60	1048575
2026-01-18 01:10:12.56	207.57	8.65	-84.3	-88.8	2.6	3.11e+01	0	47	104	0	60	1048575
2026-01-18 01:10:13.56	207.57	8.56	-84.3	-88.8	2.6	3.11e+01	0	47	104	0	60	1048575
2026-01-18 01:10:14.57	207.56	8.47	-83.9	-88.8	2.7	3.11e+01	0	47	104	0	60	1048575
2026-01-18 01:10:15.57	207.56	8.38	-83.9	-88.8	2.5	3.11e+01	0	47	104	0	60	1048575
2026-01-18 01:10:16.58	207.56	8.30	-83.9	-88.8	2.5	3.11e+01	0	47	104	0	60	1048575
2026-01-18 01:10:17.59	207.56	8.21	-84.3	-88.8	2.3	3.11e+01	0	47	104	0	60	1048575
2026-01-18 01:10:18.60	207.56	8.12	-84.3	-88.8	2.5	3.11e+01	0	47	104	0	60	1048575
2026-01-18 01:10:19.60	207.56	8.04	-83.9	-88.8	2.5	3.11e+01	0	47	104	0	60	1048575
2026-01-18 01:10:20.61	207.56	7.95	-84.3	-88.8	2.6	3.11e+01	0	47	104	0	60	1048575
2026-01-18 01:10:21.62	207.55	7.86	-84.3	-88.8	2.6	3.11e+01	0	47	104	0	60	1048575
2026-01-18 01:10:22.63	207.55	7.78	-84.3	-88.8	2.3	3.11e+01	0	47	104	0	60	1048575
2026-01-18 01:10:23.63	207.55	7.69	-83.9	-88.8	2.7	3.11e+01	0	47	104	0	60	1048575
2026-01-18 01:10:24.64	207.55	7.61	-83.9	-88.8	2.6	3.11e+01	0	47	104	0	60	1048575
2026-01-18 01:10:25.65	207.55	7.52	-83.9	-88.8	2.7	3.11e+01	0	47	104	0	60	1048575
2026-01-18 01:10:26.65	207.55	7.44	-84.3	-88.8	2.6	3.11e+01	0	47	104	0	60	1048575
2026-01-18 01:10:27.66	207.55	7.36	-84.3	-88.8	2.7	3.11e+01	0	47	104	0	60	1048575
