passes_logs/2026/01/18/R3.2S-Naryan-Mar/R3.2S-Naryan-Mar__20260118_123512_TY-41_rec.log

#Pass ID: 20260118_123512_TY-41
#Satellite: TY-41
#Configuration: TY-39
#almurnet v.1.7.20240730
#Start time: 2026-01-18 12:35:17

#Version: 2.2.20231116
#Station: R3.2S-Naryan-Mar
#Location: 53.008057 lon 67.646978 lat
#TLE: 1 61231U 24173E   26017.70896991  .00008013  00000-0  38191-3 0 09992
#TLE: 2 61231 097.4119 092.6921 0001804 091.8360 205.6844 15.19179825 72900

#Time	Az	El	Level	Level2	SNR	BER	BlckErr	Temp	State	Recorded	gain1	gain2
2026-01-18 12:35:17.67	45.14	0.24	-83.9	-88.8	2.2	3.11e+01	0	45	0	0	60	1048574
2026-01-18 12:35:18.67	45.03	0.29	-83.5	-79.0	2.3	0.00e+00	0	46	104	0	60	1048574
2026-01-18 12:35:19.68	44.92	0.34	-83.5	-79.0	2.3	0.00e+00	0	47	104	0	60	1048574
2026-01-18 12:35:20.69	44.80	0.39	-83.1	-79.0	2.3	0.00e+00	0	46	104	0	60	1048574
2026-01-18 12:35:21.69	44.68	0.44	-82.8	-79.0	2.4	0.00e+00	0	47	104	0	60	1048573
2026-01-18 12:35:22.70	44.57	0.48	-83.5	-79.0	2.4	0.00e+00	0	47	104	0	60	1048569
2026-01-18 12:35:23.70	44.45	0.53	-83.5	-79.0	2.3	0.00e+00	0	47	104	0	60	1048575
2026-01-18 12:35:24.70	44.33	0.58	-83.5	-79.0	2.4	0.00e+00	0	47	104	0	60	1048574
2026-01-18 12:35:25.71	44.22	0.63	-83.5	-79.0	2.4	0.00e+00	0	47	104	0	60	1048575
2026-01-18 12:35:26.72	44.10	0.68	-82.8	-79.0	2.4	0.00e+00	0	47	104	0	60	1048575
2026-01-18 12:35:27.73	43.98	0.72	-83.5	-79.0	2.4	0.00e+00	0	47	104	0	60	1048575
2026-01-18 12:35:28.74	43.86	0.77	-83.5	-79.0	2.4	0.00e+00	0	47	104	0	60	1048574
2026-01-18 12:35:29.74	43.74	0.82	-83.5	-79.0	2.4	0.00e+00	0	47	104	0	60	1048565
2026-01-18 12:35:30.74	43.62	0.87	-83.1	-79.0	2.4	0.00e+00	0	47	104	0	60	1048575
2026-01-18 12:35:31.75	43.50	0.92	-83.1	-79.0	2.4	0.00e+00	0	47	104	0	60	1048568
2026-01-18 12:35:32.75	43.38	0.96	-83.5	-79.0	2.5	0.00e+00	0	47	104	0	60	1048574
2026-01-18 12:35:33.76	43.25	1.01	-83.5	-79.0	2.3	0.00e+00	0	47	104	0	60	1048575
2026-01-18 12:35:34.76	43.13	1.06	-83.5	-79.0	2.4	0.00e+00	0	47	104	0	60	1048570
2026-01-18 12:35:35.77	43.01	1.11	-82.8	-79.0	2.4	0.00e+00	0	47	104	0	60	1048572
2026-01-18 12:35:36.78	42.88	1.16	-83.1	-79.0	2.5	0.00e+00	0	47	104	0	60	1048570
2026-01-18 12:35:37.78	42.76	1.21	-83.5	-79.0	2.5	0.00e+00	0	47	104	0	60	1048573
2026-01-18 12:35:38.79	42.64	1.25	-83.5	-79.0	2.4	0.00e+00	0	47	104	0	60	1048573
2026-01-18 12:35:39.80	42.51	1.30	-83.5	-79.0	2.4	0.00e+00	0	47	104	0	60	1048570
2026-01-18 12:35:40.80	42.39	1.35	-83.1	-79.0	2.4	0.00e+00	0	47	104	0	60	1048573
2026-01-18 12:35:41.81	42.26	1.40	-83.5	-79.0	2.4	0.00e+00	0	47	104	0	60	1048570
2026-01-18 12:35:42.82	42.13	1.45	-83.5	-79.0	2.4	0.00e+00	0	47	104	0	60	1048570
2026-01-18 12:35:43.83	42.00	1.49	-83.5	-79.0	2.5	0.00e+00	0	47	104	0	60	1048570
2026-01-18 12:35:44.83	41.88	1.54	-83.5	-79.0	2.4	0.00e+00	0	47	104	0	60	1048571
2026-01-18 12:35:45.84	41.75	1.59	-83.1	-79.0	2.4	0.00e+00	0	47	104	0	60	1048569
2026-01-18 12:35:46.85	41.62	1.64	-83.5	-79.0	2.5	0.00e+00	0	47	104	0	60	1048571
2026-01-18 12:35:47.86	41.49	1.69	-83.1	-79.0	2.7	0.00e+00	0	47	104	0	60	1048571
2026-01-18 12:35:48.87	41.36	1.74	-83.5	-79.0	2.4	0.00e+00	0	47	104	0	60	1048570
2026-01-18 12:35:49.87	41.23	1.78	-83.1	-79.0	2.4	0.00e+00	0	47	104	0	60	1048572
2026-01-18 12:35:50.88	41.10	1.83	-83.5	-79.0	2.5	0.00e+00	0	47	104	0	60	1048574
2026-01-18 12:35:51.89	40.96	1.88	-83.1	-79.0	2.5	0.00e+00	0	47	104	0	60	1048573
2026-01-18 12:35:52.89	40.83	1.93	-83.5	-79.0	2.5	0.00e+00	0	47	104	0	60	1048563
2026-01-18 12:35:53.90	40.70	1.98	-83.1	-79.0	2.3	0.00e+00	0	47	104	0	60	1048575
2026-01-18 12:35:54.91	40.57	2.02	-82.8	-79.0	2.5	0.00e+00	0	47	104	0	60	1048566
2026-01-18 12:35:55.92	40.43	2.07	-83.1	-79.0	2.4	0.00e+00	0	47	104	0	60	1048574
2026-01-18 12:35:56.92	40.30	2.12	-83.5	-79.0	2.4	0.00e+00	0	47	104	0	60	1048575
2026-01-18 12:35:57.93	40.16	2.17	-83.5	-79.0	2.5	0.00e+00	0	47	104	0	60	1048575
2026-01-18 12:35:58.94	40.03	2.22	-83.5	-79.0	2.4	0.00e+00	0	47	104	0	60	1048567
2026-01-18 12:35:59.95	39.89	2.26	-83.1	-79.0	2.4	0.00e+00	0	47	104	0	60	1048571
2026-01-18 12:36:00.96	39.75	2.31	-83.5	-79.0	2.3	0.00e+00	0	47	104	0	60	1048573
2026-01-18 12:36:01.96	39.62	2.36	-83.5	-79.0	2.4	0.00e+00	0	47	104	0	60	1048572
2026-01-18 12:36:02.97	39.48	2.41	-83.5	-79.0	2.4	0.00e+00	0	47	104	0	60	1048575
2026-01-18 12:36:03.98	39.34	2.46	-83.1	-79.0	2.7	0.00e+00	0	48	104	0	60	1048574
2026-01-18 12:36:04.99	39.20	2.50	-83.5	-79.0	2.5	0.00e+00	0	47	104	0	60	1048575
2026-01-18 12:36:05.99	39.06	2.55	-83.5	-79.0	2.4	0.00e+00	0	47	104	0	60	1048575
2026-01-18 12:36:07.00	38.92	2.60	-83.5	-79.0	2.5	0.00e+00	0	47	104	0	60	1048573
2026-01-18 12:36:08.00	38.78	2.65	-83.5	-79.0	2.4	0.00e+00	0	47	104	0	60	1048575
2026-01-18 12:36:09.01	38.64	2.70	-82.8	-79.0	2.4	0.00e+00	0	48	104	0	60	1048573
2026-01-18 12:36:10.01	38.49	2.74	-83.1	-79.0	2.4	0.00e+00	0	48	104	0	60	1048575
2026-01-18 12:36:11.02	38.35	2.79	-83.5	-79.0	2.3	0.00e+00	0	48	104	0	60	1048575
2026-01-18 12:36:12.03	38.21	2.84	-83.5	-79.0	2.3	0.00e+00	0	48	104	0	60	1048572
2026-01-18 12:36:13.04	38.06	2.89	-83.5	-79.0	2.5	0.00e+00	0	48	104	0	60	1048572
2026-01-18 12:36:14.04	37.92	2.93	-83.1	-79.0	2.4	0.00e+00	0	48	104	0	60	1048571
2026-01-18 12:36:15.05	37.77	2.98	-83.5	-79.0	2.5	0.00e+00	0	48	104	0	60	1048575
2026-01-18 12:36:16.06	37.63	3.03	-83.5	-79.0	2.4	0.00e+00	0	48	104	0	60	1048570
2026-01-18 12:36:17.07	37.48	3.08	-83.5	-79.0	2.3	0.00e+00	0	48	104	0	60	1048573
2026-01-18 12:36:18.08	37.33	3.12	-83.1	-79.0	2.4	0.00e+00	0	48	104	0	60	1048573
2026-01-18 12:36:19.08	37.19	3.17	-83.1	-79.0	2.4	0.00e+00	0	48	104	0	60	1048574
2026-01-18 12:36:20.09	37.04	3.22	-83.5	-79.0	2.4	0.00e+00	0	48	104	0	60	1048575
2026-01-18 12:36:21.10	36.89	3.27	-83.5	-79.0	2.8	0.00e+00	0	48	104	0	60	1048572
2026-01-18 12:36:22.10	36.74	3.31	-83.5	-79.0	2.3	0.00e+00	0	48	104	0	60	1048572
2026-01-18 12:36:23.11	36.59	3.36	-83.1	-79.0	2.4	0.00e+00	0	48	104	0	60	1048573
2026-01-18 12:36:24.12	36.44	3.41	-83.1	-79.0	2.4	0.00e+00	0	48	104	0	60	1048563
2026-01-18 12:36:25.12	36.29	3.46	-83.5	-79.0	2.3	0.00e+00	0	48	104	0	60	1048573
2026-01-18 12:36:26.13	36.13	3.50	-83.5	-79.0	2.4	0.00e+00	0	48	104	0	60	1048572
2026-01-18 12:36:27.14	35.98	3.55	-83.1	-79.0	2.5	0.00e+00	0	48	104	0	60	1048574
2026-01-18 12:36:28.15	35.83	3.60	-82.8	-79.0	2.4	0.00e+00	0	48	104	0	60	1048570
2026-01-18 12:36:29.15	35.67	3.64	-83.1	-79.0	2.4	0.00e+00	0	48	104	0	60	1048571
2026-01-18 12:36:30.16	35.52	3.69	-83.5	-79.0	2.4	0.00e+00	0	48	104	0	60	1048572
2026-01-18 12:36:31.17	35.36	3.74	-83.5	-79.0	2.4	0.00e+00	0	48	104	0	60	1048567
2026-01-18 12:36:32.18	35.21	3.79	-83.5	-79.0	2.4	0.00e+00	0	48	104	0	60	1048575
2026-01-18 12:36:33.18	35.05	3.83	-83.1	-79.0	2.5	0.00e+00	0	48	104	0	60	1048572
2026-01-18 12:36:34.19	34.89	3.88	-83.5	-79.0	2.4	0.00e+00	0	48	104	0	60	1048573
2026-01-18 12:36:35.20	34.74	3.93	-83.5	-79.0	2.5	0.00e+00	0	48	104	0	60	1048574
2026-01-18 12:36:36.20	34.58	3.97	-83.5	-79.0	2.3	0.00e+00	0	48	104	0	60	1048569
2026-01-18 12:36:37.21	34.42	4.02	-83.5	-79.0	2.5	0.00e+00	0	48	104	0	60	1048575
2026-01-18 12:36:38.21	34.26	4.06	-83.1	-79.0	2.4	0.00e+00	0	48	104	0	60	1048574
2026-01-18 12:36:39.22	34.10	4.11	-83.5	-79.0	2.3	0.00e+00	0	48	104	0	60	1048575
2026-01-18 12:36:40.23	33.94	4.16	-83.5	-79.0	2.3	0.00e+00	0	48	104	0	60	1048567
2026-01-18 12:36:41.23	33.78	4.20	-83.5	-79.0	2.4	0.00e+00	0	48	104	0	60	1048572
2026-01-18 12:36:42.24	33.61	4.25	-83.1	-79.0	2.3	0.00e+00	0	48	104	0	60	1048572
2026-01-18 12:36:43.25	33.45	4.30	-83.1	-79.0	2.3	0.00e+00	0	48	104	0	60	1048575
2026-01-18 12:36:44.25	33.29	4.34	-83.5	-79.0	2.3	0.00e+00	0	48	104	0	60	1048575
2026-01-18 12:36:45.26	33.12	4.39	-83.5	-79.0	2.4	0.00e+00	0	48	104	0	60	1048574
2026-01-18 12:36:46.27	32.96	4.43	-83.5	-79.0	2.3	0.00e+00	0	48	104	0	60	1048566
2026-01-18 12:36:47.28	32.79	4.48	-82.8	-79.0	2.4	0.00e+00	0	48	104	0	60	1048574
2026-01-18 12:36:48.28	32.63	4.52	-83.5	-79.0	2.4	0.00e+00	0	48	104	0	60	1048574
2026-01-18 12:36:49.29	32.46	4.57	-83.5	-79.0	2.3	0.00e+00	0	48	104	0	60	1048573
2026-01-18 12:36:50.30	32.29	4.62	-83.5	-79.0	2.4	0.00e+00	0	48	104	0	60	1048574
2026-01-18 12:36:51.31	32.12	4.66	-83.1	-79.0	2.4	0.00e+00	0	48	104	0	60	1048572
2026-01-18 12:36:52.32	31.95	4.71	-83.1	-79.0	2.3	0.00e+00	0	48	104	0	60	1048568
2026-01-18 12:36:53.32	31.78	4.75	-83.5	-79.0	2.4	0.00e+00	0	48	104	0	60	1048575
2026-01-18 12:36:54.33	31.61	4.80	-83.5	-79.0	2.5	0.00e+00	0	48	104	0	60	1048574
2026-01-18 12:36:55.34	31.44	4.84	-83.5	-79.0	2.4	0.00e+00	0	48	104	0	60	1048569
2026-01-18 12:36:56.35	31.27	4.89	-83.5	-79.0	2.2	0.00e+00	0	48	104	0	60	1048575
2026-01-18 12:36:57.35	31.10	4.93	-83.1	-79.0	2.4	0.00e+00	0	48	104	0	60	1048572
2026-01-18 12:36:58.36	30.92	4.98	-83.5	-79.0	2.3	0.00e+00	0	48	104	0	60	1048572
2026-01-18 12:36:59.37	30.75	5.02	-83.5	-79.0	2.4	0.00e+00	0	48	104	0	60	1048574
2026-01-18 12:37:00.38	30.57	5.07	-83.5	-79.0	2.3	0.00e+00	0	48	104	0	60	1048573
2026-01-18 12:37:01.39	30.40	5.11	-82.8	-79.0	2.4	0.00e+00	0	48	104	0	60	1048575
2026-01-18 12:37:02.40	30.22	5.16	-83.5	-79.0	2.4	0.00e+00	0	48	104	0	60	1048572
2026-01-18 12:37:03.41	30.04	5.20	-83.5	-79.0	2.4	0.00e+00	0	48	104	0	60	1048575
2026-01-18 12:37:04.41	29.87	5.24	-83.5	-79.0	2.4	0.00e+00	0	48	104	0	60	1048575
2026-01-18 12:37:05.42	29.69	5.29	-83.5	-79.0	2.4	0.00e+00	0	48	104	0	60	1048574
2026-01-18 12:37:06.42	29.51	5.33	-83.1	-79.0	2.4	0.00e+00	0	48	104	0	60	1048575
2026-01-18 12:37:07.43	29.33	5.38	-83.1	-79.0	2.3	0.00e+00	0	48	104	0	60	1048573
2026-01-18 12:37:08.44	29.15	5.42	-83.5	-79.0	2.4	0.00e+00	0	48	104	0	60	1048574
2026-01-18 12:37:09.45	28.97	5.46	-83.5	-79.0	2.4	0.00e+00	0	48	104	0	60	1048574
2026-01-18 12:37:10.46	28.79	5.51	-83.5	-79.0	2.4	0.00e+00	0	48	104	0	60	1048571
2026-01-18 12:37:11.46	28.61	5.55	-83.1	-79.0	2.3	0.00e+00	0	48	104	0	60	1048571
2026-01-18 12:37:12.47	28.42	5.59	-83.5	-79.0	2.4	0.00e+00	0	48	104	0	60	1048571
2026-01-18 12:37:13.48	28.24	5.64	-83.5	-79.0	2.4	0.00e+00	0	48	104	0	60	1048570
2026-01-18 12:37:14.48	28.06	5.68	-83.5	-79.0	2.4	0.00e+00	0	48	104	0	60	1048575
2026-01-18 12:37:15.49	27.87	5.72	-83.1	-79.0	2.4	0.00e+00	0	48	104	0	60	1048575
2026-01-18 12:37:16.50	27.69	5.76	-83.5	-79.0	2.4	0.00e+00	0	48	104	0	60	1048572
2026-01-18 12:37:17.51	27.50	5.81	-83.5	-79.0	2.5	0.00e+00	0	48	104	0	60	1048573
2026-01-18 12:37:18.52	27.31	5.85	-83.5	-79.0	2.4	0.00e+00	0	48	104	0	60	1048575
2026-01-18 12:37:19.52	27.13	5.89	-83.5	-79.0	2.3	0.00e+00	0	48	104	0	60	1048574
2026-01-18 12:37:20.53	26.94	5.93	-83.1	-79.0	2.5	0.00e+00	0	48	104	0	60	1048571
2026-01-18 12:37:21.54	26.75	5.97	-83.5	-79.0	2.4	0.00e+00	0	48	104	0	60	1048569
2026-01-18 12:37:22.55	26.56	6.02	-83.5	-79.0	2.4	0.00e+00	0	48	104	0	60	1048569
2026-01-18 12:37:23.56	26.37	6.06	-83.5	-79.0	2.4	0.00e+00	0	48	104	0	60	1048575
2026-01-18 12:37:24.56	26.18	6.10	-83.5	-79.0	2.4	0.00e+00	0	48	104	0	60	1048575
2026-01-18 12:37:25.57	25.98	6.14	-83.1	-79.0	2.3	0.00e+00	0	48	104	0	60	1048573
2026-01-18 12:37:26.58	25.79	6.18	-83.5	-79.0	2.4	0.00e+00	0	48	104	0	60	1048563
2026-01-18 12:37:27.59	25.60	6.22	-83.5	-79.0	2.7	0.00e+00	0	48	104	0	60	1048575
2026-01-18 12:37:28.59	25.40	6.26	-83.5	-79.0	2.4	0.00e+00	0	48	104	0	60	1048567
2026-01-18 12:37:29.59	25.21	6.30	-83.1	-79.0	2.3	0.00e+00	0	48	104	0	60	1048573
2026-01-18 12:37:30.60	25.02	6.34	-83.1	-79.0	2.3	0.00e+00	0	48	104	0	60	1048574
2026-01-18 12:37:31.60	24.82	6.38	-83.5	-79.0	2.3	0.00e+00	0	48	104	0	60	1048575
2026-01-18 12:37:32.61	24.62	6.42	-83.5	-79.0	2.3	0.00e+00	0	49	104	0	60	1048572
2026-01-18 12:37:33.62	24.43	6.46	-83.5	-79.0	2.4	0.00e+00	0	48	104	0	60	1048575
2026-01-18 12:37:34.63	24.23	6.50	-83.1	-79.0	2.5	0.00e+00	0	48	104	0	60	1048573
2026-01-18 12:37:35.64	24.03	6.54	-83.5	-79.0	2.3	0.00e+00	0	48	104	0	60	1048573
2026-01-18 12:37:36.65	23.83	6.58	-83.1	-79.0	2.4	0.00e+00	0	49	104	0	60	1048574
2026-01-18 12:37:37.65	23.63	6.62	-83.5	-79.0	2.4	0.00e+00	0	48	104	0	60	1048575
2026-01-18 12:37:38.66	23.43	6.66	-83.5	-79.0	2.4	0.00e+00	0	49	104	0	60	1048569
2026-01-18 12:37:39.67	23.23	6.70	-83.1	-79.0	2.4	0.00e+00	0	49	104	0	60	1048574
2026-01-18 12:37:40.68	23.02	6.74	-83.1	-79.0	2.4	0.00e+00	0	48	104	0	60	1048569
2026-01-18 12:37:41.68	22.82	6.77	-83.5	-79.0	2.4	0.00e+00	0	49	104	0	60	1048574
2026-01-18 12:37:42.69	22.62	6.81	-83.5	-79.0	2.5	0.00e+00	0	48	104	0	60	1048574
2026-01-18 12:37:43.70	22.41	6.85	-83.1	-79.0	2.4	0.00e+00	0	48	104	0	60	1048575
2026-01-18 12:37:44.71	22.21	6.89	-83.1	-79.0	2.4	0.00e+00	0	49	104	0	60	1048572
2026-01-18 12:37:45.72	22.00	6.93	-83.5	-79.0	2.3	0.00e+00	0	48	104	0	60	1048573
2026-01-18 12:37:46.72	21.80	6.96	-83.5	-79.0	2.4	0.00e+00	0	48	104	0	60	1048571
2026-01-18 12:37:47.73	21.59	7.00	-83.1	-79.0	2.4	0.00e+00	0	48	104	0	60	1048569
2026-01-18 12:37:48.73	21.39	7.04	-83.1	-79.0	2.5	0.00e+00	0	48	104	0	60	1048573
2026-01-18 12:37:49.74	21.18	7.07	-83.5	-79.0	2.5	0.00e+00	0	49	104	0	60	1048574
2026-01-18 12:37:50.74	20.97	7.11	-83.1	-79.0	2.4	0.00e+00	0	49	104	0	60	1048575
2026-01-18 12:37:51.75	20.76	7.14	-83.5	-79.0	2.4	0.00e+00	0	48	104	0	60	1048571
2026-01-18 12:37:52.76	20.55	7.18	-83.5	-79.0	2.4	0.00e+00	0	49	104	0	60	1048575
2026-01-18 12:37:53.77	20.34	7.22	-83.1	-79.0	2.4	0.00e+00	0	48	104	0	60	1048571
2026-01-18 12:37:54.77	20.13	7.25	-83.1	-79.0	2.4	0.00e+00	0	48	104	0	60	1048572
2026-01-18 12:37:55.78	19.92	7.29	-83.5	-79.0	2.3	0.00e+00	0	48	104	0	60	1048573
2026-01-18 12:37:56.78	19.71	7.32	-83.5	-79.0	2.4	0.00e+00	0	48	104	0	60	1048570
2026-01-18 12:37:57.79	19.49	7.36	-83.5	-79.0	2.4	0.00e+00	0	48	104	0	60	1048574
2026-01-18 12:37:58.80	19.28	7.39	-83.1	-79.0	2.4	0.00e+00	0	48	104	0	60	1048570
2026-01-18 12:37:59.80	19.06	7.42	-83.5	-79.0	2.3	0.00e+00	0	48	104	0	60	1048562
2026-01-18 12:38:00.81	18.85	7.46	-83.1	-79.0	2.5	0.00e+00	0	48	104	0	60	1048570
2026-01-18 12:38:01.82	18.63	7.49	-83.5	-79.0	2.4	0.00e+00	0	48	104	0	60	1048575
2026-01-18 12:38:02.82	18.42	7.52	-83.1	-79.0	2.4	0.00e+00	0	48	104	0	60	1048574
2026-01-18 12:38:03.83	18.20	7.56	-83.1	-79.0	2.3	0.00e+00	0	48	104	0	60	1048575
2026-01-18 12:38:04.84	17.98	7.59	-83.5	-79.0	2.4	0.00e+00	0	48	104	0	60	1048575
2026-01-18 12:38:05.85	17.76	7.62	-83.5	-79.0	2.4	0.00e+00	0	48	104	0	60	1048569
2026-01-18 12:38:06.85	17.55	7.65	-83.5	-79.0	2.4	0.00e+00	0	48	104	0	60	1048571
2026-01-18 12:38:07.86	17.33	7.69	-83.1	-79.0	2.4	0.00e+00	0	48	104	0	60	1048574
2026-01-18 12:38:08.87	17.11	7.72	-83.5	-79.0	2.5	0.00e+00	0	48	104	0	60	1048573
2026-01-18 12:38:09.87	16.89	7.75	-83.5	-79.0	2.4	0.00e+00	0	49	104	0	60	1048575
2026-01-18 12:38:10.88	16.66	7.78	-83.5	-79.0	2.3	0.00e+00	0	49	104	0	60	1048574
2026-01-18 12:38:11.89	16.44	7.81	-83.5	-79.0	2.4	0.00e+00	0	49	104	0	60	1048566
2026-01-18 12:38:12.89	16.22	7.84	-83.1	-79.0	2.4	0.00e+00	0	49	104	0	60	1048572
2026-01-18 12:38:13.90	16.00	7.87	-83.5	-79.0	2.4	0.00e+00	0	49	104	0	60	1048574
2026-01-18 12:38:14.91	15.77	7.90	-83.5	-79.0	2.5	0.00e+00	0	49	104	0	60	1048566
2026-01-18 12:38:15.92	15.55	7.93	-83.5	-79.0	2.5	0.00e+00	0	49	104	0	60	1048575
2026-01-18 12:38:16.93	15.32	7.96	-83.5	-79.0	2.4	0.00e+00	0	49	104	0	60	1048574
2026-01-18 12:38:17.93	15.10	7.99	-83.1	-79.0	2.5	0.00e+00	0	48	104	0	60	1048575
2026-01-18 12:38:18.94	14.87	8.02	-83.5	-79.0	2.3	0.00e+00	0	48	104	0	60	1048573
2026-01-18 12:38:19.95	14.65	8.05	-83.1	-79.0	2.3	0.00e+00	0	49	104	0	60	1048574
2026-01-18 12:38:20.96	14.42	8.07	-83.5	-79.0	2.4	0.00e+00	0	49	104	0	60	1048572
2026-01-18 12:38:21.96	14.19	8.10	-83.1	-79.0	2.4	0.00e+00	0	49	104	0	60	1048569
2026-01-18 12:38:22.97	13.97	8.13	-83.1	-79.0	2.4	0.00e+00	0	49	104	0	60	1048575
2026-01-18 12:38:23.97	13.74	8.16	-83.5	-79.0	2.5	0.00e+00	0	49	104	0	60	1048575
2026-01-18 12:38:24.98	13.51	8.18	-83.5	-79.0	2.3	0.00e+00	0	49	104	0	60	1048575
2026-01-18 12:38:25.98	13.28	8.21	-83.5	-79.0	2.3	0.00e+00	0	49	104	0	60	1048574
2026-01-18 12:38:26.99	13.05	8.24	-83.1	-79.0	2.4	0.00e+00	0	49	104	0	60	1048571
2026-01-18 12:38:28.00	12.82	8.26	-83.5	-79.0	2.3	0.00e+00	0	49	104	0	60	1048575
2026-01-18 12:38:29.00	12.59	8.29	-83.5	-79.0	2.5	0.00e+00	0	49	104	0	60	1048574
2026-01-18 12:38:30.01	12.36	8.31	-83.5	-79.0	2.4	0.00e+00	0	49	104	0	60	1048571
2026-01-18 12:38:31.02	12.12	8.34	-83.5	-79.0	2.4	0.00e+00	0	48	104	0	60	1048567
2026-01-18 12:38:32.03	11.89	8.36	-83.1	-79.0	2.4	0.00e+00	0	49	104	0	60	1048575
2026-01-18 12:38:33.04	11.66	8.38	-83.1	-79.0	2.3	0.00e+00	0	49	104	0	60	1048573
2026-01-18 12:38:34.04	11.43	8.41	-83.1	-79.0	2.4	0.00e+00	0	49	104	0	60	1048575
2026-01-18 12:38:35.05	11.19	8.43	-83.5	-79.0	2.3	0.00e+00	0	49	104	0	60	1048571
2026-01-18 12:38:36.06	10.96	8.45	-83.5	-79.0	2.4	0.00e+00	0	49	104	0	60	1048569
2026-01-18 12:38:37.06	10.72	8.48	-83.1	-79.0	2.4	0.00e+00	0	49	104	0	60	1048574
2026-01-18 12:38:38.07	10.49	8.50	-83.5	-79.0	2.4	0.00e+00	0	49	104	0	60	1048573
2026-01-18 12:38:39.07	10.25	8.52	-83.5	-79.0	2.4	0.00e+00	0	49	104	0	60	1048574
2026-01-18 12:38:40.08	10.02	8.54	-83.1	-79.0	2.5	0.00e+00	0	49	104	0	60	1048570
2026-01-18 12:38:41.09	9.78	8.56	-82.8	-79.0	2.4	0.00e+00	0	49	104	0	60	1048571
2026-01-18 12:38:42.10	9.54	8.58	-83.1	-79.0	2.4	0.00e+00	0	49	104	0	60	1048575
2026-01-18 12:38:43.10	9.31	8.60	-83.5	-79.0	2.6	0.00e+00	0	49	104	0	60	1048574
2026-01-18 12:38:44.11	9.07	8.62	-83.5	-79.0	2.3	0.00e+00	0	49	104	0	60	1048575
2026-01-18 12:38:45.12	8.83	8.64	-83.5	-79.0	2.6	0.00e+00	0	49	104	0	60	1048571
2026-01-18 12:38:46.12	8.59	8.66	-83.1	-79.0	2.4	0.00e+00	0	49	104	0	60	1048573
2026-01-18 12:38:47.13	8.35	8.68	-83.1	-79.0	2.4	0.00e+00	0	49	104	0	60	1048574
2026-01-18 12:38:48.14	8.11	8.70	-83.5	-79.0	2.4	0.00e+00	0	49	104	0	60	1048569
2026-01-18 12:38:49.15	7.87	8.72	-83.1	-79.0	2.3	0.00e+00	0	49	104	0	60	1048570
2026-01-18 12:38:50.16	7.63	8.74	-83.5	-79.0	2.4	0.00e+00	0	49	104	0	60	1048575
2026-01-18 12:38:51.16	7.39	8.75	-82.8	-79.0	2.4	0.00e+00	0	49	104	0	60	1048570
2026-01-18 12:38:52.17	7.15	8.77	-83.5	-79.0	2.4	0.00e+00	0	49	104	0	60	1048574
2026-01-18 12:38:53.18	6.91	8.79	-83.5	-79.0	2.3	0.00e+00	0	49	104	0	60	1048572
2026-01-18 12:38:54.18	6.67	8.80	-83.5	-79.0	2.3	0.00e+00	0	49	104	0	60	1048575
2026-01-18 12:38:55.19	6.43	8.82	-83.1	-79.0	2.3	0.00e+00	0	49	104	0	60	1048574
2026-01-18 12:38:56.20	6.18	8.83	-83.1	-79.0	2.4	0.00e+00	0	49	104	0	60	1048572
2026-01-18 12:38:57.20	5.94	8.85	-83.5	-79.0	2.4	0.00e+00	0	49	104	0	60	1048575
2026-01-18 12:38:58.21	5.70	8.86	-83.5	-79.0	2.4	0.00e+00	0	49	104	0	60	1048565
2026-01-18 12:38:59.21	5.46	8.88	-83.5	-79.0	2.4	0.00e+00	0	49	104	0	60	1048574
2026-01-18 12:39:00.22	5.21	8.89	-82.8	-79.0	2.4	0.00e+00	0	49	104	0	60	1048573
2026-01-18 12:39:01.23	4.97	8.91	-83.1	-79.0	2.4	0.00e+00	0	49	104	0	60	1048575
2026-01-18 12:39:02.23	4.73	8.92	-83.5	-79.0	2.5	0.00e+00	0	49	104	0	60	1048575
2026-01-18 12:39:03.24	4.48	8.93	-83.5	-79.0	2.4	0.00e+00	0	49	104	0	60	1048575
2026-01-18 12:39:04.24	4.24	8.94	-83.5	-79.0	2.3	0.00e+00	0	49	104	0	60	1048573
2026-01-18 12:39:05.25	3.99	8.95	-83.1	-79.0	2.4	0.00e+00	0	49	104	0	60	1048575
2026-01-18 12:39:06.25	3.75	8.97	-83.1	-79.0	2.4	0.00e+00	0	49	104	0	60	1048574
2026-01-18 12:39:07.26	3.50	8.98	-83.1	-79.0	2.2	0.00e+00	0	49	104	0	60	1048571
2026-01-18 12:39:08.27	3.26	8.99	-83.5	-79.0	2.5	0.00e+00	0	49	104	0	60	1048573
2026-01-18 12:39:09.28	3.01	9.00	-83.5	-79.0	2.4	0.00e+00	0	49	104	0	60	1048571
2026-01-18 12:39:10.28	2.77	9.01	-83.1	-79.0	2.3	0.00e+00	0	49	104	0	60	1048574
2026-01-18 12:39:11.28	2.52	9.02	-83.5	-79.0	2.4	0.00e+00	0	49	104	0	60	1048572
2026-01-18 12:39:12.29	2.28	9.02	-83.5	-79.0	2.4	0.00e+00	0	49	104	0	60	1048574
2026-01-18 12:39:13.30	2.03	9.03	-83.1	-79.0	2.4	0.00e+00	0	49	104	0	60	1048575
2026-01-18 12:39:14.31	1.78	9.04	-83.1	-79.0	2.4	0.00e+00	0	49	104	0	60	1048575
2026-01-18 12:39:15.32	1.53	9.05	-83.5	-79.0	2.5	0.00e+00	0	49	104	0	60	1048572
2026-01-18 12:39:16.32	1.29	9.06	-83.5	-79.0	2.4	0.00e+00	0	49	104	0	60	1048574
2026-01-18 12:39:17.33	1.04	9.06	-83.1	-79.0	2.3	0.00e+00	0	49	104	0	60	1048575
2026-01-18 12:39:18.34	0.79	9.07	-83.5	-79.0	2.4	0.00e+00	0	49	104	0	60	1048559
2026-01-18 12:39:19.35	0.55	9.07	-83.1	-79.0	2.3	0.00e+00	0	49	104	0	60	1048573
2026-01-18 12:39:20.36	0.30	9.08	-83.1	-79.0	2.4	0.00e+00	0	49	104	0	60	1048574
2026-01-18 12:39:21.37	0.05	9.08	-83.5	-79.0	2.4	0.00e+00	0	49	104	0	60	1048571
2026-01-18 12:39:22.37	359.80	9.09	-83.5	-79.0	2.3	0.00e+00	0	49	104	0	60	1048574
2026-01-18 12:39:23.38	359.55	9.09	-83.5	-79.0	2.4	0.00e+00	0	49	104	0	60	1048566
2026-01-18 12:39:24.39	359.31	9.10	-83.1	-79.0	2.4	0.00e+00	0	49	104	0	60	1048574
2026-01-18 12:39:25.39	359.06	9.10	-83.5	-79.0	2.3	0.00e+00	0	49	104	0	60	1048574
2026-01-18 12:39:26.40	358.81	9.10	-83.5	-79.0	2.4	0.00e+00	0	49	104	0	60	1048573
2026-01-18 12:39:27.41	358.56	9.11	-83.5	-79.0	2.4	0.00e+00	0	49	104	0	60	1048575
2026-01-18 12:39:28.41	358.32	9.11	-83.5	-79.0	2.4	0.00e+00	0	49	104	0	60	1048565
2026-01-18 12:39:29.42	358.07	9.11	-83.1	-79.0	2.4	0.00e+00	0	49	104	0	60	1048573
2026-01-18 12:39:30.42	357.82	9.11	-83.5	-79.0	2.3	0.00e+00	0	49	104	0	60	1048573
2026-01-18 12:39:31.43	357.57	9.11	-83.5	-79.0	2.4	0.00e+00	0	49	104	0	60	1048572
2026-01-18 12:39:32.44	357.32	9.11	-83.5	-79.0	2.4	0.00e+00	0	49	104	0	60	1048572
2026-01-18 12:39:33.44	357.08	9.11	-83.1	-79.0	2.4	0.00e+00	0	49	104	0	60	1048575
2026-01-18 12:39:34.45	356.83	9.11	-83.1	-79.0	2.4	0.00e+00	0	49	104	0	60	1048572
2026-01-18 12:39:35.46	356.58	9.11	-83.5	-79.0	2.4	0.00e+00	0	49	104	0	60	1048575
2026-01-18 12:39:36.47	356.33	9.11	-83.1	-79.0	2.4	0.00e+00	0	49	104	0	60	1048570
2026-01-18 12:39:37.48	356.08	9.11	-83.5	-79.0	2.5	0.00e+00	0	49	104	0	60	1048574
2026-01-18 12:39:38.48	355.84	9.10	-83.1	-79.0	2.4	0.00e+00	0	49	104	0	60	1048564
2026-01-18 12:39:39.49	355.59	9.10	-83.1	-79.0	2.4	0.00e+00	0	49	104	0	60	1048571
2026-01-18 12:39:40.50	355.34	9.10	-83.5	-79.0	2.4	0.00e+00	0	49	104	0	60	1048575
2026-01-18 12:39:41.51	355.09	9.09	-83.5	-79.0	2.3	0.00e+00	0	49	104	0	60	1048573
2026-01-18 12:39:42.51	354.84	9.09	-83.1	-79.0	2.3	0.00e+00	0	49	104	0	60	1048573
2026-01-18 12:39:43.52	354.60	9.08	-83.1	-79.0	2.4	0.00e+00	0	49	104	0	60	1048572
2026-01-18 12:39:44.53	354.35	9.08	-83.5	-79.0	2.4	0.00e+00	0	49	104	0	60	1048575
2026-01-18 12:39:45.53	354.10	9.07	-83.5	-79.0	2.5	0.00e+00	0	49	104	0	60	1048575
2026-01-18 12:39:46.54	353.85	9.07	-83.1	-79.0	2.2	0.00e+00	0	49	104	0	60	1048574
2026-01-18 12:39:47.55	353.61	9.06	-83.1	-79.0	2.5	0.00e+00	0	49	104	0	60	1048566
2026-01-18 12:39:48.55	353.36	9.05	-83.1	-79.0	2.3	0.00e+00	0	49	104	0	60	1048574
2026-01-18 12:39:49.56	353.11	9.05	-83.1	-79.0	2.4	0.00e+00	0	49	104	0	60	1048575
2026-01-18 12:39:50.57	352.87	9.04	-83.5	-79.0	2.4	0.00e+00	0	49	104	0	60	1048563
2026-01-18 12:39:51.58	352.62	9.03	-83.5	-79.0	2.4	0.00e+00	0	49	104	0	60	1048569
2026-01-18 12:39:52.59	352.37	9.02	-83.1	-79.0	2.4	0.00e+00	0	49	104	0	60	1048575
2026-01-18 12:39:53.59	352.13	9.01	-82.8	-79.0	2.3	0.00e+00	0	49	104	0	60	1048571
2026-01-18 12:39:54.60	351.88	9.01	-83.5	-79.0	2.4	0.00e+00	0	49	104	0	60	1048571
2026-01-18 12:39:55.61	351.63	9.00	-83.5	-79.0	2.4	0.00e+00	0	49	104	0	60	1048574
2026-01-18 12:39:56.62	351.39	8.99	-83.5	-79.0	2.4	0.00e+00	0	49	104	0	60	1048569
2026-01-18 12:39:57.62	351.14	8.98	-82.8	-79.0	2.3	0.00e+00	0	49	104	0	60	1048574
2026-01-18 12:39:58.62	350.90	8.96	-83.5	-79.0	2.4	0.00e+00	0	49	104	0	60	1048575
2026-01-18 12:39:59.63	350.65	8.95	-83.5	-79.0	2.3	0.00e+00	0	49	104	0	60	1048563
2026-01-18 12:40:00.64	350.41	8.94	-83.1	-79.0	2.3	0.00e+00	0	49	104	0	60	1048569
2026-01-18 12:40:01.64	350.17	8.93	-83.5	-79.0	2.4	0.00e+00	0	49	104	0	60	1048573
2026-01-18 12:40:02.65	349.92	8.92	-83.1	-79.0	2.4	0.00e+00	0	49	104	0	60	1048574
2026-01-18 12:40:03.66	349.68	8.90	-83.5	-79.0	2.3	0.00e+00	0	49	104	0	60	1048573
2026-01-18 12:40:04.67	349.43	8.89	-83.5	-79.0	2.4	0.00e+00	0	49	104	0	60	1048575
2026-01-18 12:40:05.67	349.19	8.88	-83.5	-79.0	2.4	0.00e+00	0	49	104	0	60	1048572
2026-01-18 12:40:06.68	348.95	8.86	-83.1	-79.0	2.4	0.00e+00	0	49	104	0	60	1048573
2026-01-18 12:40:07.69	348.70	8.85	-83.5	-79.0	2.4	0.00e+00	0	49	104	0	60	1048558
2026-01-18 12:40:08.70	348.46	8.83	-83.5	-79.0	2.4	0.00e+00	0	49	104	0	60	1048574
2026-01-18 12:40:09.70	348.22	8.82	-83.5	-79.0	2.4	0.00e+00	0	49	104	0	60	1048573
2026-01-18 12:40:10.71	347.98	8.80	-83.5	-79.0	2.4	0.00e+00	0	49	104	0	60	1048569
2026-01-18 12:40:11.72	347.73	8.78	-83.1	-79.0	2.4	0.00e+00	0	49	104	0	60	1048572
2026-01-18 12:40:12.73	347.49	8.77	-83.1	-79.0	2.3	0.00e+00	0	49	104	0	60	1048575
2026-01-18 12:40:13.74	347.25	8.75	-83.5	-79.0	2.3	0.00e+00	0	49	104	0	60	1048568
2026-01-18 12:40:14.75	347.01	8.73	-83.5	-79.0	2.4	0.00e+00	0	49	104	0	60	1048573
2026-01-18 12:40:15.76	346.77	8.72	-83.5	-79.0	2.3	0.00e+00	0	49	104	0	60	1048573
2026-01-18 12:40:16.76	346.53	8.70	-83.1	-79.0	2.4	0.00e+00	0	49	104	0	60	1048574
2026-01-18 12:40:17.77	346.29	8.68	-83.5	-79.0	2.4	0.00e+00	0	49	104	0	60	1048575
2026-01-18 12:40:18.78	346.05	8.66	-83.5	-79.0	2.5	0.00e+00	0	49	104	0	60	1048574
2026-01-18 12:40:19.78	345.81	8.64	-83.5	-79.0	2.4	0.00e+00	0	49	104	0	60	1048575
2026-01-18 12:40:20.79	345.58	8.62	-83.1	-79.0	2.4	0.00e+00	0	49	104	0	60	1048575
2026-01-18 12:40:21.80	345.34	8.60	-83.5	-79.0	2.4	0.00e+00	0	49	104	0	60	1048573
2026-01-18 12:40:22.80	345.10	8.58	-83.5	-79.0	2.3	0.00e+00	0	49	104	0	60	1048573
2026-01-18 12:40:23.81	344.86	8.56	-83.5	-79.0	2.4	0.00e+00	0	49	104	0	60	1048575
2026-01-18 12:40:24.82	344.63	8.54	-83.1	-79.0	2.4	0.00e+00	0	49	104	0	60	1048574
2026-01-18 12:40:25.82	344.39	8.52	-83.1	-79.0	2.3	0.00e+00	0	49	104	0	60	1048573
2026-01-18 12:40:26.83	344.16	8.50	-83.1	-79.0	2.4	0.00e+00	0	49	104	0	60	1048573
2026-01-18 12:40:27.84	343.92	8.47	-83.5	-79.0	2.4	0.00e+00	0	49	104	0	60	1048573
2026-01-18 12:40:28.84	343.69	8.45	-83.5	-79.0	2.5	0.00e+00	0	49	104	0	60	1048570
2026-01-18 12:40:29.85	343.45	8.43	-83.5	-79.0	2.3	0.00e+00	0	49	104	0	60	1048571
2026-01-18 12:40:30.86	343.22	8.40	-83.1	-79.0	2.4	0.00e+00	0	49	104	0	60	1048563
2026-01-18 12:40:31.87	342.98	8.38	-83.1	-79.0	2.4	0.00e+00	0	49	104	0	60	1048570
2026-01-18 12:40:32.88	342.75	8.36	-83.5	-79.0	2.4	0.00e+00	0	49	104	0	60	1048575
2026-01-18 12:40:33.89	342.52	8.33	-83.1	-79.0	2.3	0.00e+00	0	49	104	0	60	1048560
2026-01-18 12:40:34.89	342.29	8.31	-83.1	-79.0	2.4	0.00e+00	0	49	104	0	60	1048568
2026-01-18 12:40:35.90	342.05	8.28	-83.1	-79.0	2.5	0.00e+00	0	49	104	0	60	1048574
2026-01-18 12:40:36.91	341.82	8.26	-83.5	-79.0	2.4	0.00e+00	0	49	104	0	60	1048575
2026-01-18 12:40:37.92	341.59	8.23	-83.5	-79.0	2.4	0.00e+00	0	49	104	0	60	1048573
2026-01-18 12:40:38.92	341.36	8.20	-83.5	-79.0	2.4	0.00e+00	0	49	104	0	60	1048572
2026-01-18 12:40:39.93	341.13	8.18	-83.1	-79.0	2.4	0.00e+00	0	49	104	0	60	1048573
2026-01-18 12:40:40.94	340.90	8.15	-83.1	-79.0	2.3	0.00e+00	0	49	104	0	60	1048574
2026-01-18 12:40:41.95	340.67	8.12	-83.5	-79.0	2.4	0.00e+00	0	49	104	0	60	1048575
2026-01-18 12:40:42.96	340.45	8.10	-83.5	-79.0	2.3	0.00e+00	0	49	104	0	60	1048568
2026-01-18 12:40:43.96	340.22	8.07	-83.5	-79.0	2.4	0.00e+00	0	49	104	0	60	1048575
2026-01-18 12:40:44.97	339.99	8.04	-83.1	-79.0	2.4	0.00e+00	0	49	104	0	60	1048570
2026-01-18 12:40:45.98	339.77	8.01	-83.5	-79.0	2.4	0.00e+00	0	49	104	0	60	1048574
2026-01-18 12:40:46.99	339.54	7.98	-83.5	-79.0	2.4	0.00e+00	0	49	104	0	60	1048573
2026-01-18 12:40:48.00	339.31	7.95	-83.5	-79.0	2.8	0.00e+00	0	49	104	0	60	1048575
2026-01-18 12:40:49.00	339.09	7.93	-83.5	-79.0	2.3	0.00e+00	0	49	104	0	60	1048573
2026-01-18 12:40:50.01	338.87	7.90	-83.1	-79.0	2.4	0.00e+00	0	49	104	0	60	1048571
2026-01-18 12:40:51.02	338.64	7.87	-83.5	-79.0	2.3	0.00e+00	0	49	104	0	60	1048573
2026-01-18 12:40:52.03	338.42	7.84	-83.5	-79.0	2.4	0.00e+00	0	49	104	0	60	1048565
2026-01-18 12:40:53.03	338.20	7.81	-83.5	-79.0	2.4	0.00e+00	0	49	104	0	60	1048575
2026-01-18 12:40:54.03	337.98	7.77	-83.1	-79.0	2.5	0.00e+00	0	49	104	0	60	1048575
2026-01-18 12:40:55.03	337.76	7.74	-83.1	-79.0	2.4	0.00e+00	0	49	104	0	60	1048564
2026-01-18 12:40:56.04	337.54	7.71	-83.5	-79.0	2.4	0.00e+00	0	49	104	0	60	1048561
2026-01-18 12:40:57.05	337.32	7.68	-83.5	-79.0	2.4	0.00e+00	0	49	104	0	60	1048575
2026-01-18 12:40:58.06	337.10	7.65	-83.5	-79.0	2.4	0.00e+00	0	49	104	0	60	1048572
2026-01-18 12:40:59.06	336.88	7.62	-83.5	-79.0	2.5	0.00e+00	0	49	104	0	60	1048569
2026-01-18 12:41:00.07	336.66	7.58	-83.5	-79.0	2.4	0.00e+00	0	49	104	0	60	1048573
2026-01-18 12:41:01.07	336.44	7.55	-83.5	-79.0	2.4	0.00e+00	0	49	104	0	60	1048574
2026-01-18 12:41:02.08	336.23	7.52	-83.5	-79.0	2.4	0.00e+00	0	49	104	0	60	1048572
2026-01-18 12:41:03.09	336.01	7.49	-83.5	-79.0	2.5	0.00e+00	0	49	104	0	60	1048572
2026-01-18 12:41:04.10	335.79	7.45	-83.1	-79.0	2.6	0.00e+00	0	49	104	0	60	1048564
2026-01-18 12:41:05.11	335.58	7.42	-83.1	-79.0	2.3	0.00e+00	0	49	104	0	60	1048575
2026-01-18 12:41:06.11	335.37	7.38	-83.5	-79.0	2.3	0.00e+00	0	49	104	0	60	1048571
2026-01-18 12:41:07.12	335.15	7.35	-83.5	-79.0	2.3	0.00e+00	0	49	104	0	60	1048574
2026-01-18 12:41:08.13	334.94	7.31	-83.5	-79.0	2.4	0.00e+00	0	49	104	0	60	1048569
2026-01-18 12:41:09.14	334.72	7.28	-83.1	-79.0	2.2	0.00e+00	0	49	104	0	60	1048574
2026-01-18 12:41:10.14	334.51	7.24	-83.5	-79.0	2.4	0.00e+00	0	49	104	0	60	1048573
2026-01-18 12:41:11.15	334.30	7.21	-83.5	-79.0	2.4	0.00e+00	0	49	104	0	60	1048571
2026-01-18 12:41:12.16	334.09	7.17	-83.5	-79.0	2.4	0.00e+00	0	49	104	0	60	1048574
2026-01-18 12:41:13.16	333.88	7.14	-83.1	-79.0	2.5	0.00e+00	0	49	104	0	60	1048572
2026-01-18 12:41:14.17	333.67	7.10	-83.1	-79.0	2.4	0.00e+00	0	49	104	0	60	1048573
2026-01-18 12:41:15.18	333.46	7.07	-83.1	-79.0	2.4	0.00e+00	0	49	104	0	60	1048573
2026-01-18 12:41:16.19	333.26	7.03	-83.5	-79.0	2.3	0.00e+00	0	49	104	0	60	1048575
2026-01-18 12:41:17.20	333.05	6.99	-83.5	-79.0	2.4	0.00e+00	0	49	104	0	60	1048573
2026-01-18 12:41:18.20	332.84	6.96	-83.1	-79.0	2.3	0.00e+00	0	49	104	0	60	1048574
2026-01-18 12:41:19.21	332.64	6.92	-83.5	-79.0	2.3	0.00e+00	0	49	104	0	60	1048570
2026-01-18 12:41:20.22	332.43	6.88	-83.1	-79.0	2.3	0.00e+00	0	49	104	0	60	1048569
2026-01-18 12:41:21.23	332.23	6.84	-83.5	-79.0	2.5	0.00e+00	0	49	104	0	60	1048572
2026-01-18 12:41:22.23	332.02	6.81	-83.1	-79.0	2.3	0.00e+00	0	49	104	0	60	1048573
2026-01-18 12:41:23.24	331.82	6.77	-82.8	-79.0	2.4	0.00e+00	0	49	104	0	60	1048575
2026-01-18 12:41:24.25	331.62	6.73	-83.5	-79.0	2.4	0.00e+00	0	49	104	0	60	1048571
2026-01-18 12:41:25.26	331.41	6.69	-83.5	-79.0	2.4	0.00e+00	0	49	104	0	60	1048569
2026-01-18 12:41:26.26	331.21	6.65	-83.5	-79.0	2.4	0.00e+00	0	49	104	0	60	1048571
2026-01-18 12:41:27.27	331.01	6.61	-83.1	-79.0	2.5	0.00e+00	0	49	104	0	60	1048575
2026-01-18 12:41:28.27	330.81	6.57	-83.1	-79.0	2.4	0.00e+00	0	49	104	0	60	1048572
2026-01-18 12:41:29.28	330.61	6.53	-83.5	-79.0	2.5	0.00e+00	0	49	104	0	60	1048575
2026-01-18 12:41:30.28	330.42	6.50	-83.5	-79.0	2.3	0.00e+00	0	49	104	0	60	1048573
2026-01-18 12:41:31.29	330.22	6.46	-83.5	-79.0	2.4	0.00e+00	0	49	104	0	60	1048575
2026-01-18 12:41:32.30	330.02	6.42	-82.8	-79.0	2.4	0.00e+00	0	49	104	0	60	1048573
2026-01-18 12:41:33.31	329.82	6.38	-83.1	-79.0	2.3	0.00e+00	0	49	104	0	60	1048575
2026-01-18 12:41:34.32	329.63	6.34	-83.5	-79.0	2.5	0.00e+00	0	49	104	0	60	1048572
2026-01-18 12:41:35.32	329.43	6.30	-83.5	-79.0	2.3	0.00e+00	0	49	104	0	60	1048568
2026-01-18 12:41:36.33	329.24	6.25	-83.5	-79.0	2.3	0.00e+00	0	49	104	0	60	1048575
2026-01-18 12:41:37.34	329.04	6.21	-83.1	-79.0	2.7	0.00e+00	0	49	104	0	60	1048572
2026-01-18 12:41:38.35	328.85	6.17	-83.5	-79.0	2.6	0.00e+00	0	49	104	0	60	1048568
2026-01-18 12:41:39.35	328.66	6.13	-83.5	-79.0	2.3	0.00e+00	0	49	104	0	60	1048574
2026-01-18 12:41:40.36	328.47	6.09	-83.5	-79.0	2.4	0.00e+00	0	49	104	0	60	1048575
2026-01-18 12:41:41.37	328.28	6.05	-83.5	-79.0	2.4	0.00e+00	0	49	104	0	60	1048574
2026-01-18 12:41:42.37	328.09	6.01	-83.1	-79.0	2.4	0.00e+00	0	49	104	0	60	1048575
2026-01-18 12:41:43.37	327.90	5.97	-83.5	-79.0	2.4	0.00e+00	0	49	104	0	60	1048573
2026-01-18 12:41:44.38	327.71	5.92	-83.5	-79.0	2.5	0.00e+00	0	49	104	0	60	1048569
2026-01-18 12:41:45.38	327.52	5.88	-83.5	-79.0	2.4	0.00e+00	0	49	104	0	60	1048572
2026-01-18 12:41:46.39	327.33	5.84	-83.1	-79.0	2.4	0.00e+00	0	49	104	0	60	1048574
2026-01-18 12:41:47.39	327.15	5.80	-83.1	-79.0	2.4	0.00e+00	0	49	104	0	60	1048573
2026-01-18 12:41:48.39	326.96	5.76	-83.5	-79.0	2.4	0.00e+00	0	49	104	0	60	1048575
2026-01-18 12:41:49.40	326.78	5.71	-83.5	-79.0	2.4	0.00e+00	0	49	104	0	60	1048567
2026-01-18 12:41:50.40	326.59	5.67	-83.5	-79.0	2.4	0.00e+00	0	49	104	0	60	1048573
2026-01-18 12:41:51.40	326.41	5.63	-82.8	-79.0	2.4	0.00e+00	0	49	104	0	60	1048575
2026-01-18 12:41:52.41	326.23	5.59	-83.1	-79.0	2.2	0.00e+00	0	49	104	0	60	1048567
2026-01-18 12:41:53.42	326.04	5.54	-83.1	-79.0	2.4	0.00e+00	0	49	104	0	60	1048575
2026-01-18 12:41:54.42	325.86	5.50	-83.5	-79.0	2.4	0.00e+00	0	49	104	0	60	1048570
2026-01-18 12:41:55.42	325.68	5.46	-83.5	-79.0	2.3	0.00e+00	0	49	104	0	60	1048575
2026-01-18 12:41:56.42	325.50	5.41	-83.1	-79.0	2.3	0.00e+00	0	49	104	0	60	1048572
2026-01-18 12:41:57.43	325.32	5.37	-83.5	-79.0	2.4	0.00e+00	0	49	104	0	60	1048573
2026-01-18 12:41:58.44	325.14	5.33	-83.5	-79.0	2.5	0.00e+00	0	49	104	0	60	1048574
2026-01-18 12:41:59.44	324.97	5.28	-83.5	-79.0	2.4	0.00e+00	0	49	104	0	60	1048563
2026-01-18 12:42:00.45	324.79	5.24	-83.1	-79.0	2.4	0.00e+00	0	49	104	0	60	1048574
2026-01-18 12:42:01.45	324.61	5.19	-83.1	-79.0	2.2	0.00e+00	0	49	104	0	60	1048572
2026-01-18 12:42:02.46	324.43	5.15	-83.5	-79.0	2.3	0.00e+00	0	49	104	0	60	1048573
2026-01-18 12:42:03.46	324.26	5.11	-83.5	-79.0	2.3	0.00e+00	0	49	104	0	60	1048573
2026-01-18 12:42:04.47	324.08	5.06	-83.5	-79.0	2.4	0.00e+00	0	49	104	0	60	1048573
2026-01-18 12:42:05.47	323.91	5.02	-83.1	-79.0	2.4	0.00e+00	0	49	104	0	60	1048569
2026-01-18 12:42:06.48	323.74	4.97	-83.1	-79.0	2.4	0.00e+00	0	49	104	0	60	1048574
2026-01-18 12:42:07.48	323.56	4.93	-83.5	-79.0	2.3	0.00e+00	0	49	104	0	60	1048575
2026-01-18 12:42:08.49	323.39	4.88	-83.5	-79.0	2.4	0.00e+00	0	49	104	0	60	1048574
2026-01-18 12:42:09.50	323.22	4.84	-83.5	-79.0	2.4	0.00e+00	0	49	104	0	60	1048572
2026-01-18 12:42:10.51	323.05	4.79	-83.1	-79.0	2.4	0.00e+00	0	49	104	0	60	1048572
2026-01-18 12:42:11.51	322.88	4.75	-83.1	-79.0	2.5	0.00e+00	0	49	104	0	60	1048574
2026-01-18 12:42:12.52	322.71	4.70	-83.5	-79.0	2.5	0.00e+00	0	49	104	0	60	1048573
2026-01-18 12:42:13.52	322.54	4.66	-83.1	-79.0	2.3	0.00e+00	0	49	104	0	60	1048575
2026-01-18 12:42:14.53	322.37	4.61	-83.1	-79.0	2.4	0.00e+00	0	49	104	0	60	1048571
2026-01-18 12:42:15.54	322.20	4.57	-82.8	-79.0	2.4	0.00e+00	0	49	104	0	60	1048575
2026-01-18 12:42:16.54	322.04	4.52	-83.5	-79.0	2.4	0.00e+00	0	49	104	0	60	1048570
2026-01-18 12:42:17.55	321.87	4.47	-83.5	-79.0	2.4	0.00e+00	0	49	104	0	60	1048571
2026-01-18 12:42:18.56	321.70	4.43	-83.5	-79.0	2.4	0.00e+00	0	49	104	0	60	1048575
2026-01-18 12:42:19.56	321.54	4.38	-83.5	-79.0	2.4	0.00e+00	0	49	104	0	60	1048566
2026-01-18 12:42:20.56	321.38	4.34	-83.1	-79.0	2.3	0.00e+00	0	49	104	0	60	1048565
2026-01-18 12:42:21.57	321.21	4.29	-83.5	-79.0	2.4	0.00e+00	0	49	104	0	60	1048575
2026-01-18 12:42:22.58	321.05	4.24	-83.5	-79.0	2.4	0.00e+00	0	49	104	0	60	1048572
2026-01-18 12:42:23.59	320.89	4.20	-83.5	-79.0	2.4	0.00e+00	0	49	104	0	60	1048566
2026-01-18 12:42:24.60	320.72	4.15	-83.1	-79.0	2.4	0.00e+00	0	49	104	0	60	1048574
2026-01-18 12:42:25.60	320.56	4.11	-83.1	-79.0	2.4	0.00e+00	0	49	104	0	60	1048575
2026-01-18 12:42:26.61	320.40	4.06	-83.1	-79.0	2.4	0.00e+00	0	49	104	0	60	1048571
2026-01-18 12:42:27.62	320.24	4.01	-83.5	-79.0	2.1	0.00e+00	0	49	104	0	60	1048575
2026-01-18 12:42:28.63	320.08	3.97	-83.5	-79.0	2.4	0.00e+00	0	49	104	0	60	1048575
2026-01-18 12:42:29.64	319.92	3.92	-83.1	-79.0	2.3	0.00e+00	0	49	104	0	60	1048575
2026-01-18 12:42:30.64	319.77	3.87	-83.1	-79.0	2.3	0.00e+00	0	49	104	0	60	1048570
2026-01-18 12:42:31.65	319.61	3.83	-83.5	-79.0	2.3	0.00e+00	0	49	104	0	60	1048574
2026-01-18 12:42:32.66	319.45	3.78	-83.5	-79.0	2.4	0.00e+00	0	49	104	0	60	1048574
2026-01-18 12:42:33.67	319.30	3.73	-83.5	-79.0	2.3	0.00e+00	0	49	104	0	60	1048573
2026-01-18 12:42:34.67	319.14	3.69	-83.1	-79.0	2.4	0.00e+00	0	49	104	0	60	1048574
2026-01-18 12:42:35.68	318.99	3.64	-83.5	-79.0	2.2	0.00e+00	0	49	104	0	60	1048575
2026-01-18 12:42:36.68	318.83	3.59	-83.5	-79.0	2.5	0.00e+00	0	49	104	0	60	1048575
2026-01-18 12:42:37.69	318.68	3.54	-83.5	-79.0	2.4	0.00e+00	0	49	104	0	60	1048572
2026-01-18 12:42:38.70	318.53	3.50	-83.5	-79.0	2.4	0.00e+00	0	49	104	0	60	1048573
2026-01-18 12:42:39.70	318.38	3.45	-83.1	-79.0	2.5	0.00e+00	0	49	104	0	60	1048571
2026-01-18 12:42:40.71	318.22	3.40	-83.5	-79.0	2.4	0.00e+00	0	49	104	0	60	1048565
2026-01-18 12:42:41.72	318.07	3.36	-83.5	-79.0	2.4	0.00e+00	0	49	104	0	60	1048571
2026-01-18 12:42:42.73	317.92	3.31	-83.5	-79.0	2.4	0.00e+00	0	49	104	0	60	1048574
2026-01-18 12:42:43.74	317.77	3.26	-83.1	-79.0	2.2	0.00e+00	0	49	104	0	60	1048572
2026-01-18 12:42:44.74	317.62	3.21	-83.1	-79.0	2.5	0.00e+00	0	49	104	0	60	1048575
2026-01-18 12:42:45.74	317.48	3.17	-83.5	-79.0	2.4	0.00e+00	0	49	104	0	60	1048574
2026-01-18 12:42:46.75	317.33	3.12	-83.1	-79.0	2.3	0.00e+00	0	49	104	0	60	1048571
2026-01-18 12:42:47.75	317.18	3.07	-83.5	-79.0	2.4	0.00e+00	0	49	104	0	60	1048572
2026-01-18 12:42:48.76	317.03	3.02	-83.1	-79.0	2.4	0.00e+00	0	49	104	0	60	1048571
2026-01-18 12:42:49.77	316.89	2.98	-83.5	-79.0	2.5	0.00e+00	0	49	104	0	60	1048574
2026-01-18 12:42:50.77	316.74	2.93	-83.5	-79.0	2.4	0.00e+00	0	49	104	0	60	1048575
2026-01-18 12:42:51.78	316.60	2.88	-83.5	-79.0	2.5	0.00e+00	0	49	104	0	60	1048574
2026-01-18 12:42:52.78	316.46	2.83	-83.5	-79.0	2.5	0.00e+00	0	49	104	0	60	1048574
2026-01-18 12:42:53.78	316.31	2.79	-82.8	-79.0	2.4	0.00e+00	0	49	104	0	60	1048574
2026-01-18 12:42:54.79	316.17	2.74	-83.5	-79.0	2.3	0.00e+00	0	49	104	0	60	1048575
2026-01-18 12:42:55.80	316.03	2.69	-83.5	-79.0	2.4	0.00e+00	0	49	104	0	60	1048573
2026-01-18 12:42:56.80	315.89	2.64	-83.5	-79.0	2.4	0.00e+00	0	49	104	0	60	1048574
2026-01-18 12:42:57.81	315.75	2.60	-83.5	-79.0	2.4	0.00e+00	0	49	104	0	60	1048567
2026-01-18 12:42:58.81	315.61	2.55	-83.1	-79.0	2.4	0.00e+00	0	49	104	0	60	1048573
2026-01-18 12:42:59.82	315.47	2.50	-83.1	-79.0	2.4	0.00e+00	0	49	104	0	60	1048575
2026-01-18 12:43:00.82	315.33	2.45	-83.5	-79.0	2.6	0.00e+00	0	49	104	0	60	1048567
2026-01-18 12:43:01.83	315.19	2.40	-83.5	-79.0	2.3	0.00e+00	0	49	104	0	60	1048574
2026-01-18 12:43:02.83	315.05	2.36	-83.1	-79.0	2.4	0.00e+00	0	49	104	0	60	1048575
2026-01-18 12:43:03.84	314.91	2.31	-83.1	-79.0	2.2	0.00e+00	0	49	104	0	60	1048573
2026-01-18 12:43:04.84	314.78	2.26	-83.5	-79.0	2.4	0.00e+00	0	49	104	0	60	1048575
2026-01-18 12:43:05.85	314.64	2.21	-83.5	-79.0	2.3	0.00e+00	0	49	104	0	60	1048571
2026-01-18 12:43:06.86	314.50	2.16	-83.1	-79.0	2.5	0.00e+00	0	49	104	0	60	1048574
2026-01-18 12:43:07.87	314.37	2.12	-83.1	-79.0	2.4	0.00e+00	0	49	104	0	60	1048573
2026-01-18 12:43:08.87	314.23	2.07	-83.1	-79.0	2.4	0.00e+00	0	49	104	0	60	1048569
2026-01-18 12:43:09.88	314.10	2.02	-83.5	-79.0	2.4	0.00e+00	0	49	104	0	60	1048574
2026-01-18 12:43:10.89	313.97	1.97	-83.5	-79.0	2.4	0.00e+00	0	49	104	0	60	1048574
2026-01-18 12:43:11.90	313.83	1.92	-83.5	-79.0	2.4	0.00e+00	0	49	104	0	60	1048575
2026-01-18 12:43:12.91	313.70	1.88	-83.1	-79.0	2.4	0.00e+00	0	49	104	0	60	1048572
2026-01-18 12:43:13.92	313.57	1.83	-83.5	-79.0	2.3	0.00e+00	0	49	104	0	60	1048572
2026-01-18 12:43:14.92	313.44	1.78	-83.5	-79.0	2.5	0.00e+00	0	49	104	0	60	1048572
2026-01-18 12:43:15.93	313.31	1.73	-83.5	-79.0	2.4	0.00e+00	0	49	104	0	60	1048573
2026-01-18 12:43:16.94	313.18	1.68	-83.1	-79.0	2.4	0.00e+00	0	49	104	0	60	1048575
2026-01-18 12:43:17.95	313.05	1.63	-83.1	-79.0	2.4	0.00e+00	0	49	104	0	60	1048572
2026-01-18 12:43:18.96	312.92	1.59	-83.5	-79.0	2.4	0.00e+00	0	49	104	0	60	1048574
2026-01-18 12:43:19.96	312.79	1.54	-83.5	-79.0	2.5	0.00e+00	0	49	104	0	60	1048574
2026-01-18 12:43:20.97	312.66	1.49	-83.1	-79.0	2.4	0.00e+00	0	49	104	0	60	1048565
2026-01-18 12:43:21.98	312.53	1.44	-83.1	-79.0	2.4	0.00e+00	0	49	104	0	60	1048570
2026-01-18 12:43:22.98	312.41	1.39	-83.5	-79.0	2.4	0.00e+00	0	49	104	0	60	1048575
2026-01-18 12:43:23.98	312.28	1.35	-83.5	-79.0	2.4	0.00e+00	0	49	104	0	60	1048575
2026-01-18 12:43:24.99	312.15	1.30	-83.5	-79.0	2.3	0.00e+00	0	49	104	0	60	1048575
2026-01-18 12:43:26.00	312.03	1.25	-83.1	-79.0	2.3	0.00e+00	0	49	104	0	60	1048565
2026-01-18 12:43:27.00	311.91	1.20	-82.8	-79.0	2.4	0.00e+00	0	49	104	0	60	1048566
2026-01-18 12:43:28.01	311.78	1.15	-83.1	-79.0	2.4	0.00e+00	0	49	104	0	60	1048574
2026-01-18 12:43:29.02	311.66	1.10	-83.5	-79.0	2.4	0.00e+00	0	49	104	0	60	1048573
2026-01-18 12:43:30.02	311.53	1.06	-83.5	-79.0	2.3	0.00e+00	0	49	104	0	60	1048572
2026-01-18 12:43:31.02	311.41	1.01	-83.5	-79.0	2.4	0.00e+00	0	49	104	0	60	1048575
2026-01-18 12:43:32.02	311.29	0.96	-83.1	-79.0	2.5	0.00e+00	0	49	104	0	60	1048573
2026-01-18 12:43:33.03	311.17	0.91	-83.5	-79.0	2.3	0.00e+00	0	49	104	0	60	1048572
2026-01-18 12:43:34.03	311.05	0.86	-83.5	-79.0	2.5	0.00e+00	0	49	104	0	60	1048567
2026-01-18 12:43:35.04	310.93	0.82	-83.5	-79.0	2.3	0.00e+00	0	49	104	0	60	1048568
2026-01-18 12:43:36.04	310.81	0.77	-83.1	-79.0	2.3	0.00e+00	0	49	104	0	60	1048564
2026-01-18 12:43:37.05	310.69	0.72	-83.5	-79.0	2.4	0.00e+00	0	49	104	0	60	1048575
2026-01-18 12:43:38.06	310.57	0.67	-83.1	-79.0	2.4	0.00e+00	0	49	104	0	60	1048575
2026-01-18 12:43:39.07	310.45	0.62	-83.5	-79.0	2.4	0.00e+00	0	49	104	0	60	1048575
2026-01-18 12:43:40.07	310.33	0.58	-83.1	-79.0	2.4	0.00e+00	0	49	104	0	60	1048574
2026-01-18 12:43:41.08	310.22	0.53	-83.1	-79.0	2.3	0.00e+00	0	49	104	0	60	1048574
2026-01-18 12:43:42.09	310.10	0.48	-83.5	-79.0	2.4	0.00e+00	0	49	104	0	60	1048574
2026-01-18 12:43:43.10	309.98	0.43	-83.5	-79.0	2.4	0.00e+00	0	49	104	0	60	1048574
2026-01-18 12:43:44.10	309.87	0.38	-83.5	-79.0	2.4	0.00e+00	0	49	104	0	60	1048575
2026-01-18 12:43:45.12	309.75	0.33	-83.5	-79.0	2.3	0.00e+00	0	49	104	0	60	1048575
2026-01-18 12:43:46.12	309.63	0.29	-82.8	-79.0	2.4	0.00e+00	0	49	104	0	60	1048574
2026-01-18 12:43:47.13	309.52	0.24	-83.5	-79.0	2.4	0.00e+00	0	49	104	0	60	1048575
2026-01-18 12:43:48.14	309.40	0.19	-83.5	-79.0	2.4	0.00e+00	0	49	104	0	60	1048560
2026-01-18 12:43:49.15	309.29	0.14	-83.5	-79.0	2.3	0.00e+00	0	49	104	0	60	1048567
2026-01-18 12:43:50.16	309.18	0.09	-83.5	-79.0	2.5	0.00e+00	0	49	104	0	60	1048572
2026-01-18 12:43:51.16	309.07	0.05	-83.1	-79.0	2.6	0.00e+00	0	49	104	0	60	1048574
2026-01-18 12:43:52.17	308.95	-0.00	-83.5	-79.0	2.3	0.00e+00	0	49	104	0	60	1048572
2026-01-18 12:43:53.18	308.84	-0.05	-83.5	-79.0	2.6	0.00e+00	0	49	104	0	60	1048568
2026-01-18 12:43:54.18	308.73	-0.10	-83.5	-79.0	2.4	0.00e+00	0	49	104	0	60	1048573

#Closed at: 2026-01-18 12:43:55
#Recorded file [0 MB]: D:/Data/35015_260118_153517.dat