passes_logs/2026/01/18/R3.2S-Naryan-Mar/R3.2S-Naryan-Mar__20260118_101144_SUOMI_NPP_rec.log

#Pass ID: 20260118_101144_SUOMI NPP
#Satellite: SUOMI NPP
#Configuration: NPP
#almurnet v.1.7.20240730
#Start time: 2026-01-18 10:11:47

#Version: 2.2.20231116
#Station: R3.2S-Naryan-Mar
#Location: 53.008057 lon 67.646978 lat
#TLE: 1 37849U 11061A   26017.28905266  .00000074  00000+0  55894-4 0  9999
#TLE: 2 37849  98.7814 319.3179 0002408  59.7048 300.4366 14.19525847737038

#Time	Az	El	Level	Level2	SNR	BER	BlckErr	Temp	State	Recorded	gain1	gain2
2026-01-18 10:11:47.44	198.08	0.15	-82.8	-79.0	2.5	0.00e+00	0	45	0	0	60	1048575
2026-01-18 10:11:48.45	198.14	0.20	-85.2	-88.6	3.0	1.56e+00	0	46	104	0	60	1048575
2026-01-18 10:11:49.45	198.19	0.26	-85.2	-88.6	2.9	1.56e+00	0	46	104	0	60	1048575
2026-01-18 10:11:50.46	198.24	0.32	-85.2	-88.6	3.1	1.56e+00	0	46	104	0	60	1048575
2026-01-18 10:11:51.47	198.29	0.37	-85.2	-88.6	3.1	1.55e+00	0	46	104	0	60	1048575
2026-01-18 10:11:52.48	198.35	0.43	-85.2	-88.6	3.0	1.56e+00	0	46	104	0	60	1048570
2026-01-18 10:11:53.49	198.40	0.48	-85.2	-88.6	3.0	1.56e+00	0	46	104	0	60	1048575
2026-01-18 10:11:54.49	198.45	0.54	-85.2	-88.6	3.1	1.56e+00	0	46	104	0	60	1048575
2026-01-18 10:11:55.50	198.51	0.60	-85.2	-88.6	3.0	1.56e+00	0	46	104	0	60	1048575
2026-01-18 10:11:56.51	198.56	0.65	-85.2	-88.6	3.2	1.56e+00	0	46	104	0	60	1048573
2026-01-18 10:11:57.51	198.61	0.71	-85.2	-88.6	2.8	1.56e+00	0	46	104	0	60	1048575
2026-01-18 10:11:58.52	198.67	0.77	-85.2	-88.6	3.1	1.56e+00	0	46	104	0	60	1048574
2026-01-18 10:11:59.52	198.72	0.82	-85.2	-88.6	3.0	1.56e+00	0	46	104	0	60	1048575
2026-01-18 10:12:00.53	198.77	0.88	-85.2	-88.6	3.0	1.55e+00	0	46	104	0	60	1048573
2026-01-18 10:12:01.54	198.83	0.94	-84.3	-88.6	3.0	1.55e+00	0	46	104	0	60	1048574
2026-01-18 10:12:02.55	198.88	0.99	-85.2	-88.6	2.9	1.55e+00	0	46	104	0	60	1048575
2026-01-18 10:12:03.55	198.94	1.05	-85.2	-88.6	2.9	1.56e+00	0	46	104	0	60	1048573
2026-01-18 10:12:04.56	198.99	1.11	-85.2	-88.6	3.1	1.56e+00	0	46	104	0	60	1048574
2026-01-18 10:12:05.57	199.05	1.17	-85.2	-88.6	3.1	1.56e+00	0	46	104	0	60	1048574
2026-01-18 10:12:06.57	199.10	1.22	-85.2	-88.6	3.1	1.55e+00	0	46	104	0	60	1048575
2026-01-18 10:12:07.58	199.16	1.28	-85.2	-88.6	3.0	1.56e+00	0	46	104	0	60	1048574
2026-01-18 10:12:08.59	199.21	1.34	-85.2	-88.6	3.0	1.56e+00	0	46	104	0	60	1048570
2026-01-18 10:12:09.60	199.27	1.40	-85.2	-88.6	3.1	1.56e+00	0	46	104	0	60	1048573
2026-01-18 10:12:10.60	199.33	1.45	-85.2	-88.6	3.0	1.56e+00	0	46	104	0	60	1048573
2026-01-18 10:12:11.61	199.38	1.51	-85.2	-88.6	3.1	1.56e+00	0	46	104	0	60	1048571
2026-01-18 10:12:12.61	199.44	1.57	-85.2	-88.6	3.1	1.55e+00	0	46	104	0	60	1048573
2026-01-18 10:12:13.62	199.50	1.63	-85.2	-88.6	2.9	1.55e+00	0	46	104	0	60	1048575
2026-01-18 10:12:14.63	199.55	1.69	-85.2	-88.6	3.1	1.55e+00	0	46	104	0	60	1048574
2026-01-18 10:12:15.64	199.61	1.74	-85.2	-88.6	3.2	1.55e+00	0	47	104	0	60	1048573
2026-01-18 10:12:16.65	199.67	1.80	-85.2	-88.6	2.9	1.56e+00	0	47	104	0	60	1048575
2026-01-18 10:12:17.65	199.73	1.86	-85.2	-88.6	2.9	1.56e+00	0	47	104	0	60	1048575
2026-01-18 10:12:18.66	199.78	1.92	-85.2	-88.6	2.9	1.55e+00	0	47	104	0	60	1048574
2026-01-18 10:12:19.66	199.84	1.98	-85.2	-88.6	3.0	1.56e+00	0	46	104	0	60	1048572
2026-01-18 10:12:20.67	199.90	2.04	-85.2	-88.6	2.9	1.55e+00	0	46	104	0	60	1048574
2026-01-18 10:12:21.68	199.96	2.10	-85.2	-88.6	2.9	1.55e+00	0	47	104	0	60	1048575
2026-01-18 10:12:22.69	200.02	2.15	-85.2	-88.6	2.9	1.56e+00	0	47	104	0	60	1048575
2026-01-18 10:12:23.70	200.08	2.21	-85.2	-88.6	2.8	1.56e+00	0	47	104	0	60	1048574
2026-01-18 10:12:24.71	200.14	2.27	-85.2	-88.6	3.0	1.56e+00	0	47	104	0	60	1048573
2026-01-18 10:12:25.71	200.19	2.33	-85.2	-88.6	2.8	1.56e+00	0	47	104	0	60	1048575
2026-01-18 10:12:26.72	200.25	2.39	-85.2	-88.6	2.9	1.56e+00	0	47	104	0	60	1048575
2026-01-18 10:12:27.73	200.31	2.45	-85.2	-88.6	3.0	1.56e+00	0	47	104	0	60	1048575
2026-01-18 10:12:28.73	200.37	2.51	-85.2	-88.6	3.0	1.56e+00	0	47	104	0	60	1048575
2026-01-18 10:12:29.74	200.43	2.57	-85.2	-88.6	3.0	1.56e+00	0	46	104	0	60	1048575
2026-01-18 10:12:30.74	200.49	2.63	-85.2	-88.6	3.1	1.55e+00	0	47	104	0	60	1048574
2026-01-18 10:12:31.75	200.56	2.69	-85.2	-88.6	3.0	1.56e+00	0	46	104	0	60	1048564
2026-01-18 10:12:32.76	200.62	2.75	-85.2	-88.6	2.9	1.56e+00	0	47	104	0	60	1048575
2026-01-18 10:12:33.77	200.68	2.81	-85.2	-88.6	2.9	1.56e+00	0	46	104	0	60	1048575
2026-01-18 10:12:34.78	200.74	2.87	-85.2	-88.6	3.0	1.55e+00	0	47	104	0	60	1048575
2026-01-18 10:12:35.79	200.80	2.93	-85.2	-88.6	3.0	1.55e+00	0	47	104	0	60	1048575
2026-01-18 10:12:36.80	200.86	2.99	-85.2	-88.6	3.1	1.56e+00	0	47	104	0	60	1048575
2026-01-18 10:12:37.81	200.93	3.05	-85.2	-88.6	3.0	1.56e+00	0	47	104	0	60	1048575
2026-01-18 10:12:38.81	200.99	3.11	-85.2	-88.6	3.0	1.55e+00	0	47	104	0	60	1048575
2026-01-18 10:12:39.81	201.05	3.17	-84.7	-88.6	3.1	1.56e+00	0	47	104	0	60	1048573
2026-01-18 10:12:40.82	201.11	3.23	-85.2	-88.6	2.9	1.56e+00	0	46	104	0	60	1048575
2026-01-18 10:12:41.83	201.18	3.29	-85.2	-88.6	3.0	1.56e+00	0	47	104	0	60	1048575
2026-01-18 10:12:42.84	201.24	3.36	-85.2	-88.6	2.9	1.56e+00	0	47	104	0	60	1048575
2026-01-18 10:12:43.85	201.30	3.42	-85.2	-88.6	3.2	1.56e+00	0	47	104	0	60	1048575
2026-01-18 10:12:44.85	201.37	3.48	-85.2	-88.6	2.9	1.56e+00	0	47	104	0	60	1048573
2026-01-18 10:12:45.86	201.43	3.54	-84.3	-88.6	2.9	1.56e+00	0	47	104	0	60	1048574
2026-01-18 10:12:46.87	201.50	3.60	-85.2	-88.6	3.1	1.56e+00	0	47	104	0	60	1048575
2026-01-18 10:12:47.87	201.56	3.66	-85.2	-88.6	3.1	1.55e+00	0	47	104	0	60	1048575
2026-01-18 10:12:48.88	201.62	3.72	-85.2	-88.6	3.2	1.55e+00	0	47	104	0	60	1048575
2026-01-18 10:12:49.88	201.69	3.79	-85.2	-88.6	3.1	1.56e+00	0	47	104	0	60	1048575
2026-01-18 10:12:50.89	201.76	3.85	-85.2	-88.6	3.1	1.55e+00	0	47	104	0	60	1048574
2026-01-18 10:12:51.89	201.82	3.91	-85.2	-88.6	2.8	1.55e+00	0	47	104	0	60	1048575
2026-01-18 10:12:52.90	201.89	3.97	-85.2	-88.6	2.8	1.55e+00	0	47	104	0	60	1048575
2026-01-18 10:12:53.90	201.95	4.03	-85.2	-88.6	3.0	1.55e+00	0	47	104	0	60	1048575
2026-01-18 10:12:54.91	202.02	4.10	-85.2	-88.6	2.9	1.56e+00	0	47	104	0	60	1048574
2026-01-18 10:12:55.91	202.09	4.16	-85.2	-88.6	2.9	1.55e+00	0	47	104	0	60	1048575
2026-01-18 10:12:56.92	202.15	4.22	-85.2	-88.6	3.0	1.55e+00	0	47	104	0	60	1048575
2026-01-18 10:12:57.92	202.22	4.28	-85.2	-88.6	2.9	1.56e+00	0	46	104	0	60	1048574
2026-01-18 10:12:58.93	202.29	4.35	-85.2	-88.6	3.0	1.56e+00	0	47	104	0	60	1048569
2026-01-18 10:12:59.93	202.35	4.41	-85.2	-88.6	3.1	1.55e+00	0	47	104	0	60	1048574
2026-01-18 10:13:00.94	202.42	4.47	-85.2	-88.6	3.0	1.55e+00	0	46	104	0	60	1048575
2026-01-18 10:13:01.94	202.49	4.53	-83.1	-88.6	2.9	1.55e+00	0	47	104	0	60	1048575
2026-01-18 10:13:02.94	202.56	4.60	-85.2	-88.6	2.8	1.55e+00	0	47	104	0	60	1048574
2026-01-18 10:13:03.95	202.63	4.66	-85.2	-88.6	3.0	1.55e+00	0	47	104	0	60	1048575
2026-01-18 10:13:04.95	202.70	4.72	-85.2	-88.6	3.3	1.55e+00	0	47	104	0	60	1048572
2026-01-18 10:13:05.95	202.77	4.79	-85.2	-88.6	3.0	1.56e+00	0	47	104	0	60	1048572
2026-01-18 10:13:06.96	202.84	4.85	-82.8	-88.6	3.0	1.55e+00	0	47	104	0	60	1048575
2026-01-18 10:13:07.97	202.91	4.92	-85.2	-88.6	2.9	1.55e+00	0	47	104	0	60	1048572
2026-01-18 10:13:08.97	202.98	4.98	-85.2	-88.6	3.0	1.56e+00	0	47	104	0	60	1048573
2026-01-18 10:13:09.98	203.05	5.04	-85.2	-88.6	3.0	1.56e+00	0	47	104	0	60	1048574
2026-01-18 10:13:10.99	203.12	5.11	-84.3	-88.6	3.0	1.56e+00	0	47	104	0	60	1048574
2026-01-18 10:13:12.00	203.19	5.17	-85.2	-88.6	2.9	1.56e+00	0	47	104	0	60	1048575
2026-01-18 10:13:13.00	203.26	5.24	-85.2	-88.6	3.0	1.55e+00	0	47	104	0	60	1048575
2026-01-18 10:13:14.01	203.33	5.30	-85.2	-88.6	3.0	1.56e+00	0	47	104	0	60	1048573
2026-01-18 10:13:15.01	203.40	5.36	-85.2	-88.6	2.9	1.56e+00	0	47	104	0	60	1048575
2026-01-18 10:13:16.02	203.48	5.43	-85.2	-88.6	3.1	1.56e+00	0	47	104	0	60	1048575
2026-01-18 10:13:17.03	203.55	5.50	-85.2	-88.6	3.0	1.56e+00	0	47	104	0	60	1048575
2026-01-18 10:13:18.03	203.62	5.56	-85.2	-88.6	2.8	1.56e+00	0	47	104	0	60	1048574
2026-01-18 10:13:19.04	203.69	5.63	-85.2	-88.6	3.0	1.56e+00	0	47	104	0	60	1048575
2026-01-18 10:13:20.04	203.77	5.69	-85.2	-88.6	3.0	1.56e+00	0	47	104	0	60	1048574
2026-01-18 10:13:21.05	203.84	5.76	-85.2	-88.6	3.2	1.56e+00	0	47	104	0	60	1048575
2026-01-18 10:13:22.06	203.92	5.82	-84.7	-88.6	2.9	1.55e+00	0	47	104	0	60	1048575
2026-01-18 10:13:23.06	203.99	5.89	-85.2	-88.6	2.9	1.56e+00	0	47	104	0	60	1048575
2026-01-18 10:13:24.07	204.07	5.95	-85.2	-88.6	3.2	1.56e+00	0	47	104	0	60	1048574
2026-01-18 10:13:25.08	204.14	6.02	-85.2	-88.6	2.9	1.56e+00	0	47	104	0	60	1048575
2026-01-18 10:13:26.08	204.22	6.08	-83.5	-88.6	3.1	1.56e+00	0	47	104	0	60	1048575
2026-01-18 10:13:27.08	204.29	6.15	-83.9	-88.6	3.2	1.56e+00	0	47	104	0	60	1048575
2026-01-18 10:13:28.09	204.37	6.22	-85.2	-88.6	3.0	1.56e+00	0	47	104	0	60	1048575
2026-01-18 10:13:29.09	204.44	6.28	-85.2	-88.6	3.2	1.55e+00	0	47	104	0	60	1048575
2026-01-18 10:13:30.10	204.52	6.35	-85.2	-88.6	3.0	1.56e+00	0	47	104	0	60	1048575
2026-01-18 10:13:31.10	204.60	6.42	-85.2	-88.6	3.0	1.56e+00	0	47	104	0	60	1048572
2026-01-18 10:13:32.11	204.68	6.48	-85.2	-88.6	2.9	1.56e+00	0	47	104	0	60	1048575
2026-01-18 10:13:33.11	204.75	6.55	-85.2	-88.6	3.0	1.56e+00	0	47	104	0	60	1048574
2026-01-18 10:13:34.12	204.83	6.62	-85.2	-88.6	2.9	1.56e+00	0	47	104	0	60	1048575
2026-01-18 10:13:35.12	204.91	6.68	-85.2	-88.6	3.0	1.55e+00	0	47	104	0	60	1048575
2026-01-18 10:13:36.12	204.99	6.75	-85.2	-88.6	2.9	1.55e+00	0	47	104	0	60	1048574
2026-01-18 10:13:37.12	205.07	6.82	-85.2	-88.6	3.0	1.56e+00	0	47	104	0	60	1048575
2026-01-18 10:13:38.12	205.15	6.89	-85.2	-88.6	3.1	1.55e+00	0	47	104	0	60	1048574
2026-01-18 10:13:39.13	205.23	6.95	-85.2	-88.6	2.9	1.56e+00	0	47	104	0	60	1048575
2026-01-18 10:13:40.14	205.31	7.02	-85.2	-88.6	2.9	1.56e+00	0	47	104	0	60	1048573
2026-01-18 10:13:41.15	205.39	7.09	-82.8	-88.6	3.0	1.55e+00	0	47	104	0	60	1048574
2026-01-18 10:13:42.15	205.47	7.16	-84.3	-88.6	3.2	1.56e+00	0	47	104	0	60	1048574
2026-01-18 10:13:43.15	205.55	7.23	-85.2	-88.6	3.1	1.56e+00	0	47	104	0	60	1048575
2026-01-18 10:13:44.16	205.63	7.29	-85.2	-88.6	3.1	1.56e+00	0	47	104	0	60	1048575
2026-01-18 10:13:45.17	205.71	7.36	-85.2	-88.6	2.9	1.55e+00	0	47	104	0	60	1048575
2026-01-18 10:13:46.18	205.80	7.43	-85.2	-88.6	3.0	1.56e+00	0	47	104	0	60	1048575
2026-01-18 10:13:47.18	205.88	7.50	-85.2	-88.6	3.0	1.56e+00	0	47	104	0	60	1048574
2026-01-18 10:13:48.19	205.96	7.57	-85.2	-88.6	2.9	1.56e+00	0	47	104	0	60	1048575
2026-01-18 10:13:49.20	206.04	7.64	-85.2	-88.6	3.0	1.56e+00	0	47	104	0	60	1048574
2026-01-18 10:13:50.21	206.13	7.71	-85.2	-88.6	3.0	1.56e+00	0	47	104	0	60	1048574
2026-01-18 10:13:51.22	206.21	7.78	-85.2	-88.6	3.0	1.55e+00	0	47	104	0	60	1048574
2026-01-18 10:13:52.22	206.30	7.85	-85.2	-88.6	3.0	1.55e+00	0	47	104	0	60	1048569
2026-01-18 10:13:53.22	206.38	7.92	-85.2	-88.6	2.8	1.56e+00	0	47	104	0	60	1048575
2026-01-18 10:13:54.23	206.47	7.99	-85.2	-88.6	3.1	1.56e+00	0	47	104	0	60	1048575
2026-01-18 10:13:55.24	206.55	8.06	-85.2	-88.6	3.0	1.56e+00	0	47	104	0	60	1048575
2026-01-18 10:13:56.24	206.64	8.13	-85.2	-88.6	3.4	1.55e+00	0	47	104	0	60	1048575
2026-01-18 10:13:57.25	206.73	8.20	-85.2	-88.6	3.0	1.56e+00	0	47	104	0	60	1048573
2026-01-18 10:13:58.26	206.81	8.27	-85.2	-88.6	2.9	1.56e+00	0	47	104	0	60	1048573
2026-01-18 10:13:59.26	206.90	8.34	-85.2	-88.6	3.0	1.56e+00	0	47	104	0	60	1048572
2026-01-18 10:14:00.27	206.99	8.41	-85.2	-88.6	3.1	1.56e+00	0	47	104	0	60	1048572
2026-01-18 10:14:01.28	207.08	8.48	-85.2	-88.6	3.0	1.55e+00	0	47	104	0	60	1048573
2026-01-18 10:14:02.28	207.17	8.55	-85.2	-88.6	3.0	1.56e+00	0	47	104	0	60	1048575
2026-01-18 10:14:03.29	207.26	8.62	-85.2	-88.6	3.1	1.56e+00	0	47	104	0	60	1048574
2026-01-18 10:14:04.30	207.35	8.69	-85.2	-88.6	2.9	1.56e+00	0	47	104	0	60	1048574
2026-01-18 10:14:05.31	207.44	8.76	-85.2	-88.6	2.9	1.55e+00	0	47	104	0	60	1048575
2026-01-18 10:14:06.32	207.53	8.84	-85.2	-88.6	2.9	1.56e+00	0	47	104	0	60	1048573
2026-01-18 10:14:07.33	207.62	8.91	-85.2	-88.6	3.0	1.56e+00	0	47	104	0	60	1048573
2026-01-18 10:14:08.33	207.71	8.98	-85.2	-88.6	2.8	1.56e+00	0	47	104	0	60	1048572
2026-01-18 10:14:09.34	207.80	9.05	-85.2	-88.6	3.2	1.55e+00	0	47	104	0	60	1048575
2026-01-18 10:14:10.35	207.89	9.12	-85.2	-88.6	2.9	1.56e+00	0	47	104	0	60	1048575
2026-01-18 10:14:11.36	207.98	9.20	-84.3	-88.6	3.2	1.56e+00	0	47	104	0	60	1048575
2026-01-18 10:14:12.36	208.08	9.27	-85.2	-88.6	3.1	1.56e+00	0	47	104	0	60	1048574
2026-01-18 10:14:13.37	208.17	9.34	-85.2	-88.6	3.1	1.56e+00	0	47	104	0	60	1048575
2026-01-18 10:14:14.38	208.27	9.41	-85.2	-88.6	3.1	1.56e+00	0	47	104	0	60	1048574
2026-01-18 10:14:15.39	208.36	9.49	-85.2	-88.6	2.9	1.56e+00	0	47	104	0	60	1048574
2026-01-18 10:14:16.39	208.45	9.56	-85.2	-88.6	3.2	1.56e+00	0	47	104	0	60	1048572
2026-01-18 10:14:17.40	208.55	9.63	-85.2	-88.6	3.1	1.55e+00	0	47	104	0	60	1048575
2026-01-18 10:14:18.40	208.64	9.71	-85.2	-88.6	3.2	1.56e+00	0	47	104	0	60	1048575
2026-01-18 10:14:19.41	208.74	9.78	-85.2	-88.6	2.9	1.56e+00	0	47	104	0	60	1048573
2026-01-18 10:14:20.42	208.84	9.85	-85.2	-88.6	2.9	1.56e+00	0	47	104	0	60	1048575
2026-01-18 10:14:21.43	208.93	9.93	-84.3	-88.6	2.9	1.56e+00	0	47	104	0	60	1048575
2026-01-18 10:14:22.44	209.03	10.00	-85.2	-88.6	2.8	1.56e+00	0	47	104	0	60	1048575
2026-01-18 10:14:23.44	209.13	10.08	-85.2	-88.6	3.0	1.56e+00	0	47	104	0	60	1048575
2026-01-18 10:14:24.45	209.23	10.15	-85.2	-88.6	2.9	1.56e+00	0	47	104	0	60	1048572
2026-01-18 10:14:25.46	209.33	10.22	-85.2	-88.6	2.9	1.56e+00	0	47	104	0	60	1048570
2026-01-18 10:14:26.47	209.43	10.30	-85.2	-88.6	3.3	1.56e+00	0	47	104	0	60	1048575
2026-01-18 10:14:27.47	209.53	10.37	-85.2	-88.6	2.9	1.55e+00	0	47	104	0	60	1048574
2026-01-18 10:14:28.48	209.63	10.45	-85.2	-88.6	3.1	1.56e+00	0	47	104	0	60	1048574
2026-01-18 10:14:29.49	209.73	10.52	-85.2	-88.6	3.1	1.55e+00	0	47	104	0	60	1048574
2026-01-18 10:14:30.49	209.83	10.60	-85.2	-88.6	3.0	1.56e+00	0	47	104	0	60	1048575
2026-01-18 10:14:31.50	209.93	10.67	-85.2	-88.6	2.9	1.55e+00	0	47	104	0	60	1048575
2026-01-18 10:14:32.51	210.03	10.75	-85.2	-88.6	3.0	1.56e+00	0	47	104	0	60	1048575
2026-01-18 10:14:33.51	210.14	10.82	-85.2	-88.6	3.0	1.56e+00	0	47	104	0	60	1048574
2026-01-18 10:14:34.52	210.24	10.90	-85.2	-88.6	2.9	1.56e+00	0	47	104	0	60	1048575
2026-01-18 10:14:35.53	210.35	10.98	-85.2	-88.6	3.1	1.56e+00	0	47	104	0	60	1048575
2026-01-18 10:14:36.54	210.45	11.05	-85.2	-88.6	2.9	1.56e+00	0	47	104	0	60	1048575
2026-01-18 10:14:37.54	210.55	11.13	-85.2	-88.6	3.0	1.56e+00	0	47	104	0	60	1048573
2026-01-18 10:14:38.55	210.66	11.21	-85.2	-88.6	2.8	1.56e+00	0	47	104	0	60	1048572
2026-01-18 10:14:39.56	210.77	11.28	-85.2	-88.6	2.8	1.56e+00	0	47	104	0	60	1048573
2026-01-18 10:14:40.57	210.87	11.36	-85.2	-88.6	3.1	1.56e+00	0	47	104	0	60	1048574
2026-01-18 10:14:41.57	210.98	11.44	-85.2	-88.6	3.0	1.56e+00	0	47	104	0	60	1048574
2026-01-18 10:14:42.58	211.09	11.51	-85.2	-88.6	2.9	1.56e+00	0	47	104	0	60	1048575
2026-01-18 10:14:43.59	211.20	11.59	-85.2	-88.6	3.2	1.56e+00	0	47	104	0	60	1048571
2026-01-18 10:14:44.59	211.30	11.67	-85.2	-88.6	3.1	1.55e+00	0	47	104	0	60	1048573
2026-01-18 10:14:45.60	211.41	11.74	-85.2	-88.6	2.7	1.56e+00	0	47	104	0	60	1048575
2026-01-18 10:14:46.61	211.52	11.82	-85.2	-88.6	2.9	1.56e+00	0	47	104	0	60	1048573
2026-01-18 10:14:47.62	211.63	11.90	-85.2	-88.6	2.9	1.56e+00	0	47	104	0	60	1048574
2026-01-18 10:14:48.62	211.74	11.98	-85.2	-88.6	3.1	1.56e+00	0	47	104	0	60	1048574
2026-01-18 10:14:49.62	211.86	12.06	-85.2	-88.6	2.9	1.56e+00	0	47	104	0	60	1048575
2026-01-18 10:14:50.63	211.97	12.13	-85.2	-88.6	3.0	1.56e+00	0	47	104	0	60	1048575
2026-01-18 10:14:51.64	212.08	12.21	-85.2	-88.6	2.9	1.55e+00	0	47	104	0	60	1048575
2026-01-18 10:14:52.64	212.19	12.29	-85.2	-88.6	2.9	1.56e+00	0	47	104	0	60	1048571
2026-01-18 10:14:53.65	212.31	12.37	-85.2	-88.6	2.9	1.55e+00	0	47	104	0	60	1048575
2026-01-18 10:14:54.66	212.42	12.45	-85.2	-88.6	3.0	1.56e+00	0	47	104	0	60	1048575
2026-01-18 10:14:55.67	212.54	12.53	-85.2	-88.6	3.1	1.55e+00	0	47	104	0	60	1048572
2026-01-18 10:14:56.68	212.65	12.61	-85.2	-88.6	2.8	1.55e+00	0	47	104	0	60	1048574
2026-01-18 10:14:57.69	212.77	12.69	-85.2	-88.6	3.2	1.56e+00	0	47	104	0	60	1048575
2026-01-18 10:14:58.69	212.89	12.77	-85.2	-88.6	2.7	1.56e+00	0	47	104	0	60	1048574
2026-01-18 10:14:59.70	213.00	12.85	-85.2	-88.6	3.0	1.55e+00	0	47	104	0	60	1048575
2026-01-18 10:15:00.71	213.12	12.93	-85.2	-88.6	2.9	1.56e+00	0	47	104	0	60	1048571
2026-01-18 10:15:01.71	213.24	13.01	-85.2	-88.6	3.0	1.56e+00	0	47	104	0	60	1048575
2026-01-18 10:15:02.71	213.36	13.08	-85.2	-88.6	2.9	1.56e+00	0	47	104	0	60	1048575
2026-01-18 10:15:03.72	213.48	13.17	-85.2	-88.6	3.0	1.56e+00	0	47	104	0	60	1048574
2026-01-18 10:15:04.73	213.60	13.25	-85.2	-88.6	3.2	1.56e+00	0	47	104	0	60	1048574
2026-01-18 10:15:05.73	213.72	13.33	-85.2	-88.6	3.0	1.56e+00	0	47	104	0	60	1048573
2026-01-18 10:15:06.74	213.84	13.41	-85.2	-88.6	2.7	1.56e+00	0	47	104	0	60	1048575
2026-01-18 10:15:07.75	213.97	13.49	-85.2	-88.6	3.0	1.55e+00	0	47	104	0	60	1048575
2026-01-18 10:15:08.76	214.09	13.57	-85.2	-88.6	3.1	1.56e+00	0	47	104	0	60	1048575
2026-01-18 10:15:09.76	214.21	13.65	-85.2	-88.6	2.9	1.55e+00	0	47	104	0	60	1048574
2026-01-18 10:15:10.77	214.34	13.73	-85.2	-88.6	2.9	1.56e+00	0	47	104	0	60	1048575
2026-01-18 10:15:11.78	214.46	13.81	-85.2	-88.6	2.9	1.56e+00	0	47	104	0	60	1048574
2026-01-18 10:15:12.79	214.59	13.89	-85.2	-88.6	3.1	1.51e+00	0	47	104	0	60	1048575
2026-01-18 10:15:13.80	214.71	13.98	-85.2	-88.6	2.7	1.56e+00	0	47	104	0	60	1048575
2026-01-18 10:15:14.81	214.84	14.06	-85.2	-88.6	3.0	1.56e+00	0	47	104	0	60	1048575
2026-01-18 10:15:15.81	214.97	14.14	-85.2	-88.6	2.9	1.56e+00	0	47	104	0	60	1048575
2026-01-18 10:15:16.82	215.10	14.22	-85.2	-88.6	3.1	1.56e+00	0	47	104	0	60	1048575
2026-01-18 10:15:17.83	215.23	14.31	-85.2	-88.6	3.2	1.56e+00	0	47	104	0	60	1048574
2026-01-18 10:15:18.83	215.36	14.39	-84.7	-88.6	3.1	1.56e+00	0	47	104	0	60	1048574
2026-01-18 10:15:19.84	215.49	14.47	-84.7	-88.6	3.1	1.55e+00	0	47	104	0	60	1048573
2026-01-18 10:15:20.84	215.62	14.55	-85.2	-88.6	3.1	1.56e+00	0	47	104	0	60	1048574
2026-01-18 10:15:21.85	215.75	14.64	-85.2	-88.6	3.0	1.56e+00	0	47	104	0	60	1048574
2026-01-18 10:15:22.86	215.88	14.72	-85.2	-88.6	3.1	1.56e+00	0	47	104	0	60	1048575
2026-01-18 10:15:23.87	216.02	14.80	-85.2	-88.6	2.8	1.56e+00	0	47	104	0	60	1048575
2026-01-18 10:15:24.88	216.15	14.89	-85.2	-88.6	2.9	1.56e+00	0	47	104	0	60	1048574
2026-01-18 10:15:25.88	216.28	14.97	-85.2	-88.6	3.0	1.55e+00	0	47	104	0	60	1048573
2026-01-18 10:15:26.89	216.42	15.05	-85.2	-88.6	2.9	1.56e+00	0	47	104	0	60	1048575
2026-01-18 10:15:27.90	216.56	15.14	-85.2	-88.6	3.0	1.56e+00	0	47	104	0	60	1048574
2026-01-18 10:15:28.91	216.69	15.22	-85.2	-88.6	2.8	1.56e+00	0	47	104	0	60	1048575
2026-01-18 10:15:29.92	216.83	15.31	-85.2	-88.6	3.0	1.56e+00	0	47	104	0	60	1048567
2026-01-18 10:15:30.93	216.97	15.39	-85.2	-88.6	3.0	1.55e+00	0	47	104	0	60	1048575
2026-01-18 10:15:31.93	217.11	15.47	-85.2	-88.6	3.0	1.56e+00	0	47	104	0	60	1048575
2026-01-18 10:15:32.94	217.25	15.56	-85.2	-88.6	3.1	1.55e+00	0	47	104	0	60	1048573
2026-01-18 10:15:33.95	217.39	15.64	-85.2	-88.6	2.9	1.56e+00	0	47	104	0	60	1048575
2026-01-18 10:15:34.96	217.53	15.73	-85.2	-88.6	3.1	1.56e+00	0	47	104	0	60	1048572
2026-01-18 10:15:35.96	217.67	15.81	-85.2	-88.6	3.0	1.55e+00	0	47	104	0	60	1048575
2026-01-18 10:15:36.97	217.82	15.90	-85.2	-88.6	3.1	1.56e+00	0	47	104	0	60	1048571
2026-01-18 10:15:37.98	217.96	15.98	-85.2	-88.6	3.0	1.56e+00	0	47	104	0	60	1048575
2026-01-18 10:15:38.98	218.11	16.07	-85.2	-88.6	3.1	1.56e+00	0	47	104	0	60	1048573
2026-01-18 10:15:39.98	218.25	16.15	-85.2	-88.6	3.1	1.55e+00	0	47	104	0	60	1048571
2026-01-18 10:15:40.99	218.40	16.24	-85.2	-88.6	3.1	1.55e+00	0	47	104	0	60	1048574
2026-01-18 10:15:42.00	218.54	16.32	-85.2	-88.6	3.0	1.56e+00	0	47	104	0	60	1048574
2026-01-18 10:15:43.01	218.69	16.41	-85.2	-88.6	2.9	1.56e+00	0	47	104	0	60	1048574
2026-01-18 10:15:44.02	218.84	16.50	-85.2	-88.6	3.0	1.56e+00	0	47	104	0	60	1048575
2026-01-18 10:15:45.03	218.99	16.58	-85.2	-88.6	3.2	1.56e+00	0	47	104	0	60	1048575
2026-01-18 10:15:46.03	219.14	16.67	-85.2	-88.6	2.9	1.55e+00	0	47	104	0	60	1048575
2026-01-18 10:15:47.04	219.29	16.76	-85.2	-88.6	3.1	1.55e+00	0	47	104	0	60	1048574
2026-01-18 10:15:48.05	219.45	16.84	-85.2	-88.6	3.2	1.56e+00	0	47	104	0	60	1048574
2026-01-18 10:15:49.06	219.60	16.93	-85.2	-88.6	2.8	1.56e+00	0	47	104	0	60	1048571
2026-01-18 10:15:50.06	219.75	17.01	-85.2	-88.6	3.0	1.55e+00	0	47	104	0	60	1048575
2026-01-18 10:15:51.07	219.91	17.10	-85.2	-88.6	3.1	1.55e+00	0	47	104	0	60	1048575
2026-01-18 10:15:52.08	220.06	17.19	-85.2	-88.6	2.9	1.56e+00	0	47	104	0	60	1048575
2026-01-18 10:15:53.08	220.22	17.27	-85.2	-88.6	3.0	1.56e+00	0	47	104	0	60	1048574
2026-01-18 10:15:54.09	220.38	17.36	-85.2	-88.6	3.0	1.55e+00	0	47	104	0	60	1048575
2026-01-18 10:15:55.10	220.53	17.45	-85.2	-88.6	3.0	1.55e+00	0	47	104	0	60	1048575
2026-01-18 10:15:56.11	220.69	17.54	-85.2	-88.6	3.0	1.56e+00	0	47	104	0	60	1048575
2026-01-18 10:15:57.12	220.85	17.62	-85.2	-88.6	3.2	1.56e+00	0	47	104	0	60	1048575
2026-01-18 10:15:58.13	221.02	17.71	-85.2	-88.6	3.1	1.56e+00	0	47	104	0	60	1048575
2026-01-18 10:15:59.14	221.18	17.80	-85.2	-88.6	3.2	1.55e+00	0	47	104	0	60	1048574
2026-01-18 10:16:00.14	221.34	17.89	-85.2	-88.6	2.9	1.56e+00	0	47	104	0	60	1048574
2026-01-18 10:16:01.15	221.50	17.98	-85.2	-88.6	3.0	1.56e+00	0	47	104	0	60	1048575
2026-01-18 10:16:02.16	221.67	18.06	-85.2	-88.6	3.0	1.55e+00	0	47	104	0	60	1048575
2026-01-18 10:16:03.16	221.83	18.15	-85.2	-88.6	3.1	1.56e+00	0	47	104	0	60	1048575
2026-01-18 10:16:04.17	222.00	18.24	-85.2	-88.6	2.9	1.55e+00	0	47	104	0	60	1048575
2026-01-18 10:16:05.18	222.17	18.33	-85.2	-88.6	3.0	1.55e+00	0	47	104	0	60	1048575
2026-01-18 10:16:06.18	222.33	18.41	-85.2	-88.6	3.1	1.56e+00	0	47	104	0	60	1048575
2026-01-18 10:16:07.19	222.50	18.50	-85.2	-88.6	3.1	1.55e+00	0	47	104	0	60	1048575
2026-01-18 10:16:08.20	222.67	18.59	-85.2	-88.6	3.0	1.55e+00	0	47	104	0	60	1048575
2026-01-18 10:16:09.20	222.84	18.68	-85.2	-88.6	3.0	1.56e+00	0	47	104	0	60	1048570
2026-01-18 10:16:10.21	223.02	18.77	-85.2	-88.6	3.2	1.56e+00	0	47	104	0	60	1048574
2026-01-18 10:16:11.22	223.19	18.86	-85.2	-88.6	3.2	1.56e+00	0	47	104	0	60	1048575
2026-01-18 10:16:12.23	223.36	18.95	-85.2	-88.6	3.0	1.55e+00	0	47	104	0	60	1048574
2026-01-18 10:16:13.24	223.54	19.04	-85.2	-88.6	3.1	1.56e+00	0	47	104	0	60	1048575
2026-01-18 10:16:14.25	223.72	19.12	-85.2	-88.6	3.2	1.55e+00	0	47	104	0	60	1048575
2026-01-18 10:16:15.25	223.89	19.21	-85.2	-88.6	3.2	1.55e+00	0	47	104	0	60	1048572
2026-01-18 10:16:16.26	224.07	19.30	-85.2	-88.6	3.0	1.56e+00	0	47	104	0	60	1048574
2026-01-18 10:16:17.27	224.25	19.39	-85.2	-88.6	2.8	1.56e+00	0	47	104	0	60	1048573
2026-01-18 10:16:18.28	224.43	19.48	-85.2	-88.6	3.0	1.55e+00	0	47	104	0	60	1048575
2026-01-18 10:16:19.28	224.61	19.57	-85.2	-88.6	3.1	1.56e+00	0	47	104	0	60	1048575
2026-01-18 10:16:20.29	224.79	19.66	-85.2	-88.6	3.2	1.56e+00	0	47	104	0	60	1048573
2026-01-18 10:16:21.30	224.98	19.75	-85.2	-88.6	3.0	1.55e+00	0	47	104	0	60	1048575
2026-01-18 10:16:22.31	225.16	19.84	-85.2	-88.6	3.1	1.56e+00	0	47	104	0	60	1048575
2026-01-18 10:16:23.32	225.35	19.93	-85.2	-88.6	2.9	1.56e+00	0	47	104	0	60	1048571
2026-01-18 10:16:24.32	225.53	20.01	-85.2	-88.6	3.0	1.56e+00	0	47	104	0	60	1048575
2026-01-18 10:16:25.33	225.72	20.10	-85.2	-88.6	2.8	1.56e+00	0	47	104	0	60	1048575
2026-01-18 10:16:26.34	225.91	20.19	-85.2	-88.6	3.0	1.56e+00	0	47	104	0	60	1048568
2026-01-18 10:16:27.34	226.10	20.28	-85.2	-88.6	3.1	1.56e+00	0	47	104	0	60	1048574
2026-01-18 10:16:28.35	226.29	20.37	-85.2	-88.6	2.8	1.55e+00	0	47	104	0	60	1048575
2026-01-18 10:16:29.36	226.48	20.46	-85.2	-88.6	3.1	1.56e+00	0	47	104	0	60	1048574
2026-01-18 10:16:30.36	226.67	20.55	-85.2	-88.6	2.9	1.55e+00	0	47	104	0	60	1048574
2026-01-18 10:16:31.36	226.86	20.64	-85.2	-88.6	3.0	1.55e+00	0	47	104	0	60	1048575
2026-01-18 10:16:32.37	227.06	20.73	-85.2	-88.6	3.0	1.56e+00	0	47	104	0	60	1048573
2026-01-18 10:16:33.38	227.25	20.82	-85.2	-88.6	3.2	1.56e+00	0	47	104	0	60	1048575
2026-01-18 10:16:34.39	227.45	20.91	-85.2	-88.6	2.9	1.56e+00	0	47	104	0	60	1048575
2026-01-18 10:16:35.40	227.65	20.99	-85.2	-88.6	3.3	1.55e+00	0	47	104	0	60	1048573
2026-01-18 10:16:36.41	227.85	21.08	-85.2	-88.6	2.9	1.56e+00	0	47	104	0	60	1048574
2026-01-18 10:16:37.41	228.05	21.17	-85.2	-88.6	2.9	1.55e+00	0	47	104	0	60	1048575
2026-01-18 10:16:38.42	228.25	21.26	-85.2	-88.6	3.1	1.56e+00	0	47	104	0	60	1048575
2026-01-18 10:16:39.42	228.45	21.35	-85.2	-88.6	3.1	1.56e+00	0	47	104	0	60	1048574
2026-01-18 10:16:40.43	228.66	21.44	-85.2	-88.6	3.1	1.56e+00	0	47	104	0	60	1048575
2026-01-18 10:16:41.44	228.86	21.53	-85.2	-88.6	2.8	1.56e+00	0	47	104	0	60	1048575
2026-01-18 10:16:42.44	229.07	21.62	-85.2	-88.6	3.1	1.55e+00	0	47	104	0	60	1048574
2026-01-18 10:16:43.45	229.27	21.71	-85.2	-88.6	3.0	1.56e+00	0	47	104	0	60	1048571
2026-01-18 10:16:44.45	229.48	21.79	-85.2	-88.6	3.1	1.56e+00	0	47	104	0	60	1048573
2026-01-18 10:16:45.46	229.69	21.88	-85.2	-88.6	2.7	1.55e+00	0	47	104	0	60	1048575
2026-01-18 10:16:46.47	229.90	21.97	-85.2	-88.6	2.9	1.56e+00	0	47	104	0	60	1048575
2026-01-18 10:16:47.47	230.11	22.06	-85.2	-88.6	3.0	1.56e+00	0	47	104	0	60	1048575
2026-01-18 10:16:48.48	230.33	22.15	-85.2	-88.6	2.8	1.55e+00	0	47	104	0	60	1048574
2026-01-18 10:16:49.49	230.54	22.24	-85.2	-88.6	2.9	1.56e+00	0	47	104	0	60	1048574
2026-01-18 10:16:50.50	230.76	22.33	-85.2	-88.6	2.9	1.56e+00	0	47	104	0	60	1048575
2026-01-18 10:16:51.51	230.97	22.41	-85.2	-88.6	2.9	1.55e+00	0	47	104	0	60	1048575
2026-01-18 10:16:52.52	231.19	22.50	-85.2	-88.6	2.9	1.55e+00	0	47	104	0	60	1048574
2026-01-18 10:16:53.53	231.41	22.59	-85.2	-88.6	2.8	1.56e+00	0	47	104	0	60	1048573
2026-01-18 10:16:54.53	231.63	22.68	-85.2	-88.6	2.9	1.56e+00	0	47	104	0	60	1048575
2026-01-18 10:16:55.54	231.85	22.77	-85.2	-88.6	3.1	1.55e+00	0	47	104	0	60	1048574
2026-01-18 10:16:56.55	232.08	22.85	-85.2	-88.6	3.1	1.55e+00	0	47	104	0	60	1048573
2026-01-18 10:16:57.56	232.30	22.94	-85.2	-88.6	3.0	1.56e+00	0	47	104	0	60	1048570
2026-01-18 10:16:58.56	232.52	23.03	-85.2	-88.6	2.9	1.56e+00	0	47	104	0	60	1048575
2026-01-18 10:16:59.57	232.75	23.11	-85.2	-88.6	3.1	1.56e+00	0	47	104	0	60	1048572
2026-01-18 10:17:00.58	232.98	23.20	-85.2	-88.6	3.1	1.55e+00	0	47	104	0	60	1048574
2026-01-18 10:17:01.58	233.21	23.29	-85.2	-88.6	3.2	1.55e+00	0	47	104	0	60	1048575
2026-01-18 10:17:02.59	233.44	23.37	-83.1	-88.6	3.0	1.55e+00	0	47	104	0	60	1048572
2026-01-18 10:17:03.59	233.67	23.46	-85.2	-88.6	3.1	1.56e+00	0	47	104	0	60	1048573
2026-01-18 10:17:04.60	233.90	23.55	-85.2	-88.6	2.9	1.55e+00	0	47	104	0	60	1048575
2026-01-18 10:17:05.61	234.13	23.63	-85.2	-88.6	3.0	1.55e+00	0	47	104	0	60	1048575
2026-01-18 10:17:06.62	234.37	23.72	-85.2	-88.6	3.1	1.55e+00	0	47	104	0	60	1048575
2026-01-18 10:17:07.62	234.60	23.80	-85.2	-88.6	2.8	1.56e+00	0	47	104	0	60	1048575
2026-01-18 10:17:08.64	234.84	23.89	-85.2	-88.6	3.2	1.55e+00	0	47	104	0	60	1048572
2026-01-18 10:17:09.64	235.08	23.98	-85.2	-88.6	3.0	1.56e+00	0	47	104	0	60	1048574
2026-01-18 10:17:10.65	235.32	24.06	-85.2	-88.6	3.0	1.56e+00	0	47	104	0	60	1048573
2026-01-18 10:17:11.66	235.56	24.15	-85.2	-88.6	3.0	1.56e+00	0	47	104	0	60	1048575
2026-01-18 10:17:12.66	235.80	24.23	-84.3	-88.6	3.1	1.56e+00	0	47	104	0	60	1048575
2026-01-18 10:17:13.67	236.05	24.31	-85.2	-88.6	3.2	1.55e+00	0	47	104	0	60	1048575
2026-01-18 10:17:14.68	236.29	24.40	-85.2	-88.6	2.9	1.56e+00	0	47	104	0	60	1048575
2026-01-18 10:17:15.68	236.54	24.48	-85.2	-88.6	2.8	1.56e+00	0	47	104	0	60	1048575
2026-01-18 10:17:16.69	236.79	24.56	-84.7	-88.6	2.8	1.56e+00	0	47	104	0	60	1048573
2026-01-18 10:17:17.70	237.04	24.65	-85.2	-88.6	3.0	1.55e+00	0	47	104	0	60	1048575
2026-01-18 10:17:18.71	237.29	24.73	-85.2	-88.6	3.1	1.56e+00	0	47	104	0	60	1048573
2026-01-18 10:17:19.72	237.54	24.81	-85.2	-88.6	3.0	1.56e+00	0	47	104	0	60	1048574
2026-01-18 10:17:20.73	237.79	24.90	-85.2	-88.6	2.9	1.56e+00	0	47	104	0	60	1048574
2026-01-18 10:17:21.73	238.05	24.98	-85.2	-88.6	3.0	1.56e+00	0	47	104	0	60	1048575
2026-01-18 10:17:22.74	238.30	25.06	-85.2	-88.6	3.0	1.56e+00	0	47	104	0	60	1048575
2026-01-18 10:17:23.75	238.56	25.14	-85.2	-88.6	3.0	1.55e+00	0	47	104	0	60	1048575
2026-01-18 10:17:24.75	238.82	25.22	-85.2	-88.6	2.8	1.56e+00	0	47	104	0	60	1048574
2026-01-18 10:17:25.76	239.08	25.30	-85.2	-88.6	3.0	1.56e+00	0	47	104	0	60	1048575
2026-01-18 10:17:26.77	239.34	25.38	-85.2	-88.6	2.9	1.56e+00	0	47	104	0	60	1048574
2026-01-18 10:17:27.77	239.60	25.46	-85.2	-88.6	3.0	1.55e+00	0	47	104	0	60	1048574
2026-01-18 10:17:28.78	239.86	25.54	-85.2	-88.6	2.9	1.56e+00	0	47	104	0	60	1048575
2026-01-18 10:17:29.78	240.12	25.62	-85.2	-88.6	3.2	1.56e+00	0	47	104	0	60	1048574
2026-01-18 10:17:30.79	240.39	25.70	-85.2	-88.6	3.1	1.56e+00	0	47	104	0	60	1048575
2026-01-18 10:17:31.80	240.66	25.78	-85.2	-88.6	2.8	1.55e+00	0	47	104	0	60	1048574
2026-01-18 10:17:32.80	240.92	25.85	-85.2	-88.6	2.7	1.56e+00	0	47	104	0	60	1048575
2026-01-18 10:17:33.81	241.19	25.93	-85.2	-88.6	2.9	1.56e+00	0	47	104	0	60	1048575
2026-01-18 10:17:34.81	241.46	26.01	-85.2	-88.6	3.0	1.55e+00	0	47	104	0	60	1048575
2026-01-18 10:17:35.82	241.73	26.08	-85.2	-88.6	2.7	1.56e+00	0	47	104	0	60	1048575
2026-01-18 10:17:36.83	242.01	26.16	-85.2	-88.6	2.9	1.56e+00	0	47	104	0	60	1048575
2026-01-18 10:17:37.83	242.28	26.23	-85.2	-88.6	3.0	1.56e+00	0	47	104	0	60	1048575
2026-01-18 10:17:38.84	242.56	26.31	-85.2	-88.6	3.1	1.56e+00	0	47	104	0	60	1048575
2026-01-18 10:17:39.85	242.84	26.38	-85.2	-88.6	3.2	1.55e+00	0	47	104	0	60	1048574
2026-01-18 10:17:40.85	243.11	26.46	-85.2	-88.6	3.0	1.56e+00	0	47	104	0	60	1048574
2026-01-18 10:17:41.86	243.39	26.53	-85.2	-88.6	3.0	1.56e+00	0	47	104	0	60	1048575
2026-01-18 10:17:42.87	243.67	26.60	-85.2	-88.6	3.1	1.56e+00	0	47	104	0	60	1048574
2026-01-18 10:17:43.88	243.96	26.68	-85.2	-88.6	2.7	1.56e+00	0	47	104	0	60	1048572
2026-01-18 10:17:44.88	244.24	26.75	-85.2	-88.6	3.0	1.56e+00	0	47	104	0	60	1048575
2026-01-18 10:17:45.89	244.52	26.82	-85.2	-88.6	2.9	1.56e+00	0	47	104	0	60	1048575
2026-01-18 10:17:46.90	244.81	26.89	-85.2	-88.6	3.0	1.56e+00	0	47	104	0	60	1048572
2026-01-18 10:17:47.91	245.10	26.96	-85.2	-88.6	3.1	1.56e+00	0	47	104	0	60	1048574
2026-01-18 10:17:48.91	245.39	27.03	-85.2	-88.6	3.0	1.56e+00	0	47	104	0	60	1048575
2026-01-18 10:17:49.92	245.68	27.10	-85.2	-88.6	3.1	1.56e+00	0	47	104	0	60	1048575
2026-01-18 10:17:50.93	245.97	27.17	-85.2	-88.6	2.8	1.56e+00	0	47	104	0	60	1048575
2026-01-18 10:17:51.93	246.26	27.23	-84.7	-88.6	2.8	1.56e+00	0	47	104	0	60	1048575
2026-01-18 10:17:52.94	246.55	27.30	-84.3	-88.6	2.7	1.56e+00	0	47	104	0	60	1048575
2026-01-18 10:17:53.95	246.85	27.37	-85.2	-88.6	3.2	1.56e+00	0	47	104	0	60	1048575
2026-01-18 10:17:54.95	247.14	27.43	-85.2	-88.6	2.9	1.56e+00	0	47	104	0	60	1048574
2026-01-18 10:17:55.96	247.44	27.50	-85.2	-88.6	3.0	1.55e+00	0	47	104	0	60	1048575
2026-01-18 10:17:56.97	247.74	27.56	-85.2	-88.6	3.0	1.55e+00	0	47	104	0	60	1048574
2026-01-18 10:17:57.98	248.04	27.63	-85.2	-88.6	3.1	1.56e+00	0	47	104	0	60	1048575
2026-01-18 10:17:58.99	248.34	27.69	-85.2	-88.6	3.1	1.56e+00	0	47	104	0	60	1048574
2026-01-18 10:18:00.00	248.64	27.75	-85.2	-88.6	2.9	1.55e+00	0	47	104	0	60	1048575
2026-01-18 10:18:01.01	248.94	27.82	-85.2	-88.6	3.1	1.56e+00	0	47	104	0	60	1048575
2026-01-18 10:18:02.01	249.25	27.88	-85.2	-88.6	2.9	1.56e+00	0	47	104	0	60	1048575
2026-01-18 10:18:03.02	249.55	27.94	-84.3	-88.6	3.1	1.55e+00	0	47	104	0	60	1048574
2026-01-18 10:18:04.03	249.86	28.00	-85.2	-88.6	3.0	1.56e+00	0	47	104	0	60	1048575
2026-01-18 10:18:05.03	250.16	28.06	-85.2	-88.6	3.1	1.56e+00	0	47	104	0	60	1048574
2026-01-18 10:18:06.04	250.47	28.11	-85.2	-88.6	3.0	1.56e+00	0	47	104	0	60	1048573
2026-01-18 10:18:07.04	250.78	28.17	-85.2	-88.6	3.2	1.56e+00	0	47	104	0	60	1048573
2026-01-18 10:18:08.05	251.09	28.23	-83.1	-88.6	3.0	1.56e+00	0	47	104	0	60	1048575
2026-01-18 10:18:09.06	251.40	28.28	-85.2	-88.6	3.1	1.56e+00	0	47	104	0	60	1048571
2026-01-18 10:18:10.07	251.72	28.34	-85.2	-88.6	3.1	1.56e+00	0	47	104	0	60	1048575
2026-01-18 10:18:11.08	252.03	28.39	-85.2	-88.6	3.0	1.56e+00	0	47	104	0	60	1048574
2026-01-18 10:18:12.08	252.34	28.45	-85.2	-88.6	2.9	1.55e+00	0	47	104	0	60	1048574
2026-01-18 10:18:13.09	252.66	28.50	-85.2	-88.6	3.1	1.56e+00	0	47	104	0	60	1048575
2026-01-18 10:18:14.10	252.98	28.55	-85.2	-88.6	3.1	1.55e+00	0	47	104	0	60	1048574
2026-01-18 10:18:15.11	253.30	28.60	-85.2	-88.6	2.9	1.56e+00	0	47	104	0	60	1048574
2026-01-18 10:18:16.12	253.62	28.65	-85.2	-88.6	2.8	1.56e+00	0	47	104	0	60	1048572
2026-01-18 10:18:17.13	253.94	28.70	-85.2	-88.6	3.0	1.55e+00	0	47	104	0	60	1048575
2026-01-18 10:18:18.13	254.25	28.75	-85.2	-88.6	2.9	1.56e+00	0	47	104	0	60	1048575
2026-01-18 10:18:19.14	254.58	28.80	-85.2	-88.6	3.1	1.56e+00	0	47	104	0	60	1048575
2026-01-18 10:18:20.15	254.90	28.84	-85.2	-88.6	2.9	1.55e+00	0	47	104	0	60	1048575
2026-01-18 10:18:21.15	255.22	28.89	-85.2	-88.6	2.9	1.55e+00	0	47	104	0	60	1048575
2026-01-18 10:18:22.16	255.55	28.94	-85.2	-88.6	3.1	1.56e+00	0	47	104	0	60	1048574
2026-01-18 10:18:23.17	255.87	28.98	-85.2	-88.6	3.0	1.56e+00	0	47	104	0	60	1048574
2026-01-18 10:18:24.18	256.20	29.02	-85.2	-88.6	2.9	1.56e+00	0	47	104	0	60	1048575
2026-01-18 10:18:25.18	256.52	29.06	-85.2	-88.6	2.9	1.56e+00	0	47	104	0	60	1048574
2026-01-18 10:18:26.19	256.85	29.11	-85.2	-88.6	3.2	1.56e+00	0	47	104	0	60	1048573
2026-01-18 10:18:27.20	257.18	29.15	-85.2	-88.6	3.1	1.56e+00	0	47	104	0	60	1048575
2026-01-18 10:18:28.20	257.51	29.18	-84.3	-88.6	3.0	1.56e+00	0	47	104	0	60	1048571
2026-01-18 10:18:29.21	257.84	29.22	-85.2	-88.6	3.0	1.56e+00	0	47	104	0	60	1048575
2026-01-18 10:18:30.22	258.17	29.26	-85.2	-88.6	2.9	1.56e+00	0	47	104	0	60	1048575
2026-01-18 10:18:31.22	258.50	29.30	-85.2	-88.6	3.2	1.56e+00	0	47	104	0	60	1048575
2026-01-18 10:18:32.23	258.83	29.33	-85.2	-88.6	3.0	1.56e+00	0	47	104	0	60	1048573
2026-01-18 10:18:33.23	259.16	29.37	-85.2	-88.6	2.8	1.56e+00	0	47	104	0	60	1048575
2026-01-18 10:18:34.24	259.50	29.40	-85.2	-88.6	3.0	1.56e+00	0	47	104	0	60	1048575
2026-01-18 10:18:35.24	259.83	29.43	-85.2	-88.6	3.0	1.55e+00	0	47	104	0	60	1048574
2026-01-18 10:18:36.25	260.16	29.46	-85.2	-88.6	2.9	1.56e+00	0	47	104	0	60	1048575
2026-01-18 10:18:37.25	260.50	29.49	-85.2	-88.6	3.1	1.56e+00	0	47	104	0	60	1048575
2026-01-18 10:18:38.26	260.83	29.52	-85.2	-88.6	3.1	1.56e+00	0	47	104	0	60	1048575
2026-01-18 10:18:39.26	261.17	29.55	-85.2	-88.6	3.0	1.56e+00	0	47	104	0	60	1048575
2026-01-18 10:18:40.27	261.51	29.58	-85.2	-88.6	3.2	1.55e+00	0	47	104	0	60	1048574
2026-01-18 10:18:41.28	261.85	29.61	-85.2	-88.6	3.0	1.55e+00	0	47	104	0	60	1048575
2026-01-18 10:18:42.29	262.18	29.63	-85.2	-88.6	3.1	1.56e+00	0	47	104	0	60	1048575
2026-01-18 10:18:43.29	262.52	29.65	-85.2	-88.6	3.2	1.56e+00	0	47	104	0	60	1048575
2026-01-18 10:18:44.30	262.86	29.68	-85.2	-88.6	3.0	1.56e+00	0	47	104	0	60	1048575
2026-01-18 10:18:45.31	263.20	29.70	-85.2	-88.6	3.0	1.56e+00	0	47	104	0	60	1048574
2026-01-18 10:18:46.32	263.54	29.72	-85.2	-88.6	3.1	1.56e+00	0	47	104	0	60	1048575
2026-01-18 10:18:47.33	263.88	29.74	-85.2	-88.6	3.0	1.55e+00	0	47	104	0	60	1048572
2026-01-18 10:18:48.33	264.22	29.76	-85.2	-88.6	2.9	1.56e+00	0	47	104	0	60	1048573
2026-01-18 10:18:49.34	264.57	29.78	-85.2	-88.6	3.0	1.56e+00	0	47	104	0	60	1048575
2026-01-18 10:18:50.35	264.91	29.79	-85.2	-88.6	2.9	1.56e+00	0	47	104	0	60	1048570
2026-01-18 10:18:51.36	265.25	29.81	-85.2	-88.6	3.0	1.56e+00	0	47	104	0	60	1048574
2026-01-18 10:18:52.36	265.59	29.82	-85.2	-88.6	2.9	1.56e+00	0	47	104	0	60	1048571
2026-01-18 10:18:53.36	265.93	29.84	-85.2	-88.6	3.0	1.55e+00	0	47	104	0	60	1048574
2026-01-18 10:18:54.36	266.27	29.85	-85.2	-88.6	2.9	1.55e+00	0	48	104	0	60	1048574
2026-01-18 10:18:55.37	266.62	29.86	-85.2	-88.6	3.1	1.55e+00	0	47	104	0	60	1048574
2026-01-18 10:18:56.38	266.96	29.87	-85.2	-88.6	2.9	1.55e+00	0	47	104	0	60	1048575
2026-01-18 10:18:57.39	267.30	29.88	-85.2	-88.6	3.0	1.56e+00	0	47	104	0	60	1048575
2026-01-18 10:18:58.40	267.65	29.89	-85.2	-88.6	2.8	1.55e+00	0	47	104	0	60	1048575
2026-01-18 10:18:59.40	267.99	29.90	-85.2	-88.6	2.8	1.56e+00	0	47	104	0	60	1048575
2026-01-18 10:19:00.40	268.33	29.90	-85.2	-88.6	3.2	1.56e+00	0	47	104	0	60	1048575
2026-01-18 10:19:01.41	268.68	29.91	-85.2	-88.6	3.1	1.56e+00	0	47	104	0	60	1048575
2026-01-18 10:19:02.42	269.02	29.91	-85.2	-88.6	3.0	1.56e+00	0	47	104	0	60	1048573
2026-01-18 10:19:03.42	269.36	29.91	-85.2	-88.6	3.1	1.55e+00	0	47	104	0	60	1048574
2026-01-18 10:19:04.43	269.71	29.91	-85.2	-88.6	3.1	1.56e+00	0	47	104	0	60	1048573
2026-01-18 10:19:05.43	270.05	29.91	-85.2	-88.6	3.0	1.56e+00	0	47	104	0	60	1048572
2026-01-18 10:19:06.43	270.39	29.91	-85.2	-88.6	2.9	1.56e+00	0	47	104	0	60	1048574
2026-01-18 10:19:07.44	270.74	29.91	-85.2	-88.6	3.0	1.55e+00	0	47	104	0	60	1048573
2026-01-18 10:19:08.45	271.08	29.91	-85.2	-88.6	3.0	1.56e+00	0	47	104	0	60	1048575
2026-01-18 10:19:09.46	271.43	29.90	-85.2	-88.6	3.0	1.56e+00	0	47	104	0	60	1048575
2026-01-18 10:19:10.47	271.77	29.90	-85.2	-88.6	2.9	1.56e+00	0	47	104	0	60	1048572
2026-01-18 10:19:11.48	272.12	29.89	-85.2	-88.6	2.9	1.56e+00	0	47	104	0	60	1048572
2026-01-18 10:19:12.49	272.46	29.88	-85.2	-88.6	2.8	1.55e+00	0	47	104	0	60	1048575
2026-01-18 10:19:13.49	272.80	29.88	-85.2	-88.6	3.1	1.55e+00	0	47	104	0	60	1048575
2026-01-18 10:19:14.50	273.15	29.87	-85.2	-88.6	3.1	1.56e+00	0	47	104	0	60	1048574
2026-01-18 10:19:15.51	273.49	29.85	-85.2	-88.6	2.8	1.55e+00	0	47	104	0	60	1048575
2026-01-18 10:19:16.51	273.83	29.84	-85.2	-88.6	3.1	1.56e+00	0	47	104	0	60	1048574
2026-01-18 10:19:17.52	274.18	29.83	-85.2	-88.6	2.9	1.56e+00	0	47	104	0	60	1048574
2026-01-18 10:19:18.53	274.52	29.82	-85.2	-88.6	2.9	1.55e+00	0	47	104	0	60	1048571
2026-01-18 10:19:19.54	274.86	29.80	-85.2	-88.6	3.0	1.56e+00	0	47	104	0	60	1048575
2026-01-18 10:19:20.54	275.20	29.78	-85.2	-88.6	2.8	1.56e+00	0	47	104	0	60	1048574
2026-01-18 10:19:21.55	275.54	29.77	-85.2	-88.6	3.2	1.56e+00	0	47	104	0	60	1048575
2026-01-18 10:19:22.56	275.88	29.75	-85.2	-88.6	3.1	1.55e+00	0	47	104	0	60	1048575
2026-01-18 10:19:23.56	276.22	29.73	-85.2	-88.6	2.8	1.56e+00	0	47	104	0	60	1048574
2026-01-18 10:19:24.57	276.56	29.71	-85.2	-88.6	3.2	1.56e+00	0	47	104	0	60	1048575
2026-01-18 10:19:25.58	276.90	29.69	-85.2	-88.6	3.1	1.55e+00	0	47	104	0	60	1048572
2026-01-18 10:19:26.58	277.24	29.66	-85.2	-88.6	3.2	1.55e+00	0	47	104	0	60	1048574
2026-01-18 10:19:27.59	277.58	29.64	-85.2	-88.6	3.1	1.56e+00	0	47	104	0	60	1048574
2026-01-18 10:19:28.60	277.92	29.62	-85.2	-88.6	2.9	1.55e+00	0	47	104	0	60	1048573
2026-01-18 10:19:29.61	278.26	29.59	-85.2	-88.6	3.1	1.56e+00	0	47	104	0	60	1048573
2026-01-18 10:19:30.61	278.59	29.56	-85.2	-88.6	3.0	1.56e+00	0	47	104	0	60	1048575
2026-01-18 10:19:31.62	278.93	29.53	-85.2	-88.6	3.2	1.55e+00	0	47	104	0	60	1048575
2026-01-18 10:19:32.63	279.27	29.51	-85.2	-88.6	2.8	1.56e+00	0	47	104	0	60	1048573
2026-01-18 10:19:33.63	279.60	29.48	-85.2	-88.6	3.1	1.55e+00	0	47	104	0	60	1048575
2026-01-18 10:19:34.64	279.94	29.45	-85.2	-88.6	3.0	1.56e+00	0	47	104	0	60	1048575
2026-01-18 10:19:35.65	280.27	29.41	-85.2	-88.6	3.3	1.55e+00	0	47	104	0	60	1048575
2026-01-18 10:19:36.65	280.60	29.38	-85.2	-88.6	3.1	1.56e+00	0	47	104	0	60	1048574
2026-01-18 10:19:37.66	280.94	29.35	-85.2	-88.6	3.1	1.56e+00	0	47	104	0	60	1048574
2026-01-18 10:19:38.66	281.26	29.31	-85.2	-88.6	3.0	1.56e+00	0	47	104	0	60	1048574
2026-01-18 10:19:39.67	281.60	29.28	-85.2	-88.6	3.0	1.56e+00	0	47	104	0	60	1048575
2026-01-18 10:19:40.68	281.93	29.24	-85.2	-88.6	3.1	1.56e+00	0	47	104	0	60	1048575
2026-01-18 10:19:41.69	282.26	29.20	-85.2	-88.6	2.8	1.56e+00	0	47	104	0	60	1048575
2026-01-18 10:19:42.69	282.59	29.16	-85.2	-88.6	3.0	1.55e+00	0	47	104	0	60	1048574
2026-01-18 10:19:43.70	282.91	29.12	-85.2	-88.6	3.0	1.56e+00	0	47	104	0	60	1048575
2026-01-18 10:19:44.70	283.24	29.08	-85.2	-88.6	3.2	1.56e+00	0	47	104	0	60	1048571
2026-01-18 10:19:45.71	283.57	29.04	-85.2	-88.6	3.1	1.56e+00	0	47	104	0	60	1048568
2026-01-18 10:19:46.70	283.89	29.00	-85.2	-88.6	2.9	1.56e+00	0	47	104	0	60	1048575
2026-01-18 10:19:47.71	284.21	28.95	-85.2	-88.6	3.0	1.56e+00	0	47	104	0	60	1048575
2026-01-18 10:19:48.71	284.53	28.91	-85.2	-88.6	2.8	1.56e+00	0	47	104	0	60	1048574
2026-01-18 10:19:49.72	284.86	28.87	-85.2	-88.6	3.1	1.56e+00	0	47	104	0	60	1048572
2026-01-18 10:19:50.73	285.18	28.82	-85.2	-88.6	3.1	1.55e+00	0	47	104	0	60	1048575
2026-01-18 10:19:51.73	285.50	28.77	-85.2	-88.6	3.0	1.56e+00	0	47	104	0	60	1048573
2026-01-18 10:19:52.74	285.82	28.72	-85.2	-88.6	3.1	1.55e+00	0	47	104	0	60	1048574
2026-01-18 10:19:53.75	286.14	28.68	-85.2	-88.6	3.0	1.55e+00	0	47	104	0	60	1048572
2026-01-18 10:19:54.76	286.46	28.63	-85.2	-88.6	2.9	1.56e+00	0	47	104	0	60	1048575
2026-01-18 10:19:55.76	286.78	28.58	-85.2	-88.6	3.0	1.56e+00	0	47	104	0	60	1048575
2026-01-18 10:19:56.77	287.09	28.52	-85.2	-88.6	3.1	1.56e+00	0	47	104	0	60	1048574
2026-01-18 10:19:57.78	287.41	28.47	-85.2	-88.6	3.0	1.56e+00	0	47	104	0	60	1048575
2026-01-18 10:19:58.79	287.72	28.42	-85.2	-88.6	3.1	1.56e+00	0	47	104	0	60	1048575
2026-01-18 10:19:59.78	288.03	28.37	-85.2	-88.6	3.0	1.55e+00	0	47	104	0	60	1048573
2026-01-18 10:20:00.79	288.35	28.31	-85.2	-88.6	3.0	1.56e+00	0	47	104	0	60	1048574
2026-01-18 10:20:01.80	288.66	28.26	-85.2	-88.6	3.1	1.56e+00	0	47	104	0	60	1048575
2026-01-18 10:20:02.80	288.97	28.20	-85.2	-88.6	3.1	1.56e+00	0	47	104	0	60	1048575
2026-01-18 10:20:03.79	289.27	28.14	-84.7	-88.6	2.9	1.55e+00	0	47	104	0	60	1048575
2026-01-18 10:20:04.80	289.58	28.09	-85.2	-88.6	2.9	1.56e+00	0	47	104	0	60	1048574
2026-01-18 10:20:05.80	289.88	28.03	-85.2	-88.6	3.0	1.56e+00	0	47	104	0	60	1048575
2026-01-18 10:20:06.80	290.19	27.97	-85.2	-88.6	3.0	1.56e+00	0	47	104	0	60	1048569
2026-01-18 10:20:07.80	290.49	27.91	-85.2	-88.6	2.7	1.56e+00	0	47	104	0	60	1048575
2026-01-18 10:20:08.81	290.79	27.85	-85.2	-88.6	3.0	1.56e+00	0	47	104	0	60	1048575
2026-01-18 10:20:09.82	291.10	27.79	-85.2	-88.6	3.0	1.56e+00	0	47	104	0	60	1048575
2026-01-18 10:20:10.82	291.40	27.73	-85.2	-88.6	3.0	1.56e+00	0	47	104	0	60	1048575
2026-01-18 10:20:11.83	291.70	27.66	-85.2	-88.6	2.7	1.56e+00	0	47	104	0	60	1048575
2026-01-18 10:20:12.84	292.00	27.60	-85.2	-88.6	3.1	1.55e+00	0	47	104	0	60	1048575
2026-01-18 10:20:13.84	292.29	27.54	-85.2	-88.6	3.1	1.56e+00	0	47	104	0	60	1048574
2026-01-18 10:20:14.85	292.59	27.47	-85.2	-88.6	3.0	1.56e+00	0	47	104	0	60	1048573
2026-01-18 10:20:15.86	292.89	27.41	-85.2	-88.6	3.1	1.56e+00	0	47	104	0	60	1048574
2026-01-18 10:20:16.87	293.18	27.34	-85.2	-88.6	3.1	1.56e+00	0	47	104	0	60	1048575
2026-01-18 10:20:17.87	293.47	27.27	-85.2	-88.6	2.9	1.56e+00	0	47	104	0	60	1048574
2026-01-18 10:20:18.88	293.76	27.21	-85.2	-88.6	3.1	1.56e+00	0	47	104	0	60	1048574
2026-01-18 10:20:19.88	294.05	27.14	-85.2	-88.6	3.2	1.55e+00	0	47	104	0	60	1048575
2026-01-18 10:20:20.89	294.34	27.07	-85.2	-88.6	3.1	1.56e+00	0	47	104	0	60	1048569
2026-01-18 10:20:21.90	294.63	27.00	-85.2	-88.6	3.0	1.55e+00	0	47	104	0	60	1048575
2026-01-18 10:20:22.90	294.92	26.93	-85.2	-88.6	3.0	1.56e+00	0	47	104	0	60	1048573
2026-01-18 10:20:23.91	295.20	26.86	-85.2	-88.6	3.1	1.55e+00	0	47	104	0	60	1048575
2026-01-18 10:20:24.92	295.49	26.79	-85.2	-88.6	3.0	1.56e+00	0	47	104	0	60	1048572
2026-01-18 10:20:25.93	295.77	26.72	-85.2	-88.6	3.1	1.56e+00	0	47	104	0	60	1048575
2026-01-18 10:20:26.94	296.05	26.65	-85.2	-88.6	3.0	1.55e+00	0	47	104	0	60	1048574
2026-01-18 10:20:27.95	296.34	26.58	-85.2	-88.6	3.0	1.56e+00	0	47	104	0	60	1048574
2026-01-18 10:20:28.96	296.62	26.50	-85.2	-88.6	3.0	1.56e+00	0	47	104	0	60	1048575
2026-01-18 10:20:29.97	296.90	26.43	-85.2	-88.6	3.0	1.56e+00	0	47	104	0	60	1048575
2026-01-18 10:20:30.97	297.17	26.36	-85.2	-88.6	3.0	1.56e+00	0	47	104	0	60	1048572
2026-01-18 10:20:31.98	297.45	26.28	-85.2	-88.6	2.9	1.56e+00	0	47	104	0	60	1048575
2026-01-18 10:20:32.99	297.72	26.21	-85.2	-88.6	3.1	1.56e+00	0	47	104	0	60	1048574
2026-01-18 10:20:33.99	297.99	26.13	-85.2	-88.6	2.9	1.56e+00	0	47	104	0	60	1048572
2026-01-18 10:20:35.00	298.27	26.06	-85.2	-88.6	3.1	1.56e+00	0	47	104	0	60	1048571
2026-01-18 10:20:36.01	298.54	25.98	-85.2	-88.6	3.0	1.56e+00	0	47	104	0	60	1048574
2026-01-18 10:20:37.01	298.80	25.90	-85.2	-88.6	3.1	1.55e+00	0	47	104	0	60	1048573
2026-01-18 10:20:38.01	299.07	25.83	-85.2	-88.6	3.1	1.56e+00	0	47	104	0	60	1048575
2026-01-18 10:20:39.02	299.34	25.75	-83.5	-88.6	3.1	1.56e+00	0	47	104	0	60	1048575
2026-01-18 10:20:40.03	299.60	25.67	-85.2	-88.6	2.6	1.56e+00	0	47	104	0	60	1048573
2026-01-18 10:20:41.04	299.87	25.59	-85.2	-88.6	2.9	1.55e+00	0	47	104	0	60	1048571
2026-01-18 10:20:42.05	300.13	25.51	-85.2	-88.6	3.0	1.56e+00	0	47	104	0	60	1048575
2026-01-18 10:20:43.05	300.39	25.44	-85.2	-88.6	2.8	1.56e+00	0	47	104	0	60	1048574
2026-01-18 10:20:44.06	300.65	25.36	-85.2	-88.6	3.0	1.50e+00	0	47	104	0	60	1048572
2026-01-18 10:20:45.07	300.91	25.28	-85.2	-88.6	3.3	1.56e+00	0	47	104	0	60	1048574
2026-01-18 10:20:46.08	301.17	25.19	-85.2	-88.6	3.0	1.56e+00	0	47	104	0	60	1048574
2026-01-18 10:20:47.09	301.43	25.11	-85.2	-88.6	3.0	1.55e+00	0	47	104	0	60	1048572
2026-01-18 10:20:48.09	301.68	25.03	-85.2	-88.6	2.9	1.55e+00	0	47	104	0	60	1048572
2026-01-18 10:20:49.10	301.94	24.95	-85.2	-88.6	3.0	1.55e+00	0	47	104	0	60	1048574
2026-01-18 10:20:50.11	302.19	24.87	-85.2	-88.6	3.1	1.56e+00	0	47	104	0	60	1048575
2026-01-18 10:20:51.11	302.44	24.79	-85.2	-88.6	3.2	1.56e+00	0	47	104	0	60	1048575
2026-01-18 10:20:52.12	302.69	24.71	-85.2	-88.6	3.0	1.56e+00	0	47	104	0	60	1048574
2026-01-18 10:20:53.13	302.94	24.62	-85.2	-88.6	3.0	1.55e+00	0	47	104	0	60	1048575
2026-01-18 10:20:54.13	303.18	24.54	-85.2	-88.6	2.7	1.56e+00	0	47	104	0	60	1048575
2026-01-18 10:20:55.14	303.43	24.46	-85.2	-88.6	2.8	1.56e+00	0	47	104	0	60	1048575
2026-01-18 10:20:56.15	303.68	24.38	-85.2	-88.6	3.1	1.56e+00	0	47	104	0	60	1048575
2026-01-18 10:20:57.16	303.92	24.29	-85.2	-88.6	3.1	1.55e+00	0	47	104	0	60	1048574
2026-01-18 10:20:58.17	304.16	24.21	-84.7	-88.6	3.1	1.56e+00	0	47	104	0	60	1048575
2026-01-18 10:20:59.17	304.40	24.12	-83.1	-88.6	3.1	1.56e+00	0	47	104	0	60	1048575
2026-01-18 10:21:00.18	304.64	24.04	-85.2	-88.6	2.8	1.56e+00	0	47	104	0	60	1048571
2026-01-18 10:21:01.19	304.88	23.96	-85.2	-88.6	2.9	1.56e+00	0	47	104	0	60	1048574
2026-01-18 10:21:02.20	305.12	23.87	-85.2	-88.6	2.9	1.56e+00	0	47	104	0	60	1048572
2026-01-18 10:21:03.20	305.36	23.79	-85.2	-88.6	3.1	1.55e+00	0	47	104	0	60	1048571
2026-01-18 10:21:04.21	305.59	23.70	-85.2	-88.6	2.9	1.56e+00	0	47	104	0	60	1048575
2026-01-18 10:21:05.21	305.82	23.62	-85.2	-88.6	3.0	1.56e+00	0	47	104	0	60	1048575
2026-01-18 10:21:06.22	306.06	23.53	-85.2	-88.6	3.0	1.56e+00	0	47	104	0	60	1048575
2026-01-18 10:21:07.22	306.29	23.44	-85.2	-88.6	2.8	1.56e+00	0	47	104	0	60	1048572
2026-01-18 10:21:08.23	306.52	23.36	-85.2	-88.6	3.0	1.56e+00	0	47	104	0	60	1048575
2026-01-18 10:21:09.24	306.74	23.27	-85.2	-88.6	2.8	1.56e+00	0	47	104	0	60	1048575
2026-01-18 10:21:10.25	306.97	23.19	-85.2	-88.6	3.0	1.56e+00	0	47	104	0	60	1048575
2026-01-18 10:21:11.25	307.20	23.10	-85.2	-88.6	3.0	1.56e+00	0	47	104	0	60	1048573
2026-01-18 10:21:12.26	307.42	23.01	-85.2	-88.6	3.0	1.55e+00	0	47	104	0	60	1048574
2026-01-18 10:21:13.27	307.65	22.93	-85.2	-88.6	3.1	1.55e+00	0	47	104	0	60	1048575
2026-01-18 10:21:14.27	307.87	22.84	-85.2	-88.6	2.8	1.56e+00	0	47	104	0	60	1048573
2026-01-18 10:21:15.28	308.09	22.75	-85.2	-88.6	3.0	1.56e+00	0	47	104	0	60	1048574
2026-01-18 10:21:16.29	308.31	22.67	-85.2	-88.6	3.0	1.55e+00	0	47	104	0	60	1048575
2026-01-18 10:21:17.30	308.53	22.58	-85.2	-88.6	3.0	1.55e+00	0	47	104	0	60	1048575
2026-01-18 10:21:18.31	308.75	22.49	-85.2	-88.6	3.1	1.56e+00	0	47	104	0	60	1048573
2026-01-18 10:21:19.31	308.96	22.40	-85.2	-88.6	3.0	1.55e+00	0	47	104	0	60	1048575
2026-01-18 10:21:20.32	309.18	22.32	-85.2	-88.6	3.2	1.56e+00	0	47	104	0	60	1048572
2026-01-18 10:21:21.33	309.39	22.23	-85.2	-88.6	2.9	1.56e+00	0	47	104	0	60	1048573
2026-01-18 10:21:22.34	309.61	22.14	-85.2	-88.6	2.8	1.56e+00	0	47	104	0	60	1048574
2026-01-18 10:21:23.34	309.82	22.05	-85.2	-88.6	2.7	1.55e+00	0	47	104	0	60	1048574
2026-01-18 10:21:24.35	310.03	21.96	-85.2	-88.6	3.1	1.56e+00	0	47	104	0	60	1048575
2026-01-18 10:21:25.36	310.24	21.88	-85.2	-88.6	3.2	1.56e+00	0	47	104	0	60	1048575
2026-01-18 10:21:26.36	310.45	21.79	-85.2	-88.6	3.0	1.56e+00	0	47	104	0	60	1048575
2026-01-18 10:21:27.37	310.65	21.70	-85.2	-88.6	3.0	1.56e+00	0	47	104	0	60	1048574
2026-01-18 10:21:28.38	310.86	21.61	-85.2	-88.6	3.2	1.56e+00	0	47	104	0	60	1048573
2026-01-18 10:21:29.39	311.06	21.52	-85.2	-88.6	3.2	1.56e+00	0	47	104	0	60	1048572
2026-01-18 10:21:30.40	311.27	21.43	-85.2	-88.6	3.1	1.56e+00	0	47	104	0	60	1048573
2026-01-18 10:21:31.41	311.47	21.35	-85.2	-88.6	2.8	1.56e+00	0	47	104	0	60	1048575
2026-01-18 10:21:32.41	311.67	21.26	-85.2	-88.6	2.9	1.56e+00	0	47	104	0	60	1048575
2026-01-18 10:21:33.42	311.87	21.17	-84.3	-88.6	3.1	1.56e+00	0	47	104	0	60	1048573
2026-01-18 10:21:34.43	312.07	21.08	-85.2	-88.6	3.1	1.56e+00	0	47	104	0	60	1048573
2026-01-18 10:21:35.44	312.27	20.99	-85.2	-88.6	3.0	1.55e+00	0	47	104	0	60	1048575
2026-01-18 10:21:36.45	312.47	20.90	-85.2	-88.6	3.1	1.55e+00	0	47	104	0	60	1048574
2026-01-18 10:21:37.45	312.66	20.81	-85.2	-88.6	3.2	1.56e+00	0	47	104	0	60	1048574
2026-01-18 10:21:38.46	312.86	20.73	-84.7	-88.6	3.0	1.56e+00	0	47	104	0	60	1048572
2026-01-18 10:21:39.47	313.05	20.64	-85.2	-88.6	3.0	1.56e+00	0	47	104	0	60	1048572
2026-01-18 10:21:40.48	313.25	20.55	-85.2	-88.6	3.0	1.55e+00	0	47	104	0	60	1048575
2026-01-18 10:21:41.49	313.44	20.46	-85.2	-88.6	3.0	1.56e+00	0	47	104	0	60	1048575
2026-01-18 10:21:42.49	313.63	20.37	-84.3	-88.6	3.2	1.56e+00	0	47	104	0	60	1048573
2026-01-18 10:21:43.50	313.82	20.28	-84.3	-88.6	3.0	1.56e+00	0	47	104	0	60	1048575
2026-01-18 10:21:44.51	314.01	20.19	-85.2	-88.6	2.9	1.56e+00	0	47	104	0	60	1048573
2026-01-18 10:21:45.51	314.19	20.11	-85.2	-88.6	2.9	1.56e+00	0	47	104	0	60	1048574
2026-01-18 10:21:46.52	314.38	20.02	-85.2	-88.6	2.9	1.56e+00	0	47	104	0	60	1048575
2026-01-18 10:21:47.52	314.56	19.93	-85.2	-88.6	2.9	1.55e+00	0	47	104	0	60	1048573
2026-01-18 10:21:48.53	314.75	19.84	-83.5	-88.6	2.8	1.56e+00	0	47	104	0	60	1048574
2026-01-18 10:21:49.54	314.93	19.75	-85.2	-88.6	3.1	1.55e+00	0	47	104	0	60	1048575
2026-01-18 10:21:50.55	315.11	19.66	-85.2	-88.6	2.9	1.55e+00	0	47	104	0	60	1048575
2026-01-18 10:21:51.55	315.29	19.58	-85.2	-88.6	3.1	1.56e+00	0	47	104	0	60	1048575
2026-01-18 10:21:52.56	315.47	19.49	-85.2	-88.6	3.1	1.56e+00	0	47	104	0	60	1048575
2026-01-18 10:21:53.57	315.65	19.40	-85.2	-88.6	2.8	1.56e+00	0	47	104	0	60	1048575
2026-01-18 10:21:54.57	315.83	19.31	-85.2	-88.6	3.1	1.56e+00	0	47	104	0	60	1048575
2026-01-18 10:21:55.58	316.01	19.22	-85.2	-88.6	3.0	1.55e+00	0	47	104	0	60	1048575
2026-01-18 10:21:56.58	316.18	19.13	-85.2	-88.6	3.0	1.56e+00	0	47	104	0	60	1048575
2026-01-18 10:21:57.59	316.36	19.05	-85.2	-88.6	3.1	1.56e+00	0	47	104	0	60	1048573
2026-01-18 10:21:58.60	316.53	18.96	-85.2	-88.6	3.0	1.56e+00	0	47	104	0	60	1048574
2026-01-18 10:21:59.60	316.70	18.87	-85.2	-88.6	3.1	1.56e+00	0	47	104	0	60	1048575
2026-01-18 10:22:00.61	316.88	18.78	-85.2	-88.6	3.2	1.55e+00	0	47	104	0	60	1048574
2026-01-18 10:22:01.62	317.05	18.69	-85.2	-88.6	3.1	1.55e+00	0	47	104	0	60	1048574
2026-01-18 10:22:02.63	317.22	18.61	-85.2	-88.6	2.9	1.55e+00	0	47	104	0	60	1048575
2026-01-18 10:22:03.63	317.39	18.52	-84.3	-88.6	2.9	1.55e+00	0	47	104	0	60	1048575
2026-01-18 10:22:04.64	317.55	18.43	-84.7	-88.6	3.0	1.56e+00	0	47	104	0	60	1048575
2026-01-18 10:22:05.65	317.72	18.34	-85.2	-88.6	2.7	1.56e+00	0	47	104	0	60	1048575
2026-01-18 10:22:06.66	317.89	18.26	-85.2	-88.6	2.9	1.56e+00	0	47	104	0	60	1048574
2026-01-18 10:22:07.67	318.05	18.17	-85.2	-88.6	2.9	1.56e+00	0	47	104	0	60	1048574
2026-01-18 10:22:08.67	318.22	18.08	-84.3	-88.6	3.1	1.56e+00	0	47	104	0	60	1048573
2026-01-18 10:22:09.68	318.38	17.99	-85.2	-88.6	3.0	1.56e+00	0	47	104	0	60	1048575
2026-01-18 10:22:10.69	318.55	17.91	-85.2	-88.6	3.1	1.56e+00	0	47	104	0	60	1048574
2026-01-18 10:22:11.70	318.71	17.82	-85.2	-88.6	2.9	1.55e+00	0	47	104	0	60	1048575
2026-01-18 10:22:12.70	318.87	17.73	-85.2	-88.6	2.9	1.56e+00	0	47	104	0	60	1048573
2026-01-18 10:22:13.71	319.03	17.65	-85.2	-88.6	3.0	1.56e+00	0	47	104	0	60	1048574
2026-01-18 10:22:14.71	319.19	17.56	-85.2	-88.6	3.1	1.56e+00	0	47	104	0	60	1048575
2026-01-18 10:22:15.72	319.34	17.47	-85.2	-88.6	3.0	1.56e+00	0	47	104	0	60	1048573
2026-01-18 10:22:16.73	319.50	17.39	-85.2	-88.6	2.9	1.56e+00	0	47	104	0	60	1048571
2026-01-18 10:22:17.74	319.66	17.30	-85.2	-88.6	2.9	1.55e+00	0	47	104	0	60	1048575
2026-01-18 10:22:18.75	319.82	17.21	-85.2	-88.6	2.8	1.56e+00	0	47	104	0	60	1048574
2026-01-18 10:22:19.76	319.97	17.13	-85.2	-88.6	2.7	1.56e+00	0	47	104	0	60	1048572
2026-01-18 10:22:20.76	320.12	17.04	-85.2	-88.6	3.0	1.56e+00	0	47	104	0	60	1048574
2026-01-18 10:22:21.77	320.28	16.96	-85.2	-88.6	3.2	1.55e+00	0	47	104	0	60	1048575
2026-01-18 10:22:22.78	320.43	16.87	-85.2	-88.6	3.3	1.55e+00	0	47	104	0	60	1048575
2026-01-18 10:22:23.79	320.58	16.78	-83.5	-88.6	3.2	1.56e+00	0	47	104	0	60	1048571
2026-01-18 10:22:24.80	320.73	16.70	-85.2	-88.6	3.0	1.55e+00	0	47	104	0	60	1048575
2026-01-18 10:22:25.81	320.88	16.61	-85.2	-88.6	3.1	1.55e+00	0	47	104	0	60	1048573
2026-01-18 10:22:26.81	321.03	16.53	-85.2	-88.6	3.2	1.56e+00	0	47	104	0	60	1048572
2026-01-18 10:22:27.82	321.18	16.44	-85.2	-88.6	3.1	1.56e+00	0	47	104	0	60	1048575
2026-01-18 10:22:28.82	321.33	16.36	-85.2	-88.6	3.0	1.55e+00	0	47	104	0	60	1048575
2026-01-18 10:22:29.82	321.47	16.27	-85.2	-88.6	3.0	1.55e+00	0	47	104	0	60	1048573
2026-01-18 10:22:30.83	321.62	16.19	-85.2	-88.6	2.8	1.55e+00	0	47	104	0	60	1048574
2026-01-18 10:22:31.83	321.76	16.10	-85.2	-88.6	3.0	1.56e+00	0	47	104	0	60	1048575
2026-01-18 10:22:32.84	321.90	16.02	-83.5	-88.6	3.1	1.56e+00	0	47	104	0	60	1048575
2026-01-18 10:22:33.85	322.05	15.93	-85.2	-88.6	3.0	1.56e+00	0	47	104	0	60	1048574
2026-01-18 10:22:34.85	322.19	15.85	-85.2	-88.6	3.2	1.55e+00	0	47	104	0	60	1048573
2026-01-18 10:22:35.86	322.33	15.77	-85.2	-88.6	3.1	1.56e+00	0	47	104	0	60	1048575
2026-01-18 10:22:36.87	322.47	15.68	-85.2	-88.6	3.0	1.55e+00	0	47	104	0	60	1048575
2026-01-18 10:22:37.88	322.61	15.60	-85.2	-88.6	2.8	1.56e+00	0	47	104	0	60	1048575
2026-01-18 10:22:38.88	322.75	15.51	-85.2	-88.6	3.2	1.55e+00	0	47	104	0	60	1048574
2026-01-18 10:22:39.89	322.89	15.43	-85.2	-88.6	3.0	1.56e+00	0	47	104	0	60	1048575
2026-01-18 10:22:40.90	323.03	15.35	-85.2	-88.6	3.1	1.56e+00	0	47	104	0	60	1048575
2026-01-18 10:22:41.91	323.17	15.26	-85.2	-88.6	2.9	1.56e+00	0	47	104	0	60	1048574
2026-01-18 10:22:42.92	323.30	15.18	-85.2	-88.6	3.1	1.56e+00	0	47	104	0	60	1048567
2026-01-18 10:22:43.93	323.44	15.10	-85.2	-88.6	3.2	1.56e+00	0	47	104	0	60	1048573
2026-01-18 10:22:44.93	323.58	15.01	-85.2	-88.6	3.0	1.56e+00	0	47	104	0	60	1048575
2026-01-18 10:22:45.94	323.71	14.93	-85.2	-88.6	2.7	1.56e+00	0	47	104	0	60	1048570
2026-01-18 10:22:46.95	323.84	14.85	-85.2	-88.6	2.7	1.55e+00	0	47	104	0	60	1048574
2026-01-18 10:22:47.96	323.98	14.76	-85.2	-88.6	2.9	1.56e+00	0	47	104	0	60	1048574
2026-01-18 10:22:48.96	324.11	14.68	-85.2	-88.6	3.2	1.56e+00	0	47	104	0	60	1048574
2026-01-18 10:22:49.97	324.24	14.60	-85.2	-88.6	2.9	1.55e+00	0	47	104	0	60	1048575
2026-01-18 10:22:50.97	324.37	14.52	-85.2	-88.6	2.9	1.55e+00	0	47	104	0	60	1048575
2026-01-18 10:22:51.97	324.50	14.44	-85.2	-88.6	3.2	1.56e+00	0	47	104	0	60	1048575
2026-01-18 10:22:52.98	324.63	14.35	-85.2	-88.6	3.1	1.55e+00	0	47	104	0	60	1048575
2026-01-18 10:22:53.99	324.76	14.27	-84.3	-88.6	3.0	1.56e+00	0	47	104	0	60	1048575
2026-01-18 10:22:54.99	324.89	14.19	-85.2	-88.6	3.2	1.56e+00	0	47	104	0	60	1048574
2026-01-18 10:22:56.00	325.01	14.11	-85.2	-88.6	3.0	1.56e+00	0	47	104	0	60	1048574
2026-01-18 10:22:57.01	325.14	14.03	-85.2	-88.6	2.9	1.56e+00	0	47	104	0	60	1048574
2026-01-18 10:22:58.01	325.27	13.95	-85.2	-88.6	2.7	1.56e+00	0	47	104	0	60	1048573
2026-01-18 10:22:59.01	325.39	13.87	-85.2	-88.6	2.9	1.55e+00	0	47	104	0	60	1048575
2026-01-18 10:23:00.02	325.51	13.79	-85.2	-88.6	3.0	1.55e+00	0	47	104	0	60	1048573
2026-01-18 10:23:01.02	325.64	13.71	-85.2	-88.6	3.1	1.56e+00	0	47	104	0	60	1048574
2026-01-18 10:23:02.03	325.76	13.63	-85.2	-88.6	3.0	1.55e+00	0	47	104	0	60	1048575
2026-01-18 10:23:03.03	325.88	13.55	-85.2	-88.6	3.0	1.56e+00	0	47	104	0	60	1048575
2026-01-18 10:23:04.03	326.00	13.47	-85.2	-88.6	3.0	1.56e+00	0	47	104	0	60	1048575
2026-01-18 10:23:05.03	326.13	13.39	-85.2	-88.6	3.0	1.56e+00	0	47	104	0	60	1048575
2026-01-18 10:23:06.04	326.25	13.31	-85.2	-88.6	3.1	1.56e+00	0	47	104	0	60	1048574
2026-01-18 10:23:07.04	326.37	13.23	-85.2	-88.6	2.8	1.56e+00	0	47	104	0	60	1048575
2026-01-18 10:23:08.05	326.49	13.15	-85.2	-88.6	2.9	1.56e+00	0	47	104	0	60	1048574
2026-01-18 10:23:09.06	326.61	13.07	-85.2	-88.6	3.1	1.56e+00	0	47	104	0	60	1048574
2026-01-18 10:23:10.06	326.72	12.99	-85.2	-88.6	3.3	1.56e+00	0	47	104	0	60	1048573
2026-01-18 10:23:11.07	326.84	12.91	-85.2	-88.6	3.0	1.56e+00	0	47	104	0	60	1048574
2026-01-18 10:23:12.08	326.96	12.83	-85.2	-88.6	3.1	1.55e+00	0	47	104	0	60	1048573
2026-01-18 10:23:13.09	327.08	12.75	-85.2	-88.6	3.0	1.56e+00	0	47	104	0	60	1048573
2026-01-18 10:23:14.09	327.19	12.67	-85.2	-88.6	3.1	1.55e+00	0	47	104	0	60	1048574
2026-01-18 10:23:15.10	327.31	12.59	-85.2	-88.6	3.0	1.56e+00	0	47	104	0	60	1048575
2026-01-18 10:23:16.11	327.42	12.51	-85.2	-88.6	3.0	1.56e+00	0	47	104	0	60	1048574
2026-01-18 10:23:17.12	327.54	12.44	-85.2	-88.6	3.0	1.56e+00	0	47	104	0	60	1048575
2026-01-18 10:23:18.13	327.65	12.36	-85.2	-88.6	3.1	1.55e+00	0	47	104	0	60	1048575
2026-01-18 10:23:19.13	327.76	12.28	-85.2	-88.6	3.0	1.56e+00	0	47	104	0	60	1048574
2026-01-18 10:23:20.13	327.87	12.20	-85.2	-88.6	3.0	1.56e+00	0	47	104	0	60	1048575
2026-01-18 10:23:21.14	327.99	12.13	-85.2	-88.6	2.9	1.56e+00	0	47	104	0	60	1048573
2026-01-18 10:23:22.14	328.10	12.05	-85.2	-88.6	2.9	1.56e+00	0	47	104	0	60	1048574
2026-01-18 10:23:23.15	328.21	11.97	-85.2	-88.6	2.9	1.56e+00	0	47	104	0	60	1048573
2026-01-18 10:23:24.14	328.32	11.90	-85.2	-88.6	3.1	1.56e+00	0	47	104	0	60	1048574
2026-01-18 10:23:25.15	328.43	11.82	-85.2	-88.6	2.9	1.55e+00	0	47	104	0	60	1048573
2026-01-18 10:23:26.15	328.54	11.74	-85.2	-88.6	3.0	1.56e+00	0	47	104	0	60	1048575
2026-01-18 10:23:27.16	328.64	11.66	-83.9	-88.6	3.1	1.55e+00	0	47	104	0	60	1048573
2026-01-18 10:23:28.16	328.75	11.59	-85.2	-88.6	3.1	1.56e+00	0	47	104	0	60	1048574
2026-01-18 10:23:29.17	328.86	11.51	-85.2	-88.6	3.2	1.56e+00	0	47	104	0	60	1048575
2026-01-18 10:23:30.18	328.97	11.44	-85.2	-88.6	3.1	1.56e+00	0	47	104	0	60	1048575
2026-01-18 10:23:31.18	329.07	11.36	-85.2	-88.6	3.2	1.56e+00	0	47	104	0	60	1048574
2026-01-18 10:23:32.19	329.18	11.28	-85.2	-88.6	3.1	1.56e+00	0	47	104	0	60	1048575
2026-01-18 10:23:33.20	329.28	11.21	-85.2	-88.6	3.0	1.55e+00	0	47	104	0	60	1048575
2026-01-18 10:23:34.20	329.39	11.13	-85.2	-88.6	3.1	1.56e+00	0	47	104	0	60	1048575
2026-01-18 10:23:35.21	329.49	11.06	-85.2	-88.6	3.3	1.56e+00	0	47	104	0	60	1048574
2026-01-18 10:23:36.22	329.60	10.98	-85.2	-88.6	3.0	1.55e+00	0	47	104	0	60	1048575
2026-01-18 10:23:37.23	329.70	10.91	-85.2	-88.6	3.0	1.56e+00	0	47	104	0	60	1048575
2026-01-18 10:23:38.24	329.80	10.83	-85.2	-88.6	3.0	1.56e+00	0	47	104	0	60	1048575
2026-01-18 10:23:39.24	329.91	10.76	-85.2	-88.6	3.2	1.55e+00	0	47	104	0	60	1048574
2026-01-18 10:23:40.25	330.01	10.68	-85.2	-88.6	3.1	1.56e+00	0	47	104	0	60	1048575
2026-01-18 10:23:41.25	330.11	10.61	-85.2	-88.6	2.9	1.55e+00	0	47	104	0	60	1048575
2026-01-18 10:23:42.26	330.21	10.53	-85.2	-88.6	3.0	1.56e+00	0	47	104	0	60	1048573
2026-01-18 10:23:43.27	330.31	10.46	-85.2	-88.6	3.0	1.56e+00	0	47	104	0	60	1048575
2026-01-18 10:23:44.28	330.41	10.38	-84.3	-88.6	2.8	1.55e+00	0	47	104	0	60	1048575
2026-01-18 10:23:45.29	330.51	10.31	-85.2	-88.6	2.8	1.56e+00	0	47	104	0	60	1048574
2026-01-18 10:23:46.29	330.61	10.24	-85.2	-88.6	3.1	1.55e+00	0	47	104	0	60	1048575
2026-01-18 10:23:47.30	330.71	10.16	-85.2	-88.6	2.9	1.56e+00	0	47	104	0	60	1048573
2026-01-18 10:23:48.31	330.81	10.09	-85.2	-88.6	2.9	1.56e+00	0	47	104	0	60	1048573
2026-01-18 10:23:49.31	330.90	10.02	-84.7	-88.6	3.1	1.56e+00	0	47	104	0	60	1048575
2026-01-18 10:23:50.32	331.00	9.94	-85.2	-88.6	3.1	1.55e+00	0	47	104	0	60	1048575
