passes_logs/2026/01/18/R3.2S-Naryan-Mar/R3.2S-Naryan-Mar__20260118_023544_AQUA_rec.log

#Pass ID: 20260118_023544_AQUA
#Satellite: AQUA
#Configuration: AQUA
#almurnet v.1.7.20240730
#Start time: 2026-01-18 02:35:46

#Version: 2.2.20231116
#Station: R3.2S-Naryan-Mar
#Location: 53.008057 lon 67.646978 lat
#TLE: 1 27424U 02022A   26017.29152041  .00000842  00000+0  17841-3 0  9992
#TLE: 2 27424  98.4085 343.7574 0002011  75.4099  30.6811 14.61825797261228

#Time	Az	El	Level	Level2	SNR	BER	BlckErr	Temp	State	Recorded	gain1	gain2
2026-01-18 02:35:46.07	28.97	0.09	-85.2	-88.6	3.2	1.56e+00	0	45	0	0	60	1048574
2026-01-18 02:35:47.08	28.92	0.15	-83.9	-88.8	2.5	3.10e+01	0	46	104	0	60	1048573
2026-01-18 02:35:48.09	28.88	0.21	-84.3	-88.8	2.4	3.10e+01	0	46	104	0	60	1048573
2026-01-18 02:35:49.09	28.84	0.27	-84.3	-88.8	2.6	3.10e+01	0	46	104	0	60	1048573
2026-01-18 02:35:50.10	28.80	0.33	-84.3	-88.8	2.2	3.10e+01	0	46	104	0	60	1048573
2026-01-18 02:35:51.11	28.75	0.39	-83.9	-88.8	2.4	3.10e+01	0	46	104	0	60	1048573
2026-01-18 02:35:52.11	28.71	0.45	-84.3	-88.8	2.5	3.10e+01	0	46	104	0	60	1048573
2026-01-18 02:35:53.11	28.67	0.51	-84.3	-88.8	2.7	3.10e+01	0	46	104	0	60	1048573
2026-01-18 02:35:54.12	28.62	0.57	-84.3	-88.8	2.4	3.10e+01	0	46	104	0	60	1048573
2026-01-18 02:35:55.13	28.58	0.63	-84.3	-88.8	2.6	3.10e+01	0	46	104	0	60	1048573
2026-01-18 02:35:56.13	28.54	0.69	-83.9	-88.8	2.6	3.10e+01	0	46	104	0	60	1048573
2026-01-18 02:35:57.14	28.49	0.75	-83.9	-88.8	2.1	3.10e+01	0	46	104	0	60	1048573
2026-01-18 02:35:58.15	28.45	0.81	-84.3	-88.8	2.3	3.10e+01	0	46	104	0	60	1048573
2026-01-18 02:35:59.15	28.40	0.87	-84.3	-88.8	2.5	3.10e+01	0	46	104	0	60	1048573
2026-01-18 02:36:00.16	28.36	0.93	-83.9	-88.8	2.5	3.10e+01	0	46	104	0	60	1048573
2026-01-18 02:36:01.17	28.31	0.99	-83.9	-88.8	2.7	3.10e+01	0	46	104	0	60	1048573
2026-01-18 02:36:02.18	28.27	1.05	-84.3	-88.8	2.4	3.10e+01	0	46	104	0	60	1048573
2026-01-18 02:36:03.18	28.22	1.11	-84.3	-88.8	2.6	3.10e+01	0	46	104	0	60	1048573
2026-01-18 02:36:04.19	28.18	1.18	-84.3	-88.8	2.3	3.10e+01	0	46	104	0	60	1048573
2026-01-18 02:36:05.19	28.13	1.24	-83.9	-88.8	2.7	3.10e+01	0	46	104	0	60	1048573
2026-01-18 02:36:06.20	28.08	1.30	-83.9	-88.8	2.5	3.10e+01	0	46	104	0	60	1048573
2026-01-18 02:36:07.21	28.04	1.36	-84.3	-88.8	2.2	3.10e+01	0	46	104	0	60	1048573
2026-01-18 02:36:08.21	27.99	1.42	-84.3	-88.8	2.3	3.10e+01	0	46	104	0	60	1048573
2026-01-18 02:36:09.22	27.94	1.48	-84.3	-88.8	2.3	3.10e+01	0	46	104	0	60	1048573
2026-01-18 02:36:10.22	27.90	1.55	-83.9	-88.8	2.4	3.10e+01	0	46	104	0	60	1048573
2026-01-18 02:36:11.23	27.85	1.61	-83.9	-88.8	2.3	3.10e+01	0	46	104	0	60	1048573
2026-01-18 02:36:12.23	27.80	1.67	-84.3	-88.8	2.1	3.10e+01	0	46	104	0	60	1048573
2026-01-18 02:36:13.24	27.75	1.73	-84.3	-88.8	2.6	3.10e+01	0	46	104	0	60	1048573
2026-01-18 02:36:14.24	27.71	1.80	-84.3	-88.8	2.5	3.10e+01	0	46	104	0	60	1048573
2026-01-18 02:36:15.25	27.66	1.86	-83.9	-88.8	2.2	3.10e+01	0	46	104	0	60	1048573
2026-01-18 02:36:16.26	27.61	1.92	-83.9	-88.8	2.1	3.10e+01	0	46	104	0	60	1048573
2026-01-18 02:36:17.27	27.56	1.98	-84.3	-88.8	2.6	3.10e+01	0	47	104	0	60	1048573
2026-01-18 02:36:18.27	27.51	2.05	-84.3	-88.8	2.4	3.10e+01	0	47	104	0	60	1048573
2026-01-18 02:36:19.28	27.46	2.11	-83.9	-88.8	2.7	3.10e+01	0	47	104	0	60	1048573
2026-01-18 02:36:20.28	27.41	2.17	-83.9	-88.8	2.4	3.10e+01	0	46	104	0	60	1048573
2026-01-18 02:36:21.29	27.36	2.24	-84.3	-88.8	2.4	3.10e+01	0	46	104	0	60	1048573
2026-01-18 02:36:22.29	27.31	2.30	-84.3	-88.8	2.3	3.10e+01	0	46	104	0	60	1048573
2026-01-18 02:36:23.30	27.26	2.36	-84.3	-88.8	2.5	3.10e+01	0	47	104	0	60	1048573
2026-01-18 02:36:24.30	27.21	2.43	-83.9	-88.8	2.3	3.10e+01	0	46	104	0	60	1048573
2026-01-18 02:36:25.31	27.16	2.49	-83.9	-88.8	2.4	3.10e+01	0	47	104	0	60	1048573
2026-01-18 02:36:26.32	27.11	2.56	-84.3	-88.8	2.2	3.10e+01	0	46	104	0	60	1048573
2026-01-18 02:36:27.32	27.06	2.62	-84.3	-88.8	2.5	3.10e+01	0	46	104	0	60	1048573
2026-01-18 02:36:28.33	27.01	2.69	-84.3	-88.8	2.7	3.10e+01	0	47	104	0	60	1048573
2026-01-18 02:36:29.33	26.96	2.75	-83.9	-88.8	2.4	3.10e+01	0	46	104	0	60	1048573
2026-01-18 02:36:30.34	26.90	2.81	-84.3	-88.8	2.4	3.10e+01	0	46	104	0	60	1048573
2026-01-18 02:36:31.34	26.85	2.88	-84.3	-88.8	2.3	3.10e+01	0	47	104	0	60	1048573
2026-01-18 02:36:32.35	26.80	2.94	-83.9	-88.8	2.5	3.10e+01	0	47	104	0	60	1048573
2026-01-18 02:36:33.36	26.75	3.01	-84.3	-88.8	2.1	3.10e+01	0	46	104	0	60	1048573
2026-01-18 02:36:34.36	26.69	3.07	-83.9	-88.8	2.6	3.10e+01	0	47	104	0	60	1048573
2026-01-18 02:36:35.37	26.64	3.14	-84.3	-88.8	2.6	3.10e+01	0	46	104	0	60	1048575
2026-01-18 02:36:36.38	26.59	3.21	-84.3	-88.8	2.5	3.10e+01	0	47	104	0	60	1048575
2026-01-18 02:36:37.39	26.53	3.27	-84.3	-88.8	2.4	3.10e+01	0	46	104	0	60	1048575
2026-01-18 02:36:38.39	26.48	3.34	-84.3	-88.8	2.4	3.10e+01	0	46	104	0	60	1048575
2026-01-18 02:36:39.40	26.42	3.40	-83.9	-88.8	2.2	3.10e+01	0	47	104	0	60	1048575
2026-01-18 02:36:40.41	26.37	3.47	-84.3	-88.8	2.7	3.10e+01	0	47	104	0	60	1048575
2026-01-18 02:36:41.41	26.31	3.54	-84.3	-88.8	2.6	3.10e+01	0	47	104	0	60	1048575
2026-01-18 02:36:42.42	26.26	3.60	-84.3	-88.8	2.6	3.10e+01	0	47	104	0	60	1048575
2026-01-18 02:36:43.42	26.20	3.67	-83.9	-88.8	2.2	3.10e+01	0	47	104	0	60	1048575
2026-01-18 02:36:44.42	26.15	3.74	-84.3	-88.8	2.4	3.10e+01	0	47	104	0	60	1048575
2026-01-18 02:36:45.43	26.09	3.80	-84.3	-88.8	2.3	3.10e+01	0	47	104	0	60	1048575
2026-01-18 02:36:46.44	26.03	3.87	-84.3	-88.8	2.4	3.10e+01	0	47	104	0	60	1048573
2026-01-18 02:36:47.44	25.97	3.94	-84.3	-88.8	2.3	3.10e+01	0	47	104	0	60	1048573
2026-01-18 02:36:48.45	25.92	4.01	-83.5	-88.8	2.6	3.10e+01	0	47	104	0	60	1048573
2026-01-18 02:36:49.45	25.86	4.07	-83.9	-88.8	2.3	3.10e+01	0	47	104	0	60	1048573
2026-01-18 02:36:50.46	25.80	4.14	-84.3	-88.8	2.4	3.10e+01	0	47	104	0	60	1048573
2026-01-18 02:36:51.47	25.74	4.21	-84.3	-88.8	2.4	3.10e+01	0	47	104	0	60	1048573
2026-01-18 02:36:52.47	25.69	4.28	-84.3	-88.8	2.5	3.10e+01	0	47	104	0	60	1048573
2026-01-18 02:36:53.48	25.63	4.35	-83.9	-88.8	2.3	3.10e+01	0	47	104	0	60	1048573
2026-01-18 02:36:54.49	25.57	4.41	-84.3	-88.8	2.5	3.10e+01	0	47	104	0	60	1048573
2026-01-18 02:36:55.50	25.51	4.48	-84.3	-88.8	2.5	3.10e+01	0	47	104	0	60	1048573
2026-01-18 02:36:56.50	25.45	4.55	-84.3	-88.8	2.2	3.10e+01	0	47	104	0	60	1048573
2026-01-18 02:36:57.51	25.39	4.62	-83.9	-88.8	2.2	3.10e+01	0	47	104	0	60	1048573
2026-01-18 02:36:58.51	25.33	4.69	-83.9	-88.8	2.6	3.10e+01	0	47	104	0	60	1048573
2026-01-18 02:36:59.52	25.27	4.76	-84.3	-88.8	2.6	3.10e+01	0	47	104	0	60	1048573
2026-01-18 02:37:00.52	25.20	4.83	-84.3	-88.8	2.6	3.10e+01	0	47	104	0	60	1048573
2026-01-18 02:37:01.53	25.14	4.90	-83.9	-88.8	2.5	3.10e+01	0	47	104	0	60	1048573
2026-01-18 02:37:02.54	25.08	4.97	-83.9	-88.8	2.4	3.10e+01	0	47	104	0	60	1048573
2026-01-18 02:37:03.55	25.02	5.04	-84.3	-88.8	2.7	3.10e+01	0	47	104	0	60	1048573
2026-01-18 02:37:04.56	24.96	5.11	-84.3	-88.8	2.7	3.10e+01	0	47	104	0	60	1048573
2026-01-18 02:37:05.56	24.89	5.18	-84.3	-88.8	2.1	3.10e+01	0	47	104	0	60	1048573
2026-01-18 02:37:06.56	24.83	5.25	-84.3	-88.8	2.3	3.10e+01	0	47	104	0	60	1048573
2026-01-18 02:37:07.57	24.77	5.32	-83.9	-88.8	2.3	3.10e+01	0	47	104	0	60	1048573
2026-01-18 02:37:08.57	24.70	5.39	-84.3	-88.8	2.5	3.10e+01	0	47	104	0	60	1048573
2026-01-18 02:37:09.58	24.64	5.46	-84.3	-88.8	2.4	3.10e+01	0	47	104	0	60	1048573
2026-01-18 02:37:10.59	24.57	5.53	-84.3	-88.8	2.5	3.10e+01	0	47	104	0	60	1048573
2026-01-18 02:37:11.60	24.51	5.60	-83.9	-88.8	2.5	3.10e+01	0	47	104	0	60	1048573
2026-01-18 02:37:12.61	24.44	5.68	-83.9	-88.8	2.7	3.10e+01	0	47	104	0	60	1048573
2026-01-18 02:37:13.61	24.38	5.75	-84.3	-88.8	2.5	3.10e+01	0	47	104	0	60	1048573
2026-01-18 02:37:14.62	24.31	5.82	-84.3	-88.8	2.3	3.10e+01	0	47	104	0	60	1048573
2026-01-18 02:37:15.62	24.24	5.89	-84.3	-88.8	2.6	3.10e+01	0	47	104	0	60	1048573
2026-01-18 02:37:16.63	24.18	5.96	-83.9	-88.8	2.3	3.10e+01	0	47	104	0	60	1048573
2026-01-18 02:37:17.63	24.11	6.04	-83.9	-88.8	2.5	3.10e+01	0	47	104	0	60	1048573
2026-01-18 02:37:18.63	24.04	6.11	-84.3	-88.8	2.3	3.10e+01	0	47	104	0	60	1048573
2026-01-18 02:37:19.64	23.97	6.18	-84.3	-88.8	2.5	3.10e+01	0	47	104	0	60	1048574
2026-01-18 02:37:20.65	23.90	6.26	-84.3	-88.8	2.1	3.10e+01	0	47	104	0	60	1048574
2026-01-18 02:37:21.65	23.84	6.33	-83.9	-88.8	2.6	3.10e+01	0	47	104	0	60	1048574
2026-01-18 02:37:22.66	23.77	6.40	-83.9	-88.8	2.6	3.10e+01	0	47	104	0	60	1048574
2026-01-18 02:37:23.66	23.70	6.48	-83.9	-88.8	2.6	3.10e+01	0	47	104	0	60	1048574
2026-01-18 02:37:24.67	23.63	6.55	-83.9	-88.8	2.4	3.10e+01	0	47	104	0	60	1048574
2026-01-18 02:37:25.68	23.56	6.62	-84.3	-88.8	2.4	3.10e+01	0	47	104	0	60	1048574
2026-01-18 02:37:26.68	23.49	6.70	-83.9	-88.8	2.3	3.10e+01	0	47	104	0	60	1048574
2026-01-18 02:37:27.69	23.41	6.77	-84.3	-88.8	2.5	3.10e+01	0	47	104	0	60	1048574
2026-01-18 02:37:28.69	23.34	6.85	-84.3	-88.8	2.6	3.10e+01	0	47	104	0	60	1048574
2026-01-18 02:37:29.70	23.27	6.92	-84.3	-88.8	2.6	3.10e+01	0	47	104	0	60	1048574
2026-01-18 02:37:30.71	23.20	7.00	-83.9	-88.8	2.5	3.10e+01	0	47	104	0	60	1048574
2026-01-18 02:37:31.72	23.12	7.07	-83.9	-88.8	2.7	3.10e+01	0	47	104	0	60	1048574
2026-01-18 02:37:32.72	23.05	7.15	-84.3	-88.8	2.3	3.10e+01	0	47	104	0	60	1048574
2026-01-18 02:37:33.72	22.98	7.22	-84.3	-88.8	2.4	3.10e+01	0	47	104	0	60	1048574
2026-01-18 02:37:34.73	22.90	7.30	-84.3	-88.8	2.6	3.10e+01	0	47	104	0	60	1048574
2026-01-18 02:37:35.74	22.83	7.37	-84.3	-88.8	2.5	3.10e+01	0	47	104	0	60	1048574
2026-01-18 02:37:36.74	22.75	7.45	-83.9	-88.8	2.3	3.10e+01	0	47	104	0	60	1048574
2026-01-18 02:37:37.75	22.68	7.53	-84.3	-88.8	2.6	3.10e+01	0	47	104	0	60	1048574
2026-01-18 02:37:38.76	22.60	7.60	-84.3	-88.8	2.7	3.10e+01	0	47	104	0	60	1048574
2026-01-18 02:37:39.76	22.52	7.68	-84.3	-88.8	2.6	3.10e+01	0	47	104	0	60	1048574
2026-01-18 02:37:40.77	22.45	7.76	-83.9	-88.8	2.4	3.10e+01	0	47	104	0	60	1048574
2026-01-18 02:37:41.78	22.37	7.84	-84.3	-88.8	2.7	3.10e+01	0	47	104	0	60	1048574
2026-01-18 02:37:42.79	22.29	7.91	-83.9	-88.8	2.3	3.10e+01	0	47	104	0	60	1048574
2026-01-18 02:37:43.80	22.21	7.99	-84.3	-88.8	2.4	3.10e+01	0	47	104	0	60	1048574
2026-01-18 02:37:44.80	22.13	8.07	-84.3	-88.8	2.6	3.10e+01	0	47	104	0	60	1048574
2026-01-18 02:37:45.81	22.05	8.15	-83.9	-88.8	2.7	3.10e+01	0	47	104	0	60	1048574
2026-01-18 02:37:46.82	21.97	8.23	-84.3	-88.8	2.4	3.10e+01	0	47	104	0	60	1048574
2026-01-18 02:37:47.83	21.89	8.31	-83.9	-88.8	2.3	3.10e+01	0	47	104	0	60	1048574
2026-01-18 02:37:48.83	21.81	8.38	-84.3	-88.8	2.7	3.10e+01	0	47	104	0	60	1048574
2026-01-18 02:37:49.84	21.73	8.46	-83.9	-88.8	2.6	3.10e+01	0	47	104	0	60	1048574
2026-01-18 02:37:50.84	21.65	8.54	-83.9	-88.8	2.5	3.10e+01	0	47	104	0	60	1048574
2026-01-18 02:37:51.85	21.56	8.62	-84.3	-88.8	2.4	3.10e+01	0	47	104	0	60	1048574
2026-01-18 02:37:52.86	21.48	8.70	-83.9	-88.8	2.4	3.10e+01	0	47	104	0	60	1048574
2026-01-18 02:37:53.86	21.40	8.78	-84.3	-88.8	2.3	3.10e+01	0	47	104	0	60	1048574
2026-01-18 02:37:54.86	21.31	8.86	-83.5	-88.8	2.2	3.10e+01	0	47	104	0	60	1048574
2026-01-18 02:37:55.87	21.23	8.94	-84.3	-88.8	2.7	3.10e+01	0	47	104	0	60	1048574
2026-01-18 02:37:56.87	21.14	9.02	-84.3	-88.8	2.6	3.10e+01	0	47	104	0	60	1048574
2026-01-18 02:37:57.87	21.06	9.10	-84.3	-88.8	2.2	3.10e+01	0	47	104	0	60	1048574
2026-01-18 02:37:58.88	20.97	9.18	-84.3	-88.8	2.3	3.10e+01	0	47	104	0	60	1048574
2026-01-18 02:37:59.88	20.89	9.26	-83.9	-88.8	2.4	3.10e+01	0	47	104	0	60	1048574
2026-01-18 02:38:00.89	20.80	9.35	-84.3	-88.8	2.7	3.10e+01	0	47	104	0	60	1048574
2026-01-18 02:38:01.90	20.71	9.43	-84.3	-88.8	2.5	3.10e+01	0	47	104	0	60	1048574
2026-01-18 02:38:02.91	20.62	9.51	-84.3	-88.8	2.6	3.10e+01	0	47	104	0	60	1048574
2026-01-18 02:38:03.92	20.53	9.59	-83.9	-88.8	2.1	3.10e+01	0	47	104	0	60	1048574
2026-01-18 02:38:04.92	20.44	9.68	-83.9	-88.8	2.4	3.10e+01	0	47	104	0	60	1048574
2026-01-18 02:38:05.93	20.35	9.76	-84.3	-88.8	2.3	3.10e+01	0	47	104	0	60	1048574
2026-01-18 02:38:06.94	20.26	9.84	-84.3	-88.8	2.4	3.10e+01	0	47	104	0	60	1048574
2026-01-18 02:38:07.95	20.17	9.93	-84.3	-88.8	2.4	3.10e+01	0	47	104	0	60	1048574
2026-01-18 02:38:08.95	20.08	10.01	-83.9	-88.8	2.3	3.10e+01	0	47	104	0	60	1048574
2026-01-18 02:38:09.96	19.99	10.09	-83.9	-88.8	2.5	3.10e+01	0	47	104	0	60	1048574
2026-01-18 02:38:10.96	19.89	10.18	-84.3	-88.8	2.2	3.10e+01	0	47	104	0	60	1048574
2026-01-18 02:38:11.97	19.80	10.26	-84.3	-88.8	2.3	3.10e+01	0	47	104	0	60	1048574
2026-01-18 02:38:12.98	19.71	10.35	-84.3	-88.8	2.2	3.10e+01	0	47	104	0	60	1048574
2026-01-18 02:38:13.99	19.61	10.43	-83.9	-88.8	2.5	3.10e+01	0	47	104	0	60	1048574
2026-01-18 02:38:14.99	19.52	10.51	-83.9	-88.8	2.7	3.10e+01	0	47	104	0	60	1048574
2026-01-18 02:38:16.00	19.42	10.60	-84.3	-88.8	2.1	3.10e+01	0	47	104	0	60	1048574
2026-01-18 02:38:17.00	19.32	10.69	-84.3	-88.8	2.5	3.10e+01	0	47	104	0	60	1048574
2026-01-18 02:38:18.01	19.22	10.77	-84.3	-88.8	2.4	3.10e+01	0	47	104	0	60	1048574
2026-01-18 02:38:19.02	19.13	10.86	-83.9	-88.8	2.5	3.10e+01	0	47	104	0	60	1048574
2026-01-18 02:38:20.03	19.03	10.94	-84.3	-88.8	2.2	3.10e+01	0	47	104	0	60	1048574
2026-01-18 02:38:21.03	18.93	11.03	-84.3	-88.8	2.6	3.10e+01	0	47	104	0	60	1048574
2026-01-18 02:38:22.04	18.83	11.12	-84.3	-88.8	2.7	3.10e+01	0	47	104	0	60	1048574
2026-01-18 02:38:23.04	18.73	11.20	-83.9	-88.8	2.3	3.10e+01	0	47	104	0	60	1048574
2026-01-18 02:38:24.05	18.63	11.29	-83.9	-88.8	2.3	3.10e+01	0	47	104	0	60	1048574
2026-01-18 02:38:25.06	18.52	11.38	-84.3	-88.8	2.4	3.10e+01	0	47	104	0	60	1048574
2026-01-18 02:38:26.06	18.42	11.47	-84.3	-88.8	2.5	3.10e+01	0	47	104	0	60	1048574
2026-01-18 02:38:27.06	18.32	11.55	-84.3	-88.8	2.3	3.10e+01	0	47	104	0	60	1048574
2026-01-18 02:38:28.07	18.22	11.64	-83.9	-88.8	2.4	3.10e+01	0	47	104	0	60	1048574
2026-01-18 02:38:29.08	18.11	11.73	-83.9	-88.8	2.5	3.10e+01	0	47	104	0	60	1048574
2026-01-18 02:38:30.08	18.01	11.82	-84.3	-88.8	2.4	3.10e+01	0	47	104	0	60	1048574
2026-01-18 02:38:31.09	17.90	11.91	-84.3	-88.8	2.2	3.10e+01	0	47	104	0	60	1048574
2026-01-18 02:38:32.10	17.79	12.00	-84.3	-88.8	2.2	3.10e+01	0	47	104	0	60	1048574
2026-01-18 02:38:33.11	17.68	12.09	-83.9	-88.8	2.6	3.10e+01	0	47	104	0	60	1048574
2026-01-18 02:38:34.12	17.57	12.18	-83.9	-88.8	2.2	3.10e+01	0	47	104	0	60	1048574
2026-01-18 02:38:35.12	17.47	12.27	-84.3	-88.8	2.6	3.10e+01	0	47	104	0	60	1048574
2026-01-18 02:38:36.13	17.36	12.36	-84.3	-88.8	2.4	3.10e+01	0	47	104	0	60	1048574
2026-01-18 02:38:37.14	17.24	12.45	-84.3	-88.8	2.5	3.10e+01	0	47	104	0	60	1048574
2026-01-18 02:38:38.15	17.13	12.54	-83.9	-88.8	2.2	3.10e+01	0	47	104	0	60	1048574
2026-01-18 02:38:39.15	17.02	12.63	-84.3	-88.8	2.3	3.10e+01	0	47	104	0	60	1048574
2026-01-18 02:38:40.16	16.91	12.73	-84.3	-88.8	2.3	3.10e+01	0	47	104	0	60	1048574
2026-01-18 02:38:41.16	16.80	12.82	-84.3	-88.8	2.4	3.10e+01	0	47	104	0	60	1048574
2026-01-18 02:38:42.16	16.68	12.91	-83.9	-88.8	2.6	3.10e+01	0	47	104	0	60	1048574
2026-01-18 02:38:43.16	16.57	13.00	-83.9	-88.8	2.3	3.10e+01	0	47	104	0	60	1048574
2026-01-18 02:38:44.17	16.45	13.09	-84.3	-88.8	2.4	3.10e+01	0	47	104	0	60	1048574
2026-01-18 02:38:45.18	16.33	13.19	-84.3	-88.8	2.1	3.10e+01	0	47	104	0	60	1048574
2026-01-18 02:38:46.19	16.21	13.28	-84.3	-88.8	2.2	3.10e+01	0	47	104	0	60	1048574
2026-01-18 02:38:47.19	16.10	13.37	-83.9	-88.8	2.6	3.10e+01	0	47	104	0	60	1048574
2026-01-18 02:38:48.20	15.98	13.47	-83.9	-88.8	2.4	3.10e+01	0	47	104	0	60	1048574
2026-01-18 02:38:49.21	15.86	13.56	-84.3	-88.8	2.8	3.10e+01	0	47	104	0	60	1048574
2026-01-18 02:38:50.21	15.74	13.66	-84.3	-88.8	2.2	3.10e+01	0	47	104	0	60	1048574
2026-01-18 02:38:51.22	15.61	13.75	-84.3	-88.8	2.4	3.10e+01	0	47	104	0	60	1048574
2026-01-18 02:38:52.23	15.49	13.85	-83.9	-88.8	2.5	3.10e+01	0	47	104	0	60	1048574
2026-01-18 02:38:53.24	15.37	13.94	-84.3	-88.8	2.4	3.10e+01	0	47	104	0	60	1048574
2026-01-18 02:38:54.24	15.24	14.04	-84.3	-88.8	2.8	3.10e+01	0	47	104	0	60	1048574
2026-01-18 02:38:55.24	15.12	14.13	-84.3	-88.8	2.3	3.10e+01	0	47	104	0	60	1048574
2026-01-18 02:38:56.25	14.99	14.23	-84.3	-88.8	2.2	3.10e+01	0	47	104	0	60	1048574
2026-01-18 02:38:57.25	14.87	14.32	-83.9	-88.8	2.5	3.10e+01	0	47	104	0	60	1048574
2026-01-18 02:38:58.26	14.74	14.42	-84.3	-88.8	2.3	3.10e+01	0	47	104	0	60	1048574
2026-01-18 02:38:59.27	14.61	14.52	-84.3	-88.8	2.6	3.10e+01	0	47	104	0	60	1048574
2026-01-18 02:39:00.27	14.48	14.61	-84.3	-88.8	2.5	3.10e+01	0	47	104	0	60	1048574
2026-01-18 02:39:01.27	14.35	14.71	-83.9	-88.8	2.3	3.10e+01	0	47	104	0	60	1048574
2026-01-18 02:39:02.27	14.22	14.81	-83.9	-88.8	2.8	3.10e+01	0	47	104	0	60	1048574
2026-01-18 02:39:03.27	14.08	14.91	-84.3	-88.8	2.2	3.10e+01	0	47	104	0	60	1048574
2026-01-18 02:39:04.27	13.95	15.00	-84.3	-88.8	2.5	3.10e+01	0	47	104	0	60	1048574
2026-01-18 02:39:05.28	13.82	15.10	-84.3	-88.8	2.5	3.10e+01	0	47	104	0	60	1048574
2026-01-18 02:39:06.28	13.68	15.20	-83.9	-88.8	2.6	3.10e+01	0	47	104	0	60	1048574
2026-01-18 02:39:07.29	13.54	15.30	-83.9	-88.8	2.6	3.10e+01	0	47	104	0	60	1048574
2026-01-18 02:39:08.29	13.41	15.40	-84.3	-88.8	2.4	3.10e+01	0	47	104	0	60	1048574
2026-01-18 02:39:09.30	13.27	15.50	-84.3	-88.8	2.3	3.10e+01	0	47	104	0	60	1048574
2026-01-18 02:39:10.31	13.13	15.60	-83.9	-88.8	2.2	3.10e+01	0	47	104	0	60	1048574
2026-01-18 02:39:11.31	12.99	15.70	-83.9	-88.8	2.3	3.10e+01	0	47	104	0	60	1048574
2026-01-18 02:39:12.32	12.85	15.80	-84.3	-88.8	2.4	3.10e+01	0	47	104	0	60	1048574
2026-01-18 02:39:13.33	12.70	15.90	-84.3	-88.8	2.3	3.10e+01	0	47	104	0	60	1048574
2026-01-18 02:39:14.33	12.56	16.00	-84.3	-88.8	2.5	3.10e+01	0	47	104	0	60	1048574
2026-01-18 02:39:15.34	12.41	16.10	-84.3	-88.8	2.4	3.10e+01	0	47	104	0	60	1048574
2026-01-18 02:39:16.34	12.27	16.21	-83.9	-88.8	2.4	3.10e+01	0	47	104	0	60	1048574
2026-01-18 02:39:17.35	12.12	16.31	-84.3	-88.8	2.0	3.10e+01	0	47	104	0	60	1048574
2026-01-18 02:39:18.35	11.98	16.41	-84.3	-88.8	2.5	3.10e+01	0	47	104	0	60	1048574
2026-01-18 02:39:19.36	11.83	16.51	-84.3	-88.8	2.5	3.10e+01	0	47	104	0	60	1048574
2026-01-18 02:39:20.37	11.67	16.62	-83.9	-88.8	2.5	3.10e+01	0	47	104	0	60	1048574
2026-01-18 02:39:21.37	11.52	16.72	-84.3	-88.8	2.4	3.10e+01	0	47	104	0	60	1048574
2026-01-18 02:39:22.38	11.37	16.82	-84.3	-88.8	2.3	3.10e+01	0	47	104	0	60	1048574
2026-01-18 02:39:23.39	11.22	16.93	-83.9	-88.8	2.5	3.10e+01	0	47	104	0	60	1048574
2026-01-18 02:39:24.40	11.06	17.03	-84.3	-88.8	2.5	3.10e+01	0	47	104	0	60	1048574
2026-01-18 02:39:25.41	10.90	17.14	-83.9	-88.8	2.1	3.10e+01	0	47	104	0	60	1048574
2026-01-18 02:39:26.41	10.75	17.24	-83.9	-88.8	2.5	3.10e+01	0	47	104	0	60	1048574
2026-01-18 02:39:27.42	10.59	17.35	-84.3	-88.8	2.6	3.10e+01	0	47	104	0	60	1048574
2026-01-18 02:39:28.42	10.43	17.45	-84.3	-88.8	2.7	3.10e+01	0	47	104	0	60	1048574
2026-01-18 02:39:29.43	10.27	17.56	-84.3	-88.8	2.7	3.10e+01	0	47	104	0	60	1048574
2026-01-18 02:39:30.44	10.11	17.66	-83.9	-88.8	2.2	3.10e+01	0	47	104	0	60	1048574
2026-01-18 02:39:31.45	9.94	17.77	-84.3	-88.8	2.2	3.10e+01	0	47	104	0	60	1048574
2026-01-18 02:39:32.45	9.78	17.87	-84.3	-88.8	2.4	3.10e+01	0	47	104	0	60	1048574
2026-01-18 02:39:33.46	9.61	17.98	-84.3	-88.8	2.8	3.10e+01	0	47	104	0	60	1048574
2026-01-18 02:39:34.47	9.44	18.09	-84.3	-88.8	2.2	3.10e+01	0	47	104	0	60	1048574
2026-01-18 02:39:35.48	9.28	18.20	-83.9	-88.8	2.8	3.10e+01	0	47	104	0	60	1048574
2026-01-18 02:39:36.48	9.11	18.30	-84.3	-88.8	2.6	3.10e+01	0	47	104	0	60	1048574
2026-01-18 02:39:37.49	8.93	18.41	-84.3	-88.8	2.6	3.10e+01	0	47	104	0	60	1048574
2026-01-18 02:39:38.50	8.76	18.52	-84.3	-88.8	2.5	3.10e+01	0	47	104	0	60	1048574
2026-01-18 02:39:39.51	8.59	18.63	-83.9	-88.8	2.4	3.10e+01	0	47	104	0	60	1048574
2026-01-18 02:39:40.52	8.41	18.74	-84.3	-88.8	2.6	3.10e+01	0	47	104	0	60	1048574
2026-01-18 02:39:41.53	8.24	18.84	-84.3	-88.8	2.4	3.10e+01	0	47	104	0	60	1048574
2026-01-18 02:39:42.53	8.06	18.95	-84.3	-88.8	2.2	3.10e+01	0	47	104	0	60	1048574
2026-01-18 02:39:43.54	7.88	19.06	-84.3	-88.8	2.4	3.10e+01	0	47	104	0	60	1048574
2026-01-18 02:39:44.55	7.70	19.17	-83.9	-88.8	2.4	3.10e+01	0	47	104	0	60	1048574
2026-01-18 02:39:45.55	7.52	19.28	-84.3	-88.8	2.4	3.10e+01	0	47	104	0	60	1048574
2026-01-18 02:39:46.55	7.33	19.39	-84.3	-88.8	2.2	3.10e+01	0	47	104	0	60	1048574
2026-01-18 02:39:47.56	7.15	19.50	-84.3	-88.8	2.4	3.10e+01	0	47	104	0	60	1048574
2026-01-18 02:39:48.57	6.96	19.61	-83.9	-88.8	2.4	3.10e+01	0	47	104	0	60	1048574
2026-01-18 02:39:49.57	6.78	19.72	-83.9	-88.8	2.2	3.10e+01	0	47	104	0	60	1048574
2026-01-18 02:39:50.58	6.59	19.83	-84.3	-88.8	2.3	3.10e+01	0	47	104	0	60	1048574
2026-01-18 02:39:51.58	6.40	19.94	-84.3	-88.8	2.4	3.10e+01	0	47	104	0	60	1048574
2026-01-18 02:39:52.59	6.20	20.05	-84.3	-88.8	2.7	3.10e+01	0	47	104	0	60	1048574
2026-01-18 02:39:53.60	6.01	20.17	-83.9	-88.8	2.3	3.10e+01	0	47	104	0	60	1048574
2026-01-18 02:39:54.61	5.81	20.28	-84.3	-88.8	2.3	3.10e+01	0	47	104	0	60	1048574
2026-01-18 02:39:55.62	5.62	20.39	-84.3	-88.8	2.3	3.10e+01	0	47	104	0	60	1048574
2026-01-18 02:39:56.62	5.42	20.50	-84.3	-88.8	2.8	3.10e+01	0	47	104	0	60	1048574
2026-01-18 02:39:57.62	5.22	20.61	-84.3	-88.8	2.6	3.10e+01	0	47	104	0	60	1048574
2026-01-18 02:39:58.63	5.02	20.73	-83.9	-88.8	2.3	3.10e+01	0	47	104	0	60	1048574
2026-01-18 02:39:59.64	4.82	20.84	-83.9	-88.8	2.4	3.10e+01	0	47	104	0	60	1048574
2026-01-18 02:40:00.64	4.61	20.95	-84.3	-88.8	2.5	3.10e+01	0	47	104	0	60	1048574
2026-01-18 02:40:01.65	4.41	21.06	-84.3	-88.8	2.7	3.10e+01	0	47	104	0	60	1048574
2026-01-18 02:40:02.65	4.20	21.18	-84.3	-88.8	2.4	3.10e+01	0	47	104	0	60	1048574
2026-01-18 02:40:03.66	3.99	21.29	-83.9	-88.8	2.6	3.10e+01	0	47	104	0	60	1048574
2026-01-18 02:40:04.66	3.78	21.40	-84.3	-88.8	2.7	3.10e+01	0	47	104	0	60	1048574
2026-01-18 02:40:05.67	3.57	21.52	-84.3	-88.8	2.6	3.10e+01	0	47	104	0	60	1048574
2026-01-18 02:40:06.67	3.36	21.63	-84.3	-88.8	2.6	3.10e+01	0	47	104	0	60	1048574
2026-01-18 02:40:07.68	3.14	21.75	-83.9	-88.8	2.5	3.10e+01	0	47	104	0	60	1048574
2026-01-18 02:40:08.68	2.92	21.86	-83.9	-88.8	2.4	3.10e+01	0	47	104	0	60	1048574
2026-01-18 02:40:09.69	2.70	21.97	-84.3	-88.8	2.8	3.10e+01	0	47	104	0	60	1048574
2026-01-18 02:40:10.69	2.48	22.09	-84.3	-88.8	2.4	3.10e+01	0	47	104	0	60	1048574
2026-01-18 02:40:11.70	2.26	22.20	-84.3	-88.8	2.5	3.10e+01	0	47	104	0	60	1048574
2026-01-18 02:40:12.71	2.03	22.32	-83.9	-88.8	2.5	3.10e+01	0	47	104	0	60	1048574
2026-01-18 02:40:13.72	1.81	22.43	-83.9	-88.8	2.5	3.10e+01	0	47	104	0	60	1048574
2026-01-18 02:40:14.72	1.58	22.55	-84.3	-88.8	2.4	3.10e+01	0	47	104	0	60	1048574
2026-01-18 02:40:15.73	1.35	22.66	-84.3	-88.8	2.7	3.10e+01	0	47	104	0	60	1048574
2026-01-18 02:40:16.74	1.12	22.78	-84.3	-88.8	2.9	3.10e+01	0	47	104	0	60	1048574
2026-01-18 02:40:17.75	0.88	22.89	-83.9	-88.8	2.5	3.10e+01	0	47	104	0	60	1048574
2026-01-18 02:40:18.75	0.65	23.01	-84.3	-88.8	2.2	3.10e+01	0	47	104	0	60	1048574
2026-01-18 02:40:19.75	0.41	23.12	-84.3	-88.8	2.4	3.10e+01	0	47	104	0	60	1048574
2026-01-18 02:40:20.76	0.17	23.24	-84.3	-88.8	2.5	3.10e+01	0	47	104	0	60	1048574
2026-01-18 02:40:21.76	359.93	23.35	-83.9	-88.8	2.3	3.10e+01	0	47	104	0	60	1048574
2026-01-18 02:40:22.76	359.69	23.46	-83.9	-88.8	2.6	3.10e+01	0	47	104	0	60	1048574
2026-01-18 02:40:23.77	359.45	23.58	-84.3	-88.8	2.6	3.10e+01	0	47	104	0	60	1048574
2026-01-18 02:40:24.78	359.20	23.70	-84.3	-88.8	2.6	3.10e+01	0	47	104	0	60	1048574
2026-01-18 02:40:25.78	358.95	23.81	-84.3	-88.8	2.6	3.10e+01	0	47	104	0	60	1048574
2026-01-18 02:40:26.78	358.71	23.92	-83.9	-88.8	2.5	3.10e+01	0	47	104	0	60	1048574
2026-01-18 02:40:27.79	358.45	24.04	-83.9	-88.8	2.4	3.10e+01	0	47	104	0	60	1048574
2026-01-18 02:40:28.79	358.20	24.15	-84.3	-88.8	2.8	3.10e+01	0	47	104	0	60	1048574
2026-01-18 02:40:29.80	357.94	24.27	-84.3	-88.8	2.5	3.10e+01	0	47	104	0	60	1048574
2026-01-18 02:40:30.81	357.68	24.39	-84.3	-88.8	2.5	3.10e+01	0	47	104	0	60	1048574
2026-01-18 02:40:31.82	357.42	24.50	-83.9	-88.8	2.4	3.10e+01	0	47	104	0	60	1048574
2026-01-18 02:40:32.83	357.16	24.62	-83.9	-88.8	2.5	3.10e+01	0	47	104	0	60	1048574
2026-01-18 02:40:33.84	356.89	24.73	-84.3	-88.8	2.3	3.10e+01	0	47	104	0	60	1048574
2026-01-18 02:40:34.84	356.63	24.84	-84.3	-88.8	2.3	3.10e+01	0	47	104	0	60	1048574
2026-01-18 02:40:35.84	356.36	24.96	-84.3	-88.8	2.4	3.10e+01	0	47	104	0	60	1048574
2026-01-18 02:40:36.85	356.09	25.07	-83.9	-88.8	2.6	3.10e+01	0	47	104	0	60	1048574
2026-01-18 02:40:37.85	355.82	25.19	-84.3	-88.8	2.2	3.10e+01	0	47	104	0	60	1048574
2026-01-18 02:40:38.86	355.54	25.30	-84.3	-88.8	2.5	3.10e+01	0	47	104	0	60	1048574
2026-01-18 02:40:39.87	355.27	25.42	-84.3	-88.8	2.1	3.10e+01	0	47	104	0	60	1048574
2026-01-18 02:40:40.87	354.99	25.53	-83.9	-88.8	2.3	3.10e+01	0	47	104	0	60	1048574
2026-01-18 02:40:41.88	354.71	25.64	-83.9	-88.8	2.5	3.10e+01	0	47	104	0	60	1048574
2026-01-18 02:40:42.88	354.43	25.76	-84.3	-88.8	2.7	3.10e+01	0	47	104	0	60	1048574
2026-01-18 02:40:43.89	354.14	25.87	-83.9	-88.8	2.4	3.10e+01	0	47	104	0	60	1048574
2026-01-18 02:40:44.90	353.85	25.98	-84.3	-88.8	2.3	3.10e+01	0	47	104	0	60	1048574
2026-01-18 02:40:45.91	353.56	26.09	-83.9	-88.8	2.6	3.10e+01	0	47	104	0	60	1048574
2026-01-18 02:40:46.92	353.27	26.21	-83.9	-88.8	2.3	3.10e+01	0	47	104	0	60	1048574
2026-01-18 02:40:47.93	352.97	26.32	-84.3	-88.8	2.6	3.10e+01	0	47	104	0	60	1048574
2026-01-18 02:40:48.93	352.68	26.43	-84.3	-88.8	2.7	3.10e+01	0	47	104	0	60	1048574
2026-01-18 02:40:49.94	352.38	26.54	-84.3	-88.8	2.8	3.10e+01	0	47	104	0	60	1048574
2026-01-18 02:40:50.95	352.08	26.65	-83.9	-88.8	2.5	3.10e+01	0	47	104	0	60	1048574
2026-01-18 02:40:51.96	351.77	26.76	-84.3	-88.8	2.1	3.10e+01	0	47	104	0	60	1048574
2026-01-18 02:40:52.96	351.47	26.87	-84.3	-88.8	2.6	3.10e+01	0	47	104	0	60	1048574
2026-01-18 02:40:53.97	351.16	26.98	-84.3	-88.8	2.0	3.10e+01	0	47	104	0	60	1048574
2026-01-18 02:40:54.98	350.85	27.09	-84.3	-88.8	2.5	3.10e+01	0	47	104	0	60	1048574
2026-01-18 02:40:55.98	350.54	27.20	-83.5	-88.8	2.4	3.10e+01	0	47	104	0	60	1048574
2026-01-18 02:40:56.99	350.23	27.31	-84.3	-88.8	2.6	3.10e+01	0	47	104	0	60	1048574
2026-01-18 02:40:58.00	349.91	27.42	-84.3	-88.8	2.3	3.10e+01	0	47	104	0	60	1048574
2026-01-18 02:40:59.00	349.60	27.53	-84.3	-88.8	2.6	3.10e+01	0	47	104	0	60	1048574
2026-01-18 02:41:00.00	349.28	27.63	-84.3	-88.8	2.1	3.10e+01	0	47	104	0	60	1048574
2026-01-18 02:41:01.01	348.95	27.74	-83.9	-88.8	2.4	3.10e+01	0	47	104	0	60	1048574
2026-01-18 02:41:02.02	348.63	27.85	-84.3	-88.8	2.5	3.10e+01	0	47	104	0	60	1048574
2026-01-18 02:41:03.03	348.30	27.95	-84.3	-88.8	2.6	3.10e+01	0	47	104	0	60	1048574
2026-01-18 02:41:04.03	347.97	28.06	-84.3	-88.8	2.2	3.10e+01	0	47	104	0	60	1048574
2026-01-18 02:41:05.04	347.64	28.16	-83.9	-88.8	2.5	3.10e+01	0	47	104	0	60	1048574
2026-01-18 02:41:06.05	347.30	28.27	-83.9	-88.8	2.3	3.10e+01	0	47	104	0	60	1048574
2026-01-18 02:41:07.05	346.97	28.37	-84.3	-88.8	2.6	3.10e+01	0	47	104	0	60	1048573
2026-01-18 02:41:08.06	346.63	28.47	-84.3	-88.8	2.3	3.10e+01	0	47	104	0	60	1048573
2026-01-18 02:41:09.06	346.29	28.57	-84.3	-88.8	2.5	3.10e+01	0	47	104	0	60	1048573
2026-01-18 02:41:10.07	345.95	28.67	-83.5	-88.8	2.5	3.10e+01	0	47	104	0	60	1048573
2026-01-18 02:41:11.08	345.60	28.77	-84.3	-88.8	2.5	3.10e+01	0	47	104	0	60	1048573
2026-01-18 02:41:12.08	345.25	28.87	-84.3	-88.8	2.0	3.10e+01	0	47	104	0	60	1048573
2026-01-18 02:41:13.09	344.90	28.97	-84.3	-88.8	2.4	3.10e+01	0	47	104	0	60	1048572
2026-01-18 02:41:14.10	344.55	29.07	-83.9	-88.8	2.7	3.10e+01	0	47	104	0	60	1048572
2026-01-18 02:41:15.11	344.19	29.17	-83.9	-88.8	2.3	3.10e+01	0	47	104	0	60	1048572
2026-01-18 02:41:16.12	343.84	29.26	-84.3	-88.8	2.6	3.10e+01	0	47	104	0	60	1048572
2026-01-18 02:41:17.12	343.48	29.36	-84.3	-88.8	2.4	3.10e+01	0	47	104	0	60	1048572
2026-01-18 02:41:18.13	343.12	29.45	-84.3	-88.8	2.2	3.10e+01	0	47	104	0	60	1048572
2026-01-18 02:41:19.14	342.75	29.55	-83.9	-88.8	2.5	3.10e+01	0	47	104	0	60	1048572
2026-01-18 02:41:20.15	342.39	29.64	-83.9	-88.8	2.5	3.10e+01	0	47	104	0	60	1048572
2026-01-18 02:41:21.16	342.02	29.73	-84.3	-88.8	2.6	3.10e+01	0	47	104	0	60	1048572
2026-01-18 02:41:22.17	341.65	29.82	-84.3	-88.8	2.5	3.10e+01	0	47	104	0	60	1048572
2026-01-18 02:41:23.17	341.28	29.91	-84.3	-88.8	2.5	3.10e+01	0	47	104	0	60	1048572
2026-01-18 02:41:24.18	340.90	30.00	-84.3	-88.8	2.4	3.10e+01	0	47	104	0	60	1048572
2026-01-18 02:41:25.19	340.52	30.09	-83.9	-88.8	2.5	3.10e+01	0	47	104	0	60	1048572
2026-01-18 02:41:26.20	340.14	30.18	-84.3	-88.8	2.4	3.10e+01	0	47	104	0	60	1048572
2026-01-18 02:41:27.20	339.77	30.26	-84.3	-88.8	2.5	3.10e+01	0	47	104	0	60	1048572
2026-01-18 02:41:28.21	339.38	30.34	-84.3	-88.8	2.2	3.10e+01	0	47	104	0	60	1048572
2026-01-18 02:41:29.21	339.00	30.43	-83.9	-88.8	2.3	3.10e+01	0	47	104	0	60	1048572
2026-01-18 02:41:30.22	338.61	30.51	-84.3	-88.8	2.4	3.10e+01	0	47	104	0	60	1048572
2026-01-18 02:41:31.23	338.22	30.59	-84.3	-88.8	2.3	3.10e+01	0	47	104	0	60	1048572
2026-01-18 02:41:32.23	337.83	30.67	-84.3	-88.8	2.2	3.10e+01	0	47	104	0	60	1048572
2026-01-18 02:41:33.23	337.44	30.75	-84.3	-88.8	2.3	3.10e+01	0	47	104	0	60	1048572
2026-01-18 02:41:34.24	337.05	30.83	-83.9	-88.8	2.3	3.10e+01	0	47	104	0	60	1048572
2026-01-18 02:41:35.25	336.65	30.90	-84.3	-88.8	2.8	3.10e+01	0	47	104	0	60	1048572
2026-01-18 02:41:36.26	336.25	30.98	-84.3	-88.8	2.5	3.10e+01	0	47	104	0	60	1048572
2026-01-18 02:41:37.27	335.85	31.05	-84.3	-88.8	2.2	3.10e+01	0	47	104	0	60	1048572
2026-01-18 02:41:38.28	335.44	31.12	-83.9	-88.8	2.1	3.10e+01	0	47	104	0	60	1048572
2026-01-18 02:41:39.29	335.04	31.19	-83.9	-88.8	2.6	3.10e+01	0	47	104	0	60	1048572
2026-01-18 02:41:40.29	334.64	31.26	-84.3	-88.8	2.6	3.10e+01	0	47	104	0	60	1048572
2026-01-18 02:41:41.30	334.23	31.33	-84.3	-88.8	2.8	3.10e+01	0	47	104	0	60	1048572
2026-01-18 02:41:42.30	333.82	31.39	-84.3	-88.8	2.4	3.10e+01	0	47	104	0	60	1048572
2026-01-18 02:41:43.31	333.41	31.46	-83.9	-88.8	2.6	3.10e+01	0	47	104	0	60	1048572
2026-01-18 02:41:44.31	333.00	31.52	-84.3	-88.8	2.4	3.10e+01	0	47	104	0	60	1048572
2026-01-18 02:41:45.31	332.58	31.58	-84.3	-88.8	2.3	3.10e+01	0	47	104	0	60	1048572
2026-01-18 02:41:46.32	332.17	31.64	-84.3	-88.8	2.4	3.10e+01	0	47	104	0	60	1048572
2026-01-18 02:41:47.32	331.75	31.70	-84.3	-88.8	2.6	3.10e+01	0	47	104	0	60	1048572
2026-01-18 02:41:48.33	331.33	31.76	-83.5	-88.8	2.7	3.10e+01	0	47	104	0	60	1048572
2026-01-18 02:41:49.33	330.91	31.81	-84.3	-88.8	2.0	3.10e+01	0	47	104	0	60	1048572
2026-01-18 02:41:50.34	330.49	31.87	-84.3	-88.8	2.2	3.10e+01	0	47	104	0	60	1048572
2026-01-18 02:41:51.35	330.06	31.92	-84.3	-88.8	2.3	3.10e+01	0	47	104	0	60	1048572
2026-01-18 02:41:52.35	329.64	31.97	-83.9	-88.8	2.6	3.10e+01	0	47	104	0	60	1048572
2026-01-18 02:41:53.36	329.21	32.02	-83.9	-88.8	2.4	3.10e+01	0	47	104	0	60	1048572
2026-01-18 02:41:54.36	328.79	32.07	-84.3	-88.8	2.6	3.10e+01	0	47	104	0	60	1048572
2026-01-18 02:41:55.37	328.36	32.11	-84.3	-88.8	2.6	3.10e+01	0	47	104	0	60	1048572
2026-01-18 02:41:56.38	327.93	32.16	-83.9	-88.8	2.7	3.10e+01	0	47	104	0	60	1048572
2026-01-18 02:41:57.39	327.49	32.20	-83.9	-88.8	2.7	3.10e+01	0	47	104	0	60	1048572
2026-01-18 02:41:58.39	327.06	32.24	-83.9	-88.8	2.4	3.10e+01	0	47	104	0	60	1048572
2026-01-18 02:41:59.40	326.63	32.28	-84.3	-88.8	2.3	3.10e+01	0	47	104	0	60	1048572
2026-01-18 02:42:00.40	326.20	32.31	-84.3	-88.8	2.6	3.10e+01	0	47	104	0	60	1048572
2026-01-18 02:42:01.41	325.76	32.35	-84.3	-88.8	2.1	3.10e+01	0	47	104	0	60	1048572
2026-01-18 02:42:02.41	325.32	32.38	-83.9	-88.8	2.6	3.10e+01	0	47	104	0	60	1048572
2026-01-18 02:42:03.42	324.88	32.42	-84.3	-88.8	2.6	3.10e+01	0	47	104	0	60	1048572
2026-01-18 02:42:04.42	324.45	32.44	-84.3	-88.8	2.4	3.10e+01	0	47	104	0	60	1048572
2026-01-18 02:42:05.43	324.01	32.47	-84.3	-88.8	2.5	3.10e+01	0	47	104	0	60	1048572
2026-01-18 02:42:06.44	323.57	32.50	-84.3	-88.8	2.5	3.10e+01	0	47	104	0	60	1048572
2026-01-18 02:42:07.44	323.13	32.52	-83.5	-88.8	2.2	3.10e+01	0	47	104	0	60	1048572
2026-01-18 02:42:08.45	322.69	32.55	-83.9	-88.8	2.5	3.10e+01	0	47	104	0	60	1048572
2026-01-18 02:42:09.45	322.25	32.57	-84.3	-88.8	2.2	3.10e+01	0	47	104	0	60	1048572
2026-01-18 02:42:10.46	321.80	32.58	-84.3	-88.8	2.6	3.10e+01	0	47	104	0	60	1048572
2026-01-18 02:42:11.47	321.36	32.60	-83.9	-88.8	2.5	3.10e+01	0	47	104	0	60	1048572
2026-01-18 02:42:12.48	320.91	32.62	-83.9	-88.8	2.3	3.10e+01	0	47	104	0	60	1048572
2026-01-18 02:42:13.49	320.47	32.63	-84.3	-88.8	2.6	3.10e+01	0	47	104	0	60	1048572
2026-01-18 02:42:14.49	320.02	32.64	-84.3	-88.8	2.5	3.10e+01	0	47	104	0	60	1048572
2026-01-18 02:42:15.50	319.58	32.65	-84.3	-88.8	2.3	3.10e+01	0	47	104	0	60	1048572
2026-01-18 02:42:16.51	319.13	32.66	-83.9	-88.8	2.5	3.10e+01	0	47	104	0	60	1048572
2026-01-18 02:42:17.51	318.69	32.66	-83.9	-88.8	2.5	3.10e+01	0	47	104	0	60	1048572
2026-01-18 02:42:18.51	318.25	32.67	-84.3	-88.8	2.7	3.10e+01	0	47	104	0	60	1048572
2026-01-18 02:42:19.52	317.80	32.67	-84.3	-88.8	2.7	3.10e+01	0	47	104	0	60	1048572
2026-01-18 02:42:20.53	317.35	32.67	-84.3	-88.8	2.2	3.10e+01	0	47	104	0	60	1048572
2026-01-18 02:42:21.54	316.91	32.66	-83.9	-88.8	2.3	3.10e+01	0	47	104	0	60	1048572
2026-01-18 02:42:22.55	316.46	32.66	-84.3	-88.8	2.3	3.10e+01	0	47	104	0	60	1048572
2026-01-18 02:42:23.55	316.02	32.65	-84.3	-88.8	2.4	3.10e+01	0	47	104	0	60	1048572
2026-01-18 02:42:24.56	315.57	32.65	-84.3	-88.8	2.4	3.10e+01	0	47	104	0	60	1048572
2026-01-18 02:42:25.57	315.12	32.64	-83.9	-88.8	2.5	3.10e+01	0	47	104	0	60	1048572
2026-01-18 02:42:26.57	314.68	32.62	-83.9	-88.8	2.2	3.10e+01	0	47	104	0	60	1048572
2026-01-18 02:42:27.58	314.24	32.61	-84.3	-88.8	2.3	3.10e+01	0	47	104	0	60	1048572
2026-01-18 02:42:28.59	313.79	32.59	-84.3	-88.8	2.3	3.10e+01	0	47	104	0	60	1048572
2026-01-18 02:42:29.60	313.35	32.58	-84.3	-88.8	2.1	3.10e+01	0	47	104	0	60	1048572
2026-01-18 02:42:30.61	312.90	32.56	-83.9	-88.8	2.8	3.10e+01	0	47	104	0	60	1048572
2026-01-18 02:42:31.61	312.46	32.54	-84.3	-88.8	2.4	3.10e+01	0	47	104	0	60	1048572
2026-01-18 02:42:32.62	312.02	32.51	-84.3	-88.8	2.5	3.10e+01	0	47	104	0	60	1048572
2026-01-18 02:42:33.62	311.58	32.49	-84.3	-88.8	2.1	3.10e+01	0	47	104	0	60	1048572
2026-01-18 02:42:34.63	311.14	32.46	-84.3	-88.8	2.5	3.10e+01	0	47	104	0	60	1048572
2026-01-18 02:42:35.63	310.70	32.43	-83.9	-88.8	2.3	3.10e+01	0	47	104	0	60	1048572
2026-01-18 02:42:36.64	310.26	32.40	-84.3	-88.8	2.6	3.10e+01	0	47	104	0	60	1048572
2026-01-18 02:42:37.65	309.83	32.37	-84.3	-88.8	2.3	3.10e+01	0	47	104	0	60	1048572
2026-01-18 02:42:38.65	309.39	32.34	-84.3	-88.8	2.4	3.10e+01	0	47	104	0	60	1048572
2026-01-18 02:42:39.66	308.95	32.30	-84.3	-88.8	2.3	3.10e+01	0	47	104	0	60	1048572
2026-01-18 02:42:40.66	308.52	32.26	-83.9	-88.8	2.5	3.10e+01	0	47	104	0	60	1048572
2026-01-18 02:42:41.67	308.09	32.22	-84.3	-88.8	2.4	3.10e+01	0	47	104	0	60	1048572
2026-01-18 02:42:42.68	307.65	32.18	-84.3	-88.8	2.4	3.10e+01	0	47	104	0	60	1048572
2026-01-18 02:42:43.68	307.22	32.14	-84.3	-88.8	2.3	3.10e+01	0	47	104	0	60	1048572
2026-01-18 02:42:44.69	306.79	32.09	-83.9	-88.8	2.6	3.10e+01	0	47	104	0	60	1048572
2026-01-18 02:42:45.70	306.36	32.05	-83.9	-88.8	2.3	3.10e+01	0	47	104	0	60	1048572
2026-01-18 02:42:46.71	305.93	32.00	-84.3	-88.8	2.6	3.10e+01	0	47	104	0	60	1048572
2026-01-18 02:42:47.72	305.51	31.95	-84.3	-88.8	2.5	3.10e+01	0	47	104	0	60	1048572
2026-01-18 02:42:48.72	305.08	31.90	-84.3	-88.8	2.5	3.10e+01	0	47	104	0	60	1048572
2026-01-18 02:42:49.73	304.66	31.84	-83.9	-88.8	2.5	3.10e+01	0	47	104	0	60	1048572
2026-01-18 02:42:50.74	304.23	31.79	-83.9	-88.8	2.5	3.10e+01	0	47	104	0	60	1048572
2026-01-18 02:42:51.74	303.82	31.73	-84.3	-88.8	2.7	3.10e+01	0	47	104	0	60	1048572
2026-01-18 02:42:52.75	303.40	31.68	-84.3	-88.8	2.7	3.10e+01	0	47	104	0	60	1048572
2026-01-18 02:42:53.76	302.98	31.62	-83.9	-88.8	2.4	3.10e+01	0	47	104	0	60	1048572
2026-01-18 02:42:54.77	302.56	31.55	-83.5	-88.8	2.5	3.10e+01	0	47	104	0	60	1048572
2026-01-18 02:42:55.77	302.15	31.49	-84.3	-88.8	2.5	3.10e+01	0	47	104	0	60	1048572
2026-01-18 02:42:56.77	301.74	31.43	-84.3	-88.8	2.6	3.10e+01	0	47	104	0	60	1048572
2026-01-18 02:42:57.77	301.33	31.36	-84.3	-88.8	2.3	3.10e+01	0	47	104	0	60	1048572
2026-01-18 02:42:58.78	300.92	31.30	-83.9	-88.8	2.5	3.10e+01	0	47	104	0	60	1048572
2026-01-18 02:42:59.78	300.51	31.23	-83.9	-88.8	2.7	3.10e+01	0	47	104	0	60	1048572
2026-01-18 02:43:00.79	300.11	31.16	-83.9	-88.8	2.6	3.10e+01	0	47	104	0	60	1048572
2026-01-18 02:43:01.79	299.71	31.09	-84.3	-88.8	2.5	3.10e+01	0	47	104	0	60	1048572
2026-01-18 02:43:02.80	299.30	31.02	-84.3	-88.8	2.4	3.10e+01	0	47	104	0	60	1048572
2026-01-18 02:43:03.80	298.90	30.94	-84.3	-88.8	2.7	3.10e+01	0	47	104	0	60	1048572
2026-01-18 02:43:04.80	298.51	30.87	-83.9	-88.8	2.3	3.10e+01	0	47	104	0	60	1048572
2026-01-18 02:43:05.81	298.11	30.79	-84.3	-88.8	2.6	3.10e+01	0	47	104	0	60	1048572
2026-01-18 02:43:06.81	297.72	30.71	-84.3	-88.8	2.7	3.10e+01	0	47	104	0	60	1048572
2026-01-18 02:43:07.82	297.33	30.63	-84.3	-88.8	2.3	3.10e+01	0	47	104	0	60	1048572
2026-01-18 02:43:08.82	296.94	30.55	-83.9	-88.8	2.2	3.10e+01	0	47	104	0	60	1048572
2026-01-18 02:43:09.83	296.55	30.47	-83.9	-88.8	2.2	3.10e+01	0	47	104	0	60	1048572
2026-01-18 02:43:10.84	296.16	30.39	-84.3	-88.8	2.5	3.10e+01	0	47	104	0	60	1048572
2026-01-18 02:43:11.84	295.78	30.31	-84.3	-88.8	2.5	3.10e+01	0	47	104	0	60	1048572
2026-01-18 02:43:12.85	295.39	30.22	-84.3	-88.8	2.6	3.10e+01	0	47	104	0	60	1048572
2026-01-18 02:43:13.86	295.01	30.14	-83.9	-88.8	2.6	3.10e+01	0	47	104	0	60	1048572
2026-01-18 02:43:14.87	294.63	30.05	-84.3	-88.8	2.4	3.10e+01	0	47	104	0	60	1048574
2026-01-18 02:43:15.87	294.26	29.96	-84.3	-88.8	2.5	3.10e+01	0	47	104	0	60	1048574
2026-01-18 02:43:16.87	293.89	29.87	-84.3	-88.8	2.3	3.10e+01	0	47	104	0	60	1048574
2026-01-18 02:43:17.88	293.52	29.78	-84.3	-88.8	2.7	3.10e+01	0	47	104	0	60	1048574
2026-01-18 02:43:18.88	293.15	29.69	-83.9	-88.8	2.4	3.10e+01	0	47	104	0	60	1048574
2026-01-18 02:43:19.89	292.78	29.60	-84.3	-88.8	2.4	3.10e+01	0	47	104	0	60	1048574
2026-01-18 02:43:20.90	292.41	29.50	-84.3	-88.8	2.3	3.10e+01	0	47	104	0	60	1048574
2026-01-18 02:43:21.91	292.05	29.41	-84.3	-88.8	2.5	3.10e+01	0	47	104	0	60	1048574
2026-01-18 02:43:22.91	291.69	29.32	-83.9	-88.8	2.7	3.10e+01	0	47	104	0	60	1048574
2026-01-18 02:43:23.92	291.33	29.22	-83.9	-88.8	2.4	3.10e+01	0	47	104	0	60	1048574
2026-01-18 02:43:24.92	290.98	29.12	-84.3	-88.8	2.7	3.10e+01	0	47	104	0	60	1048574
2026-01-18 02:43:25.92	290.62	29.03	-84.3	-88.8	2.0	3.10e+01	0	47	104	0	60	1048574
2026-01-18 02:43:26.93	290.27	28.93	-84.3	-88.8	2.5	3.10e+01	0	47	104	0	60	1048574
2026-01-18 02:43:27.93	289.92	28.83	-83.5	-88.8	2.3	3.10e+01	0	47	104	0	60	1048574
2026-01-18 02:43:28.93	289.58	28.73	-84.3	-88.8	2.6	3.10e+01	0	47	104	0	60	1048574
2026-01-18 02:43:29.93	289.24	28.63	-83.9	-88.8	2.5	3.10e+01	0	47	104	0	60	1048574
2026-01-18 02:43:30.94	288.89	28.53	-84.3	-88.8	2.4	3.10e+01	0	47	104	0	60	1048574
2026-01-18 02:43:31.95	288.55	28.43	-84.3	-88.8	2.5	3.10e+01	0	47	104	0	60	1048574
2026-01-18 02:43:32.95	288.21	28.32	-83.9	-88.8	2.4	3.10e+01	0	47	104	0	60	1048574
2026-01-18 02:43:33.96	287.88	28.22	-83.9	-88.8	2.2	3.10e+01	0	47	104	0	60	1048574
2026-01-18 02:43:34.97	287.54	28.11	-84.3	-88.8	2.6	3.10e+01	0	47	104	0	60	1048574
2026-01-18 02:43:35.98	287.21	28.01	-84.3	-88.8	2.7	3.10e+01	0	47	104	0	60	1048574
2026-01-18 02:43:36.98	286.88	27.90	-84.3	-88.8	2.4	3.10e+01	0	47	104	0	60	1048574
2026-01-18 02:43:37.99	286.55	27.80	-83.9	-88.8	2.4	3.10e+01	0	47	104	0	60	1048574
2026-01-18 02:43:39.00	286.23	27.69	-84.3	-88.8	2.5	3.10e+01	0	47	104	0	60	1048574
2026-01-18 02:43:40.00	285.91	27.59	-84.3	-88.8	2.5	3.10e+01	0	47	104	0	60	1048574
2026-01-18 02:43:41.01	285.58	27.48	-84.3	-88.8	2.6	3.10e+01	0	47	104	0	60	1048574
2026-01-18 02:43:42.02	285.27	27.37	-83.9	-88.8	2.2	3.10e+01	0	47	104	0	60	1048574
2026-01-18 02:43:43.03	284.95	27.26	-84.3	-88.8	2.5	3.10e+01	0	47	104	0	60	1048574
2026-01-18 02:43:44.04	284.63	27.15	-84.3	-88.8	2.5	3.10e+01	0	47	104	0	60	1048574
2026-01-18 02:43:45.04	284.32	27.04	-84.3	-88.8	2.7	3.10e+01	0	47	104	0	60	1048574
2026-01-18 02:43:46.05	284.01	26.93	-84.3	-88.8	2.2	3.10e+01	0	47	104	0	60	1048574
2026-01-18 02:43:47.05	283.71	26.82	-83.9	-88.8	2.4	3.10e+01	0	47	104	0	60	1048574
2026-01-18 02:43:48.06	283.40	26.71	-83.9	-88.8	2.8	3.10e+01	0	47	104	0	60	1048574
2026-01-18 02:43:49.06	283.10	26.60	-84.3	-88.8	2.7	3.10e+01	0	47	104	0	60	1048574
2026-01-18 02:43:50.07	282.80	26.49	-84.3	-88.8	2.5	3.10e+01	0	47	104	0	60	1048574
2026-01-18 02:43:51.08	282.50	26.38	-84.3	-88.8	2.4	3.10e+01	0	47	104	0	60	1048574
2026-01-18 02:43:52.09	282.21	26.26	-83.5	-88.8	2.6	3.10e+01	0	47	104	0	60	1048574
2026-01-18 02:43:53.10	281.91	26.15	-83.9	-88.8	2.6	3.10e+01	0	47	104	0	60	1048574
2026-01-18 02:43:54.11	281.62	26.04	-84.3	-88.8	2.4	3.10e+01	0	47	104	0	60	1048574
2026-01-18 02:43:55.11	281.33	25.93	-84.3	-88.8	2.3	3.10e+01	0	47	104	0	60	1048574
2026-01-18 02:43:56.12	281.04	25.81	-83.9	-88.8	2.6	3.10e+01	0	47	104	0	60	1048574
2026-01-18 02:43:57.13	280.76	25.70	-83.9	-88.8	2.4	3.10e+01	0	47	104	0	60	1048574
2026-01-18 02:43:58.13	280.47	25.59	-83.9	-88.8	2.6	3.10e+01	0	47	104	0	60	1048574
2026-01-18 02:43:59.13	280.20	25.47	-83.9	-88.8	2.5	3.10e+01	0	47	104	0	60	1048574
2026-01-18 02:44:00.13	279.92	25.36	-84.3	-88.8	2.5	3.10e+01	0	47	104	0	60	1048574
2026-01-18 02:44:01.13	279.64	25.25	-83.9	-88.8	2.5	3.10e+01	0	47	104	0	60	1048574
2026-01-18 02:44:02.14	279.37	25.13	-84.3	-88.8	2.7	3.10e+01	0	47	104	0	60	1048574
2026-01-18 02:44:03.15	279.10	25.02	-84.3	-88.8	2.2	3.10e+01	0	47	104	0	60	1048574
2026-01-18 02:44:04.15	278.83	24.90	-84.3	-88.8	2.5	3.10e+01	0	47	104	0	60	1048574
2026-01-18 02:44:05.16	278.56	24.79	-84.3	-88.8	2.4	3.10e+01	0	47	104	0	60	1048574
2026-01-18 02:44:06.17	278.29	24.67	-83.9	-88.8	2.5	3.10e+01	0	47	104	0	60	1048574
2026-01-18 02:44:07.17	278.03	24.56	-84.3	-88.8	2.5	3.10e+01	0	47	104	0	60	1048574
2026-01-18 02:44:08.18	277.76	24.44	-84.3	-88.8	2.6	3.10e+01	0	47	104	0	60	1048574
2026-01-18 02:44:09.19	277.50	24.32	-84.3	-88.8	2.5	3.10e+01	0	47	104	0	60	1048574
2026-01-18 02:44:10.20	277.24	24.21	-83.9	-88.8	2.3	3.10e+01	0	47	104	0	60	1048574
2026-01-18 02:44:11.20	276.99	24.09	-83.9	-88.8	2.5	3.10e+01	0	47	104	0	60	1048574
2026-01-18 02:44:12.20	276.74	23.98	-84.3	-88.8	2.3	3.10e+01	0	47	104	0	60	1048574
2026-01-18 02:44:13.21	276.48	23.86	-84.3	-88.8	2.3	3.10e+01	0	47	104	0	60	1048574
2026-01-18 02:44:14.22	276.23	23.75	-84.3	-88.8	2.9	3.10e+01	0	47	104	0	60	1048574
2026-01-18 02:44:15.23	275.98	23.63	-84.3	-88.8	2.6	3.10e+01	0	47	104	0	60	1048574
2026-01-18 02:44:16.23	275.74	23.52	-84.3	-88.8	2.5	3.10e+01	0	47	104	0	60	1048574
2026-01-18 02:44:17.24	275.49	23.40	-83.9	-88.8	2.2	3.10e+01	0	47	104	0	60	1048574
2026-01-18 02:44:18.25	275.25	23.29	-84.3	-88.8	2.1	3.10e+01	0	47	104	0	60	1048571
2026-01-18 02:44:19.25	275.01	23.17	-84.3	-88.8	2.5	3.10e+01	0	47	104	0	60	1048571
2026-01-18 02:44:20.26	274.77	23.05	-83.9	-88.8	2.7	3.10e+01	0	47	104	0	60	1048571
2026-01-18 02:44:21.27	274.53	22.94	-83.9	-88.8	2.4	3.10e+01	0	47	104	0	60	1048571
2026-01-18 02:44:22.27	274.30	22.82	-84.3	-88.8	2.6	3.10e+01	0	47	104	0	60	1048571
2026-01-18 02:44:23.28	274.06	22.71	-83.9	-88.8	2.4	3.10e+01	0	47	104	0	60	1048571
2026-01-18 02:44:24.29	273.83	22.59	-84.3	-88.8	2.6	3.10e+01	0	47	104	0	60	1048571
2026-01-18 02:44:25.29	273.60	22.48	-83.9	-88.8	2.4	3.10e+01	0	47	104	0	60	1048571
2026-01-18 02:44:26.30	273.37	22.36	-83.9	-88.8	2.4	3.10e+01	0	47	104	0	60	1048571
2026-01-18 02:44:27.31	273.15	22.25	-84.3	-88.8	2.5	3.10e+01	0	47	104	0	60	1048572
2026-01-18 02:44:28.31	272.92	22.13	-84.3	-88.8	2.7	3.10e+01	0	47	104	0	60	1048572
2026-01-18 02:44:29.31	272.70	22.02	-83.9	-88.8	2.1	3.10e+01	0	47	104	0	60	1048572
2026-01-18 02:44:30.31	272.48	21.91	-83.9	-88.8	2.0	3.10e+01	0	47	104	0	60	1048572
2026-01-18 02:44:31.32	272.26	21.79	-84.3	-88.8	2.5	3.10e+01	0	47	104	0	60	1048572
2026-01-18 02:44:32.33	272.05	21.68	-84.3	-88.8	2.2	3.10e+01	0	47	104	0	60	1048572
2026-01-18 02:44:33.34	271.83	21.56	-84.3	-88.8	2.6	3.10e+01	0	47	104	0	60	1048572
2026-01-18 02:44:34.34	271.62	21.45	-83.9	-88.8	2.5	3.10e+01	0	47	104	0	60	1048572
2026-01-18 02:44:35.35	271.40	21.33	-83.9	-88.8	2.5	3.10e+01	0	47	104	0	60	1048572
2026-01-18 02:44:36.35	271.19	21.22	-84.3	-88.8	2.4	3.10e+01	0	47	104	0	60	1048572
2026-01-18 02:44:37.36	270.98	21.11	-84.3	-88.8	2.5	3.10e+01	0	47	104	0	60	1048572
2026-01-18 02:44:38.37	270.77	20.99	-84.3	-88.8	2.3	3.10e+01	0	47	104	0	60	1048572
2026-01-18 02:44:39.38	270.57	20.88	-83.9	-88.8	2.5	3.10e+01	0	47	104	0	60	1048572
2026-01-18 02:44:40.38	270.36	20.77	-84.3	-88.8	2.4	3.10e+01	0	47	104	0	60	1048572
2026-01-18 02:44:41.39	270.16	20.65	-84.3	-88.8	2.7	3.10e+01	0	47	104	0	60	1048572
2026-01-18 02:44:42.40	269.96	20.54	-84.3	-88.8	2.4	3.10e+01	0	47	104	0	60	1048572
2026-01-18 02:44:43.41	269.76	20.43	-83.9	-88.8	2.6	3.10e+01	0	47	104	0	60	1048572
2026-01-18 02:44:44.42	269.56	20.32	-83.9	-88.8	2.5	3.10e+01	0	47	104	0	60	1048572
2026-01-18 02:44:45.43	269.36	20.20	-83.9	-88.8	2.2	3.10e+01	0	47	104	0	60	1048572
2026-01-18 02:44:46.43	269.17	20.09	-83.9	-88.8	2.6	3.10e+01	0	47	104	0	60	1048572
2026-01-18 02:44:47.44	268.98	19.98	-84.3	-88.8	2.4	3.10e+01	0	47	104	0	60	1048572
2026-01-18 02:44:48.44	268.78	19.87	-84.3	-88.8	2.5	3.10e+01	0	47	104	0	60	1048572
2026-01-18 02:44:49.45	268.59	19.76	-83.9	-88.8	2.6	3.10e+01	0	47	104	0	60	1048572
2026-01-18 02:44:50.45	268.41	19.65	-84.3	-88.8	2.4	3.10e+01	0	47	104	0	60	1048572
2026-01-18 02:44:51.46	268.22	19.54	-84.3	-88.8	2.7	3.10e+01	0	47	104	0	60	1048572
2026-01-18 02:44:52.47	268.03	19.42	-84.3	-88.8	2.4	3.10e+01	0	47	104	0	60	1048572
2026-01-18 02:44:53.48	267.84	19.31	-83.9	-88.8	2.6	3.10e+01	0	47	104	0	60	1048572
2026-01-18 02:44:54.49	267.66	19.20	-84.3	-88.8	2.4	3.10e+01	0	47	104	0	60	1048572
2026-01-18 02:44:55.49	267.48	19.09	-84.3	-88.8	2.5	3.10e+01	0	47	104	0	60	1048572
2026-01-18 02:44:56.50	267.30	18.98	-84.3	-88.8	2.3	3.10e+01	0	47	104	0	60	1048572
2026-01-18 02:44:57.51	267.12	18.87	-84.3	-88.8	2.5	3.10e+01	0	47	104	0	60	1048572
2026-01-18 02:44:58.52	266.94	18.77	-83.9	-88.8	2.5	3.10e+01	0	47	104	0	60	1048572
2026-01-18 02:44:59.53	266.76	18.66	-83.9	-88.8	2.2	3.10e+01	0	47	104	0	60	1048572
2026-01-18 02:45:00.53	266.59	18.55	-84.3	-88.8	2.2	3.10e+01	0	47	104	0	60	1048572
2026-01-18 02:45:01.54	266.42	18.44	-84.3	-88.8	2.3	3.10e+01	0	47	104	0	60	1048572
2026-01-18 02:45:02.55	266.24	18.33	-83.9	-88.8	2.3	3.10e+01	0	47	104	0	60	1048572
2026-01-18 02:45:03.56	266.07	18.22	-83.9	-88.8	2.5	3.10e+01	0	47	104	0	60	1048572
2026-01-18 02:45:04.56	265.90	18.12	-84.3	-88.8	2.3	3.10e+01	0	47	104	0	60	1048572
2026-01-18 02:45:05.57	265.73	18.01	-84.3	-88.8	2.6	3.10e+01	0	47	104	0	60	1048572
2026-01-18 02:45:06.57	265.57	17.90	-84.3	-88.8	2.5	3.10e+01	0	47	104	0	60	1048572
2026-01-18 02:45:07.58	265.40	17.79	-83.9	-88.8	2.6	3.10e+01	0	47	104	0	60	1048572
2026-01-18 02:45:08.59	265.24	17.69	-84.3	-88.8	2.3	3.10e+01	0	47	104	0	60	1048572
2026-01-18 02:45:09.60	265.07	17.58	-84.3	-88.8	2.3	3.10e+01	0	47	104	0	60	1048572
2026-01-18 02:45:10.61	264.91	17.47	-84.3	-88.8	2.7	3.10e+01	0	47	104	0	60	1048572
2026-01-18 02:45:11.62	264.75	17.37	-84.3	-88.8	2.6	3.10e+01	0	47	104	0	60	1048572
2026-01-18 02:45:12.62	264.59	17.26	-83.9	-88.8	2.5	3.10e+01	0	47	104	0	60	1048572
2026-01-18 02:45:13.63	264.43	17.16	-84.3	-88.8	2.5	3.10e+01	0	47	104	0	60	1048572
2026-01-18 02:45:14.63	264.27	17.05	-84.3	-88.8	2.1	3.10e+01	0	47	104	0	60	1048572
2026-01-18 02:45:15.64	264.12	16.95	-84.3	-88.8	2.3	3.10e+01	0	47	104	0	60	1048572
2026-01-18 02:45:16.64	263.96	16.85	-84.3	-88.8	2.4	3.10e+01	0	47	104	0	60	1048572
2026-01-18 02:45:17.65	263.81	16.74	-83.9	-88.8	2.5	3.10e+01	0	47	104	0	60	1048572
2026-01-18 02:45:18.66	263.65	16.64	-84.3	-88.8	2.2	3.10e+01	0	47	104	0	60	1048572
2026-01-18 02:45:19.66	263.50	16.53	-84.3	-88.8	2.5	3.10e+01	0	47	104	0	60	1048572
2026-01-18 02:45:20.67	263.35	16.43	-83.9	-88.8	2.4	3.10e+01	0	47	104	0	60	1048572
2026-01-18 02:45:21.68	263.20	16.33	-83.9	-88.8	2.5	3.10e+01	0	47	104	0	60	1048572
2026-01-18 02:45:22.69	263.05	16.23	-83.9	-88.8	2.0	3.10e+01	0	47	104	0	60	1048572
2026-01-18 02:45:23.70	262.91	16.12	-84.3	-88.8	2.4	3.10e+01	0	47	104	0	60	1048572
2026-01-18 02:45:24.70	262.76	16.02	-84.3	-88.8	2.3	3.10e+01	0	47	104	0	60	1048572
2026-01-18 02:45:25.70	262.62	15.92	-84.3	-88.8	2.4	3.10e+01	0	47	104	0	60	1048572
2026-01-18 02:45:26.71	262.47	15.82	-83.5	-88.8	2.4	3.10e+01	0	47	104	0	60	1048572
2026-01-18 02:45:27.72	262.33	15.72	-83.9	-88.8	1.9	3.10e+01	0	47	104	0	60	1048575
2026-01-18 02:45:28.72	262.19	15.62	-84.3	-88.8	2.5	3.10e+01	0	47	104	0	60	1048575
2026-01-18 02:45:29.73	262.05	15.52	-84.3	-88.8	2.4	3.10e+01	0	47	104	0	60	1048575
2026-01-18 02:45:30.74	261.91	15.42	-84.3	-88.8	2.3	3.10e+01	0	47	104	0	60	1048575
2026-01-18 02:45:31.75	261.77	15.32	-83.9	-88.8	2.3	3.10e+01	0	47	104	0	60	1048575
2026-01-18 02:45:32.76	261.63	15.22	-84.3	-88.8	2.5	3.10e+01	0	47	104	0	60	1048575
2026-01-18 02:45:33.77	261.49	15.12	-84.3	-88.8	2.1	3.10e+01	0	47	104	0	60	1048575
2026-01-18 02:45:34.77	261.36	15.02	-84.3	-88.8	2.0	3.10e+01	0	47	104	0	60	1048575
2026-01-18 02:45:35.78	261.22	14.92	-84.3	-88.8	2.6	3.10e+01	0	47	104	0	60	1048575
2026-01-18 02:45:36.79	261.09	14.82	-83.9	-88.8	2.5	3.10e+01	0	47	104	0	60	1048575
2026-01-18 02:45:37.79	260.95	14.72	-84.3	-88.8	2.3	3.10e+01	0	47	104	0	60	1048575
2026-01-18 02:45:38.80	260.82	14.62	-84.3	-88.8	2.2	3.10e+01	0	47	104	0	60	1048575
2026-01-18 02:45:39.80	260.69	14.53	-84.3	-88.8	2.6	3.10e+01	0	47	104	0	60	1048575
2026-01-18 02:45:40.81	260.56	14.43	-83.9	-88.8	2.6	3.10e+01	0	47	104	0	60	1048575
2026-01-18 02:45:41.81	260.43	14.33	-83.9	-88.8	2.6	3.10e+01	0	47	104	0	60	1048575
2026-01-18 02:45:42.81	260.30	14.24	-84.3	-88.8	2.7	3.10e+01	0	47	104	0	60	1048575
2026-01-18 02:45:43.82	260.18	14.14	-84.3	-88.8	2.6	3.10e+01	0	47	104	0	60	1048575
2026-01-18 02:45:44.82	260.05	14.04	-84.3	-88.8	2.8	3.10e+01	0	47	104	0	60	1048575
2026-01-18 02:45:45.83	259.93	13.95	-83.9	-88.8	2.5	3.10e+01	0	47	104	0	60	1048575
2026-01-18 02:45:46.84	259.80	13.85	-84.3	-88.8	2.5	3.10e+01	0	47	104	0	60	1048575
2026-01-18 02:45:47.84	259.68	13.76	-84.3	-88.8	2.6	3.10e+01	0	47	104	0	60	1048575
2026-01-18 02:45:48.85	259.55	13.66	-84.3	-88.8	2.4	3.10e+01	0	47	104	0	60	1048575
2026-01-18 02:45:49.85	259.43	13.57	-84.3	-88.8	2.4	3.10e+01	0	47	104	0	60	1048575
2026-01-18 02:45:50.86	259.31	13.47	-83.9	-88.8	2.4	3.10e+01	0	47	104	0	60	1048575
2026-01-18 02:45:51.87	259.19	13.38	-83.9	-88.8	2.7	3.10e+01	0	47	104	0	60	1048575
2026-01-18 02:45:52.88	259.07	13.28	-84.3	-88.8	2.4	3.10e+01	0	47	104	0	60	1048575
2026-01-18 02:45:53.89	258.95	13.19	-84.3	-88.8	2.1	3.10e+01	0	47	104	0	60	1048575
2026-01-18 02:45:54.89	258.83	13.10	-83.9	-88.8	2.3	3.10e+01	0	47	104	0	60	1048575
2026-01-18 02:45:55.90	258.72	13.00	-83.9	-88.8	2.3	3.10e+01	0	47	104	0	60	1048575
2026-01-18 02:45:56.90	258.60	12.91	-83.9	-88.8	2.7	3.10e+01	0	47	104	0	60	1048575
2026-01-18 02:45:57.91	258.48	12.82	-84.3	-88.8	2.5	3.10e+01	0	47	104	0	60	1048575
2026-01-18 02:45:58.91	258.37	12.73	-84.3	-88.8	2.7	3.10e+01	0	47	104	0	60	1048575
2026-01-18 02:45:59.92	258.26	12.63	-83.9	-88.8	2.6	3.10e+01	0	47	104	0	60	1048575
2026-01-18 02:46:00.93	258.14	12.54	-83.9	-88.8	2.3	3.10e+01	0	47	104	0	60	1048575
2026-01-18 02:46:01.93	258.03	12.45	-84.3	-88.8	2.5	3.10e+01	0	47	104	0	60	1048575
2026-01-18 02:46:02.94	257.92	12.36	-84.3	-88.8	2.5	3.10e+01	0	47	104	0	60	1048575
2026-01-18 02:46:03.95	257.81	12.27	-84.3	-88.8	2.4	3.10e+01	0	47	104	0	60	1048575
2026-01-18 02:46:04.96	257.70	12.18	-83.9	-88.8	2.6	3.10e+01	0	47	104	0	60	1048575
2026-01-18 02:46:05.96	257.59	12.09	-84.3	-88.8	2.8	3.10e+01	0	47	104	0	60	1048575
2026-01-18 02:46:06.97	257.48	12.00	-84.3	-88.8	2.3	3.10e+01	0	47	104	0	60	1048575
2026-01-18 02:46:07.97	257.37	11.91	-84.3	-88.8	2.0	3.10e+01	0	47	104	0	60	1048575
2026-01-18 02:46:08.98	257.27	11.82	-84.3	-88.8	2.3	3.10e+01	0	47	104	0	60	1048575
2026-01-18 02:46:09.98	257.16	11.73	-83.5	-88.8	2.4	3.10e+01	0	47	104	0	60	1048575
2026-01-18 02:46:10.99	257.05	11.64	-84.3	-88.8	2.5	3.10e+01	0	47	104	0	60	1048575
2026-01-18 02:46:11.99	256.95	11.55	-84.3	-88.8	2.6	3.10e+01	0	47	104	0	60	1048575
2026-01-18 02:46:13.00	256.84	11.46	-84.3	-88.8	2.8	3.10e+01	0	47	104	0	60	1048575
2026-01-18 02:46:14.01	256.74	11.37	-83.9	-88.8	2.3	3.10e+01	0	47	104	0	60	1048575
2026-01-18 02:46:15.01	256.64	11.29	-83.9	-88.8	2.4	3.10e+01	0	47	104	0	60	1048575
2026-01-18 02:46:16.02	256.54	11.20	-84.3	-88.8	2.2	3.10e+01	0	47	104	0	60	1048575
2026-01-18 02:46:17.02	256.43	11.11	-84.3	-88.8	2.6	3.10e+01	0	47	104	0	60	1048575
2026-01-18 02:46:18.03	256.33	11.03	-84.3	-88.8	2.5	3.10e+01	0	47	104	0	60	1048575
2026-01-18 02:46:19.04	256.23	10.94	-83.9	-88.8	2.5	3.10e+01	0	47	104	0	60	1048575
2026-01-18 02:46:20.05	256.13	10.85	-83.9	-88.8	2.6	3.10e+01	0	47	104	0	60	1048575
2026-01-18 02:46:21.06	256.03	10.76	-84.3	-88.8	2.4	3.10e+01	0	47	104	0	60	1048575
2026-01-18 02:46:22.07	255.93	10.68	-84.3	-88.8	2.3	3.10e+01	0	47	104	0	60	1048575
2026-01-18 02:46:23.08	255.84	10.59	-84.3	-88.8	2.3	3.10e+01	0	47	104	0	60	1048575
2026-01-18 02:46:24.08	255.74	10.51	-83.9	-88.8	2.7	3.10e+01	0	47	104	0	60	1048575
2026-01-18 02:46:25.09	255.64	10.42	-84.3	-88.8	2.6	3.10e+01	0	47	104	0	60	1048575
2026-01-18 02:46:26.10	255.55	10.34	-84.3	-88.8	2.5	3.10e+01	0	47	104	0	60	1048575
2026-01-18 02:46:27.10	255.45	10.25	-84.3	-88.8	2.6	3.10e+01	0	47	104	0	60	1048575
2026-01-18 02:46:28.11	255.36	10.17	-84.3	-88.8	2.5	3.10e+01	0	47	104	0	60	1048575
2026-01-18 02:46:29.12	255.26	10.08	-83.9	-88.8	2.3	3.10e+01	0	47	104	0	60	1048575
2026-01-18 02:46:30.13	255.17	10.00	-84.3	-88.8	2.1	3.10e+01	0	47	104	0	60	1048575
2026-01-18 02:46:31.13	255.08	9.91	-84.3	-88.8	2.8	3.10e+01	0	47	104	0	60	1048575
2026-01-18 02:46:32.13	254.99	9.83	-84.3	-88.8	2.3	3.10e+01	0	47	104	0	60	1048575
2026-01-18 02:46:33.14	254.89	9.75	-83.9	-88.8	2.5	3.10e+01	0	47	104	0	60	1048575
2026-01-18 02:46:34.15	254.80	9.66	-83.9	-88.8	2.3	3.10e+01	0	47	104	0	60	1048575
2026-01-18 02:46:35.15	254.71	9.58	-84.3	-88.8	2.5	3.10e+01	0	47	104	0	60	1048575
2026-01-18 02:46:36.16	254.62	9.50	-84.3	-88.8	2.3	3.10e+01	0	47	104	0	60	1048575
2026-01-18 02:46:37.17	254.53	9.42	-84.3	-88.8	2.4	3.10e+01	0	47	104	0	60	1048575
2026-01-18 02:46:38.18	254.44	9.33	-83.9	-88.8	2.5	3.10e+01	0	47	104	0	60	1048575
2026-01-18 02:46:39.18	254.36	9.25	-83.9	-88.8	2.7	3.10e+01	0	47	104	0	60	1048575
2026-01-18 02:46:40.19	254.27	9.17	-84.3	-88.8	2.5	3.10e+01	0	47	104	0	60	1048575
2026-01-18 02:46:41.19	254.18	9.09	-84.3	-88.8	2.2	3.10e+01	0	47	104	0	60	1048575
2026-01-18 02:46:42.20	254.10	9.01	-84.3	-88.8	2.6	3.10e+01	0	47	104	0	60	1048575
2026-01-18 02:46:43.21	254.01	8.93	-83.9	-88.8	2.4	3.10e+01	0	47	104	0	60	1048575
2026-01-18 02:46:44.22	253.92	8.85	-83.9	-88.8	2.6	3.10e+01	0	47	104	0	60	1048575
2026-01-18 02:46:45.22	253.84	8.77	-84.3	-88.8	2.6	3.10e+01	0	47	104	0	60	1048575
2026-01-18 02:46:46.22	253.76	8.69	-84.3	-88.8	2.6	3.10e+01	0	47	104	0	60	1048575
2026-01-18 02:46:47.23	253.67	8.61	-83.9	-88.8	2.6	3.10e+01	0	47	104	0	60	1048575
2026-01-18 02:46:48.23	253.59	8.53	-83.9	-88.8	2.4	3.10e+01	0	47	104	0	60	1048575
2026-01-18 02:46:49.23	253.51	8.45	-83.9	-88.8	2.4	3.10e+01	0	47	104	0	60	1048575
2026-01-18 02:46:50.24	253.42	8.37	-83.9	-88.8	2.4	3.10e+01	0	47	104	0	60	1048575
2026-01-18 02:46:51.25	253.34	8.29	-84.3	-88.8	2.4	3.10e+01	0	47	104	0	60	1048575
2026-01-18 02:46:52.25	253.26	8.21	-83.9	-88.8	2.6	3.10e+01	0	47	104	0	60	1048575
2026-01-18 02:46:53.26	253.18	8.13	-84.3	-88.8	2.6	3.10e+01	0	47	104	0	60	1048575
2026-01-18 02:46:54.26	253.10	8.05	-84.3	-88.8	2.4	3.10e+01	0	47	104	0	60	1048575
2026-01-18 02:46:55.27	253.02	7.97	-84.3	-88.8	2.6	3.10e+01	0	47	104	0	60	1048575
2026-01-18 02:46:56.27	252.94	7.90	-84.3	-88.8	2.6	3.10e+01	0	47	104	0	60	1048575
2026-01-18 02:46:57.27	252.86	7.82	-83.9	-88.8	2.4	3.10e+01	0	47	104	0	60	1048575
2026-01-18 02:46:58.28	252.78	7.74	-84.3	-88.8	2.4	3.10e+01	0	47	104	0	60	1048575
2026-01-18 02:46:59.28	252.71	7.66	-84.3	-88.8	2.7	3.10e+01	0	47	104	0	60	1048575
2026-01-18 02:47:00.28	252.63	7.59	-84.3	-88.8	2.5	3.10e+01	0	47	104	0	60	1048575
2026-01-18 02:47:01.28	252.55	7.51	-83.9	-88.8	2.3	3.10e+01	0	47	104	0	60	1048575
2026-01-18 02:47:02.29	252.47	7.43	-83.9	-88.8	2.7	3.10e+01	0	47	104	0	60	1048575
2026-01-18 02:47:03.30	252.40	7.36	-84.3	-88.8	2.3	3.10e+01	0	47	104	0	60	1048575
2026-01-18 02:47:04.31	252.32	7.28	-84.3	-88.8	2.3	3.10e+01	0	47	104	0	60	1048575
2026-01-18 02:47:05.31	252.25	7.21	-84.3	-88.8	2.2	3.10e+01	0	47	104	0	60	1048575
2026-01-18 02:47:06.32	252.17	7.13	-84.3	-88.8	2.6	3.10e+01	0	47	104	0	60	1048575
2026-01-18 02:47:07.32	252.10	7.05	-84.3	-88.8	2.5	3.10e+01	0	47	104	0	60	1048575
2026-01-18 02:47:08.33	252.02	6.98	-84.3	-88.8	2.5	3.10e+01	0	47	104	0	60	1048575
2026-01-18 02:47:09.33	251.95	6.90	-84.3	-88.8	2.5	3.10e+01	0	47	104	0	60	1048575
2026-01-18 02:47:10.33	251.88	6.83	-84.3	-88.8	2.6	3.10e+01	0	47	104	0	60	1048575
2026-01-18 02:47:11.34	251.81	6.75	-83.9	-88.8	2.3	3.10e+01	0	47	104	0	60	1048575
2026-01-18 02:47:12.35	251.73	6.68	-84.3	-88.8	2.6	3.10e+01	0	47	104	0	60	1048575
2026-01-18 02:47:13.36	251.66	6.60	-84.3	-88.8	2.8	3.10e+01	0	47	104	0	60	1048575
2026-01-18 02:47:14.36	251.59	6.53	-84.3	-88.8	2.4	3.10e+01	0	47	104	0	60	1048575
2026-01-18 02:47:15.36	251.52	6.46	-84.3	-88.8	2.6	3.10e+01	0	47	104	0	60	1048575
2026-01-18 02:47:16.36	251.45	6.38	-83.9	-88.8	2.3	3.10e+01	0	47	104	0	60	1048575
2026-01-18 02:47:17.37	251.38	6.31	-84.3	-88.8	2.5	3.10e+01	0	47	104	0	60	1048575
2026-01-18 02:47:18.37	251.31	6.24	-84.3	-88.8	2.2	3.10e+01	0	47	104	0	60	1048575
2026-01-18 02:47:19.38	251.24	6.16	-84.3	-88.8	2.3	3.10e+01	0	47	104	0	60	1048575
2026-01-18 02:47:20.38	251.17	6.09	-83.9	-88.8	2.6	3.10e+01	0	47	104	0	60	1048575
2026-01-18 02:47:21.39	251.10	6.02	-83.5	-88.8	2.6	3.10e+01	0	47	104	0	60	1048575
2026-01-18 02:47:22.40	251.03	5.94	-84.3	-88.8	2.4	3.10e+01	0	47	104	0	60	1048575
2026-01-18 02:47:23.40	250.97	5.87	-84.3	-88.8	2.5	3.10e+01	0	47	104	0	60	1048575
2026-01-18 02:47:24.41	250.90	5.80	-84.3	-88.8	2.5	3.10e+01	0	47	104	0	60	1048575
2026-01-18 02:47:25.42	250.83	5.73	-83.9	-88.8	2.4	3.10e+01	0	47	104	0	60	1048575
2026-01-18 02:47:26.43	250.77	5.65	-83.9	-88.8	2.5	3.10e+01	0	47	104	0	60	1048575
2026-01-18 02:47:27.44	250.70	5.58	-84.3	-88.8	2.2	3.10e+01	0	47	104	0	60	1048575
2026-01-18 02:47:28.44	250.63	5.51	-84.3	-88.8	2.5	3.10e+01	0	47	104	0	60	1048575
2026-01-18 02:47:29.45	250.57	5.44	-84.3	-88.8	2.5	3.10e+01	0	47	104	0	60	1048575
2026-01-18 02:47:30.46	250.50	5.37	-83.9	-88.8	2.5	3.10e+01	0	47	104	0	60	1048575
2026-01-18 02:47:31.46	250.44	5.30	-84.3	-88.8	2.2	3.10e+01	0	47	104	0	60	1048575
2026-01-18 02:47:32.47	250.37	5.23	-84.3	-88.8	2.5	3.10e+01	0	47	104	0	60	1048575
2026-01-18 02:47:33.47	250.31	5.16	-83.9	-88.8	2.5	3.10e+01	0	47	104	0	60	1048575
2026-01-18 02:47:34.48	250.24	5.08	-84.3	-88.8	2.2	3.10e+01	0	47	104	0	60	1048575
2026-01-18 02:47:35.49	250.18	5.01	-83.9	-88.8	2.5	3.10e+01	0	47	104	0	60	1048575
2026-01-18 02:47:36.50	250.12	4.94	-83.9	-88.8	2.2	3.10e+01	0	47	104	0	60	1048575
2026-01-18 02:47:37.50	250.06	4.87	-84.3	-88.8	2.5	3.10e+01	0	47	104	0	60	1048575
2026-01-18 02:47:38.51	249.99	4.80	-84.3	-88.8	2.2	3.10e+01	0	47	104	0	60	1048575
2026-01-18 02:47:39.51	249.93	4.73	-83.9	-88.8	2.6	3.10e+01	0	47	104	0	60	1048575
2026-01-18 02:47:40.52	249.87	4.66	-83.9	-88.8	2.6	3.10e+01	0	47	104	0	60	1048575
2026-01-18 02:47:41.53	249.81	4.59	-84.3	-88.8	2.4	3.10e+01	0	47	104	0	60	1048575
2026-01-18 02:47:42.54	249.75	4.53	-84.3	-88.8	2.1	3.10e+01	0	47	104	0	60	1048575
2026-01-18 02:47:43.55	249.69	4.46	-84.3	-88.8	2.4	3.10e+01	0	47	104	0	60	1048575
2026-01-18 02:47:44.55	249.63	4.39	-83.5	-88.8	2.6	3.10e+01	0	47	104	0	60	1048575
2026-01-18 02:47:45.56	249.57	4.32	-83.9	-88.8	2.5	3.10e+01	0	47	104	0	60	1048575
2026-01-18 02:47:46.57	249.51	4.25	-84.3	-88.8	2.5	3.10e+01	0	47	104	0	60	1048575
2026-01-18 02:47:47.57	249.45	4.18	-84.3	-88.8	2.2	3.10e+01	0	47	104	0	60	1048575
2026-01-18 02:47:48.58	249.39	4.11	-84.3	-88.8	2.5	3.10e+01	0	47	104	0	60	1048575
2026-01-18 02:47:49.59	249.33	4.05	-83.9	-88.8	2.4	3.10e+01	0	47	104	0	60	1048575
2026-01-18 02:47:50.59	249.27	3.98	-84.3	-88.8	2.5	3.10e+01	0	47	104	0	60	1048575
2026-01-18 02:47:51.60	249.21	3.91	-84.3	-88.8	2.5	3.10e+01	0	47	104	0	60	1048575
2026-01-18 02:47:52.60	249.15	3.84	-84.3	-88.8	2.4	3.10e+01	0	47	104	0	60	1048575
2026-01-18 02:47:53.61	249.10	3.78	-83.9	-88.8	2.3	3.10e+01	0	47	104	0	60	1048575
