passes_logs/2026/01/18/R3.2S-Naryan-Mar/R3.2S-Naryan-Mar__20260118_171236_TY-41_rec.log

#Pass ID: 20260118_171236_TY-41
#Satellite: TY-41
#Configuration: TY-39
#almurnet v.1.7.20240730
#Start time: 2026-01-18 17:12:38

#Version: 2.2.20231116
#Station: R3.2S-Naryan-Mar
#Location: 53.008057 lon 67.646978 lat
#TLE: 1 61231U 24173E   26018.25438657  .00008012  00000-0  38191-3 0 09993
#TLE: 2 61231 097.4123 093.2273 0001689 092.2184 306.3117 15.19177353 72997

#Time	Az	El	Level	Level2	SNR	BER	BlckErr	Temp	State	Recorded	gain1	gain2
2026-01-18 17:12:38.59	149.40	0.14	-83.5	-79.0	2.7	0.00e+00	0	46	0	0	60	1048571
2026-01-18 17:12:39.58	149.39	0.21	-83.5	-79.0	2.4	0.00e+00	0	46	104	0	60	1048571
2026-01-18 17:12:40.59	149.38	0.27	-83.5	-79.0	2.4	0.00e+00	0	46	104	0	60	1048575
2026-01-18 17:12:41.59	149.38	0.34	-83.1	-79.0	2.5	0.00e+00	0	46	104	0	60	1048573
2026-01-18 17:12:42.60	149.37	0.40	-83.5	-79.0	2.4	0.00e+00	0	46	104	0	60	1048575
2026-01-18 17:12:43.60	149.36	0.47	-83.5	-79.0	2.4	0.00e+00	0	47	104	0	60	1048575
2026-01-18 17:12:44.61	149.35	0.53	-83.1	-79.0	2.4	0.00e+00	0	46	104	0	60	1048566
2026-01-18 17:12:45.61	149.34	0.60	-83.5	-79.0	2.3	0.00e+00	0	46	104	0	60	1048575
2026-01-18 17:12:46.62	149.33	0.67	-83.1	-79.0	2.7	0.00e+00	0	46	104	0	60	1048571
2026-01-18 17:12:47.61	149.32	0.73	-83.5	-79.0	2.3	0.00e+00	0	46	104	0	60	1048569
2026-01-18 17:12:48.62	149.31	0.80	-83.5	-79.0	2.5	0.00e+00	0	47	104	0	60	1048574
2026-01-18 17:12:49.62	149.30	0.86	-83.5	-79.0	2.7	0.00e+00	0	47	104	0	60	1048574
2026-01-18 17:12:50.63	149.29	0.93	-83.1	-79.0	2.4	0.00e+00	0	47	104	0	60	1048572
2026-01-18 17:12:51.64	149.28	1.00	-82.8	-79.0	2.5	0.00e+00	0	47	104	0	60	1048570
2026-01-18 17:12:52.64	149.27	1.07	-83.5	-79.0	2.5	0.00e+00	0	47	104	0	60	1048575
2026-01-18 17:12:53.65	149.26	1.13	-83.5	-79.0	2.4	0.00e+00	0	47	104	0	60	1048572
2026-01-18 17:12:54.66	149.24	1.20	-83.5	-79.0	2.4	0.00e+00	0	47	104	0	60	1048574
2026-01-18 17:12:55.67	149.23	1.27	-83.5	-79.0	2.6	0.00e+00	0	47	104	0	60	1048575
2026-01-18 17:12:56.67	149.22	1.34	-82.8	-79.0	2.4	0.00e+00	0	47	104	0	60	1048573
2026-01-18 17:12:57.68	149.21	1.41	-83.1	-79.0	2.5	0.00e+00	0	47	104	0	60	1048573
2026-01-18 17:12:58.68	149.20	1.47	-83.5	-79.0	2.4	0.00e+00	0	47	104	0	60	1048575
2026-01-18 17:12:59.69	149.19	1.54	-83.5	-79.0	2.3	0.00e+00	0	47	104	0	60	1048570
2026-01-18 17:13:00.69	149.18	1.61	-83.1	-79.0	2.4	0.00e+00	0	47	104	0	60	1048567
2026-01-18 17:13:01.69	149.17	1.68	-83.1	-79.0	2.3	0.00e+00	0	47	104	0	60	1048575
2026-01-18 17:13:02.70	149.16	1.75	-83.5	-79.0	2.4	0.00e+00	0	47	104	0	60	1048570
2026-01-18 17:13:03.71	149.15	1.82	-83.5	-79.0	2.5	0.00e+00	0	47	104	0	60	1048571
2026-01-18 17:13:04.71	149.14	1.89	-83.1	-79.0	2.3	0.00e+00	0	47	104	0	60	1048574
2026-01-18 17:13:05.72	149.12	1.96	-83.1	-79.0	2.4	0.00e+00	0	47	104	0	60	1048573
2026-01-18 17:13:06.72	149.11	2.03	-83.1	-79.0	2.4	0.00e+00	0	47	104	0	60	1048574
2026-01-18 17:13:07.72	149.10	2.10	-83.5	-79.0	2.4	0.00e+00	0	47	104	0	60	1048575
2026-01-18 17:13:08.73	149.09	2.17	-83.5	-79.0	2.4	0.00e+00	0	47	104	0	60	1048571
2026-01-18 17:13:09.74	149.08	2.24	-83.5	-79.0	2.4	0.00e+00	0	47	104	0	60	1048574
2026-01-18 17:13:10.74	149.07	2.31	-82.8	-79.0	2.4	0.00e+00	0	47	104	0	60	1048575
2026-01-18 17:13:11.75	149.05	2.38	-83.5	-79.0	2.5	0.00e+00	0	47	104	0	60	1048574
2026-01-18 17:13:12.76	149.04	2.46	-83.5	-79.0	2.4	0.00e+00	0	47	104	0	60	1048574
2026-01-18 17:13:13.76	149.03	2.53	-83.5	-79.0	2.4	0.00e+00	0	47	104	0	60	1048573
2026-01-18 17:13:14.77	149.02	2.60	-83.1	-79.0	2.4	0.00e+00	0	47	104	0	60	1048574
2026-01-18 17:13:15.78	149.00	2.67	-83.1	-79.0	2.4	0.00e+00	0	47	104	0	60	1048571
2026-01-18 17:13:16.79	148.99	2.75	-83.5	-79.0	2.4	0.00e+00	0	47	104	0	60	1048566
2026-01-18 17:13:17.80	148.98	2.82	-83.5	-79.0	2.4	0.00e+00	0	47	104	0	60	1048570
2026-01-18 17:13:18.80	148.97	2.89	-83.5	-79.0	2.4	0.00e+00	0	47	104	0	60	1048562
2026-01-18 17:13:19.80	148.95	2.96	-83.1	-79.0	2.7	0.00e+00	0	47	104	0	60	1048575
2026-01-18 17:13:20.81	148.94	3.04	-83.5	-79.0	2.5	0.00e+00	0	47	104	0	60	1048574
2026-01-18 17:13:21.82	148.93	3.11	-83.5	-79.0	2.4	0.00e+00	0	47	104	0	60	1048571
2026-01-18 17:13:22.82	148.92	3.19	-83.5	-79.0	2.3	0.00e+00	0	47	104	0	60	1048574
2026-01-18 17:13:23.83	148.90	3.26	-83.1	-79.0	2.5	0.00e+00	0	47	104	0	60	1048570
2026-01-18 17:13:24.84	148.89	3.34	-82.8	-79.0	2.5	0.00e+00	0	47	104	0	60	1048575
2026-01-18 17:13:25.84	148.88	3.41	-83.1	-79.0	2.4	0.00e+00	0	47	104	0	60	1048572
2026-01-18 17:13:26.85	148.86	3.49	-83.5	-79.0	2.4	0.00e+00	0	47	104	0	60	1048575
2026-01-18 17:13:27.86	148.85	3.56	-83.5	-79.0	2.4	0.00e+00	0	48	104	0	60	1048575
2026-01-18 17:13:28.86	148.83	3.64	-83.1	-79.0	2.5	0.00e+00	0	47	104	0	60	1048575
2026-01-18 17:13:29.87	148.82	3.71	-83.1	-79.0	2.5	0.00e+00	0	48	104	0	60	1048575
2026-01-18 17:13:30.87	148.81	3.79	-83.1	-79.0	2.4	0.00e+00	0	47	104	0	60	1048575
2026-01-18 17:13:31.88	148.79	3.87	-83.5	-79.0	2.5	0.00e+00	0	47	104	0	60	1048568
2026-01-18 17:13:32.89	148.78	3.94	-83.5	-79.0	2.5	0.00e+00	0	47	104	0	60	1048575
2026-01-18 17:13:33.90	148.76	4.02	-83.1	-79.0	2.5	0.00e+00	0	48	104	0	60	1048572
2026-01-18 17:13:34.91	148.75	4.10	-83.1	-79.0	2.3	0.00e+00	0	47	104	0	60	1048571
2026-01-18 17:13:35.91	148.73	4.18	-83.5	-79.0	2.5	0.00e+00	0	47	104	0	60	1048563
2026-01-18 17:13:36.92	148.72	4.25	-83.5	-79.0	2.4	0.00e+00	0	48	104	0	60	1048569
2026-01-18 17:13:37.92	148.71	4.33	-83.5	-79.0	2.4	0.00e+00	0	48	104	0	60	1048575
2026-01-18 17:13:38.93	148.69	4.41	-83.1	-79.0	2.4	0.00e+00	0	48	104	0	60	1048573
2026-01-18 17:13:39.93	148.68	4.49	-83.5	-79.0	2.4	0.00e+00	0	48	104	0	60	1048574
2026-01-18 17:13:40.94	148.66	4.57	-83.5	-79.0	2.5	0.00e+00	0	48	104	0	60	1048573
2026-01-18 17:13:41.95	148.65	4.65	-83.5	-79.0	2.5	0.00e+00	0	48	104	0	60	1048574
2026-01-18 17:13:42.95	148.63	4.73	-83.5	-79.0	2.4	0.00e+00	0	48	104	0	60	1048573
2026-01-18 17:13:43.96	148.61	4.81	-82.8	-79.0	2.3	0.00e+00	0	48	104	0	60	1048575
2026-01-18 17:13:44.97	148.60	4.89	-83.1	-79.0	2.4	0.00e+00	0	48	104	0	60	1048574
2026-01-18 17:13:45.98	148.58	4.97	-83.5	-79.0	2.3	0.00e+00	0	48	104	0	60	1048573
2026-01-18 17:13:46.98	148.57	5.05	-83.5	-79.0	2.3	0.00e+00	0	48	104	0	60	1048566
2026-01-18 17:13:47.99	148.55	5.13	-83.1	-79.0	2.4	0.00e+00	0	48	104	0	60	1048574
2026-01-18 17:13:49.00	148.53	5.22	-83.1	-79.0	2.5	0.00e+00	0	48	104	0	60	1048571
2026-01-18 17:13:50.00	148.52	5.30	-83.1	-79.0	2.5	0.00e+00	0	48	104	0	60	1048575
2026-01-18 17:13:51.01	148.50	5.38	-83.1	-79.0	2.4	0.00e+00	0	48	104	0	60	1048575
2026-01-18 17:13:52.02	148.48	5.46	-83.5	-79.0	2.4	0.00e+00	0	48	104	0	60	1048573
2026-01-18 17:13:53.02	148.47	5.55	-83.1	-79.0	2.3	0.00e+00	0	48	104	0	60	1048574
2026-01-18 17:13:54.03	148.45	5.63	-83.5	-79.0	2.4	0.00e+00	0	48	104	0	60	1048573
2026-01-18 17:13:55.04	148.43	5.71	-83.5	-79.0	2.3	0.00e+00	0	48	104	0	60	1048575
2026-01-18 17:13:56.04	148.42	5.80	-83.5	-79.0	2.4	0.00e+00	0	48	104	0	60	1048575
2026-01-18 17:13:57.04	148.40	5.88	-83.5	-79.0	2.4	0.00e+00	0	48	104	0	60	1048574
2026-01-18 17:13:58.05	148.38	5.97	-82.8	-79.0	2.3	0.00e+00	0	48	104	0	60	1048572
2026-01-18 17:13:59.06	148.36	6.05	-83.5	-79.0	2.5	0.00e+00	0	48	104	0	60	1048568
2026-01-18 17:14:00.07	148.35	6.14	-83.1	-79.0	2.4	0.00e+00	0	48	104	0	60	1048559
2026-01-18 17:14:01.07	148.33	6.22	-83.5	-79.0	2.4	0.00e+00	0	48	104	0	60	1048571
2026-01-18 17:14:02.08	148.31	6.31	-83.1	-79.0	2.4	0.00e+00	0	48	104	0	60	1048575
2026-01-18 17:14:03.09	148.29	6.40	-83.1	-79.0	2.4	0.00e+00	0	48	104	0	60	1048571
2026-01-18 17:14:04.10	148.27	6.49	-83.1	-79.0	2.5	0.00e+00	0	48	104	0	60	1048573
2026-01-18 17:14:05.11	148.25	6.57	-83.5	-79.0	2.4	0.00e+00	0	48	104	0	60	1048575
2026-01-18 17:14:06.11	148.24	6.66	-83.5	-79.0	2.4	0.00e+00	0	48	104	0	60	1048575
2026-01-18 17:14:07.12	148.22	6.75	-83.1	-79.0	2.4	0.00e+00	0	48	104	0	60	1048575
2026-01-18 17:14:08.13	148.20	6.84	-83.1	-79.0	2.4	0.00e+00	0	48	104	0	60	1048573
2026-01-18 17:14:09.13	148.18	6.93	-83.5	-79.0	2.4	0.00e+00	0	48	104	0	60	1048569
2026-01-18 17:14:10.14	148.16	7.02	-83.5	-79.0	2.4	0.00e+00	0	48	104	0	60	1048573
2026-01-18 17:14:11.14	148.14	7.11	-83.1	-79.0	2.4	0.00e+00	0	48	104	0	60	1048572
2026-01-18 17:14:12.15	148.12	7.20	-83.1	-79.0	2.3	0.00e+00	0	48	104	0	60	1048575
2026-01-18 17:14:13.15	148.10	7.29	-83.5	-79.0	2.4	0.00e+00	0	48	104	0	60	1048574
2026-01-18 17:14:14.16	148.08	7.38	-83.5	-79.0	2.4	0.00e+00	0	48	104	0	60	1048574
2026-01-18 17:14:15.17	148.06	7.47	-83.5	-79.0	2.4	0.00e+00	0	48	104	0	60	1048574
2026-01-18 17:14:16.18	148.04	7.56	-83.5	-79.0	2.4	0.00e+00	0	48	104	0	60	1048575
2026-01-18 17:14:17.19	148.02	7.66	-83.1	-79.0	2.5	0.00e+00	0	48	104	0	60	1048575
2026-01-18 17:14:18.20	148.00	7.75	-83.5	-79.0	2.4	0.00e+00	0	48	104	0	60	1048563
2026-01-18 17:14:19.20	147.98	7.84	-83.1	-79.0	2.4	0.00e+00	0	48	104	0	60	1048574
2026-01-18 17:14:20.21	147.95	7.94	-83.5	-79.0	2.4	0.00e+00	0	48	104	0	60	1048572
2026-01-18 17:14:21.22	147.93	8.03	-83.1	-79.0	2.4	0.00e+00	0	48	104	0	60	1048568
2026-01-18 17:14:22.23	147.91	8.13	-83.1	-79.0	2.5	0.00e+00	0	48	104	0	60	1048572
2026-01-18 17:14:23.24	147.89	8.22	-83.1	-79.0	2.4	0.00e+00	0	48	104	0	60	1048573
2026-01-18 17:14:24.24	147.87	8.32	-83.1	-79.0	2.3	0.00e+00	0	48	104	0	60	1048571
2026-01-18 17:14:25.25	147.84	8.42	-83.5	-79.0	2.4	0.00e+00	0	48	104	0	60	1048571
2026-01-18 17:14:26.26	147.82	8.51	-83.1	-79.0	2.2	0.00e+00	0	48	104	0	60	1048570
2026-01-18 17:14:27.26	147.80	8.61	-83.5	-79.0	2.4	0.00e+00	0	48	104	0	60	1048574
2026-01-18 17:14:28.27	147.78	8.71	-83.5	-79.0	2.5	0.00e+00	0	48	104	0	60	1048575
2026-01-18 17:14:29.28	147.75	8.81	-83.5	-79.0	2.4	0.00e+00	0	48	104	0	60	1048574
2026-01-18 17:14:30.29	147.73	8.91	-83.5	-79.0	2.4	0.00e+00	0	48	104	0	60	1048574
2026-01-18 17:14:31.30	147.71	9.01	-83.1	-79.0	2.3	0.00e+00	0	48	104	0	60	1048575
2026-01-18 17:14:32.30	147.68	9.11	-83.5	-79.0	2.5	0.00e+00	0	48	104	0	60	1048571
2026-01-18 17:14:33.31	147.66	9.21	-83.5	-79.0	2.4	0.00e+00	0	48	104	0	60	1048573
2026-01-18 17:14:34.32	147.63	9.31	-83.5	-79.0	2.5	0.00e+00	0	48	104	0	60	1048571
2026-01-18 17:14:35.32	147.61	9.41	-83.5	-79.0	2.3	0.00e+00	0	48	104	0	60	1048575
2026-01-18 17:14:36.33	147.58	9.51	-83.1	-79.0	2.5	0.00e+00	0	48	104	0	60	1048565
2026-01-18 17:14:37.33	147.56	9.61	-83.5	-79.0	2.4	0.00e+00	0	48	104	0	60	1048570
2026-01-18 17:14:38.34	147.53	9.72	-83.5	-79.0	2.4	0.00e+00	0	48	104	0	60	1048574
2026-01-18 17:14:39.35	147.51	9.82	-83.1	-79.0	2.4	0.00e+00	0	48	104	0	60	1048574
2026-01-18 17:14:40.36	147.48	9.93	-83.1	-79.0	2.3	0.00e+00	0	48	104	0	60	1048575
2026-01-18 17:14:41.36	147.46	10.03	-82.8	-79.0	2.4	0.00e+00	0	48	104	0	60	1048575
2026-01-18 17:14:42.37	147.43	10.14	-83.5	-79.0	2.6	0.00e+00	0	48	104	0	60	1048574
2026-01-18 17:14:43.38	147.40	10.24	-83.5	-79.0	2.5	0.00e+00	0	48	104	0	60	1048572
2026-01-18 17:14:44.39	147.38	10.35	-83.1	-79.0	2.4	0.00e+00	0	48	104	0	60	1048575
2026-01-18 17:14:45.39	147.35	10.46	-83.1	-79.0	2.4	0.00e+00	0	48	104	0	60	1048575
2026-01-18 17:14:46.40	147.32	10.56	-83.1	-79.0	2.5	0.00e+00	0	48	104	0	60	1048572
2026-01-18 17:14:47.41	147.29	10.67	-83.1	-79.0	2.5	0.00e+00	0	48	104	0	60	1048574
2026-01-18 17:14:48.42	147.27	10.78	-83.5	-79.0	2.5	0.00e+00	0	48	104	0	60	1048575
2026-01-18 17:14:49.43	147.24	10.89	-83.5	-79.0	2.3	0.00e+00	0	48	104	0	60	1048569
2026-01-18 17:14:50.44	147.21	11.00	-83.1	-79.0	2.4	0.00e+00	0	48	104	0	60	1048574
2026-01-18 17:14:51.44	147.18	11.11	-83.5	-79.0	2.4	0.00e+00	0	48	104	0	60	1048575
2026-01-18 17:14:52.45	147.15	11.23	-83.5	-79.0	2.5	0.00e+00	0	48	104	0	60	1048574
2026-01-18 17:14:53.46	147.12	11.34	-83.5	-79.0	2.4	0.00e+00	0	48	104	0	60	1048575
2026-01-18 17:14:54.47	147.09	11.45	-83.1	-79.0	2.3	0.00e+00	0	48	104	0	60	1048572
2026-01-18 17:14:55.48	147.06	11.57	-83.1	-79.0	2.4	0.00e+00	0	48	104	0	60	1048573
2026-01-18 17:14:56.48	147.03	11.68	-83.5	-79.0	2.5	0.00e+00	0	48	104	0	60	1048575
2026-01-18 17:14:57.48	147.00	11.79	-83.1	-79.0	2.4	0.00e+00	0	48	104	0	60	1048573
2026-01-18 17:14:58.49	146.97	11.91	-83.5	-79.0	2.4	0.00e+00	0	48	104	0	60	1048575
2026-01-18 17:14:59.50	146.94	12.03	-83.1	-79.0	2.5	0.00e+00	0	48	104	0	60	1048570
2026-01-18 17:15:00.50	146.91	12.14	-83.1	-79.0	2.4	0.00e+00	0	48	104	0	60	1048571
2026-01-18 17:15:01.51	146.87	12.26	-83.5	-79.0	2.3	0.00e+00	0	48	104	0	60	1048575
2026-01-18 17:15:02.52	146.84	12.38	-83.5	-79.0	2.4	0.00e+00	0	48	104	0	60	1048568
2026-01-18 17:15:03.52	146.81	12.50	-83.5	-79.0	2.4	0.00e+00	0	48	104	0	60	1048567
2026-01-18 17:15:04.53	146.78	12.62	-82.8	-79.0	2.4	0.00e+00	0	48	104	0	60	1048571
2026-01-18 17:15:05.54	146.74	12.74	-83.1	-79.0	2.4	0.00e+00	0	48	104	0	60	1048571
2026-01-18 17:15:06.55	146.71	12.86	-83.5	-79.0	2.4	0.00e+00	0	48	104	0	60	1048575
2026-01-18 17:15:07.56	146.67	12.99	-83.5	-79.0	2.4	0.00e+00	0	48	104	0	60	1048575
2026-01-18 17:15:08.56	146.64	13.11	-83.5	-79.0	2.4	0.00e+00	0	48	104	0	60	1048574
2026-01-18 17:15:09.57	146.61	13.24	-83.1	-79.0	2.4	0.00e+00	0	49	104	0	60	1048572
2026-01-18 17:15:10.58	146.57	13.36	-83.1	-79.0	2.4	0.00e+00	0	49	104	0	60	1048572
2026-01-18 17:15:11.59	146.53	13.49	-83.5	-79.0	2.4	0.00e+00	0	48	104	0	60	1048575
2026-01-18 17:15:12.60	146.50	13.61	-83.5	-79.0	2.4	0.00e+00	0	48	104	0	60	1048573
2026-01-18 17:15:13.60	146.46	13.74	-83.1	-79.0	2.4	0.00e+00	0	48	104	0	60	1048574
2026-01-18 17:15:14.61	146.42	13.87	-83.1	-79.0	2.3	0.00e+00	0	48	104	0	60	1048569
2026-01-18 17:15:15.61	146.39	14.00	-83.5	-79.0	2.4	0.00e+00	0	48	104	0	60	1048572
2026-01-18 17:15:16.62	146.35	14.13	-83.5	-79.0	2.5	0.00e+00	0	49	104	0	60	1048574
2026-01-18 17:15:17.63	146.31	14.26	-83.1	-79.0	2.4	0.00e+00	0	49	104	0	60	1048574
2026-01-18 17:15:18.64	146.27	14.39	-82.8	-79.0	2.4	0.00e+00	0	48	104	0	60	1048570
2026-01-18 17:15:19.64	146.23	14.53	-83.5	-79.0	2.4	0.00e+00	0	49	104	0	60	1048573
2026-01-18 17:15:20.65	146.19	14.66	-83.5	-79.0	2.4	0.00e+00	0	49	104	0	60	1048573
2026-01-18 17:15:21.66	146.15	14.80	-83.5	-79.0	2.4	0.00e+00	0	49	104	0	60	1048571
2026-01-18 17:15:22.67	146.11	14.93	-83.5	-79.0	2.3	0.00e+00	0	49	104	0	60	1048574
2026-01-18 17:15:23.68	146.07	15.07	-83.1	-79.0	2.4	0.00e+00	0	49	104	0	60	1048574
2026-01-18 17:15:24.68	146.03	15.21	-83.1	-79.0	2.3	0.00e+00	0	48	104	0	60	1048570
2026-01-18 17:15:25.69	145.99	15.34	-83.5	-79.0	2.4	0.00e+00	0	49	104	0	60	1048571
2026-01-18 17:15:26.70	145.95	15.49	-83.5	-79.0	2.3	0.00e+00	0	49	104	0	60	1048570
2026-01-18 17:15:27.71	145.90	15.63	-83.5	-79.0	2.4	0.00e+00	0	49	104	0	60	1048575
2026-01-18 17:15:28.71	145.86	15.77	-83.1	-79.0	2.4	0.00e+00	0	49	104	0	60	1048575
2026-01-18 17:15:29.72	145.82	15.91	-83.5	-79.0	2.3	0.00e+00	0	49	104	0	60	1048573
2026-01-18 17:15:30.72	145.77	16.05	-83.1	-79.0	2.4	0.00e+00	0	49	104	0	60	1048573
2026-01-18 17:15:31.72	145.73	16.20	-83.5	-79.0	2.4	0.00e+00	0	49	104	0	60	1048574
2026-01-18 17:15:32.73	145.68	16.34	-83.1	-79.0	2.5	0.00e+00	0	49	104	0	60	1048572
2026-01-18 17:15:33.74	145.64	16.49	-83.1	-79.0	2.3	0.00e+00	0	49	104	0	60	1048574
2026-01-18 17:15:34.74	145.59	16.64	-83.5	-79.0	2.2	0.00e+00	0	49	104	0	60	1048571
2026-01-18 17:15:35.74	145.54	16.79	-83.5	-79.0	2.4	0.00e+00	0	49	104	0	60	1048571
2026-01-18 17:15:36.75	145.49	16.94	-83.5	-79.0	2.4	0.00e+00	0	49	104	0	60	1048572
2026-01-18 17:15:37.76	145.45	17.09	-82.8	-79.0	2.4	0.00e+00	0	49	104	0	60	1048575
2026-01-18 17:15:38.76	145.40	17.24	-83.1	-79.0	2.5	0.00e+00	0	49	104	0	60	1048574
2026-01-18 17:15:39.77	145.35	17.40	-83.5	-79.0	2.4	0.00e+00	0	49	104	0	60	1048573
2026-01-18 17:15:40.78	145.30	17.55	-83.1	-79.0	2.5	0.00e+00	0	49	104	0	60	1048574
2026-01-18 17:15:41.79	145.24	17.71	-83.5	-79.0	2.3	0.00e+00	0	49	104	0	60	1048573
2026-01-18 17:15:42.80	145.19	17.87	-83.1	-79.0	2.4	0.00e+00	0	49	104	0	60	1048575
2026-01-18 17:15:43.81	145.14	18.03	-83.1	-79.0	2.5	0.00e+00	0	49	104	0	60	1048575
2026-01-18 17:15:44.81	145.09	18.19	-83.1	-79.0	2.4	0.00e+00	0	49	104	0	60	1048573
2026-01-18 17:15:45.82	145.03	18.35	-83.1	-79.0	2.5	0.00e+00	0	49	104	0	60	1048574
2026-01-18 17:15:46.83	144.98	18.52	-83.5	-79.0	2.4	0.00e+00	0	49	104	0	60	1048573
2026-01-18 17:15:47.84	144.92	18.68	-83.1	-79.0	2.4	0.00e+00	0	49	104	0	60	1048573
2026-01-18 17:15:48.84	144.87	18.85	-83.5	-79.0	2.4	0.00e+00	0	49	104	0	60	1048575
2026-01-18 17:15:49.85	144.81	19.01	-83.5	-79.0	2.5	0.00e+00	0	49	104	0	60	1048573
2026-01-18 17:15:50.85	144.75	19.18	-83.5	-79.0	2.5	0.00e+00	0	49	104	0	60	1048575
2026-01-18 17:15:51.86	144.70	19.35	-83.1	-79.0	2.4	0.00e+00	0	49	104	0	60	1048574
2026-01-18 17:15:52.86	144.64	19.52	-83.1	-79.0	2.4	0.00e+00	0	49	104	0	60	1048574
2026-01-18 17:15:53.87	144.58	19.70	-83.5	-79.0	2.4	0.00e+00	0	49	104	0	60	1048570
2026-01-18 17:15:54.88	144.52	19.87	-83.5	-79.0	2.4	0.00e+00	0	49	104	0	60	1048562
2026-01-18 17:15:55.88	144.46	20.05	-83.5	-79.0	2.3	0.00e+00	0	49	104	0	60	1048568
2026-01-18 17:15:56.89	144.39	20.22	-83.1	-79.0	2.4	0.00e+00	0	49	104	0	60	1048563
2026-01-18 17:15:57.90	144.33	20.40	-83.1	-79.0	2.5	0.00e+00	0	49	104	0	60	1048572
2026-01-18 17:15:58.90	144.27	20.58	-83.5	-79.0	2.5	0.00e+00	0	49	104	0	60	1048575
2026-01-18 17:15:59.91	144.20	20.77	-83.5	-79.0	2.4	0.00e+00	0	49	104	0	60	1048574
2026-01-18 17:16:00.92	144.14	20.95	-83.5	-79.0	2.4	0.00e+00	0	49	104	0	60	1048574
2026-01-18 17:16:01.92	144.07	21.14	-83.1	-79.0	2.4	0.00e+00	0	49	104	0	60	1048574
2026-01-18 17:16:02.93	144.00	21.32	-83.5	-79.0	2.3	0.00e+00	0	49	104	0	60	1048571
2026-01-18 17:16:03.94	143.93	21.51	-83.1	-79.0	2.5	0.00e+00	0	49	104	0	60	1048575
2026-01-18 17:16:04.95	143.86	21.70	-83.5	-79.0	2.4	0.00e+00	0	49	104	0	60	1048572
2026-01-18 17:16:05.95	143.79	21.90	-83.5	-79.0	2.6	0.00e+00	0	49	104	0	60	1048572
2026-01-18 17:16:06.96	143.72	22.09	-83.1	-79.0	2.3	0.00e+00	0	49	104	0	60	1048575
2026-01-18 17:16:07.97	143.65	22.29	-83.5	-79.0	2.2	0.00e+00	0	49	104	0	60	1048564
2026-01-18 17:16:08.97	143.57	22.48	-83.5	-79.0	2.3	0.00e+00	0	49	104	0	60	1048575
2026-01-18 17:16:09.98	143.50	22.68	-83.5	-79.0	2.5	0.00e+00	0	49	104	0	60	1048575
2026-01-18 17:16:10.99	143.42	22.89	-83.1	-79.0	2.5	0.00e+00	0	49	104	0	60	1048574
2026-01-18 17:16:12.00	143.34	23.09	-83.5	-79.0	2.4	0.00e+00	0	49	104	0	60	1048567
2026-01-18 17:16:13.00	143.27	23.29	-83.5	-79.0	2.4	0.00e+00	0	49	104	0	60	1048571
2026-01-18 17:16:14.01	143.19	23.50	-83.1	-79.0	2.4	0.00e+00	0	49	104	0	60	1048575
2026-01-18 17:16:15.02	143.10	23.71	-83.1	-79.0	2.5	0.00e+00	0	49	104	0	60	1048570
2026-01-18 17:16:16.03	143.02	23.92	-83.1	-79.0	2.3	0.00e+00	0	49	104	0	60	1048573
2026-01-18 17:16:17.04	142.94	24.14	-83.1	-79.0	2.5	0.00e+00	0	49	104	0	60	1048575
2026-01-18 17:16:18.04	142.85	24.35	-83.5	-79.0	2.4	0.00e+00	0	49	104	0	60	1048575
2026-01-18 17:16:19.05	142.77	24.57	-83.5	-79.0	2.4	0.00e+00	0	49	104	0	60	1048573
2026-01-18 17:16:20.06	142.68	24.79	-83.5	-79.0	2.4	0.00e+00	0	49	104	0	60	1048575
2026-01-18 17:16:21.07	142.59	25.01	-83.1	-79.0	2.4	0.00e+00	0	49	104	0	60	1048575
2026-01-18 17:16:22.07	142.50	25.24	-83.5	-79.0	2.4	0.00e+00	0	49	104	0	60	1048571
2026-01-18 17:16:23.08	142.41	25.46	-83.5	-79.0	2.6	0.00e+00	0	49	104	0	60	1048569
2026-01-18 17:16:24.09	142.31	25.69	-83.1	-79.0	2.3	0.00e+00	0	49	104	0	60	1048575
2026-01-18 17:16:25.09	142.22	25.92	-83.1	-79.0	2.5	0.00e+00	0	49	104	0	60	1048574
2026-01-18 17:16:26.09	142.12	26.15	-83.1	-79.0	2.3	0.00e+00	0	49	104	0	60	1048575
2026-01-18 17:16:27.10	142.02	26.39	-83.5	-79.0	2.4	0.00e+00	0	49	104	0	60	1048570
2026-01-18 17:16:28.11	141.92	26.63	-83.5	-79.0	2.3	0.00e+00	0	49	104	0	60	1048570
2026-01-18 17:16:29.11	141.82	26.87	-83.5	-79.0	2.5	0.00e+00	0	49	104	0	60	1048575
2026-01-18 17:16:30.12	141.72	27.11	-83.1	-79.0	2.4	0.00e+00	0	49	104	0	60	1048567
2026-01-18 17:16:31.13	141.61	27.36	-83.5	-79.0	2.3	0.00e+00	0	49	104	0	60	1048574
2026-01-18 17:16:32.14	141.51	27.61	-83.5	-79.0	2.5	0.00e+00	0	49	104	0	60	1048574
2026-01-18 17:16:33.15	141.40	27.86	-83.5	-79.0	2.5	0.00e+00	0	49	104	0	60	1048575
2026-01-18 17:16:34.16	141.28	28.11	-83.1	-79.0	2.3	0.00e+00	0	49	104	0	60	1048573
2026-01-18 17:16:35.17	141.17	28.37	-83.1	-79.0	2.4	0.00e+00	0	49	104	0	60	1048575
2026-01-18 17:16:36.18	141.06	28.63	-83.1	-79.0	2.5	0.00e+00	0	49	104	0	60	1048573
2026-01-18 17:16:37.18	140.94	28.89	-83.1	-79.0	2.3	0.00e+00	0	49	104	0	60	1048575
2026-01-18 17:16:38.19	140.82	29.16	-83.5	-79.0	2.4	0.00e+00	0	49	104	0	60	1048568
2026-01-18 17:16:39.19	140.70	29.42	-83.1	-79.0	2.7	0.00e+00	0	49	104	0	60	1048575
2026-01-18 17:16:40.20	140.57	29.69	-83.1	-79.0	2.4	0.00e+00	0	49	104	0	60	1048575
2026-01-18 17:16:41.21	140.45	29.97	-83.5	-79.0	2.3	0.00e+00	0	49	104	0	60	1048573
2026-01-18 17:16:42.22	140.32	30.24	-83.5	-79.0	2.5	0.00e+00	0	49	104	0	60	1048575
2026-01-18 17:16:43.23	140.19	30.52	-83.5	-79.0	2.4	0.00e+00	0	49	104	0	60	1048575
2026-01-18 17:16:44.23	140.05	30.80	-82.8	-79.0	2.4	0.00e+00	0	49	104	0	60	1048573
2026-01-18 17:16:45.24	139.92	31.09	-83.1	-79.0	2.4	0.00e+00	0	49	104	0	60	1048575
2026-01-18 17:16:46.24	139.78	31.37	-83.5	-79.0	2.4	0.00e+00	0	49	104	0	60	1048573
2026-01-18 17:16:47.25	139.64	31.67	-83.5	-79.0	2.4	0.00e+00	0	49	104	0	60	1048572
2026-01-18 17:16:48.26	139.49	31.96	-83.5	-79.0	2.4	0.00e+00	0	49	104	0	60	1048575
2026-01-18 17:16:49.27	139.34	32.26	-83.1	-79.0	2.4	0.00e+00	0	49	104	0	60	1048571
2026-01-18 17:16:50.27	139.20	32.56	-83.1	-79.0	2.4	0.00e+00	0	49	104	0	60	1048572
2026-01-18 17:16:51.28	139.04	32.87	-83.5	-79.0	2.4	0.00e+00	0	49	104	0	60	1048574
2026-01-18 17:16:52.29	138.88	33.17	-83.5	-79.0	2.5	0.00e+00	0	49	104	0	60	1048573
2026-01-18 17:16:53.30	138.72	33.49	-83.5	-79.0	2.5	0.00e+00	0	49	104	0	60	1048574
2026-01-18 17:16:54.30	138.56	33.80	-83.1	-79.0	2.4	0.00e+00	0	49	104	0	60	1048575
2026-01-18 17:16:55.31	138.39	34.12	-83.5	-79.0	2.4	0.00e+00	0	49	104	0	60	1048575
2026-01-18 17:16:56.32	138.22	34.44	-83.5	-79.0	2.7	0.00e+00	0	49	104	0	60	1048569
2026-01-18 17:16:57.32	138.05	34.76	-83.1	-79.0	2.4	0.00e+00	0	49	104	0	60	1048574
2026-01-18 17:16:58.33	137.87	35.10	-82.8	-79.0	2.5	0.00e+00	0	49	104	0	60	1048571
2026-01-18 17:16:59.34	137.69	35.43	-83.1	-79.0	2.4	0.00e+00	0	49	104	0	60	1048573
2026-01-18 17:17:00.35	137.50	35.77	-83.5	-79.0	2.5	0.00e+00	0	49	104	0	60	1048569
2026-01-18 17:17:01.36	137.31	36.11	-83.5	-79.0	2.4	0.00e+00	0	49	104	0	60	1048568
2026-01-18 17:17:02.36	137.12	36.45	-83.5	-79.0	2.4	0.00e+00	0	49	104	0	60	1048575
2026-01-18 17:17:03.37	136.92	36.80	-83.1	-79.0	2.4	0.00e+00	0	49	104	0	60	1048575
2026-01-18 17:17:04.38	136.71	37.15	-83.1	-79.0	2.3	0.00e+00	0	49	104	0	60	1048575
2026-01-18 17:17:05.38	136.51	37.51	-83.5	-79.0	2.5	0.00e+00	0	49	104	0	60	1048575
2026-01-18 17:17:06.39	136.29	37.87	-83.5	-79.0	2.4	0.00e+00	0	49	104	0	60	1048573
2026-01-18 17:17:07.39	136.08	38.23	-83.5	-79.0	2.4	0.00e+00	0	49	104	0	60	1048574
2026-01-18 17:17:08.40	135.85	38.60	-83.1	-79.0	2.3	0.00e+00	0	49	104	0	60	1048573
2026-01-18 17:17:09.41	135.62	38.97	-83.5	-79.0	2.4	0.00e+00	0	49	104	0	60	1048571
2026-01-18 17:17:10.42	135.38	39.35	-83.1	-79.0	2.4	0.00e+00	0	49	104	0	60	1048574
2026-01-18 17:17:11.43	135.14	39.73	-83.5	-79.0	2.3	0.00e+00	0	49	104	0	60	1048575
2026-01-18 17:17:12.43	134.90	40.11	-83.1	-79.0	2.5	0.00e+00	0	49	104	0	60	1048573
2026-01-18 17:17:13.43	134.65	40.50	-82.8	-79.0	2.4	0.00e+00	0	49	104	0	60	1048565
2026-01-18 17:17:14.44	134.39	40.89	-83.5	-79.0	2.3	0.00e+00	0	49	104	0	60	1048574
2026-01-18 17:17:15.44	134.12	41.28	-83.5	-79.0	2.5	0.00e+00	0	49	104	0	60	1048575
2026-01-18 17:17:16.45	133.85	41.69	-83.5	-79.0	2.6	0.00e+00	0	49	104	0	60	1048572
2026-01-18 17:17:17.46	133.56	42.09	-83.1	-79.0	2.4	0.00e+00	0	49	104	0	60	1048574
2026-01-18 17:17:18.47	133.28	42.50	-83.1	-79.0	2.4	0.00e+00	0	49	104	0	60	1048572
2026-01-18 17:17:19.48	132.98	42.92	-83.5	-79.0	2.4	0.00e+00	0	49	104	0	60	1048573
2026-01-18 17:17:20.49	132.67	43.34	-83.5	-79.0	2.5	0.00e+00	0	49	104	0	60	1048570
2026-01-18 17:17:21.49	132.36	43.76	-83.5	-79.0	2.5	0.00e+00	0	49	104	0	60	1048572
2026-01-18 17:17:22.50	132.04	44.19	-82.8	-79.0	2.3	0.00e+00	0	49	104	0	60	1048567
2026-01-18 17:17:23.51	131.71	44.62	-83.1	-79.0	2.2	0.00e+00	0	49	104	0	60	1048567
2026-01-18 17:17:24.52	131.37	45.06	-83.5	-79.0	2.4	0.00e+00	0	49	104	0	60	1048568
2026-01-18 17:17:25.52	131.02	45.49	-83.5	-79.0	2.4	0.00e+00	0	49	104	0	60	1048574
2026-01-18 17:17:26.52	130.66	45.93	-83.1	-79.0	2.4	0.00e+00	0	49	104	0	60	1048573
2026-01-18 17:17:27.53	130.29	46.38	-83.1	-79.0	2.4	0.00e+00	0	49	104	0	60	1048570
2026-01-18 17:17:28.53	129.91	46.83	-83.5	-79.0	2.4	0.00e+00	0	49	104	0	60	1048574
2026-01-18 17:17:29.54	129.51	47.29	-83.5	-79.0	2.3	0.00e+00	0	49	104	0	60	1048574
2026-01-18 17:17:30.55	129.10	47.75	-83.5	-79.0	2.3	0.00e+00	0	49	104	0	60	1048571
2026-01-18 17:17:31.55	128.69	48.21	-82.8	-79.0	2.1	0.00e+00	0	49	104	0	60	1048574
2026-01-18 17:17:32.56	128.25	48.68	-83.1	-79.0	2.4	0.00e+00	0	49	104	0	60	1048573
2026-01-18 17:17:33.56	127.81	49.15	-83.5	-79.0	2.4	0.00e+00	0	49	104	0	60	1048575
2026-01-18 17:17:34.57	127.35	49.62	-83.5	-79.0	2.4	0.00e+00	0	49	104	0	60	1048574
2026-01-18 17:17:35.57	126.87	50.10	-83.5	-79.0	2.4	0.00e+00	0	49	104	0	60	1048570
2026-01-18 17:17:36.58	126.38	50.58	-83.1	-79.0	2.4	0.00e+00	0	49	104	0	60	1048573
2026-01-18 17:17:37.59	125.87	51.07	-83.1	-79.0	2.4	0.00e+00	0	49	104	0	60	1048560
2026-01-18 17:17:38.60	125.34	51.56	-83.1	-79.0	2.5	0.00e+00	0	49	104	0	60	1048568
2026-01-18 17:17:39.60	124.80	52.05	-83.5	-79.0	2.5	0.00e+00	0	49	104	0	60	1048573
2026-01-18 17:17:40.61	124.24	52.55	-83.5	-79.0	2.5	0.00e+00	0	49	104	0	60	1048567
2026-01-18 17:17:41.62	123.66	53.04	-83.1	-79.0	2.4	0.00e+00	0	49	104	0	60	1048575
2026-01-18 17:17:42.63	123.05	53.54	-83.1	-79.0	2.4	0.00e+00	0	49	104	0	60	1048574
2026-01-18 17:17:43.64	122.43	54.05	-83.1	-79.0	2.4	0.00e+00	0	49	104	0	60	1048563
2026-01-18 17:17:44.64	121.78	54.55	-83.1	-79.0	2.4	0.00e+00	0	49	104	0	60	1048568
2026-01-18 17:17:45.65	121.11	55.05	-83.1	-79.0	2.4	0.00e+00	0	49	104	0	60	1048568
2026-01-18 17:17:46.66	120.41	55.56	-83.1	-79.0	2.3	0.00e+00	0	49	104	0	60	1048574
2026-01-18 17:17:47.67	119.69	56.07	-83.5	-79.0	2.4	0.00e+00	0	49	104	0	60	1048573
2026-01-18 17:17:48.68	118.93	56.58	-83.5	-79.0	2.3	0.00e+00	0	49	104	0	60	1048572
2026-01-18 17:17:49.68	118.16	57.08	-83.5	-79.0	2.4	0.00e+00	0	49	104	0	60	1048575
2026-01-18 17:17:50.69	117.35	57.59	-82.8	-79.0	2.4	0.00e+00	0	49	104	0	60	1048575
2026-01-18 17:17:51.70	116.51	58.10	-83.1	-79.0	2.4	0.00e+00	0	49	104	0	60	1048572
2026-01-18 17:17:52.71	115.63	58.61	-83.5	-79.0	2.3	0.00e+00	0	49	104	0	60	1048569
2026-01-18 17:17:53.72	114.72	59.11	-83.5	-79.0	2.4	0.00e+00	0	49	104	0	60	1048573
2026-01-18 17:17:54.72	113.79	59.61	-83.5	-79.0	2.3	0.00e+00	0	49	104	0	60	1048573
2026-01-18 17:17:55.73	112.80	60.11	-83.1	-79.0	2.4	0.00e+00	0	49	104	0	60	1048573
2026-01-18 17:17:56.73	111.79	60.60	-82.8	-79.0	2.3	0.00e+00	0	49	104	0	60	1048574
2026-01-18 17:17:57.74	110.72	61.10	-83.5	-79.0	2.4	0.00e+00	0	49	104	0	60	1048569
2026-01-18 17:17:58.74	109.63	61.58	-83.5	-79.0	2.5	0.00e+00	0	49	104	0	60	1048569
2026-01-18 17:17:59.75	108.48	62.06	-83.5	-79.0	2.4	0.00e+00	0	49	104	0	60	1048569
2026-01-18 17:18:00.76	107.28	62.54	-83.1	-79.0	2.3	0.00e+00	0	49	104	0	60	1048575
2026-01-18 17:18:01.76	106.04	63.00	-83.5	-79.0	2.3	0.00e+00	0	49	104	0	60	1048573
2026-01-18 17:18:02.77	104.75	63.46	-83.5	-79.0	2.5	0.00e+00	0	49	104	0	60	1048573
2026-01-18 17:18:03.78	103.40	63.91	-83.5	-79.0	2.4	0.00e+00	0	49	104	0	60	1048574
2026-01-18 17:18:04.78	102.01	64.34	-83.1	-79.0	2.4	0.00e+00	0	49	104	0	60	1048574
2026-01-18 17:18:05.79	100.56	64.77	-83.1	-79.0	2.4	0.00e+00	0	49	104	0	60	1048573
2026-01-18 17:18:06.79	99.06	65.18	-83.5	-79.0	2.4	0.00e+00	0	49	104	0	60	1048575
2026-01-18 17:18:07.80	97.50	65.59	-83.5	-79.0	2.4	0.00e+00	0	49	104	0	60	1048572
2026-01-18 17:18:08.81	95.87	65.97	-83.5	-79.0	2.4	0.00e+00	0	49	104	0	60	1048575
2026-01-18 17:18:09.82	94.19	66.34	-83.1	-79.0	2.4	0.00e+00	0	49	104	0	60	1048575
2026-01-18 17:18:10.83	92.45	66.70	-83.1	-79.0	2.4	0.00e+00	0	49	104	0	60	1048575
2026-01-18 17:18:11.83	90.67	67.03	-83.5	-79.0	2.5	0.00e+00	0	49	104	0	60	1048575
2026-01-18 17:18:12.84	88.81	67.35	-83.1	-79.0	2.5	0.00e+00	0	49	104	0	60	1048571
2026-01-18 17:18:13.84	86.92	67.64	-83.5	-79.0	2.4	0.00e+00	0	49	104	0	60	1048575
2026-01-18 17:18:14.85	84.96	67.91	-83.1	-79.0	2.3	0.00e+00	0	49	104	0	60	1048575
2026-01-18 17:18:15.86	82.94	68.16	-83.5	-79.0	2.4	0.00e+00	0	49	104	0	60	1048575
2026-01-18 17:18:16.87	80.88	68.38	-83.5	-79.0	2.4	0.00e+00	0	49	104	0	60	1048575
2026-01-18 17:18:17.88	78.77	68.58	-83.1	-79.0	2.4	0.00e+00	0	49	104	0	60	1048575
2026-01-18 17:18:18.88	76.64	68.75	-83.5	-79.0	2.7	0.00e+00	0	49	104	0	60	1048574
2026-01-18 17:18:19.89	74.46	68.89	-83.1	-79.0	2.3	0.00e+00	0	49	104	0	60	1048575
2026-01-18 17:18:20.89	72.27	69.01	-83.5	-79.0	2.4	0.00e+00	0	49	104	0	60	1048569
2026-01-18 17:18:21.90	70.04	69.09	-83.5	-79.0	2.5	0.00e+00	0	49	104	0	60	1048573
2026-01-18 17:18:22.90	67.81	69.15	-83.5	-79.0	2.3	0.00e+00	0	49	104	0	60	1048573
2026-01-18 17:18:23.91	65.55	69.17	-83.1	-79.0	2.4	0.00e+00	0	49	104	0	60	1048574
2026-01-18 17:18:24.91	63.31	69.17	-82.8	-79.0	2.4	0.00e+00	0	49	104	0	60	1048569
2026-01-18 17:18:25.92	61.05	69.14	-83.5	-79.0	2.4	0.00e+00	0	49	104	0	60	1048574
2026-01-18 17:18:26.92	58.83	69.08	-83.5	-79.0	2.5	0.00e+00	0	49	104	0	60	1048575
2026-01-18 17:18:27.93	56.60	68.98	-83.5	-79.0	2.4	0.00e+00	0	49	104	0	60	1048568
2026-01-18 17:18:28.93	54.42	68.86	-83.1	-79.0	2.5	0.00e+00	0	49	104	0	60	1048575
2026-01-18 17:18:29.94	52.24	68.71	-83.1	-79.0	2.4	0.00e+00	0	49	104	0	60	1048570
2026-01-18 17:18:30.95	50.11	68.54	-83.5	-79.0	2.3	0.00e+00	0	49	104	0	60	1048575
2026-01-18 17:18:31.96	48.01	68.34	-83.5	-79.0	2.3	0.00e+00	0	49	104	0	60	1048572
2026-01-18 17:18:32.96	45.98	68.11	-83.5	-79.0	2.4	0.00e+00	0	49	104	0	60	1048571
2026-01-18 17:18:33.97	43.97	67.86	-83.1	-79.0	2.5	0.00e+00	0	49	104	0	60	1048575
2026-01-18 17:18:34.98	42.02	67.58	-83.5	-79.0	2.4	0.00e+00	0	49	104	0	60	1048574
2026-01-18 17:18:35.99	40.12	67.28	-83.5	-79.0	2.4	0.00e+00	0	49	104	0	60	1048575
2026-01-18 17:18:37.00	38.28	66.96	-83.1	-79.0	2.4	0.00e+00	0	49	104	0	60	1048573
2026-01-18 17:18:38.00	36.52	66.63	-83.1	-79.0	2.3	0.00e+00	0	49	104	0	60	1048575
2026-01-18 17:18:39.01	34.79	66.27	-83.1	-79.0	2.4	0.00e+00	0	49	104	0	60	1048571
2026-01-18 17:18:40.02	33.12	65.89	-83.5	-79.0	2.6	0.00e+00	0	49	104	0	60	1048575
2026-01-18 17:18:41.03	31.51	65.50	-83.5	-79.0	2.3	0.00e+00	0	49	104	0	60	1048573
2026-01-18 17:18:42.04	29.96	65.10	-83.5	-79.0	2.4	0.00e+00	0	49	104	0	60	1048573
2026-01-18 17:18:43.04	28.47	64.69	-82.8	-79.0	2.4	0.00e+00	0	49	104	0	60	1048570
2026-01-18 17:18:44.05	27.03	64.26	-83.1	-79.0	2.5	0.00e+00	0	49	104	0	60	1048575
2026-01-18 17:18:45.06	25.64	63.81	-83.5	-79.0	2.4	0.00e+00	0	49	104	0	60	1048573
2026-01-18 17:18:46.07	24.31	63.36	-83.5	-79.0	2.3	0.00e+00	0	49	104	0	60	1048568
2026-01-18 17:18:47.07	23.04	62.91	-83.5	-79.0	2.4	0.00e+00	0	49	104	0	60	1048574
2026-01-18 17:18:48.08	21.80	62.44	-83.1	-79.0	2.3	0.00e+00	0	49	104	0	60	1048575
2026-01-18 17:18:49.08	20.63	61.97	-83.1	-79.0	2.3	0.00e+00	0	49	104	0	60	1048573
2026-01-18 17:18:50.09	19.49	61.49	-83.5	-79.0	2.3	0.00e+00	0	49	104	0	60	1048570
2026-01-18 17:18:51.09	18.40	61.00	-83.5	-79.0	2.4	0.00e+00	0	49	104	0	60	1048568
2026-01-18 17:18:52.10	17.35	60.51	-83.5	-79.0	2.3	0.00e+00	0	49	104	0	60	1048573
2026-01-18 17:18:53.11	16.34	60.01	-83.1	-79.0	2.4	0.00e+00	0	49	104	0	60	1048573
2026-01-18 17:18:54.11	15.37	59.52	-83.5	-79.0	2.3	0.00e+00	0	49	104	0	60	1048574
2026-01-18 17:18:55.12	14.43	59.02	-83.5	-79.0	2.3	0.00e+00	0	49	104	0	60	1048572
2026-01-18 17:18:56.12	13.54	58.52	-83.5	-79.0	2.4	0.00e+00	0	49	104	0	60	1048573
2026-01-18 17:18:57.13	12.67	58.01	-83.1	-79.0	2.4	0.00e+00	0	49	104	0	60	1048575
2026-01-18 17:18:58.13	11.85	57.51	-83.1	-79.0	2.3	0.00e+00	0	49	104	0	60	1048575
2026-01-18 17:18:59.14	11.04	57.00	-83.5	-79.0	2.3	0.00e+00	0	49	104	0	60	1048574
2026-01-18 17:19:00.14	10.28	56.50	-83.1	-79.0	2.4	0.00e+00	0	49	104	0	60	1048566
2026-01-18 17:19:01.14	9.54	55.99	-83.5	-79.0	2.4	0.00e+00	0	49	104	0	60	1048572
2026-01-18 17:19:02.14	8.83	55.49	-83.1	-79.0	2.4	0.00e+00	0	49	104	0	60	1048571
2026-01-18 17:19:03.15	8.14	54.99	-83.1	-79.0	2.4	0.00e+00	0	49	104	0	60	1048567
2026-01-18 17:19:04.15	7.47	54.49	-83.5	-79.0	2.4	0.00e+00	0	49	104	0	60	1048574
2026-01-18 17:19:05.16	6.83	53.98	-83.5	-79.0	2.4	0.00e+00	0	49	104	0	60	1048575
2026-01-18 17:19:06.17	6.21	53.48	-83.5	-79.0	2.4	0.00e+00	0	49	104	0	60	1048574
2026-01-18 17:19:07.17	5.61	52.99	-83.1	-79.0	2.4	0.00e+00	0	49	104	0	60	1048572
2026-01-18 17:19:08.17	5.04	52.50	-83.5	-79.0	2.4	0.00e+00	0	49	104	0	60	1048573
2026-01-18 17:19:09.17	4.48	52.01	-83.5	-79.0	2.4	0.00e+00	0	49	104	0	60	1048574
2026-01-18 17:19:10.18	3.94	51.52	-83.5	-79.0	2.4	0.00e+00	0	49	104	0	60	1048575
2026-01-18 17:19:11.18	3.42	51.03	-83.5	-79.0	2.3	0.00e+00	0	49	104	0	60	1048575
2026-01-18 17:19:12.19	2.92	50.55	-83.1	-79.0	2.5	0.00e+00	0	49	104	0	60	1048574
2026-01-18 17:19:13.20	2.43	50.06	-83.5	-79.0	2.4	0.00e+00	0	49	104	0	60	1048574
2026-01-18 17:19:14.20	1.96	49.59	-83.5	-79.0	2.4	0.00e+00	0	49	104	0	60	1048575
2026-01-18 17:19:15.21	1.50	49.12	-83.5	-79.0	2.4	0.00e+00	0	49	104	0	60	1048571
2026-01-18 17:19:16.21	1.06	48.65	-83.1	-79.0	2.5	0.00e+00	0	49	104	0	60	1048575
2026-01-18 17:19:17.22	0.63	48.18	-83.1	-79.0	2.6	0.00e+00	0	49	104	0	60	1048572
2026-01-18 17:19:18.23	0.21	47.72	-83.5	-79.0	2.3	0.00e+00	0	49	104	0	60	1048574
2026-01-18 17:19:19.23	359.81	47.26	-83.5	-79.0	2.4	0.00e+00	0	49	104	0	60	1048573
2026-01-18 17:19:20.24	359.41	46.81	-83.5	-79.0	2.3	0.00e+00	0	49	104	0	60	1048569
2026-01-18 17:19:21.25	359.03	46.36	-83.1	-79.0	2.4	0.00e+00	0	49	104	0	60	1048574
2026-01-18 17:19:22.25	358.66	45.91	-83.5	-79.0	2.5	0.00e+00	0	49	104	0	60	1048575
2026-01-18 17:19:23.26	358.30	45.47	-83.5	-79.0	2.4	0.00e+00	0	49	104	0	60	1048573
2026-01-18 17:19:24.27	357.96	45.03	-83.1	-79.0	2.4	0.00e+00	0	49	104	0	60	1048572
2026-01-18 17:19:25.28	357.62	44.60	-83.1	-79.0	2.4	0.00e+00	0	49	104	0	60	1048571
2026-01-18 17:19:26.28	357.29	44.17	-83.1	-79.0	2.7	0.00e+00	0	49	104	0	60	1048564
2026-01-18 17:19:27.28	356.97	43.75	-83.1	-79.0	2.4	0.00e+00	0	49	104	0	60	1048574
2026-01-18 17:19:28.29	356.66	43.33	-83.5	-79.0	2.4	0.00e+00	0	49	104	0	60	1048569
2026-01-18 17:19:29.29	356.36	42.91	-83.5	-79.0	2.5	0.00e+00	0	49	104	0	60	1048573
2026-01-18 17:19:30.29	356.07	42.51	-83.1	-79.0	2.4	0.00e+00	0	49	104	0	60	1048573
2026-01-18 17:19:31.30	355.78	42.10	-83.1	-79.0	2.4	0.00e+00	0	49	104	0	60	1048574
2026-01-18 17:19:32.30	355.50	41.70	-83.5	-79.0	2.4	0.00e+00	0	49	104	0	60	1048573
2026-01-18 17:19:33.31	355.23	41.29	-83.5	-79.0	2.4	0.00e+00	0	49	104	0	60	1048575
2026-01-18 17:19:34.32	354.96	40.90	-83.5	-79.0	2.4	0.00e+00	0	49	104	0	60	1048575
2026-01-18 17:19:35.32	354.70	40.51	-83.1	-79.0	2.3	0.00e+00	0	49	104	0	60	1048575
2026-01-18 17:19:36.33	354.45	40.12	-83.1	-79.0	2.4	0.00e+00	0	49	104	0	60	1048573
2026-01-18 17:19:37.34	354.20	39.74	-83.1	-79.0	2.4	0.00e+00	0	49	104	0	60	1048571
2026-01-18 17:19:38.35	353.96	39.36	-83.5	-79.0	2.4	0.00e+00	0	49	104	0	60	1048570
2026-01-18 17:19:39.36	353.73	38.98	-83.5	-79.0	2.3	0.00e+00	0	49	104	0	60	1048575
2026-01-18 17:19:40.36	353.50	38.62	-83.1	-79.0	2.4	0.00e+00	0	49	104	0	60	1048565
2026-01-18 17:19:41.37	353.28	38.25	-83.1	-79.0	2.3	0.00e+00	0	49	104	0	60	1048575
2026-01-18 17:19:42.37	353.06	37.89	-83.5	-79.0	2.4	0.00e+00	0	49	104	0	60	1048568
2026-01-18 17:19:43.38	352.85	37.53	-83.5	-79.0	2.4	0.00e+00	0	49	104	0	60	1048573
2026-01-18 17:19:44.39	352.64	37.17	-83.1	-79.0	2.3	0.00e+00	0	49	104	0	60	1048574
2026-01-18 17:19:45.40	352.44	36.82	-83.1	-79.0	2.4	0.00e+00	0	49	104	0	60	1048573
2026-01-18 17:19:46.40	352.24	36.48	-83.5	-79.0	2.3	0.00e+00	0	49	104	0	60	1048571
2026-01-18 17:19:47.41	352.05	36.13	-83.5	-79.0	2.4	0.00e+00	0	49	104	0	60	1048574
2026-01-18 17:19:48.42	351.86	35.80	-83.5	-79.0	2.4	0.00e+00	0	49	104	0	60	1048571
2026-01-18 17:19:49.43	351.67	35.46	-83.5	-79.0	2.4	0.00e+00	0	49	104	0	60	1048575
2026-01-18 17:19:50.44	351.49	35.13	-83.1	-79.0	2.5	0.00e+00	0	49	104	0	60	1048568
2026-01-18 17:19:51.44	351.32	34.80	-83.5	-79.0	2.4	0.00e+00	0	49	104	0	60	1048574
2026-01-18 17:19:52.45	351.14	34.48	-83.5	-79.0	2.4	0.00e+00	0	49	104	0	60	1048570
2026-01-18 17:19:53.46	350.97	34.15	-83.5	-79.0	2.4	0.00e+00	0	49	104	0	60	1048575
2026-01-18 17:19:54.46	350.81	33.84	-83.1	-79.0	2.3	0.00e+00	0	49	104	0	60	1048574
2026-01-18 17:19:55.47	350.64	33.53	-83.1	-79.0	2.4	0.00e+00	0	49	104	0	60	1048574
2026-01-18 17:19:56.48	350.48	33.21	-83.5	-79.0	2.4	0.00e+00	0	49	104	0	60	1048566
2026-01-18 17:19:57.49	350.33	32.91	-83.1	-79.0	2.4	0.00e+00	0	49	104	0	60	1048575
2026-01-18 17:19:58.49	350.17	32.61	-83.1	-79.0	2.5	0.00e+00	0	49	104	0	60	1048568
2026-01-18 17:19:59.49	350.03	32.31	-83.1	-79.0	2.4	0.00e+00	0	49	104	0	60	1048575
2026-01-18 17:20:00.50	349.88	32.01	-83.5	-79.0	2.2	0.00e+00	0	49	104	0	60	1048568
2026-01-18 17:20:01.51	349.73	31.72	-83.5	-79.0	2.5	0.00e+00	0	49	104	0	60	1048574
2026-01-18 17:20:02.52	349.59	31.43	-83.5	-79.0	2.3	0.00e+00	0	49	104	0	60	1048573
2026-01-18 17:20:03.53	349.45	31.14	-83.5	-79.0	2.4	0.00e+00	0	49	104	0	60	1048574
2026-01-18 17:20:04.53	349.32	30.86	-83.1	-79.0	2.4	0.00e+00	0	49	104	0	60	1048572
2026-01-18 17:20:05.54	349.19	30.57	-83.5	-79.0	2.4	0.00e+00	0	49	104	0	60	1048574
2026-01-18 17:20:06.55	349.06	30.30	-83.1	-79.0	2.4	0.00e+00	0	49	104	0	60	1048570
2026-01-18 17:20:07.56	348.93	30.02	-83.5	-79.0	2.4	0.00e+00	0	49	104	0	60	1048574
2026-01-18 17:20:08.56	348.80	29.75	-83.5	-79.0	2.4	0.00e+00	0	49	104	0	60	1048575
2026-01-18 17:20:09.57	348.68	29.48	-83.1	-79.0	2.4	0.00e+00	0	49	104	0	60	1048574
2026-01-18 17:20:10.58	348.56	29.21	-83.5	-79.0	2.4	0.00e+00	0	49	104	0	60	1048569
2026-01-18 17:20:11.59	348.44	28.95	-83.5	-79.0	2.5	0.00e+00	0	49	104	0	60	1048571
2026-01-18 17:20:12.59	348.32	28.69	-83.5	-79.0	2.4	0.00e+00	0	49	104	0	60	1048572
2026-01-18 17:20:13.60	348.21	28.43	-83.1	-79.0	2.4	0.00e+00	0	49	104	0	60	1048572
2026-01-18 17:20:14.61	348.09	28.18	-83.1	-79.0	2.4	0.00e+00	0	49	104	0	60	1048575
2026-01-18 17:20:15.61	347.98	27.93	-83.5	-79.0	2.5	0.00e+00	0	49	104	0	60	1048575
2026-01-18 17:20:16.62	347.88	27.67	-83.5	-79.0	2.4	0.00e+00	0	49	104	0	60	1048575
2026-01-18 17:20:17.63	347.77	27.43	-83.1	-79.0	2.3	0.00e+00	0	49	104	0	60	1048555
2026-01-18 17:20:18.63	347.66	27.18	-83.1	-79.0	2.4	0.00e+00	0	49	104	0	60	1048568
2026-01-18 17:20:19.64	347.56	26.94	-83.5	-79.0	2.4	0.00e+00	0	49	104	0	60	1048575
2026-01-18 17:20:20.64	347.46	26.70	-83.5	-79.0	2.4	0.00e+00	0	49	104	0	60	1048574
2026-01-18 17:20:21.65	347.36	26.46	-83.5	-79.0	2.4	0.00e+00	0	49	104	0	60	1048572
2026-01-18 17:20:22.66	347.26	26.23	-83.1	-79.0	2.4	0.00e+00	0	49	104	0	60	1048572
2026-01-18 17:20:23.67	347.17	26.00	-82.8	-79.0	2.4	0.00e+00	0	49	104	0	60	1048571
2026-01-18 17:20:24.68	347.07	25.77	-83.5	-79.0	2.4	0.00e+00	0	49	104	0	60	1048573
2026-01-18 17:20:25.68	346.98	25.54	-83.5	-79.0	2.2	0.00e+00	0	49	104	0	60	1048575
2026-01-18 17:20:26.69	346.89	25.31	-83.5	-79.0	2.4	0.00e+00	0	49	104	0	60	1048575
2026-01-18 17:20:27.70	346.80	25.09	-83.5	-79.0	2.4	0.00e+00	0	49	104	0	60	1048573
2026-01-18 17:20:28.70	346.71	24.87	-83.5	-79.0	2.3	0.00e+00	0	49	104	0	60	1048575
2026-01-18 17:20:29.71	346.62	24.65	-83.5	-79.0	2.4	0.00e+00	0	49	104	0	60	1048575
2026-01-18 17:20:30.72	346.53	24.43	-83.1	-79.0	2.4	0.00e+00	0	49	104	0	60	1048574
2026-01-18 17:20:31.72	346.45	24.22	-83.5	-79.0	2.4	0.00e+00	0	49	104	0	60	1048568
2026-01-18 17:20:32.73	346.37	24.01	-83.1	-79.0	2.6	0.00e+00	0	49	104	0	60	1048575
2026-01-18 17:20:33.73	346.29	23.80	-83.5	-79.0	2.3	0.00e+00	0	49	104	0	60	1048574
2026-01-18 17:20:34.74	346.21	23.59	-83.1	-79.0	2.5	0.00e+00	0	49	104	0	60	1048574
2026-01-18 17:20:35.74	346.13	23.38	-83.5	-79.0	2.5	0.00e+00	0	49	104	0	60	1048574
2026-01-18 17:20:36.75	346.05	23.18	-83.1	-79.0	2.5	0.00e+00	0	49	104	0	60	1048575
2026-01-18 17:20:37.75	345.97	22.97	-82.8	-79.0	2.3	0.00e+00	0	49	104	0	60	1048574
2026-01-18 17:20:38.75	345.90	22.78	-83.5	-79.0	2.3	0.00e+00	0	49	104	0	60	1048569
2026-01-18 17:20:39.76	345.82	22.58	-83.5	-79.0	2.3	0.00e+00	0	49	104	0	60	1048565
2026-01-18 17:20:40.76	345.75	22.38	-83.5	-79.0	2.4	0.00e+00	0	49	104	0	60	1048575
2026-01-18 17:20:41.77	345.68	22.18	-83.5	-79.0	2.3	0.00e+00	0	49	104	0	60	1048565
2026-01-18 17:20:42.78	345.60	21.99	-83.1	-79.0	2.4	0.00e+00	0	49	104	0	60	1048573
2026-01-18 17:20:43.79	345.53	21.80	-83.1	-79.0	2.3	0.00e+00	0	49	104	0	60	1048575
2026-01-18 17:20:44.80	345.46	21.61	-83.5	-79.0	2.3	0.00e+00	0	49	104	0	60	1048574
2026-01-18 17:20:45.80	345.40	21.42	-83.5	-79.0	2.4	0.00e+00	0	49	104	0	60	1048574
2026-01-18 17:20:46.81	345.33	21.23	-83.1	-79.0	2.4	0.00e+00	0	49	104	0	60	1048575
2026-01-18 17:20:47.82	345.26	21.05	-83.1	-79.0	2.4	0.00e+00	0	49	104	0	60	1048574
2026-01-18 17:20:48.83	345.20	20.86	-83.5	-79.0	2.6	0.00e+00	0	49	104	0	60	1048574
2026-01-18 17:20:49.84	345.13	20.68	-83.1	-79.0	2.3	0.00e+00	0	49	104	0	60	1048575
2026-01-18 17:20:50.84	345.07	20.50	-83.5	-79.0	2.3	0.00e+00	0	49	104	0	60	1048574
2026-01-18 17:20:51.85	345.01	20.32	-82.8	-79.0	2.4	0.00e+00	0	49	104	0	60	1048575
2026-01-18 17:20:52.86	344.94	20.14	-83.5	-79.0	2.4	0.00e+00	0	49	104	0	60	1048572
2026-01-18 17:20:53.86	344.88	19.97	-83.5	-79.0	2.4	0.00e+00	0	49	104	0	60	1048571
2026-01-18 17:20:54.87	344.82	19.80	-83.5	-79.0	2.4	0.00e+00	0	49	104	0	60	1048573
2026-01-18 17:20:55.87	344.76	19.62	-83.5	-79.0	2.4	0.00e+00	0	49	104	0	60	1048575
2026-01-18 17:20:56.88	344.71	19.45	-83.1	-79.0	2.4	0.00e+00	0	49	104	0	60	1048575
2026-01-18 17:20:57.89	344.65	19.28	-83.5	-79.0	2.5	0.00e+00	0	49	104	0	60	1048572
2026-01-18 17:20:58.90	344.59	19.11	-83.5	-79.0	2.5	0.00e+00	0	49	104	0	60	1048572
2026-01-18 17:20:59.90	344.53	18.95	-83.5	-79.0	2.5	0.00e+00	0	49	104	0	60	1048575
2026-01-18 17:21:00.91	344.48	18.78	-83.1	-79.0	2.4	0.00e+00	0	49	104	0	60	1048574
2026-01-18 17:21:01.92	344.42	18.62	-83.1	-79.0	2.4	0.00e+00	0	49	104	0	60	1048567
2026-01-18 17:21:02.93	344.37	18.45	-83.5	-79.0	2.4	0.00e+00	0	49	104	0	60	1048575
2026-01-18 17:21:03.93	344.32	18.29	-83.1	-79.0	2.4	0.00e+00	0	49	104	0	60	1048574
2026-01-18 17:21:04.94	344.26	18.13	-83.5	-79.0	2.3	0.00e+00	0	49	104	0	60	1048569
2026-01-18 17:21:05.95	344.21	17.97	-83.1	-79.0	2.5	0.00e+00	0	49	104	0	60	1048574
2026-01-18 17:21:06.96	344.16	17.82	-83.5	-79.0	2.4	0.00e+00	0	49	104	0	60	1048574
2026-01-18 17:21:07.96	344.11	17.66	-83.5	-79.0	2.2	0.00e+00	0	49	104	0	60	1048573
2026-01-18 17:21:08.97	344.06	17.51	-83.5	-79.0	2.3	0.00e+00	0	49	104	0	60	1048574
2026-01-18 17:21:09.97	344.01	17.35	-83.5	-79.0	2.4	0.00e+00	0	49	104	0	60	1048573
2026-01-18 17:21:10.98	343.96	17.20	-82.8	-79.0	2.4	0.00e+00	0	49	104	0	60	1048572
2026-01-18 17:21:11.99	343.92	17.05	-82.8	-79.0	2.5	0.00e+00	0	49	104	0	60	1048575
2026-01-18 17:21:12.99	343.87	16.90	-83.5	-79.0	2.4	0.00e+00	0	49	104	0	60	1048574
2026-01-18 17:21:14.00	343.82	16.75	-83.5	-79.0	2.3	0.00e+00	0	49	104	0	60	1048575
2026-01-18 17:21:15.01	343.77	16.60	-83.5	-79.0	2.3	0.00e+00	0	49	104	0	60	1048569
2026-01-18 17:21:16.02	343.73	16.45	-83.1	-79.0	2.3	0.00e+00	0	49	104	0	60	1048574
2026-01-18 17:21:17.02	343.68	16.31	-83.5	-79.0	2.5	0.00e+00	0	49	104	0	60	1048568
2026-01-18 17:21:18.03	343.64	16.16	-83.5	-79.0	2.4	0.00e+00	0	49	104	0	60	1048574
2026-01-18 17:21:19.04	343.60	16.02	-83.5	-79.0	2.4	0.00e+00	0	49	104	0	60	1048562
2026-01-18 17:21:20.05	343.55	15.88	-83.1	-79.0	2.4	0.00e+00	0	49	104	0	60	1048568
2026-01-18 17:21:21.06	343.51	15.73	-83.1	-79.0	2.4	0.00e+00	0	49	104	0	60	1048574
2026-01-18 17:21:22.07	343.47	15.59	-83.5	-79.0	2.4	0.00e+00	0	49	104	0	60	1048575
2026-01-18 17:21:23.07	343.42	15.45	-83.5	-79.0	2.5	0.00e+00	0	49	104	0	60	1048575
2026-01-18 17:21:24.07	343.38	15.32	-83.1	-79.0	2.4	0.00e+00	0	49	104	0	60	1048574
2026-01-18 17:21:25.07	343.34	15.18	-83.1	-79.0	2.4	0.00e+00	0	49	104	0	60	1048573
2026-01-18 17:21:26.08	343.30	15.04	-83.1	-79.0	2.3	0.00e+00	0	49	104	0	60	1048574
2026-01-18 17:21:27.08	343.26	14.91	-83.5	-79.0	2.5	0.00e+00	0	49	104	0	60	1048572
2026-01-18 17:21:28.09	343.22	14.77	-83.5	-79.0	2.5	0.00e+00	0	49	104	0	60	1048570
2026-01-18 17:21:29.10	343.18	14.64	-83.5	-79.0	2.3	0.00e+00	0	49	104	0	60	1048564
2026-01-18 17:21:30.11	343.14	14.51	-83.1	-79.0	2.3	0.00e+00	0	49	104	0	60	1048573
2026-01-18 17:21:31.11	343.11	14.38	-83.5	-79.0	2.3	0.00e+00	0	49	104	0	60	1048575
2026-01-18 17:21:32.12	343.07	14.24	-83.5	-79.0	2.4	0.00e+00	0	49	104	0	60	1048572
2026-01-18 17:21:33.13	343.03	14.11	-83.5	-79.0	2.4	0.00e+00	0	49	104	0	60	1048575
2026-01-18 17:21:34.14	342.99	13.99	-83.1	-79.0	2.5	0.00e+00	0	49	104	0	60	1048575
2026-01-18 17:21:35.15	342.96	13.86	-83.1	-79.0	2.3	0.00e+00	0	49	104	0	60	1048572
2026-01-18 17:21:36.16	342.92	13.73	-83.5	-79.0	2.4	0.00e+00	0	49	104	0	60	1048573
2026-01-18 17:21:37.16	342.89	13.60	-83.5	-79.0	2.4	0.00e+00	0	49	104	0	60	1048575
2026-01-18 17:21:38.17	342.85	13.48	-83.5	-79.0	2.3	0.00e+00	0	49	104	0	60	1048575
2026-01-18 17:21:39.16	342.82	13.35	-83.1	-79.0	2.5	0.00e+00	0	49	104	0	60	1048563
2026-01-18 17:21:40.17	342.78	13.23	-83.5	-79.0	2.4	0.00e+00	0	49	104	0	60	1048574
2026-01-18 17:21:41.18	342.75	13.11	-83.5	-79.0	2.3	0.00e+00	0	49	104	0	60	1048573
2026-01-18 17:21:42.19	342.71	12.98	-83.5	-79.0	2.4	0.00e+00	0	49	104	0	60	1048573
2026-01-18 17:21:43.20	342.68	12.86	-83.5	-79.0	2.4	0.00e+00	0	49	104	0	60	1048574
2026-01-18 17:21:44.20	342.65	12.74	-82.8	-79.0	2.4	0.00e+00	0	49	104	0	60	1048573
2026-01-18 17:21:45.21	342.62	12.62	-83.5	-79.0	2.4	0.00e+00	0	49	104	0	60	1048574
2026-01-18 17:21:46.22	342.58	12.50	-83.5	-79.0	2.4	0.00e+00	0	49	104	0	60	1048572
2026-01-18 17:21:47.22	342.55	12.38	-83.5	-79.0	2.4	0.00e+00	0	49	104	0	60	1048574
2026-01-18 17:21:48.23	342.52	12.27	-83.5	-79.0	2.4	0.00e+00	0	49	104	0	60	1048571
2026-01-18 17:21:49.24	342.49	12.15	-83.1	-79.0	2.4	0.00e+00	0	49	104	0	60	1048573
2026-01-18 17:21:50.24	342.46	12.03	-83.5	-79.0	2.4	0.00e+00	0	49	104	0	60	1048575
2026-01-18 17:21:51.25	342.43	11.92	-83.5	-79.0	2.3	0.00e+00	0	49	104	0	60	1048574
2026-01-18 17:21:52.26	342.40	11.80	-83.5	-79.0	2.3	0.00e+00	0	49	104	0	60	1048574
2026-01-18 17:21:53.26	342.37	11.69	-83.1	-79.0	2.4	0.00e+00	0	49	104	0	60	1048573
2026-01-18 17:21:54.27	342.34	11.57	-83.1	-79.0	2.4	0.00e+00	0	49	104	0	60	1048575
2026-01-18 17:21:55.27	342.31	11.46	-83.5	-79.0	2.4	0.00e+00	0	49	104	0	60	1048571
2026-01-18 17:21:56.28	342.28	11.35	-83.5	-79.0	2.6	0.00e+00	0	49	104	0	60	1048574
2026-01-18 17:21:57.28	342.25	11.24	-83.1	-79.0	2.4	0.00e+00	0	49	104	0	60	1048568
2026-01-18 17:21:58.29	342.22	11.13	-82.8	-79.0	2.3	0.00e+00	0	49	104	0	60	1048570
2026-01-18 17:21:59.30	342.19	11.02	-83.5	-79.0	2.3	0.00e+00	0	49	104	0	60	1048575
2026-01-18 17:22:00.30	342.17	10.91	-83.5	-79.0	2.4	0.00e+00	0	49	104	0	60	1048575
2026-01-18 17:22:01.31	342.14	10.80	-83.5	-79.0	2.4	0.00e+00	0	49	104	0	60	1048574
2026-01-18 17:22:02.32	342.11	10.69	-83.5	-79.0	2.4	0.00e+00	0	49	104	0	60	1048574
2026-01-18 17:22:03.32	342.09	10.58	-82.8	-79.0	2.4	0.00e+00	0	49	104	0	60	1048569
2026-01-18 17:22:04.33	342.06	10.48	-83.1	-79.0	2.4	0.00e+00	0	49	104	0	60	1048575
2026-01-18 17:22:05.33	342.03	10.37	-83.5	-79.0	2.5	0.00e+00	0	49	104	0	60	1048572
2026-01-18 17:22:06.34	342.01	10.26	-83.5	-79.0	2.4	0.00e+00	0	49	104	0	60	1048572
2026-01-18 17:22:07.35	341.98	10.16	-83.1	-79.0	2.4	0.00e+00	0	49	104	0	60	1048564
2026-01-18 17:22:08.36	341.95	10.05	-83.1	-79.0	2.4	0.00e+00	0	49	104	0	60	1048575
2026-01-18 17:22:09.36	341.93	9.95	-83.5	-79.0	2.4	0.00e+00	0	49	104	0	60	1048571
2026-01-18 17:22:10.37	341.90	9.85	-83.1	-79.0	2.4	0.00e+00	0	49	104	0	60	1048575
2026-01-18 17:22:11.38	341.88	9.74	-83.5	-79.0	2.4	0.00e+00	0	49	104	0	60	1048574
2026-01-18 17:22:12.39	341.85	9.64	-83.1	-79.0	2.4	0.00e+00	0	49	104	0	60	1048573
2026-01-18 17:22:13.40	341.83	9.54	-83.1	-79.0	2.2	0.00e+00	0	49	104	0	60	1048568
2026-01-18 17:22:14.40	341.81	9.44	-83.5	-79.0	2.4	0.00e+00	0	49	104	0	60	1048568
2026-01-18 17:22:15.41	341.78	9.34	-83.5	-79.0	2.5	0.00e+00	0	49	104	0	60	1048574
2026-01-18 17:22:16.42	341.76	9.24	-83.5	-79.0	2.4	0.00e+00	0	49	104	0	60	1048574
2026-01-18 17:22:17.42	341.74	9.14	-82.8	-79.0	2.4	0.00e+00	0	49	104	0	60	1048571
2026-01-18 17:22:18.43	341.71	9.04	-83.5	-79.0	2.3	0.00e+00	0	49	104	0	60	1048573
2026-01-18 17:22:19.44	341.69	8.94	-83.5	-79.0	2.2	0.00e+00	0	49	104	0	60	1048567
2026-01-18 17:22:20.45	341.67	8.84	-83.5	-79.0	2.4	0.00e+00	0	49	104	0	60	1048573
2026-01-18 17:22:21.46	341.64	8.74	-83.5	-79.0	2.4	0.00e+00	0	49	104	0	60	1048569
2026-01-18 17:22:22.46	341.62	8.64	-83.1	-79.0	2.4	0.00e+00	0	49	104	0	60	1048573
2026-01-18 17:22:23.47	341.60	8.55	-83.5	-79.0	2.3	0.00e+00	0	49	104	0	60	1048574
2026-01-18 17:22:24.48	341.58	8.45	-83.5	-79.0	2.3	0.00e+00	0	49	104	0	60	1048575
2026-01-18 17:22:25.49	341.56	8.35	-83.5	-79.0	2.4	0.00e+00	0	49	104	0	60	1048575
2026-01-18 17:22:26.49	341.54	8.26	-83.1	-79.0	2.5	0.00e+00	0	49	104	0	60	1048572
2026-01-18 17:22:27.50	341.51	8.16	-83.1	-79.0	2.5	0.00e+00	0	49	104	0	60	1048572
2026-01-18 17:22:28.50	341.49	8.07	-83.5	-79.0	2.4	0.00e+00	0	49	104	0	60	1048575
2026-01-18 17:22:29.51	341.47	7.98	-83.5	-79.0	2.7	0.00e+00	0	49	104	0	60	1048573
2026-01-18 17:22:30.51	341.45	7.88	-83.1	-79.0	2.2	0.00e+00	0	49	104	0	60	1048571
2026-01-18 17:22:31.52	341.43	7.79	-82.8	-79.0	2.5	0.00e+00	0	49	104	0	60	1048568
2026-01-18 17:22:32.53	341.41	7.70	-83.1	-79.0	2.4	0.00e+00	0	49	104	0	60	1048574
2026-01-18 17:22:33.54	341.39	7.61	-83.5	-79.0	2.4	0.00e+00	0	49	104	0	60	1048572
2026-01-18 17:22:34.55	341.37	7.51	-83.5	-79.0	2.4	0.00e+00	0	49	104	0	60	1048566
2026-01-18 17:22:35.56	341.35	7.42	-83.5	-79.0	2.6	0.00e+00	0	49	104	0	60	1048571
2026-01-18 17:22:36.56	341.33	7.33	-83.1	-79.0	2.3	0.00e+00	0	49	104	0	60	1048575
2026-01-18 17:22:37.57	341.31	7.24	-83.1	-79.0	2.6	0.00e+00	0	49	104	0	60	1048567
2026-01-18 17:22:38.58	341.29	7.15	-83.5	-79.0	2.4	0.00e+00	0	49	104	0	60	1048570
2026-01-18 17:22:39.59	341.27	7.06	-83.5	-79.0	2.3	0.00e+00	0	49	104	0	60	1048567
2026-01-18 17:22:40.60	341.26	6.97	-83.5	-79.0	2.4	0.00e+00	0	49	104	0	60	1048573
2026-01-18 17:22:41.61	341.24	6.88	-83.1	-79.0	2.4	0.00e+00	0	49	104	0	60	1048574
2026-01-18 17:22:42.61	341.22	6.80	-83.1	-79.0	2.5	0.00e+00	0	49	104	0	60	1048574
2026-01-18 17:22:43.62	341.20	6.71	-83.1	-79.0	2.3	0.00e+00	0	49	104	0	60	1048573
2026-01-18 17:22:44.63	341.18	6.62	-83.5	-79.0	2.4	0.00e+00	0	49	104	0	60	1048574
2026-01-18 17:22:45.63	341.16	6.53	-83.1	-79.0	2.3	0.00e+00	0	49	104	0	60	1048573
2026-01-18 17:22:46.64	341.15	6.45	-82.8	-79.0	2.7	0.00e+00	0	49	104	0	60	1048573
2026-01-18 17:22:47.65	341.13	6.36	-83.5	-79.0	2.3	0.00e+00	0	49	104	0	60	1048575
2026-01-18 17:22:48.65	341.11	6.27	-83.5	-79.0	2.4	0.00e+00	0	49	104	0	60	1048569
2026-01-18 17:22:49.66	341.09	6.19	-83.1	-79.0	2.3	0.00e+00	0	49	104	0	60	1048574
2026-01-18 17:22:50.66	341.08	6.10	-82.8	-79.0	2.4	0.00e+00	0	49	104	0	60	1048575
2026-01-18 17:22:51.66	341.06	6.02	-83.1	-79.0	2.4	0.00e+00	0	49	104	0	60	1048566
2026-01-18 17:22:52.67	341.04	5.93	-83.5	-79.0	2.5	0.00e+00	0	49	104	0	60	1048575
2026-01-18 17:22:53.68	341.03	5.85	-83.5	-79.0	2.4	0.00e+00	0	49	104	0	60	1048575
2026-01-18 17:22:54.68	341.01	5.77	-83.5	-79.0	2.4	0.00e+00	0	49	104	0	60	1048572
2026-01-18 17:22:55.69	340.99	5.68	-82.8	-79.0	2.4	0.00e+00	0	49	104	0	60	1048574
2026-01-18 17:22:56.69	340.98	5.60	-83.1	-79.0	2.4	0.00e+00	0	49	104	0	60	1048575
2026-01-18 17:22:57.70	340.96	5.52	-83.5	-79.0	2.4	0.00e+00	0	49	104	0	60	1048574
2026-01-18 17:22:58.71	340.95	5.43	-83.5	-79.0	2.6	0.00e+00	0	49	104	0	60	1048575
2026-01-18 17:22:59.71	340.93	5.35	-83.5	-79.0	2.4	0.00e+00	0	49	104	0	60	1048574
2026-01-18 17:23:00.71	340.92	5.27	-82.8	-79.0	2.4	0.00e+00	0	49	104	0	60	1048575
2026-01-18 17:23:01.72	340.90	5.19	-83.5	-79.0	2.4	0.00e+00	0	49	104	0	60	1048575
2026-01-18 17:23:02.72	340.88	5.11	-83.5	-79.0	2.4	0.00e+00	0	49	104	0	60	1048574
2026-01-18 17:23:03.72	340.87	5.03	-83.1	-79.0	2.5	0.00e+00	0	49	104	0	60	1048574
2026-01-18 17:23:04.73	340.85	4.95	-83.1	-79.0	2.3	0.00e+00	0	49	104	0	60	1048575
2026-01-18 17:23:05.73	340.84	4.87	-83.1	-79.0	2.4	0.00e+00	0	49	104	0	60	1048572
2026-01-18 17:23:06.74	340.82	4.79	-83.5	-79.0	2.3	0.00e+00	0	49	104	0	60	1048575
2026-01-18 17:23:07.74	340.81	4.71	-83.5	-79.0	2.4	0.00e+00	0	49	104	0	60	1048574
2026-01-18 17:23:08.75	340.80	4.63	-83.5	-79.0	2.3	0.00e+00	0	49	104	0	60	1048575
2026-01-18 17:23:09.76	340.78	4.55	-83.1	-79.0	2.3	0.00e+00	0	49	104	0	60	1048565
2026-01-18 17:23:10.76	340.77	4.47	-83.5	-79.0	2.4	0.00e+00	0	49	104	0	60	1048568
2026-01-18 17:23:11.77	340.75	4.40	-83.5	-79.0	2.3	0.00e+00	0	49	104	0	60	1048574
2026-01-18 17:23:12.78	340.74	4.32	-83.5	-79.0	2.5	0.00e+00	0	49	104	0	60	1048574
2026-01-18 17:23:13.78	340.73	4.24	-83.1	-79.0	2.4	0.00e+00	0	49	104	0	60	1048573
2026-01-18 17:23:14.79	340.71	4.16	-83.1	-79.0	2.4	0.00e+00	0	49	104	0	60	1048574
2026-01-18 17:23:15.80	340.70	4.08	-83.5	-79.0	2.4	0.00e+00	0	49	104	0	60	1048574
2026-01-18 17:23:16.81	340.68	4.01	-83.5	-79.0	2.4	0.00e+00	0	49	104	0	60	1048574
2026-01-18 17:23:17.82	340.67	3.93	-83.5	-79.0	2.4	0.00e+00	0	49	104	0	60	1048575
2026-01-18 17:23:18.83	340.66	3.85	-83.1	-79.0	2.5	0.00e+00	0	49	104	0	60	1048571
2026-01-18 17:23:19.83	340.64	3.78	-83.5	-79.0	2.3	0.00e+00	0	49	104	0	60	1048574
2026-01-18 17:23:20.84	340.63	3.70	-83.5	-79.0	2.3	0.00e+00	0	49	104	0	60	1048567
2026-01-18 17:23:21.84	340.62	3.63	-83.5	-79.0	2.4	0.00e+00	0	49	104	0	60	1048575
2026-01-18 17:23:22.84	340.61	3.55	-83.5	-79.0	2.4	0.00e+00	0	49	104	0	60	1048574
2026-01-18 17:23:23.85	340.59	3.48	-82.8	-79.0	2.4	0.00e+00	0	49	104	0	60	1048570
2026-01-18 17:23:24.86	340.58	3.40	-83.1	-79.0	2.5	0.00e+00	0	49	104	0	60	1048575
2026-01-18 17:23:25.86	340.57	3.33	-83.5	-79.0	2.5	0.00e+00	0	49	104	0	60	1048574
2026-01-18 17:23:26.87	340.55	3.26	-83.5	-79.0	2.4	0.00e+00	0	49	104	0	60	1048574
2026-01-18 17:23:27.88	340.54	3.18	-83.5	-79.0	2.4	0.00e+00	0	49	104	0	60	1048572
2026-01-18 17:23:28.88	340.53	3.11	-83.1	-79.0	2.3	0.00e+00	0	49	104	0	60	1048574
2026-01-18 17:23:29.88	340.52	3.04	-83.1	-79.0	2.4	0.00e+00	0	49	104	0	60	1048573
2026-01-18 17:23:30.89	340.51	2.96	-83.5	-79.0	2.3	0.00e+00	0	49	104	0	60	1048575
2026-01-18 17:23:31.90	340.49	2.89	-83.5	-79.0	2.4	0.00e+00	0	49	104	0	60	1048575
2026-01-18 17:23:32.91	340.48	2.82	-83.5	-79.0	2.5	0.00e+00	0	49	104	0	60	1048574
2026-01-18 17:23:33.91	340.47	2.74	-83.1	-79.0	2.3	0.00e+00	0	49	104	0	60	1048573
2026-01-18 17:23:34.92	340.46	2.67	-83.5	-79.0	2.4	0.00e+00	0	49	104	0	60	1048575
2026-01-18 17:23:35.92	340.45	2.60	-83.5	-79.0	2.4	0.00e+00	0	49	104	0	60	1048572
2026-01-18 17:23:36.93	340.44	2.53	-83.5	-79.0	2.3	0.00e+00	0	49	104	0	60	1048572
2026-01-18 17:23:37.94	340.43	2.46	-83.1	-79.0	2.4	0.00e+00	0	49	104	0	60	1048574
2026-01-18 17:23:38.95	340.41	2.39	-83.1	-79.0	2.5	0.00e+00	0	49	104	0	60	1048574
2026-01-18 17:23:39.95	340.40	2.31	-83.5	-79.0	2.4	0.00e+00	0	49	104	0	60	1048564
2026-01-18 17:23:40.96	340.39	2.24	-83.5	-79.0	2.4	0.00e+00	0	49	104	0	60	1048570
2026-01-18 17:23:41.97	340.38	2.17	-83.5	-79.0	2.3	0.00e+00	0	49	104	0	60	1048574
2026-01-18 17:23:42.98	340.37	2.10	-83.1	-79.0	2.5	0.00e+00	0	49	104	0	60	1048572
2026-01-18 17:23:43.99	340.36	2.03	-83.5	-79.0	2.2	0.00e+00	0	49	104	0	60	1048572
2026-01-18 17:23:45.00	340.35	1.96	-83.5	-79.0	2.4	0.00e+00	0	49	104	0	60	1048573
2026-01-18 17:23:46.00	340.34	1.89	-83.5	-79.0	2.4	0.00e+00	0	49	104	0	60	1048575
2026-01-18 17:23:47.01	340.33	1.82	-83.1	-79.0	2.4	0.00e+00	0	49	104	0	60	1048573
2026-01-18 17:23:48.02	340.32	1.75	-83.1	-79.0	2.4	0.00e+00	0	49	104	0	60	1048575
2026-01-18 17:23:49.03	340.31	1.69	-83.5	-79.0	2.4	0.00e+00	0	49	104	0	60	1048575
2026-01-18 17:23:50.04	340.30	1.62	-83.5	-79.0	2.4	0.00e+00	0	49	104	0	60	1048574
2026-01-18 17:23:51.04	340.29	1.55	-83.5	-79.0	2.4	0.00e+00	0	49	104	0	60	1048574
2026-01-18 17:23:52.05	340.28	1.48	-83.5	-79.0	2.4	0.00e+00	0	49	104	0	60	1048569
2026-01-18 17:23:53.06	340.27	1.41	-83.1	-79.0	2.2	0.00e+00	0	49	104	0	60	1048574
2026-01-18 17:23:54.07	340.26	1.34	-83.5	-79.0	2.4	0.00e+00	0	49	104	0	60	1048572
2026-01-18 17:23:55.07	340.25	1.28	-83.5	-79.0	2.4	0.00e+00	0	49	104	0	60	1048561
2026-01-18 17:23:56.07	340.24	1.21	-83.5	-79.0	2.4	0.00e+00	0	49	104	0	60	1048574
2026-01-18 17:23:57.08	340.23	1.14	-83.1	-79.0	2.4	0.00e+00	0	49	104	0	60	1048575
2026-01-18 17:23:58.09	340.22	1.07	-83.5	-79.0	2.4	0.00e+00	0	49	104	0	60	1048575
2026-01-18 17:23:59.10	340.21	1.01	-83.5	-79.0	2.3	0.00e+00	0	49	104	0	60	1048574
2026-01-18 17:24:00.10	340.20	0.94	-83.1	-79.0	2.4	0.00e+00	0	49	104	0	60	1048575
2026-01-18 17:24:01.11	340.19	0.87	-83.1	-79.0	2.4	0.00e+00	0	49	104	0	60	1048571
2026-01-18 17:24:02.12	340.18	0.81	-83.1	-79.0	2.4	0.00e+00	0	49	104	0	60	1048571
2026-01-18 17:24:03.13	340.17	0.74	-83.1	-79.0	2.4	0.00e+00	0	49	104	0	60	1048574
2026-01-18 17:24:04.14	340.16	0.68	-83.5	-79.0	2.5	0.00e+00	0	49	104	0	60	1048574
2026-01-18 17:24:05.14	340.15	0.61	-83.5	-79.0	2.4	0.00e+00	0	49	104	0	60	1048574
2026-01-18 17:24:06.15	340.14	0.54	-83.5	-79.0	2.4	0.00e+00	0	49	104	0	60	1048575
2026-01-18 17:24:07.16	340.14	0.48	-83.1	-79.0	2.3	0.00e+00	0	49	104	0	60	1048573
2026-01-18 17:24:08.16	340.13	0.41	-83.5	-79.0	2.4	0.00e+00	0	49	104	0	60	1048573
2026-01-18 17:24:09.17	340.12	0.35	-83.5	-79.0	2.4	0.00e+00	0	49	104	0	60	1048573
2026-01-18 17:24:10.18	340.11	0.28	-83.1	-79.0	2.5	0.00e+00	0	49	104	0	60	1048570
2026-01-18 17:24:11.19	340.10	0.22	-82.8	-79.0	2.3	0.00e+00	0	49	104	0	60	1048571
2026-01-18 17:24:12.19	340.09	0.16	-83.5	-79.0	2.5	0.00e+00	0	49	104	0	60	1048575
2026-01-18 17:24:13.20	340.08	0.09	-83.5	-79.0	2.4	0.00e+00	0	49	104	0	60	1048567
2026-01-18 17:24:14.20	340.08	0.03	-83.5	-79.0	2.4	0.00e+00	0	49	104	0	60	1048575
2026-01-18 17:24:15.20	340.07	-0.04	-83.5	-79.0	2.3	0.00e+00	0	49	104	0	60	1048575
2026-01-18 17:24:16.21	340.06	-0.10	-83.1	-79.0	2.3	0.00e+00	0	49	104	0	60	1048570

#Closed at: 2026-01-18 17:24:16
#Recorded file [0 MB]: D:/Data/35015_260118_201238.dat