passes_logs/2026/01/18/R3.2S-Naryan-Mar/R3.2S-Naryan-Mar__20260118_085105_NOAA_20_JPSS-1_rec.log

#Pass ID: 20260118_085105_NOAA 20 (JPSS-1)
#Satellite: NOAA 20 (JPSS-1)
#Configuration: NOAA 20
#almurnet v.1.7.20240730
#Start time: 2026-01-18 08:51:07

#Version: 2.2.20231116
#Station: R3.2S-Naryan-Mar
#Location: 53.008057 lon 67.646978 lat
#TLE: 1 43013U 17073A   26017.30359522  .00000067  00000+0  52526-4 0  9990
#TLE: 2 43013  98.7639 318.2187 0001419  36.2087 323.9184 14.19536557423067

#Time	Az	El	Level	Level2	SNR	BER	BlckErr	Temp	State	Recorded	gain1	gain2
2026-01-18 08:51:07.37	166.41	0.09	-85.2	-88.6	3.1	1.56e+00	0	45	0	0	60	1048570
2026-01-18 08:51:08.37	166.42	0.15	-85.2	-88.6	3.0	1.56e+00	0	46	104	0	60	1048575
2026-01-18 08:51:09.38	166.44	0.21	-85.2	-88.6	3.0	1.56e+00	0	46	104	0	60	1048575
2026-01-18 08:51:10.39	166.46	0.28	-85.2	-88.6	3.0	1.55e+00	0	46	104	0	60	1048574
2026-01-18 08:51:11.40	166.48	0.34	-85.2	-88.6	3.0	1.56e+00	0	46	104	0	60	1048575
2026-01-18 08:51:12.40	166.49	0.40	-85.2	-88.6	2.9	1.56e+00	0	46	104	0	60	1048574
2026-01-18 08:51:13.41	166.51	0.46	-85.2	-88.6	3.0	1.56e+00	0	46	104	0	60	1048575
2026-01-18 08:51:14.42	166.53	0.52	-85.2	-88.6	2.9	1.56e+00	0	46	104	0	60	1048575
2026-01-18 08:51:15.43	166.55	0.58	-85.2	-88.6	2.9	1.56e+00	0	46	104	0	60	1048571
2026-01-18 08:51:16.44	166.57	0.64	-85.2	-88.6	3.0	1.56e+00	0	46	104	0	60	1048575
2026-01-18 08:51:17.45	166.58	0.70	-85.2	-88.6	3.1	1.56e+00	0	46	104	0	60	1048574
2026-01-18 08:51:18.45	166.60	0.76	-85.2	-88.6	2.9	1.56e+00	0	46	104	0	60	1048569
2026-01-18 08:51:19.46	166.62	0.82	-85.2	-88.6	3.1	1.56e+00	0	46	104	0	60	1048574
2026-01-18 08:51:20.47	166.64	0.89	-85.2	-88.6	3.0	1.56e+00	0	46	104	0	60	1048575
2026-01-18 08:51:21.48	166.66	0.95	-85.2	-88.6	3.0	1.56e+00	0	46	104	0	60	1048575
2026-01-18 08:51:22.48	166.68	1.01	-85.2	-88.6	3.1	1.56e+00	0	46	104	0	60	1048575
2026-01-18 08:51:23.49	166.69	1.07	-85.2	-88.6	3.1	1.56e+00	0	46	104	0	60	1048572
2026-01-18 08:51:24.50	166.71	1.13	-85.2	-88.6	2.8	1.56e+00	0	46	104	0	60	1048573
2026-01-18 08:51:25.51	166.73	1.20	-85.2	-88.6	2.7	1.56e+00	0	46	104	0	60	1048575
2026-01-18 08:51:26.51	166.75	1.26	-85.2	-88.6	2.9	1.56e+00	0	46	104	0	60	1048575
2026-01-18 08:51:27.52	166.77	1.32	-85.2	-88.6	2.9	1.56e+00	0	46	104	0	60	1048574
2026-01-18 08:51:28.52	166.79	1.38	-85.2	-88.6	2.9	1.56e+00	0	46	104	0	60	1048575
2026-01-18 08:51:29.53	166.81	1.45	-85.2	-88.6	3.1	1.56e+00	0	46	104	0	60	1048575
2026-01-18 08:51:30.54	166.82	1.51	-85.2	-88.6	3.2	1.56e+00	0	46	104	0	60	1048575
2026-01-18 08:51:31.55	166.84	1.57	-85.2	-88.6	3.0	1.56e+00	0	46	104	0	60	1048573
2026-01-18 08:51:32.56	166.86	1.64	-85.2	-88.6	3.2	1.56e+00	0	46	104	0	60	1048575
2026-01-18 08:51:33.57	166.88	1.70	-85.2	-88.6	3.1	1.55e+00	0	46	104	0	60	1048575
2026-01-18 08:51:34.57	166.90	1.76	-85.2	-88.6	2.9	1.56e+00	0	46	104	0	60	1048574
2026-01-18 08:51:35.58	166.92	1.83	-85.2	-88.6	3.2	1.56e+00	0	46	104	0	60	1048572
2026-01-18 08:51:36.59	166.94	1.89	-85.2	-88.6	3.1	1.55e+00	0	46	104	0	60	1048575
2026-01-18 08:51:37.60	166.96	1.96	-85.2	-88.6	2.9	1.56e+00	0	46	104	0	60	1048573
2026-01-18 08:51:38.60	166.98	2.02	-85.2	-88.6	3.1	1.56e+00	0	46	104	0	60	1048575
2026-01-18 08:51:39.61	167.00	2.08	-85.2	-88.6	2.9	1.56e+00	0	46	104	0	60	1048570
2026-01-18 08:51:40.62	167.02	2.15	-85.2	-88.6	2.9	1.56e+00	0	46	104	0	60	1048574
2026-01-18 08:51:41.63	167.04	2.21	-85.2	-88.6	3.1	1.56e+00	0	46	104	0	60	1048573
2026-01-18 08:51:42.63	167.06	2.28	-85.2	-88.6	3.0	1.56e+00	0	46	104	0	60	1048575
2026-01-18 08:51:43.64	167.08	2.34	-85.2	-88.6	3.1	1.56e+00	0	46	104	0	60	1048568
2026-01-18 08:51:44.64	167.10	2.41	-85.2	-88.6	3.0	1.55e+00	0	46	104	0	60	1048575
2026-01-18 08:51:45.65	167.12	2.47	-85.2	-88.6	3.0	1.56e+00	0	46	104	0	60	1048574
2026-01-18 08:51:46.65	167.14	2.54	-85.2	-88.6	2.8	1.56e+00	0	46	104	0	60	1048573
2026-01-18 08:51:47.65	167.16	2.60	-85.2	-88.6	3.1	1.55e+00	0	46	104	0	60	1048575
2026-01-18 08:51:48.66	167.18	2.67	-85.2	-88.6	3.0	1.56e+00	0	46	104	0	60	1048575
2026-01-18 08:51:49.67	167.20	2.73	-85.2	-88.6	3.0	1.56e+00	0	46	104	0	60	1048575
2026-01-18 08:51:50.67	167.22	2.80	-85.2	-88.6	3.0	1.56e+00	0	46	104	0	60	1048575
2026-01-18 08:51:51.68	167.24	2.86	-85.2	-88.6	3.1	1.56e+00	0	46	104	0	60	1048574
2026-01-18 08:51:52.69	167.26	2.93	-85.2	-88.6	3.0	1.55e+00	0	47	104	0	60	1048573
2026-01-18 08:51:53.70	167.28	3.00	-85.2	-88.6	2.7	1.56e+00	0	47	104	0	60	1048574
2026-01-18 08:51:54.71	167.30	3.06	-85.2	-88.6	3.0	1.56e+00	0	46	104	0	60	1048572
2026-01-18 08:51:55.72	167.32	3.13	-85.2	-88.6	3.0	1.56e+00	0	46	104	0	60	1048573
2026-01-18 08:51:56.72	167.34	3.20	-85.2	-88.6	3.0	1.56e+00	0	47	104	0	60	1048575
2026-01-18 08:51:57.72	167.36	3.26	-85.2	-88.6	3.0	1.56e+00	0	46	104	0	60	1048573
2026-01-18 08:51:58.73	167.38	3.33	-85.2	-88.6	3.0	1.56e+00	0	47	104	0	60	1048575
2026-01-18 08:51:59.73	167.40	3.40	-85.2	-88.6	3.0	1.56e+00	0	46	104	0	60	1048573
2026-01-18 08:52:00.74	167.42	3.46	-85.2	-88.6	3.0	1.56e+00	0	46	104	0	60	1048575
2026-01-18 08:52:01.74	167.44	3.53	-84.3	-88.6	2.8	1.55e+00	0	46	104	0	60	1048575
2026-01-18 08:52:02.75	167.47	3.60	-85.2	-88.6	2.9	1.55e+00	0	47	104	0	60	1048575
2026-01-18 08:52:03.75	167.49	3.67	-85.2	-88.6	2.9	1.56e+00	0	46	104	0	60	1048575
2026-01-18 08:52:04.76	167.51	3.74	-85.2	-88.6	3.2	1.55e+00	0	46	104	0	60	1048574
2026-01-18 08:52:05.77	167.53	3.80	-85.2	-88.6	3.0	1.55e+00	0	46	104	0	60	1048575
2026-01-18 08:52:06.77	167.55	3.87	-85.2	-88.6	3.0	1.56e+00	0	47	104	0	60	1048575
2026-01-18 08:52:07.78	167.57	3.94	-85.2	-88.6	2.9	1.56e+00	0	46	104	0	60	1048574
2026-01-18 08:52:08.78	167.59	4.01	-85.2	-88.6	3.2	1.56e+00	0	47	104	0	60	1048575
2026-01-18 08:52:09.79	167.62	4.08	-85.2	-88.6	3.0	1.56e+00	0	46	104	0	60	1048575
2026-01-18 08:52:10.80	167.64	4.15	-85.2	-88.6	3.0	1.56e+00	0	47	104	0	60	1048575
2026-01-18 08:52:11.80	167.66	4.22	-85.2	-88.6	3.1	1.56e+00	0	47	104	0	60	1048573
2026-01-18 08:52:12.81	167.68	4.29	-85.2	-88.6	2.9	1.55e+00	0	47	104	0	60	1048574
2026-01-18 08:52:13.82	167.70	4.36	-85.2	-88.6	3.2	1.56e+00	0	47	104	0	60	1048575
2026-01-18 08:52:14.83	167.73	4.43	-85.2	-88.6	2.9	1.56e+00	0	46	104	0	60	1048575
2026-01-18 08:52:15.83	167.75	4.50	-85.2	-88.6	2.9	1.56e+00	0	47	104	0	60	1048575
2026-01-18 08:52:16.84	167.77	4.57	-85.2	-88.6	2.8	1.55e+00	0	47	104	0	60	1048575
2026-01-18 08:52:17.85	167.79	4.64	-85.2	-88.6	3.1	1.56e+00	0	47	104	0	60	1048575
2026-01-18 08:52:18.85	167.82	4.71	-85.2	-88.6	2.9	1.56e+00	0	47	104	0	60	1048574
2026-01-18 08:52:19.86	167.84	4.78	-85.2	-88.6	2.9	1.56e+00	0	46	104	0	60	1048575
2026-01-18 08:52:20.87	167.86	4.85	-85.2	-88.6	2.9	1.56e+00	0	47	104	0	60	1048575
2026-01-18 08:52:21.87	167.89	4.92	-85.2	-88.6	2.9	1.55e+00	0	47	104	0	60	1048575
2026-01-18 08:52:22.87	167.91	4.99	-85.2	-88.6	3.0	1.56e+00	0	47	104	0	60	1048575
2026-01-18 08:52:23.88	167.93	5.06	-85.2	-88.6	3.1	1.56e+00	0	47	104	0	60	1048574
2026-01-18 08:52:24.89	167.95	5.13	-85.2	-88.6	3.0	1.56e+00	0	47	104	0	60	1048575
2026-01-18 08:52:25.89	167.98	5.20	-85.2	-88.6	3.0	1.56e+00	0	47	104	0	60	1048574
2026-01-18 08:52:26.90	168.00	5.28	-85.2	-88.6	3.0	1.56e+00	0	47	104	0	60	1048575
2026-01-18 08:52:27.90	168.02	5.35	-85.2	-88.6	3.0	1.56e+00	0	47	104	0	60	1048574
2026-01-18 08:52:28.91	168.05	5.42	-85.2	-88.6	3.0	1.56e+00	0	47	104	0	60	1048575
2026-01-18 08:52:29.92	168.07	5.49	-85.2	-88.6	2.8	1.56e+00	0	47	104	0	60	1048575
2026-01-18 08:52:30.92	168.10	5.57	-85.2	-88.6	2.9	1.55e+00	0	47	104	0	60	1048575
2026-01-18 08:52:31.93	168.12	5.64	-85.2	-88.6	3.0	1.55e+00	0	47	104	0	60	1048574
2026-01-18 08:52:32.94	168.14	5.71	-85.2	-88.6	2.9	1.56e+00	0	47	104	0	60	1048575
2026-01-18 08:52:33.94	168.17	5.79	-85.2	-88.6	2.9	1.56e+00	0	47	104	0	60	1048575
2026-01-18 08:52:34.95	168.19	5.86	-85.2	-88.6	3.1	1.56e+00	0	47	104	0	60	1048573
2026-01-18 08:52:35.96	168.22	5.93	-85.2	-88.6	3.1	1.56e+00	0	47	104	0	60	1048572
2026-01-18 08:52:36.96	168.24	6.01	-85.2	-88.6	3.0	1.55e+00	0	47	104	0	60	1048574
2026-01-18 08:52:37.97	168.26	6.08	-85.2	-88.6	3.0	1.56e+00	0	47	104	0	60	1048575
2026-01-18 08:52:38.98	168.29	6.16	-85.2	-88.6	2.9	1.55e+00	0	47	104	0	60	1048575
2026-01-18 08:52:39.99	168.31	6.23	-85.2	-88.6	3.1	1.56e+00	0	47	104	0	60	1048575
2026-01-18 08:52:41.00	168.34	6.31	-85.2	-88.6	2.9	1.55e+00	0	47	104	0	60	1048572
2026-01-18 08:52:42.00	168.36	6.38	-85.2	-88.6	3.0	1.55e+00	0	47	104	0	60	1048574
2026-01-18 08:52:43.01	168.39	6.46	-85.2	-88.6	2.9	1.56e+00	0	47	104	0	60	1048574
2026-01-18 08:52:44.02	168.41	6.53	-85.2	-88.6	3.2	1.55e+00	0	47	104	0	60	1048573
2026-01-18 08:52:45.03	168.44	6.61	-85.2	-88.6	3.0	1.55e+00	0	47	104	0	60	1048575
2026-01-18 08:52:46.04	168.47	6.68	-85.2	-88.6	2.9	1.56e+00	0	47	104	0	60	1048575
2026-01-18 08:52:47.04	168.49	6.76	-84.3	-88.6	2.9	1.56e+00	0	47	104	0	60	1048574
2026-01-18 08:52:48.05	168.52	6.84	-85.2	-88.6	3.0	1.56e+00	0	47	104	0	60	1048572
2026-01-18 08:52:49.05	168.54	6.91	-85.2	-88.6	2.8	1.56e+00	0	47	104	0	60	1048574
2026-01-18 08:52:50.06	168.57	6.99	-85.2	-88.6	2.9	1.56e+00	0	47	104	0	60	1048572
2026-01-18 08:52:51.07	168.59	7.07	-85.2	-88.6	3.0	1.55e+00	0	47	104	0	60	1048569
2026-01-18 08:52:52.07	168.62	7.14	-85.2	-88.6	3.1	1.56e+00	0	47	104	0	60	1048575
2026-01-18 08:52:53.08	168.65	7.22	-85.2	-88.6	3.1	1.56e+00	0	47	104	0	60	1048573
2026-01-18 08:52:54.08	168.67	7.30	-85.2	-88.6	3.1	1.55e+00	0	47	104	0	60	1048575
2026-01-18 08:52:55.09	168.70	7.38	-85.2	-88.6	2.9	1.55e+00	0	47	104	0	60	1048575
2026-01-18 08:52:56.09	168.73	7.45	-85.2	-88.6	2.9	1.56e+00	0	47	104	0	60	1048570
2026-01-18 08:52:57.10	168.75	7.53	-84.7	-88.6	3.1	1.55e+00	0	47	104	0	60	1048575
2026-01-18 08:52:58.10	168.78	7.61	-85.2	-88.6	3.0	1.56e+00	0	47	104	0	60	1048572
2026-01-18 08:52:59.11	168.81	7.69	-85.2	-88.6	3.0	1.56e+00	0	47	104	0	60	1048574
2026-01-18 08:53:00.12	168.83	7.77	-85.2	-88.6	3.1	1.56e+00	0	47	104	0	60	1048573
2026-01-18 08:53:01.12	168.86	7.85	-85.2	-88.6	3.0	1.56e+00	0	47	104	0	60	1048575
2026-01-18 08:53:02.13	168.89	7.93	-85.2	-88.6	2.7	1.56e+00	0	47	104	0	60	1048573
2026-01-18 08:53:03.13	168.92	8.01	-85.2	-88.6	3.0	1.56e+00	0	47	104	0	60	1048575
2026-01-18 08:53:04.14	168.94	8.09	-85.2	-88.6	3.0	1.56e+00	0	47	104	0	60	1048573
2026-01-18 08:53:05.14	168.97	8.17	-85.2	-88.6	3.0	1.55e+00	0	47	104	0	60	1048575
2026-01-18 08:53:06.14	169.00	8.25	-85.2	-88.6	3.1	1.55e+00	0	47	104	0	60	1048575
2026-01-18 08:53:07.15	169.03	8.33	-84.7	-88.6	2.8	1.56e+00	0	47	104	0	60	1048573
2026-01-18 08:53:08.16	169.05	8.41	-85.2	-88.6	3.0	1.55e+00	0	47	104	0	60	1048575
2026-01-18 08:53:09.17	169.08	8.49	-85.2	-88.6	3.0	1.56e+00	0	47	104	0	60	1048575
2026-01-18 08:53:10.17	169.11	8.57	-85.2	-88.6	3.0	1.56e+00	0	47	104	0	60	1048575
2026-01-18 08:53:11.18	169.14	8.66	-85.2	-88.6	2.9	1.56e+00	0	47	104	0	60	1048574
2026-01-18 08:53:12.19	169.17	8.74	-85.2	-88.6	3.1	1.55e+00	0	47	104	0	60	1048575
2026-01-18 08:53:13.20	169.20	8.82	-85.2	-88.6	2.8	1.56e+00	0	47	104	0	60	1048574
2026-01-18 08:53:14.21	169.23	8.90	-85.2	-88.6	2.9	1.56e+00	0	47	104	0	60	1048575
2026-01-18 08:53:15.21	169.26	8.99	-85.2	-88.6	2.8	1.56e+00	0	47	104	0	60	1048574
2026-01-18 08:53:16.22	169.28	9.07	-85.2	-88.6	2.8	1.56e+00	0	47	104	0	60	1048575
2026-01-18 08:53:17.23	169.31	9.15	-85.2	-88.6	2.9	1.56e+00	0	47	104	0	60	1048575
2026-01-18 08:53:18.24	169.34	9.24	-85.2	-88.6	3.0	1.56e+00	0	47	104	0	60	1048569
2026-01-18 08:53:19.25	169.37	9.32	-85.2	-88.6	3.1	1.56e+00	0	47	104	0	60	1048575
2026-01-18 08:53:20.25	169.40	9.41	-85.2	-88.6	3.0	1.56e+00	0	47	104	0	60	1048575
2026-01-18 08:53:21.26	169.43	9.49	-85.2	-88.6	3.0	1.55e+00	0	47	104	0	60	1048575
2026-01-18 08:53:22.26	169.46	9.58	-85.2	-88.6	3.0	1.56e+00	0	47	104	0	60	1048575
2026-01-18 08:53:23.27	169.49	9.66	-85.2	-88.6	2.9	1.56e+00	0	47	104	0	60	1048575
2026-01-18 08:53:24.27	169.52	9.75	-85.2	-88.6	2.9	1.56e+00	0	47	104	0	60	1048574
2026-01-18 08:53:25.28	169.56	9.83	-85.2	-88.6	2.9	1.56e+00	0	47	104	0	60	1048574
2026-01-18 08:53:26.28	169.59	9.92	-84.7	-88.6	2.8	1.56e+00	0	47	104	0	60	1048573
2026-01-18 08:53:27.28	169.62	10.00	-83.5	-88.6	3.0	1.56e+00	0	47	104	0	60	1048572
2026-01-18 08:53:28.29	169.65	10.09	-84.7	-88.6	2.9	1.56e+00	0	47	104	0	60	1048574
2026-01-18 08:53:29.30	169.68	10.18	-85.2	-88.6	2.8	1.56e+00	0	47	104	0	60	1048575
2026-01-18 08:53:30.31	169.71	10.27	-85.2	-88.6	2.9	1.55e+00	0	47	104	0	60	1048575
2026-01-18 08:53:31.31	169.74	10.35	-85.2	-88.6	2.8	1.56e+00	0	47	104	0	60	1048572
2026-01-18 08:53:32.32	169.77	10.44	-85.2	-88.6	2.8	1.56e+00	0	47	104	0	60	1048572
2026-01-18 08:53:33.32	169.81	10.53	-85.2	-88.6	2.9	1.56e+00	0	47	104	0	60	1048575
2026-01-18 08:53:34.33	169.84	10.62	-85.2	-88.6	2.9	1.55e+00	0	47	104	0	60	1048575
2026-01-18 08:53:35.34	169.87	10.71	-85.2	-88.6	2.9	1.55e+00	0	47	104	0	60	1048572
2026-01-18 08:53:36.35	169.90	10.80	-85.2	-88.6	2.9	1.56e+00	0	47	104	0	60	1048571
2026-01-18 08:53:37.36	169.94	10.89	-85.2	-88.6	2.9	1.56e+00	0	47	104	0	60	1048575
2026-01-18 08:53:38.36	169.97	10.98	-85.2	-88.6	3.1	1.55e+00	0	47	104	0	60	1048575
2026-01-18 08:53:39.37	170.00	11.07	-85.2	-88.6	3.0	1.56e+00	0	47	104	0	60	1048573
2026-01-18 08:53:40.37	170.04	11.16	-85.2	-88.6	3.2	1.56e+00	0	47	104	0	60	1048575
2026-01-18 08:53:41.38	170.07	11.25	-85.2	-88.6	2.9	1.55e+00	0	47	104	0	60	1048575
2026-01-18 08:53:42.39	170.10	11.34	-85.2	-88.6	3.0	1.56e+00	0	47	104	0	60	1048575
2026-01-18 08:53:43.39	170.14	11.43	-85.2	-88.6	2.9	1.56e+00	0	47	104	0	60	1048575
2026-01-18 08:53:44.40	170.17	11.52	-85.2	-88.6	3.0	1.56e+00	0	47	104	0	60	1048575
2026-01-18 08:53:45.41	170.20	11.61	-85.2	-88.6	2.9	1.56e+00	0	47	104	0	60	1048575
2026-01-18 08:53:46.42	170.24	11.71	-85.2	-88.6	3.1	1.55e+00	0	47	104	0	60	1048575
2026-01-18 08:53:47.43	170.27	11.80	-85.2	-88.6	3.2	1.55e+00	0	47	104	0	60	1048575
2026-01-18 08:53:48.44	170.31	11.89	-85.2	-88.6	2.9	1.56e+00	0	47	104	0	60	1048573
2026-01-18 08:53:49.44	170.34	11.99	-85.2	-88.6	3.0	1.56e+00	0	47	104	0	60	1048575
2026-01-18 08:53:50.45	170.38	12.08	-85.2	-88.6	2.9	1.56e+00	0	47	104	0	60	1048573
2026-01-18 08:53:51.46	170.41	12.17	-85.2	-88.6	3.1	1.56e+00	0	47	104	0	60	1048573
2026-01-18 08:53:52.47	170.45	12.27	-85.2	-88.6	3.0	1.56e+00	0	47	104	0	60	1048575
2026-01-18 08:53:53.48	170.49	12.36	-85.2	-88.6	3.0	1.55e+00	0	47	104	0	60	1048575
2026-01-18 08:53:54.48	170.52	12.46	-85.2	-88.6	2.7	1.56e+00	0	47	104	0	60	1048574
2026-01-18 08:53:55.49	170.56	12.56	-85.2	-88.6	3.0	1.56e+00	0	47	104	0	60	1048575
2026-01-18 08:53:56.50	170.59	12.65	-85.2	-88.6	3.1	1.56e+00	0	47	104	0	60	1048575
2026-01-18 08:53:57.51	170.63	12.75	-85.2	-88.6	2.9	1.56e+00	0	47	104	0	60	1048573
2026-01-18 08:53:58.51	170.67	12.84	-85.2	-88.6	2.7	1.56e+00	0	47	104	0	60	1048575
2026-01-18 08:53:59.51	170.70	12.94	-85.2	-88.6	3.0	1.56e+00	0	47	104	0	60	1048575
2026-01-18 08:54:00.52	170.74	13.04	-85.2	-88.6	3.0	1.55e+00	0	47	104	0	60	1048575
2026-01-18 08:54:01.53	170.78	13.14	-85.2	-88.6	2.8	1.56e+00	0	47	104	0	60	1048573
2026-01-18 08:54:02.53	170.82	13.23	-85.2	-88.6	3.0	1.55e+00	0	47	104	0	60	1048574
2026-01-18 08:54:03.54	170.85	13.33	-85.2	-88.6	3.0	1.56e+00	0	47	104	0	60	1048575
2026-01-18 08:54:04.55	170.89	13.43	-85.2	-88.6	2.9	1.55e+00	0	47	104	0	60	1048574
2026-01-18 08:54:05.56	170.93	13.53	-85.2	-88.6	2.8	1.56e+00	0	47	104	0	60	1048575
2026-01-18 08:54:06.57	170.97	13.63	-85.2	-88.6	2.8	1.56e+00	0	47	104	0	60	1048574
2026-01-18 08:54:07.57	171.01	13.73	-85.2	-88.6	2.8	1.56e+00	0	47	104	0	60	1048574
2026-01-18 08:54:08.58	171.05	13.83	-85.2	-88.6	2.8	1.56e+00	0	47	104	0	60	1048575
2026-01-18 08:54:09.59	171.09	13.93	-85.2	-88.6	3.0	1.56e+00	0	47	104	0	60	1048575
2026-01-18 08:54:10.60	171.13	14.04	-85.2	-88.6	3.0	1.56e+00	0	47	104	0	60	1048574
2026-01-18 08:54:11.61	171.17	14.14	-82.8	-88.6	2.9	1.56e+00	0	47	104	0	60	1048575
2026-01-18 08:54:12.61	171.21	14.24	-85.2	-88.6	3.2	1.56e+00	0	47	104	0	60	1048575
2026-01-18 08:54:13.62	171.25	14.34	-85.2	-88.6	3.0	1.56e+00	0	47	104	0	60	1048575
2026-01-18 08:54:14.62	171.29	14.45	-85.2	-88.6	2.9	1.56e+00	0	47	104	0	60	1048574
2026-01-18 08:54:15.62	171.33	14.55	-85.2	-88.6	3.0	1.56e+00	0	47	104	0	60	1048573
2026-01-18 08:54:16.63	171.37	14.65	-85.2	-88.6	2.9	1.56e+00	0	47	104	0	60	1048574
2026-01-18 08:54:17.64	171.41	14.76	-85.2	-88.6	3.0	1.56e+00	0	47	104	0	60	1048575
2026-01-18 08:54:18.65	171.45	14.86	-85.2	-88.6	2.8	1.56e+00	0	47	104	0	60	1048574
2026-01-18 08:54:19.65	171.49	14.97	-85.2	-88.6	3.1	1.55e+00	0	47	104	0	60	1048575
2026-01-18 08:54:20.66	171.54	15.07	-85.2	-88.6	3.1	1.55e+00	0	47	104	0	60	1048575
2026-01-18 08:54:21.66	171.58	15.18	-85.2	-88.6	2.9	1.55e+00	0	47	104	0	60	1048573
2026-01-18 08:54:22.67	171.62	15.29	-85.2	-88.6	3.0	1.56e+00	0	47	104	0	60	1048575
2026-01-18 08:54:23.68	171.67	15.39	-85.2	-88.6	3.1	1.56e+00	0	47	104	0	60	1048575
2026-01-18 08:54:24.69	171.71	15.50	-85.2	-88.6	3.0	1.56e+00	0	47	104	0	60	1048575
2026-01-18 08:54:25.69	171.75	15.61	-85.2	-88.6	3.0	1.56e+00	0	47	104	0	60	1048575
2026-01-18 08:54:26.70	171.80	15.72	-85.2	-88.6	2.9	1.55e+00	0	47	104	0	60	1048574
2026-01-18 08:54:27.71	171.84	15.83	-84.7	-88.6	3.1	1.56e+00	0	47	104	0	60	1048575
2026-01-18 08:54:28.72	171.88	15.94	-85.2	-88.6	2.9	1.56e+00	0	47	104	0	60	1048574
2026-01-18 08:54:29.72	171.93	16.05	-85.2	-88.6	2.7	1.56e+00	0	47	104	0	60	1048573
2026-01-18 08:54:30.73	171.97	16.16	-85.2	-88.6	3.1	1.56e+00	0	47	104	0	60	1048575
2026-01-18 08:54:31.74	172.02	16.27	-85.2	-88.6	3.0	1.56e+00	0	47	104	0	60	1048575
2026-01-18 08:54:32.74	172.07	16.38	-85.2	-88.6	3.0	1.55e+00	0	47	104	0	60	1048575
2026-01-18 08:54:33.75	172.11	16.49	-85.2	-88.6	3.0	1.56e+00	0	47	104	0	60	1048574
2026-01-18 08:54:34.75	172.16	16.60	-85.2	-88.6	3.0	1.55e+00	0	47	104	0	60	1048575
2026-01-18 08:54:35.76	172.20	16.72	-85.2	-88.6	3.0	1.56e+00	0	47	104	0	60	1048574
2026-01-18 08:54:36.76	172.25	16.83	-85.2	-88.6	3.0	1.56e+00	0	47	104	0	60	1048573
2026-01-18 08:54:37.77	172.30	16.94	-85.2	-88.6	2.9	1.56e+00	0	47	104	0	60	1048575
2026-01-18 08:54:38.78	172.35	17.06	-85.2	-88.6	2.9	1.56e+00	0	47	104	0	60	1048575
2026-01-18 08:54:39.79	172.39	17.17	-85.2	-88.6	3.1	1.56e+00	0	47	104	0	60	1048573
2026-01-18 08:54:40.80	172.44	17.29	-85.2	-88.6	3.1	1.56e+00	0	47	104	0	60	1048572
2026-01-18 08:54:41.81	172.49	17.41	-85.2	-88.6	2.9	1.56e+00	0	47	104	0	60	1048575
2026-01-18 08:54:42.82	172.54	17.52	-84.7	-88.6	3.1	1.56e+00	0	47	104	0	60	1048575
2026-01-18 08:54:43.82	172.59	17.64	-85.2	-88.6	3.1	1.56e+00	0	47	104	0	60	1048575
2026-01-18 08:54:44.83	172.64	17.76	-85.2	-88.6	3.2	1.55e+00	0	47	104	0	60	1048575
2026-01-18 08:54:45.84	172.69	17.88	-85.2	-88.6	2.9	1.55e+00	0	47	104	0	60	1048575
2026-01-18 08:54:46.85	172.74	18.00	-85.2	-88.6	3.1	1.55e+00	0	47	104	0	60	1048574
2026-01-18 08:54:47.85	172.79	18.11	-85.2	-88.6	2.7	1.55e+00	0	47	104	0	60	1048575
2026-01-18 08:54:48.86	172.84	18.24	-85.2	-88.6	3.0	1.56e+00	0	47	104	0	60	1048575
2026-01-18 08:54:49.87	172.89	18.36	-85.2	-88.6	3.0	1.56e+00	0	47	104	0	60	1048575
2026-01-18 08:54:50.88	172.95	18.48	-85.2	-88.6	3.2	1.56e+00	0	47	104	0	60	1048574
2026-01-18 08:54:51.89	173.00	18.60	-85.2	-88.6	2.8	1.56e+00	0	47	104	0	60	1048574
2026-01-18 08:54:52.90	173.05	18.72	-85.2	-88.6	2.8	1.56e+00	0	47	104	0	60	1048574
2026-01-18 08:54:53.90	173.10	18.84	-85.2	-88.6	3.1	1.56e+00	0	47	104	0	60	1048575
2026-01-18 08:54:54.90	173.16	18.97	-85.2	-88.6	2.8	1.55e+00	0	47	104	0	60	1048574
2026-01-18 08:54:55.91	173.21	19.09	-85.2	-88.6	3.0	1.56e+00	0	47	104	0	60	1048575
2026-01-18 08:54:56.92	173.27	19.22	-85.2	-88.6	3.0	1.55e+00	0	47	104	0	60	1048575
2026-01-18 08:54:57.93	173.32	19.34	-85.2	-88.6	3.0	1.56e+00	0	47	104	0	60	1048574
2026-01-18 08:54:58.93	173.37	19.47	-85.2	-88.6	3.0	1.56e+00	0	47	104	0	60	1048575
2026-01-18 08:54:59.94	173.43	19.59	-85.2	-88.6	3.2	1.56e+00	0	47	104	0	60	1048574
2026-01-18 08:55:00.94	173.49	19.72	-85.2	-88.6	3.3	1.55e+00	0	47	104	0	60	1048574
2026-01-18 08:55:01.95	173.54	19.85	-85.2	-88.6	3.0	1.55e+00	0	47	104	0	60	1048574
2026-01-18 08:55:02.95	173.60	19.98	-84.7	-88.6	3.0	1.56e+00	0	47	104	0	60	1048573
2026-01-18 08:55:03.96	173.66	20.10	-85.2	-88.6	3.3	1.55e+00	0	47	104	0	60	1048575
2026-01-18 08:55:04.96	173.71	20.23	-85.2	-88.6	3.0	1.55e+00	0	47	104	0	60	1048574
2026-01-18 08:55:05.97	173.77	20.36	-85.2	-88.6	2.8	1.56e+00	0	47	104	0	60	1048575
2026-01-18 08:55:06.98	173.83	20.50	-85.2	-88.6	3.1	1.55e+00	0	47	104	0	60	1048574
2026-01-18 08:55:07.99	173.89	20.63	-85.2	-88.6	2.9	1.56e+00	0	47	104	0	60	1048575
2026-01-18 08:55:09.00	173.95	20.76	-85.2	-88.6	3.0	1.56e+00	0	47	104	0	60	1048575
2026-01-18 08:55:10.01	174.01	20.89	-85.2	-88.6	2.9	1.56e+00	0	47	104	0	60	1048573
2026-01-18 08:55:11.01	174.07	21.03	-85.2	-88.6	3.0	1.56e+00	0	47	104	0	60	1048575
2026-01-18 08:55:12.02	174.13	21.16	-85.2	-88.6	3.1	1.56e+00	0	47	104	0	60	1048575
2026-01-18 08:55:13.03	174.19	21.30	-85.2	-88.6	3.0	1.56e+00	0	47	104	0	60	1048575
2026-01-18 08:55:14.04	174.26	21.43	-85.2	-88.6	2.7	1.55e+00	0	47	104	0	60	1048575
2026-01-18 08:55:15.05	174.32	21.57	-85.2	-88.6	3.0	1.55e+00	0	47	104	0	60	1048575
2026-01-18 08:55:16.05	174.38	21.71	-85.2	-88.6	3.0	1.56e+00	0	47	104	0	60	1048573
2026-01-18 08:55:17.06	174.45	21.84	-85.2	-88.6	3.0	1.55e+00	0	47	104	0	60	1048574
2026-01-18 08:55:18.07	174.51	21.98	-85.2	-88.6	2.8	1.55e+00	0	47	104	0	60	1048575
2026-01-18 08:55:19.08	174.57	22.12	-85.2	-88.6	2.9	1.55e+00	0	47	104	0	60	1048575
2026-01-18 08:55:20.08	174.64	22.26	-85.2	-88.6	2.9	1.56e+00	0	47	104	0	60	1048575
2026-01-18 08:55:21.09	174.71	22.40	-85.2	-88.6	2.9	1.56e+00	0	47	104	0	60	1048575
2026-01-18 08:55:22.10	174.77	22.54	-85.2	-88.6	2.7	1.56e+00	0	47	104	0	60	1048574
2026-01-18 08:55:23.11	174.84	22.69	-85.2	-88.6	2.9	1.56e+00	0	47	104	0	60	1048575
2026-01-18 08:55:24.12	174.91	22.83	-85.2	-88.6	2.8	1.56e+00	0	47	104	0	60	1048575
2026-01-18 08:55:25.13	174.98	22.97	-85.2	-88.6	3.0	1.56e+00	0	47	104	0	60	1048575
2026-01-18 08:55:26.13	175.04	23.12	-85.2	-88.6	3.1	1.56e+00	0	47	104	0	60	1048575
2026-01-18 08:55:27.14	175.11	23.26	-83.5	-88.6	3.1	1.56e+00	0	47	104	0	60	1048575
2026-01-18 08:55:28.15	175.18	23.41	-85.2	-88.6	3.0	1.56e+00	0	47	104	0	60	1048575
2026-01-18 08:55:29.16	175.25	23.56	-85.2	-88.6	3.1	1.55e+00	0	47	104	0	60	1048575
2026-01-18 08:55:30.17	175.33	23.71	-85.2	-88.6	3.1	1.55e+00	0	47	104	0	60	1048575
2026-01-18 08:55:31.17	175.40	23.85	-85.2	-88.6	3.0	1.55e+00	0	47	104	0	60	1048575
2026-01-18 08:55:32.18	175.47	24.00	-85.2	-88.6	3.1	1.56e+00	0	47	104	0	60	1048575
2026-01-18 08:55:33.18	175.54	24.15	-85.2	-88.6	3.2	1.56e+00	0	47	104	0	60	1048575
2026-01-18 08:55:34.19	175.62	24.30	-85.2	-88.6	3.0	1.55e+00	0	47	104	0	60	1048575
2026-01-18 08:55:35.20	175.69	24.45	-85.2	-88.6	3.2	1.55e+00	0	47	104	0	60	1048574
2026-01-18 08:55:36.20	175.77	24.61	-85.2	-88.6	3.0	1.56e+00	0	47	104	0	60	1048574
2026-01-18 08:55:37.21	175.84	24.76	-85.2	-88.6	3.1	1.56e+00	0	47	104	0	60	1048575
2026-01-18 08:55:38.22	175.92	24.92	-85.2	-88.6	3.1	1.55e+00	0	47	104	0	60	1048572
2026-01-18 08:55:39.22	175.99	25.07	-85.2	-88.6	3.0	1.56e+00	0	47	104	0	60	1048572
2026-01-18 08:55:40.23	176.07	25.23	-85.2	-88.6	2.9	1.56e+00	0	47	104	0	60	1048573
2026-01-18 08:55:41.23	176.15	25.38	-85.2	-88.6	3.0	1.56e+00	0	47	104	0	60	1048571
2026-01-18 08:55:42.25	176.23	25.54	-85.2	-88.6	3.0	1.55e+00	0	47	104	0	60	1048573
2026-01-18 08:55:43.25	176.31	25.70	-85.2	-88.6	3.1	1.55e+00	0	47	104	0	60	1048572
2026-01-18 08:55:44.26	176.39	25.86	-85.2	-88.6	3.0	1.55e+00	0	47	104	0	60	1048574
2026-01-18 08:55:45.27	176.47	26.02	-85.2	-88.6	2.9	1.56e+00	0	47	104	0	60	1048575
2026-01-18 08:55:46.28	176.56	26.18	-85.2	-88.6	3.0	1.56e+00	0	47	104	0	60	1048573
2026-01-18 08:55:47.29	176.64	26.34	-85.2	-88.6	3.1	1.55e+00	0	47	104	0	60	1048574
2026-01-18 08:55:48.29	176.72	26.51	-85.2	-88.6	3.0	1.55e+00	0	47	104	0	60	1048575
2026-01-18 08:55:49.30	176.81	26.67	-85.2	-88.6	2.8	1.55e+00	0	47	104	0	60	1048572
2026-01-18 08:55:50.31	176.90	26.84	-85.2	-88.6	2.9	1.55e+00	0	47	104	0	60	1048575
2026-01-18 08:55:51.32	176.98	27.00	-85.2	-88.6	2.9	1.56e+00	0	47	104	0	60	1048574
2026-01-18 08:55:52.33	177.07	27.17	-85.2	-88.6	2.8	1.55e+00	0	47	104	0	60	1048574
2026-01-18 08:55:53.33	177.16	27.34	-85.2	-88.6	3.0	1.56e+00	0	47	104	0	60	1048575
2026-01-18 08:55:54.34	177.25	27.51	-85.2	-88.6	3.0	1.56e+00	0	47	104	0	60	1048575
2026-01-18 08:55:55.35	177.34	27.68	-85.2	-88.6	2.8	1.55e+00	0	47	104	0	60	1048575
2026-01-18 08:55:56.36	177.43	27.85	-85.2	-88.6	3.0	1.56e+00	0	47	104	0	60	1048575
2026-01-18 08:55:57.36	177.52	28.02	-85.2	-88.6	3.0	1.56e+00	0	47	104	0	60	1048574
2026-01-18 08:55:58.37	177.61	28.19	-85.2	-88.6	2.8	1.56e+00	0	47	104	0	60	1048574
2026-01-18 08:55:59.38	177.71	28.37	-85.2	-88.6	3.0	1.56e+00	0	47	104	0	60	1048575
2026-01-18 08:56:00.38	177.80	28.54	-85.2	-88.6	2.9	1.56e+00	0	47	104	0	60	1048575
2026-01-18 08:56:01.39	177.90	28.72	-85.2	-88.6	3.0	1.56e+00	0	47	104	0	60	1048575
2026-01-18 08:56:02.40	178.00	28.89	-85.2	-88.6	3.0	1.56e+00	0	47	104	0	60	1048574
2026-01-18 08:56:03.41	178.10	29.07	-85.2	-88.6	3.0	1.56e+00	0	47	104	0	60	1048574
2026-01-18 08:56:04.42	178.19	29.25	-85.2	-88.6	3.0	1.56e+00	0	47	104	0	60	1048575
2026-01-18 08:56:05.42	178.29	29.43	-85.2	-88.6	3.0	1.56e+00	0	47	104	0	60	1048575
2026-01-18 08:56:06.43	178.40	29.61	-85.2	-88.6	3.1	1.56e+00	0	47	104	0	60	1048572
2026-01-18 08:56:07.44	178.50	29.79	-85.2	-88.6	2.9	1.56e+00	0	47	104	0	60	1048575
2026-01-18 08:56:08.44	178.60	29.98	-85.2	-88.6	3.0	1.56e+00	0	47	104	0	60	1048574
2026-01-18 08:56:09.44	178.70	30.16	-85.2	-88.6	3.0	1.56e+00	0	47	104	0	60	1048574
2026-01-18 08:56:10.45	178.81	30.34	-85.2	-88.6	3.0	1.55e+00	0	47	104	0	60	1048575
2026-01-18 08:56:11.46	178.92	30.53	-85.2	-88.6	3.1	1.56e+00	0	47	104	0	60	1048575
2026-01-18 08:56:12.46	179.03	30.72	-85.2	-88.6	3.0	1.56e+00	0	47	104	0	60	1048572
2026-01-18 08:56:13.47	179.13	30.91	-85.2	-88.6	3.1	1.56e+00	0	47	104	0	60	1048575
2026-01-18 08:56:14.48	179.25	31.10	-85.2	-88.6	3.0	1.56e+00	0	47	104	0	60	1048575
2026-01-18 08:56:15.48	179.36	31.29	-85.2	-88.6	3.1	1.55e+00	0	47	104	0	60	1048573
2026-01-18 08:56:16.49	179.47	31.48	-85.2	-88.6	2.9	1.55e+00	0	47	104	0	60	1048575
2026-01-18 08:56:17.50	179.59	31.67	-85.2	-88.6	2.9	1.55e+00	0	47	104	0	60	1048575
2026-01-18 08:56:18.51	179.70	31.87	-85.2	-88.6	3.1	1.56e+00	0	47	104	0	60	1048573
2026-01-18 08:56:19.52	179.82	32.06	-85.2	-88.6	2.9	1.56e+00	0	47	104	0	60	1048575
2026-01-18 08:56:20.53	179.94	32.26	-85.2	-88.6	3.0	1.55e+00	0	47	104	0	60	1048574
2026-01-18 08:56:21.54	180.06	32.46	-85.2	-88.6	3.0	1.56e+00	0	47	104	0	60	1048575
2026-01-18 08:56:22.54	180.18	32.66	-85.2	-88.6	3.1	1.56e+00	0	47	104	0	60	1048575
2026-01-18 08:56:23.55	180.30	32.86	-85.2	-88.6	2.9	1.55e+00	0	47	104	0	60	1048575
2026-01-18 08:56:24.55	180.42	33.06	-85.2	-88.6	3.0	1.56e+00	0	47	104	0	60	1048573
2026-01-18 08:56:25.55	180.55	33.26	-85.2	-88.6	2.9	1.55e+00	0	47	104	0	60	1048574
2026-01-18 08:56:26.56	180.68	33.47	-85.2	-88.6	3.0	1.56e+00	0	47	104	0	60	1048575
2026-01-18 08:56:27.57	180.81	33.67	-85.2	-88.6	2.9	1.56e+00	0	47	104	0	60	1048574
2026-01-18 08:56:28.57	180.94	33.88	-85.2	-88.6	3.0	1.56e+00	0	47	104	0	60	1048575
2026-01-18 08:56:29.58	181.07	34.08	-85.2	-88.6	3.1	1.56e+00	0	47	104	0	60	1048574
2026-01-18 08:56:30.59	181.20	34.29	-85.2	-88.6	2.9	1.56e+00	0	47	104	0	60	1048575
2026-01-18 08:56:31.60	181.34	34.50	-85.2	-88.6	2.9	1.56e+00	0	47	104	0	60	1048575
2026-01-18 08:56:32.60	181.47	34.71	-85.2	-88.6	3.1	1.56e+00	0	47	104	0	60	1048575
2026-01-18 08:56:33.61	181.61	34.93	-85.2	-88.6	3.0	1.55e+00	0	47	104	0	60	1048574
2026-01-18 08:56:34.62	181.75	35.14	-85.2	-88.6	2.9	1.56e+00	0	47	104	0	60	1048575
2026-01-18 08:56:35.63	181.90	35.36	-85.2	-88.6	2.8	1.55e+00	0	47	104	0	60	1048574
2026-01-18 08:56:36.64	182.04	35.57	-85.2	-88.6	2.9	1.56e+00	0	47	104	0	60	1048574
2026-01-18 08:56:37.64	182.18	35.79	-85.2	-88.6	2.8	1.56e+00	0	47	104	0	60	1048574
2026-01-18 08:56:38.65	182.33	36.01	-85.2	-88.6	3.0	1.56e+00	0	47	104	0	60	1048575
2026-01-18 08:56:39.66	182.48	36.23	-85.2	-88.6	2.9	1.56e+00	0	47	104	0	60	1048575
2026-01-18 08:56:40.67	182.64	36.45	-85.2	-88.6	3.3	1.55e+00	0	47	104	0	60	1048573
2026-01-18 08:56:41.68	182.79	36.68	-85.2	-88.6	2.9	1.55e+00	0	47	104	0	60	1048571
2026-01-18 08:56:42.69	182.95	36.90	-85.2	-88.6	2.8	1.56e+00	0	47	104	0	60	1048575
2026-01-18 08:56:43.69	183.10	37.12	-85.2	-88.6	2.9	1.56e+00	0	47	104	0	60	1048575
2026-01-18 08:56:44.69	183.26	37.35	-85.2	-88.6	3.0	1.56e+00	0	47	104	0	60	1048572
2026-01-18 08:56:45.70	183.42	37.58	-85.2	-88.6	2.9	1.56e+00	0	47	104	0	60	1048574
2026-01-18 08:56:46.71	183.59	37.81	-85.2	-88.6	2.9	1.56e+00	0	47	104	0	60	1048575
2026-01-18 08:56:47.72	183.76	38.04	-85.2	-88.6	3.1	1.56e+00	0	47	104	0	60	1048572
2026-01-18 08:56:48.72	183.93	38.27	-85.2	-88.6	3.0	1.56e+00	0	47	104	0	60	1048575
2026-01-18 08:56:49.73	184.10	38.50	-85.2	-88.6	3.2	1.55e+00	0	47	104	0	60	1048575
2026-01-18 08:56:50.74	184.27	38.74	-85.2	-88.6	3.0	1.56e+00	0	47	104	0	60	1048575
2026-01-18 08:56:51.75	184.45	38.98	-85.2	-88.6	3.1	1.56e+00	0	47	104	0	60	1048572
2026-01-18 08:56:52.75	184.63	39.21	-85.2	-88.6	2.9	1.56e+00	0	47	104	0	60	1048575
2026-01-18 08:56:53.76	184.81	39.45	-85.2	-88.6	2.9	1.55e+00	0	47	104	0	60	1048574
2026-01-18 08:56:54.77	184.99	39.69	-85.2	-88.6	3.2	1.56e+00	0	47	104	0	60	1048575
2026-01-18 08:56:55.77	185.18	39.93	-85.2	-88.6	3.0	1.56e+00	0	47	104	0	60	1048575
2026-01-18 08:56:56.78	185.37	40.17	-85.2	-88.6	3.0	1.56e+00	0	47	104	0	60	1048574
2026-01-18 08:56:57.79	185.56	40.42	-85.2	-88.6	3.0	1.56e+00	0	47	104	0	60	1048575
2026-01-18 08:56:58.80	185.76	40.67	-85.2	-88.6	3.1	1.56e+00	0	47	104	0	60	1048575
2026-01-18 08:56:59.81	185.96	40.91	-85.2	-88.6	2.9	1.56e+00	0	47	104	0	60	1048575
2026-01-18 08:57:00.81	186.16	41.16	-85.2	-88.6	2.9	1.56e+00	0	47	104	0	60	1048574
2026-01-18 08:57:01.82	186.36	41.41	-85.2	-88.6	3.0	1.56e+00	0	47	104	0	60	1048575
2026-01-18 08:57:02.82	186.57	41.66	-85.2	-88.6	3.0	1.56e+00	0	47	104	0	60	1048572
2026-01-18 08:57:03.83	186.78	41.91	-85.2	-88.6	3.0	1.56e+00	0	47	104	0	60	1048575
2026-01-18 08:57:04.84	186.99	42.16	-85.2	-88.6	3.0	1.56e+00	0	47	104	0	60	1048573
2026-01-18 08:57:05.85	187.21	42.42	-85.2	-88.6	2.9	1.56e+00	0	47	104	0	60	1048574
2026-01-18 08:57:06.85	187.43	42.67	-85.2	-88.6	3.0	1.56e+00	0	47	104	0	60	1048575
2026-01-18 08:57:07.86	187.65	42.93	-85.2	-88.6	3.0	1.56e+00	0	47	104	0	60	1048575
2026-01-18 08:57:08.87	187.88	43.19	-85.2	-88.6	3.0	1.56e+00	0	47	104	0	60	1048572
2026-01-18 08:57:09.88	188.11	43.45	-84.7	-88.6	3.0	1.56e+00	0	47	104	0	60	1048575
2026-01-18 08:57:10.89	188.35	43.71	-85.2	-88.6	3.1	1.56e+00	0	47	104	0	60	1048575
2026-01-18 08:57:11.89	188.58	43.97	-84.7	-88.6	3.1	1.56e+00	0	47	104	0	60	1048574
2026-01-18 08:57:12.90	188.83	44.24	-85.2	-88.6	3.1	1.56e+00	0	47	104	0	60	1048574
2026-01-18 08:57:13.91	189.07	44.50	-85.2	-88.6	2.9	1.56e+00	0	47	104	0	60	1048574
2026-01-18 08:57:14.92	189.33	44.77	-85.2	-88.6	2.9	1.56e+00	0	47	104	0	60	1048575
2026-01-18 08:57:15.93	189.58	45.04	-85.2	-88.6	3.1	1.55e+00	0	47	104	0	60	1048573
2026-01-18 08:57:16.93	189.84	45.30	-85.2	-88.6	3.1	1.55e+00	0	47	104	0	60	1048573
2026-01-18 08:57:17.94	190.10	45.57	-85.2	-88.6	3.0	1.56e+00	0	47	104	0	60	1048572
2026-01-18 08:57:18.95	190.37	45.85	-85.2	-88.6	2.8	1.55e+00	0	47	104	0	60	1048572
2026-01-18 08:57:19.96	190.64	46.12	-85.2	-88.6	3.2	1.56e+00	0	47	104	0	60	1048575
2026-01-18 08:57:20.97	190.92	46.39	-85.2	-88.6	3.0	1.56e+00	0	47	104	0	60	1048575
2026-01-18 08:57:21.97	191.20	46.66	-85.2	-88.6	3.0	1.56e+00	0	47	104	0	60	1048574
2026-01-18 08:57:22.98	191.49	46.94	-85.2	-88.6	3.2	1.56e+00	0	47	104	0	60	1048573
2026-01-18 08:57:23.99	191.78	47.22	-85.2	-88.6	3.1	1.56e+00	0	47	104	0	60	1048575
2026-01-18 08:57:25.00	192.08	47.49	-85.2	-88.6	3.1	1.56e+00	0	47	104	0	60	1048575
2026-01-18 08:57:26.00	192.38	47.77	-85.2	-88.6	3.2	1.55e+00	0	47	104	0	60	1048575
2026-01-18 08:57:27.01	192.69	48.05	-85.2	-88.6	3.0	1.55e+00	0	47	104	0	60	1048575
2026-01-18 08:57:28.02	193.00	48.33	-85.2	-88.6	2.8	1.55e+00	0	47	104	0	60	1048575
2026-01-18 08:57:29.03	193.32	48.61	-85.2	-88.6	3.1	1.56e+00	0	47	104	0	60	1048574
2026-01-18 08:57:30.03	193.64	48.89	-85.2	-88.6	2.9	1.56e+00	0	47	104	0	60	1048575
2026-01-18 08:57:31.04	193.97	49.18	-85.2	-88.6	3.0	1.56e+00	0	47	104	0	60	1048574
2026-01-18 08:57:32.04	194.31	49.46	-85.2	-88.6	2.8	1.55e+00	0	47	104	0	60	1048573
2026-01-18 08:57:33.05	194.65	49.74	-85.2	-88.6	2.9	1.56e+00	0	47	104	0	60	1048575
2026-01-18 08:57:34.06	195.00	50.03	-85.2	-88.6	3.1	1.55e+00	0	47	104	0	60	1048573
2026-01-18 08:57:35.06	195.35	50.31	-85.2	-88.6	3.0	1.56e+00	0	47	104	0	60	1048573
2026-01-18 08:57:36.07	195.71	50.60	-85.2	-88.6	3.0	1.56e+00	0	47	104	0	60	1048574
2026-01-18 08:57:37.08	196.08	50.88	-85.2	-88.6	3.1	1.55e+00	0	47	104	0	60	1048574
2026-01-18 08:57:38.09	196.46	51.17	-85.2	-88.6	3.1	1.56e+00	0	47	104	0	60	1048573
2026-01-18 08:57:39.09	196.84	51.46	-85.2	-88.6	3.0	1.56e+00	0	47	104	0	60	1048573
2026-01-18 08:57:40.10	197.23	51.75	-85.2	-88.6	3.1	1.56e+00	0	47	104	0	60	1048574
2026-01-18 08:57:41.11	197.63	52.04	-85.2	-88.6	3.1	1.56e+00	0	47	104	0	60	1048574
2026-01-18 08:57:42.12	198.04	52.33	-85.2	-88.6	2.8	1.56e+00	0	47	104	0	60	1048570
2026-01-18 08:57:43.13	198.45	52.61	-85.2	-88.6	2.9	1.56e+00	0	47	104	0	60	1048575
2026-01-18 08:57:44.14	198.88	52.90	-85.2	-88.6	3.1	1.56e+00	0	47	104	0	60	1048572
2026-01-18 08:57:45.15	199.31	53.19	-85.2	-88.6	3.3	1.55e+00	0	47	104	0	60	1048575
2026-01-18 08:57:46.16	199.75	53.48	-85.2	-88.6	3.0	1.55e+00	0	47	104	0	60	1048575
2026-01-18 08:57:47.17	200.20	53.77	-85.2	-88.6	2.8	1.56e+00	0	47	104	0	60	1048575
2026-01-18 08:57:48.17	200.65	54.06	-84.3	-88.6	2.9	1.56e+00	0	47	104	0	60	1048575
2026-01-18 08:57:49.17	201.11	54.35	-85.2	-88.6	3.0	1.56e+00	0	47	104	0	60	1048575
2026-01-18 08:57:50.18	201.59	54.64	-85.2	-88.6	3.1	1.56e+00	0	47	104	0	60	1048575
2026-01-18 08:57:51.18	202.07	54.92	-85.2	-88.6	2.9	1.56e+00	0	47	104	0	60	1048575
2026-01-18 08:57:52.19	202.56	55.21	-85.2	-88.6	2.9	1.55e+00	0	47	104	0	60	1048575
2026-01-18 08:57:53.20	203.07	55.50	-85.2	-88.6	3.0	1.56e+00	0	47	104	0	60	1048575
2026-01-18 08:57:54.21	203.59	55.79	-85.2	-88.6	2.9	1.56e+00	0	47	104	0	60	1048575
2026-01-18 08:57:55.22	204.11	56.07	-85.2	-88.6	3.2	1.55e+00	0	47	104	0	60	1048575
2026-01-18 08:57:56.23	204.65	56.36	-85.2	-88.6	2.8	1.56e+00	0	47	104	0	60	1048575
2026-01-18 08:57:57.23	205.19	56.64	-85.2	-88.6	3.0	1.56e+00	0	47	104	0	60	1048572
2026-01-18 08:57:58.24	205.75	56.92	-84.7	-88.6	3.1	1.56e+00	0	47	104	0	60	1048574
2026-01-18 08:57:59.25	206.32	57.21	-85.2	-88.6	3.0	1.56e+00	0	47	104	0	60	1048575
2026-01-18 08:58:00.26	206.90	57.49	-85.2	-88.6	2.9	1.55e+00	0	47	104	0	60	1048575
2026-01-18 08:58:01.27	207.50	57.77	-85.2	-88.6	3.1	1.56e+00	0	47	104	0	60	1048574
2026-01-18 08:58:02.27	208.10	58.04	-85.2	-88.6	3.0	1.56e+00	0	47	104	0	60	1048575
2026-01-18 08:58:03.27	208.71	58.32	-85.2	-88.6	3.1	1.55e+00	0	47	104	0	60	1048575
2026-01-18 08:58:04.28	209.35	58.59	-85.2	-88.6	3.1	1.56e+00	0	47	104	0	60	1048574
2026-01-18 08:58:05.29	209.99	58.86	-85.2	-88.6	3.0	1.56e+00	0	47	104	0	60	1048573
2026-01-18 08:58:06.29	210.64	59.13	-85.2	-88.6	3.0	1.55e+00	0	47	104	0	60	1048574
2026-01-18 08:58:07.30	211.32	59.40	-85.2	-88.6	3.0	1.56e+00	0	47	104	0	60	1048575
2026-01-18 08:58:08.31	212.00	59.66	-85.2	-88.6	3.1	1.56e+00	0	47	104	0	60	1048575
2026-01-18 08:58:09.32	212.70	59.93	-85.2	-88.6	2.9	1.55e+00	0	47	104	0	60	1048575
2026-01-18 08:58:10.33	213.42	60.19	-85.2	-88.6	3.1	1.56e+00	0	47	104	0	60	1048573
2026-01-18 08:58:11.33	214.14	60.44	-85.2	-88.6	2.9	1.56e+00	0	47	104	0	60	1048574
2026-01-18 08:58:12.34	214.88	60.69	-85.2	-88.6	2.9	1.55e+00	0	47	104	0	60	1048574
2026-01-18 08:58:13.35	215.64	60.95	-85.2	-88.6	3.2	1.56e+00	0	47	104	0	60	1048573
2026-01-18 08:58:14.36	216.41	61.19	-85.2	-88.6	3.0	1.56e+00	0	47	104	0	60	1048573
2026-01-18 08:58:15.36	217.19	61.43	-85.2	-88.6	3.0	1.55e+00	0	47	104	0	60	1048575
2026-01-18 08:58:16.37	217.99	61.67	-85.2	-88.6	3.2	1.56e+00	0	47	104	0	60	1048575
2026-01-18 08:58:17.38	218.81	61.91	-85.2	-88.6	3.1	1.56e+00	0	47	104	0	60	1048575
2026-01-18 08:58:18.39	219.65	62.14	-85.2	-88.6	2.9	1.56e+00	0	47	104	0	60	1048575
2026-01-18 08:58:19.40	220.50	62.37	-85.2	-88.6	3.2	1.56e+00	0	47	104	0	60	1048574
2026-01-18 08:58:20.41	221.36	62.59	-85.2	-88.6	3.0	1.55e+00	0	47	104	0	60	1048575
2026-01-18 08:58:21.42	222.25	62.81	-85.2	-88.6	3.1	1.56e+00	0	47	104	0	60	1048573
2026-01-18 08:58:22.42	223.13	63.02	-85.2	-88.6	3.1	1.56e+00	0	47	104	0	60	1048575
2026-01-18 08:58:23.43	224.05	63.23	-84.7	-88.6	3.1	1.56e+00	0	47	104	0	60	1048575
2026-01-18 08:58:24.44	224.98	63.43	-85.2	-88.6	2.9	1.56e+00	0	47	104	0	60	1048575
2026-01-18 08:58:25.45	225.92	63.62	-85.2	-88.6	3.1	1.56e+00	0	47	104	0	60	1048575
2026-01-18 08:58:26.45	226.87	63.81	-85.2	-88.6	3.1	1.55e+00	0	47	104	0	60	1048573
2026-01-18 08:58:27.46	227.85	64.00	-85.2	-88.6	2.7	1.55e+00	0	47	104	0	60	1048574
2026-01-18 08:58:28.47	228.84	64.17	-85.2	-88.6	2.9	1.56e+00	0	47	104	0	60	1048575
2026-01-18 08:58:29.48	229.85	64.34	-85.2	-88.6	2.9	1.56e+00	0	47	104	0	60	1048569
2026-01-18 08:58:30.48	230.86	64.51	-85.2	-88.6	3.1	1.56e+00	0	47	104	0	60	1048575
2026-01-18 08:58:31.49	231.89	64.67	-85.2	-88.6	3.0	1.55e+00	0	47	104	0	60	1048575
2026-01-18 08:58:32.50	232.94	64.82	-85.2	-88.6	3.0	1.56e+00	0	47	104	0	60	1048575
2026-01-18 08:58:33.51	234.00	64.96	-84.7	-88.6	3.0	1.56e+00	0	47	104	0	60	1048573
2026-01-18 08:58:34.52	235.08	65.10	-85.2	-88.6	3.2	1.56e+00	0	47	104	0	60	1048575
2026-01-18 08:58:35.53	236.17	65.22	-85.2	-88.6	3.0	1.56e+00	0	47	104	0	60	1048575
2026-01-18 08:58:36.53	237.26	65.34	-85.2	-88.6	3.1	1.56e+00	0	47	104	0	60	1048575
2026-01-18 08:58:37.54	238.37	65.45	-85.2	-88.6	2.9	1.56e+00	0	47	104	0	60	1048575
2026-01-18 08:58:38.55	239.49	65.56	-84.7	-88.6	2.9	1.55e+00	0	47	104	0	60	1048574
2026-01-18 08:58:39.56	240.63	65.65	-85.2	-88.6	3.0	1.56e+00	0	47	104	0	60	1048575
2026-01-18 08:58:40.56	241.76	65.74	-85.2	-88.6	2.9	1.55e+00	0	47	104	0	60	1048575
2026-01-18 08:58:41.56	242.90	65.82	-85.2	-88.6	3.0	1.56e+00	0	47	104	0	60	1048573
2026-01-18 08:58:42.56	244.04	65.89	-85.2	-88.6	3.0	1.56e+00	0	47	104	0	60	1048575
2026-01-18 08:58:43.57	245.21	65.95	-85.2	-88.6	3.2	1.56e+00	0	47	104	0	60	1048573
2026-01-18 08:58:44.58	246.38	66.00	-85.2	-88.6	3.1	1.56e+00	0	47	104	0	60	1048575
2026-01-18 08:58:45.59	247.56	66.04	-85.2	-88.6	3.1	1.56e+00	0	47	104	0	60	1048575
2026-01-18 08:58:46.59	248.73	66.08	-85.2	-88.6	3.2	1.55e+00	0	47	104	0	60	1048575
2026-01-18 08:58:47.60	249.91	66.10	-85.2	-88.6	3.0	1.56e+00	0	47	104	0	60	1048574
2026-01-18 08:58:48.60	251.09	66.12	-85.2	-88.6	2.8	1.55e+00	0	47	104	0	60	1048574
2026-01-18 08:58:49.61	252.27	66.12	-85.2	-88.6	3.1	1.56e+00	0	47	104	0	60	1048573
2026-01-18 08:58:50.62	253.46	66.12	-85.2	-88.6	2.8	1.56e+00	0	47	104	0	60	1048575
2026-01-18 08:58:51.63	254.65	66.11	-85.2	-88.6	3.0	1.56e+00	0	47	104	0	60	1048575
2026-01-18 08:58:52.64	255.83	66.09	-85.2	-88.6	3.0	1.56e+00	0	47	104	0	60	1048575
2026-01-18 08:58:53.64	257.00	66.06	-84.7	-88.6	3.0	1.56e+00	0	47	104	0	60	1048575
2026-01-18 08:58:54.65	258.18	66.02	-85.2	-88.6	3.1	1.56e+00	0	47	104	0	60	1048575
2026-01-18 08:58:55.65	259.34	65.97	-85.2	-88.6	3.0	1.55e+00	0	47	104	0	60	1048575
2026-01-18 08:58:56.66	260.51	65.92	-85.2	-88.6	3.0	1.55e+00	0	47	104	0	60	1048575
2026-01-18 08:58:57.67	261.67	65.85	-85.2	-88.6	2.9	1.56e+00	0	47	104	0	60	1048574
2026-01-18 08:58:58.67	262.81	65.78	-85.2	-88.6	3.0	1.55e+00	0	47	104	0	60	1048575
2026-01-18 08:58:59.68	263.96	65.69	-85.2	-88.6	3.1	1.56e+00	0	47	104	0	60	1048574
2026-01-18 08:59:00.68	265.08	65.60	-85.2	-88.6	2.8	1.56e+00	0	47	104	0	60	1048569
2026-01-18 08:59:01.68	266.20	65.50	-85.2	-88.6	3.0	1.56e+00	0	47	104	0	60	1048575
2026-01-18 08:59:02.68	267.31	65.39	-84.3	-88.6	3.2	1.56e+00	0	47	104	0	60	1048575
2026-01-18 08:59:03.69	268.41	65.28	-85.2	-88.6	2.8	1.55e+00	0	47	104	0	60	1048574
2026-01-18 08:59:04.69	269.49	65.16	-85.2	-88.6	2.9	1.56e+00	0	47	104	0	60	1048575
2026-01-18 08:59:05.70	270.57	65.02	-85.2	-88.6	2.9	1.56e+00	0	47	104	0	60	1048575
2026-01-18 08:59:06.71	271.64	64.88	-85.2	-88.6	2.9	1.56e+00	0	47	104	0	60	1048574
2026-01-18 08:59:07.72	272.70	64.74	-85.2	-88.6	2.9	1.56e+00	0	47	104	0	60	1048574
2026-01-18 08:59:08.73	273.74	64.58	-85.2	-88.6	2.7	1.56e+00	0	47	104	0	60	1048575
2026-01-18 08:59:09.73	274.75	64.42	-85.2	-88.6	3.0	1.55e+00	0	47	104	0	60	1048571
2026-01-18 08:59:10.73	275.76	64.26	-85.2	-88.6	3.0	1.56e+00	0	47	104	0	60	1048573
2026-01-18 08:59:11.73	276.74	64.08	-85.2	-88.6	3.1	1.56e+00	0	47	104	0	60	1048575
2026-01-18 08:59:12.74	277.73	63.90	-85.2	-88.6	3.0	1.55e+00	0	47	104	0	60	1048575
2026-01-18 08:59:13.75	278.69	63.72	-85.2	-88.6	2.9	1.55e+00	0	47	104	0	60	1048575
2026-01-18 08:59:14.76	279.64	63.52	-85.2	-88.6	3.1	1.56e+00	0	47	104	0	60	1048575
2026-01-18 08:59:15.77	280.58	63.32	-85.2	-88.6	2.9	1.55e+00	0	47	104	0	60	1048574
2026-01-18 08:59:16.77	281.49	63.12	-85.2	-88.6	3.0	1.55e+00	0	47	104	0	60	1048574
2026-01-18 08:59:17.78	282.39	62.91	-85.2	-88.6	3.0	1.56e+00	0	47	104	0	60	1048573
2026-01-18 08:59:18.79	283.28	62.70	-85.2	-88.6	3.1	1.56e+00	0	47	104	0	60	1048575
2026-01-18 08:59:19.79	284.15	62.48	-85.2	-88.6	3.2	1.56e+00	0	47	104	0	60	1048574
2026-01-18 08:59:20.80	285.00	62.26	-85.2	-88.6	2.9	1.56e+00	0	47	104	0	60	1048572
2026-01-18 08:59:21.81	285.84	62.03	-85.2	-88.6	3.0	1.56e+00	0	47	104	0	60	1048574
2026-01-18 08:59:22.82	286.67	61.79	-85.2	-88.6	3.0	1.55e+00	0	47	104	0	60	1048575
2026-01-18 08:59:23.82	287.47	61.56	-85.2	-88.6	3.1	1.55e+00	0	47	104	0	60	1048575
2026-01-18 08:59:24.83	288.27	61.32	-85.2	-88.6	3.1	1.55e+00	0	47	104	0	60	1048575
2026-01-18 08:59:25.84	289.05	61.07	-85.2	-88.6	3.1	1.56e+00	0	47	104	0	60	1048574
2026-01-18 08:59:26.85	289.81	60.82	-85.2	-88.6	3.0	1.56e+00	0	47	104	0	60	1048574
2026-01-18 08:59:27.85	290.55	60.57	-85.2	-88.6	3.1	1.56e+00	0	47	104	0	60	1048573
2026-01-18 08:59:28.86	291.29	60.32	-84.7	-88.6	2.9	1.56e+00	0	47	104	0	60	1048574
2026-01-18 08:59:29.87	292.01	60.06	-85.2	-88.6	3.1	1.55e+00	0	47	104	0	60	1048574
2026-01-18 08:59:30.88	292.71	59.80	-85.2	-88.6	2.9	1.56e+00	0	47	104	0	60	1048574
2026-01-18 08:59:31.88	293.40	59.54	-85.2	-88.6	3.0	1.56e+00	0	47	104	0	60	1048574
2026-01-18 08:59:32.88	294.07	59.28	-84.3	-88.6	2.9	1.56e+00	0	47	104	0	60	1048570
2026-01-18 08:59:33.89	294.73	59.01	-85.2	-88.6	3.1	1.56e+00	0	47	104	0	60	1048574
2026-01-18 08:59:34.89	295.38	58.74	-85.2	-88.6	2.9	1.56e+00	0	47	104	0	60	1048573
2026-01-18 08:59:35.90	296.02	58.47	-85.2	-88.6	2.8	1.56e+00	0	47	104	0	60	1048574
2026-01-18 08:59:36.91	296.64	58.19	-85.2	-88.6	3.2	1.56e+00	0	47	104	0	60	1048574
2026-01-18 08:59:37.92	297.25	57.92	-85.2	-88.6	2.7	1.56e+00	0	47	104	0	60	1048575
2026-01-18 08:59:38.93	297.85	57.64	-85.2	-88.6	2.9	1.56e+00	0	47	104	0	60	1048575
2026-01-18 08:59:39.93	298.44	57.36	-85.2	-88.6	3.1	1.56e+00	0	47	104	0	60	1048574
2026-01-18 08:59:40.94	299.01	57.08	-85.2	-88.6	3.0	1.56e+00	0	47	104	0	60	1048574
2026-01-18 08:59:41.95	299.58	56.80	-85.2	-88.6	3.1	1.56e+00	0	47	104	0	60	1048575
2026-01-18 08:59:42.96	300.13	56.51	-85.2	-88.6	2.9	1.56e+00	0	47	104	0	60	1048575
2026-01-18 08:59:43.97	300.67	56.23	-85.2	-88.6	2.9	1.56e+00	0	47	104	0	60	1048574
2026-01-18 08:59:44.97	301.20	55.95	-85.2	-88.6	3.1	1.55e+00	0	47	104	0	60	1048570
2026-01-18 08:59:45.98	301.72	55.66	-85.2	-88.6	2.9	1.56e+00	0	47	104	0	60	1048575
2026-01-18 08:59:46.99	302.23	55.38	-85.2	-88.6	2.9	1.56e+00	0	47	104	0	60	1048571
2026-01-18 08:59:48.00	302.73	55.09	-85.2	-88.6	3.2	1.56e+00	0	47	104	0	60	1048574
2026-01-18 08:59:49.00	303.21	54.80	-85.2	-88.6	3.0	1.55e+00	0	47	104	0	60	1048575
2026-01-18 08:59:50.01	303.69	54.52	-85.2	-88.6	3.0	1.56e+00	0	47	104	0	60	1048575
2026-01-18 08:59:51.02	304.16	54.23	-85.2	-88.6	3.0	1.56e+00	0	47	104	0	60	1048574
2026-01-18 08:59:52.03	304.62	53.94	-85.2	-88.6	3.0	1.56e+00	0	47	104	0	60	1048575
2026-01-18 08:59:53.04	305.08	53.65	-85.2	-88.6	3.2	1.56e+00	0	47	104	0	60	1048575
2026-01-18 08:59:54.05	305.52	53.36	-85.2	-88.6	2.8	1.56e+00	0	47	104	0	60	1048575
2026-01-18 08:59:55.05	305.95	53.07	-85.2	-88.6	3.1	1.55e+00	0	47	104	0	60	1048575
2026-01-18 08:59:56.06	306.38	52.79	-85.2	-88.6	3.0	1.56e+00	0	47	104	0	60	1048567
2026-01-18 08:59:57.07	306.79	52.50	-85.2	-88.6	3.0	1.56e+00	0	47	104	0	60	1048575
2026-01-18 08:59:58.08	307.21	52.21	-85.2	-88.6	3.0	1.55e+00	0	47	104	0	60	1048575
2026-01-18 08:59:59.08	307.60	51.92	-85.2	-88.6	3.1	1.56e+00	0	47	104	0	60	1048574
2026-01-18 09:00:00.09	308.00	51.63	-85.2	-88.6	3.1	1.56e+00	0	47	104	0	60	1048574
2026-01-18 09:00:01.09	308.38	51.35	-85.2	-88.6	2.8	1.56e+00	0	47	104	0	60	1048574
2026-01-18 09:00:02.10	308.76	51.06	-85.2	-88.6	3.1	1.56e+00	0	47	104	0	60	1048574
2026-01-18 09:00:03.10	309.13	50.78	-85.2	-88.6	3.1	1.56e+00	0	47	104	0	60	1048575
2026-01-18 09:00:04.10	309.49	50.50	-85.2	-88.6	2.7	1.56e+00	0	47	104	0	60	1048574
2026-01-18 09:00:05.11	309.85	50.21	-85.2	-88.6	3.1	1.56e+00	0	47	104	0	60	1048574
2026-01-18 09:00:06.12	310.21	49.93	-85.2	-88.6	2.9	1.55e+00	0	47	104	0	60	1048573
2026-01-18 09:00:07.13	310.55	49.64	-85.2	-88.6	3.0	1.55e+00	0	47	104	0	60	1048575
2026-01-18 09:00:08.13	310.89	49.36	-85.2	-88.6	3.0	1.55e+00	0	47	104	0	60	1048574
2026-01-18 09:00:09.14	311.22	49.08	-85.2	-88.6	2.9	1.55e+00	0	47	104	0	60	1048574
2026-01-18 09:00:10.15	311.55	48.80	-85.2	-88.6	3.2	1.56e+00	0	47	104	0	60	1048575
2026-01-18 09:00:11.16	311.87	48.51	-85.2	-88.6	3.1	1.56e+00	0	47	104	0	60	1048573
2026-01-18 09:00:12.17	312.19	48.23	-85.2	-88.6	2.8	1.55e+00	0	47	104	0	60	1048575
2026-01-18 09:00:13.17	312.50	47.96	-85.2	-88.6	2.9	1.56e+00	0	47	104	0	60	1048575
2026-01-18 09:00:14.18	312.80	47.68	-85.2	-88.6	3.0	1.55e+00	0	47	104	0	60	1048574
2026-01-18 09:00:15.19	313.10	47.40	-85.2	-88.6	2.9	1.55e+00	0	47	104	0	60	1048575
2026-01-18 09:00:16.20	313.40	47.13	-85.2	-88.6	3.1	1.56e+00	0	47	104	0	60	1048572
2026-01-18 09:00:17.20	313.68	46.85	-85.2	-88.6	2.9	1.56e+00	0	47	104	0	60	1048574
2026-01-18 09:00:18.21	313.97	46.58	-85.2	-88.6	2.9	1.56e+00	0	47	104	0	60	1048572
2026-01-18 09:00:19.22	314.25	46.31	-85.2	-88.6	2.9	1.56e+00	0	47	104	0	60	1048573
2026-01-18 09:00:20.23	314.52	46.03	-85.2	-88.6	2.9	1.56e+00	0	47	104	0	60	1048574
2026-01-18 09:00:21.23	314.79	45.77	-85.2	-88.6	2.9	1.56e+00	0	47	104	0	60	1048575
2026-01-18 09:00:22.23	315.05	45.50	-85.2	-88.6	2.8	1.55e+00	0	47	104	0	60	1048574
2026-01-18 09:00:23.24	315.32	45.23	-85.2	-88.6	3.0	1.55e+00	0	47	104	0	60	1048574
2026-01-18 09:00:24.24	315.57	44.97	-85.2	-88.6	2.8	1.55e+00	0	47	104	0	60	1048574
2026-01-18 09:00:25.25	315.82	44.70	-85.2	-88.6	3.0	1.56e+00	0	47	104	0	60	1048575
2026-01-18 09:00:26.26	316.07	44.43	-85.2	-88.6	3.0	1.56e+00	0	47	104	0	60	1048572
2026-01-18 09:00:27.27	316.32	44.17	-85.2	-88.6	3.0	1.55e+00	0	47	104	0	60	1048569
2026-01-18 09:00:28.28	316.56	43.91	-85.2	-88.6	2.7	1.55e+00	0	47	104	0	60	1048573
2026-01-18 09:00:29.28	316.79	43.65	-85.2	-88.6	3.0	1.56e+00	0	47	104	0	60	1048575
2026-01-18 09:00:30.29	317.03	43.39	-85.2	-88.6	3.2	1.55e+00	0	47	104	0	60	1048575
2026-01-18 09:00:31.30	317.26	43.13	-85.2	-88.6	3.1	1.56e+00	0	47	104	0	60	1048575
2026-01-18 09:00:32.31	317.48	42.87	-85.2	-88.6	2.9	1.56e+00	0	47	104	0	60	1048575
2026-01-18 09:00:33.31	317.71	42.62	-85.2	-88.6	2.9	1.56e+00	0	47	104	0	60	1048575
2026-01-18 09:00:34.31	317.92	42.37	-85.2	-88.6	3.2	1.56e+00	0	47	104	0	60	1048575
2026-01-18 09:00:35.32	318.14	42.11	-85.2	-88.6	3.1	1.56e+00	0	47	104	0	60	1048575
2026-01-18 09:00:36.32	318.35	41.86	-85.2	-88.6	3.2	1.56e+00	0	47	104	0	60	1048573
2026-01-18 09:00:37.33	318.56	41.61	-85.2	-88.6	2.8	1.56e+00	0	47	104	0	60	1048574
2026-01-18 09:00:38.34	318.76	41.36	-85.2	-88.6	3.1	1.56e+00	0	47	104	0	60	1048573
2026-01-18 09:00:39.35	318.97	41.11	-85.2	-88.6	2.8	1.56e+00	0	47	104	0	60	1048574
2026-01-18 09:00:40.36	319.17	40.87	-85.2	-88.6	2.9	1.55e+00	0	47	104	0	60	1048574
2026-01-18 09:00:41.37	319.37	40.62	-85.2	-88.6	3.2	1.56e+00	0	47	104	0	60	1048574
2026-01-18 09:00:42.37	319.56	40.38	-85.2	-88.6	3.0	1.56e+00	0	47	104	0	60	1048575
2026-01-18 09:00:43.38	319.75	40.13	-85.2	-88.6	2.9	1.56e+00	0	47	104	0	60	1048575
2026-01-18 09:00:44.39	319.94	39.89	-85.2	-88.6	2.9	1.56e+00	0	47	104	0	60	1048574
2026-01-18 09:00:45.40	320.12	39.65	-85.2	-88.6	3.0	1.56e+00	0	47	104	0	60	1048575
2026-01-18 09:00:46.41	320.31	39.41	-85.2	-88.6	2.9	1.56e+00	0	47	104	0	60	1048575
2026-01-18 09:00:47.41	320.49	39.18	-85.2	-88.6	3.1	1.55e+00	0	47	104	0	60	1048570
2026-01-18 09:00:48.42	320.66	38.94	-85.2	-88.6	2.9	1.56e+00	0	47	104	0	60	1048574
2026-01-18 09:00:49.43	320.84	38.71	-85.2	-88.6	3.1	1.55e+00	0	47	104	0	60	1048574
2026-01-18 09:00:50.44	321.01	38.47	-85.2	-88.6	2.9	1.56e+00	0	47	104	0	60	1048575
2026-01-18 09:00:51.44	321.18	38.24	-85.2	-88.6	3.0	1.56e+00	0	47	104	0	60	1048571
2026-01-18 09:00:52.45	321.35	38.01	-85.2	-88.6	3.2	1.55e+00	0	47	104	0	60	1048572
2026-01-18 09:00:53.46	321.52	37.78	-85.2	-88.6	3.2	1.56e+00	0	47	104	0	60	1048574
2026-01-18 09:00:54.47	321.68	37.55	-85.2	-88.6	3.0	1.55e+00	0	47	104	0	60	1048571
2026-01-18 09:00:55.47	321.84	37.33	-85.2	-88.6	2.9	1.55e+00	0	47	104	0	60	1048575
2026-01-18 09:00:56.48	322.00	37.10	-85.2	-88.6	3.1	1.56e+00	0	47	104	0	60	1048572
2026-01-18 09:00:57.49	322.16	36.88	-85.2	-88.6	2.9	1.55e+00	0	47	104	0	60	1048574
2026-01-18 09:00:58.49	322.31	36.66	-85.2	-88.6	2.7	1.55e+00	0	47	104	0	60	1048574
2026-01-18 09:00:59.50	322.47	36.43	-85.2	-88.6	3.0	1.55e+00	0	47	104	0	60	1048574
2026-01-18 09:01:00.51	322.62	36.21	-85.2	-88.6	2.8	1.56e+00	0	47	104	0	60	1048574
2026-01-18 09:01:01.52	322.77	35.99	-85.2	-88.6	3.1	1.56e+00	0	47	104	0	60	1048575
2026-01-18 09:01:02.53	322.91	35.78	-85.2	-88.6	3.1	1.56e+00	0	47	104	0	60	1048575
2026-01-18 09:01:03.53	323.06	35.56	-85.2	-88.6	3.0	1.56e+00	0	47	104	0	60	1048573
2026-01-18 09:01:04.54	323.20	35.35	-85.2	-88.6	2.8	1.55e+00	0	47	104	0	60	1048575
2026-01-18 09:01:05.55	323.34	35.13	-85.2	-88.6	3.1	1.56e+00	0	47	104	0	60	1048573
2026-01-18 09:01:06.55	323.48	34.92	-85.2	-88.6	2.8	1.56e+00	0	47	104	0	60	1048572
2026-01-18 09:01:07.56	323.62	34.71	-85.2	-88.6	3.1	1.55e+00	0	47	104	0	60	1048575
2026-01-18 09:01:08.56	323.76	34.50	-85.2	-88.6	3.0	1.56e+00	0	47	104	0	60	1048575
2026-01-18 09:01:09.57	323.89	34.29	-85.2	-88.6	2.8	1.55e+00	0	47	104	0	60	1048574
2026-01-18 09:01:10.58	324.03	34.08	-85.2	-88.6	2.9	1.55e+00	0	47	104	0	60	1048575
2026-01-18 09:01:11.59	324.16	33.88	-85.2	-88.6	3.0	1.55e+00	0	47	104	0	60	1048573
2026-01-18 09:01:12.60	324.29	33.67	-85.2	-88.6	2.8	1.56e+00	0	47	104	0	60	1048575
2026-01-18 09:01:13.61	324.42	33.47	-85.2	-88.6	2.9	1.56e+00	0	47	104	0	60	1048574
2026-01-18 09:01:14.61	324.54	33.27	-85.2	-88.6	2.9	1.56e+00	0	47	104	0	60	1048573
2026-01-18 09:01:15.62	324.67	33.06	-85.2	-88.6	3.0	1.56e+00	0	47	104	0	60	1048575
2026-01-18 09:01:16.63	324.79	32.86	-85.2	-88.6	2.8	1.56e+00	0	47	104	0	60	1048574
2026-01-18 09:01:17.64	324.91	32.66	-85.2	-88.6	3.0	1.55e+00	0	47	104	0	60	1048575
2026-01-18 09:01:18.65	325.03	32.46	-85.2	-88.6	2.8	1.56e+00	0	47	104	0	60	1048569
2026-01-18 09:01:19.65	325.15	32.27	-85.2	-88.6	3.1	1.56e+00	0	47	104	0	60	1048574
2026-01-18 09:01:20.66	325.27	32.07	-85.2	-88.6	3.0	1.56e+00	0	47	104	0	60	1048574
2026-01-18 09:01:21.67	325.39	31.88	-85.2	-88.6	2.8	1.56e+00	0	47	104	0	60	1048575
2026-01-18 09:01:22.67	325.50	31.69	-85.2	-88.6	3.1	1.55e+00	0	47	104	0	60	1048575
2026-01-18 09:01:23.68	325.62	31.49	-85.2	-88.6	3.0	1.56e+00	0	47	104	0	60	1048574
2026-01-18 09:01:24.68	325.73	31.30	-85.2	-88.6	2.8	1.55e+00	0	47	104	0	60	1048575
2026-01-18 09:01:25.69	325.84	31.11	-85.2	-88.6	2.7	1.56e+00	0	47	104	0	60	1048575
2026-01-18 09:01:26.70	325.95	30.93	-85.2	-88.6	3.0	1.56e+00	0	47	104	0	60	1048572
2026-01-18 09:01:27.71	326.06	30.74	-85.2	-88.6	2.9	1.55e+00	0	47	104	0	60	1048574
2026-01-18 09:01:28.71	326.17	30.55	-85.2	-88.6	3.1	1.56e+00	0	47	104	0	60	1048571
2026-01-18 09:01:29.72	326.27	30.37	-85.2	-88.6	3.0	1.55e+00	0	47	104	0	60	1048575
2026-01-18 09:01:30.72	326.38	30.18	-85.2	-88.6	2.7	1.56e+00	0	47	104	0	60	1048575
2026-01-18 09:01:31.73	326.48	30.00	-85.2	-88.6	3.1	1.55e+00	0	47	104	0	60	1048574
2026-01-18 09:01:32.74	326.59	29.82	-85.2	-88.6	3.1	1.56e+00	0	47	104	0	60	1048574
2026-01-18 09:01:33.75	326.69	29.64	-85.2	-88.6	3.1	1.56e+00	0	47	104	0	60	1048575
2026-01-18 09:01:34.76	326.79	29.46	-85.2	-88.6	2.8	1.56e+00	0	47	104	0	60	1048575
2026-01-18 09:01:35.77	326.89	29.28	-85.2	-88.6	2.9	1.55e+00	0	47	104	0	60	1048574
2026-01-18 09:01:36.77	326.99	29.10	-85.2	-88.6	2.8	1.55e+00	0	47	104	0	60	1048575
2026-01-18 09:01:37.78	327.09	28.92	-85.2	-88.6	3.0	1.56e+00	0	47	104	0	60	1048575
2026-01-18 09:01:38.79	327.18	28.75	-85.2	-88.6	3.2	1.56e+00	0	47	104	0	60	1048573
2026-01-18 09:01:39.79	327.28	28.57	-85.2	-88.6	3.1	1.56e+00	0	47	104	0	60	1048575
2026-01-18 09:01:40.80	327.37	28.40	-85.2	-88.6	3.1	1.56e+00	0	47	104	0	60	1048574
2026-01-18 09:01:41.80	327.47	28.23	-85.2	-88.6	3.1	1.55e+00	0	47	104	0	60	1048575
2026-01-18 09:01:42.81	327.56	28.05	-85.2	-88.6	2.8	1.56e+00	0	47	104	0	60	1048574
2026-01-18 09:01:43.81	327.65	27.88	-85.2	-88.6	2.9	1.56e+00	0	47	104	0	60	1048575
2026-01-18 09:01:44.82	327.74	27.71	-85.2	-88.6	3.1	1.56e+00	0	47	104	0	60	1048575
2026-01-18 09:01:45.83	327.83	27.55	-85.2	-88.6	3.1	1.56e+00	0	47	104	0	60	1048575
2026-01-18 09:01:46.83	327.92	27.38	-85.2	-88.6	2.8	1.56e+00	0	47	104	0	60	1048575
2026-01-18 09:01:47.84	328.01	27.21	-85.2	-88.6	2.9	1.56e+00	0	47	104	0	60	1048574
2026-01-18 09:01:48.84	328.10	27.05	-85.2	-88.6	3.1	1.55e+00	0	47	104	0	60	1048575
2026-01-18 09:01:49.85	328.19	26.88	-85.2	-88.6	2.9	1.56e+00	0	47	104	0	60	1048568
2026-01-18 09:01:50.85	328.27	26.72	-85.2	-88.6	3.0	1.55e+00	0	47	104	0	60	1048575
2026-01-18 09:01:51.86	328.36	26.55	-85.2	-88.6	2.8	1.56e+00	0	47	104	0	60	1048575
2026-01-18 09:01:52.87	328.44	26.39	-85.2	-88.6	3.0	1.56e+00	0	47	104	0	60	1048574
2026-01-18 09:01:53.88	328.52	26.23	-84.7	-88.6	2.9	1.55e+00	0	47	104	0	60	1048575
2026-01-18 09:01:54.88	328.61	26.07	-84.7	-88.6	3.0	1.55e+00	0	47	104	0	60	1048573
2026-01-18 09:01:55.89	328.69	25.91	-85.2	-88.6	3.1	1.56e+00	0	47	104	0	60	1048575
2026-01-18 09:01:56.90	328.77	25.75	-85.2	-88.6	3.1	1.56e+00	0	47	104	0	60	1048575
2026-01-18 09:01:57.91	328.85	25.59	-85.2	-88.6	3.1	1.56e+00	0	47	104	0	60	1048575
2026-01-18 09:01:58.92	328.93	25.44	-82.8	-88.6	3.1	1.56e+00	0	47	104	0	60	1048575
2026-01-18 09:01:59.93	329.01	25.28	-85.2	-88.6	3.0	1.56e+00	0	47	104	0	60	1048575
2026-01-18 09:02:00.93	329.08	25.13	-85.2	-88.6	3.1	1.56e+00	0	47	104	0	60	1048573
2026-01-18 09:02:01.94	329.16	24.97	-85.2	-88.6	3.1	1.56e+00	0	47	104	0	60	1048575
2026-01-18 09:02:02.94	329.24	24.82	-85.2	-88.6	2.9	1.55e+00	0	47	104	0	60	1048575
2026-01-18 09:02:03.95	329.31	24.67	-85.2	-88.6	3.1	1.56e+00	0	47	104	0	60	1048575
2026-01-18 09:02:04.96	329.39	24.51	-85.2	-88.6	3.2	1.55e+00	0	47	104	0	60	1048575
2026-01-18 09:02:05.97	329.46	24.36	-85.2	-88.6	2.8	1.55e+00	0	47	104	0	60	1048575
2026-01-18 09:02:06.97	329.54	24.21	-85.2	-88.6	2.9	1.55e+00	0	47	104	0	60	1048574
2026-01-18 09:02:07.98	329.61	24.06	-85.2	-88.6	2.9	1.56e+00	0	47	104	0	60	1048575
2026-01-18 09:02:08.99	329.68	23.92	-85.2	-88.6	2.9	1.55e+00	0	47	104	0	60	1048572
2026-01-18 09:02:10.00	329.76	23.77	-85.2	-88.6	2.8	1.56e+00	0	47	104	0	60	1048574
2026-01-18 09:02:11.01	329.83	23.62	-85.2	-88.6	3.0	1.55e+00	0	47	104	0	60	1048573
2026-01-18 09:02:12.02	329.90	23.47	-85.2	-88.6	3.1	1.55e+00	0	47	104	0	60	1048575
2026-01-18 09:02:13.02	329.97	23.33	-85.2	-88.6	3.1	1.56e+00	0	47	104	0	60	1048575
2026-01-18 09:02:14.03	330.04	23.18	-85.2	-88.6	3.2	1.56e+00	0	47	104	0	60	1048575
2026-01-18 09:02:15.04	330.11	23.04	-85.2	-88.6	3.2	1.56e+00	0	47	104	0	60	1048575
2026-01-18 09:02:16.04	330.17	22.90	-85.2	-88.6	3.0	1.55e+00	0	47	104	0	60	1048574
2026-01-18 09:02:17.05	330.24	22.76	-85.2	-88.6	2.9	1.56e+00	0	47	104	0	60	1048571
2026-01-18 09:02:18.06	330.31	22.61	-84.7	-88.6	3.1	1.56e+00	0	47	104	0	60	1048575
2026-01-18 09:02:19.07	330.38	22.47	-85.2	-88.6	2.9	1.56e+00	0	47	104	0	60	1048575
2026-01-18 09:02:20.07	330.44	22.33	-85.2	-88.6	3.1	1.56e+00	0	47	104	0	60	1048575
2026-01-18 09:02:21.08	330.51	22.19	-85.2	-88.6	3.0	1.55e+00	0	47	104	0	60	1048575
2026-01-18 09:02:22.09	330.57	22.06	-85.2	-88.6	3.0	1.56e+00	0	47	104	0	60	1048575
2026-01-18 09:02:23.09	330.64	21.92	-85.2	-88.6	2.9	1.56e+00	0	47	104	0	60	1048575
2026-01-18 09:02:24.10	330.70	21.78	-85.2	-88.6	3.1	1.55e+00	0	47	104	0	60	1048575
2026-01-18 09:02:25.11	330.76	21.64	-84.7	-88.6	3.0	1.55e+00	0	47	104	0	60	1048575
2026-01-18 09:02:26.12	330.83	21.51	-85.2	-88.6	3.1	1.56e+00	0	47	104	0	60	1048575
2026-01-18 09:02:27.13	330.89	21.37	-83.5	-88.6	2.9	1.55e+00	0	47	104	0	60	1048575
2026-01-18 09:02:28.13	330.95	21.24	-85.2	-88.6	3.1	1.55e+00	0	47	104	0	60	1048575
2026-01-18 09:02:29.14	331.01	21.11	-84.7	-88.6	3.1	1.56e+00	0	47	104	0	60	1048574
2026-01-18 09:02:30.14	331.07	20.97	-85.2	-88.6	3.0	1.56e+00	0	47	104	0	60	1048575
2026-01-18 09:02:31.15	331.13	20.84	-85.2	-88.6	3.2	1.56e+00	0	47	104	0	60	1048574
2026-01-18 09:02:32.15	331.19	20.71	-85.2	-88.6	3.1	1.55e+00	0	47	104	0	60	1048575
2026-01-18 09:02:33.16	331.25	20.58	-85.2	-88.6	3.2	1.56e+00	0	47	104	0	60	1048573
2026-01-18 09:02:34.17	331.31	20.45	-84.7	-88.6	2.8	1.56e+00	0	47	104	0	60	1048574
2026-01-18 09:02:35.17	331.37	20.32	-85.2	-88.6	3.0	1.56e+00	0	47	104	0	60	1048575
2026-01-18 09:02:36.18	331.43	20.19	-85.2	-88.6	2.8	1.56e+00	0	47	104	0	60	1048575
2026-01-18 09:02:37.19	331.48	20.06	-85.2	-88.6	3.0	1.56e+00	0	47	104	0	60	1048574
2026-01-18 09:02:38.19	331.54	19.94	-85.2	-88.6	3.1	1.55e+00	0	47	104	0	60	1048575
2026-01-18 09:02:39.20	331.60	19.81	-84.7	-88.6	2.8	1.56e+00	0	47	104	0	60	1048575
2026-01-18 09:02:40.21	331.65	19.68	-85.2	-88.6	3.1	1.56e+00	0	47	104	0	60	1048575
2026-01-18 09:02:41.22	331.71	19.55	-85.2	-88.6	3.0	1.55e+00	0	47	104	0	60	1048575
2026-01-18 09:02:42.23	331.77	19.43	-85.2	-88.6	2.9	1.56e+00	0	47	104	0	60	1048569
2026-01-18 09:02:43.24	331.82	19.30	-85.2	-88.6	2.8	1.55e+00	0	47	104	0	60	1048574
2026-01-18 09:02:44.24	331.88	19.18	-84.7	-88.6	2.8	1.56e+00	0	47	104	0	60	1048574
2026-01-18 09:02:45.25	331.93	19.06	-85.2	-88.6	2.9	1.56e+00	0	47	104	0	60	1048573
2026-01-18 09:02:46.26	331.98	18.93	-85.2	-88.6	3.1	1.56e+00	0	47	104	0	60	1048575
2026-01-18 09:02:47.27	332.04	18.81	-85.2	-88.6	2.9	1.56e+00	0	47	104	0	60	1048574
2026-01-18 09:02:48.27	332.09	18.69	-84.3	-88.6	2.9	1.56e+00	0	47	104	0	60	1048573
2026-01-18 09:02:49.27	332.14	18.57	-85.2	-88.6	3.0	1.56e+00	0	47	104	0	60	1048570
2026-01-18 09:02:50.28	332.19	18.45	-85.2	-88.6	3.1	1.56e+00	0	47	104	0	60	1048575
2026-01-18 09:02:51.29	332.25	18.33	-85.2	-88.6	2.8	1.56e+00	0	47	104	0	60	1048575
2026-01-18 09:02:52.30	332.30	18.21	-84.7	-88.6	2.7	1.56e+00	0	47	104	0	60	1048574
2026-01-18 09:02:53.30	332.35	18.09	-84.7	-88.6	3.0	1.56e+00	0	47	104	0	60	1048575
2026-01-18 09:02:54.31	332.40	17.97	-85.2	-88.6	2.9	1.56e+00	0	47	104	0	60	1048575
2026-01-18 09:02:55.31	332.45	17.86	-85.2	-88.6	2.9	1.56e+00	0	47	104	0	60	1048571
2026-01-18 09:02:56.32	332.50	17.74	-85.2	-88.6	3.0	1.56e+00	0	47	104	0	60	1048573
2026-01-18 09:02:57.32	332.55	17.62	-85.2	-88.6	3.0	1.56e+00	0	47	104	0	60	1048575
2026-01-18 09:02:58.33	332.60	17.51	-85.2	-88.6	2.9	1.56e+00	0	47	104	0	60	1048575
2026-01-18 09:02:59.34	332.65	17.39	-84.7	-88.6	3.0	1.55e+00	0	47	104	0	60	1048574
2026-01-18 09:03:00.34	332.70	17.28	-85.2	-88.6	2.9	1.56e+00	0	47	104	0	60	1048575
2026-01-18 09:03:01.35	332.74	17.16	-84.7	-88.6	3.0	1.55e+00	0	47	104	0	60	1048575
2026-01-18 09:03:02.36	332.79	17.05	-85.2	-88.6	3.0	1.56e+00	0	47	104	0	60	1048575
2026-01-18 09:03:03.36	332.84	16.94	-85.2	-88.6	3.1	1.56e+00	0	47	104	0	60	1048574
2026-01-18 09:03:04.36	332.89	16.82	-85.2	-88.6	3.0	1.56e+00	0	47	104	0	60	1048575
2026-01-18 09:03:05.37	332.93	16.71	-85.2	-88.6	3.0	1.55e+00	0	47	104	0	60	1048574
2026-01-18 09:03:06.38	332.98	16.60	-85.2	-88.6	2.9	1.55e+00	0	47	104	0	60	1048573
2026-01-18 09:03:07.38	333.03	16.49	-85.2	-88.6	3.1	1.56e+00	0	47	104	0	60	1048575
2026-01-18 09:03:08.39	333.07	16.38	-85.2	-88.6	3.0	1.56e+00	0	47	104	0	60	1048573
2026-01-18 09:03:09.40	333.12	16.27	-84.7	-88.6	2.9	1.56e+00	0	47	104	0	60	1048575
