passes_logs/2026/01/18/R3.2S-Naryan-Mar/R3.2S-Naryan-Mar__20260118_035334_NOAA_20_JPSS-1_rec.log

#Pass ID: 20260118_035334_NOAA 20 (JPSS-1)
#Satellite: NOAA 20 (JPSS-1)
#Configuration: NOAA 20
#almurnet v.1.7.20240730
#Start time: 2026-01-18 03:53:35

#Version: 2.2.20231116
#Station: R3.2S-Naryan-Mar
#Location: 53.008057 lon 67.646978 lat
#TLE: 1 43013U 17073A   26017.30359522  .00000067  00000+0  52526-4 0  9990
#TLE: 2 43013  98.7639 318.2187 0001419  36.2087 323.9184 14.19536557423067

#Time	Az	El	Level	Level2	SNR	BER	BlckErr	Temp	State	Recorded	gain1	gain2
2026-01-18 03:53:35.88	62.47	0.07	-85.2	-88.6	4.3	1.56e+00	0	45	0	0	60	1048573
2026-01-18 03:53:36.88	62.41	0.13	-85.2	-88.6	3.0	1.56e+00	0	46	104	0	60	1048574
2026-01-18 03:53:37.88	62.35	0.18	-85.2	-88.6	2.9	1.56e+00	0	46	104	0	60	1048575
2026-01-18 03:53:38.89	62.29	0.23	-85.2	-88.6	3.0	1.56e+00	0	46	104	0	60	1048572
2026-01-18 03:53:39.90	62.22	0.29	-85.2	-88.6	3.0	1.55e+00	0	46	104	0	60	1048575
2026-01-18 03:53:40.91	62.16	0.34	-85.2	-88.6	3.2	1.56e+00	0	46	104	0	60	1048575
2026-01-18 03:53:41.92	62.10	0.39	-85.2	-88.6	3.0	1.55e+00	0	46	104	0	60	1048572
2026-01-18 03:53:42.93	62.03	0.45	-85.2	-88.6	2.8	1.56e+00	0	46	104	0	60	1048571
2026-01-18 03:53:43.93	61.97	0.50	-85.2	-88.6	3.1	1.56e+00	0	46	104	0	60	1048575
2026-01-18 03:53:44.94	61.91	0.55	-85.2	-88.6	3.1	1.56e+00	0	46	104	0	60	1048572
2026-01-18 03:53:45.94	61.84	0.61	-85.2	-88.6	2.9	1.56e+00	0	46	104	0	60	1048575
2026-01-18 03:53:46.95	61.78	0.66	-85.2	-88.6	3.0	1.55e+00	0	46	104	0	60	1048572
2026-01-18 03:53:47.96	61.71	0.71	-85.2	-88.6	3.0	1.56e+00	0	46	104	0	60	1048572
2026-01-18 03:53:48.96	61.65	0.77	-85.2	-88.6	3.1	1.55e+00	0	46	104	0	60	1048575
2026-01-18 03:53:49.97	61.58	0.82	-85.2	-88.6	2.9	1.56e+00	0	46	104	0	60	1048575
2026-01-18 03:53:50.98	61.52	0.87	-85.2	-88.6	2.9	1.56e+00	0	46	104	0	60	1048574
2026-01-18 03:53:51.99	61.45	0.93	-85.2	-88.6	2.7	1.56e+00	0	46	104	0	60	1048573
2026-01-18 03:53:53.00	61.38	0.98	-85.2	-88.6	3.1	1.55e+00	0	46	104	0	60	1048575
2026-01-18 03:53:54.01	61.32	1.04	-85.2	-88.6	3.1	1.55e+00	0	46	104	0	60	1048574
2026-01-18 03:53:55.01	61.25	1.09	-85.2	-88.6	3.1	1.56e+00	0	46	104	0	60	1048573
2026-01-18 03:53:56.02	61.19	1.15	-85.2	-88.6	3.0	1.56e+00	0	46	104	0	60	1048575
2026-01-18 03:53:57.03	61.12	1.20	-85.2	-88.6	3.0	1.55e+00	0	46	104	0	60	1048575
2026-01-18 03:53:58.03	61.05	1.25	-85.2	-88.6	2.9	1.56e+00	0	46	104	0	60	1048575
2026-01-18 03:53:59.04	60.98	1.31	-85.2	-88.6	3.0	1.56e+00	0	46	104	0	60	1048575
2026-01-18 03:54:00.04	60.92	1.36	-85.2	-88.6	3.0	1.56e+00	0	46	104	0	60	1048574
2026-01-18 03:54:01.05	60.85	1.42	-85.2	-88.6	3.2	1.56e+00	0	46	104	0	60	1048575
2026-01-18 03:54:02.06	60.78	1.47	-85.2	-88.6	3.1	1.56e+00	0	46	104	0	60	1048574
2026-01-18 03:54:03.07	60.71	1.53	-85.2	-88.6	3.0	1.56e+00	0	46	104	0	60	1048574
2026-01-18 03:54:04.07	60.64	1.58	-85.2	-88.6	3.0	1.56e+00	0	46	104	0	60	1048575
2026-01-18 03:54:05.08	60.57	1.64	-85.2	-88.6	2.9	1.55e+00	0	46	104	0	60	1048573
2026-01-18 03:54:06.09	60.50	1.69	-85.2	-88.6	2.9	1.56e+00	0	46	104	0	60	1048575
2026-01-18 03:54:07.10	60.43	1.74	-85.2	-88.6	3.1	1.55e+00	0	46	104	0	60	1048575
2026-01-18 03:54:08.11	60.36	1.80	-85.2	-88.6	3.0	1.56e+00	0	46	104	0	60	1048574
2026-01-18 03:54:09.11	60.29	1.85	-85.2	-88.6	2.8	1.56e+00	0	46	104	0	60	1048575
2026-01-18 03:54:10.12	60.22	1.91	-85.2	-88.6	3.0	1.56e+00	0	46	104	0	60	1048573
2026-01-18 03:54:11.13	60.15	1.97	-85.2	-88.6	3.0	1.56e+00	0	46	104	0	60	1048575
2026-01-18 03:54:12.13	60.08	2.02	-85.2	-88.6	3.2	1.55e+00	0	46	104	0	60	1048573
2026-01-18 03:54:13.14	60.01	2.08	-85.2	-88.6	3.2	1.56e+00	0	46	104	0	60	1048575
2026-01-18 03:54:14.15	59.94	2.13	-85.2	-88.6	3.0	1.55e+00	0	46	104	0	60	1048572
2026-01-18 03:54:15.16	59.87	2.19	-85.2	-88.6	3.0	1.56e+00	0	46	104	0	60	1048575
2026-01-18 03:54:16.16	59.80	2.24	-85.2	-88.6	3.1	1.56e+00	0	46	104	0	60	1048575
2026-01-18 03:54:17.16	59.72	2.30	-85.2	-88.6	3.0	1.56e+00	0	46	104	0	60	1048575
2026-01-18 03:54:18.17	59.65	2.35	-85.2	-88.6	2.8	1.55e+00	0	46	104	0	60	1048575
2026-01-18 03:54:19.17	59.58	2.41	-85.2	-88.6	3.0	1.55e+00	0	46	104	0	60	1048570
2026-01-18 03:54:20.18	59.51	2.46	-85.2	-88.6	3.1	1.56e+00	0	46	104	0	60	1048575
2026-01-18 03:54:21.18	59.43	2.52	-85.2	-88.6	2.8	1.55e+00	0	46	104	0	60	1048574
2026-01-18 03:54:22.19	59.36	2.57	-85.2	-88.6	3.3	1.56e+00	0	46	104	0	60	1048574
2026-01-18 03:54:23.20	59.28	2.63	-85.2	-88.6	2.9	1.56e+00	0	46	104	0	60	1048575
2026-01-18 03:54:24.20	59.21	2.69	-85.2	-88.6	2.9	1.56e+00	0	47	104	0	60	1048573
2026-01-18 03:54:25.21	59.14	2.74	-84.7	-88.6	2.9	1.55e+00	0	47	104	0	60	1048574
2026-01-18 03:54:26.22	59.06	2.80	-85.2	-88.6	2.8	1.56e+00	0	46	104	0	60	1048573
2026-01-18 03:54:27.23	58.98	2.85	-85.2	-88.6	2.9	1.56e+00	0	46	104	0	60	1048575
2026-01-18 03:54:28.23	58.91	2.91	-85.2	-88.6	3.1	1.56e+00	0	47	104	0	60	1048574
2026-01-18 03:54:29.23	58.83	2.97	-85.2	-88.6	2.9	1.56e+00	0	47	104	0	60	1048575
2026-01-18 03:54:30.24	58.76	3.02	-85.2	-88.6	2.9	1.55e+00	0	47	104	0	60	1048574
2026-01-18 03:54:31.24	58.68	3.08	-85.2	-88.6	3.1	1.56e+00	0	46	104	0	60	1048574
2026-01-18 03:54:32.25	58.60	3.14	-84.7	-88.6	3.0	1.56e+00	0	46	104	0	60	1048575
2026-01-18 03:54:33.25	58.53	3.19	-85.2	-88.6	2.9	1.56e+00	0	46	104	0	60	1048575
2026-01-18 03:54:34.26	58.45	3.25	-85.2	-88.6	3.1	1.55e+00	0	46	104	0	60	1048575
2026-01-18 03:54:35.26	58.37	3.30	-85.2	-88.6	2.9	1.55e+00	0	46	104	0	60	1048575
2026-01-18 03:54:36.27	58.30	3.36	-85.2	-88.6	3.0	1.56e+00	0	46	104	0	60	1048573
2026-01-18 03:54:37.28	58.22	3.42	-85.2	-88.6	3.1	1.55e+00	0	46	104	0	60	1048574
2026-01-18 03:54:38.28	58.14	3.47	-85.2	-88.6	3.0	1.56e+00	0	47	104	0	60	1048575
2026-01-18 03:54:39.29	58.06	3.53	-85.2	-88.6	3.1	1.55e+00	0	47	104	0	60	1048575
2026-01-18 03:54:40.30	57.98	3.59	-85.2	-88.6	2.9	1.56e+00	0	46	104	0	60	1048574
2026-01-18 03:54:41.31	57.90	3.65	-85.2	-88.6	3.1	1.55e+00	0	47	104	0	60	1048573
2026-01-18 03:54:42.31	57.82	3.70	-85.2	-88.6	3.0	1.55e+00	0	47	104	0	60	1048570
2026-01-18 03:54:43.32	57.74	3.76	-85.2	-88.6	3.1	1.56e+00	0	47	104	0	60	1048574
2026-01-18 03:54:44.32	57.66	3.82	-84.3	-88.6	3.1	1.56e+00	0	47	104	0	60	1048575
2026-01-18 03:54:45.33	57.58	3.87	-85.2	-88.6	3.2	1.56e+00	0	46	104	0	60	1048574
2026-01-18 03:54:46.33	57.50	3.93	-85.2	-88.6	3.0	1.56e+00	0	46	104	0	60	1048568
2026-01-18 03:54:47.34	57.42	3.99	-85.2	-88.6	3.0	1.56e+00	0	46	104	0	60	1048574
2026-01-18 03:54:48.34	57.33	4.05	-85.2	-88.6	2.9	1.56e+00	0	46	104	0	60	1048573
2026-01-18 03:54:49.35	57.25	4.10	-85.2	-88.6	2.9	1.56e+00	0	47	104	0	60	1048574
2026-01-18 03:54:50.35	57.17	4.16	-85.2	-88.6	3.0	1.56e+00	0	46	104	0	60	1048574
2026-01-18 03:54:51.36	57.09	4.22	-85.2	-88.6	3.0	1.56e+00	0	47	104	0	60	1048575
2026-01-18 03:54:52.37	57.00	4.28	-85.2	-88.6	3.1	1.56e+00	0	46	104	0	60	1048575
2026-01-18 03:54:53.37	56.92	4.33	-85.2	-88.6	2.8	1.56e+00	0	47	104	0	60	1048575
2026-01-18 03:54:54.38	56.84	4.39	-85.2	-88.6	3.1	1.56e+00	0	47	104	0	60	1048575
2026-01-18 03:54:55.39	56.75	4.45	-85.2	-88.6	3.2	1.55e+00	0	46	104	0	60	1048572
2026-01-18 03:54:56.40	56.67	4.51	-85.2	-88.6	3.1	1.56e+00	0	47	104	0	60	1048572
2026-01-18 03:54:57.40	56.58	4.57	-85.2	-88.6	3.2	1.56e+00	0	47	104	0	60	1048571
2026-01-18 03:54:58.41	56.50	4.63	-85.2	-88.6	3.0	1.56e+00	0	47	104	0	60	1048572
2026-01-18 03:54:59.42	56.41	4.68	-85.2	-88.6	2.9	1.56e+00	0	47	104	0	60	1048575
2026-01-18 03:55:00.43	56.32	4.74	-85.2	-88.6	3.0	1.56e+00	0	47	104	0	60	1048573
2026-01-18 03:55:01.43	56.24	4.80	-85.2	-88.6	3.2	1.56e+00	0	47	104	0	60	1048575
2026-01-18 03:55:02.44	56.15	4.86	-84.3	-88.6	3.1	1.55e+00	0	47	104	0	60	1048574
2026-01-18 03:55:03.45	56.06	4.92	-85.2	-88.6	3.2	1.55e+00	0	47	104	0	60	1048574
2026-01-18 03:55:04.45	55.98	4.98	-85.2	-88.6	3.0	1.56e+00	0	47	104	0	60	1048575
2026-01-18 03:55:05.46	55.89	5.03	-85.2	-88.6	3.1	1.56e+00	0	47	104	0	60	1048573
2026-01-18 03:55:06.47	55.80	5.09	-85.2	-88.6	3.1	1.56e+00	0	47	104	0	60	1048573
2026-01-18 03:55:07.47	55.71	5.15	-85.2	-88.6	2.9	1.56e+00	0	47	104	0	60	1048575
2026-01-18 03:55:08.48	55.62	5.21	-85.2	-88.6	3.1	1.56e+00	0	47	104	0	60	1048574
2026-01-18 03:55:09.48	55.53	5.27	-85.2	-88.6	2.9	1.55e+00	0	47	104	0	60	1048575
2026-01-18 03:55:10.48	55.45	5.33	-85.2	-88.6	3.3	1.56e+00	0	47	104	0	60	1048575
2026-01-18 03:55:11.49	55.35	5.39	-85.2	-88.6	3.0	1.56e+00	0	47	104	0	60	1048575
2026-01-18 03:55:12.50	55.26	5.45	-85.2	-88.6	2.9	1.56e+00	0	47	104	0	60	1048573
2026-01-18 03:55:13.51	55.17	5.51	-85.2	-88.6	3.0	1.56e+00	0	46	104	0	60	1048575
2026-01-18 03:55:14.52	55.08	5.56	-85.2	-88.6	2.9	1.55e+00	0	47	104	0	60	1048573
2026-01-18 03:55:15.53	54.99	5.62	-85.2	-88.6	3.1	1.55e+00	0	47	104	0	60	1048569
2026-01-18 03:55:16.53	54.90	5.68	-85.2	-88.6	3.0	1.56e+00	0	47	104	0	60	1048574
2026-01-18 03:55:17.54	54.81	5.74	-85.2	-88.6	3.0	1.56e+00	0	47	104	0	60	1048575
2026-01-18 03:55:18.55	54.71	5.80	-85.2	-88.6	2.9	1.56e+00	0	47	104	0	60	1048574
2026-01-18 03:55:19.56	54.62	5.86	-85.2	-88.6	3.2	1.56e+00	0	47	104	0	60	1048574
2026-01-18 03:55:20.56	54.53	5.92	-84.3	-88.6	2.9	1.56e+00	0	47	104	0	60	1048574
2026-01-18 03:55:21.57	54.43	5.98	-85.2	-88.6	3.1	1.56e+00	0	47	104	0	60	1048575
2026-01-18 03:55:22.58	54.34	6.04	-85.2	-88.6	2.9	1.56e+00	0	47	104	0	60	1048575
2026-01-18 03:55:23.58	54.24	6.10	-85.2	-88.6	3.2	1.56e+00	0	47	104	0	60	1048575
2026-01-18 03:55:24.58	54.15	6.16	-85.2	-88.6	2.8	1.56e+00	0	47	104	0	60	1048574
2026-01-18 03:55:25.59	54.05	6.22	-85.2	-88.6	3.0	1.56e+00	0	47	104	0	60	1048575
2026-01-18 03:55:26.60	53.96	6.28	-85.2	-88.6	2.7	1.56e+00	0	47	104	0	60	1048575
2026-01-18 03:55:27.60	53.86	6.34	-85.2	-88.6	3.0	1.56e+00	0	47	104	0	60	1048572
2026-01-18 03:55:28.61	53.76	6.40	-85.2	-88.6	2.9	1.56e+00	0	47	104	0	60	1048574
2026-01-18 03:55:29.61	53.67	6.46	-85.2	-88.6	2.8	1.56e+00	0	47	104	0	60	1048574
2026-01-18 03:55:30.62	53.57	6.52	-85.2	-88.6	2.9	1.56e+00	0	47	104	0	60	1048575
2026-01-18 03:55:31.63	53.47	6.58	-85.2	-88.6	3.0	1.56e+00	0	46	104	0	60	1048575
2026-01-18 03:55:32.63	53.37	6.64	-85.2	-88.6	2.9	1.55e+00	0	47	104	0	60	1048571
2026-01-18 03:55:33.64	53.27	6.70	-85.2	-88.6	3.0	1.56e+00	0	47	104	0	60	1048574
2026-01-18 03:55:34.64	53.17	6.76	-85.2	-88.6	3.1	1.56e+00	0	47	104	0	60	1048574
2026-01-18 03:55:35.65	53.07	6.82	-85.2	-88.6	2.9	1.56e+00	0	47	104	0	60	1048573
2026-01-18 03:55:36.66	52.97	6.88	-85.2	-88.6	2.9	1.55e+00	0	47	104	0	60	1048575
2026-01-18 03:55:37.66	52.87	6.94	-85.2	-88.6	2.9	1.56e+00	0	47	104	0	60	1048575
2026-01-18 03:55:38.67	52.77	7.00	-85.2	-88.6	3.3	1.56e+00	0	47	104	0	60	1048574
2026-01-18 03:55:39.67	52.67	7.06	-85.2	-88.6	3.1	1.55e+00	0	47	104	0	60	1048573
2026-01-18 03:55:40.68	52.57	7.12	-85.2	-88.6	3.2	1.56e+00	0	47	104	0	60	1048573
2026-01-18 03:55:41.68	52.47	7.19	-85.2	-88.6	3.1	1.56e+00	0	47	104	0	60	1048573
2026-01-18 03:55:42.69	52.37	7.25	-85.2	-88.6	2.9	1.56e+00	0	47	104	0	60	1048575
2026-01-18 03:55:43.70	52.26	7.31	-85.2	-88.6	2.9	1.56e+00	0	47	104	0	60	1048575
2026-01-18 03:55:44.71	52.16	7.37	-85.2	-88.6	3.1	1.56e+00	0	47	104	0	60	1048570
2026-01-18 03:55:45.72	52.05	7.43	-85.2	-88.6	2.8	1.55e+00	0	47	104	0	60	1048573
2026-01-18 03:55:46.72	51.95	7.49	-85.2	-88.6	2.9	1.56e+00	0	47	104	0	60	1048575
2026-01-18 03:55:47.73	51.84	7.55	-85.2	-88.6	2.9	1.55e+00	0	47	104	0	60	1048574
2026-01-18 03:55:48.74	51.74	7.61	-85.2	-88.6	3.3	1.56e+00	0	47	104	0	60	1048572
2026-01-18 03:55:49.75	51.63	7.67	-85.2	-88.6	3.0	1.56e+00	0	47	104	0	60	1048575
2026-01-18 03:55:50.76	51.53	7.74	-85.2	-88.6	3.0	1.56e+00	0	47	104	0	60	1048575
2026-01-18 03:55:51.77	51.42	7.80	-85.2	-88.6	2.9	1.56e+00	0	47	104	0	60	1048575
2026-01-18 03:55:52.77	51.31	7.86	-85.2	-88.6	3.0	1.56e+00	0	47	104	0	60	1048575
2026-01-18 03:55:53.78	51.20	7.92	-85.2	-88.6	3.0	1.56e+00	0	47	104	0	60	1048573
2026-01-18 03:55:54.78	51.10	7.98	-85.2	-88.6	2.9	1.55e+00	0	47	104	0	60	1048575
2026-01-18 03:55:55.79	50.99	8.04	-85.2	-88.6	3.1	1.56e+00	0	47	104	0	60	1048575
2026-01-18 03:55:56.80	50.88	8.11	-85.2	-88.6	2.9	1.56e+00	0	47	104	0	60	1048575
2026-01-18 03:55:57.81	50.77	8.17	-85.2	-88.6	3.2	1.55e+00	0	47	104	0	60	1048575
2026-01-18 03:55:58.80	50.66	8.23	-85.2	-88.6	3.0	1.56e+00	0	47	104	0	60	1048575
2026-01-18 03:55:59.81	50.55	8.29	-85.2	-88.6	2.8	1.56e+00	0	47	104	0	60	1048575
2026-01-18 03:56:00.82	50.44	8.35	-85.2	-88.6	2.9	1.56e+00	0	47	104	0	60	1048572
2026-01-18 03:56:01.83	50.32	8.41	-85.2	-88.6	3.1	1.56e+00	0	47	104	0	60	1048575
2026-01-18 03:56:02.83	50.21	8.48	-85.2	-88.6	2.8	1.55e+00	0	47	104	0	60	1048574
2026-01-18 03:56:03.84	50.10	8.54	-85.2	-88.6	3.1	1.56e+00	0	47	104	0	60	1048573
2026-01-18 03:56:04.85	49.99	8.60	-85.2	-88.6	3.1	1.56e+00	0	47	104	0	60	1048574
2026-01-18 03:56:05.86	49.87	8.66	-85.2	-88.6	3.1	1.56e+00	0	47	104	0	60	1048575
2026-01-18 03:56:06.87	49.76	8.72	-85.2	-88.6	3.1	1.55e+00	0	47	104	0	60	1048575
2026-01-18 03:56:07.87	49.64	8.79	-85.2	-88.6	3.2	1.56e+00	0	47	104	0	60	1048575
2026-01-18 03:56:08.88	49.53	8.85	-85.2	-88.6	3.1	1.56e+00	0	47	104	0	60	1048573
2026-01-18 03:56:09.89	49.41	8.91	-85.2	-88.6	2.9	1.56e+00	0	47	104	0	60	1048575
2026-01-18 03:56:10.89	49.30	8.97	-85.2	-88.6	3.0	1.56e+00	0	47	104	0	60	1048575
2026-01-18 03:56:11.89	49.18	9.03	-85.2	-88.6	3.1	1.56e+00	0	47	104	0	60	1048575
2026-01-18 03:56:12.89	49.07	9.10	-85.2	-88.6	3.0	1.56e+00	0	47	104	0	60	1048575
2026-01-18 03:56:13.90	48.95	9.16	-85.2	-88.6	2.9	1.56e+00	0	47	104	0	60	1048567
2026-01-18 03:56:14.91	48.83	9.22	-85.2	-88.6	3.1	1.56e+00	0	47	104	0	60	1048575
2026-01-18 03:56:15.92	48.71	9.28	-85.2	-88.6	3.0	1.56e+00	0	47	104	0	60	1048569
2026-01-18 03:56:16.93	48.59	9.35	-85.2	-88.6	3.2	1.55e+00	0	47	104	0	60	1048575
2026-01-18 03:56:17.93	48.47	9.41	-85.2	-88.6	3.0	1.56e+00	0	47	104	0	60	1048575
2026-01-18 03:56:18.94	48.35	9.47	-85.2	-88.6	3.0	1.55e+00	0	47	104	0	60	1048575
2026-01-18 03:56:19.95	48.23	9.53	-85.2	-88.6	3.0	1.56e+00	0	47	104	0	60	1048573
2026-01-18 03:56:20.96	48.11	9.60	-83.1	-88.6	3.2	1.56e+00	0	47	104	0	60	1048575
2026-01-18 03:56:21.97	47.99	9.66	-85.2	-88.6	2.9	1.56e+00	0	47	104	0	60	1048575
2026-01-18 03:56:22.97	47.86	9.72	-85.2	-88.6	3.0	1.55e+00	0	47	104	0	60	1048574
2026-01-18 03:56:23.98	47.74	9.79	-82.8	-88.6	3.0	1.56e+00	0	47	104	0	60	1048572
2026-01-18 03:56:24.99	47.62	9.85	-85.2	-88.6	3.1	1.56e+00	0	47	104	0	60	1048570
2026-01-18 03:56:26.00	47.49	9.91	-85.2	-88.6	3.2	1.56e+00	0	47	104	0	60	1048575
2026-01-18 03:56:27.01	47.37	9.97	-85.2	-88.6	3.1	1.56e+00	0	47	104	0	60	1048574
2026-01-18 03:56:28.01	47.24	10.04	-85.2	-88.6	3.1	1.56e+00	0	47	104	0	60	1048574
2026-01-18 03:56:29.02	47.12	10.10	-85.2	-88.6	3.2	1.56e+00	0	47	104	0	60	1048575
2026-01-18 03:56:30.02	46.99	10.16	-85.2	-88.6	3.1	1.56e+00	0	47	104	0	60	1048573
2026-01-18 03:56:31.03	46.86	10.23	-85.2	-88.6	3.0	1.56e+00	0	47	104	0	60	1048575
2026-01-18 03:56:32.04	46.74	10.29	-85.2	-88.6	3.2	1.55e+00	0	47	104	0	60	1048575
2026-01-18 03:56:33.05	46.61	10.35	-85.2	-88.6	2.9	1.55e+00	0	47	104	0	60	1048575
2026-01-18 03:56:34.05	46.48	10.41	-85.2	-88.6	3.2	1.56e+00	0	47	104	0	60	1048573
2026-01-18 03:56:35.06	46.35	10.48	-85.2	-88.6	3.0	1.55e+00	0	47	104	0	60	1048572
2026-01-18 03:56:36.07	46.22	10.54	-85.2	-88.6	3.1	1.56e+00	0	47	104	0	60	1048575
2026-01-18 03:56:37.08	46.09	10.60	-85.2	-88.6	3.1	1.55e+00	0	47	104	0	60	1048575
2026-01-18 03:56:38.09	45.96	10.67	-85.2	-88.6	3.1	1.56e+00	0	47	104	0	60	1048575
2026-01-18 03:56:39.09	45.83	10.73	-83.1	-88.6	3.0	1.56e+00	0	47	104	0	60	1048575
2026-01-18 03:56:40.10	45.70	10.79	-85.2	-88.6	3.0	1.55e+00	0	47	104	0	60	1048573
2026-01-18 03:56:41.11	45.56	10.86	-85.2	-88.6	3.0	1.56e+00	0	47	104	0	60	1048574
2026-01-18 03:56:42.11	45.43	10.92	-85.2	-88.6	2.8	1.55e+00	0	47	104	0	60	1048573
2026-01-18 03:56:43.12	45.30	10.98	-85.2	-88.6	3.0	1.56e+00	0	47	104	0	60	1048575
2026-01-18 03:56:44.13	45.16	11.05	-85.2	-88.6	3.1	1.56e+00	0	47	104	0	60	1048574
2026-01-18 03:56:45.14	45.03	11.11	-85.2	-88.6	2.9	1.56e+00	0	47	104	0	60	1048575
2026-01-18 03:56:46.14	44.89	11.17	-85.2	-88.6	3.0	1.56e+00	0	47	104	0	60	1048575
2026-01-18 03:56:47.15	44.76	11.24	-85.2	-88.6	2.9	1.56e+00	0	47	104	0	60	1048575
2026-01-18 03:56:48.16	44.62	11.30	-85.2	-88.6	3.1	1.56e+00	0	47	104	0	60	1048572
2026-01-18 03:56:49.16	44.48	11.36	-85.2	-88.6	3.1	1.56e+00	0	47	104	0	60	1048575
2026-01-18 03:56:50.17	44.35	11.42	-85.2	-88.6	3.1	1.56e+00	0	47	104	0	60	1048575
2026-01-18 03:56:51.18	44.21	11.49	-85.2	-88.6	2.9	1.56e+00	0	47	104	0	60	1048575
2026-01-18 03:56:52.18	44.07	11.55	-85.2	-88.6	3.2	1.55e+00	0	47	104	0	60	1048575
2026-01-18 03:56:53.19	43.93	11.61	-85.2	-88.6	2.9	1.56e+00	0	47	104	0	60	1048571
2026-01-18 03:56:54.20	43.79	11.68	-85.2	-88.6	3.2	1.56e+00	0	47	104	0	60	1048575
2026-01-18 03:56:55.21	43.65	11.74	-84.7	-88.6	2.9	1.55e+00	0	47	104	0	60	1048574
2026-01-18 03:56:56.22	43.50	11.80	-85.2	-88.6	3.0	1.56e+00	0	47	104	0	60	1048574
2026-01-18 03:56:57.23	43.36	11.87	-85.2	-88.6	3.2	1.56e+00	0	47	104	0	60	1048575
2026-01-18 03:56:58.23	43.22	11.93	-85.2	-88.6	3.1	1.56e+00	0	47	104	0	60	1048575
2026-01-18 03:56:59.24	43.08	11.99	-85.2	-88.6	3.1	1.55e+00	0	47	104	0	60	1048575
2026-01-18 03:57:00.24	42.93	12.06	-85.2	-88.6	2.8	1.56e+00	0	47	104	0	60	1048573
2026-01-18 03:57:01.25	42.79	12.12	-85.2	-88.6	3.3	1.56e+00	0	47	104	0	60	1048574
2026-01-18 03:57:02.25	42.64	12.18	-85.2	-88.6	2.9	1.56e+00	0	47	104	0	60	1048574
2026-01-18 03:57:03.26	42.50	12.24	-85.2	-88.6	3.0	1.56e+00	0	47	104	0	60	1048575
2026-01-18 03:57:04.26	42.35	12.31	-85.2	-88.6	3.1	1.56e+00	0	47	104	0	60	1048574
2026-01-18 03:57:05.27	42.20	12.37	-85.2	-88.6	3.0	1.56e+00	0	47	104	0	60	1048574
2026-01-18 03:57:06.28	42.06	12.43	-84.7	-88.6	3.0	1.55e+00	0	47	104	0	60	1048575
2026-01-18 03:57:07.29	41.91	12.50	-85.2	-88.6	3.1	1.56e+00	0	47	104	0	60	1048573
2026-01-18 03:57:08.29	41.76	12.56	-85.2	-88.6	3.1	1.56e+00	0	47	104	0	60	1048570
2026-01-18 03:57:09.30	41.61	12.62	-85.2	-88.6	3.0	1.55e+00	0	47	104	0	60	1048575
2026-01-18 03:57:10.31	41.46	12.69	-85.2	-88.6	3.0	1.56e+00	0	47	104	0	60	1048574
2026-01-18 03:57:11.32	41.31	12.75	-85.2	-88.6	3.0	1.56e+00	0	47	104	0	60	1048575
2026-01-18 03:57:12.33	41.15	12.81	-85.2	-88.6	3.1	1.56e+00	0	47	104	0	60	1048575
2026-01-18 03:57:13.34	41.00	12.87	-85.2	-88.6	2.9	1.56e+00	0	47	104	0	60	1048575
2026-01-18 03:57:14.34	40.85	12.94	-85.2	-88.6	2.9	1.56e+00	0	47	104	0	60	1048573
2026-01-18 03:57:15.34	40.70	13.00	-84.7	-88.6	3.0	1.56e+00	0	47	104	0	60	1048573
2026-01-18 03:57:16.35	40.54	13.06	-85.2	-88.6	3.1	1.56e+00	0	47	104	0	60	1048575
2026-01-18 03:57:17.36	40.39	13.12	-85.2	-88.6	2.9	1.56e+00	0	47	104	0	60	1048574
2026-01-18 03:57:18.36	40.23	13.19	-85.2	-88.6	3.0	1.56e+00	0	47	104	0	60	1048574
2026-01-18 03:57:19.37	40.07	13.25	-85.2	-88.6	2.9	1.56e+00	0	47	104	0	60	1048574
2026-01-18 03:57:20.37	39.92	13.31	-83.5	-88.6	2.9	1.56e+00	0	47	104	0	60	1048575
2026-01-18 03:57:21.37	39.76	13.37	-85.2	-88.6	3.1	1.55e+00	0	47	104	0	60	1048575
2026-01-18 03:57:22.38	39.60	13.43	-85.2	-88.6	3.1	1.56e+00	0	47	104	0	60	1048575
2026-01-18 03:57:23.39	39.44	13.50	-85.2	-88.6	3.1	1.55e+00	0	47	104	0	60	1048574
2026-01-18 03:57:24.40	39.28	13.56	-85.2	-88.6	2.9	1.56e+00	0	47	104	0	60	1048574
2026-01-18 03:57:25.40	39.12	13.62	-85.2	-88.6	2.9	1.56e+00	0	47	104	0	60	1048575
2026-01-18 03:57:26.41	38.96	13.68	-85.2	-88.6	3.0	1.55e+00	0	47	104	0	60	1048572
2026-01-18 03:57:27.42	38.80	13.74	-85.2	-88.6	3.0	1.55e+00	0	47	104	0	60	1048575
2026-01-18 03:57:28.43	38.64	13.81	-85.2	-88.6	3.1	1.56e+00	0	47	104	0	60	1048573
2026-01-18 03:57:29.44	38.47	13.87	-85.2	-88.6	3.1	1.56e+00	0	47	104	0	60	1048575
2026-01-18 03:57:30.44	38.31	13.93	-85.2	-88.6	2.9	1.55e+00	0	47	104	0	60	1048573
2026-01-18 03:57:31.45	38.15	13.99	-84.7	-88.6	2.8	1.56e+00	0	47	104	0	60	1048575
2026-01-18 03:57:32.46	37.98	14.05	-85.2	-88.6	3.1	1.56e+00	0	47	104	0	60	1048575
2026-01-18 03:57:33.46	37.81	14.11	-85.2	-88.6	3.2	1.56e+00	0	47	104	0	60	1048574
2026-01-18 03:57:34.47	37.65	14.18	-85.2	-88.6	3.2	1.55e+00	0	47	104	0	60	1048574
2026-01-18 03:57:35.48	37.48	14.24	-84.3	-88.6	3.2	1.56e+00	0	47	104	0	60	1048572
2026-01-18 03:57:36.48	37.31	14.30	-85.2	-88.6	3.0	1.55e+00	0	47	104	0	60	1048572
2026-01-18 03:57:37.49	37.14	14.36	-85.2	-88.6	3.0	1.55e+00	0	47	104	0	60	1048575
2026-01-18 03:57:38.50	36.97	14.42	-85.2	-88.6	2.8	1.55e+00	0	47	104	0	60	1048574
2026-01-18 03:57:39.50	36.80	14.48	-85.2	-88.6	2.9	1.56e+00	0	47	104	0	60	1048574
2026-01-18 03:57:40.51	36.63	14.54	-85.2	-88.6	3.2	1.56e+00	0	47	104	0	60	1048575
2026-01-18 03:57:41.52	36.46	14.60	-85.2	-88.6	3.0	1.56e+00	0	47	104	0	60	1048574
2026-01-18 03:57:42.52	36.29	14.66	-85.2	-88.6	2.8	1.56e+00	0	47	104	0	60	1048574
2026-01-18 03:57:43.53	36.12	14.72	-85.2	-88.6	3.0	1.56e+00	0	47	104	0	60	1048573
2026-01-18 03:57:44.54	35.94	14.78	-85.2	-88.6	3.1	1.56e+00	0	47	104	0	60	1048575
2026-01-18 03:57:45.55	35.77	14.84	-85.2	-88.6	3.0	1.56e+00	0	47	104	0	60	1048573
2026-01-18 03:57:46.56	35.59	14.90	-85.2	-88.6	3.0	1.56e+00	0	47	104	0	60	1048575
2026-01-18 03:57:47.56	35.42	14.96	-85.2	-88.6	3.0	1.55e+00	0	47	104	0	60	1048572
2026-01-18 03:57:48.57	35.24	15.02	-85.2	-88.6	3.0	1.56e+00	0	47	104	0	60	1048574
2026-01-18 03:57:49.56	35.07	15.08	-85.2	-88.6	3.0	1.55e+00	0	47	104	0	60	1048574
2026-01-18 03:57:50.57	34.89	15.14	-85.2	-88.6	3.0	1.56e+00	0	47	104	0	60	1048575
2026-01-18 03:57:51.58	34.71	15.20	-85.2	-88.6	2.9	1.56e+00	0	47	104	0	60	1048575
2026-01-18 03:57:52.58	34.53	15.26	-85.2	-88.6	3.0	1.55e+00	0	47	104	0	60	1048575
2026-01-18 03:57:53.59	34.35	15.32	-85.2	-88.6	3.0	1.56e+00	0	47	104	0	60	1048573
2026-01-18 03:57:54.60	34.17	15.38	-85.2	-88.6	3.1	1.56e+00	0	47	104	0	60	1048575
2026-01-18 03:57:55.60	33.99	15.44	-85.2	-88.6	3.0	1.56e+00	0	47	104	0	60	1048568
2026-01-18 03:57:56.61	33.80	15.50	-85.2	-88.6	3.1	1.56e+00	0	47	104	0	60	1048575
2026-01-18 03:57:57.62	33.62	15.56	-85.2	-88.6	3.1	1.55e+00	0	47	104	0	60	1048574
2026-01-18 03:57:58.62	33.44	15.61	-85.2	-88.6	3.1	1.56e+00	0	47	104	0	60	1048574
2026-01-18 03:57:59.63	33.25	15.67	-85.2	-88.6	2.9	1.56e+00	0	47	104	0	60	1048575
2026-01-18 03:58:00.64	33.07	15.73	-85.2	-88.6	3.0	1.56e+00	0	47	104	0	60	1048571
2026-01-18 03:58:01.65	32.88	15.79	-85.2	-88.6	2.9	1.56e+00	0	47	104	0	60	1048575
2026-01-18 03:58:02.65	32.69	15.85	-85.2	-88.6	3.0	1.56e+00	0	47	104	0	60	1048575
2026-01-18 03:58:03.66	32.51	15.90	-85.2	-88.6	2.9	1.55e+00	0	47	104	0	60	1048575
2026-01-18 03:58:04.67	32.32	15.96	-85.2	-88.6	3.2	1.55e+00	0	47	104	0	60	1048575
2026-01-18 03:58:05.67	32.13	16.02	-85.2	-88.6	2.8	1.56e+00	0	47	104	0	60	1048575
2026-01-18 03:58:06.68	31.94	16.07	-85.2	-88.6	3.1	1.55e+00	0	47	104	0	60	1048571
2026-01-18 03:58:07.69	31.75	16.13	-85.2	-88.6	3.1	1.56e+00	0	47	104	0	60	1048575
2026-01-18 03:58:08.70	31.56	16.19	-85.2	-88.6	3.1	1.56e+00	0	47	104	0	60	1048575
2026-01-18 03:58:09.71	31.36	16.24	-85.2	-88.6	2.9	1.56e+00	0	47	104	0	60	1048571
2026-01-18 03:58:10.71	31.17	16.30	-85.2	-88.6	3.0	1.56e+00	0	47	104	0	60	1048574
2026-01-18 03:58:11.72	30.98	16.36	-85.2	-88.6	3.1	1.56e+00	0	47	104	0	60	1048575
2026-01-18 03:58:12.73	30.78	16.41	-85.2	-88.6	2.9	1.56e+00	0	47	104	0	60	1048575
2026-01-18 03:58:13.73	30.59	16.47	-85.2	-88.6	3.0	1.56e+00	0	47	104	0	60	1048574
2026-01-18 03:58:14.74	30.39	16.52	-85.2	-88.6	2.8	1.56e+00	0	47	104	0	60	1048573
2026-01-18 03:58:15.75	30.20	16.58	-85.2	-88.6	3.0	1.56e+00	0	47	104	0	60	1048575
2026-01-18 03:58:16.76	30.00	16.63	-85.2	-88.6	3.1	1.55e+00	0	47	104	0	60	1048575
2026-01-18 03:58:17.77	29.80	16.69	-84.7	-88.6	2.7	1.55e+00	0	47	104	0	60	1048574
2026-01-18 03:58:18.77	29.60	16.74	-85.2	-88.6	3.1	1.55e+00	0	47	104	0	60	1048573
2026-01-18 03:58:19.78	29.40	16.80	-85.2	-88.6	3.0	1.55e+00	0	47	104	0	60	1048575
2026-01-18 03:58:20.79	29.20	16.85	-85.2	-88.6	3.0	1.55e+00	0	47	104	0	60	1048573
2026-01-18 03:58:21.80	29.00	16.91	-85.2	-88.6	2.8	1.55e+00	0	47	104	0	60	1048573
2026-01-18 03:58:22.81	28.80	16.96	-85.2	-88.6	3.1	1.56e+00	0	47	104	0	60	1048571
2026-01-18 03:58:23.81	28.60	17.01	-85.2	-88.6	3.0	1.56e+00	0	47	104	0	60	1048574
2026-01-18 03:58:24.82	28.40	17.07	-85.2	-88.6	3.0	1.56e+00	0	47	104	0	60	1048573
2026-01-18 03:58:25.83	28.19	17.12	-84.3	-88.6	3.0	1.56e+00	0	47	104	0	60	1048574
2026-01-18 03:58:26.84	27.99	17.17	-85.2	-88.6	3.1	1.56e+00	0	47	104	0	60	1048574
2026-01-18 03:58:27.84	27.78	17.22	-85.2	-88.6	3.1	1.56e+00	0	47	104	0	60	1048574
2026-01-18 03:58:28.85	27.58	17.27	-85.2	-88.6	2.8	1.56e+00	0	47	104	0	60	1048575
2026-01-18 03:58:29.85	27.37	17.33	-85.2	-88.6	2.9	1.55e+00	0	47	104	0	60	1048573
2026-01-18 03:58:30.86	27.17	17.38	-85.2	-88.6	3.1	1.56e+00	0	47	104	0	60	1048575
2026-01-18 03:58:31.87	26.96	17.43	-85.2	-88.6	3.0	1.56e+00	0	47	104	0	60	1048575
2026-01-18 03:58:32.88	26.75	17.48	-85.2	-88.6	3.0	1.55e+00	0	47	104	0	60	1048574
2026-01-18 03:58:33.89	26.54	17.53	-85.2	-88.6	3.0	1.56e+00	0	47	104	0	60	1048575
2026-01-18 03:58:34.89	26.33	17.58	-85.2	-88.6	3.0	1.56e+00	0	47	104	0	60	1048575
2026-01-18 03:58:35.90	26.12	17.63	-85.2	-88.6	3.1	1.55e+00	0	47	104	0	60	1048574
2026-01-18 03:58:36.91	25.91	17.68	-85.2	-88.6	3.2	1.56e+00	0	47	104	0	60	1048575
2026-01-18 03:58:37.91	25.70	17.73	-85.2	-88.6	3.0	1.56e+00	0	47	104	0	60	1048575
2026-01-18 03:58:38.92	25.48	17.78	-85.2	-88.6	2.9	1.56e+00	0	47	104	0	60	1048575
2026-01-18 03:58:39.92	25.27	17.83	-85.2	-88.6	3.0	1.55e+00	0	47	104	0	60	1048575
2026-01-18 03:58:40.93	25.06	17.88	-85.2	-88.6	3.1	1.56e+00	0	47	104	0	60	1048575
2026-01-18 03:58:41.94	24.84	17.92	-85.2	-88.6	3.0	1.56e+00	0	47	104	0	60	1048574
2026-01-18 03:58:42.95	24.62	17.97	-85.2	-88.6	3.0	1.56e+00	0	47	104	0	60	1048574
2026-01-18 03:58:43.96	24.41	18.02	-85.2	-88.6	3.0	1.56e+00	0	47	104	0	60	1048569
2026-01-18 03:58:44.96	24.19	18.07	-85.2	-88.6	3.2	1.55e+00	0	47	104	0	60	1048574
2026-01-18 03:58:45.97	23.97	18.11	-85.2	-88.6	3.1	1.55e+00	0	47	104	0	60	1048574
2026-01-18 03:58:46.98	23.75	18.16	-85.2	-88.6	2.9	1.56e+00	0	47	104	0	60	1048574
2026-01-18 03:58:47.99	23.53	18.21	-85.2	-88.6	3.2	1.55e+00	0	47	104	0	60	1048574
2026-01-18 03:58:49.00	23.31	18.25	-85.2	-88.6	2.9	1.56e+00	0	47	104	0	60	1048575
2026-01-18 03:58:50.01	23.09	18.30	-85.2	-88.6	2.9	1.56e+00	0	47	104	0	60	1048574
2026-01-18 03:58:51.01	22.87	18.34	-85.2	-88.6	3.1	1.55e+00	0	47	104	0	60	1048567
2026-01-18 03:58:52.02	22.65	18.39	-85.2	-88.6	3.0	1.56e+00	0	47	104	0	60	1048575
2026-01-18 03:58:53.03	22.43	18.43	-85.2	-88.6	3.0	1.55e+00	0	47	104	0	60	1048575
2026-01-18 03:58:54.04	22.21	18.48	-85.2	-88.6	2.8	1.56e+00	0	47	104	0	60	1048575
2026-01-18 03:58:55.04	21.98	18.52	-85.2	-88.6	3.1	1.56e+00	0	47	104	0	60	1048574
2026-01-18 03:58:56.05	21.76	18.56	-85.2	-88.6	3.1	1.55e+00	0	47	104	0	60	1048574
2026-01-18 03:58:57.05	21.54	18.60	-85.2	-88.6	3.1	1.56e+00	0	47	104	0	60	1048575
2026-01-18 03:58:58.06	21.31	18.65	-85.2	-88.6	2.9	1.56e+00	0	47	104	0	60	1048573
2026-01-18 03:58:59.06	21.08	18.69	-85.2	-88.6	2.9	1.56e+00	0	47	104	0	60	1048570
2026-01-18 03:59:00.07	20.86	18.73	-85.2	-88.6	3.0	1.56e+00	0	47	104	0	60	1048574
2026-01-18 03:59:01.07	20.63	18.77	-85.2	-88.6	3.1	1.56e+00	0	47	104	0	60	1048575
2026-01-18 03:59:02.08	20.40	18.81	-85.2	-88.6	3.0	1.56e+00	0	47	104	0	60	1048574
2026-01-18 03:59:03.08	20.18	18.85	-85.2	-88.6	3.0	1.56e+00	0	47	104	0	60	1048575
2026-01-18 03:59:04.08	19.95	18.89	-85.2	-88.6	2.9	1.56e+00	0	47	104	0	60	1048572
2026-01-18 03:59:05.09	19.72	18.93	-85.2	-88.6	3.0	1.56e+00	0	47	104	0	60	1048573
2026-01-18 03:59:06.10	19.49	18.97	-85.2	-88.6	3.0	1.56e+00	0	47	104	0	60	1048573
2026-01-18 03:59:07.11	19.25	19.01	-85.2	-88.6	2.7	1.56e+00	0	47	104	0	60	1048574
2026-01-18 03:59:08.12	19.02	19.05	-85.2	-88.6	2.8	1.56e+00	0	47	104	0	60	1048575
2026-01-18 03:59:09.12	18.79	19.09	-85.2	-88.6	3.0	1.56e+00	0	47	104	0	60	1048572
2026-01-18 03:59:10.13	18.56	19.12	-85.2	-88.6	3.1	1.56e+00	0	47	104	0	60	1048575
2026-01-18 03:59:11.14	18.32	19.16	-85.2	-88.6	3.1	1.56e+00	0	47	104	0	60	1048571
2026-01-18 03:59:12.15	18.09	19.20	-85.2	-88.6	3.1	1.56e+00	0	47	104	0	60	1048574
2026-01-18 03:59:13.15	17.86	19.23	-85.2	-88.6	2.7	1.56e+00	0	47	104	0	60	1048575
2026-01-18 03:59:14.16	17.62	19.27	-85.2	-88.6	3.0	1.55e+00	0	47	104	0	60	1048574
2026-01-18 03:59:15.17	17.38	19.30	-85.2	-88.6	2.8	1.56e+00	0	47	104	0	60	1048575
2026-01-18 03:59:16.17	17.15	19.34	-85.2	-88.6	3.0	1.56e+00	0	47	104	0	60	1048573
2026-01-18 03:59:17.18	16.91	19.37	-85.2	-88.6	2.9	1.55e+00	0	47	104	0	60	1048575
2026-01-18 03:59:18.18	16.68	19.41	-85.2	-88.6	2.9	1.56e+00	0	47	104	0	60	1048575
2026-01-18 03:59:19.19	16.44	19.44	-85.2	-88.6	3.1	1.56e+00	0	47	104	0	60	1048574
2026-01-18 03:59:20.20	16.20	19.47	-85.2	-88.6	3.0	1.56e+00	0	47	104	0	60	1048575
2026-01-18 03:59:21.21	15.96	19.51	-85.2	-88.6	2.9	1.56e+00	0	47	104	0	60	1048575
2026-01-18 03:59:22.21	15.72	19.54	-85.2	-88.6	3.0	1.56e+00	0	47	104	0	60	1048575
2026-01-18 03:59:23.22	15.48	19.57	-85.2	-88.6	2.8	1.56e+00	0	47	104	0	60	1048574
2026-01-18 03:59:24.23	15.24	19.60	-85.2	-88.6	3.0	1.56e+00	0	47	104	0	60	1048574
2026-01-18 03:59:25.24	15.00	19.63	-85.2	-88.6	2.9	1.55e+00	0	47	104	0	60	1048574
2026-01-18 03:59:26.25	14.76	19.66	-85.2	-88.6	3.1	1.55e+00	0	47	104	0	60	1048573
2026-01-18 03:59:27.26	14.52	19.69	-85.2	-88.6	3.0	1.56e+00	0	47	104	0	60	1048575
2026-01-18 03:59:28.26	14.28	19.72	-85.2	-88.6	3.1	1.56e+00	0	47	104	0	60	1048575
2026-01-18 03:59:29.26	14.03	19.75	-85.2	-88.6	2.8	1.56e+00	0	47	104	0	60	1048574
2026-01-18 03:59:30.27	13.79	19.78	-85.2	-88.6	3.1	1.56e+00	0	47	104	0	60	1048575
2026-01-18 03:59:31.28	13.55	19.80	-85.2	-88.6	3.1	1.56e+00	0	47	104	0	60	1048573
2026-01-18 03:59:32.29	13.30	19.83	-85.2	-88.6	2.8	1.56e+00	0	47	104	0	60	1048567
2026-01-18 03:59:33.29	13.06	19.86	-85.2	-88.6	3.1	1.56e+00	0	47	104	0	60	1048575
2026-01-18 03:59:34.30	12.81	19.88	-85.2	-88.6	3.2	1.56e+00	0	47	104	0	60	1048575
2026-01-18 03:59:35.30	12.57	19.91	-85.2	-88.6	2.9	1.56e+00	0	47	104	0	60	1048575
2026-01-18 03:59:36.31	12.32	19.93	-85.2	-88.6	2.8	1.56e+00	0	47	104	0	60	1048575
2026-01-18 03:59:37.32	12.08	19.96	-85.2	-88.6	3.0	1.56e+00	0	47	104	0	60	1048572
2026-01-18 03:59:38.33	11.83	19.98	-85.2	-88.6	3.1	1.56e+00	0	47	104	0	60	1048574
2026-01-18 03:59:39.33	11.58	20.00	-85.2	-88.6	3.0	1.56e+00	0	47	104	0	60	1048575
2026-01-18 03:59:40.34	11.34	20.03	-85.2	-88.6	3.0	1.55e+00	0	47	104	0	60	1048574
2026-01-18 03:59:41.34	11.09	20.05	-85.2	-88.6	3.1	1.55e+00	0	47	104	0	60	1048575
2026-01-18 03:59:42.35	10.84	20.07	-85.2	-88.6	2.9	1.56e+00	0	47	104	0	60	1048574
2026-01-18 03:59:43.36	10.59	20.09	-85.2	-88.6	2.7	1.55e+00	0	47	104	0	60	1048574
2026-01-18 03:59:44.36	10.35	20.11	-85.2	-88.6	3.1	1.56e+00	0	47	104	0	60	1048574
2026-01-18 03:59:45.37	10.10	20.13	-83.9	-88.6	3.0	1.56e+00	0	47	104	0	60	1048575
2026-01-18 03:59:46.37	9.85	20.15	-85.2	-88.6	3.1	1.56e+00	0	47	104	0	60	1048575
2026-01-18 03:59:47.38	9.60	20.17	-85.2	-88.6	3.0	1.56e+00	0	47	104	0	60	1048575
2026-01-18 03:59:48.38	9.35	20.19	-85.2	-88.6	2.8	1.56e+00	0	47	104	0	60	1048575
2026-01-18 03:59:49.39	9.10	20.21	-85.2	-88.6	3.0	1.56e+00	0	47	104	0	60	1048575
2026-01-18 03:59:50.40	8.85	20.22	-84.3	-88.6	3.0	1.56e+00	0	47	104	0	60	1048575
2026-01-18 03:59:51.41	8.60	20.24	-85.2	-88.6	2.9	1.56e+00	0	47	104	0	60	1048571
2026-01-18 03:59:52.41	8.35	20.25	-85.2	-88.6	3.1	1.55e+00	0	47	104	0	60	1048575
2026-01-18 03:59:53.42	8.10	20.27	-85.2	-88.6	3.1	1.55e+00	0	47	104	0	60	1048571
2026-01-18 03:59:54.43	7.84	20.29	-85.2	-88.6	2.9	1.55e+00	0	47	104	0	60	1048574
2026-01-18 03:59:55.44	7.59	20.30	-85.2	-88.6	3.2	1.56e+00	0	47	104	0	60	1048575
2026-01-18 03:59:56.44	7.34	20.31	-85.2	-88.6	3.0	1.56e+00	0	47	104	0	60	1048575
2026-01-18 03:59:57.45	7.09	20.33	-85.2	-88.6	3.1	1.56e+00	0	47	104	0	60	1048575
2026-01-18 03:59:58.46	6.84	20.34	-85.2	-88.6	3.1	1.56e+00	0	47	104	0	60	1048574
2026-01-18 03:59:59.47	6.58	20.35	-85.2	-88.6	2.9	1.56e+00	0	47	104	0	60	1048575
2026-01-18 04:00:00.48	6.33	20.36	-85.2	-88.6	2.9	1.56e+00	0	47	104	0	60	1048574
2026-01-18 04:00:01.49	6.08	20.37	-83.9	-88.6	2.9	1.56e+00	0	47	104	0	60	1048575
2026-01-18 04:00:02.49	5.82	20.38	-85.2	-88.6	2.9	1.56e+00	0	47	104	0	60	1048575
2026-01-18 04:00:03.50	5.57	20.39	-85.2	-88.6	3.1	1.56e+00	0	47	104	0	60	1048575
2026-01-18 04:00:04.50	5.32	20.40	-85.2	-88.6	3.1	1.56e+00	0	47	104	0	60	1048574
2026-01-18 04:00:05.51	5.06	20.41	-85.2	-88.6	3.1	1.55e+00	0	47	104	0	60	1048575
2026-01-18 04:00:06.51	4.81	20.42	-85.2	-88.6	3.2	1.55e+00	0	47	104	0	60	1048573
2026-01-18 04:00:07.52	4.56	20.43	-85.2	-88.6	3.2	1.56e+00	0	47	104	0	60	1048575
2026-01-18 04:00:08.53	4.30	20.43	-85.2	-88.6	2.9	1.56e+00	0	47	104	0	60	1048574
2026-01-18 04:00:09.54	4.05	20.44	-85.2	-88.6	3.2	1.55e+00	0	47	104	0	60	1048575
2026-01-18 04:00:10.54	3.80	20.44	-85.2	-88.6	3.0	1.56e+00	0	47	104	0	60	1048572
2026-01-18 04:00:11.55	3.54	20.45	-84.7	-88.6	3.0	1.56e+00	0	47	104	0	60	1048574
2026-01-18 04:00:12.56	3.29	20.45	-85.2	-88.6	3.0	1.55e+00	0	47	104	0	60	1048575
2026-01-18 04:00:13.56	3.03	20.46	-85.2	-88.6	3.1	1.56e+00	0	47	104	0	60	1048573
2026-01-18 04:00:14.57	2.78	20.46	-85.2	-88.6	3.1	1.56e+00	0	47	104	0	60	1048574
2026-01-18 04:00:15.58	2.52	20.46	-85.2	-88.6	3.0	1.56e+00	0	47	104	0	60	1048575
2026-01-18 04:00:16.59	2.27	20.46	-85.2	-88.6	3.0	1.56e+00	0	47	104	0	60	1048575
2026-01-18 04:00:17.60	2.01	20.47	-85.2	-88.6	3.2	1.55e+00	0	47	104	0	60	1048572
2026-01-18 04:00:18.60	1.76	20.47	-85.2	-88.6	2.9	1.55e+00	0	47	104	0	60	1048574
2026-01-18 04:00:19.60	1.51	20.47	-85.2	-88.6	3.0	1.55e+00	0	47	104	0	60	1048575
2026-01-18 04:00:20.61	1.25	20.47	-85.2	-88.6	3.1	1.56e+00	0	47	104	0	60	1048575
2026-01-18 04:00:21.62	1.00	20.47	-85.2	-88.6	3.1	1.56e+00	0	47	104	0	60	1048574
2026-01-18 04:00:22.62	0.74	20.46	-85.2	-88.6	3.1	1.56e+00	0	47	104	0	60	1048574
2026-01-18 04:00:23.64	0.49	20.46	-85.2	-88.6	3.1	1.56e+00	0	47	104	0	60	1048575
2026-01-18 04:00:24.64	0.23	20.46	-85.2	-88.6	3.1	1.55e+00	0	47	104	0	60	1048575
2026-01-18 04:00:25.65	359.98	20.46	-85.2	-88.6	3.2	1.56e+00	0	47	104	0	60	1048574
2026-01-18 04:00:26.65	359.72	20.45	-84.3	-88.6	3.0	1.56e+00	0	47	104	0	60	1048572
2026-01-18 04:00:27.66	359.47	20.45	-85.2	-88.6	3.2	1.56e+00	0	47	104	0	60	1048575
2026-01-18 04:00:28.66	359.22	20.44	-85.2	-88.6	2.9	1.56e+00	0	47	104	0	60	1048573
2026-01-18 04:00:29.67	358.96	20.44	-85.2	-88.6	2.9	1.55e+00	0	47	104	0	60	1048573
2026-01-18 04:00:30.68	358.71	20.43	-85.2	-88.6	3.1	1.56e+00	0	47	104	0	60	1048575
2026-01-18 04:00:31.68	358.46	20.42	-85.2	-88.6	2.9	1.56e+00	0	47	104	0	60	1048575
2026-01-18 04:00:32.69	358.20	20.41	-85.2	-88.6	2.9	1.56e+00	0	47	104	0	60	1048573
2026-01-18 04:00:33.70	357.95	20.41	-85.2	-88.6	3.1	1.56e+00	0	47	104	0	60	1048573
2026-01-18 04:00:34.70	357.69	20.40	-85.2	-88.6	3.0	1.55e+00	0	47	104	0	60	1048575
2026-01-18 04:00:35.71	357.44	20.39	-85.2	-88.6	3.1	1.56e+00	0	47	104	0	60	1048574
2026-01-18 04:00:36.72	357.19	20.38	-85.2	-88.6	2.8	1.55e+00	0	47	104	0	60	1048574
2026-01-18 04:00:37.73	356.93	20.37	-85.2	-88.6	3.2	1.56e+00	0	47	104	0	60	1048575
2026-01-18 04:00:38.73	356.68	20.36	-85.2	-88.6	3.0	1.56e+00	0	47	104	0	60	1048573
2026-01-18 04:00:39.74	356.43	20.35	-85.2	-88.6	3.1	1.55e+00	0	47	104	0	60	1048574
2026-01-18 04:00:40.75	356.18	20.33	-85.2	-88.6	2.9	1.56e+00	0	47	104	0	60	1048574
2026-01-18 04:00:41.76	355.92	20.32	-84.3	-88.6	3.0	1.56e+00	0	47	104	0	60	1048575
2026-01-18 04:00:42.76	355.67	20.31	-85.2	-88.6	3.1	1.55e+00	0	47	104	0	60	1048575
2026-01-18 04:00:43.77	355.42	20.29	-85.2	-88.6	3.0	1.56e+00	0	47	104	0	60	1048575
2026-01-18 04:00:44.78	355.17	20.28	-85.2	-88.6	2.8	1.55e+00	0	47	104	0	60	1048575
2026-01-18 04:00:45.78	354.92	20.26	-85.2	-88.6	3.0	1.56e+00	0	47	104	0	60	1048575
2026-01-18 04:00:46.79	354.67	20.25	-85.2	-88.6	3.1	1.56e+00	0	47	104	0	60	1048574
2026-01-18 04:00:47.80	354.41	20.23	-85.2	-88.6	3.2	1.56e+00	0	47	104	0	60	1048571
2026-01-18 04:00:48.81	354.16	20.21	-85.2	-88.6	3.1	1.56e+00	0	47	104	0	60	1048575
2026-01-18 04:00:49.82	353.91	20.20	-85.2	-88.6	2.9	1.56e+00	0	47	104	0	60	1048574
2026-01-18 04:00:50.82	353.66	20.18	-85.2	-88.6	3.1	1.56e+00	0	47	104	0	60	1048574
2026-01-18 04:00:51.83	353.41	20.16	-84.3	-88.6	3.2	1.56e+00	0	47	104	0	60	1048574
2026-01-18 04:00:52.83	353.17	20.14	-85.2	-88.6	3.0	1.55e+00	0	47	104	0	60	1048574
2026-01-18 04:00:53.83	352.92	20.12	-85.2	-88.6	2.9	1.56e+00	0	47	104	0	60	1048574
2026-01-18 04:00:54.84	352.67	20.10	-85.2	-88.6	3.0	1.56e+00	0	47	104	0	60	1048575
2026-01-18 04:00:55.84	352.42	20.08	-85.2	-88.6	3.1	1.56e+00	0	47	104	0	60	1048575
2026-01-18 04:00:56.85	352.17	20.06	-84.7	-88.6	2.9	1.56e+00	0	47	104	0	60	1048573
2026-01-18 04:00:57.86	351.93	20.04	-85.2	-88.6	3.0	1.56e+00	0	47	104	0	60	1048575
2026-01-18 04:00:58.86	351.68	20.02	-85.2	-88.6	3.1	1.55e+00	0	47	104	0	60	1048575
2026-01-18 04:00:59.87	351.43	19.99	-85.2	-88.6	3.0	1.55e+00	0	47	104	0	60	1048575
2026-01-18 04:01:00.88	351.18	19.97	-85.2	-88.6	2.9	1.56e+00	0	47	104	0	60	1048575
2026-01-18 04:01:01.88	350.94	19.94	-84.7	-88.6	3.1	1.56e+00	0	47	104	0	60	1048575
2026-01-18 04:01:02.89	350.69	19.92	-85.2	-88.6	2.8	1.56e+00	0	47	104	0	60	1048575
2026-01-18 04:01:03.90	350.45	19.89	-85.2	-88.6	3.0	1.55e+00	0	47	104	0	60	1048575
2026-01-18 04:01:04.91	350.20	19.87	-85.2	-88.6	2.9	1.56e+00	0	47	104	0	60	1048575
2026-01-18 04:01:05.91	349.96	19.84	-85.2	-88.6	3.0	1.56e+00	0	47	104	0	60	1048575
2026-01-18 04:01:06.91	349.72	19.82	-84.7	-88.6	3.1	1.55e+00	0	47	104	0	60	1048575
2026-01-18 04:01:07.92	349.47	19.79	-85.2	-88.6	3.0	1.56e+00	0	47	104	0	60	1048575
2026-01-18 04:01:08.92	349.23	19.76	-85.2	-88.6	2.9	1.56e+00	0	47	104	0	60	1048573
2026-01-18 04:01:09.92	348.99	19.73	-85.2	-88.6	3.1	1.56e+00	0	47	104	0	60	1048573
2026-01-18 04:01:10.93	348.75	19.71	-85.2	-88.6	3.3	1.56e+00	0	47	104	0	60	1048575
2026-01-18 04:01:11.93	348.51	19.68	-84.7	-88.6	3.0	1.55e+00	0	47	104	0	60	1048574
2026-01-18 04:01:12.94	348.26	19.65	-85.2	-88.6	3.0	1.55e+00	0	47	104	0	60	1048575
2026-01-18 04:01:13.95	348.02	19.62	-85.2	-88.6	2.8	1.56e+00	0	47	104	0	60	1048572
2026-01-18 04:01:14.96	347.78	19.59	-85.2	-88.6	3.0	1.55e+00	0	47	104	0	60	1048575
2026-01-18 04:01:15.96	347.54	19.55	-85.2	-88.6	2.9	1.55e+00	0	47	104	0	60	1048575
2026-01-18 04:01:16.97	347.30	19.52	-85.2	-88.6	2.8	1.55e+00	0	47	104	0	60	1048575
2026-01-18 04:01:17.97	347.07	19.49	-85.2	-88.6	3.0	1.56e+00	0	47	104	0	60	1048574
2026-01-18 04:01:18.97	346.83	19.46	-85.2	-88.6	3.0	1.56e+00	0	47	104	0	60	1048575
2026-01-18 04:01:19.98	346.59	19.43	-85.2	-88.6	3.1	1.55e+00	0	47	104	0	60	1048575
2026-01-18 04:01:20.99	346.35	19.39	-85.2	-88.6	2.9	1.56e+00	0	47	104	0	60	1048573
2026-01-18 04:01:22.00	346.11	19.36	-84.7	-88.6	3.0	1.56e+00	0	47	104	0	60	1048574
2026-01-18 04:01:23.00	345.88	19.32	-85.2	-88.6	3.1	1.55e+00	0	47	104	0	60	1048572
2026-01-18 04:01:24.01	345.64	19.29	-85.2	-88.6	3.2	1.55e+00	0	47	104	0	60	1048575
2026-01-18 04:01:25.01	345.41	19.25	-85.2	-88.6	2.8	1.55e+00	0	47	104	0	60	1048573
2026-01-18 04:01:26.02	345.17	19.22	-85.2	-88.6	3.0	1.56e+00	0	47	104	0	60	1048575
2026-01-18 04:01:27.02	344.94	19.18	-84.7	-88.6	2.9	1.56e+00	0	47	104	0	60	1048575
2026-01-18 04:01:28.03	344.71	19.14	-85.2	-88.6	2.9	1.56e+00	0	47	104	0	60	1048569
2026-01-18 04:01:29.03	344.48	19.11	-85.2	-88.6	3.0	1.56e+00	0	47	104	0	60	1048574
2026-01-18 04:01:30.04	344.24	19.07	-85.2	-88.6	3.0	1.56e+00	0	47	104	0	60	1048573
2026-01-18 04:01:31.05	344.01	19.03	-85.2	-88.6	3.2	1.56e+00	0	47	104	0	60	1048575
2026-01-18 04:01:32.05	343.78	18.99	-85.2	-88.6	2.9	1.56e+00	0	47	104	0	60	1048575
2026-01-18 04:01:33.05	343.55	18.95	-85.2	-88.6	3.0	1.56e+00	0	47	104	0	60	1048575
2026-01-18 04:01:34.06	343.32	18.92	-85.2	-88.6	3.2	1.56e+00	0	47	104	0	60	1048574
2026-01-18 04:01:35.06	343.09	18.88	-85.2	-88.6	2.9	1.56e+00	0	47	104	0	60	1048575
2026-01-18 04:01:36.07	342.86	18.84	-85.2	-88.6	3.0	1.56e+00	0	47	104	0	60	1048573
2026-01-18 04:01:37.08	342.63	18.79	-85.2	-88.6	2.7	1.56e+00	0	47	104	0	60	1048575
2026-01-18 04:01:38.09	342.41	18.75	-85.2	-88.6	3.0	1.56e+00	0	47	104	0	60	1048570
2026-01-18 04:01:39.09	342.18	18.71	-85.2	-88.6	3.1	1.56e+00	0	47	104	0	60	1048574
2026-01-18 04:01:40.09	341.96	18.67	-85.2	-88.6	3.0	1.56e+00	0	47	104	0	60	1048575
2026-01-18 04:01:41.09	341.73	18.63	-85.2	-88.6	3.0	1.56e+00	0	47	104	0	60	1048575
2026-01-18 04:01:42.10	341.51	18.59	-85.2	-88.6	3.0	1.56e+00	0	47	104	0	60	1048570
2026-01-18 04:01:43.11	341.28	18.54	-85.2	-88.6	2.6	1.55e+00	0	47	104	0	60	1048575
2026-01-18 04:01:44.12	341.06	18.50	-85.2	-88.6	3.1	1.55e+00	0	47	104	0	60	1048574
2026-01-18 04:01:45.13	340.83	18.46	-85.2	-88.6	2.9	1.56e+00	0	47	104	0	60	1048574
2026-01-18 04:01:46.13	340.61	18.41	-85.2	-88.6	2.9	1.56e+00	0	47	104	0	60	1048567
2026-01-18 04:01:47.13	340.39	18.37	-85.2	-88.6	3.0	1.55e+00	0	47	104	0	60	1048571
2026-01-18 04:01:48.14	340.17	18.32	-85.2	-88.6	3.1	1.55e+00	0	47	104	0	60	1048574
2026-01-18 04:01:49.14	339.95	18.28	-85.2	-88.6	2.9	1.56e+00	0	47	104	0	60	1048574
2026-01-18 04:01:50.15	339.73	18.23	-85.2	-88.6	3.0	1.56e+00	0	47	104	0	60	1048575
2026-01-18 04:01:51.15	339.51	18.19	-85.2	-88.6	3.0	1.56e+00	0	47	104	0	60	1048570
2026-01-18 04:01:52.16	339.29	18.14	-85.2	-88.6	3.0	1.55e+00	0	47	104	0	60	1048575
2026-01-18 04:01:53.17	339.07	18.09	-85.2	-88.6	3.0	1.55e+00	0	47	104	0	60	1048574
2026-01-18 04:01:54.18	338.86	18.05	-85.2	-88.6	3.1	1.56e+00	0	47	104	0	60	1048571
2026-01-18 04:01:55.19	338.64	18.00	-85.2	-88.6	3.1	1.56e+00	0	47	104	0	60	1048575
2026-01-18 04:01:56.20	338.42	17.95	-85.2	-88.6	3.0	1.55e+00	0	47	104	0	60	1048575
2026-01-18 04:01:57.20	338.21	17.90	-85.2	-88.6	3.1	1.56e+00	0	47	104	0	60	1048574
2026-01-18 04:01:58.21	337.99	17.86	-85.2	-88.6	2.7	1.56e+00	0	47	104	0	60	1048575
2026-01-18 04:01:59.22	337.78	17.81	-85.2	-88.6	3.0	1.56e+00	0	47	104	0	60	1048575
2026-01-18 04:02:00.23	337.57	17.76	-85.2	-88.6	3.1	1.56e+00	0	47	104	0	60	1048574
2026-01-18 04:02:01.23	337.36	17.71	-85.2	-88.6	3.0	1.56e+00	0	47	104	0	60	1048574
2026-01-18 04:02:02.23	337.14	17.66	-85.2	-88.6	3.0	1.56e+00	0	47	104	0	60	1048574
2026-01-18 04:02:03.24	336.93	17.61	-85.2	-88.6	2.9	1.55e+00	0	47	104	0	60	1048574
2026-01-18 04:02:04.25	336.72	17.56	-85.2	-88.6	3.1	1.56e+00	0	47	104	0	60	1048574
2026-01-18 04:02:05.26	336.51	17.51	-85.2	-88.6	3.0	1.56e+00	0	47	104	0	60	1048574
2026-01-18 04:02:06.26	336.30	17.46	-85.2	-88.6	3.0	1.56e+00	0	47	104	0	60	1048575
2026-01-18 04:02:07.27	336.10	17.41	-85.2	-88.6	3.0	1.56e+00	0	47	104	0	60	1048575
2026-01-18 04:02:08.28	335.89	17.36	-85.2	-88.6	2.9	1.56e+00	0	47	104	0	60	1048575
2026-01-18 04:02:09.28	335.68	17.31	-85.2	-88.6	3.0	1.55e+00	0	47	104	0	60	1048575
2026-01-18 04:02:10.29	335.48	17.25	-85.2	-88.6	3.0	1.55e+00	0	47	104	0	60	1048574
2026-01-18 04:02:11.30	335.27	17.20	-85.2	-88.6	3.1	1.56e+00	0	47	104	0	60	1048575
2026-01-18 04:02:12.31	335.06	17.15	-85.2	-88.6	3.1	1.56e+00	0	47	104	0	60	1048575
2026-01-18 04:02:13.32	334.86	17.10	-85.2	-88.6	3.0	1.56e+00	0	47	104	0	60	1048574
2026-01-18 04:02:14.32	334.66	17.04	-85.2	-88.6	2.9	1.56e+00	0	47	104	0	60	1048575
2026-01-18 04:02:15.33	334.46	16.99	-85.2	-88.6	3.1	1.56e+00	0	47	104	0	60	1048575
2026-01-18 04:02:16.34	334.25	16.94	-85.2	-88.6	2.8	1.56e+00	0	47	104	0	60	1048572
2026-01-18 04:02:17.34	334.05	16.88	-85.2	-88.6	3.0	1.56e+00	0	47	104	0	60	1048575
2026-01-18 04:02:18.35	333.85	16.83	-85.2	-88.6	3.2	1.56e+00	0	47	104	0	60	1048575
2026-01-18 04:02:19.35	333.65	16.78	-85.2	-88.6	3.0	1.56e+00	0	47	104	0	60	1048575
2026-01-18 04:02:20.36	333.46	16.72	-85.2	-88.6	2.8	1.56e+00	0	47	104	0	60	1048575
2026-01-18 04:02:21.37	333.26	16.67	-85.2	-88.6	2.9	1.56e+00	0	47	104	0	60	1048575
2026-01-18 04:02:22.38	333.06	16.61	-85.2	-88.6	3.0	1.56e+00	0	47	104	0	60	1048575
2026-01-18 04:02:23.38	332.86	16.56	-85.2	-88.6	3.0	1.56e+00	0	47	104	0	60	1048575
2026-01-18 04:02:24.39	332.67	16.50	-85.2	-88.6	2.9	1.55e+00	0	47	104	0	60	1048575
2026-01-18 04:02:25.40	332.47	16.45	-85.2	-88.6	3.2	1.56e+00	0	47	104	0	60	1048575
2026-01-18 04:02:26.41	332.28	16.39	-85.2	-88.6	3.1	1.56e+00	0	47	104	0	60	1048575
2026-01-18 04:02:27.42	332.08	16.33	-85.2	-88.6	3.1	1.56e+00	0	47	104	0	60	1048575
2026-01-18 04:02:28.42	331.89	16.28	-85.2	-88.6	3.0	1.55e+00	0	47	104	0	60	1048574
2026-01-18 04:02:29.43	331.70	16.22	-85.2	-88.6	3.1	1.55e+00	0	47	104	0	60	1048572
2026-01-18 04:02:30.44	331.51	16.17	-85.2	-88.6	3.1	1.55e+00	0	47	104	0	60	1048571
2026-01-18 04:02:31.44	331.32	16.11	-85.2	-88.6	2.9	1.56e+00	0	47	104	0	60	1048575
2026-01-18 04:02:32.44	331.13	16.05	-85.2	-88.6	2.9	1.55e+00	0	47	104	0	60	1048574
2026-01-18 04:02:33.45	330.94	16.00	-85.2	-88.6	3.1	1.56e+00	0	47	104	0	60	1048573
2026-01-18 04:02:34.46	330.75	15.94	-85.2	-88.6	3.1	1.55e+00	0	47	104	0	60	1048574
2026-01-18 04:02:35.46	330.56	15.88	-85.2	-88.6	2.9	1.56e+00	0	47	104	0	60	1048575
2026-01-18 04:02:36.46	330.38	15.82	-85.2	-88.6	2.9	1.55e+00	0	47	104	0	60	1048575
2026-01-18 04:02:37.47	330.19	15.77	-85.2	-88.6	3.0	1.56e+00	0	47	104	0	60	1048574
2026-01-18 04:02:38.48	330.00	15.71	-85.2	-88.6	3.2	1.55e+00	0	47	104	0	60	1048575
2026-01-18 04:02:39.48	329.82	15.65	-85.2	-88.6	2.9	1.56e+00	0	47	104	0	60	1048575
2026-01-18 04:02:40.49	329.63	15.59	-85.2	-88.6	2.8	1.56e+00	0	47	104	0	60	1048575
2026-01-18 04:02:41.50	329.45	15.53	-85.2	-88.6	3.0	1.56e+00	0	47	104	0	60	1048575
2026-01-18 04:02:42.51	329.27	15.48	-85.2	-88.6	2.9	1.56e+00	0	47	104	0	60	1048575
2026-01-18 04:02:43.52	329.08	15.42	-85.2	-88.6	3.0	1.56e+00	0	47	104	0	60	1048574
2026-01-18 04:02:44.53	328.90	15.36	-85.2	-88.6	2.9	1.56e+00	0	47	104	0	60	1048575
2026-01-18 04:02:45.53	328.72	15.30	-85.2	-88.6	2.9	1.56e+00	0	47	104	0	60	1048575
2026-01-18 04:02:46.54	328.54	15.24	-85.2	-88.6	3.0	1.56e+00	0	47	104	0	60	1048575
2026-01-18 04:02:47.55	328.36	15.18	-85.2	-88.6	3.0	1.56e+00	0	47	104	0	60	1048575
2026-01-18 04:02:48.56	328.18	15.12	-85.2	-88.6	3.1	1.56e+00	0	47	104	0	60	1048575
2026-01-18 04:02:49.56	328.01	15.06	-85.2	-88.6	3.1	1.55e+00	0	47	104	0	60	1048574
2026-01-18 04:02:50.57	327.83	15.00	-85.2	-88.6	3.0	1.56e+00	0	47	104	0	60	1048574
2026-01-18 04:02:51.58	327.65	14.94	-85.2	-88.6	2.8	1.56e+00	0	47	104	0	60	1048573
2026-01-18 04:02:52.59	327.48	14.88	-85.2	-88.6	2.9	1.56e+00	0	47	104	0	60	1048569
2026-01-18 04:02:53.59	327.30	14.82	-85.2	-88.6	3.0	1.56e+00	0	47	104	0	60	1048575
2026-01-18 04:02:54.60	327.13	14.76	-85.2	-88.6	3.0	1.55e+00	0	47	104	0	60	1048575
2026-01-18 04:02:55.60	326.96	14.70	-85.2	-88.6	2.9	1.56e+00	0	47	104	0	60	1048574
2026-01-18 04:02:56.61	326.78	14.64	-85.2	-88.6	3.1	1.56e+00	0	47	104	0	60	1048572
2026-01-18 04:02:57.61	326.61	14.58	-85.2	-88.6	3.0	1.56e+00	0	47	104	0	60	1048575
2026-01-18 04:02:58.62	326.44	14.52	-85.2	-88.6	3.1	1.56e+00	0	47	104	0	60	1048574
2026-01-18 04:02:59.62	326.27	14.46	-85.2	-88.6	3.0	1.55e+00	0	47	104	0	60	1048573
2026-01-18 04:03:00.63	326.10	14.40	-85.2	-88.6	3.0	1.56e+00	0	47	104	0	60	1048575
2026-01-18 04:03:01.64	325.93	14.34	-85.2	-88.6	2.9	1.56e+00	0	47	104	0	60	1048575
2026-01-18 04:03:02.64	325.76	14.28	-85.2	-88.6	3.0	1.56e+00	0	47	104	0	60	1048575
2026-01-18 04:03:03.65	325.60	14.22	-85.2	-88.6	3.1	1.56e+00	0	47	104	0	60	1048575
2026-01-18 04:03:04.66	325.43	14.15	-85.2	-88.6	2.9	1.56e+00	0	47	104	0	60	1048575
2026-01-18 04:03:05.66	325.26	14.09	-85.2	-88.6	2.9	1.56e+00	0	47	104	0	60	1048575
2026-01-18 04:03:06.66	325.10	14.03	-85.2	-88.6	3.1	1.56e+00	0	47	104	0	60	1048573
2026-01-18 04:03:07.67	324.93	13.97	-85.2	-88.6	3.0	1.55e+00	0	47	104	0	60	1048573
2026-01-18 04:03:08.68	324.77	13.91	-85.2	-88.6	3.0	1.56e+00	0	47	104	0	60	1048575
2026-01-18 04:03:09.68	324.61	13.85	-85.2	-88.6	3.2	1.55e+00	0	47	104	0	60	1048575
2026-01-18 04:03:10.69	324.44	13.79	-85.2	-88.6	3.2	1.56e+00	0	47	104	0	60	1048573
2026-01-18 04:03:11.69	324.28	13.72	-85.2	-88.6	2.8	1.56e+00	0	47	104	0	60	1048571
2026-01-18 04:03:12.70	324.12	13.66	-85.2	-88.6	2.9	1.55e+00	0	47	104	0	60	1048575
2026-01-18 04:03:13.71	323.96	13.60	-85.2	-88.6	3.1	1.55e+00	0	47	104	0	60	1048575
2026-01-18 04:03:14.72	323.80	13.54	-85.2	-88.6	3.1	1.56e+00	0	47	104	0	60	1048571
2026-01-18 04:03:15.72	323.64	13.48	-85.2	-88.6	2.9	1.56e+00	0	47	104	0	60	1048573
2026-01-18 04:03:16.73	323.48	13.41	-85.2	-88.6	3.0	1.56e+00	0	47	104	0	60	1048574
2026-01-18 04:03:17.74	323.32	13.35	-85.2	-88.6	3.1	1.55e+00	0	47	104	0	60	1048575
2026-01-18 04:03:18.75	323.16	13.29	-85.2	-88.6	2.9	1.56e+00	0	47	104	0	60	1048572
2026-01-18 04:03:19.76	323.01	13.23	-85.2	-88.6	3.1	1.56e+00	0	47	104	0	60	1048575
2026-01-18 04:03:20.77	322.85	13.16	-85.2	-88.6	3.1	1.56e+00	0	47	104	0	60	1048574
2026-01-18 04:03:21.77	322.70	13.10	-85.2	-88.6	3.1	1.56e+00	0	47	104	0	60	1048574
2026-01-18 04:03:22.78	322.54	13.04	-85.2	-88.6	2.9	1.56e+00	0	47	104	0	60	1048575
2026-01-18 04:03:23.79	322.39	12.98	-85.2	-88.6	3.1	1.56e+00	0	47	104	0	60	1048574
2026-01-18 04:03:24.79	322.23	12.91	-85.2	-88.6	3.1	1.56e+00	0	47	104	0	60	1048574
2026-01-18 04:03:25.80	322.08	12.85	-85.2	-88.6	3.0	1.56e+00	0	47	104	0	60	1048573
2026-01-18 04:03:26.80	321.93	12.79	-85.2	-88.6	3.1	1.55e+00	0	47	104	0	60	1048573
2026-01-18 04:03:27.80	321.78	12.73	-85.2	-88.6	2.9	1.56e+00	0	47	104	0	60	1048574
2026-01-18 04:03:28.80	321.63	12.66	-85.2	-88.6	3.0	1.55e+00	0	47	104	0	60	1048575
2026-01-18 04:03:29.80	321.48	12.60	-85.2	-88.6	2.9	1.56e+00	0	47	104	0	60	1048573
2026-01-18 04:03:30.81	321.33	12.54	-85.2	-88.6	3.1	1.55e+00	0	47	104	0	60	1048572
2026-01-18 04:03:31.82	321.18	12.48	-85.2	-88.6	3.1	1.56e+00	0	47	104	0	60	1048573
2026-01-18 04:03:32.83	321.03	12.41	-85.2	-88.6	2.9	1.56e+00	0	47	104	0	60	1048574
2026-01-18 04:03:33.84	320.89	12.35	-85.2	-88.6	3.0	1.56e+00	0	47	104	0	60	1048574
2026-01-18 04:03:34.85	320.74	12.29	-85.2	-88.6	3.1	1.56e+00	0	47	104	0	60	1048575
2026-01-18 04:03:35.86	320.59	12.22	-85.2	-88.6	3.0	1.56e+00	0	47	104	0	60	1048575
2026-01-18 04:03:36.87	320.45	12.16	-85.2	-88.6	2.9	1.56e+00	0	47	104	0	60	1048573
2026-01-18 04:03:37.87	320.30	12.10	-85.2	-88.6	2.8	1.56e+00	0	47	104	0	60	1048575
2026-01-18 04:03:38.88	320.16	12.03	-85.2	-88.6	2.9	1.56e+00	0	47	104	0	60	1048575
2026-01-18 04:03:39.88	320.01	11.97	-85.2	-88.6	2.8	1.56e+00	0	47	104	0	60	1048575
2026-01-18 04:03:40.89	319.87	11.91	-85.2	-88.6	2.9	1.56e+00	0	47	104	0	60	1048575
2026-01-18 04:03:41.90	319.73	11.85	-85.2	-88.6	3.2	1.56e+00	0	47	104	0	60	1048573
2026-01-18 04:03:42.91	319.59	11.78	-85.2	-88.6	3.0	1.56e+00	0	47	104	0	60	1048571
2026-01-18 04:03:43.91	319.45	11.72	-85.2	-88.6	3.1	1.56e+00	0	47	104	0	60	1048573
2026-01-18 04:03:44.92	319.30	11.66	-85.2	-88.6	3.2	1.55e+00	0	47	104	0	60	1048574
2026-01-18 04:03:45.92	319.17	11.59	-85.2	-88.6	2.9	1.56e+00	0	47	104	0	60	1048575
2026-01-18 04:03:46.93	319.03	11.53	-85.2	-88.6	3.0	1.56e+00	0	47	104	0	60	1048575
2026-01-18 04:03:47.94	318.89	11.47	-84.7	-88.6	3.1	1.56e+00	0	47	104	0	60	1048574
2026-01-18 04:03:48.94	318.75	11.40	-85.2	-88.6	3.1	1.56e+00	0	47	104	0	60	1048575
2026-01-18 04:03:49.95	318.61	11.34	-85.2	-88.6	2.9	1.56e+00	0	47	104	0	60	1048575
2026-01-18 04:03:50.96	318.47	11.28	-85.2	-88.6	3.0	1.55e+00	0	47	104	0	60	1048575
2026-01-18 04:03:51.97	318.34	11.21	-85.2	-88.6	3.0	1.56e+00	0	47	104	0	60	1048573
2026-01-18 04:03:52.97	318.20	11.15	-85.2	-88.6	3.1	1.55e+00	0	47	104	0	60	1048575
2026-01-18 04:03:53.98	318.07	11.09	-85.2	-88.6	3.2	1.56e+00	0	47	104	0	60	1048574
2026-01-18 04:03:54.99	317.93	11.03	-85.2	-88.6	2.8	1.56e+00	0	47	104	0	60	1048573
2026-01-18 04:03:56.00	317.80	10.96	-85.2	-88.6	2.8	1.56e+00	0	47	104	0	60	1048575
2026-01-18 04:03:57.01	317.66	10.90	-85.2	-88.6	3.0	1.56e+00	0	47	104	0	60	1048574
2026-01-18 04:03:58.01	317.53	10.84	-85.2	-88.6	3.1	1.56e+00	0	47	104	0	60	1048575
2026-01-18 04:03:59.01	317.40	10.77	-85.2	-88.6	2.8	1.55e+00	0	47	104	0	60	1048573
2026-01-18 04:04:00.02	317.27	10.71	-85.2	-88.6	3.1	1.55e+00	0	47	104	0	60	1048575
2026-01-18 04:04:01.03	317.14	10.65	-85.2	-88.6	3.0	1.56e+00	0	47	104	0	60	1048574
2026-01-18 04:04:02.03	317.01	10.58	-85.2	-88.6	2.9	1.55e+00	0	47	104	0	60	1048574
2026-01-18 04:04:03.04	316.88	10.52	-85.2	-88.6	2.9	1.55e+00	0	47	104	0	60	1048575
2026-01-18 04:04:04.04	316.75	10.46	-85.2	-88.6	3.0	1.56e+00	0	47	104	0	60	1048575
2026-01-18 04:04:05.05	316.62	10.40	-85.2	-88.6	2.9	1.56e+00	0	47	104	0	60	1048575
2026-01-18 04:04:06.06	316.49	10.33	-85.2	-88.6	3.0	1.56e+00	0	47	104	0	60	1048575
2026-01-18 04:04:07.07	316.36	10.27	-85.2	-88.6	3.1	1.56e+00	0	47	104	0	60	1048575
2026-01-18 04:04:08.08	316.24	10.21	-85.2	-88.6	3.0	1.55e+00	0	47	104	0	60	1048573
2026-01-18 04:04:09.09	316.11	10.14	-85.2	-88.6	3.1	1.56e+00	0	47	104	0	60	1048575
2026-01-18 04:04:10.09	315.98	10.08	-85.2	-88.6	2.9	1.56e+00	0	47	104	0	60	1048573
2026-01-18 04:04:11.10	315.86	10.02	-85.2	-88.6	3.1	1.56e+00	0	47	104	0	60	1048575
2026-01-18 04:04:12.11	315.73	9.95	-85.2	-88.6	3.1	1.55e+00	0	47	104	0	60	1048575
2026-01-18 04:04:13.12	315.61	9.89	-85.2	-88.6	3.2	1.56e+00	0	47	104	0	60	1048575
2026-01-18 04:04:14.12	315.49	9.83	-85.2	-88.6	3.0	1.56e+00	0	47	104	0	60	1048574
2026-01-18 04:04:15.13	315.36	9.77	-85.2	-88.6	2.9	1.56e+00	0	47	104	0	60	1048574
2026-01-18 04:04:16.13	315.24	9.70	-85.2	-88.6	3.1	1.56e+00	0	47	104	0	60	1048575
2026-01-18 04:04:17.14	315.12	9.64	-85.2	-88.6	3.0	1.56e+00	0	47	104	0	60	1048575
2026-01-18 04:04:18.15	315.00	9.58	-85.2	-88.6	3.0	1.55e+00	0	47	104	0	60	1048575
2026-01-18 04:04:19.16	314.87	9.52	-85.2	-88.6	3.2	1.55e+00	0	47	104	0	60	1048572
2026-01-18 04:04:20.17	314.75	9.45	-85.2	-88.6	2.9	1.55e+00	0	47	104	0	60	1048574
2026-01-18 04:04:21.17	314.63	9.39	-85.2	-88.6	3.0	1.56e+00	0	47	104	0	60	1048574
2026-01-18 04:04:22.18	314.51	9.33	-85.2	-88.6	3.0	1.56e+00	0	47	104	0	60	1048573
2026-01-18 04:04:23.19	314.40	9.27	-85.2	-88.6	3.2	1.56e+00	0	47	104	0	60	1048575
2026-01-18 04:04:24.20	314.28	9.20	-85.2	-88.6	3.2	1.55e+00	0	47	104	0	60	1048575
2026-01-18 04:04:25.21	314.16	9.14	-85.2	-88.6	3.2	1.56e+00	0	47	104	0	60	1048574
2026-01-18 04:04:26.21	314.04	9.08	-85.2	-88.6	3.1	1.56e+00	0	47	104	0	60	1048575
2026-01-18 04:04:27.22	313.92	9.02	-85.2	-88.6	3.0	1.56e+00	0	47	104	0	60	1048575
2026-01-18 04:04:28.23	313.81	8.95	-85.2	-88.6	3.1	1.56e+00	0	47	104	0	60	1048574
2026-01-18 04:04:29.24	313.69	8.89	-85.2	-88.6	2.8	1.56e+00	0	47	104	0	60	1048575
2026-01-18 04:04:30.24	313.58	8.83	-85.2	-88.6	2.9	1.56e+00	0	47	104	0	60	1048575
2026-01-18 04:04:31.25	313.46	8.77	-85.2	-88.6	2.9	1.56e+00	0	47	104	0	60	1048575
2026-01-18 04:04:32.25	313.35	8.71	-85.2	-88.6	3.0	1.56e+00	0	47	104	0	60	1048574
2026-01-18 04:04:33.26	313.23	8.64	-85.2	-88.6	2.7	1.56e+00	0	47	104	0	60	1048575
2026-01-18 04:04:34.27	313.12	8.58	-85.2	-88.6	3.0	1.56e+00	0	47	104	0	60	1048575
2026-01-18 04:04:35.28	313.01	8.52	-85.2	-88.6	2.9	1.56e+00	0	47	104	0	60	1048575
2026-01-18 04:04:36.29	312.89	8.46	-85.2	-88.6	2.9	1.56e+00	0	47	104	0	60	1048572
2026-01-18 04:04:37.29	312.78	8.40	-85.2	-88.6	2.9	1.56e+00	0	47	104	0	60	1048570
2026-01-18 04:04:38.29	312.67	8.33	-85.2	-88.6	3.1	1.55e+00	0	47	104	0	60	1048575
2026-01-18 04:04:39.30	312.56	8.27	-85.2	-88.6	3.1	1.56e+00	0	47	104	0	60	1048575
2026-01-18 04:04:40.31	312.45	8.21	-85.2	-88.6	2.9	1.56e+00	0	47	104	0	60	1048575
2026-01-18 04:04:41.31	312.34	8.15	-85.2	-88.6	2.9	1.56e+00	0	47	104	0	60	1048575
2026-01-18 04:04:42.32	312.23	8.09	-85.2	-88.6	3.0	1.56e+00	0	47	104	0	60	1048574
2026-01-18 04:04:43.33	312.12	8.03	-85.2	-88.6	3.2	1.56e+00	0	47	104	0	60	1048575
2026-01-18 04:04:44.33	312.02	7.96	-85.2	-88.6	3.0	1.56e+00	0	47	104	0	60	1048575
2026-01-18 04:04:45.34	311.91	7.90	-85.2	-88.6	3.0	1.56e+00	0	47	104	0	60	1048572
2026-01-18 04:04:46.34	311.80	7.84	-85.2	-88.6	2.9	1.55e+00	0	47	104	0	60	1048574
2026-01-18 04:04:47.35	311.69	7.78	-85.2	-88.6	3.0	1.56e+00	0	47	104	0	60	1048574
2026-01-18 04:04:48.36	311.59	7.72	-85.2	-88.6	3.1	1.56e+00	0	47	104	0	60	1048575
2026-01-18 04:04:49.36	311.48	7.66	-85.2	-88.6	3.1	1.56e+00	0	47	104	0	60	1048574
2026-01-18 04:04:50.37	311.37	7.60	-85.2	-88.6	2.9	1.55e+00	0	47	104	0	60	1048571
2026-01-18 04:04:51.38	311.27	7.53	-85.2	-88.6	2.9	1.56e+00	0	47	104	0	60	1048575
2026-01-18 04:04:52.39	311.16	7.47	-85.2	-88.6	2.9	1.55e+00	0	47	104	0	60	1048575
2026-01-18 04:04:53.39	311.06	7.41	-85.2	-88.6	2.8	1.56e+00	0	47	104	0	60	1048575
2026-01-18 04:04:54.40	310.96	7.35	-85.2	-88.6	3.0	1.56e+00	0	47	104	0	60	1048575
2026-01-18 04:04:55.41	310.85	7.29	-85.2	-88.6	2.9	1.56e+00	0	47	104	0	60	1048575
2026-01-18 04:04:56.42	310.75	7.23	-85.2	-88.6	3.0	1.56e+00	0	47	104	0	60	1048573
2026-01-18 04:04:57.43	310.65	7.17	-85.2	-88.6	3.0	1.55e+00	0	47	104	0	60	1048575
2026-01-18 04:04:58.44	310.54	7.11	-85.2	-88.6	3.2	1.55e+00	0	47	104	0	60	1048575
2026-01-18 04:04:59.45	310.44	7.05	-85.2	-88.6	3.1	1.56e+00	0	47	104	0	60	1048574
2026-01-18 04:05:00.45	310.34	6.99	-85.2	-88.6	2.8	1.55e+00	0	47	104	0	60	1048575
2026-01-18 04:05:01.46	310.24	6.93	-85.2	-88.6	3.0	1.55e+00	0	47	104	0	60	1048575
2026-01-18 04:05:02.47	310.14	6.86	-85.2	-88.6	3.1	1.56e+00	0	47	104	0	60	1048575
2026-01-18 04:05:03.48	310.04	6.80	-85.2	-88.6	2.9	1.55e+00	0	47	104	0	60	1048574
2026-01-18 04:05:04.49	309.94	6.74	-85.2	-88.6	2.9	1.55e+00	0	47	104	0	60	1048571
2026-01-18 04:05:05.49	309.84	6.68	-85.2	-88.6	2.9	1.56e+00	0	47	104	0	60	1048574
2026-01-18 04:05:06.50	309.74	6.62	-85.2	-88.6	3.0	1.55e+00	0	47	104	0	60	1048575
2026-01-18 04:05:07.51	309.64	6.56	-85.2	-88.6	3.1	1.55e+00	0	47	104	0	60	1048572
2026-01-18 04:05:08.51	309.55	6.50	-85.2	-88.6	2.9	1.56e+00	0	47	104	0	60	1048570
2026-01-18 04:05:09.52	309.45	6.44	-85.2	-88.6	2.8	1.55e+00	0	47	104	0	60	1048574
2026-01-18 04:05:10.53	309.35	6.38	-85.2	-88.6	2.9	1.56e+00	0	47	104	0	60	1048574
2026-01-18 04:05:11.53	309.25	6.32	-85.2	-88.6	2.9	1.56e+00	0	47	104	0	60	1048575
2026-01-18 04:05:12.54	309.16	6.26	-83.5	-88.6	3.0	1.56e+00	0	47	104	0	60	1048575
2026-01-18 04:05:13.55	309.06	6.20	-85.2	-88.6	2.9	1.56e+00	0	47	104	0	60	1048575
2026-01-18 04:05:14.55	308.97	6.14	-85.2	-88.6	3.0	1.56e+00	0	47	104	0	60	1048575
2026-01-18 04:05:15.56	308.87	6.08	-85.2	-88.6	2.9	1.56e+00	0	47	104	0	60	1048574
2026-01-18 04:05:16.57	308.78	6.02	-85.2	-88.6	3.0	1.56e+00	0	47	104	0	60	1048575
2026-01-18 04:05:17.58	308.68	5.96	-85.2	-88.6	3.0	1.55e+00	0	47	104	0	60	1048575
2026-01-18 04:05:18.59	308.59	5.90	-85.2	-88.6	3.0	1.56e+00	0	47	104	0	60	1048574
2026-01-18 04:05:19.59	308.50	5.84	-85.2	-88.6	3.0	1.56e+00	0	47	104	0	60	1048575
2026-01-18 04:05:20.60	308.40	5.78	-85.2	-88.6	3.0	1.55e+00	0	47	104	0	60	1048573
2026-01-18 04:05:21.61	308.31	5.72	-85.2	-88.6	3.1	1.56e+00	0	47	104	0	60	1048575
2026-01-18 04:05:22.61	308.22	5.67	-85.2	-88.6	3.0	1.55e+00	0	47	104	0	60	1048575
2026-01-18 04:05:23.62	308.13	5.61	-85.2	-88.6	3.1	1.56e+00	0	47	104	0	60	1048575
2026-01-18 04:05:24.63	308.03	5.55	-85.2	-88.6	3.1	1.56e+00	0	47	104	0	60	1048574
2026-01-18 04:05:25.64	307.94	5.49	-85.2	-88.6	3.0	1.55e+00	0	47	104	0	60	1048575
2026-01-18 04:05:26.65	307.85	5.43	-85.2	-88.6	2.9	1.56e+00	0	47	104	0	60	1048575
2026-01-18 04:05:27.65	307.76	5.37	-85.2	-88.6	3.3	1.56e+00	0	47	104	0	60	1048573
2026-01-18 04:05:28.65	307.67	5.31	-85.2	-88.6	2.8	1.55e+00	0	47	104	0	60	1048574
2026-01-18 04:05:29.66	307.58	5.25	-85.2	-88.6	2.8	1.56e+00	0	47	104	0	60	1048575
2026-01-18 04:05:30.67	307.49	5.19	-85.2	-88.6	3.2	1.56e+00	0	47	104	0	60	1048571
2026-01-18 04:05:31.68	307.41	5.13	-85.2	-88.6	3.2	1.56e+00	0	47	104	0	60	1048574
2026-01-18 04:05:32.69	307.32	5.08	-85.2	-88.6	3.1	1.55e+00	0	47	104	0	60	1048575
2026-01-18 04:05:33.69	307.23	5.02	-85.2	-88.6	3.0	1.55e+00	0	47	104	0	60	1048575
2026-01-18 04:05:34.70	307.14	4.96	-85.2	-88.6	3.0	1.56e+00	0	47	104	0	60	1048575
2026-01-18 04:05:35.71	307.05	4.90	-85.2	-88.6	3.0	1.56e+00	0	47	104	0	60	1048575
2026-01-18 04:05:36.72	306.97	4.84	-85.2	-88.6	2.8	1.56e+00	0	47	104	0	60	1048573
2026-01-18 04:05:37.72	306.88	4.78	-85.2	-88.6	3.3	1.56e+00	0	47	104	0	60	1048574
2026-01-18 04:05:38.73	306.79	4.72	-85.2	-88.6	2.8	1.56e+00	0	47	104	0	60	1048575
2026-01-18 04:05:39.73	306.71	4.67	-85.2	-88.6	3.1	1.56e+00	0	47	104	0	60	1048574
2026-01-18 04:05:40.74	306.62	4.61	-85.2	-88.6	2.9	1.55e+00	0	47	104	0	60	1048575
2026-01-18 04:05:41.75	306.54	4.55	-85.2	-88.6	3.3	1.56e+00	0	47	104	0	60	1048575
2026-01-18 04:05:42.76	306.45	4.49	-84.7	-88.6	3.0	1.56e+00	0	47	104	0	60	1048570
2026-01-18 04:05:43.76	306.37	4.43	-85.2	-88.6	2.9	1.56e+00	0	47	104	0	60	1048575
2026-01-18 04:05:44.77	306.28	4.38	-85.2	-88.6	2.9	1.56e+00	0	47	104	0	60	1048574
