passes_logs/2026/01/18/R3.2S-Naryan-Mar/R3.2S-Naryan-Mar__20260118_003435_NOAA_20_JPSS-1_rec.log

#Pass ID: 20260118_003435_NOAA 20 (JPSS-1)
#Satellite: NOAA 20 (JPSS-1)
#Configuration: NOAA 20
#almurnet v.1.7.20240730
#Start time: 2026-01-18 00:34:37

#Version: 2.2.20231116
#Station: R3.2S-Naryan-Mar
#Location: 53.008057 lon 67.646978 lat
#TLE: 1 43013U 17073A   26017.30359522  .00000067  00000+0  52526-4 0  9990
#TLE: 2 43013  98.7639 318.2187 0001419  36.2087 323.9184 14.19536557423067

#Time	Az	El	Level	Level2	SNR	BER	BlckErr	Temp	State	Recorded	gain1	gain2
2026-01-18 00:34:37.01	29.33	0.12	-85.2	-88.6	3.2	1.55e+00	0	45	0	0	60	1048575
2026-01-18 00:34:38.01	29.31	0.18	-85.2	-88.6	2.9	1.56e+00	0	46	104	0	60	1048575
2026-01-18 00:34:39.02	29.28	0.23	-85.2	-88.6	3.0	1.56e+00	0	46	104	0	60	1048574
2026-01-18 00:34:40.03	29.25	0.29	-85.2	-88.6	3.0	1.55e+00	0	46	104	0	60	1048575
2026-01-18 00:34:41.04	29.23	0.35	-85.2	-88.6	2.9	1.56e+00	0	46	104	0	60	1048575
2026-01-18 00:34:42.05	29.20	0.41	-85.2	-88.6	3.2	1.56e+00	0	46	104	0	60	1048575
2026-01-18 00:34:43.05	29.17	0.47	-85.2	-88.6	3.0	1.56e+00	0	46	104	0	60	1048575
2026-01-18 00:34:44.06	29.14	0.53	-85.2	-88.6	3.0	1.56e+00	0	46	104	0	60	1048573
2026-01-18 00:34:45.07	29.12	0.59	-85.2	-88.6	3.1	1.56e+00	0	46	104	0	60	1048574
2026-01-18 00:34:46.07	29.09	0.65	-85.2	-88.6	3.1	1.55e+00	0	46	104	0	60	1048574
2026-01-18 00:34:47.08	29.06	0.71	-85.2	-88.6	3.2	1.56e+00	0	46	104	0	60	1048574
2026-01-18 00:34:48.09	29.03	0.77	-85.2	-88.6	3.0	1.55e+00	0	46	104	0	60	1048568
2026-01-18 00:34:49.09	29.00	0.83	-85.2	-88.6	3.0	1.55e+00	0	46	104	0	60	1048575
2026-01-18 00:34:50.10	28.97	0.89	-85.2	-88.6	3.0	1.56e+00	0	46	104	0	60	1048575
2026-01-18 00:34:51.11	28.95	0.95	-85.2	-88.6	3.0	1.56e+00	0	46	104	0	60	1048575
2026-01-18 00:34:52.12	28.92	1.01	-85.2	-88.6	2.9	1.55e+00	0	46	104	0	60	1048575
2026-01-18 00:34:53.13	28.89	1.08	-85.2	-88.6	3.1	1.56e+00	0	46	104	0	60	1048575
2026-01-18 00:34:54.13	28.86	1.14	-85.2	-88.6	3.2	1.56e+00	0	46	104	0	60	1048574
2026-01-18 00:34:55.14	28.83	1.20	-85.2	-88.6	3.0	1.56e+00	0	46	104	0	60	1048575
2026-01-18 00:34:56.14	28.80	1.26	-85.2	-88.6	3.1	1.55e+00	0	46	104	0	60	1048574
2026-01-18 00:34:57.15	28.77	1.32	-84.3	-88.6	3.1	1.55e+00	0	46	104	0	60	1048573
2026-01-18 00:34:58.16	28.74	1.38	-85.2	-88.6	3.2	1.56e+00	0	46	104	0	60	1048574
2026-01-18 00:34:59.16	28.71	1.44	-85.2	-88.6	3.1	1.56e+00	0	46	104	0	60	1048574
2026-01-18 00:35:00.17	28.68	1.50	-85.2	-88.6	3.1	1.56e+00	0	46	104	0	60	1048575
2026-01-18 00:35:01.18	28.65	1.56	-83.5	-88.6	3.1	1.56e+00	0	46	104	0	60	1048573
2026-01-18 00:35:02.19	28.62	1.63	-85.2	-88.6	3.1	1.56e+00	0	46	104	0	60	1048574
2026-01-18 00:35:03.20	28.59	1.69	-85.2	-88.6	3.1	1.55e+00	0	46	104	0	60	1048575
2026-01-18 00:35:04.20	28.56	1.75	-85.2	-88.6	3.0	1.56e+00	0	46	104	0	60	1048575
2026-01-18 00:35:05.21	28.53	1.81	-85.2	-88.6	2.9	1.56e+00	0	46	104	0	60	1048575
2026-01-18 00:35:06.22	28.50	1.88	-85.2	-88.6	3.0	1.55e+00	0	46	104	0	60	1048575
2026-01-18 00:35:07.22	28.47	1.94	-85.2	-88.6	3.0	1.56e+00	0	46	104	0	60	1048575
2026-01-18 00:35:08.23	28.44	2.00	-85.2	-88.6	3.1	1.56e+00	0	46	104	0	60	1048574
2026-01-18 00:35:09.23	28.41	2.06	-85.2	-88.6	2.9	1.56e+00	0	46	104	0	60	1048573
2026-01-18 00:35:10.24	28.38	2.13	-85.2	-88.6	2.9	1.56e+00	0	47	104	0	60	1048575
2026-01-18 00:35:11.24	28.35	2.19	-85.2	-88.6	2.9	1.56e+00	0	47	104	0	60	1048574
2026-01-18 00:35:12.25	28.32	2.25	-85.2	-88.6	3.1	1.56e+00	0	46	104	0	60	1048575
2026-01-18 00:35:13.26	28.29	2.31	-85.2	-88.6	2.9	1.56e+00	0	46	104	0	60	1048574
2026-01-18 00:35:14.26	28.25	2.38	-85.2	-88.6	3.1	1.56e+00	0	46	104	0	60	1048575
2026-01-18 00:35:15.27	28.22	2.44	-85.2	-88.6	2.9	1.56e+00	0	46	104	0	60	1048575
2026-01-18 00:35:16.28	28.19	2.50	-82.8	-88.6	3.1	1.56e+00	0	47	104	0	60	1048575
2026-01-18 00:35:17.29	28.16	2.57	-85.2	-88.6	3.0	1.56e+00	0	47	104	0	60	1048574
2026-01-18 00:35:18.29	28.13	2.63	-85.2	-88.6	2.8	1.56e+00	0	46	104	0	60	1048574
2026-01-18 00:35:19.29	28.09	2.70	-85.2	-88.6	3.1	1.55e+00	0	47	104	0	60	1048575
2026-01-18 00:35:20.30	28.06	2.76	-85.2	-88.6	3.1	1.56e+00	0	46	104	0	60	1048575
2026-01-18 00:35:21.31	28.03	2.82	-85.2	-88.6	3.0	1.55e+00	0	46	104	0	60	1048575
2026-01-18 00:35:22.32	27.99	2.89	-85.2	-88.6	3.0	1.55e+00	0	47	104	0	60	1048573
2026-01-18 00:35:23.32	27.96	2.95	-85.2	-88.6	3.1	1.56e+00	0	46	104	0	60	1048574
2026-01-18 00:35:24.33	27.93	3.02	-85.2	-88.6	2.9	1.55e+00	0	47	104	0	60	1048575
2026-01-18 00:35:25.33	27.89	3.08	-85.2	-88.6	3.2	1.55e+00	0	47	104	0	60	1048575
2026-01-18 00:35:26.34	27.86	3.15	-85.2	-88.6	2.8	1.56e+00	0	47	104	0	60	1048575
2026-01-18 00:35:27.34	27.83	3.21	-85.2	-88.6	2.9	1.56e+00	0	47	104	0	60	1048573
2026-01-18 00:35:28.35	27.79	3.28	-85.2	-88.6	3.0	1.56e+00	0	47	104	0	60	1048574
2026-01-18 00:35:29.36	27.76	3.34	-85.2	-88.6	3.0	1.55e+00	0	47	104	0	60	1048574
2026-01-18 00:35:30.37	27.72	3.41	-85.2	-88.6	3.0	1.56e+00	0	47	104	0	60	1048574
2026-01-18 00:35:31.38	27.69	3.47	-84.7	-88.6	2.9	1.56e+00	0	47	104	0	60	1048575
2026-01-18 00:35:32.38	27.66	3.54	-85.2	-88.6	2.7	1.56e+00	0	47	104	0	60	1048575
2026-01-18 00:35:33.40	27.62	3.61	-85.2	-88.6	3.0	1.55e+00	0	47	104	0	60	1048575
2026-01-18 00:35:34.40	27.59	3.67	-85.2	-88.6	3.2	1.56e+00	0	47	104	0	60	1048575
2026-01-18 00:35:35.41	27.55	3.74	-85.2	-88.6	3.1	1.56e+00	0	47	104	0	60	1048572
2026-01-18 00:35:36.42	27.51	3.81	-84.7	-88.6	3.1	1.55e+00	0	47	104	0	60	1048575
2026-01-18 00:35:37.42	27.48	3.87	-85.2	-88.6	3.0	1.56e+00	0	47	104	0	60	1048575
2026-01-18 00:35:38.43	27.44	3.94	-85.2	-88.6	2.9	1.55e+00	0	47	104	0	60	1048575
2026-01-18 00:35:39.43	27.41	4.01	-85.2	-88.6	3.0	1.56e+00	0	47	104	0	60	1048574
2026-01-18 00:35:40.44	27.37	4.07	-85.2	-88.6	2.9	1.55e+00	0	47	104	0	60	1048574
2026-01-18 00:35:41.45	27.33	4.14	-84.7	-88.6	3.1	1.56e+00	0	47	104	0	60	1048574
2026-01-18 00:35:42.46	27.30	4.21	-85.2	-88.6	3.0	1.56e+00	0	47	104	0	60	1048569
2026-01-18 00:35:43.46	27.26	4.27	-85.2	-88.6	3.0	1.56e+00	0	47	104	0	60	1048574
2026-01-18 00:35:44.46	27.23	4.34	-85.2	-88.6	3.1	1.56e+00	0	47	104	0	60	1048575
2026-01-18 00:35:45.47	27.19	4.41	-85.2	-88.6	3.0	1.56e+00	0	47	104	0	60	1048575
2026-01-18 00:35:46.47	27.15	4.48	-84.7	-88.6	2.7	1.56e+00	0	47	104	0	60	1048575
2026-01-18 00:35:47.48	27.11	4.55	-85.2	-88.6	3.0	1.56e+00	0	47	104	0	60	1048574
2026-01-18 00:35:48.49	27.08	4.61	-85.2	-88.6	3.0	1.56e+00	0	47	104	0	60	1048574
2026-01-18 00:35:49.50	27.04	4.68	-85.2	-88.6	3.2	1.56e+00	0	47	104	0	60	1048574
2026-01-18 00:35:50.51	27.00	4.75	-85.2	-88.6	3.1	1.55e+00	0	47	104	0	60	1048575
2026-01-18 00:35:51.52	26.96	4.82	-85.2	-88.6	3.1	1.55e+00	0	47	104	0	60	1048574
2026-01-18 00:35:52.52	26.92	4.89	-85.2	-88.6	3.0	1.56e+00	0	47	104	0	60	1048572
2026-01-18 00:35:53.53	26.88	4.96	-85.2	-88.6	3.1	1.56e+00	0	47	104	0	60	1048575
2026-01-18 00:35:54.53	26.85	5.03	-85.2	-88.6	3.0	1.56e+00	0	47	104	0	60	1048575
2026-01-18 00:35:55.54	26.81	5.10	-85.2	-88.6	3.0	1.56e+00	0	47	104	0	60	1048575
2026-01-18 00:35:56.54	26.77	5.17	-85.2	-88.6	3.1	1.55e+00	0	47	104	0	60	1048574
2026-01-18 00:35:57.55	26.73	5.24	-85.2	-88.6	2.7	1.55e+00	0	47	104	0	60	1048575
2026-01-18 00:35:58.55	26.69	5.31	-85.2	-88.6	3.1	1.56e+00	0	47	104	0	60	1048574
2026-01-18 00:35:59.56	26.65	5.38	-85.2	-88.6	3.1	1.56e+00	0	47	104	0	60	1048575
2026-01-18 00:36:00.57	26.61	5.45	-83.9	-88.6	2.8	1.56e+00	0	47	104	0	60	1048574
2026-01-18 00:36:01.57	26.57	5.52	-84.3	-88.6	3.0	1.56e+00	0	47	104	0	60	1048574
2026-01-18 00:36:02.58	26.53	5.59	-85.2	-88.6	3.0	1.55e+00	0	47	104	0	60	1048575
2026-01-18 00:36:03.59	26.49	5.66	-85.2	-88.6	3.1	1.55e+00	0	47	104	0	60	1048575
2026-01-18 00:36:04.60	26.45	5.73	-85.2	-88.6	3.0	1.56e+00	0	47	104	0	60	1048574
2026-01-18 00:36:05.61	26.40	5.80	-85.2	-88.6	3.1	1.56e+00	0	47	104	0	60	1048575
2026-01-18 00:36:06.61	26.36	5.87	-85.2	-88.6	3.0	1.56e+00	0	47	104	0	60	1048574
2026-01-18 00:36:07.62	26.32	5.94	-84.7	-88.6	3.2	1.56e+00	0	47	104	0	60	1048575
2026-01-18 00:36:08.62	26.28	6.01	-85.2	-88.6	3.2	1.56e+00	0	47	104	0	60	1048575
2026-01-18 00:36:09.63	26.24	6.09	-85.2	-88.6	3.0	1.56e+00	0	47	104	0	60	1048574
2026-01-18 00:36:10.63	26.20	6.16	-85.2	-88.6	3.0	1.56e+00	0	47	104	0	60	1048574
2026-01-18 00:36:11.64	26.15	6.23	-83.5	-88.6	3.0	1.56e+00	0	47	104	0	60	1048572
2026-01-18 00:36:12.65	26.11	6.30	-85.2	-88.6	2.9	1.56e+00	0	47	104	0	60	1048574
2026-01-18 00:36:13.65	26.07	6.37	-85.2	-88.6	2.9	1.55e+00	0	47	104	0	60	1048575
2026-01-18 00:36:14.65	26.03	6.45	-85.2	-88.6	2.9	1.56e+00	0	47	104	0	60	1048575
2026-01-18 00:36:15.66	25.98	6.52	-85.2	-88.6	3.1	1.56e+00	0	47	104	0	60	1048575
2026-01-18 00:36:16.67	25.94	6.59	-83.5	-88.6	3.0	1.56e+00	0	47	104	0	60	1048572
2026-01-18 00:36:17.68	25.89	6.67	-85.2	-88.6	3.1	1.56e+00	0	47	104	0	60	1048573
2026-01-18 00:36:18.69	25.85	6.74	-85.2	-88.6	2.9	1.55e+00	0	47	104	0	60	1048575
2026-01-18 00:36:19.69	25.81	6.81	-85.2	-88.6	2.9	1.56e+00	0	47	104	0	60	1048573
2026-01-18 00:36:20.70	25.76	6.89	-85.2	-88.6	3.0	1.56e+00	0	47	104	0	60	1048575
2026-01-18 00:36:21.71	25.72	6.96	-85.2	-88.6	3.2	1.55e+00	0	47	104	0	60	1048574
2026-01-18 00:36:22.72	25.67	7.04	-85.2	-88.6	3.0	1.55e+00	0	47	104	0	60	1048575
2026-01-18 00:36:23.73	25.62	7.11	-85.2	-88.6	3.2	1.56e+00	0	47	104	0	60	1048575
2026-01-18 00:36:24.73	25.58	7.19	-85.2	-88.6	3.2	1.56e+00	0	47	104	0	60	1048575
2026-01-18 00:36:25.74	25.53	7.26	-85.2	-88.6	3.0	1.55e+00	0	47	104	0	60	1048570
2026-01-18 00:36:26.75	25.49	7.34	-84.3	-88.6	2.9	1.56e+00	0	47	104	0	60	1048573
2026-01-18 00:36:27.75	25.44	7.41	-85.2	-88.6	2.9	1.56e+00	0	47	104	0	60	1048575
2026-01-18 00:36:28.76	25.39	7.49	-85.2	-88.6	3.1	1.56e+00	0	47	104	0	60	1048575
2026-01-18 00:36:29.77	25.35	7.56	-85.2	-88.6	3.0	1.56e+00	0	47	104	0	60	1048575
2026-01-18 00:36:30.77	25.30	7.64	-85.2	-88.6	2.9	1.56e+00	0	47	104	0	60	1048571
2026-01-18 00:36:31.78	25.25	7.72	-85.2	-88.6	3.0	1.56e+00	0	47	104	0	60	1048575
2026-01-18 00:36:32.78	25.20	7.79	-85.2	-88.6	3.0	1.55e+00	0	47	104	0	60	1048571
2026-01-18 00:36:33.79	25.16	7.87	-85.2	-88.6	3.1	1.56e+00	0	47	104	0	60	1048573
2026-01-18 00:36:34.80	25.11	7.94	-85.2	-88.6	3.0	1.56e+00	0	47	104	0	60	1048573
2026-01-18 00:36:35.81	25.06	8.02	-85.2	-88.6	3.2	1.55e+00	0	47	104	0	60	1048575
2026-01-18 00:36:36.81	25.01	8.10	-85.2	-88.6	3.0	1.56e+00	0	47	104	0	60	1048574
2026-01-18 00:36:37.82	24.96	8.18	-85.2	-88.6	3.1	1.56e+00	0	47	104	0	60	1048573
2026-01-18 00:36:38.83	24.91	8.25	-85.2	-88.6	2.9	1.55e+00	0	47	104	0	60	1048574
2026-01-18 00:36:39.84	24.86	8.33	-85.2	-88.6	2.9	1.55e+00	0	47	104	0	60	1048573
2026-01-18 00:36:40.84	24.81	8.41	-85.2	-88.6	3.1	1.56e+00	0	47	104	0	60	1048574
2026-01-18 00:36:41.85	24.76	8.49	-84.3	-88.6	3.2	1.56e+00	0	47	104	0	60	1048575
2026-01-18 00:36:42.86	24.71	8.57	-85.2	-88.6	3.1	1.56e+00	0	47	104	0	60	1048575
2026-01-18 00:36:43.86	24.66	8.65	-85.2	-88.6	3.0	1.56e+00	0	47	104	0	60	1048573
2026-01-18 00:36:44.87	24.61	8.72	-85.2	-88.6	3.0	1.56e+00	0	47	104	0	60	1048571
2026-01-18 00:36:45.88	24.56	8.80	-85.2	-88.6	2.9	1.55e+00	0	47	104	0	60	1048572
2026-01-18 00:36:46.88	24.51	8.88	-85.2	-88.6	3.1	1.55e+00	0	47	104	0	60	1048573
2026-01-18 00:36:47.89	24.45	8.96	-85.2	-88.6	2.8	1.56e+00	0	47	104	0	60	1048573
2026-01-18 00:36:48.90	24.40	9.04	-85.2	-88.6	3.1	1.56e+00	0	47	104	0	60	1048574
2026-01-18 00:36:49.91	24.35	9.12	-85.2	-88.6	3.1	1.55e+00	0	47	104	0	60	1048575
2026-01-18 00:36:50.92	24.30	9.20	-83.5	-88.6	2.9	1.56e+00	0	47	104	0	60	1048574
2026-01-18 00:36:51.92	24.24	9.28	-85.2	-88.6	3.1	1.56e+00	0	47	104	0	60	1048574
2026-01-18 00:36:52.93	24.19	9.36	-85.2	-88.6	3.1	1.56e+00	0	47	104	0	60	1048575
2026-01-18 00:36:53.94	24.13	9.45	-85.2	-88.6	3.0	1.56e+00	0	47	104	0	60	1048575
2026-01-18 00:36:54.94	24.08	9.53	-85.2	-88.6	3.1	1.56e+00	0	47	104	0	60	1048575
2026-01-18 00:36:55.95	24.03	9.61	-85.2	-88.6	3.0	1.56e+00	0	47	104	0	60	1048573
2026-01-18 00:36:56.96	23.97	9.69	-85.2	-88.6	3.0	1.56e+00	0	47	104	0	60	1048575
2026-01-18 00:36:57.97	23.91	9.77	-85.2	-88.6	3.1	1.55e+00	0	47	104	0	60	1048573
2026-01-18 00:36:58.97	23.86	9.85	-85.2	-88.6	3.1	1.56e+00	0	47	104	0	60	1048575
2026-01-18 00:36:59.97	23.80	9.94	-85.2	-88.6	3.0	1.56e+00	0	47	104	0	60	1048574
2026-01-18 00:37:00.98	23.75	10.02	-85.2	-88.6	2.9	1.56e+00	0	47	104	0	60	1048574
2026-01-18 00:37:01.99	23.69	10.10	-85.2	-88.6	3.1	1.56e+00	0	47	104	0	60	1048575
2026-01-18 00:37:03.00	23.63	10.19	-85.2	-88.6	2.9	1.56e+00	0	47	104	0	60	1048573
2026-01-18 00:37:04.00	23.58	10.27	-85.2	-88.6	3.2	1.56e+00	0	47	104	0	60	1048575
2026-01-18 00:37:05.01	23.52	10.35	-85.2	-88.6	3.0	1.56e+00	0	47	104	0	60	1048573
2026-01-18 00:37:06.02	23.46	10.44	-85.2	-88.6	2.9	1.55e+00	0	47	104	0	60	1048573
2026-01-18 00:37:07.03	23.40	10.52	-85.2	-88.6	3.1	1.56e+00	0	47	104	0	60	1048574
2026-01-18 00:37:08.03	23.34	10.60	-85.2	-88.6	2.9	1.55e+00	0	47	104	0	60	1048575
2026-01-18 00:37:09.04	23.28	10.69	-85.2	-88.6	2.8	1.56e+00	0	47	104	0	60	1048572
2026-01-18 00:37:10.05	23.22	10.78	-85.2	-88.6	3.1	1.56e+00	0	47	104	0	60	1048575
2026-01-18 00:37:11.05	23.17	10.86	-85.2	-88.6	3.1	1.56e+00	0	47	104	0	60	1048575
2026-01-18 00:37:12.06	23.10	10.95	-85.2	-88.6	3.2	1.55e+00	0	47	104	0	60	1048574
2026-01-18 00:37:13.07	23.04	11.03	-85.2	-88.6	3.2	1.56e+00	0	47	104	0	60	1048575
2026-01-18 00:37:14.07	22.98	11.12	-85.2	-88.6	3.0	1.55e+00	0	47	104	0	60	1048572
2026-01-18 00:37:15.08	22.92	11.20	-85.2	-88.6	3.1	1.55e+00	0	47	104	0	60	1048574
2026-01-18 00:37:16.08	22.86	11.29	-85.2	-88.6	2.9	1.55e+00	0	47	104	0	60	1048574
2026-01-18 00:37:17.09	22.80	11.38	-85.2	-88.6	3.1	1.55e+00	0	47	104	0	60	1048573
2026-01-18 00:37:18.10	22.74	11.46	-85.2	-88.6	3.1	1.56e+00	0	47	104	0	60	1048574
2026-01-18 00:37:19.11	22.67	11.55	-85.2	-88.6	2.9	1.56e+00	0	47	104	0	60	1048575
2026-01-18 00:37:20.11	22.61	11.64	-85.2	-88.6	2.8	1.56e+00	0	47	104	0	60	1048575
2026-01-18 00:37:21.12	22.55	11.73	-85.2	-88.6	2.9	1.56e+00	0	47	104	0	60	1048574
2026-01-18 00:37:22.12	22.48	11.81	-85.2	-88.6	3.2	1.55e+00	0	47	104	0	60	1048575
2026-01-18 00:37:23.12	22.42	11.90	-85.2	-88.6	2.9	1.56e+00	0	47	104	0	60	1048575
2026-01-18 00:37:24.13	22.35	11.99	-85.2	-88.6	3.0	1.55e+00	0	47	104	0	60	1048575
2026-01-18 00:37:25.13	22.29	12.08	-85.2	-88.6	3.1	1.56e+00	0	47	104	0	60	1048575
2026-01-18 00:37:26.14	22.22	12.17	-85.2	-88.6	3.2	1.56e+00	0	47	104	0	60	1048573
2026-01-18 00:37:27.15	22.16	12.26	-85.2	-88.6	2.9	1.56e+00	0	47	104	0	60	1048575
2026-01-18 00:37:28.16	22.09	12.35	-85.2	-88.6	3.2	1.56e+00	0	47	104	0	60	1048573
2026-01-18 00:37:29.16	22.02	12.44	-85.2	-88.6	3.0	1.56e+00	0	47	104	0	60	1048575
2026-01-18 00:37:30.17	21.95	12.53	-85.2	-88.6	3.1	1.55e+00	0	47	104	0	60	1048575
2026-01-18 00:37:31.18	21.89	12.62	-85.2	-88.6	3.0	1.56e+00	0	47	104	0	60	1048575
2026-01-18 00:37:32.19	21.82	12.71	-85.2	-88.6	3.0	1.56e+00	0	47	104	0	60	1048575
2026-01-18 00:37:33.19	21.75	12.80	-85.2	-88.6	3.0	1.56e+00	0	47	104	0	60	1048573
2026-01-18 00:37:34.20	21.68	12.90	-85.2	-88.6	2.9	1.56e+00	0	47	104	0	60	1048575
2026-01-18 00:37:35.20	21.61	12.99	-85.2	-88.6	3.0	1.55e+00	0	47	104	0	60	1048575
2026-01-18 00:37:36.21	21.54	13.08	-85.2	-88.6	3.1	1.56e+00	0	47	104	0	60	1048573
2026-01-18 00:37:37.22	21.47	13.17	-85.2	-88.6	3.1	1.56e+00	0	47	104	0	60	1048571
2026-01-18 00:37:38.23	21.40	13.27	-85.2	-88.6	3.2	1.56e+00	0	47	104	0	60	1048574
2026-01-18 00:37:39.23	21.33	13.36	-85.2	-88.6	3.2	1.56e+00	0	47	104	0	60	1048575
2026-01-18 00:37:40.23	21.25	13.45	-85.2	-88.6	2.9	1.56e+00	0	47	104	0	60	1048573
2026-01-18 00:37:41.24	21.18	13.55	-85.2	-88.6	3.1	1.56e+00	0	47	104	0	60	1048575
2026-01-18 00:37:42.25	21.11	13.64	-85.2	-88.6	3.2	1.56e+00	0	47	104	0	60	1048575
2026-01-18 00:37:43.26	21.04	13.73	-85.2	-88.6	3.0	1.56e+00	0	47	104	0	60	1048571
2026-01-18 00:37:44.26	20.96	13.83	-85.2	-88.6	2.9	1.56e+00	0	47	104	0	60	1048574
2026-01-18 00:37:45.27	20.89	13.92	-85.2	-88.6	3.0	1.56e+00	0	47	104	0	60	1048575
2026-01-18 00:37:46.27	20.81	14.02	-84.3	-88.6	3.1	1.55e+00	0	47	104	0	60	1048575
2026-01-18 00:37:47.28	20.74	14.12	-85.2	-88.6	2.9	1.55e+00	0	47	104	0	60	1048575
2026-01-18 00:37:48.29	20.66	14.21	-85.2	-88.6	3.0	1.56e+00	0	47	104	0	60	1048573
2026-01-18 00:37:49.29	20.58	14.31	-85.2	-88.6	3.3	1.55e+00	0	47	104	0	60	1048575
2026-01-18 00:37:50.30	20.51	14.40	-85.2	-88.6	3.0	1.56e+00	0	47	104	0	60	1048574
2026-01-18 00:37:51.30	20.43	14.50	-85.2	-88.6	3.1	1.56e+00	0	47	104	0	60	1048575
2026-01-18 00:37:52.31	20.35	14.60	-85.2	-88.6	3.1	1.56e+00	0	47	104	0	60	1048575
2026-01-18 00:37:53.31	20.27	14.70	-85.2	-88.6	2.9	1.56e+00	0	47	104	0	60	1048572
2026-01-18 00:37:54.32	20.19	14.79	-85.2	-88.6	3.1	1.55e+00	0	47	104	0	60	1048574
2026-01-18 00:37:55.32	20.11	14.89	-85.2	-88.6	3.2	1.56e+00	0	47	104	0	60	1048570
2026-01-18 00:37:56.33	20.03	14.99	-85.2	-88.6	3.0	1.56e+00	0	47	104	0	60	1048575
2026-01-18 00:37:57.34	19.95	15.09	-85.2	-88.6	3.2	1.55e+00	0	47	104	0	60	1048575
2026-01-18 00:37:58.34	19.87	15.19	-85.2	-88.6	2.9	1.55e+00	0	47	104	0	60	1048575
2026-01-18 00:37:59.35	19.79	15.29	-85.2	-88.6	3.1	1.56e+00	0	47	104	0	60	1048574
2026-01-18 00:38:00.36	19.71	15.39	-85.2	-88.6	3.0	1.56e+00	0	47	104	0	60	1048575
2026-01-18 00:38:01.36	19.62	15.49	-85.2	-88.6	3.0	1.56e+00	0	47	104	0	60	1048575
2026-01-18 00:38:02.37	19.54	15.59	-85.2	-88.6	3.2	1.56e+00	0	47	104	0	60	1048575
2026-01-18 00:38:03.38	19.45	15.69	-85.2	-88.6	3.0	1.56e+00	0	47	104	0	60	1048575
2026-01-18 00:38:04.39	19.37	15.79	-85.2	-88.6	2.8	1.56e+00	0	47	104	0	60	1048574
2026-01-18 00:38:05.40	19.28	15.90	-85.2	-88.6	3.0	1.56e+00	0	47	104	0	60	1048575
2026-01-18 00:38:06.40	19.20	16.00	-85.2	-88.6	2.9	1.56e+00	0	47	104	0	60	1048574
2026-01-18 00:38:07.41	19.11	16.10	-85.2	-88.6	3.0	1.56e+00	0	47	104	0	60	1048573
2026-01-18 00:38:08.42	19.02	16.20	-85.2	-88.6	2.9	1.56e+00	0	47	104	0	60	1048575
2026-01-18 00:38:09.42	18.94	16.31	-85.2	-88.6	2.8	1.56e+00	0	47	104	0	60	1048574
2026-01-18 00:38:10.43	18.85	16.41	-85.2	-88.6	3.0	1.56e+00	0	47	104	0	60	1048575
2026-01-18 00:38:11.43	18.76	16.51	-85.2	-88.6	2.8	1.56e+00	0	47	104	0	60	1048572
2026-01-18 00:38:12.44	18.67	16.62	-85.2	-88.6	2.9	1.55e+00	0	47	104	0	60	1048575
2026-01-18 00:38:13.44	18.58	16.72	-85.2	-88.6	3.0	1.56e+00	0	47	104	0	60	1048574
2026-01-18 00:38:14.44	18.49	16.83	-85.2	-88.6	3.1	1.55e+00	0	47	104	0	60	1048575
2026-01-18 00:38:15.45	18.39	16.93	-85.2	-88.6	3.0	1.56e+00	0	47	104	0	60	1048575
2026-01-18 00:38:16.46	18.30	17.04	-85.2	-88.6	2.9	1.56e+00	0	47	104	0	60	1048575
2026-01-18 00:38:17.47	18.21	17.15	-85.2	-88.6	3.1	1.56e+00	0	47	104	0	60	1048575
2026-01-18 00:38:18.48	18.11	17.25	-85.2	-88.6	3.1	1.55e+00	0	47	104	0	60	1048573
2026-01-18 00:38:19.49	18.02	17.36	-85.2	-88.6	2.8	1.56e+00	0	47	104	0	60	1048575
2026-01-18 00:38:20.49	17.92	17.47	-85.2	-88.6	3.1	1.56e+00	0	47	104	0	60	1048574
2026-01-18 00:38:21.50	17.83	17.58	-85.2	-88.6	3.0	1.56e+00	0	47	104	0	60	1048574
2026-01-18 00:38:22.50	17.73	17.68	-84.7	-88.6	2.9	1.56e+00	0	47	104	0	60	1048575
2026-01-18 00:38:23.51	17.63	17.79	-85.2	-88.6	3.1	1.56e+00	0	47	104	0	60	1048575
2026-01-18 00:38:24.51	17.54	17.90	-85.2	-88.6	3.0	1.56e+00	0	47	104	0	60	1048573
2026-01-18 00:38:25.52	17.44	18.01	-85.2	-88.6	3.2	1.56e+00	0	47	104	0	60	1048570
2026-01-18 00:38:26.53	17.34	18.12	-85.2	-88.6	3.0	1.55e+00	0	47	104	0	60	1048575
2026-01-18 00:38:27.53	17.24	18.23	-85.2	-88.6	2.9	1.55e+00	0	47	104	0	60	1048575
2026-01-18 00:38:28.53	17.14	18.34	-85.2	-88.6	2.9	1.56e+00	0	47	104	0	60	1048575
2026-01-18 00:38:29.54	17.03	18.45	-85.2	-88.6	2.7	1.55e+00	0	47	104	0	60	1048575
2026-01-18 00:38:30.54	16.93	18.56	-85.2	-88.6	3.0	1.56e+00	0	47	104	0	60	1048574
2026-01-18 00:38:31.55	16.83	18.67	-85.2	-88.6	3.0	1.56e+00	0	47	104	0	60	1048575
2026-01-18 00:38:32.55	16.72	18.79	-85.2	-88.6	3.0	1.56e+00	0	47	104	0	60	1048573
2026-01-18 00:38:33.56	16.62	18.90	-85.2	-88.6	3.0	1.56e+00	0	47	104	0	60	1048575
2026-01-18 00:38:34.56	16.51	19.01	-85.2	-88.6	3.1	1.56e+00	0	47	104	0	60	1048575
2026-01-18 00:38:35.57	16.41	19.13	-85.2	-88.6	3.1	1.56e+00	0	47	104	0	60	1048575
2026-01-18 00:38:36.57	16.30	19.24	-85.2	-88.6	3.0	1.55e+00	0	47	104	0	60	1048575
2026-01-18 00:38:37.58	16.19	19.35	-85.2	-88.6	2.9	1.56e+00	0	47	104	0	60	1048575
2026-01-18 00:38:38.58	16.08	19.47	-85.2	-88.6	3.1	1.56e+00	0	47	104	0	60	1048573
2026-01-18 00:38:39.59	15.97	19.58	-85.2	-88.6	2.8	1.56e+00	0	47	104	0	60	1048574
2026-01-18 00:38:40.59	15.86	19.70	-85.2	-88.6	3.0	1.56e+00	0	47	104	0	60	1048573
2026-01-18 00:38:41.60	15.75	19.81	-85.2	-88.6	3.0	1.56e+00	0	47	104	0	60	1048570
2026-01-18 00:38:42.61	15.64	19.93	-85.2	-88.6	2.8	1.56e+00	0	47	104	0	60	1048575
2026-01-18 00:38:43.61	15.52	20.05	-85.2	-88.6	3.1	1.56e+00	0	47	104	0	60	1048575
2026-01-18 00:38:44.62	15.41	20.16	-85.2	-88.6	3.0	1.56e+00	0	47	104	0	60	1048575
2026-01-18 00:38:45.62	15.29	20.28	-85.2	-88.6	3.1	1.56e+00	0	47	104	0	60	1048574
2026-01-18 00:38:46.63	15.18	20.40	-85.2	-88.6	2.9	1.56e+00	0	47	104	0	60	1048573
2026-01-18 00:38:47.64	15.06	20.52	-85.2	-88.6	3.1	1.56e+00	0	47	104	0	60	1048574
2026-01-18 00:38:48.65	14.94	20.64	-85.2	-88.6	2.9	1.56e+00	0	47	104	0	60	1048575
2026-01-18 00:38:49.65	14.82	20.76	-85.2	-88.6	3.0	1.55e+00	0	47	104	0	60	1048575
2026-01-18 00:38:50.66	14.70	20.88	-85.2	-88.6	3.1	1.56e+00	0	47	104	0	60	1048572
2026-01-18 00:38:51.67	14.58	21.00	-85.2	-88.6	2.9	1.56e+00	0	47	104	0	60	1048573
2026-01-18 00:38:52.68	14.46	21.12	-85.2	-88.6	3.0	1.56e+00	0	47	104	0	60	1048575
2026-01-18 00:38:53.69	14.33	21.24	-85.2	-88.6	3.1	1.56e+00	0	47	104	0	60	1048575
2026-01-18 00:38:54.69	14.21	21.36	-85.2	-88.6	3.0	1.56e+00	0	47	104	0	60	1048575
2026-01-18 00:38:55.69	14.09	21.48	-85.2	-88.6	2.9	1.55e+00	0	47	104	0	60	1048575
2026-01-18 00:38:56.70	13.96	21.61	-85.2	-88.6	2.9	1.56e+00	0	47	104	0	60	1048574
2026-01-18 00:38:57.71	13.83	21.73	-85.2	-88.6	3.2	1.55e+00	0	47	104	0	60	1048575
2026-01-18 00:38:58.72	13.70	21.85	-85.2	-88.6	2.9	1.56e+00	0	47	104	0	60	1048572
2026-01-18 00:38:59.73	13.57	21.98	-85.2	-88.6	2.9	1.56e+00	0	47	104	0	60	1048574
2026-01-18 00:39:00.73	13.44	22.10	-85.2	-88.6	3.1	1.56e+00	0	47	104	0	60	1048575
2026-01-18 00:39:01.73	13.31	22.22	-85.2	-88.6	3.0	1.55e+00	0	47	104	0	60	1048575
2026-01-18 00:39:02.74	13.18	22.35	-85.2	-88.6	3.0	1.56e+00	0	47	104	0	60	1048574
2026-01-18 00:39:03.74	13.05	22.47	-85.2	-88.6	3.2	1.56e+00	0	47	104	0	60	1048575
2026-01-18 00:39:04.75	12.91	22.60	-85.2	-88.6	3.2	1.56e+00	0	47	104	0	60	1048573
2026-01-18 00:39:05.75	12.78	22.73	-85.2	-88.6	3.1	1.56e+00	0	47	104	0	60	1048575
2026-01-18 00:39:06.76	12.64	22.85	-85.2	-88.6	3.0	1.55e+00	0	47	104	0	60	1048573
2026-01-18 00:39:07.77	12.50	22.98	-85.2	-88.6	3.2	1.56e+00	0	47	104	0	60	1048575
2026-01-18 00:39:08.77	12.36	23.11	-85.2	-88.6	3.0	1.55e+00	0	47	104	0	60	1048575
2026-01-18 00:39:09.78	12.22	23.24	-85.2	-88.6	3.1	1.56e+00	0	47	104	0	60	1048573
2026-01-18 00:39:10.79	12.08	23.37	-85.2	-88.6	2.9	1.55e+00	0	47	104	0	60	1048571
2026-01-18 00:39:11.80	11.94	23.50	-85.2	-88.6	2.9	1.56e+00	0	47	104	0	60	1048575
2026-01-18 00:39:12.81	11.79	23.63	-85.2	-88.6	2.9	1.56e+00	0	47	104	0	60	1048575
2026-01-18 00:39:13.81	11.65	23.75	-85.2	-88.6	3.2	1.56e+00	0	47	104	0	60	1048575
2026-01-18 00:39:14.82	11.50	23.89	-85.2	-88.6	3.0	1.56e+00	0	47	104	0	60	1048573
2026-01-18 00:39:15.82	11.36	24.02	-85.2	-88.6	3.0	1.56e+00	0	47	104	0	60	1048575
2026-01-18 00:39:16.83	11.21	24.15	-85.2	-88.6	3.0	1.56e+00	0	47	104	0	60	1048575
2026-01-18 00:39:17.84	11.06	24.28	-85.2	-88.6	2.9	1.56e+00	0	47	104	0	60	1048572
2026-01-18 00:39:18.85	10.90	24.41	-85.2	-88.6	3.1	1.55e+00	0	47	104	0	60	1048575
2026-01-18 00:39:19.85	10.75	24.54	-85.2	-88.6	2.8	1.56e+00	0	47	104	0	60	1048574
2026-01-18 00:39:20.86	10.60	24.68	-85.2	-88.6	3.0	1.55e+00	0	47	104	0	60	1048575
2026-01-18 00:39:21.87	10.44	24.81	-85.2	-88.6	2.9	1.56e+00	0	47	104	0	60	1048575
2026-01-18 00:39:22.88	10.28	24.95	-85.2	-88.6	3.0	1.56e+00	0	47	104	0	60	1048575
2026-01-18 00:39:23.88	10.13	25.08	-85.2	-88.6	3.1	1.55e+00	0	47	104	0	60	1048575
2026-01-18 00:39:24.89	9.97	25.21	-85.2	-88.6	3.1	1.56e+00	0	47	104	0	60	1048575
2026-01-18 00:39:25.90	9.80	25.35	-85.2	-88.6	3.1	1.56e+00	0	47	104	0	60	1048574
2026-01-18 00:39:26.91	9.64	25.49	-85.2	-88.6	3.0	1.56e+00	0	47	104	0	60	1048574
2026-01-18 00:39:27.91	9.48	25.62	-85.2	-88.6	3.0	1.56e+00	0	47	104	0	60	1048575
2026-01-18 00:39:28.91	9.31	25.76	-80.5	-88.6	3.1	1.56e+00	0	47	104	0	60	1048573
2026-01-18 00:39:29.92	9.15	25.90	-85.2	-88.6	2.9	1.56e+00	0	47	104	0	60	1048574
2026-01-18 00:39:30.93	8.98	26.03	-85.2	-88.6	3.0	1.55e+00	0	47	104	0	60	1048573
2026-01-18 00:39:31.94	8.81	26.17	-85.2	-88.6	3.0	1.56e+00	0	47	104	0	60	1048575
2026-01-18 00:39:32.94	8.64	26.31	-85.2	-88.6	3.2	1.55e+00	0	47	104	0	60	1048575
2026-01-18 00:39:33.95	8.46	26.45	-85.2	-88.6	3.0	1.56e+00	0	47	104	0	60	1048573
2026-01-18 00:39:34.96	8.29	26.59	-85.2	-88.6	2.9	1.56e+00	0	47	104	0	60	1048575
2026-01-18 00:39:35.97	8.11	26.73	-85.2	-88.6	3.2	1.56e+00	0	47	104	0	60	1048575
2026-01-18 00:39:36.97	7.94	26.87	-84.3	-88.6	2.9	1.56e+00	0	47	104	0	60	1048574
2026-01-18 00:39:37.98	7.76	27.01	-85.2	-88.6	3.0	1.55e+00	0	47	104	0	60	1048575
2026-01-18 00:39:38.99	7.58	27.15	-85.2	-88.6	3.1	1.56e+00	0	47	104	0	60	1048574
2026-01-18 00:39:40.00	7.39	27.29	-85.2	-88.6	3.0	1.55e+00	0	47	104	0	60	1048575
2026-01-18 00:39:41.01	7.21	27.43	-85.2	-88.6	2.9	1.56e+00	0	47	104	0	60	1048575
2026-01-18 00:39:42.01	7.02	27.58	-85.2	-88.6	3.1	1.56e+00	0	47	104	0	60	1048574
2026-01-18 00:39:43.02	6.84	27.72	-85.2	-88.6	3.0	1.56e+00	0	47	104	0	60	1048575
2026-01-18 00:39:44.03	6.65	27.86	-85.2	-88.6	3.0	1.56e+00	0	47	104	0	60	1048575
2026-01-18 00:39:45.04	6.45	28.01	-85.2	-88.6	3.1	1.56e+00	0	47	104	0	60	1048575
2026-01-18 00:39:46.04	6.26	28.15	-85.2	-88.6	3.0	1.56e+00	0	47	104	0	60	1048575
2026-01-18 00:39:47.05	6.07	28.29	-85.2	-88.6	3.1	1.56e+00	0	47	104	0	60	1048574
2026-01-18 00:39:48.06	5.87	28.44	-85.2	-88.6	3.2	1.55e+00	0	47	104	0	60	1048575
2026-01-18 00:39:49.06	5.67	28.58	-85.2	-88.6	3.0	1.56e+00	0	47	104	0	60	1048574
2026-01-18 00:39:50.07	5.47	28.73	-85.2	-88.6	2.8	1.55e+00	0	47	104	0	60	1048574
2026-01-18 00:39:51.08	5.27	28.87	-85.2	-88.6	3.0	1.56e+00	0	47	104	0	60	1048575
2026-01-18 00:39:52.08	5.07	29.02	-85.2	-88.6	3.1	1.55e+00	0	47	104	0	60	1048573
2026-01-18 00:39:53.09	4.86	29.16	-85.2	-88.6	2.9	1.55e+00	0	47	104	0	60	1048574
2026-01-18 00:39:54.10	4.66	29.31	-85.2	-88.6	3.3	1.55e+00	0	47	104	0	60	1048574
2026-01-18 00:39:55.11	4.45	29.46	-85.2	-88.6	3.1	1.56e+00	0	47	104	0	60	1048573
2026-01-18 00:39:56.10	4.24	29.60	-85.2	-88.6	3.0	1.56e+00	0	47	104	0	60	1048573
2026-01-18 00:39:57.11	4.02	29.75	-85.2	-88.6	3.0	1.56e+00	0	47	104	0	60	1048573
2026-01-18 00:39:58.12	3.81	29.90	-85.2	-88.6	3.0	1.56e+00	0	47	104	0	60	1048575
2026-01-18 00:39:59.13	3.59	30.05	-85.2	-88.6	2.9	1.55e+00	0	47	104	0	60	1048574
2026-01-18 00:40:00.13	3.37	30.20	-85.2	-88.6	3.0	1.55e+00	0	47	104	0	60	1048574
2026-01-18 00:40:01.14	3.15	30.35	-85.2	-88.6	3.1	1.56e+00	0	47	104	0	60	1048575
2026-01-18 00:40:02.14	2.93	30.49	-85.2	-88.6	2.9	1.56e+00	0	47	104	0	60	1048573
2026-01-18 00:40:03.15	2.70	30.64	-85.2	-88.6	2.9	1.56e+00	0	47	104	0	60	1048575
2026-01-18 00:40:04.16	2.47	30.79	-85.2	-88.6	3.1	1.56e+00	0	47	104	0	60	1048574
2026-01-18 00:40:05.16	2.25	30.94	-85.2	-88.6	3.0	1.55e+00	0	47	104	0	60	1048567
2026-01-18 00:40:06.17	2.01	31.09	-85.2	-88.6	3.0	1.55e+00	0	47	104	0	60	1048575
2026-01-18 00:40:07.17	1.78	31.24	-84.7	-88.6	3.0	1.56e+00	0	47	104	0	60	1048574
2026-01-18 00:40:08.18	1.54	31.39	-85.2	-88.6	3.2	1.55e+00	0	47	104	0	60	1048574
2026-01-18 00:40:09.18	1.31	31.54	-85.2	-88.6	2.9	1.55e+00	0	47	104	0	60	1048573
2026-01-18 00:40:10.19	1.07	31.69	-85.2	-88.6	2.9	1.56e+00	0	47	104	0	60	1048575
2026-01-18 00:40:11.20	0.82	31.85	-85.2	-88.6	3.1	1.56e+00	0	47	104	0	60	1048575
2026-01-18 00:40:12.21	0.58	32.00	-84.7	-88.6	2.9	1.55e+00	0	47	104	0	60	1048575
2026-01-18 00:40:13.22	0.33	32.15	-85.2	-88.6	2.8	1.56e+00	0	47	104	0	60	1048575
2026-01-18 00:40:14.23	0.08	32.30	-85.2	-88.6	2.9	1.56e+00	0	47	104	0	60	1048571
2026-01-18 00:40:15.23	359.83	32.45	-85.2	-88.6	2.7	1.56e+00	0	47	104	0	60	1048574
2026-01-18 00:40:16.24	359.57	32.60	-85.2	-88.6	3.1	1.56e+00	0	47	104	0	60	1048575
2026-01-18 00:40:17.25	359.31	32.76	-83.9	-88.6	3.0	1.56e+00	0	47	104	0	60	1048575
2026-01-18 00:40:18.25	359.05	32.91	-84.7	-88.6	2.9	1.56e+00	0	47	104	0	60	1048573
2026-01-18 00:40:19.26	358.79	33.06	-85.2	-88.6	3.1	1.56e+00	0	47	104	0	60	1048575
2026-01-18 00:40:20.26	358.53	33.21	-85.2	-88.6	3.0	1.56e+00	0	47	104	0	60	1048574
2026-01-18 00:40:21.27	358.26	33.36	-85.2	-88.6	2.8	1.55e+00	0	47	104	0	60	1048574
2026-01-18 00:40:22.28	357.99	33.52	-85.2	-88.6	3.0	1.56e+00	0	47	104	0	60	1048574
2026-01-18 00:40:23.28	357.72	33.67	-85.2	-88.6	3.3	1.55e+00	0	47	104	0	60	1048575
2026-01-18 00:40:24.29	357.44	33.82	-85.2	-88.6	3.1	1.56e+00	0	47	104	0	60	1048575
2026-01-18 00:40:25.30	357.16	33.97	-85.2	-88.6	2.8	1.56e+00	0	47	104	0	60	1048575
2026-01-18 00:40:26.30	356.89	34.13	-85.2	-88.6	2.9	1.56e+00	0	47	104	0	60	1048574
2026-01-18 00:40:27.31	356.60	34.28	-85.2	-88.6	3.2	1.56e+00	0	47	104	0	60	1048568
2026-01-18 00:40:28.31	356.32	34.43	-84.3	-88.6	2.8	1.56e+00	0	47	104	0	60	1048575
2026-01-18 00:40:29.32	356.03	34.58	-85.2	-88.6	2.9	1.56e+00	0	47	104	0	60	1048575
2026-01-18 00:40:30.33	355.74	34.73	-85.2	-88.6	3.0	1.55e+00	0	47	104	0	60	1048575
2026-01-18 00:40:31.33	355.45	34.89	-85.2	-88.6	3.0	1.56e+00	0	47	104	0	60	1048575
2026-01-18 00:40:32.34	355.15	35.04	-85.2	-88.6	2.9	1.55e+00	0	47	104	0	60	1048574
2026-01-18 00:40:33.35	354.85	35.19	-85.2	-88.6	2.9	1.55e+00	0	47	104	0	60	1048573
2026-01-18 00:40:34.36	354.55	35.34	-85.2	-88.6	2.9	1.56e+00	0	47	104	0	60	1048575
2026-01-18 00:40:35.37	354.24	35.49	-85.2	-88.6	3.0	1.56e+00	0	47	104	0	60	1048575
2026-01-18 00:40:36.37	353.93	35.64	-85.2	-88.6	3.2	1.55e+00	0	47	104	0	60	1048575
2026-01-18 00:40:37.38	353.62	35.80	-85.2	-88.6	2.8	1.56e+00	0	47	104	0	60	1048575
2026-01-18 00:40:38.39	353.31	35.95	-84.7	-88.6	3.1	1.56e+00	0	47	104	0	60	1048574
2026-01-18 00:40:39.39	352.99	36.10	-85.2	-88.6	3.0	1.56e+00	0	47	104	0	60	1048575
2026-01-18 00:40:40.40	352.67	36.25	-85.2	-88.6	3.0	1.56e+00	0	47	104	0	60	1048575
2026-01-18 00:40:41.41	352.35	36.40	-85.2	-88.6	2.9	1.56e+00	0	47	104	0	60	1048575
2026-01-18 00:40:42.41	352.03	36.54	-85.2	-88.6	2.9	1.56e+00	0	47	104	0	60	1048572
2026-01-18 00:40:43.42	351.70	36.69	-85.2	-88.6	3.0	1.56e+00	0	47	104	0	60	1048575
2026-01-18 00:40:44.43	351.36	36.84	-85.2	-88.6	3.1	1.56e+00	0	47	104	0	60	1048575
2026-01-18 00:40:45.44	351.03	36.99	-85.2	-88.6	3.0	1.56e+00	0	47	104	0	60	1048575
2026-01-18 00:40:46.44	350.69	37.14	-85.2	-88.6	3.0	1.56e+00	0	47	104	0	60	1048575
2026-01-18 00:40:47.45	350.35	37.29	-84.3	-88.6	3.0	1.56e+00	0	47	104	0	60	1048575
2026-01-18 00:40:48.45	350.01	37.43	-85.2	-88.6	3.1	1.56e+00	0	47	104	0	60	1048575
2026-01-18 00:40:49.46	349.66	37.58	-85.2	-88.6	2.8	1.56e+00	0	47	104	0	60	1048574
2026-01-18 00:40:50.47	349.31	37.72	-85.2	-88.6	2.9	1.56e+00	0	47	104	0	60	1048574
2026-01-18 00:40:51.48	348.96	37.87	-85.2	-88.6	3.1	1.56e+00	0	47	104	0	60	1048573
2026-01-18 00:40:52.49	348.60	38.01	-84.7	-88.6	2.9	1.56e+00	0	47	104	0	60	1048574
2026-01-18 00:40:53.49	348.24	38.16	-85.2	-88.6	3.1	1.56e+00	0	47	104	0	60	1048573
2026-01-18 00:40:54.50	347.88	38.30	-85.2	-88.6	3.2	1.56e+00	0	47	104	0	60	1048575
2026-01-18 00:40:55.50	347.51	38.44	-85.2	-88.6	3.3	1.56e+00	0	47	104	0	60	1048575
2026-01-18 00:40:56.50	347.15	38.58	-85.2	-88.6	3.0	1.55e+00	0	47	104	0	60	1048574
2026-01-18 00:40:57.51	346.77	38.72	-85.2	-88.6	3.1	1.55e+00	0	47	104	0	60	1048575
2026-01-18 00:40:58.51	346.40	38.86	-85.2	-88.6	3.1	1.56e+00	0	47	104	0	60	1048574
2026-01-18 00:40:59.52	346.02	39.00	-85.2	-88.6	2.9	1.56e+00	0	47	104	0	60	1048574
2026-01-18 00:41:00.52	345.64	39.14	-85.2	-88.6	3.0	1.56e+00	0	47	104	0	60	1048575
2026-01-18 00:41:01.53	345.25	39.27	-85.2	-88.6	2.8	1.56e+00	0	47	104	0	60	1048575
2026-01-18 00:41:02.53	344.87	39.41	-85.2	-88.6	3.0	1.56e+00	0	47	104	0	60	1048575
2026-01-18 00:41:03.54	344.47	39.55	-85.2	-88.6	2.9	1.55e+00	0	47	104	0	60	1048573
2026-01-18 00:41:04.55	344.08	39.68	-85.2	-88.6	3.0	1.56e+00	0	47	104	0	60	1048574
2026-01-18 00:41:05.56	343.68	39.81	-85.2	-88.6	3.1	1.56e+00	0	47	104	0	60	1048575
2026-01-18 00:41:06.56	343.28	39.94	-85.2	-88.6	2.8	1.56e+00	0	47	104	0	60	1048575
2026-01-18 00:41:07.57	342.87	40.08	-83.5	-88.6	3.1	1.56e+00	0	47	104	0	60	1048575
2026-01-18 00:41:08.58	342.46	40.21	-85.2	-88.6	2.9	1.55e+00	0	47	104	0	60	1048575
2026-01-18 00:41:09.59	342.05	40.33	-85.2	-88.6	3.0	1.56e+00	0	47	104	0	60	1048575
2026-01-18 00:41:10.59	341.63	40.46	-85.2	-88.6	3.0	1.56e+00	0	47	104	0	60	1048575
2026-01-18 00:41:11.60	341.21	40.59	-85.2	-88.6	3.0	1.56e+00	0	47	104	0	60	1048574
2026-01-18 00:41:12.60	340.80	40.71	-85.2	-88.6	3.0	1.55e+00	0	47	104	0	60	1048575
2026-01-18 00:41:13.61	340.37	40.83	-85.2	-88.6	2.9	1.56e+00	0	47	104	0	60	1048575
2026-01-18 00:41:14.61	339.94	40.96	-85.2	-88.6	3.0	1.56e+00	0	47	104	0	60	1048575
2026-01-18 00:41:15.62	339.51	41.08	-85.2	-88.6	2.8	1.56e+00	0	47	104	0	60	1048575
2026-01-18 00:41:16.63	339.07	41.20	-85.2	-88.6	3.0	1.56e+00	0	47	104	0	60	1048574
2026-01-18 00:41:17.64	338.64	41.31	-85.2	-88.6	3.1	1.56e+00	0	47	104	0	60	1048575
2026-01-18 00:41:18.65	338.19	41.43	-85.2	-88.6	2.9	1.56e+00	0	47	104	0	60	1048575
2026-01-18 00:41:19.65	337.75	41.54	-85.2	-88.6	3.2	1.55e+00	0	47	104	0	60	1048571
2026-01-18 00:41:20.66	337.30	41.66	-85.2	-88.6	3.0	1.55e+00	0	47	104	0	60	1048575
2026-01-18 00:41:21.67	336.85	41.77	-85.2	-88.6	3.0	1.56e+00	0	47	104	0	60	1048574
2026-01-18 00:41:22.68	336.39	41.88	-85.2	-88.6	2.9	1.55e+00	0	47	104	0	60	1048575
2026-01-18 00:41:23.68	335.94	41.99	-85.2	-88.6	2.9	1.56e+00	0	47	104	0	60	1048575
2026-01-18 00:41:24.69	335.48	42.09	-85.2	-88.6	3.0	1.56e+00	0	47	104	0	60	1048570
2026-01-18 00:41:25.69	335.02	42.20	-85.2	-88.6	3.1	1.55e+00	0	47	104	0	60	1048572
2026-01-18 00:41:26.70	334.55	42.30	-85.2	-88.6	3.0	1.56e+00	0	47	104	0	60	1048573
2026-01-18 00:41:27.71	334.08	42.40	-85.2	-88.6	3.0	1.56e+00	0	47	104	0	60	1048575
2026-01-18 00:41:28.71	333.61	42.50	-82.5	-88.6	3.0	1.56e+00	0	47	104	0	60	1048571
2026-01-18 00:41:29.72	333.14	42.59	-85.2	-88.6	3.0	1.56e+00	0	47	104	0	60	1048575
2026-01-18 00:41:30.73	332.66	42.69	-85.2	-88.6	3.3	1.56e+00	0	47	104	0	60	1048575
2026-01-18 00:41:31.73	332.18	42.78	-85.2	-88.6	2.7	1.56e+00	0	47	104	0	60	1048575
2026-01-18 00:41:32.74	331.70	42.87	-85.2	-88.6	3.1	1.56e+00	0	47	104	0	60	1048575
2026-01-18 00:41:33.75	331.21	42.96	-85.2	-88.6	2.8	1.55e+00	0	47	104	0	60	1048574
2026-01-18 00:41:34.76	330.72	43.05	-85.2	-88.6	3.0	1.56e+00	0	47	104	0	60	1048572
2026-01-18 00:41:35.76	330.23	43.13	-85.2	-88.6	3.0	1.56e+00	0	47	104	0	60	1048572
2026-01-18 00:41:36.77	329.74	43.21	-85.2	-88.6	3.1	1.56e+00	0	47	104	0	60	1048575
2026-01-18 00:41:37.78	329.24	43.29	-85.2	-88.6	3.1	1.56e+00	0	47	104	0	60	1048575
2026-01-18 00:41:38.78	328.74	43.37	-85.2	-88.6	3.1	1.55e+00	0	47	104	0	60	1048575
2026-01-18 00:41:39.79	328.24	43.44	-85.2	-88.6	3.2	1.55e+00	0	47	104	0	60	1048575
2026-01-18 00:41:40.79	327.74	43.52	-85.2	-88.6	3.2	1.55e+00	0	47	104	0	60	1048575
2026-01-18 00:41:41.80	327.23	43.59	-85.2	-88.6	3.0	1.56e+00	0	47	104	0	60	1048574
2026-01-18 00:41:42.81	326.72	43.65	-85.2	-88.6	2.7	1.56e+00	0	47	104	0	60	1048574
2026-01-18 00:41:43.81	326.22	43.72	-85.2	-88.6	3.0	1.56e+00	0	47	104	0	60	1048575
2026-01-18 00:41:44.82	325.70	43.78	-85.2	-88.6	3.2	1.56e+00	0	47	104	0	60	1048575
2026-01-18 00:41:45.83	325.19	43.84	-85.2	-88.6	2.9	1.55e+00	0	47	104	0	60	1048575
2026-01-18 00:41:46.83	324.67	43.90	-85.2	-88.6	3.0	1.55e+00	0	47	104	0	60	1048571
2026-01-18 00:41:47.83	324.16	43.96	-85.2	-88.6	2.8	1.55e+00	0	47	104	0	60	1048573
2026-01-18 00:41:48.84	323.64	44.01	-85.2	-88.6	2.9	1.56e+00	0	47	104	0	60	1048574
2026-01-18 00:41:49.84	323.12	44.06	-85.2	-88.6	2.9	1.56e+00	0	47	104	0	60	1048570
2026-01-18 00:41:50.85	322.59	44.11	-85.2	-88.6	3.1	1.56e+00	0	47	104	0	60	1048573
2026-01-18 00:41:51.86	322.07	44.15	-85.2	-88.6	2.9	1.55e+00	0	47	104	0	60	1048575
2026-01-18 00:41:52.87	321.54	44.20	-85.2	-88.6	3.2	1.56e+00	0	47	104	0	60	1048575
2026-01-18 00:41:53.87	321.02	44.24	-85.2	-88.6	3.1	1.55e+00	0	47	104	0	60	1048575
2026-01-18 00:41:54.88	320.49	44.27	-85.2	-88.6	2.9	1.55e+00	0	47	104	0	60	1048574
2026-01-18 00:41:55.89	319.95	44.31	-85.2	-88.6	2.9	1.56e+00	0	47	104	0	60	1048573
2026-01-18 00:41:56.89	319.43	44.34	-85.2	-88.6	3.0	1.56e+00	0	47	104	0	60	1048574
2026-01-18 00:41:57.90	318.89	44.37	-85.2	-88.6	3.0	1.56e+00	0	47	104	0	60	1048573
2026-01-18 00:41:58.91	318.36	44.40	-85.2	-88.6	3.0	1.56e+00	0	47	104	0	60	1048572
2026-01-18 00:41:59.91	317.83	44.42	-85.2	-88.6	3.2	1.55e+00	0	47	104	0	60	1048574
2026-01-18 00:42:00.90	317.30	44.44	-85.2	-88.6	2.8	1.55e+00	0	47	104	0	60	1048575
2026-01-18 00:42:01.90	316.77	44.46	-85.2	-88.6	3.1	1.55e+00	0	47	104	0	60	1048575
2026-01-18 00:42:02.91	316.23	44.47	-85.2	-88.6	3.0	1.56e+00	0	47	104	0	60	1048573
2026-01-18 00:42:03.91	315.70	44.49	-85.2	-88.6	3.1	1.56e+00	0	47	104	0	60	1048575
2026-01-18 00:42:04.92	315.16	44.50	-85.2	-88.6	3.0	1.56e+00	0	47	104	0	60	1048575
2026-01-18 00:42:05.93	314.62	44.50	-85.2	-88.6	2.9	1.56e+00	0	47	104	0	60	1048573
2026-01-18 00:42:06.93	314.09	44.51	-85.2	-88.6	3.0	1.55e+00	0	47	104	0	60	1048575
2026-01-18 00:42:07.94	313.55	44.51	-85.2	-88.6	3.0	1.56e+00	0	47	104	0	60	1048575
2026-01-18 00:42:08.94	313.02	44.51	-85.2	-88.6	3.0	1.56e+00	0	47	104	0	60	1048575
2026-01-18 00:42:09.95	312.48	44.50	-85.2	-88.6	2.9	1.55e+00	0	47	104	0	60	1048570
2026-01-18 00:42:10.96	311.94	44.49	-85.2	-88.6	2.9	1.55e+00	0	47	104	0	60	1048575
2026-01-18 00:42:11.97	311.40	44.49	-85.2	-88.6	3.1	1.56e+00	0	47	104	0	60	1048575
2026-01-18 00:42:12.97	310.87	44.47	-85.2	-88.6	3.0	1.55e+00	0	47	104	0	60	1048573
2026-01-18 00:42:13.98	310.33	44.46	-85.2	-88.6	3.0	1.56e+00	0	47	104	0	60	1048571
2026-01-18 00:42:14.99	309.79	44.44	-85.2	-88.6	2.9	1.56e+00	0	47	104	0	60	1048573
2026-01-18 00:42:15.99	309.26	44.42	-85.2	-88.6	3.0	1.56e+00	0	47	104	0	60	1048575
2026-01-18 00:42:17.00	308.73	44.39	-85.2	-88.6	3.1	1.56e+00	0	47	104	0	60	1048573
2026-01-18 00:42:18.01	308.19	44.37	-85.2	-88.6	2.9	1.55e+00	0	47	104	0	60	1048574
2026-01-18 00:42:19.01	307.66	44.34	-85.2	-88.6	3.2	1.56e+00	0	47	104	0	60	1048575
2026-01-18 00:42:20.02	307.13	44.31	-85.2	-88.6	3.2	1.55e+00	0	47	104	0	60	1048575
2026-01-18 00:42:21.03	306.60	44.27	-85.2	-88.6	2.8	1.56e+00	0	47	104	0	60	1048575
2026-01-18 00:42:22.03	306.07	44.23	-85.2	-88.6	2.8	1.56e+00	0	47	104	0	60	1048573
2026-01-18 00:42:23.04	305.54	44.19	-85.2	-88.6	3.1	1.56e+00	0	47	104	0	60	1048575
2026-01-18 00:42:24.05	305.02	44.15	-85.2	-88.6	3.1	1.56e+00	0	47	104	0	60	1048574
2026-01-18 00:42:25.05	304.50	44.10	-85.2	-88.6	3.0	1.56e+00	0	47	104	0	60	1048575
2026-01-18 00:42:26.06	303.97	44.06	-85.2	-88.6	2.9	1.56e+00	0	47	104	0	60	1048574
2026-01-18 00:42:27.07	303.45	44.01	-85.2	-88.6	3.1	1.55e+00	0	47	104	0	60	1048575
2026-01-18 00:42:28.08	302.93	43.95	-85.2	-88.6	3.0	1.56e+00	0	47	104	0	60	1048575
2026-01-18 00:42:29.09	302.41	43.90	-85.2	-88.6	3.1	1.56e+00	0	47	104	0	60	1048574
2026-01-18 00:42:30.09	301.89	43.84	-85.2	-88.6	3.2	1.56e+00	0	47	104	0	60	1048575
2026-01-18 00:42:31.10	301.38	43.78	-85.2	-88.6	3.1	1.56e+00	0	47	104	0	60	1048574
2026-01-18 00:42:32.11	300.86	43.71	-85.2	-88.6	3.0	1.56e+00	0	47	104	0	60	1048575
2026-01-18 00:42:33.12	300.35	43.65	-85.2	-88.6	2.8	1.56e+00	0	47	104	0	60	1048572
2026-01-18 00:42:34.12	299.85	43.58	-85.2	-88.6	3.1	1.56e+00	0	47	104	0	60	1048574
2026-01-18 00:42:35.13	299.34	43.51	-85.2	-88.6	3.1	1.56e+00	0	47	104	0	60	1048573
2026-01-18 00:42:36.14	298.83	43.43	-85.2	-88.6	3.1	1.55e+00	0	47	104	0	60	1048574
2026-01-18 00:42:37.15	298.33	43.36	-85.2	-88.6	3.0	1.56e+00	0	47	104	0	60	1048575
2026-01-18 00:42:38.15	297.84	43.28	-85.2	-88.6	3.0	1.56e+00	0	47	104	0	60	1048575
2026-01-18 00:42:39.15	297.34	43.20	-85.2	-88.6	3.0	1.56e+00	0	47	104	0	60	1048575
2026-01-18 00:42:40.16	296.85	43.12	-85.2	-88.6	3.1	1.55e+00	0	47	104	0	60	1048575
2026-01-18 00:42:41.17	296.35	43.04	-85.2	-88.6	2.6	1.55e+00	0	47	104	0	60	1048575
2026-01-18 00:42:42.18	295.86	42.95	-85.2	-88.6	3.2	1.56e+00	0	47	104	0	60	1048574
2026-01-18 00:42:43.19	295.38	42.86	-85.2	-88.6	3.0	1.55e+00	0	47	104	0	60	1048575
2026-01-18 00:42:44.19	294.90	42.77	-85.2	-88.6	2.9	1.56e+00	0	47	104	0	60	1048574
2026-01-18 00:42:45.20	294.41	42.68	-85.2	-88.6	3.0	1.55e+00	0	47	104	0	60	1048574
2026-01-18 00:42:46.21	293.93	42.58	-85.2	-88.6	3.0	1.56e+00	0	47	104	0	60	1048575
2026-01-18 00:42:47.21	293.46	42.48	-85.2	-88.6	3.0	1.55e+00	0	47	104	0	60	1048575
2026-01-18 00:42:48.22	292.99	42.39	-85.2	-88.6	2.9	1.55e+00	0	47	104	0	60	1048573
2026-01-18 00:42:49.23	292.52	42.28	-85.2	-88.6	3.1	1.56e+00	0	47	104	0	60	1048575
2026-01-18 00:42:50.24	292.05	42.18	-85.2	-88.6	3.0	1.56e+00	0	47	104	0	60	1048575
2026-01-18 00:42:51.25	291.59	42.08	-85.2	-88.6	3.1	1.56e+00	0	47	104	0	60	1048575
2026-01-18 00:42:52.25	291.13	41.97	-85.2	-88.6	3.1	1.55e+00	0	47	104	0	60	1048574
2026-01-18 00:42:53.26	290.67	41.86	-85.2	-88.6	3.0	1.56e+00	0	47	104	0	60	1048571
2026-01-18 00:42:54.27	290.22	41.75	-85.2	-88.6	3.1	1.55e+00	0	47	104	0	60	1048572
2026-01-18 00:42:55.27	289.77	41.64	-85.2	-88.6	3.0	1.56e+00	0	47	104	0	60	1048575
2026-01-18 00:42:56.28	289.32	41.53	-85.2	-88.6	3.1	1.55e+00	0	47	104	0	60	1048571
2026-01-18 00:42:57.28	288.88	41.41	-84.7	-88.6	3.1	1.55e+00	0	47	104	0	60	1048575
2026-01-18 00:42:58.28	288.44	41.30	-85.2	-88.6	3.2	1.56e+00	0	47	104	0	60	1048570
2026-01-18 00:42:59.28	288.00	41.18	-85.2	-88.6	3.2	1.56e+00	0	47	104	0	60	1048575
2026-01-18 00:43:00.29	287.57	41.06	-85.2	-88.6	3.1	1.56e+00	0	47	104	0	60	1048574
2026-01-18 00:43:01.30	287.13	40.94	-85.2	-88.6	3.0	1.56e+00	0	47	104	0	60	1048575
2026-01-18 00:43:02.31	286.70	40.82	-85.2	-88.6	3.1	1.56e+00	0	47	104	0	60	1048575
2026-01-18 00:43:03.31	286.28	40.69	-85.2	-88.6	3.0	1.56e+00	0	47	104	0	60	1048573
2026-01-18 00:43:04.32	285.86	40.57	-85.2	-88.6	2.8	1.55e+00	0	47	104	0	60	1048575
2026-01-18 00:43:05.33	285.44	40.44	-85.2	-88.6	3.0	1.56e+00	0	47	104	0	60	1048573
2026-01-18 00:43:06.34	285.02	40.31	-85.2	-88.6	3.2	1.56e+00	0	47	104	0	60	1048575
2026-01-18 00:43:07.34	284.61	40.19	-85.2	-88.6	3.0	1.55e+00	0	47	104	0	60	1048573
2026-01-18 00:43:08.35	284.20	40.06	-85.2	-88.6	3.1	1.56e+00	0	47	104	0	60	1048574
2026-01-18 00:43:09.35	283.80	39.93	-85.2	-88.6	3.0	1.55e+00	0	47	104	0	60	1048574
2026-01-18 00:43:10.36	283.39	39.79	-85.2	-88.6	2.9	1.55e+00	0	47	104	0	60	1048575
2026-01-18 00:43:11.36	283.00	39.66	-85.2	-88.6	3.0	1.55e+00	0	47	104	0	60	1048574
2026-01-18 00:43:12.37	282.60	39.53	-84.3	-88.6	3.1	1.56e+00	0	47	104	0	60	1048575
2026-01-18 00:43:13.38	282.21	39.39	-85.2	-88.6	2.9	1.56e+00	0	47	104	0	60	1048574
2026-01-18 00:43:14.38	281.82	39.25	-85.2	-88.6	3.1	1.56e+00	0	47	104	0	60	1048574
2026-01-18 00:43:15.39	281.43	39.12	-85.2	-88.6	3.1	1.56e+00	0	47	104	0	60	1048574
2026-01-18 00:43:16.40	281.05	38.98	-85.2	-88.6	3.1	1.56e+00	0	47	104	0	60	1048575
2026-01-18 00:43:17.40	280.67	38.84	-84.7	-88.6	3.2	1.56e+00	0	47	104	0	60	1048575
2026-01-18 00:43:18.41	280.30	38.70	-85.2	-88.6	3.0	1.55e+00	0	47	104	0	60	1048575
2026-01-18 00:43:19.41	279.93	38.56	-85.2	-88.6	2.9	1.56e+00	0	47	104	0	60	1048574
2026-01-18 00:43:20.42	279.55	38.42	-85.2	-88.6	3.2	1.56e+00	0	47	104	0	60	1048574
2026-01-18 00:43:21.43	279.19	38.27	-85.2	-88.6	2.9	1.56e+00	0	47	104	0	60	1048575
2026-01-18 00:43:22.44	278.82	38.13	-85.2	-88.6	3.0	1.56e+00	0	47	104	0	60	1048575
2026-01-18 00:43:23.44	278.46	37.99	-85.2	-88.6	3.1	1.56e+00	0	47	104	0	60	1048574
2026-01-18 00:43:24.44	278.11	37.84	-85.2	-88.6	3.1	1.55e+00	0	47	104	0	60	1048573
2026-01-18 00:43:25.44	277.76	37.70	-85.2	-88.6	2.9	1.56e+00	0	47	104	0	60	1048574
2026-01-18 00:43:26.45	277.41	37.55	-85.2	-88.6	2.9	1.55e+00	0	47	104	0	60	1048575
2026-01-18 00:43:27.45	277.06	37.41	-84.3	-88.6	2.9	1.56e+00	0	47	104	0	60	1048573
2026-01-18 00:43:28.45	276.72	37.26	-85.2	-88.6	3.1	1.55e+00	0	47	104	0	60	1048575
2026-01-18 00:43:29.45	276.38	37.11	-85.2	-88.6	3.1	1.55e+00	0	47	104	0	60	1048573
2026-01-18 00:43:30.46	276.04	36.97	-85.2	-88.6	2.9	1.55e+00	0	47	104	0	60	1048575
2026-01-18 00:43:31.47	275.71	36.82	-85.2	-88.6	3.0	1.56e+00	0	47	104	0	60	1048575
2026-01-18 00:43:32.47	275.38	36.67	-84.3	-88.6	3.1	1.55e+00	0	47	104	0	60	1048575
2026-01-18 00:43:33.48	275.05	36.52	-85.2	-88.6	3.0	1.56e+00	0	47	104	0	60	1048575
2026-01-18 00:43:34.49	274.72	36.37	-85.2	-88.6	3.1	1.56e+00	0	47	104	0	60	1048573
2026-01-18 00:43:35.50	274.40	36.22	-85.2	-88.6	2.9	1.56e+00	0	47	104	0	60	1048575
2026-01-18 00:43:36.51	274.08	36.07	-85.2	-88.6	2.9	1.55e+00	0	47	104	0	60	1048574
2026-01-18 00:43:37.51	273.76	35.92	-84.3	-88.6	3.1	1.56e+00	0	47	104	0	60	1048575
2026-01-18 00:43:38.52	273.45	35.77	-85.2	-88.6	2.9	1.56e+00	0	47	104	0	60	1048575
2026-01-18 00:43:39.52	273.14	35.62	-83.5	-88.6	2.9	1.56e+00	0	47	104	0	60	1048575
2026-01-18 00:43:40.52	272.83	35.47	-85.2	-88.6	2.8	1.55e+00	0	47	104	0	60	1048574
2026-01-18 00:43:41.53	272.52	35.31	-85.2	-88.6	3.1	1.55e+00	0	47	104	0	60	1048571
2026-01-18 00:43:42.53	272.22	35.16	-83.5	-88.6	3.0	1.56e+00	0	47	104	0	60	1048574
2026-01-18 00:43:43.54	271.92	35.01	-85.2	-88.6	2.8	1.56e+00	0	47	104	0	60	1048575
2026-01-18 00:43:44.55	271.63	34.86	-85.2	-88.6	3.1	1.56e+00	0	47	104	0	60	1048575
2026-01-18 00:43:45.56	271.33	34.71	-85.2	-88.6	2.9	1.55e+00	0	47	104	0	60	1048573
2026-01-18 00:43:46.56	271.04	34.55	-85.2	-88.6	3.0	1.56e+00	0	47	104	0	60	1048575
2026-01-18 00:43:47.57	270.75	34.40	-84.3	-88.6	3.2	1.56e+00	0	47	104	0	60	1048575
2026-01-18 00:43:48.58	270.46	34.25	-85.2	-88.6	2.9	1.56e+00	0	47	104	0	60	1048573
2026-01-18 00:43:49.58	270.18	34.10	-85.2	-88.6	3.0	1.56e+00	0	47	104	0	60	1048575
2026-01-18 00:43:50.59	269.90	33.94	-85.2	-88.6	3.1	1.56e+00	0	47	104	0	60	1048571
2026-01-18 00:43:51.60	269.62	33.79	-85.2	-88.6	3.1	1.55e+00	0	47	104	0	60	1048571
2026-01-18 00:43:52.61	269.35	33.64	-85.2	-88.6	3.1	1.56e+00	0	47	104	0	60	1048573
2026-01-18 00:43:53.62	269.07	33.48	-85.2	-88.6	3.2	1.56e+00	0	47	104	0	60	1048575
2026-01-18 00:43:54.62	268.80	33.33	-85.2	-88.6	3.0	1.55e+00	0	47	104	0	60	1048575
2026-01-18 00:43:55.63	268.54	33.18	-85.2	-88.6	2.8	1.56e+00	0	47	104	0	60	1048574
2026-01-18 00:43:56.63	268.27	33.03	-85.2	-88.6	3.1	1.56e+00	0	47	104	0	60	1048575
2026-01-18 00:43:57.63	268.01	32.88	-84.7	-88.6	3.0	1.56e+00	0	47	104	0	60	1048575
2026-01-18 00:43:58.64	267.75	32.72	-85.2	-88.6	2.9	1.55e+00	0	47	104	0	60	1048575
2026-01-18 00:43:59.65	267.49	32.57	-85.2	-88.6	2.7	1.55e+00	0	47	104	0	60	1048573
2026-01-18 00:44:00.65	267.24	32.42	-85.2	-88.6	3.1	1.56e+00	0	47	104	0	60	1048575
2026-01-18 00:44:01.66	266.99	32.27	-85.2	-88.6	3.1	1.56e+00	0	47	104	0	60	1048573
2026-01-18 00:44:02.67	266.73	32.11	-84.7	-88.6	3.0	1.55e+00	0	47	104	0	60	1048575
2026-01-18 00:44:03.68	266.49	31.96	-85.2	-88.6	3.2	1.56e+00	0	47	104	0	60	1048574
2026-01-18 00:44:04.68	266.24	31.81	-85.2	-88.6	3.0	1.56e+00	0	47	104	0	60	1048575
2026-01-18 00:44:05.69	266.00	31.66	-85.2	-88.6	3.1	1.56e+00	0	47	104	0	60	1048566
2026-01-18 00:44:06.70	265.76	31.51	-85.2	-88.6	2.9	1.55e+00	0	47	104	0	60	1048574
2026-01-18 00:44:07.71	265.52	31.35	-85.2	-88.6	3.1	1.55e+00	0	47	104	0	60	1048575
2026-01-18 00:44:08.72	265.28	31.20	-85.2	-88.6	3.0	1.56e+00	0	47	104	0	60	1048573
2026-01-18 00:44:09.73	265.04	31.05	-85.2	-88.6	2.9	1.56e+00	0	47	104	0	60	1048575
2026-01-18 00:44:10.73	264.81	30.90	-85.2	-88.6	3.0	1.56e+00	0	47	104	0	60	1048575
2026-01-18 00:44:11.73	264.58	30.75	-85.2	-88.6	2.9	1.55e+00	0	47	104	0	60	1048575
2026-01-18 00:44:12.74	264.36	30.60	-84.7	-88.6	3.0	1.56e+00	0	47	104	0	60	1048574
2026-01-18 00:44:13.75	264.13	30.45	-85.2	-88.6	3.0	1.56e+00	0	47	104	0	60	1048575
2026-01-18 00:44:14.75	263.91	30.30	-85.2	-88.6	3.2	1.55e+00	0	47	104	0	60	1048574
2026-01-18 00:44:15.76	263.68	30.15	-85.2	-88.6	3.0	1.56e+00	0	47	104	0	60	1048575
2026-01-18 00:44:16.76	263.47	30.01	-85.2	-88.6	3.2	1.56e+00	0	47	104	0	60	1048573
2026-01-18 00:44:17.77	263.25	29.86	-84.7	-88.6	3.1	1.56e+00	0	47	104	0	60	1048575
2026-01-18 00:44:18.77	263.03	29.71	-85.2	-88.6	3.1	1.56e+00	0	47	104	0	60	1048574
2026-01-18 00:44:19.78	262.82	29.56	-85.2	-88.6	3.1	1.56e+00	0	47	104	0	60	1048572
2026-01-18 00:44:20.79	262.61	29.41	-85.2	-88.6	3.0	1.55e+00	0	47	104	0	60	1048575
2026-01-18 00:44:21.79	262.40	29.27	-85.2	-88.6	3.0	1.56e+00	0	47	104	0	60	1048573
2026-01-18 00:44:22.80	262.19	29.12	-85.2	-88.6	3.1	1.55e+00	0	47	104	0	60	1048575
2026-01-18 00:44:23.80	261.99	28.98	-85.2	-88.6	3.1	1.56e+00	0	47	104	0	60	1048574
2026-01-18 00:44:24.81	261.78	28.83	-85.2	-88.6	2.9	1.56e+00	0	47	104	0	60	1048574
2026-01-18 00:44:25.82	261.58	28.68	-85.2	-88.6	3.4	1.56e+00	0	47	104	0	60	1048575
2026-01-18 00:44:26.83	261.38	28.54	-85.2	-88.6	3.0	1.56e+00	0	47	104	0	60	1048575
2026-01-18 00:44:27.84	261.18	28.39	-85.2	-88.6	3.1	1.56e+00	0	47	104	0	60	1048575
2026-01-18 00:44:28.84	260.98	28.25	-85.2	-88.6	2.9	1.55e+00	0	47	104	0	60	1048575
2026-01-18 00:44:29.85	260.79	28.10	-85.2	-88.6	3.0	1.55e+00	0	47	104	0	60	1048573
2026-01-18 00:44:30.85	260.60	27.96	-85.2	-88.6	3.0	1.55e+00	0	47	104	0	60	1048575
2026-01-18 00:44:31.86	260.40	27.81	-85.2	-88.6	2.8	1.56e+00	0	47	104	0	60	1048574
2026-01-18 00:44:32.86	260.22	27.67	-85.2	-88.6	2.9	1.56e+00	0	47	104	0	60	1048575
2026-01-18 00:44:33.87	260.03	27.53	-85.2	-88.6	3.2	1.56e+00	0	47	104	0	60	1048575
2026-01-18 00:44:34.87	259.84	27.39	-85.2	-88.6	2.9	1.56e+00	0	47	104	0	60	1048573
2026-01-18 00:44:35.88	259.66	27.25	-85.2	-88.6	3.0	1.55e+00	0	47	104	0	60	1048575
2026-01-18 00:44:36.89	259.47	27.10	-85.2	-88.6	2.8	1.55e+00	0	47	104	0	60	1048575
2026-01-18 00:44:37.89	259.29	26.96	-85.2	-88.6	3.1	1.56e+00	0	47	104	0	60	1048575
2026-01-18 00:44:38.90	259.11	26.82	-85.2	-88.6	2.8	1.56e+00	0	47	104	0	60	1048575
2026-01-18 00:44:39.90	258.94	26.68	-85.2	-88.6	2.9	1.56e+00	0	47	104	0	60	1048573
2026-01-18 00:44:40.91	258.76	26.54	-85.2	-88.6	2.8	1.55e+00	0	47	104	0	60	1048575
2026-01-18 00:44:41.92	258.59	26.40	-85.2	-88.6	3.0	1.55e+00	0	47	104	0	60	1048575
2026-01-18 00:44:42.93	258.41	26.26	-85.2	-88.6	3.0	1.56e+00	0	47	104	0	60	1048575
2026-01-18 00:44:43.94	258.24	26.12	-85.2	-88.6	3.0	1.56e+00	0	47	104	0	60	1048575
2026-01-18 00:44:44.94	258.07	25.99	-85.2	-88.6	3.0	1.56e+00	0	47	104	0	60	1048575
2026-01-18 00:44:45.95	257.90	25.85	-85.2	-88.6	3.0	1.56e+00	0	47	104	0	60	1048575
2026-01-18 00:44:46.96	257.73	25.71	-85.2	-88.6	3.0	1.56e+00	0	47	104	0	60	1048575
2026-01-18 00:44:47.96	257.57	25.57	-85.2	-88.6	3.1	1.56e+00	0	47	104	0	60	1048575
2026-01-18 00:44:48.97	257.40	25.44	-85.2	-88.6	3.0	1.56e+00	0	47	104	0	60	1048575
2026-01-18 00:44:49.98	257.24	25.30	-85.2	-88.6	3.1	1.56e+00	0	47	104	0	60	1048569
2026-01-18 00:44:50.99	257.08	25.16	-85.2	-88.6	3.0	1.56e+00	0	47	104	0	60	1048571
2026-01-18 00:44:52.00	256.92	25.03	-85.2	-88.6	3.1	1.56e+00	0	47	104	0	60	1048575
2026-01-18 00:44:53.00	256.76	24.89	-85.2	-88.6	3.1	1.56e+00	0	47	104	0	60	1048573
2026-01-18 00:44:54.01	256.60	24.76	-85.2	-88.6	3.2	1.55e+00	0	47	104	0	60	1048572
2026-01-18 00:44:55.02	256.45	24.62	-85.2	-88.6	2.9	1.55e+00	0	47	104	0	60	1048575
2026-01-18 00:44:56.03	256.29	24.49	-85.2	-88.6	3.1	1.56e+00	0	47	104	0	60	1048575
2026-01-18 00:44:57.04	256.14	24.36	-85.2	-88.6	3.0	1.56e+00	0	47	104	0	60	1048575
2026-01-18 00:44:58.04	255.99	24.23	-85.2	-88.6	3.0	1.55e+00	0	47	104	0	60	1048575
2026-01-18 00:44:59.05	255.84	24.09	-85.2	-88.6	3.1	1.56e+00	0	47	104	0	60	1048574
2026-01-18 00:45:00.06	255.69	23.96	-85.2	-88.6	2.9	1.56e+00	0	47	104	0	60	1048574
2026-01-18 00:45:01.07	255.54	23.83	-85.2	-88.6	3.1	1.55e+00	0	47	104	0	60	1048575
2026-01-18 00:45:02.08	255.39	23.70	-85.2	-88.6	3.1	1.56e+00	0	47	104	0	60	1048575
2026-01-18 00:45:03.09	255.24	23.57	-85.2	-88.6	3.0	1.56e+00	0	47	104	0	60	1048575
2026-01-18 00:45:04.09	255.10	23.44	-85.2	-88.6	2.9	1.56e+00	0	47	104	0	60	1048575
2026-01-18 00:45:05.10	254.96	23.31	-85.2	-88.6	3.0	1.56e+00	0	47	104	0	60	1048573
2026-01-18 00:45:06.10	254.82	23.18	-85.2	-88.6	3.0	1.56e+00	0	47	104	0	60	1048570
2026-01-18 00:45:07.11	254.67	23.05	-85.2	-88.6	3.0	1.56e+00	0	47	104	0	60	1048575
2026-01-18 00:45:08.11	254.54	22.92	-85.2	-88.6	3.2	1.56e+00	0	47	104	0	60	1048575
2026-01-18 00:45:09.11	254.40	22.80	-85.2	-88.6	3.2	1.55e+00	0	47	104	0	60	1048575
2026-01-18 00:45:10.12	254.26	22.67	-85.2	-88.6	3.0	1.56e+00	0	47	104	0	60	1048572
2026-01-18 00:45:11.13	254.12	22.54	-85.2	-88.6	2.9	1.56e+00	0	47	104	0	60	1048574
2026-01-18 00:45:12.14	253.99	22.42	-85.2	-88.6	2.9	1.56e+00	0	47	104	0	60	1048575
2026-01-18 00:45:13.14	253.85	22.29	-85.2	-88.6	3.0	1.56e+00	0	47	104	0	60	1048575
2026-01-18 00:45:14.15	253.72	22.17	-85.2	-88.6	3.2	1.56e+00	0	47	104	0	60	1048573
2026-01-18 00:45:15.16	253.59	22.04	-85.2	-88.6	2.9	1.56e+00	0	47	104	0	60	1048575
2026-01-18 00:45:16.17	253.46	21.92	-85.2	-88.6	2.7	1.55e+00	0	47	104	0	60	1048575
2026-01-18 00:45:17.17	253.33	21.79	-85.2	-88.6	3.0	1.56e+00	0	47	104	0	60	1048575
2026-01-18 00:45:18.18	253.20	21.67	-85.2	-88.6	2.9	1.55e+00	0	47	104	0	60	1048575
2026-01-18 00:45:19.19	253.07	21.54	-84.7	-88.6	3.0	1.56e+00	0	47	104	0	60	1048574
2026-01-18 00:45:20.19	252.95	21.42	-85.2	-88.6	3.0	1.56e+00	0	47	104	0	60	1048573
2026-01-18 00:45:21.19	252.82	21.30	-85.2	-88.6	2.9	1.56e+00	0	47	104	0	60	1048574
2026-01-18 00:45:22.19	252.70	21.18	-85.2	-88.6	3.0	1.56e+00	0	47	104	0	60	1048575
2026-01-18 00:45:23.20	252.57	21.06	-84.7	-88.6	2.9	1.56e+00	0	47	104	0	60	1048574
2026-01-18 00:45:24.20	252.45	20.94	-85.2	-88.6	2.9	1.56e+00	0	47	104	0	60	1048575
2026-01-18 00:45:25.20	252.33	20.82	-85.2	-88.6	3.0	1.56e+00	0	47	104	0	60	1048575
2026-01-18 00:45:26.21	252.21	20.70	-85.2	-88.6	3.1	1.55e+00	0	47	104	0	60	1048575
2026-01-18 00:45:27.22	252.09	20.58	-85.2	-88.6	2.9	1.56e+00	0	47	104	0	60	1048573
2026-01-18 00:45:28.21	251.97	20.46	-85.2	-88.6	3.2	1.56e+00	0	47	104	0	60	1048574
2026-01-18 00:45:29.21	251.86	20.34	-85.2	-88.6	3.0	1.56e+00	0	47	104	0	60	1048573
2026-01-18 00:45:30.21	251.74	20.22	-85.2	-88.6	3.4	1.55e+00	0	47	104	0	60	1048575
2026-01-18 00:45:31.22	251.63	20.11	-85.2	-88.6	3.0	1.56e+00	0	47	104	0	60	1048575
2026-01-18 00:45:32.22	251.51	19.99	-85.2	-88.6	3.0	1.55e+00	0	47	104	0	60	1048575
2026-01-18 00:45:33.23	251.40	19.87	-85.2	-88.6	3.1	1.56e+00	0	47	104	0	60	1048574
2026-01-18 00:45:34.24	251.28	19.76	-85.2	-88.6	2.8	1.56e+00	0	47	104	0	60	1048575
2026-01-18 00:45:35.25	251.17	19.64	-85.2	-88.6	2.9	1.55e+00	0	47	104	0	60	1048575
2026-01-18 00:45:36.25	251.06	19.52	-85.2	-88.6	2.8	1.56e+00	0	47	104	0	60	1048573
2026-01-18 00:45:37.26	250.95	19.41	-85.2	-88.6	3.2	1.55e+00	0	47	104	0	60	1048574
2026-01-18 00:45:38.26	250.84	19.29	-85.2	-88.6	3.0	1.55e+00	0	47	104	0	60	1048574
2026-01-18 00:45:39.26	250.73	19.18	-84.3	-88.6	3.0	1.56e+00	0	47	104	0	60	1048574
2026-01-18 00:45:40.27	250.62	19.07	-85.2	-88.6	3.2	1.56e+00	0	47	104	0	60	1048575
2026-01-18 00:45:41.28	250.52	18.95	-85.2	-88.6	3.0	1.56e+00	0	47	104	0	60	1048574
2026-01-18 00:45:42.28	250.41	18.84	-85.2	-88.6	3.1	1.56e+00	0	47	104	0	60	1048572
2026-01-18 00:45:43.29	250.30	18.73	-85.2	-88.6	3.1	1.55e+00	0	47	104	0	60	1048573
2026-01-18 00:45:44.30	250.20	18.61	-85.2	-88.6	3.0	1.56e+00	0	47	104	0	60	1048574
2026-01-18 00:45:45.31	250.09	18.50	-85.2	-88.6	2.9	1.55e+00	0	47	104	0	60	1048575
2026-01-18 00:45:46.32	249.99	18.39	-85.2	-88.6	3.1	1.56e+00	0	47	104	0	60	1048573
2026-01-18 00:45:47.33	249.89	18.28	-85.2	-88.6	3.0	1.56e+00	0	47	104	0	60	1048573
2026-01-18 00:45:48.33	249.79	18.17	-85.2	-88.6	2.9	1.56e+00	0	47	104	0	60	1048575
2026-01-18 00:45:49.34	249.69	18.06	-85.2	-88.6	2.9	1.56e+00	0	47	104	0	60	1048574
2026-01-18 00:45:50.35	249.58	17.95	-85.2	-88.6	2.7	1.56e+00	0	47	104	0	60	1048574
2026-01-18 00:45:51.36	249.48	17.84	-85.2	-88.6	2.8	1.56e+00	0	47	104	0	60	1048574
2026-01-18 00:45:52.36	249.39	17.73	-85.2	-88.6	2.9	1.56e+00	0	47	104	0	60	1048574
2026-01-18 00:45:53.36	249.29	17.62	-85.2	-88.6	2.8	1.55e+00	0	47	104	0	60	1048575
2026-01-18 00:45:54.37	249.19	17.51	-84.7	-88.6	3.1	1.56e+00	0	47	104	0	60	1048575
2026-01-18 00:45:55.37	249.10	17.40	-85.2	-88.6	2.9	1.56e+00	0	47	104	0	60	1048575
2026-01-18 00:45:56.37	249.00	17.30	-85.2	-88.6	2.9	1.56e+00	0	47	104	0	60	1048572
2026-01-18 00:45:57.38	248.91	17.19	-85.2	-88.6	2.9	1.56e+00	0	47	104	0	60	1048573
2026-01-18 00:45:58.38	248.81	17.08	-85.2	-88.6	2.8	1.56e+00	0	47	104	0	60	1048575
2026-01-18 00:45:59.39	248.72	16.97	-85.2	-88.6	2.9	1.56e+00	0	47	104	0	60	1048575
2026-01-18 00:46:00.40	248.62	16.87	-85.2	-88.6	3.0	1.56e+00	0	47	104	0	60	1048575
2026-01-18 00:46:01.41	248.53	16.76	-85.2	-88.6	3.0	1.56e+00	0	47	104	0	60	1048575
2026-01-18 00:46:02.42	248.44	16.66	-85.2	-88.6	3.0	1.56e+00	0	47	104	0	60	1048571
2026-01-18 00:46:03.42	248.35	16.55	-85.2	-88.6	2.9	1.55e+00	0	47	104	0	60	1048575
2026-01-18 00:46:04.43	248.26	16.45	-85.2	-88.6	2.9	1.56e+00	0	47	104	0	60	1048575
2026-01-18 00:46:05.44	248.17	16.34	-85.2	-88.6	3.0	1.56e+00	0	47	104	0	60	1048575
2026-01-18 00:46:06.45	248.08	16.24	-85.2	-88.6	2.9	1.56e+00	0	47	104	0	60	1048574
2026-01-18 00:46:07.46	247.99	16.13	-85.2	-88.6	2.9	1.56e+00	0	47	104	0	60	1048575
2026-01-18 00:46:08.46	247.90	16.03	-85.2	-88.6	3.1	1.55e+00	0	47	104	0	60	1048573
2026-01-18 00:46:09.47	247.81	15.93	-85.2	-88.6	3.2	1.56e+00	0	47	104	0	60	1048573
2026-01-18 00:46:10.48	247.73	15.83	-85.2	-88.6	3.1	1.56e+00	0	47	104	0	60	1048575
2026-01-18 00:46:11.48	247.64	15.72	-85.2	-88.6	3.0	1.56e+00	0	47	104	0	60	1048571
2026-01-18 00:46:12.49	247.56	15.62	-85.2	-88.6	3.0	1.56e+00	0	47	104	0	60	1048575
2026-01-18 00:46:13.49	247.47	15.52	-85.2	-88.6	3.0	1.55e+00	0	47	104	0	60	1048575
2026-01-18 00:46:14.50	247.39	15.42	-84.7	-88.6	2.9	1.56e+00	0	47	104	0	60	1048575
2026-01-18 00:46:15.51	247.30	15.32	-85.2	-88.6	3.0	1.56e+00	0	47	104	0	60	1048575
2026-01-18 00:46:16.51	247.22	15.22	-85.2	-88.6	2.8	1.55e+00	0	47	104	0	60	1048572
2026-01-18 00:46:17.52	247.14	15.12	-85.2	-88.6	2.9	1.56e+00	0	47	104	0	60	1048575
2026-01-18 00:46:18.53	247.06	15.02	-85.2	-88.6	3.1	1.56e+00	0	47	104	0	60	1048574
2026-01-18 00:46:19.53	246.98	14.92	-85.2	-88.6	3.2	1.56e+00	0	47	104	0	60	1048575
2026-01-18 00:46:20.54	246.89	14.82	-85.2	-88.6	3.0	1.55e+00	0	47	104	0	60	1048568
2026-01-18 00:46:21.55	246.81	14.72	-85.2	-88.6	3.1	1.56e+00	0	47	104	0	60	1048574
2026-01-18 00:46:22.55	246.73	14.62	-85.2	-88.6	3.1	1.55e+00	0	47	104	0	60	1048574
2026-01-18 00:46:23.56	246.66	14.53	-84.3	-88.6	3.1	1.56e+00	0	47	104	0	60	1048574
2026-01-18 00:46:24.56	246.58	14.43	-85.2	-88.6	3.1	1.56e+00	0	47	104	0	60	1048575
2026-01-18 00:46:25.57	246.50	14.33	-85.2	-88.6	2.9	1.55e+00	0	47	104	0	60	1048572
2026-01-18 00:46:26.58	246.42	14.23	-85.2	-88.6	3.3	1.56e+00	0	47	104	0	60	1048575
2026-01-18 00:46:27.59	246.34	14.14	-85.2	-88.6	3.2	1.56e+00	0	47	104	0	60	1048573
2026-01-18 00:46:28.59	246.27	14.04	-85.2	-88.6	3.1	1.56e+00	0	47	104	0	60	1048575
2026-01-18 00:46:29.60	246.19	13.95	-85.2	-88.6	3.2	1.56e+00	0	47	104	0	60	1048570
2026-01-18 00:46:30.60	246.12	13.85	-85.2	-88.6	2.9	1.56e+00	0	47	104	0	60	1048574
2026-01-18 00:46:31.61	246.04	13.76	-85.2	-88.6	3.0	1.56e+00	0	47	104	0	60	1048575
2026-01-18 00:46:32.61	245.97	13.66	-85.2	-88.6	3.1	1.56e+00	0	47	104	0	60	1048575
2026-01-18 00:46:33.62	245.89	13.57	-85.2	-88.6	2.9	1.56e+00	0	47	104	0	60	1048573
2026-01-18 00:46:34.63	245.82	13.47	-85.2	-88.6	3.1	1.55e+00	0	47	104	0	60	1048575
2026-01-18 00:46:35.64	245.75	13.38	-85.2	-88.6	3.2	1.56e+00	0	47	104	0	60	1048575
2026-01-18 00:46:36.65	245.67	13.28	-85.2	-88.6	2.9	1.56e+00	0	47	104	0	60	1048575
2026-01-18 00:46:37.65	245.60	13.19	-85.2	-88.6	3.1	1.56e+00	0	47	104	0	60	1048575
2026-01-18 00:46:38.66	245.53	13.10	-85.2	-88.6	2.9	1.56e+00	0	47	104	0	60	1048564
2026-01-18 00:46:39.67	245.46	13.00	-85.2	-88.6	2.9	1.55e+00	0	47	104	0	60	1048575
2026-01-18 00:46:40.68	245.39	12.91	-85.2	-88.6	3.1	1.56e+00	0	47	104	0	60	1048574
2026-01-18 00:46:41.68	245.32	12.82	-85.2	-88.6	3.0	1.56e+00	0	47	104	0	60	1048574
2026-01-18 00:46:42.69	245.25	12.73	-85.2	-88.6	3.1	1.56e+00	0	47	104	0	60	1048575
2026-01-18 00:46:43.69	245.18	12.64	-85.2	-88.6	3.1	1.56e+00	0	47	104	0	60	1048575
