passes_logs/2026/01/18/R3.2S-Naryan-Mar/R3.2S-Naryan-Mar__20260118_142544_TY-42_rec.log

#Pass ID: 20260118_142544_TY-42
#Satellite: TY-42
#Configuration: TY-42
#almurnet v.1.7.20240730
#Start time: 2026-01-18 14:25:46

#Version: 2.2.20231116
#Station: R3.2S-Naryan-Mar
#Location: 53.008057 lon 67.646978 lat
#TLE: 1 64048U 25103A   26018.53100694  .00008009  00000-0  38191-3 0 09990
#TLE: 2 64048 097.4124 093.8820 0001871 093.1015 305.9816 15.19165829 37354

#Time	Az	El	Level	Level2	SNR	BER	BlckErr	Temp	State	Recorded	gain1	gain2
2026-01-18 14:25:46.00	79.13	0.10	-83.5	-79.0	2.5	0.00e+00	0	45	0	0	60	1048570
2026-01-18 14:25:46.99	79.03	0.15	-83.1	-79.0	2.3	0.00e+00	0	46	104	0	60	1048566
2026-01-18 14:25:47.99	78.94	0.20	-83.5	-79.0	2.4	0.00e+00	0	46	104	0	60	1048575
2026-01-18 14:25:48.99	78.84	0.26	-83.1	-79.0	2.4	0.00e+00	0	46	104	0	60	1048573
2026-01-18 14:25:49.99	78.74	0.31	-83.5	-79.0	2.4	0.00e+00	0	47	104	0	60	1048574
2026-01-18 14:25:50.99	78.64	0.36	-83.1	-79.0	2.4	0.00e+00	0	47	104	0	60	1048570
2026-01-18 14:25:52.00	78.54	0.41	-83.1	-79.0	2.4	0.00e+00	0	47	104	0	60	1048573
2026-01-18 14:25:53.00	78.44	0.47	-83.5	-79.0	2.5	0.00e+00	0	47	104	0	60	1048572
2026-01-18 14:25:54.00	78.34	0.52	-83.1	-79.0	2.3	0.00e+00	0	47	104	0	60	1048571
2026-01-18 14:25:55.01	78.24	0.57	-83.5	-79.0	2.4	0.00e+00	0	47	104	0	60	1048573
2026-01-18 14:25:56.01	78.13	0.63	-82.8	-79.0	2.4	0.00e+00	0	47	104	0	60	1048575
2026-01-18 14:25:57.02	78.03	0.68	-83.1	-79.0	2.2	0.00e+00	0	47	104	0	60	1048573
2026-01-18 14:25:58.03	77.93	0.73	-83.5	-79.0	2.5	0.00e+00	0	47	104	0	60	1048569
2026-01-18 14:25:59.04	77.82	0.79	-83.5	-79.0	2.3	0.00e+00	0	47	104	0	60	1048574
2026-01-18 14:26:00.04	77.72	0.84	-83.5	-79.0	2.4	0.00e+00	0	47	104	0	60	1048570
2026-01-18 14:26:01.05	77.62	0.89	-83.1	-79.0	2.3	0.00e+00	0	47	104	0	60	1048575
2026-01-18 14:26:02.06	77.51	0.95	-83.1	-79.0	2.6	0.00e+00	0	47	104	0	60	1048575
2026-01-18 14:26:03.07	77.40	1.00	-83.5	-79.0	2.4	0.00e+00	0	47	104	0	60	1048575
2026-01-18 14:26:04.08	77.30	1.06	-83.5	-79.0	2.4	0.00e+00	0	47	104	0	60	1048575
2026-01-18 14:26:05.08	77.19	1.11	-83.1	-79.0	2.4	0.00e+00	0	47	104	0	60	1048575
2026-01-18 14:26:06.09	77.09	1.16	-83.1	-79.0	2.4	0.00e+00	0	47	104	0	60	1048574
2026-01-18 14:26:07.10	76.98	1.22	-83.5	-79.0	2.4	0.00e+00	0	47	104	0	60	1048574
2026-01-18 14:26:08.11	76.87	1.27	-83.5	-79.0	2.4	0.00e+00	0	47	104	0	60	1048570
2026-01-18 14:26:09.12	76.76	1.33	-83.5	-79.0	2.3	0.00e+00	0	47	104	0	60	1048571
2026-01-18 14:26:10.12	76.65	1.38	-83.1	-79.0	2.4	0.00e+00	0	47	104	0	60	1048571
2026-01-18 14:26:11.13	76.54	1.43	-83.5	-79.0	2.4	0.00e+00	0	47	104	0	60	1048573
2026-01-18 14:26:12.13	76.43	1.49	-83.5	-79.0	2.5	0.00e+00	0	47	104	0	60	1048573
2026-01-18 14:26:13.14	76.32	1.54	-83.5	-79.0	2.3	0.00e+00	0	47	104	0	60	1048570
2026-01-18 14:26:14.15	76.21	1.60	-83.5	-79.0	2.5	0.00e+00	0	47	104	0	60	1048572
2026-01-18 14:26:15.16	76.10	1.65	-82.8	-79.0	2.4	0.00e+00	0	47	104	0	60	1048574
2026-01-18 14:26:16.16	75.99	1.70	-83.5	-79.0	2.4	0.00e+00	0	47	104	0	60	1048575
2026-01-18 14:26:17.17	75.87	1.76	-83.5	-79.0	2.5	0.00e+00	0	47	104	0	60	1048562
2026-01-18 14:26:18.18	75.76	1.81	-83.5	-79.0	2.5	0.00e+00	0	47	104	0	60	1048572
2026-01-18 14:26:19.19	75.64	1.87	-83.5	-79.0	2.7	0.00e+00	0	47	104	0	60	1048574
2026-01-18 14:26:20.20	75.53	1.92	-83.1	-79.0	2.4	0.00e+00	0	47	104	0	60	1048575
2026-01-18 14:26:21.20	75.41	1.98	-83.5	-79.0	2.3	0.00e+00	0	47	104	0	60	1048574
2026-01-18 14:26:22.21	75.30	2.03	-83.5	-79.0	2.4	0.00e+00	0	47	104	0	60	1048574
2026-01-18 14:26:23.22	75.18	2.09	-83.5	-79.0	2.5	0.00e+00	0	47	104	0	60	1048575
2026-01-18 14:26:24.23	75.07	2.14	-83.1	-79.0	2.4	0.00e+00	0	47	104	0	60	1048575
2026-01-18 14:26:25.24	74.95	2.20	-83.1	-79.0	2.3	0.00e+00	0	47	104	0	60	1048572
2026-01-18 14:26:26.24	74.83	2.25	-83.5	-79.0	2.4	0.00e+00	0	47	104	0	60	1048572
2026-01-18 14:26:27.25	74.71	2.31	-83.5	-79.0	2.4	0.00e+00	0	47	104	0	60	1048574
2026-01-18 14:26:28.26	74.59	2.36	-83.5	-79.0	2.3	0.00e+00	0	47	104	0	60	1048574
2026-01-18 14:26:29.26	74.47	2.42	-82.8	-79.0	2.4	0.00e+00	0	47	104	0	60	1048570
2026-01-18 14:26:30.27	74.35	2.47	-83.1	-79.0	2.4	0.00e+00	0	48	104	0	60	1048567
2026-01-18 14:26:31.27	74.23	2.53	-83.1	-79.0	2.4	0.00e+00	0	48	104	0	60	1048567
2026-01-18 14:26:32.28	74.11	2.58	-83.5	-79.0	2.4	0.00e+00	0	48	104	0	60	1048567
2026-01-18 14:26:33.29	73.99	2.64	-83.5	-79.0	2.5	0.00e+00	0	48	104	0	60	1048575
2026-01-18 14:26:34.30	73.87	2.69	-83.1	-79.0	2.4	0.00e+00	0	48	104	0	60	1048574
2026-01-18 14:26:35.31	73.74	2.75	-83.1	-79.0	2.6	0.00e+00	0	48	104	0	60	1048572
2026-01-18 14:26:36.32	73.62	2.80	-83.5	-79.0	2.4	0.00e+00	0	48	104	0	60	1048574
2026-01-18 14:26:37.32	73.49	2.86	-83.5	-79.0	2.5	0.00e+00	0	48	104	0	60	1048569
2026-01-18 14:26:38.33	73.37	2.91	-83.1	-79.0	2.4	0.00e+00	0	48	104	0	60	1048575
2026-01-18 14:26:39.33	73.24	2.97	-83.1	-79.0	2.5	0.00e+00	0	48	104	0	60	1048574
2026-01-18 14:26:40.34	73.12	3.02	-83.5	-79.0	2.3	0.00e+00	0	48	104	0	60	1048573
2026-01-18 14:26:41.34	72.99	3.08	-83.5	-79.0	2.4	0.00e+00	0	48	104	0	60	1048573
2026-01-18 14:26:42.35	72.86	3.13	-83.5	-79.0	2.4	0.00e+00	0	48	104	0	60	1048574
2026-01-18 14:26:43.36	72.74	3.19	-83.1	-79.0	2.3	0.00e+00	0	48	104	0	60	1048569
2026-01-18 14:26:44.37	72.61	3.25	-83.1	-79.0	2.3	0.00e+00	0	48	104	0	60	1048568
2026-01-18 14:26:45.38	72.48	3.30	-83.5	-79.0	2.4	0.00e+00	0	48	104	0	60	1048575
2026-01-18 14:26:46.39	72.35	3.36	-83.5	-79.0	2.4	0.00e+00	0	48	104	0	60	1048573
2026-01-18 14:26:47.39	72.22	3.41	-83.5	-79.0	2.5	0.00e+00	0	48	104	0	60	1048571
2026-01-18 14:26:48.40	72.08	3.47	-83.1	-79.0	2.4	0.00e+00	0	48	104	0	60	1048573
2026-01-18 14:26:49.41	71.95	3.52	-83.1	-79.0	2.4	0.00e+00	0	48	104	0	60	1048571
2026-01-18 14:26:50.42	71.82	3.58	-83.1	-79.0	2.4	0.00e+00	0	48	104	0	60	1048571
2026-01-18 14:26:51.43	71.69	3.64	-83.5	-79.0	2.4	0.00e+00	0	48	104	0	60	1048574
2026-01-18 14:26:52.44	71.55	3.69	-83.5	-79.0	2.4	0.00e+00	0	48	104	0	60	1048575
2026-01-18 14:26:53.45	71.42	3.75	-83.1	-79.0	2.5	0.00e+00	0	48	104	0	60	1048573
2026-01-18 14:26:54.45	71.28	3.80	-83.5	-79.0	2.4	0.00e+00	0	48	104	0	60	1048573
2026-01-18 14:26:55.46	71.15	3.86	-83.5	-79.0	2.7	0.00e+00	0	48	104	0	60	1048575
2026-01-18 14:26:56.47	71.01	3.92	-83.5	-79.0	2.4	0.00e+00	0	48	104	0	60	1048575
2026-01-18 14:26:57.48	70.87	3.97	-83.1	-79.0	2.4	0.00e+00	0	48	104	0	60	1048573
2026-01-18 14:26:58.48	70.73	4.03	-83.1	-79.0	2.5	0.00e+00	0	48	104	0	60	1048575
2026-01-18 14:26:59.49	70.59	4.08	-83.5	-79.0	2.4	0.00e+00	0	48	104	0	60	1048574
2026-01-18 14:27:00.50	70.46	4.14	-83.5	-79.0	2.5	0.00e+00	0	48	104	0	60	1048575
2026-01-18 14:27:01.49	70.32	4.20	-83.5	-79.0	2.4	0.00e+00	0	48	104	0	60	1048567
2026-01-18 14:27:02.50	70.18	4.25	-82.8	-79.0	2.5	0.00e+00	0	48	104	0	60	1048575
2026-01-18 14:27:03.51	70.03	4.31	-83.5	-79.0	2.4	0.00e+00	0	48	104	0	60	1048573
2026-01-18 14:27:04.52	69.89	4.36	-83.1	-79.0	2.4	0.00e+00	0	48	104	0	60	1048572
2026-01-18 14:27:05.52	69.75	4.42	-83.5	-79.0	2.5	0.00e+00	0	48	104	0	60	1048572
2026-01-18 14:27:06.53	69.61	4.48	-83.5	-79.0	2.4	0.00e+00	0	48	104	0	60	1048571
2026-01-18 14:27:07.54	69.46	4.53	-83.1	-79.0	2.4	0.00e+00	0	48	104	0	60	1048566
2026-01-18 14:27:08.55	69.32	4.59	-83.1	-79.0	2.6	0.00e+00	0	48	104	0	60	1048574
2026-01-18 14:27:09.56	69.17	4.65	-83.1	-79.0	2.3	0.00e+00	0	48	104	0	60	1048564
2026-01-18 14:27:10.56	69.02	4.70	-83.5	-79.0	2.4	0.00e+00	0	48	104	0	60	1048575
2026-01-18 14:27:11.57	68.88	4.76	-83.1	-79.0	2.5	0.00e+00	0	48	104	0	60	1048562
2026-01-18 14:27:12.58	68.73	4.81	-83.1	-79.0	2.5	0.00e+00	0	48	104	0	60	1048575
2026-01-18 14:27:13.59	68.58	4.87	-83.5	-79.0	2.4	0.00e+00	0	48	104	0	60	1048568
2026-01-18 14:27:14.59	68.43	4.93	-83.5	-79.0	2.5	0.00e+00	0	48	104	0	60	1048575
2026-01-18 14:27:15.60	68.28	4.98	-83.1	-79.0	2.4	0.00e+00	0	48	104	0	60	1048569
2026-01-18 14:27:16.61	68.13	5.04	-83.1	-79.0	2.5	0.00e+00	0	48	104	0	60	1048575
2026-01-18 14:27:17.61	67.98	5.10	-83.1	-79.0	2.4	0.00e+00	0	48	104	0	60	1048575
2026-01-18 14:27:18.62	67.83	5.15	-83.5	-79.0	2.4	0.00e+00	0	48	104	0	60	1048571
2026-01-18 14:27:19.63	67.67	5.21	-83.5	-79.0	2.4	0.00e+00	0	48	104	0	60	1048575
2026-01-18 14:27:20.63	67.52	5.26	-83.5	-79.0	2.5	0.00e+00	0	48	104	0	60	1048574
2026-01-18 14:27:21.64	67.37	5.32	-83.1	-79.0	2.4	0.00e+00	0	48	104	0	60	1048575
2026-01-18 14:27:22.65	67.21	5.38	-83.1	-79.0	2.3	0.00e+00	0	48	104	0	60	1048573
2026-01-18 14:27:23.66	67.05	5.43	-83.5	-79.0	2.5	0.00e+00	0	48	104	0	60	1048573
2026-01-18 14:27:24.67	66.90	5.49	-83.5	-79.0	2.4	0.00e+00	0	48	104	0	60	1048575
2026-01-18 14:27:25.68	66.74	5.55	-83.5	-79.0	2.6	0.00e+00	0	48	104	0	60	1048575
2026-01-18 14:27:26.68	66.58	5.60	-83.1	-79.0	2.3	0.00e+00	0	48	104	0	60	1048571
2026-01-18 14:27:27.69	66.42	5.66	-83.5	-79.0	2.5	0.00e+00	0	48	104	0	60	1048570
2026-01-18 14:27:28.70	66.26	5.71	-83.1	-79.0	2.4	0.00e+00	0	48	104	0	60	1048575
2026-01-18 14:27:29.71	66.10	5.77	-83.5	-79.0	2.4	0.00e+00	0	48	104	0	60	1048575
2026-01-18 14:27:30.71	65.94	5.83	-83.1	-79.0	2.4	0.00e+00	0	48	104	0	60	1048571
2026-01-18 14:27:31.72	65.78	5.88	-83.5	-79.0	2.5	0.00e+00	0	48	104	0	60	1048572
2026-01-18 14:27:32.73	65.61	5.94	-83.5	-79.0	2.3	0.00e+00	0	48	104	0	60	1048569
2026-01-18 14:27:33.73	65.45	5.99	-83.5	-79.0	2.5	0.00e+00	0	48	104	0	60	1048575
2026-01-18 14:27:34.74	65.29	6.05	-83.5	-79.0	2.4	0.00e+00	0	48	104	0	60	1048575
2026-01-18 14:27:35.75	65.12	6.11	-82.8	-79.0	2.4	0.00e+00	0	48	104	0	60	1048575
2026-01-18 14:27:36.76	64.95	6.16	-82.8	-79.0	2.4	0.00e+00	0	48	104	0	60	1048575
2026-01-18 14:27:37.76	64.79	6.22	-83.5	-79.0	2.4	0.00e+00	0	48	104	0	60	1048575
2026-01-18 14:27:38.77	64.62	6.28	-83.5	-79.0	2.5	0.00e+00	0	48	104	0	60	1048575
2026-01-18 14:27:39.78	64.45	6.33	-83.5	-79.0	2.4	0.00e+00	0	48	104	0	60	1048575
2026-01-18 14:27:40.78	64.28	6.39	-83.1	-79.0	2.4	0.00e+00	0	48	104	0	60	1048574
2026-01-18 14:27:41.79	64.11	6.44	-83.5	-79.0	2.5	0.00e+00	0	48	104	0	60	1048574
2026-01-18 14:27:42.80	63.94	6.50	-83.1	-79.0	2.3	0.00e+00	0	48	104	0	60	1048574
2026-01-18 14:27:43.80	63.77	6.55	-83.5	-79.0	2.4	0.00e+00	0	48	104	0	60	1048575
2026-01-18 14:27:44.81	63.59	6.61	-83.1	-79.0	2.4	0.00e+00	0	48	104	0	60	1048575
2026-01-18 14:27:45.82	63.42	6.67	-83.1	-79.0	2.3	0.00e+00	0	48	104	0	60	1048570
2026-01-18 14:27:46.83	63.24	6.72	-83.1	-79.0	2.5	0.00e+00	0	48	104	0	60	1048574
2026-01-18 14:27:47.83	63.07	6.78	-83.1	-79.0	2.4	0.00e+00	0	48	104	0	60	1048572
2026-01-18 14:27:48.84	62.89	6.83	-83.5	-79.0	2.5	0.00e+00	0	48	104	0	60	1048575
2026-01-18 14:27:49.84	62.72	6.89	-83.1	-79.0	2.4	0.00e+00	0	48	104	0	60	1048568
2026-01-18 14:27:50.85	62.54	6.94	-83.5	-79.0	2.4	0.00e+00	0	48	104	0	60	1048563
2026-01-18 14:27:51.85	62.36	7.00	-83.5	-79.0	2.4	0.00e+00	0	48	104	0	60	1048573
2026-01-18 14:27:52.86	62.18	7.05	-83.5	-79.0	2.4	0.00e+00	0	48	104	0	60	1048572
2026-01-18 14:27:53.87	62.00	7.11	-83.5	-79.0	2.3	0.00e+00	0	48	104	0	60	1048574
2026-01-18 14:27:54.87	61.82	7.16	-82.8	-79.0	2.5	0.00e+00	0	49	104	0	60	1048575
2026-01-18 14:27:55.88	61.64	7.22	-83.1	-79.0	2.3	0.00e+00	0	49	104	0	60	1048575
2026-01-18 14:27:56.89	61.45	7.27	-83.5	-79.0	2.3	0.00e+00	0	49	104	0	60	1048575
2026-01-18 14:27:57.90	61.27	7.33	-83.5	-79.0	2.4	0.00e+00	0	48	104	0	60	1048568
2026-01-18 14:27:58.91	61.08	7.38	-83.5	-79.0	2.5	0.00e+00	0	48	104	0	60	1048573
2026-01-18 14:27:59.92	60.90	7.44	-83.1	-79.0	2.5	0.00e+00	0	49	104	0	60	1048572
2026-01-18 14:28:00.92	60.71	7.49	-83.5	-79.0	2.4	0.00e+00	0	49	104	0	60	1048575
2026-01-18 14:28:01.93	60.52	7.55	-83.1	-79.0	2.5	0.00e+00	0	49	104	0	60	1048572
2026-01-18 14:28:02.94	60.33	7.60	-83.5	-79.0	2.4	0.00e+00	0	48	104	0	60	1048560
2026-01-18 14:28:03.94	60.15	7.66	-83.5	-79.0	2.3	0.00e+00	0	49	104	0	60	1048573
2026-01-18 14:28:04.95	59.95	7.71	-83.1	-79.0	2.4	0.00e+00	0	49	104	0	60	1048570
2026-01-18 14:28:05.95	59.77	7.76	-83.1	-79.0	2.4	0.00e+00	0	49	104	0	60	1048575
2026-01-18 14:28:06.96	59.57	7.82	-83.5	-79.0	2.4	0.00e+00	0	48	104	0	60	1048572
2026-01-18 14:28:07.96	59.38	7.87	-83.5	-79.0	2.2	0.00e+00	0	49	104	0	60	1048573
2026-01-18 14:28:08.97	59.19	7.93	-83.1	-79.0	2.4	0.00e+00	0	49	104	0	60	1048573
2026-01-18 14:28:09.98	58.99	7.98	-83.1	-79.0	2.5	0.00e+00	0	49	104	0	60	1048575
2026-01-18 14:28:10.99	58.80	8.03	-83.5	-79.0	2.4	0.00e+00	0	49	104	0	60	1048573
2026-01-18 14:28:11.99	58.60	8.09	-83.5	-79.0	2.4	0.00e+00	0	49	104	0	60	1048574
2026-01-18 14:28:13.00	58.40	8.14	-83.1	-79.0	2.4	0.00e+00	0	49	104	0	60	1048575
2026-01-18 14:28:14.00	58.21	8.19	-83.1	-79.0	2.4	0.00e+00	0	49	104	0	60	1048575
2026-01-18 14:28:15.01	58.01	8.25	-83.1	-79.0	2.5	0.00e+00	0	48	104	0	60	1048575
2026-01-18 14:28:16.02	57.80	8.30	-83.1	-79.0	2.4	0.00e+00	0	49	104	0	60	1048575
2026-01-18 14:28:17.02	57.61	8.35	-83.5	-79.0	2.5	0.00e+00	0	49	104	0	60	1048575
2026-01-18 14:28:18.03	57.40	8.40	-83.1	-79.0	2.4	0.00e+00	0	49	104	0	60	1048575
2026-01-18 14:28:19.04	57.20	8.46	-83.1	-79.0	2.4	0.00e+00	0	49	104	0	60	1048570
2026-01-18 14:28:20.05	56.99	8.51	-83.5	-79.0	2.4	0.00e+00	0	49	104	0	60	1048573
2026-01-18 14:28:21.05	56.79	8.56	-83.5	-79.0	2.2	0.00e+00	0	49	104	0	60	1048569
2026-01-18 14:28:22.06	56.59	8.61	-83.5	-79.0	2.4	0.00e+00	0	49	104	0	60	1048571
2026-01-18 14:28:23.07	56.38	8.67	-83.1	-79.0	2.4	0.00e+00	0	49	104	0	60	1048575
2026-01-18 14:28:24.08	56.17	8.72	-83.5	-79.0	2.5	0.00e+00	0	49	104	0	60	1048574
2026-01-18 14:28:25.08	55.96	8.77	-83.5	-79.0	2.4	0.00e+00	0	49	104	0	60	1048574
2026-01-18 14:28:26.09	55.75	8.82	-83.5	-79.0	2.4	0.00e+00	0	49	104	0	60	1048573
2026-01-18 14:28:27.10	55.54	8.87	-83.5	-79.0	2.4	0.00e+00	0	49	104	0	60	1048575
2026-01-18 14:28:28.11	55.33	8.92	-83.1	-79.0	2.4	0.00e+00	0	49	104	0	60	1048575
2026-01-18 14:28:29.12	55.12	8.98	-83.5	-79.0	2.4	0.00e+00	0	49	104	0	60	1048571
2026-01-18 14:28:30.12	54.91	9.03	-83.5	-79.0	2.3	0.00e+00	0	49	104	0	60	1048575
2026-01-18 14:28:31.13	54.69	9.08	-83.5	-79.0	2.4	0.00e+00	0	49	104	0	60	1048574
2026-01-18 14:28:32.14	54.48	9.13	-83.5	-79.0	2.5	0.00e+00	0	49	104	0	60	1048569
2026-01-18 14:28:33.15	54.26	9.18	-82.8	-79.0	2.3	0.00e+00	0	49	104	0	60	1048570
2026-01-18 14:28:34.15	54.05	9.23	-83.1	-79.0	2.4	0.00e+00	0	49	104	0	60	1048574
2026-01-18 14:28:35.16	53.83	9.28	-83.1	-79.0	2.4	0.00e+00	0	49	104	0	60	1048575
2026-01-18 14:28:36.17	53.61	9.33	-83.5	-79.0	2.4	0.00e+00	0	49	104	0	60	1048574
2026-01-18 14:28:37.18	53.39	9.38	-83.5	-79.0	2.5	0.00e+00	0	49	104	0	60	1048571
2026-01-18 14:28:38.19	53.17	9.43	-83.1	-79.0	2.4	0.00e+00	0	49	104	0	60	1048574
2026-01-18 14:28:39.20	52.95	9.48	-83.5	-79.0	2.5	0.00e+00	0	49	104	0	60	1048574
2026-01-18 14:28:40.20	52.72	9.52	-83.5	-79.0	2.4	0.00e+00	0	49	104	0	60	1048573
2026-01-18 14:28:41.21	52.50	9.57	-83.5	-79.0	2.4	0.00e+00	0	49	104	0	60	1048574
2026-01-18 14:28:42.22	52.28	9.62	-82.8	-79.0	2.4	0.00e+00	0	49	104	0	60	1048572
2026-01-18 14:28:43.23	52.05	9.67	-83.1	-79.0	2.5	0.00e+00	0	49	104	0	60	1048572
2026-01-18 14:28:44.23	51.83	9.72	-83.5	-79.0	2.3	0.00e+00	0	49	104	0	60	1048574
2026-01-18 14:28:45.24	51.60	9.76	-83.5	-79.0	2.4	0.00e+00	0	49	104	0	60	1048575
2026-01-18 14:28:46.25	51.37	9.81	-83.5	-79.0	2.4	0.00e+00	0	49	104	0	60	1048574
2026-01-18 14:28:47.26	51.14	9.86	-83.1	-79.0	2.5	0.00e+00	0	49	104	0	60	1048571
2026-01-18 14:28:48.27	50.91	9.91	-83.1	-79.0	2.5	0.00e+00	0	49	104	0	60	1048575
2026-01-18 14:28:49.27	50.68	9.95	-83.1	-79.0	2.6	0.00e+00	0	49	104	0	60	1048569
2026-01-18 14:28:50.28	50.45	10.00	-83.5	-79.0	2.4	0.00e+00	0	49	104	0	60	1048575
2026-01-18 14:28:51.28	50.22	10.04	-83.5	-79.0	2.4	0.00e+00	0	49	104	0	60	1048575
2026-01-18 14:28:52.29	49.99	10.09	-83.1	-79.0	2.4	0.00e+00	0	49	104	0	60	1048574
2026-01-18 14:28:53.30	49.75	10.14	-83.1	-79.0	2.4	0.00e+00	0	49	104	0	60	1048573
2026-01-18 14:28:54.30	49.52	10.18	-83.5	-79.0	2.4	0.00e+00	0	49	104	0	60	1048572
2026-01-18 14:28:55.30	49.28	10.23	-83.5	-79.0	2.5	0.00e+00	0	49	104	0	60	1048567
2026-01-18 14:28:56.31	49.05	10.27	-83.1	-79.0	2.4	0.00e+00	0	49	104	0	60	1048575
2026-01-18 14:28:57.32	48.81	10.31	-83.1	-79.0	2.4	0.00e+00	0	49	104	0	60	1048575
2026-01-18 14:28:58.32	48.57	10.36	-83.5	-79.0	2.4	0.00e+00	0	49	104	0	60	1048575
2026-01-18 14:28:59.33	48.33	10.40	-83.5	-79.0	2.4	0.00e+00	0	49	104	0	60	1048574
2026-01-18 14:29:00.34	48.09	10.45	-83.5	-79.0	2.4	0.00e+00	0	49	104	0	60	1048571
2026-01-18 14:29:01.34	47.85	10.49	-83.1	-79.0	2.4	0.00e+00	0	49	104	0	60	1048575
2026-01-18 14:29:02.35	47.61	10.53	-83.5	-79.0	2.5	0.00e+00	0	49	104	0	60	1048575
2026-01-18 14:29:03.35	47.37	10.57	-83.5	-79.0	2.4	0.00e+00	0	49	104	0	60	1048574
2026-01-18 14:29:04.36	47.12	10.62	-83.5	-79.0	2.4	0.00e+00	0	49	104	0	60	1048575
2026-01-18 14:29:05.36	46.88	10.66	-83.5	-79.0	2.3	0.00e+00	0	49	104	0	60	1048570
2026-01-18 14:29:06.37	46.64	10.70	-83.1	-79.0	2.2	0.00e+00	0	49	104	0	60	1048574
2026-01-18 14:29:07.38	46.39	10.74	-83.1	-79.0	2.3	0.00e+00	0	49	104	0	60	1048572
2026-01-18 14:29:08.39	46.14	10.78	-83.5	-79.0	2.4	0.00e+00	0	49	104	0	60	1048575
2026-01-18 14:29:09.40	45.89	10.82	-83.1	-79.0	2.3	0.00e+00	0	49	104	0	60	1048574
2026-01-18 14:29:10.40	45.65	10.86	-83.1	-79.0	2.5	0.00e+00	0	49	104	0	60	1048575
2026-01-18 14:29:11.41	45.39	10.90	-83.1	-79.0	2.3	0.00e+00	0	49	104	0	60	1048572
2026-01-18 14:29:12.42	45.14	10.94	-83.5	-79.0	2.4	0.00e+00	0	49	104	0	60	1048570
2026-01-18 14:29:13.43	44.89	10.98	-83.5	-79.0	2.3	0.00e+00	0	49	104	0	60	1048574
2026-01-18 14:29:14.43	44.64	11.02	-83.5	-79.0	2.4	0.00e+00	0	49	104	0	60	1048573
2026-01-18 14:29:15.44	44.39	11.06	-82.8	-79.0	2.4	0.00e+00	0	49	104	0	60	1048574
2026-01-18 14:29:16.45	44.13	11.09	-82.8	-79.0	2.4	0.00e+00	0	49	104	0	60	1048574
2026-01-18 14:29:17.45	43.88	11.13	-83.5	-79.0	2.4	0.00e+00	0	49	104	0	60	1048575
2026-01-18 14:29:18.46	43.63	11.17	-83.5	-79.0	2.5	0.00e+00	0	49	104	0	60	1048575
2026-01-18 14:29:19.47	43.37	11.21	-83.5	-79.0	2.4	0.00e+00	0	49	104	0	60	1048575
2026-01-18 14:29:20.48	43.11	11.24	-83.1	-79.0	2.5	0.00e+00	0	49	104	0	60	1048571
2026-01-18 14:29:21.48	42.86	11.28	-83.1	-79.0	2.7	0.00e+00	0	49	104	0	60	1048571
2026-01-18 14:29:22.49	42.60	11.31	-83.5	-79.0	2.4	0.00e+00	0	49	104	0	60	1048575
2026-01-18 14:29:23.50	42.34	11.35	-83.5	-79.0	2.5	0.00e+00	0	49	104	0	60	1048572
2026-01-18 14:29:24.51	42.08	11.38	-83.5	-79.0	2.3	0.00e+00	0	49	104	0	60	1048574
2026-01-18 14:29:25.51	41.82	11.42	-83.1	-79.0	2.5	0.00e+00	0	49	104	0	60	1048563
2026-01-18 14:29:26.52	41.56	11.45	-83.5	-79.0	2.4	0.00e+00	0	49	104	0	60	1048575
2026-01-18 14:29:27.53	41.29	11.48	-83.5	-79.0	2.5	0.00e+00	0	49	104	0	60	1048575
2026-01-18 14:29:28.54	41.03	11.52	-83.5	-79.0	2.4	0.00e+00	0	49	104	0	60	1048570
2026-01-18 14:29:29.54	40.77	11.55	-83.1	-79.0	2.4	0.00e+00	0	49	104	0	60	1048574
2026-01-18 14:29:30.55	40.50	11.58	-83.1	-79.0	2.3	0.00e+00	0	49	104	0	60	1048571
2026-01-18 14:29:31.54	40.24	11.61	-83.5	-79.0	2.5	0.00e+00	0	49	104	0	60	1048575
2026-01-18 14:29:32.55	39.98	11.64	-83.5	-79.0	2.3	0.00e+00	0	49	104	0	60	1048573
2026-01-18 14:29:33.56	39.71	11.67	-83.5	-79.0	2.3	0.00e+00	0	49	104	0	60	1048575
2026-01-18 14:29:34.56	39.45	11.70	-83.5	-79.0	2.4	0.00e+00	0	49	104	0	60	1048574
2026-01-18 14:29:35.57	39.18	11.73	-83.1	-79.0	2.4	0.00e+00	0	49	104	0	60	1048575
2026-01-18 14:29:36.58	38.91	11.76	-83.5	-79.0	2.4	0.00e+00	0	49	104	0	60	1048575
2026-01-18 14:29:37.59	38.64	11.79	-83.5	-79.0	2.4	0.00e+00	0	49	104	0	60	1048567
2026-01-18 14:29:38.60	38.37	11.82	-83.5	-79.0	2.4	0.00e+00	0	49	104	0	60	1048573
2026-01-18 14:29:39.60	38.10	11.85	-82.8	-79.0	2.5	0.00e+00	0	49	104	0	60	1048573
2026-01-18 14:29:40.61	37.83	11.87	-83.5	-79.0	2.3	0.00e+00	0	49	104	0	60	1048572
2026-01-18 14:29:41.62	37.56	11.90	-83.5	-79.0	2.4	0.00e+00	0	49	104	0	60	1048575
2026-01-18 14:29:42.63	37.28	11.93	-83.5	-79.0	2.5	0.00e+00	0	49	104	0	60	1048572
2026-01-18 14:29:43.64	37.01	11.95	-83.5	-79.0	2.3	0.00e+00	0	49	104	0	60	1048575
2026-01-18 14:29:44.64	36.74	11.98	-83.1	-79.0	2.4	0.00e+00	0	49	104	0	60	1048561
2026-01-18 14:29:45.65	36.47	12.00	-83.1	-79.0	2.5	0.00e+00	0	49	104	0	60	1048574
2026-01-18 14:29:46.66	36.19	12.03	-83.5	-79.0	2.4	0.00e+00	0	49	104	0	60	1048574
2026-01-18 14:29:47.66	35.92	12.05	-83.5	-79.0	2.5	0.00e+00	0	49	104	0	60	1048573
2026-01-18 14:29:48.67	35.64	12.07	-83.1	-79.0	2.3	0.00e+00	0	49	104	0	60	1048573
2026-01-18 14:29:49.68	35.37	12.10	-82.8	-79.0	2.5	0.00e+00	0	49	104	0	60	1048575
2026-01-18 14:29:50.69	35.09	12.12	-83.5	-79.0	2.5	0.00e+00	0	49	104	0	60	1048572
2026-01-18 14:29:51.69	34.81	12.14	-83.5	-79.0	2.4	0.00e+00	0	49	104	0	60	1048575
2026-01-18 14:29:52.70	34.54	12.16	-83.5	-79.0	2.4	0.00e+00	0	49	104	0	60	1048566
2026-01-18 14:29:53.71	34.26	12.18	-83.1	-79.0	2.5	0.00e+00	0	49	104	0	60	1048573
2026-01-18 14:29:54.71	33.98	12.20	-83.1	-79.0	2.4	0.00e+00	0	49	104	0	60	1048574
2026-01-18 14:29:55.71	33.71	12.22	-83.1	-79.0	2.4	0.00e+00	0	49	104	0	60	1048574
2026-01-18 14:29:56.72	33.43	12.24	-83.5	-79.0	2.5	0.00e+00	0	49	104	0	60	1048575
2026-01-18 14:29:57.73	33.15	12.26	-83.5	-79.0	2.5	0.00e+00	0	49	104	0	60	1048575
2026-01-18 14:29:58.73	32.87	12.27	-83.1	-79.0	2.4	0.00e+00	0	49	104	0	60	1048573
2026-01-18 14:29:59.73	32.59	12.29	-83.5	-79.0	2.3	0.00e+00	0	49	104	0	60	1048575
2026-01-18 14:30:00.74	32.31	12.31	-83.5	-79.0	2.4	0.00e+00	0	49	104	0	60	1048575
2026-01-18 14:30:01.74	32.03	12.32	-83.5	-79.0	2.4	0.00e+00	0	49	104	0	60	1048575
2026-01-18 14:30:02.75	31.75	12.34	-83.1	-79.0	2.4	0.00e+00	0	49	104	0	60	1048572
2026-01-18 14:30:03.75	31.47	12.35	-83.1	-79.0	2.5	0.00e+00	0	49	104	0	60	1048575
2026-01-18 14:30:04.75	31.19	12.37	-83.5	-79.0	2.4	0.00e+00	0	49	104	0	60	1048573
2026-01-18 14:30:05.76	30.91	12.38	-83.5	-79.0	2.4	0.00e+00	0	49	104	0	60	1048575
2026-01-18 14:30:06.77	30.62	12.39	-83.5	-79.0	2.4	0.00e+00	0	49	104	0	60	1048575
2026-01-18 14:30:07.77	30.34	12.41	-83.1	-79.0	2.4	0.00e+00	0	49	104	0	60	1048575
2026-01-18 14:30:08.78	30.06	12.42	-82.8	-79.0	2.4	0.00e+00	0	49	104	0	60	1048575
2026-01-18 14:30:09.79	29.77	12.43	-83.5	-79.0	2.4	0.00e+00	0	49	104	0	60	1048575
2026-01-18 14:30:10.80	29.49	12.44	-83.5	-79.0	2.3	0.00e+00	0	49	104	0	60	1048574
2026-01-18 14:30:11.81	29.20	12.45	-83.5	-79.0	2.4	0.00e+00	0	49	104	0	60	1048575
2026-01-18 14:30:12.81	28.92	12.46	-83.1	-79.0	2.4	0.00e+00	0	49	104	0	60	1048574
2026-01-18 14:30:13.82	28.64	12.47	-83.5	-79.0	2.5	0.00e+00	0	49	104	0	60	1048571
2026-01-18 14:30:14.83	28.35	12.48	-83.1	-79.0	2.4	0.00e+00	0	49	104	0	60	1048569
2026-01-18 14:30:15.83	28.07	12.49	-83.1	-79.0	2.4	0.00e+00	0	49	104	0	60	1048572
2026-01-18 14:30:16.84	27.78	12.49	-83.5	-79.0	2.5	0.00e+00	0	49	104	0	60	1048575
2026-01-18 14:30:17.85	27.50	12.50	-83.1	-79.0	2.5	0.00e+00	0	49	104	0	60	1048575
2026-01-18 14:30:18.85	27.21	12.51	-83.5	-79.0	2.5	0.00e+00	0	49	104	0	60	1048572
2026-01-18 14:30:19.86	26.93	12.51	-83.5	-79.0	2.4	0.00e+00	0	49	104	0	60	1048574
2026-01-18 14:30:20.86	26.64	12.52	-83.5	-79.0	2.4	0.00e+00	0	49	104	0	60	1048572
2026-01-18 14:30:21.87	26.36	12.52	-83.1	-79.0	2.3	0.00e+00	0	49	104	0	60	1048575
2026-01-18 14:30:22.87	26.07	12.52	-83.1	-79.0	2.4	0.00e+00	0	49	104	0	60	1048573
2026-01-18 14:30:23.88	25.79	12.53	-83.5	-79.0	2.5	0.00e+00	0	49	104	0	60	1048575
2026-01-18 14:30:24.88	25.50	12.53	-83.5	-79.0	2.4	0.00e+00	0	49	104	0	60	1048573
2026-01-18 14:30:25.89	25.22	12.53	-83.5	-79.0	2.3	0.00e+00	0	49	104	0	60	1048572
2026-01-18 14:30:26.90	24.93	12.53	-83.1	-79.0	2.4	0.00e+00	0	49	104	0	60	1048567
2026-01-18 14:30:27.91	24.64	12.53	-83.1	-79.0	2.4	0.00e+00	0	49	104	0	60	1048572
2026-01-18 14:30:28.92	24.36	12.53	-83.1	-79.0	2.3	0.00e+00	0	49	104	0	60	1048575
2026-01-18 14:30:29.92	24.07	12.53	-83.5	-79.0	2.4	0.00e+00	0	49	104	0	60	1048575
2026-01-18 14:30:30.93	23.79	12.53	-83.5	-79.0	2.3	0.00e+00	0	49	104	0	60	1048572
2026-01-18 14:30:31.93	23.50	12.53	-83.1	-79.0	2.4	0.00e+00	0	49	104	0	60	1048568
2026-01-18 14:30:32.93	23.22	12.53	-83.5	-79.0	2.4	0.00e+00	0	49	104	0	60	1048570
2026-01-18 14:30:33.95	22.93	12.53	-83.5	-79.0	2.4	0.00e+00	0	49	104	0	60	1048575
2026-01-18 14:30:34.94	22.65	12.52	-83.5	-79.0	2.4	0.00e+00	0	49	104	0	60	1048575
2026-01-18 14:30:35.95	22.36	12.52	-83.1	-79.0	2.5	0.00e+00	0	49	104	0	60	1048575
2026-01-18 14:30:36.96	22.08	12.51	-83.1	-79.0	2.4	0.00e+00	0	49	104	0	60	1048553
2026-01-18 14:30:37.96	21.79	12.51	-83.1	-79.0	2.4	0.00e+00	0	49	104	0	60	1048567
2026-01-18 14:30:38.97	21.51	12.50	-83.5	-79.0	2.5	0.00e+00	0	49	104	0	60	1048574
2026-01-18 14:30:39.98	21.22	12.50	-83.5	-79.0	2.5	0.00e+00	0	49	104	0	60	1048575
2026-01-18 14:30:40.99	20.94	12.49	-83.5	-79.0	2.3	0.00e+00	0	49	104	0	60	1048575
2026-01-18 14:30:42.00	20.65	12.48	-83.5	-79.0	2.5	0.00e+00	0	49	104	0	60	1048572
2026-01-18 14:30:43.00	20.37	12.47	-83.5	-79.0	2.4	0.00e+00	0	49	104	0	60	1048574
2026-01-18 14:30:44.01	20.08	12.46	-83.5	-79.0	2.5	0.00e+00	0	49	104	0	60	1048573
2026-01-18 14:30:45.02	19.80	12.45	-83.5	-79.0	2.5	0.00e+00	0	49	104	0	60	1048573
2026-01-18 14:30:46.03	19.51	12.44	-82.8	-79.0	2.5	0.00e+00	0	49	104	0	60	1048575
2026-01-18 14:30:47.04	19.23	12.43	-83.5	-79.0	2.4	0.00e+00	0	49	104	0	60	1048574
2026-01-18 14:30:48.04	18.95	12.42	-83.1	-79.0	2.4	0.00e+00	0	49	104	0	60	1048572
2026-01-18 14:30:49.05	18.66	12.41	-83.1	-79.0	2.4	0.00e+00	0	49	104	0	60	1048570
2026-01-18 14:30:50.06	18.38	12.40	-83.5	-79.0	2.4	0.00e+00	0	49	104	0	60	1048573
2026-01-18 14:30:51.07	18.10	12.39	-83.1	-79.0	2.5	0.00e+00	0	49	104	0	60	1048575
2026-01-18 14:30:52.08	17.81	12.37	-83.5	-79.0	2.5	0.00e+00	0	49	104	0	60	1048571
2026-01-18 14:30:53.08	17.53	12.36	-83.5	-79.0	2.5	0.00e+00	0	49	104	0	60	1048564
2026-01-18 14:30:54.09	17.25	12.34	-83.5	-79.0	2.5	0.00e+00	0	49	104	0	60	1048572
2026-01-18 14:30:55.10	16.97	12.33	-83.5	-79.0	2.3	0.00e+00	0	49	104	0	60	1048574
2026-01-18 14:30:56.10	16.69	12.31	-82.8	-79.0	2.4	0.00e+00	0	49	104	0	60	1048574
2026-01-18 14:30:57.11	16.41	12.30	-83.5	-79.0	2.3	0.00e+00	0	49	104	0	60	1048575
2026-01-18 14:30:58.12	16.13	12.28	-83.5	-79.0	2.4	0.00e+00	0	49	104	0	60	1048571
2026-01-18 14:30:59.13	15.85	12.26	-83.5	-79.0	2.4	0.00e+00	0	49	104	0	60	1048575
2026-01-18 14:31:00.13	15.57	12.24	-83.1	-79.0	2.3	0.00e+00	0	49	104	0	60	1048572
2026-01-18 14:31:01.14	15.29	12.22	-83.1	-79.0	2.4	0.00e+00	0	49	104	0	60	1048575
2026-01-18 14:31:02.15	15.01	12.20	-83.5	-79.0	2.7	0.00e+00	0	49	104	0	60	1048570
2026-01-18 14:31:03.16	14.73	12.19	-83.5	-79.0	2.3	0.00e+00	0	49	104	0	60	1048575
2026-01-18 14:31:04.16	14.46	12.16	-83.5	-79.0	2.5	0.00e+00	0	49	104	0	60	1048573
2026-01-18 14:31:05.17	14.18	12.14	-83.1	-79.0	2.4	0.00e+00	0	49	104	0	60	1048571
2026-01-18 14:31:06.18	13.90	12.12	-83.5	-79.0	2.4	0.00e+00	0	49	104	0	60	1048575
2026-01-18 14:31:07.18	13.63	12.10	-83.1	-79.0	2.5	0.00e+00	0	49	104	0	60	1048575
2026-01-18 14:31:08.19	13.35	12.08	-83.5	-79.0	2.5	0.00e+00	0	49	104	0	60	1048571
2026-01-18 14:31:09.20	13.08	12.06	-83.1	-79.0	2.5	0.00e+00	0	49	104	0	60	1048570
2026-01-18 14:31:10.20	12.81	12.03	-83.1	-79.0	2.3	0.00e+00	0	49	104	0	60	1048575
2026-01-18 14:31:11.21	12.53	12.01	-83.5	-79.0	2.5	0.00e+00	0	49	104	0	60	1048575
2026-01-18 14:31:12.22	12.26	11.98	-83.5	-79.0	2.3	0.00e+00	0	49	104	0	60	1048575
2026-01-18 14:31:13.23	11.98	11.96	-83.5	-79.0	2.5	0.00e+00	0	49	104	0	60	1048574
2026-01-18 14:31:14.24	11.71	11.93	-83.1	-79.0	2.3	0.00e+00	0	49	104	0	60	1048568
2026-01-18 14:31:15.24	11.44	11.91	-83.1	-79.0	2.4	0.00e+00	0	49	104	0	60	1048575
2026-01-18 14:31:16.25	11.17	11.88	-83.5	-79.0	2.4	0.00e+00	0	49	104	0	60	1048575
2026-01-18 14:31:17.26	10.90	11.85	-83.5	-79.0	2.3	0.00e+00	0	49	104	0	60	1048572
2026-01-18 14:31:18.27	10.63	11.83	-83.5	-79.0	2.5	0.00e+00	0	49	104	0	60	1048574
2026-01-18 14:31:19.28	10.36	11.80	-83.1	-79.0	2.3	0.00e+00	0	49	104	0	60	1048569
2026-01-18 14:31:20.28	10.09	11.77	-83.1	-79.0	2.3	0.00e+00	0	49	104	0	60	1048574
2026-01-18 14:31:21.29	9.82	11.74	-83.5	-79.0	2.5	0.00e+00	0	49	104	0	60	1048575
2026-01-18 14:31:22.30	9.55	11.71	-83.1	-79.0	2.4	0.00e+00	0	49	104	0	60	1048574
2026-01-18 14:31:23.30	9.29	11.68	-83.5	-79.0	2.4	0.00e+00	0	49	104	0	60	1048575
2026-01-18 14:31:24.31	9.02	11.65	-83.1	-79.0	2.5	0.00e+00	0	49	104	0	60	1048568
2026-01-18 14:31:25.32	8.76	11.62	-83.5	-79.0	2.4	0.00e+00	0	49	104	0	60	1048567
2026-01-18 14:31:26.32	8.49	11.59	-83.5	-79.0	2.4	0.00e+00	0	49	104	0	60	1048575
2026-01-18 14:31:27.32	8.23	11.56	-83.5	-79.0	2.5	0.00e+00	0	49	104	0	60	1048571
2026-01-18 14:31:28.33	7.97	11.52	-83.5	-79.0	2.3	0.00e+00	0	49	104	0	60	1048575
2026-01-18 14:31:29.34	7.70	11.49	-82.8	-79.0	2.5	0.00e+00	0	49	104	0	60	1048574
2026-01-18 14:31:30.34	7.44	11.46	-83.5	-79.0	2.4	0.00e+00	0	49	104	0	60	1048570
2026-01-18 14:31:31.35	7.18	11.43	-83.5	-79.0	2.5	0.00e+00	0	49	104	0	60	1048570
2026-01-18 14:31:32.36	6.92	11.39	-83.5	-79.0	2.4	0.00e+00	0	49	104	0	60	1048571
2026-01-18 14:31:33.36	6.66	11.36	-83.5	-79.0	2.5	0.00e+00	0	49	104	0	60	1048575
2026-01-18 14:31:34.37	6.40	11.32	-83.1	-79.0	2.4	0.00e+00	0	49	104	0	60	1048568
2026-01-18 14:31:35.38	6.15	11.29	-83.1	-79.0	2.6	0.00e+00	0	49	104	0	60	1048571
2026-01-18 14:31:36.39	5.89	11.25	-83.5	-79.0	2.4	0.00e+00	0	49	104	0	60	1048575
2026-01-18 14:31:37.39	5.63	11.22	-83.5	-79.0	2.3	0.00e+00	0	49	104	0	60	1048569
2026-01-18 14:31:38.40	5.38	11.18	-83.1	-79.0	2.4	0.00e+00	0	49	104	0	60	1048574
2026-01-18 14:31:39.41	5.12	11.14	-83.5	-79.0	2.4	0.00e+00	0	49	104	0	60	1048574
2026-01-18 14:31:40.41	4.87	11.10	-83.5	-79.0	2.4	0.00e+00	0	49	104	0	60	1048572
2026-01-18 14:31:41.42	4.61	11.07	-83.5	-79.0	2.4	0.00e+00	0	49	104	0	60	1048573
2026-01-18 14:31:42.43	4.36	11.03	-83.1	-79.0	2.5	0.00e+00	0	49	104	0	60	1048574
2026-01-18 14:31:43.44	4.11	10.99	-82.8	-79.0	2.4	0.00e+00	0	49	104	0	60	1048575
2026-01-18 14:31:44.44	3.86	10.95	-83.1	-79.0	2.4	0.00e+00	0	49	104	0	60	1048573
2026-01-18 14:31:45.45	3.61	10.91	-83.5	-79.0	2.4	0.00e+00	0	49	104	0	60	1048568
2026-01-18 14:31:46.45	3.36	10.87	-83.5	-79.0	2.5	0.00e+00	0	49	104	0	60	1048575
2026-01-18 14:31:47.46	3.11	10.83	-83.5	-79.0	2.5	0.00e+00	0	49	104	0	60	1048575
2026-01-18 14:31:48.46	2.87	10.79	-83.1	-79.0	2.4	0.00e+00	0	49	104	0	60	1048574
2026-01-18 14:31:49.47	2.62	10.75	-83.5	-79.0	2.4	0.00e+00	0	49	104	0	60	1048571
2026-01-18 14:31:50.48	2.37	10.71	-83.5	-79.0	2.4	0.00e+00	0	49	104	0	60	1048572
2026-01-18 14:31:51.48	2.13	10.67	-83.5	-79.0	2.5	0.00e+00	0	49	104	0	60	1048574
2026-01-18 14:31:52.49	1.88	10.63	-83.1	-79.0	2.4	0.00e+00	0	49	104	0	60	1048574
2026-01-18 14:31:53.50	1.64	10.59	-83.5	-79.0	2.4	0.00e+00	0	49	104	0	60	1048575
2026-01-18 14:31:54.51	1.40	10.54	-83.5	-79.0	2.4	0.00e+00	0	49	104	0	60	1048575
2026-01-18 14:31:55.51	1.16	10.50	-83.1	-79.0	2.5	0.00e+00	0	49	104	0	60	1048569
2026-01-18 14:31:56.51	0.92	10.46	-83.5	-79.0	2.4	0.00e+00	0	49	104	0	60	1048573
2026-01-18 14:31:57.52	0.68	10.42	-83.1	-79.0	2.4	0.00e+00	0	49	104	0	60	1048574
2026-01-18 14:31:58.52	0.44	10.37	-83.5	-79.0	2.5	0.00e+00	0	49	104	0	60	1048573
2026-01-18 14:31:59.53	0.20	10.33	-83.5	-79.0	2.4	0.00e+00	0	49	104	0	60	1048571
2026-01-18 14:32:00.53	359.97	10.28	-83.5	-79.0	2.4	0.00e+00	0	49	104	0	60	1048572
2026-01-18 14:32:01.54	359.73	10.24	-83.1	-79.0	2.4	0.00e+00	0	49	104	0	60	1048570
2026-01-18 14:32:02.55	359.49	10.20	-82.8	-79.0	2.5	0.00e+00	0	49	104	0	60	1048571
2026-01-18 14:32:03.56	359.26	10.15	-83.1	-79.0	2.3	0.00e+00	0	49	104	0	60	1048571
2026-01-18 14:32:04.56	359.02	10.11	-83.5	-79.0	2.4	0.00e+00	0	49	104	0	60	1048575
2026-01-18 14:32:05.57	358.79	10.06	-83.5	-79.0	2.5	0.00e+00	0	49	104	0	60	1048573
2026-01-18 14:32:06.58	358.56	10.01	-83.1	-79.0	2.4	0.00e+00	0	49	104	0	60	1048575
2026-01-18 14:32:07.59	358.33	9.97	-83.1	-79.0	2.4	0.00e+00	0	49	104	0	60	1048574
2026-01-18 14:32:08.60	358.10	9.92	-82.8	-79.0	2.4	0.00e+00	0	49	104	0	60	1048575
2026-01-18 14:32:09.60	357.87	9.87	-83.5	-79.0	2.5	0.00e+00	0	49	104	0	60	1048574
2026-01-18 14:32:10.61	357.64	9.83	-83.5	-79.0	2.3	0.00e+00	0	49	104	0	60	1048570
2026-01-18 14:32:11.62	357.41	9.78	-83.1	-79.0	2.4	0.00e+00	0	49	104	0	60	1048571
2026-01-18 14:32:12.63	357.18	9.73	-83.1	-79.0	2.5	0.00e+00	0	49	104	0	60	1048573
2026-01-18 14:32:13.64	356.96	9.68	-83.5	-79.0	2.4	0.00e+00	0	49	104	0	60	1048573
2026-01-18 14:32:14.64	356.74	9.64	-83.5	-79.0	2.4	0.00e+00	0	49	104	0	60	1048571
2026-01-18 14:32:15.65	356.51	9.59	-83.5	-79.0	2.5	0.00e+00	0	49	104	0	60	1048575
2026-01-18 14:32:16.66	356.29	9.54	-83.1	-79.0	2.4	0.00e+00	0	49	104	0	60	1048573
2026-01-18 14:32:17.66	356.07	9.49	-83.5	-79.0	2.4	0.00e+00	0	49	104	0	60	1048574
2026-01-18 14:32:18.67	355.85	9.44	-83.5	-79.0	2.4	0.00e+00	0	49	104	0	60	1048574
2026-01-18 14:32:19.68	355.62	9.39	-83.5	-79.0	2.5	0.00e+00	0	49	104	0	60	1048573
2026-01-18 14:32:20.68	355.41	9.34	-83.1	-79.0	2.4	0.00e+00	0	49	104	0	60	1048570
2026-01-18 14:32:21.68	355.19	9.30	-82.8	-79.0	2.3	0.00e+00	0	49	104	0	60	1048574
2026-01-18 14:32:22.69	354.97	9.25	-83.5	-79.0	2.4	0.00e+00	0	49	104	0	60	1048574
2026-01-18 14:32:23.70	354.76	9.20	-83.5	-79.0	2.5	0.00e+00	0	49	104	0	60	1048573
2026-01-18 14:32:24.71	354.54	9.15	-83.1	-79.0	2.4	0.00e+00	0	49	104	0	60	1048569
2026-01-18 14:32:25.72	354.32	9.09	-83.1	-79.0	2.3	0.00e+00	0	49	104	0	60	1048573
2026-01-18 14:32:26.72	354.11	9.04	-83.1	-79.0	2.3	0.00e+00	0	49	104	0	60	1048573
2026-01-18 14:32:27.73	353.90	8.99	-83.5	-79.0	2.4	0.00e+00	0	49	104	0	60	1048574
2026-01-18 14:32:28.74	353.69	8.94	-83.5	-79.0	2.5	0.00e+00	0	49	104	0	60	1048575
2026-01-18 14:32:29.74	353.48	8.89	-83.5	-79.0	2.5	0.00e+00	0	49	104	0	60	1048555
2026-01-18 14:32:30.75	353.27	8.84	-83.1	-79.0	2.4	0.00e+00	0	49	104	0	60	1048570
2026-01-18 14:32:31.76	353.06	8.79	-83.5	-79.0	2.4	0.00e+00	0	49	104	0	60	1048573
2026-01-18 14:32:32.76	352.85	8.74	-83.5	-79.0	2.4	0.00e+00	0	49	104	0	60	1048575
2026-01-18 14:32:33.77	352.64	8.69	-83.5	-79.0	2.4	0.00e+00	0	49	104	0	60	1048575
2026-01-18 14:32:34.77	352.44	8.63	-83.5	-79.0	2.4	0.00e+00	0	49	104	0	60	1048574
2026-01-18 14:32:35.78	352.23	8.58	-83.1	-79.0	2.4	0.00e+00	0	49	104	0	60	1048573
2026-01-18 14:32:36.78	352.03	8.53	-83.5	-79.0	2.4	0.00e+00	0	49	104	0	60	1048568
2026-01-18 14:32:37.79	351.83	8.48	-83.5	-79.0	2.5	0.00e+00	0	49	104	0	60	1048573
2026-01-18 14:32:38.80	351.62	8.43	-83.5	-79.0	2.6	0.00e+00	0	49	104	0	60	1048574
2026-01-18 14:32:39.81	351.42	8.37	-83.1	-79.0	2.3	0.00e+00	0	49	104	0	60	1048575
2026-01-18 14:32:40.81	351.22	8.32	-83.1	-79.0	2.4	0.00e+00	0	49	104	0	60	1048575
2026-01-18 14:32:41.82	351.02	8.27	-83.1	-79.0	2.6	0.00e+00	0	49	104	0	60	1048575
2026-01-18 14:32:42.83	350.82	8.21	-83.5	-79.0	2.5	0.00e+00	0	49	104	0	60	1048567
2026-01-18 14:32:43.84	350.62	8.16	-83.5	-79.0	2.4	0.00e+00	0	49	104	0	60	1048569
2026-01-18 14:32:44.84	350.43	8.11	-83.1	-79.0	2.4	0.00e+00	0	49	104	0	60	1048575
2026-01-18 14:32:45.85	350.23	8.06	-83.5	-79.0	2.4	0.00e+00	0	49	104	0	60	1048575
2026-01-18 14:32:46.86	350.03	8.00	-83.5	-79.0	2.5	0.00e+00	0	49	104	0	60	1048575
2026-01-18 14:32:47.87	349.84	7.95	-83.5	-79.0	2.4	0.00e+00	0	49	104	0	60	1048572
2026-01-18 14:32:48.88	349.65	7.89	-83.5	-79.0	2.5	0.00e+00	0	49	104	0	60	1048572
2026-01-18 14:32:49.88	349.45	7.84	-82.8	-79.0	2.3	0.00e+00	0	49	104	0	60	1048570
2026-01-18 14:32:50.89	349.26	7.79	-83.5	-79.0	2.5	0.00e+00	0	49	104	0	60	1048572
2026-01-18 14:32:51.89	349.07	7.73	-83.5	-79.0	2.4	0.00e+00	0	49	104	0	60	1048567
2026-01-18 14:32:52.90	348.88	7.68	-83.1	-79.0	2.4	0.00e+00	0	49	104	0	60	1048572
2026-01-18 14:32:53.90	348.69	7.62	-83.1	-79.0	2.4	0.00e+00	0	49	104	0	60	1048574
2026-01-18 14:32:54.91	348.51	7.57	-83.1	-79.0	2.4	0.00e+00	0	49	104	0	60	1048573
2026-01-18 14:32:55.92	348.32	7.52	-83.5	-79.0	2.5	0.00e+00	0	49	104	0	60	1048566
2026-01-18 14:32:56.92	348.13	7.46	-83.5	-79.0	2.4	0.00e+00	0	49	104	0	60	1048574
2026-01-18 14:32:57.93	347.95	7.41	-83.5	-79.0	2.5	0.00e+00	0	49	104	0	60	1048569
2026-01-18 14:32:58.93	347.76	7.35	-83.1	-79.0	2.2	0.00e+00	0	49	104	0	60	1048573
2026-01-18 14:32:59.94	347.58	7.30	-83.1	-79.0	2.2	0.00e+00	0	49	104	0	60	1048572
2026-01-18 14:33:00.94	347.40	7.24	-83.1	-79.0	2.5	0.00e+00	0	49	104	0	60	1048573
2026-01-18 14:33:01.94	347.22	7.19	-83.1	-79.0	2.4	0.00e+00	0	49	104	0	60	1048574
2026-01-18 14:33:02.94	347.04	7.13	-83.5	-79.0	2.3	0.00e+00	0	49	104	0	60	1048575
2026-01-18 14:33:03.94	346.86	7.08	-83.1	-79.0	2.4	0.00e+00	0	49	104	0	60	1048572
2026-01-18 14:33:04.95	346.68	7.02	-83.5	-79.0	2.4	0.00e+00	0	49	104	0	60	1048574
2026-01-18 14:33:05.96	346.50	6.97	-83.5	-79.0	2.4	0.00e+00	0	49	104	0	60	1048570
2026-01-18 14:33:06.96	346.32	6.91	-83.5	-79.0	2.3	0.00e+00	0	49	104	0	60	1048572
2026-01-18 14:33:07.97	346.14	6.86	-83.5	-79.0	2.4	0.00e+00	0	49	104	0	60	1048566
2026-01-18 14:33:08.98	345.97	6.80	-83.1	-79.0	2.4	0.00e+00	0	49	104	0	60	1048575
2026-01-18 14:33:09.98	345.79	6.75	-83.5	-79.0	2.5	0.00e+00	0	49	104	0	60	1048570
2026-01-18 14:33:11.00	345.62	6.69	-83.5	-79.0	2.5	0.00e+00	0	49	104	0	60	1048572
2026-01-18 14:33:12.00	345.45	6.64	-83.5	-79.0	2.4	0.00e+00	0	49	104	0	60	1048575
2026-01-18 14:33:13.01	345.27	6.58	-83.1	-79.0	2.4	0.00e+00	0	49	104	0	60	1048573
2026-01-18 14:33:14.02	345.10	6.52	-83.1	-79.0	2.5	0.00e+00	0	49	104	0	60	1048566
2026-01-18 14:33:15.03	344.93	6.47	-83.5	-79.0	2.4	0.00e+00	0	49	104	0	60	1048575
2026-01-18 14:33:16.04	344.76	6.41	-83.5	-79.0	2.2	0.00e+00	0	49	104	0	60	1048574
2026-01-18 14:33:17.04	344.59	6.36	-83.5	-79.0	2.3	0.00e+00	0	49	104	0	60	1048572
2026-01-18 14:33:18.05	344.42	6.30	-83.1	-79.0	2.4	0.00e+00	0	49	104	0	60	1048575
2026-01-18 14:33:19.06	344.25	6.25	-83.1	-79.0	2.3	0.00e+00	0	49	104	0	60	1048574
2026-01-18 14:33:20.07	344.09	6.19	-83.5	-79.0	2.4	0.00e+00	0	49	104	0	60	1048575
2026-01-18 14:33:21.08	343.92	6.13	-83.5	-79.0	2.5	0.00e+00	0	49	104	0	60	1048572
2026-01-18 14:33:22.08	343.75	6.08	-82.8	-79.0	2.5	0.00e+00	0	49	104	0	60	1048570
2026-01-18 14:33:23.09	343.59	6.02	-82.8	-79.0	2.4	0.00e+00	0	49	104	0	60	1048573
2026-01-18 14:33:24.10	343.43	5.97	-83.1	-79.0	2.4	0.00e+00	0	49	104	0	60	1048571
2026-01-18 14:33:25.10	343.26	5.91	-83.5	-79.0	2.4	0.00e+00	0	49	104	0	60	1048572
2026-01-18 14:33:26.11	343.10	5.85	-83.5	-79.0	2.4	0.00e+00	0	49	104	0	60	1048575
2026-01-18 14:33:27.12	342.94	5.80	-83.5	-79.0	2.4	0.00e+00	0	49	104	0	60	1048574
2026-01-18 14:33:28.13	342.78	5.74	-83.1	-79.0	2.5	0.00e+00	0	49	104	0	60	1048573
2026-01-18 14:33:29.14	342.62	5.69	-83.5	-79.0	2.4	0.00e+00	0	49	104	0	60	1048573
2026-01-18 14:33:30.14	342.46	5.63	-83.5	-79.0	2.4	0.00e+00	0	49	104	0	60	1048575
2026-01-18 14:33:31.15	342.30	5.57	-83.5	-79.0	2.5	0.00e+00	0	49	104	0	60	1048575
2026-01-18 14:33:32.15	342.15	5.52	-83.1	-79.0	2.5	0.00e+00	0	49	104	0	60	1048572
2026-01-18 14:33:33.16	341.99	5.46	-83.1	-79.0	2.5	0.00e+00	0	49	104	0	60	1048572
2026-01-18 14:33:34.17	341.83	5.41	-83.5	-79.0	2.3	0.00e+00	0	49	104	0	60	1048574
2026-01-18 14:33:35.18	341.68	5.35	-83.5	-79.0	2.4	0.00e+00	0	49	104	0	60	1048565
2026-01-18 14:33:36.18	341.52	5.29	-83.5	-79.0	2.2	0.00e+00	0	49	104	0	60	1048571
2026-01-18 14:33:37.19	341.37	5.24	-82.8	-79.0	2.4	0.00e+00	0	49	104	0	60	1048572
2026-01-18 14:33:38.20	341.22	5.18	-83.1	-79.0	2.4	0.00e+00	0	49	104	0	60	1048571
2026-01-18 14:33:39.20	341.07	5.13	-83.5	-79.0	2.4	0.00e+00	0	49	104	0	60	1048575
2026-01-18 14:33:40.21	340.91	5.07	-83.5	-79.0	2.4	0.00e+00	0	49	104	0	60	1048570
2026-01-18 14:33:41.22	340.76	5.01	-83.1	-79.0	2.4	0.00e+00	0	49	104	0	60	1048575
2026-01-18 14:33:42.23	340.61	4.96	-82.8	-79.0	2.5	0.00e+00	0	49	104	0	60	1048572
2026-01-18 14:33:43.24	340.46	4.90	-83.1	-79.0	2.4	0.00e+00	0	49	104	0	60	1048571
2026-01-18 14:33:44.24	340.32	4.84	-83.5	-79.0	2.5	0.00e+00	0	49	104	0	60	1048575
2026-01-18 14:33:45.25	340.17	4.79	-83.5	-79.0	2.5	0.00e+00	0	49	104	0	60	1048572
2026-01-18 14:33:46.26	340.02	4.73	-83.5	-79.0	2.4	0.00e+00	0	49	104	0	60	1048573
2026-01-18 14:33:47.27	339.88	4.68	-83.1	-79.0	2.4	0.00e+00	0	49	104	0	60	1048574
2026-01-18 14:33:48.28	339.73	4.62	-83.1	-79.0	2.5	0.00e+00	0	49	104	0	60	1048570
2026-01-18 14:33:49.29	339.58	4.56	-83.5	-79.0	2.5	0.00e+00	0	49	104	0	60	1048559
2026-01-18 14:33:50.29	339.44	4.51	-83.5	-79.0	2.5	0.00e+00	0	49	104	0	60	1048574
2026-01-18 14:33:51.30	339.30	4.45	-82.8	-79.0	2.5	0.00e+00	0	49	104	0	60	1048569
2026-01-18 14:33:52.31	339.16	4.39	-83.1	-79.0	2.4	0.00e+00	0	49	104	0	60	1048573
2026-01-18 14:33:53.32	339.01	4.34	-83.5	-79.0	2.4	0.00e+00	0	49	104	0	60	1048574
2026-01-18 14:33:54.32	338.87	4.28	-83.5	-79.0	2.4	0.00e+00	0	49	104	0	60	1048574
2026-01-18 14:33:55.33	338.73	4.23	-83.5	-79.0	2.3	0.00e+00	0	49	104	0	60	1048566
2026-01-18 14:33:56.33	338.59	4.17	-83.1	-79.0	2.4	0.00e+00	0	49	104	0	60	1048574
2026-01-18 14:33:57.33	338.46	4.12	-83.5	-79.0	2.4	0.00e+00	0	49	104	0	60	1048573
2026-01-18 14:33:58.34	338.32	4.06	-83.5	-79.0	2.5	0.00e+00	0	49	104	0	60	1048574
2026-01-18 14:33:59.35	338.18	4.00	-83.5	-79.0	2.4	0.00e+00	0	49	104	0	60	1048562
2026-01-18 14:34:00.36	338.04	3.95	-83.5	-79.0	2.5	0.00e+00	0	49	104	0	60	1048575
2026-01-18 14:34:01.36	337.91	3.89	-83.1	-79.0	2.4	0.00e+00	0	49	104	0	60	1048573
2026-01-18 14:34:02.37	337.77	3.84	-83.5	-79.0	2.4	0.00e+00	0	49	104	0	60	1048573
2026-01-18 14:34:03.38	337.64	3.78	-83.5	-79.0	2.4	0.00e+00	0	49	104	0	60	1048573
2026-01-18 14:34:04.38	337.50	3.72	-83.5	-79.0	2.4	0.00e+00	0	49	104	0	60	1048573
2026-01-18 14:34:05.39	337.37	3.67	-83.5	-79.0	2.6	0.00e+00	0	49	104	0	60	1048569
2026-01-18 14:34:06.39	337.24	3.61	-83.5	-79.0	2.4	0.00e+00	0	49	104	0	60	1048572
2026-01-18 14:34:07.40	337.10	3.56	-83.5	-79.0	2.5	0.00e+00	0	49	104	0	60	1048573
2026-01-18 14:34:08.40	336.97	3.50	-83.5	-79.0	2.4	0.00e+00	0	49	104	0	60	1048571
2026-01-18 14:34:09.41	336.84	3.45	-83.5	-79.0	2.4	0.00e+00	0	49	104	0	60	1048570
2026-01-18 14:34:10.42	336.71	3.39	-83.1	-79.0	2.5	0.00e+00	0	49	104	0	60	1048574
2026-01-18 14:34:11.43	336.58	3.34	-83.1	-79.0	2.4	0.00e+00	0	49	104	0	60	1048571
2026-01-18 14:34:12.44	336.45	3.28	-83.5	-79.0	2.5	0.00e+00	0	49	104	0	60	1048558
2026-01-18 14:34:13.45	336.32	3.22	-83.5	-79.0	2.4	0.00e+00	0	49	104	0	60	1048574
2026-01-18 14:34:14.46	336.19	3.17	-83.5	-79.0	2.5	0.00e+00	0	49	104	0	60	1048575
2026-01-18 14:34:15.46	336.07	3.11	-83.1	-79.0	2.5	0.00e+00	0	49	104	0	60	1048575
2026-01-18 14:34:16.46	335.94	3.06	-83.1	-79.0	2.5	0.00e+00	0	49	104	0	60	1048575
2026-01-18 14:34:17.47	335.82	3.00	-83.5	-79.0	2.6	0.00e+00	0	49	104	0	60	1048574
2026-01-18 14:34:18.48	335.69	2.95	-83.5	-79.0	2.4	0.00e+00	0	49	104	0	60	1048570
2026-01-18 14:34:19.49	335.56	2.89	-83.5	-79.0	2.4	0.00e+00	0	49	104	0	60	1048575
2026-01-18 14:34:20.50	335.44	2.84	-83.1	-79.0	2.5	0.00e+00	0	49	104	0	60	1048574
2026-01-18 14:34:21.51	335.32	2.78	-83.1	-79.0	2.5	0.00e+00	0	49	104	0	60	1048575
2026-01-18 14:34:22.52	335.19	2.73	-83.5	-79.0	2.6	0.00e+00	0	49	104	0	60	1048574
2026-01-18 14:34:23.53	335.07	2.67	-83.5	-79.0	2.4	0.00e+00	0	49	104	0	60	1048573
2026-01-18 14:34:24.53	334.95	2.62	-83.1	-79.0	2.2	0.00e+00	0	49	104	0	60	1048571
2026-01-18 14:34:25.54	334.83	2.56	-83.1	-79.0	2.3	0.00e+00	0	49	104	0	60	1048574
2026-01-18 14:34:26.55	334.71	2.51	-83.5	-79.0	2.4	0.00e+00	0	49	104	0	60	1048572
2026-01-18 14:34:27.55	334.59	2.45	-83.5	-79.0	2.4	0.00e+00	0	49	104	0	60	1048572
2026-01-18 14:34:28.56	334.47	2.40	-83.5	-79.0	2.4	0.00e+00	0	49	104	0	60	1048573
2026-01-18 14:34:29.57	334.35	2.34	-83.1	-79.0	2.4	0.00e+00	0	49	104	0	60	1048571
2026-01-18 14:34:30.58	334.23	2.29	-83.5	-79.0	2.4	0.00e+00	0	49	104	0	60	1048571
2026-01-18 14:34:31.58	334.11	2.23	-83.5	-79.0	2.4	0.00e+00	0	49	104	0	60	1048569
2026-01-18 14:34:32.59	334.00	2.18	-83.5	-79.0	2.4	0.00e+00	0	49	104	0	60	1048575
2026-01-18 14:34:33.60	333.88	2.12	-83.5	-79.0	2.4	0.00e+00	0	49	104	0	60	1048574
2026-01-18 14:34:34.60	333.77	2.07	-83.1	-79.0	2.3	0.00e+00	0	49	104	0	60	1048572
2026-01-18 14:34:35.61	333.65	2.01	-83.5	-79.0	2.5	0.00e+00	0	49	104	0	60	1048572
2026-01-18 14:34:36.62	333.53	1.96	-83.5	-79.0	2.4	0.00e+00	0	49	104	0	60	1048570
2026-01-18 14:34:37.63	333.42	1.90	-83.5	-79.0	2.4	0.00e+00	0	49	104	0	60	1048573
2026-01-18 14:34:38.64	333.31	1.85	-83.5	-79.0	2.7	0.00e+00	0	49	104	0	60	1048570
2026-01-18 14:34:39.64	333.19	1.80	-83.1	-79.0	2.3	0.00e+00	0	49	104	0	60	1048574
2026-01-18 14:34:40.65	333.08	1.74	-83.1	-79.0	2.4	0.00e+00	0	49	104	0	60	1048573
2026-01-18 14:34:41.66	332.97	1.69	-83.5	-79.0	2.4	0.00e+00	0	49	104	0	60	1048574
2026-01-18 14:34:42.67	332.86	1.63	-83.5	-79.0	2.5	0.00e+00	0	49	104	0	60	1048574
2026-01-18 14:34:43.67	332.75	1.58	-83.1	-79.0	2.4	0.00e+00	0	49	104	0	60	1048575
2026-01-18 14:34:44.68	332.64	1.52	-83.1	-79.0	2.5	0.00e+00	0	49	104	0	60	1048575
2026-01-18 14:34:45.69	332.53	1.47	-83.5	-79.0	2.4	0.00e+00	0	49	104	0	60	1048575
2026-01-18 14:34:46.69	332.42	1.42	-83.5	-79.0	2.3	0.00e+00	0	49	104	0	60	1048568
2026-01-18 14:34:47.70	332.31	1.36	-83.5	-79.0	2.5	0.00e+00	0	49	104	0	60	1048573
2026-01-18 14:34:48.70	332.20	1.31	-82.8	-79.0	2.3	0.00e+00	0	49	104	0	60	1048575
2026-01-18 14:34:49.71	332.09	1.25	-83.1	-79.0	2.4	0.00e+00	0	49	104	0	60	1048573
2026-01-18 14:34:50.72	331.98	1.20	-83.5	-79.0	2.4	0.00e+00	0	49	104	0	60	1048574
2026-01-18 14:34:51.72	331.88	1.15	-83.5	-79.0	2.4	0.00e+00	0	49	104	0	60	1048573
2026-01-18 14:34:52.73	331.77	1.09	-83.1	-79.0	2.4	0.00e+00	0	49	104	0	60	1048572
2026-01-18 14:34:53.74	331.67	1.04	-83.1	-79.0	2.4	0.00e+00	0	49	104	0	60	1048575
2026-01-18 14:34:54.75	331.56	0.98	-83.1	-79.0	2.4	0.00e+00	0	49	104	0	60	1048568
2026-01-18 14:34:55.76	331.46	0.93	-83.5	-79.0	2.4	0.00e+00	0	49	104	0	60	1048570
2026-01-18 14:34:56.76	331.35	0.88	-83.5	-79.0	2.3	0.00e+00	0	49	104	0	60	1048569
2026-01-18 14:34:57.77	331.25	0.82	-83.5	-79.0	2.5	0.00e+00	0	49	104	0	60	1048563
2026-01-18 14:34:58.78	331.14	0.77	-83.1	-79.0	2.3	0.00e+00	0	49	104	0	60	1048573
2026-01-18 14:34:59.79	331.04	0.72	-83.5	-79.0	2.5	0.00e+00	0	49	104	0	60	1048573
2026-01-18 14:35:00.80	330.94	0.66	-83.5	-79.0	2.4	0.00e+00	0	49	104	0	60	1048573
2026-01-18 14:35:01.80	330.84	0.61	-83.5	-79.0	2.4	0.00e+00	0	49	104	0	60	1048573
2026-01-18 14:35:02.81	330.74	0.56	-83.1	-79.0	2.5	0.00e+00	0	49	104	0	60	1048573
2026-01-18 14:35:03.82	330.63	0.50	-83.1	-79.0	2.4	0.00e+00	0	49	104	0	60	1048575
2026-01-18 14:35:04.82	330.53	0.45	-83.5	-79.0	2.5	0.00e+00	0	49	104	0	60	1048571
2026-01-18 14:35:05.82	330.44	0.40	-83.5	-79.0	2.4	0.00e+00	0	49	104	0	60	1048575
2026-01-18 14:35:06.83	330.34	0.35	-83.5	-79.0	2.5	0.00e+00	0	49	104	0	60	1048572
2026-01-18 14:35:07.84	330.24	0.29	-83.1	-79.0	2.4	0.00e+00	0	49	104	0	60	1048573
2026-01-18 14:35:08.84	330.14	0.24	-83.1	-79.0	2.4	0.00e+00	0	49	104	0	60	1048569
2026-01-18 14:35:09.85	330.04	0.19	-83.1	-79.0	2.4	0.00e+00	0	49	104	0	60	1048575
2026-01-18 14:35:10.86	329.94	0.13	-83.5	-79.0	2.4	0.00e+00	0	49	104	0	60	1048569
2026-01-18 14:35:11.87	329.84	0.08	-83.5	-79.0	2.6	0.00e+00	0	49	104	0	60	1048575
2026-01-18 14:35:12.88	329.75	0.03	-83.1	-79.0	2.5	0.00e+00	0	49	104	0	60	1048574
2026-01-18 14:35:13.88	329.65	-0.02	-83.5	-79.0	2.3	0.00e+00	0	49	104	0	60	1048575

#Closed at: 2026-01-18 14:35:14
#Recorded file [0 MB]: D:/Data/35015_260118_172545.dat