passes_logs/2026/01/18/R3.2S-Naryan-Mar/R3.2S-Naryan-Mar__20260118_143500_FENGYUN_3E_rec.log

#Pass ID: 20260118_143500_FENGYUN 3E
#Satellite: FENGYUN 3E
#Configuration: FENGYUN 3E
#almurnet v.1.7.20240730
#Start time: 2026-01-18 14:38:33

#Version: 2.2.20231116
#Station: R3.2S-Naryan-Mar
#Location: 53.008057 lon 67.646978 lat
#TLE: 1 49008U 21062A   26017.61301378  .00000104  00000+0  69808-4 0  9996
#TLE: 2 49008  98.7484  22.7108 0002130 132.1860 227.9498 14.19886007235218

#Time	Az	El	Level	Level2	SNR	BER	BlckErr	Temp	State	Recorded	gain1	gain2
2026-01-18 14:38:33.43	221.22	13.76	-82.8	-79.0	2.5	0.00e+00	0	49	0	0	60	1048572
2026-01-18 14:38:34.43	221.36	13.83	-84.7	-88.6	5.3	5.09e-01	0	49	0	0	60	1048572
2026-01-18 14:38:35.44	221.50	13.91	-84.7	-88.6	5.7	3.83e-01	0	49	0	0	60	1048575
2026-01-18 14:38:36.44	221.64	13.99	-84.7	-88.6	5.4	4.02e-01	0	49	0	0	60	1048570
2026-01-18 14:38:37.45	221.78	14.06	-84.7	-88.6	5.4	3.98e-01	0	49	0	0	60	1048575
2026-01-18 14:38:38.46	221.92	14.14	-84.7	-88.6	4.5	4.03e-01	0	49	0	0	60	1048570
2026-01-18 14:38:39.46	222.05	14.22	-84.7	-88.6	5.2	4.01e-01	0	49	0	0	60	1048573
2026-01-18 14:38:40.47	222.20	14.30	-84.7	-88.6	4.9	4.03e-01	0	49	0	0	60	1048569
2026-01-18 14:38:41.48	222.34	14.37	-84.7	-88.6	5.0	4.00e-01	0	49	0	0	60	1048574
2026-01-18 14:38:42.48	222.48	14.45	-84.7	-88.6	5.2	4.01e-01	0	49	0	0	60	1048570
2026-01-18 14:38:43.49	222.62	14.53	-84.7	-88.6	5.2	3.99e-01	0	49	0	0	60	1048574
2026-01-18 14:38:44.50	222.77	14.60	-84.7	-88.6	5.8	3.99e-01	0	49	0	0	60	1048574
2026-01-18 14:38:45.51	222.91	14.68	-84.7	-88.6	5.5	4.02e-01	0	49	0	0	60	1048570
2026-01-18 14:38:46.52	223.06	14.76	-84.7	-88.6	5.5	4.03e-01	0	49	0	0	60	1048575
2026-01-18 14:38:47.52	223.21	14.84	-84.7	-88.6	5.8	4.01e-01	0	49	0	0	60	1048575
2026-01-18 14:38:48.53	223.35	14.92	-84.7	-88.6	5.5	3.99e-01	0	49	0	0	60	1048572
2026-01-18 14:38:49.54	223.50	14.99	-84.7	-88.6	5.6	4.04e-01	0	49	0	0	60	1048568
2026-01-18 14:38:50.55	223.65	15.07	-84.7	-88.6	3.0	7.76e-01	0	49	104	0	60	1048573
2026-01-18 14:38:51.56	223.80	15.15	-84.7	-88.6	2.5	7.76e-01	0	49	104	0	60	1048568
2026-01-18 14:38:52.56	223.95	15.23	-84.7	-88.6	3.0	7.76e-01	0	49	104	0	60	1048575
2026-01-18 14:38:53.57	224.10	15.31	-84.7	-88.6	2.9	7.77e-01	0	49	104	0	60	1048568
2026-01-18 14:38:54.58	224.25	15.38	-84.7	-88.6	3.0	7.76e-01	0	49	104	0	60	1048571
2026-01-18 14:38:55.59	224.40	15.46	-84.7	-88.6	2.8	7.77e-01	0	49	104	0	60	1048567
2026-01-18 14:38:56.59	224.56	15.54	-84.7	-88.6	3.1	7.77e-01	0	49	104	0	60	1048570
2026-01-18 14:38:57.60	224.71	15.62	-84.7	-88.6	3.0	7.76e-01	0	49	104	0	60	1048572
2026-01-18 14:38:58.60	224.86	15.70	-84.7	-88.6	3.2	7.77e-01	0	49	104	0	60	1048565
2026-01-18 14:38:59.60	225.02	15.77	-84.7	-88.6	2.9	7.78e-01	0	49	104	0	60	1048574
2026-01-18 14:39:00.61	225.18	15.85	-84.7	-88.6	3.0	7.76e-01	0	49	104	0	60	1048575
2026-01-18 14:39:01.61	225.33	15.93	-84.7	-88.6	3.5	7.77e-01	0	49	104	0	60	1048575
2026-01-18 14:39:02.62	225.49	16.01	-84.7	-88.6	2.8	7.77e-01	0	49	104	0	60	1048575
2026-01-18 14:39:03.62	225.65	16.09	-84.7	-88.6	3.3	7.77e-01	0	49	104	0	60	1048573
2026-01-18 14:39:04.63	225.81	16.17	-84.7	-88.6	3.1	7.75e-01	0	49	104	0	60	1048570
2026-01-18 14:39:05.63	225.97	16.25	-84.7	-88.6	3.0	7.76e-01	0	49	104	0	60	1048575
2026-01-18 14:39:06.64	226.13	16.33	-84.7	-88.6	3.0	7.77e-01	0	49	104	0	60	1048575
2026-01-18 14:39:07.64	226.29	16.40	-84.7	-88.6	3.0	7.76e-01	0	49	104	0	60	1048574
2026-01-18 14:39:08.65	226.45	16.48	-84.7	-88.6	2.9	7.75e-01	0	49	104	0	60	1048575
2026-01-18 14:39:09.66	226.61	16.56	-84.7	-88.6	3.4	7.76e-01	0	49	104	0	60	1048574
2026-01-18 14:39:10.67	226.78	16.64	-84.7	-88.6	2.7	7.76e-01	0	49	104	0	60	1048575
2026-01-18 14:39:11.68	226.95	16.72	-84.7	-88.6	3.3	7.76e-01	0	49	104	0	60	1048575
2026-01-18 14:39:12.68	227.11	16.80	-84.7	-88.6	3.1	7.77e-01	0	49	104	0	60	1048573
2026-01-18 14:39:13.69	227.28	16.88	-84.7	-88.6	3.0	7.76e-01	0	49	104	0	60	1048574
2026-01-18 14:39:14.70	227.45	16.96	-84.7	-88.6	2.9	7.77e-01	0	49	104	0	60	1048569
2026-01-18 14:39:15.71	227.61	17.04	-84.7	-88.6	3.5	7.77e-01	0	49	104	0	60	1048571
2026-01-18 14:39:16.72	227.78	17.12	-84.7	-88.6	3.0	7.77e-01	0	48	104	0	60	1048574
2026-01-18 14:39:17.72	227.95	17.19	-84.7	-88.6	3.3	7.77e-01	0	49	104	0	60	1048575
2026-01-18 14:39:18.73	228.13	17.27	-84.7	-88.6	3.6	7.76e-01	0	49	104	0	60	1048574
2026-01-18 14:39:19.74	228.30	17.35	-84.7	-88.6	2.7	7.77e-01	0	49	104	0	60	1048572
2026-01-18 14:39:20.75	228.47	17.43	-84.7	-88.6	3.4	7.76e-01	0	49	104	0	60	1048574
2026-01-18 14:39:21.76	228.65	17.51	-84.7	-88.6	2.9	7.75e-01	0	49	104	0	60	1048572
2026-01-18 14:39:22.77	228.82	17.59	-84.7	-88.6	3.2	7.76e-01	0	49	104	0	60	1048572
2026-01-18 14:39:23.77	229.00	17.67	-84.7	-88.6	3.5	7.76e-01	0	49	104	0	60	1048567
2026-01-18 14:39:24.77	229.17	17.75	-84.7	-88.6	3.0	7.75e-01	0	49	104	0	60	1048575
2026-01-18 14:39:25.78	229.35	17.83	-84.7	-88.6	3.3	7.77e-01	0	49	104	0	60	1048572
2026-01-18 14:39:26.78	229.53	17.91	-84.7	-88.6	3.2	7.76e-01	0	49	104	0	60	1048570
2026-01-18 14:39:27.79	229.71	17.99	-84.7	-88.6	2.9	7.77e-01	0	49	104	0	60	1048572
2026-01-18 14:39:28.79	229.88	18.07	-84.7	-88.6	2.9	7.76e-01	0	49	104	0	60	1048575
2026-01-18 14:39:29.79	230.06	18.14	-84.7	-88.6	3.4	7.76e-01	0	49	104	0	60	1048574
2026-01-18 14:39:30.80	230.25	18.22	-84.7	-88.6	3.4	7.76e-01	0	49	104	0	60	1048574
2026-01-18 14:39:31.80	230.43	18.30	-84.7	-88.6	2.7	7.77e-01	0	49	104	0	60	1048569
2026-01-18 14:39:32.81	230.61	18.38	-84.7	-88.6	2.9	7.76e-01	0	49	104	0	60	1048572
2026-01-18 14:39:33.82	230.80	18.46	-84.7	-88.6	2.9	7.77e-01	0	49	104	0	60	1048573
2026-01-18 14:39:34.83	230.98	18.54	-84.7	-88.6	2.5	7.76e-01	0	49	104	0	60	1048561
2026-01-18 14:39:35.84	231.17	18.62	-84.7	-88.6	2.7	7.76e-01	0	49	104	0	60	1048575
2026-01-18 14:39:36.84	231.36	18.70	-84.7	-88.6	2.8	7.75e-01	0	48	104	0	60	1048571
2026-01-18 14:39:37.85	231.55	18.78	-84.7	-88.6	3.3	7.76e-01	0	49	104	0	60	1048572
2026-01-18 14:39:38.86	231.74	18.86	-84.7	-88.6	3.1	7.76e-01	0	49	104	0	60	1048570
2026-01-18 14:39:39.87	231.93	18.93	-84.7	-88.6	3.0	7.77e-01	0	49	104	0	60	1048573
2026-01-18 14:39:40.88	232.12	19.01	-84.7	-88.6	3.4	7.77e-01	0	48	104	0	60	1048575
2026-01-18 14:39:41.88	232.31	19.09	-84.7	-88.6	2.5	7.78e-01	0	48	104	0	60	1048575
2026-01-18 14:39:42.89	232.50	19.17	-84.7	-88.6	2.9	7.77e-01	0	48	104	0	60	1048575
2026-01-18 14:39:43.90	232.70	19.25	-84.7	-88.6	3.1	7.75e-01	0	48	104	0	60	1048575
2026-01-18 14:39:44.91	232.89	19.33	-84.7	-88.6	3.0	7.77e-01	0	49	104	0	60	1048571
2026-01-18 14:39:45.91	233.09	19.41	-84.7	-88.6	2.6	7.76e-01	0	48	104	0	60	1048573
2026-01-18 14:39:46.92	233.29	19.48	-84.7	-88.6	3.0	7.77e-01	0	48	104	0	60	1048575
2026-01-18 14:39:47.92	233.48	19.56	-84.7	-88.6	3.0	7.76e-01	0	48	104	0	60	1048574
2026-01-18 14:39:48.93	233.68	19.64	-84.7	-88.6	3.1	7.76e-01	0	49	104	0	60	1048575
2026-01-18 14:39:49.94	233.88	19.72	-84.7	-88.6	2.8	7.76e-01	0	48	104	0	60	1048575
2026-01-18 14:39:50.95	234.09	19.80	-84.7	-88.6	2.6	7.77e-01	0	48	104	0	60	1048575
2026-01-18 14:39:51.96	234.29	19.88	-84.7	-88.6	2.8	7.77e-01	0	48	104	0	60	1048575
2026-01-18 14:39:52.96	234.49	19.95	-84.7	-88.6	3.0	7.75e-01	0	49	104	0	60	1048573
2026-01-18 14:39:53.97	234.69	20.03	-84.7	-88.6	3.1	7.77e-01	0	48	104	0	60	1048571
2026-01-18 14:39:54.98	234.90	20.11	-84.7	-88.6	3.4	7.77e-01	0	48	104	0	60	1048570
2026-01-18 14:39:55.99	235.11	20.19	-84.7	-88.6	2.6	7.76e-01	0	48	104	0	60	1048575
2026-01-18 14:39:56.99	235.31	20.26	-84.7	-88.6	3.3	7.77e-01	0	48	104	0	60	1048575
2026-01-18 14:39:58.00	235.52	20.34	-84.7	-88.6	3.1	7.77e-01	0	48	104	0	60	1048575
2026-01-18 14:39:59.01	235.73	20.42	-84.7	-88.6	3.0	7.76e-01	0	48	104	0	60	1048575
2026-01-18 14:40:00.02	235.94	20.49	-84.7	-88.6	3.4	7.77e-01	0	48	104	0	60	1048571
2026-01-18 14:40:01.02	236.15	20.57	-84.7	-88.6	2.9	7.75e-01	0	48	104	0	60	1048571
2026-01-18 14:40:02.03	236.36	20.65	-84.7	-88.6	3.2	7.78e-01	0	48	104	0	60	1048572
2026-01-18 14:40:03.04	236.58	20.72	-84.7	-88.6	2.6	7.76e-01	0	48	104	0	60	1048572
2026-01-18 14:40:04.04	236.79	20.80	-84.7	-88.6	2.8	7.76e-01	0	48	104	0	60	1048575
2026-01-18 14:40:05.05	237.01	20.88	-84.7	-88.6	2.8	7.77e-01	0	48	104	0	60	1048570
2026-01-18 14:40:06.06	237.22	20.95	-84.7	-88.6	2.8	7.76e-01	0	48	104	0	60	1048572
2026-01-18 14:40:07.07	237.44	21.03	-84.7	-88.6	2.5	7.76e-01	0	48	104	0	60	1048571
2026-01-18 14:40:08.08	237.66	21.10	-84.7	-88.6	2.5	7.74e-01	0	48	104	0	60	1048575
2026-01-18 14:40:09.08	237.88	21.18	-84.7	-88.6	3.1	7.76e-01	0	48	104	0	60	1048570
2026-01-18 14:40:10.09	238.10	21.25	-84.7	-88.6	3.3	7.77e-01	0	48	104	0	60	1048570
2026-01-18 14:40:11.10	238.32	21.33	-84.7	-88.6	2.6	7.76e-01	0	48	104	0	60	1048575
2026-01-18 14:40:12.11	238.55	21.40	-84.7	-88.6	3.0	7.77e-01	0	48	104	0	60	1048574
2026-01-18 14:40:13.12	238.77	21.48	-84.7	-88.6	2.8	7.77e-01	0	48	104	0	60	1048572
2026-01-18 14:40:14.13	239.00	21.55	-84.7	-88.6	2.8	7.76e-01	0	48	104	0	60	1048574
2026-01-18 14:40:15.14	239.22	21.63	-84.7	-88.6	2.9	7.77e-01	0	48	104	0	60	1048574
2026-01-18 14:40:16.14	239.45	21.70	-84.7	-88.6	3.3	7.76e-01	0	48	104	0	60	1048575
2026-01-18 14:40:17.15	239.68	21.77	-84.7	-88.6	2.6	7.71e-01	0	48	104	0	60	1048567
2026-01-18 14:40:18.16	239.91	21.85	-84.7	-88.6	3.3	7.76e-01	0	48	104	0	60	1048574
2026-01-18 14:40:19.17	240.14	21.92	-84.7	-88.6	3.3	7.76e-01	0	48	104	0	60	1048574
2026-01-18 14:40:20.18	240.37	21.99	-84.7	-88.6	2.8	7.76e-01	0	48	104	0	60	1048569
2026-01-18 14:40:21.18	240.60	22.07	-84.7	-88.6	3.0	7.75e-01	0	48	104	0	60	1048568
2026-01-18 14:40:22.19	240.83	22.14	-84.7	-88.6	2.9	7.75e-01	0	48	104	0	60	1048572
2026-01-18 14:40:23.19	241.07	22.21	-84.7	-88.6	3.1	7.76e-01	0	48	104	0	60	1048571
2026-01-18 14:40:24.20	241.30	22.28	-84.7	-88.6	2.8	7.77e-01	0	48	104	0	60	1048575
2026-01-18 14:40:25.21	241.54	22.35	-84.7	-88.6	3.3	7.77e-01	0	48	104	0	60	1048575
2026-01-18 14:40:26.22	241.78	22.43	-84.7	-88.6	3.2	7.77e-01	0	48	104	0	60	1048574
2026-01-18 14:40:27.22	242.01	22.50	-84.7	-88.6	3.3	7.77e-01	0	48	104	0	60	1048573
2026-01-18 14:40:28.23	242.25	22.57	-84.7	-88.6	2.5	7.77e-01	0	48	104	0	60	1048569
2026-01-18 14:40:29.24	242.49	22.64	-84.7	-88.6	2.9	7.77e-01	0	48	104	0	60	1048574
2026-01-18 14:40:30.25	242.74	22.71	-84.7	-88.6	2.7	7.77e-01	0	48	104	0	60	1048572
2026-01-18 14:40:31.25	242.98	22.78	-84.7	-88.6	3.0	7.78e-01	0	48	104	0	60	1048572
2026-01-18 14:40:32.25	243.22	22.85	-84.7	-88.6	3.0	7.77e-01	0	48	104	0	60	1048575
2026-01-18 14:40:33.26	243.47	22.92	-84.7	-88.6	3.0	7.77e-01	0	48	104	0	60	1048572
2026-01-18 14:40:34.26	243.71	22.98	-84.7	-88.6	3.0	7.78e-01	0	48	104	0	60	1048574
2026-01-18 14:40:35.27	243.96	23.05	-84.7	-88.6	3.3	7.76e-01	0	48	104	0	60	1048572
2026-01-18 14:40:36.28	244.21	23.12	-84.7	-88.6	3.0	7.76e-01	0	48	104	0	60	1048573
2026-01-18 14:40:37.29	244.46	23.19	-84.7	-88.6	2.8	7.75e-01	0	48	104	0	60	1048574
2026-01-18 14:40:38.29	244.70	23.25	-84.7	-88.6	2.9	7.75e-01	0	48	104	0	60	1048573
2026-01-18 14:40:39.30	244.96	23.32	-84.7	-88.6	3.0	7.75e-01	0	48	104	0	60	1048574
2026-01-18 14:40:40.31	245.21	23.39	-84.7	-88.6	2.6	7.76e-01	0	48	104	0	60	1048573
2026-01-18 14:40:41.32	245.46	23.45	-84.7	-88.6	3.2	7.74e-01	0	48	104	0	60	1048574
2026-01-18 14:40:42.32	245.72	23.52	-84.7	-88.6	2.9	7.76e-01	0	48	104	0	60	1048570
2026-01-18 14:40:43.33	245.97	23.58	-84.7	-88.6	2.9	7.78e-01	0	48	104	0	60	1048574
2026-01-18 14:40:44.34	246.23	23.65	-84.7	-88.6	3.1	7.76e-01	0	48	104	0	60	1048565
2026-01-18 14:40:45.35	246.49	23.71	-84.7	-88.6	2.9	7.76e-01	0	48	104	0	60	1048571
2026-01-18 14:40:46.36	246.75	23.78	-84.7	-88.6	3.0	7.76e-01	0	48	104	0	60	1048574
2026-01-18 14:40:47.36	247.00	23.84	-84.7	-88.6	2.9	7.77e-01	0	48	104	0	60	1048565
2026-01-18 14:40:48.37	247.26	23.90	-84.7	-88.6	3.1	7.75e-01	0	48	104	0	60	1048573
2026-01-18 14:40:49.38	247.53	23.97	-84.7	-88.6	3.3	7.77e-01	0	48	104	0	60	1048575
2026-01-18 14:40:50.38	247.79	24.03	-84.7	-88.6	2.8	7.77e-01	0	48	104	0	60	1048575
2026-01-18 14:40:51.39	248.05	24.09	-84.7	-88.6	3.0	7.76e-01	0	48	104	0	60	1048575
2026-01-18 14:40:52.39	248.31	24.15	-84.7	-88.6	3.0	7.76e-01	0	48	104	0	60	1048574
2026-01-18 14:40:53.40	248.58	24.21	-84.7	-88.6	3.0	7.77e-01	0	48	104	0	60	1048575
2026-01-18 14:40:54.41	248.85	24.27	-84.7	-88.6	3.2	7.76e-01	0	48	104	0	60	1048571
2026-01-18 14:40:55.41	249.11	24.33	-84.7	-88.6	2.7	7.76e-01	0	48	104	0	60	1048575
2026-01-18 14:40:56.42	249.38	24.39	-84.7	-88.6	3.1	7.73e-01	0	48	104	0	60	1048570
2026-01-18 14:40:57.42	249.65	24.45	-84.7	-88.6	3.5	7.78e-01	0	48	104	0	60	1048574
2026-01-18 14:40:58.43	249.92	24.51	-84.7	-88.6	2.8	7.76e-01	0	48	104	0	60	1048575
2026-01-18 14:40:59.43	250.19	24.56	-84.7	-88.6	3.1	7.76e-01	0	48	104	0	60	1048571
2026-01-18 14:41:00.44	250.46	24.62	-84.7	-88.6	3.0	7.75e-01	0	48	104	0	60	1048573
2026-01-18 14:41:01.45	250.74	24.68	-84.7	-88.6	3.1	7.76e-01	0	48	104	0	60	1048574
2026-01-18 14:41:02.46	251.01	24.73	-84.7	-88.6	3.4	7.76e-01	0	48	104	0	60	1048573
2026-01-18 14:41:03.46	251.29	24.79	-84.7	-88.6	2.9	7.77e-01	0	48	104	0	60	1048575
2026-01-18 14:41:04.47	251.56	24.84	-84.7	-88.6	3.4	7.76e-01	0	48	104	0	60	1048574
2026-01-18 14:41:05.48	251.84	24.90	-84.7	-88.6	2.8	7.76e-01	0	48	104	0	60	1048574
2026-01-18 14:41:06.49	252.12	24.95	-84.7	-88.6	3.1	7.76e-01	0	48	104	0	60	1048575
2026-01-18 14:41:07.50	252.40	25.00	-84.7	-88.6	3.2	7.76e-01	0	48	104	0	60	1048570
2026-01-18 14:41:08.51	252.68	25.06	-84.7	-88.6	2.8	7.77e-01	0	48	104	0	60	1048568
2026-01-18 14:41:09.51	252.96	25.11	-84.7	-88.6	2.9	7.76e-01	0	48	104	0	60	1048573
2026-01-18 14:41:10.51	253.24	25.16	-84.7	-88.6	3.4	7.75e-01	0	48	104	0	60	1048562
2026-01-18 14:41:11.52	253.52	25.21	-84.7	-88.6	2.9	7.77e-01	0	48	104	0	60	1048570
2026-01-18 14:41:12.53	253.81	25.26	-84.7	-88.6	3.3	7.70e-01	0	48	104	0	60	1048572
2026-01-18 14:41:13.53	254.09	25.31	-84.7	-88.6	2.8	7.76e-01	0	48	104	0	60	1048573
2026-01-18 14:41:14.54	254.37	25.36	-84.7	-88.6	3.1	7.78e-01	0	48	104	0	60	1048575
2026-01-18 14:41:15.55	254.66	25.41	-84.7	-88.6	2.9	7.76e-01	0	48	104	0	60	1048570
2026-01-18 14:41:16.56	254.95	25.45	-84.7	-88.6	2.9	7.75e-01	0	48	104	0	60	1048567
2026-01-18 14:41:17.56	255.23	25.50	-84.7	-88.6	2.9	7.77e-01	0	48	104	0	60	1048575
2026-01-18 14:41:18.57	255.52	25.55	-84.7	-88.6	3.1	7.76e-01	0	48	104	0	60	1048570
2026-01-18 14:41:19.58	255.81	25.59	-84.7	-88.6	3.4	7.76e-01	0	48	104	0	60	1048571
2026-01-18 14:41:20.59	256.10	25.64	-84.7	-88.6	2.5	7.77e-01	0	48	104	0	60	1048571
2026-01-18 14:41:21.59	256.39	25.68	-84.7	-88.6	2.7	7.77e-01	0	48	104	0	60	1048572
2026-01-18 14:41:22.60	256.69	25.72	-84.7	-88.6	3.2	7.76e-01	0	48	104	0	60	1048574
2026-01-18 14:41:23.60	256.98	25.77	-84.7	-88.6	3.1	7.76e-01	0	48	104	0	60	1048575
2026-01-18 14:41:24.60	257.27	25.81	-84.7	-88.6	2.9	7.77e-01	0	48	104	0	60	1048573
2026-01-18 14:41:25.61	257.56	25.85	-84.7	-88.6	2.4	7.76e-01	0	48	104	0	60	1048573
2026-01-18 14:41:26.62	257.86	25.89	-84.7	-88.6	3.3	7.76e-01	0	48	104	0	60	1048559
2026-01-18 14:41:27.63	258.15	25.93	-84.7	-88.6	2.7	7.75e-01	0	48	104	0	60	1048575
2026-01-18 14:41:28.63	258.45	25.97	-84.7	-88.6	3.0	7.76e-01	0	48	104	0	60	1048571
2026-01-18 14:41:29.64	258.75	26.01	-84.7	-88.6	2.7	7.76e-01	0	48	104	0	60	1048572
2026-01-18 14:41:30.64	259.04	26.04	-84.7	-88.6	3.3	7.77e-01	0	48	104	0	60	1048574
2026-01-18 14:41:31.65	259.34	26.08	-84.7	-88.6	3.0	7.76e-01	0	48	104	0	60	1048575
2026-01-18 14:41:32.65	259.64	26.12	-84.7	-88.6	2.9	7.77e-01	0	48	104	0	60	1048570
2026-01-18 14:41:33.66	259.94	26.15	-84.7	-88.6	2.9	7.75e-01	0	48	104	0	60	1048574
2026-01-18 14:41:34.67	260.24	26.19	-84.7	-88.6	2.9	7.77e-01	0	48	104	0	60	1048575
2026-01-18 14:41:35.68	260.54	26.22	-84.7	-88.6	3.5	7.76e-01	0	48	104	0	60	1048575
2026-01-18 14:41:36.69	260.84	26.25	-84.7	-88.6	3.1	7.77e-01	0	48	104	0	60	1048567
2026-01-18 14:41:37.69	261.14	26.28	-84.7	-88.6	3.1	7.76e-01	0	48	104	0	60	1048571
2026-01-18 14:41:38.70	261.45	26.32	-84.7	-88.6	3.1	7.76e-01	0	48	104	0	60	1048575
2026-01-18 14:41:39.71	261.75	26.35	-84.7	-88.6	3.0	7.77e-01	0	48	104	0	60	1048574
2026-01-18 14:41:40.72	262.05	26.38	-84.7	-88.6	3.2	7.76e-01	0	48	104	0	60	1048574
2026-01-18 14:41:41.72	262.36	26.40	-84.7	-88.6	2.9	7.77e-01	0	48	104	0	60	1048569
2026-01-18 14:41:42.73	262.66	26.43	-84.7	-88.6	2.6	7.76e-01	0	48	104	0	60	1048574
2026-01-18 14:41:43.74	262.97	26.46	-84.7	-88.6	3.4	7.76e-01	0	48	104	0	60	1048571
2026-01-18 14:41:44.74	263.27	26.49	-84.7	-88.6	2.9	7.77e-01	0	48	104	0	60	1048570
2026-01-18 14:41:45.74	263.58	26.51	-84.7	-88.6	3.0	7.76e-01	0	48	104	0	60	1048566
2026-01-18 14:41:46.75	263.88	26.54	-84.7	-88.6	2.8	7.76e-01	0	48	104	0	60	1048563
2026-01-18 14:41:47.76	264.19	26.56	-84.7	-88.6	3.1	7.76e-01	0	48	104	0	60	1048566
2026-01-18 14:41:48.76	264.50	26.58	-84.7	-88.6	3.1	7.77e-01	0	48	104	0	60	1048573
2026-01-18 14:41:49.77	264.81	26.61	-84.7	-88.6	3.0	7.77e-01	0	48	104	0	60	1048572
2026-01-18 14:41:50.77	265.11	26.63	-84.7	-88.6	2.9	7.76e-01	0	48	104	0	60	1048574
2026-01-18 14:41:51.78	265.42	26.65	-84.7	-88.6	3.1	7.77e-01	0	48	104	0	60	1048570
2026-01-18 14:41:52.78	265.73	26.67	-84.7	-88.6	3.0	7.77e-01	0	48	104	0	60	1048574
2026-01-18 14:41:53.79	266.04	26.69	-84.7	-88.6	3.1	7.77e-01	0	48	104	0	60	1048569
2026-01-18 14:41:54.79	266.35	26.70	-84.7	-88.6	2.5	7.78e-01	0	48	104	0	60	1048573
2026-01-18 14:41:55.80	266.66	26.72	-84.7	-88.6	3.0	7.76e-01	0	48	104	0	60	1048573
2026-01-18 14:41:56.81	266.97	26.74	-84.7	-88.6	2.5	7.76e-01	0	48	104	0	60	1048564
2026-01-18 14:41:57.82	267.28	26.75	-84.7	-88.6	3.2	7.74e-01	0	48	104	0	60	1048572
2026-01-18 14:41:58.82	267.59	26.77	-84.7	-88.6	3.1	7.78e-01	0	48	104	0	60	1048557
2026-01-18 14:41:59.83	267.90	26.78	-84.7	-88.6	3.1	7.76e-01	0	48	104	0	60	1048572
2026-01-18 14:42:00.83	268.21	26.79	-84.7	-88.6	3.1	7.76e-01	0	48	104	0	60	1048572
2026-01-18 14:42:01.84	268.52	26.80	-84.7	-88.6	3.4	7.76e-01	0	48	104	0	60	1048575
2026-01-18 14:42:02.85	268.84	26.81	-84.7	-88.6	3.1	7.76e-01	0	48	104	0	60	1048575
2026-01-18 14:42:03.86	269.15	26.82	-84.7	-88.6	2.4	7.77e-01	0	48	104	0	60	1048575
2026-01-18 14:42:04.86	269.46	26.83	-84.7	-88.6	2.8	7.70e-01	0	48	104	0	60	1048574
2026-01-18 14:42:05.87	269.77	26.84	-84.7	-88.6	3.0	7.78e-01	0	48	104	0	60	1048574
2026-01-18 14:42:06.88	270.09	26.85	-84.7	-88.6	3.0	7.76e-01	0	48	104	0	60	1048575
2026-01-18 14:42:07.89	270.40	26.86	-84.7	-88.6	3.0	7.76e-01	0	48	104	0	60	1048574
2026-01-18 14:42:08.90	270.72	26.86	-84.7	-88.6	2.6	7.75e-01	0	48	104	0	60	1048563
2026-01-18 14:42:09.90	271.03	26.87	-84.7	-88.6	3.0	7.77e-01	0	48	104	0	60	1048575
2026-01-18 14:42:10.91	271.34	26.87	-84.7	-88.6	3.2	7.77e-01	0	48	104	0	60	1048573
2026-01-18 14:42:11.92	271.66	26.87	-84.7	-88.6	2.9	7.76e-01	0	48	104	0	60	1048572
2026-01-18 14:42:12.93	271.97	26.87	-84.7	-88.6	3.4	7.77e-01	0	48	104	0	60	1048575
2026-01-18 14:42:13.94	272.28	26.88	-84.7	-88.6	3.0	7.76e-01	0	48	104	0	60	1048572
2026-01-18 14:42:14.95	272.60	26.88	-84.7	-88.6	3.0	7.76e-01	0	48	104	0	60	1048572
2026-01-18 14:42:15.96	272.91	26.87	-84.7	-88.6	3.5	7.77e-01	0	48	104	0	60	1048574
2026-01-18 14:42:16.96	273.22	26.87	-84.7	-88.6	3.0	7.75e-01	0	48	104	0	60	1048575
2026-01-18 14:42:17.97	273.54	26.87	-84.7	-88.6	2.9	7.76e-01	0	48	104	0	60	1048574
2026-01-18 14:42:18.98	273.85	26.87	-84.7	-88.6	3.2	7.76e-01	0	48	104	0	60	1048574
2026-01-18 14:42:19.99	274.16	26.86	-84.7	-88.6	2.9	7.76e-01	0	48	104	0	60	1048569
2026-01-18 14:42:21.00	274.48	26.86	-84.7	-88.6	3.3	7.75e-01	0	48	104	0	60	1048572
2026-01-18 14:42:22.00	274.79	26.85	-84.7	-88.6	3.1	7.77e-01	0	48	104	0	60	1048568
2026-01-18 14:42:23.01	275.10	26.84	-84.7	-88.6	2.9	7.76e-01	0	48	104	0	60	1048575
2026-01-18 14:42:24.02	275.42	26.84	-84.7	-88.6	2.6	7.76e-01	0	48	104	0	60	1048574
2026-01-18 14:42:25.03	275.73	26.83	-84.7	-88.6	3.1	7.77e-01	0	48	104	0	60	1048575
2026-01-18 14:42:26.04	276.04	26.82	-84.7	-88.6	2.7	7.76e-01	0	48	104	0	60	1048574
2026-01-18 14:42:27.04	276.35	26.81	-84.7	-88.6	3.0	7.75e-01	0	48	104	0	60	1048574
2026-01-18 14:42:28.05	276.67	26.79	-84.7	-88.6	3.1	7.76e-01	0	48	104	0	60	1048574
2026-01-18 14:42:29.06	276.98	26.78	-84.7	-88.6	3.4	7.77e-01	0	48	104	0	60	1048574
2026-01-18 14:42:30.07	277.29	26.77	-84.7	-88.6	2.9	7.77e-01	0	48	104	0	60	1048572
2026-01-18 14:42:31.07	277.60	26.75	-84.7	-88.6	3.4	7.76e-01	0	48	104	0	60	1048575
2026-01-18 14:42:32.08	277.91	26.74	-84.7	-88.6	3.3	7.77e-01	0	48	104	0	60	1048575
2026-01-18 14:42:33.08	278.22	26.72	-84.7	-88.6	2.9	7.78e-01	0	48	104	0	60	1048572
2026-01-18 14:42:34.09	278.53	26.71	-84.7	-88.6	2.7	7.74e-01	0	48	104	0	60	1048575
2026-01-18 14:42:35.10	278.84	26.69	-84.7	-88.6	3.4	7.75e-01	0	48	104	0	60	1048575
2026-01-18 14:42:36.11	279.15	26.67	-84.7	-88.6	3.3	7.76e-01	0	48	104	0	60	1048571
2026-01-18 14:42:37.12	279.46	26.65	-84.7	-88.6	3.4	7.75e-01	0	48	104	0	60	1048569
2026-01-18 14:42:38.12	279.77	26.63	-84.7	-88.6	3.1	7.76e-01	0	48	104	0	60	1048575
2026-01-18 14:42:39.13	280.08	26.61	-84.7	-88.6	2.8	7.75e-01	0	48	104	0	60	1048573
2026-01-18 14:42:40.14	280.38	26.59	-84.7	-88.6	3.1	7.76e-01	0	48	104	0	60	1048571
2026-01-18 14:42:41.15	280.69	26.57	-84.7	-88.6	2.9	7.75e-01	0	48	104	0	60	1048568
2026-01-18 14:42:42.15	281.00	26.54	-84.7	-88.6	3.1	7.76e-01	0	48	104	0	60	1048571
2026-01-18 14:42:43.16	281.31	26.52	-84.7	-88.6	2.7	7.75e-01	0	48	104	0	60	1048572
2026-01-18 14:42:44.16	281.61	26.49	-84.7	-88.6	3.3	7.76e-01	0	48	104	0	60	1048565
2026-01-18 14:42:45.17	281.92	26.47	-84.7	-88.6	2.5	7.76e-01	0	48	104	0	60	1048573
2026-01-18 14:42:46.18	282.22	26.44	-84.7	-88.6	3.1	7.73e-01	0	48	104	0	60	1048573
2026-01-18 14:42:47.18	282.52	26.41	-84.7	-88.6	3.1	7.75e-01	0	48	104	0	60	1048569
2026-01-18 14:42:48.19	282.83	26.38	-84.7	-88.6	3.1	7.77e-01	0	48	104	0	60	1048557
2026-01-18 14:42:49.19	283.13	26.35	-84.7	-88.6	2.8	7.78e-01	0	48	104	0	60	1048574
2026-01-18 14:42:50.20	283.43	26.32	-84.7	-88.6	3.0	7.76e-01	0	48	104	0	60	1048573
2026-01-18 14:42:51.20	283.73	26.29	-84.7	-88.6	3.0	7.77e-01	0	48	104	0	60	1048571
2026-01-18 14:42:52.21	284.04	26.26	-84.7	-88.6	3.5	7.76e-01	0	48	104	0	60	1048571
2026-01-18 14:42:53.22	284.34	26.23	-84.7	-88.6	3.5	7.75e-01	0	48	104	0	60	1048575
2026-01-18 14:42:54.23	284.64	26.19	-84.7	-88.6	2.8	7.76e-01	0	48	104	0	60	1048574
2026-01-18 14:42:55.23	284.94	26.16	-84.7	-88.6	3.4	7.78e-01	0	48	104	0	60	1048575
2026-01-18 14:42:56.24	285.24	26.13	-84.7	-88.6	2.9	7.78e-01	0	48	104	0	60	1048574
2026-01-18 14:42:57.25	285.54	26.09	-84.7	-88.6	3.0	7.77e-01	0	48	104	0	60	1048575
2026-01-18 14:42:58.26	285.84	26.05	-84.7	-88.6	3.0	7.76e-01	0	48	104	0	60	1048571
2026-01-18 14:42:59.26	286.13	26.02	-84.7	-88.6	2.8	7.77e-01	0	48	104	0	60	1048571
2026-01-18 14:43:00.27	286.43	25.98	-84.7	-88.6	2.8	7.76e-01	0	48	104	0	60	1048575
2026-01-18 14:43:01.27	286.72	25.94	-84.7	-88.6	3.1	7.76e-01	0	48	104	0	60	1048574
2026-01-18 14:43:02.28	287.02	25.90	-84.7	-88.6	2.3	7.76e-01	0	48	104	0	60	1048575
2026-01-18 14:43:03.29	287.31	25.86	-84.7	-88.6	3.4	7.77e-01	0	48	104	0	60	1048572
2026-01-18 14:43:04.29	287.60	25.82	-84.7	-88.6	3.0	7.77e-01	0	48	104	0	60	1048573
2026-01-18 14:43:05.30	287.90	25.78	-84.7	-88.6	3.1	7.77e-01	0	48	104	0	60	1048572
2026-01-18 14:43:06.30	288.19	25.74	-84.7	-88.6	2.8	7.76e-01	0	48	104	0	60	1048569
2026-01-18 14:43:07.30	288.48	25.69	-84.7	-88.6	2.7	7.76e-01	0	48	104	0	60	1048574
2026-01-18 14:43:08.31	288.77	25.65	-84.7	-88.6	3.2	7.77e-01	0	48	104	0	60	1048572
2026-01-18 14:43:09.32	289.06	25.60	-84.7	-88.6	3.5	7.77e-01	0	48	104	0	60	1048572
2026-01-18 14:43:10.33	289.35	25.56	-84.7	-88.6	3.2	7.77e-01	0	48	104	0	60	1048573
2026-01-18 14:43:11.34	289.64	25.51	-84.7	-88.6	1.7	7.77e-01	0	48	104	0	60	1048572
2026-01-18 14:43:12.34	289.92	25.47	-84.7	-88.6	2.8	7.77e-01	0	48	104	0	60	1048575
2026-01-18 14:43:13.35	290.21	25.42	-84.7	-88.6	3.0	7.77e-01	0	48	104	0	60	1048575
2026-01-18 14:43:14.36	290.50	25.37	-84.7	-88.6	3.3	7.77e-01	0	48	104	0	60	1048575
2026-01-18 14:43:15.37	290.78	25.32	-84.7	-88.6	3.3	7.75e-01	0	48	104	0	60	1048575
2026-01-18 14:43:16.38	291.07	25.27	-84.7	-88.6	3.3	7.75e-01	0	48	104	0	60	1048572
2026-01-18 14:43:17.38	291.35	25.22	-84.7	-88.6	2.8	7.76e-01	0	48	104	0	60	1048575
2026-01-18 14:43:18.39	291.63	25.17	-84.7	-88.6	2.8	7.76e-01	0	48	104	0	60	1048560
2026-01-18 14:43:19.40	291.91	25.12	-84.7	-88.6	2.8	7.77e-01	0	48	104	0	60	1048572
2026-01-18 14:43:20.41	292.19	25.07	-84.7	-88.6	2.9	7.77e-01	0	48	104	0	60	1048575
2026-01-18 14:43:21.41	292.47	25.02	-84.7	-88.6	2.6	7.77e-01	0	48	104	0	60	1048574
2026-01-18 14:43:22.41	292.75	24.97	-84.7	-88.6	2.8	7.75e-01	0	48	104	0	60	1048565
2026-01-18 14:43:23.42	293.03	24.91	-84.7	-88.6	3.5	7.78e-01	0	48	104	0	60	1048575
2026-01-18 14:43:24.42	293.30	24.86	-84.7	-88.6	3.0	7.77e-01	0	48	104	0	60	1048569
2026-01-18 14:43:25.42	293.57	24.81	-84.7	-88.6	3.3	7.77e-01	0	48	104	0	60	1048575
2026-01-18 14:43:26.43	293.85	24.75	-84.7	-88.6	3.2	7.77e-01	0	48	104	0	60	1048571
2026-01-18 14:43:27.44	294.12	24.70	-84.7	-88.6	3.1	7.77e-01	0	48	104	0	60	1048569
2026-01-18 14:43:28.44	294.40	24.64	-84.7	-88.6	2.8	7.77e-01	0	48	104	0	60	1048575
2026-01-18 14:43:29.45	294.67	24.58	-84.7	-88.6	2.9	7.76e-01	0	48	104	0	60	1048575
2026-01-18 14:43:30.45	294.94	24.53	-84.7	-88.6	3.2	7.78e-01	0	48	104	0	60	1048571
2026-01-18 14:43:31.46	295.21	24.47	-84.7	-88.6	2.8	7.76e-01	0	48	104	0	60	1048575
2026-01-18 14:43:32.46	295.48	24.41	-84.7	-88.6	1.6	7.78e-01	0	48	104	0	60	1048575
2026-01-18 14:43:33.48	295.75	24.35	-84.7	-88.6	3.0	7.76e-01	0	48	104	0	60	1048574
2026-01-18 14:43:34.48	296.01	24.29	-84.7	-88.6	2.9	7.77e-01	0	48	104	0	60	1048573
2026-01-18 14:43:35.49	296.28	24.23	-84.7	-88.6	2.9	7.77e-01	0	48	104	0	60	1048572
2026-01-18 14:43:36.50	296.54	24.17	-84.7	-88.6	2.7	7.76e-01	0	48	104	0	60	1048574
2026-01-18 14:43:37.50	296.81	24.11	-84.7	-88.6	3.2	7.76e-01	0	48	104	0	60	1048575
2026-01-18 14:43:38.51	297.07	24.05	-84.7	-88.6	3.5	7.76e-01	0	48	104	0	60	1048575
2026-01-18 14:43:39.52	297.33	23.99	-84.7	-88.6	2.6	7.77e-01	0	48	104	0	60	1048568
2026-01-18 14:43:40.52	297.59	23.93	-84.7	-88.6	2.8	7.77e-01	0	48	104	0	60	1048574
2026-01-18 14:43:41.53	297.85	23.86	-84.7	-88.6	3.0	7.77e-01	0	48	104	0	60	1048573
2026-01-18 14:43:42.54	298.11	23.80	-84.7	-88.6	2.6	7.77e-01	0	48	104	0	60	1048574
2026-01-18 14:43:43.55	298.37	23.74	-84.7	-88.6	3.2	7.76e-01	0	48	104	0	60	1048573
2026-01-18 14:43:44.56	298.63	23.67	-84.7	-88.6	3.4	7.77e-01	0	48	104	0	60	1048574
2026-01-18 14:43:45.57	298.89	23.61	-84.7	-88.6	3.0	7.77e-01	0	48	104	0	60	1048574
2026-01-18 14:43:46.57	299.14	23.54	-84.7	-88.6	2.6	7.77e-01	0	48	104	0	60	1048573
2026-01-18 14:43:47.58	299.39	23.48	-84.7	-88.6	2.7	7.77e-01	0	48	104	0	60	1048572
2026-01-18 14:43:48.59	299.65	23.41	-84.7	-88.6	3.0	7.76e-01	0	48	104	0	60	1048573
2026-01-18 14:43:49.59	299.90	23.35	-84.7	-88.6	3.0	7.76e-01	0	48	104	0	60	1048570
2026-01-18 14:43:50.60	300.15	23.28	-84.7	-88.6	2.9	7.76e-01	0	48	104	0	60	1048568
2026-01-18 14:43:51.61	300.40	23.21	-84.7	-88.6	3.0	7.77e-01	0	48	104	0	60	1048571
2026-01-18 14:43:52.61	300.65	23.15	-84.7	-88.6	3.0	7.76e-01	0	48	104	0	60	1048569
2026-01-18 14:43:53.62	300.89	23.08	-84.7	-88.6	3.6	7.77e-01	0	48	104	0	60	1048575
2026-01-18 14:43:54.63	301.14	23.01	-84.7	-88.6	3.0	7.77e-01	0	48	104	0	60	1048574
2026-01-18 14:43:55.63	301.38	22.94	-84.7	-88.6	3.0	7.77e-01	0	48	104	0	60	1048562
2026-01-18 14:43:56.64	301.63	22.88	-84.7	-88.6	3.0	7.77e-01	0	48	104	0	60	1048568
2026-01-18 14:43:57.65	301.87	22.81	-84.7	-88.6	3.1	7.76e-01	0	48	104	0	60	1048569
2026-01-18 14:43:58.66	302.12	22.74	-84.7	-88.6	3.4	7.76e-01	0	48	104	0	60	1048575
2026-01-18 14:43:59.67	302.36	22.67	-84.7	-88.6	3.1	7.77e-01	0	48	104	0	60	1048547
2026-01-18 14:44:00.68	302.60	22.60	-84.7	-88.6	3.5	7.75e-01	0	48	104	0	60	1048575
2026-01-18 14:44:01.68	302.84	22.53	-84.7	-88.6	3.1	7.77e-01	0	48	104	0	60	1048574
2026-01-18 14:44:02.69	303.08	22.46	-84.7	-88.6	3.5	7.77e-01	0	48	104	0	60	1048572
2026-01-18 14:44:03.70	303.31	22.39	-84.7	-88.6	2.8	7.78e-01	0	48	104	0	60	1048575
2026-01-18 14:44:04.71	303.55	22.31	-84.7	-88.6	3.2	7.77e-01	0	48	104	0	60	1048574
2026-01-18 14:44:05.72	303.79	22.24	-84.7	-88.6	3.0	7.77e-01	0	48	104	0	60	1048572
2026-01-18 14:44:06.72	304.02	22.17	-84.7	-88.6	2.8	7.77e-01	0	48	104	0	60	1048572
2026-01-18 14:44:07.73	304.25	22.10	-84.7	-88.6	3.3	7.77e-01	0	48	104	0	60	1048571
2026-01-18 14:44:08.73	304.48	22.03	-84.7	-88.6	2.9	7.77e-01	0	48	104	0	60	1048566
2026-01-18 14:44:09.74	304.71	21.96	-84.7	-88.6	3.0	7.77e-01	0	48	104	0	60	1048574
2026-01-18 14:44:10.74	304.94	21.88	-84.7	-88.6	3.0	7.76e-01	0	48	104	0	60	1048572
2026-01-18 14:44:11.75	305.17	21.81	-84.7	-88.6	3.0	7.78e-01	0	48	104	0	60	1048572
2026-01-18 14:44:12.76	305.40	21.74	-84.7	-88.6	2.7	7.76e-01	0	48	104	0	60	1048570
2026-01-18 14:44:13.76	305.62	21.66	-84.7	-88.6	2.8	7.77e-01	0	48	104	0	60	1048573
2026-01-18 14:44:14.77	305.85	21.59	-84.7	-88.6	2.8	7.76e-01	0	48	104	0	60	1048574
2026-01-18 14:44:15.77	306.07	21.52	-84.7	-88.6	2.9	7.78e-01	0	48	104	0	60	1048573
2026-01-18 14:44:16.78	306.30	21.44	-84.7	-88.6	3.0	7.77e-01	0	48	104	0	60	1048574
2026-01-18 14:44:17.79	306.52	21.37	-84.7	-88.6	3.0	7.76e-01	0	48	104	0	60	1048574
2026-01-18 14:44:18.80	306.74	21.29	-84.7	-88.6	3.0	7.76e-01	0	48	104	0	60	1048567
2026-01-18 14:44:19.80	306.96	21.22	-84.7	-88.6	3.0	7.77e-01	0	48	104	0	60	1048574
2026-01-18 14:44:20.81	307.18	21.14	-84.7	-88.6	2.9	7.78e-01	0	48	104	0	60	1048573
2026-01-18 14:44:21.82	307.40	21.07	-84.7	-88.6	3.6	7.75e-01	0	48	104	0	60	1048574
2026-01-18 14:44:22.83	307.62	20.99	-84.7	-88.6	3.1	7.77e-01	0	48	104	0	60	1048574
2026-01-18 14:44:23.84	307.83	20.92	-84.7	-88.6	3.4	7.77e-01	0	48	104	0	60	1048564
2026-01-18 14:44:24.84	308.05	20.84	-84.7	-88.6	2.9	7.76e-01	0	48	104	0	60	1048571
2026-01-18 14:44:25.85	308.26	20.77	-84.7	-88.6	2.6	7.75e-01	0	48	104	0	60	1048573
2026-01-18 14:44:26.86	308.47	20.69	-84.7	-88.6	3.5	7.77e-01	0	48	104	0	60	1048565
2026-01-18 14:44:27.87	308.69	20.61	-84.7	-88.6	3.1	7.76e-01	0	48	104	0	60	1048572
2026-01-18 14:44:28.88	308.90	20.54	-84.7	-88.6	2.9	7.76e-01	0	48	104	0	60	1048573
2026-01-18 14:44:29.88	309.11	20.46	-84.7	-88.6	3.4	7.77e-01	0	48	104	0	60	1048574
2026-01-18 14:44:30.89	309.32	20.39	-84.7	-88.6	3.0	7.77e-01	0	48	104	0	60	1048575
2026-01-18 14:44:31.90	309.52	20.31	-84.7	-88.6	2.6	7.76e-01	0	48	104	0	60	1048574
2026-01-18 14:44:32.90	309.73	20.23	-84.7	-88.6	3.6	7.77e-01	0	48	104	0	60	1048575
2026-01-18 14:44:33.91	309.94	20.16	-84.7	-88.6	3.1	7.76e-01	0	48	104	0	60	1048569
2026-01-18 14:44:34.92	310.14	20.08	-84.7	-88.6	3.0	7.77e-01	0	48	104	0	60	1048575
2026-01-18 14:44:35.93	310.35	20.00	-84.7	-88.6	3.0	7.77e-01	0	48	104	0	60	1048571
2026-01-18 14:44:36.94	310.55	19.92	-84.7	-88.6	2.9	7.74e-01	0	48	104	0	60	1048574
2026-01-18 14:44:37.95	310.75	19.85	-84.7	-88.6	2.8	7.76e-01	0	48	104	0	60	1048565
2026-01-18 14:44:38.96	310.95	19.77	-84.7	-88.6	2.5	7.76e-01	0	48	104	0	60	1048571
2026-01-18 14:44:39.96	311.15	19.69	-84.7	-88.6	2.8	7.77e-01	0	48	104	0	60	1048573
2026-01-18 14:44:40.97	311.35	19.61	-84.7	-88.6	3.0	7.77e-01	0	48	104	0	60	1048574
2026-01-18 14:44:41.98	311.55	19.53	-84.7	-88.6	2.9	7.77e-01	0	48	104	0	60	1048569
2026-01-18 14:44:42.98	311.74	19.46	-84.7	-88.6	2.7	7.77e-01	0	48	104	0	60	1048573
2026-01-18 14:44:43.98	311.94	19.38	-84.7	-88.6	3.2	7.76e-01	0	48	104	0	60	1048574
2026-01-18 14:44:44.99	312.13	19.30	-84.7	-88.6	3.0	7.76e-01	0	48	104	0	60	1048567
2026-01-18 14:44:46.00	312.33	19.22	-84.7	-88.6	3.4	7.76e-01	0	48	104	0	60	1048571
2026-01-18 14:44:47.01	312.52	19.15	-84.7	-88.6	3.1	7.78e-01	0	48	104	0	60	1048574
2026-01-18 14:44:48.02	312.72	19.07	-84.7	-88.6	2.8	7.77e-01	0	48	104	0	60	1048575
2026-01-18 14:44:49.02	312.90	18.99	-84.7	-88.6	3.0	7.76e-01	0	48	104	0	60	1048574
2026-01-18 14:44:50.03	313.10	18.91	-84.7	-88.6	2.7	7.75e-01	0	48	104	0	60	1048575
2026-01-18 14:44:51.04	313.29	18.83	-84.7	-88.6	2.5	7.75e-01	0	48	104	0	60	1048573
2026-01-18 14:44:52.05	313.47	18.75	-84.7	-88.6	2.9	7.75e-01	0	48	104	0	60	1048570
2026-01-18 14:44:53.06	313.66	18.67	-84.7	-88.6	3.2	7.77e-01	0	48	104	0	60	1048574
2026-01-18 14:44:54.06	313.85	18.60	-84.7	-88.6	2.9	7.77e-01	0	48	104	0	60	1048569
2026-01-18 14:44:55.07	314.03	18.52	-84.7	-88.6	2.9	7.77e-01	0	48	104	0	60	1048571
2026-01-18 14:44:56.08	314.22	18.44	-84.7	-88.6	3.1	7.77e-01	0	48	104	0	60	1048567
2026-01-18 14:44:57.09	314.40	18.36	-84.7	-88.6	3.2	7.76e-01	0	48	104	0	60	1048575
2026-01-18 14:44:58.09	314.58	18.28	-84.7	-88.6	2.7	7.76e-01	0	48	104	0	60	1048566
2026-01-18 14:44:59.10	314.77	18.20	-84.7	-88.6	2.4	7.76e-01	0	48	104	0	60	1048574
2026-01-18 14:45:00.11	314.95	18.12	-84.7	-88.6	3.0	7.76e-01	0	48	104	0	60	1048572
2026-01-18 14:45:01.11	315.13	18.05	-84.7	-88.6	2.8	7.77e-01	0	48	104	0	60	1048572
2026-01-18 14:45:02.12	315.31	17.97	-84.7	-88.6	3.0	7.76e-01	0	48	104	0	60	1048575
2026-01-18 14:45:03.13	315.48	17.89	-84.7	-88.6	2.6	7.76e-01	0	48	104	0	60	1048573
2026-01-18 14:45:04.13	315.66	17.81	-84.7	-88.6	3.2	7.76e-01	0	48	104	0	60	1048570
2026-01-18 14:45:05.14	315.84	17.73	-84.7	-88.6	2.6	7.76e-01	0	48	104	0	60	1048575
2026-01-18 14:45:06.15	316.01	17.65	-84.7	-88.6	2.9	7.77e-01	0	48	104	0	60	1048574
2026-01-18 14:45:07.16	316.19	17.57	-84.7	-88.6	2.8	7.76e-01	0	48	104	0	60	1048570
2026-01-18 14:45:08.16	316.36	17.50	-84.7	-88.6	2.8	7.76e-01	0	48	104	0	60	1048567
2026-01-18 14:45:09.17	316.53	17.42	-84.7	-88.6	3.3	7.77e-01	0	48	104	0	60	1048574
2026-01-18 14:45:10.18	316.71	17.34	-84.7	-88.6	3.4	7.75e-01	0	48	104	0	60	1048570
2026-01-18 14:45:11.19	316.88	17.26	-84.7	-88.6	2.6	7.76e-01	0	48	104	0	60	1048574
2026-01-18 14:45:12.20	317.05	17.18	-84.7	-88.6	3.0	7.76e-01	0	48	104	0	60	1048569
2026-01-18 14:45:13.20	317.22	17.10	-84.7	-88.6	3.2	7.76e-01	0	48	104	0	60	1048574
2026-01-18 14:45:14.21	317.38	17.02	-84.7	-88.6	2.7	7.76e-01	0	48	104	0	60	1048575
2026-01-18 14:45:15.22	317.55	16.94	-84.7	-88.6	3.2	7.75e-01	0	48	104	0	60	1048575
2026-01-18 14:45:16.23	317.72	16.87	-84.7	-88.6	3.0	7.77e-01	0	48	104	0	60	1048575
2026-01-18 14:45:17.23	317.88	16.79	-84.7	-88.6	2.8	7.77e-01	0	48	104	0	60	1048570
2026-01-18 14:45:18.24	318.05	16.71	-84.7	-88.6	3.0	7.76e-01	0	48	104	0	60	1048575
2026-01-18 14:45:19.25	318.21	16.63	-84.7	-88.6	2.5	7.73e-01	0	48	104	0	60	1048567
2026-01-18 14:45:20.25	318.38	16.55	-84.7	-88.6	2.9	7.76e-01	0	48	104	0	60	1048571
2026-01-18 14:45:21.26	318.54	16.47	-84.7	-88.6	2.9	7.76e-01	0	48	104	0	60	1048573
2026-01-18 14:45:22.27	318.70	16.39	-84.7	-88.6	3.3	7.76e-01	0	48	104	0	60	1048571
2026-01-18 14:45:23.28	318.86	16.32	-84.7	-88.6	3.0	7.76e-01	0	48	104	0	60	1048574
2026-01-18 14:45:24.28	319.02	16.24	-84.7	-88.6	2.5	7.78e-01	0	48	104	0	60	1048575
2026-01-18 14:45:25.29	319.18	16.16	-84.7	-88.6	2.8	7.76e-01	0	48	104	0	60	1048575
2026-01-18 14:45:26.30	319.34	16.08	-84.7	-88.6	3.3	7.77e-01	0	48	104	0	60	1048572
2026-01-18 14:45:27.31	319.50	16.00	-84.7	-88.6	3.1	7.76e-01	0	48	104	0	60	1048569
2026-01-18 14:45:28.32	319.66	15.92	-84.7	-88.6	2.9	7.77e-01	0	48	104	0	60	1048571
2026-01-18 14:45:29.32	319.81	15.85	-84.7	-88.6	3.5	7.74e-01	0	48	104	0	60	1048575
2026-01-18 14:45:30.33	319.97	15.77	-84.7	-88.6	2.9	7.77e-01	0	48	104	0	60	1048572
2026-01-18 14:45:31.34	320.12	15.69	-84.7	-88.6	3.1	7.77e-01	0	48	104	0	60	1048569
2026-01-18 14:45:32.34	320.28	15.61	-84.7	-88.6	3.4	7.76e-01	0	48	104	0	60	1048570
2026-01-18 14:45:33.35	320.43	15.54	-84.7	-88.6	3.5	7.76e-01	0	48	104	0	60	1048568
2026-01-18 14:45:34.36	320.58	15.46	-84.7	-88.6	2.9	7.76e-01	0	48	104	0	60	1048574
2026-01-18 14:45:35.36	320.73	15.38	-84.7	-88.6	2.9	7.76e-01	0	48	104	0	60	1048575
2026-01-18 14:45:36.37	320.88	15.30	-84.7	-88.6	3.1	7.75e-01	0	48	104	0	60	1048570
2026-01-18 14:45:37.37	321.03	15.23	-84.7	-88.6	3.1	7.77e-01	0	48	104	0	60	1048575
2026-01-18 14:45:38.38	321.18	15.15	-84.7	-88.6	3.1	7.75e-01	0	48	104	0	60	1048574
2026-01-18 14:45:39.39	321.33	15.07	-84.7	-88.6	2.6	7.75e-01	0	48	104	0	60	1048574
2026-01-18 14:45:40.40	321.48	14.99	-84.7	-88.6	2.7	7.76e-01	0	48	104	0	60	1048570
2026-01-18 14:45:41.41	321.63	14.91	-84.7	-88.6	3.2	7.75e-01	0	48	104	0	60	1048571
2026-01-18 14:45:42.42	321.77	14.84	-84.7	-88.6	3.0	7.75e-01	0	48	104	0	60	1048569
2026-01-18 14:45:43.43	321.92	14.76	-84.7	-88.6	2.9	7.76e-01	0	48	104	0	60	1048573
2026-01-18 14:45:44.44	322.06	14.68	-84.7	-88.6	3.1	7.79e-01	0	48	104	0	60	1048574
2026-01-18 14:45:45.44	322.21	14.61	-84.7	-88.6	3.1	7.77e-01	0	48	104	0	60	1048575
2026-01-18 14:45:46.45	322.35	14.53	-84.7	-88.6	3.3	7.77e-01	0	48	104	0	60	1048568
2026-01-18 14:45:47.46	322.49	14.45	-84.7	-88.6	3.2	7.78e-01	0	48	104	0	60	1048566
2026-01-18 14:45:48.47	322.64	14.38	-84.7	-88.6	3.0	7.77e-01	0	48	104	0	60	1048573
2026-01-18 14:45:49.47	322.78	14.30	-84.7	-88.6	2.8	7.77e-01	0	48	104	0	60	1048568
2026-01-18 14:45:50.48	322.92	14.22	-84.7	-88.6	3.1	7.76e-01	0	48	104	0	60	1048569
2026-01-18 14:45:51.48	323.06	14.15	-84.7	-88.6	3.0	7.76e-01	0	48	104	0	60	1048574
2026-01-18 14:45:52.49	323.20	14.07	-84.7	-88.6	3.1	7.78e-01	0	48	104	0	60	1048575
2026-01-18 14:45:53.50	323.33	13.99	-84.7	-88.6	3.3	7.73e-01	0	48	104	0	60	1048575
2026-01-18 14:45:54.50	323.47	13.92	-84.7	-88.6	2.7	7.78e-01	0	48	104	0	60	1048574
2026-01-18 14:45:55.50	323.61	13.84	-84.7	-88.6	3.3	7.77e-01	0	48	104	0	60	1048575
2026-01-18 14:45:56.51	323.74	13.77	-84.7	-88.6	3.2	7.76e-01	0	48	104	0	60	1048574
2026-01-18 14:45:57.52	323.88	13.69	-84.7	-88.6	3.0	7.77e-01	0	48	104	0	60	1048574
2026-01-18 14:45:58.53	324.02	13.61	-84.7	-88.6	2.8	7.76e-01	0	48	104	0	60	1048570
2026-01-18 14:45:59.54	324.15	13.54	-84.7	-88.6	3.3	7.77e-01	0	48	104	0	60	1048573
2026-01-18 14:46:00.55	324.28	13.46	-84.7	-88.6	2.9	7.76e-01	0	48	104	0	60	1048575
2026-01-18 14:46:01.56	324.42	13.39	-84.7	-88.6	2.9	7.76e-01	0	48	104	0	60	1048574
2026-01-18 14:46:02.57	324.55	13.31	-84.7	-88.6	3.3	7.77e-01	0	48	104	0	60	1048573
2026-01-18 14:46:03.57	324.68	13.24	-84.7	-88.6	3.0	7.76e-01	0	48	104	0	60	1048568
2026-01-18 14:46:04.58	324.81	13.16	-84.7	-88.6	3.0	7.77e-01	0	48	104	0	60	1048574
2026-01-18 14:46:05.59	324.94	13.09	-84.7	-88.6	3.2	7.77e-01	0	48	104	0	60	1048563
2026-01-18 14:46:06.60	325.07	13.01	-84.7	-88.6	2.7	7.76e-01	0	48	104	0	60	1048575
2026-01-18 14:46:07.60	325.20	12.94	-84.7	-88.6	3.6	7.76e-01	0	48	104	0	60	1048575
2026-01-18 14:46:08.60	325.33	12.86	-84.7	-88.6	3.1	7.78e-01	0	48	104	0	60	1048573
2026-01-18 14:46:09.61	325.46	12.79	-84.7	-88.6	2.8	7.77e-01	0	48	104	0	60	1048574
2026-01-18 14:46:10.61	325.59	12.71	-84.7	-88.6	2.8	7.77e-01	0	48	104	0	60	1048574
2026-01-18 14:46:11.62	325.71	12.64	-84.7	-88.6	3.0	7.74e-01	0	48	104	0	60	1048575
2026-01-18 14:46:12.63	325.84	12.56	-84.7	-88.6	3.0	7.77e-01	0	48	104	0	60	1048570
2026-01-18 14:46:13.64	325.96	12.49	-84.7	-88.6	3.1	7.76e-01	0	48	104	0	60	1048573
2026-01-18 14:46:14.64	326.09	12.41	-84.7	-88.6	2.8	7.77e-01	0	48	104	0	60	1048573
2026-01-18 14:46:15.65	326.21	12.34	-84.7	-88.6	3.2	7.78e-01	0	48	104	0	60	1048574
2026-01-18 14:46:16.66	326.34	12.27	-84.7	-88.6	2.9	7.77e-01	0	48	104	0	60	1048572
2026-01-18 14:46:17.67	326.46	12.19	-84.7	-88.6	3.1	7.77e-01	0	48	104	0	60	1048574
2026-01-18 14:46:18.68	326.58	12.12	-84.7	-88.6	3.3	7.76e-01	0	48	104	0	60	1048568
2026-01-18 14:46:19.69	326.71	12.04	-84.7	-88.6	2.7	7.77e-01	0	48	104	0	60	1048574
2026-01-18 14:46:20.69	326.83	11.97	-84.7	-88.6	3.1	7.78e-01	0	48	104	0	60	1048575
2026-01-18 14:46:21.70	326.95	11.90	-84.7	-88.6	2.9	7.76e-01	0	48	104	0	60	1048568
2026-01-18 14:46:22.71	327.07	11.82	-84.7	-88.6	3.0	7.76e-01	0	48	104	0	60	1048574
2026-01-18 14:46:23.71	327.19	11.75	-84.7	-88.6	2.7	7.75e-01	0	48	104	0	60	1048574
2026-01-18 14:46:24.72	327.31	11.68	-84.7	-88.6	3.1	7.76e-01	0	48	104	0	60	1048575
2026-01-18 14:46:25.73	327.42	11.60	-84.7	-88.6	3.3	7.76e-01	0	48	104	0	60	1048573
2026-01-18 14:46:26.73	327.54	11.53	-84.7	-88.6	3.0	7.77e-01	0	48	104	0	60	1048575
2026-01-18 14:46:27.74	327.66	11.46	-84.7	-88.6	3.0	7.76e-01	0	48	104	0	60	1048575
2026-01-18 14:46:28.74	327.78	11.39	-84.7	-88.6	2.8	7.78e-01	0	48	104	0	60	1048566
2026-01-18 14:46:29.75	327.89	11.31	-84.7	-88.6	2.6	7.75e-01	0	48	104	0	60	1048569
2026-01-18 14:46:30.76	328.01	11.24	-84.7	-88.6	3.3	7.77e-01	0	48	104	0	60	1048570
2026-01-18 14:46:31.76	328.12	11.17	-84.7	-88.6	3.4	7.77e-01	0	48	104	0	60	1048574
2026-01-18 14:46:32.77	328.24	11.10	-84.7	-88.6	3.3	7.76e-01	0	48	104	0	60	1048574
2026-01-18 14:46:33.78	328.35	11.03	-84.7	-88.6	2.9	7.76e-01	0	48	104	0	60	1048572
2026-01-18 14:46:34.79	328.47	10.95	-84.7	-88.6	2.9	7.77e-01	0	48	104	0	60	1048572
2026-01-18 14:46:35.80	328.58	10.88	-84.7	-88.6	3.0	7.75e-01	0	48	104	0	60	1048575
2026-01-18 14:46:36.81	328.69	10.81	-84.7	-88.6	2.8	7.76e-01	0	48	104	0	60	1048572
2026-01-18 14:46:37.81	328.80	10.74	-84.7	-88.6	2.9	7.76e-01	0	48	104	0	60	1048574
2026-01-18 14:46:38.82	328.92	10.67	-84.7	-88.6	2.7	7.76e-01	0	48	104	0	60	1048569
2026-01-18 14:46:39.82	329.03	10.60	-84.7	-88.6	3.2	7.76e-01	0	48	104	0	60	1048575
2026-01-18 14:46:40.82	329.13	10.53	-84.7	-88.6	3.1	7.77e-01	0	48	104	0	60	1048574
2026-01-18 14:46:41.82	329.24	10.45	-84.7	-88.6	2.9	7.77e-01	0	48	104	0	60	1048568
2026-01-18 14:46:42.83	329.35	10.38	-84.7	-88.6	3.1	7.76e-01	0	48	104	0	60	1048566
2026-01-18 14:46:43.83	329.46	10.31	-84.7	-88.6	3.1	7.74e-01	0	48	104	0	60	1048569
2026-01-18 14:46:44.84	329.57	10.24	-84.7	-88.6	3.3	7.77e-01	0	48	104	0	60	1048570
2026-01-18 14:46:45.85	329.68	10.17	-84.7	-88.6	2.9	7.78e-01	0	48	104	0	60	1048575
2026-01-18 14:46:46.85	329.79	10.10	-84.7	-88.6	2.5	7.76e-01	0	48	104	0	60	1048575
2026-01-18 14:46:47.86	329.89	10.03	-84.7	-88.6	3.3	7.77e-01	0	48	104	0	60	1048573
2026-01-18 14:46:48.87	330.00	9.96	-84.7	-88.6	2.5	7.77e-01	0	48	104	0	60	1048564
2026-01-18 14:46:49.88	330.11	9.89	-84.7	-88.6	2.7	7.76e-01	0	48	104	0	60	1048575
2026-01-18 14:46:50.88	330.21	9.82	-84.7	-88.6	2.9	7.75e-01	0	48	104	0	60	1048575
2026-01-18 14:46:51.89	330.32	9.75	-84.7	-88.6	2.9	7.72e-01	0	48	104	0	60	1048572
2026-01-18 14:46:52.90	330.42	9.68	-84.7	-88.6	3.4	7.77e-01	0	48	104	0	60	1048573
2026-01-18 14:46:53.91	330.52	9.61	-84.7	-88.6	3.1	7.77e-01	0	48	104	0	60	1048573
2026-01-18 14:46:54.91	330.63	9.54	-84.7	-88.6	2.7	7.75e-01	0	48	104	0	60	1048573
2026-01-18 14:46:55.92	330.73	9.47	-84.7	-88.6	3.0	7.76e-01	0	48	104	0	60	1048570
2026-01-18 14:46:56.93	330.83	9.40	-84.7	-88.6	2.4	7.76e-01	0	48	104	0	60	1048575
2026-01-18 14:46:57.93	330.93	9.33	-84.7	-88.6	2.8	7.78e-01	0	48	104	0	60	1048574
2026-01-18 14:46:58.94	331.04	9.26	-84.7	-88.6	3.0	7.77e-01	0	48	104	0	60	1048570
2026-01-18 14:46:59.95	331.14	9.19	-84.7	-88.6	3.1	7.76e-01	0	48	104	0	60	1048571
2026-01-18 14:47:00.96	331.24	9.12	-84.7	-88.6	3.3	7.77e-01	0	48	104	0	60	1048569
2026-01-18 14:47:01.96	331.34	9.06	-84.7	-88.6	3.3	7.74e-01	0	48	104	0	60	1048574
2026-01-18 14:47:02.97	331.44	8.99	-84.7	-88.6	3.2	7.76e-01	0	48	104	0	60	1048575
2026-01-18 14:47:03.98	331.54	8.92	-84.7	-88.6	3.5	7.77e-01	0	48	104	0	60	1048575
2026-01-18 14:47:04.98	331.64	8.85	-84.7	-88.6	2.9	7.77e-01	0	48	104	0	60	1048575
2026-01-18 14:47:05.99	331.74	8.78	-84.7	-88.6	3.1	7.77e-01	0	48	104	0	60	1048573
2026-01-18 14:47:07.00	331.83	8.71	-84.7	-88.6	3.1	7.76e-01	0	48	104	0	60	1048574
2026-01-18 14:47:08.01	331.93	8.65	-84.7	-88.6	2.9	7.76e-01	0	48	104	0	60	1048571
2026-01-18 14:47:09.02	332.03	8.58	-84.7	-88.6	2.7	7.77e-01	0	48	104	0	60	1048575
2026-01-18 14:47:10.02	332.13	8.51	-84.7	-88.6	3.0	7.76e-01	0	48	104	0	60	1048573
2026-01-18 14:47:11.03	332.22	8.44	-84.7	-88.6	3.0	7.75e-01	0	48	104	0	60	1048573
2026-01-18 14:47:12.04	332.32	8.37	-84.7	-88.6	2.8	7.75e-01	0	48	104	0	60	1048575
2026-01-18 14:47:13.04	332.41	8.31	-84.7	-88.6	3.0	7.77e-01	0	48	104	0	60	1048575
2026-01-18 14:47:14.05	332.51	8.24	-84.7	-88.6	2.7	7.76e-01	0	48	104	0	60	1048573
2026-01-18 14:47:15.06	332.60	8.17	-84.7	-88.6	3.0	7.77e-01	0	48	104	0	60	1048575
2026-01-18 14:47:16.07	332.70	8.10	-84.7	-88.6	3.0	7.76e-01	0	48	104	0	60	1048574
2026-01-18 14:47:17.08	332.79	8.04	-84.7	-88.6	3.2	7.74e-01	0	48	104	0	60	1048570
2026-01-18 14:47:18.08	332.89	7.97	-84.7	-88.6	2.6	7.77e-01	0	48	104	0	60	1048572
2026-01-18 14:47:19.09	332.98	7.90	-84.7	-88.6	3.0	7.71e-01	0	48	104	0	60	1048575
2026-01-18 14:47:20.10	333.07	7.84	-84.7	-88.6	2.7	7.76e-01	0	48	104	0	60	1048569
2026-01-18 14:47:21.10	333.16	7.77	-84.7	-88.6	3.1	7.75e-01	0	48	104	0	60	1048572
2026-01-18 14:47:22.11	333.26	7.70	-84.7	-88.6	2.8	7.75e-01	0	48	104	0	60	1048574
2026-01-18 14:47:23.12	333.35	7.64	-84.7	-88.6	2.5	7.77e-01	0	48	104	0	60	1048575
2026-01-18 14:47:24.12	333.44	7.57	-84.7	-88.6	3.0	7.77e-01	0	48	104	0	60	1048574
2026-01-18 14:47:25.13	333.53	7.51	-84.7	-88.6	3.1	7.78e-01	0	48	104	0	60	1048574
2026-01-18 14:47:26.14	333.62	7.44	-84.7	-88.6	2.4	7.78e-01	0	48	104	0	60	1048572
2026-01-18 14:47:27.15	333.71	7.37	-84.7	-88.6	2.6	7.72e-01	0	48	104	0	60	1048573
2026-01-18 14:47:28.15	333.80	7.31	-84.7	-88.6	3.0	7.76e-01	0	48	104	0	60	1048573
2026-01-18 14:47:29.15	333.89	7.24	-84.7	-88.6	2.9	7.76e-01	0	48	104	0	60	1048572
2026-01-18 14:47:30.16	333.98	7.18	-84.7	-88.6	3.5	7.76e-01	0	48	104	0	60	1048575
2026-01-18 14:47:31.16	334.06	7.11	-84.7	-88.6	2.9	7.75e-01	0	48	104	0	60	1048575
2026-01-18 14:47:32.16	334.15	7.05	-84.7	-88.6	3.0	7.75e-01	0	48	104	0	60	1048575
2026-01-18 14:47:33.17	334.24	6.98	-84.7	-88.6	3.1	7.77e-01	0	48	104	0	60	1048573
2026-01-18 14:47:34.17	334.33	6.92	-84.7	-88.6	3.0	7.77e-01	0	48	104	0	60	1048575
2026-01-18 14:47:35.18	334.41	6.85	-84.7	-88.6	3.4	7.77e-01	0	48	104	0	60	1048565
2026-01-18 14:47:36.19	334.50	6.79	-84.7	-88.6	2.6	7.76e-01	0	48	104	0	60	1048575
2026-01-18 14:47:37.20	334.59	6.72	-84.7	-88.6	2.6	7.72e-01	0	48	104	0	60	1048575
2026-01-18 14:47:38.21	334.67	6.66	-84.7	-88.6	2.9	7.74e-01	0	48	104	0	60	1048571
2026-01-18 14:47:39.21	334.76	6.59	-84.7	-88.6	2.7	7.76e-01	0	48	104	0	60	1048573
2026-01-18 14:47:40.22	334.84	6.53	-84.7	-88.6	2.8	7.76e-01	0	48	104	0	60	1048567
2026-01-18 14:47:41.23	334.93	6.46	-84.7	-88.6	3.2	7.76e-01	0	48	104	0	60	1048571
2026-01-18 14:47:42.24	335.01	6.40	-84.7	-88.6	2.6	7.77e-01	0	48	104	0	60	1048574
2026-01-18 14:47:43.24	335.10	6.34	-84.7	-88.6	3.0	7.70e-01	0	48	104	0	60	1048573
2026-01-18 14:47:44.25	335.18	6.27	-84.7	-88.6	3.3	7.76e-01	0	48	104	0	60	1048573
2026-01-18 14:47:45.26	335.26	6.21	-84.7	-88.6	3.2	7.76e-01	0	48	104	0	60	1048570
2026-01-18 14:47:46.27	335.35	6.14	-84.7	-88.6	3.1	7.76e-01	0	48	104	0	60	1048570
2026-01-18 14:47:47.28	335.43	6.08	-84.7	-88.6	2.8	7.77e-01	0	48	104	0	60	1048573
2026-01-18 14:47:48.28	335.51	6.02	-84.7	-88.6	3.1	7.76e-01	0	48	104	0	60	1048575
2026-01-18 14:47:49.29	335.59	5.95	-84.7	-88.6	3.3	7.76e-01	0	48	104	0	60	1048575
2026-01-18 14:47:50.30	335.68	5.89	-84.7	-88.6	2.8	7.75e-01	0	48	104	0	60	1048570
2026-01-18 14:47:51.31	335.76	5.83	-84.7	-88.6	2.5	7.77e-01	0	48	104	0	60	1048575
2026-01-18 14:47:52.32	335.84	5.76	-84.7	-88.6	2.5	7.75e-01	0	48	104	0	60	1048574
2026-01-18 14:47:53.32	335.92	5.70	-84.7	-88.6	3.3	7.74e-01	0	48	104	0	60	1048571
2026-01-18 14:47:54.33	336.00	5.64	-84.7	-88.6	3.0	7.76e-01	0	48	104	0	60	1048573
2026-01-18 14:47:55.34	336.08	5.57	-84.7	-88.6	2.8	7.76e-01	0	48	104	0	60	1048575
2026-01-18 14:47:56.35	336.16	5.51	-84.7	-88.6	3.1	7.76e-01	0	48	104	0	60	1048569
2026-01-18 14:47:57.36	336.24	5.45	-84.7	-88.6	3.0	7.75e-01	0	48	104	0	60	1048573
2026-01-18 14:47:58.37	336.32	5.39	-84.7	-88.6	2.4	7.76e-01	0	48	104	0	60	1048575
2026-01-18 14:47:59.38	336.40	5.32	-84.7	-88.6	2.9	7.72e-01	0	48	104	0	60	1048572
2026-01-18 14:48:00.39	336.48	5.26	-84.7	-88.6	2.9	7.77e-01	0	48	104	0	60	1048574
2026-01-18 14:48:01.39	336.55	5.20	-84.7	-88.6	3.1	7.77e-01	0	48	104	0	60	1048568
2026-01-18 14:48:02.40	336.63	5.14	-84.7	-88.6	2.9	7.77e-01	0	48	104	0	60	1048574
2026-01-18 14:48:03.41	336.71	5.08	-84.7	-88.6	2.4	7.76e-01	0	48	104	0	60	1048575
2026-01-18 14:48:04.41	336.79	5.01	-84.7	-88.6	2.9	7.76e-01	0	48	104	0	60	1048571
2026-01-18 14:48:05.42	336.86	4.95	-84.7	-88.6	2.7	7.76e-01	0	48	104	0	60	1048574
2026-01-18 14:48:06.43	336.94	4.89	-84.7	-88.6	3.2	7.75e-01	0	48	104	0	60	1048573
2026-01-18 14:48:07.44	337.02	4.83	-84.7	-88.6	2.9	7.77e-01	0	48	104	0	60	1048574
2026-01-18 14:48:08.44	337.09	4.77	-84.7	-88.6	3.3	7.78e-01	0	48	104	0	60	1048564
2026-01-18 14:48:09.45	337.17	4.71	-84.7	-88.6	2.9	7.77e-01	0	48	104	0	60	1048575
2026-01-18 14:48:10.46	337.24	4.64	-84.7	-88.6	3.1	7.76e-01	0	48	104	0	60	1048567
2026-01-18 14:48:11.47	337.32	4.58	-84.7	-88.6	3.1	7.76e-01	0	48	104	0	60	1048575
2026-01-18 14:48:12.47	337.39	4.52	-84.7	-88.6	2.9	7.76e-01	0	48	104	0	60	1048575
2026-01-18 14:48:13.48	337.47	4.46	-84.7	-88.6	3.3	7.78e-01	0	48	104	0	60	1048574
2026-01-18 14:48:14.48	337.54	4.40	-84.7	-88.6	3.0	7.77e-01	0	48	104	0	60	1048574
2026-01-18 14:48:15.49	337.62	4.34	-84.7	-88.6	2.6	7.77e-01	0	48	104	0	60	1048575
2026-01-18 14:48:16.50	337.69	4.28	-84.7	-88.6	3.0	7.78e-01	0	48	104	0	60	1048570
2026-01-18 14:48:17.51	337.76	4.22	-84.7	-88.6	2.9	7.75e-01	0	48	104	0	60	1048571
2026-01-18 14:48:18.52	337.84	4.16	-84.7	-88.6	3.0	7.75e-01	0	48	104	0	60	1048575
2026-01-18 14:48:19.52	337.91	4.10	-84.7	-88.6	3.0	7.77e-01	0	48	104	0	60	1048571
2026-01-18 14:48:20.53	337.98	4.04	-84.7	-88.6	3.1	7.76e-01	0	48	104	0	60	1048574
2026-01-18 14:48:21.54	338.05	3.98	-84.7	-88.6	2.9	7.77e-01	0	48	104	0	60	1048570
2026-01-18 14:48:22.54	338.13	3.92	-84.7	-88.6	2.2	7.76e-01	0	48	104	0	60	1048575
2026-01-18 14:48:23.55	338.20	3.86	-84.7	-88.6	2.9	7.77e-01	0	48	104	0	60	1048575
2026-01-18 14:48:24.56	338.27	3.80	-84.7	-88.6	2.9	7.77e-01	0	48	104	0	60	1048575
2026-01-18 14:48:25.57	338.34	3.74	-84.7	-88.6	2.9	7.77e-01	0	48	104	0	60	1048571
2026-01-18 14:48:26.57	338.41	3.68	-84.7	-88.6	3.0	7.76e-01	0	48	104	0	60	1048573
2026-01-18 14:48:27.58	338.48	3.62	-84.7	-88.6	2.9	7.75e-01	0	48	104	0	60	1048574
2026-01-18 14:48:28.59	338.55	3.56	-84.7	-88.6	3.4	7.76e-01	0	48	104	0	60	1048572
2026-01-18 14:48:29.60	338.62	3.50	-84.7	-88.6	2.7	7.72e-01	0	48	104	0	60	1048574
2026-01-18 14:48:30.61	338.69	3.44	-84.7	-88.6	3.2	7.76e-01	0	48	104	0	60	1048575
2026-01-18 14:48:31.61	338.76	3.38	-84.7	-88.6	3.1	7.76e-01	0	48	104	0	60	1048575
2026-01-18 14:48:32.62	338.83	3.32	-84.7	-88.6	2.8	7.75e-01	0	48	104	0	60	1048570
2026-01-18 14:48:33.63	338.90	3.26	-84.7	-88.6	2.8	7.73e-01	0	48	104	0	60	1048569
2026-01-18 14:48:34.64	338.97	3.20	-84.7	-88.6	2.9	7.77e-01	0	48	104	0	60	1048575
2026-01-18 14:48:35.64	339.04	3.15	-84.7	-88.6	2.9	7.76e-01	0	48	104	0	60	1048570
2026-01-18 14:48:36.65	339.11	3.09	-84.7	-88.6	3.3	7.76e-01	0	48	104	0	60	1048571
2026-01-18 14:48:37.66	339.17	3.03	-84.7	-88.6	3.5	7.77e-01	0	48	104	0	60	1048574
2026-01-18 14:48:38.66	339.24	2.97	-84.7	-88.6	3.1	7.77e-01	0	48	104	0	60	1048572
2026-01-18 14:48:39.67	339.31	2.91	-84.7	-88.6	2.7	7.77e-01	0	48	104	0	60	1048571
2026-01-18 14:48:40.68	339.38	2.85	-84.7	-88.6	2.9	7.76e-01	0	48	104	0	60	1048575
2026-01-18 14:48:41.68	339.44	2.80	-84.7	-88.6	3.0	7.77e-01	0	48	104	0	60	1048574
2026-01-18 14:48:42.69	339.51	2.74	-84.7	-88.6	3.2	7.76e-01	0	48	104	0	60	1048574
2026-01-18 14:48:43.70	339.58	2.68	-84.7	-88.6	3.6	7.77e-01	0	48	104	0	60	1048572
2026-01-18 14:48:44.70	339.64	2.62	-84.7	-88.6	3.5	7.78e-01	0	48	104	0	60	1048565
2026-01-18 14:48:45.71	339.71	2.56	-84.7	-88.6	3.1	7.75e-01	0	48	104	0	60	1048573
2026-01-18 14:48:46.72	339.78	2.51	-84.7	-88.6	2.9	7.77e-01	0	48	104	0	60	1048574
2026-01-18 14:48:47.73	339.84	2.45	-84.7	-88.6	2.9	7.77e-01	0	48	104	0	60	1048575
2026-01-18 14:48:48.74	339.91	2.39	-84.7	-88.6	3.2	7.77e-01	0	48	104	0	60	1048571
2026-01-18 14:48:49.74	339.97	2.33	-84.7	-88.6	3.1	7.77e-01	0	48	104	0	60	1048564
2026-01-18 14:48:50.75	340.04	2.28	-84.7	-88.6	3.2	7.77e-01	0	48	104	0	60	1048575
2026-01-18 14:48:51.76	340.10	2.22	-84.7	-88.6	3.5	7.76e-01	0	48	104	0	60	1048558
2026-01-18 14:48:52.76	340.17	2.16	-84.7	-88.6	2.9	7.76e-01	0	48	104	0	60	1048574
2026-01-18 14:48:53.77	340.23	2.10	-84.7	-88.6	2.8	7.76e-01	0	48	104	0	60	1048575
2026-01-18 14:48:54.78	340.29	2.05	-84.7	-88.6	3.0	7.76e-01	0	48	104	0	60	1048563
2026-01-18 14:48:55.79	340.36	1.99	-84.7	-88.6	2.7	7.76e-01	0	48	104	0	60	1048574
2026-01-18 14:48:56.80	340.42	1.93	-84.7	-88.6	3.3	7.76e-01	0	48	104	0	60	1048574
2026-01-18 14:48:57.80	340.49	1.88	-84.7	-88.6	3.1	7.76e-01	0	48	104	0	60	1048575
2026-01-18 14:48:58.80	340.55	1.82	-84.7	-88.6	3.4	7.76e-01	0	48	104	0	60	1048565
2026-01-18 14:48:59.81	340.61	1.76	-84.7	-88.6	3.0	7.71e-01	0	48	104	0	60	1048574
2026-01-18 14:49:00.81	340.67	1.71	-84.7	-88.6	3.0	7.75e-01	0	48	104	0	60	1048571
2026-01-18 14:49:01.81	340.73	1.65	-84.7	-88.6	3.2	7.75e-01	0	48	104	0	60	1048575
2026-01-18 14:49:02.82	340.80	1.59	-84.7	-88.6	2.7	7.75e-01	0	48	104	0	60	1048562
2026-01-18 14:49:03.82	340.86	1.54	-84.7	-88.6	3.0	7.77e-01	0	48	104	0	60	1048569
2026-01-18 14:49:04.83	340.92	1.48	-84.7	-88.6	3.0	7.77e-01	0	48	104	0	60	1048570
2026-01-18 14:49:05.84	340.98	1.43	-84.7	-88.6	3.3	7.76e-01	0	48	104	0	60	1048568
2026-01-18 14:49:06.85	341.04	1.37	-84.7	-88.6	3.5	7.75e-01	0	48	104	0	60	1048571
2026-01-18 14:49:07.85	341.10	1.31	-84.7	-88.6	3.1	7.76e-01	0	48	104	0	60	1048575
2026-01-18 14:49:08.86	341.17	1.26	-84.7	-88.6	2.9	7.76e-01	0	48	104	0	60	1048573
2026-01-18 14:49:09.87	341.23	1.20	-84.7	-88.6	2.3	7.78e-01	0	48	104	0	60	1048573
2026-01-18 14:49:10.87	341.29	1.15	-84.7	-88.6	2.9	7.75e-01	0	48	104	0	60	1048573
2026-01-18 14:49:11.87	341.35	1.09	-84.7	-88.6	3.0	7.77e-01	0	48	104	0	60	1048568
2026-01-18 14:49:12.88	341.41	1.04	-84.7	-88.6	3.0	7.77e-01	0	48	104	0	60	1048575
2026-01-18 14:49:13.89	341.47	0.98	-84.7	-88.6	2.8	7.76e-01	0	48	104	0	60	1048574
2026-01-18 14:49:14.90	341.53	0.93	-84.7	-88.6	2.5	7.77e-01	0	48	104	0	60	1048573
2026-01-18 14:49:15.90	341.59	0.87	-84.7	-88.6	2.6	7.77e-01	0	48	104	0	60	1048575
2026-01-18 14:49:16.91	341.65	0.82	-84.7	-88.6	3.5	7.77e-01	0	48	104	0	60	1048574
2026-01-18 14:49:17.92	341.71	0.76	-84.7	-88.6	3.0	7.77e-01	0	48	104	0	60	1048571
2026-01-18 14:49:18.92	341.76	0.71	-84.7	-88.6	2.5	7.75e-01	0	48	104	0	60	1048569
2026-01-18 14:49:19.93	341.82	0.65	-84.7	-88.6	2.7	7.76e-01	0	48	104	0	60	1048574
2026-01-18 14:49:20.94	341.88	0.60	-84.7	-88.6	3.3	7.77e-01	0	48	104	0	60	1048574
2026-01-18 14:49:21.94	341.94	0.54	-84.7	-88.6	3.0	7.76e-01	0	48	104	0	60	1048572
2026-01-18 14:49:22.95	342.00	0.49	-84.7	-88.6	2.7	7.76e-01	0	48	104	0	60	1048571
2026-01-18 14:49:23.95	342.05	0.43	-84.7	-88.6	3.2	7.75e-01	0	48	104	0	60	1048573
2026-01-18 14:49:24.96	342.11	0.38	-84.7	-88.6	3.4	7.76e-01	0	48	104	0	60	1048574
2026-01-18 14:49:25.97	342.17	0.32	-84.7	-88.6	2.7	7.77e-01	0	48	104	0	60	1048575
2026-01-18 14:49:26.98	342.23	0.27	-84.7	-88.6	2.8	7.77e-01	0	48	104	0	60	1048570
2026-01-18 14:49:27.98	342.28	0.21	-84.7	-88.6	2.6	7.76e-01	0	48	104	0	60	1048572
2026-01-18 14:49:28.99	342.34	0.16	-84.7	-88.6	3.2	7.77e-01	0	48	104	0	60	1048568
2026-01-18 14:49:30.00	342.40	0.11	-84.7	-88.6	3.5	7.76e-01	0	48	104	0	60	1048569
2026-01-18 14:49:31.00	342.46	0.05	-84.7	-88.6	2.5	7.77e-01	0	48	104	0	60	1048572
2026-01-18 14:49:32.01	342.51	-0.00	-84.7	-88.6	2.9	7.76e-01	0	48	104	0	60	1048573

#Closed at: 2026-01-18 14:49:32
#Recorded file [0 MB]: D:/Data/35015_260118_173833.dat