passes_logs/2026/01/18/R3.2S-Naryan-Mar/R3.2S-Naryan-Mar__20260118_125132_FENGYUN_3D_rec.log

#Pass ID: 20260118_125132_FENGYUN 3D
#Satellite: FENGYUN 3D
#Configuration: FENGYUN 3D
#almurnet v.1.7.20240730
#Start time: 2026-01-18 12:51:36

#Version: 2.2.20231116
#Station: R3.2S-Naryan-Mar
#Location: 53.008057 lon 67.646978 lat
#TLE: 1 43010U 17072A   26017.61121112  .00000213  00000+0  12257-3 0  9991
#TLE: 2 43010  98.9934 349.4672 0002374 103.9362 256.2078 14.19696413423628

#Time	Az	El	Level	Level2	SNR	BER	BlckErr	Temp	State	Recorded	gain1	gain2
2026-01-18 12:51:36.11	216.09	0.15	-83.5	-79.0	2.4	0.00e+00	0	45	0	0	60	1048572
2026-01-18 12:51:37.11	216.16	0.20	-84.7	-88.6	5.9	3.86e-01	0	46	0	0	60	1048575
2026-01-18 12:51:38.12	216.23	0.26	-84.7	-88.6	6.1	2.46e-01	0	46	0	0	60	1048571
2026-01-18 12:51:39.13	216.30	0.31	-84.7	-88.6	6.1	2.83e-01	0	46	0	0	60	1048575
2026-01-18 12:51:40.13	216.37	0.36	-84.7	-88.6	5.9	2.82e-01	0	46	0	0	60	1048575
2026-01-18 12:51:41.14	216.45	0.41	-84.7	-88.6	6.1	2.79e-01	0	47	0	0	60	1048575
2026-01-18 12:51:42.15	216.52	0.46	-85.2	-88.6	6.0	2.83e-01	0	47	0	0	60	1048575
2026-01-18 12:51:43.15	216.59	0.51	-84.7	-88.6	5.7	2.81e-01	0	46	0	0	60	1048574
2026-01-18 12:51:44.15	216.66	0.56	-85.2	-88.6	5.7	2.79e-01	0	47	0	0	60	1048574
2026-01-18 12:51:45.16	216.73	0.61	-84.7	-88.6	6.5	2.80e-01	0	47	0	0	60	1048571
2026-01-18 12:51:46.17	216.81	0.67	-84.7	-88.6	6.2	2.80e-01	0	47	0	0	60	1048575
2026-01-18 12:51:47.18	216.88	0.72	-84.7	-88.6	5.8	2.81e-01	0	47	0	0	60	1048574
2026-01-18 12:51:48.18	216.95	0.77	-85.2	-88.6	5.7	2.82e-01	0	47	0	0	60	1048573
2026-01-18 12:51:49.19	217.03	0.82	-84.7	-88.6	6.3	2.82e-01	0	47	0	0	60	1048574
2026-01-18 12:51:50.19	217.10	0.87	-84.7	-88.6	5.9	2.82e-01	0	47	0	0	60	1048575
2026-01-18 12:51:51.20	217.17	0.92	-84.7	-88.6	5.6	2.81e-01	0	47	0	0	60	1048573
2026-01-18 12:51:52.20	217.25	0.98	-85.2	-88.6	5.8	2.78e-01	0	47	0	0	60	1048575
2026-01-18 12:51:53.20	217.32	1.03	-84.7	-88.6	5.1	2.75e-01	0	47	0	0	60	1048574
2026-01-18 12:51:54.21	217.39	1.08	-84.7	-88.6	5.9	2.82e-01	0	47	0	0	60	1048567
2026-01-18 12:51:55.22	217.47	1.13	-84.7	-88.6	6.1	2.78e-01	0	47	0	0	60	1048575
2026-01-18 12:51:56.22	217.54	1.18	-84.7	-88.6	6.0	2.85e-01	0	47	0	0	60	1048575
2026-01-18 12:51:57.23	217.62	1.24	-84.7	-88.6	6.1	2.76e-01	0	47	0	0	60	1048574
2026-01-18 12:51:58.23	217.69	1.29	-84.7	-88.6	6.2	2.80e-01	0	47	0	0	60	1048575
2026-01-18 12:51:59.24	217.77	1.34	-84.7	-88.6	5.9	2.77e-01	0	47	0	0	60	1048573
2026-01-18 12:52:00.24	217.85	1.39	-84.7	-88.6	5.7	2.82e-01	0	47	0	0	60	1048574
2026-01-18 12:52:01.25	217.92	1.45	-85.2	-88.6	5.6	2.82e-01	0	47	0	0	60	1048573
2026-01-18 12:52:02.26	218.00	1.50	-84.7	-88.6	6.1	2.84e-01	0	47	0	0	60	1048573
2026-01-18 12:52:03.26	218.08	1.55	-85.2	-88.6	5.5	2.83e-01	0	47	0	0	60	1048573
2026-01-18 12:52:04.27	218.15	1.60	-84.7	-88.6	5.7	2.80e-01	0	47	0	0	60	1048573
2026-01-18 12:52:05.28	218.23	1.66	-84.7	-88.6	6.1	2.81e-01	0	47	0	0	60	1048573
2026-01-18 12:52:06.28	218.31	1.71	-84.7	-88.6	6.1	2.73e-01	0	47	0	0	60	1048567
2026-01-18 12:52:07.29	218.39	1.76	-84.7	-88.6	6.2	2.83e-01	0	47	0	0	60	1048573
2026-01-18 12:52:08.30	218.46	1.81	-84.7	-88.6	5.8	2.83e-01	0	47	0	0	60	1048575
2026-01-18 12:52:09.31	218.54	1.87	-84.7	-88.6	6.1	2.80e-01	0	47	0	0	60	1048573
2026-01-18 12:52:10.32	218.62	1.92	-84.7	-88.6	6.5	2.82e-01	0	47	0	0	60	1048574
2026-01-18 12:52:11.32	218.70	1.97	-84.7	-88.6	6.1	2.82e-01	0	47	0	0	60	1048569
2026-01-18 12:52:12.33	218.78	2.03	-84.7	-88.6	5.5	2.80e-01	0	47	0	0	60	1048574
2026-01-18 12:52:13.33	218.86	2.08	-84.7	-88.6	6.0	2.83e-01	0	47	0	0	60	1048575
2026-01-18 12:52:14.34	218.94	2.13	-84.7	-88.6	6.0	2.78e-01	0	47	0	0	60	1048575
2026-01-18 12:52:15.35	219.02	2.19	-84.7	-88.6	6.3	2.80e-01	0	47	0	0	60	1048575
2026-01-18 12:52:16.36	219.10	2.24	-84.7	-88.6	6.0	2.86e-01	0	47	0	0	60	1048575
2026-01-18 12:52:17.36	219.18	2.29	-84.7	-88.6	5.6	2.84e-01	0	47	0	0	60	1048569
2026-01-18 12:52:18.37	219.26	2.35	-84.7	-88.6	6.2	2.81e-01	0	47	0	0	60	1048570
2026-01-18 12:52:19.38	219.34	2.40	-84.7	-88.6	5.8	2.83e-01	0	47	0	0	60	1048570
2026-01-18 12:52:20.39	219.42	2.45	-85.2	-88.6	5.9	2.83e-01	0	47	0	0	60	1048575
2026-01-18 12:52:21.40	219.51	2.51	-84.7	-88.6	5.8	2.82e-01	0	47	0	0	60	1048569
2026-01-18 12:52:22.41	219.59	2.56	-85.2	-88.6	6.0	2.79e-01	0	47	0	0	60	1048574
2026-01-18 12:52:23.41	219.67	2.61	-84.7	-88.6	6.4	2.83e-01	0	47	0	0	60	1048575
2026-01-18 12:52:24.42	219.75	2.67	-84.7	-88.6	5.8	2.81e-01	0	47	0	0	60	1048568
2026-01-18 12:52:25.43	219.83	2.72	-84.7	-88.6	5.7	2.78e-01	0	47	0	0	60	1048575
2026-01-18 12:52:26.44	219.92	2.78	-84.7	-88.6	5.6	2.82e-01	0	47	0	0	60	1048570
2026-01-18 12:52:27.44	220.00	2.83	-84.7	-88.6	6.0	2.79e-01	0	47	0	0	60	1048575
2026-01-18 12:52:28.45	220.09	2.88	-84.7	-88.6	6.5	2.81e-01	0	47	0	0	60	1048574
2026-01-18 12:52:29.46	220.17	2.94	-84.7	-88.6	6.0	2.79e-01	0	47	0	0	60	1048572
2026-01-18 12:52:30.46	220.25	2.99	-84.7	-88.6	6.0	2.75e-01	0	47	0	0	60	1048575
2026-01-18 12:52:31.47	220.34	3.05	-85.2	-88.6	6.0	2.83e-01	0	47	0	0	60	1048573
2026-01-18 12:52:32.47	220.42	3.10	-84.7	-88.6	5.9	2.77e-01	0	47	0	0	60	1048575
2026-01-18 12:52:33.48	220.51	3.15	-84.7	-88.6	6.0	2.80e-01	0	47	0	0	60	1048574
2026-01-18 12:52:34.49	220.59	3.21	-84.7	-88.6	6.1	2.83e-01	0	47	0	0	60	1048571
2026-01-18 12:52:35.50	220.68	3.26	-84.7	-88.6	6.2	2.80e-01	0	47	0	0	60	1048567
2026-01-18 12:52:36.51	220.77	3.32	-85.2	-88.6	5.8	2.83e-01	0	47	0	0	60	1048575
2026-01-18 12:52:37.52	220.85	3.37	-84.7	-88.6	6.0	2.81e-01	0	47	0	0	60	1048571
2026-01-18 12:52:38.52	220.94	3.43	-84.7	-88.6	5.7	2.83e-01	0	47	0	0	60	1048575
2026-01-18 12:52:39.53	221.03	3.48	-84.7	-88.6	5.7	2.78e-01	0	47	0	0	60	1048575
2026-01-18 12:52:40.54	221.11	3.54	-84.7	-88.6	6.4	2.81e-01	0	47	0	0	60	1048574
2026-01-18 12:52:41.55	221.20	3.59	-85.2	-88.6	6.5	2.75e-01	0	47	0	0	60	1048570
2026-01-18 12:52:42.56	221.29	3.64	-84.7	-88.6	5.7	2.79e-01	0	47	0	0	60	1048569
2026-01-18 12:52:43.56	221.38	3.70	-85.2	-88.6	5.6	2.79e-01	0	47	0	0	60	1048573
2026-01-18 12:52:44.57	221.47	3.75	-84.7	-88.6	6.1	2.81e-01	0	47	0	0	60	1048567
2026-01-18 12:52:45.58	221.55	3.81	-84.7	-88.6	6.0	2.80e-01	0	47	0	0	60	1048575
2026-01-18 12:52:46.59	221.64	3.86	-84.7	-88.6	5.6	2.79e-01	0	47	0	0	60	1048575
2026-01-18 12:52:47.60	221.73	3.92	-84.7	-88.6	5.7	2.84e-01	0	47	0	0	60	1048574
2026-01-18 12:52:48.60	221.82	3.97	-84.7	-88.6	5.9	2.79e-01	0	47	0	0	60	1048575
2026-01-18 12:52:49.61	221.91	4.03	-84.7	-88.6	5.8	2.83e-01	0	47	0	0	60	1048574
2026-01-18 12:52:50.62	222.00	4.09	-84.7	-88.6	5.7	2.78e-01	0	47	0	0	60	1048571
2026-01-18 12:52:51.63	222.10	4.14	-84.7	-88.6	6.4	2.80e-01	0	47	0	0	60	1048574
2026-01-18 12:52:52.63	222.19	4.20	-84.7	-88.6	6.2	2.83e-01	0	47	0	0	60	1048573
2026-01-18 12:52:53.64	222.28	4.25	-84.7	-88.6	6.3	2.82e-01	0	47	0	0	60	1048572
2026-01-18 12:52:54.64	222.37	4.31	-85.2	-88.6	5.9	2.79e-01	0	47	0	0	60	1048570
2026-01-18 12:52:55.65	222.46	4.36	-84.7	-88.6	5.6	2.78e-01	0	47	0	0	60	1048573
2026-01-18 12:52:56.65	222.55	4.42	-84.7	-88.6	6.3	2.81e-01	0	47	0	0	60	1048574
2026-01-18 12:52:57.66	222.65	4.47	-84.7	-88.6	6.4	2.82e-01	0	47	0	0	60	1048575
2026-01-18 12:52:58.67	222.74	4.53	-85.2	-88.6	6.0	2.81e-01	0	47	0	0	60	1048572
2026-01-18 12:52:59.68	222.83	4.58	-84.7	-88.6	5.7	2.83e-01	0	47	0	0	60	1048575
2026-01-18 12:53:00.68	222.93	4.64	-85.2	-88.6	6.1	2.80e-01	0	47	0	0	60	1048574
2026-01-18 12:53:01.69	223.02	4.70	-84.7	-88.6	5.8	2.74e-01	0	47	0	0	60	1048574
2026-01-18 12:53:02.69	223.11	4.75	-85.2	-88.6	5.9	2.77e-01	0	47	0	0	60	1048571
2026-01-18 12:53:03.69	223.21	4.81	-84.7	-88.6	5.7	2.81e-01	0	47	0	0	60	1048573
2026-01-18 12:53:04.69	223.30	4.86	-84.7	-88.6	5.9	2.79e-01	0	47	0	0	60	1048574
2026-01-18 12:53:05.69	223.40	4.92	-84.7	-88.6	6.2	2.82e-01	0	47	0	0	60	1048575
2026-01-18 12:53:06.70	223.49	4.97	-84.7	-88.6	6.3	2.81e-01	0	47	0	0	60	1048575
2026-01-18 12:53:07.71	223.59	5.03	-84.7	-88.6	5.6	2.83e-01	0	47	0	0	60	1048567
2026-01-18 12:53:08.72	223.69	5.09	-85.2	-88.6	5.7	2.81e-01	0	47	0	0	60	1048573
2026-01-18 12:53:09.72	223.78	5.14	-84.7	-88.6	6.4	2.81e-01	0	47	0	0	60	1048575
2026-01-18 12:53:10.72	223.88	5.20	-84.7	-88.6	6.2	2.82e-01	0	47	0	0	60	1048571
2026-01-18 12:53:11.73	223.98	5.25	-84.7	-88.6	6.2	2.82e-01	0	47	0	0	60	1048570
2026-01-18 12:53:12.74	224.08	5.31	-84.7	-88.6	6.3	2.84e-01	0	47	0	0	60	1048572
2026-01-18 12:53:13.75	224.18	5.37	-84.7	-88.6	6.2	2.86e-01	0	47	0	0	60	1048573
2026-01-18 12:53:14.75	224.27	5.42	-84.7	-88.6	6.1	2.82e-01	0	47	0	0	60	1048575
2026-01-18 12:53:15.76	224.37	5.48	-84.7	-88.6	5.8	2.83e-01	0	47	0	0	60	1048572
2026-01-18 12:53:16.77	224.47	5.54	-84.7	-88.6	6.0	2.83e-01	0	47	0	0	60	1048572
2026-01-18 12:53:17.78	224.57	5.59	-84.7	-88.6	6.0	2.81e-01	0	47	0	0	60	1048574
2026-01-18 12:53:18.79	224.67	5.65	-84.7	-88.6	5.9	2.82e-01	0	47	0	0	60	1048575
2026-01-18 12:53:19.79	224.77	5.71	-85.2	-88.6	5.8	2.81e-01	0	47	0	0	60	1048575
2026-01-18 12:53:20.80	224.87	5.76	-84.7	-88.6	5.9	2.81e-01	0	47	0	0	60	1048575
2026-01-18 12:53:21.80	224.98	5.82	-84.7	-88.6	6.2	2.78e-01	0	47	0	0	60	1048574
2026-01-18 12:53:22.81	225.08	5.88	-84.7	-88.6	6.2	2.74e-01	0	47	0	0	60	1048574
2026-01-18 12:53:23.81	225.18	5.93	-85.2	-88.6	6.2	2.81e-01	0	47	0	0	60	1048571
2026-01-18 12:53:24.82	225.28	5.99	-84.7	-88.6	5.8	2.81e-01	0	47	0	0	60	1048573
2026-01-18 12:53:25.83	225.38	6.05	-84.7	-88.6	6.0	2.80e-01	0	47	0	0	60	1048575
2026-01-18 12:53:26.83	225.49	6.11	-84.7	-88.6	6.2	2.82e-01	0	47	0	0	60	1048575
2026-01-18 12:53:27.84	225.59	6.16	-84.7	-88.6	5.9	2.84e-01	0	47	0	0	60	1048574
2026-01-18 12:53:28.85	225.70	6.22	-85.2	-88.6	5.9	2.84e-01	0	47	0	0	60	1048574
2026-01-18 12:53:29.85	225.80	6.28	-84.7	-88.6	6.0	2.82e-01	0	47	0	0	60	1048575
2026-01-18 12:53:30.86	225.90	6.33	-84.7	-88.6	6.4	2.82e-01	0	47	0	0	60	1048575
2026-01-18 12:53:31.86	226.01	6.39	-84.7	-88.6	6.3	2.82e-01	0	47	0	0	60	1048575
2026-01-18 12:53:32.87	226.11	6.45	-85.2	-88.6	6.2	2.87e-01	0	47	0	0	60	1048575
2026-01-18 12:53:33.88	226.22	6.51	-84.7	-88.6	6.3	2.80e-01	0	47	0	0	60	1048574
2026-01-18 12:53:34.88	226.33	6.56	-84.7	-88.6	6.4	2.86e-01	0	47	0	0	60	1048575
2026-01-18 12:53:35.89	226.43	6.62	-84.7	-88.6	5.8	2.82e-01	0	47	0	0	60	1048575
2026-01-18 12:53:36.90	226.54	6.68	-84.7	-88.6	6.2	2.80e-01	0	47	0	0	60	1048575
2026-01-18 12:53:37.90	226.65	6.74	-84.7	-88.6	3.0	7.61e-01	0	47	104	0	60	1048573
2026-01-18 12:53:38.91	226.76	6.79	-85.2	-88.6	3.1	7.63e-01	0	47	104	0	60	1048573
2026-01-18 12:53:39.92	226.87	6.85	-84.7	-88.6	3.6	7.62e-01	0	47	104	0	60	1048572
2026-01-18 12:53:40.92	226.97	6.91	-85.2	-88.6	3.6	7.62e-01	0	47	104	0	60	1048575
2026-01-18 12:53:41.93	227.08	6.97	-85.2	-88.6	3.3	7.62e-01	0	47	104	0	60	1048572
2026-01-18 12:53:42.94	227.19	7.03	-85.2	-88.6	2.9	7.63e-01	0	47	104	0	60	1048571
2026-01-18 12:53:43.95	227.30	7.08	-85.2	-88.6	3.3	7.63e-01	0	47	104	0	60	1048575
2026-01-18 12:53:44.96	227.41	7.14	-84.7	-88.6	3.4	7.62e-01	0	47	104	0	60	1048575
2026-01-18 12:53:45.97	227.53	7.20	-85.2	-88.6	3.5	7.65e-01	0	47	104	0	60	1048575
2026-01-18 12:53:46.98	227.64	7.26	-84.7	-88.6	3.2	7.63e-01	0	47	104	0	60	1048569
2026-01-18 12:53:47.98	227.75	7.32	-84.7	-88.6	2.8	7.63e-01	0	47	104	0	60	1048575
2026-01-18 12:53:48.99	227.86	7.37	-85.2	-88.6	2.7	7.63e-01	0	47	104	0	60	1048574
2026-01-18 12:53:50.00	227.97	7.43	-84.7	-88.6	2.9	7.64e-01	0	47	104	0	60	1048575
2026-01-18 12:53:51.01	228.09	7.49	-85.2	-88.6	3.7	7.63e-01	0	47	104	0	60	1048573
2026-01-18 12:53:52.01	228.20	7.55	-84.7	-88.6	3.1	7.62e-01	0	47	104	0	60	1048574
2026-01-18 12:53:53.02	228.31	7.61	-85.2	-88.6	2.9	7.64e-01	0	47	104	0	60	1048574
2026-01-18 12:53:54.03	228.43	7.67	-85.2	-88.6	3.3	7.64e-01	0	47	104	0	60	1048574
2026-01-18 12:53:55.03	228.54	7.72	-85.2	-88.6	3.4	7.61e-01	0	47	104	0	60	1048575
2026-01-18 12:53:56.04	228.66	7.78	-85.2	-88.6	3.6	7.63e-01	0	47	104	0	60	1048571
2026-01-18 12:53:57.05	228.77	7.84	-85.2	-88.6	3.6	7.63e-01	0	47	104	0	60	1048574
2026-01-18 12:53:58.06	228.89	7.90	-85.2	-88.6	3.0	7.63e-01	0	47	104	0	60	1048575
2026-01-18 12:53:59.07	229.01	7.96	-84.7	-88.6	2.6	7.64e-01	0	47	104	0	60	1048574
2026-01-18 12:54:00.07	229.12	8.02	-85.2	-88.6	3.2	7.63e-01	0	47	104	0	60	1048574
2026-01-18 12:54:01.08	229.24	8.07	-85.2	-88.6	2.6	7.63e-01	0	47	104	0	60	1048574
2026-01-18 12:54:02.08	229.36	8.13	-85.2	-88.6	3.1	7.62e-01	0	47	104	0	60	1048572
2026-01-18 12:54:03.09	229.48	8.19	-85.2	-88.6	3.2	7.64e-01	0	47	104	0	60	1048571
2026-01-18 12:54:04.10	229.60	8.25	-85.2	-88.6	3.7	7.62e-01	0	47	104	0	60	1048574
2026-01-18 12:54:05.10	229.72	8.31	-85.2	-88.6	3.4	7.62e-01	0	47	104	0	60	1048573
2026-01-18 12:54:06.11	229.84	8.37	-85.2	-88.6	3.3	7.61e-01	0	47	104	0	60	1048570
2026-01-18 12:54:07.12	229.96	8.43	-85.2	-88.6	3.2	7.63e-01	0	47	104	0	60	1048574
2026-01-18 12:54:08.13	230.08	8.49	-84.7	-88.6	2.9	7.63e-01	0	47	104	0	60	1048573
2026-01-18 12:54:09.14	230.20	8.54	-85.2	-88.6	3.0	7.62e-01	0	47	104	0	60	1048575
2026-01-18 12:54:10.14	230.32	8.60	-85.2	-88.6	3.4	7.61e-01	0	47	104	0	60	1048572
2026-01-18 12:54:11.15	230.44	8.66	-85.2	-88.6	3.2	7.63e-01	0	47	104	0	60	1048568
2026-01-18 12:54:12.16	230.57	8.72	-84.7	-88.6	3.2	7.63e-01	0	47	104	0	60	1048568
2026-01-18 12:54:13.17	230.69	8.78	-84.7	-88.6	3.0	7.62e-01	0	47	104	0	60	1048575
2026-01-18 12:54:14.17	230.81	8.84	-85.2	-88.6	3.4	7.64e-01	0	47	104	0	60	1048575
2026-01-18 12:54:15.18	230.94	8.90	-84.7	-88.6	3.5	7.64e-01	0	47	104	0	60	1048574
2026-01-18 12:54:16.18	231.06	8.96	-85.2	-88.6	2.8	7.63e-01	0	47	104	0	60	1048573
2026-01-18 12:54:17.19	231.19	9.02	-84.7	-88.6	3.3	7.63e-01	0	47	104	0	60	1048573
2026-01-18 12:54:18.19	231.31	9.07	-84.7	-88.6	3.5	7.64e-01	0	47	104	0	60	1048570
2026-01-18 12:54:19.20	231.44	9.13	-85.2	-88.6	3.1	7.63e-01	0	47	104	0	60	1048572
2026-01-18 12:54:20.21	231.56	9.19	-84.7	-88.6	2.8	7.63e-01	0	47	104	0	60	1048575
2026-01-18 12:54:21.22	231.69	9.25	-85.2	-88.6	3.3	7.63e-01	0	47	104	0	60	1048575
2026-01-18 12:54:22.23	231.82	9.31	-84.7	-88.6	3.0	7.63e-01	0	47	104	0	60	1048575
2026-01-18 12:54:23.24	231.95	9.37	-84.7	-88.6	3.0	7.63e-01	0	47	104	0	60	1048574
2026-01-18 12:54:24.24	232.07	9.43	-85.2	-88.6	3.3	7.64e-01	0	47	104	0	60	1048574
2026-01-18 12:54:25.25	232.20	9.49	-85.2	-88.6	3.3	7.62e-01	0	47	104	0	60	1048575
2026-01-18 12:54:26.26	232.33	9.55	-85.2	-88.6	3.0	7.64e-01	0	47	104	0	60	1048573
2026-01-18 12:54:27.26	232.46	9.61	-85.2	-88.6	3.0	7.64e-01	0	47	104	0	60	1048575
2026-01-18 12:54:28.27	232.59	9.67	-85.2	-88.6	3.6	7.63e-01	0	47	104	0	60	1048575
2026-01-18 12:54:29.27	232.72	9.72	-85.2	-88.6	2.9	7.63e-01	0	47	104	0	60	1048565
2026-01-18 12:54:30.28	232.86	9.78	-85.2	-88.6	3.0	7.63e-01	0	47	104	0	60	1048573
2026-01-18 12:54:31.29	232.99	9.84	-85.2	-88.6	3.5	7.62e-01	0	47	104	0	60	1048571
2026-01-18 12:54:32.30	233.12	9.90	-84.7	-88.6	3.3	7.62e-01	0	47	104	0	60	1048573
2026-01-18 12:54:33.30	233.25	9.96	-85.2	-88.6	2.8	7.64e-01	0	47	104	0	60	1048574
2026-01-18 12:54:34.31	233.39	10.02	-85.2	-88.6	3.0	7.63e-01	0	47	104	0	60	1048575
2026-01-18 12:54:35.32	233.52	10.08	-85.2	-88.6	3.4	7.63e-01	0	47	104	0	60	1048575
2026-01-18 12:54:36.32	233.66	10.14	-85.2	-88.6	3.1	7.62e-01	0	47	104	0	60	1048565
2026-01-18 12:54:37.33	233.79	10.20	-85.2	-88.6	3.5	7.63e-01	0	47	104	0	60	1048575
2026-01-18 12:54:38.34	233.93	10.26	-84.7	-88.6	3.4	7.61e-01	0	47	104	0	60	1048572
2026-01-18 12:54:39.35	234.06	10.32	-85.2	-88.6	2.8	7.63e-01	0	47	104	0	60	1048571
2026-01-18 12:54:40.36	234.20	10.38	-85.2	-88.6	3.0	7.64e-01	0	47	104	0	60	1048575
2026-01-18 12:54:41.37	234.34	10.44	-85.2	-88.6	2.9	7.64e-01	0	47	104	0	60	1048571
2026-01-18 12:54:42.37	234.48	10.50	-85.2	-88.6	3.3	7.62e-01	0	47	104	0	60	1048571
2026-01-18 12:54:43.38	234.61	10.56	-85.2	-88.6	1.9	7.63e-01	0	47	104	0	60	1048575
2026-01-18 12:54:44.39	234.75	10.62	-85.2	-88.6	2.8	7.65e-01	0	47	104	0	60	1048572
2026-01-18 12:54:45.39	234.89	10.67	-85.2	-88.6	3.3	7.64e-01	0	47	104	0	60	1048574
2026-01-18 12:54:46.40	235.03	10.73	-84.7	-88.6	3.4	7.64e-01	0	47	104	0	60	1048573
2026-01-18 12:54:47.40	235.17	10.79	-85.2	-88.6	3.0	7.63e-01	0	47	104	0	60	1048574
2026-01-18 12:54:48.41	235.31	10.85	-85.2	-88.6	3.2	7.63e-01	0	47	104	0	60	1048575
2026-01-18 12:54:49.42	235.46	10.91	-85.2	-88.6	2.8	7.63e-01	0	47	104	0	60	1048575
2026-01-18 12:54:50.43	235.60	10.97	-85.2	-88.6	3.0	7.63e-01	0	47	104	0	60	1048575
2026-01-18 12:54:51.44	235.74	11.03	-84.7	-88.6	3.5	7.63e-01	0	47	104	0	60	1048573
2026-01-18 12:54:52.44	235.88	11.09	-85.2	-88.6	3.2	7.62e-01	0	47	104	0	60	1048574
2026-01-18 12:54:53.45	236.03	11.15	-85.2	-88.6	3.1	7.62e-01	0	47	104	0	60	1048575
2026-01-18 12:54:54.46	236.17	11.21	-85.2	-88.6	2.8	7.64e-01	0	47	104	0	60	1048573
2026-01-18 12:54:55.47	236.32	11.27	-84.7	-88.6	3.6	7.62e-01	0	47	104	0	60	1048574
2026-01-18 12:54:56.48	236.47	11.33	-85.2	-88.6	3.6	7.63e-01	0	47	104	0	60	1048574
2026-01-18 12:54:57.48	236.61	11.38	-85.2	-88.6	3.0	7.62e-01	0	47	104	0	60	1048575
2026-01-18 12:54:58.49	236.76	11.44	-85.2	-88.6	3.0	7.64e-01	0	47	104	0	60	1048574
2026-01-18 12:54:59.50	236.91	11.50	-85.2	-88.6	2.8	7.64e-01	0	47	104	0	60	1048575
2026-01-18 12:55:00.51	237.05	11.56	-84.7	-88.6	3.5	7.63e-01	0	47	104	0	60	1048575
2026-01-18 12:55:01.52	237.20	11.62	-84.7	-88.6	3.0	7.63e-01	0	47	104	0	60	1048573
2026-01-18 12:55:02.52	237.35	11.68	-85.2	-88.6	3.2	7.65e-01	0	47	104	0	60	1048571
2026-01-18 12:55:03.53	237.50	11.74	-85.2	-88.6	3.0	7.63e-01	0	47	104	0	60	1048575
2026-01-18 12:55:04.54	237.65	11.80	-84.7	-88.6	3.1	7.63e-01	0	47	104	0	60	1048575
2026-01-18 12:55:05.55	237.80	11.86	-85.2	-88.6	3.7	7.64e-01	0	47	104	0	60	1048568
2026-01-18 12:55:06.56	237.95	11.92	-85.2	-88.6	3.2	7.63e-01	0	47	104	0	60	1048574
2026-01-18 12:55:07.56	238.11	11.98	-85.2	-88.6	2.9	7.63e-01	0	47	104	0	60	1048575
2026-01-18 12:55:08.57	238.26	12.03	-85.2	-88.6	2.9	7.64e-01	0	47	104	0	60	1048573
2026-01-18 12:55:09.58	238.41	12.09	-85.2	-88.6	3.3	7.64e-01	0	47	104	0	60	1048572
2026-01-18 12:55:10.59	238.57	12.15	-84.7	-88.6	3.3	7.63e-01	0	47	104	0	60	1048574
2026-01-18 12:55:11.60	238.72	12.21	-84.7	-88.6	3.2	7.63e-01	0	47	104	0	60	1048573
2026-01-18 12:55:12.60	238.87	12.27	-85.2	-88.6	3.6	7.62e-01	0	47	104	0	60	1048575
2026-01-18 12:55:13.61	239.03	12.33	-85.2	-88.6	3.0	7.63e-01	0	47	104	0	60	1048575
2026-01-18 12:55:14.62	239.19	12.39	-85.2	-88.6	3.5	7.62e-01	0	47	104	0	60	1048574
2026-01-18 12:55:15.63	239.34	12.45	-85.2	-88.6	3.6	7.63e-01	0	47	104	0	60	1048572
2026-01-18 12:55:16.62	239.50	12.50	-85.2	-88.6	3.0	7.63e-01	0	47	104	0	60	1048575
2026-01-18 12:55:17.62	239.66	12.56	-85.2	-88.6	3.1	7.63e-01	0	47	104	0	60	1048574
2026-01-18 12:55:18.62	239.81	12.62	-85.2	-88.6	3.1	7.64e-01	0	47	104	0	60	1048568
2026-01-18 12:55:19.63	239.97	12.68	-84.7	-88.6	3.4	7.62e-01	0	47	104	0	60	1048575
2026-01-18 12:55:20.63	240.13	12.73	-84.7	-88.6	2.8	7.63e-01	0	47	104	0	60	1048575
2026-01-18 12:55:21.64	240.29	12.79	-85.2	-88.6	2.8	7.62e-01	0	47	104	0	60	1048574
2026-01-18 12:55:22.64	240.45	12.85	-85.2	-88.6	2.8	7.62e-01	0	47	104	0	60	1048567
2026-01-18 12:55:23.65	240.61	12.91	-85.2	-88.6	3.4	7.63e-01	0	47	104	0	60	1048575
2026-01-18 12:55:24.66	240.78	12.97	-85.2	-88.6	3.0	7.63e-01	0	47	104	0	60	1048575
2026-01-18 12:55:25.66	240.94	13.02	-85.2	-88.6	3.1	7.63e-01	0	47	104	0	60	1048569
2026-01-18 12:55:26.67	241.10	13.08	-85.2	-88.6	3.7	7.63e-01	0	47	104	0	60	1048573
2026-01-18 12:55:27.68	241.27	13.14	-85.2	-88.6	3.0	7.62e-01	0	47	104	0	60	1048575
2026-01-18 12:55:28.69	241.43	13.20	-85.2	-88.6	2.9	7.63e-01	0	47	104	0	60	1048575
2026-01-18 12:55:29.70	241.60	13.26	-84.7	-88.6	3.2	7.62e-01	0	47	104	0	60	1048571
2026-01-18 12:55:30.71	241.76	13.31	-85.2	-88.6	3.4	7.62e-01	0	47	104	0	60	1048571
2026-01-18 12:55:31.71	241.93	13.37	-85.2	-88.6	3.2	7.62e-01	0	47	104	0	60	1048574
2026-01-18 12:55:32.72	242.10	13.43	-85.2	-88.6	3.0	7.62e-01	0	47	104	0	60	1048573
2026-01-18 12:55:33.73	242.26	13.49	-85.2	-88.6	3.1	7.64e-01	0	47	104	0	60	1048572
2026-01-18 12:55:34.73	242.43	13.54	-85.2	-88.6	3.1	7.62e-01	0	47	104	0	60	1048573
2026-01-18 12:55:35.74	242.60	13.60	-85.2	-88.6	3.5	7.63e-01	0	47	104	0	60	1048573
2026-01-18 12:55:36.75	242.77	13.66	-85.2	-88.6	3.2	7.62e-01	0	47	104	0	60	1048574
2026-01-18 12:55:37.76	242.94	13.71	-85.2	-88.6	3.1	7.61e-01	0	47	104	0	60	1048575
2026-01-18 12:55:38.76	243.11	13.77	-84.7	-88.6	3.0	7.64e-01	0	47	104	0	60	1048575
2026-01-18 12:55:39.77	243.28	13.83	-85.2	-88.6	2.8	7.63e-01	0	47	104	0	60	1048572
2026-01-18 12:55:40.77	243.46	13.88	-85.2	-88.6	3.0	7.63e-01	0	47	104	0	60	1048573
2026-01-18 12:55:41.77	243.63	13.94	-85.2	-88.6	2.9	7.64e-01	0	47	104	0	60	1048573
2026-01-18 12:55:42.78	243.80	14.00	-85.2	-88.6	3.6	7.62e-01	0	47	104	0	60	1048573
2026-01-18 12:55:43.79	243.98	14.05	-85.2	-88.6	3.1	7.62e-01	0	47	104	0	60	1048575
2026-01-18 12:55:44.80	244.15	14.11	-84.7	-88.6	3.2	7.63e-01	0	47	104	0	60	1048569
2026-01-18 12:55:45.81	244.33	14.16	-85.2	-88.6	3.1	7.62e-01	0	47	104	0	60	1048575
2026-01-18 12:55:46.82	244.50	14.22	-85.2	-88.6	3.5	7.63e-01	0	47	104	0	60	1048571
2026-01-18 12:55:47.82	244.68	14.28	-85.2	-88.6	3.8	7.64e-01	0	48	104	0	60	1048575
2026-01-18 12:55:48.83	244.86	14.33	-85.2	-88.6	2.8	7.62e-01	0	47	104	0	60	1048574
2026-01-18 12:55:49.83	245.03	14.39	-85.2	-88.6	2.9	7.62e-01	0	47	104	0	60	1048575
2026-01-18 12:55:50.84	245.21	14.44	-85.2	-88.6	3.2	7.61e-01	0	47	104	0	60	1048575
2026-01-18 12:55:51.84	245.39	14.50	-85.2	-88.6	2.8	7.63e-01	0	47	104	0	60	1048574
2026-01-18 12:55:52.85	245.57	14.55	-84.7	-88.6	3.2	7.64e-01	0	47	104	0	60	1048570
2026-01-18 12:55:53.85	245.75	14.61	-85.2	-88.6	3.7	7.60e-01	0	47	104	0	60	1048574
2026-01-18 12:55:54.86	245.93	14.66	-84.3	-88.6	3.0	7.63e-01	0	47	104	0	60	1048574
2026-01-18 12:55:55.87	246.11	14.72	-85.2	-88.6	2.9	7.61e-01	0	47	104	0	60	1048574
2026-01-18 12:55:56.88	246.30	14.77	-85.2	-88.6	3.5	7.62e-01	0	47	104	0	60	1048575
2026-01-18 12:55:57.88	246.48	14.83	-85.2	-88.6	3.6	7.64e-01	0	47	104	0	60	1048573
2026-01-18 12:55:58.89	246.66	14.88	-84.7	-88.6	2.9	7.63e-01	0	47	104	0	60	1048568
2026-01-18 12:55:59.90	246.85	14.93	-85.2	-88.6	3.1	7.63e-01	0	47	104	0	60	1048575
2026-01-18 12:56:00.91	247.03	14.99	-85.2	-88.6	3.3	7.63e-01	0	47	104	0	60	1048571
2026-01-18 12:56:01.92	247.22	15.04	-85.2	-88.6	2.6	7.64e-01	0	47	104	0	60	1048575
2026-01-18 12:56:02.93	247.41	15.10	-85.2	-88.6	3.4	7.63e-01	0	47	104	0	60	1048574
2026-01-18 12:56:03.94	247.59	15.15	-85.2	-88.6	3.7	7.62e-01	0	47	104	0	60	1048573
2026-01-18 12:56:04.94	247.78	15.20	-85.2	-88.6	3.1	7.63e-01	0	47	104	0	60	1048575
2026-01-18 12:56:05.95	247.97	15.26	-84.7	-88.6	3.3	7.63e-01	0	47	104	0	60	1048574
2026-01-18 12:56:06.95	248.16	15.31	-85.2	-88.6	3.0	7.63e-01	0	47	104	0	60	1048574
2026-01-18 12:56:07.95	248.35	15.36	-84.7	-88.6	3.7	7.63e-01	0	47	104	0	60	1048571
2026-01-18 12:56:08.96	248.54	15.41	-85.2	-88.6	3.1	7.63e-01	0	47	104	0	60	1048574
2026-01-18 12:56:09.97	248.73	15.47	-85.2	-88.6	3.0	7.62e-01	0	47	104	0	60	1048575
2026-01-18 12:56:10.97	248.92	15.52	-85.2	-88.6	3.3	7.62e-01	0	47	104	0	60	1048575
2026-01-18 12:56:11.98	249.11	15.57	-84.7	-88.6	3.6	7.63e-01	0	47	104	0	60	1048575
2026-01-18 12:56:12.99	249.30	15.62	-85.2	-88.6	2.8	7.62e-01	0	47	104	0	60	1048575
2026-01-18 12:56:13.99	249.50	15.67	-84.7	-88.6	3.1	7.63e-01	0	47	104	0	60	1048572
2026-01-18 12:56:15.00	249.69	15.73	-84.7	-88.6	3.3	7.63e-01	0	47	104	0	60	1048571
2026-01-18 12:56:16.01	249.89	15.78	-85.2	-88.6	3.0	7.63e-01	0	47	104	0	60	1048575
2026-01-18 12:56:17.02	250.08	15.83	-84.7	-88.6	3.5	7.63e-01	0	47	104	0	60	1048575
2026-01-18 12:56:18.03	250.28	15.88	-84.7	-88.6	3.6	7.63e-01	0	47	104	0	60	1048575
2026-01-18 12:56:19.04	250.48	15.93	-85.2	-88.6	3.0	7.64e-01	0	47	104	0	60	1048575
2026-01-18 12:56:20.04	250.67	15.98	-84.7	-88.6	3.0	7.62e-01	0	47	104	0	60	1048575
2026-01-18 12:56:21.05	250.87	16.03	-85.2	-88.6	3.2	7.63e-01	0	47	104	0	60	1048570
2026-01-18 12:56:22.06	251.07	16.08	-85.2	-88.6	3.4	7.65e-01	0	47	104	0	60	1048575
2026-01-18 12:56:23.06	251.27	16.13	-85.2	-88.6	3.2	7.64e-01	0	47	104	0	60	1048570
2026-01-18 12:56:24.07	251.47	16.18	-85.2	-88.6	3.0	7.62e-01	0	47	104	0	60	1048574
2026-01-18 12:56:25.07	251.67	16.23	-84.7	-88.6	3.3	7.63e-01	0	47	104	0	60	1048570
2026-01-18 12:56:26.08	251.87	16.28	-84.7	-88.6	3.1	7.62e-01	0	47	104	0	60	1048570
2026-01-18 12:56:27.08	252.07	16.33	-85.2	-88.6	2.9	7.61e-01	0	47	104	0	60	1048573
2026-01-18 12:56:28.09	252.27	16.37	-85.2	-88.6	3.9	7.64e-01	0	47	104	0	60	1048573
2026-01-18 12:56:29.10	252.48	16.42	-85.2	-88.6	3.6	7.63e-01	0	47	104	0	60	1048564
2026-01-18 12:56:30.10	252.68	16.47	-85.2	-88.6	2.9	7.65e-01	0	47	104	0	60	1048575
2026-01-18 12:56:31.11	252.88	16.52	-84.7	-88.6	2.9	7.63e-01	0	47	104	0	60	1048574
2026-01-18 12:56:32.12	253.09	16.57	-84.7	-88.6	3.3	7.62e-01	0	47	104	0	60	1048575
2026-01-18 12:56:33.12	253.29	16.61	-85.2	-88.6	3.2	7.64e-01	0	47	104	0	60	1048573
2026-01-18 12:56:34.13	253.50	16.66	-85.2	-88.6	3.3	7.62e-01	0	47	104	0	60	1048573
2026-01-18 12:56:35.14	253.71	16.71	-84.7	-88.6	2.8	7.64e-01	0	47	104	0	60	1048573
2026-01-18 12:56:36.15	253.92	16.75	-85.2	-88.6	2.9	7.62e-01	0	47	104	0	60	1048573
2026-01-18 12:56:37.15	254.12	16.80	-85.2	-88.6	3.2	7.63e-01	0	47	104	0	60	1048575
2026-01-18 12:56:38.16	254.33	16.85	-85.2	-88.6	3.6	7.63e-01	0	47	104	0	60	1048574
2026-01-18 12:56:39.17	254.54	16.89	-85.2	-88.6	3.0	7.64e-01	0	47	104	0	60	1048575
2026-01-18 12:56:40.18	254.75	16.94	-84.7	-88.6	3.0	7.63e-01	0	47	104	0	60	1048574
2026-01-18 12:56:41.19	254.96	16.98	-85.2	-88.6	3.0	7.64e-01	0	47	104	0	60	1048570
2026-01-18 12:56:42.19	255.17	17.03	-85.2	-88.6	3.4	7.62e-01	0	47	104	0	60	1048571
2026-01-18 12:56:43.20	255.39	17.07	-84.7	-88.6	3.2	7.64e-01	0	47	104	0	60	1048571
2026-01-18 12:56:44.21	255.60	17.12	-85.2	-88.6	3.0	7.63e-01	0	47	104	0	60	1048574
2026-01-18 12:56:45.20	255.81	17.16	-84.7	-88.6	2.9	7.61e-01	0	47	104	0	60	1048572
2026-01-18 12:56:46.21	256.02	17.20	-84.7	-88.6	2.9	7.64e-01	0	47	104	0	60	1048575
2026-01-18 12:56:47.22	256.24	17.25	-85.2	-88.6	2.8	7.63e-01	0	47	104	0	60	1048575
2026-01-18 12:56:48.23	256.45	17.29	-85.2	-88.6	3.4	7.62e-01	0	47	104	0	60	1048573
2026-01-18 12:56:49.24	256.67	17.33	-85.2	-88.6	3.0	7.62e-01	0	47	104	0	60	1048574
2026-01-18 12:56:50.24	256.88	17.38	-85.2	-88.6	3.0	7.64e-01	0	47	104	0	60	1048572
2026-01-18 12:56:51.25	257.10	17.42	-85.2	-88.6	3.6	7.64e-01	0	47	104	0	60	1048574
2026-01-18 12:56:52.26	257.32	17.46	-85.2	-88.6	3.5	7.64e-01	0	47	104	0	60	1048575
2026-01-18 12:56:53.27	257.54	17.50	-84.7	-88.6	3.4	7.63e-01	0	47	104	0	60	1048575
2026-01-18 12:56:54.28	257.76	17.54	-84.7	-88.6	3.5	7.64e-01	0	47	104	0	60	1048573
2026-01-18 12:56:55.28	257.97	17.58	-84.7	-88.6	3.3	7.63e-01	0	47	104	0	60	1048575
2026-01-18 12:56:56.29	258.19	17.63	-85.2	-88.6	3.5	7.63e-01	0	47	104	0	60	1048575
2026-01-18 12:56:57.30	258.41	17.67	-85.2	-88.6	3.1	7.63e-01	0	47	104	0	60	1048574
2026-01-18 12:56:58.31	258.64	17.71	-85.2	-88.6	2.9	7.63e-01	0	47	104	0	60	1048572
2026-01-18 12:56:59.32	258.86	17.74	-84.7	-88.6	3.1	7.64e-01	0	47	104	0	60	1048575
2026-01-18 12:57:00.32	259.08	17.78	-84.7	-88.6	3.0	7.64e-01	0	47	104	0	60	1048575
2026-01-18 12:57:01.33	259.30	17.82	-85.2	-88.6	3.4	7.63e-01	0	47	104	0	60	1048573
2026-01-18 12:57:02.34	259.52	17.86	-85.2	-88.6	3.6	7.63e-01	0	47	104	0	60	1048575
2026-01-18 12:57:03.34	259.75	17.90	-85.2	-88.6	3.4	7.62e-01	0	47	104	0	60	1048571
2026-01-18 12:57:04.35	259.97	17.94	-85.2	-88.6	3.0	7.63e-01	0	47	104	0	60	1048575
2026-01-18 12:57:05.36	260.20	17.97	-85.2	-88.6	3.7	7.64e-01	0	47	104	0	60	1048574
2026-01-18 12:57:06.37	260.42	18.01	-85.2	-88.6	3.3	7.62e-01	0	47	104	0	60	1048571
2026-01-18 12:57:07.38	260.65	18.05	-85.2	-88.6	3.3	7.64e-01	0	47	104	0	60	1048575
2026-01-18 12:57:08.39	260.87	18.08	-85.2	-88.6	3.0	7.65e-01	0	47	104	0	60	1048575
2026-01-18 12:57:09.40	261.10	18.12	-84.7	-88.6	3.4	7.63e-01	0	47	104	0	60	1048575
2026-01-18 12:57:10.40	261.33	18.16	-85.2	-88.6	3.1	7.63e-01	0	47	104	0	60	1048568
2026-01-18 12:57:11.41	261.56	18.19	-85.2	-88.6	3.1	7.64e-01	0	47	104	0	60	1048575
2026-01-18 12:57:12.42	261.78	18.23	-85.2	-88.6	3.6	7.64e-01	0	47	104	0	60	1048570
2026-01-18 12:57:13.43	262.01	18.26	-85.2	-88.6	3.2	7.64e-01	0	47	104	0	60	1048575
2026-01-18 12:57:14.44	262.24	18.29	-84.7	-88.6	3.5	7.63e-01	0	47	104	0	60	1048572
2026-01-18 12:57:15.44	262.47	18.33	-85.2	-88.6	3.3	7.63e-01	0	47	104	0	60	1048572
2026-01-18 12:57:16.45	262.70	18.36	-85.2	-88.6	2.9	7.63e-01	0	47	104	0	60	1048570
2026-01-18 12:57:17.46	262.93	18.39	-84.7	-88.6	3.0	7.63e-01	0	47	104	0	60	1048572
2026-01-18 12:57:18.47	263.17	18.43	-84.7	-88.6	3.4	7.62e-01	0	47	104	0	60	1048575
2026-01-18 12:57:19.48	263.40	18.46	-84.7	-88.6	2.7	7.63e-01	0	47	104	0	60	1048574
2026-01-18 12:57:20.49	263.63	18.49	-85.2	-88.6	3.0	7.63e-01	0	47	104	0	60	1048575
2026-01-18 12:57:21.49	263.86	18.52	-85.2	-88.6	3.0	7.63e-01	0	47	104	0	60	1048574
2026-01-18 12:57:22.50	264.09	18.55	-85.2	-88.6	3.9	7.64e-01	0	47	104	0	60	1048574
2026-01-18 12:57:23.51	264.33	18.58	-85.2	-88.6	3.7	7.62e-01	0	47	104	0	60	1048575
2026-01-18 12:57:24.50	264.56	18.61	-84.7	-88.6	3.1	7.62e-01	0	47	104	0	60	1048573
2026-01-18 12:57:25.51	264.79	18.64	-84.7	-88.6	3.0	7.63e-01	0	47	104	0	60	1048574
2026-01-18 12:57:26.52	265.03	18.67	-85.2	-88.6	3.6	7.64e-01	0	47	104	0	60	1048573
2026-01-18 12:57:27.53	265.27	18.70	-85.2	-88.6	3.2	7.63e-01	0	47	104	0	60	1048575
2026-01-18 12:57:28.53	265.50	18.73	-85.2	-88.6	3.2	7.64e-01	0	47	104	0	60	1048575
2026-01-18 12:57:29.54	265.74	18.75	-85.2	-88.6	3.3	7.63e-01	0	47	104	0	60	1048575
2026-01-18 12:57:30.54	265.97	18.78	-85.2	-88.6	3.0	7.63e-01	0	47	104	0	60	1048574
2026-01-18 12:57:31.55	266.21	18.81	-85.2	-88.6	3.1	7.63e-01	0	47	104	0	60	1048572
2026-01-18 12:57:32.56	266.45	18.83	-85.2	-88.6	3.3	7.62e-01	0	47	104	0	60	1048574
2026-01-18 12:57:33.56	266.68	18.86	-85.2	-88.6	3.0	7.62e-01	0	47	104	0	60	1048575
2026-01-18 12:57:34.57	266.92	18.89	-85.2	-88.6	3.0	7.62e-01	0	47	104	0	60	1048575
2026-01-18 12:57:35.58	267.16	18.91	-85.2	-88.6	2.9	7.64e-01	0	47	104	0	60	1048575
2026-01-18 12:57:36.59	267.40	18.93	-85.2	-88.6	2.8	7.63e-01	0	47	104	0	60	1048572
2026-01-18 12:57:37.59	267.64	18.96	-84.7	-88.6	3.5	7.63e-01	0	47	104	0	60	1048572
2026-01-18 12:57:38.60	267.88	18.98	-85.2	-88.6	2.8	7.62e-01	0	47	104	0	60	1048575
2026-01-18 12:57:39.61	268.12	19.01	-85.2	-88.6	2.9	7.63e-01	0	47	104	0	60	1048575
2026-01-18 12:57:40.62	268.36	19.03	-85.2	-88.6	3.6	7.62e-01	0	47	104	0	60	1048575
2026-01-18 12:57:41.63	268.60	19.05	-85.2	-88.6	2.8	7.64e-01	0	47	104	0	60	1048575
2026-01-18 12:57:42.64	268.84	19.07	-84.7	-88.6	3.7	7.63e-01	0	47	104	0	60	1048575
2026-01-18 12:57:43.64	269.08	19.09	-85.2	-88.6	3.4	7.64e-01	0	47	104	0	60	1048575
2026-01-18 12:57:44.65	269.32	19.11	-85.2	-88.6	3.1	7.63e-01	0	47	104	0	60	1048575
2026-01-18 12:57:45.66	269.57	19.13	-85.2	-88.6	2.8	7.63e-01	0	47	104	0	60	1048574
2026-01-18 12:57:46.66	269.81	19.15	-84.7	-88.6	3.2	7.63e-01	0	47	104	0	60	1048575
2026-01-18 12:57:47.67	270.05	19.17	-84.7	-88.6	2.4	7.63e-01	0	47	104	0	60	1048574
2026-01-18 12:57:48.68	270.29	19.19	-85.2	-88.6	3.0	7.63e-01	0	47	104	0	60	1048575
2026-01-18 12:57:49.68	270.53	19.21	-85.2	-88.6	3.1	7.62e-01	0	47	104	0	60	1048570
2026-01-18 12:57:50.69	270.78	19.23	-85.2	-88.6	3.6	7.64e-01	0	47	104	0	60	1048573
2026-01-18 12:57:51.70	271.02	19.25	-84.7	-88.6	2.7	7.63e-01	0	47	104	0	60	1048575
2026-01-18 12:57:52.71	271.27	19.26	-84.7	-88.6	3.1	7.62e-01	0	47	104	0	60	1048573
2026-01-18 12:57:53.72	271.51	19.28	-85.2	-88.6	2.9	7.62e-01	0	47	104	0	60	1048575
2026-01-18 12:57:54.72	271.75	19.29	-85.2	-88.6	3.8	7.64e-01	0	47	104	0	60	1048573
2026-01-18 12:57:55.73	272.00	19.31	-85.2	-88.6	3.1	7.62e-01	0	47	104	0	60	1048574
2026-01-18 12:57:56.74	272.24	19.33	-84.7	-88.6	3.6	7.63e-01	0	47	104	0	60	1048574
2026-01-18 12:57:57.75	272.49	19.34	-85.2	-88.6	3.2	7.62e-01	0	47	104	0	60	1048574
2026-01-18 12:57:58.75	272.73	19.35	-85.2	-88.6	2.8	7.64e-01	0	47	104	0	60	1048573
2026-01-18 12:57:59.76	272.98	19.37	-85.2	-88.6	2.9	7.63e-01	0	47	104	0	60	1048573
2026-01-18 12:58:00.76	273.22	19.38	-85.2	-88.6	3.1	7.63e-01	0	47	104	0	60	1048574
2026-01-18 12:58:01.77	273.47	19.39	-85.2	-88.6	3.0	7.63e-01	0	47	104	0	60	1048574
2026-01-18 12:58:02.78	273.72	19.40	-85.2	-88.6	2.7	7.63e-01	0	47	104	0	60	1048570
2026-01-18 12:58:03.79	273.96	19.41	-85.2	-88.6	3.8	7.63e-01	0	47	104	0	60	1048573
2026-01-18 12:58:04.79	274.21	19.43	-85.2	-88.6	3.4	7.62e-01	0	47	104	0	60	1048575
2026-01-18 12:58:05.80	274.46	19.44	-84.7	-88.6	3.1	7.63e-01	0	47	104	0	60	1048573
2026-01-18 12:58:06.80	274.70	19.45	-85.2	-88.6	3.1	7.65e-01	0	47	104	0	60	1048575
2026-01-18 12:58:07.81	274.95	19.45	-85.2	-88.6	3.6	7.63e-01	0	47	104	0	60	1048574
2026-01-18 12:58:08.82	275.20	19.46	-85.2	-88.6	3.1	7.64e-01	0	47	104	0	60	1048572
2026-01-18 12:58:09.83	275.44	19.47	-85.2	-88.6	3.0	7.64e-01	0	47	104	0	60	1048575
2026-01-18 12:58:10.84	275.69	19.48	-85.2	-88.6	2.9	7.63e-01	0	47	104	0	60	1048575
2026-01-18 12:58:11.84	275.94	19.49	-84.7	-88.6	3.1	7.62e-01	0	47	104	0	60	1048574
2026-01-18 12:58:12.85	276.19	19.49	-85.2	-88.6	3.1	7.63e-01	0	47	104	0	60	1048575
2026-01-18 12:58:13.86	276.43	19.50	-85.2	-88.6	3.2	7.65e-01	0	47	104	0	60	1048573
2026-01-18 12:58:14.87	276.68	19.50	-85.2	-88.6	3.3	7.62e-01	0	47	104	0	60	1048574
2026-01-18 12:58:15.88	276.93	19.51	-84.7	-88.6	2.8	7.64e-01	0	47	104	0	60	1048567
2026-01-18 12:58:16.88	277.18	19.51	-85.2	-88.6	3.1	7.65e-01	0	47	104	0	60	1048575
2026-01-18 12:58:17.89	277.42	19.52	-85.2	-88.6	2.7	7.61e-01	0	47	104	0	60	1048574
2026-01-18 12:58:18.89	277.67	19.52	-85.2	-88.6	3.6	7.63e-01	0	47	104	0	60	1048567
2026-01-18 12:58:19.90	277.92	19.52	-84.7	-88.6	2.9	7.62e-01	0	47	104	0	60	1048566
2026-01-18 12:58:20.91	278.17	19.53	-85.2	-88.6	3.0	7.64e-01	0	47	104	0	60	1048573
2026-01-18 12:58:21.92	278.42	19.53	-85.2	-88.6	3.6	7.62e-01	0	47	104	0	60	1048573
2026-01-18 12:58:22.92	278.66	19.53	-85.2	-88.6	3.3	7.64e-01	0	47	104	0	60	1048575
2026-01-18 12:58:23.92	278.91	19.53	-85.2	-88.6	3.3	7.63e-01	0	47	104	0	60	1048575
2026-01-18 12:58:24.93	279.16	19.53	-84.7	-88.6	3.0	7.62e-01	0	47	104	0	60	1048574
2026-01-18 12:58:25.94	279.41	19.53	-84.7	-88.6	3.0	7.63e-01	0	47	104	0	60	1048572
2026-01-18 12:58:26.95	279.66	19.53	-85.2	-88.6	2.9	7.61e-01	0	47	104	0	60	1048573
2026-01-18 12:58:27.96	279.90	19.53	-85.2	-88.6	3.0	7.64e-01	0	47	104	0	60	1048575
2026-01-18 12:58:28.96	280.15	19.53	-84.7	-88.6	3.4	7.63e-01	0	47	104	0	60	1048562
2026-01-18 12:58:29.96	280.40	19.53	-84.7	-88.6	3.0	7.64e-01	0	47	104	0	60	1048571
2026-01-18 12:58:30.97	280.65	19.52	-84.7	-88.6	3.3	7.65e-01	0	47	104	0	60	1048574
2026-01-18 12:58:31.98	280.89	19.52	-85.2	-88.6	2.8	7.64e-01	0	47	104	0	60	1048573
2026-01-18 12:58:32.99	281.14	19.52	-85.2	-88.6	3.1	7.64e-01	0	47	104	0	60	1048575
2026-01-18 12:58:34.00	281.39	19.51	-85.2	-88.6	3.5	7.63e-01	0	47	104	0	60	1048573
2026-01-18 12:58:35.00	281.64	19.51	-84.7	-88.6	3.2	7.62e-01	0	47	104	0	60	1048571
2026-01-18 12:58:36.01	281.88	19.50	-85.2	-88.6	3.2	7.62e-01	0	47	104	0	60	1048573
2026-01-18 12:58:37.02	282.13	19.49	-85.2	-88.6	2.9	7.63e-01	0	47	104	0	60	1048574
2026-01-18 12:58:38.03	282.38	19.49	-84.7	-88.6	3.4	7.63e-01	0	47	104	0	60	1048574
2026-01-18 12:58:39.04	282.63	19.48	-84.7	-88.6	3.2	7.61e-01	0	47	104	0	60	1048572
2026-01-18 12:58:40.04	282.87	19.47	-85.2	-88.6	3.4	7.63e-01	0	47	104	0	60	1048575
2026-01-18 12:58:41.05	283.12	19.47	-85.2	-88.6	3.2	7.60e-01	0	47	104	0	60	1048575
2026-01-18 12:58:42.06	283.37	19.46	-85.2	-88.6	2.8	7.63e-01	0	47	104	0	60	1048574
2026-01-18 12:58:43.07	283.62	19.45	-85.2	-88.6	2.9	7.62e-01	0	47	104	0	60	1048574
2026-01-18 12:58:44.08	283.86	19.44	-84.7	-88.6	3.2	7.62e-01	0	47	104	0	60	1048575
2026-01-18 12:58:45.08	284.11	19.43	-85.2	-88.6	3.5	7.63e-01	0	47	104	0	60	1048575
2026-01-18 12:58:46.09	284.36	19.42	-85.2	-88.6	3.1	7.61e-01	0	47	104	0	60	1048572
2026-01-18 12:58:47.10	284.60	19.41	-85.2	-88.6	2.9	7.63e-01	0	47	104	0	60	1048575
2026-01-18 12:58:48.11	284.85	19.40	-85.2	-88.6	3.3	7.65e-01	0	47	104	0	60	1048575
2026-01-18 12:58:49.12	285.10	19.38	-84.7	-88.6	3.5	7.62e-01	0	47	104	0	60	1048575
2026-01-18 12:58:50.12	285.34	19.37	-85.2	-88.6	3.1	7.64e-01	0	47	104	0	60	1048571
2026-01-18 12:58:51.13	285.59	19.36	-85.2	-88.6	3.2	7.63e-01	0	47	104	0	60	1048571
2026-01-18 12:58:52.14	285.83	19.34	-85.2	-88.6	3.2	7.64e-01	0	47	104	0	60	1048575
2026-01-18 12:58:53.14	286.07	19.33	-85.2	-88.6	2.8	7.63e-01	0	47	104	0	60	1048575
2026-01-18 12:58:54.15	286.32	19.31	-84.7	-88.6	2.9	7.63e-01	0	47	104	0	60	1048566
2026-01-18 12:58:55.16	286.56	19.30	-85.2	-88.6	3.7	7.64e-01	0	47	104	0	60	1048575
2026-01-18 12:58:56.16	286.81	19.28	-85.2	-88.6	3.0	7.63e-01	0	47	104	0	60	1048565
2026-01-18 12:58:57.17	287.05	19.27	-84.7	-88.6	3.2	7.63e-01	0	47	104	0	60	1048575
2026-01-18 12:58:58.18	287.30	19.25	-84.7	-88.6	3.3	7.62e-01	0	47	104	0	60	1048575
2026-01-18 12:58:59.18	287.54	19.23	-84.7	-88.6	2.8	7.63e-01	0	47	104	0	60	1048573
2026-01-18 12:59:00.19	287.78	19.22	-85.2	-88.6	3.2	7.63e-01	0	47	104	0	60	1048570
2026-01-18 12:59:01.20	288.02	19.20	-85.2	-88.6	3.0	7.64e-01	0	47	104	0	60	1048573
2026-01-18 12:59:02.21	288.27	19.18	-85.2	-88.6	3.0	7.65e-01	0	47	104	0	60	1048568
2026-01-18 12:59:03.21	288.51	19.16	-84.7	-88.6	3.0	7.62e-01	0	47	104	0	60	1048574
2026-01-18 12:59:04.22	288.75	19.14	-84.7	-88.6	3.2	7.63e-01	0	47	104	0	60	1048575
2026-01-18 12:59:05.23	288.99	19.12	-85.2	-88.6	3.3	7.62e-01	0	47	104	0	60	1048574
2026-01-18 12:59:06.24	289.24	19.10	-85.2	-88.6	2.9	7.63e-01	0	47	104	0	60	1048575
2026-01-18 12:59:07.24	289.47	19.08	-85.2	-88.6	3.2	7.64e-01	0	47	104	0	60	1048575
2026-01-18 12:59:08.25	289.72	19.06	-85.2	-88.6	3.1	7.63e-01	0	47	104	0	60	1048572
2026-01-18 12:59:09.26	289.96	19.04	-85.2	-88.6	3.5	7.63e-01	0	47	104	0	60	1048575
2026-01-18 12:59:10.27	290.20	19.01	-85.2	-88.6	3.5	7.63e-01	0	47	104	0	60	1048573
2026-01-18 12:59:11.28	290.44	18.99	-85.2	-88.6	3.6	7.63e-01	0	47	104	0	60	1048575
2026-01-18 12:59:12.28	290.67	18.97	-85.2	-88.6	3.6	7.63e-01	0	47	104	0	60	1048575
2026-01-18 12:59:13.29	290.91	18.94	-84.7	-88.6	2.8	7.65e-01	0	47	104	0	60	1048563
2026-01-18 12:59:14.30	291.15	18.92	-84.7	-88.6	3.0	7.64e-01	0	47	104	0	60	1048574
2026-01-18 12:59:15.31	291.39	18.89	-85.2	-88.6	3.5	7.62e-01	0	47	104	0	60	1048572
2026-01-18 12:59:16.31	291.63	18.87	-85.2	-88.6	3.2	7.63e-01	0	47	104	0	60	1048575
2026-01-18 12:59:17.32	291.87	18.84	-84.7	-88.6	3.1	7.64e-01	0	47	104	0	60	1048575
2026-01-18 12:59:18.33	292.10	18.82	-85.2	-88.6	3.5	7.62e-01	0	47	104	0	60	1048571
2026-01-18 12:59:19.34	292.34	18.79	-85.2	-88.6	3.4	7.63e-01	0	47	104	0	60	1048575
2026-01-18 12:59:20.35	292.58	18.76	-85.2	-88.6	3.2	7.63e-01	0	47	104	0	60	1048575
2026-01-18 12:59:21.36	292.81	18.74	-85.2	-88.6	3.3	7.63e-01	0	47	104	0	60	1048573
2026-01-18 12:59:22.36	293.05	18.71	-84.7	-88.6	3.2	7.64e-01	0	47	104	0	60	1048572
2026-01-18 12:59:23.37	293.28	18.68	-85.2	-88.6	3.1	7.64e-01	0	47	104	0	60	1048571
2026-01-18 12:59:24.38	293.52	18.65	-85.2	-88.6	2.9	7.63e-01	0	47	104	0	60	1048574
2026-01-18 12:59:25.38	293.75	18.62	-85.2	-88.6	3.6	7.62e-01	0	47	104	0	60	1048573
2026-01-18 12:59:26.39	293.98	18.59	-85.2	-88.6	3.4	7.64e-01	0	47	104	0	60	1048575
2026-01-18 12:59:27.40	294.22	18.56	-85.2	-88.6	3.1	7.64e-01	0	47	104	0	60	1048573
2026-01-18 12:59:28.40	294.45	18.53	-84.7	-88.6	3.2	7.64e-01	0	47	104	0	60	1048575
2026-01-18 12:59:29.40	294.68	18.50	-85.2	-88.6	3.1	7.64e-01	0	47	104	0	60	1048574
2026-01-18 12:59:30.41	294.91	18.47	-85.2	-88.6	3.1	7.63e-01	0	47	104	0	60	1048575
2026-01-18 12:59:31.41	295.14	18.44	-85.2	-88.6	2.9	7.58e-01	0	47	104	0	60	1048570
2026-01-18 12:59:32.42	295.37	18.41	-85.2	-88.6	3.0	7.64e-01	0	47	104	0	60	1048575
2026-01-18 12:59:33.43	295.60	18.37	-85.2	-88.6	2.8	7.64e-01	0	47	104	0	60	1048572
2026-01-18 12:59:34.44	295.83	18.34	-85.2	-88.6	3.0	7.64e-01	0	47	104	0	60	1048574
2026-01-18 12:59:35.44	296.06	18.31	-85.2	-88.6	3.4	7.65e-01	0	47	104	0	60	1048574
2026-01-18 12:59:36.45	296.29	18.27	-84.7	-88.6	3.0	7.62e-01	0	47	104	0	60	1048564
2026-01-18 12:59:37.46	296.52	18.24	-85.2	-88.6	3.1	7.64e-01	0	47	104	0	60	1048571
2026-01-18 12:59:38.47	296.75	18.20	-85.2	-88.6	3.2	7.63e-01	0	47	104	0	60	1048574
2026-01-18 12:59:39.48	296.98	18.17	-85.2	-88.6	2.8	7.62e-01	0	47	104	0	60	1048574
2026-01-18 12:59:40.48	297.20	18.13	-85.2	-88.6	3.7	7.63e-01	0	47	104	0	60	1048573
2026-01-18 12:59:41.49	297.43	18.10	-85.2	-88.6	2.9	7.62e-01	0	47	104	0	60	1048575
2026-01-18 12:59:42.50	297.66	18.06	-85.2	-88.6	3.4	7.64e-01	0	47	104	0	60	1048575
2026-01-18 12:59:43.51	297.88	18.03	-85.2	-88.6	3.2	7.63e-01	0	47	104	0	60	1048575
2026-01-18 12:59:44.51	298.10	17.99	-85.2	-88.6	3.4	7.63e-01	0	47	104	0	60	1048569
2026-01-18 12:59:45.51	298.33	17.95	-84.7	-88.6	2.9	7.63e-01	0	47	104	0	60	1048575
2026-01-18 12:59:46.52	298.55	17.92	-85.2	-88.6	3.2	7.64e-01	0	47	104	0	60	1048575
2026-01-18 12:59:47.53	298.77	17.88	-85.2	-88.6	3.2	7.64e-01	0	47	104	0	60	1048575
2026-01-18 12:59:48.53	299.00	17.84	-85.2	-88.6	3.1	7.64e-01	0	47	104	0	60	1048568
2026-01-18 12:59:49.53	299.22	17.80	-85.2	-88.6	3.7	7.63e-01	0	47	104	0	60	1048574
2026-01-18 12:59:50.54	299.44	17.76	-85.2	-88.6	3.8	7.63e-01	0	47	104	0	60	1048574
2026-01-18 12:59:51.55	299.66	17.72	-85.2	-88.6	3.4	7.62e-01	0	47	104	0	60	1048575
2026-01-18 12:59:52.56	299.88	17.68	-85.2	-88.6	3.0	7.63e-01	0	47	104	0	60	1048574
2026-01-18 12:59:53.56	300.10	17.64	-85.2	-88.6	3.1	7.63e-01	0	47	104	0	60	1048573
2026-01-18 12:59:54.57	300.32	17.60	-85.2	-88.6	3.1	7.64e-01	0	47	104	0	60	1048572
2026-01-18 12:59:55.58	300.54	17.56	-84.7	-88.6	3.2	7.63e-01	0	47	104	0	60	1048572
2026-01-18 12:59:56.59	300.76	17.52	-85.2	-88.6	3.1	7.60e-01	0	47	104	0	60	1048572
2026-01-18 12:59:57.59	300.97	17.48	-85.2	-88.6	3.2	7.64e-01	0	47	104	0	60	1048575
2026-01-18 12:59:58.59	301.19	17.44	-84.7	-88.6	3.0	7.63e-01	0	47	104	0	60	1048571
2026-01-18 12:59:59.59	301.40	17.40	-85.2	-88.6	3.3	7.64e-01	0	47	104	0	60	1048575
2026-01-18 13:00:00.60	301.62	17.36	-84.7	-88.6	3.4	7.63e-01	0	47	104	0	60	1048574
2026-01-18 13:00:01.61	301.83	17.31	-85.2	-88.6	3.2	7.63e-01	0	47	104	0	60	1048570
2026-01-18 13:00:02.62	302.05	17.27	-85.2	-88.6	3.1	7.64e-01	0	47	104	0	60	1048574
2026-01-18 13:00:03.62	302.26	17.23	-85.2	-88.6	3.3	7.62e-01	0	47	104	0	60	1048575
2026-01-18 13:00:04.62	302.47	17.18	-84.7	-88.6	3.5	7.62e-01	0	47	104	0	60	1048575
2026-01-18 13:00:05.63	302.69	17.14	-85.2	-88.6	2.9	7.64e-01	0	47	104	0	60	1048574
2026-01-18 13:00:06.64	302.90	17.10	-85.2	-88.6	3.4	7.63e-01	0	47	104	0	60	1048575
2026-01-18 13:00:07.65	303.11	17.05	-85.2	-88.6	2.8	7.64e-01	0	47	104	0	60	1048575
2026-01-18 13:00:08.65	303.32	17.01	-85.2	-88.6	3.0	7.64e-01	0	47	104	0	60	1048575
2026-01-18 13:00:09.66	303.53	16.96	-85.2	-88.6	3.2	7.63e-01	0	47	104	0	60	1048574
2026-01-18 13:00:10.67	303.74	16.92	-85.2	-88.6	3.1	7.63e-01	0	47	104	0	60	1048571
2026-01-18 13:00:11.68	303.95	16.87	-85.2	-88.6	3.6	7.64e-01	0	47	104	0	60	1048573
2026-01-18 13:00:12.69	304.16	16.83	-85.2	-88.6	3.5	7.64e-01	0	47	104	0	60	1048574
2026-01-18 13:00:13.69	304.37	16.78	-85.2	-88.6	3.1	7.64e-01	0	47	104	0	60	1048575
2026-01-18 13:00:14.70	304.57	16.73	-84.7	-88.6	2.8	7.63e-01	0	47	104	0	60	1048575
2026-01-18 13:00:15.71	304.78	16.69	-85.2	-88.6	2.9	7.64e-01	0	47	104	0	60	1048574
2026-01-18 13:00:16.72	304.99	16.64	-85.2	-88.6	3.3	7.63e-01	0	47	104	0	60	1048573
2026-01-18 13:00:17.72	305.19	16.59	-85.2	-88.6	3.2	7.64e-01	0	47	104	0	60	1048572
2026-01-18 13:00:18.72	305.39	16.55	-85.2	-88.6	3.3	7.64e-01	0	47	104	0	60	1048574
2026-01-18 13:00:19.73	305.60	16.50	-84.7	-88.6	3.1	7.65e-01	0	47	104	0	60	1048575
2026-01-18 13:00:20.74	305.80	16.45	-85.2	-88.6	3.0	7.63e-01	0	47	104	0	60	1048574
2026-01-18 13:00:21.75	306.01	16.40	-85.2	-88.6	3.0	7.64e-01	0	47	104	0	60	1048572
2026-01-18 13:00:22.75	306.21	16.36	-85.2	-88.6	3.3	7.65e-01	0	47	104	0	60	1048575
2026-01-18 13:00:23.76	306.41	16.31	-84.7	-88.6	3.1	7.63e-01	0	47	104	0	60	1048573
2026-01-18 13:00:24.77	306.61	16.26	-85.2	-88.6	3.0	7.65e-01	0	47	104	0	60	1048575
2026-01-18 13:00:25.78	306.81	16.21	-84.7	-88.6	3.0	7.63e-01	0	47	104	0	60	1048570
2026-01-18 13:00:26.79	307.01	16.16	-85.2	-88.6	3.7	7.63e-01	0	47	104	0	60	1048572
2026-01-18 13:00:27.79	307.21	16.11	-85.2	-88.6	3.6	7.63e-01	0	47	104	0	60	1048574
2026-01-18 13:00:28.80	307.41	16.06	-84.7	-88.6	2.9	7.64e-01	0	47	104	0	60	1048575
2026-01-18 13:00:29.81	307.60	16.01	-84.7	-88.6	3.0	7.62e-01	0	47	104	0	60	1048572
2026-01-18 13:00:30.81	307.80	15.96	-84.7	-88.6	3.2	7.63e-01	0	47	104	0	60	1048572
2026-01-18 13:00:31.82	308.00	15.91	-85.2	-88.6	3.2	7.61e-01	0	47	104	0	60	1048574
2026-01-18 13:00:32.83	308.19	15.86	-85.2	-88.6	3.5	7.63e-01	0	47	104	0	60	1048575
2026-01-18 13:00:33.84	308.39	15.81	-84.7	-88.6	3.0	7.63e-01	0	47	104	0	60	1048575
2026-01-18 13:00:34.84	308.58	15.76	-85.2	-88.6	3.0	7.63e-01	0	47	104	0	60	1048575
2026-01-18 13:00:35.85	308.78	15.71	-84.7	-88.6	3.2	7.63e-01	0	47	104	0	60	1048573
2026-01-18 13:00:36.86	308.97	15.66	-85.2	-88.6	3.1	7.64e-01	0	47	104	0	60	1048575
2026-01-18 13:00:37.87	309.16	15.60	-84.7	-88.6	3.0	7.63e-01	0	47	104	0	60	1048575
2026-01-18 13:00:38.88	309.36	15.55	-85.2	-88.6	3.0	7.64e-01	0	47	104	0	60	1048575
2026-01-18 13:00:39.89	309.55	15.50	-85.2	-88.6	3.2	7.62e-01	0	47	104	0	60	1048575
2026-01-18 13:00:40.89	309.74	15.45	-85.2	-88.6	3.6	7.64e-01	0	47	104	0	60	1048573
2026-01-18 13:00:41.89	309.92	15.40	-85.2	-88.6	3.2	7.64e-01	0	47	104	0	60	1048575
2026-01-18 13:00:42.90	310.11	15.34	-84.7	-88.6	3.2	7.62e-01	0	47	104	0	60	1048575
2026-01-18 13:00:43.91	310.30	15.29	-85.2	-88.6	3.5	7.63e-01	0	47	104	0	60	1048571
2026-01-18 13:00:44.92	310.49	15.24	-85.2	-88.6	3.8	7.64e-01	0	47	104	0	60	1048574
2026-01-18 13:00:45.92	310.68	15.19	-85.2	-88.6	2.8	7.63e-01	0	47	104	0	60	1048574
2026-01-18 13:00:46.93	310.86	15.13	-85.2	-88.6	3.2	7.64e-01	0	47	104	0	60	1048570
2026-01-18 13:00:47.94	311.05	15.08	-84.7	-88.6	2.9	7.63e-01	0	47	104	0	60	1048570
2026-01-18 13:00:48.95	311.24	15.03	-85.2	-88.6	3.0	7.62e-01	0	47	104	0	60	1048575
2026-01-18 13:00:49.96	311.42	14.97	-85.2	-88.6	3.0	7.61e-01	0	47	104	0	60	1048573
2026-01-18 13:00:50.97	311.61	14.92	-84.7	-88.6	3.3	7.63e-01	0	47	104	0	60	1048575
2026-01-18 13:00:51.97	311.79	14.87	-85.2	-88.6	3.5	7.63e-01	0	47	104	0	60	1048574
2026-01-18 13:00:52.98	311.97	14.81	-85.2	-88.6	2.9	7.63e-01	0	47	104	0	60	1048573
2026-01-18 13:00:53.98	312.15	14.76	-85.2	-88.6	3.0	7.64e-01	0	47	104	0	60	1048573
2026-01-18 13:00:54.98	312.33	14.70	-85.2	-88.6	3.1	7.62e-01	0	47	104	0	60	1048575
2026-01-18 13:00:55.99	312.51	14.65	-84.7	-88.6	3.0	7.61e-01	0	47	104	0	60	1048575
2026-01-18 13:00:57.00	312.70	14.59	-85.2	-88.6	3.7	7.62e-01	0	47	104	0	60	1048575
2026-01-18 13:00:58.00	312.87	14.54	-84.7	-88.6	3.7	7.63e-01	0	47	104	0	60	1048574
2026-01-18 13:00:59.01	313.05	14.48	-85.2	-88.6	2.9	7.64e-01	0	47	104	0	60	1048574
2026-01-18 13:01:00.02	313.23	14.43	-85.2	-88.6	3.0	7.63e-01	0	47	104	0	60	1048572
2026-01-18 13:01:01.03	313.41	14.37	-85.2	-88.6	3.5	7.63e-01	0	47	104	0	60	1048575
2026-01-18 13:01:02.04	313.59	14.32	-84.7	-88.6	3.2	7.63e-01	0	47	104	0	60	1048573
2026-01-18 13:01:03.04	313.76	14.26	-85.2	-88.6	3.3	7.63e-01	0	47	104	0	60	1048575
2026-01-18 13:01:04.05	313.94	14.21	-85.2	-88.6	3.3	7.64e-01	0	47	104	0	60	1048566
2026-01-18 13:01:05.06	314.11	14.15	-85.2	-88.6	3.0	7.64e-01	0	47	104	0	60	1048574
2026-01-18 13:01:06.07	314.29	14.10	-85.2	-88.6	3.0	7.64e-01	0	47	104	0	60	1048575
2026-01-18 13:01:07.07	314.46	14.04	-85.2	-88.6	3.0	7.65e-01	0	48	104	0	60	1048572
2026-01-18 13:01:08.08	314.64	13.99	-85.2	-88.6	3.6	7.63e-01	0	47	104	0	60	1048573
2026-01-18 13:01:09.09	314.81	13.93	-85.2	-88.6	3.0	7.62e-01	0	47	104	0	60	1048574
2026-01-18 13:01:10.10	314.98	13.87	-85.2	-88.6	3.2	7.64e-01	0	47	104	0	60	1048574
2026-01-18 13:01:11.10	315.15	13.82	-84.7	-88.6	3.1	7.62e-01	0	47	104	0	60	1048574
2026-01-18 13:01:12.11	315.32	13.76	-85.2	-88.6	3.6	7.62e-01	0	47	104	0	60	1048575
2026-01-18 13:01:13.12	315.49	13.70	-85.2	-88.6	3.2	7.64e-01	0	48	104	0	60	1048575
2026-01-18 13:01:14.12	315.66	13.65	-85.2	-88.6	2.9	7.63e-01	0	47	104	0	60	1048569
2026-01-18 13:01:15.13	315.83	13.59	-85.2	-88.6	3.0	7.62e-01	0	47	104	0	60	1048573
2026-01-18 13:01:16.14	316.00	13.53	-85.2	-88.6	3.1	7.62e-01	0	47	104	0	60	1048574
2026-01-18 13:01:17.15	316.17	13.48	-84.7	-88.6	3.6	7.63e-01	0	47	104	0	60	1048573
2026-01-18 13:01:18.16	316.33	13.42	-85.2	-88.6	3.1	7.63e-01	0	47	104	0	60	1048571
2026-01-18 13:01:19.16	316.50	13.36	-85.2	-88.6	3.0	7.63e-01	0	47	104	0	60	1048575
2026-01-18 13:01:20.17	316.66	13.31	-85.2	-88.6	2.8	7.62e-01	0	47	104	0	60	1048575
2026-01-18 13:01:21.18	316.83	13.25	-84.7	-88.6	3.5	7.62e-01	0	47	104	0	60	1048573
2026-01-18 13:01:22.19	316.99	13.19	-85.2	-88.6	3.2	7.64e-01	0	47	104	0	60	1048575
2026-01-18 13:01:23.20	317.16	13.13	-85.2	-88.6	3.0	7.64e-01	0	47	104	0	60	1048573
2026-01-18 13:01:24.21	317.32	13.08	-84.7	-88.6	3.1	7.63e-01	0	47	104	0	60	1048575
2026-01-18 13:01:25.21	317.48	13.02	-85.2	-88.6	3.3	7.64e-01	0	47	104	0	60	1048575
2026-01-18 13:01:26.22	317.65	12.96	-85.2	-88.6	3.3	7.63e-01	0	47	104	0	60	1048575
2026-01-18 13:01:27.22	317.81	12.90	-85.2	-88.6	2.8	7.63e-01	0	47	104	0	60	1048574
2026-01-18 13:01:28.23	317.97	12.85	-85.2	-88.6	3.0	7.64e-01	0	47	104	0	60	1048574
2026-01-18 13:01:29.24	318.13	12.79	-85.2	-88.6	2.9	7.63e-01	0	47	104	0	60	1048566
2026-01-18 13:01:30.24	318.29	12.73	-85.2	-88.6	2.8	7.63e-01	0	47	104	0	60	1048574
2026-01-18 13:01:31.25	318.45	12.67	-84.7	-88.6	3.4	7.61e-01	0	47	104	0	60	1048572
2026-01-18 13:01:32.26	318.60	12.62	-85.2	-88.6	3.1	7.62e-01	0	47	104	0	60	1048575
2026-01-18 13:01:33.26	318.76	12.56	-85.2	-88.6	2.8	7.63e-01	0	47	104	0	60	1048575
2026-01-18 13:01:34.27	318.92	12.50	-85.2	-88.6	3.0	7.64e-01	0	47	104	0	60	1048572
2026-01-18 13:01:35.28	319.08	12.44	-84.7	-88.6	3.6	7.63e-01	0	47	104	0	60	1048575
2026-01-18 13:01:36.29	319.23	12.38	-85.2	-88.6	3.2	7.63e-01	0	47	104	0	60	1048572
2026-01-18 13:01:37.30	319.39	12.33	-85.2	-88.6	3.2	7.63e-01	0	47	104	0	60	1048572
2026-01-18 13:01:38.30	319.54	12.27	-85.2	-88.6	3.3	7.65e-01	0	47	104	0	60	1048573
2026-01-18 13:01:39.31	319.70	12.21	-85.2	-88.6	3.7	7.62e-01	0	47	104	0	60	1048575
2026-01-18 13:01:40.32	319.85	12.15	-84.7	-88.6	3.0	7.62e-01	0	47	104	0	60	1048573
2026-01-18 13:01:41.32	320.00	12.09	-85.2	-88.6	2.9	7.63e-01	0	47	104	0	60	1048569
2026-01-18 13:01:42.33	320.15	12.03	-85.2	-88.6	3.6	7.63e-01	0	47	104	0	60	1048575
2026-01-18 13:01:43.34	320.31	11.98	-85.2	-88.6	2.8	7.62e-01	0	47	104	0	60	1048575
2026-01-18 13:01:44.34	320.46	11.92	-85.2	-88.6	3.3	7.64e-01	0	47	104	0	60	1048572
2026-01-18 13:01:45.34	320.61	11.86	-84.7	-88.6	3.4	7.63e-01	0	47	104	0	60	1048573
2026-01-18 13:01:46.35	320.76	11.80	-85.2	-88.6	2.5	7.65e-01	0	47	104	0	60	1048572
2026-01-18 13:01:47.35	320.90	11.74	-85.2	-88.6	3.2	7.63e-01	0	47	104	0	60	1048575
2026-01-18 13:01:48.36	321.05	11.68	-85.2	-88.6	3.1	7.63e-01	0	47	104	0	60	1048572
2026-01-18 13:01:49.36	321.20	11.63	-84.7	-88.6	2.8	7.62e-01	0	47	104	0	60	1048572
2026-01-18 13:01:50.37	321.35	11.57	-85.2	-88.6	3.0	7.63e-01	0	47	104	0	60	1048573
2026-01-18 13:01:51.38	321.50	11.51	-85.2	-88.6	3.0	7.63e-01	0	47	104	0	60	1048573
2026-01-18 13:01:52.39	321.64	11.45	-85.2	-88.6	3.0	7.63e-01	0	47	104	0	60	1048574
2026-01-18 13:01:53.39	321.79	11.39	-85.2	-88.6	3.4	7.64e-01	0	47	104	0	60	1048572
2026-01-18 13:01:54.40	321.94	11.33	-84.7	-88.6	2.9	7.63e-01	0	47	104	0	60	1048575
2026-01-18 13:01:55.40	322.08	11.27	-84.7	-88.6	3.0	7.63e-01	0	47	104	0	60	1048574
2026-01-18 13:01:56.41	322.22	11.22	-85.2	-88.6	3.7	7.54e-01	0	47	104	0	60	1048574
2026-01-18 13:01:57.42	322.37	11.16	-84.7	-88.6	3.5	7.62e-01	0	47	104	0	60	1048568
2026-01-18 13:01:58.42	322.51	11.10	-85.2	-88.6	3.0	7.63e-01	0	47	104	0	60	1048574
2026-01-18 13:01:59.43	322.65	11.04	-84.7	-88.6	3.1	7.63e-01	0	47	104	0	60	1048575
2026-01-18 13:02:00.43	322.79	10.98	-85.2	-88.6	3.3	7.63e-01	0	47	104	0	60	1048574
2026-01-18 13:02:01.44	322.94	10.92	-85.2	-88.6	2.9	7.63e-01	0	47	104	0	60	1048570
2026-01-18 13:02:02.44	323.08	10.86	-85.2	-88.6	3.7	7.63e-01	0	47	104	0	60	1048568
2026-01-18 13:02:03.45	323.22	10.80	-85.2	-88.6	3.7	7.63e-01	0	47	104	0	60	1048574
2026-01-18 13:02:04.46	323.36	10.75	-84.7	-88.6	3.0	7.62e-01	0	48	104	0	60	1048575
2026-01-18 13:02:05.47	323.50	10.69	-85.2	-88.6	2.9	7.62e-01	0	47	104	0	60	1048572
2026-01-18 13:02:06.48	323.64	10.63	-85.2	-88.6	3.7	7.64e-01	0	47	104	0	60	1048573
2026-01-18 13:02:07.48	323.77	10.57	-85.2	-88.6	3.5	7.62e-01	0	47	104	0	60	1048573
2026-01-18 13:02:08.49	323.91	10.51	-84.7	-88.6	3.2	7.62e-01	0	47	104	0	60	1048573
2026-01-18 13:02:09.50	324.05	10.45	-85.2	-88.6	3.0	7.63e-01	0	47	104	0	60	1048575
2026-01-18 13:02:10.51	324.19	10.39	-85.2	-88.6	3.1	7.62e-01	0	47	104	0	60	1048575
2026-01-18 13:02:11.51	324.32	10.33	-85.2	-88.6	3.3	7.62e-01	0	47	104	0	60	1048569
2026-01-18 13:02:12.52	324.46	10.27	-85.2	-88.6	3.1	7.63e-01	0	47	104	0	60	1048575
2026-01-18 13:02:13.53	324.59	10.22	-85.2	-88.6	2.9	7.63e-01	0	47	104	0	60	1048575
2026-01-18 13:02:14.53	324.73	10.16	-84.7	-88.6	3.2	7.56e-01	0	47	104	0	60	1048574
2026-01-18 13:02:15.54	324.86	10.10	-85.2	-88.6	3.1	7.63e-01	0	47	104	0	60	1048571
2026-01-18 13:02:16.55	325.00	10.04	-85.2	-88.6	3.6	7.63e-01	0	47	104	0	60	1048571
2026-01-18 13:02:17.56	325.13	9.98	-84.7	-88.6	3.1	7.62e-01	0	47	104	0	60	1048573
2026-01-18 13:02:18.56	325.26	9.92	-84.7	-88.6	3.2	7.64e-01	0	48	104	0	60	1048573
2026-01-18 13:02:19.57	325.39	9.86	-85.2	-88.6	3.1	7.63e-01	0	47	104	0	60	1048566
2026-01-18 13:02:20.58	325.53	9.80	-85.2	-88.6	3.3	7.65e-01	0	47	104	0	60	1048574
2026-01-18 13:02:21.59	325.66	9.74	-85.2	-88.6	2.8	7.63e-01	0	47	104	0	60	1048572
2026-01-18 13:02:22.59	325.79	9.69	-85.2	-88.6	3.0	7.64e-01	0	48	104	0	60	1048573
2026-01-18 13:02:23.60	325.92	9.63	-84.7	-88.6	3.1	7.63e-01	0	47	104	0	60	1048575
2026-01-18 13:02:24.60	326.05	9.57	-85.2	-88.6	3.2	7.62e-01	0	47	104	0	60	1048573
2026-01-18 13:02:25.61	326.17	9.51	-85.2	-88.6	3.2	7.62e-01	0	47	104	0	60	1048568
2026-01-18 13:02:26.62	326.30	9.45	-85.2	-88.6	3.5	7.62e-01	0	47	104	0	60	1048575
2026-01-18 13:02:27.62	326.43	9.39	-84.7	-88.6	3.6	7.61e-01	0	47	104	0	60	1048574
2026-01-18 13:02:28.63	326.56	9.33	-84.7	-88.6	3.1	7.64e-01	0	47	104	0	60	1048574
2026-01-18 13:02:29.63	326.68	9.28	-85.2	-88.6	3.1	7.62e-01	0	47	104	0	60	1048570
2026-01-18 13:02:30.64	326.81	9.22	-85.2	-88.6	3.5	7.64e-01	0	47	104	0	60	1048574
2026-01-18 13:02:31.65	326.94	9.16	-84.7	-88.6	3.1	7.63e-01	0	47	104	0	60	1048575
2026-01-18 13:02:32.65	327.06	9.10	-85.2	-88.6	3.0	7.63e-01	0	47	104	0	60	1048574
2026-01-18 13:02:33.66	327.19	9.04	-85.2	-88.6	3.7	7.62e-01	0	47	104	0	60	1048573
2026-01-18 13:02:34.66	327.31	8.98	-85.2	-88.6	2.9	7.62e-01	0	47	104	0	60	1048573
2026-01-18 13:02:35.67	327.44	8.92	-85.2	-88.6	3.0	7.62e-01	0	47	104	0	60	1048575
2026-01-18 13:02:36.68	327.56	8.87	-85.2	-88.6	3.7	7.63e-01	0	47	104	0	60	1048574
2026-01-18 13:02:37.69	327.68	8.81	-84.7	-88.6	2.9	7.63e-01	0	47	104	0	60	1048575
2026-01-18 13:02:38.69	327.81	8.75	-85.2	-88.6	2.9	7.62e-01	0	47	104	0	60	1048575
2026-01-18 13:02:39.70	327.93	8.69	-85.2	-88.6	2.8	7.64e-01	0	47	104	0	60	1048566
2026-01-18 13:02:40.71	328.05	8.63	-85.2	-88.6	3.2	7.62e-01	0	48	104	0	60	1048574
2026-01-18 13:02:41.72	328.17	8.57	-85.2	-88.6	3.5	7.63e-01	0	47	104	0	60	1048573
2026-01-18 13:02:42.73	328.29	8.52	-84.7	-88.6	2.9	7.63e-01	0	47	104	0	60	1048574
2026-01-18 13:02:43.73	328.41	8.46	-85.2	-88.6	3.1	7.65e-01	0	48	104	0	60	1048572
2026-01-18 13:02:44.74	328.53	8.40	-85.2	-88.6	2.9	7.62e-01	0	48	104	0	60	1048574
2026-01-18 13:02:45.75	328.65	8.34	-85.2	-88.6	3.1	7.64e-01	0	47	104	0	60	1048572
2026-01-18 13:02:46.76	328.77	8.28	-85.2	-88.6	3.1	7.58e-01	0	48	104	0	60	1048572
2026-01-18 13:02:47.77	328.89	8.22	-85.2	-88.6	3.6	7.63e-01	0	48	104	0	60	1048573
2026-01-18 13:02:48.78	329.01	8.17	-85.2	-88.6	3.1	7.63e-01	0	47	104	0	60	1048573
2026-01-18 13:02:49.78	329.13	8.11	-85.2	-88.6	3.2	7.63e-01	0	47	104	0	60	1048575
2026-01-18 13:02:50.79	329.24	8.05	-84.7	-88.6	2.8	7.62e-01	0	47	104	0	60	1048574
2026-01-18 13:02:51.80	329.36	7.99	-84.7	-88.6	3.2	7.62e-01	0	47	104	0	60	1048570
2026-01-18 13:02:52.80	329.48	7.93	-85.2	-88.6	3.1	7.62e-01	0	47	104	0	60	1048575
2026-01-18 13:02:53.81	329.59	7.88	-85.2	-88.6	3.0	7.62e-01	0	47	104	0	60	1048571
2026-01-18 13:02:54.81	329.71	7.82	-85.2	-88.6	3.6	7.62e-01	0	47	104	0	60	1048573
2026-01-18 13:02:55.82	329.82	7.76	-85.2	-88.6	2.7	7.64e-01	0	47	104	0	60	1048575
2026-01-18 13:02:56.83	329.94	7.70	-85.2	-88.6	3.0	7.63e-01	0	47	104	0	60	1048573
2026-01-18 13:02:57.83	330.05	7.64	-84.7	-88.6	3.6	7.62e-01	0	47	104	0	60	1048575
2026-01-18 13:02:58.84	330.16	7.59	-85.2	-88.6	3.1	7.64e-01	0	47	104	0	60	1048574
2026-01-18 13:02:59.85	330.28	7.53	-85.2	-88.6	2.9	7.63e-01	0	47	104	0	60	1048573
2026-01-18 13:03:00.86	330.39	7.47	-84.3	-88.6	3.3	7.65e-01	0	47	104	0	60	1048571
2026-01-18 13:03:01.86	330.50	7.41	-85.2	-88.6	2.6	7.63e-01	0	47	104	0	60	1048573
2026-01-18 13:03:02.86	330.61	7.36	-85.2	-88.6	3.1	7.62e-01	0	47	104	0	60	1048568
2026-01-18 13:03:03.86	330.72	7.30	-85.2	-88.6	2.9	7.64e-01	0	47	104	0	60	1048575
2026-01-18 13:03:04.86	330.84	7.24	-85.2	-88.6	3.0	7.63e-01	0	47	104	0	60	1048572
2026-01-18 13:03:05.86	330.95	7.18	-85.2	-88.6	3.2	7.64e-01	0	47	104	0	60	1048575
2026-01-18 13:03:06.87	331.06	7.13	-84.7	-88.6	3.1	7.63e-01	0	47	104	0	60	1048575
2026-01-18 13:03:07.87	331.16	7.07	-85.2	-88.6	3.0	7.61e-01	0	47	104	0	60	1048570
2026-01-18 13:03:08.88	331.27	7.01	-85.2	-88.6	3.7	7.62e-01	0	47	104	0	60	1048573
2026-01-18 13:03:09.88	331.38	6.96	-84.7	-88.6	3.1	7.63e-01	0	47	104	0	60	1048574
2026-01-18 13:03:10.90	331.49	6.90	-85.2	-88.6	3.0	7.63e-01	0	47	104	0	60	1048565
2026-01-18 13:03:11.90	331.60	6.84	-85.2	-88.6	3.4	7.62e-01	0	47	104	0	60	1048573
2026-01-18 13:03:12.91	331.71	6.78	-85.2	-88.6	3.4	7.62e-01	0	47	104	0	60	1048575
2026-01-18 13:03:13.92	331.82	6.73	-85.2	-88.6	3.0	7.64e-01	0	47	104	0	60	1048569
2026-01-18 13:03:14.93	331.92	6.67	-85.2	-88.6	3.1	7.63e-01	0	47	104	0	60	1048575
2026-01-18 13:03:15.94	332.03	6.61	-84.7	-88.6	3.0	7.62e-01	0	47	104	0	60	1048572
2026-01-18 13:03:16.94	332.14	6.56	-85.2	-88.6	3.2	7.62e-01	0	47	104	0	60	1048573
2026-01-18 13:03:17.95	332.24	6.50	-85.2	-88.6	3.4	7.62e-01	0	47	104	0	60	1048573
2026-01-18 13:03:18.96	332.35	6.44	-84.7	-88.6	3.2	7.64e-01	0	47	104	0	60	1048575
2026-01-18 13:03:19.96	332.45	6.38	-85.2	-88.6	3.0	7.63e-01	0	47	104	0	60	1048575
2026-01-18 13:03:20.96	332.56	6.33	-85.2	-88.6	2.9	7.63e-01	0	47	104	0	60	1048572
2026-01-18 13:03:21.97	332.66	6.27	-85.2	-88.6	3.5	7.63e-01	0	47	104	0	60	1048575
2026-01-18 13:03:22.97	332.76	6.21	-85.2	-88.6	3.4	7.64e-01	0	47	104	0	60	1048574
2026-01-18 13:03:23.98	332.87	6.16	-84.7	-88.6	3.1	7.62e-01	0	47	104	0	60	1048574
2026-01-18 13:03:24.98	332.97	6.10	-84.7	-88.6	3.2	7.64e-01	0	47	104	0	60	1048571
2026-01-18 13:03:25.99	333.07	6.04	-84.7	-88.6	3.7	7.63e-01	0	47	104	0	60	1048573
2026-01-18 13:03:27.00	333.18	5.99	-85.2	-88.6	3.6	7.63e-01	0	48	104	0	60	1048575
2026-01-18 13:03:28.00	333.28	5.93	-85.2	-88.6	2.9	7.64e-01	0	47	104	0	60	1048573
2026-01-18 13:03:29.01	333.38	5.88	-84.7	-88.6	3.4	7.64e-01	0	47	104	0	60	1048575
2026-01-18 13:03:30.02	333.48	5.82	-84.7	-88.6	3.4	7.62e-01	0	47	104	0	60	1048575
2026-01-18 13:03:31.02	333.58	5.76	-85.2	-88.6	3.4	7.64e-01	0	47	104	0	60	1048573
2026-01-18 13:03:32.02	333.68	5.71	-85.2	-88.6	3.0	7.64e-01	0	47	104	0	60	1048574
2026-01-18 13:03:33.03	333.78	5.65	-85.2	-88.6	3.4	7.64e-01	0	47	104	0	60	1048572
2026-01-18 13:03:34.04	333.88	5.59	-84.7	-88.6	3.0	7.63e-01	0	47	104	0	60	1048573
2026-01-18 13:03:35.04	333.98	5.54	-84.7	-88.6	2.9	7.62e-01	0	47	104	0	60	1048573
2026-01-18 13:03:36.05	334.08	5.48	-85.2	-88.6	3.7	7.62e-01	0	47	104	0	60	1048575
2026-01-18 13:03:37.06	334.18	5.43	-85.2	-88.6	3.4	7.62e-01	0	47	104	0	60	1048575
2026-01-18 13:03:38.06	334.28	5.37	-85.2	-88.6	3.4	7.62e-01	0	47	104	0	60	1048573
2026-01-18 13:03:39.07	334.37	5.31	-84.7	-88.6	3.3	7.65e-01	0	47	104	0	60	1048575
2026-01-18 13:03:40.08	334.47	5.26	-85.2	-88.6	3.4	7.62e-01	0	47	104	0	60	1048575
2026-01-18 13:03:41.09	334.57	5.20	-85.2	-88.6	2.8	7.63e-01	0	47	104	0	60	1048574
2026-01-18 13:03:42.09	334.67	5.15	-85.2	-88.6	3.1	7.63e-01	0	47	104	0	60	1048574
2026-01-18 13:03:43.10	334.76	5.09	-85.2	-88.6	3.0	7.64e-01	0	47	104	0	60	1048575
