passes_logs/2026/01/18/R3.2S-Naryan-Mar/R3.2S-Naryan-Mar__20260118_081307_TY-42_rec.log

#Pass ID: 20260118_081307_TY-42
#Satellite: TY-42
#Configuration: TY-42
#almurnet v.1.7.20240730
#Start time: 2026-01-18 08:16:20

#Version: 2.2.20231116
#Station: R3.2S-Naryan-Mar
#Location: 53.008057 lon 67.646978 lat
#TLE: 1 64048U 25103A   26017.93564815  .00008007  00000-0  38191-3 0 09990
#TLE: 2 64048 097.4124 093.2979 0001864 092.4902 292.6580 15.19155384 37267

#Time	Az	El	Level	Level2	SNR	BER	BlckErr	Temp	State	Recorded	gain1	gain2
2026-01-18 08:16:20.66	16.74	18.70	-85.2	-88.8	3.0	1.56e+00	0	47	0	0	60	1048575
2026-01-18 08:16:21.65	16.70	18.86	-83.5	-79.0	2.4	0.00e+00	0	48	104	0	60	1048572
2026-01-18 08:16:22.66	16.66	19.03	-83.5	-79.0	2.5	0.00e+00	0	48	104	0	60	1048573
2026-01-18 08:16:23.66	16.62	19.20	-83.5	-79.0	2.4	0.00e+00	0	48	104	0	60	1048565
2026-01-18 08:16:24.67	16.58	19.37	-83.5	-79.0	2.7	0.00e+00	0	48	104	0	60	1048573
2026-01-18 08:16:25.67	16.54	19.54	-83.1	-79.0	2.4	0.00e+00	0	48	104	0	60	1048566
2026-01-18 08:16:26.68	16.49	19.71	-83.1	-79.0	2.4	0.00e+00	0	48	104	0	60	1048574
2026-01-18 08:16:27.68	16.45	19.88	-83.5	-79.0	2.4	0.00e+00	0	48	104	0	60	1048567
2026-01-18 08:16:28.69	16.40	20.06	-83.5	-79.0	2.4	0.00e+00	0	48	104	0	60	1048569
2026-01-18 08:16:29.70	16.36	20.24	-83.1	-79.0	2.4	0.00e+00	0	48	104	0	60	1048565
2026-01-18 08:16:30.70	16.31	20.41	-83.1	-79.0	2.4	0.00e+00	0	48	104	0	60	1048575
2026-01-18 08:16:31.71	16.27	20.60	-83.5	-79.0	2.4	0.00e+00	0	48	104	0	60	1048570
2026-01-18 08:16:32.72	16.22	20.78	-83.5	-79.0	2.4	0.00e+00	0	48	104	0	60	1048574
2026-01-18 08:16:33.72	16.17	20.96	-83.5	-79.0	2.5	0.00e+00	0	48	104	0	60	1048571
2026-01-18 08:16:34.72	16.12	21.14	-83.1	-79.0	2.4	0.00e+00	0	48	104	0	60	1048575
2026-01-18 08:16:35.73	16.07	21.33	-83.1	-79.0	2.4	0.00e+00	0	48	104	0	60	1048573
2026-01-18 08:16:36.74	16.02	21.52	-83.5	-79.0	2.4	0.00e+00	0	48	104	0	60	1048574
2026-01-18 08:16:37.75	15.97	21.71	-83.5	-79.0	2.4	0.00e+00	0	48	104	0	60	1048572
2026-01-18 08:16:38.76	15.92	21.91	-83.5	-79.0	2.4	0.00e+00	0	48	104	0	60	1048568
2026-01-18 08:16:39.76	15.87	22.10	-83.1	-79.0	2.4	0.00e+00	0	48	104	0	60	1048575
2026-01-18 08:16:40.77	15.81	22.30	-83.5	-79.0	2.4	0.00e+00	0	48	104	0	60	1048575
2026-01-18 08:16:41.78	15.76	22.49	-83.5	-79.0	2.3	0.00e+00	0	48	104	0	60	1048568
2026-01-18 08:16:42.79	15.70	22.69	-83.5	-79.0	2.4	0.00e+00	0	48	104	0	60	1048575
2026-01-18 08:16:43.80	15.65	22.90	-83.5	-79.0	2.4	0.00e+00	0	48	104	0	60	1048573
2026-01-18 08:16:44.81	15.59	23.10	-82.8	-79.0	2.4	0.00e+00	0	48	104	0	60	1048573
2026-01-18 08:16:45.81	15.53	23.30	-83.5	-79.0	2.3	0.00e+00	0	48	104	0	60	1048574
2026-01-18 08:16:46.82	15.47	23.51	-83.5	-79.0	2.2	0.00e+00	0	48	104	0	60	1048573
2026-01-18 08:16:47.83	15.41	23.72	-83.5	-79.0	2.4	0.00e+00	0	48	104	0	60	1048575
2026-01-18 08:16:48.83	15.35	23.93	-83.1	-79.0	2.4	0.00e+00	0	48	104	0	60	1048574
2026-01-18 08:16:49.84	15.29	24.15	-83.1	-79.0	2.4	0.00e+00	0	48	104	0	60	1048575
2026-01-18 08:16:50.85	15.23	24.36	-83.5	-79.0	2.4	0.00e+00	0	48	104	0	60	1048565
2026-01-18 08:16:51.85	15.17	24.58	-83.5	-79.0	2.5	0.00e+00	0	48	104	0	60	1048571
2026-01-18 08:16:52.86	15.10	24.80	-83.5	-79.0	2.4	0.00e+00	0	48	104	0	60	1048573
2026-01-18 08:16:53.87	15.03	25.02	-83.1	-79.0	2.5	0.00e+00	0	48	104	0	60	1048569
2026-01-18 08:16:54.88	14.97	25.25	-83.5	-79.0	2.5	0.00e+00	0	48	104	0	60	1048572
2026-01-18 08:16:55.88	14.90	25.48	-83.5	-79.0	2.4	0.00e+00	0	48	104	0	60	1048572
2026-01-18 08:16:56.89	14.83	25.71	-83.5	-79.0	2.4	0.00e+00	0	48	104	0	60	1048575
2026-01-18 08:16:57.89	14.76	25.94	-83.5	-79.0	2.4	0.00e+00	0	48	104	0	60	1048574
2026-01-18 08:16:58.90	14.69	26.17	-83.1	-79.0	2.4	0.00e+00	0	48	104	0	60	1048570
2026-01-18 08:16:59.91	14.62	26.41	-83.5	-79.0	2.4	0.00e+00	0	48	104	0	60	1048575
2026-01-18 08:17:00.91	14.54	26.65	-83.5	-79.0	2.5	0.00e+00	0	48	104	0	60	1048575
2026-01-18 08:17:01.92	14.47	26.89	-83.5	-79.0	2.5	0.00e+00	0	48	104	0	60	1048573
2026-01-18 08:17:02.92	14.39	27.13	-83.5	-79.0	2.4	0.00e+00	0	48	104	0	60	1048574
2026-01-18 08:17:03.93	14.31	27.38	-83.1	-79.0	2.3	0.00e+00	0	48	104	0	60	1048574
2026-01-18 08:17:04.94	14.23	27.63	-83.5	-79.0	2.4	0.00e+00	0	48	104	0	60	1048560
2026-01-18 08:17:05.95	14.15	27.88	-83.5	-79.0	2.4	0.00e+00	0	48	104	0	60	1048575
2026-01-18 08:17:06.96	14.07	28.14	-83.5	-79.0	2.4	0.00e+00	0	48	104	0	60	1048573
2026-01-18 08:17:07.96	13.99	28.39	-83.1	-79.0	2.5	0.00e+00	0	48	104	0	60	1048573
2026-01-18 08:17:08.97	13.90	28.65	-82.8	-79.0	2.4	0.00e+00	0	48	104	0	60	1048573
2026-01-18 08:17:09.98	13.81	28.92	-83.5	-79.0	2.4	0.00e+00	0	48	104	0	60	1048575
2026-01-18 08:17:10.98	13.73	29.18	-83.5	-79.0	2.5	0.00e+00	0	48	104	0	60	1048575
2026-01-18 08:17:11.99	13.64	29.45	-83.5	-79.0	2.4	0.00e+00	0	48	104	0	60	1048573
2026-01-18 08:17:13.00	13.54	29.72	-83.1	-79.0	2.4	0.00e+00	0	48	104	0	60	1048575
2026-01-18 08:17:14.00	13.45	30.00	-83.5	-79.0	2.4	0.00e+00	0	48	104	0	60	1048572
2026-01-18 08:17:15.01	13.35	30.28	-83.1	-79.0	2.4	0.00e+00	0	48	104	0	60	1048574
2026-01-18 08:17:16.02	13.26	30.56	-83.5	-79.0	2.4	0.00e+00	0	48	104	0	60	1048573
2026-01-18 08:17:17.03	13.16	30.84	-83.5	-79.0	2.4	0.00e+00	0	48	104	0	60	1048574
2026-01-18 08:17:18.04	13.06	31.13	-83.1	-79.0	2.3	0.00e+00	0	48	104	0	60	1048572
2026-01-18 08:17:19.04	12.95	31.42	-83.5	-79.0	2.4	0.00e+00	0	48	104	0	60	1048573
2026-01-18 08:17:20.05	12.85	31.72	-83.5	-79.0	2.4	0.00e+00	0	48	104	0	60	1048575
2026-01-18 08:17:21.06	12.74	32.01	-83.5	-79.0	2.4	0.00e+00	0	49	104	0	60	1048570
2026-01-18 08:17:22.07	12.63	32.32	-83.1	-79.0	2.4	0.00e+00	0	49	104	0	60	1048572
2026-01-18 08:17:23.07	12.52	32.62	-83.1	-79.0	2.4	0.00e+00	0	49	104	0	60	1048569
2026-01-18 08:17:24.08	12.40	32.93	-83.5	-79.0	2.3	0.00e+00	0	48	104	0	60	1048575
2026-01-18 08:17:25.08	12.29	33.24	-83.5	-79.0	2.4	0.00e+00	0	48	104	0	60	1048572
2026-01-18 08:17:26.09	12.17	33.55	-83.5	-79.0	2.4	0.00e+00	0	48	104	0	60	1048573
2026-01-18 08:17:27.10	12.04	33.87	-83.1	-79.0	2.3	0.00e+00	0	48	104	0	60	1048573
2026-01-18 08:17:28.11	11.92	34.20	-83.1	-79.0	2.4	0.00e+00	0	48	104	0	60	1048564
2026-01-18 08:17:29.12	11.79	34.52	-83.5	-79.0	2.4	0.00e+00	0	48	104	0	60	1048575
2026-01-18 08:17:30.13	11.66	34.86	-83.5	-79.0	2.4	0.00e+00	0	48	104	0	60	1048575
2026-01-18 08:17:31.13	11.53	35.19	-83.5	-79.0	2.4	0.00e+00	0	48	104	0	60	1048575
2026-01-18 08:17:32.14	11.39	35.53	-83.1	-79.0	2.5	0.00e+00	0	48	104	0	60	1048573
2026-01-18 08:17:33.14	11.25	35.87	-83.5	-79.0	2.4	0.00e+00	0	49	104	0	60	1048574
2026-01-18 08:17:34.15	11.11	36.21	-83.5	-79.0	2.4	0.00e+00	0	48	104	0	60	1048574
2026-01-18 08:17:35.15	10.96	36.56	-83.5	-79.0	2.5	0.00e+00	0	49	104	0	60	1048567
2026-01-18 08:17:36.16	10.81	36.92	-83.5	-79.0	2.4	0.00e+00	0	48	104	0	60	1048569
2026-01-18 08:17:37.16	10.66	37.28	-82.8	-79.0	2.4	0.00e+00	0	49	104	0	60	1048569
2026-01-18 08:17:38.17	10.50	37.64	-83.5	-79.0	2.4	0.00e+00	0	48	104	0	60	1048575
2026-01-18 08:17:39.18	10.34	38.01	-83.5	-79.0	2.4	0.00e+00	0	48	104	0	60	1048575
2026-01-18 08:17:40.18	10.18	38.38	-83.5	-79.0	2.4	0.00e+00	0	49	104	0	60	1048573
2026-01-18 08:17:41.19	10.01	38.75	-83.1	-79.0	2.4	0.00e+00	0	49	104	0	60	1048575
2026-01-18 08:17:42.20	9.83	39.14	-83.1	-79.0	2.4	0.00e+00	0	48	104	0	60	1048574
2026-01-18 08:17:43.20	9.66	39.52	-83.5	-79.0	2.4	0.00e+00	0	48	104	0	60	1048574
2026-01-18 08:17:44.21	9.48	39.91	-83.1	-79.0	2.4	0.00e+00	0	48	104	0	60	1048572
2026-01-18 08:17:45.22	9.29	40.31	-83.1	-79.0	2.4	0.00e+00	0	48	104	0	60	1048573
2026-01-18 08:17:46.23	9.10	40.71	-83.1	-79.0	2.5	0.00e+00	0	49	104	0	60	1048575
2026-01-18 08:17:47.24	8.90	41.11	-83.1	-79.0	2.4	0.00e+00	0	48	104	0	60	1048568
2026-01-18 08:17:48.24	8.70	41.52	-83.5	-79.0	2.5	0.00e+00	0	48	104	0	60	1048569
2026-01-18 08:17:49.25	8.49	41.93	-83.5	-79.0	2.4	0.00e+00	0	48	104	0	60	1048571
2026-01-18 08:17:50.26	8.27	42.35	-83.5	-79.0	2.4	0.00e+00	0	48	104	0	60	1048575
2026-01-18 08:17:51.27	8.05	42.78	-82.8	-79.0	2.3	0.00e+00	0	48	104	0	60	1048574
2026-01-18 08:17:52.27	7.83	43.20	-83.5	-79.0	2.4	0.00e+00	0	49	104	0	60	1048574
2026-01-18 08:17:53.28	7.60	43.64	-83.5	-79.0	2.4	0.00e+00	0	48	104	0	60	1048575
2026-01-18 08:17:54.28	7.36	44.07	-83.5	-79.0	2.4	0.00e+00	0	49	104	0	60	1048571
2026-01-18 08:17:55.28	7.11	44.51	-83.1	-79.0	2.4	0.00e+00	0	49	104	0	60	1048569
2026-01-18 08:17:56.29	6.86	44.96	-83.1	-79.0	2.4	0.00e+00	0	49	104	0	60	1048575
2026-01-18 08:17:57.30	6.60	45.42	-83.5	-79.0	2.4	0.00e+00	0	49	104	0	60	1048575
2026-01-18 08:17:58.31	6.33	45.88	-83.5	-79.0	2.3	0.00e+00	0	49	104	0	60	1048574
2026-01-18 08:17:59.31	6.05	46.34	-83.5	-79.0	2.4	0.00e+00	0	49	104	0	60	1048571
2026-01-18 08:18:00.32	5.76	46.81	-83.1	-79.0	2.4	0.00e+00	0	49	104	0	60	1048568
2026-01-18 08:18:01.32	5.47	47.28	-83.1	-79.0	2.5	0.00e+00	0	49	104	0	60	1048574
2026-01-18 08:18:02.33	5.16	47.76	-83.5	-79.0	2.4	0.00e+00	0	49	104	0	60	1048570
2026-01-18 08:18:03.33	4.85	48.24	-83.5	-79.0	2.4	0.00e+00	0	49	104	0	60	1048574
2026-01-18 08:18:04.34	4.52	48.74	-83.5	-79.0	2.3	0.00e+00	0	49	104	0	60	1048575
2026-01-18 08:18:05.34	4.19	49.23	-83.1	-79.0	2.3	0.00e+00	0	49	104	0	60	1048574
2026-01-18 08:18:06.35	3.84	49.73	-83.1	-79.0	2.4	0.00e+00	0	49	104	0	60	1048574
2026-01-18 08:18:07.35	3.48	50.23	-83.5	-79.0	2.4	0.00e+00	0	49	104	0	60	1048575
2026-01-18 08:18:08.36	3.11	50.74	-83.5	-79.0	2.5	0.00e+00	0	49	104	0	60	1048575
2026-01-18 08:18:09.36	2.73	51.25	-83.5	-79.0	2.3	0.00e+00	0	49	104	0	60	1048568
2026-01-18 08:18:10.37	2.32	51.77	-82.8	-79.0	2.3	0.00e+00	0	49	104	0	60	1048573
2026-01-18 08:18:11.38	1.91	52.30	-83.5	-79.0	2.4	0.00e+00	0	49	104	0	60	1048573
2026-01-18 08:18:12.38	1.48	52.83	-83.5	-79.0	2.4	0.00e+00	0	49	104	0	60	1048574
2026-01-18 08:18:13.39	1.03	53.36	-83.5	-79.0	2.4	0.00e+00	0	49	104	0	60	1048570
2026-01-18 08:18:14.39	0.57	53.89	-83.1	-79.0	2.4	0.00e+00	0	49	104	0	60	1048571
2026-01-18 08:18:15.39	0.09	54.43	-83.1	-79.0	2.4	0.00e+00	0	49	104	0	60	1048574
2026-01-18 08:18:16.40	359.59	54.98	-83.5	-79.0	2.3	0.00e+00	0	49	104	0	60	1048565
2026-01-18 08:18:17.41	359.07	55.53	-83.5	-79.0	2.4	0.00e+00	0	49	104	0	60	1048571
2026-01-18 08:18:18.42	358.52	56.09	-83.5	-79.0	2.3	0.00e+00	0	48	104	0	60	1048574
2026-01-18 08:18:19.43	357.95	56.65	-83.1	-79.0	2.4	0.00e+00	0	49	104	0	60	1048567
2026-01-18 08:18:20.43	357.37	57.21	-83.5	-79.0	2.4	0.00e+00	0	49	104	0	60	1048568
2026-01-18 08:18:21.43	356.76	57.77	-83.5	-79.0	2.4	0.00e+00	0	49	104	0	60	1048574
2026-01-18 08:18:22.44	356.11	58.34	-83.5	-79.0	2.5	0.00e+00	0	49	104	0	60	1048570
2026-01-18 08:18:23.44	355.45	58.90	-83.5	-79.0	2.4	0.00e+00	0	49	104	0	60	1048575
2026-01-18 08:18:24.45	354.74	59.48	-83.1	-79.0	2.4	0.00e+00	0	49	104	0	60	1048573
2026-01-18 08:18:25.46	354.01	60.05	-83.5	-79.0	2.5	0.00e+00	0	49	104	0	60	1048575
2026-01-18 08:18:26.46	353.25	60.62	-83.5	-79.0	2.3	0.00e+00	0	49	104	0	60	1048575
2026-01-18 08:18:27.46	352.45	61.19	-83.5	-79.0	2.4	0.00e+00	0	49	104	0	60	1048573
2026-01-18 08:18:28.47	351.61	61.77	-83.5	-79.0	2.4	0.00e+00	0	49	104	0	60	1048575
2026-01-18 08:18:29.47	350.73	62.34	-83.1	-79.0	2.4	0.00e+00	0	49	104	0	60	1048575
2026-01-18 08:18:30.48	349.80	62.92	-83.5	-79.0	2.3	0.00e+00	0	49	104	0	60	1048575
2026-01-18 08:18:31.48	348.84	63.49	-83.5	-79.0	2.3	0.00e+00	0	49	104	0	60	1048564
2026-01-18 08:18:32.49	347.81	64.06	-83.5	-79.0	2.5	0.00e+00	0	49	104	0	60	1048574
2026-01-18 08:18:33.49	346.75	64.63	-83.5	-79.0	2.4	0.00e+00	0	49	104	0	60	1048573
2026-01-18 08:18:34.50	345.61	65.19	-83.1	-79.0	2.4	0.00e+00	0	49	104	0	60	1048574
2026-01-18 08:18:35.51	344.42	65.76	-83.5	-79.0	2.4	0.00e+00	0	49	104	0	60	1048574
2026-01-18 08:18:36.52	343.17	66.31	-83.5	-79.0	2.5	0.00e+00	0	49	104	0	60	1048575
2026-01-18 08:18:37.52	341.86	66.86	-83.5	-79.0	2.4	0.00e+00	0	49	104	0	60	1048575
2026-01-18 08:18:38.53	340.47	67.40	-83.1	-79.0	2.4	0.00e+00	0	49	104	0	60	1048568
2026-01-18 08:18:39.54	339.00	67.93	-83.1	-79.0	2.4	0.00e+00	0	49	104	0	60	1048572
2026-01-18 08:18:40.54	337.47	68.45	-83.5	-79.0	2.4	0.00e+00	0	49	104	0	60	1048575
2026-01-18 08:18:41.54	335.86	68.95	-83.5	-79.0	2.4	0.00e+00	0	49	104	0	60	1048573
2026-01-18 08:18:42.55	334.15	69.45	-83.5	-79.0	2.4	0.00e+00	0	49	104	0	60	1048573
2026-01-18 08:18:43.56	332.34	69.93	-82.8	-79.0	2.3	0.00e+00	0	49	104	0	60	1048572
2026-01-18 08:18:44.56	330.47	70.39	-83.5	-79.0	2.5	0.00e+00	0	49	104	0	60	1048573
2026-01-18 08:18:45.57	328.47	70.84	-83.5	-79.0	2.4	0.00e+00	0	49	104	0	60	1048575
2026-01-18 08:18:46.58	326.38	71.26	-83.5	-79.0	2.4	0.00e+00	0	49	104	0	60	1048567
2026-01-18 08:18:47.59	324.18	71.67	-83.1	-79.0	2.4	0.00e+00	0	49	104	0	60	1048573
2026-01-18 08:18:48.60	321.88	72.04	-83.1	-79.0	2.4	0.00e+00	0	49	104	0	60	1048566
2026-01-18 08:18:49.61	319.49	72.39	-83.5	-79.0	2.5	0.00e+00	0	49	104	0	60	1048575
2026-01-18 08:18:50.62	316.99	72.71	-83.5	-79.0	2.4	0.00e+00	0	49	104	0	60	1048565
2026-01-18 08:18:51.62	314.42	73.00	-83.5	-79.0	2.3	0.00e+00	0	49	104	0	60	1048574
2026-01-18 08:18:52.62	311.77	73.25	-83.1	-79.0	2.4	0.00e+00	0	49	104	0	60	1048562
2026-01-18 08:18:53.63	309.01	73.47	-83.1	-79.0	2.4	0.00e+00	0	49	104	0	60	1048573
2026-01-18 08:18:54.63	306.21	73.66	-83.5	-79.0	2.3	0.00e+00	0	49	104	0	60	1048574
2026-01-18 08:18:55.64	303.31	73.80	-83.5	-79.0	2.3	0.00e+00	0	49	104	0	60	1048569
2026-01-18 08:18:56.64	300.40	73.91	-83.5	-79.0	2.4	0.00e+00	0	49	104	0	60	1048574
2026-01-18 08:18:57.65	297.43	73.97	-83.1	-79.0	2.4	0.00e+00	0	49	104	0	60	1048573
2026-01-18 08:18:58.66	294.44	73.99	-83.5	-79.0	2.4	0.00e+00	0	49	104	0	60	1048569
2026-01-18 08:18:59.66	291.48	73.97	-83.5	-79.0	2.5	0.00e+00	0	49	104	0	60	1048572
2026-01-18 08:19:00.67	288.50	73.91	-83.1	-79.0	2.5	0.00e+00	0	49	104	0	60	1048574
2026-01-18 08:19:01.67	285.58	73.82	-83.5	-79.0	2.3	0.00e+00	0	49	104	0	60	1048572
2026-01-18 08:19:02.68	282.68	73.67	-83.1	-79.0	2.5	0.00e+00	0	49	104	0	60	1048574
2026-01-18 08:19:03.68	279.87	73.50	-83.5	-79.0	2.4	0.00e+00	0	49	104	0	60	1048574
2026-01-18 08:19:04.69	277.10	73.28	-83.5	-79.0	2.4	0.00e+00	0	49	104	0	60	1048575
2026-01-18 08:19:05.70	274.41	73.03	-83.5	-79.0	2.4	0.00e+00	0	49	104	0	60	1048571
2026-01-18 08:19:06.71	271.81	72.74	-83.5	-79.0	2.4	0.00e+00	0	49	104	0	60	1048575
2026-01-18 08:19:07.72	269.30	72.42	-83.1	-79.0	2.4	0.00e+00	0	49	104	0	60	1048564
2026-01-18 08:19:08.73	266.89	72.08	-83.1	-79.0	2.3	0.00e+00	0	49	104	0	60	1048575
2026-01-18 08:19:09.73	264.61	71.70	-83.5	-79.0	2.4	0.00e+00	0	49	104	0	60	1048572
2026-01-18 08:19:10.74	262.40	71.30	-83.5	-79.0	2.4	0.00e+00	0	49	104	0	60	1048574
2026-01-18 08:19:11.74	260.31	70.89	-83.1	-79.0	2.4	0.00e+00	0	49	104	0	60	1048568
2026-01-18 08:19:12.75	258.31	70.44	-83.1	-79.0	2.4	0.00e+00	0	49	104	0	60	1048575
2026-01-18 08:19:13.75	256.41	69.98	-83.5	-79.0	2.4	0.00e+00	0	49	104	0	60	1048573
2026-01-18 08:19:14.76	254.60	69.50	-83.5	-79.0	2.3	0.00e+00	0	49	104	0	60	1048568
2026-01-18 08:19:15.77	252.87	69.01	-83.5	-79.0	2.4	0.00e+00	0	49	104	0	60	1048575
2026-01-18 08:19:16.78	251.24	68.50	-83.1	-79.0	2.4	0.00e+00	0	49	104	0	60	1048574
2026-01-18 08:19:17.78	249.70	67.98	-83.5	-79.0	2.5	0.00e+00	0	49	104	0	60	1048574
2026-01-18 08:19:18.79	248.22	67.45	-83.5	-79.0	2.4	0.00e+00	0	49	104	0	60	1048562
2026-01-18 08:19:19.80	246.82	66.91	-83.5	-79.0	2.4	0.00e+00	0	49	104	0	60	1048571
2026-01-18 08:19:20.80	245.51	66.36	-83.1	-79.0	2.4	0.00e+00	0	49	104	0	60	1048571
2026-01-18 08:19:21.81	244.24	65.80	-82.8	-79.0	2.4	0.00e+00	0	49	104	0	60	1048573
2026-01-18 08:19:22.82	243.04	65.24	-83.5	-79.0	2.4	0.00e+00	0	49	104	0	60	1048571
2026-01-18 08:19:23.83	241.91	64.67	-83.5	-79.0	2.3	0.00e+00	0	49	104	0	60	1048575
2026-01-18 08:19:24.84	240.82	64.10	-83.5	-79.0	2.4	0.00e+00	0	49	104	0	60	1048571
2026-01-18 08:19:25.84	239.80	63.53	-83.5	-79.0	2.4	0.00e+00	0	49	104	0	60	1048566
2026-01-18 08:19:26.85	238.82	62.96	-83.1	-79.0	2.4	0.00e+00	0	49	104	0	60	1048575
2026-01-18 08:19:27.86	237.89	62.38	-83.5	-79.0	2.5	0.00e+00	0	49	104	0	60	1048575
2026-01-18 08:19:28.87	237.00	61.80	-83.5	-79.0	2.4	0.00e+00	0	49	104	0	60	1048575
2026-01-18 08:19:29.87	236.16	61.23	-83.5	-79.0	2.4	0.00e+00	0	49	104	0	60	1048575
2026-01-18 08:19:30.88	235.35	60.65	-83.1	-79.0	2.4	0.00e+00	0	49	104	0	60	1048574
2026-01-18 08:19:31.88	234.59	60.08	-83.5	-79.0	2.4	0.00e+00	0	49	104	0	60	1048572
2026-01-18 08:19:32.89	233.85	59.50	-83.5	-79.0	2.4	0.00e+00	0	49	104	0	60	1048575
2026-01-18 08:19:33.89	233.15	58.93	-83.5	-79.0	2.4	0.00e+00	0	49	104	0	60	1048567
2026-01-18 08:19:34.90	232.47	58.36	-83.5	-79.0	2.5	0.00e+00	0	49	104	0	60	1048571
2026-01-18 08:19:35.91	231.83	57.79	-83.1	-79.0	2.3	0.00e+00	0	49	104	0	60	1048575
2026-01-18 08:19:36.92	231.21	57.22	-83.1	-79.0	2.4	0.00e+00	0	49	104	0	60	1048572
2026-01-18 08:19:37.93	230.61	56.65	-83.1	-79.0	2.4	0.00e+00	0	49	104	0	60	1048575
2026-01-18 08:19:38.93	230.05	56.10	-83.5	-79.0	2.4	0.00e+00	0	49	104	0	60	1048568
2026-01-18 08:19:39.94	229.50	55.54	-83.5	-79.0	2.3	0.00e+00	0	49	104	0	60	1048572
2026-01-18 08:19:40.94	228.98	54.99	-83.1	-79.0	2.4	0.00e+00	0	49	104	0	60	1048568
2026-01-18 08:19:41.95	228.48	54.44	-83.1	-79.0	2.4	0.00e+00	0	49	104	0	60	1048566
2026-01-18 08:19:42.96	227.99	53.90	-83.5	-79.0	2.4	0.00e+00	0	49	104	0	60	1048575
2026-01-18 08:19:43.96	227.53	53.36	-83.1	-79.0	2.4	0.00e+00	0	49	104	0	60	1048570
2026-01-18 08:19:44.97	227.08	52.82	-83.1	-79.0	2.3	0.00e+00	0	49	104	0	60	1048568
2026-01-18 08:19:45.98	226.64	52.29	-83.5	-79.0	2.4	0.00e+00	0	49	104	0	60	1048575
2026-01-18 08:19:46.99	226.23	51.76	-83.5	-79.0	2.5	0.00e+00	0	49	104	0	60	1048564
2026-01-18 08:19:47.99	225.83	51.25	-83.1	-79.0	2.4	0.00e+00	0	49	104	0	60	1048575
2026-01-18 08:19:49.00	225.44	50.73	-83.5	-79.0	2.4	0.00e+00	0	49	104	0	60	1048573
2026-01-18 08:19:50.00	225.07	50.22	-83.1	-79.0	2.4	0.00e+00	0	49	104	0	60	1048567
2026-01-18 08:19:51.01	224.71	49.71	-83.5	-79.0	2.5	0.00e+00	0	49	104	0	60	1048570
2026-01-18 08:19:52.02	224.36	49.21	-83.5	-79.0	2.4	0.00e+00	0	49	104	0	60	1048573
2026-01-18 08:19:53.02	224.02	48.72	-83.5	-79.0	2.5	0.00e+00	0	49	104	0	60	1048575
2026-01-18 08:19:54.02	223.70	48.23	-83.5	-79.0	2.4	0.00e+00	0	49	104	0	60	1048574
2026-01-18 08:19:55.03	223.38	47.74	-83.1	-79.0	2.4	0.00e+00	0	49	104	0	60	1048574
2026-01-18 08:19:56.04	223.07	47.26	-83.5	-79.0	2.4	0.00e+00	0	49	104	0	60	1048575
2026-01-18 08:19:57.04	222.78	46.78	-83.5	-79.0	2.4	0.00e+00	0	49	104	0	60	1048570
2026-01-18 08:19:58.05	222.49	46.31	-83.5	-79.0	2.4	0.00e+00	0	49	104	0	60	1048573
2026-01-18 08:19:59.06	222.21	45.85	-83.1	-79.0	2.4	0.00e+00	0	49	104	0	60	1048575
2026-01-18 08:20:00.06	221.94	45.39	-83.1	-79.0	2.4	0.00e+00	0	49	104	0	60	1048575
2026-01-18 08:20:01.07	221.68	44.93	-83.5	-79.0	2.3	0.00e+00	0	49	104	0	60	1048572
2026-01-18 08:20:02.07	221.43	44.48	-83.5	-79.0	2.4	0.00e+00	0	49	104	0	60	1048569
2026-01-18 08:20:03.08	221.18	44.04	-83.5	-79.0	2.3	0.00e+00	0	49	104	0	60	1048571
2026-01-18 08:20:04.08	220.94	43.60	-83.1	-79.0	2.4	0.00e+00	0	49	104	0	60	1048574
2026-01-18 08:20:05.09	220.71	43.16	-83.5	-79.0	2.4	0.00e+00	0	49	104	0	60	1048564
2026-01-18 08:20:06.09	220.48	42.74	-83.5	-79.0	2.4	0.00e+00	0	49	104	0	60	1048575
2026-01-18 08:20:07.09	220.26	42.31	-83.5	-79.0	2.4	0.00e+00	0	49	104	0	60	1048573
2026-01-18 08:20:08.10	220.05	41.89	-83.5	-79.0	2.4	0.00e+00	0	49	104	0	60	1048574
2026-01-18 08:20:09.11	219.84	41.48	-83.1	-79.0	2.5	0.00e+00	0	49	104	0	60	1048561
2026-01-18 08:20:10.12	219.63	41.07	-83.1	-79.0	2.4	0.00e+00	0	49	104	0	60	1048575
2026-01-18 08:20:11.13	219.44	40.66	-83.5	-79.0	2.5	0.00e+00	0	49	104	0	60	1048575
2026-01-18 08:20:12.14	219.24	40.26	-83.5	-79.0	2.3	0.00e+00	0	49	104	0	60	1048573
2026-01-18 08:20:13.14	219.06	39.86	-83.5	-79.0	2.5	0.00e+00	0	49	104	0	60	1048574
2026-01-18 08:20:14.15	218.87	39.47	-83.1	-79.0	2.4	0.00e+00	0	49	104	0	60	1048574
2026-01-18 08:20:15.16	218.70	39.08	-83.5	-79.0	2.3	0.00e+00	0	49	104	0	60	1048573
2026-01-18 08:20:16.17	218.52	38.70	-83.5	-79.0	2.4	0.00e+00	0	49	104	0	60	1048573
2026-01-18 08:20:17.17	218.35	38.32	-83.5	-79.0	2.4	0.00e+00	0	49	104	0	60	1048573
2026-01-18 08:20:18.18	218.19	37.95	-83.1	-79.0	2.4	0.00e+00	0	49	104	0	60	1048575
2026-01-18 08:20:19.19	218.03	37.58	-82.8	-79.0	2.5	0.00e+00	0	49	104	0	60	1048574
2026-01-18 08:20:20.19	217.87	37.22	-83.5	-79.0	2.4	0.00e+00	0	49	104	0	60	1048572
2026-01-18 08:20:21.20	217.71	36.86	-83.5	-79.0	2.4	0.00e+00	0	49	104	0	60	1048575
2026-01-18 08:20:22.21	217.56	36.50	-83.5	-79.0	2.5	0.00e+00	0	49	104	0	60	1048574
2026-01-18 08:20:23.21	217.42	36.15	-83.1	-79.0	2.4	0.00e+00	0	49	104	0	60	1048575
2026-01-18 08:20:24.22	217.27	35.80	-83.5	-79.0	2.5	0.00e+00	0	49	104	0	60	1048572
2026-01-18 08:20:25.23	217.13	35.46	-83.5	-79.0	2.3	0.00e+00	0	49	104	0	60	1048570
2026-01-18 08:20:26.24	217.00	35.12	-83.5	-79.0	2.5	0.00e+00	0	49	104	0	60	1048573
2026-01-18 08:20:27.24	216.86	34.78	-83.5	-79.0	2.4	0.00e+00	0	49	104	0	60	1048573
2026-01-18 08:20:28.25	216.73	34.45	-82.8	-79.0	2.4	0.00e+00	0	49	104	0	60	1048570
2026-01-18 08:20:29.26	216.60	34.12	-83.5	-79.0	2.5	0.00e+00	0	49	104	0	60	1048574
2026-01-18 08:20:30.27	216.48	33.80	-83.5	-79.0	2.4	0.00e+00	0	49	104	0	60	1048575
2026-01-18 08:20:31.28	216.36	33.48	-83.5	-79.0	2.5	0.00e+00	0	49	104	0	60	1048569
2026-01-18 08:20:32.28	216.24	33.16	-83.1	-79.0	2.4	0.00e+00	0	49	104	0	60	1048574
2026-01-18 08:20:33.28	216.12	32.85	-83.1	-79.0	2.4	0.00e+00	0	49	104	0	60	1048570
2026-01-18 08:20:34.29	216.00	32.54	-83.1	-79.0	2.4	0.00e+00	0	49	104	0	60	1048572
2026-01-18 08:20:35.30	215.89	32.24	-83.1	-79.0	2.3	0.00e+00	0	49	104	0	60	1048572
2026-01-18 08:20:36.31	215.78	31.93	-83.5	-79.0	2.4	0.00e+00	0	49	104	0	60	1048575
2026-01-18 08:20:37.32	215.67	31.63	-83.5	-79.0	2.4	0.00e+00	0	49	104	0	60	1048572
2026-01-18 08:20:38.33	215.57	31.34	-83.1	-79.0	2.3	0.00e+00	0	49	104	0	60	1048573
2026-01-18 08:20:39.33	215.46	31.05	-83.5	-79.0	2.4	0.00e+00	0	49	104	0	60	1048571
2026-01-18 08:20:40.34	215.36	30.76	-83.5	-79.0	2.4	0.00e+00	0	49	104	0	60	1048573
2026-01-18 08:20:41.34	215.26	30.47	-83.5	-79.0	2.3	0.00e+00	0	49	104	0	60	1048575
2026-01-18 08:20:42.35	215.16	30.19	-83.1	-79.0	2.5	0.00e+00	0	49	104	0	60	1048573
2026-01-18 08:20:43.36	215.07	29.91	-83.5	-79.0	2.4	0.00e+00	0	49	104	0	60	1048574
2026-01-18 08:20:44.37	214.97	29.63	-83.5	-79.0	2.4	0.00e+00	0	49	104	0	60	1048575
2026-01-18 08:20:45.38	214.88	29.36	-83.1	-79.0	2.3	0.00e+00	0	49	104	0	60	1048575
2026-01-18 08:20:46.39	214.79	29.09	-83.5	-79.0	2.4	0.00e+00	0	49	104	0	60	1048575
2026-01-18 08:20:47.39	214.70	28.83	-83.1	-79.0	2.3	0.00e+00	0	49	104	0	60	1048574
2026-01-18 08:20:48.40	214.61	28.56	-83.5	-79.0	2.3	0.00e+00	0	49	104	0	60	1048571
2026-01-18 08:20:49.41	214.53	28.30	-83.5	-79.0	2.3	0.00e+00	0	49	104	0	60	1048572
2026-01-18 08:20:50.42	214.44	28.04	-83.5	-79.0	2.5	0.00e+00	0	49	104	0	60	1048574
2026-01-18 08:20:51.43	214.36	27.78	-83.1	-79.0	2.6	0.00e+00	0	49	104	0	60	1048566
2026-01-18 08:20:52.44	214.28	27.53	-83.1	-79.0	2.4	0.00e+00	0	49	104	0	60	1048572
2026-01-18 08:20:53.45	214.20	27.28	-83.5	-79.0	2.5	0.00e+00	0	49	104	0	60	1048574
2026-01-18 08:20:54.45	214.12	27.03	-83.5	-79.0	2.4	0.00e+00	0	49	104	0	60	1048573
2026-01-18 08:20:55.46	214.04	26.79	-83.5	-79.0	2.4	0.00e+00	0	49	104	0	60	1048574
2026-01-18 08:20:56.47	213.97	26.55	-82.8	-79.0	2.4	0.00e+00	0	49	104	0	60	1048575
2026-01-18 08:20:57.48	213.89	26.30	-83.5	-79.0	2.4	0.00e+00	0	49	104	0	60	1048564
2026-01-18 08:20:58.48	213.82	26.07	-83.5	-79.0	2.4	0.00e+00	0	49	104	0	60	1048567
2026-01-18 08:20:59.49	213.75	25.83	-83.5	-79.0	2.4	0.00e+00	0	49	104	0	60	1048574
2026-01-18 08:21:00.50	213.68	25.60	-83.5	-79.0	2.5	0.00e+00	0	49	104	0	60	1048573
2026-01-18 08:21:01.51	213.61	25.37	-83.1	-79.0	2.4	0.00e+00	0	49	104	0	60	1048573
2026-01-18 08:21:02.52	213.54	25.14	-83.5	-79.0	2.4	0.00e+00	0	49	104	0	60	1048571
2026-01-18 08:21:03.52	213.47	24.92	-83.5	-79.0	2.4	0.00e+00	0	49	104	0	60	1048575
2026-01-18 08:21:04.53	213.41	24.69	-83.5	-79.0	2.4	0.00e+00	0	49	104	0	60	1048570
2026-01-18 08:21:05.54	213.34	24.47	-83.5	-79.0	2.3	0.00e+00	0	49	104	0	60	1048574
2026-01-18 08:21:06.55	213.28	24.25	-83.1	-79.0	2.4	0.00e+00	0	49	104	0	60	1048568
2026-01-18 08:21:07.55	213.22	24.04	-83.5	-79.0	2.2	0.00e+00	0	49	104	0	60	1048558
2026-01-18 08:21:08.55	213.15	23.83	-83.5	-79.0	2.4	0.00e+00	0	49	104	0	60	1048575
2026-01-18 08:21:09.56	213.09	23.61	-83.5	-79.0	2.4	0.00e+00	0	49	104	0	60	1048571
2026-01-18 08:21:10.56	213.03	23.40	-83.1	-79.0	2.4	0.00e+00	0	49	104	0	60	1048573
2026-01-18 08:21:11.57	212.97	23.20	-83.1	-79.0	2.4	0.00e+00	0	49	104	0	60	1048575
2026-01-18 08:21:12.58	212.92	22.99	-83.5	-79.0	2.5	0.00e+00	0	49	104	0	60	1048564
2026-01-18 08:21:13.58	212.86	22.79	-83.5	-79.0	2.4	0.00e+00	0	49	104	0	60	1048572
2026-01-18 08:21:14.59	212.80	22.58	-83.5	-79.0	2.5	0.00e+00	0	49	104	0	60	1048575
2026-01-18 08:21:15.59	212.75	22.38	-83.1	-79.0	2.4	0.00e+00	0	49	104	0	60	1048575
2026-01-18 08:21:16.60	212.69	22.19	-83.1	-79.0	2.4	0.00e+00	0	49	104	0	60	1048571
2026-01-18 08:21:17.61	212.64	21.99	-83.5	-79.0	2.5	0.00e+00	0	49	104	0	60	1048575
2026-01-18 08:21:18.62	212.59	21.79	-83.5	-79.0	2.4	0.00e+00	0	49	104	0	60	1048573
2026-01-18 08:21:19.63	212.53	21.60	-83.5	-79.0	2.5	0.00e+00	0	49	104	0	60	1048571
2026-01-18 08:21:20.64	212.48	21.41	-83.1	-79.0	2.4	0.00e+00	0	49	104	0	60	1048575
2026-01-18 08:21:21.64	212.43	21.22	-83.5	-79.0	2.4	0.00e+00	0	49	104	0	60	1048575
2026-01-18 08:21:22.65	212.38	21.03	-83.5	-79.0	2.3	0.00e+00	0	49	104	0	60	1048570
2026-01-18 08:21:23.65	212.33	20.85	-83.5	-79.0	2.4	0.00e+00	0	49	104	0	60	1048575
2026-01-18 08:21:24.66	212.28	20.66	-83.5	-79.0	2.4	0.00e+00	0	49	104	0	60	1048574
2026-01-18 08:21:25.67	212.24	20.48	-83.1	-79.0	2.3	0.00e+00	0	49	104	0	60	1048574
2026-01-18 08:21:26.68	212.19	20.30	-83.5	-79.0	2.4	0.00e+00	0	49	104	0	60	1048571
2026-01-18 08:21:27.68	212.14	20.12	-83.5	-79.0	2.4	0.00e+00	0	49	104	0	60	1048574
2026-01-18 08:21:28.69	212.10	19.94	-83.5	-79.0	2.3	0.00e+00	0	49	104	0	60	1048574
2026-01-18 08:21:29.70	212.05	19.76	-82.8	-79.0	2.3	0.00e+00	0	49	104	0	60	1048574
2026-01-18 08:21:30.71	212.01	19.59	-83.5	-79.0	2.4	0.00e+00	0	49	104	0	60	1048566
2026-01-18 08:21:31.71	211.96	19.42	-83.5	-79.0	2.4	0.00e+00	0	49	104	0	60	1048566
2026-01-18 08:21:32.72	211.92	19.25	-83.1	-79.0	2.4	0.00e+00	0	49	104	0	60	1048575
2026-01-18 08:21:33.72	211.88	19.08	-83.5	-79.0	2.4	0.00e+00	0	49	104	0	60	1048572
2026-01-18 08:21:34.73	211.84	18.91	-83.1	-79.0	2.4	0.00e+00	0	49	104	0	60	1048574
2026-01-18 08:21:35.74	211.79	18.74	-83.5	-79.0	2.4	0.00e+00	0	49	104	0	60	1048572
2026-01-18 08:21:36.75	211.75	18.57	-83.5	-79.0	2.4	0.00e+00	0	49	104	0	60	1048575
2026-01-18 08:21:37.76	211.71	18.41	-83.5	-79.0	2.4	0.00e+00	0	49	104	0	60	1048575
2026-01-18 08:21:38.76	211.67	18.25	-83.1	-79.0	2.3	0.00e+00	0	49	104	0	60	1048574
2026-01-18 08:21:39.77	211.63	18.08	-83.1	-79.0	2.4	0.00e+00	0	49	104	0	60	1048574
2026-01-18 08:21:40.78	211.59	17.92	-83.5	-79.0	2.4	0.00e+00	0	49	104	0	60	1048574
2026-01-18 08:21:41.79	211.56	17.76	-83.5	-79.0	2.6	0.00e+00	0	49	104	0	60	1048570
2026-01-18 08:21:42.80	211.52	17.60	-83.5	-79.0	2.4	0.00e+00	0	49	104	0	60	1048575
2026-01-18 08:21:43.80	211.48	17.45	-83.1	-79.0	2.4	0.00e+00	0	49	104	0	60	1048569
2026-01-18 08:21:44.81	211.44	17.29	-83.1	-79.0	2.3	0.00e+00	0	49	104	0	60	1048573
2026-01-18 08:21:45.81	211.41	17.14	-83.5	-79.0	2.5	0.00e+00	0	49	104	0	60	1048572
2026-01-18 08:21:46.82	211.37	16.99	-83.5	-79.0	2.6	0.00e+00	0	49	104	0	60	1048569
2026-01-18 08:21:47.83	211.34	16.83	-83.5	-79.0	2.4	0.00e+00	0	49	104	0	60	1048575
2026-01-18 08:21:48.84	211.30	16.68	-83.1	-79.0	2.4	0.00e+00	0	49	104	0	60	1048572
2026-01-18 08:21:49.84	211.27	16.53	-83.1	-79.0	2.5	0.00e+00	0	49	104	0	60	1048573
2026-01-18 08:21:50.85	211.23	16.38	-83.5	-79.0	2.4	0.00e+00	0	49	104	0	60	1048574
2026-01-18 08:21:51.86	211.20	16.24	-83.5	-79.0	2.4	0.00e+00	0	49	104	0	60	1048572
2026-01-18 08:21:52.86	211.17	16.09	-83.5	-79.0	2.7	0.00e+00	0	49	104	0	60	1048575
2026-01-18 08:21:53.87	211.13	15.95	-83.1	-79.0	2.4	0.00e+00	0	49	104	0	60	1048572
2026-01-18 08:21:54.88	211.10	15.80	-83.5	-79.0	2.3	0.00e+00	0	49	104	0	60	1048569
2026-01-18 08:21:55.88	211.07	15.66	-83.5	-79.0	2.4	0.00e+00	0	49	104	0	60	1048574
2026-01-18 08:21:56.89	211.04	15.52	-83.5	-79.0	2.4	0.00e+00	0	49	104	0	60	1048557
2026-01-18 08:21:57.90	211.01	15.38	-83.5	-79.0	2.5	0.00e+00	0	49	104	0	60	1048572
2026-01-18 08:21:58.91	210.98	15.24	-83.1	-79.0	2.3	0.00e+00	0	49	104	0	60	1048570
2026-01-18 08:21:59.92	210.94	15.10	-83.5	-79.0	2.4	0.00e+00	0	49	104	0	60	1048575
2026-01-18 08:22:00.93	210.91	14.96	-83.5	-79.0	2.4	0.00e+00	0	49	104	0	60	1048575
2026-01-18 08:22:01.93	210.88	14.82	-83.5	-79.0	2.3	0.00e+00	0	49	104	0	60	1048575
2026-01-18 08:22:02.94	210.86	14.69	-83.1	-79.0	2.5	0.00e+00	0	49	104	0	60	1048574
2026-01-18 08:22:03.95	210.83	14.55	-83.1	-79.0	2.4	0.00e+00	0	49	104	0	60	1048572
2026-01-18 08:22:04.95	210.80	14.42	-83.5	-79.0	2.4	0.00e+00	0	49	104	0	60	1048574
2026-01-18 08:22:05.96	210.77	14.29	-83.5	-79.0	2.3	0.00e+00	0	49	104	0	60	1048572
2026-01-18 08:22:06.97	210.74	14.16	-83.5	-79.0	2.3	0.00e+00	0	49	104	0	60	1048575
2026-01-18 08:22:07.97	210.71	14.03	-83.1	-79.0	2.4	0.00e+00	0	49	104	0	60	1048575
2026-01-18 08:22:08.98	210.69	13.89	-83.1	-79.0	2.4	0.00e+00	0	49	104	0	60	1048575
2026-01-18 08:22:09.99	210.66	13.77	-83.5	-79.0	2.4	0.00e+00	0	49	104	0	60	1048575
2026-01-18 08:22:10.99	210.63	13.64	-83.5	-79.0	2.4	0.00e+00	0	49	104	0	60	1048575
2026-01-18 08:22:12.00	210.61	13.51	-83.5	-79.0	2.3	0.00e+00	0	49	104	0	60	1048570
2026-01-18 08:22:13.01	210.58	13.38	-83.1	-79.0	2.4	0.00e+00	0	49	104	0	60	1048566
2026-01-18 08:22:14.01	210.55	13.26	-83.5	-79.0	2.4	0.00e+00	0	49	104	0	60	1048572
2026-01-18 08:22:15.02	210.53	13.13	-83.5	-79.0	2.4	0.00e+00	0	49	104	0	60	1048573
2026-01-18 08:22:16.03	210.50	13.01	-83.1	-79.0	2.4	0.00e+00	0	49	104	0	60	1048575
2026-01-18 08:22:17.04	210.48	12.88	-83.5	-79.0	2.4	0.00e+00	0	49	104	0	60	1048568
2026-01-18 08:22:18.05	210.45	12.76	-83.1	-79.0	2.4	0.00e+00	0	49	104	0	60	1048570
2026-01-18 08:22:19.05	210.43	12.64	-83.5	-79.0	2.3	0.00e+00	0	49	104	0	60	1048562
2026-01-18 08:22:20.06	210.40	12.52	-83.5	-79.0	2.5	0.00e+00	0	49	104	0	60	1048571
2026-01-18 08:22:21.07	210.38	12.40	-83.5	-79.0	2.5	0.00e+00	0	49	104	0	60	1048573
2026-01-18 08:22:22.08	210.36	12.28	-82.8	-79.0	2.3	0.00e+00	0	49	104	0	60	1048574
2026-01-18 08:22:23.09	210.33	12.16	-83.1	-79.0	2.4	0.00e+00	0	49	104	0	60	1048568
2026-01-18 08:22:24.09	210.31	12.04	-83.5	-79.0	2.4	0.00e+00	0	49	104	0	60	1048573
2026-01-18 08:22:25.10	210.29	11.93	-83.5	-79.0	2.4	0.00e+00	0	49	104	0	60	1048575
2026-01-18 08:22:26.11	210.26	11.81	-83.5	-79.0	2.5	0.00e+00	0	49	104	0	60	1048574
2026-01-18 08:22:27.12	210.24	11.69	-83.1	-79.0	2.4	0.00e+00	0	49	104	0	60	1048561
2026-01-18 08:22:28.12	210.22	11.58	-83.5	-79.0	2.5	0.00e+00	0	49	104	0	60	1048568
2026-01-18 08:22:29.13	210.20	11.46	-83.5	-79.0	2.3	0.00e+00	0	49	104	0	60	1048570
2026-01-18 08:22:30.13	210.18	11.35	-83.5	-79.0	2.4	0.00e+00	0	49	104	0	60	1048574
2026-01-18 08:22:31.14	210.16	11.24	-83.5	-79.0	2.4	0.00e+00	0	49	104	0	60	1048573
2026-01-18 08:22:32.14	210.13	11.13	-83.1	-79.0	2.4	0.00e+00	0	49	104	0	60	1048575
2026-01-18 08:22:33.15	210.11	11.02	-83.5	-79.0	2.3	0.00e+00	0	49	104	0	60	1048575
2026-01-18 08:22:34.16	210.09	10.90	-83.5	-79.0	2.4	0.00e+00	0	49	104	0	60	1048575
2026-01-18 08:22:35.16	210.07	10.80	-83.5	-79.0	2.3	0.00e+00	0	49	104	0	60	1048574
2026-01-18 08:22:36.17	210.05	10.69	-83.1	-79.0	2.5	0.00e+00	0	49	104	0	60	1048573
2026-01-18 08:22:37.18	210.03	10.58	-83.1	-79.0	2.4	0.00e+00	0	49	104	0	60	1048575
2026-01-18 08:22:38.18	210.01	10.47	-83.5	-79.0	2.5	0.00e+00	0	49	104	0	60	1048572
2026-01-18 08:22:39.19	209.99	10.36	-83.5	-79.0	2.4	0.00e+00	0	49	104	0	60	1048567
2026-01-18 08:22:40.19	209.97	10.25	-83.5	-79.0	2.6	0.00e+00	0	49	104	0	60	1048574
2026-01-18 08:22:41.20	209.95	10.15	-83.1	-79.0	2.4	0.00e+00	0	49	104	0	60	1048575
2026-01-18 08:22:42.21	209.93	10.04	-83.5	-79.0	2.4	0.00e+00	0	49	104	0	60	1048574
2026-01-18 08:22:43.22	209.92	9.94	-83.5	-79.0	2.3	0.00e+00	0	49	104	0	60	1048572
2026-01-18 08:22:44.22	209.90	9.83	-83.5	-79.0	2.4	0.00e+00	0	49	104	0	60	1048575
2026-01-18 08:22:45.23	209.88	9.73	-83.1	-79.0	2.5	0.00e+00	0	49	104	0	60	1048575
2026-01-18 08:22:46.24	209.86	9.62	-83.1	-79.0	2.3	0.00e+00	0	49	104	0	60	1048574
2026-01-18 08:22:47.24	209.84	9.52	-83.5	-79.0	2.4	0.00e+00	0	49	104	0	60	1048575
2026-01-18 08:22:48.25	209.82	9.42	-83.5	-79.0	2.3	0.00e+00	0	49	104	0	60	1048573
2026-01-18 08:22:49.26	209.81	9.32	-83.5	-79.0	2.4	0.00e+00	0	49	104	0	60	1048572
2026-01-18 08:22:50.27	209.79	9.21	-83.5	-79.0	2.4	0.00e+00	0	49	104	0	60	1048574
2026-01-18 08:22:51.28	209.77	9.11	-83.1	-79.0	2.3	0.00e+00	0	49	104	0	60	1048575
2026-01-18 08:22:52.28	209.75	9.01	-83.5	-79.0	2.4	0.00e+00	0	49	104	0	60	1048573
2026-01-18 08:22:53.29	209.74	8.91	-83.5	-79.0	2.5	0.00e+00	0	49	104	0	60	1048575
2026-01-18 08:22:54.29	209.72	8.82	-83.5	-79.0	2.4	0.00e+00	0	49	104	0	60	1048571
2026-01-18 08:22:55.30	209.70	8.72	-83.1	-79.0	2.4	0.00e+00	0	49	104	0	60	1048574
2026-01-18 08:22:56.30	209.69	8.62	-83.1	-79.0	2.4	0.00e+00	0	49	104	0	60	1048573
2026-01-18 08:22:57.30	209.67	8.52	-83.5	-79.0	2.4	0.00e+00	0	49	104	0	60	1048574
2026-01-18 08:22:58.31	209.66	8.42	-83.5	-79.0	2.4	0.00e+00	0	49	104	0	60	1048574
2026-01-18 08:22:59.32	209.64	8.33	-83.5	-79.0	2.6	0.00e+00	0	49	104	0	60	1048574
2026-01-18 08:23:00.32	209.62	8.23	-83.1	-79.0	2.6	0.00e+00	0	49	104	0	60	1048574
2026-01-18 08:23:01.32	209.61	8.14	-83.5	-79.0	2.5	0.00e+00	0	49	104	0	60	1048575
2026-01-18 08:23:02.33	209.59	8.04	-83.5	-79.0	2.4	0.00e+00	0	49	104	0	60	1048575
2026-01-18 08:23:03.34	209.58	7.95	-83.5	-79.0	2.4	0.00e+00	0	49	104	0	60	1048575
2026-01-18 08:23:04.34	209.56	7.85	-83.5	-79.0	2.4	0.00e+00	0	49	104	0	60	1048574
2026-01-18 08:23:05.35	209.55	7.76	-83.1	-79.0	2.4	0.00e+00	0	49	104	0	60	1048574
2026-01-18 08:23:06.35	209.53	7.67	-83.5	-79.0	2.4	0.00e+00	0	49	104	0	60	1048575
2026-01-18 08:23:07.35	209.52	7.57	-83.5	-79.0	2.4	0.00e+00	0	49	104	0	60	1048575
2026-01-18 08:23:08.36	209.50	7.48	-83.5	-79.0	2.4	0.00e+00	0	49	104	0	60	1048572
2026-01-18 08:23:09.36	209.49	7.39	-83.1	-79.0	2.4	0.00e+00	0	49	104	0	60	1048569
2026-01-18 08:23:10.37	209.47	7.30	-83.1	-79.0	2.3	0.00e+00	0	49	104	0	60	1048573
2026-01-18 08:23:11.37	209.46	7.21	-83.5	-79.0	2.4	0.00e+00	0	49	104	0	60	1048572
2026-01-18 08:23:12.38	209.44	7.12	-83.5	-79.0	2.3	0.00e+00	0	49	104	0	60	1048566
2026-01-18 08:23:13.38	209.43	7.03	-83.1	-79.0	2.4	0.00e+00	0	49	104	0	60	1048570
2026-01-18 08:23:14.39	209.42	6.94	-83.1	-79.0	2.4	0.00e+00	0	49	104	0	60	1048570
2026-01-18 08:23:15.40	209.40	6.85	-83.5	-79.0	2.5	0.00e+00	0	49	104	0	60	1048571
2026-01-18 08:23:16.41	209.39	6.76	-83.5	-79.0	2.4	0.00e+00	0	49	104	0	60	1048575
2026-01-18 08:23:17.42	209.38	6.67	-83.5	-79.0	2.4	0.00e+00	0	49	104	0	60	1048575
2026-01-18 08:23:18.42	209.36	6.58	-83.5	-79.0	2.5	0.00e+00	0	49	104	0	60	1048574
2026-01-18 08:23:19.43	209.35	6.49	-83.1	-79.0	2.3	0.00e+00	0	49	104	0	60	1048572
2026-01-18 08:23:20.44	209.34	6.40	-83.1	-79.0	2.4	0.00e+00	0	49	104	0	60	1048569
2026-01-18 08:23:21.44	209.32	6.32	-83.5	-79.0	2.4	0.00e+00	0	49	104	0	60	1048573
2026-01-18 08:23:22.45	209.31	6.23	-83.5	-79.0	2.4	0.00e+00	0	49	104	0	60	1048563
2026-01-18 08:23:23.46	209.30	6.14	-83.1	-79.0	2.4	0.00e+00	0	49	104	0	60	1048575
2026-01-18 08:23:24.46	209.29	6.06	-83.1	-79.0	2.4	0.00e+00	0	49	104	0	60	1048569
2026-01-18 08:23:25.46	209.27	5.97	-83.5	-79.0	2.4	0.00e+00	0	49	104	0	60	1048571
2026-01-18 08:23:26.47	209.26	5.89	-83.5	-79.0	2.4	0.00e+00	0	49	104	0	60	1048574
2026-01-18 08:23:27.47	209.25	5.80	-83.5	-79.0	2.4	0.00e+00	0	49	104	0	60	1048574
2026-01-18 08:23:28.48	209.24	5.72	-83.5	-79.0	2.3	0.00e+00	0	49	104	0	60	1048573
2026-01-18 08:23:29.48	209.22	5.64	-83.5	-79.0	2.5	0.00e+00	0	49	104	0	60	1048574
2026-01-18 08:23:30.49	209.21	5.55	-83.5	-79.0	2.4	0.00e+00	0	49	104	0	60	1048572
2026-01-18 08:23:31.49	209.20	5.47	-83.5	-79.0	2.3	0.00e+00	0	49	104	0	60	1048571
2026-01-18 08:23:32.50	209.19	5.39	-83.5	-79.0	2.4	0.00e+00	0	49	104	0	60	1048569
2026-01-18 08:23:33.51	209.18	5.30	-83.1	-79.0	2.4	0.00e+00	0	49	104	0	60	1048573
2026-01-18 08:23:34.52	209.17	5.22	-83.5	-79.0	2.4	0.00e+00	0	49	104	0	60	1048574
2026-01-18 08:23:35.52	209.15	5.14	-83.5	-79.0	2.4	0.00e+00	0	49	104	0	60	1048575
2026-01-18 08:23:36.53	209.14	5.06	-83.5	-79.0	2.3	0.00e+00	0	49	104	0	60	1048573
2026-01-18 08:23:37.54	209.13	4.97	-83.1	-79.0	2.4	0.00e+00	0	49	104	0	60	1048571
2026-01-18 08:23:38.55	209.12	4.89	-82.8	-79.0	2.4	0.00e+00	0	49	104	0	60	1048570
2026-01-18 08:23:39.56	209.11	4.81	-83.5	-79.0	2.4	0.00e+00	0	49	104	0	60	1048575
2026-01-18 08:23:40.57	209.10	4.73	-83.5	-79.0	2.4	0.00e+00	0	49	104	0	60	1048571
2026-01-18 08:23:41.57	209.09	4.65	-83.5	-79.0	2.4	0.00e+00	0	49	104	0	60	1048573
2026-01-18 08:23:42.58	209.08	4.57	-83.1	-79.0	2.5	0.00e+00	0	49	104	0	60	1048567
2026-01-18 08:23:43.58	209.07	4.49	-83.5	-79.0	2.4	0.00e+00	0	49	104	0	60	1048572
2026-01-18 08:23:44.59	209.06	4.41	-83.5	-79.0	2.4	0.00e+00	0	49	104	0	60	1048575
2026-01-18 08:23:45.60	209.05	4.33	-83.5	-79.0	2.4	0.00e+00	0	49	104	0	60	1048575
2026-01-18 08:23:46.60	209.04	4.26	-83.5	-79.0	2.5	0.00e+00	0	49	104	0	60	1048571
2026-01-18 08:23:47.61	209.03	4.18	-83.5	-79.0	2.3	0.00e+00	0	49	104	0	60	1048575
2026-01-18 08:23:48.62	209.02	4.10	-83.5	-79.0	2.5	0.00e+00	0	49	104	0	60	1048575
2026-01-18 08:23:49.63	209.01	4.02	-83.5	-79.0	2.4	0.00e+00	0	49	104	0	60	1048574
2026-01-18 08:23:50.64	209.00	3.94	-83.5	-79.0	2.5	0.00e+00	0	49	104	0	60	1048569
2026-01-18 08:23:51.64	208.99	3.87	-83.5	-79.0	2.3	0.00e+00	0	49	104	0	60	1048574
2026-01-18 08:23:52.65	208.98	3.79	-83.1	-79.0	2.4	0.00e+00	0	49	104	0	60	1048572
2026-01-18 08:23:53.66	208.97	3.71	-83.5	-79.0	2.4	0.00e+00	0	49	104	0	60	1048571
2026-01-18 08:23:54.66	208.96	3.64	-83.5	-79.0	2.4	0.00e+00	0	49	104	0	60	1048561
2026-01-18 08:23:55.67	208.95	3.56	-83.5	-79.0	2.4	0.00e+00	0	49	104	0	60	1048573
2026-01-18 08:23:56.68	208.94	3.49	-83.1	-79.0	2.4	0.00e+00	0	49	104	0	60	1048572
2026-01-18 08:23:57.69	208.93	3.41	-83.1	-79.0	2.3	0.00e+00	0	49	104	0	60	1048573
2026-01-18 08:23:58.69	208.92	3.34	-83.1	-79.0	2.4	0.00e+00	0	49	104	0	60	1048575
2026-01-18 08:23:59.70	208.91	3.26	-83.5	-79.0	2.4	0.00e+00	0	49	104	0	60	1048575
2026-01-18 08:24:00.71	208.90	3.19	-83.5	-79.0	2.4	0.00e+00	0	49	104	0	60	1048571
2026-01-18 08:24:01.71	208.89	3.11	-83.1	-79.0	2.3	0.00e+00	0	49	104	0	60	1048571
2026-01-18 08:24:02.72	208.88	3.04	-83.1	-79.0	2.5	0.00e+00	0	49	104	0	60	1048575
2026-01-18 08:24:03.72	208.87	2.97	-83.5	-79.0	2.4	0.00e+00	0	49	104	0	60	1048575
2026-01-18 08:24:04.73	208.86	2.89	-83.5	-79.0	2.4	0.00e+00	0	49	104	0	60	1048571
2026-01-18 08:24:05.73	208.86	2.82	-83.5	-79.0	2.4	0.00e+00	0	49	104	0	60	1048574
2026-01-18 08:24:06.74	208.85	2.75	-83.1	-79.0	2.4	0.00e+00	0	49	104	0	60	1048570
2026-01-18 08:24:07.75	208.84	2.67	-83.1	-79.0	2.4	0.00e+00	0	49	104	0	60	1048570
2026-01-18 08:24:08.76	208.83	2.60	-83.5	-79.0	2.4	0.00e+00	0	49	104	0	60	1048575
2026-01-18 08:24:09.76	208.82	2.53	-83.5	-79.0	2.4	0.00e+00	0	49	104	0	60	1048575
2026-01-18 08:24:10.76	208.81	2.46	-83.5	-79.0	2.4	0.00e+00	0	49	104	0	60	1048573
2026-01-18 08:24:11.77	208.81	2.38	-83.1	-79.0	2.4	0.00e+00	0	49	104	0	60	1048572
2026-01-18 08:24:12.77	208.80	2.31	-83.1	-79.0	2.4	0.00e+00	0	49	104	0	60	1048570
2026-01-18 08:24:13.78	208.79	2.24	-83.5	-79.0	2.4	0.00e+00	0	49	104	0	60	1048566
2026-01-18 08:24:14.78	208.78	2.17	-83.5	-79.0	2.4	0.00e+00	0	49	104	0	60	1048571
2026-01-18 08:24:15.79	208.77	2.10	-83.1	-79.0	2.4	0.00e+00	0	49	104	0	60	1048571
2026-01-18 08:24:16.80	208.77	2.03	-83.1	-79.0	2.4	0.00e+00	0	49	104	0	60	1048572
2026-01-18 08:24:17.81	208.76	1.96	-83.5	-79.0	2.5	0.00e+00	0	49	104	0	60	1048571
2026-01-18 08:24:18.81	208.75	1.89	-83.5	-79.0	2.4	0.00e+00	0	49	104	0	60	1048569
2026-01-18 08:24:19.82	208.74	1.82	-83.5	-79.0	2.4	0.00e+00	0	49	104	0	60	1048574
2026-01-18 08:24:20.82	208.73	1.75	-83.1	-79.0	2.4	0.00e+00	0	49	104	0	60	1048572
2026-01-18 08:24:21.83	208.73	1.68	-83.5	-79.0	2.5	0.00e+00	0	49	104	0	60	1048575
2026-01-18 08:24:22.84	208.72	1.61	-83.5	-79.0	2.4	0.00e+00	0	49	104	0	60	1048575
2026-01-18 08:24:23.84	208.71	1.54	-83.5	-79.0	2.5	0.00e+00	0	49	104	0	60	1048574
2026-01-18 08:24:24.85	208.70	1.47	-83.1	-79.0	2.4	0.00e+00	0	49	104	0	60	1048574
2026-01-18 08:24:25.86	208.70	1.40	-83.1	-79.0	2.5	0.00e+00	0	49	104	0	60	1048572
2026-01-18 08:24:26.87	208.69	1.33	-83.5	-79.0	2.4	0.00e+00	0	49	104	0	60	1048574
2026-01-18 08:24:27.87	208.68	1.27	-83.5	-79.0	2.5	0.00e+00	0	49	104	0	60	1048574
2026-01-18 08:24:28.87	208.68	1.20	-83.5	-79.0	2.4	0.00e+00	0	49	104	0	60	1048575
2026-01-18 08:24:29.88	208.67	1.13	-83.5	-79.0	2.4	0.00e+00	0	49	104	0	60	1048575
2026-01-18 08:24:30.88	208.66	1.06	-83.1	-79.0	2.5	0.00e+00	0	49	104	0	60	1048575
2026-01-18 08:24:31.89	208.65	1.00	-83.5	-79.0	2.4	0.00e+00	0	49	104	0	60	1048573
2026-01-18 08:24:32.90	208.65	0.93	-83.5	-79.0	2.5	0.00e+00	0	49	104	0	60	1048568
2026-01-18 08:24:33.91	208.64	0.86	-83.5	-79.0	2.3	0.00e+00	0	49	104	0	60	1048574
2026-01-18 08:24:34.91	208.63	0.80	-83.1	-79.0	2.4	0.00e+00	0	49	104	0	60	1048575
2026-01-18 08:24:35.92	208.63	0.73	-83.1	-79.0	2.4	0.00e+00	0	49	104	0	60	1048574
2026-01-18 08:24:36.93	208.62	0.66	-83.5	-79.0	2.3	0.00e+00	0	49	104	0	60	1048569
2026-01-18 08:24:37.94	208.61	0.60	-83.5	-79.0	2.4	0.00e+00	0	49	104	0	60	1048570
2026-01-18 08:24:38.94	208.61	0.53	-83.5	-79.0	2.6	0.00e+00	0	49	104	0	60	1048573
2026-01-18 08:24:39.95	208.60	0.46	-83.1	-79.0	2.4	0.00e+00	0	49	104	0	60	1048575
2026-01-18 08:24:40.96	208.59	0.40	-83.1	-79.0	2.5	0.00e+00	0	49	104	0	60	1048574
2026-01-18 08:24:41.97	208.59	0.33	-83.5	-79.0	2.3	0.00e+00	0	49	104	0	60	1048573
2026-01-18 08:24:42.97	208.58	0.27	-83.5	-79.0	2.4	0.00e+00	0	49	104	0	60	1048575
2026-01-18 08:24:43.98	208.58	0.20	-83.5	-79.0	2.4	0.00e+00	0	49	104	0	60	1048569
2026-01-18 08:24:44.98	208.57	0.14	-83.1	-79.0	2.3	0.00e+00	0	49	104	0	60	1048573
2026-01-18 08:24:45.99	208.56	0.07	-83.5	-79.0	2.5	0.00e+00	0	49	104	0	60	1048568
2026-01-18 08:24:46.99	208.56	0.01	-83.5	-79.0	2.4	0.00e+00	0	49	104	0	60	1048573
2026-01-18 08:24:48.00	208.55	-0.06	-83.5	-79.0	2.5	0.00e+00	0	49	104	0	60	1048575
2026-01-18 08:24:49.01	208.54	-0.12	-83.5	-79.0	2.3	0.00e+00	0	49	104	0	60	1048571

#Closed at: 2026-01-18 08:24:49
#Recorded file [0 MB]: D:/Data/35015_260118_111620.dat