passes_logs/2026/01/18/R3.2S-Naryan-Mar/R3.2S-Naryan-Mar__20260118_083022_SUOMI_NPP_rec.log

#Pass ID: 20260118_083022_SUOMI NPP
#Satellite: SUOMI NPP
#Configuration: NPP
#almurnet v.1.7.20240730
#Start time: 2026-01-18 08:30:27

#Version: 2.2.20231116
#Station: R3.2S-Naryan-Mar
#Location: 53.008057 lon 67.646978 lat
#TLE: 1 37849U 11061A   26017.28905266  .00000074  00000+0  55894-4 0  9999
#TLE: 2 37849  98.7814 319.3179 0002408  59.7048 300.4366 14.19525847737038

#Time	Az	El	Level	Level2	SNR	BER	BlckErr	Temp	State	Recorded	gain1	gain2
2026-01-18 08:30:27.59	156.37	0.28	-83.1	-79.0	2.5	0.00e+00	0	46	0	0	60	1048573
2026-01-18 08:30:28.59	156.37	0.34	-85.2	-88.6	2.9	1.56e+00	0	47	104	0	60	1048573
2026-01-18 08:30:29.60	156.38	0.40	-85.2	-88.6	2.9	1.56e+00	0	47	104	0	60	1048573
2026-01-18 08:30:30.61	156.39	0.46	-85.2	-88.6	2.8	1.56e+00	0	47	104	0	60	1048575
2026-01-18 08:30:31.61	156.39	0.52	-85.2	-88.6	3.0	1.55e+00	0	47	104	0	60	1048574
2026-01-18 08:30:32.62	156.40	0.58	-85.2	-88.6	3.1	1.55e+00	0	47	104	0	60	1048575
2026-01-18 08:30:33.63	156.41	0.65	-85.2	-88.6	2.9	1.55e+00	0	47	104	0	60	1048574
2026-01-18 08:30:34.64	156.41	0.71	-85.2	-88.6	3.1	1.56e+00	0	47	104	0	60	1048572
2026-01-18 08:30:35.65	156.42	0.77	-85.2	-88.6	2.9	1.56e+00	0	47	104	0	60	1048574
2026-01-18 08:30:36.65	156.43	0.83	-85.2	-88.6	3.1	1.56e+00	0	47	104	0	60	1048569
2026-01-18 08:30:37.66	156.43	0.89	-85.2	-88.6	2.9	1.56e+00	0	47	104	0	60	1048574
2026-01-18 08:30:38.66	156.44	0.96	-85.2	-88.6	3.1	1.56e+00	0	47	104	0	60	1048575
2026-01-18 08:30:39.67	156.45	1.02	-84.3	-88.6	3.0	1.56e+00	0	47	104	0	60	1048574
2026-01-18 08:30:40.67	156.45	1.08	-85.2	-88.6	2.9	1.56e+00	0	47	104	0	60	1048573
2026-01-18 08:30:41.68	156.46	1.14	-85.2	-88.6	3.0	1.56e+00	0	47	104	0	60	1048572
2026-01-18 08:30:42.69	156.47	1.21	-85.2	-88.6	3.0	1.56e+00	0	47	104	0	60	1048574
2026-01-18 08:30:43.69	156.47	1.27	-85.2	-88.6	3.1	1.55e+00	0	47	104	0	60	1048574
2026-01-18 08:30:44.70	156.48	1.33	-85.2	-88.6	2.9	1.56e+00	0	47	104	0	60	1048574
2026-01-18 08:30:45.71	156.49	1.40	-85.2	-88.6	2.8	1.55e+00	0	47	104	0	60	1048574
2026-01-18 08:30:46.72	156.49	1.46	-85.2	-88.6	2.9	1.56e+00	0	47	104	0	60	1048572
2026-01-18 08:30:47.72	156.50	1.52	-85.2	-88.6	2.9	1.55e+00	0	47	104	0	60	1048575
2026-01-18 08:30:48.73	156.51	1.59	-85.2	-88.6	3.2	1.55e+00	0	47	104	0	60	1048574
2026-01-18 08:30:49.74	156.51	1.65	-85.2	-88.6	3.1	1.56e+00	0	47	104	0	60	1048575
2026-01-18 08:30:50.75	156.52	1.71	-85.2	-88.6	3.1	1.56e+00	0	47	104	0	60	1048575
2026-01-18 08:30:51.76	156.53	1.78	-85.2	-88.6	3.0	1.56e+00	0	47	104	0	60	1048574
2026-01-18 08:30:52.75	156.54	1.84	-85.2	-88.6	3.0	1.55e+00	0	47	104	0	60	1048575
2026-01-18 08:30:53.75	156.54	1.91	-85.2	-88.6	2.8	1.55e+00	0	47	104	0	60	1048575
2026-01-18 08:30:54.76	156.55	1.97	-85.2	-88.6	3.2	1.56e+00	0	47	104	0	60	1048574
2026-01-18 08:30:55.77	156.56	2.04	-85.2	-88.6	2.8	1.55e+00	0	47	104	0	60	1048575
2026-01-18 08:30:56.77	156.56	2.10	-85.2	-88.6	2.8	1.56e+00	0	47	104	0	60	1048575
2026-01-18 08:30:57.78	156.57	2.16	-85.2	-88.6	3.0	1.56e+00	0	47	104	0	60	1048575
2026-01-18 08:30:58.79	156.58	2.23	-85.2	-88.6	3.2	1.55e+00	0	47	104	0	60	1048575
2026-01-18 08:30:59.80	156.59	2.30	-84.3	-88.6	2.8	1.56e+00	0	47	104	0	60	1048575
2026-01-18 08:31:00.81	156.59	2.36	-85.2	-88.6	3.1	1.56e+00	0	47	104	0	60	1048575
2026-01-18 08:31:01.82	156.60	2.43	-85.2	-88.6	3.0	1.56e+00	0	47	104	0	60	1048574
2026-01-18 08:31:02.82	156.61	2.49	-85.2	-88.6	3.0	1.56e+00	0	47	104	0	60	1048572
2026-01-18 08:31:03.83	156.61	2.56	-85.2	-88.6	3.0	1.56e+00	0	47	104	0	60	1048573
2026-01-18 08:31:04.84	156.62	2.62	-85.2	-88.6	3.0	1.56e+00	0	47	104	0	60	1048574
2026-01-18 08:31:05.85	156.63	2.69	-85.2	-88.6	3.0	1.56e+00	0	47	104	0	60	1048574
2026-01-18 08:31:06.85	156.64	2.76	-85.2	-88.6	3.2	1.56e+00	0	47	104	0	60	1048572
2026-01-18 08:31:07.86	156.64	2.82	-85.2	-88.6	2.8	1.55e+00	0	47	104	0	60	1048571
2026-01-18 08:31:08.86	156.65	2.89	-85.2	-88.6	2.9	1.56e+00	0	47	104	0	60	1048574
2026-01-18 08:31:09.87	156.66	2.96	-85.2	-88.6	3.0	1.55e+00	0	47	104	0	60	1048575
2026-01-18 08:31:10.87	156.67	3.02	-85.2	-88.6	3.1	1.56e+00	0	47	104	0	60	1048575
2026-01-18 08:31:11.88	156.67	3.09	-85.2	-88.6	2.8	1.56e+00	0	47	104	0	60	1048575
2026-01-18 08:31:12.88	156.68	3.16	-85.2	-88.6	3.0	1.56e+00	0	47	104	0	60	1048575
2026-01-18 08:31:13.88	156.69	3.22	-85.2	-88.6	3.1	1.56e+00	0	47	104	0	60	1048575
2026-01-18 08:31:14.89	156.69	3.29	-85.2	-88.6	3.0	1.55e+00	0	47	104	0	60	1048575
2026-01-18 08:31:15.90	156.70	3.36	-85.2	-88.6	2.8	1.56e+00	0	47	104	0	60	1048574
2026-01-18 08:31:16.90	156.71	3.43	-85.2	-88.6	3.1	1.56e+00	0	47	104	0	60	1048575
2026-01-18 08:31:17.91	156.72	3.50	-85.2	-88.6	3.3	1.56e+00	0	47	104	0	60	1048575
2026-01-18 08:31:18.92	156.72	3.56	-85.2	-88.6	3.2	1.56e+00	0	47	104	0	60	1048575
2026-01-18 08:31:19.93	156.73	3.63	-85.2	-88.6	3.1	1.56e+00	0	47	104	0	60	1048572
2026-01-18 08:31:20.94	156.74	3.70	-85.2	-88.6	3.2	1.56e+00	0	47	104	0	60	1048575
2026-01-18 08:31:21.94	156.75	3.77	-85.2	-88.6	3.0	1.56e+00	0	47	104	0	60	1048575
2026-01-18 08:31:22.95	156.75	3.84	-85.2	-88.6	3.0	1.56e+00	0	47	104	0	60	1048572
2026-01-18 08:31:23.96	156.76	3.91	-85.2	-88.6	3.1	1.56e+00	0	47	104	0	60	1048575
2026-01-18 08:31:24.96	156.77	3.98	-85.2	-88.6	3.1	1.55e+00	0	47	104	0	60	1048575
2026-01-18 08:31:25.97	156.78	4.05	-85.2	-88.6	2.8	1.56e+00	0	47	104	0	60	1048575
2026-01-18 08:31:26.98	156.79	4.12	-85.2	-88.6	3.0	1.56e+00	0	47	104	0	60	1048573
2026-01-18 08:31:27.98	156.79	4.19	-85.2	-88.6	2.9	1.55e+00	0	47	104	0	60	1048575
2026-01-18 08:31:28.98	156.80	4.26	-85.2	-88.6	3.1	1.55e+00	0	47	104	0	60	1048575
2026-01-18 08:31:29.99	156.81	4.33	-85.2	-88.6	2.9	1.55e+00	0	47	104	0	60	1048574
2026-01-18 08:31:30.99	156.82	4.40	-85.2	-88.6	2.9	1.56e+00	0	47	104	0	60	1048573
2026-01-18 08:31:32.00	156.82	4.47	-85.2	-88.6	2.8	1.56e+00	0	47	104	0	60	1048572
2026-01-18 08:31:33.01	156.83	4.54	-85.2	-88.6	2.8	1.56e+00	0	47	104	0	60	1048575
2026-01-18 08:31:34.02	156.84	4.61	-85.2	-88.6	3.3	1.56e+00	0	47	104	0	60	1048575
2026-01-18 08:31:35.03	156.85	4.68	-85.2	-88.6	3.1	1.56e+00	0	47	104	0	60	1048575
2026-01-18 08:31:36.03	156.86	4.75	-85.2	-88.6	3.1	1.55e+00	0	47	104	0	60	1048575
2026-01-18 08:31:37.04	156.86	4.82	-85.2	-88.6	3.1	1.56e+00	0	47	104	0	60	1048573
2026-01-18 08:31:38.05	156.87	4.90	-85.2	-88.6	3.2	1.55e+00	0	47	104	0	60	1048573
2026-01-18 08:31:39.05	156.88	4.97	-85.2	-88.6	3.0	1.56e+00	0	47	104	0	60	1048575
2026-01-18 08:31:40.06	156.89	5.04	-85.2	-88.6	3.0	1.56e+00	0	47	104	0	60	1048574
2026-01-18 08:31:41.06	156.89	5.11	-85.2	-88.6	2.9	1.56e+00	0	47	104	0	60	1048575
2026-01-18 08:31:42.07	156.90	5.18	-85.2	-88.6	3.1	1.55e+00	0	47	104	0	60	1048573
2026-01-18 08:31:43.07	156.91	5.26	-85.2	-88.6	3.0	1.55e+00	0	47	104	0	60	1048575
2026-01-18 08:31:44.08	156.92	5.33	-85.2	-88.6	3.0	1.55e+00	0	47	104	0	60	1048575
2026-01-18 08:31:45.08	156.93	5.40	-85.2	-88.6	2.8	1.55e+00	0	47	104	0	60	1048574
2026-01-18 08:31:46.08	156.93	5.47	-85.2	-88.6	2.9	1.56e+00	0	47	104	0	60	1048573
2026-01-18 08:31:47.08	156.94	5.55	-85.2	-88.6	3.0	1.56e+00	0	47	104	0	60	1048574
2026-01-18 08:31:48.09	156.95	5.62	-85.2	-88.6	2.9	1.56e+00	0	47	104	0	60	1048575
2026-01-18 08:31:49.10	156.96	5.70	-85.2	-88.6	3.0	1.56e+00	0	47	104	0	60	1048575
2026-01-18 08:31:50.10	156.97	5.77	-85.2	-88.6	3.2	1.56e+00	0	47	104	0	60	1048575
2026-01-18 08:31:51.11	156.98	5.84	-85.2	-88.6	3.0	1.56e+00	0	47	104	0	60	1048575
2026-01-18 08:31:52.11	156.98	5.92	-85.2	-88.6	3.0	1.56e+00	0	47	104	0	60	1048575
2026-01-18 08:31:53.12	156.99	5.99	-85.2	-88.6	3.2	1.55e+00	0	47	104	0	60	1048574
2026-01-18 08:31:54.12	157.00	6.07	-85.2	-88.6	3.0	1.55e+00	0	47	104	0	60	1048573
2026-01-18 08:31:55.13	157.01	6.14	-85.2	-88.6	3.1	1.55e+00	0	47	104	0	60	1048574
2026-01-18 08:31:56.14	157.02	6.22	-85.2	-88.6	3.1	1.56e+00	0	47	104	0	60	1048575
2026-01-18 08:31:57.14	157.03	6.29	-85.2	-88.6	3.0	1.56e+00	0	47	104	0	60	1048575
2026-01-18 08:31:58.15	157.03	6.37	-85.2	-88.6	3.1	1.56e+00	0	47	104	0	60	1048575
2026-01-18 08:31:59.16	157.04	6.45	-85.2	-88.6	3.1	1.56e+00	0	47	104	0	60	1048574
2026-01-18 08:32:00.17	157.05	6.52	-85.2	-88.6	3.0	1.56e+00	0	47	104	0	60	1048573
2026-01-18 08:32:01.17	157.06	6.60	-85.2	-88.6	2.7	1.55e+00	0	47	104	0	60	1048574
2026-01-18 08:32:02.17	157.07	6.67	-85.2	-88.6	2.9	1.55e+00	0	47	104	0	60	1048575
2026-01-18 08:32:03.18	157.08	6.75	-85.2	-88.6	3.1	1.56e+00	0	47	104	0	60	1048574
2026-01-18 08:32:04.18	157.08	6.83	-85.2	-88.6	3.1	1.56e+00	0	47	104	0	60	1048575
2026-01-18 08:32:05.19	157.09	6.91	-85.2	-88.6	3.1	1.56e+00	0	47	104	0	60	1048574
2026-01-18 08:32:06.20	157.10	6.98	-85.2	-88.6	3.1	1.56e+00	0	47	104	0	60	1048574
2026-01-18 08:32:07.20	157.11	7.06	-85.2	-88.6	2.9	1.56e+00	0	47	104	0	60	1048573
2026-01-18 08:32:08.21	157.12	7.14	-85.2	-88.6	3.0	1.55e+00	0	47	104	0	60	1048574
2026-01-18 08:32:09.22	157.13	7.22	-85.2	-88.6	3.0	1.56e+00	0	47	104	0	60	1048575
2026-01-18 08:32:10.23	157.14	7.30	-85.2	-88.6	3.0	1.56e+00	0	47	104	0	60	1048575
2026-01-18 08:32:11.23	157.14	7.38	-85.2	-88.6	3.0	1.56e+00	0	47	104	0	60	1048575
2026-01-18 08:32:12.24	157.15	7.45	-85.2	-88.6	3.2	1.56e+00	0	47	104	0	60	1048575
2026-01-18 08:32:13.25	157.16	7.53	-85.2	-88.6	3.0	1.56e+00	0	47	104	0	60	1048570
2026-01-18 08:32:14.25	157.17	7.61	-85.2	-88.6	2.9	1.55e+00	0	47	104	0	60	1048575
2026-01-18 08:32:15.26	157.18	7.69	-85.2	-88.6	3.1	1.56e+00	0	47	104	0	60	1048575
2026-01-18 08:32:16.27	157.19	7.77	-85.2	-88.6	2.9	1.56e+00	0	47	104	0	60	1048575
2026-01-18 08:32:17.28	157.20	7.85	-85.2	-88.6	3.1	1.56e+00	0	47	104	0	60	1048575
2026-01-18 08:32:18.28	157.21	7.93	-85.2	-88.6	2.7	1.56e+00	0	47	104	0	60	1048573
2026-01-18 08:32:19.29	157.22	8.02	-85.2	-88.6	3.0	1.56e+00	0	47	104	0	60	1048575
2026-01-18 08:32:20.30	157.22	8.10	-85.2	-88.6	2.9	1.56e+00	0	47	104	0	60	1048575
2026-01-18 08:32:21.31	157.23	8.18	-84.7	-88.6	3.0	1.56e+00	0	47	104	0	60	1048575
2026-01-18 08:32:22.31	157.24	8.26	-85.2	-88.6	3.1	1.56e+00	0	47	104	0	60	1048574
2026-01-18 08:32:23.32	157.25	8.34	-85.2	-88.6	2.8	1.56e+00	0	47	104	0	60	1048575
2026-01-18 08:32:24.32	157.26	8.42	-85.2	-88.6	2.8	1.55e+00	0	47	104	0	60	1048572
2026-01-18 08:32:25.33	157.27	8.51	-85.2	-88.6	3.1	1.55e+00	0	47	104	0	60	1048575
2026-01-18 08:32:26.33	157.28	8.59	-85.2	-88.6	3.0	1.56e+00	0	47	104	0	60	1048574
2026-01-18 08:32:27.34	157.29	8.67	-85.2	-88.6	2.9	1.56e+00	0	47	104	0	60	1048575
2026-01-18 08:32:28.35	157.30	8.76	-85.2	-88.6	3.0	1.56e+00	0	47	104	0	60	1048574
2026-01-18 08:32:29.35	157.31	8.84	-85.2	-88.6	3.0	1.55e+00	0	47	104	0	60	1048574
2026-01-18 08:32:30.36	157.32	8.92	-85.2	-88.6	3.1	1.56e+00	0	47	104	0	60	1048575
2026-01-18 08:32:31.36	157.33	9.01	-84.3	-88.6	3.1	1.55e+00	0	47	104	0	60	1048574
2026-01-18 08:32:32.37	157.34	9.09	-85.2	-88.6	3.0	1.56e+00	0	47	104	0	60	1048575
2026-01-18 08:32:33.38	157.34	9.18	-85.2	-88.6	3.0	1.56e+00	0	47	104	0	60	1048570
2026-01-18 08:32:34.38	157.35	9.26	-85.2	-88.6	2.9	1.55e+00	0	47	104	0	60	1048574
2026-01-18 08:32:35.39	157.36	9.35	-85.2	-88.6	3.0	1.55e+00	0	47	104	0	60	1048575
2026-01-18 08:32:36.40	157.37	9.43	-85.2	-88.6	2.9	1.56e+00	0	47	104	0	60	1048575
2026-01-18 08:32:37.41	157.38	9.52	-85.2	-88.6	3.1	1.56e+00	0	47	104	0	60	1048572
2026-01-18 08:32:38.42	157.39	9.60	-85.2	-88.6	3.1	1.56e+00	0	47	104	0	60	1048574
2026-01-18 08:32:39.43	157.40	9.69	-85.2	-88.6	3.0	1.55e+00	0	47	104	0	60	1048573
2026-01-18 08:32:40.43	157.41	9.78	-85.2	-88.6	3.1	1.55e+00	0	47	104	0	60	1048572
2026-01-18 08:32:41.44	157.42	9.87	-85.2	-88.6	2.9	1.56e+00	0	47	104	0	60	1048575
2026-01-18 08:32:42.45	157.43	9.95	-85.2	-88.6	3.0	1.56e+00	0	47	104	0	60	1048574
2026-01-18 08:32:43.46	157.44	10.04	-85.2	-88.6	3.0	1.56e+00	0	47	104	0	60	1048573
2026-01-18 08:32:44.47	157.45	10.13	-85.2	-88.6	3.0	1.56e+00	0	47	104	0	60	1048575
2026-01-18 08:32:45.48	157.46	10.22	-85.2	-88.6	2.8	1.56e+00	0	47	104	0	60	1048575
2026-01-18 08:32:46.48	157.47	10.31	-85.2	-88.6	3.1	1.55e+00	0	47	104	0	60	1048574
2026-01-18 08:32:47.49	157.48	10.40	-85.2	-88.6	2.6	1.56e+00	0	47	104	0	60	1048574
2026-01-18 08:32:48.50	157.49	10.48	-85.2	-88.6	3.0	1.56e+00	0	47	104	0	60	1048573
2026-01-18 08:32:49.51	157.50	10.57	-85.2	-88.6	3.0	1.56e+00	0	47	104	0	60	1048574
2026-01-18 08:32:50.52	157.51	10.67	-85.2	-88.6	3.0	1.55e+00	0	47	104	0	60	1048574
2026-01-18 08:32:51.53	157.52	10.76	-85.2	-88.6	3.1	1.56e+00	0	47	104	0	60	1048574
2026-01-18 08:32:52.53	157.53	10.85	-85.2	-88.6	3.2	1.56e+00	0	47	104	0	60	1048575
2026-01-18 08:32:53.54	157.54	10.94	-85.2	-88.6	3.1	1.55e+00	0	47	104	0	60	1048575
2026-01-18 08:32:54.54	157.55	11.03	-85.2	-88.6	3.2	1.56e+00	0	47	104	0	60	1048575
2026-01-18 08:32:55.55	157.56	11.12	-85.2	-88.6	3.0	1.56e+00	0	47	104	0	60	1048575
2026-01-18 08:32:56.55	157.57	11.21	-85.2	-88.6	3.0	1.56e+00	0	47	104	0	60	1048574
2026-01-18 08:32:57.56	157.58	11.30	-85.2	-88.6	3.0	1.56e+00	0	47	104	0	60	1048573
2026-01-18 08:32:58.56	157.59	11.40	-85.2	-88.6	3.2	1.56e+00	0	47	104	0	60	1048574
2026-01-18 08:32:59.57	157.60	11.49	-85.2	-88.6	2.7	1.56e+00	0	47	104	0	60	1048575
2026-01-18 08:33:00.58	157.61	11.58	-85.2	-88.6	3.2	1.56e+00	0	47	104	0	60	1048573
2026-01-18 08:33:01.58	157.62	11.68	-85.2	-88.6	3.0	1.56e+00	0	47	104	0	60	1048575
2026-01-18 08:33:02.58	157.64	11.77	-85.2	-88.6	2.9	1.56e+00	0	47	104	0	60	1048575
2026-01-18 08:33:03.59	157.65	11.86	-85.2	-88.6	3.2	1.56e+00	0	47	104	0	60	1048575
2026-01-18 08:33:04.59	157.66	11.96	-85.2	-88.6	3.2	1.56e+00	0	47	104	0	60	1048574
2026-01-18 08:33:05.59	157.67	12.05	-85.2	-88.6	2.9	1.55e+00	0	47	104	0	60	1048575
2026-01-18 08:33:06.60	157.68	12.15	-85.2	-88.6	3.3	1.56e+00	0	47	104	0	60	1048575
2026-01-18 08:33:07.61	157.69	12.24	-85.2	-88.6	2.9	1.56e+00	0	47	104	0	60	1048575
2026-01-18 08:33:08.61	157.70	12.34	-85.2	-88.6	3.1	1.55e+00	0	47	104	0	60	1048572
2026-01-18 08:33:09.62	157.71	12.44	-85.2	-88.6	2.9	1.56e+00	0	47	104	0	60	1048575
2026-01-18 08:33:10.63	157.72	12.53	-85.2	-88.6	3.0	1.56e+00	0	47	104	0	60	1048575
2026-01-18 08:33:11.64	157.73	12.63	-85.2	-88.6	2.9	1.56e+00	0	47	104	0	60	1048575
2026-01-18 08:33:12.65	157.74	12.73	-85.2	-88.6	3.1	1.56e+00	0	47	104	0	60	1048575
2026-01-18 08:33:13.65	157.76	12.83	-85.2	-88.6	3.1	1.56e+00	0	47	104	0	60	1048574
2026-01-18 08:33:14.66	157.77	12.93	-85.2	-88.6	3.1	1.55e+00	0	47	104	0	60	1048575
2026-01-18 08:33:15.67	157.78	13.03	-85.2	-88.6	3.0	1.56e+00	0	47	104	0	60	1048574
2026-01-18 08:33:16.68	157.79	13.13	-84.3	-88.6	3.0	1.55e+00	0	47	104	0	60	1048575
2026-01-18 08:33:17.69	157.80	13.23	-85.2	-88.6	2.7	1.55e+00	0	47	104	0	60	1048575
2026-01-18 08:33:18.69	157.81	13.33	-85.2	-88.6	3.0	1.56e+00	0	47	104	0	60	1048573
2026-01-18 08:33:19.70	157.82	13.43	-85.2	-88.6	2.9	1.56e+00	0	47	104	0	60	1048572
2026-01-18 08:33:20.70	157.83	13.53	-85.2	-88.6	2.8	1.56e+00	0	47	104	0	60	1048574
2026-01-18 08:33:21.71	157.85	13.63	-85.2	-88.6	3.2	1.56e+00	0	47	104	0	60	1048570
2026-01-18 08:33:22.72	157.86	13.73	-85.2	-88.6	2.9	1.56e+00	0	47	104	0	60	1048575
2026-01-18 08:33:23.72	157.87	13.83	-85.2	-88.6	2.9	1.56e+00	0	47	104	0	60	1048572
2026-01-18 08:33:24.72	157.88	13.94	-85.2	-88.6	3.0	1.55e+00	0	47	104	0	60	1048573
2026-01-18 08:33:25.73	157.89	14.04	-85.2	-88.6	2.9	1.56e+00	0	47	104	0	60	1048575
2026-01-18 08:33:26.73	157.90	14.14	-85.2	-88.6	3.0	1.56e+00	0	47	104	0	60	1048575
2026-01-18 08:33:27.74	157.92	14.25	-85.2	-88.6	3.0	1.56e+00	0	47	104	0	60	1048575
2026-01-18 08:33:28.74	157.93	14.35	-85.2	-88.6	3.0	1.56e+00	0	47	104	0	60	1048575
2026-01-18 08:33:29.74	157.94	14.46	-85.2	-88.6	2.9	1.56e+00	0	47	104	0	60	1048575
2026-01-18 08:33:30.75	157.95	14.56	-85.2	-88.6	3.0	1.56e+00	0	47	104	0	60	1048574
2026-01-18 08:33:31.76	157.96	14.67	-84.3	-88.6	3.0	1.56e+00	0	47	104	0	60	1048574
2026-01-18 08:33:32.76	157.98	14.77	-85.2	-88.6	3.0	1.56e+00	0	47	104	0	60	1048575
2026-01-18 08:33:33.77	157.99	14.88	-85.2	-88.6	2.8	1.56e+00	0	47	104	0	60	1048575
2026-01-18 08:33:34.78	158.00	14.99	-85.2	-88.6	3.0	1.56e+00	0	47	104	0	60	1048572
2026-01-18 08:33:35.79	158.01	15.10	-84.3	-88.6	2.9	1.56e+00	0	47	104	0	60	1048575
2026-01-18 08:33:36.80	158.03	15.21	-85.2	-88.6	3.1	1.56e+00	0	47	104	0	60	1048575
2026-01-18 08:33:37.80	158.04	15.31	-85.2	-88.6	3.1	1.55e+00	0	47	104	0	60	1048574
2026-01-18 08:33:38.81	158.05	15.42	-85.2	-88.6	3.0	1.56e+00	0	47	104	0	60	1048573
2026-01-18 08:33:39.82	158.06	15.53	-85.2	-88.6	3.0	1.55e+00	0	47	104	0	60	1048575
2026-01-18 08:33:40.83	158.08	15.64	-84.3	-88.6	2.9	1.56e+00	0	47	104	0	60	1048575
2026-01-18 08:33:41.84	158.09	15.75	-84.3	-88.6	2.7	1.56e+00	0	47	104	0	60	1048574
2026-01-18 08:33:42.85	158.10	15.87	-85.2	-88.6	3.1	1.55e+00	0	47	104	0	60	1048575
2026-01-18 08:33:43.85	158.12	15.98	-85.2	-88.6	3.0	1.56e+00	0	47	104	0	60	1048566
2026-01-18 08:33:44.86	158.13	16.09	-85.2	-88.6	3.0	1.56e+00	0	47	104	0	60	1048575
2026-01-18 08:33:45.87	158.14	16.20	-85.2	-88.6	3.0	1.56e+00	0	47	104	0	60	1048575
2026-01-18 08:33:46.88	158.15	16.32	-85.2	-88.6	2.9	1.55e+00	0	47	104	0	60	1048575
2026-01-18 08:33:47.88	158.17	16.43	-85.2	-88.6	2.9	1.55e+00	0	47	104	0	60	1048573
2026-01-18 08:33:48.89	158.18	16.55	-85.2	-88.6	3.2	1.56e+00	0	47	104	0	60	1048574
2026-01-18 08:33:49.90	158.19	16.66	-85.2	-88.6	2.9	1.56e+00	0	47	104	0	60	1048575
2026-01-18 08:33:50.91	158.21	16.78	-85.2	-88.6	3.0	1.56e+00	0	47	104	0	60	1048575
2026-01-18 08:33:51.92	158.22	16.89	-85.2	-88.6	2.9	1.55e+00	0	47	104	0	60	1048572
2026-01-18 08:33:52.93	158.24	17.01	-85.2	-88.6	3.1	1.56e+00	0	47	104	0	60	1048574
2026-01-18 08:33:53.94	158.25	17.13	-85.2	-88.6	3.0	1.55e+00	0	47	104	0	60	1048575
2026-01-18 08:33:54.94	158.26	17.24	-85.2	-88.6	2.9	1.55e+00	0	47	104	0	60	1048573
2026-01-18 08:33:55.95	158.28	17.36	-85.2	-88.6	3.0	1.55e+00	0	47	104	0	60	1048574
2026-01-18 08:33:56.95	158.29	17.48	-85.2	-88.6	3.0	1.55e+00	0	47	104	0	60	1048575
2026-01-18 08:33:57.95	158.30	17.60	-85.2	-88.6	3.1	1.56e+00	0	47	104	0	60	1048573
2026-01-18 08:33:58.96	158.32	17.72	-85.2	-88.6	3.0	1.56e+00	0	47	104	0	60	1048575
2026-01-18 08:33:59.97	158.33	17.84	-85.2	-88.6	2.9	1.56e+00	0	47	104	0	60	1048573
2026-01-18 08:34:00.97	158.35	17.96	-85.2	-88.6	3.0	1.56e+00	0	47	104	0	60	1048575
2026-01-18 08:34:01.98	158.36	18.08	-85.2	-88.6	3.0	1.56e+00	0	47	104	0	60	1048573
2026-01-18 08:34:02.99	158.38	18.21	-85.2	-88.6	2.8	1.56e+00	0	47	104	0	60	1048572
2026-01-18 08:34:04.00	158.39	18.33	-85.2	-88.6	3.0	1.56e+00	0	47	104	0	60	1048573
2026-01-18 08:34:05.01	158.41	18.45	-85.2	-88.6	3.0	1.56e+00	0	47	104	0	60	1048573
2026-01-18 08:34:06.01	158.42	18.58	-84.7	-88.6	3.0	1.56e+00	0	47	104	0	60	1048575
2026-01-18 08:34:07.02	158.43	18.70	-85.2	-88.6	3.2	1.56e+00	0	47	104	0	60	1048574
2026-01-18 08:34:08.03	158.45	18.83	-85.2	-88.6	3.1	1.56e+00	0	47	104	0	60	1048574
2026-01-18 08:34:09.03	158.46	18.95	-85.2	-88.6	3.0	1.56e+00	0	47	104	0	60	1048575
2026-01-18 08:34:10.04	158.48	19.08	-85.2	-88.6	3.1	1.56e+00	0	47	104	0	60	1048575
2026-01-18 08:34:11.05	158.49	19.21	-83.5	-88.6	3.1	1.56e+00	0	47	104	0	60	1048575
2026-01-18 08:34:12.05	158.51	19.34	-84.7	-88.6	3.1	1.56e+00	0	47	104	0	60	1048570
2026-01-18 08:34:13.06	158.53	19.47	-85.2	-88.6	3.2	1.56e+00	0	47	104	0	60	1048575
2026-01-18 08:34:14.06	158.54	19.60	-85.2	-88.6	3.1	1.56e+00	0	47	104	0	60	1048572
2026-01-18 08:34:15.07	158.56	19.73	-85.2	-88.6	3.1	1.55e+00	0	47	104	0	60	1048573
2026-01-18 08:34:16.08	158.57	19.86	-83.5	-88.6	3.1	1.55e+00	0	47	104	0	60	1048575
2026-01-18 08:34:17.08	158.59	19.99	-85.2	-88.6	3.1	1.55e+00	0	47	104	0	60	1048575
2026-01-18 08:34:18.08	158.60	20.12	-85.2	-88.6	3.1	1.56e+00	0	47	104	0	60	1048575
2026-01-18 08:34:19.09	158.62	20.25	-85.2	-88.6	3.0	1.56e+00	0	47	104	0	60	1048575
2026-01-18 08:34:20.10	158.64	20.39	-85.2	-88.6	2.7	1.56e+00	0	47	104	0	60	1048573
2026-01-18 08:34:21.11	158.65	20.52	-85.2	-88.6	3.0	1.55e+00	0	47	104	0	60	1048572
2026-01-18 08:34:22.12	158.67	20.66	-85.2	-88.6	3.0	1.56e+00	0	47	104	0	60	1048575
2026-01-18 08:34:23.13	158.68	20.79	-85.2	-88.6	3.1	1.55e+00	0	47	104	0	60	1048575
2026-01-18 08:34:24.13	158.70	20.93	-85.2	-88.6	3.1	1.56e+00	0	47	104	0	60	1048575
2026-01-18 08:34:25.14	158.72	21.07	-83.9	-88.6	3.0	1.56e+00	0	47	104	0	60	1048568
2026-01-18 08:34:26.15	158.73	21.21	-84.7	-88.6	2.9	1.56e+00	0	47	104	0	60	1048574
2026-01-18 08:34:27.16	158.75	21.34	-85.2	-88.6	2.9	1.55e+00	0	47	104	0	60	1048574
2026-01-18 08:34:28.17	158.77	21.48	-85.2	-88.6	3.1	1.56e+00	0	47	104	0	60	1048574
2026-01-18 08:34:29.17	158.79	21.62	-85.2	-88.6	3.0	1.55e+00	0	47	104	0	60	1048574
2026-01-18 08:34:30.18	158.80	21.77	-85.2	-88.6	3.1	1.56e+00	0	47	104	0	60	1048575
2026-01-18 08:34:31.19	158.82	21.91	-84.7	-88.6	2.9	1.55e+00	0	47	104	0	60	1048573
2026-01-18 08:34:32.20	158.84	22.05	-85.2	-88.6	3.1	1.56e+00	0	47	104	0	60	1048573
2026-01-18 08:34:33.21	158.86	22.20	-85.2	-88.6	3.0	1.55e+00	0	47	104	0	60	1048574
2026-01-18 08:34:34.21	158.87	22.34	-85.2	-88.6	2.9	1.56e+00	0	47	104	0	60	1048574
2026-01-18 08:34:35.22	158.89	22.48	-85.2	-88.6	3.0	1.56e+00	0	47	104	0	60	1048574
2026-01-18 08:34:36.23	158.91	22.63	-83.1	-88.6	3.0	1.56e+00	0	47	104	0	60	1048575
2026-01-18 08:34:37.24	158.93	22.78	-85.2	-88.6	3.0	1.56e+00	0	47	104	0	60	1048575
2026-01-18 08:34:38.24	158.95	22.92	-85.2	-88.6	3.0	1.56e+00	0	47	104	0	60	1048573
2026-01-18 08:34:39.25	158.96	23.07	-85.2	-88.6	3.0	1.55e+00	0	47	104	0	60	1048575
2026-01-18 08:34:40.26	158.98	23.22	-85.2	-88.6	2.9	1.56e+00	0	47	104	0	60	1048575
2026-01-18 08:34:41.27	159.00	23.37	-85.2	-88.6	2.9	1.55e+00	0	47	104	0	60	1048573
2026-01-18 08:34:42.28	159.02	23.53	-85.2	-88.6	3.1	1.55e+00	0	47	104	0	60	1048575
2026-01-18 08:34:43.28	159.04	23.68	-85.2	-88.6	2.9	1.55e+00	0	47	104	0	60	1048575
2026-01-18 08:34:44.29	159.06	23.83	-85.2	-88.6	2.9	1.56e+00	0	47	104	0	60	1048574
2026-01-18 08:34:45.30	159.08	23.98	-85.2	-88.6	3.0	1.55e+00	0	47	104	0	60	1048575
2026-01-18 08:34:46.31	159.10	24.14	-85.2	-88.6	3.1	1.56e+00	0	47	104	0	60	1048574
2026-01-18 08:34:47.31	159.12	24.29	-85.2	-88.6	3.0	1.55e+00	0	47	104	0	60	1048575
2026-01-18 08:34:48.32	159.14	24.45	-85.2	-88.6	2.9	1.56e+00	0	47	104	0	60	1048575
2026-01-18 08:34:49.33	159.16	24.61	-85.2	-88.6	2.8	1.56e+00	0	47	104	0	60	1048573
2026-01-18 08:34:50.34	159.18	24.77	-85.2	-88.6	3.0	1.56e+00	0	47	104	0	60	1048574
2026-01-18 08:34:51.34	159.20	24.93	-85.2	-88.6	3.0	1.55e+00	0	47	104	0	60	1048575
2026-01-18 08:34:52.35	159.22	25.09	-85.2	-88.6	3.1	1.56e+00	0	47	104	0	60	1048575
2026-01-18 08:34:53.36	159.24	25.25	-85.2	-88.6	2.9	1.56e+00	0	47	104	0	60	1048573
2026-01-18 08:34:54.37	159.26	25.41	-85.2	-88.6	2.8	1.56e+00	0	47	104	0	60	1048573
2026-01-18 08:34:55.38	159.28	25.58	-83.5	-88.6	3.1	1.56e+00	0	47	104	0	60	1048575
2026-01-18 08:34:56.39	159.30	25.74	-84.3	-88.6	2.9	1.56e+00	0	47	104	0	60	1048574
2026-01-18 08:34:57.39	159.32	25.91	-85.2	-88.6	3.2	1.56e+00	0	47	104	0	60	1048573
2026-01-18 08:34:58.40	159.34	26.07	-85.2	-88.6	2.8	1.56e+00	0	47	104	0	60	1048575
2026-01-18 08:34:59.41	159.37	26.24	-85.2	-88.6	2.9	1.56e+00	0	47	104	0	60	1048575
2026-01-18 08:35:00.41	159.39	26.41	-84.3	-88.6	3.1	1.55e+00	0	47	104	0	60	1048575
2026-01-18 08:35:01.42	159.41	26.58	-85.2	-88.6	2.9	1.56e+00	0	47	104	0	60	1048574
2026-01-18 08:35:02.43	159.43	26.75	-85.2	-88.6	2.9	1.55e+00	0	47	104	0	60	1048572
2026-01-18 08:35:03.44	159.45	26.92	-85.2	-88.6	2.9	1.56e+00	0	47	104	0	60	1048575
2026-01-18 08:35:04.44	159.48	27.09	-85.2	-88.6	3.0	1.55e+00	0	47	104	0	60	1048575
2026-01-18 08:35:05.45	159.50	27.27	-85.2	-88.6	2.9	1.55e+00	0	47	104	0	60	1048575
2026-01-18 08:35:06.46	159.52	27.44	-85.2	-88.6	3.1	1.56e+00	0	47	104	0	60	1048573
2026-01-18 08:35:07.47	159.55	27.62	-85.2	-88.6	3.0	1.56e+00	0	47	104	0	60	1048575
2026-01-18 08:35:08.48	159.57	27.80	-85.2	-88.6	3.1	1.56e+00	0	47	104	0	60	1048575
2026-01-18 08:35:09.48	159.59	27.98	-85.2	-88.6	3.0	1.56e+00	0	47	104	0	60	1048573
2026-01-18 08:35:10.49	159.62	28.16	-85.2	-88.6	3.0	1.56e+00	0	47	104	0	60	1048573
2026-01-18 08:35:11.49	159.64	28.34	-85.2	-88.6	3.1	1.56e+00	0	47	104	0	60	1048574
2026-01-18 08:35:12.50	159.67	28.52	-85.2	-88.6	3.2	1.56e+00	0	47	104	0	60	1048572
2026-01-18 08:35:13.51	159.69	28.70	-85.2	-88.6	2.9	1.55e+00	0	47	104	0	60	1048575
2026-01-18 08:35:14.52	159.72	28.89	-85.2	-88.6	3.1	1.56e+00	0	47	104	0	60	1048571
2026-01-18 08:35:15.52	159.74	29.07	-85.2	-88.6	2.9	1.56e+00	0	47	104	0	60	1048575
2026-01-18 08:35:16.53	159.77	29.26	-85.2	-88.6	3.2	1.56e+00	0	47	104	0	60	1048575
2026-01-18 08:35:17.53	159.79	29.44	-85.2	-88.6	2.9	1.56e+00	0	47	104	0	60	1048575
2026-01-18 08:35:18.54	159.82	29.63	-85.2	-88.6	2.9	1.56e+00	0	47	104	0	60	1048574
2026-01-18 08:35:19.54	159.84	29.82	-85.2	-88.6	3.1	1.56e+00	0	47	104	0	60	1048572
2026-01-18 08:35:20.55	159.87	30.02	-85.2	-88.6	3.1	1.56e+00	0	47	104	0	60	1048575
2026-01-18 08:35:21.55	159.90	30.21	-85.2	-88.6	3.0	1.56e+00	0	47	104	0	60	1048575
2026-01-18 08:35:22.56	159.92	30.40	-85.2	-88.6	3.1	1.55e+00	0	47	104	0	60	1048574
2026-01-18 08:35:23.56	159.95	30.60	-85.2	-88.6	3.1	1.56e+00	0	47	104	0	60	1048575
2026-01-18 08:35:24.57	159.98	30.80	-85.2	-88.6	3.0	1.55e+00	0	47	104	0	60	1048575
2026-01-18 08:35:25.58	160.01	30.99	-84.7	-88.6	3.1	1.55e+00	0	47	104	0	60	1048575
2026-01-18 08:35:26.59	160.03	31.19	-82.0	-88.6	3.0	1.56e+00	0	47	104	0	60	1048575
2026-01-18 08:35:27.60	160.06	31.40	-85.2	-88.6	3.1	1.56e+00	0	47	104	0	60	1048575
2026-01-18 08:35:28.60	160.09	31.60	-85.2	-88.6	2.8	1.56e+00	0	47	104	0	60	1048574
2026-01-18 08:35:29.61	160.12	31.80	-85.2	-88.6	3.0	1.56e+00	0	47	104	0	60	1048575
2026-01-18 08:35:30.62	160.15	32.01	-85.2	-88.6	3.0	1.55e+00	0	47	104	0	60	1048574
2026-01-18 08:35:31.63	160.18	32.22	-85.2	-88.6	3.0	1.56e+00	0	47	104	0	60	1048575
2026-01-18 08:35:32.64	160.21	32.42	-85.2	-88.6	3.0	1.55e+00	0	47	104	0	60	1048575
2026-01-18 08:35:33.64	160.24	32.63	-85.2	-88.6	3.0	1.56e+00	0	47	104	0	60	1048574
2026-01-18 08:35:34.65	160.27	32.84	-85.2	-88.6	2.9	1.56e+00	0	47	104	0	60	1048575
2026-01-18 08:35:35.66	160.30	33.06	-85.2	-88.6	2.9	1.56e+00	0	47	104	0	60	1048575
2026-01-18 08:35:36.67	160.33	33.27	-85.2	-88.6	3.0	1.55e+00	0	47	104	0	60	1048575
2026-01-18 08:35:37.67	160.37	33.49	-85.2	-88.6	2.9	1.56e+00	0	47	104	0	60	1048575
2026-01-18 08:35:38.68	160.40	33.70	-85.2	-88.6	3.2	1.56e+00	0	47	104	0	60	1048574
2026-01-18 08:35:39.69	160.43	33.92	-85.2	-88.6	3.1	1.55e+00	0	47	104	0	60	1048575
2026-01-18 08:35:40.70	160.46	34.14	-85.2	-88.6	3.1	1.55e+00	0	47	104	0	60	1048574
2026-01-18 08:35:41.70	160.50	34.36	-85.2	-88.6	3.1	1.55e+00	0	47	104	0	60	1048575
2026-01-18 08:35:42.71	160.53	34.59	-85.2	-88.6	3.0	1.55e+00	0	47	104	0	60	1048573
2026-01-18 08:35:43.71	160.57	34.81	-85.2	-88.6	2.9	1.55e+00	0	47	104	0	60	1048575
2026-01-18 08:35:44.72	160.60	35.04	-85.2	-88.6	2.8	1.56e+00	0	47	104	0	60	1048575
2026-01-18 08:35:45.73	160.64	35.27	-85.2	-88.6	3.1	1.56e+00	0	47	104	0	60	1048575
2026-01-18 08:35:46.74	160.67	35.50	-85.2	-88.6	3.1	1.55e+00	0	47	104	0	60	1048574
2026-01-18 08:35:47.75	160.71	35.73	-85.2	-88.6	3.0	1.55e+00	0	47	104	0	60	1048574
2026-01-18 08:35:48.75	160.74	35.96	-85.2	-88.6	3.2	1.56e+00	0	47	104	0	60	1048575
2026-01-18 08:35:49.76	160.78	36.20	-85.2	-88.6	3.0	1.55e+00	0	47	104	0	60	1048575
2026-01-18 08:35:50.77	160.82	36.44	-85.2	-88.6	2.9	1.55e+00	0	47	104	0	60	1048575
2026-01-18 08:35:51.78	160.86	36.67	-85.2	-88.6	3.1	1.55e+00	0	47	104	0	60	1048574
2026-01-18 08:35:52.79	160.89	36.92	-85.2	-88.6	2.9	1.55e+00	0	47	104	0	60	1048573
2026-01-18 08:35:53.79	160.93	37.16	-85.2	-88.6	2.8	1.56e+00	0	47	104	0	60	1048575
2026-01-18 08:35:54.80	160.97	37.40	-85.2	-88.6	3.1	1.56e+00	0	47	104	0	60	1048574
2026-01-18 08:35:55.81	161.01	37.65	-84.7	-88.6	3.0	1.56e+00	0	47	104	0	60	1048575
2026-01-18 08:35:56.81	161.05	37.89	-85.2	-88.6	2.7	1.55e+00	0	47	104	0	60	1048574
2026-01-18 08:35:57.82	161.09	38.14	-85.2	-88.6	3.0	1.55e+00	0	47	104	0	60	1048574
2026-01-18 08:35:58.83	161.14	38.39	-85.2	-88.6	2.9	1.55e+00	0	47	104	0	60	1048575
2026-01-18 08:35:59.83	161.18	38.64	-85.2	-88.6	2.9	1.55e+00	0	47	104	0	60	1048575
2026-01-18 08:36:00.84	161.22	38.90	-85.2	-88.6	3.0	1.56e+00	0	47	104	0	60	1048572
2026-01-18 08:36:01.84	161.26	39.15	-85.2	-88.6	2.9	1.55e+00	0	47	104	0	60	1048574
2026-01-18 08:36:02.85	161.31	39.41	-85.2	-88.6	3.0	1.56e+00	0	47	104	0	60	1048575
2026-01-18 08:36:03.86	161.35	39.67	-85.2	-88.6	2.9	1.56e+00	0	47	104	0	60	1048575
2026-01-18 08:36:04.87	161.40	39.94	-85.2	-88.6	3.0	1.55e+00	0	47	104	0	60	1048575
2026-01-18 08:36:05.87	161.44	40.20	-85.2	-88.6	2.8	1.56e+00	0	47	104	0	60	1048573
2026-01-18 08:36:06.88	161.49	40.47	-85.2	-88.6	2.8	1.56e+00	0	47	104	0	60	1048575
2026-01-18 08:36:07.89	161.54	40.73	-85.2	-88.6	2.9	1.56e+00	0	47	104	0	60	1048572
2026-01-18 08:36:08.89	161.59	41.00	-85.2	-88.6	3.0	1.55e+00	0	47	104	0	60	1048573
2026-01-18 08:36:09.90	161.64	41.28	-85.2	-88.6	2.9	1.56e+00	0	47	104	0	60	1048574
2026-01-18 08:36:10.91	161.69	41.55	-85.2	-88.6	3.0	1.56e+00	0	47	104	0	60	1048574
2026-01-18 08:36:11.92	161.74	41.83	-85.2	-88.6	3.1	1.56e+00	0	47	104	0	60	1048575
2026-01-18 08:36:12.93	161.79	42.11	-85.2	-88.6	3.1	1.56e+00	0	47	104	0	60	1048574
2026-01-18 08:36:13.93	161.84	42.39	-85.2	-88.6	2.8	1.56e+00	0	47	104	0	60	1048568
2026-01-18 08:36:14.94	161.89	42.67	-85.2	-88.6	2.9	1.56e+00	0	47	104	0	60	1048574
2026-01-18 08:36:15.95	161.95	42.95	-85.2	-88.6	3.0	1.56e+00	0	47	104	0	60	1048575
2026-01-18 08:36:16.96	162.00	43.24	-85.2	-88.6	3.0	1.56e+00	0	47	104	0	60	1048571
2026-01-18 08:36:17.97	162.06	43.53	-85.2	-88.6	3.2	1.56e+00	0	47	104	0	60	1048574
2026-01-18 08:36:18.97	162.11	43.82	-85.2	-88.6	2.8	1.56e+00	0	47	104	0	60	1048572
2026-01-18 08:36:19.98	162.17	44.12	-85.2	-88.6	2.9	1.56e+00	0	47	104	0	60	1048572
2026-01-18 08:36:20.99	162.23	44.41	-85.2	-88.6	3.0	1.55e+00	0	47	104	0	60	1048570
2026-01-18 08:36:22.00	162.29	44.71	-85.2	-88.6	3.2	1.55e+00	0	47	104	0	60	1048575
2026-01-18 08:36:23.00	162.35	45.01	-85.2	-88.6	3.2	1.55e+00	0	47	104	0	60	1048574
2026-01-18 08:36:24.01	162.41	45.31	-85.2	-88.6	3.0	1.56e+00	0	47	104	0	60	1048574
2026-01-18 08:36:25.02	162.48	45.62	-85.2	-88.6	3.0	1.56e+00	0	47	104	0	60	1048569
2026-01-18 08:36:26.03	162.54	45.92	-85.2	-88.6	2.9	1.56e+00	0	47	104	0	60	1048575
2026-01-18 08:36:27.04	162.61	46.23	-85.2	-88.6	3.0	1.56e+00	0	47	104	0	60	1048572
2026-01-18 08:36:28.05	162.67	46.55	-85.2	-88.6	2.8	1.56e+00	0	47	104	0	60	1048573
2026-01-18 08:36:29.05	162.74	46.86	-85.2	-88.6	2.9	1.56e+00	0	47	104	0	60	1048574
2026-01-18 08:36:30.06	162.81	47.17	-85.2	-88.6	3.0	1.56e+00	0	47	104	0	60	1048574
2026-01-18 08:36:31.07	162.88	47.49	-85.2	-88.6	2.7	1.56e+00	0	47	104	0	60	1048574
2026-01-18 08:36:32.08	162.95	47.81	-85.2	-88.6	2.9	1.56e+00	0	47	104	0	60	1048575
2026-01-18 08:36:33.08	163.02	48.14	-85.2	-88.6	3.0	1.56e+00	0	47	104	0	60	1048575
2026-01-18 08:36:34.09	163.10	48.46	-85.2	-88.6	2.9	1.56e+00	0	47	104	0	60	1048569
2026-01-18 08:36:35.10	163.18	48.79	-85.2	-88.6	3.0	1.56e+00	0	47	104	0	60	1048575
2026-01-18 08:36:36.11	163.25	49.12	-85.2	-88.6	3.0	1.56e+00	0	47	104	0	60	1048573
2026-01-18 08:36:37.11	163.33	49.45	-84.7	-88.6	2.8	1.56e+00	0	47	104	0	60	1048575
2026-01-18 08:36:38.12	163.41	49.79	-85.2	-88.6	2.9	1.56e+00	0	47	104	0	60	1048573
2026-01-18 08:36:39.13	163.50	50.13	-85.2	-88.6	2.9	1.55e+00	0	47	104	0	60	1048574
2026-01-18 08:36:40.13	163.58	50.46	-85.2	-88.6	3.0	1.55e+00	0	47	104	0	60	1048572
2026-01-18 08:36:41.14	163.67	50.81	-85.2	-88.6	2.7	1.55e+00	0	47	104	0	60	1048567
2026-01-18 08:36:42.14	163.75	51.15	-85.2	-88.6	2.9	1.55e+00	0	47	104	0	60	1048573
2026-01-18 08:36:43.15	163.84	51.50	-85.2	-88.6	2.9	1.56e+00	0	47	104	0	60	1048575
2026-01-18 08:36:44.16	163.94	51.85	-85.2	-88.6	3.1	1.56e+00	0	47	104	0	60	1048572
2026-01-18 08:36:45.16	164.03	52.20	-85.2	-88.6	2.9	1.55e+00	0	47	104	0	60	1048573
2026-01-18 08:36:46.17	164.13	52.55	-85.2	-88.6	2.9	1.55e+00	0	47	104	0	60	1048574
2026-01-18 08:36:47.17	164.23	52.91	-85.2	-88.6	2.9	1.56e+00	0	47	104	0	60	1048573
2026-01-18 08:36:48.18	164.33	53.27	-85.2	-88.6	3.3	1.56e+00	0	47	104	0	60	1048574
2026-01-18 08:36:49.19	164.43	53.63	-85.2	-88.6	3.0	1.55e+00	0	47	104	0	60	1048575
2026-01-18 08:36:50.20	164.54	54.00	-85.2	-88.6	3.0	1.56e+00	0	47	104	0	60	1048574
2026-01-18 08:36:51.21	164.65	54.37	-85.2	-88.6	3.3	1.56e+00	0	47	104	0	60	1048575
2026-01-18 08:36:52.22	164.76	54.74	-85.2	-88.6	3.1	1.56e+00	0	47	104	0	60	1048575
2026-01-18 08:36:53.22	164.87	55.11	-85.2	-88.6	2.8	1.55e+00	0	47	104	0	60	1048575
2026-01-18 08:36:54.23	164.99	55.48	-85.2	-88.6	3.0	1.56e+00	0	47	104	0	60	1048575
2026-01-18 08:36:55.24	165.11	55.86	-85.2	-88.6	2.9	1.56e+00	0	47	104	0	60	1048575
2026-01-18 08:36:56.25	165.23	56.24	-85.2	-88.6	3.1	1.56e+00	0	47	104	0	60	1048575
2026-01-18 08:36:57.25	165.36	56.62	-85.2	-88.6	3.1	1.56e+00	0	47	104	0	60	1048575
2026-01-18 08:36:58.26	165.49	57.01	-85.2	-88.6	2.9	1.56e+00	0	47	104	0	60	1048575
2026-01-18 08:36:59.27	165.62	57.40	-85.2	-88.6	3.0	1.56e+00	0	47	104	0	60	1048575
2026-01-18 08:37:00.28	165.76	57.79	-85.2	-88.6	3.0	1.56e+00	0	47	104	0	60	1048574
2026-01-18 08:37:01.28	165.90	58.18	-85.2	-88.6	2.9	1.56e+00	0	47	104	0	60	1048572
2026-01-18 08:37:02.29	166.05	58.57	-85.2	-88.6	3.1	1.56e+00	0	47	104	0	60	1048573
2026-01-18 08:37:03.30	166.20	58.97	-85.2	-88.6	2.9	1.56e+00	0	47	104	0	60	1048575
2026-01-18 08:37:04.30	166.35	59.37	-85.2	-88.6	2.9	1.56e+00	0	47	104	0	60	1048574
2026-01-18 08:37:05.31	166.51	59.77	-85.2	-88.6	3.1	1.56e+00	0	47	104	0	60	1048572
2026-01-18 08:37:06.32	166.68	60.18	-85.2	-88.6	2.8	1.56e+00	0	47	104	0	60	1048573
2026-01-18 08:37:07.32	166.85	60.58	-85.2	-88.6	3.0	1.56e+00	0	47	104	0	60	1048574
2026-01-18 08:37:08.33	167.02	60.99	-85.2	-88.6	3.2	1.55e+00	0	47	104	0	60	1048575
2026-01-18 08:37:09.34	167.20	61.40	-85.2	-88.6	2.8	1.56e+00	0	47	104	0	60	1048574
2026-01-18 08:37:10.35	167.39	61.82	-85.2	-88.6	3.0	1.56e+00	0	47	104	0	60	1048575
2026-01-18 08:37:11.35	167.58	62.23	-85.2	-88.6	3.0	1.56e+00	0	47	104	0	60	1048574
2026-01-18 08:37:12.36	167.78	62.65	-85.2	-88.6	3.0	1.56e+00	0	47	104	0	60	1048575
2026-01-18 08:37:13.37	167.99	63.07	-85.2	-88.6	3.0	1.55e+00	0	47	104	0	60	1048575
2026-01-18 08:37:14.38	168.20	63.50	-85.2	-88.6	3.2	1.56e+00	0	47	104	0	60	1048575
2026-01-18 08:37:15.38	168.42	63.92	-85.2	-88.6	3.0	1.56e+00	0	47	104	0	60	1048575
2026-01-18 08:37:16.39	168.65	64.35	-85.2	-88.6	3.0	1.56e+00	0	47	104	0	60	1048573
2026-01-18 08:37:17.40	168.89	64.78	-85.2	-88.6	3.0	1.56e+00	0	47	104	0	60	1048574
2026-01-18 08:37:18.41	169.14	65.21	-85.2	-88.6	3.0	1.56e+00	0	47	104	0	60	1048574
2026-01-18 08:37:19.41	169.39	65.64	-85.2	-88.6	3.0	1.56e+00	0	47	104	0	60	1048575
2026-01-18 08:37:20.42	169.66	66.08	-85.2	-88.6	2.9	1.56e+00	0	47	104	0	60	1048573
2026-01-18 08:37:21.42	169.93	66.51	-85.2	-88.6	3.1	1.56e+00	0	47	104	0	60	1048574
2026-01-18 08:37:22.43	170.22	66.95	-85.2	-88.6	2.9	1.56e+00	0	47	104	0	60	1048575
2026-01-18 08:37:23.44	170.52	67.40	-85.2	-88.6	2.9	1.56e+00	0	47	104	0	60	1048573
2026-01-18 08:37:24.45	170.84	67.84	-85.2	-88.6	3.1	1.56e+00	0	47	104	0	60	1048574
2026-01-18 08:37:25.45	171.16	68.28	-85.2	-88.6	3.2	1.56e+00	0	47	104	0	60	1048571
2026-01-18 08:37:26.46	171.51	68.73	-85.2	-88.6	3.0	1.56e+00	0	47	104	0	60	1048575
2026-01-18 08:37:27.47	171.86	69.18	-85.2	-88.6	2.9	1.56e+00	0	47	104	0	60	1048575
2026-01-18 08:37:28.47	172.24	69.62	-85.2	-88.6	3.0	1.56e+00	0	47	104	0	60	1048572
2026-01-18 08:37:29.47	172.63	70.07	-85.2	-88.6	3.0	1.56e+00	0	47	104	0	60	1048575
2026-01-18 08:37:30.48	173.04	70.52	-85.2	-88.6	3.0	1.56e+00	0	47	104	0	60	1048575
2026-01-18 08:37:31.48	173.47	70.97	-85.2	-88.6	3.0	1.55e+00	0	47	104	0	60	1048575
2026-01-18 08:37:32.49	173.92	71.42	-85.2	-88.6	3.1	1.56e+00	0	47	104	0	60	1048574
2026-01-18 08:37:33.50	174.40	71.88	-85.2	-88.6	3.0	1.56e+00	0	47	104	0	60	1048574
2026-01-18 08:37:34.50	174.90	72.33	-85.2	-88.6	2.9	1.56e+00	0	47	104	0	60	1048574
2026-01-18 08:37:35.51	175.44	72.79	-85.2	-88.6	2.9	1.56e+00	0	47	104	0	60	1048574
2026-01-18 08:37:36.52	176.00	73.24	-84.7	-88.6	3.2	1.56e+00	0	47	104	0	60	1048575
2026-01-18 08:37:37.52	176.59	73.70	-84.7	-88.6	2.8	1.56e+00	0	47	104	0	60	1048575
2026-01-18 08:37:38.53	177.22	74.15	-85.2	-88.6	3.0	1.56e+00	0	47	104	0	60	1048574
2026-01-18 08:37:39.54	177.89	74.61	-85.2	-88.6	2.8	1.56e+00	0	47	104	0	60	1048574
2026-01-18 08:37:40.54	178.60	75.06	-85.2	-88.6	2.9	1.55e+00	0	47	104	0	60	1048571
2026-01-18 08:37:41.55	179.36	75.52	-85.2	-88.6	3.2	1.56e+00	0	47	104	0	60	1048572
2026-01-18 08:37:42.56	180.17	75.97	-83.5	-88.6	3.1	1.56e+00	0	47	104	0	60	1048575
2026-01-18 08:37:43.57	181.04	76.42	-85.2	-88.6	3.1	1.55e+00	0	47	104	0	60	1048575
2026-01-18 08:37:44.57	181.95	76.87	-85.2	-88.6	3.1	1.56e+00	0	47	104	0	60	1048573
2026-01-18 08:37:45.58	182.95	77.32	-85.2	-88.6	3.1	1.56e+00	0	47	104	0	60	1048574
2026-01-18 08:37:46.59	184.02	77.76	-85.2	-88.6	2.9	1.56e+00	0	47	104	0	60	1048569
2026-01-18 08:37:47.60	185.17	78.21	-85.2	-88.6	3.0	1.56e+00	0	47	104	0	60	1048574
2026-01-18 08:37:48.60	186.40	78.64	-85.2	-88.6	3.0	1.55e+00	0	47	104	0	60	1048574
2026-01-18 08:37:49.61	187.74	79.08	-85.2	-88.6	3.0	1.56e+00	0	47	104	0	60	1048575
2026-01-18 08:37:50.61	189.18	79.50	-85.2	-88.6	3.0	1.55e+00	0	47	104	0	60	1048574
2026-01-18 08:37:51.62	190.76	79.93	-85.2	-88.6	3.1	1.56e+00	0	47	104	0	60	1048575
2026-01-18 08:37:52.63	192.48	80.34	-85.2	-88.6	3.0	1.56e+00	0	47	104	0	60	1048574
2026-01-18 08:37:53.64	194.35	80.75	-85.2	-88.6	3.0	1.56e+00	0	47	104	0	60	1048575
2026-01-18 08:37:54.64	196.38	81.14	-85.2	-88.6	3.0	1.55e+00	0	47	104	0	60	1048575
2026-01-18 08:37:55.65	198.62	81.53	-85.2	-88.6	3.1	1.56e+00	0	47	104	0	60	1048574
2026-01-18 08:37:56.66	201.06	81.90	-85.2	-88.6	2.9	1.55e+00	0	47	104	0	60	1048574
2026-01-18 08:37:57.67	203.75	82.26	-85.2	-88.6	2.9	1.56e+00	0	47	104	0	60	1048573
2026-01-18 08:37:58.68	206.68	82.60	-85.2	-88.6	3.0	1.56e+00	0	47	104	0	60	1048575
2026-01-18 08:37:59.69	209.90	82.92	-85.2	-88.6	3.1	1.56e+00	0	47	104	0	60	1048575
2026-01-18 08:38:00.69	213.37	83.21	-85.2	-88.6	3.1	1.56e+00	0	47	104	0	60	1048573
2026-01-18 08:38:01.70	217.18	83.48	-85.2	-88.6	3.0	1.56e+00	0	47	104	0	60	1048575
2026-01-18 08:38:02.71	221.30	83.72	-85.2	-88.6	3.1	1.56e+00	0	47	104	0	60	1048575
2026-01-18 08:38:03.72	225.72	83.92	-85.2	-88.6	3.0	1.56e+00	0	47	104	0	60	1048575
2026-01-18 08:38:04.72	230.37	84.09	-85.2	-88.6	3.0	1.56e+00	0	47	104	0	60	1048574
2026-01-18 08:38:05.73	235.30	84.21	-85.2	-88.6	3.1	1.56e+00	0	47	104	0	60	1048575
2026-01-18 08:38:06.74	240.41	84.29	-85.2	-88.6	2.9	1.56e+00	0	47	104	0	60	1048571
2026-01-18 08:38:07.75	245.62	84.32	-85.2	-88.6	3.2	1.56e+00	0	47	104	0	60	1048575
2026-01-18 08:38:08.76	250.85	84.31	-85.2	-88.6	3.0	1.56e+00	0	47	104	0	60	1048575
2026-01-18 08:38:09.77	256.02	84.25	-85.2	-88.6	3.1	1.56e+00	0	47	104	0	60	1048575
2026-01-18 08:38:10.77	260.99	84.15	-85.2	-88.6	3.0	1.56e+00	0	47	104	0	60	1048575
2026-01-18 08:38:11.78	265.79	84.00	-85.2	-88.6	3.1	1.55e+00	0	47	104	0	60	1048575
2026-01-18 08:38:12.79	270.34	83.81	-85.2	-88.6	3.1	1.56e+00	0	47	104	0	60	1048574
2026-01-18 08:38:13.80	274.59	83.59	-85.2	-88.6	2.7	1.56e+00	0	47	104	0	60	1048574
2026-01-18 08:38:14.81	278.54	83.33	-85.2	-88.6	2.9	1.56e+00	0	47	104	0	60	1048574
2026-01-18 08:38:15.81	282.14	83.05	-85.2	-88.6	3.1	1.56e+00	0	47	104	0	60	1048574
2026-01-18 08:38:16.82	285.48	82.74	-84.3	-88.6	2.9	1.56e+00	0	47	104	0	60	1048575
2026-01-18 08:38:17.83	288.53	82.41	-85.2	-88.6	3.0	1.56e+00	0	47	104	0	60	1048569
2026-01-18 08:38:18.84	291.32	82.06	-85.2	-88.6	3.0	1.56e+00	0	47	104	0	60	1048575
2026-01-18 08:38:19.84	293.85	81.70	-85.2	-88.6	2.9	1.55e+00	0	47	104	0	60	1048575
2026-01-18 08:38:20.85	296.17	81.32	-85.2	-88.6	2.8	1.56e+00	0	47	104	0	60	1048574
2026-01-18 08:38:21.86	298.30	80.93	-85.2	-88.6	3.1	1.56e+00	0	47	104	0	60	1048570
2026-01-18 08:38:22.86	300.23	80.53	-85.2	-88.6	2.9	1.56e+00	0	47	104	0	60	1048575
2026-01-18 08:38:23.87	302.02	80.12	-85.2	-88.6	3.0	1.55e+00	0	47	104	0	60	1048575
2026-01-18 08:38:24.87	303.64	79.70	-85.2	-88.6	2.9	1.55e+00	0	47	104	0	60	1048575
2026-01-18 08:38:25.88	305.15	79.27	-85.2	-88.6	3.3	1.55e+00	0	47	104	0	60	1048574
2026-01-18 08:38:26.88	306.53	78.85	-85.2	-88.6	3.0	1.55e+00	0	47	104	0	60	1048575
2026-01-18 08:38:27.88	307.80	78.41	-85.2	-88.6	2.8	1.56e+00	0	47	104	0	60	1048573
2026-01-18 08:38:28.89	308.99	77.97	-85.2	-88.6	2.9	1.55e+00	0	47	104	0	60	1048575
2026-01-18 08:38:29.89	310.09	77.53	-85.2	-88.6	2.9	1.56e+00	0	47	104	0	60	1048573
2026-01-18 08:38:30.90	311.12	77.09	-85.2	-88.6	2.8	1.55e+00	0	47	104	0	60	1048574
2026-01-18 08:38:31.91	312.07	76.64	-84.3	-88.6	2.9	1.55e+00	0	47	104	0	60	1048574
2026-01-18 08:38:32.92	312.97	76.18	-85.2	-88.6	3.1	1.56e+00	0	47	104	0	60	1048575
2026-01-18 08:38:33.92	313.79	75.74	-85.2	-88.6	3.0	1.55e+00	0	47	104	0	60	1048575
2026-01-18 08:38:34.93	314.58	75.28	-85.2	-88.6	3.0	1.56e+00	0	47	104	0	60	1048569
2026-01-18 08:38:35.94	315.31	74.83	-85.2	-88.6	3.1	1.56e+00	0	47	104	0	60	1048574
2026-01-18 08:38:36.94	315.99	74.37	-85.2	-88.6	3.0	1.56e+00	0	47	104	0	60	1048575
2026-01-18 08:38:37.94	316.64	73.92	-85.2	-88.6	3.2	1.56e+00	0	47	104	0	60	1048573
2026-01-18 08:38:38.95	317.25	73.47	-85.2	-88.6	3.2	1.55e+00	0	47	104	0	60	1048575
2026-01-18 08:38:39.96	317.83	73.01	-85.2	-88.6	2.9	1.56e+00	0	47	104	0	60	1048575
2026-01-18 08:38:40.96	318.37	72.56	-85.2	-88.6	2.9	1.56e+00	0	47	104	0	60	1048575
2026-01-18 08:38:41.96	318.88	72.11	-85.2	-88.6	2.9	1.56e+00	0	47	104	0	60	1048575
2026-01-18 08:38:42.97	319.38	71.65	-85.2	-88.6	2.9	1.56e+00	0	47	104	0	60	1048575
2026-01-18 08:38:43.98	319.84	71.20	-85.2	-88.6	2.9	1.55e+00	0	47	104	0	60	1048574
2026-01-18 08:38:44.99	320.29	70.75	-85.2	-88.6	2.9	1.56e+00	0	47	104	0	60	1048575
2026-01-18 08:38:45.99	320.70	70.30	-85.2	-88.6	3.1	1.55e+00	0	47	104	0	60	1048574
2026-01-18 08:38:47.00	321.11	69.85	-84.3	-88.6	3.0	1.55e+00	0	47	104	0	60	1048573
2026-01-18 08:38:48.01	321.49	69.40	-85.2	-88.6	3.0	1.56e+00	0	47	104	0	60	1048575
2026-01-18 08:38:49.02	321.86	68.95	-85.2	-88.6	3.1	1.56e+00	0	47	104	0	60	1048574
2026-01-18 08:38:50.03	322.21	68.50	-85.2	-88.6	2.8	1.55e+00	0	47	104	0	60	1048571
2026-01-18 08:38:51.03	322.54	68.06	-85.2	-88.6	2.7	1.56e+00	0	47	104	0	60	1048575
2026-01-18 08:38:52.04	322.86	67.62	-84.7	-88.6	2.8	1.56e+00	0	47	104	0	60	1048575
2026-01-18 08:38:53.05	323.17	67.18	-85.2	-88.6	3.1	1.56e+00	0	47	104	0	60	1048574
2026-01-18 08:38:54.06	323.46	66.74	-85.2	-88.6	3.1	1.56e+00	0	47	104	0	60	1048573
2026-01-18 08:38:55.06	323.74	66.30	-85.2	-88.6	3.1	1.56e+00	0	47	104	0	60	1048575
2026-01-18 08:38:56.06	324.01	65.87	-84.3	-88.6	3.1	1.55e+00	0	47	104	0	60	1048573
2026-01-18 08:38:57.07	324.27	65.44	-85.2	-88.6	3.2	1.56e+00	0	47	104	0	60	1048575
2026-01-18 08:38:58.07	324.52	65.01	-85.2	-88.6	3.1	1.56e+00	0	47	104	0	60	1048573
2026-01-18 08:38:59.08	324.77	64.58	-85.2	-88.6	3.1	1.56e+00	0	47	104	0	60	1048575
2026-01-18 08:39:00.08	325.00	64.15	-85.2	-88.6	2.8	1.56e+00	0	47	104	0	60	1048575
2026-01-18 08:39:01.09	325.22	63.73	-83.5	-88.6	3.1	1.56e+00	0	47	104	0	60	1048575
2026-01-18 08:39:02.09	325.44	63.31	-85.2	-88.6	3.0	1.55e+00	0	47	104	0	60	1048575
2026-01-18 08:39:03.10	325.65	62.88	-85.2	-88.6	3.0	1.56e+00	0	47	104	0	60	1048575
2026-01-18 08:39:04.11	325.85	62.46	-85.2	-88.6	2.9	1.56e+00	0	47	104	0	60	1048573
2026-01-18 08:39:05.12	326.05	62.05	-85.2	-88.6	2.9	1.56e+00	0	47	104	0	60	1048575
2026-01-18 08:39:06.13	326.24	61.63	-85.2	-88.6	2.8	1.56e+00	0	47	104	0	60	1048575
2026-01-18 08:39:07.13	326.42	61.22	-85.2	-88.6	2.9	1.55e+00	0	47	104	0	60	1048572
2026-01-18 08:39:08.14	326.60	60.81	-85.2	-88.6	3.0	1.56e+00	0	47	104	0	60	1048573
2026-01-18 08:39:09.15	326.77	60.40	-85.2	-88.6	3.0	1.56e+00	0	47	104	0	60	1048575
2026-01-18 08:39:10.16	326.94	60.00	-85.2	-88.6	3.1	1.55e+00	0	47	104	0	60	1048573
2026-01-18 08:39:11.16	327.10	59.60	-85.2	-88.6	3.3	1.56e+00	0	47	104	0	60	1048575
2026-01-18 08:39:12.17	327.25	59.20	-83.9	-88.6	3.1	1.55e+00	0	47	104	0	60	1048575
2026-01-18 08:39:13.18	327.41	58.80	-85.2	-88.6	3.2	1.56e+00	0	47	104	0	60	1048575
2026-01-18 08:39:14.19	327.56	58.40	-85.2	-88.6	3.0	1.55e+00	0	47	104	0	60	1048572
2026-01-18 08:39:15.19	327.70	58.01	-85.2	-88.6	3.0	1.56e+00	0	47	104	0	60	1048575
2026-01-18 08:39:16.20	327.84	57.62	-85.2	-88.6	3.1	1.56e+00	0	47	104	0	60	1048575
2026-01-18 08:39:17.20	327.97	57.24	-85.2	-88.6	3.0	1.55e+00	0	47	104	0	60	1048574
2026-01-18 08:39:18.21	328.11	56.85	-85.2	-88.6	2.8	1.56e+00	0	47	104	0	60	1048575
2026-01-18 08:39:19.21	328.23	56.47	-85.2	-88.6	3.1	1.55e+00	0	47	104	0	60	1048574
2026-01-18 08:39:20.22	328.36	56.09	-85.2	-88.6	3.1	1.55e+00	0	47	104	0	60	1048573
2026-01-18 08:39:21.23	328.48	55.71	-84.3	-88.6	3.0	1.56e+00	0	47	104	0	60	1048575
2026-01-18 08:39:22.23	328.60	55.34	-85.2	-88.6	3.0	1.56e+00	0	47	104	0	60	1048575
2026-01-18 08:39:23.24	328.72	54.97	-85.2	-88.6	3.0	1.56e+00	0	47	104	0	60	1048575
2026-01-18 08:39:24.25	328.83	54.60	-85.2	-88.6	3.1	1.56e+00	0	47	104	0	60	1048573
2026-01-18 08:39:25.25	328.94	54.23	-85.2	-88.6	2.7	1.56e+00	0	47	104	0	60	1048573
2026-01-18 08:39:26.26	329.05	53.86	-85.2	-88.6	3.0	1.56e+00	0	47	104	0	60	1048575
2026-01-18 08:39:27.27	329.15	53.50	-85.2	-88.6	3.1	1.56e+00	0	47	104	0	60	1048574
2026-01-18 08:39:28.27	329.25	53.14	-85.2	-88.6	3.0	1.55e+00	0	47	104	0	60	1048575
2026-01-18 08:39:29.27	329.35	52.79	-85.2	-88.6	3.1	1.56e+00	0	47	104	0	60	1048575
2026-01-18 08:39:30.28	329.45	52.43	-85.2	-88.6	3.0	1.55e+00	0	47	104	0	60	1048572
2026-01-18 08:39:31.29	329.55	52.08	-85.2	-88.6	3.0	1.55e+00	0	47	104	0	60	1048575
2026-01-18 08:39:32.29	329.64	51.73	-84.7	-88.6	2.8	1.56e+00	0	47	104	0	60	1048575
2026-01-18 08:39:33.30	329.73	51.38	-85.2	-88.6	3.0	1.56e+00	0	47	104	0	60	1048575
2026-01-18 08:39:34.31	329.82	51.04	-85.2	-88.6	3.0	1.55e+00	0	47	104	0	60	1048571
2026-01-18 08:39:35.32	329.91	50.69	-85.2	-88.6	3.0	1.55e+00	0	47	104	0	60	1048574
2026-01-18 08:39:36.33	329.99	50.35	-85.2	-88.6	3.0	1.56e+00	0	47	104	0	60	1048574
2026-01-18 08:39:37.33	330.08	50.02	-85.2	-88.6	3.0	1.55e+00	0	47	104	0	60	1048575
2026-01-18 08:39:38.34	330.16	49.68	-85.2	-88.6	2.9	1.56e+00	0	47	104	0	60	1048575
2026-01-18 08:39:39.35	330.24	49.35	-85.2	-88.6	3.0	1.56e+00	0	47	104	0	60	1048574
2026-01-18 08:39:40.36	330.32	49.02	-85.2	-88.6	3.1	1.55e+00	0	47	104	0	60	1048575
2026-01-18 08:39:41.36	330.40	48.69	-85.2	-88.6	3.1	1.56e+00	0	47	104	0	60	1048575
2026-01-18 08:39:42.37	330.47	48.36	-85.2	-88.6	2.9	1.56e+00	0	47	104	0	60	1048575
2026-01-18 08:39:43.38	330.55	48.04	-85.2	-88.6	2.9	1.56e+00	0	47	104	0	60	1048575
2026-01-18 08:39:44.38	330.62	47.72	-85.2	-88.6	3.0	1.56e+00	0	47	104	0	60	1048574
2026-01-18 08:39:45.38	330.69	47.40	-85.2	-88.6	2.9	1.56e+00	0	47	104	0	60	1048572
2026-01-18 08:39:46.39	330.76	47.09	-85.2	-88.6	2.9	1.55e+00	0	47	104	0	60	1048568
2026-01-18 08:39:47.40	330.83	46.77	-85.2	-88.6	3.2	1.55e+00	0	47	104	0	60	1048573
2026-01-18 08:39:48.40	330.89	46.46	-85.2	-88.6	3.0	1.56e+00	0	47	104	0	60	1048574
2026-01-18 08:39:49.41	330.96	46.15	-85.2	-88.6	2.9	1.56e+00	0	47	104	0	60	1048574
2026-01-18 08:39:50.42	331.03	45.84	-85.2	-88.6	3.1	1.55e+00	0	47	104	0	60	1048575
2026-01-18 08:39:51.43	331.09	45.54	-85.2	-88.6	2.9	1.56e+00	0	47	104	0	60	1048575
2026-01-18 08:39:52.43	331.15	45.24	-85.2	-88.6	3.1	1.56e+00	0	47	104	0	60	1048575
2026-01-18 08:39:53.44	331.21	44.94	-85.2	-88.6	3.0	1.55e+00	0	47	104	0	60	1048574
2026-01-18 08:39:54.45	331.27	44.64	-85.2	-88.6	2.9	1.56e+00	0	47	104	0	60	1048575
2026-01-18 08:39:55.46	331.33	44.34	-85.2	-88.6	3.0	1.56e+00	0	47	104	0	60	1048575
2026-01-18 08:39:56.47	331.39	44.05	-85.2	-88.6	2.8	1.56e+00	0	47	104	0	60	1048574
2026-01-18 08:39:57.48	331.45	43.76	-85.2	-88.6	3.1	1.56e+00	0	47	104	0	60	1048574
2026-01-18 08:39:58.48	331.51	43.47	-85.2	-88.6	2.9	1.56e+00	0	47	104	0	60	1048575
2026-01-18 08:39:59.49	331.56	43.18	-85.2	-88.6	3.2	1.56e+00	0	47	104	0	60	1048574
2026-01-18 08:40:00.50	331.62	42.89	-85.2	-88.6	3.1	1.56e+00	0	47	104	0	60	1048575
2026-01-18 08:40:01.50	331.67	42.61	-85.2	-88.6	3.2	1.56e+00	0	47	104	0	60	1048574
2026-01-18 08:40:02.50	331.72	42.34	-85.2	-88.6	3.0	1.55e+00	0	47	104	0	60	1048565
2026-01-18 08:40:03.51	331.77	42.06	-85.2	-88.6	2.9	1.56e+00	0	47	104	0	60	1048575
2026-01-18 08:40:04.52	331.82	41.78	-85.2	-88.6	3.1	1.56e+00	0	47	104	0	60	1048574
2026-01-18 08:40:05.53	331.88	41.50	-85.2	-88.6	3.0	1.56e+00	0	47	104	0	60	1048575
2026-01-18 08:40:06.53	331.92	41.23	-85.2	-88.6	3.1	1.56e+00	0	47	104	0	60	1048573
2026-01-18 08:40:07.54	331.97	40.96	-85.2	-88.6	3.0	1.56e+00	0	47	104	0	60	1048575
2026-01-18 08:40:08.55	332.02	40.69	-85.2	-88.6	3.2	1.56e+00	0	47	104	0	60	1048575
2026-01-18 08:40:09.56	332.07	40.43	-84.7	-88.6	2.9	1.56e+00	0	47	104	0	60	1048573
2026-01-18 08:40:10.57	332.12	40.16	-85.2	-88.6	3.1	1.56e+00	0	47	104	0	60	1048575
2026-01-18 08:40:11.57	332.16	39.90	-85.2	-88.6	2.9	1.56e+00	0	47	104	0	60	1048575
2026-01-18 08:40:12.58	332.21	39.64	-85.2	-88.6	3.1	1.56e+00	0	47	104	0	60	1048573
2026-01-18 08:40:13.59	332.25	39.38	-85.2	-88.6	3.0	1.56e+00	0	47	104	0	60	1048575
2026-01-18 08:40:14.60	332.30	39.12	-85.2	-88.6	3.1	1.56e+00	0	47	104	0	60	1048569
2026-01-18 08:40:15.60	332.34	38.87	-85.2	-88.6	3.1	1.55e+00	0	47	104	0	60	1048574
2026-01-18 08:40:16.61	332.38	38.61	-85.2	-88.6	3.1	1.55e+00	0	47	104	0	60	1048574
2026-01-18 08:40:17.61	332.42	38.37	-85.2	-88.6	3.1	1.56e+00	0	47	104	0	60	1048574
2026-01-18 08:40:18.62	332.47	38.12	-85.2	-88.6	3.0	1.56e+00	0	47	104	0	60	1048575
2026-01-18 08:40:19.63	332.51	37.87	-85.2	-88.6	2.9	1.56e+00	0	47	104	0	60	1048575
2026-01-18 08:40:20.63	332.55	37.62	-85.2	-88.6	2.8	1.56e+00	0	47	104	0	60	1048575
2026-01-18 08:40:21.64	332.59	37.38	-85.2	-88.6	3.2	1.56e+00	0	47	104	0	60	1048572
2026-01-18 08:40:22.65	332.63	37.14	-85.2	-88.6	2.9	1.56e+00	0	47	104	0	60	1048575
2026-01-18 08:40:23.65	332.67	36.90	-85.2	-88.6	2.9	1.55e+00	0	47	104	0	60	1048574
2026-01-18 08:40:24.66	332.70	36.66	-85.2	-88.6	2.9	1.56e+00	0	47	104	0	60	1048575
2026-01-18 08:40:25.67	332.74	36.42	-85.2	-88.6	2.9	1.56e+00	0	47	104	0	60	1048574
2026-01-18 08:40:26.68	332.78	36.18	-85.2	-88.6	3.1	1.56e+00	0	47	104	0	60	1048574
2026-01-18 08:40:27.68	332.82	35.95	-85.2	-88.6	3.4	1.56e+00	0	47	104	0	60	1048574
2026-01-18 08:40:28.69	332.85	35.72	-85.2	-88.6	3.0	1.56e+00	0	47	104	0	60	1048570
2026-01-18 08:40:29.70	332.89	35.49	-85.2	-88.6	3.0	1.56e+00	0	47	104	0	60	1048575
2026-01-18 08:40:30.71	332.92	35.26	-85.2	-88.6	3.1	1.56e+00	0	47	104	0	60	1048570
2026-01-18 08:40:31.71	332.96	35.04	-85.2	-88.6	3.1	1.56e+00	0	47	104	0	60	1048573
2026-01-18 08:40:32.72	332.99	34.81	-85.2	-88.6	2.9	1.56e+00	0	47	104	0	60	1048572
2026-01-18 08:40:33.73	333.03	34.59	-85.2	-88.6	3.0	1.56e+00	0	47	104	0	60	1048574
2026-01-18 08:40:34.74	333.06	34.36	-85.2	-88.6	3.0	1.55e+00	0	47	104	0	60	1048575
2026-01-18 08:40:35.75	333.10	34.14	-85.2	-88.6	3.2	1.55e+00	0	47	104	0	60	1048572
2026-01-18 08:40:36.75	333.13	33.92	-85.2	-88.6	3.1	1.56e+00	0	47	104	0	60	1048575
2026-01-18 08:40:37.76	333.16	33.71	-85.2	-88.6	3.1	1.56e+00	0	47	104	0	60	1048575
2026-01-18 08:40:38.76	333.19	33.49	-85.2	-88.6	2.9	1.56e+00	0	47	104	0	60	1048573
2026-01-18 08:40:39.77	333.23	33.28	-85.2	-88.6	3.1	1.56e+00	0	47	104	0	60	1048574
2026-01-18 08:40:40.78	333.26	33.06	-85.2	-88.6	3.0	1.56e+00	0	47	104	0	60	1048574
2026-01-18 08:40:41.79	333.29	32.85	-85.2	-88.6	2.8	1.56e+00	0	47	104	0	60	1048575
2026-01-18 08:40:42.79	333.32	32.64	-85.2	-88.6	3.0	1.56e+00	0	47	104	0	60	1048572
2026-01-18 08:40:43.80	333.35	32.43	-85.2	-88.6	3.0	1.56e+00	0	47	104	0	60	1048575
2026-01-18 08:40:44.81	333.38	32.23	-85.2	-88.6	2.8	1.55e+00	0	47	104	0	60	1048575
2026-01-18 08:40:45.82	333.41	32.02	-85.2	-88.6	3.1	1.56e+00	0	47	104	0	60	1048574
2026-01-18 08:40:46.83	333.44	31.82	-85.2	-88.6	2.9	1.56e+00	0	47	104	0	60	1048575
2026-01-18 08:40:47.84	333.47	31.61	-85.2	-88.6	2.9	1.56e+00	0	47	104	0	60	1048574
2026-01-18 08:40:48.84	333.50	31.41	-85.2	-88.6	2.9	1.56e+00	0	47	104	0	60	1048573
2026-01-18 08:40:49.85	333.53	31.21	-85.2	-88.6	3.0	1.56e+00	0	47	104	0	60	1048573
2026-01-18 08:40:50.86	333.56	31.01	-85.2	-88.6	3.2	1.56e+00	0	47	104	0	60	1048575
2026-01-18 08:40:51.86	333.58	30.82	-85.2	-88.6	2.9	1.56e+00	0	47	104	0	60	1048575
2026-01-18 08:40:52.87	333.61	30.62	-85.2	-88.6	2.8	1.55e+00	0	47	104	0	60	1048575
2026-01-18 08:40:53.88	333.64	30.43	-85.2	-88.6	2.8	1.56e+00	0	47	104	0	60	1048573
2026-01-18 08:40:54.88	333.67	30.23	-85.2	-88.6	3.0	1.56e+00	0	47	104	0	60	1048574
2026-01-18 08:40:55.89	333.69	30.04	-85.2	-88.6	3.0	1.56e+00	0	47	104	0	60	1048575
2026-01-18 08:40:56.90	333.72	29.85	-85.2	-88.6	2.9	1.55e+00	0	47	104	0	60	1048575
2026-01-18 08:40:57.90	333.75	29.66	-85.2	-88.6	3.0	1.56e+00	0	47	104	0	60	1048574
2026-01-18 08:40:58.91	333.77	29.47	-85.2	-88.6	3.1	1.56e+00	0	47	104	0	60	1048574
2026-01-18 08:40:59.92	333.80	29.29	-85.2	-88.6	3.1	1.56e+00	0	47	104	0	60	1048575
2026-01-18 08:41:00.93	333.82	29.10	-85.2	-88.6	3.0	1.56e+00	0	47	104	0	60	1048572
2026-01-18 08:41:01.94	333.85	28.91	-85.2	-88.6	3.0	1.56e+00	0	47	104	0	60	1048574
2026-01-18 08:41:02.95	333.87	28.73	-85.2	-88.6	2.8	1.55e+00	0	47	104	0	60	1048574
2026-01-18 08:41:03.96	333.90	28.55	-85.2	-88.6	2.9	1.56e+00	0	47	104	0	60	1048575
2026-01-18 08:41:04.96	333.92	28.37	-85.2	-88.6	3.0	1.56e+00	0	47	104	0	60	1048575
2026-01-18 08:41:05.97	333.95	28.19	-85.2	-88.6	2.9	1.56e+00	0	47	104	0	60	1048573
2026-01-18 08:41:06.98	333.97	28.01	-85.2	-88.6	2.9	1.56e+00	0	47	104	0	60	1048575
2026-01-18 08:41:07.99	334.00	27.83	-85.2	-88.6	3.1	1.56e+00	0	47	104	0	60	1048575
2026-01-18 08:41:08.99	334.02	27.66	-85.2	-88.6	2.8	1.56e+00	0	47	104	0	60	1048575
2026-01-18 08:41:10.00	334.04	27.48	-85.2	-88.6	3.1	1.56e+00	0	47	104	0	60	1048573
2026-01-18 08:41:11.01	334.07	27.31	-85.2	-88.6	2.8	1.56e+00	0	47	104	0	60	1048575
2026-01-18 08:41:12.02	334.09	27.13	-85.2	-88.6	3.2	1.56e+00	0	47	104	0	60	1048573
2026-01-18 08:41:13.02	334.11	26.96	-85.2	-88.6	3.0	1.55e+00	0	47	104	0	60	1048575
2026-01-18 08:41:14.03	334.14	26.79	-85.2	-88.6	2.9	1.56e+00	0	47	104	0	60	1048574
2026-01-18 08:41:15.04	334.16	26.62	-85.2	-88.6	3.0	1.56e+00	0	47	104	0	60	1048574
2026-01-18 08:41:16.05	334.18	26.45	-85.2	-88.6	3.0	1.56e+00	0	47	104	0	60	1048573
2026-01-18 08:41:17.06	334.20	26.28	-85.2	-88.6	3.1	1.56e+00	0	47	104	0	60	1048573
2026-01-18 08:41:18.07	334.23	26.12	-85.2	-88.6	2.9	1.56e+00	0	47	104	0	60	1048570
2026-01-18 08:41:19.08	334.25	25.95	-85.2	-88.6	2.8	1.55e+00	0	47	104	0	60	1048575
2026-01-18 08:41:20.08	334.27	25.79	-85.2	-88.6	2.7	1.55e+00	0	47	104	0	60	1048573
2026-01-18 08:41:21.09	334.29	25.62	-85.2	-88.6	2.9	1.56e+00	0	47	104	0	60	1048575
2026-01-18 08:41:22.10	334.31	25.46	-85.2	-88.6	3.0	1.56e+00	0	47	104	0	60	1048574
2026-01-18 08:41:23.11	334.33	25.30	-85.2	-88.6	2.8	1.56e+00	0	47	104	0	60	1048574
2026-01-18 08:41:24.12	334.35	25.14	-85.2	-88.6	3.1	1.56e+00	0	47	104	0	60	1048575
2026-01-18 08:41:25.12	334.38	24.98	-85.2	-88.6	3.0	1.56e+00	0	47	104	0	60	1048574
2026-01-18 08:41:26.13	334.40	24.82	-85.2	-88.6	3.1	1.56e+00	0	47	104	0	60	1048575
2026-01-18 08:41:27.14	334.42	24.66	-85.2	-88.6	3.0	1.56e+00	0	47	104	0	60	1048575
2026-01-18 08:41:28.15	334.44	24.50	-85.2	-88.6	3.0	1.56e+00	0	47	104	0	60	1048575
2026-01-18 08:41:29.15	334.46	24.35	-85.2	-88.6	3.1	1.56e+00	0	47	104	0	60	1048575
2026-01-18 08:41:30.16	334.48	24.19	-85.2	-88.6	3.2	1.55e+00	0	47	104	0	60	1048575
2026-01-18 08:41:31.17	334.50	24.04	-85.2	-88.6	2.8	1.55e+00	0	47	104	0	60	1048574
2026-01-18 08:41:32.17	334.52	23.89	-85.2	-88.6	2.9	1.56e+00	0	47	104	0	60	1048575
2026-01-18 08:41:33.18	334.54	23.73	-85.2	-88.6	2.9	1.56e+00	0	47	104	0	60	1048575
2026-01-18 08:41:34.19	334.55	23.58	-85.2	-88.6	3.2	1.55e+00	0	47	104	0	60	1048575
2026-01-18 08:41:35.20	334.57	23.43	-85.2	-88.6	3.1	1.56e+00	0	47	104	0	60	1048575
2026-01-18 08:41:36.21	334.59	23.28	-85.2	-88.6	2.9	1.56e+00	0	47	104	0	60	1048575
2026-01-18 08:41:37.22	334.61	23.13	-85.2	-88.6	3.2	1.56e+00	0	47	104	0	60	1048575
2026-01-18 08:41:38.23	334.63	22.98	-85.2	-88.6	2.9	1.56e+00	0	47	104	0	60	1048573
2026-01-18 08:41:39.24	334.65	22.84	-85.2	-88.6	2.8	1.56e+00	0	47	104	0	60	1048571
2026-01-18 08:41:40.24	334.67	22.69	-85.2	-88.6	2.8	1.56e+00	0	47	104	0	60	1048575
2026-01-18 08:41:41.25	334.69	22.55	-85.2	-88.6	2.8	1.56e+00	0	47	104	0	60	1048573
2026-01-18 08:41:42.26	334.70	22.40	-85.2	-88.6	2.9	1.56e+00	0	47	104	0	60	1048575
2026-01-18 08:41:43.26	334.72	22.26	-85.2	-88.6	2.9	1.55e+00	0	47	104	0	60	1048574
2026-01-18 08:41:44.27	334.74	22.12	-85.2	-88.6	3.1	1.55e+00	0	47	104	0	60	1048574
2026-01-18 08:41:45.28	334.76	21.97	-85.2	-88.6	2.9	1.56e+00	0	47	104	0	60	1048575
2026-01-18 08:41:46.28	334.78	21.83	-85.2	-88.6	3.0	1.56e+00	0	47	104	0	60	1048573
2026-01-18 08:41:47.29	334.79	21.69	-85.2	-88.6	3.0	1.56e+00	0	47	104	0	60	1048574
2026-01-18 08:41:48.29	334.81	21.55	-85.2	-88.6	3.0	1.55e+00	0	47	104	0	60	1048575
2026-01-18 08:41:49.30	334.83	21.41	-85.2	-88.6	3.0	1.56e+00	0	47	104	0	60	1048574
2026-01-18 08:41:50.31	334.85	21.28	-85.2	-88.6	3.2	1.56e+00	0	47	104	0	60	1048573
2026-01-18 08:41:51.31	334.86	21.14	-85.2	-88.6	3.1	1.56e+00	0	47	104	0	60	1048574
2026-01-18 08:41:52.32	334.88	21.00	-85.2	-88.6	3.0	1.56e+00	0	47	104	0	60	1048575
2026-01-18 08:41:53.32	334.90	20.87	-85.2	-88.6	2.9	1.56e+00	0	47	104	0	60	1048575
2026-01-18 08:41:54.33	334.91	20.73	-85.2	-88.6	3.0	1.56e+00	0	47	104	0	60	1048575
2026-01-18 08:41:55.34	334.93	20.60	-85.2	-88.6	3.1	1.56e+00	0	47	104	0	60	1048575
2026-01-18 08:41:56.34	334.95	20.46	-85.2	-88.6	2.9	1.56e+00	0	47	104	0	60	1048575
2026-01-18 08:41:57.35	334.96	20.33	-85.2	-88.6	2.9	1.56e+00	0	47	104	0	60	1048573
2026-01-18 08:41:58.36	334.98	20.20	-85.2	-88.6	2.9	1.56e+00	0	47	104	0	60	1048574
2026-01-18 08:41:59.37	335.00	20.07	-85.2	-88.6	2.9	1.55e+00	0	47	104	0	60	1048574
2026-01-18 08:42:00.37	335.01	19.94	-85.2	-88.6	2.9	1.55e+00	0	47	104	0	60	1048574
2026-01-18 08:42:01.38	335.03	19.80	-85.2	-88.6	2.9	1.56e+00	0	47	104	0	60	1048575
2026-01-18 08:42:02.38	335.04	19.68	-85.2	-88.6	3.1	1.56e+00	0	47	104	0	60	1048575
2026-01-18 08:42:03.39	335.06	19.55	-84.7	-88.6	3.0	1.56e+00	0	47	104	0	60	1048575
2026-01-18 08:42:04.39	335.08	19.42	-85.2	-88.6	2.8	1.55e+00	0	47	104	0	60	1048572
2026-01-18 08:42:05.40	335.09	19.29	-85.2	-88.6	3.1	1.56e+00	0	47	104	0	60	1048575
2026-01-18 08:42:06.41	335.11	19.16	-85.2	-88.6	3.0	1.56e+00	0	47	104	0	60	1048575
2026-01-18 08:42:07.41	335.12	19.04	-85.2	-88.6	3.2	1.56e+00	0	47	104	0	60	1048574
2026-01-18 08:42:08.42	335.14	18.91	-85.2	-88.6	2.9	1.56e+00	0	47	104	0	60	1048574
2026-01-18 08:42:09.43	335.15	18.79	-85.2	-88.6	3.1	1.56e+00	0	47	104	0	60	1048575
2026-01-18 08:42:10.44	335.17	18.66	-85.2	-88.6	3.1	1.56e+00	0	47	104	0	60	1048575
2026-01-18 08:42:11.45	335.18	18.54	-85.2	-88.6	3.1	1.55e+00	0	47	104	0	60	1048574
2026-01-18 08:42:12.45	335.20	18.42	-85.2	-88.6	3.1	1.56e+00	0	47	104	0	60	1048570
2026-01-18 08:42:13.46	335.21	18.29	-84.7	-88.6	2.9	1.55e+00	0	47	104	0	60	1048575
2026-01-18 08:42:14.47	335.23	18.17	-85.2	-88.6	3.1	1.56e+00	0	47	104	0	60	1048575
2026-01-18 08:42:15.47	335.24	18.05	-85.2	-88.6	3.0	1.56e+00	0	47	104	0	60	1048575
2026-01-18 08:42:16.48	335.26	17.93	-85.2	-88.6	3.1	1.55e+00	0	47	104	0	60	1048573
2026-01-18 08:42:17.48	335.27	17.81	-85.2	-88.6	2.9	1.56e+00	0	47	104	0	60	1048574
2026-01-18 08:42:18.49	335.29	17.69	-85.2	-88.6	3.2	1.56e+00	0	47	104	0	60	1048575
2026-01-18 08:42:19.50	335.30	17.57	-85.2	-88.6	3.2	1.56e+00	0	47	104	0	60	1048573
2026-01-18 08:42:20.50	335.32	17.45	-85.2	-88.6	3.1	1.56e+00	0	47	104	0	60	1048575
2026-01-18 08:42:21.51	335.33	17.33	-83.1	-88.6	2.9	1.55e+00	0	47	104	0	60	1048574
2026-01-18 08:42:22.52	335.35	17.22	-85.2	-88.6	3.2	1.56e+00	0	47	104	0	60	1048573
2026-01-18 08:42:23.53	335.36	17.10	-84.7	-88.6	3.0	1.55e+00	0	47	104	0	60	1048575
2026-01-18 08:42:24.53	335.37	16.98	-85.2	-88.6	2.9	1.55e+00	0	47	104	0	60	1048575
2026-01-18 08:42:25.54	335.39	16.87	-85.2	-88.6	2.9	1.55e+00	0	47	104	0	60	1048574
2026-01-18 08:42:26.55	335.40	16.75	-85.2	-88.6	3.1	1.56e+00	0	47	104	0	60	1048575
2026-01-18 08:42:27.56	335.42	16.64	-85.2	-88.6	3.1	1.56e+00	0	47	104	0	60	1048575
2026-01-18 08:42:28.56	335.43	16.53	-84.7	-88.6	2.9	1.56e+00	0	47	104	0	60	1048575
2026-01-18 08:42:29.57	335.44	16.41	-85.2	-88.6	3.0	1.56e+00	0	47	104	0	60	1048572
2026-01-18 08:42:30.57	335.46	16.30	-85.2	-88.6	3.0	1.56e+00	0	47	104	0	60	1048571
