passes_logs/2026/01/18/R3.2S-Naryan-Mar/R3.2S-Naryan-Mar__20260118_063905_TY-42_rec.log

#Pass ID: 20260118_063905_TY-42
#Satellite: TY-42
#Configuration: TY-42
#almurnet v.1.7.20240730
#Start time: 2026-01-18 06:39:10

#Version: 2.2.20231116
#Station: R3.2S-Naryan-Mar
#Location: 53.008057 lon 67.646978 lat
#TLE: 1 64048U 25103A   26017.93564815  .00008007  00000-0  38191-3 0 09990
#TLE: 2 64048 097.4124 093.2979 0001864 092.4902 292.6580 15.19155384 37267

#Time	Az	El	Level	Level2	SNR	BER	BlckErr	Temp	State	Recorded	gain1	gain2
2026-01-18 06:39:10.26	20.21	0.28	-85.2	-88.8	3.0	1.56e+00	0	45	0	0	60	1048573
2026-01-18 06:39:11.26	20.27	0.34	-83.5	-79.0	2.3	0.00e+00	0	47	104	0	60	1048574
2026-01-18 06:39:12.27	20.34	0.40	-83.5	-79.0	2.4	0.00e+00	0	47	104	0	60	1048575
2026-01-18 06:39:13.28	20.40	0.46	-83.1	-79.0	2.4	0.00e+00	0	46	104	0	60	1048575
2026-01-18 06:39:14.28	20.46	0.52	-83.1	-79.0	2.3	0.00e+00	0	47	104	0	60	1048573
2026-01-18 06:39:15.29	20.53	0.59	-83.1	-79.0	2.5	0.00e+00	0	47	104	0	60	1048575
2026-01-18 06:39:16.29	20.59	0.65	-83.1	-79.0	2.4	0.00e+00	0	47	104	0	60	1048575
2026-01-18 06:39:17.30	20.66	0.71	-83.5	-79.0	2.5	0.00e+00	0	47	104	0	60	1048575
2026-01-18 06:39:18.31	20.72	0.77	-82.8	-79.0	2.4	0.00e+00	0	47	104	0	60	1048571
2026-01-18 06:39:19.32	20.79	0.83	-83.5	-79.0	2.5	0.00e+00	0	47	104	0	60	1048574
2026-01-18 06:39:20.33	20.85	0.89	-83.5	-79.0	2.4	0.00e+00	0	47	104	0	60	1048560
2026-01-18 06:39:21.33	20.92	0.95	-83.5	-79.0	2.4	0.00e+00	0	47	104	0	60	1048570
2026-01-18 06:39:22.34	20.99	1.01	-83.1	-79.0	2.5	0.00e+00	0	47	104	0	60	1048573
2026-01-18 06:39:23.34	21.05	1.08	-83.1	-79.0	2.5	0.00e+00	0	47	104	0	60	1048574
2026-01-18 06:39:24.35	21.12	1.14	-83.5	-79.0	2.4	0.00e+00	0	47	104	0	60	1048575
2026-01-18 06:39:25.36	21.19	1.20	-83.5	-79.0	2.4	0.00e+00	0	47	104	0	60	1048566
2026-01-18 06:39:26.36	21.25	1.26	-83.5	-79.0	2.4	0.00e+00	0	47	104	0	60	1048575
2026-01-18 06:39:27.37	21.32	1.33	-83.1	-79.0	2.4	0.00e+00	0	47	104	0	60	1048571
2026-01-18 06:39:28.38	21.39	1.39	-83.1	-79.0	2.4	0.00e+00	0	47	104	0	60	1048574
2026-01-18 06:39:29.39	21.46	1.45	-83.5	-79.0	2.4	0.00e+00	0	47	104	0	60	1048574
2026-01-18 06:39:30.39	21.53	1.51	-83.5	-79.0	2.3	0.00e+00	0	47	104	0	60	1048575
2026-01-18 06:39:31.40	21.60	1.58	-83.5	-79.0	2.4	0.00e+00	0	47	104	0	60	1048575
2026-01-18 06:39:32.41	21.67	1.64	-83.1	-79.0	2.3	0.00e+00	0	47	104	0	60	1048570
2026-01-18 06:39:33.41	21.74	1.70	-83.1	-79.0	2.4	0.00e+00	0	47	104	0	60	1048569
2026-01-18 06:39:34.41	21.81	1.77	-83.1	-79.0	2.3	0.00e+00	0	47	104	0	60	1048573
2026-01-18 06:39:35.42	21.88	1.83	-83.5	-79.0	2.4	0.00e+00	0	47	104	0	60	1048574
2026-01-18 06:39:36.43	21.95	1.90	-83.5	-79.0	2.5	0.00e+00	0	47	104	0	60	1048574
2026-01-18 06:39:37.43	22.02	1.96	-83.1	-79.0	2.4	0.00e+00	0	47	104	0	60	1048575
2026-01-18 06:39:38.44	22.09	2.02	-83.1	-79.0	2.4	0.00e+00	0	47	104	0	60	1048575
2026-01-18 06:39:39.45	22.17	2.09	-83.5	-79.0	2.5	0.00e+00	0	47	104	0	60	1048574
2026-01-18 06:39:40.46	22.24	2.15	-83.5	-79.0	2.4	0.00e+00	0	47	104	0	60	1048573
2026-01-18 06:39:41.47	22.31	2.22	-83.1	-79.0	2.4	0.00e+00	0	47	104	0	60	1048568
2026-01-18 06:39:42.48	22.39	2.28	-83.1	-79.0	2.4	0.00e+00	0	47	104	0	60	1048571
2026-01-18 06:39:43.48	22.46	2.35	-83.5	-79.0	2.4	0.00e+00	0	47	104	0	60	1048574
2026-01-18 06:39:44.49	22.53	2.41	-83.1	-79.0	2.4	0.00e+00	0	47	104	0	60	1048571
2026-01-18 06:39:45.49	22.61	2.48	-83.5	-79.0	2.4	0.00e+00	0	47	104	0	60	1048574
2026-01-18 06:39:46.49	22.68	2.54	-83.1	-79.0	2.5	0.00e+00	0	47	104	0	60	1048572
2026-01-18 06:39:47.50	22.76	2.61	-83.1	-79.0	2.4	0.00e+00	0	47	104	0	60	1048575
2026-01-18 06:39:48.50	22.83	2.67	-83.1	-79.0	2.5	0.00e+00	0	47	104	0	60	1048575
2026-01-18 06:39:49.51	22.91	2.74	-83.5	-79.0	2.4	0.00e+00	0	47	104	0	60	1048574
2026-01-18 06:39:50.52	22.99	2.81	-83.5	-79.0	2.3	0.00e+00	0	47	104	0	60	1048571
2026-01-18 06:39:51.52	23.06	2.87	-83.1	-79.0	2.4	0.00e+00	0	47	104	0	60	1048573
2026-01-18 06:39:52.53	23.14	2.94	-83.5	-79.0	2.3	0.00e+00	0	47	104	0	60	1048573
2026-01-18 06:39:53.53	23.22	3.01	-83.5	-79.0	2.3	0.00e+00	0	47	104	0	60	1048574
2026-01-18 06:39:54.54	23.30	3.07	-83.5	-79.0	2.5	0.00e+00	0	47	104	0	60	1048574
2026-01-18 06:39:55.55	23.37	3.14	-83.5	-79.0	2.4	0.00e+00	0	47	104	0	60	1048570
2026-01-18 06:39:56.55	23.45	3.21	-83.1	-79.0	2.5	0.00e+00	0	47	104	0	60	1048572
2026-01-18 06:39:57.57	23.53	3.28	-83.5	-79.0	2.4	0.00e+00	0	47	104	0	60	1048570
2026-01-18 06:39:58.57	23.61	3.34	-83.5	-79.0	2.5	0.00e+00	0	47	104	0	60	1048572
2026-01-18 06:39:59.58	23.69	3.41	-83.5	-79.0	2.4	0.00e+00	0	47	104	0	60	1048575
2026-01-18 06:40:00.59	23.78	3.48	-83.1	-79.0	2.4	0.00e+00	0	47	104	0	60	1048574
2026-01-18 06:40:01.60	23.86	3.55	-83.1	-79.0	2.4	0.00e+00	0	47	104	0	60	1048571
2026-01-18 06:40:02.60	23.94	3.62	-83.1	-79.0	2.4	0.00e+00	0	47	104	0	60	1048573
2026-01-18 06:40:03.61	24.02	3.68	-83.1	-79.0	2.1	0.00e+00	0	47	104	0	60	1048571
2026-01-18 06:40:04.62	24.10	3.75	-83.5	-79.0	2.4	0.00e+00	0	48	104	0	60	1048575
2026-01-18 06:40:05.62	24.19	3.82	-83.1	-79.0	2.4	0.00e+00	0	48	104	0	60	1048570
2026-01-18 06:40:06.63	24.27	3.89	-83.5	-79.0	2.3	0.00e+00	0	47	104	0	60	1048575
2026-01-18 06:40:07.63	24.35	3.96	-83.5	-79.0	2.3	0.00e+00	0	47	104	0	60	1048574
2026-01-18 06:40:08.64	24.44	4.03	-83.5	-79.0	2.3	0.00e+00	0	48	104	0	60	1048575
2026-01-18 06:40:09.65	24.52	4.10	-83.5	-79.0	2.4	0.00e+00	0	48	104	0	60	1048574
2026-01-18 06:40:10.65	24.61	4.17	-83.1	-79.0	2.4	0.00e+00	0	48	104	0	60	1048570
2026-01-18 06:40:11.66	24.70	4.24	-83.5	-79.0	2.4	0.00e+00	0	48	104	0	60	1048572
2026-01-18 06:40:12.67	24.78	4.31	-83.5	-79.0	2.3	0.00e+00	0	48	104	0	60	1048573
2026-01-18 06:40:13.67	24.87	4.38	-83.5	-79.0	2.4	0.00e+00	0	48	104	0	60	1048571
2026-01-18 06:40:14.68	24.96	4.45	-83.5	-79.0	2.4	0.00e+00	0	47	104	0	60	1048575
2026-01-18 06:40:15.68	25.04	4.52	-83.1	-79.0	2.4	0.00e+00	0	48	104	0	60	1048575
2026-01-18 06:40:16.69	25.13	4.59	-83.5	-79.0	2.3	0.00e+00	0	48	104	0	60	1048570
2026-01-18 06:40:17.70	25.22	4.66	-83.5	-79.0	2.3	0.00e+00	0	48	104	0	60	1048571
2026-01-18 06:40:18.70	25.31	4.74	-83.5	-79.0	2.4	0.00e+00	0	48	104	0	60	1048565
2026-01-18 06:40:19.71	25.40	4.81	-83.1	-79.0	2.4	0.00e+00	0	48	104	0	60	1048575
2026-01-18 06:40:20.72	25.49	4.88	-83.1	-79.0	2.4	0.00e+00	0	48	104	0	60	1048572
2026-01-18 06:40:21.72	25.58	4.95	-83.5	-79.0	2.5	0.00e+00	0	48	104	0	60	1048574
2026-01-18 06:40:22.73	25.68	5.02	-83.5	-79.0	2.5	0.00e+00	0	48	104	0	60	1048575
2026-01-18 06:40:23.74	25.77	5.10	-83.5	-79.0	2.5	0.00e+00	0	48	104	0	60	1048570
2026-01-18 06:40:24.75	25.86	5.17	-83.1	-79.0	2.4	0.00e+00	0	48	104	0	60	1048569
2026-01-18 06:40:25.76	25.95	5.24	-83.1	-79.0	2.4	0.00e+00	0	48	104	0	60	1048573
2026-01-18 06:40:26.76	26.05	5.32	-83.5	-79.0	2.7	0.00e+00	0	48	104	0	60	1048574
2026-01-18 06:40:27.77	26.14	5.39	-83.5	-79.0	2.4	0.00e+00	0	48	104	0	60	1048570
2026-01-18 06:40:28.78	26.24	5.46	-83.5	-79.0	2.4	0.00e+00	0	48	104	0	60	1048574
2026-01-18 06:40:29.79	26.33	5.54	-83.1	-79.0	2.4	0.00e+00	0	48	104	0	60	1048575
2026-01-18 06:40:30.80	26.43	5.61	-83.5	-79.0	2.3	0.00e+00	0	48	104	0	60	1048572
2026-01-18 06:40:31.80	26.53	5.69	-83.1	-79.0	2.4	0.00e+00	0	48	104	0	60	1048573
2026-01-18 06:40:32.81	26.62	5.76	-83.5	-79.0	2.3	0.00e+00	0	48	104	0	60	1048575
2026-01-18 06:40:33.82	26.72	5.84	-83.1	-79.0	2.4	0.00e+00	0	48	104	0	60	1048575
2026-01-18 06:40:34.82	26.82	5.91	-83.1	-79.0	2.3	0.00e+00	0	48	104	0	60	1048575
2026-01-18 06:40:35.83	26.92	5.99	-83.1	-79.0	2.4	0.00e+00	0	48	104	0	60	1048575
2026-01-18 06:40:36.83	27.02	6.06	-83.5	-79.0	2.5	0.00e+00	0	48	104	0	60	1048574
2026-01-18 06:40:37.84	27.12	6.14	-83.5	-79.0	2.4	0.00e+00	0	48	104	0	60	1048574
2026-01-18 06:40:38.85	27.22	6.21	-83.1	-79.0	2.4	0.00e+00	0	48	104	0	60	1048572
2026-01-18 06:40:39.85	27.32	6.29	-83.1	-79.0	2.4	0.00e+00	0	48	104	0	60	1048575
2026-01-18 06:40:40.86	27.43	6.36	-83.5	-79.0	2.4	0.00e+00	0	48	104	0	60	1048573
2026-01-18 06:40:41.87	27.53	6.44	-83.5	-79.0	2.3	0.00e+00	0	48	104	0	60	1048569
2026-01-18 06:40:42.88	27.63	6.52	-83.5	-79.0	2.5	0.00e+00	0	48	104	0	60	1048574
2026-01-18 06:40:43.88	27.74	6.60	-83.1	-79.0	2.3	0.00e+00	0	48	104	0	60	1048562
2026-01-18 06:40:44.89	27.84	6.67	-83.5	-79.0	2.4	0.00e+00	0	48	104	0	60	1048575
2026-01-18 06:40:45.90	27.95	6.75	-83.5	-79.0	2.3	0.00e+00	0	48	104	0	60	1048575
2026-01-18 06:40:46.91	28.05	6.83	-83.5	-79.0	2.5	0.00e+00	0	48	104	0	60	1048574
2026-01-18 06:40:47.92	28.16	6.91	-83.5	-79.0	2.4	0.00e+00	0	48	104	0	60	1048575
2026-01-18 06:40:48.92	28.27	6.99	-83.1	-79.0	2.4	0.00e+00	0	48	104	0	60	1048571
2026-01-18 06:40:49.93	28.38	7.06	-83.5	-79.0	2.4	0.00e+00	0	48	104	0	60	1048571
2026-01-18 06:40:50.94	28.49	7.14	-83.5	-79.0	2.4	0.00e+00	0	48	104	0	60	1048569
2026-01-18 06:40:51.95	28.60	7.22	-83.5	-79.0	2.5	0.00e+00	0	48	104	0	60	1048575
2026-01-18 06:40:52.96	28.71	7.30	-83.1	-79.0	2.3	0.00e+00	0	48	104	0	60	1048572
2026-01-18 06:40:53.96	28.82	7.38	-82.8	-79.0	2.3	0.00e+00	0	48	104	0	60	1048575
2026-01-18 06:40:54.97	28.93	7.46	-83.5	-79.0	2.4	0.00e+00	0	48	104	0	60	1048566
2026-01-18 06:40:55.98	29.04	7.54	-83.5	-79.0	2.3	0.00e+00	0	48	104	0	60	1048571
2026-01-18 06:40:56.99	29.16	7.62	-83.5	-79.0	2.3	0.00e+00	0	48	104	0	60	1048574
2026-01-18 06:40:57.99	29.27	7.70	-83.1	-79.0	2.4	0.00e+00	0	48	104	0	60	1048568
2026-01-18 06:40:59.00	29.39	7.78	-83.5	-79.0	2.4	0.00e+00	0	48	104	0	60	1048571
2026-01-18 06:41:00.00	29.50	7.86	-83.5	-79.0	2.4	0.00e+00	0	48	104	0	60	1048571
2026-01-18 06:41:01.01	29.62	7.95	-83.5	-79.0	2.4	0.00e+00	0	48	104	0	60	1048575
2026-01-18 06:41:02.02	29.74	8.03	-83.5	-79.0	2.3	0.00e+00	0	48	104	0	60	1048574
2026-01-18 06:41:03.02	29.85	8.11	-83.1	-79.0	2.4	0.00e+00	0	48	104	0	60	1048572
2026-01-18 06:41:04.03	29.97	8.19	-83.5	-79.0	2.4	0.00e+00	0	48	104	0	60	1048575
2026-01-18 06:41:05.04	30.09	8.27	-83.5	-79.0	2.4	0.00e+00	0	48	104	0	60	1048567
2026-01-18 06:41:06.04	30.21	8.36	-83.5	-79.0	2.4	0.00e+00	0	48	104	0	60	1048573
2026-01-18 06:41:07.05	30.33	8.44	-83.5	-79.0	2.4	0.00e+00	0	48	104	0	60	1048571
2026-01-18 06:41:08.06	30.46	8.52	-83.1	-79.0	2.3	0.00e+00	0	48	104	0	60	1048575
2026-01-18 06:41:09.07	30.58	8.61	-83.1	-79.0	2.3	0.00e+00	0	48	104	0	60	1048569
2026-01-18 06:41:10.07	30.70	8.69	-83.5	-79.0	2.3	0.00e+00	0	48	104	0	60	1048575
2026-01-18 06:41:11.08	30.83	8.77	-83.5	-79.0	2.5	0.00e+00	0	48	104	0	60	1048567
2026-01-18 06:41:12.09	30.95	8.86	-83.1	-79.0	2.4	0.00e+00	0	48	104	0	60	1048574
2026-01-18 06:41:13.09	31.08	8.94	-83.1	-79.0	2.3	0.00e+00	0	48	104	0	60	1048573
2026-01-18 06:41:14.10	31.21	9.03	-83.5	-79.0	2.5	0.00e+00	0	48	104	0	60	1048563
2026-01-18 06:41:15.10	31.33	9.11	-83.5	-79.0	2.4	0.00e+00	0	48	104	0	60	1048572
2026-01-18 06:41:16.11	31.46	9.20	-83.5	-79.0	2.4	0.00e+00	0	48	104	0	60	1048574
2026-01-18 06:41:17.12	31.59	9.28	-83.1	-79.0	2.4	0.00e+00	0	48	104	0	60	1048573
2026-01-18 06:41:18.13	31.72	9.37	-83.1	-79.0	2.4	0.00e+00	0	48	104	0	60	1048571
2026-01-18 06:41:19.14	31.85	9.46	-83.5	-79.0	2.5	0.00e+00	0	48	104	0	60	1048573
2026-01-18 06:41:20.15	31.99	9.54	-83.5	-79.0	2.3	0.00e+00	0	48	104	0	60	1048563
2026-01-18 06:41:21.15	32.12	9.63	-83.5	-79.0	2.3	0.00e+00	0	48	104	0	60	1048572
2026-01-18 06:41:22.16	32.26	9.72	-83.1	-79.0	2.4	0.00e+00	0	48	104	0	60	1048573
2026-01-18 06:41:23.17	32.39	9.81	-83.5	-79.0	2.6	0.00e+00	0	48	104	0	60	1048574
2026-01-18 06:41:24.17	32.53	9.89	-83.5	-79.0	2.4	0.00e+00	0	48	104	0	60	1048575
2026-01-18 06:41:25.18	32.66	9.98	-83.5	-79.0	2.4	0.00e+00	0	48	104	0	60	1048570
2026-01-18 06:41:26.19	32.80	10.07	-83.5	-79.0	2.5	0.00e+00	0	48	104	0	60	1048574
2026-01-18 06:41:27.20	32.94	10.16	-83.1	-79.0	2.3	0.00e+00	0	48	104	0	60	1048572
2026-01-18 06:41:28.21	33.08	10.25	-83.5	-79.0	2.5	0.00e+00	0	48	104	0	60	1048575
2026-01-18 06:41:29.21	33.22	10.34	-83.5	-79.0	2.2	0.00e+00	0	48	104	0	60	1048575
2026-01-18 06:41:30.22	33.37	10.43	-83.5	-79.0	2.4	0.00e+00	0	48	104	0	60	1048573
2026-01-18 06:41:31.22	33.51	10.52	-82.8	-79.0	2.3	0.00e+00	0	48	104	0	60	1048572
2026-01-18 06:41:32.23	33.65	10.61	-83.1	-79.0	2.4	0.00e+00	0	48	104	0	60	1048575
2026-01-18 06:41:33.24	33.80	10.70	-83.5	-79.0	2.3	0.00e+00	0	48	104	0	60	1048574
2026-01-18 06:41:34.24	33.95	10.79	-83.5	-79.0	2.4	0.00e+00	0	48	104	0	60	1048562
2026-01-18 06:41:35.25	34.09	10.88	-83.5	-79.0	2.4	0.00e+00	0	48	104	0	60	1048572
2026-01-18 06:41:36.25	34.24	10.97	-83.1	-79.0	2.4	0.00e+00	0	48	104	0	60	1048575
2026-01-18 06:41:37.26	34.39	11.06	-82.8	-79.0	2.4	0.00e+00	0	48	104	0	60	1048575
2026-01-18 06:41:38.27	34.54	11.15	-83.5	-79.0	2.4	0.00e+00	0	48	104	0	60	1048567
2026-01-18 06:41:39.28	34.70	11.25	-83.5	-79.0	2.4	0.00e+00	0	48	104	0	60	1048569
2026-01-18 06:41:40.29	34.85	11.34	-83.5	-79.0	2.4	0.00e+00	0	48	104	0	60	1048566
2026-01-18 06:41:41.29	35.00	11.43	-83.1	-79.0	2.4	0.00e+00	0	48	104	0	60	1048570
2026-01-18 06:41:42.30	35.16	11.53	-83.5	-79.0	2.4	0.00e+00	0	48	104	0	60	1048570
2026-01-18 06:41:43.31	35.32	11.62	-83.5	-79.0	2.6	0.00e+00	0	48	104	0	60	1048571
2026-01-18 06:41:44.32	35.47	11.71	-83.5	-79.0	2.3	0.00e+00	0	48	104	0	60	1048572
2026-01-18 06:41:45.32	35.63	11.81	-83.1	-79.0	2.6	0.00e+00	0	48	104	0	60	1048574
2026-01-18 06:41:46.33	35.79	11.90	-83.1	-79.0	2.4	0.00e+00	0	48	104	0	60	1048570
2026-01-18 06:41:47.33	35.95	12.00	-83.5	-79.0	2.4	0.00e+00	0	48	104	0	60	1048570
2026-01-18 06:41:48.34	36.12	12.09	-83.5	-79.0	2.5	0.00e+00	0	48	104	0	60	1048575
2026-01-18 06:41:49.35	36.28	12.19	-83.5	-79.0	2.4	0.00e+00	0	48	104	0	60	1048574
2026-01-18 06:41:50.36	36.45	12.28	-83.1	-79.0	2.5	0.00e+00	0	48	104	0	60	1048574
2026-01-18 06:41:51.36	36.61	12.38	-83.1	-79.0	2.4	0.00e+00	0	48	104	0	60	1048570
2026-01-18 06:41:52.37	36.78	12.47	-83.5	-79.0	2.5	0.00e+00	0	48	104	0	60	1048571
2026-01-18 06:41:53.38	36.95	12.57	-83.5	-79.0	2.4	0.00e+00	0	48	104	0	60	1048571
2026-01-18 06:41:54.39	37.12	12.67	-83.5	-79.0	2.3	0.00e+00	0	48	104	0	60	1048570
2026-01-18 06:41:55.40	37.29	12.77	-83.1	-79.0	2.4	0.00e+00	0	49	104	0	60	1048573
2026-01-18 06:41:56.41	37.47	12.86	-83.5	-79.0	2.5	0.00e+00	0	48	104	0	60	1048575
2026-01-18 06:41:57.41	37.64	12.96	-83.5	-79.0	2.5	0.00e+00	0	48	104	0	60	1048572
2026-01-18 06:41:58.42	37.81	13.06	-83.5	-79.0	2.4	0.00e+00	0	48	104	0	60	1048575
2026-01-18 06:41:59.42	37.99	13.16	-83.5	-79.0	2.4	0.00e+00	0	48	104	0	60	1048574
2026-01-18 06:42:00.43	38.17	13.26	-82.8	-79.0	2.4	0.00e+00	0	48	104	0	60	1048572
2026-01-18 06:42:01.43	38.35	13.35	-83.5	-79.0	2.4	0.00e+00	0	48	104	0	60	1048575
2026-01-18 06:42:02.44	38.53	13.45	-83.5	-79.0	2.3	0.00e+00	0	48	104	0	60	1048567
2026-01-18 06:42:03.44	38.71	13.55	-83.5	-79.0	2.3	0.00e+00	0	48	104	0	60	1048573
2026-01-18 06:42:04.45	38.89	13.65	-83.1	-79.0	2.3	0.00e+00	0	48	104	0	60	1048575
2026-01-18 06:42:05.46	39.08	13.75	-83.5	-79.0	2.5	0.00e+00	0	49	104	0	60	1048574
2026-01-18 06:42:06.47	39.27	13.85	-83.5	-79.0	2.4	0.00e+00	0	49	104	0	60	1048572
2026-01-18 06:42:07.48	39.46	13.96	-83.5	-79.0	2.4	0.00e+00	0	49	104	0	60	1048568
2026-01-18 06:42:08.49	39.65	14.06	-83.5	-79.0	2.5	0.00e+00	0	49	104	0	60	1048574
2026-01-18 06:42:09.49	39.84	14.16	-83.1	-79.0	2.3	0.00e+00	0	49	104	0	60	1048569
2026-01-18 06:42:10.50	40.03	14.26	-83.1	-79.0	2.6	0.00e+00	0	48	104	0	60	1048573
2026-01-18 06:42:11.51	40.23	14.36	-83.5	-79.0	2.5	0.00e+00	0	49	104	0	60	1048571
2026-01-18 06:42:12.52	40.42	14.46	-83.5	-79.0	2.4	0.00e+00	0	48	104	0	60	1048570
2026-01-18 06:42:13.52	40.62	14.57	-83.1	-79.0	2.4	0.00e+00	0	48	104	0	60	1048575
2026-01-18 06:42:14.53	40.82	14.67	-83.1	-79.0	2.3	0.00e+00	0	48	104	0	60	1048575
2026-01-18 06:42:15.53	41.02	14.77	-83.5	-79.0	2.6	0.00e+00	0	48	104	0	60	1048573
2026-01-18 06:42:16.54	41.22	14.88	-83.5	-79.0	2.4	0.00e+00	0	48	104	0	60	1048574
2026-01-18 06:42:17.55	41.43	14.98	-83.5	-79.0	2.3	0.00e+00	0	48	104	0	60	1048575
2026-01-18 06:42:18.55	41.63	15.08	-83.5	-79.0	2.4	0.00e+00	0	49	104	0	60	1048574
2026-01-18 06:42:19.56	41.84	15.19	-83.5	-79.0	2.1	0.00e+00	0	48	104	0	60	1048575
2026-01-18 06:42:20.57	42.05	15.29	-83.5	-79.0	2.4	0.00e+00	0	48	104	0	60	1048574
2026-01-18 06:42:21.57	42.26	15.40	-83.5	-79.0	2.2	0.00e+00	0	49	104	0	60	1048570
2026-01-18 06:42:22.57	42.47	15.50	-83.5	-79.0	2.3	0.00e+00	0	49	104	0	60	1048575
2026-01-18 06:42:23.58	42.68	15.61	-83.1	-79.0	2.4	0.00e+00	0	48	104	0	60	1048572
2026-01-18 06:42:24.59	42.90	15.71	-83.1	-79.0	2.4	0.00e+00	0	49	104	0	60	1048575
2026-01-18 06:42:25.59	43.11	15.82	-83.5	-79.0	2.4	0.00e+00	0	49	104	0	60	1048571
2026-01-18 06:42:26.60	43.33	15.92	-83.5	-79.0	2.4	0.00e+00	0	48	104	0	60	1048566
2026-01-18 06:42:27.61	43.56	16.03	-83.5	-79.0	2.4	0.00e+00	0	49	104	0	60	1048574
2026-01-18 06:42:28.62	43.78	16.14	-83.1	-79.0	2.4	0.00e+00	0	49	104	0	60	1048575
2026-01-18 06:42:29.62	44.00	16.24	-83.5	-79.0	2.3	0.00e+00	0	49	104	0	60	1048575
2026-01-18 06:42:30.62	44.23	16.35	-83.5	-79.0	2.4	0.00e+00	0	49	104	0	60	1048573
2026-01-18 06:42:31.63	44.46	16.46	-83.5	-79.0	2.3	0.00e+00	0	48	104	0	60	1048575
2026-01-18 06:42:32.64	44.69	16.57	-83.1	-79.0	2.5	0.00e+00	0	49	104	0	60	1048573
2026-01-18 06:42:33.64	44.92	16.67	-83.1	-79.0	2.3	0.00e+00	0	49	104	0	60	1048575
2026-01-18 06:42:34.65	45.15	16.78	-83.5	-79.0	2.3	0.00e+00	0	49	104	0	60	1048575
2026-01-18 06:42:35.66	45.39	16.89	-83.5	-79.0	2.4	0.00e+00	0	49	104	0	60	1048567
2026-01-18 06:42:36.67	45.63	17.00	-83.1	-79.0	2.3	0.00e+00	0	49	104	0	60	1048573
2026-01-18 06:42:37.67	45.87	17.11	-82.8	-79.0	2.4	0.00e+00	0	49	104	0	60	1048571
2026-01-18 06:42:38.68	46.11	17.21	-83.5	-79.0	2.5	0.00e+00	0	49	104	0	60	1048575
2026-01-18 06:42:39.69	46.36	17.32	-83.5	-79.0	2.6	0.00e+00	0	49	104	0	60	1048574
2026-01-18 06:42:40.70	46.60	17.43	-83.5	-79.0	2.4	0.00e+00	0	49	104	0	60	1048573
2026-01-18 06:42:41.70	46.85	17.54	-83.5	-79.0	2.5	0.00e+00	0	49	104	0	60	1048574
2026-01-18 06:42:42.71	47.10	17.65	-83.1	-79.0	2.4	0.00e+00	0	49	104	0	60	1048571
2026-01-18 06:42:43.71	47.35	17.76	-83.5	-79.0	2.5	0.00e+00	0	49	104	0	60	1048574
2026-01-18 06:42:44.72	47.60	17.87	-83.5	-79.0	2.4	0.00e+00	0	49	104	0	60	1048574
2026-01-18 06:42:45.73	47.86	17.98	-83.5	-79.0	2.3	0.00e+00	0	49	104	0	60	1048572
2026-01-18 06:42:46.74	48.12	18.09	-83.5	-79.0	2.4	0.00e+00	0	49	104	0	60	1048571
2026-01-18 06:42:47.74	48.38	18.20	-83.1	-79.0	2.3	0.00e+00	0	49	104	0	60	1048562
2026-01-18 06:42:48.75	48.64	18.31	-83.1	-79.0	2.4	0.00e+00	0	49	104	0	60	1048566
2026-01-18 06:42:49.76	48.91	18.42	-83.5	-79.0	2.3	0.00e+00	0	49	104	0	60	1048572
2026-01-18 06:42:50.76	49.17	18.53	-83.5	-79.0	2.3	0.00e+00	0	49	104	0	60	1048573
2026-01-18 06:42:51.77	49.44	18.64	-83.5	-79.0	2.4	0.00e+00	0	49	104	0	60	1048568
2026-01-18 06:42:52.78	49.72	18.75	-83.1	-79.0	2.4	0.00e+00	0	49	104	0	60	1048572
2026-01-18 06:42:53.79	49.99	18.86	-83.5	-79.0	2.4	0.00e+00	0	49	104	0	60	1048575
2026-01-18 06:42:54.80	50.27	18.97	-83.5	-79.0	2.4	0.00e+00	0	49	104	0	60	1048569
2026-01-18 06:42:55.80	50.54	19.08	-83.5	-79.0	2.4	0.00e+00	0	49	104	0	60	1048574
2026-01-18 06:42:56.80	50.82	19.19	-83.1	-79.0	2.3	0.00e+00	0	49	104	0	60	1048570
2026-01-18 06:42:57.81	51.11	19.30	-83.5	-79.0	2.4	0.00e+00	0	49	104	0	60	1048572
2026-01-18 06:42:58.81	51.39	19.41	-83.5	-79.0	2.4	0.00e+00	0	49	104	0	60	1048572
2026-01-18 06:42:59.81	51.67	19.52	-83.5	-79.0	2.5	0.00e+00	0	49	104	0	60	1048571
2026-01-18 06:43:00.82	51.97	19.64	-83.5	-79.0	2.4	0.00e+00	0	49	104	0	60	1048574
2026-01-18 06:43:01.82	52.26	19.74	-83.1	-79.0	2.3	0.00e+00	0	49	104	0	60	1048566
2026-01-18 06:43:02.82	52.55	19.85	-83.5	-79.0	2.3	0.00e+00	0	49	104	0	60	1048575
2026-01-18 06:43:03.82	52.84	19.96	-83.5	-79.0	2.5	0.00e+00	0	49	104	0	60	1048575
2026-01-18 06:43:04.83	53.14	20.08	-83.5	-79.0	2.5	0.00e+00	0	49	104	0	60	1048574
2026-01-18 06:43:05.83	53.44	20.18	-83.5	-79.0	2.4	0.00e+00	0	49	104	0	60	1048574
2026-01-18 06:43:06.84	53.75	20.30	-82.8	-79.0	2.3	0.00e+00	0	49	104	0	60	1048568
2026-01-18 06:43:07.84	54.05	20.40	-83.5	-79.0	2.4	0.00e+00	0	49	104	0	60	1048566
2026-01-18 06:43:08.84	54.36	20.51	-83.5	-79.0	2.4	0.00e+00	0	49	104	0	60	1048570
2026-01-18 06:43:09.85	54.67	20.62	-83.5	-79.0	2.4	0.00e+00	0	49	104	0	60	1048571
2026-01-18 06:43:10.86	54.99	20.73	-83.1	-79.0	2.4	0.00e+00	0	49	104	0	60	1048573
2026-01-18 06:43:11.87	55.30	20.84	-82.8	-79.0	2.3	0.00e+00	0	49	104	0	60	1048573
2026-01-18 06:43:12.87	55.62	20.95	-83.1	-79.0	2.5	0.00e+00	0	49	104	0	60	1048574
2026-01-18 06:43:13.89	55.95	21.06	-83.5	-79.0	2.3	0.00e+00	0	49	104	0	60	1048568
2026-01-18 06:43:14.89	56.27	21.17	-83.5	-79.0	2.4	0.00e+00	0	49	104	0	60	1048574
2026-01-18 06:43:15.90	56.60	21.28	-83.1	-79.0	2.4	0.00e+00	0	49	104	0	60	1048571
2026-01-18 06:43:16.91	56.93	21.39	-83.5	-79.0	2.4	0.00e+00	0	49	104	0	60	1048575
2026-01-18 06:43:17.92	57.26	21.50	-83.5	-79.0	2.3	0.00e+00	0	49	104	0	60	1048575
2026-01-18 06:43:18.93	57.60	21.60	-83.5	-79.0	2.5	0.00e+00	0	49	104	0	60	1048574
2026-01-18 06:43:19.94	57.93	21.71	-83.5	-79.0	2.3	0.00e+00	0	49	104	0	60	1048575
2026-01-18 06:43:20.94	58.27	21.82	-83.1	-79.0	2.4	0.00e+00	0	49	104	0	60	1048565
2026-01-18 06:43:21.95	58.61	21.93	-83.1	-79.0	2.4	0.00e+00	0	49	104	0	60	1048572
2026-01-18 06:43:22.95	58.96	22.03	-83.1	-79.0	2.4	0.00e+00	0	49	104	0	60	1048575
2026-01-18 06:43:23.95	59.30	22.14	-83.5	-79.0	2.3	0.00e+00	0	49	104	0	60	1048575
2026-01-18 06:43:24.96	59.65	22.24	-83.5	-79.0	2.5	0.00e+00	0	49	104	0	60	1048571
2026-01-18 06:43:25.96	60.00	22.35	-82.8	-79.0	2.4	0.00e+00	0	49	104	0	60	1048575
2026-01-18 06:43:26.97	60.36	22.45	-83.1	-79.0	2.4	0.00e+00	0	49	104	0	60	1048573
2026-01-18 06:43:27.97	60.72	22.55	-83.5	-79.0	2.4	0.00e+00	0	49	104	0	60	1048573
2026-01-18 06:43:28.98	61.08	22.66	-83.5	-79.0	2.5	0.00e+00	0	49	104	0	60	1048573
2026-01-18 06:43:29.98	61.44	22.76	-83.1	-79.0	2.5	0.00e+00	0	49	104	0	60	1048572
2026-01-18 06:43:30.98	61.80	22.86	-83.1	-79.0	2.4	0.00e+00	0	49	104	0	60	1048575
2026-01-18 06:43:31.99	62.17	22.96	-83.5	-79.0	2.3	0.00e+00	0	49	104	0	60	1048573
2026-01-18 06:43:32.99	62.54	23.06	-83.5	-79.0	2.5	0.00e+00	0	49	104	0	60	1048574
2026-01-18 06:43:34.00	62.92	23.16	-83.5	-79.0	2.4	0.00e+00	0	49	104	0	60	1048575
2026-01-18 06:43:35.01	63.29	23.26	-83.1	-79.0	2.4	0.00e+00	0	49	104	0	60	1048575
2026-01-18 06:43:36.02	63.67	23.36	-83.5	-79.0	2.4	0.00e+00	0	49	104	0	60	1048573
2026-01-18 06:43:37.02	64.05	23.46	-83.5	-79.0	2.4	0.00e+00	0	49	104	0	60	1048574
2026-01-18 06:43:38.03	64.44	23.56	-83.5	-79.0	2.4	0.00e+00	0	49	104	0	60	1048575
2026-01-18 06:43:39.04	64.83	23.66	-83.5	-79.0	2.4	0.00e+00	0	49	104	0	60	1048575
2026-01-18 06:43:40.04	65.22	23.75	-83.1	-79.0	2.4	0.00e+00	0	49	104	0	60	1048575
2026-01-18 06:43:41.05	65.61	23.85	-83.5	-79.0	2.4	0.00e+00	0	49	104	0	60	1048566
2026-01-18 06:43:42.05	66.00	23.94	-83.5	-79.0	2.4	0.00e+00	0	49	104	0	60	1048575
2026-01-18 06:43:43.05	66.40	24.03	-83.5	-79.0	2.4	0.00e+00	0	49	104	0	60	1048575
2026-01-18 06:43:44.06	66.80	24.13	-83.1	-79.0	2.5	0.00e+00	0	49	104	0	60	1048575
2026-01-18 06:43:45.06	67.20	24.22	-82.8	-79.0	2.4	0.00e+00	0	49	104	0	60	1048575
2026-01-18 06:43:46.07	67.61	24.31	-83.5	-79.0	2.3	0.00e+00	0	49	104	0	60	1048570
2026-01-18 06:43:47.07	68.01	24.40	-83.5	-79.0	2.3	0.00e+00	0	49	104	0	60	1048571
2026-01-18 06:43:48.08	68.42	24.49	-83.5	-79.0	2.4	0.00e+00	0	49	104	0	60	1048574
2026-01-18 06:43:49.09	68.84	24.57	-83.5	-79.0	2.4	0.00e+00	0	49	104	0	60	1048570
2026-01-18 06:43:50.10	69.26	24.66	-83.1	-79.0	2.5	0.00e+00	0	49	104	0	60	1048575
2026-01-18 06:43:51.11	69.67	24.75	-83.5	-79.0	2.4	0.00e+00	0	49	104	0	60	1048571
2026-01-18 06:43:52.12	70.10	24.83	-83.5	-79.0	2.4	0.00e+00	0	49	104	0	60	1048572
2026-01-18 06:43:53.13	70.52	24.91	-83.5	-79.0	2.4	0.00e+00	0	49	104	0	60	1048575
2026-01-18 06:43:54.13	70.94	24.99	-83.1	-79.0	2.5	0.00e+00	0	49	104	0	60	1048573
2026-01-18 06:43:55.14	71.37	25.08	-83.5	-79.0	2.5	0.00e+00	0	49	104	0	60	1048572
2026-01-18 06:43:56.14	71.80	25.15	-83.5	-79.0	2.5	0.00e+00	0	49	104	0	60	1048571
2026-01-18 06:43:57.15	72.24	25.23	-83.5	-79.0	2.2	0.00e+00	0	49	104	0	60	1048575
2026-01-18 06:43:58.15	72.67	25.31	-83.5	-79.0	2.4	0.00e+00	0	49	104	0	60	1048569
2026-01-18 06:43:59.16	73.11	25.38	-83.1	-79.0	2.4	0.00e+00	0	49	104	0	60	1048574
2026-01-18 06:44:00.16	73.54	25.46	-83.5	-79.0	2.5	0.00e+00	0	49	104	0	60	1048575
2026-01-18 06:44:01.17	73.99	25.53	-83.5	-79.0	2.5	0.00e+00	0	49	104	0	60	1048575
2026-01-18 06:44:02.17	74.43	25.60	-83.5	-79.0	2.4	0.00e+00	0	49	104	0	60	1048573
2026-01-18 06:44:03.18	74.88	25.67	-83.1	-79.0	2.4	0.00e+00	0	49	104	0	60	1048574
2026-01-18 06:44:04.18	75.32	25.74	-83.1	-79.0	2.4	0.00e+00	0	49	104	0	60	1048573
2026-01-18 06:44:05.19	75.77	25.81	-83.5	-79.0	2.4	0.00e+00	0	49	104	0	60	1048571
2026-01-18 06:44:06.20	76.23	25.87	-83.5	-79.0	2.3	0.00e+00	0	49	104	0	60	1048571
2026-01-18 06:44:07.21	76.68	25.94	-83.5	-79.0	2.4	0.00e+00	0	49	104	0	60	1048572
2026-01-18 06:44:08.22	77.14	26.00	-83.1	-79.0	2.4	0.00e+00	0	49	104	0	60	1048575
2026-01-18 06:44:09.23	77.60	26.06	-83.1	-79.0	2.5	0.00e+00	0	49	104	0	60	1048567
2026-01-18 06:44:10.24	78.06	26.12	-83.5	-79.0	2.4	0.00e+00	0	49	104	0	60	1048574
2026-01-18 06:44:11.24	78.52	26.18	-83.5	-79.0	2.3	0.00e+00	0	49	104	0	60	1048575
2026-01-18 06:44:12.25	78.99	26.23	-83.5	-79.0	2.3	0.00e+00	0	49	104	0	60	1048575
2026-01-18 06:44:13.26	79.46	26.29	-83.1	-79.0	2.3	0.00e+00	0	49	104	0	60	1048570
2026-01-18 06:44:14.26	79.92	26.34	-83.5	-79.0	2.4	0.00e+00	0	49	104	0	60	1048575
2026-01-18 06:44:15.27	80.39	26.39	-83.5	-79.0	2.4	0.00e+00	0	49	104	0	60	1048575
2026-01-18 06:44:16.27	80.86	26.44	-83.5	-79.0	2.4	0.00e+00	0	49	104	0	60	1048572
2026-01-18 06:44:17.28	81.33	26.48	-83.1	-79.0	2.4	0.00e+00	0	49	104	0	60	1048572
2026-01-18 06:44:18.29	81.81	26.53	-83.1	-79.0	2.3	0.00e+00	0	49	104	0	60	1048571
2026-01-18 06:44:19.30	82.29	26.57	-83.5	-79.0	2.5	0.00e+00	0	49	104	0	60	1048569
2026-01-18 06:44:20.31	82.76	26.61	-83.5	-79.0	2.3	0.00e+00	0	49	104	0	60	1048574
2026-01-18 06:44:21.31	83.24	26.65	-83.5	-79.0	2.4	0.00e+00	0	49	104	0	60	1048573
2026-01-18 06:44:22.32	83.72	26.69	-82.8	-79.0	2.3	0.00e+00	0	49	104	0	60	1048575
2026-01-18 06:44:23.33	84.20	26.72	-83.1	-79.0	2.4	0.00e+00	0	49	104	0	60	1048570
2026-01-18 06:44:24.33	84.68	26.76	-83.5	-79.0	2.4	0.00e+00	0	49	104	0	60	1048567
2026-01-18 06:44:25.34	85.17	26.79	-83.5	-79.0	2.3	0.00e+00	0	49	104	0	60	1048574
2026-01-18 06:44:26.35	85.65	26.82	-83.5	-79.0	2.4	0.00e+00	0	49	104	0	60	1048573
2026-01-18 06:44:27.36	86.14	26.85	-83.1	-79.0	2.5	0.00e+00	0	49	104	0	60	1048575
2026-01-18 06:44:28.36	86.62	26.87	-82.8	-79.0	2.4	0.00e+00	0	49	104	0	60	1048575
2026-01-18 06:44:29.37	87.11	26.90	-83.5	-79.0	2.6	0.00e+00	0	49	104	0	60	1048574
2026-01-18 06:44:30.38	87.60	26.92	-83.5	-79.0	2.4	0.00e+00	0	49	104	0	60	1048575
2026-01-18 06:44:31.38	88.08	26.94	-83.5	-79.0	2.4	0.00e+00	0	49	104	0	60	1048571
2026-01-18 06:44:32.38	88.57	26.96	-83.1	-79.0	2.2	0.00e+00	0	49	104	0	60	1048574
2026-01-18 06:44:33.39	89.06	26.97	-83.5	-79.0	2.5	0.00e+00	0	49	104	0	60	1048574
2026-01-18 06:44:34.40	89.55	26.99	-83.5	-79.0	2.3	0.00e+00	0	49	104	0	60	1048574
2026-01-18 06:44:35.40	90.04	27.00	-83.5	-79.0	2.3	0.00e+00	0	49	104	0	60	1048570
2026-01-18 06:44:36.41	90.53	27.01	-83.1	-79.0	2.3	0.00e+00	0	49	104	0	60	1048575
2026-01-18 06:44:37.42	91.02	27.01	-83.1	-79.0	2.4	0.00e+00	0	49	104	0	60	1048573
2026-01-18 06:44:38.43	91.51	27.02	-83.5	-79.0	2.3	0.00e+00	0	49	104	0	60	1048574
2026-01-18 06:44:39.44	92.01	27.02	-83.5	-79.0	2.4	0.00e+00	0	49	104	0	60	1048575
2026-01-18 06:44:40.45	92.50	27.02	-83.5	-79.0	2.4	0.00e+00	0	49	104	0	60	1048575
2026-01-18 06:44:41.45	92.99	27.02	-83.1	-79.0	2.3	0.00e+00	0	49	104	0	60	1048574
2026-01-18 06:44:42.46	93.48	27.02	-83.1	-79.0	2.2	0.00e+00	0	49	104	0	60	1048572
2026-01-18 06:44:43.47	93.97	27.02	-83.5	-79.0	2.4	0.00e+00	0	49	104	0	60	1048573
2026-01-18 06:44:44.47	94.46	27.01	-83.5	-79.0	2.1	0.00e+00	0	49	104	0	60	1048575
2026-01-18 06:44:45.48	94.95	27.00	-83.5	-79.0	2.5	0.00e+00	0	49	104	0	60	1048559
2026-01-18 06:44:46.48	95.44	26.99	-83.1	-79.0	2.4	0.00e+00	0	49	104	0	60	1048568
2026-01-18 06:44:47.49	95.93	26.97	-83.5	-79.0	2.4	0.00e+00	0	49	104	0	60	1048569
2026-01-18 06:44:48.50	96.42	26.96	-83.5	-79.0	2.4	0.00e+00	0	49	104	0	60	1048575
2026-01-18 06:44:49.51	96.92	26.94	-83.5	-79.0	2.4	0.00e+00	0	49	104	0	60	1048565
2026-01-18 06:44:50.51	97.40	26.92	-83.5	-79.0	2.5	0.00e+00	0	49	104	0	60	1048574
2026-01-18 06:44:51.52	97.89	26.90	-82.8	-79.0	2.3	0.00e+00	0	49	104	0	60	1048558
2026-01-18 06:44:52.53	98.38	26.88	-83.5	-79.0	2.4	0.00e+00	0	49	104	0	60	1048573
2026-01-18 06:44:53.53	98.86	26.85	-83.5	-79.0	2.3	0.00e+00	0	49	104	0	60	1048570
2026-01-18 06:44:54.54	99.35	26.82	-83.5	-79.0	2.3	0.00e+00	0	49	104	0	60	1048575
2026-01-18 06:44:55.55	99.84	26.80	-83.5	-79.0	2.4	0.00e+00	0	49	104	0	60	1048573
2026-01-18 06:44:56.56	100.32	26.76	-83.1	-79.0	2.5	0.00e+00	0	49	104	0	60	1048572
2026-01-18 06:44:57.57	100.80	26.73	-83.5	-79.0	2.4	0.00e+00	0	49	104	0	60	1048570
2026-01-18 06:44:58.58	101.29	26.69	-83.5	-79.0	2.5	0.00e+00	0	49	104	0	60	1048574
2026-01-18 06:44:59.59	101.77	26.66	-83.5	-79.0	2.4	0.00e+00	0	49	104	0	60	1048573
2026-01-18 06:45:00.60	102.25	26.62	-82.8	-79.0	2.5	0.00e+00	0	49	104	0	60	1048574
2026-01-18 06:45:01.60	102.72	26.58	-83.1	-79.0	2.4	0.00e+00	0	49	104	0	60	1048574
2026-01-18 06:45:02.61	103.20	26.53	-83.5	-79.0	2.4	0.00e+00	0	49	104	0	60	1048575
2026-01-18 06:45:03.61	103.67	26.49	-83.5	-79.0	2.3	0.00e+00	0	49	104	0	60	1048573
2026-01-18 06:45:04.62	104.15	26.44	-83.1	-79.0	2.5	0.00e+00	0	49	104	0	60	1048572
2026-01-18 06:45:05.63	104.62	26.39	-82.8	-79.0	2.4	0.00e+00	0	49	104	0	60	1048572
2026-01-18 06:45:06.63	105.09	26.34	-83.5	-79.0	2.3	0.00e+00	0	49	104	0	60	1048575
2026-01-18 06:45:07.64	105.56	26.29	-83.5	-79.0	2.5	0.00e+00	0	49	104	0	60	1048574
2026-01-18 06:45:08.65	106.03	26.24	-83.5	-79.0	2.4	0.00e+00	0	49	104	0	60	1048575
2026-01-18 06:45:09.65	106.49	26.18	-83.5	-79.0	2.4	0.00e+00	0	49	104	0	60	1048575
2026-01-18 06:45:10.66	106.96	26.13	-83.1	-79.0	2.3	0.00e+00	0	49	104	0	60	1048575
2026-01-18 06:45:11.67	107.42	26.07	-83.5	-79.0	2.3	0.00e+00	0	49	104	0	60	1048570
2026-01-18 06:45:12.68	107.88	26.01	-83.5	-79.0	2.4	0.00e+00	0	49	104	0	60	1048572
2026-01-18 06:45:13.69	108.34	25.94	-83.5	-79.0	2.5	0.00e+00	0	49	104	0	60	1048574
2026-01-18 06:45:14.69	108.79	25.88	-83.1	-79.0	2.4	0.00e+00	0	49	104	0	60	1048570
2026-01-18 06:45:15.70	109.25	25.81	-83.1	-79.0	2.4	0.00e+00	0	49	104	0	60	1048574
2026-01-18 06:45:16.71	109.70	25.75	-83.5	-79.0	2.4	0.00e+00	0	49	104	0	60	1048575
2026-01-18 06:45:17.72	110.15	25.68	-83.5	-79.0	2.4	0.00e+00	0	49	104	0	60	1048574
2026-01-18 06:45:18.72	110.60	25.61	-83.5	-79.0	2.4	0.00e+00	0	49	104	0	60	1048574
2026-01-18 06:45:19.73	111.05	25.54	-83.1	-79.0	2.4	0.00e+00	0	49	104	0	60	1048573
2026-01-18 06:45:20.73	111.49	25.47	-83.1	-79.0	2.4	0.00e+00	0	49	104	0	60	1048572
2026-01-18 06:45:21.74	111.93	25.39	-83.5	-79.0	2.4	0.00e+00	0	49	104	0	60	1048573
2026-01-18 06:45:22.75	112.37	25.32	-83.5	-79.0	2.4	0.00e+00	0	49	104	0	60	1048574
2026-01-18 06:45:23.75	112.80	25.24	-83.1	-79.0	2.4	0.00e+00	0	49	104	0	60	1048571
2026-01-18 06:45:24.76	113.24	25.16	-83.1	-79.0	2.5	0.00e+00	0	49	104	0	60	1048575
2026-01-18 06:45:25.76	113.67	25.08	-83.5	-79.0	2.4	0.00e+00	0	49	104	0	60	1048575
2026-01-18 06:45:26.77	114.10	25.00	-83.5	-79.0	2.4	0.00e+00	0	49	104	0	60	1048574
2026-01-18 06:45:27.78	114.53	24.92	-83.5	-79.0	2.4	0.00e+00	0	49	104	0	60	1048571
2026-01-18 06:45:28.79	114.95	24.84	-83.1	-79.0	2.4	0.00e+00	0	49	104	0	60	1048571
2026-01-18 06:45:29.80	115.38	24.75	-83.1	-79.0	2.4	0.00e+00	0	49	104	0	60	1048573
2026-01-18 06:45:30.80	115.80	24.67	-83.5	-79.0	2.3	0.00e+00	0	49	104	0	60	1048568
2026-01-18 06:45:31.81	116.21	24.58	-83.5	-79.0	2.4	0.00e+00	0	49	104	0	60	1048564
2026-01-18 06:45:32.82	116.63	24.49	-83.5	-79.0	2.4	0.00e+00	0	49	104	0	60	1048573
2026-01-18 06:45:33.83	117.04	24.40	-82.8	-79.0	2.4	0.00e+00	0	49	104	0	60	1048573
2026-01-18 06:45:34.83	117.45	24.31	-83.1	-79.0	2.4	0.00e+00	0	49	104	0	60	1048574
2026-01-18 06:45:35.83	117.86	24.22	-83.5	-79.0	2.4	0.00e+00	0	49	104	0	60	1048575
2026-01-18 06:45:36.84	118.26	24.13	-83.5	-79.0	2.3	0.00e+00	0	49	104	0	60	1048574
2026-01-18 06:45:37.85	118.66	24.04	-83.5	-79.0	2.4	0.00e+00	0	49	104	0	60	1048575
2026-01-18 06:45:38.85	119.06	23.94	-82.8	-79.0	2.3	0.00e+00	0	49	104	0	60	1048572
2026-01-18 06:45:39.86	119.46	23.85	-83.5	-79.0	2.5	0.00e+00	0	49	104	0	60	1048573
2026-01-18 06:45:40.87	119.86	23.75	-83.5	-79.0	2.4	0.00e+00	0	49	104	0	60	1048571
2026-01-18 06:45:41.88	120.25	23.66	-83.5	-79.0	2.4	0.00e+00	0	49	104	0	60	1048575
2026-01-18 06:45:42.88	120.63	23.56	-83.5	-79.0	2.3	0.00e+00	0	49	104	0	60	1048567
2026-01-18 06:45:43.89	121.02	23.46	-83.1	-79.0	2.4	0.00e+00	0	49	104	0	60	1048575
2026-01-18 06:45:44.89	121.40	23.36	-83.5	-79.0	2.5	0.00e+00	0	49	104	0	60	1048572
2026-01-18 06:45:45.90	121.79	23.26	-83.5	-79.0	2.5	0.00e+00	0	49	104	0	60	1048567
2026-01-18 06:45:46.91	122.17	23.16	-83.5	-79.0	2.4	0.00e+00	0	49	104	0	60	1048573
2026-01-18 06:45:47.92	122.54	23.06	-83.1	-79.0	2.3	0.00e+00	0	49	104	0	60	1048573
2026-01-18 06:45:48.93	122.92	22.96	-83.1	-79.0	2.5	0.00e+00	0	49	104	0	60	1048566
2026-01-18 06:45:49.93	123.28	22.86	-83.5	-79.0	2.4	0.00e+00	0	49	104	0	60	1048572
2026-01-18 06:45:50.94	123.65	22.76	-83.5	-79.0	2.4	0.00e+00	0	49	104	0	60	1048574
2026-01-18 06:45:51.95	124.02	22.65	-83.5	-79.0	2.4	0.00e+00	0	49	104	0	60	1048571
2026-01-18 06:45:52.95	124.38	22.55	-83.1	-79.0	2.5	0.00e+00	0	49	104	0	60	1048571
2026-01-18 06:45:53.95	124.74	22.44	-83.5	-79.0	2.3	0.00e+00	0	49	104	0	60	1048573
2026-01-18 06:45:54.96	125.10	22.34	-83.5	-79.0	2.4	0.00e+00	0	49	104	0	60	1048573
2026-01-18 06:45:55.97	125.45	22.23	-83.5	-79.0	2.4	0.00e+00	0	49	104	0	60	1048575
2026-01-18 06:45:56.97	125.80	22.13	-83.5	-79.0	2.5	0.00e+00	0	49	104	0	60	1048571
2026-01-18 06:45:57.98	126.15	22.02	-83.1	-79.0	2.3	0.00e+00	0	49	104	0	60	1048575
2026-01-18 06:45:58.98	126.49	21.92	-83.1	-79.0	2.4	0.00e+00	0	49	104	0	60	1048574
2026-01-18 06:45:59.99	126.84	21.81	-83.5	-79.0	2.3	0.00e+00	0	49	104	0	60	1048574
2026-01-18 06:46:00.99	127.18	21.70	-83.5	-79.0	2.4	0.00e+00	0	49	104	0	60	1048575
2026-01-18 06:46:02.00	127.52	21.59	-83.1	-79.0	2.4	0.00e+00	0	49	104	0	60	1048574
2026-01-18 06:46:03.01	127.86	21.48	-83.1	-79.0	2.5	0.00e+00	0	49	104	0	60	1048574
2026-01-18 06:46:04.02	128.19	21.38	-83.5	-79.0	2.4	0.00e+00	0	49	104	0	60	1048574
2026-01-18 06:46:05.03	128.52	21.27	-83.5	-79.0	2.4	0.00e+00	0	49	104	0	60	1048575
2026-01-18 06:46:06.03	128.85	21.16	-83.5	-79.0	2.1	0.00e+00	0	49	104	0	60	1048575
2026-01-18 06:46:07.04	129.17	21.05	-83.1	-79.0	2.4	0.00e+00	0	49	104	0	60	1048565
2026-01-18 06:46:08.05	129.50	20.94	-83.5	-79.0	2.2	0.00e+00	0	49	104	0	60	1048570
2026-01-18 06:46:09.05	129.82	20.83	-83.5	-79.0	2.4	0.00e+00	0	49	104	0	60	1048575
2026-01-18 06:46:10.06	130.14	20.72	-83.5	-79.0	2.4	0.00e+00	0	49	104	0	60	1048575
2026-01-18 06:46:11.07	130.45	20.61	-83.5	-79.0	2.4	0.00e+00	0	49	104	0	60	1048572
2026-01-18 06:46:12.08	130.77	20.50	-82.8	-79.0	2.4	0.00e+00	0	49	104	0	60	1048572
2026-01-18 06:46:13.08	131.08	20.39	-83.5	-79.0	2.5	0.00e+00	0	49	104	0	60	1048575
2026-01-18 06:46:14.09	131.38	20.28	-83.5	-79.0	2.5	0.00e+00	0	49	104	0	60	1048569
2026-01-18 06:46:15.10	131.69	20.16	-83.5	-79.0	2.4	0.00e+00	0	49	104	0	60	1048574
2026-01-18 06:46:16.11	132.00	20.05	-83.5	-79.0	2.4	0.00e+00	0	49	104	0	60	1048574
2026-01-18 06:46:17.12	132.30	19.94	-83.1	-79.0	2.4	0.00e+00	0	49	104	0	60	1048572
2026-01-18 06:46:18.13	132.60	19.83	-83.5	-79.0	2.4	0.00e+00	0	49	104	0	60	1048573
2026-01-18 06:46:19.13	132.89	19.72	-83.5	-79.0	2.4	0.00e+00	0	49	104	0	60	1048566
2026-01-18 06:46:20.14	133.18	19.61	-83.5	-79.0	2.3	0.00e+00	0	49	104	0	60	1048575
2026-01-18 06:46:21.15	133.48	19.50	-83.1	-79.0	2.4	0.00e+00	0	49	104	0	60	1048565
2026-01-18 06:46:22.16	133.77	19.38	-83.1	-79.0	2.4	0.00e+00	0	49	104	0	60	1048571
2026-01-18 06:46:23.17	134.05	19.27	-83.5	-79.0	2.4	0.00e+00	0	49	104	0	60	1048575
2026-01-18 06:46:24.17	134.34	19.16	-83.5	-79.0	2.4	0.00e+00	0	49	104	0	60	1048574
2026-01-18 06:46:25.17	134.62	19.05	-83.5	-79.0	2.4	0.00e+00	0	49	104	0	60	1048575
2026-01-18 06:46:26.18	134.90	18.94	-83.1	-79.0	2.5	0.00e+00	0	49	104	0	60	1048575
2026-01-18 06:46:27.18	135.17	18.83	-83.5	-79.0	2.4	0.00e+00	0	49	104	0	60	1048571
2026-01-18 06:46:28.19	135.45	18.72	-83.5	-79.0	2.3	0.00e+00	0	49	104	0	60	1048575
2026-01-18 06:46:29.20	135.72	18.61	-83.5	-79.0	2.4	0.00e+00	0	49	104	0	60	1048570
2026-01-18 06:46:30.20	135.99	18.50	-83.5	-79.0	2.4	0.00e+00	0	49	104	0	60	1048573
2026-01-18 06:46:31.20	136.25	18.39	-82.8	-79.0	2.3	0.00e+00	0	49	104	0	60	1048575
2026-01-18 06:46:32.21	136.52	18.27	-83.1	-79.0	2.4	0.00e+00	0	49	104	0	60	1048573
2026-01-18 06:46:33.22	136.79	18.16	-83.5	-79.0	2.4	0.00e+00	0	49	104	0	60	1048574
2026-01-18 06:46:34.22	137.05	18.05	-83.5	-79.0	2.4	0.00e+00	0	49	104	0	60	1048565
2026-01-18 06:46:35.23	137.31	17.94	-83.5	-79.0	2.4	0.00e+00	0	49	104	0	60	1048575
2026-01-18 06:46:36.24	137.56	17.83	-83.1	-79.0	2.3	0.00e+00	0	49	104	0	60	1048568
2026-01-18 06:46:37.25	137.82	17.72	-83.1	-79.0	2.4	0.00e+00	0	49	104	0	60	1048573
2026-01-18 06:46:38.25	138.07	17.61	-83.5	-79.0	2.3	0.00e+00	0	49	104	0	60	1048574
2026-01-18 06:46:39.26	138.32	17.50	-83.5	-79.0	2.5	0.00e+00	0	49	104	0	60	1048575
2026-01-18 06:46:40.27	138.57	17.39	-83.5	-79.0	2.4	0.00e+00	0	49	104	0	60	1048573
2026-01-18 06:46:41.27	138.82	17.28	-83.1	-79.0	2.3	0.00e+00	0	49	104	0	60	1048573
2026-01-18 06:46:42.28	139.06	17.17	-83.5	-79.0	2.4	0.00e+00	0	49	104	0	60	1048573
2026-01-18 06:46:43.29	139.31	17.06	-83.5	-79.0	2.4	0.00e+00	0	49	104	0	60	1048575
2026-01-18 06:46:44.29	139.55	16.95	-83.5	-79.0	2.5	0.00e+00	0	49	104	0	60	1048572
2026-01-18 06:46:45.30	139.79	16.84	-83.1	-79.0	2.4	0.00e+00	0	49	104	0	60	1048575
2026-01-18 06:46:46.31	140.03	16.73	-83.1	-79.0	2.4	0.00e+00	0	49	104	0	60	1048575
2026-01-18 06:46:47.31	140.26	16.63	-83.5	-79.0	2.5	0.00e+00	0	49	104	0	60	1048575
2026-01-18 06:46:48.32	140.49	16.52	-83.5	-79.0	2.4	0.00e+00	0	49	104	0	60	1048573
2026-01-18 06:46:49.32	140.72	16.41	-83.5	-79.0	2.4	0.00e+00	0	49	104	0	60	1048575
2026-01-18 06:46:50.33	140.95	16.30	-83.1	-79.0	2.4	0.00e+00	0	49	104	0	60	1048574
2026-01-18 06:46:51.34	141.18	16.19	-83.5	-79.0	2.3	0.00e+00	0	49	104	0	60	1048571
2026-01-18 06:46:52.35	141.41	16.09	-83.5	-79.0	2.5	0.00e+00	0	49	104	0	60	1048574
2026-01-18 06:46:53.36	141.63	15.98	-83.5	-79.0	2.4	0.00e+00	0	49	104	0	60	1048573
2026-01-18 06:46:54.37	141.85	15.87	-83.1	-79.0	2.3	0.00e+00	0	49	104	0	60	1048574
2026-01-18 06:46:55.37	142.07	15.76	-83.1	-79.0	2.3	0.00e+00	0	49	104	0	60	1048575
2026-01-18 06:46:56.38	142.29	15.66	-83.5	-79.0	2.4	0.00e+00	0	49	104	0	60	1048575
2026-01-18 06:46:57.39	142.51	15.55	-83.5	-79.0	2.6	0.00e+00	0	49	104	0	60	1048572
2026-01-18 06:46:58.40	142.72	15.44	-83.5	-79.0	2.3	0.00e+00	0	49	104	0	60	1048563
2026-01-18 06:46:59.40	142.94	15.34	-83.5	-79.0	2.4	0.00e+00	0	49	104	0	60	1048572
2026-01-18 06:47:00.41	143.15	15.23	-82.8	-79.0	2.3	0.00e+00	0	49	104	0	60	1048573
2026-01-18 06:47:01.41	143.36	15.13	-83.5	-79.0	2.3	0.00e+00	0	49	104	0	60	1048571
2026-01-18 06:47:02.41	143.56	15.02	-83.5	-79.0	2.3	0.00e+00	0	49	104	0	60	1048575
2026-01-18 06:47:03.42	143.77	14.92	-83.5	-79.0	2.3	0.00e+00	0	49	104	0	60	1048574
2026-01-18 06:47:04.42	143.97	14.82	-82.8	-79.0	2.5	0.00e+00	0	49	104	0	60	1048575
2026-01-18 06:47:05.43	144.18	14.71	-83.5	-79.0	2.3	0.00e+00	0	49	104	0	60	1048573
2026-01-18 06:47:06.44	144.38	14.61	-83.5	-79.0	2.4	0.00e+00	0	49	104	0	60	1048571
2026-01-18 06:47:07.44	144.58	14.50	-83.5	-79.0	2.4	0.00e+00	0	49	104	0	60	1048574
2026-01-18 06:47:08.45	144.78	14.40	-83.5	-79.0	2.4	0.00e+00	0	49	104	0	60	1048569
2026-01-18 06:47:09.46	144.97	14.30	-83.1	-79.0	2.4	0.00e+00	0	49	104	0	60	1048575
2026-01-18 06:47:10.46	145.17	14.20	-83.1	-79.0	2.4	0.00e+00	0	49	104	0	60	1048573
2026-01-18 06:47:11.47	145.36	14.09	-83.5	-79.0	2.4	0.00e+00	0	49	104	0	60	1048574
2026-01-18 06:47:12.48	145.55	13.99	-83.5	-79.0	2.4	0.00e+00	0	49	104	0	60	1048574
2026-01-18 06:47:13.49	145.75	13.89	-83.5	-79.0	2.4	0.00e+00	0	49	104	0	60	1048575
2026-01-18 06:47:14.49	145.93	13.79	-83.1	-79.0	2.5	0.00e+00	0	49	104	0	60	1048573
2026-01-18 06:47:15.50	146.12	13.69	-83.5	-79.0	2.4	0.00e+00	0	49	104	0	60	1048575
2026-01-18 06:47:16.51	146.31	13.58	-83.5	-79.0	2.4	0.00e+00	0	49	104	0	60	1048574
2026-01-18 06:47:17.51	146.49	13.48	-83.5	-79.0	2.3	0.00e+00	0	49	104	0	60	1048575
2026-01-18 06:47:18.52	146.67	13.38	-83.1	-79.0	2.4	0.00e+00	0	49	104	0	60	1048573
2026-01-18 06:47:19.53	146.86	13.28	-83.5	-79.0	2.3	0.00e+00	0	49	104	0	60	1048575
2026-01-18 06:47:20.53	147.04	13.19	-83.5	-79.0	2.5	0.00e+00	0	49	104	0	60	1048575
2026-01-18 06:47:21.54	147.21	13.09	-83.5	-79.0	2.5	0.00e+00	0	49	104	0	60	1048571
2026-01-18 06:47:22.54	147.39	12.99	-83.5	-79.0	2.5	0.00e+00	0	49	104	0	60	1048572
2026-01-18 06:47:23.55	147.57	12.89	-83.1	-79.0	2.5	0.00e+00	0	49	104	0	60	1048575
2026-01-18 06:47:24.55	147.74	12.79	-83.5	-79.0	2.4	0.00e+00	0	49	104	0	60	1048575
2026-01-18 06:47:25.56	147.92	12.69	-83.5	-79.0	2.4	0.00e+00	0	49	104	0	60	1048573
2026-01-18 06:47:26.57	148.09	12.59	-83.5	-79.0	2.4	0.00e+00	0	49	104	0	60	1048573
2026-01-18 06:47:27.58	148.26	12.50	-83.1	-79.0	2.4	0.00e+00	0	49	104	0	60	1048569
2026-01-18 06:47:28.58	148.43	12.40	-83.1	-79.0	2.4	0.00e+00	0	49	104	0	60	1048572
2026-01-18 06:47:29.59	148.60	12.30	-83.5	-79.0	2.4	0.00e+00	0	49	104	0	60	1048575
2026-01-18 06:47:30.60	148.76	12.20	-83.5	-79.0	2.3	0.00e+00	0	49	104	0	60	1048573
2026-01-18 06:47:31.60	148.93	12.11	-83.5	-79.0	2.3	0.00e+00	0	49	104	0	60	1048571
2026-01-18 06:47:32.61	149.09	12.01	-83.1	-79.0	2.5	0.00e+00	0	49	104	0	60	1048570
2026-01-18 06:47:33.62	149.26	11.92	-83.1	-79.0	2.4	0.00e+00	0	49	104	0	60	1048575
2026-01-18 06:47:34.63	149.42	11.82	-83.5	-79.0	2.4	0.00e+00	0	49	104	0	60	1048570
2026-01-18 06:47:35.63	149.58	11.73	-83.5	-79.0	2.4	0.00e+00	0	49	104	0	60	1048575
2026-01-18 06:47:36.64	149.74	11.63	-83.5	-79.0	2.4	0.00e+00	0	49	104	0	60	1048575
2026-01-18 06:47:37.65	149.90	11.54	-83.1	-79.0	2.4	0.00e+00	0	49	104	0	60	1048575
2026-01-18 06:47:38.65	150.05	11.44	-83.5	-79.0	2.4	0.00e+00	0	49	104	0	60	1048572
2026-01-18 06:47:39.66	150.21	11.35	-83.5	-79.0	2.5	0.00e+00	0	49	104	0	60	1048574
2026-01-18 06:47:40.67	150.36	11.26	-83.5	-79.0	2.4	0.00e+00	0	49	104	0	60	1048570
2026-01-18 06:47:41.68	150.52	11.16	-83.5	-79.0	2.4	0.00e+00	0	49	104	0	60	1048574
2026-01-18 06:47:42.69	150.67	11.07	-83.1	-79.0	2.3	0.00e+00	0	49	104	0	60	1048568
2026-01-18 06:47:43.70	150.82	10.98	-83.1	-79.0	2.4	0.00e+00	0	49	104	0	60	1048575
2026-01-18 06:47:44.70	150.97	10.88	-83.5	-79.0	2.4	0.00e+00	0	49	104	0	60	1048571
2026-01-18 06:47:45.71	151.12	10.79	-83.5	-79.0	2.4	0.00e+00	0	49	104	0	60	1048571
2026-01-18 06:47:46.72	151.27	10.70	-83.1	-79.0	2.4	0.00e+00	0	49	104	0	60	1048575
2026-01-18 06:47:47.72	151.41	10.61	-83.1	-79.0	2.5	0.00e+00	0	49	104	0	60	1048575
2026-01-18 06:47:48.73	151.56	10.52	-83.5	-79.0	2.4	0.00e+00	0	49	104	0	60	1048573
2026-01-18 06:47:49.74	151.71	10.43	-83.5	-79.0	2.5	0.00e+00	0	49	104	0	60	1048575
2026-01-18 06:47:50.75	151.85	10.34	-83.5	-79.0	2.4	0.00e+00	0	49	104	0	60	1048569
2026-01-18 06:47:51.75	151.99	10.25	-82.8	-79.0	2.5	0.00e+00	0	49	104	0	60	1048575
2026-01-18 06:47:52.76	152.13	10.16	-83.1	-79.0	2.3	0.00e+00	0	49	104	0	60	1048569
2026-01-18 06:47:53.76	152.27	10.07	-83.5	-79.0	2.5	0.00e+00	0	49	104	0	60	1048572
2026-01-18 06:47:54.77	152.41	9.98	-83.5	-79.0	2.4	0.00e+00	0	49	104	0	60	1048571
2026-01-18 06:47:55.78	152.55	9.89	-83.5	-79.0	2.5	0.00e+00	0	49	104	0	60	1048571
2026-01-18 06:47:56.79	152.69	9.80	-83.1	-79.0	2.4	0.00e+00	0	49	104	0	60	1048575
2026-01-18 06:47:57.80	152.83	9.71	-83.5	-79.0	2.4	0.00e+00	0	49	104	0	60	1048575
2026-01-18 06:47:58.80	152.96	9.62	-83.5	-79.0	2.5	0.00e+00	0	49	104	0	60	1048573
2026-01-18 06:47:59.81	153.10	9.54	-83.5	-79.0	2.5	0.00e+00	0	49	104	0	60	1048573
2026-01-18 06:48:00.80	153.23	9.45	-83.5	-79.0	2.4	0.00e+00	0	49	104	0	60	1048571
2026-01-18 06:48:01.81	153.36	9.36	-83.1	-79.0	2.3	0.00e+00	0	49	104	0	60	1048573
2026-01-18 06:48:02.82	153.49	9.28	-83.5	-79.0	2.5	0.00e+00	0	49	104	0	60	1048568
2026-01-18 06:48:03.83	153.63	9.19	-83.5	-79.0	2.4	0.00e+00	0	49	104	0	60	1048575
2026-01-18 06:48:04.83	153.75	9.10	-83.5	-79.0	2.4	0.00e+00	0	49	104	0	60	1048575
2026-01-18 06:48:05.84	153.88	9.02	-83.1	-79.0	2.4	0.00e+00	0	49	104	0	60	1048575
2026-01-18 06:48:06.84	154.01	8.93	-83.1	-79.0	2.5	0.00e+00	0	49	104	0	60	1048574
2026-01-18 06:48:07.85	154.14	8.85	-83.5	-79.0	2.4	0.00e+00	0	49	104	0	60	1048572
2026-01-18 06:48:08.85	154.26	8.76	-83.5	-79.0	2.4	0.00e+00	0	49	104	0	60	1048573
2026-01-18 06:48:09.86	154.39	8.68	-83.5	-79.0	2.4	0.00e+00	0	49	104	0	60	1048575
2026-01-18 06:48:10.86	154.51	8.59	-83.5	-79.0	2.4	0.00e+00	0	49	104	0	60	1048575
2026-01-18 06:48:11.87	154.64	8.51	-83.1	-79.0	2.4	0.00e+00	0	49	104	0	60	1048569
2026-01-18 06:48:12.87	154.76	8.42	-83.5	-79.0	2.4	0.00e+00	0	49	104	0	60	1048571
2026-01-18 06:48:13.88	154.88	8.34	-83.5	-79.0	2.4	0.00e+00	0	49	104	0	60	1048572
2026-01-18 06:48:14.89	155.00	8.26	-83.5	-79.0	2.2	0.00e+00	0	49	104	0	60	1048575
2026-01-18 06:48:15.90	155.13	8.17	-83.1	-79.0	2.4	0.00e+00	0	49	104	0	60	1048575
2026-01-18 06:48:16.91	155.25	8.09	-83.5	-79.0	2.3	0.00e+00	0	49	104	0	60	1048575
2026-01-18 06:48:17.91	155.36	8.01	-83.5	-79.0	2.4	0.00e+00	0	49	104	0	60	1048575
2026-01-18 06:48:18.92	155.48	7.92	-83.5	-79.0	2.4	0.00e+00	0	49	104	0	60	1048574
2026-01-18 06:48:19.93	155.60	7.84	-83.5	-79.0	2.4	0.00e+00	0	49	104	0	60	1048574
2026-01-18 06:48:20.94	155.72	7.76	-83.1	-79.0	2.5	0.00e+00	0	49	104	0	60	1048574
2026-01-18 06:48:21.94	155.83	7.68	-83.5	-79.0	2.5	0.00e+00	0	49	104	0	60	1048575
2026-01-18 06:48:22.95	155.95	7.60	-83.5	-79.0	2.3	0.00e+00	0	49	104	0	60	1048571
2026-01-18 06:48:23.96	156.06	7.52	-83.5	-79.0	2.4	0.00e+00	0	49	104	0	60	1048575
2026-01-18 06:48:24.97	156.17	7.44	-83.1	-79.0	2.4	0.00e+00	0	49	104	0	60	1048573
2026-01-18 06:48:25.97	156.29	7.36	-83.1	-79.0	2.5	0.00e+00	0	49	104	0	60	1048575
2026-01-18 06:48:26.98	156.40	7.27	-83.5	-79.0	2.3	0.00e+00	0	49	104	0	60	1048574
2026-01-18 06:48:27.98	156.51	7.20	-83.5	-79.0	2.3	0.00e+00	0	49	104	0	60	1048575
2026-01-18 06:48:28.98	156.62	7.12	-83.5	-79.0	2.3	0.00e+00	0	49	104	0	60	1048574
2026-01-18 06:48:29.99	156.73	7.04	-83.1	-79.0	2.4	0.00e+00	0	49	104	0	60	1048574
2026-01-18 06:48:31.00	156.84	6.96	-83.5	-79.0	2.4	0.00e+00	0	49	104	0	60	1048575
2026-01-18 06:48:32.01	156.95	6.88	-83.5	-79.0	2.5	0.00e+00	0	49	104	0	60	1048573
2026-01-18 06:48:33.01	157.05	6.80	-83.5	-79.0	2.4	0.00e+00	0	49	104	0	60	1048572
2026-01-18 06:48:34.02	157.16	6.72	-83.5	-79.0	2.4	0.00e+00	0	49	104	0	60	1048569
2026-01-18 06:48:35.03	157.27	6.64	-83.1	-79.0	2.4	0.00e+00	0	49	104	0	60	1048574
2026-01-18 06:48:36.04	157.37	6.56	-83.5	-79.0	2.5	0.00e+00	0	49	104	0	60	1048574
2026-01-18 06:48:37.04	157.48	6.49	-83.5	-79.0	2.3	0.00e+00	0	49	104	0	60	1048575
2026-01-18 06:48:38.04	157.58	6.41	-83.5	-79.0	2.4	0.00e+00	0	49	104	0	60	1048574
2026-01-18 06:48:39.05	157.68	6.33	-83.1	-79.0	2.5	0.00e+00	0	49	104	0	60	1048570
2026-01-18 06:48:40.06	157.79	6.25	-82.8	-79.0	2.4	0.00e+00	0	49	104	0	60	1048572
2026-01-18 06:48:41.06	157.89	6.18	-83.5	-79.0	2.4	0.00e+00	0	49	104	0	60	1048574
2026-01-18 06:48:42.07	157.99	6.10	-83.5	-79.0	2.5	0.00e+00	0	49	104	0	60	1048569
2026-01-18 06:48:43.08	158.09	6.02	-83.5	-79.0	2.4	0.00e+00	0	49	104	0	60	1048563
2026-01-18 06:48:44.09	158.19	5.95	-83.1	-79.0	2.5	0.00e+00	0	49	104	0	60	1048575
2026-01-18 06:48:45.10	158.29	5.87	-83.1	-79.0	2.6	0.00e+00	0	49	104	0	60	1048572
2026-01-18 06:48:46.11	158.39	5.80	-83.5	-79.0	2.5	0.00e+00	0	49	104	0	60	1048569
2026-01-18 06:48:47.12	158.49	5.72	-83.5	-79.0	2.6	0.00e+00	0	49	104	0	60	1048573
2026-01-18 06:48:48.13	158.59	5.64	-83.5	-79.0	2.5	0.00e+00	0	49	104	0	60	1048572
2026-01-18 06:48:49.13	158.69	5.57	-83.1	-79.0	2.4	0.00e+00	0	49	104	0	60	1048572
2026-01-18 06:48:50.14	158.78	5.50	-83.1	-79.0	2.3	0.00e+00	0	49	104	0	60	1048571
2026-01-18 06:48:51.15	158.88	5.42	-83.5	-79.0	2.4	0.00e+00	0	49	104	0	60	1048567
2026-01-18 06:48:52.16	158.98	5.35	-83.5	-79.0	2.3	0.00e+00	0	49	104	0	60	1048573
2026-01-18 06:48:53.17	159.07	5.27	-83.1	-79.0	2.4	0.00e+00	0	49	104	0	60	1048568
2026-01-18 06:48:54.17	159.16	5.20	-82.8	-79.0	2.4	0.00e+00	0	49	104	0	60	1048574
2026-01-18 06:48:55.18	159.26	5.12	-83.5	-79.0	2.4	0.00e+00	0	49	104	0	60	1048575
2026-01-18 06:48:56.19	159.35	5.05	-83.5	-79.0	2.5	0.00e+00	0	49	104	0	60	1048575
2026-01-18 06:48:57.20	159.44	4.98	-83.5	-79.0	2.3	0.00e+00	0	49	104	0	60	1048575
2026-01-18 06:48:58.21	159.54	4.90	-83.1	-79.0	2.4	0.00e+00	0	49	104	0	60	1048573
2026-01-18 06:48:59.21	159.63	4.83	-83.1	-79.0	2.4	0.00e+00	0	49	104	0	60	1048575
2026-01-18 06:49:00.22	159.72	4.76	-83.5	-79.0	2.4	0.00e+00	0	49	104	0	60	1048575
2026-01-18 06:49:01.22	159.81	4.69	-83.5	-79.0	2.4	0.00e+00	0	49	104	0	60	1048573
2026-01-18 06:49:02.22	159.90	4.62	-83.5	-79.0	2.4	0.00e+00	0	49	104	0	60	1048570
2026-01-18 06:49:03.23	159.99	4.54	-83.1	-79.0	2.4	0.00e+00	0	49	104	0	60	1048575
2026-01-18 06:49:04.23	160.08	4.47	-83.5	-79.0	2.3	0.00e+00	0	49	104	0	60	1048575
2026-01-18 06:49:05.24	160.16	4.40	-83.5	-79.0	2.4	0.00e+00	0	49	104	0	60	1048570
2026-01-18 06:49:06.24	160.25	4.33	-83.5	-79.0	2.3	0.00e+00	0	49	104	0	60	1048575
2026-01-18 06:49:07.25	160.34	4.26	-83.5	-79.0	2.4	0.00e+00	0	49	104	0	60	1048574
2026-01-18 06:49:08.26	160.43	4.19	-83.1	-79.0	2.4	0.00e+00	0	49	104	0	60	1048575
2026-01-18 06:49:09.27	160.51	4.12	-83.5	-79.0	2.4	0.00e+00	0	49	104	0	60	1048575
2026-01-18 06:49:10.27	160.60	4.05	-83.5	-79.0	2.4	0.00e+00	0	49	104	0	60	1048575
2026-01-18 06:49:11.28	160.68	3.98	-83.5	-79.0	2.4	0.00e+00	0	49	104	0	60	1048568
2026-01-18 06:49:12.29	160.77	3.91	-83.1	-79.0	2.5	0.00e+00	0	49	104	0	60	1048574
2026-01-18 06:49:13.29	160.85	3.84	-83.1	-79.0	2.5	0.00e+00	0	49	104	0	60	1048566
2026-01-18 06:49:14.29	160.94	3.77	-83.5	-79.0	2.3	0.00e+00	0	49	104	0	60	1048574
2026-01-18 06:49:15.30	161.02	3.70	-83.5	-79.0	2.4	0.00e+00	0	49	104	0	60	1048574
2026-01-18 06:49:16.31	161.10	3.63	-83.5	-79.0	2.3	0.00e+00	0	49	104	0	60	1048571
2026-01-18 06:49:17.32	161.18	3.56	-83.1	-79.0	2.4	0.00e+00	0	49	104	0	60	1048573
2026-01-18 06:49:18.33	161.27	3.49	-83.5	-79.0	2.3	0.00e+00	0	49	104	0	60	1048570
2026-01-18 06:49:19.33	161.35	3.42	-83.5	-79.0	2.5	0.00e+00	0	49	104	0	60	1048575
2026-01-18 06:49:20.34	161.43	3.35	-83.5	-79.0	2.4	0.00e+00	0	49	104	0	60	1048567
2026-01-18 06:49:21.35	161.51	3.28	-83.5	-79.0	2.5	0.00e+00	0	49	104	0	60	1048575
2026-01-18 06:49:22.35	161.59	3.22	-83.1	-79.0	2.4	0.00e+00	0	49	104	0	60	1048574
2026-01-18 06:49:23.36	161.67	3.15	-83.1	-79.0	2.4	0.00e+00	0	49	104	0	60	1048574
2026-01-18 06:49:24.37	161.75	3.08	-83.5	-79.0	2.4	0.00e+00	0	49	104	0	60	1048575
2026-01-18 06:49:25.38	161.83	3.01	-83.5	-79.0	2.4	0.00e+00	0	49	104	0	60	1048568
2026-01-18 06:49:26.39	161.91	2.94	-83.5	-79.0	2.4	0.00e+00	0	49	104	0	60	1048567
2026-01-18 06:49:27.39	161.98	2.88	-83.1	-79.0	2.4	0.00e+00	0	49	104	0	60	1048575
2026-01-18 06:49:28.40	162.06	2.81	-83.5	-79.0	2.4	0.00e+00	0	49	104	0	60	1048575
2026-01-18 06:49:29.40	162.14	2.74	-83.5	-79.0	2.4	0.00e+00	0	49	104	0	60	1048575
2026-01-18 06:49:30.41	162.21	2.68	-83.5	-79.0	2.3	0.00e+00	0	49	104	0	60	1048572
2026-01-18 06:49:31.41	162.29	2.61	-83.5	-79.0	2.3	0.00e+00	0	49	104	0	60	1048575
2026-01-18 06:49:32.42	162.37	2.54	-83.1	-79.0	2.3	0.00e+00	0	49	104	0	60	1048571
2026-01-18 06:49:33.43	162.44	2.48	-83.5	-79.0	2.3	0.00e+00	0	49	104	0	60	1048575
2026-01-18 06:49:34.43	162.52	2.41	-83.5	-79.0	2.4	0.00e+00	0	49	104	0	60	1048575
2026-01-18 06:49:35.44	162.59	2.35	-83.5	-79.0	2.3	0.00e+00	0	49	104	0	60	1048571
2026-01-18 06:49:36.45	162.67	2.28	-83.1	-79.0	2.4	0.00e+00	0	49	104	0	60	1048575
2026-01-18 06:49:37.45	162.74	2.21	-83.1	-79.0	2.4	0.00e+00	0	49	104	0	60	1048570
2026-01-18 06:49:38.46	162.81	2.15	-83.5	-79.0	2.4	0.00e+00	0	49	104	0	60	1048572
2026-01-18 06:49:39.47	162.89	2.08	-83.5	-79.0	2.4	0.00e+00	0	49	104	0	60	1048568
2026-01-18 06:49:40.48	162.96	2.02	-83.1	-79.0	2.4	0.00e+00	0	49	104	0	60	1048575
2026-01-18 06:49:41.49	163.03	1.95	-83.1	-79.0	2.3	0.00e+00	0	49	104	0	60	1048573
2026-01-18 06:49:42.49	163.10	1.89	-83.5	-79.0	2.3	0.00e+00	0	49	104	0	60	1048575
2026-01-18 06:49:43.50	163.17	1.82	-83.5	-79.0	2.3	0.00e+00	0	49	104	0	60	1048568
2026-01-18 06:49:44.51	163.25	1.76	-83.5	-79.0	2.4	0.00e+00	0	49	104	0	60	1048575
2026-01-18 06:49:45.51	163.32	1.70	-83.1	-79.0	2.4	0.00e+00	0	49	104	0	60	1048575
2026-01-18 06:49:46.52	163.39	1.63	-83.1	-79.0	2.5	0.00e+00	0	49	104	0	60	1048574
2026-01-18 06:49:47.52	163.46	1.57	-83.5	-79.0	2.4	0.00e+00	0	49	104	0	60	1048574
2026-01-18 06:49:48.53	163.53	1.50	-83.5	-79.0	2.5	0.00e+00	0	49	104	0	60	1048574
2026-01-18 06:49:49.54	163.59	1.44	-83.5	-79.0	2.4	0.00e+00	0	49	104	0	60	1048573
2026-01-18 06:49:50.54	163.66	1.38	-83.5	-79.0	2.5	0.00e+00	0	49	104	0	60	1048575
2026-01-18 06:49:51.55	163.73	1.31	-83.5	-79.0	2.5	0.00e+00	0	49	104	0	60	1048574
2026-01-18 06:49:52.56	163.80	1.25	-83.5	-79.0	2.5	0.00e+00	0	49	104	0	60	1048572
2026-01-18 06:49:53.56	163.87	1.19	-83.5	-79.0	2.4	0.00e+00	0	49	104	0	60	1048573
2026-01-18 06:49:54.57	163.94	1.12	-83.5	-79.0	2.5	0.00e+00	0	49	104	0	60	1048574
2026-01-18 06:49:55.58	164.00	1.06	-83.1	-79.0	2.4	0.00e+00	0	49	104	0	60	1048575
2026-01-18 06:49:56.59	164.07	1.00	-83.1	-79.0	2.4	0.00e+00	0	49	104	0	60	1048573
2026-01-18 06:49:57.60	164.14	0.94	-83.5	-79.0	2.4	0.00e+00	0	49	104	0	60	1048573
2026-01-18 06:49:58.61	164.20	0.87	-83.5	-79.0	2.4	0.00e+00	0	49	104	0	60	1048574
2026-01-18 06:49:59.62	164.27	0.81	-83.1	-79.0	2.4	0.00e+00	0	49	104	0	60	1048574
2026-01-18 06:50:00.62	164.33	0.75	-83.1	-79.0	2.5	0.00e+00	0	49	104	0	60	1048573
2026-01-18 06:50:01.62	164.40	0.69	-83.5	-79.0	2.4	0.00e+00	0	49	104	0	60	1048573
2026-01-18 06:50:02.63	164.46	0.63	-83.5	-79.0	2.4	0.00e+00	0	49	104	0	60	1048572
2026-01-18 06:50:03.63	164.53	0.57	-83.5	-79.0	2.4	0.00e+00	0	49	104	0	60	1048575
2026-01-18 06:50:04.64	164.59	0.50	-83.5	-79.0	2.3	0.00e+00	0	49	104	0	60	1048574
2026-01-18 06:50:05.65	164.66	0.44	-83.1	-79.0	2.4	0.00e+00	0	49	104	0	60	1048573
2026-01-18 06:50:06.65	164.72	0.38	-83.5	-79.0	2.4	0.00e+00	0	49	104	0	60	1048567
2026-01-18 06:50:07.65	164.78	0.32	-83.5	-79.0	2.4	0.00e+00	0	49	104	0	60	1048574
2026-01-18 06:50:08.66	164.84	0.26	-83.5	-79.0	2.4	0.00e+00	0	49	104	0	60	1048575
2026-01-18 06:50:09.67	164.91	0.20	-83.5	-79.0	2.4	0.00e+00	0	49	104	0	60	1048572
2026-01-18 06:50:10.68	164.97	0.14	-83.1	-79.0	2.4	0.00e+00	0	49	104	0	60	1048571
2026-01-18 06:50:11.69	165.03	0.08	-83.5	-79.0	2.4	0.00e+00	0	49	104	0	60	1048571
2026-01-18 06:50:12.69	165.09	0.02	-83.5	-79.0	2.4	0.00e+00	0	49	104	0	60	1048574
2026-01-18 06:50:13.70	165.16	-0.04	-83.5	-79.0	2.4	0.00e+00	0	49	104	0	60	1048574
2026-01-18 06:50:14.71	165.22	-0.10	-83.1	-79.0	2.4	0.00e+00	0	49	104	0	60	1048575

#Closed at: 2026-01-18 06:50:14
#Recorded file [0 MB]: D:/Data/35015_260118_093910.dat