passes_logs/2026/01/18/R3.2S-Naryan-Mar/R3.2S-Naryan-Mar__20260118_011230_FENGYUN_3D_rec.log

#Pass ID: 20260118_011230_FENGYUN 3D
#Satellite: FENGYUN 3D
#Configuration: FENGYUN 3D
#almurnet v.1.7.20240730
#Start time: 2026-01-18 01:12:31

#Version: 2.2.20231116
#Station: R3.2S-Naryan-Mar
#Location: 53.008057 lon 67.646978 lat
#TLE: 1 43010U 17072A   26017.25882587  .00000461  00000+0  23963-3 0  9992
#TLE: 2 43010  98.9934 349.1096 0002357 104.0487 256.0951 14.19697152423579

#Time	Az	El	Level	Level2	SNR	BER	BlckErr	Temp	State	Recorded	gain1	gain2
2026-01-18 01:12:31.70	23.17	0.09	-84.3	-88.8	1.9	3.11e+01	0	46	0	0	60	1048572
2026-01-18 01:12:32.71	23.18	0.15	-85.2	-88.6	3.0	6.43e-01	0	47	104	0	60	1048574
2026-01-18 01:12:33.71	23.19	0.21	-85.2	-88.6	3.1	7.62e-01	0	47	104	0	60	1048567
2026-01-18 01:12:34.71	23.19	0.27	-85.2	-88.6	3.0	7.63e-01	0	47	104	0	60	1048575
2026-01-18 01:12:35.71	23.20	0.33	-85.2	-88.6	3.0	7.61e-01	0	47	104	0	60	1048575
2026-01-18 01:12:36.72	23.21	0.39	-85.2	-88.6	3.3	7.63e-01	0	47	104	0	60	1048572
2026-01-18 01:12:37.73	23.22	0.46	-84.7	-88.6	3.6	7.64e-01	0	47	104	0	60	1048573
2026-01-18 01:12:38.73	23.22	0.52	-84.7	-88.6	3.0	7.63e-01	0	47	104	0	60	1048570
2026-01-18 01:12:39.74	23.23	0.58	-85.2	-88.6	3.1	7.62e-01	0	47	104	0	60	1048573
2026-01-18 01:12:40.75	23.24	0.64	-85.2	-88.6	3.5	7.61e-01	0	47	104	0	60	1048573
2026-01-18 01:12:41.76	23.25	0.70	-85.2	-88.6	3.7	7.63e-01	0	47	104	0	60	1048575
2026-01-18 01:12:42.77	23.25	0.76	-85.2	-88.6	2.9	7.64e-01	0	47	104	0	60	1048574
2026-01-18 01:12:43.77	23.26	0.82	-85.2	-88.6	3.2	7.63e-01	0	47	104	0	60	1048573
2026-01-18 01:12:44.78	23.27	0.88	-85.2	-88.6	3.1	7.64e-01	0	47	104	0	60	1048571
2026-01-18 01:12:45.79	23.28	0.95	-85.2	-88.6	3.3	7.64e-01	0	47	104	0	60	1048575
2026-01-18 01:12:46.80	23.29	1.01	-84.7	-88.6	3.2	7.63e-01	0	47	104	0	60	1048575
2026-01-18 01:12:47.80	23.29	1.07	-85.2	-88.6	2.9	7.64e-01	0	47	104	0	60	1048574
2026-01-18 01:12:48.80	23.30	1.13	-85.2	-88.6	3.5	7.64e-01	0	47	104	0	60	1048574
2026-01-18 01:12:49.81	23.31	1.19	-85.2	-88.6	2.6	7.65e-01	0	47	104	0	60	1048575
2026-01-18 01:12:50.80	23.32	1.26	-85.2	-88.6	2.8	7.63e-01	0	47	104	0	60	1048575
2026-01-18 01:12:51.81	23.32	1.32	-85.2	-88.6	3.2	7.64e-01	0	47	104	0	60	1048573
2026-01-18 01:12:52.82	23.33	1.38	-85.2	-88.6	3.0	7.63e-01	0	47	104	0	60	1048574
2026-01-18 01:12:53.83	23.34	1.44	-85.2	-88.6	3.0	7.63e-01	0	47	104	0	60	1048571
2026-01-18 01:12:54.83	23.35	1.51	-85.2	-88.6	3.1	7.64e-01	0	47	104	0	60	1048573
2026-01-18 01:12:55.84	23.35	1.57	-85.2	-88.6	3.3	7.63e-01	0	47	104	0	60	1048572
2026-01-18 01:12:56.84	23.36	1.63	-85.2	-88.6	3.1	7.63e-01	0	47	104	0	60	1048575
2026-01-18 01:12:57.85	23.37	1.70	-85.2	-88.6	3.0	7.65e-01	0	47	104	0	60	1048575
2026-01-18 01:12:58.85	23.38	1.76	-85.2	-88.6	3.2	7.64e-01	0	47	104	0	60	1048572
2026-01-18 01:12:59.85	23.39	1.82	-85.2	-88.6	2.9	7.63e-01	0	47	104	0	60	1048570
2026-01-18 01:13:00.86	23.39	1.89	-85.2	-88.6	3.0	7.63e-01	0	47	104	0	60	1048575
2026-01-18 01:13:01.87	23.40	1.95	-84.7	-88.6	3.4	7.63e-01	0	47	104	0	60	1048567
2026-01-18 01:13:02.87	23.41	2.02	-85.2	-88.6	3.3	7.63e-01	0	47	104	0	60	1048575
2026-01-18 01:13:03.87	23.42	2.08	-85.2	-88.6	2.9	7.64e-01	0	47	104	0	60	1048566
2026-01-18 01:13:04.88	23.43	2.14	-85.2	-88.6	3.0	7.61e-01	0	47	104	0	60	1048570
2026-01-18 01:13:05.88	23.43	2.21	-85.2	-88.6	3.3	7.65e-01	0	47	104	0	60	1048575
2026-01-18 01:13:06.89	23.44	2.27	-84.7	-88.6	3.1	7.62e-01	0	47	104	0	60	1048572
2026-01-18 01:13:07.89	23.45	2.34	-85.2	-88.6	3.1	7.63e-01	0	47	104	0	60	1048575
2026-01-18 01:13:08.90	23.46	2.40	-85.2	-88.6	3.1	7.63e-01	0	47	104	0	60	1048574
2026-01-18 01:13:09.90	23.47	2.47	-85.2	-88.6	3.4	7.63e-01	0	47	104	0	60	1048574
2026-01-18 01:13:10.91	23.47	2.53	-84.7	-88.6	2.9	7.64e-01	0	47	104	0	60	1048574
2026-01-18 01:13:11.91	23.48	2.60	-84.7	-88.6	2.9	7.64e-01	0	47	104	0	60	1048575
2026-01-18 01:13:12.92	23.49	2.66	-85.2	-88.6	3.1	7.61e-01	0	47	104	0	60	1048575
2026-01-18 01:13:13.92	23.50	2.73	-85.2	-88.6	3.1	7.63e-01	0	47	104	0	60	1048572
2026-01-18 01:13:14.93	23.51	2.79	-85.2	-88.6	2.9	7.63e-01	0	47	104	0	60	1048573
2026-01-18 01:13:15.94	23.51	2.86	-84.7	-88.6	3.5	7.64e-01	0	47	104	0	60	1048574
2026-01-18 01:13:16.95	23.52	2.93	-85.2	-88.6	3.4	7.64e-01	0	47	104	0	60	1048571
2026-01-18 01:13:17.96	23.53	2.99	-85.2	-88.6	3.0	7.64e-01	0	47	104	0	60	1048575
2026-01-18 01:13:18.97	23.54	3.06	-85.2	-88.6	3.0	7.63e-01	0	47	104	0	60	1048571
2026-01-18 01:13:19.97	23.55	3.13	-85.2	-88.6	3.6	7.62e-01	0	47	104	0	60	1048571
2026-01-18 01:13:20.98	23.55	3.19	-85.2	-88.6	3.6	7.64e-01	0	47	104	0	60	1048573
2026-01-18 01:13:21.98	23.56	3.26	-85.2	-88.6	3.1	7.63e-01	0	47	104	0	60	1048575
2026-01-18 01:13:22.99	23.57	3.33	-85.2	-88.6	3.1	7.63e-01	0	47	104	0	60	1048575
2026-01-18 01:13:23.99	23.58	3.39	-85.2	-88.6	3.0	7.62e-01	0	47	104	0	60	1048573
2026-01-18 01:13:24.99	23.59	3.46	-85.2	-88.6	3.0	7.62e-01	0	47	104	0	60	1048573
2026-01-18 01:13:26.00	23.60	3.53	-85.2	-88.6	2.9	7.65e-01	0	47	104	0	60	1048575
2026-01-18 01:13:27.01	23.60	3.60	-85.2	-88.6	3.3	7.64e-01	0	47	104	0	60	1048570
2026-01-18 01:13:28.01	23.61	3.67	-85.2	-88.6	3.6	7.64e-01	0	47	104	0	60	1048574
2026-01-18 01:13:29.01	23.62	3.73	-85.2	-88.6	2.9	7.63e-01	0	47	104	0	60	1048572
2026-01-18 01:13:30.02	23.63	3.80	-85.2	-88.6	3.0	7.63e-01	0	47	104	0	60	1048571
2026-01-18 01:13:31.02	23.64	3.87	-85.2	-88.6	3.1	7.63e-01	0	47	104	0	60	1048571
2026-01-18 01:13:32.03	23.65	3.94	-85.2	-88.6	3.1	7.65e-01	0	47	104	0	60	1048573
2026-01-18 01:13:33.04	23.65	4.01	-85.2	-88.6	3.6	7.64e-01	0	47	104	0	60	1048573
2026-01-18 01:13:34.05	23.66	4.08	-85.2	-88.6	3.3	7.63e-01	0	47	104	0	60	1048575
2026-01-18 01:13:35.05	23.67	4.15	-84.7	-88.6	3.2	7.64e-01	0	47	104	0	60	1048573
2026-01-18 01:13:36.06	23.68	4.22	-85.2	-88.6	2.9	7.63e-01	0	47	104	0	60	1048573
2026-01-18 01:13:37.07	23.69	4.29	-85.2	-88.6	2.9	7.65e-01	0	47	104	0	60	1048574
2026-01-18 01:13:38.08	23.70	4.36	-85.2	-88.6	3.5	7.64e-01	0	47	104	0	60	1048573
2026-01-18 01:13:39.09	23.70	4.43	-85.2	-88.6	2.9	7.63e-01	0	47	104	0	60	1048566
2026-01-18 01:13:40.09	23.71	4.49	-85.2	-88.6	3.1	7.65e-01	0	47	104	0	60	1048572
2026-01-18 01:13:41.10	23.72	4.57	-85.2	-88.6	3.5	7.64e-01	0	47	104	0	60	1048575
2026-01-18 01:13:42.10	23.73	4.64	-85.2	-88.6	3.3	7.62e-01	0	47	104	0	60	1048575
2026-01-18 01:13:43.11	23.74	4.71	-85.2	-88.6	3.1	7.63e-01	0	47	104	0	60	1048575
2026-01-18 01:13:44.11	23.75	4.78	-85.2	-88.6	3.1	7.63e-01	0	47	104	0	60	1048571
2026-01-18 01:13:45.12	23.76	4.85	-85.2	-88.6	3.0	7.63e-01	0	47	104	0	60	1048575
2026-01-18 01:13:46.13	23.76	4.92	-85.2	-88.6	3.5	7.63e-01	0	47	104	0	60	1048575
2026-01-18 01:13:47.13	23.77	4.99	-85.2	-88.6	3.0	7.64e-01	0	47	104	0	60	1048573
2026-01-18 01:13:48.14	23.78	5.06	-85.2	-88.6	2.9	7.64e-01	0	47	104	0	60	1048575
2026-01-18 01:13:49.15	23.79	5.13	-85.2	-88.6	2.9	7.65e-01	0	47	104	0	60	1048573
2026-01-18 01:13:50.15	23.80	5.21	-85.2	-88.6	2.7	7.64e-01	0	47	104	0	60	1048565
2026-01-18 01:13:51.16	23.81	5.28	-84.7	-88.6	3.5	7.60e-01	0	47	104	0	60	1048574
2026-01-18 01:13:52.16	23.82	5.35	-85.2	-88.6	3.3	7.63e-01	0	47	104	0	60	1048575
2026-01-18 01:13:53.17	23.83	5.42	-85.2	-88.6	3.0	7.63e-01	0	47	104	0	60	1048575
2026-01-18 01:13:54.18	23.83	5.50	-85.2	-88.6	2.8	7.63e-01	0	47	104	0	60	1048575
2026-01-18 01:13:55.19	23.84	5.57	-85.2	-88.6	3.3	7.64e-01	0	47	104	0	60	1048572
2026-01-18 01:13:56.19	23.85	5.64	-85.2	-88.6	3.6	7.62e-01	0	47	104	0	60	1048575
2026-01-18 01:13:57.19	23.86	5.71	-85.2	-88.6	3.1	7.63e-01	0	47	104	0	60	1048575
2026-01-18 01:13:58.19	23.87	5.79	-85.2	-88.6	2.8	7.65e-01	0	47	104	0	60	1048573
2026-01-18 01:13:59.20	23.88	5.86	-84.7	-88.6	3.2	7.65e-01	0	47	104	0	60	1048574
2026-01-18 01:14:00.21	23.89	5.94	-85.2	-88.6	3.2	7.63e-01	0	47	104	0	60	1048575
2026-01-18 01:14:01.22	23.90	6.01	-85.2	-88.6	3.2	7.64e-01	0	47	104	0	60	1048573
2026-01-18 01:14:02.22	23.91	6.08	-85.2	-88.6	3.1	7.63e-01	0	47	104	0	60	1048575
2026-01-18 01:14:03.23	23.91	6.16	-85.2	-88.6	3.4	7.63e-01	0	47	104	0	60	1048574
2026-01-18 01:14:04.24	23.92	6.23	-85.2	-88.6	3.3	7.63e-01	0	47	104	0	60	1048575
2026-01-18 01:14:05.25	23.93	6.31	-84.7	-88.6	3.1	7.63e-01	0	47	104	0	60	1048573
2026-01-18 01:14:06.25	23.94	6.38	-85.2	-88.6	3.2	7.63e-01	0	47	104	0	60	1048575
2026-01-18 01:14:07.26	23.95	6.46	-85.2	-88.6	3.0	7.64e-01	0	47	104	0	60	1048575
2026-01-18 01:14:08.27	23.96	6.54	-84.7	-88.6	3.5	7.64e-01	0	47	104	0	60	1048575
2026-01-18 01:14:09.27	23.97	6.61	-85.2	-88.6	2.9	7.64e-01	0	47	104	0	60	1048573
2026-01-18 01:14:10.28	23.98	6.69	-85.2	-88.6	3.1	7.63e-01	0	47	104	0	60	1048574
2026-01-18 01:14:11.28	23.99	6.76	-85.2	-88.6	3.6	7.64e-01	0	47	104	0	60	1048574
2026-01-18 01:14:12.29	24.00	6.84	-85.2	-88.6	3.5	7.64e-01	0	47	104	0	60	1048575
2026-01-18 01:14:13.30	24.01	6.92	-85.2	-88.6	3.4	7.64e-01	0	47	104	0	60	1048570
2026-01-18 01:14:14.31	24.02	7.00	-85.2	-88.6	3.2	7.63e-01	0	47	104	0	60	1048575
2026-01-18 01:14:15.31	24.02	7.07	-84.3	-88.6	3.3	7.64e-01	0	47	104	0	60	1048575
2026-01-18 01:14:16.31	24.03	7.15	-85.2	-88.6	3.6	7.63e-01	0	47	104	0	60	1048573
2026-01-18 01:14:17.32	24.04	7.23	-85.2	-88.6	2.9	7.63e-01	0	47	104	0	60	1048575
2026-01-18 01:14:18.33	24.05	7.31	-85.2	-88.6	3.4	7.64e-01	0	47	104	0	60	1048575
2026-01-18 01:14:19.33	24.06	7.38	-83.9	-88.6	3.2	7.62e-01	0	47	104	0	60	1048570
2026-01-18 01:14:20.34	24.07	7.46	-85.2	-88.6	2.9	7.63e-01	0	47	104	0	60	1048568
2026-01-18 01:14:21.35	24.08	7.54	-85.2	-88.6	3.5	7.64e-01	0	47	104	0	60	1048575
2026-01-18 01:14:22.35	24.09	7.62	-85.2	-88.6	3.0	7.64e-01	0	47	104	0	60	1048567
2026-01-18 01:14:23.36	24.10	7.70	-85.2	-88.6	3.2	7.64e-01	0	47	104	0	60	1048572
2026-01-18 01:14:24.37	24.11	7.78	-85.2	-88.6	3.0	7.63e-01	0	47	104	0	60	1048571
2026-01-18 01:14:25.38	24.12	7.86	-85.2	-88.6	3.7	7.63e-01	0	47	104	0	60	1048575
2026-01-18 01:14:26.39	24.13	7.94	-85.2	-88.6	3.1	7.62e-01	0	47	104	0	60	1048573
2026-01-18 01:14:27.39	24.14	8.02	-84.7	-88.6	3.4	7.64e-01	0	47	104	0	60	1048574
2026-01-18 01:14:28.40	24.15	8.10	-85.2	-88.6	3.0	7.62e-01	0	47	104	0	60	1048573
2026-01-18 01:14:29.40	24.16	8.18	-85.2	-88.6	2.8	7.63e-01	0	47	104	0	60	1048574
2026-01-18 01:14:30.41	24.17	8.26	-85.2	-88.6	3.0	7.64e-01	0	47	104	0	60	1048569
2026-01-18 01:14:31.41	24.18	8.34	-85.2	-88.6	2.9	7.64e-01	0	47	104	0	60	1048567
2026-01-18 01:14:32.42	24.19	8.42	-85.2	-88.6	2.7	7.63e-01	0	47	104	0	60	1048575
2026-01-18 01:14:33.43	24.20	8.51	-85.2	-88.6	3.1	7.63e-01	0	47	104	0	60	1048575
2026-01-18 01:14:34.44	24.21	8.59	-85.2	-88.6	2.8	7.63e-01	0	47	104	0	60	1048575
2026-01-18 01:14:35.44	24.22	8.67	-85.2	-88.6	2.9	7.62e-01	0	47	104	0	60	1048567
2026-01-18 01:14:36.45	24.23	8.75	-85.2	-88.6	3.4	7.63e-01	0	47	104	0	60	1048574
2026-01-18 01:14:37.46	24.24	8.84	-84.7	-88.6	2.8	7.64e-01	0	47	104	0	60	1048574
2026-01-18 01:14:38.47	24.25	8.92	-85.2	-88.6	3.0	7.63e-01	0	47	104	0	60	1048572
2026-01-18 01:14:39.48	24.26	9.00	-85.2	-88.6	3.3	7.61e-01	0	47	104	0	60	1048574
2026-01-18 01:14:40.48	24.27	9.09	-85.2	-88.6	3.4	7.61e-01	0	47	104	0	60	1048575
2026-01-18 01:14:41.49	24.28	9.17	-84.7	-88.6	3.2	7.62e-01	0	47	104	0	60	1048575
2026-01-18 01:14:42.50	24.29	9.26	-85.2	-88.6	3.7	7.62e-01	0	47	104	0	60	1048572
2026-01-18 01:14:43.51	24.30	9.34	-85.2	-88.6	3.2	7.64e-01	0	47	104	0	60	1048575
2026-01-18 01:14:44.52	24.31	9.43	-85.2	-88.6	3.3	7.64e-01	0	47	104	0	60	1048575
2026-01-18 01:14:45.52	24.32	9.51	-85.2	-88.6	3.4	7.64e-01	0	47	104	0	60	1048575
2026-01-18 01:14:46.53	24.33	9.60	-85.2	-88.6	2.7	7.63e-01	0	47	104	0	60	1048575
2026-01-18 01:14:47.54	24.34	9.68	-85.2	-88.6	3.0	7.62e-01	0	47	104	0	60	1048575
2026-01-18 01:14:48.54	24.35	9.77	-85.2	-88.6	3.1	7.63e-01	0	47	104	0	60	1048574
2026-01-18 01:14:49.55	24.36	9.86	-85.2	-88.6	3.5	7.65e-01	0	47	104	0	60	1048572
2026-01-18 01:14:50.56	24.37	9.94	-85.2	-88.6	3.0	7.64e-01	0	47	104	0	60	1048570
2026-01-18 01:14:51.56	24.38	10.03	-85.2	-88.6	3.2	7.63e-01	0	47	104	0	60	1048575
2026-01-18 01:14:52.57	24.39	10.12	-85.2	-88.6	3.4	7.64e-01	0	47	104	0	60	1048575
2026-01-18 01:14:53.58	24.40	10.20	-85.2	-88.6	2.8	7.63e-01	0	47	104	0	60	1048575
2026-01-18 01:14:54.59	24.41	10.29	-85.2	-88.6	3.0	7.62e-01	0	47	104	0	60	1048571
2026-01-18 01:14:55.60	24.42	10.38	-84.7	-88.6	2.9	7.64e-01	0	47	104	0	60	1048573
2026-01-18 01:14:56.61	24.43	10.47	-85.2	-88.6	3.0	7.62e-01	0	47	104	0	60	1048571
2026-01-18 01:14:57.61	24.44	10.56	-85.2	-88.6	3.5	7.62e-01	0	47	104	0	60	1048570
2026-01-18 01:14:58.62	24.45	10.65	-85.2	-88.6	3.1	7.62e-01	0	47	104	0	60	1048570
2026-01-18 01:14:59.63	24.46	10.74	-85.2	-88.6	3.5	7.64e-01	0	47	104	0	60	1048571
2026-01-18 01:15:00.63	24.47	10.83	-84.7	-88.6	3.2	7.63e-01	0	47	104	0	60	1048572
2026-01-18 01:15:01.64	24.48	10.92	-85.2	-88.6	3.0	7.65e-01	0	47	104	0	60	1048575
2026-01-18 01:15:02.64	24.50	11.01	-85.2	-88.6	2.9	7.62e-01	0	47	104	0	60	1048574
2026-01-18 01:15:03.65	24.51	11.10	-85.2	-88.6	3.0	7.63e-01	0	47	104	0	60	1048573
2026-01-18 01:15:04.66	24.52	11.19	-84.7	-88.6	3.0	7.63e-01	0	47	104	0	60	1048573
2026-01-18 01:15:05.66	24.53	11.28	-84.7	-88.6	3.2	7.62e-01	0	47	104	0	60	1048567
2026-01-18 01:15:06.67	24.54	11.37	-85.2	-88.6	3.6	7.64e-01	0	47	104	0	60	1048569
2026-01-18 01:15:07.68	24.55	11.47	-85.2	-88.6	3.2	7.63e-01	0	47	104	0	60	1048573
2026-01-18 01:15:08.68	24.56	11.56	-85.2	-88.6	3.2	7.64e-01	0	47	104	0	60	1048575
2026-01-18 01:15:09.68	24.57	11.65	-85.2	-88.6	2.9	7.63e-01	0	47	104	0	60	1048572
2026-01-18 01:15:10.69	24.58	11.74	-85.2	-88.6	3.1	7.62e-01	0	47	104	0	60	1048575
2026-01-18 01:15:11.70	24.59	11.84	-85.2	-88.6	3.6	7.64e-01	0	47	104	0	60	1048571
2026-01-18 01:15:12.71	24.61	11.93	-85.2	-88.6	2.9	7.63e-01	0	47	104	0	60	1048575
2026-01-18 01:15:13.72	24.62	12.03	-85.2	-88.6	3.1	7.64e-01	0	47	104	0	60	1048574
2026-01-18 01:15:14.72	24.63	12.12	-85.2	-88.6	2.7	7.64e-01	0	47	104	0	60	1048575
2026-01-18 01:15:15.73	24.64	12.22	-84.7	-88.6	3.0	7.62e-01	0	47	104	0	60	1048573
2026-01-18 01:15:16.74	24.65	12.31	-85.2	-88.6	3.2	7.62e-01	0	47	104	0	60	1048570
2026-01-18 01:15:17.75	24.66	12.41	-85.2	-88.6	3.2	7.63e-01	0	47	104	0	60	1048573
2026-01-18 01:15:18.75	24.67	12.50	-85.2	-88.6	2.6	7.64e-01	0	47	104	0	60	1048574
2026-01-18 01:15:19.76	24.69	12.60	-85.2	-88.6	2.9	7.62e-01	0	47	104	0	60	1048574
2026-01-18 01:15:20.77	24.70	12.70	-85.2	-88.6	3.3	7.64e-01	0	47	104	0	60	1048573
2026-01-18 01:15:21.77	24.71	12.79	-85.2	-88.6	3.4	7.64e-01	0	47	104	0	60	1048570
2026-01-18 01:15:22.78	24.72	12.89	-85.2	-88.6	3.1	7.63e-01	0	47	104	0	60	1048572
2026-01-18 01:15:23.78	24.73	12.99	-85.2	-88.6	3.3	7.64e-01	0	47	104	0	60	1048567
2026-01-18 01:15:24.79	24.74	13.09	-84.7	-88.6	2.9	7.62e-01	0	47	104	0	60	1048575
2026-01-18 01:15:25.80	24.76	13.19	-85.2	-88.6	2.6	7.62e-01	0	47	104	0	60	1048572
2026-01-18 01:15:26.81	24.77	13.29	-83.9	-88.6	3.2	7.62e-01	0	47	104	0	60	1048571
2026-01-18 01:15:27.81	24.78	13.39	-85.2	-88.6	2.9	7.62e-01	0	47	104	0	60	1048574
2026-01-18 01:15:28.82	24.79	13.49	-84.7	-88.6	3.2	7.62e-01	0	47	104	0	60	1048575
2026-01-18 01:15:29.83	24.80	13.59	-85.2	-88.6	3.7	7.63e-01	0	47	104	0	60	1048575
2026-01-18 01:15:30.84	24.82	13.69	-85.2	-88.6	3.2	7.59e-01	0	47	104	0	60	1048564
2026-01-18 01:15:31.84	24.83	13.79	-85.2	-88.6	3.4	7.64e-01	0	47	104	0	60	1048572
2026-01-18 01:15:32.85	24.84	13.89	-85.2	-88.6	2.8	7.63e-01	0	47	104	0	60	1048575
2026-01-18 01:15:33.86	24.85	13.99	-84.7	-88.6	3.6	7.64e-01	0	47	104	0	60	1048575
2026-01-18 01:15:34.86	24.86	14.10	-84.3	-88.6	3.1	7.63e-01	0	47	104	0	60	1048574
2026-01-18 01:15:35.87	24.88	14.20	-85.2	-88.6	3.0	7.64e-01	0	47	104	0	60	1048573
2026-01-18 01:15:36.87	24.89	14.30	-85.2	-88.6	3.7	7.62e-01	0	47	104	0	60	1048572
2026-01-18 01:15:37.88	24.90	14.41	-85.2	-88.6	3.5	7.63e-01	0	47	104	0	60	1048572
2026-01-18 01:15:38.88	24.91	14.51	-84.7	-88.6	3.2	7.64e-01	0	47	104	0	60	1048573
2026-01-18 01:15:39.88	24.93	14.62	-85.2	-88.6	3.2	7.64e-01	0	47	104	0	60	1048574
2026-01-18 01:15:40.89	24.94	14.72	-85.2	-88.6	3.1	7.63e-01	0	47	104	0	60	1048570
2026-01-18 01:15:41.89	24.95	14.83	-85.2	-88.6	3.6	7.64e-01	0	47	104	0	60	1048574
2026-01-18 01:15:42.90	24.96	14.93	-85.2	-88.6	3.3	7.63e-01	0	47	104	0	60	1048573
2026-01-18 01:15:43.91	24.98	15.04	-85.2	-88.6	2.9	7.64e-01	0	47	104	0	60	1048571
2026-01-18 01:15:44.92	24.99	15.15	-82.8	-88.6	3.1	7.63e-01	0	47	104	0	60	1048570
2026-01-18 01:15:45.92	25.00	15.26	-85.2	-88.6	3.0	7.64e-01	0	47	104	0	60	1048573
2026-01-18 01:15:46.93	25.02	15.36	-85.2	-88.6	3.6	7.63e-01	0	47	104	0	60	1048571
2026-01-18 01:15:47.94	25.03	15.47	-85.2	-88.6	3.7	7.63e-01	0	47	104	0	60	1048575
2026-01-18 01:15:48.95	25.04	15.58	-85.2	-88.6	3.0	7.60e-01	0	47	104	0	60	1048571
2026-01-18 01:15:49.95	25.06	15.69	-83.1	-88.6	3.0	7.63e-01	0	47	104	0	60	1048574
2026-01-18 01:15:50.96	25.07	15.80	-85.2	-88.6	3.2	7.61e-01	0	47	104	0	60	1048575
2026-01-18 01:15:51.96	25.08	15.91	-85.2	-88.6	3.1	7.63e-01	0	47	104	0	60	1048575
2026-01-18 01:15:52.96	25.09	16.02	-85.2	-88.6	3.0	7.63e-01	0	47	104	0	60	1048573
2026-01-18 01:15:53.96	25.11	16.13	-84.7	-88.6	3.0	7.64e-01	0	47	104	0	60	1048575
2026-01-18 01:15:54.97	25.12	16.25	-85.2	-88.6	3.6	7.63e-01	0	47	104	0	60	1048573
2026-01-18 01:15:55.97	25.14	16.36	-84.7	-88.6	2.8	7.63e-01	0	47	104	0	60	1048567
2026-01-18 01:15:56.98	25.15	16.47	-85.2	-88.6	3.0	7.62e-01	0	47	104	0	60	1048575
2026-01-18 01:15:57.98	25.16	16.58	-85.2	-88.6	3.0	7.63e-01	0	47	104	0	60	1048573
2026-01-18 01:15:58.98	25.18	16.70	-85.2	-88.6	3.3	7.63e-01	0	47	104	0	60	1048575
2026-01-18 01:15:59.99	25.19	16.81	-85.2	-88.6	3.4	7.63e-01	0	47	104	0	60	1048574
2026-01-18 01:16:01.00	25.20	16.93	-85.2	-88.6	3.1	7.64e-01	0	47	104	0	60	1048572
2026-01-18 01:16:02.01	25.22	17.05	-84.7	-88.6	2.9	7.62e-01	0	47	104	0	60	1048575
2026-01-18 01:16:03.02	25.23	17.16	-85.2	-88.6	2.8	7.63e-01	0	47	104	0	60	1048573
2026-01-18 01:16:04.03	25.25	17.28	-85.2	-88.6	3.1	7.63e-01	0	47	104	0	60	1048574
2026-01-18 01:16:05.04	25.26	17.40	-85.2	-88.6	3.6	7.63e-01	0	47	104	0	60	1048571
2026-01-18 01:16:06.05	25.28	17.52	-85.2	-88.6	3.0	7.64e-01	0	47	104	0	60	1048571
2026-01-18 01:16:07.05	25.29	17.63	-85.2	-88.6	3.2	7.64e-01	0	47	104	0	60	1048572
2026-01-18 01:16:08.06	25.30	17.75	-85.2	-88.6	3.5	7.62e-01	0	47	104	0	60	1048575
2026-01-18 01:16:09.06	25.32	17.87	-85.2	-88.6	3.3	7.63e-01	0	47	104	0	60	1048570
2026-01-18 01:16:10.07	25.33	17.99	-85.2	-88.6	3.0	7.64e-01	0	47	104	0	60	1048575
2026-01-18 01:16:11.07	25.35	18.11	-84.7	-88.6	2.9	7.64e-01	0	47	104	0	60	1048574
2026-01-18 01:16:12.08	25.36	18.24	-84.7	-88.6	2.9	7.64e-01	0	47	104	0	60	1048574
2026-01-18 01:16:13.08	25.38	18.36	-85.2	-88.6	3.0	7.64e-01	0	47	104	0	60	1048573
2026-01-18 01:16:14.09	25.39	18.48	-84.7	-88.6	3.0	7.63e-01	0	47	104	0	60	1048573
2026-01-18 01:16:15.10	25.41	18.61	-84.3	-88.6	3.1	7.63e-01	0	47	104	0	60	1048574
2026-01-18 01:16:16.11	25.42	18.73	-85.2	-88.6	3.5	7.64e-01	0	47	104	0	60	1048567
2026-01-18 01:16:17.12	25.44	18.86	-85.2	-88.6	3.5	7.61e-01	0	47	104	0	60	1048575
2026-01-18 01:16:18.13	25.45	18.98	-85.2	-88.6	3.6	7.64e-01	0	47	104	0	60	1048574
2026-01-18 01:16:19.13	25.47	19.11	-84.3	-88.6	3.0	7.63e-01	0	47	104	0	60	1048575
2026-01-18 01:16:20.14	25.48	19.23	-84.3	-88.6	2.9	7.64e-01	0	47	104	0	60	1048575
2026-01-18 01:16:21.15	25.50	19.36	-85.2	-88.6	2.9	7.63e-01	0	47	104	0	60	1048575
2026-01-18 01:16:22.16	25.52	19.49	-84.7	-88.6	3.5	7.61e-01	0	47	104	0	60	1048575
2026-01-18 01:16:23.16	25.53	19.62	-84.7	-88.6	3.2	7.63e-01	0	47	104	0	60	1048575
2026-01-18 01:16:24.17	25.55	19.75	-85.2	-88.6	2.9	7.64e-01	0	47	104	0	60	1048575
2026-01-18 01:16:25.18	25.56	19.88	-83.1	-88.6	2.9	7.64e-01	0	47	104	0	60	1048573
2026-01-18 01:16:26.19	25.58	20.01	-84.7	-88.6	3.2	7.63e-01	0	47	104	0	60	1048575
2026-01-18 01:16:27.19	25.60	20.14	-85.2	-88.6	3.4	7.63e-01	0	47	104	0	60	1048574
2026-01-18 01:16:28.20	25.61	20.27	-85.2	-88.6	3.3	7.63e-01	0	47	104	0	60	1048574
2026-01-18 01:16:29.21	25.63	20.41	-85.2	-88.6	3.2	7.64e-01	0	47	104	0	60	1048574
2026-01-18 01:16:30.21	25.64	20.54	-85.2	-88.6	3.7	7.64e-01	0	47	104	0	60	1048575
2026-01-18 01:16:31.22	25.66	20.67	-85.2	-88.6	3.0	7.62e-01	0	47	104	0	60	1048573
2026-01-18 01:16:32.23	25.68	20.81	-85.2	-88.6	3.6	7.64e-01	0	47	104	0	60	1048575
2026-01-18 01:16:33.23	25.70	20.94	-85.2	-88.6	3.0	7.63e-01	0	47	104	0	60	1048574
2026-01-18 01:16:34.24	25.71	21.08	-84.3	-88.6	3.0	7.63e-01	0	47	104	0	60	1048573
2026-01-18 01:16:35.25	25.73	21.22	-83.9	-88.6	3.1	7.63e-01	0	47	104	0	60	1048574
2026-01-18 01:16:36.26	25.75	21.36	-85.2	-88.6	3.4	7.64e-01	0	47	104	0	60	1048575
2026-01-18 01:16:37.26	25.76	21.49	-85.2	-88.6	2.7	7.63e-01	0	47	104	0	60	1048573
2026-01-18 01:16:38.27	25.78	21.63	-85.2	-88.6	3.0	7.64e-01	0	47	104	0	60	1048572
2026-01-18 01:16:39.27	25.80	21.77	-84.7	-88.6	3.4	7.64e-01	0	47	104	0	60	1048574
2026-01-18 01:16:40.28	25.82	21.91	-85.2	-88.6	3.0	7.63e-01	0	47	104	0	60	1048570
2026-01-18 01:16:41.29	25.83	22.06	-85.2	-88.6	2.9	7.63e-01	0	47	104	0	60	1048575
2026-01-18 01:16:42.29	25.85	22.20	-85.2	-88.6	3.2	7.64e-01	0	47	104	0	60	1048573
2026-01-18 01:16:43.30	25.87	22.34	-84.7	-88.6	3.6	7.64e-01	0	47	104	0	60	1048574
2026-01-18 01:16:44.31	25.89	22.49	-85.2	-88.6	3.5	7.63e-01	0	47	104	0	60	1048571
2026-01-18 01:16:45.31	25.91	22.63	-85.2	-88.6	3.1	7.63e-01	0	47	104	0	60	1048575
2026-01-18 01:16:46.32	25.92	22.78	-85.2	-88.6	3.4	7.63e-01	0	47	104	0	60	1048574
2026-01-18 01:16:47.33	25.94	22.92	-85.2	-88.6	3.5	7.63e-01	0	47	104	0	60	1048575
2026-01-18 01:16:48.33	25.96	23.07	-85.2	-88.6	3.0	7.62e-01	0	47	104	0	60	1048569
2026-01-18 01:16:49.34	25.98	23.22	-85.2	-88.6	3.5	7.65e-01	0	47	104	0	60	1048573
2026-01-18 01:16:50.35	26.00	23.37	-84.7	-88.6	2.9	7.65e-01	0	47	104	0	60	1048574
2026-01-18 01:16:51.36	26.02	23.52	-85.2	-88.6	2.9	7.63e-01	0	47	104	0	60	1048570
2026-01-18 01:16:52.36	26.04	23.67	-85.2	-88.6	3.0	7.63e-01	0	47	104	0	60	1048574
2026-01-18 01:16:53.37	26.06	23.82	-84.7	-88.6	3.2	7.63e-01	0	47	104	0	60	1048572
2026-01-18 01:16:54.38	26.08	23.98	-82.8	-88.6	3.2	7.61e-01	0	47	104	0	60	1048574
2026-01-18 01:16:55.39	26.10	24.13	-84.3	-88.6	3.1	7.62e-01	0	47	104	0	60	1048574
2026-01-18 01:16:56.40	26.12	24.28	-85.2	-88.6	2.9	7.63e-01	0	47	104	0	60	1048570
2026-01-18 01:16:57.40	26.14	24.44	-85.2	-88.6	3.3	7.63e-01	0	47	104	0	60	1048573
2026-01-18 01:16:58.41	26.16	24.60	-85.2	-88.6	3.5	7.63e-01	0	47	104	0	60	1048571
2026-01-18 01:16:59.42	26.18	24.75	-85.2	-88.6	3.0	7.59e-01	0	47	104	0	60	1048572
2026-01-18 01:17:00.42	26.20	24.91	-84.7	-88.6	2.8	7.63e-01	0	47	104	0	60	1048573
2026-01-18 01:17:01.42	26.22	25.07	-85.2	-88.6	3.1	7.62e-01	0	47	104	0	60	1048564
2026-01-18 01:17:02.43	26.24	25.23	-85.2	-88.6	3.1	7.63e-01	0	47	104	0	60	1048575
2026-01-18 01:17:03.43	26.26	25.39	-85.2	-88.6	3.6	7.63e-01	0	47	104	0	60	1048575
2026-01-18 01:17:04.44	26.28	25.55	-84.7	-88.6	3.2	7.63e-01	0	47	104	0	60	1048573
2026-01-18 01:17:05.45	26.30	25.72	-85.2	-88.6	2.9	7.59e-01	0	47	104	0	60	1048573
2026-01-18 01:17:06.45	26.32	25.88	-85.2	-88.6	2.7	7.65e-01	0	47	104	0	60	1048574
2026-01-18 01:17:07.46	26.35	26.05	-85.2	-88.6	3.6	7.63e-01	0	47	104	0	60	1048569
2026-01-18 01:17:08.47	26.37	26.21	-84.7	-88.6	3.3	7.62e-01	0	47	104	0	60	1048567
2026-01-18 01:17:09.48	26.39	26.38	-84.7	-88.6	3.0	7.63e-01	0	47	104	0	60	1048573
2026-01-18 01:17:10.48	26.41	26.55	-85.2	-88.6	3.1	7.63e-01	0	47	104	0	60	1048575
2026-01-18 01:17:11.49	26.43	26.72	-85.2	-88.6	2.4	7.63e-01	0	47	104	0	60	1048575
2026-01-18 01:17:12.50	26.46	26.89	-85.2	-88.6	3.0	7.63e-01	0	47	104	0	60	1048575
2026-01-18 01:17:13.51	26.48	27.06	-84.7	-88.6	3.7	7.64e-01	0	47	104	0	60	1048575
2026-01-18 01:17:14.51	26.50	27.23	-85.2	-88.6	3.7	7.62e-01	0	47	104	0	60	1048574
2026-01-18 01:17:15.52	26.53	27.41	-85.2	-88.6	2.6	7.63e-01	0	47	104	0	60	1048575
2026-01-18 01:17:16.52	26.55	27.58	-85.2	-88.6	3.4	7.64e-01	0	47	104	0	60	1048574
2026-01-18 01:17:17.53	26.57	27.76	-85.2	-88.6	3.5	7.63e-01	0	47	104	0	60	1048575
2026-01-18 01:17:18.53	26.60	27.93	-85.2	-88.6	3.2	7.63e-01	0	47	104	0	60	1048575
2026-01-18 01:17:19.54	26.62	28.11	-85.2	-88.6	3.5	7.63e-01	0	47	104	0	60	1048570
2026-01-18 01:17:20.54	26.64	28.29	-84.7	-88.6	3.4	7.63e-01	0	47	104	0	60	1048573
2026-01-18 01:17:21.55	26.67	28.47	-85.2	-88.6	3.2	7.64e-01	0	47	104	0	60	1048574
2026-01-18 01:17:22.55	26.69	28.65	-85.2	-88.6	3.0	7.64e-01	0	47	104	0	60	1048574
2026-01-18 01:17:23.56	26.72	28.83	-84.7	-88.6	3.6	7.63e-01	0	47	104	0	60	1048572
2026-01-18 01:17:24.57	26.74	29.02	-84.7	-88.6	3.5	7.63e-01	0	47	104	0	60	1048572
2026-01-18 01:17:25.58	26.77	29.21	-85.2	-88.6	3.1	7.63e-01	0	47	104	0	60	1048575
2026-01-18 01:17:26.58	26.79	29.39	-85.2	-88.6	3.2	7.63e-01	0	47	104	0	60	1048571
2026-01-18 01:17:27.59	26.82	29.58	-85.2	-88.6	3.7	7.64e-01	0	47	104	0	60	1048575
2026-01-18 01:17:28.60	26.85	29.77	-85.2	-88.6	3.7	7.64e-01	0	47	104	0	60	1048575
2026-01-18 01:17:29.60	26.87	29.96	-85.2	-88.6	3.3	7.63e-01	0	47	104	0	60	1048575
2026-01-18 01:17:30.61	26.90	30.15	-85.2	-88.6	2.9	7.64e-01	0	47	104	0	60	1048574
2026-01-18 01:17:31.62	26.93	30.34	-85.2	-88.6	3.3	7.63e-01	0	47	104	0	60	1048574
2026-01-18 01:17:32.62	26.95	30.54	-85.2	-88.6	3.1	7.65e-01	0	47	104	0	60	1048573
2026-01-18 01:17:33.63	26.98	30.73	-85.2	-88.6	3.6	7.63e-01	0	47	104	0	60	1048575
2026-01-18 01:17:34.64	27.01	30.93	-85.2	-88.6	3.4	7.63e-01	0	47	104	0	60	1048573
2026-01-18 01:17:35.64	27.04	31.13	-85.2	-88.6	3.1	7.65e-01	0	47	104	0	60	1048575
2026-01-18 01:17:36.65	27.07	31.33	-85.2	-88.6	3.2	7.63e-01	0	47	104	0	60	1048573
2026-01-18 01:17:37.66	27.10	31.53	-84.7	-88.6	3.7	7.63e-01	0	47	104	0	60	1048575
2026-01-18 01:17:38.67	27.12	31.73	-85.2	-88.6	3.5	7.62e-01	0	47	104	0	60	1048567
2026-01-18 01:17:39.67	27.15	31.93	-85.2	-88.6	3.2	7.63e-01	0	47	104	0	60	1048573
2026-01-18 01:17:40.68	27.18	32.14	-85.2	-88.6	3.0	7.64e-01	0	47	104	0	60	1048571
2026-01-18 01:17:41.69	27.21	32.35	-85.2	-88.6	3.3	7.62e-01	0	47	104	0	60	1048572
2026-01-18 01:17:42.70	27.24	32.56	-85.2	-88.6	3.0	7.64e-01	0	47	104	0	60	1048575
2026-01-18 01:17:43.71	27.27	32.77	-84.7	-88.6	2.8	7.63e-01	0	47	104	0	60	1048571
2026-01-18 01:17:44.72	27.31	32.98	-85.2	-88.6	3.6	7.63e-01	0	47	104	0	60	1048574
2026-01-18 01:17:45.73	27.34	33.19	-85.2	-88.6	2.8	7.65e-01	0	47	104	0	60	1048567
2026-01-18 01:17:46.73	27.37	33.40	-85.2	-88.6	3.0	7.63e-01	0	47	104	0	60	1048574
2026-01-18 01:17:47.74	27.40	33.62	-85.2	-88.6	3.6	7.63e-01	0	47	104	0	60	1048573
2026-01-18 01:17:48.75	27.43	33.84	-85.2	-88.6	3.6	7.62e-01	0	47	104	0	60	1048574
2026-01-18 01:17:49.76	27.47	34.06	-85.2	-88.6	3.2	7.63e-01	0	47	104	0	60	1048569
2026-01-18 01:17:50.76	27.50	34.27	-85.2	-88.6	3.3	7.62e-01	0	47	104	0	60	1048575
2026-01-18 01:17:51.77	27.53	34.50	-85.2	-88.6	3.3	7.64e-01	0	47	104	0	60	1048575
2026-01-18 01:17:52.78	27.57	34.72	-84.7	-88.6	3.5	7.62e-01	0	47	104	0	60	1048568
2026-01-18 01:17:53.78	27.60	34.94	-84.7	-88.6	2.7	7.61e-01	0	47	104	0	60	1048575
2026-01-18 01:17:54.78	27.64	35.17	-84.7	-88.6	3.0	7.63e-01	0	47	104	0	60	1048575
2026-01-18 01:17:55.79	27.67	35.40	-84.7	-88.6	3.5	7.63e-01	0	47	104	0	60	1048574
2026-01-18 01:17:56.80	27.71	35.63	-85.2	-88.6	3.3	7.62e-01	0	47	104	0	60	1048574
2026-01-18 01:17:57.80	27.74	35.86	-83.9	-88.6	3.1	7.63e-01	0	47	104	0	60	1048575
2026-01-18 01:17:58.81	27.78	36.09	-85.2	-88.6	2.9	7.63e-01	0	47	104	0	60	1048575
2026-01-18 01:17:59.82	27.82	36.33	-85.2	-88.6	3.1	7.65e-01	0	47	104	0	60	1048573
2026-01-18 01:18:00.83	27.86	36.56	-85.2	-88.6	3.2	7.63e-01	0	47	104	0	60	1048574
2026-01-18 01:18:01.84	27.89	36.80	-84.7	-88.6	3.2	7.62e-01	0	47	104	0	60	1048571
2026-01-18 01:18:02.84	27.93	37.04	-85.2	-88.6	3.0	7.63e-01	0	47	104	0	60	1048575
2026-01-18 01:18:03.85	27.97	37.28	-85.2	-88.6	3.3	7.63e-01	0	47	104	0	60	1048574
2026-01-18 01:18:04.85	28.01	37.52	-85.2	-88.6	3.2	7.64e-01	0	47	104	0	60	1048575
2026-01-18 01:18:05.86	28.05	37.77	-84.7	-88.6	3.4	7.61e-01	0	47	104	0	60	1048575
2026-01-18 01:18:06.87	28.09	38.02	-84.7	-88.6	2.6	7.63e-01	0	47	104	0	60	1048574
2026-01-18 01:18:07.87	28.13	38.26	-84.7	-88.6	2.8	7.63e-01	0	47	104	0	60	1048575
2026-01-18 01:18:08.87	28.17	38.51	-85.2	-88.6	3.8	7.64e-01	0	47	104	0	60	1048575
2026-01-18 01:18:09.88	28.22	38.77	-85.2	-88.6	3.7	7.63e-01	0	47	104	0	60	1048575
2026-01-18 01:18:10.88	28.26	39.02	-85.2	-88.6	2.9	7.64e-01	0	47	104	0	60	1048571
2026-01-18 01:18:11.89	28.30	39.28	-85.2	-88.6	3.2	7.62e-01	0	47	104	0	60	1048573
2026-01-18 01:18:12.90	28.35	39.53	-85.2	-88.6	3.4	7.63e-01	0	47	104	0	60	1048573
2026-01-18 01:18:13.90	28.39	39.79	-85.2	-88.6	3.2	7.63e-01	0	47	104	0	60	1048574
2026-01-18 01:18:14.91	28.44	40.06	-85.2	-88.6	3.2	7.63e-01	0	47	104	0	60	1048569
2026-01-18 01:18:15.91	28.48	40.32	-85.2	-88.6	2.7	7.63e-01	0	47	104	0	60	1048575
2026-01-18 01:18:16.92	28.53	40.58	-85.2	-88.6	2.9	7.63e-01	0	47	104	0	60	1048575
2026-01-18 01:18:17.92	28.58	40.85	-85.2	-88.6	3.0	7.63e-01	0	47	104	0	60	1048573
2026-01-18 01:18:18.93	28.63	41.12	-85.2	-88.6	3.2	7.62e-01	0	47	104	0	60	1048575
2026-01-18 01:18:19.94	28.68	41.39	-85.2	-88.6	3.5	7.63e-01	0	47	104	0	60	1048570
2026-01-18 01:18:20.95	28.73	41.67	-85.2	-88.6	3.0	7.63e-01	0	47	104	0	60	1048574
2026-01-18 01:18:21.96	28.78	41.95	-85.2	-88.6	3.1	7.64e-01	0	47	104	0	60	1048571
2026-01-18 01:18:22.97	28.83	42.22	-84.7	-88.6	3.5	7.63e-01	0	47	104	0	60	1048573
2026-01-18 01:18:23.97	28.88	42.50	-85.2	-88.6	2.8	7.64e-01	0	47	104	0	60	1048575
2026-01-18 01:18:24.98	28.93	42.79	-85.2	-88.6	3.0	7.63e-01	0	47	104	0	60	1048566
2026-01-18 01:18:25.99	28.99	43.07	-85.2	-88.6	3.2	7.63e-01	0	47	104	0	60	1048575
2026-01-18 01:18:27.00	29.04	43.36	-85.2	-88.6	3.7	7.62e-01	0	47	104	0	60	1048573
2026-01-18 01:18:28.00	29.10	43.64	-85.2	-88.6	3.4	7.63e-01	0	47	104	0	60	1048572
2026-01-18 01:18:29.01	29.16	43.94	-85.2	-88.6	2.8	7.64e-01	0	47	104	0	60	1048575
2026-01-18 01:18:30.01	29.21	44.23	-85.2	-88.6	3.0	7.64e-01	0	47	104	0	60	1048573
2026-01-18 01:18:31.02	29.27	44.52	-85.2	-88.6	3.1	7.62e-01	0	47	104	0	60	1048572
2026-01-18 01:18:32.02	29.33	44.82	-85.2	-88.6	3.1	7.62e-01	0	47	104	0	60	1048572
2026-01-18 01:18:33.03	29.39	45.12	-85.2	-88.6	3.7	7.64e-01	0	47	104	0	60	1048574
2026-01-18 01:18:34.03	29.45	45.42	-85.2	-88.6	3.6	7.63e-01	0	47	104	0	60	1048569
2026-01-18 01:18:35.05	29.52	45.73	-85.2	-88.6	3.0	7.64e-01	0	47	104	0	60	1048574
2026-01-18 01:18:36.05	29.58	46.03	-85.2	-88.6	2.9	7.62e-01	0	47	104	0	60	1048574
2026-01-18 01:18:37.06	29.65	46.34	-85.2	-88.6	2.6	7.65e-01	0	47	104	0	60	1048574
2026-01-18 01:18:38.06	29.71	46.65	-85.2	-88.6	3.0	7.65e-01	0	47	104	0	60	1048571
2026-01-18 01:18:39.07	29.78	46.96	-85.2	-88.6	3.2	7.65e-01	0	47	104	0	60	1048573
2026-01-18 01:18:40.08	29.85	47.28	-84.3	-88.6	3.0	7.63e-01	0	47	104	0	60	1048574
2026-01-18 01:18:41.08	29.92	47.60	-85.2	-88.6	3.3	7.63e-01	0	47	104	0	60	1048574
2026-01-18 01:18:42.08	29.99	47.91	-85.2	-88.6	3.0	7.62e-01	0	47	104	0	60	1048574
2026-01-18 01:18:43.09	30.07	48.24	-85.2	-88.6	3.1	7.62e-01	0	47	104	0	60	1048573
2026-01-18 01:18:44.10	30.14	48.56	-85.2	-88.6	3.7	7.62e-01	0	47	104	0	60	1048574
2026-01-18 01:18:45.11	30.22	48.89	-84.7	-88.6	3.2	7.62e-01	0	47	104	0	60	1048569
2026-01-18 01:18:46.12	30.29	49.22	-85.2	-88.6	2.9	7.63e-01	0	47	104	0	60	1048573
2026-01-18 01:18:47.12	30.37	49.55	-85.2	-88.6	3.4	7.63e-01	0	47	104	0	60	1048571
2026-01-18 01:18:48.13	30.46	49.89	-84.7	-88.6	2.9	7.64e-01	0	47	104	0	60	1048574
2026-01-18 01:18:49.14	30.54	50.23	-85.2	-88.6	3.4	7.62e-01	0	47	104	0	60	1048573
2026-01-18 01:18:50.15	30.62	50.57	-85.2	-88.6	3.4	7.64e-01	0	47	104	0	60	1048574
2026-01-18 01:18:51.16	30.71	50.91	-85.2	-88.6	3.1	7.64e-01	0	47	104	0	60	1048574
2026-01-18 01:18:52.16	30.80	51.25	-85.2	-88.6	2.8	7.64e-01	0	47	104	0	60	1048573
2026-01-18 01:18:53.17	30.89	51.60	-85.2	-88.6	2.5	7.64e-01	0	47	104	0	60	1048573
2026-01-18 01:18:54.18	30.98	51.95	-85.2	-88.6	3.1	7.63e-01	0	47	104	0	60	1048574
2026-01-18 01:18:55.19	31.08	52.30	-85.2	-88.6	3.6	7.64e-01	0	47	104	0	60	1048573
2026-01-18 01:18:56.19	31.17	52.66	-85.2	-88.6	2.8	7.62e-01	0	47	104	0	60	1048570
2026-01-18 01:18:57.20	31.27	53.01	-85.2	-88.6	3.0	7.64e-01	0	47	104	0	60	1048572
2026-01-18 01:18:58.20	31.37	53.37	-84.7	-88.6	3.5	7.64e-01	0	47	104	0	60	1048574
2026-01-18 01:18:59.21	31.48	53.73	-84.7	-88.6	3.3	7.63e-01	0	47	104	0	60	1048574
2026-01-18 01:19:00.22	31.58	54.10	-85.2	-88.6	3.3	7.63e-01	0	47	104	0	60	1048575
2026-01-18 01:19:01.22	31.69	54.46	-85.2	-88.6	3.1	7.62e-01	0	47	104	0	60	1048574
2026-01-18 01:19:02.23	31.80	54.84	-85.2	-88.6	3.2	7.63e-01	0	47	104	0	60	1048573
2026-01-18 01:19:03.23	31.92	55.20	-84.7	-88.6	3.0	7.63e-01	0	47	104	0	60	1048571
2026-01-18 01:19:04.23	32.03	55.58	-84.7	-88.6	3.6	7.64e-01	0	47	104	0	60	1048573
2026-01-18 01:19:05.24	32.15	55.95	-85.2	-88.6	3.6	7.64e-01	0	47	104	0	60	1048575
2026-01-18 01:19:06.24	32.28	56.33	-85.2	-88.6	2.9	7.62e-01	0	47	104	0	60	1048573
2026-01-18 01:19:07.25	32.40	56.71	-85.2	-88.6	3.0	7.64e-01	0	47	104	0	60	1048575
2026-01-18 01:19:08.26	32.53	57.10	-85.2	-88.6	3.5	7.63e-01	0	47	104	0	60	1048575
2026-01-18 01:19:09.26	32.67	57.48	-85.2	-88.6	3.6	7.63e-01	0	47	104	0	60	1048574
2026-01-18 01:19:10.27	32.81	57.88	-84.3	-88.6	3.3	7.62e-01	0	47	104	0	60	1048566
2026-01-18 01:19:11.27	32.95	58.26	-85.2	-88.6	2.9	7.63e-01	0	47	104	0	60	1048573
2026-01-18 01:19:12.28	33.09	58.66	-85.2	-88.6	2.8	7.63e-01	0	47	104	0	60	1048574
2026-01-18 01:19:13.28	33.24	59.05	-84.7	-88.6	3.0	7.63e-01	0	47	104	0	60	1048572
2026-01-18 01:19:14.29	33.40	59.45	-85.2	-88.6	3.1	7.64e-01	0	47	104	0	60	1048575
2026-01-18 01:19:15.29	33.55	59.85	-85.2	-88.6	3.4	7.64e-01	0	47	104	0	60	1048575
2026-01-18 01:19:16.30	33.72	60.26	-85.2	-88.6	2.7	7.63e-01	0	47	104	0	60	1048575
2026-01-18 01:19:17.31	33.89	60.67	-85.2	-88.6	2.9	7.64e-01	0	47	104	0	60	1048575
2026-01-18 01:19:18.32	34.06	61.08	-85.2	-88.6	3.0	7.63e-01	0	47	104	0	60	1048575
2026-01-18 01:19:19.32	34.24	61.49	-85.2	-88.6	2.8	7.63e-01	0	47	104	0	60	1048571
2026-01-18 01:19:20.32	34.43	61.90	-85.2	-88.6	3.0	7.63e-01	0	47	104	0	60	1048575
2026-01-18 01:19:21.33	34.62	62.31	-84.7	-88.6	3.3	7.63e-01	0	47	104	0	60	1048575
2026-01-18 01:19:22.34	34.82	62.73	-84.7	-88.6	3.7	7.64e-01	0	47	104	0	60	1048575
2026-01-18 01:19:23.34	35.03	63.15	-85.2	-88.6	3.0	7.64e-01	0	47	104	0	60	1048571
2026-01-18 01:19:24.35	35.24	63.57	-85.2	-88.6	3.3	7.63e-01	0	47	104	0	60	1048566
2026-01-18 01:19:25.36	35.46	64.00	-85.2	-88.6	3.6	7.62e-01	0	47	104	0	60	1048559
2026-01-18 01:19:26.36	35.69	64.42	-85.2	-88.6	3.2	7.63e-01	0	47	104	0	60	1048574
2026-01-18 01:19:27.37	35.93	64.86	-85.2	-88.6	3.4	7.64e-01	0	47	104	0	60	1048573
2026-01-18 01:19:28.38	36.18	65.29	-85.2	-88.6	3.5	7.64e-01	0	47	104	0	60	1048573
2026-01-18 01:19:29.38	36.43	65.72	-85.2	-88.6	3.2	7.63e-01	0	47	104	0	60	1048571
2026-01-18 01:19:30.39	36.70	66.15	-85.2	-88.6	3.6	7.63e-01	0	47	104	0	60	1048575
2026-01-18 01:19:31.40	36.98	66.59	-85.2	-88.6	3.2	7.64e-01	0	47	104	0	60	1048575
2026-01-18 01:19:32.41	37.27	67.03	-85.2	-88.6	3.0	7.63e-01	0	47	104	0	60	1048572
2026-01-18 01:19:33.41	37.57	67.47	-85.2	-88.6	2.9	7.63e-01	0	47	104	0	60	1048575
2026-01-18 01:19:34.42	37.88	67.91	-85.2	-88.6	2.9	7.62e-01	0	47	104	0	60	1048575
2026-01-18 01:19:35.42	38.21	68.36	-85.2	-88.6	3.3	7.63e-01	0	47	104	0	60	1048574
2026-01-18 01:19:36.43	38.55	68.80	-84.7	-88.6	3.3	7.63e-01	0	47	104	0	60	1048574
2026-01-18 01:19:37.44	38.91	69.25	-84.7	-88.6	3.0	7.65e-01	0	47	104	0	60	1048574
2026-01-18 01:19:38.44	39.28	69.70	-85.2	-88.6	3.3	7.63e-01	0	47	104	0	60	1048574
2026-01-18 01:19:39.45	39.68	70.15	-85.2	-88.6	3.1	7.62e-01	0	47	104	0	60	1048573
2026-01-18 01:19:40.45	40.09	70.59	-85.2	-88.6	3.0	7.60e-01	0	47	104	0	60	1048574
2026-01-18 01:19:41.46	40.52	71.05	-85.2	-88.6	3.0	7.63e-01	0	47	104	0	60	1048572
2026-01-18 01:19:42.47	40.98	71.50	-84.7	-88.6	3.0	7.64e-01	0	47	104	0	60	1048575
2026-01-18 01:19:43.48	41.46	71.96	-85.2	-88.6	3.4	7.62e-01	0	47	104	0	60	1048575
2026-01-18 01:19:44.48	41.97	72.41	-85.2	-88.6	3.7	7.63e-01	0	47	104	0	60	1048575
2026-01-18 01:19:45.48	42.50	72.86	-84.7	-88.6	3.1	7.63e-01	0	47	104	0	60	1048575
2026-01-18 01:19:46.49	43.06	73.32	-85.2	-88.6	2.9	7.65e-01	0	47	104	0	60	1048575
2026-01-18 01:19:47.50	43.66	73.77	-85.2	-88.6	3.6	7.64e-01	0	47	104	0	60	1048575
2026-01-18 01:19:48.50	44.29	74.23	-84.7	-88.6	3.7	7.64e-01	0	47	104	0	60	1048573
2026-01-18 01:19:49.51	44.97	74.68	-85.2	-88.6	2.8	7.63e-01	0	47	104	0	60	1048572
2026-01-18 01:19:50.51	45.68	75.14	-85.2	-88.6	2.9	7.63e-01	0	47	104	0	60	1048573
2026-01-18 01:19:51.52	46.44	75.59	-85.2	-88.6	3.1	7.64e-01	0	47	104	0	60	1048575
2026-01-18 01:19:52.52	47.25	76.04	-84.7	-88.6	3.1	7.63e-01	0	47	104	0	60	1048575
2026-01-18 01:19:53.53	48.12	76.49	-85.2	-88.6	3.8	7.64e-01	0	47	104	0	60	1048575
2026-01-18 01:19:54.54	49.05	76.95	-85.2	-88.6	3.7	7.64e-01	0	47	104	0	60	1048575
2026-01-18 01:19:55.55	50.05	77.39	-85.2	-88.6	3.0	7.63e-01	0	47	104	0	60	1048568
2026-01-18 01:19:56.56	51.13	77.84	-84.7	-88.6	3.0	7.64e-01	0	47	104	0	60	1048574
2026-01-18 01:19:57.57	52.29	78.28	-85.2	-88.6	2.9	7.63e-01	0	47	104	0	60	1048575
2026-01-18 01:19:58.57	53.53	78.72	-84.7	-88.6	3.2	7.63e-01	0	47	104	0	60	1048575
2026-01-18 01:19:59.58	54.89	79.15	-84.7	-88.6	3.1	7.65e-01	0	47	104	0	60	1048575
2026-01-18 01:20:00.59	56.36	79.58	-85.2	-88.6	3.5	7.64e-01	0	47	104	0	60	1048560
2026-01-18 01:20:01.59	57.94	80.00	-84.7	-88.6	2.8	7.64e-01	0	47	104	0	60	1048575
2026-01-18 01:20:02.59	59.66	80.41	-85.2	-88.6	3.4	7.63e-01	0	47	104	0	60	1048573
2026-01-18 01:20:03.60	61.55	80.82	-85.2	-88.6	3.4	7.65e-01	0	47	104	0	60	1048575
2026-01-18 01:20:04.60	63.60	81.21	-85.2	-88.6	3.4	7.65e-01	0	47	104	0	60	1048571
2026-01-18 01:20:05.61	65.87	81.60	-85.2	-88.6	3.3	7.63e-01	0	47	104	0	60	1048567
2026-01-18 01:20:06.61	68.32	81.97	-84.7	-88.6	3.0	7.64e-01	0	47	104	0	60	1048568
2026-01-18 01:20:07.62	71.03	82.32	-85.2	-88.6	2.9	7.63e-01	0	47	104	0	60	1048571
2026-01-18 01:20:08.62	73.98	82.66	-85.2	-88.6	3.5	7.62e-01	0	47	104	0	60	1048574
2026-01-18 01:20:09.63	77.23	82.98	-84.7	-88.6	2.9	7.64e-01	0	47	104	0	60	1048575
2026-01-18 01:20:10.64	80.78	83.27	-84.7	-88.6	3.1	7.62e-01	0	47	104	0	60	1048573
2026-01-18 01:20:11.64	84.60	83.53	-84.7	-88.6	3.3	7.62e-01	0	47	104	0	60	1048571
2026-01-18 01:20:12.65	88.77	83.77	-85.2	-88.6	3.1	7.62e-01	0	47	104	0	60	1048574
2026-01-18 01:20:13.66	93.25	83.97	-85.2	-88.6	2.9	7.59e-01	0	47	104	0	60	1048575
2026-01-18 01:20:14.66	97.95	84.13	-85.2	-88.6	3.1	7.63e-01	0	47	104	0	60	1048575
2026-01-18 01:20:15.67	102.93	84.25	-84.7	-88.6	3.2	7.63e-01	0	47	104	0	60	1048575
2026-01-18 01:20:16.68	108.08	84.32	-85.2	-88.6	2.8	7.61e-01	0	47	104	0	60	1048573
2026-01-18 01:20:17.68	113.28	84.35	-85.2	-88.6	3.3	7.63e-01	0	47	104	0	60	1048575
2026-01-18 01:20:18.69	118.53	84.33	-85.2	-88.6	3.1	7.63e-01	0	47	104	0	60	1048574
2026-01-18 01:20:19.70	123.71	84.27	-84.7	-88.6	3.7	7.61e-01	0	47	104	0	60	1048574
2026-01-18 01:20:20.70	128.69	84.16	-85.2	-88.6	3.0	7.64e-01	0	47	104	0	60	1048572
2026-01-18 01:20:21.71	133.49	84.00	-85.2	-88.6	3.0	7.64e-01	0	47	104	0	60	1048573
2026-01-18 01:20:22.72	138.02	83.81	-85.2	-88.6	3.2	7.62e-01	0	47	104	0	60	1048573
2026-01-18 01:20:23.73	142.25	83.58	-85.2	-88.6	3.5	7.63e-01	0	47	104	0	60	1048575
2026-01-18 01:20:24.73	146.13	83.32	-84.7	-88.6	2.9	7.63e-01	0	47	104	0	60	1048575
2026-01-18 01:20:25.74	149.75	83.04	-84.7	-88.6	2.9	7.62e-01	0	47	104	0	60	1048575
2026-01-18 01:20:26.74	153.02	82.73	-85.2	-88.6	3.1	7.64e-01	0	47	104	0	60	1048574
2026-01-18 01:20:27.75	156.05	82.39	-85.2	-88.6	3.6	7.64e-01	0	47	104	0	60	1048575
2026-01-18 01:20:28.76	158.82	82.04	-84.7	-88.6	3.4	7.63e-01	0	47	104	0	60	1048572
2026-01-18 01:20:29.76	161.32	81.67	-85.2	-88.6	2.8	7.64e-01	0	47	104	0	60	1048574
2026-01-18 01:20:30.77	163.63	81.29	-84.3	-88.6	3.1	7.63e-01	0	47	104	0	60	1048575
2026-01-18 01:20:31.78	165.73	80.89	-85.2	-88.6	3.0	7.65e-01	0	47	104	0	60	1048564
2026-01-18 01:20:32.79	167.66	80.49	-84.7	-88.6	3.3	7.63e-01	0	47	104	0	60	1048575
2026-01-18 01:20:33.80	169.42	80.07	-85.2	-88.6	3.5	7.64e-01	0	47	104	0	60	1048574
2026-01-18 01:20:34.80	171.03	79.66	-84.3	-88.6	3.2	7.63e-01	0	47	104	0	60	1048575
2026-01-18 01:20:35.81	172.52	79.23	-84.7	-88.6	3.4	7.63e-01	0	47	104	0	60	1048573
2026-01-18 01:20:36.82	173.90	78.79	-85.2	-88.6	3.1	7.64e-01	0	47	104	0	60	1048575
2026-01-18 01:20:37.82	175.15	78.36	-85.2	-88.6	2.7	7.62e-01	0	47	104	0	60	1048575
2026-01-18 01:20:38.83	176.33	77.92	-85.2	-88.6	3.2	7.63e-01	0	47	104	0	60	1048575
2026-01-18 01:20:39.83	177.41	77.47	-85.2	-88.6	3.2	7.64e-01	0	47	104	0	60	1048573
2026-01-18 01:20:40.83	178.42	77.03	-85.2	-88.6	3.0	7.63e-01	0	47	104	0	60	1048570
2026-01-18 01:20:41.84	179.36	76.58	-85.2	-88.6	2.9	7.63e-01	0	47	104	0	60	1048572
2026-01-18 01:20:42.84	180.24	76.13	-85.2	-88.6	3.5	7.63e-01	0	47	104	0	60	1048571
2026-01-18 01:20:43.85	181.07	75.67	-85.2	-88.6	2.7	7.63e-01	0	47	104	0	60	1048575
2026-01-18 01:20:44.85	181.83	75.22	-85.2	-88.6	3.4	7.63e-01	0	47	104	0	60	1048575
2026-01-18 01:20:45.86	182.56	74.77	-85.2	-88.6	3.4	7.63e-01	0	47	104	0	60	1048574
2026-01-18 01:20:46.87	183.24	74.31	-85.2	-88.6	3.4	7.63e-01	0	47	104	0	60	1048573
2026-01-18 01:20:47.87	183.88	73.86	-85.2	-88.6	2.8	7.65e-01	0	47	104	0	60	1048574
2026-01-18 01:20:48.88	184.48	73.40	-85.2	-88.6	3.0	7.62e-01	0	47	104	0	60	1048568
2026-01-18 01:20:49.89	185.06	72.94	-85.2	-88.6	3.8	7.63e-01	0	47	104	0	60	1048575
2026-01-18 01:20:50.90	185.60	72.48	-85.2	-88.6	2.9	7.63e-01	0	47	104	0	60	1048574
2026-01-18 01:20:51.91	186.11	72.03	-85.2	-88.6	3.1	7.62e-01	0	47	104	0	60	1048571
2026-01-18 01:20:52.92	186.60	71.57	-84.7	-88.6	3.0	7.63e-01	0	47	104	0	60	1048575
2026-01-18 01:20:53.93	187.06	71.12	-85.2	-88.6	3.1	7.64e-01	0	47	104	0	60	1048572
2026-01-18 01:20:54.93	187.49	70.67	-85.2	-88.6	3.1	7.64e-01	0	47	104	0	60	1048575
2026-01-18 01:20:55.94	187.91	70.21	-85.2	-88.6	3.6	7.62e-01	0	47	104	0	60	1048569
2026-01-18 01:20:56.95	188.31	69.76	-85.2	-88.6	3.0	7.64e-01	0	47	104	0	60	1048575
2026-01-18 01:20:57.95	188.69	69.31	-84.7	-88.6	3.0	7.63e-01	0	47	104	0	60	1048574
2026-01-18 01:20:58.96	189.05	68.86	-85.2	-88.6	3.5	7.64e-01	0	47	104	0	60	1048575
2026-01-18 01:20:59.96	189.39	68.42	-85.2	-88.6	3.2	7.63e-01	0	47	104	0	60	1048572
2026-01-18 01:21:00.97	189.72	67.97	-84.3	-88.6	2.9	7.63e-01	0	47	104	0	60	1048570
2026-01-18 01:21:01.98	190.04	67.53	-85.2	-88.6	3.0	7.63e-01	0	47	104	0	60	1048571
2026-01-18 01:21:02.99	190.34	67.09	-85.2	-88.6	3.5	7.62e-01	0	47	104	0	60	1048575
2026-01-18 01:21:03.99	190.63	66.65	-85.2	-88.6	3.0	7.64e-01	0	47	104	0	60	1048575
2026-01-18 01:21:05.00	190.91	66.21	-84.7	-88.6	2.9	7.61e-01	0	47	104	0	60	1048569
2026-01-18 01:21:06.01	191.18	65.77	-84.3	-88.6	3.1	7.64e-01	0	47	104	0	60	1048575
2026-01-18 01:21:07.02	191.44	65.34	-85.2	-88.6	3.1	7.63e-01	0	47	104	0	60	1048573
2026-01-18 01:21:08.03	191.69	64.90	-85.2	-88.6	2.9	7.63e-01	0	47	104	0	60	1048573
2026-01-18 01:21:09.03	191.93	64.48	-85.2	-88.6	3.4	7.63e-01	0	47	104	0	60	1048574
2026-01-18 01:21:10.03	192.16	64.05	-85.2	-88.6	3.6	7.63e-01	0	47	104	0	60	1048573
2026-01-18 01:21:11.04	192.38	63.62	-85.2	-88.6	3.1	7.64e-01	0	47	104	0	60	1048572
2026-01-18 01:21:12.04	192.60	63.20	-85.2	-88.6	2.9	7.63e-01	0	47	104	0	60	1048575
2026-01-18 01:21:13.05	192.80	62.78	-84.7	-88.6	3.7	7.64e-01	0	47	104	0	60	1048571
2026-01-18 01:21:14.06	193.00	62.36	-84.7	-88.6	3.3	7.63e-01	0	47	104	0	60	1048575
2026-01-18 01:21:15.06	193.20	61.94	-85.2	-88.6	2.9	7.64e-01	0	47	104	0	60	1048574
2026-01-18 01:21:16.07	193.39	61.53	-84.3	-88.6	3.3	7.65e-01	0	47	104	0	60	1048574
2026-01-18 01:21:17.07	193.57	61.12	-85.2	-88.6	2.7	7.63e-01	0	47	104	0	60	1048575
2026-01-18 01:21:18.08	193.74	60.71	-85.2	-88.6	3.1	7.63e-01	0	47	104	0	60	1048575
2026-01-18 01:21:19.08	193.91	60.30	-85.2	-88.6	2.9	7.63e-01	0	47	104	0	60	1048575
2026-01-18 01:21:20.09	194.08	59.89	-84.3	-88.6	3.2	7.63e-01	0	47	104	0	60	1048575
2026-01-18 01:21:21.10	194.24	59.49	-85.2	-88.6	3.1	7.64e-01	0	47	104	0	60	1048574
2026-01-18 01:21:22.11	194.39	59.09	-85.2	-88.6	2.8	7.64e-01	0	47	104	0	60	1048571
2026-01-18 01:21:23.12	194.54	58.69	-85.2	-88.6	3.5	7.63e-01	0	47	104	0	60	1048574
2026-01-18 01:21:24.13	194.69	58.29	-85.2	-88.6	3.7	7.63e-01	0	47	104	0	60	1048568
2026-01-18 01:21:25.14	194.83	57.90	-85.2	-88.6	3.1	7.64e-01	0	47	104	0	60	1048575
2026-01-18 01:21:26.14	194.97	57.51	-85.2	-88.6	2.8	7.63e-01	0	47	104	0	60	1048575
2026-01-18 01:21:27.15	195.11	57.12	-85.2	-88.6	3.3	7.63e-01	0	47	104	0	60	1048575
2026-01-18 01:21:28.15	195.24	56.74	-85.2	-88.6	3.4	7.63e-01	0	47	104	0	60	1048574
2026-01-18 01:21:29.15	195.36	56.36	-84.7	-88.6	3.1	7.64e-01	0	47	104	0	60	1048572
2026-01-18 01:21:30.16	195.49	55.97	-85.2	-88.6	3.5	7.65e-01	0	47	104	0	60	1048574
2026-01-18 01:21:31.17	195.61	55.59	-85.2	-88.6	3.5	7.64e-01	0	47	104	0	60	1048575
2026-01-18 01:21:32.17	195.72	55.22	-85.2	-88.6	2.7	7.63e-01	0	47	104	0	60	1048572
2026-01-18 01:21:33.18	195.84	54.85	-85.2	-88.6	3.1	7.63e-01	0	47	104	0	60	1048570
2026-01-18 01:21:34.19	195.95	54.47	-85.2	-88.6	3.8	7.62e-01	0	47	104	0	60	1048574
2026-01-18 01:21:35.19	196.06	54.11	-85.2	-88.6	3.3	7.63e-01	0	47	104	0	60	1048571
2026-01-18 01:21:36.20	196.17	53.74	-83.9	-88.6	2.9	7.64e-01	0	47	104	0	60	1048575
2026-01-18 01:21:37.21	196.27	53.38	-85.2	-88.6	3.0	7.63e-01	0	47	104	0	60	1048573
2026-01-18 01:21:38.22	196.37	53.02	-85.2	-88.6	3.1	7.62e-01	0	47	104	0	60	1048575
2026-01-18 01:21:39.22	196.47	52.66	-85.2	-88.6	3.1	7.64e-01	0	47	104	0	60	1048573
2026-01-18 01:21:40.23	196.57	52.30	-85.2	-88.6	3.0	7.64e-01	0	47	104	0	60	1048574
2026-01-18 01:21:41.23	196.66	51.95	-84.7	-88.6	3.0	7.63e-01	0	47	104	0	60	1048573
2026-01-18 01:21:42.24	196.76	51.60	-85.2	-88.6	3.0	7.64e-01	0	47	104	0	60	1048575
2026-01-18 01:21:43.24	196.85	51.26	-85.2	-88.6	3.0	7.63e-01	0	47	104	0	60	1048575
2026-01-18 01:21:44.25	196.93	50.91	-85.2	-88.6	3.1	7.64e-01	0	47	104	0	60	1048568
2026-01-18 01:21:45.26	197.02	50.56	-85.2	-88.6	3.4	7.62e-01	0	47	104	0	60	1048571
2026-01-18 01:21:46.27	197.11	50.22	-85.2	-88.6	2.9	7.63e-01	0	47	104	0	60	1048574
2026-01-18 01:21:47.27	197.19	49.89	-85.2	-88.6	2.9	7.63e-01	0	47	104	0	60	1048575
2026-01-18 01:21:48.27	197.27	49.55	-85.2	-88.6	3.6	7.64e-01	0	47	104	0	60	1048574
2026-01-18 01:21:49.28	197.35	49.22	-85.2	-88.6	2.9	7.61e-01	0	47	104	0	60	1048571
2026-01-18 01:21:50.28	197.43	48.89	-85.2	-88.6	3.1	7.62e-01	0	47	104	0	60	1048574
2026-01-18 01:21:51.29	197.50	48.56	-85.2	-88.6	3.6	7.63e-01	0	47	104	0	60	1048572
2026-01-18 01:21:52.30	197.58	48.23	-85.2	-88.6	3.7	7.62e-01	0	47	104	0	60	1048573
2026-01-18 01:21:53.30	197.65	47.91	-85.2	-88.6	3.0	7.62e-01	0	47	104	0	60	1048575
2026-01-18 01:21:54.31	197.72	47.59	-85.2	-88.6	2.7	7.63e-01	0	47	104	0	60	1048571
2026-01-18 01:21:55.31	197.79	47.27	-85.2	-88.6	3.1	7.64e-01	0	47	104	0	60	1048572
2026-01-18 01:21:56.32	197.86	46.95	-85.2	-88.6	2.8	7.62e-01	0	47	104	0	60	1048565
2026-01-18 01:21:57.33	197.93	46.64	-85.2	-88.6	3.2	7.63e-01	0	47	104	0	60	1048571
2026-01-18 01:21:58.33	198.00	46.33	-85.2	-88.6	3.3	7.63e-01	0	47	104	0	60	1048575
2026-01-18 01:21:59.34	198.06	46.02	-84.7	-88.6	3.5	7.63e-01	0	47	104	0	60	1048571
2026-01-18 01:22:00.35	198.13	45.71	-85.2	-88.6	3.2	7.64e-01	0	47	104	0	60	1048573
2026-01-18 01:22:01.36	198.19	45.40	-85.2	-88.6	3.1	7.63e-01	0	47	104	0	60	1048572
2026-01-18 01:22:02.36	198.25	45.10	-85.2	-88.6	2.8	7.64e-01	0	47	104	0	60	1048575
2026-01-18 01:22:03.36	198.31	44.80	-84.7	-88.6	2.6	7.65e-01	0	47	104	0	60	1048575
2026-01-18 01:22:04.37	198.37	44.50	-85.2	-88.6	3.3	7.63e-01	0	47	104	0	60	1048575
2026-01-18 01:22:05.38	198.43	44.21	-85.2	-88.6	3.0	7.63e-01	0	47	104	0	60	1048568
2026-01-18 01:22:06.38	198.49	43.91	-85.2	-88.6	3.0	7.63e-01	0	47	104	0	60	1048562
2026-01-18 01:22:07.39	198.54	43.62	-85.2	-88.6	3.2	7.64e-01	0	47	104	0	60	1048574
2026-01-18 01:22:08.40	198.60	43.33	-84.7	-88.6	3.6	7.63e-01	0	47	104	0	60	1048572
2026-01-18 01:22:09.40	198.66	43.04	-85.2	-88.6	3.7	7.62e-01	0	47	104	0	60	1048573
2026-01-18 01:22:10.41	198.71	42.76	-85.2	-88.6	3.4	7.64e-01	0	47	104	0	60	1048568
2026-01-18 01:22:11.41	198.76	42.48	-85.2	-88.6	3.1	7.63e-01	0	47	104	0	60	1048571
2026-01-18 01:22:12.42	198.81	42.19	-85.2	-88.6	3.5	7.61e-01	0	47	104	0	60	1048575
2026-01-18 01:22:13.43	198.87	41.91	-85.2	-88.6	2.8	7.65e-01	0	47	104	0	60	1048572
2026-01-18 01:22:14.44	198.92	41.64	-84.7	-88.6	3.0	7.63e-01	0	47	104	0	60	1048575
2026-01-18 01:22:15.44	198.97	41.36	-85.2	-88.6	3.4	7.63e-01	0	47	104	0	60	1048570
2026-01-18 01:22:16.45	199.02	41.09	-85.2	-88.6	2.9	7.63e-01	0	47	104	0	60	1048575
2026-01-18 01:22:17.45	199.06	40.82	-85.2	-88.6	3.0	7.62e-01	0	47	104	0	60	1048575
2026-01-18 01:22:18.46	199.11	40.55	-85.2	-88.6	3.0	7.62e-01	0	47	104	0	60	1048575
2026-01-18 01:22:19.46	199.16	40.29	-85.2	-88.6	3.3	7.61e-01	0	47	104	0	60	1048575
2026-01-18 01:22:20.47	199.20	40.02	-85.2	-88.6	3.3	7.63e-01	0	47	104	0	60	1048574
2026-01-18 01:22:21.48	199.25	39.76	-85.2	-88.6	3.0	7.62e-01	0	47	104	0	60	1048574
2026-01-18 01:22:22.48	199.29	39.50	-85.2	-88.6	3.3	7.63e-01	0	47	104	0	60	1048574
2026-01-18 01:22:23.49	199.34	39.24	-84.7	-88.6	3.2	7.62e-01	0	47	104	0	60	1048574
2026-01-18 01:22:24.50	199.38	38.98	-85.2	-88.6	3.5	7.63e-01	0	47	104	0	60	1048575
2026-01-18 01:22:25.51	199.43	38.72	-85.2	-88.6	3.0	7.63e-01	0	47	104	0	60	1048574
2026-01-18 01:22:26.52	199.47	38.47	-85.2	-88.6	3.3	7.63e-01	0	47	104	0	60	1048572
2026-01-18 01:22:27.52	199.51	38.22	-85.2	-88.6	3.0	7.64e-01	0	47	104	0	60	1048573
2026-01-18 01:22:28.53	199.55	37.97	-85.2	-88.6	3.3	7.64e-01	0	47	104	0	60	1048573
2026-01-18 01:22:29.54	199.59	37.72	-85.2	-88.6	3.2	7.63e-01	0	47	104	0	60	1048573
2026-01-18 01:22:30.55	199.63	37.47	-85.2	-88.6	2.9	7.62e-01	0	47	104	0	60	1048573
2026-01-18 01:22:31.55	199.67	37.23	-84.7	-88.6	3.1	7.63e-01	0	47	104	0	60	1048575
2026-01-18 01:22:32.56	199.71	36.99	-85.2	-88.6	3.1	7.63e-01	0	47	104	0	60	1048566
2026-01-18 01:22:33.57	199.75	36.75	-85.2	-88.6	3.6	7.62e-01	0	47	104	0	60	1048573
2026-01-18 01:22:34.57	199.79	36.51	-85.2	-88.6	3.1	7.63e-01	0	47	104	0	60	1048575
2026-01-18 01:22:35.57	199.82	36.27	-85.2	-88.6	3.3	7.64e-01	0	47	104	0	60	1048575
2026-01-18 01:22:36.58	199.86	36.04	-85.2	-88.6	3.2	7.64e-01	0	47	104	0	60	1048575
2026-01-18 01:22:37.59	199.90	35.80	-85.2	-88.6	3.1	7.60e-01	0	47	104	0	60	1048574
2026-01-18 01:22:38.59	199.93	35.57	-85.2	-88.6	3.0	7.65e-01	0	47	104	0	60	1048575
2026-01-18 01:22:39.60	199.97	35.34	-84.7	-88.6	2.9	7.63e-01	0	47	104	0	60	1048568
2026-01-18 01:22:40.61	200.00	35.11	-85.2	-88.6	3.3	7.63e-01	0	47	104	0	60	1048572
2026-01-18 01:22:41.62	200.04	34.88	-85.2	-88.6	3.1	7.63e-01	0	47	104	0	60	1048574
2026-01-18 01:22:42.62	200.07	34.66	-85.2	-88.6	3.4	7.64e-01	0	47	104	0	60	1048573
2026-01-18 01:22:43.63	200.11	34.43	-85.2	-88.6	3.4	7.64e-01	0	47	104	0	60	1048575
2026-01-18 01:22:44.64	200.14	34.21	-84.7	-88.6	3.2	7.63e-01	0	47	104	0	60	1048571
2026-01-18 01:22:45.64	200.17	33.99	-85.2	-88.6	3.6	7.63e-01	0	47	104	0	60	1048575
2026-01-18 01:22:46.65	200.20	33.77	-84.7	-88.6	3.4	7.64e-01	0	47	104	0	60	1048572
2026-01-18 01:22:47.66	200.24	33.55	-85.2	-88.6	3.0	7.63e-01	0	47	104	0	60	1048575
2026-01-18 01:22:48.66	200.27	33.34	-84.7	-88.6	2.9	7.63e-01	0	47	104	0	60	1048575
2026-01-18 01:22:49.67	200.30	33.12	-85.2	-88.6	2.8	7.63e-01	0	47	104	0	60	1048574
2026-01-18 01:22:50.68	200.33	32.91	-84.3	-88.6	2.9	7.62e-01	0	47	104	0	60	1048575
2026-01-18 01:22:51.68	200.36	32.70	-85.2	-88.6	2.6	7.63e-01	0	47	104	0	60	1048574
2026-01-18 01:22:52.69	200.39	32.49	-85.2	-88.6	3.0	7.63e-01	0	47	104	0	60	1048575
2026-01-18 01:22:53.69	200.42	32.28	-85.2	-88.6	3.2	7.63e-01	0	47	104	0	60	1048575
2026-01-18 01:22:54.70	200.45	32.07	-85.2	-88.6	3.4	7.63e-01	0	47	104	0	60	1048571
2026-01-18 01:22:55.71	200.48	31.87	-85.2	-88.6	2.7	7.63e-01	0	47	104	0	60	1048571
2026-01-18 01:22:56.71	200.51	31.66	-85.2	-88.6	3.0	7.62e-01	0	47	104	0	60	1048573
2026-01-18 01:22:57.71	200.54	31.46	-85.2	-88.6	3.5	7.64e-01	0	47	104	0	60	1048572
2026-01-18 01:22:58.72	200.57	31.26	-85.2	-88.6	2.8	7.64e-01	0	47	104	0	60	1048575
2026-01-18 01:22:59.72	200.60	31.06	-85.2	-88.6	2.9	7.64e-01	0	47	104	0	60	1048574
2026-01-18 01:23:00.73	200.62	30.86	-85.2	-88.6	3.2	7.63e-01	0	47	104	0	60	1048573
2026-01-18 01:23:01.73	200.65	30.66	-85.2	-88.6	3.0	7.64e-01	0	47	104	0	60	1048571
2026-01-18 01:23:02.74	200.68	30.47	-85.2	-88.6	3.1	7.63e-01	0	47	104	0	60	1048570
2026-01-18 01:23:03.75	200.71	30.27	-85.2	-88.6	3.3	7.62e-01	0	47	104	0	60	1048575
2026-01-18 01:23:04.76	200.73	30.08	-85.2	-88.6	3.4	7.64e-01	0	47	104	0	60	1048572
2026-01-18 01:23:05.76	200.76	29.89	-84.7	-88.6	3.0	7.63e-01	0	47	104	0	60	1048574
2026-01-18 01:23:06.76	200.78	29.70	-85.2	-88.6	3.0	7.64e-01	0	47	104	0	60	1048575
2026-01-18 01:23:07.77	200.81	29.51	-84.7	-88.6	3.5	7.62e-01	0	47	104	0	60	1048573
2026-01-18 01:23:08.78	200.84	29.32	-85.2	-88.6	3.1	7.63e-01	0	47	104	0	60	1048573
2026-01-18 01:23:09.78	200.86	29.13	-84.7	-88.6	3.3	7.64e-01	0	47	104	0	60	1048573
2026-01-18 01:23:10.78	200.89	28.95	-84.7	-88.6	3.1	7.59e-01	0	47	104	0	60	1048569
2026-01-18 01:23:11.79	200.91	28.76	-84.7	-88.6	2.9	7.63e-01	0	47	104	0	60	1048571
2026-01-18 01:23:12.80	200.94	28.58	-85.2	-88.6	3.2	7.63e-01	0	47	104	0	60	1048573
2026-01-18 01:23:13.81	200.96	28.39	-85.2	-88.6	3.2	7.64e-01	0	47	104	0	60	1048575
2026-01-18 01:23:14.82	200.98	28.21	-85.2	-88.6	3.5	7.63e-01	0	47	104	0	60	1048575
2026-01-18 01:23:15.82	201.01	28.03	-85.2	-88.6	3.1	7.63e-01	0	47	104	0	60	1048572
2026-01-18 01:23:16.83	201.03	27.85	-85.2	-88.6	2.7	7.63e-01	0	47	104	0	60	1048575
2026-01-18 01:23:17.84	201.06	27.68	-85.2	-88.6	3.8	7.63e-01	0	47	104	0	60	1048569
2026-01-18 01:23:18.85	201.08	27.50	-85.2	-88.6	3.6	7.63e-01	0	47	104	0	60	1048574
2026-01-18 01:23:19.86	201.10	27.32	-85.2	-88.6	3.2	7.62e-01	0	47	104	0	60	1048575
2026-01-18 01:23:20.87	201.13	27.15	-84.7	-88.6	3.3	7.61e-01	0	47	104	0	60	1048570
2026-01-18 01:23:21.87	201.15	26.97	-85.2	-88.6	3.0	7.62e-01	0	47	104	0	60	1048575
2026-01-18 01:23:22.88	201.17	26.80	-85.2	-88.6	3.1	7.63e-01	0	47	104	0	60	1048574
2026-01-18 01:23:23.88	201.19	26.63	-85.2	-88.6	3.3	7.63e-01	0	47	104	0	60	1048570
2026-01-18 01:23:24.88	201.21	26.46	-85.2	-88.6	2.9	7.62e-01	0	47	104	0	60	1048572
2026-01-18 01:23:25.88	201.24	26.30	-84.7	-88.6	3.7	7.63e-01	0	47	104	0	60	1048571
2026-01-18 01:23:26.89	201.26	26.13	-85.2	-88.6	3.3	7.63e-01	0	47	104	0	60	1048573
2026-01-18 01:23:27.89	201.28	25.96	-85.2	-88.6	3.1	7.62e-01	0	47	104	0	60	1048574
2026-01-18 01:23:28.90	201.30	25.80	-84.7	-88.6	3.0	7.62e-01	0	47	104	0	60	1048575
2026-01-18 01:23:29.90	201.32	25.63	-85.2	-88.6	3.4	7.63e-01	0	47	104	0	60	1048575
2026-01-18 01:23:30.90	201.34	25.47	-85.2	-88.6	3.0	7.62e-01	0	47	104	0	60	1048565
2026-01-18 01:23:31.91	201.36	25.31	-85.2	-88.6	3.1	7.63e-01	0	47	104	0	60	1048575
2026-01-18 01:23:32.92	201.38	25.14	-85.2	-88.6	3.2	7.63e-01	0	47	104	0	60	1048575
2026-01-18 01:23:33.92	201.40	24.98	-85.2	-88.6	3.0	7.63e-01	0	47	104	0	60	1048573
2026-01-18 01:23:34.93	201.42	24.82	-85.2	-88.6	2.9	7.63e-01	0	47	104	0	60	1048575
2026-01-18 01:23:35.94	201.45	24.66	-84.7	-88.6	3.6	7.61e-01	0	47	104	0	60	1048568
2026-01-18 01:23:36.95	201.47	24.50	-84.7	-88.6	3.1	7.63e-01	0	47	104	0	60	1048570
2026-01-18 01:23:37.96	201.48	24.35	-85.2	-88.6	3.2	7.62e-01	0	47	104	0	60	1048572
2026-01-18 01:23:38.96	201.50	24.19	-85.2	-88.6	3.1	7.62e-01	0	47	104	0	60	1048575
2026-01-18 01:23:39.96	201.52	24.04	-85.2	-88.6	3.2	7.61e-01	0	47	104	0	60	1048575
2026-01-18 01:23:40.97	201.54	23.88	-85.2	-88.6	3.1	7.64e-01	0	47	104	0	60	1048574
2026-01-18 01:23:41.97	201.56	23.73	-85.2	-88.6	3.0	7.63e-01	0	47	104	0	60	1048575
2026-01-18 01:23:42.98	201.58	23.58	-85.2	-88.6	3.4	7.63e-01	0	47	104	0	60	1048572
2026-01-18 01:23:43.99	201.60	23.43	-84.7	-88.6	2.6	7.63e-01	0	47	104	0	60	1048573
2026-01-18 01:23:45.00	201.62	23.28	-85.2	-88.6	3.0	7.62e-01	0	47	104	0	60	1048573
2026-01-18 01:23:46.00	201.64	23.13	-85.2	-88.6	2.9	7.63e-01	0	47	104	0	60	1048575
2026-01-18 01:23:47.01	201.66	22.98	-85.2	-88.6	2.8	7.63e-01	0	47	104	0	60	1048571
2026-01-18 01:23:48.02	201.67	22.83	-85.2	-88.6	3.7	7.63e-01	0	47	104	0	60	1048575
2026-01-18 01:23:49.03	201.69	22.68	-85.2	-88.6	3.2	7.62e-01	0	47	104	0	60	1048572
2026-01-18 01:23:50.03	201.71	22.54	-85.2	-88.6	3.0	7.63e-01	0	47	104	0	60	1048575
2026-01-18 01:23:51.04	201.73	22.39	-85.2	-88.6	2.7	7.62e-01	0	47	104	0	60	1048575
2026-01-18 01:23:52.04	201.75	22.25	-85.2	-88.6	3.1	7.62e-01	0	47	104	0	60	1048574
2026-01-18 01:23:53.05	201.76	22.10	-85.2	-88.6	3.6	7.64e-01	0	47	104	0	60	1048572
2026-01-18 01:23:54.06	201.78	21.96	-85.2	-88.6	3.2	7.62e-01	0	47	104	0	60	1048571
2026-01-18 01:23:55.06	201.80	21.82	-85.2	-88.6	3.1	7.63e-01	0	47	104	0	60	1048575
2026-01-18 01:23:56.07	201.82	21.67	-85.2	-88.6	3.4	7.62e-01	0	47	104	0	60	1048571
2026-01-18 01:23:57.08	201.83	21.53	-85.2	-88.6	3.0	7.62e-01	0	47	104	0	60	1048574
2026-01-18 01:23:58.08	201.85	21.39	-84.7	-88.6	3.6	7.62e-01	0	47	104	0	60	1048575
2026-01-18 01:23:59.09	201.87	21.25	-85.2	-88.6	3.0	7.64e-01	0	47	104	0	60	1048574
2026-01-18 01:24:00.09	201.88	21.12	-85.2	-88.6	3.0	7.63e-01	0	47	104	0	60	1048574
2026-01-18 01:24:01.09	201.90	20.98	-84.7	-88.6	3.3	7.63e-01	0	47	104	0	60	1048567
2026-01-18 01:24:02.10	201.92	20.84	-85.2	-88.6	2.8	7.63e-01	0	47	104	0	60	1048575
2026-01-18 01:24:03.11	201.93	20.71	-85.2	-88.6	3.0	7.61e-01	0	47	104	0	60	1048571
2026-01-18 01:24:04.12	201.95	20.57	-85.2	-88.6	3.5	7.63e-01	0	47	104	0	60	1048574
2026-01-18 01:24:05.13	201.97	20.44	-85.2	-88.6	3.2	7.63e-01	0	47	104	0	60	1048571
2026-01-18 01:24:06.13	201.98	20.30	-85.2	-88.6	2.9	7.64e-01	0	47	104	0	60	1048575
2026-01-18 01:24:07.14	202.00	20.17	-85.2	-88.6	3.5	7.62e-01	0	47	104	0	60	1048570
2026-01-18 01:24:08.14	202.01	20.04	-84.7	-88.6	3.3	7.63e-01	0	47	104	0	60	1048573
2026-01-18 01:24:09.15	202.03	19.90	-85.2	-88.6	2.9	7.63e-01	0	47	104	0	60	1048575
2026-01-18 01:24:10.15	202.04	19.77	-85.2	-88.6	3.7	7.62e-01	0	47	104	0	60	1048575
2026-01-18 01:24:11.16	202.06	19.64	-85.2	-88.6	3.6	7.63e-01	0	47	104	0	60	1048575
2026-01-18 01:24:12.16	202.08	19.51	-84.7	-88.6	3.2	7.61e-01	0	47	104	0	60	1048574
2026-01-18 01:24:13.17	202.09	19.39	-85.2	-88.6	3.1	7.63e-01	0	47	104	0	60	1048575
2026-01-18 01:24:14.17	202.11	19.26	-85.2	-88.6	3.4	7.64e-01	0	47	104	0	60	1048571
2026-01-18 01:24:15.18	202.12	19.13	-85.2	-88.6	3.3	7.64e-01	0	47	104	0	60	1048574
2026-01-18 01:24:16.19	202.14	19.00	-85.2	-88.6	3.1	7.63e-01	0	47	104	0	60	1048562
2026-01-18 01:24:17.19	202.15	18.88	-84.7	-88.6	3.1	7.62e-01	0	47	104	0	60	1048573
2026-01-18 01:24:18.20	202.17	18.75	-85.2	-88.6	3.3	7.62e-01	0	47	104	0	60	1048575
2026-01-18 01:24:19.20	202.18	18.63	-85.2	-88.6	3.5	7.63e-01	0	47	104	0	60	1048575
2026-01-18 01:24:20.21	202.20	18.50	-85.2	-88.6	2.9	7.54e-01	0	47	104	0	60	1048574
2026-01-18 01:24:21.21	202.21	18.38	-85.2	-88.6	3.1	7.62e-01	0	47	104	0	60	1048573
2026-01-18 01:24:22.22	202.22	18.25	-85.2	-88.6	3.2	7.63e-01	0	47	104	0	60	1048573
2026-01-18 01:24:23.23	202.24	18.13	-85.2	-88.6	3.0	7.64e-01	0	47	104	0	60	1048573
2026-01-18 01:24:24.24	202.25	18.01	-85.2	-88.6	3.3	7.64e-01	0	47	104	0	60	1048575
2026-01-18 01:24:25.24	202.27	17.89	-85.2	-88.6	3.4	7.63e-01	0	47	104	0	60	1048567
2026-01-18 01:24:26.25	202.28	17.77	-85.2	-88.6	3.1	7.63e-01	0	47	104	0	60	1048570
2026-01-18 01:24:27.26	202.30	17.65	-84.7	-88.6	2.9	7.63e-01	0	47	104	0	60	1048575
2026-01-18 01:24:28.26	202.31	17.53	-84.7	-88.6	3.7	7.63e-01	0	47	104	0	60	1048571
2026-01-18 01:24:29.26	202.32	17.41	-84.7	-88.6	3.4	7.65e-01	0	47	104	0	60	1048574
2026-01-18 01:24:30.27	202.34	17.29	-85.2	-88.6	3.0	7.64e-01	0	47	104	0	60	1048575
2026-01-18 01:24:31.28	202.35	17.17	-85.2	-88.6	3.3	7.63e-01	0	47	104	0	60	1048575
2026-01-18 01:24:32.29	202.36	17.05	-85.2	-88.6	3.0	7.63e-01	0	47	104	0	60	1048575
2026-01-18 01:24:33.29	202.38	16.94	-85.2	-88.6	3.2	7.62e-01	0	47	104	0	60	1048564
2026-01-18 01:24:34.30	202.39	16.82	-84.7	-88.6	3.0	7.64e-01	0	47	104	0	60	1048572
2026-01-18 01:24:35.31	202.40	16.70	-85.2	-88.6	3.6	7.64e-01	0	47	104	0	60	1048574
2026-01-18 01:24:36.31	202.42	16.59	-85.2	-88.6	3.4	7.62e-01	0	47	104	0	60	1048575
2026-01-18 01:24:37.31	202.43	16.48	-85.2	-88.6	3.2	7.64e-01	0	47	104	0	60	1048571
2026-01-18 01:24:38.32	202.44	16.36	-85.2	-88.6	3.5	7.60e-01	0	47	104	0	60	1048575
2026-01-18 01:24:39.32	202.46	16.25	-85.2	-88.6	3.4	7.61e-01	0	47	104	0	60	1048575
