passes_logs/2026/01/18/R3.2S-Naryan-Mar/R3.2S-Naryan-Mar__20260118_015358_SUOMI_NPP_rec.log

#Pass ID: 20260118_015358_SUOMI NPP
#Satellite: SUOMI NPP
#Configuration: NPP
#almurnet v.1.7.20240730
#Start time: 2026-01-18 01:53:59

#Version: 2.2.20231116
#Station: R3.2S-Naryan-Mar
#Location: 53.008057 lon 67.646978 lat
#TLE: 1 37849U 11061A   26017.28905266  .00000074  00000+0  55894-4 0  9999
#TLE: 2 37849  98.7814 319.3179 0002408  59.7048 300.4366 14.19525847737038

#Time	Az	El	Level	Level2	SNR	BER	BlckErr	Temp	State	Recorded	gain1	gain2
2026-01-18 01:53:59.87	38.23	0.07	-85.2	-88.8	3.0	1.56e+00	0	45	0	0	60	1048575
2026-01-18 01:54:00.86	38.18	0.13	-85.2	-88.6	3.1	1.56e+00	0	45	104	0	60	1048575
2026-01-18 01:54:01.87	38.13	0.18	-85.2	-88.6	3.2	1.56e+00	0	46	104	0	60	1048575
2026-01-18 01:54:02.88	38.09	0.24	-85.2	-88.6	3.0	1.55e+00	0	46	104	0	60	1048574
2026-01-18 01:54:03.89	38.04	0.29	-85.2	-88.6	3.2	1.56e+00	0	46	104	0	60	1048574
2026-01-18 01:54:04.89	37.99	0.35	-85.2	-88.6	3.2	1.55e+00	0	46	104	0	60	1048575
2026-01-18 01:54:05.90	37.94	0.41	-85.2	-88.6	3.1	1.56e+00	0	46	104	0	60	1048575
2026-01-18 01:54:06.91	37.89	0.46	-85.2	-88.6	3.2	1.56e+00	0	46	104	0	60	1048575
2026-01-18 01:54:07.92	37.84	0.52	-85.2	-88.6	3.1	1.56e+00	0	46	104	0	60	1048575
2026-01-18 01:54:08.93	37.79	0.58	-85.2	-88.6	2.9	1.55e+00	0	46	104	0	60	1048575
2026-01-18 01:54:09.94	37.74	0.63	-85.2	-88.6	2.9	1.56e+00	0	46	104	0	60	1048574
2026-01-18 01:54:10.94	37.69	0.69	-85.2	-88.6	3.2	1.56e+00	0	46	104	0	60	1048574
2026-01-18 01:54:11.95	37.64	0.75	-85.2	-88.6	3.0	1.56e+00	0	46	104	0	60	1048574
2026-01-18 01:54:12.96	37.59	0.80	-85.2	-88.6	2.9	1.55e+00	0	46	104	0	60	1048574
2026-01-18 01:54:13.96	37.54	0.86	-85.2	-88.6	2.9	1.55e+00	0	46	104	0	60	1048573
2026-01-18 01:54:14.95	37.49	0.92	-85.2	-88.6	2.9	1.56e+00	0	46	104	0	60	1048575
2026-01-18 01:54:15.96	37.44	0.97	-85.2	-88.6	2.9	1.56e+00	0	46	104	0	60	1048575
2026-01-18 01:54:16.97	37.39	1.03	-85.2	-88.6	3.1	1.55e+00	0	46	104	0	60	1048575
2026-01-18 01:54:17.97	37.33	1.09	-85.2	-88.6	3.1	1.56e+00	0	46	104	0	60	1048573
2026-01-18 01:54:18.98	37.28	1.15	-85.2	-88.6	2.9	1.56e+00	0	46	104	0	60	1048575
2026-01-18 01:54:19.99	37.23	1.20	-85.2	-88.6	3.1	1.56e+00	0	46	104	0	60	1048574
2026-01-18 01:54:21.00	37.18	1.26	-85.2	-88.6	3.0	1.56e+00	0	46	104	0	60	1048573
2026-01-18 01:54:22.00	37.13	1.32	-85.2	-88.6	3.0	1.56e+00	0	46	104	0	60	1048575
2026-01-18 01:54:23.01	37.07	1.38	-85.2	-88.6	3.2	1.56e+00	0	46	104	0	60	1048574
2026-01-18 01:54:24.02	37.02	1.44	-85.2	-88.6	3.1	1.56e+00	0	46	104	0	60	1048575
2026-01-18 01:54:25.03	36.97	1.49	-85.2	-88.6	3.1	1.55e+00	0	46	104	0	60	1048575
2026-01-18 01:54:26.04	36.91	1.55	-85.2	-88.6	3.0	1.56e+00	0	46	104	0	60	1048575
2026-01-18 01:54:27.04	36.86	1.61	-85.2	-88.6	2.8	1.55e+00	0	46	104	0	60	1048575
2026-01-18 01:54:28.04	36.81	1.67	-85.2	-88.6	3.1	1.56e+00	0	46	104	0	60	1048575
2026-01-18 01:54:29.05	36.75	1.73	-83.9	-88.6	3.0	1.56e+00	0	46	104	0	60	1048574
2026-01-18 01:54:30.06	36.70	1.78	-85.2	-88.6	3.1	1.55e+00	0	46	104	0	60	1048575
2026-01-18 01:54:31.06	36.64	1.84	-85.2	-88.6	3.0	1.55e+00	0	46	104	0	60	1048574
2026-01-18 01:54:32.07	36.59	1.90	-85.2	-88.6	3.1	1.56e+00	0	46	104	0	60	1048572
2026-01-18 01:54:33.08	36.53	1.96	-85.2	-88.6	2.9	1.56e+00	0	46	104	0	60	1048575
2026-01-18 01:54:34.08	36.48	2.02	-85.2	-88.6	3.0	1.56e+00	0	46	104	0	60	1048575
2026-01-18 01:54:35.09	36.42	2.08	-85.2	-88.6	3.0	1.56e+00	0	46	104	0	60	1048575
2026-01-18 01:54:36.10	36.37	2.14	-85.2	-88.6	3.2	1.56e+00	0	46	104	0	60	1048574
2026-01-18 01:54:37.11	36.31	2.20	-85.2	-88.6	2.9	1.56e+00	0	46	104	0	60	1048574
2026-01-18 01:54:38.12	36.25	2.26	-85.2	-88.6	3.1	1.55e+00	0	46	104	0	60	1048574
2026-01-18 01:54:39.12	36.20	2.32	-84.3	-88.6	3.1	1.55e+00	0	46	104	0	60	1048574
2026-01-18 01:54:40.13	36.14	2.38	-85.2	-88.6	3.1	1.56e+00	0	46	104	0	60	1048575
2026-01-18 01:54:41.14	36.09	2.43	-85.2	-88.6	3.0	1.55e+00	0	46	104	0	60	1048574
2026-01-18 01:54:42.15	36.03	2.49	-85.2	-88.6	2.7	1.56e+00	0	46	104	0	60	1048570
2026-01-18 01:54:43.16	35.97	2.55	-85.2	-88.6	3.0	1.55e+00	0	46	104	0	60	1048574
2026-01-18 01:54:44.17	35.91	2.61	-85.2	-88.6	2.9	1.56e+00	0	46	104	0	60	1048573
2026-01-18 01:54:45.17	35.85	2.67	-85.2	-88.6	3.0	1.56e+00	0	46	104	0	60	1048574
2026-01-18 01:54:46.18	35.80	2.73	-85.2	-88.6	3.0	1.56e+00	0	46	104	0	60	1048575
2026-01-18 01:54:47.19	35.74	2.79	-85.2	-88.6	2.8	1.56e+00	0	46	104	0	60	1048574
2026-01-18 01:54:48.19	35.68	2.85	-85.2	-88.6	3.1	1.56e+00	0	46	104	0	60	1048574
2026-01-18 01:54:49.20	35.62	2.92	-85.2	-88.6	2.9	1.55e+00	0	46	104	0	60	1048575
2026-01-18 01:54:50.21	35.56	2.98	-84.3	-88.6	3.0	1.56e+00	0	46	104	0	60	1048574
2026-01-18 01:54:51.21	35.50	3.04	-85.2	-88.6	2.9	1.56e+00	0	46	104	0	60	1048575
2026-01-18 01:54:52.21	35.44	3.10	-85.2	-88.6	2.9	1.56e+00	0	46	104	0	60	1048574
2026-01-18 01:54:53.22	35.38	3.16	-85.2	-88.6	3.0	1.56e+00	0	47	104	0	60	1048575
2026-01-18 01:54:54.23	35.32	3.22	-85.2	-88.6	3.0	1.56e+00	0	47	104	0	60	1048575
2026-01-18 01:54:55.24	35.26	3.28	-85.2	-88.6	2.9	1.56e+00	0	47	104	0	60	1048573
2026-01-18 01:54:56.25	35.20	3.34	-85.2	-88.6	2.8	1.55e+00	0	47	104	0	60	1048575
2026-01-18 01:54:57.25	35.14	3.40	-85.2	-88.6	2.9	1.56e+00	0	46	104	0	60	1048571
2026-01-18 01:54:58.26	35.08	3.46	-85.2	-88.6	2.8	1.56e+00	0	46	104	0	60	1048575
2026-01-18 01:54:59.27	35.02	3.52	-85.2	-88.6	2.9	1.55e+00	0	47	104	0	60	1048575
2026-01-18 01:55:00.28	34.96	3.59	-85.2	-88.6	2.7	1.56e+00	0	47	104	0	60	1048574
2026-01-18 01:55:01.29	34.89	3.65	-85.2	-88.6	2.9	1.56e+00	0	46	104	0	60	1048575
2026-01-18 01:55:02.29	34.83	3.71	-85.2	-88.6	2.8	1.56e+00	0	47	104	0	60	1048575
2026-01-18 01:55:03.29	34.77	3.77	-85.2	-88.6	3.0	1.56e+00	0	46	104	0	60	1048575
2026-01-18 01:55:04.30	34.71	3.83	-85.2	-88.6	3.0	1.56e+00	0	46	104	0	60	1048575
2026-01-18 01:55:05.31	34.64	3.89	-85.2	-88.6	2.8	1.56e+00	0	46	104	0	60	1048574
2026-01-18 01:55:06.31	34.58	3.96	-85.2	-88.6	3.2	1.56e+00	0	46	104	0	60	1048575
2026-01-18 01:55:07.32	34.52	4.02	-85.2	-88.6	2.9	1.56e+00	0	46	104	0	60	1048574
2026-01-18 01:55:08.33	34.45	4.08	-85.2	-88.6	2.8	1.56e+00	0	46	104	0	60	1048573
2026-01-18 01:55:09.33	34.39	4.14	-85.2	-88.6	2.8	1.56e+00	0	47	104	0	60	1048575
2026-01-18 01:55:10.34	34.32	4.21	-85.2	-88.6	3.0	1.56e+00	0	46	104	0	60	1048575
2026-01-18 01:55:11.35	34.26	4.27	-85.2	-88.6	3.0	1.55e+00	0	47	104	0	60	1048574
2026-01-18 01:55:12.36	34.19	4.33	-85.2	-88.6	3.0	1.55e+00	0	46	104	0	60	1048575
2026-01-18 01:55:13.37	34.13	4.39	-85.2	-88.6	2.9	1.56e+00	0	47	104	0	60	1048575
2026-01-18 01:55:14.37	34.06	4.46	-85.2	-88.6	2.8	1.56e+00	0	47	104	0	60	1048575
2026-01-18 01:55:15.38	33.99	4.52	-85.2	-88.6	2.9	1.55e+00	0	47	104	0	60	1048573
2026-01-18 01:55:16.39	33.93	4.58	-85.2	-88.6	2.9	1.56e+00	0	47	104	0	60	1048575
2026-01-18 01:55:17.40	33.86	4.65	-85.2	-88.6	3.0	1.56e+00	0	47	104	0	60	1048572
2026-01-18 01:55:18.41	33.79	4.71	-85.2	-88.6	3.0	1.56e+00	0	47	104	0	60	1048575
2026-01-18 01:55:19.41	33.73	4.77	-85.2	-88.6	3.1	1.56e+00	0	47	104	0	60	1048571
2026-01-18 01:55:20.42	33.66	4.84	-85.2	-88.6	3.0	1.56e+00	0	46	104	0	60	1048574
2026-01-18 01:55:21.42	33.59	4.90	-85.2	-88.6	2.9	1.56e+00	0	46	104	0	60	1048575
2026-01-18 01:55:22.43	33.52	4.97	-85.2	-88.6	3.1	1.56e+00	0	46	104	0	60	1048575
2026-01-18 01:55:23.44	33.45	5.03	-83.5	-88.6	3.1	1.56e+00	0	47	104	0	60	1048575
2026-01-18 01:55:24.45	33.39	5.09	-85.2	-88.6	3.0	1.56e+00	0	47	104	0	60	1048575
2026-01-18 01:55:25.46	33.32	5.16	-85.2	-88.6	3.0	1.56e+00	0	46	104	0	60	1048575
2026-01-18 01:55:26.46	33.25	5.22	-85.2	-88.6	2.9	1.56e+00	0	47	104	0	60	1048575
2026-01-18 01:55:27.47	33.18	5.29	-85.2	-88.6	2.9	1.56e+00	0	46	104	0	60	1048572
2026-01-18 01:55:28.47	33.11	5.35	-85.2	-88.6	3.1	1.56e+00	0	47	104	0	60	1048575
2026-01-18 01:55:29.48	33.04	5.42	-85.2	-88.6	2.9	1.56e+00	0	47	104	0	60	1048575
2026-01-18 01:55:30.49	32.96	5.48	-85.2	-88.6	3.0	1.56e+00	0	46	104	0	60	1048575
2026-01-18 01:55:31.49	32.89	5.55	-85.2	-88.6	2.9	1.55e+00	0	46	104	0	60	1048573
2026-01-18 01:55:32.50	32.82	5.61	-85.2	-88.6	2.8	1.55e+00	0	47	104	0	60	1048575
2026-01-18 01:55:33.51	32.75	5.68	-85.2	-88.6	3.2	1.56e+00	0	47	104	0	60	1048575
2026-01-18 01:55:34.52	32.68	5.74	-85.2	-88.6	3.1	1.56e+00	0	47	104	0	60	1048574
2026-01-18 01:55:35.52	32.61	5.81	-84.7	-88.6	3.0	1.56e+00	0	47	104	0	60	1048572
2026-01-18 01:55:36.53	32.53	5.87	-82.5	-88.6	3.0	1.56e+00	0	47	104	0	60	1048574
2026-01-18 01:55:37.54	32.46	5.94	-85.2	-88.6	2.8	1.56e+00	0	47	104	0	60	1048574
2026-01-18 01:55:38.55	32.39	6.00	-85.2	-88.6	3.1	1.56e+00	0	47	104	0	60	1048573
2026-01-18 01:55:39.56	32.31	6.07	-84.3	-88.6	3.0	1.56e+00	0	47	104	0	60	1048575
2026-01-18 01:55:40.56	32.24	6.14	-85.2	-88.6	2.8	1.56e+00	0	47	104	0	60	1048573
2026-01-18 01:55:41.57	32.16	6.20	-85.2	-88.6	3.0	1.56e+00	0	47	104	0	60	1048571
2026-01-18 01:55:42.58	32.09	6.27	-85.2	-88.6	3.1	1.55e+00	0	47	104	0	60	1048575
2026-01-18 01:55:43.58	32.01	6.33	-85.2	-88.6	3.0	1.56e+00	0	47	104	0	60	1048572
2026-01-18 01:55:44.59	31.94	6.40	-85.2	-88.6	3.3	1.56e+00	0	47	104	0	60	1048575
2026-01-18 01:55:45.60	31.86	6.47	-85.2	-88.6	2.9	1.56e+00	0	47	104	0	60	1048572
2026-01-18 01:55:46.61	31.78	6.53	-85.2	-88.6	2.8	1.56e+00	0	47	104	0	60	1048575
2026-01-18 01:55:47.62	31.71	6.60	-85.2	-88.6	3.0	1.56e+00	0	47	104	0	60	1048571
2026-01-18 01:55:48.63	31.63	6.67	-85.2	-88.6	2.8	1.55e+00	0	47	104	0	60	1048571
2026-01-18 01:55:49.63	31.55	6.74	-84.3	-88.6	3.1	1.56e+00	0	47	104	0	60	1048572
2026-01-18 01:55:50.64	31.47	6.80	-85.2	-88.6	3.1	1.55e+00	0	47	104	0	60	1048574
2026-01-18 01:55:51.65	31.40	6.87	-85.2	-88.6	3.0	1.56e+00	0	47	104	0	60	1048570
2026-01-18 01:55:52.65	31.32	6.94	-85.2	-88.6	3.0	1.56e+00	0	47	104	0	60	1048575
2026-01-18 01:55:53.66	31.24	7.01	-84.7	-88.6	3.0	1.55e+00	0	47	104	0	60	1048575
2026-01-18 01:55:54.66	31.16	7.07	-84.7	-88.6	3.0	1.55e+00	0	47	104	0	60	1048574
2026-01-18 01:55:55.67	31.08	7.14	-85.2	-88.6	3.1	1.56e+00	0	47	104	0	60	1048573
2026-01-18 01:55:56.67	31.00	7.21	-85.2	-88.6	3.1	1.55e+00	0	47	104	0	60	1048575
2026-01-18 01:55:57.68	30.92	7.28	-85.2	-88.6	3.1	1.55e+00	0	47	104	0	60	1048575
2026-01-18 01:55:58.68	30.84	7.34	-85.2	-88.6	3.1	1.56e+00	0	47	104	0	60	1048573
2026-01-18 01:55:59.69	30.76	7.41	-83.1	-88.6	3.0	1.55e+00	0	47	104	0	60	1048572
2026-01-18 01:56:00.70	30.67	7.48	-85.2	-88.6	3.2	1.56e+00	0	47	104	0	60	1048575
2026-01-18 01:56:01.71	30.59	7.55	-85.2	-88.6	2.9	1.56e+00	0	47	104	0	60	1048574
2026-01-18 01:56:02.71	30.51	7.62	-85.2	-88.6	3.2	1.56e+00	0	47	104	0	60	1048574
2026-01-18 01:56:03.72	30.43	7.69	-85.2	-88.6	3.0	1.55e+00	0	47	104	0	60	1048570
2026-01-18 01:56:04.73	30.34	7.76	-85.2	-88.6	2.6	1.56e+00	0	47	104	0	60	1048575
2026-01-18 01:56:05.74	30.26	7.83	-85.2	-88.6	3.1	1.56e+00	0	47	104	0	60	1048571
2026-01-18 01:56:06.74	30.17	7.89	-85.2	-88.6	3.0	1.56e+00	0	47	104	0	60	1048573
2026-01-18 01:56:07.75	30.09	7.96	-85.2	-88.6	3.0	1.56e+00	0	47	104	0	60	1048572
2026-01-18 01:56:08.75	30.00	8.03	-84.7	-88.6	3.0	1.56e+00	0	47	104	0	60	1048575
2026-01-18 01:56:09.76	29.92	8.10	-85.2	-88.6	3.1	1.56e+00	0	47	104	0	60	1048575
2026-01-18 01:56:10.76	29.83	8.17	-84.7	-88.6	2.9	1.56e+00	0	47	104	0	60	1048570
2026-01-18 01:56:11.77	29.75	8.24	-85.2	-88.6	2.9	1.56e+00	0	47	104	0	60	1048575
2026-01-18 01:56:12.77	29.66	8.31	-85.2	-88.6	3.0	1.56e+00	0	47	104	0	60	1048575
2026-01-18 01:56:13.78	29.57	8.38	-85.2	-88.6	3.0	1.56e+00	0	47	104	0	60	1048575
2026-01-18 01:56:14.79	29.48	8.45	-85.2	-88.6	2.8	1.56e+00	0	47	104	0	60	1048573
2026-01-18 01:56:15.80	29.40	8.52	-85.2	-88.6	3.1	1.56e+00	0	47	104	0	60	1048575
2026-01-18 01:56:16.80	29.31	8.59	-85.2	-88.6	3.0	1.55e+00	0	47	104	0	60	1048573
2026-01-18 01:56:17.81	29.22	8.66	-85.2	-88.6	2.8	1.56e+00	0	47	104	0	60	1048575
2026-01-18 01:56:18.81	29.13	8.73	-85.2	-88.6	2.7	1.55e+00	0	47	104	0	60	1048575
2026-01-18 01:56:19.82	29.04	8.80	-85.2	-88.6	3.1	1.56e+00	0	47	104	0	60	1048574
2026-01-18 01:56:20.83	28.95	8.88	-85.2	-88.6	2.9	1.55e+00	0	47	104	0	60	1048575
2026-01-18 01:56:21.84	28.86	8.95	-85.2	-88.6	3.1	1.55e+00	0	47	104	0	60	1048574
2026-01-18 01:56:22.85	28.77	9.02	-85.2	-88.6	3.3	1.56e+00	0	47	104	0	60	1048575
2026-01-18 01:56:23.85	28.68	9.09	-84.3	-88.6	2.9	1.56e+00	0	47	104	0	60	1048575
2026-01-18 01:56:24.86	28.58	9.16	-83.5	-88.6	3.1	1.56e+00	0	47	104	0	60	1048575
2026-01-18 01:56:25.87	28.49	9.23	-85.2	-88.6	3.0	1.56e+00	0	47	104	0	60	1048570
2026-01-18 01:56:26.87	28.40	9.30	-85.2	-88.6	3.2	1.55e+00	0	47	104	0	60	1048575
2026-01-18 01:56:27.88	28.30	9.38	-85.2	-88.6	2.9	1.56e+00	0	47	104	0	60	1048574
2026-01-18 01:56:28.88	28.21	9.45	-85.2	-88.6	3.2	1.55e+00	0	47	104	0	60	1048574
2026-01-18 01:56:29.89	28.11	9.52	-85.2	-88.6	2.8	1.55e+00	0	47	104	0	60	1048575
2026-01-18 01:56:30.90	28.02	9.59	-85.2	-88.6	3.0	1.55e+00	0	47	104	0	60	1048572
2026-01-18 01:56:31.91	27.92	9.67	-85.2	-88.6	3.1	1.55e+00	0	47	104	0	60	1048575
2026-01-18 01:56:32.91	27.83	9.74	-85.2	-88.6	3.0	1.56e+00	0	47	104	0	60	1048572
2026-01-18 01:56:33.92	27.73	9.81	-85.2	-88.6	3.0	1.56e+00	0	47	104	0	60	1048574
2026-01-18 01:56:34.93	27.63	9.88	-84.3	-88.6	3.0	1.56e+00	0	47	104	0	60	1048575
2026-01-18 01:56:35.93	27.54	9.96	-85.2	-88.6	3.0	1.56e+00	0	47	104	0	60	1048574
2026-01-18 01:56:36.94	27.44	10.03	-85.2	-88.6	3.1	1.55e+00	0	47	104	0	60	1048573
2026-01-18 01:56:37.95	27.34	10.10	-85.2	-88.6	3.0	1.55e+00	0	47	104	0	60	1048573
2026-01-18 01:56:38.96	27.24	10.18	-85.2	-88.6	3.0	1.56e+00	0	47	104	0	60	1048575
2026-01-18 01:56:39.97	27.14	10.25	-85.2	-88.6	3.0	1.56e+00	0	47	104	0	60	1048575
2026-01-18 01:56:40.97	27.04	10.32	-85.2	-88.6	2.8	1.56e+00	0	47	104	0	60	1048575
2026-01-18 01:56:41.98	26.94	10.40	-85.2	-88.6	3.0	1.55e+00	0	47	104	0	60	1048575
2026-01-18 01:56:42.99	26.84	10.47	-85.2	-88.6	3.1	1.56e+00	0	47	104	0	60	1048575
2026-01-18 01:56:43.99	26.74	10.55	-85.2	-88.6	3.0	1.56e+00	0	47	104	0	60	1048571
2026-01-18 01:56:44.99	26.63	10.62	-85.2	-88.6	3.1	1.56e+00	0	47	104	0	60	1048572
2026-01-18 01:56:46.00	26.53	10.69	-85.2	-88.6	3.0	1.55e+00	0	47	104	0	60	1048575
2026-01-18 01:56:47.00	26.43	10.77	-85.2	-88.6	2.9	1.56e+00	0	47	104	0	60	1048575
2026-01-18 01:56:48.01	26.32	10.84	-85.2	-88.6	2.8	1.56e+00	0	47	104	0	60	1048574
2026-01-18 01:56:49.01	26.22	10.92	-85.2	-88.6	2.9	1.56e+00	0	47	104	0	60	1048573
2026-01-18 01:56:50.02	26.12	10.99	-85.2	-88.6	3.1	1.56e+00	0	47	104	0	60	1048575
2026-01-18 01:56:51.03	26.01	11.07	-85.2	-88.6	3.0	1.56e+00	0	47	104	0	60	1048575
2026-01-18 01:56:52.04	25.90	11.14	-85.2	-88.6	3.0	1.56e+00	0	47	104	0	60	1048575
2026-01-18 01:56:53.05	25.80	11.22	-85.2	-88.6	2.9	1.56e+00	0	47	104	0	60	1048575
2026-01-18 01:56:54.05	25.69	11.29	-82.8	-88.6	3.0	1.55e+00	0	47	104	0	60	1048574
2026-01-18 01:56:55.06	25.58	11.37	-84.3	-88.6	3.0	1.56e+00	0	47	104	0	60	1048574
2026-01-18 01:56:56.07	25.47	11.44	-85.2	-88.6	3.2	1.56e+00	0	47	104	0	60	1048575
2026-01-18 01:56:57.07	25.36	11.52	-85.2	-88.6	2.8	1.56e+00	0	47	104	0	60	1048575
2026-01-18 01:56:58.08	25.25	11.60	-85.2	-88.6	2.9	1.56e+00	0	47	104	0	60	1048575
2026-01-18 01:56:59.09	25.14	11.67	-85.2	-88.6	3.2	1.55e+00	0	47	104	0	60	1048575
2026-01-18 01:57:00.09	25.03	11.75	-85.2	-88.6	2.7	1.56e+00	0	47	104	0	60	1048571
2026-01-18 01:57:01.10	24.92	11.82	-85.2	-88.6	3.2	1.56e+00	0	47	104	0	60	1048575
2026-01-18 01:57:02.11	24.81	11.90	-85.2	-88.6	3.1	1.56e+00	0	47	104	0	60	1048574
2026-01-18 01:57:03.11	24.70	11.98	-85.2	-88.6	3.0	1.55e+00	0	47	104	0	60	1048574
2026-01-18 01:57:04.12	24.58	12.05	-85.2	-88.6	3.0	1.56e+00	0	47	104	0	60	1048575
2026-01-18 01:57:05.13	24.47	12.13	-85.2	-88.6	3.1	1.56e+00	0	47	104	0	60	1048575
2026-01-18 01:57:06.13	24.36	12.21	-85.2	-88.6	3.0	1.56e+00	0	47	104	0	60	1048573
2026-01-18 01:57:07.14	24.24	12.28	-85.2	-88.6	2.8	1.56e+00	0	47	104	0	60	1048573
2026-01-18 01:57:08.14	24.13	12.36	-85.2	-88.6	3.0	1.56e+00	0	47	104	0	60	1048573
2026-01-18 01:57:09.15	24.01	12.44	-84.3	-88.6	3.1	1.56e+00	0	47	104	0	60	1048575
2026-01-18 01:57:10.16	23.89	12.52	-85.2	-88.6	3.0	1.55e+00	0	47	104	0	60	1048573
2026-01-18 01:57:11.17	23.77	12.59	-85.2	-88.6	3.1	1.56e+00	0	47	104	0	60	1048574
2026-01-18 01:57:12.18	23.66	12.67	-85.2	-88.6	2.9	1.55e+00	0	47	104	0	60	1048573
2026-01-18 01:57:13.19	23.54	12.75	-85.2	-88.6	2.9	1.56e+00	0	47	104	0	60	1048573
2026-01-18 01:57:14.20	23.42	12.83	-85.2	-88.6	2.9	1.56e+00	0	47	104	0	60	1048575
2026-01-18 01:57:15.20	23.30	12.91	-85.2	-88.6	2.9	1.56e+00	0	47	104	0	60	1048574
2026-01-18 01:57:16.21	23.18	12.98	-85.2	-88.6	2.9	1.56e+00	0	47	104	0	60	1048574
2026-01-18 01:57:17.22	23.05	13.06	-85.2	-88.6	2.7	1.55e+00	0	47	104	0	60	1048575
2026-01-18 01:57:18.23	22.93	13.14	-85.2	-88.6	3.1	1.56e+00	0	47	104	0	60	1048575
2026-01-18 01:57:19.23	22.81	13.22	-85.2	-88.6	3.0	1.56e+00	0	47	104	0	60	1048572
2026-01-18 01:57:20.24	22.69	13.30	-85.2	-88.6	2.9	1.55e+00	0	47	104	0	60	1048575
2026-01-18 01:57:21.25	22.56	13.38	-85.2	-88.6	3.0	1.56e+00	0	47	104	0	60	1048573
2026-01-18 01:57:22.25	22.44	13.46	-85.2	-88.6	3.0	1.56e+00	0	47	104	0	60	1048574
2026-01-18 01:57:23.26	22.31	13.53	-85.2	-88.6	2.8	1.56e+00	0	47	104	0	60	1048574
2026-01-18 01:57:24.27	22.19	13.61	-85.2	-88.6	3.0	1.56e+00	0	47	104	0	60	1048573
2026-01-18 01:57:25.28	22.06	13.69	-85.2	-88.6	2.9	1.56e+00	0	47	104	0	60	1048574
2026-01-18 01:57:26.28	21.93	13.77	-85.2	-88.6	2.9	1.56e+00	0	47	104	0	60	1048575
2026-01-18 01:57:27.29	21.80	13.85	-85.2	-88.6	2.9	1.56e+00	0	47	104	0	60	1048575
2026-01-18 01:57:28.30	21.67	13.93	-85.2	-88.6	2.9	1.55e+00	0	47	104	0	60	1048575
2026-01-18 01:57:29.31	21.54	14.01	-85.2	-88.6	3.0	1.56e+00	0	47	104	0	60	1048575
2026-01-18 01:57:30.32	21.41	14.09	-85.2	-88.6	2.8	1.56e+00	0	47	104	0	60	1048573
2026-01-18 01:57:31.32	21.28	14.17	-85.2	-88.6	3.1	1.56e+00	0	47	104	0	60	1048575
2026-01-18 01:57:32.33	21.15	14.25	-85.2	-88.6	3.0	1.55e+00	0	47	104	0	60	1048575
2026-01-18 01:57:33.34	21.02	14.33	-85.2	-88.6	2.9	1.56e+00	0	47	104	0	60	1048574
2026-01-18 01:57:34.34	20.88	14.41	-85.2	-88.6	2.8	1.56e+00	0	47	104	0	60	1048575
2026-01-18 01:57:35.35	20.75	14.49	-85.2	-88.6	2.7	1.56e+00	0	47	104	0	60	1048574
2026-01-18 01:57:36.36	20.62	14.57	-85.2	-88.6	2.9	1.55e+00	0	47	104	0	60	1048574
2026-01-18 01:57:37.36	20.48	14.65	-85.2	-88.6	3.0	1.56e+00	0	47	104	0	60	1048570
2026-01-18 01:57:38.36	20.35	14.73	-85.2	-88.6	2.9	1.56e+00	0	47	104	0	60	1048575
2026-01-18 01:57:39.37	20.21	14.81	-85.2	-88.6	3.2	1.55e+00	0	47	104	0	60	1048572
2026-01-18 01:57:40.38	20.07	14.89	-85.2	-88.6	3.0	1.56e+00	0	47	104	0	60	1048575
2026-01-18 01:57:41.39	19.93	14.98	-85.2	-88.6	2.9	1.55e+00	0	47	104	0	60	1048575
2026-01-18 01:57:42.39	19.79	15.06	-85.2	-88.6	3.1	1.55e+00	0	47	104	0	60	1048574
2026-01-18 01:57:43.40	19.65	15.14	-85.2	-88.6	3.0	1.55e+00	0	47	104	0	60	1048575
2026-01-18 01:57:44.41	19.51	15.22	-85.2	-88.6	3.1	1.56e+00	0	47	104	0	60	1048575
2026-01-18 01:57:45.42	19.37	15.30	-85.2	-88.6	3.0	1.56e+00	0	47	104	0	60	1048574
2026-01-18 01:57:46.42	19.23	15.38	-85.2	-88.6	2.9	1.56e+00	0	47	104	0	60	1048575
2026-01-18 01:57:47.43	19.08	15.46	-85.2	-88.6	3.0	1.56e+00	0	47	104	0	60	1048574
2026-01-18 01:57:48.44	18.94	15.55	-85.2	-88.6	3.1	1.56e+00	0	47	104	0	60	1048574
2026-01-18 01:57:49.44	18.79	15.63	-85.2	-88.6	2.7	1.55e+00	0	47	104	0	60	1048575
2026-01-18 01:57:50.45	18.65	15.71	-85.2	-88.6	2.9	1.56e+00	0	47	104	0	60	1048575
2026-01-18 01:57:51.46	18.50	15.79	-85.2	-88.6	2.9	1.56e+00	0	47	104	0	60	1048574
2026-01-18 01:57:52.46	18.35	15.87	-85.2	-88.6	2.9	1.56e+00	0	47	104	0	60	1048575
2026-01-18 01:57:53.47	18.21	15.95	-85.2	-88.6	2.8	1.55e+00	0	47	104	0	60	1048574
2026-01-18 01:57:54.48	18.06	16.04	-85.2	-88.6	2.9	1.56e+00	0	47	104	0	60	1048575
2026-01-18 01:57:55.49	17.91	16.12	-85.2	-88.6	3.2	1.56e+00	0	47	104	0	60	1048574
2026-01-18 01:57:56.49	17.76	16.20	-85.2	-88.6	3.0	1.56e+00	0	47	104	0	60	1048565
2026-01-18 01:57:57.50	17.60	16.28	-85.2	-88.6	3.0	1.55e+00	0	47	104	0	60	1048573
2026-01-18 01:57:58.51	17.45	16.37	-85.2	-88.6	2.8	1.56e+00	0	47	104	0	60	1048572
2026-01-18 01:57:59.52	17.30	16.45	-85.2	-88.6	3.0	1.56e+00	0	47	104	0	60	1048575
2026-01-18 01:58:00.52	17.14	16.53	-85.2	-88.6	2.8	1.56e+00	0	47	104	0	60	1048575
2026-01-18 01:58:01.53	16.99	16.61	-85.2	-88.6	2.9	1.56e+00	0	47	104	0	60	1048574
2026-01-18 01:58:02.54	16.83	16.70	-85.2	-88.6	3.0	1.56e+00	0	47	104	0	60	1048572
2026-01-18 01:58:03.55	16.68	16.78	-85.2	-88.6	2.8	1.56e+00	0	47	104	0	60	1048571
2026-01-18 01:58:04.56	16.52	16.86	-85.2	-88.6	2.9	1.55e+00	0	47	104	0	60	1048574
2026-01-18 01:58:05.57	16.36	16.95	-85.2	-88.6	3.1	1.56e+00	0	47	104	0	60	1048575
2026-01-18 01:58:06.57	16.20	17.03	-85.2	-88.6	3.0	1.56e+00	0	47	104	0	60	1048575
2026-01-18 01:58:07.58	16.04	17.11	-83.9	-88.6	3.1	1.56e+00	0	47	104	0	60	1048573
2026-01-18 01:58:08.58	15.88	17.19	-85.2	-88.6	3.1	1.56e+00	0	47	104	0	60	1048575
2026-01-18 01:58:09.58	15.72	17.28	-85.2	-88.6	3.0	1.56e+00	0	47	104	0	60	1048575
2026-01-18 01:58:10.59	15.55	17.36	-85.2	-88.6	3.0	1.56e+00	0	47	104	0	60	1048575
2026-01-18 01:58:11.60	15.39	17.44	-85.2	-88.6	3.0	1.56e+00	0	47	104	0	60	1048573
2026-01-18 01:58:12.61	15.22	17.53	-85.2	-88.6	3.0	1.56e+00	0	47	104	0	60	1048573
2026-01-18 01:58:13.62	15.06	17.61	-85.2	-88.6	2.7	1.56e+00	0	47	104	0	60	1048575
2026-01-18 01:58:14.62	14.89	17.69	-85.2	-88.6	3.0	1.56e+00	0	47	104	0	60	1048575
2026-01-18 01:58:15.62	14.73	17.77	-85.2	-88.6	3.2	1.56e+00	0	47	104	0	60	1048575
2026-01-18 01:58:16.62	14.56	17.86	-85.2	-88.6	2.8	1.56e+00	0	47	104	0	60	1048575
2026-01-18 01:58:17.64	14.39	17.94	-85.2	-88.6	2.8	1.56e+00	0	47	104	0	60	1048575
2026-01-18 01:58:18.64	14.22	18.02	-85.2	-88.6	2.8	1.56e+00	0	47	104	0	60	1048575
2026-01-18 01:58:19.65	14.05	18.11	-85.2	-88.6	2.9	1.55e+00	0	47	104	0	60	1048571
2026-01-18 01:58:20.66	13.87	18.19	-85.2	-88.6	2.9	1.55e+00	0	47	104	0	60	1048574
2026-01-18 01:58:21.67	13.70	18.27	-85.2	-88.6	3.2	1.55e+00	0	47	104	0	60	1048574
2026-01-18 01:58:22.67	13.53	18.36	-85.2	-88.6	3.0	1.55e+00	0	47	104	0	60	1048570
2026-01-18 01:58:23.68	13.35	18.44	-85.2	-88.6	2.7	1.56e+00	0	47	104	0	60	1048575
2026-01-18 01:58:24.68	13.17	18.52	-85.2	-88.6	2.9	1.56e+00	0	47	104	0	60	1048574
2026-01-18 01:58:25.69	13.00	18.61	-85.2	-88.6	3.3	1.56e+00	0	47	104	0	60	1048575
2026-01-18 01:58:26.69	12.82	18.69	-85.2	-88.6	3.0	1.56e+00	0	47	104	0	60	1048574
2026-01-18 01:58:27.70	12.64	18.77	-85.2	-88.6	3.1	1.56e+00	0	47	104	0	60	1048573
2026-01-18 01:58:28.70	12.46	18.86	-85.2	-88.6	3.0	1.56e+00	0	47	104	0	60	1048574
2026-01-18 01:58:29.70	12.28	18.94	-85.2	-88.6	3.0	1.55e+00	0	47	104	0	60	1048575
2026-01-18 01:58:30.71	12.10	19.02	-85.2	-88.6	2.6	1.56e+00	0	47	104	0	60	1048575
2026-01-18 01:58:31.71	11.92	19.11	-85.2	-88.6	3.1	1.55e+00	0	47	104	0	60	1048573
2026-01-18 01:58:32.72	11.73	19.19	-85.2	-88.6	3.0	1.56e+00	0	47	104	0	60	1048575
2026-01-18 01:58:33.73	11.55	19.27	-85.2	-88.6	2.9	1.56e+00	0	47	104	0	60	1048575
2026-01-18 01:58:34.74	11.36	19.36	-85.2	-88.6	3.2	1.56e+00	0	47	104	0	60	1048575
2026-01-18 01:58:35.75	11.17	19.44	-85.2	-88.6	2.8	1.56e+00	0	47	104	0	60	1048575
2026-01-18 01:58:36.76	10.98	19.52	-85.2	-88.6	2.9	1.56e+00	0	47	104	0	60	1048570
2026-01-18 01:58:37.76	10.79	19.60	-85.2	-88.6	3.2	1.56e+00	0	47	104	0	60	1048574
2026-01-18 01:58:38.77	10.60	19.69	-85.2	-88.6	3.0	1.56e+00	0	47	104	0	60	1048575
2026-01-18 01:58:39.78	10.41	19.77	-85.2	-88.6	3.0	1.56e+00	0	47	104	0	60	1048575
2026-01-18 01:58:40.78	10.22	19.85	-85.2	-88.6	3.0	1.56e+00	0	47	104	0	60	1048575
2026-01-18 01:58:41.79	10.02	19.94	-85.2	-88.6	3.1	1.55e+00	0	47	104	0	60	1048575
2026-01-18 01:58:42.79	9.83	20.02	-85.2	-88.6	2.8	1.56e+00	0	47	104	0	60	1048575
2026-01-18 01:58:43.80	9.63	20.10	-85.2	-88.6	3.1	1.56e+00	0	47	104	0	60	1048571
2026-01-18 01:58:44.81	9.44	20.18	-85.2	-88.6	3.1	1.56e+00	0	47	104	0	60	1048575
2026-01-18 01:58:45.81	9.24	20.27	-85.2	-88.6	2.8	1.55e+00	0	47	104	0	60	1048574
2026-01-18 01:58:46.81	9.04	20.35	-85.2	-88.6	3.1	1.56e+00	0	47	104	0	60	1048574
2026-01-18 01:58:47.82	8.84	20.43	-85.2	-88.6	3.2	1.56e+00	0	47	104	0	60	1048575
2026-01-18 01:58:48.83	8.64	20.51	-85.2	-88.6	3.1	1.56e+00	0	47	104	0	60	1048574
2026-01-18 01:58:49.84	8.44	20.59	-84.7	-88.6	2.7	1.55e+00	0	47	104	0	60	1048575
2026-01-18 01:58:50.84	8.24	20.68	-85.2	-88.6	2.9	1.56e+00	0	47	104	0	60	1048573
2026-01-18 01:58:51.85	8.03	20.76	-85.2	-88.6	3.0	1.56e+00	0	47	104	0	60	1048575
2026-01-18 01:58:52.86	7.82	20.84	-85.2	-88.6	3.0	1.56e+00	0	47	104	0	60	1048571
2026-01-18 01:58:53.87	7.62	20.92	-85.2	-88.6	3.0	1.55e+00	0	47	104	0	60	1048574
2026-01-18 01:58:54.88	7.41	21.00	-85.2	-88.6	3.0	1.56e+00	0	47	104	0	60	1048575
2026-01-18 01:58:55.88	7.20	21.08	-84.7	-88.6	3.1	1.56e+00	0	47	104	0	60	1048574
2026-01-18 01:58:56.89	6.99	21.16	-85.2	-88.6	2.9	1.56e+00	0	47	104	0	60	1048575
2026-01-18 01:58:57.89	6.78	21.24	-85.2	-88.6	3.1	1.55e+00	0	47	104	0	60	1048574
2026-01-18 01:58:58.90	6.57	21.33	-85.2	-88.6	3.0	1.55e+00	0	47	104	0	60	1048573
2026-01-18 01:58:59.91	6.35	21.41	-85.2	-88.6	3.0	1.56e+00	0	47	104	0	60	1048575
2026-01-18 01:59:00.91	6.14	21.49	-85.2	-88.6	3.1	1.56e+00	0	47	104	0	60	1048574
2026-01-18 01:59:01.91	5.93	21.57	-85.2	-88.6	3.0	1.55e+00	0	47	104	0	60	1048575
2026-01-18 01:59:02.92	5.71	21.65	-85.2	-88.6	3.1	1.56e+00	0	47	104	0	60	1048575
2026-01-18 01:59:03.92	5.49	21.73	-85.2	-88.6	2.9	1.56e+00	0	47	104	0	60	1048574
2026-01-18 01:59:04.93	5.27	21.81	-85.2	-88.6	3.2	1.55e+00	0	47	104	0	60	1048573
2026-01-18 01:59:05.93	5.05	21.88	-85.2	-88.6	2.9	1.55e+00	0	47	104	0	60	1048574
2026-01-18 01:59:06.94	4.83	21.96	-85.2	-88.6	3.0	1.56e+00	0	47	104	0	60	1048572
2026-01-18 01:59:07.94	4.61	22.04	-85.2	-88.6	3.0	1.56e+00	0	47	104	0	60	1048572
2026-01-18 01:59:08.95	4.39	22.12	-85.2	-88.6	2.9	1.56e+00	0	47	104	0	60	1048573
2026-01-18 01:59:09.96	4.16	22.20	-85.2	-88.6	2.9	1.56e+00	0	47	104	0	60	1048575
2026-01-18 01:59:10.97	3.93	22.28	-85.2	-88.6	2.8	1.56e+00	0	47	104	0	60	1048567
2026-01-18 01:59:11.97	3.71	22.36	-85.2	-88.6	3.1	1.56e+00	0	47	104	0	60	1048573
2026-01-18 01:59:12.98	3.48	22.43	-85.2	-88.6	3.3	1.55e+00	0	47	104	0	60	1048575
2026-01-18 01:59:13.98	3.25	22.51	-85.2	-88.6	3.2	1.56e+00	0	47	104	0	60	1048574
2026-01-18 01:59:14.98	3.02	22.59	-85.2	-88.6	3.1	1.56e+00	0	47	104	0	60	1048575
2026-01-18 01:59:15.99	2.79	22.67	-84.7	-88.6	3.2	1.55e+00	0	47	104	0	60	1048572
2026-01-18 01:59:16.99	2.56	22.74	-85.2	-88.6	2.9	1.55e+00	0	47	104	0	60	1048575
2026-01-18 01:59:18.00	2.32	22.82	-85.2	-88.6	2.7	1.56e+00	0	47	104	0	60	1048575
2026-01-18 01:59:19.00	2.09	22.89	-85.2	-88.6	3.2	1.56e+00	0	47	104	0	60	1048575
2026-01-18 01:59:20.01	1.85	22.97	-85.2	-88.6	2.7	1.56e+00	0	47	104	0	60	1048575
2026-01-18 01:59:21.01	1.62	23.05	-85.2	-88.6	3.0	1.55e+00	0	47	104	0	60	1048573
2026-01-18 01:59:22.02	1.38	23.12	-85.2	-88.6	2.8	1.56e+00	0	47	104	0	60	1048575
2026-01-18 01:59:23.03	1.14	23.20	-85.2	-88.6	2.8	1.56e+00	0	47	104	0	60	1048574
2026-01-18 01:59:24.04	0.90	23.27	-83.1	-88.6	2.9	1.56e+00	0	47	104	0	60	1048572
2026-01-18 01:59:25.05	0.65	23.35	-85.2	-88.6	3.0	1.56e+00	0	47	104	0	60	1048574
2026-01-18 01:59:26.05	0.41	23.42	-85.2	-88.6	3.0	1.55e+00	0	47	104	0	60	1048575
2026-01-18 01:59:27.06	0.17	23.49	-85.2	-88.6	3.0	1.55e+00	0	47	104	0	60	1048574
2026-01-18 01:59:28.06	359.92	23.57	-85.2	-88.6	2.9	1.56e+00	0	47	104	0	60	1048575
2026-01-18 01:59:29.06	359.68	23.64	-85.2	-88.6	3.0	1.56e+00	0	47	104	0	60	1048574
2026-01-18 01:59:30.06	359.43	23.71	-85.2	-88.6	3.0	1.56e+00	0	47	104	0	60	1048573
2026-01-18 01:59:31.07	359.18	23.78	-85.2	-88.6	3.2	1.56e+00	0	47	104	0	60	1048575
2026-01-18 01:59:32.08	358.93	23.86	-85.2	-88.6	3.0	1.55e+00	0	47	104	0	60	1048574
2026-01-18 01:59:33.08	358.68	23.93	-85.2	-88.6	3.1	1.56e+00	0	47	104	0	60	1048575
2026-01-18 01:59:34.09	358.43	24.00	-85.2	-88.6	3.0	1.56e+00	0	47	104	0	60	1048575
2026-01-18 01:59:35.10	358.17	24.07	-85.2	-88.6	3.2	1.56e+00	0	47	104	0	60	1048574
2026-01-18 01:59:36.10	357.92	24.14	-85.2	-88.6	2.9	1.56e+00	0	47	104	0	60	1048574
2026-01-18 01:59:37.11	357.66	24.21	-85.2	-88.6	3.1	1.56e+00	0	47	104	0	60	1048575
2026-01-18 01:59:38.11	357.41	24.28	-85.2	-88.6	2.7	1.55e+00	0	47	104	0	60	1048575
2026-01-18 01:59:39.12	357.15	24.34	-85.2	-88.6	3.0	1.56e+00	0	47	104	0	60	1048575
2026-01-18 01:59:40.12	356.89	24.41	-85.2	-88.6	3.0	1.55e+00	0	47	104	0	60	1048575
2026-01-18 01:59:41.13	356.63	24.48	-85.2	-88.6	3.0	1.56e+00	0	47	104	0	60	1048574
2026-01-18 01:59:42.14	356.36	24.55	-85.2	-88.6	3.2	1.56e+00	0	47	104	0	60	1048575
2026-01-18 01:59:43.14	356.10	24.61	-85.2	-88.6	3.0	1.56e+00	0	47	104	0	60	1048575
2026-01-18 01:59:44.15	355.84	24.68	-85.2	-88.6	2.8	1.56e+00	0	47	104	0	60	1048575
2026-01-18 01:59:45.16	355.57	24.75	-85.2	-88.6	3.2	1.56e+00	0	47	104	0	60	1048574
2026-01-18 01:59:46.16	355.31	24.81	-85.2	-88.6	3.0	1.56e+00	0	47	104	0	60	1048574
2026-01-18 01:59:47.16	355.04	24.88	-85.2	-88.6	3.1	1.56e+00	0	47	104	0	60	1048575
2026-01-18 01:59:48.17	354.77	24.94	-85.2	-88.6	3.1	1.56e+00	0	47	104	0	60	1048574
2026-01-18 01:59:49.17	354.51	25.00	-85.2	-88.6	3.0	1.55e+00	0	47	104	0	60	1048574
2026-01-18 01:59:50.18	354.23	25.07	-85.2	-88.6	2.9	1.55e+00	0	47	104	0	60	1048574
2026-01-18 01:59:51.18	353.96	25.13	-85.2	-88.6	3.0	1.55e+00	0	47	104	0	60	1048575
2026-01-18 01:59:52.19	353.69	25.19	-85.2	-88.6	3.2	1.56e+00	0	47	104	0	60	1048575
2026-01-18 01:59:53.19	353.42	25.25	-85.2	-88.6	2.9	1.55e+00	0	47	104	0	60	1048569
2026-01-18 01:59:54.20	353.14	25.31	-85.2	-88.6	3.2	1.55e+00	0	47	104	0	60	1048574
2026-01-18 01:59:55.21	352.87	25.38	-85.2	-88.6	2.8	1.56e+00	0	47	104	0	60	1048575
2026-01-18 01:59:56.21	352.59	25.43	-85.2	-88.6	3.0	1.56e+00	0	47	104	0	60	1048574
2026-01-18 01:59:57.22	352.31	25.49	-85.2	-88.6	2.8	1.56e+00	0	47	104	0	60	1048573
2026-01-18 01:59:58.23	352.03	25.55	-85.2	-88.6	2.9	1.56e+00	0	47	104	0	60	1048574
2026-01-18 01:59:59.23	351.75	25.61	-85.2	-88.6	3.1	1.56e+00	0	47	104	0	60	1048575
2026-01-18 02:00:00.24	351.47	25.67	-85.2	-88.6	3.1	1.56e+00	0	47	104	0	60	1048572
2026-01-18 02:00:01.24	351.19	25.72	-85.2	-88.6	2.9	1.56e+00	0	47	104	0	60	1048571
2026-01-18 02:00:02.25	350.91	25.78	-85.2	-88.6	3.0	1.56e+00	0	47	104	0	60	1048575
2026-01-18 02:00:03.25	350.62	25.84	-85.2	-88.6	2.9	1.55e+00	0	47	104	0	60	1048575
2026-01-18 02:00:04.26	350.34	25.89	-85.2	-88.6	3.0	1.55e+00	0	47	104	0	60	1048575
2026-01-18 02:00:05.26	350.05	25.94	-85.2	-88.6	2.9	1.56e+00	0	47	104	0	60	1048572
2026-01-18 02:00:06.27	349.76	26.00	-85.2	-88.6	2.9	1.56e+00	0	47	104	0	60	1048575
2026-01-18 02:00:07.28	349.47	26.05	-85.2	-88.6	3.1	1.56e+00	0	47	104	0	60	1048574
2026-01-18 02:00:08.29	349.18	26.10	-85.2	-88.6	3.0	1.56e+00	0	47	104	0	60	1048575
2026-01-18 02:00:09.28	348.90	26.15	-85.2	-88.6	3.0	1.56e+00	0	47	104	0	60	1048575
2026-01-18 02:00:10.29	348.61	26.20	-85.2	-88.6	3.2	1.56e+00	0	47	104	0	60	1048575
2026-01-18 02:00:11.30	348.31	26.25	-85.2	-88.6	3.1	1.55e+00	0	47	104	0	60	1048575
2026-01-18 02:00:12.31	348.02	26.30	-85.2	-88.6	3.3	1.56e+00	0	47	104	0	60	1048574
2026-01-18 02:00:13.32	347.73	26.35	-85.2	-88.6	3.0	1.55e+00	0	47	104	0	60	1048575
2026-01-18 02:00:14.32	347.43	26.40	-85.2	-88.6	3.0	1.55e+00	0	47	104	0	60	1048575
2026-01-18 02:00:15.33	347.14	26.45	-85.2	-88.6	2.9	1.56e+00	0	47	104	0	60	1048574
2026-01-18 02:00:16.34	346.84	26.49	-84.3	-88.6	3.1	1.55e+00	0	47	104	0	60	1048575
2026-01-18 02:00:17.34	346.54	26.54	-85.2	-88.6	3.0	1.55e+00	0	47	104	0	60	1048575
2026-01-18 02:00:18.35	346.24	26.58	-85.2	-88.6	2.9	1.56e+00	0	47	104	0	60	1048575
2026-01-18 02:00:19.35	345.95	26.63	-85.2	-88.6	3.0	1.56e+00	0	47	104	0	60	1048575
2026-01-18 02:00:20.36	345.65	26.67	-85.2	-88.6	3.1	1.56e+00	0	47	104	0	60	1048574
2026-01-18 02:00:21.36	345.35	26.71	-85.2	-88.6	3.1	1.56e+00	0	47	104	0	60	1048574
2026-01-18 02:00:22.37	345.04	26.75	-85.2	-88.6	2.8	1.56e+00	0	47	104	0	60	1048571
2026-01-18 02:00:23.38	344.74	26.79	-85.2	-88.6	2.8	1.56e+00	0	47	104	0	60	1048575
2026-01-18 02:00:24.39	344.44	26.83	-85.2	-88.6	2.8	1.56e+00	0	47	104	0	60	1048575
2026-01-18 02:00:25.39	344.13	26.87	-83.1	-88.6	2.9	1.56e+00	0	47	104	0	60	1048575
2026-01-18 02:00:26.40	343.83	26.91	-85.2	-88.6	2.9	1.55e+00	0	47	104	0	60	1048571
2026-01-18 02:00:27.41	343.52	26.95	-85.2	-88.6	3.1	1.55e+00	0	47	104	0	60	1048573
2026-01-18 02:00:28.41	343.22	26.98	-85.2	-88.6	2.9	1.56e+00	0	47	104	0	60	1048573
2026-01-18 02:00:29.42	342.91	27.02	-85.2	-88.6	2.8	1.56e+00	0	47	104	0	60	1048574
2026-01-18 02:00:30.42	342.61	27.05	-85.2	-88.6	2.8	1.56e+00	0	47	104	0	60	1048575
2026-01-18 02:00:31.43	342.30	27.09	-85.2	-88.6	3.0	1.56e+00	0	47	104	0	60	1048575
2026-01-18 02:00:32.43	341.99	27.12	-85.2	-88.6	2.7	1.56e+00	0	47	104	0	60	1048573
2026-01-18 02:00:33.44	341.68	27.15	-85.2	-88.6	2.9	1.56e+00	0	47	104	0	60	1048573
2026-01-18 02:00:34.45	341.37	27.18	-85.2	-88.6	3.1	1.55e+00	0	47	104	0	60	1048574
2026-01-18 02:00:35.45	341.06	27.21	-85.2	-88.6	2.9	1.56e+00	0	47	104	0	60	1048575
2026-01-18 02:00:36.46	340.75	27.24	-85.2	-88.6	2.8	1.56e+00	0	47	104	0	60	1048575
2026-01-18 02:00:37.47	340.43	27.27	-85.2	-88.6	3.1	1.56e+00	0	47	104	0	60	1048575
2026-01-18 02:00:38.47	340.12	27.30	-85.2	-88.6	2.8	1.56e+00	0	47	104	0	60	1048574
2026-01-18 02:00:39.48	339.81	27.32	-85.2	-88.6	3.2	1.56e+00	0	47	104	0	60	1048575
2026-01-18 02:00:40.48	339.50	27.35	-85.2	-88.6	3.1	1.56e+00	0	47	104	0	60	1048575
2026-01-18 02:00:41.49	339.18	27.37	-85.2	-88.6	3.1	1.56e+00	0	47	104	0	60	1048574
2026-01-18 02:00:42.50	338.87	27.40	-85.2	-88.6	3.0	1.55e+00	0	47	104	0	60	1048574
2026-01-18 02:00:43.50	338.56	27.42	-85.2	-88.6	2.9	1.55e+00	0	47	104	0	60	1048571
2026-01-18 02:00:44.51	338.24	27.44	-85.2	-88.6	3.1	1.55e+00	0	47	104	0	60	1048574
2026-01-18 02:00:45.51	337.93	27.46	-85.2	-88.6	3.2	1.56e+00	0	47	104	0	60	1048575
2026-01-18 02:00:46.52	337.61	27.48	-84.7	-88.6	3.0	1.55e+00	0	47	104	0	60	1048575
2026-01-18 02:00:47.53	337.29	27.50	-85.2	-88.6	2.9	1.56e+00	0	47	104	0	60	1048573
2026-01-18 02:00:48.53	336.98	27.52	-85.2	-88.6	3.0	1.56e+00	0	47	104	0	60	1048575
2026-01-18 02:00:49.54	336.66	27.54	-85.2	-88.6	2.9	1.56e+00	0	47	104	0	60	1048575
2026-01-18 02:00:50.55	336.34	27.55	-85.2	-88.6	2.9	1.56e+00	0	47	104	0	60	1048575
2026-01-18 02:00:51.56	336.02	27.57	-85.2	-88.6	2.7	1.56e+00	0	47	104	0	60	1048575
2026-01-18 02:00:52.57	335.70	27.58	-85.2	-88.6	3.0	1.55e+00	0	47	104	0	60	1048574
2026-01-18 02:00:53.57	335.39	27.60	-85.2	-88.6	3.0	1.55e+00	0	47	104	0	60	1048574
2026-01-18 02:00:54.58	335.07	27.61	-85.2	-88.6	3.1	1.56e+00	0	47	104	0	60	1048573
2026-01-18 02:00:55.59	334.75	27.62	-84.3	-88.6	3.0	1.56e+00	0	47	104	0	60	1048575
2026-01-18 02:00:56.59	334.43	27.63	-85.2	-88.6	3.1	1.56e+00	0	47	104	0	60	1048575
2026-01-18 02:00:57.60	334.11	27.64	-85.2	-88.6	2.8	1.56e+00	0	47	104	0	60	1048574
2026-01-18 02:00:58.61	333.79	27.65	-85.2	-88.6	3.0	1.56e+00	0	47	104	0	60	1048575
2026-01-18 02:00:59.61	333.47	27.65	-85.2	-88.6	2.9	1.56e+00	0	47	104	0	60	1048575
2026-01-18 02:01:00.62	333.15	27.66	-85.2	-88.6	2.9	1.55e+00	0	47	104	0	60	1048572
2026-01-18 02:01:01.62	332.83	27.67	-85.2	-88.6	3.2	1.55e+00	0	47	104	0	60	1048575
2026-01-18 02:01:02.63	332.51	27.67	-85.2	-88.6	2.8	1.56e+00	0	47	104	0	60	1048575
2026-01-18 02:01:03.63	332.19	27.67	-85.2	-88.6	2.8	1.56e+00	0	47	104	0	60	1048575
2026-01-18 02:01:04.64	331.87	27.68	-85.2	-88.6	2.9	1.56e+00	0	47	104	0	60	1048574
2026-01-18 02:01:05.65	331.55	27.68	-83.1	-88.6	3.0	1.55e+00	0	47	104	0	60	1048575
2026-01-18 02:01:06.66	331.23	27.68	-85.2	-88.6	3.1	1.56e+00	0	47	104	0	60	1048575
2026-01-18 02:01:07.67	330.91	27.68	-85.2	-88.6	2.8	1.55e+00	0	47	104	0	60	1048574
2026-01-18 02:01:08.67	330.59	27.67	-85.2	-88.6	3.1	1.56e+00	0	47	104	0	60	1048575
2026-01-18 02:01:09.67	330.27	27.67	-85.2	-88.6	3.0	1.55e+00	0	47	104	0	60	1048572
2026-01-18 02:01:10.68	329.95	27.67	-83.5	-88.6	3.0	1.55e+00	0	47	104	0	60	1048574
2026-01-18 02:01:11.68	329.63	27.66	-85.2	-88.6	2.9	1.56e+00	0	47	104	0	60	1048575
2026-01-18 02:01:12.69	329.31	27.66	-85.2	-88.6	3.1	1.56e+00	0	47	104	0	60	1048574
2026-01-18 02:01:13.70	328.99	27.65	-85.2	-88.6	3.1	1.56e+00	0	47	104	0	60	1048574
2026-01-18 02:01:14.70	328.67	27.64	-85.2	-88.6	3.0	1.56e+00	0	47	104	0	60	1048575
2026-01-18 02:01:15.71	328.35	27.64	-84.3	-88.6	2.9	1.56e+00	0	47	104	0	60	1048575
2026-01-18 02:01:16.71	328.04	27.63	-83.5	-88.6	3.0	1.55e+00	0	47	104	0	60	1048572
2026-01-18 02:01:17.72	327.72	27.62	-83.5	-88.6	3.0	1.56e+00	0	47	104	0	60	1048574
2026-01-18 02:01:18.72	327.40	27.60	-85.2	-88.6	3.1	1.55e+00	0	47	104	0	60	1048575
2026-01-18 02:01:19.73	327.08	27.59	-84.7	-88.6	2.8	1.56e+00	0	47	104	0	60	1048575
2026-01-18 02:01:20.74	326.76	27.58	-84.3	-88.6	3.1	1.56e+00	0	47	104	0	60	1048575
2026-01-18 02:01:21.75	326.44	27.56	-85.2	-88.6	3.0	1.56e+00	0	47	104	0	60	1048574
2026-01-18 02:01:22.76	326.12	27.55	-85.2	-88.6	3.1	1.56e+00	0	47	104	0	60	1048575
2026-01-18 02:01:23.77	325.80	27.53	-85.2	-88.6	3.0	1.56e+00	0	47	104	0	60	1048575
2026-01-18 02:01:24.77	325.49	27.51	-85.2	-88.6	3.1	1.55e+00	0	47	104	0	60	1048573
2026-01-18 02:01:25.78	325.17	27.50	-85.2	-88.6	3.0	1.55e+00	0	47	104	0	60	1048575
2026-01-18 02:01:26.78	324.86	27.48	-85.2	-88.6	2.9	1.56e+00	0	47	104	0	60	1048574
2026-01-18 02:01:27.79	324.54	27.46	-85.2	-88.6	3.1	1.56e+00	0	47	104	0	60	1048575
2026-01-18 02:01:28.79	324.23	27.44	-85.2	-88.6	3.0	1.55e+00	0	47	104	0	60	1048575
2026-01-18 02:01:29.80	323.91	27.41	-84.3	-88.6	3.0	1.56e+00	0	47	104	0	60	1048573
2026-01-18 02:01:30.81	323.59	27.39	-85.2	-88.6	2.8	1.56e+00	0	47	104	0	60	1048574
2026-01-18 02:01:31.81	323.28	27.37	-85.2	-88.6	2.9	1.56e+00	0	47	104	0	60	1048574
2026-01-18 02:01:32.81	322.97	27.34	-85.2	-88.6	3.0	1.56e+00	0	47	104	0	60	1048575
2026-01-18 02:01:33.82	322.66	27.32	-85.2	-88.6	3.2	1.55e+00	0	47	104	0	60	1048570
2026-01-18 02:01:34.82	322.34	27.29	-85.2	-88.6	2.7	1.56e+00	0	47	104	0	60	1048575
2026-01-18 02:01:35.83	322.03	27.26	-85.2	-88.6	2.8	1.56e+00	0	47	104	0	60	1048572
2026-01-18 02:01:36.84	321.72	27.23	-85.2	-88.6	2.8	1.56e+00	0	47	104	0	60	1048575
2026-01-18 02:01:37.84	321.41	27.20	-85.2	-88.6	3.0	1.56e+00	0	47	104	0	60	1048575
2026-01-18 02:01:38.85	321.10	27.17	-85.2	-88.6	3.1	1.56e+00	0	47	104	0	60	1048574
2026-01-18 02:01:39.86	320.79	27.14	-85.2	-88.6	2.9	1.55e+00	0	47	104	0	60	1048575
2026-01-18 02:01:40.87	320.48	27.11	-85.2	-88.6	2.9	1.56e+00	0	47	104	0	60	1048575
2026-01-18 02:01:41.87	320.17	27.08	-85.2	-88.6	3.0	1.56e+00	0	47	104	0	60	1048574
2026-01-18 02:01:42.88	319.86	27.04	-85.2	-88.6	3.0	1.56e+00	0	47	104	0	60	1048571
2026-01-18 02:01:43.88	319.56	27.01	-85.2	-88.6	3.0	1.55e+00	0	47	104	0	60	1048575
2026-01-18 02:01:44.89	319.25	26.97	-85.2	-88.6	2.8	1.56e+00	0	47	104	0	60	1048575
2026-01-18 02:01:45.90	318.94	26.93	-85.2	-88.6	3.1	1.56e+00	0	47	104	0	60	1048575
2026-01-18 02:01:46.90	318.64	26.90	-85.2	-88.6	2.8	1.56e+00	0	47	104	0	60	1048574
2026-01-18 02:01:47.90	318.33	26.86	-85.2	-88.6	2.9	1.56e+00	0	47	104	0	60	1048572
2026-01-18 02:01:48.91	318.03	26.82	-85.2	-88.6	2.9	1.56e+00	0	47	104	0	60	1048570
2026-01-18 02:01:49.92	317.73	26.78	-85.2	-88.6	3.1	1.56e+00	0	47	104	0	60	1048575
2026-01-18 02:01:50.93	317.42	26.74	-85.2	-88.6	3.0	1.55e+00	0	47	104	0	60	1048575
2026-01-18 02:01:51.93	317.12	26.70	-85.2	-88.6	3.0	1.55e+00	0	47	104	0	60	1048575
2026-01-18 02:01:52.94	316.82	26.66	-85.2	-88.6	3.0	1.56e+00	0	47	104	0	60	1048574
2026-01-18 02:01:53.95	316.52	26.61	-85.2	-88.6	3.0	1.56e+00	0	47	104	0	60	1048574
2026-01-18 02:01:54.95	316.22	26.57	-85.2	-88.6	3.1	1.56e+00	0	47	104	0	60	1048575
2026-01-18 02:01:55.96	315.92	26.52	-85.2	-88.6	3.1	1.56e+00	0	47	104	0	60	1048575
2026-01-18 02:01:56.97	315.63	26.48	-85.2	-88.6	3.1	1.56e+00	0	47	104	0	60	1048575
2026-01-18 02:01:57.98	315.33	26.43	-85.2	-88.6	2.9	1.56e+00	0	47	104	0	60	1048575
2026-01-18 02:01:58.99	315.03	26.38	-85.2	-88.6	3.0	1.55e+00	0	47	104	0	60	1048574
2026-01-18 02:01:59.99	314.74	26.34	-85.2	-88.6	3.0	1.56e+00	0	47	104	0	60	1048575
2026-01-18 02:02:00.99	314.45	26.29	-85.2	-88.6	3.0	1.56e+00	0	47	104	0	60	1048575
2026-01-18 02:02:02.00	314.15	26.24	-83.5	-88.6	2.9	1.56e+00	0	47	104	0	60	1048575
2026-01-18 02:02:03.00	313.86	26.19	-85.2	-88.6	3.1	1.55e+00	0	47	104	0	60	1048575
2026-01-18 02:02:04.01	313.57	26.14	-85.2	-88.6	2.9	1.56e+00	0	47	104	0	60	1048575
2026-01-18 02:02:05.02	313.28	26.09	-85.2	-88.6	2.9	1.56e+00	0	47	104	0	60	1048574
2026-01-18 02:02:06.03	312.99	26.03	-85.2	-88.6	2.9	1.55e+00	0	47	104	0	60	1048573
2026-01-18 02:02:07.04	312.70	25.98	-85.2	-88.6	2.9	1.56e+00	0	47	104	0	60	1048575
2026-01-18 02:02:08.05	312.41	25.93	-85.2	-88.6	2.9	1.55e+00	0	47	104	0	60	1048575
2026-01-18 02:02:09.05	312.13	25.87	-85.2	-88.6	3.0	1.56e+00	0	47	104	0	60	1048573
2026-01-18 02:02:10.06	311.84	25.82	-85.2	-88.6	3.0	1.56e+00	0	47	104	0	60	1048574
2026-01-18 02:02:11.07	311.56	25.76	-85.2	-88.6	3.1	1.55e+00	0	47	104	0	60	1048575
2026-01-18 02:02:12.08	311.27	25.71	-85.2	-88.6	3.0	1.56e+00	0	47	104	0	60	1048575
2026-01-18 02:02:13.08	310.99	25.65	-85.2	-88.6	2.8	1.56e+00	0	47	104	0	60	1048575
2026-01-18 02:02:14.09	310.71	25.59	-85.2	-88.6	3.0	1.55e+00	0	47	104	0	60	1048575
2026-01-18 02:02:15.09	310.43	25.53	-83.5	-88.6	3.0	1.56e+00	0	47	104	0	60	1048575
2026-01-18 02:02:16.10	310.15	25.47	-85.2	-88.6	2.9	1.55e+00	0	47	104	0	60	1048574
2026-01-18 02:02:17.11	309.87	25.41	-85.2	-88.6	3.2	1.56e+00	0	47	104	0	60	1048575
2026-01-18 02:02:18.11	309.60	25.36	-85.2	-88.6	2.9	1.56e+00	0	47	104	0	60	1048570
2026-01-18 02:02:19.12	309.32	25.29	-85.2	-88.6	3.2	1.55e+00	0	47	104	0	60	1048575
2026-01-18 02:02:20.13	309.04	25.23	-85.2	-88.6	3.1	1.56e+00	0	47	104	0	60	1048575
2026-01-18 02:02:21.13	308.77	25.17	-85.2	-88.6	2.8	1.56e+00	0	47	104	0	60	1048575
2026-01-18 02:02:22.14	308.50	25.11	-85.2	-88.6	3.0	1.55e+00	0	47	104	0	60	1048574
2026-01-18 02:02:23.14	308.23	25.05	-85.2	-88.6	2.9	1.56e+00	0	47	104	0	60	1048575
2026-01-18 02:02:24.15	307.96	24.98	-85.2	-88.6	2.9	1.56e+00	0	47	104	0	60	1048575
2026-01-18 02:02:25.15	307.69	24.92	-85.2	-88.6	3.1	1.56e+00	0	47	104	0	60	1048574
2026-01-18 02:02:26.16	307.42	24.85	-85.2	-88.6	3.0	1.55e+00	0	47	104	0	60	1048574
2026-01-18 02:02:27.17	307.15	24.79	-85.2	-88.6	3.0	1.56e+00	0	47	104	0	60	1048574
2026-01-18 02:02:28.18	306.88	24.72	-85.2	-88.6	3.0	1.56e+00	0	47	104	0	60	1048575
2026-01-18 02:02:29.18	306.62	24.66	-85.2	-88.6	3.0	1.56e+00	0	47	104	0	60	1048575
2026-01-18 02:02:30.19	306.36	24.59	-85.2	-88.6	2.9	1.55e+00	0	47	104	0	60	1048575
2026-01-18 02:02:31.19	306.09	24.52	-85.2	-88.6	2.9	1.55e+00	0	47	104	0	60	1048575
2026-01-18 02:02:32.20	305.83	24.46	-85.2	-88.6	2.8	1.56e+00	0	47	104	0	60	1048575
2026-01-18 02:02:33.20	305.57	24.39	-85.2	-88.6	2.9	1.55e+00	0	47	104	0	60	1048574
2026-01-18 02:02:34.21	305.31	24.32	-85.2	-88.6	2.9	1.56e+00	0	47	104	0	60	1048575
2026-01-18 02:02:35.22	305.05	24.25	-85.2	-88.6	3.1	1.56e+00	0	47	104	0	60	1048575
2026-01-18 02:02:36.23	304.80	24.18	-85.2	-88.6	3.0	1.56e+00	0	47	104	0	60	1048575
2026-01-18 02:02:37.23	304.54	24.11	-85.2	-88.6	2.8	1.56e+00	0	47	104	0	60	1048574
2026-01-18 02:02:38.24	304.29	24.04	-85.2	-88.6	3.0	1.56e+00	0	47	104	0	60	1048570
2026-01-18 02:02:39.24	304.03	23.97	-85.2	-88.6	3.1	1.56e+00	0	47	104	0	60	1048573
2026-01-18 02:02:40.25	303.78	23.90	-85.2	-88.6	2.8	1.55e+00	0	47	104	0	60	1048575
2026-01-18 02:02:41.25	303.53	23.83	-85.2	-88.6	2.9	1.56e+00	0	47	104	0	60	1048575
2026-01-18 02:02:42.26	303.28	23.76	-85.2	-88.6	2.9	1.56e+00	0	47	104	0	60	1048575
2026-01-18 02:02:43.27	303.03	23.68	-85.2	-88.6	3.1	1.56e+00	0	47	104	0	60	1048573
2026-01-18 02:02:44.28	302.78	23.61	-85.2	-88.6	2.8	1.55e+00	0	47	104	0	60	1048573
2026-01-18 02:02:45.28	302.54	23.54	-85.2	-88.6	2.9	1.56e+00	0	47	104	0	60	1048573
2026-01-18 02:02:46.29	302.29	23.46	-85.2	-88.6	2.8	1.56e+00	0	47	104	0	60	1048575
2026-01-18 02:02:47.30	302.04	23.39	-85.2	-88.6	3.0	1.55e+00	0	47	104	0	60	1048572
2026-01-18 02:02:48.31	301.80	23.32	-85.2	-88.6	3.1	1.55e+00	0	47	104	0	60	1048574
2026-01-18 02:02:49.30	301.56	23.24	-85.2	-88.6	2.8	1.55e+00	0	47	104	0	60	1048572
2026-01-18 02:02:50.31	301.32	23.17	-85.2	-88.6	3.0	1.56e+00	0	47	104	0	60	1048575
2026-01-18 02:02:51.32	301.08	23.09	-85.2	-88.6	2.8	1.56e+00	0	47	104	0	60	1048571
2026-01-18 02:02:52.33	300.84	23.02	-85.2	-88.6	3.1	1.55e+00	0	47	104	0	60	1048574
2026-01-18 02:02:53.33	300.60	22.94	-85.2	-88.6	2.9	1.56e+00	0	47	104	0	60	1048575
2026-01-18 02:02:54.34	300.37	22.86	-85.2	-88.6	3.1	1.55e+00	0	47	104	0	60	1048575
2026-01-18 02:02:55.34	300.13	22.79	-85.2	-88.6	3.0	1.56e+00	0	47	104	0	60	1048574
2026-01-18 02:02:56.35	299.90	22.71	-85.2	-88.6	3.1	1.56e+00	0	47	104	0	60	1048575
2026-01-18 02:02:57.35	299.67	22.64	-85.2	-88.6	3.0	1.56e+00	0	47	104	0	60	1048573
2026-01-18 02:02:58.36	299.43	22.56	-85.2	-88.6	3.2	1.56e+00	0	47	104	0	60	1048575
2026-01-18 02:02:59.36	299.21	22.48	-85.2	-88.6	3.1	1.56e+00	0	47	104	0	60	1048575
2026-01-18 02:03:00.37	298.98	22.40	-85.2	-88.6	3.2	1.56e+00	0	47	104	0	60	1048574
2026-01-18 02:03:01.38	298.75	22.32	-85.2	-88.6	2.8	1.56e+00	0	47	104	0	60	1048574
2026-01-18 02:03:02.38	298.52	22.25	-85.2	-88.6	2.9	1.56e+00	0	47	104	0	60	1048575
2026-01-18 02:03:03.39	298.29	22.17	-85.2	-88.6	3.0	1.56e+00	0	47	104	0	60	1048575
2026-01-18 02:03:04.40	298.07	22.09	-85.2	-88.6	2.8	1.56e+00	0	47	104	0	60	1048573
2026-01-18 02:03:05.40	297.85	22.01	-85.2	-88.6	3.1	1.56e+00	0	47	104	0	60	1048575
2026-01-18 02:03:06.40	297.63	21.93	-85.2	-88.6	3.0	1.56e+00	0	47	104	0	60	1048570
2026-01-18 02:03:07.41	297.40	21.85	-85.2	-88.6	2.9	1.55e+00	0	47	104	0	60	1048575
2026-01-18 02:03:08.41	297.18	21.77	-85.2	-88.6	3.0	1.56e+00	0	47	104	0	60	1048575
2026-01-18 02:03:09.42	296.97	21.69	-85.2	-88.6	3.0	1.56e+00	0	47	104	0	60	1048574
2026-01-18 02:03:10.42	296.75	21.61	-85.2	-88.6	2.9	1.55e+00	0	47	104	0	60	1048575
2026-01-18 02:03:11.43	296.53	21.53	-85.2	-88.6	2.7	1.55e+00	0	47	104	0	60	1048573
2026-01-18 02:03:12.44	296.31	21.45	-85.2	-88.6	3.0	1.56e+00	0	47	104	0	60	1048575
2026-01-18 02:03:13.44	296.10	21.37	-85.2	-88.6	3.1	1.56e+00	0	47	104	0	60	1048572
2026-01-18 02:03:14.45	295.89	21.29	-85.2	-88.6	3.0	1.56e+00	0	47	104	0	60	1048575
2026-01-18 02:03:15.46	295.67	21.21	-85.2	-88.6	2.9	1.56e+00	0	47	104	0	60	1048571
2026-01-18 02:03:16.47	295.46	21.13	-85.2	-88.6	3.0	1.56e+00	0	47	104	0	60	1048569
2026-01-18 02:03:17.48	295.25	21.05	-85.2	-88.6	3.3	1.56e+00	0	47	104	0	60	1048573
2026-01-18 02:03:18.49	295.04	20.97	-85.2	-88.6	2.9	1.56e+00	0	47	104	0	60	1048573
2026-01-18 02:03:19.50	294.83	20.88	-85.2	-88.6	2.9	1.55e+00	0	47	104	0	60	1048575
2026-01-18 02:03:20.50	294.63	20.80	-85.2	-88.6	2.7	1.56e+00	0	47	104	0	60	1048575
2026-01-18 02:03:21.51	294.42	20.72	-85.2	-88.6	3.1	1.56e+00	0	47	104	0	60	1048575
2026-01-18 02:03:22.52	294.22	20.64	-85.2	-88.6	2.9	1.56e+00	0	47	104	0	60	1048574
2026-01-18 02:03:23.53	294.01	20.56	-85.2	-88.6	3.0	1.56e+00	0	47	104	0	60	1048573
2026-01-18 02:03:24.52	293.81	20.48	-85.2	-88.6	3.1	1.56e+00	0	47	104	0	60	1048575
2026-01-18 02:03:25.53	293.61	20.39	-85.2	-88.6	3.0	1.55e+00	0	47	104	0	60	1048575
2026-01-18 02:03:26.53	293.41	20.31	-85.2	-88.6	3.1	1.56e+00	0	47	104	0	60	1048575
2026-01-18 02:03:27.54	293.21	20.23	-85.2	-88.6	3.0	1.55e+00	0	47	104	0	60	1048572
2026-01-18 02:03:28.53	293.02	20.15	-85.2	-88.6	2.9	1.56e+00	0	47	104	0	60	1048574
2026-01-18 02:03:29.54	292.82	20.06	-85.2	-88.6	2.8	1.56e+00	0	47	104	0	60	1048575
2026-01-18 02:03:30.55	292.63	19.98	-85.2	-88.6	3.0	1.56e+00	0	47	104	0	60	1048573
2026-01-18 02:03:31.56	292.43	19.90	-85.2	-88.6	3.0	1.56e+00	0	47	104	0	60	1048574
2026-01-18 02:03:32.56	292.24	19.82	-85.2	-88.6	3.0	1.56e+00	0	47	104	0	60	1048575
2026-01-18 02:03:33.57	292.04	19.73	-85.2	-88.6	3.0	1.56e+00	0	47	104	0	60	1048572
2026-01-18 02:03:34.57	291.85	19.65	-85.2	-88.6	3.1	1.56e+00	0	47	104	0	60	1048572
2026-01-18 02:03:35.58	291.66	19.57	-85.2	-88.6	2.9	1.56e+00	0	47	104	0	60	1048575
2026-01-18 02:03:36.59	291.47	19.48	-85.2	-88.6	2.9	1.56e+00	0	47	104	0	60	1048575
2026-01-18 02:03:37.60	291.28	19.40	-85.2	-88.6	2.9	1.56e+00	0	47	104	0	60	1048572
2026-01-18 02:03:38.60	291.10	19.32	-85.2	-88.6	2.9	1.56e+00	0	47	104	0	60	1048575
2026-01-18 02:03:39.61	290.91	19.23	-85.2	-88.6	2.9	1.56e+00	0	47	104	0	60	1048573
2026-01-18 02:03:40.61	290.73	19.15	-85.2	-88.6	3.0	1.55e+00	0	47	104	0	60	1048575
2026-01-18 02:03:41.62	290.54	19.07	-85.2	-88.6	3.1	1.56e+00	0	47	104	0	60	1048574
2026-01-18 02:03:42.63	290.36	18.98	-85.2	-88.6	2.7	1.55e+00	0	47	104	0	60	1048575
2026-01-18 02:03:43.64	290.18	18.90	-85.2	-88.6	3.0	1.56e+00	0	47	104	0	60	1048575
2026-01-18 02:03:44.64	290.00	18.82	-85.2	-88.6	3.0	1.56e+00	0	47	104	0	60	1048575
2026-01-18 02:03:45.65	289.81	18.73	-85.2	-88.6	3.1	1.56e+00	0	47	104	0	60	1048575
2026-01-18 02:03:46.66	289.63	18.65	-85.2	-88.6	2.9	1.56e+00	0	47	104	0	60	1048575
2026-01-18 02:03:47.66	289.46	18.57	-85.2	-88.6	3.1	1.55e+00	0	47	104	0	60	1048573
2026-01-18 02:03:48.67	289.28	18.48	-85.2	-88.6	3.1	1.55e+00	0	47	104	0	60	1048575
2026-01-18 02:03:49.68	289.10	18.40	-85.2	-88.6	3.0	1.56e+00	0	47	104	0	60	1048573
2026-01-18 02:03:50.69	288.93	18.32	-85.2	-88.6	2.9	1.55e+00	0	47	104	0	60	1048575
2026-01-18 02:03:51.70	288.75	18.23	-85.2	-88.6	3.1	1.56e+00	0	47	104	0	60	1048575
2026-01-18 02:03:52.71	288.58	18.15	-85.2	-88.6	3.1	1.55e+00	0	47	104	0	60	1048573
2026-01-18 02:03:53.72	288.40	18.07	-85.2	-88.6	3.0	1.56e+00	0	47	104	0	60	1048571
2026-01-18 02:03:54.72	288.23	17.98	-85.2	-88.6	3.1	1.56e+00	0	47	104	0	60	1048575
2026-01-18 02:03:55.73	288.06	17.90	-85.2	-88.6	3.0	1.56e+00	0	47	104	0	60	1048575
2026-01-18 02:03:56.73	287.89	17.82	-85.2	-88.6	2.9	1.56e+00	0	47	104	0	60	1048575
2026-01-18 02:03:57.73	287.73	17.73	-85.2	-88.6	3.3	1.56e+00	0	47	104	0	60	1048573
2026-01-18 02:03:58.73	287.56	17.65	-85.2	-88.6	2.9	1.56e+00	0	47	104	0	60	1048574
2026-01-18 02:03:59.74	287.39	17.57	-85.2	-88.6	3.0	1.56e+00	0	47	104	0	60	1048575
2026-01-18 02:04:00.74	287.23	17.48	-85.2	-88.6	3.0	1.55e+00	0	47	104	0	60	1048570
2026-01-18 02:04:01.75	287.06	17.40	-85.2	-88.6	2.9	1.56e+00	0	47	104	0	60	1048574
2026-01-18 02:04:02.75	286.90	17.32	-85.2	-88.6	3.1	1.55e+00	0	47	104	0	60	1048573
2026-01-18 02:04:03.76	286.74	17.24	-85.2	-88.6	3.0	1.56e+00	0	47	104	0	60	1048575
2026-01-18 02:04:04.77	286.57	17.15	-85.2	-88.6	2.9	1.56e+00	0	47	104	0	60	1048575
2026-01-18 02:04:05.78	286.41	17.07	-85.2	-88.6	2.9	1.56e+00	0	47	104	0	60	1048574
2026-01-18 02:04:06.79	286.25	16.99	-85.2	-88.6	2.9	1.56e+00	0	47	104	0	60	1048575
2026-01-18 02:04:07.80	286.09	16.90	-85.2	-88.6	2.7	1.56e+00	0	47	104	0	60	1048573
2026-01-18 02:04:08.81	285.93	16.82	-85.2	-88.6	2.9	1.55e+00	0	47	104	0	60	1048575
2026-01-18 02:04:09.81	285.78	16.74	-85.2	-88.6	3.1	1.56e+00	0	47	104	0	60	1048575
2026-01-18 02:04:10.82	285.62	16.65	-85.2	-88.6	2.9	1.55e+00	0	47	104	0	60	1048575
2026-01-18 02:04:11.82	285.46	16.57	-85.2	-88.6	2.9	1.56e+00	0	47	104	0	60	1048575
2026-01-18 02:04:12.83	285.31	16.49	-85.2	-88.6	3.1	1.56e+00	0	47	104	0	60	1048575
2026-01-18 02:04:13.84	285.15	16.41	-85.2	-88.6	2.9	1.56e+00	0	47	104	0	60	1048574
2026-01-18 02:04:14.85	285.00	16.32	-85.2	-88.6	3.0	1.56e+00	0	47	104	0	60	1048575
2026-01-18 02:04:15.85	284.85	16.24	-85.2	-88.6	3.0	1.55e+00	0	47	104	0	60	1048573
2026-01-18 02:04:16.85	284.70	16.16	-85.2	-88.6	2.9	1.55e+00	0	47	104	0	60	1048573
2026-01-18 02:04:17.86	284.55	16.08	-85.2	-88.6	2.9	1.55e+00	0	47	104	0	60	1048575
2026-01-18 02:04:18.87	284.40	15.99	-85.2	-88.6	2.8	1.55e+00	0	47	104	0	60	1048574
2026-01-18 02:04:19.88	284.25	15.91	-85.2	-88.6	2.9	1.56e+00	0	47	104	0	60	1048575
2026-01-18 02:04:20.88	284.10	15.83	-85.2	-88.6	3.1	1.56e+00	0	47	104	0	60	1048573
2026-01-18 02:04:21.89	283.95	15.75	-85.2	-88.6	3.0	1.56e+00	0	47	104	0	60	1048574
2026-01-18 02:04:22.89	283.81	15.67	-85.2	-88.6	2.7	1.56e+00	0	47	104	0	60	1048573
2026-01-18 02:04:23.90	283.66	15.58	-85.2	-88.6	3.0	1.56e+00	0	47	104	0	60	1048571
2026-01-18 02:04:24.91	283.51	15.50	-85.2	-88.6	2.9	1.56e+00	0	47	104	0	60	1048575
2026-01-18 02:04:25.92	283.37	15.42	-85.2	-88.6	3.1	1.55e+00	0	47	104	0	60	1048575
2026-01-18 02:04:26.92	283.23	15.34	-85.2	-88.6	3.1	1.55e+00	0	47	104	0	60	1048575
2026-01-18 02:04:27.93	283.08	15.26	-85.2	-88.6	3.0	1.55e+00	0	47	104	0	60	1048575
2026-01-18 02:04:28.94	282.94	15.18	-85.2	-88.6	3.0	1.56e+00	0	47	104	0	60	1048574
2026-01-18 02:04:29.94	282.80	15.09	-85.2	-88.6	3.0	1.55e+00	0	47	104	0	60	1048575
2026-01-18 02:04:30.94	282.66	15.01	-85.2	-88.6	3.2	1.56e+00	0	47	104	0	60	1048573
2026-01-18 02:04:31.95	282.52	14.93	-85.2	-88.6	3.0	1.56e+00	0	47	104	0	60	1048575
2026-01-18 02:04:32.96	282.38	14.85	-85.2	-88.6	3.1	1.55e+00	0	47	104	0	60	1048575
2026-01-18 02:04:33.96	282.25	14.77	-85.2	-88.6	3.1	1.55e+00	0	47	104	0	60	1048574
2026-01-18 02:04:34.97	282.11	14.69	-85.2	-88.6	3.0	1.56e+00	0	47	104	0	60	1048575
2026-01-18 02:04:35.97	281.97	14.61	-84.7	-88.6	2.9	1.56e+00	0	47	104	0	60	1048575
2026-01-18 02:04:36.98	281.84	14.53	-85.2	-88.6	3.0	1.56e+00	0	47	104	0	60	1048573
2026-01-18 02:04:37.99	281.70	14.45	-85.2	-88.6	2.7	1.55e+00	0	47	104	0	60	1048575
2026-01-18 02:04:39.00	281.57	14.37	-85.2	-88.6	3.2	1.56e+00	0	47	104	0	60	1048574
2026-01-18 02:04:40.00	281.43	14.29	-85.2	-88.6	3.1	1.56e+00	0	47	104	0	60	1048574
2026-01-18 02:04:41.02	281.30	14.21	-85.2	-88.6	3.1	1.56e+00	0	47	104	0	60	1048574
2026-01-18 02:04:42.02	281.17	14.13	-85.2	-88.6	3.0	1.56e+00	0	47	104	0	60	1048575
2026-01-18 02:04:43.03	281.04	14.05	-85.2	-88.6	3.2	1.56e+00	0	47	104	0	60	1048572
2026-01-18 02:04:44.04	280.91	13.97	-85.2	-88.6	2.9	1.56e+00	0	47	104	0	60	1048569
2026-01-18 02:04:45.04	280.78	13.89	-85.2	-88.6	2.9	1.56e+00	0	47	104	0	60	1048574
2026-01-18 02:04:46.05	280.65	13.81	-85.2	-88.6	3.1	1.56e+00	0	47	104	0	60	1048575
2026-01-18 02:04:47.05	280.52	13.73	-85.2	-88.6	2.9	1.56e+00	0	47	104	0	60	1048575
2026-01-18 02:04:48.06	280.39	13.65	-85.2	-88.6	3.0	1.56e+00	0	47	104	0	60	1048574
2026-01-18 02:04:49.07	280.26	13.57	-85.2	-88.6	3.0	1.56e+00	0	47	104	0	60	1048575
2026-01-18 02:04:50.08	280.14	13.49	-85.2	-88.6	3.0	1.55e+00	0	47	104	0	60	1048575
2026-01-18 02:04:51.08	280.01	13.41	-85.2	-88.6	2.9	1.55e+00	0	47	104	0	60	1048575
2026-01-18 02:04:52.09	279.89	13.33	-85.2	-88.6	2.8	1.56e+00	0	47	104	0	60	1048571
2026-01-18 02:04:53.09	279.76	13.25	-85.2	-88.6	3.0	1.56e+00	0	47	104	0	60	1048575
2026-01-18 02:04:54.10	279.64	13.17	-85.2	-88.6	3.1	1.56e+00	0	47	104	0	60	1048575
2026-01-18 02:04:55.11	279.52	13.10	-85.2	-88.6	2.8	1.56e+00	0	47	104	0	60	1048575
2026-01-18 02:04:56.12	279.39	13.02	-85.2	-88.6	2.9	1.55e+00	0	47	104	0	60	1048575
2026-01-18 02:04:57.12	279.27	12.94	-85.2	-88.6	2.9	1.56e+00	0	47	104	0	60	1048575
2026-01-18 02:04:58.13	279.15	12.86	-85.2	-88.6	3.2	1.56e+00	0	47	104	0	60	1048573
2026-01-18 02:04:59.13	279.03	12.78	-85.2	-88.6	3.0	1.55e+00	0	47	104	0	60	1048575
2026-01-18 02:05:00.14	278.91	12.70	-85.2	-88.6	2.9	1.56e+00	0	47	104	0	60	1048575
2026-01-18 02:05:01.14	278.79	12.63	-85.2	-88.6	3.1	1.56e+00	0	47	104	0	60	1048573
2026-01-18 02:05:02.15	278.68	12.55	-85.2	-88.6	3.1	1.56e+00	0	47	104	0	60	1048574
2026-01-18 02:05:03.16	278.56	12.47	-85.2	-88.6	3.1	1.56e+00	0	47	104	0	60	1048572
2026-01-18 02:05:04.16	278.44	12.39	-85.2	-88.6	3.0	1.56e+00	0	47	104	0	60	1048574
2026-01-18 02:05:05.17	278.32	12.32	-85.2	-88.6	2.9	1.55e+00	0	47	104	0	60	1048575
2026-01-18 02:05:06.18	278.21	12.24	-85.2	-88.6	3.0	1.56e+00	0	47	104	0	60	1048575
2026-01-18 02:05:07.18	278.09	12.16	-85.2	-88.6	2.9	1.56e+00	0	47	104	0	60	1048575
2026-01-18 02:05:08.19	277.98	12.09	-85.2	-88.6	2.8	1.56e+00	0	47	104	0	60	1048570
2026-01-18 02:05:09.20	277.86	12.01	-85.2	-88.6	3.1	1.56e+00	0	47	104	0	60	1048575
2026-01-18 02:05:10.21	277.75	11.93	-85.2	-88.6	3.0	1.56e+00	0	47	104	0	60	1048573
2026-01-18 02:05:11.21	277.64	11.86	-85.2	-88.6	3.1	1.56e+00	0	47	104	0	60	1048574
2026-01-18 02:05:12.22	277.53	11.78	-84.7	-88.6	3.0	1.55e+00	0	47	104	0	60	1048575
2026-01-18 02:05:13.23	277.41	11.70	-85.2	-88.6	3.0	1.56e+00	0	47	104	0	60	1048575
2026-01-18 02:05:14.24	277.30	11.63	-85.2	-88.6	3.1	1.55e+00	0	47	104	0	60	1048575
2026-01-18 02:05:15.25	277.19	11.55	-85.2	-88.6	2.9	1.55e+00	0	47	104	0	60	1048573
2026-01-18 02:05:16.25	277.08	11.47	-85.2	-88.6	3.2	1.55e+00	0	47	104	0	60	1048575
2026-01-18 02:05:17.26	276.97	11.40	-85.2	-88.6	2.7	1.55e+00	0	47	104	0	60	1048573
2026-01-18 02:05:18.26	276.87	11.32	-85.2	-88.6	3.1	1.55e+00	0	47	104	0	60	1048574
2026-01-18 02:05:19.26	276.76	11.25	-85.2	-88.6	2.9	1.56e+00	0	47	104	0	60	1048573
2026-01-18 02:05:20.27	276.65	11.17	-85.2	-88.6	2.9	1.56e+00	0	47	104	0	60	1048575
2026-01-18 02:05:21.28	276.54	11.10	-85.2	-88.6	2.9	1.55e+00	0	47	104	0	60	1048575
2026-01-18 02:05:22.28	276.44	11.02	-85.2	-88.6	2.9	1.56e+00	0	47	104	0	60	1048575
2026-01-18 02:05:23.28	276.33	10.95	-85.2	-88.6	2.7	1.56e+00	0	47	104	0	60	1048575
2026-01-18 02:05:24.29	276.23	10.87	-85.2	-88.6	3.2	1.55e+00	0	47	104	0	60	1048575
2026-01-18 02:05:25.29	276.12	10.80	-85.2	-88.6	3.0	1.56e+00	0	47	104	0	60	1048575
2026-01-18 02:05:26.29	276.02	10.72	-84.3	-88.6	3.0	1.56e+00	0	47	104	0	60	1048575
2026-01-18 02:05:27.30	275.92	10.65	-85.2	-88.6	3.0	1.55e+00	0	47	104	0	60	1048575
2026-01-18 02:05:28.31	275.81	10.57	-85.2	-88.6	3.0	1.56e+00	0	47	104	0	60	1048575
2026-01-18 02:05:29.32	275.71	10.50	-85.2	-88.6	2.9	1.55e+00	0	47	104	0	60	1048574
2026-01-18 02:05:30.32	275.61	10.43	-85.2	-88.6	3.0	1.56e+00	0	47	104	0	60	1048574
2026-01-18 02:05:31.33	275.51	10.35	-85.2	-88.6	2.9	1.56e+00	0	47	104	0	60	1048575
2026-01-18 02:05:32.34	275.40	10.28	-84.7	-88.6	3.0	1.56e+00	0	47	104	0	60	1048571
2026-01-18 02:05:33.35	275.30	10.20	-85.2	-88.6	3.0	1.56e+00	0	47	104	0	60	1048574
2026-01-18 02:05:34.35	275.20	10.13	-85.2	-88.6	3.0	1.56e+00	0	47	104	0	60	1048571
2026-01-18 02:05:35.36	275.10	10.06	-85.2	-88.6	2.8	1.55e+00	0	47	104	0	60	1048575
2026-01-18 02:05:36.36	275.01	9.99	-85.2	-88.6	3.2	1.56e+00	0	47	104	0	60	1048575
2026-01-18 02:05:37.37	274.91	9.91	-85.2	-88.6	3.0	1.56e+00	0	47	104	0	60	1048575
2026-01-18 02:05:38.38	274.81	9.84	-85.2	-88.6	3.2	1.55e+00	0	47	104	0	60	1048572
2026-01-18 02:05:39.38	274.71	9.77	-85.2	-88.6	3.1	1.55e+00	0	47	104	0	60	1048574
2026-01-18 02:05:40.39	274.62	9.69	-85.2	-88.6	3.1	1.56e+00	0	47	104	0	60	1048574
2026-01-18 02:05:41.40	274.52	9.62	-83.9	-88.6	3.0	1.55e+00	0	47	104	0	60	1048575
2026-01-18 02:05:42.41	274.42	9.55	-85.2	-88.6	2.9	1.56e+00	0	47	104	0	60	1048574
2026-01-18 02:05:43.41	274.33	9.48	-85.2	-88.6	2.7	1.56e+00	0	47	104	0	60	1048575
2026-01-18 02:05:44.42	274.23	9.40	-85.2	-88.6	3.1	1.56e+00	0	47	104	0	60	1048574
2026-01-18 02:05:45.42	274.14	9.33	-84.3	-88.6	3.0	1.56e+00	0	47	104	0	60	1048572
2026-01-18 02:05:46.43	274.04	9.26	-83.5	-88.6	3.1	1.55e+00	0	47	104	0	60	1048575
2026-01-18 02:05:47.44	273.95	9.19	-85.2	-88.6	3.1	1.55e+00	0	47	104	0	60	1048573
2026-01-18 02:05:48.44	273.86	9.12	-85.2	-88.6	3.0	1.55e+00	0	47	104	0	60	1048574
2026-01-18 02:05:49.45	273.77	9.04	-85.2	-88.6	3.0	1.56e+00	0	47	104	0	60	1048575
2026-01-18 02:05:50.46	273.67	8.97	-85.2	-88.6	3.3	1.55e+00	0	47	104	0	60	1048575
2026-01-18 02:05:51.47	273.58	8.90	-85.2	-88.6	2.9	1.56e+00	0	47	104	0	60	1048575
2026-01-18 02:05:52.48	273.49	8.83	-85.2	-88.6	3.1	1.56e+00	0	47	104	0	60	1048573
2026-01-18 02:05:53.49	273.40	8.76	-85.2	-88.6	2.9	1.55e+00	0	47	104	0	60	1048574
2026-01-18 02:05:54.49	273.31	8.69	-85.2	-88.6	3.0	1.55e+00	0	47	104	0	60	1048575
2026-01-18 02:05:55.50	273.22	8.62	-85.2	-88.6	3.0	1.56e+00	0	47	104	0	60	1048575
2026-01-18 02:05:56.50	273.13	8.55	-85.2	-88.6	2.8	1.56e+00	0	47	104	0	60	1048575
2026-01-18 02:05:57.51	273.04	8.48	-85.2	-88.6	2.8	1.56e+00	0	47	104	0	60	1048574
2026-01-18 02:05:58.51	272.95	8.41	-85.2	-88.6	2.9	1.55e+00	0	47	104	0	60	1048574
2026-01-18 02:05:59.52	272.87	8.34	-85.2	-88.6	3.0	1.56e+00	0	47	104	0	60	1048574
2026-01-18 02:06:00.53	272.78	8.27	-85.2	-88.6	3.0	1.56e+00	0	47	104	0	60	1048575
2026-01-18 02:06:01.53	272.69	8.20	-85.2	-88.6	3.1	1.55e+00	0	47	104	0	60	1048574
2026-01-18 02:06:02.54	272.60	8.13	-85.2	-88.6	3.0	1.56e+00	0	47	104	0	60	1048575
2026-01-18 02:06:03.55	272.52	8.06	-85.2	-88.6	2.9	1.56e+00	0	47	104	0	60	1048574
2026-01-18 02:06:04.55	272.43	7.99	-85.2	-88.6	2.9	1.56e+00	0	47	104	0	60	1048575
2026-01-18 02:06:05.56	272.35	7.92	-83.5	-88.6	2.8	1.56e+00	0	47	104	0	60	1048574
2026-01-18 02:06:06.57	272.26	7.85	-85.2	-88.6	3.0	1.56e+00	0	47	104	0	60	1048575
2026-01-18 02:06:07.58	272.18	7.78	-85.2	-88.6	2.8	1.56e+00	0	47	104	0	60	1048572
