passes_logs/2026/01/18/R3.2S-Naryan-Mar/R3.2S-Naryan-Mar__20260118_094136_NOAA_21_JPSS-2_rec.log

#Pass ID: 20260118_094136_NOAA 21 (JPSS-2)
#Satellite: NOAA 21 (JPSS-2)
#Configuration: NOAA-21
#almurnet v.1.7.20240730
#Start time: 2026-01-18 09:48:56

#Version: 2.2.20231116
#Station: R3.2S-Naryan-Mar
#Location: 53.008057 lon 67.646978 lat
#TLE: 1 54234U 22150A   26017.26823908  .00000042  00000+0  40962-4 0  9992
#TLE: 2 54234  98.7501 318.1405 0000613 274.2947  85.8159 14.19535194165131

#Time	Az	El	Level	Level2	SNR	BER	BlckErr	Temp	State	Recorded	gain1	gain2
2026-01-18 09:48:56.92	258.72	38.82	-84.7	-88.6	3.2	7.73e-01	0	47	0	0	60	1048570
2026-01-18 09:48:57.92	259.17	38.84	-85.2	-88.8	2.7	1.56e+00	0	48	104	0	60	1048574
2026-01-18 09:48:58.93	259.62	38.86	-85.2	-88.8	2.9	1.56e+00	0	48	104	0	60	1048575
2026-01-18 09:48:59.93	260.07	38.88	-85.2	-88.8	2.6	1.56e+00	0	48	104	0	60	1048575
2026-01-18 09:49:00.94	260.52	38.90	-85.2	-88.8	2.6	1.56e+00	0	48	104	0	60	1048574
2026-01-18 09:49:01.94	260.97	38.91	-85.2	-88.8	2.9	1.56e+00	0	48	104	0	60	1048572
2026-01-18 09:49:02.95	261.42	38.93	-85.2	-88.8	2.8	1.56e+00	0	48	104	0	60	1048574
2026-01-18 09:49:03.95	261.87	38.94	-85.2	-88.8	2.8	1.56e+00	0	48	104	0	60	1048572
2026-01-18 09:49:04.96	262.32	38.95	-85.2	-88.8	2.9	1.56e+00	0	48	104	0	60	1048570
2026-01-18 09:49:05.96	262.77	38.95	-85.2	-88.8	2.7	1.56e+00	0	48	104	0	60	1048575
2026-01-18 09:49:06.97	263.23	38.96	-85.2	-88.8	2.8	1.56e+00	0	48	104	0	60	1048575
2026-01-18 09:49:07.98	263.68	38.96	-85.2	-88.8	2.8	1.56e+00	0	48	104	0	60	1048574
2026-01-18 09:49:08.99	264.14	38.96	-85.2	-88.8	2.8	1.56e+00	0	48	104	0	60	1048571
2026-01-18 09:49:09.99	264.59	38.96	-85.2	-88.8	2.7	1.56e+00	0	48	104	0	60	1048575
2026-01-18 09:49:10.99	265.04	38.96	-85.2	-88.8	2.7	1.56e+00	0	48	104	0	60	1048574
2026-01-18 09:49:12.00	265.49	38.95	-85.2	-88.8	2.7	1.56e+00	0	48	104	0	60	1048575
2026-01-18 09:49:13.01	265.94	38.95	-85.2	-88.8	2.7	1.56e+00	0	48	104	0	60	1048575
2026-01-18 09:49:14.02	266.40	38.94	-85.2	-88.8	2.7	1.56e+00	0	48	104	0	60	1048573
2026-01-18 09:49:15.02	266.85	38.93	-85.2	-88.8	2.9	1.56e+00	0	48	104	0	60	1048574
2026-01-18 09:49:16.03	267.30	38.91	-84.7	-88.8	2.8	1.56e+00	0	48	104	0	60	1048575
2026-01-18 09:49:17.03	267.75	38.90	-85.2	-88.8	2.8	1.56e+00	0	48	104	0	60	1048573
2026-01-18 09:49:18.04	268.20	38.88	-85.2	-88.8	2.7	1.56e+00	0	48	104	0	60	1048569
2026-01-18 09:49:19.05	268.65	38.86	-85.2	-88.8	2.6	1.56e+00	0	48	104	0	60	1048575
2026-01-18 09:49:20.06	269.10	38.84	-85.2	-88.8	2.7	1.56e+00	0	48	104	0	60	1048572
2026-01-18 09:49:21.07	269.55	38.82	-85.2	-88.8	2.7	1.56e+00	0	48	104	0	60	1048575
2026-01-18 09:49:22.08	270.00	38.80	-85.2	-88.8	2.8	1.56e+00	0	48	104	0	60	1048574
2026-01-18 09:49:23.09	270.45	38.77	-85.2	-88.8	2.5	1.56e+00	0	48	104	0	60	1048572
2026-01-18 09:49:24.09	270.90	38.74	-85.2	-88.8	3.0	1.56e+00	0	48	104	0	60	1048575
2026-01-18 09:49:25.11	271.35	38.71	-85.2	-88.8	2.7	1.56e+00	0	48	104	0	60	1048574
2026-01-18 09:49:26.11	271.79	38.68	-85.2	-88.8	2.9	1.56e+00	0	48	104	0	60	1048572
2026-01-18 09:49:27.12	272.24	38.64	-85.2	-88.8	2.5	1.56e+00	0	48	104	0	60	1048572
2026-01-18 09:49:28.13	272.68	38.61	-85.2	-88.8	2.6	1.56e+00	0	48	104	0	60	1048574
2026-01-18 09:49:29.13	273.12	38.57	-85.2	-88.8	2.8	1.56e+00	0	48	104	0	60	1048572
2026-01-18 09:49:30.14	273.56	38.53	-85.2	-88.8	2.7	1.56e+00	0	48	104	0	60	1048575
2026-01-18 09:49:31.15	274.01	38.49	-85.2	-88.8	2.9	1.56e+00	0	48	104	0	60	1048575
2026-01-18 09:49:32.15	274.44	38.45	-85.2	-88.8	2.7	1.56e+00	0	48	104	0	60	1048575
2026-01-18 09:49:33.16	274.88	38.40	-85.2	-88.8	2.8	1.56e+00	0	48	104	0	60	1048571
2026-01-18 09:49:34.17	275.32	38.36	-85.2	-88.8	2.7	1.56e+00	0	48	104	0	60	1048575
2026-01-18 09:49:35.17	275.75	38.31	-85.2	-88.8	2.8	1.56e+00	0	48	104	0	60	1048575
2026-01-18 09:49:36.18	276.19	38.26	-85.2	-88.8	2.7	1.56e+00	0	48	104	0	60	1048575
2026-01-18 09:49:37.19	276.62	38.20	-85.2	-88.8	2.9	1.56e+00	0	48	104	0	60	1048572
2026-01-18 09:49:38.20	277.06	38.15	-85.2	-88.8	2.8	1.56e+00	0	48	104	0	60	1048574
2026-01-18 09:49:39.20	277.48	38.10	-85.2	-88.8	2.7	1.56e+00	0	48	104	0	60	1048574
2026-01-18 09:49:40.21	277.91	38.04	-85.2	-88.8	2.7	1.56e+00	0	48	104	0	60	1048573
2026-01-18 09:49:41.22	278.34	37.98	-85.2	-88.8	2.6	1.56e+00	0	48	104	0	60	1048573
2026-01-18 09:49:42.23	278.77	37.92	-85.2	-88.8	2.7	1.56e+00	0	48	104	0	60	1048570
2026-01-18 09:49:43.23	279.19	37.86	-85.2	-88.8	2.8	1.56e+00	0	48	104	0	60	1048571
2026-01-18 09:49:44.24	279.61	37.79	-85.2	-88.8	2.6	1.56e+00	0	48	104	0	60	1048571
2026-01-18 09:49:45.25	280.03	37.73	-85.2	-88.8	2.7	1.56e+00	0	48	104	0	60	1048573
2026-01-18 09:49:46.26	280.45	37.66	-85.2	-88.8	2.7	1.56e+00	0	48	104	0	60	1048574
2026-01-18 09:49:47.27	280.87	37.59	-85.2	-88.8	2.9	1.56e+00	0	48	104	0	60	1048573
2026-01-18 09:49:48.28	281.29	37.52	-85.2	-88.8	2.7	1.56e+00	0	48	104	0	60	1048575
2026-01-18 09:49:49.28	281.70	37.45	-85.2	-88.8	2.6	1.56e+00	0	48	104	0	60	1048574
2026-01-18 09:49:50.29	282.11	37.38	-85.2	-88.8	2.8	1.56e+00	0	48	104	0	60	1048574
2026-01-18 09:49:51.30	282.53	37.31	-85.2	-88.8	2.7	1.56e+00	0	48	104	0	60	1048575
2026-01-18 09:49:52.30	282.93	37.23	-85.2	-88.8	2.7	1.56e+00	0	48	104	0	60	1048575
2026-01-18 09:49:53.31	283.34	37.15	-85.2	-88.8	2.8	1.56e+00	0	48	104	0	60	1048573
2026-01-18 09:49:54.32	283.74	37.08	-85.2	-88.8	2.5	1.56e+00	0	48	104	0	60	1048569
2026-01-18 09:49:55.33	284.15	37.00	-85.2	-88.8	2.7	1.56e+00	0	48	104	0	60	1048574
2026-01-18 09:49:56.34	284.55	36.91	-85.2	-88.8	2.6	1.56e+00	0	48	104	0	60	1048575
2026-01-18 09:49:57.35	284.95	36.83	-85.2	-88.8	2.7	1.56e+00	0	48	104	0	60	1048573
2026-01-18 09:49:58.36	285.35	36.75	-85.2	-88.8	2.7	1.56e+00	0	48	104	0	60	1048571
2026-01-18 09:49:59.37	285.74	36.66	-85.2	-88.8	2.6	1.56e+00	0	48	104	0	60	1048572
2026-01-18 09:50:00.37	286.13	36.58	-85.2	-88.8	2.8	1.56e+00	0	48	104	0	60	1048569
2026-01-18 09:50:01.37	286.52	36.49	-85.2	-88.8	2.8	1.56e+00	0	48	104	0	60	1048575
2026-01-18 09:50:02.38	286.91	36.40	-85.2	-88.8	2.7	1.56e+00	0	48	104	0	60	1048568
2026-01-18 09:50:03.38	287.29	36.31	-85.2	-88.8	2.8	1.56e+00	0	48	104	0	60	1048575
2026-01-18 09:50:04.39	287.68	36.22	-84.7	-88.8	2.7	1.56e+00	0	48	104	0	60	1048574
2026-01-18 09:50:05.40	288.06	36.13	-85.2	-88.8	2.5	1.56e+00	0	48	104	0	60	1048571
2026-01-18 09:50:06.40	288.44	36.03	-85.2	-88.8	2.9	1.56e+00	0	48	104	0	60	1048575
2026-01-18 09:50:07.41	288.82	35.94	-84.7	-88.8	2.7	1.56e+00	0	48	104	0	60	1048574
2026-01-18 09:50:08.42	289.20	35.84	-85.2	-88.8	2.8	1.56e+00	0	48	104	0	60	1048575
2026-01-18 09:50:09.43	289.57	35.75	-85.2	-88.8	2.9	1.56e+00	0	48	104	0	60	1048573
2026-01-18 09:50:10.44	289.94	35.65	-85.2	-88.8	2.7	1.56e+00	0	48	104	0	60	1048574
2026-01-18 09:50:11.45	290.31	35.55	-85.2	-88.8	2.6	1.56e+00	0	48	104	0	60	1048575
2026-01-18 09:50:12.45	290.68	35.45	-85.2	-88.8	2.6	1.56e+00	0	48	104	0	60	1048575
2026-01-18 09:50:13.46	291.04	35.35	-85.2	-88.8	2.7	1.56e+00	0	48	104	0	60	1048573
2026-01-18 09:50:14.47	291.41	35.25	-85.2	-88.8	2.6	1.56e+00	0	48	104	0	60	1048574
2026-01-18 09:50:15.48	291.77	35.15	-85.2	-88.8	2.7	1.56e+00	0	48	104	0	60	1048575
2026-01-18 09:50:16.49	292.13	35.04	-85.2	-88.8	2.9	1.56e+00	0	48	104	0	60	1048575
2026-01-18 09:50:17.49	292.48	34.94	-85.2	-88.8	2.6	1.56e+00	0	48	104	0	60	1048575
2026-01-18 09:50:18.50	292.83	34.83	-85.2	-88.8	2.8	1.56e+00	0	48	104	0	60	1048573
2026-01-18 09:50:19.51	293.19	34.73	-85.2	-88.8	2.7	1.56e+00	0	48	104	0	60	1048575
2026-01-18 09:50:20.52	293.54	34.62	-85.2	-88.8	2.9	1.56e+00	0	48	104	0	60	1048572
2026-01-18 09:50:21.52	293.88	34.51	-85.2	-88.8	2.7	1.56e+00	0	48	104	0	60	1048574
2026-01-18 09:50:22.53	294.23	34.41	-85.2	-88.8	2.7	1.56e+00	0	48	104	0	60	1048573
2026-01-18 09:50:23.54	294.57	34.30	-85.2	-88.8	2.8	1.56e+00	0	48	104	0	60	1048572
2026-01-18 09:50:24.55	294.91	34.19	-85.2	-88.8	2.8	1.56e+00	0	48	104	0	60	1048570
2026-01-18 09:50:25.56	295.25	34.08	-85.2	-88.8	2.7	1.56e+00	0	48	104	0	60	1048569
2026-01-18 09:50:26.57	295.58	33.96	-85.2	-88.8	2.6	1.56e+00	0	48	104	0	60	1048571
2026-01-18 09:50:27.57	295.92	33.85	-85.2	-88.8	2.7	1.56e+00	0	48	104	0	60	1048570
2026-01-18 09:50:28.58	296.25	33.74	-85.2	-88.8	2.7	1.56e+00	0	48	104	0	60	1048572
2026-01-18 09:50:29.59	296.58	33.63	-85.2	-88.8	2.5	1.56e+00	0	48	104	0	60	1048573
2026-01-18 09:50:30.60	296.90	33.51	-85.2	-88.8	2.7	1.56e+00	0	48	104	0	60	1048575
2026-01-18 09:50:31.61	297.23	33.40	-85.2	-88.8	2.8	1.56e+00	0	48	104	0	60	1048573
2026-01-18 09:50:32.61	297.55	33.29	-85.2	-88.8	2.8	1.56e+00	0	48	104	0	60	1048572
2026-01-18 09:50:33.62	297.87	33.17	-85.2	-88.8	2.7	1.56e+00	0	48	104	0	60	1048573
2026-01-18 09:50:34.63	298.19	33.05	-85.2	-88.8	2.7	1.56e+00	0	48	104	0	60	1048571
2026-01-18 09:50:35.64	298.50	32.94	-85.2	-88.8	2.7	1.56e+00	0	48	104	0	60	1048574
2026-01-18 09:50:36.65	298.82	32.82	-85.2	-88.8	2.8	1.56e+00	0	48	104	0	60	1048574
2026-01-18 09:50:37.65	299.13	32.70	-85.2	-88.8	2.7	1.56e+00	0	48	104	0	60	1048573
2026-01-18 09:50:38.66	299.44	32.59	-85.2	-88.8	2.6	1.56e+00	0	48	104	0	60	1048573
2026-01-18 09:50:39.67	299.74	32.47	-85.2	-88.8	2.7	1.56e+00	0	48	104	0	60	1048575
2026-01-18 09:50:40.67	300.04	32.35	-85.2	-88.8	2.8	1.55e+00	0	48	104	0	60	1048575
2026-01-18 09:50:41.68	300.35	32.23	-85.2	-88.8	2.7	1.56e+00	0	48	104	0	60	1048575
2026-01-18 09:50:42.69	300.65	32.11	-85.2	-88.8	2.8	1.56e+00	0	48	104	0	60	1048570
2026-01-18 09:50:43.69	300.94	31.99	-85.2	-88.8	2.6	1.56e+00	0	48	104	0	60	1048575
2026-01-18 09:50:44.70	301.24	31.87	-85.2	-88.8	2.7	1.56e+00	0	48	104	0	60	1048575
2026-01-18 09:50:45.71	301.53	31.75	-85.2	-88.8	2.8	1.56e+00	0	48	104	0	60	1048574
2026-01-18 09:50:46.72	301.83	31.63	-85.2	-88.8	2.7	1.56e+00	0	48	104	0	60	1048573
2026-01-18 09:50:47.72	302.11	31.51	-85.2	-88.8	2.8	1.56e+00	0	48	104	0	60	1048575
2026-01-18 09:50:48.73	302.40	31.39	-85.2	-88.8	2.8	1.56e+00	0	48	104	0	60	1048575
2026-01-18 09:50:49.74	302.69	31.27	-85.2	-88.8	2.9	1.56e+00	0	48	104	0	60	1048575
2026-01-18 09:50:50.74	302.97	31.15	-85.2	-88.8	2.6	1.56e+00	0	48	104	0	60	1048575
2026-01-18 09:50:51.75	303.25	31.02	-85.2	-88.8	2.8	1.56e+00	0	48	104	0	60	1048575
2026-01-18 09:50:52.75	303.53	30.90	-85.2	-88.8	2.8	1.56e+00	0	48	104	0	60	1048573
2026-01-18 09:50:53.76	303.80	30.78	-85.2	-88.8	2.6	1.56e+00	0	48	104	0	60	1048569
2026-01-18 09:50:54.77	304.08	30.66	-85.2	-88.8	2.8	1.56e+00	0	48	104	0	60	1048575
2026-01-18 09:50:55.77	304.35	30.54	-85.2	-88.8	2.7	1.56e+00	0	48	104	0	60	1048572
2026-01-18 09:50:56.78	304.62	30.41	-85.2	-88.8	2.7	1.56e+00	0	48	104	0	60	1048572
2026-01-18 09:50:57.79	304.89	30.29	-85.2	-88.8	2.7	1.56e+00	0	48	104	0	60	1048575
2026-01-18 09:50:58.79	305.15	30.17	-85.2	-88.8	2.7	1.56e+00	0	48	104	0	60	1048573
2026-01-18 09:50:59.80	305.42	30.04	-85.2	-88.8	2.5	1.56e+00	0	48	104	0	60	1048575
2026-01-18 09:51:00.81	305.68	29.92	-85.2	-88.8	2.8	1.56e+00	0	48	104	0	60	1048572
2026-01-18 09:51:01.82	305.94	29.80	-85.2	-88.8	2.8	1.56e+00	0	48	104	0	60	1048575
2026-01-18 09:51:02.82	306.20	29.67	-85.2	-88.8	2.7	1.56e+00	0	48	104	0	60	1048573
2026-01-18 09:51:03.83	306.46	29.55	-85.2	-88.8	2.8	1.56e+00	0	48	104	0	60	1048574
2026-01-18 09:51:04.84	306.71	29.43	-85.2	-88.8	2.6	1.56e+00	0	48	104	0	60	1048574
2026-01-18 09:51:05.84	306.96	29.30	-85.2	-88.8	2.7	1.56e+00	0	48	104	0	60	1048574
2026-01-18 09:51:06.85	307.21	29.18	-84.7	-88.8	2.8	1.56e+00	0	48	104	0	60	1048571
2026-01-18 09:51:07.86	307.46	29.05	-84.7	-88.8	2.8	1.56e+00	0	48	104	0	60	1048567
2026-01-18 09:51:08.86	307.71	28.93	-85.2	-88.8	2.7	1.56e+00	0	48	104	0	60	1048575
2026-01-18 09:51:09.87	307.96	28.81	-85.2	-88.8	2.7	1.56e+00	0	48	104	0	60	1048573
2026-01-18 09:51:10.88	308.20	28.68	-85.2	-88.8	2.6	1.56e+00	0	48	104	0	60	1048575
2026-01-18 09:51:11.89	308.44	28.56	-85.2	-88.8	2.7	1.56e+00	0	48	104	0	60	1048571
2026-01-18 09:51:12.89	308.68	28.44	-85.2	-88.8	2.8	1.56e+00	0	48	104	0	60	1048575
2026-01-18 09:51:13.90	308.92	28.31	-85.2	-88.8	2.5	1.56e+00	0	48	104	0	60	1048572
2026-01-18 09:51:14.91	309.16	28.19	-85.2	-88.8	2.7	1.56e+00	0	48	104	0	60	1048575
2026-01-18 09:51:15.92	309.39	28.06	-85.2	-88.8	2.7	1.56e+00	0	48	104	0	60	1048574
2026-01-18 09:51:16.93	309.62	27.94	-85.2	-88.8	2.8	1.56e+00	0	48	104	0	60	1048575
2026-01-18 09:51:17.93	309.85	27.82	-85.2	-88.8	2.7	1.56e+00	0	48	104	0	60	1048575
2026-01-18 09:51:18.94	310.08	27.69	-85.2	-88.8	2.8	1.56e+00	0	48	104	0	60	1048573
2026-01-18 09:51:19.95	310.31	27.57	-85.2	-88.8	2.6	1.56e+00	0	48	104	0	60	1048572
2026-01-18 09:51:20.95	310.53	27.45	-85.2	-88.8	2.7	1.56e+00	0	48	104	0	60	1048573
2026-01-18 09:51:21.96	310.76	27.32	-84.3	-88.8	2.5	1.56e+00	0	48	104	0	60	1048575
2026-01-18 09:51:22.97	310.98	27.20	-85.2	-88.8	2.8	1.56e+00	0	48	104	0	60	1048567
2026-01-18 09:51:23.98	311.20	27.08	-85.2	-88.8	2.7	1.56e+00	0	48	104	0	60	1048575
2026-01-18 09:51:24.99	311.42	26.95	-85.2	-88.8	2.8	1.56e+00	0	48	104	0	60	1048574
2026-01-18 09:51:25.99	311.64	26.83	-85.2	-88.8	3.1	1.56e+00	0	48	104	0	60	1048575
2026-01-18 09:51:27.00	311.86	26.71	-85.2	-88.8	2.6	1.56e+00	0	48	104	0	60	1048574
2026-01-18 09:51:28.00	312.07	26.59	-84.7	-88.8	2.9	1.56e+00	0	48	104	0	60	1048573
2026-01-18 09:51:29.01	312.28	26.46	-85.2	-88.8	2.8	1.56e+00	0	48	104	0	60	1048570
2026-01-18 09:51:30.01	312.49	26.34	-85.2	-88.8	2.6	1.56e+00	0	48	104	0	60	1048575
2026-01-18 09:51:31.02	312.70	26.22	-85.2	-88.8	2.5	1.56e+00	0	48	104	0	60	1048575
2026-01-18 09:51:32.02	312.91	26.10	-85.2	-88.8	2.8	1.56e+00	0	48	104	0	60	1048575
2026-01-18 09:51:33.03	313.11	25.98	-84.7	-88.8	2.7	1.56e+00	0	48	104	0	60	1048575
2026-01-18 09:51:34.04	313.32	25.86	-85.2	-88.8	2.9	1.56e+00	0	48	104	0	60	1048575
2026-01-18 09:51:35.04	313.52	25.74	-85.2	-88.8	2.6	1.56e+00	0	48	104	0	60	1048571
2026-01-18 09:51:36.05	313.72	25.61	-85.2	-88.8	2.6	1.56e+00	0	48	104	0	60	1048574
2026-01-18 09:51:37.06	313.92	25.49	-84.3	-88.8	2.8	1.56e+00	0	48	104	0	60	1048575
2026-01-18 09:51:38.07	314.12	25.37	-85.2	-88.8	2.8	1.56e+00	0	48	104	0	60	1048572
2026-01-18 09:51:39.08	314.32	25.25	-85.2	-88.8	2.5	1.56e+00	0	48	104	0	60	1048570
2026-01-18 09:51:40.09	314.52	25.13	-85.2	-88.8	2.9	1.56e+00	0	48	104	0	60	1048574
2026-01-18 09:51:41.09	314.71	25.01	-85.2	-88.8	2.7	1.56e+00	0	48	104	0	60	1048575
2026-01-18 09:51:42.10	314.90	24.89	-85.2	-88.8	2.7	1.56e+00	0	48	104	0	60	1048572
2026-01-18 09:51:43.11	315.09	24.77	-85.2	-88.8	2.6	1.56e+00	0	48	104	0	60	1048575
2026-01-18 09:51:44.12	315.28	24.65	-85.2	-88.8	2.8	1.56e+00	0	48	104	0	60	1048572
2026-01-18 09:51:45.12	315.47	24.53	-85.2	-88.8	2.7	1.56e+00	0	48	104	0	60	1048575
2026-01-18 09:51:46.13	315.66	24.41	-84.7	-88.8	2.7	1.56e+00	0	48	104	0	60	1048574
2026-01-18 09:51:47.13	315.84	24.29	-85.2	-88.8	2.8	1.56e+00	0	48	104	0	60	1048574
2026-01-18 09:51:48.14	316.03	24.18	-85.2	-88.8	2.8	1.56e+00	0	48	104	0	60	1048570
2026-01-18 09:51:49.15	316.21	24.06	-85.2	-88.8	2.8	1.56e+00	0	48	104	0	60	1048575
2026-01-18 09:51:50.15	316.39	23.94	-85.2	-88.8	2.7	1.56e+00	0	48	104	0	60	1048574
2026-01-18 09:51:51.15	316.57	23.82	-85.2	-88.8	2.7	1.56e+00	0	48	104	0	60	1048572
2026-01-18 09:51:52.16	316.75	23.70	-85.2	-88.8	2.5	1.56e+00	0	48	104	0	60	1048575
2026-01-18 09:51:53.17	316.93	23.59	-85.2	-88.8	2.8	1.56e+00	0	48	104	0	60	1048575
2026-01-18 09:51:54.18	317.11	23.47	-85.2	-88.8	2.8	1.56e+00	0	48	104	0	60	1048571
2026-01-18 09:51:55.18	317.28	23.35	-85.2	-88.8	2.6	1.56e+00	0	48	104	0	60	1048572
2026-01-18 09:51:56.19	317.46	23.24	-83.5	-88.8	2.7	1.56e+00	0	48	104	0	60	1048572
2026-01-18 09:51:57.20	317.63	23.12	-84.7	-88.8	2.7	1.56e+00	0	48	104	0	60	1048575
2026-01-18 09:51:58.20	317.80	23.00	-85.2	-88.8	2.7	1.56e+00	0	48	104	0	60	1048574
2026-01-18 09:51:59.21	317.97	22.89	-85.2	-88.8	2.8	1.56e+00	0	48	104	0	60	1048573
2026-01-18 09:52:00.21	318.14	22.77	-85.2	-88.8	2.8	1.56e+00	0	48	104	0	60	1048574
2026-01-18 09:52:01.21	318.31	22.66	-85.2	-88.8	2.8	1.56e+00	0	48	104	0	60	1048568
2026-01-18 09:52:02.22	318.47	22.54	-85.2	-88.8	2.8	1.56e+00	0	48	104	0	60	1048569
2026-01-18 09:52:03.22	318.64	22.43	-85.2	-88.8	2.7	1.56e+00	0	48	104	0	60	1048575
2026-01-18 09:52:04.23	318.80	22.32	-85.2	-88.8	2.8	1.56e+00	0	48	104	0	60	1048574
2026-01-18 09:52:05.24	318.96	22.20	-85.2	-88.8	2.6	1.56e+00	0	48	104	0	60	1048575
2026-01-18 09:52:06.24	319.13	22.09	-83.5	-88.8	2.6	1.56e+00	0	48	104	0	60	1048575
2026-01-18 09:52:07.25	319.29	21.97	-85.2	-88.8	2.6	1.56e+00	0	48	104	0	60	1048574
2026-01-18 09:52:08.26	319.45	21.86	-85.2	-88.8	2.7	1.56e+00	0	48	104	0	60	1048571
2026-01-18 09:52:09.27	319.61	21.75	-85.2	-88.8	2.5	1.56e+00	0	48	104	0	60	1048573
2026-01-18 09:52:10.28	319.76	21.63	-85.2	-88.8	2.7	1.56e+00	0	48	104	0	60	1048575
2026-01-18 09:52:11.29	319.92	21.52	-84.3	-88.8	2.6	1.56e+00	0	48	104	0	60	1048572
2026-01-18 09:52:12.29	320.08	21.41	-84.7	-88.8	2.7	1.56e+00	0	48	104	0	60	1048575
2026-01-18 09:52:13.30	320.23	21.30	-85.2	-88.8	2.6	1.56e+00	0	48	104	0	60	1048571
2026-01-18 09:52:14.31	320.38	21.19	-85.2	-88.8	2.6	1.56e+00	0	48	104	0	60	1048575
2026-01-18 09:52:15.31	320.53	21.08	-85.2	-88.8	2.5	1.56e+00	0	48	104	0	60	1048574
2026-01-18 09:52:16.32	320.69	20.97	-85.2	-88.8	2.8	1.56e+00	0	48	104	0	60	1048574
2026-01-18 09:52:17.33	320.84	20.85	-85.2	-88.8	2.9	1.56e+00	0	48	104	0	60	1048575
2026-01-18 09:52:18.33	320.98	20.75	-85.2	-88.8	2.8	1.56e+00	0	48	104	0	60	1048575
2026-01-18 09:52:19.33	321.13	20.64	-85.2	-88.8	2.6	1.56e+00	0	48	104	0	60	1048574
2026-01-18 09:52:20.34	321.28	20.53	-85.2	-88.8	2.8	1.56e+00	0	48	104	0	60	1048575
2026-01-18 09:52:21.35	321.42	20.42	-85.2	-88.8	2.8	1.56e+00	0	48	104	0	60	1048573
2026-01-18 09:52:22.36	321.57	20.31	-84.7	-88.8	2.8	1.56e+00	0	48	104	0	60	1048573
2026-01-18 09:52:23.37	321.71	20.20	-85.2	-88.8	2.9	1.56e+00	0	48	104	0	60	1048575
2026-01-18 09:52:24.37	321.86	20.09	-85.2	-88.8	2.8	1.56e+00	0	48	104	0	60	1048571
2026-01-18 09:52:25.38	322.00	19.98	-85.2	-88.8	2.8	1.56e+00	0	48	104	0	60	1048574
2026-01-18 09:52:26.39	322.14	19.87	-84.7	-88.8	2.6	1.56e+00	0	48	104	0	60	1048575
2026-01-18 09:52:27.39	322.28	19.77	-84.7	-88.8	2.7	1.56e+00	0	48	104	0	60	1048574
2026-01-18 09:52:28.40	322.42	19.66	-85.2	-88.8	2.8	1.56e+00	0	48	104	0	60	1048575
2026-01-18 09:52:29.41	322.56	19.55	-85.2	-88.8	2.9	1.56e+00	0	48	104	0	60	1048571
2026-01-18 09:52:30.42	322.69	19.44	-85.2	-88.8	2.7	1.56e+00	0	48	104	0	60	1048574
2026-01-18 09:52:31.42	322.83	19.34	-85.2	-88.8	2.7	1.56e+00	0	48	104	0	60	1048575
2026-01-18 09:52:32.43	322.96	19.23	-84.3	-88.8	2.7	1.56e+00	0	48	104	0	60	1048575
2026-01-18 09:52:33.43	323.10	19.13	-85.2	-88.8	2.7	1.56e+00	0	48	104	0	60	1048575
2026-01-18 09:52:34.44	323.23	19.02	-85.2	-88.8	2.7	1.56e+00	0	48	104	0	60	1048575
2026-01-18 09:52:35.44	323.36	18.92	-85.2	-88.8	2.8	1.56e+00	0	48	104	0	60	1048575
2026-01-18 09:52:36.45	323.50	18.81	-85.2	-88.8	2.7	1.56e+00	0	48	104	0	60	1048575
2026-01-18 09:52:37.46	323.63	18.71	-85.2	-88.8	2.6	1.56e+00	0	48	104	0	60	1048575
2026-01-18 09:52:38.46	323.76	18.60	-85.2	-88.8	2.8	1.56e+00	0	48	104	0	60	1048575
2026-01-18 09:52:39.47	323.89	18.50	-85.2	-88.8	2.9	1.56e+00	0	48	104	0	60	1048574
2026-01-18 09:52:40.48	324.02	18.40	-85.2	-88.8	2.7	1.56e+00	0	48	104	0	60	1048575
2026-01-18 09:52:41.49	324.14	18.29	-85.2	-88.8	2.7	1.56e+00	0	48	104	0	60	1048575
2026-01-18 09:52:42.50	324.27	18.19	-85.2	-88.8	2.5	1.56e+00	0	48	104	0	60	1048572
2026-01-18 09:52:43.51	324.40	18.09	-85.2	-88.8	2.6	1.56e+00	0	48	104	0	60	1048570
2026-01-18 09:52:44.51	324.52	17.98	-85.2	-88.8	2.8	1.56e+00	0	48	104	0	60	1048574
2026-01-18 09:52:45.52	324.65	17.88	-85.2	-88.8	2.7	1.56e+00	0	48	104	0	60	1048574
2026-01-18 09:52:46.53	324.77	17.78	-85.2	-88.8	2.7	1.56e+00	0	48	104	0	60	1048573
2026-01-18 09:52:47.53	324.89	17.68	-85.2	-88.8	2.7	1.56e+00	0	48	104	0	60	1048570
2026-01-18 09:52:48.54	325.01	17.58	-85.2	-88.8	2.6	1.56e+00	0	48	104	0	60	1048572
2026-01-18 09:52:49.55	325.13	17.48	-85.2	-88.8	2.8	1.56e+00	0	48	104	0	60	1048575
2026-01-18 09:52:50.55	325.25	17.38	-85.2	-88.8	2.3	1.56e+00	0	48	104	0	60	1048573
2026-01-18 09:52:51.56	325.37	17.28	-85.2	-88.8	2.6	1.56e+00	0	48	104	0	60	1048571
2026-01-18 09:52:52.56	325.49	17.18	-85.2	-88.8	2.6	1.56e+00	0	48	104	0	60	1048573
2026-01-18 09:52:53.56	325.61	17.08	-85.2	-88.8	2.7	1.56e+00	0	48	104	0	60	1048575
2026-01-18 09:52:54.57	325.73	16.98	-85.2	-88.8	2.8	1.56e+00	0	48	104	0	60	1048573
2026-01-18 09:52:55.58	325.84	16.88	-85.2	-88.8	2.7	1.56e+00	0	48	104	0	60	1048575
2026-01-18 09:52:56.58	325.96	16.78	-85.2	-88.8	2.7	1.56e+00	0	48	104	0	60	1048572
2026-01-18 09:52:57.59	326.07	16.68	-85.2	-88.8	2.8	1.56e+00	0	48	104	0	60	1048575
2026-01-18 09:52:58.60	326.19	16.58	-85.2	-88.8	2.8	1.56e+00	0	48	104	0	60	1048575
2026-01-18 09:52:59.60	326.30	16.48	-85.2	-88.8	2.9	1.56e+00	0	48	104	0	60	1048575
2026-01-18 09:53:00.61	326.41	16.39	-85.2	-88.8	2.7	1.56e+00	0	48	104	0	60	1048573
2026-01-18 09:53:01.61	326.53	16.29	-85.2	-88.8	2.7	1.56e+00	0	48	104	0	60	1048575
2026-01-18 09:53:02.62	326.64	16.19	-85.2	-88.8	2.7	1.56e+00	0	48	104	0	60	1048566
2026-01-18 09:53:03.62	326.75	16.10	-85.2	-88.8	2.6	1.56e+00	0	48	104	0	60	1048574
2026-01-18 09:53:04.63	326.86	16.00	-85.2	-88.8	2.9	1.56e+00	0	48	104	0	60	1048575
2026-01-18 09:53:05.62	326.97	15.90	-85.2	-88.8	2.6	1.56e+00	0	48	104	0	60	1048575
2026-01-18 09:53:06.63	327.08	15.81	-85.2	-88.8	2.7	1.56e+00	0	48	104	0	60	1048574
2026-01-18 09:53:07.63	327.18	15.71	-85.2	-88.8	2.9	1.56e+00	0	48	104	0	60	1048575
2026-01-18 09:53:08.64	327.29	15.62	-85.2	-88.8	2.8	1.56e+00	0	48	104	0	60	1048572
2026-01-18 09:53:09.64	327.40	15.52	-85.2	-88.8	2.8	1.56e+00	0	48	104	0	60	1048571
2026-01-18 09:53:10.65	327.50	15.43	-85.2	-88.8	2.8	1.56e+00	0	48	104	0	60	1048574
2026-01-18 09:53:11.65	327.61	15.33	-85.2	-88.8	2.9	1.56e+00	0	48	104	0	60	1048570
2026-01-18 09:53:12.66	327.71	15.24	-85.2	-88.8	2.8	1.56e+00	0	48	104	0	60	1048574
2026-01-18 09:53:13.66	327.82	15.15	-85.2	-88.8	2.8	1.56e+00	0	48	104	0	60	1048566
2026-01-18 09:53:14.67	327.92	15.05	-85.2	-88.8	2.8	1.56e+00	0	48	104	0	60	1048574
2026-01-18 09:53:15.68	328.03	14.96	-85.2	-88.8	2.7	1.56e+00	0	48	104	0	60	1048572
2026-01-18 09:53:16.68	328.13	14.87	-85.2	-88.8	2.7	1.56e+00	0	48	104	0	60	1048575
2026-01-18 09:53:17.69	328.23	14.77	-85.2	-88.8	2.6	1.56e+00	0	48	104	0	60	1048574
2026-01-18 09:53:18.70	328.33	14.68	-85.2	-88.8	2.7	1.56e+00	0	48	104	0	60	1048574
2026-01-18 09:53:19.70	328.43	14.59	-85.2	-88.8	2.6	1.56e+00	0	48	104	0	60	1048575
2026-01-18 09:53:20.71	328.53	14.50	-85.2	-88.8	2.6	1.56e+00	0	48	104	0	60	1048573
2026-01-18 09:53:21.71	328.63	14.40	-85.2	-88.8	2.8	1.56e+00	0	48	104	0	60	1048575
2026-01-18 09:53:22.72	328.73	14.31	-85.2	-88.8	2.8	1.56e+00	0	48	104	0	60	1048575
2026-01-18 09:53:23.72	328.83	14.22	-84.7	-88.8	2.7	1.56e+00	0	48	104	0	60	1048574
2026-01-18 09:53:24.72	328.92	14.13	-85.2	-88.8	2.8	1.56e+00	0	48	104	0	60	1048573
2026-01-18 09:53:25.73	329.02	14.04	-85.2	-88.8	2.7	1.56e+00	0	48	104	0	60	1048571
2026-01-18 09:53:26.74	329.12	13.95	-85.2	-88.8	2.9	1.56e+00	0	48	104	0	60	1048570
2026-01-18 09:53:27.74	329.21	13.86	-84.3	-88.8	2.7	1.56e+00	0	48	104	0	60	1048573
2026-01-18 09:53:28.75	329.31	13.77	-84.7	-88.8	2.9	1.56e+00	0	48	104	0	60	1048575
2026-01-18 09:53:29.75	329.40	13.68	-85.2	-88.8	2.7	1.56e+00	0	48	104	0	60	1048573
2026-01-18 09:53:30.76	329.50	13.59	-85.2	-88.8	2.6	1.56e+00	0	48	104	0	60	1048575
2026-01-18 09:53:31.76	329.59	13.50	-85.2	-88.8	2.8	1.56e+00	0	48	104	0	60	1048574
2026-01-18 09:53:32.77	329.69	13.41	-84.7	-88.8	2.7	1.56e+00	0	48	104	0	60	1048574
2026-01-18 09:53:33.78	329.78	13.33	-85.2	-88.8	2.8	1.56e+00	0	48	104	0	60	1048574
2026-01-18 09:53:34.79	329.87	13.24	-85.2	-88.8	2.7	1.56e+00	0	48	104	0	60	1048575
2026-01-18 09:53:35.80	329.96	13.15	-85.2	-88.8	2.7	1.56e+00	0	48	104	0	60	1048571
2026-01-18 09:53:36.80	330.05	13.06	-84.3	-88.8	2.7	1.56e+00	0	48	104	0	60	1048570
2026-01-18 09:53:37.81	330.15	12.97	-85.2	-88.8	2.7	1.56e+00	0	48	104	0	60	1048575
2026-01-18 09:53:38.82	330.24	12.89	-85.2	-88.8	2.8	1.56e+00	0	48	104	0	60	1048575
2026-01-18 09:53:39.83	330.33	12.80	-85.2	-88.8	2.7	1.56e+00	0	48	104	0	60	1048574
2026-01-18 09:53:40.84	330.42	12.71	-85.2	-88.8	2.7	1.56e+00	0	48	104	0	60	1048575
2026-01-18 09:53:41.85	330.50	12.62	-85.2	-88.8	2.7	1.56e+00	0	48	104	0	60	1048573
2026-01-18 09:53:42.85	330.59	12.54	-85.2	-88.8	2.7	1.56e+00	0	48	104	0	60	1048572
2026-01-18 09:53:43.86	330.68	12.45	-85.2	-88.8	2.7	1.56e+00	0	48	104	0	60	1048570
2026-01-18 09:53:44.87	330.77	12.37	-85.2	-88.8	2.8	1.56e+00	0	48	104	0	60	1048574
2026-01-18 09:53:45.88	330.86	12.28	-85.2	-88.8	2.6	1.56e+00	0	48	104	0	60	1048575
2026-01-18 09:53:46.88	330.94	12.20	-85.2	-88.8	2.6	1.56e+00	0	48	104	0	60	1048575
2026-01-18 09:53:47.89	331.03	12.11	-85.2	-88.8	2.7	1.56e+00	0	48	104	0	60	1048575
2026-01-18 09:53:48.90	331.11	12.02	-85.2	-88.8	2.5	1.56e+00	0	48	104	0	60	1048572
2026-01-18 09:53:49.91	331.20	11.94	-85.2	-88.8	2.7	1.56e+00	0	48	104	0	60	1048570
2026-01-18 09:53:50.92	331.28	11.86	-85.2	-88.8	2.7	1.56e+00	0	48	104	0	60	1048575
2026-01-18 09:53:51.92	331.37	11.77	-85.2	-88.8	2.6	1.56e+00	0	48	104	0	60	1048573
2026-01-18 09:53:52.93	331.45	11.69	-85.2	-88.8	2.7	1.56e+00	0	48	104	0	60	1048573
2026-01-18 09:53:53.93	331.53	11.60	-85.2	-88.8	2.7	1.56e+00	0	48	104	0	60	1048575
2026-01-18 09:53:54.94	331.62	11.52	-85.2	-88.8	2.7	1.56e+00	0	48	104	0	60	1048575
2026-01-18 09:53:55.95	331.70	11.44	-85.2	-88.8	2.7	1.56e+00	0	48	104	0	60	1048575
2026-01-18 09:53:56.96	331.78	11.35	-85.2	-88.8	2.8	1.56e+00	0	48	104	0	60	1048575
2026-01-18 09:53:57.96	331.86	11.27	-85.2	-88.8	2.8	1.56e+00	0	48	104	0	60	1048575
2026-01-18 09:53:58.96	331.94	11.19	-85.2	-88.8	2.8	1.56e+00	0	48	104	0	60	1048573
2026-01-18 09:53:59.97	332.02	11.11	-85.2	-88.8	2.6	1.56e+00	0	48	104	0	60	1048574
2026-01-18 09:54:00.98	332.10	11.03	-85.2	-88.8	2.8	1.56e+00	0	48	104	0	60	1048573
2026-01-18 09:54:01.99	332.18	10.94	-85.2	-88.8	2.9	1.56e+00	0	48	104	0	60	1048573
2026-01-18 09:54:02.99	332.26	10.86	-85.2	-88.8	2.8	1.56e+00	0	48	104	0	60	1048574
2026-01-18 09:54:04.00	332.34	10.78	-85.2	-88.8	2.8	1.56e+00	0	48	104	0	60	1048575
2026-01-18 09:54:05.01	332.42	10.70	-85.2	-88.8	2.5	1.56e+00	0	48	104	0	60	1048575
2026-01-18 09:54:06.02	332.50	10.62	-85.2	-88.8	2.8	1.56e+00	0	48	104	0	60	1048571
2026-01-18 09:54:07.03	332.58	10.54	-85.2	-88.8	2.6	1.56e+00	0	48	104	0	60	1048567
2026-01-18 09:54:08.04	332.65	10.46	-85.2	-88.8	2.9	1.56e+00	0	48	104	0	60	1048573
2026-01-18 09:54:09.04	332.73	10.38	-85.2	-88.8	2.9	1.56e+00	0	48	104	0	60	1048574
2026-01-18 09:54:10.05	332.81	10.30	-85.2	-88.8	2.8	1.56e+00	0	48	104	0	60	1048575
2026-01-18 09:54:11.06	332.88	10.22	-85.2	-88.8	2.7	1.56e+00	0	48	104	0	60	1048572
2026-01-18 09:54:12.07	332.96	10.14	-85.2	-88.8	2.7	1.56e+00	0	48	104	0	60	1048572
2026-01-18 09:54:13.07	333.03	10.06	-85.2	-88.8	2.6	1.56e+00	0	48	104	0	60	1048574
2026-01-18 09:54:14.08	333.11	9.98	-85.2	-88.8	2.7	1.56e+00	0	48	104	0	60	1048575
2026-01-18 09:54:15.09	333.18	9.90	-85.2	-88.8	2.7	1.56e+00	0	48	104	0	60	1048574
2026-01-18 09:54:16.10	333.26	9.82	-85.2	-88.8	3.0	1.56e+00	0	48	104	0	60	1048572
2026-01-18 09:54:17.10	333.33	9.74	-85.2	-88.8	2.8	1.56e+00	0	48	104	0	60	1048574
2026-01-18 09:54:18.11	333.40	9.66	-85.2	-88.8	2.6	1.56e+00	0	48	104	0	60	1048574
2026-01-18 09:54:19.12	333.48	9.59	-85.2	-88.8	2.8	1.56e+00	0	48	104	0	60	1048568
2026-01-18 09:54:20.13	333.55	9.51	-85.2	-88.8	2.6	1.56e+00	0	48	104	0	60	1048573
2026-01-18 09:54:21.13	333.62	9.43	-85.2	-88.8	2.6	1.56e+00	0	48	104	0	60	1048574
2026-01-18 09:54:22.14	333.69	9.35	-85.2	-88.8	2.7	1.56e+00	0	48	104	0	60	1048574
2026-01-18 09:54:23.15	333.77	9.27	-85.2	-88.8	2.8	1.56e+00	0	48	104	0	60	1048571
2026-01-18 09:54:24.15	333.84	9.20	-85.2	-88.8	2.9	1.56e+00	0	48	104	0	60	1048571
2026-01-18 09:54:25.16	333.91	9.12	-85.2	-88.8	2.8	1.56e+00	0	48	104	0	60	1048575
2026-01-18 09:54:26.17	333.98	9.04	-85.2	-88.8	2.4	1.56e+00	0	48	104	0	60	1048575
2026-01-18 09:54:27.18	334.05	8.97	-85.2	-88.8	2.5	1.56e+00	0	48	104	0	60	1048574
2026-01-18 09:54:28.19	334.12	8.89	-85.2	-88.8	2.9	1.56e+00	0	48	104	0	60	1048575
2026-01-18 09:54:29.18	334.19	8.82	-85.2	-88.8	2.7	1.56e+00	0	48	104	0	60	1048573
2026-01-18 09:54:30.19	334.26	8.74	-84.7	-88.8	2.8	1.56e+00	0	48	104	0	60	1048572
2026-01-18 09:54:31.20	334.33	8.66	-85.2	-88.8	2.8	1.55e+00	0	48	104	0	60	1048574
2026-01-18 09:54:32.20	334.39	8.59	-85.2	-88.8	2.7	1.56e+00	0	48	104	0	60	1048570
2026-01-18 09:54:33.21	334.46	8.51	-85.2	-88.8	2.6	1.56e+00	0	48	104	0	60	1048575
2026-01-18 09:54:34.21	334.53	8.44	-85.2	-88.8	2.6	1.56e+00	0	48	104	0	60	1048565
2026-01-18 09:54:35.22	334.60	8.36	-85.2	-88.8	2.7	1.56e+00	0	48	104	0	60	1048575
2026-01-18 09:54:36.23	334.67	8.29	-85.2	-88.8	2.9	1.56e+00	0	48	104	0	60	1048568
2026-01-18 09:54:37.24	334.73	8.21	-84.7	-88.8	2.7	1.56e+00	0	48	104	0	60	1048575
2026-01-18 09:54:38.25	334.80	8.14	-85.2	-88.8	2.7	1.56e+00	0	48	104	0	60	1048574
2026-01-18 09:54:39.25	334.87	8.07	-85.2	-88.8	2.7	1.56e+00	0	48	104	0	60	1048575
2026-01-18 09:54:40.27	334.93	7.99	-85.2	-88.8	2.8	1.56e+00	0	48	104	0	60	1048574
2026-01-18 09:54:41.27	335.00	7.92	-85.2	-88.8	2.7	1.56e+00	0	48	104	0	60	1048568
2026-01-18 09:54:42.28	335.06	7.84	-85.2	-88.8	2.8	1.56e+00	0	48	104	0	60	1048574
2026-01-18 09:54:43.28	335.13	7.77	-84.7	-88.8	2.7	1.56e+00	0	48	104	0	60	1048570
2026-01-18 09:54:44.29	335.19	7.70	-85.2	-88.8	2.8	1.56e+00	0	48	104	0	60	1048575
2026-01-18 09:54:45.29	335.26	7.62	-85.2	-88.8	2.7	1.56e+00	0	48	104	0	60	1048575
2026-01-18 09:54:46.30	335.32	7.55	-85.2	-88.8	2.9	1.56e+00	0	48	104	0	60	1048573
2026-01-18 09:54:47.31	335.39	7.48	-85.2	-88.8	2.5	1.56e+00	0	48	104	0	60	1048575
2026-01-18 09:54:48.32	335.45	7.41	-85.2	-88.8	2.6	1.56e+00	0	48	104	0	60	1048574
2026-01-18 09:54:49.32	335.51	7.33	-84.7	-88.8	2.5	1.56e+00	0	48	104	0	60	1048574
2026-01-18 09:54:50.33	335.58	7.26	-85.2	-88.8	2.7	1.56e+00	0	48	104	0	60	1048566
2026-01-18 09:54:51.34	335.64	7.19	-85.2	-88.8	2.6	1.56e+00	0	48	104	0	60	1048575
2026-01-18 09:54:52.35	335.70	7.12	-85.2	-88.8	2.8	1.56e+00	0	48	104	0	60	1048570
2026-01-18 09:54:53.36	335.76	7.05	-85.2	-88.8	2.6	1.56e+00	0	48	104	0	60	1048574
2026-01-18 09:54:54.37	335.83	6.97	-85.2	-88.8	2.7	1.56e+00	0	48	104	0	60	1048572
2026-01-18 09:54:55.37	335.89	6.90	-85.2	-88.8	2.7	1.56e+00	0	48	104	0	60	1048574
2026-01-18 09:54:56.38	335.95	6.83	-85.2	-88.8	2.5	1.56e+00	0	48	104	0	60	1048573
2026-01-18 09:54:57.39	336.01	6.76	-85.2	-88.8	2.8	1.56e+00	0	48	104	0	60	1048573
2026-01-18 09:54:58.40	336.07	6.69	-85.2	-88.8	2.8	1.56e+00	0	48	104	0	60	1048575
2026-01-18 09:54:59.41	336.13	6.62	-85.2	-88.8	2.7	1.56e+00	0	48	104	0	60	1048573
2026-01-18 09:55:00.41	336.19	6.55	-85.2	-88.8	2.9	1.56e+00	0	48	104	0	60	1048572
2026-01-18 09:55:01.42	336.25	6.48	-85.2	-88.8	2.6	1.56e+00	0	48	104	0	60	1048573
2026-01-18 09:55:02.42	336.31	6.41	-85.2	-88.8	2.7	1.56e+00	0	48	104	0	60	1048574
2026-01-18 09:55:03.42	336.37	6.34	-85.2	-88.8	2.8	1.56e+00	0	48	104	0	60	1048569
2026-01-18 09:55:04.43	336.43	6.27	-85.2	-88.8	2.6	1.55e+00	0	48	104	0	60	1048569
2026-01-18 09:55:05.43	336.49	6.20	-85.2	-88.8	2.8	1.56e+00	0	48	104	0	60	1048573
2026-01-18 09:55:06.43	336.55	6.13	-85.2	-88.8	2.7	1.56e+00	0	48	104	0	60	1048573
2026-01-18 09:55:07.44	336.60	6.06	-85.2	-88.8	2.8	1.56e+00	0	48	104	0	60	1048575
2026-01-18 09:55:08.45	336.66	5.99	-85.2	-88.8	2.6	1.56e+00	0	48	104	0	60	1048573
2026-01-18 09:55:09.46	336.72	5.92	-85.2	-88.8	2.9	1.56e+00	0	48	104	0	60	1048575
2026-01-18 09:55:10.46	336.78	5.86	-85.2	-88.8	2.9	1.56e+00	0	48	104	0	60	1048572
2026-01-18 09:55:11.47	336.84	5.79	-85.2	-88.8	2.8	1.56e+00	0	48	104	0	60	1048574
2026-01-18 09:55:12.48	336.89	5.72	-85.2	-88.8	2.7	1.56e+00	0	48	104	0	60	1048569
2026-01-18 09:55:13.49	336.95	5.65	-85.2	-88.8	2.7	1.56e+00	0	48	104	0	60	1048575
2026-01-18 09:55:14.50	337.01	5.58	-85.2	-88.8	2.9	1.56e+00	0	48	104	0	60	1048573
2026-01-18 09:55:15.50	337.06	5.51	-85.2	-88.8	2.8	1.56e+00	0	48	104	0	60	1048575
2026-01-18 09:55:16.51	337.12	5.45	-85.2	-88.8	2.6	1.56e+00	0	48	104	0	60	1048575
2026-01-18 09:55:17.52	337.17	5.38	-85.2	-88.8	2.6	1.56e+00	0	48	104	0	60	1048572
2026-01-18 09:55:18.52	337.23	5.31	-85.2	-88.8	2.6	1.56e+00	0	48	104	0	60	1048574
2026-01-18 09:55:19.52	337.29	5.24	-85.2	-88.8	2.8	1.56e+00	0	48	104	0	60	1048575
2026-01-18 09:55:20.53	337.34	5.18	-85.2	-88.8	2.5	1.56e+00	0	48	104	0	60	1048574
2026-01-18 09:55:21.54	337.40	5.11	-85.2	-88.8	2.8	1.56e+00	0	48	104	0	60	1048575
2026-01-18 09:55:22.54	337.45	5.04	-85.2	-88.8	2.8	1.56e+00	0	48	104	0	60	1048569
2026-01-18 09:55:23.55	337.51	4.98	-85.2	-88.8	2.6	1.56e+00	0	48	104	0	60	1048575
2026-01-18 09:55:24.56	337.56	4.91	-85.2	-88.8	2.8	1.56e+00	0	48	104	0	60	1048573
2026-01-18 09:55:25.57	337.61	4.84	-85.2	-88.8	2.8	1.56e+00	0	48	104	0	60	1048575
2026-01-18 09:55:26.57	337.67	4.78	-84.3	-88.8	2.7	1.56e+00	0	48	104	0	60	1048569
2026-01-18 09:55:27.58	337.72	4.71	-85.2	-88.8	2.7	1.56e+00	0	48	104	0	60	1048571
2026-01-18 09:55:28.59	337.77	4.64	-85.2	-88.8	2.6	1.56e+00	0	48	104	0	60	1048571
2026-01-18 09:55:29.60	337.83	4.58	-85.2	-88.8	2.8	1.56e+00	0	48	104	0	60	1048573
2026-01-18 09:55:30.61	337.88	4.51	-85.2	-88.8	2.7	1.56e+00	0	48	104	0	60	1048575
2026-01-18 09:55:31.62	337.93	4.45	-85.2	-88.8	2.7	1.56e+00	0	48	104	0	60	1048575
2026-01-18 09:55:32.62	337.99	4.38	-85.2	-88.8	2.7	1.56e+00	0	48	104	0	60	1048575
2026-01-18 09:55:33.62	338.04	4.32	-85.2	-88.8	2.8	1.56e+00	0	48	104	0	60	1048575
2026-01-18 09:55:34.63	338.09	4.25	-85.2	-88.8	2.9	1.56e+00	0	48	104	0	60	1048575
2026-01-18 09:55:35.64	338.14	4.18	-85.2	-88.8	2.7	1.56e+00	0	48	104	0	60	1048565
2026-01-18 09:55:36.65	338.19	4.12	-85.2	-88.8	2.7	1.56e+00	0	48	104	0	60	1048571
2026-01-18 09:55:37.65	338.25	4.06	-83.5	-88.8	2.8	1.56e+00	0	48	104	0	60	1048573
2026-01-18 09:55:38.66	338.30	3.99	-85.2	-88.8	2.8	1.56e+00	0	48	104	0	60	1048573
2026-01-18 09:55:39.67	338.35	3.93	-85.2	-88.8	2.7	1.56e+00	0	48	104	0	60	1048572
2026-01-18 09:55:40.68	338.40	3.86	-85.2	-88.8	2.6	1.56e+00	0	48	104	0	60	1048572
2026-01-18 09:55:41.69	338.45	3.80	-85.2	-88.8	2.8	1.56e+00	0	48	104	0	60	1048573
2026-01-18 09:55:42.70	338.50	3.73	-84.3	-88.8	2.8	1.56e+00	0	48	104	0	60	1048571
2026-01-18 09:55:43.71	338.55	3.67	-85.2	-88.8	2.6	1.56e+00	0	48	104	0	60	1048575
2026-01-18 09:55:44.71	338.60	3.60	-85.2	-88.8	2.5	1.56e+00	0	48	104	0	60	1048573
2026-01-18 09:55:45.72	338.65	3.54	-85.2	-88.8	2.8	1.56e+00	0	48	104	0	60	1048574
2026-01-18 09:55:46.73	338.70	3.48	-85.2	-88.8	2.7	1.56e+00	0	48	104	0	60	1048568
2026-01-18 09:55:47.74	338.75	3.41	-85.2	-88.8	2.8	1.56e+00	0	48	104	0	60	1048574
2026-01-18 09:55:48.75	338.80	3.35	-84.7	-88.8	2.6	1.56e+00	0	48	104	0	60	1048573
2026-01-18 09:55:49.76	338.85	3.29	-85.2	-88.8	2.7	1.56e+00	0	48	104	0	60	1048574
2026-01-18 09:55:50.76	338.90	3.22	-85.2	-88.8	2.8	1.56e+00	0	48	104	0	60	1048575
2026-01-18 09:55:51.76	338.95	3.16	-85.2	-88.8	2.9	1.56e+00	0	48	104	0	60	1048573
2026-01-18 09:55:52.77	339.00	3.10	-85.2	-88.8	2.6	1.56e+00	0	48	104	0	60	1048573
2026-01-18 09:55:53.78	339.04	3.04	-84.7	-88.8	2.7	1.56e+00	0	48	104	0	60	1048573
2026-01-18 09:55:54.78	339.09	2.97	-85.2	-88.8	2.8	1.56e+00	0	48	104	0	60	1048574
2026-01-18 09:55:55.79	339.14	2.91	-85.2	-88.8	2.7	1.56e+00	0	48	104	0	60	1048571
2026-01-18 09:55:56.80	339.19	2.85	-85.2	-88.8	2.5	1.56e+00	0	48	104	0	60	1048567
2026-01-18 09:55:57.81	339.24	2.79	-85.2	-88.8	2.8	1.56e+00	0	48	104	0	60	1048575
2026-01-18 09:55:58.82	339.28	2.72	-84.7	-88.8	2.6	1.56e+00	0	48	104	0	60	1048573
2026-01-18 09:55:59.83	339.33	2.66	-85.2	-88.8	2.7	1.56e+00	0	48	104	0	60	1048572
2026-01-18 09:56:00.83	339.38	2.60	-85.2	-88.8	2.8	1.56e+00	0	48	104	0	60	1048570
2026-01-18 09:56:01.84	339.43	2.54	-84.7	-88.8	2.6	1.56e+00	0	48	104	0	60	1048575
2026-01-18 09:56:02.85	339.47	2.48	-85.2	-88.8	2.6	1.56e+00	0	48	104	0	60	1048575
2026-01-18 09:56:03.85	339.52	2.42	-85.2	-88.8	2.6	1.56e+00	0	48	104	0	60	1048575
2026-01-18 09:56:04.86	339.57	2.35	-85.2	-88.8	2.7	1.56e+00	0	48	104	0	60	1048573
2026-01-18 09:56:05.87	339.61	2.29	-85.2	-88.8	2.9	1.56e+00	0	48	104	0	60	1048573
2026-01-18 09:56:06.88	339.66	2.23	-83.5	-88.8	2.8	1.56e+00	0	48	104	0	60	1048575
2026-01-18 09:56:07.88	339.70	2.17	-84.3	-88.8	2.6	1.56e+00	0	48	104	0	60	1048572
2026-01-18 09:56:08.89	339.75	2.11	-85.2	-88.8	2.7	1.56e+00	0	48	104	0	60	1048574
2026-01-18 09:56:09.89	339.80	2.05	-85.2	-88.8	2.6	1.56e+00	0	48	104	0	60	1048575
2026-01-18 09:56:10.90	339.84	1.99	-85.2	-88.8	2.7	1.56e+00	0	48	104	0	60	1048575
2026-01-18 09:56:11.91	339.89	1.93	-85.2	-88.8	2.8	1.56e+00	0	48	104	0	60	1048574
2026-01-18 09:56:12.91	339.93	1.87	-85.2	-88.8	2.8	1.56e+00	0	48	104	0	60	1048572
2026-01-18 09:56:13.92	339.98	1.81	-85.2	-88.8	2.6	1.56e+00	0	48	104	0	60	1048575
2026-01-18 09:56:14.93	340.02	1.75	-85.2	-88.8	2.8	1.56e+00	0	48	104	0	60	1048573
2026-01-18 09:56:15.94	340.07	1.69	-85.2	-88.8	2.7	1.56e+00	0	48	104	0	60	1048575
2026-01-18 09:56:16.95	340.11	1.63	-85.2	-88.8	2.7	1.56e+00	0	48	104	0	60	1048575
2026-01-18 09:56:17.95	340.15	1.57	-85.2	-88.8	2.7	1.56e+00	0	48	104	0	60	1048574
2026-01-18 09:56:18.96	340.20	1.51	-85.2	-88.8	2.5	1.56e+00	0	48	104	0	60	1048575
2026-01-18 09:56:19.97	340.24	1.45	-85.2	-88.8	2.7	1.56e+00	0	48	104	0	60	1048574
2026-01-18 09:56:20.97	340.29	1.39	-85.2	-88.8	2.6	1.56e+00	0	48	104	0	60	1048575
2026-01-18 09:56:21.98	340.33	1.33	-85.2	-88.8	2.7	1.56e+00	0	48	104	0	60	1048574
2026-01-18 09:56:22.99	340.37	1.27	-85.2	-88.8	2.5	1.56e+00	0	48	104	0	60	1048575
2026-01-18 09:56:24.00	340.42	1.21	-85.2	-88.8	2.6	1.56e+00	0	48	104	0	60	1048575
2026-01-18 09:56:25.00	340.46	1.15	-85.2	-88.8	2.8	1.56e+00	0	48	104	0	60	1048575
2026-01-18 09:56:26.01	340.50	1.09	-85.2	-88.8	2.8	1.56e+00	0	48	104	0	60	1048575
2026-01-18 09:56:27.02	340.55	1.03	-85.2	-88.8	2.8	1.56e+00	0	48	104	0	60	1048573
2026-01-18 09:56:28.03	340.59	0.98	-85.2	-88.8	2.7	1.56e+00	0	48	104	0	60	1048572
2026-01-18 09:56:29.03	340.63	0.92	-85.2	-88.8	2.8	1.56e+00	0	48	104	0	60	1048575
2026-01-18 09:56:30.04	340.67	0.86	-85.2	-88.8	2.6	1.56e+00	0	48	104	0	60	1048573
2026-01-18 09:56:31.05	340.72	0.80	-85.2	-88.8	2.8	1.56e+00	0	48	104	0	60	1048574
2026-01-18 09:56:32.06	340.76	0.74	-85.2	-88.8	2.7	1.56e+00	0	48	104	0	60	1048573
2026-01-18 09:56:33.06	340.80	0.68	-84.7	-88.8	2.6	1.56e+00	0	48	104	0	60	1048569
2026-01-18 09:56:34.07	340.84	0.63	-85.2	-88.8	2.8	1.56e+00	0	48	104	0	60	1048573
2026-01-18 09:56:35.08	340.88	0.57	-85.2	-88.8	2.8	1.56e+00	0	48	104	0	60	1048575
2026-01-18 09:56:36.08	340.93	0.51	-85.2	-88.8	2.5	1.56e+00	0	48	104	0	60	1048574
2026-01-18 09:56:37.09	340.97	0.45	-85.2	-88.8	2.6	1.56e+00	0	48	104	0	60	1048573
2026-01-18 09:56:38.10	341.01	0.39	-83.1	-88.8	2.7	1.56e+00	0	48	104	0	60	1048574
2026-01-18 09:56:39.11	341.05	0.34	-85.2	-88.8	2.7	1.56e+00	0	48	104	0	60	1048575
2026-01-18 09:56:40.12	341.09	0.28	-85.2	-88.8	2.6	1.56e+00	0	48	104	0	60	1048575
2026-01-18 09:56:41.12	341.13	0.22	-85.2	-88.8	2.4	1.56e+00	0	48	104	0	60	1048575
2026-01-18 09:56:42.13	341.17	0.17	-85.2	-88.8	2.6	1.56e+00	0	48	104	0	60	1048575
2026-01-18 09:56:43.14	341.21	0.11	-83.5	-88.8	2.8	1.56e+00	0	48	104	0	60	1048573
2026-01-18 09:56:44.15	341.25	0.05	-85.2	-88.8	2.7	1.56e+00	0	48	104	0	60	1048573
2026-01-18 09:56:45.16	341.29	-0.01	-85.2	-88.8	2.8	1.56e+00	0	48	104	0	60	1048571
2026-01-18 09:56:46.16	341.33	-0.06	-85.2	-88.8	2.6	1.56e+00	0	48	104	0	60	1048575

#Closed at: 2026-01-18 09:56:46
#Recorded file [0 MB]: D:/Data/35015_260118_124856.dat