passes_logs/2026/01/18/R3.2S-Naryan-Mar/R3.2S-Naryan-Mar__20260118_062121_NOAA_21_JPSS-2_rec.log

#Pass ID: 20260118_062121_NOAA 21 (JPSS-2)
#Satellite: NOAA 21 (JPSS-2)
#Configuration: NOAA-21
#almurnet v.1.7.20240730
#Start time: 2026-01-18 06:31:13

#Version: 2.2.20231116
#Station: R3.2S-Naryan-Mar
#Location: 53.008057 lon 67.646978 lat
#TLE: 1 54234U 22150A   26017.26823908  .00000042  00000+0  40962-4 0  9992
#TLE: 2 54234  98.7501 318.1405 0000613 274.2947  85.8159 14.19535194165131

#Time	Az	El	Level	Level2	SNR	BER	BlckErr	Temp	State	Recorded	gain1	gain2
2026-01-18 06:31:13.61	351.95	22.67	-84.7	-88.6	3.1	7.78e-01	0	47	0	0	60	1048568
2026-01-18 06:31:14.60	351.76	22.57	-85.2	-88.8	2.6	1.56e+00	0	47	104	0	60	1048574
2026-01-18 06:31:15.61	351.58	22.46	-85.2	-88.8	3.0	1.56e+00	0	47	104	0	60	1048572
2026-01-18 06:31:16.62	351.39	22.35	-84.7	-88.8	2.7	1.56e+00	0	48	104	0	60	1048573
2026-01-18 06:31:17.63	351.21	22.25	-85.2	-88.8	2.7	1.56e+00	0	48	104	0	60	1048574
2026-01-18 06:31:18.64	351.02	22.14	-85.2	-88.8	2.7	1.56e+00	0	48	104	0	60	1048572
2026-01-18 06:31:19.65	350.84	22.04	-85.2	-88.8	2.7	1.56e+00	0	48	104	0	60	1048575
2026-01-18 06:31:20.65	350.66	21.94	-85.2	-88.8	2.7	1.56e+00	0	47	104	0	60	1048572
2026-01-18 06:31:21.66	350.48	21.83	-85.2	-88.8	2.8	1.56e+00	0	48	104	0	60	1048573
2026-01-18 06:31:22.67	350.31	21.73	-85.2	-88.8	2.8	1.56e+00	0	47	104	0	60	1048575
2026-01-18 06:31:23.68	350.13	21.62	-85.2	-88.8	2.9	1.56e+00	0	48	104	0	60	1048573
2026-01-18 06:31:24.68	349.96	21.52	-85.2	-88.8	2.7	1.56e+00	0	48	104	0	60	1048568
2026-01-18 06:31:25.69	349.78	21.41	-85.2	-88.8	2.8	1.56e+00	0	48	104	0	60	1048567
2026-01-18 06:31:26.70	349.61	21.31	-85.2	-88.8	2.8	1.56e+00	0	48	104	0	60	1048575
2026-01-18 06:31:27.70	349.44	21.21	-85.2	-88.8	2.8	1.56e+00	0	48	104	0	60	1048570
2026-01-18 06:31:28.70	349.27	21.10	-85.2	-88.8	2.9	1.56e+00	0	48	104	0	60	1048575
2026-01-18 06:31:29.71	349.10	21.00	-85.2	-88.8	2.7	1.56e+00	0	48	104	0	60	1048572
2026-01-18 06:31:30.72	348.93	20.90	-84.7	-88.8	2.7	1.56e+00	0	48	104	0	60	1048574
2026-01-18 06:31:31.72	348.76	20.79	-85.2	-88.8	2.5	1.56e+00	0	47	104	0	60	1048574
2026-01-18 06:31:32.73	348.60	20.69	-85.2	-88.8	2.7	1.56e+00	0	48	104	0	60	1048573
2026-01-18 06:31:33.74	348.43	20.59	-85.2	-88.8	2.9	1.56e+00	0	48	104	0	60	1048575
2026-01-18 06:31:34.75	348.27	20.48	-85.2	-88.8	2.6	1.56e+00	0	48	104	0	60	1048572
2026-01-18 06:31:35.76	348.10	20.38	-85.2	-88.8	2.8	1.56e+00	0	48	104	0	60	1048575
2026-01-18 06:31:36.77	347.94	20.28	-85.2	-88.8	2.7	1.56e+00	0	47	104	0	60	1048574
2026-01-18 06:31:37.77	347.78	20.18	-85.2	-88.8	2.7	1.56e+00	0	48	104	0	60	1048573
2026-01-18 06:31:38.78	347.62	20.07	-85.2	-88.8	2.7	1.56e+00	0	47	104	0	60	1048571
2026-01-18 06:31:39.79	347.46	19.97	-85.2	-88.8	2.7	1.56e+00	0	48	104	0	60	1048575
2026-01-18 06:31:40.80	347.31	19.87	-85.2	-88.8	2.9	1.56e+00	0	47	104	0	60	1048567
2026-01-18 06:31:41.81	347.15	19.77	-85.2	-88.8	2.8	1.56e+00	0	47	104	0	60	1048570
2026-01-18 06:31:42.81	347.00	19.67	-85.2	-88.8	2.8	1.56e+00	0	48	104	0	60	1048573
2026-01-18 06:31:43.82	346.84	19.57	-85.2	-88.8	2.6	1.56e+00	0	47	104	0	60	1048575
2026-01-18 06:31:44.83	346.69	19.47	-85.2	-88.8	2.7	1.56e+00	0	48	104	0	60	1048574
2026-01-18 06:31:45.83	346.54	19.37	-85.2	-88.8	2.8	1.56e+00	0	48	104	0	60	1048575
2026-01-18 06:31:46.84	346.39	19.27	-85.2	-88.8	2.6	1.56e+00	0	48	104	0	60	1048573
2026-01-18 06:31:47.84	346.24	19.17	-85.2	-88.8	2.7	1.56e+00	0	47	104	0	60	1048575
2026-01-18 06:31:48.85	346.09	19.07	-85.2	-88.8	2.6	1.56e+00	0	48	104	0	60	1048575
2026-01-18 06:31:49.85	345.94	18.97	-85.2	-88.8	2.7	1.56e+00	0	48	104	0	60	1048574
2026-01-18 06:31:50.86	345.79	18.87	-85.2	-88.8	2.7	1.56e+00	0	47	104	0	60	1048575
2026-01-18 06:31:51.87	345.65	18.77	-85.2	-88.8	2.7	1.56e+00	0	47	104	0	60	1048575
2026-01-18 06:31:52.87	345.50	18.67	-85.2	-88.8	2.7	1.56e+00	0	48	104	0	60	1048574
2026-01-18 06:31:53.88	345.36	18.57	-85.2	-88.8	2.8	1.56e+00	0	48	104	0	60	1048574
2026-01-18 06:31:54.89	345.22	18.47	-85.2	-88.8	2.7	1.56e+00	0	48	104	0	60	1048574
2026-01-18 06:31:55.90	345.07	18.37	-85.2	-88.8	2.8	1.56e+00	0	48	104	0	60	1048575
2026-01-18 06:31:56.90	344.93	18.27	-85.2	-88.8	2.7	1.56e+00	0	48	104	0	60	1048573
2026-01-18 06:31:57.91	344.79	18.17	-85.2	-88.8	2.7	1.56e+00	0	48	104	0	60	1048575
2026-01-18 06:31:58.91	344.65	18.08	-85.2	-88.8	2.8	1.56e+00	0	48	104	0	60	1048572
2026-01-18 06:31:59.92	344.52	17.98	-85.2	-88.8	2.5	1.56e+00	0	48	104	0	60	1048575
2026-01-18 06:32:00.92	344.38	17.88	-85.2	-88.8	2.7	1.56e+00	0	48	104	0	60	1048574
2026-01-18 06:32:01.93	344.24	17.79	-85.2	-88.8	2.6	1.56e+00	0	48	104	0	60	1048573
2026-01-18 06:32:02.93	344.11	17.69	-85.2	-88.8	2.8	1.56e+00	0	48	104	0	60	1048572
2026-01-18 06:32:03.94	343.97	17.59	-85.2	-88.8	2.5	1.56e+00	0	48	104	0	60	1048574
2026-01-18 06:32:04.94	343.84	17.50	-85.2	-88.8	2.7	1.56e+00	0	48	104	0	60	1048573
2026-01-18 06:32:05.95	343.71	17.40	-85.2	-88.8	2.6	1.56e+00	0	47	104	0	60	1048573
2026-01-18 06:32:06.96	343.57	17.30	-85.2	-88.8	2.9	1.56e+00	0	48	104	0	60	1048573
2026-01-18 06:32:07.97	343.44	17.21	-85.2	-88.8	3.0	1.56e+00	0	47	104	0	60	1048574
2026-01-18 06:32:08.98	343.31	17.11	-85.2	-88.8	2.8	1.56e+00	0	48	104	0	60	1048573
2026-01-18 06:32:09.99	343.18	17.01	-85.2	-88.8	2.7	1.56e+00	0	48	104	0	60	1048570
2026-01-18 06:32:11.00	343.05	16.92	-85.2	-88.8	2.7	1.56e+00	0	48	104	0	60	1048575
2026-01-18 06:32:12.00	342.92	16.82	-85.2	-88.8	2.6	1.56e+00	0	48	104	0	60	1048575
2026-01-18 06:32:13.01	342.80	16.73	-85.2	-88.8	2.7	1.56e+00	0	48	104	0	60	1048574
2026-01-18 06:32:14.02	342.67	16.63	-85.2	-88.8	2.9	1.56e+00	0	47	104	0	60	1048574
2026-01-18 06:32:15.02	342.55	16.54	-85.2	-88.8	2.9	1.56e+00	0	47	104	0	60	1048575
2026-01-18 06:32:16.03	342.42	16.44	-85.2	-88.8	2.7	1.56e+00	0	48	104	0	60	1048573
2026-01-18 06:32:17.03	342.30	16.35	-85.2	-88.8	2.7	1.56e+00	0	48	104	0	60	1048574
2026-01-18 06:32:18.04	342.17	16.26	-85.2	-88.8	2.5	1.56e+00	0	48	104	0	60	1048574
2026-01-18 06:32:19.05	342.05	16.16	-85.2	-88.8	2.8	1.56e+00	0	47	104	0	60	1048574
2026-01-18 06:32:20.05	341.93	16.07	-85.2	-88.8	2.8	1.56e+00	0	48	104	0	60	1048574
2026-01-18 06:32:21.06	341.81	15.98	-85.2	-88.8	2.7	1.56e+00	0	48	104	0	60	1048575
2026-01-18 06:32:22.06	341.69	15.88	-85.2	-88.8	2.4	1.56e+00	0	48	104	0	60	1048574
2026-01-18 06:32:23.07	341.57	15.79	-85.2	-88.8	2.6	1.56e+00	0	48	104	0	60	1048573
2026-01-18 06:32:24.08	341.45	15.70	-85.2	-88.8	2.8	1.56e+00	0	48	104	0	60	1048574
2026-01-18 06:32:25.09	341.33	15.61	-85.2	-88.8	2.7	1.56e+00	0	47	104	0	60	1048570
2026-01-18 06:32:26.10	341.22	15.51	-85.2	-88.8	2.8	1.56e+00	0	47	104	0	60	1048575
2026-01-18 06:32:27.10	341.10	15.42	-85.2	-88.8	2.7	1.56e+00	0	48	104	0	60	1048575
2026-01-18 06:32:28.11	340.99	15.33	-85.2	-88.8	2.8	1.56e+00	0	48	104	0	60	1048573
2026-01-18 06:32:29.12	340.87	15.24	-85.2	-88.8	2.6	1.56e+00	0	48	104	0	60	1048575
2026-01-18 06:32:30.13	340.76	15.15	-85.2	-88.8	2.8	1.56e+00	0	48	104	0	60	1048574
2026-01-18 06:32:31.14	340.64	15.06	-85.2	-88.8	2.7	1.56e+00	0	48	104	0	60	1048574
2026-01-18 06:32:32.15	340.53	14.97	-85.2	-88.8	2.6	1.56e+00	0	48	104	0	60	1048574
2026-01-18 06:32:33.15	340.42	14.88	-85.2	-88.8	2.8	1.56e+00	0	48	104	0	60	1048573
2026-01-18 06:32:34.16	340.31	14.79	-84.3	-88.8	2.7	1.56e+00	0	47	104	0	60	1048575
2026-01-18 06:32:35.17	340.20	14.69	-85.2	-88.8	2.7	1.56e+00	0	47	104	0	60	1048575
2026-01-18 06:32:36.18	340.09	14.60	-85.2	-88.8	2.8	1.56e+00	0	48	104	0	60	1048575
2026-01-18 06:32:37.18	339.98	14.52	-85.2	-88.8	2.8	1.56e+00	0	48	104	0	60	1048567
2026-01-18 06:32:38.19	339.87	14.43	-85.2	-88.8	2.7	1.56e+00	0	48	104	0	60	1048575
2026-01-18 06:32:39.20	339.76	14.34	-85.2	-88.8	2.8	1.56e+00	0	47	104	0	60	1048575
2026-01-18 06:32:40.21	339.65	14.25	-85.2	-88.8	2.8	1.56e+00	0	48	104	0	60	1048572
2026-01-18 06:32:41.21	339.55	14.16	-85.2	-88.8	2.9	1.56e+00	0	48	104	0	60	1048575
2026-01-18 06:32:42.22	339.44	14.07	-85.2	-88.8	2.9	1.56e+00	0	47	104	0	60	1048574
2026-01-18 06:32:43.23	339.34	13.98	-85.2	-88.8	2.9	1.56e+00	0	48	104	0	60	1048572
2026-01-18 06:32:44.23	339.23	13.89	-85.2	-88.8	2.8	1.56e+00	0	48	104	0	60	1048575
2026-01-18 06:32:45.24	339.13	13.81	-85.2	-88.8	2.7	1.56e+00	0	48	104	0	60	1048574
2026-01-18 06:32:46.25	339.02	13.72	-85.2	-88.8	2.8	1.56e+00	0	47	104	0	60	1048574
2026-01-18 06:32:47.25	338.92	13.63	-85.2	-88.8	2.9	1.56e+00	0	48	104	0	60	1048574
2026-01-18 06:32:48.26	338.82	13.54	-85.2	-88.8	2.7	1.56e+00	0	47	104	0	60	1048572
2026-01-18 06:32:49.26	338.72	13.46	-85.2	-88.8	2.7	1.56e+00	0	47	104	0	60	1048575
2026-01-18 06:32:50.27	338.62	13.37	-85.2	-88.8	2.7	1.56e+00	0	48	104	0	60	1048570
2026-01-18 06:32:51.28	338.52	13.28	-85.2	-88.8	2.7	1.56e+00	0	48	104	0	60	1048573
2026-01-18 06:32:52.28	338.42	13.20	-85.2	-88.8	2.7	1.56e+00	0	48	104	0	60	1048574
2026-01-18 06:32:53.29	338.32	13.11	-85.2	-88.8	2.7	1.56e+00	0	48	104	0	60	1048574
2026-01-18 06:32:54.30	338.22	13.03	-85.2	-88.8	2.7	1.56e+00	0	48	104	0	60	1048575
2026-01-18 06:32:55.31	338.12	12.94	-85.2	-88.8	2.9	1.56e+00	0	48	104	0	60	1048575
2026-01-18 06:32:56.31	338.03	12.86	-85.2	-88.8	2.8	1.56e+00	0	48	104	0	60	1048575
2026-01-18 06:32:57.32	337.93	12.77	-85.2	-88.8	2.7	1.56e+00	0	48	104	0	60	1048575
2026-01-18 06:32:58.32	337.83	12.69	-85.2	-88.8	2.6	1.56e+00	0	48	104	0	60	1048575
2026-01-18 06:32:59.33	337.74	12.60	-85.2	-88.8	2.5	1.56e+00	0	48	104	0	60	1048575
2026-01-18 06:33:00.33	337.64	12.52	-85.2	-88.8	2.8	1.56e+00	0	48	104	0	60	1048575
2026-01-18 06:33:01.34	337.55	12.43	-85.2	-88.8	2.9	1.56e+00	0	48	104	0	60	1048574
2026-01-18 06:33:02.35	337.46	12.35	-85.2	-88.8	2.7	1.56e+00	0	48	104	0	60	1048574
2026-01-18 06:33:03.35	337.36	12.26	-85.2	-88.8	2.8	1.56e+00	0	48	104	0	60	1048571
2026-01-18 06:33:04.35	337.27	12.18	-85.2	-88.8	2.8	1.56e+00	0	48	104	0	60	1048575
2026-01-18 06:33:05.36	337.18	12.10	-85.2	-88.8	2.7	1.56e+00	0	48	104	0	60	1048566
2026-01-18 06:33:06.36	337.09	12.01	-85.2	-88.8	2.7	1.56e+00	0	48	104	0	60	1048574
2026-01-18 06:33:07.36	337.00	11.93	-85.2	-88.8	2.8	1.56e+00	0	48	104	0	60	1048571
2026-01-18 06:33:08.36	336.91	11.85	-85.2	-88.8	2.6	1.56e+00	0	48	104	0	60	1048573
2026-01-18 06:33:09.37	336.82	11.77	-85.2	-88.8	2.9	1.56e+00	0	48	104	0	60	1048568
2026-01-18 06:33:10.37	336.73	11.68	-85.2	-88.8	2.7	1.56e+00	0	48	104	0	60	1048572
2026-01-18 06:33:11.38	336.64	11.60	-85.2	-88.8	2.8	1.56e+00	0	48	104	0	60	1048574
2026-01-18 06:33:12.38	336.55	11.52	-85.2	-88.8	2.7	1.56e+00	0	48	104	0	60	1048575
2026-01-18 06:33:13.38	336.46	11.44	-85.2	-88.8	2.8	1.56e+00	0	48	104	0	60	1048574
2026-01-18 06:33:14.39	336.38	11.36	-85.2	-88.8	2.7	1.56e+00	0	48	104	0	60	1048571
2026-01-18 06:33:15.40	336.29	11.28	-85.2	-88.8	2.6	1.56e+00	0	48	104	0	60	1048575
2026-01-18 06:33:16.41	336.20	11.19	-85.2	-88.8	2.7	1.56e+00	0	48	104	0	60	1048575
2026-01-18 06:33:17.42	336.12	11.11	-85.2	-88.8	2.7	1.56e+00	0	48	104	0	60	1048573
2026-01-18 06:33:18.42	336.03	11.03	-85.2	-88.8	2.7	1.56e+00	0	48	104	0	60	1048572
2026-01-18 06:33:19.43	335.95	10.95	-84.7	-88.8	2.8	1.56e+00	0	48	104	0	60	1048574
2026-01-18 06:33:20.44	335.86	10.87	-85.2	-88.8	2.7	1.56e+00	0	48	104	0	60	1048574
2026-01-18 06:33:21.44	335.78	10.79	-84.7	-88.8	2.7	1.56e+00	0	48	104	0	60	1048573
2026-01-18 06:33:22.45	335.69	10.71	-84.7	-88.8	2.8	1.56e+00	0	48	104	0	60	1048574
2026-01-18 06:33:23.46	335.61	10.63	-84.7	-88.8	2.5	1.56e+00	0	48	104	0	60	1048570
2026-01-18 06:33:24.46	335.53	10.55	-84.7	-88.8	2.7	1.56e+00	0	48	104	0	60	1048573
2026-01-18 06:33:25.47	335.45	10.47	-84.7	-88.8	2.7	1.56e+00	0	48	104	0	60	1048575
2026-01-18 06:33:26.47	335.37	10.39	-85.2	-88.8	2.7	1.56e+00	0	48	104	0	60	1048570
2026-01-18 06:33:27.48	335.28	10.31	-85.2	-88.8	2.6	1.56e+00	0	48	104	0	60	1048571
2026-01-18 06:33:28.48	335.20	10.24	-85.2	-88.8	2.8	1.56e+00	0	48	104	0	60	1048574
2026-01-18 06:33:29.48	335.12	10.16	-85.2	-88.8	2.7	1.56e+00	0	48	104	0	60	1048574
2026-01-18 06:33:30.49	335.04	10.08	-85.2	-88.8	2.8	1.56e+00	0	48	104	0	60	1048570
2026-01-18 06:33:31.50	334.96	10.00	-85.2	-88.8	2.5	1.56e+00	0	48	104	0	60	1048571
2026-01-18 06:33:32.50	334.89	9.92	-85.2	-88.8	2.7	1.56e+00	0	48	104	0	60	1048573
2026-01-18 06:33:33.51	334.81	9.84	-85.2	-88.8	2.7	1.56e+00	0	48	104	0	60	1048574
2026-01-18 06:33:34.52	334.73	9.77	-85.2	-88.8	2.6	1.56e+00	0	48	104	0	60	1048575
2026-01-18 06:33:35.53	334.65	9.69	-85.2	-88.8	2.7	1.56e+00	0	48	104	0	60	1048575
2026-01-18 06:33:36.53	334.57	9.61	-84.7	-88.8	2.8	1.56e+00	0	48	104	0	60	1048574
2026-01-18 06:33:37.54	334.50	9.53	-85.2	-88.8	2.7	1.56e+00	0	48	104	0	60	1048575
2026-01-18 06:33:38.55	334.42	9.46	-85.2	-88.8	2.7	1.56e+00	0	48	104	0	60	1048575
2026-01-18 06:33:39.55	334.35	9.38	-85.2	-88.8	2.6	1.56e+00	0	48	104	0	60	1048574
2026-01-18 06:33:40.56	334.27	9.30	-85.2	-88.8	2.7	1.56e+00	0	48	104	0	60	1048573
2026-01-18 06:33:41.57	334.19	9.23	-85.2	-88.8	2.5	1.56e+00	0	48	104	0	60	1048574
2026-01-18 06:33:42.58	334.12	9.15	-85.2	-88.8	2.7	1.56e+00	0	48	104	0	60	1048575
2026-01-18 06:33:43.58	334.05	9.08	-85.2	-88.8	2.7	1.56e+00	0	48	104	0	60	1048572
2026-01-18 06:33:44.59	333.97	9.00	-85.2	-88.8	2.6	1.56e+00	0	48	104	0	60	1048573
2026-01-18 06:33:45.60	333.90	8.92	-85.2	-88.8	2.8	1.56e+00	0	47	104	0	60	1048575
2026-01-18 06:33:46.60	333.83	8.85	-85.2	-88.8	2.8	1.56e+00	0	48	104	0	60	1048575
2026-01-18 06:33:47.61	333.75	8.77	-85.2	-88.8	2.5	1.56e+00	0	48	104	0	60	1048574
2026-01-18 06:33:48.62	333.68	8.70	-85.2	-88.8	2.8	1.56e+00	0	48	104	0	60	1048567
2026-01-18 06:33:49.63	333.61	8.62	-85.2	-88.8	2.9	1.56e+00	0	48	104	0	60	1048575
2026-01-18 06:33:50.63	333.54	8.55	-85.2	-88.8	2.8	1.56e+00	0	48	104	0	60	1048573
2026-01-18 06:33:51.64	333.47	8.47	-85.2	-88.8	2.5	1.56e+00	0	48	104	0	60	1048564
2026-01-18 06:33:52.65	333.40	8.40	-85.2	-88.8	2.7	1.56e+00	0	48	104	0	60	1048574
2026-01-18 06:33:53.66	333.32	8.32	-85.2	-88.8	2.9	1.56e+00	0	48	104	0	60	1048567
2026-01-18 06:33:54.66	333.26	8.25	-85.2	-88.8	2.8	1.56e+00	0	48	104	0	60	1048575
2026-01-18 06:33:55.67	333.19	8.18	-85.2	-88.8	2.7	1.56e+00	0	48	104	0	60	1048573
2026-01-18 06:33:56.68	333.12	8.10	-85.2	-88.8	2.6	1.56e+00	0	48	104	0	60	1048573
2026-01-18 06:33:57.68	333.05	8.03	-85.2	-88.8	2.9	1.56e+00	0	48	104	0	60	1048573
2026-01-18 06:33:58.69	332.98	7.96	-85.2	-88.8	2.7	1.56e+00	0	48	104	0	60	1048574
2026-01-18 06:33:59.70	332.91	7.88	-85.2	-88.8	2.6	1.56e+00	0	48	104	0	60	1048575
2026-01-18 06:34:00.71	332.84	7.81	-85.2	-88.8	2.7	1.56e+00	0	48	104	0	60	1048575
2026-01-18 06:34:01.71	332.78	7.74	-85.2	-88.8	2.6	1.56e+00	0	48	104	0	60	1048572
2026-01-18 06:34:02.71	332.71	7.66	-85.2	-88.8	2.7	1.56e+00	0	48	104	0	60	1048575
2026-01-18 06:34:03.72	332.64	7.59	-83.5	-88.8	2.8	1.55e+00	0	48	104	0	60	1048568
2026-01-18 06:34:04.73	332.58	7.52	-85.2	-88.8	2.9	1.56e+00	0	48	104	0	60	1048574
2026-01-18 06:34:05.74	332.51	7.45	-85.2	-88.8	2.7	1.56e+00	0	48	104	0	60	1048572
2026-01-18 06:34:06.75	332.44	7.37	-85.2	-88.8	2.7	1.56e+00	0	48	104	0	60	1048572
2026-01-18 06:34:07.76	332.38	7.30	-85.2	-88.8	2.5	1.56e+00	0	48	104	0	60	1048574
2026-01-18 06:34:08.76	332.31	7.23	-85.2	-88.8	2.9	1.56e+00	0	48	104	0	60	1048574
2026-01-18 06:34:09.77	332.25	7.16	-85.2	-88.8	2.5	1.56e+00	0	48	104	0	60	1048573
2026-01-18 06:34:10.78	332.18	7.09	-85.2	-88.8	2.7	1.56e+00	0	48	104	0	60	1048575
2026-01-18 06:34:11.78	332.12	7.02	-85.2	-88.8	2.8	1.56e+00	0	48	104	0	60	1048573
2026-01-18 06:34:12.79	332.06	6.94	-85.2	-88.8	2.7	1.56e+00	0	48	104	0	60	1048571
2026-01-18 06:34:13.79	331.99	6.87	-85.2	-88.8	2.7	1.56e+00	0	48	104	0	60	1048575
2026-01-18 06:34:14.80	331.93	6.80	-85.2	-88.8	2.9	1.56e+00	0	48	104	0	60	1048575
2026-01-18 06:34:15.80	331.87	6.73	-85.2	-88.8	2.4	1.56e+00	0	48	104	0	60	1048570
2026-01-18 06:34:16.81	331.81	6.66	-85.2	-88.8	2.8	1.56e+00	0	48	104	0	60	1048572
2026-01-18 06:34:17.82	331.74	6.59	-85.2	-88.8	2.6	1.56e+00	0	48	104	0	60	1048574
2026-01-18 06:34:18.83	331.68	6.52	-85.2	-88.8	2.6	1.56e+00	0	48	104	0	60	1048575
2026-01-18 06:34:19.83	331.62	6.45	-85.2	-88.8	2.7	1.56e+00	0	48	104	0	60	1048574
2026-01-18 06:34:20.84	331.56	6.38	-85.2	-88.8	2.8	1.56e+00	0	48	104	0	60	1048573
2026-01-18 06:34:21.85	331.50	6.31	-85.2	-88.8	2.9	1.56e+00	0	48	104	0	60	1048574
2026-01-18 06:34:22.86	331.44	6.24	-85.2	-88.8	2.7	1.56e+00	0	48	104	0	60	1048574
2026-01-18 06:34:23.87	331.38	6.17	-85.2	-88.8	2.8	1.56e+00	0	48	104	0	60	1048575
2026-01-18 06:34:24.87	331.32	6.10	-85.2	-88.8	2.8	1.56e+00	0	48	104	0	60	1048569
2026-01-18 06:34:25.88	331.26	6.04	-85.2	-88.8	2.4	1.56e+00	0	48	104	0	60	1048574
2026-01-18 06:34:26.89	331.20	5.97	-85.2	-88.8	2.7	1.56e+00	0	47	104	0	60	1048573
2026-01-18 06:34:27.89	331.14	5.90	-85.2	-88.8	3.0	1.56e+00	0	47	104	0	60	1048571
2026-01-18 06:34:28.89	331.08	5.83	-85.2	-88.8	2.6	1.56e+00	0	48	104	0	60	1048566
2026-01-18 06:34:29.90	331.02	5.76	-85.2	-88.8	2.7	1.56e+00	0	48	104	0	60	1048575
2026-01-18 06:34:30.90	330.97	5.69	-85.2	-88.8	2.8	1.56e+00	0	48	104	0	60	1048575
2026-01-18 06:34:31.91	330.91	5.62	-85.2	-88.8	2.8	1.56e+00	0	48	104	0	60	1048574
2026-01-18 06:34:32.92	330.85	5.56	-85.2	-88.8	2.7	1.56e+00	0	48	104	0	60	1048571
2026-01-18 06:34:33.92	330.79	5.49	-85.2	-88.8	3.0	1.56e+00	0	48	104	0	60	1048575
2026-01-18 06:34:34.93	330.74	5.42	-85.2	-88.8	2.6	1.56e+00	0	48	104	0	60	1048575
2026-01-18 06:34:35.93	330.68	5.35	-85.2	-88.8	2.7	1.56e+00	0	48	104	0	60	1048575
2026-01-18 06:34:36.94	330.62	5.29	-85.2	-88.8	2.6	1.56e+00	0	48	104	0	60	1048575
2026-01-18 06:34:37.95	330.57	5.22	-85.2	-88.8	2.8	1.56e+00	0	48	104	0	60	1048575
2026-01-18 06:34:38.96	330.51	5.15	-85.2	-88.8	2.7	1.56e+00	0	48	104	0	60	1048574
2026-01-18 06:34:39.97	330.46	5.08	-85.2	-88.8	2.7	1.56e+00	0	48	104	0	60	1048575
2026-01-18 06:34:40.97	330.40	5.02	-85.2	-88.8	2.7	1.56e+00	0	48	104	0	60	1048575
2026-01-18 06:34:41.98	330.35	4.95	-85.2	-88.8	2.8	1.56e+00	0	48	104	0	60	1048575
2026-01-18 06:34:42.99	330.29	4.88	-85.2	-88.8	2.6	1.56e+00	0	48	104	0	60	1048573
2026-01-18 06:34:44.00	330.24	4.82	-85.2	-88.8	2.7	1.56e+00	0	48	104	0	60	1048574
2026-01-18 06:34:45.00	330.18	4.75	-85.2	-88.8	2.9	1.56e+00	0	48	104	0	60	1048572
2026-01-18 06:34:46.01	330.13	4.69	-85.2	-88.8	2.7	1.56e+00	0	48	104	0	60	1048575
2026-01-18 06:34:47.02	330.08	4.62	-85.2	-88.8	2.7	1.56e+00	0	47	104	0	60	1048574
2026-01-18 06:34:48.03	330.02	4.55	-85.2	-88.8	2.7	1.56e+00	0	48	104	0	60	1048573
2026-01-18 06:34:49.03	329.97	4.49	-85.2	-88.8	2.8	1.56e+00	0	48	104	0	60	1048574
2026-01-18 06:34:50.04	329.92	4.42	-85.2	-88.8	2.5	1.56e+00	0	48	104	0	60	1048575
2026-01-18 06:34:51.04	329.86	4.36	-85.2	-88.8	2.8	1.56e+00	0	48	104	0	60	1048575
2026-01-18 06:34:52.05	329.81	4.29	-85.2	-88.8	2.7	1.56e+00	0	48	104	0	60	1048574
2026-01-18 06:34:53.05	329.76	4.23	-84.3	-88.8	2.6	1.56e+00	0	48	104	0	60	1048575
2026-01-18 06:34:54.06	329.71	4.16	-84.7	-88.8	2.9	1.56e+00	0	48	104	0	60	1048570
2026-01-18 06:34:55.07	329.66	4.10	-85.2	-88.8	2.8	1.56e+00	0	48	104	0	60	1048573
2026-01-18 06:34:56.08	329.60	4.03	-85.2	-88.8	2.6	1.56e+00	0	48	104	0	60	1048570
2026-01-18 06:34:57.09	329.55	3.97	-85.2	-88.8	2.7	1.56e+00	0	47	104	0	60	1048571
2026-01-18 06:34:58.10	329.50	3.90	-84.7	-88.8	2.5	1.56e+00	0	48	104	0	60	1048575
2026-01-18 06:34:59.10	329.45	3.84	-84.3	-88.8	2.5	1.56e+00	0	48	104	0	60	1048573
2026-01-18 06:35:00.11	329.40	3.77	-85.2	-88.8	2.8	1.56e+00	0	48	104	0	60	1048573
2026-01-18 06:35:01.11	329.35	3.71	-85.2	-88.8	2.8	1.56e+00	0	48	104	0	60	1048575
2026-01-18 06:35:02.11	329.30	3.65	-85.2	-88.8	2.9	1.56e+00	0	48	104	0	60	1048572
2026-01-18 06:35:03.12	329.25	3.58	-84.3	-88.8	2.8	1.56e+00	0	48	104	0	60	1048570
2026-01-18 06:35:04.13	329.20	3.52	-84.3	-88.8	2.5	1.56e+00	0	48	104	0	60	1048575
2026-01-18 06:35:05.13	329.15	3.45	-85.2	-88.8	2.7	1.56e+00	0	48	104	0	60	1048574
2026-01-18 06:35:06.14	329.10	3.39	-85.2	-88.8	2.7	1.56e+00	0	48	104	0	60	1048573
2026-01-18 06:35:07.15	329.05	3.33	-85.2	-88.8	2.9	1.56e+00	0	48	104	0	60	1048575
2026-01-18 06:35:08.15	329.01	3.26	-84.3	-88.8	2.7	1.56e+00	0	48	104	0	60	1048571
2026-01-18 06:35:09.15	328.96	3.20	-84.3	-88.8	2.5	1.56e+00	0	48	104	0	60	1048575
2026-01-18 06:35:10.16	328.91	3.14	-85.2	-88.8	2.7	1.56e+00	0	48	104	0	60	1048570
2026-01-18 06:35:11.17	328.86	3.08	-85.2	-88.8	2.7	1.56e+00	0	48	104	0	60	1048569
2026-01-18 06:35:12.18	328.81	3.01	-85.2	-88.8	2.7	1.56e+00	0	48	104	0	60	1048574
2026-01-18 06:35:13.19	328.77	2.95	-85.2	-88.8	2.7	1.56e+00	0	48	104	0	60	1048575
2026-01-18 06:35:14.20	328.72	2.89	-85.2	-88.8	2.6	1.56e+00	0	48	104	0	60	1048575
2026-01-18 06:35:15.20	328.67	2.82	-85.2	-88.8	2.7	1.56e+00	0	48	104	0	60	1048574
2026-01-18 06:35:16.21	328.63	2.76	-85.2	-88.8	2.8	1.56e+00	0	48	104	0	60	1048571
2026-01-18 06:35:17.22	328.58	2.70	-85.2	-88.8	2.8	1.56e+00	0	48	104	0	60	1048572
2026-01-18 06:35:18.23	328.53	2.64	-85.2	-88.8	2.6	1.56e+00	0	48	104	0	60	1048575
2026-01-18 06:35:19.23	328.49	2.58	-85.2	-88.8	2.7	1.56e+00	0	47	104	0	60	1048574
2026-01-18 06:35:20.24	328.44	2.51	-85.2	-88.8	2.7	1.56e+00	0	48	104	0	60	1048574
2026-01-18 06:35:21.24	328.39	2.45	-85.2	-88.8	2.6	1.56e+00	0	48	104	0	60	1048574
2026-01-18 06:35:22.25	328.35	2.39	-85.2	-88.8	2.7	1.56e+00	0	48	104	0	60	1048574
2026-01-18 06:35:23.25	328.30	2.33	-85.2	-88.8	2.6	1.56e+00	0	48	104	0	60	1048575
2026-01-18 06:35:24.26	328.26	2.27	-85.2	-88.8	2.8	1.56e+00	0	48	104	0	60	1048570
2026-01-18 06:35:25.26	328.21	2.21	-85.2	-88.8	2.7	1.56e+00	0	48	104	0	60	1048572
2026-01-18 06:35:26.27	328.17	2.15	-85.2	-88.8	2.7	1.56e+00	0	48	104	0	60	1048575
2026-01-18 06:35:27.28	328.12	2.09	-85.2	-88.8	2.5	1.56e+00	0	48	104	0	60	1048573
2026-01-18 06:35:28.29	328.08	2.02	-85.2	-88.8	2.6	1.56e+00	0	48	104	0	60	1048575
2026-01-18 06:35:29.29	328.04	1.96	-84.7	-88.8	2.7	1.56e+00	0	48	104	0	60	1048573
2026-01-18 06:35:30.30	327.99	1.90	-85.2	-88.8	2.7	1.56e+00	0	48	104	0	60	1048570
2026-01-18 06:35:31.31	327.95	1.84	-85.2	-88.8	2.7	1.56e+00	0	48	104	0	60	1048573
2026-01-18 06:35:32.31	327.91	1.78	-85.2	-88.8	2.8	1.56e+00	0	48	104	0	60	1048574
2026-01-18 06:35:33.32	327.86	1.72	-85.2	-88.8	2.8	1.56e+00	0	48	104	0	60	1048575
2026-01-18 06:35:34.33	327.82	1.66	-85.2	-88.8	2.5	1.56e+00	0	48	104	0	60	1048575
2026-01-18 06:35:35.33	327.78	1.60	-85.2	-88.8	2.6	1.56e+00	0	48	104	0	60	1048574
2026-01-18 06:35:36.34	327.73	1.54	-85.2	-88.8	2.6	1.56e+00	0	48	104	0	60	1048575
2026-01-18 06:35:37.35	327.69	1.48	-85.2	-88.8	2.7	1.56e+00	0	48	104	0	60	1048574
2026-01-18 06:35:38.36	327.65	1.42	-85.2	-88.8	2.8	1.56e+00	0	48	104	0	60	1048573
2026-01-18 06:35:39.36	327.61	1.36	-85.2	-88.8	2.7	1.56e+00	0	48	104	0	60	1048574
2026-01-18 06:35:40.37	327.56	1.30	-85.2	-88.8	2.9	1.56e+00	0	48	104	0	60	1048575
2026-01-18 06:35:41.38	327.52	1.24	-85.2	-88.8	2.6	1.56e+00	0	48	104	0	60	1048574
2026-01-18 06:35:42.39	327.48	1.18	-85.2	-88.8	2.7	1.56e+00	0	48	104	0	60	1048575
2026-01-18 06:35:43.40	327.44	1.12	-85.2	-88.8	2.8	1.56e+00	0	48	104	0	60	1048573
2026-01-18 06:35:44.40	327.40	1.06	-85.2	-88.8	2.6	1.56e+00	0	48	104	0	60	1048575
2026-01-18 06:35:45.41	327.36	1.00	-85.2	-88.8	2.6	1.56e+00	0	48	104	0	60	1048574
2026-01-18 06:35:46.42	327.31	0.95	-85.2	-88.8	2.7	1.56e+00	0	48	104	0	60	1048575
2026-01-18 06:35:47.43	327.27	0.89	-85.2	-88.8	2.8	1.56e+00	0	48	104	0	60	1048573
2026-01-18 06:35:48.43	327.23	0.83	-85.2	-88.8	2.8	1.56e+00	0	48	104	0	60	1048575
2026-01-18 06:35:49.44	327.19	0.77	-85.2	-88.8	2.6	1.56e+00	0	48	104	0	60	1048574
2026-01-18 06:35:50.45	327.15	0.71	-85.2	-88.8	2.6	1.56e+00	0	48	104	0	60	1048574
2026-01-18 06:35:51.45	327.11	0.65	-85.2	-88.8	2.8	1.56e+00	0	48	104	0	60	1048575
2026-01-18 06:35:52.46	327.07	0.59	-85.2	-88.8	2.9	1.56e+00	0	48	104	0	60	1048574
2026-01-18 06:35:53.47	327.03	0.54	-85.2	-88.8	2.7	1.56e+00	0	48	104	0	60	1048573
2026-01-18 06:35:54.48	326.99	0.48	-85.2	-88.8	2.6	1.56e+00	0	48	104	0	60	1048575
2026-01-18 06:35:55.49	326.95	0.42	-85.2	-88.8	2.7	1.56e+00	0	48	104	0	60	1048575
2026-01-18 06:35:56.49	326.92	0.36	-85.2	-88.8	2.6	1.56e+00	0	48	104	0	60	1048574
2026-01-18 06:35:57.50	326.88	0.30	-85.2	-88.8	2.8	1.56e+00	0	48	104	0	60	1048575
2026-01-18 06:35:58.50	326.84	0.25	-85.2	-88.8	2.8	1.56e+00	0	48	104	0	60	1048574
2026-01-18 06:35:59.51	326.80	0.19	-85.2	-88.8	2.8	1.56e+00	0	48	104	0	60	1048575
2026-01-18 06:36:00.52	326.76	0.13	-85.2	-88.8	2.8	1.56e+00	0	48	104	0	60	1048574
2026-01-18 06:36:01.53	326.72	0.07	-85.2	-88.8	2.8	1.56e+00	0	48	104	0	60	1048573
2026-01-18 06:36:02.53	326.68	0.02	-85.2	-88.8	2.8	1.56e+00	0	48	104	0	60	1048572

#Closed at: 2026-01-18 06:36:03
#Recorded file [0 MB]: D:/Data/35015_260118_093113.dat