passes_logs/2026/01/18/R3.2S-Naryan-Mar/R3.2S-Naryan-Mar__20260118_121706_AQUA_rec.log

#Pass ID: 20260118_121706_AQUA
#Satellite: AQUA
#Configuration: AQUA
#almurnet v.1.7.20240730
#Start time: 2026-01-18 12:17:08

#Version: 2.2.20231116
#Station: R3.2S-Naryan-Mar
#Location: 53.008057 lon 67.646978 lat
#TLE: 1 27424U 02022A   26017.29152041  .00000842  00000+0  17841-3 0  9992
#TLE: 2 27424  98.4085 343.7574 0002011  75.4099  30.6811 14.61825797261228

#Time	Az	El	Level	Level2	SNR	BER	BlckErr	Temp	State	Recorded	gain1	gain2
2026-01-18 12:17:08.46	211.89	0.13	-83.9	-88.8	2.0	3.11e+01	0	46	0	0	60	1048574
2026-01-18 12:17:09.46	211.97	0.18	-84.3	-88.8	2.6	3.11e+01	0	46	104	0	60	1048574
2026-01-18 12:17:10.47	212.04	0.24	-83.9	-88.8	2.5	3.11e+01	0	46	104	0	60	1048574
2026-01-18 12:17:11.48	212.11	0.29	-83.9	-88.8	2.6	3.11e+01	0	46	104	0	60	1048574
2026-01-18 12:17:12.48	212.19	0.34	-84.3	-88.8	2.5	3.11e+01	0	46	104	0	60	1048574
2026-01-18 12:17:13.49	212.26	0.40	-84.3	-88.8	2.5	3.11e+01	0	46	104	0	60	1048574
2026-01-18 12:17:14.50	212.34	0.45	-84.3	-88.8	2.6	3.11e+01	0	46	104	0	60	1048574
2026-01-18 12:17:15.51	212.42	0.51	-83.5	-88.8	2.7	3.11e+01	0	46	104	0	60	1048574
2026-01-18 12:17:16.52	212.49	0.56	-84.3	-88.8	2.6	3.11e+01	0	46	104	0	60	1048574
2026-01-18 12:17:17.52	212.57	0.62	-83.9	-88.8	2.5	3.11e+01	0	46	104	0	60	1048574
2026-01-18 12:17:18.53	212.64	0.67	-84.3	-88.8	2.7	3.11e+01	0	46	104	0	60	1048574
2026-01-18 12:17:19.54	212.72	0.73	-83.9	-88.8	2.6	3.11e+01	0	46	104	0	60	1048574
2026-01-18 12:17:20.55	212.80	0.78	-83.9	-88.8	2.7	3.11e+01	0	46	104	0	60	1048574
2026-01-18 12:17:21.56	212.87	0.84	-84.3	-88.8	2.5	3.11e+01	0	46	104	0	60	1048574
2026-01-18 12:17:22.56	212.95	0.89	-84.3	-88.8	2.7	3.11e+01	0	47	104	0	60	1048574
2026-01-18 12:17:23.57	213.03	0.94	-84.3	-88.8	2.4	3.11e+01	0	46	104	0	60	1048574
2026-01-18 12:17:24.58	213.11	1.00	-83.9	-88.8	2.7	3.11e+01	0	47	104	0	60	1048574
2026-01-18 12:17:25.58	213.19	1.05	-83.9	-88.8	2.4	3.11e+01	0	47	104	0	60	1048574
2026-01-18 12:17:26.59	213.27	1.11	-83.9	-88.8	2.5	3.11e+01	0	47	104	0	60	1048574
2026-01-18 12:17:27.60	213.34	1.16	-84.3	-88.8	2.4	3.11e+01	0	47	104	0	60	1048574
2026-01-18 12:17:28.60	213.42	1.22	-84.3	-88.8	2.7	3.11e+01	0	47	104	0	60	1048574
2026-01-18 12:17:29.61	213.50	1.28	-83.9	-88.8	2.5	3.11e+01	0	47	104	0	60	1048574
2026-01-18 12:17:30.62	213.58	1.33	-84.3	-88.8	2.6	3.11e+01	0	47	104	0	60	1048574
2026-01-18 12:17:31.62	213.66	1.39	-84.3	-88.8	2.6	3.11e+01	0	47	104	0	60	1048574
2026-01-18 12:17:32.63	213.74	1.44	-84.3	-88.8	2.7	3.11e+01	0	47	104	0	60	1048574
2026-01-18 12:17:33.63	213.82	1.50	-83.9	-88.8	2.6	3.11e+01	0	47	104	0	60	1048574
2026-01-18 12:17:34.64	213.91	1.55	-83.5	-88.8	2.7	3.11e+01	0	47	104	0	60	1048574
2026-01-18 12:17:35.64	213.99	1.61	-83.9	-88.8	2.7	3.11e+01	0	47	104	0	60	1048574
2026-01-18 12:17:36.65	214.07	1.66	-84.3	-88.8	2.4	3.11e+01	0	47	104	0	60	1048574
2026-01-18 12:17:37.66	214.15	1.72	-84.3	-88.8	2.5	3.11e+01	0	47	104	0	60	1048574
2026-01-18 12:17:38.67	214.23	1.78	-83.9	-88.8	2.5	3.11e+01	0	47	104	0	60	1048574
2026-01-18 12:17:39.67	214.32	1.83	-83.5	-88.8	2.6	3.11e+01	0	47	104	0	60	1048574
2026-01-18 12:17:40.68	214.40	1.89	-84.3	-88.8	2.6	3.11e+01	0	47	104	0	60	1048574
2026-01-18 12:17:41.69	214.48	1.94	-84.3	-88.8	2.7	3.11e+01	0	47	104	0	60	1048574
2026-01-18 12:17:42.70	214.57	2.00	-84.3	-88.8	2.4	3.11e+01	0	47	104	0	60	1048574
2026-01-18 12:17:43.71	214.65	2.06	-83.9	-88.8	2.6	3.11e+01	0	47	104	0	60	1048574
2026-01-18 12:17:44.71	214.74	2.11	-83.9	-88.8	2.5	3.11e+01	0	47	104	0	60	1048574
2026-01-18 12:17:45.72	214.82	2.17	-84.3	-88.8	2.6	3.11e+01	0	47	104	0	60	1048574
2026-01-18 12:17:46.72	214.91	2.23	-83.9	-88.8	2.4	3.11e+01	0	47	104	0	60	1048574
2026-01-18 12:17:47.73	214.99	2.28	-83.9	-88.8	2.6	3.11e+01	0	47	104	0	60	1048574
2026-01-18 12:17:48.74	215.08	2.34	-83.9	-88.8	2.6	3.11e+01	0	47	104	0	60	1048574
2026-01-18 12:17:49.74	215.16	2.40	-84.3	-88.8	2.6	3.11e+01	0	47	104	0	60	1048574
2026-01-18 12:17:50.75	215.25	2.45	-84.3	-88.8	2.7	3.11e+01	0	47	104	0	60	1048574
2026-01-18 12:17:51.76	215.34	2.51	-84.3	-88.8	2.6	3.11e+01	0	47	104	0	60	1048574
2026-01-18 12:17:52.75	215.42	2.57	-84.3	-88.8	2.6	3.11e+01	0	47	104	0	60	1048574
2026-01-18 12:17:53.76	215.51	2.62	-83.9	-88.8	2.6	3.11e+01	0	47	104	0	60	1048574
2026-01-18 12:17:54.77	215.60	2.68	-84.3	-88.8	2.5	3.11e+01	0	47	104	0	60	1048574
2026-01-18 12:17:55.78	215.69	2.74	-84.3	-88.8	2.5	3.11e+01	0	47	104	0	60	1048574
2026-01-18 12:17:56.79	215.78	2.80	-84.3	-88.8	2.7	3.11e+01	0	47	104	0	60	1048574
2026-01-18 12:17:57.80	215.87	2.85	-83.9	-88.8	2.2	3.11e+01	0	47	104	0	60	1048574
2026-01-18 12:17:58.80	215.96	2.91	-83.9	-88.8	2.6	3.11e+01	0	47	104	0	60	1048574
2026-01-18 12:17:59.81	216.05	2.97	-84.3	-88.8	2.7	3.11e+01	0	47	104	0	60	1048574
2026-01-18 12:18:00.82	216.14	3.03	-84.3	-88.8	2.4	3.11e+01	0	47	104	0	60	1048572
2026-01-18 12:18:01.83	216.23	3.08	-84.3	-88.8	2.6	3.11e+01	0	47	104	0	60	1048572
2026-01-18 12:18:02.83	216.32	3.14	-83.9	-88.8	2.5	3.11e+01	0	47	104	0	60	1048572
2026-01-18 12:18:03.84	216.41	3.20	-84.3	-88.8	2.6	3.11e+01	0	47	104	0	60	1048572
2026-01-18 12:18:04.85	216.50	3.26	-83.9	-88.8	2.5	3.11e+01	0	47	104	0	60	1048572
2026-01-18 12:18:05.85	216.59	3.32	-84.3	-88.8	2.7	3.11e+01	0	47	104	0	60	1048572
2026-01-18 12:18:06.86	216.69	3.37	-83.9	-88.8	2.7	3.11e+01	0	47	104	0	60	1048572
2026-01-18 12:18:07.87	216.78	3.43	-83.5	-88.8	2.7	3.11e+01	0	47	104	0	60	1048572
2026-01-18 12:18:08.88	216.87	3.49	-84.3	-88.8	2.8	3.11e+01	0	47	104	0	60	1048572
2026-01-18 12:18:09.88	216.97	3.55	-84.3	-88.8	2.5	3.11e+01	0	47	104	0	60	1048572
2026-01-18 12:18:10.89	217.06	3.61	-84.3	-88.8	2.8	3.11e+01	0	47	104	0	60	1048572
2026-01-18 12:18:11.90	217.15	3.67	-83.9	-88.8	2.5	3.11e+01	0	47	104	0	60	1048572
2026-01-18 12:18:12.91	217.25	3.73	-83.9	-88.8	2.7	3.11e+01	0	47	104	0	60	1048572
2026-01-18 12:18:13.92	217.34	3.78	-84.3	-88.8	2.4	3.11e+01	0	47	104	0	60	1048572
2026-01-18 12:18:14.92	217.44	3.84	-84.3	-88.8	2.5	3.11e+01	0	47	104	0	60	1048572
2026-01-18 12:18:15.93	217.54	3.90	-83.9	-88.8	2.5	3.11e+01	0	47	104	0	60	1048572
2026-01-18 12:18:16.94	217.63	3.96	-83.9	-88.8	2.5	3.11e+01	0	47	104	0	60	1048572
2026-01-18 12:18:17.95	217.73	4.02	-83.9	-88.8	2.4	3.11e+01	0	47	104	0	60	1048572
2026-01-18 12:18:18.95	217.83	4.08	-84.3	-88.8	2.5	3.11e+01	0	47	104	0	60	1048572
2026-01-18 12:18:19.96	217.92	4.14	-83.9	-88.8	2.4	3.11e+01	0	47	104	0	60	1048572
2026-01-18 12:18:20.97	218.02	4.20	-84.3	-88.8	2.6	3.11e+01	0	47	104	0	60	1048572
2026-01-18 12:18:21.98	218.12	4.26	-83.9	-88.8	2.4	3.11e+01	0	47	104	0	60	1048572
2026-01-18 12:18:22.98	218.22	4.32	-83.9	-88.8	2.7	3.11e+01	0	47	104	0	60	1048570
2026-01-18 12:18:23.99	218.32	4.38	-84.3	-88.8	2.7	3.11e+01	0	47	104	0	60	1048570
2026-01-18 12:18:25.00	218.42	4.44	-84.3	-88.8	2.7	3.11e+01	0	47	104	0	60	1048570
2026-01-18 12:18:26.00	218.52	4.50	-84.3	-88.8	2.8	3.11e+01	0	47	104	0	60	1048570
2026-01-18 12:18:27.01	218.62	4.56	-83.9	-88.8	2.6	3.11e+01	0	47	104	0	60	1048570
2026-01-18 12:18:28.02	218.72	4.62	-84.3	-88.8	2.6	3.11e+01	0	47	104	0	60	1048570
2026-01-18 12:18:29.03	218.82	4.68	-84.3	-88.8	2.5	3.11e+01	0	47	104	0	60	1048570
2026-01-18 12:18:30.03	218.92	4.74	-84.3	-88.8	2.5	3.11e+01	0	47	104	0	60	1048570
2026-01-18 12:18:31.04	219.03	4.80	-83.9	-88.8	2.4	3.11e+01	0	47	104	0	60	1048570
2026-01-18 12:18:32.05	219.13	4.86	-83.9	-88.8	2.3	3.11e+01	0	47	104	0	60	1048570
2026-01-18 12:18:33.06	219.23	4.92	-83.9	-88.8	2.4	3.11e+01	0	47	104	0	60	1048570
2026-01-18 12:18:34.06	219.34	4.98	-83.9	-88.8	2.5	3.11e+01	0	47	104	0	60	1048570
2026-01-18 12:18:35.07	219.44	5.04	-84.3	-88.8	2.5	3.11e+01	0	47	104	0	60	1048570
2026-01-18 12:18:36.07	219.54	5.10	-83.9	-88.8	2.4	3.11e+01	0	47	104	0	60	1048570
2026-01-18 12:18:37.08	219.65	5.16	-83.9	-88.8	2.5	3.11e+01	0	47	104	0	60	1048570
2026-01-18 12:18:38.08	219.75	5.22	-84.3	-88.8	2.6	3.11e+01	0	47	104	0	60	1048570
2026-01-18 12:18:39.09	219.86	5.28	-84.3	-88.8	2.5	3.11e+01	0	47	104	0	60	1048570
2026-01-18 12:18:40.10	219.97	5.34	-83.9	-88.8	2.5	3.11e+01	0	47	104	0	60	1048570
2026-01-18 12:18:41.11	220.07	5.40	-83.9	-88.8	2.6	3.11e+01	0	47	104	0	60	1048570
2026-01-18 12:18:42.12	220.18	5.46	-84.3	-88.8	2.6	3.11e+01	0	47	104	0	60	1048570
2026-01-18 12:18:43.12	220.29	5.52	-84.3	-88.8	2.6	3.11e+01	0	47	104	0	60	1048570
2026-01-18 12:18:44.13	220.40	5.59	-83.9	-88.8	2.6	3.11e+01	0	47	104	0	60	1048570
2026-01-18 12:18:45.14	220.51	5.65	-84.3	-88.8	2.5	3.11e+01	0	47	104	0	60	1048570
2026-01-18 12:18:46.15	220.62	5.71	-83.9	-88.8	2.6	3.11e+01	0	47	104	0	60	1048570
2026-01-18 12:18:47.16	220.73	5.77	-84.3	-88.8	2.6	3.11e+01	0	47	104	0	60	1048570
2026-01-18 12:18:48.17	220.84	5.83	-84.3	-88.8	2.1	3.11e+01	0	47	104	0	60	1048570
2026-01-18 12:18:49.18	220.95	5.89	-84.3	-88.8	2.3	3.11e+01	0	47	104	0	60	1048570
2026-01-18 12:18:50.18	221.06	5.95	-83.9	-88.8	2.6	3.11e+01	0	47	104	0	60	1048570
2026-01-18 12:18:51.19	221.17	6.02	-83.9	-88.8	2.5	3.11e+01	0	47	104	0	60	1048570
2026-01-18 12:18:52.20	221.28	6.08	-84.3	-88.8	2.6	3.11e+01	0	47	104	0	60	1048570
2026-01-18 12:18:53.19	221.39	6.14	-83.9	-88.8	2.7	3.11e+01	0	47	104	0	60	1048570
2026-01-18 12:18:54.20	221.51	6.20	-84.3	-88.8	2.7	3.11e+01	0	47	104	0	60	1048570
2026-01-18 12:18:55.20	221.62	6.26	-83.9	-88.8	2.5	3.11e+01	0	47	104	0	60	1048570
2026-01-18 12:18:56.21	221.73	6.33	-83.9	-88.8	2.8	3.11e+01	0	47	104	0	60	1048570
2026-01-18 12:18:57.22	221.85	6.39	-84.3	-88.8	2.7	3.11e+01	0	47	104	0	60	1048570
2026-01-18 12:18:58.23	221.97	6.45	-84.3	-88.8	2.8	3.11e+01	0	47	104	0	60	1048570
2026-01-18 12:18:59.23	222.08	6.51	-84.3	-88.8	2.8	3.11e+01	0	47	104	0	60	1048570
2026-01-18 12:19:00.23	222.20	6.57	-83.5	-88.8	2.7	3.11e+01	0	47	104	0	60	1048570
2026-01-18 12:19:01.24	222.31	6.64	-84.3	-88.8	2.6	3.11e+01	0	47	104	0	60	1048570
2026-01-18 12:19:02.24	222.43	6.70	-83.9	-88.8	2.7	3.11e+01	0	47	104	0	60	1048570
2026-01-18 12:19:03.25	222.55	6.76	-83.9	-88.8	2.7	3.11e+01	0	47	104	0	60	1048570
2026-01-18 12:19:04.26	222.67	6.83	-84.3	-88.8	2.5	3.11e+01	0	47	104	0	60	1048575
2026-01-18 12:19:05.27	222.79	6.89	-83.9	-88.8	2.5	3.11e+01	0	47	104	0	60	1048575
2026-01-18 12:19:06.28	222.91	6.95	-83.9	-88.8	2.6	3.11e+01	0	47	104	0	60	1048575
2026-01-18 12:19:07.28	223.02	7.01	-84.3	-88.8	2.3	3.11e+01	0	47	104	0	60	1048575
2026-01-18 12:19:08.29	223.15	7.08	-84.3	-88.8	2.5	3.11e+01	0	47	104	0	60	1048575
2026-01-18 12:19:09.30	223.27	7.14	-83.9	-88.8	2.4	3.11e+01	0	47	104	0	60	1048575
2026-01-18 12:19:10.31	223.39	7.20	-83.9	-88.8	2.6	3.11e+01	0	47	104	0	60	1048575
2026-01-18 12:19:11.32	223.51	7.27	-84.3	-88.8	2.4	3.11e+01	0	47	104	0	60	1048575
2026-01-18 12:19:12.32	223.63	7.33	-84.3	-88.8	2.4	3.11e+01	0	47	104	0	60	1048575
2026-01-18 12:19:13.33	223.76	7.39	-84.3	-88.8	2.4	3.11e+01	0	47	104	0	60	1048575
2026-01-18 12:19:14.34	223.88	7.46	-83.9	-88.8	2.6	3.11e+01	0	47	104	0	60	1048575
2026-01-18 12:19:15.34	224.00	7.52	-84.3	-88.8	2.7	3.11e+01	0	47	104	0	60	1048575
2026-01-18 12:19:16.35	224.13	7.58	-84.3	-88.8	2.7	3.11e+01	0	47	104	0	60	1048575
2026-01-18 12:19:17.36	224.26	7.65	-84.3	-88.8	2.6	3.11e+01	0	47	104	0	60	1048575
2026-01-18 12:19:18.36	224.38	7.71	-84.3	-88.8	2.6	3.11e+01	0	47	104	0	60	1048575
2026-01-18 12:19:19.37	224.51	7.78	-83.9	-88.8	2.6	3.11e+01	0	47	104	0	60	1048575
2026-01-18 12:19:20.38	224.64	7.84	-84.3	-88.8	2.5	3.11e+01	0	47	104	0	60	1048575
2026-01-18 12:19:21.39	224.76	7.90	-83.9	-88.8	2.6	3.11e+01	0	47	104	0	60	1048575
2026-01-18 12:19:22.39	224.89	7.97	-84.3	-88.8	2.5	3.11e+01	0	47	104	0	60	1048575
2026-01-18 12:19:23.40	225.02	8.03	-83.9	-88.8	2.6	3.11e+01	0	47	104	0	60	1048575
2026-01-18 12:19:24.41	225.15	8.10	-84.3	-88.8	2.6	3.11e+01	0	47	104	0	60	1048575
2026-01-18 12:19:25.42	225.28	8.16	-84.3	-88.8	2.7	3.11e+01	0	47	104	0	60	1048575
2026-01-18 12:19:26.43	225.41	8.22	-84.3	-88.8	2.6	3.11e+01	0	47	104	0	60	1048575
2026-01-18 12:19:27.43	225.54	8.29	-84.3	-88.8	2.7	3.11e+01	0	47	104	0	60	1048575
2026-01-18 12:19:28.44	225.68	8.35	-83.9	-88.8	2.5	3.11e+01	0	47	104	0	60	1048575
2026-01-18 12:19:29.44	225.81	8.42	-84.3	-88.8	2.7	3.11e+01	0	47	104	0	60	1048575
2026-01-18 12:19:30.45	225.94	8.48	-84.3	-88.8	2.8	3.11e+01	0	47	104	0	60	1048575
2026-01-18 12:19:31.46	226.08	8.55	-83.9	-88.8	2.6	3.11e+01	0	47	104	0	60	1048575
2026-01-18 12:19:32.47	226.21	8.61	-84.3	-88.8	2.7	3.11e+01	0	47	104	0	60	1048575
2026-01-18 12:19:33.47	226.35	8.68	-83.9	-88.8	2.7	3.11e+01	0	47	104	0	60	1048575
2026-01-18 12:19:34.48	226.48	8.74	-84.3	-88.8	2.5	3.11e+01	0	47	104	0	60	1048575
2026-01-18 12:19:35.48	226.62	8.81	-84.3	-88.8	2.5	3.11e+01	0	47	104	0	60	1048575
2026-01-18 12:19:36.49	226.75	8.87	-84.3	-88.8	2.4	3.11e+01	0	47	104	0	60	1048575
2026-01-18 12:19:37.50	226.89	8.94	-83.9	-88.8	2.4	3.11e+01	0	47	104	0	60	1048575
2026-01-18 12:19:38.51	227.03	9.00	-83.9	-88.8	2.5	3.11e+01	0	47	104	0	60	1048575
2026-01-18 12:19:39.52	227.17	9.07	-83.9	-88.8	2.6	3.11e+01	0	47	104	0	60	1048575
2026-01-18 12:19:40.52	227.31	9.13	-84.3	-88.8	2.4	3.11e+01	0	47	104	0	60	1048575
2026-01-18 12:19:41.53	227.45	9.20	-84.3	-88.8	2.5	3.11e+01	0	48	104	0	60	1048575
2026-01-18 12:19:42.54	227.59	9.26	-83.9	-88.8	2.6	3.11e+01	0	47	104	0	60	1048575
2026-01-18 12:19:43.55	227.73	9.33	-83.9	-88.8	2.5	3.11e+01	0	47	104	0	60	1048575
2026-01-18 12:19:44.55	227.87	9.39	-84.3	-88.8	2.6	3.11e+01	0	47	104	0	60	1048575
2026-01-18 12:19:45.56	228.02	9.46	-83.9	-88.8	2.6	3.11e+01	0	47	104	0	60	1048575
2026-01-18 12:19:46.56	228.16	9.52	-83.9	-88.8	2.8	3.11e+01	0	47	104	0	60	1048575
2026-01-18 12:19:47.57	228.31	9.59	-83.5	-88.8	2.6	3.11e+01	0	47	104	0	60	1048575
2026-01-18 12:19:48.58	228.45	9.65	-84.3	-88.8	2.8	3.11e+01	0	47	104	0	60	1048575
2026-01-18 12:19:49.58	228.60	9.72	-84.3	-88.8	2.9	3.11e+01	0	47	104	0	60	1048575
2026-01-18 12:19:50.59	228.74	9.78	-84.3	-88.8	2.8	3.11e+01	0	48	104	0	60	1048575
2026-01-18 12:19:51.60	228.89	9.85	-83.9	-88.8	2.6	3.11e+01	0	47	104	0	60	1048575
2026-01-18 12:19:52.61	229.04	9.92	-83.9	-88.8	2.7	3.11e+01	0	48	104	0	60	1048575
2026-01-18 12:19:53.62	229.19	9.98	-83.9	-88.8	2.1	3.11e+01	0	47	104	0	60	1048575
2026-01-18 12:19:54.62	229.33	10.05	-84.3	-88.8	2.5	3.11e+01	0	47	104	0	60	1048575
2026-01-18 12:19:55.63	229.48	10.11	-84.3	-88.8	2.8	3.11e+01	0	47	104	0	60	1048575
2026-01-18 12:19:56.64	229.64	10.18	-84.3	-88.8	2.6	3.11e+01	0	47	104	0	60	1048575
2026-01-18 12:19:57.64	229.79	10.24	-83.9	-88.8	2.6	3.11e+01	0	47	104	0	60	1048575
2026-01-18 12:19:58.65	229.94	10.31	-84.3	-88.8	2.5	3.11e+01	0	47	104	0	60	1048575
2026-01-18 12:19:59.66	230.09	10.38	-84.3	-88.8	2.3	3.11e+01	0	47	104	0	60	1048575
2026-01-18 12:20:00.67	230.25	10.44	-83.9	-88.8	2.5	3.11e+01	0	47	104	0	60	1048575
2026-01-18 12:20:01.68	230.40	10.51	-83.9	-88.8	2.7	3.11e+01	0	47	104	0	60	1048575
2026-01-18 12:20:02.68	230.55	10.57	-83.9	-88.8	2.7	3.11e+01	0	47	104	0	60	1048575
2026-01-18 12:20:03.69	230.71	10.64	-84.3	-88.8	2.5	3.11e+01	0	47	104	0	60	1048575
2026-01-18 12:20:04.70	230.87	10.71	-84.3	-88.8	2.6	3.11e+01	0	47	104	0	60	1048575
2026-01-18 12:20:05.71	231.02	10.77	-84.3	-88.8	2.7	3.11e+01	0	47	104	0	60	1048575
2026-01-18 12:20:06.71	231.18	10.84	-83.9	-88.8	2.7	3.11e+01	0	47	104	0	60	1048575
2026-01-18 12:20:07.72	231.34	10.90	-84.3	-88.8	2.6	3.11e+01	0	47	104	0	60	1048575
2026-01-18 12:20:08.73	231.50	10.97	-84.3	-88.8	2.8	3.11e+01	0	47	104	0	60	1048575
2026-01-18 12:20:09.74	231.66	11.04	-84.3	-88.8	2.6	3.11e+01	0	47	104	0	60	1048575
2026-01-18 12:20:10.75	231.82	11.10	-83.9	-88.8	2.6	3.11e+01	0	47	104	0	60	1048575
2026-01-18 12:20:11.76	231.98	11.17	-83.9	-88.8	2.7	3.11e+01	0	47	104	0	60	1048575
2026-01-18 12:20:12.77	232.15	11.23	-84.3	-88.8	2.5	3.11e+01	0	47	104	0	60	1048575
2026-01-18 12:20:13.77	232.31	11.30	-84.3	-88.8	2.5	3.11e+01	0	48	104	0	60	1048575
2026-01-18 12:20:14.78	232.47	11.37	-84.3	-88.8	2.4	3.11e+01	0	47	104	0	60	1048575
2026-01-18 12:20:15.79	232.64	11.43	-83.9	-88.8	2.6	3.11e+01	0	47	104	0	60	1048575
2026-01-18 12:20:16.80	232.80	11.50	-83.9	-88.8	2.5	3.11e+01	0	47	104	0	60	1048575
2026-01-18 12:20:17.80	232.97	11.56	-84.3	-88.8	2.7	3.11e+01	0	47	104	0	60	1048575
2026-01-18 12:20:18.81	233.14	11.63	-84.3	-88.8	2.4	3.11e+01	0	47	104	0	60	1048575
2026-01-18 12:20:19.81	233.30	11.70	-83.9	-88.8	2.7	3.11e+01	0	48	104	0	60	1048575
2026-01-18 12:20:20.82	233.47	11.76	-83.9	-88.8	2.7	3.11e+01	0	47	104	0	60	1048575
2026-01-18 12:20:21.83	233.64	11.83	-84.3	-88.8	2.6	3.11e+01	0	47	104	0	60	1048575
2026-01-18 12:20:22.83	233.81	11.89	-84.3	-88.8	2.8	3.11e+01	0	47	104	0	60	1048575
2026-01-18 12:20:23.83	233.98	11.96	-84.3	-88.8	2.6	3.11e+01	0	47	104	0	60	1048575
2026-01-18 12:20:24.84	234.15	12.03	-84.3	-88.8	2.6	3.11e+01	0	47	104	0	60	1048575
2026-01-18 12:20:25.85	234.32	12.09	-83.9	-88.8	2.4	3.11e+01	0	47	104	0	60	1048575
2026-01-18 12:20:26.86	234.50	12.16	-84.3	-88.8	2.5	3.11e+01	0	47	104	0	60	1048575
2026-01-18 12:20:27.86	234.67	12.22	-84.3	-88.8	2.3	3.11e+01	0	47	104	0	60	1048575
2026-01-18 12:20:28.87	234.85	12.29	-84.3	-88.8	2.5	3.11e+01	0	47	104	0	60	1048575
2026-01-18 12:20:29.87	235.02	12.36	-84.3	-88.8	2.6	3.11e+01	0	47	104	0	60	1048575
2026-01-18 12:20:30.88	235.20	12.42	-83.9	-88.8	2.5	3.11e+01	0	47	104	0	60	1048575
2026-01-18 12:20:31.89	235.38	12.49	-84.3	-88.8	2.5	3.11e+01	0	47	104	0	60	1048575
2026-01-18 12:20:32.90	235.55	12.55	-83.9	-88.8	2.3	3.11e+01	0	47	104	0	60	1048575
2026-01-18 12:20:33.91	235.73	12.62	-84.3	-88.8	2.5	3.11e+01	0	47	104	0	60	1048575
2026-01-18 12:20:34.92	235.91	12.68	-83.9	-88.8	2.6	3.11e+01	0	47	104	0	60	1048575
2026-01-18 12:20:35.92	236.09	12.75	-83.9	-88.8	2.5	3.11e+01	0	47	104	0	60	1048575
2026-01-18 12:20:36.91	236.27	12.81	-84.3	-88.8	2.4	3.11e+01	0	47	104	0	60	1048575
2026-01-18 12:20:37.91	236.45	12.88	-84.3	-88.8	2.6	3.11e+01	0	47	104	0	60	1048575
2026-01-18 12:20:38.92	236.64	12.94	-84.3	-88.8	2.7	3.11e+01	0	47	104	0	60	1048575
2026-01-18 12:20:39.93	236.82	13.01	-83.9	-88.8	2.8	3.11e+01	0	47	104	0	60	1048575
2026-01-18 12:20:40.94	237.01	13.08	-84.3	-88.8	2.6	3.11e+01	0	47	104	0	60	1048575
2026-01-18 12:20:41.95	237.19	13.14	-83.9	-88.8	2.7	3.11e+01	0	47	104	0	60	1048575
2026-01-18 12:20:42.96	237.38	13.21	-84.3	-88.8	2.6	3.11e+01	0	47	104	0	60	1048575
2026-01-18 12:20:43.96	237.57	13.27	-83.9	-88.8	2.4	3.11e+01	0	47	104	0	60	1048575
2026-01-18 12:20:44.97	237.75	13.34	-83.9	-88.8	2.5	3.11e+01	0	47	104	0	60	1048575
2026-01-18 12:20:45.98	237.94	13.40	-84.3	-88.8	2.4	3.11e+01	0	47	104	0	60	1048575
2026-01-18 12:20:46.99	238.14	13.47	-84.3	-88.8	2.4	3.11e+01	0	47	104	0	60	1048575
2026-01-18 12:20:48.00	238.33	13.53	-84.3	-88.8	2.3	3.11e+01	0	47	104	0	60	1048575
2026-01-18 12:20:49.01	238.52	13.60	-83.9	-88.8	2.4	3.11e+01	0	47	104	0	60	1048575
2026-01-18 12:20:50.01	238.71	13.66	-83.9	-88.8	2.4	3.11e+01	0	47	104	0	60	1048575
2026-01-18 12:20:51.02	238.90	13.73	-84.3	-88.8	2.5	3.11e+01	0	47	104	0	60	1048575
2026-01-18 12:20:52.02	239.10	13.79	-84.3	-88.8	2.5	3.11e+01	0	47	104	0	60	1048575
2026-01-18 12:20:53.03	239.29	13.85	-83.9	-88.8	2.5	3.11e+01	0	47	104	0	60	1048575
2026-01-18 12:20:54.04	239.49	13.92	-83.9	-88.8	2.6	3.11e+01	0	48	104	0	60	1048575
2026-01-18 12:20:55.04	239.69	13.98	-84.3	-88.8	2.5	3.11e+01	0	47	104	0	60	1048575
2026-01-18 12:20:56.05	239.88	14.05	-84.3	-88.8	2.4	3.11e+01	0	47	104	0	60	1048575
2026-01-18 12:20:57.06	240.08	14.11	-84.3	-88.8	2.7	3.11e+01	0	47	104	0	60	1048575
2026-01-18 12:20:58.07	240.28	14.17	-84.3	-88.8	2.5	3.11e+01	0	47	104	0	60	1048575
2026-01-18 12:20:59.08	240.49	14.24	-83.9	-88.8	2.8	3.11e+01	0	47	104	0	60	1048575
2026-01-18 12:21:00.08	240.69	14.30	-84.3	-88.8	2.5	3.11e+01	0	47	104	0	60	1048575
2026-01-18 12:21:01.09	240.89	14.36	-84.3	-88.8	2.8	3.11e+01	0	47	104	0	60	1048575
2026-01-18 12:21:02.10	241.09	14.43	-84.3	-88.8	2.3	3.11e+01	0	47	104	0	60	1048575
2026-01-18 12:21:03.11	241.30	14.49	-83.9	-88.8	2.3	3.11e+01	0	48	104	0	60	1048575
2026-01-18 12:21:04.12	241.50	14.55	-83.9	-88.8	2.6	3.11e+01	0	47	104	0	60	1048575
2026-01-18 12:21:05.12	241.71	14.62	-84.3	-88.8	2.6	3.11e+01	0	47	104	0	60	1048575
2026-01-18 12:21:06.13	241.91	14.68	-84.3	-88.8	2.6	3.11e+01	0	47	104	0	60	1048575
2026-01-18 12:21:07.14	242.12	14.74	-84.3	-88.8	2.6	3.11e+01	0	47	104	0	60	1048575
2026-01-18 12:21:08.15	242.33	14.81	-83.9	-88.8	2.6	3.11e+01	0	47	104	0	60	1048575
2026-01-18 12:21:09.15	242.54	14.87	-83.9	-88.8	2.5	3.11e+01	0	47	104	0	60	1048575
2026-01-18 12:21:10.16	242.75	14.93	-84.3	-88.8	2.7	3.11e+01	0	47	104	0	60	1048575
2026-01-18 12:21:11.17	242.96	14.99	-84.3	-88.8	2.5	3.11e+01	0	47	104	0	60	1048575
2026-01-18 12:21:12.18	243.18	15.05	-84.3	-88.8	2.6	3.11e+01	0	47	104	0	60	1048575
2026-01-18 12:21:13.19	243.39	15.11	-83.9	-88.8	2.5	3.11e+01	0	47	104	0	60	1048575
2026-01-18 12:21:14.20	243.61	15.18	-84.3	-88.8	2.6	3.11e+01	0	47	104	0	60	1048575
2026-01-18 12:21:15.20	243.82	15.24	-84.3	-88.8	2.5	3.11e+01	0	47	104	0	60	1048575
2026-01-18 12:21:16.21	244.04	15.30	-84.3	-88.8	2.5	3.11e+01	0	47	104	0	60	1048575
2026-01-18 12:21:17.22	244.25	15.36	-84.3	-88.8	2.5	3.11e+01	0	47	104	0	60	1048575
2026-01-18 12:21:18.23	244.47	15.42	-83.9	-88.8	2.5	3.11e+01	0	47	104	0	60	1048575
2026-01-18 12:21:19.24	244.69	15.48	-83.9	-88.8	2.5	3.11e+01	0	47	104	0	60	1048575
2026-01-18 12:21:20.24	244.91	15.54	-84.3	-88.8	2.4	3.11e+01	0	47	104	0	60	1048575
2026-01-18 12:21:21.25	245.13	15.60	-84.3	-88.8	2.2	3.11e+01	0	47	104	0	60	1048575
2026-01-18 12:21:22.25	245.35	15.66	-83.9	-88.8	2.4	3.11e+01	0	47	104	0	60	1048575
2026-01-18 12:21:23.26	245.57	15.72	-83.9	-88.8	2.5	3.11e+01	0	48	104	0	60	1048575
2026-01-18 12:21:24.26	245.79	15.78	-84.3	-88.8	2.5	3.11e+01	0	48	104	0	60	1048575
2026-01-18 12:21:25.26	246.02	15.84	-84.3	-88.8	2.5	3.11e+01	0	48	104	0	60	1048575
2026-01-18 12:21:26.27	246.24	15.90	-83.9	-88.8	2.6	3.11e+01	0	47	104	0	60	1048575
2026-01-18 12:21:27.28	246.47	15.95	-83.9	-88.8	2.6	3.11e+01	0	47	104	0	60	1048575
2026-01-18 12:21:28.28	246.70	16.01	-83.9	-88.8	2.8	3.11e+01	0	47	104	0	60	1048575
2026-01-18 12:21:29.29	246.92	16.07	-84.3	-88.8	2.6	3.11e+01	0	48	104	0	60	1048575
2026-01-18 12:21:30.30	247.15	16.13	-84.3	-88.8	2.8	3.11e+01	0	47	104	0	60	1048575
2026-01-18 12:21:31.30	247.38	16.18	-84.3	-88.8	2.5	3.11e+01	0	47	104	0	60	1048575
2026-01-18 12:21:32.31	247.61	16.24	-83.9	-88.8	2.5	3.11e+01	0	47	104	0	60	1048575
2026-01-18 12:21:33.31	247.84	16.30	-83.9	-88.8	2.4	3.11e+01	0	47	104	0	60	1048575
2026-01-18 12:21:34.32	248.08	16.36	-84.3	-88.8	2.6	3.11e+01	0	47	104	0	60	1048575
2026-01-18 12:21:35.33	248.31	16.41	-84.3	-88.8	2.7	3.11e+01	0	47	104	0	60	1048575
2026-01-18 12:21:36.33	248.54	16.47	-84.3	-88.8	2.7	3.11e+01	0	47	104	0	60	1048575
2026-01-18 12:21:37.34	248.78	16.52	-83.9	-88.8	2.4	3.11e+01	0	47	104	0	60	1048575
2026-01-18 12:21:38.34	249.01	16.58	-84.3	-88.8	2.4	3.11e+01	0	47	104	0	60	1048575
2026-01-18 12:21:39.35	249.25	16.63	-84.3	-88.8	2.7	3.11e+01	0	48	104	0	60	1048575
2026-01-18 12:21:40.35	249.49	16.69	-84.3	-88.8	2.6	3.11e+01	0	47	104	0	60	1048575
2026-01-18 12:21:41.36	249.73	16.74	-83.9	-88.8	2.5	3.11e+01	0	47	104	0	60	1048575
2026-01-18 12:21:42.36	249.96	16.80	-83.9	-88.8	2.7	3.11e+01	0	47	104	0	60	1048575
2026-01-18 12:21:43.36	250.20	16.85	-84.3	-88.8	2.5	3.11e+01	0	47	104	0	60	1048575
2026-01-18 12:21:44.36	250.44	16.90	-84.3	-88.8	2.7	3.11e+01	0	47	104	0	60	1048575
2026-01-18 12:21:45.37	250.68	16.96	-84.3	-88.8	2.6	3.11e+01	0	47	104	0	60	1048575
2026-01-18 12:21:46.37	250.93	17.01	-83.9	-88.8	2.4	3.11e+01	0	47	104	0	60	1048575
2026-01-18 12:21:47.38	251.17	17.06	-84.3	-88.8	2.5	3.11e+01	0	47	104	0	60	1048575
2026-01-18 12:21:48.38	251.41	17.11	-84.3	-88.8	2.5	3.11e+01	0	47	104	0	60	1048575
2026-01-18 12:21:49.39	251.66	17.17	-84.3	-88.8	2.5	3.11e+01	0	47	104	0	60	1048575
2026-01-18 12:21:50.39	251.91	17.22	-84.3	-88.8	2.3	3.11e+01	0	47	104	0	60	1048575
2026-01-18 12:21:51.40	252.15	17.27	-83.9	-88.8	2.5	3.11e+01	0	47	104	0	60	1048575
2026-01-18 12:21:52.40	252.40	17.32	-83.9	-88.8	2.7	3.11e+01	0	47	104	0	60	1048575
2026-01-18 12:21:53.41	252.65	17.37	-84.3	-88.8	2.4	3.11e+01	0	47	104	0	60	1048575
2026-01-18 12:21:54.41	252.90	17.42	-84.3	-88.8	2.4	3.11e+01	0	47	104	0	60	1048575
2026-01-18 12:21:55.42	253.15	17.47	-83.9	-88.8	2.4	3.11e+01	0	47	104	0	60	1048575
2026-01-18 12:21:56.42	253.40	17.52	-83.9	-88.8	2.4	3.11e+01	0	47	104	0	60	1048575
2026-01-18 12:21:57.42	253.65	17.57	-84.3	-88.8	2.5	3.11e+01	0	47	104	0	60	1048575
2026-01-18 12:21:58.43	253.91	17.62	-84.3	-88.8	2.5	3.11e+01	0	47	104	0	60	1048575
2026-01-18 12:21:59.44	254.16	17.66	-83.9	-88.8	2.7	3.11e+01	0	47	104	0	60	1048575
2026-01-18 12:22:00.44	254.41	17.71	-83.9	-88.8	2.7	3.11e+01	0	47	104	0	60	1048575
2026-01-18 12:22:01.45	254.67	17.76	-83.9	-88.8	2.5	3.11e+01	0	47	104	0	60	1048575
2026-01-18 12:22:02.45	254.93	17.80	-84.3	-88.8	2.4	3.11e+01	0	47	104	0	60	1048575
2026-01-18 12:22:03.46	255.18	17.85	-84.3	-88.8	2.6	3.11e+01	0	47	104	0	60	1048575
2026-01-18 12:22:04.47	255.44	17.90	-84.3	-88.8	2.4	3.11e+01	0	47	104	0	60	1048575
2026-01-18 12:22:05.48	255.70	17.94	-83.9	-88.8	2.4	3.11e+01	0	47	104	0	60	1048575
2026-01-18 12:22:06.48	255.96	17.99	-83.9	-88.8	2.6	3.11e+01	0	47	104	0	60	1048575
2026-01-18 12:22:07.49	256.22	18.03	-84.3	-88.8	2.7	3.11e+01	0	47	104	0	60	1048575
2026-01-18 12:22:08.50	256.48	18.08	-84.3	-88.8	2.5	3.11e+01	0	47	104	0	60	1048575
2026-01-18 12:22:09.51	256.75	18.12	-84.3	-88.8	2.6	3.11e+01	0	47	104	0	60	1048575
2026-01-18 12:22:10.52	257.01	18.16	-83.9	-88.8	2.5	3.11e+01	0	47	104	0	60	1048575
2026-01-18 12:22:11.52	257.27	18.20	-84.3	-88.8	2.5	3.11e+01	0	47	104	0	60	1048575
2026-01-18 12:22:12.52	257.54	18.25	-84.3	-88.8	2.7	3.11e+01	0	47	104	0	60	1048575
2026-01-18 12:22:13.53	257.80	18.29	-84.3	-88.8	2.5	3.11e+01	0	47	104	0	60	1048575
2026-01-18 12:22:14.54	258.07	18.33	-83.9	-88.8	2.7	3.11e+01	0	47	104	0	60	1048575
2026-01-18 12:22:15.55	258.34	18.37	-83.9	-88.8	2.5	3.11e+01	0	47	104	0	60	1048575
2026-01-18 12:22:16.55	258.60	18.41	-84.3	-88.8	2.5	3.11e+01	0	47	104	0	60	1048575
2026-01-18 12:22:17.56	258.87	18.45	-84.3	-88.8	2.5	3.11e+01	0	47	104	0	60	1048575
2026-01-18 12:22:18.57	259.14	18.49	-84.3	-88.8	2.5	3.11e+01	0	47	104	0	60	1048575
2026-01-18 12:22:19.58	259.41	18.53	-83.9	-88.8	2.7	3.11e+01	0	47	104	0	60	1048575
2026-01-18 12:22:20.59	259.68	18.57	-83.9	-88.8	2.5	3.11e+01	0	47	104	0	60	1048575
2026-01-18 12:22:21.60	259.95	18.60	-84.3	-88.8	2.5	3.11e+01	0	47	104	0	60	1048575
2026-01-18 12:22:22.60	260.22	18.64	-84.3	-88.8	2.5	3.11e+01	0	47	104	0	60	1048575
2026-01-18 12:22:23.61	260.50	18.68	-84.3	-88.8	2.6	3.11e+01	0	47	104	0	60	1048575
2026-01-18 12:22:24.62	260.77	18.71	-83.9	-88.8	2.5	3.11e+01	0	48	104	0	60	1048575
2026-01-18 12:22:25.63	261.05	18.75	-83.9	-88.8	2.6	3.11e+01	0	47	104	0	60	1048575
2026-01-18 12:22:26.64	261.32	18.78	-84.3	-88.8	2.7	3.11e+01	0	47	104	0	60	1048575
2026-01-18 12:22:27.64	261.59	18.82	-84.3	-88.8	2.7	3.11e+01	0	47	104	0	60	1048575
2026-01-18 12:22:28.65	261.87	18.85	-84.3	-88.8	2.5	3.11e+01	0	47	104	0	60	1048575
2026-01-18 12:22:29.66	262.15	18.88	-83.5	-88.8	2.4	3.11e+01	0	48	104	0	60	1048575
2026-01-18 12:22:30.66	262.42	18.91	-84.3	-88.8	2.6	3.11e+01	0	47	104	0	60	1048575
2026-01-18 12:22:31.66	262.70	18.95	-84.3	-88.8	2.6	3.11e+01	0	47	104	0	60	1048575
2026-01-18 12:22:32.67	262.98	18.98	-83.9	-88.8	2.7	3.11e+01	0	48	104	0	60	1048575
2026-01-18 12:22:33.68	263.26	19.01	-83.9	-88.8	2.7	3.11e+01	0	47	104	0	60	1048575
2026-01-18 12:22:34.69	263.54	19.04	-84.3	-88.8	2.5	3.11e+01	0	47	104	0	60	1048575
2026-01-18 12:22:35.70	263.82	19.07	-84.3	-88.8	2.8	3.11e+01	0	47	104	0	60	1048575
2026-01-18 12:22:36.70	264.10	19.10	-84.3	-88.8	2.7	3.11e+01	0	47	104	0	60	1048575
2026-01-18 12:22:37.71	264.38	19.13	-84.3	-88.8	2.7	3.11e+01	0	48	104	0	60	1048575
2026-01-18 12:22:38.72	264.66	19.15	-83.9	-88.8	2.6	3.11e+01	0	47	104	0	60	1048575
2026-01-18 12:22:39.73	264.94	19.18	-83.9	-88.8	2.5	3.11e+01	0	47	104	0	60	1048575
2026-01-18 12:22:40.74	265.23	19.21	-84.3	-88.8	2.5	3.11e+01	0	47	104	0	60	1048575
2026-01-18 12:22:41.74	265.51	19.23	-84.3	-88.8	2.6	3.11e+01	0	47	104	0	60	1048575
2026-01-18 12:22:42.75	265.79	19.26	-83.9	-88.8	2.7	3.11e+01	0	47	104	0	60	1048575
2026-01-18 12:22:43.76	266.08	19.28	-83.9	-88.8	2.5	3.11e+01	0	47	104	0	60	1048575
2026-01-18 12:22:44.77	266.36	19.31	-83.9	-88.8	2.7	3.11e+01	0	47	104	0	60	1048575
2026-01-18 12:22:45.77	266.64	19.33	-84.3	-88.8	2.5	3.11e+01	0	47	104	0	60	1048575
2026-01-18 12:22:46.77	266.93	19.35	-84.3	-88.8	2.6	3.11e+01	0	47	104	0	60	1048575
2026-01-18 12:22:47.78	267.21	19.37	-84.3	-88.8	2.6	3.11e+01	0	48	104	0	60	1048575
2026-01-18 12:22:48.79	267.50	19.39	-83.9	-88.8	2.6	3.11e+01	0	47	104	0	60	1048575
2026-01-18 12:22:49.80	267.79	19.41	-84.3	-88.8	2.8	3.11e+01	0	47	104	0	60	1048575
2026-01-18 12:22:50.80	268.07	19.43	-84.3	-88.8	2.6	3.11e+01	0	47	104	0	60	1048575
2026-01-18 12:22:51.81	268.36	19.45	-84.3	-88.8	2.7	3.11e+01	0	47	104	0	60	1048575
2026-01-18 12:22:52.82	268.65	19.47	-83.9	-88.8	2.7	3.11e+01	0	47	104	0	60	1048575
2026-01-18 12:22:53.83	268.94	19.49	-83.9	-88.8	2.4	3.11e+01	0	47	104	0	60	1048575
2026-01-18 12:22:54.83	269.22	19.51	-84.3	-88.8	2.6	3.11e+01	0	47	104	0	60	1048575
2026-01-18 12:22:55.84	269.51	19.52	-84.3	-88.8	2.5	3.11e+01	0	47	104	0	60	1048575
2026-01-18 12:22:56.84	269.80	19.54	-84.3	-88.8	2.6	3.11e+01	0	47	104	0	60	1048575
2026-01-18 12:22:57.85	270.09	19.56	-83.9	-88.8	2.4	3.11e+01	0	47	104	0	60	1048575
2026-01-18 12:22:58.85	270.38	19.57	-83.9	-88.8	2.5	3.11e+01	0	48	104	0	60	1048575
2026-01-18 12:22:59.86	270.67	19.58	-84.3	-88.8	2.6	3.11e+01	0	47	104	0	60	1048575
2026-01-18 12:23:00.87	270.96	19.60	-84.3	-88.8	2.4	3.11e+01	0	47	104	0	60	1048575
2026-01-18 12:23:01.87	271.25	19.61	-83.9	-88.8	2.4	3.11e+01	0	48	104	0	60	1048575
2026-01-18 12:23:02.88	271.54	19.62	-83.9	-88.8	2.4	3.11e+01	0	48	104	0	60	1048575
2026-01-18 12:23:03.88	271.83	19.63	-84.3	-88.8	2.5	3.11e+01	0	47	104	0	60	1048575
2026-01-18 12:23:04.89	272.12	19.64	-84.3	-88.8	2.6	3.11e+01	0	48	104	0	60	1048575
2026-01-18 12:23:05.89	272.41	19.65	-83.9	-88.8	2.7	3.11e+01	0	47	104	0	60	1048575
2026-01-18 12:23:06.90	272.70	19.66	-83.9	-88.8	2.6	3.11e+01	0	47	104	0	60	1048575
2026-01-18 12:23:07.90	272.99	19.67	-83.9	-88.8	2.6	3.11e+01	0	47	104	0	60	1048575
2026-01-18 12:23:08.91	273.28	19.68	-84.3	-88.8	2.5	3.11e+01	0	48	104	0	60	1048575
2026-01-18 12:23:09.92	273.57	19.68	-84.3	-88.8	2.7	3.11e+01	0	48	104	0	60	1048575
2026-01-18 12:23:10.92	273.86	19.69	-84.3	-88.8	2.0	3.11e+01	0	47	104	0	60	1048575
2026-01-18 12:23:11.93	274.16	19.70	-83.9	-88.8	2.5	3.11e+01	0	47	104	0	60	1048575
2026-01-18 12:23:12.94	274.45	19.70	-83.9	-88.8	2.6	3.11e+01	0	47	104	0	60	1048575
2026-01-18 12:23:13.94	274.74	19.71	-84.3	-88.8	2.6	3.11e+01	0	47	104	0	60	1048575
2026-01-18 12:23:14.95	275.03	19.71	-84.3	-88.8	2.7	3.11e+01	0	47	104	0	60	1048575
2026-01-18 12:23:15.96	275.33	19.71	-84.3	-88.8	2.7	3.11e+01	0	47	104	0	60	1048575
2026-01-18 12:23:16.97	275.62	19.71	-83.9	-88.8	2.5	3.11e+01	0	47	104	0	60	1048575
2026-01-18 12:23:17.97	275.91	19.71	-84.3	-88.8	2.5	3.11e+01	0	47	104	0	60	1048575
2026-01-18 12:23:18.98	276.20	19.72	-84.3	-88.8	2.6	3.11e+01	0	47	104	0	60	1048575
2026-01-18 12:23:19.98	276.49	19.72	-84.3	-88.8	2.5	3.11e+01	0	47	104	0	60	1048575
2026-01-18 12:23:20.99	276.79	19.71	-84.3	-88.8	2.6	3.11e+01	0	47	104	0	60	1048575
2026-01-18 12:23:21.99	277.08	19.71	-83.9	-88.8	2.6	3.11e+01	0	47	104	0	60	1048575
2026-01-18 12:23:23.00	277.37	19.71	-84.3	-88.8	2.6	3.11e+01	0	47	104	0	60	1048575
2026-01-18 12:23:24.00	277.66	19.71	-84.3	-88.8	2.8	3.11e+01	0	47	104	0	60	1048575
2026-01-18 12:23:25.01	277.95	19.70	-84.3	-88.8	2.8	3.11e+01	0	47	104	0	60	1048575
2026-01-18 12:23:26.01	278.24	19.70	-83.9	-88.8	2.7	3.11e+01	0	47	104	0	60	1048575
2026-01-18 12:23:27.02	278.53	19.69	-83.9	-88.8	2.7	3.11e+01	0	47	104	0	60	1048575
2026-01-18 12:23:28.02	278.82	19.69	-84.3	-88.8	2.7	3.11e+01	0	47	104	0	60	1048575
2026-01-18 12:23:29.03	279.12	19.68	-84.3	-88.8	2.5	3.11e+01	0	47	104	0	60	1048575
2026-01-18 12:23:30.04	279.41	19.68	-84.3	-88.8	2.6	3.11e+01	0	47	104	0	60	1048575
2026-01-18 12:23:31.04	279.70	19.67	-83.9	-88.8	2.6	3.11e+01	0	47	104	0	60	1048575
2026-01-18 12:23:32.04	279.99	19.66	-83.9	-88.8	2.6	3.11e+01	0	47	104	0	60	1048575
2026-01-18 12:23:33.05	280.28	19.65	-84.3	-88.8	2.5	3.11e+01	0	47	104	0	60	1048575
2026-01-18 12:23:34.06	280.57	19.64	-84.3	-88.8	2.5	3.11e+01	0	47	104	0	60	1048575
2026-01-18 12:23:35.06	280.86	19.63	-84.3	-88.8	2.3	3.11e+01	0	48	104	0	60	1048575
2026-01-18 12:23:36.07	281.15	19.62	-83.9	-88.8	2.4	3.11e+01	0	48	104	0	60	1048575
2026-01-18 12:23:37.08	281.44	19.61	-84.3	-88.8	2.6	3.11e+01	0	48	104	0	60	1048575
2026-01-18 12:23:38.09	281.73	19.59	-84.3	-88.8	2.4	3.11e+01	0	47	104	0	60	1048575
2026-01-18 12:23:39.09	282.02	19.58	-84.3	-88.8	2.5	3.11e+01	0	47	104	0	60	1048575
2026-01-18 12:23:40.10	282.31	19.57	-83.9	-88.8	2.6	3.11e+01	0	48	104	0	60	1048575
2026-01-18 12:23:41.11	282.60	19.55	-83.9	-88.8	2.6	3.11e+01	0	47	104	0	60	1048575
2026-01-18 12:23:42.11	282.89	19.54	-83.9	-88.8	2.3	3.11e+01	0	48	104	0	60	1048575
2026-01-18 12:23:43.12	283.18	19.52	-84.3	-88.8	2.4	3.11e+01	0	47	104	0	60	1048575
2026-01-18 12:23:44.13	283.46	19.50	-84.3	-88.8	2.7	3.11e+01	0	48	104	0	60	1048575
2026-01-18 12:23:45.14	283.75	19.49	-83.9	-88.8	2.5	3.11e+01	0	47	104	0	60	1048575
2026-01-18 12:23:46.14	284.04	19.47	-83.9	-88.8	2.8	3.11e+01	0	47	104	0	60	1048575
2026-01-18 12:23:47.15	284.33	19.45	-84.3	-88.8	2.6	3.11e+01	0	47	104	0	60	1048575
2026-01-18 12:23:48.16	284.61	19.43	-84.3	-88.8	2.7	3.11e+01	0	47	104	0	60	1048575
2026-01-18 12:23:49.17	284.90	19.41	-84.3	-88.8	2.1	3.11e+01	0	47	104	0	60	1048575
2026-01-18 12:23:50.18	285.19	19.39	-83.9	-88.8	2.6	3.11e+01	0	47	104	0	60	1048575
2026-01-18 12:23:51.18	285.47	19.37	-84.3	-88.8	2.6	3.11e+01	0	47	104	0	60	1048575
2026-01-18 12:23:52.19	285.76	19.35	-84.3	-88.8	2.5	3.11e+01	0	47	104	0	60	1048575
2026-01-18 12:23:53.20	286.04	19.32	-84.3	-88.8	2.5	3.11e+01	0	47	104	0	60	1048575
2026-01-18 12:23:54.21	286.33	19.30	-83.9	-88.8	2.5	3.11e+01	0	47	104	0	60	1048575
2026-01-18 12:23:55.21	286.61	19.28	-83.9	-88.8	2.5	3.11e+01	0	47	104	0	60	1048575
2026-01-18 12:23:56.21	286.89	19.25	-84.3	-88.8	2.7	3.11e+01	0	47	104	0	60	1048575
2026-01-18 12:23:57.22	287.17	19.23	-84.3	-88.8	2.6	3.11e+01	0	47	104	0	60	1048575
2026-01-18 12:23:58.23	287.46	19.20	-84.3	-88.8	2.6	3.11e+01	0	47	104	0	60	1048575
2026-01-18 12:23:59.23	287.74	19.17	-83.5	-88.8	2.5	3.11e+01	0	48	104	0	60	1048575
2026-01-18 12:24:00.24	288.02	19.15	-83.5	-88.8	2.5	3.11e+01	0	47	104	0	60	1048575
2026-01-18 12:24:01.24	288.30	19.12	-84.3	-88.8	2.7	3.11e+01	0	47	104	0	60	1048575
2026-01-18 12:24:02.24	288.58	19.09	-84.3	-88.8	2.5	3.11e+01	0	47	104	0	60	1048575
2026-01-18 12:24:03.25	288.86	19.06	-84.3	-88.8	2.6	3.11e+01	0	47	104	0	60	1048575
2026-01-18 12:24:04.26	289.14	19.03	-83.9	-88.8	2.7	3.11e+01	0	47	104	0	60	1048575
2026-01-18 12:24:05.26	289.41	19.00	-83.9	-88.8	2.6	3.11e+01	0	47	104	0	60	1048575
2026-01-18 12:24:06.26	289.69	18.97	-83.9	-88.8	2.5	3.11e+01	0	47	104	0	60	1048575
2026-01-18 12:24:07.27	289.97	18.94	-84.3	-88.8	2.4	3.11e+01	0	48	104	0	60	1048575
2026-01-18 12:24:08.28	290.24	18.91	-84.3	-88.8	2.5	3.11e+01	0	47	104	0	60	1048575
2026-01-18 12:24:09.29	290.52	18.88	-83.9	-88.8	2.5	3.11e+01	0	47	104	0	60	1048575
2026-01-18 12:24:10.29	290.80	18.84	-83.9	-88.8	2.6	3.11e+01	0	47	104	0	60	1048575
2026-01-18 12:24:11.29	291.07	18.81	-84.3	-88.8	2.3	3.11e+01	0	47	104	0	60	1048575
2026-01-18 12:24:12.30	291.34	18.78	-84.3	-88.8	2.7	3.11e+01	0	47	104	0	60	1048575
2026-01-18 12:24:13.31	291.62	18.74	-83.9	-88.8	2.5	3.11e+01	0	47	104	0	60	1048575
2026-01-18 12:24:14.32	291.89	18.71	-83.9	-88.8	2.6	3.11e+01	0	47	104	0	60	1048575
2026-01-18 12:24:15.32	292.16	18.67	-84.3	-88.8	2.4	3.11e+01	0	47	104	0	60	1048575
2026-01-18 12:24:16.33	292.43	18.63	-84.3	-88.8	2.6	3.11e+01	0	47	104	0	60	1048575
2026-01-18 12:24:17.34	292.71	18.60	-84.3	-88.8	2.5	3.11e+01	0	47	104	0	60	1048575
2026-01-18 12:24:18.35	292.98	18.56	-84.3	-88.8	2.7	3.11e+01	0	47	104	0	60	1048575
2026-01-18 12:24:19.36	293.25	18.52	-83.9	-88.8	2.6	3.11e+01	0	47	104	0	60	1048575
2026-01-18 12:24:20.37	293.52	18.48	-84.3	-88.8	2.7	3.11e+01	0	47	104	0	60	1048575
2026-01-18 12:24:21.37	293.78	18.44	-83.9	-88.8	2.5	3.11e+01	0	47	104	0	60	1048575
2026-01-18 12:24:22.38	294.05	18.40	-84.3	-88.8	2.4	3.11e+01	0	47	104	0	60	1048575
2026-01-18 12:24:23.38	294.32	18.36	-83.9	-88.8	2.5	3.11e+01	0	47	104	0	60	1048575
2026-01-18 12:24:24.39	294.58	18.32	-84.3	-88.8	2.5	3.11e+01	0	47	104	0	60	1048575
2026-01-18 12:24:25.40	294.85	18.28	-84.3	-88.8	2.6	3.11e+01	0	47	104	0	60	1048575
2026-01-18 12:24:26.41	295.11	18.24	-84.3	-88.8	2.4	3.11e+01	0	47	104	0	60	1048575
2026-01-18 12:24:27.42	295.38	18.20	-84.3	-88.8	2.6	3.11e+01	0	47	104	0	60	1048575
2026-01-18 12:24:28.42	295.64	18.16	-83.9	-88.8	2.5	3.11e+01	0	47	104	0	60	1048575
2026-01-18 12:24:29.43	295.90	18.11	-84.3	-88.8	2.6	3.11e+01	0	47	104	0	60	1048575
2026-01-18 12:24:30.44	296.16	18.07	-84.3	-88.8	2.7	3.11e+01	0	47	104	0	60	1048575
2026-01-18 12:24:31.44	296.42	18.03	-84.3	-88.8	2.8	3.11e+01	0	47	104	0	60	1048575
2026-01-18 12:24:32.45	296.68	17.98	-83.9	-88.8	2.6	3.11e+01	0	47	104	0	60	1048575
2026-01-18 12:24:33.46	296.94	17.94	-83.5	-88.8	2.7	3.11e+01	0	47	104	0	60	1048575
2026-01-18 12:24:34.47	297.20	17.89	-84.3	-88.8	2.5	3.11e+01	0	47	104	0	60	1048575
2026-01-18 12:24:35.48	297.46	17.85	-84.3	-88.8	2.7	3.11e+01	0	47	104	0	60	1048575
2026-01-18 12:24:36.49	297.72	17.80	-84.3	-88.8	2.6	3.11e+01	0	47	104	0	60	1048575
2026-01-18 12:24:37.49	297.97	17.75	-84.3	-88.8	2.5	3.11e+01	0	47	104	0	60	1048575
2026-01-18 12:24:38.49	298.22	17.71	-83.9	-88.8	2.5	3.11e+01	0	47	104	0	60	1048575
2026-01-18 12:24:39.50	298.48	17.66	-83.9	-88.8	2.5	3.11e+01	0	47	104	0	60	1048575
2026-01-18 12:24:40.51	298.73	17.61	-84.3	-88.8	2.4	3.11e+01	0	47	104	0	60	1048575
2026-01-18 12:24:41.52	298.99	17.56	-84.3	-88.8	2.5	3.11e+01	0	47	104	0	60	1048575
2026-01-18 12:24:42.52	299.24	17.51	-83.9	-88.8	2.5	3.11e+01	0	48	104	0	60	1048575
2026-01-18 12:24:43.53	299.49	17.46	-84.3	-88.8	2.5	3.11e+01	0	47	104	0	60	1048575
2026-01-18 12:24:44.54	299.74	17.42	-84.3	-88.8	2.6	3.11e+01	0	47	104	0	60	1048575
2026-01-18 12:24:45.55	299.99	17.37	-84.3	-88.8	2.6	3.11e+01	0	47	104	0	60	1048575
2026-01-18 12:24:46.56	300.24	17.32	-83.9	-88.8	2.6	3.11e+01	0	47	104	0	60	1048575
2026-01-18 12:24:47.56	300.48	17.26	-83.9	-88.8	2.7	3.11e+01	0	47	104	0	60	1048575
2026-01-18 12:24:48.57	300.73	17.21	-84.3	-88.8	2.6	3.11e+01	0	47	104	0	60	1048575
2026-01-18 12:24:49.58	300.97	17.16	-84.3	-88.8	2.7	3.11e+01	0	47	104	0	60	1048575
2026-01-18 12:24:50.58	301.22	17.11	-83.9	-88.8	2.7	3.11e+01	0	47	104	0	60	1048575
2026-01-18 12:24:51.59	301.46	17.06	-83.9	-88.8	2.5	3.11e+01	0	47	104	0	60	1048575
2026-01-18 12:24:52.60	301.71	17.01	-83.5	-88.8	2.5	3.11e+01	0	47	104	0	60	1048575
2026-01-18 12:24:53.61	301.95	16.95	-84.3	-88.8	2.6	3.11e+01	0	47	104	0	60	1048575
2026-01-18 12:24:54.61	302.19	16.90	-84.3	-88.8	2.7	3.11e+01	0	47	104	0	60	1048575
2026-01-18 12:24:55.62	302.43	16.85	-84.3	-88.8	2.4	3.11e+01	0	47	104	0	60	1048575
2026-01-18 12:24:56.62	302.67	16.79	-83.9	-88.8	2.6	3.11e+01	0	47	104	0	60	1048575
2026-01-18 12:24:57.63	302.91	16.74	-83.9	-88.8	2.5	3.11e+01	0	47	104	0	60	1048575
2026-01-18 12:24:58.63	303.14	16.69	-84.3	-88.8	2.5	3.11e+01	0	47	104	0	60	1048575
2026-01-18 12:24:59.64	303.38	16.63	-84.3	-88.8	2.7	3.11e+01	0	47	104	0	60	1048575
2026-01-18 12:25:00.65	303.62	16.58	-84.3	-88.8	2.5	3.11e+01	0	47	104	0	60	1048575
2026-01-18 12:25:01.65	303.85	16.52	-83.9	-88.8	2.6	3.11e+01	0	47	104	0	60	1048575
2026-01-18 12:25:02.65	304.08	16.47	-83.9	-88.8	2.6	3.11e+01	0	47	104	0	60	1048575
2026-01-18 12:25:03.65	304.31	16.41	-83.9	-88.8	2.6	3.11e+01	0	47	104	0	60	1048575
2026-01-18 12:25:04.65	304.54	16.35	-84.3	-88.8	2.6	3.11e+01	0	47	104	0	60	1048575
2026-01-18 12:25:05.66	304.77	16.30	-83.9	-88.8	2.7	3.11e+01	0	47	104	0	60	1048575
2026-01-18 12:25:06.67	305.01	16.24	-83.9	-88.8	2.6	3.11e+01	0	47	104	0	60	1048575
2026-01-18 12:25:07.68	305.24	16.18	-84.3	-88.8	2.6	3.11e+01	0	47	104	0	60	1048575
2026-01-18 12:25:08.68	305.46	16.13	-84.3	-88.8	2.6	3.11e+01	0	47	104	0	60	1048575
2026-01-18 12:25:09.68	305.69	16.07	-84.3	-88.8	2.8	3.11e+01	0	47	104	0	60	1048575
2026-01-18 12:25:10.69	305.92	16.01	-83.9	-88.8	2.5	3.11e+01	0	47	104	0	60	1048575
2026-01-18 12:25:11.70	306.14	15.95	-83.9	-88.8	2.5	3.11e+01	0	47	104	0	60	1048575
2026-01-18 12:25:12.70	306.37	15.90	-83.9	-88.8	2.5	3.11e+01	0	47	104	0	60	1048575
2026-01-18 12:25:13.71	306.59	15.84	-84.3	-88.8	2.5	3.11e+01	0	47	104	0	60	1048575
2026-01-18 12:25:14.72	306.81	15.78	-84.3	-88.8	2.4	3.11e+01	0	47	104	0	60	1048575
2026-01-18 12:25:15.72	307.03	15.72	-83.9	-88.8	2.4	3.11e+01	0	47	104	0	60	1048575
2026-01-18 12:25:16.72	307.25	15.66	-84.3	-88.8	2.4	3.11e+01	0	47	104	0	60	1048575
2026-01-18 12:25:17.73	307.48	15.60	-84.3	-88.8	2.7	3.11e+01	0	47	104	0	60	1048575
2026-01-18 12:25:18.74	307.70	15.54	-84.3	-88.8	2.6	3.11e+01	0	47	104	0	60	1048575
2026-01-18 12:25:19.74	307.91	15.48	-83.9	-88.8	2.6	3.11e+01	0	47	104	0	60	1048575
2026-01-18 12:25:20.75	308.13	15.42	-83.9	-88.8	2.6	3.11e+01	0	47	104	0	60	1048575
2026-01-18 12:25:21.76	308.35	15.36	-84.3	-88.8	2.8	3.11e+01	0	48	104	0	60	1048575
2026-01-18 12:25:22.76	308.56	15.30	-84.3	-88.8	2.5	3.11e+01	0	47	104	0	60	1048575
2026-01-18 12:25:23.77	308.78	15.24	-84.3	-88.8	2.6	3.11e+01	0	47	104	0	60	1048575
2026-01-18 12:25:24.78	308.99	15.18	-83.9	-88.8	2.7	3.11e+01	0	48	104	0	60	1048575
2026-01-18 12:25:25.79	309.21	15.12	-83.9	-88.8	2.8	3.11e+01	0	47	104	0	60	1048575
2026-01-18 12:25:26.80	309.42	15.06	-84.3	-88.8	2.5	3.11e+01	0	48	104	0	60	1048575
2026-01-18 12:25:27.80	309.63	15.00	-84.3	-88.8	2.8	3.11e+01	0	48	104	0	60	1048575
2026-01-18 12:25:28.81	309.84	14.94	-84.3	-88.8	2.4	3.11e+01	0	47	104	0	60	1048575
2026-01-18 12:25:29.82	310.05	14.87	-83.9	-88.8	2.6	3.11e+01	0	47	104	0	60	1048575
2026-01-18 12:25:30.83	310.26	14.81	-83.9	-88.8	2.5	3.11e+01	0	48	104	0	60	1048575
2026-01-18 12:25:31.83	310.46	14.75	-84.3	-88.8	2.6	3.11e+01	0	47	104	0	60	1048575
2026-01-18 12:25:32.83	310.67	14.69	-83.9	-88.8	2.6	3.11e+01	0	47	104	0	60	1048575
2026-01-18 12:25:33.84	310.88	14.63	-84.3	-88.8	2.6	3.11e+01	0	47	104	0	60	1048575
2026-01-18 12:25:34.84	311.08	14.56	-83.9	-88.8	2.6	3.11e+01	0	48	104	0	60	1048575
2026-01-18 12:25:35.85	311.28	14.50	-84.3	-88.8	2.7	3.11e+01	0	48	104	0	60	1048575
2026-01-18 12:25:36.86	311.49	14.44	-84.3	-88.8	2.6	3.11e+01	0	47	104	0	60	1048575
2026-01-18 12:25:37.87	311.69	14.38	-84.3	-88.8	2.5	3.11e+01	0	47	104	0	60	1048575
2026-01-18 12:25:38.87	311.89	14.31	-84.3	-88.8	2.7	3.11e+01	0	47	104	0	60	1048575
2026-01-18 12:25:39.88	312.09	14.25	-83.9	-88.8	2.6	3.11e+01	0	47	104	0	60	1048575
2026-01-18 12:25:40.88	312.29	14.19	-84.3	-88.8	2.6	3.11e+01	0	47	104	0	60	1048575
2026-01-18 12:25:41.89	312.49	14.12	-84.3	-88.8	2.8	3.11e+01	0	47	104	0	60	1048575
2026-01-18 12:25:42.90	312.69	14.06	-84.3	-88.8	2.6	3.11e+01	0	47	104	0	60	1048575
2026-01-18 12:25:43.90	312.88	14.00	-83.9	-88.8	2.7	3.11e+01	0	47	104	0	60	1048575
2026-01-18 12:25:44.91	313.08	13.93	-83.9	-88.8	2.6	3.11e+01	0	47	104	0	60	1048575
2026-01-18 12:25:45.92	313.28	13.87	-84.3	-88.8	2.5	3.11e+01	0	47	104	0	60	1048575
2026-01-18 12:25:46.92	313.47	13.81	-84.3	-88.8	2.4	3.11e+01	0	47	104	0	60	1048575
2026-01-18 12:25:47.93	313.66	13.74	-84.3	-88.8	2.6	3.11e+01	0	47	104	0	60	1048575
2026-01-18 12:25:48.94	313.86	13.68	-83.9	-88.8	2.5	3.11e+01	0	47	104	0	60	1048575
2026-01-18 12:25:49.94	314.05	13.61	-83.9	-88.8	2.4	3.11e+01	0	47	104	0	60	1048575
2026-01-18 12:25:50.95	314.24	13.55	-84.3	-88.8	2.4	3.11e+01	0	47	104	0	60	1048575
2026-01-18 12:25:51.95	314.43	13.49	-84.3	-88.8	2.6	3.11e+01	0	47	104	0	60	1048575
2026-01-18 12:25:52.95	314.61	13.42	-83.9	-88.8	2.6	3.11e+01	0	47	104	0	60	1048575
2026-01-18 12:25:53.96	314.80	13.36	-83.9	-88.8	2.6	3.11e+01	0	47	104	0	60	1048572
2026-01-18 12:25:54.97	314.99	13.29	-84.3	-88.8	2.6	3.11e+01	0	47	104	0	60	1048572
2026-01-18 12:25:55.97	315.18	13.23	-84.3	-88.8	2.6	3.11e+01	0	47	104	0	60	1048572
2026-01-18 12:25:56.98	315.36	13.16	-84.3	-88.8	2.6	3.11e+01	0	47	104	0	60	1048572
2026-01-18 12:25:57.98	315.55	13.10	-84.3	-88.8	2.8	3.11e+01	0	47	104	0	60	1048572
2026-01-18 12:25:58.99	315.73	13.03	-83.9	-88.8	2.8	3.11e+01	0	47	104	0	60	1048572
2026-01-18 12:26:00.00	315.91	12.97	-83.9	-88.8	2.8	3.11e+01	0	47	104	0	60	1048572
2026-01-18 12:26:01.00	316.10	12.90	-84.3	-88.8	2.8	3.11e+01	0	47	104	0	60	1048572
2026-01-18 12:26:02.01	316.28	12.84	-84.3	-88.8	2.8	3.11e+01	0	47	104	0	60	1048572
2026-01-18 12:26:03.02	316.46	12.77	-83.9	-88.8	2.6	3.11e+01	0	47	104	0	60	1048572
2026-01-18 12:26:04.03	316.64	12.71	-83.9	-88.8	2.5	3.11e+01	0	47	104	0	60	1048572
2026-01-18 12:26:05.03	316.82	12.64	-84.3	-88.8	2.5	3.11e+01	0	47	104	0	60	1048572
2026-01-18 12:26:06.04	316.99	12.58	-83.9	-88.8	2.6	3.11e+01	0	47	104	0	60	1048572
2026-01-18 12:26:07.05	317.17	12.51	-84.3	-88.8	2.5	3.11e+01	0	47	104	0	60	1048572
2026-01-18 12:26:08.06	317.35	12.45	-83.9	-88.8	2.6	3.11e+01	0	47	104	0	60	1048572
2026-01-18 12:26:09.06	317.52	12.38	-83.9	-88.8	2.7	3.11e+01	0	47	104	0	60	1048572
2026-01-18 12:26:10.06	317.70	12.32	-84.3	-88.8	2.7	3.11e+01	0	47	104	0	60	1048572
2026-01-18 12:26:11.07	317.87	12.25	-84.3	-88.8	2.8	3.11e+01	0	47	104	0	60	1048572
2026-01-18 12:26:12.07	318.04	12.19	-84.3	-88.8	2.5	3.11e+01	0	47	104	0	60	1048572
2026-01-18 12:26:13.09	318.22	12.12	-83.9	-88.8	2.8	3.11e+01	0	47	104	0	60	1048572
2026-01-18 12:26:14.09	318.39	12.06	-83.9	-88.8	2.7	3.11e+01	0	47	104	0	60	1048572
2026-01-18 12:26:15.10	318.56	11.99	-84.3	-88.8	2.6	3.11e+01	0	47	104	0	60	1048572
2026-01-18 12:26:16.11	318.73	11.93	-84.3	-88.8	2.3	3.11e+01	0	47	104	0	60	1048572
2026-01-18 12:26:17.12	318.90	11.86	-84.3	-88.8	2.4	3.11e+01	0	47	104	0	60	1048572
2026-01-18 12:26:18.12	319.07	11.79	-83.9	-88.8	2.3	3.11e+01	0	47	104	0	60	1048572
2026-01-18 12:26:19.13	319.24	11.73	-83.9	-88.8	2.5	3.11e+01	0	47	104	0	60	1048572
2026-01-18 12:26:20.14	319.40	11.66	-84.3	-88.8	2.5	3.11e+01	0	47	104	0	60	1048572
2026-01-18 12:26:21.15	319.57	11.60	-84.3	-88.8	2.5	3.11e+01	0	47	104	0	60	1048572
2026-01-18 12:26:22.16	319.74	11.53	-83.9	-88.8	2.5	3.11e+01	0	47	104	0	60	1048572
2026-01-18 12:26:23.16	319.90	11.47	-84.3	-88.8	2.6	3.11e+01	0	47	104	0	60	1048572
2026-01-18 12:26:24.16	320.06	11.40	-83.9	-88.8	2.7	3.11e+01	0	47	104	0	60	1048572
2026-01-18 12:26:25.17	320.23	11.34	-84.3	-88.8	2.5	3.11e+01	0	47	104	0	60	1048572
2026-01-18 12:26:26.18	320.39	11.27	-83.9	-88.8	2.5	3.11e+01	0	47	104	0	60	1048572
2026-01-18 12:26:27.19	320.55	11.20	-83.9	-88.8	2.7	3.11e+01	0	47	104	0	60	1048572
2026-01-18 12:26:28.20	320.71	11.14	-84.3	-88.8	2.7	3.11e+01	0	47	104	0	60	1048572
2026-01-18 12:26:29.20	320.87	11.07	-84.3	-88.8	2.7	3.11e+01	0	47	104	0	60	1048572
2026-01-18 12:26:30.20	321.03	11.01	-84.3	-88.8	2.2	3.11e+01	0	47	104	0	60	1048572
2026-01-18 12:26:31.21	321.19	10.94	-84.3	-88.8	2.6	3.11e+01	0	47	104	0	60	1048572
2026-01-18 12:26:32.22	321.35	10.88	-83.9	-88.8	2.6	3.11e+01	0	47	104	0	60	1048572
2026-01-18 12:26:33.23	321.50	10.81	-84.3	-88.8	2.7	3.11e+01	0	47	104	0	60	1048572
2026-01-18 12:26:34.24	321.66	10.75	-84.3	-88.8	2.6	3.11e+01	0	47	104	0	60	1048572
2026-01-18 12:26:35.24	321.82	10.68	-84.3	-88.8	2.7	3.11e+01	0	47	104	0	60	1048572
2026-01-18 12:26:36.25	321.97	10.62	-83.9	-88.8	2.7	3.11e+01	0	47	104	0	60	1048572
2026-01-18 12:26:37.26	322.13	10.55	-83.9	-88.8	2.5	3.11e+01	0	48	104	0	60	1048572
2026-01-18 12:26:38.27	322.28	10.48	-83.9	-88.8	2.3	3.11e+01	0	47	104	0	60	1048572
2026-01-18 12:26:39.27	322.43	10.42	-83.9	-88.8	2.6	3.11e+01	0	48	104	0	60	1048572
2026-01-18 12:26:40.28	322.58	10.35	-84.3	-88.8	2.5	3.11e+01	0	47	104	0	60	1048572
2026-01-18 12:26:41.29	322.74	10.29	-83.9	-88.8	2.6	3.11e+01	0	47	104	0	60	1048572
2026-01-18 12:26:42.29	322.89	10.22	-84.3	-88.8	2.5	3.11e+01	0	47	104	0	60	1048572
2026-01-18 12:26:43.30	323.04	10.16	-84.3	-88.8	2.6	3.11e+01	0	47	104	0	60	1048572
2026-01-18 12:26:44.31	323.19	10.09	-84.3	-88.8	2.7	3.11e+01	0	47	104	0	60	1048572
2026-01-18 12:26:45.32	323.33	10.03	-83.9	-88.8	2.7	3.11e+01	0	47	104	0	60	1048572
2026-01-18 12:26:46.32	323.48	9.96	-83.9	-88.8	2.8	3.11e+01	0	47	104	0	60	1048572
2026-01-18 12:26:47.33	323.63	9.90	-84.3	-88.8	2.7	3.11e+01	0	47	104	0	60	1048572
2026-01-18 12:26:48.34	323.78	9.83	-84.3	-88.8	2.5	3.11e+01	0	47	104	0	60	1048572
2026-01-18 12:26:49.35	323.92	9.77	-84.3	-88.8	2.5	3.11e+01	0	47	104	0	60	1048572
2026-01-18 12:26:50.36	324.07	9.70	-83.9	-88.8	2.4	3.11e+01	0	47	104	0	60	1048572
2026-01-18 12:26:51.36	324.21	9.64	-83.9	-88.8	2.5	3.11e+01	0	47	104	0	60	1048572
2026-01-18 12:26:52.37	324.36	9.57	-83.9	-88.8	2.5	3.11e+01	0	47	104	0	60	1048572
2026-01-18 12:26:53.38	324.50	9.51	-84.3	-88.8	2.5	3.11e+01	0	47	104	0	60	1048572
2026-01-18 12:26:54.39	324.64	9.44	-83.9	-88.8	2.6	3.11e+01	0	47	104	0	60	1048572
2026-01-18 12:26:55.39	324.78	9.38	-83.9	-88.8	2.4	3.11e+01	0	47	104	0	60	1048572
2026-01-18 12:26:56.40	324.92	9.31	-84.3	-88.8	2.6	3.11e+01	0	47	104	0	60	1048572
2026-01-18 12:26:57.40	325.06	9.25	-84.3	-88.8	2.3	3.11e+01	0	47	104	0	60	1048572
2026-01-18 12:26:58.41	325.20	9.18	-84.3	-88.8	2.5	3.11e+01	0	47	104	0	60	1048572
2026-01-18 12:26:59.42	325.34	9.12	-83.9	-88.8	2.4	3.11e+01	0	47	104	0	60	1048572
2026-01-18 12:27:00.42	325.48	9.06	-83.9	-88.8	2.5	3.11e+01	0	47	104	0	60	1048572
2026-01-18 12:27:01.43	325.62	8.99	-84.3	-88.8	2.5	3.11e+01	0	47	104	0	60	1048572
2026-01-18 12:27:02.43	325.76	8.93	-84.3	-88.8	2.5	3.11e+01	0	47	104	0	60	1048572
2026-01-18 12:27:03.44	325.89	8.86	-84.3	-88.8	2.4	3.11e+01	0	47	104	0	60	1048572
2026-01-18 12:27:04.45	326.03	8.80	-84.3	-88.8	2.6	3.11e+01	0	47	104	0	60	1048572
2026-01-18 12:27:05.46	326.16	8.73	-83.9	-88.8	2.4	3.11e+01	0	47	104	0	60	1048572
2026-01-18 12:27:06.46	326.30	8.67	-84.3	-88.8	2.6	3.11e+01	0	48	104	0	60	1048572
2026-01-18 12:27:07.47	326.43	8.61	-83.9	-88.8	2.8	3.11e+01	0	47	104	0	60	1048572
2026-01-18 12:27:08.48	326.57	8.54	-84.3	-88.8	2.7	3.11e+01	0	47	104	0	60	1048572
2026-01-18 12:27:09.49	326.70	8.48	-84.3	-88.8	2.5	3.11e+01	0	47	104	0	60	1048572
2026-01-18 12:27:10.49	326.83	8.41	-83.9	-88.8	2.5	3.11e+01	0	47	104	0	60	1048572
2026-01-18 12:27:11.50	326.96	8.35	-84.3	-88.8	2.5	3.11e+01	0	47	104	0	60	1048572
2026-01-18 12:27:12.51	327.10	8.29	-84.3	-88.8	2.5	3.11e+01	0	47	104	0	60	1048572
2026-01-18 12:27:13.52	327.23	8.22	-84.3	-88.8	2.6	3.11e+01	0	47	104	0	60	1048572
2026-01-18 12:27:14.52	327.36	8.16	-83.9	-88.8	2.4	3.11e+01	0	48	104	0	60	1048572
2026-01-18 12:27:15.53	327.49	8.09	-84.3	-88.8	2.5	3.11e+01	0	47	104	0	60	1048572
2026-01-18 12:27:16.54	327.61	8.03	-84.3	-88.8	2.7	3.11e+01	0	47	104	0	60	1048572
2026-01-18 12:27:17.55	327.74	7.97	-84.3	-88.8	2.7	3.11e+01	0	47	104	0	60	1048572
2026-01-18 12:27:18.55	327.87	7.90	-84.3	-88.8	2.6	3.11e+01	0	47	104	0	60	1048572
2026-01-18 12:27:19.56	328.00	7.84	-83.9	-88.8	2.5	3.11e+01	0	48	104	0	60	1048572
2026-01-18 12:27:20.56	328.12	7.78	-84.3	-88.8	2.5	3.11e+01	0	47	104	0	60	1048572
2026-01-18 12:27:21.57	328.25	7.71	-84.3	-88.8	2.6	3.11e+01	0	47	104	0	60	1048572
2026-01-18 12:27:22.57	328.37	7.65	-84.3	-88.8	2.4	3.11e+01	0	47	104	0	60	1048572
2026-01-18 12:27:23.58	328.50	7.59	-83.9	-88.8	2.4	3.11e+01	0	47	104	0	60	1048572
2026-01-18 12:27:24.59	328.62	7.52	-83.9	-88.8	2.5	3.11e+01	0	48	104	0	60	1048572
2026-01-18 12:27:25.59	328.75	7.46	-83.9	-88.8	2.5	3.11e+01	0	47	104	0	60	1048572
2026-01-18 12:27:26.60	328.87	7.40	-84.3	-88.8	2.5	3.11e+01	0	47	104	0	60	1048572
2026-01-18 12:27:27.61	328.99	7.34	-84.3	-88.8	2.4	3.11e+01	0	47	104	0	60	1048572
2026-01-18 12:27:28.62	329.11	7.27	-84.3	-88.8	2.5	3.11e+01	0	48	104	0	60	1048572
2026-01-18 12:27:29.62	329.23	7.21	-84.3	-88.8	2.3	3.11e+01	0	47	104	0	60	1048572
2026-01-18 12:27:30.63	329.36	7.15	-83.9	-88.8	2.3	3.11e+01	0	48	104	0	60	1048572
2026-01-18 12:27:31.63	329.47	7.09	-84.3	-88.8	2.4	3.11e+01	0	48	104	0	60	1048572
2026-01-18 12:27:32.63	329.59	7.02	-83.9	-88.8	2.6	3.11e+01	0	48	104	0	60	1048572
2026-01-18 12:27:33.64	329.71	6.96	-83.9	-88.8	2.5	3.11e+01	0	48	104	0	60	1048572
2026-01-18 12:27:34.64	329.83	6.90	-83.9	-88.8	2.5	3.11e+01	0	47	104	0	60	1048572
2026-01-18 12:27:35.65	329.95	6.84	-84.3	-88.8	2.6	3.11e+01	0	47	104	0	60	1048572
2026-01-18 12:27:36.65	330.07	6.78	-84.3	-88.8	2.5	3.11e+01	0	47	104	0	60	1048572
2026-01-18 12:27:37.66	330.18	6.71	-84.3	-88.8	2.5	3.11e+01	0	47	104	0	60	1048572
2026-01-18 12:27:38.67	330.30	6.65	-83.9	-88.8	2.5	3.11e+01	0	47	104	0	60	1048572
2026-01-18 12:27:39.68	330.42	6.59	-84.3	-88.8	2.5	3.11e+01	0	47	104	0	60	1048572
2026-01-18 12:27:40.68	330.53	6.53	-84.3	-88.8	2.3	3.11e+01	0	47	104	0	60	1048572
2026-01-18 12:27:41.69	330.65	6.47	-84.3	-88.8	2.7	3.11e+01	0	47	104	0	60	1048572
2026-01-18 12:27:42.70	330.76	6.40	-83.9	-88.8	2.6	3.11e+01	0	47	104	0	60	1048572
2026-01-18 12:27:43.71	330.88	6.34	-83.9	-88.8	2.6	3.11e+01	0	47	104	0	60	1048572
2026-01-18 12:27:44.72	330.99	6.28	-84.3	-88.8	2.5	3.11e+01	0	47	104	0	60	1048572
2026-01-18 12:27:45.72	331.10	6.22	-83.9	-88.8	2.5	3.11e+01	0	47	104	0	60	1048572
2026-01-18 12:27:46.73	331.22	6.16	-84.3	-88.8	2.7	3.11e+01	0	47	104	0	60	1048572
2026-01-18 12:27:47.74	331.33	6.10	-83.9	-88.8	2.6	3.11e+01	0	47	104	0	60	1048572
2026-01-18 12:27:48.75	331.44	6.03	-83.9	-88.8	2.6	3.11e+01	0	47	104	0	60	1048572
2026-01-18 12:27:49.76	331.55	5.97	-84.3	-88.8	2.6	3.11e+01	0	47	104	0	60	1048572
2026-01-18 12:27:50.76	331.66	5.91	-84.3	-88.8	2.7	3.11e+01	0	47	104	0	60	1048572
2026-01-18 12:27:51.77	331.77	5.85	-84.3	-88.8	2.7	3.11e+01	0	47	104	0	60	1048572
2026-01-18 12:27:52.78	331.88	5.79	-83.5	-88.8	2.5	3.11e+01	0	47	104	0	60	1048572
2026-01-18 12:27:53.78	331.99	5.73	-84.3	-88.8	2.5	3.11e+01	0	47	104	0	60	1048572
2026-01-18 12:27:54.79	332.10	5.67	-84.3	-88.8	2.4	3.11e+01	0	47	104	0	60	1048572
2026-01-18 12:27:55.80	332.21	5.61	-84.3	-88.8	2.5	3.11e+01	0	47	104	0	60	1048572
2026-01-18 12:27:56.81	332.32	5.55	-83.9	-88.8	2.5	3.11e+01	0	47	104	0	60	1048572
2026-01-18 12:27:57.82	332.42	5.49	-83.9	-88.8	2.4	3.11e+01	0	47	104	0	60	1048572
2026-01-18 12:27:58.82	332.53	5.43	-83.9	-88.8	2.5	3.11e+01	0	47	104	0	60	1048572
2026-01-18 12:27:59.83	332.64	5.37	-84.3	-88.8	2.6	3.11e+01	0	47	104	0	60	1048572
2026-01-18 12:28:00.83	332.74	5.31	-84.3	-88.8	2.5	3.11e+01	0	47	104	0	60	1048572
2026-01-18 12:28:01.84	332.85	5.25	-84.3	-88.8	2.5	3.11e+01	0	47	104	0	60	1048572
2026-01-18 12:28:02.84	332.95	5.19	-83.9	-88.8	2.4	3.11e+01	0	48	104	0	60	1048572
2026-01-18 12:28:03.85	333.06	5.13	-84.3	-88.8	2.6	3.11e+01	0	47	104	0	60	1048572
2026-01-18 12:28:04.86	333.16	5.06	-84.3	-88.8	2.5	3.11e+01	0	47	104	0	60	1048572
2026-01-18 12:28:05.87	333.26	5.00	-83.9	-88.8	2.6	3.11e+01	0	47	104	0	60	1048572
2026-01-18 12:28:06.88	333.37	4.94	-83.9	-88.8	2.7	3.11e+01	0	48	104	0	60	1048572
2026-01-18 12:28:07.88	333.47	4.89	-84.3	-88.8	2.7	3.11e+01	0	47	104	0	60	1048572
2026-01-18 12:28:08.89	333.57	4.83	-84.3	-88.8	2.8	3.11e+01	0	47	104	0	60	1048572
2026-01-18 12:28:09.90	333.68	4.77	-84.3	-88.8	2.5	3.11e+01	0	47	104	0	60	1048572
2026-01-18 12:28:10.91	333.78	4.71	-84.3	-88.8	2.6	3.11e+01	0	47	104	0	60	1048572
2026-01-18 12:28:11.92	333.88	4.65	-83.5	-88.8	2.5	3.11e+01	0	47	104	0	60	1048572
2026-01-18 12:28:12.92	333.98	4.59	-84.3	-88.8	2.8	3.11e+01	0	47	104	0	60	1048572
2026-01-18 12:28:13.93	334.08	4.53	-84.3	-88.8	2.5	3.11e+01	0	47	104	0	60	1048572
2026-01-18 12:28:14.94	334.18	4.47	-84.3	-88.8	2.7	3.11e+01	0	47	104	0	60	1048572
2026-01-18 12:28:15.95	334.28	4.41	-83.9	-88.8	2.5	3.11e+01	0	47	104	0	60	1048572
2026-01-18 12:28:16.96	334.38	4.35	-83.9	-88.8	2.5	3.11e+01	0	47	104	0	60	1048572
2026-01-18 12:28:17.96	334.48	4.29	-84.3	-88.8	2.6	3.11e+01	0	47	104	0	60	1048572
2026-01-18 12:28:18.96	334.57	4.23	-83.9	-88.8	2.5	3.11e+01	0	47	104	0	60	1048572
2026-01-18 12:28:19.97	334.67	4.17	-84.3	-88.8	2.6	3.11e+01	0	47	104	0	60	1048572
2026-01-18 12:28:20.97	334.77	4.12	-83.9	-88.8	2.5	3.11e+01	0	47	104	0	60	1048572
2026-01-18 12:28:21.98	334.87	4.06	-83.9	-88.8	2.6	3.11e+01	0	48	104	0	60	1048572
2026-01-18 12:28:22.99	334.96	4.00	-84.3	-88.8	2.4	3.11e+01	0	48	104	0	60	1048572
2026-01-18 12:28:24.00	335.06	3.94	-84.3	-88.8	2.6	3.11e+01	0	48	104	0	60	1048572
2026-01-18 12:28:25.00	335.15	3.88	-84.3	-88.8	2.7	3.11e+01	0	48	104	0	60	1048572
2026-01-18 12:28:26.00	335.25	3.82	-83.9	-88.8	2.3	3.11e+01	0	48	104	0	60	1048572
2026-01-18 12:28:27.01	335.34	3.77	-84.3	-88.8	2.6	3.11e+01	0	47	104	0	60	1048572
2026-01-18 12:28:28.02	335.44	3.71	-84.3	-88.8	2.7	3.11e+01	0	47	104	0	60	1048572
2026-01-18 12:28:29.02	335.53	3.65	-84.3	-88.8	2.6	3.11e+01	0	47	104	0	60	1048572
2026-01-18 12:28:30.03	335.63	3.59	-84.3	-88.8	2.6	3.11e+01	0	48	104	0	60	1048572
2026-01-18 12:28:31.03	335.72	3.53	-83.9	-88.8	2.7	3.11e+01	0	47	104	0	60	1048572
2026-01-18 12:28:32.04	335.81	3.48	-83.9	-88.8	2.7	3.11e+01	0	47	104	0	60	1048572
2026-01-18 12:28:33.05	335.90	3.42	-84.3	-88.8	2.5	3.11e+01	0	47	104	0	60	1048572
2026-01-18 12:28:34.05	336.00	3.36	-84.3	-88.8	2.4	3.11e+01	0	48	104	0	60	1048574
2026-01-18 12:28:35.06	336.09	3.30	-83.9	-88.8	2.4	3.11e+01	0	47	104	0	60	1048574
2026-01-18 12:28:36.07	336.18	3.25	-83.9	-88.8	2.6	3.11e+01	0	47	104	0	60	1048574
2026-01-18 12:28:37.07	336.27	3.19	-84.3	-88.8	2.4	3.11e+01	0	47	104	0	60	1048574
2026-01-18 12:28:38.08	336.36	3.13	-84.3	-88.8	2.7	3.11e+01	0	47	104	0	60	1048574
2026-01-18 12:28:39.08	336.45	3.07	-84.3	-88.8	2.7	3.11e+01	0	47	104	0	60	1048574
2026-01-18 12:28:40.08	336.54	3.02	-83.5	-88.8	2.4	3.11e+01	0	47	104	0	60	1048574
2026-01-18 12:28:41.09	336.63	2.96	-84.3	-88.8	2.5	3.11e+01	0	47	104	0	60	1048574
2026-01-18 12:28:42.09	336.72	2.90	-83.9	-88.8	2.7	3.11e+01	0	47	104	0	60	1048574
2026-01-18 12:28:43.10	336.81	2.85	-84.3	-88.8	2.5	3.11e+01	0	47	104	0	60	1048574
2026-01-18 12:28:44.10	336.90	2.79	-83.9	-88.8	2.6	3.11e+01	0	48	104	0	60	1048574
2026-01-18 12:28:45.11	336.99	2.73	-83.9	-88.8	2.7	3.11e+01	0	47	104	0	60	1048574
2026-01-18 12:28:46.12	337.07	2.68	-83.9	-88.8	2.7	3.11e+01	0	48	104	0	60	1048574
2026-01-18 12:28:47.12	337.16	2.62	-84.3	-88.8	2.7	3.11e+01	0	48	104	0	60	1048574
2026-01-18 12:28:48.13	337.25	2.56	-84.3	-88.8	2.6	3.11e+01	0	48	104	0	60	1048574
2026-01-18 12:28:49.13	337.33	2.51	-84.3	-88.8	2.4	3.11e+01	0	47	104	0	60	1048574
2026-01-18 12:28:50.14	337.42	2.45	-83.9	-88.8	2.2	3.11e+01	0	47	104	0	60	1048574
2026-01-18 12:28:51.14	337.51	2.39	-83.9	-88.8	2.5	3.11e+01	0	47	104	0	60	1048574
2026-01-18 12:28:52.15	337.59	2.34	-84.3	-88.8	2.5	3.11e+01	0	47	104	0	60	1048574
2026-01-18 12:28:53.15	337.68	2.28	-84.3	-88.8	2.5	3.11e+01	0	48	104	0	60	1048574
2026-01-18 12:28:54.16	337.76	2.23	-83.9	-88.8	2.7	3.11e+01	0	47	104	0	60	1048574
2026-01-18 12:28:55.17	337.85	2.17	-83.9	-88.8	2.5	3.11e+01	0	47	104	0	60	1048574
2026-01-18 12:28:56.17	337.93	2.11	-84.3	-88.8	2.7	3.11e+01	0	47	104	0	60	1048574
2026-01-18 12:28:57.18	338.02	2.06	-84.3	-88.8	2.5	3.11e+01	0	48	104	0	60	1048574
2026-01-18 12:28:58.18	338.10	2.00	-84.3	-88.8	2.6	3.11e+01	0	47	104	0	60	1048574
2026-01-18 12:28:59.19	338.18	1.95	-83.5	-88.8	2.7	3.11e+01	0	47	104	0	60	1048574
2026-01-18 12:29:00.19	338.27	1.89	-83.9	-88.8	2.5	3.11e+01	0	47	104	0	60	1048574
2026-01-18 12:29:01.20	338.35	1.84	-84.3	-88.8	2.8	3.11e+01	0	47	104	0	60	1048574
2026-01-18 12:29:02.20	338.43	1.78	-84.3	-88.8	2.7	3.11e+01	0	47	104	0	60	1048574
2026-01-18 12:29:03.21	338.51	1.73	-84.3	-88.8	2.5	3.11e+01	0	47	104	0	60	1048574
2026-01-18 12:29:04.22	338.60	1.67	-83.9	-88.8	2.6	3.11e+01	0	48	104	0	60	1048574
2026-01-18 12:29:05.23	338.68	1.61	-83.9	-88.8	2.3	3.11e+01	0	47	104	0	60	1048574
2026-01-18 12:29:06.24	338.76	1.56	-84.3	-88.8	2.5	3.11e+01	0	48	104	0	60	1048574
2026-01-18 12:29:07.24	338.84	1.50	-84.3	-88.8	2.7	3.11e+01	0	47	104	0	60	1048574
2026-01-18 12:29:08.25	338.92	1.45	-84.3	-88.8	2.4	3.11e+01	0	47	104	0	60	1048574
2026-01-18 12:29:09.25	339.00	1.39	-83.9	-88.8	2.5	3.11e+01	0	47	104	0	60	1048574
2026-01-18 12:29:10.25	339.08	1.34	-84.3	-88.8	2.6	3.11e+01	0	47	104	0	60	1048574
2026-01-18 12:29:11.26	339.16	1.29	-84.3	-88.8	2.6	3.11e+01	0	47	104	0	60	1048574
2026-01-18 12:29:12.27	339.24	1.23	-83.9	-88.8	2.7	3.11e+01	0	47	104	0	60	1048574
2026-01-18 12:29:13.28	339.32	1.18	-83.9	-88.8	2.7	3.11e+01	0	47	104	0	60	1048574
