passes_logs/2026/01/18/R3.2S-Naryan-Mar/R3.2S-Naryan-Mar__20260118_115523_SUOMI_NPP_rec.log

#Pass ID: 20260118_115523_SUOMI NPP
#Satellite: SUOMI NPP
#Configuration: NPP
#almurnet v.1.7.20240730
#Start time: 2026-01-18 11:55:25

#Version: 2.2.20231116
#Station: R3.2S-Naryan-Mar
#Location: 53.008057 lon 67.646978 lat
#TLE: 1 37849U 11061A   26017.28905266  .00000074  00000+0  55894-4 0  9999
#TLE: 2 37849  98.7814 319.3179 0002408  59.7048 300.4366 14.19525847737038

#Time	Az	El	Level	Level2	SNR	BER	BlckErr	Temp	State	Recorded	gain1	gain2
2026-01-18 11:55:25.38	245.02	0.07	-85.2	-88.8	3.0	1.56e+00	0	45	0	0	60	1048574
2026-01-18 11:55:26.38	245.12	0.12	-85.2	-88.6	3.0	1.58e+00	0	46	104	0	60	1048575
2026-01-18 11:55:27.38	245.21	0.16	-85.2	-88.6	3.0	1.56e+00	0	46	104	0	60	1048574
2026-01-18 11:55:28.38	245.30	0.20	-85.2	-88.6	2.9	1.56e+00	0	46	104	0	60	1048575
2026-01-18 11:55:29.39	245.40	0.24	-85.2	-88.6	3.1	1.56e+00	0	46	104	0	60	1048573
2026-01-18 11:55:30.40	245.50	0.28	-85.2	-88.6	3.0	1.55e+00	0	46	104	0	60	1048574
2026-01-18 11:55:31.40	245.59	0.32	-85.2	-88.6	2.9	1.56e+00	0	46	104	0	60	1048575
2026-01-18 11:55:32.41	245.69	0.36	-85.2	-88.6	3.0	1.56e+00	0	46	104	0	60	1048574
2026-01-18 11:55:33.42	245.78	0.41	-85.2	-88.6	3.0	1.55e+00	0	46	104	0	60	1048575
2026-01-18 11:55:34.43	245.88	0.45	-85.2	-88.6	2.8	1.55e+00	0	46	104	0	60	1048575
2026-01-18 11:55:35.43	245.98	0.49	-85.2	-88.6	3.0	1.56e+00	0	46	104	0	60	1048572
2026-01-18 11:55:36.44	246.07	0.53	-85.2	-88.6	2.9	1.56e+00	0	46	104	0	60	1048570
2026-01-18 11:55:37.45	246.17	0.57	-85.2	-88.6	3.0	1.55e+00	0	46	104	0	60	1048575
2026-01-18 11:55:38.45	246.27	0.61	-85.2	-88.6	2.9	1.56e+00	0	46	104	0	60	1048575
2026-01-18 11:55:39.46	246.37	0.65	-85.2	-88.6	2.7	1.55e+00	0	46	104	0	60	1048575
2026-01-18 11:55:40.47	246.47	0.70	-85.2	-88.6	3.1	1.56e+00	0	46	104	0	60	1048574
2026-01-18 11:55:41.47	246.56	0.74	-85.2	-88.6	2.9	1.56e+00	0	46	104	0	60	1048574
2026-01-18 11:55:42.48	246.66	0.78	-85.2	-88.6	3.0	1.56e+00	0	46	104	0	60	1048575
2026-01-18 11:55:43.48	246.76	0.82	-85.2	-88.6	3.0	1.56e+00	0	46	104	0	60	1048573
2026-01-18 11:55:44.48	246.86	0.86	-85.2	-88.6	3.2	1.56e+00	0	46	104	0	60	1048574
2026-01-18 11:55:45.49	246.96	0.90	-85.2	-88.6	2.9	1.56e+00	0	46	104	0	60	1048575
2026-01-18 11:55:46.50	247.06	0.94	-85.2	-88.6	3.1	1.55e+00	0	46	104	0	60	1048575
2026-01-18 11:55:47.50	247.16	0.98	-85.2	-88.6	2.9	1.56e+00	0	46	104	0	60	1048568
2026-01-18 11:55:48.51	247.26	1.03	-85.2	-88.6	3.0	1.55e+00	0	46	104	0	60	1048575
2026-01-18 11:55:49.51	247.36	1.07	-85.2	-88.6	3.0	1.56e+00	0	46	104	0	60	1048575
2026-01-18 11:55:50.52	247.46	1.11	-85.2	-88.6	3.1	1.56e+00	0	46	104	0	60	1048574
2026-01-18 11:55:51.52	247.56	1.15	-85.2	-88.6	2.9	1.56e+00	0	47	104	0	60	1048572
2026-01-18 11:55:52.52	247.66	1.19	-85.2	-88.6	3.1	1.55e+00	0	46	104	0	60	1048574
2026-01-18 11:55:53.53	247.76	1.23	-85.2	-88.6	2.9	1.55e+00	0	47	104	0	60	1048575
2026-01-18 11:55:54.53	247.86	1.27	-85.2	-88.6	3.1	1.55e+00	0	46	104	0	60	1048570
2026-01-18 11:55:55.53	247.96	1.31	-85.2	-88.6	2.9	1.55e+00	0	47	104	0	60	1048571
2026-01-18 11:55:56.54	248.07	1.35	-85.2	-88.6	3.2	1.56e+00	0	47	104	0	60	1048573
2026-01-18 11:55:57.55	248.17	1.40	-85.2	-88.6	3.0	1.56e+00	0	47	104	0	60	1048573
2026-01-18 11:55:58.55	248.27	1.44	-85.2	-88.6	2.7	1.56e+00	0	47	104	0	60	1048575
2026-01-18 11:55:59.56	248.37	1.48	-85.2	-88.6	3.0	1.55e+00	0	47	104	0	60	1048574
2026-01-18 11:56:00.56	248.48	1.52	-85.2	-88.6	2.9	1.56e+00	0	47	104	0	60	1048575
2026-01-18 11:56:01.56	248.58	1.56	-85.2	-88.6	3.1	1.56e+00	0	47	104	0	60	1048575
2026-01-18 11:56:02.57	248.68	1.60	-85.2	-88.6	2.7	1.56e+00	0	46	104	0	60	1048575
2026-01-18 11:56:03.58	248.79	1.64	-85.2	-88.6	3.1	1.56e+00	0	47	104	0	60	1048575
2026-01-18 11:56:04.58	248.89	1.68	-85.2	-88.6	2.9	1.56e+00	0	47	104	0	60	1048575
2026-01-18 11:56:05.58	249.00	1.72	-85.2	-88.6	2.8	1.56e+00	0	47	104	0	60	1048572
2026-01-18 11:56:06.59	249.10	1.77	-85.2	-88.6	3.1	1.56e+00	0	46	104	0	60	1048572
2026-01-18 11:56:07.60	249.21	1.81	-85.2	-88.6	3.1	1.56e+00	0	47	104	0	60	1048575
2026-01-18 11:56:08.60	249.31	1.85	-85.2	-88.6	3.0	1.56e+00	0	47	104	0	60	1048575
2026-01-18 11:56:09.61	249.42	1.89	-85.2	-88.6	2.9	1.56e+00	0	47	104	0	60	1048575
2026-01-18 11:56:10.62	249.52	1.93	-85.2	-88.6	3.0	1.55e+00	0	47	104	0	60	1048575
2026-01-18 11:56:11.63	249.63	1.97	-85.2	-88.6	2.9	1.55e+00	0	47	104	0	60	1048575
2026-01-18 11:56:12.63	249.74	2.01	-85.2	-88.6	3.0	1.56e+00	0	46	104	0	60	1048575
2026-01-18 11:56:13.64	249.84	2.05	-85.2	-88.6	3.0	1.55e+00	0	47	104	0	60	1048575
2026-01-18 11:56:14.64	249.95	2.09	-85.2	-88.6	2.9	1.56e+00	0	46	104	0	60	1048575
2026-01-18 11:56:15.65	250.06	2.13	-85.2	-88.6	2.9	1.56e+00	0	47	104	0	60	1048575
2026-01-18 11:56:16.65	250.17	2.18	-85.2	-88.6	3.1	1.56e+00	0	47	104	0	60	1048574
2026-01-18 11:56:17.66	250.27	2.22	-85.2	-88.6	3.1	1.56e+00	0	47	104	0	60	1048575
2026-01-18 11:56:18.67	250.38	2.26	-85.2	-88.6	3.2	1.56e+00	0	47	104	0	60	1048572
2026-01-18 11:56:19.67	250.49	2.30	-85.2	-88.6	2.9	1.56e+00	0	47	104	0	60	1048575
2026-01-18 11:56:20.67	250.60	2.34	-85.2	-88.6	3.0	1.55e+00	0	47	104	0	60	1048572
2026-01-18 11:56:21.68	250.71	2.38	-85.2	-88.6	3.0	1.56e+00	0	47	104	0	60	1048575
2026-01-18 11:56:22.68	250.82	2.42	-85.2	-88.6	3.0	1.55e+00	0	47	104	0	60	1048573
2026-01-18 11:56:23.69	250.93	2.46	-85.2	-88.6	3.1	1.56e+00	0	47	104	0	60	1048574
2026-01-18 11:56:24.69	251.04	2.50	-85.2	-88.6	3.0	1.56e+00	0	47	104	0	60	1048574
2026-01-18 11:56:25.70	251.15	2.54	-85.2	-88.6	3.0	1.56e+00	0	47	104	0	60	1048573
2026-01-18 11:56:26.70	251.26	2.58	-85.2	-88.6	3.0	1.56e+00	0	47	104	0	60	1048575
2026-01-18 11:56:27.71	251.37	2.62	-85.2	-88.6	3.1	1.55e+00	0	47	104	0	60	1048574
2026-01-18 11:56:28.71	251.48	2.66	-85.2	-88.6	3.0	1.55e+00	0	47	104	0	60	1048569
2026-01-18 11:56:29.71	251.59	2.70	-85.2	-88.6	2.8	1.56e+00	0	47	104	0	60	1048575
2026-01-18 11:56:30.72	251.70	2.74	-85.2	-88.6	3.0	1.55e+00	0	47	104	0	60	1048574
2026-01-18 11:56:31.72	251.81	2.79	-85.2	-88.6	2.9	1.56e+00	0	47	104	0	60	1048573
2026-01-18 11:56:32.73	251.93	2.83	-85.2	-88.6	2.8	1.56e+00	0	47	104	0	60	1048575
2026-01-18 11:56:33.73	252.04	2.87	-85.2	-88.6	3.0	1.56e+00	0	47	104	0	60	1048574
2026-01-18 11:56:34.74	252.15	2.91	-85.2	-88.6	3.0	1.56e+00	0	47	104	0	60	1048574
2026-01-18 11:56:35.74	252.26	2.95	-85.2	-88.6	3.2	1.56e+00	0	47	104	0	60	1048575
2026-01-18 11:56:36.75	252.38	2.99	-85.2	-88.6	3.1	1.56e+00	0	47	104	0	60	1048575
2026-01-18 11:56:37.76	252.49	3.03	-85.2	-88.6	3.1	1.55e+00	0	47	104	0	60	1048575
2026-01-18 11:56:38.76	252.61	3.07	-85.2	-88.6	3.2	1.56e+00	0	47	104	0	60	1048575
2026-01-18 11:56:39.77	252.72	3.11	-85.2	-88.6	2.8	1.56e+00	0	47	104	0	60	1048575
2026-01-18 11:56:40.78	252.84	3.15	-85.2	-88.6	2.8	1.55e+00	0	47	104	0	60	1048571
2026-01-18 11:56:41.78	252.95	3.19	-85.2	-88.6	3.2	1.56e+00	0	47	104	0	60	1048574
2026-01-18 11:56:42.79	253.07	3.23	-85.2	-88.6	3.1	1.56e+00	0	47	104	0	60	1048569
2026-01-18 11:56:43.80	253.18	3.27	-85.2	-88.6	3.1	1.55e+00	0	47	104	0	60	1048575
2026-01-18 11:56:44.80	253.30	3.31	-85.2	-88.6	2.9	1.56e+00	0	47	104	0	60	1048575
2026-01-18 11:56:45.80	253.41	3.35	-85.2	-88.6	3.0	1.56e+00	0	47	104	0	60	1048575
2026-01-18 11:56:46.81	253.53	3.39	-85.2	-88.6	3.1	1.56e+00	0	47	104	0	60	1048574
2026-01-18 11:56:47.82	253.65	3.43	-85.2	-88.6	3.0	1.56e+00	0	47	104	0	60	1048575
2026-01-18 11:56:48.82	253.76	3.47	-85.2	-88.6	2.9	1.55e+00	0	47	104	0	60	1048575
2026-01-18 11:56:49.82	253.88	3.51	-85.2	-88.6	2.8	1.56e+00	0	47	104	0	60	1048575
2026-01-18 11:56:50.83	254.00	3.55	-85.2	-88.6	3.0	1.55e+00	0	47	104	0	60	1048575
2026-01-18 11:56:51.83	254.12	3.59	-84.3	-88.6	2.9	1.56e+00	0	47	104	0	60	1048573
2026-01-18 11:56:52.84	254.23	3.63	-85.2	-88.6	3.1	1.56e+00	0	47	104	0	60	1048573
2026-01-18 11:56:53.84	254.35	3.67	-85.2	-88.6	2.9	1.56e+00	0	47	104	0	60	1048575
2026-01-18 11:56:54.85	254.47	3.71	-85.2	-88.6	2.9	1.56e+00	0	47	104	0	60	1048574
2026-01-18 11:56:55.85	254.59	3.75	-85.2	-88.6	3.0	1.56e+00	0	47	104	0	60	1048575
2026-01-18 11:56:56.86	254.71	3.79	-85.2	-88.6	3.1	1.56e+00	0	47	104	0	60	1048575
2026-01-18 11:56:57.86	254.83	3.83	-85.2	-88.6	2.9	1.56e+00	0	47	104	0	60	1048574
2026-01-18 11:56:58.86	254.95	3.87	-85.2	-88.6	3.0	1.56e+00	0	47	104	0	60	1048573
2026-01-18 11:56:59.87	255.07	3.91	-85.2	-88.6	3.1	1.55e+00	0	47	104	0	60	1048570
2026-01-18 11:57:00.87	255.19	3.94	-85.2	-88.6	3.1	1.56e+00	0	47	104	0	60	1048575
2026-01-18 11:57:01.88	255.31	3.98	-85.2	-88.6	3.1	1.56e+00	0	47	104	0	60	1048575
2026-01-18 11:57:02.88	255.43	4.02	-85.2	-88.6	3.0	1.56e+00	0	47	104	0	60	1048574
2026-01-18 11:57:03.89	255.55	4.06	-85.2	-88.6	2.9	1.56e+00	0	47	104	0	60	1048574
2026-01-18 11:57:04.89	255.68	4.10	-85.2	-88.6	2.9	1.56e+00	0	47	104	0	60	1048571
2026-01-18 11:57:05.90	255.80	4.14	-85.2	-88.6	3.1	1.56e+00	0	47	104	0	60	1048575
2026-01-18 11:57:06.90	255.92	4.18	-85.2	-88.6	3.1	1.56e+00	0	47	104	0	60	1048572
2026-01-18 11:57:07.91	256.04	4.22	-85.2	-88.6	2.8	1.56e+00	0	47	104	0	60	1048575
2026-01-18 11:57:08.91	256.17	4.26	-85.2	-88.6	2.9	1.56e+00	0	47	104	0	60	1048574
2026-01-18 11:57:09.91	256.29	4.30	-85.2	-88.6	3.0	1.56e+00	0	47	104	0	60	1048574
2026-01-18 11:57:10.92	256.41	4.34	-85.2	-88.6	3.0	1.56e+00	0	47	104	0	60	1048575
2026-01-18 11:57:11.93	256.54	4.38	-85.2	-88.6	2.7	1.56e+00	0	47	104	0	60	1048571
2026-01-18 11:57:12.93	256.66	4.41	-85.2	-88.6	3.2	1.55e+00	0	47	104	0	60	1048573
2026-01-18 11:57:13.93	256.79	4.45	-85.2	-88.6	2.9	1.56e+00	0	47	104	0	60	1048574
2026-01-18 11:57:14.94	256.91	4.49	-85.2	-88.6	2.9	1.56e+00	0	47	104	0	60	1048575
2026-01-18 11:57:15.94	257.04	4.53	-85.2	-88.6	3.1	1.55e+00	0	47	104	0	60	1048575
2026-01-18 11:57:16.95	257.16	4.57	-85.2	-88.6	2.8	1.55e+00	0	47	104	0	60	1048575
2026-01-18 11:57:17.95	257.29	4.61	-84.3	-88.6	2.9	1.56e+00	0	47	104	0	60	1048575
2026-01-18 11:57:18.95	257.42	4.65	-85.2	-88.6	2.9	1.56e+00	0	47	104	0	60	1048575
2026-01-18 11:57:19.96	257.54	4.68	-84.7	-88.6	3.0	1.56e+00	0	47	104	0	60	1048575
2026-01-18 11:57:20.97	257.67	4.72	-85.2	-88.6	3.0	1.56e+00	0	47	104	0	60	1048575
2026-01-18 11:57:21.97	257.80	4.76	-85.2	-88.6	3.0	1.56e+00	0	47	104	0	60	1048574
2026-01-18 11:57:22.97	257.92	4.80	-85.2	-88.6	2.8	1.56e+00	0	47	104	0	60	1048575
2026-01-18 11:57:23.98	258.05	4.84	-85.2	-88.6	2.9	1.56e+00	0	47	104	0	60	1048575
2026-01-18 11:57:24.99	258.18	4.88	-85.2	-88.6	3.1	1.56e+00	0	47	104	0	60	1048575
2026-01-18 11:57:25.99	258.31	4.91	-85.2	-88.6	2.9	1.56e+00	0	47	104	0	60	1048574
2026-01-18 11:57:27.00	258.44	4.95	-84.7	-88.6	3.1	1.56e+00	0	47	104	0	60	1048574
2026-01-18 11:57:28.01	258.57	4.99	-85.2	-88.6	2.9	1.56e+00	0	47	104	0	60	1048575
2026-01-18 11:57:29.01	258.70	5.03	-85.2	-88.6	2.9	1.56e+00	0	47	104	0	60	1048574
2026-01-18 11:57:30.01	258.83	5.06	-85.2	-88.6	3.1	1.56e+00	0	47	104	0	60	1048575
2026-01-18 11:57:31.02	258.96	5.10	-85.2	-88.6	3.0	1.56e+00	0	47	104	0	60	1048572
2026-01-18 11:57:32.01	259.09	5.14	-85.2	-88.6	3.1	1.56e+00	0	47	104	0	60	1048574
2026-01-18 11:57:33.02	259.22	5.18	-85.2	-88.6	3.0	1.56e+00	0	47	104	0	60	1048575
2026-01-18 11:57:34.02	259.35	5.21	-85.2	-88.6	2.8	1.55e+00	0	47	104	0	60	1048574
2026-01-18 11:57:35.02	259.48	5.25	-85.2	-88.6	3.0	1.56e+00	0	47	104	0	60	1048574
2026-01-18 11:57:36.03	259.61	5.29	-85.2	-88.6	3.1	1.56e+00	0	47	104	0	60	1048574
2026-01-18 11:57:37.03	259.74	5.33	-85.2	-88.6	2.9	1.55e+00	0	47	104	0	60	1048575
2026-01-18 11:57:38.04	259.88	5.36	-85.2	-88.6	2.9	1.56e+00	0	47	104	0	60	1048575
2026-01-18 11:57:39.04	260.01	5.40	-85.2	-88.6	2.9	1.56e+00	0	47	104	0	60	1048575
2026-01-18 11:57:40.05	260.14	5.44	-85.2	-88.6	3.3	1.56e+00	0	47	104	0	60	1048575
2026-01-18 11:57:41.06	260.28	5.48	-85.2	-88.6	3.1	1.56e+00	0	47	104	0	60	1048575
2026-01-18 11:57:42.06	260.41	5.51	-85.2	-88.6	3.0	1.55e+00	0	47	104	0	60	1048575
2026-01-18 11:57:43.06	260.54	5.55	-85.2	-88.6	3.1	1.56e+00	0	47	104	0	60	1048574
2026-01-18 11:57:44.07	260.68	5.59	-85.2	-88.6	3.1	1.55e+00	0	47	104	0	60	1048575
2026-01-18 11:57:45.07	260.81	5.62	-85.2	-88.6	3.1	1.56e+00	0	47	104	0	60	1048571
2026-01-18 11:57:46.08	260.95	5.66	-85.2	-88.6	2.9	1.56e+00	0	47	104	0	60	1048574
2026-01-18 11:57:47.08	261.08	5.70	-85.2	-88.6	2.9	1.56e+00	0	47	104	0	60	1048575
2026-01-18 11:57:48.08	261.22	5.73	-85.2	-88.6	3.2	1.55e+00	0	47	104	0	60	1048575
2026-01-18 11:57:49.09	261.35	5.77	-85.2	-88.6	2.9	1.55e+00	0	47	104	0	60	1048575
2026-01-18 11:57:50.09	261.49	5.80	-85.2	-88.6	3.0	1.56e+00	0	47	104	0	60	1048575
2026-01-18 11:57:51.09	261.63	5.84	-85.2	-88.6	2.8	1.56e+00	0	47	104	0	60	1048574
2026-01-18 11:57:52.10	261.76	5.88	-85.2	-88.6	3.1	1.56e+00	0	47	104	0	60	1048575
2026-01-18 11:57:53.11	261.90	5.91	-85.2	-88.6	3.0	1.56e+00	0	47	104	0	60	1048575
2026-01-18 11:57:54.11	262.04	5.95	-85.2	-88.6	2.9	1.55e+00	0	47	104	0	60	1048574
2026-01-18 11:57:55.12	262.18	5.99	-85.2	-88.6	3.0	1.56e+00	0	47	104	0	60	1048575
2026-01-18 11:57:56.13	262.32	6.02	-85.2	-88.6	3.1	1.55e+00	0	47	104	0	60	1048575
2026-01-18 11:57:57.14	262.46	6.06	-85.2	-88.6	3.1	1.56e+00	0	47	104	0	60	1048575
2026-01-18 11:57:58.14	262.59	6.09	-85.2	-88.6	2.8	1.55e+00	0	47	104	0	60	1048575
2026-01-18 11:57:59.15	262.73	6.13	-85.2	-88.6	2.9	1.56e+00	0	47	104	0	60	1048575
2026-01-18 11:58:00.15	262.87	6.16	-85.2	-88.6	2.9	1.56e+00	0	47	104	0	60	1048573
2026-01-18 11:58:01.16	263.01	6.20	-85.2	-88.6	3.0	1.56e+00	0	47	104	0	60	1048574
2026-01-18 11:58:02.16	263.15	6.23	-85.2	-88.6	3.1	1.56e+00	0	47	104	0	60	1048575
2026-01-18 11:58:03.17	263.29	6.27	-85.2	-88.6	3.1	1.56e+00	0	47	104	0	60	1048575
2026-01-18 11:58:04.17	263.43	6.30	-85.2	-88.6	3.2	1.55e+00	0	47	104	0	60	1048575
2026-01-18 11:58:05.18	263.58	6.34	-85.2	-88.6	3.0	1.56e+00	0	47	104	0	60	1048574
2026-01-18 11:58:06.18	263.72	6.37	-85.2	-88.6	3.0	1.56e+00	0	47	104	0	60	1048573
2026-01-18 11:58:07.19	263.86	6.41	-85.2	-88.6	3.1	1.56e+00	0	47	104	0	60	1048575
2026-01-18 11:58:08.19	264.00	6.44	-85.2	-88.6	3.0	1.56e+00	0	47	104	0	60	1048573
2026-01-18 11:58:09.19	264.14	6.48	-85.2	-88.6	3.0	1.56e+00	0	47	104	0	60	1048575
2026-01-18 11:58:10.20	264.29	6.51	-85.2	-88.6	2.9	1.56e+00	0	47	104	0	60	1048575
2026-01-18 11:58:11.20	264.43	6.55	-85.2	-88.6	3.0	1.56e+00	0	47	104	0	60	1048574
2026-01-18 11:58:12.20	264.57	6.58	-85.2	-88.6	3.1	1.55e+00	0	47	104	0	60	1048575
2026-01-18 11:58:13.21	264.72	6.61	-85.2	-88.6	3.0	1.56e+00	0	47	104	0	60	1048574
2026-01-18 11:58:14.22	264.86	6.65	-85.2	-88.6	2.9	1.56e+00	0	47	104	0	60	1048575
2026-01-18 11:58:15.22	265.01	6.68	-85.2	-88.6	3.0	1.55e+00	0	47	104	0	60	1048572
2026-01-18 11:58:16.22	265.15	6.72	-85.2	-88.6	2.8	1.56e+00	0	47	104	0	60	1048575
2026-01-18 11:58:17.23	265.30	6.75	-85.2	-88.6	3.2	1.56e+00	0	47	104	0	60	1048575
2026-01-18 11:58:18.24	265.44	6.78	-85.2	-88.6	2.9	1.56e+00	0	47	104	0	60	1048574
2026-01-18 11:58:19.24	265.59	6.82	-85.2	-88.6	3.1	1.56e+00	0	47	104	0	60	1048574
2026-01-18 11:58:20.25	265.73	6.85	-85.2	-88.6	3.0	1.56e+00	0	47	104	0	60	1048575
2026-01-18 11:58:21.26	265.88	6.88	-85.2	-88.6	3.0	1.56e+00	0	47	104	0	60	1048575
2026-01-18 11:58:22.26	266.03	6.92	-85.2	-88.6	2.9	1.56e+00	0	47	104	0	60	1048575
2026-01-18 11:58:23.27	266.17	6.95	-84.3	-88.6	2.8	1.56e+00	0	47	104	0	60	1048575
2026-01-18 11:58:24.27	266.32	6.98	-85.2	-88.6	2.9	1.56e+00	0	47	104	0	60	1048575
2026-01-18 11:58:25.28	266.47	7.02	-85.2	-88.6	2.8	1.56e+00	0	47	104	0	60	1048574
2026-01-18 11:58:26.28	266.62	7.05	-85.2	-88.6	2.9	1.56e+00	0	47	104	0	60	1048575
2026-01-18 11:58:27.29	266.77	7.08	-85.2	-88.6	3.1	1.56e+00	0	47	104	0	60	1048575
2026-01-18 11:58:28.30	266.92	7.11	-85.2	-88.6	2.8	1.56e+00	0	47	104	0	60	1048575
2026-01-18 11:58:29.30	267.06	7.15	-85.2	-88.6	3.0	1.56e+00	0	47	104	0	60	1048572
2026-01-18 11:58:30.31	267.21	7.18	-85.2	-88.6	3.0	1.55e+00	0	47	104	0	60	1048575
2026-01-18 11:58:31.31	267.36	7.21	-85.2	-88.6	2.9	1.55e+00	0	47	104	0	60	1048575
2026-01-18 11:58:32.31	267.51	7.24	-85.2	-88.6	3.0	1.55e+00	0	47	104	0	60	1048575
2026-01-18 11:58:33.31	267.66	7.27	-85.2	-88.6	3.0	1.56e+00	0	47	104	0	60	1048575
2026-01-18 11:58:34.32	267.81	7.31	-85.2	-88.6	2.9	1.56e+00	0	47	104	0	60	1048572
2026-01-18 11:58:35.33	267.96	7.34	-85.2	-88.6	3.1	1.56e+00	0	47	104	0	60	1048567
2026-01-18 11:58:36.33	268.11	7.37	-85.2	-88.6	3.0	1.56e+00	0	47	104	0	60	1048573
2026-01-18 11:58:37.33	268.26	7.40	-85.2	-88.6	2.8	1.56e+00	0	47	104	0	60	1048575
2026-01-18 11:58:38.34	268.42	7.43	-85.2	-88.6	2.8	1.56e+00	0	47	104	0	60	1048575
2026-01-18 11:58:39.34	268.57	7.46	-85.2	-88.6	3.0	1.55e+00	0	47	104	0	60	1048574
2026-01-18 11:58:40.35	268.72	7.49	-85.2	-88.6	3.1	1.56e+00	0	47	104	0	60	1048574
2026-01-18 11:58:41.35	268.87	7.52	-85.2	-88.6	3.2	1.55e+00	0	47	104	0	60	1048573
2026-01-18 11:58:42.35	269.03	7.55	-85.2	-88.6	3.2	1.56e+00	0	47	104	0	60	1048575
2026-01-18 11:58:43.36	269.18	7.58	-85.2	-88.6	3.0	1.56e+00	0	47	104	0	60	1048573
2026-01-18 11:58:44.37	269.33	7.61	-85.2	-88.6	3.1	1.56e+00	0	47	104	0	60	1048575
2026-01-18 11:58:45.37	269.49	7.64	-85.2	-88.6	2.9	1.56e+00	0	47	104	0	60	1048572
2026-01-18 11:58:46.38	269.64	7.68	-85.2	-88.6	2.8	1.56e+00	0	47	104	0	60	1048575
2026-01-18 11:58:47.38	269.80	7.70	-85.2	-88.6	3.2	1.56e+00	0	47	104	0	60	1048575
2026-01-18 11:58:48.39	269.95	7.73	-84.3	-88.6	3.1	1.55e+00	0	47	104	0	60	1048575
2026-01-18 11:58:49.40	270.11	7.76	-85.2	-88.6	2.9	1.55e+00	0	47	104	0	60	1048575
2026-01-18 11:58:50.40	270.26	7.79	-85.2	-88.6	3.0	1.56e+00	0	47	104	0	60	1048575
2026-01-18 11:58:51.41	270.42	7.82	-85.2	-88.6	3.2	1.56e+00	0	47	104	0	60	1048574
2026-01-18 11:58:52.41	270.58	7.85	-85.2	-88.6	2.9	1.55e+00	0	47	104	0	60	1048575
2026-01-18 11:58:53.41	270.73	7.88	-85.2	-88.6	3.1	1.56e+00	0	47	104	0	60	1048575
2026-01-18 11:58:54.42	270.89	7.91	-85.2	-88.6	2.9	1.55e+00	0	47	104	0	60	1048575
2026-01-18 11:58:55.43	271.05	7.94	-85.2	-88.6	3.0	1.56e+00	0	47	104	0	60	1048575
2026-01-18 11:58:56.44	271.20	7.97	-85.2	-88.6	3.1	1.56e+00	0	47	104	0	60	1048575
2026-01-18 11:58:57.44	271.36	8.00	-85.2	-88.6	3.0	1.56e+00	0	47	104	0	60	1048574
2026-01-18 11:58:58.44	271.52	8.02	-85.2	-88.6	3.1	1.55e+00	0	47	104	0	60	1048575
2026-01-18 11:58:59.44	271.68	8.05	-85.2	-88.6	2.9	1.55e+00	0	47	104	0	60	1048575
2026-01-18 11:59:00.44	271.83	8.08	-85.2	-88.6	3.0	1.56e+00	0	47	104	0	60	1048575
2026-01-18 11:59:01.45	271.99	8.11	-85.2	-88.6	2.8	1.56e+00	0	47	104	0	60	1048575
2026-01-18 11:59:02.45	272.15	8.14	-85.2	-88.6	3.1	1.55e+00	0	47	104	0	60	1048574
2026-01-18 11:59:03.45	272.31	8.16	-85.2	-88.6	3.0	1.56e+00	0	47	104	0	60	1048573
2026-01-18 11:59:04.46	272.47	8.19	-85.2	-88.6	3.0	1.56e+00	0	47	104	0	60	1048574
2026-01-18 11:59:05.46	272.63	8.22	-85.2	-88.6	3.0	1.55e+00	0	47	104	0	60	1048573
2026-01-18 11:59:06.46	272.79	8.24	-85.2	-88.6	3.1	1.56e+00	0	47	104	0	60	1048575
2026-01-18 11:59:07.47	272.95	8.27	-85.2	-88.6	2.9	1.56e+00	0	47	104	0	60	1048574
2026-01-18 11:59:08.48	273.11	8.30	-85.2	-88.6	3.2	1.55e+00	0	47	104	0	60	1048573
2026-01-18 11:59:09.48	273.27	8.33	-85.2	-88.6	3.1	1.56e+00	0	47	104	0	60	1048575
2026-01-18 11:59:10.49	273.43	8.35	-85.2	-88.6	2.8	1.56e+00	0	47	104	0	60	1048575
2026-01-18 11:59:11.49	273.59	8.38	-85.2	-88.6	2.9	1.56e+00	0	47	104	0	60	1048575
2026-01-18 11:59:12.50	273.76	8.40	-85.2	-88.6	3.0	1.55e+00	0	47	104	0	60	1048575
2026-01-18 11:59:13.50	273.92	8.43	-84.7	-88.6	2.9	1.56e+00	0	47	104	0	60	1048575
2026-01-18 11:59:14.50	274.08	8.46	-85.2	-88.6	2.9	1.56e+00	0	47	104	0	60	1048571
2026-01-18 11:59:15.51	274.24	8.48	-85.2	-88.6	3.1	1.56e+00	0	47	104	0	60	1048575
2026-01-18 11:59:16.52	274.41	8.51	-85.2	-88.6	3.1	1.56e+00	0	47	104	0	60	1048575
2026-01-18 11:59:17.52	274.57	8.53	-85.2	-88.6	3.0	1.56e+00	0	47	104	0	60	1048574
2026-01-18 11:59:18.53	274.73	8.56	-85.2	-88.6	3.1	1.56e+00	0	47	104	0	60	1048574
2026-01-18 11:59:19.53	274.90	8.58	-85.2	-88.6	3.1	1.55e+00	0	47	104	0	60	1048575
2026-01-18 11:59:20.54	275.06	8.61	-85.2	-88.6	2.9	1.55e+00	0	47	104	0	60	1048573
2026-01-18 11:59:21.54	275.22	8.63	-83.9	-88.6	2.9	1.56e+00	0	47	104	0	60	1048575
2026-01-18 11:59:22.55	275.39	8.65	-84.7	-88.6	3.0	1.56e+00	0	47	104	0	60	1048575
2026-01-18 11:59:23.56	275.56	8.68	-85.2	-88.6	2.9	1.56e+00	0	47	104	0	60	1048575
2026-01-18 11:59:24.56	275.72	8.70	-85.2	-88.6	3.2	1.55e+00	0	47	104	0	60	1048575
2026-01-18 11:59:25.57	275.89	8.73	-84.7	-88.6	3.2	1.56e+00	0	47	104	0	60	1048574
2026-01-18 11:59:26.57	276.05	8.75	-85.2	-88.6	3.2	1.56e+00	0	47	104	0	60	1048574
2026-01-18 11:59:27.58	276.22	8.77	-85.2	-88.6	3.0	1.56e+00	0	47	104	0	60	1048572
2026-01-18 11:59:28.58	276.38	8.80	-82.0	-88.6	2.9	1.56e+00	0	47	104	0	60	1048575
2026-01-18 11:59:29.58	276.55	8.82	-85.2	-88.6	2.9	1.56e+00	0	47	104	0	60	1048575
2026-01-18 11:59:30.58	276.71	8.84	-85.2	-88.6	2.9	1.56e+00	0	47	104	0	60	1048574
2026-01-18 11:59:31.59	276.88	8.87	-85.2	-88.6	2.8	1.55e+00	0	47	104	0	60	1048575
2026-01-18 11:59:32.59	277.05	8.89	-85.2	-88.6	3.0	1.56e+00	0	47	104	0	60	1048574
2026-01-18 11:59:33.60	277.22	8.91	-85.2	-88.6	3.1	1.55e+00	0	47	104	0	60	1048575
2026-01-18 11:59:34.60	277.38	8.93	-85.2	-88.6	3.0	1.55e+00	0	47	104	0	60	1048574
2026-01-18 11:59:35.60	277.55	8.95	-85.2	-88.6	3.1	1.55e+00	0	47	104	0	60	1048573
2026-01-18 11:59:36.61	277.72	8.98	-84.3	-88.6	2.9	1.55e+00	0	47	104	0	60	1048575
2026-01-18 11:59:37.62	277.89	9.00	-85.2	-88.6	3.0	1.56e+00	0	47	104	0	60	1048574
2026-01-18 11:59:38.63	278.06	9.02	-85.2	-88.6	2.9	1.55e+00	0	47	104	0	60	1048575
2026-01-18 11:59:39.63	278.23	9.04	-85.2	-88.6	3.2	1.56e+00	0	47	104	0	60	1048575
2026-01-18 11:59:40.64	278.40	9.06	-85.2	-88.6	3.1	1.56e+00	0	47	104	0	60	1048575
2026-01-18 11:59:41.64	278.56	9.08	-85.2	-88.6	2.9	1.55e+00	0	47	104	0	60	1048575
2026-01-18 11:59:42.65	278.73	9.10	-85.2	-88.6	2.8	1.56e+00	0	47	104	0	60	1048574
2026-01-18 11:59:43.65	278.90	9.12	-85.2	-88.6	2.8	1.56e+00	0	47	104	0	60	1048575
2026-01-18 11:59:44.66	279.07	9.14	-85.2	-88.6	2.9	1.55e+00	0	47	104	0	60	1048575
2026-01-18 11:59:45.66	279.24	9.16	-85.2	-88.6	2.9	1.56e+00	0	47	104	0	60	1048574
2026-01-18 11:59:46.67	279.41	9.18	-85.2	-88.6	2.8	1.56e+00	0	47	104	0	60	1048573
2026-01-18 11:59:47.67	279.58	9.20	-85.2	-88.6	2.9	1.56e+00	0	47	104	0	60	1048575
2026-01-18 11:59:48.68	279.76	9.22	-85.2	-88.6	3.0	1.56e+00	0	47	104	0	60	1048574
2026-01-18 11:59:49.68	279.93	9.24	-85.2	-88.6	3.1	1.55e+00	0	47	104	0	60	1048574
2026-01-18 11:59:50.69	280.10	9.26	-85.2	-88.6	3.0	1.55e+00	0	47	104	0	60	1048575
2026-01-18 11:59:51.69	280.27	9.28	-85.2	-88.6	3.2	1.56e+00	0	47	104	0	60	1048575
2026-01-18 11:59:52.70	280.44	9.30	-85.2	-88.6	2.9	1.55e+00	0	47	104	0	60	1048572
2026-01-18 11:59:53.70	280.61	9.31	-85.2	-88.6	2.9	1.56e+00	0	47	104	0	60	1048575
2026-01-18 11:59:54.71	280.79	9.33	-85.2	-88.6	3.0	1.56e+00	0	47	104	0	60	1048574
2026-01-18 11:59:55.71	280.96	9.35	-85.2	-88.6	2.8	1.55e+00	0	47	104	0	60	1048575
2026-01-18 11:59:56.72	281.13	9.37	-85.2	-88.6	2.9	1.55e+00	0	47	104	0	60	1048574
2026-01-18 11:59:57.72	281.30	9.38	-83.5	-88.6	3.0	1.56e+00	0	47	104	0	60	1048575
2026-01-18 11:59:58.73	281.48	9.40	-85.2	-88.6	3.0	1.55e+00	0	47	104	0	60	1048575
2026-01-18 11:59:59.74	281.65	9.42	-85.2	-88.6	3.0	1.55e+00	0	47	104	0	60	1048575
2026-01-18 12:00:00.74	281.82	9.44	-85.2	-88.6	3.0	1.56e+00	0	47	104	0	60	1048574
2026-01-18 12:00:01.74	281.99	9.45	-85.2	-88.6	3.0	1.55e+00	0	47	104	0	60	1048575
2026-01-18 12:00:02.74	282.17	9.47	-85.2	-88.6	3.0	1.56e+00	0	47	104	0	60	1048574
2026-01-18 12:00:03.75	282.34	9.48	-85.2	-88.6	2.9	1.55e+00	0	47	104	0	60	1048574
2026-01-18 12:00:04.75	282.52	9.50	-85.2	-88.6	3.0	1.56e+00	0	47	104	0	60	1048575
2026-01-18 12:00:05.75	282.69	9.52	-85.2	-88.6	3.0	1.55e+00	0	47	104	0	60	1048575
2026-01-18 12:00:06.76	282.86	9.53	-84.3	-88.6	3.1	1.56e+00	0	47	104	0	60	1048574
2026-01-18 12:00:07.76	283.04	9.55	-84.3	-88.6	2.9	1.55e+00	0	47	104	0	60	1048575
2026-01-18 12:00:08.76	283.21	9.56	-85.2	-88.6	2.9	1.56e+00	0	47	104	0	60	1048573
2026-01-18 12:00:09.77	283.39	9.58	-85.2	-88.6	3.1	1.56e+00	0	47	104	0	60	1048575
2026-01-18 12:00:10.77	283.56	9.59	-85.2	-88.6	3.0	1.56e+00	0	47	104	0	60	1048575
2026-01-18 12:00:11.77	283.74	9.61	-85.2	-88.6	2.8	1.56e+00	0	47	104	0	60	1048575
2026-01-18 12:00:12.78	283.91	9.62	-85.2	-88.6	2.9	1.55e+00	0	47	104	0	60	1048575
2026-01-18 12:00:13.78	284.09	9.63	-85.2	-88.6	3.1	1.56e+00	0	47	104	0	60	1048575
2026-01-18 12:00:14.78	284.26	9.65	-85.2	-88.6	3.0	1.55e+00	0	47	104	0	60	1048575
2026-01-18 12:00:15.79	284.44	9.66	-85.2	-88.6	3.0	1.56e+00	0	47	104	0	60	1048574
2026-01-18 12:00:16.80	284.61	9.67	-85.2	-88.6	3.0	1.56e+00	0	47	104	0	60	1048572
2026-01-18 12:00:17.80	284.79	9.69	-85.2	-88.6	3.0	1.56e+00	0	47	104	0	60	1048572
2026-01-18 12:00:18.80	284.97	9.70	-85.2	-88.6	3.0	1.55e+00	0	47	104	0	60	1048575
2026-01-18 12:00:19.81	285.14	9.71	-85.2	-88.6	3.2	1.55e+00	0	47	104	0	60	1048575
2026-01-18 12:00:20.82	285.32	9.72	-85.2	-88.6	2.9	1.56e+00	0	47	104	0	60	1048575
2026-01-18 12:00:21.82	285.50	9.74	-85.2	-88.6	3.2	1.56e+00	0	47	104	0	60	1048572
2026-01-18 12:00:22.83	285.67	9.75	-85.2	-88.6	3.0	1.56e+00	0	47	104	0	60	1048574
2026-01-18 12:00:23.84	285.85	9.76	-85.2	-88.6	2.9	1.55e+00	0	47	104	0	60	1048575
2026-01-18 12:00:24.84	286.03	9.77	-85.2	-88.6	2.8	1.56e+00	0	47	104	0	60	1048575
2026-01-18 12:00:25.84	286.20	9.78	-85.2	-88.6	3.0	1.56e+00	0	47	104	0	60	1048575
2026-01-18 12:00:26.84	286.38	9.79	-85.2	-88.6	3.1	1.56e+00	0	47	104	0	60	1048574
2026-01-18 12:00:27.85	286.56	9.80	-85.2	-88.6	3.0	1.55e+00	0	47	104	0	60	1048574
2026-01-18 12:00:28.85	286.74	9.81	-85.2	-88.6	3.0	1.56e+00	0	47	104	0	60	1048575
2026-01-18 12:00:29.85	286.91	9.82	-85.2	-88.6	2.9	1.56e+00	0	47	104	0	60	1048574
2026-01-18 12:00:30.86	287.09	9.83	-85.2	-88.6	3.0	1.56e+00	0	47	104	0	60	1048574
2026-01-18 12:00:31.87	287.27	9.84	-85.2	-88.6	2.9	1.56e+00	0	47	104	0	60	1048575
2026-01-18 12:00:32.87	287.45	9.85	-85.2	-88.6	2.9	1.56e+00	0	47	104	0	60	1048575
2026-01-18 12:00:33.88	287.63	9.86	-85.2	-88.6	2.9	1.56e+00	0	47	104	0	60	1048573
2026-01-18 12:00:34.88	287.80	9.87	-85.2	-88.6	2.9	1.56e+00	0	47	104	0	60	1048575
2026-01-18 12:00:35.88	287.98	9.88	-85.2	-88.6	2.7	1.55e+00	0	47	104	0	60	1048573
2026-01-18 12:00:36.88	288.16	9.89	-85.2	-88.6	3.0	1.55e+00	0	47	104	0	60	1048575
2026-01-18 12:00:37.88	288.34	9.90	-85.2	-88.6	3.1	1.56e+00	0	47	104	0	60	1048572
2026-01-18 12:00:38.89	288.52	9.91	-85.2	-88.6	2.9	1.56e+00	0	47	104	0	60	1048574
2026-01-18 12:00:39.89	288.69	9.91	-85.2	-88.6	3.1	1.55e+00	0	47	104	0	60	1048572
2026-01-18 12:00:40.90	288.87	9.92	-85.2	-88.6	3.1	1.55e+00	0	47	104	0	60	1048571
2026-01-18 12:00:41.90	289.05	9.93	-85.2	-88.6	2.8	1.56e+00	0	47	104	0	60	1048575
2026-01-18 12:00:42.90	289.23	9.94	-85.2	-88.6	2.8	1.56e+00	0	47	104	0	60	1048575
2026-01-18 12:00:43.91	289.41	9.94	-85.2	-88.6	2.9	1.55e+00	0	47	104	0	60	1048575
2026-01-18 12:00:44.91	289.59	9.95	-85.2	-88.6	2.7	1.56e+00	0	47	104	0	60	1048573
2026-01-18 12:00:45.92	289.77	9.96	-85.2	-88.6	3.1	1.56e+00	0	47	104	0	60	1048574
2026-01-18 12:00:46.93	289.95	9.96	-85.2	-88.6	2.9	1.55e+00	0	47	104	0	60	1048571
2026-01-18 12:00:47.93	290.13	9.97	-85.2	-88.6	3.1	1.56e+00	0	47	104	0	60	1048574
2026-01-18 12:00:48.94	290.31	9.97	-85.2	-88.6	2.9	1.56e+00	0	47	104	0	60	1048575
2026-01-18 12:00:49.94	290.49	9.98	-85.2	-88.6	3.0	1.56e+00	0	47	104	0	60	1048575
2026-01-18 12:00:50.95	290.67	9.98	-85.2	-88.6	3.1	1.56e+00	0	47	104	0	60	1048575
2026-01-18 12:00:51.96	290.85	9.99	-83.5	-88.6	2.9	1.56e+00	0	47	104	0	60	1048575
2026-01-18 12:00:52.96	291.03	9.99	-85.2	-88.6	2.9	1.56e+00	0	47	104	0	60	1048575
2026-01-18 12:00:53.96	291.21	10.00	-85.2	-88.6	3.1	1.56e+00	0	47	104	0	60	1048575
2026-01-18 12:00:54.96	291.38	10.00	-85.2	-88.6	3.2	1.56e+00	0	47	104	0	60	1048575
2026-01-18 12:00:55.97	291.56	10.01	-85.2	-88.6	3.1	1.56e+00	0	47	104	0	60	1048575
2026-01-18 12:00:56.97	291.74	10.01	-85.2	-88.6	3.2	1.56e+00	0	47	104	0	60	1048572
2026-01-18 12:00:57.98	291.92	10.01	-85.2	-88.6	3.0	1.55e+00	0	47	104	0	60	1048575
2026-01-18 12:00:58.98	292.10	10.02	-85.2	-88.6	3.0	1.56e+00	0	47	104	0	60	1048575
2026-01-18 12:00:59.99	292.28	10.02	-85.2	-88.6	2.9	1.55e+00	0	47	104	0	60	1048575
2026-01-18 12:01:00.99	292.46	10.02	-85.2	-88.6	3.1	1.56e+00	0	47	104	0	60	1048574
2026-01-18 12:01:01.99	292.64	10.02	-85.2	-88.6	3.0	1.56e+00	0	47	104	0	60	1048571
2026-01-18 12:01:02.99	292.82	10.03	-85.2	-88.6	3.2	1.56e+00	0	47	104	0	60	1048572
2026-01-18 12:01:04.00	293.00	10.03	-85.2	-88.6	2.8	1.56e+00	0	47	104	0	60	1048575
2026-01-18 12:01:05.01	293.18	10.03	-85.2	-88.6	3.0	1.56e+00	0	47	104	0	60	1048574
2026-01-18 12:01:06.01	293.36	10.03	-85.2	-88.6	3.1	1.55e+00	0	47	104	0	60	1048575
2026-01-18 12:01:07.01	293.54	10.03	-85.2	-88.6	3.0	1.56e+00	0	47	104	0	60	1048572
2026-01-18 12:01:08.02	293.72	10.03	-83.5	-88.6	3.1	1.55e+00	0	47	104	0	60	1048573
2026-01-18 12:01:09.03	293.90	10.03	-85.2	-88.6	3.0	1.55e+00	0	47	104	0	60	1048575
2026-01-18 12:01:10.03	294.08	10.03	-85.2	-88.6	3.0	1.55e+00	0	47	104	0	60	1048574
2026-01-18 12:01:11.04	294.27	10.03	-85.2	-88.6	3.0	1.55e+00	0	47	104	0	60	1048575
2026-01-18 12:01:12.04	294.44	10.03	-85.2	-88.6	2.9	1.56e+00	0	47	104	0	60	1048574
2026-01-18 12:01:13.05	294.63	10.03	-85.2	-88.6	3.2	1.56e+00	0	47	104	0	60	1048573
2026-01-18 12:01:14.06	294.81	10.03	-85.2	-88.6	3.0	1.56e+00	0	47	104	0	60	1048575
2026-01-18 12:01:15.07	294.99	10.03	-85.2	-88.6	3.1	1.56e+00	0	47	104	0	60	1048575
2026-01-18 12:01:16.07	295.17	10.03	-85.2	-88.6	2.9	1.56e+00	0	47	104	0	60	1048572
2026-01-18 12:01:17.07	295.35	10.03	-85.2	-88.6	2.8	1.56e+00	0	47	104	0	60	1048574
2026-01-18 12:01:18.07	295.53	10.03	-85.2	-88.6	3.1	1.56e+00	0	47	104	0	60	1048573
2026-01-18 12:01:19.08	295.71	10.03	-84.7	-88.6	2.8	1.56e+00	0	47	104	0	60	1048574
2026-01-18 12:01:20.08	295.89	10.03	-85.2	-88.6	3.0	1.56e+00	0	47	104	0	60	1048574
2026-01-18 12:01:21.09	296.07	10.02	-85.2	-88.6	3.2	1.56e+00	0	47	104	0	60	1048571
2026-01-18 12:01:22.09	296.25	10.02	-85.2	-88.6	3.0	1.55e+00	0	47	104	0	60	1048574
2026-01-18 12:01:23.09	296.42	10.02	-85.2	-88.6	3.2	1.56e+00	0	47	104	0	60	1048575
2026-01-18 12:01:24.10	296.61	10.01	-85.2	-88.6	3.2	1.56e+00	0	47	104	0	60	1048572
2026-01-18 12:01:25.10	296.78	10.01	-85.2	-88.6	3.3	1.56e+00	0	47	104	0	60	1048575
2026-01-18 12:01:26.11	296.96	10.01	-85.2	-88.6	3.1	1.56e+00	0	47	104	0	60	1048575
2026-01-18 12:01:27.12	297.15	10.00	-85.2	-88.6	3.1	1.55e+00	0	47	104	0	60	1048571
2026-01-18 12:01:28.12	297.32	10.00	-85.2	-88.6	3.0	1.56e+00	0	47	104	0	60	1048575
2026-01-18 12:01:29.12	297.50	10.00	-85.2	-88.6	3.0	1.56e+00	0	47	104	0	60	1048574
2026-01-18 12:01:30.12	297.68	9.99	-85.2	-88.6	3.1	1.56e+00	0	47	104	0	60	1048575
2026-01-18 12:01:31.13	297.86	9.99	-85.2	-88.6	2.8	1.55e+00	0	47	104	0	60	1048572
2026-01-18 12:01:32.12	298.04	9.98	-85.2	-88.6	3.0	1.56e+00	0	47	104	0	60	1048574
2026-01-18 12:01:33.12	298.22	9.98	-85.2	-88.6	3.0	1.56e+00	0	47	104	0	60	1048575
2026-01-18 12:01:34.13	298.40	9.97	-85.2	-88.6	3.2	1.56e+00	0	47	104	0	60	1048575
2026-01-18 12:01:35.12	298.57	9.97	-85.2	-88.6	3.1	1.56e+00	0	47	104	0	60	1048575
2026-01-18 12:01:36.13	298.75	9.96	-85.2	-88.6	2.8	1.56e+00	0	48	104	0	60	1048575
2026-01-18 12:01:37.14	298.93	9.95	-85.2	-88.6	2.9	1.56e+00	0	47	104	0	60	1048574
2026-01-18 12:01:38.14	299.11	9.95	-85.2	-88.6	2.9	1.56e+00	0	47	104	0	60	1048574
2026-01-18 12:01:39.15	299.29	9.94	-84.7	-88.6	2.9	1.56e+00	0	47	104	0	60	1048573
2026-01-18 12:01:40.15	299.47	9.93	-85.2	-88.6	3.1	1.55e+00	0	47	104	0	60	1048575
2026-01-18 12:01:41.16	299.65	9.93	-85.2	-88.6	3.1	1.56e+00	0	48	104	0	60	1048575
2026-01-18 12:01:42.16	299.83	9.92	-85.2	-88.6	2.8	1.56e+00	0	48	104	0	60	1048575
2026-01-18 12:01:43.16	300.01	9.91	-85.2	-88.6	2.9	1.56e+00	0	47	104	0	60	1048574
2026-01-18 12:01:44.17	300.19	9.90	-85.2	-88.6	2.9	1.56e+00	0	48	104	0	60	1048574
2026-01-18 12:01:45.18	300.37	9.90	-85.2	-88.6	3.0	1.56e+00	0	47	104	0	60	1048574
2026-01-18 12:01:46.18	300.54	9.89	-85.2	-88.6	2.8	1.56e+00	0	47	104	0	60	1048573
2026-01-18 12:01:47.18	300.72	9.88	-85.2	-88.6	2.9	1.55e+00	0	47	104	0	60	1048571
2026-01-18 12:01:48.18	300.90	9.87	-85.2	-88.6	3.1	1.55e+00	0	47	104	0	60	1048573
2026-01-18 12:01:49.18	301.07	9.86	-84.7	-88.6	2.8	1.56e+00	0	47	104	0	60	1048575
2026-01-18 12:01:50.19	301.25	9.85	-85.2	-88.6	3.1	1.55e+00	0	47	104	0	60	1048575
2026-01-18 12:01:51.20	301.43	9.84	-85.2	-88.6	2.8	1.56e+00	0	47	104	0	60	1048574
2026-01-18 12:01:52.20	301.61	9.83	-85.2	-88.6	3.0	1.56e+00	0	47	104	0	60	1048570
2026-01-18 12:01:53.20	301.79	9.82	-85.2	-88.6	2.9	1.56e+00	0	47	104	0	60	1048571
2026-01-18 12:01:54.21	301.96	9.81	-85.2	-88.6	3.0	1.56e+00	0	47	104	0	60	1048573
2026-01-18 12:01:55.21	302.14	9.80	-85.2	-88.6	3.2	1.56e+00	0	47	104	0	60	1048573
2026-01-18 12:01:56.21	302.32	9.79	-85.2	-88.6	3.3	1.55e+00	0	47	104	0	60	1048573
2026-01-18 12:01:57.21	302.49	9.78	-85.2	-88.6	3.0	1.56e+00	0	47	104	0	60	1048575
2026-01-18 12:01:58.22	302.67	9.77	-85.2	-88.6	3.0	1.56e+00	0	47	104	0	60	1048574
2026-01-18 12:01:59.22	302.85	9.76	-85.2	-88.6	3.0	1.56e+00	0	47	104	0	60	1048573
2026-01-18 12:02:00.22	303.02	9.75	-85.2	-88.6	3.1	1.56e+00	0	47	104	0	60	1048572
2026-01-18 12:02:01.22	303.20	9.73	-85.2	-88.6	3.0	1.55e+00	0	47	104	0	60	1048574
2026-01-18 12:02:02.23	303.38	9.72	-85.2	-88.6	2.9	1.55e+00	0	47	104	0	60	1048575
2026-01-18 12:02:03.24	303.55	9.71	-85.2	-88.6	3.1	1.56e+00	0	47	104	0	60	1048575
2026-01-18 12:02:04.24	303.73	9.70	-85.2	-88.6	2.9	1.56e+00	0	47	104	0	60	1048575
2026-01-18 12:02:05.25	303.90	9.68	-85.2	-88.6	3.0	1.55e+00	0	47	104	0	60	1048574
2026-01-18 12:02:06.26	304.08	9.67	-85.2	-88.6	2.9	1.56e+00	0	47	104	0	60	1048574
2026-01-18 12:02:07.26	304.26	9.66	-85.2	-88.6	3.0	1.55e+00	0	47	104	0	60	1048573
2026-01-18 12:02:08.27	304.43	9.64	-85.2	-88.6	2.8	1.56e+00	0	47	104	0	60	1048573
2026-01-18 12:02:09.27	304.61	9.63	-84.7	-88.6	2.9	1.55e+00	0	47	104	0	60	1048575
2026-01-18 12:02:10.28	304.78	9.62	-85.2	-88.6	3.1	1.55e+00	0	47	104	0	60	1048575
2026-01-18 12:02:11.28	304.96	9.60	-85.2	-88.6	2.9	1.56e+00	0	47	104	0	60	1048574
2026-01-18 12:02:12.29	305.13	9.59	-85.2	-88.6	2.9	1.56e+00	0	47	104	0	60	1048575
2026-01-18 12:02:13.29	305.31	9.57	-85.2	-88.6	3.0	1.56e+00	0	47	104	0	60	1048575
2026-01-18 12:02:14.29	305.48	9.56	-85.2	-88.6	3.1	1.56e+00	0	47	104	0	60	1048574
2026-01-18 12:02:15.30	305.66	9.54	-85.2	-88.6	3.0	1.56e+00	0	47	104	0	60	1048575
2026-01-18 12:02:16.31	305.83	9.53	-85.2	-88.6	3.1	1.56e+00	0	47	104	0	60	1048575
2026-01-18 12:02:17.31	306.00	9.51	-85.2	-88.6	3.0	1.56e+00	0	47	104	0	60	1048575
2026-01-18 12:02:18.31	306.18	9.50	-85.2	-88.6	3.0	1.55e+00	0	47	104	0	60	1048575
2026-01-18 12:02:19.32	306.35	9.48	-85.2	-88.6	2.9	1.56e+00	0	47	104	0	60	1048574
2026-01-18 12:02:20.32	306.52	9.47	-85.2	-88.6	3.1	1.55e+00	0	47	104	0	60	1048575
2026-01-18 12:02:21.32	306.70	9.45	-85.2	-88.6	2.9	1.56e+00	0	47	104	0	60	1048575
2026-01-18 12:02:22.33	306.87	9.43	-85.2	-88.6	2.9	1.56e+00	0	47	104	0	60	1048574
2026-01-18 12:02:23.33	307.04	9.42	-85.2	-88.6	2.8	1.56e+00	0	47	104	0	60	1048574
2026-01-18 12:02:24.34	307.21	9.40	-85.2	-88.6	3.0	1.56e+00	0	47	104	0	60	1048574
2026-01-18 12:02:25.35	307.39	9.38	-85.2	-88.6	2.8	1.55e+00	0	47	104	0	60	1048574
2026-01-18 12:02:26.35	307.56	9.36	-85.2	-88.6	3.1	1.56e+00	0	47	104	0	60	1048575
2026-01-18 12:02:27.36	307.73	9.35	-85.2	-88.6	2.8	1.56e+00	0	47	104	0	60	1048574
2026-01-18 12:02:28.36	307.90	9.33	-85.2	-88.6	3.0	1.55e+00	0	47	104	0	60	1048574
2026-01-18 12:02:29.36	308.07	9.31	-85.2	-88.6	3.3	1.55e+00	0	47	104	0	60	1048574
2026-01-18 12:02:30.36	308.24	9.29	-85.2	-88.6	3.0	1.56e+00	0	47	104	0	60	1048575
2026-01-18 12:02:31.37	308.42	9.27	-85.2	-88.6	3.0	1.56e+00	0	47	104	0	60	1048575
2026-01-18 12:02:32.37	308.59	9.26	-85.2	-88.6	2.9	1.56e+00	0	47	104	0	60	1048574
2026-01-18 12:02:33.38	308.76	9.24	-85.2	-88.6	2.9	1.56e+00	0	47	104	0	60	1048575
2026-01-18 12:02:34.38	308.93	9.22	-85.2	-88.6	3.2	1.56e+00	0	47	104	0	60	1048575
2026-01-18 12:02:35.39	309.10	9.20	-85.2	-88.6	3.0	1.56e+00	0	47	104	0	60	1048574
2026-01-18 12:02:36.39	309.27	9.18	-85.2	-88.6	3.1	1.56e+00	0	47	104	0	60	1048575
2026-01-18 12:02:37.40	309.44	9.16	-85.2	-88.6	3.0	1.56e+00	0	47	104	0	60	1048575
2026-01-18 12:02:38.40	309.61	9.14	-85.2	-88.6	2.9	1.56e+00	0	47	104	0	60	1048573
2026-01-18 12:02:39.40	309.78	9.12	-85.2	-88.6	3.1	1.56e+00	0	47	104	0	60	1048575
2026-01-18 12:02:40.41	309.95	9.10	-85.2	-88.6	2.7	1.56e+00	0	47	104	0	60	1048575
2026-01-18 12:02:41.41	310.11	9.08	-85.2	-88.6	2.9	1.55e+00	0	47	104	0	60	1048574
2026-01-18 12:02:42.41	310.28	9.06	-85.2	-88.6	2.9	1.56e+00	0	47	104	0	60	1048574
2026-01-18 12:02:43.42	310.45	9.04	-85.2	-88.6	3.0	1.55e+00	0	47	104	0	60	1048572
2026-01-18 12:02:44.42	310.62	9.02	-85.2	-88.6	3.0	1.56e+00	0	47	104	0	60	1048573
2026-01-18 12:02:45.42	310.79	9.00	-85.2	-88.6	3.1	1.56e+00	0	47	104	0	60	1048575
2026-01-18 12:02:46.42	310.95	8.97	-85.2	-88.6	3.1	1.56e+00	0	47	104	0	60	1048575
2026-01-18 12:02:47.43	311.12	8.95	-85.2	-88.6	3.1	1.55e+00	0	47	104	0	60	1048575
2026-01-18 12:02:48.43	311.29	8.93	-85.2	-88.6	3.1	1.56e+00	0	47	104	0	60	1048575
2026-01-18 12:02:49.43	311.45	8.91	-85.2	-88.6	2.9	1.56e+00	0	47	104	0	60	1048574
2026-01-18 12:02:50.43	311.62	8.89	-85.2	-88.6	3.0	1.56e+00	0	48	104	0	60	1048574
2026-01-18 12:02:51.44	311.79	8.86	-85.2	-88.6	2.9	1.56e+00	0	47	104	0	60	1048575
2026-01-18 12:02:52.44	311.95	8.84	-85.2	-88.6	2.9	1.56e+00	0	47	104	0	60	1048574
2026-01-18 12:02:53.45	312.12	8.82	-85.2	-88.6	2.9	1.56e+00	0	47	104	0	60	1048572
2026-01-18 12:02:54.45	312.29	8.80	-85.2	-88.6	2.8	1.55e+00	0	47	104	0	60	1048575
2026-01-18 12:02:55.46	312.45	8.77	-85.2	-88.6	2.9	1.56e+00	0	47	104	0	60	1048575
2026-01-18 12:02:56.46	312.62	8.75	-85.2	-88.6	3.0	1.56e+00	0	47	104	0	60	1048575
2026-01-18 12:02:57.46	312.78	8.73	-85.2	-88.6	3.0	1.56e+00	0	47	104	0	60	1048572
2026-01-18 12:02:58.46	312.94	8.70	-85.2	-88.6	3.0	1.56e+00	0	47	104	0	60	1048575
2026-01-18 12:02:59.47	313.11	8.68	-85.2	-88.6	2.9	1.55e+00	0	47	104	0	60	1048575
2026-01-18 12:03:00.47	313.27	8.65	-85.2	-88.6	2.9	1.56e+00	0	47	104	0	60	1048573
2026-01-18 12:03:01.46	313.44	8.63	-85.2	-88.6	3.2	1.56e+00	0	47	104	0	60	1048574
2026-01-18 12:03:02.46	313.60	8.61	-85.2	-88.6	3.1	1.55e+00	0	47	104	0	60	1048574
2026-01-18 12:03:03.46	313.76	8.58	-85.2	-88.6	3.0	1.56e+00	0	47	104	0	60	1048574
2026-01-18 12:03:04.46	313.92	8.56	-84.7	-88.6	3.1	1.56e+00	0	47	104	0	60	1048571
2026-01-18 12:03:05.46	314.09	8.53	-85.2	-88.6	3.1	1.55e+00	0	47	104	0	60	1048575
2026-01-18 12:03:06.47	314.25	8.51	-85.2	-88.6	3.1	1.56e+00	0	47	104	0	60	1048575
2026-01-18 12:03:07.47	314.41	8.48	-85.2	-88.6	3.1	1.55e+00	0	47	104	0	60	1048574
2026-01-18 12:03:08.48	314.57	8.46	-85.2	-88.6	3.0	1.55e+00	0	48	104	0	60	1048573
2026-01-18 12:03:09.48	314.73	8.43	-85.2	-88.6	2.9	1.56e+00	0	47	104	0	60	1048573
2026-01-18 12:03:10.48	314.90	8.41	-85.2	-88.6	3.1	1.56e+00	0	48	104	0	60	1048572
2026-01-18 12:03:11.48	315.06	8.38	-85.2	-88.6	3.1	1.56e+00	0	48	104	0	60	1048575
2026-01-18 12:03:12.48	315.22	8.35	-85.2	-88.6	3.0	1.56e+00	0	47	104	0	60	1048575
2026-01-18 12:03:13.48	315.38	8.33	-85.2	-88.6	3.2	1.56e+00	0	47	104	0	60	1048574
2026-01-18 12:03:14.49	315.54	8.30	-85.2	-88.6	3.1	1.56e+00	0	47	104	0	60	1048575
2026-01-18 12:03:15.49	315.70	8.28	-85.2	-88.6	3.0	1.55e+00	0	47	104	0	60	1048571
2026-01-18 12:03:16.50	315.86	8.25	-85.2	-88.6	3.0	1.56e+00	0	47	104	0	60	1048575
2026-01-18 12:03:17.50	316.02	8.22	-85.2	-88.6	2.9	1.56e+00	0	47	104	0	60	1048575
2026-01-18 12:03:18.50	316.17	8.19	-85.2	-88.6	2.9	1.56e+00	0	47	104	0	60	1048575
2026-01-18 12:03:19.51	316.33	8.17	-85.2	-88.6	2.8	1.56e+00	0	47	104	0	60	1048575
2026-01-18 12:03:20.51	316.49	8.14	-85.2	-88.6	3.0	1.56e+00	0	47	104	0	60	1048575
2026-01-18 12:03:21.52	316.65	8.11	-85.2	-88.6	2.9	1.56e+00	0	47	104	0	60	1048575
2026-01-18 12:03:22.53	316.81	8.08	-85.2	-88.6	2.9	1.55e+00	0	47	104	0	60	1048573
2026-01-18 12:03:23.53	316.97	8.06	-85.2	-88.6	2.9	1.56e+00	0	47	104	0	60	1048575
2026-01-18 12:03:24.54	317.13	8.03	-85.2	-88.6	2.8	1.56e+00	0	47	104	0	60	1048575
2026-01-18 12:03:25.55	317.28	8.00	-85.2	-88.6	2.9	1.56e+00	0	47	104	0	60	1048575
2026-01-18 12:03:26.56	317.44	7.97	-85.2	-88.6	3.2	1.56e+00	0	47	104	0	60	1048575
2026-01-18 12:03:27.56	317.60	7.94	-85.2	-88.6	3.1	1.56e+00	0	47	104	0	60	1048574
2026-01-18 12:03:28.56	317.75	7.92	-85.2	-88.6	3.1	1.56e+00	0	47	104	0	60	1048574
2026-01-18 12:03:29.57	317.91	7.89	-85.2	-88.6	3.1	1.56e+00	0	47	104	0	60	1048575
2026-01-18 12:03:30.57	318.07	7.86	-85.2	-88.6	3.1	1.56e+00	0	48	104	0	60	1048574
2026-01-18 12:03:31.57	318.22	7.83	-85.2	-88.6	2.9	1.56e+00	0	47	104	0	60	1048575
2026-01-18 12:03:32.57	318.37	7.80	-85.2	-88.6	2.8	1.55e+00	0	48	104	0	60	1048573
2026-01-18 12:03:33.58	318.53	7.77	-85.2	-88.6	3.0	1.55e+00	0	47	104	0	60	1048575
2026-01-18 12:03:34.58	318.68	7.74	-85.2	-88.6	3.0	1.56e+00	0	47	104	0	60	1048572
2026-01-18 12:03:35.58	318.84	7.71	-85.2	-88.6	2.9	1.56e+00	0	47	104	0	60	1048574
2026-01-18 12:03:36.58	318.99	7.68	-85.2	-88.6	3.1	1.56e+00	0	47	104	0	60	1048575
2026-01-18 12:03:37.58	319.14	7.65	-85.2	-88.6	2.9	1.56e+00	0	47	104	0	60	1048573
2026-01-18 12:03:38.58	319.30	7.62	-84.7	-88.6	3.1	1.55e+00	0	48	104	0	60	1048572
2026-01-18 12:03:39.58	319.45	7.59	-84.7	-88.6	2.8	1.56e+00	0	47	104	0	60	1048574
2026-01-18 12:03:40.59	319.60	7.56	-84.7	-88.6	3.2	1.56e+00	0	47	104	0	60	1048575
2026-01-18 12:03:41.59	319.75	7.53	-85.2	-88.6	3.0	1.56e+00	0	47	104	0	60	1048573
2026-01-18 12:03:42.59	319.90	7.50	-85.2	-88.6	3.0	1.56e+00	0	47	104	0	60	1048575
2026-01-18 12:03:43.60	320.06	7.47	-85.2	-88.6	3.0	1.56e+00	0	48	104	0	60	1048574
2026-01-18 12:03:44.60	320.21	7.44	-85.2	-88.6	3.0	1.55e+00	0	47	104	0	60	1048572
2026-01-18 12:03:45.61	320.36	7.41	-85.2	-88.6	3.0	1.56e+00	0	47	104	0	60	1048574
2026-01-18 12:03:46.61	320.51	7.38	-85.2	-88.6	3.1	1.55e+00	0	48	104	0	60	1048573
2026-01-18 12:03:47.62	320.66	7.35	-85.2	-88.6	2.9	1.56e+00	0	47	104	0	60	1048575
2026-01-18 12:03:48.62	320.81	7.32	-85.2	-88.6	2.7	1.56e+00	0	47	104	0	60	1048575
2026-01-18 12:03:49.62	320.96	7.28	-85.2	-88.6	3.0	1.56e+00	0	48	104	0	60	1048575
2026-01-18 12:03:50.63	321.11	7.25	-85.2	-88.6	3.1	1.56e+00	0	48	104	0	60	1048574
2026-01-18 12:03:51.63	321.26	7.22	-85.2	-88.6	2.7	1.56e+00	0	47	104	0	60	1048575
2026-01-18 12:03:52.64	321.41	7.19	-85.2	-88.6	3.1	1.56e+00	0	47	104	0	60	1048573
2026-01-18 12:03:53.64	321.56	7.16	-85.2	-88.6	3.1	1.56e+00	0	47	104	0	60	1048575
2026-01-18 12:03:54.64	321.70	7.12	-85.2	-88.6	3.1	1.55e+00	0	47	104	0	60	1048575
2026-01-18 12:03:55.65	321.85	7.09	-85.2	-88.6	3.2	1.56e+00	0	47	104	0	60	1048575
2026-01-18 12:03:56.65	322.00	7.06	-85.2	-88.6	3.1	1.56e+00	0	47	104	0	60	1048573
2026-01-18 12:03:57.65	322.15	7.03	-85.2	-88.6	2.9	1.56e+00	0	47	104	0	60	1048575
2026-01-18 12:03:58.66	322.30	7.00	-85.2	-88.6	2.9	1.56e+00	0	47	104	0	60	1048575
2026-01-18 12:03:59.66	322.44	6.96	-85.2	-88.6	3.2	1.56e+00	0	47	104	0	60	1048575
2026-01-18 12:04:00.66	322.59	6.93	-85.2	-88.6	2.9	1.55e+00	0	48	104	0	60	1048570
2026-01-18 12:04:01.67	322.73	6.90	-85.2	-88.6	3.2	1.56e+00	0	48	104	0	60	1048574
2026-01-18 12:04:02.68	322.88	6.86	-85.2	-88.6	3.0	1.55e+00	0	48	104	0	60	1048574
2026-01-18 12:04:03.68	323.03	6.83	-85.2	-88.6	2.7	1.55e+00	0	48	104	0	60	1048575
2026-01-18 12:04:04.69	323.17	6.80	-85.2	-88.6	3.0	1.56e+00	0	48	104	0	60	1048574
2026-01-18 12:04:05.69	323.32	6.76	-85.2	-88.6	2.9	1.56e+00	0	48	104	0	60	1048575
2026-01-18 12:04:06.70	323.46	6.73	-85.2	-88.6	2.9	1.56e+00	0	48	104	0	60	1048575
2026-01-18 12:04:07.70	323.60	6.70	-85.2	-88.6	3.2	1.56e+00	0	48	104	0	60	1048573
2026-01-18 12:04:08.70	323.75	6.66	-85.2	-88.6	2.8	1.56e+00	0	47	104	0	60	1048575
2026-01-18 12:04:09.70	323.89	6.63	-85.2	-88.6	2.8	1.55e+00	0	47	104	0	60	1048575
2026-01-18 12:04:10.71	324.03	6.60	-85.2	-88.6	2.7	1.56e+00	0	48	104	0	60	1048575
2026-01-18 12:04:11.71	324.18	6.56	-85.2	-88.6	3.1	1.55e+00	0	48	104	0	60	1048573
2026-01-18 12:04:12.71	324.32	6.53	-85.2	-88.6	2.9	1.56e+00	0	48	104	0	60	1048574
2026-01-18 12:04:13.72	324.46	6.49	-85.2	-88.6	2.9	1.56e+00	0	48	104	0	60	1048575
2026-01-18 12:04:14.72	324.60	6.46	-85.2	-88.6	2.9	1.55e+00	0	48	104	0	60	1048574
2026-01-18 12:04:15.73	324.74	6.43	-85.2	-88.6	3.2	1.56e+00	0	48	104	0	60	1048574
2026-01-18 12:04:16.74	324.89	6.39	-85.2	-88.6	3.0	1.55e+00	0	48	104	0	60	1048573
2026-01-18 12:04:17.74	325.03	6.36	-85.2	-88.6	3.1	1.56e+00	0	47	104	0	60	1048575
2026-01-18 12:04:18.75	325.17	6.32	-84.7	-88.6	2.9	1.56e+00	0	48	104	0	60	1048574
2026-01-18 12:04:19.75	325.31	6.29	-85.2	-88.6	3.2	1.55e+00	0	47	104	0	60	1048575
2026-01-18 12:04:20.75	325.45	6.25	-85.2	-88.6	2.9	1.56e+00	0	47	104	0	60	1048574
2026-01-18 12:04:21.76	325.59	6.22	-85.2	-88.6	2.8	1.55e+00	0	48	104	0	60	1048575
2026-01-18 12:04:22.76	325.73	6.18	-85.2	-88.6	3.0	1.55e+00	0	47	104	0	60	1048573
2026-01-18 12:04:23.77	325.87	6.15	-85.2	-88.6	2.9	1.56e+00	0	48	104	0	60	1048575
2026-01-18 12:04:24.77	326.00	6.11	-85.2	-88.6	3.1	1.56e+00	0	48	104	0	60	1048575
2026-01-18 12:04:25.77	326.14	6.08	-85.2	-88.6	2.9	1.55e+00	0	48	104	0	60	1048575
2026-01-18 12:04:26.78	326.28	6.04	-85.2	-88.6	2.8	1.55e+00	0	48	104	0	60	1048575
2026-01-18 12:04:27.78	326.42	6.01	-85.2	-88.6	3.2	1.56e+00	0	48	104	0	60	1048575
2026-01-18 12:04:28.79	326.56	5.97	-85.2	-88.6	2.8	1.55e+00	0	48	104	0	60	1048573
2026-01-18 12:04:29.79	326.69	5.94	-85.2	-88.6	3.0	1.56e+00	0	47	104	0	60	1048574
2026-01-18 12:04:30.80	326.83	5.90	-85.2	-88.6	3.1	1.56e+00	0	47	104	0	60	1048575
2026-01-18 12:04:31.80	326.97	5.86	-85.2	-88.6	3.1	1.56e+00	0	47	104	0	60	1048574
2026-01-18 12:04:32.80	327.10	5.83	-85.2	-88.6	3.0	1.56e+00	0	47	104	0	60	1048575
2026-01-18 12:04:33.81	327.24	5.79	-85.2	-88.6	3.0	1.56e+00	0	47	104	0	60	1048573
2026-01-18 12:04:34.81	327.37	5.76	-85.2	-88.6	2.9	1.56e+00	0	47	104	0	60	1048575
2026-01-18 12:04:35.82	327.51	5.72	-85.2	-88.6	2.8	1.55e+00	0	47	104	0	60	1048575
2026-01-18 12:04:36.82	327.64	5.68	-85.2	-88.6	2.9	1.56e+00	0	48	104	0	60	1048573
2026-01-18 12:04:37.83	327.78	5.65	-85.2	-88.6	3.0	1.56e+00	0	47	104	0	60	1048575
2026-01-18 12:04:38.83	327.91	5.61	-85.2	-88.6	3.1	1.56e+00	0	47	104	0	60	1048568
2026-01-18 12:04:39.83	328.05	5.57	-85.2	-88.6	2.8	1.55e+00	0	48	104	0	60	1048575
2026-01-18 12:04:40.84	328.18	5.54	-85.2	-88.6	2.9	1.55e+00	0	48	104	0	60	1048575
2026-01-18 12:04:41.85	328.31	5.50	-85.2	-88.6	2.9	1.56e+00	0	47	104	0	60	1048574
2026-01-18 12:04:42.86	328.45	5.46	-85.2	-88.6	2.9	1.56e+00	0	47	104	0	60	1048575
2026-01-18 12:04:43.86	328.58	5.43	-85.2	-88.6	3.0	1.56e+00	0	47	104	0	60	1048575
2026-01-18 12:04:44.87	328.71	5.39	-85.2	-88.6	3.0	1.55e+00	0	48	104	0	60	1048571
2026-01-18 12:04:45.87	328.84	5.35	-85.2	-88.6	3.1	1.56e+00	0	47	104	0	60	1048575
2026-01-18 12:04:46.87	328.97	5.32	-85.2	-88.6	3.1	1.56e+00	0	47	104	0	60	1048574
2026-01-18 12:04:47.87	329.11	5.28	-85.2	-88.6	2.9	1.55e+00	0	48	104	0	60	1048574
2026-01-18 12:04:48.88	329.24	5.24	-85.2	-88.6	3.0	1.55e+00	0	47	104	0	60	1048575
2026-01-18 12:04:49.88	329.37	5.21	-85.2	-88.6	3.0	1.56e+00	0	47	104	0	60	1048574
2026-01-18 12:04:50.89	329.50	5.17	-85.2	-88.6	3.1	1.56e+00	0	47	104	0	60	1048574
2026-01-18 12:04:51.89	329.63	5.13	-85.2	-88.6	2.9	1.55e+00	0	47	104	0	60	1048575
2026-01-18 12:04:52.89	329.76	5.09	-85.2	-88.6	3.1	1.56e+00	0	47	104	0	60	1048573
2026-01-18 12:04:53.90	329.89	5.06	-85.2	-88.6	3.1	1.56e+00	0	47	104	0	60	1048573
2026-01-18 12:04:54.90	330.02	5.02	-85.2	-88.6	3.0	1.56e+00	0	48	104	0	60	1048574
2026-01-18 12:04:55.90	330.14	4.98	-85.2	-88.6	2.9	1.55e+00	0	47	104	0	60	1048574
2026-01-18 12:04:56.91	330.27	4.94	-85.2	-88.6	2.8	1.55e+00	0	47	104	0	60	1048575
2026-01-18 12:04:57.92	330.40	4.91	-85.2	-88.6	3.1	1.55e+00	0	47	104	0	60	1048575
2026-01-18 12:04:58.92	330.53	4.87	-85.2	-88.6	3.1	1.56e+00	0	47	104	0	60	1048574
2026-01-18 12:04:59.93	330.66	4.83	-85.2	-88.6	3.0	1.55e+00	0	47	104	0	60	1048575
2026-01-18 12:05:00.93	330.78	4.79	-85.2	-88.6	3.1	1.55e+00	0	47	104	0	60	1048575
2026-01-18 12:05:01.93	330.91	4.75	-85.2	-88.6	3.0	1.56e+00	0	47	104	0	60	1048575
2026-01-18 12:05:02.94	331.04	4.72	-85.2	-88.6	2.8	1.56e+00	0	47	104	0	60	1048573
2026-01-18 12:05:03.94	331.16	4.68	-85.2	-88.6	3.0	1.56e+00	0	47	104	0	60	1048575
2026-01-18 12:05:04.94	331.29	4.64	-85.2	-88.6	2.7	1.55e+00	0	47	104	0	60	1048575
2026-01-18 12:05:05.94	331.41	4.60	-85.2	-88.6	2.9	1.56e+00	0	47	104	0	60	1048575
2026-01-18 12:05:06.95	331.54	4.56	-85.2	-88.6	2.9	1.56e+00	0	47	104	0	60	1048575
2026-01-18 12:05:07.96	331.66	4.53	-85.2	-88.6	3.3	1.55e+00	0	47	104	0	60	1048575
2026-01-18 12:05:08.96	331.79	4.49	-85.2	-88.6	3.1	1.56e+00	0	47	104	0	60	1048574
2026-01-18 12:05:09.96	331.91	4.45	-85.2	-88.6	3.0	1.55e+00	0	47	104	0	60	1048575
2026-01-18 12:05:10.96	332.04	4.41	-85.2	-88.6	2.8	1.55e+00	0	48	104	0	60	1048574
2026-01-18 12:05:11.97	332.16	4.37	-85.2	-88.6	3.1	1.56e+00	0	47	104	0	60	1048575
2026-01-18 12:05:12.98	332.28	4.33	-85.2	-88.6	3.1	1.55e+00	0	47	104	0	60	1048572
2026-01-18 12:05:13.98	332.41	4.29	-85.2	-88.6	3.2	1.55e+00	0	47	104	0	60	1048574
2026-01-18 12:05:14.99	332.53	4.26	-85.2	-88.6	3.0	1.55e+00	0	47	104	0	60	1048575
2026-01-18 12:05:15.99	332.65	4.22	-85.2	-88.6	3.0	1.55e+00	0	47	104	0	60	1048574
2026-01-18 12:05:16.99	332.77	4.18	-85.2	-88.6	2.9	1.55e+00	0	47	104	0	60	1048567
2026-01-18 12:05:18.00	332.90	4.14	-85.2	-88.6	3.0	1.55e+00	0	47	104	0	60	1048574
2026-01-18 12:05:19.00	333.02	4.10	-85.2	-88.6	3.1	1.56e+00	0	47	104	0	60	1048575
2026-01-18 12:05:20.01	333.14	4.06	-85.2	-88.6	3.0	1.56e+00	0	47	104	0	60	1048575
2026-01-18 12:05:21.01	333.26	4.02	-85.2	-88.6	2.9	1.56e+00	0	48	104	0	60	1048575
2026-01-18 12:05:22.01	333.38	3.98	-85.2	-88.6	2.8	1.56e+00	0	47	104	0	60	1048575
2026-01-18 12:05:23.01	333.50	3.95	-85.2	-88.6	3.2	1.55e+00	0	48	104	0	60	1048574
2026-01-18 12:05:24.01	333.62	3.91	-85.2	-88.6	2.9	1.56e+00	0	47	104	0	60	1048575
2026-01-18 12:05:25.02	333.74	3.87	-85.2	-88.6	3.2	1.56e+00	0	48	104	0	60	1048575
2026-01-18 12:05:26.02	333.86	3.83	-85.2	-88.6	3.1	1.55e+00	0	48	104	0	60	1048573
2026-01-18 12:05:27.03	333.98	3.79	-85.2	-88.6	3.2	1.56e+00	0	48	104	0	60	1048575
2026-01-18 12:05:28.04	334.10	3.75	-85.2	-88.6	3.1	1.55e+00	0	48	104	0	60	1048575
2026-01-18 12:05:29.04	334.21	3.71	-85.2	-88.6	3.0	1.56e+00	0	48	104	0	60	1048574
2026-01-18 12:05:30.04	334.33	3.67	-85.2	-88.6	2.8	1.55e+00	0	47	104	0	60	1048575
2026-01-18 12:05:31.05	334.45	3.63	-85.2	-88.6	3.1	1.56e+00	0	48	104	0	60	1048575
2026-01-18 12:05:32.06	334.57	3.59	-85.2	-88.6	2.8	1.55e+00	0	48	104	0	60	1048573
2026-01-18 12:05:33.06	334.69	3.55	-85.2	-88.6	3.0	1.55e+00	0	47	104	0	60	1048575
2026-01-18 12:05:34.07	334.80	3.51	-85.2	-88.6	3.0	1.56e+00	0	47	104	0	60	1048575
2026-01-18 12:05:35.08	334.92	3.47	-85.2	-88.6	3.0	1.56e+00	0	47	104	0	60	1048575
2026-01-18 12:05:36.08	335.04	3.43	-85.2	-88.6	3.1	1.56e+00	0	47	104	0	60	1048575
2026-01-18 12:05:37.08	335.15	3.39	-85.2	-88.6	3.1	1.55e+00	0	48	104	0	60	1048572
2026-01-18 12:05:38.08	335.27	3.36	-85.2	-88.6	2.8	1.56e+00	0	47	104	0	60	1048575
2026-01-18 12:05:39.08	335.38	3.32	-85.2	-88.6	3.1	1.55e+00	0	47	104	0	60	1048575
2026-01-18 12:05:40.09	335.50	3.28	-85.2	-88.6	3.0	1.55e+00	0	48	104	0	60	1048575
2026-01-18 12:05:41.09	335.61	3.24	-85.2	-88.6	3.0	1.56e+00	0	47	104	0	60	1048575
2026-01-18 12:05:42.09	335.73	3.20	-85.2	-88.6	3.2	1.56e+00	0	47	104	0	60	1048575
2026-01-18 12:05:43.10	335.84	3.16	-85.2	-88.6	3.1	1.56e+00	0	47	104	0	60	1048575
2026-01-18 12:05:44.10	335.95	3.12	-85.2	-88.6	2.8	1.56e+00	0	47	104	0	60	1048575
2026-01-18 12:05:45.11	336.07	3.08	-85.2	-88.6	3.1	1.56e+00	0	47	104	0	60	1048574
2026-01-18 12:05:46.11	336.18	3.04	-85.2	-88.6	3.0	1.56e+00	0	47	104	0	60	1048573
2026-01-18 12:05:47.11	336.29	3.00	-85.2	-88.6	2.8	1.56e+00	0	47	104	0	60	1048575
2026-01-18 12:05:48.12	336.41	2.96	-85.2	-88.6	3.2	1.56e+00	0	48	104	0	60	1048575
2026-01-18 12:05:49.12	336.52	2.92	-85.2	-88.6	3.0	1.56e+00	0	47	104	0	60	1048573
2026-01-18 12:05:50.13	336.63	2.88	-85.2	-88.6	2.9	1.56e+00	0	48	104	0	60	1048575
2026-01-18 12:05:51.13	336.74	2.84	-85.2	-88.6	2.7	1.56e+00	0	48	104	0	60	1048574
2026-01-18 12:05:52.13	336.85	2.80	-85.2	-88.6	3.0	1.55e+00	0	48	104	0	60	1048575
2026-01-18 12:05:53.13	336.97	2.76	-85.2	-88.6	3.1	1.55e+00	0	47	104	0	60	1048575
2026-01-18 12:05:54.13	337.08	2.72	-85.2	-88.6	2.8	1.56e+00	0	47	104	0	60	1048574
2026-01-18 12:05:55.14	337.19	2.68	-85.2	-88.6	2.9	1.55e+00	0	47	104	0	60	1048574
2026-01-18 12:05:56.15	337.30	2.64	-85.2	-88.6	3.0	1.56e+00	0	47	104	0	60	1048573
2026-01-18 12:05:57.16	337.41	2.60	-85.2	-88.6	3.0	1.56e+00	0	47	104	0	60	1048573
2026-01-18 12:05:58.16	337.52	2.56	-85.2	-88.6	3.1	1.56e+00	0	47	104	0	60	1048575
2026-01-18 12:05:59.16	337.63	2.52	-85.2	-88.6	3.0	1.56e+00	0	48	104	0	60	1048574
2026-01-18 12:06:00.17	337.74	2.48	-85.2	-88.6	2.9	1.56e+00	0	47	104	0	60	1048574
2026-01-18 12:06:01.18	337.85	2.44	-85.2	-88.6	3.0	1.55e+00	0	48	104	0	60	1048574
2026-01-18 12:06:02.18	337.96	2.40	-85.2	-88.6	3.0	1.56e+00	0	47	104	0	60	1048575
2026-01-18 12:06:03.18	338.06	2.36	-85.2	-88.6	3.1	1.55e+00	0	47	104	0	60	1048573
2026-01-18 12:06:04.19	338.17	2.31	-85.2	-88.6	3.0	1.55e+00	0	47	104	0	60	1048574
2026-01-18 12:06:05.19	338.28	2.27	-85.2	-88.6	3.0	1.55e+00	0	47	104	0	60	1048574
2026-01-18 12:06:06.20	338.39	2.23	-85.2	-88.6	3.0	1.55e+00	0	48	104	0	60	1048575
2026-01-18 12:06:07.20	338.50	2.19	-85.2	-88.6	2.9	1.56e+00	0	47	104	0	60	1048575
2026-01-18 12:06:08.20	338.60	2.15	-85.2	-88.6	3.1	1.56e+00	0	47	104	0	60	1048575
2026-01-18 12:06:09.21	338.71	2.11	-85.2	-88.6	2.9	1.56e+00	0	48	104	0	60	1048575
2026-01-18 12:06:10.21	338.82	2.07	-85.2	-88.6	3.0	1.55e+00	0	48	104	0	60	1048570
2026-01-18 12:06:11.22	338.92	2.03	-85.2	-88.6	3.1	1.56e+00	0	48	104	0	60	1048575
2026-01-18 12:06:12.22	339.03	1.99	-85.2	-88.6	3.1	1.56e+00	0	47	104	0	60	1048570
2026-01-18 12:06:13.23	339.13	1.95	-85.2	-88.6	3.0	1.56e+00	0	47	104	0	60	1048573
2026-01-18 12:06:14.23	339.24	1.91	-85.2	-88.6	3.0	1.56e+00	0	47	104	0	60	1048575
2026-01-18 12:06:15.23	339.34	1.87	-85.2	-88.6	2.8	1.56e+00	0	47	104	0	60	1048573
2026-01-18 12:06:16.24	339.45	1.83	-85.2	-88.6	3.1	1.56e+00	0	48	104	0	60	1048573
2026-01-18 12:06:17.24	339.55	1.79	-85.2	-88.6	2.8	1.56e+00	0	47	104	0	60	1048569
2026-01-18 12:06:18.25	339.66	1.75	-85.2	-88.6	3.0	1.56e+00	0	48	104	0	60	1048575
2026-01-18 12:06:19.25	339.76	1.71	-85.2	-88.6	2.9	1.56e+00	0	48	104	0	60	1048573
2026-01-18 12:06:20.26	339.87	1.67	-85.2	-88.6	2.9	1.55e+00	0	48	104	0	60	1048575
2026-01-18 12:06:21.26	339.97	1.63	-85.2	-88.6	3.0	1.56e+00	0	48	104	0	60	1048575
2026-01-18 12:06:22.27	340.07	1.59	-85.2	-88.6	3.2	1.56e+00	0	48	104	0	60	1048574
2026-01-18 12:06:23.27	340.18	1.54	-85.2	-88.6	3.0	1.56e+00	0	47	104	0	60	1048575
2026-01-18 12:06:24.28	340.28	1.50	-85.2	-88.6	3.0	1.55e+00	0	47	104	0	60	1048573
2026-01-18 12:06:25.29	340.38	1.46	-85.2	-88.6	3.0	1.56e+00	0	47	104	0	60	1048574
2026-01-18 12:06:26.29	340.48	1.42	-85.2	-88.6	3.1	1.55e+00	0	47	104	0	60	1048575
2026-01-18 12:06:27.29	340.58	1.38	-85.2	-88.6	3.0	1.56e+00	0	47	104	0	60	1048575
2026-01-18 12:06:28.29	340.69	1.34	-85.2	-88.6	3.1	1.56e+00	0	47	104	0	60	1048575
2026-01-18 12:06:29.30	340.79	1.30	-85.2	-88.6	3.1	1.55e+00	0	47	104	0	60	1048575
2026-01-18 12:06:30.30	340.89	1.26	-85.2	-88.6	3.2	1.56e+00	0	47	104	0	60	1048575
2026-01-18 12:06:31.31	340.99	1.22	-85.2	-88.6	2.7	1.56e+00	0	47	104	0	60	1048573
2026-01-18 12:06:32.31	341.09	1.18	-85.2	-88.6	3.0	1.56e+00	0	47	104	0	60	1048575
2026-01-18 12:06:33.31	341.19	1.14	-85.2	-88.6	3.1	1.56e+00	0	47	104	0	60	1048573
2026-01-18 12:06:34.32	341.29	1.10	-85.2	-88.6	2.9	1.56e+00	0	47	104	0	60	1048575
2026-01-18 12:06:35.33	341.39	1.06	-85.2	-88.6	3.3	1.56e+00	0	47	104	0	60	1048575
2026-01-18 12:06:36.33	341.49	1.01	-85.2	-88.6	3.1	1.56e+00	0	48	104	0	60	1048572
2026-01-18 12:06:37.34	341.59	0.97	-85.2	-88.6	3.1	1.56e+00	0	47	104	0	60	1048573
2026-01-18 12:06:38.34	341.69	0.93	-85.2	-88.6	3.3	1.56e+00	0	48	104	0	60	1048575
2026-01-18 12:06:39.34	341.79	0.89	-85.2	-88.6	2.9	1.56e+00	0	48	104	0	60	1048575
2026-01-18 12:06:40.34	341.89	0.85	-85.2	-88.6	3.0	1.56e+00	0	48	104	0	60	1048575
2026-01-18 12:06:41.35	341.98	0.81	-85.2	-88.6	3.0	1.55e+00	0	47	104	0	60	1048574
2026-01-18 12:06:42.36	342.08	0.77	-85.2	-88.6	3.1	1.56e+00	0	47	104	0	60	1048572
2026-01-18 12:06:43.37	342.18	0.73	-85.2	-88.6	3.1	1.56e+00	0	47	104	0	60	1048575
2026-01-18 12:06:44.37	342.28	0.69	-85.2	-88.6	2.9	1.56e+00	0	47	104	0	60	1048575
2026-01-18 12:06:45.37	342.37	0.65	-85.2	-88.6	3.0	1.56e+00	0	47	104	0	60	1048575
2026-01-18 12:06:46.38	342.47	0.61	-85.2	-88.6	3.2	1.56e+00	0	47	104	0	60	1048575
2026-01-18 12:06:47.38	342.57	0.56	-85.2	-88.6	3.0	1.56e+00	0	47	104	0	60	1048573
2026-01-18 12:06:48.39	342.67	0.52	-85.2	-88.6	2.8	1.56e+00	0	47	104	0	60	1048572
2026-01-18 12:06:49.39	342.76	0.48	-85.2	-88.6	2.8	1.55e+00	0	47	104	0	60	1048575
2026-01-18 12:06:50.39	342.86	0.44	-85.2	-88.6	3.0	1.55e+00	0	47	104	0	60	1048575
2026-01-18 12:06:51.40	342.95	0.40	-85.2	-88.6	3.0	1.56e+00	0	48	104	0	60	1048574
2026-01-18 12:06:52.40	343.05	0.36	-85.2	-88.6	2.9	1.56e+00	0	47	104	0	60	1048575
2026-01-18 12:06:53.41	343.14	0.32	-85.2	-88.6	3.0	1.56e+00	0	48	104	0	60	1048574
2026-01-18 12:06:54.41	343.24	0.28	-85.2	-88.6	3.0	1.56e+00	0	48	104	0	60	1048575
2026-01-18 12:06:55.41	343.33	0.24	-85.2	-88.6	3.1	1.55e+00	0	48	104	0	60	1048575
2026-01-18 12:06:56.42	343.43	0.20	-85.2	-88.6	3.1	1.56e+00	0	48	104	0	60	1048571
2026-01-18 12:06:57.43	343.52	0.16	-85.2	-88.6	3.1	1.56e+00	0	48	104	0	60	1048573
2026-01-18 12:06:58.43	343.62	0.11	-85.2	-88.6	3.1	1.56e+00	0	48	104	0	60	1048574
2026-01-18 12:06:59.44	343.71	0.07	-85.2	-88.6	2.9	1.56e+00	0	48	104	0	60	1048575
2026-01-18 12:07:00.43	343.80	0.03	-85.2	-88.6	2.9	1.56e+00	0	47	104	0	60	1048573
2026-01-18 12:07:01.44	343.90	-0.01	-85.2	-88.6	2.6	1.55e+00	0	47	104	0	60	1048575
2026-01-18 12:07:02.44	343.99	-0.05	-85.2	-88.6	3.1	1.56e+00	0	47	104	0	60	1048575

#Closed at: 2026-01-18 12:07:03
#Recorded file [0 MB]: D:/Data/35015_260118_145525.dat