passes_logs/2026/01/18/R3.2S-Naryan-Mar/R3.2S-Naryan-Mar__20260118_110921_FENGYUN_3D_rec.log

#Pass ID: 20260118_110921_FENGYUN 3D
#Satellite: FENGYUN 3D
#Configuration: FENGYUN 3D
#almurnet v.1.7.20240730
#Start time: 2026-01-18 11:15:40

#Version: 2.2.20231116
#Station: R3.2S-Naryan-Mar
#Location: 53.008057 lon 67.646978 lat
#TLE: 1 43010U 17072A   26017.25882587  .00000461  00000+0  23963-3 0  9992
#TLE: 2 43010  98.9934 349.1096 0002357 104.0487 256.0951 14.19697152423579

#Time	Az	El	Level	Level2	SNR	BER	BlckErr	Temp	State	Recorded	gain1	gain2
2026-01-18 11:15:40.98	207.70	43.57	-83.1	-79.0	2.4	0.00e+00	0	49	0	0	60	1048575
2026-01-18 11:15:41.98	208.06	43.78	-84.7	-88.6	5.6	3.66e-01	0	49	0	0	60	1048572
2026-01-18 11:15:42.99	208.42	44.00	-85.2	-88.6	6.0	2.97e-01	0	49	0	0	60	1048569
2026-01-18 11:15:44.00	208.79	44.21	-84.7	-88.6	6.4	2.78e-01	0	49	0	0	60	1048574
2026-01-18 11:15:45.01	209.16	44.43	-84.7	-88.6	6.0	2.73e-01	0	49	0	0	60	1048574
2026-01-18 11:15:46.02	209.54	44.64	-84.7	-88.6	6.0	2.75e-01	0	49	0	0	60	1048569
2026-01-18 11:15:47.03	209.93	44.86	-84.7	-88.6	5.3	2.73e-01	0	49	0	0	60	1048575
2026-01-18 11:15:48.04	210.32	45.07	-84.7	-88.6	6.2	2.76e-01	0	49	0	0	60	1048572
2026-01-18 11:15:49.04	210.71	45.28	-84.7	-88.6	6.3	2.76e-01	0	49	0	0	60	1048572
2026-01-18 11:15:50.05	211.11	45.49	-84.3	-88.6	6.1	2.77e-01	0	49	0	0	60	1048575
2026-01-18 11:15:51.06	211.51	45.71	-85.2	-88.6	6.0	2.74e-01	0	49	0	0	60	1048573
2026-01-18 11:15:52.06	211.92	45.92	-84.7	-88.6	5.8	2.77e-01	0	49	0	0	60	1048567
2026-01-18 11:15:53.07	212.34	46.13	-84.7	-88.6	6.0	2.78e-01	0	49	0	0	60	1048575
2026-01-18 11:15:54.08	212.76	46.34	-84.7	-88.6	6.3	2.76e-01	0	49	0	0	60	1048573
2026-01-18 11:15:55.08	213.18	46.55	-85.2	-88.6	5.9	2.80e-01	0	49	0	0	60	1048573
2026-01-18 11:15:56.09	213.62	46.76	-84.7	-88.6	6.1	2.75e-01	0	49	0	0	60	1048574
2026-01-18 11:15:57.10	214.05	46.97	-85.2	-88.6	6.4	2.81e-01	0	49	0	0	60	1048573
2026-01-18 11:15:58.11	214.50	47.18	-84.7	-88.6	5.7	2.79e-01	0	48	0	0	60	1048564
2026-01-18 11:15:59.12	214.95	47.39	-84.7	-88.6	6.1	2.77e-01	0	48	0	0	60	1048571
2026-01-18 11:16:00.13	215.41	47.59	-85.2	-88.6	6.0	2.77e-01	0	48	0	0	60	1048571
2026-01-18 11:16:01.13	215.86	47.80	-84.7	-88.6	5.8	2.74e-01	0	49	0	0	60	1048575
2026-01-18 11:16:02.14	216.33	48.00	-85.2	-88.6	5.4	2.76e-01	0	49	0	0	60	1048572
2026-01-18 11:16:03.15	216.81	48.21	-84.7	-88.6	5.8	2.82e-01	0	49	0	0	60	1048572
2026-01-18 11:16:04.16	217.29	48.41	-85.2	-88.6	6.5	2.76e-01	0	48	0	0	60	1048575
2026-01-18 11:16:05.16	217.77	48.61	-84.7	-88.6	6.0	2.80e-01	0	48	0	0	60	1048570
2026-01-18 11:16:06.17	218.27	48.81	-85.2	-88.6	6.2	2.71e-01	0	48	0	0	60	1048575
2026-01-18 11:16:07.17	218.76	49.01	-84.7	-88.6	6.2	2.71e-01	0	48	0	0	60	1048559
2026-01-18 11:16:08.18	219.27	49.21	-84.7	-88.6	6.3	2.74e-01	0	48	0	0	60	1048574
2026-01-18 11:16:09.19	219.78	49.40	-84.7	-88.6	6.2	2.71e-01	0	48	0	0	60	1048573
2026-01-18 11:16:10.20	220.30	49.60	-85.2	-88.6	6.0	2.79e-01	0	48	0	0	60	1048572
2026-01-18 11:16:11.20	220.82	49.79	-84.7	-88.6	6.0	2.79e-01	0	48	0	0	60	1048574
2026-01-18 11:16:12.21	221.35	49.98	-84.7	-88.6	5.9	2.75e-01	0	48	0	0	60	1048575
2026-01-18 11:16:13.22	221.89	50.17	-84.7	-88.6	6.1	2.77e-01	0	48	0	0	60	1048572
2026-01-18 11:16:14.23	222.44	50.36	-85.2	-88.6	5.7	2.74e-01	0	48	0	0	60	1048574
2026-01-18 11:16:15.24	222.99	50.54	-84.7	-88.6	5.6	2.74e-01	0	48	0	0	60	1048575
2026-01-18 11:16:16.25	223.55	50.72	-85.2	-88.6	6.4	2.73e-01	0	48	0	0	60	1048573
2026-01-18 11:16:17.25	224.11	50.90	-84.7	-88.6	6.1	2.77e-01	0	49	0	0	60	1048575
2026-01-18 11:16:18.26	224.68	51.08	-85.2	-88.6	5.7	2.73e-01	0	48	0	0	60	1048573
2026-01-18 11:16:19.27	225.26	51.26	-85.2	-88.6	5.8	2.77e-01	0	49	0	0	60	1048573
2026-01-18 11:16:20.28	225.85	51.43	-85.2	-88.6	5.8	2.76e-01	0	48	0	0	60	1048574
2026-01-18 11:16:21.28	226.43	51.60	-84.7	-88.6	5.9	2.73e-01	0	48	0	0	60	1048575
2026-01-18 11:16:22.29	227.03	51.77	-84.7	-88.6	5.7	2.77e-01	0	48	0	0	60	1048574
2026-01-18 11:16:23.30	227.64	51.94	-84.7	-88.6	6.3	2.72e-01	0	48	0	0	60	1048573
2026-01-18 11:16:24.31	228.25	52.11	-84.7	-88.6	6.3	2.74e-01	0	48	0	0	60	1048575
2026-01-18 11:16:25.31	228.87	52.26	-85.2	-88.6	6.0	2.77e-01	0	48	0	0	60	1048572
2026-01-18 11:16:26.32	229.49	52.42	-84.7	-88.6	5.6	2.77e-01	0	48	0	0	60	1048573
2026-01-18 11:16:27.33	230.12	52.58	-85.2	-88.6	5.9	2.73e-01	0	48	0	0	60	1048572
2026-01-18 11:16:28.33	230.76	52.73	-84.7	-88.6	6.5	2.81e-01	0	48	0	0	60	1048572
2026-01-18 11:16:29.33	231.40	52.88	-85.2	-88.6	6.7	2.75e-01	0	48	0	0	60	1048575
2026-01-18 11:16:30.34	232.05	53.02	-84.7	-88.6	6.0	2.73e-01	0	48	0	0	60	1048574
2026-01-18 11:16:31.35	232.71	53.17	-84.7	-88.6	6.0	2.76e-01	0	48	0	0	60	1048575
2026-01-18 11:16:32.35	233.37	53.30	-84.7	-88.6	5.8	2.75e-01	0	48	0	0	60	1048574
2026-01-18 11:16:33.36	234.04	53.44	-85.2	-88.6	5.8	2.72e-01	0	48	0	0	60	1048574
2026-01-18 11:16:34.37	234.72	53.57	-84.7	-88.6	5.6	2.78e-01	0	48	0	0	60	1048575
2026-01-18 11:16:35.37	235.39	53.70	-85.2	-88.6	5.7	2.77e-01	0	48	0	0	60	1048574
2026-01-18 11:16:36.38	236.08	53.82	-84.7	-88.6	6.0	2.74e-01	0	48	0	0	60	1048574
2026-01-18 11:16:37.39	236.78	53.94	-85.2	-88.6	6.0	2.73e-01	0	48	0	0	60	1048575
2026-01-18 11:16:38.40	237.48	54.06	-85.2	-88.6	6.0	2.77e-01	0	48	0	0	60	1048575
2026-01-18 11:16:39.41	238.18	54.17	-84.7	-88.6	6.2	2.71e-01	0	48	0	0	60	1048575
2026-01-18 11:16:40.41	238.89	54.28	-85.2	-88.6	6.5	2.75e-01	0	48	0	0	60	1048568
2026-01-18 11:16:41.42	239.61	54.39	-84.7	-88.6	6.5	2.79e-01	0	48	0	0	60	1048575
2026-01-18 11:16:42.43	240.33	54.49	-84.7	-88.6	6.5	2.76e-01	0	48	0	0	60	1048572
2026-01-18 11:16:43.44	241.06	54.58	-84.7	-88.6	6.2	2.73e-01	0	48	0	0	60	1048575
2026-01-18 11:16:44.45	241.79	54.67	-84.7	-88.6	6.0	2.69e-01	0	48	0	0	60	1048574
2026-01-18 11:16:45.45	242.52	54.76	-84.7	-88.6	6.1	2.73e-01	0	48	0	0	60	1048575
2026-01-18 11:16:46.46	243.26	54.84	-85.2	-88.6	5.8	2.79e-01	0	48	0	0	60	1048571
2026-01-18 11:16:47.47	244.00	54.92	-84.7	-88.6	6.1	2.77e-01	0	48	0	0	60	1048574
2026-01-18 11:16:48.48	244.75	54.99	-85.2	-88.6	6.1	2.70e-01	0	48	0	0	60	1048569
2026-01-18 11:16:49.49	245.50	55.06	-84.7	-88.6	6.3	2.75e-01	0	48	0	0	60	1048569
2026-01-18 11:16:50.50	246.26	55.13	-84.7	-88.6	6.2	2.78e-01	0	48	0	0	60	1048574
2026-01-18 11:16:51.50	247.01	55.18	-84.7	-88.6	5.9	2.75e-01	0	48	0	0	60	1048572
2026-01-18 11:16:52.51	247.77	55.24	-85.2	-88.6	5.8	2.74e-01	0	48	0	0	60	1048575
2026-01-18 11:16:53.52	248.54	55.29	-84.7	-88.6	5.9	2.74e-01	0	48	0	0	60	1048565
2026-01-18 11:16:54.53	249.31	55.33	-84.7	-88.6	5.8	2.75e-01	0	48	0	0	60	1048571
2026-01-18 11:16:55.53	250.07	55.37	-84.7	-88.6	6.3	2.74e-01	0	48	0	0	60	1048572
2026-01-18 11:16:56.54	250.84	55.41	-85.2	-88.6	6.0	2.80e-01	0	48	0	0	60	1048574
2026-01-18 11:16:57.55	251.61	55.44	-85.2	-88.6	5.5	2.75e-01	0	48	0	0	60	1048572
2026-01-18 11:16:58.56	252.39	55.46	-84.7	-88.6	6.1	2.74e-01	0	48	0	0	60	1048573
2026-01-18 11:16:59.56	253.16	55.48	-84.7	-88.6	6.0	2.78e-01	0	48	0	0	60	1048575
2026-01-18 11:17:00.57	253.93	55.49	-84.7	-88.6	6.4	2.78e-01	0	48	0	0	60	1048571
2026-01-18 11:17:01.58	254.71	55.50	-85.2	-88.6	5.8	2.74e-01	0	48	0	0	60	1048575
2026-01-18 11:17:02.58	255.48	55.51	-84.7	-88.6	5.9	2.81e-01	0	48	0	0	60	1048572
2026-01-18 11:17:03.59	256.26	55.51	-84.7	-88.6	5.9	2.81e-01	0	48	0	0	60	1048574
2026-01-18 11:17:04.60	257.04	55.50	-84.7	-88.6	6.5	2.78e-01	0	48	0	0	60	1048572
2026-01-18 11:17:05.60	257.81	55.49	-84.7	-88.6	6.1	2.78e-01	0	48	0	0	60	1048571
2026-01-18 11:17:06.61	258.58	55.47	-85.2	-88.6	5.8	2.82e-01	0	48	0	0	60	1048571
2026-01-18 11:17:07.62	259.36	55.45	-85.2	-88.6	6.1	2.81e-01	0	48	0	0	60	1048573
2026-01-18 11:17:08.63	260.13	55.43	-85.2	-88.6	6.4	2.78e-01	0	48	0	0	60	1048573
2026-01-18 11:17:09.64	260.91	55.39	-84.7	-88.6	6.1	2.74e-01	0	48	0	0	60	1048574
2026-01-18 11:17:10.64	261.67	55.36	-84.7	-88.6	5.8	2.82e-01	0	48	0	0	60	1048569
2026-01-18 11:17:11.65	262.44	55.32	-84.7	-88.6	6.4	2.77e-01	0	48	0	0	60	1048570
2026-01-18 11:17:12.65	263.20	55.27	-84.7	-88.6	6.0	2.73e-01	0	48	0	0	60	1048572
2026-01-18 11:17:13.66	263.96	55.22	-85.2	-88.6	6.0	2.72e-01	0	48	0	0	60	1048571
2026-01-18 11:17:14.67	264.72	55.16	-84.7	-88.6	5.4	2.78e-01	0	48	0	0	60	1048575
2026-01-18 11:17:15.68	265.48	55.10	-85.2	-88.6	6.6	2.78e-01	0	48	0	0	60	1048575
2026-01-18 11:17:16.69	266.23	55.04	-85.2	-88.6	6.0	2.74e-01	0	48	0	0	60	1048575
2026-01-18 11:17:17.68	266.97	54.97	-85.2	-88.6	5.8	2.74e-01	0	48	0	0	60	1048575
2026-01-18 11:17:18.69	267.72	54.89	-84.7	-88.6	5.6	2.76e-01	0	48	0	0	60	1048574
2026-01-18 11:17:19.70	268.46	54.81	-84.7	-88.6	6.4	2.76e-01	0	48	0	0	60	1048573
2026-01-18 11:17:20.70	269.19	54.73	-85.2	-88.6	6.2	2.78e-01	0	48	0	0	60	1048575
2026-01-18 11:17:21.71	269.93	54.64	-84.7	-88.6	6.0	2.76e-01	0	48	0	0	60	1048570
2026-01-18 11:17:22.72	270.66	54.55	-84.7	-88.6	6.2	2.73e-01	0	48	0	0	60	1048573
2026-01-18 11:17:23.73	271.38	54.45	-84.7	-88.6	6.6	2.75e-01	0	48	0	0	60	1048575
2026-01-18 11:17:24.74	272.10	54.35	-83.9	-88.6	6.1	2.75e-01	0	48	0	0	60	1048567
2026-01-18 11:17:25.74	272.81	54.25	-84.7	-88.6	5.6	2.77e-01	0	48	0	0	60	1048571
2026-01-18 11:17:26.75	273.52	54.14	-85.2	-88.6	5.5	2.77e-01	0	48	0	0	60	1048572
2026-01-18 11:17:27.76	274.22	54.02	-84.7	-88.6	6.0	2.78e-01	0	48	0	0	60	1048568
2026-01-18 11:17:28.77	274.92	53.90	-85.2	-88.6	6.1	2.73e-01	0	48	0	0	60	1048575
2026-01-18 11:17:29.77	275.61	53.78	-84.7	-88.6	6.0	2.75e-01	0	48	0	0	60	1048574
2026-01-18 11:17:30.77	276.29	53.66	-84.7	-88.6	5.9	2.71e-01	0	48	0	0	60	1048570
2026-01-18 11:17:31.77	276.96	53.53	-84.7	-88.6	5.9	2.72e-01	0	48	0	0	60	1048575
2026-01-18 11:17:32.77	277.63	53.40	-85.2	-88.6	6.4	2.71e-01	0	48	0	0	60	1048573
2026-01-18 11:17:33.78	278.30	53.26	-84.7	-88.6	6.3	2.74e-01	0	48	0	0	60	1048569
2026-01-18 11:17:34.78	278.95	53.12	-85.2	-88.6	5.8	2.73e-01	0	48	0	0	60	1048574
2026-01-18 11:17:35.79	279.61	52.98	-85.2	-88.6	6.1	2.79e-01	0	48	0	0	60	1048573
2026-01-18 11:17:36.80	280.26	52.83	-85.2	-88.6	5.9	2.76e-01	0	48	0	0	60	1048575
2026-01-18 11:17:37.81	280.90	52.68	-85.2	-88.6	5.8	2.72e-01	0	48	0	0	60	1048575
2026-01-18 11:17:38.81	281.53	52.53	-84.7	-88.6	6.2	2.73e-01	0	48	0	0	60	1048571
2026-01-18 11:17:39.82	282.16	52.38	-85.2	-88.6	5.9	2.71e-01	0	48	0	0	60	1048574
2026-01-18 11:17:40.83	282.78	52.22	-84.7	-88.6	6.3	2.79e-01	0	48	0	0	60	1048573
2026-01-18 11:17:41.84	283.40	52.06	-85.2	-88.6	3.0	7.57e-01	0	48	104	0	60	1048574
2026-01-18 11:17:42.85	284.01	51.89	-84.7	-88.6	3.7	7.63e-01	0	48	104	0	60	1048569
2026-01-18 11:17:43.86	284.61	51.72	-85.2	-88.6	2.9	7.63e-01	0	48	104	0	60	1048573
2026-01-18 11:17:44.87	285.21	51.55	-84.7	-88.6	2.9	7.62e-01	0	48	104	0	60	1048575
2026-01-18 11:17:45.88	285.80	51.38	-85.2	-88.6	3.0	7.63e-01	0	48	104	0	60	1048574
2026-01-18 11:17:46.89	286.38	51.21	-85.2	-88.6	3.6	7.64e-01	0	48	104	0	60	1048575
2026-01-18 11:17:47.89	286.95	51.03	-85.2	-88.6	3.2	7.62e-01	0	48	104	0	60	1048574
2026-01-18 11:17:48.90	287.52	50.85	-85.2	-88.6	3.0	7.65e-01	0	48	104	0	60	1048575
2026-01-18 11:17:49.91	288.09	50.67	-85.2	-88.6	3.6	7.61e-01	0	48	104	0	60	1048574
2026-01-18 11:17:50.92	288.64	50.49	-85.2	-88.6	3.2	7.63e-01	0	48	104	0	60	1048573
2026-01-18 11:17:51.92	289.19	50.30	-85.2	-88.6	2.9	7.63e-01	0	48	104	0	60	1048572
2026-01-18 11:17:52.93	289.73	50.11	-84.7	-88.6	3.4	7.63e-01	0	48	104	0	60	1048575
2026-01-18 11:17:53.94	290.26	49.93	-85.2	-88.6	3.5	7.65e-01	0	48	104	0	60	1048570
2026-01-18 11:17:54.95	290.79	49.73	-85.2	-88.6	3.1	7.64e-01	0	48	104	0	60	1048574
2026-01-18 11:17:55.96	291.32	49.54	-85.2	-88.6	3.1	7.64e-01	0	48	104	0	60	1048573
2026-01-18 11:17:56.97	291.83	49.35	-85.2	-88.6	3.0	7.64e-01	0	48	104	0	60	1048567
2026-01-18 11:17:57.97	292.34	49.15	-85.2	-88.6	3.7	7.64e-01	0	48	104	0	60	1048575
2026-01-18 11:17:58.98	292.84	48.95	-85.2	-88.6	3.1	7.63e-01	0	48	104	0	60	1048568
2026-01-18 11:17:59.99	293.34	48.76	-84.7	-88.6	2.9	7.63e-01	0	48	104	0	60	1048572
2026-01-18 11:18:00.99	293.82	48.56	-85.2	-88.6	3.3	7.64e-01	0	48	104	0	60	1048574
2026-01-18 11:18:02.00	294.31	48.36	-84.7	-88.6	3.3	7.64e-01	0	48	104	0	60	1048572
2026-01-18 11:18:03.00	294.78	48.16	-85.2	-88.6	3.0	7.63e-01	0	48	104	0	60	1048574
2026-01-18 11:18:04.01	295.25	47.95	-85.2	-88.6	3.1	7.63e-01	0	48	104	0	60	1048575
2026-01-18 11:18:05.01	295.71	47.75	-85.2	-88.6	3.1	7.64e-01	0	48	104	0	60	1048569
2026-01-18 11:18:06.02	296.17	47.54	-85.2	-88.6	3.1	7.64e-01	0	48	104	0	60	1048573
2026-01-18 11:18:07.03	296.63	47.34	-85.2	-88.6	3.6	7.64e-01	0	48	104	0	60	1048575
2026-01-18 11:18:08.04	297.08	47.13	-85.2	-88.6	3.1	7.64e-01	0	48	104	0	60	1048570
2026-01-18 11:18:09.05	297.52	46.92	-85.2	-88.6	3.1	7.64e-01	0	48	104	0	60	1048567
2026-01-18 11:18:10.05	297.95	46.71	-85.2	-88.6	3.0	7.62e-01	0	48	104	0	60	1048570
2026-01-18 11:18:11.06	298.38	46.50	-85.2	-88.6	3.5	7.63e-01	0	48	104	0	60	1048575
2026-01-18 11:18:12.07	298.81	46.29	-85.2	-88.6	3.4	7.65e-01	0	48	104	0	60	1048572
2026-01-18 11:18:13.08	299.23	46.08	-85.2	-88.6	3.0	7.64e-01	0	48	104	0	60	1048574
2026-01-18 11:18:14.09	299.64	45.87	-85.2	-88.6	2.9	7.63e-01	0	48	104	0	60	1048574
2026-01-18 11:18:15.09	300.04	45.66	-85.2	-88.6	2.9	7.64e-01	0	48	104	0	60	1048565
2026-01-18 11:18:16.10	300.45	45.45	-84.7	-88.6	2.9	7.65e-01	0	48	104	0	60	1048575
2026-01-18 11:18:17.11	300.84	45.24	-85.2	-88.6	3.4	7.63e-01	0	48	104	0	60	1048573
2026-01-18 11:18:18.12	301.24	45.02	-85.2	-88.6	2.8	7.64e-01	0	48	104	0	60	1048575
2026-01-18 11:18:19.13	301.62	44.81	-85.2	-88.6	3.2	7.62e-01	0	48	104	0	60	1048571
2026-01-18 11:18:20.13	302.00	44.60	-85.2	-88.6	3.1	7.64e-01	0	48	104	0	60	1048575
2026-01-18 11:18:21.14	302.38	44.38	-84.7	-88.6	3.6	7.63e-01	0	48	104	0	60	1048572
2026-01-18 11:18:22.14	302.75	44.17	-85.2	-88.6	3.5	7.62e-01	0	48	104	0	60	1048574
2026-01-18 11:18:23.15	303.12	43.96	-85.2	-88.6	3.3	7.64e-01	0	48	104	0	60	1048573
2026-01-18 11:18:24.16	303.48	43.74	-85.2	-88.6	3.1	7.63e-01	0	48	104	0	60	1048571
2026-01-18 11:18:25.16	303.83	43.53	-84.7	-88.6	3.5	7.64e-01	0	48	104	0	60	1048574
2026-01-18 11:18:26.17	304.19	43.32	-85.2	-88.6	3.2	7.64e-01	0	48	104	0	60	1048573
2026-01-18 11:18:27.18	304.53	43.10	-85.2	-88.6	3.7	7.64e-01	0	48	104	0	60	1048573
2026-01-18 11:18:28.18	304.87	42.89	-85.2	-88.6	3.1	7.64e-01	0	48	104	0	60	1048569
2026-01-18 11:18:29.19	305.21	42.68	-85.2	-88.6	3.1	7.63e-01	0	48	104	0	60	1048574
2026-01-18 11:18:30.20	305.55	42.46	-84.7	-88.6	2.9	7.63e-01	0	48	104	0	60	1048572
2026-01-18 11:18:31.20	305.88	42.25	-84.7	-88.6	3.3	7.64e-01	0	48	104	0	60	1048573
2026-01-18 11:18:32.21	306.20	42.04	-85.2	-88.6	3.6	7.63e-01	0	48	104	0	60	1048569
2026-01-18 11:18:33.21	306.52	41.83	-85.2	-88.6	3.3	7.65e-01	0	48	104	0	60	1048574
2026-01-18 11:18:34.22	306.84	41.61	-85.2	-88.6	3.0	7.63e-01	0	48	104	0	60	1048572
2026-01-18 11:18:35.23	307.15	41.40	-84.7	-88.6	3.5	7.64e-01	0	48	104	0	60	1048575
2026-01-18 11:18:36.24	307.46	41.19	-85.2	-88.6	2.8	7.63e-01	0	48	104	0	60	1048572
2026-01-18 11:18:37.25	307.77	40.98	-85.2	-88.6	3.2	7.63e-01	0	48	104	0	60	1048574
2026-01-18 11:18:38.25	308.07	40.77	-85.2	-88.6	3.7	7.64e-01	0	48	104	0	60	1048572
2026-01-18 11:18:39.26	308.37	40.56	-85.2	-88.6	3.0	7.64e-01	0	47	104	0	60	1048573
2026-01-18 11:18:40.27	308.66	40.35	-84.7	-88.6	2.7	7.62e-01	0	47	104	0	60	1048564
2026-01-18 11:18:41.27	308.95	40.14	-85.2	-88.6	3.3	7.63e-01	0	48	104	0	60	1048575
2026-01-18 11:18:42.28	309.24	39.93	-85.2	-88.6	3.1	7.63e-01	0	48	104	0	60	1048574
2026-01-18 11:18:43.29	309.52	39.72	-84.7	-88.6	3.2	7.64e-01	0	48	104	0	60	1048575
2026-01-18 11:18:44.30	309.80	39.51	-84.7	-88.6	3.2	7.62e-01	0	48	104	0	60	1048569
2026-01-18 11:18:45.31	310.08	39.30	-85.2	-88.6	3.5	7.63e-01	0	48	104	0	60	1048573
2026-01-18 11:18:46.32	310.35	39.09	-85.2	-88.6	3.0	7.64e-01	0	48	104	0	60	1048573
2026-01-18 11:18:47.32	310.62	38.89	-85.2	-88.6	3.7	7.65e-01	0	48	104	0	60	1048573
2026-01-18 11:18:48.33	310.88	38.68	-85.2	-88.6	3.5	7.63e-01	0	48	104	0	60	1048575
2026-01-18 11:18:49.34	311.14	38.48	-84.3	-88.6	3.0	7.63e-01	0	48	104	0	60	1048574
2026-01-18 11:18:50.35	311.40	38.27	-85.2	-88.6	3.0	7.63e-01	0	48	104	0	60	1048574
2026-01-18 11:18:51.36	311.66	38.07	-85.2	-88.6	3.1	7.63e-01	0	48	104	0	60	1048572
2026-01-18 11:18:52.36	311.91	37.86	-85.2	-88.6	3.7	7.64e-01	0	48	104	0	60	1048573
2026-01-18 11:18:53.36	312.16	37.66	-85.2	-88.6	3.1	7.64e-01	0	48	104	0	60	1048573
2026-01-18 11:18:54.36	312.40	37.46	-85.2	-88.6	3.1	7.64e-01	0	48	104	0	60	1048575
2026-01-18 11:18:55.37	312.65	37.26	-85.2	-88.6	3.1	7.64e-01	0	48	104	0	60	1048575
2026-01-18 11:18:56.37	312.89	37.06	-85.2	-88.6	3.1	7.63e-01	0	48	104	0	60	1048574
2026-01-18 11:18:57.37	313.12	36.86	-85.2	-88.6	3.1	7.64e-01	0	48	104	0	60	1048575
2026-01-18 11:18:58.38	313.36	36.66	-85.2	-88.6	3.2	7.64e-01	0	48	104	0	60	1048574
2026-01-18 11:18:59.38	313.59	36.46	-85.2	-88.6	3.1	7.63e-01	0	48	104	0	60	1048575
2026-01-18 11:19:00.39	313.82	36.26	-85.2	-88.6	3.3	7.64e-01	0	47	104	0	60	1048575
2026-01-18 11:19:01.39	314.04	36.07	-85.2	-88.6	3.4	7.63e-01	0	47	104	0	60	1048575
2026-01-18 11:19:02.40	314.27	35.87	-85.2	-88.6	3.6	7.63e-01	0	48	104	0	60	1048575
2026-01-18 11:19:03.40	314.49	35.68	-85.2	-88.6	2.8	7.63e-01	0	48	104	0	60	1048574
2026-01-18 11:19:04.41	314.71	35.48	-84.7	-88.6	3.0	7.63e-01	0	48	104	0	60	1048575
2026-01-18 11:19:05.42	314.92	35.29	-85.2	-88.6	2.9	7.62e-01	0	48	104	0	60	1048575
2026-01-18 11:19:06.43	315.14	35.09	-85.2	-88.6	3.4	7.64e-01	0	48	104	0	60	1048574
2026-01-18 11:19:07.44	315.35	34.90	-85.2	-88.6	3.1	7.64e-01	0	48	104	0	60	1048575
2026-01-18 11:19:08.44	315.56	34.71	-84.3	-88.6	3.0	7.64e-01	0	48	104	0	60	1048575
2026-01-18 11:19:09.45	315.76	34.52	-85.2	-88.6	3.2	7.62e-01	0	48	104	0	60	1048573
2026-01-18 11:19:10.46	315.97	34.32	-85.2	-88.6	2.9	7.63e-01	0	48	104	0	60	1048573
2026-01-18 11:19:11.47	316.17	34.13	-85.2	-88.6	2.7	7.63e-01	0	48	104	0	60	1048573
2026-01-18 11:19:12.48	316.37	33.94	-84.7	-88.6	3.1	7.62e-01	0	48	104	0	60	1048574
2026-01-18 11:19:13.49	316.57	33.76	-84.7	-88.6	2.8	7.63e-01	0	48	104	0	60	1048575
2026-01-18 11:19:14.49	316.76	33.57	-85.2	-88.6	3.2	7.59e-01	0	48	104	0	60	1048574
2026-01-18 11:19:15.50	316.96	33.38	-85.2	-88.6	3.7	7.63e-01	0	48	104	0	60	1048575
2026-01-18 11:19:16.51	317.15	33.20	-85.2	-88.6	3.6	7.63e-01	0	47	104	0	60	1048572
2026-01-18 11:19:17.52	317.34	33.01	-85.2	-88.6	3.3	7.64e-01	0	48	104	0	60	1048575
2026-01-18 11:19:18.53	317.52	32.83	-84.7	-88.6	3.1	7.64e-01	0	48	104	0	60	1048572
2026-01-18 11:19:19.53	317.71	32.64	-85.2	-88.6	3.3	7.63e-01	0	48	104	0	60	1048574
2026-01-18 11:19:20.54	317.89	32.46	-85.2	-88.6	3.0	7.65e-01	0	48	104	0	60	1048572
2026-01-18 11:19:21.55	318.07	32.28	-85.2	-88.6	3.2	7.63e-01	0	47	104	0	60	1048575
2026-01-18 11:19:22.56	318.25	32.10	-85.2	-88.6	3.1	7.62e-01	0	48	104	0	60	1048572
2026-01-18 11:19:23.57	318.43	31.92	-84.7	-88.6	3.6	7.64e-01	0	48	104	0	60	1048562
2026-01-18 11:19:24.58	318.60	31.74	-85.2	-88.6	3.1	7.62e-01	0	48	104	0	60	1048573
2026-01-18 11:19:25.59	318.78	31.56	-84.7	-88.6	3.1	7.63e-01	0	48	104	0	60	1048575
2026-01-18 11:19:26.59	318.95	31.38	-85.2	-88.6	3.2	7.64e-01	0	48	104	0	60	1048574
2026-01-18 11:19:27.60	319.12	31.20	-85.2	-88.6	3.2	7.63e-01	0	48	104	0	60	1048573
2026-01-18 11:19:28.61	319.28	31.03	-85.2	-88.6	3.5	7.62e-01	0	48	104	0	60	1048574
2026-01-18 11:19:29.61	319.45	30.85	-85.2	-88.6	3.6	7.61e-01	0	47	104	0	60	1048574
2026-01-18 11:19:30.62	319.61	30.68	-85.2	-88.6	3.0	7.63e-01	0	48	104	0	60	1048575
2026-01-18 11:19:31.63	319.77	30.50	-84.7	-88.6	3.1	7.61e-01	0	48	104	0	60	1048573
2026-01-18 11:19:32.63	319.93	30.33	-85.2	-88.6	2.9	7.64e-01	0	48	104	0	60	1048570
2026-01-18 11:19:33.64	320.09	30.16	-85.2	-88.6	2.7	7.64e-01	0	48	104	0	60	1048574
2026-01-18 11:19:34.65	320.25	29.99	-85.2	-88.6	3.0	7.63e-01	0	47	104	0	60	1048572
2026-01-18 11:19:35.65	320.41	29.82	-85.2	-88.6	3.0	7.61e-01	0	48	104	0	60	1048574
2026-01-18 11:19:36.66	320.56	29.65	-85.2	-88.6	3.6	7.63e-01	0	47	104	0	60	1048575
2026-01-18 11:19:37.67	320.71	29.48	-85.2	-88.6	3.4	7.63e-01	0	47	104	0	60	1048570
2026-01-18 11:19:38.68	320.86	29.31	-85.2	-88.6	3.0	7.64e-01	0	47	104	0	60	1048575
2026-01-18 11:19:39.69	321.01	29.14	-85.2	-88.6	2.9	7.64e-01	0	47	104	0	60	1048572
2026-01-18 11:19:40.69	321.16	28.98	-85.2	-88.6	3.3	7.64e-01	0	48	104	0	60	1048575
2026-01-18 11:19:41.70	321.31	28.81	-84.7	-88.6	2.8	7.63e-01	0	47	104	0	60	1048575
2026-01-18 11:19:42.71	321.45	28.64	-85.2	-88.6	3.4	7.62e-01	0	47	104	0	60	1048574
2026-01-18 11:19:43.71	321.60	28.48	-85.2	-88.6	3.5	7.64e-01	0	47	104	0	60	1048570
2026-01-18 11:19:44.72	321.74	28.32	-85.2	-88.6	3.3	7.64e-01	0	48	104	0	60	1048575
2026-01-18 11:19:45.73	321.88	28.15	-85.2	-88.6	2.7	7.63e-01	0	47	104	0	60	1048573
2026-01-18 11:19:46.73	322.02	27.99	-84.7	-88.6	2.8	7.64e-01	0	48	104	0	60	1048575
2026-01-18 11:19:47.74	322.16	27.83	-85.2	-88.6	3.7	7.63e-01	0	47	104	0	60	1048572
2026-01-18 11:19:48.75	322.29	27.67	-85.2	-88.6	3.1	7.64e-01	0	48	104	0	60	1048574
2026-01-18 11:19:49.76	322.43	27.51	-85.2	-88.6	3.0	7.62e-01	0	48	104	0	60	1048574
2026-01-18 11:19:50.76	322.56	27.35	-85.2	-88.6	3.6	7.63e-01	0	47	104	0	60	1048571
2026-01-18 11:19:51.77	322.69	27.20	-85.2	-88.6	3.5	7.63e-01	0	48	104	0	60	1048570
2026-01-18 11:19:52.78	322.83	27.04	-85.2	-88.6	3.1	7.64e-01	0	47	104	0	60	1048569
2026-01-18 11:19:53.79	322.96	26.88	-84.7	-88.6	3.1	7.64e-01	0	47	104	0	60	1048574
2026-01-18 11:19:54.80	323.09	26.72	-85.2	-88.6	2.9	7.63e-01	0	47	104	0	60	1048571
2026-01-18 11:19:55.81	323.21	26.57	-85.2	-88.6	3.1	7.64e-01	0	47	104	0	60	1048575
2026-01-18 11:19:56.81	323.34	26.42	-85.2	-88.6	3.6	7.60e-01	0	47	104	0	60	1048574
2026-01-18 11:19:57.82	323.47	26.26	-85.2	-88.6	3.4	7.64e-01	0	47	104	0	60	1048575
2026-01-18 11:19:58.83	323.59	26.11	-85.2	-88.6	3.1	7.63e-01	0	47	104	0	60	1048573
2026-01-18 11:19:59.83	323.71	25.96	-85.2	-88.6	2.9	7.64e-01	0	47	104	0	60	1048575
2026-01-18 11:20:00.84	323.84	25.81	-84.7	-88.6	3.2	7.64e-01	0	47	104	0	60	1048575
2026-01-18 11:20:01.84	323.96	25.66	-84.7	-88.6	3.6	7.64e-01	0	47	104	0	60	1048574
2026-01-18 11:20:02.85	324.08	25.51	-85.2	-88.6	3.1	7.64e-01	0	47	104	0	60	1048575
2026-01-18 11:20:03.85	324.19	25.36	-85.2	-88.6	3.1	7.63e-01	0	47	104	0	60	1048572
2026-01-18 11:20:04.86	324.31	25.21	-84.7	-88.6	3.3	7.63e-01	0	48	104	0	60	1048575
2026-01-18 11:20:05.87	324.43	25.06	-84.7	-88.6	2.8	7.64e-01	0	47	104	0	60	1048574
2026-01-18 11:20:06.88	324.54	24.92	-85.2	-88.6	3.4	7.63e-01	0	47	104	0	60	1048575
2026-01-18 11:20:07.88	324.66	24.77	-85.2	-88.6	3.4	7.63e-01	0	48	104	0	60	1048575
2026-01-18 11:20:08.89	324.77	24.62	-85.2	-88.6	2.8	7.62e-01	0	48	104	0	60	1048575
2026-01-18 11:20:09.90	324.89	24.48	-84.7	-88.6	2.8	7.63e-01	0	48	104	0	60	1048575
2026-01-18 11:20:10.91	325.00	24.33	-84.7	-88.6	3.5	7.63e-01	0	47	104	0	60	1048571
2026-01-18 11:20:11.92	325.11	24.19	-85.2	-88.6	3.0	7.63e-01	0	47	104	0	60	1048574
2026-01-18 11:20:12.92	325.22	24.05	-85.2	-88.6	3.0	7.63e-01	0	47	104	0	60	1048574
2026-01-18 11:20:13.93	325.33	23.91	-85.2	-88.6	3.4	7.65e-01	0	47	104	0	60	1048571
2026-01-18 11:20:14.94	325.43	23.76	-85.2	-88.6	3.6	7.63e-01	0	47	104	0	60	1048575
2026-01-18 11:20:15.95	325.54	23.62	-85.2	-88.6	3.0	7.64e-01	0	47	104	0	60	1048573
2026-01-18 11:20:16.95	325.65	23.48	-85.2	-88.6	3.5	7.63e-01	0	47	104	0	60	1048572
2026-01-18 11:20:17.96	325.75	23.34	-85.2	-88.6	3.3	7.63e-01	0	47	104	0	60	1048575
2026-01-18 11:20:18.96	325.86	23.21	-84.7	-88.6	3.8	7.63e-01	0	47	104	0	60	1048567
2026-01-18 11:20:19.96	325.96	23.07	-85.2	-88.6	3.2	7.64e-01	0	47	104	0	60	1048575
2026-01-18 11:20:20.97	326.06	22.93	-85.2	-88.6	3.0	7.61e-01	0	47	104	0	60	1048575
2026-01-18 11:20:21.98	326.16	22.79	-85.2	-88.6	3.6	7.65e-01	0	48	104	0	60	1048571
2026-01-18 11:20:22.98	326.26	22.66	-85.2	-88.6	3.8	7.64e-01	0	48	104	0	60	1048570
2026-01-18 11:20:23.99	326.36	22.52	-85.2	-88.6	2.7	7.59e-01	0	48	104	0	60	1048575
2026-01-18 11:20:25.00	326.46	22.39	-85.2	-88.6	3.1	7.63e-01	0	48	104	0	60	1048575
2026-01-18 11:20:26.01	326.56	22.25	-85.2	-88.6	2.9	7.64e-01	0	47	104	0	60	1048574
2026-01-18 11:20:27.01	326.66	22.12	-85.2	-88.6	3.2	7.64e-01	0	47	104	0	60	1048573
2026-01-18 11:20:28.02	326.75	21.99	-85.2	-88.6	3.5	7.63e-01	0	47	104	0	60	1048573
2026-01-18 11:20:29.03	326.85	21.85	-85.2	-88.6	3.5	7.64e-01	0	47	104	0	60	1048575
2026-01-18 11:20:30.03	326.94	21.72	-85.2	-88.6	3.1	7.63e-01	0	47	104	0	60	1048572
2026-01-18 11:20:31.04	327.04	21.59	-84.7	-88.6	2.9	7.63e-01	0	48	104	0	60	1048575
2026-01-18 11:20:32.03	327.13	21.46	-85.2	-88.6	3.7	7.64e-01	0	47	104	0	60	1048574
2026-01-18 11:20:33.04	327.22	21.33	-85.2	-88.6	3.6	7.64e-01	0	47	104	0	60	1048574
2026-01-18 11:20:34.04	327.32	21.20	-84.7	-88.6	2.9	7.63e-01	0	47	104	0	60	1048574
2026-01-18 11:20:35.05	327.41	21.08	-85.2	-88.6	3.4	7.64e-01	0	47	104	0	60	1048574
2026-01-18 11:20:36.06	327.50	20.95	-84.7	-88.6	3.0	7.65e-01	0	47	104	0	60	1048575
2026-01-18 11:20:37.07	327.59	20.82	-85.2	-88.6	3.3	7.64e-01	0	47	104	0	60	1048571
2026-01-18 11:20:38.07	327.68	20.69	-85.2	-88.6	3.2	7.64e-01	0	48	104	0	60	1048575
2026-01-18 11:20:39.07	327.76	20.57	-84.7	-88.6	3.3	7.63e-01	0	47	104	0	60	1048574
2026-01-18 11:20:40.08	327.85	20.44	-85.2	-88.6	2.9	7.63e-01	0	48	104	0	60	1048575
2026-01-18 11:20:41.09	327.94	20.32	-85.2	-88.6	3.0	7.64e-01	0	47	104	0	60	1048575
2026-01-18 11:20:42.10	328.03	20.19	-85.2	-88.6	3.4	7.64e-01	0	47	104	0	60	1048575
2026-01-18 11:20:43.11	328.11	20.07	-85.2	-88.6	3.0	7.64e-01	0	47	104	0	60	1048575
2026-01-18 11:20:44.11	328.20	19.94	-84.7	-88.6	2.9	7.63e-01	0	47	104	0	60	1048570
2026-01-18 11:20:45.12	328.28	19.82	-85.2	-88.6	3.3	7.64e-01	0	47	104	0	60	1048573
2026-01-18 11:20:46.13	328.37	19.70	-85.2	-88.6	2.9	7.62e-01	0	47	104	0	60	1048574
2026-01-18 11:20:47.14	328.45	19.57	-85.2	-88.6	2.8	7.63e-01	0	48	104	0	60	1048574
2026-01-18 11:20:48.14	328.53	19.45	-85.2	-88.6	3.3	7.64e-01	0	47	104	0	60	1048572
2026-01-18 11:20:49.15	328.61	19.33	-85.2	-88.6	3.6	7.62e-01	0	47	104	0	60	1048575
2026-01-18 11:20:50.15	328.69	19.21	-84.7	-88.6	2.6	7.63e-01	0	48	104	0	60	1048571
2026-01-18 11:20:51.16	328.78	19.09	-85.2	-88.6	3.2	7.63e-01	0	47	104	0	60	1048575
2026-01-18 11:20:52.16	328.86	18.97	-84.7	-88.6	3.2	7.62e-01	0	48	104	0	60	1048575
2026-01-18 11:20:53.17	328.94	18.86	-85.2	-88.6	3.3	7.63e-01	0	47	104	0	60	1048573
2026-01-18 11:20:54.17	329.01	18.74	-85.2	-88.6	3.1	7.63e-01	0	47	104	0	60	1048574
2026-01-18 11:20:55.18	329.09	18.62	-85.2	-88.6	3.2	7.63e-01	0	47	104	0	60	1048572
2026-01-18 11:20:56.19	329.17	18.50	-85.2	-88.6	3.6	7.63e-01	0	47	104	0	60	1048572
2026-01-18 11:20:57.19	329.25	18.39	-85.2	-88.6	3.2	7.64e-01	0	47	104	0	60	1048575
2026-01-18 11:20:58.20	329.32	18.27	-84.7	-88.6	3.5	7.63e-01	0	48	104	0	60	1048575
2026-01-18 11:20:59.21	329.40	18.15	-85.2	-88.6	3.4	7.63e-01	0	47	104	0	60	1048572
2026-01-18 11:21:00.22	329.48	18.04	-84.3	-88.6	3.0	7.63e-01	0	47	104	0	60	1048573
2026-01-18 11:21:01.22	329.55	17.92	-85.2	-88.6	2.8	7.63e-01	0	47	104	0	60	1048575
2026-01-18 11:21:02.22	329.63	17.81	-85.2	-88.6	3.0	7.64e-01	0	47	104	0	60	1048574
2026-01-18 11:21:03.23	329.70	17.70	-84.7	-88.6	3.4	7.63e-01	0	48	104	0	60	1048575
2026-01-18 11:21:04.24	329.77	17.58	-85.2	-88.6	2.9	7.64e-01	0	48	104	0	60	1048571
2026-01-18 11:21:05.24	329.85	17.47	-85.2	-88.6	2.8	7.63e-01	0	47	104	0	60	1048574
2026-01-18 11:21:06.25	329.92	17.36	-85.2	-88.6	3.5	7.63e-01	0	47	104	0	60	1048574
2026-01-18 11:21:07.26	329.99	17.25	-85.2	-88.6	3.5	7.62e-01	0	48	104	0	60	1048566
2026-01-18 11:21:08.26	330.06	17.14	-84.7	-88.6	3.5	7.63e-01	0	47	104	0	60	1048573
2026-01-18 11:21:09.26	330.13	17.03	-85.2	-88.6	3.5	7.63e-01	0	47	104	0	60	1048574
2026-01-18 11:21:10.27	330.20	16.92	-84.7	-88.6	3.8	7.63e-01	0	47	104	0	60	1048574
2026-01-18 11:21:11.27	330.27	16.81	-85.2	-88.6	2.9	7.62e-01	0	47	104	0	60	1048574
2026-01-18 11:21:12.28	330.34	16.70	-85.2	-88.6	3.1	7.62e-01	0	48	104	0	60	1048574
2026-01-18 11:21:13.29	330.41	16.59	-85.2	-88.6	3.6	7.62e-01	0	47	104	0	60	1048572
2026-01-18 11:21:14.30	330.48	16.48	-85.2	-88.6	3.7	7.62e-01	0	47	104	0	60	1048573
2026-01-18 11:21:15.30	330.55	16.37	-84.7	-88.6	3.7	7.62e-01	0	47	104	0	60	1048575
2026-01-18 11:21:16.31	330.62	16.26	-85.2	-88.6	3.0	7.64e-01	0	48	104	0	60	1048573
2026-01-18 11:21:17.31	330.68	16.16	-84.7	-88.6	2.9	7.63e-01	0	47	104	0	60	1048574
2026-01-18 11:21:18.32	330.75	16.05	-85.2	-88.6	3.3	7.65e-01	0	48	104	0	60	1048574
2026-01-18 11:21:19.33	330.82	15.94	-85.2	-88.6	3.6	7.64e-01	0	48	104	0	60	1048575
2026-01-18 11:21:20.34	330.88	15.84	-85.2	-88.6	3.6	7.63e-01	0	47	104	0	60	1048572
2026-01-18 11:21:21.35	330.95	15.73	-85.2	-88.6	3.1	7.64e-01	0	47	104	0	60	1048573
2026-01-18 11:21:22.35	331.01	15.63	-85.2	-88.6	2.8	7.63e-01	0	47	104	0	60	1048571
2026-01-18 11:21:23.36	331.08	15.52	-85.2	-88.6	3.5	7.62e-01	0	47	104	0	60	1048575
2026-01-18 11:21:24.36	331.14	15.42	-85.2	-88.6	3.3	7.62e-01	0	47	104	0	60	1048573
2026-01-18 11:21:25.37	331.21	15.31	-84.7	-88.6	3.0	7.64e-01	0	47	104	0	60	1048575
2026-01-18 11:21:26.38	331.27	15.21	-84.7	-88.6	2.9	7.63e-01	0	47	104	0	60	1048574
2026-01-18 11:21:27.39	331.33	15.11	-84.7	-88.6	3.3	7.63e-01	0	47	104	0	60	1048572
2026-01-18 11:21:28.40	331.40	15.00	-85.2	-88.6	3.6	7.63e-01	0	47	104	0	60	1048575
2026-01-18 11:21:29.41	331.46	14.90	-85.2	-88.6	3.3	7.62e-01	0	47	104	0	60	1048575
2026-01-18 11:21:30.41	331.52	14.80	-84.7	-88.6	3.2	7.63e-01	0	47	104	0	60	1048571
2026-01-18 11:21:31.42	331.58	14.70	-85.2	-88.6	3.0	7.64e-01	0	48	104	0	60	1048573
2026-01-18 11:21:32.42	331.64	14.60	-85.2	-88.6	3.1	7.63e-01	0	48	104	0	60	1048572
2026-01-18 11:21:33.43	331.70	14.50	-84.7	-88.6	3.7	7.63e-01	0	48	104	0	60	1048573
2026-01-18 11:21:34.44	331.77	14.40	-85.2	-88.6	3.1	7.63e-01	0	47	104	0	60	1048570
2026-01-18 11:21:35.45	331.83	14.30	-85.2	-88.6	2.7	7.64e-01	0	47	104	0	60	1048575
2026-01-18 11:21:36.45	331.88	14.20	-84.7	-88.6	3.1	7.64e-01	0	47	104	0	60	1048574
2026-01-18 11:21:37.46	331.94	14.10	-85.2	-88.6	3.2	7.63e-01	0	47	104	0	60	1048572
2026-01-18 11:21:38.47	332.00	14.00	-85.2	-88.6	3.3	7.63e-01	0	47	104	0	60	1048569
2026-01-18 11:21:39.48	332.06	13.90	-85.2	-88.6	2.7	7.63e-01	0	48	104	0	60	1048572
2026-01-18 11:21:40.49	332.12	13.80	-84.7	-88.6	3.0	7.62e-01	0	47	104	0	60	1048571
2026-01-18 11:21:41.49	332.18	13.71	-85.2	-88.6	3.0	7.63e-01	0	48	104	0	60	1048575
2026-01-18 11:21:42.50	332.24	13.61	-85.2	-88.6	2.9	7.63e-01	0	47	104	0	60	1048575
2026-01-18 11:21:43.51	332.29	13.51	-85.2	-88.6	2.9	7.63e-01	0	47	104	0	60	1048574
2026-01-18 11:21:44.52	332.35	13.41	-85.2	-88.6	3.0	7.63e-01	0	48	104	0	60	1048575
2026-01-18 11:21:45.52	332.41	13.32	-84.7	-88.6	2.9	7.64e-01	0	47	104	0	60	1048575
2026-01-18 11:21:46.53	332.46	13.22	-85.2	-88.6	3.5	7.63e-01	0	48	104	0	60	1048572
2026-01-18 11:21:47.54	332.52	13.13	-85.2	-88.6	3.1	7.65e-01	0	47	104	0	60	1048573
2026-01-18 11:21:48.55	332.57	13.03	-85.2	-88.6	3.1	7.63e-01	0	48	104	0	60	1048573
2026-01-18 11:21:49.55	332.63	12.94	-85.2	-88.6	3.5	7.63e-01	0	48	104	0	60	1048575
2026-01-18 11:21:50.56	332.68	12.84	-84.7	-88.6	3.4	7.63e-01	0	47	104	0	60	1048574
2026-01-18 11:21:51.57	332.74	12.75	-85.2	-88.6	3.0	7.63e-01	0	47	104	0	60	1048575
2026-01-18 11:21:52.58	332.79	12.66	-85.2	-88.6	2.8	7.64e-01	0	48	104	0	60	1048575
2026-01-18 11:21:53.59	332.85	12.56	-85.2	-88.6	3.3	7.62e-01	0	48	104	0	60	1048572
2026-01-18 11:21:54.60	332.90	12.47	-84.7	-88.6	2.9	7.62e-01	0	47	104	0	60	1048575
2026-01-18 11:21:55.61	332.95	12.38	-85.2	-88.6	3.0	7.63e-01	0	48	104	0	60	1048569
2026-01-18 11:21:56.61	333.01	12.28	-85.2	-88.6	3.2	7.63e-01	0	47	104	0	60	1048575
2026-01-18 11:21:57.62	333.06	12.19	-85.2	-88.6	3.0	7.63e-01	0	48	104	0	60	1048573
2026-01-18 11:21:58.61	333.11	12.10	-85.2	-88.6	2.8	7.63e-01	0	48	104	0	60	1048573
2026-01-18 11:21:59.62	333.16	12.01	-84.7	-88.6	2.8	7.64e-01	0	48	104	0	60	1048570
2026-01-18 11:22:00.63	333.21	11.92	-84.7	-88.6	3.3	7.64e-01	0	48	104	0	60	1048572
2026-01-18 11:22:01.64	333.27	11.83	-85.2	-88.6	3.0	7.64e-01	0	47	104	0	60	1048570
2026-01-18 11:22:02.64	333.32	11.74	-85.2	-88.6	2.9	7.64e-01	0	48	104	0	60	1048571
2026-01-18 11:22:03.65	333.37	11.65	-84.7	-88.6	3.3	7.63e-01	0	48	104	0	60	1048573
2026-01-18 11:22:04.65	333.42	11.56	-84.7	-88.6	3.5	7.64e-01	0	48	104	0	60	1048573
2026-01-18 11:22:05.66	333.47	11.47	-85.2	-88.6	3.0	7.63e-01	0	48	104	0	60	1048573
2026-01-18 11:22:06.67	333.52	11.38	-85.2	-88.6	3.1	7.63e-01	0	48	104	0	60	1048574
2026-01-18 11:22:07.68	333.57	11.29	-85.2	-88.6	3.1	7.64e-01	0	47	104	0	60	1048575
2026-01-18 11:22:08.68	333.62	11.20	-85.2	-88.6	3.7	7.65e-01	0	48	104	0	60	1048575
2026-01-18 11:22:09.69	333.67	11.11	-84.7	-88.6	3.6	7.64e-01	0	48	104	0	60	1048575
2026-01-18 11:22:10.70	333.72	11.03	-85.2	-88.6	3.4	7.65e-01	0	48	104	0	60	1048572
2026-01-18 11:22:11.71	333.76	10.94	-85.2	-88.6	3.1	7.62e-01	0	48	104	0	60	1048573
2026-01-18 11:22:12.71	333.81	10.85	-85.2	-88.6	3.1	7.63e-01	0	48	104	0	60	1048575
2026-01-18 11:22:13.72	333.86	10.76	-84.7	-88.6	2.7	7.61e-01	0	48	104	0	60	1048573
2026-01-18 11:22:14.72	333.91	10.68	-84.7	-88.6	3.2	7.63e-01	0	48	104	0	60	1048570
2026-01-18 11:22:15.73	333.96	10.59	-85.2	-88.6	3.0	7.63e-01	0	48	104	0	60	1048574
2026-01-18 11:22:16.74	334.00	10.50	-85.2	-88.6	3.2	7.63e-01	0	47	104	0	60	1048574
2026-01-18 11:22:17.75	334.05	10.42	-85.2	-88.6	3.5	7.63e-01	0	48	104	0	60	1048570
2026-01-18 11:22:18.76	334.10	10.33	-84.7	-88.6	3.1	7.63e-01	0	47	104	0	60	1048571
2026-01-18 11:22:19.76	334.14	10.25	-85.2	-88.6	3.0	7.64e-01	0	47	104	0	60	1048574
2026-01-18 11:22:20.77	334.19	10.16	-84.7	-88.6	2.9	7.65e-01	0	47	104	0	60	1048574
2026-01-18 11:22:21.78	334.24	10.08	-85.2	-88.6	2.8	7.64e-01	0	47	104	0	60	1048573
2026-01-18 11:22:22.79	334.28	9.99	-85.2	-88.6	3.5	7.62e-01	0	47	104	0	60	1048574
2026-01-18 11:22:23.80	334.33	9.91	-84.7	-88.6	2.8	7.64e-01	0	47	104	0	60	1048571
2026-01-18 11:22:24.81	334.37	9.82	-85.2	-88.6	3.4	7.63e-01	0	47	104	0	60	1048573
2026-01-18 11:22:25.82	334.42	9.74	-84.7	-88.6	2.7	7.64e-01	0	47	104	0	60	1048573
2026-01-18 11:22:26.83	334.47	9.66	-85.2	-88.6	3.2	7.63e-01	0	47	104	0	60	1048573
2026-01-18 11:22:27.83	334.51	9.57	-85.2	-88.6	3.6	7.64e-01	0	47	104	0	60	1048575
2026-01-18 11:22:28.84	334.55	9.49	-85.2	-88.6	3.3	7.63e-01	0	47	104	0	60	1048569
2026-01-18 11:22:29.84	334.60	9.41	-85.2	-88.6	3.4	7.63e-01	0	48	104	0	60	1048569
2026-01-18 11:22:30.84	334.64	9.33	-85.2	-88.6	3.0	7.63e-01	0	47	104	0	60	1048575
2026-01-18 11:22:31.85	334.69	9.24	-85.2	-88.6	3.2	7.63e-01	0	47	104	0	60	1048575
2026-01-18 11:22:32.86	334.73	9.16	-85.2	-88.6	3.4	7.64e-01	0	47	104	0	60	1048569
2026-01-18 11:22:33.86	334.77	9.08	-85.2	-88.6	3.0	7.64e-01	0	47	104	0	60	1048574
2026-01-18 11:22:34.87	334.82	9.00	-85.2	-88.6	3.7	7.62e-01	0	48	104	0	60	1048575
2026-01-18 11:22:35.88	334.86	8.92	-85.2	-88.6	3.6	7.63e-01	0	48	104	0	60	1048575
2026-01-18 11:22:36.88	334.90	8.84	-85.2	-88.6	3.2	7.64e-01	0	47	104	0	60	1048574
2026-01-18 11:22:37.89	334.94	8.76	-85.2	-88.6	3.2	7.64e-01	0	47	104	0	60	1048573
2026-01-18 11:22:38.90	334.99	8.68	-82.8	-88.6	3.5	7.63e-01	0	47	104	0	60	1048574
2026-01-18 11:22:39.91	335.03	8.60	-85.2	-88.6	3.0	7.64e-01	0	47	104	0	60	1048569
2026-01-18 11:22:40.92	335.07	8.52	-84.7	-88.6	3.2	7.64e-01	0	47	104	0	60	1048575
2026-01-18 11:22:41.92	335.11	8.44	-85.2	-88.6	3.7	7.63e-01	0	48	104	0	60	1048575
2026-01-18 11:22:42.93	335.15	8.36	-85.2	-88.6	3.1	7.64e-01	0	48	104	0	60	1048574
2026-01-18 11:22:43.94	335.20	8.28	-85.2	-88.6	2.9	7.63e-01	0	47	104	0	60	1048574
2026-01-18 11:22:44.94	335.24	8.20	-85.2	-88.6	3.3	7.63e-01	0	47	104	0	60	1048573
2026-01-18 11:22:45.95	335.28	8.12	-85.2	-88.6	3.5	7.64e-01	0	47	104	0	60	1048571
2026-01-18 11:22:46.96	335.32	8.04	-85.2	-88.6	3.0	7.64e-01	0	47	104	0	60	1048573
2026-01-18 11:22:47.97	335.36	7.97	-85.2	-88.6	3.2	7.62e-01	0	47	104	0	60	1048575
2026-01-18 11:22:48.97	335.40	7.89	-85.2	-88.6	3.8	7.63e-01	0	47	104	0	60	1048573
2026-01-18 11:22:49.98	335.44	7.81	-85.2	-88.6	3.6	7.63e-01	0	47	104	0	60	1048571
2026-01-18 11:22:50.99	335.48	7.73	-84.7	-88.6	3.0	7.63e-01	0	47	104	0	60	1048573
2026-01-18 11:22:52.00	335.52	7.65	-84.7	-88.6	3.0	7.62e-01	0	47	104	0	60	1048573
2026-01-18 11:22:53.00	335.56	7.58	-85.2	-88.6	3.1	7.63e-01	0	47	104	0	60	1048575
2026-01-18 11:22:54.01	335.60	7.50	-85.2	-88.6	2.8	7.63e-01	0	47	104	0	60	1048569
2026-01-18 11:22:55.02	335.64	7.42	-85.2	-88.6	3.7	7.63e-01	0	47	104	0	60	1048573
2026-01-18 11:22:56.03	335.68	7.35	-85.2	-88.6	3.3	7.64e-01	0	47	104	0	60	1048575
2026-01-18 11:22:57.04	335.72	7.27	-84.7	-88.6	3.1	7.63e-01	0	47	104	0	60	1048574
2026-01-18 11:22:58.04	335.75	7.20	-84.7	-88.6	3.3	7.64e-01	0	47	104	0	60	1048574
2026-01-18 11:22:59.05	335.79	7.12	-85.2	-88.6	3.5	7.62e-01	0	47	104	0	60	1048571
2026-01-18 11:23:00.06	335.83	7.04	-85.2	-88.6	3.5	7.63e-01	0	47	104	0	60	1048575
2026-01-18 11:23:01.07	335.87	6.97	-85.2	-88.6	3.0	7.63e-01	0	47	104	0	60	1048570
2026-01-18 11:23:02.06	335.91	6.90	-85.2	-88.6	3.6	7.63e-01	0	47	104	0	60	1048573
2026-01-18 11:23:03.07	335.95	6.82	-84.7	-88.6	3.0	7.64e-01	0	48	104	0	60	1048574
2026-01-18 11:23:04.07	335.98	6.75	-85.2	-88.6	3.0	7.63e-01	0	47	104	0	60	1048574
2026-01-18 11:23:05.08	336.02	6.67	-85.2	-88.6	2.9	7.63e-01	0	47	104	0	60	1048575
2026-01-18 11:23:06.08	336.06	6.60	-85.2	-88.6	3.5	7.64e-01	0	47	104	0	60	1048575
2026-01-18 11:23:07.09	336.10	6.52	-85.2	-88.6	3.0	7.63e-01	0	47	104	0	60	1048575
2026-01-18 11:23:08.10	336.13	6.45	-85.2	-88.6	3.2	7.64e-01	0	48	104	0	60	1048573
2026-01-18 11:23:09.10	336.17	6.38	-84.3	-88.6	3.1	7.62e-01	0	47	104	0	60	1048572
2026-01-18 11:23:10.11	336.21	6.30	-85.2	-88.6	3.1	7.64e-01	0	47	104	0	60	1048575
2026-01-18 11:23:11.12	336.24	6.23	-85.2	-88.6	3.0	7.64e-01	0	47	104	0	60	1048574
2026-01-18 11:23:12.12	336.28	6.16	-84.7	-88.6	3.2	7.63e-01	0	47	104	0	60	1048575
2026-01-18 11:23:13.13	336.31	6.08	-85.2	-88.6	3.0	7.63e-01	0	47	104	0	60	1048573
2026-01-18 11:23:14.13	336.35	6.01	-85.2	-88.6	3.0	7.64e-01	0	47	104	0	60	1048570
2026-01-18 11:23:15.14	336.39	5.94	-84.7	-88.6	3.0	7.64e-01	0	47	104	0	60	1048573
2026-01-18 11:23:16.15	336.42	5.87	-84.7	-88.6	3.5	7.64e-01	0	47	104	0	60	1048574
2026-01-18 11:23:17.16	336.46	5.79	-85.2	-88.6	2.7	7.63e-01	0	47	104	0	60	1048575
2026-01-18 11:23:18.16	336.49	5.72	-85.2	-88.6	3.0	7.64e-01	0	47	104	0	60	1048575
2026-01-18 11:23:19.16	336.53	5.65	-84.3	-88.6	3.1	7.64e-01	0	47	104	0	60	1048575
2026-01-18 11:23:20.17	336.56	5.58	-84.7	-88.6	2.8	7.61e-01	0	47	104	0	60	1048570
2026-01-18 11:23:21.18	336.60	5.51	-85.2	-88.6	3.6	7.56e-01	0	47	104	0	60	1048574
2026-01-18 11:23:22.18	336.63	5.44	-85.2	-88.6	2.8	7.65e-01	0	47	104	0	60	1048575
2026-01-18 11:23:23.18	336.67	5.37	-85.2	-88.6	3.1	7.63e-01	0	47	104	0	60	1048575
2026-01-18 11:23:24.19	336.70	5.30	-85.2	-88.6	3.5	7.62e-01	0	47	104	0	60	1048575
2026-01-18 11:23:25.19	336.74	5.23	-84.3	-88.6	3.6	7.63e-01	0	47	104	0	60	1048574
2026-01-18 11:23:26.20	336.77	5.16	-85.2	-88.6	3.2	7.64e-01	0	47	104	0	60	1048570
2026-01-18 11:23:27.20	336.80	5.09	-85.2	-88.6	3.0	7.63e-01	0	47	104	0	60	1048575
2026-01-18 11:23:28.21	336.84	5.02	-84.7	-88.6	2.8	7.65e-01	0	47	104	0	60	1048575
2026-01-18 11:23:29.21	336.87	4.95	-84.7	-88.6	3.6	7.62e-01	0	47	104	0	60	1048573
2026-01-18 11:23:30.22	336.91	4.88	-84.7	-88.6	3.5	7.63e-01	0	47	104	0	60	1048573
2026-01-18 11:23:31.23	336.94	4.81	-84.7	-88.6	3.4	7.64e-01	0	47	104	0	60	1048574
2026-01-18 11:23:32.23	336.97	4.74	-85.2	-88.6	2.9	7.63e-01	0	47	104	0	60	1048572
2026-01-18 11:23:33.24	337.01	4.67	-85.2	-88.6	3.0	7.61e-01	0	47	104	0	60	1048573
2026-01-18 11:23:34.24	337.04	4.60	-85.2	-88.6	2.8	7.64e-01	0	47	104	0	60	1048575
2026-01-18 11:23:35.25	337.07	4.53	-84.7	-88.6	3.0	7.63e-01	0	48	104	0	60	1048575
2026-01-18 11:23:36.25	337.11	4.46	-85.2	-88.6	3.4	7.64e-01	0	47	104	0	60	1048575
2026-01-18 11:23:37.26	337.14	4.40	-85.2	-88.6	3.3	7.64e-01	0	47	104	0	60	1048574
2026-01-18 11:23:38.26	337.17	4.33	-85.2	-88.6	3.6	7.64e-01	0	47	104	0	60	1048572
2026-01-18 11:23:39.27	337.20	4.26	-84.3	-88.6	3.4	7.64e-01	0	47	104	0	60	1048575
2026-01-18 11:23:40.28	337.24	4.19	-85.2	-88.6	3.0	7.63e-01	0	48	104	0	60	1048570
2026-01-18 11:23:41.29	337.27	4.12	-85.2	-88.6	3.5	7.64e-01	0	48	104	0	60	1048573
2026-01-18 11:23:42.29	337.30	4.06	-85.2	-88.6	3.2	7.63e-01	0	47	104	0	60	1048575
2026-01-18 11:23:43.30	337.33	3.99	-85.2	-88.6	3.0	7.64e-01	0	47	104	0	60	1048569
2026-01-18 11:23:44.30	337.36	3.92	-84.7	-88.6	3.4	7.63e-01	0	47	104	0	60	1048569
2026-01-18 11:23:45.31	337.40	3.85	-84.7	-88.6	3.0	7.65e-01	0	47	104	0	60	1048573
2026-01-18 11:23:46.32	337.43	3.79	-84.7	-88.6	3.2	7.63e-01	0	47	104	0	60	1048575
2026-01-18 11:23:47.33	337.46	3.72	-85.2	-88.6	3.5	7.62e-01	0	48	104	0	60	1048575
2026-01-18 11:23:48.33	337.49	3.65	-84.7	-88.6	3.1	7.62e-01	0	48	104	0	60	1048573
2026-01-18 11:23:49.34	337.52	3.59	-83.9	-88.6	3.0	7.64e-01	0	48	104	0	60	1048575
2026-01-18 11:23:50.35	337.55	3.52	-85.2	-88.6	2.9	7.64e-01	0	48	104	0	60	1048575
2026-01-18 11:23:51.36	337.58	3.45	-85.2	-88.6	3.4	7.64e-01	0	47	104	0	60	1048575
2026-01-18 11:23:52.37	337.61	3.39	-85.2	-88.6	3.1	7.65e-01	0	47	104	0	60	1048574
2026-01-18 11:23:53.37	337.65	3.32	-85.2	-88.6	3.1	7.63e-01	0	48	104	0	60	1048575
2026-01-18 11:23:54.38	337.68	3.26	-84.7	-88.6	3.2	7.64e-01	0	48	104	0	60	1048568
2026-01-18 11:23:55.38	337.71	3.19	-85.2	-88.6	3.1	7.63e-01	0	47	104	0	60	1048572
2026-01-18 11:23:56.38	337.74	3.13	-85.2	-88.6	3.0	7.64e-01	0	48	104	0	60	1048569
2026-01-18 11:23:57.39	337.77	3.06	-85.2	-88.6	2.9	7.63e-01	0	48	104	0	60	1048575
2026-01-18 11:23:58.40	337.80	3.00	-84.7	-88.6	2.7	7.64e-01	0	47	104	0	60	1048574
2026-01-18 11:23:59.40	337.83	2.93	-85.2	-88.6	3.4	7.64e-01	0	48	104	0	60	1048574
2026-01-18 11:24:00.41	337.86	2.87	-85.2	-88.6	3.0	7.64e-01	0	47	104	0	60	1048574
2026-01-18 11:24:01.42	337.89	2.80	-85.2	-88.6	3.6	7.63e-01	0	47	104	0	60	1048575
2026-01-18 11:24:02.43	337.92	2.74	-85.2	-88.6	2.9	7.61e-01	0	47	104	0	60	1048575
2026-01-18 11:24:03.44	337.95	2.67	-85.2	-88.6	2.9	7.63e-01	0	47	104	0	60	1048575
2026-01-18 11:24:04.44	337.98	2.61	-85.2	-88.6	3.6	7.64e-01	0	47	104	0	60	1048561
2026-01-18 11:24:05.45	338.01	2.54	-85.2	-88.6	3.5	7.63e-01	0	47	104	0	60	1048575
2026-01-18 11:24:06.46	338.04	2.48	-85.2	-88.6	3.0	7.64e-01	0	47	104	0	60	1048574
2026-01-18 11:24:07.47	338.06	2.42	-85.2	-88.6	2.9	7.63e-01	0	47	104	0	60	1048575
2026-01-18 11:24:08.47	338.09	2.35	-84.7	-88.6	3.5	7.63e-01	0	47	104	0	60	1048575
2026-01-18 11:24:09.48	338.12	2.29	-85.2	-88.6	3.5	7.63e-01	0	47	104	0	60	1048568
2026-01-18 11:24:10.49	338.15	2.22	-85.2	-88.6	2.7	7.62e-01	0	47	104	0	60	1048570
2026-01-18 11:24:11.49	338.18	2.16	-85.2	-88.6	3.1	7.65e-01	0	47	104	0	60	1048574
2026-01-18 11:24:12.50	338.21	2.10	-85.2	-88.6	2.9	7.63e-01	0	47	104	0	60	1048574
2026-01-18 11:24:13.51	338.24	2.04	-85.2	-88.6	3.0	7.64e-01	0	47	104	0	60	1048573
2026-01-18 11:24:14.51	338.27	1.97	-85.2	-88.6	3.5	7.63e-01	0	47	104	0	60	1048574
2026-01-18 11:24:15.52	338.29	1.91	-85.2	-88.6	3.5	7.64e-01	0	47	104	0	60	1048573
2026-01-18 11:24:16.53	338.32	1.85	-85.2	-88.6	2.9	7.63e-01	0	47	104	0	60	1048571
2026-01-18 11:24:17.54	338.35	1.78	-85.2	-88.6	3.0	7.63e-01	0	47	104	0	60	1048575
2026-01-18 11:24:18.54	338.38	1.72	-85.2	-88.6	3.6	7.63e-01	0	47	104	0	60	1048575
2026-01-18 11:24:19.55	338.41	1.66	-85.2	-88.6	3.1	7.61e-01	0	47	104	0	60	1048571
2026-01-18 11:24:20.56	338.44	1.60	-85.2	-88.6	3.3	7.63e-01	0	47	104	0	60	1048571
2026-01-18 11:24:21.56	338.46	1.54	-85.2	-88.6	3.2	7.64e-01	0	47	104	0	60	1048575
2026-01-18 11:24:22.57	338.49	1.47	-85.2	-88.6	3.5	7.63e-01	0	47	104	0	60	1048573
2026-01-18 11:24:23.58	338.52	1.41	-85.2	-88.6	3.5	7.62e-01	0	47	104	0	60	1048572
2026-01-18 11:24:24.59	338.55	1.35	-85.2	-88.6	3.2	7.63e-01	0	47	104	0	60	1048575
2026-01-18 11:24:25.59	338.57	1.29	-85.2	-88.6	3.5	7.64e-01	0	47	104	0	60	1048575
2026-01-18 11:24:26.60	338.60	1.23	-85.2	-88.6	2.8	7.63e-01	0	47	104	0	60	1048565
2026-01-18 11:24:27.60	338.63	1.17	-84.7	-88.6	3.1	7.63e-01	0	47	104	0	60	1048572
2026-01-18 11:24:28.61	338.66	1.11	-85.2	-88.6	3.5	7.64e-01	0	48	104	0	60	1048573
2026-01-18 11:24:29.61	338.68	1.05	-85.2	-88.6	3.7	7.62e-01	0	47	104	0	60	1048574
2026-01-18 11:24:30.62	338.71	0.98	-85.2	-88.6	2.9	7.64e-01	0	47	104	0	60	1048573
2026-01-18 11:24:31.63	338.74	0.92	-84.7	-88.6	3.1	7.63e-01	0	47	104	0	60	1048574
2026-01-18 11:24:32.63	338.76	0.86	-85.2	-88.6	3.8	7.63e-01	0	47	104	0	60	1048568
2026-01-18 11:24:33.63	338.79	0.80	-85.2	-88.6	3.4	7.65e-01	0	47	104	0	60	1048573
2026-01-18 11:24:34.64	338.82	0.74	-85.2	-88.6	3.1	7.63e-01	0	47	104	0	60	1048575
2026-01-18 11:24:35.64	338.84	0.68	-85.2	-88.6	3.3	7.62e-01	0	47	104	0	60	1048575
2026-01-18 11:24:36.65	338.87	0.62	-85.2	-88.6	3.1	7.64e-01	0	47	104	0	60	1048572
2026-01-18 11:24:37.66	338.90	0.56	-85.2	-88.6	3.2	7.59e-01	0	47	104	0	60	1048575
2026-01-18 11:24:38.67	338.92	0.50	-85.2	-88.6	3.0	7.63e-01	0	47	104	0	60	1048574
2026-01-18 11:24:39.68	338.95	0.44	-85.2	-88.6	3.0	7.64e-01	0	47	104	0	60	1048574
2026-01-18 11:24:40.69	338.97	0.38	-85.2	-88.6	3.3	7.63e-01	0	47	104	0	60	1048570
2026-01-18 11:24:41.69	339.00	0.32	-84.7	-88.6	3.6	7.64e-01	0	47	104	0	60	1048571
2026-01-18 11:24:42.70	339.03	0.26	-85.2	-88.6	2.9	7.62e-01	0	47	104	0	60	1048575
2026-01-18 11:24:43.71	339.05	0.21	-85.2	-88.6	2.8	7.64e-01	0	47	104	0	60	1048570
2026-01-18 11:24:44.72	339.08	0.15	-85.2	-88.6	3.1	7.63e-01	0	47	104	0	60	1048575
2026-01-18 11:24:45.73	339.10	0.09	-84.7	-88.6	3.0	7.64e-01	0	47	104	0	60	1048574
2026-01-18 11:24:46.73	339.13	0.03	-84.7	-88.6	3.1	7.63e-01	0	47	104	0	60	1048574
2026-01-18 11:24:47.74	339.15	-0.03	-85.2	-88.6	3.2	7.63e-01	0	47	104	0	60	1048575
2026-01-18 11:24:48.75	339.18	-0.09	-85.2	-88.6	3.1	7.64e-01	0	47	104	0	60	1048573

#Closed at: 2026-01-18 11:24:49
#Recorded file [0 MB]: D:/Data/35015_260118_141540.dat