passes_logs/2026/01/05/R4.6S_Anadyr_2ch/R4.6S_Anadyr_2ch__20260105_161208_SUOMI_NPP_rec.log

#Pass ID: 20260105_161208_SUOMI NPP
#Satellite: SUOMI NPP
#Configuration: NPP
#almurnet v.1.7.20251203
#Start time: 2026-01-05 16:12:10

#Version: 2.2.20231116
#Station: R4.6S_Anadyr_2ch
#Location: 177.4865 lon 64.73178 lat
#TLE: 1 37849U 11061A   25350.92281687  .00000071  00000+0  54882-4 0  9996
#TLE: 2 37849  98.7777 288.2268 0002366 112.8570 247.2856 14.19515404732588

#Time	Az	El	Level	Level2	SNR	BER	BlckErr	Temp	State	Recorded	gain1	gain2
2026-01-05 16:12:10.20	24.74	0.12	-40.0	-41.4	6.4	3.02e+01	25	28	0	0	60	6124
2026-01-05 16:12:11.21	24.70	0.18	-51.1	-66.5	3.6	1.51e+00	0	29	104	0	60	103185
2026-01-05 16:12:12.22	24.67	0.24	-51.1	-66.5	3.6	1.51e+00	0	29	104	0	60	103081
2026-01-05 16:12:13.24	24.64	0.30	-51.2	-66.6	3.6	1.51e+00	0	29	104	0	60	103908
2026-01-05 16:12:14.25	24.60	0.36	-51.2	-66.5	3.6	1.51e+00	0	29	104	0	60	103074
2026-01-05 16:12:15.26	24.57	0.42	-51.2	-66.5	3.6	1.51e+00	0	30	104	0	60	103640
2026-01-05 16:12:16.27	24.54	0.48	-51.1	-66.5	3.6	1.51e+00	0	29	104	0	60	102987
2026-01-05 16:12:17.28	24.50	0.54	-51.1	-66.5	3.6	1.51e+00	0	29	104	0	60	102476
2026-01-05 16:12:18.29	24.47	0.59	-51.0	-66.3	3.6	1.51e+00	0	29	104	0	60	101016
2026-01-05 16:12:19.30	24.43	0.65	-50.9	-66.2	3.6	1.51e+00	0	29	104	0	60	99414
2026-01-05 16:12:20.31	24.40	0.71	-50.7	-66.1	3.6	1.51e+00	0	30	104	0	60	98122
2026-01-05 16:12:21.32	24.37	0.77	-50.6	-66.0	3.6	1.51e+00	0	30	104	0	60	96866
2026-01-05 16:12:22.33	24.33	0.83	-50.4	-65.7	3.6	1.51e+00	0	30	104	0	60	94439
2026-01-05 16:12:23.35	24.30	0.89	-50.1	-65.5	3.6	1.51e+00	0	30	104	0	60	91881
2026-01-05 16:12:24.36	24.26	0.95	-49.8	-65.1	3.6	1.51e+00	0	30	104	0	60	87727
2026-01-05 16:12:25.37	24.23	1.01	-49.8	-65.1	3.6	1.51e+00	0	30	104	0	60	87942
2026-01-05 16:12:26.38	24.19	1.07	-49.8	-65.1	3.6	1.51e+00	0	30	104	0	60	87657
2026-01-05 16:12:27.39	24.15	1.13	-49.8	-65.1	3.6	1.51e+00	0	30	104	0	60	87908
2026-01-05 16:12:28.40	24.12	1.19	-49.8	-65.1	3.6	1.51e+00	0	30	104	0	60	87993
2026-01-05 16:12:29.41	24.08	1.25	-49.8	-65.1	3.6	1.51e+00	0	30	104	0	60	87401
2026-01-05 16:12:30.42	24.05	1.32	-49.8	-65.0	3.6	1.51e+00	0	30	104	0	60	87066
2026-01-05 16:12:31.44	24.01	1.38	-49.8	-65.1	3.6	1.51e+00	0	30	104	0	60	87652
2026-01-05 16:12:32.45	23.97	1.44	-49.8	-65.1	3.6	1.51e+00	0	30	104	0	60	87521
2026-01-05 16:12:33.46	23.94	1.50	-49.8	-65.1	3.6	1.51e+00	0	30	104	0	60	87523
2026-01-05 16:12:34.47	23.90	1.56	-49.8	-65.1	3.6	1.51e+00	0	30	104	0	60	87647
2026-01-05 16:12:35.48	23.86	1.62	-49.8	-65.1	3.6	1.51e+00	0	30	104	0	60	88007
2026-01-05 16:12:36.49	23.83	1.68	-49.8	-65.1	3.6	1.51e+00	0	30	104	0	60	87918
2026-01-05 16:12:37.50	23.79	1.74	-49.8	-65.1	3.6	1.51e+00	0	30	104	0	60	87394
2026-01-05 16:12:38.51	23.75	1.80	-49.8	-65.0	3.6	1.51e+00	0	30	104	0	60	86229
2026-01-05 16:12:39.52	23.72	1.87	-49.8	-64.8	3.6	1.51e+00	0	30	104	0	60	84874
2026-01-05 16:12:40.53	23.68	1.93	-49.7	-64.8	3.6	1.51e+00	0	30	104	0	60	84501
2026-01-05 16:12:41.54	23.64	1.99	-49.8	-64.8	3.6	1.51e+00	0	30	104	0	60	85111
2026-01-05 16:12:42.56	23.60	2.05	-49.8	-64.8	3.6	1.51e+00	0	30	104	0	60	85163
2026-01-05 16:12:43.57	23.56	2.11	-49.8	-64.9	3.6	1.51e+00	0	30	104	0	60	86009
2026-01-05 16:12:44.58	23.53	2.18	-49.8	-65.1	3.6	1.51e+00	0	30	104	0	60	87711
2026-01-05 16:12:45.59	23.49	2.24	-49.8	-65.1	3.5	1.51e+00	0	30	104	0	60	87235
2026-01-05 16:12:46.60	23.45	2.30	-49.8	-65.1	3.5	1.51e+00	0	30	104	0	60	87654
2026-01-05 16:12:47.61	23.41	2.36	-49.8	-65.1	3.6	1.51e+00	0	30	104	0	60	87490
2026-01-05 16:12:48.62	23.37	2.43	-49.8	-65.1	3.6	1.51e+00	0	30	104	0	60	87213
2026-01-05 16:12:49.63	23.33	2.49	-49.8	-64.9	3.6	1.51e+00	0	30	104	0	60	85754
2026-01-05 16:12:50.64	23.29	2.55	-49.8	-64.9	3.6	1.51e+00	0	30	104	0	60	85919
2026-01-05 16:12:51.66	23.25	2.62	-49.7	-64.7	3.6	1.51e+00	0	30	104	0	60	83979
2026-01-05 16:12:52.67	23.21	2.68	-49.7	-64.6	3.6	1.51e+00	0	30	104	0	60	82519
2026-01-05 16:12:53.68	23.17	2.74	-49.7	-64.3	3.6	1.51e+00	0	30	104	0	60	80441
2026-01-05 16:12:54.69	23.13	2.81	-49.7	-64.0	3.6	1.51e+00	0	30	104	0	60	77199
2026-01-05 16:12:55.70	23.09	2.87	-49.7	-64.3	3.6	1.51e+00	0	30	104	0	60	79912
2026-01-05 16:12:56.71	23.05	2.93	-49.7	-64.6	3.6	1.51e+00	0	30	104	0	60	82784
2026-01-05 16:12:57.73	23.01	3.00	-49.8	-65.0	3.6	1.51e+00	0	30	104	0	60	86698
2026-01-05 16:12:58.74	22.97	3.06	-49.7	-64.8	3.6	1.51e+00	0	30	104	0	60	85098
2026-01-05 16:12:59.75	22.93	3.13	-49.7	-63.4	3.6	1.51e+00	0	30	104	0	60	72308
2026-01-05 16:13:00.76	22.89	3.19	-49.5	-60.5	4.3	1.47e+00	49	30	0	0	60	51358
2026-01-05 16:13:01.77	22.84	3.26	-49.3	-57.5	5.5	6.39e-01	0	30	102	1048576	60	36742
2026-01-05 16:13:02.78	22.80	3.32	-49.1	-56.3	6.7	2.19e-01	0	30	102	1048576	60	31842
2026-01-05 16:13:03.79	22.76	3.39	-48.9	-55.7	7.6	1.39e-01	76	30	102	1048576	60	29789
2026-01-05 16:13:04.80	22.72	3.45	-48.6	-54.5	9.1	3.48e-02	0	30	102	1048576	60	25866
2026-01-05 16:13:05.81	22.68	3.52	-48.6	-54.7	8.8	2.10e-02	92	30	102	1048576	60	26343
2026-01-05 16:13:06.82	22.63	3.58	-49.7	-64.5	3.6	2.94e-02	0	30	104	1048576	60	82075
2026-01-05 16:13:07.83	22.59	3.65	-49.8	-64.3	3.6	1.49e+00	0	30	104	1048576	60	79750
2026-01-05 16:13:08.84	22.55	3.71	-48.4	-54.3	8.3	1.48e+00	2	30	104	1048576	60	25179
2026-01-05 16:13:09.86	22.50	3.78	-46.9	-49.9	17.1	1.37e+00	0	30	0	1048576	60	15276
2026-01-05 16:13:10.87	22.46	3.84	-48.5	-54.5	3.5	0.00e+00	61	30	0	1048576	60	25994
2026-01-05 16:13:11.88	22.42	3.91	-46.9	-50.4	6.0	1.51e+00	0	30	104	1048576	60	16217
2026-01-05 16:13:12.89	22.37	3.97	-42.9	-44.3	19.7	0.00e+00	92	30	0	1048576	60	8034
2026-01-05 16:13:13.90	22.33	4.04	-43.0	-44.5	19.6	0.00e+00	0	30	0	1048576	60	8183
2026-01-05 16:13:14.91	22.29	4.11	-42.8	-44.2	19.9	0.00e+00	0	30	0	1048576	60	7906
2026-01-05 16:13:15.92	22.24	4.17	-42.5	-43.9	20.1	0.00e+00	0	30	0	1048576	60	7648
2026-01-05 16:13:16.93	22.20	4.24	-42.8	-44.3	19.8	0.00e+00	0	30	0	1048576	60	7975
2026-01-05 16:13:17.94	22.15	4.31	-43.0	-44.4	19.7	0.00e+00	58	30	0	1048576	60	8116
2026-01-05 16:13:18.95	22.11	4.37	-42.6	-44.0	20.0	0.00e+00	0	30	0	1048576	60	7722
2026-01-05 16:13:19.97	22.06	4.44	-43.3	-44.9	19.2	0.00e+00	92	30	0	1048576	60	8567
2026-01-05 16:13:20.98	22.01	4.51	-42.9	-44.4	19.7	0.00e+00	0	30	0	1048576	60	8112
2026-01-05 16:13:21.99	21.97	4.58	-42.8	-44.2	20.0	0.00e+00	0	30	0	1048576	60	7931
2026-01-05 16:13:23.00	21.92	4.64	-42.5	-43.9	20.1	0.00e+00	0	30	0	1048576	60	7631
2026-01-05 16:13:24.01	21.88	4.71	-42.7	-44.2	20.0	0.00e+00	0	30	0	1048576	60	7878
2026-01-05 16:13:25.02	21.83	4.78	-42.7	-44.1	20.0	0.00e+00	48	30	0	1048576	60	7819
2026-01-05 16:13:26.03	21.78	4.85	-42.7	-44.1	20.1	0.00e+00	0	30	0	1048576	60	7789
2026-01-05 16:13:27.04	21.74	4.91	-42.7	-44.1	20.0	0.00e+00	34	31	0	1048576	60	7833
2026-01-05 16:13:28.06	21.69	4.98	-42.6	-44.0	20.2	0.00e+00	0	30	0	1048576	60	7736
2026-01-05 16:13:29.06	21.64	5.05	-42.6	-44.0	20.2	0.00e+00	92	30	0	1048576	60	7708
2026-01-05 16:13:30.08	21.59	5.12	-42.7	-44.1	20.1	0.00e+00	0	30	0	1048576	60	7852
2026-01-05 16:13:31.09	21.54	5.19	-42.5	-43.9	20.2	0.00e+00	0	30	101	1048576	60	7625
2026-01-05 16:13:32.10	21.50	5.26	-42.6	-44.0	20.3	0.00e+00	21	30	101	1048576	60	7749
2026-01-05 16:13:33.11	21.45	5.33	-42.8	-44.2	19.9	0.00e+00	0	30	101	1048576	60	7909
2026-01-05 16:13:34.12	21.40	5.40	-42.7	-44.1	20.0	0.00e+00	92	30	101	1048576	60	7860
2026-01-05 16:13:35.13	21.35	5.46	-42.8	-44.3	19.9	0.00e+00	0	30	101	1048576	60	7960
2026-01-05 16:13:36.14	21.30	5.53	-42.8	-44.2	20.1	0.00e+00	69	30	101	1048576	60	7913
2026-01-05 16:13:37.15	21.25	5.60	-42.8	-44.2	20.1	0.00e+00	0	30	101	1048576	60	7883
2026-01-05 16:13:38.17	21.20	5.67	-42.6	-44.0	20.3	0.00e+00	0	30	101	1048576	60	7710
2026-01-05 16:13:39.17	21.15	5.74	-42.8	-44.2	20.0	0.00e+00	20	30	101	1048576	60	7953
2026-01-05 16:13:40.19	21.10	5.81	-42.8	-44.2	20.1	0.00e+00	0	30	101	1048576	60	7891
2026-01-05 16:13:41.20	21.05	5.88	-42.8	-44.2	20.1	0.00e+00	19	31	101	1048576	60	7884
2026-01-05 16:13:42.21	21.00	5.96	-42.5	-43.9	20.4	0.00e+00	0	30	101	1048576	60	7610
2026-01-05 16:13:43.22	20.95	6.03	-42.7	-44.1	20.1	0.00e+00	92	30	101	1048576	60	7850
2026-01-05 16:13:44.23	20.90	6.10	-42.5	-43.8	20.4	0.00e+00	0	30	101	1048576	60	7547
2026-01-05 16:13:45.24	20.85	6.17	-42.6	-44.0	20.3	0.00e+00	0	30	101	1048576	60	7692
2026-01-05 16:13:46.25	20.79	6.24	-42.6	-44.0	20.4	0.00e+00	0	30	101	1048576	60	7703
2026-01-05 16:13:47.26	20.74	6.31	-42.6	-44.0	20.4	0.00e+00	0	30	101	1048576	60	7686
2026-01-05 16:13:48.27	20.69	6.38	-42.6	-44.0	20.3	0.00e+00	67	30	101	1048576	60	7720
2026-01-05 16:13:49.28	20.64	6.45	-42.3	-43.6	20.7	0.00e+00	0	31	101	1048576	60	7394
2026-01-05 16:13:50.29	20.58	6.52	-42.5	-43.9	20.4	0.00e+00	92	31	101	1048576	60	7600
2026-01-05 16:13:51.31	20.53	6.60	-42.5	-43.8	20.5	0.00e+00	0	30	101	1048576	60	7547
2026-01-05 16:13:52.32	20.48	6.67	-42.4	-43.7	20.7	0.00e+00	0	30	101	1048576	60	7439
2026-01-05 16:13:53.33	20.42	6.74	-42.5	-43.8	20.6	0.00e+00	0	30	101	1048576	60	7563
2026-01-05 16:13:54.34	20.37	6.81	-42.3	-43.5	20.8	0.00e+00	0	30	101	1048576	60	7329
2026-01-05 16:13:55.35	20.31	6.89	-42.2	-43.5	20.9	0.00e+00	0	30	101	1048576	60	7293
2026-01-05 16:13:56.36	20.26	6.96	-42.2	-43.5	20.8	0.00e+00	0	30	101	1048576	60	7316
2026-01-05 16:13:57.37	20.20	7.03	-42.3	-43.6	20.8	0.00e+00	80	31	101	1048576	60	7338
2026-01-05 16:13:58.38	20.15	7.11	-42.6	-43.9	20.5	0.00e+00	0	31	101	1048576	60	7676
2026-01-05 16:13:59.39	20.09	7.18	-42.5	-43.8	20.7	0.00e+00	0	31	101	1048576	60	7570
2026-01-05 16:14:00.40	20.04	7.25	-42.2	-43.5	20.8	0.00e+00	0	31	101	1048576	60	7293
2026-01-05 16:14:01.42	19.98	7.33	-42.3	-43.6	20.8	0.00e+00	0	31	101	1048576	60	7406
2026-01-05 16:14:02.43	19.92	7.40	-42.1	-43.4	20.8	0.00e+00	80	31	101	1048576	60	7182
2026-01-05 16:14:03.44	19.87	7.48	-42.2	-43.4	20.9	0.00e+00	0	31	101	1048576	60	7252
2026-01-05 16:14:04.45	19.81	7.55	-42.3	-43.5	20.9	0.00e+00	92	31	101	1048576	60	7335
2026-01-05 16:14:05.46	19.75	7.62	-42.1	-43.4	21.0	0.00e+00	0	31	101	1048576	60	7180
2026-01-05 16:14:06.47	19.69	7.70	-42.1	-43.3	21.1	0.00e+00	40	31	101	1048576	60	7169
2026-01-05 16:14:07.48	19.64	7.77	-42.0	-43.2	21.2	0.00e+00	0	31	101	1048576	60	7058
2026-01-05 16:14:08.49	19.58	7.85	-42.0	-43.2	21.1	0.00e+00	0	31	101	1048576	60	7075
2026-01-05 16:14:09.51	19.52	7.93	-41.9	-43.1	21.2	0.00e+00	0	31	101	1048576	60	6999
2026-01-05 16:14:10.52	19.46	8.00	-42.0	-43.2	21.3	0.00e+00	0	31	101	1048576	60	7029
2026-01-05 16:14:11.53	19.40	8.08	-42.0	-43.2	21.2	0.00e+00	92	31	101	1048576	60	7052
2026-01-05 16:14:12.54	19.34	8.15	-41.9	-43.0	21.4	0.00e+00	0	31	101	1048576	60	6925
2026-01-05 16:14:13.55	19.28	8.23	-41.9	-43.1	21.3	0.00e+00	55	31	101	1048576	60	6960
2026-01-05 16:14:14.56	19.22	8.30	-42.0	-43.2	21.2	0.00e+00	0	31	101	1048576	60	7062
2026-01-05 16:14:15.57	19.16	8.38	-41.8	-43.0	21.3	0.00e+00	0	31	101	1048576	60	6895
2026-01-05 16:14:16.58	19.10	8.46	-41.9	-43.1	21.3	0.00e+00	20	31	101	1048576	60	6928
2026-01-05 16:14:17.59	19.04	8.53	-42.2	-43.4	21.0	0.00e+00	0	31	101	1048576	60	7246
2026-01-05 16:14:18.61	18.97	8.61	-42.1	-43.3	21.0	0.00e+00	90	31	101	1048576	60	7139
2026-01-05 16:14:19.62	18.91	8.69	-42.3	-43.6	20.8	0.00e+00	0	31	101	1048576	60	7344
2026-01-05 16:14:20.63	18.85	8.77	-42.2	-43.5	21.0	0.00e+00	69	31	101	1048576	60	7267
2026-01-05 16:14:21.64	18.79	8.85	-42.7	-44.1	20.5	0.00e+00	0	31	101	1048576	60	7790
2026-01-05 16:14:22.65	18.72	8.92	-42.5	-43.8	20.8	0.00e+00	0	31	101	1048576	60	7513
2026-01-05 16:14:23.66	18.66	9.00	-42.5	-43.8	20.8	0.00e+00	0	31	101	1048576	60	7595
2026-01-05 16:14:24.67	18.60	9.08	-42.7	-44.0	20.6	0.00e+00	0	31	101	1048576	60	7712
2026-01-05 16:14:25.68	18.53	9.16	-42.5	-43.8	20.5	0.00e+00	14	31	101	1048576	60	7556
2026-01-05 16:14:26.69	18.47	9.24	-42.8	-44.1	20.6	0.00e+00	0	31	101	1048576	60	7829
2026-01-05 16:14:27.70	18.40	9.32	-42.5	-43.7	20.8	0.00e+00	91	31	101	1048576	60	7494
2026-01-05 16:14:28.71	18.34	9.39	-42.6	-43.9	20.8	0.00e+00	0	31	101	1048576	60	7637
2026-01-05 16:14:29.73	18.27	9.48	-42.2	-43.4	21.1	0.00e+00	0	31	101	1048576	60	7193
2026-01-05 16:14:30.74	18.20	9.55	-42.2	-43.5	20.8	0.00e+00	0	31	101	1048576	60	7261
2026-01-05 16:14:31.75	18.14	9.63	-42.1	-43.4	21.2	0.00e+00	0	31	101	1048576	60	7173
2026-01-05 16:14:32.76	18.07	9.71	-41.7	-42.8	21.7	0.00e+00	73	31	101	1048576	60	6741
2026-01-05 16:14:33.77	18.00	9.79	-41.6	-42.7	21.8	0.00e+00	0	31	101	1048576	60	6635
2026-01-05 16:14:34.78	17.94	9.88	-41.8	-43.0	21.5	0.00e+00	92	31	101	1048576	60	6870
2026-01-05 16:14:35.79	17.87	9.96	-41.6	-42.7	21.7	0.00e+00	0	31	101	1048576	60	6688
2026-01-05 16:14:36.81	17.80	10.04	-41.5	-42.6	21.8	0.00e+00	0	31	101	1048576	60	6595
2026-01-05 16:14:37.82	17.73	10.12	-41.7	-42.9	21.6	0.00e+00	0	31	101	1048576	60	6782
2026-01-05 16:14:38.83	17.66	10.20	-41.7	-42.8	21.6	0.00e+00	15	31	101	1048576	60	6735
2026-01-05 16:14:39.84	17.59	10.28	-41.5	-42.6	21.8	0.00e+00	47	31	101	1048576	60	6553
2026-01-05 16:14:40.85	17.52	10.36	-41.6	-42.7	21.8	0.00e+00	0	31	101	1048576	60	6645
2026-01-05 16:14:41.86	17.45	10.45	-41.6	-42.8	21.8	0.00e+00	89	31	101	1048576	60	6717
2026-01-05 16:14:42.87	17.38	10.53	-41.6	-42.7	21.8	0.00e+00	0	31	101	1048576	60	6654
2026-01-05 16:14:43.89	17.31	10.61	-41.4	-42.5	21.9	0.00e+00	0	31	101	1048576	60	6492
2026-01-05 16:14:44.90	17.24	10.69	-41.2	-42.3	22.0	0.00e+00	0	31	101	1048576	60	6378
2026-01-05 16:14:45.91	17.16	10.78	-41.1	-42.1	22.2	0.00e+00	0	31	101	1048576	60	6227
2026-01-05 16:14:46.92	17.09	10.86	-41.2	-42.3	22.1	0.00e+00	46	31	101	1048576	60	6339
2026-01-05 16:14:47.93	17.02	10.94	-41.3	-42.4	21.9	0.00e+00	0	31	101	1048576	60	6461
2026-01-05 16:14:48.94	16.94	11.03	-41.2	-42.2	22.2	0.00e+00	92	31	101	1048576	60	6302
2026-01-05 16:14:49.96	16.87	11.11	-41.2	-42.3	22.2	0.00e+00	20	31	101	1048576	60	6364
2026-01-05 16:14:50.97	16.80	11.20	-41.3	-42.3	22.1	0.00e+00	0	31	101	1048576	60	6389
2026-01-05 16:14:51.98	16.72	11.28	-41.2	-42.3	22.1	0.00e+00	0	31	101	1048576	60	6347
2026-01-05 16:14:52.99	16.65	11.36	-41.0	-42.1	22.3	0.00e+00	0	31	101	1048576	60	6197
2026-01-05 16:14:54.00	16.57	11.45	-41.2	-42.3	22.2	0.00e+00	22	31	101	1048576	60	6323
2026-01-05 16:14:55.01	16.49	11.53	-41.2	-42.3	22.2	0.00e+00	0	31	101	1048576	60	6343
2026-01-05 16:14:56.02	16.42	11.62	-41.5	-42.7	21.7	0.00e+00	92	31	101	1048576	60	6653
2026-01-05 16:14:57.04	16.34	11.71	-41.3	-42.4	22.1	0.00e+00	0	31	101	1048576	60	6422
2026-01-05 16:14:58.05	16.26	11.79	-41.2	-42.3	22.1	0.00e+00	88	31	101	1048576	60	6326
2026-01-05 16:14:59.06	16.18	11.88	-41.5	-42.6	21.9	0.00e+00	0	31	101	1048576	60	6583
2026-01-05 16:15:00.07	16.10	11.96	-41.5	-42.6	21.8	0.00e+00	0	31	101	1048576	60	6601
2026-01-05 16:15:01.08	16.02	12.05	-41.4	-42.5	21.9	0.00e+00	0	31	101	1048576	60	6507
2026-01-05 16:15:02.09	15.95	12.14	-41.4	-42.5	22.0	0.00e+00	0	31	101	1048576	60	6515
2026-01-05 16:15:03.10	15.87	12.23	-41.5	-42.7	21.8	0.00e+00	92	31	101	1048576	60	6639
2026-01-05 16:15:04.12	15.78	12.31	-41.4	-42.5	22.1	0.00e+00	0	31	101	1048576	60	6486
2026-01-05 16:15:05.13	15.70	12.40	-41.3	-42.4	22.0	0.00e+00	91	31	101	1048576	60	6403
2026-01-05 16:15:06.14	15.62	12.49	-41.1	-42.2	22.2	0.00e+00	0	31	101	1048576	60	6298
2026-01-05 16:15:07.15	15.54	12.58	-41.1	-42.2	22.3	0.00e+00	0	31	101	1048576	60	6294
2026-01-05 16:15:08.16	15.46	12.67	-41.2	-42.3	22.3	0.00e+00	0	31	101	1048576	60	6331
2026-01-05 16:15:09.17	15.37	12.75	-41.0	-42.1	22.3	0.00e+00	0	31	101	1048576	60	6184
2026-01-05 16:15:10.18	15.29	12.84	-41.0	-42.0	22.5	0.00e+00	92	31	101	1048576	60	6146
2026-01-05 16:15:11.19	15.21	12.93	-41.0	-42.1	22.4	0.00e+00	0	31	101	1048576	60	6195
2026-01-05 16:15:12.20	15.12	13.02	-41.2	-42.3	22.3	0.00e+00	90	31	101	1048576	60	6334
2026-01-05 16:15:13.21	15.04	13.11	-41.1	-42.1	22.4	0.00e+00	0	31	101	1048576	60	6219
2026-01-05 16:15:14.23	14.95	13.20	-41.1	-42.2	22.4	0.00e+00	0	31	101	1048576	60	6258
2026-01-05 16:15:15.24	14.86	13.29	-41.0	-42.0	22.4	0.00e+00	0	31	101	1048576	60	6163
2026-01-05 16:15:16.25	14.78	13.38	-41.2	-42.3	22.3	0.00e+00	0	31	101	1048576	60	6321
2026-01-05 16:15:17.26	14.69	13.47	-41.1	-42.2	22.3	0.00e+00	89	31	101	1048576	60	6286
2026-01-05 16:15:18.27	14.60	13.56	-41.2	-42.3	22.1	0.00e+00	0	31	101	1048576	60	6375
2026-01-05 16:15:19.28	14.51	13.66	-41.3	-42.4	22.1	0.00e+00	92	31	101	1048576	60	6424
2026-01-05 16:15:20.29	14.42	13.75	-41.3	-42.4	22.1	0.00e+00	0	31	101	1048576	60	6420
2026-01-05 16:15:21.30	14.33	13.84	-41.3	-42.4	22.1	0.00e+00	0	31	101	1048576	60	6431
2026-01-05 16:15:22.31	14.24	13.93	-41.4	-42.5	22.0	0.00e+00	0	31	101	1048576	60	6485
2026-01-05 16:15:23.32	14.15	14.02	-41.4	-42.5	22.1	0.00e+00	0	31	101	1048576	60	6502
2026-01-05 16:15:24.34	14.06	14.12	-41.2	-42.3	22.2	0.00e+00	0	31	101	1048576	60	6384
2026-01-05 16:15:25.35	13.97	14.21	-41.1	-42.2	22.3	0.00e+00	0	31	101	1048576	60	6246
2026-01-05 16:15:26.36	13.87	14.30	-41.2	-42.3	22.2	0.00e+00	61	31	101	1048576	60	6369
2026-01-05 16:15:27.37	13.78	14.40	-41.2	-42.2	22.4	0.00e+00	0	31	101	1048576	60	6316
2026-01-05 16:15:28.38	13.69	14.49	-41.0	-42.0	22.5	0.00e+00	0	31	101	1048576	60	6150
2026-01-05 16:15:29.39	13.59	14.59	-41.2	-42.3	22.3	0.00e+00	0	31	101	1048576	60	6323
2026-01-05 16:15:30.41	13.50	14.68	-40.7	-41.7	22.8	0.00e+00	0	31	101	1048576	60	5951
2026-01-05 16:15:31.42	13.40	14.78	-40.9	-41.9	22.5	0.00e+00	20	31	101	1048576	60	6092
2026-01-05 16:15:32.43	13.30	14.87	-41.0	-42.0	22.5	0.00e+00	0	31	101	1048576	60	6160
2026-01-05 16:15:33.44	13.21	14.97	-40.5	-41.5	22.9	0.00e+00	92	31	101	1048576	60	5787
2026-01-05 16:15:34.45	13.11	15.06	-40.6	-41.6	22.8	0.00e+00	21	31	101	1048576	60	5877
2026-01-05 16:15:35.46	13.01	15.16	-40.6	-41.6	22.8	0.00e+00	45	31	101	1048576	60	5863
2026-01-05 16:15:36.47	12.91	15.25	-40.7	-41.7	22.7	0.00e+00	0	31	101	1048576	60	5959
2026-01-05 16:15:37.48	12.81	15.35	-40.5	-41.5	22.9	0.00e+00	0	31	101	1048576	60	5775
2026-01-05 16:15:38.49	12.71	15.45	-40.5	-41.5	23.0	0.00e+00	32	31	101	1048576	60	5773
2026-01-05 16:15:39.51	12.61	15.54	-40.7	-41.7	22.7	0.00e+00	0	31	101	1048576	60	5942
2026-01-05 16:15:40.52	12.51	15.64	-40.6	-41.6	22.8	0.00e+00	91	31	101	1048576	60	5885
2026-01-05 16:15:41.53	12.40	15.74	-40.8	-41.9	22.6	0.00e+00	0	31	101	1048576	60	6048
2026-01-05 16:15:42.54	12.30	15.84	-41.0	-42.0	22.5	0.00e+00	0	31	101	1048576	60	6169
2026-01-05 16:15:43.55	12.20	15.93	-41.0	-42.1	22.5	0.00e+00	0	31	101	1048576	60	6189
2026-01-05 16:15:44.56	12.09	16.03	-40.9	-41.9	22.6	0.00e+00	0	31	101	1048576	60	6077
2026-01-05 16:15:45.57	11.99	16.13	-40.6	-41.6	22.7	0.00e+00	23	31	101	1048576	60	5891
2026-01-05 16:15:46.58	11.88	16.23	-40.3	-41.3	23.1	0.00e+00	0	31	101	1048576	60	5636
2026-01-05 16:15:47.59	11.77	16.33	-41.0	-42.0	22.6	0.00e+00	61	31	101	1048576	60	6125
2026-01-05 16:15:48.60	11.67	16.43	-40.8	-41.8	22.7	0.00e+00	0	31	101	1048576	60	5998
2026-01-05 16:15:49.62	11.56	16.53	-41.2	-42.3	22.2	0.00e+00	69	31	101	1048576	60	6377
2026-01-05 16:15:50.63	11.45	16.63	-41.5	-42.6	22.0	0.00e+00	0	31	101	1048576	60	6612
2026-01-05 16:15:51.64	11.34	16.73	-41.0	-42.1	22.7	0.00e+00	0	31	101	1048576	60	6187
2026-01-05 16:15:52.65	11.23	16.83	-41.0	-42.1	22.4	0.00e+00	0	31	101	1048576	60	6181
2026-01-05 16:15:53.66	11.12	16.93	-41.0	-42.0	22.5	0.00e+00	0	31	101	1048576	60	6139
2026-01-05 16:15:54.67	11.01	17.03	-40.8	-41.8	22.6	0.00e+00	38	31	101	1048576	60	6030
2026-01-05 16:15:55.68	10.89	17.14	-41.1	-42.1	22.3	0.00e+00	0	31	101	1048576	60	6215
2026-01-05 16:15:56.69	10.78	17.24	-41.0	-42.1	22.5	0.00e+00	89	31	101	1048576	60	6197
2026-01-05 16:15:57.71	10.66	17.34	-40.9	-41.9	22.6	0.00e+00	0	31	101	1048576	60	6051
2026-01-05 16:15:58.72	10.55	17.44	-40.8	-41.8	22.7	0.00e+00	0	31	101	1048576	60	6002
2026-01-05 16:15:59.73	10.43	17.55	-40.7	-41.8	22.8	0.00e+00	0	31	101	1048576	60	5966
2026-01-05 16:16:00.74	10.32	17.65	-40.8	-41.8	22.7	0.00e+00	0	31	101	1048576	60	5979
2026-01-05 16:16:01.75	10.20	17.75	-40.7	-41.7	22.8	0.00e+00	90	31	101	1048576	60	5900
2026-01-05 16:16:02.76	10.08	17.86	-40.6	-41.5	23.0	0.00e+00	0	31	101	1048576	60	5813
2026-01-05 16:16:03.77	9.96	17.96	-40.7	-41.7	22.8	0.00e+00	91	31	101	1048576	60	5903
2026-01-05 16:16:04.78	9.84	18.07	-40.7	-41.6	22.8	0.00e+00	0	31	101	1048576	60	5892
2026-01-05 16:16:05.79	9.72	18.17	-40.9	-41.9	22.8	0.00e+00	0	31	101	1048576	60	6076
2026-01-05 16:16:06.81	9.60	18.28	-40.7	-41.7	22.8	0.00e+00	0	31	101	1048576	60	5922
2026-01-05 16:16:07.82	9.47	18.38	-40.7	-41.7	22.8	0.00e+00	0	31	101	1048576	60	5956
2026-01-05 16:16:08.83	9.35	18.49	-41.0	-42.0	22.5	0.00e+00	77	31	101	1048576	60	6160
2026-01-05 16:16:09.84	9.22	18.60	-40.9	-41.9	22.6	0.00e+00	0	31	101	1048576	60	6064
2026-01-05 16:16:10.85	9.10	18.70	-41.2	-42.3	22.3	0.00e+00	90	31	101	1048576	60	6326
2026-01-05 16:16:11.86	8.97	18.81	-41.3	-42.4	22.3	0.00e+00	0	31	101	1048576	60	6391
2026-01-05 16:16:12.87	8.85	18.92	-41.2	-42.2	22.4	0.00e+00	0	31	101	1048576	60	6297
2026-01-05 16:16:13.88	8.72	19.02	-40.7	-41.7	22.9	0.00e+00	0	31	101	1048576	60	5964
2026-01-05 16:16:14.89	8.59	19.13	-40.6	-41.6	22.9	0.00e+00	0	31	101	1048576	60	5860
2026-01-05 16:16:15.91	8.46	19.24	-40.6	-41.6	22.9	0.00e+00	48	31	101	1048576	60	5846
2026-01-05 16:16:16.92	8.33	19.35	-40.5	-41.5	23.0	0.00e+00	0	31	101	1048576	60	5765
2026-01-05 16:16:17.93	8.19	19.46	-40.5	-41.4	22.9	0.00e+00	77	31	101	1048576	60	5758
2026-01-05 16:16:18.94	8.06	19.57	-40.6	-41.6	22.8	0.00e+00	0	31	101	1048576	60	5890
2026-01-05 16:16:19.95	7.93	19.67	-40.5	-41.5	22.9	0.00e+00	0	31	101	1048576	60	5764
2026-01-05 16:16:20.96	7.79	19.78	-40.6	-41.6	22.9	0.00e+00	0	31	101	1048576	60	5847
2026-01-05 16:16:21.97	7.66	19.89	-40.8	-41.8	22.7	0.00e+00	0	31	101	1048576	60	5993
2026-01-05 16:16:22.98	7.52	20.00	-40.9	-42.0	22.6	0.00e+00	18	31	101	1048576	60	6107
2026-01-05 16:16:23.99	7.38	20.11	-41.0	-42.1	22.6	0.00e+00	0	31	101	1048576	60	6191
2026-01-05 16:16:25.01	7.24	20.23	-41.1	-42.2	22.5	0.00e+00	90	31	101	1048576	60	6249
2026-01-05 16:16:26.01	7.10	20.34	-41.2	-42.3	22.4	0.00e+00	0	31	101	1048576	60	6351
2026-01-05 16:16:27.02	6.96	20.45	-41.5	-42.6	22.2	0.00e+00	0	31	101	1048576	60	6564
2026-01-05 16:16:28.04	6.82	20.56	-41.4	-42.5	22.3	0.00e+00	0	31	101	1048576	60	6484
2026-01-05 16:16:29.05	6.67	20.67	-41.2	-42.3	22.3	0.00e+00	0	31	101	1048576	60	6322
2026-01-05 16:16:30.06	6.53	20.79	-41.1	-42.1	22.7	0.00e+00	23	31	101	1048576	60	6187
2026-01-05 16:16:31.07	6.39	20.90	-40.8	-41.8	22.8	0.00e+00	0	31	101	1048576	60	6003
2026-01-05 16:16:32.08	6.24	21.01	-40.5	-41.4	23.1	0.00e+00	92	31	101	1048576	60	5742
2026-01-05 16:16:33.09	6.09	21.12	-40.6	-41.6	23.0	0.00e+00	0	31	101	1048576	60	5834
2026-01-05 16:16:34.10	5.94	21.24	-40.6	-41.6	23.0	0.00e+00	11	31	101	1048576	60	5849
2026-01-05 16:16:35.12	5.79	21.35	-40.6	-41.6	23.0	0.00e+00	0	31	101	1048576	60	5851
2026-01-05 16:16:36.13	5.64	21.47	-40.7	-41.7	22.9	0.00e+00	0	31	101	1048576	60	5928
2026-01-05 16:16:37.14	5.49	21.58	-40.9	-41.9	22.8	0.00e+00	0	31	101	1048576	60	6072
2026-01-05 16:16:38.15	5.34	21.70	-41.0	-42.0	22.6	0.00e+00	0	31	101	1048576	60	6173
2026-01-05 16:16:39.16	5.18	21.81	-41.4	-42.6	22.2	0.00e+00	24	31	101	1048576	60	6561
2026-01-05 16:16:40.17	5.03	21.93	-41.5	-42.6	22.0	0.00e+00	0	31	101	1048576	60	6601
2026-01-05 16:16:41.18	4.87	22.04	-41.9	-43.1	21.8	0.00e+00	92	31	101	1048576	60	6937
2026-01-05 16:16:42.19	4.71	22.16	-42.0	-43.2	21.5	0.00e+00	0	31	101	1048576	60	7080
2026-01-05 16:16:43.20	4.55	22.27	-42.0	-43.2	21.2	0.00e+00	0	31	101	1048576	60	7023
2026-01-05 16:16:44.21	4.39	22.39	-41.8	-42.9	21.7	0.00e+00	0	31	101	1048576	60	6834
2026-01-05 16:16:45.22	4.23	22.51	-42.0	-43.2	22.1	0.00e+00	0	31	101	1048576	60	7047
2026-01-05 16:16:46.23	4.07	22.62	-41.6	-42.7	22.2	0.00e+00	92	31	101	1048576	60	6619
2026-01-05 16:16:47.25	3.90	22.74	-41.4	-42.5	22.1	0.00e+00	0	31	101	1048576	60	6535
2026-01-05 16:16:48.26	3.74	22.86	-41.5	-42.6	22.1	0.00e+00	91	31	101	1048576	60	6606
2026-01-05 16:16:49.27	3.57	22.98	-41.4	-42.5	22.3	0.00e+00	0	31	101	1048576	60	6511
2026-01-05 16:16:50.28	3.40	23.10	-41.7	-42.8	22.1	0.00e+00	0	31	101	1048576	60	6724
2026-01-05 16:16:51.29	3.23	23.22	-41.8	-43.0	21.9	0.00e+00	0	31	101	1048576	60	6849
2026-01-05 16:16:52.30	3.06	23.33	-41.8	-42.9	21.9	0.00e+00	0	31	101	1048576	60	6828
2026-01-05 16:16:53.32	2.89	23.45	-41.4	-42.4	22.3	0.00e+00	54	31	101	1048576	60	6447
2026-01-05 16:16:54.33	2.72	23.57	-41.6	-42.7	22.1	0.00e+00	0	31	101	1048576	60	6685
2026-01-05 16:16:55.34	2.54	23.69	-41.4	-42.4	22.3	0.00e+00	91	31	101	1048576	60	6459
2026-01-05 16:16:56.35	2.36	23.81	-41.3	-42.3	22.4	0.00e+00	0	31	101	1048576	60	6375
2026-01-05 16:16:57.36	2.19	23.93	-41.0	-42.1	22.6	0.00e+00	0	31	101	1048576	60	6180
2026-01-05 16:16:58.37	2.01	24.05	-40.8	-41.8	22.9	0.00e+00	0	31	101	1048576	60	5992
2026-01-05 16:16:59.38	1.83	24.17	-40.7	-41.6	22.9	0.00e+00	0	31	101	1048576	60	5888
2026-01-05 16:17:00.40	1.65	24.30	-40.9	-41.9	22.7	0.00e+00	65	31	101	1048576	60	6057
2026-01-05 16:17:01.41	1.46	24.42	-40.1	-41.0	23.3	0.00e+00	0	31	101	1048576	60	5443
2026-01-05 16:17:02.42	1.28	24.54	-40.6	-41.5	23.0	0.00e+00	92	31	101	1048576	58	6507
2026-01-05 16:17:03.43	1.09	24.66	-40.5	-41.5	23.0	0.00e+00	0	31	101	1048576	58	6509
2026-01-05 16:17:04.44	0.90	24.78	-40.5	-41.4	23.1	0.00e+00	0	31	101	1048576	58	6457
2026-01-05 16:17:05.45	0.72	24.90	-40.3	-41.3	23.2	0.00e+00	25	31	101	1048576	58	6352
2026-01-05 16:17:06.46	0.53	25.03	-40.3	-41.3	23.2	0.00e+00	0	31	101	1048576	58	6324
2026-01-05 16:17:07.47	0.33	25.15	-40.8	-41.9	22.7	0.00e+00	41	31	101	1048576	58	6771
2026-01-05 16:17:08.49	0.14	25.27	-40.7	-41.7	22.7	0.00e+00	0	31	101	1048576	58	6685
2026-01-05 16:17:09.50	359.94	25.40	-40.8	-41.8	22.5	0.00e+00	91	31	101	1048576	58	6734
2026-01-05 16:17:10.51	359.75	25.52	-41.3	-42.3	22.4	0.00e+00	0	31	101	1048576	60	6363
2026-01-05 16:17:11.52	359.55	25.64	-41.4	-42.5	22.2	0.00e+00	0	31	101	1048576	60	6498
2026-01-05 16:17:12.53	359.35	25.76	-41.9	-43.1	21.8	0.00e+00	0	31	101	1048576	60	6963
2026-01-05 16:17:13.54	359.15	25.89	-41.6	-42.7	22.0	0.00e+00	0	31	101	1048576	60	6676
2026-01-05 16:17:14.55	358.95	26.01	-41.7	-42.9	22.1	0.00e+00	38	31	101	1048576	60	6790
2026-01-05 16:17:15.56	358.74	26.14	-42.2	-43.4	21.6	0.00e+00	0	31	101	1048576	60	7204
2026-01-05 16:17:16.57	358.54	26.26	-42.5	-43.8	21.1	0.00e+00	79	31	101	1048576	60	7524
2026-01-05 16:17:17.59	358.33	26.39	-43.2	-44.6	20.4	0.00e+00	0	31	101	1048576	60	8292
2026-01-05 16:17:18.60	358.12	26.51	-42.7	-44.0	21.0	0.00e+00	54	31	101	1048576	60	7750
2026-01-05 16:17:19.61	357.91	26.63	-42.7	-44.0	21.0	0.00e+00	0	31	101	1048576	60	7689
2026-01-05 16:17:20.62	357.69	26.76	-42.5	-43.7	21.2	0.00e+00	0	31	101	1048576	60	7434
2026-01-05 16:17:21.63	357.48	26.88	-42.6	-43.8	21.3	0.00e+00	1	31	101	1048576	60	7553
2026-01-05 16:17:22.64	357.26	27.01	-42.2	-43.3	21.6	0.00e+00	0	31	101	1048576	60	7168
2026-01-05 16:17:23.65	357.05	27.13	-42.8	-44.1	21.0	0.00e+00	22	31	101	1048576	60	7781
2026-01-05 16:17:24.66	356.83	27.26	-43.3	-44.7	20.5	0.00e+00	0	31	101	1048576	60	8331
2026-01-05 16:17:25.67	356.60	27.38	-43.7	-45.2	19.9	0.00e+00	51	31	101	1048576	60	8839
2026-01-05 16:17:26.68	356.38	27.51	-44.1	-45.7	19.4	0.00e+00	0	31	101	1048576	60	9444
2026-01-05 16:17:27.69	356.16	27.64	-44.1	-45.7	19.5	0.00e+00	0	31	101	1048576	60	9373
2026-01-05 16:17:28.70	355.93	27.76	-44.0	-45.6	19.3	0.00e+00	17	31	101	1048576	60	9264
2026-01-05 16:17:29.72	355.70	27.89	-44.2	-45.9	19.3	0.00e+00	0	31	101	1048576	60	9567
2026-01-05 16:17:30.73	355.47	28.01	-43.4	-44.8	20.2	0.00e+00	91	31	101	1048576	60	8508
2026-01-05 16:17:31.74	355.24	28.14	-43.3	-44.7	20.4	0.00e+00	0	31	101	1048576	60	8366
2026-01-05 16:17:32.75	355.00	28.27	-43.0	-44.3	20.6	0.00e+00	39	31	101	1048576	60	8003
2026-01-05 16:17:33.76	354.77	28.39	-42.8	-44.1	21.1	0.00e+00	0	31	101	1048576	60	7792
2026-01-05 16:17:34.77	354.53	28.52	-42.7	-44.0	21.1	0.00e+00	0	31	101	1048576	60	7703
2026-01-05 16:17:35.79	354.29	28.64	-42.7	-44.0	21.3	0.00e+00	0	31	101	1048576	60	7726
2026-01-05 16:17:36.80	354.05	28.77	-42.8	-44.2	20.8	0.00e+00	0	31	101	1048576	60	7865
2026-01-05 16:17:37.81	353.80	28.90	-42.7	-44.0	20.9	0.00e+00	66	31	101	1048576	60	7740
2026-01-05 16:17:38.82	353.56	29.02	-42.6	-43.8	21.2	0.00e+00	0	31	101	1048576	60	7589
2026-01-05 16:17:39.83	353.31	29.15	-42.4	-43.6	21.6	0.00e+00	32	31	101	1048576	60	7344
2026-01-05 16:17:40.84	353.06	29.27	-42.2	-43.4	21.5	0.00e+00	0	31	101	1048576	60	7209
2026-01-05 16:17:41.85	352.81	29.40	-42.4	-43.6	21.3	0.00e+00	0	31	101	1048576	60	7415
2026-01-05 16:17:42.86	352.56	29.52	-41.7	-42.8	22.0	0.00e+00	0	31	101	1048576	60	6760
2026-01-05 16:17:43.88	352.30	29.65	-41.3	-42.4	22.3	0.00e+00	0	31	101	1048576	60	6397
2026-01-05 16:17:44.89	352.04	29.78	-41.5	-42.6	22.2	0.00e+00	24	31	101	1048576	60	6576
2026-01-05 16:17:45.90	351.78	29.90	-41.8	-42.9	22.0	0.00e+00	0	31	101	1048576	60	6806
2026-01-05 16:17:46.91	351.52	30.03	-42.3	-43.4	21.4	0.00e+00	66	31	101	1048576	60	7253
2026-01-05 16:17:47.92	351.26	30.15	-42.7	-44.0	20.9	0.00e+00	0	31	101	1048576	60	7715
2026-01-05 16:17:48.93	350.99	30.28	-43.7	-45.1	20.3	0.00e+00	0	31	101	1048576	60	8813
2026-01-05 16:17:49.94	350.72	30.40	-43.3	-44.7	20.3	0.00e+00	0	31	101	1048576	60	8418
2026-01-05 16:17:50.95	350.45	30.53	-43.1	-44.5	20.7	0.00e+00	0	31	101	1048576	60	8150
2026-01-05 16:17:51.96	350.18	30.65	-42.9	-44.1	20.8	0.00e+00	26	31	101	1048576	60	7858
2026-01-05 16:17:52.97	349.91	30.77	-42.5	-43.7	21.3	0.00e+00	0	31	101	1048576	60	7483
2026-01-05 16:17:53.98	349.63	30.90	-42.4	-43.6	21.3	0.00e+00	92	31	101	1048576	60	7404
2026-01-05 16:17:55.00	349.35	31.02	-42.2	-43.4	21.6	0.00e+00	0	31	101	1048576	60	7230
2026-01-05 16:17:56.01	349.07	31.15	-42.4	-43.6	21.2	0.00e+00	72	31	101	1048576	60	7410
2026-01-05 16:17:57.02	348.79	31.27	-42.8	-44.1	21.0	0.00e+00	0	31	101	1048576	60	7821
2026-01-05 16:17:58.03	348.50	31.39	-42.6	-43.9	21.1	0.00e+00	0	31	101	1048576	60	7617
2026-01-05 16:17:59.04	348.21	31.52	-42.5	-43.7	21.2	0.00e+00	27	31	101	1048576	60	7491
2026-01-05 16:18:00.05	347.93	31.64	-42.0	-43.2	21.8	0.00e+00	0	31	101	1048576	60	7019
2026-01-05 16:18:01.07	347.63	31.76	-41.8	-42.9	21.9	0.00e+00	24	31	101	1048576	60	6835
2026-01-05 16:18:02.08	347.34	31.88	-41.9	-43.0	21.9	0.00e+00	0	31	101	1048576	60	6887
2026-01-05 16:18:03.09	347.04	32.00	-42.0	-43.1	21.6	0.00e+00	3	31	101	1048576	60	6995
2026-01-05 16:18:04.10	346.74	32.13	-42.3	-43.5	21.4	0.00e+00	0	31	101	1048576	60	7306
2026-01-05 16:18:05.11	346.44	32.25	-42.7	-44.0	21.1	0.00e+00	0	31	101	1048576	60	7694
2026-01-05 16:18:06.12	346.14	32.37	-42.9	-44.3	20.9	0.00e+00	38	31	101	1048576	60	7961
2026-01-05 16:18:07.13	345.84	32.49	-43.2	-44.5	20.7	0.00e+00	0	31	101	1048576	60	8224
2026-01-05 16:18:08.14	345.53	32.60	-43.4	-44.7	20.2	0.00e+00	92	31	101	1048576	60	8416
2026-01-05 16:18:09.15	345.22	32.72	-43.4	-44.8	20.4	0.00e+00	0	31	101	1048576	60	8458
2026-01-05 16:18:10.16	344.91	32.84	-43.2	-44.5	20.6	0.00e+00	87	31	101	1048576	60	8179
2026-01-05 16:18:11.17	344.59	32.96	-42.8	-44.0	21.1	0.00e+00	0	31	101	1048576	60	7730
2026-01-05 16:18:12.19	344.27	33.08	-43.0	-44.3	20.9	0.00e+00	0	31	101	1048576	60	7978
2026-01-05 16:18:13.20	343.96	33.19	-43.3	-44.6	20.6	0.00e+00	25	31	101	1048576	60	8286
2026-01-05 16:18:14.21	343.63	33.31	-43.6	-45.0	20.3	0.00e+00	0	31	101	1048576	60	8653
2026-01-05 16:18:15.22	343.31	33.43	-44.0	-45.6	19.7	0.00e+00	25	31	101	1048576	60	9274
2026-01-05 16:18:16.23	342.99	33.54	-44.2	-45.8	19.3	0.00e+00	0	31	101	1048576	60	9494
2026-01-05 16:18:17.24	342.66	33.66	-44.8	-46.7	18.7	0.00e+00	92	31	101	1048576	60	10563
2026-01-05 16:18:18.25	342.33	33.77	-44.9	-46.8	18.9	0.00e+00	0	31	101	1048576	60	10616
2026-01-05 16:18:19.26	341.99	33.88	-44.6	-46.4	18.9	0.00e+00	0	31	101	1048576	60	10234
2026-01-05 16:18:20.27	341.66	33.99	-44.5	-46.3	19.2	0.00e+00	0	31	101	1048576	60	10071
2026-01-05 16:18:21.28	341.32	34.11	-44.6	-46.4	18.7	0.00e+00	0	31	101	1048576	60	10191
2026-01-05 16:18:22.30	340.98	34.22	-44.8	-46.7	18.8	0.00e+00	38	31	101	1048576	60	10494
2026-01-05 16:18:23.31	340.64	34.33	-45.1	-47.1	18.1	0.00e+00	0	31	101	1048576	60	11057
2026-01-05 16:18:24.32	340.29	34.44	-45.7	-48.0	17.3	0.00e+00	25	31	101	1048576	60	12196
2026-01-05 16:18:25.33	339.95	34.54	-46.2	-48.6	16.9	0.00e+00	0	31	101	1048576	60	13141
2026-01-05 16:18:26.34	339.60	34.65	-45.3	-47.2	18.2	0.00e+00	0	31	101	1048576	60	11192
2026-01-05 16:18:27.35	339.25	34.76	-44.2	-45.8	19.6	0.00e+00	0	31	101	1048576	60	9528
2026-01-05 16:18:28.36	338.89	34.86	-43.1	-44.5	20.7	0.00e+00	0	31	101	1048576	60	8141
2026-01-05 16:18:29.37	338.54	34.97	-42.1	-43.2	21.7	0.00e+00	30	31	101	1048576	60	7055
2026-01-05 16:18:30.38	338.18	35.07	-42.9	-44.2	20.9	0.00e+00	0	31	101	1048576	60	7863
2026-01-05 16:18:31.40	337.81	35.18	-43.6	-45.0	20.2	0.00e+00	92	32	101	1048576	60	8674
2026-01-05 16:18:32.41	337.45	35.28	-43.9	-45.4	19.7	0.00e+00	0	31	101	1048576	60	9064
2026-01-05 16:18:33.42	337.09	35.38	-44.2	-45.8	19.3	0.00e+00	41	32	101	1048576	60	9545
2026-01-05 16:18:34.43	336.72	35.48	-44.4	-46.1	18.7	0.00e+00	0	32	101	1048576	60	9802
2026-01-05 16:18:35.44	336.35	35.58	-44.5	-46.2	19.2	0.00e+00	0	31	101	1048576	60	9949
2026-01-05 16:18:36.45	335.98	35.68	-43.6	-45.1	20.0	0.00e+00	92	32	101	1048576	60	8791
2026-01-05 16:18:37.46	335.60	35.78	-43.3	-44.9	20.5	0.00e+00	0	32	101	1048576	60	8546
2026-01-05 16:18:38.47	335.23	35.87	-42.6	-44.0	21.0	0.00e+00	55	31	101	1048576	60	7720
2026-01-05 16:18:39.48	334.85	35.97	-42.6	-44.0	21.0	0.00e+00	0	32	101	1048576	60	7750
2026-01-05 16:18:40.50	334.46	36.06	-43.1	-44.6	20.7	0.00e+00	0	31	101	1048576	60	8259
2026-01-05 16:18:41.51	334.08	36.15	-43.2	-44.7	20.6	0.00e+00	0	32	101	1048576	60	8364
2026-01-05 16:18:42.52	333.70	36.24	-42.6	-43.9	21.3	0.00e+00	0	31	101	1048576	60	7643
2026-01-05 16:18:43.53	333.31	36.33	-42.5	-43.7	21.4	0.00e+00	28	31	101	1048576	60	7460
2026-01-05 16:18:44.54	332.92	36.42	-41.3	-42.4	22.4	0.00e+00	0	31	101	1048576	60	6430
2026-01-05 16:18:45.55	332.53	36.51	-40.9	-41.9	22.9	0.00e+00	92	31	101	1048576	60	6080
2026-01-05 16:18:46.56	332.13	36.59	-40.6	-41.6	22.8	0.00e+00	0	31	101	1048576	60	5862
2026-01-05 16:18:47.57	331.74	36.68	-41.0	-42.1	22.6	0.00e+00	0	31	101	1048576	60	6175
2026-01-05 16:18:48.58	331.34	36.76	-41.4	-42.5	22.3	0.00e+00	0	31	101	1048576	60	6480
2026-01-05 16:18:49.60	330.94	36.85	-41.7	-42.8	22.1	0.00e+00	0	31	101	1048576	60	6767
2026-01-05 16:18:50.61	330.53	36.93	-41.6	-42.7	22.3	0.00e+00	0	31	101	1048576	60	6622
2026-01-05 16:18:51.62	330.13	37.01	-41.0	-42.1	22.7	0.00e+00	0	32	101	1048576	60	6199
2026-01-05 16:18:52.63	329.72	37.08	-40.6	-41.6	23.0	0.00e+00	33	31	101	1048576	60	5891
2026-01-05 16:18:53.64	329.32	37.16	-40.8	-41.9	22.9	0.00e+00	0	31	101	1048576	60	6042
2026-01-05 16:18:54.65	328.91	37.23	-41.1	-42.1	22.4	0.00e+00	76	31	101	1048576	60	6239
2026-01-05 16:18:55.66	328.49	37.31	-40.6	-41.6	23.1	0.00e+00	0	31	101	1048576	60	5881
2026-01-05 16:18:56.67	328.08	37.38	-40.3	-41.3	23.4	0.00e+00	0	32	101	1048576	60	5634
2026-01-05 16:18:57.68	327.66	37.45	-39.8	-40.7	23.6	0.00e+00	24	32	101	1048576	58	5955
2026-01-05 16:18:58.69	327.25	37.52	-39.7	-40.7	23.7	0.00e+00	0	32	101	1048576	58	5920
2026-01-05 16:18:59.71	326.82	37.58	-39.9	-40.9	23.6	0.00e+00	53	31	101	1048576	58	6074
2026-01-05 16:19:00.72	326.40	37.65	-40.1	-41.0	23.3	0.00e+00	0	31	101	1048576	58	6170
2026-01-05 16:19:01.73	325.98	37.71	-39.7	-40.6	23.7	0.00e+00	69	31	101	1048576	58	5852
2026-01-05 16:19:02.74	325.56	37.78	-40.2	-41.1	23.2	0.00e+00	0	31	101	1048576	58	6231
2026-01-05 16:19:03.75	325.13	37.84	-41.2	-42.3	22.1	0.00e+00	0	31	101	1048576	58	7131
2026-01-05 16:19:04.76	324.71	37.89	-41.7	-42.9	21.9	0.00e+00	0	31	101	1048576	60	6824
2026-01-05 16:19:05.77	324.28	37.95	-42.1	-43.3	21.8	0.00e+00	0	31	101	1048576	60	7150
2026-01-05 16:19:06.79	323.84	38.01	-40.7	-41.7	23.0	0.00e+00	31	31	101	1048576	60	5964
2026-01-05 16:19:07.80	323.41	38.06	-39.4	-40.4	24.0	0.00e+00	0	31	101	1048576	58	5697
2026-01-05 16:19:08.81	322.98	38.11	-38.7	-39.5	24.6	0.00e+00	57	31	101	1048576	56	5825
2026-01-05 16:19:09.82	322.54	38.16	-38.3	-39.0	24.9	0.00e+00	0	31	101	1048576	56	5491
2026-01-05 16:19:10.83	322.11	38.21	-38.2	-38.9	24.9	0.00e+00	0	31	101	1048576	54	6099
2026-01-05 16:19:11.84	321.67	38.25	-39.0	-39.8	24.6	0.00e+00	0	31	101	1048576	54	6749
2026-01-05 16:19:12.85	321.23	38.30	-39.5	-40.4	24.0	0.00e+00	0	31	101	1048576	56	6393
2026-01-05 16:19:13.86	320.79	38.34	-39.4	-40.2	24.2	0.00e+00	25	31	101	1048576	56	6299
2026-01-05 16:19:14.87	320.35	38.38	-38.7	-39.5	24.6	0.00e+00	0	31	101	1048576	56	5820
2026-01-05 16:19:15.88	319.91	38.42	-38.9	-39.7	24.4	0.00e+00	92	31	101	1048576	56	5939
2026-01-05 16:19:16.90	319.46	38.46	-38.9	-39.7	24.4	0.00e+00	0	31	101	1048576	56	5932
2026-01-05 16:19:17.91	319.02	38.49	-39.2	-40.1	24.1	0.00e+00	0	31	101	1048576	56	6216
2026-01-05 16:19:18.92	318.58	38.53	-39.7	-40.6	23.8	0.00e+00	0	31	101	1048576	56	6548
2026-01-05 16:19:19.93	318.13	38.56	-40.1	-41.0	23.5	0.00e+00	0	31	101	1048576	58	6142
2026-01-05 16:19:20.94	317.68	38.58	-39.9	-40.8	23.7	0.00e+00	30	31	101	1048576	58	6023
2026-01-05 16:19:21.95	317.24	38.61	-39.8	-40.8	23.7	0.00e+00	0	31	101	1048576	58	5984
2026-01-05 16:19:22.96	316.79	38.64	-39.3	-40.2	24.0	0.00e+00	92	31	101	1048576	56	6261
2026-01-05 16:19:23.97	316.34	38.66	-38.9	-39.7	24.4	0.00e+00	0	31	101	1048576	56	5924
2026-01-05 16:19:24.98	315.89	38.68	-39.0	-39.8	24.2	0.00e+00	0	31	101	1048576	56	6016
2026-01-05 16:19:25.99	315.44	38.70	-39.3	-40.1	24.1	0.00e+00	0	31	101	1048576	56	6220
2026-01-05 16:19:27.01	314.99	38.72	-39.7	-40.5	23.9	0.00e+00	0	31	101	1048576	56	6537
2026-01-05 16:19:28.01	314.54	38.73	-39.9	-40.8	23.5	0.00e+00	28	31	101	1048576	56	6705
2026-01-05 16:19:29.02	314.09	38.75	-40.0	-40.9	23.6	0.00e+00	0	31	101	1048576	58	6074
2026-01-05 16:19:30.04	313.63	38.76	-39.8	-40.7	23.7	0.00e+00	34	32	101	1048576	58	5932
2026-01-05 16:19:31.05	313.18	38.77	-39.5	-40.4	24.0	0.00e+00	0	32	101	1048576	58	5737
2026-01-05 16:19:32.06	312.73	38.77	-39.2	-40.1	24.3	0.00e+00	92	31	101	1048576	58	5503
2026-01-05 16:19:33.07	312.28	38.78	-39.4	-40.2	24.2	0.00e+00	0	32	101	1048576	56	6302
2026-01-05 16:19:34.08	311.83	38.78	-40.0	-41.0	23.5	0.00e+00	0	32	101	1048576	56	6876
2026-01-05 16:19:35.09	311.37	38.78	-40.8	-41.9	22.7	0.00e+00	0	31	101	1048576	58	6775
2026-01-05 16:19:36.10	310.92	38.78	-41.4	-42.6	22.2	0.00e+00	0	31	101	1048576	60	6549
2026-01-05 16:19:37.11	310.47	38.78	-42.1	-43.3	21.6	0.00e+00	92	31	101	1048576	60	7158
2026-01-05 16:19:38.12	310.02	38.77	-42.3	-43.5	21.4	0.00e+00	0	31	101	1048576	60	7325
2026-01-05 16:19:39.14	309.56	38.76	-42.1	-43.3	21.6	0.00e+00	43	31	101	1048576	60	7117
2026-01-05 16:19:40.15	309.11	38.75	-42.1	-43.3	21.7	0.00e+00	0	32	101	1048576	60	7130
2026-01-05 16:19:41.16	308.66	38.74	-41.9	-43.1	22.0	0.00e+00	0	31	101	1048576	60	6934
2026-01-05 16:19:42.17	308.21	38.73	-41.2	-42.2	22.5	0.00e+00	31	32	101	1048576	60	6315
2026-01-05 16:19:43.18	307.76	38.71	-41.1	-42.1	22.6	0.00e+00	0	31	101	1048576	60	6197
2026-01-05 16:19:44.19	307.31	38.70	-41.2	-42.2	22.5	0.00e+00	28	31	101	1048576	60	6313
2026-01-05 16:19:45.21	306.85	38.68	-41.2	-42.2	22.3	0.00e+00	0	31	101	1048576	60	6312
2026-01-05 16:19:46.22	306.40	38.66	-41.7	-42.8	22.1	0.00e+00	71	31	101	1048576	60	6763
2026-01-05 16:19:47.23	305.96	38.63	-42.0	-43.1	21.8	0.00e+00	0	31	101	1048576	60	6996
2026-01-05 16:19:48.24	305.51	38.61	-41.6	-42.7	22.1	0.00e+00	0	31	101	1048576	60	6643
2026-01-05 16:19:49.25	305.06	38.58	-40.9	-41.9	22.8	0.00e+00	0	31	101	1048576	60	6094
2026-01-05 16:19:50.26	304.61	38.55	-41.6	-42.7	22.2	0.00e+00	0	31	101	1048576	60	6635
2026-01-05 16:19:51.27	304.17	38.52	-42.3	-43.5	21.5	0.00e+00	76	32	101	1048576	60	7310
2026-01-05 16:19:52.28	303.72	38.49	-43.3	-44.7	20.7	0.00e+00	0	31	101	1048576	60	8366
2026-01-05 16:19:53.30	303.28	38.45	-43.4	-44.8	20.3	0.00e+00	92	32	101	1048576	60	8464
2026-01-05 16:19:54.31	302.83	38.41	-43.5	-44.9	20.1	0.00e+00	0	32	101	1048576	60	8597
2026-01-05 16:19:55.32	302.39	38.37	-43.2	-44.6	20.4	0.00e+00	0	31	101	1048576	60	8237
2026-01-05 16:19:56.33	301.95	38.33	-43.8	-45.2	20.0	0.00e+00	0	32	101	1048576	60	8917
2026-01-05 16:19:57.34	301.51	38.29	-43.6	-45.0	20.2	0.00e+00	0	31	101	1048576	60	8697
2026-01-05 16:19:58.35	301.07	38.25	-44.3	-45.9	19.7	0.00e+00	88	31	101	1048576	60	9572
2026-01-05 16:19:59.36	300.64	38.20	-43.7	-45.2	19.8	0.00e+00	0	31	101	1048576	60	8824
2026-01-05 16:20:00.37	300.20	38.15	-43.7	-45.2	20.1	0.00e+00	92	32	101	1048576	60	8854
2026-01-05 16:20:01.38	299.77	38.10	-43.3	-44.7	20.4	0.00e+00	0	31	101	1048576	60	8385
2026-01-05 16:20:02.39	299.33	38.05	-43.4	-44.8	20.2	0.00e+00	0	31	101	1048576	60	8503
2026-01-05 16:20:03.41	298.90	37.99	-43.6	-45.0	20.3	0.00e+00	0	32	101	1048576	60	8693
2026-01-05 16:20:04.42	298.47	37.94	-43.5	-45.0	20.3	0.00e+00	0	32	101	1048576	60	8669
2026-01-05 16:20:05.43	298.04	37.88	-42.9	-44.2	20.7	0.00e+00	31	32	101	1048576	60	7908
2026-01-05 16:20:06.44	297.61	37.82	-43.6	-45.1	20.0	0.00e+00	0	32	101	1048576	60	8781
2026-01-05 16:20:07.45	297.18	37.76	-43.2	-44.5	20.7	0.00e+00	89	32	101	1048576	60	8191
2026-01-05 16:20:08.46	296.76	37.70	-43.8	-45.4	20.0	0.00e+00	0	31	101	1048576	60	9051
2026-01-05 16:20:09.47	296.34	37.64	-44.2	-45.9	19.2	0.00e+00	0	32	101	1048576	60	9585
2026-01-05 16:20:10.49	295.91	37.57	-45.2	-47.4	18.1	0.00e+00	0	32	101	1048576	60	11429
2026-01-05 16:20:11.50	295.49	37.50	-46.0	-48.5	17.6	0.00e+00	0	32	101	1048576	60	13033
2026-01-05 16:20:12.51	295.08	37.43	-45.3	-47.5	18.0	0.00e+00	0	32	101	1048576	60	11557
2026-01-05 16:20:13.52	294.66	37.36	-43.3	-44.8	20.4	0.00e+00	0	32	101	1048576	60	8469
2026-01-05 16:20:14.53	294.25	37.29	-42.8	-44.2	20.9	0.00e+00	80	32	101	1048576	60	7888
2026-01-05 16:20:15.54	293.84	37.22	-42.3	-43.6	21.6	0.00e+00	0	32	101	1048576	60	7377
2026-01-05 16:20:16.55	293.43	37.14	-41.8	-42.9	22.1	0.00e+00	71	32	101	1048576	60	6847
2026-01-05 16:20:17.56	293.02	37.07	-41.3	-42.4	22.4	0.00e+00	0	31	101	1048576	60	6424
2026-01-05 16:20:18.57	292.61	36.99	-41.5	-42.6	22.2	0.00e+00	0	32	101	1048576	60	6607
2026-01-05 16:20:19.59	292.20	36.91	-42.1	-43.3	21.6	0.00e+00	0	31	101	1048576	60	7129
2026-01-05 16:20:20.60	291.80	36.83	-42.3	-43.6	21.4	0.00e+00	0	31	101	1048576	60	7368
2026-01-05 16:20:21.61	291.40	36.74	-40.7	-41.7	23.1	0.00e+00	58	32	101	1048576	60	5910
2026-01-05 16:20:22.62	291.00	36.66	-39.5	-40.4	24.1	0.00e+00	0	32	101	1048576	58	5725
2026-01-05 16:20:23.63	290.61	36.58	-39.2	-40.0	24.3	0.00e+00	21	32	101	1048576	56	6160
2026-01-05 16:20:24.64	290.21	36.49	-39.4	-40.2	24.0	0.00e+00	0	32	101	1048576	56	6301
2026-01-05 16:20:25.65	289.82	36.40	-39.5	-40.3	24.2	0.00e+00	0	31	101	1048576	56	6373
2026-01-05 16:20:26.66	289.43	36.31	-39.3	-40.1	24.2	0.00e+00	0	31	101	1048576	56	6221
2026-01-05 16:20:27.67	289.04	36.22	-39.3	-40.1	24.1	0.00e+00	0	31	101	1048576	56	6224
2026-01-05 16:20:28.68	288.66	36.13	-40.1	-41.0	23.4	0.00e+00	92	31	101	1048576	56	6927
2026-01-05 16:20:29.70	288.27	36.04	-40.3	-41.3	23.3	0.00e+00	0	32	101	1048576	58	6376
2026-01-05 16:20:30.71	287.89	35.94	-40.7	-41.7	22.9	0.00e+00	81	32	101	1048576	58	6643
2026-01-05 16:20:31.72	287.51	35.85	-41.0	-42.1	22.7	0.00e+00	0	32	101	1048576	58	6948
2026-01-05 16:20:32.73	287.14	35.75	-41.2	-42.2	22.7	0.00e+00	0	31	101	1048576	60	6316
2026-01-05 16:20:33.74	286.76	35.65	-40.8	-41.8	22.9	0.00e+00	0	31	101	1048576	60	5993
2026-01-05 16:20:34.75	286.39	35.56	-40.4	-41.4	23.2	0.00e+00	0	31	101	1048576	60	5708
2026-01-05 16:20:35.76	286.02	35.46	-40.5	-41.5	23.0	0.00e+00	22	32	101	1048576	60	5768
2026-01-05 16:20:36.77	285.65	35.36	-41.4	-42.5	22.3	0.00e+00	0	32	101	1048576	60	6524
2026-01-05 16:20:37.78	285.29	35.25	-41.5	-42.7	22.2	0.00e+00	92	31	101	1048576	60	6626
2026-01-05 16:20:38.79	284.92	35.15	-41.5	-42.7	22.2	0.00e+00	0	32	101	1048576	60	6625
2026-01-05 16:20:39.81	284.56	35.05	-41.4	-42.6	22.1	0.00e+00	0	32	101	1048576	60	6553
2026-01-05 16:20:40.82	284.20	34.94	-41.7	-42.9	22.0	0.00e+00	0	32	101	1048576	60	6806
2026-01-05 16:20:41.83	283.84	34.84	-41.8	-42.9	22.2	0.00e+00	0	32	101	1048576	60	6794
2026-01-05 16:20:42.84	283.49	34.73	-41.0	-42.0	22.8	0.00e+00	89	31	101	1048576	60	6145
2026-01-05 16:20:43.85	283.14	34.62	-40.5	-41.4	23.0	0.00e+00	0	32	101	1048576	60	5737
2026-01-05 16:20:44.86	282.79	34.52	-40.5	-41.5	23.1	0.00e+00	82	32	101	1048576	60	5779
2026-01-05 16:20:45.87	282.44	34.41	-40.5	-41.5	22.7	0.00e+00	0	32	101	1048576	60	5810
2026-01-05 16:20:46.89	282.09	34.30	-40.3	-41.3	23.4	0.00e+00	0	32	101	1048576	60	5638
2026-01-05 16:20:47.90	281.75	34.19	-40.1	-41.0	23.4	0.00e+00	0	32	101	1048576	60	5470
2026-01-05 16:20:48.91	281.41	34.08	-40.6	-41.5	23.0	0.00e+00	0	32	101	1048576	58	6515
2026-01-05 16:20:49.92	281.08	33.96	-41.5	-42.6	22.2	0.00e+00	57	31	101	1048576	60	6567
2026-01-05 16:20:50.93	280.74	33.85	-41.5	-42.5	22.3	0.00e+00	0	32	101	1048576	60	6494
2026-01-05 16:20:51.94	280.41	33.74	-40.5	-41.4	23.2	0.00e+00	74	32	101	1048576	60	5715
2026-01-05 16:20:52.95	280.08	33.62	-39.9	-40.8	23.5	0.00e+00	0	32	101	1048576	58	5999
2026-01-05 16:20:53.97	279.75	33.51	-40.3	-41.2	23.4	0.00e+00	0	32	101	1048576	58	6260
2026-01-05 16:20:54.97	279.42	33.39	-40.8	-41.8	22.9	0.00e+00	0	32	101	1048576	58	6693
2026-01-05 16:20:55.99	279.10	33.28	-41.0	-42.0	22.7	0.00e+00	0	31	101	1048576	58	6917
2026-01-05 16:20:57.00	278.77	33.16	-41.6	-42.6	22.2	0.00e+00	16	32	101	1048576	60	6603
2026-01-05 16:20:58.01	278.46	33.04	-41.8	-42.9	22.1	0.00e+00	0	32	101	1048576	60	6804
2026-01-05 16:20:59.02	278.14	32.93	-41.8	-42.9	22.0	0.00e+00	92	32	101	1048576	60	6776
2026-01-05 16:21:00.03	277.83	32.81	-41.6	-42.6	22.2	0.00e+00	0	32	101	1048576	60	6611
2026-01-05 16:21:01.04	277.51	32.69	-41.0	-42.0	22.8	0.00e+00	0	32	101	1048576	60	6160
2026-01-05 16:21:02.05	277.20	32.57	-41.3	-42.3	22.5	0.00e+00	5	32	101	1048576	60	6345
2026-01-05 16:21:03.06	276.90	32.45	-41.6	-42.6	22.2	0.00e+00	0	31	101	1048576	60	6596
2026-01-05 16:21:04.07	276.59	32.33	-42.0	-43.2	21.6	0.00e+00	27	32	101	1048576	60	7033
2026-01-05 16:21:05.09	276.29	32.21	-42.6	-43.9	21.1	0.00e+00	0	32	101	1048576	60	7620
2026-01-05 16:21:06.10	275.98	32.09	-42.6	-43.9	21.3	0.00e+00	91	32	101	1048576	60	7603
2026-01-05 16:21:07.11	275.69	31.97	-42.2	-43.3	21.7	0.00e+00	0	32	101	1048576	60	7166
2026-01-05 16:21:08.12	275.39	31.84	-43.0	-44.3	20.8	0.00e+00	0	32	101	1048576	60	7983
2026-01-05 16:21:09.13	275.10	31.72	-44.0	-45.5	20.4	0.00e+00	0	32	101	1048576	60	9223
2026-01-05 16:21:10.14	274.80	31.60	-44.2	-45.8	19.4	0.00e+00	0	32	101	1048576	60	9477
2026-01-05 16:21:11.15	274.51	31.48	-44.1	-45.6	19.7	0.00e+00	9	32	101	1048576	60	9336
2026-01-05 16:21:12.16	274.23	31.35	-43.5	-44.9	20.2	0.00e+00	0	32	101	1048576	60	8587
2026-01-05 16:21:13.17	273.94	31.23	-42.9	-44.2	20.9	0.00e+00	90	32	101	1048576	60	7893
2026-01-05 16:21:14.19	273.66	31.11	-43.0	-44.2	20.9	0.00e+00	0	32	101	1048576	60	7945
2026-01-05 16:21:15.20	273.38	30.98	-43.2	-44.5	20.6	0.00e+00	92	32	101	1048576	60	8210
2026-01-05 16:21:16.21	273.10	30.86	-43.5	-44.9	20.3	0.00e+00	0	32	101	1048576	60	8556
2026-01-05 16:21:17.22	272.82	30.73	-42.9	-44.1	20.6	0.00e+00	0	32	101	1048576	60	7836
2026-01-05 16:21:18.23	272.55	30.61	-42.4	-43.6	21.6	0.00e+00	0	32	101	1048576	60	7343
2026-01-05 16:21:19.24	272.27	30.48	-41.7	-42.8	22.1	0.00e+00	0	32	101	1048576	60	6726
2026-01-05 16:21:20.25	272.00	30.36	-41.7	-42.7	22.1	0.00e+00	27	32	101	1048576	60	6668
2026-01-05 16:21:21.26	271.74	30.23	-41.0	-41.9	22.8	0.00e+00	0	32	101	1048576	60	6097
2026-01-05 16:21:22.27	271.47	30.11	-40.5	-41.4	23.2	0.00e+00	92	32	101	1048576	60	5754
2026-01-05 16:21:23.28	271.21	29.98	-40.2	-41.0	23.5	0.00e+00	0	32	101	1048576	58	6173
2026-01-05 16:21:24.30	270.94	29.86	-39.8	-40.7	23.8	0.00e+00	0	32	101	1048576	58	5916
2026-01-05 16:21:25.31	270.68	29.73	-39.9	-40.8	23.6	0.00e+00	0	32	101	1048576	58	6004
2026-01-05 16:21:26.32	270.43	29.60	-40.1	-41.0	23.5	0.00e+00	0	32	101	1048576	58	6115
2026-01-05 16:21:27.33	270.17	29.48	-40.6	-41.6	23.0	0.00e+00	0	32	101	1048576	58	6556
2026-01-05 16:21:28.34	269.92	29.35	-41.1	-42.1	22.6	0.00e+00	0	32	101	1048576	58	6994
2026-01-05 16:21:29.35	269.66	29.23	-41.6	-42.7	22.2	0.00e+00	84	32	101	1048576	60	6625
2026-01-05 16:21:30.36	269.42	29.10	-41.9	-43.0	21.9	0.00e+00	0	32	101	1048576	60	6864
2026-01-05 16:21:31.37	269.17	28.97	-42.0	-43.2	21.6	0.00e+00	0	32	101	1048576	60	7027
2026-01-05 16:21:32.38	268.92	28.85	-42.2	-43.3	21.6	0.00e+00	0	32	101	1048576	60	7165
2026-01-05 16:21:33.40	268.68	28.72	-42.3	-43.5	21.8	0.00e+00	0	32	101	1048576	60	7292
2026-01-05 16:21:34.41	268.43	28.60	-41.6	-42.7	22.2	0.00e+00	24	32	101	1048576	60	6657
2026-01-05 16:21:35.42	268.19	28.47	-41.3	-42.3	22.5	0.00e+00	0	32	101	1048576	60	6332
2026-01-05 16:21:36.43	267.96	28.34	-41.1	-42.1	22.5	0.00e+00	92	32	101	1048576	60	6208
2026-01-05 16:21:37.44	267.72	28.22	-41.4	-42.5	22.3	0.00e+00	0	32	101	1048576	60	6499
2026-01-05 16:21:38.45	267.49	28.09	-41.1	-42.1	22.5	0.00e+00	9	32	101	1048576	60	6214
2026-01-05 16:21:39.46	267.25	27.96	-41.3	-42.3	22.5	0.00e+00	0	32	101	1048576	60	6388
2026-01-05 16:21:40.48	267.02	27.84	-41.1	-42.1	22.8	0.00e+00	0	32	101	1048576	60	6194
2026-01-05 16:21:41.49	266.79	27.71	-40.6	-41.6	23.0	0.00e+00	80	32	101	1048576	60	5836
2026-01-05 16:21:42.50	266.56	27.59	-40.3	-41.2	23.4	0.00e+00	0	32	101	1048576	60	5596
2026-01-05 16:21:43.51	266.34	27.46	-39.8	-40.7	23.6	0.00e+00	76	32	101	1048576	58	5897
2026-01-05 16:21:44.52	266.12	27.33	-39.7	-40.5	23.9	0.00e+00	0	32	101	1048576	58	5797
2026-01-05 16:21:45.53	265.89	27.21	-39.8	-40.6	23.7	0.00e+00	0	32	101	1048576	58	5884
2026-01-05 16:21:46.55	265.67	27.08	-39.4	-40.2	23.9	0.00e+00	0	32	101	1048576	58	5623
2026-01-05 16:21:47.56	265.45	26.96	-39.7	-40.6	23.7	0.00e+00	0	32	101	1048576	58	5862
2026-01-05 16:21:48.57	265.24	26.83	-40.0	-40.9	23.5	0.00e+00	25	32	101	1048576	58	6087
2026-01-05 16:21:49.58	265.02	26.71	-39.9	-40.8	23.6	0.00e+00	0	32	101	1048576	58	5992
2026-01-05 16:21:50.59	264.81	26.58	-44.6	-46.3	20.6	0.00e+00	79	32	101	1048576	60	10123
2026-01-05 16:21:51.60	264.60	26.46	-40.9	-41.8	23.0	0.00e+00	0	32	101	1048576	60	5994
2026-01-05 16:21:52.61	264.39	26.33	-41.2	-42.2	22.5	0.00e+00	90	32	101	1048576	60	6298
2026-01-05 16:21:53.62	264.18	26.21	-41.2	-42.2	22.9	0.00e+00	0	32	101	1048576	60	6283
2026-01-05 16:21:54.64	263.97	26.08	-41.3	-42.3	22.4	0.00e+00	0	32	101	1048576	60	6360
2026-01-05 16:21:55.65	263.77	25.96	-40.9	-42.0	22.8	0.00e+00	0	32	101	1048576	60	6105
2026-01-05 16:21:56.66	263.57	25.83	-41.0	-42.0	22.7	0.00e+00	0	32	101	1048576	60	6152
2026-01-05 16:21:57.67	263.36	25.71	-40.6	-41.6	23.0	0.00e+00	92	32	101	1048576	60	5833
2026-01-05 16:21:58.68	263.16	25.58	-40.9	-41.9	22.9	0.00e+00	0	32	101	1048576	60	6072
2026-01-05 16:21:59.69	262.97	25.46	-40.7	-41.7	22.8	0.00e+00	92	32	101	1048576	60	5958
2026-01-05 16:22:00.71	262.77	25.34	-40.7	-41.7	23.0	0.00e+00	0	32	101	1048576	60	5920
2026-01-05 16:22:01.72	262.57	25.21	-40.9	-41.9	22.7	0.00e+00	0	32	101	1048576	60	6070
2026-01-05 16:22:02.73	262.38	25.09	-40.6	-41.5	22.7	0.00e+00	0	32	101	1048576	60	5824
2026-01-05 16:22:03.74	262.19	24.97	-40.3	-41.2	23.2	0.00e+00	0	32	101	1048576	60	5619
2026-01-05 16:22:04.75	262.00	24.85	-40.1	-41.1	23.3	0.00e+00	17	32	101	1048576	58	6187
2026-01-05 16:22:05.76	261.81	24.72	-40.4	-41.3	23.1	0.00e+00	0	32	101	1048576	58	6378
2026-01-05 16:22:06.77	261.62	24.60	-40.1	-41.0	23.3	0.00e+00	80	32	101	1048576	58	6136
2026-01-05 16:22:07.79	261.43	24.48	-40.3	-41.2	23.1	0.00e+00	0	32	101	1048576	58	6286
2026-01-05 16:22:08.80	261.25	24.36	-40.4	-41.4	23.1	0.00e+00	0	32	101	1048576	58	6392
2026-01-05 16:22:09.81	261.06	24.23	-40.7	-41.7	22.9	0.00e+00	0	32	101	1048576	58	6640
2026-01-05 16:22:10.82	260.88	24.11	-40.5	-41.5	23.0	0.00e+00	0	32	101	1048576	58	6495
2026-01-05 16:22:11.83	260.70	23.99	-40.7	-41.7	22.9	0.00e+00	92	32	101	1048576	58	6621
2026-01-05 16:22:12.84	260.52	23.87	-40.7	-41.7	22.9	0.00e+00	0	32	101	1048576	58	6659
2026-01-05 16:22:13.85	260.34	23.75	-40.7	-41.7	22.9	0.00e+00	92	32	101	1048576	58	6636
2026-01-05 16:22:14.86	260.17	23.63	-40.5	-41.4	23.1	0.00e+00	0	32	101	1048576	58	6437
2026-01-05 16:22:15.88	259.99	23.51	-40.9	-41.9	22.7	0.00e+00	0	32	101	1048576	58	6795
2026-01-05 16:22:16.89	259.82	23.39	-41.0	-42.0	22.7	0.00e+00	0	32	101	1048576	60	6168
2026-01-05 16:22:17.90	259.65	23.27	-41.2	-42.2	22.6	0.00e+00	0	32	101	1048576	60	6286
2026-01-05 16:22:18.91	259.47	23.15	-41.5	-42.5	22.2	0.00e+00	16	32	101	1048576	60	6534
2026-01-05 16:22:19.92	259.31	23.03	-41.5	-42.5	22.1	0.00e+00	0	32	101	1048576	60	6519
2026-01-05 16:22:20.93	259.14	22.92	-41.8	-42.9	21.9	0.00e+00	92	32	101	1048576	60	6795
2026-01-05 16:22:21.94	258.97	22.80	-41.8	-42.9	21.9	0.00e+00	0	32	101	1048576	60	6813
2026-01-05 16:22:22.95	258.80	22.68	-42.0	-43.1	21.7	0.00e+00	0	32	101	1048576	60	7005
2026-01-05 16:22:23.96	258.64	22.56	-42.0	-43.1	21.7	0.00e+00	0	32	101	1048576	60	6945
2026-01-05 16:22:24.97	258.48	22.44	-42.1	-43.3	21.6	0.00e+00	0	32	101	1048576	60	7105
2026-01-05 16:22:25.99	258.31	22.33	-41.9	-43.1	21.7	0.00e+00	52	32	101	1048576	60	6928
2026-01-05 16:22:27.00	258.15	22.21	-41.5	-42.6	22.1	0.00e+00	0	32	101	1048576	60	6563
2026-01-05 16:22:28.01	257.99	22.09	-41.3	-42.4	22.4	0.00e+00	92	32	101	1048576	60	6416
2026-01-05 16:22:29.02	257.83	21.98	-40.9	-41.9	22.8	0.00e+00	0	32	101	1048576	60	6038
2026-01-05 16:22:30.03	257.68	21.86	-40.4	-41.3	23.2	0.00e+00	0	32	101	1048576	60	5682
2026-01-05 16:22:31.04	257.52	21.74	-40.0	-41.0	23.4	0.00e+00	0	32	101	1048576	58	6113
2026-01-05 16:22:32.06	257.37	21.63	-40.1	-41.0	23.5	0.00e+00	0	32	101	1048576	58	6141
2026-01-05 16:22:33.06	257.21	21.51	-40.3	-41.3	23.3	0.00e+00	23	32	101	1048576	58	6332
2026-01-05 16:22:34.07	257.06	21.40	-40.6	-41.5	23.0	0.00e+00	0	32	101	1048576	58	6527
2026-01-05 16:22:35.09	256.91	21.28	-40.7	-41.7	22.8	0.00e+00	82	32	101	1048576	58	6623
2026-01-05 16:22:36.10	256.76	21.17	-41.4	-42.4	22.4	0.00e+00	0	32	101	1048576	60	6447
2026-01-05 16:22:37.11	256.61	21.06	-41.3	-42.3	22.6	0.00e+00	92	32	101	1048576	60	6349
2026-01-05 16:22:38.12	256.46	20.94	-41.0	-42.0	22.7	0.00e+00	0	32	101	1048576	60	6127
2026-01-05 16:22:39.13	256.31	20.83	-40.8	-41.7	22.9	0.00e+00	0	32	101	1048576	60	5950
2026-01-05 16:22:40.14	256.17	20.72	-40.4	-41.3	23.2	0.00e+00	25	32	101	1048576	60	5680
2026-01-05 16:22:41.15	256.02	20.60	-39.8	-40.7	23.6	0.00e+00	0	32	101	1048576	58	5913
2026-01-05 16:22:42.16	255.88	20.49	-39.8	-40.6	23.6	0.00e+00	21	32	101	1048576	58	5893
2026-01-05 16:22:43.17	255.74	20.38	-39.7	-40.5	23.6	0.00e+00	0	32	101	1048576	58	5823
2026-01-05 16:22:44.19	255.60	20.27	-39.7	-40.6	23.7	0.00e+00	92	32	101	1048576	58	5849
2026-01-05 16:22:45.20	255.46	20.16	-40.0	-40.9	23.5	0.00e+00	0	32	101	1048576	58	6088
2026-01-05 16:22:46.21	255.32	20.04	-40.3	-41.2	23.2	0.00e+00	0	32	101	1048576	58	6280
2026-01-05 16:22:47.22	255.18	19.93	-40.7	-41.7	22.8	0.00e+00	0	32	101	1048576	58	6651
2026-01-05 16:22:48.23	255.04	19.82	-41.4	-42.4	22.2	0.00e+00	0	32	101	1048576	60	6445
2026-01-05 16:22:49.24	254.90	19.71	-41.9	-43.1	21.6	0.00e+00	21	32	101	1048576	60	6944
2026-01-05 16:22:50.25	254.77	19.60	-42.6	-43.8	21.1	0.00e+00	0	32	101	1048576	60	7571
2026-01-05 16:22:51.26	254.63	19.49	-42.9	-44.1	20.7	0.00e+00	91	32	101	1048576	60	7832
2026-01-05 16:22:52.27	254.50	19.39	-43.5	-44.8	20.1	0.00e+00	0	32	101	1048576	60	8513
2026-01-05 16:22:53.28	254.37	19.28	-43.6	-45.0	19.9	0.00e+00	0	32	101	1048576	60	8655
2026-01-05 16:22:54.30	254.24	19.17	-44.2	-45.8	19.4	0.00e+00	0	32	101	1048576	60	9508
2026-01-05 16:22:55.31	254.11	19.06	-44.0	-45.5	19.6	0.00e+00	0	32	101	1048576	60	9234
2026-01-05 16:22:56.32	253.98	18.95	-43.4	-44.8	20.0	0.00e+00	76	32	101	1048576	60	8520
2026-01-05 16:22:57.33	253.85	18.84	-43.2	-44.6	20.5	0.00e+00	0	32	101	1048576	60	8246
2026-01-05 16:22:58.34	253.72	18.74	-42.4	-43.6	21.3	0.00e+00	85	32	101	1048576	60	7375
2026-01-05 16:22:59.35	253.59	18.63	-42.0	-43.1	21.8	0.00e+00	0	32	101	1048576	60	6968
2026-01-05 16:23:00.36	253.47	18.52	-41.6	-42.6	22.1	0.00e+00	0	32	101	1048576	60	6614
2026-01-05 16:23:01.37	253.34	18.42	-41.5	-42.6	22.1	0.00e+00	0	32	101	1048576	60	6573
2026-01-05 16:23:02.39	253.22	18.31	-41.3	-42.4	22.4	0.00e+00	22	32	101	1048576	60	6413
2026-01-05 16:23:03.40	253.09	18.20	-41.2	-42.2	22.5	0.00e+00	83	32	101	1048576	60	6304
2026-01-05 16:23:04.41	252.97	18.10	-41.2	-42.3	22.3	0.00e+00	0	32	101	1048576	60	6335
2026-01-05 16:23:05.42	252.85	17.99	-41.7	-42.8	21.9	0.00e+00	92	32	101	1048576	60	6737
2026-01-05 16:23:06.43	252.73	17.89	-42.0	-43.1	21.6	0.00e+00	0	32	101	1048576	60	6983
2026-01-05 16:23:07.44	252.61	17.78	-42.1	-43.3	21.5	0.00e+00	0	32	101	1048576	60	7104
2026-01-05 16:23:08.45	252.49	17.68	-42.5	-43.7	21.3	0.00e+00	0	32	101	1048576	60	7433
2026-01-05 16:23:09.46	252.37	17.58	-42.3	-43.5	21.3	0.00e+00	11	32	101	1048576	60	7297
2026-01-05 16:23:10.47	252.26	17.47	-42.0	-43.2	21.6	0.00e+00	24	32	101	1048576	60	7014
2026-01-05 16:23:11.49	252.14	17.37	-41.7	-42.8	21.9	0.00e+00	0	32	101	1048576	60	6694
2026-01-05 16:23:12.50	252.02	17.27	-41.3	-42.4	22.4	0.00e+00	92	32	101	1048576	60	6397
2026-01-05 16:23:13.51	251.91	17.16	-40.9	-41.9	22.6	0.00e+00	0	32	101	1048576	60	6079
2026-01-05 16:23:14.52	251.79	17.06	-40.4	-41.3	23.1	0.00e+00	92	32	101	1048576	60	5679
2026-01-05 16:23:15.53	251.68	16.96	-40.5	-41.4	23.1	0.00e+00	0	32	101	1048576	60	5744
2026-01-05 16:23:16.54	251.57	16.86	-40.5	-41.4	23.1	0.00e+00	0	32	101	1048576	60	5755
2026-01-05 16:23:17.55	251.46	16.76	-40.8	-41.7	22.8	0.00e+00	50	32	101	1048576	60	5958
2026-01-05 16:23:18.56	251.35	16.65	-40.8	-41.8	22.8	0.00e+00	0	32	101	1048576	60	6004
2026-01-05 16:23:19.57	251.24	16.55	-41.1	-42.1	22.5	0.00e+00	92	32	101	1048576	60	6210
2026-01-05 16:23:20.59	251.12	16.45	-41.1	-42.1	22.4	0.00e+00	0	32	101	1048576	60	6226
2026-01-05 16:23:21.60	251.02	16.35	-41.4	-42.4	22.3	0.00e+00	92	32	101	1048576	60	6447
2026-01-05 16:23:22.61	250.91	16.25	-41.6	-42.7	22.2	0.00e+00	0	32	101	1048576	60	6617
2026-01-05 16:23:23.62	250.80	16.15	-41.6	-42.6	21.9	0.00e+00	0	32	101	1048576	60	6612
2026-01-05 16:23:24.63	250.69	16.05	-41.5	-42.5	22.1	0.00e+00	21	32	101	1048576	60	6527
2026-01-05 16:23:25.64	250.59	15.95	-41.7	-42.7	22.0	0.00e+00	0	32	101	1048576	60	6680
2026-01-05 16:23:26.65	250.48	15.86	-41.5	-42.5	22.2	0.00e+00	18	32	101	1048576	60	6501
2026-01-05 16:23:27.66	250.38	15.76	-41.6	-42.7	22.0	0.00e+00	0	32	101	1048576	60	6617
2026-01-05 16:23:28.67	250.28	15.66	-41.6	-42.6	22.0	0.00e+00	92	32	101	1048576	60	6604
2026-01-05 16:23:29.68	250.17	15.56	-41.8	-42.9	21.8	0.00e+00	0	32	101	1048576	60	6787
2026-01-05 16:23:30.69	250.07	15.46	-41.7	-42.8	21.9	0.00e+00	0	32	101	1048576	60	6739
2026-01-05 16:23:31.71	249.97	15.37	-41.9	-43.0	21.6	0.00e+00	0	32	101	1048576	60	6896
2026-01-05 16:23:32.72	249.87	15.27	-41.9	-43.0	21.7	0.00e+00	0	32	101	1048576	60	6896
2026-01-05 16:23:33.73	249.77	15.17	-41.9	-43.0	21.7	0.00e+00	5	32	101	1048576	60	6898
2026-01-05 16:23:34.74	249.67	15.08	-41.9	-43.0	21.8	0.00e+00	0	32	101	1048576	60	6908
2026-01-05 16:23:35.75	249.57	14.98	-41.8	-42.8	22.0	0.00e+00	90	32	101	1048576	60	6752
2026-01-05 16:23:36.76	249.47	14.89	-41.6	-42.7	21.9	0.00e+00	0	32	101	1048576	60	6624
2026-01-05 16:23:37.78	249.37	14.79	-41.4	-42.5	22.0	0.00e+00	0	32	101	1048576	60	6468
2026-01-05 16:23:38.79	249.27	14.69	-41.3	-42.3	22.3	0.00e+00	0	32	101	1048576	60	6344
2026-01-05 16:23:39.80	249.18	14.60	-41.2	-42.2	22.3	0.00e+00	0	32	101	1048576	60	6309
2026-01-05 16:23:40.81	249.08	14.50	-41.1	-42.1	22.4	0.00e+00	72	32	101	1048576	60	6230
2026-01-05 16:23:41.82	248.99	14.41	-41.1	-42.1	22.4	0.00e+00	0	32	101	1048576	60	6195
2026-01-05 16:23:42.83	248.89	14.32	-41.5	-42.6	21.9	0.00e+00	92	32	101	1048576	60	6579
2026-01-05 16:23:43.84	248.80	14.22	-41.6	-42.7	21.8	0.00e+00	0	32	101	1048576	60	6647
2026-01-05 16:23:44.85	248.71	14.13	-42.0	-43.1	21.6	0.00e+00	0	32	101	1048576	60	7004
2026-01-05 16:23:45.86	248.61	14.04	-42.2	-43.3	21.4	0.00e+00	0	32	101	1048576	60	7142
2026-01-05 16:23:46.87	248.52	13.94	-42.5	-43.7	21.1	0.00e+00	0	32	101	1048576	60	7496
2026-01-05 16:23:47.89	248.43	13.85	-42.8	-44.0	20.8	0.00e+00	17	32	101	1048576	60	7764
