passes_logs/2026/01/05/R4.6S_Anadyr_2ch/R4.6S_Anadyr_2ch__20260105_113151_NOAA_20_JPSS-1_rec.log

#Pass ID: 20260105_113151_NOAA 20 (JPSS-1)
#Satellite: NOAA 20 (JPSS-1)
#Configuration: NOAA 20
#almurnet v.1.7.20251203
#Start time: 2026-01-05 11:31:54

#Version: 2.2.20231116
#Station: R4.6S_Anadyr_2ch
#Location: 177.4865 lon 64.73178 lat
#TLE: 1 43013U 17073A   25350.93759711  .00000080  00000+0  58734-4 0  9994
#TLE: 2 43013  98.7603 287.1885 0002156  81.1496 278.9924 14.19526878418610

#Time	Az	El	Level	Level2	SNR	BER	BlckErr	Temp	State	Recorded	gain1	gain2
2026-01-05 11:31:54.61	20.99	0.11	-52.6	-63.6	3.4	8.46e-01	0	19	0	0	60	74889
2026-01-05 11:31:55.62	21.09	0.15	-52.1	-67.4	3.6	1.51e+00	0	20	104	0	60	114277
2026-01-05 11:31:56.63	21.19	0.19	-53.1	-68.5	3.6	1.51e+00	0	20	104	0	60	129747
2026-01-05 11:31:57.64	21.29	0.22	-51.7	-67.1	3.5	1.51e+00	0	20	104	0	60	110073
2026-01-05 11:31:58.65	21.39	0.26	-51.7	-67.1	3.6	1.51e+00	0	20	104	0	60	109979
2026-01-05 11:31:59.66	21.48	0.30	-52.0	-67.3	3.6	1.51e+00	0	20	104	0	60	113327
2026-01-05 11:32:00.67	21.58	0.34	-51.2	-66.6	3.6	1.51e+00	0	20	104	0	60	103857
2026-01-05 11:32:01.68	21.68	0.38	-51.1	-66.5	3.6	1.51e+00	0	20	104	0	60	102597
2026-01-05 11:32:02.69	21.78	0.42	-51.1	-66.4	3.5	1.51e+00	0	20	104	0	60	101847
2026-01-05 11:32:03.70	21.88	0.46	-51.0	-66.3	3.6	1.51e+00	0	20	104	0	60	101106
2026-01-05 11:32:04.71	21.98	0.50	-50.9	-66.2	3.6	1.51e+00	0	20	104	0	60	99703
2026-01-05 11:32:05.72	22.08	0.54	-50.8	-66.2	3.6	1.51e+00	0	20	104	0	60	99045
2026-01-05 11:32:06.73	22.18	0.58	-50.7	-66.1	3.6	1.51e+00	0	20	104	0	60	98202
2026-01-05 11:32:07.74	22.28	0.62	-50.6	-65.9	3.6	1.51e+00	0	21	104	0	60	96453
2026-01-05 11:32:08.76	22.39	0.66	-50.4	-65.8	3.6	1.51e+00	0	20	104	0	60	95218
2026-01-05 11:32:09.77	22.49	0.70	-50.2	-65.6	3.6	1.51e+00	0	21	104	0	60	92507
2026-01-05 11:32:10.78	22.59	0.74	-49.8	-65.1	3.6	1.51e+00	0	21	104	0	60	87599
2026-01-05 11:32:11.79	22.69	0.78	-49.5	-64.8	3.6	1.51e+00	0	21	104	0	60	84716
2026-01-05 11:32:12.80	22.79	0.81	-49.4	-64.8	3.6	1.51e+00	0	21	104	0	60	84334
2026-01-05 11:32:13.81	22.89	0.85	-49.4	-64.8	3.6	1.51e+00	0	21	104	0	60	84679
2026-01-05 11:32:14.82	23.00	0.89	-49.4	-64.8	3.6	1.51e+00	0	21	104	0	60	84812
2026-01-05 11:32:15.83	23.10	0.93	-49.4	-64.8	3.6	1.51e+00	0	21	104	0	60	84523
2026-01-05 11:32:16.84	23.20	0.97	-49.4	-64.8	3.6	1.51e+00	0	21	104	0	60	84442
2026-01-05 11:32:17.85	23.31	1.01	-49.4	-64.8	3.6	1.51e+00	0	21	104	0	60	84511
2026-01-05 11:32:18.86	23.41	1.05	-49.4	-64.8	3.6	1.51e+00	0	21	104	0	60	84959
2026-01-05 11:32:19.87	23.51	1.09	-49.4	-64.7	3.6	1.51e+00	0	21	104	0	60	83739
2026-01-05 11:32:20.88	23.62	1.13	-49.4	-64.7	3.6	1.51e+00	0	21	104	0	60	84021
2026-01-05 11:32:21.90	23.72	1.17	-49.4	-64.7	3.6	1.51e+00	0	21	104	0	60	83983
2026-01-05 11:32:22.91	23.83	1.21	-49.4	-64.7	3.6	1.51e+00	0	21	104	0	60	84013
2026-01-05 11:32:23.92	23.93	1.24	-49.5	-64.8	3.6	1.51e+00	0	21	104	0	60	84865
2026-01-05 11:32:24.93	24.04	1.28	-49.5	-64.8	3.6	1.51e+00	0	21	104	0	60	84517
2026-01-05 11:32:25.94	24.14	1.32	-49.5	-64.8	3.6	1.51e+00	0	21	104	0	60	84829
2026-01-05 11:32:26.95	24.25	1.36	-49.5	-64.8	3.6	1.51e+00	0	21	104	0	60	84590
2026-01-05 11:32:27.96	24.36	1.40	-49.5	-64.8	3.6	1.51e+00	0	21	104	0	60	84648
2026-01-05 11:32:28.97	24.46	1.44	-49.4	-64.8	3.6	1.51e+00	0	21	104	0	60	84505
2026-01-05 11:32:29.99	24.57	1.48	-49.4	-64.8	3.6	1.51e+00	0	21	104	0	60	84374
2026-01-05 11:32:31.00	24.68	1.52	-49.4	-64.8	3.6	1.51e+00	0	21	104	0	60	84418
2026-01-05 11:32:32.01	24.78	1.56	-49.5	-64.7	3.6	1.51e+00	0	21	104	0	60	84245
2026-01-05 11:32:33.02	24.89	1.59	-49.5	-64.8	3.6	1.51e+00	0	21	104	0	60	84417
2026-01-05 11:32:34.03	25.00	1.63	-49.5	-64.8	3.6	1.51e+00	0	21	104	0	60	84562
2026-01-05 11:32:35.04	25.11	1.67	-49.5	-64.9	3.6	1.51e+00	0	21	104	0	60	85409
2026-01-05 11:32:36.05	25.21	1.71	-49.5	-64.8	3.6	1.51e+00	0	21	104	0	60	85095
2026-01-05 11:32:37.06	25.32	1.75	-49.5	-64.8	3.6	1.51e+00	0	21	104	0	60	84587
2026-01-05 11:32:38.08	25.43	1.79	-49.5	-64.8	3.6	1.51e+00	0	21	104	0	60	84666
2026-01-05 11:32:39.09	25.54	1.83	-49.5	-64.8	3.6	1.51e+00	0	21	104	0	60	84535
2026-01-05 11:32:40.10	25.65	1.87	-49.5	-64.8	3.6	1.51e+00	0	21	104	0	60	84393
2026-01-05 11:32:41.11	25.76	1.90	-49.5	-64.8	3.6	1.51e+00	0	21	104	0	60	84343
2026-01-05 11:32:42.12	25.87	1.94	-49.4	-64.7	3.6	1.51e+00	0	21	104	0	60	84006
2026-01-05 11:32:43.13	25.98	1.98	-49.4	-64.7	3.6	1.51e+00	0	21	104	0	60	83916
2026-01-05 11:32:44.14	26.09	2.02	-49.4	-64.7	3.6	1.51e+00	0	21	104	0	60	84235
2026-01-05 11:32:45.15	26.20	2.06	-49.5	-64.8	3.6	1.51e+00	0	21	104	0	60	84416
2026-01-05 11:32:46.16	26.31	2.10	-49.5	-64.8	3.6	1.51e+00	0	21	104	0	60	84760
2026-01-05 11:32:47.17	26.42	2.13	-49.5	-64.8	3.6	1.51e+00	0	21	104	0	60	84947
2026-01-05 11:32:48.19	26.53	2.17	-49.5	-64.8	3.6	1.51e+00	0	21	104	0	60	84844
2026-01-05 11:32:49.20	26.64	2.21	-49.5	-64.8	3.6	1.51e+00	0	21	104	0	60	84900
2026-01-05 11:32:50.21	26.76	2.25	-49.5	-64.7	3.6	1.51e+00	0	21	104	0	60	83781
2026-01-05 11:32:51.22	26.87	2.29	-49.5	-64.7	3.6	1.51e+00	0	21	104	0	60	83795
2026-01-05 11:32:52.23	26.98	2.33	-49.5	-64.7	3.6	1.51e+00	0	21	104	0	60	84149
2026-01-05 11:32:53.24	27.09	2.36	-49.5	-64.8	3.6	1.51e+00	0	21	104	0	60	84766
2026-01-05 11:32:54.25	27.21	2.40	-49.5	-64.8	3.6	1.51e+00	0	21	104	0	60	84712
2026-01-05 11:32:55.26	27.32	2.44	-49.5	-64.8	3.6	1.51e+00	0	21	104	0	60	84683
2026-01-05 11:32:56.27	27.43	2.48	-49.5	-64.8	3.6	1.51e+00	0	21	104	0	60	84991
2026-01-05 11:32:57.28	27.55	2.52	-49.5	-64.7	3.6	1.51e+00	0	21	104	0	60	83759
2026-01-05 11:32:58.30	27.66	2.56	-49.5	-64.2	3.6	1.51e+00	0	21	104	0	60	78676
2026-01-05 11:32:59.31	27.78	2.59	-49.4	-63.4	3.6	1.51e+00	0	21	104	0	60	71834
2026-01-05 11:33:00.32	27.89	2.63	-49.5	-64.3	3.6	1.51e+00	0	21	104	0	60	80398
2026-01-05 11:33:01.33	28.01	2.67	-49.5	-64.0	3.6	1.51e+00	0	21	104	0	60	77294
2026-01-05 11:33:02.34	28.12	2.71	-48.9	-57.5	6.6	4.94e-01	0	21	0	0	60	36454
2026-01-05 11:33:03.35	28.24	2.74	-47.7	-52.4	11.2	1.60e-02	0	21	102	1048576	60	20317
2026-01-05 11:33:04.36	28.35	2.78	-46.0	-48.9	15.2	5.56e-05	0	21	102	1048576	60	13518
2026-01-05 11:33:05.38	28.47	2.82	-44.3	-46.3	17.6	0.00e+00	0	21	102	1048576	60	10042
2026-01-05 11:33:06.39	28.59	2.86	-43.6	-45.3	18.7	0.00e+00	0	21	102	1048576	60	8952
2026-01-05 11:33:07.40	28.70	2.90	-43.9	-45.7	17.9	0.00e+00	0	21	102	1048576	60	9397
2026-01-05 11:33:08.41	28.82	2.93	-45.3	-47.8	16.0	0.00e+00	0	21	102	1048576	60	11976
2026-01-05 11:33:09.42	28.94	2.97	-46.2	-49.3	14.0	0.00e+00	0	21	102	1048576	60	14163
2026-01-05 11:33:10.43	29.06	3.01	-44.2	-46.1	17.6	6.79e-05	0	21	102	1048576	60	9846
2026-01-05 11:33:11.44	29.17	3.05	-43.3	-44.9	18.6	2.76e-01	0	21	102	1048576	60	8529
2026-01-05 11:33:12.45	29.29	3.08	-48.0	-53.7	5.6	1.49e+00	24	21	104	1048576	60	23560
2026-01-05 11:33:13.46	29.41	3.12	-44.0	-45.9	17.6	4.25e-01	0	21	104	1048576	60	9586
2026-01-05 11:33:14.47	29.53	3.16	-46.8	-50.4	12.6	0.00e+00	0	21	0	1048576	60	16113
2026-01-05 11:33:15.48	29.65	3.20	-49.4	-64.6	3.6	1.51e+00	0	21	104	1048576	60	82693
2026-01-05 11:33:16.49	29.77	3.23	-48.0	-53.6	5.8	1.51e+00	0	21	104	1048576	60	23314
2026-01-05 11:33:17.50	29.89	3.27	-43.8	-45.5	19.2	1.07e-01	0	21	0	1048576	60	9233
2026-01-05 11:33:18.52	30.01	3.31	-46.9	-50.7	10.0	2.97e-05	0	21	0	1048576	60	16773
2026-01-05 11:33:19.53	30.13	3.34	-49.4	-64.6	3.6	1.51e+00	0	21	104	1048576	60	83223
2026-01-05 11:33:20.54	30.25	3.38	-47.5	-51.9	6.0	1.51e+00	0	21	104	1048576	60	19190
2026-01-05 11:33:21.55	30.37	3.42	-43.2	-44.7	20.3	3.90e-02	0	21	0	1048576	60	8348
2026-01-05 11:33:22.56	30.49	3.46	-46.9	-50.6	9.9	0.00e+00	0	21	0	1048576	60	16476
2026-01-05 11:33:23.57	30.61	3.49	-49.5	-64.8	3.6	1.51e+00	0	21	104	1048576	60	84402
2026-01-05 11:33:24.58	30.73	3.53	-45.6	-48.2	6.0	1.51e+00	0	21	104	1048576	60	12474
2026-01-05 11:33:25.59	30.85	3.57	-42.9	-44.4	19.7	8.08e-05	0	21	0	1048576	60	8090
2026-01-05 11:33:26.60	30.98	3.60	-48.3	-54.2	7.8	0.00e+00	0	21	0	1048576	60	24925
2026-01-05 11:33:27.62	31.10	3.64	-49.5	-64.2	3.6	1.51e+00	0	21	104	1048576	60	79199
2026-01-05 11:33:28.63	31.22	3.68	-45.4	-47.8	6.0	1.49e+00	10	21	104	1048576	60	11906
2026-01-05 11:33:29.64	31.35	3.71	-42.9	-44.3	19.7	6.22e-04	0	21	0	1048576	60	8010
2026-01-05 11:33:30.65	31.47	3.75	-48.7	-55.3	4.8	0.00e+00	0	21	0	1048576	60	28464
2026-01-05 11:33:31.66	31.59	3.79	-49.6	-64.5	3.6	1.51e+00	0	21	104	1048576	60	82024
2026-01-05 11:33:32.67	31.72	3.82	-46.0	-48.8	6.0	1.50e+00	0	21	104	1048576	60	13393
2026-01-05 11:33:33.68	31.84	3.86	-42.8	-44.2	19.8	1.63e-03	0	21	0	1048576	60	7952
2026-01-05 11:33:34.69	31.96	3.89	-49.2	-58.2	3.4	1.00e-01	11	21	0	1048576	60	39595
2026-01-05 11:33:35.70	32.09	3.93	-49.6	-64.5	3.6	1.51e+00	0	21	104	1048576	60	81814
2026-01-05 11:33:36.72	32.22	3.97	-45.9	-48.6	5.9	1.50e+00	62	21	104	1048576	60	13118
2026-01-05 11:33:37.73	32.34	4.00	-43.0	-44.5	19.4	0.00e+00	0	21	0	1048576	60	8228
2026-01-05 11:33:38.74	32.47	4.04	-49.7	-63.2	3.6	8.81e-03	8	21	104	1048576	60	70117
2026-01-05 11:33:39.75	32.59	4.08	-49.6	-64.3	3.6	1.51e+00	0	21	104	1048576	60	79556
2026-01-05 11:33:40.76	32.72	4.11	-46.8	-50.3	5.8	1.51e+00	91	21	104	1048576	60	15872
2026-01-05 11:33:41.77	32.85	4.15	-43.0	-44.4	19.6	5.30e-06	0	21	0	1048576	60	8138
2026-01-05 11:33:42.78	32.97	4.18	-49.7	-63.3	3.6	1.50e-06	0	21	104	1048576	60	71279
2026-01-05 11:33:43.79	33.10	4.22	-49.6	-64.3	3.6	1.51e+00	0	21	104	1048576	60	80273
2026-01-05 11:33:44.80	33.23	4.25	-47.1	-50.7	5.5	1.45e+00	63	21	104	1048576	60	16651
2026-01-05 11:33:45.81	33.36	4.29	-42.8	-44.2	19.7	3.66e-05	0	21	0	1048576	60	7953
2026-01-05 11:33:46.82	33.48	4.32	-49.8	-64.6	3.6	0.00e+00	0	21	104	1048576	60	82403
2026-01-05 11:33:47.83	33.61	4.36	-49.6	-64.1	3.6	1.51e+00	0	21	104	1048576	60	78118
2026-01-05 11:33:48.84	33.74	4.40	-47.1	-50.7	11.1	1.46e+00	0	21	104	1048576	60	16768
2026-01-05 11:33:49.86	33.87	4.43	-43.2	-44.7	19.2	3.09e-04	0	21	0	1048576	60	8383
2026-01-05 11:33:50.87	34.00	4.47	-49.8	-64.7	3.6	6.50e-01	0	21	104	1048576	60	83519
2026-01-05 11:33:51.88	34.13	4.50	-49.7	-64.0	3.6	1.51e+00	0	21	104	1048576	60	77626
2026-01-05 11:33:52.89	34.26	4.54	-48.2	-53.2	10.5	1.48e+00	0	21	104	1048576	60	22305
2026-01-05 11:33:53.90	34.39	4.57	-43.3	-44.9	19.3	0.00e+00	0	21	0	1048576	60	8546
2026-01-05 11:33:54.91	34.52	4.61	-49.8	-64.9	3.6	3.34e-01	0	21	104	1048576	60	85502
2026-01-05 11:33:55.92	34.65	4.64	-49.7	-63.9	3.6	1.51e+00	0	21	104	1048576	60	76426
2026-01-05 11:33:56.93	34.78	4.68	-48.4	-53.6	11.7	8.07e-01	0	21	104	1048576	60	23268
2026-01-05 11:33:57.94	34.91	4.71	-43.1	-44.6	19.6	0.00e+00	0	21	0	1048576	60	8285
2026-01-05 11:33:58.95	35.04	4.75	-49.9	-64.7	3.6	5.53e-02	0	21	104	1048576	60	83823
2026-01-05 11:33:59.97	35.18	4.78	-49.7	-63.7	3.6	1.51e+00	0	21	104	1048576	60	74879
2026-01-05 11:34:00.98	35.31	4.81	-48.1	-52.9	10.8	1.01e+00	0	21	104	1048576	60	21421
2026-01-05 11:34:01.99	35.44	4.85	-42.8	-44.3	19.7	0.00e+00	0	21	0	1048576	60	7958
2026-01-05 11:34:03.00	35.58	4.88	-49.8	-64.6	3.6	1.67e-02	0	21	104	1048576	60	82444
2026-01-05 11:34:04.01	35.71	4.92	-49.8	-63.7	3.6	1.51e+00	0	21	104	1048576	60	74637
2026-01-05 11:34:05.02	35.84	4.95	-48.3	-53.3	10.5	1.18e+00	0	21	104	1048576	60	22464
2026-01-05 11:34:06.03	35.98	4.99	-43.3	-44.8	19.6	0.00e+00	0	21	0	1048576	60	8433
2026-01-05 11:34:07.05	36.11	5.02	-49.8	-63.9	3.6	1.17e+00	0	21	104	1048576	60	76647
2026-01-05 11:34:08.06	36.25	5.05	-49.8	-64.0	3.6	1.51e+00	0	21	104	1048576	60	76888
2026-01-05 11:34:09.07	36.38	5.09	-49.7	-61.3	4.3	1.44e+00	34	21	104	1048576	60	56635
2026-01-05 11:34:10.08	36.52	5.12	-49.9	-64.8	3.6	1.51e+00	0	21	104	1048576	60	85116
2026-01-05 11:34:11.09	36.65	5.16	-49.9	-65.1	4.1	1.51e+00	0	21	104	1048576	60	87331
2026-01-05 11:34:12.10	36.79	5.19	-50.4	-65.8	3.6	1.51e+00	0	21	104	1048576	60	94539
2026-01-05 11:34:13.11	36.92	5.22	-50.7	-66.0	3.6	1.51e+00	0	21	104	1048576	60	97423
2026-01-05 11:34:14.12	37.06	5.26	-50.8	-66.2	3.6	1.51e+00	0	22	104	1048576	60	99520
2026-01-05 11:34:15.13	37.19	5.29	-50.6	-66.2	3.6	1.51e+00	0	21	104	1048576	60	99972
2026-01-05 11:34:16.14	37.33	5.32	-50.9	-66.3	3.6	1.51e+00	0	22	104	1048576	60	101064
2026-01-05 11:34:17.16	37.47	5.36	-51.0	-66.4	3.6	1.51e+00	0	22	104	1048576	60	101764
2026-01-05 11:34:18.17	37.61	5.39	-51.0	-66.4	3.6	1.51e+00	0	21	104	1048576	60	102101
2026-01-05 11:34:19.18	37.74	5.42	-51.0	-66.4	3.6	1.51e+00	0	22	104	1048576	60	102205
2026-01-05 11:34:20.19	37.88	5.45	-51.1	-66.5	3.6	1.51e+00	0	22	104	1048576	60	102505
2026-01-05 11:34:21.20	38.02	5.49	-51.1	-66.5	3.6	1.51e+00	0	22	104	1048576	60	102623
2026-01-05 11:34:22.21	38.16	5.52	-51.1	-66.4	3.6	1.51e+00	0	21	104	1048576	60	102382
2026-01-05 11:34:23.22	38.30	5.55	-50.9	-66.4	3.6	1.51e+00	0	22	104	1048576	60	102404
2026-01-05 11:34:24.23	38.44	5.58	-51.0	-66.4	3.6	1.51e+00	0	22	104	1048576	60	102121
2026-01-05 11:34:25.24	38.58	5.62	-51.2	-66.6	3.6	1.51e+00	0	22	104	1048576	60	104160
2026-01-05 11:34:26.25	38.72	5.65	-51.4	-66.7	3.6	1.51e+00	0	22	104	1048576	60	105556
2026-01-05 11:34:27.27	38.86	5.68	-51.6	-67.0	3.6	1.51e+00	0	22	104	1048576	60	109356
2026-01-05 11:34:28.28	39.00	5.71	-52.6	-67.9	3.6	1.51e+00	0	22	104	1048576	60	121775
2026-01-05 11:34:29.29	39.14	5.75	-51.5	-66.8	3.6	1.51e+00	0	22	104	1048576	60	106811
2026-01-05 11:34:30.30	39.28	5.78	-51.5	-66.9	3.6	1.51e+00	0	22	104	1048576	60	107727
2026-01-05 11:34:31.31	39.42	5.81	-52.0	-67.3	3.6	1.51e+00	0	22	104	1048576	60	113092
2026-01-05 11:34:32.32	39.56	5.84	-51.5	-66.9	3.6	1.51e+00	0	21	104	1048576	60	107423
2026-01-05 11:34:33.33	39.70	5.87	-51.7	-67.1	3.6	1.51e+00	0	22	104	1048576	60	110114
2026-01-05 11:34:34.34	39.85	5.90	-51.8	-67.1	3.6	1.51e+00	0	22	104	1048576	60	110669
2026-01-05 11:34:35.35	39.99	5.93	-51.6	-66.9	3.6	1.51e+00	0	22	104	1048576	60	108038
2026-01-05 11:34:36.36	40.13	5.97	-51.7	-67.1	3.6	1.51e+00	0	22	104	1048576	60	110327
2026-01-05 11:34:37.38	40.28	6.00	-52.4	-67.7	3.6	1.51e+00	0	22	104	1048576	60	118696
2026-01-05 11:34:38.39	40.42	6.03	-51.9	-67.2	3.6	1.51e+00	0	22	104	1048576	60	111728
2026-01-05 11:34:39.40	40.56	6.06	-51.8	-67.2	3.6	1.51e+00	0	22	104	1048576	60	111785
2026-01-05 11:34:40.41	40.71	6.09	-52.6	-68.0	3.6	1.51e+00	0	22	104	1048576	60	122476
2026-01-05 11:34:41.42	40.85	6.12	-53.3	-68.7	3.6	1.51e+00	0	22	104	1048576	60	132535
2026-01-05 11:34:42.43	41.00	6.15	-52.2	-67.6	3.6	1.51e+00	0	22	104	1048576	60	116799
2026-01-05 11:34:43.44	41.14	6.18	-51.6	-67.0	3.6	1.51e+00	0	22	104	1048576	60	108835
2026-01-05 11:34:44.46	41.29	6.21	-52.4	-67.8	3.6	1.51e+00	0	22	104	1048576	60	119307
2026-01-05 11:34:45.47	41.43	6.24	-53.0	-68.3	3.6	1.51e+00	0	22	104	1048576	60	127428
2026-01-05 11:34:46.48	41.58	6.27	-52.6	-68.0	3.6	1.51e+00	0	22	104	1048576	60	121995
2026-01-05 11:34:47.49	41.72	6.30	-51.9	-67.2	3.6	1.51e+00	0	22	104	1048576	60	112206
2026-01-05 11:34:48.50	41.87	6.33	-51.8	-67.2	3.6	1.51e+00	0	22	104	1048576	60	111386
2026-01-05 11:34:49.51	42.02	6.36	-51.6	-66.9	3.6	1.51e+00	0	22	104	1048576	60	108057
2026-01-05 11:34:50.52	42.16	6.39	-52.3	-67.6	3.6	1.51e+00	0	22	104	1048576	60	116783
2026-01-05 11:34:51.54	42.31	6.42	-52.1	-67.5	3.6	1.51e+00	0	22	104	1048576	60	115617
2026-01-05 11:34:52.55	42.46	6.45	-51.8	-67.1	3.6	1.51e+00	0	22	104	1048576	60	110421
2026-01-05 11:34:53.56	42.61	6.48	-51.4	-66.9	3.6	1.51e+00	0	22	104	1048576	60	107293
2026-01-05 11:34:54.57	42.75	6.51	-51.6	-66.8	3.6	1.51e+00	0	22	104	1048576	60	106383
2026-01-05 11:34:55.58	42.90	6.54	-51.2	-66.4	3.6	1.51e+00	0	22	104	1048576	60	102407
2026-01-05 11:34:56.59	43.05	6.57	-51.7	-66.9	3.6	1.51e+00	0	21	104	1048576	60	108508
2026-01-05 11:34:57.61	43.20	6.59	-51.3	-66.5	3.6	1.51e+00	0	22	104	1048576	60	102470
2026-01-05 11:34:58.62	43.35	6.62	-52.6	-67.8	3.6	1.51e+00	0	22	104	1048576	60	119069
2026-01-05 11:34:59.63	43.50	6.65	-52.3	-67.7	3.6	1.51e+00	0	22	104	1048576	60	118769
2026-01-05 11:35:00.64	43.65	6.68	-52.3	-67.6	3.6	1.51e+00	0	22	104	1048576	60	117415
2026-01-05 11:35:01.65	43.80	6.71	-53.0	-68.4	3.6	1.51e+00	0	22	104	1048576	60	127618
2026-01-05 11:35:02.66	43.95	6.74	-52.0	-67.3	3.5	1.51e+00	0	22	104	1048576	60	113353
2026-01-05 11:35:03.67	44.10	6.76	-52.2	-67.6	3.6	1.51e+00	0	22	104	1048576	60	117526
2026-01-05 11:35:04.68	44.25	6.79	-51.7	-67.1	3.6	1.51e+00	0	22	104	1048576	60	109937
2026-01-05 11:35:05.69	44.40	6.82	-52.0	-67.4	3.6	1.51e+00	0	22	104	1048576	60	113712
2026-01-05 11:35:06.70	44.55	6.85	-51.5	-66.8	3.6	1.51e+00	0	22	104	1048576	60	106871
2026-01-05 11:35:07.71	44.70	6.87	-51.4	-66.8	3.6	1.51e+00	0	22	104	1048576	60	106575
2026-01-05 11:35:08.72	44.86	6.90	-52.9	-68.3	3.6	1.51e+00	0	22	104	1048576	60	126445
2026-01-05 11:35:09.74	45.01	6.93	-52.0	-67.4	3.6	1.51e+00	0	22	104	1048576	60	114608
2026-01-05 11:35:10.75	45.16	6.96	-52.5	-67.8	3.6	1.51e+00	0	22	104	1048576	60	119810
2026-01-05 11:35:11.76	45.32	6.98	-51.6	-66.9	3.6	1.51e+00	0	22	104	1048576	60	107918
2026-01-05 11:35:12.77	45.47	7.01	-52.6	-68.0	3.6	1.51e+00	0	21	104	1048576	60	122098
2026-01-05 11:35:13.78	45.62	7.04	-51.5	-66.8	3.6	1.51e+00	0	22	104	1048576	60	107241
2026-01-05 11:35:14.79	45.77	7.06	-51.7	-67.1	3.6	1.51e+00	0	22	104	1048576	60	110706
2026-01-05 11:35:15.80	45.93	7.09	-51.4	-66.9	3.6	1.51e+00	0	22	104	1048576	60	107561
2026-01-05 11:35:16.81	46.08	7.11	-51.4	-66.7	3.6	1.51e+00	0	21	104	1048576	60	105991
2026-01-05 11:35:17.82	46.24	7.14	-51.5	-66.9	3.6	1.51e+00	0	22	104	1048576	60	107787
2026-01-05 11:35:18.84	46.39	7.17	-51.2	-66.6	3.6	1.51e+00	0	22	104	1048576	60	104444
2026-01-05 11:35:19.85	46.55	7.19	-51.1	-66.5	3.6	1.51e+00	0	22	104	1048576	60	102960
2026-01-05 11:35:20.86	46.70	7.22	-51.1	-66.4	3.6	1.51e+00	0	22	104	1048576	60	102380
2026-01-05 11:35:21.87	46.86	7.24	-51.1	-66.5	3.6	1.51e+00	0	22	104	1048576	60	102596
2026-01-05 11:35:22.88	47.01	7.27	-51.1	-66.5	3.6	1.51e+00	0	22	104	1048576	60	103129
2026-01-05 11:35:23.89	47.17	7.29	-51.0	-66.3	3.6	1.51e+00	0	22	104	1048576	60	101154
2026-01-05 11:35:24.90	47.33	7.32	-50.8	-66.2	3.6	1.51e+00	0	22	104	1048576	60	100071
2026-01-05 11:35:25.91	47.48	7.34	-50.7	-66.1	3.6	1.51e+00	0	22	104	1048576	60	98160
2026-01-05 11:35:26.92	47.64	7.37	-50.4	-65.6	3.6	1.51e+00	0	22	104	1048576	60	92966
2026-01-05 11:35:27.93	47.80	7.39	-47.0	-50.1	14.1	1.50e-06	0	21	0	1048576	60	15626
2026-01-05 11:35:28.95	47.95	7.42	-49.2	-55.4	8.4	1.53e-03	0	21	0	1048576	60	28866
2026-01-05 11:35:29.96	48.11	7.44	-50.3	-63.2	3.8	5.63e-01	0	22	104	1048576	60	70199
2026-01-05 11:35:30.97	48.27	7.46	-50.2	-64.6	3.6	7.36e-01	0	21	104	1048576	60	82507
2026-01-05 11:35:31.98	48.43	7.49	-49.2	-55.7	4.9	1.13e+00	8	22	104	1048576	60	29732
2026-01-05 11:35:32.99	48.59	7.51	-44.3	-46.0	18.9	3.47e-04	0	22	0	1048576	60	9770
2026-01-05 11:35:34.00	48.74	7.53	-50.3	-65.3	3.6	1.15e+00	0	22	104	1048576	60	89689
2026-01-05 11:35:35.01	48.90	7.56	-43.8	-45.4	18.4	1.28e+00	26	21	104	1048576	60	9059
2026-01-05 11:35:36.02	49.06	7.58	-43.8	-45.4	19.6	0.00e+00	0	22	0	1048576	60	9047
2026-01-05 11:35:37.04	49.22	7.60	-42.9	-44.3	20.3	0.00e+00	0	21	0	1048576	60	7990
2026-01-05 11:35:38.05	49.38	7.63	-42.7	-44.0	20.6	0.00e+00	0	22	0	1048576	60	7748
2026-01-05 11:35:39.06	49.54	7.65	-42.7	-44.0	20.6	0.00e+00	0	22	0	1048576	60	7713
2026-01-05 11:35:40.07	49.70	7.67	-42.9	-44.3	20.4	0.00e+00	0	21	0	1048576	60	7996
2026-01-05 11:35:41.08	49.86	7.69	-42.9	-44.2	20.4	0.00e+00	0	22	0	1048576	60	7922
2026-01-05 11:35:42.09	50.02	7.72	-42.7	-44.1	20.5	0.00e+00	0	21	0	1048576	60	7791
2026-01-05 11:35:43.10	50.18	7.74	-42.9	-44.2	20.4	0.00e+00	0	21	0	1048576	60	7930
2026-01-05 11:35:44.11	50.34	7.76	-42.9	-44.2	20.4	0.00e+00	0	21	0	1048576	60	7946
2026-01-05 11:35:45.12	50.50	7.78	-42.9	-44.3	20.4	0.00e+00	0	22	0	1048576	60	7979
2026-01-05 11:35:46.14	50.67	7.80	-42.9	-44.2	20.4	0.00e+00	0	21	0	1048576	60	7933
2026-01-05 11:35:47.15	50.83	7.82	-42.9	-44.3	20.4	0.00e+00	0	22	0	1048576	60	7977
2026-01-05 11:35:48.16	50.99	7.84	-42.9	-44.3	20.3	0.00e+00	0	22	0	1048576	60	7988
2026-01-05 11:35:49.17	51.15	7.87	-42.9	-44.3	20.4	0.00e+00	0	22	0	1048576	60	7986
2026-01-05 11:35:50.18	51.31	7.89	-43.0	-44.4	20.4	0.00e+00	0	22	0	1048576	60	8065
2026-01-05 11:35:51.19	51.48	7.91	-43.0	-44.3	20.3	0.00e+00	0	22	0	1048576	60	8016
2026-01-05 11:35:52.20	51.64	7.93	-43.0	-44.3	20.3	0.00e+00	0	21	0	1048576	60	8036
2026-01-05 11:35:53.21	51.80	7.95	-42.8	-44.1	20.5	0.00e+00	0	21	0	1048576	60	7859
2026-01-05 11:35:54.23	51.97	7.97	-42.7	-44.1	20.6	0.00e+00	0	22	101	1048576	60	7783
2026-01-05 11:35:55.24	52.13	7.99	-43.1	-44.5	20.3	0.00e+00	0	22	101	1048576	60	8181
2026-01-05 11:35:56.25	52.29	8.01	-42.7	-44.1	20.6	0.00e+00	0	22	101	1048576	60	7789
2026-01-05 11:35:57.26	52.46	8.03	-42.8	-44.2	20.5	0.00e+00	0	22	101	1048576	60	7889
2026-01-05 11:35:58.27	52.62	8.05	-43.1	-44.5	20.1	0.00e+00	0	22	101	1048576	60	8168
2026-01-05 11:35:59.28	52.79	8.06	-42.8	-44.2	20.5	0.00e+00	0	22	101	1048576	60	7867
2026-01-05 11:36:00.29	52.95	8.08	-42.7	-44.0	20.7	0.00e+00	0	22	101	1048576	60	7747
2026-01-05 11:36:01.30	53.11	8.10	-42.7	-44.0	20.6	0.00e+00	0	21	101	1048576	60	7717
2026-01-05 11:36:02.31	53.28	8.12	-42.8	-44.1	20.5	0.00e+00	0	22	101	1048576	60	7812
2026-01-05 11:36:03.32	53.44	8.14	-42.8	-44.1	20.6	0.00e+00	0	21	101	1048576	60	7840
2026-01-05 11:36:04.34	53.61	8.16	-42.7	-44.0	20.6	0.00e+00	0	22	101	1048576	60	7759
2026-01-05 11:36:05.35	53.78	8.17	-42.8	-44.2	20.6	0.00e+00	0	22	101	1048576	60	7879
2026-01-05 11:36:06.36	53.94	8.19	-42.9	-44.2	20.5	0.00e+00	0	21	101	1048576	60	7929
2026-01-05 11:36:07.37	54.11	8.21	-42.9	-44.3	20.6	0.00e+00	0	21	101	1048576	60	7966
2026-01-05 11:36:08.38	54.27	8.23	-42.8	-44.1	20.4	0.00e+00	0	22	101	1048576	60	7837
2026-01-05 11:36:09.39	54.44	8.24	-42.8	-44.2	20.6	0.00e+00	0	22	101	1048576	60	7872
2026-01-05 11:36:10.40	54.61	8.26	-42.9	-44.2	20.4	0.00e+00	0	22	101	1048576	60	7913
2026-01-05 11:36:11.41	54.77	8.28	-42.8	-44.2	20.4	0.00e+00	0	22	101	1048576	60	7892
2026-01-05 11:36:12.42	54.94	8.29	-43.0	-44.4	20.4	0.00e+00	0	21	101	1048576	60	8070
2026-01-05 11:36:13.44	55.11	8.31	-42.9	-44.2	20.4	0.00e+00	0	21	101	1048576	60	7946
2026-01-05 11:36:14.45	55.28	8.33	-42.9	-44.3	20.3	0.00e+00	0	22	101	1048576	60	7977
2026-01-05 11:36:15.46	55.44	8.34	-43.1	-44.5	20.2	0.00e+00	0	21	101	1048576	60	8177
2026-01-05 11:36:16.47	55.61	8.36	-42.9	-44.3	20.3	0.00e+00	0	22	101	1048576	60	7982
2026-01-05 11:36:17.48	55.78	8.37	-42.7	-44.1	20.7	0.00e+00	0	21	101	1048576	60	7783
2026-01-05 11:36:18.49	55.95	8.39	-42.8	-44.1	20.7	0.00e+00	0	21	101	1048576	60	7820
2026-01-05 11:36:19.50	56.11	8.41	-42.6	-43.9	20.6	0.00e+00	0	21	101	1048576	60	7601
2026-01-05 11:36:20.51	56.28	8.42	-42.8	-44.1	20.7	0.00e+00	0	21	101	1048576	60	7809
2026-01-05 11:36:21.52	56.45	8.43	-42.8	-44.1	20.6	0.00e+00	0	21	101	1048576	60	7813
2026-01-05 11:36:22.54	56.62	8.45	-42.8	-44.2	20.5	0.00e+00	0	21	101	1048576	60	7899
2026-01-05 11:36:23.55	56.79	8.46	-43.0	-44.3	20.4	0.00e+00	0	21	101	1048576	60	8020
2026-01-05 11:36:24.56	56.96	8.48	-42.9	-44.2	20.4	0.00e+00	0	21	101	1048576	60	7905
2026-01-05 11:36:25.57	57.13	8.49	-43.1	-44.4	20.3	0.00e+00	0	21	101	1048576	60	8123
2026-01-05 11:36:26.58	57.30	8.51	-43.1	-44.5	20.2	0.00e+00	0	21	101	1048576	60	8181
2026-01-05 11:36:27.59	57.47	8.52	-43.2	-44.7	20.0	0.00e+00	0	21	101	1048576	60	8332
2026-01-05 11:36:28.60	57.63	8.53	-43.4	-44.8	19.9	0.00e+00	0	21	101	1048576	60	8486
2026-01-05 11:36:29.61	57.80	8.55	-43.4	-44.8	19.9	0.00e+00	0	21	101	1048576	60	8464
2026-01-05 11:36:30.62	57.97	8.56	-43.6	-45.1	19.7	0.00e+00	0	21	101	1048576	60	8749
2026-01-05 11:36:31.64	58.15	8.57	-43.4	-44.8	19.9	0.00e+00	0	21	101	1048576	60	8482
2026-01-05 11:36:32.65	58.32	8.58	-43.6	-45.0	19.6	0.00e+00	0	21	101	1048576	60	8720
2026-01-05 11:36:33.66	58.49	8.60	-43.8	-45.4	19.5	0.00e+00	0	22	101	1048576	60	9037
2026-01-05 11:36:34.67	58.66	8.61	-43.7	-45.3	19.4	0.00e+00	0	21	101	1048576	60	8925
2026-01-05 11:36:35.68	58.83	8.62	-43.9	-45.4	19.2	0.00e+00	0	21	101	1048576	60	9112
2026-01-05 11:36:36.69	59.00	8.63	-43.8	-45.3	19.5	0.00e+00	0	21	101	1048576	60	8960
2026-01-05 11:36:37.70	59.17	8.64	-43.7	-45.3	19.5	0.00e+00	0	21	101	1048576	60	8942
2026-01-05 11:36:38.71	59.34	8.65	-43.3	-44.8	19.9	0.00e+00	0	21	101	1048576	60	8438
2026-01-05 11:36:39.72	59.51	8.67	-43.3	-44.7	20.0	0.00e+00	0	21	101	1048576	60	8385
2026-01-05 11:36:40.73	59.68	8.68	-43.4	-44.8	19.9	0.00e+00	0	21	101	1048576	60	8507
2026-01-05 11:36:41.74	59.85	8.69	-43.3	-44.7	20.1	0.00e+00	0	21	101	1048576	60	8351
2026-01-05 11:36:42.76	60.02	8.70	-43.2	-44.6	20.1	0.00e+00	0	21	101	1048576	60	8234
2026-01-05 11:36:43.77	60.20	8.71	-43.1	-44.5	20.0	0.00e+00	0	21	101	1048576	60	8195
2026-01-05 11:36:44.78	60.37	8.72	-43.3	-44.7	19.7	0.00e+00	0	21	101	1048576	60	8401
2026-01-05 11:36:45.79	60.54	8.73	-43.8	-45.4	19.8	0.00e+00	0	21	101	1048576	60	9085
2026-01-05 11:36:46.80	60.71	8.74	-43.7	-45.2	19.5	0.00e+00	0	22	101	1048576	60	8924
2026-01-05 11:36:47.81	60.88	8.75	-43.9	-45.5	19.2	0.00e+00	0	22	101	1048576	60	9143
2026-01-05 11:36:48.82	61.06	8.75	-43.8	-45.4	19.3	0.00e+00	0	22	101	1048576	60	9083
2026-01-05 11:36:49.83	61.23	8.76	-43.9	-45.5	19.2	0.00e+00	0	22	101	1048576	60	9184
2026-01-05 11:36:50.84	61.40	8.77	-43.8	-45.3	19.4	0.00e+00	0	22	101	1048576	60	8995
2026-01-05 11:36:51.85	61.57	8.78	-43.9	-45.5	19.3	0.00e+00	0	21	101	1048576	60	9176
2026-01-05 11:36:52.86	61.74	8.79	-44.0	-45.5	19.3	0.00e+00	0	21	101	1048576	60	9220
2026-01-05 11:36:53.87	61.92	8.80	-43.7	-45.3	19.6	0.00e+00	0	21	101	1048576	60	8940
2026-01-05 11:36:54.89	62.09	8.80	-43.6	-45.1	19.6	0.00e+00	0	22	101	1048576	60	8789
2026-01-05 11:36:55.89	62.26	8.81	-43.6	-45.0	19.7	0.00e+00	0	21	101	1048576	60	8708
2026-01-05 11:36:56.91	62.44	8.82	-43.4	-44.9	19.8	0.00e+00	0	22	101	1048576	60	8559
2026-01-05 11:36:57.92	62.61	8.83	-43.7	-45.2	19.6	0.00e+00	0	22	101	1048576	60	8851
2026-01-05 11:36:58.93	62.78	8.83	-43.3	-44.7	20.0	0.00e+00	0	21	101	1048576	60	8418
2026-01-05 11:36:59.94	62.96	8.84	-43.1	-44.5	20.3	0.00e+00	0	21	101	1048576	60	8154
2026-01-05 11:37:00.95	63.13	8.85	-43.3	-44.7	20.1	0.00e+00	0	22	101	1048576	60	8363
2026-01-05 11:37:01.96	63.30	8.85	-43.0	-44.4	20.5	0.00e+00	0	21	101	1048576	60	8079
2026-01-05 11:37:02.97	63.48	8.86	-43.0	-44.4	20.4	0.00e+00	0	22	101	1048576	60	8091
2026-01-05 11:37:03.99	63.65	8.86	-42.9	-44.2	20.4	0.00e+00	0	22	101	1048576	60	7930
2026-01-05 11:37:05.00	63.82	8.87	-43.0	-44.4	20.5	0.00e+00	0	22	101	1048576	60	8066
2026-01-05 11:37:06.01	64.00	8.87	-42.9	-44.2	20.5	0.00e+00	0	22	101	1048576	60	7920
2026-01-05 11:37:07.02	64.17	8.88	-43.0	-44.3	20.5	0.00e+00	0	22	101	1048576	60	8007
2026-01-05 11:37:08.03	64.34	8.88	-43.0	-44.4	20.3	0.00e+00	0	22	101	1048576	60	8048
2026-01-05 11:37:09.04	64.52	8.89	-43.1	-44.5	20.3	0.00e+00	0	21	101	1048576	60	8144
2026-01-05 11:37:10.05	64.69	8.89	-43.1	-44.4	20.3	0.00e+00	0	21	101	1048576	60	8109
2026-01-05 11:37:11.07	64.87	8.90	-43.3	-44.7	19.9	0.00e+00	0	22	101	1048576	60	8345
2026-01-05 11:37:12.08	65.04	8.90	-43.0	-44.4	20.4	0.00e+00	0	21	101	1048576	60	8092
2026-01-05 11:37:13.09	65.21	8.91	-42.9	-44.3	20.3	0.00e+00	0	22	101	1048576	60	7987
2026-01-05 11:37:14.10	65.39	8.91	-42.9	-44.3	20.4	0.00e+00	0	21	101	1048576	60	7991
2026-01-05 11:37:15.11	65.56	8.91	-42.9	-44.2	20.4	0.00e+00	0	21	101	1048576	60	7908
2026-01-05 11:37:16.12	65.74	8.91	-42.8	-44.1	20.6	0.00e+00	0	21	101	1048576	60	7860
2026-01-05 11:37:17.13	65.91	8.92	-42.6	-43.8	20.9	0.00e+00	0	21	101	1048576	60	7575
2026-01-05 11:37:18.14	66.08	8.92	-42.4	-43.6	21.0	0.00e+00	0	21	101	1048576	60	7390
2026-01-05 11:37:19.15	66.26	8.92	-42.2	-43.5	21.3	0.00e+00	0	22	101	1048576	60	7254
2026-01-05 11:37:20.16	66.43	8.92	-42.3	-43.5	21.2	0.00e+00	0	21	101	1048576	60	7269
2026-01-05 11:37:21.17	66.61	8.93	-42.2	-43.4	21.3	0.00e+00	0	21	101	1048576	60	7233
2026-01-05 11:37:22.19	66.78	8.93	-42.1	-43.3	21.2	0.00e+00	0	21	101	1048576	60	7157
2026-01-05 11:37:23.20	66.96	8.93	-42.4	-43.6	21.3	0.00e+00	0	21	101	1048576	60	7373
2026-01-05 11:37:24.21	67.13	8.93	-42.2	-43.4	21.1	0.00e+00	0	22	101	1048576	60	7222
2026-01-05 11:37:25.22	67.31	8.93	-42.2	-43.4	21.2	0.00e+00	0	22	101	1048576	60	7207
2026-01-05 11:37:26.23	67.48	8.93	-42.3	-43.5	21.2	0.00e+00	0	22	101	1048576	60	7331
2026-01-05 11:37:27.24	67.65	8.93	-42.3	-43.5	21.1	0.00e+00	0	21	101	1048576	60	7332
2026-01-05 11:37:28.25	67.83	8.93	-42.4	-43.6	21.1	0.00e+00	0	21	101	1048576	60	7374
2026-01-05 11:37:29.26	68.00	8.93	-42.4	-43.7	21.0	0.00e+00	0	22	101	1048576	60	7433
2026-01-05 11:37:30.27	68.18	8.93	-42.3	-43.5	21.2	0.00e+00	0	22	101	1048576	60	7323
2026-01-05 11:37:31.29	68.35	8.93	-42.1	-43.3	21.4	0.00e+00	0	22	101	1048576	60	7141
2026-01-05 11:37:32.30	68.53	8.93	-42.1	-43.3	21.3	0.00e+00	0	21	101	1048576	60	7144
2026-01-05 11:37:33.31	68.70	8.93	-41.9	-43.1	21.5	0.00e+00	0	21	101	1048576	60	6939
2026-01-05 11:37:34.32	68.87	8.93	-41.8	-43.0	21.6	0.00e+00	0	21	101	1048576	60	6858
2026-01-05 11:37:35.33	69.05	8.93	-41.6	-42.7	21.6	0.00e+00	0	22	101	1048576	60	6676
2026-01-05 11:37:36.34	69.22	8.93	-41.7	-42.8	21.7	0.00e+00	0	22	101	1048576	60	6740
2026-01-05 11:37:37.35	69.40	8.93	-41.6	-42.7	21.8	0.00e+00	0	22	101	1048576	60	6688
2026-01-05 11:37:38.36	69.57	8.92	-41.6	-42.7	21.9	0.00e+00	0	22	101	1048576	60	6670
2026-01-05 11:37:39.38	69.75	8.92	-41.6	-42.7	21.8	0.00e+00	0	22	101	1048576	60	6677
2026-01-05 11:37:40.39	69.92	8.92	-41.7	-42.8	21.7	0.00e+00	0	22	101	1048576	60	6759
2026-01-05 11:37:41.40	70.10	8.92	-41.7	-42.8	21.8	0.00e+00	0	22	101	1048576	60	6725
2026-01-05 11:37:42.41	70.27	8.91	-41.8	-43.0	21.6	0.00e+00	0	22	101	1048576	60	6870
2026-01-05 11:37:43.42	70.44	8.91	-41.7	-42.9	21.8	0.00e+00	0	22	101	1048576	60	6775
2026-01-05 11:37:44.43	70.62	8.91	-41.8	-42.9	21.7	0.00e+00	0	22	101	1048576	60	6832
2026-01-05 11:37:45.44	70.79	8.90	-41.7	-42.8	21.8	0.00e+00	0	22	101	1048576	60	6762
2026-01-05 11:37:46.45	70.97	8.90	-42.1	-43.3	21.3	0.00e+00	0	22	101	1048576	60	7102
2026-01-05 11:37:47.46	71.14	8.89	-41.7	-42.8	21.8	0.00e+00	0	22	101	1048576	60	6740
2026-01-05 11:37:48.47	71.31	8.89	-41.7	-42.8	21.8	0.00e+00	0	22	101	1048576	60	6761
2026-01-05 11:37:49.49	71.49	8.89	-41.7	-42.9	21.7	0.00e+00	0	22	101	1048576	60	6781
2026-01-05 11:37:50.50	71.66	8.88	-42.2	-43.5	21.1	0.00e+00	0	22	101	1048576	60	7255
2026-01-05 11:37:51.51	71.84	8.88	-42.2	-43.4	21.4	0.00e+00	0	22	101	1048576	60	7186
2026-01-05 11:37:52.52	72.01	8.87	-42.1	-43.3	21.1	0.00e+00	0	22	101	1048576	60	7139
2026-01-05 11:37:53.53	72.18	8.87	-41.6	-42.8	21.7	0.00e+00	0	22	101	1048576	60	6697
2026-01-05 11:37:54.54	72.36	8.86	-41.9	-43.1	21.6	0.00e+00	0	22	101	1048576	60	6951
2026-01-05 11:37:55.55	72.53	8.85	-41.7	-42.9	21.7	0.00e+00	0	22	101	1048576	60	6789
2026-01-05 11:37:56.56	72.70	8.85	-41.6	-42.8	21.8	0.00e+00	0	22	101	1048576	60	6715
2026-01-05 11:37:57.57	72.88	8.84	-41.7	-42.8	21.7	0.00e+00	0	22	101	1048576	60	6719
2026-01-05 11:37:58.59	73.05	8.83	-41.8	-42.9	21.6	0.00e+00	0	22	101	1048576	60	6843
2026-01-05 11:37:59.60	73.22	8.83	-41.8	-43.0	21.6	0.00e+00	0	22	101	1048576	60	6855
2026-01-05 11:38:00.61	73.40	8.82	-42.0	-43.2	21.5	0.00e+00	0	22	101	1048576	60	7060
2026-01-05 11:38:01.61	73.57	8.81	-41.7	-42.9	21.8	0.00e+00	0	22	101	1048576	60	6796
2026-01-05 11:38:02.63	73.74	8.81	-41.6	-42.7	21.8	0.00e+00	0	22	101	1048576	60	6654
2026-01-05 11:38:03.64	73.92	8.80	-41.8	-42.9	21.7	0.00e+00	0	22	101	1048576	60	6832
2026-01-05 11:38:04.65	74.09	8.79	-41.5	-42.6	21.9	0.00e+00	0	22	101	1048576	60	6583
2026-01-05 11:38:05.66	74.26	8.78	-41.6	-42.8	21.8	0.00e+00	0	22	101	1048576	60	6712
2026-01-05 11:38:06.67	74.43	8.77	-41.7	-42.8	21.8	0.00e+00	0	22	101	1048576	60	6753
2026-01-05 11:38:07.68	74.61	8.77	-41.7	-42.8	21.8	0.00e+00	0	22	101	1048576	60	6748
2026-01-05 11:38:08.70	74.78	8.76	-41.7	-42.8	21.7	0.00e+00	0	22	101	1048576	60	6748
2026-01-05 11:38:09.71	74.95	8.75	-41.9	-43.0	21.5	0.00e+00	0	22	101	1048576	60	6905
2026-01-05 11:38:10.72	75.13	8.74	-41.9	-43.1	21.5	0.00e+00	0	22	101	1048576	60	6995
2026-01-05 11:38:11.73	75.30	8.73	-41.9	-43.1	21.5	0.00e+00	0	22	101	1048576	60	6958
2026-01-05 11:38:12.74	75.47	8.72	-41.8	-43.0	21.5	0.00e+00	0	22	101	1048576	60	6877
2026-01-05 11:38:13.75	75.64	8.71	-41.8	-43.0	21.6	0.00e+00	0	22	101	1048576	60	6873
2026-01-05 11:38:14.76	75.81	8.70	-41.7	-42.8	21.7	0.00e+00	0	22	101	1048576	60	6754
2026-01-05 11:38:15.77	75.98	8.69	-41.9	-43.0	21.6	0.00e+00	0	22	101	1048576	60	6912
2026-01-05 11:38:16.78	76.16	8.68	-41.9	-43.1	21.6	0.00e+00	0	22	101	1048576	60	6952
2026-01-05 11:38:17.80	76.33	8.67	-41.9	-43.1	21.5	0.00e+00	0	22	101	1048576	60	7003
2026-01-05 11:38:18.81	76.50	8.66	-41.9	-43.1	21.5	0.00e+00	0	22	101	1048576	60	6960
2026-01-05 11:38:19.82	76.67	8.65	-42.0	-43.2	21.5	0.00e+00	0	22	101	1048576	60	7054
2026-01-05 11:38:20.83	76.84	8.63	-42.1	-43.4	21.3	0.00e+00	0	22	101	1048576	60	7194
2026-01-05 11:38:21.84	77.01	8.62	-41.9	-43.2	21.4	0.00e+00	0	22	101	1048576	60	7034
2026-01-05 11:38:22.85	77.18	8.61	-41.9	-43.2	21.2	0.00e+00	0	22	101	1048576	60	7066
2026-01-05 11:38:23.86	77.35	8.60	-41.9	-43.2	21.4	0.00e+00	0	22	101	1048576	60	7061
2026-01-05 11:38:24.87	77.52	8.59	-42.0	-43.3	21.4	0.00e+00	0	21	101	1048576	60	7125
2026-01-05 11:38:25.88	77.70	8.57	-41.8	-43.0	21.5	0.00e+00	0	21	101	1048576	60	6876
2026-01-05 11:38:26.89	77.87	8.56	-41.6	-42.8	21.8	0.00e+00	0	21	101	1048576	60	6703
2026-01-05 11:38:27.91	78.04	8.55	-41.7	-42.9	21.7	0.00e+00	0	22	101	1048576	60	6799
2026-01-05 11:38:28.92	78.21	8.54	-42.0	-43.2	21.5	0.00e+00	0	22	101	1048576	60	7030
2026-01-05 11:38:29.93	78.38	8.52	-41.7	-42.9	21.7	0.00e+00	0	22	101	1048576	60	6811
2026-01-05 11:38:30.94	78.55	8.51	-41.6	-42.8	21.8	0.00e+00	0	22	101	1048576	60	6725
2026-01-05 11:38:31.95	78.72	8.49	-41.8	-43.0	21.7	0.00e+00	0	22	101	1048576	60	6880
2026-01-05 11:38:32.96	78.89	8.48	-41.9	-43.1	21.5	0.00e+00	0	22	101	1048576	60	6934
2026-01-05 11:38:33.97	79.05	8.47	-41.8	-43.0	21.6	0.00e+00	0	21	101	1048576	60	6899
2026-01-05 11:38:34.99	79.22	8.45	-41.9	-43.1	21.6	0.00e+00	0	22	101	1048576	60	6964
2026-01-05 11:38:36.00	79.39	8.44	-42.2	-43.5	21.3	0.00e+00	0	22	101	1048576	60	7267
2026-01-05 11:38:37.01	79.56	8.42	-42.1	-43.4	21.3	0.00e+00	0	21	101	1048576	60	7214
2026-01-05 11:38:38.02	79.73	8.41	-42.1	-43.4	21.2	0.00e+00	0	22	101	1048576	60	7223
2026-01-05 11:38:39.03	79.90	8.39	-42.0	-43.3	21.4	0.00e+00	0	22	101	1048576	60	7112
2026-01-05 11:38:40.04	80.07	8.38	-42.3	-43.6	21.0	0.00e+00	0	22	101	1048576	60	7356
2026-01-05 11:38:41.05	80.24	8.36	-42.0	-43.3	21.2	0.00e+00	0	22	101	1048576	60	7113
2026-01-05 11:38:42.06	80.40	8.35	-41.9	-43.2	21.4	0.00e+00	0	22	101	1048576	60	7026
2026-01-05 11:38:43.07	80.57	8.33	-42.1	-43.3	21.1	0.00e+00	0	22	101	1048576	60	7148
2026-01-05 11:38:44.09	80.74	8.31	-41.8	-43.0	21.7	0.00e+00	0	22	101	1048576	60	6863
2026-01-05 11:38:45.10	80.91	8.30	-41.5	-42.6	22.0	0.00e+00	0	22	101	1048576	60	6613
2026-01-05 11:38:46.11	81.07	8.28	-41.6	-42.8	21.8	0.00e+00	0	22	101	1048576	60	6733
2026-01-05 11:38:47.12	81.24	8.26	-41.5	-42.7	21.8	0.00e+00	0	22	101	1048576	60	6670
2026-01-05 11:38:48.13	81.41	8.25	-41.3	-42.5	21.9	0.00e+00	0	22	101	1048576	60	6514
2026-01-05 11:38:49.14	81.57	8.23	-41.3	-42.5	21.8	0.00e+00	0	21	101	1048576	60	6471
2026-01-05 11:38:50.15	81.74	8.21	-41.7	-42.8	21.9	0.00e+00	0	22	101	1048576	60	6755
2026-01-05 11:38:51.16	81.91	8.19	-41.4	-42.5	22.1	0.00e+00	0	22	101	1048576	60	6531
2026-01-05 11:38:52.17	82.07	8.18	-41.4	-42.5	22.0	0.00e+00	0	22	101	1048576	60	6508
2026-01-05 11:38:53.18	82.24	8.16	-41.4	-42.5	22.1	0.00e+00	0	21	101	1048576	60	6516
2026-01-05 11:38:54.20	82.41	8.14	-41.5	-42.6	22.4	0.00e+00	0	22	101	1048576	60	6587
2026-01-05 11:38:55.21	82.57	8.12	-41.3	-42.4	22.3	0.00e+00	0	22	101	1048576	60	6398
2026-01-05 11:38:56.22	82.74	8.10	-41.4	-42.5	22.2	0.00e+00	0	22	101	1048576	60	6476
2026-01-05 11:38:57.23	82.90	8.09	-41.2	-42.3	22.2	0.00e+00	0	22	101	1048576	60	6366
2026-01-05 11:38:58.24	83.07	8.07	-41.5	-42.7	21.9	0.00e+00	0	21	101	1048576	60	6635
2026-01-05 11:38:59.25	83.23	8.05	-41.5	-42.6	21.9	0.00e+00	0	22	101	1048576	60	6591
2026-01-05 11:39:00.26	83.40	8.03	-41.4	-42.6	22.1	0.00e+00	0	22	101	1048576	60	6545
2026-01-05 11:39:01.27	83.56	8.01	-41.6	-42.7	21.8	0.00e+00	0	21	101	1048576	60	6662
2026-01-05 11:39:02.29	83.73	7.99	-41.7	-42.8	21.8	0.00e+00	0	22	101	1048576	60	6716
2026-01-05 11:39:03.30	83.89	7.97	-41.6	-42.7	21.9	0.00e+00	0	22	101	1048576	60	6636
2026-01-05 11:39:04.31	84.05	7.95	-41.6	-42.7	21.9	0.00e+00	0	22	101	1048576	60	6632
2026-01-05 11:39:05.32	84.22	7.93	-41.5	-42.7	21.8	0.00e+00	0	22	101	1048576	60	6633
2026-01-05 11:39:06.33	84.38	7.91	-41.7	-42.9	21.6	0.00e+00	0	22	101	1048576	60	6807
2026-01-05 11:39:07.34	84.54	7.89	-42.0	-43.2	21.3	0.00e+00	0	22	101	1048576	60	7018
2026-01-05 11:39:08.35	84.70	7.87	-41.6	-42.7	21.6	0.00e+00	0	22	101	1048576	60	6662
2026-01-05 11:39:09.36	84.87	7.85	-41.6	-42.8	21.6	0.00e+00	0	22	101	1048576	60	6705
2026-01-05 11:39:10.37	85.03	7.83	-41.7	-42.9	21.5	0.00e+00	0	22	101	1048576	60	6770
2026-01-05 11:39:11.38	85.19	7.80	-41.8	-43.0	21.5	0.00e+00	0	22	101	1048576	60	6905
2026-01-05 11:39:12.40	85.35	7.78	-41.5	-42.7	21.8	0.00e+00	0	22	101	1048576	60	6639
2026-01-05 11:39:13.41	85.52	7.76	-41.6	-42.7	21.7	0.00e+00	0	22	101	1048576	60	6662
2026-01-05 11:39:14.42	85.68	7.74	-41.4	-42.5	21.6	0.00e+00	0	22	101	1048576	60	6525
2026-01-05 11:39:15.43	85.84	7.72	-41.2	-42.3	22.2	0.00e+00	0	22	101	1048576	60	6372
2026-01-05 11:39:16.44	86.00	7.69	-41.2	-42.3	22.2	0.00e+00	0	22	101	1048576	60	6354
2026-01-05 11:39:17.45	86.16	7.67	-41.1	-42.2	22.4	0.00e+00	0	22	101	1048576	60	6274
2026-01-05 11:39:18.46	86.32	7.65	-41.6	-42.7	22.0	0.00e+00	0	22	101	1048576	60	6626
2026-01-05 11:39:19.47	86.48	7.63	-41.6	-42.7	21.7	0.00e+00	0	22	101	1048576	60	6670
2026-01-05 11:39:20.48	86.64	7.60	-42.0	-43.1	21.5	0.00e+00	0	22	101	1048576	60	7004
2026-01-05 11:39:21.49	86.80	7.58	-41.8	-42.9	21.7	0.00e+00	0	22	101	1048576	60	6830
2026-01-05 11:39:22.50	86.96	7.56	-42.0	-43.2	21.3	0.00e+00	0	22	101	1048576	60	7040
2026-01-05 11:39:23.51	87.12	7.53	-42.2	-43.4	21.2	0.00e+00	0	22	101	1048576	60	7196
2026-01-05 11:39:24.52	87.28	7.51	-42.1	-43.3	21.4	0.00e+00	0	22	101	1048576	60	7129
2026-01-05 11:39:25.54	87.44	7.49	-42.4	-43.6	21.0	0.00e+00	0	22	101	1048576	60	7407
2026-01-05 11:39:26.55	87.60	7.46	-42.5	-43.8	20.9	0.00e+00	0	22	101	1048576	60	7541
2026-01-05 11:39:27.56	87.75	7.44	-42.4	-43.6	20.9	0.00e+00	0	22	101	1048576	60	7397
2026-01-05 11:39:28.57	87.91	7.42	-42.4	-43.7	20.7	0.00e+00	0	22	101	1048576	60	7486
2026-01-05 11:39:29.58	88.07	7.39	-42.3	-43.5	21.1	0.00e+00	0	22	101	1048576	60	7294
2026-01-05 11:39:30.59	88.23	7.37	-42.0	-43.2	21.2	0.00e+00	0	22	101	1048576	60	7078
2026-01-05 11:39:31.60	88.38	7.34	-41.9	-43.1	21.4	0.00e+00	0	22	101	1048576	60	6974
2026-01-05 11:39:32.61	88.54	7.32	-41.9	-43.0	21.5	0.00e+00	0	22	101	1048576	60	6908
2026-01-05 11:39:33.62	88.70	7.29	-41.7	-42.9	21.4	0.00e+00	0	22	101	1048576	60	6797
2026-01-05 11:39:34.63	88.85	7.27	-41.8	-42.9	21.5	0.00e+00	0	22	101	1048576	60	6815
2026-01-05 11:39:35.65	89.01	7.24	-41.7	-42.9	21.6	0.00e+00	0	22	101	1048576	60	6822
2026-01-05 11:39:36.66	89.17	7.22	-42.0	-43.2	21.3	0.00e+00	0	22	101	1048576	60	7034
2026-01-05 11:39:37.67	89.32	7.19	-42.1	-43.3	21.3	0.00e+00	0	22	101	1048576	60	7109
2026-01-05 11:39:38.68	89.48	7.16	-42.3	-43.5	21.0	0.00e+00	0	22	101	1048576	60	7322
2026-01-05 11:39:39.69	89.63	7.14	-42.1	-43.4	21.2	0.00e+00	0	22	101	1048576	60	7175
2026-01-05 11:39:40.70	89.79	7.11	-42.2	-43.4	21.2	0.00e+00	0	22	101	1048576	60	7215
2026-01-05 11:39:41.71	89.94	7.09	-42.3	-43.5	21.0	0.00e+00	0	22	101	1048576	60	7336
2026-01-05 11:39:42.72	90.10	7.06	-42.5	-43.7	20.8	0.00e+00	0	22	101	1048576	60	7493
2026-01-05 11:39:43.73	90.25	7.03	-42.6	-43.9	20.7	0.00e+00	0	22	101	1048576	60	7664
2026-01-05 11:39:44.74	90.41	7.01	-42.7	-44.0	20.5	0.00e+00	0	22	101	1048576	60	7764
2026-01-05 11:39:45.76	90.56	6.98	-43.0	-44.4	20.3	0.00e+00	0	22	101	1048576	60	8064
2026-01-05 11:39:46.77	90.71	6.95	-43.3	-44.7	20.0	0.00e+00	0	22	101	1048576	60	8368
2026-01-05 11:39:47.78	90.87	6.93	-43.5	-45.0	19.5	0.00e+00	0	22	101	1048576	60	8709
2026-01-05 11:39:48.79	91.02	6.90	-43.9	-45.5	19.2	0.00e+00	0	22	101	1048576	60	9191
2026-01-05 11:39:49.80	91.17	6.87	-44.1	-45.8	18.8	0.00e+00	0	22	101	1048576	60	9515
2026-01-05 11:39:50.81	91.32	6.84	-44.1	-45.8	18.9	0.00e+00	0	22	101	1048576	60	9505
2026-01-05 11:39:51.82	91.48	6.82	-44.1	-45.8	18.8	0.00e+00	0	22	101	1048576	60	9526
2026-01-05 11:39:52.83	91.63	6.79	-44.2	-46.0	18.5	0.00e+00	0	22	101	1048576	60	9720
2026-01-05 11:39:53.85	91.78	6.76	-44.0	-45.7	18.8	0.00e+00	0	22	101	1048576	60	9358
2026-01-05 11:39:54.86	91.93	6.73	-43.9	-45.6	19.1	0.00e+00	0	22	101	1048576	60	9247
2026-01-05 11:39:55.87	92.08	6.70	-44.1	-45.8	18.9	0.00e+00	0	22	101	1048576	60	9557
2026-01-05 11:39:56.88	92.23	6.68	-43.8	-45.4	19.3	0.00e+00	0	22	101	1048576	60	9095
2026-01-05 11:39:57.89	92.38	6.65	-43.6	-45.1	19.5	0.00e+00	0	22	101	1048576	60	8748
2026-01-05 11:39:58.90	92.53	6.62	-43.8	-45.3	19.4	0.00e+00	0	22	101	1048576	60	9023
2026-01-05 11:39:59.91	92.68	6.59	-43.4	-44.9	19.6	0.00e+00	0	22	101	1048576	60	8599
2026-01-05 11:40:00.92	92.83	6.56	-43.4	-45.0	19.6	0.00e+00	0	22	101	1048576	60	8628
2026-01-05 11:40:01.93	92.98	6.53	-43.4	-45.0	19.6	0.00e+00	0	22	101	1048576	60	8689
2026-01-05 11:40:02.95	93.13	6.50	-43.2	-44.7	20.0	0.00e+00	0	22	101	1048576	60	8423
2026-01-05 11:40:03.96	93.28	6.47	-43.2	-44.9	19.7	0.00e+00	0	22	101	1048576	60	8579
2026-01-05 11:40:04.97	93.43	6.44	-43.1	-44.8	19.8	0.00e+00	0	22	101	1048576	60	8443
2026-01-05 11:40:05.98	93.58	6.42	-43.3	-44.9	19.4	0.00e+00	0	22	101	1048576	60	8586
2026-01-05 11:40:06.99	93.72	6.39	-43.3	-44.9	19.7	0.00e+00	0	22	101	1048576	60	8589
2026-01-05 11:40:08.00	93.87	6.36	-43.6	-45.2	19.4	0.00e+00	0	22	101	1048576	60	8919
2026-01-05 11:40:09.01	94.02	6.33	-44.2	-46.0	18.9	0.00e+00	0	22	101	1048576	60	9746
2026-01-05 11:40:10.02	94.16	6.30	-44.3	-46.2	18.6	0.00e+00	0	22	101	1048576	60	9908
2026-01-05 11:40:11.03	94.31	6.27	-44.1	-46.0	18.6	0.00e+00	0	22	101	1048576	60	9729
2026-01-05 11:40:12.05	94.46	6.24	-44.3	-46.4	18.1	0.00e+00	0	22	101	1048576	60	10222
2026-01-05 11:40:13.06	94.60	6.21	-44.5	-46.8	17.9	0.00e+00	0	22	101	1048576	60	10657
2026-01-05 11:40:14.06	94.75	6.17	-44.8	-47.1	17.4	0.00e+00	0	22	101	1048576	60	11037
2026-01-05 11:40:15.08	94.90	6.14	-44.9	-47.0	17.5	0.00e+00	0	22	101	1048576	60	10941
2026-01-05 11:40:16.09	95.04	6.11	-45.1	-47.3	17.3	0.00e+00	0	22	101	1048576	60	11254
2026-01-05 11:40:17.10	95.18	6.08	-45.1	-47.3	17.3	0.00e+00	0	22	101	1048576	60	11356
2026-01-05 11:40:18.11	95.33	6.05	-45.0	-47.2	17.4	0.00e+00	0	22	101	1048576	60	11121
2026-01-05 11:40:19.12	95.47	6.02	-45.2	-47.4	17.3	0.00e+00	0	21	101	1048576	60	11388
2026-01-05 11:40:20.13	95.62	5.99	-45.0	-47.0	17.6	0.00e+00	0	22	101	1048576	60	10949
2026-01-05 11:40:21.14	95.76	5.96	-45.0	-47.0	17.5	0.00e+00	0	22	101	1048576	60	10951
2026-01-05 11:40:22.15	95.90	5.93	-44.9	-46.9	17.6	0.00e+00	0	22	101	1048576	60	10834
2026-01-05 11:40:23.17	96.05	5.89	-44.9	-46.9	17.6	0.00e+00	0	22	101	1048576	60	10742
2026-01-05 11:40:24.18	96.19	5.86	-44.8	-46.9	17.8	0.00e+00	0	22	101	1048576	60	10738
2026-01-05 11:40:25.19	96.33	5.83	-44.5	-46.5	18.0	0.00e+00	0	22	101	1048576	60	10304
2026-01-05 11:40:26.20	96.48	5.80	-44.7	-46.7	18.0	0.00e+00	0	22	101	1048576	60	10578
2026-01-05 11:40:27.21	96.62	5.77	-44.6	-46.6	17.9	0.00e+00	0	22	101	1048576	60	10397
2026-01-05 11:40:28.22	96.76	5.74	-45.1	-47.3	17.5	0.00e+00	0	22	101	1048576	60	11312
2026-01-05 11:40:29.23	96.90	5.70	-45.0	-47.1	17.5	0.00e+00	0	22	101	1048576	60	11077
2026-01-05 11:40:30.24	97.04	5.67	-44.5	-46.4	18.0	0.00e+00	0	22	101	1048576	60	10180
2026-01-05 11:40:31.25	97.18	5.64	-44.5	-46.4	17.9	0.00e+00	0	22	101	1048576	60	10219
2026-01-05 11:40:32.26	97.32	5.61	-44.7	-46.7	17.7	0.00e+00	0	22	101	1048576	60	10534
2026-01-05 11:40:33.27	97.46	5.57	-45.0	-47.2	17.2	0.00e+00	0	22	101	1048576	60	11215
2026-01-05 11:40:34.29	97.60	5.54	-44.8	-46.9	17.6	0.00e+00	0	22	101	1048576	60	10753
2026-01-05 11:40:35.30	97.74	5.51	-44.9	-47.1	17.3	0.00e+00	0	22	101	1048576	60	11010
2026-01-05 11:40:36.31	97.88	5.48	-44.9	-46.9	16.8	0.00e+00	0	22	101	1048576	60	10836
2026-01-05 11:40:37.32	98.02	5.44	-44.8	-46.8	17.4	0.00e+00	0	22	101	1048576	60	10661
2026-01-05 11:40:38.33	98.16	5.41	-44.8	-46.8	17.8	0.00e+00	0	22	101	1048576	60	10630
2026-01-05 11:40:39.34	98.30	5.38	-44.4	-46.3	18.3	0.00e+00	0	22	101	1048576	60	10031
2026-01-05 11:40:40.35	98.43	5.34	-44.0	-45.7	18.6	0.00e+00	0	22	101	1048576	60	9425
2026-01-05 11:40:41.36	98.57	5.31	-44.1	-45.8	18.7	0.00e+00	0	22	101	1048576	60	9508
2026-01-05 11:40:42.38	98.71	5.28	-44.0	-45.8	18.6	0.00e+00	0	22	101	1048576	60	9495
2026-01-05 11:40:43.39	98.85	5.24	-44.3	-46.1	18.3	0.00e+00	0	22	101	1048576	60	9827
2026-01-05 11:40:44.40	98.98	5.21	-44.0	-45.8	18.7	0.00e+00	0	22	101	1048576	60	9548
2026-01-05 11:40:45.41	99.12	5.17	-44.1	-46.0	18.3	0.00e+00	0	22	101	1048576	60	9689
2026-01-05 11:40:46.42	99.26	5.14	-44.4	-46.5	17.8	0.00e+00	0	22	101	1048576	60	10301
2026-01-05 11:40:47.43	99.39	5.11	-44.2	-46.4	17.9	0.00e+00	0	22	101	1048576	60	10167
2026-01-05 11:40:48.44	99.53	5.07	-44.7	-47.0	17.4	0.00e+00	0	22	101	1048576	60	10892
2026-01-05 11:40:49.45	99.66	5.04	-45.0	-47.3	17.0	0.00e+00	0	22	101	1048576	60	11334
2026-01-05 11:40:50.46	99.80	5.01	-45.1	-47.3	17.0	0.00e+00	0	22	101	1048576	60	11309
2026-01-05 11:40:51.47	99.93	4.97	-44.8	-46.8	17.3	0.00e+00	0	22	101	1048576	60	10663
2026-01-05 11:40:52.48	100.07	4.94	-44.9	-47.0	17.5	0.00e+00	0	22	101	1048576	60	10857
2026-01-05 11:40:53.49	100.20	4.90	-44.5	-46.5	17.6	0.00e+00	0	22	101	1048576	60	10288
2026-01-05 11:40:54.51	100.33	4.87	-44.3	-46.3	18.1	0.00e+00	0	22	101	1048576	60	10028
2026-01-05 11:40:55.52	100.47	4.83	-44.1	-46.0	18.1	0.00e+00	0	22	101	1048576	60	9727
2026-01-05 11:40:56.53	100.60	4.80	-44.0	-45.8	18.6	0.00e+00	0	22	101	1048576	60	9501
2026-01-05 11:40:57.54	100.73	4.76	-43.5	-45.2	19.1	0.00e+00	0	22	101	1048576	60	8824
2026-01-05 11:40:58.55	100.87	4.73	-43.7	-45.5	18.7	0.00e+00	0	22	101	1048576	60	9172
2026-01-05 11:40:59.56	101.00	4.69	-43.8	-45.5	18.9	0.00e+00	0	22	101	1048576	60	9202
2026-01-05 11:41:00.57	101.13	4.66	-43.6	-45.3	18.9	0.00e+00	0	22	101	1048576	60	9027
2026-01-05 11:41:01.59	101.26	4.62	-44.0	-46.3	18.3	0.00e+00	0	22	101	1048576	60	10026
2026-01-05 11:41:02.60	101.39	4.59	-43.7	-46.0	18.2	0.00e+00	0	22	101	1048576	60	9688
2026-01-05 11:41:03.61	101.52	4.55	-43.9	-46.6	18.1	0.00e+00	0	22	101	1048576	60	10460
2026-01-05 11:41:04.62	101.66	4.52	-43.6	-46.3	18.1	0.00e+00	0	22	101	1048576	60	10018
2026-01-05 11:41:05.63	101.79	4.48	-43.4	-45.8	18.7	0.00e+00	0	22	101	1048576	60	9500
2026-01-05 11:41:06.64	101.92	4.45	-43.2	-45.3	18.9	0.00e+00	0	22	101	1048576	60	8962
2026-01-05 11:41:07.65	102.05	4.41	-43.3	-45.3	19.0	0.00e+00	0	22	101	1048576	60	8950
2026-01-05 11:41:08.66	102.17	4.38	-43.3	-45.3	18.8	0.00e+00	0	22	101	1048576	60	8977
2026-01-05 11:41:09.67	102.30	4.34	-43.7	-45.5	18.7	0.00e+00	0	22	101	1048576	60	9203
2026-01-05 11:41:10.69	102.43	4.30	-43.6	-45.3	18.8	0.00e+00	0	22	101	1048576	60	9008
2026-01-05 11:41:11.70	102.56	4.27	-43.7	-45.4	18.7	0.00e+00	0	22	101	1048576	60	9067
2026-01-05 11:41:12.71	102.69	4.23	-43.8	-45.5	18.5	0.00e+00	0	22	101	1048576	60	9235
2026-01-05 11:41:13.72	102.82	4.20	-43.7	-45.4	18.7	0.00e+00	0	22	101	1048576	60	9076
2026-01-05 11:41:14.73	102.95	4.16	-43.8	-45.5	18.7	0.00e+00	0	22	101	1048576	60	9198
2026-01-05 11:41:15.74	103.07	4.12	-44.0	-45.9	18.3	0.00e+00	0	21	101	1048576	60	9599
2026-01-05 11:41:16.75	103.20	4.09	-44.4	-46.3	17.9	0.00e+00	0	22	101	1048576	60	10063
2026-01-05 11:41:17.76	103.33	4.05	-44.2	-46.0	18.1	0.00e+00	0	22	101	1048576	60	9722
2026-01-05 11:41:18.77	103.45	4.02	-44.0	-45.8	18.2	0.00e+00	0	22	101	1048576	60	9538
2026-01-05 11:41:19.78	103.58	3.98	-44.1	-46.0	18.2	0.00e+00	0	22	101	1048576	60	9687
2026-01-05 11:41:20.79	103.71	3.94	-43.7	-45.5	18.7	0.00e+00	0	22	101	1048576	60	9196
2026-01-05 11:41:21.80	103.83	3.91	-43.6	-45.6	18.5	0.00e+00	0	22	101	1048576	60	9299
2026-01-05 11:41:22.82	103.96	3.87	-43.2	-45.2	19.0	0.00e+00	0	22	101	1048576	60	8824
2026-01-05 11:41:23.83	104.08	3.83	-43.3	-45.4	18.6	0.00e+00	0	22	101	1048576	60	9047
2026-01-05 11:41:24.84	104.21	3.80	-43.2	-45.4	18.5	0.00e+00	0	22	101	1048576	60	9065
2026-01-05 11:41:25.85	104.33	3.76	-43.3	-45.6	18.4	0.00e+00	0	22	101	1048576	60	9290
2026-01-05 11:41:26.86	104.45	3.72	-43.2	-45.4	18.8	0.00e+00	0	22	101	1048576	60	9065
2026-01-05 11:41:27.87	104.58	3.69	-43.4	-45.5	18.6	0.00e+00	0	22	101	1048576	60	9152
2026-01-05 11:41:28.88	104.70	3.65	-43.5	-45.5	18.6	0.00e+00	0	22	101	1048576	60	9221
2026-01-05 11:41:29.89	104.82	3.61	-43.7	-45.6	18.2	0.00e+00	0	22	101	1048576	60	9274
2026-01-05 11:41:30.91	104.95	3.58	-44.0	-46.0	17.8	0.00e+00	0	22	101	1048576	60	9739
2026-01-05 11:41:31.92	105.07	3.54	-43.5	-45.5	18.2	0.00e+00	0	22	101	1048576	60	9159
2026-01-05 11:41:32.93	105.19	3.50	-43.8	-45.9	17.5	0.00e+00	0	22	101	1048576	60	9576
2026-01-05 11:41:33.94	105.32	3.46	-43.7	-45.8	17.7	0.00e+00	0	22	101	1048576	60	9560
2026-01-05 11:41:34.95	105.44	3.43	-43.9	-46.1	17.3	0.00e+00	0	22	101	1048576	60	9842
2026-01-05 11:41:35.96	105.56	3.39	-43.9	-46.2	17.6	0.00e+00	0	22	101	1048576	60	9902
2026-01-05 11:41:36.97	105.68	3.35	-44.5	-47.0	16.2	0.00e+00	0	22	101	1048576	60	10958
2026-01-05 11:41:37.99	105.80	3.31	-44.3	-46.8	16.7	0.00e+00	0	22	101	1048576	60	10637
2026-01-05 11:41:39.00	105.92	3.28	-44.5	-47.3	16.1	0.00e+00	0	22	101	1048576	60	11242
2026-01-05 11:41:40.01	106.04	3.24	-44.1	-46.6	16.7	0.00e+00	0	22	101	1048576	60	10470
2026-01-05 11:41:41.02	106.16	3.20	-43.9	-46.3	17.1	0.00e+00	0	22	101	1048576	60	10108
2026-01-05 11:41:42.03	106.28	3.16	-43.6	-45.9	17.3	0.00e+00	0	22	101	1048576	60	9638
2026-01-05 11:41:43.04	106.40	3.13	-43.8	-46.3	16.9	0.00e+00	0	22	101	1048576	60	10087
2026-01-05 11:41:44.05	106.52	3.09	-44.6	-47.6	15.2	0.00e+00	0	22	101	1048576	60	11669
2026-01-05 11:41:45.07	106.64	3.05	-44.8	-47.8	15.6	0.00e+00	0	22	101	1048576	60	12028
2026-01-05 11:41:46.08	106.76	3.01	-50.2	-65.5	3.6	1.51e+00	0	22	104	1048576	60	92351
2026-01-05 11:41:47.09	106.88	2.98	-50.4	-65.9	3.6	1.51e+00	0	22	104	1048576	60	96396
2026-01-05 11:41:48.10	106.99	2.94	-50.7	-66.0	3.6	1.51e+00	0	22	104	1048576	60	97103
2026-01-05 11:41:49.11	107.11	2.90	-50.9	-66.3	3.6	1.51e+00	0	22	104	1048576	60	100967
2026-01-05 11:41:50.12	107.23	2.86	-50.9	-66.4	3.6	1.51e+00	0	22	104	1048576	60	101330
2026-01-05 11:41:51.13	107.35	2.82	-50.9	-66.4	3.6	1.51e+00	0	22	104	1048576	60	102000
2026-01-05 11:41:52.14	107.46	2.79	-51.0	-66.4	3.6	1.51e+00	0	22	104	1048576	60	101823
2026-01-05 11:41:53.15	107.58	2.75	-51.1	-66.5	3.6	1.51e+00	0	22	104	1048576	60	102524
2026-01-05 11:41:54.16	107.69	2.71	-51.1	-66.4	3.6	1.51e+00	0	22	104	1048576	60	101998
2026-01-05 11:41:55.17	107.81	2.67	-51.1	-66.5	3.6	1.51e+00	0	22	104	1048576	60	102687
2026-01-05 11:41:56.18	107.93	2.63	-51.1	-66.4	3.6	1.51e+00	0	22	104	1048576	60	102007
2026-01-05 11:41:57.19	108.04	2.59	-51.1	-66.6	3.6	1.51e+00	0	22	104	1048576	60	103653
2026-01-05 11:41:58.21	108.16	2.56	-51.0	-66.5	3.6	1.51e+00	0	22	104	1048576	60	102978
2026-01-05 11:41:59.22	108.27	2.52	-51.1	-66.5	3.6	1.51e+00	0	22	104	1048576	60	103315
2026-01-05 11:42:00.23	108.39	2.48	-51.1	-66.5	3.6	1.51e+00	0	22	104	1048576	60	103136
2026-01-05 11:42:01.24	108.50	2.44	-51.3	-66.7	3.6	1.51e+00	0	22	104	1048576	60	105260
2026-01-05 11:42:02.25	108.61	2.40	-51.3	-66.6	3.6	1.51e+00	0	22	104	1048576	60	104678
2026-01-05 11:42:03.26	108.73	2.36	-51.3	-66.6	3.6	1.51e+00	0	22	104	1048576	60	104387
2026-01-05 11:42:04.27	108.84	2.33	-51.4	-66.8	3.6	1.51e+00	0	22	104	1048576	60	106163
2026-01-05 11:42:05.28	108.95	2.29	-51.6	-66.9	3.6	1.51e+00	0	22	104	1048576	60	108311
2026-01-05 11:42:06.29	109.07	2.25	-51.4	-66.7	3.6	1.51e+00	0	22	104	1048576	60	105441
2026-01-05 11:42:07.31	109.18	2.21	-51.3	-66.7	3.6	1.51e+00	0	22	104	1048576	60	104915
2026-01-05 11:42:08.32	109.29	2.17	-51.6	-67.0	3.6	1.51e+00	0	22	104	1048576	60	109449
2026-01-05 11:42:09.33	109.40	2.13	-51.7	-67.0	3.6	1.51e+00	0	22	104	1048576	60	109647
2026-01-05 11:42:10.34	109.52	2.09	-51.4	-66.8	3.6	1.51e+00	0	22	104	1048576	60	106516
2026-01-05 11:42:11.35	109.63	2.05	-51.9	-67.2	3.6	1.51e+00	0	22	104	1048576	60	112319
2026-01-05 11:42:12.36	109.74	2.02	-51.6	-66.9	3.6	1.51e+00	0	22	104	1048576	60	108198
2026-01-05 11:42:13.37	109.85	1.98	-51.7	-67.0	3.6	1.51e+00	0	22	104	1048576	60	109604
2026-01-05 11:42:14.39	109.96	1.94	-51.4	-66.7	3.6	1.51e+00	0	22	104	1048576	60	105795
2026-01-05 11:42:15.40	110.07	1.90	-51.4	-66.8	3.6	1.51e+00	0	22	104	1048576	60	106193
2026-01-05 11:42:16.41	110.18	1.86	-51.6	-66.9	3.6	1.51e+00	0	22	104	1048576	60	108224
2026-01-05 11:42:17.42	110.29	1.82	-51.6	-67.0	3.6	1.51e+00	0	22	104	1048576	60	108914
2026-01-05 11:42:18.43	110.40	1.78	-52.0	-67.4	3.6	1.51e+00	0	22	104	1048576	60	114027
2026-01-05 11:42:19.44	110.51	1.74	-51.8	-67.0	3.6	1.51e+00	0	22	104	1048576	60	109715
2026-01-05 11:42:20.45	110.62	1.70	-51.6	-66.9	3.6	1.51e+00	0	22	104	1048576	60	107692
2026-01-05 11:42:21.46	110.72	1.67	-51.5	-66.9	3.6	1.51e+00	0	22	104	1048576	60	107999
2026-01-05 11:42:22.47	110.83	1.63	-51.8	-67.1	3.6	1.51e+00	0	22	104	1048576	60	110868
2026-01-05 11:42:23.49	110.94	1.59	-51.4	-66.8	3.6	1.51e+00	0	22	104	1048576	60	106241
2026-01-05 11:42:24.50	111.05	1.55	-52.4	-67.8	3.6	1.51e+00	0	22	104	1048576	60	119453
2026-01-05 11:42:25.51	111.16	1.51	-52.4	-67.7	3.6	1.51e+00	0	22	104	1048576	60	118804
2026-01-05 11:42:26.52	111.26	1.47	-51.7	-67.1	3.6	1.51e+00	0	22	104	1048576	60	110246
2026-01-05 11:42:27.53	111.37	1.43	-51.3	-66.6	3.6	1.51e+00	0	22	104	1048576	60	104586
2026-01-05 11:42:28.54	111.48	1.39	-51.5	-66.9	3.6	1.51e+00	0	22	104	1048576	60	107470
2026-01-05 11:42:29.55	111.58	1.35	-51.9	-67.3	3.6	1.51e+00	0	22	104	1048576	60	112600
2026-01-05 11:42:30.56	111.69	1.31	-51.9	-67.2	3.6	1.51e+00	0	22	104	1048576	60	111765
2026-01-05 11:42:31.57	111.80	1.27	-53.0	-68.4	3.6	1.51e+00	0	22	104	1048576	60	128137
2026-01-05 11:42:32.58	111.90	1.23	-51.7	-67.0	3.6	1.51e+00	0	22	104	1048576	60	109404
2026-01-05 11:42:33.60	112.01	1.19	-51.7	-67.1	3.6	1.51e+00	0	22	104	1048576	60	109831
2026-01-05 11:42:34.61	112.11	1.15	-52.6	-67.9	3.6	1.51e+00	0	22	104	1048576	60	121389
2026-01-05 11:42:35.62	112.22	1.11	-51.9	-67.2	3.6	1.51e+00	0	22	104	1048576	60	111792
2026-01-05 11:42:36.63	112.32	1.08	-51.4	-66.8	3.6	1.51e+00	0	22	104	1048576	60	106748
2026-01-05 11:42:37.64	112.43	1.04	-51.5	-66.8	3.6	1.51e+00	0	22	104	1048576	60	107244
2026-01-05 11:42:38.65	112.53	1.00	-52.2	-67.5	3.6	1.51e+00	0	22	104	1048576	60	116290
2026-01-05 11:42:39.66	112.63	0.96	-51.8	-67.2	3.6	1.51e+00	0	22	104	1048576	60	111629
2026-01-05 11:42:40.67	112.74	0.92	-51.8	-67.2	3.6	1.51e+00	0	22	104	1048576	60	111099
2026-01-05 11:42:41.69	112.84	0.88	-51.4	-66.8	3.6	1.51e+00	0	22	104	1048576	60	106407
2026-01-05 11:42:42.70	112.94	0.84	-52.1	-67.4	3.6	1.51e+00	0	22	104	1048576	60	114765
2026-01-05 11:42:43.71	113.05	0.80	-52.4	-67.7	3.6	1.51e+00	0	22	104	1048576	60	118545
2026-01-05 11:42:44.72	113.15	0.76	-52.4	-67.7	3.6	1.51e+00	0	22	104	1048576	60	118720
2026-01-05 11:42:45.73	113.25	0.72	-52.9	-68.3	3.6	1.51e+00	0	22	104	1048576	60	126274
2026-01-05 11:42:46.74	113.35	0.68	-52.0	-67.3	3.6	1.51e+00	0	22	104	1048576	60	112771
2026-01-05 11:42:47.75	113.46	0.64	-51.7	-67.0	3.6	1.51e+00	0	22	104	1048576	60	109611
2026-01-05 11:42:48.76	113.56	0.60	-51.4	-66.8	3.6	1.51e+00	0	22	104	1048576	60	106874
2026-01-05 11:42:49.77	113.66	0.56	-51.7	-67.0	3.6	1.51e+00	0	22	104	1048576	60	109583
2026-01-05 11:42:50.78	113.76	0.52	-51.4	-66.8	3.6	1.51e+00	0	22	104	1048576	60	106682
2026-01-05 11:42:51.80	113.86	0.48	-51.9	-67.3	3.6	1.51e+00	0	22	104	1048576	60	112575
2026-01-05 11:42:52.81	113.96	0.44	-52.4	-67.7	3.6	1.51e+00	0	22	104	1048576	60	118745
2026-01-05 11:42:53.82	114.06	0.40	-52.0	-67.3	3.6	1.51e+00	0	22	104	1048576	60	113294
2026-01-05 11:42:54.83	114.16	0.36	-51.6	-67.0	3.6	1.51e+00	0	22	104	1048576	60	109071
2026-01-05 11:42:55.84	114.26	0.32	-52.7	-68.0	3.6	1.51e+00	0	22	104	1048576	60	123120
2026-01-05 11:42:56.85	114.36	0.28	-52.1	-67.5	3.6	1.51e+00	0	22	104	1048576	60	115232
2026-01-05 11:42:57.86	114.46	0.24	-52.3	-67.7	3.6	1.51e+00	0	22	104	1048576	60	117801
2026-01-05 11:42:58.87	114.56	0.20	-51.6	-67.0	3.6	1.51e+00	0	22	104	1048576	60	108655
2026-01-05 11:42:59.88	114.66	0.16	-52.8	-68.2	3.6	1.51e+00	0	22	104	1048576	60	125356
2026-01-05 11:43:00.89	114.75	0.12	-51.7	-67.1	3.6	1.51e+00	0	22	104	1048576	60	110293
2026-01-05 11:43:01.91	114.85	0.08	-51.8	-67.1	3.6	1.51e+00	0	22	104	1048576	60	110709
2026-01-05 11:43:02.92	114.95	0.04	-51.8	-67.2	3.6	1.51e+00	0	22	104	1048576	60	111597
2026-01-05 11:43:03.93	115.05	0.00	-52.1	-67.4	3.6	1.51e+00	0	22	104	1048576	60	114822

#Closed at: 2026-01-05 11:43:04
#Recorded file [1 MB]: D:/lorett/data/35034_260105_143154.dat