passes_logs/2026/01/05/R4.6S_Anadyr_2ch/R4.6S_Anadyr_2ch__20260105_163250_NOAA_20_JPSS-1_rec.log

#Pass ID: 20260105_163250_NOAA 20 (JPSS-1)
#Satellite: NOAA 20 (JPSS-1)
#Configuration: NOAA 20
#almurnet v.1.7.20251203
#Start time: 2026-01-05 16:32:52

#Version: 2.2.20231116
#Station: R4.6S_Anadyr_2ch
#Location: 177.4865 lon 64.73178 lat
#TLE: 1 43013U 17073A   25350.93759711  .00000080  00000+0  58734-4 0  9994
#TLE: 2 43013  98.7603 287.1885 0002156  81.1496 278.9924 14.19526878418610

#Time	Az	El	Level	Level2	SNR	BER	BlckErr	Temp	State	Recorded	gain1	gain2
2026-01-05 16:32:52.78	26.58	0.12	-51.0	-66.0	3.5	1.51e+00	0	30	0	0	60	97300
2026-01-05 16:32:53.79	26.54	0.17	-51.2	-66.5	3.6	1.51e+00	0	31	104	0	60	103256
2026-01-05 16:32:54.80	26.49	0.23	-51.2	-66.6	3.6	1.51e+00	0	31	104	0	60	103797
2026-01-05 16:32:55.81	26.45	0.29	-51.2	-66.5	3.6	1.51e+00	0	31	104	0	60	103300
2026-01-05 16:32:56.82	26.41	0.34	-51.2	-66.6	3.6	1.51e+00	0	31	104	0	60	103687
2026-01-05 16:32:57.83	26.36	0.40	-51.1	-66.5	3.5	1.51e+00	0	31	104	0	60	103323
2026-01-05 16:32:58.84	26.32	0.46	-51.1	-66.4	3.6	1.51e+00	0	31	104	0	60	102401
2026-01-05 16:32:59.86	26.28	0.52	-51.0	-66.4	3.6	1.51e+00	0	31	104	0	60	101538
2026-01-05 16:33:00.87	26.23	0.58	-50.9	-66.2	3.6	1.51e+00	0	31	104	0	60	100079
2026-01-05 16:33:01.88	26.19	0.63	-50.8	-66.2	3.6	1.51e+00	0	31	104	0	60	99112
2026-01-05 16:33:02.89	26.14	0.69	-50.7	-66.1	3.6	1.51e+00	0	31	104	0	60	97875
2026-01-05 16:33:03.90	26.10	0.75	-50.5	-65.8	3.6	1.51e+00	0	31	104	0	60	95242
2026-01-05 16:33:04.91	26.06	0.81	-50.2	-65.6	3.6	1.51e+00	0	31	104	0	60	92752
2026-01-05 16:33:05.92	26.01	0.87	-49.8	-65.1	3.6	1.51e+00	0	31	104	0	60	87478
2026-01-05 16:33:06.93	25.97	0.92	-49.8	-65.1	3.6	1.51e+00	0	31	104	0	60	87447
2026-01-05 16:33:07.95	25.92	0.98	-49.7	-65.0	3.6	1.51e+00	0	31	104	0	60	87140
2026-01-05 16:33:08.96	25.88	1.04	-49.7	-65.1	3.6	1.51e+00	0	31	104	0	60	87328
2026-01-05 16:33:09.97	25.83	1.10	-49.7	-65.0	3.6	1.51e+00	0	31	104	0	60	86884
2026-01-05 16:33:10.98	25.78	1.16	-49.7	-65.0	3.6	1.51e+00	0	31	104	0	60	86772
2026-01-05 16:33:11.99	25.74	1.22	-49.7	-65.0	3.6	1.51e+00	0	31	104	0	60	86792
2026-01-05 16:33:13.00	25.69	1.28	-49.7	-65.0	3.6	1.51e+00	0	31	104	0	60	87027
2026-01-05 16:33:14.01	25.65	1.34	-49.7	-65.0	3.6	1.51e+00	0	31	104	0	60	87167
2026-01-05 16:33:15.02	25.60	1.40	-49.7	-65.0	3.6	1.51e+00	0	31	104	0	60	87104
2026-01-05 16:33:16.04	25.55	1.46	-49.7	-65.0	3.6	1.51e+00	0	31	104	0	60	87167
2026-01-05 16:33:17.05	25.50	1.51	-49.7	-65.0	3.6	1.51e+00	0	31	104	0	60	87149
2026-01-05 16:33:18.06	25.46	1.57	-49.7	-65.1	3.6	1.51e+00	0	31	104	0	60	87214
2026-01-05 16:33:19.07	25.41	1.63	-49.7	-65.0	3.6	1.51e+00	0	31	104	0	60	87205
2026-01-05 16:33:20.08	25.36	1.69	-49.7	-65.0	3.6	1.51e+00	0	31	104	0	60	87018
2026-01-05 16:33:21.09	25.32	1.75	-49.7	-65.1	3.6	1.51e+00	0	31	104	0	60	87331
2026-01-05 16:33:22.11	25.27	1.81	-49.7	-65.0	3.6	1.51e+00	0	31	104	0	60	86805
2026-01-05 16:33:23.12	25.22	1.87	-49.7	-64.9	3.6	1.51e+00	0	31	104	0	60	86138
2026-01-05 16:33:24.13	25.17	1.93	-49.7	-64.8	3.6	1.51e+00	0	31	104	0	60	84960
2026-01-05 16:33:25.14	25.12	1.99	-49.7	-64.8	3.6	1.51e+00	0	31	104	0	60	84459
2026-01-05 16:33:26.15	25.07	2.05	-49.7	-64.8	3.6	1.51e+00	0	31	104	0	60	84712
2026-01-05 16:33:27.16	25.02	2.12	-49.7	-64.9	3.6	1.51e+00	0	31	104	0	60	85505
2026-01-05 16:33:28.17	24.97	2.18	-49.7	-65.0	3.6	1.51e+00	0	31	104	0	60	86482
2026-01-05 16:33:29.18	24.93	2.24	-49.7	-65.0	3.6	1.51e+00	0	31	104	0	60	86608
2026-01-05 16:33:30.19	24.88	2.30	-49.7	-65.0	3.6	1.51e+00	0	31	104	0	60	87093
2026-01-05 16:33:31.20	24.83	2.36	-49.7	-65.0	3.6	1.51e+00	0	31	104	0	60	86857
2026-01-05 16:33:32.22	24.77	2.42	-49.7	-65.0	3.6	1.51e+00	0	31	104	0	60	86980
2026-01-05 16:33:33.22	24.72	2.48	-49.7	-65.0	3.6	1.51e+00	0	31	104	0	60	87074
2026-01-05 16:33:34.24	24.67	2.54	-49.7	-65.0	3.6	1.51e+00	0	31	104	0	60	86461
2026-01-05 16:33:35.25	24.62	2.60	-49.7	-65.0	3.6	1.51e+00	0	32	104	0	60	86580
2026-01-05 16:33:36.26	24.57	2.66	-49.7	-64.8	3.6	1.51e+00	0	32	104	0	60	85027
2026-01-05 16:33:37.27	24.52	2.73	-49.7	-64.6	3.6	1.51e+00	0	31	104	0	60	82391
2026-01-05 16:33:38.28	24.47	2.79	-49.7	-64.3	3.6	1.51e+00	0	32	104	0	60	80261
2026-01-05 16:33:39.29	24.42	2.85	-49.7	-64.3	3.6	1.51e+00	0	32	104	0	60	80373
2026-01-05 16:33:40.30	24.37	2.91	-49.7	-64.7	3.6	1.51e+00	0	32	104	0	60	83396
2026-01-05 16:33:41.31	24.31	2.97	-49.7	-64.9	3.6	1.51e+00	0	31	104	0	60	85882
2026-01-05 16:33:42.33	24.26	3.04	-49.7	-64.6	3.6	1.51e+00	0	31	104	0	60	82626
2026-01-05 16:33:43.34	24.21	3.10	-49.6	-63.3	3.6	1.51e+00	0	32	104	0	60	71295
2026-01-05 16:33:44.35	24.15	3.16	-49.5	-60.8	4.2	1.46e+00	75	31	0	0	60	53258
2026-01-05 16:33:45.36	24.10	3.22	-49.3	-58.0	5.1	9.13e-01	50	31	102	1048576	60	38737
2026-01-05 16:33:46.37	24.05	3.29	-49.1	-56.6	6.5	2.69e-01	0	32	102	1048576	60	32978
2026-01-05 16:33:47.38	23.99	3.35	-48.9	-55.8	7.4	1.48e-01	92	32	102	1048576	60	29932
2026-01-05 16:33:48.39	23.94	3.41	-49.3	-57.6	4.7	8.63e-02	21	32	102	1048576	60	36935
2026-01-05 16:33:49.40	23.89	3.47	-49.9	-65.1	3.6	1.51e+00	0	32	104	1048576	60	87510
2026-01-05 16:33:50.41	23.83	3.54	-45.6	-48.1	13.0	0.00e+00	6	31	0	1048576	60	12449
2026-01-05 16:33:51.43	23.78	3.60	-49.7	-64.3	3.6	1.51e+00	0	31	104	1048576	60	80054
2026-01-05 16:33:52.44	23.72	3.66	-48.3	-53.4	14.0	6.07e-01	72	32	104	1048576	60	22740
2026-01-05 16:33:53.45	23.67	3.73	-46.7	-49.8	14.6	3.12e-05	5	32	0	1048576	60	14984
2026-01-05 16:33:54.46	23.61	3.79	-45.4	-47.7	16.6	0.00e+00	92	32	0	1048576	60	11891
2026-01-05 16:33:55.47	23.56	3.85	-45.2	-47.4	16.9	0.00e+00	4	32	0	1048576	60	11458
2026-01-05 16:33:56.48	23.50	3.92	-44.7	-46.7	17.7	0.00e+00	92	32	0	1048576	60	10573
2026-01-05 16:33:57.49	23.44	3.98	-44.3	-46.1	18.3	0.00e+00	0	32	0	1048576	60	9800
2026-01-05 16:33:58.50	23.39	4.05	-43.6	-45.3	19.1	0.00e+00	4	32	0	1048576	60	8934
2026-01-05 16:33:59.51	23.33	4.11	-43.5	-45.1	19.3	0.00e+00	0	32	0	1048576	60	8726
2026-01-05 16:34:00.52	23.27	4.17	-43.8	-45.5	19.0	0.00e+00	0	31	0	1048576	60	9145
2026-01-05 16:34:01.53	23.22	4.24	-43.8	-45.4	19.0	0.00e+00	92	32	0	1048576	60	9114
2026-01-05 16:34:02.54	23.16	4.30	-43.7	-45.3	19.1	0.00e+00	2	32	0	1048576	60	8965
2026-01-05 16:34:03.55	23.10	4.37	-43.6	-45.1	19.2	0.00e+00	70	32	0	1048576	60	8814
2026-01-05 16:34:04.57	23.04	4.43	-43.8	-45.5	18.9	0.00e+00	64	32	0	1048576	60	9151
2026-01-05 16:34:05.58	22.98	4.50	-43.8	-45.5	18.9	0.00e+00	17	32	0	1048576	60	9141
2026-01-05 16:34:06.59	22.93	4.56	-43.7	-45.3	19.3	0.00e+00	16	32	0	1048576	60	8970
2026-01-05 16:34:07.60	22.87	4.63	-43.5	-45.0	19.4	0.00e+00	71	31	0	1048576	60	8674
2026-01-05 16:34:08.61	22.81	4.69	-43.5	-45.0	19.4	0.00e+00	91	31	0	1048576	60	8696
2026-01-05 16:34:09.62	22.75	4.76	-43.5	-45.0	19.5	0.00e+00	2	31	0	1048576	60	8681
2026-01-05 16:34:10.63	22.69	4.82	-43.5	-45.0	19.5	0.00e+00	92	32	101	1048576	60	8660
2026-01-05 16:34:11.64	22.63	4.89	-43.5	-45.0	19.5	0.00e+00	3	31	101	1048576	60	8686
2026-01-05 16:34:12.65	22.57	4.96	-43.3	-44.8	19.6	0.00e+00	4	32	101	1048576	60	8490
2026-01-05 16:34:13.67	22.51	5.02	-43.5	-45.0	19.4	0.00e+00	2	32	101	1048576	60	8664
2026-01-05 16:34:14.68	22.45	5.09	-43.4	-44.8	19.6	0.00e+00	0	32	101	1048576	60	8516
2026-01-05 16:34:15.69	22.38	5.15	-43.4	-44.9	19.6	0.00e+00	0	32	101	1048576	60	8544
2026-01-05 16:34:16.70	22.32	5.22	-43.2	-44.6	19.9	0.00e+00	0	32	101	1048576	60	8315
2026-01-05 16:34:17.71	22.26	5.29	-43.1	-44.5	20.0	0.00e+00	92	31	101	1048576	60	8164
2026-01-05 16:34:18.72	22.20	5.35	-43.1	-44.4	20.1	0.00e+00	0	32	101	1048576	60	8133
2026-01-05 16:34:19.73	22.14	5.42	-43.3	-44.8	19.8	0.00e+00	24	31	101	1048576	60	8429
2026-01-05 16:34:20.74	22.07	5.49	-43.6	-45.2	19.4	0.00e+00	0	32	101	1048576	60	8839
2026-01-05 16:34:21.75	22.01	5.55	-43.3	-44.7	19.9	0.00e+00	24	32	101	1048576	60	8423
2026-01-05 16:34:22.76	21.95	5.62	-43.3	-44.8	19.8	0.00e+00	0	31	101	1048576	60	8472
2026-01-05 16:34:23.77	21.88	5.69	-42.9	-44.3	20.3	0.00e+00	16	31	101	1048576	60	7972
2026-01-05 16:34:24.79	21.82	5.76	-42.9	-44.3	20.2	0.00e+00	92	31	101	1048576	60	7976
2026-01-05 16:34:25.80	21.75	5.82	-42.8	-44.1	20.4	0.00e+00	0	31	101	1048576	60	7854
2026-01-05 16:34:26.81	21.69	5.89	-42.8	-44.1	20.6	0.00e+00	92	31	101	1048576	60	7815
2026-01-05 16:34:27.82	21.63	5.96	-42.8	-44.1	20.4	0.00e+00	59	32	101	1048576	60	7817
2026-01-05 16:34:28.83	21.56	6.03	-43.1	-44.5	20.3	0.00e+00	59	31	101	1048576	60	8171
2026-01-05 16:34:29.84	21.49	6.10	-42.7	-44.0	20.6	0.00e+00	0	31	101	1048576	60	7741
2026-01-05 16:34:30.86	21.43	6.16	-42.8	-44.1	20.5	0.00e+00	0	31	101	1048576	60	7834
2026-01-05 16:34:31.87	21.36	6.23	-42.8	-44.1	20.5	0.00e+00	92	31	101	1048576	60	7801
2026-01-05 16:34:32.88	21.30	6.30	-42.8	-44.1	20.5	0.00e+00	0	32	101	1048576	60	7789
2026-01-05 16:34:33.89	21.23	6.37	-43.0	-44.3	20.3	0.00e+00	92	32	101	1048576	60	8006
2026-01-05 16:34:34.90	21.16	6.44	-43.0	-44.4	20.3	0.00e+00	3	31	101	1048576	60	8056
2026-01-05 16:34:35.91	21.09	6.51	-43.0	-44.4	20.3	0.00e+00	18	31	101	1048576	60	8047
2026-01-05 16:34:36.92	21.03	6.58	-42.8	-44.1	20.6	0.00e+00	10	32	101	1048576	60	7851
2026-01-05 16:34:37.94	20.96	6.65	-42.7	-44.0	20.6	0.00e+00	18	31	101	1048576	60	7749
2026-01-05 16:34:38.95	20.89	6.72	-42.8	-44.1	20.6	0.00e+00	92	32	101	1048576	60	7849
2026-01-05 16:34:39.96	20.82	6.79	-42.6	-43.8	20.9	0.00e+00	18	32	101	1048576	60	7574
2026-01-05 16:34:40.97	20.75	6.86	-42.7	-44.0	20.7	0.00e+00	92	32	101	1048576	60	7734
2026-01-05 16:34:41.98	20.68	6.93	-42.6	-43.9	20.8	0.00e+00	64	31	101	1048576	60	7641
2026-01-05 16:34:42.99	20.61	7.00	-42.7	-44.0	20.7	0.00e+00	90	32	101	1048576	60	7747
2026-01-05 16:34:44.00	20.54	7.07	-42.7	-44.0	20.7	0.00e+00	0	31	101	1048576	60	7738
2026-01-05 16:34:45.02	20.47	7.14	-42.7	-43.9	20.8	0.00e+00	2	31	101	1048576	60	7673
2026-01-05 16:34:46.03	20.40	7.21	-42.6	-43.8	20.9	0.00e+00	14	32	101	1048576	60	7579
2026-01-05 16:34:47.04	20.33	7.28	-42.6	-43.9	20.9	0.00e+00	58	31	101	1048576	60	7612
2026-01-05 16:34:48.05	20.25	7.35	-42.8	-44.1	20.7	0.00e+00	92	31	101	1048576	60	7807
2026-01-05 16:34:49.06	20.18	7.42	-42.8	-44.1	20.7	0.00e+00	0	31	101	1048576	60	7797
2026-01-05 16:34:50.07	20.11	7.49	-42.8	-44.1	20.6	0.00e+00	91	31	101	1048576	60	7800
2026-01-05 16:34:51.08	20.04	7.56	-42.9	-44.2	20.6	0.00e+00	0	32	101	1048576	60	7907
2026-01-05 16:34:52.09	19.96	7.63	-42.8	-44.1	20.7	0.00e+00	0	32	101	1048576	60	7787
2026-01-05 16:34:53.10	19.89	7.70	-42.7	-44.0	20.7	0.00e+00	0	31	101	1048576	60	7740
2026-01-05 16:34:54.12	19.82	7.78	-42.8	-44.1	20.6	0.00e+00	0	32	101	1048576	60	7842
2026-01-05 16:34:55.13	19.74	7.85	-42.8	-44.1	20.6	0.00e+00	92	32	101	1048576	60	7843
2026-01-05 16:34:56.14	19.67	7.92	-42.8	-44.1	20.7	0.00e+00	26	32	101	1048576	60	7843
2026-01-05 16:34:57.15	19.59	7.99	-42.7	-44.0	20.7	0.00e+00	92	32	101	1048576	60	7754
2026-01-05 16:34:58.16	19.52	8.06	-42.7	-44.0	20.8	0.00e+00	0	32	101	1048576	60	7725
2026-01-05 16:34:59.17	19.44	8.14	-42.8	-44.1	20.7	0.00e+00	0	32	101	1048576	60	7810
2026-01-05 16:35:00.18	19.36	8.21	-42.9	-44.2	20.6	0.00e+00	24	32	101	1048576	60	7944
2026-01-05 16:35:01.19	19.29	8.28	-42.9	-44.2	20.7	0.00e+00	25	31	101	1048576	60	7874
2026-01-05 16:35:02.21	19.21	8.36	-42.8	-44.1	20.7	0.00e+00	92	32	101	1048576	60	7777
2026-01-05 16:35:03.22	19.13	8.43	-42.8	-44.1	20.7	0.00e+00	0	31	101	1048576	60	7861
2026-01-05 16:35:04.23	19.05	8.50	-42.9	-44.3	20.6	0.00e+00	91	32	101	1048576	60	7966
2026-01-05 16:35:05.24	18.97	8.58	-43.0	-44.3	20.6	0.00e+00	57	32	101	1048576	60	8030
2026-01-05 16:35:06.25	18.90	8.65	-42.7	-44.0	20.9	0.00e+00	2	32	101	1048576	60	7702
2026-01-05 16:35:07.26	18.82	8.72	-42.6	-43.8	21.1	0.00e+00	0	31	101	1048576	60	7589
2026-01-05 16:35:08.27	18.74	8.80	-42.6	-43.9	20.9	0.00e+00	0	32	101	1048576	60	7638
2026-01-05 16:35:09.28	18.66	8.87	-42.7	-44.0	20.9	0.00e+00	0	32	101	1048576	60	7731
2026-01-05 16:35:10.29	18.58	8.94	-42.6	-43.9	20.9	0.00e+00	0	32	101	1048576	60	7637
2026-01-05 16:35:11.30	18.50	9.02	-42.5	-43.7	21.1	0.00e+00	92	32	101	1048576	60	7508
2026-01-05 16:35:12.31	18.41	9.09	-42.5	-43.7	21.1	0.00e+00	18	32	101	1048576	60	7449
2026-01-05 16:35:13.33	18.33	9.17	-42.5	-43.7	21.2	0.00e+00	17	32	101	1048576	60	7468
2026-01-05 16:35:14.34	18.25	9.24	-42.5	-43.7	21.1	0.00e+00	0	32	101	1048576	60	7505
2026-01-05 16:35:15.35	18.17	9.32	-42.4	-43.6	21.1	0.00e+00	0	32	101	1048576	60	7377
2026-01-05 16:35:16.36	18.08	9.39	-42.4	-43.6	21.2	0.00e+00	0	32	101	1048576	60	7407
2026-01-05 16:35:17.37	18.00	9.47	-42.4	-43.6	21.2	0.00e+00	24	32	101	1048576	60	7419
2026-01-05 16:35:18.38	17.92	9.54	-42.4	-43.6	21.2	0.00e+00	90	32	101	1048576	60	7382
2026-01-05 16:35:19.39	17.83	9.62	-42.3	-43.5	21.4	0.00e+00	58	32	101	1048576	60	7273
2026-01-05 16:35:20.40	17.75	9.70	-42.3	-43.5	21.4	0.00e+00	90	32	101	1048576	60	7289
2026-01-05 16:35:21.42	17.66	9.77	-42.3	-43.5	21.2	0.00e+00	58	32	101	1048576	60	7329
2026-01-05 16:35:22.43	17.57	9.85	-42.2	-43.3	21.6	0.00e+00	5	32	101	1048576	60	7152
2026-01-05 16:35:23.44	17.49	9.92	-42.1	-43.2	21.7	0.00e+00	0	32	101	1048576	60	7057
2026-01-05 16:35:24.45	17.40	10.00	-42.2	-43.3	21.5	0.00e+00	0	32	101	1048576	60	7156
2026-01-05 16:35:25.46	17.31	10.08	-41.9	-43.1	21.8	0.00e+00	92	32	101	1048576	60	6958
2026-01-05 16:35:26.47	17.23	10.15	-41.9	-43.1	21.8	0.00e+00	6	32	101	1048576	60	6954
2026-01-05 16:35:27.49	17.14	10.23	-42.0	-43.1	21.8	0.00e+00	91	32	101	1048576	60	7001
2026-01-05 16:35:28.50	17.05	10.31	-41.9	-43.0	21.9	0.00e+00	0	32	101	1048576	60	6867
2026-01-05 16:35:29.51	16.96	10.39	-41.8	-42.9	22.0	0.00e+00	0	32	101	1048576	60	6787
2026-01-05 16:35:30.52	16.87	10.46	-41.8	-42.9	22.0	0.00e+00	22	32	101	1048576	60	6820
2026-01-05 16:35:31.53	16.78	10.54	-41.6	-42.7	22.1	0.00e+00	0	32	101	1048576	60	6648
2026-01-05 16:35:32.54	16.69	10.62	-41.5	-42.6	22.2	0.00e+00	0	32	101	1048576	60	6566
2026-01-05 16:35:33.55	16.60	10.70	-41.6	-42.6	22.2	0.00e+00	24	32	101	1048576	60	6598
2026-01-05 16:35:34.57	16.50	10.78	-41.6	-42.7	22.2	0.00e+00	92	32	101	1048576	60	6632
2026-01-05 16:35:35.58	16.41	10.86	-41.7	-42.8	22.1	0.00e+00	68	32	101	1048576	60	6754
2026-01-05 16:35:36.59	16.32	10.93	-41.6	-42.7	22.2	0.00e+00	92	32	101	1048576	60	6634
2026-01-05 16:35:37.60	16.23	11.01	-41.5	-42.6	22.3	0.00e+00	0	32	101	1048576	60	6560
2026-01-05 16:35:38.61	16.13	11.09	-41.6	-42.6	22.2	0.00e+00	6	32	101	1048576	60	6612
2026-01-05 16:35:39.62	16.04	11.17	-41.6	-42.6	22.2	0.00e+00	7	32	101	1048576	60	6608
2026-01-05 16:35:40.63	15.94	11.25	-41.6	-42.7	22.2	0.00e+00	62	32	101	1048576	60	6650
2026-01-05 16:35:41.65	15.85	11.33	-41.7	-42.8	22.1	0.00e+00	91	32	101	1048576	60	6732
2026-01-05 16:35:42.66	15.75	11.41	-41.6	-42.7	22.2	0.00e+00	0	32	101	1048576	60	6658
2026-01-05 16:35:43.67	15.65	11.49	-41.7	-42.8	22.2	0.00e+00	92	32	101	1048576	60	6705
2026-01-05 16:35:44.68	15.56	11.57	-41.8	-42.9	22.1	0.00e+00	6	32	101	1048576	60	6777
2026-01-05 16:35:45.69	15.46	11.65	-41.6	-42.6	22.3	0.00e+00	6	32	101	1048576	60	6601
2026-01-05 16:35:46.70	15.36	11.73	-41.6	-42.7	22.2	0.00e+00	0	32	101	1048576	60	6665
2026-01-05 16:35:47.71	15.26	11.81	-41.7	-42.8	22.1	0.00e+00	0	32	101	1048576	60	6736
2026-01-05 16:35:48.73	15.16	11.89	-41.7	-42.8	22.1	0.00e+00	92	32	101	1048576	60	6750
2026-01-05 16:35:49.74	15.06	11.97	-41.8	-42.9	22.1	0.00e+00	26	32	101	1048576	60	6773
2026-01-05 16:35:50.75	14.96	12.05	-41.6	-42.7	22.2	0.00e+00	92	32	101	1048576	60	6638
2026-01-05 16:35:51.76	14.86	12.14	-41.5	-42.5	22.4	0.00e+00	21	32	101	1048576	60	6535
2026-01-05 16:35:52.77	14.76	12.22	-41.5	-42.5	22.3	0.00e+00	22	32	101	1048576	60	6536
2026-01-05 16:35:53.78	14.66	12.30	-41.6	-42.7	22.3	0.00e+00	26	32	101	1048576	60	6623
2026-01-05 16:35:54.79	14.55	12.38	-41.5	-42.6	22.2	0.00e+00	24	32	101	1048576	60	6557
2026-01-05 16:35:55.80	14.45	12.46	-41.5	-42.6	22.3	0.00e+00	92	32	101	1048576	60	6559
2026-01-05 16:35:56.81	14.35	12.54	-41.6	-42.7	22.1	0.00e+00	2	32	101	1048576	60	6637
2026-01-05 16:35:57.83	14.24	12.63	-41.5	-42.6	22.4	0.00e+00	90	32	101	1048576	60	6554
2026-01-05 16:35:58.84	14.14	12.71	-41.6	-42.6	22.3	0.00e+00	55	32	101	1048576	60	6606
2026-01-05 16:35:59.85	14.03	12.79	-41.6	-42.6	22.4	0.00e+00	0	32	101	1048576	60	6589
2026-01-05 16:36:00.86	13.92	12.88	-41.3	-42.3	22.6	0.00e+00	0	32	101	1048576	60	6388
2026-01-05 16:36:01.87	13.82	12.96	-41.5	-42.5	22.5	0.00e+00	0	32	101	1048576	60	6498
2026-01-05 16:36:02.88	13.71	13.04	-41.4	-42.5	22.5	0.00e+00	10	32	101	1048576	60	6474
2026-01-05 16:36:03.89	13.60	13.13	-41.3	-42.4	22.5	0.00e+00	0	32	101	1048576	60	6398
2026-01-05 16:36:04.90	13.49	13.21	-41.5	-42.5	22.4	0.00e+00	92	32	101	1048576	60	6509
2026-01-05 16:36:05.91	13.38	13.29	-41.5	-42.6	22.3	0.00e+00	0	32	101	1048576	60	6561
2026-01-05 16:36:06.93	13.27	13.38	-41.6	-42.6	22.3	0.00e+00	27	32	101	1048576	60	6596
2026-01-05 16:36:07.94	13.16	13.46	-41.6	-42.7	22.4	0.00e+00	21	32	101	1048576	60	6625
2026-01-05 16:36:08.95	13.05	13.55	-41.5	-42.5	22.5	0.00e+00	61	32	101	1048576	60	6508
2026-01-05 16:36:09.96	12.94	13.63	-41.6	-42.6	22.4	0.00e+00	0	32	101	1048576	60	6594
2026-01-05 16:36:10.97	12.82	13.72	-41.4	-42.4	22.6	0.00e+00	2	32	101	1048576	60	6444
2026-01-05 16:36:11.98	12.71	13.80	-41.4	-42.4	22.6	0.00e+00	92	32	101	1048576	60	6419
2026-01-05 16:36:12.99	12.60	13.89	-41.4	-42.4	22.5	0.00e+00	26	32	101	1048576	60	6452
2026-01-05 16:36:14.00	12.48	13.97	-41.3	-42.4	22.5	0.00e+00	92	32	101	1048576	60	6411
2026-01-05 16:36:15.02	12.37	14.06	-41.6	-42.6	22.5	0.00e+00	2	32	101	1048576	60	6594
2026-01-05 16:36:16.03	12.25	14.14	-41.6	-42.7	22.3	0.00e+00	0	32	101	1048576	60	6629
2026-01-05 16:36:17.04	12.13	14.23	-41.7	-42.8	22.2	0.00e+00	60	32	101	1048576	60	6708
2026-01-05 16:36:18.05	12.01	14.31	-41.6	-42.7	22.3	0.00e+00	0	32	101	1048576	60	6640
2026-01-05 16:36:19.06	11.90	14.40	-41.7	-42.7	22.4	0.00e+00	92	32	101	1048576	60	6675
2026-01-05 16:36:20.07	11.78	14.49	-41.4	-42.4	22.6	0.00e+00	0	32	101	1048576	60	6453
2026-01-05 16:36:21.08	11.66	14.57	-41.5	-42.6	22.4	0.00e+00	92	31	101	1048576	60	6557
2026-01-05 16:36:22.09	11.54	14.66	-41.6	-42.7	22.3	0.00e+00	0	32	101	1048576	60	6637
2026-01-05 16:36:23.10	11.42	14.75	-41.6	-42.7	22.3	0.00e+00	28	32	101	1048576	60	6619
2026-01-05 16:36:24.11	11.29	14.83	-41.5	-42.6	22.4	0.00e+00	20	32	101	1048576	60	6570
2026-01-05 16:36:25.13	11.17	14.92	-41.6	-42.7	22.3	0.00e+00	22	32	101	1048576	60	6647
2026-01-05 16:36:26.14	11.05	15.01	-41.6	-42.7	22.3	0.00e+00	68	32	101	1048576	60	6636
2026-01-05 16:36:27.15	10.92	15.10	-41.8	-42.8	22.0	0.00e+00	0	32	101	1048576	60	6754
2026-01-05 16:36:28.16	10.80	15.18	-41.6	-42.7	22.2	0.00e+00	92	32	101	1048576	60	6650
2026-01-05 16:36:29.17	10.67	15.27	-41.6	-42.7	22.3	0.00e+00	60	32	101	1048576	60	6660
2026-01-05 16:36:30.18	10.55	15.36	-41.4	-42.4	22.6	0.00e+00	92	32	101	1048576	60	6444
2026-01-05 16:36:31.19	10.42	15.45	-41.5	-42.5	22.5	0.00e+00	26	32	101	1048576	60	6526
2026-01-05 16:36:32.20	10.29	15.54	-41.5	-42.6	22.5	0.00e+00	0	32	101	1048576	60	6571
2026-01-05 16:36:33.21	10.16	15.63	-41.4	-42.4	22.6	0.00e+00	82	32	101	1048576	60	6444
2026-01-05 16:36:34.22	10.03	15.71	-41.5	-42.5	22.5	0.00e+00	2	31	101	1048576	60	6538
2026-01-05 16:36:35.24	9.90	15.80	-41.4	-42.4	22.5	0.00e+00	92	32	101	1048576	60	6458
2026-01-05 16:36:36.25	9.77	15.89	-41.4	-42.4	22.6	0.00e+00	0	32	101	1048576	60	6420
2026-01-05 16:36:37.26	9.64	15.98	-41.5	-42.6	22.4	0.00e+00	92	32	101	1048576	60	6566
2026-01-05 16:36:38.27	9.51	16.07	-41.5	-42.5	22.5	0.00e+00	0	32	101	1048576	60	6528
2026-01-05 16:36:39.28	9.37	16.16	-41.6	-42.7	22.4	0.00e+00	0	32	101	1048576	60	6621
2026-01-05 16:36:40.29	9.24	16.25	-41.8	-42.8	22.3	0.00e+00	0	32	101	1048576	60	6748
2026-01-05 16:36:41.30	9.10	16.34	-41.6	-42.6	22.4	0.00e+00	20	32	101	1048576	60	6612
2026-01-05 16:36:42.32	8.97	16.43	-41.7	-42.7	22.3	0.00e+00	92	32	101	1048576	60	6678
2026-01-05 16:36:43.33	8.83	16.52	-41.7	-42.8	22.3	0.00e+00	2	32	101	1048576	60	6709
2026-01-05 16:36:44.34	8.69	16.61	-41.7	-42.8	22.2	0.00e+00	92	32	101	1048576	60	6730
2026-01-05 16:36:45.35	8.55	16.70	-41.6	-42.6	22.5	0.00e+00	26	32	101	1048576	60	6572
2026-01-05 16:36:46.36	8.41	16.80	-41.7	-42.7	22.3	0.00e+00	56	32	101	1048576	60	6690
2026-01-05 16:36:47.37	8.27	16.89	-41.7	-42.7	22.4	0.00e+00	61	32	101	1048576	60	6675
2026-01-05 16:36:48.38	8.13	16.98	-41.7	-42.8	22.2	0.00e+00	21	32	101	1048576	60	6728
2026-01-05 16:36:49.40	7.99	17.07	-41.7	-42.8	22.2	0.00e+00	91	32	101	1048576	60	6751
2026-01-05 16:36:50.41	7.85	17.16	-41.7	-42.8	22.3	0.00e+00	5	32	101	1048576	60	6696
2026-01-05 16:36:51.42	7.70	17.25	-41.6	-42.7	22.4	0.00e+00	92	31	101	1048576	60	6623
2026-01-05 16:36:52.43	7.56	17.34	-41.6	-42.7	22.4	0.00e+00	55	32	101	1048576	60	6631
2026-01-05 16:36:53.44	7.41	17.44	-41.5	-42.5	22.5	0.00e+00	74	32	101	1048576	60	6535
2026-01-05 16:36:54.45	7.26	17.53	-41.7	-42.7	22.6	0.00e+00	7	32	101	1048576	60	6665
2026-01-05 16:36:55.46	7.12	17.62	-41.5	-42.5	22.4	0.00e+00	6	31	101	1048576	60	6507
2026-01-05 16:36:56.48	6.97	17.71	-41.6	-42.7	22.4	0.00e+00	0	31	101	1048576	60	6632
2026-01-05 16:36:57.49	6.82	17.81	-41.7	-42.7	22.4	0.00e+00	5	32	101	1048576	60	6679
2026-01-05 16:36:58.50	6.67	17.90	-41.7	-42.8	22.3	0.00e+00	92	32	101	1048576	60	6696
2026-01-05 16:36:59.51	6.52	17.99	-41.3	-42.3	22.8	0.00e+00	25	32	101	1048576	60	6343
2026-01-05 16:37:00.52	6.36	18.08	-41.2	-42.2	22.8	0.00e+00	26	32	101	1048576	60	6296
2026-01-05 16:37:01.53	6.21	18.18	-41.1	-42.0	23.0	0.00e+00	27	32	101	1048576	60	6166
2026-01-05 16:37:02.54	6.06	18.27	-41.0	-42.0	23.0	0.00e+00	27	32	101	1048576	60	6143
2026-01-05 16:37:03.55	5.90	18.36	-41.1	-42.1	22.9	0.00e+00	7	32	101	1048576	60	6215
2026-01-05 16:37:04.56	5.75	18.46	-41.0	-42.0	23.1	0.00e+00	22	32	101	1048576	60	6118
2026-01-05 16:37:05.58	5.59	18.55	-40.9	-41.9	23.1	0.00e+00	91	32	101	1048576	60	6043
2026-01-05 16:37:06.59	5.43	18.65	-40.8	-41.8	23.2	0.00e+00	28	32	101	1048576	60	5976
2026-01-05 16:37:07.60	5.27	18.74	-40.9	-41.8	23.2	0.00e+00	92	31	101	1048576	60	6028
2026-01-05 16:37:08.61	5.11	18.83	-41.0	-41.9	23.1	0.00e+00	6	32	101	1048576	60	6097
2026-01-05 16:37:09.62	4.95	18.93	-41.1	-42.0	23.0	0.00e+00	6	32	101	1048576	60	6173
2026-01-05 16:37:10.63	4.79	19.02	-40.9	-41.9	22.9	0.00e+00	0	32	101	1048576	60	6080
2026-01-05 16:37:11.64	4.63	19.12	-40.9	-41.9	22.2	0.00e+00	66	31	101	1048576	60	6055
2026-01-05 16:37:12.65	4.46	19.21	-41.1	-42.1	23.0	0.00e+00	92	32	101	1048576	60	6202
2026-01-05 16:37:13.66	4.30	19.30	-40.9	-41.9	23.2	0.00e+00	7	31	101	1048576	60	6043
2026-01-05 16:37:14.67	4.13	19.40	-40.9	-41.8	23.2	0.00e+00	92	32	101	1048576	60	6022
2026-01-05 16:37:15.69	3.96	19.50	-40.8	-41.7	23.4	0.00e+00	7	31	101	1048576	60	5934
2026-01-05 16:37:16.70	3.79	19.59	-40.8	-41.7	23.4	0.00e+00	0	32	101	1048576	60	5936
2026-01-05 16:37:17.71	3.62	19.68	-40.7	-41.6	23.4	0.00e+00	25	32	101	1048576	60	5891
2026-01-05 16:37:18.72	3.45	19.78	-40.7	-41.6	23.4	0.00e+00	0	32	101	1048576	60	5878
2026-01-05 16:37:19.73	3.28	19.88	-40.7	-41.6	23.4	0.00e+00	15	32	101	1048576	60	5884
2026-01-05 16:37:20.74	3.11	19.97	-40.7	-41.6	23.4	0.00e+00	24	32	101	1048576	60	5892
2026-01-05 16:37:21.75	2.94	20.07	-41.0	-41.9	23.3	0.00e+00	90	32	101	1048576	60	6089
2026-01-05 16:37:22.76	2.76	20.16	-40.8	-41.8	23.4	0.00e+00	52	32	101	1048576	60	5974
2026-01-05 16:37:23.77	2.59	20.26	-40.8	-41.7	23.4	0.00e+00	28	32	101	1048576	60	5948
2026-01-05 16:37:24.79	2.41	20.35	-40.8	-41.7	23.4	0.00e+00	29	32	101	1048576	60	5926
2026-01-05 16:37:25.79	2.23	20.45	-40.6	-41.5	23.5	0.00e+00	28	32	101	1048576	60	5817
2026-01-05 16:37:26.81	2.05	20.54	-40.7	-41.6	23.4	0.00e+00	76	32	101	1048576	60	5874
2026-01-05 16:37:27.82	1.87	20.64	-40.7	-41.6	23.4	0.00e+00	58	31	101	1048576	60	5888
2026-01-05 16:37:28.83	1.69	20.74	-40.9	-41.8	23.3	0.00e+00	92	32	101	1048576	60	6008
2026-01-05 16:37:29.84	1.50	20.83	-40.9	-41.9	23.2	0.00e+00	0	32	101	1048576	60	6034
2026-01-05 16:37:30.85	1.32	20.93	-41.0	-41.9	23.2	0.00e+00	78	32	101	1048576	60	6093
2026-01-05 16:37:31.86	1.14	21.02	-41.0	-42.0	23.1	0.00e+00	2	31	101	1048576	60	6115
2026-01-05 16:37:32.87	0.95	21.12	-41.2	-42.2	23.0	0.00e+00	0	31	101	1048576	60	6249
2026-01-05 16:37:33.88	0.76	21.22	-41.3	-42.3	22.8	0.00e+00	0	32	101	1048576	60	6342
2026-01-05 16:37:34.90	0.57	21.31	-41.2	-42.2	22.9	0.00e+00	28	32	101	1048576	60	6312
2026-01-05 16:37:35.91	0.38	21.41	-41.2	-42.2	22.9	0.00e+00	92	32	101	1048576	60	6307
2026-01-05 16:37:36.92	0.19	21.50	-41.1	-42.1	23.0	0.00e+00	0	32	101	1048576	60	6224
2026-01-05 16:37:37.93	360.00	21.60	-41.2	-42.2	23.0	0.00e+00	92	32	101	1048576	60	6258
2026-01-05 16:37:38.94	359.81	21.70	-41.4	-42.4	22.8	0.00e+00	0	32	101	1048576	60	6430
2026-01-05 16:37:39.95	359.61	21.79	-41.4	-42.5	22.7	0.00e+00	29	31	101	1048576	60	6484
2026-01-05 16:37:40.96	359.42	21.89	-41.5	-42.5	22.7	0.00e+00	29	32	101	1048576	60	6484
2026-01-05 16:37:41.97	359.22	21.99	-41.5	-42.5	22.6	0.00e+00	28	32	101	1048576	60	6532
2026-01-05 16:37:42.98	359.02	22.08	-41.4	-42.5	22.7	0.00e+00	92	32	101	1048576	60	6465
2026-01-05 16:37:44.00	358.82	22.18	-41.3	-42.3	22.9	0.00e+00	25	32	101	1048576	60	6359
2026-01-05 16:37:45.01	358.62	22.28	-41.2	-42.1	22.9	0.00e+00	92	32	101	1048576	60	6234
2026-01-05 16:37:46.02	358.42	22.37	-41.2	-42.2	23.0	0.00e+00	55	32	101	1048576	60	6248
2026-01-05 16:37:47.03	358.21	22.47	-41.3	-42.3	22.9	0.00e+00	0	32	101	1048576	60	6368
2026-01-05 16:37:48.04	358.01	22.56	-41.1	-42.1	23.0	0.00e+00	52	31	101	1048576	60	6191
2026-01-05 16:37:49.05	357.80	22.66	-41.1	-42.1	23.0	0.00e+00	2	31	101	1048576	60	6227
2026-01-05 16:37:50.06	357.59	22.76	-40.9	-41.8	23.2	0.00e+00	0	31	101	1048576	60	6019
2026-01-05 16:37:51.07	357.39	22.85	-40.9	-41.8	23.3	0.00e+00	0	32	101	1048576	60	6015
2026-01-05 16:37:52.08	357.18	22.95	-40.8	-41.8	23.3	0.00e+00	92	32	101	1048576	60	5997
2026-01-05 16:37:53.09	356.96	23.04	-40.7	-41.7	23.4	0.00e+00	0	32	101	1048576	60	5928
2026-01-05 16:37:54.10	356.75	23.14	-40.9	-41.9	23.3	0.00e+00	80	32	101	1048576	60	6045
2026-01-05 16:37:55.12	356.54	23.24	-40.6	-41.5	23.6	0.00e+00	2	32	101	1048576	60	5815
2026-01-05 16:37:56.13	356.32	23.33	-40.7	-41.6	23.4	0.00e+00	30	32	101	1048576	60	5890
2026-01-05 16:37:57.14	356.10	23.43	-40.6	-41.6	23.5	0.00e+00	0	32	101	1048576	60	5829
2026-01-05 16:37:58.15	355.89	23.52	-40.5	-41.4	23.6	0.00e+00	31	32	101	1048576	60	5707
2026-01-05 16:37:59.16	355.67	23.62	-40.3	-41.3	23.8	0.00e+00	92	32	101	1048576	60	5633
2026-01-05 16:38:00.17	355.45	23.71	-40.5	-41.5	23.6	0.00e+00	25	31	101	1048576	60	5762
2026-01-05 16:38:01.18	355.23	23.81	-40.4	-41.3	23.7	0.00e+00	91	32	101	1048576	60	5692
2026-01-05 16:38:02.19	355.00	23.90	-40.2	-41.1	23.9	0.00e+00	2	32	101	1048576	60	5515
2026-01-05 16:38:03.20	354.78	24.00	-40.1	-41.0	24.1	0.00e+00	0	32	101	1048576	58	6131
2026-01-05 16:38:04.21	354.55	24.09	-39.8	-40.6	24.2	0.00e+00	0	31	101	1048576	58	5880
2026-01-05 16:38:05.23	354.32	24.19	-39.8	-40.7	24.3	0.00e+00	2	32	101	1048576	58	5912
2026-01-05 16:38:06.24	354.09	24.28	-39.7	-40.6	24.3	0.00e+00	91	32	101	1048576	58	5838
2026-01-05 16:38:07.25	353.86	24.38	-39.8	-40.6	24.3	0.00e+00	0	32	101	1048576	58	5891
2026-01-05 16:38:08.26	353.63	24.47	-39.7	-40.6	24.3	0.00e+00	92	31	101	1048576	58	5868
2026-01-05 16:38:09.27	353.40	24.56	-40.0	-40.9	24.2	0.00e+00	2	31	101	1048576	58	6037
2026-01-05 16:38:10.28	353.16	24.66	-39.9	-40.8	24.1	0.00e+00	0	32	101	1048576	58	6026
2026-01-05 16:38:11.29	352.93	24.75	-40.0	-40.9	24.0	0.00e+00	0	32	101	1048576	58	6054
2026-01-05 16:38:12.30	352.69	24.85	-39.9	-40.8	24.1	0.00e+00	28	31	101	1048576	58	5966
2026-01-05 16:38:13.32	352.45	24.94	-40.0	-40.9	24.1	0.00e+00	2	32	101	1048576	58	6092
2026-01-05 16:38:14.33	352.21	25.03	-40.2	-41.1	23.9	0.00e+00	28	32	101	1048576	58	6196
2026-01-05 16:38:15.34	351.97	25.12	-39.9	-40.8	24.2	0.00e+00	92	32	101	1048576	58	5965
2026-01-05 16:38:16.35	351.72	25.22	-40.0	-40.8	24.2	0.00e+00	25	32	101	1048576	58	6021
2026-01-05 16:38:17.36	351.48	25.31	-39.9	-40.7	24.2	0.00e+00	70	32	101	1048576	58	5953
2026-01-05 16:38:18.37	351.23	25.40	-39.9	-40.8	24.2	0.00e+00	0	32	101	1048576	58	6008
2026-01-05 16:38:19.38	350.99	25.49	-39.8	-40.7	24.3	0.00e+00	0	32	101	1048576	58	5942
2026-01-05 16:38:20.39	350.74	25.58	-39.8	-40.7	24.2	0.00e+00	20	32	101	1048576	58	5909
2026-01-05 16:38:21.40	350.49	25.68	-39.9	-40.8	24.2	0.00e+00	58	32	101	1048576	58	5993
2026-01-05 16:38:22.41	350.24	25.77	-39.8	-40.7	24.2	0.00e+00	92	32	101	1048576	58	5918
2026-01-05 16:38:23.43	349.98	25.86	-39.9	-40.8	24.1	0.00e+00	5	31	101	1048576	58	5977
2026-01-05 16:38:24.44	349.73	25.95	-39.8	-40.7	24.2	0.00e+00	92	31	101	1048576	58	5903
2026-01-05 16:38:25.45	349.47	26.04	-40.1	-40.9	24.2	0.00e+00	7	31	101	1048576	58	6076
2026-01-05 16:38:26.46	349.21	26.13	-40.1	-41.0	24.0	0.00e+00	6	32	101	1048576	58	6119
2026-01-05 16:38:27.47	348.95	26.22	-40.1	-41.0	24.1	0.00e+00	5	32	101	1048576	58	6121
2026-01-05 16:38:28.48	348.69	26.30	-40.3	-41.2	23.9	0.00e+00	5	31	101	1048576	58	6288
2026-01-05 16:38:29.49	348.43	26.39	-40.5	-41.4	23.7	0.00e+00	92	32	101	1048576	58	6418
2026-01-05 16:38:30.50	348.17	26.48	-40.7	-41.6	23.6	0.00e+00	0	31	101	1048576	58	6580
2026-01-05 16:38:31.51	347.90	26.57	-40.8	-41.7	23.4	0.00e+00	90	32	101	1048576	58	6672
2026-01-05 16:38:32.52	347.64	26.66	-41.0	-42.0	23.1	0.00e+00	0	32	101	1048576	58	6850
2026-01-05 16:38:33.54	347.37	26.74	-41.0	-42.0	23.1	0.00e+00	4	31	101	1048576	58	6901
2026-01-05 16:38:34.55	347.10	26.83	-40.9	-41.8	22.7	0.00e+00	22	31	101	1048576	58	6736
2026-01-05 16:38:35.56	346.83	26.92	-41.0	-41.9	23.3	0.00e+00	26	32	101	1048576	58	6820
2026-01-05 16:38:36.57	346.55	27.00	-41.0	-42.0	23.2	0.00e+00	35	31	101	1048576	58	6866
2026-01-05 16:38:37.58	346.28	27.09	-41.3	-42.2	22.9	0.00e+00	54	31	101	1048576	60	6312
2026-01-05 16:38:38.59	346.00	27.17	-41.2	-42.2	22.9	0.00e+00	92	32	101	1048576	60	6277
2026-01-05 16:38:39.60	345.73	27.26	-41.4	-42.5	22.8	0.00e+00	6	31	101	1048576	60	6472
2026-01-05 16:38:40.62	345.45	27.34	-41.5	-42.5	22.8	0.00e+00	92	31	101	1048576	60	6491
2026-01-05 16:38:41.63	345.17	27.42	-41.6	-42.7	22.6	0.00e+00	6	31	101	1048576	60	6637
2026-01-05 16:38:42.64	344.89	27.51	-41.8	-42.8	22.5	0.00e+00	5	31	101	1048576	60	6732
2026-01-05 16:38:43.65	344.60	27.59	-41.6	-42.7	22.5	0.00e+00	92	32	101	1048576	60	6635
2026-01-05 16:38:44.66	344.32	27.67	-41.9	-42.9	22.2	0.00e+00	0	32	101	1048576	60	6830
2026-01-05 16:38:45.67	344.03	27.75	-41.8	-42.9	22.4	0.00e+00	92	32	101	1048576	60	6808
2026-01-05 16:38:46.68	343.75	27.83	-41.7	-42.8	22.5	0.00e+00	0	31	101	1048576	60	6728
2026-01-05 16:38:47.69	343.46	27.91	-41.8	-42.9	22.4	0.00e+00	92	31	101	1048576	60	6797
2026-01-05 16:38:48.70	343.17	27.99	-42.0	-43.1	22.2	0.00e+00	0	31	101	1048576	60	6946
2026-01-05 16:38:49.72	342.87	28.07	-42.0	-43.1	22.1	0.00e+00	0	32	101	1048576	60	6963
2026-01-05 16:38:50.73	342.58	28.15	-42.0	-43.0	22.3	0.00e+00	0	32	101	1048576	60	6911
2026-01-05 16:38:51.74	342.29	28.23	-42.1	-43.2	22.1	0.00e+00	29	31	101	1048576	60	7088
2026-01-05 16:38:52.75	341.99	28.30	-42.1	-43.2	22.1	0.00e+00	90	31	101	1048576	60	7035
2026-01-05 16:38:53.76	341.69	28.38	-42.2	-43.3	22.0	0.00e+00	31	31	101	1048576	60	7122
2026-01-05 16:38:54.77	341.39	28.45	-42.1	-43.3	22.1	0.00e+00	92	31	101	1048576	60	7089
2026-01-05 16:38:55.78	341.09	28.53	-42.0	-43.1	22.2	0.00e+00	28	31	101	1048576	60	6988
2026-01-05 16:38:56.79	340.79	28.60	-41.8	-42.9	22.4	0.00e+00	50	31	101	1048576	60	6799
2026-01-05 16:38:57.80	340.49	28.68	-41.7	-42.7	22.6	0.00e+00	0	31	101	1048576	60	6662
2026-01-05 16:38:58.82	340.18	28.75	-41.7	-42.8	22.7	0.00e+00	0	31	101	1048576	60	6722
2026-01-05 16:38:59.83	339.88	28.82	-41.6	-42.6	22.7	0.00e+00	92	31	101	1048576	60	6567
2026-01-05 16:39:00.84	339.57	28.89	-41.4	-42.4	22.8	0.00e+00	0	31	101	1048576	60	6446
2026-01-05 16:39:01.85	339.26	28.96	-41.5	-42.5	22.7	0.00e+00	92	31	101	1048576	60	6503
2026-01-05 16:39:02.86	338.95	29.03	-41.5	-42.5	22.6	0.00e+00	0	31	101	1048576	60	6531
2026-01-05 16:39:03.87	338.64	29.10	-41.6	-42.6	21.9	0.00e+00	80	31	101	1048576	60	6558
2026-01-05 16:39:04.88	338.33	29.17	-41.6	-42.6	22.5	0.00e+00	0	31	101	1048576	60	6590
2026-01-05 16:39:05.89	338.01	29.24	-41.4	-42.4	22.7	0.00e+00	0	32	101	1048576	60	6454
2026-01-05 16:39:06.90	337.70	29.30	-41.2	-42.2	23.0	0.00e+00	15	31	101	1048576	60	6265
2026-01-05 16:39:07.91	337.38	29.37	-41.2	-42.2	23.0	0.00e+00	25	31	101	1048576	60	6269
2026-01-05 16:39:08.93	337.06	29.44	-41.3	-42.3	22.9	0.00e+00	92	31	101	1048576	60	6332
2026-01-05 16:39:09.94	336.74	29.50	-41.5	-42.5	22.8	0.00e+00	0	31	101	1048576	60	6494
2026-01-05 16:39:10.95	336.42	29.56	-41.6	-42.6	22.6	0.00e+00	91	31	101	1048576	60	6614
2026-01-05 16:39:11.96	336.10	29.63	-41.8	-42.9	22.5	0.00e+00	55	32	101	1048576	60	6770
2026-01-05 16:39:12.97	335.78	29.69	-41.6	-42.6	22.6	0.00e+00	57	31	101	1048576	60	6585
2026-01-05 16:39:13.98	335.45	29.75	-41.4	-42.4	22.8	0.00e+00	10	32	101	1048576	60	6445
2026-01-05 16:39:14.99	335.13	29.81	-41.6	-42.6	22.6	0.00e+00	0	31	101	1048576	60	6567
2026-01-05 16:39:16.00	334.80	29.87	-41.6	-42.7	22.6	0.00e+00	92	31	101	1048576	60	6616
2026-01-05 16:39:17.01	334.47	29.92	-41.6	-42.7	22.6	0.00e+00	2	31	101	1048576	60	6623
2026-01-05 16:39:18.02	334.15	29.98	-41.7	-42.7	22.5	0.00e+00	92	31	101	1048576	60	6668
2026-01-05 16:39:19.04	333.81	30.04	-41.8	-42.8	22.5	0.00e+00	0	32	101	1048576	60	6734
2026-01-05 16:39:20.05	333.48	30.09	-41.8	-42.8	22.5	0.00e+00	0	32	101	1048576	60	6724
2026-01-05 16:39:21.06	333.15	30.15	-41.8	-42.9	22.4	0.00e+00	2	32	101	1048576	60	6787
2026-01-05 16:39:22.07	332.81	30.20	-42.0	-43.0	22.2	0.00e+00	0	31	101	1048576	60	6899
2026-01-05 16:39:23.08	332.48	30.25	-42.0	-43.1	22.2	0.00e+00	92	32	101	1048576	60	6937
2026-01-05 16:39:24.09	332.14	30.30	-42.1	-43.2	22.1	0.00e+00	2	31	101	1048576	60	7023
2026-01-05 16:39:25.10	331.81	30.35	-42.1	-43.2	22.1	0.00e+00	92	31	101	1048576	60	7080
2026-01-05 16:39:26.11	331.47	30.40	-42.2	-43.3	22.0	0.00e+00	0	31	101	1048576	60	7132
2026-01-05 16:39:27.12	331.13	30.45	-42.3	-43.5	21.9	0.00e+00	0	31	101	1048576	60	7255
2026-01-05 16:39:28.14	330.79	30.50	-42.4	-43.6	21.8	0.00e+00	0	31	101	1048576	60	7372
2026-01-05 16:39:29.15	330.45	30.54	-42.3	-43.4	21.9	0.00e+00	30	31	101	1048576	60	7226
2026-01-05 16:39:30.16	330.11	30.59	-42.0	-43.0	22.3	0.00e+00	36	31	101	1048576	60	6918
2026-01-05 16:39:31.17	329.76	30.63	-41.7	-42.7	22.5	0.00e+00	0	31	101	1048576	60	6684
2026-01-05 16:39:32.18	329.42	30.67	-41.6	-42.6	22.7	0.00e+00	90	32	101	1048576	60	6595
2026-01-05 16:39:33.19	329.07	30.72	-41.5	-42.5	22.7	0.00e+00	49	31	101	1048576	60	6499
2026-01-05 16:39:34.20	328.73	30.76	-41.7	-42.7	22.6	0.00e+00	0	32	101	1048576	60	6657
2026-01-05 16:39:35.21	328.38	30.80	-41.8	-42.8	22.6	0.00e+00	2	32	101	1048576	60	6721
2026-01-05 16:39:36.23	328.03	30.83	-41.8	-42.8	22.6	0.00e+00	0	32	101	1048576	60	6728
2026-01-05 16:39:37.24	327.68	30.87	-41.6	-42.6	22.7	0.00e+00	81	32	101	1048576	60	6568
2026-01-05 16:39:38.25	327.34	30.91	-41.7	-42.7	22.5	0.00e+00	2	32	101	1048576	60	6645
2026-01-05 16:39:39.26	326.99	30.94	-41.5	-42.5	22.7	0.00e+00	92	32	101	1048576	60	6472
2026-01-05 16:39:40.27	326.64	30.98	-41.3	-42.3	23.0	0.00e+00	0	32	101	1048576	60	6358
2026-01-05 16:39:41.28	326.28	31.01	-41.4	-42.4	22.9	0.00e+00	83	31	101	1048576	60	6416
2026-01-05 16:39:42.29	325.93	31.04	-41.4	-42.4	22.8	0.00e+00	0	32	101	1048576	60	6449
2026-01-05 16:39:43.30	325.58	31.07	-41.5	-42.5	22.7	0.00e+00	24	32	101	1048576	60	6534
2026-01-05 16:39:44.31	325.23	31.10	-41.4	-42.4	22.8	0.00e+00	0	31	101	1048576	60	6425
2026-01-05 16:39:45.32	324.87	31.12	-41.5	-42.5	22.8	0.00e+00	29	32	101	1048576	60	6466
2026-01-05 16:39:46.34	324.52	31.15	-41.5	-42.5	22.7	0.00e+00	90	32	101	1048576	60	6498
2026-01-05 16:39:47.35	324.16	31.18	-41.8	-42.9	22.4	0.00e+00	0	32	101	1048576	60	6813
2026-01-05 16:39:48.36	323.81	31.20	-41.9	-42.9	22.4	0.00e+00	92	32	101	1048576	60	6843
2026-01-05 16:39:49.37	323.45	31.22	-42.0	-43.1	22.3	0.00e+00	50	32	101	1048576	60	6950
2026-01-05 16:39:50.38	323.09	31.24	-42.0	-43.1	22.2	0.00e+00	55	32	101	1048576	60	6951
2026-01-05 16:39:51.39	322.74	31.26	-42.1	-43.1	22.1	0.00e+00	51	31	101	1048576	60	7001
2026-01-05 16:39:52.40	322.38	31.28	-42.1	-43.2	22.2	0.00e+00	5	31	101	1048576	60	7047
2026-01-05 16:39:53.41	322.02	31.30	-42.1	-43.2	22.2	0.00e+00	92	31	101	1048576	60	7039
2026-01-05 16:39:54.42	321.66	31.32	-42.1	-43.1	22.2	0.00e+00	0	32	101	1048576	60	6987
2026-01-05 16:39:55.43	321.31	31.33	-42.0	-43.1	22.2	0.00e+00	92	32	101	1048576	60	6943
2026-01-05 16:39:56.45	320.94	31.35	-42.3	-43.4	22.0	0.00e+00	0	32	101	1048576	60	7225
2026-01-05 16:39:57.46	320.58	31.36	-42.5	-43.7	21.7	0.00e+00	0	31	101	1048576	60	7442
2026-01-05 16:39:58.47	320.22	31.37	-42.8	-44.0	21.5	0.00e+00	0	32	101	1048576	60	7741
2026-01-05 16:39:59.48	319.87	31.38	-42.9	-44.1	21.3	0.00e+00	0	31	101	1048576	60	7828
2026-01-05 16:40:00.49	319.51	31.39	-43.1	-44.3	21.2	0.00e+00	2	31	101	1048576	60	8045
2026-01-05 16:40:01.50	319.15	31.40	-43.1	-44.4	21.2	0.00e+00	0	31	101	1048576	60	8047
2026-01-05 16:40:02.51	318.79	31.40	-43.0	-44.3	21.2	0.00e+00	92	31	101	1048576	60	7961
2026-01-05 16:40:03.52	318.43	31.41	-42.8	-44.0	21.4	0.00e+00	27	31	101	1048576	60	7733
2026-01-05 16:40:04.54	318.06	31.41	-42.7	-43.9	21.6	0.00e+00	71	31	101	1048576	60	7607
2026-01-05 16:40:05.55	317.70	31.41	-42.6	-43.7	21.7	0.00e+00	60	32	101	1048576	60	7463
2026-01-05 16:40:06.56	317.34	31.42	-42.7	-43.8	21.5	0.00e+00	23	31	101	1048576	60	7561
2026-01-05 16:40:07.57	316.98	31.42	-42.7	-43.9	21.5	0.00e+00	0	32	101	1048576	60	7641
2026-01-05 16:40:08.58	316.62	31.41	-43.0	-44.2	21.2	0.00e+00	25	32	101	1048576	60	7924
2026-01-05 16:40:09.59	316.26	31.41	-43.1	-44.3	21.3	0.00e+00	92	31	101	1048576	60	7973
2026-01-05 16:40:10.60	315.90	31.41	-42.8	-44.0	21.4	0.00e+00	6	32	101	1048576	60	7706
2026-01-05 16:40:11.61	315.54	31.40	-42.6	-43.8	21.6	0.00e+00	68	32	101	1048576	60	7541
2026-01-05 16:40:12.62	315.18	31.40	-42.5	-43.6	21.7	0.00e+00	6	32	101	1048576	60	7388
2026-01-05 16:40:13.63	314.82	31.39	-42.2	-43.3	22.2	0.00e+00	63	32	101	1048576	60	7090
2026-01-05 16:40:14.64	314.46	31.38	-42.1	-43.1	22.2	0.00e+00	57	32	101	1048576	60	6981
2026-01-05 16:40:15.65	314.10	31.37	-41.8	-42.8	22.5	0.00e+00	0	31	101	1048576	60	6762
2026-01-05 16:40:16.66	313.74	31.36	-41.8	-42.9	22.4	0.00e+00	92	32	101	1048576	60	6793
2026-01-05 16:40:17.68	313.38	31.34	-42.0	-43.1	22.3	0.00e+00	0	31	101	1048576	60	6960
2026-01-05 16:40:18.69	313.02	31.33	-42.2	-43.2	22.2	0.00e+00	92	32	101	1048576	60	7088
2026-01-05 16:40:19.70	312.66	31.31	-42.0	-43.0	22.3	0.00e+00	0	31	101	1048576	60	6913
2026-01-05 16:40:20.71	312.30	31.30	-42.2	-43.3	22.2	0.00e+00	0	31	101	1048576	60	7130
2026-01-05 16:40:21.72	311.94	31.28	-42.1	-43.2	22.1	0.00e+00	31	31	101	1048576	60	7061
2026-01-05 16:40:22.73	311.59	31.26	-42.3	-43.3	22.0	0.00e+00	0	32	101	1048576	60	7170
2026-01-05 16:40:23.74	311.23	31.24	-42.0	-43.1	22.3	0.00e+00	0	32	101	1048576	60	6955
2026-01-05 16:40:24.75	310.87	31.22	-41.8	-42.8	22.7	0.00e+00	31	31	101	1048576	60	6710
2026-01-05 16:40:25.76	310.52	31.20	-41.7	-42.7	22.6	0.00e+00	90	31	101	1048576	60	6635
2026-01-05 16:40:26.77	310.16	31.17	-41.7	-42.7	22.6	0.00e+00	57	31	101	1048576	60	6647
2026-01-05 16:40:27.79	309.80	31.15	-41.9	-43.0	22.3	0.00e+00	51	31	101	1048576	60	6865
2026-01-05 16:40:28.80	309.45	31.12	-42.2	-43.3	22.1	0.00e+00	0	32	101	1048576	60	7120
2026-01-05 16:40:29.81	309.09	31.09	-42.2	-43.3	22.0	0.00e+00	51	31	101	1048576	60	7137
2026-01-05 16:40:30.82	308.74	31.06	-42.5	-43.6	21.9	0.00e+00	28	31	101	1048576	60	7405
2026-01-05 16:40:31.83	308.39	31.03	-42.4	-43.5	21.9	0.00e+00	0	31	101	1048576	60	7305
2026-01-05 16:40:32.84	308.04	31.00	-42.2	-43.3	22.0	0.00e+00	92	31	101	1048576	60	7126
2026-01-05 16:40:33.85	307.69	30.97	-42.2	-43.3	22.0	0.00e+00	0	31	101	1048576	60	7110
2026-01-05 16:40:34.87	307.33	30.93	-42.3	-43.5	21.8	0.00e+00	92	31	101	1048576	60	7265
2026-01-05 16:40:35.88	306.98	30.90	-42.0	-43.0	22.3	0.00e+00	0	31	101	1048576	60	6914
2026-01-05 16:40:36.89	306.63	30.86	-41.8	-42.9	22.5	0.00e+00	0	31	101	1048576	60	6792
2026-01-05 16:40:37.90	306.29	30.83	-41.7	-42.7	22.6	0.00e+00	0	31	101	1048576	60	6673
2026-01-05 16:40:38.91	305.94	30.79	-41.9	-43.0	22.4	0.00e+00	0	31	101	1048576	60	6862
2026-01-05 16:40:39.92	305.59	30.75	-41.9	-42.9	22.4	0.00e+00	92	31	101	1048576	60	6836
2026-01-05 16:40:40.93	305.25	30.71	-42.0	-43.0	22.3	0.00e+00	25	31	101	1048576	60	6894
2026-01-05 16:40:41.95	304.90	30.66	-42.0	-43.1	22.3	0.00e+00	92	31	101	1048576	60	6975
2026-01-05 16:40:42.96	304.55	30.62	-42.3	-43.4	22.0	0.00e+00	0	31	101	1048576	60	7192
2026-01-05 16:40:43.97	304.21	30.58	-42.3	-43.4	22.1	0.00e+00	29	31	101	1048576	60	7178
2026-01-05 16:40:44.98	303.87	30.53	-42.0	-43.1	22.3	0.00e+00	30	32	101	1048576	60	6968
2026-01-05 16:40:45.99	303.53	30.49	-42.0	-43.1	22.4	0.00e+00	50	31	101	1048576	60	6932
2026-01-05 16:40:47.00	303.19	30.44	-41.8	-42.9	22.4	0.00e+00	92	31	101	1048576	60	6797
2026-01-05 16:40:48.02	302.85	30.39	-42.0	-43.0	22.4	0.00e+00	52	32	101	1048576	60	6911
2026-01-05 16:40:49.03	302.51	30.34	-41.9	-42.9	22.5	0.00e+00	92	32	101	1048576	60	6811
2026-01-05 16:40:50.04	302.17	30.29	-41.9	-43.0	22.4	0.00e+00	0	31	101	1048576	60	6876
2026-01-05 16:40:51.05	301.84	30.24	-42.2	-43.3	22.1	0.00e+00	0	32	101	1048576	60	7090
2026-01-05 16:40:52.06	301.50	30.19	-42.1	-43.2	22.2	0.00e+00	0	32	101	1048576	60	7055
2026-01-05 16:40:53.07	301.17	30.13	-42.2	-43.3	22.1	0.00e+00	0	31	101	1048576	60	7155
2026-01-05 16:40:54.09	300.83	30.08	-42.2	-43.4	22.2	0.00e+00	2	31	101	1048576	60	7171
2026-01-05 16:40:55.10	300.50	30.02	-42.4	-43.5	21.8	0.00e+00	31	31	101	1048576	60	7309
2026-01-05 16:40:56.11	300.17	29.97	-42.2	-43.3	22.1	0.00e+00	92	31	101	1048576	60	7109
2026-01-05 16:40:57.12	299.84	29.91	-42.2	-43.3	22.0	0.00e+00	30	31	101	1048576	60	7143
2026-01-05 16:40:58.13	299.51	29.85	-42.4	-43.5	21.9	0.00e+00	57	31	101	1048576	60	7311
2026-01-05 16:40:59.14	299.19	29.79	-42.4	-43.6	21.8	0.00e+00	0	31	101	1048576	60	7349
2026-01-05 16:41:00.15	298.86	29.73	-42.5	-43.7	21.8	0.00e+00	51	31	101	1048576	60	7432
2026-01-05 16:41:01.16	298.54	29.67	-42.5	-43.7	21.7	0.00e+00	7	31	101	1048576	60	7450
2026-01-05 16:41:02.18	298.21	29.61	-42.4	-43.6	21.9	0.00e+00	50	31	101	1048576	60	7348
2026-01-05 16:41:03.19	297.89	29.55	-42.5	-43.6	21.9	0.00e+00	92	31	101	1048576	60	7356
2026-01-05 16:41:04.20	297.57	29.48	-42.5	-43.6	21.9	0.00e+00	0	31	101	1048576	60	7372
2026-01-05 16:41:05.21	297.25	29.42	-42.3	-43.4	22.0	0.00e+00	92	31	101	1048576	60	7195
2026-01-05 16:41:06.22	296.93	29.35	-42.5	-43.6	21.8	0.00e+00	2	31	101	1048576	60	7406
2026-01-05 16:41:07.23	296.61	29.29	-42.4	-43.5	21.9	0.00e+00	0	31	101	1048576	60	7295
2026-01-05 16:41:08.24	296.30	29.22	-42.4	-43.6	21.7	0.00e+00	0	31	101	1048576	60	7355
2026-01-05 16:41:09.25	295.99	29.15	-42.6	-43.8	21.6	0.00e+00	2	31	101	1048576	60	7535
2026-01-05 16:41:10.26	295.67	29.08	-42.9	-44.1	21.3	0.00e+00	92	32	101	1048576	60	7861
2026-01-05 16:41:11.27	295.36	29.02	-43.0	-44.2	21.2	0.00e+00	2	31	101	1048576	60	7935
2026-01-05 16:41:12.29	295.05	28.94	-43.0	-44.2	21.3	0.00e+00	92	31	101	1048576	60	7909
2026-01-05 16:41:13.30	294.74	28.87	-42.8	-44.0	21.5	0.00e+00	0	31	101	1048576	60	7726
2026-01-05 16:41:14.31	294.43	28.80	-42.5	-43.6	21.8	0.00e+00	0	31	101	1048576	60	7408
2026-01-05 16:41:15.32	294.13	28.73	-42.3	-43.4	22.0	0.00e+00	0	31	101	1048576	60	7194
2026-01-05 16:41:16.33	293.82	28.66	-42.2	-43.3	22.0	0.00e+00	29	31	101	1048576	60	7144
2026-01-05 16:41:17.34	293.52	28.58	-42.4	-43.5	21.9	0.00e+00	41	31	101	1048576	60	7299
2026-01-05 16:41:18.36	293.21	28.51	-42.2	-43.3	22.1	0.00e+00	53	31	101	1048576	60	7139
2026-01-05 16:41:19.37	292.91	28.43	-42.2	-43.3	22.0	0.00e+00	92	31	101	1048576	60	7154
2026-01-05 16:41:20.38	292.62	28.36	-42.2	-43.2	22.2	0.00e+00	29	31	101	1048576	60	7084
2026-01-05 16:41:21.39	292.32	28.28	-42.0	-43.1	22.3	0.00e+00	79	32	101	1048576	60	6965
2026-01-05 16:41:22.40	292.02	28.20	-42.1	-43.2	22.1	0.00e+00	0	31	101	1048576	60	7034
2026-01-05 16:41:23.41	291.73	28.13	-42.1	-43.2	22.2	0.00e+00	0	31	101	1048576	60	7060
2026-01-05 16:41:24.43	291.43	28.05	-42.0	-43.0	22.2	0.00e+00	28	31	101	1048576	60	6918
2026-01-05 16:41:25.44	291.14	27.97	-42.0	-43.1	22.3	0.00e+00	54	31	101	1048576	60	6931
2026-01-05 16:41:26.45	290.85	27.89	-42.1	-43.2	22.1	0.00e+00	92	31	101	1048576	60	7037
2026-01-05 16:41:27.46	290.56	27.81	-42.1	-43.2	22.3	0.00e+00	0	31	101	1048576	60	7032
2026-01-05 16:41:28.47	290.27	27.73	-41.9	-43.0	22.4	0.00e+00	64	32	101	1048576	60	6853
2026-01-05 16:41:29.48	289.99	27.65	-41.6	-42.6	22.7	0.00e+00	6	31	101	1048576	60	6603
2026-01-05 16:41:30.49	289.70	27.56	-41.6	-42.6	22.8	0.00e+00	0	31	101	1048576	60	6556
2026-01-05 16:41:31.50	289.42	27.48	-41.5	-42.5	22.8	0.00e+00	0	31	101	1048576	60	6539
2026-01-05 16:41:32.52	289.14	27.40	-41.5	-42.5	22.8	0.00e+00	28	31	101	1048576	60	6489
2026-01-05 16:41:33.53	288.86	27.31	-41.5	-42.5	22.7	0.00e+00	90	31	101	1048576	60	6521
2026-01-05 16:41:34.54	288.58	27.23	-41.7	-42.7	22.5	0.00e+00	0	31	101	1048576	60	6684
2026-01-05 16:41:35.55	288.30	27.15	-41.9	-42.9	22.4	0.00e+00	92	31	101	1048576	60	6827
2026-01-05 16:41:36.56	288.03	27.06	-42.0	-43.1	22.3	0.00e+00	24	32	101	1048576	60	6930
2026-01-05 16:41:37.57	287.75	26.97	-41.8	-42.9	22.4	0.00e+00	6	31	101	1048576	60	6788
2026-01-05 16:41:38.58	287.48	26.89	-41.9	-42.9	22.4	0.00e+00	61	31	101	1048576	60	6827
2026-01-05 16:41:39.59	287.21	26.80	-41.4	-42.5	22.8	0.00e+00	65	31	101	1048576	60	6465
2026-01-05 16:41:40.60	286.94	26.72	-41.6	-42.6	22.6	0.00e+00	92	31	101	1048576	60	6556
2026-01-05 16:41:41.61	286.67	26.63	-41.4	-42.4	22.9	0.00e+00	62	31	101	1048576	60	6441
2026-01-05 16:41:42.62	286.40	26.54	-41.1	-42.1	23.1	0.00e+00	92	31	101	1048576	60	6205
2026-01-05 16:41:43.64	286.14	26.45	-41.2	-42.2	23.1	0.00e+00	59	31	101	1048576	60	6269
2026-01-05 16:41:44.65	285.87	26.36	-41.3	-42.2	23.0	0.00e+00	0	31	101	1048576	60	6307
2026-01-05 16:41:45.66	285.61	26.28	-41.0	-42.0	23.3	0.00e+00	6	31	101	1048576	60	6122
2026-01-05 16:41:46.67	285.35	26.19	-41.3	-42.3	23.1	0.00e+00	7	31	101	1048576	60	6321
2026-01-05 16:41:47.68	285.09	26.10	-41.4	-42.4	22.9	0.00e+00	0	31	101	1048576	60	6405
2026-01-05 16:41:48.69	284.83	26.01	-41.3	-42.3	23.0	0.00e+00	6	31	101	1048576	60	6331
2026-01-05 16:41:49.70	284.57	25.92	-40.8	-41.8	23.4	0.00e+00	90	31	101	1048576	60	5992
2026-01-05 16:41:50.71	284.32	25.83	-40.8	-41.7	23.4	0.00e+00	0	31	101	1048576	60	5956
2026-01-05 16:41:51.72	284.07	25.74	-40.7	-41.6	23.5	0.00e+00	73	31	101	1048576	60	5847
2026-01-05 16:41:52.73	283.81	25.65	-40.6	-41.5	23.6	0.00e+00	30	31	101	1048576	60	5811
2026-01-05 16:41:53.74	283.56	25.55	-40.6	-41.5	23.6	0.00e+00	30	31	101	1048576	60	5823
2026-01-05 16:41:54.75	283.31	25.46	-40.4	-41.3	23.8	0.00e+00	18	31	101	1048576	60	5693
2026-01-05 16:41:55.76	283.07	25.37	-40.4	-41.3	23.9	0.00e+00	29	31	101	1048576	60	5692
2026-01-05 16:41:56.78	282.82	25.28	-40.3	-41.1	24.0	0.00e+00	92	31	101	1048576	60	5559
2026-01-05 16:41:57.79	282.57	25.18	-40.1	-41.0	24.1	0.00e+00	50	31	101	1048576	58	6141
2026-01-05 16:41:58.80	282.33	25.09	-40.0	-40.9	24.1	0.00e+00	92	31	101	1048576	58	6044
2026-01-05 16:41:59.81	282.09	25.00	-40.0	-40.8	24.1	0.00e+00	53	31	101	1048576	58	6027
2026-01-05 16:42:00.82	281.85	24.91	-39.9	-40.7	24.3	0.00e+00	51	31	101	1048576	58	5949
2026-01-05 16:42:01.83	281.61	24.81	-39.7	-40.6	24.4	0.00e+00	53	31	101	1048576	58	5845
2026-01-05 16:42:02.84	281.37	24.72	-39.5	-40.4	24.3	0.00e+00	0	31	101	1048576	58	5708
2026-01-05 16:42:03.85	281.14	24.63	-39.3	-40.1	24.8	0.00e+00	92	31	101	1048576	58	5547
2026-01-05 16:42:04.86	280.90	24.53	-39.4	-40.2	24.8	0.00e+00	0	31	101	1048576	58	5579
2026-01-05 16:42:05.88	280.67	24.44	-39.2	-40.0	24.9	0.00e+00	92	31	101	1048576	58	5464
2026-01-05 16:42:06.89	280.43	24.34	-39.1	-39.9	25.0	0.00e+00	0	31	101	1048576	56	6050
2026-01-05 16:42:07.90	280.20	24.25	-39.1	-39.8	24.9	0.00e+00	24	31	101	1048576	56	6028
2026-01-05 16:42:08.91	279.97	24.15	-39.1	-39.9	25.0	0.00e+00	0	31	101	1048576	56	6078
2026-01-05 16:42:09.92	279.75	24.06	-39.0	-39.8	25.0	0.00e+00	0	31	101	1048576	56	5994
2026-01-05 16:42:10.93	279.52	23.96	-39.0	-39.8	25.0	0.00e+00	29	31	101	1048576	56	6014
2026-01-05 16:42:11.94	279.30	23.87	-39.2	-40.0	24.8	0.00e+00	22	31	101	1048576	56	6153
2026-01-05 16:42:12.95	279.07	23.77	-39.2	-40.0	24.9	0.00e+00	92	31	101	1048576	56	6142
2026-01-05 16:42:13.96	278.85	23.68	-39.1	-39.9	24.9	0.00e+00	52	31	101	1048576	56	6045
2026-01-05 16:42:14.97	278.63	23.58	-38.9	-39.7	25.1	0.00e+00	90	31	101	1048576	56	5941
2026-01-05 16:42:15.99	278.41	23.49	-39.0	-39.8	25.0	0.00e+00	54	31	101	1048576	56	5999
2026-01-05 16:42:17.00	278.19	23.39	-38.6	-39.4	25.4	0.00e+00	53	31	101	1048576	56	5731
2026-01-05 16:42:18.01	277.97	23.29	-38.6	-39.4	25.3	0.00e+00	21	31	101	1048576	56	5740
2026-01-05 16:42:19.02	277.76	23.20	-38.6	-39.3	25.4	0.00e+00	0	31	101	1048576	56	5688
2026-01-05 16:42:20.03	277.54	23.10	-38.4	-39.1	25.6	0.00e+00	92	31	101	1048576	56	5549
2026-01-05 16:42:21.04	277.33	23.01	-38.4	-39.2	25.7	0.00e+00	0	31	101	1048576	56	5571
2026-01-05 16:42:22.05	277.12	22.91	-38.5	-39.2	25.6	0.00e+00	92	31	101	1048576	56	5622
2026-01-05 16:42:23.07	276.91	22.81	-38.4	-39.2	25.6	0.00e+00	0	31	101	1048576	56	5571
2026-01-05 16:42:24.08	276.70	22.72	-38.3	-39.1	25.6	0.00e+00	2	31	101	1048576	56	5533
2026-01-05 16:42:25.09	276.49	22.62	-38.4	-39.2	25.6	0.00e+00	2	31	101	1048576	56	5617
2026-01-05 16:42:26.10	276.28	22.52	-38.4	-39.1	25.5	0.00e+00	0	31	101	1048576	56	5557
2026-01-05 16:42:27.11	276.08	22.43	-38.4	-39.2	25.5	0.00e+00	92	31	101	1048576	56	5593
2026-01-05 16:42:28.12	275.87	22.33	-38.3	-39.0	25.6	0.00e+00	29	31	101	1048576	56	5488
2026-01-05 16:42:29.13	275.67	22.23	-38.4	-39.1	25.5	0.00e+00	91	31	101	1048576	56	5550
2026-01-05 16:42:30.14	275.47	22.14	-38.3	-39.1	25.4	0.00e+00	0	31	101	1048576	56	5539
2026-01-05 16:42:31.15	275.27	22.04	-38.3	-39.1	25.7	0.00e+00	28	31	101	1048576	56	5538
2026-01-05 16:42:32.17	275.07	21.94	-38.2	-39.0	25.7	0.00e+00	24	31	101	1048576	56	5467
2026-01-05 16:42:33.18	274.87	21.85	-38.4	-39.2	25.5	0.00e+00	28	31	101	1048576	56	5574
2026-01-05 16:42:34.19	274.68	21.75	-38.3	-39.1	25.6	0.00e+00	91	31	101	1048576	56	5526
2026-01-05 16:42:35.20	274.48	21.66	-38.4	-39.1	25.6	0.00e+00	2	31	101	1048576	56	5550
2026-01-05 16:42:36.21	274.29	21.56	-38.4	-39.2	25.5	0.00e+00	92	31	101	1048576	56	5611
2026-01-05 16:42:37.22	274.10	21.46	-38.5	-39.3	25.4	0.00e+00	2	31	101	1048576	56	5672
2026-01-05 16:42:38.23	273.90	21.37	-38.6	-39.4	25.4	0.00e+00	43	31	101	1048576	56	5747
2026-01-05 16:42:39.24	273.71	21.27	-38.7	-39.5	25.3	0.00e+00	2	31	101	1048576	56	5794
2026-01-05 16:42:40.25	273.53	21.17	-38.7	-39.5	25.2	0.00e+00	0	31	101	1048576	56	5809
2026-01-05 16:42:41.26	273.34	21.08	-38.7	-39.5	24.8	0.00e+00	0	31	101	1048576	56	5795
2026-01-05 16:42:42.27	273.15	20.98	-38.8	-39.5	24.9	0.00e+00	0	31	101	1048576	56	5823
2026-01-05 16:42:43.29	272.96	20.88	-38.8	-39.6	25.1	0.00e+00	90	31	101	1048576	56	5833
2026-01-05 16:42:44.30	272.78	20.79	-38.9	-39.7	25.2	0.00e+00	28	31	101	1048576	56	5919
2026-01-05 16:42:45.31	272.60	20.69	-38.9	-39.7	25.1	0.00e+00	76	31	101	1048576	56	5937
2026-01-05 16:42:46.32	272.42	20.60	-39.0	-39.8	25.0	0.00e+00	27	31	101	1048576	56	6000
2026-01-05 16:42:47.33	272.23	20.50	-38.9	-39.7	25.0	0.00e+00	27	31	101	1048576	56	5957
2026-01-05 16:42:48.34	272.06	20.40	-39.1	-39.9	24.9	0.00e+00	0	31	101	1048576	56	6057
2026-01-05 16:42:49.35	271.88	20.31	-38.9	-39.7	25.0	0.00e+00	27	31	101	1048576	56	5942
2026-01-05 16:42:50.36	271.70	20.21	-39.0	-39.8	25.0	0.00e+00	92	31	101	1048576	56	5969
2026-01-05 16:42:51.37	271.52	20.12	-39.2	-40.0	24.8	0.00e+00	0	31	101	1048576	56	6141
2026-01-05 16:42:52.39	271.35	20.02	-39.1	-40.0	24.9	0.00e+00	92	31	101	1048576	56	6106
2026-01-05 16:42:53.40	271.17	19.92	-39.2	-40.0	24.8	0.00e+00	5	31	101	1048576	56	6169
2026-01-05 16:42:54.41	271.00	19.83	-39.4	-40.2	24.7	0.00e+00	55	31	101	1048576	56	6279
2026-01-05 16:42:55.42	270.83	19.73	-39.6	-40.4	24.5	0.00e+00	58	31	101	1048576	56	6428
2026-01-05 16:42:56.43	270.66	19.64	-39.6	-40.5	24.5	0.00e+00	6	31	101	1048576	56	6468
2026-01-05 16:42:57.44	270.49	19.54	-39.6	-40.5	24.4	0.00e+00	22	31	101	1048576	56	6475
2026-01-05 16:42:58.45	270.32	19.45	-39.7	-40.6	24.3	0.00e+00	0	31	101	1048576	56	6544
2026-01-05 16:42:59.46	270.15	19.35	-39.7	-40.5	24.3	0.00e+00	92	31	101	1048576	56	6504
2026-01-05 16:43:00.47	269.98	19.26	-39.7	-40.5	24.4	0.00e+00	0	31	101	1048576	56	6527
2026-01-05 16:43:01.48	269.82	19.16	-39.7	-40.6	24.4	0.00e+00	0	31	101	1048576	56	6574
2026-01-05 16:43:02.49	269.65	19.07	-39.8	-40.6	24.4	0.00e+00	6	31	101	1048576	56	6604
2026-01-05 16:43:03.51	269.49	18.97	-39.8	-40.6	24.3	0.00e+00	0	31	101	1048576	56	6597
2026-01-05 16:43:04.52	269.33	18.88	-40.0	-40.8	24.1	0.00e+00	42	31	101	1048576	56	6748
2026-01-05 16:43:05.53	269.17	18.78	-39.8	-40.7	24.3	0.00e+00	5	31	101	1048576	56	6657
2026-01-05 16:43:06.54	269.01	18.69	-40.0	-40.8	24.1	0.00e+00	90	31	101	1048576	56	6760
2026-01-05 16:43:07.55	268.85	18.60	-40.1	-40.9	24.1	0.00e+00	64	31	101	1048576	56	6836
2026-01-05 16:43:08.56	268.69	18.50	-40.2	-41.0	23.8	0.00e+00	92	31	101	1048576	58	6172
2026-01-05 16:43:09.57	268.53	18.41	-40.0	-40.9	24.0	0.00e+00	21	31	101	1048576	58	6088
2026-01-05 16:43:10.59	268.37	18.31	-40.1	-41.0	24.0	0.00e+00	64	31	101	1048576	58	6108
2026-01-05 16:43:11.60	268.22	18.22	-39.9	-40.8	24.0	0.00e+00	79	31	101	1048576	58	6013
2026-01-05 16:43:12.61	268.06	18.13	-40.1	-41.0	24.0	0.00e+00	7	31	101	1048576	58	6104
2026-01-05 16:43:13.62	267.91	18.03	-40.1	-41.0	23.9	0.00e+00	92	31	101	1048576	58	6134
2026-01-05 16:43:14.63	267.76	17.94	-40.2	-41.1	23.8	0.00e+00	58	31	101	1048576	58	6211
2026-01-05 16:43:15.64	267.61	17.85	-40.2	-41.1	23.9	0.00e+00	91	31	101	1048576	58	6181
2026-01-05 16:43:16.65	267.46	17.76	-40.1	-41.0	23.9	0.00e+00	8	31	101	1048576	58	6160
2026-01-05 16:43:17.66	267.31	17.66	-40.2	-41.1	23.9	0.00e+00	7	31	101	1048576	58	6209
2026-01-05 16:43:18.68	267.16	17.57	-40.2	-41.1	23.7	0.00e+00	0	31	101	1048576	58	6234
2026-01-05 16:43:19.69	267.01	17.48	-40.3	-41.2	23.7	0.00e+00	7	31	101	1048576	58	6272
2026-01-05 16:43:20.70	266.86	17.38	-40.3	-41.2	23.7	0.00e+00	92	31	101	1048576	58	6308
2026-01-05 16:43:21.71	266.71	17.29	-40.5	-41.4	23.6	0.00e+00	26	31	101	1048576	58	6447
2026-01-05 16:43:22.72	266.57	17.20	-40.3	-41.2	23.8	0.00e+00	91	31	101	1048576	58	6249
2026-01-05 16:43:23.73	266.43	17.11	-40.3	-41.2	23.7	0.00e+00	27	31	101	1048576	58	6310
2026-01-05 16:43:24.74	266.28	17.02	-40.3	-41.2	23.8	0.00e+00	0	31	101	1048576	58	6252
2026-01-05 16:43:25.76	266.14	16.92	-40.3	-41.2	23.8	0.00e+00	26	31	101	1048576	58	6265
2026-01-05 16:43:26.77	266.00	16.83	-40.3	-41.2	23.7	0.00e+00	27	31	101	1048576	58	6306
2026-01-05 16:43:27.78	265.86	16.74	-40.2	-41.1	23.8	0.00e+00	92	31	101	1048576	58	6212
2026-01-05 16:43:28.79	265.72	16.65	-40.2	-41.1	23.8	0.00e+00	26	31	101	1048576	58	6241
2026-01-05 16:43:29.80	265.58	16.56	-40.4	-41.3	23.6	0.00e+00	90	31	101	1048576	58	6385
2026-01-05 16:43:30.81	265.44	16.47	-40.5	-41.4	23.4	0.00e+00	55	31	101	1048576	58	6458
2026-01-05 16:43:31.82	265.30	16.38	-40.6	-41.5	23.4	0.00e+00	92	31	101	1048576	58	6534
2026-01-05 16:43:32.83	265.17	16.29	-40.6	-41.6	23.4	0.00e+00	2	31	101	1048576	58	6559
2026-01-05 16:43:33.84	265.03	16.20	-40.7	-41.7	23.3	0.00e+00	53	31	101	1048576	58	6647
2026-01-05 16:43:34.85	264.90	16.11	-40.7	-41.7	23.3	0.00e+00	0	31	101	1048576	58	6652
2026-01-05 16:43:35.86	264.76	16.02	-40.7	-41.7	23.3	0.00e+00	0	31	101	1048576	58	6617
2026-01-05 16:43:36.88	264.63	15.93	-40.9	-41.9	23.1	0.00e+00	92	31	101	1048576	60	6039
2026-01-05 16:43:37.89	264.49	15.84	-40.9	-41.9	23.2	0.00e+00	0	31	101	1048576	60	6063
2026-01-05 16:43:38.90	264.36	15.75	-41.0	-42.0	23.0	0.00e+00	91	31	101	1048576	60	6126
2026-01-05 16:43:39.91	264.23	15.66	-41.0	-41.9	23.1	0.00e+00	0	31	101	1048576	60	6095
2026-01-05 16:43:40.92	264.10	15.57	-40.9	-41.9	23.1	0.00e+00	21	31	101	1048576	60	6067
2026-01-05 16:43:41.93	263.97	15.48	-41.0	-42.0	23.1	0.00e+00	0	31	101	1048576	60	6114
2026-01-05 16:43:42.94	263.85	15.39	-41.1	-42.0	23.0	0.00e+00	22	31	101	1048576	60	6171
2026-01-05 16:43:43.95	263.72	15.31	-41.0	-42.0	23.0	0.00e+00	92	31	101	1048576	60	6122
2026-01-05 16:43:44.96	263.59	15.22	-41.1	-42.1	22.9	0.00e+00	56	31	101	1048576	60	6231
2026-01-05 16:43:45.97	263.47	15.13	-41.1	-42.1	22.9	0.00e+00	92	31	101	1048576	60	6225
2026-01-05 16:43:46.99	263.34	15.04	-41.3	-42.3	22.8	0.00e+00	0	31	101	1048576	60	6341
2026-01-05 16:43:48.00	263.21	14.95	-41.3	-42.3	22.7	0.00e+00	55	31	101	1048576	60	6379
2026-01-05 16:43:49.01	263.09	14.87	-41.4	-42.4	22.6	0.00e+00	2	31	101	1048576	60	6429
2026-01-05 16:43:50.02	262.97	14.78	-41.4	-42.5	22.4	0.00e+00	0	31	101	1048576	60	6481
2026-01-05 16:43:51.03	262.84	14.69	-41.4	-42.4	22.7	0.00e+00	92	31	101	1048576	60	6432
2026-01-05 16:43:52.04	262.72	14.60	-41.5	-42.5	22.5	0.00e+00	0	31	101	1048576	60	6502
2026-01-05 16:43:53.05	262.60	14.52	-41.4	-42.5	22.6	0.00e+00	92	31	101	1048576	60	6478
2026-01-05 16:43:54.06	262.48	14.43	-41.5	-42.5	22.6	0.00e+00	0	31	101	1048576	60	6510
2026-01-05 16:43:55.08	262.36	14.34	-41.5	-42.6	22.5	0.00e+00	20	31	101	1048576	60	6561
2026-01-05 16:43:56.09	262.24	14.26	-41.5	-42.6	22.5	0.00e+00	0	31	101	1048576	60	6561
2026-01-05 16:43:57.10	262.13	14.17	-41.4	-42.4	22.6	0.00e+00	0	31	101	1048576	60	6446
2026-01-05 16:43:58.11	262.01	14.08	-41.4	-42.4	22.6	0.00e+00	56	31	101	1048576	60	6424
2026-01-05 16:43:59.12	261.89	14.00	-41.4	-42.4	22.6	0.00e+00	0	32	101	1048576	60	6430
2026-01-05 16:44:00.13	261.78	13.91	-41.4	-42.4	22.7	0.00e+00	92	31	101	1048576	60	6403
2026-01-05 16:44:01.14	261.66	13.83	-41.4	-42.4	22.6	0.00e+00	25	31	101	1048576	60	6457
2026-01-05 16:44:02.15	261.55	13.74	-41.5	-42.5	22.5	0.00e+00	92	31	101	1048576	60	6524
2026-01-05 16:44:03.16	261.43	13.66	-41.5	-42.5	22.6	0.00e+00	0	31	101	1048576	60	6507
2026-01-05 16:44:04.18	261.32	13.57	-41.5	-42.5	22.4	0.00e+00	55	31	101	1048576	60	6509
2026-01-05 16:44:05.19	261.20	13.49	-41.5	-42.5	22.5	0.00e+00	15	31	101	1048576	60	6504
2026-01-05 16:44:06.20	261.09	13.40	-41.5	-42.5	22.5	0.00e+00	60	31	101	1048576	60	6520
2026-01-05 16:44:07.21	260.98	13.32	-41.6	-42.6	22.4	0.00e+00	92	31	101	1048576	60	6585
2026-01-05 16:44:08.22	260.87	13.23	-41.5	-42.5	22.5	0.00e+00	60	31	101	1048576	60	6534
2026-01-05 16:44:09.23	260.76	13.15	-41.5	-42.6	22.4	0.00e+00	92	31	101	1048576	60	6542
2026-01-05 16:44:10.24	260.65	13.07	-41.6	-42.7	22.3	0.00e+00	0	32	101	1048576	60	6627
2026-01-05 16:44:11.25	260.54	12.98	-41.7	-42.8	22.2	0.00e+00	0	31	101	1048576	60	6714
2026-01-05 16:44:12.26	260.43	12.90	-41.5	-42.5	22.4	0.00e+00	0	31	101	1048576	60	6488
2026-01-05 16:44:13.27	260.33	12.82	-41.5	-42.5	22.4	0.00e+00	0	31	101	1048576	60	6497
2026-01-05 16:44:14.29	260.22	12.73	-41.6	-42.6	22.4	0.00e+00	83	32	101	1048576	60	6589
2026-01-05 16:44:15.30	260.11	12.65	-41.6	-42.7	22.3	0.00e+00	0	31	101	1048576	60	6653
2026-01-05 16:44:16.31	260.01	12.57	-41.8	-42.9	22.1	0.00e+00	92	31	101	1048576	60	6771
2026-01-05 16:44:17.32	259.90	12.49	-41.7	-42.8	22.2	0.00e+00	23	31	101	1048576	60	6707
2026-01-05 16:44:18.33	259.80	12.40	-41.8	-42.9	22.1	0.00e+00	0	31	101	1048576	60	6779
2026-01-05 16:44:19.34	259.69	12.32	-41.7	-42.8	22.2	0.00e+00	0	31	101	1048576	60	6747
2026-01-05 16:44:20.35	259.59	12.24	-41.8	-42.9	22.1	0.00e+00	23	31	101	1048576	60	6819
2026-01-05 16:44:21.36	259.49	12.16	-41.9	-43.0	22.0	0.00e+00	24	31	101	1048576	60	6870
2026-01-05 16:44:22.38	259.39	12.07	-41.9	-43.0	22.0	0.00e+00	22	31	101	1048576	60	6896
2026-01-05 16:44:23.39	259.28	11.99	-42.0	-43.1	21.9	0.00e+00	92	31	101	1048576	60	6946
2026-01-05 16:44:24.40	259.18	11.91	-42.1	-43.2	21.8	0.00e+00	5	31	101	1048576	60	7058
2026-01-05 16:44:25.41	259.08	11.83	-42.1	-43.2	21.8	0.00e+00	92	31	101	1048576	60	7057
2026-01-05 16:44:26.42	258.98	11.75	-42.1	-43.2	21.8	0.00e+00	0	31	101	1048576	60	7052
2026-01-05 16:44:27.43	258.88	11.67	-42.0	-43.1	21.9	0.00e+00	0	31	101	1048576	60	6972
2026-01-05 16:44:28.44	258.79	11.59	-42.0	-43.1	21.9	0.00e+00	0	31	101	1048576	60	7004
