passes_logs/2026/01/05/R4.6S_Anadyr_2ch/R4.6S_Anadyr_2ch__20260105_003912_AQUA_rec.log

#Pass ID: 20260105_003912_AQUA
#Satellite: AQUA
#Configuration: AQUA
#almurnet v.1.7.20251203
#Start time: 2026-01-05 00:39:13

#Version: 2.2.20231116
#Station: R4.6S_Anadyr_2ch
#Location: 177.4865 lon 64.73178 lat
#TLE: 1 27424U 02022A   25351.00450321  .00000925  00000+0  19503-3 0  9992
#TLE: 2 27424  98.4041 311.9529 0001248 113.7180 322.1616 14.61819266256652

#Time	Az	El	Level	Level2	SNR	BER	BlckErr	Temp	State	Recorded	gain1	gain2
2026-01-05 00:39:13.72	123.73	0.07	-51.5	-64.1	3.5	1.52e+00	0	26	0	0	60	76255
2026-01-05 00:39:14.73	123.69	0.13	-51.9	-69.7	3.5	3.03e+01	0	27	104	0	60	158689
2026-01-05 00:39:15.74	123.65	0.19	-52.0	-69.8	3.5	3.03e+01	0	27	104	0	60	160578
2026-01-05 00:39:16.75	123.61	0.25	-51.7	-69.5	3.5	3.03e+01	0	27	104	0	60	154141
2026-01-05 00:39:17.76	123.57	0.31	-52.3	-70.0	3.5	3.03e+01	0	27	104	0	60	164756
2026-01-05 00:39:18.77	123.53	0.37	-51.8	-69.6	3.5	3.03e+01	0	27	104	0	60	157524
2026-01-05 00:39:19.78	123.49	0.43	-52.2	-70.0	3.5	3.03e+01	0	27	104	0	60	164139
2026-01-05 00:39:20.79	123.45	0.49	-51.9	-69.7	3.5	3.03e+01	0	27	104	0	60	158842
2026-01-05 00:39:21.80	123.41	0.55	-51.8	-69.7	3.5	3.03e+01	0	27	104	0	60	157868
2026-01-05 00:39:22.81	123.36	0.62	-51.9	-69.7	3.5	3.03e+01	0	28	104	0	60	158237
2026-01-05 00:39:23.82	123.32	0.68	-52.0	-69.8	3.5	3.03e+01	0	27	104	0	60	160519
2026-01-05 00:39:24.83	123.28	0.74	-52.6	-70.3	3.5	3.03e+01	0	27	104	0	60	170626
2026-01-05 00:39:25.84	123.24	0.80	-52.6	-70.4	3.5	3.03e+01	0	27	104	0	60	172280
2026-01-05 00:39:26.85	123.20	0.86	-51.9	-69.7	3.5	3.03e+01	0	27	104	0	60	157845
2026-01-05 00:39:27.86	123.16	0.92	-53.0	-70.8	3.5	3.03e+01	0	27	104	0	60	180573
2026-01-05 00:39:28.88	123.11	0.99	-51.9	-69.7	3.5	3.03e+01	0	27	104	0	60	157801
2026-01-05 00:39:29.89	123.07	1.05	-52.3	-70.1	3.5	3.03e+01	0	27	104	0	60	166764
2026-01-05 00:39:30.90	123.03	1.11	-52.6	-70.4	3.5	3.03e+01	0	27	104	0	60	171640
2026-01-05 00:39:31.91	122.99	1.17	-51.8	-69.6	3.5	3.03e+01	0	27	104	0	60	156774
2026-01-05 00:39:32.92	122.94	1.24	-52.4	-70.2	3.5	3.03e+01	0	28	104	0	60	167529
2026-01-05 00:39:33.93	122.90	1.30	-52.2	-70.0	3.5	3.03e+01	0	28	104	0	60	164003
2026-01-05 00:39:34.94	122.86	1.36	-52.0	-69.8	3.5	3.03e+01	0	28	104	0	60	160900
2026-01-05 00:39:35.95	122.81	1.42	-52.0	-69.9	3.5	3.03e+01	0	28	104	0	60	161595
2026-01-05 00:39:36.97	122.77	1.49	-51.9	-69.7	3.5	3.03e+01	0	28	104	0	60	158391
2026-01-05 00:39:37.98	122.72	1.55	-51.6	-69.4	3.5	3.03e+01	0	28	104	0	60	153345
2026-01-05 00:39:38.99	122.68	1.61	-51.7	-69.4	3.5	3.03e+01	0	28	104	0	60	153882
2026-01-05 00:39:40.00	122.64	1.68	-52.2	-70.0	3.5	3.03e+01	0	28	104	0	60	163688
2026-01-05 00:39:41.01	122.59	1.74	-52.3	-70.1	3.5	3.03e+01	0	28	104	0	60	166297
2026-01-05 00:39:42.02	122.55	1.81	-52.0	-69.8	3.5	3.03e+01	0	28	104	0	60	160486
2026-01-05 00:39:43.03	122.50	1.87	-52.0	-69.8	3.5	3.03e+01	0	28	104	0	60	161307
2026-01-05 00:39:44.04	122.46	1.93	-51.7	-69.6	3.5	3.03e+01	0	28	104	0	60	156054
2026-01-05 00:39:45.05	122.41	2.00	-51.8	-69.6	3.5	3.03e+01	0	28	104	0	60	156580
2026-01-05 00:39:46.07	122.36	2.06	-51.6	-69.5	3.5	3.03e+01	0	28	104	0	60	154236
2026-01-05 00:39:47.08	122.32	2.13	-52.1	-69.9	3.5	3.03e+01	0	28	104	0	60	162381
2026-01-05 00:39:48.09	122.27	2.19	-52.2	-70.0	3.5	3.03e+01	0	28	104	0	60	164532
2026-01-05 00:39:49.10	122.22	2.26	-52.6	-70.4	3.5	3.03e+01	0	28	104	0	60	172129
2026-01-05 00:39:50.11	122.18	2.32	-52.3	-70.1	3.5	3.03e+01	0	28	104	0	60	166814
2026-01-05 00:39:51.12	122.13	2.39	-51.6	-69.5	3.5	3.03e+01	0	28	104	0	60	154770
2026-01-05 00:39:52.13	122.08	2.45	-52.0	-69.8	3.5	3.03e+01	0	28	104	0	60	160148
2026-01-05 00:39:53.14	122.04	2.52	-52.0	-69.8	3.5	3.03e+01	0	28	104	0	60	159819
2026-01-05 00:39:54.15	121.99	2.58	-52.6	-70.5	3.5	3.03e+01	0	28	104	0	60	173469
2026-01-05 00:39:55.16	121.94	2.65	-51.9	-69.7	3.5	3.03e+01	0	28	104	0	60	158842
2026-01-05 00:39:56.17	121.89	2.71	-53.0	-70.9	3.5	3.03e+01	0	28	104	0	60	181277
2026-01-05 00:39:57.18	121.84	2.78	-52.6	-70.4	3.5	3.03e+01	0	28	104	0	60	171751
2026-01-05 00:39:58.19	121.79	2.85	-52.4	-70.3	3.5	3.03e+01	0	28	104	0	60	169148
2026-01-05 00:39:59.20	121.75	2.91	-51.8	-69.6	3.5	3.03e+01	0	28	104	0	60	156584
2026-01-05 00:40:00.21	121.70	2.98	-52.1	-70.0	3.5	3.03e+01	0	28	104	0	60	163925
2026-01-05 00:40:01.22	121.65	3.04	-52.3	-70.1	3.5	3.03e+01	0	28	104	0	60	166270
2026-01-05 00:40:02.23	121.60	3.11	-52.6	-70.5	3.5	3.03e+01	0	28	104	0	60	173255
2026-01-05 00:40:03.24	121.55	3.18	-52.4	-70.2	3.5	3.03e+01	0	28	104	0	60	167060
2026-01-05 00:40:04.25	121.50	3.25	-51.9	-69.7	3.5	3.03e+01	0	28	104	0	60	159434
2026-01-05 00:40:05.26	121.45	3.31	-51.9	-69.7	3.5	3.03e+01	0	28	104	0	60	159267
2026-01-05 00:40:06.27	121.39	3.38	-52.0	-69.7	3.5	3.03e+01	0	28	104	0	60	158424
2026-01-05 00:40:07.28	121.34	3.45	-52.1	-69.9	3.5	3.03e+01	0	28	104	0	60	161473
2026-01-05 00:40:08.29	121.29	3.51	-51.8	-69.6	3.5	3.03e+01	0	28	104	0	60	157054
2026-01-05 00:40:09.30	121.24	3.58	-51.6	-69.4	3.5	3.03e+01	0	28	104	0	60	152832
2026-01-05 00:40:10.31	121.19	3.65	-51.8	-69.7	3.5	3.03e+01	0	28	104	0	60	158757
2026-01-05 00:40:11.32	121.14	3.72	-51.6	-69.3	3.5	3.03e+01	0	28	104	0	60	152151
2026-01-05 00:40:12.33	121.08	3.79	-51.4	-69.3	3.5	3.03e+01	0	28	104	0	60	151339
2026-01-05 00:40:13.34	121.03	3.86	-51.4	-69.3	3.5	3.03e+01	0	28	104	0	60	152055
2026-01-05 00:40:14.36	120.98	3.93	-51.3	-69.1	3.5	3.03e+01	0	28	104	0	60	147448
2026-01-05 00:40:15.37	120.92	3.99	-51.2	-69.0	3.5	3.03e+01	0	28	104	0	60	146786
2026-01-05 00:40:16.38	120.87	4.06	-51.1	-69.0	3.5	3.03e+01	0	28	104	0	60	146488
2026-01-05 00:40:17.39	120.82	4.13	-50.3	-68.5	3.5	3.03e+01	0	28	104	0	60	138358
2026-01-05 00:40:18.40	120.76	4.20	-50.1	-68.0	3.5	3.03e+01	0	28	104	0	60	130601
2026-01-05 00:40:19.41	120.71	4.27	-50.1	-67.9	3.5	3.03e+01	0	28	104	0	60	129620
2026-01-05 00:40:20.42	120.65	4.34	-50.0	-67.9	3.5	3.03e+01	0	28	104	0	60	128556
2026-01-05 00:40:21.43	120.60	4.41	-50.0	-67.8	3.5	3.03e+01	0	28	104	0	60	128050
2026-01-05 00:40:22.44	120.54	4.48	-50.0	-67.8	3.5	3.03e+01	0	28	104	0	60	127711
2026-01-05 00:40:23.46	120.48	4.55	-50.0	-67.8	3.5	3.03e+01	0	28	104	0	60	127843
2026-01-05 00:40:24.47	120.43	4.62	-50.0	-67.8	3.5	3.03e+01	0	28	104	0	60	127559
2026-01-05 00:40:25.48	120.37	4.69	-50.1	-67.9	3.5	3.03e+01	0	28	104	0	60	129617
2026-01-05 00:40:26.49	120.31	4.76	-50.1	-67.9	3.5	3.03e+01	0	28	104	0	60	128639
2026-01-05 00:40:27.50	120.26	4.84	-50.1	-67.8	3.5	3.03e+01	0	28	104	0	60	128087
2026-01-05 00:40:28.51	120.20	4.91	-50.0	-67.8	3.5	3.03e+01	0	28	104	0	60	127725
2026-01-05 00:40:29.52	120.14	4.98	-50.0	-67.9	3.5	3.03e+01	0	28	104	0	60	128652
2026-01-05 00:40:30.53	120.08	5.05	-50.0	-67.9	3.5	3.03e+01	0	28	104	0	60	128702
2026-01-05 00:40:31.54	120.03	5.12	-50.1	-67.9	3.5	3.03e+01	0	28	104	0	60	128614
2026-01-05 00:40:32.56	119.97	5.19	-50.0	-67.9	3.5	3.03e+01	0	28	104	0	60	128644
2026-01-05 00:40:33.57	119.91	5.27	-50.0	-67.9	3.5	3.03e+01	0	28	104	0	60	128488
2026-01-05 00:40:34.58	119.85	5.34	-50.0	-67.8	3.5	3.03e+01	0	28	104	0	60	127765
2026-01-05 00:40:35.59	119.79	5.41	-50.0	-67.8	3.5	3.03e+01	0	28	104	0	60	127505
2026-01-05 00:40:36.60	119.73	5.48	-50.0	-67.8	3.5	3.03e+01	0	28	104	0	60	126755
2026-01-05 00:40:37.61	119.67	5.56	-50.0	-67.8	3.5	3.03e+01	0	28	104	0	60	127014
2026-01-05 00:40:38.62	119.61	5.63	-50.0	-67.7	3.5	3.03e+01	0	28	104	0	60	125403
2026-01-05 00:40:39.63	119.55	5.70	-49.9	-67.6	3.5	3.03e+01	0	28	104	0	60	124882
2026-01-05 00:40:40.64	119.48	5.78	-50.0	-67.6	3.5	3.03e+01	0	28	104	0	60	124473
2026-01-05 00:40:41.65	119.42	5.85	-50.0	-67.7	3.5	3.03e+01	0	28	104	0	60	125466
2026-01-05 00:40:42.67	119.36	5.92	-50.0	-67.7	3.5	3.03e+01	0	28	104	0	60	126617
2026-01-05 00:40:43.68	119.30	6.00	-50.0	-67.8	3.5	3.03e+01	0	28	104	0	60	127468
2026-01-05 00:40:44.69	119.23	6.07	-50.0	-67.8	3.5	3.03e+01	0	28	104	0	60	127132
2026-01-05 00:40:45.70	119.17	6.15	-50.0	-67.8	3.5	3.03e+01	0	28	104	0	60	127157
2026-01-05 00:40:46.71	119.11	6.22	-50.0	-67.8	3.5	3.03e+01	0	28	104	0	60	126907
2026-01-05 00:40:47.72	119.04	6.30	-50.0	-67.7	3.5	3.03e+01	0	28	104	0	60	126403
2026-01-05 00:40:48.73	118.98	6.37	-50.0	-67.8	3.5	3.03e+01	0	28	104	0	60	127618
2026-01-05 00:40:49.74	118.91	6.45	-50.0	-67.7	3.5	3.03e+01	0	28	104	0	60	126468
2026-01-05 00:40:50.75	118.85	6.52	-50.0	-67.8	3.5	3.03e+01	0	28	104	0	60	127791
2026-01-05 00:40:51.76	118.78	6.60	-49.9	-67.2	3.5	3.03e+01	0	28	104	0	60	118909
2026-01-05 00:40:52.78	118.72	6.68	-49.8	-67.0	3.5	3.03e+01	0	28	104	0	60	116138
2026-01-05 00:40:53.79	118.65	6.75	-49.8	-66.9	3.5	3.03e+01	0	28	104	0	60	114668
2026-01-05 00:40:54.80	118.58	6.83	-49.9	-67.5	3.5	3.03e+01	0	28	104	0	60	123758
2026-01-05 00:40:55.81	118.52	6.91	-49.9	-67.5	3.5	3.03e+01	0	28	104	0	60	123032
2026-01-05 00:40:56.82	118.45	6.98	-49.0	-63.8	3.5	3.03e+01	0	28	104	0	60	80460
2026-01-05 00:40:57.83	118.38	7.06	-47.7	-60.6	3.5	3.03e+01	0	28	104	0	60	55413
2026-01-05 00:40:58.84	118.31	7.14	-46.1	-57.9	3.5	3.03e+01	0	28	104	0	60	40912
2026-01-05 00:40:59.85	118.24	7.21	-45.9	-57.6	3.5	3.03e+01	0	28	104	0	60	39602
2026-01-05 00:41:00.86	118.18	7.29	-50.1	-67.4	3.5	3.03e+01	0	28	104	0	60	121370
2026-01-05 00:41:01.87	118.11	7.37	-43.6	-54.5	3.6	3.03e+01	0	28	104	0	60	27684
2026-01-05 00:41:02.88	118.04	7.45	-49.7	-67.1	3.5	3.03e+01	0	28	104	0	60	118159
2026-01-05 00:41:03.89	117.97	7.53	-50.2	-68.0	3.5	3.03e+01	0	28	104	0	60	130996
2026-01-05 00:41:04.90	117.89	7.60	-42.7	-53.5	3.5	3.03e+01	0	28	104	0	60	24559
2026-01-05 00:41:05.91	117.82	7.68	-41.6	-52.2	3.5	3.03e+01	0	28	104	0	60	21179
2026-01-05 00:41:06.93	117.75	7.76	-41.8	-52.4	3.5	3.03e+01	0	28	104	0	60	21738
2026-01-05 00:41:07.94	117.68	7.84	-41.2	-51.6	3.5	3.03e+01	0	28	104	0	60	19841
2026-01-05 00:41:08.95	117.61	7.92	-41.6	-52.1	3.5	3.03e+01	0	28	104	0	60	20977
2026-01-05 00:41:09.96	117.53	8.00	-48.0	-61.1	3.5	3.03e+01	0	28	104	0	60	59060
2026-01-05 00:41:10.97	117.46	8.08	-48.3	-61.7	3.5	3.03e+01	0	28	104	0	60	63300
2026-01-05 00:41:11.98	117.39	8.16	-50.2	-67.8	3.5	3.03e+01	0	28	104	0	60	127813
2026-01-05 00:41:12.99	117.31	8.24	-43.2	-54.1	3.5	3.03e+01	0	28	104	0	60	26220
2026-01-05 00:41:14.00	117.24	8.32	-49.9	-67.3	3.5	3.03e+01	0	28	104	0	60	120045
2026-01-05 00:41:15.01	117.16	8.41	-41.8	-52.4	3.5	3.03e+01	0	28	104	0	60	21665
2026-01-05 00:41:16.02	117.08	8.49	-42.1	-52.7	3.5	3.03e+01	0	28	104	0	60	22344
2026-01-05 00:41:17.03	117.01	8.57	-42.3	-53.0	3.6	3.03e+01	0	28	104	0	60	23213
2026-01-05 00:41:18.04	116.93	8.65	-41.0	-51.5	3.5	3.03e+01	0	28	104	0	60	19551
2026-01-05 00:41:19.05	116.85	8.73	-50.1	-66.7	3.5	3.03e+01	0	28	104	0	60	112309
2026-01-05 00:41:20.06	116.78	8.81	-43.5	-54.4	3.5	3.03e+01	0	28	104	0	60	27318
2026-01-05 00:41:21.07	116.70	8.90	-50.1	-67.4	3.5	3.03e+01	0	28	104	0	60	121887
2026-01-05 00:41:22.08	116.62	8.98	-50.4	-68.1	3.5	3.03e+01	0	28	104	0	60	132231
2026-01-05 00:41:23.09	116.54	9.06	-43.0	-53.8	3.5	3.03e+01	0	28	104	0	60	25549
2026-01-05 00:41:24.11	116.46	9.15	-41.0	-51.5	3.5	3.03e+01	0	28	104	0	60	19519
2026-01-05 00:41:25.12	116.38	9.23	-40.4	-50.8	3.5	3.03e+01	0	28	104	0	60	17994
2026-01-05 00:41:26.13	116.30	9.31	-39.6	-49.9	3.5	3.03e+01	0	28	104	0	60	16247
2026-01-05 00:41:27.14	116.22	9.40	-39.2	-49.5	3.5	3.03e+01	0	28	104	0	58	17420
2026-01-05 00:41:28.15	116.13	9.48	-40.1	-50.5	3.5	3.03e+01	0	28	104	0	58	19423
2026-01-05 00:41:29.16	116.05	9.57	-42.8	-53.5	3.5	3.03e+01	0	28	104	0	60	24560
2026-01-05 00:41:30.17	115.97	9.65	-50.1	-67.3	3.5	3.03e+01	0	28	104	0	60	120759
2026-01-05 00:41:31.18	115.89	9.74	-50.1	-68.3	3.5	3.03e+01	0	28	104	0	60	134549
2026-01-05 00:41:32.19	115.80	9.82	-41.8	-52.3	3.5	3.03e+01	0	28	104	0	60	21468
2026-01-05 00:41:33.21	115.72	9.91	-41.4	-51.9	3.5	3.03e+01	0	28	104	0	60	20418
2026-01-05 00:41:34.22	115.63	10.00	-40.0	-50.4	3.5	3.03e+01	0	28	104	0	60	17137
2026-01-05 00:41:35.23	115.55	10.08	-40.3	-50.7	3.5	3.03e+01	0	28	104	0	60	17875
2026-01-05 00:41:36.24	115.46	10.17	-39.4	-49.8	3.5	3.03e+01	0	28	104	0	60	16031
2026-01-05 00:41:37.25	115.37	10.26	-39.5	-49.9	3.5	3.03e+01	0	28	104	0	58	18210
2026-01-05 00:41:38.26	115.28	10.34	-45.1	-56.4	3.6	3.03e+01	0	28	104	0	60	34346
2026-01-05 00:41:39.27	115.20	10.43	-50.6	-68.3	3.5	3.03e+01	0	28	104	0	60	135168
2026-01-05 00:41:40.28	115.11	10.52	-41.6	-52.2	3.5	3.03e+01	0	28	104	0	60	21063
2026-01-05 00:41:41.29	115.02	10.61	-49.9	-68.2	3.5	3.03e+01	0	28	104	0	60	133408
2026-01-05 00:41:42.30	114.93	10.69	-42.0	-52.6	3.5	3.03e+01	0	28	104	0	60	22252
2026-01-05 00:41:43.32	114.84	10.78	-43.0	-53.8	3.5	3.03e+01	0	28	104	0	60	25351
2026-01-05 00:41:44.33	114.75	10.87	-45.2	-56.4	3.5	3.03e+01	0	28	104	0	60	34261
2026-01-05 00:41:45.34	114.65	10.96	-44.7	-55.8	3.5	3.03e+01	0	28	104	0	60	32151
2026-01-05 00:41:46.35	114.56	11.05	-50.4	-67.0	3.5	3.03e+01	0	28	104	0	60	116654
2026-01-05 00:41:47.36	114.47	11.14	-44.1	-55.0	3.5	3.03e+01	0	28	104	0	60	29248
2026-01-05 00:41:48.37	114.38	11.23	-50.4	-67.8	3.5	3.03e+01	0	28	104	0	60	127046
2026-01-05 00:41:49.38	114.28	11.32	-49.8	-64.8	3.5	3.03e+01	0	28	104	0	60	90292
2026-01-05 00:41:50.39	114.19	11.41	-39.5	-49.8	3.5	3.03e+01	0	28	104	0	58	18075
2026-01-05 00:41:51.40	114.09	11.50	-39.5	-49.8	3.5	3.03e+01	0	28	104	0	58	18003
2026-01-05 00:41:52.41	114.00	11.59	-39.2	-49.5	3.5	3.03e+01	0	28	104	0	58	17464
2026-01-05 00:41:53.42	113.90	11.68	-39.0	-49.3	3.5	3.03e+01	0	28	104	0	58	17078
2026-01-05 00:41:54.43	113.80	11.78	-38.8	-49.1	3.5	3.03e+01	0	28	104	0	58	16650
2026-01-05 00:41:55.44	113.70	11.87	-39.2	-49.6	3.5	3.03e+01	0	28	104	0	58	17529
2026-01-05 00:41:56.45	113.60	11.96	-44.3	-55.2	3.5	3.03e+01	0	28	104	0	60	29942
2026-01-05 00:41:57.47	113.50	12.05	-49.0	-62.8	3.5	3.03e+01	0	28	104	0	60	71717
2026-01-05 00:41:58.48	113.40	12.15	-43.9	-54.7	3.5	3.03e+01	0	28	104	0	60	28200
2026-01-05 00:41:59.49	113.30	12.24	-49.2	-63.0	3.6	3.03e+01	0	28	104	0	60	73171
2026-01-05 00:42:00.50	113.20	12.33	-42.9	-53.6	3.5	3.03e+01	0	28	104	0	60	24772
2026-01-05 00:42:01.51	113.10	12.43	-40.8	-51.3	3.5	3.03e+01	0	28	104	0	60	18961
2026-01-05 00:42:02.52	113.00	12.52	-40.7	-51.2	3.5	3.03e+01	0	28	104	0	60	18803
2026-01-05 00:42:03.53	112.89	12.62	-45.2	-56.4	3.5	3.03e+01	0	28	104	0	60	34236
2026-01-05 00:42:04.54	112.79	12.71	-47.6	-60.0	3.6	3.03e+01	0	28	104	0	60	51752
2026-01-05 00:42:05.55	112.68	12.81	-45.7	-57.0	3.5	3.03e+01	0	28	104	0	60	36687
2026-01-05 00:42:06.56	112.58	12.90	-50.5	-67.2	3.5	3.03e+01	0	28	104	0	60	118773
2026-01-05 00:42:07.57	112.47	13.00	-44.9	-56.0	3.6	3.03e+01	0	28	104	0	60	32828
2026-01-05 00:42:08.58	112.36	13.09	-40.6	-51.0	3.5	3.03e+01	0	28	104	0	60	18520
2026-01-05 00:42:09.59	112.25	13.19	-39.7	-50.0	3.5	3.03e+01	0	28	104	0	60	16328
2026-01-05 00:42:10.60	112.14	13.29	-39.1	-49.4	3.5	3.03e+01	0	28	104	0	58	17213
2026-01-05 00:42:11.61	112.03	13.38	-38.9	-49.1	3.6	3.03e+01	0	28	104	0	58	16665
2026-01-05 00:42:12.62	111.92	13.48	-38.4	-48.6	3.5	3.03e+01	0	28	104	0	58	15686
2026-01-05 00:42:13.63	111.81	13.58	-41.5	-51.9	3.5	3.03e+01	0	28	104	0	60	20465
2026-01-05 00:42:14.64	111.70	13.68	-49.5	-63.9	3.5	3.03e+01	0	28	104	0	60	81334
2026-01-05 00:42:15.65	111.59	13.78	-47.3	-59.5	3.5	3.03e+01	0	28	104	0	60	49249
2026-01-05 00:42:16.67	111.47	13.88	-50.1	-65.2	3.5	3.03e+01	0	28	104	0	60	94152
2026-01-05 00:42:17.68	111.36	13.97	-48.1	-60.6	3.5	3.03e+01	0	28	104	0	60	55722
2026-01-05 00:42:18.69	111.24	14.07	-42.8	-53.4	3.6	3.03e+01	0	28	104	0	60	24284
2026-01-05 00:42:19.70	111.12	14.17	-43.4	-54.2	3.5	3.03e+01	0	28	104	0	60	26526
2026-01-05 00:42:20.71	111.01	14.27	-43.3	-54.0	3.5	3.03e+01	0	28	104	0	60	26085
2026-01-05 00:42:21.72	110.89	14.37	-42.9	-53.6	3.5	3.03e+01	0	28	104	0	60	24863
2026-01-05 00:42:22.73	110.77	14.48	-40.7	-51.0	3.6	3.03e+01	0	28	104	0	58	20690
2026-01-05 00:42:23.75	110.65	14.58	-50.6	-68.1	3.5	3.03e+01	0	28	104	0	60	132032
2026-01-05 00:42:24.76	110.53	14.68	-40.2	-50.6	3.6	3.03e+01	0	28	104	0	60	17636
2026-01-05 00:42:25.77	110.41	14.78	-50.6	-68.3	3.5	3.03e+01	0	28	104	0	60	135173
2026-01-05 00:42:26.78	110.28	14.88	-40.6	-51.0	3.5	3.03e+01	0	28	104	0	60	18395
2026-01-05 00:42:27.79	110.16	14.99	-39.0	-49.3	3.5	3.03e+01	0	28	104	0	58	16931
2026-01-05 00:42:28.80	110.04	15.09	-39.1	-49.4	3.5	3.03e+01	0	28	104	0	58	17203
2026-01-05 00:42:29.81	109.91	15.19	-38.4	-48.6	3.5	3.03e+01	0	28	104	0	58	15733
2026-01-05 00:42:30.82	109.78	15.30	-44.6	-55.5	3.5	3.03e+01	0	28	104	0	60	31046
2026-01-05 00:42:31.83	109.66	15.40	-40.4	-50.8	3.5	3.03e+01	0	28	104	0	56	22580
2026-01-05 00:42:32.84	109.53	15.50	-50.7	-67.6	3.5	3.03e+01	0	28	104	0	60	124233
2026-01-05 00:42:33.85	109.40	15.61	-39.9	-50.2	3.5	3.03e+01	0	28	104	0	60	16818
2026-01-05 00:42:34.87	109.27	15.71	-50.7	-68.1	3.5	3.03e+01	0	28	104	0	60	131474
2026-01-05 00:42:35.88	109.13	15.82	-39.0	-49.3	3.5	3.03e+01	0	28	104	0	60	15183
2026-01-05 00:42:36.89	109.00	15.93	-38.0	-48.2	3.5	3.03e+01	0	28	104	0	56	16859
2026-01-05 00:42:37.90	108.87	16.03	-38.1	-48.3	3.5	3.03e+01	0	28	104	0	56	16984
2026-01-05 00:42:38.91	108.73	16.14	-37.8	-48.0	3.5	3.03e+01	0	28	104	0	56	16496
2026-01-05 00:42:39.92	108.60	16.25	-48.4	-61.5	3.5	3.03e+01	0	28	104	0	60	61513
2026-01-05 00:42:40.93	108.46	16.35	-41.8	-52.3	3.5	3.03e+01	0	28	104	0	60	21389
2026-01-05 00:42:41.94	108.33	16.46	-50.7	-67.7	3.5	3.03e+01	0	28	104	0	60	125273
2026-01-05 00:42:42.95	108.19	16.57	-45.9	-57.3	3.5	3.03e+01	0	28	104	0	60	37827
2026-01-05 00:42:43.96	108.05	16.68	-50.7	-68.0	3.5	3.03e+01	0	28	104	0	60	130454
2026-01-05 00:42:44.97	107.91	16.78	-42.5	-53.2	3.6	3.03e+01	0	28	104	0	60	23718
2026-01-05 00:42:45.99	107.76	16.90	-40.7	-51.1	3.5	3.03e+01	0	28	104	0	60	18695
2026-01-05 00:42:47.00	107.62	17.00	-41.2	-51.6	3.5	3.03e+01	0	28	104	0	60	19808
2026-01-05 00:42:48.01	107.48	17.11	-43.3	-54.0	3.5	3.03e+01	0	28	104	0	60	25873
2026-01-05 00:42:49.02	107.33	17.22	-45.5	-56.9	3.5	3.03e+01	0	28	104	0	60	36409
2026-01-05 00:42:50.03	107.18	17.33	-42.4	-52.9	3.5	3.03e+01	0	28	104	0	60	22985
2026-01-05 00:42:51.04	107.04	17.45	-50.5	-67.2	3.5	3.03e+01	0	28	104	0	60	118541
2026-01-05 00:42:52.05	106.89	17.56	-44.6	-55.6	3.5	3.03e+01	0	28	104	0	60	31449
2026-01-05 00:42:53.06	106.74	17.67	-50.6	-67.7	3.5	3.03e+01	0	28	104	0	60	125881
2026-01-05 00:42:54.07	106.59	17.78	-43.3	-54.0	3.5	3.03e+01	0	28	104	0	60	25928
2026-01-05 00:42:55.08	106.43	17.89	-43.6	-54.4	3.5	3.03e+01	0	28	104	0	60	27264
2026-01-05 00:42:56.09	106.28	18.00	-43.1	-53.8	3.5	3.03e+01	0	28	104	0	60	25411
2026-01-05 00:42:57.10	106.13	18.12	-43.4	-54.2	3.5	3.03e+01	0	28	104	0	60	26486
2026-01-05 00:42:58.11	105.97	18.23	-49.1	-63.0	3.5	3.03e+01	0	28	104	0	60	73311
2026-01-05 00:42:59.13	105.81	18.35	-45.8	-57.3	3.6	3.03e+01	0	28	104	0	60	38191
2026-01-05 00:43:00.14	105.65	18.46	-50.6	-67.7	3.5	3.03e+01	0	28	104	0	60	126155
2026-01-05 00:43:01.15	105.49	18.57	-50.8	-68.6	3.5	3.03e+01	0	28	104	0	60	139132
2026-01-05 00:43:02.16	105.33	18.69	-38.3	-48.6	3.5	3.03e+01	0	28	104	0	54	19682
2026-01-05 00:43:03.17	105.17	18.80	-37.4	-47.6	3.6	3.03e+01	0	28	104	0	54	17637
2026-01-05 00:43:04.18	105.00	18.92	-37.1	-47.3	3.5	3.03e+01	0	28	104	0	54	16997
2026-01-05 00:43:05.19	104.84	19.04	-37.1	-47.4	3.5	3.03e+01	0	28	104	0	54	17145
2026-01-05 00:43:06.20	104.67	19.15	-37.0	-47.3	3.6	3.03e+01	0	28	104	0	54	16958
2026-01-05 00:43:07.21	104.50	19.27	-38.6	-48.9	3.6	3.03e+01	0	28	104	0	58	16145
2026-01-05 00:43:08.22	104.34	19.38	-40.8	-51.2	3.5	3.03e+01	0	28	104	0	60	18885
2026-01-05 00:43:09.23	104.16	19.50	-50.7	-67.7	3.5	3.03e+01	0	28	104	0	60	126295
2026-01-05 00:43:10.25	103.99	19.62	-41.8	-52.3	3.6	3.03e+01	0	28	104	0	60	21404
2026-01-05 00:43:11.25	103.82	19.74	-50.7	-68.5	3.5	3.03e+01	0	28	104	0	60	138054
2026-01-05 00:43:12.27	103.64	19.86	-42.2	-52.8	3.5	3.03e+01	0	28	104	0	60	22575
2026-01-05 00:43:13.28	103.47	19.98	-42.5	-53.1	3.5	3.03e+01	0	28	104	0	60	23376
2026-01-05 00:43:14.29	103.29	20.09	-41.6	-52.1	3.5	3.03e+01	0	28	104	0	60	20868
2026-01-05 00:43:15.30	103.11	20.21	-41.2	-51.7	3.5	3.03e+01	0	28	104	0	60	20010
2026-01-05 00:43:16.31	102.93	20.33	-49.3	-63.5	3.5	3.03e+01	0	28	104	0	60	78124
2026-01-05 00:43:17.32	102.75	20.45	-42.3	-52.9	3.5	3.03e+01	0	28	104	0	60	22970
2026-01-05 00:43:18.33	102.56	20.57	-50.5	-67.8	3.5	3.03e+01	0	28	104	0	60	127873
2026-01-05 00:43:19.34	102.38	20.69	-50.3	-66.0	3.5	3.03e+01	0	28	104	0	60	103088
2026-01-05 00:43:20.35	102.19	20.82	-40.0	-50.4	3.5	3.03e+01	0	28	104	0	60	17129
2026-01-05 00:43:21.36	102.00	20.94	-40.6	-51.0	3.5	3.03e+01	0	28	104	0	60	18352
2026-01-05 00:43:22.38	101.81	21.06	-40.6	-51.0	3.5	3.03e+01	0	29	104	0	60	18338
2026-01-05 00:43:23.39	101.62	21.18	-41.3	-51.7	3.5	3.03e+01	0	28	104	0	60	19986
2026-01-05 00:43:24.40	101.42	21.30	-41.1	-51.5	3.5	3.03e+01	0	28	104	0	60	19577
2026-01-05 00:43:25.41	101.23	21.43	-42.5	-53.1	3.5	3.03e+01	0	28	104	0	60	23487
2026-01-05 00:43:26.42	101.03	21.55	-41.9	-52.4	3.5	3.03e+01	0	28	104	0	60	21524
2026-01-05 00:43:27.43	100.83	21.67	-50.6	-68.6	3.5	3.03e+01	0	29	104	0	60	139561
2026-01-05 00:43:28.44	100.63	21.80	-41.3	-51.8	3.6	3.03e+01	0	28	104	0	56	25304
2026-01-05 00:43:29.46	100.43	21.92	-47.7	-59.9	3.6	3.03e+01	0	28	104	0	60	51498
2026-01-05 00:43:30.47	100.23	22.04	-39.3	-49.6	3.5	3.03e+01	0	28	104	0	58	17634
2026-01-05 00:43:31.48	100.02	22.17	-37.8	-48.0	3.5	3.03e+01	0	28	104	0	56	16474
2026-01-05 00:43:32.49	99.81	22.29	-37.5	-47.7	3.5	3.03e+01	0	28	104	0	56	15941
2026-01-05 00:43:33.50	99.61	22.42	-41.3	-51.7	3.5	3.03e+01	0	28	104	0	56	25276
2026-01-05 00:43:34.51	99.40	22.54	-37.3	-47.5	3.6	3.03e+01	0	28	104	0	56	15532
2026-01-05 00:43:35.52	99.18	22.67	-46.9	-58.6	3.4	3.03e+01	0	28	104	0	60	44057
2026-01-05 00:43:36.53	98.97	22.79	-43.4	-54.2	3.6	3.03e+01	0	28	104	0	60	26502
2026-01-05 00:43:37.54	98.75	22.92	-41.2	-51.7	3.5	3.03e+01	0	28	104	0	54	28078
2026-01-05 00:43:38.55	98.54	23.05	-45.6	-56.7	3.6	3.03e+01	0	28	104	0	60	35520
2026-01-05 00:43:39.56	98.32	23.17	-37.6	-47.9	3.5	3.03e+01	0	28	104	0	56	16139
2026-01-05 00:43:40.57	98.09	23.30	-37.3	-47.6	3.6	3.03e+01	0	28	104	0	54	17494
2026-01-05 00:43:41.58	97.87	23.43	-37.3	-47.5	3.5	3.03e+01	0	28	104	0	54	17393
2026-01-05 00:43:42.59	97.65	23.55	-43.0	-53.5	3.5	3.03e+01	0	28	104	0	60	24699
2026-01-05 00:43:43.60	97.42	23.68	-37.2	-47.4	3.5	3.03e+01	0	28	104	0	54	17191
2026-01-05 00:43:44.61	97.19	23.81	-47.7	-59.9	3.4	3.03e+01	0	28	104	0	60	51083
2026-01-05 00:43:45.62	96.96	23.93	-47.8	-60.1	3.5	3.03e+01	0	28	104	0	60	52799
2026-01-05 00:43:46.63	96.72	24.06	-48.7	-61.4	3.5	3.03e+01	0	28	104	0	60	60984
2026-01-05 00:43:47.64	96.49	24.19	-44.4	-55.3	3.5	3.03e+01	0	28	104	0	60	30138
2026-01-05 00:43:48.66	96.25	24.32	-41.0	-51.4	3.5	3.03e+01	0	28	104	0	60	19368
2026-01-05 00:43:49.67	96.01	24.45	-39.1	-49.4	3.5	3.03e+01	0	28	104	0	60	15271
2026-01-05 00:43:50.68	95.77	24.58	-39.8	-50.2	3.5	3.03e+01	0	28	104	0	58	18765
2026-01-05 00:43:51.69	95.53	24.70	-40.7	-51.1	3.5	3.03e+01	0	28	104	0	56	23454
2026-01-05 00:43:52.70	95.28	24.83	-37.5	-47.7	3.5	3.03e+01	0	28	104	0	54	17841
2026-01-05 00:43:53.71	95.03	24.96	-50.8	-67.3	3.5	3.03e+01	0	28	104	0	60	120673
2026-01-05 00:43:54.72	94.78	25.09	-43.3	-54.1	3.5	3.03e+01	0	28	104	0	60	26300
2026-01-05 00:43:55.73	94.53	25.22	-49.2	-62.6	3.5	3.03e+01	0	28	104	0	60	69769
2026-01-05 00:43:56.74	94.28	25.35	-38.1	-48.4	3.5	3.03e+01	0	29	104	0	56	17140
2026-01-05 00:43:57.75	94.02	25.48	-37.6	-47.8	3.5	3.03e+01	0	28	104	0	56	16131
2026-01-05 00:43:58.76	93.76	25.61	-37.5	-47.7	3.6	3.03e+01	0	28	104	0	56	15801
2026-01-05 00:43:59.77	93.50	25.74	-37.2	-47.4	3.5	3.03e+01	0	28	104	0	54	17207
2026-01-05 00:44:00.78	93.24	25.87	-46.7	-58.3	3.5	3.03e+01	0	28	104	0	60	42508
2026-01-05 00:44:01.79	92.97	26.00	-40.8	-51.2	3.6	3.03e+01	0	29	104	0	60	18765
2026-01-05 00:44:02.80	92.71	26.12	-50.8	-67.4	3.5	3.03e+01	0	29	104	0	60	122279
2026-01-05 00:44:03.82	92.43	26.26	-48.1	-60.8	3.5	3.03e+01	0	28	104	0	60	56638
2026-01-05 00:44:04.83	92.16	26.38	-50.9	-68.5	3.5	3.03e+01	0	29	104	0	60	138123
2026-01-05 00:44:05.84	91.89	26.51	-43.7	-54.4	3.5	3.03e+01	0	29	104	0	60	27266
2026-01-05 00:44:06.85	91.61	26.64	-43.4	-54.1	3.5	3.03e+01	0	29	104	0	60	26280
2026-01-05 00:44:07.86	91.33	26.77	-43.3	-54.0	3.5	3.03e+01	0	28	104	0	60	26083
2026-01-05 00:44:08.87	91.05	26.90	-43.6	-54.4	3.5	3.03e+01	0	29	104	0	60	27113
2026-01-05 00:44:09.88	90.77	27.03	-48.6	-61.4	3.5	3.03e+01	0	28	104	0	60	61051
2026-01-05 00:44:10.89	90.48	27.16	-47.3	-59.2	3.5	3.03e+01	0	28	104	0	60	47422
2026-01-05 00:44:11.90	90.19	27.29	-50.9	-67.8	3.5	3.03e+01	0	29	104	0	60	128018
2026-01-05 00:44:12.91	89.90	27.42	-50.7	-66.9	3.5	3.03e+01	0	28	104	0	60	114313
2026-01-05 00:44:13.92	89.61	27.55	-39.2	-49.5	3.5	3.03e+01	0	29	104	0	58	17456
2026-01-05 00:44:14.93	89.31	27.67	-39.5	-49.8	3.6	3.03e+01	0	28	104	0	58	18040
2026-01-05 00:44:15.95	89.01	27.80	-40.4	-50.8	3.5	3.03e+01	0	28	104	0	60	17936
2026-01-05 00:44:16.96	88.71	27.93	-40.3	-50.6	3.5	3.03e+01	0	29	104	0	58	19669
2026-01-05 00:44:17.97	88.41	28.06	-39.3	-49.6	3.5	3.03e+01	0	29	104	0	58	17668
2026-01-05 00:44:18.98	88.10	28.19	-45.8	-57.0	3.5	3.03e+01	0	29	104	0	60	36743
2026-01-05 00:44:19.99	87.79	28.31	-40.6	-51.0	3.5	3.03e+01	0	28	104	0	60	18415
2026-01-05 00:44:21.00	87.48	28.44	-50.4	-67.0	3.5	3.03e+01	0	29	104	0	60	116575
2026-01-05 00:44:22.01	87.17	28.57	-40.6	-51.0	3.5	3.03e+01	0	28	104	0	60	18418
2026-01-05 00:44:23.02	86.85	28.69	-51.0	-67.8	3.5	3.03e+01	0	28	104	0	60	127364
2026-01-05 00:44:24.03	86.53	28.82	-38.0	-48.3	3.5	3.03e+01	0	28	104	0	56	16901
2026-01-05 00:44:25.04	86.21	28.94	-37.7	-47.9	3.5	3.03e+01	0	28	104	0	56	16315
2026-01-05 00:44:26.06	85.88	29.07	-37.9	-48.1	3.5	3.03e+01	0	28	104	0	56	16609
2026-01-05 00:44:27.06	85.56	29.19	-37.8	-48.1	3.5	3.03e+01	0	28	104	0	56	16627
2026-01-05 00:44:28.08	85.23	29.32	-48.5	-61.4	3.6	3.03e+01	0	29	104	0	60	60932
2026-01-05 00:44:29.09	84.89	29.44	-39.9	-50.2	3.5	3.03e+01	0	28	104	0	58	18851
2026-01-05 00:44:30.10	84.56	29.57	-50.7	-66.9	3.5	3.03e+01	0	29	104	0	60	115544
2026-01-05 00:44:31.11	84.22	29.69	-40.6	-51.0	3.6	3.03e+01	0	28	104	0	60	18408
2026-01-05 00:44:32.12	83.88	29.81	-51.0	-68.1	3.5	3.03e+01	0	29	104	0	60	131674
2026-01-05 00:44:33.13	83.54	29.93	-38.6	-48.8	3.5	3.03e+01	0	28	104	0	58	16098
2026-01-05 00:44:34.14	83.19	30.06	-38.6	-48.9	3.5	3.03e+01	0	29	104	0	56	18169
2026-01-05 00:44:35.15	82.84	30.18	-38.8	-49.1	3.5	3.03e+01	0	28	104	0	56	18566
2026-01-05 00:44:36.16	82.49	30.30	-41.4	-51.9	3.6	3.03e+01	0	29	104	0	60	20326
2026-01-05 00:44:37.17	82.14	30.42	-50.3	-66.7	3.5	3.03e+01	0	29	104	0	60	112450
2026-01-05 00:44:38.19	81.78	30.54	-39.4	-49.7	3.6	3.03e+01	0	28	104	0	60	15910
2026-01-05 00:44:39.19	81.42	30.65	-51.0	-67.6	3.5	3.03e+01	0	28	104	0	60	124819
2026-01-05 00:44:40.21	81.06	30.77	-38.5	-48.7	3.5	3.03e+01	0	29	104	0	60	14199
2026-01-05 00:44:41.22	80.69	30.89	-51.1	-68.0	3.5	3.03e+01	0	29	104	0	60	130014
2026-01-05 00:44:42.23	80.33	31.00	-40.9	-51.3	3.6	3.03e+01	0	29	104	0	60	18960
2026-01-05 00:44:43.24	79.96	31.12	-40.3	-50.6	3.5	3.03e+01	0	28	104	0	58	19812
2026-01-05 00:44:44.25	79.59	31.23	-39.9	-50.2	3.5	3.03e+01	0	28	104	0	58	18868
2026-01-05 00:44:45.26	79.21	31.34	-40.1	-50.5	3.5	3.03e+01	0	29	104	0	60	17397
2026-01-05 00:44:46.27	78.83	31.46	-37.8	-47.9	3.6	3.03e+01	0	29	104	0	56	16287
2026-01-05 00:44:47.28	78.45	31.57	-40.1	-50.5	3.5	3.03e+01	0	29	104	0	60	17377
2026-01-05 00:44:48.29	78.07	31.68	-51.1	-68.3	3.5	3.03e+01	0	29	104	0	60	134950
2026-01-05 00:44:49.30	77.68	31.79	-37.7	-47.9	3.5	3.03e+01	0	29	104	0	58	14440
2026-01-05 00:44:50.31	77.29	31.90	-49.9	-67.4	3.6	3.03e+01	0	29	104	0	60	121805
2026-01-05 00:44:51.32	76.90	32.00	-38.9	-49.1	3.5	3.03e+01	0	29	104	0	56	18711
2026-01-05 00:44:52.33	76.51	32.11	-38.4	-48.6	3.5	3.03e+01	0	29	104	0	56	17522
2026-01-05 00:44:53.34	76.11	32.21	-37.7	-47.9	3.5	3.03e+01	0	28	104	0	56	16279
2026-01-05 00:44:54.35	75.71	32.32	-37.8	-48.0	3.6	3.03e+01	0	29	104	0	56	16511
2026-01-05 00:44:55.36	75.31	32.42	-40.2	-50.6	3.6	3.03e+01	0	28	104	0	60	17638
2026-01-05 00:44:56.37	74.90	32.52	-40.2	-50.5	3.5	3.03e+01	0	28	104	0	60	17376
2026-01-05 00:44:57.38	74.50	32.62	-48.9	-62.3	3.6	3.03e+01	0	28	104	0	60	67438
2026-01-05 00:44:58.40	74.08	32.72	-37.6	-47.8	3.5	3.03e+01	0	28	104	0	52	20254
2026-01-05 00:44:59.41	73.67	32.82	-49.8	-64.0	3.5	3.03e+01	0	29	104	0	60	82547
2026-01-05 00:45:00.42	73.26	32.92	-38.1	-48.4	3.5	3.03e+01	0	29	104	0	56	17170
2026-01-05 00:45:01.43	72.84	33.01	-36.9	-47.1	3.5	3.03e+01	0	28	104	0	54	16657
2026-01-05 00:45:02.44	72.42	33.11	-36.6	-46.8	3.5	3.03e+01	0	29	104	0	54	16131
2026-01-05 00:45:03.45	72.00	33.20	-36.7	-46.9	3.5	3.03e+01	0	29	104	0	54	16292
2026-01-05 00:45:04.46	71.57	33.29	-37.0	-47.2	3.5	3.03e+01	0	28	104	0	56	14937
2026-01-05 00:45:05.47	71.14	33.38	-41.8	-52.2	3.5	3.03e+01	0	29	104	0	58	23778
2026-01-05 00:45:06.48	70.71	33.47	-50.2	-65.5	3.6	3.03e+01	0	29	104	0	60	97692
2026-01-05 00:45:07.49	70.28	33.55	-41.9	-52.4	3.3	3.03e+01	0	29	104	0	56	27107
2026-01-05 00:45:08.50	69.85	33.64	-50.0	-64.4	3.6	3.03e+01	0	29	104	0	60	85983
2026-01-05 00:45:09.51	69.41	33.72	-40.1	-50.4	3.5	3.03e+01	0	29	104	0	60	17272
2026-01-05 00:45:10.52	68.97	33.80	-39.7	-50.0	3.6	3.03e+01	0	29	104	0	60	16491
2026-01-05 00:45:11.53	68.53	33.88	-38.3	-48.5	3.5	3.03e+01	0	29	104	0	56	17450
2026-01-05 00:45:12.54	68.09	33.96	-40.3	-50.6	3.5	3.03e+01	0	29	104	0	56	22150
2026-01-05 00:45:13.55	67.64	34.04	-36.9	-47.1	3.5	3.03e+01	0	28	104	0	54	16646
2026-01-05 00:45:14.57	67.19	34.11	-49.9	-64.1	3.4	3.03e+01	0	29	104	0	60	82956
2026-01-05 00:45:15.58	66.74	34.19	-42.5	-53.0	3.6	3.03e+01	0	29	104	0	60	23275
2026-01-05 00:45:16.59	66.29	34.26	-44.7	-55.5	3.5	3.03e+01	0	28	104	0	58	34605
2026-01-05 00:45:17.60	65.83	34.33	-41.5	-52.0	3.5	3.03e+01	0	28	104	0	60	20553
2026-01-05 00:45:18.61	65.38	34.39	-36.8	-47.0	3.5	3.03e+01	0	29	104	0	54	16391
2026-01-05 00:45:19.62	64.92	34.46	-36.8	-47.0	3.5	3.03e+01	0	29	104	0	54	16380
2026-01-05 00:45:20.63	64.46	34.52	-36.3	-46.5	3.5	3.03e+01	0	29	104	0	54	15476
2026-01-05 00:45:21.64	64.00	34.59	-41.9	-52.5	3.5	3.03e+01	0	29	104	0	56	27443
2026-01-05 00:45:22.66	63.53	34.65	-36.2	-46.3	3.5	3.03e+01	0	29	104	0	54	15201
2026-01-05 00:45:23.67	63.07	34.70	-51.0	-67.8	3.5	3.03e+01	0	28	104	0	60	128138
2026-01-05 00:45:24.68	62.60	34.76	-41.0	-51.5	3.5	3.03e+01	0	29	104	0	60	19478
2026-01-05 00:45:25.69	62.13	34.81	-49.0	-61.7	3.5	3.03e+01	0	29	104	0	60	63231
2026-01-05 00:45:26.70	61.66	34.87	-40.5	-50.8	3.5	3.03e+01	0	29	104	0	60	18066
2026-01-05 00:45:27.71	61.19	34.92	-38.3	-48.5	3.5	3.03e+01	0	29	104	0	56	17343
2026-01-05 00:45:28.72	60.72	34.96	-36.9	-47.0	3.5	3.03e+01	0	29	104	0	54	16509
2026-01-05 00:45:29.73	60.24	35.01	-36.9	-47.2	3.5	3.03e+01	0	29	104	0	54	16718
2026-01-05 00:45:30.74	59.77	35.05	-39.1	-49.4	3.5	3.03e+01	0	29	104	0	56	19201
2026-01-05 00:45:31.76	59.29	35.09	-36.9	-47.1	3.5	3.03e+01	0	28	104	0	52	18705
2026-01-05 00:45:32.77	58.81	35.13	-48.8	-67.0	3.5	3.03e+01	0	29	104	0	60	116663
2026-01-05 00:45:33.78	58.33	35.17	-40.9	-51.4	3.5	3.03e+01	0	29	104	0	60	19380
2026-01-05 00:45:34.79	57.85	35.20	-49.0	-68.1	3.5	3.03e+01	0	29	104	0	60	131550
2026-01-05 00:45:35.80	57.37	35.24	-40.4	-50.8	3.6	3.03e+01	0	29	104	0	60	18094
2026-01-05 00:45:36.81	56.89	35.27	-38.4	-48.6	3.5	3.03e+01	0	29	104	0	56	17688
2026-01-05 00:45:37.82	56.40	35.29	-37.0	-47.3	3.5	3.03e+01	0	28	104	0	54	16953
2026-01-05 00:45:38.83	55.92	35.32	-37.3	-47.5	3.5	3.03e+01	0	29	104	0	54	17322
2026-01-05 00:45:39.84	55.43	35.34	-45.0	-55.8	3.5	3.03e+01	0	29	104	0	60	32127
2026-01-05 00:45:40.85	54.95	35.37	-38.5	-48.7	3.5	3.03e+01	0	29	104	0	54	20077
2026-01-05 00:45:41.86	54.46	35.38	-50.6	-66.6	3.5	3.03e+01	0	29	104	0	60	110589
2026-01-05 00:45:42.87	53.98	35.40	-40.8	-51.2	3.5	3.03e+01	0	29	104	0	60	18850
2026-01-05 00:45:43.88	53.49	35.42	-50.9	-67.9	3.5	3.03e+01	0	29	104	0	60	129645
2026-01-05 00:45:44.89	53.00	35.43	-39.5	-49.8	3.5	3.03e+01	0	29	104	0	60	15974
2026-01-05 00:45:45.90	52.52	35.44	-37.5	-47.8	3.5	3.03e+01	0	29	104	0	56	15999
2026-01-05 00:45:46.92	52.02	35.45	-36.8	-47.0	3.5	3.03e+01	0	29	104	0	54	16431
2026-01-05 00:45:47.93	51.54	35.45	-36.8	-46.9	3.5	3.03e+01	0	28	104	0	54	16208
2026-01-05 00:45:48.94	51.05	35.45	-49.3	-62.8	3.5	3.03e+01	0	29	104	0	60	71441
2026-01-05 00:45:49.95	50.56	35.45	-38.5	-48.8	3.5	3.03e+01	0	29	104	0	54	20233
2026-01-05 00:45:50.96	50.07	35.45	-50.7	-66.8	3.5	3.03e+01	0	29	104	0	60	114117
2026-01-05 00:45:51.97	49.58	35.45	-43.4	-54.0	3.5	3.03e+01	0	29	104	0	60	25997
2026-01-05 00:45:52.98	49.10	35.44	-50.9	-68.1	3.5	3.03e+01	0	29	104	0	60	132571
2026-01-05 00:45:53.99	48.61	35.43	-38.7	-49.0	3.5	3.03e+01	0	29	104	0	58	16360
2026-01-05 00:45:55.00	48.12	35.42	-38.7	-49.0	3.5	3.03e+01	0	29	104	0	58	16511
2026-01-05 00:45:56.01	47.63	35.41	-38.3	-48.5	3.5	3.03e+01	0	29	104	0	58	15466
2026-01-05 00:45:57.02	47.15	35.39	-38.4	-48.7	3.5	3.03e+01	0	29	104	0	56	17753
2026-01-05 00:45:58.03	46.66	35.37	-45.1	-56.2	3.6	3.03e+01	0	29	104	0	60	33369
2026-01-05 00:45:59.04	46.18	35.35	-39.9	-50.2	3.5	3.03e+01	0	28	104	0	60	16840
2026-01-05 00:46:00.05	45.69	35.33	-50.9	-67.2	3.5	3.03e+01	0	29	104	0	60	118461
2026-01-05 00:46:01.06	45.21	35.31	-42.9	-53.4	3.5	3.03e+01	0	29	104	0	60	24247
2026-01-05 00:46:02.08	44.72	35.28	-51.0	-68.0	3.5	3.03e+01	0	29	104	0	60	130061
2026-01-05 00:46:03.09	44.24	35.25	-39.9	-50.2	3.5	3.03e+01	0	28	104	0	60	16807
2026-01-05 00:46:04.10	43.76	35.22	-41.4	-51.8	3.5	3.03e+01	0	29	104	0	60	20274
2026-01-05 00:46:05.11	43.28	35.19	-40.8	-51.2	3.5	3.03e+01	0	29	104	0	60	18810
2026-01-05 00:46:06.12	42.80	35.15	-41.1	-51.5	3.5	3.03e+01	0	29	104	0	60	19538
2026-01-05 00:46:07.13	42.32	35.11	-45.2	-56.2	3.5	3.03e+01	0	29	104	0	60	33588
2026-01-05 00:46:08.14	41.84	35.07	-39.6	-49.9	3.5	3.03e+01	0	29	104	0	58	18221
2026-01-05 00:46:09.15	41.37	35.03	-50.9	-67.3	3.5	3.03e+01	0	29	104	0	60	120112
2026-01-05 00:46:10.16	40.89	34.98	-39.8	-50.2	3.5	3.03e+01	0	29	104	0	60	16875
2026-01-05 00:46:11.18	40.41	34.94	-51.0	-67.8	3.5	3.03e+01	0	29	104	0	60	127222
2026-01-05 00:46:12.19	39.94	34.89	-39.6	-49.9	3.5	3.03e+01	0	29	104	0	58	18115
2026-01-05 00:46:13.20	39.47	34.84	-38.5	-48.8	3.5	3.03e+01	0	29	104	0	58	16030
2026-01-05 00:46:14.21	39.00	34.78	-37.8	-48.1	3.5	3.03e+01	0	29	104	0	56	16585
2026-01-05 00:46:15.22	38.54	34.73	-37.7	-47.8	3.5	3.03e+01	0	29	104	0	56	16126
2026-01-05 00:46:16.23	38.07	34.67	-48.4	-61.0	3.5	3.03e+01	0	29	104	0	60	58507
2026-01-05 00:46:17.24	37.61	34.61	-39.8	-50.1	3.5	3.03e+01	0	29	104	0	58	18736
2026-01-05 00:46:18.25	37.15	34.55	-50.9	-67.7	3.5	3.03e+01	0	29	104	0	60	125663
2026-01-05 00:46:19.26	36.69	34.49	-39.4	-49.6	3.6	3.03e+01	0	29	104	0	60	15667
2026-01-05 00:46:20.27	36.23	34.43	-51.0	-68.1	3.5	3.03e+01	0	29	104	0	60	131181
2026-01-05 00:46:21.28	35.77	34.36	-37.7	-47.8	3.6	3.03e+01	0	29	104	0	56	16055
2026-01-05 00:46:22.29	35.32	34.29	-37.6	-47.7	3.5	3.03e+01	0	29	104	0	56	15903
2026-01-05 00:46:23.31	34.86	34.22	-37.2	-38.6	5.2	3.03e+01	0	29	104	0	54	6270
2026-01-05 00:46:24.32	34.41	34.15	-37.2	-38.5	29.4	3.03e+01	0	29	0	0	54	6141
2026-01-05 00:46:25.33	33.97	34.07	-37.2	-38.4	29.4	3.03e+01	0	29	0	2097152	54	6099
2026-01-05 00:46:26.34	33.52	34.00	-37.2	-38.4	29.5	3.03e+01	0	29	0	3670016	54	6112
2026-01-05 00:46:27.35	33.08	33.92	-37.2	-38.4	29.5	3.03e+01	0	29	0	5767168	54	6075
2026-01-05 00:46:28.36	32.63	33.84	-37.2	-38.4	29.5	3.03e+01	0	29	0	7864320	54	6072
2026-01-05 00:46:29.37	32.19	33.76	-37.4	-38.6	29.2	3.03e+01	0	29	0	9437184	54	6272
2026-01-05 00:46:30.38	31.76	33.68	-37.3	-38.5	29.3	3.03e+01	0	29	0	11534336	54	6169
2026-01-05 00:46:31.39	31.32	33.60	-37.3	-38.5	29.4	3.03e+01	0	29	0	13631488	54	6196
2026-01-05 00:46:32.40	30.89	33.51	-37.2	-38.4	29.3	3.03e+01	0	29	0	15204352	54	6125
2026-01-05 00:46:33.42	30.46	33.42	-37.0	-38.3	29.6	3.03e+01	0	28	0	17301504	54	6008
2026-01-05 00:46:34.43	30.03	33.33	-37.2	-38.5	29.4	3.03e+01	0	28	0	18874368	54	6166
2026-01-05 00:46:35.44	29.60	33.24	-37.2	-38.5	29.5	3.03e+01	0	29	0	20971520	54	6146
2026-01-05 00:46:36.45	29.18	33.15	-37.3	-38.5	29.4	3.03e+01	0	28	0	23068672	54	6151
2026-01-05 00:46:37.46	28.76	33.06	-37.3	-38.5	29.4	3.03e+01	0	29	0	24641536	54	6161
2026-01-05 00:46:38.47	28.34	32.96	-37.1	-38.3	29.5	3.03e+01	0	29	0	26738688	54	6051
2026-01-05 00:46:39.48	27.93	32.87	-37.3	-38.5	29.3	3.03e+01	0	28	0	28311552	54	6194
2026-01-05 00:46:40.49	27.52	32.77	-37.4	-38.6	29.3	3.03e+01	0	28	0	30408704	54	6223
2026-01-05 00:46:41.50	27.11	32.67	-37.4	-38.6	29.2	3.03e+01	0	28	0	32505856	54	6210
2026-01-05 00:46:42.52	26.69	32.57	-37.3	-38.5	29.4	3.03e+01	0	28	0	34078720	54	6200
2026-01-05 00:46:43.53	26.29	32.47	-37.3	-38.5	29.4	3.03e+01	0	28	0	36175872	54	6166
2026-01-05 00:46:44.54	25.89	32.37	-37.1	-38.4	29.5	3.03e+01	0	28	0	38273024	54	6079
2026-01-05 00:46:45.55	25.49	32.27	-37.3	-38.5	29.4	3.03e+01	0	29	0	39845888	54	6205
2026-01-05 00:46:46.56	25.09	32.16	-37.3	-38.6	29.4	3.03e+01	0	29	0	41943040	54	6209
2026-01-05 00:46:47.57	24.70	32.06	-37.4	-38.6	29.2	3.03e+01	0	28	0	43515904	54	6260
2026-01-05 00:46:48.58	24.30	31.95	-37.4	-38.6	29.1	3.03e+01	0	29	0	45613056	54	6258
2026-01-05 00:46:49.59	23.92	31.84	-37.5	-38.8	29.2	3.03e+01	0	28	0	47710208	54	6381
2026-01-05 00:46:50.61	23.53	31.73	-37.5	-38.8	29.2	3.03e+01	0	29	0	49283072	54	6362
2026-01-05 00:46:51.62	23.14	31.63	-37.2	-38.4	29.5	3.03e+01	0	29	0	51380224	54	6102
2026-01-05 00:46:52.63	22.76	31.51	-37.3	-38.6	29.3	3.03e+01	0	29	0	52953088	54	6210
2026-01-05 00:46:53.64	22.38	31.40	-37.3	-38.5	29.4	3.03e+01	0	29	0	55050240	54	6137
2026-01-05 00:46:54.65	22.01	31.29	-37.4	-38.6	29.3	3.03e+01	0	29	0	57147392	54	6240
2026-01-05 00:46:55.66	21.63	31.18	-37.2	-38.4	29.5	3.03e+01	0	29	0	58720256	54	6114
2026-01-05 00:46:56.67	21.26	31.06	-37.4	-38.6	29.4	3.03e+01	0	29	0	60817408	54	6245
2026-01-05 00:46:57.68	20.90	30.95	-37.7	-38.9	29.0	3.03e+01	0	29	0	62390272	54	6448
2026-01-05 00:46:58.69	20.53	30.83	-37.4	-38.6	29.3	3.03e+01	0	29	0	64487424	54	6226
2026-01-05 00:46:59.71	20.17	30.72	-37.4	-38.6	29.2	3.03e+01	0	29	0	66584576	54	6251
2026-01-05 00:47:00.72	19.81	30.60	-37.4	-38.6	29.3	3.03e+01	0	29	0	68157440	54	6236
2026-01-05 00:47:01.73	19.45	30.48	-37.4	-38.6	29.5	3.03e+01	0	29	0	70254592	54	6214
2026-01-05 00:47:02.74	19.10	30.36	-37.3	-38.5	29.3	3.03e+01	0	29	0	72351744	54	6200
2026-01-05 00:47:03.75	18.75	30.24	-37.6	-38.9	29.1	3.03e+01	0	29	0	73924608	54	6424
2026-01-05 00:47:04.76	18.40	30.12	-37.2	-38.4	29.5	3.03e+01	0	29	0	76021760	54	6126
2026-01-05 00:47:05.77	18.05	30.00	-37.3	-38.5	29.4	3.03e+01	0	29	0	77594624	54	6184
2026-01-05 00:47:06.78	17.71	29.88	-37.4	-38.6	29.3	3.03e+01	0	29	0	79691776	54	6222
2026-01-05 00:47:07.79	17.37	29.76	-37.3	-38.5	29.4	3.03e+01	0	28	0	81788928	54	6148
2026-01-05 00:47:08.81	17.03	29.64	-37.4	-38.6	29.3	3.03e+01	0	29	0	83361792	54	6257
2026-01-05 00:47:09.81	16.70	29.51	-37.5	-38.7	29.1	3.03e+01	0	29	0	85458944	54	6347
2026-01-05 00:47:10.83	16.36	29.39	-37.1	-38.3	29.4	3.03e+01	0	29	0	87031808	54	6057
2026-01-05 00:47:11.84	16.03	29.27	-37.5	-38.7	29.2	3.03e+01	0	29	0	89128960	54	6334
2026-01-05 00:47:12.85	15.71	29.14	-37.5	-38.7	29.2	3.03e+01	0	29	0	91226112	54	6301
2026-01-05 00:47:13.86	15.38	29.02	-37.4	-38.6	29.3	3.03e+01	0	29	0	92798976	54	6226
2026-01-05 00:47:14.87	15.06	28.89	-37.2	-38.4	29.4	3.03e+01	0	29	0	94896128	54	6117
2026-01-05 00:47:15.88	14.74	28.77	-37.4	-38.6	29.4	3.03e+01	0	29	0	96468992	54	6224
2026-01-05 00:47:16.89	14.42	28.64	-37.4	-38.6	29.4	3.03e+01	0	29	0	98566144	54	6230
2026-01-05 00:47:17.90	14.11	28.52	-37.5	-38.7	29.2	3.03e+01	0	29	0	100663296	54	6312
2026-01-05 00:47:18.92	13.80	28.39	-37.9	-39.1	28.9	3.03e+01	0	29	0	102236160	54	6638
2026-01-05 00:47:19.93	13.49	28.26	-37.3	-38.5	29.4	3.03e+01	0	29	0	104333312	54	6151
2026-01-05 00:47:20.94	13.18	28.13	-37.3	-38.5	29.4	3.03e+01	0	29	0	106430464	54	6183
2026-01-05 00:47:21.95	12.88	28.01	-37.5	-38.7	29.4	3.03e+01	0	29	0	108003328	54	6297
2026-01-05 00:47:22.96	12.58	27.88	-37.3	-38.5	29.3	3.03e+01	0	29	0	110100480	54	6160
2026-01-05 00:47:23.97	12.28	27.75	-37.5	-38.7	29.1	3.03e+01	0	29	0	111673344	54	6311
2026-01-05 00:47:24.98	11.98	27.63	-37.5	-38.8	29.1	3.03e+01	0	29	0	113770496	54	6359
2026-01-05 00:47:25.99	11.69	27.50	-37.2	-38.4	29.5	3.03e+01	0	29	0	115867648	54	6067
2026-01-05 00:47:27.00	11.40	27.37	-37.1	-38.3	29.5	3.03e+01	0	29	0	117440512	54	6053
2026-01-05 00:47:28.01	11.11	27.24	-37.3	-38.5	29.4	3.03e+01	0	29	0	119537664	54	6165
2026-01-05 00:47:29.03	10.82	27.11	-37.3	-38.6	29.3	3.03e+01	0	29	0	121634816	54	6213
2026-01-05 00:47:30.04	10.53	26.98	-37.5	-38.7	29.3	3.03e+01	0	29	0	123207680	54	6305
2026-01-05 00:47:31.05	10.25	26.85	-37.3	-38.5	29.4	3.03e+01	0	29	0	125304832	54	6157
2026-01-05 00:47:32.06	9.97	26.73	-37.2	-38.4	29.4	3.03e+01	0	29	0	126877696	54	6117
2026-01-05 00:47:33.07	9.70	26.60	-37.4	-38.6	29.4	3.03e+01	0	29	0	128974848	54	6224
2026-01-05 00:47:34.08	9.42	26.47	-37.5	-38.8	29.2	3.03e+01	0	29	0	131072000	54	6361
2026-01-05 00:47:35.09	9.15	26.34	-37.4	-38.6	29.3	3.03e+01	0	28	0	132644864	54	6228
2026-01-05 00:47:36.10	8.88	26.21	-37.4	-38.6	29.3	3.03e+01	0	29	0	134742016	54	6242
2026-01-05 00:47:37.12	8.61	26.08	-37.4	-38.6	29.2	3.03e+01	0	29	0	136314880	54	6211
2026-01-05 00:47:38.13	8.35	25.95	-37.2	-38.4	29.5	3.03e+01	0	29	0	138412032	54	6100
2026-01-05 00:47:39.14	8.08	25.82	-37.3	-38.5	29.4	3.03e+01	0	29	0	140509184	54	6149
2026-01-05 00:47:40.15	7.82	25.69	-37.5	-38.7	29.2	3.03e+01	0	29	0	142082048	54	6300
2026-01-05 00:47:41.16	7.56	25.57	-37.4	-38.7	29.2	3.03e+01	0	29	0	144179200	54	6288
2026-01-05 00:47:42.17	7.31	25.44	-37.1	-38.3	29.6	3.03e+01	0	29	0	146276352	54	6052
2026-01-05 00:47:43.18	7.05	25.31	-37.2	-38.4	29.4	3.03e+01	0	29	0	147849216	54	6089
2026-01-05 00:47:44.19	6.80	25.18	-37.3	-38.5	29.4	3.03e+01	0	29	0	149946368	54	6146
2026-01-05 00:47:45.20	6.55	25.05	-37.5	-38.7	29.3	3.03e+01	0	29	0	151519232	54	6287
2026-01-05 00:47:46.22	6.30	24.92	-37.3	-38.5	29.3	3.03e+01	0	29	0	153616384	54	6187
2026-01-05 00:47:47.23	6.06	24.79	-37.2	-38.4	29.4	3.03e+01	0	29	0	155713536	54	6090
2026-01-05 00:47:48.24	5.81	24.67	-37.3	-38.5	29.4	3.03e+01	0	29	0	157286400	54	6174
2026-01-05 00:47:49.25	5.57	24.54	-37.3	-38.5	29.2	3.03e+01	0	29	0	159383552	54	6189
2026-01-05 00:47:50.26	5.33	24.41	-37.5	-38.7	29.1	3.03e+01	0	29	0	161480704	54	6319
2026-01-05 00:47:51.27	5.10	24.28	-37.4	-38.6	29.3	3.03e+01	0	29	0	163053568	54	6216
2026-01-05 00:47:52.28	4.86	24.15	-37.3	-38.5	29.3	3.03e+01	0	29	0	165150720	54	6188
2026-01-05 00:47:53.29	4.63	24.03	-37.3	-38.5	29.4	3.03e+01	0	29	0	166723584	54	6148
2026-01-05 00:47:54.30	4.40	23.90	-37.2	-38.4	29.4	3.03e+01	0	29	0	168820736	54	6108
2026-01-05 00:47:55.32	4.16	23.77	-37.2	-38.4	29.4	3.03e+01	0	29	0	170917888	54	6099
2026-01-05 00:47:56.33	3.94	23.65	-37.1	-38.3	29.5	3.03e+01	0	28	0	172490752	54	5997
2026-01-05 00:47:57.34	3.71	23.52	-37.1	-38.3	29.6	3.03e+01	0	29	0	174587904	54	6027
2026-01-05 00:47:58.35	3.49	23.39	-37.4	-38.7	29.2	3.03e+01	0	28	0	176160768	54	6290
2026-01-05 00:47:59.36	3.27	23.27	-37.8	-39.1	29.0	3.03e+01	0	29	0	178257920	54	6592
2026-01-05 00:48:00.37	3.05	23.14	-37.6	-38.8	29.3	3.03e+01	0	29	0	180355072	54	6385
2026-01-05 00:48:01.38	2.83	23.01	-37.1	-38.3	29.5	3.03e+01	0	29	0	181927936	54	6014
2026-01-05 00:48:02.39	2.61	22.89	-37.4	-38.6	29.4	3.03e+01	0	29	0	184025088	54	6216
2026-01-05 00:48:03.40	2.40	22.76	-37.5	-38.7	29.1	3.03e+01	0	29	0	186122240	54	6341
2026-01-05 00:48:04.41	2.19	22.64	-37.5	-38.7	29.2	3.03e+01	0	29	0	187695104	54	6331
2026-01-05 00:48:05.42	1.98	22.51	-37.5	-38.8	29.2	3.03e+01	0	29	0	189792256	54	6360
2026-01-05 00:48:06.43	1.77	22.39	-37.3	-38.5	29.3	3.03e+01	0	29	0	191365120	54	6202
2026-01-05 00:48:07.44	1.56	22.27	-37.4	-38.6	29.2	3.03e+01	0	29	0	193462272	54	6268
2026-01-05 00:48:08.45	1.36	22.14	-37.2	-38.4	29.4	3.03e+01	0	29	0	195559424	54	6125
2026-01-05 00:48:09.46	1.15	22.02	-37.4	-38.6	29.3	3.03e+01	0	29	0	197132288	54	6259
2026-01-05 00:48:10.47	0.95	21.90	-37.4	-38.6	29.3	3.03e+01	0	29	0	199229440	54	6241
2026-01-05 00:48:11.48	0.75	21.77	-37.2	-38.4	29.5	3.03e+01	0	29	0	200802304	54	6123
2026-01-05 00:48:12.49	0.56	21.65	-37.3	-38.5	29.4	3.03e+01	0	29	0	202899456	54	6163
2026-01-05 00:48:13.51	0.36	21.53	-37.4	-38.6	29.2	3.03e+01	0	29	0	204996608	54	6255
2026-01-05 00:48:14.52	0.16	21.40	-37.7	-38.9	29.0	3.03e+01	0	29	0	206569472	54	6469
2026-01-05 00:48:15.53	359.97	21.28	-37.3	-38.5	29.3	3.03e+01	0	29	0	208666624	54	6200
2026-01-05 00:48:16.54	359.78	21.16	-37.3	-38.5	29.5	3.03e+01	0	29	0	210763776	54	6177
2026-01-05 00:48:17.55	359.59	21.04	-37.0	-38.2	29.7	3.03e+01	0	29	0	212336640	54	5969
2026-01-05 00:48:18.56	359.40	20.92	-37.5	-38.7	29.3	3.03e+01	0	29	0	214433792	54	6323
2026-01-05 00:48:19.57	359.21	20.80	-37.5	-38.8	29.1	3.03e+01	0	29	0	216006656	54	6356
2026-01-05 00:48:20.58	359.03	20.68	-37.6	-38.8	29.0	3.03e+01	0	29	0	218103808	54	6403
2026-01-05 00:48:21.59	358.84	20.56	-37.7	-38.9	29.1	3.03e+01	0	29	0	220200960	54	6448
2026-01-05 00:48:22.60	358.66	20.44	-37.5	-38.7	29.1	3.03e+01	0	29	0	221773824	54	6344
2026-01-05 00:48:23.62	358.48	20.32	-37.3	-38.5	29.5	3.03e+01	0	29	0	223870976	54	6146
2026-01-05 00:48:24.63	358.30	20.20	-37.5	-38.7	29.3	3.03e+01	0	29	0	225443840	54	6302
2026-01-05 00:48:25.64	358.12	20.08	-37.6	-38.9	29.1	3.03e+01	0	29	0	227540992	54	6439
2026-01-05 00:48:26.65	357.95	19.96	-37.4	-38.6	29.3	3.03e+01	0	29	0	229638144	54	6261
2026-01-05 00:48:27.66	357.77	19.84	-37.4	-38.6	29.3	3.03e+01	0	29	0	231211008	54	6276
2026-01-05 00:48:28.67	357.60	19.73	-37.4	-38.6	29.3	3.03e+01	0	29	0	233308160	54	6247
2026-01-05 00:48:29.68	357.42	19.61	-37.4	-38.7	29.3	3.03e+01	0	29	0	234881024	54	6287
2026-01-05 00:48:30.69	357.25	19.49	-37.4	-38.6	29.3	3.03e+01	0	29	0	236978176	54	6245
2026-01-05 00:48:31.70	357.09	19.38	-37.5	-38.7	29.2	3.03e+01	0	29	0	239075328	54	6289
2026-01-05 00:48:32.72	356.92	19.26	-37.4	-38.6	29.2	3.03e+01	0	29	0	240648192	54	6235
2026-01-05 00:48:33.73	356.75	19.14	-37.5	-38.7	29.1	3.03e+01	0	29	0	242745344	54	6318
2026-01-05 00:48:34.74	356.58	19.03	-37.8	-39.0	29.0	3.03e+01	0	29	0	244842496	54	6526
2026-01-05 00:48:35.75	356.42	18.91	-37.6	-38.9	29.1	3.03e+01	0	29	0	246415360	54	6434
2026-01-05 00:48:36.76	356.26	18.80	-37.5	-38.7	29.1	3.03e+01	0	29	0	248512512	54	6321
2026-01-05 00:48:37.77	356.10	18.68	-37.5	-38.7	29.1	3.03e+01	0	29	0	250085376	54	6325
2026-01-05 00:48:38.78	355.94	18.57	-37.6	-38.8	29.1	3.03e+01	0	29	0	252182528	54	6369
2026-01-05 00:48:39.79	355.78	18.45	-37.7	-38.9	29.1	3.03e+01	0	29	0	254279680	54	6479
2026-01-05 00:48:40.80	355.62	18.34	-37.7	-38.9	28.9	3.03e+01	0	29	0	255852544	54	6452
2026-01-05 00:48:41.82	355.47	18.23	-37.7	-38.9	29.1	3.03e+01	0	29	0	257949696	54	6456
2026-01-05 00:48:42.83	355.31	18.11	-37.7	-38.9	28.9	3.03e+01	0	29	0	259522560	54	6480
2026-01-05 00:48:43.84	355.16	18.00	-37.8	-39.0	28.9	3.03e+01	0	29	0	261619712	54	6531
2026-01-05 00:48:44.85	355.00	17.89	-37.7	-38.9	29.0	3.03e+01	0	29	0	263716864	54	6475
2026-01-05 00:48:45.86	354.85	17.78	-37.5	-38.7	29.2	3.03e+01	0	29	0	265289728	54	6321
2026-01-05 00:48:46.87	354.70	17.67	-37.5	-38.7	29.1	3.03e+01	0	29	0	267386880	54	6348
2026-01-05 00:48:47.88	354.56	17.56	-37.5	-38.7	29.1	3.03e+01	0	29	0	269484032	54	6319
2026-01-05 00:48:48.89	354.41	17.45	-37.5	-38.8	29.2	3.03e+01	0	29	0	271056896	54	6351
2026-01-05 00:48:49.90	354.26	17.34	-37.7	-38.9	29.0	3.03e+01	0	29	0	273154048	54	6479
2026-01-05 00:48:50.92	354.12	17.23	-37.8	-39.1	28.9	3.03e+01	0	29	0	274726912	54	6574
2026-01-05 00:48:51.93	353.97	17.12	-38.0	-39.2	28.7	3.03e+01	0	29	0	276824064	54	6685
2026-01-05 00:48:52.94	353.83	17.01	-37.9	-39.2	28.6	3.03e+01	0	29	0	278921216	54	6672
2026-01-05 00:48:53.95	353.69	16.90	-37.7	-38.9	28.9	3.03e+01	0	29	0	280494080	54	6443
2026-01-05 00:48:54.96	353.55	16.79	-37.7	-38.9	28.9	3.03e+01	0	29	0	282591232	54	6475
2026-01-05 00:48:55.97	353.41	16.68	-37.3	-38.5	29.3	3.03e+01	0	29	0	284164096	54	6190
2026-01-05 00:48:56.98	353.27	16.57	-37.5	-38.7	29.1	3.03e+01	0	29	0	286261248	54	6331
2026-01-05 00:48:57.99	353.13	16.47	-37.6	-38.8	29.1	3.03e+01	0	29	0	288358400	54	6379
2026-01-05 00:48:59.00	353.00	16.36	-37.6	-38.9	28.9	3.03e+01	0	29	0	289931264	54	6437
2026-01-05 00:49:00.01	352.86	16.25	-37.6	-38.8	29.0	3.03e+01	0	29	0	292028416	54	6387
2026-01-05 00:49:01.03	352.72	16.15	-37.8	-39.0	28.9	3.03e+01	0	29	0	294125568	54	6555
2026-01-05 00:49:02.04	352.59	16.04	-37.6	-38.8	29.0	3.03e+01	0	29	0	295698432	54	6398
2026-01-05 00:49:03.05	352.46	15.93	-37.1	-38.3	29.4	3.03e+01	0	29	0	297795584	54	6054
2026-01-05 00:49:04.06	352.33	15.83	-37.4	-38.6	29.2	3.03e+01	0	29	0	299368448	54	6232
2026-01-05 00:49:05.07	352.20	15.72	-37.5	-38.8	29.1	3.03e+01	0	29	0	301465600	54	6361
2026-01-05 00:49:06.08	352.07	15.62	-37.6	-38.9	29.0	3.03e+01	0	29	0	303562752	54	6437
2026-01-05 00:49:07.09	351.94	15.52	-37.6	-38.8	29.1	3.03e+01	0	29	0	305135616	54	6415
2026-01-05 00:49:08.10	351.81	15.41	-37.4	-38.6	29.2	3.03e+01	0	29	0	307232768	54	6262
2026-01-05 00:49:09.11	351.69	15.31	-37.4	-38.6	29.1	3.03e+01	0	29	0	308805632	54	6277
2026-01-05 00:49:10.13	351.56	15.20	-37.1	-38.3	29.4	3.03e+01	0	29	0	310902784	54	6043
2026-01-05 00:49:11.14	351.44	15.10	-37.4	-38.6	29.2	3.03e+01	0	29	0	312999936	54	6227
2026-01-05 00:49:12.15	351.31	15.00	-37.5	-38.7	29.1	3.03e+01	0	29	0	314572800	54	6288
2026-01-05 00:49:13.16	351.19	14.90	-37.4	-38.6	29.1	3.03e+01	0	29	0	316669952	54	6248
2026-01-05 00:49:14.17	351.07	14.80	-37.5	-38.7	29.0	3.03e+01	0	29	0	318767104	54	6310
2026-01-05 00:49:15.18	350.95	14.69	-37.4	-38.6	29.3	3.03e+01	0	29	0	320339968	54	6214
2026-01-05 00:49:16.19	350.83	14.59	-37.2	-38.5	29.3	3.03e+01	0	29	0	322437120	54	6135
2026-01-05 00:49:17.20	350.71	14.49	-37.2	-38.4	29.3	3.03e+01	0	29	0	324009984	54	6105
2026-01-05 00:49:18.21	350.59	14.39	-37.3	-38.5	29.2	3.03e+01	0	29	0	326107136	54	6167
2026-01-05 00:49:19.22	350.48	14.29	-37.4	-38.6	29.2	3.03e+01	0	29	0	328204288	54	6245
2026-01-05 00:49:20.23	350.36	14.19	-37.4	-38.6	29.2	3.03e+01	0	29	0	329777152	54	6249
2026-01-05 00:49:21.24	350.24	14.09	-37.3	-38.5	29.2	3.03e+01	0	29	0	331874304	54	6156
2026-01-05 00:49:22.26	350.13	13.99	-37.0	-38.2	29.6	3.03e+01	0	29	0	333971456	54	5968
2026-01-05 00:49:23.27	350.02	13.90	-37.1	-38.3	29.4	3.03e+01	0	29	0	335544320	54	6024
2026-01-05 00:49:24.28	349.90	13.80	-37.2	-38.4	29.3	3.03e+01	0	29	0	337641472	54	6075
2026-01-05 00:49:25.29	349.79	13.70	-37.3	-38.5	29.2	3.03e+01	0	29	0	339214336	54	6187
2026-01-05 00:49:26.30	349.68	13.60	-37.4	-38.6	29.1	3.03e+01	0	29	0	341311488	54	6250
2026-01-05 00:49:27.31	349.57	13.50	-37.4	-38.6	29.1	3.03e+01	0	29	0	343408640	54	6240
2026-01-05 00:49:28.32	349.46	13.41	-37.2	-38.4	29.2	3.03e+01	0	29	0	344981504	54	6080
2026-01-05 00:49:29.33	349.35	13.31	-37.3	-38.6	29.2	3.03e+01	0	29	0	347078656	54	6209
2026-01-05 00:49:30.34	349.24	13.21	-37.2	-38.4	29.3	3.03e+01	0	29	0	348651520	54	6102
2026-01-05 00:49:31.35	349.14	13.12	-37.4	-38.6	29.2	3.03e+01	0	29	0	350748672	54	6229
2026-01-05 00:49:32.37	349.03	13.02	-37.5	-38.7	29.0	3.03e+01	0	29	0	352845824	54	6304
2026-01-05 00:49:33.38	348.92	12.93	-37.5	-38.7	29.0	3.03e+01	0	29	0	354418688	54	6329
2026-01-05 00:49:34.39	348.82	12.83	-37.4	-38.7	29.0	3.03e+01	0	29	0	356515840	54	6297
2026-01-05 00:49:35.40	348.71	12.74	-37.4	-38.6	29.1	3.03e+01	0	29	0	358612992	54	6230
2026-01-05 00:49:36.41	348.61	12.64	-37.3	-38.5	29.2	3.03e+01	0	29	0	360185856	54	6156
2026-01-05 00:49:37.42	348.51	12.55	-37.1	-38.3	29.4	3.03e+01	0	29	0	362283008	54	6005
2026-01-05 00:49:38.43	348.41	12.45	-37.2	-38.4	29.3	3.03e+01	0	29	0	363855872	54	6093
2026-01-05 00:49:39.44	348.30	12.36	-37.2	-38.4	29.2	3.03e+01	0	29	0	365953024	54	6132
2026-01-05 00:49:40.45	348.20	12.27	-37.2	-38.4	29.3	3.03e+01	0	29	0	368050176	54	6095
2026-01-05 00:49:41.47	348.10	12.17	-37.3	-38.5	29.1	3.03e+01	0	29	0	369623040	54	6193
2026-01-05 00:49:42.48	348.00	12.08	-37.2	-38.4	29.2	3.03e+01	0	29	0	371720192	54	6087
2026-01-05 00:49:43.49	347.91	11.99	-37.2	-38.4	29.3	3.03e+01	0	29	0	373817344	54	6134
2026-01-05 00:49:44.50	347.81	11.90	-37.2	-38.4	29.2	3.03e+01	0	29	0	375390208	54	6114
2026-01-05 00:49:45.51	347.71	11.81	-37.2	-38.5	29.2	3.03e+01	0	29	0	377487360	54	6136
2026-01-05 00:49:46.52	347.61	11.72	-37.5	-38.7	28.9	3.03e+01	0	29	0	379060224	54	6349
2026-01-05 00:49:47.53	347.52	11.62	-37.4	-38.6	29.0	3.03e+01	0	29	0	381157376	54	6267
2026-01-05 00:49:48.54	347.42	11.53	-37.7	-39.0	28.7	3.03e+01	0	29	0	383254528	54	6526
2026-01-05 00:49:49.55	347.33	11.44	-37.3	-38.5	29.0	3.03e+01	0	29	0	384827392	54	6165
2026-01-05 00:49:50.57	347.23	11.35	-37.4	-38.6	29.0	3.03e+01	0	29	0	386924544	54	6230
2026-01-05 00:49:51.58	347.14	11.26	-37.2	-38.4	29.1	3.03e+01	0	29	0	388497408	54	6115
2026-01-05 00:49:52.59	347.05	11.17	-37.4	-38.6	29.0	3.03e+01	0	29	0	390594560	54	6258
2026-01-05 00:49:53.60	346.96	11.08	-37.3	-38.5	29.2	3.03e+01	0	29	0	392691712	54	6147
2026-01-05 00:49:54.61	346.87	10.99	-37.1	-38.3	29.4	3.03e+01	0	29	0	394264576	54	6012
2026-01-05 00:49:55.62	346.78	10.91	-37.3	-38.5	29.1	3.03e+01	0	29	0	396361728	54	6160
2026-01-05 00:49:56.63	346.69	10.82	-37.4	-38.7	29.0	3.03e+01	0	29	0	397934592	54	6280
2026-01-05 00:49:57.64	346.60	10.73	-37.4	-38.6	29.1	3.03e+01	0	29	0	400031744	54	6274
2026-01-05 00:49:58.65	346.51	10.64	-37.6	-38.9	28.8	3.03e+01	0	29	0	402128896	54	6443
2026-01-05 00:49:59.66	346.42	10.55	-37.3	-38.5	29.0	3.03e+01	0	29	0	403701760	54	6196
2026-01-05 00:50:00.67	346.33	10.47	-37.2	-38.5	29.2	3.03e+01	0	29	0	405798912	54	6137
2026-01-05 00:50:01.69	346.24	10.38	-37.3	-38.6	29.0	3.03e+01	0	29	0	407896064	54	6214
2026-01-05 00:50:02.70	346.16	10.29	-37.1	-38.3	29.3	3.03e+01	0	29	0	409468928	54	6024
2026-01-05 00:50:03.71	346.07	10.21	-37.3	-38.5	29.1	3.03e+01	0	29	0	411566080	54	6192
2026-01-05 00:50:04.72	345.99	10.12	-37.3	-38.5	29.1	3.03e+01	0	29	0	413138944	54	6172
2026-01-05 00:50:05.73	345.90	10.03	-37.4	-38.6	29.0	3.03e+01	0	29	0	415236096	54	6257
2026-01-05 00:50:06.74	345.82	9.95	-37.7	-38.9	28.7	3.03e+01	0	29	0	417333248	54	6495
2026-01-05 00:50:07.75	345.73	9.86	-37.5	-38.7	28.9	3.03e+01	0	29	0	418906112	54	6321
2026-01-05 00:50:08.76	345.65	9.78	-37.5	-38.8	28.9	3.03e+01	0	29	0	421003264	54	6366
2026-01-05 00:50:09.77	345.57	9.69	-37.5	-38.7	28.9	3.03e+01	0	29	0	422576128	54	6312
2026-01-05 00:50:10.78	345.49	9.61	-37.3	-38.6	29.0	3.03e+01	0	29	0	424673280	54	6220
2026-01-05 00:50:11.79	345.40	9.53	-37.5	-38.7	28.9	3.03e+01	0	29	0	426770432	54	6339
2026-01-05 00:50:12.80	345.32	9.44	-37.4	-38.6	29.0	3.03e+01	0	29	0	428343296	54	6269
2026-01-05 00:50:13.82	345.24	9.36	-37.4	-38.7	28.9	3.03e+01	0	29	0	430440448	54	6282
2026-01-05 00:50:14.83	345.16	9.27	-37.6	-38.8	28.8	3.03e+01	0	29	0	432013312	54	6388
2026-01-05 00:50:15.84	345.08	9.19	-37.6	-38.9	28.8	3.03e+01	0	29	0	434110464	54	6449
2026-01-05 00:50:16.85	345.00	9.11	-37.4	-38.6	28.9	3.03e+01	0	29	0	436207616	54	6268
2026-01-05 00:50:17.86	344.93	9.02	-37.4	-38.7	28.9	3.03e+01	0	29	0	437780480	54	6287
2026-01-05 00:50:18.87	344.85	8.94	-37.5	-38.8	28.8	3.03e+01	0	29	0	439877632	54	6380
2026-01-05 00:50:19.88	344.77	8.86	-37.6	-38.8	28.8	3.03e+01	0	29	0	441974784	54	6382
2026-01-05 00:50:20.89	344.69	8.78	-37.7	-38.9	28.8	3.03e+01	0	29	0	443547648	54	6468
2026-01-05 00:50:21.90	344.62	8.70	-37.8	-39.1	28.6	3.03e+01	0	29	0	445644800	54	6585
2026-01-05 00:50:22.92	344.54	8.61	-38.0	-39.3	28.6	3.03e+01	0	29	0	447217664	54	6733
2026-01-05 00:50:23.93	344.47	8.53	-37.6	-38.8	28.8	3.03e+01	0	29	0	449314816	54	6403
2026-01-05 00:50:24.94	344.39	8.45	-37.8	-39.1	28.6	3.03e+01	0	29	0	451411968	54	6612
2026-01-05 00:50:25.95	344.32	8.37	-37.8	-39.0	28.6	3.03e+01	0	29	0	452984832	54	6549
2026-01-05 00:50:26.96	344.24	8.29	-37.7	-38.9	28.7	3.03e+01	0	29	0	455081984	54	6480
2026-01-05 00:50:27.97	344.17	8.21	-37.8	-39.0	28.7	3.03e+01	0	29	0	456654848	54	6545
2026-01-05 00:50:28.98	344.10	8.13	-37.7	-39.0	28.7	3.03e+01	0	29	0	458752000	54	6502
2026-01-05 00:50:29.99	344.02	8.05	-37.6	-38.8	28.8	3.03e+01	0	29	0	460849152	54	6372
2026-01-05 00:50:31.01	343.95	7.97	-37.7	-38.9	28.7	3.03e+01	0	29	0	462422016	54	6484
2026-01-05 00:50:32.01	343.88	7.89	-37.7	-38.9	28.7	3.03e+01	0	29	0	464519168	54	6449
2026-01-05 00:50:33.03	343.81	7.81	-37.6	-38.8	28.7	3.03e+01	0	29	0	466616320	54	6422
2026-01-05 00:50:34.04	343.74	7.73	-38.1	-39.3	28.3	3.03e+01	0	29	0	468189184	54	6788
2026-01-05 00:50:35.05	343.67	7.66	-38.2	-39.5	28.3	3.03e+01	0	29	0	470286336	56	6136
2026-01-05 00:50:36.06	343.60	7.58	-38.3	-39.6	28.0	3.03e+01	0	29	0	471859200	56	6224
2026-01-05 00:50:37.07	343.53	7.50	-38.4	-39.7	28.1	3.03e+01	0	29	0	473956352	56	6287
2026-01-05 00:50:38.08	343.46	7.42	-38.1	-39.3	28.3	3.03e+01	0	29	0	476053504	56	6063
2026-01-05 00:50:39.09	343.39	7.34	-38.1	-39.4	28.3	3.03e+01	0	29	0	477626368	56	6085
2026-01-05 00:50:40.10	343.32	7.27	-38.2	-39.5	28.2	3.03e+01	0	29	0	479723520	56	6168
2026-01-05 00:50:41.12	343.25	7.19	-38.2	-39.4	28.2	3.03e+01	0	29	0	481820672	56	6127
2026-01-05 00:50:42.13	343.19	7.11	-38.1	-39.4	28.2	3.03e+01	0	29	0	483393536	56	6104
2026-01-05 00:50:43.14	343.12	7.03	-38.1	-39.3	28.4	3.03e+01	0	29	0	485490688	56	6050
2026-01-05 00:50:44.15	343.05	6.96	-38.2	-39.5	28.3	3.03e+01	0	29	0	487063552	56	6143
2026-01-05 00:50:45.16	342.99	6.88	-38.0	-39.2	28.5	3.03e+01	0	29	0	489160704	56	5976
2026-01-05 00:50:46.17	342.92	6.80	-37.9	-39.2	28.5	3.03e+01	0	29	0	491257856	56	5933
2026-01-05 00:50:47.18	342.85	6.73	-38.1	-39.3	28.4	3.03e+01	0	29	0	492830720	56	6042
2026-01-05 00:50:48.19	342.79	6.65	-38.2	-39.4	28.3	3.03e+01	0	29	0	494927872	56	6129
2026-01-05 00:50:49.20	342.73	6.58	-38.2	-39.5	28.3	3.03e+01	0	29	0	496500736	56	6141
2026-01-05 00:50:50.22	342.66	6.50	-38.3	-39.6	28.1	3.03e+01	0	29	0	498597888	56	6209
2026-01-05 00:50:51.23	342.60	6.43	-38.4	-39.7	27.9	3.03e+01	0	29	0	500695040	56	6309
2026-01-05 00:50:52.24	342.53	6.35	-38.1	-39.4	28.3	3.03e+01	0	29	0	502267904	56	6073
2026-01-05 00:50:53.25	342.47	6.28	-38.2	-39.5	28.2	3.03e+01	0	29	0	504365056	56	6167
2026-01-05 00:50:54.26	342.41	6.20	-38.4	-39.7	28.0	3.03e+01	0	29	0	506462208	56	6293
2026-01-05 00:50:55.27	342.35	6.13	-38.3	-39.6	28.0	3.03e+01	0	29	0	508035072	56	6256
2026-01-05 00:50:56.28	342.28	6.05	-38.3	-39.6	28.0	3.03e+01	0	29	0	510132224	56	6242
2026-01-05 00:50:57.29	342.22	5.98	-38.1	-39.4	28.1	3.03e+01	0	29	0	511705088	56	6075
2026-01-05 00:50:58.30	342.16	5.91	-38.2	-39.5	28.1	3.03e+01	0	29	0	513802240	56	6156
2026-01-05 00:50:59.32	342.10	5.83	-38.1	-39.4	28.2	3.03e+01	0	29	0	515899392	56	6079
2026-01-05 00:51:00.33	342.04	5.76	-38.0	-39.3	28.3	3.03e+01	0	29	0	517472256	56	6015
2026-01-05 00:51:01.34	341.98	5.69	-38.1	-39.4	28.2	3.03e+01	0	29	0	519569408	56	6076
2026-01-05 00:51:02.35	341.92	5.61	-38.2	-39.4	28.0	3.03e+01	0	29	0	521666560	56	6113
2026-01-05 00:51:03.36	341.86	5.54	-38.1	-39.3	28.4	3.03e+01	0	29	0	523239424	56	6045
2026-01-05 00:51:04.37	341.80	5.47	-38.4	-39.7	27.9	3.03e+01	0	29	0	525336576	56	6287
2026-01-05 00:51:05.38	341.74	5.40	-38.5	-39.8	27.9	3.03e+01	0	29	0	526909440	56	6388
2026-01-05 00:51:06.39	341.68	5.32	-38.4	-39.7	28.0	3.03e+01	0	29	0	529006592	56	6282
2026-01-05 00:51:07.40	341.62	5.25	-38.7	-39.9	27.8	3.03e+01	0	29	0	531103744	56	6488
2026-01-05 00:51:08.42	341.57	5.18	-38.3	-39.5	28.2	3.03e+01	0	29	0	532676608	56	6187
2026-01-05 00:51:09.43	341.51	5.11	-38.6	-39.9	27.9	3.03e+01	0	29	0	534773760	56	6439
2026-01-05 00:51:10.44	341.45	5.04	-38.3	-39.6	28.1	3.03e+01	0	29	0	536346624	56	6256
2026-01-05 00:51:11.45	341.39	4.97	-38.5	-39.8	27.8	3.03e+01	0	29	0	538443776	56	6397
2026-01-05 00:51:12.46	341.34	4.90	-38.5	-39.8	27.9	3.03e+01	0	29	0	540540928	56	6381
2026-01-05 00:51:13.47	341.28	4.83	-38.4	-39.6	28.0	3.03e+01	0	29	0	542113792	56	6268
2026-01-05 00:51:14.48	341.23	4.75	-38.5	-39.8	27.9	3.03e+01	0	29	0	544210944	56	6363
2026-01-05 00:51:15.49	341.17	4.68	-38.8	-40.1	27.7	3.03e+01	0	29	0	546308096	56	6595
2026-01-05 00:51:16.50	341.12	4.61	-38.4	-39.7	27.9	3.03e+01	0	29	0	547880960	56	6332
2026-01-05 00:51:17.52	341.06	4.54	-38.6	-39.9	27.7	3.03e+01	0	29	0	549978112	56	6474
2026-01-05 00:51:18.53	341.01	4.47	-38.8	-40.1	27.6	3.03e+01	0	29	0	551550976	56	6581
2026-01-05 00:51:19.54	340.95	4.40	-38.6	-39.9	27.7	3.03e+01	0	29	0	553648128	56	6477
