passes_logs/2026/01/05/R4.6S_Anadyr_2ch/R4.6S_Anadyr_2ch__20260105_004555_SUOMI_NPP_rec.log

#Pass ID: 20260105_004555_SUOMI NPP
#Satellite: SUOMI NPP
#Configuration: NPP
#almurnet v.1.7.20251203
#Start time: 2026-01-05 00:52:33

#Version: 2.2.20231116
#Station: R4.6S_Anadyr_2ch
#Location: 177.4865 lon 64.73178 lat
#TLE: 1 37849U 11061A   25350.92281687  .00000071  00000+0  54882-4 0  9996
#TLE: 2 37849  98.7777 288.2268 0002366 112.8570 247.2856 14.19515404732588

#Time	Az	El	Level	Level2	SNR	BER	BlckErr	Temp	State	Recorded	gain1	gain2
2026-01-05 00:52:33.07	201.13	52.39	-46.6	-64.3	3.5	3.03e+01	0	28	0	0	60	85068
2026-01-05 00:52:34.08	201.56	52.68	-51.2	-66.5	3.6	1.51e+00	0	29	104	0	60	103294
2026-01-05 00:52:35.09	202.00	52.96	-51.3	-66.7	3.6	1.51e+00	0	29	104	0	60	105052
2026-01-05 00:52:36.10	202.45	53.25	-51.3	-66.7	3.6	1.51e+00	0	29	104	0	60	105643
2026-01-05 00:52:37.11	202.91	53.53	-51.4	-66.7	3.6	1.51e+00	0	29	104	0	60	105671
2026-01-05 00:52:38.12	203.37	53.82	-51.4	-66.7	3.6	1.51e+00	0	29	104	0	60	105902
2026-01-05 00:52:39.13	203.85	54.10	-51.3	-66.9	3.6	1.51e+00	0	29	104	0	60	107766
2026-01-05 00:52:40.14	204.33	54.38	-50.9	-66.7	3.6	1.51e+00	0	29	104	0	60	105992
2026-01-05 00:52:41.15	204.82	54.67	-51.4	-66.8	3.6	1.51e+00	0	29	104	0	60	107125
2026-01-05 00:52:42.16	205.33	54.95	-51.5	-66.8	3.6	1.51e+00	0	29	104	0	60	107219
2026-01-05 00:52:43.17	205.84	55.23	-51.4	-66.7	3.6	1.51e+00	0	29	104	0	60	105603
2026-01-05 00:52:44.18	206.36	55.51	-51.2	-66.6	3.6	1.51e+00	0	29	104	0	60	104352
2026-01-05 00:52:45.19	206.90	55.79	-51.4	-66.7	3.6	1.51e+00	0	29	104	0	60	105460
2026-01-05 00:52:46.20	207.44	56.07	-51.3	-66.6	3.6	1.51e+00	0	29	104	0	60	103925
2026-01-05 00:52:47.22	208.00	56.35	-51.2	-66.5	3.6	1.51e+00	0	29	104	0	60	102715
2026-01-05 00:52:48.23	208.57	56.63	-51.2	-66.5	3.6	1.51e+00	0	29	104	0	60	103140
2026-01-05 00:52:49.24	209.15	56.91	-51.2	-66.5	3.6	1.51e+00	0	29	104	0	60	103018
2026-01-05 00:52:50.25	209.74	57.18	-51.3	-66.6	3.6	1.51e+00	0	29	104	0	60	104740
2026-01-05 00:52:51.26	210.34	57.45	-51.3	-66.6	3.6	1.51e+00	0	29	104	0	60	104324
2026-01-05 00:52:52.27	210.95	57.72	-51.2	-66.5	3.6	1.51e+00	0	29	104	0	60	103626
2026-01-05 00:52:53.28	211.58	57.99	-51.4	-66.8	3.6	1.51e+00	0	29	104	0	60	106555
2026-01-05 00:52:54.29	212.22	58.26	-51.3	-66.7	3.6	1.51e+00	0	29	104	0	60	104913
2026-01-05 00:52:55.31	212.87	58.53	-51.5	-66.7	3.6	1.51e+00	0	29	104	0	60	105802
2026-01-05 00:52:56.32	213.54	58.79	-51.4	-66.7	3.6	1.51e+00	0	29	104	0	60	105330
2026-01-05 00:52:57.33	214.22	59.05	-51.3	-66.6	3.6	1.51e+00	0	29	104	0	60	104211
2026-01-05 00:52:58.34	214.91	59.31	-51.4	-66.8	3.6	1.51e+00	0	29	104	0	60	106393
2026-01-05 00:52:59.35	215.61	59.56	-51.7	-67.0	3.6	1.51e+00	0	29	104	0	60	109665
2026-01-05 00:53:00.36	216.33	59.81	-51.6	-66.9	3.6	1.51e+00	0	29	104	0	60	108445
2026-01-05 00:53:01.37	217.06	60.06	-51.3	-66.6	3.6	1.51e+00	0	29	104	0	60	103902
2026-01-05 00:53:02.38	217.81	60.31	-51.2	-66.6	3.6	1.51e+00	0	29	104	0	60	103819
2026-01-05 00:53:03.39	218.57	60.55	-51.4	-66.6	3.6	1.51e+00	0	29	104	0	60	104604
2026-01-05 00:53:04.40	219.34	60.79	-51.4	-66.7	3.6	1.51e+00	0	29	104	0	60	105117
2026-01-05 00:53:05.41	220.13	61.02	-51.2	-66.5	3.6	1.51e+00	0	29	104	0	60	102795
2026-01-05 00:53:06.42	220.93	61.25	-51.3	-66.6	3.6	1.51e+00	0	29	104	0	60	104075
2026-01-05 00:53:07.43	221.75	61.48	-51.3	-66.6	3.6	1.51e+00	0	29	104	0	60	104365
2026-01-05 00:53:08.44	222.59	61.70	-51.5	-66.9	3.6	1.51e+00	0	29	104	0	60	107515
2026-01-05 00:53:09.45	223.43	61.92	-51.6	-66.9	3.6	1.51e+00	0	29	104	0	60	107413
2026-01-05 00:53:10.47	224.31	62.13	-51.3	-66.6	3.6	1.51e+00	0	29	104	0	60	104224
2026-01-05 00:53:11.48	225.19	62.34	-51.7	-67.0	3.6	1.51e+00	0	29	104	0	60	109347
2026-01-05 00:53:12.49	226.08	62.55	-51.3	-66.6	3.6	1.51e+00	0	29	104	0	60	103956
2026-01-05 00:53:13.50	226.99	62.74	-51.4	-66.7	3.6	1.51e+00	0	29	104	0	60	105539
2026-01-05 00:53:14.51	227.91	62.94	-51.3	-66.6	3.6	1.51e+00	0	29	104	0	60	104737
2026-01-05 00:53:15.52	228.85	63.12	-51.6	-66.8	3.6	1.51e+00	0	29	104	0	60	107272
2026-01-05 00:53:16.53	229.80	63.30	-51.5	-66.8	3.6	1.51e+00	0	29	104	0	60	106766
2026-01-05 00:53:17.54	230.76	63.48	-51.4	-66.7	3.6	1.51e+00	0	29	104	0	60	105073
2026-01-05 00:53:18.55	231.74	63.64	-51.6	-66.9	3.6	1.51e+00	0	29	104	0	60	108032
2026-01-05 00:53:19.57	232.75	63.81	-51.4	-66.7	3.6	1.51e+00	0	29	104	0	60	105616
2026-01-05 00:53:20.58	233.76	63.96	-51.5	-66.8	3.6	1.51e+00	0	29	104	0	60	106759
2026-01-05 00:53:21.59	234.78	64.11	-51.4	-66.8	3.6	1.51e+00	0	29	104	0	60	106082
2026-01-05 00:53:22.60	235.81	64.25	-51.6	-66.9	3.6	1.51e+00	0	29	104	0	60	108299
2026-01-05 00:53:23.61	236.86	64.38	-51.3	-66.8	3.6	1.51e+00	0	29	104	0	60	106561
2026-01-05 00:53:24.62	237.91	64.51	-51.3	-66.7	3.6	1.51e+00	0	29	104	0	60	105681
2026-01-05 00:53:25.63	238.98	64.63	-51.6	-66.9	3.6	1.51e+00	0	29	104	0	60	108026
2026-01-05 00:53:26.64	240.06	64.74	-51.3	-66.7	3.6	1.51e+00	0	29	104	0	60	105608
2026-01-05 00:53:27.65	241.15	64.84	-51.2	-66.9	3.6	1.51e+00	0	29	104	0	60	107408
2026-01-05 00:53:28.66	242.25	64.94	-51.2	-66.7	3.6	1.51e+00	0	29	104	0	60	105885
2026-01-05 00:53:29.67	243.36	65.02	-51.0	-66.6	3.6	1.51e+00	0	29	104	0	60	104076
2026-01-05 00:53:30.68	244.48	65.10	-51.0	-66.6	3.6	1.51e+00	0	29	104	0	60	104036
2026-01-05 00:53:31.69	245.60	65.17	-51.1	-66.6	3.6	1.51e+00	0	29	104	0	60	104458
2026-01-05 00:53:32.70	246.73	65.23	-51.0	-66.6	3.6	1.51e+00	0	29	104	0	60	104201
2026-01-05 00:53:33.72	247.88	65.28	-51.2	-66.8	3.6	1.51e+00	0	29	104	0	60	106429
2026-01-05 00:53:34.73	249.02	65.33	-51.0	-66.6	3.6	1.51e+00	0	29	104	0	60	104775
2026-01-05 00:53:35.74	250.16	65.36	-51.2	-66.8	3.6	1.51e+00	0	29	104	0	60	106541
2026-01-05 00:53:36.75	251.31	65.39	-51.4	-67.0	3.6	1.51e+00	0	29	104	0	60	109165
2026-01-05 00:53:37.76	252.46	65.41	-51.3	-66.9	3.6	1.51e+00	0	29	104	0	60	107359
2026-01-05 00:53:38.77	253.61	65.42	-51.3	-66.9	3.6	1.51e+00	0	29	104	0	60	108382
2026-01-05 00:53:39.78	254.76	65.42	-51.4	-67.0	3.6	1.51e+00	0	29	104	0	60	108558
2026-01-05 00:53:40.79	255.92	65.41	-51.2	-66.8	3.5	1.51e+00	0	29	104	0	60	106250
2026-01-05 00:53:41.80	257.07	65.39	-51.4	-67.0	3.6	1.51e+00	0	29	104	0	60	109402
2026-01-05 00:53:42.81	258.21	65.36	-51.8	-67.4	3.6	1.51e+00	0	29	104	0	60	114587
2026-01-05 00:53:43.82	259.36	65.33	-51.2	-66.9	3.6	1.51e+00	0	29	104	0	60	107403
2026-01-05 00:53:44.83	260.50	65.28	-51.1	-66.6	3.6	1.51e+00	0	29	104	0	60	104825
2026-01-05 00:53:45.84	261.63	65.23	-51.8	-67.3	3.6	1.51e+00	0	29	104	0	60	113069
2026-01-05 00:53:46.85	262.76	65.17	-51.5	-67.1	3.6	1.51e+00	0	29	104	0	60	110353
2026-01-05 00:53:47.87	263.90	65.10	-51.7	-67.2	3.6	1.51e+00	0	29	104	0	60	112301
2026-01-05 00:53:48.88	265.01	65.02	-51.5	-67.1	3.6	1.51e+00	0	29	104	0	60	110977
2026-01-05 00:53:49.89	266.12	64.93	-51.5	-67.0	3.6	1.51e+00	0	29	104	0	60	109607
2026-01-05 00:53:50.90	267.22	64.83	-51.5	-67.0	3.6	1.51e+00	0	29	104	0	60	109643
2026-01-05 00:53:51.91	268.30	64.73	-51.6	-67.1	3.6	1.51e+00	0	29	104	0	60	110470
2026-01-05 00:53:52.92	269.38	64.62	-51.6	-67.1	3.6	1.51e+00	0	29	104	0	60	110126
2026-01-05 00:53:53.93	270.45	64.50	-51.5	-66.9	3.6	1.51e+00	0	29	104	0	60	108301
2026-01-05 00:53:54.94	271.51	64.38	-51.3	-66.7	3.6	1.51e+00	0	29	104	0	60	105944
2026-01-05 00:53:55.95	272.55	64.24	-51.5	-66.9	3.6	1.51e+00	0	29	104	0	60	107429
2026-01-05 00:53:56.96	273.58	64.10	-51.2	-66.6	3.6	1.51e+00	0	29	104	0	60	104148
2026-01-05 00:53:57.97	274.60	63.95	-51.3	-66.7	3.6	1.51e+00	0	29	104	0	60	105516
2026-01-05 00:53:58.98	275.61	63.80	-51.1	-66.6	3.6	1.51e+00	0	29	104	0	60	104088
2026-01-05 00:53:59.99	276.60	63.64	-51.5	-66.9	3.6	1.51e+00	0	29	104	0	60	108199
2026-01-05 00:54:01.00	277.58	63.47	-51.4	-66.9	3.6	1.51e+00	0	29	104	0	60	107756
2026-01-05 00:54:02.02	278.55	63.29	-51.4	-66.9	3.6	1.51e+00	0	29	104	0	60	107723
2026-01-05 00:54:03.03	279.50	63.11	-51.2	-66.6	3.6	1.51e+00	0	29	104	0	60	104547
2026-01-05 00:54:04.04	280.44	62.93	-51.4	-66.9	3.6	1.51e+00	0	29	104	0	60	107363
2026-01-05 00:54:05.05	281.36	62.73	-51.4	-66.9	3.6	1.51e+00	0	29	104	0	60	107591
2026-01-05 00:54:06.06	282.26	62.54	-51.4	-66.8	3.6	1.51e+00	0	29	104	0	60	107273
2026-01-05 00:54:07.07	283.16	62.33	-51.5	-66.7	3.6	1.51e+00	0	29	104	0	60	105192
2026-01-05 00:54:08.08	284.03	62.13	-51.4	-66.9	3.6	1.51e+00	0	29	104	0	60	107865
2026-01-05 00:54:09.09	284.89	61.91	-51.3	-66.7	3.6	1.51e+00	0	29	104	0	60	105508
2026-01-05 00:54:10.11	285.75	61.69	-51.2	-66.3	3.6	1.51e+00	0	29	104	0	60	100733
2026-01-05 00:54:11.12	286.58	61.47	-51.4	-66.7	3.6	1.51e+00	0	29	104	0	60	105118
2026-01-05 00:54:12.13	287.40	61.24	-51.2	-65.7	3.6	1.51e+00	0	29	104	0	60	94115
2026-01-05 00:54:13.14	288.20	61.01	-51.3	-66.6	3.6	1.51e+00	0	29	104	0	60	104460
2026-01-05 00:54:14.15	288.99	60.78	-51.5	-66.7	3.6	1.51e+00	0	29	104	0	60	105846
2026-01-05 00:54:15.16	289.76	60.54	-51.3	-66.1	3.6	1.51e+00	0	29	104	0	60	98527
2026-01-05 00:54:16.17	290.52	60.30	-51.0	-64.0	3.7	1.50e+00	0	29	104	0	60	77151
2026-01-05 00:54:17.18	291.26	60.06	-51.2	-65.7	3.6	1.51e+00	0	29	104	0	60	93871
2026-01-05 00:54:18.19	291.99	59.81	-50.9	-62.4	3.9	1.51e+00	0	29	104	0	60	64503
2026-01-05 00:54:19.20	292.71	59.56	-47.1	-49.5	16.8	1.43e+00	0	29	0	0	60	14622
2026-01-05 00:54:20.21	293.41	59.30	-39.2	-40.0	23.2	0.00e+00	0	29	0	2097152	54	6922
2026-01-05 00:54:21.22	294.10	59.04	-51.5	-66.4	3.6	1.50e+00	0	29	104	2097152	60	102281
2026-01-05 00:54:22.23	294.77	58.79	-47.8	-50.7	17.6	1.13e+00	0	29	104	2097152	60	16772
2026-01-05 00:54:23.24	295.44	58.52	-46.9	-49.2	16.1	0.00e+00	0	29	0	3145728	60	14105
2026-01-05 00:54:24.25	296.09	58.26	-50.0	-56.4	5.9	9.64e-01	90	29	104	4194304	60	32224
2026-01-05 00:54:25.26	296.72	57.99	-45.2	-47.0	19.0	0.00e+00	0	29	0	4194304	60	10885
2026-01-05 00:54:26.27	297.35	57.72	-41.6	-42.7	22.6	0.00e+00	0	29	0	6291456	60	6641
2026-01-05 00:54:27.29	297.96	57.45	-41.3	-42.4	22.6	0.00e+00	0	29	0	7340032	60	6427
2026-01-05 00:54:28.30	298.56	57.18	-41.2	-42.3	22.9	0.00e+00	0	29	0	9437184	60	6330
2026-01-05 00:54:29.31	299.15	56.91	-42.0	-43.1	22.3	0.00e+00	0	29	0	11534336	60	6976
2026-01-05 00:54:30.32	299.73	56.63	-40.6	-41.6	22.2	0.00e+00	0	29	0	13631488	60	5835
2026-01-05 00:54:31.33	300.29	56.36	-40.6	-41.6	23.2	0.00e+00	0	29	0	15728640	60	5842
2026-01-05 00:54:32.34	300.85	56.08	-40.2	-41.0	23.8	0.00e+00	0	29	0	16777216	58	6156
2026-01-05 00:54:33.35	301.39	55.80	-39.9	-40.8	23.9	0.00e+00	0	29	0	18874368	58	5966
2026-01-05 00:54:34.36	301.93	55.52	-39.7	-40.5	24.4	0.00e+00	0	29	0	20971520	58	5828
2026-01-05 00:54:35.37	302.45	55.24	-38.8	-39.5	24.8	0.00e+00	0	29	0	23068672	56	5828
2026-01-05 00:54:36.39	302.96	54.96	-38.6	-39.4	25.0	0.00e+00	0	29	0	25165824	56	5732
2026-01-05 00:54:37.40	303.47	54.67	-39.5	-40.3	24.5	0.00e+00	0	29	0	26214400	56	6383
2026-01-05 00:54:38.41	303.96	54.39	-40.2	-41.1	23.7	0.00e+00	0	29	0	28311552	58	6214
2026-01-05 00:54:39.42	304.44	54.11	-41.3	-42.3	23.4	0.00e+00	0	29	0	30408704	60	6369
2026-01-05 00:54:40.43	304.91	53.83	-39.7	-40.5	24.2	0.00e+00	0	29	0	32505856	58	5813
2026-01-05 00:54:41.44	305.38	53.54	-38.0	-38.8	25.3	0.00e+00	0	29	0	34603008	54	5970
2026-01-05 00:54:42.45	305.83	53.26	-38.3	-39.1	25.0	0.00e+00	0	29	0	35651584	54	6216
2026-01-05 00:54:43.46	306.28	52.98	-39.5	-40.3	24.3	0.00e+00	0	29	0	37748736	56	6353
2026-01-05 00:54:44.47	306.72	52.69	-39.5	-40.3	24.6	0.00e+00	0	29	0	39845888	56	6330
2026-01-05 00:54:45.48	307.15	52.41	-39.1	-39.9	24.7	0.00e+00	0	29	0	41943040	56	6063
2026-01-05 00:54:46.50	307.57	52.12	-39.5	-40.3	24.4	7.00e-07	0	29	0	44040192	56	6387
2026-01-05 00:54:47.51	307.99	51.84	-39.6	-40.4	24.5	0.00e+00	0	29	0	46137344	58	5715
2026-01-05 00:54:48.52	308.39	51.55	-38.8	-39.6	24.8	0.00e+00	0	29	0	47185920	56	5860
2026-01-05 00:54:49.53	308.79	51.27	-38.5	-39.3	24.9	0.00e+00	0	29	0	49283072	56	5669
2026-01-05 00:54:50.54	309.18	50.99	-39.7	-40.5	24.4	0.00e+00	0	29	0	51380224	56	6484
2026-01-05 00:54:51.55	309.57	50.70	-40.3	-41.2	23.9	0.00e+00	0	29	0	53477376	56	7030
2026-01-05 00:54:52.56	309.94	50.42	-39.8	-40.7	24.1	0.00e+00	0	29	0	55574528	58	5921
2026-01-05 00:54:53.57	310.31	50.14	-39.9	-40.8	23.9	0.00e+00	0	29	0	56623104	58	5991
2026-01-05 00:54:54.59	310.68	49.86	-39.8	-40.7	24.0	0.00e+00	0	29	0	58720256	58	5920
2026-01-05 00:54:55.60	311.04	49.58	-41.4	-42.5	22.7	0.00e+00	0	29	0	60817408	60	6492
2026-01-05 00:54:56.61	311.39	49.30	-41.8	-42.9	22.5	0.00e+00	0	29	0	62914560	60	6821
2026-01-05 00:54:57.62	311.73	49.02	-41.5	-42.6	22.8	0.00e+00	0	29	0	65011712	60	6552
2026-01-05 00:54:58.63	312.07	48.74	-40.6	-41.6	23.4	0.00e+00	0	29	0	66060288	60	5840
2026-01-05 00:54:59.64	312.40	48.46	-40.2	-41.1	23.7	0.00e+00	0	29	0	68157440	58	6239
2026-01-05 00:55:00.65	312.73	48.18	-40.1	-41.0	23.9	0.00e+00	0	29	0	70254592	60	5488
2026-01-05 00:55:01.66	313.05	47.91	-40.2	-41.1	23.7	0.00e+00	0	29	0	72351744	58	6180
2026-01-05 00:55:02.67	313.36	47.63	-41.1	-42.1	22.9	0.00e+00	0	29	0	74448896	58	6962
2026-01-05 00:55:03.68	313.67	47.36	-41.9	-42.9	22.3	0.00e+00	0	29	0	75497472	60	6824
2026-01-05 00:55:04.70	313.98	47.08	-42.9	-44.2	21.0	0.00e+00	0	29	0	77594624	60	7891
2026-01-05 00:55:05.71	314.28	46.81	-43.3	-44.6	20.7	0.00e+00	0	29	0	79691776	60	8261
2026-01-05 00:55:06.72	314.57	46.54	-43.5	-44.8	20.6	0.00e+00	0	29	0	81788928	60	8518
2026-01-05 00:55:07.73	314.86	46.27	-42.3	-43.4	21.9	0.00e+00	0	29	0	83886080	60	7200
2026-01-05 00:55:08.74	315.14	46.00	-41.6	-42.6	22.5	0.00e+00	0	29	0	85983232	60	6609
2026-01-05 00:55:09.75	315.42	45.73	-40.6	-41.6	23.3	0.00e+00	0	29	0	87031808	60	5843
2026-01-05 00:55:10.76	315.70	45.46	-40.9	-41.9	22.9	0.00e+00	0	29	0	89128960	60	6069
2026-01-05 00:55:11.77	315.97	45.19	-41.1	-42.1	23.0	0.00e+00	0	29	0	91226112	60	6194
2026-01-05 00:55:12.78	316.23	44.93	-41.4	-42.3	22.5	0.00e+00	0	29	0	93323264	60	6389
2026-01-05 00:55:13.79	316.49	44.66	-42.2	-43.3	21.9	0.00e+00	0	29	0	95420416	60	7091
2026-01-05 00:55:14.81	316.75	44.40	-42.7	-43.9	21.4	0.00e+00	0	29	0	96468992	60	7616
2026-01-05 00:55:15.82	317.00	44.14	-43.0	-44.3	21.0	0.00e+00	0	29	0	98566144	60	7955
2026-01-05 00:55:16.83	317.25	43.88	-42.7	-43.9	21.4	0.00e+00	0	29	0	100663296	60	7641
2026-01-05 00:55:17.84	317.50	43.62	-41.7	-42.7	22.5	0.00e+00	0	29	0	102760448	60	6684
2026-01-05 00:55:18.85	317.74	43.36	-40.8	-41.7	23.1	0.00e+00	0	29	0	104857600	60	5963
2026-01-05 00:55:19.86	317.98	43.10	-41.1	-42.0	22.9	0.00e+00	0	29	0	105906176	60	6122
2026-01-05 00:55:20.87	318.21	42.85	-41.8	-42.9	22.3	0.00e+00	0	29	0	108003328	60	6778
2026-01-05 00:55:21.88	318.44	42.59	-42.5	-43.6	21.7	0.00e+00	0	29	0	110100480	60	7396
2026-01-05 00:55:22.90	318.67	42.34	-41.6	-42.6	22.4	0.00e+00	0	29	0	112197632	60	6610
2026-01-05 00:55:23.91	318.89	42.08	-40.7	-41.7	23.2	0.00e+00	0	29	0	114294784	60	5904
2026-01-05 00:55:24.92	319.11	41.83	-39.9	-40.8	23.5	0.00e+00	0	29	0	115343360	58	5979
2026-01-05 00:55:25.93	319.33	41.58	-38.5	-39.3	25.0	0.00e+00	0	29	0	117440512	56	5659
2026-01-05 00:55:26.94	319.54	41.34	-37.8	-38.5	25.4	0.00e+00	0	29	0	119537664	54	5795
2026-01-05 00:55:27.95	319.75	41.09	-38.4	-39.1	25.0	0.00e+00	0	29	0	121634816	54	6221
2026-01-05 00:55:28.96	319.95	40.84	-39.6	-40.5	23.8	0.00e+00	0	29	0	123731968	56	6472
2026-01-05 00:55:29.97	320.16	40.60	-41.5	-42.5	22.4	0.00e+00	0	29	0	124780544	60	6521
2026-01-05 00:55:30.98	320.36	40.35	-42.9	-44.1	21.1	0.00e+00	0	29	0	126877696	60	7842
2026-01-05 00:55:32.00	320.56	40.11	-43.0	-44.3	21.1	0.00e+00	0	29	0	128974848	60	7969
2026-01-05 00:55:33.01	320.75	39.87	-42.5	-43.7	21.6	0.00e+00	0	29	0	131072000	60	7429
2026-01-05 00:55:34.02	320.95	39.63	-41.2	-42.2	22.9	0.00e+00	0	29	0	133169152	60	6290
2026-01-05 00:55:35.03	321.13	39.39	-40.0	-40.9	23.8	0.00e+00	0	29	0	135266304	58	6083
2026-01-05 00:55:36.04	321.32	39.16	-38.9	-39.7	24.7	0.00e+00	0	29	0	136314880	56	5924
2026-01-05 00:55:37.05	321.50	38.92	-37.7	-38.5	25.3	0.00e+00	0	29	0	138412032	54	5777
2026-01-05 00:55:38.06	321.69	38.69	-38.0	-38.8	25.2	0.00e+00	0	29	0	140509184	54	5988
2026-01-05 00:55:39.07	321.87	38.45	-39.2	-40.1	24.2	0.00e+00	0	29	0	142606336	54	6929
2026-01-05 00:55:40.08	322.04	38.22	-40.9	-41.9	22.9	0.00e+00	0	29	0	144703488	58	6780
2026-01-05 00:55:41.09	322.22	37.99	-43.1	-44.5	20.8	0.00e+00	0	29	0	145752064	60	8185
2026-01-05 00:55:42.11	322.39	37.76	-43.3	-44.7	20.7	0.00e+00	0	29	0	147849216	60	8329
2026-01-05 00:55:43.12	322.56	37.53	-42.5	-43.8	21.5	0.00e+00	0	29	0	149946368	60	7524
2026-01-05 00:55:44.13	322.72	37.31	-40.9	-41.9	23.1	0.00e+00	0	29	0	152043520	60	6101
2026-01-05 00:55:45.14	322.89	37.08	-40.2	-41.1	23.7	0.00e+00	0	29	0	154140672	58	6191
2026-01-05 00:55:46.15	323.05	36.86	-39.4	-40.2	24.2	0.00e+00	0	29	0	155189248	58	5619
2026-01-05 00:55:47.16	323.21	36.64	-39.2	-40.0	24.3	0.00e+00	0	29	0	157286400	56	6112
2026-01-05 00:55:48.17	323.37	36.42	-39.8	-40.6	23.9	0.00e+00	0	29	0	159383552	56	6612
2026-01-05 00:55:49.18	323.53	36.20	-40.7	-41.7	23.0	0.00e+00	0	29	0	161480704	58	6628
2026-01-05 00:55:50.19	323.68	35.98	-41.8	-42.8	22.2	0.00e+00	0	29	0	163577856	60	6751
2026-01-05 00:55:51.20	323.83	35.76	-42.0	-43.1	22.0	0.00e+00	0	29	0	164626432	60	6968
2026-01-05 00:55:52.22	323.99	35.54	-42.0	-43.1	21.9	0.00e+00	0	29	0	166723584	60	6972
2026-01-05 00:55:53.23	324.13	35.33	-42.1	-43.2	22.0	0.00e+00	0	29	0	168820736	60	7037
2026-01-05 00:55:54.24	324.28	35.11	-41.4	-42.5	22.6	0.00e+00	0	29	0	170917888	60	6469
2026-01-05 00:55:55.25	324.42	34.90	-41.0	-42.0	22.9	0.00e+00	0	29	0	173015040	60	6107
2026-01-05 00:55:56.26	324.57	34.69	-40.6	-41.5	23.5	0.00e+00	0	29	0	174063616	60	5770
2026-01-05 00:55:57.27	324.71	34.48	-39.9	-40.7	24.0	0.00e+00	0	29	0	176160768	58	5941
2026-01-05 00:55:58.28	324.85	34.27	-39.8	-40.7	23.9	0.00e+00	0	29	0	178257920	58	5908
2026-01-05 00:55:59.30	324.99	34.06	-39.9	-40.8	23.8	0.00e+00	0	29	0	180355072	58	5986
2026-01-05 00:56:00.30	325.12	33.86	-40.3	-41.1	23.6	0.00e+00	0	29	0	182452224	58	6245
2026-01-05 00:56:01.32	325.26	33.65	-40.4	-41.3	23.4	0.00e+00	0	29	0	183500800	58	6336
2026-01-05 00:56:02.33	325.39	33.45	-41.2	-42.1	23.1	0.00e+00	0	29	0	185597952	60	6214
2026-01-05 00:56:03.34	325.52	33.25	-41.2	-42.1	23.0	0.00e+00	0	29	0	187695104	60	6222
2026-01-05 00:56:04.35	325.65	33.04	-41.0	-41.9	23.1	0.00e+00	0	29	0	189792256	60	6063
2026-01-05 00:56:05.36	325.78	32.84	-41.0	-42.0	23.2	0.00e+00	0	29	0	191889408	60	6118
2026-01-05 00:56:06.37	325.90	32.65	-40.8	-41.7	23.3	0.00e+00	0	29	0	193986560	60	5912
2026-01-05 00:56:07.39	326.03	32.45	-40.7	-41.5	23.5	0.00e+00	0	29	0	195035136	60	5822
2026-01-05 00:56:08.40	326.15	32.25	-41.0	-41.9	23.3	0.00e+00	0	29	0	197132288	60	6086
2026-01-05 00:56:09.41	326.28	32.05	-41.1	-42.0	23.2	0.00e+00	0	29	0	199229440	60	6155
2026-01-05 00:56:10.42	326.40	31.86	-40.9	-41.8	23.0	0.00e+00	0	29	0	201326592	60	6032
2026-01-05 00:56:11.43	326.51	31.67	-41.6	-42.6	22.5	0.00e+00	0	29	0	203423744	60	6559
2026-01-05 00:56:12.44	326.63	31.47	-42.0	-43.0	22.1	0.00e+00	0	29	0	204472320	60	6914
2026-01-05 00:56:13.45	326.75	31.28	-42.1	-43.2	21.9	0.00e+00	0	29	0	206569472	60	7065
2026-01-05 00:56:14.46	326.86	31.09	-42.8	-44.0	21.5	0.00e+00	0	29	0	208666624	60	7753
2026-01-05 00:56:15.47	326.98	30.90	-42.7	-43.9	21.5	0.00e+00	0	29	0	210763776	60	7673
2026-01-05 00:56:16.49	327.09	30.72	-42.4	-43.5	22.1	0.00e+00	0	29	0	212860928	60	7279
2026-01-05 00:56:17.50	327.20	30.53	-42.8	-44.0	21.7	0.00e+00	0	29	0	213909504	60	7715
2026-01-05 00:56:18.51	327.31	30.34	-42.1	-43.2	22.3	0.00e+00	0	29	0	216006656	60	7026
2026-01-05 00:56:19.52	327.42	30.16	-41.7	-42.7	22.5	0.00e+00	0	29	0	218103808	60	6681
2026-01-05 00:56:20.53	327.53	29.98	-41.7	-42.7	22.6	0.00e+00	0	29	0	220200960	60	6625
2026-01-05 00:56:21.54	327.64	29.79	-41.4	-42.4	22.8	0.00e+00	0	29	0	222298112	60	6399
2026-01-05 00:56:22.55	327.74	29.61	-41.1	-42.0	22.9	0.00e+00	0	29	0	223346688	60	6172
2026-01-05 00:56:23.56	327.85	29.43	-41.3	-42.3	22.9	0.00e+00	0	29	0	225443840	60	6343
2026-01-05 00:56:24.58	327.95	29.25	-41.9	-42.9	22.6	0.00e+00	0	29	0	227540992	60	6784
2026-01-05 00:56:25.59	328.05	29.07	-41.7	-42.7	22.3	0.00e+00	0	29	0	229638144	60	6679
2026-01-05 00:56:26.60	328.15	28.90	-41.9	-42.9	22.2	0.00e+00	0	29	0	231735296	60	6845
2026-01-05 00:56:27.61	328.25	28.72	-41.5	-42.5	22.4	0.00e+00	0	29	0	233832448	60	6479
2026-01-05 00:56:28.62	328.35	28.55	-42.0	-43.1	22.2	0.00e+00	0	29	0	234881024	60	6944
2026-01-05 00:56:29.63	328.45	28.37	-42.2	-43.3	21.9	0.00e+00	0	29	0	236978176	60	7096
2026-01-05 00:56:30.64	328.55	28.20	-42.1	-43.2	21.9	0.00e+00	0	29	0	239075328	60	7039
2026-01-05 00:56:31.65	328.64	28.03	-42.0	-43.1	21.9	0.00e+00	0	29	0	241172480	60	6952
2026-01-05 00:56:32.66	328.74	27.86	-41.5	-42.6	22.3	0.00e+00	0	29	0	243269632	60	6568
2026-01-05 00:56:33.67	328.83	27.69	-41.1	-42.2	22.7	0.00e+00	0	29	0	244318208	60	6250
2026-01-05 00:56:34.69	328.93	27.52	-41.1	-42.1	22.7	0.00e+00	0	29	0	246415360	60	6231
2026-01-05 00:56:35.70	329.02	27.35	-40.6	-41.6	23.0	0.00e+00	0	29	0	248512512	60	5876
2026-01-05 00:56:36.71	329.11	27.18	-40.1	-41.1	23.4	0.00e+00	0	29	0	250609664	60	5509
2026-01-05 00:56:37.72	329.20	27.02	-40.3	-41.3	23.3	0.00e+00	0	29	0	252706816	58	6321
2026-01-05 00:56:38.73	329.29	26.85	-39.9	-40.8	23.7	0.00e+00	0	29	0	253755392	58	6015
2026-01-05 00:56:39.74	329.38	26.69	-40.2	-41.1	23.4	0.00e+00	0	29	0	255852544	58	6201
2026-01-05 00:56:40.75	329.47	26.52	-40.3	-41.3	23.3	0.00e+00	0	29	0	257949696	58	6334
2026-01-05 00:56:41.76	329.55	26.36	-40.3	-41.2	23.3	0.00e+00	0	29	0	260046848	58	6286
2026-01-05 00:56:42.77	329.64	26.20	-40.5	-41.5	23.2	0.00e+00	0	29	0	262144000	58	6483
2026-01-05 00:56:43.78	329.73	26.04	-40.7	-41.6	23.2	0.00e+00	0	29	0	263192576	58	6603
2026-01-05 00:56:44.80	329.81	25.88	-40.4	-41.4	23.4	0.00e+00	0	29	0	265289728	58	6402
2026-01-05 00:56:45.81	329.89	25.72	-40.4	-41.4	23.2	0.00e+00	0	29	0	267386880	58	6393
2026-01-05 00:56:46.82	329.98	25.56	-40.5	-41.4	23.2	0.00e+00	0	29	0	269484032	58	6436
2026-01-05 00:56:47.83	330.06	25.41	-40.4	-41.3	23.3	0.00e+00	0	29	0	271581184	58	6375
2026-01-05 00:56:48.84	330.14	25.25	-40.5	-41.5	23.0	0.00e+00	0	29	0	273678336	58	6489
2026-01-05 00:56:49.85	330.22	25.09	-40.5	-41.5	23.1	0.00e+00	0	29	0	274726912	58	6518
2026-01-05 00:56:50.86	330.30	24.94	-40.5	-41.5	23.2	0.00e+00	0	29	0	276824064	58	6510
2026-01-05 00:56:51.87	330.38	24.79	-40.6	-41.6	23.0	0.00e+00	0	29	0	278921216	58	6585
2026-01-05 00:56:52.89	330.46	24.63	-40.3	-41.3	23.3	0.00e+00	0	29	0	281018368	58	6318
2026-01-05 00:56:53.90	330.54	24.48	-40.6	-41.6	23.0	0.00e+00	0	29	0	283115520	58	6604
2026-01-05 00:56:54.91	330.61	24.33	-40.6	-41.7	22.8	0.00e+00	0	29	0	284164096	58	6641
2026-01-05 00:56:55.92	330.69	24.18	-40.5	-41.5	23.0	0.00e+00	0	29	0	286261248	58	6507
2026-01-05 00:56:56.93	330.76	24.03	-40.8	-41.8	22.7	0.00e+00	0	29	0	288358400	58	6755
2026-01-05 00:56:57.94	330.84	23.88	-40.3	-41.3	23.2	0.00e+00	0	29	0	290455552	58	6370
2026-01-05 00:56:58.95	330.91	23.73	-39.9	-40.8	23.5	0.00e+00	0	29	0	292552704	58	6021
2026-01-05 00:56:59.96	330.99	23.59	-39.3	-40.2	24.0	0.00e+00	0	29	0	293601280	58	5583
2026-01-05 00:57:00.97	331.06	23.44	-38.9	-39.7	24.4	0.00e+00	0	29	0	295698432	56	5953
2026-01-05 00:57:01.98	331.13	23.30	-38.6	-39.4	24.6	0.00e+00	0	29	0	297795584	56	5758
2026-01-05 00:57:03.00	331.21	23.15	-38.0	-38.7	25.0	0.00e+00	0	29	0	299892736	54	5954
2026-01-05 00:57:04.01	331.28	23.01	-37.6	-38.4	25.3	0.00e+00	0	29	0	301989888	54	5702
2026-01-05 00:57:05.02	331.35	22.86	-37.2	-37.9	25.5	0.00e+00	0	29	0	303038464	54	5434
2026-01-05 00:57:06.03	331.42	22.72	-37.1	-37.8	25.5	0.00e+00	0	29	0	305135616	52	6017
2026-01-05 00:57:07.04	331.49	22.58	-37.0	-37.7	25.7	0.00e+00	0	29	0	307232768	52	5919
2026-01-05 00:57:08.05	331.55	22.44	-37.1	-37.9	25.6	0.00e+00	0	29	0	309329920	52	6040
2026-01-05 00:57:09.06	331.62	22.30	-37.3	-38.0	25.4	0.00e+00	0	29	0	311427072	52	6151
2026-01-05 00:57:10.07	331.69	22.16	-37.6	-38.3	25.4	0.00e+00	0	29	0	312475648	52	6352
2026-01-05 00:57:11.09	331.76	22.02	-37.8	-38.5	25.2	0.00e+00	0	29	0	314572800	52	6513
2026-01-05 00:57:12.10	331.82	21.88	-38.1	-38.9	24.9	0.00e+00	0	29	0	316669952	54	6074
2026-01-05 00:57:13.11	331.89	21.75	-38.4	-39.2	24.6	0.00e+00	0	29	0	318767104	54	6260
2026-01-05 00:57:14.12	331.95	21.61	-38.4	-39.2	24.7	0.00e+00	0	29	0	320864256	54	6302
2026-01-05 00:57:15.13	332.02	21.47	-38.9	-39.7	24.3	0.00e+00	0	29	0	322961408	54	6635
2026-01-05 00:57:16.14	332.08	21.34	-38.8	-39.6	24.4	0.00e+00	0	29	0	324009984	54	6574
2026-01-05 00:57:17.15	332.15	21.20	-38.9	-39.7	24.3	0.00e+00	0	29	0	326107136	54	6652
2026-01-05 00:57:18.16	332.21	21.07	-39.0	-39.8	24.2	0.00e+00	0	29	0	328204288	54	6727
2026-01-05 00:57:19.17	332.27	20.94	-39.1	-39.9	24.1	0.00e+00	0	29	0	330301440	54	6815
2026-01-05 00:57:20.19	332.34	20.80	-38.7	-39.5	24.4	0.00e+00	0	29	0	332398592	56	5820
2026-01-05 00:57:21.20	332.40	20.67	-38.9	-39.8	24.4	0.00e+00	0	29	0	333447168	56	5983
2026-01-05 00:57:22.21	332.46	20.54	-38.9	-39.7	24.5	0.00e+00	0	29	0	335544320	56	5918
2026-01-05 00:57:23.22	332.52	20.41	-38.8	-39.6	24.4	0.00e+00	0	29	0	337641472	56	5874
2026-01-05 00:57:24.23	332.58	20.28	-38.8	-39.6	24.5	0.00e+00	0	29	0	339738624	56	5855
2026-01-05 00:57:25.24	332.64	20.15	-39.1	-39.9	24.4	0.00e+00	0	29	0	341835776	56	6094
2026-01-05 00:57:26.25	332.70	20.02	-39.0	-39.8	24.5	0.00e+00	0	29	0	342884352	56	5997
2026-01-05 00:57:27.26	332.76	19.90	-38.7	-39.5	24.5	0.00e+00	0	29	0	344981504	56	5791
2026-01-05 00:57:28.27	332.82	19.77	-38.6	-39.4	24.6	0.00e+00	0	29	0	347078656	56	5709
2026-01-05 00:57:29.28	332.87	19.64	-38.7	-39.5	24.5	0.00e+00	0	29	0	349175808	56	5817
2026-01-05 00:57:30.30	332.93	19.51	-38.6	-39.5	24.4	0.00e+00	0	29	0	351272960	56	5778
2026-01-05 00:57:31.31	332.99	19.39	-38.8	-39.7	24.4	0.00e+00	0	29	0	352321536	56	5904
2026-01-05 00:57:32.32	333.05	19.26	-38.9	-39.7	24.3	0.00e+00	0	29	0	354418688	56	5951
2026-01-05 00:57:33.33	333.10	19.14	-39.1	-39.9	24.2	0.00e+00	0	29	0	356515840	56	6096
2026-01-05 00:57:34.34	333.16	19.02	-39.0	-39.8	24.2	0.00e+00	0	29	0	358612992	56	6002
2026-01-05 00:57:35.35	333.21	18.89	-39.2	-40.1	24.2	0.00e+00	0	29	0	360710144	56	6205
2026-01-05 00:57:36.36	333.27	18.77	-39.3	-40.1	24.1	0.00e+00	0	29	0	361758720	56	6235
2026-01-05 00:57:37.37	333.32	18.65	-39.3	-40.1	23.9	0.00e+00	0	29	0	363855872	56	6241
2026-01-05 00:57:38.39	333.38	18.53	-39.4	-40.2	24.0	0.00e+00	0	29	0	365953024	56	6313
2026-01-05 00:57:39.40	333.43	18.41	-39.5	-40.4	23.8	0.00e+00	0	29	0	368050176	56	6448
2026-01-05 00:57:40.41	333.49	18.29	-39.7	-40.5	23.7	0.00e+00	0	29	0	370147328	56	6535
2026-01-05 00:57:41.42	333.54	18.17	-39.8	-40.7	23.6	0.00e+00	0	29	0	371195904	56	6647
2026-01-05 00:57:42.43	333.59	18.05	-40.0	-40.9	23.5	0.00e+00	0	29	0	373293056	58	6059
2026-01-05 00:57:43.44	333.64	17.93	-40.1	-41.0	23.4	0.00e+00	0	29	0	375390208	58	6172
2026-01-05 00:57:44.45	333.70	17.81	-40.0	-40.9	23.4	0.00e+00	0	29	0	377487360	58	6103
2026-01-05 00:57:45.46	333.75	17.70	-40.0	-41.0	23.4	0.00e+00	0	29	0	379584512	58	6131
2026-01-05 00:57:46.47	333.80	17.58	-40.2	-41.1	23.2	0.00e+00	0	29	0	380633088	58	6236
2026-01-05 00:57:47.48	333.85	17.46	-40.2	-41.2	23.2	0.00e+00	0	29	0	382730240	58	6254
2026-01-05 00:57:48.49	333.90	17.35	-40.1	-41.0	23.3	0.00e+00	0	29	0	384827392	58	6163
2026-01-05 00:57:49.51	333.95	17.23	-40.0	-41.0	23.4	0.00e+00	0	29	0	386924544	58	6104
2026-01-05 00:57:50.52	334.00	17.12	-40.1	-41.1	23.4	0.00e+00	0	29	0	389021696	58	6187
2026-01-05 00:57:51.53	334.05	17.00	-39.9	-40.8	23.4	0.00e+00	0	29	0	391118848	58	6013
2026-01-05 00:57:52.54	334.10	16.89	-39.9	-40.9	23.4	0.00e+00	0	29	0	392167424	58	6038
2026-01-05 00:57:53.55	334.15	16.78	-39.8	-40.7	23.4	0.00e+00	0	29	0	394264576	58	5916
2026-01-05 00:57:54.56	334.20	16.66	-39.8	-40.7	23.6	0.00e+00	0	29	0	396361728	58	5944
2026-01-05 00:57:55.57	334.24	16.55	-39.2	-40.1	23.9	0.00e+00	0	29	0	398458880	58	5532
2026-01-05 00:57:56.59	334.29	16.44	-39.3	-40.1	24.0	0.00e+00	0	29	0	400556032	56	6240
2026-01-05 00:57:57.60	334.34	16.33	-39.3	-40.1	24.1	0.00e+00	0	29	0	401604608	56	6229
2026-01-05 00:57:58.61	334.39	16.22	-39.1	-39.9	24.3	0.00e+00	0	29	0	403701760	56	6075
2026-01-05 00:57:59.62	334.43	16.11	-39.1	-39.9	24.1	0.00e+00	0	29	0	405798912	56	6081
2026-01-05 00:58:00.63	334.48	16.00	-38.7	-39.6	24.3	0.00e+00	0	29	0	407896064	56	5841
2026-01-05 00:58:01.64	334.53	15.89	-38.7	-39.5	24.3	0.00e+00	0	29	0	409993216	56	5816
2026-01-05 00:58:02.65	334.57	15.78	-38.7	-39.6	24.4	0.00e+00	0	29	0	411041792	56	5836
2026-01-05 00:58:03.66	334.62	15.67	-38.7	-39.6	24.2	0.00e+00	0	29	0	413138944	56	5847
2026-01-05 00:58:04.67	334.66	15.56	-38.7	-39.6	24.3	0.00e+00	0	29	0	415236096	56	5835
2026-01-05 00:58:05.69	334.71	15.46	-38.6	-39.5	24.3	0.00e+00	0	29	0	417333248	56	5774
2026-01-05 00:58:06.70	334.75	15.35	-38.6	-39.5	24.2	0.00e+00	0	29	0	419430400	56	5775
2026-01-05 00:58:07.71	334.80	15.24	-38.7	-39.6	24.3	0.00e+00	0	29	0	420478976	56	5835
2026-01-05 00:58:08.72	334.84	15.14	-38.8	-39.7	24.0	0.00e+00	0	29	0	422576128	56	5912
2026-01-05 00:58:09.73	334.88	15.03	-38.9	-39.8	24.1	0.00e+00	0	29	0	424673280	56	5989
2026-01-05 00:58:10.74	334.93	14.93	-39.0	-39.8	24.0	0.00e+00	0	29	0	426770432	56	6007
2026-01-05 00:58:11.75	334.97	14.82	-39.0	-39.9	24.0	0.00e+00	0	29	0	428867584	56	6056
2026-01-05 00:58:12.76	335.01	14.72	-39.3	-40.2	23.8	0.00e+00	0	29	0	430964736	56	6252
2026-01-05 00:58:13.77	335.06	14.62	-39.3	-40.2	23.8	0.00e+00	0	29	0	432013312	56	6266
2026-01-05 00:58:14.78	335.10	14.51	-39.3	-40.1	24.0	0.00e+00	0	29	0	434110464	56	6233
2026-01-05 00:58:15.80	335.14	14.41	-39.4	-40.3	23.8	0.00e+00	0	29	0	436207616	56	6340
2026-01-05 00:58:16.81	335.18	14.31	-39.6	-40.5	23.6	0.00e+00	0	29	0	438304768	56	6494
2026-01-05 00:58:17.82	335.23	14.20	-39.8	-40.7	23.4	0.00e+00	0	29	0	440401920	56	6649
2026-01-05 00:58:18.83	335.27	14.10	-40.0	-40.9	23.3	0.00e+00	0	29	0	441450496	56	6817
2026-01-05 00:58:19.84	335.31	14.00	-40.0	-40.9	23.4	0.00e+00	0	29	0	443547648	58	6095
2026-01-05 00:58:20.85	335.35	13.90	-40.2	-41.1	23.2	0.00e+00	0	29	0	445644800	58	6207
2026-01-05 00:58:21.86	335.39	13.80	-40.2	-41.1	23.3	0.00e+00	0	29	0	447741952	58	6205
2026-01-05 00:58:22.87	335.43	13.70	-40.1	-41.0	23.1	0.00e+00	0	29	0	449839104	58	6140
2026-01-05 00:58:23.88	335.47	13.60	-40.5	-41.4	23.0	0.00e+00	0	29	0	450887680	58	6439
2026-01-05 00:58:24.90	335.51	13.50	-40.4	-41.3	23.0	0.00e+00	0	29	0	452984832	58	6382
2026-01-05 00:58:25.91	335.55	13.40	-40.2	-41.1	22.9	0.00e+00	0	29	0	455081984	58	6243
2026-01-05 00:58:26.92	335.59	13.30	-40.3	-41.3	22.7	0.00e+00	0	29	0	457179136	58	6357
2026-01-05 00:58:27.93	335.63	13.21	-40.4	-41.4	22.6	0.00e+00	0	29	0	459276288	58	6417
2026-01-05 00:58:28.94	335.67	13.11	-40.8	-41.8	22.5	0.00e+00	0	29	0	460324864	58	6706
2026-01-05 00:58:29.95	335.71	13.01	-40.7	-41.6	22.5	0.00e+00	0	29	0	462422016	58	6611
2026-01-05 00:58:30.96	335.75	12.91	-40.7	-41.7	22.6	0.00e+00	0	29	0	464519168	58	6672
2026-01-05 00:58:31.97	335.79	12.82	-40.7	-41.7	22.5	0.00e+00	0	29	0	466616320	58	6660
2026-01-05 00:58:32.98	335.82	12.72	-41.1	-42.1	22.4	0.00e+00	0	29	0	468713472	58	6983
2026-01-05 00:58:33.99	335.86	12.63	-40.9	-42.0	22.3	0.00e+00	0	29	0	470810624	58	6860
2026-01-05 00:58:35.01	335.90	12.53	-41.2	-42.3	22.1	0.00e+00	0	29	0	471859200	60	6370
2026-01-05 00:58:36.02	335.94	12.43	-41.1	-42.2	22.2	0.00e+00	0	29	0	473956352	60	6251
2026-01-05 00:58:37.03	335.97	12.34	-41.2	-42.3	22.0	0.00e+00	0	29	0	476053504	60	6365
2026-01-05 00:58:38.04	336.01	12.25	-41.4	-42.5	21.9	0.00e+00	0	29	0	478150656	60	6526
2026-01-05 00:58:39.05	336.05	12.15	-41.6	-42.8	21.8	0.00e+00	0	29	0	480247808	60	6710
2026-01-05 00:58:40.06	336.09	12.06	-42.0	-43.1	21.7	0.00e+00	0	29	0	481296384	60	7006
2026-01-05 00:58:41.07	336.12	11.97	-42.1	-43.3	21.5	0.00e+00	0	29	0	483393536	60	7134
2026-01-05 00:58:42.08	336.16	11.87	-42.0	-43.2	21.5	0.00e+00	0	29	0	485490688	60	7080
2026-01-05 00:58:43.09	336.19	11.78	-42.1	-43.4	21.4	0.00e+00	0	29	0	487587840	60	7171
2026-01-05 00:58:44.11	336.23	11.69	-42.2	-43.4	21.4	0.00e+00	0	29	0	489684992	60	7202
2026-01-05 00:58:45.12	336.27	11.60	-42.4	-43.6	21.0	0.00e+00	0	29	0	490733568	60	7415
2026-01-05 00:58:46.13	336.30	11.50	-42.7	-44.0	20.9	0.00e+00	0	29	0	492830720	60	7709
2026-01-05 00:58:47.14	336.34	11.41	-42.4	-43.6	21.2	0.00e+00	0	29	0	494927872	60	7394
2026-01-05 00:58:48.15	336.37	11.32	-42.4	-43.7	21.1	0.00e+00	0	29	0	497025024	60	7482
2026-01-05 00:58:49.16	336.41	11.23	-42.3	-43.5	21.2	0.00e+00	0	29	0	499122176	60	7313
2026-01-05 00:58:50.17	336.44	11.14	-42.8	-44.2	20.6	0.00e+00	0	29	0	500170752	60	7893
2026-01-05 00:58:51.18	336.48	11.05	-43.0	-44.5	20.3	0.00e+00	0	29	0	502267904	60	8140
2026-01-05 00:58:52.19	336.51	10.96	-43.0	-44.4	20.2	0.00e+00	0	29	0	504365056	60	8115
2026-01-05 00:58:53.21	336.55	10.87	-42.2	-43.5	21.2	0.00e+00	0	29	0	506462208	60	7299
2026-01-05 00:58:54.22	336.58	10.78	-41.9	-43.1	21.4	0.00e+00	0	29	0	508559360	60	6988
2026-01-05 00:58:55.23	336.61	10.69	-42.1	-43.4	21.3	0.00e+00	0	29	0	510656512	60	7191
2026-01-05 00:58:56.24	336.65	10.61	-41.9	-43.1	21.3	0.00e+00	0	29	0	511705088	60	6954
2026-01-05 00:58:57.25	336.68	10.52	-41.8	-43.0	21.6	0.00e+00	0	29	0	513802240	60	6896
2026-01-05 00:58:58.26	336.71	10.43	-41.8	-43.0	21.6	0.00e+00	0	29	0	515899392	60	6864
2026-01-05 00:58:59.27	336.75	10.34	-41.7	-42.8	21.6	0.00e+00	0	29	0	517996544	60	6765
2026-01-05 00:59:00.28	336.78	10.26	-41.5	-42.6	21.8	0.00e+00	0	29	0	520093696	60	6602
2026-01-05 00:59:01.29	336.81	10.17	-41.6	-42.8	21.6	0.00e+00	0	29	0	521142272	60	6716
2026-01-05 00:59:02.30	336.85	10.08	-41.5	-42.6	21.8	0.00e+00	0	29	0	523239424	60	6579
2026-01-05 00:59:03.31	336.88	10.00	-41.5	-42.6	21.8	0.00e+00	0	29	0	525336576	60	6592
2026-01-05 00:59:04.32	336.91	9.91	-41.6	-42.7	21.7	0.00e+00	0	29	0	527433728	60	6664
2026-01-05 00:59:05.34	336.94	9.83	-41.5	-42.6	21.8	0.00e+00	0	29	0	529530880	60	6589
2026-01-05 00:59:06.35	336.97	9.74	-41.6	-42.7	21.8	0.00e+00	0	29	0	530579456	60	6642
2026-01-05 00:59:07.36	337.01	9.66	-41.5	-42.6	21.8	0.00e+00	0	29	0	532676608	60	6577
2026-01-05 00:59:08.37	337.04	9.57	-41.5	-42.6	21.9	0.00e+00	0	29	0	534773760	60	6574
2026-01-05 00:59:09.38	337.07	9.49	-41.5	-42.7	21.8	0.00e+00	0	29	0	536870912	60	6626
2026-01-05 00:59:10.39	337.10	9.40	-41.3	-42.4	22.0	0.00e+00	0	29	0	538968064	60	6463
2026-01-05 00:59:11.40	337.13	9.32	-41.1	-42.1	22.2	0.00e+00	0	29	0	540016640	60	6222
2026-01-05 00:59:12.41	337.16	9.23	-41.5	-42.6	21.8	0.00e+00	0	29	0	542113792	60	6569
2026-01-05 00:59:13.42	337.19	9.15	-41.1	-42.2	22.1	0.00e+00	0	29	0	544210944	60	6300
2026-01-05 00:59:14.44	337.23	9.07	-41.1	-42.2	22.1	0.00e+00	0	29	0	546308096	60	6293
2026-01-05 00:59:15.45	337.26	8.98	-41.0	-42.0	22.2	0.00e+00	0	29	0	548405248	60	6172
2026-01-05 00:59:16.46	337.29	8.90	-40.9	-41.9	22.3	0.00e+00	0	29	0	549453824	60	6085
2026-01-05 00:59:17.47	337.32	8.82	-41.1	-42.2	22.1	0.00e+00	0	29	0	551550976	60	6264
2026-01-05 00:59:18.48	337.35	8.74	-41.1	-42.2	22.0	0.00e+00	0	29	0	553648128	60	6273
2026-01-05 00:59:19.49	337.38	8.66	-41.0	-42.1	22.0	0.00e+00	0	29	0	555745280	60	6222
2026-01-05 00:59:20.50	337.41	8.58	-41.0	-42.1	22.1	0.00e+00	0	29	0	557842432	60	6208
2026-01-05 00:59:21.51	337.44	8.49	-40.9	-42.0	22.2	0.00e+00	0	29	0	558891008	60	6121
2026-01-05 00:59:22.52	337.47	8.41	-41.0	-42.1	22.1	0.00e+00	0	29	0	560988160	60	6209
2026-01-05 00:59:23.53	337.50	8.33	-41.1	-42.1	22.0	0.00e+00	0	29	0	563085312	60	6232
2026-01-05 00:59:24.55	337.52	8.25	-40.8	-41.9	22.3	0.00e+00	0	29	0	565182464	60	6049
2026-01-05 00:59:25.56	337.55	8.17	-41.1	-42.1	22.0	0.00e+00	0	29	0	567279616	60	6245
2026-01-05 00:59:26.57	337.58	8.09	-41.2	-42.3	22.0	0.00e+00	0	29	0	568328192	60	6323
2026-01-05 00:59:27.58	337.61	8.01	-41.3	-42.4	22.0	0.00e+00	0	29	0	570425344	60	6443
2026-01-05 00:59:28.59	337.64	7.93	-41.2	-42.3	22.1	0.00e+00	0	29	0	572522496	60	6343
2026-01-05 00:59:29.60	337.67	7.85	-41.1	-42.2	22.0	0.00e+00	0	29	0	574619648	60	6272
2026-01-05 00:59:30.61	337.70	7.77	-41.2	-42.2	22.1	0.00e+00	0	29	0	576716800	60	6301
2026-01-05 00:59:31.62	337.73	7.70	-41.7	-42.9	21.8	0.00e+00	0	29	0	578813952	60	6772
2026-01-05 00:59:32.63	337.75	7.62	-41.2	-42.2	22.1	0.00e+00	0	29	0	579862528	60	6305
2026-01-05 00:59:33.64	337.78	7.54	-41.6	-42.7	21.7	0.00e+00	0	29	0	581959680	60	6668
2026-01-05 00:59:34.65	337.81	7.46	-41.3	-42.4	21.9	0.00e+00	0	29	0	584056832	60	6404
2026-01-05 00:59:35.66	337.84	7.38	-41.4	-42.5	22.0	0.00e+00	0	29	0	586153984	60	6486
2026-01-05 00:59:36.67	337.87	7.31	-41.1	-42.1	22.2	0.00e+00	0	29	0	588251136	60	6244
2026-01-05 00:59:37.69	337.89	7.23	-41.5	-42.6	21.8	0.00e+00	0	29	0	589299712	60	6564
2026-01-05 00:59:38.70	337.92	7.15	-41.3	-42.5	21.6	0.00e+00	0	29	0	591396864	60	6477
2026-01-05 00:59:39.71	337.95	7.07	-41.5	-42.6	21.5	0.00e+00	0	29	0	593494016	60	6599
2026-01-05 00:59:40.72	337.98	7.00	-41.5	-42.7	21.4	0.00e+00	0	29	0	595591168	60	6661
2026-01-05 00:59:41.73	338.00	6.92	-41.7	-42.9	21.3	0.00e+00	0	29	0	597688320	60	6820
2026-01-05 00:59:42.74	338.03	6.85	-41.3	-42.5	21.6	0.00e+00	0	29	0	598736896	60	6497
2026-01-05 00:59:43.75	338.06	6.77	-41.5	-42.7	21.4	0.00e+00	0	29	0	600834048	60	6664
2026-01-05 00:59:44.76	338.08	6.69	-41.3	-42.5	21.7	0.00e+00	0	29	0	602931200	60	6475
2026-01-05 00:59:45.77	338.11	6.62	-41.4	-42.5	21.6	0.00e+00	0	29	0	605028352	60	6534
2026-01-05 00:59:46.78	338.14	6.54	-41.5	-42.7	21.5	0.00e+00	0	29	0	607125504	60	6664
2026-01-05 00:59:47.80	338.16	6.47	-41.7	-42.9	21.4	0.00e+00	0	29	0	608174080	60	6835
2026-01-05 00:59:48.81	338.19	6.39	-41.7	-42.9	21.2	0.00e+00	0	29	0	610271232	60	6786
2026-01-05 00:59:49.82	338.22	6.32	-41.9	-43.2	21.2	0.00e+00	0	29	0	612368384	60	7020
2026-01-05 00:59:50.83	338.24	6.24	-41.6	-42.8	21.4	0.00e+00	0	29	0	614465536	60	6715
2026-01-05 00:59:51.84	338.27	6.17	-42.0	-43.3	20.8	0.00e+00	0	29	0	616562688	60	7114
2026-01-05 00:59:52.85	338.30	6.10	-41.5	-42.7	21.1	0.00e+00	0	29	0	618659840	60	6654
2026-01-05 00:59:53.86	338.32	6.02	-41.2	-42.3	21.5	0.00e+00	0	29	0	619708416	60	6384
2026-01-05 00:59:54.87	338.35	5.95	-41.6	-42.9	20.8	0.00e+00	0	29	0	621805568	60	6788
2026-01-05 00:59:55.88	338.37	5.87	-41.5	-42.7	21.1	0.00e+00	0	29	0	623902720	60	6672
2026-01-05 00:59:56.89	338.40	5.80	-42.0	-43.4	20.5	0.00e+00	0	29	0	625999872	60	7178
2026-01-05 00:59:57.91	338.42	5.73	-42.0	-43.4	20.3	0.00e+00	0	29	0	628097024	60	7224
2026-01-05 00:59:58.92	338.45	5.65	-42.0	-43.3	20.3	0.00e+00	0	29	0	629145600	60	7167
2026-01-05 00:59:59.93	338.47	5.58	-42.3	-43.8	19.8	0.00e+00	0	29	0	631242752	60	7509
2026-01-05 01:00:00.94	338.50	5.51	-42.2	-43.7	19.7	0.00e+00	0	29	0	633339904	60	7470
2026-01-05 01:00:01.95	338.52	5.44	-42.6	-44.2	19.3	0.00e+00	0	29	0	635437056	60	7867
2026-01-05 01:00:02.96	338.55	5.37	-43.1	-44.9	18.4	0.00e+00	0	29	0	637534208	60	8592
2026-01-05 01:00:03.97	338.57	5.29	-43.1	-44.9	18.3	0.00e+00	0	29	0	638582784	60	8573
2026-01-05 01:00:04.99	338.60	5.22	-43.7	-45.9	17.2	0.00e+00	0	29	0	640679936	60	9573
2026-01-05 01:00:06.00	338.62	5.15	-43.5	-45.7	17.0	0.00e+00	0	29	0	642777088	60	9411
2026-01-05 01:00:07.01	338.65	5.08	-44.1	-46.8	15.6	0.00e+00	0	29	0	644874240	60	10659
2026-01-05 01:00:08.02	338.67	5.01	-44.5	-47.5	14.4	0.00e+00	0	29	0	646971392	60	11564
2026-01-05 01:00:09.03	338.70	4.94	-44.6	-47.8	14.3	0.00e+00	0	29	0	648019968	60	12035
2026-01-05 01:00:10.04	338.72	4.87	-45.0	-48.8	13.0	8.30e-06	0	29	0	650117120	60	13427
2026-01-05 01:00:11.05	338.74	4.80	-45.3	-49.6	11.9	1.24e-04	0	29	0	652214272	60	14693
2026-01-05 01:00:12.06	338.77	4.73	-45.4	-50.2	10.9	1.12e-03	0	29	0	654311424	60	15737
2026-01-05 01:00:13.07	338.79	4.66	-45.6	-51.0	10.1	4.37e-03	0	29	0	656408576	60	17290
2026-01-05 01:00:14.08	338.82	4.59	-45.9	-52.2	8.3	1.91e-02	0	29	0	658505728	60	19862
2026-01-05 01:00:15.10	338.84	4.52	-46.0	-52.9	7.3	1.03e-01	0	29	0	659554304	60	21461
2026-01-05 01:00:16.11	338.86	4.45	-46.0	-53.4	6.7	1.34e-01	0	29	0	661651456	60	22834
2026-01-05 01:00:17.12	338.89	4.38	-46.2	-54.5	5.4	2.61e-01	0	29	0	663748608	60	25804
2026-01-05 01:00:18.13	338.91	4.31	-46.1	-54.7	5.3	3.30e-01	0	29	0	665845760	60	26362
2026-01-05 01:00:19.14	338.93	4.24	-46.3	-55.6	4.5	7.27e-01	0	29	0	667942912	60	29303
2026-01-05 01:00:20.15	338.96	4.17	-46.3	-55.9	4.2	8.34e-01	0	29	0	668991488	60	30572
2026-01-05 01:00:21.16	338.98	4.10	-46.3	-56.9	3.8	1.34e+00	0	29	0	670040064	60	34246
2026-01-05 01:00:22.17	339.00	4.03	-46.3	-59.2	3.8	1.49e+00	0	29	104	670040064	60	44515
2026-01-05 01:00:23.18	339.03	3.96	-46.2	-59.6	3.7	1.50e+00	0	29	104	670040064	60	46547
2026-01-05 01:00:24.19	339.05	3.90	-46.2	-60.3	3.6	1.50e+00	0	29	104	670040064	60	50592
2026-01-05 01:00:25.21	339.07	3.83	-46.2	-60.6	3.6	1.51e+00	0	29	104	670040064	60	52258
2026-01-05 01:00:26.22	339.10	3.76	-46.2	-60.7	3.5	1.51e+00	0	29	104	670040064	60	53132
2026-01-05 01:00:27.23	339.12	3.69	-46.2	-60.9	3.6	1.51e+00	0	29	104	670040064	60	54207
2026-01-05 01:00:28.24	339.14	3.62	-46.3	-61.0	3.6	1.51e+00	0	29	104	670040064	60	54684
2026-01-05 01:00:29.25	339.16	3.56	-46.3	-61.6	3.6	1.51e+00	0	29	104	670040064	60	58919
2026-01-05 01:00:30.26	339.19	3.49	-46.2	-61.2	3.6	1.51e+00	0	29	104	670040064	60	56220
2026-01-05 01:00:31.27	339.21	3.42	-46.4	-61.7	3.6	1.51e+00	0	29	104	670040064	60	59164
2026-01-05 01:00:32.28	339.23	3.36	-46.3	-61.4	3.6	1.51e+00	0	29	104	670040064	60	57609
2026-01-05 01:00:33.29	339.25	3.29	-46.2	-61.4	3.6	1.51e+00	0	29	104	670040064	60	57460
2026-01-05 01:00:34.30	339.28	3.22	-46.2	-61.5	3.6	1.51e+00	0	29	104	670040064	60	57636
2026-01-05 01:00:35.32	339.30	3.16	-46.2	-61.5	3.6	1.51e+00	0	29	104	670040064	60	57912
2026-01-05 01:00:36.33	339.32	3.09	-46.2	-61.6	3.6	1.51e+00	0	29	104	670040064	60	58395
2026-01-05 01:00:37.34	339.34	3.02	-49.3	-64.6	3.6	1.51e+00	0	29	104	670040064	60	83240
2026-01-05 01:00:38.35	339.36	2.96	-50.6	-66.0	3.6	1.51e+00	0	29	104	670040064	60	97469
2026-01-05 01:00:39.36	339.38	2.89	-50.9	-66.2	3.6	1.51e+00	0	29	104	670040064	60	99769
2026-01-05 01:00:40.37	339.41	2.83	-51.0	-66.4	3.6	1.51e+00	0	29	104	670040064	60	102151
2026-01-05 01:00:41.38	339.43	2.76	-51.2	-66.6	3.6	1.51e+00	0	29	104	670040064	60	104410
2026-01-05 01:00:42.39	339.45	2.70	-51.3	-66.6	3.6	1.51e+00	0	29	104	670040064	60	104548
2026-01-05 01:00:43.41	339.47	2.63	-51.3	-66.6	3.6	1.51e+00	0	29	104	670040064	60	104524
2026-01-05 01:00:44.42	339.49	2.56	-51.3	-66.7	3.6	1.51e+00	0	29	104	670040064	60	105210
2026-01-05 01:00:45.43	339.51	2.50	-51.1	-66.7	3.6	1.51e+00	0	29	104	670040064	60	105202
2026-01-05 01:00:46.44	339.54	2.43	-50.7	-66.8	3.6	1.51e+00	0	29	104	670040064	60	106249
2026-01-05 01:00:47.45	339.56	2.37	-51.3	-66.7	3.6	1.51e+00	0	29	104	670040064	60	105953
2026-01-05 01:00:48.46	339.58	2.31	-51.2	-66.6	3.6	1.51e+00	0	29	104	670040064	60	104279
2026-01-05 01:00:49.47	339.60	2.24	-51.3	-66.7	3.6	1.51e+00	0	29	104	670040064	60	105909
2026-01-05 01:00:50.48	339.62	2.18	-51.2	-66.6	3.6	1.51e+00	0	29	104	670040064	60	104259
2026-01-05 01:00:51.49	339.64	2.11	-51.3	-66.6	3.6	1.51e+00	0	29	104	670040064	60	104329
2026-01-05 01:00:52.50	339.66	2.05	-51.4	-66.8	3.6	1.51e+00	0	29	104	670040064	60	106219
2026-01-05 01:00:53.52	339.68	1.99	-51.4	-66.8	3.6	1.51e+00	0	29	104	670040064	60	106563
2026-01-05 01:00:54.53	339.70	1.92	-51.8	-67.1	3.6	1.51e+00	0	29	104	670040064	60	110817
2026-01-05 01:00:55.54	339.72	1.86	-51.4	-66.8	3.6	1.51e+00	0	29	104	670040064	60	106650
2026-01-05 01:00:56.55	339.74	1.80	-51.4	-66.7	3.6	1.51e+00	0	29	104	670040064	60	106007
2026-01-05 01:00:57.56	339.76	1.73	-51.6	-66.9	3.6	1.51e+00	0	29	104	670040064	60	108468
2026-01-05 01:00:58.57	339.78	1.67	-51.3	-66.7	3.6	1.51e+00	0	29	104	670040064	60	105444
2026-01-05 01:00:59.58	339.80	1.61	-51.5	-66.8	3.6	1.51e+00	0	29	104	670040064	60	106773
2026-01-05 01:01:00.59	339.82	1.54	-51.4	-66.7	3.6	1.51e+00	0	29	104	670040064	60	105825
2026-01-05 01:01:01.60	339.85	1.48	-51.5	-66.9	3.6	1.51e+00	0	29	104	670040064	60	107532
2026-01-05 01:01:02.61	339.87	1.42	-51.4	-66.8	3.6	1.51e+00	0	29	104	670040064	60	106574
2026-01-05 01:01:03.62	339.89	1.36	-51.6	-66.9	3.6	1.51e+00	0	29	104	670040064	60	108280
2026-01-05 01:01:04.63	339.91	1.29	-51.5	-66.9	3.6	1.51e+00	0	29	104	670040064	60	107893
2026-01-05 01:01:05.64	339.93	1.23	-51.7	-67.0	3.6	1.51e+00	0	29	104	670040064	60	109481
2026-01-05 01:01:06.65	339.95	1.17	-51.6	-67.0	3.6	1.51e+00	0	29	104	670040064	60	109301
2026-01-05 01:01:07.67	339.97	1.11	-51.5	-66.9	3.6	1.51e+00	0	29	104	670040064	60	107546
2026-01-05 01:01:08.68	339.98	1.05	-51.5	-66.9	3.6	1.51e+00	0	29	104	670040064	60	107471
2026-01-05 01:01:09.69	340.00	0.98	-51.9	-67.3	3.6	1.51e+00	0	29	104	670040064	60	112811
2026-01-05 01:01:10.70	340.02	0.92	-51.6	-67.0	3.6	1.51e+00	0	29	104	670040064	60	109220
2026-01-05 01:01:11.71	340.04	0.86	-51.6	-67.0	3.6	1.51e+00	0	29	104	670040064	60	108838
2026-01-05 01:01:12.72	340.06	0.80	-51.9	-67.3	3.6	1.51e+00	0	29	104	670040064	60	112585
2026-01-05 01:01:13.73	340.08	0.74	-51.7	-67.0	3.6	1.51e+00	0	29	104	670040064	60	109537
2026-01-05 01:01:14.74	340.10	0.68	-51.9	-67.3	3.6	1.51e+00	0	29	104	670040064	60	113390
2026-01-05 01:01:15.75	340.12	0.62	-51.5	-66.9	3.6	1.51e+00	0	29	104	670040064	60	107301
2026-01-05 01:01:16.76	340.14	0.56	-51.3	-66.7	3.6	1.51e+00	0	29	104	670040064	60	105544
2026-01-05 01:01:17.77	340.16	0.50	-51.6	-67.0	3.6	1.51e+00	0	29	104	670040064	60	108733
2026-01-05 01:01:18.78	340.18	0.44	-51.7	-67.2	3.6	1.51e+00	0	29	104	670040064	60	111236
2026-01-05 01:01:19.80	340.20	0.37	-51.5	-66.9	3.6	1.51e+00	0	29	104	670040064	60	107613
2026-01-05 01:01:20.81	340.22	0.31	-51.7	-67.0	3.6	1.51e+00	0	29	104	670040064	60	109418
2026-01-05 01:01:21.82	340.24	0.25	-51.5	-66.9	3.6	1.51e+00	0	29	104	670040064	60	107398
2026-01-05 01:01:22.83	340.26	0.19	-51.3	-66.7	3.6	1.51e+00	0	29	104	670040064	60	104945
2026-01-05 01:01:23.84	340.27	0.13	-51.4	-66.7	3.6	1.51e+00	0	29	104	670040064	60	105687
2026-01-05 01:01:24.85	340.29	0.07	-51.3	-66.7	3.6	1.51e+00	0	29	104	670040064	60	105286
2026-01-05 01:01:25.86	340.31	0.02	-51.5	-66.9	3.6	1.51e+00	0	29	104	670040064	60	107770
2026-01-05 01:01:26.87	340.33	-0.04	-51.8	-67.1	3.6	1.51e+00	0	29	104	670040064	60	111038
2026-01-05 01:01:27.88	340.35	-0.10	-51.4	-66.8	3.6	1.51e+00	0	29	104	670040064	60	106591

#Closed at: 2026-01-05 01:01:28
#Recorded file [670 MB]: D:/lorett/data/35034_260105_035233.dat