passes_logs/2026/01/05/R4.6S_Anadyr_2ch/R4.6S_Anadyr_2ch__20260105_065615_FENGYUN_3E_rec.log

#Pass ID: 20260105_065615_FENGYUN 3E
#Satellite: FENGYUN 3E
#Configuration: FENGYUN 3E
#almurnet v.1.7.20251203
#Start time: 2026-01-05 06:56:18

#Version: 2.2.20231116
#Station: R4.6S_Anadyr_2ch
#Location: 177.4865 lon 64.73178 lat
#TLE: 1 49008U 21062A   25350.97288215  .00000176  00000+0  10353-3 0  9997
#TLE: 2 49008  98.7477 351.4440 0000638 234.3856 125.7261 14.19881381230726

#Time	Az	El	Level	Level2	SNR	BER	BlckErr	Temp	State	Recorded	gain1	gain2
2026-01-05 06:56:18.23	220.70	0.15	-52.3	-62.4	3.3	8.41e-01	0	20	0	0	60	65004
2026-01-05 06:56:19.24	220.77	0.20	-52.5	-64.0	3.6	8.45e-01	0	21	104	0	60	78116
2026-01-05 06:56:20.25	220.85	0.25	-52.5	-64.0	3.6	8.44e-01	0	21	104	0	60	78591
2026-01-05 06:56:21.26	220.93	0.30	-52.3	-63.8	3.6	8.46e-01	0	21	104	0	60	76071
2026-01-05 06:56:22.27	221.00	0.35	-51.3	-63.1	3.6	8.45e-01	0	21	104	0	60	70387
2026-01-05 06:56:23.28	221.08	0.40	-52.6	-64.2	3.6	8.44e-01	0	21	104	0	60	79778
2026-01-05 06:56:24.30	221.16	0.45	-52.5	-64.3	3.6	8.46e-01	0	21	104	0	60	80853
2026-01-05 06:56:25.30	221.24	0.50	-52.2	-63.9	3.6	8.45e-01	0	21	104	0	60	76906
2026-01-05 06:56:26.31	221.32	0.55	-50.9	-62.6	3.5	8.46e-01	0	21	104	0	60	66569
2026-01-05 06:56:27.32	221.40	0.60	-50.8	-62.5	3.6	8.46e-01	0	21	104	0	60	65734
2026-01-05 06:56:28.34	221.48	0.65	-50.8	-62.4	3.6	8.46e-01	0	21	104	0	60	64823
2026-01-05 06:56:29.35	221.55	0.70	-50.8	-62.4	3.6	8.45e-01	0	21	104	0	60	64704
2026-01-05 06:56:30.36	221.63	0.75	-50.7	-62.3	3.6	8.45e-01	0	21	104	0	60	64124
2026-01-05 06:56:31.36	221.71	0.80	-50.6	-62.3	3.6	8.44e-01	0	21	104	0	60	64242
2026-01-05 06:56:32.38	221.79	0.85	-50.6	-62.4	3.6	8.46e-01	0	21	104	0	60	65135
2026-01-05 06:56:33.39	221.87	0.90	-50.5	-62.4	3.6	8.45e-01	0	21	104	0	60	64949
2026-01-05 06:56:34.40	221.95	0.95	-50.7	-62.2	3.5	8.44e-01	0	21	104	0	60	63443
2026-01-05 06:56:35.41	222.04	1.00	-50.5	-62.1	3.6	8.46e-01	0	21	104	0	60	63016
2026-01-05 06:56:36.42	222.12	1.05	-49.9	-61.9	3.6	8.45e-01	0	21	104	0	60	61274
2026-01-05 06:56:37.43	222.20	1.10	-47.7	-61.4	3.6	8.47e-01	0	21	104	0	60	58009
2026-01-05 06:56:38.44	222.28	1.15	-40.9	-59.9	3.6	8.45e-01	0	21	104	0	58	54928
2026-01-05 06:56:39.45	222.36	1.20	-40.2	-59.7	3.6	8.45e-01	0	21	104	0	58	53511
2026-01-05 06:56:40.46	222.44	1.25	-40.4	-59.7	3.6	8.45e-01	0	21	104	0	58	53670
2026-01-05 06:56:41.47	222.52	1.30	-40.3	-59.8	3.6	8.46e-01	0	21	104	0	58	54360
2026-01-05 06:56:42.48	222.61	1.35	-40.2	-59.8	3.6	8.46e-01	0	21	104	0	58	54076
2026-01-05 06:56:43.49	222.69	1.40	-40.3	-59.8	3.6	8.44e-01	0	21	104	0	58	54368
2026-01-05 06:56:44.50	222.77	1.45	-40.2	-59.8	3.6	8.45e-01	0	21	104	0	58	54191
2026-01-05 06:56:45.52	222.86	1.50	-40.4	-59.8	3.6	8.45e-01	0	21	104	0	58	54046
2026-01-05 06:56:46.53	222.94	1.55	-40.1	-59.7	3.6	8.45e-01	0	21	104	0	58	53698
2026-01-05 06:56:47.54	223.02	1.60	-40.1	-59.7	3.6	8.45e-01	0	21	104	0	58	53731
2026-01-05 06:56:48.55	223.11	1.65	-39.7	-59.8	3.6	8.45e-01	0	21	104	0	58	54178
2026-01-05 06:56:49.56	223.19	1.70	-40.7	-59.9	3.6	8.45e-01	0	21	104	0	58	54697
2026-01-05 06:56:50.57	223.28	1.75	-39.8	-59.9	3.6	8.46e-01	0	21	104	0	58	54980
2026-01-05 06:56:51.58	223.36	1.80	-40.3	-60.0	3.6	8.46e-01	0	21	104	0	58	55659
2026-01-05 06:56:52.59	223.45	1.86	-39.8	-60.0	3.6	8.46e-01	0	21	104	0	58	55124
2026-01-05 06:56:53.61	223.53	1.91	-40.2	-59.9	3.6	8.47e-01	0	21	104	0	58	54817
2026-01-05 06:56:54.61	223.62	1.96	-40.3	-59.9	3.6	8.46e-01	0	22	104	0	58	54901
2026-01-05 06:56:55.62	223.71	2.01	-40.2	-59.8	3.6	8.45e-01	0	21	104	0	58	53985
2026-01-05 06:56:56.64	223.79	2.06	-40.4	-59.7	3.5	8.45e-01	0	21	104	0	58	53700
2026-01-05 06:56:57.65	223.88	2.11	-39.6	-59.7	3.6	8.46e-01	0	22	104	0	58	53169
2026-01-05 06:56:58.66	223.97	2.16	-40.6	-59.7	3.6	8.46e-01	0	21	104	0	58	53527
2026-01-05 06:56:59.67	224.05	2.21	-40.8	-59.7	3.6	8.46e-01	0	21	104	0	58	53687
2026-01-05 06:57:00.68	224.14	2.26	-40.5	-59.5	3.6	8.45e-01	0	21	104	0	58	52431
2026-01-05 06:57:01.69	224.23	2.31	-39.7	-59.5	3.6	8.45e-01	0	21	104	0	58	52414
2026-01-05 06:57:02.70	224.32	2.37	-39.8	-59.5	3.6	8.45e-01	0	22	104	0	58	52464
2026-01-05 06:57:03.71	224.41	2.42	-40.3	-59.6	3.6	8.44e-01	0	21	104	0	58	52637
2026-01-05 06:57:04.72	224.49	2.47	-40.0	-59.6	3.6	8.45e-01	0	22	104	0	58	52808
2026-01-05 06:57:05.73	224.58	2.52	-40.1	-59.6	3.6	8.46e-01	0	21	104	0	58	53152
2026-01-05 06:57:06.75	224.67	2.57	-40.1	-59.5	3.6	8.45e-01	0	22	104	0	58	51995
2026-01-05 06:57:07.75	224.76	2.62	-40.0	-59.5	3.6	8.45e-01	0	22	104	0	58	52351
2026-01-05 06:57:08.77	224.85	2.67	-40.4	-59.4	3.5	8.46e-01	0	22	104	0	58	51492
2026-01-05 06:57:09.77	224.94	2.72	-40.0	-58.7	3.6	8.46e-01	0	22	104	0	58	47711
2026-01-05 06:57:10.79	225.03	2.78	-40.5	-57.5	3.7	8.44e-01	0	21	104	0	58	41293
2026-01-05 06:57:11.80	225.12	2.83	-39.4	-53.1	4.7	8.04e-01	0	22	0	0	58	25013
2026-01-05 06:57:12.81	225.22	2.88	-40.1	-51.7	6.1	3.71e-01	0	22	0	4194304	58	21405
2026-01-05 06:57:13.82	225.31	2.93	-39.6	-49.8	8.2	6.16e-02	0	22	0	10485760	58	17169
2026-01-05 06:57:14.83	225.40	2.98	-39.5	-48.4	10.6	9.75e-03	0	22	0	17825792	58	14515
2026-01-05 06:57:15.84	225.49	3.03	-39.4	-46.6	12.2	4.80e-04	0	22	0	25165824	56	13330
2026-01-05 06:57:16.85	225.58	3.09	-39.1	-45.9	12.6	1.12e-04	0	22	0	32505856	56	12275
2026-01-05 06:57:17.86	225.68	3.14	-38.9	-45.8	13.1	3.54e-05	0	22	0	39845888	56	12048
2026-01-05 06:57:18.87	225.77	3.19	-38.9	-45.2	13.3	1.71e-05	0	22	0	47185920	56	11294
2026-01-05 06:57:19.88	225.86	3.24	-39.2	-45.7	12.5	7.09e-05	0	22	0	54525952	56	11991
2026-01-05 06:57:20.89	225.96	3.29	-40.8	-56.0	3.6	3.75e-01	0	22	104	60817408	60	30975
2026-01-05 06:57:21.90	226.05	3.34	-40.7	-47.0	5.6	7.75e-01	0	22	104	60817408	60	10997
2026-01-05 06:57:22.91	226.14	3.40	-39.8	-54.7	3.9	3.75e-01	0	22	0	60817408	58	30104
2026-01-05 06:57:23.92	226.24	3.45	-39.9	-56.0	3.7	8.43e-01	0	22	104	60817408	58	34953
2026-01-05 06:57:24.93	226.33	3.50	-39.3	-44.3	14.7	1.55e-03	0	22	0	60817408	56	10183
2026-01-05 06:57:25.94	226.43	3.55	-39.2	-44.3	14.6	1.10e-06	0	22	0	68157440	56	10136
2026-01-05 06:57:26.96	226.52	3.60	-38.9	-43.9	14.9	0.00e+00	0	22	0	75497472	56	9729
2026-01-05 06:57:27.97	226.62	3.66	-39.0	-43.9	14.7	0.00e+00	0	22	0	82837504	56	9729
2026-01-05 06:57:28.98	226.72	3.71	-39.0	-44.3	14.8	0.00e+00	0	22	0	90177536	56	10178
2026-01-05 06:57:29.99	226.81	3.76	-38.6	-43.9	14.9	1.10e-06	0	22	0	96468992	56	9773
2026-01-05 06:57:31.00	226.91	3.81	-38.3	-43.8	15.1	0.00e+00	0	22	0	104857600	56	9607
2026-01-05 06:57:32.01	227.01	3.87	-38.2	-44.0	15.0	0.00e+00	0	22	0	112197632	56	9864
2026-01-05 06:57:33.02	227.10	3.92	-38.1	-44.0	14.7	0.00e+00	0	22	0	118489088	54	11000
2026-01-05 06:57:34.03	227.20	3.97	-38.5	-44.0	14.9	0.00e+00	0	22	0	125829120	54	11067
2026-01-05 06:57:35.04	227.30	4.02	-39.1	-44.0	15.0	0.00e+00	0	22	0	133169152	54	10995
2026-01-05 06:57:36.05	227.40	4.07	-39.0	-44.0	15.0	0.00e+00	0	22	0	140509184	56	9860
2026-01-05 06:57:37.06	227.50	4.13	-40.1	-44.4	14.7	1.10e-06	0	22	0	147849216	56	10323
2026-01-05 06:57:38.08	227.60	4.18	-40.0	-44.1	14.8	0.00e+00	0	22	0	155189248	58	8900
2026-01-05 06:57:39.09	227.70	4.23	-39.9	-44.5	14.4	1.10e-06	0	22	0	162529280	58	9332
2026-01-05 06:57:40.09	227.80	4.28	-39.7	-44.0	14.9	0.00e+00	0	22	0	169869312	58	8747
2026-01-05 06:57:41.11	227.90	4.34	-40.3	-44.7	14.4	1.10e-06	0	22	0	177209344	58	9497
2026-01-05 06:57:42.11	228.00	4.39	-40.9	-44.9	14.2	1.10e-06	0	22	0	184549376	60	8703
2026-01-05 06:57:43.13	228.10	4.44	-42.1	-45.5	13.9	3.40e-06	0	22	0	191889408	60	9250
2026-01-05 06:57:44.14	228.20	4.49	-42.1	-44.9	14.2	2.20e-06	0	22	0	199229440	60	8711
2026-01-05 06:57:45.15	228.30	4.55	-42.5	-45.1	13.8	2.20e-06	0	22	0	206569472	60	8922
2026-01-05 06:57:46.16	228.40	4.60	-42.6	-45.2	13.8	1.10e-06	0	22	0	213909504	60	8938
2026-01-05 06:57:47.17	228.50	4.65	-43.0	-45.3	13.9	4.50e-06	0	22	0	221249536	60	9062
2026-01-05 06:57:48.18	228.61	4.71	-43.3	-45.3	13.7	1.02e-05	0	22	0	228589568	60	9116
2026-01-05 06:57:49.19	228.71	4.76	-43.1	-45.1	14.2	1.02e-05	0	22	0	235929600	60	8887
2026-01-05 06:57:50.20	228.81	4.81	-43.4	-45.6	13.5	5.70e-06	0	22	0	243269632	60	9410
2026-01-05 06:57:51.21	228.92	4.86	-43.5	-46.0	13.2	2.05e-05	0	22	0	250609664	60	9808
2026-01-05 06:57:52.22	229.02	4.92	-43.3	-45.9	13.4	2.05e-05	0	22	0	257949696	60	9751
2026-01-05 06:57:53.24	229.13	4.97	-43.0	-45.9	13.4	1.71e-05	0	22	0	265289728	60	9739
2026-01-05 06:57:54.25	229.23	5.02	-43.1	-46.0	13.4	2.17e-05	0	22	0	271581184	60	9786
2026-01-05 06:57:55.26	229.34	5.08	-43.1	-46.0	13.4	1.02e-05	0	22	0	279969792	60	9877
2026-01-05 06:57:56.27	229.44	5.13	-43.1	-46.1	13.2	2.17e-05	0	22	0	287309824	60	9957
2026-01-05 06:57:57.28	229.55	5.18	-42.8	-46.0	13.3	2.97e-05	0	22	0	293601280	60	9811
2026-01-05 06:57:58.29	229.65	5.23	-42.8	-46.2	13.2	3.31e-05	0	22	0	300941312	60	10025
2026-01-05 06:57:59.30	229.76	5.29	-43.0	-46.2	13.0	3.08e-05	0	22	0	309329920	60	10075
2026-01-05 06:58:00.31	229.87	5.34	-43.1	-46.1	13.1	4.11e-05	0	22	0	315621376	60	9975
2026-01-05 06:58:01.32	229.97	5.39	-43.4	-46.0	13.3	1.60e-05	0	22	0	322961408	60	9795
2026-01-05 06:58:02.33	230.08	5.45	-43.9	-46.1	13.2	1.48e-05	0	22	0	330301440	60	9972
2026-01-05 06:58:03.34	230.19	5.50	-44.0	-46.4	13.0	3.66e-05	0	22	0	337641472	60	10253
2026-01-05 06:58:04.35	230.30	5.55	-43.8	-46.2	13.1	3.08e-05	0	22	0	344981504	60	10099
2026-01-05 06:58:05.36	230.41	5.61	-43.9	-46.2	13.3	2.63e-05	0	22	0	352321536	60	10025
2026-01-05 06:58:06.38	230.52	5.66	-44.1	-46.5	12.9	4.80e-05	0	22	0	359661568	60	10372
2026-01-05 06:58:07.38	230.63	5.71	-44.1	-46.2	13.2	1.60e-05	0	22	0	367001600	60	10038
2026-01-05 06:58:08.39	230.74	5.77	-44.1	-46.4	13.1	3.77e-05	0	22	0	374341632	60	10311
2026-01-05 06:58:09.41	230.85	5.82	-43.6	-46.6	12.9	3.08e-05	0	22	0	381681664	60	10520
2026-01-05 06:58:10.42	230.96	5.87	-43.6	-46.4	13.2	2.74e-05	0	22	0	389021696	60	10322
2026-01-05 06:58:11.43	231.07	5.93	-43.7	-46.8	12.8	4.23e-05	0	22	0	396361728	60	10825
2026-01-05 06:58:12.44	231.18	5.98	-44.2	-47.5	12.3	1.20e-04	0	22	0	403701760	60	11652
2026-01-05 06:58:13.45	231.29	6.03	-44.3	-47.0	13.2	5.49e-05	0	22	0	411041792	60	11087
2026-01-05 06:58:14.46	231.41	6.09	-44.6	-46.9	13.0	7.20e-05	0	22	0	418381824	60	10953
2026-01-05 06:58:15.47	231.52	6.14	-44.8	-47.4	12.4	1.46e-04	0	22	0	425721856	60	11533
2026-01-05 06:58:16.48	231.63	6.19	-45.1	-48.4	11.8	2.27e-04	0	22	0	433061888	60	13036
2026-01-05 06:58:17.49	231.74	6.25	-45.2	-47.7	12.7	3.66e-04	0	22	0	439353344	60	12025
2026-01-05 06:58:18.50	231.86	6.30	-45.2	-47.5	12.5	1.29e-04	0	22	0	447741952	60	11647
2026-01-05 06:58:19.51	231.97	6.35	-44.4	-47.0	12.8	8.23e-05	0	22	0	455081984	60	11087
2026-01-05 06:58:20.52	232.09	6.41	-44.3	-47.1	12.7	6.06e-05	0	22	0	461373440	60	11118
2026-01-05 06:58:21.54	232.20	6.46	-44.4	-47.3	12.6	8.69e-05	0	22	0	468713472	60	11369
2026-01-05 06:58:22.55	232.32	6.51	-44.8	-47.5	12.1	2.20e-04	0	22	0	477102080	60	11657
2026-01-05 06:58:23.56	232.44	6.57	-44.8	-47.3	12.5	1.11e-04	0	22	0	483393536	60	11409
2026-01-05 06:58:24.57	232.55	6.62	-44.7	-47.1	12.7	9.61e-05	0	22	0	490733568	60	11229
2026-01-05 06:58:25.58	232.67	6.67	-44.9	-47.2	12.7	8.69e-05	0	22	0	498073600	60	11254
2026-01-05 06:58:26.59	232.79	6.73	-44.8	-47.0	12.7	7.09e-05	0	22	0	505413632	60	11067
2026-01-05 06:58:27.60	232.90	6.78	-44.7	-46.9	12.8	5.95e-05	0	22	0	512753664	60	10961
2026-01-05 06:58:28.61	233.02	6.83	-44.9	-47.3	12.5	9.84e-05	0	22	0	520093696	60	11402
2026-01-05 06:58:29.63	233.14	6.89	-44.8	-47.4	12.5	1.57e-04	0	22	0	527433728	60	11502
2026-01-05 06:58:30.64	233.26	6.94	-44.7	-47.2	12.7	1.01e-04	0	22	0	534773760	60	11242
2026-01-05 06:58:31.65	233.38	7.00	-44.8	-47.3	12.5	1.19e-04	0	22	0	542113792	60	11399
2026-01-05 06:58:32.66	233.50	7.05	-44.7	-47.4	12.3	1.51e-04	0	22	0	549453824	60	11581
2026-01-05 06:58:33.67	233.62	7.10	-44.5	-47.4	12.3	1.48e-04	0	22	0	556793856	60	11504
2026-01-05 06:58:34.68	233.74	7.16	-44.3	-47.3	12.6	9.95e-05	0	22	0	564133888	60	11403
2026-01-05 06:58:35.69	233.86	7.21	-44.1	-47.0	12.8	7.32e-05	0	22	0	571473920	60	11098
2026-01-05 06:58:36.70	233.98	7.26	-44.3	-47.2	12.9	9.38e-05	0	22	0	578813952	60	11252
2026-01-05 06:58:37.71	234.10	7.32	-44.3	-46.6	13.3	2.97e-05	0	22	0	586153984	60	10571
2026-01-05 06:58:38.72	234.23	7.37	-44.5	-46.8	13.0	3.77e-05	0	22	0	593494016	60	10845
2026-01-05 06:58:39.74	234.35	7.43	-44.6	-46.8	13.2	3.43e-05	0	22	0	600834048	60	10787
2026-01-05 06:58:40.75	234.47	7.48	-44.7	-46.9	13.2	1.94e-05	0	22	0	608174080	60	10868
2026-01-05 06:58:41.76	234.60	7.53	-44.7	-46.7	13.3	1.83e-05	0	22	0	615514112	60	10729
2026-01-05 06:58:42.77	234.72	7.59	-44.6	-46.5	13.5	1.60e-05	0	22	0	622854144	60	10455
2026-01-05 06:58:43.78	234.84	7.64	-44.7	-46.7	13.2	1.94e-05	0	22	0	630194176	60	10660
2026-01-05 06:58:44.79	234.97	7.69	-44.6	-46.5	13.4	1.83e-05	0	22	0	636485632	60	10456
2026-01-05 06:58:45.80	235.09	7.75	-44.7	-46.7	13.3	1.71e-05	0	22	0	644874240	60	10666
2026-01-05 06:58:46.81	235.22	7.80	-44.4	-46.3	13.8	6.80e-06	0	22	0	652214272	60	10192
2026-01-05 06:58:47.82	235.35	7.85	-44.2	-46.3	13.7	1.37e-05	0	22	0	658505728	60	10239
2026-01-05 06:58:48.84	235.47	7.91	-43.6	-45.9	14.0	1.10e-06	0	22	0	665845760	60	9783
2026-01-05 06:58:49.84	235.60	7.96	-43.9	-46.3	13.8	3.40e-06	0	22	0	673185792	60	10203
2026-01-05 06:58:50.86	235.73	8.02	-43.5	-45.7	14.4	0.00e+00	0	22	0	680525824	60	9546
2026-01-05 06:58:51.87	235.86	8.07	-43.4	-45.5	14.5	1.10e-06	0	22	0	687865856	60	9266
2026-01-05 06:58:52.88	235.99	8.12	-43.7	-45.5	14.6	1.10e-06	0	22	0	695205888	60	9328
2026-01-05 06:58:53.89	236.11	8.18	-43.8	-45.6	14.7	0.00e+00	0	22	0	702545920	60	9357
2026-01-05 06:58:54.90	236.24	8.23	-43.5	-45.1	15.0	0.00e+00	0	22	0	709885952	60	8878
2026-01-05 06:58:55.91	236.37	8.28	-43.8	-45.5	14.6	0.00e+00	0	22	0	717225984	60	9286
2026-01-05 06:58:56.92	236.50	8.34	-43.7	-45.5	14.9	0.00e+00	0	22	0	724566016	60	9257
2026-01-05 06:58:57.93	236.63	8.39	-43.7	-45.4	15.1	0.00e+00	0	22	0	731906048	60	9184
2026-01-05 06:58:58.95	236.77	8.44	-43.6	-45.3	15.0	0.00e+00	0	22	0	739246080	60	9112
2026-01-05 06:58:59.96	236.90	8.50	-43.7	-45.5	14.8	0.00e+00	0	22	0	746586112	60	9245
2026-01-05 06:59:00.97	237.03	8.55	-43.5	-45.2	14.9	0.00e+00	0	22	0	753926144	60	8993
2026-01-05 06:59:01.98	237.16	8.61	-43.3	-44.9	15.2	0.00e+00	0	22	0	761266176	60	8716
2026-01-05 06:59:02.99	237.30	8.66	-43.0	-44.6	15.6	0.00e+00	0	22	0	768606208	60	8397
2026-01-05 06:59:04.00	237.43	8.71	-43.1	-44.6	15.6	0.00e+00	0	22	0	775946240	60	8418
2026-01-05 06:59:05.01	237.56	8.77	-42.9	-44.4	15.6	0.00e+00	0	22	0	783286272	60	8223
2026-01-05 06:59:06.02	237.70	8.82	-42.4	-43.9	16.2	0.00e+00	0	22	0	790626304	60	7762
2026-01-05 06:59:07.03	237.83	8.87	-42.5	-43.9	16.2	0.00e+00	0	22	0	797966336	60	7753
2026-01-05 06:59:08.04	237.97	8.93	-42.5	-44.0	16.4	0.00e+00	0	22	0	804257792	60	7801
2026-01-05 06:59:09.05	238.10	8.98	-42.5	-43.8	16.5	0.00e+00	0	22	0	812646400	60	7677
2026-01-05 06:59:10.06	238.24	9.03	-41.9	-43.2	17.0	0.00e+00	0	22	0	819986432	60	7121
2026-01-05 06:59:11.07	238.38	9.09	-41.6	-42.8	17.3	0.00e+00	0	22	0	826277888	60	6847
2026-01-05 06:59:12.09	238.52	9.14	-41.6	-42.9	17.2	0.00e+00	0	22	0	833617920	60	6849
2026-01-05 06:59:13.09	238.65	9.19	-41.6	-42.9	17.4	0.00e+00	0	22	0	840957952	60	6878
2026-01-05 06:59:14.11	238.79	9.25	-41.3	-42.5	17.9	0.00e+00	0	22	0	848297984	60	6578
2026-01-05 06:59:15.11	238.93	9.30	-41.5	-42.7	17.8	0.00e+00	0	22	0	855638016	60	6757
2026-01-05 06:59:16.13	239.07	9.35	-41.1	-42.3	17.8	0.00e+00	0	22	0	862978048	60	6425
2026-01-05 06:59:17.14	239.21	9.40	-41.0	-42.1	18.2	0.00e+00	0	22	0	870318080	60	6316
2026-01-05 06:59:18.15	239.35	9.46	-41.1	-42.3	18.1	0.00e+00	0	22	0	877658112	60	6407
2026-01-05 06:59:19.16	239.49	9.51	-40.9	-42.0	18.2	0.00e+00	0	22	0	884998144	60	6220
2026-01-05 06:59:20.17	239.63	9.56	-40.5	-41.6	18.5	0.00e+00	0	22	0	892338176	60	5931
2026-01-05 06:59:21.18	239.77	9.62	-40.6	-41.8	18.5	0.00e+00	0	22	0	899678208	60	6053
2026-01-05 06:59:22.19	239.92	9.67	-40.3	-41.4	18.6	0.00e+00	0	22	0	907018240	60	5786
2026-01-05 06:59:23.20	240.06	9.72	-39.8	-40.9	18.9	0.00e+00	0	22	0	914358272	60	5481
2026-01-05 06:59:24.21	240.20	9.78	-39.9	-41.0	18.9	0.00e+00	0	22	0	921698304	58	6202
2026-01-05 06:59:25.22	240.35	9.83	-39.6	-40.7	18.9	0.00e+00	0	22	0	929038336	58	5994
2026-01-05 06:59:26.23	240.49	9.88	-39.7	-40.8	19.2	0.00e+00	0	22	0	936378368	58	6040
2026-01-05 06:59:27.25	240.64	9.93	-39.4	-40.4	19.3	0.00e+00	0	22	0	943718400	58	5820
2026-01-05 06:59:28.26	240.78	9.99	-39.4	-40.4	19.2	0.00e+00	0	22	0	951058432	58	5802
2026-01-05 06:59:29.27	240.93	10.04	-39.4	-40.5	19.1	0.00e+00	0	22	0	958398464	58	5856
2026-01-05 06:59:30.28	241.07	10.09	-39.5	-40.5	19.4	0.00e+00	0	22	0	965738496	56	6612
2026-01-05 06:59:31.29	241.22	10.14	-39.4	-40.5	19.2	0.00e+00	0	22	0	973078528	56	6564
2026-01-05 06:59:32.30	241.37	10.20	-38.9	-39.9	19.5	0.00e+00	0	22	0	980418560	56	6142
2026-01-05 06:59:33.31	241.52	10.25	-38.5	-39.5	19.9	0.00e+00	0	22	0	987758592	56	5866
2026-01-05 06:59:34.32	241.66	10.30	-38.3	-39.3	20.1	0.00e+00	0	22	0	995098624	56	5704
2026-01-05 06:59:35.33	241.81	10.35	-38.1	-39.1	20.3	0.00e+00	0	22	0	1001390080	54	6247
2026-01-05 06:59:36.34	241.96	10.41	-37.6	-38.6	20.4	0.00e+00	0	22	0	1008730112	54	5915
2026-01-05 06:59:37.36	242.11	10.46	-37.5	-38.4	20.5	0.00e+00	0	22	0	1017118720	54	5792
2026-01-05 06:59:38.37	242.26	10.51	-37.3	-38.3	20.6	0.00e+00	0	22	0	1023410176	54	5704
2026-01-05 06:59:39.38	242.42	10.56	-37.5	-38.5	20.6	0.00e+00	0	22	0	1030750208	54	5832
2026-01-05 06:59:40.39	242.57	10.61	-37.3	-38.3	20.7	0.00e+00	0	22	0	1038090240	54	5708
2026-01-05 06:59:41.40	242.72	10.67	-37.2	-38.1	20.7	0.00e+00	0	22	0	1045430272	52	6295
2026-01-05 06:59:42.41	242.87	10.72	-37.3	-38.3	20.6	0.00e+00	0	22	0	1052770304	52	6409
2026-01-05 06:59:43.42	243.02	10.77	-37.2	-38.1	20.7	0.00e+00	0	22	0	1060110336	52	6290
2026-01-05 06:59:44.43	243.18	10.82	-36.9	-37.8	21.0	0.00e+00	0	22	0	1067450368	52	6047
2026-01-05 06:59:45.44	243.33	10.87	-37.0	-37.9	20.9	0.00e+00	0	22	0	1074790400	52	6118
2026-01-05 06:59:46.45	243.49	10.92	-36.4	-37.4	21.1	0.00e+00	0	22	0	1082130432	52	5771
2026-01-05 06:59:47.47	243.64	10.98	-36.6	-37.5	21.2	0.00e+00	0	22	0	1089470464	52	5869
2026-01-05 06:59:48.48	243.80	11.03	-36.9	-37.8	21.2	0.00e+00	0	22	0	1096810496	52	6039
2026-01-05 06:59:49.49	243.95	11.08	-36.4	-37.3	21.6	0.00e+00	0	22	0	1104150528	52	5731
2026-01-05 06:59:50.50	244.11	11.13	-36.1	-37.0	21.7	0.00e+00	0	22	0	1111490560	52	5537
2026-01-05 06:59:51.51	244.27	11.18	-36.1	-37.0	21.7	0.00e+00	0	22	0	1118830592	50	6200
2026-01-05 06:59:52.52	244.43	11.23	-35.7	-36.5	22.0	0.00e+00	0	22	0	1126170624	50	5872
2026-01-05 06:59:53.53	244.58	11.28	-35.7	-36.6	22.0	0.00e+00	0	22	0	1133510656	50	5897
2026-01-05 06:59:54.55	244.74	11.33	-35.3	-36.2	22.2	0.00e+00	0	22	0	1140850688	50	5644
2026-01-05 06:59:55.56	244.90	11.39	-35.2	-36.0	22.3	0.00e+00	0	22	0	1148190720	50	5532
2026-01-05 06:59:56.57	245.06	11.44	-35.1	-35.9	22.3	0.00e+00	0	22	0	1155530752	50	5493
2026-01-05 06:59:57.58	245.22	11.49	-35.1	-35.9	22.3	0.00e+00	0	22	0	1162870784	48	6142
2026-01-05 06:59:58.59	245.39	11.54	-35.1	-35.9	22.3	0.00e+00	0	22	0	1169162240	48	6147
2026-01-05 06:59:59.60	245.55	11.59	-35.6	-36.4	22.2	0.00e+00	0	22	0	1177550848	48	6536
2026-01-05 07:00:00.61	245.71	11.64	-35.1	-36.0	22.3	0.00e+00	0	22	0	1184890880	48	6195
2026-01-05 07:00:01.62	245.87	11.69	-35.5	-36.3	22.4	0.00e+00	0	22	0	1191182336	48	6439
2026-01-05 07:00:02.63	246.03	11.74	-35.1	-35.9	22.5	0.00e+00	0	22	0	1198522368	48	6139
2026-01-05 07:00:03.64	246.20	11.79	-35.8	-36.7	22.3	0.00e+00	0	22	0	1205862400	48	6731
2026-01-05 07:00:04.66	246.36	11.84	-35.5	-36.4	22.2	0.00e+00	0	22	0	1213202432	48	6492
2026-01-05 07:00:05.67	246.53	11.89	-35.3	-36.1	22.3	0.00e+00	0	22	0	1220542464	48	6312
2026-01-05 07:00:06.68	246.69	11.94	-35.2	-36.0	22.4	0.00e+00	0	22	0	1227882496	48	6237
2026-01-05 07:00:07.69	246.86	11.99	-34.8	-35.7	22.6	0.00e+00	0	22	0	1235222528	48	5966
2026-01-05 07:00:08.70	247.03	12.04	-35.9	-36.7	22.4	0.00e+00	0	22	0	1242562560	48	6739
2026-01-05 07:00:09.71	247.19	12.09	-35.7	-36.5	22.3	0.00e+00	0	22	0	1249902592	48	6574
2026-01-05 07:00:10.72	247.36	12.14	-34.9	-35.7	22.6	0.00e+00	0	22	0	1257242624	48	5982
2026-01-05 07:00:11.73	247.53	12.18	-34.7	-35.5	22.7	0.00e+00	0	22	0	1264582656	48	5875
2026-01-05 07:00:12.74	247.70	12.23	-34.6	-35.4	22.8	0.00e+00	0	22	0	1271922688	48	5777
2026-01-05 07:00:13.75	247.86	12.28	-34.5	-35.4	22.7	0.00e+00	0	22	0	1279262720	48	5777
2026-01-05 07:00:14.76	248.03	12.33	-34.5	-35.3	22.6	0.00e+00	0	22	0	1286602752	48	5727
2026-01-05 07:00:15.78	248.21	12.38	-35.0	-35.8	22.4	0.00e+00	0	22	0	1293942784	48	6086
2026-01-05 07:00:16.79	248.38	12.43	-35.3	-36.2	22.0	0.00e+00	0	22	0	1301282816	48	6332
2026-01-05 07:00:17.80	248.55	12.48	-36.5	-37.4	21.5	0.00e+00	0	22	0	1308622848	50	6492
2026-01-05 07:00:18.81	248.72	12.52	-36.2	-37.2	21.6	0.00e+00	0	22	0	1315962880	52	5643
2026-01-05 07:00:19.82	248.89	12.57	-36.4	-37.2	21.7	0.00e+00	0	22	0	1323302912	50	6384
2026-01-05 07:00:20.83	249.06	12.62	-35.9	-36.8	22.2	0.00e+00	0	22	0	1330642944	50	6054
2026-01-05 07:00:21.84	249.24	12.67	-35.4	-36.3	22.2	0.00e+00	0	22	0	1337982976	50	5718
2026-01-05 07:00:22.85	249.41	12.72	-35.1	-35.9	22.5	0.00e+00	0	22	0	1345323008	48	6161
2026-01-05 07:00:23.86	249.59	12.76	-34.9	-35.7	22.7	0.00e+00	0	22	0	1352663040	48	6015
2026-01-05 07:00:24.88	249.76	12.81	-34.9	-35.7	22.6	0.00e+00	0	22	0	1360003072	48	6019
2026-01-05 07:00:25.89	249.94	12.86	-34.6	-35.4	22.7	0.00e+00	0	22	0	1366294528	48	5799
2026-01-05 07:00:26.90	250.11	12.91	-34.6	-35.4	22.8	0.00e+00	0	22	0	1374683136	48	5781
2026-01-05 07:00:27.91	250.29	12.95	-34.7	-35.6	22.8	0.00e+00	0	22	0	1382023168	48	5919
2026-01-05 07:00:28.92	250.47	13.00	-34.5	-35.3	22.8	0.00e+00	0	22	0	1388314624	48	5735
2026-01-05 07:00:29.93	250.65	13.05	-34.3	-35.2	22.9	0.00e+00	0	22	0	1395654656	48	5643
2026-01-05 07:00:30.94	250.82	13.09	-34.2	-35.0	22.9	0.00e+00	0	22	0	1402994688	48	5530
2026-01-05 07:00:31.95	251.00	13.14	-34.5	-35.3	22.8	0.00e+00	0	22	0	1410334720	48	5755
2026-01-05 07:00:32.96	251.18	13.18	-34.6	-35.4	22.8	0.00e+00	0	22	0	1417674752	48	5811
2026-01-05 07:00:33.97	251.36	13.23	-35.4	-36.2	22.4	0.00e+00	0	22	0	1425014784	48	6349
2026-01-05 07:00:34.98	251.54	13.28	-35.7	-36.5	22.8	0.00e+00	0	22	0	1432354816	48	6576
2026-01-05 07:00:36.00	251.72	13.32	-35.9	-36.7	22.7	0.00e+00	0	22	0	1439694848	50	5999
2026-01-05 07:00:37.01	251.91	13.37	-35.7	-36.6	22.5	0.00e+00	0	22	0	1447034880	48	6637
2026-01-05 07:00:38.02	252.09	13.41	-35.0	-35.8	22.8	0.00e+00	0	22	0	1454374912	48	6085
2026-01-05 07:00:39.03	252.27	13.46	-35.9	-36.8	22.3	0.00e+00	0	22	0	1461714944	50	6034
2026-01-05 07:00:40.04	252.45	13.50	-35.4	-36.2	22.9	0.00e+00	0	22	0	1469054976	50	5687
2026-01-05 07:00:41.05	252.64	13.55	-35.1	-35.9	22.9	0.00e+00	0	22	0	1476395008	48	6154
2026-01-05 07:00:42.06	252.82	13.59	-34.5	-35.3	23.0	0.00e+00	0	22	0	1483735040	48	5735
2026-01-05 07:00:43.07	253.01	13.64	-34.4	-35.2	23.1	0.00e+00	0	22	0	1491075072	48	5646
2026-01-05 07:00:44.09	253.19	13.68	-34.2	-35.0	23.2	0.00e+00	0	22	0	1498415104	46	6244
2026-01-05 07:00:45.10	253.38	13.72	-34.3	-35.1	23.0	0.00e+00	0	22	0	1505755136	46	6249
2026-01-05 07:00:46.11	253.57	13.77	-34.4	-35.2	22.8	0.00e+00	0	22	0	1513095168	46	6383
2026-01-05 07:00:47.12	253.75	13.81	-34.3	-35.1	23.0	0.00e+00	0	22	0	1520435200	46	6263
2026-01-05 07:00:48.13	253.94	13.85	-34.2	-35.1	22.9	0.00e+00	0	22	0	1527775232	46	6258
2026-01-05 07:00:49.14	254.13	13.90	-34.2	-35.1	22.8	0.00e+00	0	22	0	1534066688	46	6248
2026-01-05 07:00:50.15	254.32	13.94	-34.4	-35.2	22.9	0.00e+00	0	22	0	1542455296	46	6348
2026-01-05 07:00:51.16	254.50	13.98	-34.6	-35.4	22.9	0.00e+00	0	22	0	1549795328	46	6488
2026-01-05 07:00:52.17	254.69	14.02	-34.2	-35.0	22.9	0.00e+00	0	22	0	1556086784	46	6243
2026-01-05 07:00:53.18	254.88	14.07	-34.4	-35.2	23.1	0.00e+00	0	22	0	1563426816	46	6322
2026-01-05 07:00:54.19	255.07	14.11	-34.4	-35.3	22.8	0.00e+00	0	22	0	1570766848	46	6405
2026-01-05 07:00:55.20	255.27	14.15	-34.1	-34.9	23.1	0.00e+00	0	22	0	1578106880	46	6163
2026-01-05 07:00:56.21	255.46	14.19	-34.6	-35.4	23.0	0.00e+00	0	22	0	1585446912	46	6486
2026-01-05 07:00:57.22	255.65	14.23	-33.9	-34.7	23.2	0.00e+00	0	22	0	1592786944	46	5989
2026-01-05 07:00:58.24	255.84	14.27	-33.7	-34.5	23.3	0.00e+00	0	22	0	1600126976	46	5893
2026-01-05 07:00:59.25	256.04	14.32	-34.1	-34.9	23.0	0.00e+00	0	22	0	1607467008	46	6107
2026-01-05 07:01:00.26	256.23	14.36	-33.8	-34.6	23.2	0.00e+00	0	22	0	1614807040	46	5946
2026-01-05 07:01:01.27	256.42	14.40	-34.1	-34.9	23.1	0.00e+00	0	22	0	1622147072	46	6120
2026-01-05 07:01:02.28	256.62	14.44	-34.0	-34.9	23.1	0.00e+00	0	22	0	1629487104	46	6106
2026-01-05 07:01:03.29	256.81	14.48	-34.0	-34.8	23.1	0.00e+00	0	22	0	1636827136	46	6077
2026-01-05 07:01:04.30	257.01	14.52	-33.9	-34.7	23.1	0.00e+00	0	22	0	1644167168	46	6017
2026-01-05 07:01:05.31	257.21	14.56	-34.1	-34.9	23.1	0.00e+00	0	22	0	1651507200	46	6171
2026-01-05 07:01:06.33	257.40	14.60	-33.9	-34.6	23.2	0.00e+00	0	22	0	1658847232	46	5960
2026-01-05 07:01:07.34	257.60	14.63	-34.1	-34.9	23.1	0.00e+00	0	22	0	1666187264	46	6130
2026-01-05 07:01:08.35	257.80	14.67	-34.1	-34.9	23.2	0.00e+00	0	22	0	1673527296	46	6130
2026-01-05 07:01:09.36	258.00	14.71	-33.9	-34.7	23.1	0.00e+00	0	22	0	1680867328	46	5992
2026-01-05 07:01:10.37	258.20	14.75	-34.1	-34.9	23.0	0.00e+00	0	22	0	1688207360	46	6160
2026-01-05 07:01:11.38	258.39	14.79	-33.9	-34.7	23.0	0.00e+00	0	22	0	1695547392	46	5984
2026-01-05 07:01:12.39	258.59	14.82	-33.8	-34.7	23.0	0.00e+00	0	22	0	1702887424	46	5967
2026-01-05 07:01:13.41	258.80	14.86	-33.8	-34.6	23.0	0.00e+00	0	22	0	1710227456	46	5930
2026-01-05 07:01:14.42	259.00	14.90	-33.7	-34.5	23.2	0.00e+00	0	22	0	1717567488	46	5876
2026-01-05 07:01:15.43	259.20	14.94	-33.9	-34.7	23.2	0.00e+00	0	22	0	1724907520	46	5988
2026-01-05 07:01:16.44	259.40	14.97	-33.8	-34.6	23.3	0.00e+00	0	22	0	1731198976	46	5947
2026-01-05 07:01:17.45	259.60	15.01	-33.8	-34.6	23.1	0.00e+00	0	22	0	1739587584	46	5955
2026-01-05 07:01:18.46	259.80	15.05	-33.9	-34.7	23.3	0.00e+00	0	22	0	1746927616	46	6002
2026-01-05 07:01:19.47	260.01	15.08	-33.9	-34.7	23.2	0.00e+00	0	22	0	1753219072	46	6023
2026-01-05 07:01:20.48	260.21	15.12	-33.8	-34.7	23.3	0.00e+00	0	22	0	1760559104	46	5968
2026-01-05 07:01:21.49	260.41	15.15	-34.2	-35.0	23.1	0.00e+00	0	22	0	1767899136	46	6237
2026-01-05 07:01:22.50	260.62	15.19	-33.9	-34.7	23.2	0.00e+00	0	22	0	1775239168	46	5993
2026-01-05 07:01:23.51	260.82	15.22	-33.6	-34.4	23.2	0.00e+00	0	22	0	1782579200	46	5808
2026-01-05 07:01:24.53	261.03	15.26	-33.7	-34.5	23.2	0.00e+00	0	22	0	1789919232	46	5844
2026-01-05 07:01:25.54	261.24	15.29	-33.6	-34.5	23.1	0.00e+00	0	22	0	1797259264	46	5842
2026-01-05 07:01:26.55	261.44	15.32	-33.9	-34.7	23.1	0.00e+00	0	22	0	1804599296	46	6017
2026-01-05 07:01:27.56	261.65	15.36	-33.7	-34.5	23.1	0.00e+00	0	22	0	1811939328	46	5846
2026-01-05 07:01:28.57	261.86	15.39	-33.6	-34.4	23.2	0.00e+00	0	22	0	1819279360	46	5781
2026-01-05 07:01:29.58	262.06	15.42	-33.4	-34.2	23.3	0.00e+00	0	22	0	1826619392	46	5669
2026-01-05 07:01:30.59	262.27	15.45	-33.6	-34.5	23.1	0.00e+00	0	22	0	1833959424	46	5840
2026-01-05 07:01:31.60	262.48	15.49	-33.5	-34.3	23.2	0.00e+00	0	22	0	1841299456	46	5746
2026-01-05 07:01:32.61	262.69	15.52	-33.7	-34.5	23.1	0.00e+00	0	22	0	1848639488	46	5877
2026-01-05 07:01:33.62	262.90	15.55	-33.7	-34.5	23.1	0.00e+00	0	22	0	1855979520	46	5865
2026-01-05 07:01:34.64	263.11	15.58	-33.5	-34.3	23.1	0.00e+00	0	22	0	1863319552	46	5711
2026-01-05 07:01:35.65	263.32	15.61	-33.7	-34.5	23.0	0.00e+00	0	22	0	1870659584	46	5852
2026-01-05 07:01:36.66	263.53	15.64	-33.7	-34.5	22.9	0.00e+00	0	22	0	1877999616	46	5887
2026-01-05 07:01:37.67	263.74	15.67	-33.5	-34.3	23.1	0.00e+00	0	22	0	1885339648	46	5712
2026-01-05 07:01:38.68	263.95	15.70	-33.7	-34.5	23.1	0.00e+00	0	22	0	1892679680	46	5850
2026-01-05 07:01:39.69	264.16	15.73	-33.5	-34.3	23.2	0.00e+00	0	22	0	1898971136	46	5720
2026-01-05 07:01:40.70	264.38	15.76	-33.4	-34.2	23.2	0.00e+00	0	22	0	1907359744	46	5639
2026-01-05 07:01:41.71	264.59	15.79	-33.4	-34.2	23.2	0.00e+00	0	22	0	1914699776	46	5665
2026-01-05 07:01:42.72	264.80	15.82	-33.7	-34.4	23.2	0.00e+00	0	22	0	1920991232	46	5828
2026-01-05 07:01:43.74	265.02	15.85	-34.2	-35.1	22.9	0.00e+00	0	22	0	1928331264	46	6256
2026-01-05 07:01:44.75	265.23	15.88	-34.3	-35.1	22.9	0.00e+00	0	22	0	1936719872	46	6301
2026-01-05 07:01:45.76	265.44	15.90	-34.8	-35.6	22.6	0.00e+00	0	22	0	1943011328	46	6685
2026-01-05 07:01:46.77	265.66	15.93	-35.1	-36.0	22.7	0.00e+00	0	22	0	1950351360	48	6179
2026-01-05 07:01:47.78	265.87	15.96	-34.7	-35.5	23.2	0.00e+00	0	22	0	1957691392	48	5875
2026-01-05 07:01:48.79	266.09	15.98	-34.1	-34.9	23.2	0.00e+00	0	22	0	1965031424	46	6146
2026-01-05 07:01:49.80	266.30	16.01	-33.6	-34.4	23.4	0.00e+00	0	22	0	1972371456	46	5800
2026-01-05 07:01:50.81	266.52	16.04	-34.0	-34.8	23.1	0.00e+00	0	22	0	1979711488	46	6060
2026-01-05 07:01:51.83	266.74	16.06	-33.9	-34.7	23.5	0.00e+00	0	22	0	1987051520	46	5977
2026-01-05 07:01:52.84	266.95	16.09	-33.7	-34.5	23.5	0.00e+00	0	22	0	1994391552	46	5841
2026-01-05 07:01:53.85	267.17	16.11	-33.5	-34.2	23.6	0.00e+00	0	22	0	2001731584	46	5692
2026-01-05 07:01:54.86	267.39	16.14	-33.6	-34.3	23.6	0.00e+00	0	22	0	2009071616	46	5752
2026-01-05 07:01:55.87	267.61	16.16	-33.5	-34.3	23.7	0.00e+00	0	22	0	2016411648	46	5716
2026-01-05 07:01:56.88	267.82	16.18	-33.6	-34.4	23.5	0.00e+00	0	22	0	2023751680	46	5798
2026-01-05 07:01:57.89	268.04	16.21	-33.7	-34.5	23.5	0.00e+00	0	22	0	2031091712	46	5831
2026-01-05 07:01:58.90	268.26	16.23	-33.6	-34.4	23.4	0.00e+00	0	22	0	2038431744	46	5769
2026-01-05 07:01:59.91	268.48	16.25	-33.7	-34.5	23.5	0.00e+00	0	22	0	2045771776	46	5873
2026-01-05 07:02:00.92	268.70	16.27	-33.8	-34.6	23.4	0.00e+00	0	22	0	2053111808	46	5928
2026-01-05 07:02:01.94	268.92	16.30	-33.5	-34.3	23.4	0.00e+00	0	22	0	2060451840	46	5757
2026-01-05 07:02:02.95	269.14	16.32	-33.6	-34.4	23.4	0.00e+00	0	22	0	2067791872	46	5795
2026-01-05 07:02:03.96	269.36	16.34	-33.5	-34.3	23.5	0.00e+00	0	22	0	2075131904	46	5732
2026-01-05 07:02:04.97	269.58	16.36	-33.2	-34.0	23.5	0.00e+00	0	22	0	2082471936	46	5503
2026-01-05 07:02:05.98	269.80	16.38	-33.1	-33.9	23.4	0.00e+00	0	22	0	2089811968	44	6148
2026-01-05 07:02:06.99	270.02	16.40	-33.3	-34.2	23.3	0.00e+00	0	22	0	2096103424	44	6325
2026-01-05 07:02:08.00	270.24	16.42	-33.3	-34.1	23.4	0.00e+00	0	22	0	2104492032	44	6251
2026-01-05 07:02:09.01	270.47	16.44	-33.7	-34.5	23.2	0.00e+00	0	22	0	2111832064	44	6594
2026-01-05 07:02:10.02	270.69	16.46	-33.6	-34.4	23.2	0.00e+00	0	22	0	2118123520	44	6493
2026-01-05 07:02:11.04	270.91	16.47	-33.6	-34.4	23.1	0.00e+00	0	22	0	2125463552	44	6492
2026-01-05 07:02:12.05	271.13	16.49	-33.7	-34.5	23.1	0.00e+00	0	22	0	2133852160	44	6575
2026-01-05 07:02:13.06	271.36	16.51	-33.5	-34.4	23.1	0.00e+00	0	22	0	2140143616	44	6491
2026-01-05 07:02:14.07	271.58	16.53	-33.5	-34.3	23.1	0.00e+00	0	22	0	2147483648	44	6423
2026-01-05 07:02:15.08	271.80	16.54	-33.6	-34.4	23.0	0.00e+00	0	22	0	2154823680	44	6489
2026-01-05 07:02:16.09	272.03	16.56	-33.2	-34.1	23.3	0.00e+00	0	22	0	2162163712	44	6253
2026-01-05 07:02:17.10	272.25	16.57	-33.4	-34.2	23.1	0.00e+00	0	22	0	2169503744	44	6356
2026-01-05 07:02:18.11	272.47	16.59	-33.2	-34.0	23.3	0.00e+00	0	22	0	2176843776	44	6208
2026-01-05 07:02:19.12	272.70	16.61	-33.2	-34.0	23.3	0.00e+00	0	22	0	2184183808	44	6206
2026-01-05 07:02:20.13	272.92	16.62	-33.3	-34.1	23.4	0.00e+00	0	22	0	2191523840	44	6249
2026-01-05 07:02:21.14	273.15	16.63	-33.2	-34.0	23.3	0.00e+00	0	22	0	2198863872	44	6198
2026-01-05 07:02:22.16	273.37	16.65	-33.2	-34.0	23.4	0.00e+00	0	22	0	2206203904	44	6179
2026-01-05 07:02:23.17	273.60	16.66	-33.1	-33.9	23.4	0.00e+00	0	22	0	2213543936	44	6169
2026-01-05 07:02:24.18	273.82	16.67	-33.1	-33.8	23.5	0.00e+00	0	22	0	2220883968	44	6099
2026-01-05 07:02:25.19	274.05	16.69	-33.1	-33.9	23.4	0.00e+00	0	22	0	2228224000	44	6130
2026-01-05 07:02:26.20	274.27	16.70	-33.0	-33.8	23.5	0.00e+00	0	22	0	2235564032	44	6081
2026-01-05 07:02:27.21	274.50	16.71	-33.1	-33.9	23.5	0.00e+00	0	22	0	2242904064	44	6132
2026-01-05 07:02:28.22	274.72	16.72	-33.1	-33.9	23.4	0.00e+00	0	22	0	2250244096	44	6124
2026-01-05 07:02:29.23	274.95	16.73	-33.2	-34.0	23.3	0.00e+00	0	22	0	2257584128	44	6240
2026-01-05 07:02:30.24	275.18	16.74	-33.4	-34.2	23.3	0.00e+00	0	22	0	2263875584	44	6373
2026-01-05 07:02:31.25	275.40	16.75	-33.7	-34.5	23.0	0.00e+00	0	22	0	2272264192	44	6592
2026-01-05 07:02:32.26	275.63	16.76	-33.8	-34.6	23.1	0.00e+00	0	22	0	2279604224	44	6680
2026-01-05 07:02:33.27	275.86	16.77	-33.3	-34.1	23.2	0.00e+00	0	22	0	2285895680	44	6308
2026-01-05 07:02:34.29	276.08	16.78	-33.3	-34.1	23.3	0.00e+00	0	22	0	2293235712	44	6306
2026-01-05 07:02:35.30	276.31	16.79	-33.5	-34.3	23.2	0.00e+00	0	22	0	2300575744	44	6431
2026-01-05 07:02:36.31	276.54	16.80	-33.0	-33.8	23.4	0.00e+00	0	22	0	2307915776	44	6050
2026-01-05 07:02:37.32	276.76	16.81	-33.2	-34.0	23.4	0.00e+00	0	22	0	2315255808	44	6189
2026-01-05 07:02:38.33	276.99	16.81	-33.2	-34.0	23.4	0.00e+00	0	22	0	2322595840	44	6219
2026-01-05 07:02:39.34	277.22	16.82	-32.9	-33.7	23.5	0.00e+00	0	22	0	2329935872	44	5990
2026-01-05 07:02:40.35	277.45	16.83	-32.9	-33.7	23.4	0.00e+00	0	22	0	2337275904	44	6006
2026-01-05 07:02:41.36	277.67	16.83	-32.9	-33.7	23.3	0.00e+00	0	22	0	2344615936	44	6027
2026-01-05 07:02:42.37	277.90	16.84	-33.1	-33.9	23.3	0.00e+00	0	22	0	2351955968	44	6163
2026-01-05 07:02:43.39	278.13	16.84	-33.0	-33.8	23.3	0.00e+00	0	22	0	2359296000	44	6050
2026-01-05 07:02:44.40	278.36	16.85	-33.3	-34.1	23.3	0.00e+00	0	22	0	2366636032	44	6305
2026-01-05 07:02:45.41	278.58	16.85	-33.2	-34.0	23.2	0.00e+00	0	22	0	2373976064	44	6204
2026-01-05 07:02:46.42	278.81	16.85	-33.7	-34.5	23.1	0.00e+00	0	22	0	2381316096	44	6562
2026-01-05 07:02:47.43	279.04	16.86	-33.5	-34.3	23.2	0.00e+00	0	22	0	2388656128	44	6464
2026-01-05 07:02:48.44	279.27	16.86	-33.5	-34.3	23.1	0.00e+00	0	22	0	2391801856	44	6451
2026-01-05 07:02:49.45	279.50	16.86	-33.4	-34.2	23.1	0.00e+00	0	22	0	2391801856	44	6356
2026-01-05 07:02:50.46	279.72	16.86	-33.2	-34.0	23.1	0.00e+00	0	22	0	2391801856	44	6220
2026-01-05 07:02:51.47	279.95	16.87	-33.2	-34.0	23.1	0.00e+00	0	22	0	2391801856	44	6243
2026-01-05 07:02:52.49	280.18	16.87	-33.1	-33.9	23.2	0.00e+00	0	22	101	2391801856	44	6128
2026-01-05 07:02:53.50	280.41	16.87	-33.4	-34.2	23.2	0.00e+00	0	22	101	2391801856	44	6366
2026-01-05 07:02:54.51	280.64	16.87	-33.8	-34.6	23.1	0.00e+00	0	22	101	2391801856	44	6650
2026-01-05 07:02:55.52	280.86	16.87	-33.3	-34.1	23.3	0.00e+00	0	22	101	2391801856	44	6285
2026-01-05 07:02:56.53	281.09	16.87	-33.6	-34.4	23.3	0.00e+00	0	22	101	2391801856	44	6532
2026-01-05 07:02:57.53	281.32	16.87	-33.4	-34.2	23.5	0.00e+00	0	22	101	2391801856	44	6337
2026-01-05 07:02:58.54	281.54	16.86	-33.6	-34.4	23.4	0.00e+00	0	22	101	2391801856	44	6518
2026-01-05 07:02:59.55	281.77	16.86	-33.2	-34.0	23.6	0.00e+00	0	22	101	2391801856	44	6223
2026-01-05 07:03:00.56	282.00	16.86	-33.4	-34.2	23.5	0.00e+00	0	22	101	2391801856	44	6323
2026-01-05 07:03:01.57	282.23	16.86	-33.6	-34.4	23.6	0.00e+00	0	22	101	2391801856	44	6500
2026-01-05 07:03:02.57	282.45	16.85	-33.4	-34.2	23.4	0.00e+00	0	22	101	2391801856	44	6366
2026-01-05 07:03:03.58	282.68	16.85	-33.3	-34.1	23.4	0.00e+00	0	22	101	2391801856	44	6304
2026-01-05 07:03:04.59	282.91	16.85	-33.5	-34.3	23.3	0.00e+00	0	22	101	2391801856	44	6397
2026-01-05 07:03:05.60	283.14	16.84	-33.2	-34.0	23.3	0.00e+00	0	22	101	2391801856	44	6183
2026-01-05 07:03:06.61	283.36	16.84	-33.4	-34.2	23.3	0.00e+00	0	22	101	2391801856	44	6364
2026-01-05 07:03:07.61	283.59	16.83	-33.2	-34.0	23.5	0.00e+00	0	22	101	2391801856	44	6211
2026-01-05 07:03:08.62	283.81	16.83	-33.3	-34.1	23.3	0.00e+00	0	22	101	2391801856	44	6270
2026-01-05 07:03:09.63	284.04	16.82	-33.1	-33.9	23.4	0.00e+00	0	22	101	2391801856	44	6126
2026-01-05 07:03:10.63	284.27	16.81	-33.4	-34.2	23.3	0.00e+00	0	22	101	2391801856	44	6326
2026-01-05 07:03:11.64	284.49	16.81	-33.4	-34.2	23.3	0.00e+00	0	22	101	2391801856	44	6383
2026-01-05 07:03:12.64	284.72	16.80	-33.6	-34.4	23.3	0.00e+00	0	22	101	2391801856	44	6515
2026-01-05 07:03:13.65	284.94	16.79	-33.6	-34.4	23.1	0.00e+00	0	22	101	2391801856	44	6528
2026-01-05 07:03:14.66	285.17	16.78	-33.5	-34.3	23.1	0.00e+00	0	22	101	2391801856	44	6433
2026-01-05 07:03:15.66	285.39	16.77	-33.6	-34.5	23.0	0.00e+00	0	22	101	2391801856	44	6560
2026-01-05 07:03:16.66	285.62	16.76	-33.6	-34.5	23.0	0.00e+00	0	22	101	2391801856	44	6558
2026-01-05 07:03:17.67	285.84	16.76	-33.5	-34.3	23.1	0.00e+00	0	22	101	2392850432	44	6425
2026-01-05 07:03:18.69	286.07	16.75	-33.5	-34.4	23.0	0.00e+00	0	22	101	2392850432	44	6477
2026-01-05 07:03:19.70	286.30	16.73	-33.4	-34.2	23.1	0.00e+00	0	22	101	2392850432	44	6374
2026-01-05 07:03:20.71	286.52	16.72	-33.7	-34.5	23.0	0.00e+00	0	22	101	2392850432	44	6586
2026-01-05 07:03:21.72	286.75	16.71	-33.8	-34.6	23.1	0.00e+00	0	22	101	2392850432	44	6664
2026-01-05 07:03:22.73	286.98	16.70	-33.6	-34.4	22.8	0.00e+00	0	22	101	2392850432	44	6529
2026-01-05 07:03:23.74	287.20	16.69	-33.4	-34.2	23.1	0.00e+00	0	22	101	2392850432	44	6381
2026-01-05 07:03:24.75	287.43	16.68	-33.3	-34.1	23.0	0.00e+00	0	22	101	2392850432	44	6270
2026-01-05 07:03:25.76	287.65	16.66	-33.2	-34.0	23.1	0.00e+00	0	22	101	2392850432	44	6221
2026-01-05 07:03:26.77	287.87	16.65	-33.0	-33.9	23.2	0.00e+00	0	22	101	2392850432	44	6116
2026-01-05 07:03:27.79	288.10	16.64	-33.3	-34.1	23.2	0.00e+00	0	22	101	2392850432	44	6285
2026-01-05 07:03:28.80	288.33	16.62	-33.4	-34.2	23.2	0.00e+00	0	22	101	2392850432	44	6374
2026-01-05 07:03:29.81	288.55	16.61	-33.7	-34.5	23.2	0.00e+00	0	22	101	2392850432	44	6589
2026-01-05 07:03:30.82	288.77	16.59	-34.1	-34.9	23.0	0.00e+00	0	22	101	2392850432	46	6144
2026-01-05 07:03:31.83	289.00	16.58	-33.9	-34.7	23.2	0.00e+00	0	22	101	2392850432	46	6027
2026-01-05 07:03:32.84	289.22	16.56	-33.7	-34.5	23.2	0.00e+00	0	22	101	2392850432	46	5882
2026-01-05 07:03:33.85	289.44	16.55	-33.4	-34.3	23.2	0.00e+00	0	22	101	2392850432	46	5717
2026-01-05 07:03:34.86	289.67	16.53	-33.9	-34.7	23.2	0.00e+00	0	22	101	2392850432	46	5988
2026-01-05 07:03:35.88	289.89	16.51	-33.6	-34.4	23.1	0.00e+00	0	22	101	2392850432	46	5782
2026-01-05 07:03:36.89	290.11	16.49	-33.4	-34.3	23.2	0.00e+00	0	22	101	2392850432	46	5699
2026-01-05 07:03:37.90	290.33	16.48	-34.1	-34.9	23.3	0.00e+00	0	22	101	2392850432	46	6170
2026-01-05 07:03:38.91	290.56	16.46	-34.1	-34.9	23.2	0.00e+00	0	22	101	2392850432	46	6104
2026-01-05 07:03:39.92	290.78	16.44	-34.0	-34.8	23.3	0.00e+00	0	22	101	2392850432	46	6065
2026-01-05 07:03:40.93	291.00	16.42	-34.5	-35.3	23.2	0.00e+00	0	22	101	2392850432	46	6451
2026-01-05 07:03:41.94	291.22	16.40	-34.0	-34.8	23.1	0.00e+00	0	22	101	2392850432	46	6082
2026-01-05 07:03:42.95	291.44	16.38	-34.7	-35.5	23.2	0.00e+00	0	22	101	2392850432	46	6552
2026-01-05 07:03:43.96	291.66	16.36	-33.8	-34.6	23.1	0.00e+00	0	22	101	2392850432	46	5933
2026-01-05 07:03:44.97	291.88	16.34	-34.1	-35.0	23.1	0.00e+00	0	22	101	2392850432	46	6190
2026-01-05 07:03:45.98	292.10	16.32	-34.2	-35.0	23.2	0.00e+00	0	22	101	2392850432	46	6215
2026-01-05 07:03:47.00	292.32	16.30	-34.1	-34.9	23.2	0.00e+00	0	22	101	2392850432	46	6147
2026-01-05 07:03:48.01	292.54	16.28	-33.9	-34.7	23.2	0.00e+00	0	22	101	2392850432	46	6007
2026-01-05 07:03:49.02	292.76	16.26	-34.2	-35.0	23.2	0.00e+00	0	22	101	2392850432	46	6234
2026-01-05 07:03:50.03	292.98	16.23	-33.8	-34.6	23.2	0.00e+00	0	22	101	2392850432	46	5961
2026-01-05 07:03:51.04	293.20	16.21	-33.9	-34.7	23.2	0.00e+00	0	22	101	2392850432	46	6022
2026-01-05 07:03:52.05	293.41	16.19	-34.2	-35.0	23.2	0.00e+00	0	22	101	2392850432	46	6217
2026-01-05 07:03:53.06	293.63	16.16	-34.1	-34.9	23.3	0.00e+00	0	22	101	2392850432	46	6118
2026-01-05 07:03:54.07	293.85	16.14	-34.4	-35.2	23.1	0.00e+00	0	22	101	2392850432	46	6350
2026-01-05 07:03:55.09	294.07	16.12	-34.5	-35.3	23.0	0.00e+00	0	22	101	2392850432	46	6438
2026-01-05 07:03:56.10	294.28	16.09	-34.5	-35.3	23.2	0.00e+00	0	22	101	2392850432	46	6455
2026-01-05 07:03:57.11	294.50	16.07	-34.2	-35.0	23.1	0.00e+00	0	22	101	2392850432	46	6192
2026-01-05 07:03:58.12	294.72	16.04	-34.0	-34.8	23.1	0.00e+00	0	22	101	2392850432	46	6086
2026-01-05 07:03:59.13	294.93	16.02	-33.8	-34.7	23.1	0.00e+00	0	22	101	2392850432	46	5982
2026-01-05 07:04:00.14	295.15	15.99	-34.0	-34.8	23.1	0.00e+00	0	22	101	2392850432	46	6089
2026-01-05 07:04:01.15	295.36	15.96	-33.7	-34.6	23.2	0.00e+00	0	22	101	2392850432	46	5900
2026-01-05 07:04:02.16	295.58	15.94	-33.5	-34.3	23.2	0.00e+00	0	22	101	2392850432	46	5737
2026-01-05 07:04:03.18	295.79	15.91	-33.7	-34.5	23.2	0.00e+00	0	22	101	2392850432	46	5843
2026-01-05 07:04:04.19	296.01	15.88	-34.1	-34.9	23.1	0.00e+00	0	22	101	2392850432	46	6164
2026-01-05 07:04:05.20	296.22	15.85	-34.2	-35.1	23.0	0.00e+00	0	22	101	2392850432	46	6263
2026-01-05 07:04:06.21	296.43	15.83	-34.0	-34.9	23.0	0.00e+00	0	22	101	2392850432	46	6104
2026-01-05 07:04:07.22	296.64	15.80	-34.3	-35.1	23.0	0.00e+00	0	22	101	2392850432	46	6288
2026-01-05 07:04:08.23	296.86	15.77	-34.6	-35.4	23.0	0.00e+00	0	22	101	2392850432	46	6497
2026-01-05 07:04:09.24	297.07	15.74	-34.3	-35.1	23.0	0.00e+00	0	22	101	2392850432	46	6315
2026-01-05 07:04:10.25	297.28	15.71	-34.5	-35.4	22.8	0.00e+00	0	22	101	2392850432	46	6508
2026-01-05 07:04:11.26	297.49	15.68	-34.3	-35.1	23.0	0.00e+00	0	22	101	2392850432	46	6316
2026-01-05 07:04:12.27	297.70	15.65	-33.8	-34.6	22.9	0.00e+00	0	22	101	2392850432	46	5923
2026-01-05 07:04:13.29	297.91	15.62	-34.0	-34.9	22.9	0.00e+00	0	22	101	2392850432	46	6106
2026-01-05 07:04:14.30	298.12	15.59	-34.0	-34.9	22.9	0.00e+00	0	22	101	2392850432	46	6120
2026-01-05 07:04:15.31	298.33	15.56	-34.2	-35.0	22.8	0.00e+00	0	22	101	2392850432	46	6243
2026-01-05 07:04:16.32	298.54	15.53	-33.9	-34.7	22.9	0.00e+00	0	22	101	2392850432	46	6016
2026-01-05 07:04:17.33	298.75	15.50	-33.8	-34.7	22.9	0.00e+00	0	22	101	2392850432	46	5983
2026-01-05 07:04:18.34	298.96	15.46	-34.3	-35.2	22.7	0.00e+00	0	22	101	2392850432	46	6319
2026-01-05 07:04:19.35	299.16	15.43	-34.7	-35.5	22.9	0.00e+00	0	22	101	2392850432	46	6607
2026-01-05 07:04:20.36	299.37	15.40	-34.4	-35.2	22.8	0.00e+00	0	22	101	2392850432	46	6374
2026-01-05 07:04:21.37	299.58	15.37	-34.0	-34.8	22.9	0.00e+00	0	22	101	2392850432	46	6080
2026-01-05 07:04:22.39	299.78	15.33	-34.0	-34.8	22.9	0.00e+00	0	22	101	2392850432	46	6081
2026-01-05 07:04:23.40	299.99	15.30	-34.1	-34.9	22.9	0.00e+00	0	22	101	2392850432	46	6145
2026-01-05 07:04:24.41	300.19	15.27	-34.2	-35.1	23.0	0.00e+00	0	22	101	2392850432	46	6272
2026-01-05 07:04:25.42	300.40	15.23	-34.4	-35.2	23.0	0.00e+00	0	22	101	2392850432	46	6339
2026-01-05 07:04:26.43	300.60	15.20	-34.6	-35.5	22.8	0.00e+00	0	22	101	2392850432	46	6545
2026-01-05 07:04:27.44	300.81	15.16	-34.5	-35.4	23.0	0.00e+00	0	22	101	2392850432	48	5778
2026-01-05 07:04:28.45	301.01	15.13	-34.5	-35.4	22.8	0.00e+00	0	22	101	2392850432	48	5771
2026-01-05 07:04:29.46	301.21	15.09	-34.1	-34.9	23.1	0.00e+00	0	22	101	2392850432	46	6156
2026-01-05 07:04:30.47	301.42	15.06	-34.3	-35.1	23.2	0.00e+00	0	22	101	2392850432	48	5583
2026-01-05 07:04:31.49	301.62	15.02	-34.4	-35.2	23.3	0.00e+00	0	22	101	2392850432	46	6361
2026-01-05 07:04:32.50	301.82	14.99	-34.5	-35.1	26.2	0.00e+00	0	22	101	2392850432	46	6262
2026-01-05 07:04:33.51	302.02	14.95	-33.9	-34.6	26.2	0.00e+00	0	22	101	2392850432	46	5902
2026-01-05 07:04:34.52	302.22	14.91	-34.0	-34.6	26.2	0.00e+00	0	22	101	2392850432	46	5936
2026-01-05 07:04:35.53	302.42	14.88	-34.1	-34.8	26.1	0.00e+00	0	22	101	2392850432	46	6038
2026-01-05 07:04:36.54	302.62	14.84	-34.4	-35.0	26.1	0.00e+00	0	22	101	2392850432	46	6228
2026-01-05 07:04:37.55	302.82	14.80	-34.6	-35.2	26.1	0.00e+00	0	22	101	2392850432	46	6328
2026-01-05 07:04:38.56	303.02	14.76	-34.3	-34.9	26.1	0.00e+00	0	22	101	2392850432	46	6147
2026-01-05 07:04:39.57	303.22	14.73	-34.5	-35.2	26.1	0.00e+00	0	22	101	2392850432	46	6341
2026-01-05 07:04:40.59	303.42	14.69	-34.7	-35.3	26.0	0.00e+00	0	22	101	2392850432	48	5712
2026-01-05 07:04:41.60	303.61	14.65	-34.4	-35.0	26.1	0.00e+00	0	22	101	2392850432	48	5554
2026-01-05 07:04:42.61	303.81	14.61	-34.5	-35.1	25.9	0.00e+00	0	22	101	2392850432	48	5628
2026-01-05 07:04:43.62	304.01	14.57	-35.3	-35.9	25.9	0.00e+00	0	22	101	2392850432	48	6114
2026-01-05 07:04:44.63	304.20	14.53	-34.9	-35.5	25.7	0.00e+00	0	22	101	2392850432	48	5889
2026-01-05 07:04:45.64	304.40	14.49	-34.7	-35.3	25.7	0.00e+00	0	22	101	2392850432	48	5751
2026-01-05 07:04:46.65	304.59	14.45	-35.0	-35.6	25.4	0.00e+00	0	22	101	2392850432	48	5933
2026-01-05 07:04:47.66	304.78	14.41	-35.8	-36.5	25.2	0.00e+00	0	22	101	2392850432	50	5838
2026-01-05 07:04:48.67	304.98	14.37	-35.3	-36.0	25.3	0.00e+00	0	22	101	2392850432	48	6187
2026-01-05 07:04:49.68	305.17	14.33	-35.7	-36.4	25.3	0.00e+00	0	22	101	2392850432	48	6483
2026-01-05 07:04:50.70	305.37	14.29	-35.2	-35.8	25.4	0.00e+00	0	22	101	2392850432	48	6068
2026-01-05 07:04:51.71	305.56	14.25	-35.7	-36.3	25.4	0.00e+00	0	22	101	2392850432	48	6456
2026-01-05 07:04:52.72	305.75	14.21	-35.1	-35.7	25.6	0.00e+00	0	22	101	2392850432	48	5990
2026-01-05 07:04:53.73	305.94	14.17	-34.9	-35.5	25.6	0.00e+00	0	22	101	2392850432	48	5873
2026-01-05 07:04:54.74	306.13	14.13	-34.7	-35.4	25.5	0.00e+00	0	22	101	2392850432	48	5767
2026-01-05 07:04:55.75	306.32	14.09	-34.8	-35.5	25.6	0.00e+00	0	22	101	2392850432	48	5843
2026-01-05 07:04:56.76	306.51	14.04	-35.0	-35.6	25.5	0.00e+00	0	22	101	2392850432	48	5952
2026-01-05 07:04:57.77	306.70	14.00	-35.9	-36.5	25.6	0.00e+00	0	22	101	2392850432	48	6614
2026-01-05 07:04:58.78	306.89	13.96	-35.1	-35.7	25.7	0.00e+00	0	22	101	2392850432	48	6033
2026-01-05 07:04:59.80	307.08	13.92	-35.3	-36.0	25.6	0.00e+00	0	22	101	2392850432	48	6208
2026-01-05 07:05:00.81	307.26	13.87	-35.5	-36.1	25.8	0.00e+00	0	22	101	2392850432	48	6302
2026-01-05 07:05:01.82	307.45	13.83	-34.6	-35.2	25.6	0.00e+00	0	22	101	2392850432	48	5674
2026-01-05 07:05:02.83	307.64	13.79	-34.7	-35.3	25.7	0.00e+00	0	22	101	2392850432	48	5756
2026-01-05 07:05:03.84	307.82	13.75	-34.7	-35.3	25.8	0.00e+00	0	22	101	2392850432	48	5734
2026-01-05 07:05:04.85	308.01	13.70	-35.1	-35.8	25.6	0.00e+00	0	22	101	2392850432	48	6039
2026-01-05 07:05:05.86	308.19	13.66	-34.6	-35.2	25.7	0.00e+00	0	22	101	2392850432	48	5683
2026-01-05 07:05:06.87	308.38	13.61	-35.4	-36.1	25.6	0.00e+00	0	22	101	2392850432	48	6257
2026-01-05 07:05:07.88	308.56	13.57	-35.1	-35.7	25.6	0.00e+00	0	22	101	2392850432	48	6012
2026-01-05 07:05:08.90	308.74	13.53	-35.2	-35.8	25.5	0.00e+00	0	22	101	2392850432	48	6100
2026-01-05 07:05:09.91	308.93	13.48	-35.3	-35.9	25.7	0.00e+00	0	22	101	2392850432	48	6165
2026-01-05 07:05:10.92	309.11	13.44	-35.4	-36.0	25.7	0.00e+00	0	22	101	2392850432	48	6216
2026-01-05 07:05:11.93	309.29	13.39	-35.3	-36.0	25.2	0.00e+00	0	22	101	2392850432	50	5525
2026-01-05 07:05:12.94	309.47	13.35	-35.4	-36.0	25.8	0.00e+00	0	22	101	2392850432	48	6230
2026-01-05 07:05:13.95	309.65	13.30	-35.5	-36.1	25.6	0.00e+00	0	23	101	2392850432	50	5614
2026-01-05 07:05:14.96	309.83	13.26	-35.2	-35.8	25.6	0.00e+00	0	22	101	2392850432	48	6057
2026-01-05 07:05:15.97	310.01	13.21	-35.4	-36.0	25.6	0.00e+00	0	23	101	2392850432	48	6175
2026-01-05 07:05:16.98	310.19	13.17	-35.2	-35.9	25.1	0.00e+00	0	22	101	2392850432	50	5451
2026-01-05 07:05:17.99	310.37	13.12	-35.4	-36.1	25.3	0.00e+00	0	22	101	2392850432	50	5571
2026-01-05 07:05:19.01	310.55	13.07	-35.3	-35.9	25.1	0.00e+00	0	22	101	2392850432	50	5499
2026-01-05 07:05:20.02	310.72	13.03	-35.0	-35.7	25.0	0.00e+00	0	22	101	2392850432	48	5988
2026-01-05 07:05:21.03	310.90	12.98	-35.3	-35.9	25.0	0.00e+00	0	22	101	2392850432	48	6166
2026-01-05 07:05:22.04	311.08	12.93	-34.9	-35.5	25.1	0.00e+00	0	23	101	2392850432	48	5896
2026-01-05 07:05:23.05	311.25	12.89	-34.7	-35.3	25.4	0.00e+00	0	22	101	2392850432	48	5749
2026-01-05 07:05:24.06	311.43	12.84	-34.7	-35.3	25.3	0.00e+00	0	22	101	2392850432	48	5726
2026-01-05 07:05:25.07	311.60	12.79	-35.1	-35.8	25.2	0.00e+00	0	22	101	2392850432	48	6044
2026-01-05 07:05:26.08	311.77	12.75	-35.6	-36.2	25.2	0.00e+00	0	22	101	2392850432	48	6388
2026-01-05 07:05:27.09	311.95	12.70	-35.4	-36.1	25.4	0.00e+00	0	22	101	2392850432	48	6262
2026-01-05 07:05:28.10	312.12	12.65	-36.2	-36.9	25.2	0.00e+00	0	22	101	2392850432	50	6108
2026-01-05 07:05:29.12	312.29	12.60	-35.5	-36.1	25.3	0.00e+00	0	22	101	2392850432	50	5606
2026-01-05 07:05:30.13	312.47	12.56	-35.3	-35.9	25.2	0.00e+00	0	22	101	2392850432	50	5451
2026-01-05 07:05:31.14	312.64	12.51	-35.7	-36.3	25.5	0.00e+00	0	23	101	2392850432	48	6440
2026-01-05 07:05:32.15	312.81	12.46	-35.2	-35.9	25.3	0.00e+00	0	23	101	2392850432	48	6120
2026-01-05 07:05:33.16	312.98	12.41	-35.1	-35.7	25.3	0.00e+00	0	22	101	2392850432	50	5367
2026-01-05 07:05:34.17	313.15	12.36	-35.3	-36.0	25.1	0.00e+00	0	23	101	2392850432	48	6200
2026-01-05 07:05:35.18	313.32	12.32	-35.5	-36.1	25.2	0.00e+00	0	22	101	2392850432	48	6293
2026-01-05 07:05:36.19	313.48	12.27	-35.6	-36.2	24.9	0.00e+00	0	22	101	2392850432	50	5683
2026-01-05 07:05:37.21	313.65	12.22	-35.4	-36.0	24.8	0.00e+00	0	22	101	2392850432	50	5531
2026-01-05 07:05:38.22	313.82	12.17	-35.3	-35.9	25.2	0.00e+00	0	22	101	2392850432	50	5474
2026-01-05 07:05:39.23	313.99	12.12	-35.4	-36.0	25.1	0.00e+00	0	22	101	2392850432	50	5556
2026-01-05 07:05:40.24	314.15	12.07	-35.3	-35.9	25.1	0.00e+00	0	22	101	2392850432	50	5476
2026-01-05 07:05:41.25	314.32	12.02	-36.4	-37.1	24.3	0.00e+00	0	22	101	2392850432	50	6271
2026-01-05 07:05:42.26	314.49	11.97	-36.4	-37.2	24.8	0.00e+00	0	22	101	2392850432	50	6335
2026-01-05 07:05:43.27	314.65	11.93	-37.0	-37.6	24.0	0.00e+00	0	22	101	2392850432	52	5943
2026-01-05 07:05:44.28	314.81	11.88	-37.2	-37.8	24.7	0.00e+00	0	22	101	2392850432	52	6098
2026-01-05 07:05:45.30	314.98	11.83	-36.5	-37.2	24.7	0.00e+00	0	22	101	2392850432	50	6365
2026-01-05 07:05:46.31	315.14	11.78	-35.6	-36.2	24.9	0.00e+00	0	22	101	2392850432	50	5693
2026-01-05 07:05:47.32	315.31	11.73	-35.3	-36.0	24.8	0.00e+00	0	22	101	2392850432	50	5519
2026-01-05 07:05:48.33	315.47	11.68	-36.2	-36.8	24.8	0.00e+00	0	22	101	2392850432	50	6082
2026-01-05 07:05:49.34	315.63	11.63	-35.7	-36.3	24.7	0.00e+00	0	22	101	2392850432	50	5757
2026-01-05 07:05:50.35	315.79	11.58	-37.7	-38.3	24.5	0.00e+00	0	22	101	2392850432	54	5759
2026-01-05 07:05:51.36	315.95	11.53	-38.1	-38.7	24.0	0.00e+00	0	22	101	2392850432	52	6731
2026-01-05 07:05:52.37	316.11	11.48	-37.7	-38.3	24.0	0.00e+00	0	22	101	2392850432	52	6436
2026-01-05 07:05:53.38	316.27	11.43	-36.7	-37.3	24.4	0.00e+00	0	22	101	2392850432	52	5755
2026-01-05 07:05:54.39	316.43	11.38	-36.7	-37.3	24.3	0.00e+00	0	22	101	2392850432	52	5754
2026-01-05 07:05:55.41	316.59	11.33	-36.2	-36.9	24.4	0.00e+00	0	22	101	2392850432	50	6120
2026-01-05 07:05:56.42	316.75	11.28	-36.0	-36.6	24.6	0.00e+00	0	22	101	2392850432	50	5940
2026-01-05 07:05:57.43	316.90	11.22	-36.2	-36.8	24.6	0.00e+00	0	22	101	2392850432	50	6074
2026-01-05 07:05:58.44	317.06	11.17	-35.6	-36.3	24.8	0.00e+00	0	22	101	2392850432	50	5730
2026-01-05 07:05:59.45	317.22	11.12	-35.4	-36.0	24.8	0.00e+00	0	22	101	2392850432	50	5544
2026-01-05 07:06:00.46	317.37	11.07	-35.9	-36.6	24.6	0.00e+00	0	22	101	2392850432	50	5908
2026-01-05 07:06:01.47	317.53	11.02	-35.4	-36.1	25.0	0.00e+00	0	22	101	2392850432	50	5567
2026-01-05 07:06:02.48	317.68	10.97	-35.0	-35.6	25.0	0.00e+00	0	22	101	2392850432	50	5310
2026-01-05 07:06:03.50	317.84	10.92	-35.3	-35.9	24.9	0.00e+00	0	22	101	2392850432	48	6143
2026-01-05 07:06:04.51	317.99	10.87	-35.3	-36.0	24.8	0.00e+00	0	22	101	2392850432	48	6200
2026-01-05 07:06:05.52	318.14	10.82	-35.9	-36.5	24.8	0.00e+00	0	22	101	2392850432	48	6575
2026-01-05 07:06:06.53	318.30	10.77	-36.1	-36.8	24.6	0.00e+00	0	22	101	2392850432	50	6088
2026-01-05 07:06:07.54	318.45	10.71	-35.4	-36.1	24.8	0.00e+00	0	23	101	2392850432	50	5612
2026-01-05 07:06:08.55	318.60	10.66	-35.5	-36.2	24.6	0.00e+00	0	22	101	2392850432	50	5652
2026-01-05 07:06:09.56	318.75	10.61	-36.1	-36.8	24.2	0.00e+00	0	22	101	2392850432	50	6041
2026-01-05 07:06:10.57	318.90	10.56	-35.9	-36.5	24.4	0.00e+00	0	22	101	2392850432	50	5878
2026-01-05 07:06:11.58	319.05	10.51	-35.8	-36.5	24.1	0.00e+00	0	22	101	2392850432	50	5849
2026-01-05 07:06:12.59	319.20	10.46	-36.0	-36.6	24.2	0.00e+00	0	22	101	2392850432	50	5954
2026-01-05 07:06:13.61	319.35	10.40	-35.9	-36.5	24.2	0.00e+00	0	22	101	2392850432	50	5886
2026-01-05 07:06:14.62	319.50	10.35	-37.0	-37.7	24.0	0.00e+00	0	22	101	2392850432	50	6726
2026-01-05 07:06:15.63	319.65	10.30	-35.8	-36.5	24.3	0.00e+00	0	22	101	2392850432	50	5859
2026-01-05 07:06:16.64	319.79	10.25	-36.5	-37.1	24.3	0.00e+00	0	22	101	2392850432	50	6305
2026-01-05 07:06:17.65	319.94	10.20	-36.6	-37.3	24.4	0.00e+00	0	22	101	2392850432	50	6392
2026-01-05 07:06:18.66	320.09	10.14	-36.5	-37.2	24.2	0.00e+00	0	22	101	2392850432	50	6339
2026-01-05 07:06:19.67	320.23	10.09	-36.0	-36.7	24.5	0.00e+00	0	22	101	2392850432	50	5995
2026-01-05 07:06:20.68	320.38	10.04	-35.8	-36.4	24.6	0.00e+00	0	23	101	2392850432	50	5812
2026-01-05 07:06:21.69	320.52	9.99	-36.0	-36.6	24.5	0.00e+00	0	22	101	2392850432	50	5958
2026-01-05 07:06:22.71	320.67	9.94	-35.6	-36.2	24.6	0.00e+00	0	22	101	2392850432	50	5680
2026-01-05 07:06:23.72	320.81	9.88	-35.8	-36.4	24.6	0.00e+00	0	22	101	2392850432	50	5799
2026-01-05 07:06:24.73	320.96	9.83	-35.5	-36.1	24.7	0.00e+00	0	22	101	2392850432	50	5626
2026-01-05 07:06:25.74	321.10	9.78	-35.5	-36.1	24.5	0.00e+00	0	22	101	2392850432	50	5621
2026-01-05 07:06:26.75	321.24	9.73	-35.4	-36.1	24.6	0.00e+00	0	22	101	2392850432	50	5592
2026-01-05 07:06:27.76	321.38	9.67	-35.6	-36.2	24.5	0.00e+00	0	22	101	2392850432	50	5651
2026-01-05 07:06:28.77	321.53	9.62	-36.3	-36.9	24.3	0.00e+00	0	22	101	2392850432	50	6152
2026-01-05 07:06:29.78	321.67	9.57	-36.6	-37.3	24.1	0.00e+00	0	22	101	2392850432	50	6417
2026-01-05 07:06:30.79	321.81	9.52	-36.5	-37.1	23.9	0.00e+00	0	22	101	2392850432	50	6304
2026-01-05 07:06:31.81	321.95	9.46	-36.2	-36.9	24.1	0.00e+00	0	22	101	2392850432	50	6106
2026-01-05 07:06:32.82	322.09	9.41	-35.9	-36.6	24.1	0.00e+00	0	22	101	2392850432	50	5908
2026-01-05 07:06:33.83	322.23	9.36	-35.6	-36.3	24.2	0.00e+00	0	22	101	2392850432	50	5728
2026-01-05 07:06:34.84	322.37	9.31	-36.0	-36.7	24.1	0.00e+00	0	22	101	2392850432	50	6000
2026-01-05 07:06:35.85	322.50	9.25	-35.9	-36.6	24.1	0.00e+00	0	22	101	2392850432	50	5921
2026-01-05 07:06:36.86	322.64	9.20	-36.2	-36.9	23.9	0.00e+00	0	23	101	2392850432	50	6128
2026-01-05 07:06:37.87	322.78	9.15	-36.5	-37.2	24.0	0.00e+00	0	22	101	2392850432	52	5683
2026-01-05 07:06:38.88	322.91	9.09	-37.1	-37.7	23.6	0.00e+00	0	23	101	2392850432	52	6031
2026-01-05 07:06:39.89	323.05	9.04	-37.4	-38.1	23.7	0.00e+00	0	22	101	2392850432	52	6261
2026-01-05 07:06:40.91	323.19	8.99	-37.1	-37.8	23.6	0.00e+00	0	23	101	2392850432	52	6078
2026-01-05 07:06:41.92	323.32	8.94	-36.7	-37.4	23.7	0.00e+00	0	22	101	2392850432	52	5792
2026-01-05 07:06:42.93	323.46	8.88	-36.6	-37.3	23.8	0.00e+00	0	22	101	2392850432	52	5720
2026-01-05 07:06:43.94	323.59	8.83	-36.3	-37.0	23.8	0.00e+00	0	22	101	2392850432	52	5543
2026-01-05 07:06:44.95	323.73	8.78	-36.3	-37.0	24.1	0.00e+00	0	23	101	2392850432	52	5531
2026-01-05 07:06:45.96	323.86	8.72	-37.5	-38.2	23.2	0.00e+00	0	23	101	2392850432	52	6341
2026-01-05 07:06:46.97	323.99	8.67	-36.3	-37.0	23.7	0.00e+00	0	22	101	2392850432	52	5514
2026-01-05 07:06:47.98	324.12	8.62	-36.9	-37.7	23.7	0.00e+00	0	22	101	2392850432	52	6005
2026-01-05 07:06:48.99	324.26	8.57	-36.2	-36.8	24.0	0.00e+00	0	22	101	2392850432	52	5434
2026-01-05 07:06:50.01	324.39	8.51	-36.2	-36.8	24.0	0.00e+00	0	22	101	2392850432	50	6055
2026-01-05 07:06:51.02	324.52	8.46	-36.1	-36.8	24.1	0.00e+00	0	22	101	2392850432	50	6068
2026-01-05 07:06:52.03	324.65	8.41	-36.0	-36.7	24.2	0.00e+00	0	23	101	2392850432	50	5990
2026-01-05 07:06:53.04	324.78	8.35	-36.1	-36.7	24.1	0.00e+00	0	23	101	2392850432	50	6029
2026-01-05 07:06:54.05	324.91	8.30	-36.0	-36.7	23.7	0.00e+00	0	22	101	2392850432	50	6013
2026-01-05 07:06:55.06	325.04	8.25	-35.6	-36.3	24.1	0.00e+00	0	22	101	2392850432	50	5740
2026-01-05 07:06:56.07	325.17	8.19	-35.6	-36.3	24.3	0.00e+00	0	22	101	2392850432	50	5720
2026-01-05 07:06:57.08	325.30	8.14	-35.7	-36.4	24.0	0.00e+00	0	22	101	2392850432	50	5784
2026-01-05 07:06:58.09	325.42	8.09	-35.9	-36.5	24.2	0.00e+00	0	23	101	2392850432	50	5881
2026-01-05 07:06:59.11	325.55	8.03	-35.5	-36.2	24.1	0.00e+00	0	22	101	2392850432	50	5646
2026-01-05 07:07:00.12	325.68	7.98	-35.6	-36.3	24.0	0.00e+00	0	22	101	2392850432	50	5714
2026-01-05 07:07:01.13	325.81	7.93	-36.2	-36.8	23.7	0.00e+00	0	22	101	2392850432	50	6102
2026-01-05 07:07:02.14	325.93	7.87	-36.3	-37.0	23.6	0.00e+00	0	22	101	2392850432	50	6215
2026-01-05 07:07:03.15	326.06	7.82	-36.6	-37.3	23.8	0.00e+00	0	22	101	2392850432	50	6403
2026-01-05 07:07:04.16	326.18	7.77	-36.5	-37.2	23.7	0.00e+00	0	22	101	2392850432	50	6343
2026-01-05 07:07:05.17	326.31	7.72	-37.3	-38.0	23.8	0.00e+00	0	22	101	2392850432	52	6215
2026-01-05 07:07:06.18	326.43	7.66	-36.9	-37.6	23.4	0.00e+00	0	22	101	2392850432	52	5957
2026-01-05 07:07:07.19	326.56	7.61	-36.8	-37.5	23.2	0.00e+00	0	23	101	2392850432	52	5896
2026-01-05 07:07:08.20	326.68	7.56	-36.6	-37.3	23.2	0.00e+00	0	23	101	2392850432	52	5750
2026-01-05 07:07:09.22	326.80	7.50	-36.6	-37.3	23.3	0.00e+00	0	23	101	2392850432	52	5736
2026-01-05 07:07:10.23	326.93	7.45	-37.0	-37.8	22.7	0.00e+00	0	22	101	2392850432	52	6047
2026-01-05 07:07:11.24	327.05	7.40	-36.5	-37.2	22.9	0.00e+00	0	22	101	2392850432	52	5669
2026-01-05 07:07:12.25	327.17	7.34	-36.8	-37.5	23.1	0.00e+00	0	23	101	2392850432	52	5874
2026-01-05 07:07:13.26	327.29	7.29	-36.5	-37.2	23.2	0.00e+00	0	23	101	2392850432	52	5679
2026-01-05 07:07:14.27	327.41	7.24	-36.3	-37.0	23.5	0.00e+00	0	23	101	2392850432	52	5539
2026-01-05 07:07:15.28	327.53	7.18	-36.8	-37.5	23.3	0.00e+00	0	23	101	2392850432	52	5837
2026-01-05 07:07:16.29	327.65	7.13	-36.5	-37.2	23.2	0.00e+00	0	22	101	2392850432	52	5682
2026-01-05 07:07:17.30	327.77	7.08	-36.4	-37.1	23.5	0.00e+00	0	22	101	2392850432	52	5601
2026-01-05 07:07:18.32	327.89	7.02	-36.4	-37.1	23.4	0.00e+00	0	23	101	2392850432	52	5598
2026-01-05 07:07:19.33	328.01	6.97	-36.6	-37.3	23.5	0.00e+00	0	23	101	2392850432	52	5747
2026-01-05 07:07:20.34	328.13	6.92	-36.9	-37.6	23.6	0.00e+00	0	23	101	2392850432	52	5960
2026-01-05 07:07:21.35	328.25	6.86	-36.3	-37.0	23.3	0.00e+00	0	22	101	2392850432	52	5563
2026-01-05 07:07:22.36	328.36	6.81	-36.1	-36.8	23.5	0.00e+00	0	23	101	2392850432	50	6045
2026-01-05 07:07:23.37	328.48	6.76	-36.2	-36.9	23.5	0.00e+00	0	22	101	2392850432	50	6130
2026-01-05 07:07:24.38	328.60	6.71	-36.3	-37.0	23.2	0.00e+00	0	23	101	2392850432	50	6204
2026-01-05 07:07:25.39	328.71	6.65	-36.2	-36.9	23.2	0.00e+00	0	23	101	2392850432	50	6171
2026-01-05 07:07:26.41	328.83	6.60	-36.2	-36.9	23.1	0.00e+00	0	23	101	2392850432	50	6168
2026-01-05 07:07:27.42	328.95	6.55	-36.3	-37.0	23.1	0.00e+00	0	23	101	2392850432	50	6230
2026-01-05 07:07:28.43	329.06	6.49	-36.5	-37.3	23.1	0.00e+00	0	23	101	2392850432	50	6416
2026-01-05 07:07:29.44	329.18	6.44	-36.5	-37.3	23.0	0.00e+00	0	23	101	2392850432	50	6397
2026-01-05 07:07:30.45	329.29	6.39	-36.6	-37.4	23.0	0.00e+00	0	23	101	2392850432	50	6467
2026-01-05 07:07:31.46	329.41	6.33	-36.7	-37.4	23.0	0.00e+00	0	23	101	2392850432	50	6514
2026-01-05 07:07:32.47	329.52	6.28	-36.8	-37.6	23.0	0.00e+00	0	23	101	2392850432	52	5905
2026-01-05 07:07:33.49	329.63	6.23	-36.7	-37.4	23.0	0.00e+00	0	23	101	2392850432	52	5772
2026-01-05 07:07:34.50	329.75	6.18	-36.5	-37.2	23.2	0.00e+00	0	23	101	2392850432	52	5644
2026-01-05 07:07:35.51	329.86	6.12	-36.6	-37.3	22.9	0.00e+00	0	23	101	2392850432	52	5739
2026-01-05 07:07:36.52	329.97	6.07	-36.7	-37.5	22.7	0.00e+00	0	23	101	2392850432	52	5838
2026-01-05 07:07:37.53	330.08	6.02	-36.6	-37.3	22.9	0.00e+00	0	22	101	2392850432	52	5743
2026-01-05 07:07:38.54	330.19	5.96	-37.1	-37.8	22.7	0.00e+00	0	23	101	2392850432	52	6093
2026-01-05 07:07:39.55	330.30	5.91	-36.9	-37.6	22.9	0.00e+00	0	23	101	2392850432	52	5940
2026-01-05 07:07:40.56	330.41	5.86	-36.8	-37.5	23.1	0.00e+00	0	23	101	2392850432	52	5857
2026-01-05 07:07:41.57	330.52	5.81	-36.7	-37.5	22.8	0.00e+00	0	23	101	2392850432	52	5833
2026-01-05 07:07:42.58	330.63	5.75	-36.6	-37.3	22.8	0.00e+00	0	23	101	2392850432	52	5715
