passes_logs/2026/01/05/R4.6S_Anadyr_2ch/R4.6S_Anadyr_2ch__20260105_024939_NOAA_20_JPSS-1_rec.log

#Pass ID: 20260105_024939_NOAA 20 (JPSS-1)
#Satellite: NOAA 20 (JPSS-1)
#Configuration: NOAA 20
#almurnet v.1.7.20251203
#Start time: 2026-01-05 02:49:41

#Version: 2.2.20231116
#Station: R4.6S_Anadyr_2ch
#Location: 177.4865 lon 64.73178 lat
#TLE: 1 43013U 17073A   25350.93759711  .00000080  00000+0  58734-4 0  9994
#TLE: 2 43013  98.7603 287.1885 0002156  81.1496 278.9924 14.19526878418610

#Time	Az	El	Level	Level2	SNR	BER	BlckErr	Temp	State	Recorded	gain1	gain2
2026-01-05 02:49:41.35	225.55	0.08	-51.9	-67.0	3.5	1.51e+00	0	23	0	0	60	109015
2026-01-05 02:49:42.36	225.63	0.13	-52.6	-68.0	3.6	1.51e+00	0	24	104	0	60	122072
2026-01-05 02:49:43.37	225.71	0.18	-51.8	-67.2	3.6	1.51e+00	0	24	104	0	60	112225
2026-01-05 02:49:44.38	225.79	0.23	-52.3	-67.7	3.6	1.51e+00	0	25	104	0	60	117803
2026-01-05 02:49:45.39	225.87	0.27	-52.0	-67.5	3.6	1.51e+00	0	25	104	0	60	115066
2026-01-05 02:49:46.40	225.96	0.32	-51.7	-67.2	3.6	1.51e+00	0	25	104	0	60	111231
2026-01-05 02:49:47.41	226.04	0.37	-51.6	-67.0	3.6	1.51e+00	0	25	104	0	60	109402
2026-01-05 02:49:48.43	226.12	0.42	-51.4	-66.8	3.6	1.51e+00	0	25	104	0	60	106726
2026-01-05 02:49:49.44	226.20	0.46	-50.9	-66.7	3.6	1.51e+00	0	25	104	0	60	105381
2026-01-05 02:49:50.45	226.29	0.51	-51.0	-66.7	3.6	1.51e+00	0	25	104	0	60	105348
2026-01-05 02:49:51.46	226.37	0.56	-51.1	-66.6	3.6	1.51e+00	0	25	104	0	60	104761
2026-01-05 02:49:52.47	226.45	0.61	-51.2	-66.5	3.6	1.51e+00	0	25	104	0	60	103608
2026-01-05 02:49:53.48	226.54	0.66	-51.1	-66.4	3.6	1.51e+00	0	25	104	0	60	102238
2026-01-05 02:49:54.49	226.62	0.70	-50.8	-66.2	3.6	1.51e+00	0	25	104	0	60	100083
2026-01-05 02:49:55.50	226.71	0.75	-50.5	-65.9	3.6	1.51e+00	0	25	104	0	60	95902
2026-01-05 02:49:56.51	226.79	0.80	-48.9	-64.2	3.6	1.51e+00	0	25	104	0	60	79344
2026-01-05 02:49:57.53	226.88	0.85	-48.6	-64.0	3.6	1.51e+00	0	25	104	0	60	77027
2026-01-05 02:49:58.54	226.96	0.90	-48.8	-64.2	3.6	1.51e+00	0	25	104	0	60	79092
2026-01-05 02:49:59.55	227.05	0.94	-48.8	-64.1	3.6	1.51e+00	0	25	104	0	60	78511
2026-01-05 02:50:00.56	227.14	0.99	-48.6	-63.9	3.6	1.51e+00	0	25	104	0	60	76769
2026-01-05 02:50:01.57	227.22	1.04	-48.6	-64.0	3.6	1.51e+00	0	25	104	0	60	77652
2026-01-05 02:50:02.58	227.31	1.09	-48.6	-63.9	3.6	1.51e+00	0	25	104	0	60	76793
2026-01-05 02:50:03.59	227.39	1.14	-48.5	-63.9	3.6	1.51e+00	0	25	104	0	60	76675
2026-01-05 02:50:04.60	227.48	1.19	-48.6	-64.0	3.6	1.51e+00	0	25	104	0	60	76985
2026-01-05 02:50:05.61	227.57	1.23	-48.6	-64.0	3.6	1.51e+00	0	25	104	0	60	77043
2026-01-05 02:50:06.63	227.66	1.28	-48.5	-63.8	3.6	1.51e+00	0	25	104	0	60	75702
2026-01-05 02:50:07.64	227.74	1.33	-48.5	-63.9	3.6	1.51e+00	0	25	104	0	60	76249
2026-01-05 02:50:08.65	227.83	1.38	-48.6	-63.9	3.6	1.51e+00	0	25	104	0	60	76810
2026-01-05 02:50:09.66	227.92	1.43	-48.7	-64.1	3.6	1.51e+00	0	25	104	0	60	77908
2026-01-05 02:50:10.67	228.01	1.48	-48.7	-64.0	3.6	1.51e+00	0	25	104	0	60	77468
2026-01-05 02:50:11.68	228.10	1.52	-48.8	-64.2	3.6	1.51e+00	0	25	104	0	60	78828
2026-01-05 02:50:12.69	228.19	1.57	-48.7	-64.1	3.6	1.51e+00	0	25	104	0	60	77845
2026-01-05 02:50:13.71	228.28	1.62	-48.6	-63.9	3.6	1.51e+00	0	25	104	0	60	76527
2026-01-05 02:50:14.72	228.37	1.67	-48.5	-63.9	3.6	1.51e+00	0	25	104	0	60	76001
2026-01-05 02:50:15.73	228.46	1.72	-48.5	-63.8	3.5	1.51e+00	0	25	104	0	60	75824
2026-01-05 02:50:16.74	228.55	1.77	-48.5	-63.9	3.6	1.51e+00	0	25	104	0	60	76202
2026-01-05 02:50:17.75	228.64	1.82	-48.5	-63.9	3.6	1.51e+00	0	25	104	0	60	75999
2026-01-05 02:50:18.76	228.73	1.86	-48.6	-63.9	3.6	1.51e+00	0	25	104	0	60	76600
2026-01-05 02:50:19.77	228.82	1.91	-48.6	-64.0	3.6	1.51e+00	0	25	104	0	60	77260
2026-01-05 02:50:20.78	228.91	1.96	-48.6	-63.9	3.6	1.51e+00	0	25	104	0	60	76558
2026-01-05 02:50:21.79	229.00	2.01	-48.6	-63.9	3.6	1.51e+00	0	25	104	0	60	76527
2026-01-05 02:50:22.80	229.09	2.06	-48.5	-63.8	3.6	1.51e+00	0	25	104	0	60	75801
2026-01-05 02:50:23.81	229.19	2.11	-48.5	-63.9	3.6	1.51e+00	0	25	104	0	60	75961
2026-01-05 02:50:24.82	229.28	2.16	-48.6	-63.9	3.6	1.51e+00	0	25	104	0	60	76399
2026-01-05 02:50:25.84	229.37	2.21	-48.6	-63.9	3.6	1.51e+00	0	25	104	0	60	76332
2026-01-05 02:50:26.85	229.47	2.26	-48.6	-63.9	3.6	1.51e+00	0	25	104	0	60	76042
2026-01-05 02:50:27.86	229.56	2.30	-48.8	-64.0	3.6	1.51e+00	0	25	104	0	60	77650
2026-01-05 02:50:28.87	229.65	2.35	-48.7	-63.9	3.6	1.51e+00	0	25	104	0	60	76672
2026-01-05 02:50:29.88	229.75	2.40	-48.9	-64.1	3.6	1.51e+00	0	25	104	0	60	78073
2026-01-05 02:50:30.89	229.84	2.45	-48.7	-63.9	3.6	1.51e+00	0	25	104	0	60	76717
2026-01-05 02:50:31.90	229.94	2.50	-48.6	-63.9	3.6	1.51e+00	0	25	104	0	60	76277
2026-01-05 02:50:32.91	230.03	2.55	-48.7	-63.8	3.6	1.51e+00	0	25	104	0	60	75549
2026-01-05 02:50:33.92	230.13	2.60	-49.0	-64.0	3.5	1.51e+00	0	25	104	0	60	77167
2026-01-05 02:50:34.94	230.22	2.65	-48.8	-63.6	3.6	1.51e+00	0	25	104	0	60	74210
2026-01-05 02:50:35.95	230.32	2.70	-48.8	-63.6	3.6	1.51e+00	0	25	104	0	60	73717
2026-01-05 02:50:36.96	230.41	2.75	-48.7	-62.9	3.6	1.51e+00	0	25	104	0	60	68264
2026-01-05 02:50:37.97	230.51	2.79	-48.5	-62.5	3.6	1.51e+00	0	25	104	0	60	65023
2026-01-05 02:50:38.98	230.61	2.84	-48.6	-61.8	3.6	1.51e+00	0	25	104	0	60	60254
2026-01-05 02:50:39.99	230.70	2.89	-48.5	-61.6	3.6	1.50e+00	0	25	104	0	60	58465
2026-01-05 02:50:41.00	230.80	2.94	-48.5	-61.4	3.8	1.50e+00	0	25	104	0	60	57569
2026-01-05 02:50:42.01	230.90	2.99	-48.6	-61.6	3.8	1.49e+00	0	25	104	0	60	58551
2026-01-05 02:50:43.02	231.00	3.04	-48.8	-63.5	3.6	1.50e+00	0	25	104	0	60	73179
2026-01-05 02:50:44.03	231.09	3.09	-48.4	-63.2	3.6	1.51e+00	0	25	104	0	60	70527
2026-01-05 02:50:45.04	231.19	3.14	-48.8	-62.1	3.6	1.50e+00	0	25	104	0	60	62240
2026-01-05 02:50:46.05	231.29	3.19	-48.9	-64.2	3.6	1.51e+00	0	25	104	0	60	78718
2026-01-05 02:50:47.07	231.39	3.24	-48.6	-62.1	3.6	1.50e+00	0	25	104	0	60	61957
2026-01-05 02:50:48.08	231.49	3.29	-48.8	-61.5	3.6	1.46e+00	0	25	104	0	60	57624
2026-01-05 02:50:49.09	231.59	3.34	-48.8	-61.0	3.7	1.46e+00	0	25	0	0	60	54766
2026-01-05 02:50:50.10	231.69	3.39	-48.9	-61.5	3.9	1.49e+00	0	25	104	0	60	58186
2026-01-05 02:50:51.11	231.79	3.44	-48.8	-61.5	3.8	1.47e+00	0	25	104	0	60	57837
2026-01-05 02:50:52.12	231.89	3.48	-48.8	-61.4	3.7	1.48e+00	0	25	104	0	60	57582
2026-01-05 02:50:53.13	231.99	3.53	-48.8	-61.6	3.6	1.45e+00	0	25	104	0	60	58398
2026-01-05 02:50:54.14	232.10	3.58	-48.9	-61.8	3.7	1.49e+00	0	25	104	0	60	60049
2026-01-05 02:50:55.15	232.20	3.63	-49.0	-61.7	3.8	1.49e+00	0	25	104	0	60	59512
2026-01-05 02:50:56.17	232.30	3.68	-49.0	-61.9	3.6	1.50e+00	0	25	104	0	60	60925
2026-01-05 02:50:57.18	232.40	3.73	-48.9	-61.8	3.8	1.49e+00	0	25	104	0	60	60287
2026-01-05 02:50:58.19	232.51	3.78	-49.0	-61.7	3.8	1.49e+00	0	25	104	0	60	59272
2026-01-05 02:50:59.20	232.61	3.83	-49.0	-61.7	3.8	1.49e+00	0	25	104	0	60	59335
2026-01-05 02:51:00.21	232.71	3.88	-49.1	-62.1	3.7	1.49e+00	0	25	104	0	60	61906
2026-01-05 02:51:01.22	232.82	3.93	-49.1	-62.0	3.8	1.49e+00	0	25	104	0	60	61120
2026-01-05 02:51:02.23	232.92	3.98	-49.2	-61.9	3.8	1.49e+00	0	25	104	0	60	60455
2026-01-05 02:51:03.24	233.02	4.03	-49.2	-62.0	3.8	1.48e+00	0	25	104	0	60	61725
2026-01-05 02:51:04.25	233.13	4.08	-49.2	-60.6	3.7	1.48e+00	0	26	104	0	60	52161
2026-01-05 02:51:05.27	233.24	4.13	-49.2	-61.8	3.8	1.47e+00	0	25	104	0	60	59827
2026-01-05 02:51:06.28	233.34	4.18	-49.2	-61.9	3.8	1.48e+00	0	25	104	0	60	60598
2026-01-05 02:51:07.29	233.45	4.23	-49.2	-61.7	3.9	1.49e+00	0	25	104	0	60	59345
2026-01-05 02:51:08.30	233.55	4.28	-49.3	-61.8	3.9	1.48e+00	0	25	104	0	60	60222
2026-01-05 02:51:09.31	233.66	4.33	-49.3	-61.8	3.7	1.46e+00	0	25	104	0	60	59959
2026-01-05 02:51:10.32	233.77	4.38	-49.4	-61.3	3.8	1.45e+00	0	25	0	0	60	56935
2026-01-05 02:51:11.33	233.87	4.43	-49.4	-61.7	3.9	1.44e+00	0	25	104	0	60	59619
2026-01-05 02:51:12.34	233.98	4.48	-49.5	-61.6	4.0	1.46e+00	0	25	104	0	60	58919
2026-01-05 02:51:13.35	234.09	4.53	-49.5	-61.8	4.0	1.44e+00	0	25	104	0	60	59647
2026-01-05 02:51:14.36	234.20	4.58	-49.5	-62.0	3.6	1.43e+00	0	25	104	0	60	61199
2026-01-05 02:51:15.37	234.31	4.63	-49.5	-61.1	3.9	1.42e+00	0	25	0	0	60	55369
2026-01-05 02:51:16.38	234.42	4.68	-49.5	-61.6	4.0	1.43e+00	0	25	104	0	60	58842
2026-01-05 02:51:17.39	234.52	4.73	-49.5	-60.6	3.8	1.42e+00	0	25	0	0	60	52503
2026-01-05 02:51:18.40	234.63	4.77	-49.6	-61.9	3.9	1.44e+00	0	25	104	0	60	61029
2026-01-05 02:51:19.42	234.75	4.83	-49.6	-61.6	4.1	1.44e+00	0	25	104	0	60	58789
2026-01-05 02:51:20.43	234.86	4.87	-49.7	-62.1	3.6	1.43e+00	0	25	104	0	60	62419
2026-01-05 02:51:21.44	234.97	4.92	-49.8	-61.6	4.0	1.43e+00	0	25	104	0	60	58610
2026-01-05 02:51:22.45	235.08	4.97	-49.9	-61.7	4.0	1.46e+00	0	25	104	0	60	59209
2026-01-05 02:51:23.46	235.19	5.02	-49.8	-60.3	4.0	1.34e+00	92	25	0	0	60	50558
2026-01-05 02:51:24.47	235.30	5.07	-49.7	-60.0	4.0	1.34e+00	72	25	0	1048576	60	48721
2026-01-05 02:51:25.48	235.41	5.12	-49.7	-59.7	4.1	1.20e+00	92	26	0	3145728	60	46864
2026-01-05 02:51:26.49	235.53	5.17	-49.7	-59.7	4.1	1.13e+00	92	25	0	5242880	60	47188
2026-01-05 02:51:27.50	235.64	5.22	-49.8	-59.4	4.3	9.83e-01	91	25	0	7340032	60	45730
2026-01-05 02:51:28.51	235.75	5.27	-49.8	-59.5	4.3	9.59e-01	90	26	0	8388608	60	45956
2026-01-05 02:51:29.52	235.87	5.32	-49.7	-59.3	4.3	9.21e-01	91	25	0	10485760	60	45178
2026-01-05 02:51:30.53	235.98	5.37	-49.6	-59.3	4.3	8.73e-01	0	25	0	12582912	60	44808
2026-01-05 02:51:31.54	236.09	5.42	-49.7	-59.2	4.4	8.35e-01	92	26	0	14680064	60	44433
2026-01-05 02:51:32.56	236.21	5.47	-49.6	-58.8	4.6	7.99e-01	90	25	0	16777216	60	42303
2026-01-05 02:51:33.57	236.33	5.52	-49.6	-58.7	4.6	7.20e-01	91	25	0	18874368	60	42194
2026-01-05 02:51:34.58	236.44	5.57	-49.6	-58.5	4.8	6.95e-01	92	26	0	19922944	60	40989
2026-01-05 02:51:35.59	236.56	5.62	-49.5	-58.1	5.1	6.75e-01	92	26	0	22020096	60	39321
2026-01-05 02:51:36.60	236.67	5.67	-49.6	-58.1	5.2	5.27e-01	90	26	0	24117248	60	39210
2026-01-05 02:51:37.61	236.79	5.72	-49.4	-57.6	5.6	4.57e-01	0	25	0	26214400	60	36941
2026-01-05 02:51:38.62	236.91	5.77	-49.4	-57.4	5.9	3.63e-01	92	26	0	28311552	60	36098
2026-01-05 02:51:39.63	237.02	5.82	-49.5	-57.2	6.2	2.56e-01	92	26	0	29360128	60	35474
2026-01-05 02:51:40.64	237.14	5.87	-49.4	-56.8	6.5	2.17e-01	92	26	0	31457280	60	33855
2026-01-05 02:51:41.66	237.26	5.92	-49.3	-56.5	6.9	1.72e-01	92	25	0	33554432	60	32557
2026-01-05 02:51:42.67	237.38	5.97	-49.3	-56.5	6.9	1.63e-01	92	26	0	35651584	60	32773
2026-01-05 02:51:43.68	237.50	6.02	-49.3	-56.4	7.2	1.41e-01	92	26	0	37748736	60	32038
2026-01-05 02:51:44.69	237.62	6.07	-49.1	-55.7	7.8	9.64e-02	92	26	0	38797312	60	29693
2026-01-05 02:51:45.70	237.74	6.12	-49.1	-55.6	7.9	8.04e-02	92	26	0	40894464	60	29512
2026-01-05 02:51:46.71	237.86	6.17	-49.1	-55.7	7.8	8.28e-02	92	26	0	42991616	60	29724
2026-01-05 02:51:47.72	237.98	6.22	-48.9	-55.3	8.3	5.34e-02	90	26	0	45088768	60	28421
2026-01-05 02:51:48.73	238.10	6.27	-48.8	-54.8	8.8	4.40e-02	92	26	0	47185920	60	26840
2026-01-05 02:51:49.75	238.22	6.32	-48.8	-54.7	9.0	2.43e-02	92	26	0	48234496	60	26570
2026-01-05 02:51:50.75	238.34	6.37	-48.7	-54.4	9.4	2.01e-02	92	26	0	50331648	60	25626
2026-01-05 02:51:51.77	238.47	6.42	-48.7	-54.3	9.5	1.48e-02	92	26	0	52428800	60	25280
2026-01-05 02:51:52.78	238.59	6.47	-48.6	-54.0	9.9	1.35e-02	92	26	0	54525952	60	24400
2026-01-05 02:51:53.79	238.71	6.52	-48.5	-53.5	10.5	4.65e-03	42	26	0	56623104	60	23143
2026-01-05 02:51:54.80	238.84	6.57	-48.3	-53.2	10.9	3.45e-03	92	26	0	57671680	60	22166
2026-01-05 02:51:55.81	238.96	6.62	-48.3	-53.0	11.2	1.63e-03	92	26	0	59768832	60	21791
2026-01-05 02:51:56.82	239.08	6.67	-48.2	-52.7	11.6	7.66e-04	92	26	0	61865984	60	21036
2026-01-05 02:51:57.83	239.21	6.72	-48.1	-52.4	11.8	5.38e-04	90	26	0	63963136	60	20307
2026-01-05 02:51:58.84	239.33	6.77	-47.9	-52.1	12.1	3.17e-04	92	26	0	66060288	60	19635
2026-01-05 02:51:59.86	239.46	6.82	-47.8	-51.8	12.5	1.42e-04	92	26	0	68157440	60	18888
2026-01-05 02:52:00.87	239.59	6.87	-47.7	-51.6	12.6	7.24e-05	10	26	0	69206016	60	18635
2026-01-05 02:52:01.88	239.71	6.91	-47.8	-51.7	12.7	7.17e-05	92	26	0	71303168	60	18660
2026-01-05 02:52:02.89	239.84	6.96	-47.6	-51.3	13.2	3.66e-05	92	26	0	73400320	60	17939
2026-01-05 02:52:03.90	239.97	7.01	-47.5	-51.0	13.5	1.67e-05	92	26	0	75497472	60	17221
2026-01-05 02:52:04.91	240.09	7.06	-47.3	-50.7	13.7	6.10e-06	92	26	0	77594624	60	16744
2026-01-05 02:52:05.92	240.22	7.11	-47.1	-50.4	14.1	3.00e-06	92	26	0	78643200	60	16138
2026-01-05 02:52:06.93	240.35	7.16	-47.0	-50.1	14.4	7.00e-07	92	26	0	80740352	60	15599
2026-01-05 02:52:07.94	240.48	7.21	-47.0	-50.1	14.6	1.50e-06	2	26	0	82837504	60	15535
2026-01-05 02:52:08.95	240.61	7.26	-46.7	-49.4	15.3	0.00e+00	92	26	0	84934656	60	14460
2026-01-05 02:52:09.96	240.74	7.31	-46.7	-49.5	15.3	0.00e+00	92	26	0	87031808	60	14568
2026-01-05 02:52:10.98	240.87	7.36	-46.4	-49.1	15.5	0.00e+00	92	26	0	88080384	60	13933
2026-01-05 02:52:11.99	241.00	7.41	-46.4	-49.1	15.5	0.00e+00	90	26	0	90177536	60	13832
2026-01-05 02:52:13.00	241.13	7.46	-46.3	-49.0	15.6	0.00e+00	91	26	0	92274688	60	13703
2026-01-05 02:52:14.01	241.26	7.51	-46.0	-48.4	16.1	0.00e+00	92	26	0	94371840	60	12826
2026-01-05 02:52:15.02	241.39	7.56	-46.0	-48.4	16.1	0.00e+00	0	26	0	96468992	60	12831
2026-01-05 02:52:16.03	241.52	7.61	-45.7	-48.0	16.5	0.00e+00	92	26	0	97517568	60	12313
2026-01-05 02:52:17.04	241.66	7.65	-45.7	-48.0	16.5	0.00e+00	92	26	0	99614720	60	12279
2026-01-05 02:52:18.05	241.79	7.70	-45.6	-47.8	16.8	0.00e+00	92	25	0	101711872	60	11959
2026-01-05 02:52:19.06	241.92	7.75	-45.5	-47.8	16.8	0.00e+00	92	26	0	103809024	60	11924
2026-01-05 02:52:20.07	242.06	7.80	-45.5	-47.6	16.9	0.00e+00	0	26	0	105906176	60	11760
2026-01-05 02:52:21.09	242.19	7.85	-45.3	-47.4	17.4	0.00e+00	91	26	0	108003328	60	11386
2026-01-05 02:52:22.10	242.33	7.90	-45.2	-47.2	17.7	0.00e+00	0	26	0	109051904	60	11206
2026-01-05 02:52:23.11	242.46	7.95	-45.2	-47.2	17.7	0.00e+00	92	26	0	111149056	60	11140
2026-01-05 02:52:24.12	242.60	8.00	-45.2	-47.0	18.0	0.00e+00	77	26	0	113246208	60	10967
2026-01-05 02:52:25.13	242.73	8.05	-45.0	-46.8	18.3	0.00e+00	92	26	0	115343360	60	10666
2026-01-05 02:52:26.14	242.87	8.09	-44.6	-46.3	18.2	0.00e+00	92	26	0	117440512	60	10126
2026-01-05 02:52:27.15	243.01	8.14	-45.0	-46.8	18.6	0.00e+00	92	26	0	118489088	60	10667
2026-01-05 02:52:28.16	243.15	8.19	-44.9	-46.6	18.3	0.00e+00	92	26	0	120586240	60	10442
2026-01-05 02:52:29.17	243.28	8.24	-44.5	-46.1	18.9	0.00e+00	92	26	0	122683392	60	9873
2026-01-05 02:52:30.18	243.42	8.29	-44.5	-46.1	18.9	0.00e+00	92	26	0	124780544	60	9855
2026-01-05 02:52:31.19	243.56	8.34	-44.2	-45.8	19.0	0.00e+00	0	26	0	126877696	60	9549
2026-01-05 02:52:32.21	243.70	8.39	-44.2	-45.7	19.5	0.00e+00	92	26	0	127926272	60	9440
2026-01-05 02:52:33.22	243.84	8.43	-43.8	-45.3	19.6	0.00e+00	92	26	0	130023424	60	8999
2026-01-05 02:52:34.23	243.98	8.48	-43.5	-44.9	20.0	0.00e+00	92	26	0	132120576	60	8558
2026-01-05 02:52:35.24	244.12	8.53	-43.2	-44.6	20.2	0.00e+00	92	26	0	134217728	60	8273
2026-01-05 02:52:36.25	244.26	8.58	-43.4	-44.7	20.4	0.00e+00	0	26	0	136314880	60	8407
2026-01-05 02:52:37.26	244.40	8.63	-43.1	-44.4	20.6	0.00e+00	92	26	0	137363456	60	8075
2026-01-05 02:52:38.27	244.54	8.68	-43.1	-44.3	20.6	0.00e+00	8	26	0	139460608	60	8034
2026-01-05 02:52:39.28	244.69	8.72	-42.9	-44.2	20.9	0.00e+00	92	26	0	141557760	60	7900
2026-01-05 02:52:40.29	244.83	8.77	-42.6	-43.8	21.1	0.00e+00	92	26	0	143654912	60	7544
2026-01-05 02:52:41.30	244.97	8.82	-42.4	-43.6	21.2	0.00e+00	92	26	0	145752064	60	7403
2026-01-05 02:52:42.32	245.12	8.87	-42.4	-43.6	21.4	0.00e+00	92	26	0	146800640	60	7377
2026-01-05 02:52:43.33	245.26	8.92	-42.7	-43.9	21.3	0.00e+00	54	26	0	148897792	60	7672
2026-01-05 02:52:44.34	245.41	8.96	-42.5	-43.6	21.4	0.00e+00	92	26	0	150994944	60	7418
2026-01-05 02:52:45.35	245.55	9.01	-42.2	-43.3	21.8	0.00e+00	17	26	0	153092096	60	7136
2026-01-05 02:52:46.36	245.70	9.06	-41.9	-43.0	21.9	0.00e+00	92	26	0	155189248	60	6872
2026-01-05 02:52:47.37	245.84	9.11	-41.9	-42.9	22.1	0.00e+00	90	26	0	157286400	60	6842
2026-01-05 02:52:48.38	245.99	9.15	-42.0	-43.1	21.9	0.00e+00	92	26	0	158334976	60	6999
2026-01-05 02:52:49.39	246.14	9.20	-41.8	-42.9	22.3	0.00e+00	90	26	0	160432128	60	6804
2026-01-05 02:52:50.40	246.28	9.25	-41.6	-42.6	22.3	0.00e+00	92	26	0	162529280	60	6605
2026-01-05 02:52:51.42	246.43	9.30	-41.4	-42.5	22.4	0.00e+00	92	26	0	164626432	60	6483
2026-01-05 02:52:52.43	246.58	9.34	-41.5	-42.5	22.4	0.00e+00	5	26	0	166723584	60	6517
2026-01-05 02:52:53.44	246.73	9.39	-41.3	-42.3	22.8	0.00e+00	92	26	0	167772160	60	6339
2026-01-05 02:52:54.45	246.88	9.44	-41.5	-42.5	22.7	0.00e+00	69	26	0	169869312	60	6488
2026-01-05 02:52:55.46	247.03	9.48	-41.3	-42.3	22.8	0.00e+00	92	26	0	171966464	60	6347
2026-01-05 02:52:56.47	247.18	9.53	-41.3	-42.3	22.6	0.00e+00	92	26	0	174063616	60	6385
2026-01-05 02:52:57.48	247.33	9.58	-41.7	-42.7	22.6	0.00e+00	92	26	0	176160768	60	6657
2026-01-05 02:52:58.49	247.48	9.62	-41.4	-42.4	22.7	0.00e+00	92	26	0	177209344	60	6399
2026-01-05 02:52:59.50	247.63	9.67	-41.8	-42.9	22.3	0.00e+00	0	26	0	179306496	60	6792
2026-01-05 02:53:00.52	247.78	9.72	-41.2	-42.2	22.8	0.00e+00	90	26	0	181403648	60	6293
2026-01-05 02:53:01.53	247.94	9.76	-40.9	-41.9	23.0	0.00e+00	6	26	0	183500800	60	6055
2026-01-05 02:53:02.54	248.09	9.81	-41.0	-41.9	23.0	0.00e+00	92	26	0	185597952	60	6092
2026-01-05 02:53:03.55	248.24	9.86	-41.2	-42.3	22.7	0.00e+00	92	26	0	186646528	60	6328
2026-01-05 02:53:04.56	248.40	9.90	-41.1	-42.1	23.0	0.00e+00	92	26	0	188743680	60	6224
2026-01-05 02:53:05.57	248.55	9.95	-41.3	-42.2	22.9	0.00e+00	91	26	0	190840832	60	6317
2026-01-05 02:53:06.58	248.71	10.00	-41.7	-42.7	23.0	0.00e+00	67	26	0	192937984	60	6673
2026-01-05 02:53:07.59	248.86	10.04	-41.7	-42.7	22.7	0.00e+00	92	26	0	195035136	60	6648
2026-01-05 02:53:08.60	249.02	10.09	-41.5	-42.5	22.6	0.00e+00	72	26	0	196083712	60	6519
2026-01-05 02:53:09.62	249.17	10.13	-41.3	-42.3	23.0	0.00e+00	92	26	0	198180864	60	6332
2026-01-05 02:53:10.63	249.33	10.18	-41.3	-42.3	22.9	0.00e+00	92	26	0	200278016	60	6351
2026-01-05 02:53:11.64	249.49	10.22	-41.5	-42.5	23.0	0.00e+00	92	26	0	202375168	60	6484
2026-01-05 02:53:12.65	249.65	10.27	-41.3	-42.3	23.1	0.00e+00	92	26	0	204472320	60	6339
2026-01-05 02:53:13.66	249.80	10.31	-41.3	-42.3	23.0	0.00e+00	91	26	0	205520896	60	6325
2026-01-05 02:53:14.67	249.96	10.36	-41.3	-42.3	23.0	0.00e+00	90	26	0	207618048	60	6333
2026-01-05 02:53:15.68	250.12	10.40	-41.1	-42.1	23.0	0.00e+00	3	26	0	209715200	60	6198
2026-01-05 02:53:16.70	250.28	10.45	-41.1	-42.1	23.0	0.00e+00	92	26	0	211812352	60	6230
2026-01-05 02:53:17.71	250.44	10.49	-41.3	-42.3	22.9	0.00e+00	11	26	0	213909504	60	6355
2026-01-05 02:53:18.72	250.60	10.54	-41.1	-42.0	23.2	0.00e+00	92	25	0	216006656	60	6166
2026-01-05 02:53:19.73	250.76	10.58	-41.3	-42.3	22.9	0.00e+00	92	25	0	217055232	60	6333
2026-01-05 02:53:20.74	250.92	10.63	-41.1	-42.1	23.1	0.00e+00	92	26	0	219152384	60	6179
2026-01-05 02:53:21.75	251.09	10.67	-41.1	-42.1	23.1	0.00e+00	92	26	0	221249536	60	6179
2026-01-05 02:53:22.76	251.25	10.72	-41.1	-42.1	23.0	0.00e+00	0	26	0	223346688	60	6190
2026-01-05 02:53:23.77	251.41	10.76	-41.0	-42.0	23.0	0.00e+00	92	26	0	225443840	60	6148
2026-01-05 02:53:24.78	251.57	10.80	-41.3	-42.3	22.9	0.00e+00	0	26	0	226492416	60	6382
2026-01-05 02:53:25.80	251.74	10.85	-41.4	-42.4	22.9	0.00e+00	92	26	0	228589568	60	6417
2026-01-05 02:53:26.81	251.90	10.89	-41.3	-42.3	23.0	0.00e+00	94	26	0	230686720	60	6355
2026-01-05 02:53:27.82	252.07	10.94	-41.2	-42.1	23.1	0.00e+00	92	26	0	232783872	60	6245
2026-01-05 02:53:28.83	252.23	10.98	-41.2	-42.1	23.2	0.00e+00	90	26	0	234881024	60	6238
2026-01-05 02:53:29.84	252.40	11.02	-41.2	-42.2	23.1	0.00e+00	43	26	0	235929600	60	6284
2026-01-05 02:53:30.85	252.57	11.07	-41.3	-42.3	23.1	0.00e+00	90	26	0	238026752	60	6359
2026-01-05 02:53:31.86	252.73	11.11	-41.1	-42.0	23.1	0.00e+00	56	26	0	240123904	60	6160
2026-01-05 02:53:32.87	252.90	11.15	-41.2	-42.2	23.1	0.00e+00	92	25	0	242221056	60	6249
2026-01-05 02:53:33.88	253.07	11.19	-41.3	-42.3	22.8	0.00e+00	92	25	0	244318208	60	6358
2026-01-05 02:53:34.89	253.23	11.24	-41.5	-42.5	22.7	0.00e+00	92	26	0	245366784	60	6522
2026-01-05 02:53:35.91	253.40	11.28	-41.7	-42.7	22.7	0.00e+00	92	25	0	247463936	60	6667
2026-01-05 02:53:36.92	253.57	11.32	-42.0	-43.0	22.6	0.00e+00	92	25	0	249561088	60	6917
2026-01-05 02:53:37.93	253.74	11.36	-41.7	-42.7	22.6	0.00e+00	92	25	0	251658240	60	6684
2026-01-05 02:53:38.94	253.91	11.41	-41.7	-42.8	22.6	0.00e+00	9	26	0	253755392	60	6699
2026-01-05 02:53:39.95	254.08	11.45	-41.8	-42.9	22.4	0.00e+00	92	25	0	255852544	60	6812
2026-01-05 02:53:40.96	254.25	11.49	-41.7	-42.7	22.6	0.00e+00	2	25	0	256901120	60	6672
2026-01-05 02:53:41.97	254.42	11.53	-41.9	-43.0	22.6	0.00e+00	92	25	0	258998272	60	6855
2026-01-05 02:53:42.98	254.60	11.57	-42.0	-43.0	22.6	0.00e+00	92	25	0	261095424	60	6872
2026-01-05 02:53:43.99	254.77	11.61	-41.8	-42.8	22.7	0.00e+00	92	26	0	263192576	60	6745
2026-01-05 02:53:45.01	254.94	11.66	-41.9	-42.9	22.5	0.00e+00	92	25	0	265289728	60	6848
2026-01-05 02:53:46.02	255.12	11.70	-41.9	-42.9	22.3	0.00e+00	66	26	0	266338304	60	6828
2026-01-05 02:53:47.03	255.29	11.74	-43.6	-44.9	22.2	0.00e+00	92	26	0	268435456	60	8553
2026-01-05 02:53:48.04	255.46	11.78	-43.0	-44.1	22.1	0.00e+00	18	26	0	270532608	60	7782
2026-01-05 02:53:49.05	255.64	11.82	-42.8	-43.9	21.6	0.00e+00	92	26	0	272629760	60	7631
2026-01-05 02:53:50.06	255.81	11.86	-42.9	-44.0	21.6	0.00e+00	92	25	0	274726912	60	7755
2026-01-05 02:53:51.07	255.99	11.90	-42.6	-43.7	21.8	0.00e+00	92	26	0	275775488	60	7465
2026-01-05 02:53:52.08	256.16	11.94	-42.6	-43.8	21.6	0.00e+00	92	26	0	277872640	60	7558
2026-01-05 02:53:53.09	256.34	11.98	-42.8	-43.9	21.5	0.00e+00	13	26	0	279969792	60	7660
2026-01-05 02:53:54.10	256.52	12.02	-42.7	-43.9	21.7	0.00e+00	92	26	0	282066944	60	7602
2026-01-05 02:53:55.12	256.70	12.06	-42.7	-43.9	21.7	0.00e+00	0	26	0	284164096	60	7611
2026-01-05 02:53:56.13	256.87	12.10	-42.9	-44.1	21.7	0.00e+00	92	26	0	285212672	60	7799
2026-01-05 02:53:57.14	257.05	12.14	-42.6	-43.7	21.6	0.00e+00	92	25	0	287309824	60	7474
2026-01-05 02:53:58.09	257.22	12.17	-42.4	-43.5	21.8	0.00e+00	92	26	0	289406976	60	7304
2026-01-05 02:53:59.10	257.40	12.21	-42.5	-43.5	21.7	0.00e+00	90	26	0	291504128	60	7330
2026-01-05 02:54:00.11	257.58	12.25	-42.3	-43.4	21.9	0.00e+00	92	25	0	293601280	60	7210
2026-01-05 02:54:01.12	257.76	12.29	-42.5	-43.6	21.5	0.00e+00	92	26	0	295698432	60	7391
2026-01-05 02:54:02.13	257.94	12.32	-42.5	-43.7	21.6	0.00e+00	0	25	0	296747008	60	7478
2026-01-05 02:54:03.14	258.12	12.36	-42.9	-44.1	21.2	0.00e+00	92	26	0	298844160	60	7781
2026-01-05 02:54:04.15	258.30	12.40	-43.1	-44.4	21.0	0.00e+00	92	26	0	300941312	60	8085
2026-01-05 02:54:05.16	258.48	12.44	-42.9	-44.1	21.3	0.00e+00	92	26	0	303038464	60	7847
2026-01-05 02:54:06.17	258.66	12.47	-43.3	-44.5	21.2	0.00e+00	92	26	0	305135616	60	8204
2026-01-05 02:54:07.18	258.85	12.51	-42.8	-43.9	21.6	0.00e+00	92	26	0	306184192	60	7649
2026-01-05 02:54:08.20	259.03	12.55	-42.7	-43.9	21.6	0.00e+00	92	26	0	308281344	60	7622
2026-01-05 02:54:09.21	259.22	12.59	-42.6	-43.8	21.7	0.00e+00	0	26	0	310378496	60	7551
2026-01-05 02:54:10.22	259.40	12.62	-42.6	-43.8	21.6	0.00e+00	92	26	0	312475648	60	7509
2026-01-05 02:54:11.23	259.58	12.66	-42.6	-43.8	21.7	0.00e+00	16	26	0	314572800	60	7526
2026-01-05 02:54:12.24	259.77	12.69	-42.9	-44.1	21.4	0.00e+00	92	25	0	315621376	60	7792
2026-01-05 02:54:13.25	259.95	12.73	-42.4	-43.6	21.7	0.00e+00	92	26	0	317718528	60	7359
2026-01-05 02:54:14.26	260.14	12.77	-42.2	-43.3	21.8	0.00e+00	90	26	0	319815680	60	7169
2026-01-05 02:54:15.28	260.33	12.80	-42.3	-43.5	21.7	0.00e+00	92	26	0	321912832	60	7266
2026-01-05 02:54:16.29	260.51	12.84	-42.3	-43.5	21.8	0.00e+00	23	25	0	324009984	60	7256
2026-01-05 02:54:17.30	260.70	12.87	-42.5	-43.7	21.6	0.00e+00	92	25	0	325058560	60	7447
2026-01-05 02:54:18.31	260.89	12.91	-42.7	-43.9	21.5	0.00e+00	0	26	0	327155712	60	7627
2026-01-05 02:54:19.32	261.08	12.94	-42.9	-44.1	21.2	0.00e+00	92	26	0	329252864	60	7849
2026-01-05 02:54:20.33	261.26	12.97	-42.9	-44.2	21.2	0.00e+00	92	26	0	331350016	60	7881
2026-01-05 02:54:21.34	261.45	13.01	-43.0	-44.2	21.1	0.00e+00	92	26	0	333447168	60	7903
2026-01-05 02:54:22.35	261.64	13.04	-43.2	-44.5	21.1	0.00e+00	92	26	0	334495744	60	8161
2026-01-05 02:54:23.36	261.83	13.07	-43.4	-44.6	20.6	0.00e+00	92	25	0	336592896	60	8321
2026-01-05 02:54:24.37	262.02	13.11	-43.0	-44.2	21.2	0.00e+00	90	25	0	338690048	60	7874
2026-01-05 02:54:25.39	262.21	13.14	-42.8	-44.0	21.3	0.00e+00	68	25	0	340787200	60	7687
2026-01-05 02:54:26.40	262.40	13.17	-42.7	-43.9	21.5	0.00e+00	92	25	0	342884352	60	7596
2026-01-05 02:54:27.41	262.60	13.21	-42.7	-43.8	21.6	0.00e+00	92	25	0	344981504	60	7543
2026-01-05 02:54:28.42	262.79	13.24	-42.9	-44.0	21.5	0.00e+00	92	25	0	346030080	60	7756
2026-01-05 02:54:29.43	262.98	13.27	-43.2	-44.4	21.3	0.00e+00	92	25	0	348127232	60	8080
2026-01-05 02:54:30.44	263.17	13.30	-43.1	-44.2	20.6	0.00e+00	92	25	0	350224384	60	7949
2026-01-05 02:54:31.45	263.36	13.33	-43.2	-44.4	21.2	0.00e+00	92	25	0	352321536	60	8089
2026-01-05 02:54:32.46	263.56	13.36	-43.7	-45.0	20.6	0.00e+00	5	25	0	354418688	60	8659
2026-01-05 02:54:33.48	263.75	13.40	-43.1	-44.3	21.2	0.00e+00	92	25	0	355467264	60	8030
2026-01-05 02:54:34.49	263.95	13.43	-44.6	-46.2	19.7	0.00e+00	40	26	0	357564416	60	9915
2026-01-05 02:54:35.50	264.14	13.46	-43.1	-44.3	21.4	0.00e+00	92	25	0	359661568	60	8027
2026-01-05 02:54:36.51	264.33	13.49	-42.8	-43.9	21.5	0.00e+00	90	25	0	361758720	60	7674
2026-01-05 02:54:37.52	264.53	13.52	-44.0	-45.3	20.7	0.00e+00	92	25	0	363855872	60	8945
2026-01-05 02:54:38.53	264.73	13.55	-43.6	-44.8	21.4	0.00e+00	90	25	0	364904448	60	8477
2026-01-05 02:54:39.54	264.92	13.58	-43.2	-44.4	21.5	0.00e+00	61	25	0	367001600	60	8062
2026-01-05 02:54:40.55	265.12	13.61	-42.7	-43.9	21.6	0.00e+00	92	25	0	369098752	60	7636
2026-01-05 02:54:41.56	265.31	13.63	-42.9	-44.0	21.7	0.00e+00	7	26	0	371195904	60	7760
2026-01-05 02:54:42.58	265.51	13.66	-42.7	-43.8	21.7	0.00e+00	92	25	0	373293056	60	7553
2026-01-05 02:54:43.59	265.71	13.69	-42.2	-43.3	22.1	0.00e+00	92	25	0	374341632	60	7128
2026-01-05 02:54:44.60	265.91	13.72	-42.3	-43.4	22.1	0.00e+00	92	25	0	376438784	60	7243
2026-01-05 02:54:45.61	266.11	13.75	-41.6	-42.7	22.6	0.00e+00	92	26	0	378535936	60	6629
2026-01-05 02:54:46.62	266.30	13.77	-41.6	-42.6	22.8	0.00e+00	57	26	0	380633088	60	6599
2026-01-05 02:54:47.63	266.50	13.80	-41.7	-42.7	22.8	0.00e+00	92	25	0	382730240	60	6692
2026-01-05 02:54:48.64	266.70	13.83	-41.9	-43.0	22.8	0.00e+00	2	25	0	383778816	60	6852
2026-01-05 02:54:49.65	266.90	13.85	-41.5	-42.5	23.0	0.00e+00	92	25	0	385875968	60	6485
2026-01-05 02:54:50.66	267.10	13.88	-41.5	-42.5	22.9	0.00e+00	92	25	0	387973120	60	6534
2026-01-05 02:54:51.67	267.30	13.91	-41.5	-42.5	22.9	0.00e+00	92	25	0	390070272	60	6525
2026-01-05 02:54:52.68	267.50	13.93	-41.7	-42.7	22.8	0.00e+00	92	26	0	392167424	60	6675
2026-01-05 02:54:53.70	267.70	13.96	-42.0	-43.0	22.8	0.00e+00	92	25	0	393216000	60	6889
2026-01-05 02:54:54.71	267.90	13.98	-42.0	-43.0	22.5	0.00e+00	92	25	0	395313152	60	6908
2026-01-05 02:54:55.72	268.11	14.01	-41.8	-42.8	22.8	0.00e+00	65	25	0	397410304	60	6709
2026-01-05 02:54:56.73	268.31	14.03	-41.6	-42.6	22.8	0.00e+00	92	25	0	399507456	60	6602
2026-01-05 02:54:57.74	268.51	14.06	-41.8	-42.8	22.7	0.00e+00	92	25	0	401604608	60	6726
2026-01-05 02:54:58.75	268.71	14.08	-41.9	-42.9	22.8	0.00e+00	90	25	0	403701760	60	6839
2026-01-05 02:54:59.76	268.91	14.10	-42.2	-43.2	22.8	0.00e+00	92	25	0	404750336	60	7067
2026-01-05 02:55:00.77	269.12	14.13	-41.4	-42.4	23.1	0.00e+00	90	25	0	406847488	60	6400
2026-01-05 02:55:01.78	269.32	14.15	-41.5	-42.5	22.9	0.00e+00	92	25	0	408944640	60	6532
2026-01-05 02:55:02.79	269.52	14.17	-41.2	-42.1	23.3	0.00e+00	5	25	0	411041792	60	6235
2026-01-05 02:55:03.80	269.73	14.19	-41.2	-42.1	23.0	0.00e+00	92	25	0	413138944	60	6238
2026-01-05 02:55:04.81	269.93	14.22	-41.4	-42.4	23.0	0.00e+00	0	25	0	414187520	60	6407
2026-01-05 02:55:05.83	270.14	14.24	-41.4	-42.4	22.8	0.00e+00	92	26	0	416284672	60	6446
2026-01-05 02:55:06.84	270.34	14.26	-41.4	-42.4	22.6	0.00e+00	92	25	0	418381824	60	6456
2026-01-05 02:55:07.85	270.55	14.28	-41.8	-42.9	22.4	0.00e+00	3	25	0	420478976	60	6770
2026-01-05 02:55:08.86	270.75	14.30	-41.9	-42.9	22.3	0.00e+00	92	25	0	422576128	60	6808
2026-01-05 02:55:09.87	270.96	14.32	-42.1	-43.2	22.4	0.00e+00	22	25	0	423624704	60	7051
2026-01-05 02:55:10.88	271.17	14.34	-42.6	-43.6	21.9	0.00e+00	90	25	0	425721856	60	7415
2026-01-05 02:55:11.89	271.37	14.36	-42.6	-43.7	21.9	0.00e+00	0	25	0	427819008	60	7465
2026-01-05 02:55:12.90	271.58	14.38	-42.4	-43.6	21.8	0.00e+00	92	25	0	429916160	60	7349
2026-01-05 02:55:13.91	271.78	14.40	-42.4	-43.6	21.9	0.00e+00	92	25	0	432013312	60	7339
2026-01-05 02:55:14.92	271.99	14.42	-42.2	-43.3	22.0	0.00e+00	92	25	0	433061888	60	7164
2026-01-05 02:55:15.94	272.20	14.44	-42.2	-43.3	22.0	0.00e+00	92	25	0	435159040	60	7168
2026-01-05 02:55:16.95	272.41	14.46	-42.3	-43.4	21.9	0.00e+00	90	25	0	437256192	60	7207
2026-01-05 02:55:17.96	272.62	14.47	-42.3	-43.4	21.9	0.00e+00	92	26	0	439353344	60	7211
2026-01-05 02:55:18.97	272.82	14.49	-42.2	-43.3	22.0	0.00e+00	55	25	0	441450496	60	7119
2026-01-05 02:55:19.98	273.03	14.51	-42.4	-43.5	21.8	0.00e+00	92	26	0	443547648	60	7306
2026-01-05 02:55:20.99	273.24	14.53	-42.3	-43.4	22.0	0.00e+00	92	25	0	444596224	60	7199
2026-01-05 02:55:22.00	273.45	14.54	-42.3	-43.4	21.9	0.00e+00	92	25	0	446693376	60	7188
2026-01-05 02:55:23.01	273.66	14.56	-42.2	-43.3	22.1	0.00e+00	92	25	0	448790528	60	7127
2026-01-05 02:55:24.03	273.87	14.57	-42.2	-43.3	22.1	0.00e+00	0	25	0	450887680	60	7155
2026-01-05 02:55:25.04	274.08	14.59	-42.4	-43.5	21.9	0.00e+00	92	25	0	452984832	60	7256
2026-01-05 02:55:26.05	274.29	14.60	-42.2	-43.3	22.1	0.00e+00	0	25	0	454033408	60	7144
2026-01-05 02:55:27.06	274.50	14.62	-42.2	-43.3	22.1	0.00e+00	92	25	0	456130560	60	7104
2026-01-05 02:55:28.07	274.71	14.63	-42.1	-43.2	22.1	0.00e+00	66	25	0	458227712	60	7060
2026-01-05 02:55:29.08	274.92	14.65	-42.4	-43.5	22.1	0.00e+00	92	25	0	460324864	60	7295
2026-01-05 02:55:30.09	275.13	14.66	-42.1	-43.2	22.2	0.00e+00	92	25	0	462422016	60	7061
2026-01-05 02:55:31.10	275.34	14.67	-42.3	-43.5	22.1	0.00e+00	7	25	0	463470592	60	7255
2026-01-05 02:55:32.11	275.55	14.69	-42.1	-43.2	22.0	0.00e+00	90	25	0	465567744	60	7071
2026-01-05 02:55:33.12	275.76	14.70	-42.0	-43.1	22.0	0.00e+00	21	25	0	467664896	60	6941
2026-01-05 02:55:34.13	275.97	14.71	-42.1	-43.2	22.0	0.00e+00	92	25	0	469762048	60	7033
2026-01-05 02:55:35.14	276.18	14.72	-41.9	-42.9	22.4	0.00e+00	0	25	0	471859200	60	6819
2026-01-05 02:55:36.15	276.39	14.74	-42.0	-43.0	22.2	0.00e+00	90	25	0	472907776	60	6892
2026-01-05 02:55:37.16	276.60	14.75	-42.0	-43.1	22.4	0.00e+00	92	25	0	475004928	60	6971
2026-01-05 02:55:38.18	276.81	14.76	-41.8	-42.8	22.5	0.00e+00	92	25	0	477102080	60	6765
2026-01-05 02:55:39.19	277.03	14.77	-41.7	-42.7	22.4	0.00e+00	92	25	0	479199232	60	6691
2026-01-05 02:55:40.20	277.24	14.78	-41.8	-42.8	22.6	0.00e+00	65	25	0	481296384	60	6755
2026-01-05 02:55:41.21	277.45	14.79	-41.9	-43.0	22.3	0.00e+00	92	25	0	483393536	60	6857
2026-01-05 02:55:42.22	277.66	14.80	-41.8	-42.9	22.3	0.00e+00	0	25	0	484442112	60	6830
2026-01-05 02:55:43.23	277.87	14.81	-42.0	-43.1	22.2	0.00e+00	92	25	0	486539264	60	6944
2026-01-05 02:55:44.24	278.09	14.81	-42.1	-43.2	21.9	0.00e+00	92	25	0	488636416	60	7084
2026-01-05 02:55:45.25	278.30	14.82	-42.1	-43.2	22.2	0.00e+00	92	25	0	490733568	60	7049
2026-01-05 02:55:46.26	278.51	14.83	-42.2	-43.2	22.0	0.00e+00	90	25	0	492830720	60	7088
2026-01-05 02:55:47.27	278.72	14.84	-42.0	-43.0	22.5	0.00e+00	0	25	0	493879296	60	6902
2026-01-05 02:55:48.29	278.94	14.85	-41.7	-42.7	22.5	0.00e+00	90	25	0	495976448	60	6673
2026-01-05 02:55:49.30	279.15	14.85	-41.6	-42.7	22.6	0.00e+00	0	25	0	498073600	60	6620
2026-01-05 02:55:50.31	279.36	14.86	-41.5	-42.6	22.6	0.00e+00	92	25	0	500170752	60	6547
2026-01-05 02:55:51.32	279.58	14.87	-41.5	-42.5	22.7	0.00e+00	92	25	0	502267904	60	6507
2026-01-05 02:55:52.33	279.79	14.87	-41.5	-42.5	22.6	0.00e+00	90	25	0	503316480	60	6506
2026-01-05 02:55:53.34	280.00	14.88	-41.5	-42.5	22.6	0.00e+00	92	25	0	505413632	60	6499
2026-01-05 02:55:54.35	280.22	14.88	-41.5	-42.5	22.6	0.00e+00	0	25	0	507510784	60	6524
2026-01-05 02:55:55.36	280.43	14.89	-41.6	-42.7	22.5	0.00e+00	92	25	0	509607936	60	6618
2026-01-05 02:55:56.37	280.64	14.89	-41.7	-42.8	22.5	0.00e+00	56	25	0	511705088	60	6694
2026-01-05 02:55:57.39	280.86	14.89	-41.8	-42.9	22.3	0.00e+00	92	25	0	512753664	60	6785
2026-01-05 02:55:58.40	281.07	14.90	-41.7	-42.8	22.3	0.00e+00	0	26	0	514850816	60	6703
2026-01-05 02:55:59.41	281.28	14.90	-42.0	-43.0	22.2	0.00e+00	92	25	0	516947968	60	6927
2026-01-05 02:56:00.42	281.50	14.90	-42.7	-43.8	22.1	0.00e+00	90	25	0	519045120	60	7590
2026-01-05 02:56:01.43	281.71	14.91	-41.9	-43.0	22.5	0.00e+00	66	25	0	521142272	60	6868
2026-01-05 02:56:02.44	281.92	14.91	-41.6	-42.6	22.9	0.00e+00	92	25	0	522190848	60	6604
2026-01-05 02:56:03.45	282.14	14.91	-41.4	-42.4	23.0	0.00e+00	8	25	0	524288000	60	6414
2026-01-05 02:56:04.46	282.35	14.91	-41.4	-42.4	23.0	0.00e+00	90	25	0	526385152	60	6422
2026-01-05 02:56:05.47	282.56	14.91	-41.3	-42.3	23.0	0.00e+00	4	25	0	528482304	60	6331
2026-01-05 02:56:06.49	282.78	14.91	-41.1	-42.1	23.1	0.00e+00	92	25	0	530579456	60	6208
2026-01-05 02:56:07.50	282.99	14.91	-41.1	-42.1	23.1	0.00e+00	92	25	0	531628032	60	6184
2026-01-05 02:56:08.51	283.21	14.91	-41.1	-42.1	23.1	0.00e+00	92	25	0	533725184	60	6193
2026-01-05 02:56:09.52	283.42	14.91	-41.2	-42.2	23.0	0.00e+00	92	25	0	535822336	60	6255
2026-01-05 02:56:10.53	283.63	14.91	-41.3	-42.3	22.8	0.00e+00	19	25	0	537919488	60	6343
2026-01-05 02:56:11.54	283.85	14.91	-41.4	-42.4	22.9	0.00e+00	92	25	0	540016640	60	6397
2026-01-05 02:56:12.55	284.06	14.91	-41.4	-42.4	22.8	0.00e+00	73	25	0	541065216	60	6410
2026-01-05 02:56:13.56	284.27	14.91	-41.3	-42.4	23.0	0.00e+00	92	25	0	543162368	60	6392
2026-01-05 02:56:14.57	284.49	14.90	-41.3	-42.3	22.9	0.00e+00	92	25	0	545259520	60	6335
2026-01-05 02:56:15.59	284.70	14.90	-40.9	-41.9	23.3	0.00e+00	92	25	0	547356672	60	6048
2026-01-05 02:56:16.60	284.92	14.90	-40.9	-41.8	23.3	0.00e+00	92	25	0	549453824	60	6003
2026-01-05 02:56:17.61	285.13	14.89	-40.6	-41.6	23.5	0.00e+00	6	25	0	551550976	60	5842
2026-01-05 02:56:18.62	285.34	14.89	-40.7	-41.6	23.4	0.00e+00	92	25	0	552599552	60	5879
2026-01-05 02:56:19.63	285.56	14.89	-40.7	-41.6	23.6	0.00e+00	0	25	0	554696704	60	5857
2026-01-05 02:56:20.64	285.77	14.88	-40.9	-41.9	23.3	0.00e+00	92	25	0	556793856	60	6056
2026-01-05 02:56:21.65	285.98	14.88	-41.1	-42.1	23.3	0.00e+00	0	26	0	558891008	60	6200
2026-01-05 02:56:22.66	286.19	14.87	-41.1	-42.0	23.2	0.00e+00	92	26	0	560988160	60	6162
2026-01-05 02:56:23.67	286.41	14.87	-41.1	-42.1	23.1	0.00e+00	90	25	0	562036736	60	6201
2026-01-05 02:56:24.69	286.62	14.86	-41.0	-42.0	23.2	0.00e+00	0	25	0	564133888	60	6141
2026-01-05 02:56:25.70	286.84	14.85	-40.8	-41.7	23.5	0.00e+00	90	25	0	566231040	60	5952
2026-01-05 02:56:26.71	287.05	14.85	-40.8	-41.8	23.3	0.00e+00	55	25	0	568328192	60	5979
2026-01-05 02:56:27.72	287.26	14.84	-41.0	-41.9	23.4	0.00e+00	90	25	0	570425344	60	6070
2026-01-05 02:56:28.73	287.47	14.83	-41.0	-41.9	23.4	0.00e+00	26	25	0	571473920	60	6094
2026-01-05 02:56:29.74	287.68	14.82	-41.1	-42.0	23.4	0.00e+00	92	25	0	573571072	60	6144
2026-01-05 02:56:30.75	287.90	14.82	-41.0	-41.9	23.4	0.00e+00	92	25	0	575668224	60	6093
2026-01-05 02:56:31.76	288.11	14.81	-40.8	-41.7	23.5	0.00e+00	0	25	0	577765376	60	5937
2026-01-05 02:56:32.77	288.32	14.80	-40.7	-41.6	23.6	0.00e+00	92	25	0	579862528	60	5887
2026-01-05 02:56:33.79	288.53	14.79	-41.3	-42.2	22.7	0.00e+00	55	25	0	580911104	60	6311
2026-01-05 02:56:34.80	288.75	14.78	-41.0	-42.0	23.4	0.00e+00	92	25	0	583008256	60	6135
2026-01-05 02:56:35.81	288.96	14.77	-40.9	-41.8	23.5	0.00e+00	7	25	0	585105408	60	5986
2026-01-05 02:56:36.82	289.17	14.76	-41.1	-42.0	23.7	0.00e+00	92	25	0	587202560	60	6121
2026-01-05 02:56:37.83	289.38	14.75	-41.0	-42.0	23.4	0.00e+00	77	25	0	589299712	60	6114
2026-01-05 02:56:38.84	289.59	14.74	-41.1	-42.0	23.6	0.00e+00	92	25	0	591396864	60	6157
2026-01-05 02:56:39.85	289.80	14.73	-41.1	-42.1	23.4	0.00e+00	92	25	0	592445440	60	6186
2026-01-05 02:56:40.86	290.01	14.71	-40.9	-41.9	23.5	0.00e+00	1	25	0	594542592	60	6061
2026-01-05 02:56:41.87	290.22	14.70	-41.6	-42.5	23.1	0.00e+00	92	25	0	596639744	60	6529
2026-01-05 02:56:42.88	290.43	14.69	-41.3	-42.2	23.1	0.00e+00	10	25	0	598736896	60	6304
2026-01-05 02:56:43.90	290.65	14.68	-41.3	-42.3	23.1	0.00e+00	92	25	0	600834048	60	6331
2026-01-05 02:56:44.91	290.86	14.66	-41.3	-42.3	23.2	0.00e+00	22	25	0	601882624	60	6338
2026-01-05 02:56:45.92	291.07	14.65	-41.3	-42.3	23.2	0.00e+00	92	25	0	603979776	60	6369
2026-01-05 02:56:46.93	291.28	14.64	-41.2	-42.1	23.3	0.00e+00	90	25	0	606076928	60	6244
2026-01-05 02:56:47.94	291.48	14.62	-41.1	-42.0	23.5	0.00e+00	20	25	0	608174080	60	6152
2026-01-05 02:56:48.95	291.69	14.61	-41.0	-41.9	23.4	0.00e+00	92	25	0	610271232	60	6092
2026-01-05 02:56:49.97	291.90	14.59	-40.8	-41.7	23.5	0.00e+00	66	25	0	611319808	60	5921
2026-01-05 02:56:50.98	292.11	14.58	-41.0	-41.9	23.5	0.00e+00	92	25	0	613416960	60	6071
2026-01-05 02:56:51.99	292.32	14.56	-41.1	-42.0	23.4	0.00e+00	82	25	0	615514112	60	6165
2026-01-05 02:56:53.00	292.53	14.54	-41.2	-42.2	23.3	0.00e+00	92	25	0	617611264	60	6248
2026-01-05 02:56:54.01	292.74	14.53	-41.4	-42.3	23.3	0.00e+00	92	25	0	619708416	60	6381
2026-01-05 02:56:55.02	292.95	14.51	-41.3	-42.3	23.3	0.00e+00	0	25	0	620756992	60	6332
2026-01-05 02:56:56.03	293.15	14.49	-40.9	-41.9	23.3	0.00e+00	92	25	0	622854144	60	6067
2026-01-05 02:56:57.04	293.36	14.48	-41.3	-42.2	23.4	0.00e+00	2	25	0	624951296	60	6311
2026-01-05 02:56:58.05	293.57	14.46	-41.2	-42.1	23.6	0.00e+00	92	25	0	627048448	60	6214
2026-01-05 02:56:59.06	293.78	14.44	-40.8	-41.7	23.7	0.00e+00	0	25	0	629145600	60	5935
2026-01-05 02:57:00.07	293.98	14.42	-40.7	-41.6	23.7	0.00e+00	92	25	0	631242752	60	5876
2026-01-05 02:57:01.09	294.19	14.40	-40.7	-41.6	23.8	0.00e+00	92	25	0	632291328	60	5863
2026-01-05 02:57:02.10	294.40	14.39	-40.9	-41.8	23.6	0.00e+00	0	25	0	634388480	60	5992
2026-01-05 02:57:03.11	294.60	14.37	-40.8	-41.7	23.5	0.00e+00	92	25	0	636485632	60	5964
2026-01-05 02:57:04.12	294.81	14.35	-40.8	-41.8	23.3	0.00e+00	52	25	0	638582784	60	5984
2026-01-05 02:57:05.13	295.01	14.33	-40.9	-41.8	23.3	0.00e+00	90	25	0	640679936	60	6030
2026-01-05 02:57:06.14	295.22	14.31	-41.1	-42.0	23.3	0.00e+00	0	25	0	641728512	60	6159
2026-01-05 02:57:07.15	295.42	14.29	-41.1	-42.1	23.0	0.00e+00	0	25	0	643825664	60	6231
2026-01-05 02:57:08.16	295.63	14.26	-41.1	-42.0	23.3	0.00e+00	92	25	0	645922816	60	6159
2026-01-05 02:57:09.17	295.83	14.24	-40.8	-41.8	23.6	0.00e+00	0	25	0	648019968	60	5969
2026-01-05 02:57:10.18	296.04	14.22	-41.0	-42.0	23.5	0.00e+00	92	25	0	650117120	60	6127
2026-01-05 02:57:11.20	296.24	14.20	-40.7	-41.7	23.7	0.00e+00	54	25	0	651165696	60	5902
2026-01-05 02:57:12.21	296.45	14.18	-40.4	-41.3	23.8	0.00e+00	92	25	0	653262848	60	5690
2026-01-05 02:57:13.22	296.65	14.16	-40.5	-41.4	23.9	0.00e+00	0	25	0	655360000	60	5754
2026-01-05 02:57:14.23	296.85	14.13	-40.7	-41.6	23.9	0.00e+00	92	25	0	657457152	60	5884
2026-01-05 02:57:15.24	297.05	14.11	-40.8	-41.7	23.8	0.00e+00	0	25	0	659554304	60	5919
2026-01-05 02:57:16.25	297.26	14.09	-40.5	-41.3	24.1	0.00e+00	44	25	0	660602880	60	5688
2026-01-05 02:57:17.26	297.46	14.06	-40.2	-41.1	24.0	0.00e+00	90	25	0	662700032	60	5538
2026-01-05 02:57:18.27	297.66	14.04	-40.3	-41.2	24.0	0.00e+00	25	25	0	664797184	58	6263
2026-01-05 02:57:19.29	297.86	14.01	-40.4	-41.3	24.0	0.00e+00	90	26	0	666894336	58	6330
2026-01-05 02:57:20.30	298.06	13.99	-40.6	-41.5	23.9	0.00e+00	0	25	0	668991488	58	6510
2026-01-05 02:57:21.31	298.26	13.96	-40.6	-41.5	23.5	0.00e+00	92	25	0	671088640	58	6537
2026-01-05 02:57:22.32	298.46	13.94	-41.1	-42.0	23.6	0.00e+00	0	26	0	672137216	58	6899
2026-01-05 02:57:23.33	298.66	13.91	-40.9	-41.8	23.7	0.00e+00	0	25	0	674234368	58	6761
2026-01-05 02:57:24.34	298.86	13.89	-40.7	-41.6	23.6	0.00e+00	92	26	0	676331520	58	6598
2026-01-05 02:57:25.35	299.06	13.86	-40.7	-41.6	23.6	0.00e+00	56	25	0	678428672	58	6572
2026-01-05 02:57:26.36	299.26	13.84	-40.7	-41.6	23.7	0.00e+00	91	26	0	680525824	58	6603
2026-01-05 02:57:27.37	299.46	13.81	-40.5	-41.5	23.8	0.00e+00	6	25	0	681574400	58	6479
2026-01-05 02:57:28.38	299.66	13.78	-41.0	-41.9	23.6	0.00e+00	92	25	0	683671552	58	6796
2026-01-05 02:57:29.40	299.86	13.75	-40.6	-41.5	23.8	0.00e+00	57	25	0	685768704	58	6508
2026-01-05 02:57:30.41	300.05	13.73	-40.4	-41.3	24.0	0.00e+00	30	25	0	687865856	58	6350
2026-01-05 02:57:31.42	300.25	13.70	-41.1	-42.1	23.8	0.00e+00	92	25	0	689963008	58	6928
2026-01-05 02:57:32.43	300.45	13.67	-40.9	-41.8	24.3	0.00e+00	0	25	0	691011584	60	5993
2026-01-05 02:57:33.44	300.64	13.64	-40.9	-41.8	24.1	0.00e+00	92	25	0	693108736	60	5974
2026-01-05 02:57:34.45	300.84	13.61	-40.4	-41.3	24.3	0.00e+00	0	25	0	695205888	60	5660
2026-01-05 02:57:35.46	301.04	13.58	-40.4	-41.2	24.2	0.00e+00	92	25	0	697303040	60	5621
2026-01-05 02:57:36.47	301.23	13.56	-40.4	-41.3	24.3	0.00e+00	0	26	0	699400192	58	6335
2026-01-05 02:57:37.48	301.43	13.53	-41.4	-42.3	24.1	0.00e+00	92	25	0	700448768	58	7119
2026-01-05 02:57:38.50	301.62	13.50	-40.7	-41.6	24.2	0.00e+00	42	25	0	702545920	60	5844
2026-01-05 02:57:39.51	301.82	13.47	-41.1	-41.9	24.2	0.00e+00	63	25	0	704643072	60	6098
2026-01-05 02:57:40.52	302.01	13.44	-40.8	-41.7	24.2	0.00e+00	91	25	0	706740224	60	5930
2026-01-05 02:57:41.53	302.20	13.41	-40.9	-41.8	23.9	0.00e+00	25	25	0	708837376	60	5988
2026-01-05 02:57:42.54	302.40	13.38	-40.9	-41.8	23.9	0.00e+00	91	25	0	709885952	60	5989
2026-01-05 02:57:43.55	302.59	13.34	-41.3	-42.2	23.9	0.00e+00	63	25	0	711983104	60	6312
2026-01-05 02:57:44.56	302.78	13.31	-40.5	-41.4	23.8	0.00e+00	90	25	0	714080256	60	5721
2026-01-05 02:57:45.57	302.97	13.28	-40.8	-41.7	23.7	0.00e+00	5	25	0	716177408	60	5916
2026-01-05 02:57:46.58	303.16	13.25	-40.7	-41.6	23.6	0.00e+00	60	25	0	718274560	60	5864
2026-01-05 02:57:47.59	303.35	13.22	-40.9	-41.8	23.8	0.00e+00	92	25	0	719323136	60	6026
2026-01-05 02:57:48.61	303.55	13.19	-40.4	-41.4	23.9	0.00e+00	7	25	0	721420288	60	5699
2026-01-05 02:57:49.62	303.74	13.15	-40.4	-41.3	24.0	0.00e+00	92	25	0	723517440	60	5688
2026-01-05 02:57:50.63	303.93	13.12	-40.4	-41.3	23.7	0.00e+00	0	25	0	725614592	60	5653
2026-01-05 02:57:51.64	304.11	13.09	-40.8	-41.7	24.0	0.00e+00	92	25	0	727711744	60	5923
2026-01-05 02:57:52.65	304.30	13.05	-40.8	-41.7	23.9	0.00e+00	0	25	0	728760320	60	5956
2026-01-05 02:57:53.66	304.49	13.02	-41.2	-42.1	23.7	0.00e+00	0	25	0	730857472	60	6242
2026-01-05 02:57:54.67	304.68	12.99	-40.7	-41.6	23.7	0.00e+00	90	25	0	732954624	60	5840
2026-01-05 02:57:55.69	304.87	12.95	-41.2	-42.1	23.9	0.00e+00	25	25	0	735051776	60	6230
2026-01-05 02:57:56.70	305.06	12.92	-40.7	-41.6	23.9	0.00e+00	92	25	0	737148928	60	5850
2026-01-05 02:57:57.71	305.24	12.88	-40.7	-41.6	23.9	0.00e+00	26	25	0	739246080	60	5849
2026-01-05 02:57:58.72	305.43	12.85	-40.9	-41.9	23.6	0.00e+00	92	25	0	740294656	60	6043
2026-01-05 02:57:59.73	305.62	12.82	-40.8	-41.7	23.6	0.00e+00	22	25	0	742391808	60	5955
2026-01-05 02:58:00.74	305.80	12.78	-41.0	-41.9	23.7	0.00e+00	92	25	0	744488960	60	6099
2026-01-05 02:58:01.75	305.99	12.74	-42.3	-43.2	23.6	0.00e+00	30	26	0	746586112	60	7011
2026-01-05 02:58:02.76	306.17	12.71	-42.0	-42.9	23.3	0.00e+00	56	25	0	748683264	60	6844
2026-01-05 02:58:03.77	306.35	12.67	-41.4	-42.4	23.4	0.00e+00	92	25	0	749731840	60	6406
2026-01-05 02:58:04.78	306.54	12.64	-41.7	-42.7	23.1	0.00e+00	1	25	0	751828992	60	6659
2026-01-05 02:58:05.80	306.72	12.60	-41.9	-42.9	22.9	0.00e+00	92	25	0	753926144	60	6815
2026-01-05 02:58:06.81	306.91	12.57	-42.6	-43.7	22.7	0.00e+00	0	25	0	756023296	60	7436
2026-01-05 02:58:07.82	307.09	12.53	-41.8	-42.8	23.2	0.00e+00	92	25	0	758120448	60	6730
2026-01-05 02:58:08.83	307.27	12.49	-41.7	-42.7	23.1	0.00e+00	0	25	0	759169024	60	6633
2026-01-05 02:58:09.84	307.45	12.46	-41.9	-42.9	23.1	0.00e+00	0	25	0	761266176	60	6771
2026-01-05 02:58:10.85	307.63	12.42	-42.8	-43.8	22.9	0.00e+00	92	25	0	763363328	60	7514
2026-01-05 02:58:11.86	307.81	12.38	-42.4	-43.4	22.8	0.00e+00	23	25	0	765460480	60	7223
2026-01-05 02:58:12.88	308.00	12.34	-42.6	-43.6	22.7	0.00e+00	92	25	0	767557632	60	7383
2026-01-05 02:58:13.89	308.17	12.31	-43.2	-44.3	22.4	0.00e+00	0	25	0	768606208	60	7973
2026-01-05 02:58:14.90	308.35	12.27	-42.9	-43.9	22.4	0.00e+00	92	25	0	770703360	60	7648
2026-01-05 02:58:15.91	308.53	12.23	-42.8	-43.9	22.5	0.00e+00	0	25	0	772800512	60	7604
2026-01-05 02:58:16.92	308.71	12.19	-42.8	-43.9	22.6	0.00e+00	56	25	0	774897664	60	7625
2026-01-05 02:58:17.93	308.89	12.15	-42.7	-43.8	22.2	0.00e+00	90	25	0	776994816	60	7550
2026-01-05 02:58:18.94	309.07	12.11	-42.8	-43.9	22.5	0.00e+00	5	25	0	779091968	60	7625
2026-01-05 02:58:19.95	309.24	12.08	-43.0	-44.1	22.6	0.00e+00	92	25	0	780140544	60	7829
2026-01-05 02:58:20.96	309.42	12.04	-43.0	-44.0	22.6	0.00e+00	0	25	0	782237696	60	7700
2026-01-05 02:58:21.97	309.60	12.00	-42.5	-43.5	22.6	0.00e+00	92	25	0	784334848	60	7331
2026-01-05 02:58:22.99	309.77	11.96	-43.2	-44.3	22.1	0.00e+00	58	25	0	786432000	60	8004
2026-01-05 02:58:24.00	309.95	11.92	-43.7	-44.8	22.0	0.00e+00	90	25	0	788529152	60	8453
2026-01-05 02:58:25.01	310.12	11.88	-44.8	-46.2	21.1	0.00e+00	75	25	0	789577728	60	9909
2026-01-05 02:58:26.02	310.30	11.84	-43.9	-45.1	21.0	0.00e+00	0	25	0	791674880	60	8770
2026-01-05 02:58:27.03	310.47	11.80	-44.1	-45.4	21.0	0.00e+00	92	25	0	793772032	60	9059
2026-01-05 02:58:28.04	310.64	11.76	-43.6	-44.9	21.0	0.00e+00	0	25	0	795869184	60	8580
2026-01-05 02:58:29.05	310.82	11.72	-43.9	-45.2	20.6	0.00e+00	92	25	0	797966336	60	8916
2026-01-05 02:58:30.06	310.99	11.68	-43.8	-45.1	20.9	0.00e+00	0	26	0	799014912	60	8742
2026-01-05 02:58:31.07	311.16	11.64	-44.2	-45.5	20.5	0.00e+00	92	25	0	801112064	60	9228
2026-01-05 02:58:32.08	311.33	11.60	-44.1	-45.5	20.5	0.00e+00	38	26	0	803209216	60	9156
2026-01-05 02:58:33.10	311.51	11.55	-44.8	-46.2	20.3	0.00e+00	0	25	0	805306368	60	9913
2026-01-05 02:58:34.11	311.68	11.51	-44.1	-45.5	20.1	0.00e+00	92	25	0	807403520	60	9144
2026-01-05 02:58:35.12	311.85	11.47	-44.3	-45.7	19.8	0.00e+00	0	25	0	808452096	60	9414
2026-01-05 02:58:36.13	312.02	11.43	-44.9	-46.3	20.0	0.00e+00	90	25	0	810549248	60	10101
2026-01-05 02:58:37.14	312.18	11.39	-44.8	-46.3	19.8	0.00e+00	25	25	0	812646400	60	10067
2026-01-05 02:58:38.15	312.35	11.35	-44.4	-45.8	19.9	0.00e+00	92	25	0	814743552	60	9525
2026-01-05 02:58:39.16	312.52	11.30	-43.9	-45.3	20.4	0.00e+00	77	25	0	816840704	60	8952
2026-01-05 02:58:40.17	312.69	11.26	-43.6	-44.9	20.6	0.00e+00	0	25	0	818937856	60	8616
2026-01-05 02:58:41.19	312.86	11.22	-43.6	-44.9	20.8	0.00e+00	90	25	0	819986432	60	8612
2026-01-05 02:58:42.20	313.02	11.18	-43.4	-44.7	21.0	0.00e+00	0	25	0	822083584	60	8333
2026-01-05 02:58:43.21	313.19	11.14	-43.4	-44.6	21.2	0.00e+00	92	25	0	824180736	60	8291
2026-01-05 02:58:44.22	313.36	11.09	-43.3	-44.6	21.3	0.00e+00	0	25	0	826277888	60	8237
2026-01-05 02:58:45.23	313.52	11.05	-43.7	-45.0	21.1	0.00e+00	90	25	0	828375040	60	8647
2026-01-05 02:58:46.24	313.69	11.01	-43.6	-44.8	21.2	0.00e+00	0	25	0	829423616	60	8440
2026-01-05 02:58:47.25	313.85	10.96	-43.5	-44.7	21.0	0.00e+00	28	26	0	831520768	60	8369
2026-01-05 02:58:48.26	314.02	10.92	-44.3	-45.5	20.8	0.00e+00	91	25	0	833617920	60	9227
2026-01-05 02:58:49.27	314.18	10.88	-43.9	-45.2	20.7	0.00e+00	23	26	0	835715072	60	8907
2026-01-05 02:58:50.29	314.34	10.83	-44.1	-45.4	20.7	0.00e+00	92	25	0	837812224	60	9061
2026-01-05 02:58:51.30	314.51	10.79	-44.0	-45.4	20.6	0.00e+00	0	25	0	838860800	60	9031
2026-01-05 02:58:52.31	314.67	10.75	-43.8	-45.2	20.4	0.00e+00	91	25	0	840957952	60	8847
2026-01-05 02:58:53.32	314.83	10.70	-43.7	-45.1	20.2	0.00e+00	24	25	0	843055104	60	8728
2026-01-05 02:58:54.33	314.99	10.66	-43.9	-45.3	20.1	0.00e+00	63	25	0	845152256	60	8962
2026-01-05 02:58:55.34	315.15	10.61	-43.7	-45.0	20.2	0.00e+00	91	25	0	847249408	60	8712
2026-01-05 02:58:56.35	315.31	10.57	-43.9	-45.3	20.2	0.00e+00	5	25	0	848297984	60	8973
2026-01-05 02:58:57.36	315.47	10.53	-43.8	-45.2	20.2	0.00e+00	91	25	0	850395136	60	8842
2026-01-05 02:58:58.37	315.63	10.48	-43.9	-45.3	20.2	0.00e+00	0	25	0	852492288	60	8936
2026-01-05 02:58:59.38	315.79	10.44	-43.9	-45.3	20.4	0.00e+00	0	25	0	854589440	60	8934
2026-01-05 02:59:00.39	315.95	10.39	-43.6	-44.9	20.8	0.00e+00	59	25	0	856686592	60	8543
2026-01-05 02:59:01.41	316.11	10.35	-43.1	-44.4	20.9	0.00e+00	5	25	0	858783744	60	8054
2026-01-05 02:59:02.42	316.26	10.30	-43.1	-44.4	20.9	0.00e+00	0	25	0	859832320	60	8075
2026-01-05 02:59:03.43	316.42	10.26	-43.5	-44.7	20.7	0.00e+00	5	25	0	861929472	60	8410
2026-01-05 02:59:04.44	316.58	10.21	-43.8	-45.2	20.8	0.00e+00	92	25	0	864026624	60	8824
2026-01-05 02:59:05.45	316.73	10.17	-43.6	-44.9	20.9	0.00e+00	0	25	0	866123776	60	8565
2026-01-05 02:59:06.46	316.89	10.12	-43.5	-44.8	20.8	0.00e+00	0	25	0	868220928	60	8512
2026-01-05 02:59:07.47	317.04	10.08	-43.6	-44.9	20.8	0.00e+00	0	25	0	869269504	60	8578
2026-01-05 02:59:08.48	317.20	10.03	-43.3	-44.5	21.0	0.00e+00	0	25	0	871366656	60	8224
2026-01-05 02:59:09.50	317.35	9.99	-43.3	-44.6	21.1	0.00e+00	0	25	0	873463808	60	8237
2026-01-05 02:59:10.51	317.51	9.94	-43.1	-44.3	21.4	0.00e+00	65	25	0	875560960	60	8021
2026-01-05 02:59:11.52	317.66	9.90	-43.2	-44.3	21.5	0.00e+00	92	25	0	877658112	60	8041
2026-01-05 02:59:12.53	317.81	9.85	-43.3	-44.5	21.4	0.00e+00	24	25	0	878706688	60	8169
2026-01-05 02:59:13.54	317.97	9.80	-43.3	-44.5	21.6	0.00e+00	92	25	0	880803840	60	8220
2026-01-05 02:59:14.55	318.12	9.76	-43.4	-44.6	21.4	0.00e+00	24	25	0	882900992	60	8251
2026-01-05 02:59:15.56	318.27	9.71	-42.9	-44.1	21.2	0.00e+00	6	25	0	884998144	60	7834
2026-01-05 02:59:16.57	318.42	9.67	-42.8	-44.0	21.3	0.00e+00	0	25	0	887095296	60	7739
2026-01-05 02:59:17.58	318.57	9.62	-43.1	-44.3	21.2	0.00e+00	7	25	0	888143872	60	7986
2026-01-05 02:59:18.59	318.72	9.57	-43.2	-44.5	20.7	0.00e+00	92	25	0	890241024	60	8181
2026-01-05 02:59:19.60	318.87	9.53	-43.0	-44.2	21.3	0.00e+00	64	25	0	892338176	60	7877
2026-01-05 02:59:20.61	319.02	9.48	-43.4	-44.6	21.2	0.00e+00	92	25	0	894435328	60	8303
2026-01-05 02:59:21.62	319.17	9.43	-43.1	-44.4	21.2	0.00e+00	7	25	0	896532480	60	8061
2026-01-05 02:59:22.64	319.32	9.39	-43.7	-44.9	20.7	0.00e+00	0	25	0	897581056	60	8613
2026-01-05 02:59:23.65	319.46	9.34	-43.5	-44.8	21.2	0.00e+00	6	25	0	899678208	60	8436
2026-01-05 02:59:24.66	319.61	9.29	-43.1	-44.3	21.1	0.00e+00	0	25	0	901775360	60	8018
2026-01-05 02:59:25.67	319.76	9.25	-43.2	-44.5	20.7	0.00e+00	2	25	0	903872512	60	8151
2026-01-05 02:59:26.68	319.90	9.20	-43.6	-44.9	20.6	0.00e+00	0	25	0	905969664	60	8530
2026-01-05 02:59:27.69	320.05	9.15	-43.1	-44.4	21.0	0.00e+00	92	25	0	907018240	60	8098
2026-01-05 02:59:28.70	320.20	9.11	-43.1	-44.4	20.9	0.00e+00	23	25	0	909115392	60	8098
2026-01-05 02:59:29.71	320.34	9.06	-43.6	-44.9	20.7	0.00e+00	42	25	0	911212544	60	8564
2026-01-05 02:59:30.73	320.49	9.01	-43.7	-45.0	20.5	0.00e+00	59	25	0	913309696	60	8677
2026-01-05 02:59:31.74	320.63	8.96	-43.2	-44.5	20.9	0.00e+00	58	25	0	915406848	60	8150
2026-01-05 02:59:32.75	320.77	8.92	-43.0	-44.2	21.1	0.00e+00	16	25	0	916455424	60	7921
2026-01-05 02:59:33.76	320.92	8.87	-42.5	-43.7	21.5	0.00e+00	57	25	0	918552576	60	7428
2026-01-05 02:59:34.77	321.06	8.82	-42.1	-43.2	22.0	0.00e+00	92	25	0	920649728	60	7041
2026-01-05 02:59:35.78	321.20	8.77	-41.9	-43.0	21.9	0.00e+00	58	25	0	922746880	60	6879
2026-01-05 02:59:36.79	321.34	8.73	-41.7	-42.7	22.3	0.00e+00	92	25	0	924844032	60	6676
2026-01-05 02:59:37.80	321.49	8.68	-41.9	-43.0	22.3	0.00e+00	2	25	0	926941184	60	6873
2026-01-05 02:59:38.81	321.63	8.63	-41.9	-43.0	22.4	0.00e+00	0	25	0	927989760	60	6855
2026-01-05 02:59:39.83	321.77	8.58	-42.2	-43.3	22.4	0.00e+00	0	25	0	930086912	60	7090
2026-01-05 02:59:40.84	321.91	8.53	-42.3	-43.5	22.0	0.00e+00	2	25	0	932184064	60	7271
2026-01-05 02:59:41.85	322.05	8.49	-42.4	-43.5	21.9	0.00e+00	90	25	0	934281216	60	7311
2026-01-05 02:59:42.86	322.19	8.44	-42.5	-43.7	21.9	0.00e+00	23	25	0	936378368	60	7444
2026-01-05 02:59:43.87	322.33	8.39	-43.3	-44.4	21.8	0.00e+00	92	25	0	937426944	60	8076
2026-01-05 02:59:44.88	322.46	8.34	-42.6	-43.7	21.9	0.00e+00	22	25	0	939524096	60	7492
2026-01-05 02:59:45.89	322.60	8.29	-42.4	-43.5	21.6	0.00e+00	22	25	0	941621248	60	7308
2026-01-05 02:59:46.90	322.74	8.25	-42.5	-43.7	21.6	0.00e+00	5	25	0	943718400	60	7482
2026-01-05 02:59:47.92	322.88	8.20	-42.1	-43.2	21.9	0.00e+00	23	25	0	945815552	60	7009
2026-01-05 02:59:48.92	323.01	8.15	-42.3	-43.4	21.8	0.00e+00	24	25	0	946864128	60	7227
2026-01-05 02:59:49.94	323.15	8.10	-42.7	-43.9	21.9	0.00e+00	60	25	0	948961280	60	7637
2026-01-05 02:59:50.95	323.28	8.05	-42.0	-43.1	22.2	0.00e+00	91	25	0	951058432	60	6981
2026-01-05 02:59:51.96	323.42	8.01	-42.7	-43.8	22.0	0.00e+00	59	25	0	953155584	60	7549
2026-01-05 02:59:52.97	323.55	7.96	-42.5	-43.5	22.0	0.00e+00	92	25	0	955252736	60	7325
2026-01-05 02:59:53.98	323.69	7.91	-42.4	-43.5	22.0	0.00e+00	0	25	0	956301312	60	7279
2026-01-05 02:59:54.99	323.82	7.86	-42.6	-43.7	22.0	0.00e+00	0	25	0	958398464	60	7489
2026-01-05 02:59:56.00	323.96	7.81	-42.5	-43.6	21.8	0.00e+00	0	25	0	960495616	60	7418
2026-01-05 02:59:57.01	324.09	7.76	-42.5	-43.7	21.6	0.00e+00	0	25	0	962592768	60	7433
2026-01-05 02:59:58.03	324.22	7.71	-42.2	-43.3	21.8	0.00e+00	90	25	0	964689920	60	7167
2026-01-05 02:59:59.04	324.36	7.67	-42.3	-43.5	21.7	0.00e+00	0	25	0	966787072	60	7289
2026-01-05 03:00:00.05	324.49	7.62	-42.3	-43.4	21.6	0.00e+00	92	25	0	967835648	60	7248
2026-01-05 03:00:01.06	324.62	7.57	-42.5	-43.6	21.6	0.00e+00	0	25	0	969932800	60	7400
2026-01-05 03:00:02.07	324.75	7.52	-42.3	-43.5	21.9	0.00e+00	0	25	0	972029952	60	7262
2026-01-05 03:00:03.08	324.88	7.47	-42.7	-43.8	21.9	0.00e+00	0	25	0	974127104	60	7586
2026-01-05 03:00:04.09	325.01	7.42	-43.1	-44.2	21.8	0.00e+00	0	25	0	976224256	60	7945
2026-01-05 03:00:05.10	325.14	7.37	-42.2	-43.3	22.0	0.00e+00	92	25	0	977272832	60	7151
2026-01-05 03:00:06.11	325.27	7.32	-42.2	-43.2	22.2	0.00e+00	22	25	0	979369984	60	7082
2026-01-05 03:00:07.12	325.40	7.28	-42.8	-44.0	21.2	0.00e+00	92	25	0	981467136	60	7751
2026-01-05 03:00:08.14	325.53	7.23	-43.4	-44.6	21.9	0.00e+00	23	25	0	983564288	60	8236
2026-01-05 03:00:09.15	325.65	7.18	-43.1	-44.2	21.7	0.00e+00	58	25	0	985661440	60	7900
2026-01-05 03:00:10.16	325.78	7.13	-43.8	-45.1	21.6	0.00e+00	0	25	0	986710016	60	8744
2026-01-05 03:00:11.17	325.91	7.08	-43.0	-44.2	21.3	0.00e+00	0	25	0	988807168	60	7943
2026-01-05 03:00:12.18	326.04	7.03	-43.5	-44.7	21.5	0.00e+00	90	25	0	990904320	60	8350
2026-01-05 03:00:13.19	326.16	6.98	-43.3	-44.5	21.6	0.00e+00	58	25	0	993001472	60	8213
2026-01-05 03:00:14.20	326.29	6.93	-42.5	-43.7	21.7	0.00e+00	92	25	0	995098624	60	7450
2026-01-05 03:00:15.21	326.41	6.88	-42.1	-43.2	21.9	0.00e+00	0	25	0	996147200	60	7070
2026-01-05 03:00:16.22	326.54	6.84	-42.1	-43.2	22.0	0.00e+00	0	25	0	998244352	60	7039
2026-01-05 03:00:17.23	326.66	6.79	-43.1	-44.3	21.9	0.00e+00	0	25	0	1000341504	60	7984
2026-01-05 03:00:18.25	326.79	6.74	-42.6	-43.7	21.9	0.00e+00	0	25	0	1002438656	60	7462
2026-01-05 03:00:19.26	326.91	6.69	-42.6	-43.7	21.8	0.00e+00	44	25	0	1004535808	60	7506
2026-01-05 03:00:20.27	327.04	6.64	-42.3	-43.4	21.7	0.00e+00	19	25	0	1006632960	60	7233
2026-01-05 03:00:21.28	327.16	6.59	-43.0	-44.2	21.6	0.00e+00	92	25	0	1007681536	60	7912
2026-01-05 03:00:22.29	327.28	6.54	-42.5	-43.7	21.5	0.00e+00	0	25	0	1009778688	60	7464
2026-01-05 03:00:23.30	327.40	6.49	-43.0	-44.2	21.2	0.00e+00	21	25	0	1011875840	60	7953
2026-01-05 03:00:24.31	327.53	6.44	-42.8	-44.0	21.3	0.00e+00	20	25	0	1013972992	60	7721
2026-01-05 03:00:25.32	327.65	6.39	-43.4	-44.6	21.0	0.00e+00	61	25	0	1016070144	60	8306
2026-01-05 03:00:26.34	327.77	6.34	-43.7	-44.9	21.2	0.00e+00	0	25	0	1017118720	60	8573
2026-01-05 03:00:27.35	327.89	6.29	-42.9	-44.1	21.0	0.00e+00	0	25	0	1019215872	60	7831
2026-01-05 03:00:28.36	328.01	6.25	-42.9	-44.1	21.0	0.00e+00	92	25	0	1021313024	60	7835
2026-01-05 03:00:29.37	328.13	6.20	-42.8	-44.1	20.8	0.00e+00	59	25	0	1023410176	60	7777
2026-01-05 03:00:30.38	328.25	6.15	-43.0	-44.2	20.9	0.00e+00	92	25	0	1025507328	60	7935
2026-01-05 03:00:31.39	328.37	6.10	-43.1	-44.4	20.8	0.00e+00	60	25	0	1026555904	60	8091
2026-01-05 03:00:32.40	328.49	6.05	-43.4	-44.6	21.0	0.00e+00	5	25	0	1028653056	60	8286
2026-01-05 03:00:33.41	328.61	6.00	-42.7	-43.9	21.4	0.00e+00	0	25	0	1030750208	60	7636
2026-01-05 03:00:34.42	328.73	5.95	-42.9	-44.1	20.9	0.00e+00	4	25	0	1032847360	60	7851
2026-01-05 03:00:35.44	328.84	5.90	-42.4	-43.6	21.2	0.00e+00	77	25	0	1034944512	60	7342
2026-01-05 03:00:36.45	328.96	5.85	-42.7	-43.9	20.8	0.00e+00	3	25	0	1035993088	60	7627
2026-01-05 03:00:37.46	329.08	5.80	-42.7	-44.0	20.9	0.00e+00	91	25	0	1038090240	60	7730
2026-01-05 03:00:38.47	329.19	5.75	-43.2	-44.6	20.3	0.00e+00	4	25	0	1040187392	60	8292
2026-01-05 03:00:39.48	329.31	5.70	-43.2	-44.6	20.3	0.00e+00	0	25	0	1042284544	60	8264
2026-01-05 03:00:40.49	329.43	5.65	-43.5	-44.9	20.0	0.00e+00	2	25	0	1044381696	60	8586
2026-01-05 03:00:41.50	329.54	5.60	-43.8	-45.2	20.1	0.00e+00	0	25	0	1045430272	60	8905
2026-01-05 03:00:42.51	329.66	5.56	-43.1	-44.5	20.1	0.00e+00	92	25	0	1047527424	60	8223
2026-01-05 03:00:43.52	329.77	5.51	-43.2	-44.6	20.1	0.00e+00	18	25	0	1049624576	60	8292
2026-01-05 03:00:44.54	329.89	5.46	-43.0	-44.4	20.2	0.00e+00	92	25	0	1051721728	60	8124
2026-01-05 03:00:45.55	330.00	5.41	-42.9	-44.3	20.2	0.00e+00	64	25	0	1053818880	60	8030
2026-01-05 03:00:46.56	330.11	5.36	-43.6	-45.1	19.8	0.00e+00	8	25	0	1055916032	60	8760
2026-01-05 03:00:47.57	330.23	5.31	-43.2	-44.6	19.9	0.00e+00	6	25	0	1056964608	60	8320
2026-01-05 03:00:48.58	330.34	5.26	-43.2	-44.6	20.1	0.00e+00	65	25	0	1059061760	60	8300
2026-01-05 03:00:49.59	330.45	5.21	-43.0	-44.4	20.2	0.00e+00	4	25	0	1061158912	60	8059
2026-01-05 03:00:50.60	330.56	5.16	-43.0	-44.4	20.0	0.00e+00	67	25	0	1063256064	60	8124
2026-01-05 03:00:51.61	330.68	5.11	-43.3	-44.8	19.7	0.00e+00	90	25	0	1065353216	60	8440
2026-01-05 03:00:52.62	330.79	5.06	-43.5	-45.1	19.4	0.00e+00	2	25	0	1066401792	60	8727
2026-01-05 03:00:53.63	330.90	5.01	-43.8	-45.5	19.1	0.00e+00	92	25	0	1068498944	60	9135
2026-01-05 03:00:54.65	331.01	4.96	-43.5	-45.0	19.7	0.00e+00	1	25	0	1070596096	60	8644
2026-01-05 03:00:55.66	331.12	4.91	-43.7	-45.3	19.2	0.00e+00	0	25	0	1072693248	60	8942
2026-01-05 03:00:56.67	331.23	4.87	-43.2	-44.7	19.7	0.00e+00	0	25	0	1074790400	60	8342
2026-01-05 03:00:57.68	331.34	4.82	-43.8	-45.3	19.5	0.00e+00	1	25	0	1075838976	60	8999
2026-01-05 03:00:58.69	331.45	4.77	-44.3	-45.9	19.2	0.00e+00	92	25	0	1077936128	60	9639
2026-01-05 03:00:59.70	331.56	4.72	-43.5	-45.1	19.5	0.00e+00	0	25	0	1080033280	60	8738
2026-01-05 03:01:00.71	331.67	4.67	-44.1	-45.8	18.8	0.00e+00	92	25	0	1082130432	60	9521
2026-01-05 03:01:01.72	331.78	4.62	-44.3	-46.1	18.1	0.00e+00	22	25	0	1084227584	60	9881
2026-01-05 03:01:02.73	331.88	4.57	-44.5	-46.5	17.6	0.00e+00	20	25	0	1085276160	60	10251
2026-01-05 03:01:03.74	331.99	4.52	-44.7	-47.0	16.8	0.00e+00	60	25	0	1087373312	60	10881
2026-01-05 03:01:04.75	332.10	4.47	-45.0	-47.7	15.4	0.00e+00	2	25	0	1089470464	60	11861
2026-01-05 03:01:05.77	332.21	4.42	-45.4	-48.5	14.4	7.00e-07	90	25	0	1091567616	60	12981
2026-01-05 03:01:06.78	332.31	4.37	-45.5	-49.2	13.1	7.60e-06	0	25	0	1093664768	60	14142
2026-01-05 03:01:07.79	332.42	4.32	-45.8	-50.0	12.1	6.86e-05	90	25	0	1094713344	60	15403
2026-01-05 03:01:08.80	332.52	4.28	-45.9	-51.4	9.9	6.21e-03	65	25	0	1096810496	60	18079
2026-01-05 03:01:09.81	332.63	4.23	-46.1	-52.6	7.9	2.81e-02	60	25	0	1098907648	60	20916
2026-01-05 03:01:10.82	332.73	4.18	-46.2	-53.9	6.1	1.03e-01	0	26	0	1101004800	60	24208
2026-01-05 03:01:11.83	332.84	4.13	-46.1	-54.9	5.0	4.64e-01	0	25	0	1103101952	60	27100
2026-01-05 03:01:12.84	332.94	4.08	-46.1	-56.0	4.0	8.83e-01	17	25	0	1104150528	60	30838
2026-01-05 03:01:13.86	333.05	4.03	-46.1	-58.4	3.9	1.35e+00	0	25	104	1105199104	60	40374
2026-01-05 03:01:14.87	333.15	3.98	-46.1	-59.1	3.7	1.49e+00	0	25	104	1105199104	60	44050
2026-01-05 03:01:15.88	333.26	3.93	-46.1	-59.8	3.6	1.51e+00	0	25	104	1105199104	60	47871
2026-01-05 03:01:16.89	333.36	3.88	-46.0	-60.2	3.6	1.51e+00	0	25	104	1105199104	60	49833
