passes_logs/2026/01/05/R4.6S_Anadyr_2ch/R4.6S_Anadyr_2ch__20260105_224730_SUOMI_NPP_rec.log

#Pass ID: 20260105_224730_SUOMI NPP
#Satellite: SUOMI NPP
#Configuration: NPP
#almurnet v.1.7.20251203
#Start time: 2026-01-05 22:47:31

#Version: 2.2.20231116
#Station: R4.6S_Anadyr_2ch
#Location: 177.4865 lon 64.73178 lat
#TLE: 1 37849U 11061A   25350.92281687  .00000071  00000+0  54882-4 0  9996
#TLE: 2 37849  98.7777 288.2268 0002366 112.8570 247.2856 14.19515404732588

#Time	Az	El	Level	Level2	SNR	BER	BlckErr	Temp	State	Recorded	gain1	gain2
2026-01-05 22:47:31.76	119.84	0.07	-51.1	-63.8	3.5	1.51e+00	0	29	0	0	60	73072
2026-01-05 22:47:32.77	119.80	0.13	-51.2	-66.6	3.6	1.51e+00	0	30	104	0	60	104023
2026-01-05 22:47:33.78	119.76	0.19	-51.2	-66.6	3.6	1.51e+00	0	30	104	0	60	104177
2026-01-05 22:47:34.79	119.73	0.25	-51.2	-66.6	3.6	1.51e+00	0	30	104	0	60	104372
2026-01-05 22:47:35.80	119.69	0.31	-51.2	-66.6	3.6	1.51e+00	0	30	104	0	60	104379
2026-01-05 22:47:36.81	119.65	0.37	-51.3	-66.6	3.6	1.51e+00	0	30	104	0	60	104351
2026-01-05 22:47:37.82	119.62	0.42	-51.3	-66.7	3.6	1.51e+00	0	30	104	0	60	105346
2026-01-05 22:47:38.83	119.58	0.48	-51.3	-66.6	3.6	1.51e+00	0	30	104	0	60	104552
2026-01-05 22:47:39.84	119.54	0.54	-51.3	-66.7	3.6	1.51e+00	0	30	104	0	60	104903
2026-01-05 22:47:40.85	119.51	0.60	-51.2	-66.6	3.6	1.51e+00	0	30	104	0	60	104300
2026-01-05 22:47:41.86	119.47	0.66	-51.2	-66.6	3.6	1.51e+00	0	30	104	0	60	104193
2026-01-05 22:47:42.87	119.43	0.72	-51.1	-66.5	3.6	1.51e+00	0	30	104	0	60	103307
2026-01-05 22:47:43.88	119.39	0.78	-51.1	-66.4	3.6	1.51e+00	0	30	104	0	60	102209
2026-01-05 22:47:44.89	119.35	0.84	-51.0	-66.4	3.6	1.51e+00	0	30	104	0	60	101422
2026-01-05 22:47:45.91	119.31	0.90	-50.8	-66.2	3.6	1.51e+00	0	30	104	0	60	99478
2026-01-05 22:47:46.91	119.28	0.96	-50.6	-66.1	3.6	1.51e+00	0	30	104	0	60	98386
2026-01-05 22:47:47.93	119.24	1.02	-50.2	-65.7	3.6	1.51e+00	0	30	104	0	60	94108
2026-01-05 22:47:48.94	119.20	1.08	-49.4	-65.0	3.6	1.51e+00	0	30	104	0	60	87113
2026-01-05 22:47:49.95	119.16	1.14	-49.4	-65.0	3.6	1.51e+00	0	30	104	0	60	86573
2026-01-05 22:47:50.96	119.12	1.20	-49.4	-65.0	3.6	1.51e+00	0	30	104	0	60	87112
2026-01-05 22:47:51.97	119.08	1.26	-49.4	-65.0	3.6	1.51e+00	0	30	104	0	60	86682
2026-01-05 22:47:52.98	119.04	1.32	-49.4	-65.1	3.6	1.51e+00	0	30	104	0	60	87408
2026-01-05 22:47:53.99	119.00	1.38	-49.4	-65.0	3.6	1.51e+00	0	30	104	0	60	86751
2026-01-05 22:47:55.00	118.96	1.44	-49.4	-65.0	3.6	1.51e+00	0	30	104	0	60	87126
2026-01-05 22:47:56.01	118.92	1.50	-49.3	-65.1	3.6	1.51e+00	0	30	104	0	60	87346
2026-01-05 22:47:57.02	118.88	1.56	-49.4	-65.0	3.6	1.51e+00	0	30	104	0	60	86867
2026-01-05 22:47:58.04	118.84	1.63	-49.4	-65.0	3.6	1.51e+00	0	30	104	0	60	87154
2026-01-05 22:47:59.05	118.80	1.69	-49.4	-65.0	3.6	1.51e+00	0	30	104	0	60	87063
2026-01-05 22:48:00.06	118.76	1.75	-49.4	-65.1	3.6	1.51e+00	0	30	104	0	60	87357
2026-01-05 22:48:01.07	118.72	1.81	-49.4	-65.0	3.6	1.51e+00	0	31	104	0	60	86749
2026-01-05 22:48:02.08	118.68	1.87	-49.4	-65.0	3.6	1.51e+00	0	30	104	0	60	86726
2026-01-05 22:48:03.09	118.63	1.93	-49.4	-65.0	3.6	1.51e+00	0	30	104	0	60	87096
2026-01-05 22:48:04.10	118.59	2.00	-49.4	-65.0	3.6	1.51e+00	0	30	104	0	60	86555
2026-01-05 22:48:05.11	118.55	2.06	-49.3	-64.9	3.6	1.51e+00	0	30	104	0	60	85548
2026-01-05 22:48:06.12	118.51	2.12	-49.3	-64.8	3.6	1.51e+00	0	30	104	0	60	84686
2026-01-05 22:48:07.13	118.47	2.18	-49.3	-64.9	3.6	1.51e+00	0	31	104	0	60	85398
2026-01-05 22:48:08.14	118.42	2.24	-49.3	-64.9	3.6	1.51e+00	0	31	104	0	60	86024
2026-01-05 22:48:09.16	118.38	2.31	-49.3	-65.0	3.6	1.51e+00	0	31	104	0	60	86406
2026-01-05 22:48:10.16	118.34	2.37	-49.4	-65.0	3.6	1.51e+00	0	30	104	0	60	86624
2026-01-05 22:48:11.18	118.30	2.43	-49.4	-65.0	3.6	1.51e+00	0	31	104	0	60	87144
2026-01-05 22:48:12.19	118.25	2.49	-49.3	-65.0	3.6	1.51e+00	0	31	104	0	60	87120
2026-01-05 22:48:13.20	118.21	2.56	-49.3	-65.0	3.6	1.51e+00	0	31	104	0	60	86623
2026-01-05 22:48:14.21	118.17	2.62	-49.4	-65.0	3.6	1.51e+00	0	31	104	0	60	86497
2026-01-05 22:48:15.22	118.12	2.68	-49.3	-65.0	3.6	1.51e+00	0	31	104	0	60	86349
2026-01-05 22:48:16.23	118.08	2.75	-49.3	-64.9	3.6	1.51e+00	0	31	104	0	60	85948
2026-01-05 22:48:17.24	118.03	2.81	-49.3	-64.8	3.5	1.51e+00	0	31	104	0	60	84272
2026-01-05 22:48:18.25	117.99	2.87	-49.3	-64.5	3.6	1.51e+00	0	31	104	0	60	82218
2026-01-05 22:48:19.26	117.95	2.94	-49.3	-64.4	3.6	1.51e+00	0	31	104	0	60	80500
2026-01-05 22:48:20.28	117.90	3.00	-49.3	-64.3	3.6	1.51e+00	0	31	104	0	60	79589
2026-01-05 22:48:21.29	117.86	3.07	-49.3	-64.3	3.6	1.51e+00	0	31	104	0	60	79949
2026-01-05 22:48:22.30	117.81	3.13	-49.3	-64.8	3.6	1.51e+00	0	31	104	0	60	84706
2026-01-05 22:48:23.31	117.77	3.19	-49.3	-64.9	3.6	1.51e+00	0	31	104	0	60	85855
2026-01-05 22:48:24.32	117.72	3.26	-49.3	-63.4	3.6	1.51e+00	0	31	104	0	60	72441
2026-01-05 22:48:25.33	117.67	3.32	-49.0	-59.7	5.0	1.15e+00	92	31	104	0	60	47081
2026-01-05 22:48:26.34	117.63	3.39	-48.6	-56.1	7.1	2.59e-01	0	31	0	0	60	31163
2026-01-05 22:48:27.35	117.58	3.45	-48.0	-53.5	10.1	5.12e-02	47	31	102	1048576	60	23099
2026-01-05 22:48:28.36	117.54	3.52	-47.4	-51.8	12.0	6.47e-04	0	31	102	1048576	60	19047
2026-01-05 22:48:29.37	117.49	3.58	-47.2	-51.5	12.2	1.32e-04	92	31	102	1048576	60	18310
2026-01-05 22:48:30.39	117.44	3.65	-49.6	-63.6	3.6	1.26e+00	0	31	104	1048576	60	73457
2026-01-05 22:48:31.40	117.39	3.71	-49.5	-65.1	3.6	1.51e+00	0	31	104	1048576	60	88070
2026-01-05 22:48:32.41	117.35	3.78	-48.5	-56.2	8.8	1.35e-01	92	31	104	1048576	60	31591
2026-01-05 22:48:33.42	117.30	3.84	-44.3	-46.4	17.7	0.00e+00	22	31	0	1048576	60	10140
2026-01-05 22:48:34.43	117.25	3.91	-49.2	-62.9	3.7	5.95e-01	0	31	104	1048576	60	68028
2026-01-05 22:48:35.44	117.20	3.98	-44.5	-46.6	17.5	1.50e-06	0	31	0	1048576	60	10482
2026-01-05 22:48:36.45	117.16	4.04	-44.5	-46.6	17.5	0.00e+00	92	31	0	1048576	60	10425
2026-01-05 22:48:37.46	117.11	4.11	-44.3	-46.3	17.8	0.00e+00	21	31	0	1048576	60	10090
2026-01-05 22:48:38.47	117.06	4.17	-44.3	-46.2	18.0	0.00e+00	18	31	0	1048576	60	10000
2026-01-05 22:48:39.48	117.01	4.24	-43.8	-45.6	18.3	0.00e+00	92	31	0	1048576	60	9321
2026-01-05 22:48:40.50	116.96	4.31	-43.4	-45.0	19.1	0.00e+00	0	31	0	1048576	60	8658
2026-01-05 22:48:41.51	116.91	4.37	-43.4	-45.0	19.0	0.00e+00	92	31	0	1048576	60	8683
2026-01-05 22:48:42.52	116.86	4.44	-43.4	-45.0	19.0	0.00e+00	0	31	0	1048576	60	8709
2026-01-05 22:48:43.53	116.81	4.51	-43.8	-45.5	18.6	0.00e+00	92	31	0	1048576	60	9206
2026-01-05 22:48:44.54	116.76	4.58	-43.6	-45.3	18.8	0.00e+00	24	31	0	1048576	60	8945
2026-01-05 22:48:45.55	116.71	4.64	-43.9	-45.7	18.6	0.00e+00	92	31	0	1048576	60	9373
2026-01-05 22:48:46.56	116.66	4.71	-43.9	-45.7	18.6	0.00e+00	90	31	0	1048576	60	9373
2026-01-05 22:48:47.57	116.61	4.78	-43.7	-45.4	18.8	0.00e+00	0	31	0	1048576	60	9039
2026-01-05 22:48:48.58	116.56	4.84	-43.8	-45.5	18.7	0.00e+00	65	31	0	1048576	60	9175
2026-01-05 22:48:49.60	116.51	4.91	-43.7	-45.4	18.7	0.00e+00	0	31	0	1048576	60	9104
2026-01-05 22:48:50.61	116.45	4.98	-43.7	-45.4	18.7	0.00e+00	92	31	0	1048576	60	9099
2026-01-05 22:48:51.62	116.40	5.05	-43.9	-45.6	18.6	0.00e+00	0	31	0	1048576	60	9335
2026-01-05 22:48:52.63	116.35	5.12	-43.6	-45.2	18.9	0.00e+00	90	31	0	1048576	60	8917
2026-01-05 22:48:53.64	116.30	5.19	-43.4	-45.0	19.4	0.00e+00	92	31	101	1048576	60	8661
2026-01-05 22:48:54.65	116.25	5.25	-43.3	-44.8	19.5	0.00e+00	0	31	101	1048576	60	8519
2026-01-05 22:48:55.66	116.19	5.32	-43.4	-44.9	19.3	0.00e+00	92	31	101	1048576	60	8620
2026-01-05 22:48:56.67	116.14	5.39	-43.6	-45.2	19.2	0.00e+00	0	31	101	1048576	60	8827
2026-01-05 22:48:57.68	116.09	5.46	-43.5	-45.1	19.2	0.00e+00	90	31	101	1048576	60	8785
2026-01-05 22:48:58.69	116.03	5.53	-43.7	-45.3	19.1	0.00e+00	0	31	101	1048576	60	8991
2026-01-05 22:48:59.71	115.98	5.60	-43.6	-45.2	19.0	0.00e+00	92	31	101	1048576	60	8894
2026-01-05 22:49:00.72	115.92	5.67	-43.8	-45.5	18.9	0.00e+00	90	31	101	1048576	60	9160
2026-01-05 22:49:01.73	115.87	5.74	-43.8	-45.4	18.9	0.00e+00	0	31	101	1048576	60	9129
2026-01-05 22:49:02.74	115.81	5.81	-43.7	-45.3	19.0	0.00e+00	92	31	101	1048576	60	8977
2026-01-05 22:49:03.75	115.76	5.88	-43.4	-45.0	19.4	0.00e+00	0	31	101	1048576	60	8631
2026-01-05 22:49:04.76	115.70	5.95	-43.5	-45.0	19.3	0.00e+00	92	31	101	1048576	60	8714
2026-01-05 22:49:05.77	115.65	6.02	-43.3	-44.8	19.6	0.00e+00	0	31	101	1048576	60	8493
2026-01-05 22:49:06.78	115.59	6.09	-42.9	-44.4	20.0	0.00e+00	92	31	101	1048576	60	8102
2026-01-05 22:49:07.79	115.54	6.16	-42.7	-44.1	20.2	0.00e+00	91	31	101	1048576	60	7829
2026-01-05 22:49:08.80	115.48	6.23	-42.7	-44.1	20.1	0.00e+00	13	31	101	1048576	60	7794
2026-01-05 22:49:09.81	115.42	6.30	-42.8	-44.2	20.1	0.00e+00	92	31	101	1048576	60	7924
2026-01-05 22:49:10.83	115.37	6.38	-42.8	-44.2	20.0	0.00e+00	0	31	101	1048576	60	7924
2026-01-05 22:49:11.84	115.31	6.45	-42.9	-44.5	19.9	0.00e+00	91	31	101	1048576	60	8143
2026-01-05 22:49:12.85	115.25	6.52	-43.2	-44.8	19.6	0.00e+00	0	31	101	1048576	60	8436
2026-01-05 22:49:13.86	115.19	6.59	-43.3	-44.9	19.3	0.00e+00	92	31	101	1048576	60	8595
2026-01-05 22:49:14.87	115.13	6.66	-43.2	-44.7	19.6	0.00e+00	92	31	101	1048576	60	8402
2026-01-05 22:49:15.88	115.08	6.73	-43.4	-44.9	19.5	0.00e+00	0	31	101	1048576	60	8602
2026-01-05 22:49:16.89	115.02	6.81	-43.4	-45.0	19.5	0.00e+00	92	31	101	1048576	60	8622
2026-01-05 22:49:17.90	114.96	6.88	-43.2	-44.7	19.7	0.00e+00	0	31	101	1048576	60	8389
2026-01-05 22:49:18.91	114.90	6.95	-42.8	-44.1	20.2	0.00e+00	92	31	101	1048576	60	7853
2026-01-05 22:49:19.92	114.84	7.02	-42.6	-43.9	20.6	0.00e+00	0	31	101	1048576	60	7619
2026-01-05 22:49:20.93	114.78	7.10	-42.5	-43.8	20.5	0.00e+00	92	31	101	1048576	60	7583
2026-01-05 22:49:21.95	114.72	7.17	-42.5	-43.8	20.5	0.00e+00	90	31	101	1048576	60	7571
2026-01-05 22:49:22.96	114.66	7.24	-42.4	-43.6	20.7	0.00e+00	92	31	101	1048576	60	7385
2026-01-05 22:49:23.97	114.60	7.32	-42.5	-43.7	20.7	0.00e+00	92	31	101	1048576	60	7500
2026-01-05 22:49:24.98	114.53	7.39	-42.5	-43.8	20.6	0.00e+00	0	31	101	1048576	60	7573
2026-01-05 22:49:25.99	114.47	7.46	-42.4	-43.7	20.6	0.00e+00	90	31	101	1048576	60	7444
2026-01-05 22:49:27.00	114.41	7.54	-42.4	-43.6	20.7	0.00e+00	0	31	101	1048576	60	7391
2026-01-05 22:49:28.01	114.35	7.61	-42.3	-43.6	20.9	0.00e+00	92	31	101	1048576	60	7350
2026-01-05 22:49:29.02	114.29	7.69	-42.6	-43.9	20.6	0.00e+00	23	31	101	1048576	60	7636
2026-01-05 22:49:30.03	114.22	7.76	-42.5	-43.7	20.7	0.00e+00	92	31	101	1048576	60	7492
2026-01-05 22:49:31.04	114.16	7.84	-42.6	-43.9	20.5	0.00e+00	92	31	101	1048576	60	7611
2026-01-05 22:49:32.05	114.10	7.91	-42.3	-43.5	20.8	0.00e+00	0	31	101	1048576	60	7310
2026-01-05 22:49:33.06	114.03	7.99	-42.0	-43.1	21.2	0.00e+00	47	31	101	1048576	60	7001
2026-01-05 22:49:34.08	113.97	8.06	-42.0	-43.2	21.1	0.00e+00	0	31	101	1048576	60	7038
2026-01-05 22:49:35.09	113.90	8.14	-42.0	-43.2	21.1	0.00e+00	92	31	101	1048576	60	7024
2026-01-05 22:49:36.10	113.84	8.21	-41.8	-43.0	21.3	0.00e+00	24	31	101	1048576	60	6858
2026-01-05 22:49:37.11	113.77	8.29	-42.2	-43.5	20.2	0.00e+00	92	31	101	1048576	60	7318
2026-01-05 22:49:38.12	113.70	8.37	-42.0	-43.2	21.1	0.00e+00	92	31	101	1048576	60	7087
2026-01-05 22:49:39.13	113.64	8.44	-42.1	-43.4	21.0	0.00e+00	0	31	101	1048576	60	7251
2026-01-05 22:49:40.14	113.57	8.52	-42.2	-43.5	20.9	0.00e+00	92	31	101	1048576	60	7275
2026-01-05 22:49:41.15	113.51	8.59	-42.4	-43.7	20.9	0.00e+00	0	31	101	1048576	60	7463
2026-01-05 22:49:42.16	113.44	8.67	-42.2	-43.5	20.9	0.00e+00	92	31	101	1048576	60	7319
2026-01-05 22:49:43.17	113.37	8.75	-42.2	-43.5	21.0	0.00e+00	8	31	101	1048576	60	7288
2026-01-05 22:49:44.18	113.30	8.83	-41.9	-43.1	21.3	0.00e+00	92	31	101	1048576	60	6967
2026-01-05 22:49:45.19	113.23	8.90	-41.9	-43.1	21.3	0.00e+00	90	31	101	1048576	60	6960
2026-01-05 22:49:46.20	113.16	8.98	-41.9	-43.1	21.3	0.00e+00	0	31	101	1048576	60	6950
2026-01-05 22:49:47.22	113.10	9.06	-41.9	-43.1	21.3	0.00e+00	91	31	101	1048576	60	6973
2026-01-05 22:49:48.23	113.03	9.14	-41.8	-42.9	21.4	0.00e+00	0	31	101	1048576	60	6830
2026-01-05 22:49:49.24	112.96	9.22	-41.6	-42.7	21.7	0.00e+00	91	31	101	1048576	60	6645
2026-01-05 22:49:50.25	112.89	9.29	-42.2	-43.4	21.0	0.00e+00	0	31	101	1048576	60	7219
2026-01-05 22:49:51.26	112.81	9.37	-42.1	-43.4	21.1	0.00e+00	90	31	101	1048576	60	7208
2026-01-05 22:49:52.27	112.74	9.45	-42.3	-43.5	21.0	0.00e+00	91	31	101	1048576	60	7321
2026-01-05 22:49:53.28	112.67	9.53	-42.3	-43.6	20.9	0.00e+00	16	31	101	1048576	60	7391
2026-01-05 22:49:54.29	112.60	9.61	-42.4	-43.7	20.9	0.00e+00	81	31	101	1048576	60	7439
2026-01-05 22:49:55.30	112.53	9.69	-42.2	-43.5	21.1	0.00e+00	0	31	101	1048576	60	7295
2026-01-05 22:49:56.32	112.45	9.77	-42.4	-43.7	20.9	0.00e+00	86	31	101	1048576	60	7439
2026-01-05 22:49:57.33	112.38	9.85	-41.7	-42.9	21.6	0.00e+00	0	31	101	1048576	60	6788
2026-01-05 22:49:58.34	112.31	9.93	-41.9	-43.1	21.4	0.00e+00	91	31	101	1048576	60	6958
2026-01-05 22:49:59.35	112.23	10.01	-41.9	-43.1	21.4	0.00e+00	20	31	101	1048576	60	6965
2026-01-05 22:50:00.36	112.16	10.09	-41.8	-43.0	21.5	0.00e+00	92	31	101	1048576	60	6857
2026-01-05 22:50:01.37	112.08	10.17	-41.9	-43.1	21.3	0.00e+00	90	31	101	1048576	60	6952
2026-01-05 22:50:02.38	112.01	10.25	-41.5	-42.7	21.8	0.00e+00	0	31	101	1048576	60	6641
2026-01-05 22:50:03.39	111.93	10.33	-41.8	-43.0	21.4	0.00e+00	85	31	101	1048576	60	6858
2026-01-05 22:50:04.40	111.86	10.41	-41.6	-42.8	21.6	0.00e+00	0	31	101	1048576	60	6698
2026-01-05 22:50:05.41	111.78	10.50	-41.6	-42.7	21.7	0.00e+00	90	31	101	1048576	60	6675
2026-01-05 22:50:06.43	111.70	10.58	-41.8	-43.1	21.4	0.00e+00	92	31	101	1048576	60	6933
2026-01-05 22:50:07.44	111.62	10.66	-41.7	-42.9	21.6	0.00e+00	87	31	101	1048576	60	6787
2026-01-05 22:50:08.45	111.55	10.74	-41.3	-42.4	22.0	0.00e+00	91	31	101	1048576	60	6440
2026-01-05 22:50:09.46	111.47	10.83	-41.3	-42.5	21.9	0.00e+00	0	31	101	1048576	60	6474
2026-01-05 22:50:10.47	111.39	10.91	-41.0	-42.1	22.2	0.00e+00	91	31	101	1048576	60	6208
2026-01-05 22:50:11.48	111.31	10.99	-40.9	-42.0	22.3	0.00e+00	8	31	101	1048576	60	6143
2026-01-05 22:50:12.49	111.23	11.07	-41.1	-42.2	22.1	0.00e+00	92	31	101	1048576	60	6271
2026-01-05 22:50:13.50	111.15	11.16	-41.1	-42.1	22.2	0.00e+00	20	31	101	1048576	60	6221
2026-01-05 22:50:14.51	111.07	11.24	-41.2	-42.3	22.0	0.00e+00	91	31	101	1048576	60	6373
2026-01-05 22:50:15.52	110.99	11.33	-41.1	-42.1	22.1	0.00e+00	91	31	101	1048576	60	6232
2026-01-05 22:50:16.54	110.91	11.41	-41.1	-42.1	22.2	0.00e+00	0	31	101	1048576	60	6237
2026-01-05 22:50:17.55	110.82	11.49	-41.1	-42.2	22.1	0.00e+00	92	31	101	1048576	60	6252
2026-01-05 22:50:18.56	110.74	11.58	-41.0	-42.0	22.3	0.00e+00	0	31	101	1048576	60	6139
2026-01-05 22:50:19.57	110.66	11.66	-40.8	-41.9	22.4	0.00e+00	90	31	101	1048576	60	6053
2026-01-05 22:50:20.58	110.57	11.75	-40.8	-41.8	22.5	0.00e+00	0	31	101	1048576	60	5976
2026-01-05 22:50:21.59	110.49	11.83	-40.7	-41.6	22.5	0.00e+00	91	31	101	1048576	60	5888
2026-01-05 22:50:22.60	110.41	11.92	-40.9	-41.8	22.5	0.00e+00	92	31	101	1048576	60	6033
2026-01-05 22:50:23.61	110.32	12.01	-41.0	-42.0	22.4	0.00e+00	0	31	101	1048576	60	6130
2026-01-05 22:50:24.62	110.23	12.09	-41.2	-42.2	22.0	0.00e+00	80	31	101	1048576	60	6289
2026-01-05 22:50:25.63	110.15	12.18	-41.3	-42.4	22.1	0.00e+00	0	31	101	1048576	60	6408
2026-01-05 22:50:26.65	110.06	12.26	-41.1	-42.1	22.2	0.00e+00	91	31	101	1048576	60	6224
2026-01-05 22:50:27.66	109.97	12.35	-41.3	-42.4	22.0	0.00e+00	0	31	101	1048576	60	6451
2026-01-05 22:50:28.67	109.89	12.44	-41.3	-42.4	22.1	0.00e+00	92	31	101	1048576	60	6415
2026-01-05 22:50:29.68	109.80	12.53	-41.1	-42.2	22.2	0.00e+00	92	31	101	1048576	60	6261
2026-01-05 22:50:30.69	109.71	12.61	-41.3	-42.3	22.1	0.00e+00	0	31	101	1048576	60	6379
2026-01-05 22:50:31.70	109.62	12.70	-41.0	-42.0	22.2	0.00e+00	85	31	101	1048576	60	6149
2026-01-05 22:50:32.71	109.53	12.79	-41.1	-42.1	22.3	0.00e+00	0	31	101	1048576	60	6197
2026-01-05 22:50:33.72	109.44	12.88	-41.0	-42.1	22.3	0.00e+00	91	31	101	1048576	60	6187
2026-01-05 22:50:34.73	109.35	12.96	-41.2	-42.3	22.2	0.00e+00	0	31	101	1048576	60	6336
2026-01-05 22:50:35.74	109.26	13.05	-41.2	-42.3	22.2	0.00e+00	92	31	101	1048576	60	6344
2026-01-05 22:50:36.75	109.16	13.14	-41.4	-42.4	22.0	0.00e+00	22	31	101	1048576	60	6450
2026-01-05 22:50:37.76	109.07	13.23	-41.4	-42.5	22.1	0.00e+00	91	31	101	1048576	60	6527
2026-01-05 22:50:38.78	108.98	13.32	-41.4	-42.4	22.1	0.00e+00	90	31	101	1048576	60	6446
2026-01-05 22:50:39.79	108.88	13.41	-41.1	-42.2	22.3	0.00e+00	0	31	101	1048576	60	6250
2026-01-05 22:50:40.80	108.79	13.50	-41.1	-42.1	22.4	0.00e+00	91	31	101	1048576	60	6197
2026-01-05 22:50:41.81	108.69	13.59	-41.1	-42.1	22.3	0.00e+00	0	31	101	1048576	60	6213
2026-01-05 22:50:42.82	108.60	13.68	-41.0	-42.0	22.5	0.00e+00	91	31	101	1048576	60	6130
2026-01-05 22:50:43.83	108.50	13.77	-41.2	-42.2	22.3	0.00e+00	92	31	101	1048576	60	6291
2026-01-05 22:50:44.84	108.40	13.86	-41.0	-42.0	22.5	0.00e+00	79	31	101	1048576	60	6147
2026-01-05 22:50:45.85	108.31	13.95	-41.1	-42.1	22.3	0.00e+00	91	31	101	1048576	60	6211
2026-01-05 22:50:46.86	108.21	14.05	-41.5	-42.6	22.0	0.00e+00	0	31	101	1048576	60	6559
2026-01-05 22:50:47.87	108.11	14.14	-41.4	-42.5	22.1	0.00e+00	91	31	101	1048576	60	6466
2026-01-05 22:50:48.89	108.01	14.23	-41.5	-42.7	21.9	0.00e+00	0	31	101	1048576	60	6620
2026-01-05 22:50:49.90	107.91	14.32	-41.5	-42.6	22.0	0.00e+00	92	31	101	1048576	60	6545
2026-01-05 22:50:50.91	107.81	14.41	-41.3	-42.4	22.1	0.00e+00	18	31	101	1048576	60	6426
2026-01-05 22:50:51.92	107.71	14.51	-41.2	-42.3	22.2	0.00e+00	92	31	101	1048576	60	6339
2026-01-05 22:50:52.93	107.60	14.60	-41.0	-42.0	22.4	0.00e+00	91	31	101	1048576	60	6158
2026-01-05 22:50:53.94	107.50	14.69	-41.0	-42.1	22.4	0.00e+00	0	31	101	1048576	60	6188
2026-01-05 22:50:54.95	107.40	14.79	-40.8	-41.8	22.5	0.00e+00	90	31	101	1048576	60	6027
2026-01-05 22:50:55.96	107.29	14.88	-41.1	-42.1	22.3	0.00e+00	0	31	101	1048576	60	6206
2026-01-05 22:50:56.98	107.19	14.98	-40.6	-41.6	22.7	0.00e+00	92	31	101	1048576	60	5847
2026-01-05 22:50:57.99	107.08	15.07	-40.7	-41.6	22.8	0.00e+00	0	31	101	1048576	60	5880
2026-01-05 22:50:59.00	106.98	15.16	-40.5	-41.5	22.9	0.00e+00	91	31	101	1048576	60	5788
2026-01-05 22:51:00.01	106.87	15.26	-40.5	-41.5	22.8	0.00e+00	91	31	101	1048576	60	5811
2026-01-05 22:51:01.02	106.76	15.35	-40.5	-41.5	22.9	0.00e+00	0	31	101	1048576	60	5773
2026-01-05 22:51:02.03	106.65	15.45	-40.2	-41.1	23.1	0.00e+00	92	31	101	1048576	58	6190
2026-01-05 22:51:03.04	106.54	15.55	-40.1	-41.0	23.2	0.00e+00	0	31	101	1048576	58	6136
2026-01-05 22:51:04.05	106.44	15.64	-39.9	-40.8	23.3	0.00e+00	91	31	101	1048576	58	6028
2026-01-05 22:51:05.06	106.33	15.74	-39.8	-40.7	23.1	0.00e+00	0	31	101	1048576	58	5949
2026-01-05 22:51:06.08	106.21	15.83	-39.9	-40.8	23.3	0.00e+00	92	31	101	1048576	58	5996
2026-01-05 22:51:07.09	106.10	15.93	-39.7	-40.6	23.6	0.00e+00	92	31	101	1048576	58	5831
2026-01-05 22:51:08.10	105.99	16.03	-39.9	-40.8	23.2	0.00e+00	0	31	101	1048576	58	6015
2026-01-05 22:51:09.11	105.88	16.13	-40.0	-40.9	23.3	0.00e+00	90	31	101	1048576	58	6065
2026-01-05 22:51:10.12	105.76	16.22	-40.1	-41.0	23.2	0.00e+00	0	31	101	1048576	58	6151
2026-01-05 22:51:11.13	105.65	16.32	-40.3	-41.3	23.0	0.00e+00	80	31	101	1048576	58	6347
2026-01-05 22:51:12.14	105.53	16.42	-40.5	-41.4	23.0	0.00e+00	0	31	101	1048576	58	6442
2026-01-05 22:51:13.15	105.41	16.52	-40.4	-41.3	23.0	0.00e+00	91	31	101	1048576	58	6357
2026-01-05 22:51:14.16	105.30	16.62	-40.4	-41.4	23.0	0.00e+00	92	31	101	1048576	58	6415
2026-01-05 22:51:15.17	105.18	16.71	-40.3	-41.3	23.0	0.00e+00	0	31	101	1048576	58	6333
2026-01-05 22:51:16.19	105.06	16.81	-40.5	-41.5	22.8	0.00e+00	92	31	101	1048576	58	6516
2026-01-05 22:51:17.20	104.94	16.91	-40.7	-41.8	22.7	0.00e+00	0	31	101	1048576	58	6696
2026-01-05 22:51:18.21	104.82	17.01	-40.7	-41.7	22.6	0.00e+00	92	31	101	1048576	58	6687
2026-01-05 22:51:19.22	104.70	17.11	-40.6	-41.6	22.8	0.00e+00	0	31	101	1048576	58	6571
2026-01-05 22:51:20.23	104.58	17.21	-40.7	-41.7	22.7	0.00e+00	92	31	101	1048576	58	6655
2026-01-05 22:51:21.24	104.45	17.31	-40.8	-41.8	22.6	0.00e+00	46	31	101	1048576	58	6739
2026-01-05 22:51:22.25	104.33	17.42	-40.6	-41.6	22.8	0.00e+00	0	31	101	1048576	58	6547
2026-01-05 22:51:23.26	104.21	17.52	-40.7	-41.7	22.7	0.00e+00	92	31	101	1048576	58	6647
2026-01-05 22:51:24.27	104.08	17.62	-40.5	-41.5	22.8	0.00e+00	0	31	101	1048576	58	6508
2026-01-05 22:51:25.28	103.95	17.72	-40.9	-41.9	22.4	0.00e+00	92	31	101	1048576	58	6795
2026-01-05 22:51:26.29	103.83	17.82	-40.6	-41.6	22.5	0.00e+00	0	31	101	1048576	58	6580
2026-01-05 22:51:27.30	103.70	17.92	-41.1	-42.1	22.5	0.00e+00	91	31	101	1048576	58	6943
2026-01-05 22:51:28.32	103.57	18.03	-41.1	-42.2	22.3	0.00e+00	76	31	101	1048576	60	6248
2026-01-05 22:51:29.33	103.44	18.13	-40.8	-41.8	22.7	0.00e+00	0	31	101	1048576	60	6021
2026-01-05 22:51:30.34	103.31	18.23	-40.9	-41.9	22.5	0.00e+00	92	31	101	1048576	60	6077
2026-01-05 22:51:31.35	103.18	18.34	-40.9	-41.9	22.6	0.00e+00	0	31	101	1048576	60	6068
2026-01-05 22:51:32.36	103.04	18.44	-40.8	-41.8	22.7	0.00e+00	88	31	101	1048576	60	5971
2026-01-05 22:51:33.37	102.91	18.54	-41.2	-42.2	22.3	0.00e+00	0	31	101	1048576	60	6295
2026-01-05 22:51:34.38	102.78	18.65	-41.1	-42.2	22.3	0.00e+00	90	31	101	1048576	60	6264
2026-01-05 22:51:35.39	102.64	18.75	-41.2	-42.2	22.3	0.00e+00	27	31	101	1048576	60	6313
2026-01-05 22:51:36.40	102.51	18.86	-41.3	-42.4	22.2	0.00e+00	0	31	101	1048576	60	6415
2026-01-05 22:51:37.41	102.37	18.96	-41.3	-42.4	22.1	0.00e+00	92	31	101	1048576	60	6414
2026-01-05 22:51:38.42	102.23	19.07	-41.4	-42.5	22.3	0.00e+00	29	31	101	1048576	60	6467
2026-01-05 22:51:39.43	102.09	19.17	-41.5	-42.5	22.1	0.00e+00	78	31	101	1048576	60	6519
2026-01-05 22:51:40.44	101.95	19.28	-41.2	-42.2	22.4	0.00e+00	0	31	101	1048576	60	6272
2026-01-05 22:51:41.46	101.81	19.38	-41.4	-42.5	22.3	0.00e+00	92	31	101	1048576	60	6512
2026-01-05 22:51:42.47	101.67	19.49	-41.3	-42.3	22.4	0.00e+00	8	31	101	1048576	60	6364
2026-01-05 22:51:43.48	101.52	19.60	-41.3	-42.3	22.4	0.00e+00	60	31	101	1048576	60	6362
2026-01-05 22:51:44.49	101.38	19.70	-41.6	-42.6	22.0	0.00e+00	90	31	101	1048576	60	6615
2026-01-05 22:51:45.50	101.23	19.81	-41.6	-42.7	22.0	0.00e+00	0	31	101	1048576	60	6630
2026-01-05 22:51:46.51	101.09	19.92	-42.0	-43.1	21.6	0.00e+00	84	31	101	1048576	60	6996
2026-01-05 22:51:47.52	100.94	20.03	-41.2	-42.2	22.4	0.00e+00	0	31	101	1048576	60	6301
2026-01-05 22:51:48.53	100.79	20.13	-41.1	-42.1	22.4	0.00e+00	92	31	101	1048576	60	6230
2026-01-05 22:51:49.54	100.64	20.24	-41.3	-42.3	22.5	0.00e+00	0	31	101	1048576	60	6372
2026-01-05 22:51:50.56	100.49	20.35	-41.2	-42.3	22.3	0.00e+00	92	31	101	1048576	60	6336
2026-01-05 22:51:51.56	100.34	20.46	-41.3	-42.3	22.3	0.00e+00	92	31	101	1048576	60	6345
2026-01-05 22:51:52.58	100.19	20.57	-41.3	-42.4	22.3	0.00e+00	0	31	101	1048576	60	6400
2026-01-05 22:51:53.59	100.03	20.68	-41.3	-42.3	22.4	0.00e+00	92	31	101	1048576	60	6370
2026-01-05 22:51:54.60	99.88	20.79	-41.4	-42.4	21.8	0.00e+00	0	31	101	1048576	60	6463
2026-01-05 22:51:55.61	99.72	20.90	-41.1	-42.1	22.6	0.00e+00	82	31	101	1048576	60	6197
2026-01-05 22:51:56.62	99.57	21.01	-41.0	-42.0	22.5	0.00e+00	0	31	101	1048576	60	6169
2026-01-05 22:51:57.63	99.41	21.12	-41.0	-42.0	22.6	0.00e+00	92	31	101	1048576	60	6147
2026-01-05 22:51:58.64	99.25	21.23	-41.1	-42.2	22.4	0.00e+00	84	31	101	1048576	60	6253
2026-01-05 22:51:59.65	99.09	21.34	-41.3	-42.3	22.3	0.00e+00	0	31	101	1048576	60	6382
2026-01-05 22:52:00.66	98.93	21.45	-41.0	-42.0	22.6	0.00e+00	92	31	101	1048576	60	6119
2026-01-05 22:52:01.67	98.76	21.56	-40.5	-41.4	23.1	0.00e+00	0	31	101	1048576	60	5734
2026-01-05 22:52:02.69	98.60	21.67	-40.8	-41.7	22.8	0.00e+00	70	31	101	1048576	60	5949
2026-01-05 22:52:03.70	98.43	21.78	-40.3	-41.2	23.2	0.00e+00	0	31	101	1048576	60	5611
2026-01-05 22:52:04.71	98.27	21.90	-40.1	-41.0	23.3	0.00e+00	90	31	101	1048576	58	6122
2026-01-05 22:52:05.72	98.10	22.01	-40.4	-41.3	23.0	0.00e+00	57	31	101	1048576	58	6368
2026-01-05 22:52:06.73	97.93	22.12	-40.7	-41.7	22.8	0.00e+00	0	31	101	1048576	58	6660
2026-01-05 22:52:07.74	97.76	22.23	-40.7	-41.7	22.7	0.00e+00	92	31	101	1048576	58	6663
2026-01-05 22:52:08.75	97.59	22.35	-40.3	-41.2	23.1	0.00e+00	0	31	101	1048576	58	6301
2026-01-05 22:52:09.76	97.41	22.46	-40.4	-41.3	23.0	0.00e+00	90	31	101	1048576	58	6372
2026-01-05 22:52:10.77	97.24	22.57	-40.5	-41.5	23.2	0.00e+00	0	31	101	1048576	58	6489
2026-01-05 22:52:11.78	97.07	22.68	-40.4	-41.3	23.1	0.00e+00	92	31	101	1048576	58	6367
2026-01-05 22:52:12.79	96.89	22.80	-40.6	-41.6	22.8	0.00e+00	92	31	101	1048576	58	6567
2026-01-05 22:52:13.80	96.71	22.91	-40.6	-41.5	22.7	0.00e+00	0	31	101	1048576	58	6536
2026-01-05 22:52:14.82	96.53	23.03	-40.7	-41.7	22.8	0.00e+00	84	31	101	1048576	58	6658
2026-01-05 22:52:15.83	96.35	23.14	-40.7	-41.7	22.6	0.00e+00	0	31	101	1048576	58	6652
2026-01-05 22:52:16.84	96.17	23.26	-40.8	-41.8	22.7	0.00e+00	79	31	101	1048576	58	6753
2026-01-05 22:52:17.85	95.98	23.37	-41.1	-42.1	22.4	0.00e+00	0	31	101	1048576	58	6957
2026-01-05 22:52:18.86	95.80	23.48	-41.4	-42.5	22.3	0.00e+00	91	31	101	1048576	60	6484
2026-01-05 22:52:19.87	95.61	23.60	-41.6	-42.7	22.0	0.00e+00	91	31	101	1048576	60	6663
2026-01-05 22:52:20.88	95.43	23.71	-41.6	-42.7	22.2	0.00e+00	0	31	101	1048576	60	6627
2026-01-05 22:52:21.89	95.24	23.83	-41.9	-43.0	21.7	0.00e+00	92	31	101	1048576	60	6925
2026-01-05 22:52:22.90	95.05	23.95	-41.9	-43.1	21.7	0.00e+00	0	31	101	1048576	60	6950
2026-01-05 22:52:23.91	94.86	24.06	-42.4	-43.6	21.0	0.00e+00	87	31	101	1048576	60	7383
2026-01-05 22:52:24.93	94.66	24.18	-42.6	-43.9	21.0	0.00e+00	0	31	101	1048576	60	7597
2026-01-05 22:52:25.94	94.47	24.29	-42.4	-43.6	21.3	0.00e+00	92	31	101	1048576	60	7407
2026-01-05 22:52:26.95	94.27	24.41	-42.5	-43.7	21.2	0.00e+00	25	31	101	1048576	60	7483
2026-01-05 22:52:27.96	94.07	24.53	-42.3	-43.5	21.3	0.00e+00	61	31	101	1048576	60	7308
2026-01-05 22:52:28.97	93.87	24.64	-42.3	-43.4	21.4	0.00e+00	90	31	101	1048576	60	7236
2026-01-05 22:52:29.98	93.67	24.76	-42.3	-43.5	21.0	0.00e+00	0	31	101	1048576	60	7284
2026-01-05 22:52:30.99	93.47	24.88	-42.1	-43.2	21.6	0.00e+00	79	31	101	1048576	60	7080
2026-01-05 22:52:32.00	93.27	24.99	-42.2	-43.3	21.5	0.00e+00	0	31	101	1048576	60	7149
2026-01-05 22:52:33.01	93.06	25.11	-42.1	-43.3	21.6	0.00e+00	92	31	101	1048576	60	7094
2026-01-05 22:52:34.02	92.86	25.23	-41.9	-43.1	21.8	0.00e+00	12	31	101	1048576	60	6936
2026-01-05 22:52:35.04	92.65	25.34	-41.8	-42.9	21.8	0.00e+00	34	31	101	1048576	60	6770
2026-01-05 22:52:36.05	92.44	25.46	-41.7	-42.8	21.9	0.00e+00	92	31	101	1048576	60	6734
2026-01-05 22:52:37.06	92.23	25.58	-41.9	-43.0	21.8	0.00e+00	0	31	101	1048576	60	6907
2026-01-05 22:52:38.07	92.01	25.70	-41.8	-42.9	22.0	0.00e+00	90	31	101	1048576	60	6827
2026-01-05 22:52:39.08	91.80	25.81	-41.7	-42.8	22.0	0.00e+00	0	31	101	1048576	60	6727
2026-01-05 22:52:40.09	91.58	25.93	-41.3	-42.3	22.4	0.00e+00	90	31	101	1048576	60	6362
2026-01-05 22:52:41.10	91.37	26.05	-41.4	-42.4	22.3	0.00e+00	8	31	101	1048576	60	6449
2026-01-05 22:52:42.12	91.15	26.17	-41.8	-42.9	21.9	0.00e+00	90	31	101	1048576	60	6798
2026-01-05 22:52:43.13	90.92	26.28	-41.7	-42.8	21.9	0.00e+00	92	31	101	1048576	60	6761
2026-01-05 22:52:44.14	90.70	26.40	-41.8	-43.0	21.8	0.00e+00	0	31	101	1048576	60	6851
2026-01-05 22:52:45.15	90.48	26.52	-41.9	-43.1	21.8	0.00e+00	31	31	101	1048576	60	6973
2026-01-05 22:52:46.16	90.25	26.64	-41.6	-42.7	22.1	0.00e+00	0	31	101	1048576	60	6622
2026-01-05 22:52:47.17	90.02	26.76	-41.7	-42.8	21.9	0.00e+00	92	31	101	1048576	60	6759
2026-01-05 22:52:48.18	89.79	26.87	-41.7	-42.8	21.7	0.00e+00	0	31	101	1048576	60	6769
2026-01-05 22:52:49.19	89.56	26.99	-42.0	-43.1	21.6	0.00e+00	92	31	101	1048576	60	7003
2026-01-05 22:52:50.20	89.33	27.11	-41.7	-42.9	21.9	0.00e+00	90	31	101	1048576	60	6777
2026-01-05 22:52:51.22	89.09	27.23	-41.4	-42.5	22.1	0.00e+00	0	31	101	1048576	60	6482
2026-01-05 22:52:52.23	88.86	27.35	-41.5	-42.7	22.2	0.00e+00	92	31	101	1048576	60	6619
2026-01-05 22:52:53.24	88.62	27.46	-41.2	-42.2	22.5	0.00e+00	0	31	101	1048576	60	6296
2026-01-05 22:52:54.25	88.38	27.58	-41.4	-42.4	22.3	0.00e+00	87	31	101	1048576	60	6446
2026-01-05 22:52:55.26	88.14	27.70	-41.4	-42.4	22.3	0.00e+00	0	31	101	1048576	60	6448
2026-01-05 22:52:56.27	87.90	27.82	-41.5	-42.6	22.2	0.00e+00	92	31	101	1048576	60	6574
2026-01-05 22:52:57.28	87.65	27.93	-41.3	-42.3	22.3	0.00e+00	92	31	101	1048576	60	6386
2026-01-05 22:52:58.29	87.40	28.05	-41.6	-42.7	22.0	0.00e+00	0	31	101	1048576	60	6652
2026-01-05 22:52:59.30	87.16	28.17	-42.4	-43.6	21.3	0.00e+00	20	31	101	1048576	60	7372
2026-01-05 22:53:00.31	86.90	28.28	-42.5	-43.7	21.1	0.00e+00	0	31	101	1048576	60	7501
2026-01-05 22:53:01.32	86.65	28.40	-42.4	-43.6	21.2	0.00e+00	92	31	101	1048576	60	7393
2026-01-05 22:53:02.34	86.40	28.52	-42.1	-43.2	21.7	0.00e+00	0	31	101	1048576	60	7086
2026-01-05 22:53:03.35	86.14	28.64	-42.1	-43.2	21.5	0.00e+00	92	31	101	1048576	60	7084
2026-01-05 22:53:04.36	85.88	28.75	-42.0	-43.1	21.8	0.00e+00	0	31	101	1048576	60	6980
2026-01-05 22:53:05.37	85.62	28.87	-41.6	-42.7	22.1	0.00e+00	0	31	101	1048576	60	6626
2026-01-05 22:53:06.38	85.36	28.98	-41.2	-42.3	22.5	0.00e+00	49	31	101	1048576	60	6332
2026-01-05 22:53:07.39	85.10	29.10	-41.1	-42.1	22.6	0.00e+00	0	31	101	1048576	60	6186
2026-01-05 22:53:08.40	84.83	29.22	-40.9	-41.9	22.8	0.00e+00	92	31	101	1048576	60	6075
2026-01-05 22:53:09.41	84.56	29.33	-41.1	-42.1	22.6	0.00e+00	18	31	101	1048576	60	6232
2026-01-05 22:53:10.42	84.29	29.45	-41.5	-42.5	22.2	0.00e+00	92	31	101	1048576	60	6535
2026-01-05 22:53:11.43	84.02	29.56	-41.4	-42.4	22.5	0.00e+00	31	31	101	1048576	60	6462
2026-01-05 22:53:12.44	83.75	29.68	-41.5	-42.5	22.2	0.00e+00	3	31	101	1048576	60	6522
2026-01-05 22:53:13.45	83.47	29.79	-41.7	-42.8	22.0	0.00e+00	92	31	101	1048576	60	6753
2026-01-05 22:53:14.46	83.19	29.91	-41.4	-42.4	22.4	0.00e+00	0	31	101	1048576	60	6423
2026-01-05 22:53:15.48	82.91	30.02	-41.4	-42.4	22.3	0.00e+00	91	31	101	1048576	60	6458
2026-01-05 22:53:16.49	82.63	30.13	-41.9	-43.0	21.8	0.00e+00	0	31	101	1048576	60	6856
2026-01-05 22:53:17.50	82.35	30.25	-42.4	-43.5	21.4	0.00e+00	91	31	101	1048576	60	7302
2026-01-05 22:53:18.51	82.06	30.36	-43.1	-44.4	20.6	0.00e+00	31	31	101	1048576	60	8112
2026-01-05 22:53:19.52	81.78	30.47	-43.6	-45.0	20.1	0.00e+00	62	31	101	1048576	60	8702
2026-01-05 22:53:20.53	81.49	30.58	-43.9	-45.4	19.8	0.00e+00	91	31	101	1048576	60	9046
2026-01-05 22:53:21.54	81.19	30.70	-43.7	-45.1	20.1	0.00e+00	0	31	101	1048576	60	8761
2026-01-05 22:53:22.55	80.90	30.81	-43.6	-45.0	20.1	0.00e+00	32	31	101	1048576	60	8650
2026-01-05 22:53:23.56	80.61	30.92	-42.9	-44.2	20.9	0.00e+00	0	31	101	1048576	60	7871
2026-01-05 22:53:24.57	80.31	31.03	-42.8	-44.0	21.0	0.00e+00	92	31	101	1048576	60	7737
2026-01-05 22:53:25.58	80.01	31.14	-42.5	-43.6	21.4	0.00e+00	0	31	101	1048576	60	7400
2026-01-05 22:53:26.60	79.70	31.25	-42.4	-43.5	21.4	0.00e+00	92	31	101	1048576	60	7317
2026-01-05 22:53:27.61	79.40	31.36	-42.8	-44.0	21.0	0.00e+00	90	31	101	1048576	60	7704
2026-01-05 22:53:28.62	79.09	31.47	-43.4	-44.8	20.3	0.00e+00	0	31	101	1048576	60	8457
2026-01-05 22:53:29.63	78.79	31.57	-44.0	-45.5	19.7	0.00e+00	90	31	101	1048576	60	9205
2026-01-05 22:53:30.64	78.48	31.68	-43.7	-45.1	19.9	0.00e+00	0	31	101	1048576	60	8762
2026-01-05 22:53:31.65	78.16	31.79	-44.4	-46.0	19.4	0.00e+00	90	31	101	1048576	60	9704
2026-01-05 22:53:32.66	77.85	31.89	-44.5	-46.1	19.0	0.00e+00	0	31	101	1048576	60	9827
2026-01-05 22:53:33.67	77.53	32.00	-44.7	-46.4	18.8	0.00e+00	92	31	101	1048576	60	10135
2026-01-05 22:53:34.68	77.22	32.10	-44.3	-45.8	19.4	0.00e+00	91	31	101	1048576	60	9470
2026-01-05 22:53:35.69	76.90	32.21	-44.0	-45.4	19.8	0.00e+00	0	31	101	1048576	60	9118
2026-01-05 22:53:36.70	76.57	32.31	-43.9	-45.3	19.9	0.00e+00	66	31	101	1048576	60	8947
2026-01-05 22:53:37.71	76.25	32.42	-44.7	-46.4	18.7	0.00e+00	0	31	101	1048576	60	10147
2026-01-05 22:53:38.72	75.92	32.52	-45.2	-47.0	18.4	0.00e+00	90	31	101	1048576	60	10937
2026-01-05 22:53:39.73	75.60	32.62	-45.1	-46.9	18.4	0.00e+00	0	31	101	1048576	60	10836
2026-01-05 22:53:40.75	75.26	32.72	-44.9	-46.6	18.6	0.00e+00	92	31	101	1048576	60	10439
2026-01-05 22:53:41.76	74.93	32.82	-45.3	-47.1	18.2	0.00e+00	19	31	101	1048576	60	11075
2026-01-05 22:53:42.77	74.59	32.92	-45.3	-47.1	18.3	0.00e+00	0	31	101	1048576	60	11088
2026-01-05 22:53:43.78	74.26	33.02	-44.8	-46.4	19.4	0.00e+00	81	31	101	1048576	60	10192
2026-01-05 22:53:44.79	73.92	33.12	-44.0	-45.4	20.1	0.00e+00	0	31	101	1048576	60	9044
2026-01-05 22:53:45.80	73.58	33.21	-43.5	-44.8	20.3	0.00e+00	90	31	101	1048576	60	8488
2026-01-05 22:53:46.81	73.24	33.31	-43.4	-44.7	20.3	0.00e+00	0	31	101	1048576	60	8367
2026-01-05 22:53:47.82	72.89	33.40	-43.8	-45.2	20.0	0.00e+00	92	31	101	1048576	60	8831
2026-01-05 22:53:48.83	72.54	33.50	-43.9	-45.4	19.9	0.00e+00	26	31	101	1048576	60	9038
2026-01-05 22:53:49.85	72.19	33.59	-43.9	-45.2	19.9	0.00e+00	0	31	101	1048576	60	8910
2026-01-05 22:53:50.86	71.84	33.68	-44.2	-45.6	19.6	0.00e+00	92	31	101	1048576	60	9329
2026-01-05 22:53:51.87	71.49	33.78	-44.0	-45.4	19.8	0.00e+00	0	31	101	1048576	60	9119
2026-01-05 22:53:52.88	71.13	33.87	-43.3	-44.5	20.7	0.00e+00	92	31	101	1048576	60	8204
2026-01-05 22:53:53.89	70.78	33.96	-42.8	-44.0	21.1	0.00e+00	0	31	101	1048576	60	7695
2026-01-05 22:53:54.90	70.42	34.04	-42.8	-44.0	20.9	0.00e+00	90	31	101	1048576	60	7729
2026-01-05 22:53:55.91	70.06	34.13	-43.3	-44.6	20.5	0.00e+00	30	31	101	1048576	60	8238
2026-01-05 22:53:56.92	69.69	34.22	-44.0	-45.5	19.6	0.00e+00	0	31	101	1048576	60	9228
2026-01-05 22:53:57.94	69.33	34.30	-44.1	-45.6	19.5	0.00e+00	92	31	101	1048576	60	9280
2026-01-05 22:53:58.95	68.96	34.39	-43.7	-45.1	20.3	0.00e+00	0	31	101	1048576	60	8768
2026-01-05 22:53:59.95	68.59	34.47	-43.1	-44.3	20.9	0.00e+00	92	31	101	1048576	60	8035
2026-01-05 22:54:00.97	68.22	34.55	-42.9	-44.2	20.9	0.00e+00	0	31	101	1048576	60	7899
2026-01-05 22:54:01.98	67.85	34.63	-43.0	-44.2	20.8	0.00e+00	92	31	101	1048576	60	7951
2026-01-05 22:54:02.99	67.47	34.71	-42.8	-44.0	21.0	0.00e+00	0	31	101	1048576	60	7726
2026-01-05 22:54:04.00	67.10	34.79	-42.9	-44.2	20.8	0.00e+00	28	31	101	1048576	60	7909
2026-01-05 22:54:04.75	66.82	34.85	-42.6	-43.9	21.3	0.00e+00	92	31	101	1048576	60	7597
2026-01-05 22:54:06.05	66.33	34.95	-42.0	-43.1	21.8	0.00e+00	0	31	101	1048576	60	6966
2026-01-05 22:54:06.77	66.06	35.00	-41.1	-42.1	22.7	0.00e+00	39	31	101	1048576	60	6209
2026-01-05 22:54:08.07	65.57	35.09	-40.1	-41.0	23.5	0.00e+00	0	31	101	1048576	60	5451
2026-01-05 22:54:08.79	65.29	35.15	-40.0	-40.9	23.6	0.00e+00	92	31	101	1048576	58	6066
2026-01-05 22:54:10.09	64.80	35.24	-39.3	-40.1	24.2	0.00e+00	80	31	101	1048576	58	5535
2026-01-05 22:54:10.81	64.52	35.29	-39.0	-39.8	24.2	0.00e+00	0	31	101	1048576	56	5991
2026-01-05 22:54:12.11	64.02	35.37	-39.3	-40.1	24.0	0.00e+00	92	31	101	1048576	56	6239
2026-01-05 22:54:12.84	63.74	35.42	-39.5	-40.4	24.0	0.00e+00	0	31	101	1048576	56	6391
2026-01-05 22:54:14.14	63.23	35.51	-39.5	-40.3	24.1	0.00e+00	91	31	101	1048576	56	6336
2026-01-05 22:54:14.86	62.95	35.55	-39.4	-40.2	24.1	0.00e+00	0	31	101	1048576	56	6269
2026-01-05 22:54:16.16	62.44	35.63	-39.6	-40.4	23.9	0.00e+00	26	31	101	1048576	56	6463
2026-01-05 22:54:16.88	62.16	35.68	-40.2	-41.1	23.4	0.00e+00	0	31	101	1048576	56	6938
2026-01-05 22:54:18.18	61.64	35.75	-40.4	-41.3	22.8	0.00e+00	0	31	101	1048576	58	6350
2026-01-05 22:54:18.90	61.36	35.79	-40.2	-41.1	23.3	0.00e+00	32	31	101	1048576	58	6223
2026-01-05 22:54:20.20	60.84	35.87	-39.8	-40.6	23.6	0.00e+00	29	31	101	1048576	58	5887
2026-01-05 22:54:20.93	60.55	35.91	-39.7	-40.6	23.7	0.00e+00	92	31	101	1048576	58	5847
2026-01-05 22:54:22.22	60.03	35.98	-39.6	-40.5	23.9	0.00e+00	0	31	101	1048576	58	5763
2026-01-05 22:54:22.95	59.74	36.01	-39.6	-40.5	23.9	0.00e+00	92	31	101	1048576	58	5769
2026-01-05 22:54:24.24	59.22	36.08	-39.6	-40.5	23.7	0.00e+00	92	31	101	1048576	58	5803
2026-01-05 22:54:24.97	58.93	36.11	-39.6	-40.5	23.9	0.00e+00	24	31	101	1048576	58	5825
2026-01-05 22:54:26.26	58.40	36.17	-40.0	-40.9	23.6	0.00e+00	90	31	101	1048576	58	6075
2026-01-05 22:54:26.99	58.11	36.21	-40.0	-40.9	23.5	0.00e+00	0	31	101	1048576	58	6059
2026-01-05 22:54:28.29	57.58	36.26	-40.3	-41.2	23.4	0.00e+00	90	31	101	1048576	58	6298
2026-01-05 22:54:29.01	57.28	36.29	-40.1	-41.1	23.3	0.00e+00	0	31	101	1048576	58	6183
2026-01-05 22:54:30.31	56.75	36.35	-39.9	-40.8	23.7	0.00e+00	90	31	101	1048576	58	5977
2026-01-05 22:54:31.03	56.46	36.37	-39.6	-40.4	24.0	0.00e+00	0	31	101	1048576	58	5743
2026-01-05 22:54:32.33	55.92	36.42	-38.5	-39.3	24.7	0.00e+00	0	31	101	1048576	56	5634
2026-01-05 22:54:33.05	55.62	36.45	-38.2	-39.0	24.9	0.00e+00	25	31	101	1048576	56	5455
2026-01-05 22:54:34.35	55.09	36.49	-38.1	-38.8	25.0	0.00e+00	0	31	101	1048576	54	6008
2026-01-05 22:54:35.07	54.79	36.52	-38.7	-39.5	24.6	0.00e+00	88	31	101	1048576	54	6520
2026-01-05 22:54:36.37	54.25	36.55	-39.5	-40.3	23.9	0.00e+00	0	31	101	1048576	56	6372
2026-01-05 22:54:37.09	53.95	36.58	-39.8	-40.6	23.7	0.00e+00	48	31	101	1048576	56	6604
2026-01-05 22:54:38.40	53.40	36.61	-40.2	-41.1	23.3	0.00e+00	31	31	101	1048576	58	6224
2026-01-05 22:54:39.12	53.10	36.63	-40.6	-41.6	23.0	0.00e+00	92	31	101	1048576	58	6554
2026-01-05 22:54:40.42	52.56	36.66	-40.7	-41.7	22.9	0.00e+00	37	31	101	1048576	58	6626
2026-01-05 22:54:41.14	52.26	36.67	-41.0	-42.0	22.6	0.00e+00	0	31	101	1048576	60	6166
2026-01-05 22:54:42.44	51.71	36.70	-41.0	-42.0	22.8	0.00e+00	92	31	101	1048576	60	6139
2026-01-05 22:54:43.16	51.41	36.71	-41.1	-42.2	22.7	0.00e+00	0	31	101	1048576	60	6251
2026-01-05 22:54:44.46	50.87	36.74	-41.4	-42.5	22.3	0.00e+00	89	31	101	1048576	60	6482
2026-01-05 22:54:45.18	50.56	36.75	-41.7	-42.8	22.1	0.00e+00	0	31	101	1048576	60	6722
2026-01-05 22:54:46.48	50.02	36.76	-41.6	-42.6	22.2	0.00e+00	0	31	101	1048576	60	6610
2026-01-05 22:54:47.21	49.71	36.77	-41.7	-42.8	22.0	0.00e+00	0	31	101	1048576	60	6725
2026-01-05 22:54:48.51	49.16	36.78	-41.4	-42.4	22.4	0.00e+00	0	31	101	1048576	60	6454
2026-01-05 22:54:49.23	48.86	36.79	-41.0	-42.0	22.8	0.00e+00	92	31	101	1048576	60	6114
2026-01-05 22:54:50.53	48.31	36.80	-40.8	-41.8	23.0	0.00e+00	0	31	101	1048576	60	5967
2026-01-05 22:54:51.25	48.01	36.80	-40.9	-41.9	22.7	0.00e+00	92	31	101	1048576	60	6035
2026-01-05 22:54:52.55	47.46	36.80	-40.9	-41.9	22.7	0.00e+00	0	31	101	1048576	60	6086
2026-01-05 22:54:53.27	47.16	36.80	-41.6	-42.6	22.1	0.00e+00	92	31	101	1048576	60	6572
2026-01-05 22:54:54.57	46.61	36.80	-41.8	-42.8	22.3	0.00e+00	47	31	101	1048576	60	6732
2026-01-05 22:54:55.29	46.30	36.80	-41.4	-42.4	22.4	0.00e+00	0	31	101	1048576	60	6450
2026-01-05 22:54:56.59	45.76	36.79	-41.2	-42.1	22.4	0.00e+00	92	31	101	1048576	60	6243
2026-01-05 22:54:57.32	45.45	36.79	-41.3	-42.3	22.5	0.00e+00	0	31	101	1048576	60	6361
2026-01-05 22:54:58.62	44.90	36.78	-42.0	-43.1	21.8	0.00e+00	92	31	101	1048576	60	6994
2026-01-05 22:54:59.34	44.60	36.77	-41.6	-42.7	22.2	0.00e+00	0	31	101	1048576	60	6652
2026-01-05 22:55:00.64	44.05	36.75	-41.7	-42.7	22.2	0.00e+00	0	31	101	1048576	60	6690
2026-01-05 22:55:01.36	43.75	36.74	-41.4	-42.5	21.8	0.00e+00	0	31	101	1048576	60	6478
2026-01-05 22:55:02.66	43.20	36.72	-42.2	-43.3	21.6	0.00e+00	0	31	101	1048576	60	7135
2026-01-05 22:55:03.38	42.90	36.71	-42.8	-44.0	21.0	0.00e+00	92	31	101	1048576	60	7706
2026-01-05 22:55:04.68	42.36	36.68	-43.9	-45.4	19.9	0.00e+00	0	31	101	1048576	60	9037
2026-01-05 22:55:05.40	42.06	36.67	-44.1	-45.7	19.6	0.00e+00	90	31	101	1048576	60	9365
2026-01-05 22:55:06.70	41.51	36.64	-43.5	-44.8	20.5	0.00e+00	0	31	101	1048576	60	8511
2026-01-05 22:55:07.43	41.21	36.62	-42.1	-43.2	21.9	0.00e+00	90	31	101	1048576	60	7041
2026-01-05 22:55:08.73	40.67	36.59	-41.7	-42.7	22.1	0.00e+00	92	31	101	1048576	60	6650
2026-01-05 22:55:09.45	40.37	36.57	-41.9	-42.9	22.0	0.00e+00	0	31	101	1048576	60	6809
2026-01-05 22:55:10.75	39.83	36.53	-42.0	-43.0	21.7	0.00e+00	31	31	101	1048576	60	6926
2026-01-05 22:55:11.47	39.53	36.51	-41.9	-42.9	22.0	0.00e+00	0	31	101	1048576	60	6802
2026-01-05 22:55:12.77	38.99	36.46	-42.2	-43.2	21.7	0.00e+00	90	31	101	1048576	60	7085
2026-01-05 22:55:13.49	38.69	36.44	-42.2	-43.3	21.7	0.00e+00	0	31	101	1048576	60	7113
2026-01-05 22:55:14.79	38.16	36.39	-42.4	-43.6	21.5	0.00e+00	52	31	101	1048576	60	7350
2026-01-05 22:55:15.52	37.86	36.37	-42.5	-43.6	21.3	0.00e+00	0	31	101	1048576	60	7375
2026-01-05 22:55:16.82	37.33	36.31	-42.4	-43.5	21.2	0.00e+00	0	31	101	1048576	60	7301
2026-01-05 22:55:17.54	37.03	36.28	-42.4	-43.5	21.6	0.00e+00	28	31	101	1048576	60	7281
2026-01-05 22:55:18.84	36.50	36.23	-42.0	-43.0	21.8	0.00e+00	0	31	101	1048576	60	6912
2026-01-05 22:55:19.56	36.21	36.20	-42.1	-43.2	21.8	0.00e+00	74	31	101	1048576	60	7048
2026-01-05 22:55:20.86	35.68	36.14	-42.1	-43.2	21.8	0.00e+00	0	31	101	1048576	60	7057
2026-01-05 22:55:21.58	35.39	36.10	-42.4	-43.5	21.6	0.00e+00	70	31	101	1048576	60	7305
2026-01-05 22:55:22.88	34.87	36.04	-42.8	-44.0	21.1	0.00e+00	92	31	101	1048576	60	7772
2026-01-05 22:55:23.60	34.58	36.00	-43.0	-44.3	20.7	0.00e+00	92	31	101	1048576	60	7964
2026-01-05 22:55:24.90	34.06	35.93	-43.5	-44.9	20.5	0.00e+00	40	31	101	1048576	60	8560
2026-01-05 22:55:25.63	33.77	35.89	-43.6	-45.0	20.3	0.00e+00	0	31	101	1048576	60	8715
2026-01-05 22:55:26.93	33.25	35.82	-42.9	-44.2	20.9	0.00e+00	92	31	101	1048576	60	7926
2026-01-05 22:55:27.65	32.97	35.78	-42.8	-44.1	21.1	0.00e+00	0	31	101	1048576	60	7784
2026-01-05 22:55:28.95	32.45	35.71	-42.3	-43.5	21.5	0.00e+00	80	31	101	1048576	60	7292
2026-01-05 22:55:29.67	32.17	35.66	-41.4	-42.5	22.4	0.00e+00	0	31	101	1048576	60	6476
2026-01-05 22:55:30.97	31.66	35.58	-41.3	-42.4	22.3	0.00e+00	0	31	101	1048576	60	6392
2026-01-05 22:55:31.69	31.38	35.54	-41.3	-42.3	22.4	0.00e+00	29	31	101	1048576	60	6369
2026-01-05 22:55:32.99	30.87	35.46	-42.3	-43.5	21.4	0.00e+00	0	31	101	1048576	60	7305
2026-01-05 22:55:33.72	30.59	35.41	-42.7	-44.0	21.0	0.00e+00	42	31	101	1048576	60	7687
2026-01-05 22:55:35.01	30.09	35.32	-42.4	-43.6	21.5	0.00e+00	0	31	101	1048576	60	7359
2026-01-05 22:55:35.74	29.81	35.27	-41.7	-42.7	22.0	0.00e+00	91	31	101	1048576	60	6690
2026-01-05 22:55:37.04	29.32	35.18	-40.9	-41.9	22.8	0.00e+00	0	31	101	1048576	60	6077
2026-01-05 22:55:37.76	29.04	35.13	-40.4	-41.3	23.3	0.00e+00	73	31	101	1048576	60	5690
2026-01-05 22:55:39.06	28.55	35.04	-39.9	-40.8	23.5	0.00e+00	92	31	101	1048576	58	5983
2026-01-05 22:55:39.78	28.28	34.98	-40.4	-41.3	23.2	0.00e+00	0	31	101	1048576	58	6381
2026-01-05 22:55:41.08	27.79	34.89	-41.1	-42.1	22.5	0.00e+00	90	31	101	1048576	58	6994
2026-01-05 22:55:41.80	27.52	34.83	-41.6	-42.7	22.1	0.00e+00	0	31	101	1048576	60	6660
2026-01-05 22:55:43.10	27.04	34.73	-42.4	-43.6	21.3	0.00e+00	90	31	101	1048576	60	7391
2026-01-05 22:55:43.82	26.77	34.68	-42.9	-44.2	21.1	0.00e+00	0	31	101	1048576	60	7890
2026-01-05 22:55:45.12	26.29	34.57	-42.9	-44.2	20.8	0.00e+00	26	31	101	1048576	60	7892
2026-01-05 22:55:45.85	26.02	34.51	-42.5	-43.7	21.3	0.00e+00	0	31	101	1048576	60	7494
2026-01-05 22:55:47.15	25.55	34.41	-41.7	-42.8	22.0	0.00e+00	0	31	101	1048576	60	6738
2026-01-05 22:55:47.87	25.29	34.35	-41.7	-42.8	22.2	0.00e+00	90	31	101	1048576	60	6739
2026-01-05 22:55:49.17	24.82	34.24	-41.8	-43.0	21.9	0.00e+00	0	31	101	1048576	60	6872
2026-01-05 22:55:49.89	24.56	34.18	-41.9	-43.0	21.9	0.00e+00	89	31	101	1048576	60	6894
2026-01-05 22:55:51.19	24.10	34.07	-41.9	-43.1	21.8	0.00e+00	26	31	101	1048576	60	6936
2026-01-05 22:55:51.91	23.84	34.00	-42.1	-43.3	21.6	0.00e+00	70	31	101	1048576	60	7139
2026-01-05 22:55:53.21	23.38	33.89	-43.1	-44.5	20.6	0.00e+00	90	31	101	1048576	60	8187
2026-01-05 22:55:53.94	23.13	33.83	-42.9	-44.2	20.9	0.00e+00	32	31	101	1048576	60	7945
2026-01-05 22:55:55.24	22.67	33.71	-42.4	-43.5	21.4	0.00e+00	85	31	101	1048576	60	7323
2026-01-05 22:55:55.96	22.42	33.64	-42.1	-43.3	21.7	0.00e+00	0	31	101	1048576	60	7097
2026-01-05 22:55:57.26	21.97	33.52	-42.1	-43.3	21.7	0.00e+00	92	31	101	1048576	60	7131
2026-01-05 22:55:57.98	21.72	33.46	-41.8	-43.0	21.8	0.00e+00	0	31	101	1048576	60	6872
2026-01-05 22:55:59.28	21.28	33.34	-41.4	-42.4	22.5	0.00e+00	0	31	101	1048576	60	6450
2026-01-05 22:56:00.00	21.04	33.27	-40.7	-41.6	23.1	0.00e+00	0	31	101	1048576	60	5895
2026-01-05 22:56:01.30	20.60	33.14	-40.4	-41.3	23.3	0.00e+00	0	31	101	1048576	60	5683
2026-01-05 22:56:02.02	20.36	33.07	-40.7	-41.7	22.7	0.00e+00	6	31	101	1048576	60	5906
2026-01-05 22:56:03.32	19.92	32.95	-42.1	-43.3	21.3	0.00e+00	0	31	101	1048576	60	7112
2026-01-05 22:56:04.05	19.68	32.88	-42.5	-43.6	21.3	0.00e+00	92	31	101	1048576	60	7400
2026-01-05 22:56:05.35	19.25	32.75	-42.0	-43.0	21.7	0.00e+00	0	31	101	1048576	60	6903
2026-01-05 22:56:06.07	19.02	32.68	-41.6	-42.6	22.2	0.00e+00	0	31	101	1048576	60	6560
2026-01-05 22:56:07.37	18.60	32.55	-41.2	-42.2	22.5	0.00e+00	30	31	101	1048576	60	6296
2026-01-05 22:56:08.09	18.36	32.48	-41.0	-41.9	22.7	0.00e+00	0	31	101	1048576	60	6062
2026-01-05 22:56:09.39	17.95	32.34	-40.2	-41.1	23.4	0.00e+00	70	31	101	1048576	60	5519
2026-01-05 22:56:10.11	17.72	32.27	-40.4	-41.3	23.2	0.00e+00	0	31	101	1048576	60	5659
2026-01-05 22:56:11.41	17.30	32.14	-41.5	-42.6	22.3	0.00e+00	3	31	101	1048576	60	6541
2026-01-05 22:56:12.13	17.08	32.06	-42.1	-43.3	21.7	0.00e+00	0	31	101	1048576	60	7098
2026-01-05 22:56:13.43	16.67	31.93	-42.2	-43.3	21.6	0.00e+00	0	31	101	1048576	60	7159
2026-01-05 22:56:14.16	16.44	31.85	-41.8	-42.8	22.1	0.00e+00	29	31	101	1048576	60	6740
2026-01-05 22:56:15.46	16.04	31.71	-41.4	-42.4	22.4	0.00e+00	0	31	101	1048576	60	6440
2026-01-05 22:56:16.18	15.82	31.64	-41.7	-42.8	22.0	0.00e+00	81	31	101	1048576	60	6747
2026-01-05 22:56:17.48	15.43	31.50	-41.7	-42.8	22.1	0.00e+00	0	31	101	1048576	60	6724
2026-01-05 22:56:18.20	15.21	31.42	-41.7	-42.8	22.2	0.00e+00	54	31	101	1048576	60	6715
2026-01-05 22:56:19.50	14.82	31.28	-42.3	-43.4	21.4	0.00e+00	0	31	101	1048576	60	7250
2026-01-05 22:56:20.22	14.60	31.21	-42.6	-43.9	21.2	0.00e+00	0	31	101	1048576	60	7614
2026-01-05 22:56:21.52	14.22	31.06	-42.9	-44.2	20.7	0.00e+00	29	31	101	1048576	60	7951
2026-01-05 22:56:22.24	14.01	30.99	-43.4	-44.8	20.2	0.00e+00	0	31	101	1048576	60	8469
2026-01-05 22:56:23.54	13.63	30.84	-44.5	-46.2	19.5	0.00e+00	75	31	101	1048576	60	9990
2026-01-05 22:56:24.27	13.41	30.76	-44.3	-45.9	19.3	0.00e+00	0	31	101	1048576	60	9632
2026-01-05 22:56:25.57	13.04	30.62	-43.5	-44.9	20.1	0.00e+00	0	31	101	1048576	60	8535
2026-01-05 22:56:26.29	12.83	30.54	-43.4	-44.8	20.6	0.00e+00	0	31	101	1048576	60	8449
2026-01-05 22:56:27.59	12.46	30.40	-43.1	-44.4	20.7	0.00e+00	0	31	101	1048576	60	8123
2026-01-05 22:56:28.31	12.26	30.32	-43.3	-44.7	20.4	0.00e+00	0	31	101	1048576	60	8344
2026-01-05 22:56:29.61	11.89	30.17	-43.4	-44.7	20.3	0.00e+00	0	31	101	1048576	60	8418
2026-01-05 22:56:30.33	11.69	30.09	-43.4	-44.7	20.5	0.00e+00	0	31	101	1048576	60	8371
2026-01-05 22:56:31.63	11.33	29.95	-43.1	-44.3	20.6	0.00e+00	0	31	101	1048576	60	8028
2026-01-05 22:56:32.35	11.14	29.87	-42.3	-43.5	21.3	0.00e+00	28	31	101	1048576	60	7264
2026-01-05 22:56:33.65	10.78	29.72	-42.0	-43.1	21.9	0.00e+00	0	31	101	1048576	60	6974
2026-01-05 22:56:34.38	10.58	29.64	-41.7	-42.7	22.1	0.00e+00	68	31	101	1048576	60	6685
2026-01-05 22:56:35.68	10.24	29.49	-41.3	-42.3	22.3	0.00e+00	0	31	101	1048576	60	6348
2026-01-05 22:56:36.40	10.04	29.41	-41.1	-42.1	22.6	0.00e+00	0	31	101	1048576	60	6208
2026-01-05 22:56:37.70	9.70	29.26	-40.8	-41.8	22.9	0.00e+00	34	31	101	1048576	60	6000
2026-01-05 22:56:38.42	9.51	29.18	-40.9	-41.8	22.8	0.00e+00	0	31	101	1048576	60	6027
2026-01-05 22:56:39.72	9.17	29.03	-41.2	-42.2	22.5	0.00e+00	91	31	101	1048576	60	6281
2026-01-05 22:56:40.44	8.98	28.95	-41.4	-42.5	22.3	0.00e+00	0	31	101	1048576	60	6512
2026-01-05 22:56:41.74	8.65	28.80	-41.3	-42.4	22.4	0.00e+00	0	31	101	1048576	60	6428
2026-01-05 22:56:42.46	8.47	28.71	-41.3	-42.4	22.4	0.00e+00	0	31	101	1048576	60	6404
2026-01-05 22:56:43.76	8.14	28.56	-42.0	-43.1	21.7	0.00e+00	0	31	101	1048576	60	6997
2026-01-05 22:56:44.49	7.95	28.48	-42.2	-43.4	21.7	0.00e+00	0	31	101	1048576	60	7199
2026-01-05 22:56:45.79	7.63	28.33	-42.1	-43.3	21.6	0.00e+00	0	31	101	1048576	60	7122
2026-01-05 22:56:46.51	7.45	28.25	-42.1	-43.3	21.6	0.00e+00	26	31	101	1048576	60	7148
2026-01-05 22:56:47.81	7.13	28.10	-41.6	-42.7	22.3	0.00e+00	0	31	101	1048576	60	6683
2026-01-05 22:56:48.53	6.95	28.01	-41.0	-42.0	22.6	0.00e+00	92	31	101	1048576	60	6163
2026-01-05 22:56:49.83	6.64	27.86	-41.1	-42.2	22.5	0.00e+00	0	31	101	1048576	60	6259
2026-01-05 22:56:50.55	6.47	27.78	-40.9	-41.9	22.8	0.00e+00	0	31	101	1048576	60	6083
2026-01-05 22:56:51.85	6.15	27.63	-41.5	-42.7	22.1	0.00e+00	30	31	101	1048576	60	6623
2026-01-05 22:56:52.58	5.98	27.54	-41.6	-42.7	22.2	0.00e+00	0	31	101	1048576	60	6651
2026-01-05 22:56:53.88	5.68	27.39	-41.0	-42.0	22.7	0.00e+00	41	31	101	1048576	60	6171
2026-01-05 22:56:54.60	5.51	27.31	-40.8	-41.9	22.8	0.00e+00	0	31	101	1048576	60	6037
2026-01-05 22:56:55.90	5.21	27.16	-40.6	-41.6	22.9	0.00e+00	0	31	101	1048576	60	5831
2026-01-05 22:56:56.62	5.04	27.08	-40.1	-41.0	23.2	0.00e+00	0	31	101	1048576	58	6120
2026-01-05 22:56:57.92	4.74	26.92	-40.1	-41.0	23.2	0.00e+00	0	31	101	1048576	58	6164
2026-01-05 22:56:58.64	4.58	26.84	-40.3	-41.3	23.2	0.00e+00	0	31	101	1048576	58	6323
2026-01-05 22:56:59.94	4.29	26.69	-40.1	-41.0	23.2	0.00e+00	0	31	101	1048576	58	6171
2026-01-05 22:57:00.67	4.12	26.61	-40.1	-41.1	23.4	0.00e+00	61	31	101	1048576	58	6175
2026-01-05 22:57:01.97	3.84	26.45	-40.3	-41.3	23.1	0.00e+00	0	31	101	1048576	58	6352
2026-01-05 22:57:02.69	3.68	26.37	-40.4	-41.4	23.1	0.00e+00	53	31	101	1048576	58	6403
2026-01-05 22:57:03.99	3.39	26.22	-40.5	-41.5	23.0	0.00e+00	0	31	101	1048576	58	6471
2026-01-05 22:57:04.71	3.24	26.14	-40.7	-41.8	22.7	0.00e+00	17	31	101	1048576	58	6699
2026-01-05 22:57:06.01	2.96	25.99	-40.9	-42.0	22.6	0.00e+00	31	31	101	1048576	58	6892
2026-01-05 22:57:06.73	2.80	25.90	-41.1	-42.1	22.5	0.00e+00	0	31	101	1048576	60	6227
2026-01-05 22:57:08.03	2.53	25.75	-40.9	-41.9	22.7	0.00e+00	49	31	101	1048576	60	6072
2026-01-05 22:57:08.75	2.38	25.67	-40.7	-41.8	22.9	0.00e+00	0	31	101	1048576	60	5985
2026-01-05 22:57:10.05	2.11	25.52	-40.9	-41.9	22.6	0.00e+00	64	31	101	1048576	60	6084
2026-01-05 22:57:10.78	1.95	25.43	-40.8	-41.9	22.6	0.00e+00	0	31	101	1048576	60	6046
2026-01-05 22:57:12.08	1.69	25.28	-40.6	-41.6	23.0	0.00e+00	0	31	101	1048576	60	5885
2026-01-05 22:57:12.80	1.54	25.20	-40.8	-41.8	22.8	0.00e+00	0	31	101	1048576	60	6014
2026-01-05 22:57:14.10	1.28	25.05	-40.6	-41.6	22.9	0.00e+00	0	31	101	1048576	60	5863
2026-01-05 22:57:14.82	1.13	24.97	-40.7	-41.7	22.9	0.00e+00	32	31	101	1048576	60	5913
2026-01-05 22:57:16.12	0.87	24.82	-40.5	-41.5	23.0	0.00e+00	32	31	101	1048576	60	5769
2026-01-05 22:57:16.84	0.73	24.74	-40.2	-41.2	23.1	0.00e+00	91	31	101	1048576	60	5599
2026-01-05 22:57:18.14	0.47	24.59	-40.1	-41.1	23.3	0.00e+00	0	31	101	1048576	58	6183
2026-01-05 22:57:18.87	0.33	24.50	-40.2	-41.2	23.2	0.00e+00	92	31	101	1048576	58	6289
2026-01-05 22:57:20.17	0.08	24.35	-40.6	-41.6	22.8	0.00e+00	24	31	101	1048576	58	6603
2026-01-05 22:57:20.89	359.94	24.27	-40.6	-41.6	22.8	0.00e+00	0	31	101	1048576	58	6605
2026-01-05 22:57:22.19	359.69	24.12	-40.6	-41.5	23.2	0.00e+00	7	31	101	1048576	58	6531
2026-01-05 22:57:22.91	359.56	24.04	-40.6	-41.5	22.9	0.00e+00	0	31	101	1048576	58	6538
2026-01-05 22:57:24.21	359.31	23.89	-40.5	-41.4	23.0	0.00e+00	92	31	101	1048576	58	6453
2026-01-05 22:57:24.93	359.18	23.81	-40.1	-41.0	23.2	0.00e+00	0	31	101	1048576	58	6169
2026-01-05 22:57:26.23	358.94	23.66	-40.0	-40.9	23.2	0.00e+00	0	31	101	1048576	58	6097
2026-01-05 22:57:26.95	358.80	23.58	-39.8	-40.7	23.4	0.00e+00	0	31	101	1048576	58	5911
2026-01-05 22:57:28.25	358.57	23.43	-39.9	-40.8	23.4	0.00e+00	0	31	101	1048576	58	5991
2026-01-05 22:57:28.97	358.44	23.35	-39.8	-40.7	23.3	0.00e+00	0	31	101	1048576	58	5910
2026-01-05 22:57:30.27	358.20	23.21	-40.4	-41.4	22.7	0.00e+00	0	31	101	1048576	58	6419
2026-01-05 22:57:30.99	358.07	23.12	-40.4	-41.4	23.0	0.00e+00	30	31	101	1048576	58	6393
2026-01-05 22:57:32.29	357.84	22.98	-40.7	-41.6	22.8	0.00e+00	0	31	101	1048576	58	6600
2026-01-05 22:57:33.02	357.72	22.90	-40.9	-42.0	22.6	0.00e+00	32	31	101	1048576	58	6858
2026-01-05 22:57:34.32	357.49	22.75	-41.1	-42.1	22.3	0.00e+00	0	31	101	1048576	58	7004
2026-01-05 22:57:35.04	357.36	22.67	-41.6	-42.7	22.1	0.00e+00	0	31	101	1048576	60	6625
2026-01-05 22:57:36.34	357.14	22.53	-41.6	-42.7	21.9	0.00e+00	31	31	101	1048576	60	6649
2026-01-05 22:57:37.06	357.02	22.45	-41.9	-43.0	21.8	0.00e+00	0	31	101	1048576	60	6916
2026-01-05 22:57:38.36	356.80	22.30	-41.7	-42.8	21.8	0.00e+00	91	31	101	1048576	60	6758
2026-01-05 22:57:39.08	356.68	22.22	-41.5	-42.5	22.2	0.00e+00	0	31	101	1048576	60	6526
2026-01-05 22:57:40.38	356.46	22.08	-40.8	-41.8	22.8	0.00e+00	0	31	101	1048576	60	5975
2026-01-05 22:57:41.10	356.34	22.00	-40.7	-41.8	22.8	0.00e+00	0	31	101	1048576	60	5970
2026-01-05 22:57:42.40	356.13	21.85	-40.2	-41.2	23.3	0.00e+00	0	31	101	1048576	60	5581
2026-01-05 22:57:43.13	356.01	21.77	-40.1	-41.0	23.4	0.00e+00	0	31	101	1048576	58	6137
2026-01-05 22:57:44.43	355.80	21.63	-39.9	-40.9	23.5	0.00e+00	0	31	101	1048576	58	6034
2026-01-05 22:57:45.15	355.68	21.55	-40.1	-41.0	23.3	0.00e+00	24	31	101	1048576	58	6138
2026-01-05 22:57:46.45	355.47	21.41	-40.6	-41.6	22.9	0.00e+00	0	31	101	1048576	58	6551
2026-01-05 22:57:47.17	355.36	21.33	-40.7	-41.6	22.7	0.00e+00	91	31	101	1048576	58	6609
2026-01-05 22:57:48.47	355.15	21.19	-41.0	-42.0	22.5	0.00e+00	0	31	101	1048576	58	6901
2026-01-05 22:57:49.19	355.04	21.11	-40.7	-41.7	22.8	0.00e+00	92	31	101	1048576	58	6616
2026-01-05 22:57:50.49	354.84	20.97	-40.7	-41.7	22.7	0.00e+00	57	31	101	1048576	58	6670
2026-01-05 22:57:51.21	354.73	20.89	-40.4	-41.3	23.1	0.00e+00	0	31	101	1048576	58	6360
2026-01-05 22:57:52.51	354.53	20.75	-39.9	-40.8	23.5	0.00e+00	74	31	101	1048576	58	5997
2026-01-05 22:57:53.24	354.42	20.67	-39.5	-40.4	23.8	0.00e+00	0	31	101	1048576	58	5749
2026-01-05 22:57:54.54	354.22	20.53	-39.2	-40.1	24.0	0.00e+00	0	31	101	1048576	58	5541
2026-01-05 22:57:55.26	354.12	20.46	-39.2	-40.1	24.1	0.00e+00	0	31	101	1048576	58	5511
2026-01-05 22:57:56.56	353.92	20.32	-39.7	-40.6	23.8	0.00e+00	0	31	101	1048576	58	5829
2026-01-05 22:57:57.28	353.82	20.24	-40.0	-40.9	23.5	0.00e+00	0	31	101	1048576	58	6060
2026-01-05 22:57:58.58	353.63	20.10	-40.5	-41.4	22.9	0.00e+00	0	31	101	1048576	58	6464
2026-01-05 22:57:59.30	353.52	20.02	-40.8	-41.8	22.7	0.00e+00	0	31	101	1048576	58	6741
2026-01-05 22:58:00.60	353.33	19.89	-41.7	-42.8	21.9	0.00e+00	0	31	101	1048576	60	6742
2026-01-05 22:58:01.32	353.23	19.81	-42.2	-43.4	21.3	0.00e+00	90	31	101	1048576	60	7253
2026-01-05 22:58:02.62	353.04	19.67	-42.6	-43.9	20.9	0.00e+00	0	31	101	1048576	60	7670
2026-01-05 22:58:03.35	352.94	19.60	-43.2	-44.6	20.4	0.00e+00	90	31	101	1048576	60	8251
2026-01-05 22:58:04.64	352.76	19.46	-43.5	-45.0	19.9	0.00e+00	0	31	101	1048576	60	8649
2026-01-05 22:58:05.37	352.66	19.39	-43.2	-44.7	20.3	0.00e+00	0	31	101	1048576	60	8336
2026-01-05 22:58:06.66	352.48	19.25	-43.0	-44.4	20.5	0.00e+00	92	31	101	1048576	60	8092
2026-01-05 22:58:07.39	352.38	19.17	-42.9	-44.3	20.6	0.00e+00	0	31	101	1048576	60	7967
2026-01-05 22:58:08.69	352.20	19.04	-42.6	-43.9	21.1	0.00e+00	92	31	101	1048576	60	7661
2026-01-05 22:58:09.41	352.11	18.96	-42.4	-43.6	21.2	0.00e+00	0	31	101	1048576	60	7385
2026-01-05 22:58:10.71	351.93	18.83	-41.9	-43.1	21.7	0.00e+00	0	31	101	1048576	60	6950
2026-01-05 22:58:11.43	351.83	18.76	-41.7	-42.9	22.0	0.00e+00	0	31	101	1048576	60	6776
2026-01-05 22:58:12.73	351.66	18.62	-41.4	-42.5	22.2	0.00e+00	0	31	101	1048576	60	6474
2026-01-05 22:58:13.45	351.57	18.55	-41.3	-42.3	22.3	0.00e+00	0	31	101	1048576	60	6367
2026-01-05 22:58:14.75	351.40	18.42	-41.5	-42.6	22.2	0.00e+00	0	31	101	1048576	60	6555
2026-01-05 22:58:15.47	351.30	18.34	-41.4	-42.5	22.3	0.00e+00	22	31	101	1048576	60	6520
2026-01-05 22:58:16.77	351.14	18.21	-41.8	-42.9	21.9	0.00e+00	0	31	101	1048576	60	6795
2026-01-05 22:58:17.49	351.04	18.14	-41.9	-43.0	21.8	0.00e+00	65	31	101	1048576	60	6912
2026-01-05 22:58:18.79	350.88	18.01	-41.7	-42.8	22.0	0.00e+00	0	31	101	1048576	60	6720
2026-01-05 22:58:19.51	350.79	17.93	-41.9	-43.0	22.0	0.00e+00	0	31	101	1048576	60	6885
2026-01-05 22:58:20.82	350.62	17.80	-41.3	-42.3	22.2	0.00e+00	26	31	101	1048576	60	6383
2026-01-05 22:58:21.54	350.53	17.73	-41.0	-42.0	22.6	0.00e+00	0	31	101	1048576	60	6160
2026-01-05 22:58:22.84	350.37	17.60	-40.6	-41.6	22.9	0.00e+00	55	31	101	1048576	60	5861
2026-01-05 22:58:23.56	350.28	17.53	-40.3	-41.3	23.2	0.00e+00	0	31	101	1048576	60	5644
2026-01-05 22:58:24.86	350.13	17.40	-39.9	-40.8	23.4	0.00e+00	0	31	101	1048576	58	6022
2026-01-05 22:58:25.58	350.04	17.33	-39.8	-40.7	23.5	0.00e+00	0	31	101	1048576	58	5948
2026-01-05 22:58:26.88	349.88	17.20	-40.0	-40.9	23.4	0.00e+00	0	31	101	1048576	58	6070
2026-01-05 22:58:27.60	349.80	17.13	-39.9	-40.8	23.4	0.00e+00	0	31	101	1048576	58	6019
2026-01-05 22:58:28.90	349.64	17.00	-40.2	-41.1	23.2	0.00e+00	0	31	101	1048576	58	6242
2026-01-05 22:58:29.62	349.56	16.93	-40.2	-41.2	23.0	0.00e+00	8	31	101	1048576	58	6261
2026-01-05 22:58:30.92	349.40	16.80	-40.6	-41.6	22.8	0.00e+00	0	31	101	1048576	58	6576
2026-01-05 22:58:31.65	349.32	16.73	-40.7	-41.7	22.7	0.00e+00	68	31	101	1048576	58	6660
2026-01-05 22:58:32.94	349.17	16.60	-40.7	-41.7	22.8	0.00e+00	0	31	101	1048576	58	6644
2026-01-05 22:58:33.66	349.09	16.53	-40.7	-41.7	22.7	0.00e+00	38	31	101	1048576	58	6681
2026-01-05 22:58:34.96	348.94	16.41	-40.7	-41.7	22.7	0.00e+00	46	31	101	1048576	58	6617
2026-01-05 22:58:35.69	348.86	16.34	-40.7	-41.7	22.7	0.00e+00	0	31	101	1048576	58	6623
2026-01-05 22:58:36.99	348.71	16.21	-40.9	-41.9	22.4	0.00e+00	69	31	101	1048576	58	6787
2026-01-05 22:58:37.71	348.63	16.14	-40.9	-41.9	22.5	0.00e+00	0	31	101	1048576	58	6843
2026-01-05 22:58:39.01	348.48	16.02	-40.9	-41.9	22.5	0.00e+00	92	31	101	1048576	58	6787
2026-01-05 22:58:39.73	348.41	15.95	-41.0	-42.1	22.4	0.00e+00	0	31	101	1048576	60	6184
2026-01-05 22:58:41.03	348.26	15.83	-41.3	-42.3	22.2	0.00e+00	0	31	101	1048576	60	6364
2026-01-05 22:58:41.75	348.18	15.76	-41.4	-42.4	22.2	0.00e+00	0	31	101	1048576	60	6456
2026-01-05 22:58:43.05	348.04	15.63	-41.5	-42.5	22.0	0.00e+00	0	31	101	1048576	60	6522
2026-01-05 22:58:43.77	347.97	15.57	-41.5	-42.6	22.0	0.00e+00	0	31	101	1048576	60	6580
2026-01-05 22:58:45.07	347.83	15.44	-41.6	-42.7	22.0	0.00e+00	0	31	101	1048576	60	6627
2026-01-05 22:58:45.79	347.75	15.38	-41.7	-42.8	21.7	0.00e+00	26	31	101	1048576	60	6706
2026-01-05 22:58:47.09	347.61	15.25	-41.6	-42.7	21.9	0.00e+00	0	31	101	1048576	60	6643
2026-01-05 22:58:47.81	347.54	15.19	-41.6	-42.7	21.9	0.00e+00	92	31	101	1048576	60	6649
2026-01-05 22:58:49.11	347.40	15.07	-41.6	-42.8	21.8	0.00e+00	15	31	101	1048576	60	6701
2026-01-05 22:58:49.84	347.33	15.00	-41.8	-42.9	21.7	0.00e+00	0	31	101	1048576	60	6831
2026-01-05 22:58:51.14	347.20	14.88	-42.1	-43.3	21.3	0.00e+00	57	31	101	1048576	60	7112
2026-01-05 22:58:51.86	347.12	14.81	-42.2	-43.5	21.2	0.00e+00	0	31	101	1048576	60	7256
2026-01-05 22:58:53.15	346.99	14.69	-42.4	-43.6	20.9	0.00e+00	88	31	101	1048576	60	7417
2026-01-05 22:58:53.88	346.92	14.63	-42.7	-44.0	20.7	0.00e+00	0	31	101	1048576	60	7748
2026-01-05 22:58:55.18	346.79	14.51	-43.0	-44.4	20.4	0.00e+00	0	31	101	1048576	60	8086
2026-01-05 22:58:55.90	346.72	14.44	-43.3	-44.7	20.1	0.00e+00	0	31	101	1048576	60	8389
2026-01-05 22:58:57.20	346.59	14.32	-43.5	-45.1	19.8	0.00e+00	0	31	101	1048576	60	8726
2026-01-05 22:58:57.92	346.52	14.26	-43.6	-45.2	19.7	0.00e+00	0	31	101	1048576	60	8839
2026-01-05 22:58:59.22	346.39	14.14	-43.6	-45.2	19.8	0.00e+00	0	31	101	1048576	60	8840
2026-01-05 22:58:59.94	346.32	14.07	-43.5	-45.1	19.7	0.00e+00	47	31	101	1048576	60	8772
2026-01-05 22:59:01.24	346.20	13.96	-43.3	-44.8	20.2	0.00e+00	0	31	101	1048576	60	8471
2026-01-05 22:59:01.96	346.13	13.89	-42.9	-44.4	20.3	0.00e+00	92	31	101	1048576	60	8106
2026-01-05 22:59:03.26	346.00	13.78	-42.5	-43.9	20.9	0.00e+00	0	31	101	1048576	60	7619
2026-01-05 22:59:03.98	345.94	13.71	-42.3	-43.6	20.9	0.00e+00	0	31	101	1048576	60	7383
2026-01-05 22:59:05.29	345.81	13.60	-41.9	-43.1	21.5	0.00e+00	47	31	101	1048576	60	6974
2026-01-05 22:59:06.01	345.75	13.53	-41.8	-43.0	21.5	0.00e+00	0	31	101	1048576	60	6901
2026-01-05 22:59:07.31	345.63	13.42	-41.7	-42.9	21.8	0.00e+00	84	31	101	1048576	60	6778
2026-01-05 22:59:08.03	345.56	13.35	-41.3	-42.5	22.0	0.00e+00	0	31	101	1048576	60	6481
