passes_logs/2026/01/05/R4.6S_Anadyr_2ch/R4.6S_Anadyr_2ch__20260105_131206_NOAA_20_JPSS-1_rec.log

#Pass ID: 20260105_131206_NOAA 20 (JPSS-1)
#Satellite: NOAA 20 (JPSS-1)
#Configuration: NOAA 20
#almurnet v.1.7.20251203
#Start time: 2026-01-05 13:12:07

#Version: 2.2.20231116
#Station: R4.6S_Anadyr_2ch
#Location: 177.4865 lon 64.73178 lat
#TLE: 1 43013U 17073A   25350.93759711  .00000080  00000+0  58734-4 0  9994
#TLE: 2 43013  98.7603 287.1885 0002156  81.1496 278.9924 14.19526878418610

#Time	Az	El	Level	Level2	SNR	BER	BlckErr	Temp	State	Recorded	gain1	gain2
2026-01-05 13:12:07.71	18.76	0.06	-51.1	-66.1	3.5	1.51e+00	0	21	0	0	60	98420
2026-01-05 13:12:08.71	18.81	0.11	-51.0	-66.3	3.5	1.51e+00	0	22	104	0	60	101213
2026-01-05 13:12:09.73	18.86	0.17	-51.0	-66.4	3.6	1.51e+00	0	22	104	0	60	101858
2026-01-05 13:12:10.74	18.91	0.22	-51.0	-66.3	3.6	1.51e+00	0	22	104	0	60	101222
2026-01-05 13:12:11.75	18.96	0.28	-51.0	-66.3	3.6	1.51e+00	0	22	104	0	60	100690
2026-01-05 13:12:12.76	19.01	0.33	-51.0	-66.4	3.6	1.51e+00	0	22	104	0	60	101555
2026-01-05 13:12:13.77	19.06	0.39	-51.0	-66.3	3.6	1.51e+00	0	22	104	0	60	100963
2026-01-05 13:12:14.78	19.12	0.45	-50.9	-66.3	3.6	1.51e+00	0	22	104	0	60	100594
2026-01-05 13:12:15.79	19.17	0.50	-50.9	-66.2	3.6	1.51e+00	0	22	104	0	60	99746
2026-01-05 13:12:16.80	19.22	0.56	-50.8	-66.1	3.6	1.51e+00	0	22	104	0	60	98874
2026-01-05 13:12:17.81	19.27	0.62	-50.7	-66.0	3.6	1.51e+00	0	22	104	0	60	97589
2026-01-05 13:12:18.83	19.32	0.67	-50.6	-65.9	3.6	1.51e+00	0	23	104	0	60	96113
2026-01-05 13:12:19.84	19.37	0.73	-50.4	-65.8	3.6	1.51e+00	0	23	104	0	60	94771
2026-01-05 13:12:20.85	19.43	0.79	-50.2	-65.6	3.6	1.51e+00	0	23	104	0	60	92957
2026-01-05 13:12:21.86	19.48	0.84	-50.0	-65.3	3.6	1.51e+00	0	23	104	0	60	89910
2026-01-05 13:12:22.87	19.53	0.90	-49.5	-64.9	3.6	1.51e+00	0	23	104	0	60	85441
2026-01-05 13:12:23.88	19.58	0.96	-49.5	-64.8	3.6	1.51e+00	0	23	104	0	60	84545
2026-01-05 13:12:24.89	19.64	1.01	-49.5	-64.8	3.6	1.51e+00	0	23	104	0	60	84833
2026-01-05 13:12:25.90	19.69	1.07	-49.5	-64.8	3.6	1.51e+00	0	23	104	0	60	84783
2026-01-05 13:12:26.91	19.74	1.13	-49.5	-64.9	3.6	1.51e+00	0	23	104	0	60	85565
2026-01-05 13:12:27.93	19.80	1.19	-49.5	-64.8	3.6	1.51e+00	0	23	104	0	60	85148
2026-01-05 13:12:28.94	19.85	1.24	-49.5	-64.9	3.6	1.51e+00	0	23	104	0	60	85456
2026-01-05 13:12:29.95	19.90	1.30	-49.5	-64.8	3.6	1.51e+00	0	23	104	0	60	85113
2026-01-05 13:12:30.96	19.96	1.36	-49.5	-64.8	3.6	1.51e+00	0	23	104	0	60	85155
2026-01-05 13:12:31.97	20.01	1.42	-49.5	-64.8	3.6	1.51e+00	0	23	104	0	60	85060
2026-01-05 13:12:32.98	20.07	1.47	-49.5	-64.8	3.6	1.51e+00	0	23	104	0	60	84907
2026-01-05 13:12:33.99	20.12	1.53	-49.5	-64.8	3.6	1.51e+00	0	23	104	0	60	84425
2026-01-05 13:12:35.00	20.17	1.59	-49.5	-64.7	3.6	1.51e+00	0	23	104	0	60	83519
2026-01-05 13:12:36.01	20.23	1.65	-49.5	-64.7	3.6	1.51e+00	0	23	104	0	60	84074
2026-01-05 13:12:37.02	20.28	1.71	-49.5	-64.8	3.6	1.51e+00	0	23	104	0	60	84704
2026-01-05 13:12:38.04	20.34	1.77	-49.5	-64.7	3.6	1.51e+00	0	23	104	0	60	84228
2026-01-05 13:12:39.05	20.40	1.82	-49.5	-64.8	3.6	1.51e+00	0	23	104	0	60	84819
2026-01-05 13:12:40.06	20.45	1.88	-49.5	-64.8	3.6	1.51e+00	0	23	104	0	60	84390
2026-01-05 13:12:41.07	20.51	1.94	-49.5	-64.8	3.6	1.51e+00	0	23	104	0	60	84892
2026-01-05 13:12:42.08	20.56	2.00	-49.5	-64.8	3.6	1.51e+00	0	23	104	0	60	84665
2026-01-05 13:12:43.09	20.62	2.06	-49.5	-64.8	3.6	1.51e+00	0	23	104	0	60	85009
2026-01-05 13:12:44.10	20.68	2.12	-49.5	-64.7	3.6	1.51e+00	0	23	104	0	60	83715
2026-01-05 13:12:45.12	20.73	2.18	-49.5	-64.6	3.6	1.51e+00	0	23	104	0	60	82807
2026-01-05 13:12:46.12	20.79	2.24	-49.5	-64.3	3.6	1.51e+00	0	23	104	0	60	80333
2026-01-05 13:12:47.14	20.85	2.30	-49.4	-63.9	3.6	1.51e+00	0	23	104	0	60	76077
2026-01-05 13:12:48.15	20.90	2.35	-49.5	-64.0	3.6	1.51e+00	0	23	104	0	60	77389
2026-01-05 13:12:49.16	20.96	2.41	-49.5	-64.4	3.6	1.51e+00	0	23	104	0	60	81117
2026-01-05 13:12:50.17	21.02	2.47	-49.5	-64.7	3.6	1.51e+00	0	23	104	0	60	83703
2026-01-05 13:12:51.18	21.08	2.53	-49.4	-62.5	3.6	1.51e+00	0	23	104	0	60	65189
2026-01-05 13:12:52.19	21.14	2.59	-49.1	-58.7	5.4	1.03e+00	0	23	104	0	60	41789
2026-01-05 13:12:53.20	21.19	2.65	-48.5	-54.6	8.8	1.98e-01	92	23	102	1048576	60	26054
2026-01-05 13:12:54.21	21.25	2.71	-47.6	-52.1	11.8	3.10e-03	81	23	102	1048576	60	19555
2026-01-05 13:12:55.22	21.31	2.77	-46.5	-49.8	14.1	2.44e-05	92	23	102	1048576	60	15046
2026-01-05 13:12:56.24	21.37	2.83	-45.4	-47.8	16.1	3.00e-06	81	23	102	1048576	60	12002
2026-01-05 13:12:57.25	21.43	2.89	-44.5	-46.6	17.3	0.00e+00	81	23	102	1048576	60	10389
2026-01-05 13:12:58.26	21.49	2.95	-44.2	-46.1	17.8	0.00e+00	0	23	102	1048576	60	9864
2026-01-05 13:12:59.27	21.55	3.02	-44.1	-46.0	17.8	0.00e+00	0	23	102	1048576	60	9726
2026-01-05 13:13:00.28	21.61	3.08	-44.1	-46.0	17.8	0.00e+00	92	23	102	1048576	60	9759
2026-01-05 13:13:01.29	21.67	3.14	-45.0	-47.2	16.7	0.00e+00	2	23	102	1048576	60	11201
2026-01-05 13:13:02.30	21.73	3.20	-45.5	-48.0	15.9	0.00e+00	92	23	102	1048576	60	12280
2026-01-05 13:13:03.31	21.79	3.26	-46.9	-50.5	13.0	6.80e-06	2	23	102	1048576	60	16249
2026-01-05 13:13:04.32	21.85	3.32	-47.8	-52.7	10.8	2.83e-04	0	23	102	1048576	60	21044
2026-01-05 13:13:05.33	21.91	3.38	-47.8	-52.3	11.3	2.28e-02	0	23	102	1048576	60	20103
2026-01-05 13:13:06.34	21.97	3.44	-44.1	-45.9	18.1	0.00e+00	0	23	102	1048576	60	9666
2026-01-05 13:13:07.35	22.04	3.50	-44.3	-46.2	16.7	0.00e+00	70	23	102	1048576	60	9947
2026-01-05 13:13:08.37	22.10	3.57	-49.4	-63.8	3.6	1.51e+00	0	23	104	1048576	60	75118
2026-01-05 13:13:09.38	22.16	3.63	-46.1	-49.0	15.9	1.15e-03	90	23	104	1048576	60	13715
2026-01-05 13:13:10.39	22.22	3.69	-48.8	-55.1	9.2	1.09e-01	81	23	0	1048576	60	27695
2026-01-05 13:13:11.40	22.29	3.75	-45.7	-48.2	15.9	2.20e-06	80	23	0	1048576	60	12467
2026-01-05 13:13:12.41	22.35	3.81	-45.8	-48.4	15.8	0.00e+00	0	23	0	1048576	60	12834
2026-01-05 13:13:13.42	22.41	3.87	-44.6	-46.6	17.7	0.00e+00	0	23	0	1048576	60	10420
2026-01-05 13:13:14.43	22.47	3.94	-44.5	-46.4	17.8	0.00e+00	0	23	0	1048576	60	10245
2026-01-05 13:13:15.44	22.54	4.00	-44.2	-46.0	18.2	0.00e+00	0	23	0	1048576	60	9752
2026-01-05 13:13:16.45	22.60	4.06	-44.1	-45.8	18.2	0.00e+00	92	23	0	1048576	60	9560
2026-01-05 13:13:17.47	22.67	4.12	-44.0	-45.7	18.6	0.00e+00	0	23	0	1048576	60	9382
2026-01-05 13:13:18.48	22.73	4.19	-43.9	-45.7	18.6	0.00e+00	91	23	0	1048576	60	9352
2026-01-05 13:13:19.49	22.79	4.25	-44.2	-46.0	18.4	0.00e+00	4	23	0	1048576	60	9675
2026-01-05 13:13:20.50	22.86	4.31	-44.1	-45.8	18.8	0.00e+00	5	23	0	1048576	60	9529
2026-01-05 13:13:21.51	22.92	4.38	-44.2	-46.0	18.1	0.00e+00	6	23	0	1048576	60	9764
2026-01-05 13:13:22.52	22.99	4.44	-43.8	-45.4	18.8	0.00e+00	6	23	0	1048576	60	9121
2026-01-05 13:13:23.53	23.06	4.50	-43.7	-45.3	19.0	0.00e+00	92	23	0	1048576	60	8973
2026-01-05 13:13:24.54	23.12	4.57	-43.5	-45.1	19.1	0.00e+00	0	23	0	1048576	60	8738
2026-01-05 13:13:25.56	23.19	4.63	-43.3	-44.9	19.3	0.00e+00	90	23	0	1048576	60	8529
2026-01-05 13:13:26.57	23.25	4.69	-43.2	-44.7	19.6	0.00e+00	6	23	0	1048576	60	8378
2026-01-05 13:13:27.58	23.32	4.76	-43.5	-45.1	19.2	0.00e+00	0	23	101	1048576	60	8795
2026-01-05 13:13:28.59	23.39	4.82	-43.3	-44.8	19.4	0.00e+00	0	23	101	1048576	60	8517
2026-01-05 13:13:29.60	23.46	4.89	-43.1	-44.5	19.7	0.00e+00	5	23	101	1048576	60	8229
2026-01-05 13:13:30.61	23.52	4.95	-43.4	-45.0	19.3	0.00e+00	90	23	101	1048576	60	8652
2026-01-05 13:13:31.62	23.59	5.01	-43.1	-44.6	19.6	0.00e+00	81	23	101	1048576	60	8292
2026-01-05 13:13:32.63	23.66	5.08	-43.2	-44.7	19.6	0.00e+00	90	23	101	1048576	60	8345
2026-01-05 13:13:33.64	23.73	5.14	-43.1	-44.6	19.7	0.00e+00	85	23	101	1048576	60	8273
2026-01-05 13:13:34.65	23.79	5.21	-43.2	-44.8	19.7	0.00e+00	90	23	101	1048576	60	8433
2026-01-05 13:13:35.66	23.86	5.27	-43.1	-44.5	19.8	0.00e+00	86	23	101	1048576	60	8223
2026-01-05 13:13:36.67	23.93	5.34	-43.0	-44.4	19.9	0.00e+00	6	23	101	1048576	60	8131
2026-01-05 13:13:37.69	24.00	5.40	-43.0	-44.5	19.9	0.00e+00	77	23	101	1048576	60	8142
2026-01-05 13:13:38.70	24.07	5.47	-42.9	-44.3	20.0	0.00e+00	0	23	101	1048576	60	8035
2026-01-05 13:13:39.71	24.14	5.53	-42.8	-44.2	20.2	0.00e+00	92	23	101	1048576	60	7867
2026-01-05 13:13:40.72	24.21	5.60	-42.8	-44.2	20.3	0.00e+00	1	23	101	1048576	60	7873
2026-01-05 13:13:41.73	24.28	5.66	-42.3	-43.6	20.7	0.00e+00	91	23	101	1048576	60	7380
2026-01-05 13:13:42.74	24.35	5.73	-42.4	-43.7	20.7	0.00e+00	0	23	101	1048576	60	7439
2026-01-05 13:13:43.75	24.43	5.80	-42.3	-43.6	20.7	0.00e+00	6	23	101	1048576	60	7377
2026-01-05 13:13:44.76	24.50	5.86	-42.2	-43.4	21.0	0.00e+00	0	23	101	1048576	60	7224
2026-01-05 13:13:45.77	24.57	5.93	-42.3	-43.6	20.7	0.00e+00	81	23	101	1048576	60	7399
2026-01-05 13:13:46.78	24.64	5.99	-42.3	-43.5	20.8	0.00e+00	92	23	101	1048576	60	7333
2026-01-05 13:13:47.79	24.71	6.06	-42.1	-43.4	21.0	0.00e+00	0	23	101	1048576	60	7207
2026-01-05 13:13:48.80	24.79	6.13	-42.2	-43.4	21.0	0.00e+00	92	23	101	1048576	60	7228
2026-01-05 13:13:49.81	24.86	6.19	-42.2	-43.5	20.9	0.00e+00	81	23	101	1048576	60	7280
2026-01-05 13:13:50.83	24.93	6.26	-42.2	-43.5	20.9	0.00e+00	81	23	101	1048576	60	7277
2026-01-05 13:13:51.84	25.01	6.33	-42.1	-43.4	21.0	0.00e+00	81	23	101	1048576	60	7186
2026-01-05 13:13:52.85	25.08	6.39	-42.2	-43.4	21.0	0.00e+00	0	23	101	1048576	60	7226
2026-01-05 13:13:53.86	25.15	6.46	-42.0	-43.2	21.1	0.00e+00	90	23	101	1048576	60	7070
2026-01-05 13:13:54.87	25.23	6.53	-42.2	-43.4	21.0	0.00e+00	0	23	101	1048576	60	7209
2026-01-05 13:13:55.88	25.30	6.60	-41.9	-43.1	21.3	0.00e+00	92	23	101	1048576	60	6971
2026-01-05 13:13:56.89	25.38	6.66	-42.0	-43.2	21.1	0.00e+00	2	23	101	1048576	60	7088
2026-01-05 13:13:57.90	25.45	6.73	-41.9	-43.1	21.3	0.00e+00	30	23	101	1048576	60	6958
2026-01-05 13:13:58.91	25.53	6.80	-41.9	-43.0	21.4	0.00e+00	0	23	101	1048576	60	6924
2026-01-05 13:13:59.93	25.61	6.87	-41.7	-42.9	21.6	0.00e+00	0	23	101	1048576	60	6778
2026-01-05 13:14:00.94	25.68	6.94	-41.8	-43.0	21.5	0.00e+00	0	23	101	1048576	60	6856
2026-01-05 13:14:01.95	25.76	7.00	-41.7	-42.8	21.6	0.00e+00	0	23	101	1048576	60	6748
2026-01-05 13:14:02.96	25.84	7.07	-41.6	-42.7	21.5	0.00e+00	91	23	101	1048576	60	6688
2026-01-05 13:14:03.97	25.92	7.14	-41.7	-42.8	21.6	0.00e+00	2	23	101	1048576	60	6767
2026-01-05 13:14:04.98	25.99	7.21	-41.7	-42.8	21.6	0.00e+00	0	23	101	1048576	60	6717
2026-01-05 13:14:05.99	26.07	7.28	-41.8	-42.9	21.4	0.00e+00	0	23	101	1048576	60	6831
2026-01-05 13:14:07.00	26.15	7.35	-41.5	-42.6	21.7	0.00e+00	0	23	101	1048576	60	6614
2026-01-05 13:14:08.01	26.23	7.42	-41.6	-42.7	21.6	0.00e+00	0	23	101	1048576	60	6625
2026-01-05 13:14:09.02	26.31	7.49	-41.4	-42.5	21.8	0.00e+00	0	23	101	1048576	60	6467
2026-01-05 13:14:10.04	26.39	7.56	-41.3	-42.4	22.0	0.00e+00	92	23	101	1048576	60	6457
2026-01-05 13:14:11.05	26.47	7.63	-41.5	-42.6	21.8	0.00e+00	0	23	101	1048576	60	6594
2026-01-05 13:14:12.06	26.55	7.70	-41.3	-42.4	22.0	0.00e+00	92	23	101	1048576	60	6456
2026-01-05 13:14:13.07	26.63	7.77	-41.3	-42.4	22.0	0.00e+00	82	23	101	1048576	60	6461
2026-01-05 13:14:14.08	26.71	7.84	-41.4	-42.5	22.0	0.00e+00	0	23	101	1048576	60	6522
2026-01-05 13:14:15.09	26.79	7.91	-41.5	-42.6	21.9	0.00e+00	0	23	101	1048576	60	6554
2026-01-05 13:14:16.10	26.87	7.98	-41.4	-42.5	21.8	0.00e+00	0	23	101	1048576	60	6538
2026-01-05 13:14:17.11	26.96	8.05	-41.5	-42.7	21.9	0.00e+00	92	23	101	1048576	60	6619
2026-01-05 13:14:18.13	27.04	8.12	-41.8	-43.0	21.7	0.00e+00	0	23	101	1048576	60	6853
2026-01-05 13:14:19.14	27.12	8.19	-41.6	-42.7	21.9	0.00e+00	77	23	101	1048576	60	6666
2026-01-05 13:14:20.15	27.21	8.26	-41.4	-42.5	22.0	0.00e+00	0	23	101	1048576	60	6475
2026-01-05 13:14:21.16	27.29	8.33	-41.5	-42.7	21.9	0.00e+00	0	23	101	1048576	60	6624
2026-01-05 13:14:22.17	27.37	8.40	-41.4	-42.6	21.9	0.00e+00	0	23	101	1048576	60	6543
2026-01-05 13:14:23.18	27.46	8.47	-41.1	-42.2	22.4	0.00e+00	0	23	101	1048576	60	6248
2026-01-05 13:14:24.19	27.54	8.54	-41.0	-42.0	22.4	0.00e+00	46	23	101	1048576	60	6138
2026-01-05 13:14:25.20	27.63	8.62	-40.9	-42.0	22.6	0.00e+00	82	23	101	1048576	60	6113
2026-01-05 13:14:26.21	27.71	8.69	-41.1	-42.2	22.3	0.00e+00	92	23	101	1048576	60	6264
2026-01-05 13:14:27.23	27.80	8.76	-41.2	-42.2	22.4	0.00e+00	0	23	101	1048576	60	6296
2026-01-05 13:14:28.24	27.89	8.83	-41.1	-42.1	22.4	0.00e+00	82	23	101	1048576	60	6231
2026-01-05 13:14:29.25	27.97	8.91	-41.0	-42.0	22.5	0.00e+00	82	23	101	1048576	60	6143
2026-01-05 13:14:30.26	28.06	8.98	-41.0	-42.1	22.5	0.00e+00	81	23	101	1048576	60	6180
2026-01-05 13:14:31.27	28.15	9.05	-41.1	-42.1	22.4	0.00e+00	0	23	101	1048576	60	6224
2026-01-05 13:14:32.28	28.24	9.12	-41.1	-42.1	22.4	0.00e+00	0	23	101	1048576	60	6230
2026-01-05 13:14:33.29	28.33	9.20	-41.1	-42.1	22.4	0.00e+00	92	23	101	1048576	60	6225
2026-01-05 13:14:34.30	28.41	9.27	-41.1	-42.1	22.4	0.00e+00	0	23	101	1048576	60	6228
2026-01-05 13:14:35.31	28.50	9.34	-41.0	-42.0	22.5	0.00e+00	14	23	101	1048576	60	6153
2026-01-05 13:14:36.32	28.59	9.42	-41.1	-42.1	22.4	0.00e+00	0	23	101	1048576	60	6231
2026-01-05 13:14:37.34	28.68	9.49	-41.0	-42.1	22.5	0.00e+00	0	23	101	1048576	60	6177
2026-01-05 13:14:38.35	28.78	9.56	-41.1	-42.2	22.4	0.00e+00	2	23	101	1048576	60	6276
2026-01-05 13:14:39.36	28.87	9.64	-41.2	-42.3	22.3	0.00e+00	0	23	101	1048576	60	6336
2026-01-05 13:14:40.37	28.96	9.71	-41.3	-42.3	22.3	0.00e+00	90	24	101	1048576	60	6370
2026-01-05 13:14:41.38	29.05	9.79	-41.4	-42.5	22.2	0.00e+00	0	23	101	1048576	60	6504
2026-01-05 13:14:42.39	29.14	9.86	-41.3	-42.4	22.3	0.00e+00	88	23	101	1048576	60	6431
2026-01-05 13:14:43.40	29.23	9.93	-41.0	-42.1	22.6	0.00e+00	2	23	101	1048576	60	6175
2026-01-05 13:14:44.41	29.33	10.01	-41.1	-42.1	22.5	0.00e+00	81	23	101	1048576	60	6231
2026-01-05 13:14:45.42	29.42	10.08	-40.8	-41.9	22.8	0.00e+00	0	23	101	1048576	60	6038
2026-01-05 13:14:46.44	29.52	10.16	-40.8	-41.8	22.8	0.00e+00	0	23	101	1048576	60	5982
2026-01-05 13:14:47.45	29.61	10.23	-40.8	-41.8	22.8	0.00e+00	91	23	101	1048576	60	5983
2026-01-05 13:14:48.46	29.71	10.31	-40.9	-41.9	22.8	0.00e+00	80	23	101	1048576	60	6065
2026-01-05 13:14:49.47	29.80	10.39	-40.5	-41.5	23.1	0.00e+00	92	23	101	1048576	60	5807
2026-01-05 13:14:50.48	29.90	10.46	-40.7	-41.7	22.9	0.00e+00	0	23	101	1048576	60	5928
2026-01-05 13:14:51.49	29.99	10.54	-40.7	-41.7	22.9	0.00e+00	5	23	101	1048576	60	5905
2026-01-05 13:14:52.50	30.09	10.61	-40.7	-41.7	22.9	0.00e+00	6	23	101	1048576	60	5910
2026-01-05 13:14:53.51	30.19	10.69	-40.6	-41.5	23.2	0.00e+00	6	23	101	1048576	60	5812
2026-01-05 13:14:54.52	30.29	10.77	-40.6	-41.6	23.0	0.00e+00	77	23	101	1048576	60	5835
2026-01-05 13:14:55.54	30.39	10.84	-40.6	-41.5	23.0	0.00e+00	0	23	101	1048576	60	5820
2026-01-05 13:14:56.55	30.49	10.92	-40.6	-41.6	23.0	0.00e+00	90	23	101	1048576	60	5878
2026-01-05 13:14:57.56	30.59	11.00	-40.6	-41.6	22.9	0.00e+00	0	23	101	1048576	60	5836
2026-01-05 13:14:58.57	30.68	11.07	-40.8	-41.8	22.8	0.00e+00	6	23	101	1048576	60	5989
2026-01-05 13:14:59.58	30.79	11.15	-40.9	-41.9	22.4	0.00e+00	0	23	101	1048576	60	6089
2026-01-05 13:15:00.59	30.89	11.23	-40.8	-41.8	22.7	0.00e+00	84	23	101	1048576	60	6003
2026-01-05 13:15:01.60	30.99	11.30	-40.6	-41.6	23.1	0.00e+00	0	23	101	1048576	60	5835
2026-01-05 13:15:02.61	31.09	11.38	-40.4	-41.3	23.3	0.00e+00	1	23	101	1048576	60	5666
2026-01-05 13:15:03.63	31.19	11.46	-40.4	-41.4	23.2	0.00e+00	92	23	101	1048576	60	5721
2026-01-05 13:15:04.64	31.30	11.54	-40.4	-41.3	23.3	0.00e+00	0	23	101	1048576	60	5686
2026-01-05 13:15:05.65	31.40	11.62	-40.3	-41.3	23.3	0.00e+00	91	23	101	1048576	60	5633
2026-01-05 13:15:06.66	31.50	11.70	-40.4	-41.3	23.3	0.00e+00	83	23	101	1048576	60	5672
2026-01-05 13:15:07.67	31.61	11.77	-40.3	-41.2	23.4	0.00e+00	7	23	101	1048576	60	5594
2026-01-05 13:15:08.68	31.71	11.85	-40.3	-41.3	23.3	0.00e+00	0	23	101	1048576	60	5644
2026-01-05 13:15:09.70	31.82	11.93	-40.4	-41.3	23.3	0.00e+00	0	23	101	1048576	60	5695
2026-01-05 13:15:10.71	31.93	12.01	-40.6	-41.6	23.1	0.00e+00	92	23	101	1048576	60	5851
2026-01-05 13:15:11.72	32.03	12.09	-40.5	-41.4	23.2	0.00e+00	6	23	101	1048576	60	5744
2026-01-05 13:15:12.73	32.14	12.17	-40.5	-41.5	23.2	0.00e+00	90	23	101	1048576	60	5798
2026-01-05 13:15:13.74	32.25	12.25	-40.6	-41.5	23.1	0.00e+00	8	24	101	1048576	60	5828
2026-01-05 13:15:14.75	32.36	12.33	-40.6	-41.6	23.1	0.00e+00	2	23	101	1048576	60	5833
2026-01-05 13:15:15.76	32.47	12.41	-40.7	-41.7	23.0	0.00e+00	6	23	101	1048576	60	5934
2026-01-05 13:15:16.78	32.58	12.49	-40.7	-41.6	23.1	0.00e+00	82	24	101	1048576	60	5895
2026-01-05 13:15:17.79	32.69	12.57	-40.7	-41.6	23.0	0.00e+00	92	23	101	1048576	60	5895
2026-01-05 13:15:18.80	32.80	12.65	-40.7	-41.7	23.0	0.00e+00	2	24	101	1048576	60	5907
2026-01-05 13:15:19.81	32.91	12.73	-40.6	-41.6	23.0	0.00e+00	92	23	101	1048576	60	5866
2026-01-05 13:15:20.82	33.02	12.81	-40.8	-41.8	22.9	0.00e+00	0	24	101	1048576	60	5986
2026-01-05 13:15:21.83	33.13	12.89	-40.8	-41.8	22.9	0.00e+00	0	24	101	1048576	60	6015
2026-01-05 13:15:22.84	33.25	12.97	-40.7	-41.7	23.1	0.00e+00	80	23	101	1048576	60	5918
2026-01-05 13:15:23.85	33.36	13.06	-40.9	-41.9	22.9	0.00e+00	0	23	101	1048576	60	6069
2026-01-05 13:15:24.86	33.47	13.14	-40.8	-41.8	22.9	0.00e+00	82	23	101	1048576	60	5984
2026-01-05 13:15:25.87	33.59	13.22	-40.5	-41.5	23.2	0.00e+00	0	23	101	1048576	60	5800
2026-01-05 13:15:26.88	33.70	13.30	-40.6	-41.6	23.2	0.00e+00	92	23	101	1048576	60	5839
2026-01-05 13:15:27.90	33.82	13.38	-40.7	-41.6	23.1	0.00e+00	0	24	101	1048576	60	5888
2026-01-05 13:15:28.91	33.94	13.47	-40.5	-41.5	23.2	0.00e+00	92	24	101	1048576	60	5798
2026-01-05 13:15:29.92	34.05	13.55	-40.7	-41.6	23.1	0.00e+00	0	24	101	1048576	60	5887
2026-01-05 13:15:30.93	34.17	13.63	-40.8	-41.8	22.9	0.00e+00	0	23	101	1048576	60	5997
2026-01-05 13:15:31.94	34.29	13.71	-40.8	-41.8	22.9	0.00e+00	0	24	101	1048576	60	5983
2026-01-05 13:15:32.95	34.41	13.80	-40.9	-41.9	22.8	0.00e+00	3	23	101	1048576	60	6052
2026-01-05 13:15:33.96	34.53	13.88	-40.8	-41.8	22.9	0.00e+00	90	24	101	1048576	60	5967
2026-01-05 13:15:34.97	34.65	13.96	-40.7	-41.7	22.7	0.00e+00	79	24	101	1048576	60	5914
2026-01-05 13:15:35.99	34.77	14.05	-40.9	-41.9	22.9	0.00e+00	92	24	101	1048576	60	6043
2026-01-05 13:15:37.00	34.90	14.13	-40.9	-41.9	22.7	0.00e+00	79	23	101	1048576	60	6102
2026-01-05 13:15:38.01	35.02	14.21	-40.7	-41.6	23.1	0.00e+00	2	24	101	1048576	60	5893
2026-01-05 13:15:39.02	35.14	14.30	-40.7	-41.6	23.1	0.00e+00	2	24	101	1048576	60	5895
2026-01-05 13:15:40.03	35.26	14.38	-40.6	-41.6	23.1	0.00e+00	0	24	101	1048576	60	5861
2026-01-05 13:15:41.04	35.39	14.46	-40.6	-41.6	23.2	0.00e+00	90	24	101	1048576	60	5832
2026-01-05 13:15:42.05	35.51	14.55	-40.7	-41.7	23.1	0.00e+00	78	24	101	1048576	60	5923
2026-01-05 13:15:43.07	35.64	14.63	-40.7	-41.7	23.1	0.00e+00	92	24	101	1048576	60	5948
2026-01-05 13:15:44.08	35.77	14.72	-40.6	-41.6	23.1	0.00e+00	0	24	101	1048576	60	5869
2026-01-05 13:15:45.09	35.89	14.80	-40.6	-41.6	23.2	0.00e+00	12	24	101	1048576	60	5832
2026-01-05 13:15:46.10	36.02	14.89	-40.7	-41.6	23.1	0.00e+00	0	24	101	1048576	60	5891
2026-01-05 13:15:47.11	36.15	14.97	-40.7	-41.7	23.1	0.00e+00	0	24	101	1048576	60	5931
2026-01-05 13:15:48.12	36.28	15.06	-40.7	-41.6	23.2	0.00e+00	91	24	101	1048576	60	5894
2026-01-05 13:15:49.13	36.41	15.15	-40.7	-41.7	23.0	0.00e+00	3	24	101	1048576	60	5916
2026-01-05 13:15:50.14	36.54	15.23	-40.8	-41.8	23.0	0.00e+00	92	24	101	1048576	60	6010
2026-01-05 13:15:51.16	36.67	15.32	-40.8	-41.8	23.0	0.00e+00	3	24	101	1048576	60	5986
2026-01-05 13:15:52.17	36.81	15.40	-40.9	-41.9	22.9	0.00e+00	74	24	101	1048576	60	6039
2026-01-05 13:15:53.18	36.94	15.49	-40.7	-41.7	23.2	0.00e+00	78	23	101	1048576	60	5903
2026-01-05 13:15:54.19	37.07	15.58	-40.8	-41.7	23.1	0.00e+00	0	24	101	1048576	60	5961
2026-01-05 13:15:55.20	37.21	15.66	-40.7	-41.6	23.1	0.00e+00	0	24	101	1048576	60	5887
2026-01-05 13:15:56.21	37.34	15.75	-40.7	-41.7	23.2	0.00e+00	77	23	101	1048576	60	5921
2026-01-05 13:15:57.22	37.48	15.84	-40.6	-41.6	23.2	0.00e+00	92	24	101	1048576	60	5851
2026-01-05 13:15:58.23	37.62	15.92	-40.5	-41.4	23.4	0.00e+00	0	24	101	1048576	60	5759
2026-01-05 13:15:59.24	37.75	16.01	-40.6	-41.5	23.2	0.00e+00	91	24	101	1048576	60	5810
2026-01-05 13:16:00.26	37.89	16.10	-40.5	-41.4	23.4	0.00e+00	0	24	101	1048576	60	5727
2026-01-05 13:16:01.27	38.03	16.19	-40.7	-41.7	23.2	0.00e+00	0	24	101	1048576	60	5935
2026-01-05 13:16:02.28	38.17	16.27	-40.7	-41.7	23.1	0.00e+00	2	24	101	1048576	60	5899
2026-01-05 13:16:03.29	38.31	16.36	-40.6	-41.6	23.0	0.00e+00	2	23	101	1048576	60	5833
2026-01-05 13:16:04.30	38.45	16.45	-40.7	-41.7	23.1	0.00e+00	92	24	101	1048576	60	5919
2026-01-05 13:16:05.31	38.60	16.54	-40.7	-41.6	23.2	0.00e+00	0	24	101	1048576	60	5881
2026-01-05 13:16:06.32	38.74	16.63	-40.6	-41.6	23.3	0.00e+00	90	24	101	1048576	60	5839
2026-01-05 13:16:07.33	38.88	16.72	-40.7	-41.7	23.1	0.00e+00	0	24	101	1048576	60	5936
2026-01-05 13:16:08.34	39.03	16.80	-40.8	-41.8	23.0	0.00e+00	0	24	101	1048576	60	5995
2026-01-05 13:16:09.35	39.17	16.89	-40.7	-41.7	23.1	0.00e+00	0	24	101	1048576	60	5929
2026-01-05 13:16:10.37	39.32	16.98	-40.6	-41.6	23.3	0.00e+00	0	24	101	1048576	60	5853
2026-01-05 13:16:11.38	39.47	17.07	-40.5	-41.4	23.4	0.00e+00	34	24	101	1048576	60	5737
2026-01-05 13:16:12.39	39.62	17.16	-40.6	-41.5	23.4	0.00e+00	0	24	101	1048576	60	5811
2026-01-05 13:16:13.40	39.77	17.25	-40.4	-41.3	23.5	0.00e+00	90	24	101	1048576	60	5652
2026-01-05 13:16:14.41	39.91	17.34	-40.1	-41.0	23.8	0.00e+00	2	24	101	1048576	58	6107
2026-01-05 13:16:15.42	40.07	17.43	-40.2	-41.1	23.6	0.00e+00	79	24	101	1048576	58	6192
2026-01-05 13:16:16.43	40.22	17.52	-40.2	-41.1	23.6	0.00e+00	0	24	101	1048576	58	6229
2026-01-05 13:16:17.44	40.37	17.61	-40.3	-41.2	23.6	0.00e+00	3	24	101	1048576	58	6286
2026-01-05 13:16:18.45	40.52	17.70	-40.1	-41.0	23.6	0.00e+00	0	24	101	1048576	58	6171
2026-01-05 13:16:19.46	40.68	17.79	-40.2	-41.1	23.7	0.00e+00	0	24	101	1048576	58	6191
2026-01-05 13:16:20.47	40.83	17.88	-40.0	-40.9	23.8	0.00e+00	92	24	101	1048576	58	6071
2026-01-05 13:16:21.49	40.99	17.97	-40.0	-40.9	23.8	0.00e+00	5	24	101	1048576	58	6040
2026-01-05 13:16:22.50	41.15	18.06	-40.0	-40.9	23.8	0.00e+00	92	24	101	1048576	58	6038
2026-01-05 13:16:23.51	41.30	18.15	-40.0	-40.9	23.8	0.00e+00	6	24	101	1048576	58	6060
2026-01-05 13:16:24.52	41.46	18.24	-39.7	-40.5	24.0	0.00e+00	6	24	101	1048576	58	5819
2026-01-05 13:16:25.53	41.62	18.34	-39.5	-40.4	23.7	0.00e+00	0	24	101	1048576	58	5703
2026-01-05 13:16:26.54	41.78	18.43	-39.5	-40.3	24.2	0.00e+00	4	24	101	1048576	58	5685
2026-01-05 13:16:27.55	41.94	18.52	-39.5	-40.3	24.3	0.00e+00	77	24	101	1048576	58	5690
2026-01-05 13:16:28.56	42.11	18.61	-39.3	-40.2	24.4	0.00e+00	6	23	101	1048576	58	5573
2026-01-05 13:16:29.58	42.27	18.70	-39.4	-40.2	24.4	0.00e+00	91	24	101	1048576	58	5621
2026-01-05 13:16:30.59	42.44	18.79	-39.2	-40.1	24.5	0.00e+00	2	24	101	1048576	58	5511
2026-01-05 13:16:31.60	42.60	18.89	-39.5	-40.3	24.3	0.00e+00	83	24	101	1048576	58	5677
2026-01-05 13:16:32.61	42.77	18.98	-39.2	-40.0	24.5	0.00e+00	0	24	101	1048576	58	5500
2026-01-05 13:16:33.62	42.93	19.07	-39.3	-40.1	24.5	0.00e+00	2	24	101	1048576	58	5544
2026-01-05 13:16:34.63	43.10	19.16	-39.3	-40.1	24.5	0.00e+00	92	24	101	1048576	58	5556
2026-01-05 13:16:35.65	43.27	19.25	-39.3	-40.1	24.4	0.00e+00	86	24	101	1048576	58	5548
2026-01-05 13:16:36.66	43.44	19.35	-39.3	-40.2	24.4	0.00e+00	92	24	101	1048576	58	5584
2026-01-05 13:16:37.67	43.61	19.44	-39.3	-40.2	24.3	0.00e+00	86	24	101	1048576	58	5579
2026-01-05 13:16:38.68	43.79	19.53	-39.5	-40.3	24.4	0.00e+00	7	24	101	1048576	58	5682
2026-01-05 13:16:39.69	43.96	19.62	-39.5	-40.4	24.4	0.00e+00	5	24	101	1048576	58	5713
2026-01-05 13:16:40.70	44.13	19.72	-39.3	-40.2	24.4	0.00e+00	0	24	101	1048576	58	5586
2026-01-05 13:16:41.71	44.31	19.81	-39.4	-40.3	24.3	0.00e+00	0	24	101	1048576	58	5651
2026-01-05 13:16:42.73	44.49	19.90	-39.3	-40.1	24.4	0.00e+00	6	24	101	1048576	58	5563
2026-01-05 13:16:43.74	44.66	20.00	-39.1	-40.0	24.6	0.00e+00	92	24	101	1048576	56	6126
2026-01-05 13:16:44.75	44.84	20.09	-39.1	-39.9	24.7	0.00e+00	6	24	101	1048576	56	6100
2026-01-05 13:16:45.76	45.02	20.18	-39.1	-39.9	24.8	0.00e+00	91	24	101	1048576	56	6058
2026-01-05 13:16:46.77	45.20	20.28	-39.2	-40.0	24.7	0.00e+00	77	24	101	1048576	56	6125
2026-01-05 13:16:47.78	45.38	20.37	-39.3	-40.1	24.7	0.00e+00	77	24	101	1048576	56	6220
2026-01-05 13:16:48.79	45.57	20.46	-39.0	-39.8	24.8	0.00e+00	3	24	101	1048576	56	6016
2026-01-05 13:16:49.81	45.75	20.56	-39.1	-39.9	24.6	0.00e+00	77	24	101	1048576	56	6092
2026-01-05 13:16:50.82	45.94	20.65	-39.0	-39.8	24.7	0.00e+00	92	24	101	1048576	56	6027
2026-01-05 13:16:51.83	46.12	20.74	-39.1	-39.9	24.7	0.00e+00	77	24	101	1048576	56	6075
2026-01-05 13:16:52.84	46.31	20.84	-39.1	-40.0	24.7	0.00e+00	92	24	101	1048576	56	6116
2026-01-05 13:16:53.85	46.50	20.93	-39.1	-39.9	24.8	0.00e+00	77	24	101	1048576	56	6056
2026-01-05 13:16:54.86	46.69	21.02	-38.9	-39.7	24.8	0.00e+00	0	24	101	1048576	56	5928
2026-01-05 13:16:55.88	46.88	21.12	-38.9	-39.7	24.9	0.00e+00	0	24	101	1048576	56	5931
2026-01-05 13:16:56.88	47.07	21.21	-38.9	-39.7	24.9	0.00e+00	0	24	101	1048576	56	5948
2026-01-05 13:16:57.89	47.26	21.31	-38.7	-39.5	25.0	0.00e+00	90	24	101	1048576	56	5785
2026-01-05 13:16:58.91	47.46	21.40	-38.5	-39.3	25.1	0.00e+00	0	24	101	1048576	56	5656
2026-01-05 13:16:59.92	47.65	21.49	-38.5	-39.2	25.2	0.00e+00	92	24	101	1048576	56	5622
2026-01-05 13:17:00.93	47.85	21.59	-38.5	-39.3	25.2	0.00e+00	0	24	101	1048576	56	5675
2026-01-05 13:17:01.94	48.05	21.68	-38.5	-39.3	25.2	0.00e+00	0	24	101	1048576	56	5660
2026-01-05 13:17:02.95	48.25	21.78	-38.4	-39.2	25.3	0.00e+00	0	24	101	1048576	56	5591
2026-01-05 13:17:03.96	48.45	21.87	-38.3	-39.1	25.3	0.00e+00	0	24	101	1048576	56	5543
2026-01-05 13:17:04.97	48.65	21.96	-38.4	-39.2	25.4	0.00e+00	53	24	101	1048576	56	5576
2026-01-05 13:17:05.99	48.85	22.06	-38.3	-39.1	25.4	0.00e+00	81	24	101	1048576	56	5532
2026-01-05 13:17:07.00	49.05	22.15	-38.3	-39.0	25.5	0.00e+00	92	24	101	1048576	56	5483
2026-01-05 13:17:08.01	49.26	22.25	-38.0	-38.8	25.6	0.00e+00	0	24	101	1048576	54	5996
2026-01-05 13:17:09.02	49.46	22.34	-38.0	-38.8	25.6	0.00e+00	90	24	101	1048576	54	6004
2026-01-05 13:17:10.03	49.67	22.43	-38.2	-38.9	25.5	0.00e+00	0	24	101	1048576	54	6100
2026-01-05 13:17:11.04	49.88	22.53	-38.3	-39.1	25.3	0.00e+00	0	24	101	1048576	54	6203
2026-01-05 13:17:12.05	50.09	22.62	-38.4	-39.2	25.3	0.00e+00	0	24	101	1048576	54	6247
2026-01-05 13:17:13.06	50.30	22.71	-38.5	-39.3	25.2	0.00e+00	81	24	101	1048576	54	6356
2026-01-05 13:17:14.07	50.51	22.81	-38.6	-39.4	25.1	0.00e+00	92	24	101	1048576	54	6414
2026-01-05 13:17:15.09	50.72	22.90	-38.7	-39.5	25.0	0.00e+00	0	24	101	1048576	54	6522
2026-01-05 13:17:16.10	50.94	23.00	-38.8	-39.6	24.9	0.00e+00	92	24	101	1048576	54	6577
2026-01-05 13:17:17.11	51.15	23.09	-38.9	-39.7	24.8	0.00e+00	2	24	101	1048576	54	6646
2026-01-05 13:17:18.12	51.37	23.18	-39.1	-40.0	24.3	0.00e+00	0	24	101	1048576	54	6855
2026-01-05 13:17:19.13	51.59	23.28	-38.9	-39.7	24.8	0.00e+00	0	24	101	1048576	54	6677
2026-01-05 13:17:20.14	51.81	23.37	-39.1	-39.9	24.7	0.00e+00	0	24	101	1048576	54	6803
2026-01-05 13:17:21.15	52.03	23.46	-39.1	-40.0	24.8	0.00e+00	90	24	101	1048576	56	6121
2026-01-05 13:17:22.16	52.25	23.56	-38.9	-39.7	24.9	0.00e+00	0	24	101	1048576	56	5948
2026-01-05 13:17:23.17	52.47	23.65	-39.2	-40.0	24.6	0.00e+00	92	24	101	1048576	56	6142
2026-01-05 13:17:24.19	52.70	23.74	-38.9	-39.8	24.9	0.00e+00	7	24	101	1048576	56	5979
2026-01-05 13:17:25.20	52.93	23.84	-39.1	-39.9	24.7	0.00e+00	4	24	101	1048576	56	6058
2026-01-05 13:17:26.21	53.15	23.93	-39.1	-39.9	24.8	0.00e+00	5	24	101	1048576	56	6056
2026-01-05 13:17:27.22	53.38	24.02	-39.3	-40.1	24.6	0.00e+00	0	24	101	1048576	56	6215
2026-01-05 13:17:28.23	53.61	24.11	-39.1	-39.9	24.8	0.00e+00	92	24	101	1048576	56	6081
2026-01-05 13:17:29.24	53.84	24.21	-39.4	-40.2	24.5	0.00e+00	75	24	101	1048576	56	6293
2026-01-05 13:17:30.25	54.08	24.30	-39.3	-40.1	24.6	0.00e+00	92	24	101	1048576	56	6199
2026-01-05 13:17:31.26	54.31	24.39	-39.3	-40.1	24.6	0.00e+00	2	24	101	1048576	56	6238
2026-01-05 13:17:32.27	54.54	24.48	-39.6	-40.4	24.2	0.00e+00	43	24	101	1048576	56	6458
2026-01-05 13:17:33.28	54.78	24.57	-39.7	-40.6	24.2	0.00e+00	0	24	101	1048576	56	6561
2026-01-05 13:17:34.30	55.02	24.66	-39.8	-40.7	24.2	0.00e+00	0	24	101	1048576	56	6636
2026-01-05 13:17:35.31	55.26	24.76	-39.8	-40.7	24.1	0.00e+00	81	24	101	1048576	56	6669
2026-01-05 13:17:36.32	55.50	24.85	-39.9	-40.8	24.1	0.00e+00	0	24	101	1048576	56	6694
2026-01-05 13:17:37.33	55.74	24.94	-39.9	-40.7	24.1	0.00e+00	90	24	101	1048576	56	6670
2026-01-05 13:17:38.34	55.99	25.03	-39.9	-40.7	24.1	0.00e+00	0	24	101	1048576	56	6679
2026-01-05 13:17:39.35	56.23	25.12	-39.9	-40.8	24.0	0.00e+00	0	24	101	1048576	56	6737
2026-01-05 13:17:40.36	56.48	25.21	-40.0	-40.9	23.9	0.00e+00	2	24	101	1048576	58	6058
2026-01-05 13:17:41.37	56.72	25.30	-40.1	-40.9	23.9	0.00e+00	0	24	101	1048576	58	6103
2026-01-05 13:17:42.39	56.98	25.39	-40.1	-41.0	23.8	0.00e+00	0	24	101	1048576	58	6160
2026-01-05 13:17:43.40	57.23	25.48	-40.0	-40.9	24.0	0.00e+00	0	24	101	1048576	58	6051
2026-01-05 13:17:44.41	57.48	25.57	-39.9	-40.8	24.0	0.00e+00	92	24	101	1048576	58	5968
2026-01-05 13:17:45.42	57.73	25.66	-39.6	-40.4	24.3	0.00e+00	3	24	101	1048576	58	5753
2026-01-05 13:17:46.43	57.98	25.74	-39.6	-40.4	24.3	0.00e+00	92	24	101	1048576	58	5760
2026-01-05 13:17:47.44	58.24	25.83	-39.6	-40.5	24.2	0.00e+00	0	24	101	1048576	58	5804
2026-01-05 13:17:48.45	58.50	25.92	-39.7	-40.6	24.2	0.00e+00	77	24	101	1048576	58	5833
2026-01-05 13:17:49.46	58.76	26.01	-39.9	-40.8	24.1	0.00e+00	76	24	101	1048576	58	5970
2026-01-05 13:17:50.47	59.02	26.10	-40.1	-41.0	23.9	0.00e+00	0	24	101	1048576	58	6139
2026-01-05 13:17:51.49	59.28	26.18	-40.3	-41.2	23.6	0.00e+00	90	24	101	1048576	58	6298
2026-01-05 13:17:52.50	59.54	26.27	-40.8	-41.7	23.2	0.00e+00	0	24	101	1048576	58	6684
2026-01-05 13:17:53.51	59.81	26.36	-40.8	-41.8	23.1	0.00e+00	92	24	101	1048576	58	6719
2026-01-05 13:17:54.52	60.07	26.44	-41.0	-42.0	23.0	0.00e+00	6	24	101	1048576	58	6875
2026-01-05 13:17:55.53	60.34	26.53	-41.0	-42.0	22.9	0.00e+00	2	24	101	1048576	58	6912
2026-01-05 13:17:56.54	60.61	26.61	-41.2	-42.2	22.8	0.00e+00	0	24	101	1048576	60	6284
2026-01-05 13:17:57.55	60.88	26.70	-41.1	-42.1	22.9	0.00e+00	5	24	101	1048576	60	6177
2026-01-05 13:17:58.56	61.15	26.78	-41.1	-42.1	22.9	0.00e+00	0	24	101	1048576	60	6235
2026-01-05 13:17:59.57	61.42	26.87	-41.3	-42.3	22.7	0.00e+00	81	24	101	1048576	60	6341
2026-01-05 13:18:00.59	61.70	26.95	-41.6	-42.7	22.4	0.00e+00	92	24	101	1048576	60	6630
2026-01-05 13:18:01.60	61.97	27.03	-41.6	-42.7	22.4	0.00e+00	1	24	101	1048576	60	6633
2026-01-05 13:18:02.61	62.25	27.12	-41.7	-42.8	22.4	0.00e+00	5	24	101	1048576	60	6713
2026-01-05 13:18:03.62	62.53	27.20	-41.7	-42.8	22.3	0.00e+00	83	24	101	1048576	60	6725
2026-01-05 13:18:04.63	62.81	27.28	-41.6	-42.6	22.4	0.00e+00	80	24	101	1048576	60	6609
2026-01-05 13:18:05.64	63.09	27.36	-41.7	-42.8	22.3	0.00e+00	0	24	101	1048576	60	6723
2026-01-05 13:18:06.65	63.37	27.44	-41.8	-42.9	22.1	0.00e+00	85	24	101	1048576	60	6806
2026-01-05 13:18:07.66	63.66	27.52	-42.0	-43.1	21.9	0.00e+00	92	24	101	1048576	60	6976
2026-01-05 13:18:08.67	63.94	27.60	-42.3	-43.4	21.7	0.00e+00	0	24	101	1048576	60	7220
2026-01-05 13:18:09.69	64.23	27.68	-42.5	-43.7	21.4	0.00e+00	90	24	101	1048576	60	7446
2026-01-05 13:18:10.70	64.52	27.76	-42.5	-43.7	21.5	0.00e+00	7	24	101	1048576	60	7487
2026-01-05 13:18:11.71	64.81	27.84	-42.4	-43.6	21.5	0.00e+00	0	24	101	1048576	60	7355
2026-01-05 13:18:12.72	65.10	27.92	-42.0	-43.1	22.0	0.00e+00	0	24	101	1048576	60	6977
2026-01-05 13:18:13.73	65.39	27.99	-42.0	-43.1	21.9	0.00e+00	2	24	101	1048576	60	6975
2026-01-05 13:18:14.74	65.69	28.07	-41.8	-42.9	22.0	0.00e+00	92	24	101	1048576	60	6795
2026-01-05 13:18:15.75	65.98	28.15	-41.9	-43.1	22.0	0.00e+00	7	24	101	1048576	60	6932
2026-01-05 13:18:16.76	66.28	28.22	-41.7	-42.8	22.3	0.00e+00	92	24	101	1048576	60	6708
2026-01-05 13:18:17.77	66.57	28.30	-41.5	-42.5	22.4	0.00e+00	76	24	101	1048576	60	6487
2026-01-05 13:18:18.78	66.87	28.37	-41.5	-42.5	22.5	0.00e+00	75	24	101	1048576	60	6531
2026-01-05 13:18:19.79	67.17	28.44	-41.5	-42.5	22.6	0.00e+00	5	24	101	1048576	60	6505
2026-01-05 13:18:20.81	67.48	28.52	-41.4	-42.4	22.6	0.00e+00	77	24	101	1048576	60	6456
2026-01-05 13:18:21.82	67.78	28.59	-41.4	-42.4	22.6	0.00e+00	24	24	101	1048576	60	6464
2026-01-05 13:18:22.83	68.09	28.66	-41.4	-42.4	22.7	0.00e+00	0	24	101	1048576	60	6411
2026-01-05 13:18:23.84	68.39	28.73	-41.4	-42.4	22.6	0.00e+00	92	24	101	1048576	60	6425
2026-01-05 13:18:24.85	68.70	28.80	-41.3	-42.3	22.8	0.00e+00	75	24	101	1048576	60	6363
2026-01-05 13:18:25.86	69.01	28.87	-41.3	-42.3	22.7	0.00e+00	0	24	101	1048576	60	6357
2026-01-05 13:18:26.87	69.32	28.94	-41.4	-42.5	22.4	0.00e+00	0	24	101	1048576	60	6469
2026-01-05 13:18:27.88	69.63	29.01	-41.6	-42.6	22.2	0.00e+00	0	24	101	1048576	60	6583
2026-01-05 13:18:28.89	69.94	29.07	-41.8	-42.9	22.1	0.00e+00	18	24	101	1048576	60	6833
2026-01-05 13:18:29.90	70.26	29.14	-42.2	-43.3	21.7	0.00e+00	0	24	101	1048576	60	7156
2026-01-05 13:18:30.91	70.57	29.21	-42.5	-43.7	21.4	0.00e+00	92	24	101	1048576	60	7487
2026-01-05 13:18:31.93	70.89	29.27	-42.9	-44.1	21.1	0.00e+00	4	24	101	1048576	60	7859
2026-01-05 13:18:32.94	71.21	29.34	-43.1	-44.4	20.8	0.00e+00	92	24	101	1048576	60	8090
2026-01-05 13:18:33.95	71.53	29.40	-43.2	-44.5	20.7	0.00e+00	0	24	101	1048576	60	8172
2026-01-05 13:18:34.96	71.85	29.46	-43.2	-44.5	20.6	0.00e+00	0	24	101	1048576	60	8176
2026-01-05 13:18:35.97	72.17	29.52	-43.5	-44.9	20.4	0.00e+00	2	24	101	1048576	60	8530
2026-01-05 13:18:36.98	72.49	29.58	-43.6	-45.0	20.3	0.00e+00	2	24	101	1048576	60	8660
2026-01-05 13:18:37.99	72.82	29.64	-43.6	-45.0	20.2	0.00e+00	92	24	101	1048576	60	8681
2026-01-05 13:18:39.00	73.14	29.70	-43.7	-45.0	20.2	0.00e+00	82	24	101	1048576	60	8706
2026-01-05 13:18:40.01	73.47	29.76	-43.8	-45.2	20.0	0.00e+00	92	24	101	1048576	60	8900
2026-01-05 13:18:41.03	73.80	29.82	-44.0	-45.5	19.7	0.00e+00	0	24	101	1048576	60	9170
2026-01-05 13:18:42.04	74.12	29.88	-44.1	-45.6	19.7	0.00e+00	0	24	101	1048576	60	9313
2026-01-05 13:18:43.05	74.45	29.93	-44.2	-45.7	19.5	0.00e+00	0	24	101	1048576	60	9450
2026-01-05 13:18:44.06	74.79	29.99	-44.1	-45.6	19.7	0.00e+00	0	24	101	1048576	60	9282
2026-01-05 13:18:45.07	75.12	30.04	-43.9	-45.3	19.9	0.00e+00	91	24	101	1048576	60	9004
2026-01-05 13:18:46.08	75.45	30.09	-43.9	-45.3	19.9	0.00e+00	0	24	101	1048576	60	8947
2026-01-05 13:18:47.09	75.78	30.15	-43.9	-45.4	19.9	0.00e+00	92	24	101	1048576	60	9034
2026-01-05 13:18:48.10	76.12	30.20	-43.4	-44.7	20.6	0.00e+00	0	24	101	1048576	60	8362
2026-01-05 13:18:49.12	76.46	30.25	-43.3	-44.6	20.6	0.00e+00	2	24	101	1048576	60	8304
2026-01-05 13:18:50.12	76.79	30.30	-43.2	-44.5	20.7	0.00e+00	2	24	101	1048576	60	8223
2026-01-05 13:18:51.14	77.13	30.34	-43.2	-44.4	20.8	0.00e+00	0	24	101	1048576	60	8128
2026-01-05 13:18:52.15	77.47	30.39	-43.3	-44.6	20.6	0.00e+00	0	24	101	1048576	60	8304
2026-01-05 13:18:53.16	77.81	30.44	-43.3	-44.7	20.6	0.00e+00	7	24	101	1048576	60	8343
2026-01-05 13:18:54.17	78.15	30.48	-43.3	-44.5	20.7	0.00e+00	92	24	101	1048576	60	8233
2026-01-05 13:18:55.18	78.49	30.53	-43.2	-44.5	20.7	0.00e+00	76	24	101	1048576	60	8230
2026-01-05 13:18:56.19	78.84	30.57	-43.0	-44.3	20.8	0.00e+00	75	24	101	1048576	60	7997
2026-01-05 13:18:57.20	79.18	30.61	-42.9	-44.1	21.1	0.00e+00	74	24	101	1048576	60	7855
2026-01-05 13:18:58.22	79.53	30.65	-42.7	-43.9	21.3	0.00e+00	0	24	101	1048576	60	7651
2026-01-05 13:18:59.23	79.87	30.69	-42.4	-43.6	21.6	0.00e+00	0	24	101	1048576	60	7338
2026-01-05 13:19:00.24	80.22	30.73	-42.3	-43.5	21.7	0.00e+00	0	24	101	1048576	60	7256
2026-01-05 13:19:01.25	80.57	30.77	-42.3	-43.5	21.7	0.00e+00	92	24	101	1048576	60	7274
2026-01-05 13:19:02.26	80.92	30.80	-42.3	-43.4	21.8	0.00e+00	74	24	101	1048576	60	7195
2026-01-05 13:19:03.27	81.26	30.84	-42.4	-43.5	21.7	0.00e+00	92	24	101	1048576	60	7331
2026-01-05 13:19:04.28	81.61	30.87	-42.5	-43.6	21.6	0.00e+00	0	24	101	1048576	60	7409
2026-01-05 13:19:05.29	81.96	30.91	-42.5	-43.7	21.4	0.00e+00	3	24	101	1048576	60	7475
2026-01-05 13:19:06.30	82.31	30.94	-42.5	-43.6	21.5	0.00e+00	0	24	101	1048576	60	7408
2026-01-05 13:19:07.31	82.67	30.97	-42.4	-43.6	21.7	0.00e+00	2	24	101	1048576	60	7342
2026-01-05 13:19:08.33	83.02	31.00	-42.2	-43.3	21.7	0.00e+00	92	24	101	1048576	60	7155
2026-01-05 13:19:09.34	83.37	31.03	-42.1	-43.2	21.9	0.00e+00	0	24	101	1048576	60	7064
2026-01-05 13:19:10.35	83.73	31.06	-42.0	-43.1	22.0	0.00e+00	91	24	101	1048576	60	7004
2026-01-05 13:19:11.36	84.08	31.08	-42.3	-43.4	21.7	0.00e+00	0	24	101	1048576	60	7215
2026-01-05 13:19:12.37	84.44	31.11	-42.3	-43.5	21.6	0.00e+00	0	24	101	1048576	60	7284
2026-01-05 13:19:13.38	84.79	31.13	-42.9	-44.1	21.1	0.00e+00	1	24	101	1048576	60	7848
2026-01-05 13:19:14.39	85.15	31.15	-43.0	-44.3	20.9	0.00e+00	2	24	101	1048576	60	7963
2026-01-05 13:19:15.40	85.50	31.18	-43.0	-44.3	20.9	0.00e+00	90	24	101	1048576	60	8010
2026-01-05 13:19:16.41	85.86	31.20	-42.8	-44.0	21.3	0.00e+00	6	24	101	1048576	60	7696
2026-01-05 13:19:17.43	86.22	31.22	-42.9	-44.1	21.0	0.00e+00	92	24	101	1048576	60	7817
2026-01-05 13:19:18.44	86.58	31.23	-42.6	-43.7	21.4	0.00e+00	0	24	101	1048576	60	7505
2026-01-05 13:19:19.45	86.93	31.25	-42.6	-43.8	21.4	0.00e+00	92	24	101	1048576	60	7529
2026-01-05 13:19:20.46	87.29	31.27	-42.4	-43.6	21.5	0.00e+00	0	24	101	1048576	60	7356
2026-01-05 13:19:21.47	87.65	31.28	-42.4	-43.5	21.7	0.00e+00	5	24	101	1048576	60	7330
2026-01-05 13:19:22.48	88.01	31.30	-42.1	-43.3	21.9	0.00e+00	0	24	101	1048576	60	7103
2026-01-05 13:19:23.49	88.37	31.31	-42.2	-43.3	21.9	0.00e+00	5	24	101	1048576	60	7112
2026-01-05 13:19:24.50	88.73	31.32	-42.1	-43.2	21.9	0.00e+00	92	24	101	1048576	60	7024
2026-01-05 13:19:25.51	89.09	31.33	-42.3	-43.4	21.7	0.00e+00	6	24	101	1048576	60	7239
2026-01-05 13:19:26.52	89.45	31.34	-41.3	-42.3	22.7	0.00e+00	92	24	101	1048576	60	6366
2026-01-05 13:19:27.53	89.81	31.34	-41.4	-42.4	22.6	0.00e+00	7	24	101	1048576	60	6459
2026-01-05 13:19:28.55	90.17	31.35	-41.9	-43.0	22.1	0.00e+00	4	24	101	1048576	60	6882
2026-01-05 13:19:29.56	90.53	31.35	-42.2	-43.3	21.8	0.00e+00	2	24	101	1048576	60	7119
2026-01-05 13:19:30.57	90.89	31.36	-41.5	-42.6	22.6	0.00e+00	5	24	101	1048576	60	6559
2026-01-05 13:19:31.58	91.25	31.36	-41.3	-42.3	22.7	0.00e+00	92	24	101	1048576	60	6358
2026-01-05 13:19:32.59	91.61	31.36	-41.4	-42.4	22.6	0.00e+00	4	24	101	1048576	60	6445
2026-01-05 13:19:33.60	91.97	31.36	-42.0	-43.1	22.0	0.00e+00	90	24	101	1048576	60	6932
2026-01-05 13:19:34.61	92.33	31.36	-42.2	-43.3	21.7	0.00e+00	5	24	101	1048576	60	7166
2026-01-05 13:19:35.62	92.69	31.36	-42.5	-43.7	21.4	0.00e+00	85	24	101	1048576	60	7445
2026-01-05 13:19:36.63	93.05	31.35	-42.7	-43.9	20.6	0.00e+00	0	24	101	1048576	60	7618
2026-01-05 13:19:37.64	93.41	31.35	-42.7	-44.0	21.1	0.00e+00	6	24	101	1048576	60	7692
2026-01-05 13:19:38.65	93.77	31.34	-42.8	-44.0	21.1	0.00e+00	91	24	101	1048576	60	7730
2026-01-05 13:19:39.67	94.14	31.34	-42.7	-43.9	21.2	0.00e+00	0	24	101	1048576	60	7597
2026-01-05 13:19:40.68	94.50	31.33	-42.4	-43.6	21.5	0.00e+00	92	24	101	1048576	60	7378
2026-01-05 13:19:41.69	94.86	31.32	-42.2	-43.3	21.9	0.00e+00	6	24	101	1048576	60	7140
2026-01-05 13:19:42.69	95.21	31.31	-42.2	-43.3	21.7	0.00e+00	29	24	101	1048576	60	7162
2026-01-05 13:19:43.70	95.57	31.29	-42.2	-43.3	21.7	0.00e+00	0	24	101	1048576	60	7154
2026-01-05 13:19:44.72	95.93	31.28	-42.5	-43.7	21.5	0.00e+00	6	24	101	1048576	60	7430
2026-01-05 13:19:45.73	96.29	31.26	-42.4	-43.5	21.6	0.00e+00	0	24	101	1048576	60	7310
2026-01-05 13:19:46.74	96.65	31.25	-42.4	-43.6	21.6	0.00e+00	6	24	101	1048576	60	7382
2026-01-05 13:19:47.75	97.01	31.23	-42.4	-43.6	21.5	0.00e+00	92	24	101	1048576	60	7376
2026-01-05 13:19:48.76	97.37	31.21	-42.4	-43.5	21.6	0.00e+00	6	24	101	1048576	60	7311
2026-01-05 13:19:49.77	97.72	31.19	-42.5	-43.6	21.4	0.00e+00	74	24	101	1048576	60	7410
2026-01-05 13:19:50.78	98.08	31.17	-42.6	-43.8	21.3	0.00e+00	76	24	101	1048576	60	7545
2026-01-05 13:19:51.79	98.44	31.15	-42.8	-44.0	21.1	0.00e+00	75	24	101	1048576	60	7769
2026-01-05 13:19:52.81	98.80	31.13	-43.3	-44.6	20.6	0.00e+00	5	24	101	1048576	60	8242
2026-01-05 13:19:53.82	99.15	31.10	-43.6	-45.0	20.3	0.00e+00	76	24	101	1048576	60	8650
2026-01-05 13:19:54.83	99.51	31.08	-43.9	-45.3	20.0	0.00e+00	92	24	101	1048576	60	8967
2026-01-05 13:19:55.84	99.86	31.05	-43.8	-45.2	19.9	0.00e+00	75	24	101	1048576	60	8920
2026-01-05 13:19:56.85	100.21	31.02	-43.6	-45.1	20.0	0.00e+00	92	24	101	1048576	60	8744
2026-01-05 13:19:57.86	100.57	30.99	-43.8	-45.2	20.2	0.00e+00	0	24	101	1048576	60	8884
2026-01-05 13:19:58.88	100.92	30.96	-43.3	-44.7	20.4	0.00e+00	0	24	101	1048576	60	8353
2026-01-05 13:19:59.89	101.27	30.93	-43.1	-44.4	20.9	0.00e+00	0	24	101	1048576	60	8102
2026-01-05 13:20:00.90	101.63	30.90	-42.9	-44.2	21.0	0.00e+00	0	24	101	1048576	60	7910
2026-01-05 13:20:01.91	101.98	30.87	-42.9	-44.1	21.1	0.00e+00	82	24	101	1048576	60	7850
2026-01-05 13:20:02.92	102.33	30.83	-43.2	-44.5	20.8	0.00e+00	0	24	101	1048576	60	8155
2026-01-05 13:20:03.93	102.67	30.80	-43.5	-44.9	20.2	0.00e+00	92	24	101	1048576	60	8573
2026-01-05 13:20:04.94	103.02	30.76	-44.0	-45.5	19.8	0.00e+00	5	24	101	1048576	60	9139
2026-01-05 13:20:05.95	103.37	30.72	-43.8	-45.2	20.0	0.00e+00	0	24	101	1048576	60	8924
2026-01-05 13:20:06.97	103.72	30.68	-43.7	-45.1	20.0	0.00e+00	0	24	101	1048576	60	8780
2026-01-05 13:20:07.97	104.06	30.64	-43.4	-44.7	20.5	0.00e+00	80	24	101	1048576	60	8395
2026-01-05 13:20:08.99	104.41	30.60	-43.2	-44.5	20.7	0.00e+00	12	24	101	1048576	60	8179
2026-01-05 13:20:10.00	104.75	30.56	-42.9	-44.2	21.0	0.00e+00	81	24	101	1048576	60	7878
2026-01-05 13:20:11.01	105.10	30.52	-42.0	-43.1	22.0	0.00e+00	91	24	101	1048576	60	6973
2026-01-05 13:20:12.02	105.44	30.47	-42.0	-43.0	22.0	0.00e+00	82	24	101	1048576	60	6925
2026-01-05 13:20:13.03	105.78	30.43	-41.7	-42.8	22.2	0.00e+00	92	24	101	1048576	60	6725
2026-01-05 13:20:14.04	106.12	30.38	-41.6	-42.6	22.5	0.00e+00	0	24	101	1048576	60	6572
2026-01-05 13:20:15.05	106.46	30.33	-41.5	-42.5	22.5	0.00e+00	77	24	101	1048576	60	6519
2026-01-05 13:20:16.06	106.80	30.29	-41.5	-42.5	22.5	0.00e+00	2	24	101	1048576	60	6491
2026-01-05 13:20:17.08	107.14	30.24	-41.6	-42.6	22.5	0.00e+00	2	24	101	1048576	60	6574
2026-01-05 13:20:18.09	107.48	30.19	-41.6	-42.7	22.4	0.00e+00	92	24	101	1048576	60	6620
2026-01-05 13:20:19.10	107.81	30.13	-41.8	-42.9	22.1	0.00e+00	0	24	101	1048576	60	6824
2026-01-05 13:20:20.11	108.15	30.08	-42.1	-43.2	21.8	0.00e+00	92	24	101	1048576	60	7088
2026-01-05 13:20:21.12	108.48	30.03	-42.6	-43.7	21.3	0.00e+00	0	24	101	1048576	60	7508
2026-01-05 13:20:22.13	108.81	29.98	-42.3	-43.5	21.6	0.00e+00	7	24	101	1048576	60	7292
2026-01-05 13:20:23.14	109.14	29.92	-42.2	-43.4	21.8	0.00e+00	0	24	101	1048576	60	7187
2026-01-05 13:20:24.15	109.47	29.86	-42.0	-43.1	22.1	0.00e+00	6	24	101	1048576	60	6934
2026-01-05 13:20:25.16	109.80	29.81	-41.7	-42.8	22.4	0.00e+00	92	24	101	1048576	60	6736
2026-01-05 13:20:26.18	110.13	29.75	-41.4	-42.4	22.7	0.00e+00	0	24	101	1048576	60	6458
2026-01-05 13:20:27.18	110.46	29.69	-41.3	-42.3	22.7	0.00e+00	92	24	101	1048576	60	6359
2026-01-05 13:20:28.19	110.78	29.63	-41.6	-42.6	22.5	0.00e+00	76	24	101	1048576	60	6595
2026-01-05 13:20:29.21	111.11	29.57	-41.5	-42.5	22.6	0.00e+00	32	24	101	1048576	60	6533
2026-01-05 13:20:30.22	111.43	29.51	-41.8	-42.8	22.3	0.00e+00	5	24	101	1048576	60	6743
2026-01-05 13:20:31.23	111.75	29.45	-41.8	-42.9	22.2	0.00e+00	0	24	101	1048576	60	6789
2026-01-05 13:20:32.24	112.07	29.38	-42.0	-43.0	22.0	0.00e+00	92	24	101	1048576	60	6917
2026-01-05 13:20:33.25	112.39	29.32	-42.4	-43.5	21.6	0.00e+00	0	24	101	1048576	60	7331
2026-01-05 13:20:34.26	112.71	29.26	-42.6	-43.7	21.3	0.00e+00	91	24	101	1048576	60	7508
2026-01-05 13:20:35.27	113.03	29.19	-42.8	-44.1	21.1	0.00e+00	3	24	101	1048576	60	7782
2026-01-05 13:20:36.29	113.35	29.12	-42.8	-44.1	21.1	0.00e+00	0	24	101	1048576	60	7799
2026-01-05 13:20:37.30	113.66	29.06	-42.7	-43.9	21.2	0.00e+00	0	24	101	1048576	60	7647
2026-01-05 13:20:38.31	113.97	28.99	-42.1	-43.2	22.0	0.00e+00	0	24	101	1048576	60	7088
2026-01-05 13:20:39.32	114.29	28.92	-41.7	-42.8	22.1	0.00e+00	4	24	101	1048576	60	6731
2026-01-05 13:20:40.33	114.60	28.85	-41.8	-42.9	22.2	0.00e+00	0	24	101	1048576	60	6777
2026-01-05 13:20:41.34	114.91	28.78	-41.8	-42.9	22.2	0.00e+00	92	24	101	1048576	60	6777
2026-01-05 13:20:42.35	115.21	28.71	-41.8	-42.9	22.1	0.00e+00	0	24	101	1048576	60	6828
2026-01-05 13:20:43.37	115.52	28.64	-42.1	-43.2	21.9	0.00e+00	0	24	101	1048576	60	7074
2026-01-05 13:20:44.38	115.83	28.57	-42.3	-43.5	21.6	0.00e+00	79	24	101	1048576	60	7272
2026-01-05 13:20:45.39	116.13	28.50	-42.6	-43.8	21.3	0.00e+00	4	24	101	1048576	60	7568
2026-01-05 13:20:46.40	116.43	28.42	-42.9	-44.1	21.0	0.00e+00	2	24	101	1048576	60	7852
2026-01-05 13:20:47.41	116.74	28.35	-43.1	-44.3	20.8	0.00e+00	4	24	101	1048576	60	8042
2026-01-05 13:20:48.42	117.03	28.27	-43.0	-44.3	20.9	0.00e+00	92	24	101	1048576	60	7996
2026-01-05 13:20:49.43	117.33	28.20	-43.0	-44.2	20.8	0.00e+00	78	24	101	1048576	60	7924
2026-01-05 13:20:50.44	117.63	28.12	-43.0	-44.3	20.9	0.00e+00	92	24	101	1048576	60	8019
2026-01-05 13:20:51.45	117.93	28.05	-43.0	-44.3	21.0	0.00e+00	0	24	101	1048576	60	8002
2026-01-05 13:20:52.46	118.22	27.97	-42.8	-44.1	21.2	0.00e+00	77	24	101	1048576	60	7801
2026-01-05 13:20:53.48	118.52	27.89	-42.9	-44.2	21.0	0.00e+00	5	24	101	1048576	60	7872
2026-01-05 13:20:54.49	118.81	27.81	-42.6	-43.8	21.4	0.00e+00	5	24	101	1048576	60	7537
2026-01-05 13:20:55.50	119.10	27.74	-42.7	-43.9	21.2	0.00e+00	92	24	101	1048576	60	7673
2026-01-05 13:20:56.51	119.39	27.66	-42.5	-43.6	21.5	0.00e+00	5	24	101	1048576	60	7421
2026-01-05 13:20:57.52	119.67	27.58	-42.5	-43.7	21.4	0.00e+00	92	24	101	1048576	60	7457
2026-01-05 13:20:58.53	119.96	27.50	-41.7	-42.8	22.2	0.00e+00	7	24	101	1048576	60	6700
2026-01-05 13:20:59.54	120.24	27.42	-41.5	-42.5	22.5	0.00e+00	3	24	101	1048576	60	6524
2026-01-05 13:21:00.55	120.53	27.33	-41.6	-42.6	22.4	0.00e+00	8	24	101	1048576	60	6585
2026-01-05 13:21:01.56	120.81	27.25	-41.0	-42.0	22.9	0.00e+00	6	24	101	1048576	60	6135
2026-01-05 13:21:02.57	121.09	27.17	-40.3	-41.2	23.6	0.00e+00	28	24	101	1048576	60	5615
2026-01-05 13:21:03.58	121.37	27.09	-40.6	-41.5	23.4	0.00e+00	4	24	101	1048576	60	5816
2026-01-05 13:21:04.60	121.65	27.00	-40.8	-41.7	23.2	0.00e+00	92	24	101	1048576	60	5959
2026-01-05 13:21:05.61	121.92	26.92	-41.0	-42.0	22.9	0.00e+00	0	24	101	1048576	60	6140
2026-01-05 13:21:06.62	122.20	26.84	-41.3	-42.3	22.7	0.00e+00	84	24	101	1048576	60	6371
2026-01-05 13:21:07.63	122.47	26.75	-41.6	-42.6	22.4	0.00e+00	86	24	101	1048576	60	6588
2026-01-05 13:21:08.64	122.74	26.67	-41.6	-42.7	22.3	0.00e+00	85	24	101	1048576	60	6632
2026-01-05 13:21:09.65	123.01	26.58	-41.8	-42.8	22.2	0.00e+00	82	24	101	1048576	60	6754
2026-01-05 13:21:10.66	123.28	26.50	-42.0	-43.1	21.9	0.00e+00	86	24	101	1048576	60	6931
2026-01-05 13:21:11.68	123.55	26.41	-41.8	-42.9	22.2	0.00e+00	90	24	101	1048576	60	6840
2026-01-05 13:21:12.69	123.82	26.32	-41.5	-42.6	22.5	0.00e+00	0	24	101	1048576	60	6552
2026-01-05 13:21:13.70	124.08	26.24	-41.1	-42.1	22.9	0.00e+00	92	24	101	1048576	60	6199
2026-01-05 13:21:14.71	124.35	26.15	-41.2	-42.2	23.0	0.00e+00	0	24	101	1048576	60	6275
2026-01-05 13:21:15.72	124.61	26.06	-40.6	-41.5	23.4	0.00e+00	7	24	101	1048576	60	5807
2026-01-05 13:21:16.73	124.87	25.97	-40.3	-41.3	23.5	0.00e+00	0	24	101	1048576	60	5647
2026-01-05 13:21:17.74	125.13	25.89	-40.7	-41.7	23.2	0.00e+00	7	24	101	1048576	60	5909
2026-01-05 13:21:18.75	125.38	25.80	-40.9	-41.8	23.1	0.00e+00	92	24	101	1048576	60	6032
2026-01-05 13:21:19.76	125.64	25.71	-40.8	-41.8	23.2	0.00e+00	3	24	101	1048576	60	6011
2026-01-05 13:21:20.77	125.90	25.62	-40.5	-41.5	23.5	0.00e+00	92	24	101	1048576	60	5780
2026-01-05 13:21:21.79	126.15	25.53	-40.5	-41.4	23.4	0.00e+00	78	24	101	1048576	60	5735
2026-01-05 13:21:22.80	126.40	25.44	-40.1	-41.0	23.7	0.00e+00	5	24	101	1048576	58	6130
2026-01-05 13:21:23.81	126.65	25.35	-40.4	-41.4	23.5	0.00e+00	78	24	101	1048576	58	6410
2026-01-05 13:21:24.82	126.90	25.26	-41.0	-42.0	23.0	0.00e+00	4	24	101	1048576	58	6852
2026-01-05 13:21:25.83	127.15	25.17	-41.9	-43.0	22.0	0.00e+00	92	24	101	1048576	60	6852
2026-01-05 13:21:26.84	127.40	25.08	-42.6	-43.9	21.3	0.00e+00	0	24	101	1048576	60	7606
2026-01-05 13:21:27.85	127.64	24.99	-42.5	-43.7	21.4	0.00e+00	92	24	101	1048576	60	7502
2026-01-05 13:21:28.86	127.89	24.90	-41.8	-42.9	22.3	0.00e+00	0	24	101	1048576	60	6798
2026-01-05 13:21:29.87	128.13	24.80	-41.2	-42.1	22.8	0.00e+00	0	24	101	1048576	60	6238
2026-01-05 13:21:30.89	128.37	24.71	-41.2	-42.2	22.8	0.00e+00	0	24	101	1048576	60	6272
2026-01-05 13:21:31.90	128.61	24.62	-41.5	-42.5	22.5	0.00e+00	0	24	101	1048576	60	6525
2026-01-05 13:21:32.91	128.85	24.53	-41.4	-42.4	22.6	0.00e+00	0	24	101	1048576	60	6400
2026-01-05 13:21:33.92	129.09	24.44	-41.8	-42.8	22.2	0.00e+00	0	24	101	1048576	60	6755
2026-01-05 13:21:34.93	129.32	24.34	-41.8	-42.9	22.1	0.00e+00	92	24	101	1048576	60	6794
2026-01-05 13:21:35.94	129.56	24.25	-41.7	-42.8	22.3	0.00e+00	0	24	101	1048576	60	6700
2026-01-05 13:21:36.95	129.79	24.16	-40.9	-41.8	23.1	0.00e+00	70	24	101	1048576	60	6021
2026-01-05 13:21:37.96	130.02	24.07	-40.6	-41.5	23.4	0.00e+00	0	24	101	1048576	60	5822
2026-01-05 13:21:38.98	130.25	23.97	-40.0	-40.8	24.0	0.00e+00	3	24	101	1048576	58	6031
2026-01-05 13:21:39.99	130.48	23.88	-39.9	-40.8	24.0	0.00e+00	0	24	101	1048576	58	5968
2026-01-05 13:21:41.00	130.71	23.79	-40.6	-41.5	23.3	0.00e+00	0	24	101	1048576	58	6524
2026-01-05 13:21:42.01	130.94	23.69	-41.1	-42.1	22.8	0.00e+00	90	24	101	1048576	58	6936
2026-01-05 13:21:43.02	131.16	23.60	-41.3	-42.3	22.7	0.00e+00	81	24	101	1048576	60	6341
2026-01-05 13:21:44.03	131.38	23.51	-41.0	-42.0	23.0	0.00e+00	92	24	101	1048576	60	6134
2026-01-05 13:21:45.04	131.61	23.41	-40.4	-41.3	23.5	0.00e+00	79	24	101	1048576	60	5674
2026-01-05 13:21:46.05	131.83	23.32	-39.9	-40.8	24.0	0.00e+00	0	24	101	1048576	58	6007
2026-01-05 13:21:47.06	132.05	23.22	-40.0	-40.9	23.9	0.00e+00	0	24	101	1048576	58	6048
2026-01-05 13:21:48.08	132.27	23.13	-40.1	-41.1	23.6	0.00e+00	0	24	101	1048576	58	6178
2026-01-05 13:21:49.09	132.48	23.04	-40.8	-41.7	23.1	0.00e+00	92	24	101	1048576	58	6686
2026-01-05 13:21:50.10	132.70	22.94	-41.3	-42.4	22.6	0.00e+00	0	24	101	1048576	60	6399
2026-01-05 13:21:51.11	132.91	22.85	-41.4	-42.5	22.5	0.00e+00	92	24	101	1048576	60	6465
2026-01-05 13:21:52.12	133.13	22.75	-41.1	-42.1	22.9	0.00e+00	0	24	101	1048576	60	6243
2026-01-05 13:21:53.13	133.34	22.66	-40.8	-41.8	23.2	0.00e+00	3	24	101	1048576	60	6002
2026-01-05 13:21:54.14	133.55	22.56	-40.3	-41.3	23.7	0.00e+00	0	24	101	1048576	60	5631
2026-01-05 13:21:55.15	133.76	22.47	-40.1	-41.0	23.8	0.00e+00	0	24	101	1048576	58	6159
2026-01-05 13:21:56.16	133.97	22.38	-40.0	-40.9	23.8	0.00e+00	20	24	101	1048576	58	6064
2026-01-05 13:21:57.18	134.18	22.28	-40.2	-41.1	23.7	0.00e+00	78	24	101	1048576	58	6216
2026-01-05 13:21:58.19	134.38	22.19	-40.3	-41.2	23.6	0.00e+00	92	24	101	1048576	58	6292
2026-01-05 13:21:59.20	134.59	22.09	-40.4	-41.4	23.3	0.00e+00	77	24	101	1048576	58	6397
2026-01-05 13:22:00.21	134.79	22.00	-40.6	-41.6	23.3	0.00e+00	90	24	101	1048576	58	6543
2026-01-05 13:22:01.22	134.99	21.90	-40.4	-41.4	23.5	0.00e+00	3	24	101	1048576	58	6407
2026-01-05 13:22:02.23	135.20	21.81	-40.4	-41.4	23.6	0.00e+00	0	24	101	1048576	58	6403
2026-01-05 13:22:03.24	135.40	21.71	-39.7	-40.6	24.1	0.00e+00	4	24	101	1048576	58	5836
2026-01-05 13:22:04.25	135.59	21.62	-39.6	-40.4	24.2	0.00e+00	78	24	101	1048576	58	5755
2026-01-05 13:22:05.26	135.79	21.52	-39.9	-40.7	24.0	0.00e+00	92	24	101	1048576	58	5957
2026-01-05 13:22:06.27	135.99	21.43	-40.2	-41.1	23.8	0.00e+00	0	24	101	1048576	58	6181
2026-01-05 13:22:07.28	136.18	21.34	-40.3	-41.3	23.6	0.00e+00	92	24	101	1048576	58	6337
2026-01-05 13:22:08.30	136.38	21.24	-40.3	-41.2	23.7	0.00e+00	0	24	101	1048576	58	6276
2026-01-05 13:22:09.31	136.57	21.15	-40.2	-41.2	23.7	0.00e+00	2	24	101	1048576	58	6254
2026-01-05 13:22:10.32	136.76	21.05	-40.0	-40.9	23.9	0.00e+00	0	24	101	1048576	58	6067
2026-01-05 13:22:11.33	136.95	20.96	-39.6	-40.5	24.2	0.00e+00	0	24	101	1048576	58	5790
2026-01-05 13:22:12.34	137.14	20.86	-39.5	-40.3	24.4	0.00e+00	92	24	101	1048576	58	5667
2026-01-05 13:22:13.35	137.33	20.77	-39.2	-40.0	24.5	0.00e+00	0	24	101	1048576	58	5496
2026-01-05 13:22:14.36	137.52	20.68	-39.1	-40.0	24.6	0.00e+00	91	24	101	1048576	56	6122
2026-01-05 13:22:15.38	137.71	20.58	-39.3	-40.1	24.4	0.00e+00	2	24	101	1048576	56	6220
2026-01-05 13:22:16.39	137.89	20.49	-39.3	-40.2	24.0	0.00e+00	80	24	101	1048576	56	6251
2026-01-05 13:22:17.40	138.08	20.39	-39.3	-40.1	24.2	0.00e+00	80	24	101	1048576	56	6238
2026-01-05 13:22:18.41	138.26	20.30	-39.3	-40.1	24.5	0.00e+00	0	24	101	1048576	56	6236
2026-01-05 13:22:19.42	138.44	20.20	-39.3	-40.1	24.6	0.00e+00	92	24	101	1048576	56	6217
2026-01-05 13:22:20.43	138.62	20.11	-39.3	-40.1	24.2	0.00e+00	0	24	101	1048576	56	6209
2026-01-05 13:22:21.44	138.80	20.02	-39.3	-40.2	24.5	0.00e+00	92	24	101	1048576	56	6251
2026-01-05 13:22:22.45	138.98	19.92	-39.2	-40.0	24.4	0.00e+00	0	24	101	1048576	56	6139
2026-01-05 13:22:23.46	139.16	19.83	-39.0	-39.8	24.7	0.00e+00	91	24	101	1048576	56	6030
2026-01-05 13:22:24.47	139.33	19.74	-38.8	-39.6	24.9	0.00e+00	5	24	101	1048576	56	5883
2026-01-05 13:22:25.48	139.51	19.64	-38.9	-39.7	24.8	0.00e+00	1	24	101	1048576	56	5907
2026-01-05 13:22:26.49	139.68	19.55	-38.9	-39.8	24.8	0.00e+00	0	24	101	1048576	56	5968
2026-01-05 13:22:27.51	139.86	19.46	-39.1	-40.0	24.7	0.00e+00	6	24	101	1048576	56	6114
2026-01-05 13:22:28.52	140.03	19.36	-39.1	-39.9	24.6	0.00e+00	92	24	101	1048576	56	6053
2026-01-05 13:22:29.53	140.20	19.27	-39.1	-39.9	24.7	0.00e+00	5	24	101	1048576	56	6075
2026-01-05 13:22:30.54	140.37	19.18	-39.2	-40.0	24.6	0.00e+00	90	24	101	1048576	56	6130
2026-01-05 13:22:31.55	140.54	19.08	-39.1	-39.9	24.6	0.00e+00	1	24	101	1048576	56	6084
2026-01-05 13:22:32.56	140.71	18.99	-39.0	-39.8	24.7	0.00e+00	5	24	101	1048576	56	6021
2026-01-05 13:22:33.57	140.88	18.90	-38.9	-39.7	24.8	0.00e+00	0	24	101	1048576	56	5950
2026-01-05 13:22:34.58	141.04	18.81	-38.9	-39.7	24.8	0.00e+00	83	24	101	1048576	56	5954
2026-01-05 13:22:35.60	141.21	18.71	-38.9	-39.8	24.8	0.00e+00	90	24	101	1048576	56	5969
2026-01-05 13:22:36.61	141.37	18.62	-38.9	-39.7	24.8	0.00e+00	0	24	101	1048576	56	5910
2026-01-05 13:22:37.62	141.54	18.53	-39.0	-39.8	24.8	0.00e+00	92	24	101	1048576	56	5986
2026-01-05 13:22:38.63	141.70	18.44	-39.1	-39.9	24.6	0.00e+00	0	24	101	1048576	56	6099
2026-01-05 13:22:39.64	141.86	18.34	-39.2	-40.0	24.5	0.00e+00	92	24	101	1048576	56	6155
2026-01-05 13:22:40.65	142.02	18.25	-39.5	-40.4	24.2	0.00e+00	85	24	101	1048576	56	6393
2026-01-05 13:22:41.66	142.18	18.16	-39.6	-40.4	24.2	0.00e+00	0	24	101	1048576	56	6442
2026-01-05 13:22:42.67	142.34	18.07	-39.7	-40.5	24.2	0.00e+00	92	24	101	1048576	56	6517
2026-01-05 13:22:43.69	142.50	17.98	-39.7	-40.6	24.1	0.00e+00	0	24	101	1048576	56	6579
2026-01-05 13:22:44.70	142.66	17.89	-39.9	-40.8	23.9	0.00e+00	92	24	101	1048576	56	6758
2026-01-05 13:22:45.71	142.81	17.80	-39.9	-40.8	23.9	0.00e+00	8	24	101	1048576	56	6765
2026-01-05 13:22:46.72	142.97	17.70	-39.9	-40.7	23.9	0.00e+00	92	24	101	1048576	56	6691
2026-01-05 13:22:47.73	143.12	17.61	-39.8	-40.7	24.0	0.00e+00	7	24	101	1048576	56	6648
2026-01-05 13:22:48.74	143.27	17.52	-39.6	-40.5	24.1	0.00e+00	2	24	101	1048576	56	6504
2026-01-05 13:22:49.75	143.43	17.43	-39.7	-40.6	24.1	0.00e+00	0	24	101	1048576	56	6552
2026-01-05 13:22:50.76	143.58	17.34	-39.7	-40.6	24.1	0.00e+00	2	24	101	1048576	56	6589
2026-01-05 13:22:51.77	143.73	17.25	-39.7	-40.6	24.0	0.00e+00	92	24	101	1048576	56	6596
2026-01-05 13:22:52.78	143.88	17.16	-39.9	-40.8	23.9	0.00e+00	79	24	101	1048576	56	6738
2026-01-05 13:22:53.80	144.03	17.07	-39.9	-40.8	23.9	0.00e+00	92	24	101	1048576	56	6727
2026-01-05 13:22:54.81	144.18	16.98	-39.9	-40.8	23.8	0.00e+00	2	24	101	1048576	56	6728
2026-01-05 13:22:55.82	144.32	16.89	-40.1	-41.0	23.7	0.00e+00	1	24	101	1048576	56	6886
2026-01-05 13:22:56.83	144.47	16.80	-40.0	-40.9	23.7	0.00e+00	0	24	101	1048576	58	6068
2026-01-05 13:22:57.84	144.62	16.71	-40.0	-40.9	23.6	0.00e+00	0	24	101	1048576	58	6048
2026-01-05 13:22:58.85	144.76	16.62	-40.1	-41.0	23.6	0.00e+00	92	24	101	1048576	58	6165
2026-01-05 13:22:59.86	144.90	16.53	-40.0	-40.9	23.7	0.00e+00	82	24	101	1048576	58	6083
2026-01-05 13:23:00.87	145.05	16.45	-40.1	-41.0	23.5	0.00e+00	92	24	101	1048576	58	6159
2026-01-05 13:23:01.88	145.19	16.36	-40.4	-41.4	23.4	0.00e+00	0	24	101	1048576	58	6416
2026-01-05 13:23:02.90	145.33	16.27	-40.5	-41.5	23.1	0.00e+00	0	24	101	1048576	58	6507
2026-01-05 13:23:03.91	145.47	16.18	-40.5	-41.4	23.3	0.00e+00	0	24	101	1048576	58	6431
2026-01-05 13:23:04.92	145.61	16.09	-40.7	-41.7	23.0	0.00e+00	0	24	101	1048576	58	6637
2026-01-05 13:23:05.93	145.75	16.00	-40.7	-41.7	23.0	0.00e+00	92	24	101	1048576	58	6632
2026-01-05 13:23:06.94	145.89	15.91	-40.8	-41.8	23.0	0.00e+00	0	24	101	1048576	58	6717
2026-01-05 13:23:07.95	146.03	15.83	-41.0	-42.0	22.7	0.00e+00	91	24	101	1048576	58	6869
2026-01-05 13:23:08.96	146.16	15.74	-41.1	-42.2	22.7	0.00e+00	0	24	101	1048576	60	6253
2026-01-05 13:23:09.97	146.30	15.65	-41.3	-42.4	22.6	0.00e+00	0	24	101	1048576	60	6391
2026-01-05 13:23:10.98	146.43	15.56	-41.3	-42.3	22.5	0.00e+00	80	24	101	1048576	60	6365
2026-01-05 13:23:12.00	146.57	15.48	-41.1	-42.2	22.7	0.00e+00	81	24	101	1048576	60	6248
2026-01-05 13:23:13.01	146.70	15.39	-41.3	-42.3	22.6	0.00e+00	85	24	101	1048576	60	6358
2026-01-05 13:23:14.02	146.84	15.30	-41.2	-42.2	22.6	0.00e+00	80	24	101	1048576	60	6305
2026-01-05 13:23:15.03	146.97	15.22	-41.3	-42.4	22.5	0.00e+00	92	24	101	1048576	60	6394
2026-01-05 13:23:16.04	147.10	15.13	-41.1	-42.1	22.7	0.00e+00	80	24	101	1048576	60	6204
2026-01-05 13:23:17.05	147.23	15.04	-40.9	-41.9	22.9	0.00e+00	92	24	101	1048576	60	6052
2026-01-05 13:23:18.07	147.36	14.96	-40.7	-41.6	23.2	0.00e+00	0	24	101	1048576	60	5879
2026-01-05 13:23:19.08	147.49	14.87	-40.7	-41.7	23.1	0.00e+00	0	24	101	1048576	60	5910
2026-01-05 13:23:20.09	147.62	14.78	-40.3	-41.3	23.5	0.00e+00	6	24	101	1048576	60	5632
2026-01-05 13:23:21.10	147.75	14.70	-40.4	-41.4	23.4	0.00e+00	2	24	101	1048576	60	5702
2026-01-05 13:23:22.11	147.87	14.61	-40.3	-41.2	23.4	0.00e+00	92	24	101	1048576	60	5628
2026-01-05 13:23:23.12	148.00	14.53	-40.4	-41.4	23.3	0.00e+00	0	24	101	1048576	60	5717
2026-01-05 13:23:24.13	148.13	14.44	-40.6	-41.6	23.1	0.00e+00	92	24	101	1048576	60	5864
2026-01-05 13:23:25.14	148.25	14.36	-40.8	-41.8	22.9	0.00e+00	0	24	101	1048576	60	5982
2026-01-05 13:23:26.15	148.37	14.27	-41.3	-42.3	22.5	0.00e+00	0	24	101	1048576	60	6363
2026-01-05 13:23:27.16	148.50	14.19	-41.3	-42.4	22.5	0.00e+00	0	24	101	1048576	60	6396
2026-01-05 13:23:28.17	148.62	14.11	-41.1	-42.1	22.6	0.00e+00	80	24	101	1048576	60	6193
2026-01-05 13:23:29.19	148.74	14.02	-41.3	-42.3	22.4	0.00e+00	90	24	101	1048576	60	6367
2026-01-05 13:23:30.20	148.87	13.94	-41.3	-42.3	22.5	0.00e+00	0	24	101	1048576	60	6366
2026-01-05 13:23:31.21	148.99	13.85	-41.2	-42.3	22.4	0.00e+00	92	24	101	1048576	60	6354
2026-01-05 13:23:32.22	149.11	13.77	-41.1	-42.1	22.6	0.00e+00	81	24	101	1048576	60	6197
2026-01-05 13:23:33.23	149.23	13.68	-41.0	-42.0	22.6	0.00e+00	0	24	101	1048576	60	6172
2026-01-05 13:23:34.24	149.35	13.60	-41.0	-42.0	22.7	0.00e+00	81	24	101	1048576	60	6163
2026-01-05 13:23:35.25	149.46	13.52	-40.6	-41.6	23.2	0.00e+00	81	24	101	1048576	60	5840
2026-01-05 13:23:36.26	149.58	13.44	-40.3	-41.2	23.4	0.00e+00	87	24	101	1048576	60	5629
2026-01-05 13:23:37.27	149.70	13.35	-40.3	-41.2	23.5	0.00e+00	2	24	101	1048576	60	5620
2026-01-05 13:23:38.28	149.82	13.27	-40.4	-41.3	23.3	0.00e+00	92	24	101	1048576	60	5690
2026-01-05 13:23:39.30	149.93	13.19	-40.4	-41.4	23.4	0.00e+00	0	24	101	1048576	60	5696
2026-01-05 13:23:40.31	150.05	13.10	-40.5	-41.4	23.2	0.00e+00	90	24	101	1048576	60	5739
2026-01-05 13:23:41.32	150.16	13.02	-40.5	-41.4	23.2	0.00e+00	0	24	101	1048576	60	5757
2026-01-05 13:23:42.33	150.28	12.94	-40.6	-41.6	23.0	0.00e+00	0	24	101	1048576	60	5875
2026-01-05 13:23:43.34	150.39	12.86	-40.8	-41.8	22.9	0.00e+00	0	24	101	1048576	60	6027
2026-01-05 13:23:44.35	150.50	12.78	-41.0	-42.0	22.6	0.00e+00	0	24	101	1048576	60	6157
2026-01-05 13:23:45.36	150.61	12.70	-41.2	-42.3	22.4	0.00e+00	92	24	101	1048576	60	6327
