passes_logs/2026/01/05/R4.6S_Anadyr_2ch/R4.6S_Anadyr_2ch__20260105_210912_SUOMI_NPP_rec.log

#Pass ID: 20260105_210912_SUOMI NPP
#Satellite: SUOMI NPP
#Configuration: NPP
#almurnet v.1.7.20251203
#Start time: 2026-01-05 21:09:13

#Version: 2.2.20231116
#Station: R4.6S_Anadyr_2ch
#Location: 177.4865 lon 64.73178 lat
#TLE: 1 37849U 11061A   25350.92281687  .00000071  00000+0  54882-4 0  9996
#TLE: 2 37849  98.7777 288.2268 0002366 112.8570 247.2856 14.19515404732588

#Time	Az	El	Level	Level2	SNR	BER	BlckErr	Temp	State	Recorded	gain1	gain2
2026-01-05 21:09:13.28	82.92	0.06	-50.7	-61.7	3.4	8.45e-01	0	29	0	0	60	59674
2026-01-05 21:09:14.29	82.85	0.11	-51.2	-66.5	3.6	1.51e+00	0	30	104	0	60	102919
2026-01-05 21:09:15.30	82.79	0.16	-51.1	-66.4	3.6	1.51e+00	0	30	104	0	60	102390
2026-01-05 21:09:16.31	82.72	0.21	-51.1	-66.5	3.6	1.51e+00	0	30	104	0	60	102736
2026-01-05 21:09:17.32	82.65	0.26	-51.1	-66.5	3.6	1.51e+00	0	30	104	0	60	103225
2026-01-05 21:09:18.33	82.59	0.32	-51.2	-66.5	3.6	1.51e+00	0	30	104	0	60	103592
2026-01-05 21:09:19.34	82.52	0.37	-51.2	-66.5	3.6	1.51e+00	0	30	104	0	60	103388
2026-01-05 21:09:20.35	82.45	0.42	-51.2	-66.5	3.6	1.51e+00	0	30	104	0	60	103100
2026-01-05 21:09:21.37	82.38	0.47	-51.2	-66.6	3.6	1.51e+00	0	30	104	0	60	103736
2026-01-05 21:09:22.38	82.31	0.53	-51.2	-66.6	3.6	1.51e+00	0	30	104	0	60	103923
2026-01-05 21:09:23.39	82.25	0.58	-51.2	-66.5	3.6	1.51e+00	0	30	104	0	60	103410
2026-01-05 21:09:24.40	82.18	0.63	-51.1	-66.5	3.6	1.51e+00	0	30	104	0	60	102825
2026-01-05 21:09:25.41	82.11	0.68	-50.8	-66.4	3.6	1.51e+00	0	30	104	0	60	101977
2026-01-05 21:09:26.42	82.04	0.74	-51.0	-66.3	3.6	1.51e+00	0	30	104	0	60	101064
2026-01-05 21:09:27.43	81.97	0.79	-50.8	-66.1	3.6	1.51e+00	0	30	104	0	60	98818
2026-01-05 21:09:28.44	81.90	0.84	-50.4	-65.9	3.6	1.51e+00	0	31	104	0	60	95828
2026-01-05 21:09:29.45	81.83	0.90	-49.8	-65.1	3.6	1.51e+00	0	31	104	0	60	88136
2026-01-05 21:09:30.46	81.76	0.95	-49.6	-65.0	3.6	1.51e+00	0	31	104	0	60	87142
2026-01-05 21:09:31.48	81.69	1.00	-49.6	-65.0	3.6	1.51e+00	0	31	104	0	60	86939
2026-01-05 21:09:32.49	81.62	1.06	-49.6	-64.9	3.6	1.51e+00	0	31	104	0	60	86097
2026-01-05 21:09:33.50	81.55	1.11	-49.6	-65.0	3.6	1.51e+00	0	31	104	0	60	86952
2026-01-05 21:09:34.51	81.47	1.16	-49.6	-65.0	3.6	1.51e+00	0	31	104	0	60	86720
2026-01-05 21:09:35.52	81.40	1.22	-49.5	-65.0	3.6	1.51e+00	0	31	104	0	60	86447
2026-01-05 21:09:36.53	81.33	1.27	-49.6	-65.0	3.6	1.51e+00	0	31	104	0	60	86757
2026-01-05 21:09:37.54	81.26	1.32	-49.6	-65.0	3.6	1.51e+00	0	31	104	0	60	86539
2026-01-05 21:09:38.56	81.19	1.38	-49.6	-65.0	3.6	1.51e+00	0	31	104	0	60	86390
2026-01-05 21:09:39.57	81.11	1.43	-49.6	-65.0	3.6	1.51e+00	0	31	104	0	60	86570
2026-01-05 21:09:40.58	81.04	1.48	-49.5	-64.9	3.6	1.51e+00	0	31	104	0	60	85789
2026-01-05 21:09:41.59	80.97	1.54	-49.6	-64.9	3.6	1.51e+00	0	31	104	0	60	85978
2026-01-05 21:09:42.60	80.89	1.59	-49.5	-64.9	3.6	1.51e+00	0	31	104	0	60	86004
2026-01-05 21:09:43.61	80.82	1.64	-49.5	-65.0	3.6	1.51e+00	0	31	104	0	60	86240
2026-01-05 21:09:44.62	80.74	1.70	-49.5	-65.0	3.6	1.51e+00	0	31	104	0	60	86443
2026-01-05 21:09:45.63	80.67	1.75	-49.5	-64.9	3.6	1.51e+00	0	31	104	0	60	85955
2026-01-05 21:09:46.64	80.60	1.81	-49.5	-65.0	3.6	1.51e+00	0	31	104	0	60	86354
2026-01-05 21:09:47.66	80.52	1.86	-49.5	-64.9	3.6	1.51e+00	0	31	104	0	60	85856
2026-01-05 21:09:48.67	80.44	1.91	-49.5	-64.9	3.6	1.51e+00	0	31	104	0	60	85697
2026-01-05 21:09:49.68	80.37	1.97	-49.5	-64.9	3.6	1.51e+00	0	31	104	0	60	85492
2026-01-05 21:09:50.69	80.29	2.02	-49.5	-64.8	3.6	1.51e+00	0	31	104	0	60	84417
2026-01-05 21:09:51.70	80.22	2.08	-49.5	-64.8	3.6	1.51e+00	0	31	104	0	60	84506
2026-01-05 21:09:52.71	80.14	2.13	-49.5	-64.7	3.6	1.51e+00	0	31	104	0	60	83780
2026-01-05 21:09:53.72	80.06	2.19	-49.5	-64.6	3.6	1.51e+00	0	31	104	0	60	83186
2026-01-05 21:09:54.73	79.99	2.24	-49.5	-64.9	3.6	1.51e+00	0	31	104	0	60	85373
2026-01-05 21:09:55.74	79.91	2.29	-49.5	-65.0	3.5	1.51e+00	0	31	104	0	60	86520
2026-01-05 21:09:56.76	79.83	2.35	-49.5	-64.9	3.6	1.51e+00	0	31	104	0	60	85703
2026-01-05 21:09:57.77	79.75	2.40	-49.5	-64.9	3.6	1.51e+00	0	31	104	0	60	85649
2026-01-05 21:09:58.78	79.68	2.46	-49.5	-64.9	3.6	1.51e+00	0	31	104	0	60	85229
2026-01-05 21:09:59.79	79.60	2.51	-49.5	-64.9	3.6	1.51e+00	0	31	104	0	60	85896
2026-01-05 21:10:00.80	79.52	2.57	-49.5	-65.0	3.6	1.51e+00	0	31	104	0	60	86482
2026-01-05 21:10:01.80	79.44	2.62	-49.5	-64.7	3.6	1.51e+00	0	31	104	0	60	83684
2026-01-05 21:10:02.82	79.36	2.68	-49.4	-64.0	3.6	1.51e+00	0	31	104	0	60	77719
2026-01-05 21:10:03.83	79.28	2.73	-49.4	-63.8	3.6	1.51e+00	0	31	104	0	60	75100
2026-01-05 21:10:04.84	79.20	2.79	-49.5	-64.2	3.6	1.51e+00	0	31	104	0	60	78803
2026-01-05 21:10:05.85	79.12	2.84	-49.5	-64.7	3.6	1.51e+00	0	31	104	0	60	83444
2026-01-05 21:10:06.86	79.04	2.90	-49.4	-62.9	3.6	1.51e+00	0	31	104	0	60	68187
2026-01-05 21:10:07.87	78.96	2.95	-49.1	-59.4	5.1	1.49e+00	0	31	104	0	60	45363
2026-01-05 21:10:08.88	78.88	3.01	-48.7	-55.8	7.4	1.76e-01	73	31	0	0	60	30212
2026-01-05 21:10:09.90	78.79	3.06	-48.1	-53.4	10.0	2.85e-02	65	31	102	1048576	60	22811
2026-01-05 21:10:10.91	78.71	3.12	-49.9	-65.2	3.6	5.06e-01	0	31	104	1048576	60	88616
2026-01-05 21:10:11.92	78.63	3.17	-48.5	-54.7	5.6	1.50e+00	0	31	104	1048576	60	26441
2026-01-05 21:10:12.93	78.55	3.23	-49.5	-64.5	3.6	1.17e+00	0	31	104	1048576	60	81407
2026-01-05 21:10:13.94	78.47	3.28	-49.8	-65.0	3.6	1.51e+00	0	31	104	1048576	60	86368
2026-01-05 21:10:14.95	78.38	3.34	-44.9	-47.1	16.7	0.00e+00	0	31	0	1048576	60	11062
2026-01-05 21:10:15.96	78.30	3.39	-45.3	-47.6	16.4	0.00e+00	87	31	0	1048576	60	11637
2026-01-05 21:10:16.97	78.21	3.45	-44.5	-46.4	17.7	0.00e+00	0	31	0	1048576	60	10203
2026-01-05 21:10:17.98	78.13	3.51	-44.0	-45.8	18.2	0.00e+00	92	31	0	1048576	60	9466
2026-01-05 21:10:18.99	78.05	3.56	-43.9	-45.7	18.3	0.00e+00	92	31	0	1048576	60	9371
2026-01-05 21:10:20.00	77.96	3.62	-44.1	-45.9	18.3	0.00e+00	0	31	0	1048576	60	9613
2026-01-05 21:10:21.01	77.88	3.67	-43.4	-45.1	19.1	0.00e+00	44	31	0	1048576	60	8728
2026-01-05 21:10:22.02	77.79	3.73	-43.7	-45.4	18.6	0.00e+00	0	31	0	1048576	60	9115
2026-01-05 21:10:23.04	77.70	3.79	-43.6	-45.2	18.9	0.00e+00	54	31	0	1048576	60	8884
2026-01-05 21:10:24.05	77.62	3.84	-43.8	-45.5	18.6	0.00e+00	0	31	0	1048576	60	9215
2026-01-05 21:10:25.06	77.53	3.90	-43.8	-45.4	18.6	0.00e+00	92	31	0	1048576	60	9129
2026-01-05 21:10:26.07	77.44	3.95	-43.4	-45.0	18.9	0.00e+00	92	31	0	1048576	60	8656
2026-01-05 21:10:27.08	77.36	4.01	-43.2	-44.7	19.3	0.00e+00	0	31	0	1048576	60	8359
2026-01-05 21:10:28.09	77.27	4.07	-43.1	-44.6	19.4	0.00e+00	78	31	0	1048576	60	8303
2026-01-05 21:10:29.10	77.18	4.12	-43.7	-45.4	18.9	0.00e+00	0	31	0	1048576	60	9050
2026-01-05 21:10:30.11	77.09	4.18	-43.3	-44.8	19.2	0.00e+00	90	31	0	1048576	60	8517
2026-01-05 21:10:31.12	77.00	4.23	-43.3	-44.8	19.3	0.00e+00	0	31	0	1048576	60	8459
2026-01-05 21:10:32.14	76.91	4.29	-43.1	-44.6	19.4	0.00e+00	92	31	0	1048576	60	8304
2026-01-05 21:10:33.15	76.83	4.35	-43.5	-45.1	19.0	0.00e+00	92	31	101	1048576	60	8778
2026-01-05 21:10:34.16	76.74	4.40	-43.6	-45.2	19.0	0.00e+00	0	31	101	1048576	60	8838
2026-01-05 21:10:35.17	76.65	4.46	-43.1	-44.6	19.4	0.00e+00	92	31	101	1048576	60	8299
2026-01-05 21:10:36.18	76.56	4.52	-43.6	-45.2	19.0	0.00e+00	0	31	101	1048576	60	8874
2026-01-05 21:10:37.19	76.46	4.57	-43.2	-44.8	19.5	0.00e+00	92	31	101	1048576	60	8425
2026-01-05 21:10:38.20	76.37	4.63	-43.5	-45.0	19.1	0.00e+00	0	31	101	1048576	60	8701
2026-01-05 21:10:39.21	76.28	4.69	-43.3	-44.8	19.3	0.00e+00	92	31	101	1048576	60	8507
2026-01-05 21:10:40.23	76.19	4.74	-43.6	-45.1	19.2	0.00e+00	67	31	101	1048576	60	8784
2026-01-05 21:10:41.24	76.10	4.80	-43.6	-45.2	18.9	0.00e+00	82	31	101	1048576	60	8875
2026-01-05 21:10:42.25	76.00	4.86	-44.0	-45.7	18.5	0.00e+00	92	31	101	1048576	60	9370
2026-01-05 21:10:43.26	75.91	4.92	-43.9	-45.6	18.6	0.00e+00	0	31	101	1048576	60	9313
2026-01-05 21:10:44.27	75.82	4.97	-43.8	-45.5	18.7	0.00e+00	70	31	101	1048576	60	9175
2026-01-05 21:10:45.28	75.72	5.03	-43.9	-45.6	18.8	0.00e+00	0	31	101	1048576	60	9239
2026-01-05 21:10:46.29	75.63	5.09	-44.0	-45.7	18.5	0.00e+00	90	31	101	1048576	60	9430
2026-01-05 21:10:47.31	75.53	5.14	-44.0	-45.7	18.6	0.00e+00	71	31	101	1048576	60	9391
2026-01-05 21:10:48.32	75.44	5.20	-43.6	-45.2	19.0	0.00e+00	26	31	101	1048576	60	8833
2026-01-05 21:10:49.33	75.34	5.26	-43.4	-45.0	19.3	0.00e+00	92	31	101	1048576	60	8648
2026-01-05 21:10:50.34	75.25	5.32	-43.9	-45.6	18.8	0.00e+00	0	31	101	1048576	60	9312
2026-01-05 21:10:51.35	75.15	5.37	-43.6	-45.2	19.1	0.00e+00	70	31	101	1048576	60	8828
2026-01-05 21:10:52.36	75.06	5.43	-43.6	-45.2	19.1	0.00e+00	0	31	101	1048576	60	8835
2026-01-05 21:10:53.37	74.96	5.49	-43.6	-45.1	19.2	0.00e+00	92	31	101	1048576	60	8800
2026-01-05 21:10:54.38	74.86	5.55	-43.7	-45.2	19.1	0.00e+00	0	31	101	1048576	60	8917
2026-01-05 21:10:55.39	74.77	5.60	-43.7	-45.3	19.1	0.00e+00	25	31	101	1048576	60	8960
2026-01-05 21:10:56.40	74.67	5.66	-43.6	-45.2	19.2	0.00e+00	92	31	101	1048576	60	8838
2026-01-05 21:10:57.42	74.57	5.72	-43.5	-45.0	19.4	0.00e+00	0	31	101	1048576	60	8636
2026-01-05 21:10:58.42	74.47	5.78	-43.5	-45.1	19.3	0.00e+00	64	31	101	1048576	60	8722
2026-01-05 21:10:59.44	74.37	5.83	-43.2	-44.6	19.7	0.00e+00	0	31	101	1048576	60	8257
2026-01-05 21:11:00.45	74.27	5.89	-43.6	-45.1	19.4	0.00e+00	92	31	101	1048576	60	8793
2026-01-05 21:11:01.46	74.17	5.95	-43.2	-44.7	19.6	0.00e+00	0	31	101	1048576	60	8360
2026-01-05 21:11:02.47	74.07	6.01	-43.3	-44.7	19.6	0.00e+00	92	31	101	1048576	60	8402
2026-01-05 21:11:03.48	73.97	6.07	-43.3	-44.8	19.4	0.00e+00	64	31	101	1048576	60	8478
2026-01-05 21:11:04.49	73.87	6.12	-43.3	-44.8	19.6	0.00e+00	0	31	101	1048576	60	8432
2026-01-05 21:11:05.50	73.77	6.18	-43.2	-44.6	19.7	0.00e+00	39	31	101	1048576	60	8281
2026-01-05 21:11:06.52	73.66	6.24	-43.2	-44.7	19.7	0.00e+00	0	31	101	1048576	60	8343
2026-01-05 21:11:07.53	73.56	6.30	-43.3	-44.8	19.5	0.00e+00	80	31	101	1048576	60	8437
2026-01-05 21:11:08.54	73.46	6.36	-43.3	-44.8	19.6	0.00e+00	0	31	101	1048576	60	8472
2026-01-05 21:11:09.55	73.35	6.41	-43.3	-44.8	19.5	0.00e+00	92	31	101	1048576	60	8486
2026-01-05 21:11:10.56	73.25	6.47	-43.5	-45.0	19.4	0.00e+00	64	31	101	1048576	60	8633
2026-01-05 21:11:11.57	73.15	6.53	-43.9	-45.5	18.9	0.00e+00	0	31	101	1048576	60	9188
2026-01-05 21:11:12.58	73.04	6.59	-43.7	-45.3	19.2	0.00e+00	92	31	101	1048576	60	8996
2026-01-05 21:11:13.59	72.94	6.65	-43.9	-45.5	19.2	0.00e+00	0	31	101	1048576	60	9174
2026-01-05 21:11:14.61	72.83	6.71	-43.9	-45.6	18.8	0.00e+00	90	31	101	1048576	60	9239
2026-01-05 21:11:15.62	72.72	6.76	-43.8	-45.4	19.1	0.00e+00	0	31	101	1048576	60	9082
2026-01-05 21:11:16.63	72.62	6.82	-43.7	-45.3	19.2	0.00e+00	92	31	101	1048576	60	8940
2026-01-05 21:11:17.64	72.51	6.88	-43.6	-45.1	19.3	0.00e+00	0	31	101	1048576	60	8809
2026-01-05 21:11:18.65	72.40	6.94	-43.4	-44.9	19.2	0.00e+00	0	31	101	1048576	60	8544
2026-01-05 21:11:19.66	72.30	7.00	-43.4	-44.9	19.4	0.00e+00	59	31	101	1048576	60	8600
2026-01-05 21:11:20.67	72.19	7.06	-43.5	-45.0	19.5	0.00e+00	0	31	101	1048576	60	8645
2026-01-05 21:11:21.69	72.08	7.12	-43.4	-45.0	19.6	0.00e+00	92	31	101	1048576	60	8623
2026-01-05 21:11:22.70	71.97	7.17	-43.6	-45.1	19.3	0.00e+00	0	31	101	1048576	60	8808
2026-01-05 21:11:23.71	71.86	7.23	-43.5	-45.0	19.5	0.00e+00	92	31	101	1048576	60	8697
2026-01-05 21:11:24.72	71.75	7.29	-43.5	-45.0	19.5	0.00e+00	66	31	101	1048576	60	8656
2026-01-05 21:11:25.73	71.64	7.35	-43.5	-45.0	19.5	0.00e+00	0	31	101	1048576	60	8680
2026-01-05 21:11:26.74	71.53	7.41	-43.1	-44.6	20.0	0.00e+00	92	31	101	1048576	60	8239
2026-01-05 21:11:27.75	71.42	7.47	-43.2	-44.6	19.8	0.00e+00	0	31	101	1048576	60	8328
2026-01-05 21:11:28.76	71.31	7.53	-43.1	-44.5	20.1	0.00e+00	68	31	101	1048576	60	8143
2026-01-05 21:11:29.78	71.19	7.59	-42.9	-44.3	20.1	0.00e+00	0	31	101	1048576	60	7986
2026-01-05 21:11:30.79	71.08	7.65	-43.0	-44.4	20.0	0.00e+00	92	31	101	1048576	60	8105
2026-01-05 21:11:31.80	70.97	7.70	-43.1	-44.6	19.9	0.00e+00	70	31	101	1048576	60	8251
2026-01-05 21:11:32.81	70.85	7.76	-43.2	-44.7	19.7	0.00e+00	0	31	101	1048576	60	8349
2026-01-05 21:11:33.82	70.74	7.82	-43.2	-44.6	19.8	0.00e+00	91	31	101	1048576	60	8307
2026-01-05 21:11:34.83	70.62	7.88	-43.0	-44.4	20.0	0.00e+00	0	31	101	1048576	60	8128
2026-01-05 21:11:35.84	70.51	7.94	-43.0	-44.4	20.0	0.00e+00	71	31	101	1048576	60	8131
2026-01-05 21:11:36.86	70.39	8.00	-42.8	-44.2	20.3	0.00e+00	0	31	101	1048576	60	7865
2026-01-05 21:11:37.87	70.28	8.06	-42.9	-44.2	20.2	0.00e+00	92	31	101	1048576	60	7924
2026-01-05 21:11:38.88	70.16	8.12	-43.0	-44.4	20.1	0.00e+00	0	31	101	1048576	60	8064
2026-01-05 21:11:39.89	70.04	8.18	-42.7	-44.0	20.4	0.00e+00	74	31	101	1048576	60	7750
2026-01-05 21:11:40.90	69.92	8.24	-42.9	-44.3	20.2	0.00e+00	90	31	101	1048576	60	8020
2026-01-05 21:11:41.91	69.81	8.30	-42.6	-44.0	20.5	0.00e+00	0	31	101	1048576	60	7685
2026-01-05 21:11:42.93	69.69	8.36	-42.8	-44.2	20.2	0.00e+00	81	31	101	1048576	60	7931
2026-01-05 21:11:43.94	69.57	8.42	-43.1	-44.5	19.9	0.00e+00	0	31	101	1048576	60	8229
2026-01-05 21:11:44.95	69.45	8.47	-43.1	-44.5	20.1	0.00e+00	92	31	101	1048576	60	8154
2026-01-05 21:11:45.96	69.33	8.53	-43.2	-44.7	19.9	0.00e+00	0	31	101	1048576	60	8330
2026-01-05 21:11:46.97	69.21	8.59	-43.0	-44.4	20.1	0.00e+00	75	31	101	1048576	60	8119
2026-01-05 21:11:47.98	69.09	8.65	-43.2	-44.7	20.0	0.00e+00	92	31	101	1048576	60	8364
2026-01-05 21:11:49.00	68.96	8.71	-43.2	-44.6	20.0	0.00e+00	0	31	101	1048576	60	8315
2026-01-05 21:11:50.01	68.84	8.77	-43.1	-44.6	20.0	0.00e+00	66	31	101	1048576	60	8259
2026-01-05 21:11:51.02	68.72	8.83	-43.2	-44.7	19.9	0.00e+00	0	31	101	1048576	60	8396
2026-01-05 21:11:52.03	68.60	8.89	-43.3	-44.8	19.8	0.00e+00	90	31	101	1048576	60	8518
2026-01-05 21:11:53.04	68.47	8.95	-43.3	-44.8	19.9	0.00e+00	0	31	101	1048576	60	8428
2026-01-05 21:11:54.05	68.35	9.01	-43.2	-44.7	20.0	0.00e+00	42	31	101	1048576	60	8374
2026-01-05 21:11:55.06	68.22	9.07	-43.0	-44.5	20.0	0.00e+00	92	31	101	1048576	60	8144
2026-01-05 21:11:56.08	68.10	9.13	-42.9	-44.3	20.2	0.00e+00	0	31	101	1048576	60	8022
2026-01-05 21:11:57.09	67.97	9.19	-42.8	-44.2	20.4	0.00e+00	74	31	101	1048576	60	7916
2026-01-05 21:11:58.10	67.85	9.25	-42.6	-43.9	20.6	0.00e+00	0	31	101	1048576	60	7623
2026-01-05 21:11:59.11	67.72	9.31	-42.4	-43.6	20.8	0.00e+00	92	31	101	1048576	60	7407
2026-01-05 21:12:00.12	67.59	9.37	-42.3	-43.5	20.9	0.00e+00	0	31	101	1048576	60	7324
2026-01-05 21:12:01.13	67.47	9.43	-42.4	-43.6	20.9	0.00e+00	88	31	101	1048576	60	7421
2026-01-05 21:12:02.14	67.34	9.49	-42.4	-43.7	20.8	0.00e+00	92	31	101	1048576	60	7426
2026-01-05 21:12:03.15	67.21	9.55	-42.3	-43.5	21.0	0.00e+00	0	31	101	1048576	60	7335
2026-01-05 21:12:04.17	67.08	9.61	-42.3	-43.5	21.0	0.00e+00	69	31	101	1048576	60	7337
2026-01-05 21:12:05.18	66.95	9.67	-42.1	-43.3	21.2	0.00e+00	0	31	101	1048576	60	7152
2026-01-05 21:12:06.19	66.82	9.72	-42.2	-43.4	21.1	0.00e+00	90	31	101	1048576	60	7224
2026-01-05 21:12:07.20	66.69	9.78	-42.2	-43.4	21.0	0.00e+00	0	31	101	1048576	60	7240
2026-01-05 21:12:08.21	66.56	9.84	-42.1	-43.3	21.2	0.00e+00	92	31	101	1048576	60	7160
2026-01-05 21:12:09.22	66.42	9.90	-42.3	-43.5	20.9	0.00e+00	71	31	101	1048576	60	7271
2026-01-05 21:12:10.23	66.29	9.96	-42.2	-43.4	20.9	0.00e+00	0	31	101	1048576	60	7199
2026-01-05 21:12:11.25	66.16	10.02	-42.2	-43.5	20.9	0.00e+00	17	31	101	1048576	60	7264
2026-01-05 21:12:12.26	66.02	10.08	-42.3	-43.6	20.5	0.00e+00	0	31	101	1048576	60	7371
2026-01-05 21:12:13.27	65.89	10.14	-42.2	-43.4	20.8	0.00e+00	72	31	101	1048576	60	7203
2026-01-05 21:12:14.28	65.75	10.20	-42.2	-43.4	21.0	0.00e+00	0	31	101	1048576	60	7226
2026-01-05 21:12:15.29	65.62	10.26	-42.4	-43.7	20.8	0.00e+00	92	31	101	1048576	60	7443
2026-01-05 21:12:16.30	65.48	10.32	-42.3	-43.6	20.9	0.00e+00	0	31	101	1048576	60	7347
2026-01-05 21:12:17.31	65.35	10.38	-42.2	-43.4	21.1	0.00e+00	0	31	101	1048576	60	7227
2026-01-05 21:12:18.33	65.21	10.44	-42.3	-43.5	21.0	0.00e+00	92	31	101	1048576	60	7312
2026-01-05 21:12:19.34	65.07	10.50	-42.2	-43.3	21.1	0.00e+00	0	31	101	1048576	60	7162
2026-01-05 21:12:20.35	64.93	10.56	-42.1	-43.3	21.2	0.00e+00	91	31	101	1048576	60	7104
2026-01-05 21:12:21.36	64.79	10.62	-42.0	-43.2	21.3	0.00e+00	0	31	101	1048576	60	7051
2026-01-05 21:12:22.37	64.65	10.68	-42.1	-43.3	21.2	0.00e+00	92	31	101	1048576	60	7104
2026-01-05 21:12:23.38	64.51	10.74	-42.0	-43.2	21.3	0.00e+00	0	31	101	1048576	60	7025
2026-01-05 21:12:24.40	64.37	10.80	-42.1	-43.2	21.3	0.00e+00	0	31	101	1048576	60	7064
2026-01-05 21:12:25.41	64.23	10.85	-42.1	-43.2	21.2	0.00e+00	92	31	101	1048576	60	7088
2026-01-05 21:12:26.42	64.09	10.91	-42.0	-43.1	21.4	0.00e+00	0	31	101	1048576	60	6959
2026-01-05 21:12:27.43	63.95	10.97	-42.0	-43.2	21.3	0.00e+00	66	31	101	1048576	60	7024
2026-01-05 21:12:28.44	63.80	11.03	-42.0	-43.2	21.3	0.00e+00	0	31	101	1048576	60	7009
2026-01-05 21:12:29.45	63.66	11.09	-42.2	-43.4	21.1	0.00e+00	92	31	101	1048576	60	7179
2026-01-05 21:12:30.46	63.52	11.15	-42.3	-43.5	21.0	0.00e+00	0	31	101	1048576	60	7315
2026-01-05 21:12:31.47	63.37	11.21	-42.3	-43.5	21.0	0.00e+00	0	31	101	1048576	60	7331
2026-01-05 21:12:32.48	63.23	11.27	-42.3	-43.5	21.0	0.00e+00	91	31	101	1048576	60	7297
2026-01-05 21:12:33.49	63.08	11.33	-42.2	-43.3	21.2	0.00e+00	0	31	101	1048576	60	7148
2026-01-05 21:12:34.50	62.93	11.39	-42.2	-43.4	21.3	0.00e+00	67	31	101	1048576	60	7214
2026-01-05 21:12:35.52	62.79	11.45	-42.1	-43.2	21.3	0.00e+00	0	31	101	1048576	60	7063
2026-01-05 21:12:36.53	62.64	11.50	-42.3	-43.5	21.2	0.00e+00	91	31	101	1048576	60	7266
2026-01-05 21:12:37.54	62.49	11.56	-42.3	-43.6	20.9	0.00e+00	0	31	101	1048576	60	7340
2026-01-05 21:12:38.55	62.34	11.62	-42.6	-43.8	20.8	0.00e+00	0	31	101	1048576	60	7580
2026-01-05 21:12:39.56	62.19	11.68	-42.9	-44.2	20.5	0.00e+00	92	31	101	1048576	60	7909
2026-01-05 21:12:40.57	62.04	11.74	-42.6	-43.8	20.8	0.00e+00	0	31	101	1048576	60	7584
2026-01-05 21:12:41.58	61.89	11.80	-42.8	-44.1	20.6	0.00e+00	62	31	101	1048576	60	7792
2026-01-05 21:12:42.59	61.74	11.86	-42.6	-43.8	20.7	0.00e+00	0	31	101	1048576	60	7593
2026-01-05 21:12:43.60	61.59	11.92	-42.5	-43.8	20.9	0.00e+00	92	31	101	1048576	60	7543
2026-01-05 21:12:44.62	61.43	11.97	-42.6	-43.9	20.7	0.00e+00	0	31	101	1048576	60	7601
2026-01-05 21:12:45.63	61.28	12.03	-42.8	-44.1	20.5	0.00e+00	74	31	101	1048576	60	7831
2026-01-05 21:12:46.64	61.13	12.09	-42.8	-44.1	20.6	0.00e+00	72	31	101	1048576	60	7792
2026-01-05 21:12:47.65	60.97	12.15	-42.8	-44.1	20.7	0.00e+00	0	31	101	1048576	60	7836
2026-01-05 21:12:48.66	60.82	12.21	-42.7	-44.0	20.7	0.00e+00	59	31	101	1048576	60	7695
2026-01-05 21:12:49.67	60.66	12.27	-42.7	-44.0	20.7	0.00e+00	0	31	101	1048576	60	7755
2026-01-05 21:12:50.68	60.51	12.32	-42.4	-43.6	21.0	0.00e+00	90	31	101	1048576	60	7393
2026-01-05 21:12:51.69	60.35	12.38	-42.3	-43.6	21.1	0.00e+00	0	31	101	1048576	60	7339
2026-01-05 21:12:52.70	60.19	12.44	-42.2	-43.4	21.2	0.00e+00	92	31	101	1048576	60	7199
2026-01-05 21:12:53.72	60.03	12.50	-42.2	-43.4	21.2	0.00e+00	59	31	101	1048576	60	7198
2026-01-05 21:12:54.73	59.87	12.56	-42.2	-43.4	21.1	0.00e+00	0	31	101	1048576	60	7242
2026-01-05 21:12:55.74	59.71	12.61	-41.9	-43.1	21.4	0.00e+00	69	31	101	1048576	60	6934
2026-01-05 21:12:56.75	59.55	12.67	-42.3	-43.5	21.2	0.00e+00	0	31	101	1048576	60	7267
2026-01-05 21:12:57.76	59.39	12.73	-42.2	-43.4	21.2	0.00e+00	91	31	101	1048576	60	7219
2026-01-05 21:12:58.77	59.23	12.79	-42.1	-43.3	21.3	0.00e+00	0	31	101	1048576	60	7096
2026-01-05 21:12:59.78	59.07	12.84	-42.1	-43.3	21.3	0.00e+00	65	31	101	1048576	60	7101
2026-01-05 21:13:00.79	58.91	12.90	-42.0	-43.2	21.4	0.00e+00	65	31	101	1048576	60	7024
2026-01-05 21:13:01.80	58.74	12.96	-41.9	-43.1	21.5	0.00e+00	0	31	101	1048576	60	6969
2026-01-05 21:13:02.81	58.58	13.01	-42.0	-43.2	21.5	0.00e+00	49	31	101	1048576	60	7008
2026-01-05 21:13:03.82	58.42	13.07	-41.8	-42.9	21.6	0.00e+00	0	31	101	1048576	60	6823
2026-01-05 21:13:04.84	58.25	13.13	-41.7	-42.8	21.6	0.00e+00	92	31	101	1048576	60	6757
2026-01-05 21:13:05.85	58.08	13.19	-41.9	-43.0	21.6	0.00e+00	0	31	101	1048576	60	6907
2026-01-05 21:13:06.86	57.92	13.24	-41.7	-42.8	21.8	0.00e+00	74	31	101	1048576	60	6737
2026-01-05 21:13:07.87	57.75	13.30	-41.2	-42.2	22.2	0.00e+00	1	31	101	1048576	60	6308
2026-01-05 21:13:08.88	57.58	13.35	-41.0	-42.1	22.4	0.00e+00	0	31	101	1048576	60	6174
2026-01-05 21:13:09.89	57.41	13.41	-40.8	-41.7	22.6	0.00e+00	68	31	101	1048576	60	5959
2026-01-05 21:13:10.90	57.25	13.47	-40.7	-41.6	22.5	0.00e+00	0	31	101	1048576	60	5896
2026-01-05 21:13:11.91	57.08	13.52	-40.8	-41.8	22.5	0.00e+00	73	31	101	1048576	60	6019
2026-01-05 21:13:12.92	56.91	13.58	-40.6	-41.6	22.7	0.00e+00	0	31	101	1048576	60	5862
2026-01-05 21:13:13.94	56.73	13.64	-40.7	-41.7	22.6	0.00e+00	90	31	101	1048576	60	5926
2026-01-05 21:13:14.95	56.56	13.69	-40.5	-41.4	22.9	0.00e+00	0	31	101	1048576	60	5754
2026-01-05 21:13:15.96	56.39	13.75	-40.4	-41.4	22.9	0.00e+00	0	31	101	1048576	60	5730
2026-01-05 21:13:16.97	56.22	13.80	-40.6	-41.6	22.8	0.00e+00	72	31	101	1048576	60	5837
2026-01-05 21:13:17.98	56.04	13.86	-40.5	-41.5	22.8	0.00e+00	0	31	101	1048576	60	5771
2026-01-05 21:13:18.99	55.87	13.91	-40.4	-41.4	22.9	0.00e+00	65	31	101	1048576	60	5719
2026-01-05 21:13:20.01	55.69	13.97	-40.4	-41.4	22.9	0.00e+00	0	31	101	1048576	60	5715
2026-01-05 21:13:21.02	55.52	14.02	-40.3	-41.2	23.0	0.00e+00	41	31	101	1048576	60	5624
2026-01-05 21:13:22.03	55.34	14.08	-40.3	-41.3	23.0	0.00e+00	0	31	101	1048576	60	5652
2026-01-05 21:13:23.04	55.16	14.13	-40.3	-41.2	22.9	0.00e+00	0	31	101	1048576	58	6290
2026-01-05 21:13:24.05	54.99	14.19	-40.3	-41.2	22.9	0.00e+00	92	31	101	1048576	58	6287
2026-01-05 21:13:25.06	54.81	14.24	-40.3	-41.3	23.0	0.00e+00	0	31	101	1048576	58	6345
2026-01-05 21:13:26.07	54.63	14.29	-40.2	-41.2	23.0	0.00e+00	42	31	101	1048576	58	6261
2026-01-05 21:13:27.08	54.45	14.35	-40.3	-41.3	23.0	0.00e+00	0	31	101	1048576	58	6330
2026-01-05 21:13:28.09	54.27	14.40	-40.4	-41.4	23.0	0.00e+00	92	31	101	1048576	58	6432
2026-01-05 21:13:29.10	54.09	14.46	-40.6	-41.6	22.8	0.00e+00	0	32	101	1048576	58	6550
2026-01-05 21:13:30.11	53.91	14.51	-40.5	-41.5	22.9	0.00e+00	32	31	101	1048576	58	6517
2026-01-05 21:13:31.13	53.72	14.56	-40.6	-41.6	22.7	0.00e+00	92	31	101	1048576	58	6574
2026-01-05 21:13:32.14	53.54	14.62	-40.7	-41.7	22.6	0.00e+00	29	31	101	1048576	58	6680
2026-01-05 21:13:33.15	53.36	14.67	-40.8	-41.9	22.5	0.00e+00	44	31	101	1048576	58	6783
2026-01-05 21:13:34.16	53.17	14.72	-40.7	-41.7	22.6	0.00e+00	0	31	101	1048576	58	6668
2026-01-05 21:13:35.17	52.99	14.77	-40.7	-41.7	22.6	0.00e+00	82	31	101	1048576	58	6668
2026-01-05 21:13:36.18	52.80	14.83	-40.8	-41.9	22.6	0.00e+00	0	31	101	1048576	58	6781
2026-01-05 21:13:37.19	52.62	14.88	-40.7	-41.7	22.6	0.00e+00	0	31	101	1048576	58	6673
2026-01-05 21:13:38.20	52.43	14.93	-40.5	-41.5	22.9	0.00e+00	90	31	101	1048576	58	6530
2026-01-05 21:13:39.21	52.24	14.98	-40.3	-41.2	23.1	0.00e+00	0	31	101	1048576	58	6317
2026-01-05 21:13:40.23	52.05	15.03	-40.2	-41.2	23.0	0.00e+00	11	31	101	1048576	58	6253
2026-01-05 21:13:41.24	51.86	15.08	-40.0	-41.0	23.3	0.00e+00	0	31	101	1048576	58	6135
2026-01-05 21:13:42.25	51.67	15.14	-39.6	-40.5	23.6	0.00e+00	87	31	101	1048576	58	5802
2026-01-05 21:13:43.26	51.48	15.19	-39.3	-40.2	23.8	0.00e+00	0	31	101	1048576	58	5579
2026-01-05 21:13:44.27	51.29	15.24	-39.3	-40.2	23.8	0.00e+00	64	31	101	1048576	58	5607
2026-01-05 21:13:45.28	51.10	15.29	-39.5	-40.4	23.7	0.00e+00	38	31	101	1048576	58	5707
2026-01-05 21:13:46.29	50.91	15.34	-39.2	-40.1	23.8	0.00e+00	0	31	101	1048576	58	5507
2026-01-05 21:13:47.30	50.72	15.39	-39.5	-40.4	23.7	0.00e+00	75	31	101	1048576	58	5752
2026-01-05 21:13:48.31	50.52	15.44	-39.7	-40.6	23.5	0.00e+00	0	31	101	1048576	58	5851
2026-01-05 21:13:49.32	50.33	15.49	-39.8	-40.7	23.4	0.00e+00	68	31	101	1048576	58	5936
2026-01-05 21:13:50.33	50.14	15.54	-39.9	-40.8	23.5	0.00e+00	0	31	101	1048576	58	5985
2026-01-05 21:13:51.34	49.94	15.59	-40.0	-40.9	23.3	0.00e+00	39	31	101	1048576	58	6081
2026-01-05 21:13:52.35	49.74	15.63	-40.1	-41.1	23.1	0.00e+00	76	31	101	1048576	58	6217
2026-01-05 21:13:53.37	49.55	15.68	-40.4	-41.4	22.8	0.00e+00	0	31	101	1048576	58	6417
2026-01-05 21:13:54.38	49.35	15.73	-40.4	-41.4	22.8	0.00e+00	16	31	101	1048576	58	6402
2026-01-05 21:13:55.39	49.15	15.78	-40.2	-41.2	23.1	0.00e+00	0	31	101	1048576	58	6261
2026-01-05 21:13:56.40	48.95	15.83	-40.1	-41.0	23.1	0.00e+00	88	31	101	1048576	58	6147
2026-01-05 21:13:57.41	48.75	15.88	-40.1	-41.1	23.1	0.00e+00	0	31	101	1048576	58	6175
2026-01-05 21:13:58.42	48.55	15.92	-39.8	-40.7	23.4	0.00e+00	75	31	101	1048576	58	5948
2026-01-05 21:13:59.43	48.35	15.97	-39.8	-40.7	23.6	0.00e+00	0	31	101	1048576	58	5921
2026-01-05 21:14:00.44	48.15	16.02	-39.7	-40.6	23.5	0.00e+00	0	31	101	1048576	58	5896
2026-01-05 21:14:01.45	47.95	16.06	-39.6	-40.5	23.7	0.00e+00	31	31	101	1048576	58	5767
2026-01-05 21:14:02.47	47.75	16.11	-39.3	-40.2	23.8	0.00e+00	0	31	101	1048576	58	5612
2026-01-05 21:14:03.48	47.54	16.16	-39.3	-40.2	23.8	0.00e+00	91	31	101	1048576	58	5591
2026-01-05 21:14:04.49	47.34	16.20	-39.3	-40.2	23.8	0.00e+00	33	31	101	1048576	58	5587
2026-01-05 21:14:05.50	47.14	16.25	-39.4	-40.3	23.8	0.00e+00	84	31	101	1048576	58	5652
2026-01-05 21:14:06.51	46.93	16.29	-39.5	-40.4	23.7	0.00e+00	41	31	101	1048576	58	5698
2026-01-05 21:14:07.52	46.73	16.34	-39.3	-40.1	23.9	0.00e+00	0	31	101	1048576	58	5565
2026-01-05 21:14:08.53	46.52	16.38	-39.3	-40.2	23.8	0.00e+00	92	31	101	1048576	56	6271
2026-01-05 21:14:09.55	46.31	16.43	-39.4	-40.3	23.5	0.00e+00	0	31	101	1048576	56	6367
2026-01-05 21:14:10.56	46.10	16.47	-39.4	-40.3	23.7	0.00e+00	69	31	101	1048576	56	6344
2026-01-05 21:14:11.57	45.90	16.51	-39.5	-40.4	23.7	0.00e+00	0	31	101	1048576	56	6400
2026-01-05 21:14:12.58	45.69	16.56	-39.5	-40.4	23.7	0.00e+00	92	31	101	1048576	56	6417
2026-01-05 21:14:13.59	45.48	16.60	-39.6	-40.5	23.7	0.00e+00	0	31	101	1048576	56	6490
2026-01-05 21:14:14.60	45.27	16.64	-39.6	-40.4	23.7	0.00e+00	0	31	101	1048576	56	6444
2026-01-05 21:14:15.61	45.06	16.69	-39.8	-40.6	23.5	0.00e+00	92	31	101	1048576	56	6609
2026-01-05 21:14:16.62	44.85	16.73	-39.9	-40.9	23.4	0.00e+00	0	31	101	1048576	56	6770
2026-01-05 21:14:17.63	44.64	16.77	-40.1	-41.1	23.2	0.00e+00	28	31	101	1048576	56	6932
2026-01-05 21:14:18.64	44.42	16.81	-40.3	-41.3	23.0	0.00e+00	0	31	101	1048576	58	6339
2026-01-05 21:14:19.66	44.21	16.85	-40.4	-41.4	22.9	0.00e+00	75	31	101	1048576	58	6442
2026-01-05 21:14:20.67	44.00	16.89	-40.1	-41.0	23.2	0.00e+00	0	31	101	1048576	58	6169
2026-01-05 21:14:21.68	43.78	16.93	-39.9	-40.8	23.3	0.00e+00	0	31	101	1048576	58	6012
2026-01-05 21:14:22.69	43.57	16.97	-39.6	-40.5	23.5	0.00e+00	92	31	101	1048576	58	5790
2026-01-05 21:14:23.70	43.35	17.01	-39.4	-40.3	23.7	0.00e+00	0	31	101	1048576	58	5667
2026-01-05 21:14:24.71	43.14	17.05	-39.5	-40.4	23.8	0.00e+00	3	31	101	1048576	58	5710
2026-01-05 21:14:25.72	42.92	17.09	-39.3	-40.2	23.9	0.00e+00	0	31	101	1048576	58	5567
2026-01-05 21:14:26.73	42.70	17.13	-39.0	-39.9	24.0	0.00e+00	92	31	101	1048576	56	6061
2026-01-05 21:14:27.74	42.49	17.17	-38.9	-39.7	24.2	0.00e+00	0	31	101	1048576	56	5964
2026-01-05 21:14:28.75	42.27	17.21	-38.9	-39.7	24.2	0.00e+00	25	31	101	1048576	56	5919
2026-01-05 21:14:29.76	42.05	17.24	-38.9	-39.7	24.2	0.00e+00	71	31	101	1048576	56	5919
2026-01-05 21:14:30.78	41.83	17.28	-38.7	-39.5	24.4	0.00e+00	0	31	101	1048576	56	5783
2026-01-05 21:14:31.79	41.61	17.32	-38.8	-39.6	24.4	0.00e+00	77	31	101	1048576	56	5874
2026-01-05 21:14:32.80	41.39	17.35	-39.0	-39.8	24.2	0.00e+00	0	31	101	1048576	56	5998
2026-01-05 21:14:33.81	41.17	17.39	-38.6	-39.4	24.2	0.00e+00	0	31	101	1048576	56	5728
2026-01-05 21:14:34.82	40.95	17.43	-38.7	-39.5	23.7	0.00e+00	0	31	101	1048576	56	5818
2026-01-05 21:14:35.83	40.73	17.46	-38.8	-39.7	24.2	0.00e+00	0	31	101	1048576	56	5902
2026-01-05 21:14:36.84	40.51	17.50	-38.8	-39.6	24.3	0.00e+00	0	31	101	1048576	56	5896
2026-01-05 21:14:37.85	40.28	17.53	-39.2	-40.0	24.1	0.00e+00	0	32	101	1048576	56	6152
2026-01-05 21:14:38.86	40.06	17.56	-39.4	-40.3	23.8	0.00e+00	75	31	101	1048576	56	6344
2026-01-05 21:14:39.87	39.84	17.60	-39.2	-40.1	24.0	0.00e+00	0	31	101	1048576	56	6177
2026-01-05 21:14:40.88	39.61	17.63	-39.3	-40.2	23.8	0.00e+00	18	31	101	1048576	56	6285
2026-01-05 21:14:41.89	39.39	17.66	-39.4	-40.3	23.8	0.00e+00	0	31	101	1048576	56	6374
2026-01-05 21:14:42.91	39.16	17.70	-39.5	-40.4	23.7	0.00e+00	0	31	101	1048576	56	6464
2026-01-05 21:14:43.92	38.94	17.73	-39.9	-40.8	23.3	0.00e+00	75	32	101	1048576	56	6762
2026-01-05 21:14:44.93	38.71	17.76	-40.0	-40.9	23.2	0.00e+00	0	31	101	1048576	56	6813
2026-01-05 21:14:45.94	38.48	17.79	-39.9	-40.8	23.4	0.00e+00	89	31	101	1048576	58	5999
2026-01-05 21:14:46.95	38.26	17.82	-39.8	-40.7	23.3	0.00e+00	0	32	101	1048576	58	5931
2026-01-05 21:14:47.96	38.03	17.85	-39.7	-40.6	23.5	0.00e+00	0	31	101	1048576	58	5857
2026-01-05 21:14:48.97	37.80	17.88	-39.9	-40.8	23.4	0.00e+00	0	31	101	1048576	58	6018
2026-01-05 21:14:49.99	37.57	17.91	-40.3	-41.3	22.9	0.00e+00	0	31	101	1048576	58	6367
2026-01-05 21:14:51.00	37.34	17.94	-40.4	-41.4	22.7	0.00e+00	40	31	101	1048576	58	6439
2026-01-05 21:14:52.01	37.11	17.97	-40.4	-41.4	22.8	0.00e+00	0	31	101	1048576	58	6462
2026-01-05 21:14:53.02	36.88	18.00	-40.2	-41.2	23.1	0.00e+00	40	31	101	1048576	58	6265
2026-01-05 21:14:54.03	36.65	18.03	-40.1	-41.1	23.2	0.00e+00	0	31	101	1048576	58	6190
2026-01-05 21:14:55.04	36.42	18.05	-40.3	-41.2	23.0	0.00e+00	69	31	101	1048576	58	6307
2026-01-05 21:14:56.06	36.19	18.08	-40.5	-41.4	22.8	0.00e+00	0	31	101	1048576	58	6459
2026-01-05 21:14:57.07	35.96	18.11	-40.6	-41.6	22.6	0.00e+00	0	31	101	1048576	58	6555
2026-01-05 21:14:58.08	35.73	18.13	-40.3	-41.3	22.9	0.00e+00	0	31	101	1048576	58	6353
2026-01-05 21:14:59.09	35.49	18.16	-40.3	-41.2	23.2	0.00e+00	0	31	101	1048576	58	6304
2026-01-05 21:15:00.10	35.26	18.18	-40.3	-41.2	23.0	0.00e+00	71	31	101	1048576	58	6280
2026-01-05 21:15:01.11	35.03	18.21	-39.7	-40.6	23.5	0.00e+00	0	31	101	1048576	58	5848
2026-01-05 21:15:02.12	34.80	18.23	-39.5	-40.4	23.6	0.00e+00	89	31	101	1048576	58	5748
2026-01-05 21:15:03.13	34.56	18.26	-39.9	-40.8	23.3	0.00e+00	0	31	101	1048576	58	6028
2026-01-05 21:15:04.15	34.33	18.28	-40.1	-41.0	23.2	0.00e+00	0	31	101	1048576	58	6132
2026-01-05 21:15:05.16	34.09	18.30	-40.2	-41.2	23.1	0.00e+00	0	31	101	1048576	58	6266
2026-01-05 21:15:06.17	33.86	18.32	-40.1	-41.0	23.3	0.00e+00	30	31	101	1048576	58	6164
2026-01-05 21:15:07.18	33.62	18.35	-39.9	-40.9	23.3	0.00e+00	40	31	101	1048576	58	6060
2026-01-05 21:15:08.19	33.39	18.37	-39.8	-40.7	23.3	0.00e+00	0	31	101	1048576	58	5944
2026-01-05 21:15:09.20	33.15	18.39	-39.9	-40.9	23.3	0.00e+00	92	31	101	1048576	58	6053
2026-01-05 21:15:10.21	32.91	18.41	-40.0	-40.9	23.2	0.00e+00	0	31	101	1048576	58	6099
2026-01-05 21:15:11.22	32.68	18.43	-40.2	-41.2	23.0	0.00e+00	0	31	101	1048576	58	6291
2026-01-05 21:15:12.24	32.44	18.45	-40.4	-41.3	22.9	0.00e+00	0	31	101	1048576	58	6380
2026-01-05 21:15:13.25	32.20	18.47	-40.7	-41.7	22.6	0.00e+00	0	31	101	1048576	58	6676
2026-01-05 21:15:14.26	31.97	18.48	-41.3	-42.5	22.1	0.00e+00	0	31	101	1048576	60	6469
2026-01-05 21:15:15.27	31.73	18.50	-41.6	-42.8	21.8	0.00e+00	0	31	101	1048576	60	6743
2026-01-05 21:15:16.28	31.49	18.52	-41.9	-43.1	21.6	0.00e+00	82	31	101	1048576	60	6943
2026-01-05 21:15:17.29	31.25	18.54	-41.9	-43.1	21.5	0.00e+00	0	31	101	1048576	60	6992
2026-01-05 21:15:18.30	31.01	18.55	-41.7	-42.9	21.7	0.00e+00	0	31	101	1048576	60	6816
2026-01-05 21:15:19.31	30.78	18.57	-41.6	-42.7	21.8	0.00e+00	0	31	101	1048576	60	6662
2026-01-05 21:15:20.32	30.54	18.58	-41.4	-42.6	22.1	0.00e+00	0	31	101	1048576	60	6545
2026-01-05 21:15:21.34	30.29	18.60	-40.9	-42.0	22.4	0.00e+00	74	31	101	1048576	60	6143
2026-01-05 21:15:22.35	30.06	18.61	-40.8	-41.8	22.6	0.00e+00	0	31	101	1048576	60	6003
2026-01-05 21:15:23.36	29.82	18.63	-40.8	-41.8	22.6	0.00e+00	75	32	101	1048576	60	6023
2026-01-05 21:15:24.37	29.58	18.64	-40.8	-41.8	22.5	0.00e+00	0	31	101	1048576	60	6019
2026-01-05 21:15:25.38	29.34	18.65	-40.7	-41.7	22.6	0.00e+00	0	31	101	1048576	60	5963
2026-01-05 21:15:26.39	29.10	18.66	-40.7	-41.7	22.7	0.00e+00	0	31	101	1048576	60	5920
2026-01-05 21:15:27.40	28.86	18.68	-40.6	-41.7	22.8	0.00e+00	0	31	101	1048576	60	5897
2026-01-05 21:15:28.41	28.62	18.69	-40.6	-41.6	22.7	0.00e+00	0	31	101	1048576	60	5886
2026-01-05 21:15:29.42	28.38	18.70	-40.6	-41.6	22.8	0.00e+00	0	31	101	1048576	60	5871
2026-01-05 21:15:30.43	28.13	18.71	-40.6	-41.6	22.7	0.00e+00	90	32	101	1048576	60	5861
2026-01-05 21:15:31.44	27.89	18.72	-40.7	-41.7	22.8	0.00e+00	0	31	101	1048576	60	5916
2026-01-05 21:15:32.46	27.65	18.73	-40.1	-41.1	23.1	0.00e+00	19	32	101	1048576	58	6199
2026-01-05 21:15:33.47	27.41	18.73	-40.1	-41.0	23.2	0.00e+00	0	31	101	1048576	58	6161
2026-01-05 21:15:34.48	27.17	18.74	-39.9	-40.9	23.2	0.00e+00	0	31	101	1048576	58	6060
2026-01-05 21:15:35.49	26.93	18.75	-40.0	-40.9	23.3	0.00e+00	0	31	101	1048576	58	6100
2026-01-05 21:15:36.50	26.68	18.76	-40.0	-41.0	23.2	0.00e+00	0	31	101	1048576	58	6105
2026-01-05 21:15:37.51	26.44	18.76	-40.0	-40.9	23.2	0.00e+00	85	31	101	1048576	58	6088
2026-01-05 21:15:38.52	26.20	18.77	-40.2	-41.2	23.0	0.00e+00	0	31	101	1048576	58	6266
2026-01-05 21:15:39.53	25.96	18.77	-40.3	-41.3	23.0	0.00e+00	91	31	101	1048576	58	6342
2026-01-05 21:15:40.55	25.72	18.78	-40.4	-41.4	22.8	0.00e+00	0	31	101	1048576	58	6417
2026-01-05 21:15:41.56	25.47	18.78	-40.5	-41.5	22.8	0.00e+00	0	31	101	1048576	58	6477
2026-01-05 21:15:42.57	25.23	18.79	-40.6	-41.6	22.8	0.00e+00	0	31	101	1048576	58	6552
2026-01-05 21:15:43.58	24.99	18.79	-40.7	-41.7	22.7	0.00e+00	0	31	101	1048576	58	6633
2026-01-05 21:15:44.59	24.75	18.79	-40.5	-41.5	22.9	0.00e+00	70	31	101	1048576	58	6474
2026-01-05 21:15:45.60	24.50	18.80	-40.4	-41.4	22.9	0.00e+00	0	31	101	1048576	58	6443
2026-01-05 21:15:46.61	24.26	18.80	-40.4	-41.4	22.9	0.00e+00	90	31	101	1048576	58	6435
2026-01-05 21:15:47.62	24.02	18.80	-40.4	-41.4	22.9	0.00e+00	0	31	101	1048576	58	6435
2026-01-05 21:15:48.63	23.78	18.80	-40.2	-41.2	23.0	0.00e+00	0	31	101	1048576	58	6283
2026-01-05 21:15:49.64	23.54	18.80	-40.1	-41.1	23.1	0.00e+00	0	31	101	1048576	58	6190
2026-01-05 21:15:50.65	23.29	18.80	-40.2	-41.1	23.1	0.00e+00	0	31	101	1048576	58	6225
2026-01-05 21:15:51.67	23.05	18.80	-40.3	-41.3	22.8	0.00e+00	57	31	101	1048576	58	6337
2026-01-05 21:15:52.68	22.81	18.80	-40.3	-41.3	23.0	0.00e+00	0	31	101	1048576	58	6356
2026-01-05 21:15:53.69	22.56	18.79	-40.8	-41.8	22.5	0.00e+00	74	31	101	1048576	58	6747
2026-01-05 21:15:54.70	22.32	18.79	-41.1	-42.2	22.2	0.00e+00	0	31	101	1048576	58	7087
2026-01-05 21:15:55.71	22.08	18.79	-41.5	-42.6	21.9	0.00e+00	0	31	101	1048576	60	6591
2026-01-05 21:15:56.72	21.84	18.78	-41.6	-42.8	21.9	0.00e+00	0	31	101	1048576	60	6730
2026-01-05 21:15:57.73	21.60	18.78	-41.6	-42.7	21.9	0.00e+00	0	31	101	1048576	60	6659
2026-01-05 21:15:58.75	21.35	18.78	-41.5	-42.6	22.1	0.00e+00	72	31	101	1048576	60	6566
2026-01-05 21:15:59.76	21.11	18.77	-41.1	-42.1	22.2	0.00e+00	0	31	101	1048576	60	6237
2026-01-05 21:16:00.76	20.87	18.76	-40.8	-41.8	22.7	0.00e+00	89	31	101	1048576	60	5990
2026-01-05 21:16:01.78	20.63	18.76	-40.3	-41.3	22.8	0.00e+00	0	31	101	1048576	60	5676
2026-01-05 21:16:02.79	20.39	18.75	-40.1	-41.1	22.6	0.00e+00	0	31	101	1048576	58	6215
2026-01-05 21:16:03.80	20.14	18.74	-39.8	-40.8	23.4	0.00e+00	0	31	101	1048576	58	5967
2026-01-05 21:16:04.81	19.90	18.74	-39.6	-40.5	23.3	0.00e+00	0	31	101	1048576	58	5796
2026-01-05 21:16:05.82	19.66	18.73	-39.4	-40.3	23.7	0.00e+00	73	31	101	1048576	58	5647
2026-01-05 21:16:06.83	19.42	18.72	-39.6	-40.5	23.6	0.00e+00	0	31	101	1048576	58	5788
2026-01-05 21:16:07.84	19.18	18.71	-39.5	-40.4	23.7	0.00e+00	90	31	101	1048576	58	5713
2026-01-05 21:16:08.85	18.94	18.70	-39.5	-40.4	23.6	0.00e+00	0	31	101	1048576	58	5761
2026-01-05 21:16:09.87	18.70	18.69	-39.4	-40.4	23.7	0.00e+00	0	31	101	1048576	58	5699
2026-01-05 21:16:10.88	18.46	18.68	-39.3	-40.2	23.8	0.00e+00	0	31	101	1048576	58	5595
2026-01-05 21:16:11.89	18.22	18.67	-39.2	-40.1	23.9	0.00e+00	0	31	101	1048576	58	5526
2026-01-05 21:16:12.90	17.98	18.65	-39.3	-40.1	23.8	0.00e+00	0	31	101	1048576	58	5558
2026-01-05 21:16:13.91	17.74	18.64	-39.4	-40.4	23.7	0.00e+00	0	31	101	1048576	58	5698
2026-01-05 21:16:14.92	17.50	18.63	-39.6	-40.5	23.5	0.00e+00	74	31	101	1048576	58	5790
2026-01-05 21:16:15.93	17.26	18.61	-39.7	-40.6	23.5	0.00e+00	0	31	101	1048576	58	5850
2026-01-05 21:16:16.94	17.02	18.60	-39.6	-40.5	23.7	0.00e+00	0	31	101	1048576	58	5785
2026-01-05 21:16:17.96	16.78	18.58	-39.2	-40.1	23.8	0.00e+00	0	31	101	1048576	58	5534
2026-01-05 21:16:18.97	16.54	18.57	-39.0	-39.8	24.1	0.00e+00	0	31	101	1048576	56	6005
2026-01-05 21:16:19.98	16.30	18.55	-38.8	-39.7	24.3	0.00e+00	0	31	101	1048576	56	5932
2026-01-05 21:16:20.99	16.06	18.54	-38.6	-39.4	24.4	0.00e+00	0	31	101	1048576	56	5743
2026-01-05 21:16:22.00	15.82	18.52	-38.8	-39.7	24.2	0.00e+00	45	31	101	1048576	56	5899
2026-01-05 21:16:23.01	15.59	18.50	-38.7	-39.5	24.5	0.00e+00	0	31	101	1048576	56	5781
2026-01-05 21:16:24.02	15.35	18.49	-38.7	-39.5	24.1	0.00e+00	92	31	101	1048576	56	5779
2026-01-05 21:16:25.03	15.11	18.47	-38.7	-39.5	24.4	0.00e+00	0	31	101	1048576	56	5827
2026-01-05 21:16:26.05	14.87	18.45	-38.9	-39.8	24.0	0.00e+00	0	31	101	1048576	56	5988
2026-01-05 21:16:27.06	14.64	18.43	-39.0	-39.8	24.0	0.00e+00	9	31	101	1048576	56	6019
2026-01-05 21:16:28.07	14.40	18.41	-38.8	-39.7	24.2	0.00e+00	0	31	101	1048576	56	5921
2026-01-05 21:16:29.08	14.16	18.39	-39.1	-40.0	24.0	0.00e+00	39	31	101	1048576	56	6135
2026-01-05 21:16:30.09	13.93	18.37	-39.0	-39.8	24.1	0.00e+00	0	31	101	1048576	56	6019
2026-01-05 21:16:31.10	13.69	18.35	-39.0	-39.9	24.0	0.00e+00	92	31	101	1048576	56	6043
2026-01-05 21:16:32.11	13.46	18.33	-39.2	-40.0	23.9	0.00e+00	0	31	101	1048576	56	6164
2026-01-05 21:16:33.12	13.22	18.30	-39.4	-40.3	23.8	0.00e+00	32	31	101	1048576	56	6389
2026-01-05 21:16:34.13	12.99	18.28	-39.3	-40.2	23.8	0.00e+00	0	31	101	1048576	56	6257
2026-01-05 21:16:35.15	12.75	18.26	-39.4	-40.3	23.4	0.00e+00	0	31	101	1048576	56	6325
2026-01-05 21:16:36.16	12.52	18.24	-39.5	-40.3	23.8	0.00e+00	75	31	101	1048576	56	6384
2026-01-05 21:16:37.17	12.29	18.21	-39.3	-40.2	23.8	0.00e+00	0	31	101	1048576	56	6304
2026-01-05 21:16:38.18	12.05	18.19	-39.6	-40.5	23.7	0.00e+00	58	32	101	1048576	56	6505
2026-01-05 21:16:39.19	11.82	18.16	-39.5	-40.4	23.7	0.00e+00	0	31	101	1048576	56	6459
2026-01-05 21:16:40.20	11.59	18.14	-39.6	-40.6	23.6	0.00e+00	0	31	101	1048576	56	6540
2026-01-05 21:16:41.21	11.36	18.11	-39.7	-40.6	23.5	0.00e+00	0	31	101	1048576	56	6583
2026-01-05 21:16:42.22	11.13	18.08	-40.2	-41.2	23.1	0.00e+00	0	31	101	1048576	56	7048
2026-01-05 21:16:43.23	10.90	18.06	-40.3	-41.3	23.0	0.00e+00	56	31	101	1048576	58	6358
2026-01-05 21:16:44.24	10.67	18.03	-40.6	-41.6	22.8	0.00e+00	0	31	101	1048576	58	6569
2026-01-05 21:16:45.26	10.43	18.00	-41.0	-42.0	22.4	0.00e+00	89	31	101	1048576	58	6914
2026-01-05 21:16:46.27	10.20	17.97	-41.1	-42.1	22.2	0.00e+00	0	31	101	1048576	58	6983
2026-01-05 21:16:47.28	9.98	17.95	-40.9	-42.0	22.4	0.00e+00	0	31	101	1048576	58	6875
2026-01-05 21:16:48.29	9.75	17.92	-40.7	-41.7	22.7	0.00e+00	0	31	101	1048576	58	6624
2026-01-05 21:16:49.30	9.52	17.89	-41.0	-42.0	22.3	0.00e+00	0	31	101	1048576	58	6897
2026-01-05 21:16:50.31	9.29	17.86	-40.9	-41.9	22.5	0.00e+00	75	31	101	1048576	58	6807
2026-01-05 21:16:51.32	9.06	17.83	-40.9	-41.9	22.5	0.00e+00	0	32	101	1048576	58	6832
2026-01-05 21:16:52.33	8.84	17.80	-40.9	-42.0	22.4	0.00e+00	82	31	101	1048576	58	6884
2026-01-05 21:16:53.34	8.61	17.77	-40.9	-41.9	22.4	0.00e+00	0	31	101	1048576	58	6835
2026-01-05 21:16:54.36	8.38	17.73	-40.8	-41.8	22.5	0.00e+00	0	31	101	1048576	58	6767
2026-01-05 21:16:55.37	8.16	17.70	-40.5	-41.5	22.8	0.00e+00	0	32	101	1048576	58	6525
2026-01-05 21:16:56.38	7.93	17.67	-40.7	-41.8	22.7	0.00e+00	0	31	101	1048576	58	6701
2026-01-05 21:16:57.39	7.71	17.64	-40.9	-41.9	22.5	0.00e+00	65	31	101	1048576	58	6843
2026-01-05 21:16:58.40	7.49	17.60	-41.3	-42.4	22.1	0.00e+00	0	31	101	1048576	58	7222
2026-01-05 21:16:59.41	7.26	17.57	-41.3	-42.5	22.1	0.00e+00	90	31	101	1048576	60	6466
2026-01-05 21:17:00.42	7.04	17.54	-41.4	-42.5	22.1	0.00e+00	0	31	101	1048576	60	6528
2026-01-05 21:17:01.43	6.82	17.50	-40.9	-42.0	22.5	0.00e+00	33	31	101	1048576	60	6135
2026-01-05 21:17:02.44	6.60	17.47	-41.0	-42.0	22.5	0.00e+00	0	31	101	1048576	60	6152
2026-01-05 21:17:03.45	6.37	17.43	-40.8	-41.8	22.5	0.00e+00	0	31	101	1048576	60	6011
2026-01-05 21:17:04.46	6.15	17.40	-40.5	-41.5	23.0	0.00e+00	0	31	101	1048576	60	5763
2026-01-05 21:17:05.47	5.93	17.36	-40.7	-41.7	22.7	0.00e+00	0	31	101	1048576	60	5934
2026-01-05 21:17:06.48	5.71	17.32	-40.7	-41.7	22.7	0.00e+00	89	31	101	1048576	60	5932
2026-01-05 21:17:07.49	5.49	17.29	-40.6	-41.6	22.8	0.00e+00	0	31	101	1048576	60	5875
2026-01-05 21:17:08.51	5.27	17.25	-40.6	-41.6	22.8	0.00e+00	0	32	101	1048576	60	5863
2026-01-05 21:17:09.52	5.06	17.21	-40.6	-41.6	22.7	0.00e+00	0	31	101	1048576	60	5856
2026-01-05 21:17:10.53	4.84	17.17	-40.5	-41.5	22.9	0.00e+00	0	31	101	1048576	60	5804
2026-01-05 21:17:11.54	4.62	17.14	-40.2	-41.2	23.0	0.00e+00	0	32	101	1048576	60	5587
2026-01-05 21:17:12.55	4.40	17.10	-40.4	-41.4	23.0	0.00e+00	0	31	101	1048576	60	5715
2026-01-05 21:17:13.56	4.19	17.06	-40.4	-41.4	23.0	0.00e+00	66	31	101	1048576	60	5723
2026-01-05 21:17:14.57	3.97	17.02	-40.1	-41.1	23.1	0.00e+00	0	31	101	1048576	58	6206
2026-01-05 21:17:15.58	3.76	16.98	-39.9	-40.8	23.5	0.00e+00	92	31	101	1048576	58	5996
2026-01-05 21:17:16.59	3.54	16.94	-39.6	-40.5	23.6	0.00e+00	0	31	101	1048576	58	5815
2026-01-05 21:17:17.61	3.33	16.90	-39.5	-40.4	23.7	0.00e+00	0	31	101	1048576	58	5743
2026-01-05 21:17:18.62	3.12	16.86	-39.4	-40.3	23.8	0.00e+00	0	31	101	1048576	58	5670
2026-01-05 21:17:19.63	2.90	16.82	-39.2	-40.1	23.9	0.00e+00	0	31	101	1048576	58	5508
2026-01-05 21:17:20.64	2.69	16.78	-39.4	-40.3	23.8	0.00e+00	75	31	101	1048576	58	5647
2026-01-05 21:17:21.65	2.48	16.74	-39.4	-40.3	23.6	0.00e+00	0	31	101	1048576	58	5662
2026-01-05 21:17:22.66	2.27	16.69	-39.5	-40.4	23.6	0.00e+00	70	31	101	1048576	58	5745
2026-01-05 21:17:23.67	2.06	16.65	-39.5	-40.4	23.7	0.00e+00	0	32	101	1048576	58	5734
2026-01-05 21:17:24.68	1.85	16.61	-39.6	-40.6	23.5	0.00e+00	0	32	101	1048576	58	5829
2026-01-05 21:17:25.70	1.64	16.57	-40.1	-41.1	22.9	0.00e+00	0	32	101	1048576	58	6223
2026-01-05 21:17:26.71	1.43	16.52	-40.6	-41.6	22.7	0.00e+00	0	31	101	1048576	58	6568
2026-01-05 21:17:27.72	1.22	16.48	-41.3	-42.5	22.1	0.00e+00	10	32	101	1048576	60	6491
2026-01-05 21:17:28.73	1.02	16.43	-41.8	-43.0	21.6	0.00e+00	0	32	101	1048576	60	6912
2026-01-05 21:17:29.74	0.81	16.39	-41.8	-43.0	21.7	0.00e+00	83	32	101	1048576	60	6868
2026-01-05 21:17:30.75	0.61	16.35	-41.6	-42.8	21.9	0.00e+00	0	31	101	1048576	60	6705
2026-01-05 21:17:31.76	0.40	16.30	-41.5	-42.6	22.0	0.00e+00	0	31	101	1048576	60	6579
2026-01-05 21:17:32.77	0.20	16.26	-41.3	-42.4	22.1	0.00e+00	0	31	101	1048576	60	6422
2026-01-05 21:17:33.78	359.99	16.21	-41.0	-42.1	22.3	0.00e+00	0	31	101	1048576	60	6229
2026-01-05 21:17:34.79	359.79	16.17	-41.0	-42.1	22.3	0.00e+00	73	32	101	1048576	60	6229
2026-01-05 21:17:35.81	359.58	16.12	-41.2	-42.3	22.2	0.00e+00	0	32	101	1048576	60	6351
2026-01-05 21:17:36.82	359.38	16.07	-41.3	-42.4	22.1	0.00e+00	75	31	101	1048576	60	6444
2026-01-05 21:17:37.83	359.18	16.03	-41.5	-42.6	22.0	0.00e+00	0	31	101	1048576	60	6613
2026-01-05 21:17:38.84	358.98	15.98	-41.6	-42.7	21.4	0.00e+00	0	31	101	1048576	60	6659
2026-01-05 21:17:39.85	358.78	15.93	-41.7	-42.9	21.7	0.00e+00	0	31	101	1048576	60	6796
2026-01-05 21:17:40.86	358.58	15.89	-41.8	-42.9	21.7	0.00e+00	0	31	101	1048576	60	6819
2026-01-05 21:17:41.87	358.38	15.84	-41.9	-43.1	21.5	0.00e+00	73	31	101	1048576	60	6988
2026-01-05 21:17:42.88	358.18	15.79	-41.8	-42.9	21.8	0.00e+00	0	31	101	1048576	60	6835
2026-01-05 21:17:43.89	357.99	15.74	-40.9	-41.9	22.5	0.00e+00	92	31	101	1048576	60	6076
2026-01-05 21:17:44.91	357.79	15.69	-40.8	-41.8	22.6	0.00e+00	0	31	101	1048576	60	6007
2026-01-05 21:17:45.92	357.59	15.65	-40.4	-41.4	22.9	0.00e+00	0	31	101	1048576	60	5719
2026-01-05 21:17:46.93	357.40	15.60	-40.3	-41.3	23.1	0.00e+00	0	32	101	1048576	60	5652
2026-01-05 21:17:47.94	357.20	15.55	-40.3	-41.3	23.1	0.00e+00	0	31	101	1048576	60	5631
2026-01-05 21:17:48.95	357.01	15.50	-40.4	-41.4	23.0	0.00e+00	57	32	101	1048576	60	5744
2026-01-05 21:17:49.96	356.81	15.45	-40.3	-41.2	23.1	0.00e+00	0	31	101	1048576	60	5623
2026-01-05 21:17:50.97	356.62	15.40	-40.0	-40.9	23.2	0.00e+00	92	32	101	1048576	58	6100
2026-01-05 21:17:51.98	356.43	15.35	-40.2	-41.1	23.2	0.00e+00	0	31	101	1048576	58	6213
2026-01-05 21:17:52.99	356.24	15.30	-40.0	-41.0	23.2	0.00e+00	0	32	101	1048576	58	6127
2026-01-05 21:17:54.01	356.04	15.25	-40.4	-41.4	22.9	0.00e+00	0	31	101	1048576	58	6394
2026-01-05 21:17:55.02	355.85	15.20	-40.4	-41.4	22.8	0.00e+00	0	31	101	1048576	58	6463
2026-01-05 21:17:56.03	355.66	15.15	-40.8	-41.9	22.5	0.00e+00	57	31	101	1048576	58	6773
2026-01-05 21:17:57.04	355.47	15.10	-40.7	-41.7	22.5	0.00e+00	0	31	101	1048576	58	6689
2026-01-05 21:17:58.05	355.29	15.04	-40.8	-41.8	22.5	0.00e+00	92	31	101	1048576	58	6743
2026-01-05 21:17:59.06	355.10	14.99	-40.7	-41.7	22.6	0.00e+00	0	32	101	1048576	58	6684
2026-01-05 21:18:00.07	354.91	14.94	-40.3	-41.3	22.9	0.00e+00	67	31	101	1048576	58	6361
2026-01-05 21:18:01.08	354.73	14.89	-40.0	-40.9	23.1	0.00e+00	0	32	101	1048576	58	6095
2026-01-05 21:18:02.09	354.54	14.84	-40.0	-40.9	23.2	0.00e+00	0	31	101	1048576	58	6087
2026-01-05 21:18:03.10	354.35	14.79	-40.2	-41.1	23.2	0.00e+00	25	31	101	1048576	58	6211
2026-01-05 21:18:04.11	354.17	14.73	-40.0	-40.9	23.3	0.00e+00	30	31	101	1048576	58	6043
2026-01-05 21:18:05.12	353.99	14.68	-40.3	-41.3	22.8	0.00e+00	67	31	101	1048576	58	6351
2026-01-05 21:18:06.13	353.80	14.63	-40.5	-41.5	22.7	0.00e+00	0	31	101	1048576	58	6502
2026-01-05 21:18:07.15	353.62	14.57	-41.1	-42.1	22.2	0.00e+00	61	31	101	1048576	58	6965
2026-01-05 21:18:08.16	353.44	14.52	-41.5	-42.6	21.9	0.00e+00	0	31	101	1048576	60	6567
2026-01-05 21:18:09.17	353.26	14.47	-42.2	-43.4	21.2	0.00e+00	0	31	101	1048576	60	7213
2026-01-05 21:18:10.18	353.08	14.42	-42.6	-43.8	21.0	0.00e+00	0	32	101	1048576	60	7579
2026-01-05 21:18:11.19	352.90	14.36	-42.9	-44.2	20.4	0.00e+00	29	32	101	1048576	60	7932
2026-01-05 21:18:12.20	352.72	14.31	-43.1	-44.6	20.3	0.00e+00	69	31	101	1048576	60	8252
2026-01-05 21:18:13.21	352.54	14.25	-43.5	-45.0	19.8	0.00e+00	0	31	101	1048576	60	8624
2026-01-05 21:18:14.22	352.36	14.20	-43.0	-44.4	20.4	0.00e+00	92	31	101	1048576	60	8091
2026-01-05 21:18:15.24	352.18	14.15	-42.7	-44.0	20.7	0.00e+00	0	32	101	1048576	60	7727
2026-01-05 21:18:16.25	352.01	14.09	-42.7	-44.0	20.9	0.00e+00	0	32	101	1048576	60	7711
2026-01-05 21:18:17.26	351.83	14.04	-42.6	-43.9	20.8	0.00e+00	0	32	101	1048576	60	7627
2026-01-05 21:18:18.27	351.65	13.98	-42.6	-43.9	20.8	0.00e+00	0	32	101	1048576	60	7606
2026-01-05 21:18:19.28	351.48	13.93	-42.4	-43.6	20.9	0.00e+00	72	31	101	1048576	60	7415
2026-01-05 21:18:20.29	351.31	13.87	-42.2	-43.5	21.0	0.00e+00	0	32	101	1048576	60	7269
2026-01-05 21:18:21.30	351.13	13.82	-42.0	-43.3	21.4	0.00e+00	74	32	101	1048576	60	7093
2026-01-05 21:18:22.31	350.96	13.76	-41.9	-43.1	21.4	0.00e+00	0	31	101	1048576	60	6981
2026-01-05 21:18:23.32	350.79	13.71	-41.9	-43.1	21.4	0.00e+00	0	32	101	1048576	60	6969
2026-01-05 21:18:24.33	350.62	13.65	-41.6	-42.7	21.8	0.00e+00	0	32	101	1048576	60	6667
2026-01-05 21:18:25.35	350.45	13.59	-41.5	-42.6	21.9	0.00e+00	0	32	101	1048576	60	6557
2026-01-05 21:18:26.36	350.28	13.54	-41.5	-42.7	21.8	0.00e+00	73	32	101	1048576	60	6619
2026-01-05 21:18:27.37	350.11	13.48	-41.6	-42.7	21.8	0.00e+00	0	32	101	1048576	60	6672
2026-01-05 21:18:28.38	349.94	13.43	-41.9	-43.1	21.5	0.00e+00	71	32	101	1048576	60	6956
2026-01-05 21:18:29.39	349.77	13.37	-42.1	-43.3	21.3	0.00e+00	0	32	101	1048576	60	7140
2026-01-05 21:18:30.40	349.60	13.31	-42.1	-43.3	21.3	0.00e+00	0	32	101	1048576	60	7158
2026-01-05 21:18:31.41	349.44	13.26	-42.1	-43.3	21.2	0.00e+00	0	32	101	1048576	60	7159
2026-01-05 21:18:32.42	349.27	13.20	-42.0	-43.2	21.4	0.00e+00	0	32	101	1048576	60	7042
2026-01-05 21:18:33.43	349.10	13.15	-41.7	-42.8	21.7	0.00e+00	0	32	101	1048576	60	6745
2026-01-05 21:18:34.45	348.94	13.09	-41.3	-42.4	22.1	0.00e+00	0	32	101	1048576	60	6393
2026-01-05 21:18:35.46	348.77	13.03	-41.1	-42.1	22.2	0.00e+00	92	32	101	1048576	60	6244
2026-01-05 21:18:36.47	348.61	12.97	-41.0	-42.1	22.2	0.00e+00	0	32	101	1048576	60	6177
2026-01-05 21:18:37.48	348.45	12.92	-40.7	-41.8	22.5	0.00e+00	14	32	101	1048576	60	5972
2026-01-05 21:18:38.49	348.29	12.86	-40.7	-41.8	22.5	0.00e+00	0	32	101	1048576	60	5980
2026-01-05 21:18:39.50	348.12	12.80	-40.7	-41.7	22.5	0.00e+00	0	31	101	1048576	60	5935
2026-01-05 21:18:40.51	347.96	12.75	-40.8	-41.8	22.4	0.00e+00	67	32	101	1048576	60	6017
2026-01-05 21:18:41.52	347.80	12.69	-40.8	-41.9	22.3	0.00e+00	0	32	101	1048576	60	6046
2026-01-05 21:18:42.53	347.64	12.63	-40.9	-42.0	22.3	0.00e+00	65	32	101	1048576	60	6127
2026-01-05 21:18:43.54	347.48	12.57	-41.1	-42.1	22.3	0.00e+00	0	32	101	1048576	60	6215
2026-01-05 21:18:44.56	347.33	12.52	-41.2	-42.3	22.1	0.00e+00	92	32	101	1048576	60	6336
2026-01-05 21:18:45.57	347.17	12.46	-41.4	-42.5	22.0	0.00e+00	0	32	101	1048576	60	6470
2026-01-05 21:18:46.58	347.01	12.40	-41.3	-42.4	22.0	0.00e+00	0	32	101	1048576	60	6448
2026-01-05 21:18:47.59	346.85	12.34	-41.3	-42.5	21.8	0.00e+00	0	31	101	1048576	60	6485
2026-01-05 21:18:48.60	346.70	12.28	-41.3	-42.4	22.0	0.00e+00	0	32	101	1048576	60	6464
2026-01-05 21:18:49.61	346.54	12.23	-41.4	-42.5	21.9	0.00e+00	65	32	101	1048576	60	6511
2026-01-05 21:18:50.62	346.39	12.17	-41.2	-42.3	22.1	0.00e+00	0	32	101	1048576	60	6356
2026-01-05 21:18:51.63	346.23	12.11	-41.1	-42.2	22.1	0.00e+00	80	32	101	1048576	60	6274
2026-01-05 21:18:52.65	346.08	12.05	-41.0	-42.1	22.3	0.00e+00	0	31	101	1048576	60	6179
2026-01-05 21:18:53.66	345.93	11.99	-40.9	-41.9	22.3	0.00e+00	0	32	101	1048576	60	6091
2026-01-05 21:18:54.67	345.77	11.93	-40.9	-42.0	22.3	0.00e+00	0	31	101	1048576	60	6122
2026-01-05 21:18:55.68	345.62	11.88	-40.8	-41.8	22.2	0.00e+00	0	32	101	1048576	60	6017
2026-01-05 21:18:56.69	345.47	11.82	-40.8	-41.9	22.3	0.00e+00	5	32	101	1048576	60	6073
2026-01-05 21:18:57.70	345.32	11.76	-40.6	-41.6	22.7	0.00e+00	0	32	101	1048576	60	5886
2026-01-05 21:18:58.71	345.17	11.70	-40.2	-41.1	23.0	0.00e+00	78	32	101	1048576	58	6242
2026-01-05 21:18:59.73	345.02	11.64	-39.9	-40.9	23.1	0.00e+00	0	32	101	1048576	58	6048
2026-01-05 21:19:00.73	344.88	11.58	-39.7	-40.6	23.2	0.00e+00	0	32	101	1048576	58	5885
2026-01-05 21:19:01.74	344.73	11.53	-39.5	-40.4	23.5	0.00e+00	0	32	101	1048576	58	5734
2026-01-05 21:19:02.75	344.58	11.47	-39.4	-40.3	23.6	0.00e+00	0	32	101	1048576	58	5648
2026-01-05 21:19:03.77	344.43	11.41	-39.3	-40.2	23.7	0.00e+00	64	31	101	1048576	58	5593
2026-01-05 21:19:04.78	344.29	11.35	-39.6	-40.5	23.4	0.00e+00	0	32	101	1048576	58	5775
2026-01-05 21:19:05.79	344.14	11.29	-39.8	-40.7	23.4	0.00e+00	64	31	101	1048576	58	5956
2026-01-05 21:19:06.80	344.00	11.23	-39.9	-40.8	23.2	0.00e+00	0	32	101	1048576	58	6023
2026-01-05 21:19:07.81	343.85	11.17	-39.7	-40.7	23.4	0.00e+00	0	31	101	1048576	58	5910
2026-01-05 21:19:08.82	343.71	11.11	-39.9	-40.8	23.2	0.00e+00	0	31	101	1048576	58	6029
2026-01-05 21:19:09.83	343.57	11.05	-40.2	-41.2	22.9	0.00e+00	0	31	101	1048576	58	6264
2026-01-05 21:19:10.85	343.42	10.99	-40.3	-41.4	22.8	0.00e+00	73	31	101	1048576	58	6406
2026-01-05 21:19:11.86	343.28	10.94	-40.4	-41.4	22.8	0.00e+00	0	31	101	1048576	58	6418
2026-01-05 21:19:12.87	343.14	10.88	-40.4	-41.4	22.7	0.00e+00	90	31	101	1048576	58	6455
2026-01-05 21:19:13.88	343.00	10.82	-40.3	-41.3	22.8	0.00e+00	0	32	101	1048576	58	6387
2026-01-05 21:19:14.89	342.86	10.76	-40.3	-41.3	22.8	0.00e+00	65	31	101	1048576	58	6342
2026-01-05 21:19:15.90	342.72	10.70	-40.3	-41.3	22.8	0.00e+00	0	32	101	1048576	58	6326
2026-01-05 21:19:16.91	342.58	10.64	-40.0	-41.0	23.0	0.00e+00	0	31	101	1048576	58	6147
2026-01-05 21:19:17.92	342.44	10.58	-40.0	-41.0	23.1	0.00e+00	0	31	101	1048576	58	6126
2026-01-05 21:19:18.93	342.30	10.52	-39.8	-40.7	23.2	0.00e+00	0	32	101	1048576	58	5936
2026-01-05 21:19:19.95	342.16	10.46	-39.9	-40.9	23.1	0.00e+00	85	32	101	1048576	58	6037
2026-01-05 21:19:20.96	342.03	10.40	-39.9	-40.9	23.2	0.00e+00	0	32	101	1048576	58	6059
2026-01-05 21:19:21.97	341.89	10.34	-39.9	-40.9	23.1	0.00e+00	0	32	101	1048576	58	6064
2026-01-05 21:19:22.98	341.76	10.28	-39.9	-40.9	23.1	0.00e+00	0	31	101	1048576	58	6059
2026-01-05 21:19:23.99	341.62	10.22	-40.0	-41.0	23.0	0.00e+00	0	32	101	1048576	58	6127
2026-01-05 21:19:25.00	341.49	10.16	-40.1	-41.1	22.9	0.00e+00	38	31	101	1048576	58	6188
2026-01-05 21:19:26.01	341.35	10.11	-40.3	-41.3	22.9	0.00e+00	0	32	101	1048576	58	6332
2026-01-05 21:19:27.02	341.22	10.05	-40.3	-41.3	22.7	0.00e+00	57	31	101	1048576	58	6357
2026-01-05 21:19:28.03	341.09	9.99	-40.4	-41.4	22.8	0.00e+00	0	32	101	1048576	58	6416
2026-01-05 21:19:29.05	340.95	9.93	-40.6	-41.6	22.5	0.00e+00	54	32	101	1048576	58	6606
2026-01-05 21:19:30.06	340.82	9.87	-40.8	-41.9	22.3	0.00e+00	0	32	101	1048576	58	6807
2026-01-05 21:19:31.07	340.69	9.81	-40.7	-41.8	22.3	0.00e+00	0	31	101	1048576	58	6705
2026-01-05 21:19:32.08	340.56	9.75	-41.0	-42.1	22.1	0.00e+00	0	31	101	1048576	58	6976
2026-01-05 21:19:33.09	340.43	9.69	-40.8	-41.9	22.3	0.00e+00	0	31	101	1048576	58	6782
2026-01-05 21:19:34.10	340.30	9.63	-41.0	-42.1	22.1	0.00e+00	65	31	101	1048576	58	6963
2026-01-05 21:19:35.11	340.17	9.57	-41.0	-42.1	22.1	0.00e+00	32	31	101	1048576	58	6980
2026-01-05 21:19:36.12	340.04	9.51	-41.3	-42.4	21.9	0.00e+00	92	31	101	1048576	60	6426
2026-01-05 21:19:37.13	339.92	9.45	-41.1	-42.2	22.1	0.00e+00	0	31	101	1048576	60	6248
2026-01-05 21:19:38.15	339.79	9.39	-40.8	-41.9	22.1	0.00e+00	0	32	101	1048576	60	6048
2026-01-05 21:19:39.16	339.66	9.33	-40.7	-41.8	22.3	0.00e+00	0	32	101	1048576	60	5965
2026-01-05 21:19:40.17	339.53	9.27	-40.5	-41.5	22.3	0.00e+00	0	32	101	1048576	60	5810
2026-01-05 21:19:41.18	339.41	9.21	-40.4	-41.4	22.4	0.00e+00	43	31	101	1048576	60	5747
2026-01-05 21:19:42.19	339.28	9.15	-40.5	-41.5	22.5	0.00e+00	0	32	101	1048576	60	5794
2026-01-05 21:19:43.20	339.16	9.10	-40.2	-41.1	22.8	0.00e+00	71	32	101	1048576	60	5558
2026-01-05 21:19:44.21	339.03	9.04	-40.2	-41.1	22.8	0.00e+00	0	31	101	1048576	58	6231
2026-01-05 21:19:45.22	338.91	8.98	-40.3	-41.3	22.6	0.00e+00	0	31	101	1048576	58	6361
2026-01-05 21:19:46.23	338.79	8.92	-40.5	-41.5	22.4	0.00e+00	0	31	101	1048576	58	6527
2026-01-05 21:19:47.24	338.67	8.86	-40.7	-41.8	21.6	0.00e+00	0	32	101	1048576	58	6719
2026-01-05 21:19:48.26	338.54	8.80	-40.9	-42.0	21.8	0.00e+00	71	31	101	1048576	58	6871
2026-01-05 21:19:49.27	338.42	8.74	-41.2	-42.3	21.8	0.00e+00	0	32	101	1048576	60	6348
2026-01-05 21:19:50.28	338.30	8.68	-41.9	-43.1	21.3	0.00e+00	67	32	101	1048576	60	6950
2026-01-05 21:19:51.29	338.18	8.62	-41.8	-43.0	21.3	0.00e+00	0	32	101	1048576	60	6859
2026-01-05 21:19:52.30	338.06	8.56	-42.1	-43.4	21.1	0.00e+00	0	32	101	1048576	60	7182
2026-01-05 21:19:53.31	337.94	8.50	-42.1	-43.3	21.0	0.00e+00	0	32	101	1048576	60	7156
2026-01-05 21:19:54.32	337.82	8.44	-42.0	-43.2	21.1	0.00e+00	0	32	101	1048576	60	7045
2026-01-05 21:19:55.34	337.70	8.38	-41.9	-43.1	21.1	0.00e+00	0	31	101	1048576	60	6930
2026-01-05 21:19:56.35	337.58	8.32	-41.7	-42.9	21.4	0.00e+00	0	32	101	1048576	60	6784
2026-01-05 21:19:57.36	337.46	8.27	-41.7	-42.9	21.4	0.00e+00	44	32	101	1048576	60	6815
2026-01-05 21:19:58.37	337.35	8.21	-41.5	-42.7	21.6	0.00e+00	0	32	101	1048576	60	6631
2026-01-05 21:19:59.38	337.23	8.15	-40.9	-42.0	22.1	0.00e+00	0	32	101	1048576	60	6152
2026-01-05 21:20:00.39	337.12	8.09	-41.0	-42.1	22.1	0.00e+00	0	32	101	1048576	60	6176
2026-01-05 21:20:01.40	337.00	8.03	-40.9	-42.0	22.0	0.00e+00	0	32	101	1048576	60	6159
2026-01-05 21:20:02.41	336.88	7.97	-41.0	-42.1	21.9	0.00e+00	0	32	101	1048576	60	6207
2026-01-05 21:20:03.42	336.77	7.91	-41.2	-42.3	21.8	0.00e+00	0	32	101	1048576	60	6332
2026-01-05 21:20:04.43	336.66	7.85	-41.2	-42.3	21.8	0.00e+00	92	32	101	1048576	60	6343
2026-01-05 21:20:05.45	336.54	7.79	-40.8	-41.8	22.1	0.00e+00	0	32	101	1048576	60	6019
2026-01-05 21:20:06.46	336.43	7.73	-41.2	-42.3	21.8	0.00e+00	8	31	101	1048576	60	6358
2026-01-05 21:20:07.47	336.31	7.67	-41.3	-42.4	21.8	0.00e+00	0	31	101	1048576	60	6464
2026-01-05 21:20:08.48	336.20	7.62	-41.3	-42.4	21.7	0.00e+00	0	31	101	1048576	60	6451
2026-01-05 21:20:09.49	336.09	7.56	-41.5	-42.7	21.4	0.00e+00	0	32	101	1048576	60	6655
2026-01-05 21:20:10.50	335.98	7.50	-41.4	-42.6	21.5	0.00e+00	0	32	101	1048576	60	6568
2026-01-05 21:20:11.51	335.87	7.44	-41.6	-42.8	21.3	0.00e+00	62	32	101	1048576	60	6743
2026-01-05 21:20:12.52	335.76	7.38	-41.8	-43.0	21.1	0.00e+00	0	31	101	1048576	60	6920
2026-01-05 21:20:13.54	335.65	7.32	-41.9	-43.2	21.1	0.00e+00	92	31	101	1048576	60	7039
2026-01-05 21:20:14.55	335.54	7.26	-41.8	-43.0	21.1	0.00e+00	0	32	101	1048576	60	6910
2026-01-05 21:20:15.56	335.43	7.20	-42.0	-43.3	20.8	0.00e+00	0	32	101	1048576	60	7141
2026-01-05 21:20:16.57	335.32	7.15	-42.1	-43.4	20.7	0.00e+00	0	31	101	1048576	60	7230
2026-01-05 21:20:17.58	335.21	7.09	-42.0	-43.3	20.9	0.00e+00	0	31	101	1048576	60	7141
2026-01-05 21:20:18.59	335.10	7.03	-42.2	-43.6	20.6	0.00e+00	63	31	101	1048576	60	7345
2026-01-05 21:20:19.60	335.00	6.97	-42.0	-43.3	20.9	0.00e+00	0	31	101	1048576	60	7105
2026-01-05 21:20:20.61	334.89	6.91	-41.8	-43.1	21.0	0.00e+00	92	32	101	1048576	60	6931
2026-01-05 21:20:21.62	334.78	6.85	-41.8	-43.0	20.9	0.00e+00	0	32	101	1048576	60	6919
2026-01-05 21:20:22.63	334.68	6.80	-41.9	-43.2	20.9	0.00e+00	0	32	101	1048576	60	7045
2026-01-05 21:20:23.65	334.57	6.74	-42.1	-43.3	20.8	0.00e+00	0	32	101	1048576	60	7140
2026-01-05 21:20:24.65	334.47	6.68	-41.7	-43.0	21.1	0.00e+00	0	32	101	1048576	60	6867
2026-01-05 21:20:25.67	334.36	6.62	-41.7	-42.9	21.1	0.00e+00	35	31	101	1048576	60	6807
2026-01-05 21:20:26.68	334.26	6.56	-41.5	-42.7	21.2	0.00e+00	0	32	101	1048576	60	6634
2026-01-05 21:20:27.69	334.15	6.50	-41.7	-43.0	21.0	0.00e+00	70	32	101	1048576	60	6859
2026-01-05 21:20:28.70	334.05	6.45	-42.0	-43.3	20.6	0.00e+00	0	31	101	1048576	60	7164
2026-01-05 21:20:29.71	333.95	6.39	-42.1	-43.4	20.5	0.00e+00	0	31	101	1048576	60	7202
2026-01-05 21:20:30.72	333.84	6.33	-42.4	-43.7	20.2	0.00e+00	0	31	101	1048576	60	7508
2026-01-05 21:20:31.73	333.74	6.27	-42.4	-43.7	20.1	0.00e+00	0	31	101	1048576	60	7501
2026-01-05 21:20:32.74	333.64	6.21	-42.7	-44.2	19.7	0.00e+00	66	32	101	1048576	60	7926
2026-01-05 21:20:33.76	333.54	6.16	-43.1	-44.6	19.3	0.00e+00	0	31	101	1048576	60	8328
2026-01-05 21:20:34.77	333.44	6.10	-43.1	-44.7	19.1	0.00e+00	92	32	101	1048576	60	8361
2026-01-05 21:20:35.78	333.34	6.04	-43.1	-44.7	19.2	0.00e+00	0	31	101	1048576	60	8421
2026-01-05 21:20:36.79	333.24	5.98	-43.3	-44.9	19.1	0.00e+00	0	31	101	1048576	60	8600
2026-01-05 21:20:37.80	333.14	5.92	-43.0	-44.6	19.3	0.00e+00	0	32	101	1048576	60	8298
2026-01-05 21:20:38.81	333.04	5.87	-43.0	-44.6	19.3	0.00e+00	0	32	101	1048576	60	8268
2026-01-05 21:20:39.82	332.94	5.81	-43.3	-44.9	19.0	0.00e+00	65	32	101	1048576	60	8527
2026-01-05 21:20:40.83	332.84	5.75	-43.1	-44.7	19.2	0.00e+00	0	32	101	1048576	60	8395
2026-01-05 21:20:41.84	332.74	5.69	-43.1	-44.7	19.2	0.00e+00	92	31	101	1048576	60	8345
2026-01-05 21:20:42.86	332.64	5.64	-42.8	-44.3	19.6	0.00e+00	0	32	101	1048576	60	7995
2026-01-05 21:20:43.87	332.55	5.58	-42.8	-44.3	19.6	0.00e+00	0	32	101	1048576	60	7978
2026-01-05 21:20:44.88	332.45	5.52	-42.8	-44.2	19.8	0.00e+00	0	31	101	1048576	60	7914
2026-01-05 21:20:45.89	332.35	5.46	-42.6	-44.1	19.8	0.00e+00	0	31	101	1048576	60	7784
2026-01-05 21:20:46.90	332.26	5.41	-42.6	-44.0	19.9	0.00e+00	70	31	101	1048576	60	7765
2026-01-05 21:20:47.91	332.16	5.35	-42.6	-44.0	20.1	0.00e+00	0	32	101	1048576	60	7713
2026-01-05 21:20:48.92	332.07	5.29	-42.5	-43.9	20.0	0.00e+00	80	31	101	1048576	60	7622
2026-01-05 21:20:49.93	331.97	5.23	-42.5	-43.9	19.9	0.00e+00	0	31	101	1048576	60	7639
2026-01-05 21:20:50.94	331.88	5.18	-42.6	-44.0	19.8	0.00e+00	0	31	101	1048576	60	7769
2026-01-05 21:20:51.96	331.78	5.12	-42.7	-44.1	19.8	0.00e+00	0	31	101	1048576	60	7850
2026-01-05 21:20:52.97	331.69	5.06	-42.7	-44.2	19.7	0.00e+00	0	32	101	1048576	60	7927
2026-01-05 21:20:53.98	331.60	5.01	-42.7	-44.2	19.8	0.00e+00	9	31	101	1048576	60	7904
2026-01-05 21:20:54.99	331.50	4.95	-42.8	-44.2	19.8	0.00e+00	0	31	101	1048576	60	7941
