passes_logs/2026/01/05/R4.6S_Anadyr_2ch/R4.6S_Anadyr_2ch__20260105_140210_NOAA_21_JPSS-2_rec.log

#Pass ID: 20260105_140210_NOAA 21 (JPSS-2)
#Satellite: NOAA 21 (JPSS-2)
#Configuration: NOAA-21
#almurnet v.1.7.20251203
#Start time: 2026-01-05 14:02:12

#Version: 2.2.20231116
#Station: R4.6S_Anadyr_2ch
#Location: 177.4865 lon 64.73178 lat
#TLE: 1 54234U 22150A   25350.97269056  .00000057  00000+0  47676-4 0  9992
#TLE: 2 54234  98.7466 287.2282 0002043  29.8355 330.2937 14.19525482160692

#Time	Az	El	Level	Level2	SNR	BER	BlckErr	Temp	State	Recorded	gain1	gain2
2026-01-05 14:02:12.12	19.37	0.10	-51.1	-66.1	3.6	1.51e+00	0	23	0	0	60	98791
2026-01-05 14:02:13.13	19.39	0.16	-51.0	-64.0	3.5	1.52e+00	0	24	104	0	60	74906
2026-01-05 14:02:14.14	19.42	0.22	-51.0	-63.9	3.5	1.52e+00	0	24	104	0	60	74524
2026-01-05 14:02:15.15	19.44	0.28	-51.0	-64.0	3.5	1.52e+00	0	24	104	0	60	75122
2026-01-05 14:02:16.16	19.47	0.34	-51.0	-64.0	3.5	1.52e+00	0	24	104	0	60	74753
2026-01-05 14:02:17.17	19.49	0.40	-51.0	-64.0	3.5	1.52e+00	0	24	104	0	60	74732
2026-01-05 14:02:18.18	19.52	0.46	-51.0	-64.0	3.5	1.51e+00	0	24	104	0	60	74871
2026-01-05 14:02:19.19	19.54	0.52	-50.9	-63.9	3.5	1.52e+00	0	24	104	0	60	73777
2026-01-05 14:02:20.20	19.57	0.58	-50.8	-63.8	3.5	1.52e+00	0	24	104	0	60	72968
2026-01-05 14:02:21.21	19.59	0.64	-50.7	-63.7	3.5	1.52e+00	0	24	104	0	60	72089
2026-01-05 14:02:22.23	19.62	0.70	-50.5	-63.5	3.5	1.52e+00	0	24	104	0	60	70579
2026-01-05 14:02:23.24	19.64	0.76	-50.3	-63.3	3.5	1.52e+00	0	24	104	0	60	69307
2026-01-05 14:02:24.25	19.67	0.82	-50.2	-63.1	3.5	1.52e+00	0	24	104	0	60	67682
2026-01-05 14:02:25.26	19.69	0.89	-49.8	-62.8	3.5	1.51e+00	0	24	104	0	60	65148
2026-01-05 14:02:26.27	19.72	0.95	-49.6	-62.5	3.5	1.52e+00	0	25	104	0	60	63399
2026-01-05 14:02:27.28	19.75	1.01	-49.6	-62.5	3.5	1.52e+00	0	25	104	0	60	63117
2026-01-05 14:02:28.29	19.77	1.07	-49.6	-62.5	3.5	1.52e+00	0	25	104	0	60	63290
2026-01-05 14:02:29.30	19.80	1.13	-49.6	-62.4	3.5	1.52e+00	0	25	104	0	60	62735
2026-01-05 14:02:30.31	19.82	1.19	-49.6	-62.4	3.5	1.52e+00	0	25	104	0	60	62736
2026-01-05 14:02:31.33	19.85	1.25	-49.6	-62.4	3.5	1.52e+00	0	25	104	0	60	62679
2026-01-05 14:02:32.34	19.88	1.31	-49.6	-62.5	3.5	1.52e+00	0	25	104	0	60	62818
2026-01-05 14:02:33.35	19.90	1.38	-49.6	-62.4	3.5	1.52e+00	0	25	104	0	60	62626
2026-01-05 14:02:34.36	19.93	1.44	-49.6	-62.5	3.5	1.52e+00	0	25	104	0	60	62970
2026-01-05 14:02:35.37	19.96	1.50	-49.6	-62.5	3.5	1.52e+00	0	25	104	0	60	63125
2026-01-05 14:02:36.38	19.98	1.56	-49.6	-62.5	3.5	1.52e+00	0	25	104	0	60	63143
2026-01-05 14:02:37.39	20.01	1.62	-49.6	-62.5	3.5	1.52e+00	0	25	104	0	60	62939
2026-01-05 14:02:38.41	20.04	1.69	-49.6	-62.5	3.5	1.52e+00	0	25	104	0	60	62942
2026-01-05 14:02:39.42	20.06	1.75	-49.6	-62.5	3.5	1.52e+00	0	25	104	0	60	63200
2026-01-05 14:02:40.43	20.09	1.81	-49.6	-62.5	3.5	1.52e+00	0	25	104	0	60	63425
2026-01-05 14:02:41.44	20.12	1.87	-49.6	-62.5	3.5	1.52e+00	0	25	104	0	60	62983
2026-01-05 14:02:42.45	20.15	1.94	-49.6	-62.5	3.5	1.52e+00	0	25	104	0	60	62877
2026-01-05 14:02:43.46	20.17	2.00	-49.5	-61.8	3.5	1.52e+00	0	25	104	0	60	58381
2026-01-05 14:02:44.47	20.20	2.06	-49.5	-61.5	3.5	1.52e+00	0	25	104	0	60	56269
2026-01-05 14:02:45.49	20.23	2.13	-49.5	-60.9	3.5	1.51e+00	0	25	104	0	60	52509
2026-01-05 14:02:46.50	20.26	2.19	-49.4	-60.4	3.5	1.51e+00	0	25	104	0	60	49642
2026-01-05 14:02:47.51	20.28	2.25	-49.4	-60.3	3.7	1.49e+00	0	25	104	0	60	48828
2026-01-05 14:02:48.52	20.31	2.32	-49.4	-60.7	3.6	1.51e+00	0	25	104	0	60	51529
2026-01-05 14:02:49.53	20.34	2.38	-49.4	-60.7	3.6	1.51e+00	0	25	104	0	60	51585
2026-01-05 14:02:50.54	20.37	2.45	-49.4	-59.9	3.6	1.51e+00	0	25	104	0	60	46602
2026-01-05 14:02:51.55	20.40	2.51	-49.0	-57.3	5.0	8.27e-01	123	25	0	0	60	34628
2026-01-05 14:02:52.56	20.42	2.57	-48.3	-54.4	7.8	1.16e-01	123	25	104	0	60	24962
2026-01-05 14:02:53.57	20.45	2.64	-47.2	-50.9	10.9	5.13e-03	123	25	102	1048576	60	16637
2026-01-05 14:02:54.58	20.48	2.70	-46.1	-48.9	12.9	2.90e-04	123	25	102	1048576	60	13192
2026-01-05 14:02:55.60	20.51	2.77	-45.0	-47.3	14.5	2.20e-06	122	25	102	1048576	60	11035
2026-01-05 14:02:56.61	20.54	2.83	-44.0	-46.0	16.1	0.00e+00	123	25	102	1048576	60	9400
2026-01-05 14:02:57.62	20.57	2.90	-42.9	-44.6	17.5	0.00e+00	122	25	102	1048576	60	8026
2026-01-05 14:02:58.63	20.60	2.96	-42.0	-43.5	18.5	0.00e+00	123	25	102	1048576	60	7068
2026-01-05 14:02:59.64	20.63	3.03	-41.8	-43.2	18.6	0.00e+00	123	25	102	1048576	60	6833
2026-01-05 14:03:00.65	20.65	3.09	-41.5	-42.9	18.9	0.00e+00	123	25	102	1048576	60	6597
2026-01-05 14:03:01.66	20.68	3.16	-42.6	-44.2	17.7	0.00e+00	122	25	102	1048576	60	7640
2026-01-05 14:03:02.67	20.71	3.23	-42.8	-44.4	17.5	0.00e+00	121	25	102	1048576	60	7878
2026-01-05 14:03:03.68	20.74	3.29	-43.2	-44.9	16.8	0.00e+00	123	25	102	1048576	60	8304
2026-01-05 14:03:04.69	20.77	3.36	-44.5	-46.6	15.2	0.00e+00	123	25	102	1048576	60	10115
2026-01-05 14:03:05.71	20.80	3.42	-45.6	-48.3	13.3	7.00e-07	120	25	102	1048576	60	12260
2026-01-05 14:03:06.72	20.83	3.49	-46.9	-50.5	10.7	3.49e-04	123	25	102	1048576	60	15840
2026-01-05 14:03:07.73	20.86	3.56	-43.9	-45.8	16.7	2.58e-04	120	25	102	1048576	60	9180
2026-01-05 14:03:08.74	20.89	3.62	-48.5	-54.5	6.4	3.80e-06	123	25	102	1048576	60	25031
2026-01-05 14:03:09.75	20.92	3.69	-48.1	-53.7	5.1	1.11e-02	122	25	104	1048576	60	23037
2026-01-05 14:03:10.76	20.95	3.76	-43.4	-45.5	5.2	1.41e+00	0	25	104	1048576	60	8935
2026-01-05 14:03:11.78	20.98	3.83	-49.6	-62.5	3.5	4.51e-01	0	25	104	1048576	60	63460
2026-01-05 14:03:12.79	21.01	3.89	-42.9	-44.8	5.2	1.43e+00	0	25	104	1048576	60	8226
2026-01-05 14:03:13.80	21.04	3.96	-41.2	-42.5	19.5	0.00e+00	122	25	0	1048576	60	6341
2026-01-05 14:03:14.81	21.07	4.03	-40.7	-42.0	20.0	0.00e+00	123	25	0	1048576	60	5955
2026-01-05 14:03:15.82	21.11	4.10	-40.6	-41.9	20.1	0.00e+00	122	25	0	1048576	60	5888
2026-01-05 14:03:16.83	21.14	4.16	-41.0	-42.2	19.8	0.00e+00	123	25	0	1048576	60	6125
2026-01-05 14:03:17.84	21.17	4.23	-40.8	-42.0	19.9	0.00e+00	122	25	0	1048576	60	5993
2026-01-05 14:03:18.85	21.20	4.30	-40.6	-41.8	20.2	0.00e+00	122	25	0	1048576	60	5846
2026-01-05 14:03:19.87	21.23	4.37	-40.3	-41.5	20.4	0.00e+00	123	25	0	1048576	60	5653
2026-01-05 14:03:20.88	21.26	4.44	-40.2	-41.4	20.5	0.00e+00	122	25	0	1048576	60	5563
2026-01-05 14:03:21.89	21.29	4.51	-40.2	-41.4	20.6	0.00e+00	123	25	0	1048576	58	6206
2026-01-05 14:03:22.90	21.33	4.58	-40.3	-41.5	20.4	0.00e+00	122	25	0	1048576	58	6322
2026-01-05 14:03:23.91	21.36	4.65	-39.7	-40.9	21.0	0.00e+00	123	25	0	1048576	58	5873
2026-01-05 14:03:24.92	21.39	4.71	-39.7	-40.8	21.1	0.00e+00	123	25	101	1048576	58	5844
2026-01-05 14:03:25.93	21.42	4.78	-39.9	-41.0	20.9	0.00e+00	122	25	101	1048576	58	5976
2026-01-05 14:03:26.94	21.45	4.85	-39.8	-41.0	21.0	0.00e+00	121	25	101	1048576	58	5942
2026-01-05 14:03:27.95	21.49	4.92	-40.0	-41.2	20.7	0.00e+00	123	25	101	1048576	58	6102
2026-01-05 14:03:28.96	21.52	4.99	-39.9	-41.0	20.9	0.00e+00	123	25	101	1048576	58	5977
2026-01-05 14:03:29.98	21.55	5.06	-40.1	-41.3	20.7	0.00e+00	123	25	101	1048576	58	6139
2026-01-05 14:03:30.99	21.58	5.13	-39.8	-41.0	20.9	0.00e+00	123	25	101	1048576	58	5941
2026-01-05 14:03:32.00	21.62	5.21	-39.7	-40.8	21.2	0.00e+00	122	25	101	1048576	58	5825
2026-01-05 14:03:33.01	21.65	5.28	-39.7	-40.8	21.1	0.00e+00	122	25	101	1048576	58	5828
2026-01-05 14:03:34.02	21.68	5.35	-39.7	-40.8	21.1	0.00e+00	123	25	101	1048576	58	5809
2026-01-05 14:03:35.03	21.72	5.42	-39.7	-40.8	21.2	0.00e+00	120	25	101	1048576	58	5837
2026-01-05 14:03:36.04	21.75	5.49	-39.6	-40.7	21.2	0.00e+00	120	25	101	1048576	58	5754
2026-01-05 14:03:37.05	21.78	5.56	-39.5	-40.6	21.3	0.00e+00	122	25	101	1048576	58	5721
2026-01-05 14:03:38.06	21.82	5.63	-39.4	-40.5	21.4	0.00e+00	122	25	101	1048576	58	5597
2026-01-05 14:03:39.08	21.85	5.71	-39.6	-40.7	21.2	0.00e+00	122	25	101	1048576	58	5736
2026-01-05 14:03:40.09	21.88	5.78	-39.7	-40.8	21.2	0.00e+00	122	25	101	1048576	58	5828
2026-01-05 14:03:41.10	21.92	5.85	-39.6	-40.7	21.3	0.00e+00	122	25	101	1048576	58	5775
2026-01-05 14:03:42.11	21.95	5.92	-39.5	-40.6	21.4	0.00e+00	122	25	101	1048576	58	5693
2026-01-05 14:03:43.12	21.99	5.99	-39.8	-40.9	21.2	0.00e+00	120	25	101	1048576	58	5926
2026-01-05 14:03:44.13	22.02	6.07	-39.8	-40.9	21.2	0.00e+00	122	25	101	1048576	58	5921
2026-01-05 14:03:45.14	22.06	6.14	-39.3	-40.3	21.7	0.00e+00	122	25	101	1048576	58	5511
2026-01-05 14:03:46.15	22.09	6.21	-39.4	-40.5	21.5	0.00e+00	123	25	101	1048576	58	5599
2026-01-05 14:03:47.16	22.13	6.29	-39.4	-40.5	21.6	0.00e+00	123	25	101	1048576	58	5612
2026-01-05 14:03:48.18	22.16	6.36	-39.2	-40.2	21.9	0.00e+00	123	25	101	1048576	58	5460
2026-01-05 14:03:49.19	22.20	6.44	-39.1	-40.1	21.9	0.00e+00	120	25	101	1048576	56	6042
2026-01-05 14:03:50.20	22.23	6.51	-39.1	-40.2	21.9	0.00e+00	123	25	101	1048576	56	6095
2026-01-05 14:03:51.21	22.27	6.58	-39.0	-40.0	22.0	0.00e+00	123	25	101	1048576	56	5984
2026-01-05 14:03:52.22	22.30	6.66	-39.1	-40.1	21.9	0.00e+00	123	26	101	1048576	56	6063
2026-01-05 14:03:53.23	22.34	6.73	-39.1	-40.2	21.8	0.00e+00	123	25	101	1048576	56	6085
2026-01-05 14:03:54.24	22.38	6.81	-39.0	-40.0	22.1	0.00e+00	122	25	101	1048576	56	5976
2026-01-05 14:03:55.25	22.41	6.88	-39.0	-40.1	22.0	0.00e+00	122	25	101	1048576	56	6034
2026-01-05 14:03:56.26	22.45	6.96	-39.0	-40.1	22.0	0.00e+00	123	25	101	1048576	56	6025
2026-01-05 14:03:57.27	22.49	7.03	-38.9	-39.9	22.1	0.00e+00	122	25	101	1048576	56	5912
2026-01-05 14:03:58.29	22.52	7.11	-39.0	-40.0	22.1	0.00e+00	122	26	101	1048576	56	5969
2026-01-05 14:03:59.30	22.56	7.19	-39.0	-40.1	22.1	0.00e+00	123	25	101	1048576	56	6000
2026-01-05 14:04:00.31	22.60	7.26	-38.9	-39.9	22.1	0.00e+00	123	25	101	1048576	56	5911
2026-01-05 14:04:01.32	22.63	7.34	-38.8	-39.9	22.2	0.00e+00	123	26	101	1048576	56	5860
2026-01-05 14:04:02.33	22.67	7.41	-39.0	-40.0	22.1	0.00e+00	120	26	101	1048576	56	5973
2026-01-05 14:04:03.34	22.71	7.49	-38.8	-39.9	22.2	0.00e+00	122	25	101	1048576	56	5860
2026-01-05 14:04:04.35	22.75	7.57	-38.8	-39.9	22.3	0.00e+00	122	26	101	1048576	56	5882
2026-01-05 14:04:05.36	22.79	7.65	-38.7	-39.7	22.4	0.00e+00	123	25	101	1048576	56	5786
2026-01-05 14:04:06.37	22.82	7.72	-38.8	-39.8	22.3	0.00e+00	123	26	101	1048576	56	5845
2026-01-05 14:04:07.39	22.86	7.80	-38.7	-39.7	22.4	0.00e+00	122	26	101	1048576	56	5750
2026-01-05 14:04:08.40	22.90	7.88	-38.6	-39.6	22.4	0.00e+00	122	26	101	1048576	56	5689
2026-01-05 14:04:09.41	22.94	7.96	-38.6	-39.6	22.5	0.00e+00	123	25	101	1048576	56	5669
2026-01-05 14:04:10.42	22.98	8.04	-38.6	-39.6	22.5	0.00e+00	120	25	101	1048576	56	5683
2026-01-05 14:04:11.43	23.02	8.12	-38.4	-39.4	22.6	0.00e+00	123	25	101	1048576	56	5566
2026-01-05 14:04:12.44	23.06	8.19	-38.3	-39.3	22.7	0.00e+00	122	26	101	1048576	56	5530
2026-01-05 14:04:13.45	23.10	8.27	-38.5	-39.5	22.6	0.00e+00	120	26	101	1048576	56	5613
2026-01-05 14:04:14.47	23.14	8.35	-38.3	-39.3	22.7	0.00e+00	123	26	101	1048576	56	5527
2026-01-05 14:04:15.48	23.18	8.43	-38.5	-39.5	22.6	0.00e+00	122	26	101	1048576	56	5617
2026-01-05 14:04:16.49	23.22	8.51	-38.3	-39.3	22.8	0.00e+00	120	25	101	1048576	56	5472
2026-01-05 14:04:17.50	23.26	8.59	-38.2	-39.2	22.7	0.00e+00	123	26	101	1048576	54	6115
2026-01-05 14:04:18.51	23.30	8.67	-38.1	-39.0	22.9	0.00e+00	120	26	101	1048576	54	5988
2026-01-05 14:04:19.52	23.34	8.75	-38.1	-39.1	22.9	0.00e+00	123	26	101	1048576	54	6045
2026-01-05 14:04:20.53	23.38	8.83	-38.0	-39.0	22.9	0.00e+00	120	26	101	1048576	54	5991
2026-01-05 14:04:21.54	23.42	8.92	-38.0	-39.0	22.9	0.00e+00	123	26	101	1048576	54	5970
2026-01-05 14:04:22.55	23.46	9.00	-38.0	-39.0	23.0	0.00e+00	123	26	101	1048576	54	5944
2026-01-05 14:04:23.56	23.50	9.08	-38.0	-39.0	23.0	0.00e+00	120	26	101	1048576	54	5933
2026-01-05 14:04:24.58	23.54	9.16	-38.0	-39.0	23.0	0.00e+00	123	26	101	1048576	54	5966
2026-01-05 14:04:25.59	23.59	9.24	-38.0	-39.0	23.0	0.00e+00	123	26	101	1048576	54	5959
2026-01-05 14:04:26.60	23.63	9.33	-37.9	-38.9	23.0	0.00e+00	123	26	101	1048576	54	5882
2026-01-05 14:04:27.61	23.67	9.41	-37.8	-38.8	23.1	0.00e+00	123	26	101	1048576	54	5812
2026-01-05 14:04:28.62	23.71	9.49	-37.8	-38.8	23.2	0.00e+00	123	26	101	1048576	54	5814
2026-01-05 14:04:29.63	23.76	9.57	-37.9	-38.9	23.1	0.00e+00	120	26	101	1048576	54	5873
2026-01-05 14:04:30.64	23.80	9.66	-37.9	-38.9	23.1	0.00e+00	123	26	101	1048576	54	5870
2026-01-05 14:04:31.65	23.84	9.74	-38.0	-39.0	23.0	0.00e+00	123	26	101	1048576	54	5937
2026-01-05 14:04:32.66	23.89	9.83	-37.8	-38.8	23.2	0.00e+00	120	26	101	1048576	54	5797
2026-01-05 14:04:33.68	23.93	9.91	-37.8	-38.8	23.3	0.00e+00	123	26	101	1048576	54	5800
2026-01-05 14:04:34.69	23.97	10.00	-37.8	-38.7	23.2	0.00e+00	122	26	101	1048576	54	5767
2026-01-05 14:04:35.70	24.02	10.08	-37.6	-38.5	23.4	0.00e+00	122	26	101	1048576	54	5638
2026-01-05 14:04:36.71	24.06	10.17	-37.6	-38.6	23.3	0.00e+00	122	26	101	1048576	54	5666
2026-01-05 14:04:37.72	24.11	10.25	-37.6	-38.6	23.3	0.00e+00	122	26	101	1048576	54	5692
2026-01-05 14:04:38.73	24.15	10.34	-37.6	-38.5	23.4	0.00e+00	122	26	101	1048576	54	5643
2026-01-05 14:04:39.74	24.20	10.42	-37.4	-38.4	23.5	0.00e+00	123	26	101	1048576	54	5564
2026-01-05 14:04:40.75	24.24	10.51	-37.4	-38.4	23.5	0.00e+00	121	26	101	1048576	54	5564
2026-01-05 14:04:41.76	24.29	10.60	-37.6	-38.6	23.4	0.00e+00	123	26	101	1048576	54	5670
2026-01-05 14:04:42.78	24.33	10.68	-37.5	-38.4	23.5	0.00e+00	123	26	101	1048576	54	5560
2026-01-05 14:04:43.79	24.38	10.77	-37.5	-38.5	23.5	0.00e+00	120	26	101	1048576	54	5602
2026-01-05 14:04:44.80	24.42	10.86	-37.5	-38.5	23.4	0.00e+00	123	26	101	1048576	54	5625
2026-01-05 14:04:45.81	24.47	10.94	-37.4	-38.4	23.5	0.00e+00	123	26	101	1048576	54	5554
2026-01-05 14:04:46.82	24.52	11.03	-37.5	-38.5	23.4	0.00e+00	123	26	101	1048576	54	5605
2026-01-05 14:04:47.83	24.56	11.12	-37.5	-38.4	23.4	0.00e+00	122	26	101	1048576	54	5575
2026-01-05 14:04:48.84	24.61	11.21	-37.4	-38.3	23.6	0.00e+00	123	26	101	1048576	54	5503
2026-01-05 14:04:49.85	24.66	11.30	-37.4	-38.3	23.6	0.00e+00	123	26	101	1048576	54	5500
2026-01-05 14:04:50.86	24.71	11.39	-37.5	-38.4	23.6	0.00e+00	120	26	101	1048576	54	5584
2026-01-05 14:04:51.88	24.76	11.48	-37.4	-38.3	23.6	0.00e+00	122	26	101	1048576	54	5515
2026-01-05 14:04:52.89	24.80	11.57	-37.5	-38.4	23.6	0.00e+00	123	26	101	1048576	54	5562
2026-01-05 14:04:53.90	24.85	11.66	-37.4	-38.3	23.6	0.00e+00	121	26	101	1048576	54	5529
2026-01-05 14:04:54.91	24.90	11.75	-37.5	-38.4	23.5	0.00e+00	123	26	101	1048576	54	5592
2026-01-05 14:04:55.92	24.95	11.84	-37.4	-38.4	23.6	0.00e+00	123	26	101	1048576	54	5533
2026-01-05 14:04:56.93	25.00	11.93	-37.5	-38.5	23.5	0.00e+00	120	26	101	1048576	54	5598
2026-01-05 14:04:57.94	25.05	12.02	-37.3	-38.2	23.7	0.00e+00	122	26	101	1048576	54	5433
2026-01-05 14:04:58.95	25.10	12.11	-37.4	-38.3	23.7	0.00e+00	122	26	101	1048576	54	5517
2026-01-05 14:04:59.96	25.15	12.21	-37.2	-38.2	23.7	0.00e+00	123	26	101	1048576	54	5408
2026-01-05 14:05:00.97	25.20	12.30	-37.3	-38.2	23.8	0.00e+00	123	26	101	1048576	54	5466
2026-01-05 14:05:01.99	25.25	12.39	-37.3	-38.3	23.7	0.00e+00	123	26	101	1048576	54	5498
2026-01-05 14:05:03.00	25.30	12.49	-37.3	-38.2	23.8	0.00e+00	122	26	101	1048576	54	5433
2026-01-05 14:05:04.01	25.35	12.58	-37.3	-38.3	23.7	0.00e+00	120	26	101	1048576	54	5468
2026-01-05 14:05:05.02	25.40	12.67	-37.1	-38.0	24.0	0.00e+00	123	26	101	1048576	52	5962
2026-01-05 14:05:06.03	25.46	12.77	-37.2	-38.2	23.8	0.00e+00	123	26	101	1048576	52	6080
2026-01-05 14:05:07.04	25.51	12.86	-37.2	-38.1	23.9	0.00e+00	120	26	101	1048576	52	6010
2026-01-05 14:05:08.05	25.56	12.96	-37.4	-38.3	23.7	0.00e+00	122	26	101	1048576	52	6163
2026-01-05 14:05:09.06	25.61	13.05	-37.1	-38.0	24.0	0.00e+00	115	26	101	1048576	52	5955
2026-01-05 14:05:10.08	25.67	13.15	-37.1	-38.1	24.0	0.00e+00	123	26	101	1048576	52	5995
2026-01-05 14:05:11.09	25.72	13.24	-37.1	-38.0	24.0	0.00e+00	123	26	101	1048576	52	5964
2026-01-05 14:05:12.10	25.77	13.34	-37.0	-37.9	24.0	0.00e+00	120	26	101	1048576	52	5919
2026-01-05 14:05:13.11	25.83	13.44	-37.1	-38.0	24.0	0.00e+00	123	26	101	1048576	52	5956
2026-01-05 14:05:14.12	25.88	13.53	-37.1	-38.1	24.0	0.00e+00	123	26	101	1048576	52	6015
2026-01-05 14:05:15.13	25.94	13.63	-37.1	-38.0	24.0	0.00e+00	120	26	101	1048576	52	5960
2026-01-05 14:05:16.14	25.99	13.73	-37.1	-38.1	23.9	0.00e+00	123	26	101	1048576	52	5997
2026-01-05 14:05:17.16	26.05	13.83	-37.0	-37.9	24.1	0.00e+00	120	26	101	1048576	52	5902
2026-01-05 14:05:18.17	26.11	13.93	-37.1	-38.0	24.0	0.00e+00	123	26	101	1048576	52	5936
2026-01-05 14:05:19.18	26.16	14.02	-37.0	-37.9	24.1	0.00e+00	123	26	101	1048576	52	5877
2026-01-05 14:05:20.19	26.22	14.12	-36.9	-37.8	24.1	0.00e+00	122	26	101	1048576	52	5844
2026-01-05 14:05:21.20	26.27	14.22	-37.0	-37.9	24.2	0.00e+00	123	26	101	1048576	52	5923
2026-01-05 14:05:22.21	26.33	14.32	-36.9	-37.9	24.1	0.00e+00	123	26	101	1048576	52	5866
2026-01-05 14:05:23.22	26.39	14.42	-37.0	-37.9	24.1	0.00e+00	120	26	101	1048576	52	5894
2026-01-05 14:05:24.23	26.45	14.52	-37.1	-38.0	24.1	0.00e+00	123	26	101	1048576	52	5949
2026-01-05 14:05:25.24	26.51	14.63	-37.1	-38.0	24.1	0.00e+00	122	26	101	1048576	52	5949
2026-01-05 14:05:26.26	26.56	14.73	-37.1	-38.0	24.0	0.00e+00	120	26	101	1048576	52	5970
2026-01-05 14:05:27.26	26.62	14.83	-37.0	-38.0	24.1	0.00e+00	123	26	101	1048576	52	5940
2026-01-05 14:05:28.27	26.68	14.93	-37.1	-38.0	24.1	0.00e+00	120	26	101	1048576	52	5944
2026-01-05 14:05:29.29	26.74	15.04	-37.1	-38.1	24.0	0.00e+00	120	26	101	1048576	52	6010
2026-01-05 14:05:30.30	26.80	15.14	-37.0	-37.9	24.1	0.00e+00	123	26	101	1048576	52	5904
2026-01-05 14:05:31.31	26.86	15.24	-37.1	-38.0	24.0	0.00e+00	120	26	101	1048576	52	5980
2026-01-05 14:05:32.32	26.92	15.35	-37.0	-37.9	24.2	0.00e+00	123	26	101	1048576	52	5870
2026-01-05 14:05:33.33	26.99	15.45	-37.0	-37.9	24.1	0.00e+00	120	26	101	1048576	52	5901
2026-01-05 14:05:34.34	27.05	15.56	-37.0	-37.9	24.1	0.00e+00	123	26	101	1048576	52	5885
2026-01-05 14:05:35.35	27.11	15.66	-37.1	-38.0	24.0	0.00e+00	123	26	101	1048576	52	5976
2026-01-05 14:05:36.36	27.17	15.77	-37.0	-37.9	24.1	0.00e+00	120	26	101	1048576	52	5903
2026-01-05 14:05:37.38	27.23	15.87	-37.2	-38.1	23.9	0.00e+00	122	26	101	1048576	52	6035
2026-01-05 14:05:38.39	27.30	15.98	-37.2	-38.1	24.0	0.00e+00	123	26	101	1048576	52	6015
2026-01-05 14:05:39.40	27.36	16.09	-37.2	-38.1	23.9	0.00e+00	120	26	101	1048576	52	6024
2026-01-05 14:05:40.41	27.43	16.20	-37.1	-38.0	24.0	0.00e+00	123	26	101	1048576	52	5991
2026-01-05 14:05:41.42	27.49	16.30	-37.3	-38.2	23.9	0.00e+00	122	26	101	1048576	52	6089
2026-01-05 14:05:42.43	27.56	16.41	-37.0	-37.9	24.1	0.00e+00	120	26	101	1048576	52	5925
2026-01-05 14:05:43.44	27.62	16.52	-37.1	-38.0	24.0	0.00e+00	123	26	101	1048576	52	5972
2026-01-05 14:05:44.45	27.69	16.63	-37.1	-38.0	24.1	0.00e+00	123	26	101	1048576	52	5965
2026-01-05 14:05:45.46	27.75	16.74	-37.2	-38.1	23.9	0.00e+00	122	26	101	1048576	52	6018
2026-01-05 14:05:46.48	27.82	16.85	-36.9	-37.8	24.1	0.00e+00	123	26	101	1048576	52	5854
2026-01-05 14:05:47.49	27.89	16.96	-37.0	-37.9	24.1	0.00e+00	122	26	101	1048576	52	5909
2026-01-05 14:05:48.50	27.96	17.07	-37.1	-38.0	24.1	0.00e+00	121	26	101	1048576	52	5951
2026-01-05 14:05:49.51	28.02	17.18	-37.2	-38.1	24.0	0.00e+00	123	26	101	1048576	52	6035
2026-01-05 14:05:50.52	28.09	17.30	-37.0	-37.9	24.1	0.00e+00	122	26	101	1048576	52	5903
2026-01-05 14:05:51.53	28.16	17.41	-37.0	-37.9	24.1	0.00e+00	120	26	101	1048576	52	5901
2026-01-05 14:05:52.54	28.23	17.52	-37.0	-37.9	24.1	0.00e+00	123	26	101	1048576	52	5898
2026-01-05 14:05:53.55	28.30	17.64	-37.0	-37.9	24.2	0.00e+00	122	26	101	1048576	52	5893
2026-01-05 14:05:54.56	28.37	17.75	-37.1	-38.0	24.1	0.00e+00	120	26	101	1048576	52	5984
2026-01-05 14:05:55.57	28.44	17.86	-37.1	-38.0	24.1	0.00e+00	123	26	101	1048576	52	5942
2026-01-05 14:05:56.59	28.52	17.98	-37.2	-38.1	23.9	0.00e+00	123	26	101	1048576	52	6043
2026-01-05 14:05:57.60	28.59	18.10	-37.1	-38.0	24.0	0.00e+00	121	26	101	1048576	52	5979
2026-01-05 14:05:58.61	28.66	18.21	-37.2	-38.2	23.9	0.00e+00	123	26	101	1048576	52	6066
2026-01-05 14:05:59.62	28.73	18.33	-37.3	-38.2	23.8	0.00e+00	120	26	101	1048576	52	6129
2026-01-05 14:06:00.63	28.81	18.45	-37.1	-38.0	24.0	0.00e+00	122	26	101	1048576	52	5955
2026-01-05 14:06:01.64	28.88	18.56	-37.2	-38.1	23.8	0.00e+00	123	26	101	1048576	52	6022
2026-01-05 14:06:02.65	28.96	18.68	-37.2	-38.1	24.0	0.00e+00	123	26	101	1048576	52	6031
2026-01-05 14:06:03.66	29.03	18.80	-37.1	-38.0	24.0	0.00e+00	123	26	101	1048576	52	5959
2026-01-05 14:06:04.68	29.11	18.92	-37.2	-38.1	24.0	0.00e+00	123	26	101	1048576	52	6056
2026-01-05 14:06:05.69	29.18	19.04	-37.0	-37.9	24.2	0.00e+00	123	26	101	1048576	52	5888
2026-01-05 14:06:06.70	29.26	19.16	-37.2	-38.1	24.0	0.00e+00	122	26	101	1048576	52	6004
2026-01-05 14:06:07.71	29.34	19.28	-36.9	-37.8	24.1	0.00e+00	123	26	101	1048576	52	5855
2026-01-05 14:06:08.72	29.42	19.40	-36.9	-37.8	24.2	0.00e+00	123	26	101	1048576	52	5807
2026-01-05 14:06:09.73	29.50	19.52	-37.0	-37.9	23.9	0.00e+00	123	26	101	1048576	52	5907
2026-01-05 14:06:10.74	29.58	19.65	-36.8	-37.7	24.2	0.00e+00	121	26	101	1048576	52	5737
2026-01-05 14:06:11.75	29.66	19.77	-36.9	-37.8	24.2	0.00e+00	120	26	101	1048576	52	5806
2026-01-05 14:06:12.76	29.74	19.89	-36.8	-37.7	24.3	0.00e+00	122	26	101	1048576	52	5786
2026-01-05 14:06:13.78	29.82	20.02	-36.9	-37.8	24.2	0.00e+00	120	26	101	1048576	52	5839
2026-01-05 14:06:14.79	29.90	20.14	-36.8	-37.7	24.3	0.00e+00	122	26	101	1048576	52	5745
2026-01-05 14:06:15.80	29.98	20.27	-36.8	-37.7	24.2	0.00e+00	122	26	101	1048576	52	5744
2026-01-05 14:06:16.81	30.07	20.39	-36.8	-37.7	24.2	0.00e+00	120	26	101	1048576	52	5737
2026-01-05 14:06:17.82	30.15	20.52	-36.8	-37.7	24.1	0.00e+00	123	26	101	1048576	52	5785
2026-01-05 14:06:18.83	30.23	20.65	-36.5	-37.4	24.4	0.00e+00	123	26	101	1048576	52	5588
2026-01-05 14:06:19.84	30.32	20.78	-36.6	-37.5	24.4	0.00e+00	123	26	101	1048576	52	5637
2026-01-05 14:06:20.85	30.40	20.90	-36.5	-37.4	24.5	0.00e+00	122	26	101	1048576	52	5539
2026-01-05 14:06:21.86	30.49	21.03	-36.3	-37.2	24.6	0.00e+00	123	26	101	1048576	52	5438
2026-01-05 14:06:22.87	30.58	21.16	-36.3	-37.2	24.6	0.00e+00	122	26	101	1048576	52	5428
2026-01-05 14:06:23.88	30.67	21.29	-36.3	-37.1	24.6	0.00e+00	122	26	101	1048576	52	5400
2026-01-05 14:06:24.90	30.75	21.42	-36.3	-37.1	24.6	0.00e+00	123	26	101	1048576	52	5403
2026-01-05 14:06:25.91	30.84	21.55	-36.1	-36.9	24.7	0.00e+00	122	26	101	1048576	50	5914
2026-01-05 14:06:26.92	30.93	21.69	-36.1	-37.0	24.8	0.00e+00	123	26	101	1048576	50	5928
2026-01-05 14:06:27.93	31.02	21.82	-36.0	-36.9	24.9	0.00e+00	120	26	101	1048576	50	5868
2026-01-05 14:06:28.94	31.12	21.95	-36.1	-37.0	24.8	0.00e+00	122	26	101	1048576	50	5979
2026-01-05 14:06:29.95	31.21	22.09	-35.9	-36.8	25.0	0.00e+00	122	26	101	1048576	50	5838
2026-01-05 14:06:30.96	31.30	22.22	-36.0	-36.8	24.9	0.00e+00	123	26	101	1048576	50	5845
2026-01-05 14:06:31.98	31.40	22.36	-35.9	-36.7	25.0	0.00e+00	122	26	101	1048576	50	5782
2026-01-05 14:06:32.99	31.49	22.49	-35.8	-36.7	25.0	0.00e+00	123	26	101	1048576	50	5753
2026-01-05 14:06:34.00	31.59	22.63	-35.7	-36.6	25.0	0.00e+00	122	26	101	1048576	50	5699
2026-01-05 14:06:35.01	31.68	22.77	-35.7	-36.6	25.2	0.00e+00	123	26	101	1048576	50	5664
2026-01-05 14:06:36.02	31.78	22.90	-35.7	-36.5	25.2	0.00e+00	122	26	101	1048576	50	5658
2026-01-05 14:06:37.03	31.88	23.04	-35.5	-36.4	25.3	0.00e+00	122	26	101	1048576	50	5551
2026-01-05 14:06:38.04	31.97	23.18	-35.6	-36.5	25.2	0.00e+00	122	26	101	1048576	50	5596
2026-01-05 14:06:39.05	32.07	23.32	-35.7	-36.5	25.2	0.00e+00	123	26	101	1048576	50	5646
2026-01-05 14:06:40.06	32.17	23.46	-35.5	-36.3	25.3	0.00e+00	123	26	101	1048576	50	5521
2026-01-05 14:06:41.07	32.27	23.60	-35.7	-36.5	25.2	0.00e+00	123	26	101	1048576	50	5653
2026-01-05 14:06:42.09	32.38	23.74	-35.6	-36.5	25.2	0.00e+00	123	26	101	1048576	50	5631
2026-01-05 14:06:43.10	32.48	23.89	-35.6	-36.4	25.3	0.00e+00	123	26	101	1048576	50	5593
2026-01-05 14:06:44.11	32.58	24.03	-35.6	-36.5	25.3	0.00e+00	120	26	101	1048576	50	5600
2026-01-05 14:06:45.12	32.69	24.17	-35.5	-36.4	25.3	0.00e+00	122	26	101	1048576	50	5552
2026-01-05 14:06:46.13	32.79	24.32	-35.7	-36.6	25.2	0.00e+00	121	26	101	1048576	50	5664
2026-01-05 14:06:47.14	32.90	24.46	-35.6	-36.5	25.3	0.00e+00	123	26	101	1048576	50	5625
2026-01-05 14:06:48.15	33.01	24.61	-35.8	-36.7	25.2	0.00e+00	122	26	101	1048576	50	5732
2026-01-05 14:06:49.16	33.12	24.75	-35.6	-36.5	25.3	0.00e+00	122	26	101	1048576	50	5595
2026-01-05 14:06:50.18	33.23	24.90	-35.9	-36.7	25.2	0.00e+00	122	26	101	1048576	50	5775
2026-01-05 14:06:51.19	33.34	25.05	-35.8	-36.7	25.1	0.00e+00	123	26	101	1048576	50	5738
2026-01-05 14:06:52.20	33.45	25.20	-35.6	-36.4	25.2	0.00e+00	122	26	101	1048576	50	5568
2026-01-05 14:06:53.21	33.56	25.35	-35.8	-36.6	25.2	0.00e+00	123	26	101	1048576	50	5723
2026-01-05 14:06:54.22	33.67	25.50	-35.8	-36.7	25.1	0.00e+00	120	26	101	1048576	50	5751
2026-01-05 14:06:55.23	33.79	25.65	-36.1	-36.9	25.0	0.00e+00	122	26	101	1048576	50	5916
2026-01-05 14:06:56.24	33.90	25.80	-36.1	-37.0	25.0	0.00e+00	122	26	101	1048576	50	5970
2026-01-05 14:06:57.25	34.02	25.96	-36.2	-37.1	24.8	0.00e+00	120	26	101	1048576	50	6017
2026-01-05 14:06:58.26	34.14	26.11	-36.2	-37.1	24.9	0.00e+00	122	26	101	1048576	50	6039
2026-01-05 14:06:59.28	34.26	26.26	-36.3	-37.2	24.8	0.00e+00	123	26	101	1048576	50	6069
2026-01-05 14:07:00.29	34.38	26.42	-36.4	-37.3	24.7	0.00e+00	121	26	101	1048576	50	6169
2026-01-05 14:07:01.30	34.50	26.57	-36.5	-37.4	24.6	0.00e+00	123	26	101	1048576	50	6234
2026-01-05 14:07:02.31	34.62	26.73	-36.6	-37.5	24.6	0.00e+00	122	26	101	1048576	50	6327
2026-01-05 14:07:03.32	34.74	26.89	-36.7	-37.6	24.4	0.00e+00	122	26	101	1048576	50	6386
2026-01-05 14:07:04.33	34.87	27.05	-36.7	-37.5	24.6	0.00e+00	123	26	101	1048576	50	6343
2026-01-05 14:07:05.34	35.00	27.20	-36.5	-37.4	24.7	0.00e+00	120	26	101	1048576	50	6219
2026-01-05 14:07:06.35	35.12	27.36	-36.5	-37.4	24.7	0.00e+00	123	26	101	1048576	50	6254
2026-01-05 14:07:07.36	35.25	27.52	-36.5	-37.4	24.7	0.00e+00	120	26	101	1048576	50	6208
2026-01-05 14:07:08.38	35.38	27.69	-36.6	-37.5	24.6	0.00e+00	122	26	101	1048576	50	6331
2026-01-05 14:07:09.39	35.51	27.85	-36.5	-37.4	24.6	0.00e+00	123	26	101	1048576	50	6223
2026-01-05 14:07:10.40	35.64	28.01	-36.6	-37.5	24.6	0.00e+00	120	26	101	1048576	50	6313
2026-01-05 14:07:11.41	35.78	28.17	-36.6	-37.4	24.6	0.00e+00	122	26	101	1048576	50	6270
2026-01-05 14:07:12.42	35.91	28.34	-36.6	-37.5	24.5	0.00e+00	123	26	101	1048576	50	6282
2026-01-05 14:07:13.43	36.05	28.50	-36.6	-37.5	24.5	0.00e+00	120	26	101	1048576	50	6309
2026-01-05 14:07:14.44	36.18	28.67	-36.7	-37.6	24.4	0.00e+00	122	26	101	1048576	50	6419
2026-01-05 14:07:15.45	36.32	28.84	-36.8	-37.7	24.4	0.00e+00	123	26	101	1048576	50	6439
2026-01-05 14:07:16.46	36.46	29.00	-36.8	-37.7	24.3	0.00e+00	120	26	101	1048576	50	6480
2026-01-05 14:07:17.48	36.61	29.17	-36.8	-37.7	24.4	0.00e+00	123	26	101	1048576	50	6444
2026-01-05 14:07:18.49	36.75	29.34	-36.8	-37.7	24.3	0.00e+00	123	26	101	1048576	50	6480
2026-01-05 14:07:19.50	36.89	29.51	-36.7	-37.6	24.4	0.00e+00	123	26	101	1048576	50	6391
2026-01-05 14:07:20.51	37.04	29.68	-36.8	-37.7	24.4	0.00e+00	122	26	101	1048576	50	6436
2026-01-05 14:07:21.52	37.19	29.86	-36.8	-37.7	24.4	0.00e+00	120	26	101	1048576	50	6431
2026-01-05 14:07:22.53	37.34	30.03	-36.8	-37.7	24.3	0.00e+00	123	26	101	1048576	50	6470
2026-01-05 14:07:23.54	37.49	30.20	-36.5	-37.4	24.6	0.00e+00	123	26	101	1048576	50	6226
2026-01-05 14:07:24.55	37.64	30.38	-36.5	-37.4	24.6	0.00e+00	120	26	101	1048576	50	6212
2026-01-05 14:07:25.56	37.79	30.55	-36.4	-37.3	24.6	0.00e+00	122	26	101	1048576	50	6200
2026-01-05 14:07:26.58	37.95	30.73	-36.5	-37.4	24.6	0.00e+00	122	26	101	1048576	50	6258
2026-01-05 14:07:27.59	38.10	30.91	-36.6	-37.5	24.6	0.00e+00	120	26	101	1048576	50	6302
2026-01-05 14:07:28.60	38.26	31.08	-36.6	-37.6	24.5	0.00e+00	123	26	101	1048576	50	6354
2026-01-05 14:07:29.61	38.42	31.26	-36.6	-37.5	24.5	0.00e+00	122	26	101	1048576	50	6343
2026-01-05 14:07:30.62	38.59	31.44	-36.5	-37.4	24.5	0.00e+00	123	26	101	1048576	50	6230
2026-01-05 14:07:31.63	38.75	31.62	-36.7	-37.6	24.4	0.00e+00	122	26	101	1048576	50	6368
2026-01-05 14:07:32.64	38.92	31.80	-36.4	-37.3	24.7	0.00e+00	123	26	101	1048576	50	6177
2026-01-05 14:07:33.66	39.08	31.99	-36.5	-37.4	24.7	0.00e+00	123	26	101	1048576	50	6209
2026-01-05 14:07:34.67	39.25	32.17	-36.4	-37.3	24.7	0.00e+00	123	26	101	1048576	50	6176
2026-01-05 14:07:35.68	39.42	32.35	-36.7	-37.5	24.6	0.00e+00	122	26	101	1048576	50	6349
2026-01-05 14:07:36.69	39.60	32.54	-36.7	-37.6	24.5	0.00e+00	123	26	101	1048576	50	6411
2026-01-05 14:07:37.70	39.77	32.72	-36.9	-37.8	24.4	0.00e+00	123	26	101	1048576	50	6502
2026-01-05 14:07:38.71	39.95	32.91	-37.1	-38.0	24.3	0.00e+00	121	26	101	1048576	50	6671
2026-01-05 14:07:39.73	40.13	33.10	-37.2	-38.1	24.2	0.00e+00	122	26	101	1048576	50	6762
2026-01-05 14:07:40.74	40.31	33.29	-37.4	-38.3	24.0	0.00e+00	122	26	101	1048576	52	6193
2026-01-05 14:07:41.75	40.49	33.47	-37.5	-38.5	23.9	0.00e+00	122	26	101	1048576	52	6278
2026-01-05 14:07:42.76	40.68	33.66	-37.5	-38.5	24.0	0.00e+00	123	26	101	1048576	52	6280
2026-01-05 14:07:43.77	40.87	33.86	-37.7	-38.6	23.8	0.00e+00	120	26	101	1048576	52	6416
2026-01-05 14:07:44.78	41.06	34.05	-37.9	-38.8	23.7	0.00e+00	122	26	101	1048576	52	6567
2026-01-05 14:07:45.79	41.25	34.24	-37.9	-38.8	23.7	0.00e+00	123	26	101	1048576	52	6559
2026-01-05 14:07:46.80	41.44	34.43	-38.0	-38.9	23.6	0.00e+00	120	26	101	1048576	52	6607
2026-01-05 14:07:47.81	41.64	34.63	-38.2	-39.1	23.4	0.00e+00	123	26	101	1048576	52	6768
2026-01-05 14:07:48.83	41.84	34.82	-38.1	-39.1	23.4	0.00e+00	120	26	101	1048576	54	6007
2026-01-05 14:07:49.84	42.04	35.02	-38.2	-39.1	23.3	0.00e+00	122	26	101	1048576	54	6063
2026-01-05 14:07:50.85	42.24	35.22	-38.2	-39.2	23.4	0.00e+00	123	26	101	1048576	54	6104
2026-01-05 14:07:51.86	42.45	35.41	-38.2	-39.2	23.2	0.00e+00	123	26	101	1048576	54	6099
2026-01-05 14:07:52.87	42.66	35.61	-38.3	-39.2	23.3	0.00e+00	123	26	101	1048576	54	6117
2026-01-05 14:07:53.88	42.87	35.81	-38.4	-39.4	23.2	0.00e+00	122	26	101	1048576	54	6247
2026-01-05 14:07:54.89	43.08	36.01	-38.3	-39.2	23.3	0.00e+00	120	26	101	1048576	54	6126
2026-01-05 14:07:55.90	43.29	36.21	-38.4	-39.3	23.2	0.00e+00	122	26	101	1048576	54	6188
2026-01-05 14:07:56.91	43.51	36.41	-38.3	-39.2	23.2	0.00e+00	123	26	101	1048576	54	6129
2026-01-05 14:07:57.92	43.73	36.61	-38.4	-39.4	23.1	0.00e+00	122	26	101	1048576	54	6224
2026-01-05 14:07:58.93	43.96	36.82	-38.4	-39.4	23.1	0.00e+00	122	26	101	1048576	54	6239
2026-01-05 14:07:59.95	44.19	37.02	-38.7	-39.6	22.8	0.00e+00	120	26	101	1048576	54	6422
2026-01-05 14:08:00.96	44.41	37.23	-38.8	-39.7	22.8	0.00e+00	122	26	101	1048576	54	6490
2026-01-05 14:08:01.97	44.65	37.43	-39.1	-40.2	22.5	0.00e+00	123	26	101	1048576	54	6808
2026-01-05 14:08:02.98	44.88	37.64	-39.4	-40.4	22.3	0.00e+00	120	26	101	1048576	56	6263
2026-01-05 14:08:03.99	45.12	37.85	-39.3	-40.3	22.4	0.00e+00	123	26	101	1048576	56	6169
2026-01-05 14:08:05.00	45.36	38.06	-39.1	-40.1	22.4	0.00e+00	123	26	101	1048576	56	6037
2026-01-05 14:08:06.01	45.60	38.26	-39.2	-40.2	22.3	0.00e+00	123	26	101	1048576	56	6097
2026-01-05 14:08:07.02	45.85	38.47	-39.2	-40.2	22.3	0.00e+00	123	26	101	1048576	56	6134
2026-01-05 14:08:08.03	46.10	38.68	-39.3	-40.4	22.2	0.00e+00	123	26	101	1048576	56	6220
2026-01-05 14:08:09.04	46.35	38.89	-39.4	-40.5	22.2	0.00e+00	122	26	101	1048576	56	6323
2026-01-05 14:08:10.06	46.61	39.11	-39.6	-40.6	22.3	0.00e+00	122	26	101	1048576	56	6414
2026-01-05 14:08:11.07	46.87	39.32	-39.4	-40.5	22.3	0.00e+00	121	26	101	1048576	56	6309
2026-01-05 14:08:12.08	47.14	39.53	-39.2	-40.2	22.4	0.00e+00	123	26	101	1048576	56	6125
2026-01-05 14:08:13.09	47.40	39.75	-39.3	-40.3	22.4	0.00e+00	123	26	101	1048576	56	6166
2026-01-05 14:08:14.10	47.67	39.96	-38.9	-40.0	22.7	0.00e+00	123	26	101	1048576	56	5927
2026-01-05 14:08:15.11	47.95	40.17	-38.6	-39.6	22.9	0.00e+00	122	26	101	1048576	56	5679
2026-01-05 14:08:16.12	48.22	40.39	-38.7	-39.7	22.9	0.00e+00	123	26	101	1048576	56	5754
2026-01-05 14:08:17.13	48.50	40.61	-38.8	-39.8	22.9	0.00e+00	123	26	101	1048576	56	5812
2026-01-05 14:08:18.15	48.79	40.82	-38.7	-39.7	22.9	0.00e+00	122	26	101	1048576	56	5728
2026-01-05 14:08:19.16	49.08	41.04	-38.9	-39.9	22.8	0.00e+00	123	26	101	1048576	56	5904
2026-01-05 14:08:20.17	49.37	41.26	-39.2	-40.2	22.5	0.00e+00	123	26	101	1048576	56	6096
2026-01-05 14:08:21.18	49.67	41.48	-39.2	-40.2	22.5	0.00e+00	123	26	101	1048576	56	6070
2026-01-05 14:08:22.19	49.97	41.69	-38.9	-39.9	22.8	0.00e+00	123	26	101	1048576	56	5888
2026-01-05 14:08:23.20	50.27	41.91	-38.9	-39.9	22.8	0.00e+00	123	26	101	1048576	56	5872
2026-01-05 14:08:24.21	50.58	42.13	-38.7	-39.7	22.9	0.00e+00	123	26	101	1048576	56	5779
2026-01-05 14:08:25.23	50.90	42.35	-38.8	-39.8	22.8	0.00e+00	123	26	101	1048576	56	5831
2026-01-05 14:08:26.24	51.21	42.57	-39.2	-40.2	22.6	0.00e+00	122	26	101	1048576	56	6108
2026-01-05 14:08:27.25	51.53	42.79	-39.7	-40.7	22.1	0.00e+00	123	26	101	1048576	56	6489
2026-01-05 14:08:28.26	51.86	43.01	-39.8	-40.9	21.9	0.00e+00	123	26	101	1048576	56	6616
2026-01-05 14:08:29.27	52.19	43.24	-40.1	-41.2	21.7	0.00e+00	123	26	101	1048576	58	6095
2026-01-05 14:08:30.28	52.52	43.46	-40.0	-41.1	21.7	0.00e+00	120	26	101	1048576	58	6051
2026-01-05 14:08:31.29	52.86	43.68	-39.8	-40.9	22.0	0.00e+00	123	26	101	1048576	58	5869
2026-01-05 14:08:32.30	53.20	43.90	-39.6	-40.6	22.1	0.00e+00	123	26	101	1048576	58	5725
2026-01-05 14:08:33.31	53.55	44.12	-39.4	-40.4	22.4	0.00e+00	122	26	101	1048576	58	5566
2026-01-05 14:08:34.32	53.91	44.34	-39.3	-40.3	22.5	0.00e+00	122	26	101	1048576	56	6182
2026-01-05 14:08:35.34	54.27	44.57	-39.4	-40.4	22.4	0.00e+00	123	26	101	1048576	56	6238
2026-01-05 14:08:36.35	54.63	44.79	-39.3	-40.3	22.4	0.00e+00	123	26	101	1048576	56	6199
2026-01-05 14:08:37.36	55.00	45.01	-39.4	-40.4	22.4	0.00e+00	123	26	101	1048576	56	6275
2026-01-05 14:08:38.37	55.37	45.23	-39.2	-40.2	22.5	0.00e+00	123	26	101	1048576	56	6079
2026-01-05 14:08:39.38	55.75	45.45	-38.7	-39.7	23.0	0.00e+00	123	26	101	1048576	56	5729
2026-01-05 14:08:40.39	56.13	45.68	-38.6	-39.5	23.1	0.00e+00	120	26	101	1048576	56	5645
2026-01-05 14:08:41.40	56.52	45.90	-38.4	-39.4	23.1	0.00e+00	122	26	101	1048576	56	5573
2026-01-05 14:08:42.41	56.92	46.12	-38.3	-39.2	23.2	0.00e+00	123	26	101	1048576	56	5453
2026-01-05 14:08:43.43	57.32	46.34	-38.5	-39.4	23.1	0.00e+00	122	26	101	1048576	56	5584
2026-01-05 14:08:44.44	57.73	46.56	-38.5	-39.5	22.9	0.00e+00	122	26	101	1048576	56	5624
2026-01-05 14:08:45.45	58.14	46.78	-38.7	-39.7	22.8	0.00e+00	121	26	101	1048576	56	5766
2026-01-05 14:08:46.46	58.55	47.00	-38.9	-39.9	22.7	0.00e+00	123	26	101	1048576	56	5859
2026-01-05 14:08:47.47	58.98	47.22	-39.0	-40.0	22.6	0.00e+00	123	26	101	1048576	56	5969
2026-01-05 14:08:48.48	59.41	47.44	-39.0	-40.1	22.5	0.00e+00	122	26	101	1048576	56	5997
2026-01-05 14:08:49.49	59.84	47.66	-38.9	-40.0	22.5	0.00e+00	123	26	101	1048576	56	5929
2026-01-05 14:08:50.50	60.28	47.88	-38.7	-39.7	22.7	0.00e+00	120	26	101	1048576	56	5778
2026-01-05 14:08:51.51	60.73	48.09	-38.7	-39.8	22.8	0.00e+00	122	26	101	1048576	56	5797
2026-01-05 14:08:52.52	61.18	48.31	-38.7	-39.6	23.0	0.00e+00	120	26	101	1048576	56	5705
2026-01-05 14:08:53.53	61.64	48.52	-38.7	-39.6	23.0	0.00e+00	122	26	101	1048576	56	5709
2026-01-05 14:08:54.55	62.11	48.74	-38.7	-39.7	22.9	0.00e+00	123	26	101	1048576	56	5777
2026-01-05 14:08:55.56	62.58	48.95	-38.9	-39.9	22.7	0.00e+00	120	27	101	1048576	56	5872
2026-01-05 14:08:56.57	63.06	49.17	-39.1	-40.2	22.5	0.00e+00	122	26	101	1048576	56	6074
2026-01-05 14:08:57.58	63.55	49.38	-38.9	-40.0	22.6	0.00e+00	123	26	101	1048576	56	5937
2026-01-05 14:08:58.59	64.04	49.59	-38.8	-39.8	22.7	0.00e+00	120	26	101	1048576	56	5817
2026-01-05 14:08:59.60	64.54	49.80	-38.3	-39.2	23.2	0.00e+00	123	26	101	1048576	56	5448
2026-01-05 14:09:00.61	65.05	50.00	-38.5	-39.5	23.1	0.00e+00	120	26	101	1048576	56	5602
2026-01-05 14:09:01.62	65.56	50.21	-38.4	-39.4	23.2	0.00e+00	123	26	101	1048576	56	5543
2026-01-05 14:09:02.63	66.08	50.41	-38.4	-39.4	23.2	0.00e+00	123	26	101	1048576	56	5541
2026-01-05 14:09:03.65	66.61	50.62	-38.4	-39.3	23.3	0.00e+00	122	26	101	1048576	56	5507
2026-01-05 14:09:04.66	67.14	50.82	-38.1	-39.0	23.4	0.00e+00	123	26	101	1048576	54	5987
2026-01-05 14:09:05.67	67.68	51.02	-37.8	-38.7	23.5	0.00e+00	123	26	101	1048576	54	5778
2026-01-05 14:09:06.68	68.23	51.22	-37.6	-38.6	23.8	0.00e+00	122	26	101	1048576	54	5681
2026-01-05 14:09:07.69	68.79	51.41	-37.6	-38.5	23.8	0.00e+00	122	26	101	1048576	54	5639
2026-01-05 14:09:08.70	69.35	51.61	-37.4	-38.3	23.9	0.00e+00	122	26	101	1048576	54	5500
2026-01-05 14:09:09.71	69.92	51.80	-37.5	-38.4	23.9	0.00e+00	121	26	101	1048576	54	5550
2026-01-05 14:09:10.73	70.50	51.99	-37.5	-38.4	23.9	0.00e+00	122	27	101	1048576	54	5573
2026-01-05 14:09:11.74	71.09	52.18	-37.5	-38.4	23.8	0.00e+00	122	27	101	1048576	54	5584
2026-01-05 14:09:12.75	71.68	52.36	-37.8	-38.7	23.7	0.00e+00	123	26	101	1048576	54	5750
2026-01-05 14:09:13.76	72.28	52.55	-37.8	-38.7	23.5	0.00e+00	123	26	101	1048576	54	5763
2026-01-05 14:09:14.77	72.88	52.73	-37.8	-38.7	23.6	0.00e+00	123	27	101	1048576	54	5761
2026-01-05 14:09:15.78	73.50	52.90	-37.7	-38.6	23.7	0.00e+00	123	26	101	1048576	54	5702
2026-01-05 14:09:16.79	74.12	53.08	-37.7	-38.7	23.7	0.00e+00	123	26	101	1048576	54	5744
2026-01-05 14:09:17.80	74.75	53.25	-37.4	-38.3	24.0	0.00e+00	120	26	101	1048576	54	5526
2026-01-05 14:09:18.81	75.38	53.42	-37.2	-38.2	24.1	0.00e+00	123	26	101	1048576	54	5413
2026-01-05 14:09:19.83	76.03	53.59	-37.1	-38.0	24.3	0.00e+00	121	26	101	1048576	52	5940
2026-01-05 14:09:20.84	76.68	53.75	-36.9	-37.8	24.3	0.00e+00	122	26	101	1048576	52	5858
2026-01-05 14:09:21.85	77.34	53.91	-37.0	-37.9	24.2	0.00e+00	122	26	101	1048576	52	5897
2026-01-05 14:09:22.86	78.01	54.07	-37.0	-37.9	24.2	0.00e+00	122	26	101	1048576	52	5913
2026-01-05 14:09:23.87	78.68	54.22	-36.9	-37.8	24.4	0.00e+00	123	27	101	1048576	52	5813
2026-01-05 14:09:24.88	79.36	54.37	-36.8	-37.7	24.4	0.00e+00	123	27	101	1048576	52	5754
2026-01-05 14:09:25.89	80.05	54.52	-36.7	-37.7	24.1	0.00e+00	123	26	101	1048576	52	5728
2026-01-05 14:09:26.90	80.74	54.66	-36.9	-37.8	24.0	0.00e+00	123	26	101	1048576	52	5844
2026-01-05 14:09:27.91	81.44	54.80	-37.0	-37.9	24.2	0.00e+00	120	27	101	1048576	52	5902
2026-01-05 14:09:28.93	82.15	54.93	-36.9	-37.8	24.3	0.00e+00	123	27	101	1048576	52	5798
2026-01-05 14:09:29.94	82.87	55.06	-36.5	-37.4	24.5	0.00e+00	123	26	101	1048576	52	5583
2026-01-05 14:09:30.95	83.59	55.19	-36.4	-37.3	24.7	0.00e+00	120	27	101	1048576	52	5499
2026-01-05 14:09:31.96	84.31	55.31	-36.5	-37.4	24.6	0.00e+00	123	26	101	1048576	52	5559
2026-01-05 14:09:32.97	85.05	55.43	-36.7	-37.6	24.5	0.00e+00	120	26	101	1048576	52	5665
2026-01-05 14:09:33.98	85.78	55.55	-36.6	-37.5	24.6	0.00e+00	123	27	101	1048576	52	5645
2026-01-05 14:09:34.99	86.53	55.66	-36.7	-37.6	24.4	0.00e+00	123	27	101	1048576	52	5678
2026-01-05 14:09:36.00	87.28	55.76	-36.8	-37.7	24.2	0.00e+00	122	26	101	1048576	52	5741
2026-01-05 14:09:37.01	88.03	55.86	-36.6	-37.5	24.5	0.00e+00	121	27	101	1048576	52	5636
2026-01-05 14:09:38.02	88.80	55.96	-36.6	-37.6	24.6	0.00e+00	123	27	101	1048576	52	5665
2026-01-05 14:09:39.04	89.57	56.05	-36.3	-37.2	24.8	0.00e+00	122	27	101	1048576	52	5406
2026-01-05 14:09:40.05	90.34	56.13	-36.3	-37.2	24.8	0.00e+00	123	27	101	1048576	50	6102
2026-01-05 14:09:41.06	91.12	56.22	-36.4	-37.3	24.6	0.00e+00	123	26	101	1048576	50	6183
2026-01-05 14:09:42.07	91.90	56.29	-36.5	-37.4	24.6	0.00e+00	122	27	101	1048576	50	6241
2026-01-05 14:09:43.08	92.68	56.36	-36.3	-37.2	24.7	0.00e+00	122	26	101	1048576	50	6067
2026-01-05 14:09:44.09	93.47	56.43	-36.1	-36.9	24.9	0.00e+00	123	26	101	1048576	50	5915
2026-01-05 14:09:45.10	94.26	56.49	-36.0	-36.9	24.9	0.00e+00	121	26	101	1048576	50	5898
2026-01-05 14:09:46.11	95.06	56.55	-36.1	-37.0	24.8	0.00e+00	123	26	101	1048576	50	5936
2026-01-05 14:09:47.13	95.86	56.60	-36.5	-37.4	24.5	0.00e+00	123	26	101	1048576	50	6268
2026-01-05 14:09:48.14	96.66	56.64	-37.0	-37.9	24.3	0.00e+00	120	26	101	1048576	50	6629
2026-01-05 14:09:49.15	97.47	56.69	-37.2	-38.1	24.1	0.00e+00	122	26	101	1048576	52	6062
2026-01-05 14:09:50.16	98.27	56.72	-36.6	-37.5	24.6	0.00e+00	122	26	101	1048576	52	5636
2026-01-05 14:09:51.17	99.08	56.75	-36.4	-37.2	24.8	0.00e+00	123	27	101	1048576	52	5458
2026-01-05 14:09:52.18	99.89	56.77	-36.0	-36.9	25.0	0.00e+00	123	27	101	1048576	50	5909
2026-01-05 14:09:53.19	100.70	56.79	-36.3	-37.1	24.7	0.00e+00	123	26	101	1048576	50	6063
2026-01-05 14:09:54.20	101.51	56.81	-36.5	-37.4	24.6	0.00e+00	123	26	101	1048576	50	6209
2026-01-05 14:09:55.21	102.32	56.81	-36.5	-37.4	24.5	0.00e+00	122	27	101	1048576	50	6261
2026-01-05 14:09:56.23	103.14	56.82	-36.5	-37.4	24.6	0.00e+00	123	27	101	1048576	50	6222
2026-01-05 14:09:57.24	103.96	56.81	-36.5	-37.4	24.6	0.00e+00	123	27	101	1048576	50	6267
2026-01-05 14:09:58.25	104.77	56.80	-36.4	-37.3	24.8	0.00e+00	123	27	101	1048576	50	6150
2026-01-05 14:09:59.26	105.58	56.79	-36.1	-36.9	25.0	0.00e+00	123	27	101	1048576	50	5922
2026-01-05 14:10:00.27	106.39	56.77	-36.1	-36.9	25.0	0.00e+00	120	27	101	1048576	50	5926
2026-01-05 14:10:01.28	107.20	56.75	-36.5	-37.4	24.7	0.00e+00	122	27	101	1048576	50	6233
2026-01-05 14:10:02.29	108.01	56.72	-36.5	-37.4	24.7	0.00e+00	123	27	101	1048576	50	6271
2026-01-05 14:10:03.30	108.81	56.68	-36.2	-37.1	25.0	0.00e+00	123	27	101	1048576	50	6014
2026-01-05 14:10:04.31	109.62	56.64	-35.9	-36.8	25.0	0.00e+00	123	26	101	1048576	50	5795
2026-01-05 14:10:05.32	110.42	56.59	-35.8	-36.6	25.0	0.00e+00	120	27	101	1048576	50	5701
2026-01-05 14:10:06.34	111.22	56.54	-36.2	-37.1	24.8	0.00e+00	122	26	101	1048576	50	6018
2026-01-05 14:10:07.35	112.02	56.49	-36.5	-37.4	24.7	0.00e+00	123	27	101	1048576	50	6243
2026-01-05 14:10:08.36	112.81	56.42	-36.4	-37.2	24.7	0.00e+00	120	27	101	1048576	50	6132
2026-01-05 14:10:09.37	113.60	56.36	-36.3	-37.2	24.7	0.00e+00	122	27	101	1048576	50	6102
2026-01-05 14:10:10.38	114.38	56.28	-36.7	-37.6	24.5	0.00e+00	123	27	101	1048576	50	6406
2026-01-05 14:10:11.39	115.16	56.21	-36.8	-37.7	24.5	0.00e+00	120	27	101	1048576	50	6455
2026-01-05 14:10:12.40	115.94	56.12	-36.5	-37.4	24.5	0.00e+00	122	27	101	1048576	50	6238
2026-01-05 14:10:13.41	116.71	56.04	-36.3	-37.2	24.6	0.00e+00	120	26	101	1048576	50	6066
2026-01-05 14:10:14.42	117.48	55.95	-36.4	-37.3	24.4	0.00e+00	123	26	101	1048576	50	6172
2026-01-05 14:10:15.44	118.25	55.85	-37.1	-38.0	24.2	0.00e+00	122	26	101	1048576	50	6687
2026-01-05 14:10:16.45	119.00	55.75	-37.2	-38.2	24.2	0.00e+00	122	26	101	1048576	52	6087
2026-01-05 14:10:17.46	119.75	55.64	-37.2	-38.1	24.2	0.00e+00	123	27	101	1048576	52	6016
2026-01-05 14:10:18.47	120.50	55.53	-37.2	-38.1	24.2	0.00e+00	122	26	101	1048576	52	6014
2026-01-05 14:10:19.48	121.24	55.42	-37.1	-38.0	24.2	0.00e+00	121	27	101	1048576	52	5929
2026-01-05 14:10:20.49	121.97	55.30	-37.2	-38.1	24.2	0.00e+00	122	27	101	1048576	52	6003
2026-01-05 14:10:21.50	122.70	55.17	-37.4	-38.3	24.0	0.00e+00	122	27	101	1048576	52	6157
2026-01-05 14:10:22.51	123.42	55.05	-37.2	-38.1	24.1	0.00e+00	120	26	101	1048576	52	6045
2026-01-05 14:10:23.53	124.14	54.91	-37.1	-38.0	24.2	0.00e+00	123	27	101	1048576	52	5984
2026-01-05 14:10:24.54	124.84	54.78	-37.2	-38.1	24.1	0.00e+00	122	27	101	1048576	52	6021
2026-01-05 14:10:25.55	125.54	54.64	-37.0	-37.9	24.3	0.00e+00	120	27	101	1048576	52	5894
2026-01-05 14:10:26.56	126.24	54.50	-36.7	-37.5	24.7	0.00e+00	123	26	101	1048576	52	5656
2026-01-05 14:10:27.57	126.92	54.35	-36.1	-37.0	25.1	0.00e+00	123	26	101	1048576	52	5303
2026-01-05 14:10:28.58	127.60	54.20	-36.3	-37.1	24.8	0.00e+00	123	26	101	1048576	50	6051
2026-01-05 14:10:29.59	128.28	54.05	-36.7	-37.5	24.7	0.00e+00	122	26	101	1048576	50	6340
2026-01-05 14:10:30.60	128.94	53.89	-36.8	-37.7	24.5	0.00e+00	120	26	101	1048576	50	6465
2026-01-05 14:10:31.61	129.60	53.73	-37.3	-38.3	24.1	0.00e+00	123	26	101	1048576	52	6155
2026-01-05 14:10:32.63	130.26	53.56	-37.5	-38.5	23.9	0.00e+00	116	27	101	1048576	52	6309
2026-01-05 14:10:33.64	130.90	53.40	-37.7	-38.7	23.5	0.00e+00	120	27	101	1048576	52	6432
2026-01-05 14:10:34.65	131.54	53.23	-37.7	-38.7	23.7	0.00e+00	122	27	101	1048576	52	6428
2026-01-05 14:10:35.66	132.16	53.05	-37.6	-38.6	23.9	0.00e+00	123	26	101	1048576	52	6352
2026-01-05 14:10:36.67	132.79	52.88	-37.6	-38.6	23.9	0.00e+00	123	27	101	1048576	52	6357
2026-01-05 14:10:37.68	133.40	52.70	-38.1	-39.1	23.5	0.00e+00	122	27	101	1048576	52	6775
2026-01-05 14:10:38.69	134.01	52.52	-38.4	-39.4	23.3	0.00e+00	121	26	101	1048576	54	6207
2026-01-05 14:10:39.70	134.60	52.34	-38.3	-39.3	23.3	0.00e+00	122	26	101	1048576	54	6192
2026-01-05 14:10:40.71	135.20	52.15	-38.1	-39.0	23.3	0.00e+00	123	26	101	1048576	54	5987
2026-01-05 14:10:41.72	135.78	51.96	-37.8	-38.8	23.3	0.00e+00	123	26	101	1048576	54	5795
2026-01-05 14:10:42.74	136.36	51.77	-37.5	-38.4	23.6	0.00e+00	122	26	101	1048576	54	5591
2026-01-05 14:10:43.75	136.93	51.58	-37.4	-38.4	23.7	0.00e+00	123	26	101	1048576	54	5538
2026-01-05 14:10:44.76	137.50	51.38	-37.7	-38.7	23.6	0.00e+00	122	26	101	1048576	54	5762
2026-01-05 14:10:45.77	138.05	51.18	-38.0	-39.0	23.4	0.00e+00	122	26	101	1048576	54	5961
2026-01-05 14:10:46.78	138.60	50.99	-38.4	-39.4	23.2	0.00e+00	123	27	101	1048576	54	6229
2026-01-05 14:10:47.79	139.14	50.79	-38.4	-39.4	23.2	0.00e+00	122	27	101	1048576	54	6228
2026-01-05 14:10:48.80	139.67	50.58	-38.7	-39.7	22.9	0.00e+00	123	27	101	1048576	54	6471
2026-01-05 14:10:49.81	140.20	50.38	-38.9	-39.9	22.8	0.00e+00	123	26	101	1048576	54	6601
2026-01-05 14:10:50.82	140.72	50.17	-38.6	-39.6	23.1	0.00e+00	123	26	101	1048576	54	6386
2026-01-05 14:10:51.84	141.24	49.97	-38.3	-39.3	23.2	0.00e+00	123	27	101	1048576	54	6152
2026-01-05 14:10:52.85	141.74	49.76	-38.4	-39.4	23.2	0.00e+00	120	27	101	1048576	54	6223
2026-01-05 14:10:53.86	142.24	49.55	-38.4	-39.4	23.2	0.00e+00	123	27	101	1048576	54	6225
2026-01-05 14:10:54.87	142.74	49.34	-38.6	-39.6	23.1	0.00e+00	123	26	101	1048576	54	6379
2026-01-05 14:10:55.88	143.22	49.12	-38.7	-39.7	22.9	0.00e+00	123	27	101	1048576	54	6466
2026-01-05 14:10:56.89	143.70	48.91	-38.7	-39.7	22.6	0.00e+00	122	27	101	1048576	54	6462
2026-01-05 14:10:57.90	144.17	48.70	-38.8	-39.8	22.8	0.00e+00	122	27	101	1048576	54	6546
2026-01-05 14:10:58.91	144.64	48.48	-38.5	-39.5	22.9	0.00e+00	120	27	101	1048576	54	6312
2026-01-05 14:10:59.93	145.10	48.26	-38.4	-39.4	22.9	0.00e+00	123	27	101	1048576	54	6207
2026-01-05 14:11:00.94	145.56	48.05	-38.3	-39.2	23.2	0.00e+00	123	27	101	1048576	54	6118
2026-01-05 14:11:01.95	146.00	47.83	-37.7	-38.6	23.9	0.00e+00	120	27	101	1048576	54	5690
2026-01-05 14:11:02.96	146.44	47.61	-37.6	-38.5	23.9	0.00e+00	123	27	101	1048576	54	5609
2026-01-05 14:11:03.97	146.88	47.39	-37.5	-38.4	24.0	0.00e+00	122	27	101	1048576	54	5536
2026-01-05 14:11:04.98	147.31	47.17	-37.9	-38.8	23.5	0.00e+00	123	27	101	1048576	54	5794
2026-01-05 14:11:05.99	147.73	46.95	-38.8	-39.7	22.6	0.00e+00	122	27	101	1048576	54	6497
2026-01-05 14:11:07.00	148.15	46.73	-39.6	-40.6	21.9	0.00e+00	122	27	101	1048576	56	6413
2026-01-05 14:11:08.01	148.56	46.51	-39.7	-40.8	21.5	0.00e+00	120	27	101	1048576	56	6530
2026-01-05 14:11:09.02	148.96	46.29	-39.2	-40.3	22.0	0.00e+00	123	27	101	1048576	56	6140
2026-01-05 14:11:10.04	149.37	46.06	-38.7	-39.6	22.6	0.00e+00	123	27	101	1048576	56	5724
2026-01-05 14:11:11.05	149.76	45.84	-38.7	-39.7	22.6	0.00e+00	120	27	101	1048576	56	5761
2026-01-05 14:11:12.06	150.15	45.62	-39.0	-40.0	22.7	0.00e+00	123	27	101	1048576	56	5953
2026-01-05 14:11:13.07	150.53	45.40	-38.8	-39.8	23.0	0.00e+00	120	27	101	1048576	56	5805
2026-01-05 14:11:14.08	150.91	45.17	-39.0	-40.0	22.8	0.00e+00	123	27	101	1048576	56	5936
2026-01-05 14:11:15.09	151.28	44.95	-39.5	-40.5	22.3	0.00e+00	123	27	101	1048576	56	6343
2026-01-05 14:11:16.10	151.65	44.73	-39.9	-41.0	21.9	0.00e+00	123	27	101	1048576	56	6711
2026-01-05 14:11:17.11	152.02	44.51	-40.1	-41.2	21.7	0.00e+00	123	27	101	1048576	56	6822
2026-01-05 14:11:18.12	152.37	44.28	-39.6	-40.6	22.1	0.00e+00	123	27	101	1048576	58	5690
2026-01-05 14:11:19.14	152.73	44.06	-38.9	-39.9	22.3	0.00e+00	123	27	101	1048576	56	5886
2026-01-05 14:11:20.15	153.08	43.84	-38.5	-39.5	22.6	0.00e+00	120	27	101	1048576	56	5622
2026-01-05 14:11:21.16	153.42	43.61	-38.3	-39.3	23.1	0.00e+00	123	27	101	1048576	56	5500
2026-01-05 14:11:22.17	153.76	43.39	-38.6	-39.5	23.1	0.00e+00	123	27	101	1048576	56	5651
2026-01-05 14:11:23.18	154.09	43.17	-38.7	-39.7	23.0	0.00e+00	120	27	101	1048576	56	5755
2026-01-05 14:11:24.19	154.42	42.95	-39.3	-40.3	22.4	0.00e+00	123	27	101	1048576	56	6193
2026-01-05 14:11:25.20	154.75	42.73	-39.6	-40.7	22.0	0.00e+00	122	27	101	1048576	56	6463
2026-01-05 14:11:26.21	155.07	42.51	-39.9	-40.9	21.8	0.00e+00	123	27	101	1048576	56	6631
2026-01-05 14:11:27.23	155.39	42.28	-40.0	-41.1	21.8	0.00e+00	123	27	101	1048576	56	6769
2026-01-05 14:11:28.24	155.70	42.06	-40.0	-41.0	21.8	0.00e+00	123	27	101	1048576	58	5993
2026-01-05 14:11:29.25	156.01	41.84	-40.1	-41.2	21.5	0.00e+00	123	27	101	1048576	58	6098
2026-01-05 14:11:30.26	156.31	41.62	-40.0	-41.2	21.5	0.00e+00	123	27	101	1048576	58	6093
2026-01-05 14:11:31.27	156.61	41.40	-39.9	-41.0	21.8	0.00e+00	120	27	101	1048576	58	5975
2026-01-05 14:11:32.28	156.91	41.18	-39.5	-40.5	22.3	0.00e+00	123	27	101	1048576	58	5635
2026-01-05 14:11:33.29	157.20	40.97	-39.1	-40.2	22.5	0.00e+00	123	27	101	1048576	58	5410
2026-01-05 14:11:34.30	157.49	40.75	-38.7	-39.7	22.9	0.00e+00	120	27	101	1048576	56	5738
2026-01-05 14:11:35.31	157.77	40.53	-38.9	-39.9	22.8	0.00e+00	123	27	101	1048576	56	5892
2026-01-05 14:11:36.32	158.05	40.31	-39.2	-40.2	22.5	0.00e+00	120	27	101	1048576	56	6104
2026-01-05 14:11:37.34	158.33	40.10	-39.6	-40.6	22.2	0.00e+00	120	27	101	1048576	56	6423
2026-01-05 14:11:38.35	158.61	39.88	-39.4	-40.5	22.3	0.00e+00	123	27	101	1048576	56	6297
2026-01-05 14:11:39.36	158.88	39.67	-39.2	-40.2	22.5	0.00e+00	123	27	101	1048576	56	6104
2026-01-05 14:11:40.37	159.14	39.45	-38.7	-39.7	23.0	0.00e+00	123	27	101	1048576	56	5777
2026-01-05 14:11:41.38	159.41	39.24	-38.5	-39.5	23.2	0.00e+00	123	27	101	1048576	56	5612
2026-01-05 14:11:42.39	159.67	39.03	-38.2	-39.2	23.4	0.00e+00	122	27	101	1048576	56	5434
2026-01-05 14:11:43.40	159.92	38.81	-37.9	-38.8	23.7	0.00e+00	122	27	101	1048576	54	5844
2026-01-05 14:11:44.41	160.18	38.60	-37.9	-38.8	23.7	0.00e+00	122	27	101	1048576	54	5818
2026-01-05 14:11:45.42	160.43	38.39	-37.9	-38.9	23.5	0.00e+00	123	27	101	1048576	54	5875
2026-01-05 14:11:46.44	160.67	38.18	-38.1	-39.1	23.4	0.00e+00	123	27	101	1048576	54	6005
2026-01-05 14:11:47.45	160.92	37.97	-37.7	-38.6	23.7	0.00e+00	122	27	101	1048576	54	5711
2026-01-05 14:11:48.46	161.16	37.76	-37.8	-38.7	23.6	0.00e+00	123	27	101	1048576	54	5788
2026-01-05 14:11:49.47	161.40	37.55	-37.8	-38.7	23.7	0.00e+00	123	27	101	1048576	54	5766
2026-01-05 14:11:50.48	161.63	37.35	-37.7	-38.6	23.9	0.00e+00	121	27	101	1048576	54	5706
2026-01-05 14:11:51.49	161.86	37.14	-37.6	-38.6	23.8	0.00e+00	122	27	101	1048576	54	5677
2026-01-05 14:11:52.50	162.09	36.93	-37.6	-38.5	23.8	0.00e+00	122	27	101	1048576	54	5647
2026-01-05 14:11:53.51	162.32	36.73	-37.7	-38.7	23.7	0.00e+00	120	27	101	1048576	54	5742
2026-01-05 14:11:54.52	162.54	36.53	-37.7	-38.7	23.7	0.00e+00	123	27	101	1048576	54	5727
2026-01-05 14:11:55.53	162.76	36.32	-37.7	-38.7	23.8	0.00e+00	122	27	101	1048576	54	5732
2026-01-05 14:11:56.54	162.98	36.12	-37.3	-38.2	24.1	0.00e+00	122	27	101	1048576	54	5454
2026-01-05 14:11:57.55	163.20	35.92	-37.2	-38.1	24.2	0.00e+00	123	27	101	1048576	52	6024
2026-01-05 14:11:58.56	163.41	35.72	-37.0	-37.9	24.4	0.00e+00	122	27	101	1048576	52	5874
2026-01-05 14:11:59.57	163.62	35.52	-37.1	-37.9	24.3	0.00e+00	122	27	101	1048576	52	5923
2026-01-05 14:12:00.59	163.83	35.32	-37.2	-38.1	24.1	0.00e+00	123	27	101	1048576	52	6027
2026-01-05 14:12:01.60	164.03	35.12	-37.5	-38.5	23.6	0.00e+00	123	27	101	1048576	52	6293
2026-01-05 14:12:02.61	164.24	34.92	-38.1	-39.0	23.1	0.00e+00	122	27	101	1048576	52	6726
2026-01-05 14:12:03.62	164.44	34.73	-38.3	-39.4	22.8	0.00e+00	123	27	101	1048576	54	6210
2026-01-05 14:12:04.63	164.63	34.53	-38.4	-39.4	22.5	0.00e+00	123	27	101	1048576	54	6271
2026-01-05 14:12:05.64	164.83	34.33	-38.2	-39.2	22.7	0.00e+00	122	27	101	1048576	54	6116
2026-01-05 14:12:06.65	165.02	34.14	-38.3	-39.3	22.9	0.00e+00	122	27	101	1048576	54	6171
2026-01-05 14:12:07.66	165.22	33.95	-37.8	-38.7	23.4	0.00e+00	123	27	101	1048576	54	5790
2026-01-05 14:12:08.67	165.40	33.76	-37.5	-38.4	23.7	0.00e+00	122	27	101	1048576	54	5568
2026-01-05 14:12:09.68	165.59	33.56	-37.3	-38.3	23.8	0.00e+00	120	27	101	1048576	54	5500
2026-01-05 14:12:10.70	165.78	33.37	-37.4	-38.4	23.9	0.00e+00	123	27	101	1048576	54	5549
2026-01-05 14:12:11.71	165.96	33.18	-37.4	-38.4	23.9	0.00e+00	123	27	101	1048576	54	5540
2026-01-05 14:12:12.72	166.14	32.99	-37.6	-38.5	23.7	0.00e+00	123	27	101	1048576	54	5657
2026-01-05 14:12:13.73	166.32	32.81	-37.6	-38.6	23.6	0.00e+00	123	27	101	1048576	54	5685
2026-01-05 14:12:14.74	166.50	32.62	-37.8	-38.8	23.4	0.00e+00	120	27	101	1048576	54	5833
2026-01-05 14:12:15.75	166.67	32.43	-37.8	-38.7	23.5	0.00e+00	123	27	101	1048576	54	5790
2026-01-05 14:12:16.76	166.84	32.25	-37.8	-38.8	23.6	0.00e+00	122	27	101	1048576	54	5816
2026-01-05 14:12:17.77	167.01	32.06	-37.6	-38.6	23.7	0.00e+00	120	27	101	1048576	54	5691
2026-01-05 14:12:18.79	167.19	31.88	-37.4	-38.3	24.0	0.00e+00	122	27	101	1048576	54	5499
2026-01-05 14:12:19.80	167.35	31.70	-37.3	-38.2	24.0	0.00e+00	123	27	101	1048576	54	5454
2026-01-05 14:12:20.81	167.52	31.51	-37.2	-38.1	24.1	0.00e+00	120	27	101	1048576	52	6030
2026-01-05 14:12:21.82	167.68	31.33	-36.8	-37.7	24.3	0.00e+00	123	27	101	1048576	52	5771
2026-01-05 14:12:22.83	167.84	31.15	-36.7	-37.6	24.4	0.00e+00	120	27	101	1048576	52	5693
2026-01-05 14:12:23.84	168.00	30.97	-36.8	-37.7	24.4	0.00e+00	123	27	101	1048576	52	5733
2026-01-05 14:12:24.85	168.16	30.80	-36.3	-37.2	24.5	0.00e+00	122	27	101	1048576	52	5452
2026-01-05 14:12:25.86	168.32	30.62	-36.4	-37.3	24.3	0.00e+00	123	27	101	1048576	52	5498
2026-01-05 14:12:26.87	168.47	30.44	-36.4	-37.3	24.3	0.00e+00	123	27	101	1048576	52	5524
2026-01-05 14:12:27.88	168.63	30.27	-36.5	-37.4	24.4	0.00e+00	122	27	101	1048576	52	5582
2026-01-05 14:12:28.89	168.78	30.09	-36.4	-37.3	24.5	0.00e+00	123	27	101	1048576	52	5505
2026-01-05 14:12:29.90	168.93	29.92	-36.2	-37.1	24.5	0.00e+00	123	27	101	1048576	52	5386
2026-01-05 14:12:30.91	169.08	29.74	-36.2	-37.1	24.6	0.00e+00	123	27	101	1048576	52	5370
2026-01-05 14:12:31.92	169.22	29.57	-36.1	-37.0	24.6	0.00e+00	122	27	101	1048576	50	5963
2026-01-05 14:12:32.94	169.37	29.40	-36.2	-37.1	24.6	0.00e+00	120	27	101	1048576	50	6017
2026-01-05 14:12:33.95	169.51	29.23	-36.3	-37.2	24.4	0.00e+00	123	27	101	1048576	50	6082
2026-01-05 14:12:34.96	169.66	29.06	-36.5	-37.4	24.3	0.00e+00	123	27	101	1048576	50	6218
2026-01-05 14:12:35.97	169.80	28.89	-36.5	-37.3	24.5	0.00e+00	123	27	101	1048576	50	6200
2026-01-05 14:12:36.98	169.94	28.72	-36.4	-37.3	24.5	0.00e+00	122	27	101	1048576	50	6188
2026-01-05 14:12:37.99	170.08	28.55	-36.5	-37.5	24.5	0.00e+00	120	27	101	1048576	50	6287
2026-01-05 14:12:39.00	170.21	28.39	-36.5	-37.5	24.5	0.00e+00	122	27	101	1048576	50	6280
2026-01-05 14:12:40.01	170.35	28.22	-36.6	-37.5	24.5	0.00e+00	123	27	101	1048576	50	6310
2026-01-05 14:12:41.02	170.48	28.06	-36.7	-37.6	24.5	0.00e+00	122	27	101	1048576	50	6357
2026-01-05 14:12:42.03	170.62	27.89	-36.5	-37.4	24.6	0.00e+00	122	27	101	1048576	50	6271
2026-01-05 14:12:43.04	170.75	27.73	-36.6	-37.5	24.6	0.00e+00	122	27	101	1048576	50	6306
2026-01-05 14:12:44.06	170.88	27.56	-36.6	-37.5	24.5	0.00e+00	122	27	101	1048576	50	6326
2026-01-05 14:12:45.07	171.01	27.40	-36.4	-37.3	24.7	0.00e+00	123	27	101	1048576	50	6189
2026-01-05 14:12:46.08	171.14	27.24	-36.2	-37.1	24.8	0.00e+00	123	27	101	1048576	50	6033
2026-01-05 14:12:47.09	171.26	27.08	-36.1	-36.9	25.0	0.00e+00	120	27	101	1048576	50	5900
2026-01-05 14:12:48.10	171.39	26.92	-36.0	-36.9	25.0	0.00e+00	123	27	101	1048576	50	5897
2026-01-05 14:12:49.11	171.51	26.76	-36.0	-36.9	24.9	0.00e+00	123	27	101	1048576	50	5884
2026-01-05 14:12:50.12	171.63	26.61	-36.0	-36.9	25.0	0.00e+00	122	27	101	1048576	50	5869
2026-01-05 14:12:51.14	171.76	26.45	-35.9	-36.8	25.0	0.00e+00	123	27	101	1048576	50	5807
2026-01-05 14:12:52.15	171.88	26.29	-36.0	-36.8	25.0	0.00e+00	123	27	101	1048576	50	5853
2026-01-05 14:12:53.16	172.00	26.14	-35.9	-36.8	25.0	0.00e+00	123	27	101	1048576	50	5809
2026-01-05 14:12:54.17	172.12	25.98	-35.9	-36.7	25.1	0.00e+00	120	27	101	1048576	50	5768
2026-01-05 14:12:55.18	172.23	25.83	-35.9	-36.7	25.1	0.00e+00	123	27	101	1048576	50	5791
2026-01-05 14:12:56.19	172.35	25.68	-35.8	-36.6	25.2	0.00e+00	123	27	101	1048576	50	5702
2026-01-05 14:12:57.20	172.46	25.52	-35.7	-36.6	25.2	0.00e+00	123	27	101	1048576	50	5678
2026-01-05 14:12:58.21	172.58	25.37	-35.9	-36.7	25.2	0.00e+00	122	27	101	1048576	50	5783
2026-01-05 14:12:59.22	172.69	25.22	-35.6	-36.4	25.3	0.00e+00	120	27	101	1048576	50	5594
2026-01-05 14:13:00.24	172.80	25.07	-35.5	-36.3	25.4	0.00e+00	123	27	101	1048576	50	5521
2026-01-05 14:13:01.25	172.92	24.92	-35.7	-36.5	25.2	0.00e+00	120	27	101	1048576	50	5647
2026-01-05 14:13:02.26	173.03	24.77	-35.7	-36.6	25.1	0.00e+00	123	27	101	1048576	50	5698
2026-01-05 14:13:03.27	173.13	24.62	-35.7	-36.6	25.1	0.00e+00	123	27	101	1048576	50	5669
2026-01-05 14:13:04.28	173.24	24.48	-35.9	-36.7	25.0	0.00e+00	120	27	101	1048576	50	5790
2026-01-05 14:13:05.29	173.35	24.33	-35.9	-36.8	25.1	0.00e+00	120	27	101	1048576	50	5830
2026-01-05 14:13:06.30	173.46	24.19	-36.0	-36.9	24.9	0.00e+00	123	27	101	1048576	50	5891
2026-01-05 14:13:07.31	173.56	24.04	-36.0	-36.9	25.0	0.00e+00	120	27	101	1048576	50	5879
2026-01-05 14:13:08.33	173.67	23.90	-36.2	-37.0	24.8	0.00e+00	122	27	101	1048576	50	5994
2026-01-05 14:13:09.34	173.77	23.75	-36.2	-37.1	24.8	0.00e+00	123	27	101	1048576	50	6002
2026-01-05 14:13:10.35	173.87	23.61	-36.1	-37.0	24.9	0.00e+00	120	27	101	1048576	50	5944
2026-01-05 14:13:11.36	173.97	23.47	-36.3	-37.2	24.8	0.00e+00	122	27	101	1048576	50	6095
2026-01-05 14:13:12.37	174.07	23.33	-36.4	-37.3	24.6	0.00e+00	123	27	101	1048576	50	6141
2026-01-05 14:13:13.38	174.17	23.18	-36.2	-37.1	24.9	0.00e+00	122	27	101	1048576	50	6030
2026-01-05 14:13:14.39	174.27	23.04	-36.4	-37.3	24.7	0.00e+00	123	27	101	1048576	50	6149
2026-01-05 14:13:15.40	174.37	22.91	-36.4	-37.3	24.7	0.00e+00	120	27	101	1048576	50	6137
2026-01-05 14:13:16.41	174.47	22.77	-36.5	-37.4	24.6	0.00e+00	123	27	101	1048576	50	6212
2026-01-05 14:13:17.43	174.56	22.63	-36.4	-37.3	24.7	0.00e+00	123	27	101	1048576	50	6163
2026-01-05 14:13:18.44	174.66	22.49	-36.5	-37.3	24.6	0.00e+00	120	27	101	1048576	50	6194
2026-01-05 14:13:19.45	174.76	22.35	-36.4	-37.3	24.6	0.00e+00	122	27	101	1048576	50	6183
2026-01-05 14:13:20.46	174.85	22.22	-36.5	-37.4	24.6	0.00e+00	122	27	101	1048576	50	6223
2026-01-05 14:13:21.47	174.94	22.08	-36.4	-37.2	24.5	0.00e+00	123	27	101	1048576	50	6130
2026-01-05 14:13:22.48	175.03	21.95	-36.4	-37.3	24.5	0.00e+00	123	27	101	1048576	50	6195
2026-01-05 14:13:23.49	175.13	21.81	-36.5	-37.4	24.4	0.00e+00	123	27	101	1048576	50	6214
2026-01-05 14:13:24.50	175.22	21.68	-36.6	-37.5	24.3	0.00e+00	123	27	101	1048576	50	6285
2026-01-05 14:13:25.51	175.31	21.55	-36.5	-37.4	24.4	0.00e+00	120	27	101	1048576	50	6253
2026-01-05 14:13:26.52	175.40	21.41	-36.4	-37.4	24.4	0.00e+00	123	27	101	1048576	50	6212
2026-01-05 14:13:27.54	175.49	21.28	-36.4	-37.3	24.5	0.00e+00	123	27	101	1048576	50	6173
2026-01-05 14:13:28.55	175.57	21.15	-36.4	-37.3	24.5	0.00e+00	122	27	101	1048576	50	6172
2026-01-05 14:13:29.56	175.66	21.02	-36.2	-37.1	24.6	0.00e+00	120	27	101	1048576	50	6049
2026-01-05 14:13:30.57	175.75	20.89	-36.2	-37.1	24.7	0.00e+00	122	27	101	1048576	50	6008
2026-01-05 14:13:31.58	175.83	20.76	-36.2	-37.1	24.7	0.00e+00	123	27	101	1048576	50	6016
2026-01-05 14:13:32.59	175.92	20.63	-36.2	-37.1	24.7	0.00e+00	122	27	101	1048576	50	5996
2026-01-05 14:13:33.60	176.00	20.50	-36.0	-36.9	24.9	0.00e+00	122	27	101	1048576	50	5890
2026-01-05 14:13:34.61	176.09	20.38	-35.8	-36.7	25.0	0.00e+00	123	27	101	1048576	50	5747
2026-01-05 14:13:35.63	176.17	20.25	-35.8	-36.7	25.0	0.00e+00	123	27	101	1048576	50	5738
2026-01-05 14:13:36.64	176.25	20.12	-35.8	-36.6	25.1	0.00e+00	123	27	101	1048576	50	5699
2026-01-05 14:13:37.65	176.34	20.00	-35.8	-36.7	24.9	0.00e+00	120	27	101	1048576	50	5738
