passes_logs/2026/01/05/R4.6S_Anadyr_2ch/R4.6S_Anadyr_2ch__20260105_203938_FENGYUN_3E_rec.log

#Pass ID: 20260105_203938_FENGYUN 3E
#Satellite: FENGYUN 3E
#Configuration: FENGYUN 3E
#almurnet v.1.7.20251203
#Start time: 2026-01-05 20:39:39

#Version: 2.2.20231116
#Station: R4.6S_Anadyr_2ch
#Location: 177.4865 lon 64.73178 lat
#TLE: 1 49008U 21062A   25350.97288215  .00000176  00000+0  10353-3 0  9997
#TLE: 2 49008  98.7477 351.4440 0000638 234.3856 125.7261 14.19881381230726

#Time	Az	El	Level	Level2	SNR	BER	BlckErr	Temp	State	Recorded	gain1	gain2
2026-01-05 20:39:39.06	25.80	0.05	-51.1	-66.1	3.6	1.51e+00	0	29	0	0	60	98871
2026-01-05 20:39:40.07	25.76	0.11	-50.8	-62.2	3.6	8.45e-01	0	30	104	0	60	63752
2026-01-05 20:39:41.08	25.72	0.17	-50.8	-62.2	3.6	8.46e-01	0	30	104	0	60	63229
2026-01-05 20:39:42.09	25.68	0.23	-50.7	-62.2	3.6	8.45e-01	0	30	104	0	60	63607
2026-01-05 20:39:43.10	25.64	0.28	-50.8	-62.2	3.6	8.46e-01	0	30	104	0	60	63662
2026-01-05 20:39:44.11	25.60	0.34	-50.6	-62.3	3.6	8.46e-01	0	30	104	0	60	63928
2026-01-05 20:39:45.13	25.56	0.40	-50.8	-62.2	3.6	8.44e-01	0	30	104	0	60	63686
2026-01-05 20:39:46.14	25.52	0.46	-50.8	-62.2	3.6	8.45e-01	0	30	104	0	60	63580
2026-01-05 20:39:47.15	25.48	0.52	-50.9	-62.3	3.6	8.45e-01	0	30	104	0	60	64491
2026-01-05 20:39:48.16	25.44	0.58	-50.7	-62.3	3.6	8.46e-01	0	30	104	0	60	64430
2026-01-05 20:39:49.17	25.40	0.63	-50.9	-62.3	3.6	8.46e-01	0	30	104	0	60	64359
2026-01-05 20:39:50.18	25.36	0.69	-50.8	-62.3	3.6	8.45e-01	0	30	104	0	60	64532
2026-01-05 20:39:51.19	25.32	0.75	-50.8	-62.3	3.6	8.46e-01	0	31	104	0	60	64618
2026-01-05 20:39:52.20	25.28	0.81	-50.8	-62.3	3.6	8.44e-01	0	30	104	0	60	64088
2026-01-05 20:39:53.22	25.24	0.87	-50.8	-62.2	3.6	8.45e-01	0	30	104	0	60	63655
2026-01-05 20:39:54.23	25.20	0.93	-50.7	-62.1	3.6	8.45e-01	0	30	104	0	60	62682
2026-01-05 20:39:55.24	25.16	0.99	-50.5	-62.0	3.6	8.45e-01	0	30	104	0	60	62004
2026-01-05 20:39:56.25	25.12	1.05	-50.3	-61.8	3.6	8.45e-01	0	30	104	0	60	60640
2026-01-05 20:39:57.26	25.08	1.11	-50.2	-61.7	3.6	8.46e-01	0	31	104	0	60	59861
2026-01-05 20:39:58.27	25.03	1.17	-50.1	-61.5	3.6	8.46e-01	0	31	104	0	60	58390
2026-01-05 20:39:59.28	24.99	1.22	-49.6	-61.0	3.6	8.45e-01	0	31	104	0	60	55626
2026-01-05 20:40:00.29	24.95	1.28	-49.4	-60.8	3.6	8.44e-01	0	31	104	0	60	53849
2026-01-05 20:40:01.30	24.91	1.34	-49.4	-60.7	3.6	8.45e-01	0	31	104	0	60	53751
2026-01-05 20:40:02.31	24.86	1.40	-49.4	-60.8	3.6	8.46e-01	0	30	104	0	60	54152
2026-01-05 20:40:03.33	24.82	1.46	-49.4	-60.8	3.6	8.46e-01	0	31	104	0	60	54345
2026-01-05 20:40:04.34	24.78	1.52	-49.4	-60.7	3.6	8.46e-01	0	31	104	0	60	53596
2026-01-05 20:40:05.35	24.74	1.58	-49.3	-60.7	3.6	8.46e-01	0	31	104	0	60	53551
2026-01-05 20:40:06.36	24.69	1.64	-49.4	-60.7	3.6	8.45e-01	0	31	104	0	60	53645
2026-01-05 20:40:07.37	24.65	1.71	-49.4	-60.8	3.6	8.47e-01	0	31	104	0	60	53814
2026-01-05 20:40:08.38	24.60	1.77	-49.3	-60.8	3.6	8.46e-01	0	31	104	0	60	53828
2026-01-05 20:40:09.39	24.56	1.83	-49.3	-60.7	3.6	8.45e-01	0	31	104	0	60	53532
2026-01-05 20:40:10.40	24.52	1.89	-49.3	-60.8	3.6	8.45e-01	0	31	104	0	60	53888
2026-01-05 20:40:11.42	24.47	1.95	-49.3	-60.8	3.6	8.46e-01	0	31	104	0	60	53874
2026-01-05 20:40:12.43	24.43	2.01	-49.3	-60.8	3.6	8.45e-01	0	31	104	0	60	53822
2026-01-05 20:40:13.44	24.38	2.07	-49.3	-60.8	3.6	8.45e-01	0	31	104	0	60	53871
2026-01-05 20:40:14.45	24.34	2.13	-49.3	-60.7	3.6	8.45e-01	0	31	104	0	60	53377
2026-01-05 20:40:15.46	24.29	2.19	-49.3	-60.6	3.6	8.44e-01	0	31	104	0	60	52647
2026-01-05 20:40:16.47	24.25	2.25	-49.3	-60.2	3.6	8.46e-01	0	31	104	0	60	50694
2026-01-05 20:40:17.48	24.20	2.32	-49.3	-60.2	3.6	8.45e-01	0	31	104	0	60	50309
2026-01-05 20:40:18.49	24.16	2.38	-49.3	-60.1	3.6	8.45e-01	0	31	104	0	60	49829
2026-01-05 20:40:19.51	24.11	2.44	-49.3	-60.4	3.6	8.45e-01	0	31	104	0	60	51753
2026-01-05 20:40:20.52	24.06	2.50	-49.3	-60.5	3.6	8.46e-01	0	31	104	0	60	52461
2026-01-05 20:40:21.53	24.02	2.56	-49.3	-60.7	3.6	8.45e-01	0	31	104	0	60	53542
2026-01-05 20:40:22.54	23.97	2.63	-49.4	-60.8	3.6	8.45e-01	0	31	104	0	60	54065
2026-01-05 20:40:23.55	23.92	2.69	-49.3	-60.8	3.6	8.45e-01	0	31	104	0	60	53919
2026-01-05 20:40:24.56	23.88	2.75	-49.3	-60.7	3.6	8.45e-01	0	31	104	0	60	53402
2026-01-05 20:40:25.57	23.83	2.81	-49.3	-60.7	3.6	8.46e-01	0	31	104	0	60	53517
2026-01-05 20:40:26.59	23.78	2.88	-49.3	-60.6	3.6	8.45e-01	0	31	104	0	60	53003
2026-01-05 20:40:27.60	23.73	2.94	-49.3	-60.6	3.6	8.44e-01	0	31	104	0	60	52967
2026-01-05 20:40:28.61	23.68	3.00	-49.3	-60.4	3.6	8.46e-01	0	31	104	0	60	51572
2026-01-05 20:40:29.62	23.64	3.06	-49.3	-60.0	3.6	8.45e-01	0	31	104	0	60	49102
2026-01-05 20:40:30.63	23.59	3.13	-49.2	-59.7	3.6	8.45e-01	0	31	104	0	60	47511
2026-01-05 20:40:31.64	23.54	3.19	-49.2	-59.5	3.6	8.45e-01	0	31	104	0	60	46406
2026-01-05 20:40:32.65	23.49	3.25	-49.2	-59.9	3.6	8.45e-01	0	31	104	0	60	48935
2026-01-05 20:40:33.66	23.44	3.32	-49.3	-60.6	3.6	8.44e-01	0	31	104	0	60	52762
2026-01-05 20:40:34.68	23.39	3.38	-49.3	-60.2	3.6	8.45e-01	0	31	104	0	60	50680
2026-01-05 20:40:35.69	23.34	3.44	-49.0	-58.2	3.8	8.45e-01	0	31	104	0	60	40290
2026-01-05 20:40:36.70	23.29	3.51	-48.6	-54.2	4.8	8.03e-01	0	31	0	0	60	25354
2026-01-05 20:40:37.71	23.24	3.57	-47.9	-52.0	7.0	3.05e-01	0	31	102	1048576	60	19706
2026-01-05 20:40:38.72	23.19	3.64	-47.1	-50.4	8.7	4.08e-02	0	31	102	1048576	60	16264
2026-01-05 20:40:39.73	23.14	3.70	-46.5	-49.2	10.1	1.17e-02	0	31	102	1048576	60	14303
2026-01-05 20:40:40.74	23.09	3.76	-46.3	-48.9	10.4	5.30e-03	0	31	102	1048576	60	13766
2026-01-05 20:40:41.75	23.04	3.83	-48.7	-54.8	4.2	1.56e-01	0	31	102	1048576	60	27239
2026-01-05 20:40:42.76	22.99	3.89	-49.3	-59.3	3.6	8.38e-01	0	31	104	1048576	60	45349
2026-01-05 20:40:43.77	22.94	3.96	-47.9	-52.9	4.4	8.16e-01	0	31	104	1048576	60	21897
2026-01-05 20:40:44.78	22.89	4.02	-37.8	-38.4	21.8	7.02e-03	0	31	0	1048576	56	5171
2026-01-05 20:40:45.80	22.83	4.09	-49.2	-59.5	3.6	4.03e-01	0	31	104	1048576	60	46491
2026-01-05 20:40:46.81	22.78	4.15	-39.2	-40.0	6.1	7.77e-01	0	31	104	1048576	60	4950
2026-01-05 20:40:47.82	22.73	4.22	-37.6	-38.2	21.6	0.00e+00	0	31	0	1048576	54	5676
2026-01-05 20:40:48.83	22.68	4.28	-37.4	-38.0	21.8	0.00e+00	0	31	0	1048576	54	5563
2026-01-05 20:40:49.84	22.62	4.35	-37.3	-38.0	21.8	0.00e+00	0	31	0	1048576	54	5530
2026-01-05 20:40:50.85	22.57	4.41	-37.3	-37.9	21.8	0.00e+00	0	31	0	1048576	54	5492
2026-01-05 20:40:51.86	22.52	4.48	-37.6	-38.2	21.5	0.00e+00	0	31	0	1048576	54	5669
2026-01-05 20:40:52.87	22.46	4.55	-37.1	-37.8	22.1	0.00e+00	0	31	101	1048576	54	5392
2026-01-05 20:40:53.89	22.41	4.61	-37.1	-37.8	22.1	0.00e+00	0	31	101	1048576	54	5388
2026-01-05 20:40:54.90	22.35	4.68	-37.1	-37.7	22.1	0.00e+00	0	31	101	1048576	52	6018
2026-01-05 20:40:55.91	22.30	4.75	-36.9	-37.5	22.4	0.00e+00	0	31	101	1048576	52	5857
2026-01-05 20:40:56.92	22.24	4.81	-37.1	-37.7	22.1	0.00e+00	0	31	101	1048576	52	6031
2026-01-05 20:40:57.93	22.19	4.88	-37.0	-37.7	22.4	0.00e+00	0	31	101	1048576	52	5973
2026-01-05 20:40:58.94	22.13	4.94	-37.1	-37.7	22.2	0.00e+00	0	31	101	1048576	52	6020
2026-01-05 20:40:59.95	22.08	5.01	-36.8	-37.4	22.6	0.00e+00	0	31	101	1048576	52	5783
2026-01-05 20:41:00.96	22.02	5.08	-36.8	-37.4	22.5	0.00e+00	0	31	101	1048576	52	5796
2026-01-05 20:41:01.98	21.97	5.15	-36.9	-37.5	22.5	0.00e+00	0	31	101	1048576	52	5854
2026-01-05 20:41:02.99	21.91	5.21	-36.6	-37.2	22.7	0.00e+00	0	31	101	1048576	52	5688
2026-01-05 20:41:04.00	21.85	5.28	-36.8	-37.4	22.6	0.00e+00	0	31	101	1048576	52	5797
2026-01-05 20:41:05.01	21.80	5.35	-36.8	-37.4	22.6	0.00e+00	0	31	101	1048576	52	5809
2026-01-05 20:41:06.02	21.74	5.42	-37.3	-38.0	22.2	0.00e+00	0	31	101	1048576	52	6182
2026-01-05 20:41:07.03	21.68	5.48	-37.0	-37.6	22.6	0.00e+00	0	31	101	1048576	52	5945
2026-01-05 20:41:08.04	21.62	5.55	-37.1	-37.7	22.2	0.00e+00	0	31	101	1048576	52	6016
2026-01-05 20:41:09.06	21.56	5.62	-37.1	-37.8	22.3	0.00e+00	0	31	101	1048576	52	6036
2026-01-05 20:41:10.07	21.51	5.69	-37.0	-37.6	22.5	0.00e+00	0	31	101	1048576	52	5918
2026-01-05 20:41:11.08	21.45	5.76	-36.8	-37.4	22.7	0.00e+00	0	31	101	1048576	52	5807
2026-01-05 20:41:12.09	21.39	5.83	-36.8	-37.4	22.7	0.00e+00	0	31	101	1048576	52	5775
2026-01-05 20:41:13.10	21.33	5.90	-36.8	-37.4	22.7	0.00e+00	0	31	101	1048576	52	5801
2026-01-05 20:41:14.11	21.27	5.96	-36.8	-37.5	22.6	0.00e+00	0	31	101	1048576	52	5829
2026-01-05 20:41:15.12	21.21	6.03	-36.7	-37.3	22.8	0.00e+00	0	31	101	1048576	52	5715
2026-01-05 20:41:16.13	21.15	6.10	-36.5	-37.1	22.9	0.00e+00	0	31	101	1048576	52	5627
2026-01-05 20:41:17.15	21.09	6.17	-36.4	-37.0	23.0	0.00e+00	0	31	101	1048576	52	5546
2026-01-05 20:41:18.16	21.03	6.24	-36.8	-37.4	23.0	0.00e+00	0	31	101	1048576	52	5767
2026-01-05 20:41:19.17	20.97	6.31	-36.6	-37.1	23.0	0.00e+00	0	31	101	1048576	52	5630
2026-01-05 20:41:20.18	20.90	6.38	-35.9	-36.5	23.4	0.00e+00	0	31	101	1048576	50	5840
2026-01-05 20:41:21.19	20.84	6.45	-36.2	-36.7	23.3	0.00e+00	0	31	101	1048576	50	6020
2026-01-05 20:41:22.20	20.78	6.52	-36.5	-37.1	22.9	0.00e+00	0	31	101	1048576	50	6272
2026-01-05 20:41:23.21	20.72	6.59	-36.5	-37.1	23.0	0.00e+00	0	31	101	1048576	50	6288
2026-01-05 20:41:24.22	20.66	6.66	-36.6	-37.2	23.0	0.00e+00	0	31	101	1048576	50	6333
2026-01-05 20:41:25.24	20.59	6.73	-36.3	-36.9	23.3	0.00e+00	0	31	101	1048576	50	6121
2026-01-05 20:41:26.25	20.53	6.80	-36.3	-36.9	23.2	0.00e+00	0	31	101	1048576	50	6153
2026-01-05 20:41:27.26	20.47	6.87	-36.4	-36.9	23.1	0.00e+00	0	31	101	1048576	50	6172
2026-01-05 20:41:28.27	20.40	6.95	-36.4	-37.0	23.0	0.00e+00	0	31	101	1048576	50	6220
2026-01-05 20:41:29.28	20.34	7.02	-36.5	-37.1	23.0	0.00e+00	0	31	101	1048576	50	6275
2026-01-05 20:41:30.29	20.27	7.09	-36.2	-36.8	23.3	0.00e+00	0	31	101	1048576	50	6087
2026-01-05 20:41:31.31	20.21	7.16	-36.3	-36.9	23.3	0.00e+00	0	31	101	1048576	50	6126
2026-01-05 20:41:32.32	20.14	7.23	-36.2	-36.8	23.4	0.00e+00	0	31	101	1048576	50	6067
2026-01-05 20:41:33.33	20.08	7.30	-36.3	-36.9	23.3	0.00e+00	0	31	101	1048576	50	6106
2026-01-05 20:41:34.34	20.01	7.38	-36.1	-36.6	23.5	0.00e+00	0	31	101	1048576	50	5952
2026-01-05 20:41:35.35	19.94	7.45	-36.1	-36.7	23.5	0.00e+00	0	31	101	1048576	50	5976
2026-01-05 20:41:36.36	19.88	7.52	-36.2	-36.8	23.3	0.00e+00	0	31	101	1048576	50	6090
2026-01-05 20:41:37.37	19.81	7.59	-36.2	-36.8	23.4	0.00e+00	0	31	101	1048576	50	6043
2026-01-05 20:41:38.38	19.74	7.67	-36.1	-36.6	23.6	0.00e+00	0	31	101	1048576	50	5961
2026-01-05 20:41:39.39	19.67	7.74	-36.0	-36.5	23.5	0.00e+00	0	31	101	1048576	50	5892
2026-01-05 20:41:40.40	19.61	7.81	-36.0	-36.6	23.6	0.00e+00	0	31	101	1048576	50	5916
2026-01-05 20:41:41.42	19.54	7.89	-35.9	-36.4	23.7	0.00e+00	0	31	101	1048576	50	5813
2026-01-05 20:41:42.43	19.47	7.96	-36.2	-36.7	23.5	0.00e+00	0	31	101	1048576	50	6028
2026-01-05 20:41:43.44	19.40	8.03	-36.0	-36.6	23.6	0.00e+00	0	31	101	1048576	50	5907
2026-01-05 20:41:44.45	19.33	8.11	-35.9	-36.5	23.7	0.00e+00	0	31	101	1048576	50	5858
2026-01-05 20:41:45.46	19.26	8.18	-36.0	-36.6	23.7	0.00e+00	0	31	101	1048576	50	5919
2026-01-05 20:41:46.47	19.19	8.25	-36.0	-36.5	23.6	0.00e+00	0	31	101	1048576	50	5893
2026-01-05 20:41:47.48	19.12	8.33	-35.9	-36.5	23.7	0.00e+00	0	31	101	1048576	50	5853
2026-01-05 20:41:48.50	19.05	8.40	-35.8	-36.4	23.8	0.00e+00	0	31	101	1048576	50	5797
2026-01-05 20:41:49.51	18.97	8.48	-36.1	-36.7	23.7	0.00e+00	0	31	101	1048576	50	5974
2026-01-05 20:41:50.52	18.90	8.55	-35.9	-36.5	23.8	0.00e+00	0	31	101	1048576	50	5837
2026-01-05 20:41:51.53	18.83	8.63	-35.6	-36.2	24.0	0.00e+00	0	31	101	1048576	50	5661
2026-01-05 20:41:52.54	18.76	8.70	-35.7	-36.3	23.9	0.00e+00	0	31	101	1048576	50	5731
2026-01-05 20:41:53.55	18.68	8.78	-35.7	-36.2	24.1	0.00e+00	0	31	101	1048576	50	5688
2026-01-05 20:41:54.56	18.61	8.85	-35.6	-36.1	24.1	0.00e+00	0	31	101	1048576	50	5620
2026-01-05 20:41:55.57	18.54	8.93	-35.8	-36.3	23.9	0.00e+00	0	31	101	1048576	50	5745
2026-01-05 20:41:56.58	18.46	9.01	-35.6	-36.2	24.1	0.00e+00	0	31	101	1048576	50	5658
2026-01-05 20:41:57.59	18.39	9.08	-35.6	-36.1	24.1	0.00e+00	0	31	101	1048576	50	5626
2026-01-05 20:41:58.60	18.31	9.16	-35.6	-36.1	24.1	0.00e+00	0	31	101	1048576	50	5623
2026-01-05 20:41:59.62	18.24	9.23	-35.6	-36.2	24.1	0.00e+00	0	31	101	1048576	50	5667
2026-01-05 20:42:00.63	18.16	9.31	-35.5	-36.1	24.2	0.00e+00	0	32	101	1048576	50	5570
2026-01-05 20:42:01.64	18.08	9.39	-35.4	-35.9	24.3	0.00e+00	0	31	101	1048576	50	5482
2026-01-05 20:42:02.65	18.01	9.46	-35.3	-35.9	24.4	0.00e+00	0	31	101	1048576	50	5461
2026-01-05 20:42:03.66	17.93	9.54	-35.4	-35.9	24.4	0.00e+00	0	31	101	1048576	50	5483
2026-01-05 20:42:04.67	17.85	9.62	-35.4	-35.9	24.4	0.00e+00	0	31	101	1048576	50	5471
2026-01-05 20:42:05.68	17.77	9.70	-35.3	-35.9	24.4	0.00e+00	0	31	101	1048576	50	5458
2026-01-05 20:42:06.69	17.69	9.77	-35.2	-35.8	24.5	0.00e+00	0	31	101	1048576	50	5383
2026-01-05 20:42:07.70	17.62	9.85	-35.4	-36.0	24.3	0.00e+00	0	31	101	1048576	50	5523
2026-01-05 20:42:08.72	17.54	9.93	-35.4	-35.9	24.3	0.00e+00	0	31	101	1048576	50	5475
2026-01-05 20:42:09.73	17.46	10.01	-35.4	-36.0	24.3	0.00e+00	0	31	101	1048576	50	5518
2026-01-05 20:42:10.74	17.38	10.09	-35.2	-35.7	24.6	0.00e+00	0	31	101	1048576	48	6019
2026-01-05 20:42:11.75	17.29	10.17	-35.3	-35.9	24.4	0.00e+00	0	32	101	1048576	48	6106
2026-01-05 20:42:12.76	17.21	10.25	-35.3	-35.8	24.5	0.00e+00	0	31	101	1048576	48	6084
2026-01-05 20:42:13.77	17.13	10.32	-35.3	-35.9	24.5	0.00e+00	0	32	101	1048576	48	6110
2026-01-05 20:42:14.78	17.05	10.40	-35.3	-35.8	24.4	0.00e+00	0	32	101	1048576	48	6072
2026-01-05 20:42:15.79	16.97	10.48	-35.4	-36.0	24.3	0.00e+00	0	32	101	1048576	48	6202
2026-01-05 20:42:16.80	16.88	10.56	-35.4	-35.9	24.5	0.00e+00	0	31	101	1048576	48	6140
2026-01-05 20:42:17.81	16.80	10.64	-35.1	-35.6	24.7	0.00e+00	0	31	101	1048576	48	5942
2026-01-05 20:42:18.82	16.72	10.72	-35.2	-35.8	24.5	0.00e+00	0	31	101	1048576	48	6067
2026-01-05 20:42:19.83	16.63	10.80	-35.0	-35.6	24.7	0.00e+00	0	32	101	1048576	48	5901
2026-01-05 20:42:20.84	16.55	10.88	-35.1	-35.6	24.8	0.00e+00	0	32	101	1048576	48	5923
2026-01-05 20:42:21.86	16.46	10.96	-34.9	-35.4	24.9	0.00e+00	0	31	101	1048576	48	5806
2026-01-05 20:42:22.87	16.37	11.05	-34.8	-35.3	24.9	0.00e+00	0	31	101	1048576	48	5742
2026-01-05 20:42:23.88	16.29	11.13	-34.9	-35.5	24.8	0.00e+00	0	31	101	1048576	48	5839
2026-01-05 20:42:24.89	16.20	11.21	-34.9	-35.5	24.8	0.00e+00	0	32	101	1048576	48	5836
2026-01-05 20:42:25.90	16.11	11.29	-34.5	-35.1	25.2	0.00e+00	0	32	101	1048576	48	5575
2026-01-05 20:42:26.91	16.02	11.37	-34.7	-35.2	25.1	0.00e+00	0	32	101	1048576	48	5648
2026-01-05 20:42:27.92	15.94	11.45	-34.7	-35.2	25.1	0.00e+00	0	32	101	1048576	48	5656
2026-01-05 20:42:28.93	15.85	11.53	-34.8	-35.4	24.8	0.00e+00	0	32	101	1048576	48	5766
2026-01-05 20:42:29.94	15.76	11.62	-34.5	-35.0	25.2	0.00e+00	0	32	101	1048576	48	5555
2026-01-05 20:42:30.95	15.67	11.70	-34.5	-35.0	25.2	0.00e+00	0	32	101	1048576	48	5524
2026-01-05 20:42:31.97	15.58	11.78	-34.7	-35.2	25.1	0.00e+00	0	32	101	1048576	48	5668
2026-01-05 20:42:32.97	15.49	11.86	-34.5	-35.0	25.2	0.00e+00	0	32	101	1048576	48	5539
2026-01-05 20:42:33.99	15.39	11.95	-34.6	-35.1	25.2	0.00e+00	0	32	101	1048576	48	5608
2026-01-05 20:42:35.00	15.30	12.03	-34.7	-35.2	25.1	0.00e+00	0	32	101	1048576	48	5642
2026-01-05 20:42:36.01	15.21	12.12	-34.7	-35.3	25.0	0.00e+00	0	32	101	1048576	48	5709
2026-01-05 20:42:37.02	15.11	12.20	-34.7	-35.2	25.1	0.00e+00	0	32	101	1048576	48	5646
2026-01-05 20:42:38.03	15.02	12.28	-34.5	-35.0	25.2	0.00e+00	0	32	101	1048576	48	5562
2026-01-05 20:42:39.04	14.93	12.37	-34.7	-35.2	25.1	0.00e+00	0	32	101	1048576	48	5672
2026-01-05 20:42:40.05	14.83	12.45	-34.8	-35.3	25.1	0.00e+00	0	32	101	1048576	48	5716
2026-01-05 20:42:41.06	14.74	12.54	-34.8	-35.3	25.2	0.00e+00	0	32	101	1048576	48	5747
2026-01-05 20:42:42.07	14.64	12.62	-34.8	-35.3	25.0	0.00e+00	0	32	101	1048576	48	5721
2026-01-05 20:42:43.09	14.54	12.71	-34.9	-35.4	25.0	0.00e+00	0	32	101	1048576	48	5797
2026-01-05 20:42:44.10	14.44	12.79	-34.9	-35.4	25.0	0.00e+00	0	32	101	1048576	48	5817
2026-01-05 20:42:45.11	14.35	12.88	-34.4	-34.9	25.4	0.00e+00	0	32	101	1048576	48	5464
2026-01-05 20:42:46.12	14.25	12.96	-34.5	-35.0	25.3	0.00e+00	0	32	101	1048576	48	5519
2026-01-05 20:42:47.13	14.15	13.05	-34.6	-35.2	25.3	0.00e+00	0	32	101	1048576	48	5646
2026-01-05 20:42:48.14	14.05	13.13	-34.4	-34.9	25.4	0.00e+00	0	32	101	1048576	48	5492
2026-01-05 20:42:49.15	13.95	13.22	-34.6	-35.1	25.3	0.00e+00	0	32	101	1048576	48	5595
2026-01-05 20:42:50.16	13.85	13.31	-34.6	-35.1	25.2	0.00e+00	0	32	101	1048576	48	5630
2026-01-05 20:42:51.17	13.75	13.39	-34.5	-35.0	25.3	0.00e+00	0	32	101	1048576	48	5545
2026-01-05 20:42:52.19	13.64	13.48	-34.4	-34.9	25.5	0.00e+00	0	32	101	1048576	48	5452
2026-01-05 20:42:53.20	13.54	13.57	-34.6	-35.1	25.2	0.00e+00	0	31	101	1048576	48	5617
2026-01-05 20:42:54.21	13.44	13.66	-34.2	-34.7	25.6	0.00e+00	0	32	101	1048576	48	5350
2026-01-05 20:42:55.22	13.33	13.74	-34.1	-34.6	25.6	0.00e+00	0	32	101	1048576	48	5303
2026-01-05 20:42:56.23	13.23	13.83	-34.0	-34.5	25.7	0.00e+00	0	32	101	1048576	46	5866
2026-01-05 20:42:57.24	13.12	13.92	-34.0	-34.5	25.9	0.00e+00	0	32	101	1048576	46	5868
2026-01-05 20:42:58.25	13.02	14.01	-34.1	-34.6	25.6	0.00e+00	0	32	101	1048576	46	5921
2026-01-05 20:42:59.26	12.91	14.10	-34.0	-34.5	25.8	0.00e+00	0	32	101	1048576	46	5847
2026-01-05 20:43:00.27	12.80	14.18	-34.0	-34.5	25.7	0.00e+00	0	32	101	1048576	46	5861
2026-01-05 20:43:01.28	12.69	14.27	-34.0	-34.5	25.8	0.00e+00	0	32	101	1048576	46	5882
2026-01-05 20:43:02.29	12.59	14.36	-33.8	-34.3	26.0	0.00e+00	0	32	101	1048576	46	5736
2026-01-05 20:43:03.30	12.48	14.45	-33.9	-34.4	25.8	0.00e+00	0	32	101	1048576	46	5828
2026-01-05 20:43:04.32	12.37	14.54	-34.1	-34.6	25.8	0.00e+00	0	32	101	1048576	46	5901
2026-01-05 20:43:05.33	12.26	14.63	-34.0	-34.5	25.8	0.00e+00	0	32	101	1048576	46	5868
2026-01-05 20:43:06.34	12.14	14.72	-34.1	-34.6	25.7	0.00e+00	0	32	101	1048576	46	5922
2026-01-05 20:43:07.35	12.03	14.81	-34.0	-34.5	25.9	0.00e+00	0	32	101	1048576	46	5835
2026-01-05 20:43:08.36	11.92	14.90	-34.1	-34.6	25.7	0.00e+00	0	32	101	1048576	46	5910
2026-01-05 20:43:09.37	11.81	14.99	-33.9	-34.5	25.8	0.00e+00	0	32	101	1048576	46	5829
2026-01-05 20:43:10.38	11.69	15.08	-33.9	-34.4	25.8	0.00e+00	0	32	101	1048576	46	5824
2026-01-05 20:43:11.39	11.58	15.17	-34.0	-34.6	25.8	0.00e+00	0	32	101	1048576	46	5904
2026-01-05 20:43:12.41	11.46	15.27	-34.0	-34.5	25.8	0.00e+00	0	32	101	1048576	46	5855
2026-01-05 20:43:13.42	11.34	15.36	-34.1	-34.6	25.8	0.00e+00	0	32	101	1048576	46	5917
2026-01-05 20:43:14.43	11.23	15.45	-34.1	-34.7	25.7	0.00e+00	0	32	101	1048576	46	5971
2026-01-05 20:43:15.44	11.11	15.54	-33.9	-34.4	25.9	0.00e+00	0	32	101	1048576	46	5792
2026-01-05 20:43:16.45	10.99	15.63	-34.0	-34.5	25.8	0.00e+00	0	32	101	1048576	46	5854
2026-01-05 20:43:17.46	10.87	15.73	-33.9	-34.4	26.0	0.00e+00	0	32	101	1048576	46	5795
2026-01-05 20:43:18.48	10.75	15.82	-33.7	-34.2	26.1	0.00e+00	0	32	101	1048576	46	5647
2026-01-05 20:43:19.49	10.63	15.91	-33.7	-34.2	26.0	0.00e+00	0	32	101	1048576	46	5690
2026-01-05 20:43:20.50	10.51	16.01	-33.7	-34.2	26.1	0.00e+00	0	32	101	1048576	46	5681
2026-01-05 20:43:21.51	10.38	16.10	-33.7	-34.2	26.1	0.00e+00	0	32	101	1048576	46	5638
2026-01-05 20:43:22.52	10.26	16.19	-33.7	-34.3	26.0	0.00e+00	0	32	101	1048576	46	5696
2026-01-05 20:43:23.53	10.14	16.29	-33.1	-33.6	26.3	0.00e+00	0	32	101	1048576	46	5305
2026-01-05 20:43:24.54	10.01	16.38	-33.6	-34.1	26.2	0.00e+00	0	32	101	1048576	46	5623
2026-01-05 20:43:25.56	9.88	16.48	-33.6	-34.1	26.2	0.00e+00	0	32	101	1048576	46	5581
2026-01-05 20:43:26.57	9.76	16.57	-33.6	-34.1	26.2	0.00e+00	0	32	101	1048576	46	5590
2026-01-05 20:43:27.58	9.63	16.66	-33.7	-34.2	26.2	0.00e+00	0	32	101	1048576	46	5634
2026-01-05 20:43:28.59	9.50	16.76	-33.5	-34.1	26.1	0.00e+00	0	32	101	1048576	46	5574
2026-01-05 20:43:29.60	9.37	16.85	-33.5	-34.0	26.2	0.00e+00	0	32	101	1048576	46	5530
2026-01-05 20:43:30.61	9.24	16.95	-33.5	-34.0	26.3	0.00e+00	0	32	101	1048576	46	5541
2026-01-05 20:43:31.62	9.11	17.05	-33.3	-33.8	26.4	0.00e+00	0	32	101	1048576	46	5411
2026-01-05 20:43:32.64	8.98	17.14	-33.6	-34.1	26.2	0.00e+00	0	32	101	1048576	46	5587
2026-01-05 20:43:33.65	8.85	17.24	-33.3	-33.8	26.5	0.00e+00	0	32	101	1048576	46	5378
2026-01-05 20:43:34.66	8.71	17.33	-33.2	-33.7	26.5	0.00e+00	0	32	101	1048576	44	6008
2026-01-05 20:43:35.67	8.58	17.43	-33.3	-33.8	26.4	0.00e+00	0	32	101	1048576	44	6044
2026-01-05 20:43:36.68	8.45	17.53	-33.1	-33.6	26.6	0.00e+00	0	32	101	1048576	44	5908
2026-01-05 20:43:37.69	8.31	17.62	-33.2	-33.7	26.5	0.00e+00	0	32	101	1048576	44	6010
2026-01-05 20:43:38.70	8.17	17.72	-33.2	-33.7	26.5	0.00e+00	0	32	101	1048576	44	5991
2026-01-05 20:43:39.72	8.03	17.82	-33.2	-33.6	26.5	0.00e+00	0	32	101	1048576	44	5957
2026-01-05 20:43:40.73	7.90	17.92	-33.0	-33.5	26.7	0.00e+00	0	32	101	1048576	44	5855
2026-01-05 20:43:41.74	7.76	18.01	-33.0	-33.5	26.7	0.00e+00	0	32	101	1048576	44	5879
2026-01-05 20:43:42.75	7.62	18.11	-33.1	-33.6	26.6	0.00e+00	0	32	101	1048576	44	5901
2026-01-05 20:43:43.76	7.47	18.21	-32.9	-33.4	26.8	0.00e+00	0	32	101	1048576	44	5803
2026-01-05 20:43:44.77	7.33	18.31	-33.0	-33.5	26.8	0.00e+00	0	32	101	1048576	44	5852
2026-01-05 20:43:45.78	7.19	18.41	-32.9	-33.4	26.8	0.00e+00	0	32	101	1048576	44	5794
2026-01-05 20:43:46.79	7.04	18.51	-33.0	-33.5	26.7	0.00e+00	0	32	101	1048576	44	5868
2026-01-05 20:43:47.80	6.90	18.60	-33.0	-33.4	26.8	0.00e+00	0	32	101	1048576	44	5822
2026-01-05 20:43:48.81	6.75	18.70	-32.8	-33.2	27.0	0.00e+00	0	32	101	1048576	44	5689
2026-01-05 20:43:49.82	6.61	18.80	-32.7	-33.2	27.0	0.00e+00	0	32	101	1048576	44	5642
2026-01-05 20:43:50.83	6.46	18.90	-32.6	-33.1	27.0	0.00e+00	0	32	101	1048576	44	5611
2026-01-05 20:43:51.85	6.31	19.00	-32.6	-33.0	27.1	0.00e+00	0	32	101	1048576	44	5566
2026-01-05 20:43:52.86	6.16	19.10	-32.7	-33.2	27.0	0.00e+00	0	32	101	1048576	44	5665
2026-01-05 20:43:53.87	6.01	19.20	-32.6	-33.0	27.1	0.00e+00	0	32	101	1048576	44	5562
2026-01-05 20:43:54.88	5.85	19.30	-32.8	-33.3	27.1	0.00e+00	0	32	101	1048576	44	5721
2026-01-05 20:43:55.89	5.70	19.40	-32.4	-32.9	27.3	0.00e+00	0	32	101	1048576	44	5447
2026-01-05 20:43:56.90	5.55	19.50	-32.3	-32.8	27.3	0.00e+00	0	32	101	1048576	44	5398
2026-01-05 20:43:57.91	5.39	19.60	-32.3	-32.8	27.3	0.00e+00	0	32	101	1048576	44	5397
2026-01-05 20:43:58.92	5.23	19.71	-32.2	-32.7	27.3	0.00e+00	0	32	101	1048576	44	5359
2026-01-05 20:43:59.93	5.08	19.81	-32.2	-32.7	27.4	0.00e+00	0	32	101	1048576	44	5327
2026-01-05 20:44:00.94	4.92	19.91	-32.2	-32.7	27.4	0.00e+00	0	32	101	1048576	44	5359
2026-01-05 20:44:01.96	4.76	20.01	-32.3	-32.8	27.3	0.00e+00	0	32	101	1048576	44	5397
2026-01-05 20:44:02.97	4.60	20.11	-32.5	-32.9	27.3	0.00e+00	0	32	101	1048576	44	5488
2026-01-05 20:44:03.98	4.44	20.21	-32.5	-33.0	27.2	0.00e+00	0	32	101	1048576	44	5526
2026-01-05 20:44:04.99	4.27	20.32	-32.4	-32.9	27.2	0.00e+00	0	32	101	1048576	44	5492
2026-01-05 20:44:06.00	4.11	20.42	-32.7	-33.2	27.1	0.00e+00	0	32	101	1048576	44	5666
2026-01-05 20:44:07.01	3.94	20.52	-32.7	-33.2	27.0	0.00e+00	0	32	101	1048576	44	5685
2026-01-05 20:44:08.02	3.78	20.62	-32.6	-33.1	27.1	0.00e+00	0	32	101	1048576	44	5583
2026-01-05 20:44:09.03	3.61	20.73	-32.7	-33.2	27.1	0.00e+00	0	32	101	1048576	44	5647
2026-01-05 20:44:10.05	3.44	20.83	-32.7	-33.1	27.1	0.00e+00	0	32	101	1048576	44	5625
2026-01-05 20:44:11.05	3.27	20.93	-32.6	-33.0	27.1	0.00e+00	0	32	101	1048576	44	5566
2026-01-05 20:44:12.07	3.10	21.04	-32.7	-33.2	27.2	0.00e+00	0	32	101	1048576	44	5660
2026-01-05 20:44:13.08	2.93	21.14	-32.7	-33.2	27.0	0.00e+00	0	32	101	1048576	44	5648
2026-01-05 20:44:14.09	2.76	21.24	-32.5	-33.0	27.2	0.00e+00	0	32	101	1048576	44	5505
2026-01-05 20:44:15.10	2.58	21.35	-32.5	-33.0	27.3	0.00e+00	0	32	101	1048576	44	5528
2026-01-05 20:44:16.11	2.41	21.45	-32.5	-33.0	27.3	0.00e+00	0	32	101	1048576	44	5515
2026-01-05 20:44:17.12	2.23	21.55	-32.4	-32.9	27.4	0.00e+00	0	32	101	1048576	44	5454
2026-01-05 20:44:18.13	2.05	21.66	-32.4	-32.8	27.4	0.00e+00	0	32	101	1048576	44	5426
2026-01-05 20:44:19.14	1.87	21.76	-32.4	-32.8	27.3	0.00e+00	0	32	101	1048576	44	5429
2026-01-05 20:44:20.16	1.69	21.87	-32.4	-32.9	27.3	0.00e+00	0	32	101	1048576	44	5455
2026-01-05 20:44:21.17	1.51	21.97	-32.4	-32.9	27.2	0.00e+00	0	32	101	1048576	44	5488
2026-01-05 20:44:22.18	1.33	22.08	-32.6	-33.0	27.2	0.00e+00	0	32	101	1048576	44	5566
2026-01-05 20:44:23.19	1.14	22.18	-32.5	-33.0	27.2	0.00e+00	0	32	101	1048576	44	5511
2026-01-05 20:44:24.20	0.96	22.29	-32.5	-33.0	27.2	0.00e+00	0	32	101	1048576	44	5558
2026-01-05 20:44:25.21	0.77	22.39	-32.4	-32.9	27.2	0.00e+00	0	32	101	1048576	44	5474
2026-01-05 20:44:26.22	0.58	22.50	-32.4	-32.9	27.2	0.00e+00	0	32	101	1048576	44	5470
2026-01-05 20:44:27.23	0.39	22.60	-32.4	-32.9	27.2	0.00e+00	0	32	101	1048576	44	5450
2026-01-05 20:44:28.24	0.20	22.71	-32.6	-33.1	27.1	0.00e+00	0	32	101	1048576	44	5571
2026-01-05 20:44:29.26	0.01	22.81	-32.3	-32.8	27.3	0.00e+00	0	32	101	1048576	44	5414
2026-01-05 20:44:30.27	359.81	22.92	-32.4	-32.9	27.3	0.00e+00	0	32	101	1048576	44	5468
2026-01-05 20:44:31.28	359.62	23.02	-32.6	-33.1	27.0	0.00e+00	0	32	101	1048576	44	5577
2026-01-05 20:44:32.29	359.42	23.13	-32.4	-32.8	27.2	0.00e+00	0	32	101	1048576	44	5433
2026-01-05 20:44:33.30	359.23	23.23	-32.4	-32.9	27.2	0.00e+00	0	32	101	1048576	44	5465
2026-01-05 20:44:34.31	359.03	23.34	-32.3	-32.8	27.3	0.00e+00	0	32	101	1048576	44	5411
2026-01-05 20:44:35.32	358.83	23.45	-32.2	-32.7	27.4	0.00e+00	0	32	101	1048576	44	5334
2026-01-05 20:44:36.33	358.63	23.55	-32.2	-32.6	27.6	0.00e+00	0	32	101	1048576	42	5959
2026-01-05 20:44:37.34	358.42	23.66	-32.1	-32.6	27.6	0.00e+00	0	32	101	1048576	42	5915
2026-01-05 20:44:38.35	358.22	23.76	-32.0	-32.5	27.6	0.00e+00	0	32	101	1048576	42	5866
2026-01-05 20:44:39.37	358.01	23.87	-32.0	-32.5	27.6	0.00e+00	0	32	101	1048576	42	5865
2026-01-05 20:44:40.38	357.81	23.97	-32.3	-32.7	27.4	0.00e+00	0	32	101	1048576	42	6024
2026-01-05 20:44:41.39	357.60	24.08	-31.7	-32.2	27.9	0.00e+00	0	32	101	1048576	42	5643
2026-01-05 20:44:42.40	357.39	24.19	-31.8	-32.3	27.8	0.00e+00	0	32	101	1048576	42	5711
2026-01-05 20:44:43.41	357.18	24.29	-31.9	-32.4	27.8	0.00e+00	0	32	101	1048576	42	5771
2026-01-05 20:44:44.42	356.96	24.40	-31.7	-32.1	27.9	0.00e+00	0	32	101	1048576	42	5629
2026-01-05 20:44:45.43	356.75	24.50	-31.7	-32.1	27.9	0.00e+00	0	32	101	1048576	42	5626
2026-01-05 20:44:46.45	356.53	24.61	-31.8	-32.3	27.8	0.00e+00	0	32	101	1048576	42	5712
2026-01-05 20:44:47.46	356.31	24.72	-31.7	-32.2	27.9	0.00e+00	0	32	101	1048576	42	5660
2026-01-05 20:44:48.47	356.10	24.82	-31.7	-32.2	27.8	0.00e+00	0	32	101	1048576	42	5647
2026-01-05 20:44:49.48	355.88	24.93	-31.9	-32.3	27.8	0.00e+00	0	32	101	1048576	42	5751
2026-01-05 20:44:50.49	355.65	25.03	-31.7	-32.1	27.9	0.00e+00	0	32	101	1048576	42	5626
2026-01-05 20:44:51.50	355.43	25.14	-31.5	-32.0	28.0	0.00e+00	0	32	101	1048576	42	5534
2026-01-05 20:44:52.52	355.20	25.25	-31.6	-32.1	28.0	0.00e+00	0	32	101	1048576	42	5592
2026-01-05 20:44:53.53	354.98	25.35	-31.6	-32.1	28.0	0.00e+00	0	32	101	1048576	42	5569
2026-01-05 20:44:54.54	354.75	25.46	-31.6	-32.0	27.9	0.00e+00	0	32	101	1048576	42	5564
2026-01-05 20:44:55.55	354.52	25.56	-31.6	-32.1	27.9	0.00e+00	0	32	101	1048576	42	5601
2026-01-05 20:44:56.56	354.29	25.67	-31.6	-32.0	28.0	0.00e+00	0	32	101	1048576	42	5554
2026-01-05 20:44:57.57	354.06	25.77	-31.5	-32.0	27.9	0.00e+00	0	32	101	1048576	42	5533
2026-01-05 20:44:58.58	353.82	25.88	-31.6	-32.0	27.9	0.00e+00	0	32	101	1048576	42	5557
2026-01-05 20:44:59.59	353.59	25.98	-31.5	-32.0	27.9	0.00e+00	0	32	101	1048576	42	5550
2026-01-05 20:45:00.61	353.35	26.09	-31.8	-32.3	27.7	0.00e+00	0	32	101	1048576	42	5726
2026-01-05 20:45:01.62	353.11	26.19	-31.6	-32.1	27.8	0.00e+00	0	32	101	1048576	42	5593
2026-01-05 20:45:02.63	352.87	26.30	-31.6	-32.1	27.7	0.00e+00	0	32	101	1048576	42	5595
2026-01-05 20:45:03.64	352.63	26.40	-31.9	-32.4	27.6	0.00e+00	0	32	101	1048576	42	5801
2026-01-05 20:45:04.65	352.39	26.51	-31.8	-32.3	27.8	0.00e+00	0	32	101	1048576	42	5711
2026-01-05 20:45:05.66	352.14	26.61	-31.9	-32.4	27.6	0.00e+00	0	32	101	1048576	42	5817
2026-01-05 20:45:06.67	351.89	26.71	-31.8	-32.2	27.5	0.00e+00	0	32	101	1048576	42	5684
2026-01-05 20:45:07.69	351.64	26.82	-31.9	-32.4	27.4	0.00e+00	0	32	101	1048576	42	5772
2026-01-05 20:45:08.70	351.39	26.92	-31.8	-32.3	27.7	0.00e+00	0	32	101	1048576	42	5730
2026-01-05 20:45:09.71	351.14	27.03	-31.8	-32.3	27.8	0.00e+00	0	32	101	1048576	42	5708
2026-01-05 20:45:10.72	350.89	27.13	-31.7	-32.2	27.8	0.00e+00	0	32	101	1048576	42	5644
2026-01-05 20:45:11.73	350.63	27.23	-31.8	-32.3	27.7	0.00e+00	0	32	101	1048576	42	5699
2026-01-05 20:45:12.74	350.38	27.33	-31.5	-31.9	28.0	0.00e+00	0	32	101	1048576	42	5499
2026-01-05 20:45:13.75	350.12	27.44	-31.6	-32.1	27.9	0.00e+00	0	32	101	1048576	42	5569
2026-01-05 20:45:14.76	349.86	27.54	-31.7	-32.1	28.0	0.00e+00	0	32	101	1048576	42	5618
2026-01-05 20:45:15.77	349.60	27.64	-31.7	-32.1	28.0	0.00e+00	0	32	101	1048576	42	5609
2026-01-05 20:45:16.78	349.33	27.74	-31.7	-32.1	27.9	0.00e+00	0	32	101	1048576	42	5618
2026-01-05 20:45:17.79	349.07	27.84	-31.7	-32.2	27.8	0.00e+00	0	32	101	1048576	42	5684
2026-01-05 20:45:18.81	348.80	27.94	-31.9	-32.4	27.8	0.00e+00	0	32	101	1048576	42	5766
2026-01-05 20:45:19.82	348.53	28.04	-32.0	-32.5	27.6	0.00e+00	0	32	101	1048576	42	5840
2026-01-05 20:45:20.83	348.26	28.14	-32.0	-32.5	27.8	0.00e+00	0	32	101	1048576	42	5836
2026-01-05 20:45:21.84	347.99	28.24	-31.9	-32.3	27.8	0.00e+00	0	32	101	1048576	42	5747
2026-01-05 20:45:22.85	347.71	28.34	-31.8	-32.2	27.9	0.00e+00	0	32	101	1048576	42	5673
2026-01-05 20:45:23.86	347.44	28.44	-31.5	-32.0	28.1	0.00e+00	0	32	101	1048576	42	5504
2026-01-05 20:45:24.87	347.16	28.54	-31.4	-31.9	28.1	0.00e+00	0	32	101	1048576	42	5462
2026-01-05 20:45:25.88	346.88	28.64	-31.4	-31.9	28.2	0.00e+00	0	32	101	1048576	42	5448
2026-01-05 20:45:26.89	346.60	28.74	-31.5	-31.9	28.1	0.00e+00	0	32	101	1048576	42	5502
2026-01-05 20:45:27.91	346.32	28.84	-31.7	-32.2	27.9	0.00e+00	0	32	101	1048576	42	5651
2026-01-05 20:45:28.92	346.03	28.93	-31.7	-32.1	28.1	0.00e+00	0	32	101	1048576	42	5616
2026-01-05 20:45:29.93	345.75	29.03	-31.7	-32.2	28.0	0.00e+00	0	32	101	1048576	42	5642
2026-01-05 20:45:30.94	345.46	29.12	-31.7	-32.2	27.9	0.00e+00	0	32	101	1048576	42	5644
2026-01-05 20:45:31.95	345.17	29.22	-31.9	-32.4	27.8	0.00e+00	0	32	101	1048576	42	5776
2026-01-05 20:45:32.96	344.88	29.31	-31.8	-32.3	27.8	0.00e+00	0	32	101	1048576	42	5735
2026-01-05 20:45:33.97	344.59	29.41	-32.0	-32.4	27.6	0.00e+00	0	32	101	1048576	42	5824
2026-01-05 20:45:34.98	344.29	29.50	-31.7	-32.1	27.9	0.00e+00	0	32	101	1048576	42	5617
2026-01-05 20:45:35.99	344.00	29.60	-31.6	-32.1	27.9	0.00e+00	0	32	101	1048576	42	5579
2026-01-05 20:45:37.01	343.70	29.69	-31.8	-32.3	27.8	0.00e+00	0	32	101	1048576	42	5732
2026-01-05 20:45:38.02	343.40	29.78	-31.7	-32.2	28.0	0.00e+00	0	32	101	1048576	42	5645
2026-01-05 20:45:39.03	343.10	29.87	-31.7	-32.2	27.8	0.00e+00	0	32	101	1048576	42	5677
2026-01-05 20:45:40.04	342.79	29.97	-31.8	-32.3	27.8	0.00e+00	0	32	101	1048576	42	5735
2026-01-05 20:45:41.05	342.49	30.06	-31.9	-32.3	27.7	0.00e+00	0	32	101	1048576	42	5761
2026-01-05 20:45:42.06	342.18	30.15	-31.8	-32.2	27.9	0.00e+00	0	32	101	1048576	42	5677
2026-01-05 20:45:43.07	341.87	30.23	-31.7	-32.2	27.9	0.00e+00	0	32	101	1048576	42	5635
2026-01-05 20:45:44.08	341.56	30.32	-31.5	-32.0	28.1	0.00e+00	0	32	101	1048576	42	5517
2026-01-05 20:45:45.10	341.25	30.41	-31.4	-31.8	28.2	0.00e+00	0	32	101	1048576	42	5433
2026-01-05 20:45:46.11	340.93	30.50	-31.3	-31.8	28.2	0.00e+00	0	32	101	1048576	42	5403
2026-01-05 20:45:47.12	340.62	30.58	-31.2	-31.6	28.3	0.00e+00	0	32	101	1048576	42	5300
2026-01-05 20:45:48.13	340.30	30.67	-31.2	-31.6	28.3	0.00e+00	0	32	101	1048576	42	5307
2026-01-05 20:45:49.14	339.98	30.76	-31.2	-31.7	28.3	0.00e+00	0	32	101	1048576	42	5317
2026-01-05 20:45:50.15	339.66	30.84	-31.2	-31.7	28.3	0.00e+00	0	32	101	1048576	42	5316
2026-01-05 20:45:51.16	339.34	30.92	-31.4	-31.9	28.1	0.00e+00	0	32	101	1048576	42	5463
2026-01-05 20:45:52.17	339.02	31.01	-31.3	-31.8	28.2	0.00e+00	0	32	101	1048576	42	5402
2026-01-05 20:45:53.18	338.69	31.09	-31.5	-32.0	28.0	0.00e+00	0	32	101	1048576	42	5523
2026-01-05 20:45:54.19	338.37	31.17	-31.2	-31.7	28.3	0.00e+00	0	32	101	1048576	42	5356
2026-01-05 20:45:55.21	338.03	31.25	-31.4	-31.9	28.2	0.00e+00	0	32	101	1048576	42	5449
2026-01-05 20:45:56.22	337.70	31.33	-31.4	-31.9	28.1	0.00e+00	0	32	101	1048576	42	5449
2026-01-05 20:45:57.23	337.37	31.41	-31.5	-31.9	28.1	0.00e+00	0	32	101	1048576	42	5487
2026-01-05 20:45:58.24	337.04	31.48	-31.5	-32.0	28.0	0.00e+00	0	32	101	1048576	42	5545
2026-01-05 20:45:59.25	336.70	31.56	-31.5	-31.9	28.1	0.00e+00	0	32	101	1048576	42	5485
2026-01-05 20:46:00.26	336.37	31.64	-31.2	-31.7	28.2	0.00e+00	0	32	101	1048576	42	5327
2026-01-05 20:46:01.27	336.03	31.71	-31.3	-31.7	28.2	0.00e+00	0	32	101	1048576	42	5364
2026-01-05 20:46:02.28	335.69	31.78	-31.2	-31.6	28.3	0.00e+00	0	32	101	1048576	42	5295
2026-01-05 20:46:03.29	335.35	31.86	-31.2	-31.6	28.4	0.00e+00	0	32	101	1048576	42	5309
2026-01-05 20:46:04.30	335.01	31.93	-31.1	-31.5	28.4	0.00e+00	0	32	101	1048576	40	5882
2026-01-05 20:46:05.32	334.66	32.00	-31.1	-31.5	28.3	0.00e+00	0	32	101	1048576	40	5892
2026-01-05 20:46:06.33	334.31	32.07	-31.1	-31.6	28.3	0.00e+00	0	32	101	1048576	40	5917
2026-01-05 20:46:07.34	333.96	32.14	-31.1	-31.6	28.4	0.00e+00	0	32	101	1048576	40	5905
2026-01-05 20:46:08.35	333.61	32.21	-30.9	-31.4	28.4	0.00e+00	0	32	101	1048576	40	5781
2026-01-05 20:46:09.36	333.26	32.27	-31.0	-31.5	28.4	0.00e+00	0	32	101	1048576	40	5831
2026-01-05 20:46:10.37	332.91	32.34	-31.2	-31.6	28.4	0.00e+00	0	32	101	1048576	40	5958
2026-01-05 20:46:11.38	332.56	32.40	-31.1	-31.6	28.3	0.00e+00	0	32	101	1048576	40	5903
2026-01-05 20:46:12.40	332.20	32.47	-31.1	-31.5	28.4	0.00e+00	0	32	101	1048576	40	5886
2026-01-05 20:46:13.41	331.85	32.53	-31.1	-31.6	28.4	0.00e+00	0	32	101	1048576	40	5918
2026-01-05 20:46:14.42	331.49	32.59	-31.2	-31.6	28.3	0.00e+00	0	32	101	1048576	40	5940
2026-01-05 20:46:15.43	331.13	32.65	-31.3	-31.7	28.2	0.00e+00	0	32	101	1048576	40	6032
2026-01-05 20:46:16.44	330.77	32.71	-31.1	-31.5	28.4	0.00e+00	0	32	101	1048576	40	5872
2026-01-05 20:46:17.45	330.41	32.77	-31.0	-31.5	28.4	0.00e+00	0	32	101	1048576	40	5873
2026-01-05 20:46:18.47	330.04	32.83	-30.9	-31.3	28.5	0.00e+00	0	32	101	1048576	40	5751
2026-01-05 20:46:19.48	329.68	32.88	-30.9	-31.4	28.5	0.00e+00	0	32	101	1048576	40	5788
2026-01-05 20:46:20.49	329.31	32.93	-30.9	-31.3	28.5	0.00e+00	0	32	101	1048576	40	5747
2026-01-05 20:46:21.50	328.95	32.99	-30.8	-31.3	28.6	0.00e+00	0	32	101	1048576	40	5727
2026-01-05 20:46:22.51	328.58	33.04	-30.8	-31.2	28.6	0.00e+00	0	32	101	1048576	40	5688
2026-01-05 20:46:23.52	328.21	33.09	-30.8	-31.3	28.5	0.00e+00	0	32	101	1048576	40	5726
2026-01-05 20:46:24.53	327.84	33.14	-30.9	-31.3	28.5	0.00e+00	0	32	101	1048576	40	5748
2026-01-05 20:46:25.54	327.47	33.19	-31.0	-31.5	28.4	0.00e+00	0	32	101	1048576	40	5856
2026-01-05 20:46:26.56	327.09	33.23	-31.0	-31.5	28.4	0.00e+00	0	32	101	1048576	40	5847
2026-01-05 20:46:27.57	326.72	33.28	-31.1	-31.6	28.4	0.00e+00	0	32	101	1048576	40	5929
2026-01-05 20:46:28.58	326.34	33.32	-31.1	-31.5	28.4	0.00e+00	0	32	101	1048576	40	5875
2026-01-05 20:46:29.59	325.97	33.36	-31.2	-31.7	28.3	0.00e+00	0	32	101	1048576	40	5994
2026-01-05 20:46:30.60	325.59	33.41	-31.1	-31.6	28.3	0.00e+00	0	32	101	1048576	40	5904
2026-01-05 20:46:31.61	325.22	33.45	-31.3	-31.8	28.2	0.00e+00	0	32	101	1048576	40	6069
2026-01-05 20:46:32.62	324.84	33.48	-31.2	-31.7	28.3	0.00e+00	0	32	101	1048576	40	5979
2026-01-05 20:46:33.63	324.46	33.52	-31.0	-31.5	28.5	0.00e+00	0	32	101	1048576	40	5832
2026-01-05 20:46:34.65	324.07	33.56	-31.0	-31.4	28.5	0.00e+00	0	32	101	1048576	40	5807
2026-01-05 20:46:35.66	323.69	33.59	-30.9	-31.3	28.6	0.00e+00	0	32	101	1048576	40	5747
2026-01-05 20:46:36.67	323.31	33.62	-30.8	-31.3	28.5	0.00e+00	0	32	101	1048576	40	5728
2026-01-05 20:46:37.68	322.93	33.66	-30.9	-31.4	28.5	0.00e+00	0	32	101	1048576	40	5768
2026-01-05 20:46:38.69	322.55	33.69	-31.1	-31.5	28.3	0.00e+00	0	32	101	1048576	40	5884
2026-01-05 20:46:39.70	322.16	33.71	-31.2	-31.6	28.3	0.00e+00	0	32	101	1048576	40	5964
2026-01-05 20:46:40.71	321.78	33.74	-31.3	-31.8	28.2	0.00e+00	0	32	101	1048576	40	6057
2026-01-05 20:46:41.72	321.39	33.77	-31.2	-31.7	28.4	0.00e+00	0	32	101	1048576	40	5992
2026-01-05 20:46:42.73	321.01	33.79	-31.1	-31.5	28.4	0.00e+00	0	32	101	1048576	40	5892
2026-01-05 20:46:43.75	320.62	33.81	-31.1	-31.5	28.5	0.00e+00	0	32	101	1048576	40	5866
2026-01-05 20:46:44.76	320.23	33.84	-31.1	-31.6	28.4	0.00e+00	0	32	101	1048576	40	5911
2026-01-05 20:46:45.77	319.84	33.86	-31.2	-31.7	28.3	0.00e+00	0	32	101	1048576	40	6000
2026-01-05 20:46:46.78	319.46	33.87	-31.3	-31.7	28.2	0.00e+00	0	32	101	1048576	40	6027
2026-01-05 20:46:47.79	319.07	33.89	-31.2	-31.7	28.3	0.00e+00	0	32	101	1048576	40	5996
2026-01-05 20:46:48.80	318.68	33.91	-31.4	-31.8	28.2	0.00e+00	0	32	101	1048576	40	6084
2026-01-05 20:46:49.81	318.29	33.92	-31.4	-31.9	28.2	0.00e+00	0	32	101	1048576	40	6115
2026-01-05 20:46:50.82	317.90	33.93	-31.3	-31.7	28.3	0.00e+00	0	32	101	1048576	40	6014
2026-01-05 20:46:51.83	317.51	33.94	-31.3	-31.7	28.3	0.00e+00	0	32	101	1048576	40	6012
2026-01-05 20:46:52.84	317.12	33.95	-31.1	-31.6	28.5	0.00e+00	0	32	101	1048576	40	5918
2026-01-05 20:46:53.86	316.73	33.96	-31.0	-31.5	28.3	0.00e+00	0	32	101	1048576	40	5859
2026-01-05 20:46:54.87	316.34	33.97	-31.2	-31.6	28.3	0.00e+00	0	32	101	1048576	40	5947
2026-01-05 20:46:55.88	315.95	33.97	-31.1	-31.6	28.4	0.00e+00	0	32	101	1048576	40	5909
2026-01-05 20:46:56.89	315.56	33.98	-31.2	-31.6	28.3	0.00e+00	0	32	101	1048576	40	5949
2026-01-05 20:46:57.90	315.17	33.98	-30.9	-31.3	28.6	0.00e+00	0	32	101	1048576	40	5753
2026-01-05 20:46:58.91	314.78	33.98	-31.0	-31.5	28.5	0.00e+00	0	32	101	1048576	40	5836
2026-01-05 20:46:59.92	314.39	33.98	-31.0	-31.5	28.5	0.00e+00	0	32	101	1048576	40	5847
2026-01-05 20:47:00.93	314.00	33.97	-30.8	-31.2	28.7	0.00e+00	0	32	101	1048576	40	5667
2026-01-05 20:47:01.94	313.60	33.97	-30.7	-31.1	28.7	0.00e+00	0	32	101	1048576	40	5609
2026-01-05 20:47:02.96	313.21	33.96	-30.7	-31.2	28.7	0.00e+00	0	32	101	1048576	40	5643
2026-01-05 20:47:03.97	312.82	33.96	-30.8	-31.3	28.5	0.00e+00	0	32	101	1048576	40	5724
2026-01-05 20:47:04.98	312.43	33.95	-31.1	-31.5	28.4	0.00e+00	0	32	101	1048576	40	5878
2026-01-05 20:47:05.99	312.04	33.94	-31.2	-31.6	28.3	0.00e+00	0	32	101	1048576	40	5960
2026-01-05 20:47:07.00	311.65	33.93	-31.3	-31.8	28.2	0.00e+00	0	32	101	1048576	40	6060
2026-01-05 20:47:08.01	311.26	33.91	-31.3	-31.8	28.3	0.00e+00	0	32	101	1048576	40	6043
2026-01-05 20:47:09.02	310.87	33.90	-31.3	-31.7	28.3	0.00e+00	0	32	101	1048576	40	6029
2026-01-05 20:47:10.03	310.48	33.88	-31.1	-31.5	28.4	0.00e+00	0	32	101	1048576	40	5873
2026-01-05 20:47:11.04	310.10	33.86	-31.0	-31.5	28.4	0.00e+00	0	32	101	1048576	40	5860
2026-01-05 20:47:12.06	309.71	33.84	-31.1	-31.5	28.4	0.00e+00	0	32	101	1048576	40	5876
2026-01-05 20:47:13.07	309.32	33.82	-31.0	-31.5	28.3	0.00e+00	0	32	101	1048576	40	5852
2026-01-05 20:47:14.08	308.93	33.80	-31.0	-31.5	28.4	0.00e+00	0	32	101	1048576	40	5863
2026-01-05 20:47:15.09	308.55	33.78	-31.2	-31.7	28.2	0.00e+00	0	32	101	1048576	40	6004
2026-01-05 20:47:16.10	308.16	33.75	-31.2	-31.6	28.3	0.00e+00	0	32	101	1048576	40	5942
2026-01-05 20:47:17.11	307.77	33.73	-31.1	-31.5	28.2	0.00e+00	0	32	101	1048576	40	5866
2026-01-05 20:47:18.12	307.39	33.70	-31.1	-31.6	27.8	0.00e+00	0	32	101	1048576	40	5909
2026-01-05 20:47:19.13	307.01	33.67	-31.1	-31.5	28.2	0.00e+00	0	32	101	1048576	40	5882
2026-01-05 20:47:20.14	306.62	33.64	-31.1	-31.6	28.2	0.00e+00	0	32	101	1048576	40	5935
2026-01-05 20:47:21.15	306.24	33.61	-31.1	-31.6	28.3	0.00e+00	0	32	101	1048576	40	5922
2026-01-05 20:47:22.16	305.86	33.57	-31.2	-31.7	28.3	0.00e+00	0	32	101	1048576	40	5968
2026-01-05 20:47:23.17	305.48	33.54	-30.9	-31.4	28.4	0.00e+00	0	32	101	1048576	40	5788
2026-01-05 20:47:24.19	305.10	33.50	-31.0	-31.4	28.5	0.00e+00	0	32	101	1048576	40	5814
2026-01-05 20:47:25.20	304.72	33.46	-30.9	-31.4	28.5	0.00e+00	0	32	101	1048576	40	5785
2026-01-05 20:47:26.21	304.34	33.42	-30.9	-31.4	28.5	0.00e+00	0	32	101	1048576	40	5771
2026-01-05 20:47:27.22	303.96	33.38	-30.8	-31.3	28.6	0.00e+00	0	32	101	1048576	40	5699
2026-01-05 20:47:28.23	303.59	33.34	-30.7	-31.2	28.6	0.00e+00	0	32	101	1048576	40	5653
2026-01-05 20:47:29.24	303.21	33.30	-30.8	-31.3	28.5	0.00e+00	0	32	101	1048576	40	5702
2026-01-05 20:47:30.25	302.84	33.25	-31.0	-31.4	28.5	0.00e+00	0	32	101	1048576	40	5814
2026-01-05 20:47:31.26	302.46	33.21	-31.0	-31.5	28.5	0.00e+00	0	32	101	1048576	40	5837
2026-01-05 20:47:32.28	302.09	33.16	-31.1	-31.6	28.4	0.00e+00	0	32	101	1048576	40	5909
2026-01-05 20:47:33.29	301.72	33.11	-30.9	-31.4	28.5	0.00e+00	0	32	101	1048576	40	5782
2026-01-05 20:47:34.30	301.35	33.06	-30.9	-31.4	28.5	0.00e+00	0	32	101	1048576	40	5767
2026-01-05 20:47:35.31	300.98	33.01	-30.9	-31.4	28.5	0.00e+00	0	32	101	1048576	40	5787
2026-01-05 20:47:36.32	300.61	32.96	-30.9	-31.4	28.5	0.00e+00	0	32	101	1048576	40	5780
2026-01-05 20:47:37.33	300.24	32.90	-31.0	-31.4	28.5	0.00e+00	0	32	101	1048576	40	5815
2026-01-05 20:47:38.34	299.88	32.85	-31.1	-31.5	28.4	0.00e+00	0	32	101	1048576	40	5895
2026-01-05 20:47:39.36	299.51	32.79	-31.1	-31.6	28.4	0.00e+00	0	32	101	1048576	40	5899
2026-01-05 20:47:40.37	299.15	32.73	-31.1	-31.6	28.3	0.00e+00	0	32	101	1048576	40	5938
2026-01-05 20:47:41.38	298.79	32.68	-31.0	-31.5	28.5	0.00e+00	0	32	101	1048576	40	5832
2026-01-05 20:47:42.39	298.43	32.62	-31.0	-31.4	28.5	0.00e+00	0	32	101	1048576	40	5812
2026-01-05 20:47:43.40	298.07	32.55	-31.0	-31.5	28.5	0.00e+00	0	32	101	1048576	40	5869
2026-01-05 20:47:44.41	297.71	32.49	-31.1	-31.6	28.4	0.00e+00	0	32	101	1048576	40	5915
2026-01-05 20:47:45.42	297.36	32.43	-31.2	-31.7	28.3	0.00e+00	0	32	101	1048576	40	6010
2026-01-05 20:47:46.44	297.00	32.37	-31.1	-31.5	28.4	0.00e+00	0	32	101	1048576	40	5871
2026-01-05 20:47:47.45	296.65	32.30	-31.3	-31.7	28.2	0.00e+00	0	32	101	1048576	40	6012
2026-01-05 20:47:48.46	296.29	32.23	-31.3	-31.8	28.2	0.00e+00	0	32	101	1048576	40	6053
2026-01-05 20:47:49.47	295.94	32.17	-31.3	-31.8	28.2	0.00e+00	0	32	101	1048576	40	6054
2026-01-05 20:47:50.48	295.60	32.10	-31.1	-31.6	28.4	0.00e+00	0	32	101	1048576	40	5905
2026-01-05 20:47:51.49	295.25	32.03	-31.1	-31.6	28.3	0.00e+00	0	32	101	1048576	40	5934
2026-01-05 20:47:52.50	294.90	31.96	-31.3	-31.7	28.3	0.00e+00	0	32	101	1048576	40	6032
2026-01-05 20:47:53.52	294.55	31.89	-31.1	-31.5	28.4	0.00e+00	0	32	101	1048576	40	5891
2026-01-05 20:47:54.53	294.21	31.81	-31.1	-31.6	28.4	0.00e+00	0	32	101	1048576	40	5924
2026-01-05 20:47:55.54	293.87	31.74	-31.1	-31.6	28.3	0.00e+00	0	32	101	1048576	40	5909
2026-01-05 20:47:56.55	293.53	31.66	-31.2	-31.7	28.3	0.00e+00	0	32	101	1048576	40	6001
2026-01-05 20:47:57.56	293.19	31.59	-31.0	-31.4	28.5	0.00e+00	0	32	101	1048576	40	5810
2026-01-05 20:47:58.57	292.86	31.51	-31.0	-31.4	28.3	0.00e+00	0	32	101	1048576	40	5826
2026-01-05 20:47:59.58	292.52	31.44	-31.1	-31.6	28.4	0.00e+00	0	32	101	1048576	40	5931
2026-01-05 20:48:00.60	292.19	31.36	-30.9	-31.4	28.5	0.00e+00	0	32	101	1048576	40	5796
2026-01-05 20:48:01.61	291.85	31.28	-31.1	-31.6	28.4	0.00e+00	0	32	101	1048576	40	5904
2026-01-05 20:48:02.62	291.52	31.20	-30.9	-31.4	28.5	0.00e+00	0	32	101	1048576	40	5798
2026-01-05 20:48:03.63	291.20	31.12	-31.0	-31.5	28.5	0.00e+00	0	32	101	1048576	40	5849
2026-01-05 20:48:04.64	290.87	31.03	-31.2	-31.7	28.3	0.00e+00	0	32	101	1048576	40	5994
2026-01-05 20:48:05.65	290.54	30.95	-31.2	-31.6	28.0	0.00e+00	0	32	101	1048576	40	5952
2026-01-05 20:48:06.67	290.22	30.87	-31.3	-31.7	28.2	0.00e+00	0	32	101	1048576	40	6019
2026-01-05 20:48:07.68	289.90	30.78	-31.4	-31.8	28.1	0.00e+00	0	32	101	1048576	40	6090
2026-01-05 20:48:08.69	289.58	30.70	-31.2	-31.7	28.3	0.00e+00	0	32	101	1048576	40	6005
2026-01-05 20:48:09.70	289.26	30.61	-31.3	-31.8	28.3	0.00e+00	0	32	101	1048576	40	6065
2026-01-05 20:48:10.71	288.94	30.53	-31.1	-31.6	28.4	0.00e+00	0	32	101	1048576	40	5924
2026-01-05 20:48:11.72	288.63	30.44	-31.2	-31.7	28.3	0.00e+00	0	32	101	1048576	40	5979
2026-01-05 20:48:12.73	288.31	30.35	-31.2	-31.7	28.3	0.00e+00	0	32	101	1048576	40	5996
2026-01-05 20:48:13.74	288.00	30.26	-31.2	-31.6	28.3	0.00e+00	0	32	101	1048576	40	5960
2026-01-05 20:48:14.75	287.69	30.18	-31.2	-31.6	28.3	0.00e+00	0	32	101	1048576	40	5942
2026-01-05 20:48:15.77	287.38	30.08	-31.1	-31.6	28.1	0.00e+00	0	32	101	1048576	40	5911
2026-01-05 20:48:16.78	287.07	29.99	-31.2	-31.7	28.3	0.00e+00	0	32	101	1048576	40	5971
2026-01-05 20:48:17.79	286.77	29.90	-31.3	-31.8	28.2	0.00e+00	0	32	101	1048576	40	6058
2026-01-05 20:48:18.80	286.47	29.81	-31.3	-31.8	28.2	0.00e+00	0	32	101	1048576	40	6070
2026-01-05 20:48:19.81	286.17	29.72	-31.2	-31.6	28.3	0.00e+00	0	32	101	1048576	40	5964
2026-01-05 20:48:20.82	285.87	29.63	-31.3	-31.7	28.3	0.00e+00	0	32	101	1048576	40	6020
2026-01-05 20:48:21.83	285.57	29.53	-31.2	-31.7	28.3	0.00e+00	0	32	101	1048576	40	5983
2026-01-05 20:48:22.84	285.27	29.44	-31.2	-31.7	28.3	0.00e+00	0	32	101	1048576	40	5998
2026-01-05 20:48:23.85	284.98	29.34	-31.2	-31.6	28.3	0.00e+00	0	32	101	1048576	40	5947
2026-01-05 20:48:24.86	284.69	29.25	-31.3	-31.7	28.3	0.00e+00	0	32	101	1048576	40	6021
2026-01-05 20:48:25.88	284.39	29.15	-31.2	-31.7	28.3	0.00e+00	0	32	101	1048576	40	5965
2026-01-05 20:48:26.89	284.10	29.06	-31.2	-31.7	28.0	0.00e+00	0	32	101	1048576	40	5979
2026-01-05 20:48:27.90	283.82	28.96	-31.3	-31.8	28.2	0.00e+00	0	32	101	1048576	40	6075
2026-01-05 20:48:28.91	283.53	28.86	-31.4	-31.8	28.1	0.00e+00	0	32	101	1048576	40	6078
2026-01-05 20:48:29.92	283.25	28.77	-31.3	-31.8	28.3	0.00e+00	0	32	101	1048576	40	6048
2026-01-05 20:48:30.93	282.96	28.67	-31.4	-31.9	28.1	0.00e+00	0	32	101	1048576	40	6126
2026-01-05 20:48:31.94	282.68	28.57	-31.2	-31.6	28.2	0.00e+00	0	32	101	1048576	40	5952
2026-01-05 20:48:32.95	282.41	28.47	-31.3	-31.7	28.2	0.00e+00	0	32	101	1048576	40	6012
2026-01-05 20:48:33.97	282.13	28.37	-31.3	-31.7	28.2	0.00e+00	0	32	101	1048576	40	6025
2026-01-05 20:48:34.98	281.85	28.27	-31.2	-31.6	28.3	0.00e+00	0	32	101	1048576	40	5939
2026-01-05 20:48:35.99	281.58	28.17	-31.1	-31.6	28.4	0.00e+00	0	32	101	1048576	40	5904
2026-01-05 20:48:37.00	281.31	28.07	-31.0	-31.4	28.4	0.00e+00	0	32	101	1048576	40	5801
2026-01-05 20:48:38.01	281.04	27.97	-31.0	-31.5	28.4	0.00e+00	0	32	101	1048576	40	5851
2026-01-05 20:48:39.02	280.77	27.87	-31.2	-31.7	28.3	0.00e+00	0	32	101	1048576	40	5990
2026-01-05 20:48:40.03	280.50	27.77	-31.3	-31.8	28.2	0.00e+00	0	32	101	1048576	40	6076
2026-01-05 20:48:41.04	280.24	27.67	-31.4	-31.8	28.2	0.00e+00	0	32	101	1048576	40	6100
2026-01-05 20:48:42.05	279.97	27.57	-31.5	-32.0	28.1	0.00e+00	0	32	101	1048576	40	6174
2026-01-05 20:48:43.07	279.71	27.46	-31.4	-32.1	23.7	0.00e+00	0	32	101	1048576	40	6258
2026-01-05 20:48:44.08	279.45	27.36	-31.5	-32.2	23.7	0.00e+00	0	32	101	1048576	40	6333
2026-01-05 20:48:45.09	279.19	27.26	-31.6	-32.3	23.6	0.00e+00	0	32	101	1048576	40	6403
2026-01-05 20:48:46.10	278.93	27.15	-31.7	-32.4	23.7	0.00e+00	0	32	101	1048576	40	6481
2026-01-05 20:48:47.11	278.68	27.05	-31.6	-32.3	23.5	0.00e+00	0	32	101	1048576	40	6405
2026-01-05 20:48:48.12	278.43	26.95	-31.6	-32.2	23.8	0.00e+00	0	32	101	1048576	40	6375
2026-01-05 20:48:49.13	278.18	26.84	-31.5	-32.2	23.9	0.00e+00	0	32	101	1048576	40	6328
2026-01-05 20:48:50.14	277.93	26.74	-31.7	-32.3	23.9	0.00e+00	0	32	101	1048576	40	6446
2026-01-05 20:48:51.15	277.68	26.64	-31.4	-32.1	23.9	0.00e+00	0	32	101	1048576	40	6256
2026-01-05 20:48:52.17	277.43	26.53	-31.5	-32.2	23.9	0.00e+00	0	32	101	1048576	40	6320
2026-01-05 20:48:53.18	277.18	26.43	-31.3	-31.9	24.0	0.00e+00	0	32	101	1048576	40	6164
2026-01-05 20:48:54.19	276.94	26.32	-31.4	-32.0	24.0	0.00e+00	0	32	101	1048576	40	6235
2026-01-05 20:48:55.20	276.70	26.22	-31.3	-31.9	24.0	0.00e+00	0	32	101	1048576	40	6159
2026-01-05 20:48:56.21	276.46	26.11	-31.3	-32.0	24.0	0.00e+00	0	32	101	1048576	40	6204
2026-01-05 20:48:57.22	276.22	26.01	-31.4	-32.1	23.9	0.00e+00	0	32	101	1048576	40	6258
2026-01-05 20:48:58.23	275.98	25.90	-31.5	-32.1	23.8	0.00e+00	0	32	101	1048576	40	6312
2026-01-05 20:48:59.24	275.75	25.80	-31.5	-32.2	23.7	0.00e+00	0	32	101	1048576	40	6367
2026-01-05 20:49:00.25	275.51	25.69	-31.6	-32.3	23.8	0.00e+00	0	32	101	1048576	40	6443
2026-01-05 20:49:01.27	275.28	25.58	-31.6	-32.3	23.7	0.00e+00	0	32	101	1048576	40	6426
2026-01-05 20:49:02.28	275.05	25.48	-31.5	-32.2	23.8	0.00e+00	0	32	101	1048576	40	6368
2026-01-05 20:49:03.29	274.82	25.37	-31.4	-32.1	23.9	0.00e+00	0	32	101	1048576	40	6278
2026-01-05 20:49:04.30	274.59	25.27	-31.5	-32.1	23.9	0.00e+00	0	32	101	1048576	40	6308
2026-01-05 20:49:05.31	274.37	25.16	-31.4	-32.1	24.0	0.00e+00	0	32	101	1048576	40	6254
2026-01-05 20:49:06.32	274.14	25.05	-31.4	-32.0	24.0	0.00e+00	0	32	101	1048576	40	6239
2026-01-05 20:49:07.33	273.92	24.95	-31.4	-32.1	24.0	0.00e+00	0	32	101	1048576	40	6257
2026-01-05 20:49:08.34	273.70	24.84	-31.4	-32.0	24.0	0.00e+00	0	32	101	1048576	40	6235
2026-01-05 20:49:09.35	273.48	24.74	-31.3	-32.0	24.0	0.00e+00	0	32	101	1048576	40	6208
2026-01-05 20:49:10.36	273.26	24.63	-31.3	-32.0	23.9	0.00e+00	0	32	101	1048576	40	6207
2026-01-05 20:49:11.38	273.04	24.52	-31.4	-32.1	23.8	0.00e+00	0	32	101	1048576	40	6260
2026-01-05 20:49:12.39	272.82	24.42	-31.5	-32.2	23.8	0.00e+00	0	32	101	1048576	40	6340
2026-01-05 20:49:13.40	272.61	24.31	-31.6	-32.2	23.8	0.00e+00	0	32	101	1048576	40	6384
2026-01-05 20:49:14.41	272.40	24.20	-31.7	-32.4	23.7	0.00e+00	0	32	101	1048576	40	6473
2026-01-05 20:49:15.42	272.19	24.10	-31.7	-32.4	23.6	0.00e+00	0	32	101	1048576	40	6509
2026-01-05 20:49:16.43	271.98	23.99	-31.9	-32.5	23.6	0.00e+00	0	32	101	1048576	40	6611
2026-01-05 20:49:17.44	271.77	23.89	-31.7	-32.4	23.7	0.00e+00	0	32	101	1048576	40	6475
2026-01-05 20:49:18.45	271.56	23.78	-31.8	-32.5	23.8	0.00e+00	0	32	101	1048576	40	6584
2026-01-05 20:49:19.46	271.36	23.67	-31.9	-32.6	23.9	0.00e+00	0	32	101	1048576	40	6643
2026-01-05 20:49:20.48	271.15	23.57	-31.6	-32.2	24.1	0.00e+00	0	32	101	1048576	40	6360
2026-01-05 20:49:21.49	270.95	23.46	-31.6	-32.3	24.2	0.00e+00	0	32	101	1048576	40	6413
2026-01-05 20:49:22.50	270.75	23.35	-31.6	-32.2	24.3	0.00e+00	0	32	101	1048576	40	6364
2026-01-05 20:49:23.51	270.55	23.25	-31.4	-32.0	24.3	0.00e+00	0	32	101	1048576	40	6219
2026-01-05 20:49:24.52	270.35	23.14	-31.4	-32.0	24.3	0.00e+00	0	32	101	1048576	40	6244
2026-01-05 20:49:25.53	270.15	23.04	-31.6	-32.2	24.2	0.00e+00	0	32	101	1048576	40	6357
2026-01-05 20:49:26.54	269.95	22.93	-31.6	-32.2	23.9	0.00e+00	0	32	101	1048576	40	6387
2026-01-05 20:49:27.55	269.76	22.82	-31.6	-32.3	23.8	0.00e+00	0	32	101	1048576	40	6441
2026-01-05 20:49:28.56	269.57	22.72	-31.6	-32.3	23.7	0.00e+00	0	32	101	1048576	40	6396
2026-01-05 20:49:29.58	269.37	22.61	-31.7	-32.4	23.6	0.00e+00	0	32	101	1048576	40	6478
2026-01-05 20:49:30.59	269.18	22.51	-31.6	-32.3	23.6	0.00e+00	0	32	101	1048576	40	6428
2026-01-05 20:49:31.60	268.99	22.40	-31.4	-32.1	23.6	0.00e+00	0	32	101	1048576	40	6270
2026-01-05 20:49:32.61	268.80	22.30	-31.4	-32.1	23.7	0.00e+00	0	32	101	1048576	40	6296
2026-01-05 20:49:33.62	268.62	22.19	-31.4	-32.1	23.8	0.00e+00	0	32	101	1048576	40	6281
2026-01-05 20:49:34.63	268.43	22.09	-31.6	-32.3	23.8	0.00e+00	0	32	101	1048576	40	6415
2026-01-05 20:49:35.64	268.25	21.98	-31.5	-32.2	23.8	0.00e+00	0	32	101	1048576	40	6360
2026-01-05 20:49:36.65	268.07	21.88	-31.6	-32.3	23.8	0.00e+00	0	32	101	1048576	40	6409
2026-01-05 20:49:37.67	267.88	21.77	-31.6	-32.3	23.8	0.00e+00	0	32	101	1048576	40	6405
2026-01-05 20:49:38.68	267.70	21.67	-31.7	-32.4	23.7	0.00e+00	0	32	101	1048576	40	6496
2026-01-05 20:49:39.69	267.52	21.56	-31.7	-32.4	23.6	0.00e+00	0	32	101	1048576	40	6491
2026-01-05 20:49:40.70	267.34	21.46	-31.8	-32.5	23.8	0.00e+00	0	32	101	1048576	40	6545
2026-01-05 20:49:41.71	267.17	21.35	-31.9	-32.6	23.8	0.00e+00	0	32	101	1048576	40	6619
2026-01-05 20:49:42.72	266.99	21.25	-32.1	-32.8	23.7	0.00e+00	0	32	101	1048576	42	6051
2026-01-05 20:49:43.73	266.82	21.14	-32.1	-32.7	23.7	0.00e+00	0	32	101	1048576	42	6029
2026-01-05 20:49:44.74	266.65	21.04	-32.1	-32.8	23.8	0.00e+00	0	32	101	1048576	42	6039
2026-01-05 20:49:45.75	266.47	20.94	-32.1	-32.7	23.8	0.00e+00	0	32	101	1048576	42	6023
2026-01-05 20:49:46.76	266.30	20.83	-32.1	-32.8	23.7	0.00e+00	0	32	101	1048576	42	6051
2026-01-05 20:49:47.78	266.13	20.73	-32.0	-32.7	23.8	0.00e+00	0	32	101	1048576	42	6008
2026-01-05 20:49:48.79	265.96	20.63	-32.1	-32.8	23.6	0.00e+00	0	32	101	1048576	42	6039
2026-01-05 20:49:49.80	265.80	20.52	-32.2	-32.8	23.5	0.00e+00	0	32	101	1048576	42	6094
2026-01-05 20:49:50.81	265.63	20.42	-32.3	-32.9	23.5	0.00e+00	0	32	101	1048576	42	6172
2026-01-05 20:49:51.82	265.46	20.32	-32.3	-33.0	23.5	0.00e+00	0	32	101	1048576	42	6229
2026-01-05 20:49:52.83	265.30	20.22	-32.3	-33.0	23.4	0.00e+00	0	32	101	1048576	42	6205
2026-01-05 20:49:53.84	265.14	20.11	-32.3	-33.0	23.5	0.00e+00	0	32	101	1048576	42	6177
2026-01-05 20:49:54.86	264.97	20.01	-32.1	-32.8	23.6	0.00e+00	0	32	101	1048576	42	6038
2026-01-05 20:49:55.87	264.81	19.91	-32.2	-32.8	23.6	0.00e+00	0	32	101	1048576	42	6090
2026-01-05 20:49:56.88	264.65	19.81	-32.2	-32.8	23.8	0.00e+00	0	32	101	1048576	42	6085
2026-01-05 20:49:57.89	264.50	19.70	-32.2	-32.8	23.8	0.00e+00	0	32	101	1048576	42	6064
2026-01-05 20:49:58.90	264.34	19.60	-32.1	-32.8	23.9	0.00e+00	0	32	101	1048576	42	6047
2026-01-05 20:49:59.91	264.18	19.50	-32.1	-32.8	23.8	0.00e+00	0	32	101	1048576	42	6035
2026-01-05 20:50:00.92	264.03	19.40	-32.2	-32.8	23.7	0.00e+00	0	32	101	1048576	42	6101
2026-01-05 20:50:01.93	263.87	19.30	-32.4	-33.0	23.7	0.00e+00	0	32	101	1048576	42	6239
2026-01-05 20:50:02.94	263.72	19.20	-32.3	-33.0	23.7	0.00e+00	0	32	101	1048576	42	6188
2026-01-05 20:50:03.95	263.57	19.10	-32.3	-33.0	23.7	0.00e+00	0	32	101	1048576	42	6202
2026-01-05 20:50:04.97	263.41	19.00	-32.4	-33.1	23.6	0.00e+00	0	32	101	1048576	42	6294
2026-01-05 20:50:05.98	263.26	18.90	-32.4	-33.0	23.7	0.00e+00	0	32	101	1048576	42	6240
2026-01-05 20:50:06.99	263.11	18.80	-32.3	-33.0	23.8	0.00e+00	0	32	101	1048576	42	6182
2026-01-05 20:50:08.00	262.97	18.70	-32.3	-32.9	23.7	0.00e+00	0	32	101	1048576	42	6156
2026-01-05 20:50:09.01	262.82	18.60	-32.2	-32.9	23.7	0.00e+00	0	32	101	1048576	42	6114
2026-01-05 20:50:10.02	262.67	18.50	-32.4	-33.1	23.4	0.00e+00	0	32	101	1048576	42	6275
2026-01-05 20:50:11.03	262.53	18.40	-32.4	-33.1	23.5	0.00e+00	0	32	101	1048576	42	6260
2026-01-05 20:50:12.04	262.38	18.30	-32.6	-33.2	23.5	0.00e+00	0	32	101	1048576	42	6386
2026-01-05 20:50:13.05	262.24	18.20	-32.7	-33.3	23.5	0.00e+00	0	32	101	1048576	42	6459
2026-01-05 20:50:14.07	262.09	18.10	-32.7	-33.4	23.3	0.00e+00	0	32	101	1048576	42	6520
2026-01-05 20:50:15.08	261.95	18.00	-32.8	-33.5	23.3	0.00e+00	0	32	101	1048576	42	6579
2026-01-05 20:50:16.09	261.81	17.91	-32.9	-33.6	23.1	0.00e+00	0	32	101	1048576	42	6677
2026-01-05 20:50:17.10	261.67	17.81	-32.9	-33.6	23.2	0.00e+00	0	32	101	1048576	42	6676
2026-01-05 20:50:18.11	261.53	17.71	-33.0	-33.7	23.2	0.00e+00	0	32	101	1048576	44	5986
2026-01-05 20:50:19.12	261.40	17.61	-32.9	-33.6	23.2	0.00e+00	0	32	101	1048576	44	5935
2026-01-05 20:50:20.13	261.26	17.52	-32.9	-33.6	23.3	0.00e+00	0	32	101	1048576	44	5912
2026-01-05 20:50:21.14	261.12	17.42	-32.6	-33.3	23.4	0.00e+00	0	32	101	1048576	44	5748
2026-01-05 20:50:22.15	260.99	17.32	-32.8	-33.4	23.5	0.00e+00	0	32	101	1048576	44	5819
2026-01-05 20:50:23.16	260.85	17.23	-32.7	-33.3	23.5	0.00e+00	0	32	101	1048576	44	5755
2026-01-05 20:50:24.17	260.72	17.13	-32.7	-33.3	23.5	0.00e+00	0	32	101	1048576	44	5759
2026-01-05 20:50:25.18	260.59	17.03	-32.6	-33.3	23.6	0.00e+00	0	32	101	1048576	44	5738
2026-01-05 20:50:26.20	260.45	16.94	-32.6	-33.3	23.7	0.00e+00	0	32	101	1048576	44	5713
2026-01-05 20:50:27.21	260.32	16.84	-32.7	-33.4	23.6	0.00e+00	0	32	101	1048576	44	5795
2026-01-05 20:50:28.22	260.19	16.75	-32.8	-33.4	23.5	0.00e+00	0	32	101	1048576	44	5814
2026-01-05 20:50:29.23	260.06	16.65	-32.9	-33.5	23.5	0.00e+00	0	32	101	1048576	44	5895
2026-01-05 20:50:30.24	259.94	16.56	-33.0	-33.6	23.4	0.00e+00	0	32	101	1048576	44	5960
2026-01-05 20:50:31.25	259.81	16.46	-33.0	-33.7	23.3	0.00e+00	0	32	101	1048576	44	5994
2026-01-05 20:50:32.26	259.68	16.37	-33.1	-33.8	23.2	0.00e+00	0	32	101	1048576	44	6089
2026-01-05 20:50:33.28	259.56	16.27	-33.3	-33.9	23.1	0.00e+00	0	32	101	1048576	44	6170
2026-01-05 20:50:34.29	259.43	16.18	-33.5	-34.2	22.9	0.00e+00	0	32	101	1048576	44	6345
2026-01-05 20:50:35.30	259.31	16.08	-33.5	-34.2	23.0	0.00e+00	0	32	101	1048576	44	6365
2026-01-05 20:50:36.31	259.18	15.99	-33.8	-34.5	22.8	0.00e+00	0	32	101	1048576	44	6555
2026-01-05 20:50:37.32	259.06	15.90	-33.9	-34.6	22.6	0.00e+00	0	32	101	1048576	44	6661
2026-01-05 20:50:38.33	258.94	15.80	-33.7	-34.4	22.7	0.00e+00	0	32	101	1048576	44	6539
2026-01-05 20:50:39.34	258.82	15.71	-33.7	-34.5	22.7	0.00e+00	0	32	101	1048576	44	6563
2026-01-05 20:50:40.35	258.70	15.62	-33.6	-34.3	22.8	0.00e+00	0	32	101	1048576	44	6433
2026-01-05 20:50:41.36	258.58	15.52	-33.4	-34.1	22.6	0.00e+00	0	32	101	1048576	44	6269
2026-01-05 20:50:42.38	258.46	15.43	-33.4	-34.1	23.0	0.00e+00	0	32	101	1048576	44	6265
2026-01-05 20:50:43.39	258.34	15.34	-33.5	-34.2	23.0	0.00e+00	0	32	101	1048576	44	6388
2026-01-05 20:50:44.40	258.22	15.25	-33.5	-34.2	23.1	0.00e+00	0	32	101	1048576	44	6349
2026-01-05 20:50:45.41	258.10	15.15	-33.3	-34.0	23.3	0.00e+00	0	32	101	1048576	44	6180
2026-01-05 20:50:46.42	257.99	15.06	-33.1	-33.8	23.4	0.00e+00	0	32	101	1048576	44	6067
2026-01-05 20:50:47.43	257.87	14.97	-33.2	-33.8	23.5	0.00e+00	0	32	101	1048576	44	6088
2026-01-05 20:50:48.44	257.76	14.88	-33.3	-33.9	23.4	0.00e+00	0	32	101	1048576	44	6159
2026-01-05 20:50:49.45	257.65	14.79	-33.2	-33.9	23.5	0.00e+00	0	32	101	1048576	44	6129
2026-01-05 20:50:50.46	257.53	14.70	-33.2	-33.8	23.5	0.00e+00	0	32	101	1048576	44	6099
2026-01-05 20:50:51.48	257.42	14.61	-33.3	-33.9	23.4	0.00e+00	0	32	101	1048576	44	6163
2026-01-05 20:50:52.49	257.31	14.52	-33.4	-34.0	23.3	0.00e+00	0	32	101	1048576	44	6238
2026-01-05 20:50:53.50	257.20	14.43	-33.5	-34.2	23.3	0.00e+00	0	32	101	1048576	44	6328
2026-01-05 20:50:54.51	257.09	14.34	-33.6	-34.3	23.2	0.00e+00	0	32	101	1048576	44	6397
2026-01-05 20:50:55.52	256.98	14.25	-33.7	-34.3	23.2	0.00e+00	0	32	101	1048576	44	6463
2026-01-05 20:50:56.53	256.87	14.16	-33.7	-34.4	23.1	0.00e+00	0	32	101	1048576	44	6539
2026-01-05 20:50:57.54	256.76	14.07	-33.7	-34.4	23.1	0.00e+00	0	32	101	1048576	44	6499
2026-01-05 20:50:58.55	256.65	13.98	-33.7	-34.4	23.1	0.00e+00	0	32	101	1048576	44	6475
2026-01-05 20:50:59.56	256.54	13.89	-33.8	-34.5	23.2	0.00e+00	0	32	101	1048576	44	6553
2026-01-05 20:51:00.57	256.44	13.81	-33.7	-34.4	23.2	0.00e+00	0	32	101	1048576	44	6473
2026-01-05 20:51:01.58	256.33	13.72	-33.9	-34.6	23.1	0.00e+00	0	32	101	1048576	44	6674
2026-01-05 20:51:02.60	256.23	13.63	-33.9	-34.6	23.1	0.00e+00	0	32	101	1048576	44	6617
2026-01-05 20:51:03.61	256.12	13.54	-33.9	-34.6	23.0	0.00e+00	0	32	101	1048576	44	6630
2026-01-05 20:51:04.62	256.02	13.45	-34.0	-34.8	23.0	0.00e+00	0	32	101	1048576	46	6036
2026-01-05 20:51:05.63	255.92	13.37	-34.2	-34.9	22.9	0.00e+00	0	32	101	1048576	46	6129
2026-01-05 20:51:06.64	255.81	13.28	-34.3	-35.0	22.7	0.00e+00	0	32	101	1048576	46	6203
2026-01-05 20:51:07.65	255.71	13.19	-34.3	-35.1	22.7	0.00e+00	0	32	101	1048576	46	6250
2026-01-05 20:51:08.66	255.61	13.11	-34.5	-35.2	22.5	0.00e+00	0	32	101	1048576	46	6390
2026-01-05 20:51:09.67	255.51	13.02	-34.4	-35.1	22.5	0.00e+00	0	32	101	1048576	46	6317
2026-01-05 20:51:10.69	255.41	12.93	-34.5	-35.3	22.4	0.00e+00	0	32	101	1048576	46	6402
2026-01-05 20:51:11.70	255.31	12.85	-34.4	-35.2	22.4	0.00e+00	0	32	101	1048576	46	6335
2026-01-05 20:51:12.71	255.21	12.76	-34.4	-35.2	22.4	0.00e+00	0	32	101	1048576	46	6323
2026-01-05 20:51:13.72	255.11	12.67	-34.4	-35.2	22.5	0.00e+00	0	32	101	1048576	46	6340
2026-01-05 20:51:14.73	255.01	12.59	-34.2	-35.0	22.5	0.00e+00	0	32	101	1048576	46	6174
2026-01-05 20:51:15.74	254.92	12.50	-34.3	-35.0	22.6	0.00e+00	0	32	101	1048576	46	6236
2026-01-05 20:51:16.75	254.82	12.42	-34.2	-34.9	22.6	0.00e+00	0	32	101	1048576	46	6125
2026-01-05 20:51:17.76	254.72	12.34	-34.1	-34.8	22.7	0.00e+00	0	32	101	1048576	46	6053
2026-01-05 20:51:18.78	254.63	12.25	-34.1	-34.8	22.8	0.00e+00	0	32	101	1048576	46	6095
2026-01-05 20:51:19.79	254.53	12.17	-34.0	-34.7	22.8	0.00e+00	0	32	101	1048576	46	6025
