passes_logs/2026/01/05/R4.6S_Anadyr_2ch/R4.6S_Anadyr_2ch__20260105_171244_FENGYUN_3D_rec.log

#Pass ID: 20260105_171244_FENGYUN 3D
#Satellite: FENGYUN 3D
#Configuration: FENGYUN 3D
#almurnet v.1.7.20251203
#Start time: 2026-01-05 17:12:47

#Version: 2.2.20231116
#Station: R4.6S_Anadyr_2ch
#Location: 177.4865 lon 64.73178 lat
#TLE: 1 43010U 17072A   25350.96693137  .00000321  00000+0  17364-3 0  9993
#TLE: 2 43010  98.9888 317.3403 0001146 169.6565 190.4634 14.19686173419132

#Time	Az	El	Level	Level2	SNR	BER	BlckErr	Temp	State	Recorded	gain1	gain2
2026-01-05 17:12:47.21	22.02	0.17	-51.0	-61.9	3.3	8.40e-01	0	29	0	0	60	60552
2026-01-05 17:12:48.21	22.01	0.23	-51.0	-63.2	3.6	8.45e-01	0	29	104	0	60	70761
2026-01-05 17:12:49.23	22.01	0.29	-51.0	-63.3	3.6	8.46e-01	0	29	104	0	60	71185
2026-01-05 17:12:50.24	22.00	0.35	-51.0	-63.3	3.6	8.45e-01	0	29	104	0	60	70946
2026-01-05 17:12:51.25	21.99	0.42	-51.0	-63.3	3.6	8.46e-01	0	29	104	0	60	71174
2026-01-05 17:12:52.26	21.99	0.48	-51.0	-63.3	3.6	8.45e-01	0	29	104	0	60	71445
2026-01-05 17:12:53.27	21.98	0.54	-51.1	-63.4	3.6	8.46e-01	0	29	104	0	60	71784
2026-01-05 17:12:54.28	21.97	0.60	-51.1	-63.4	3.6	8.44e-01	0	29	104	0	60	72129
2026-01-05 17:12:55.29	21.96	0.66	-51.1	-63.4	3.6	8.46e-01	0	29	104	0	60	72123
2026-01-05 17:12:56.30	21.96	0.72	-51.1	-63.4	3.6	8.45e-01	0	29	104	0	60	72356
2026-01-05 17:12:57.31	21.95	0.78	-51.1	-63.4	3.6	8.45e-01	0	29	104	0	60	72498
2026-01-05 17:12:58.32	21.94	0.85	-51.2	-63.5	3.6	8.45e-01	0	29	104	0	60	72742
2026-01-05 17:12:59.34	21.93	0.91	-51.2	-63.4	3.6	8.46e-01	0	30	104	0	60	72452
2026-01-05 17:13:00.35	21.92	0.97	-51.2	-63.5	3.6	8.45e-01	0	30	104	0	60	72625
2026-01-05 17:13:01.36	21.92	1.03	-51.1	-63.3	3.6	8.45e-01	0	30	104	0	60	71523
2026-01-05 17:13:02.37	21.91	1.09	-51.0	-63.3	3.6	8.44e-01	0	30	104	0	60	71436
2026-01-05 17:13:03.38	21.90	1.16	-50.9	-63.3	3.6	8.46e-01	0	30	104	0	60	70929
2026-01-05 17:13:04.39	21.89	1.22	-50.8	-63.1	3.6	8.45e-01	0	30	104	0	60	69579
2026-01-05 17:13:05.40	21.89	1.28	-50.6	-62.9	3.6	8.45e-01	0	30	104	0	60	68257
2026-01-05 17:13:06.42	21.88	1.35	-50.5	-62.8	3.6	8.44e-01	0	30	104	0	60	67112
2026-01-05 17:13:07.42	21.87	1.41	-50.3	-62.6	3.6	8.45e-01	0	30	104	0	60	65581
2026-01-05 17:13:08.44	21.86	1.47	-49.9	-62.2	3.6	8.46e-01	0	30	104	0	60	63003
2026-01-05 17:13:09.45	21.85	1.53	-49.8	-62.0	3.6	8.46e-01	0	30	104	0	60	61734
2026-01-05 17:13:10.46	21.84	1.60	-49.8	-62.0	3.6	8.45e-01	0	30	104	0	60	61276
2026-01-05 17:13:11.47	21.84	1.66	-49.8	-61.9	3.6	8.46e-01	0	30	104	0	60	60978
2026-01-05 17:13:12.48	21.83	1.72	-49.8	-61.8	3.6	8.46e-01	0	30	104	0	60	60215
2026-01-05 17:13:13.49	21.82	1.79	-49.8	-61.7	3.6	8.45e-01	0	30	104	0	60	59219
2026-01-05 17:13:14.50	21.81	1.85	-49.7	-61.4	3.6	8.44e-01	0	30	104	0	60	57477
2026-01-05 17:13:15.52	21.80	1.92	-49.7	-61.2	3.6	8.44e-01	0	30	104	0	60	56105
2026-01-05 17:13:16.53	21.79	1.98	-49.7	-61.2	3.6	8.44e-01	0	30	104	0	60	55900
2026-01-05 17:13:17.54	21.78	2.05	-49.7	-61.2	3.6	8.44e-01	0	30	104	0	60	56185
2026-01-05 17:13:18.55	21.78	2.11	-49.7	-61.5	3.6	8.45e-01	0	30	104	0	60	57982
2026-01-05 17:13:19.56	21.77	2.17	-49.7	-61.4	3.6	8.44e-01	0	30	104	0	60	57552
2026-01-05 17:13:20.57	21.76	2.24	-49.7	-61.7	3.6	8.45e-01	0	30	104	0	60	59420
2026-01-05 17:13:21.58	21.75	2.30	-49.8	-61.9	3.6	8.46e-01	0	30	104	0	60	60932
2026-01-05 17:13:22.60	21.74	2.37	-49.8	-62.0	3.6	8.44e-01	0	30	104	0	60	61503
2026-01-05 17:13:23.61	21.73	2.44	-49.8	-62.1	3.6	8.44e-01	0	30	104	0	60	61842
2026-01-05 17:13:24.62	21.72	2.50	-49.8	-62.0	3.6	8.44e-01	0	30	104	0	60	61456
2026-01-05 17:13:25.62	21.71	2.57	-49.8	-61.9	3.6	8.46e-01	0	30	104	0	60	60523
2026-01-05 17:13:26.64	21.70	2.63	-49.7	-61.6	3.6	8.44e-01	0	30	104	0	60	58756
2026-01-05 17:13:27.65	21.69	2.70	-49.7	-61.6	3.6	8.45e-01	0	30	104	0	60	58422
2026-01-05 17:13:28.66	21.68	2.76	-49.7	-61.3	3.6	8.44e-01	0	30	104	0	60	56721
2026-01-05 17:13:29.67	21.68	2.83	-49.7	-60.6	3.6	8.45e-01	0	30	104	0	60	52442
2026-01-05 17:13:30.68	21.67	2.90	-49.6	-60.2	3.6	8.45e-01	0	30	104	0	60	49930
2026-01-05 17:13:31.69	21.66	2.96	-49.6	-59.8	3.6	8.45e-01	0	30	104	0	60	47764
2026-01-05 17:13:32.70	21.65	3.03	-49.5	-58.7	3.6	8.40e-01	0	30	104	0	60	41843
2026-01-05 17:13:33.71	21.64	3.10	-49.5	-59.1	3.7	8.39e-01	0	30	0	0	60	43758
2026-01-05 17:13:34.73	21.63	3.16	-49.6	-59.5	3.7	8.42e-01	0	30	104	0	60	46104
2026-01-05 17:13:35.74	21.62	3.23	-49.6	-60.2	3.6	8.45e-01	0	30	104	0	60	49999
2026-01-05 17:13:36.75	21.61	3.30	-49.6	-60.2	3.6	8.44e-01	0	30	104	0	60	49838
2026-01-05 17:13:37.76	21.60	3.37	-49.5	-58.9	3.9	8.44e-01	0	30	104	0	60	43052
2026-01-05 17:13:38.77	21.59	3.43	-49.2	-55.6	4.7	8.06e-01	0	30	0	0	60	29363
2026-01-05 17:13:39.78	21.58	3.50	-48.5	-53.3	7.0	3.20e-01	0	30	102	1048576	60	22480
2026-01-05 17:13:40.79	21.57	3.57	-47.6	-51.3	9.4	3.72e-02	0	30	102	1048576	60	17865
2026-01-05 17:13:41.80	21.56	3.64	-46.8	-49.8	11.0	9.17e-03	0	30	102	1048576	60	15032
2026-01-05 17:13:42.81	21.55	3.70	-45.9	-48.3	12.8	3.76e-04	0	30	102	1048576	60	12641
2026-01-05 17:13:43.83	21.54	3.77	-45.3	-47.5	13.6	4.46e-05	0	30	102	1048576	60	11531
2026-01-05 17:13:44.84	21.53	3.84	-45.4	-47.5	13.5	2.40e-05	0	30	102	1048576	60	11597
2026-01-05 17:13:45.85	21.52	3.91	-44.9	-46.9	14.1	1.10e-06	0	30	102	1048576	60	10780
2026-01-05 17:13:46.86	21.51	3.98	-45.3	-47.4	13.7	1.60e-05	0	30	102	1048576	60	11372
2026-01-05 17:13:47.87	21.49	4.05	-45.4	-47.6	13.3	1.48e-05	0	30	102	1048576	60	11713
2026-01-05 17:13:48.88	21.48	4.12	-46.2	-48.8	12.1	1.79e-04	0	30	102	1048576	60	13448
2026-01-05 17:13:49.89	21.47	4.19	-46.7	-49.6	11.1	1.40e-03	0	30	102	1048576	60	14805
2026-01-05 17:13:50.90	21.46	4.26	-49.5	-57.2	3.7	2.07e-01	0	30	102	1048576	60	35513
2026-01-05 17:13:51.91	21.45	4.33	-47.5	-51.3	9.7	1.78e-02	0	30	104	1048576	60	17872
2026-01-05 17:13:52.92	21.44	4.40	-49.6	-60.7	3.6	9.31e-02	0	30	104	1048576	60	52642
2026-01-05 17:13:53.93	21.43	4.47	-39.2	-40.1	19.8	8.06e-01	0	30	104	1048576	60	4907
2026-01-05 17:13:54.94	21.42	4.54	-49.5	-58.8	3.7	2.25e-01	0	30	104	1048576	60	42673
2026-01-05 17:13:55.95	21.41	4.61	-39.8	-40.7	20.8	2.86e-05	0	30	0	1048576	60	5283
2026-01-05 17:13:56.96	21.40	4.68	-38.4	-39.2	22.2	0.00e+00	0	30	0	1048576	56	5583
2026-01-05 17:13:57.98	21.38	4.75	-38.2	-39.0	22.2	0.00e+00	0	30	0	1048576	56	5493
2026-01-05 17:13:58.99	21.37	4.82	-38.2	-39.0	22.3	0.00e+00	0	30	0	1048576	54	6110
2026-01-05 17:14:00.00	21.36	4.89	-38.1	-38.8	22.2	0.00e+00	0	30	0	1048576	54	6032
2026-01-05 17:14:01.01	21.35	4.96	-38.0	-38.8	22.5	0.00e+00	0	30	0	1048576	54	6016
2026-01-05 17:14:02.02	21.34	5.04	-38.0	-38.8	22.4	0.00e+00	0	30	101	1048576	54	6007
2026-01-05 17:14:03.03	21.33	5.11	-38.2	-39.1	22.2	0.00e+00	0	30	101	1048576	54	6185
2026-01-05 17:14:04.04	21.32	5.18	-38.3	-39.1	22.1	0.00e+00	0	30	101	1048576	54	6214
2026-01-05 17:14:05.05	21.30	5.25	-38.1	-38.9	22.4	0.00e+00	0	30	101	1048576	54	6034
2026-01-05 17:14:06.06	21.29	5.32	-37.9	-38.7	22.5	0.00e+00	0	30	101	1048576	54	5910
2026-01-05 17:14:07.07	21.28	5.40	-37.6	-38.3	22.9	0.00e+00	0	30	101	1048576	54	5673
2026-01-05 17:14:08.08	21.27	5.47	-37.5	-38.3	22.9	0.00e+00	0	30	101	1048576	54	5666
2026-01-05 17:14:09.09	21.25	5.54	-37.7	-38.5	22.8	0.00e+00	0	30	101	1048576	54	5777
2026-01-05 17:14:10.10	21.24	5.62	-37.7	-38.5	22.7	0.00e+00	0	30	101	1048576	54	5783
2026-01-05 17:14:11.11	21.23	5.69	-37.7	-38.4	23.0	0.00e+00	0	30	101	1048576	54	5749
2026-01-05 17:14:12.13	21.22	5.76	-37.4	-38.2	23.0	0.00e+00	0	30	101	1048576	54	5568
2026-01-05 17:14:13.14	21.21	5.84	-37.4	-38.2	23.1	0.00e+00	0	30	101	1048576	54	5605
2026-01-05 17:14:14.15	21.19	5.91	-37.3	-38.0	23.2	0.00e+00	0	30	101	1048576	54	5483
2026-01-05 17:14:15.16	21.18	5.99	-37.5	-38.3	23.0	0.00e+00	0	30	101	1048576	54	5642
2026-01-05 17:14:16.17	21.17	6.06	-37.5	-38.3	23.2	0.00e+00	0	30	101	1048576	54	5636
2026-01-05 17:14:17.18	21.15	6.14	-37.2	-37.9	23.4	0.00e+00	0	30	101	1048576	54	5423
2026-01-05 17:14:18.19	21.14	6.21	-37.3	-38.0	23.3	0.00e+00	0	30	101	1048576	52	6161
2026-01-05 17:14:19.20	21.13	6.29	-37.2	-38.0	23.4	0.00e+00	0	30	101	1048576	52	6106
2026-01-05 17:14:20.21	21.11	6.36	-37.3	-38.0	23.3	0.00e+00	0	30	101	1048576	52	6169
2026-01-05 17:14:21.22	21.10	6.44	-37.2	-38.0	23.3	0.00e+00	0	30	101	1048576	52	6106
2026-01-05 17:14:22.23	21.09	6.51	-37.0	-37.8	23.6	0.00e+00	0	30	101	1048576	52	5976
2026-01-05 17:14:23.24	21.07	6.59	-37.2	-37.9	23.5	0.00e+00	0	30	101	1048576	52	6054
2026-01-05 17:14:24.25	21.06	6.66	-37.2	-37.9	23.5	0.00e+00	0	30	101	1048576	52	6063
2026-01-05 17:14:25.26	21.05	6.74	-37.1	-37.8	23.5	0.00e+00	0	30	101	1048576	52	6030
2026-01-05 17:14:26.28	21.03	6.82	-37.1	-37.9	23.5	0.00e+00	0	30	101	1048576	52	6038
2026-01-05 17:14:27.29	21.02	6.89	-37.2	-37.9	23.5	0.00e+00	0	30	101	1048576	52	6086
2026-01-05 17:14:28.30	21.01	6.97	-37.1	-37.8	23.6	0.00e+00	0	30	101	1048576	52	6001
2026-01-05 17:14:29.31	20.99	7.05	-37.2	-38.0	23.4	0.00e+00	0	30	101	1048576	52	6115
2026-01-05 17:14:30.32	20.98	7.13	-37.0	-37.8	23.6	0.00e+00	0	30	101	1048576	52	5970
2026-01-05 17:14:31.33	20.96	7.20	-37.1	-37.8	23.7	0.00e+00	0	30	101	1048576	52	5987
2026-01-05 17:14:32.34	20.95	7.28	-37.0	-37.8	23.7	0.00e+00	0	30	101	1048576	52	5972
2026-01-05 17:14:33.35	20.93	7.36	-36.9	-37.6	23.8	0.00e+00	0	30	101	1048576	52	5859
2026-01-05 17:14:34.37	20.92	7.44	-36.8	-37.6	23.8	0.00e+00	0	30	101	1048576	52	5832
2026-01-05 17:14:35.38	20.91	7.52	-37.0	-37.7	23.7	0.00e+00	0	30	101	1048576	52	5953
2026-01-05 17:14:36.39	20.89	7.60	-36.9	-37.6	23.9	0.00e+00	0	30	101	1048576	52	5847
2026-01-05 17:14:37.40	20.88	7.68	-36.8	-37.5	23.9	0.00e+00	0	30	101	1048576	52	5811
2026-01-05 17:14:38.41	20.86	7.76	-36.7	-37.5	23.9	0.00e+00	0	30	101	1048576	52	5773
2026-01-05 17:14:39.42	20.85	7.84	-36.9	-37.6	23.9	0.00e+00	0	30	101	1048576	52	5852
2026-01-05 17:14:40.44	20.83	7.92	-36.9	-37.6	23.8	0.00e+00	0	30	101	1048576	52	5870
2026-01-05 17:14:41.45	20.82	8.00	-36.6	-37.4	24.2	0.00e+00	0	30	101	1048576	52	5702
2026-01-05 17:14:42.46	20.80	8.08	-36.6	-37.3	24.0	0.00e+00	0	30	101	1048576	52	5689
2026-01-05 17:14:43.47	20.78	8.16	-36.6	-37.3	24.1	0.00e+00	0	30	101	1048576	52	5668
2026-01-05 17:14:44.48	20.77	8.24	-36.5	-37.2	24.2	0.00e+00	0	30	101	1048576	52	5629
2026-01-05 17:14:45.49	20.75	8.32	-36.6	-37.3	24.1	0.00e+00	0	30	101	1048576	52	5643
2026-01-05 17:14:46.50	20.74	8.40	-36.6	-37.3	24.1	0.00e+00	0	30	101	1048576	52	5685
2026-01-05 17:14:47.52	20.72	8.48	-36.7	-37.5	24.1	0.00e+00	0	30	101	1048576	52	5764
2026-01-05 17:14:48.53	20.71	8.57	-36.8	-37.5	24.0	0.00e+00	0	30	101	1048576	52	5786
2026-01-05 17:14:49.54	20.69	8.65	-36.5	-37.3	24.2	0.00e+00	0	30	101	1048576	52	5632
2026-01-05 17:14:50.55	20.67	8.73	-36.6	-37.3	24.2	0.00e+00	0	30	101	1048576	52	5668
2026-01-05 17:14:51.56	20.66	8.81	-36.6	-37.3	24.2	0.00e+00	0	30	101	1048576	52	5657
2026-01-05 17:14:52.57	20.64	8.90	-36.5	-37.2	24.2	0.00e+00	0	31	101	1048576	52	5612
2026-01-05 17:14:53.58	20.62	8.98	-36.5	-37.2	24.3	0.00e+00	0	30	101	1048576	52	5584
2026-01-05 17:14:54.59	20.61	9.06	-36.6	-37.3	24.2	0.00e+00	0	30	101	1048576	52	5641
2026-01-05 17:14:55.60	20.59	9.15	-36.4	-37.1	24.4	0.00e+00	0	31	101	1048576	52	5516
2026-01-05 17:14:56.61	20.57	9.23	-36.3	-37.0	24.5	0.00e+00	0	30	101	1048576	52	5480
2026-01-05 17:14:57.62	20.56	9.32	-36.4	-37.1	24.5	0.00e+00	0	30	101	1048576	52	5528
2026-01-05 17:14:58.64	20.54	9.40	-36.2	-36.9	24.6	0.00e+00	0	30	101	1048576	52	5414
2026-01-05 17:14:59.65	20.52	9.49	-36.2	-36.9	24.6	0.00e+00	0	30	101	1048576	52	5423
2026-01-05 17:15:00.66	20.50	9.57	-36.3	-36.9	24.5	0.00e+00	0	30	101	1048576	52	5436
2026-01-05 17:15:01.67	20.49	9.66	-36.1	-36.8	24.6	0.00e+00	0	30	101	1048576	52	5367
2026-01-05 17:15:02.68	20.47	9.75	-36.3	-37.0	24.6	0.00e+00	0	30	101	1048576	50	6131
2026-01-05 17:15:03.69	20.45	9.83	-36.1	-36.8	24.7	0.00e+00	0	30	101	1048576	50	5968
2026-01-05 17:15:04.71	20.43	9.92	-36.1	-36.8	24.7	0.00e+00	0	30	101	1048576	50	6000
2026-01-05 17:15:05.72	20.41	10.01	-36.2	-36.9	24.6	0.00e+00	0	30	101	1048576	50	6061
2026-01-05 17:15:06.73	20.40	10.09	-36.0	-36.7	24.7	0.00e+00	0	30	101	1048576	50	5932
2026-01-05 17:15:07.74	20.38	10.18	-36.0	-36.7	24.7	0.00e+00	0	31	101	1048576	50	5940
2026-01-05 17:15:08.75	20.36	10.27	-36.2	-36.9	24.6	0.00e+00	0	31	101	1048576	50	6051
2026-01-05 17:15:09.76	20.34	10.36	-36.0	-36.7	24.8	0.00e+00	0	31	101	1048576	50	5918
2026-01-05 17:15:10.77	20.32	10.44	-36.0	-36.7	24.7	0.00e+00	0	31	101	1048576	50	5936
2026-01-05 17:15:11.78	20.30	10.53	-36.0	-36.7	24.8	0.00e+00	0	31	101	1048576	50	5919
2026-01-05 17:15:12.79	20.28	10.62	-36.0	-36.7	24.7	0.00e+00	0	31	101	1048576	50	5956
2026-01-05 17:15:13.80	20.26	10.71	-35.9	-36.6	24.9	0.00e+00	0	30	101	1048576	50	5872
2026-01-05 17:15:14.82	20.24	10.80	-36.2	-36.9	24.6	0.00e+00	0	31	101	1048576	50	6062
2026-01-05 17:15:15.83	20.23	10.89	-35.8	-36.5	25.0	0.00e+00	0	30	101	1048576	50	5786
2026-01-05 17:15:16.84	20.21	10.98	-36.0	-36.7	24.8	0.00e+00	0	30	101	1048576	50	5897
2026-01-05 17:15:17.85	20.19	11.07	-35.8	-36.5	24.9	0.00e+00	0	31	101	1048576	50	5800
2026-01-05 17:15:18.86	20.17	11.16	-35.8	-36.5	24.8	0.00e+00	0	30	101	1048576	50	5816
2026-01-05 17:15:19.87	20.15	11.26	-35.9	-36.6	24.8	0.00e+00	0	30	101	1048576	50	5854
2026-01-05 17:15:20.88	20.13	11.35	-35.8	-36.4	25.0	0.00e+00	0	30	101	1048576	50	5747
2026-01-05 17:15:21.89	20.11	11.44	-35.7	-36.4	25.0	0.00e+00	0	31	101	1048576	50	5741
2026-01-05 17:15:22.90	20.08	11.53	-35.7	-36.3	25.0	0.00e+00	0	31	101	1048576	50	5692
2026-01-05 17:15:23.91	20.06	11.62	-35.7	-36.3	25.0	0.00e+00	0	31	101	1048576	50	5690
2026-01-05 17:15:24.92	20.04	11.72	-35.6	-36.2	25.1	0.00e+00	0	30	101	1048576	50	5627
2026-01-05 17:15:25.94	20.02	11.81	-35.6	-36.3	25.2	0.00e+00	0	30	101	1048576	50	5673
2026-01-05 17:15:26.95	20.00	11.91	-35.6	-36.3	25.2	0.00e+00	0	30	101	1048576	50	5669
2026-01-05 17:15:27.96	19.98	12.00	-35.6	-36.2	25.2	0.00e+00	0	30	101	1048576	50	5620
2026-01-05 17:15:28.97	19.96	12.09	-35.6	-36.3	25.3	0.00e+00	0	31	101	1048576	50	5658
2026-01-05 17:15:29.98	19.94	12.19	-35.6	-36.3	25.0	0.00e+00	0	30	101	1048576	50	5633
2026-01-05 17:15:30.99	19.91	12.28	-35.5	-36.2	25.3	0.00e+00	0	31	101	1048576	50	5602
2026-01-05 17:15:32.01	19.89	12.38	-35.6	-36.2	25.2	0.00e+00	0	31	101	1048576	50	5628
2026-01-05 17:15:33.02	19.87	12.48	-35.5	-36.2	25.2	0.00e+00	0	30	101	1048576	50	5604
2026-01-05 17:15:34.03	19.85	12.57	-35.5	-36.2	25.3	0.00e+00	0	31	101	1048576	50	5578
2026-01-05 17:15:35.04	19.82	12.67	-35.4	-36.1	25.4	0.00e+00	0	31	101	1048576	50	5563
2026-01-05 17:15:36.05	19.80	12.77	-35.4	-36.1	25.4	0.00e+00	0	31	101	1048576	50	5530
2026-01-05 17:15:37.06	19.78	12.86	-35.5	-36.2	25.3	0.00e+00	0	31	101	1048576	50	5587
2026-01-05 17:15:38.07	19.76	12.96	-35.4	-36.1	25.4	0.00e+00	0	31	101	1048576	50	5527
2026-01-05 17:15:39.09	19.73	13.06	-35.5	-36.2	25.3	0.00e+00	0	31	101	1048576	50	5596
2026-01-05 17:15:40.10	19.71	13.16	-35.5	-36.2	25.3	0.00e+00	0	31	101	1048576	50	5611
2026-01-05 17:15:41.11	19.69	13.26	-35.5	-36.2	25.2	0.00e+00	0	31	101	1048576	50	5598
2026-01-05 17:15:42.12	19.66	13.36	-35.5	-36.1	25.4	0.00e+00	0	31	101	1048576	50	5564
2026-01-05 17:15:43.13	19.64	13.46	-35.4	-36.1	25.4	0.00e+00	0	31	101	1048576	50	5534
2026-01-05 17:15:44.14	19.61	13.56	-35.5	-36.2	25.3	0.00e+00	0	31	101	1048576	50	5567
2026-01-05 17:15:45.15	19.59	13.66	-35.4	-36.1	25.4	0.00e+00	0	31	101	1048576	50	5522
2026-01-05 17:15:46.16	19.56	13.76	-35.4	-36.1	25.4	0.00e+00	0	31	101	1048576	50	5534
2026-01-05 17:15:47.17	19.54	13.86	-35.3	-36.0	25.5	0.00e+00	0	31	101	1048576	50	5462
2026-01-05 17:15:48.18	19.51	13.96	-35.4	-36.0	25.4	0.00e+00	0	31	101	1048576	50	5502
2026-01-05 17:15:49.20	19.49	14.07	-35.4	-36.1	25.3	0.00e+00	0	31	101	1048576	50	5541
2026-01-05 17:15:50.21	19.46	14.17	-35.6	-36.2	25.3	0.00e+00	0	31	101	1048576	50	5629
2026-01-05 17:15:51.22	19.44	14.27	-35.5	-36.2	25.4	0.00e+00	0	31	101	1048576	50	5574
2026-01-05 17:15:52.23	19.41	14.38	-35.4	-36.0	25.4	0.00e+00	0	31	101	1048576	50	5502
2026-01-05 17:15:53.24	19.39	14.48	-35.4	-36.1	25.4	0.00e+00	0	31	101	1048576	50	5525
2026-01-05 17:15:54.25	19.36	14.58	-35.5	-36.2	25.3	0.00e+00	0	31	101	1048576	50	5583
2026-01-05 17:15:55.26	19.33	14.69	-35.3	-36.0	25.6	0.00e+00	0	31	101	1048576	50	5468
2026-01-05 17:15:56.27	19.31	14.79	-35.3	-36.0	25.5	0.00e+00	0	31	101	1048576	50	5469
2026-01-05 17:15:57.28	19.28	14.90	-35.3	-36.0	25.5	0.00e+00	0	31	101	1048576	50	5468
2026-01-05 17:15:58.30	19.25	15.01	-35.3	-36.0	25.5	0.00e+00	0	31	101	1048576	50	5466
2026-01-05 17:15:59.31	19.22	15.11	-35.3	-36.0	25.5	0.00e+00	0	31	101	1048576	50	5467
2026-01-05 17:16:00.32	19.20	15.22	-35.2	-35.9	25.5	0.00e+00	0	31	101	1048576	50	5418
2026-01-05 17:16:01.33	19.17	15.33	-35.2	-35.9	25.6	0.00e+00	0	31	101	1048576	50	5418
2026-01-05 17:16:02.34	19.14	15.44	-35.3	-36.0	25.5	0.00e+00	0	31	101	1048576	50	5449
2026-01-05 17:16:03.35	19.11	15.55	-35.2	-35.8	25.8	0.00e+00	0	31	101	1048576	48	6013
2026-01-05 17:16:04.36	19.08	15.65	-35.4	-36.0	25.6	0.00e+00	0	31	101	1048576	48	6161
2026-01-05 17:16:05.38	19.06	15.77	-35.0	-35.7	25.7	0.00e+00	0	31	101	1048576	48	5900
2026-01-05 17:16:06.39	19.03	15.88	-34.9	-35.6	25.9	0.00e+00	0	31	101	1048576	48	5871
2026-01-05 17:16:07.40	19.00	15.99	-34.9	-35.6	25.9	0.00e+00	0	31	101	1048576	48	5834
2026-01-05 17:16:08.41	18.97	16.10	-34.8	-35.5	26.0	0.00e+00	0	31	101	1048576	48	5803
2026-01-05 17:16:09.42	18.94	16.21	-34.8	-35.5	26.0	0.00e+00	0	31	101	1048576	48	5784
2026-01-05 17:16:10.43	18.91	16.32	-34.7	-35.4	26.0	0.00e+00	0	31	101	1048576	48	5703
2026-01-05 17:16:11.44	18.88	16.43	-34.7	-35.4	26.1	0.00e+00	0	31	101	1048576	48	5709
2026-01-05 17:16:12.45	18.85	16.55	-34.6	-35.3	26.2	0.00e+00	0	31	101	1048576	48	5636
2026-01-05 17:16:13.46	18.82	16.66	-34.7	-35.3	26.2	0.00e+00	0	31	101	1048576	48	5683
2026-01-05 17:16:14.47	18.79	16.77	-34.4	-35.1	26.3	0.00e+00	0	31	101	1048576	48	5542
2026-01-05 17:16:15.49	18.75	16.89	-34.3	-35.0	26.5	0.00e+00	0	31	101	1048576	48	5460
2026-01-05 17:16:16.50	18.72	17.00	-34.3	-34.9	26.4	0.00e+00	0	31	101	1048576	48	5423
2026-01-05 17:16:17.51	18.69	17.12	-34.3	-34.9	26.6	0.00e+00	0	31	101	1048576	48	5411
2026-01-05 17:16:18.52	18.66	17.24	-34.2	-34.8	26.6	0.00e+00	0	31	101	1048576	48	5349
2026-01-05 17:16:19.53	18.63	17.35	-34.2	-34.8	26.6	0.00e+00	0	31	101	1048576	48	5360
2026-01-05 17:16:20.54	18.59	17.47	-34.1	-34.8	26.6	0.00e+00	0	31	101	1048576	46	5976
2026-01-05 17:16:21.55	18.56	17.59	-34.2	-34.8	26.6	0.00e+00	0	31	101	1048576	46	6011
2026-01-05 17:16:22.56	18.53	17.71	-34.1	-34.7	26.6	0.00e+00	0	31	101	1048576	46	5931
2026-01-05 17:16:23.57	18.49	17.83	-34.0	-34.6	26.7	0.00e+00	0	31	101	1048576	46	5890
2026-01-05 17:16:24.59	18.46	17.95	-34.0	-34.6	26.8	0.00e+00	0	31	101	1048576	46	5839
2026-01-05 17:16:25.60	18.43	18.07	-34.0	-34.6	26.7	0.00e+00	0	31	101	1048576	46	5881
2026-01-05 17:16:26.61	18.39	18.19	-34.0	-34.6	26.8	0.00e+00	0	31	101	1048576	46	5888
2026-01-05 17:16:27.62	18.36	18.31	-33.8	-34.5	26.8	0.00e+00	0	31	101	1048576	46	5791
2026-01-05 17:16:28.63	18.32	18.43	-33.9	-34.5	26.8	0.00e+00	0	31	101	1048576	46	5799
2026-01-05 17:16:29.64	18.29	18.55	-33.9	-34.5	26.9	0.00e+00	0	31	101	1048576	46	5791
2026-01-05 17:16:30.65	18.25	18.68	-33.7	-34.3	27.1	0.00e+00	0	31	101	1048576	46	5690
2026-01-05 17:16:31.66	18.21	18.80	-33.6	-34.2	27.1	0.00e+00	0	31	101	1048576	46	5621
2026-01-05 17:16:32.67	18.18	18.92	-33.5	-34.2	27.1	0.00e+00	0	31	101	1048576	46	5585
2026-01-05 17:16:33.69	18.14	19.05	-33.5	-34.1	27.1	0.00e+00	0	31	101	1048576	46	5559
2026-01-05 17:16:34.70	18.10	19.18	-33.4	-34.0	27.3	0.00e+00	0	31	101	1048576	46	5486
2026-01-05 17:16:35.71	18.07	19.30	-33.5	-34.1	27.2	0.00e+00	0	31	101	1048576	46	5565
2026-01-05 17:16:36.72	18.03	19.43	-33.5	-34.1	27.3	0.00e+00	0	31	101	1048576	46	5536
2026-01-05 17:16:37.73	17.99	19.56	-33.4	-34.0	27.2	0.00e+00	0	31	101	1048576	46	5491
2026-01-05 17:16:38.74	17.95	19.68	-33.3	-33.9	27.4	0.00e+00	0	31	101	1048576	46	5427
2026-01-05 17:16:39.75	17.91	19.81	-33.4	-34.0	27.3	0.00e+00	0	31	101	1048576	46	5464
2026-01-05 17:16:40.76	17.87	19.94	-33.5	-34.1	27.2	0.00e+00	0	31	101	1048576	46	5560
2026-01-05 17:16:41.77	17.83	20.07	-33.3	-33.9	27.4	0.00e+00	0	31	101	1048576	46	5403
2026-01-05 17:16:42.79	17.79	20.20	-33.5	-34.1	27.3	0.00e+00	0	31	101	1048576	46	5543
2026-01-05 17:16:43.80	17.75	20.34	-33.4	-34.0	27.4	0.00e+00	0	31	101	1048576	46	5471
2026-01-05 17:16:44.81	17.71	20.47	-33.4	-34.1	27.2	0.00e+00	0	31	101	1048576	46	5520
2026-01-05 17:16:45.82	17.67	20.60	-33.5	-34.1	27.2	0.00e+00	0	31	101	1048576	46	5545
2026-01-05 17:16:46.83	17.63	20.73	-33.5	-34.2	27.2	0.00e+00	0	31	101	1048576	46	5579
2026-01-05 17:16:47.84	17.59	20.87	-33.6	-34.3	27.2	0.00e+00	0	31	101	1048576	46	5639
2026-01-05 17:16:48.85	17.55	21.00	-33.6	-34.3	27.1	0.00e+00	0	31	101	1048576	46	5639
2026-01-05 17:16:49.86	17.50	21.14	-33.6	-34.3	27.1	0.00e+00	0	31	101	1048576	46	5636
2026-01-05 17:16:50.87	17.46	21.28	-33.5	-34.2	27.3	0.00e+00	0	31	101	1048576	46	5580
2026-01-05 17:16:51.89	17.42	21.41	-33.5	-34.2	27.2	0.00e+00	0	31	101	1048576	46	5587
2026-01-05 17:16:52.90	17.37	21.55	-33.7	-34.3	27.1	0.00e+00	0	31	101	1048576	46	5693
2026-01-05 17:16:53.91	17.33	21.69	-33.6	-34.2	27.1	0.00e+00	0	31	101	1048576	46	5604
2026-01-05 17:16:54.92	17.28	21.83	-33.5	-34.2	27.2	0.00e+00	0	31	101	1048576	46	5578
2026-01-05 17:16:55.93	17.24	21.97	-33.6	-34.2	27.2	0.00e+00	0	31	101	1048576	46	5588
2026-01-05 17:16:56.94	17.19	22.11	-33.6	-34.2	27.2	0.00e+00	0	31	101	1048576	46	5612
2026-01-05 17:16:57.95	17.15	22.25	-33.6	-34.2	27.2	0.00e+00	0	31	101	1048576	46	5605
2026-01-05 17:16:58.96	17.10	22.39	-33.5	-34.1	27.1	0.00e+00	0	31	101	1048576	46	5551
2026-01-05 17:16:59.98	17.05	22.54	-33.3	-34.0	27.4	0.00e+00	0	31	101	1048576	46	5445
2026-01-05 17:17:00.99	17.01	22.68	-33.5	-34.1	27.4	0.00e+00	0	31	101	1048576	46	5528
2026-01-05 17:17:02.00	16.96	22.83	-33.0	-33.6	27.7	0.00e+00	0	31	101	1048576	44	5870
2026-01-05 17:17:03.01	16.91	22.97	-32.9	-33.5	27.8	0.00e+00	0	31	101	1048576	44	5815
2026-01-05 17:17:04.02	16.86	23.12	-32.9	-33.5	27.7	0.00e+00	0	31	101	1048576	44	5791
2026-01-05 17:17:05.03	16.81	23.26	-32.8	-33.4	27.8	0.00e+00	0	31	101	1048576	44	5698
2026-01-05 17:17:06.04	16.76	23.41	-32.9	-33.5	27.7	0.00e+00	0	31	101	1048576	44	5785
2026-01-05 17:17:07.05	16.71	23.56	-32.7	-33.3	27.9	0.00e+00	0	31	101	1048576	44	5671
2026-01-05 17:17:08.06	16.66	23.71	-32.8	-33.4	27.9	0.00e+00	0	31	101	1048576	44	5713
2026-01-05 17:17:09.07	16.61	23.86	-32.5	-33.1	28.0	0.00e+00	0	31	101	1048576	44	5541
2026-01-05 17:17:10.09	16.56	24.01	-32.6	-33.2	27.9	0.00e+00	0	31	101	1048576	44	5610
2026-01-05 17:17:11.10	16.50	24.17	-32.6	-33.2	28.0	0.00e+00	0	31	101	1048576	44	5607
2026-01-05 17:17:12.11	16.45	24.32	-32.5	-33.1	28.1	0.00e+00	0	31	101	1048576	44	5526
2026-01-05 17:17:13.12	16.40	24.47	-32.5	-33.1	28.0	0.00e+00	0	31	101	1048576	44	5508
2026-01-05 17:17:14.13	16.34	24.63	-32.6	-33.3	28.0	0.00e+00	0	31	101	1048576	44	5635
2026-01-05 17:17:15.14	16.29	24.78	-32.5	-33.1	28.1	0.00e+00	0	31	101	1048576	44	5555
2026-01-05 17:17:16.15	16.23	24.94	-32.6	-33.2	28.0	0.00e+00	0	31	101	1048576	44	5607
2026-01-05 17:17:17.16	16.18	25.10	-32.7	-33.3	27.9	0.00e+00	0	31	101	1048576	44	5678
2026-01-05 17:17:18.17	16.12	25.25	-32.6	-33.2	28.1	0.00e+00	0	31	101	1048576	44	5574
2026-01-05 17:17:19.18	16.06	25.41	-32.6	-33.2	28.0	0.00e+00	0	31	101	1048576	44	5598
2026-01-05 17:17:20.20	16.00	25.58	-32.7	-33.3	27.8	0.00e+00	0	31	101	1048576	44	5664
2026-01-05 17:17:21.21	15.95	25.74	-32.8	-33.4	27.9	0.00e+00	0	31	101	1048576	44	5709
2026-01-05 17:17:22.22	15.89	25.90	-32.7	-33.3	27.9	0.00e+00	0	31	101	1048576	44	5636
2026-01-05 17:17:23.23	15.83	26.06	-32.7	-33.3	27.9	0.00e+00	0	31	101	1048576	44	5693
2026-01-05 17:17:24.24	15.77	26.23	-32.8	-33.4	27.8	0.00e+00	0	31	101	1048576	44	5706
2026-01-05 17:17:25.25	15.70	26.39	-32.6	-33.2	28.0	0.00e+00	0	31	101	1048576	44	5608
2026-01-05 17:17:26.26	15.64	26.56	-32.6	-33.3	27.9	0.00e+00	0	31	101	1048576	44	5632
2026-01-05 17:17:27.27	15.58	26.72	-32.5	-33.1	28.0	0.00e+00	0	31	101	1048576	44	5534
2026-01-05 17:17:28.28	15.52	26.89	-32.4	-33.0	28.1	0.00e+00	0	31	101	1048576	44	5490
2026-01-05 17:17:29.29	15.45	27.06	-32.5	-33.0	28.1	0.00e+00	0	31	101	1048576	44	5500
2026-01-05 17:17:30.30	15.39	27.23	-32.4	-33.0	28.1	0.00e+00	0	31	101	1048576	44	5490
2026-01-05 17:17:31.31	15.32	27.40	-32.3	-32.9	28.2	0.00e+00	0	31	101	1048576	44	5406
2026-01-05 17:17:32.32	15.26	27.57	-32.3	-32.9	28.2	0.00e+00	0	31	101	1048576	44	5427
2026-01-05 17:17:33.33	15.19	27.75	-32.3	-32.9	28.2	0.00e+00	0	31	101	1048576	44	5402
2026-01-05 17:17:34.35	15.12	27.92	-32.3	-33.0	28.2	0.00e+00	0	31	101	1048576	44	5452
2026-01-05 17:17:35.36	15.05	28.10	-32.4	-33.0	28.2	0.00e+00	0	31	101	1048576	44	5447
2026-01-05 17:17:36.37	14.98	28.27	-32.3	-32.9	28.2	0.00e+00	0	31	101	1048576	44	5417
2026-01-05 17:17:37.38	14.91	28.45	-32.5	-33.1	28.2	0.00e+00	0	31	101	1048576	44	5509
2026-01-05 17:17:38.39	14.84	28.63	-32.5	-33.1	28.1	0.00e+00	0	31	101	1048576	44	5520
2026-01-05 17:17:39.40	14.77	28.81	-32.4	-33.0	28.2	0.00e+00	0	31	101	1048576	44	5450
2026-01-05 17:17:40.41	14.70	28.99	-32.4	-33.0	28.2	0.00e+00	0	31	101	1048576	44	5446
2026-01-05 17:17:41.42	14.63	29.17	-32.4	-33.0	28.2	0.00e+00	0	31	101	1048576	44	5481
2026-01-05 17:17:42.43	14.55	29.35	-32.5	-33.1	28.1	0.00e+00	0	31	101	1048576	44	5538
2026-01-05 17:17:43.45	14.48	29.54	-32.5	-33.1	28.1	0.00e+00	0	31	101	1048576	44	5515
2026-01-05 17:17:44.46	14.40	29.72	-32.6	-33.2	28.0	0.00e+00	0	31	101	1048576	44	5584
2026-01-05 17:17:45.47	14.32	29.91	-32.5	-33.1	28.1	0.00e+00	0	31	101	1048576	44	5535
2026-01-05 17:17:46.48	14.25	30.10	-32.5	-33.1	28.1	0.00e+00	0	31	101	1048576	44	5549
2026-01-05 17:17:47.49	14.17	30.28	-32.4	-33.0	28.2	0.00e+00	0	31	101	1048576	44	5468
2026-01-05 17:17:48.50	14.09	30.47	-32.4	-33.0	28.2	0.00e+00	0	31	101	1048576	44	5458
2026-01-05 17:17:49.51	14.01	30.67	-32.4	-33.1	28.2	0.00e+00	0	31	101	1048576	44	5513
2026-01-05 17:17:50.53	13.92	30.86	-32.5	-33.1	28.1	0.00e+00	0	31	101	1048576	44	5550
2026-01-05 17:17:51.54	13.84	31.05	-32.3	-33.0	28.3	0.00e+00	0	31	101	1048576	44	5459
2026-01-05 17:17:52.55	13.76	31.25	-32.4	-33.0	28.2	0.00e+00	0	31	101	1048576	44	5455
2026-01-05 17:17:53.56	13.67	31.44	-32.3	-32.9	28.3	0.00e+00	0	31	101	1048576	44	5401
2026-01-05 17:17:54.57	13.58	31.64	-32.3	-32.9	28.2	0.00e+00	0	31	101	1048576	44	5417
2026-01-05 17:17:55.58	13.50	31.84	-32.3	-32.9	28.3	0.00e+00	0	31	101	1048576	44	5403
2026-01-05 17:17:56.59	13.41	32.04	-32.3	-32.9	28.2	0.00e+00	0	31	101	1048576	44	5436
2026-01-05 17:17:57.60	13.32	32.24	-32.1	-32.7	28.3	0.00e+00	0	31	101	1048576	44	5308
2026-01-05 17:17:58.61	13.23	32.44	-32.0	-32.7	28.4	0.00e+00	0	31	101	1048576	42	5907
2026-01-05 17:17:59.62	13.14	32.64	-32.0	-32.6	28.5	0.00e+00	0	31	101	1048576	42	5881
2026-01-05 17:18:00.64	13.04	32.85	-32.1	-32.7	28.4	0.00e+00	0	31	101	1048576	42	5910
2026-01-05 17:18:01.65	12.95	33.06	-32.0	-32.6	28.5	0.00e+00	0	31	101	1048576	42	5859
2026-01-05 17:18:02.66	12.85	33.26	-32.2	-32.8	28.4	0.00e+00	0	31	101	1048576	42	5975
2026-01-05 17:18:03.67	12.76	33.47	-32.0	-32.6	28.5	0.00e+00	0	31	101	1048576	42	5896
2026-01-05 17:18:04.68	12.66	33.68	-32.0	-32.6	28.6	0.00e+00	0	31	101	1048576	42	5843
2026-01-05 17:18:05.69	12.56	33.89	-31.8	-32.4	28.6	0.00e+00	0	31	101	1048576	42	5735
2026-01-05 17:18:06.70	12.46	34.11	-31.8	-32.4	28.7	0.00e+00	0	31	101	1048576	42	5759
2026-01-05 17:18:07.71	12.36	34.32	-31.6	-32.2	28.8	0.00e+00	0	31	101	1048576	42	5603
2026-01-05 17:18:08.73	12.25	34.54	-31.6	-32.2	28.7	0.00e+00	0	31	101	1048576	42	5617
2026-01-05 17:18:09.74	12.15	34.75	-31.5	-32.1	28.9	0.00e+00	0	31	101	1048576	42	5528
2026-01-05 17:18:10.75	12.04	34.97	-31.6	-32.2	28.8	0.00e+00	0	31	101	1048576	42	5587
2026-01-05 17:18:11.76	11.93	35.19	-31.7	-32.3	28.7	0.00e+00	0	31	101	1048576	42	5679
2026-01-05 17:18:12.77	11.82	35.41	-31.8	-32.3	28.7	0.00e+00	0	31	101	1048576	42	5687
2026-01-05 17:18:13.78	11.71	35.64	-31.9	-32.5	28.5	0.00e+00	0	31	101	1048576	42	5816
2026-01-05 17:18:14.79	11.60	35.86	-31.7	-32.3	28.7	0.00e+00	0	31	101	1048576	42	5682
2026-01-05 17:18:15.80	11.48	36.09	-31.6	-32.2	28.9	0.00e+00	0	31	101	1048576	42	5574
2026-01-05 17:18:16.81	11.37	36.31	-31.4	-32.1	28.9	0.00e+00	0	31	101	1048576	42	5507
2026-01-05 17:18:17.82	11.25	36.54	-31.3	-31.9	29.0	0.00e+00	0	31	101	1048576	42	5388
2026-01-05 17:18:18.84	11.13	36.77	-31.2	-31.8	29.1	0.00e+00	0	31	101	1048576	42	5360
2026-01-05 17:18:19.85	11.01	37.00	-31.0	-31.6	29.2	0.00e+00	0	31	101	1048576	40	5843
2026-01-05 17:18:20.86	10.89	37.24	-31.2	-31.7	29.1	0.00e+00	0	31	101	1048576	40	5950
2026-01-05 17:18:21.87	10.76	37.47	-31.1	-31.7	29.1	0.00e+00	0	31	101	1048576	40	5929
2026-01-05 17:18:22.88	10.64	37.71	-31.2	-31.8	29.0	0.00e+00	0	31	101	1048576	40	6025
2026-01-05 17:18:23.89	10.51	37.94	-31.3	-31.9	29.0	0.00e+00	0	31	101	1048576	40	6044
2026-01-05 17:18:24.90	10.38	38.18	-31.5	-32.1	28.8	0.00e+00	0	31	101	1048576	40	6207
2026-01-05 17:18:25.91	10.24	38.42	-31.7	-32.3	28.7	0.00e+00	0	31	101	1048576	40	6344
2026-01-05 17:18:26.92	10.11	38.66	-31.8	-32.4	28.6	0.00e+00	0	31	101	1048576	40	6412
2026-01-05 17:18:27.94	9.97	38.91	-31.8	-32.4	28.7	0.00e+00	0	31	101	1048576	40	6399
2026-01-05 17:18:28.95	9.83	39.15	-31.8	-32.4	28.6	0.00e+00	0	31	101	1048576	40	6423
2026-01-05 17:18:29.96	9.69	39.40	-31.8	-32.4	28.5	0.00e+00	0	31	101	1048576	40	6459
2026-01-05 17:18:30.97	9.55	39.65	-31.5	-32.1	28.9	0.00e+00	0	31	101	1048576	40	6191
2026-01-05 17:18:31.98	9.40	39.90	-31.5	-32.1	28.9	0.00e+00	0	31	101	1048576	40	6202
2026-01-05 17:18:32.99	9.26	40.15	-31.7	-32.3	28.7	0.00e+00	0	31	101	1048576	40	6339
2026-01-05 17:18:34.00	9.11	40.40	-32.0	-32.5	28.5	0.00e+00	0	31	101	1048576	40	6529
2026-01-05 17:18:35.02	8.95	40.66	-31.9	-32.5	28.7	0.00e+00	0	31	101	1048576	40	6478
2026-01-05 17:18:36.03	8.80	40.92	-32.0	-32.7	28.5	0.00e+00	0	31	101	1048576	40	6616
2026-01-05 17:18:37.04	8.64	41.17	-32.0	-32.7	28.5	0.00e+00	0	31	101	1048576	40	6617
2026-01-05 17:18:38.05	8.48	41.43	-32.0	-32.6	28.5	0.00e+00	0	31	101	1048576	40	6568
2026-01-05 17:18:39.06	8.32	41.69	-32.0	-32.6	28.6	0.00e+00	0	31	101	1048576	40	6541
2026-01-05 17:18:40.07	8.15	41.96	-32.0	-32.6	28.5	0.00e+00	0	31	101	1048576	40	6579
2026-01-05 17:18:41.08	7.98	42.22	-31.9	-32.5	28.6	0.00e+00	0	31	101	1048576	40	6481
2026-01-05 17:18:42.09	7.81	42.48	-31.9	-32.5	28.6	0.00e+00	0	31	101	1048576	40	6485
2026-01-05 17:18:43.10	7.64	42.75	-32.0	-32.6	28.4	0.00e+00	0	31	101	1048576	40	6598
2026-01-05 17:18:44.11	7.46	43.02	-32.2	-32.8	28.3	0.00e+00	0	31	101	1048576	42	6009
2026-01-05 17:18:45.12	7.28	43.29	-32.3	-32.8	28.3	0.00e+00	0	31	101	1048576	42	6033
2026-01-05 17:18:46.14	7.10	43.57	-32.3	-32.9	28.3	0.00e+00	0	31	101	1048576	42	6098
2026-01-05 17:18:47.15	6.91	43.84	-32.1	-32.7	28.4	0.00e+00	0	31	101	1048576	42	5941
2026-01-05 17:18:48.16	6.72	44.11	-32.0	-32.6	28.6	0.00e+00	0	31	101	1048576	42	5850
2026-01-05 17:18:49.17	6.53	44.39	-31.7	-32.3	28.8	0.00e+00	0	31	101	1048576	42	5681
2026-01-05 17:18:50.18	6.33	44.67	-31.7	-32.3	28.8	0.00e+00	0	31	101	1048576	42	5645
2026-01-05 17:18:51.19	6.13	44.95	-31.8	-32.4	28.6	0.00e+00	0	31	101	1048576	42	5747
2026-01-05 17:18:52.20	5.93	45.23	-31.7	-32.3	28.7	0.00e+00	0	31	101	1048576	42	5667
2026-01-05 17:18:53.21	5.72	45.51	-31.9	-32.5	28.6	0.00e+00	0	31	101	1048576	42	5793
2026-01-05 17:18:54.22	5.51	45.80	-32.0	-32.7	28.5	0.00e+00	0	31	101	1048576	42	5898
2026-01-05 17:18:55.24	5.29	46.09	-32.0	-32.7	28.5	0.00e+00	0	31	101	1048576	42	5912
2026-01-05 17:18:56.25	5.07	46.38	-32.2	-32.8	28.4	0.00e+00	0	31	101	1048576	42	6007
2026-01-05 17:18:57.26	4.85	46.66	-32.1	-32.7	28.5	0.00e+00	0	31	101	1048576	42	5955
2026-01-05 17:18:58.27	4.62	46.96	-32.2	-32.8	28.4	0.00e+00	0	31	101	1048576	42	6004
2026-01-05 17:18:59.28	4.39	47.25	-32.3	-32.9	28.3	0.00e+00	0	31	101	1048576	42	6037
2026-01-05 17:19:00.29	4.15	47.54	-32.2	-32.8	28.5	0.00e+00	0	31	101	1048576	42	5994
2026-01-05 17:19:01.30	3.91	47.84	-32.2	-32.8	28.4	0.00e+00	0	31	101	1048576	42	5976
2026-01-05 17:19:02.31	3.67	48.13	-32.1	-32.6	28.4	0.00e+00	0	31	101	1048576	42	5895
2026-01-05 17:19:03.32	3.42	48.43	-32.1	-32.7	28.4	0.00e+00	0	31	101	1048576	42	5949
2026-01-05 17:19:04.34	3.16	48.74	-32.1	-32.6	28.5	0.00e+00	0	31	101	1048576	42	5893
2026-01-05 17:19:05.35	2.90	49.04	-32.2	-32.8	28.4	0.00e+00	0	31	101	1048576	42	6006
2026-01-05 17:19:06.36	2.63	49.34	-32.5	-33.1	28.2	0.00e+00	0	31	101	1048576	42	6209
2026-01-05 17:19:07.37	2.36	49.64	-32.7	-33.3	28.0	0.00e+00	0	31	101	1048576	42	6359
2026-01-05 17:19:08.38	2.08	49.95	-32.7	-33.3	28.0	0.00e+00	0	31	101	1048576	42	6387
2026-01-05 17:19:09.39	1.80	50.25	-32.6	-33.2	28.1	0.00e+00	0	31	101	1048576	42	6293
2026-01-05 17:19:10.40	1.51	50.56	-32.7	-33.3	28.0	0.00e+00	0	31	101	1048576	42	6355
2026-01-05 17:19:11.41	1.22	50.87	-32.8	-33.4	27.9	0.00e+00	0	31	101	1048576	42	6419
2026-01-05 17:19:12.42	0.92	51.18	-32.9	-33.5	27.9	0.00e+00	0	31	101	1048576	42	6514
2026-01-05 17:19:13.44	0.61	51.50	-32.9	-33.5	27.9	0.00e+00	0	31	101	1048576	42	6525
2026-01-05 17:19:14.45	0.29	51.81	-32.9	-33.5	27.9	0.00e+00	0	31	101	1048576	42	6534
2026-01-05 17:19:15.46	359.97	52.12	-32.9	-33.5	27.9	0.00e+00	0	31	101	1048576	42	6506
2026-01-05 17:19:16.47	359.65	52.44	-32.8	-33.4	27.9	0.00e+00	0	31	101	1048576	42	6455
2026-01-05 17:19:17.48	359.31	52.76	-33.0	-33.6	27.7	0.00e+00	0	31	101	1048576	42	6582
2026-01-05 17:19:18.49	358.97	53.07	-33.5	-34.2	27.4	0.00e+00	0	31	101	1048576	44	6263
2026-01-05 17:19:19.50	358.62	53.39	-33.8	-34.5	27.1	0.00e+00	0	31	101	1048576	44	6475
2026-01-05 17:19:20.51	358.26	53.71	-33.8	-34.4	27.1	0.00e+00	0	31	101	1048576	44	6436
2026-01-05 17:19:21.53	357.89	54.03	-32.9	-33.5	27.8	0.00e+00	0	31	101	1048576	44	5799
2026-01-05 17:19:22.54	357.52	54.35	-32.7	-33.3	27.9	0.00e+00	0	31	101	1048576	44	5640
2026-01-05 17:19:23.55	357.14	54.67	-32.7	-33.4	27.9	0.00e+00	0	31	101	1048576	44	5708
2026-01-05 17:19:24.56	356.75	55.00	-32.9	-33.5	27.8	0.00e+00	0	31	101	1048576	44	5809
2026-01-05 17:19:25.57	356.35	55.32	-33.2	-33.8	27.6	0.00e+00	0	31	101	1048576	44	5983
2026-01-05 17:19:26.58	355.94	55.64	-33.2	-33.8	27.5	0.00e+00	0	31	101	1048576	44	6033
2026-01-05 17:19:27.59	355.52	55.97	-33.1	-33.7	27.6	0.00e+00	0	31	101	1048576	44	5923
2026-01-05 17:19:28.60	355.09	56.29	-32.9	-33.5	27.8	0.00e+00	0	31	101	1048576	44	5792
2026-01-05 17:19:29.61	354.65	56.61	-33.3	-33.9	27.5	0.00e+00	0	31	101	1048576	44	6067
2026-01-05 17:19:30.62	354.20	56.94	-33.4	-34.0	27.4	0.00e+00	0	31	101	1048576	44	6135
2026-01-05 17:19:31.64	353.73	57.27	-33.1	-33.7	27.7	0.00e+00	0	31	101	1048576	44	5963
2026-01-05 17:19:32.65	353.26	57.59	-32.9	-33.5	27.8	0.00e+00	0	31	101	1048576	44	5805
2026-01-05 17:19:33.66	352.78	57.91	-32.5	-33.1	28.1	0.00e+00	0	31	101	1048576	44	5516
2026-01-05 17:19:34.67	352.28	58.24	-32.7	-33.4	27.9	0.00e+00	0	31	101	1048576	44	5696
2026-01-05 17:19:35.68	351.77	58.56	-32.8	-33.4	27.8	0.00e+00	0	31	101	1048576	44	5755
2026-01-05 17:19:36.69	351.25	58.89	-32.7	-33.3	27.9	0.00e+00	0	31	101	1048576	44	5695
2026-01-05 17:19:37.70	350.72	59.21	-32.6	-33.3	27.6	0.00e+00	0	31	101	1048576	44	5638
2026-01-05 17:19:38.71	350.17	59.53	-32.7	-33.3	27.9	0.00e+00	0	31	101	1048576	44	5684
2026-01-05 17:19:39.73	349.61	59.86	-33.0	-33.7	27.7	0.00e+00	0	31	101	1048576	44	5914
2026-01-05 17:19:40.74	349.03	60.18	-33.0	-33.6	27.7	0.00e+00	0	31	101	1048576	44	5861
2026-01-05 17:19:41.75	348.44	60.50	-33.0	-33.7	27.7	0.00e+00	0	31	101	1048576	44	5904
2026-01-05 17:19:42.76	347.84	60.82	-33.0	-33.6	27.7	0.00e+00	0	31	101	1048576	44	5860
2026-01-05 17:19:43.77	347.21	61.13	-32.8	-33.4	27.8	0.00e+00	0	31	101	1048576	44	5745
2026-01-05 17:19:44.78	346.58	61.45	-32.9	-33.5	27.7	0.00e+00	0	31	101	1048576	44	5799
2026-01-05 17:19:45.79	345.93	61.76	-32.8	-33.4	27.9	0.00e+00	0	31	101	1048576	44	5715
2026-01-05 17:19:46.80	345.26	62.08	-33.0	-33.6	27.8	0.00e+00	0	31	101	1048576	44	5857
2026-01-05 17:19:47.81	344.57	62.39	-32.5	-33.2	28.1	0.00e+00	0	31	101	1048576	44	5568
2026-01-05 17:19:48.82	343.86	62.69	-32.5	-33.1	28.1	0.00e+00	0	31	101	1048576	44	5531
2026-01-05 17:19:49.83	343.14	63.00	-32.6	-33.2	28.0	0.00e+00	0	31	101	1048576	44	5569
2026-01-05 17:19:50.84	342.40	63.30	-32.7	-33.3	27.9	0.00e+00	0	31	101	1048576	44	5685
2026-01-05 17:19:51.86	341.63	63.61	-32.4	-33.1	28.1	0.00e+00	0	31	101	1048576	44	5524
2026-01-05 17:19:52.87	340.85	63.90	-32.2	-32.7	28.3	0.00e+00	0	31	101	1048576	44	5305
2026-01-05 17:19:53.88	340.05	64.20	-32.1	-32.7	28.4	0.00e+00	0	31	101	1048576	42	5905
2026-01-05 17:19:54.89	339.22	64.49	-32.3	-32.9	28.2	0.00e+00	0	31	101	1048576	42	6096
2026-01-05 17:19:55.90	338.38	64.77	-32.3	-32.9	28.2	0.00e+00	0	31	101	1048576	42	6058
2026-01-05 17:19:56.91	337.52	65.06	-32.0	-32.6	28.5	0.00e+00	0	31	101	1048576	42	5893
2026-01-05 17:19:57.92	336.63	65.33	-31.9	-32.5	28.6	0.00e+00	0	31	101	1048576	42	5788
2026-01-05 17:19:58.94	335.71	65.61	-31.9	-32.5	28.6	0.00e+00	0	31	101	1048576	42	5768
2026-01-05 17:19:59.95	334.78	65.88	-31.8	-32.4	28.6	0.00e+00	0	31	101	1048576	42	5751
2026-01-05 17:20:00.96	333.82	66.14	-31.6	-32.1	28.8	0.00e+00	0	31	101	1048576	42	5564
2026-01-05 17:20:01.97	332.84	66.40	-31.4	-32.0	29.0	0.00e+00	0	31	101	1048576	42	5443
2026-01-05 17:20:02.98	331.84	66.66	-31.3	-31.8	29.0	0.00e+00	0	31	101	1048576	42	5374
2026-01-05 17:20:03.99	330.81	66.90	-31.4	-32.0	28.9	0.00e+00	0	31	101	1048576	42	5472
2026-01-05 17:20:05.00	329.76	67.14	-31.5	-32.2	28.7	0.00e+00	0	31	101	1048576	42	5576
2026-01-05 17:20:06.01	328.69	67.38	-31.2	-31.8	28.9	0.00e+00	0	31	101	1048576	42	5350
2026-01-05 17:20:07.03	327.58	67.61	-31.0	-31.6	29.2	0.00e+00	0	31	101	1048576	40	5833
2026-01-05 17:20:08.04	326.45	67.83	-30.9	-31.4	29.2	0.00e+00	0	31	101	1048576	40	5757
2026-01-05 17:20:09.05	325.31	68.04	-31.2	-31.8	28.9	0.00e+00	0	31	101	1048576	40	5991
2026-01-05 17:20:10.06	324.13	68.24	-31.2	-31.8	29.0	0.00e+00	0	31	101	1048576	40	6013
2026-01-05 17:20:11.07	322.94	68.44	-31.3	-31.9	28.9	0.00e+00	0	31	101	1048576	40	6064
2026-01-05 17:20:12.08	321.72	68.63	-30.7	-31.3	29.4	0.00e+00	0	31	101	1048576	40	5655
2026-01-05 17:20:13.09	320.48	68.81	-30.9	-31.5	29.2	0.00e+00	0	31	101	1048576	40	5784
2026-01-05 17:20:14.10	319.21	68.98	-30.9	-31.4	29.2	0.00e+00	0	31	101	1048576	40	5735
2026-01-05 17:20:15.11	317.93	69.14	-30.7	-31.2	29.4	0.00e+00	0	31	101	1048576	40	5596
2026-01-05 17:20:16.12	316.62	69.29	-31.1	-31.6	29.1	0.00e+00	0	31	101	1048576	40	5889
2026-01-05 17:20:17.14	315.28	69.43	-30.9	-31.5	29.2	0.00e+00	0	31	101	1048576	40	5782
2026-01-05 17:20:18.15	313.93	69.56	-31.0	-31.6	29.3	0.00e+00	0	31	101	1048576	40	5844
2026-01-05 17:20:19.16	312.57	69.68	-31.1	-31.6	29.1	0.00e+00	0	31	101	1048576	40	5884
2026-01-05 17:20:20.17	311.19	69.79	-31.4	-32.0	28.8	0.00e+00	0	31	101	1048576	40	6109
2026-01-05 17:20:21.18	309.79	69.89	-31.3	-31.9	28.8	0.00e+00	0	31	101	1048576	40	6059
2026-01-05 17:20:22.19	308.38	69.98	-31.4	-32.0	28.9	0.00e+00	0	31	101	1048576	40	6168
2026-01-05 17:20:23.20	306.96	70.05	-31.0	-31.6	29.1	0.00e+00	0	31	101	1048576	40	5848
2026-01-05 17:20:24.21	305.52	70.12	-31.2	-31.9	29.0	0.00e+00	0	31	101	1048576	40	6046
2026-01-05 17:20:25.23	304.07	70.17	-31.5	-32.1	28.9	0.00e+00	0	31	101	1048576	40	6188
2026-01-05 17:20:26.24	302.62	70.21	-31.7	-32.2	28.8	0.00e+00	0	31	101	1048576	40	6280
2026-01-05 17:20:27.25	301.16	70.24	-31.5	-32.2	28.8	0.00e+00	0	31	101	1048576	40	6247
2026-01-05 17:20:28.26	299.70	70.26	-31.3	-31.9	28.9	0.00e+00	0	31	101	1048576	40	6068
2026-01-05 17:20:29.27	298.24	70.26	-31.6	-32.2	28.8	0.00e+00	0	31	101	1048576	40	6268
2026-01-05 17:20:30.28	296.78	70.25	-31.4	-32.0	28.9	0.00e+00	0	31	101	1048576	40	6136
2026-01-05 17:20:31.29	295.32	70.23	-31.2	-31.8	29.1	0.00e+00	0	31	101	1048576	40	5968
2026-01-05 17:20:32.30	293.87	70.20	-31.0	-31.6	29.1	0.00e+00	0	31	101	1048576	40	5864
2026-01-05 17:20:33.31	292.42	70.16	-31.1	-31.7	29.1	0.00e+00	0	31	101	1048576	40	5927
2026-01-05 17:20:34.33	290.96	70.10	-31.1	-31.8	29.1	0.00e+00	0	31	101	1048576	40	5969
2026-01-05 17:20:35.34	289.53	70.04	-31.2	-31.7	29.1	0.00e+00	0	31	101	1048576	40	5954
2026-01-05 17:20:36.35	288.11	69.96	-31.2	-31.8	28.9	0.00e+00	0	31	101	1048576	40	6024
2026-01-05 17:20:37.36	286.70	69.87	-31.5	-32.1	28.8	0.00e+00	0	31	101	1048576	40	6184
2026-01-05 17:20:38.37	285.31	69.77	-31.6	-32.2	28.6	0.00e+00	0	31	101	1048576	40	6307
2026-01-05 17:20:39.38	283.93	69.65	-31.7	-32.3	28.5	0.00e+00	0	31	101	1048576	40	6369
2026-01-05 17:20:40.39	282.57	69.53	-31.1	-31.8	28.8	0.00e+00	0	31	101	1048576	40	5986
2026-01-05 17:20:41.40	281.23	69.40	-31.0	-31.6	29.0	0.00e+00	0	31	101	1048576	40	5887
2026-01-05 17:20:42.41	279.91	69.25	-30.8	-31.4	29.1	0.00e+00	0	31	101	1048576	40	5739
2026-01-05 17:20:43.43	278.59	69.10	-30.8	-31.4	29.1	0.00e+00	0	31	101	1048576	40	5740
2026-01-05 17:20:44.44	277.31	68.94	-30.9	-31.5	29.1	0.00e+00	0	31	101	1048576	40	5797
2026-01-05 17:20:45.45	276.05	68.76	-31.0	-31.6	29.1	0.00e+00	0	31	101	1048576	40	5864
2026-01-05 17:20:46.46	274.81	68.58	-31.0	-31.7	29.1	0.00e+00	0	31	101	1048576	40	5898
2026-01-05 17:20:47.47	273.60	68.39	-31.0	-31.6	29.0	0.00e+00	0	31	101	1048576	40	5866
2026-01-05 17:20:48.48	272.41	68.19	-31.4	-31.9	28.8	0.00e+00	0	31	101	1048576	40	6095
2026-01-05 17:20:49.49	271.24	67.98	-31.2	-31.8	29.1	0.00e+00	0	31	101	1048576	40	6018
2026-01-05 17:20:50.50	270.10	67.77	-31.1	-31.8	29.1	0.00e+00	0	31	101	1048576	40	5968
2026-01-05 17:20:51.52	268.97	67.55	-31.1	-31.7	29.1	0.00e+00	0	31	101	1048576	40	5911
2026-01-05 17:20:52.53	267.87	67.32	-31.2	-31.8	29.0	0.00e+00	0	31	101	1048576	40	6021
2026-01-05 17:20:53.54	266.80	67.08	-30.8	-31.3	29.2	0.00e+00	0	31	101	1048576	40	5693
2026-01-05 17:20:54.55	265.76	66.84	-30.7	-31.3	29.3	0.00e+00	0	31	101	1048576	40	5674
2026-01-05 17:20:55.56	264.74	66.59	-30.7	-31.3	29.2	0.00e+00	0	31	101	1048576	40	5670
2026-01-05 17:20:56.57	263.74	66.33	-31.0	-31.5	29.0	0.00e+00	0	31	101	1048576	40	5784
2026-01-05 17:20:57.58	262.77	66.07	-31.1	-31.7	29.1	0.00e+00	0	31	101	1048576	40	5937
2026-01-05 17:20:58.60	261.81	65.80	-31.2	-31.8	29.0	0.00e+00	0	31	101	1048576	40	6001
2026-01-05 17:20:59.61	260.88	65.53	-31.2	-31.9	29.0	0.00e+00	0	31	101	1048576	40	6052
2026-01-05 17:21:00.62	259.97	65.26	-31.3	-31.9	29.0	0.00e+00	0	31	101	1048576	40	6100
2026-01-05 17:21:01.63	259.09	64.98	-31.3	-32.0	28.9	0.00e+00	0	31	101	1048576	40	6126
2026-01-05 17:21:02.64	258.23	64.69	-31.4	-32.1	28.8	0.00e+00	0	31	101	1048576	40	6202
2026-01-05 17:21:03.65	257.39	64.41	-31.4	-32.1	28.7	0.00e+00	0	31	101	1048576	40	6204
2026-01-05 17:21:04.66	256.58	64.11	-31.2	-31.7	29.0	0.00e+00	0	31	101	1048576	40	5937
2026-01-05 17:21:05.68	255.77	63.82	-30.7	-31.2	29.3	0.00e+00	0	31	101	1048576	40	5571
2026-01-05 17:21:06.69	254.99	63.52	-30.8	-31.2	29.3	0.00e+00	0	31	101	1048576	40	5630
2026-01-05 17:21:07.70	254.24	63.22	-31.0	-31.7	29.1	0.00e+00	0	31	101	1048576	40	5926
2026-01-05 17:21:08.71	253.50	62.91	-31.1	-31.7	29.0	0.00e+00	0	31	101	1048576	40	5911
2026-01-05 17:21:09.72	252.78	62.60	-31.1	-31.8	29.1	0.00e+00	0	31	101	1048576	40	5970
2026-01-05 17:21:10.73	252.08	62.29	-31.1	-31.8	29.0	0.00e+00	0	31	101	1048576	40	6004
2026-01-05 17:21:11.74	251.39	61.98	-31.4	-32.0	28.8	0.00e+00	0	31	101	1048576	40	6148
2026-01-05 17:21:12.75	250.73	61.67	-31.5	-32.1	28.8	0.00e+00	0	31	101	1048576	40	6231
2026-01-05 17:21:13.76	250.08	61.35	-31.7	-32.3	28.6	0.00e+00	0	31	101	1048576	40	6382
2026-01-05 17:21:14.77	249.45	61.04	-31.8	-32.3	28.6	0.00e+00	0	31	101	1048576	40	6380
2026-01-05 17:21:15.79	248.82	60.72	-31.7	-32.3	28.6	0.00e+00	0	31	101	1048576	40	6319
2026-01-05 17:21:16.80	248.22	60.40	-31.8	-32.5	28.5	0.00e+00	0	31	101	1048576	40	6483
2026-01-05 17:21:17.81	247.63	60.08	-32.0	-32.7	28.4	0.00e+00	0	31	101	1048576	40	6620
2026-01-05 17:21:18.82	247.06	59.75	-31.9	-32.5	28.4	0.00e+00	0	31	101	1048576	40	6479
2026-01-05 17:21:19.83	246.50	59.43	-31.9	-32.4	28.5	0.00e+00	0	31	101	1048576	40	6407
2026-01-05 17:21:20.84	245.96	59.11	-32.1	-32.6	28.4	0.00e+00	0	31	101	1048576	40	6604
2026-01-05 17:21:21.85	245.43	58.78	-32.2	-32.8	28.3	0.00e+00	0	31	101	1048576	42	5977
2026-01-05 17:21:22.86	244.91	58.46	-32.2	-32.9	28.4	0.00e+00	0	31	101	1048576	42	6068
2026-01-05 17:21:23.87	244.41	58.13	-32.2	-32.7	28.2	0.00e+00	0	31	101	1048576	42	5954
2026-01-05 17:21:24.88	243.91	57.81	-32.0	-32.5	28.4	0.00e+00	0	31	101	1048576	42	5795
2026-01-05 17:21:25.90	243.43	57.48	-32.1	-32.8	28.3	0.00e+00	0	31	101	1048576	42	5999
2026-01-05 17:21:26.91	242.96	57.16	-32.2	-32.7	28.3	0.00e+00	0	31	101	1048576	42	5957
2026-01-05 17:21:27.92	242.50	56.83	-31.9	-32.6	28.4	0.00e+00	0	31	101	1048576	42	5862
2026-01-05 17:21:28.93	242.05	56.50	-32.0	-32.6	28.4	0.00e+00	0	31	101	1048576	42	5882
2026-01-05 17:21:29.94	241.61	56.18	-32.3	-33.0	28.3	0.00e+00	0	31	101	1048576	42	6122
2026-01-05 17:21:30.95	241.19	55.85	-32.5	-33.0	28.1	0.00e+00	0	31	101	1048576	42	6162
2026-01-05 17:21:31.96	240.77	55.53	-32.5	-33.0	28.1	0.00e+00	0	31	101	1048576	42	6140
2026-01-05 17:21:32.98	240.36	55.20	-32.4	-33.0	28.2	0.00e+00	0	31	101	1048576	42	6131
2026-01-05 17:21:33.99	239.96	54.88	-32.6	-33.3	27.9	0.00e+00	0	31	101	1048576	42	6340
2026-01-05 17:21:35.00	239.57	54.56	-32.7	-33.3	27.9	0.00e+00	0	31	101	1048576	42	6340
2026-01-05 17:21:36.01	239.19	54.24	-32.6	-33.3	27.9	0.00e+00	0	31	101	1048576	42	6352
2026-01-05 17:21:37.02	238.82	53.91	-32.6	-33.2	28.0	0.00e+00	0	31	101	1048576	42	6287
2026-01-05 17:21:38.03	238.45	53.59	-32.5	-33.1	28.1	0.00e+00	0	31	101	1048576	42	6219
2026-01-05 17:21:39.04	238.10	53.27	-32.5	-33.1	28.0	0.00e+00	0	31	101	1048576	42	6186
2026-01-05 17:21:40.05	237.75	52.96	-32.6	-33.2	28.0	0.00e+00	0	31	101	1048576	42	6275
2026-01-05 17:21:41.06	237.41	52.64	-32.8	-33.4	27.8	0.00e+00	0	31	101	1048576	42	6433
2026-01-05 17:21:42.07	237.08	52.32	-32.7	-33.2	27.9	0.00e+00	0	31	101	1048576	42	6294
2026-01-05 17:21:43.08	236.75	52.01	-32.4	-33.0	28.1	0.00e+00	0	31	101	1048576	42	6143
2026-01-05 17:21:44.10	236.43	51.69	-32.2	-32.7	28.3	0.00e+00	0	31	101	1048576	42	5922
2026-01-05 17:21:45.11	236.11	51.37	-32.2	-32.7	28.3	0.00e+00	0	31	101	1048576	42	5914
2026-01-05 17:21:46.12	235.81	51.06	-32.3	-32.8	28.3	0.00e+00	0	31	101	1048576	42	5982
2026-01-05 17:21:47.13	235.51	50.75	-32.5	-33.2	28.0	0.00e+00	0	31	101	1048576	42	6267
2026-01-05 17:21:48.14	235.22	50.44	-32.6	-33.1	27.9	0.00e+00	0	31	101	1048576	42	6219
2026-01-05 17:21:49.15	234.93	50.13	-32.8	-33.4	27.6	0.00e+00	0	31	101	1048576	42	6400
2026-01-05 17:21:50.16	234.65	49.82	-33.0	-33.6	27.6	0.00e+00	0	31	101	1048576	42	6615
2026-01-05 17:21:51.17	234.37	49.52	-32.6	-33.3	27.8	0.00e+00	0	31	101	1048576	42	6354
2026-01-05 17:21:52.18	234.10	49.21	-32.6	-33.3	27.8	0.00e+00	0	31	101	1048576	42	6336
2026-01-05 17:21:53.20	233.83	48.91	-32.7	-33.4	27.6	0.00e+00	0	31	101	1048576	42	6442
2026-01-05 17:21:54.21	233.57	48.61	-32.9	-33.6	27.6	0.00e+00	0	31	101	1048576	42	6560
2026-01-05 17:21:55.22	233.32	48.31	-32.7	-33.3	27.8	0.00e+00	0	31	101	1048576	42	6348
2026-01-05 17:21:56.23	233.07	48.01	-32.2	-32.9	28.1	0.00e+00	0	31	101	1048576	42	6070
2026-01-05 17:21:57.24	232.82	47.71	-32.0	-32.6	28.3	0.00e+00	0	31	101	1048576	42	5856
2026-01-05 17:21:58.25	232.58	47.41	-31.7	-32.4	28.7	0.00e+00	0	31	101	1048576	42	5707
2026-01-05 17:21:59.26	232.35	47.12	-31.6	-32.2	28.7	0.00e+00	0	31	101	1048576	42	5627
2026-01-05 17:22:00.27	232.12	46.83	-31.7	-32.2	28.7	0.00e+00	0	31	101	1048576	42	5612
2026-01-05 17:22:01.29	231.89	46.53	-31.6	-32.1	28.7	0.00e+00	0	31	101	1048576	42	5517
2026-01-05 17:22:02.30	231.67	46.24	-31.6	-32.2	28.7	0.00e+00	0	31	101	1048576	42	5579
2026-01-05 17:22:03.31	231.45	45.95	-31.8	-32.4	28.5	0.00e+00	0	31	101	1048576	42	5756
2026-01-05 17:22:04.32	231.23	45.67	-31.9	-32.6	28.5	0.00e+00	0	31	101	1048576	42	5860
2026-01-05 17:22:05.33	231.02	45.38	-32.1	-32.6	28.4	0.00e+00	0	31	101	1048576	42	5866
2026-01-05 17:22:06.34	230.82	45.10	-32.1	-32.7	28.3	0.00e+00	0	31	101	1048576	42	5940
2026-01-05 17:22:07.35	230.61	44.82	-32.0	-32.6	28.4	0.00e+00	0	31	101	1048576	42	5848
2026-01-05 17:22:08.36	230.41	44.54	-32.1	-32.7	28.4	0.00e+00	0	31	101	1048576	42	5907
2026-01-05 17:22:09.37	230.22	44.26	-32.1	-32.7	28.3	0.00e+00	0	31	101	1048576	42	5939
2026-01-05 17:22:10.38	230.02	43.98	-32.1	-32.7	28.4	0.00e+00	0	31	101	1048576	42	5950
2026-01-05 17:22:11.40	229.83	43.70	-32.1	-32.7	28.3	0.00e+00	0	31	101	1048576	42	5906
2026-01-05 17:22:12.41	229.65	43.43	-31.8	-32.3	28.6	0.00e+00	0	31	101	1048576	42	5656
2026-01-05 17:22:13.42	229.47	43.16	-31.7	-32.4	28.6	0.00e+00	0	31	101	1048576	42	5722
2026-01-05 17:22:14.43	229.29	42.89	-31.7	-32.3	28.6	0.00e+00	0	31	101	1048576	42	5686
2026-01-05 17:22:15.44	229.11	42.62	-31.5	-32.1	28.7	0.00e+00	0	31	101	1048576	42	5504
2026-01-05 17:22:16.45	228.94	42.35	-31.6	-32.1	28.8	0.00e+00	0	31	101	1048576	42	5529
2026-01-05 17:22:17.46	228.77	42.08	-31.7	-32.2	28.6	0.00e+00	0	31	101	1048576	42	5630
2026-01-05 17:22:18.47	228.60	41.82	-31.6	-32.1	28.7	0.00e+00	0	31	101	1048576	42	5559
2026-01-05 17:22:19.48	228.43	41.56	-31.7	-32.2	28.7	0.00e+00	0	31	101	1048576	42	5605
2026-01-05 17:22:20.50	228.27	41.29	-31.6	-32.1	28.7	0.00e+00	0	31	101	1048576	42	5561
2026-01-05 17:22:21.51	228.11	41.03	-31.8	-32.3	28.6	0.00e+00	0	31	101	1048576	42	5684
2026-01-05 17:22:22.52	227.95	40.77	-31.8	-32.3	28.5	0.00e+00	0	31	101	1048576	42	5694
2026-01-05 17:22:23.53	227.80	40.52	-31.8	-32.5	28.5	0.00e+00	0	31	101	1048576	42	5803
2026-01-05 17:22:24.54	227.64	40.26	-31.9	-32.5	28.6	0.00e+00	0	31	101	1048576	42	5822
2026-01-05 17:22:25.55	227.50	40.01	-31.9	-32.5	28.5	0.00e+00	0	31	101	1048576	42	5763
2026-01-05 17:22:26.56	227.35	39.76	-31.8	-32.3	28.6	0.00e+00	0	31	101	1048576	42	5661
2026-01-05 17:22:27.57	227.20	39.51	-31.8	-32.3	28.6	0.00e+00	0	31	101	1048576	42	5670
2026-01-05 17:22:28.58	227.06	39.26	-31.6	-32.2	28.8	0.00e+00	0	31	101	1048576	42	5623
2026-01-05 17:22:29.60	226.92	39.01	-31.4	-32.0	28.9	0.00e+00	0	31	101	1048576	42	5494
2026-01-05 17:22:30.61	226.78	38.77	-31.3	-31.8	29.0	0.00e+00	0	31	101	1048576	42	5331
2026-01-05 17:22:31.62	226.64	38.52	-31.2	-31.7	29.0	0.00e+00	0	31	101	1048576	42	5299
2026-01-05 17:22:32.63	226.51	38.28	-31.1	-31.6	29.0	0.00e+00	0	31	101	1048576	40	5863
2026-01-05 17:22:33.64	226.38	38.04	-31.3	-31.8	28.9	0.00e+00	0	31	101	1048576	40	5997
2026-01-05 17:22:34.65	226.25	37.80	-31.3	-31.8	28.9	0.00e+00	0	31	101	1048576	40	6032
2026-01-05 17:22:35.66	226.12	37.56	-31.2	-31.7	29.0	0.00e+00	0	31	101	1048576	40	5911
2026-01-05 17:22:36.67	225.99	37.33	-31.5	-32.0	28.9	0.00e+00	0	31	101	1048576	40	6136
2026-01-05 17:22:37.69	225.87	37.09	-31.1	-31.7	29.0	0.00e+00	0	31	101	1048576	40	5904
2026-01-05 17:22:38.70	225.74	36.86	-31.2	-31.7	29.0	0.00e+00	0	31	101	1048576	40	5929
2026-01-05 17:22:39.71	225.62	36.63	-31.3	-31.8	28.9	0.00e+00	0	31	101	1048576	40	5967
2026-01-05 17:22:40.72	225.50	36.40	-31.3	-31.8	28.9	0.00e+00	0	31	101	1048576	40	5992
2026-01-05 17:22:41.73	225.39	36.17	-31.4	-31.9	28.8	0.00e+00	0	31	101	1048576	40	6079
2026-01-05 17:22:42.74	225.27	35.94	-31.5	-32.0	28.8	0.00e+00	0	31	101	1048576	40	6160
2026-01-05 17:22:43.75	225.16	35.71	-31.7	-32.2	28.7	0.00e+00	0	31	101	1048576	40	6285
2026-01-05 17:22:44.76	225.04	35.49	-31.7	-32.3	28.6	0.00e+00	0	31	101	1048576	40	6340
2026-01-05 17:22:45.77	224.93	35.27	-31.8	-32.3	28.5	0.00e+00	0	31	101	1048576	40	6359
2026-01-05 17:22:46.78	224.82	35.05	-31.9	-32.4	28.5	0.00e+00	0	31	101	1048576	40	6434
2026-01-05 17:22:47.80	224.71	34.82	-31.9	-32.4	28.5	0.00e+00	0	31	101	1048576	40	6419
2026-01-05 17:22:48.81	224.61	34.61	-31.9	-32.4	28.5	0.00e+00	0	31	101	1048576	40	6410
2026-01-05 17:22:49.82	224.50	34.39	-31.9	-32.4	28.6	0.00e+00	0	31	101	1048576	40	6407
2026-01-05 17:22:50.83	224.40	34.17	-32.0	-32.5	28.4	0.00e+00	0	31	101	1048576	40	6520
2026-01-05 17:22:51.84	224.30	33.96	-31.9	-32.4	28.4	0.00e+00	0	31	101	1048576	40	6435
2026-01-05 17:22:52.85	224.20	33.75	-32.1	-32.6	28.3	0.00e+00	0	31	101	1048576	40	6611
2026-01-05 17:22:53.86	224.10	33.53	-32.1	-32.6	28.4	0.00e+00	0	31	101	1048576	40	6593
2026-01-05 17:22:54.87	224.00	33.32	-31.9	-32.5	28.5	0.00e+00	0	31	101	1048576	40	6467
2026-01-05 17:22:55.89	223.90	33.11	-31.9	-32.5	28.4	0.00e+00	0	31	101	1048576	40	6476
2026-01-05 17:22:56.90	223.80	32.91	-31.7	-32.3	28.5	0.00e+00	0	31	101	1048576	40	6344
2026-01-05 17:22:57.91	223.71	32.70	-31.8	-32.4	28.5	0.00e+00	0	31	101	1048576	40	6455
2026-01-05 17:22:58.92	223.62	32.49	-31.8	-32.4	28.5	0.00e+00	0	31	101	1048576	40	6398
2026-01-05 17:22:59.93	223.53	32.29	-31.6	-32.1	28.7	0.00e+00	0	31	101	1048576	40	6231
2026-01-05 17:23:00.94	223.43	32.09	-31.5	-32.1	28.8	0.00e+00	0	31	101	1048576	40	6179
2026-01-05 17:23:01.95	223.34	31.89	-31.6	-32.1	28.7	0.00e+00	0	31	101	1048576	40	6229
2026-01-05 17:23:02.96	223.26	31.69	-31.6	-32.2	28.6	0.00e+00	0	31	101	1048576	40	6250
2026-01-05 17:23:03.98	223.17	31.49	-31.6	-32.2	28.7	0.00e+00	0	31	101	1048576	40	6266
2026-01-05 17:23:04.99	223.08	31.29	-31.9	-32.4	28.5	0.00e+00	0	31	101	1048576	40	6431
2026-01-05 17:23:06.00	223.00	31.09	-31.9	-32.4	28.4	0.00e+00	0	31	101	1048576	40	6443
2026-01-05 17:23:07.01	222.91	30.90	-31.8	-32.4	28.6	0.00e+00	0	31	101	1048576	40	6407
2026-01-05 17:23:08.02	222.83	30.71	-32.0	-32.5	28.5	0.00e+00	0	31	101	1048576	40	6487
2026-01-05 17:23:09.03	222.75	30.51	-31.7	-32.2	28.6	0.00e+00	0	31	101	1048576	40	6293
2026-01-05 17:23:10.04	222.67	30.32	-31.9	-32.4	28.5	0.00e+00	0	31	101	1048576	40	6419
2026-01-05 17:23:11.05	222.59	30.13	-31.6	-32.2	28.6	0.00e+00	0	31	101	1048576	40	6265
2026-01-05 17:23:12.06	222.51	29.94	-31.8	-32.3	28.6	0.00e+00	0	31	101	1048576	40	6357
2026-01-05 17:23:13.08	222.43	29.75	-31.8	-32.3	28.6	0.00e+00	0	31	101	1048576	40	6369
2026-01-05 17:23:14.09	222.35	29.57	-31.8	-32.3	28.4	0.00e+00	0	31	101	1048576	40	6350
2026-01-05 17:23:15.10	222.28	29.38	-31.8	-32.4	28.5	0.00e+00	0	31	101	1048576	40	6404
2026-01-05 17:23:16.11	222.20	29.20	-31.9	-32.5	28.4	0.00e+00	0	31	101	1048576	40	6472
2026-01-05 17:23:17.12	222.13	29.02	-31.8	-32.3	28.5	0.00e+00	0	31	101	1048576	40	6380
2026-01-05 17:23:18.13	222.05	28.83	-31.9	-32.5	28.4	0.00e+00	0	31	101	1048576	40	6467
2026-01-05 17:23:19.14	221.98	28.65	-32.0	-32.5	28.5	0.00e+00	0	31	101	1048576	40	6502
2026-01-05 17:23:20.15	221.91	28.47	-31.8	-32.3	28.5	0.00e+00	0	31	101	1048576	40	6386
2026-01-05 17:23:21.16	221.84	28.29	-32.0	-32.5	28.3	0.00e+00	0	31	101	1048576	40	6539
2026-01-05 17:23:22.17	221.77	28.12	-31.9	-32.4	28.5	0.00e+00	0	31	101	1048576	40	6423
2026-01-05 17:23:23.19	221.70	27.94	-31.8	-32.3	28.6	0.00e+00	0	31	101	1048576	40	6380
2026-01-05 17:23:24.20	221.63	27.76	-31.8	-32.4	28.5	0.00e+00	0	31	101	1048576	40	6410
2026-01-05 17:23:25.21	221.56	27.59	-31.9	-32.6	28.4	0.00e+00	0	31	101	1048576	40	6569
2026-01-05 17:23:26.22	221.49	27.42	-31.9	-32.5	28.5	0.00e+00	0	31	101	1048576	40	6535
2026-01-05 17:23:27.23	221.43	27.24	-31.7	-32.4	28.6	0.00e+00	0	31	101	1048576	40	6427
2026-01-05 17:23:28.24	221.36	27.07	-31.9	-32.5	28.5	0.00e+00	0	31	101	1048576	40	6524
2026-01-05 17:23:29.25	221.30	26.90	-31.8	-32.4	28.5	0.00e+00	0	31	101	1048576	40	6455
2026-01-05 17:23:30.27	221.23	26.73	-31.8	-32.5	28.4	0.00e+00	0	31	101	1048576	40	6496
2026-01-05 17:23:31.28	221.17	26.56	-31.9	-32.5	28.5	0.00e+00	0	31	101	1048576	40	6527
2026-01-05 17:23:32.29	221.11	26.40	-31.9	-32.6	28.4	0.00e+00	0	31	101	1048576	40	6574
2026-01-05 17:23:33.30	221.04	26.23	-32.0	-32.7	28.3	0.00e+00	0	31	101	1048576	40	6668
2026-01-05 17:23:34.31	220.98	26.07	-32.1	-32.8	28.3	0.00e+00	0	31	101	1048576	42	6019
2026-01-05 17:23:35.32	220.92	25.90	-32.1	-32.8	28.3	0.00e+00	0	31	101	1048576	42	5999
2026-01-05 17:23:36.33	220.86	25.74	-32.2	-32.9	28.2	0.00e+00	0	31	101	1048576	42	6091
2026-01-05 17:23:37.34	220.80	25.58	-32.2	-32.9	28.2	0.00e+00	0	31	101	1048576	42	6082
2026-01-05 17:23:38.35	220.74	25.42	-32.4	-33.1	28.1	0.00e+00	0	31	101	1048576	42	6175
2026-01-05 17:23:39.37	220.68	25.25	-32.3	-33.0	28.2	0.00e+00	0	31	101	1048576	42	6149
2026-01-05 17:23:40.38	220.63	25.09	-32.3	-33.0	28.2	0.00e+00	0	31	101	1048576	42	6119
2026-01-05 17:23:41.39	220.57	24.94	-32.2	-32.9	28.2	0.00e+00	0	31	101	1048576	42	6043
2026-01-05 17:23:42.40	220.51	24.78	-32.4	-33.1	28.1	0.00e+00	0	31	101	1048576	42	6175
2026-01-05 17:23:43.41	220.46	24.62	-32.2	-32.7	28.2	0.00e+00	0	31	101	1048576	42	5955
2026-01-05 17:23:44.42	220.40	24.47	-32.1	-32.6	28.4	0.00e+00	0	31	101	1048576	42	5857
2026-01-05 17:23:45.43	220.35	24.31	-32.1	-32.6	28.3	0.00e+00	0	31	101	1048576	42	5877
2026-01-05 17:23:46.44	220.29	24.16	-32.2	-32.7	28.3	0.00e+00	0	31	101	1048576	42	5899
2026-01-05 17:23:47.45	220.24	24.00	-32.3	-32.8	28.2	0.00e+00	0	31	101	1048576	42	6003
2026-01-05 17:23:48.46	220.19	23.85	-32.2	-32.7	28.3	0.00e+00	0	31	101	1048576	42	5937
2026-01-05 17:23:49.48	220.13	23.70	-32.3	-32.8	28.2	0.00e+00	0	31	101	1048576	42	6033
2026-01-05 17:23:50.49	220.08	23.55	-32.5	-33.0	28.0	0.00e+00	0	31	101	1048576	42	6166
2026-01-05 17:23:51.50	220.03	23.40	-32.6	-33.1	28.0	0.00e+00	0	31	101	1048576	42	6222
2026-01-05 17:23:52.51	219.98	23.25	-32.6	-33.1	28.0	0.00e+00	0	31	101	1048576	42	6242
2026-01-05 17:23:53.52	219.93	23.10	-32.7	-33.3	27.9	0.00e+00	0	31	101	1048576	42	6322
2026-01-05 17:23:54.53	219.88	22.96	-32.7	-33.3	27.8	0.00e+00	0	31	101	1048576	42	6359
2026-01-05 17:23:55.54	219.83	22.81	-32.8	-33.3	27.8	0.00e+00	0	31	101	1048576	42	6387
2026-01-05 17:23:56.55	219.78	22.66	-32.9	-33.5	27.7	0.00e+00	0	31	101	1048576	42	6488
2026-01-05 17:23:57.56	219.73	22.52	-33.0	-33.5	27.6	0.00e+00	0	31	101	1048576	42	6522
2026-01-05 17:23:58.58	219.69	22.37	-33.0	-33.5	27.6	0.00e+00	0	31	101	1048576	42	6519
2026-01-05 17:23:59.59	219.64	22.23	-32.9	-33.5	27.7	0.00e+00	0	31	101	1048576	42	6481
2026-01-05 17:24:00.60	219.59	22.09	-33.0	-33.6	27.6	0.00e+00	0	31	101	1048576	42	6585
2026-01-05 17:24:01.61	219.55	21.95	-32.9	-33.6	27.7	0.00e+00	0	31	101	1048576	42	6563
2026-01-05 17:24:02.62	219.50	21.81	-32.9	-33.4	27.7	0.00e+00	0	31	101	1048576	42	6460
2026-01-05 17:24:03.56	219.46	21.67	-32.8	-33.3	27.8	0.00e+00	0	31	101	1048576	42	6374
2026-01-05 17:24:04.57	219.41	21.54	-32.9	-33.5	27.6	0.00e+00	0	31	101	1048576	42	6468
2026-01-05 17:24:05.58	219.37	21.40	-32.8	-33.4	27.7	0.00e+00	0	31	101	1048576	42	6404
2026-01-05 17:24:06.59	219.32	21.26	-32.8	-33.5	27.8	0.00e+00	0	31	101	1048576	42	6489
2026-01-05 17:24:07.60	219.28	21.12	-32.8	-33.5	27.7	0.00e+00	0	31	101	1048576	42	6526
2026-01-05 17:24:08.61	219.24	20.99	-32.9	-33.5	27.6	0.00e+00	0	31	101	1048576	42	6534
2026-01-05 17:24:09.63	219.19	20.85	-32.7	-33.2	27.8	0.00e+00	0	31	101	1048576	42	6289
2026-01-05 17:24:10.64	219.15	20.71	-32.7	-33.2	27.9	0.00e+00	0	31	101	1048576	42	6294
2026-01-05 17:24:11.65	219.11	20.58	-32.8	-33.3	27.8	0.00e+00	0	31	101	1048576	42	6379
2026-01-05 17:24:12.66	219.07	20.45	-32.8	-33.3	27.8	0.00e+00	0	31	101	1048576	42	6359
2026-01-05 17:24:13.67	219.02	20.31	-33.0	-33.5	27.6	0.00e+00	0	31	101	1048576	42	6488
2026-01-05 17:24:14.68	218.98	20.18	-32.9	-33.5	27.7	0.00e+00	0	31	101	1048576	42	6467
2026-01-05 17:24:15.69	218.94	20.05	-33.0	-33.5	27.6	0.00e+00	0	31	101	1048576	42	6537
2026-01-05 17:24:16.71	218.90	19.92	-33.0	-33.5	27.6	0.00e+00	0	31	101	1048576	42	6504
2026-01-05 17:24:17.72	218.86	19.79	-33.1	-33.6	27.6	0.00e+00	0	31	101	1048576	44	5872
2026-01-05 17:24:18.73	218.82	19.66	-33.1	-33.6	27.5	0.00e+00	0	31	101	1048576	44	5867
2026-01-05 17:24:19.74	218.78	19.53	-33.2	-33.7	27.5	0.00e+00	0	31	101	1048576	44	5935
2026-01-05 17:24:20.75	218.74	19.40	-33.3	-33.8	27.4	0.00e+00	0	31	101	1048576	44	6015
2026-01-05 17:24:21.76	218.71	19.27	-33.2	-33.8	27.3	0.00e+00	0	31	101	1048576	44	5983
2026-01-05 17:24:22.77	218.67	19.14	-33.3	-33.8	27.4	0.00e+00	0	31	101	1048576	44	6024
2026-01-05 17:24:23.78	218.63	19.02	-33.3	-33.9	27.3	0.00e+00	0	31	101	1048576	44	6055
2026-01-05 17:24:24.79	218.59	18.89	-33.3	-33.9	27.3	0.00e+00	0	31	101	1048576	44	6062
2026-01-05 17:24:25.80	218.55	18.77	-33.3	-33.9	27.3	0.00e+00	0	31	101	1048576	44	6063
2026-01-05 17:24:26.82	218.52	18.64	-33.4	-34.0	27.3	0.00e+00	0	31	101	1048576	44	6104
2026-01-05 17:24:27.83	218.48	18.52	-33.5	-34.0	27.1	0.00e+00	0	31	101	1048576	44	6164
