passes_logs/2026/01/05/R4.6S_Anadyr_2ch/R4.6S_Anadyr_2ch__20260105_033337_FENGYUN_3E_rec.log

#Pass ID: 20260105_033337_FENGYUN 3E
#Satellite: FENGYUN 3E
#Configuration: FENGYUN 3E
#almurnet v.1.7.20251203
#Start time: 2026-01-05 03:33:39

#Version: 2.2.20231116
#Station: R4.6S_Anadyr_2ch
#Location: 177.4865 lon 64.73178 lat
#TLE: 1 49008U 21062A   25350.97288215  .00000176  00000+0  10353-3 0  9997
#TLE: 2 49008  98.7477 351.4440 0000638 234.3856 125.7261 14.19881381230726

#Time	Az	El	Level	Level2	SNR	BER	BlckErr	Temp	State	Recorded	gain1	gain2
2026-01-05 03:33:39.54	133.25	0.10	-52.7	-67.7	3.5	1.51e+00	0	22	0	0	60	118843
2026-01-05 03:33:40.55	133.23	0.16	-51.8	-63.3	3.6	8.44e-01	0	23	104	0	60	71972
2026-01-05 03:33:41.56	133.21	0.22	-52.0	-63.5	3.6	8.45e-01	0	23	104	0	60	73966
2026-01-05 03:33:42.58	133.18	0.28	-51.5	-63.1	3.6	8.45e-01	0	23	104	0	60	70309
2026-01-05 03:33:43.59	133.16	0.34	-52.1	-63.6	3.6	8.45e-01	0	23	104	0	60	74980
2026-01-05 03:33:44.60	133.14	0.40	-52.5	-64.0	3.6	8.46e-01	0	24	104	0	60	78280
2026-01-05 03:33:45.61	133.12	0.46	-52.1	-63.7	3.6	8.45e-01	0	24	104	0	60	75087
2026-01-05 03:33:46.62	133.09	0.52	-51.4	-63.0	3.6	8.45e-01	0	24	104	0	60	69368
2026-01-05 03:33:47.63	133.07	0.59	-51.4	-62.9	3.6	8.46e-01	0	24	104	0	60	68971
2026-01-05 03:33:48.64	133.05	0.65	-51.1	-62.5	3.6	8.45e-01	0	24	104	0	60	66029
2026-01-05 03:33:49.65	133.02	0.71	-51.2	-62.8	3.6	8.45e-01	0	24	104	0	60	67727
2026-01-05 03:33:50.66	133.00	0.77	-51.2	-62.7	3.6	8.46e-01	0	24	104	0	60	67134
2026-01-05 03:33:51.67	132.97	0.83	-51.5	-63.0	3.6	8.45e-01	0	24	104	0	60	69387
2026-01-05 03:33:52.68	132.95	0.89	-51.0	-62.6	3.6	8.46e-01	0	24	104	0	60	66226
2026-01-05 03:33:53.69	132.93	0.95	-50.9	-62.4	3.6	8.47e-01	0	24	104	0	60	65094
2026-01-05 03:33:54.71	132.90	1.02	-50.6	-62.2	3.6	8.44e-01	0	24	104	0	60	63682
2026-01-05 03:33:55.72	132.88	1.08	-51.0	-62.4	3.6	8.45e-01	0	24	104	0	60	65358
2026-01-05 03:33:56.73	132.85	1.14	-50.6	-62.2	3.6	8.45e-01	0	24	104	0	60	63621
2026-01-05 03:33:57.74	132.83	1.20	-50.3	-62.0	3.6	8.46e-01	0	24	104	0	60	62093
2026-01-05 03:33:58.75	132.81	1.26	-50.4	-61.9	3.6	8.46e-01	0	24	104	0	60	61326
2026-01-05 03:33:59.76	132.78	1.33	-50.1	-61.6	3.6	8.46e-01	0	24	104	0	60	59151
2026-01-05 03:34:00.77	132.76	1.39	-49.7	-61.1	3.6	8.45e-01	0	24	104	0	60	56081
2026-01-05 03:34:01.78	132.73	1.45	-49.5	-61.0	3.6	8.46e-01	0	24	104	0	60	55366
2026-01-05 03:34:02.79	132.71	1.51	-49.5	-61.1	3.6	8.44e-01	0	24	104	0	60	55677
2026-01-05 03:34:03.80	132.68	1.58	-49.6	-61.1	3.6	8.46e-01	0	24	104	0	60	55902
2026-01-05 03:34:04.82	132.66	1.64	-49.5	-61.0	3.6	8.45e-01	0	24	104	0	60	55223
2026-01-05 03:34:05.83	132.63	1.70	-49.4	-60.9	3.6	8.45e-01	0	24	104	0	60	54748
2026-01-05 03:34:06.84	132.60	1.77	-49.3	-60.9	3.6	8.46e-01	0	24	104	0	60	54529
2026-01-05 03:34:07.85	132.58	1.83	-49.3	-60.9	3.6	8.45e-01	0	24	104	0	60	54647
2026-01-05 03:34:08.86	132.55	1.89	-49.3	-60.8	3.6	8.44e-01	0	24	104	0	60	54314
2026-01-05 03:34:09.87	132.53	1.96	-49.5	-61.1	3.6	8.45e-01	0	24	104	0	60	56085
2026-01-05 03:34:10.88	132.50	2.02	-49.6	-61.2	3.6	8.45e-01	0	24	104	0	60	56788
2026-01-05 03:34:11.89	132.48	2.08	-49.5	-61.1	3.5	8.45e-01	0	24	104	0	60	55731
2026-01-05 03:34:12.90	132.45	2.15	-49.6	-61.2	3.6	8.45e-01	0	24	104	0	60	56357
2026-01-05 03:34:13.92	132.42	2.21	-49.4	-60.8	3.6	8.45e-01	0	24	104	0	60	53795
2026-01-05 03:34:14.93	132.40	2.28	-49.4	-60.7	3.6	8.45e-01	0	24	104	0	60	53466
2026-01-05 03:34:15.94	132.37	2.34	-49.8	-61.1	3.6	8.45e-01	0	24	104	0	60	55743
2026-01-05 03:34:16.95	132.34	2.40	-49.6	-60.8	3.6	8.46e-01	0	24	104	0	60	53824
2026-01-05 03:34:17.96	132.32	2.47	-49.4	-60.7	3.6	8.47e-01	0	24	104	0	60	53232
2026-01-05 03:34:18.97	132.29	2.53	-49.4	-60.6	3.6	8.45e-01	0	24	104	0	60	52724
2026-01-05 03:34:19.98	132.26	2.60	-49.4	-61.0	3.6	8.44e-01	0	24	104	0	60	55382
2026-01-05 03:34:20.99	132.24	2.66	-49.5	-61.1	3.6	8.45e-01	0	24	104	0	60	56046
2026-01-05 03:34:22.00	132.21	2.73	-49.4	-61.1	3.6	8.44e-01	0	24	104	0	60	55763
2026-01-05 03:34:23.01	132.18	2.80	-49.4	-60.8	3.6	8.46e-01	0	24	104	0	60	54297
2026-01-05 03:34:24.02	132.15	2.86	-49.3	-60.5	3.6	8.45e-01	0	24	104	0	60	52111
2026-01-05 03:34:25.03	132.12	2.93	-49.5	-60.5	3.6	8.45e-01	0	24	104	0	60	52185
2026-01-05 03:34:26.04	132.10	2.99	-49.3	-60.4	3.6	8.45e-01	0	24	104	0	60	51506
2026-01-05 03:34:27.05	132.07	3.06	-49.3	-60.3	3.6	8.44e-01	0	24	104	0	60	50957
2026-01-05 03:34:28.06	132.04	3.12	-49.2	-59.8	3.6	8.44e-01	0	24	104	0	60	48442
2026-01-05 03:34:29.07	132.01	3.19	-49.3	-59.9	3.6	8.46e-01	0	24	104	0	60	48599
2026-01-05 03:34:30.09	131.98	3.26	-49.2	-59.5	3.6	8.45e-01	0	24	104	0	60	46451
2026-01-05 03:34:31.09	131.96	3.32	-49.2	-59.7	3.6	8.45e-01	0	24	104	0	60	47840
2026-01-05 03:34:32.11	131.93	3.39	-49.4	-61.0	3.6	8.44e-01	0	24	104	0	60	55234
2026-01-05 03:34:33.12	131.90	3.46	-49.5	-60.9	3.6	8.46e-01	0	24	104	0	60	54597
2026-01-05 03:34:34.13	131.87	3.53	-47.8	-52.7	5.2	8.23e-01	0	24	104	0	60	21178
2026-01-05 03:34:35.14	131.84	3.59	-48.6	-55.2	7.4	2.55e-01	0	24	0	0	60	28451
2026-01-05 03:34:36.15	131.81	3.66	-47.2	-50.6	9.9	4.15e-02	0	24	0	7340032	60	16663
2026-01-05 03:34:37.16	131.78	3.73	-46.9	-50.0	10.0	5.16e-02	0	24	0	14680064	60	15521
2026-01-05 03:34:38.17	131.75	3.79	-44.7	-46.6	14.1	1.83e-05	0	24	0	22020096	60	10556
2026-01-05 03:34:39.18	131.72	3.86	-44.2	-45.9	14.3	3.40e-06	0	24	0	29360128	60	9748
2026-01-05 03:34:40.19	131.69	3.93	-42.9	-44.3	16.0	0.00e+00	0	24	0	35651584	60	8094
2026-01-05 03:34:41.20	131.66	4.00	-45.1	-47.3	12.2	2.05e-05	0	24	0	42991616	60	11413
2026-01-05 03:34:42.22	131.63	4.07	-41.9	-43.1	16.7	0.00e+00	0	24	0	51380224	60	7067
2026-01-05 03:34:43.23	131.60	4.14	-49.9	-61.1	3.6	8.45e-01	0	24	104	52428800	60	56132
2026-01-05 03:34:44.24	131.57	4.21	-38.9	-39.7	19.4	0.00e+00	0	24	104	52428800	56	5978
2026-01-05 03:34:45.24	131.54	4.27	-49.1	-58.4	3.9	8.45e-01	0	24	104	53477376	60	41044
2026-01-05 03:34:46.25	131.51	4.34	-46.5	-49.3	12.6	8.37e-01	0	24	104	53477376	60	14464
2026-01-05 03:34:47.27	131.48	4.41	-41.5	-42.6	18.0	0.00e+00	0	24	0	57671680	60	6637
2026-01-05 03:34:48.28	131.45	4.48	-37.8	-38.5	21.3	0.00e+00	0	24	0	65011712	54	5834
2026-01-05 03:34:49.29	131.41	4.55	-37.8	-38.4	21.5	0.00e+00	0	24	0	72351744	54	5817
2026-01-05 03:34:50.30	131.38	4.62	-37.6	-38.3	21.6	0.00e+00	0	24	0	78643200	54	5713
2026-01-05 03:34:51.31	131.35	4.69	-37.6	-38.3	21.7	0.00e+00	0	24	0	87031808	54	5727
2026-01-05 03:34:52.32	131.32	4.76	-37.4	-38.1	21.5	0.00e+00	0	24	0	94371840	54	5571
2026-01-05 03:34:53.33	131.29	4.83	-37.4	-38.0	21.9	0.00e+00	0	24	0	100663296	54	5539
2026-01-05 03:34:54.34	131.26	4.90	-37.4	-38.0	21.9	0.00e+00	0	24	0	108003328	54	5560
2026-01-05 03:34:55.35	131.22	4.97	-37.5	-38.1	21.8	0.00e+00	0	24	0	115343360	54	5600
2026-01-05 03:34:56.37	131.19	5.04	-36.7	-37.4	22.6	0.00e+00	0	24	0	122683392	52	5765
2026-01-05 03:34:57.38	131.16	5.11	-36.9	-37.5	22.6	0.00e+00	0	24	0	130023424	52	5837
2026-01-05 03:34:58.39	131.12	5.19	-36.7	-37.3	22.7	0.00e+00	0	24	0	137363456	52	5748
2026-01-05 03:34:59.40	131.09	5.26	-36.9	-37.5	22.5	0.00e+00	0	24	0	144703488	52	5833
2026-01-05 03:35:00.41	131.06	5.33	-36.8	-37.4	22.8	0.00e+00	0	24	0	152043520	52	5826
2026-01-05 03:35:01.42	131.02	5.40	-36.6	-37.2	22.9	0.00e+00	0	24	0	159383552	52	5638
2026-01-05 03:35:02.43	130.99	5.47	-36.6	-37.2	22.9	0.00e+00	0	24	0	166723584	52	5631
2026-01-05 03:35:03.45	130.96	5.54	-36.5	-37.1	22.9	0.00e+00	0	24	0	174063616	52	5596
2026-01-05 03:35:04.46	130.92	5.62	-36.5	-37.1	22.8	0.00e+00	0	24	0	181403648	52	5617
2026-01-05 03:35:05.47	130.89	5.69	-36.7	-37.3	22.7	0.00e+00	0	24	0	188743680	52	5750
2026-01-05 03:35:06.48	130.85	5.76	-36.5	-37.0	23.1	0.00e+00	0	24	0	196083712	52	5565
2026-01-05 03:35:07.49	130.82	5.83	-36.9	-37.4	22.4	0.00e+00	0	24	0	203423744	52	5826
2026-01-05 03:35:08.50	130.79	5.91	-37.1	-37.7	22.8	0.00e+00	0	24	0	210763776	52	5995
2026-01-05 03:35:09.51	130.75	5.98	-36.4	-37.0	23.1	0.00e+00	0	24	0	218103808	52	5535
2026-01-05 03:35:10.52	130.72	6.05	-36.5	-37.0	23.0	0.00e+00	0	24	0	225443840	52	5564
2026-01-05 03:35:11.53	130.68	6.13	-36.4	-37.0	23.2	0.00e+00	0	24	0	232783872	52	5508
2026-01-05 03:35:12.54	130.64	6.20	-36.2	-36.8	23.3	0.00e+00	0	24	0	240123904	52	5416
2026-01-05 03:35:13.55	130.61	6.28	-36.2	-36.8	23.3	0.00e+00	0	24	0	247463936	52	5386
2026-01-05 03:35:14.57	130.57	6.35	-36.4	-37.0	23.1	0.00e+00	0	24	0	254803968	52	5537
2026-01-05 03:35:15.58	130.54	6.42	-36.3	-36.9	23.2	0.00e+00	0	24	0	262144000	52	5451
2026-01-05 03:35:16.59	130.50	6.50	-36.4	-37.0	23.0	0.00e+00	0	24	0	269484032	52	5523
2026-01-05 03:35:17.60	130.46	6.57	-36.4	-36.9	23.3	0.00e+00	0	24	0	275775488	52	5490
2026-01-05 03:35:18.61	130.43	6.65	-36.2	-36.7	23.4	0.00e+00	0	24	0	284164096	52	5363
2026-01-05 03:35:19.62	130.39	6.72	-36.3	-36.8	23.3	0.00e+00	0	24	0	291504128	52	5436
2026-01-05 03:35:20.63	130.35	6.80	-36.1	-36.7	23.5	0.00e+00	0	24	0	297795584	52	5349
2026-01-05 03:35:21.64	130.32	6.88	-36.2	-36.8	23.3	0.00e+00	0	24	0	305135616	50	6059
2026-01-05 03:35:22.65	130.28	6.95	-36.1	-36.7	23.3	0.00e+00	0	24	0	312475648	50	5981
2026-01-05 03:35:23.67	130.24	7.03	-36.0	-36.6	23.5	0.00e+00	0	24	0	319815680	50	5914
2026-01-05 03:35:24.68	130.20	7.10	-36.2	-36.7	23.4	0.00e+00	0	24	0	327155712	50	6022
2026-01-05 03:35:25.69	130.16	7.18	-36.1	-36.7	23.5	0.00e+00	0	24	0	334495744	50	6020
2026-01-05 03:35:26.70	130.13	7.26	-36.4	-37.0	23.2	0.00e+00	0	24	0	341835776	50	6213
2026-01-05 03:35:27.71	130.09	7.33	-37.1	-37.7	22.5	0.00e+00	0	24	0	349175808	50	6740
2026-01-05 03:35:28.72	130.05	7.41	-37.1	-37.7	22.0	0.00e+00	0	24	0	356515840	52	5993
2026-01-05 03:35:29.73	130.01	7.49	-37.7	-38.4	21.8	0.00e+00	0	24	0	363855872	54	5799
2026-01-05 03:35:30.74	129.97	7.57	-36.9	-37.5	22.6	0.00e+00	0	24	0	371195904	52	5888
2026-01-05 03:35:31.75	129.93	7.64	-36.1	-36.7	23.5	0.00e+00	0	24	0	378535936	52	5320
2026-01-05 03:35:32.76	129.89	7.72	-36.0	-36.6	23.8	0.00e+00	0	24	0	385875968	50	5917
2026-01-05 03:35:33.78	129.85	7.80	-36.1	-36.6	23.7	0.00e+00	0	24	0	393216000	50	5958
2026-01-05 03:35:34.79	129.81	7.88	-36.9	-37.5	23.2	0.00e+00	0	24	0	400556032	52	5896
2026-01-05 03:35:35.80	129.77	7.96	-36.3	-36.8	23.4	0.00e+00	0	24	0	407896064	52	5430
2026-01-05 03:35:36.81	129.73	8.04	-36.2	-36.7	23.7	0.00e+00	0	25	0	415236096	50	6017
2026-01-05 03:35:37.82	129.69	8.12	-36.5	-37.1	23.3	0.00e+00	0	24	0	422576128	50	6287
2026-01-05 03:35:38.83	129.65	8.20	-36.3	-36.9	23.5	0.00e+00	0	24	0	429916160	50	6129
2026-01-05 03:35:39.84	129.61	8.27	-36.3	-36.8	23.8	0.00e+00	0	24	0	437256192	50	6098
2026-01-05 03:35:40.85	129.57	8.35	-36.4	-37.0	23.5	0.00e+00	0	24	0	443547648	50	6178
2026-01-05 03:35:41.86	129.52	8.43	-36.8	-37.4	23.1	0.00e+00	0	24	0	451936256	50	6532
2026-01-05 03:35:42.87	129.48	8.52	-36.3	-36.9	23.7	0.00e+00	0	24	0	459276288	52	5487
2026-01-05 03:35:43.89	129.44	8.60	-36.6	-37.1	23.6	0.00e+00	0	24	0	465567744	50	6307
2026-01-05 03:35:44.90	129.40	8.68	-36.1	-36.6	23.8	0.00e+00	0	24	0	472907776	50	5947
2026-01-05 03:35:45.91	129.35	8.76	-35.9	-36.4	24.1	0.00e+00	0	24	0	481296384	50	5823
2026-01-05 03:35:46.92	129.31	8.84	-35.7	-36.3	24.2	0.00e+00	0	25	0	487587840	50	5707
2026-01-05 03:35:47.93	129.27	8.92	-36.0	-36.6	23.9	0.00e+00	0	25	0	494927872	50	5949
2026-01-05 03:35:48.94	129.22	9.00	-35.7	-36.3	24.0	0.00e+00	0	25	0	502267904	50	5720
2026-01-05 03:35:49.95	129.18	9.09	-36.4	-36.9	24.1	0.00e+00	0	24	0	509607936	50	6157
2026-01-05 03:35:50.96	129.14	9.17	-35.8	-36.3	24.2	0.00e+00	0	25	0	516947968	50	5737
2026-01-05 03:35:51.98	129.09	9.25	-35.9	-36.4	24.2	0.00e+00	0	25	0	524288000	50	5809
2026-01-05 03:35:52.99	129.05	9.33	-35.9	-36.4	24.0	0.00e+00	0	25	0	531628032	50	5813
2026-01-05 03:35:54.00	129.00	9.42	-36.0	-36.6	24.0	0.00e+00	0	25	0	538968064	50	5925
2026-01-05 03:35:55.01	128.96	9.50	-36.1	-36.7	23.9	0.00e+00	0	24	0	546308096	50	6004
2026-01-05 03:35:56.02	128.91	9.58	-35.8	-36.3	23.9	0.00e+00	0	25	0	553648128	50	5751
2026-01-05 03:35:57.03	128.86	9.67	-35.6	-36.1	24.2	0.00e+00	0	25	0	560988160	50	5622
2026-01-05 03:35:58.04	128.82	9.75	-35.4	-36.0	24.3	0.00e+00	0	25	0	568328192	50	5515
2026-01-05 03:35:59.05	128.77	9.84	-35.1	-35.6	24.6	0.00e+00	0	25	0	575668224	50	5295
2026-01-05 03:36:00.06	128.73	9.92	-35.3	-35.8	24.4	0.00e+00	0	24	0	583008256	50	5424
2026-01-05 03:36:01.08	128.68	10.01	-35.0	-35.6	24.6	0.00e+00	0	24	0	590348288	50	5280
2026-01-05 03:36:02.09	128.63	10.09	-35.2	-35.8	24.5	0.00e+00	0	25	0	597688320	48	6048
2026-01-05 03:36:03.10	128.58	10.18	-35.3	-35.8	24.4	0.00e+00	0	25	0	605028352	48	6084
2026-01-05 03:36:04.11	128.54	10.26	-35.4	-36.0	24.1	0.00e+00	0	25	0	612368384	48	6202
2026-01-05 03:36:05.12	128.49	10.35	-35.0	-35.5	24.8	0.00e+00	0	25	0	619708416	48	5893
2026-01-05 03:36:06.13	128.44	10.44	-35.5	-36.0	24.4	0.00e+00	0	24	0	627048448	48	6224
2026-01-05 03:36:07.14	128.39	10.52	-35.1	-35.7	24.5	0.00e+00	0	24	0	634388480	48	6000
2026-01-05 03:36:08.15	128.34	10.61	-35.1	-35.6	24.7	0.00e+00	0	24	0	640679936	48	5936
2026-01-05 03:36:09.17	128.29	10.70	-35.0	-35.6	24.8	0.00e+00	0	25	0	649068544	48	5900
2026-01-05 03:36:10.18	128.24	10.78	-35.3	-35.8	24.6	0.00e+00	0	24	0	656408576	48	6082
2026-01-05 03:36:11.19	128.19	10.87	-34.9	-35.5	24.8	0.00e+00	0	25	0	662700032	48	5843
2026-01-05 03:36:12.20	128.14	10.96	-35.0	-35.5	24.8	0.00e+00	0	25	0	670040064	48	5889
2026-01-05 03:36:13.21	128.09	11.05	-35.0	-35.5	24.8	0.00e+00	0	25	0	678428672	48	5873
2026-01-05 03:36:14.22	128.04	11.14	-35.1	-35.6	24.7	0.00e+00	0	25	0	684720128	48	5944
2026-01-05 03:36:15.23	127.99	11.23	-35.2	-35.7	24.6	0.00e+00	0	25	0	692060160	48	6028
2026-01-05 03:36:16.24	127.94	11.32	-34.8	-35.3	24.9	0.00e+00	0	25	0	699400192	48	5745
2026-01-05 03:36:17.25	127.89	11.41	-35.0	-35.5	24.8	0.00e+00	0	25	0	706740224	48	5860
2026-01-05 03:36:18.26	127.83	11.50	-35.1	-35.6	24.7	0.00e+00	0	25	0	714080256	48	5923
2026-01-05 03:36:19.28	127.78	11.59	-34.8	-35.3	24.9	0.00e+00	0	25	0	721420288	48	5736
2026-01-05 03:36:20.29	127.73	11.68	-34.6	-35.2	25.0	0.00e+00	0	25	0	728760320	48	5653
2026-01-05 03:36:21.30	127.67	11.77	-34.8	-35.3	24.9	0.00e+00	0	25	0	736100352	48	5730
2026-01-05 03:36:22.31	127.62	11.86	-34.6	-35.2	25.0	0.00e+00	0	25	0	743440384	48	5650
2026-01-05 03:36:23.32	127.57	11.95	-34.8	-35.3	25.1	0.00e+00	0	25	0	750780416	48	5744
2026-01-05 03:36:24.33	127.51	12.04	-34.5	-35.1	25.1	0.00e+00	0	25	0	758120448	48	5577
2026-01-05 03:36:25.34	127.46	12.13	-34.7	-35.2	24.9	0.00e+00	0	24	0	765460480	48	5676
2026-01-05 03:36:26.35	127.40	12.23	-34.7	-35.2	25.1	0.00e+00	0	25	0	772800512	48	5695
2026-01-05 03:36:27.37	127.35	12.32	-34.7	-35.2	25.1	0.00e+00	0	25	0	780140544	48	5672
2026-01-05 03:36:28.37	127.29	12.41	-34.8	-35.3	24.9	0.00e+00	0	25	0	787480576	48	5728
2026-01-05 03:36:29.38	127.24	12.51	-34.5	-35.0	25.2	0.00e+00	0	25	0	794820608	48	5555
2026-01-05 03:36:30.40	127.18	12.60	-34.4	-34.9	25.4	0.00e+00	0	25	0	802160640	48	5460
2026-01-05 03:36:31.41	127.12	12.69	-34.4	-34.9	25.3	0.00e+00	0	25	0	809500672	48	5459
2026-01-05 03:36:32.42	127.06	12.79	-34.5	-35.0	25.2	0.00e+00	0	25	0	816840704	48	5556
2026-01-05 03:36:33.43	127.01	12.88	-34.5	-35.1	25.2	0.00e+00	0	25	0	824180736	48	5576
2026-01-05 03:36:34.44	126.95	12.98	-34.4	-34.9	25.3	0.00e+00	0	25	0	830472192	48	5476
2026-01-05 03:36:35.45	126.89	13.07	-34.6	-35.1	25.1	0.00e+00	0	25	0	837812224	48	5585
2026-01-05 03:36:36.46	126.83	13.17	-34.9	-35.5	24.8	0.00e+00	0	24	0	846200832	48	5830
2026-01-05 03:36:37.47	126.77	13.26	-34.4	-35.0	25.3	0.00e+00	0	24	0	852492288	48	5504
2026-01-05 03:36:38.48	126.71	13.36	-34.5	-35.0	25.3	0.00e+00	0	24	0	859832320	48	5532
2026-01-05 03:36:39.49	126.65	13.46	-34.8	-35.4	25.0	0.00e+00	0	25	0	867172352	48	5775
2026-01-05 03:36:40.51	126.59	13.56	-34.6	-35.1	25.3	0.00e+00	0	25	0	874512384	48	5594
2026-01-05 03:36:41.52	126.53	13.65	-34.4	-35.0	25.3	0.00e+00	0	24	0	881852416	48	5506
2026-01-05 03:36:42.53	126.47	13.75	-34.2	-34.7	25.4	0.00e+00	0	25	0	889192448	48	5356
2026-01-05 03:36:43.54	126.41	13.85	-34.8	-35.3	25.0	0.00e+00	0	25	0	896532480	48	5756
2026-01-05 03:36:44.55	126.35	13.95	-34.5	-35.0	25.4	0.00e+00	0	25	0	903872512	48	5518
2026-01-05 03:36:45.56	126.28	14.05	-36.2	-36.8	24.0	0.00e+00	0	25	0	911212544	50	6039
2026-01-05 03:36:46.57	126.22	14.15	-34.9	-35.4	25.4	0.00e+00	0	25	0	918552576	48	5775
2026-01-05 03:36:47.59	126.16	14.25	-35.0	-35.6	25.0	0.00e+00	0	25	0	925892608	48	5909
2026-01-05 03:36:48.60	126.09	14.35	-35.2	-35.8	24.1	0.00e+00	0	25	0	933232640	50	5380
2026-01-05 03:36:49.61	126.03	14.45	-34.9	-35.4	24.9	0.00e+00	0	25	0	940572672	48	5820
2026-01-05 03:36:50.62	125.96	14.55	-35.6	-36.1	24.9	0.00e+00	0	25	0	947912704	48	6307
2026-01-05 03:36:51.63	125.90	14.65	-35.1	-35.6	25.4	0.00e+00	0	25	0	955252736	48	5916
2026-01-05 03:36:52.64	125.83	14.75	-34.7	-35.3	25.1	0.00e+00	0	25	0	962592768	48	5699
2026-01-05 03:36:53.65	125.77	14.85	-36.0	-36.5	24.9	0.00e+00	0	25	0	969932800	50	5887
2026-01-05 03:36:54.66	125.70	14.95	-35.5	-36.0	24.8	0.00e+00	0	25	0	977272832	50	5548
2026-01-05 03:36:55.67	125.63	15.06	-35.0	-35.5	25.2	0.00e+00	0	25	0	984612864	48	5865
2026-01-05 03:36:56.69	125.56	15.16	-36.2	-36.7	24.2	0.00e+00	0	25	0	991952896	50	6031
2026-01-05 03:36:57.69	125.50	15.26	-34.6	-35.1	25.6	0.00e+00	0	25	0	999292928	48	5606
2026-01-05 03:36:58.70	125.43	15.37	-34.9	-35.4	25.2	0.00e+00	0	25	0	1005584384	48	5821
2026-01-05 03:36:59.72	125.36	15.47	-33.9	-34.4	26.0	0.00e+00	0	25	0	1013972992	46	5764
2026-01-05 03:37:00.73	125.29	15.58	-34.5	-35.0	25.2	0.00e+00	0	25	0	1021313024	46	6231
2026-01-05 03:37:01.74	125.22	15.68	-34.7	-35.2	25.4	0.00e+00	0	25	0	1027604480	48	5650
2026-01-05 03:37:02.75	125.15	15.79	-34.3	-34.8	25.7	0.00e+00	0	25	0	1034944512	48	5411
2026-01-05 03:37:03.76	125.08	15.89	-34.7	-35.2	25.3	0.00e+00	0	25	0	1043333120	46	6372
2026-01-05 03:37:04.77	125.00	16.00	-33.9	-34.4	25.9	0.00e+00	0	25	0	1049624576	46	5787
2026-01-05 03:37:05.78	124.93	16.11	-33.9	-34.3	26.1	0.00e+00	0	25	0	1056964608	46	5756
2026-01-05 03:37:06.79	124.86	16.21	-34.5	-35.0	25.1	0.00e+00	0	25	0	1064304640	46	6191
2026-01-05 03:37:07.81	124.78	16.32	-34.5	-35.0	25.1	0.00e+00	0	25	0	1071644672	46	6229
2026-01-05 03:37:08.82	124.71	16.43	-34.8	-35.3	25.2	0.00e+00	0	25	0	1078984704	48	5725
2026-01-05 03:37:09.83	124.64	16.54	-35.4	-35.9	24.6	0.00e+00	0	25	0	1086324736	48	6143
2026-01-05 03:37:10.84	124.56	16.65	-35.0	-35.6	24.9	0.00e+00	0	25	0	1093664768	48	5917
2026-01-05 03:37:11.85	124.49	16.76	-34.0	-34.5	25.9	0.00e+00	0	25	0	1101004800	48	5212
2026-01-05 03:37:12.86	124.41	16.87	-34.1	-34.6	25.6	0.00e+00	0	25	0	1108344832	46	5951
2026-01-05 03:37:13.87	124.33	16.98	-33.6	-34.1	26.3	0.00e+00	0	25	0	1115684864	46	5626
2026-01-05 03:37:14.88	124.25	17.09	-33.9	-34.4	26.0	0.00e+00	0	25	0	1123024896	46	5769
2026-01-05 03:37:15.89	124.18	17.20	-33.6	-34.1	26.2	0.00e+00	0	25	0	1130364928	46	5591
2026-01-05 03:37:16.90	124.10	17.31	-33.8	-34.3	26.1	0.00e+00	0	25	0	1137704960	46	5705
2026-01-05 03:37:17.91	124.02	17.42	-33.5	-34.0	26.4	0.00e+00	0	25	0	1145044992	46	5543
2026-01-05 03:37:18.93	123.94	17.54	-33.4	-33.8	26.4	0.00e+00	0	25	0	1152385024	46	5429
2026-01-05 03:37:19.94	123.86	17.65	-33.0	-33.5	26.7	0.00e+00	0	25	0	1159725056	44	5880
2026-01-05 03:37:20.95	123.78	17.76	-33.0	-33.5	26.7	0.00e+00	0	25	0	1167065088	44	5844
2026-01-05 03:37:21.96	123.70	17.88	-33.0	-33.5	26.7	0.00e+00	0	25	0	1174405120	44	5888
2026-01-05 03:37:22.97	123.61	17.99	-33.0	-33.4	26.9	0.00e+00	0	25	0	1181745152	44	5821
2026-01-05 03:37:23.98	123.53	18.11	-32.9	-33.4	26.8	0.00e+00	0	25	0	1189085184	44	5786
2026-01-05 03:37:24.99	123.45	18.22	-32.9	-33.4	26.8	0.00e+00	0	25	0	1195376640	44	5787
2026-01-05 03:37:26.01	123.36	18.34	-33.6	-34.1	26.2	0.00e+00	0	25	0	1202716672	44	6268
2026-01-05 03:37:27.02	123.28	18.45	-33.4	-33.8	26.4	0.00e+00	0	25	0	1211105280	46	5432
2026-01-05 03:37:28.03	123.19	18.57	-32.8	-33.3	26.9	0.00e+00	0	25	0	1217396736	44	5704
2026-01-05 03:37:29.04	123.11	18.69	-32.9	-33.4	26.7	0.00e+00	0	25	0	1224736768	44	5802
2026-01-05 03:37:30.05	123.02	18.81	-32.8	-33.4	26.8	0.00e+00	0	25	0	1232076800	44	5764
2026-01-05 03:37:31.06	122.93	18.92	-32.7	-33.2	26.8	0.00e+00	0	25	0	1239416832	44	5689
2026-01-05 03:37:32.07	122.84	19.04	-33.0	-33.5	26.9	0.00e+00	0	25	0	1246756864	44	5838
2026-01-05 03:37:33.08	122.75	19.16	-33.1	-33.6	26.8	0.00e+00	0	25	0	1254096896	44	5925
2026-01-05 03:37:34.09	122.66	19.28	-32.7	-33.2	26.7	0.00e+00	0	25	0	1261436928	44	5676
2026-01-05 03:37:35.10	122.57	19.40	-32.8	-33.3	26.9	0.00e+00	0	25	0	1268776960	44	5708
2026-01-05 03:37:36.12	122.48	19.52	-32.6	-33.1	26.9	0.00e+00	0	25	0	1276116992	44	5624
2026-01-05 03:37:37.13	122.39	19.64	-32.9	-33.4	26.8	0.00e+00	0	25	0	1283457024	44	5814
2026-01-05 03:37:38.14	122.30	19.77	-32.6	-33.1	27.1	0.00e+00	0	25	0	1290797056	44	5582
2026-01-05 03:37:39.15	122.20	19.89	-32.6	-33.1	27.0	0.00e+00	0	25	0	1298137088	44	5625
2026-01-05 03:37:40.16	122.11	20.01	-33.1	-33.6	26.7	0.00e+00	0	25	0	1305477120	44	5900
2026-01-05 03:37:41.17	122.01	20.13	-33.4	-33.9	26.3	0.00e+00	0	25	0	1312817152	44	6164
2026-01-05 03:37:42.18	121.92	20.26	-33.2	-33.7	26.4	0.00e+00	0	25	0	1320157184	44	5994
2026-01-05 03:37:43.19	121.82	20.38	-33.6	-34.1	26.5	0.00e+00	0	25	0	1327497216	44	6266
2026-01-05 03:37:44.20	121.72	20.51	-33.8	-34.3	26.4	0.00e+00	0	25	0	1334837248	46	5738
2026-01-05 03:37:45.22	121.62	20.63	-34.1	-34.6	26.0	0.00e+00	0	25	0	1342177280	46	5916
2026-01-05 03:37:46.23	121.52	20.76	-34.8	-35.3	25.8	0.00e+00	0	25	0	1349517312	46	6397
2026-01-05 03:37:47.24	121.42	20.89	-33.1	-33.6	26.4	0.00e+00	0	25	0	1356857344	44	5927
2026-01-05 03:37:48.25	121.32	21.01	-32.5	-33.0	27.0	0.00e+00	0	25	0	1364197376	44	5504
2026-01-05 03:37:49.26	121.22	21.14	-33.2	-33.7	26.7	0.00e+00	0	25	0	1371537408	44	5977
2026-01-05 03:37:50.27	121.12	21.27	-32.7	-33.2	27.2	0.00e+00	0	25	0	1378877440	44	5645
2026-01-05 03:37:51.28	121.02	21.40	-32.4	-32.9	27.3	0.00e+00	0	25	0	1386217472	44	5487
2026-01-05 03:37:52.29	120.91	21.53	-32.2	-32.7	27.4	0.00e+00	0	25	0	1392508928	42	6015
2026-01-05 03:37:53.30	120.81	21.65	-32.6	-33.1	27.2	0.00e+00	0	25	0	1399848960	42	6264
2026-01-05 03:37:54.31	120.70	21.79	-32.2	-32.7	27.2	0.00e+00	0	25	0	1408237568	42	5999
2026-01-05 03:37:55.33	120.59	21.92	-32.6	-33.1	27.1	0.00e+00	0	25	0	1414529024	42	6289
2026-01-05 03:37:56.34	120.48	22.05	-32.5	-33.0	27.5	0.00e+00	0	25	0	1421869056	44	5535
2026-01-05 03:37:57.35	120.38	22.18	-32.2	-32.7	27.5	0.00e+00	0	25	0	1429209088	44	5319
2026-01-05 03:37:58.36	120.27	22.31	-32.2	-32.6	27.5	0.00e+00	0	25	0	1436549120	44	5307
2026-01-05 03:37:59.37	120.16	22.45	-32.4	-32.9	27.2	0.00e+00	0	25	0	1443889152	42	6146
2026-01-05 03:38:00.38	120.04	22.58	-32.1	-32.6	27.2	0.00e+00	0	25	0	1451229184	42	5944
2026-01-05 03:38:01.39	119.93	22.71	-32.3	-32.8	27.5	0.00e+00	0	25	0	1458569216	42	6056
2026-01-05 03:38:02.40	119.82	22.85	-32.4	-32.9	27.4	0.00e+00	0	25	0	1465909248	42	6108
2026-01-05 03:38:03.41	119.70	22.98	-32.9	-33.4	26.8	0.00e+00	0	25	0	1473249280	42	6511
2026-01-05 03:38:04.42	119.59	23.12	-32.4	-32.9	27.3	0.00e+00	0	25	0	1480589312	44	5447
2026-01-05 03:38:05.43	119.47	23.26	-32.4	-32.9	27.3	0.00e+00	0	25	0	1487929344	44	5480
2026-01-05 03:38:06.44	119.35	23.39	-32.7	-33.2	27.1	0.00e+00	0	25	0	1495269376	44	5646
2026-01-05 03:38:07.45	119.23	23.53	-32.6	-33.1	27.2	0.00e+00	0	25	0	1502609408	44	5583
2026-01-05 03:38:08.46	119.11	23.67	-32.6	-33.1	27.2	0.00e+00	0	25	0	1509949440	44	5614
2026-01-05 03:38:09.48	118.99	23.81	-32.4	-32.8	27.3	0.00e+00	0	25	0	1517289472	44	5435
2026-01-05 03:38:10.49	118.87	23.95	-32.6	-33.0	27.3	0.00e+00	0	25	0	1524629504	44	5563
2026-01-05 03:38:11.50	118.74	24.09	-32.5	-32.9	27.3	0.00e+00	0	25	0	1531969536	44	5491
2026-01-05 03:38:12.51	118.62	24.23	-32.4	-32.9	27.3	0.00e+00	0	25	0	1539309568	44	5448
2026-01-05 03:38:13.52	118.49	24.37	-32.4	-32.9	27.2	0.00e+00	0	25	0	1546649600	44	5474
2026-01-05 03:38:14.53	118.37	24.51	-32.6	-33.1	27.1	0.00e+00	0	25	0	1553989632	44	5574
2026-01-05 03:38:15.54	118.24	24.66	-32.5	-33.0	27.1	0.00e+00	0	25	0	1560281088	44	5542
2026-01-05 03:38:16.55	118.11	24.80	-33.2	-33.7	26.5	0.00e+00	0	25	0	1567621120	44	5984
2026-01-05 03:38:17.56	117.98	24.94	-32.5	-33.0	27.3	0.00e+00	0	25	0	1576009728	44	5534
2026-01-05 03:38:18.58	117.85	25.09	-32.6	-33.1	27.2	0.00e+00	0	25	0	1582301184	44	5598
2026-01-05 03:38:19.59	117.71	25.23	-32.5	-33.0	27.3	0.00e+00	0	25	0	1589641216	44	5523
2026-01-05 03:38:20.60	117.58	25.38	-32.6	-33.1	27.2	0.00e+00	0	25	0	1596981248	44	5608
2026-01-05 03:38:21.61	117.44	25.53	-32.5	-33.0	27.2	0.00e+00	0	25	0	1604321280	44	5540
2026-01-05 03:38:22.62	117.31	25.67	-32.5	-33.0	27.2	0.00e+00	0	25	0	1611661312	44	5504
2026-01-05 03:38:23.63	117.17	25.82	-32.5	-33.0	27.2	0.00e+00	0	25	0	1619001344	44	5546
2026-01-05 03:38:24.64	117.03	25.97	-32.7	-33.2	27.0	0.00e+00	0	25	0	1626341376	44	5663
2026-01-05 03:38:25.65	116.89	26.12	-32.5	-33.0	27.2	0.00e+00	0	25	0	1633681408	44	5551
2026-01-05 03:38:26.66	116.75	26.27	-32.8	-33.3	27.3	0.00e+00	0	25	0	1641021440	44	5731
2026-01-05 03:38:27.67	116.60	26.42	-32.5	-33.0	27.0	0.00e+00	0	25	0	1648361472	44	5521
2026-01-05 03:38:28.69	116.46	26.57	-32.6	-33.1	27.2	0.00e+00	0	25	0	1655701504	44	5623
2026-01-05 03:38:29.70	116.31	26.72	-32.6	-33.1	27.2	0.00e+00	0	25	0	1663041536	44	5588
2026-01-05 03:38:30.71	116.16	26.87	-32.3	-32.8	27.6	0.00e+00	0	25	0	1670381568	44	5385
2026-01-05 03:38:31.72	116.02	27.03	-32.2	-32.7	27.6	0.00e+00	0	25	0	1677721600	42	6024
2026-01-05 03:38:32.73	115.86	27.18	-32.3	-32.7	27.7	0.00e+00	0	25	0	1685061632	42	6019
2026-01-05 03:38:33.74	115.71	27.33	-32.0	-32.5	27.7	0.00e+00	0	25	0	1692401664	42	5873
2026-01-05 03:38:34.75	115.56	27.49	-32.7	-33.1	27.5	0.00e+00	0	25	0	1699741696	44	5609
2026-01-05 03:38:35.76	115.40	27.64	-32.2	-32.6	27.9	0.00e+00	0	25	0	1707081728	44	5294
2026-01-05 03:38:36.77	115.25	27.80	-32.0	-32.4	28.2	0.00e+00	0	25	0	1714421760	42	5810
2026-01-05 03:38:37.78	115.09	27.96	-31.5	-32.0	28.0	0.00e+00	0	25	0	1721761792	42	5516
2026-01-05 03:38:38.79	114.93	28.11	-31.6	-32.0	28.1	0.00e+00	0	25	0	1729101824	42	5555
2026-01-05 03:38:39.81	114.77	28.27	-31.7	-32.1	28.1	0.00e+00	0	25	0	1735393280	42	5609
2026-01-05 03:38:40.82	114.60	28.43	-31.1	-31.6	28.4	0.00e+00	0	25	0	1743781888	42	5283
2026-01-05 03:38:41.83	114.44	28.59	-31.1	-31.6	28.4	0.00e+00	0	25	0	1751121920	40	5923
2026-01-05 03:38:42.84	114.27	28.75	-31.3	-31.7	28.2	0.00e+00	0	25	0	1757413376	40	6026
2026-01-05 03:38:43.85	114.11	28.91	-31.1	-31.5	28.3	0.00e+00	0	25	0	1764753408	40	5893
2026-01-05 03:38:44.86	113.94	29.07	-31.4	-31.8	28.1	0.00e+00	0	25	0	1773142016	40	6100
2026-01-05 03:38:45.87	113.76	29.23	-31.3	-31.8	28.1	0.00e+00	0	25	0	1779433472	40	6062
2026-01-05 03:38:46.88	113.59	29.39	-31.5	-32.0	28.1	0.00e+00	0	25	0	1786773504	40	6235
2026-01-05 03:38:47.89	113.42	29.56	-32.0	-32.5	27.6	0.00e+00	0	25	0	1794113536	40	6550
2026-01-05 03:38:48.91	113.24	29.72	-31.8	-32.3	27.9	0.00e+00	0	25	0	1801453568	42	5712
2026-01-05 03:38:49.92	113.06	29.89	-32.1	-32.5	27.9	0.00e+00	0	25	0	1808793600	42	5896
2026-01-05 03:38:50.93	112.88	30.05	-31.6	-32.0	28.0	0.00e+00	0	25	0	1816133632	42	5562
2026-01-05 03:38:51.94	112.70	30.22	-32.3	-32.8	27.5	0.00e+00	0	25	0	1823473664	42	6078
2026-01-05 03:38:52.95	112.51	30.38	-32.0	-32.4	27.8	0.00e+00	0	25	0	1830813696	42	5818
2026-01-05 03:38:53.96	112.33	30.55	-31.6	-32.0	27.9	0.00e+00	0	25	0	1838153728	42	5564
2026-01-05 03:38:54.97	112.14	30.72	-31.7	-32.2	27.9	0.00e+00	0	25	0	1845493760	42	5641
2026-01-05 03:38:55.98	111.95	30.88	-32.1	-32.6	27.8	0.00e+00	0	25	0	1852833792	42	5899
2026-01-05 03:38:56.99	111.76	31.05	-32.2	-32.7	27.6	0.00e+00	0	25	0	1860173824	42	5972
2026-01-05 03:38:58.00	111.56	31.22	-32.4	-32.8	27.4	0.00e+00	0	25	0	1867513856	42	6100
2026-01-05 03:38:59.02	111.36	31.39	-32.0	-32.4	27.7	0.00e+00	0	25	0	1874853888	42	5822
2026-01-05 03:39:00.03	111.17	31.56	-31.9	-32.4	27.8	0.00e+00	0	25	0	1882193920	42	5775
2026-01-05 03:39:01.04	110.97	31.74	-32.0	-32.5	27.7	0.00e+00	0	25	0	1889533952	42	5845
2026-01-05 03:39:02.05	110.76	31.91	-32.1	-32.6	27.5	0.00e+00	0	25	0	1896873984	42	5941
2026-01-05 03:39:03.06	110.56	32.08	-32.6	-33.1	27.4	0.00e+00	0	25	0	1904214016	42	6268
2026-01-05 03:39:04.07	110.35	32.25	-32.4	-32.9	27.6	0.00e+00	0	25	0	1911554048	42	6121
2026-01-05 03:39:05.08	110.14	32.42	-32.4	-32.9	27.6	0.00e+00	0	25	0	1918894080	44	5466
2026-01-05 03:39:06.09	109.93	32.60	-32.0	-32.4	27.9	0.00e+00	0	25	0	1926234112	42	5822
2026-01-05 03:39:07.10	109.72	32.77	-32.1	-32.6	27.8	0.00e+00	0	25	0	1932525568	42	5935
2026-01-05 03:39:08.12	109.50	32.95	-31.6	-32.1	27.9	0.00e+00	0	25	0	1940914176	42	5581
2026-01-05 03:39:09.13	109.28	33.12	-31.6	-32.1	28.0	0.00e+00	0	25	0	1948254208	42	5579
2026-01-05 03:39:10.14	109.06	33.30	-31.7	-32.1	28.1	0.00e+00	0	25	0	1954545664	42	5623
2026-01-05 03:39:11.15	108.84	33.48	-31.5	-32.0	28.2	0.00e+00	0	25	0	1961885696	42	5526
2026-01-05 03:39:12.16	108.61	33.65	-31.5	-32.0	28.1	0.00e+00	0	25	0	1970274304	42	5517
2026-01-05 03:39:13.17	108.38	33.83	-31.4	-31.9	28.2	0.00e+00	0	25	0	1976565760	40	6130
2026-01-05 03:39:14.18	108.15	34.01	-31.2	-31.6	28.3	0.00e+00	0	25	0	1983905792	40	5963
2026-01-05 03:39:15.19	107.92	34.19	-31.1	-31.6	28.4	0.00e+00	0	25	0	1991245824	40	5934
2026-01-05 03:39:16.20	107.68	34.37	-31.5	-32.0	28.2	0.00e+00	0	25	0	1998585856	40	6207
2026-01-05 03:39:17.21	107.44	34.55	-31.4	-31.9	28.3	0.00e+00	0	25	0	2005925888	40	6143
2026-01-05 03:39:18.23	107.20	34.73	-32.0	-32.5	27.8	0.00e+00	0	25	0	2013265920	42	5839
2026-01-05 03:39:19.24	106.96	34.91	-32.7	-33.2	27.0	0.00e+00	0	25	0	2020605952	42	6336
2026-01-05 03:39:20.25	106.71	35.09	-32.0	-32.4	27.6	0.00e+00	0	25	0	2027945984	42	5806
2026-01-05 03:39:21.26	106.46	35.27	-31.7	-32.1	27.6	0.00e+00	0	25	0	2035286016	42	5609
2026-01-05 03:39:22.27	106.21	35.45	-32.3	-32.7	27.0	0.00e+00	0	25	0	2042626048	42	6007
2026-01-05 03:39:23.28	105.95	35.63	-32.1	-32.5	27.7	0.00e+00	0	25	0	2049966080	42	5890
2026-01-05 03:39:24.29	105.69	35.81	-32.3	-32.8	26.6	0.00e+00	0	25	0	2057306112	42	6062
2026-01-05 03:39:25.30	105.43	36.00	-33.4	-33.9	26.3	0.00e+00	0	25	0	2064646144	46	5480
2026-01-05 03:39:26.31	105.17	36.18	-32.0	-32.4	27.6	0.00e+00	0	25	0	2071986176	42	5824
2026-01-05 03:39:27.33	104.90	36.37	-31.7	-32.1	28.1	0.00e+00	0	25	0	2079326208	42	5625
2026-01-05 03:39:28.34	104.63	36.55	-31.6	-32.0	28.0	0.00e+00	0	25	0	2086666240	42	5559
2026-01-05 03:39:29.35	104.36	36.73	-31.7	-32.2	27.9	0.00e+00	0	25	0	2094006272	42	5660
2026-01-05 03:39:30.36	104.08	36.92	-31.6	-32.1	27.9	0.00e+00	0	25	0	2101346304	42	5593
2026-01-05 03:39:31.37	103.80	37.10	-31.9	-32.3	28.1	0.00e+00	0	25	0	2108686336	42	5753
2026-01-05 03:39:32.38	103.52	37.29	-31.6	-32.1	28.0	0.00e+00	0	25	0	2116026368	42	5599
2026-01-05 03:39:33.39	103.23	37.47	-32.1	-32.6	28.0	0.00e+00	0	25	0	2122317824	42	5935
2026-01-05 03:39:34.40	102.94	37.66	-31.9	-32.4	27.9	0.00e+00	0	25	0	2129657856	42	5808
2026-01-05 03:39:35.41	102.65	37.84	-31.8	-32.2	28.1	0.00e+00	0	25	0	2138046464	42	5677
2026-01-05 03:39:36.43	102.35	38.03	-33.2	-33.7	27.6	0.00e+00	0	25	0	2144337920	44	5979
2026-01-05 03:39:37.44	102.05	38.21	-32.1	-32.6	27.4	0.00e+00	0	25	0	2151677952	44	5292
2026-01-05 03:39:38.45	101.75	38.40	-32.5	-33.0	27.2	0.00e+00	0	25	0	2159017984	42	6194
2026-01-05 03:39:39.46	101.44	38.59	-32.3	-32.7	27.2	0.00e+00	0	25	0	2166358016	44	5360
2026-01-05 03:39:40.47	101.13	38.77	-32.9	-33.4	27.5	0.00e+00	0	25	0	2173698048	42	6527
2026-01-05 03:39:41.48	100.82	38.96	-33.1	-33.6	27.1	0.00e+00	0	25	0	2181038080	44	5946
2026-01-05 03:39:42.49	100.50	39.14	-33.0	-33.5	26.8	0.00e+00	0	25	0	2188378112	44	5896
2026-01-05 03:39:43.50	100.18	39.33	-32.3	-32.8	27.8	0.00e+00	0	25	0	2195718144	42	6068
2026-01-05 03:39:44.51	99.86	39.52	-31.9	-32.4	27.8	0.00e+00	0	25	0	2203058176	42	5770
2026-01-05 03:39:45.52	99.53	39.70	-32.4	-32.9	27.3	0.00e+00	0	25	0	2210398208	42	6167
2026-01-05 03:39:46.54	99.19	39.89	-32.2	-32.7	27.6	0.00e+00	0	25	0	2217738240	42	5982
2026-01-05 03:39:47.55	98.86	40.07	-32.2	-32.7	27.5	0.00e+00	0	25	0	2225078272	42	6005
2026-01-05 03:39:48.56	98.52	40.26	-32.1	-32.5	27.7	0.00e+00	0	25	0	2232418304	42	5888
2026-01-05 03:39:49.57	98.17	40.45	-31.7	-32.2	27.7	0.00e+00	0	25	0	2239758336	42	5663
2026-01-05 03:39:50.58	97.83	40.63	-31.8	-32.2	28.0	0.00e+00	0	25	0	2247098368	42	5675
2026-01-05 03:39:51.59	97.47	40.81	-31.7	-32.1	27.9	0.00e+00	0	25	0	2254438400	42	5604
2026-01-05 03:39:52.60	97.12	41.00	-31.8	-32.3	27.8	0.00e+00	0	25	0	2261778432	42	5710
2026-01-05 03:39:53.61	96.76	41.18	-32.3	-32.8	27.8	0.00e+00	0	25	0	2269118464	42	6076
2026-01-05 03:39:54.63	96.39	41.37	-31.9	-32.4	27.7	0.00e+00	0	25	0	2276458496	42	5818
2026-01-05 03:39:55.64	96.02	41.55	-32.3	-32.8	27.6	0.00e+00	0	25	0	2283798528	42	6047
2026-01-05 03:39:56.65	95.65	41.73	-32.4	-32.9	27.6	0.00e+00	0	25	0	2291138560	42	6131
2026-01-05 03:39:57.66	95.27	41.92	-32.3	-32.8	27.6	0.00e+00	0	25	0	2298478592	42	6036
2026-01-05 03:39:58.67	94.89	42.10	-32.0	-32.5	27.6	0.00e+00	0	25	0	2305818624	42	5871
2026-01-05 03:39:59.68	94.51	42.28	-32.3	-32.7	27.6	0.00e+00	0	25	0	2313158656	42	6025
2026-01-05 03:40:00.69	94.12	42.46	-31.7	-32.2	27.9	0.00e+00	0	25	0	2319450112	42	5661
2026-01-05 03:40:01.70	93.72	42.64	-31.7	-32.2	27.8	0.00e+00	0	25	0	2326790144	42	5663
2026-01-05 03:40:02.71	93.33	42.82	-31.5	-32.0	28.1	0.00e+00	0	25	0	2335178752	42	5544
2026-01-05 03:40:03.72	92.92	43.00	-31.7	-32.2	28.1	0.00e+00	0	25	0	2341470208	42	5659
2026-01-05 03:40:04.74	92.51	43.18	-31.5	-32.0	28.2	0.00e+00	0	25	0	2348810240	42	5515
2026-01-05 03:40:05.74	92.10	43.35	-31.5	-32.0	28.2	0.00e+00	0	25	0	2356150272	42	5539
2026-01-05 03:40:06.76	91.68	43.53	-31.5	-31.9	28.1	0.00e+00	0	25	0	2363490304	42	5491
2026-01-05 03:40:07.77	91.26	43.71	-31.7	-32.2	27.9	0.00e+00	0	25	0	2370830336	42	5635
2026-01-05 03:40:08.78	90.84	43.88	-31.8	-32.3	27.9	0.00e+00	0	25	0	2378170368	42	5713
2026-01-05 03:40:09.79	90.40	44.05	-31.7	-32.2	27.9	0.00e+00	0	25	0	2385510400	42	5636
2026-01-05 03:40:10.80	89.97	44.23	-31.9	-32.3	27.8	0.00e+00	0	25	0	2392850432	42	5736
2026-01-05 03:40:11.81	89.53	44.40	-32.0	-32.4	27.7	0.00e+00	0	25	0	2400190464	42	5822
2026-01-05 03:40:12.82	89.08	44.57	-31.7	-32.1	27.9	0.00e+00	0	25	0	2407530496	42	5626
2026-01-05 03:40:13.83	88.63	44.74	-31.8	-32.2	27.8	0.00e+00	0	25	0	2414870528	42	5691
2026-01-05 03:40:14.84	88.18	44.90	-32.2	-32.7	27.4	0.00e+00	0	25	0	2422210560	42	6012
2026-01-05 03:40:15.86	87.72	45.07	-32.1	-32.5	27.6	0.00e+00	0	25	0	2429550592	42	5886
2026-01-05 03:40:16.87	87.25	45.23	-31.8	-32.2	27.9	0.00e+00	0	25	0	2436890624	42	5687
2026-01-05 03:40:17.88	86.78	45.40	-31.6	-32.1	28.0	0.00e+00	0	25	0	2444230656	42	5605
2026-01-05 03:40:18.89	86.31	45.56	-31.4	-31.9	28.1	0.00e+00	0	25	0	2451570688	42	5479
2026-01-05 03:40:19.90	85.83	45.72	-31.5	-32.0	27.9	0.00e+00	0	25	0	2458910720	42	5512
2026-01-05 03:40:20.91	85.35	45.88	-31.6	-32.0	28.0	0.00e+00	0	25	0	2466250752	42	5535
2026-01-05 03:40:21.92	84.86	46.03	-32.0	-32.4	27.8	0.00e+00	0	25	0	2473590784	42	5819
2026-01-05 03:40:22.93	84.37	46.19	-32.2	-32.7	27.4	0.00e+00	0	25	0	2480930816	42	6003
2026-01-05 03:40:23.94	83.87	46.34	-32.4	-32.9	27.4	0.00e+00	0	25	0	2487222272	42	6115
2026-01-05 03:40:24.95	83.37	46.49	-32.0	-32.5	27.6	0.00e+00	0	25	0	2494562304	42	5863
2026-01-05 03:40:25.97	82.85	46.64	-32.2	-32.7	27.4	0.00e+00	0	25	0	2502950912	42	5996
2026-01-05 03:40:26.98	82.34	46.79	-31.9	-32.4	27.7	0.00e+00	0	25	0	2509242368	42	5775
2026-01-05 03:40:27.99	81.82	46.94	-32.0	-32.5	27.7	0.00e+00	0	25	0	2516582400	42	5829
2026-01-05 03:40:29.00	81.30	47.08	-32.5	-33.0	27.5	0.00e+00	0	25	0	2523922432	42	6179
2026-01-05 03:40:30.01	80.77	47.22	-32.3	-32.7	27.5	0.00e+00	0	25	0	2531262464	42	6021
2026-01-05 03:40:31.02	80.24	47.36	-32.5	-33.0	27.3	0.00e+00	0	25	0	2538602496	44	5505
2026-01-05 03:40:32.03	79.70	47.50	-33.1	-33.6	27.4	0.00e+00	0	25	0	2545942528	44	5947
2026-01-05 03:40:33.04	79.16	47.63	-32.9	-33.5	27.3	0.00e+00	0	25	0	2553282560	44	5831
2026-01-05 03:40:34.05	78.62	47.76	-33.1	-33.6	27.2	0.00e+00	0	25	0	2560622592	44	5960
2026-01-05 03:40:35.07	78.06	47.89	-32.6	-33.0	27.4	0.00e+00	0	25	0	2567962624	44	5565
2026-01-05 03:40:36.08	77.51	48.02	-32.7	-33.1	27.3	0.00e+00	0	25	0	2575302656	44	5619
2026-01-05 03:40:37.09	76.95	48.15	-32.7	-33.2	27.4	0.00e+00	0	25	0	2582642688	44	5651
2026-01-05 03:40:38.10	76.38	48.27	-33.4	-33.9	27.1	0.00e+00	0	25	0	2589982720	44	6115
2026-01-05 03:40:39.11	75.81	48.39	-33.4	-33.9	27.2	0.00e+00	0	25	0	2597322752	44	6149
2026-01-05 03:40:40.12	75.24	48.50	-33.1	-33.6	27.0	0.00e+00	0	25	0	2604662784	44	5948
2026-01-05 03:40:41.13	74.66	48.62	-34.1	-34.6	26.9	0.00e+00	0	25	0	2612002816	46	5903
2026-01-05 03:40:42.14	74.08	48.73	-33.1	-33.6	26.8	0.00e+00	0	25	0	2619342848	44	5915
2026-01-05 03:40:43.16	73.49	48.83	-33.2	-33.7	27.2	0.00e+00	0	25	0	2626682880	44	5978
2026-01-05 03:40:44.17	72.90	48.94	-33.2	-33.7	27.0	0.00e+00	0	25	0	2634022912	44	6003
2026-01-05 03:40:45.18	72.31	49.04	-32.8	-33.3	26.0	0.00e+00	0	25	0	2641362944	44	5743
2026-01-05 03:40:46.19	71.71	49.14	-34.0	-34.5	26.4	0.00e+00	0	25	0	2648702976	44	6564
2026-01-05 03:40:47.20	71.11	49.23	-32.7	-33.2	26.9	0.00e+00	0	25	0	2656043008	44	5655
2026-01-05 03:40:48.21	70.50	49.33	-34.4	-34.9	26.8	0.00e+00	0	25	0	2662334464	44	6921
2026-01-05 03:40:49.22	69.89	49.41	-34.0	-34.5	26.5	0.00e+00	0	25	0	2670723072	46	5858
2026-01-05 03:40:50.23	69.28	49.50	-33.9	-34.4	25.9	0.00e+00	0	25	0	2678063104	46	5802
2026-01-05 03:40:51.24	68.67	49.58	-33.5	-34.0	27.0	0.00e+00	0	25	0	2684354560	44	6211
2026-01-05 03:40:52.25	68.05	49.66	-32.7	-33.1	27.2	0.00e+00	0	25	0	2691694592	44	5622
2026-01-05 03:40:53.26	67.43	49.74	-32.6	-33.1	27.3	0.00e+00	0	25	0	2700083200	44	5612
2026-01-05 03:40:54.27	66.80	49.81	-32.4	-32.9	27.2	0.00e+00	0	25	0	2706374656	44	5446
2026-01-05 03:40:55.28	66.17	49.88	-33.0	-33.4	26.9	0.00e+00	0	25	0	2713714688	44	5825
2026-01-05 03:40:56.30	65.54	49.94	-33.1	-33.6	26.6	0.00e+00	0	25	0	2721054720	44	5925
2026-01-05 03:40:57.31	64.90	50.00	-33.1	-33.6	26.6	0.00e+00	0	25	0	2728394752	44	5938
2026-01-05 03:40:58.32	64.27	50.06	-33.1	-33.6	26.8	0.00e+00	0	25	0	2735734784	44	5907
2026-01-05 03:40:59.33	63.63	50.11	-33.0	-33.5	27.2	0.00e+00	0	25	0	2743074816	44	5835
2026-01-05 03:41:00.34	62.99	50.16	-32.7	-33.2	27.2	0.00e+00	0	25	0	2750414848	44	5659
2026-01-05 03:41:01.35	62.35	50.21	-32.6	-33.1	27.1	0.00e+00	0	25	0	2757754880	44	5606
2026-01-05 03:41:02.36	61.70	50.25	-32.5	-33.0	27.3	0.00e+00	0	25	0	2765094912	44	5536
2026-01-05 03:41:03.37	61.06	50.29	-32.6	-33.1	27.3	0.00e+00	0	25	0	2772434944	44	5596
2026-01-05 03:41:04.38	60.41	50.32	-33.0	-33.5	26.5	0.00e+00	0	25	0	2779774976	44	5875
2026-01-05 03:41:05.39	59.76	50.35	-33.1	-33.6	27.0	0.00e+00	0	25	0	2787115008	44	5908
2026-01-05 03:41:06.40	59.11	50.38	-32.3	-32.8	27.4	0.00e+00	0	25	0	2794455040	44	5405
2026-01-05 03:41:07.42	58.46	50.40	-32.8	-33.3	27.0	0.00e+00	0	25	0	2801795072	44	5735
2026-01-05 03:41:08.43	57.80	50.42	-32.9	-33.4	27.2	0.00e+00	0	25	0	2809135104	44	5792
2026-01-05 03:41:09.44	57.15	50.44	-33.1	-33.6	26.8	0.00e+00	0	25	0	2816475136	44	5959
2026-01-05 03:41:10.45	56.50	50.45	-33.0	-33.5	26.9	0.00e+00	0	25	0	2823815168	44	5874
2026-01-05 03:41:11.46	55.85	50.45	-33.5	-34.0	26.5	0.00e+00	0	25	0	2831155200	44	6224
2026-01-05 03:41:12.47	55.19	50.46	-33.2	-33.7	27.0	0.00e+00	0	25	0	2838495232	44	5997
2026-01-05 03:41:13.48	54.54	50.46	-32.8	-33.2	27.4	0.00e+00	0	25	0	2845835264	44	5683
2026-01-05 03:41:14.49	53.89	50.45	-32.7	-33.2	27.4	0.00e+00	0	25	0	2852126720	44	5639
2026-01-05 03:41:15.50	53.23	50.44	-32.6	-33.1	27.4	0.00e+00	0	25	0	2859466752	44	5601
2026-01-05 03:41:16.51	52.58	50.43	-33.1	-33.5	26.6	0.00e+00	0	25	0	2867855360	44	5895
2026-01-05 03:41:17.53	51.92	50.41	-33.4	-33.9	26.8	0.00e+00	0	25	0	2874146816	46	5486
2026-01-05 03:41:18.54	51.27	50.39	-33.4	-33.9	26.8	0.00e+00	0	25	0	2881486848	44	6149
2026-01-05 03:41:19.55	50.62	50.37	-32.7	-33.2	27.3	0.00e+00	0	25	0	2888826880	44	5633
2026-01-05 03:41:20.56	49.97	50.34	-32.5	-33.0	27.5	0.00e+00	0	25	0	2896166912	44	5506
2026-01-05 03:41:21.57	49.32	50.31	-32.9	-33.4	27.0	0.00e+00	0	25	0	2903506944	44	5776
2026-01-05 03:41:22.58	48.68	50.27	-33.3	-33.8	26.8	0.00e+00	0	25	0	2910846976	44	6056
2026-01-05 03:41:23.59	48.03	50.23	-32.6	-33.0	27.3	0.00e+00	0	25	0	2918187008	44	5552
2026-01-05 03:41:24.60	47.39	50.19	-33.1	-33.6	26.9	0.00e+00	0	25	0	2925527040	44	5909
2026-01-05 03:41:25.61	46.75	50.14	-32.6	-33.1	27.3	0.00e+00	0	25	0	2932867072	44	5585
2026-01-05 03:41:26.63	46.10	50.09	-32.5	-33.0	27.3	0.00e+00	0	25	0	2940207104	44	5515
2026-01-05 03:41:27.64	45.47	50.03	-32.7	-33.1	26.8	0.00e+00	0	25	0	2947547136	44	5628
2026-01-05 03:41:28.65	44.83	49.97	-32.6	-33.0	27.0	0.00e+00	0	25	0	2954887168	44	5556
2026-01-05 03:41:29.66	44.20	49.91	-32.6	-33.0	27.2	0.00e+00	0	25	0	2962227200	44	5555
2026-01-05 03:41:30.67	43.57	49.84	-32.4	-32.9	27.2	0.00e+00	0	25	0	2969567232	44	5485
2026-01-05 03:41:31.68	42.95	49.77	-33.0	-33.5	27.1	0.00e+00	0	25	0	2976907264	44	5878
2026-01-05 03:41:32.69	42.32	49.70	-32.4	-32.9	27.0	0.00e+00	0	25	0	2984247296	44	5462
2026-01-05 03:41:33.70	41.70	49.63	-32.5	-33.0	27.3	0.00e+00	0	25	0	2991587328	44	5539
2026-01-05 03:41:34.71	41.09	49.55	-32.6	-33.1	27.1	0.00e+00	0	25	0	2998927360	44	5613
2026-01-05 03:41:35.72	40.47	49.46	-33.0	-33.5	26.9	0.00e+00	0	25	0	3006267392	44	5876
2026-01-05 03:41:36.74	39.86	49.37	-33.2	-33.7	26.8	0.00e+00	0	25	0	3013607424	44	6031
2026-01-05 03:41:37.75	39.25	49.28	-33.2	-33.7	26.7	0.00e+00	0	25	0	3020947456	44	5991
2026-01-05 03:41:38.76	38.65	49.19	-32.9	-33.4	26.9	0.00e+00	0	25	0	3028287488	44	5775
2026-01-05 03:41:39.77	38.05	49.09	-33.4	-33.8	26.7	0.00e+00	0	25	0	3035627520	44	6098
2026-01-05 03:41:40.78	37.46	48.99	-32.8	-33.2	27.1	0.00e+00	0	25	0	3042967552	44	5695
2026-01-05 03:41:41.79	36.86	48.89	-32.7	-33.2	27.1	0.00e+00	0	25	0	3049259008	44	5651
2026-01-05 03:41:42.80	36.28	48.79	-33.3	-33.8	27.3	0.00e+00	0	25	0	3056599040	44	6066
2026-01-05 03:41:43.81	35.69	48.68	-32.6	-33.0	27.4	0.00e+00	0	25	0	3064987648	44	5564
2026-01-05 03:41:44.83	35.11	48.56	-32.1	-32.6	27.5	0.00e+00	0	25	0	3071279104	44	5268
2026-01-05 03:41:45.84	34.54	48.45	-32.2	-32.7	27.6	0.00e+00	0	25	0	3078619136	44	5316
2026-01-05 03:41:46.85	33.97	48.33	-32.6	-33.0	27.5	0.00e+00	0	25	0	3085959168	42	6236
2026-01-05 03:41:47.86	33.40	48.21	-32.7	-33.2	27.2	0.00e+00	0	25	0	3093299200	44	5649
2026-01-05 03:41:48.87	32.84	48.09	-32.7	-33.2	27.0	0.00e+00	0	25	0	3100639232	44	5650
2026-01-05 03:41:49.88	32.28	47.96	-33.0	-33.5	26.6	0.00e+00	0	25	0	3107979264	44	5873
2026-01-05 03:41:50.89	31.73	47.84	-33.7	-34.2	26.9	0.00e+00	0	25	0	3115319296	44	6336
2026-01-05 03:41:51.90	31.18	47.71	-32.6	-33.1	27.1	0.00e+00	0	25	0	3122659328	44	5572
2026-01-05 03:41:52.91	30.64	47.57	-32.1	-32.6	27.6	0.00e+00	0	25	0	3129999360	42	5931
2026-01-05 03:41:53.92	30.10	47.44	-32.5	-33.0	27.6	0.00e+00	0	25	0	3137339392	42	6178
2026-01-05 03:41:54.93	29.57	47.30	-32.3	-32.8	27.8	0.00e+00	0	25	0	3144679424	42	6046
2026-01-05 03:41:55.94	29.04	47.16	-32.4	-32.8	27.6	0.00e+00	0	25	0	3152019456	42	6081
2026-01-05 03:41:56.96	28.51	47.02	-32.3	-32.7	27.3	0.00e+00	0	25	0	3159359488	42	6010
2026-01-05 03:41:57.97	27.99	46.87	-32.4	-32.8	27.6	0.00e+00	0	25	0	3166699520	42	6103
2026-01-05 03:41:58.98	27.47	46.73	-32.2	-32.7	27.6	0.00e+00	0	25	0	3174039552	42	5967
2026-01-05 03:41:59.99	26.96	46.58	-32.1	-32.6	27.7	0.00e+00	0	25	0	3181379584	42	5936
2026-01-05 03:42:01.00	26.46	46.43	-32.7	-33.2	27.3	0.00e+00	0	25	0	3188719616	42	6332
2026-01-05 03:42:02.01	25.96	46.28	-32.5	-32.9	27.4	0.00e+00	0	25	0	3196059648	42	6155
2026-01-05 03:42:03.02	25.47	46.12	-32.3	-32.8	27.3	0.00e+00	0	25	0	3203399680	42	6066
2026-01-05 03:42:04.03	24.98	45.97	-32.6	-33.0	27.4	0.00e+00	0	25	0	3210739712	42	6235
2026-01-05 03:42:05.05	24.49	45.81	-32.3	-32.7	27.6	0.00e+00	0	25	0	3217031168	42	6023
2026-01-05 03:42:06.06	24.00	45.65	-31.6	-32.1	28.0	0.00e+00	0	25	0	3224371200	42	5572
2026-01-05 03:42:07.07	23.53	45.49	-31.5	-32.0	28.1	0.00e+00	0	25	0	3232759808	42	5532
2026-01-05 03:42:08.08	23.06	45.33	-31.5	-31.9	28.2	0.00e+00	0	25	0	3239051264	42	5488
2026-01-05 03:42:09.09	22.59	45.17	-31.5	-32.0	28.0	0.00e+00	0	25	0	3246391296	42	5521
2026-01-05 03:42:10.10	22.13	45.00	-31.9	-32.4	28.0	0.00e+00	0	25	0	3253731328	42	5765
2026-01-05 03:42:11.11	21.68	44.83	-32.2	-32.7	27.5	0.00e+00	0	25	0	3261071360	42	5994
2026-01-05 03:42:12.12	21.22	44.67	-32.5	-33.0	27.8	0.00e+00	0	25	0	3268411392	42	6209
2026-01-05 03:42:13.13	20.78	44.50	-33.1	-33.5	27.0	0.00e+00	0	25	0	3275751424	44	5883
2026-01-05 03:42:14.14	20.34	44.33	-34.8	-35.2	27.0	0.00e+00	0	25	0	3283091456	46	6369
2026-01-05 03:42:15.16	19.90	44.16	-33.1	-33.7	26.6	0.00e+00	0	25	0	3290431488	46	5338
2026-01-05 03:42:16.17	19.46	43.98	-33.3	-33.8	27.0	0.00e+00	0	25	0	3297771520	42	6833
2026-01-05 03:42:17.18	19.04	43.81	-32.2	-32.7	27.5	0.00e+00	0	25	0	3305111552	44	5327
2026-01-05 03:42:18.19	18.61	43.64	-31.9	-32.4	27.8	0.00e+00	0	25	0	3312451584	42	5770
2026-01-05 03:42:19.20	18.19	43.46	-32.1	-32.5	27.9	0.00e+00	0	25	0	3319791616	42	5880
2026-01-05 03:42:20.21	17.78	43.29	-32.2	-32.7	27.7	0.00e+00	0	25	0	3327131648	42	5975
2026-01-05 03:42:21.22	17.37	43.11	-31.6	-32.1	27.6	0.00e+00	0	25	0	3334471680	42	5610
2026-01-05 03:42:22.23	16.97	42.93	-32.2	-32.6	28.0	0.00e+00	0	25	0	3341811712	42	5960
2026-01-05 03:42:23.24	16.57	42.75	-31.5	-32.0	28.1	0.00e+00	0	25	0	3349151744	42	5512
2026-01-05 03:42:24.25	16.17	42.57	-31.4	-31.9	28.2	0.00e+00	0	25	0	3356491776	42	5457
2026-01-05 03:42:25.26	15.78	42.39	-31.3	-31.8	28.1	0.00e+00	0	25	0	3363831808	42	5419
2026-01-05 03:42:26.28	15.39	42.21	-31.2	-31.7	28.3	0.00e+00	0	25	0	3371171840	42	5347
2026-01-05 03:42:27.29	15.01	42.03	-31.5	-31.9	28.2	0.00e+00	0	25	0	3378511872	42	5482
2026-01-05 03:42:28.30	14.63	41.85	-31.4	-31.8	28.1	0.00e+00	0	25	0	3385851904	42	5436
2026-01-05 03:42:29.31	14.26	41.67	-31.5	-32.0	28.0	0.00e+00	0	25	0	3393191936	42	5532
2026-01-05 03:42:30.32	13.89	41.48	-31.7	-32.1	27.9	0.00e+00	0	25	0	3400531968	42	5622
2026-01-05 03:42:31.33	13.52	41.30	-31.8	-32.3	27.8	0.00e+00	0	25	0	3407872000	42	5724
2026-01-05 03:42:32.34	13.16	41.12	-31.8	-32.2	27.9	0.00e+00	0	25	0	3414163456	42	5684
2026-01-05 03:42:33.35	12.80	40.93	-31.6	-32.1	28.0	0.00e+00	0	25	0	3421503488	42	5604
2026-01-05 03:42:34.36	12.45	40.75	-31.7	-32.2	27.9	0.00e+00	0	25	0	3429892096	42	5639
2026-01-05 03:42:35.38	12.10	40.56	-31.5	-31.9	27.9	0.00e+00	0	25	0	3436183552	42	5488
2026-01-05 03:42:36.39	11.75	40.38	-31.2	-31.7	28.2	0.00e+00	0	25	0	3443523584	42	5334
2026-01-05 03:42:37.40	11.41	40.20	-31.2	-31.6	28.0	0.00e+00	0	25	0	3450863616	42	5309
2026-01-05 03:42:38.41	11.07	40.01	-31.7	-32.1	28.0	0.00e+00	0	25	0	3458203648	42	5615
2026-01-05 03:42:39.42	10.74	39.83	-31.8	-32.2	27.9	0.00e+00	0	25	0	3465543680	42	5691
2026-01-05 03:42:40.43	10.41	39.64	-31.4	-31.9	28.1	0.00e+00	0	25	0	3472883712	42	5443
2026-01-05 03:42:41.44	10.09	39.46	-31.3	-31.7	28.2	0.00e+00	0	25	0	3480223744	42	5372
2026-01-05 03:42:42.45	9.76	39.27	-31.3	-31.8	28.2	0.00e+00	0	25	0	3487563776	42	5383
2026-01-05 03:42:43.46	9.45	39.09	-31.4	-31.9	28.2	0.00e+00	0	25	0	3494903808	42	5451
2026-01-05 03:42:44.48	9.13	38.90	-31.2	-31.7	28.3	0.00e+00	0	25	0	3502243840	42	5328
2026-01-05 03:42:45.49	8.82	38.71	-31.4	-31.8	28.1	0.00e+00	0	25	0	3509583872	42	5436
2026-01-05 03:42:46.50	8.51	38.53	-31.4	-31.9	28.1	0.00e+00	0	25	0	3516923904	42	5468
2026-01-05 03:42:47.51	8.21	38.34	-31.7	-32.1	27.9	0.00e+00	0	25	0	3524263936	42	5629
2026-01-05 03:42:48.52	7.90	38.16	-31.6	-32.0	28.1	0.00e+00	0	25	0	3531603968	42	5552
2026-01-05 03:42:49.53	7.61	37.97	-31.7	-32.2	27.9	0.00e+00	0	25	0	3538944000	42	5631
2026-01-05 03:42:50.54	7.31	37.79	-32.0	-32.5	27.7	0.00e+00	0	25	0	3546284032	42	5869
2026-01-05 03:42:51.55	7.02	37.60	-32.1	-32.6	27.0	0.00e+00	0	25	0	3553624064	42	5947
2026-01-05 03:42:52.56	6.74	37.42	-31.7	-32.1	25.4	0.00e+00	0	25	0	3560964096	42	5606
2026-01-05 03:42:53.57	6.45	37.23	-31.5	-32.0	28.1	0.00e+00	0	25	0	3568304128	42	5528
2026-01-05 03:42:54.58	6.17	37.05	-31.5	-32.0	28.2	0.00e+00	0	25	0	3575644160	42	5544
2026-01-05 03:42:55.59	5.90	36.87	-31.3	-31.8	28.2	0.00e+00	0	25	0	3581935616	42	5409
2026-01-05 03:42:56.61	5.62	36.68	-31.5	-32.0	28.2	0.00e+00	0	25	0	3589275648	42	5531
2026-01-05 03:42:57.62	5.35	36.50	-31.4	-31.9	27.8	0.00e+00	0	25	0	3597664256	42	5482
2026-01-05 03:42:58.63	5.08	36.32	-31.9	-32.3	27.9	0.00e+00	0	25	0	3603955712	42	5746
2026-01-05 03:42:59.64	4.81	36.13	-31.5	-32.0	28.1	0.00e+00	0	25	0	3611295744	42	5531
2026-01-05 03:43:00.65	4.55	35.95	-31.2	-31.6	28.0	0.00e+00	0	25	0	3618635776	42	5306
2026-01-05 03:43:01.66	4.29	35.77	-31.9	-32.4	27.8	0.00e+00	0	25	0	3625975808	42	5810
2026-01-05 03:43:02.67	4.04	35.59	-31.5	-31.9	28.2	0.00e+00	0	25	0	3633315840	42	5480
2026-01-05 03:43:03.68	3.78	35.41	-32.3	-32.8	27.6	0.00e+00	0	25	0	3640655872	42	6066
2026-01-05 03:43:04.69	3.53	35.23	-32.1	-32.6	27.7	0.00e+00	0	25	0	3647995904	42	5903
2026-01-05 03:43:05.70	3.29	35.04	-31.7	-32.2	27.9	0.00e+00	0	25	0	3655335936	42	5668
2026-01-05 03:43:06.71	3.04	34.87	-31.6	-32.1	28.0	0.00e+00	0	25	0	3662675968	42	5611
2026-01-05 03:43:07.73	2.80	34.68	-31.4	-31.8	28.3	0.00e+00	0	25	0	3670016000	42	5438
2026-01-05 03:43:08.74	2.56	34.50	-31.1	-31.6	28.3	0.00e+00	0	25	0	3677356032	40	5921
2026-01-05 03:43:09.75	2.32	34.33	-31.2	-31.7	28.4	0.00e+00	0	25	0	3684696064	40	5969
2026-01-05 03:43:10.76	2.09	34.15	-31.3	-31.7	28.4	0.00e+00	0	25	0	3692036096	40	5994
2026-01-05 03:43:11.77	1.86	33.97	-31.1	-31.5	28.3	0.00e+00	0	25	0	3699376128	40	5880
2026-01-05 03:43:12.78	1.63	33.79	-31.1	-31.6	27.9	0.00e+00	0	25	0	3706716160	40	5936
2026-01-05 03:43:13.79	1.40	33.62	-31.3	-31.8	27.8	0.00e+00	0	25	0	3714056192	40	6083
2026-01-05 03:43:14.80	1.18	33.44	-31.6	-32.0	28.0	0.00e+00	0	25	0	3721396224	40	6241
2026-01-05 03:43:15.81	0.95	33.27	-31.1	-31.5	28.3	0.00e+00	0	25	0	3728736256	40	5887
2026-01-05 03:43:16.83	0.73	33.09	-31.4	-31.9	28.1	0.00e+00	0	25	0	3736076288	40	6142
2026-01-05 03:43:17.84	0.52	32.91	-31.3	-31.7	28.2	0.00e+00	0	25	0	3743416320	40	6023
2026-01-05 03:43:18.85	0.30	32.74	-31.3	-31.7	28.2	0.00e+00	0	25	0	3750756352	40	6013
2026-01-05 03:43:19.86	0.09	32.57	-31.4	-31.8	28.1	0.00e+00	0	25	0	3758096384	40	6087
2026-01-05 03:43:20.87	359.88	32.39	-31.4	-31.8	28.1	0.00e+00	0	25	0	3765436416	42	5415
2026-01-05 03:43:21.88	359.67	32.22	-31.3	-31.8	28.2	0.00e+00	0	25	0	3771727872	42	5403
2026-01-05 03:43:22.89	359.47	32.05	-31.1	-31.6	28.2	0.00e+00	0	25	0	3779067904	42	5278
2026-01-05 03:43:23.90	359.26	31.88	-31.3	-31.8	28.2	0.00e+00	0	25	0	3786407936	42	5381
2026-01-05 03:43:24.91	359.06	31.71	-31.3	-31.8	28.2	0.00e+00	0	25	0	3793747968	42	5416
2026-01-05 03:43:25.92	358.86	31.54	-31.3	-31.8	28.0	0.00e+00	0	25	0	3801088000	42	5403
2026-01-05 03:43:26.93	358.67	31.37	-31.3	-31.8	28.1	0.00e+00	0	25	0	3808428032	42	5406
2026-01-05 03:43:27.94	358.47	31.20	-31.2	-31.7	28.2	0.00e+00	0	25	0	3815768064	42	5334
2026-01-05 03:43:28.95	358.28	31.03	-31.5	-31.9	27.7	0.00e+00	0	25	0	3823108096	42	5484
2026-01-05 03:43:29.96	358.09	30.86	-31.5	-31.9	27.8	0.00e+00	0	25	0	3830448128	42	5502
2026-01-05 03:43:30.98	357.90	30.69	-31.9	-32.4	27.4	0.00e+00	0	25	0	3837788160	42	5762
2026-01-05 03:43:31.99	357.71	30.53	-32.4	-32.8	27.4	0.00e+00	0	25	0	3845128192	42	6092
2026-01-05 03:43:33.00	357.53	30.36	-31.3	-31.7	27.7	0.00e+00	0	25	0	3852468224	42	5363
2026-01-05 03:43:34.01	357.35	30.20	-31.1	-31.5	28.1	0.00e+00	0	25	0	3859808256	42	5247
2026-01-05 03:43:35.02	357.16	30.03	-31.2	-31.6	28.0	0.00e+00	0	25	0	3867148288	42	5297
2026-01-05 03:43:36.03	356.99	29.87	-31.2	-31.7	27.7	0.00e+00	0	25	0	3874488320	42	5327
2026-01-05 03:43:37.04	356.81	29.71	-31.6	-32.0	27.2	0.00e+00	0	25	0	3881828352	42	5545
2026-01-05 03:43:38.05	356.63	29.54	-31.3	-31.8	27.9	0.00e+00	0	25	0	3889168384	42	5401
2026-01-05 03:43:39.06	356.46	29.38	-32.2	-32.7	27.4	0.00e+00	0	25	0	3896508416	42	5971
2026-01-05 03:43:40.07	356.29	29.22	-31.6	-32.1	27.6	0.00e+00	0	25	0	3903848448	42	5567
2026-01-05 03:43:41.08	356.12	29.06	-31.7	-32.2	27.5	0.00e+00	0	25	0	3911188480	42	5669
2026-01-05 03:43:42.09	355.95	28.90	-31.9	-32.4	27.5	0.00e+00	0	25	0	3918528512	42	5810
2026-01-05 03:43:43.11	355.78	28.74	-31.9	-32.4	27.8	0.00e+00	0	25	0	3924819968	42	5783
2026-01-05 03:43:44.12	355.62	28.58	-32.4	-32.9	27.3	0.00e+00	0	25	0	3933208576	42	6128
2026-01-05 03:43:45.13	355.45	28.42	-31.9	-32.4	27.5	0.00e+00	0	25	0	3940548608	42	5763
2026-01-05 03:43:46.14	355.29	28.26	-31.7	-32.2	27.6	0.00e+00	0	25	0	3946840064	42	5656
2026-01-05 03:43:47.15	355.13	28.11	-31.9	-32.3	27.7	0.00e+00	0	25	0	3954180096	42	5758
2026-01-05 03:43:48.16	354.97	27.95	-32.4	-32.9	27.1	0.00e+00	0	25	0	3962568704	42	6129
2026-01-05 03:43:49.17	354.82	27.79	-32.2	-32.7	27.6	0.00e+00	0	25	0	3968860160	42	5965
2026-01-05 03:43:50.18	354.66	27.64	-31.7	-32.1	27.9	0.00e+00	0	25	0	3976200192	42	5612
2026-01-05 03:43:51.19	354.51	27.48	-31.8	-32.3	27.8	0.00e+00	0	25	0	3983540224	42	5717
2026-01-05 03:43:52.20	354.35	27.33	-31.8	-32.2	27.7	0.00e+00	0	25	0	3990880256	42	5678
2026-01-05 03:43:53.22	354.20	27.18	-31.6	-32.1	27.8	0.00e+00	0	25	0	3998220288	42	5593
2026-01-05 03:43:54.23	354.05	27.02	-31.7	-32.2	27.7	0.00e+00	0	25	0	4005560320	42	5669
2026-01-05 03:43:55.24	353.91	26.87	-31.7	-32.2	27.8	0.00e+00	0	25	0	4012900352	42	5636
2026-01-05 03:43:56.25	353.76	26.72	-31.7	-32.2	27.7	0.00e+00	0	25	0	4020240384	42	5671
2026-01-05 03:43:57.26	353.61	26.57	-32.0	-32.5	27.6	0.00e+00	0	25	0	4027580416	42	5858
2026-01-05 03:43:58.27	353.47	26.42	-31.8	-32.3	27.7	0.00e+00	0	25	0	4034920448	42	5712
2026-01-05 03:43:59.28	353.33	26.27	-31.9	-32.4	27.8	0.00e+00	0	25	0	4042260480	42	5762
2026-01-05 03:44:00.29	353.19	26.12	-31.9	-32.4	27.8	0.00e+00	0	25	0	4049600512	42	5772
2026-01-05 03:44:01.30	353.05	25.97	-32.1	-32.6	27.6	1.10e-06	0	25	0	4056940544	42	5943
2026-01-05 03:44:02.32	352.91	25.82	-32.1	-32.6	27.4	0.00e+00	0	25	0	4064280576	44	5312
2026-01-05 03:44:03.33	352.77	25.68	-32.5	-33.0	27.5	0.00e+00	0	25	0	4071620608	44	5510
2026-01-05 03:44:04.34	352.64	25.53	-32.0	-32.5	27.6	0.00e+00	0	25	0	4078960640	42	5867
2026-01-05 03:44:05.35	352.50	25.39	-33.0	-33.5	27.2	0.00e+00	0	25	0	4086300672	46	5215
2026-01-05 03:44:06.36	352.37	25.24	-32.8	-33.3	27.4	0.00e+00	0	25	0	4093640704	44	5742
2026-01-05 03:44:07.37	352.24	25.10	-32.4	-32.9	27.4	0.00e+00	0	25	0	4100980736	44	5446
2026-01-05 03:44:08.38	352.11	24.95	-32.2	-32.7	27.3	0.00e+00	0	25	0	4108320768	44	5327
2026-01-05 03:44:09.39	351.98	24.81	-31.8	-32.3	27.8	0.00e+00	0	25	0	4114612224	42	5725
2026-01-05 03:44:10.41	351.85	24.67	-32.3	-32.8	27.6	0.00e+00	0	25	0	4121952256	42	6089
2026-01-05 03:44:11.42	351.72	24.52	-32.4	-32.9	27.4	0.00e+00	0	25	0	4130340864	42	6139
2026-01-05 03:44:12.43	351.60	24.38	-32.1	-32.6	27.7	0.00e+00	0	25	0	4136632320	42	5920
2026-01-05 03:44:13.44	351.47	24.24	-34.1	-34.7	25.7	0.00e+00	0	25	0	4143972352	44	6744
2026-01-05 03:44:14.45	351.35	24.10	-33.1	-33.5	27.0	0.00e+00	0	25	0	4151312384	46	5243
2026-01-05 03:44:15.46	351.23	23.96	-32.8	-33.3	26.7	0.00e+00	0	25	0	4158652416	44	5712
2026-01-05 03:44:16.47	351.10	23.82	-32.2	-32.7	27.5	0.00e+00	0	25	0	4165992448	44	5348
2026-01-05 03:44:17.48	350.98	23.68	-32.4	-32.8	27.4	0.00e+00	0	25	0	4173332480	44	5439
2026-01-05 03:44:18.49	350.87	23.55	-32.7	-33.1	27.3	0.00e+00	0	25	0	4180672512	44	5624
2026-01-05 03:44:19.51	350.75	23.41	-32.2	-32.7	27.4	0.00e+00	0	25	0	4188012544	44	5324
2026-01-05 03:44:20.52	350.63	23.27	-32.3	-32.8	27.2	0.00e+00	0	25	0	4195352576	44	5431
2026-01-05 03:44:21.53	350.51	23.14	-32.4	-32.9	27.1	0.00e+00	0	25	0	4202692608	44	5462
2026-01-05 03:44:22.54	350.40	23.00	-32.5	-33.0	27.3	0.00e+00	0	25	0	4210032640	44	5524
2026-01-05 03:44:23.55	350.28	22.87	-31.9	-32.4	27.7	0.00e+00	0	25	0	4217372672	42	5806
2026-01-05 03:44:24.56	350.17	22.73	-32.1	-32.6	27.4	0.00e+00	0	25	0	4224712704	42	5918
2026-01-05 03:44:25.57	350.06	22.60	-32.1	-32.6	27.4	0.00e+00	0	25	0	4232052736	42	5927
2026-01-05 03:44:26.58	349.95	22.47	-32.1	-32.6	27.5	0.00e+00	0	25	0	4239392768	42	5915
2026-01-05 03:44:27.59	349.84	22.33	-31.8	-32.3	27.7	0.00e+00	0	25	0	4246732800	42	5729
2026-01-05 03:44:28.60	349.73	22.20	-31.8	-32.2	27.8	0.00e+00	0	25	0	4254072832	42	5685
2026-01-05 03:44:29.62	349.62	22.07	-31.8	-32.3	27.7	0.00e+00	0	25	0	4261412864	42	5700
2026-01-05 03:44:30.63	349.51	21.94	-31.9	-32.4	27.7	0.00e+00	0	25	0	4268752896	42	5787
2026-01-05 03:44:31.64	349.41	21.81	-31.9	-32.4	27.6	0.00e+00	0	25	0	4276092928	42	5769
2026-01-05 03:44:32.65	349.30	21.68	-32.0	-32.5	27.5	0.00e+00	0	25	0	4283432960	42	5846
2026-01-05 03:44:33.66	349.20	21.55	-32.5	-33.0	27.3	0.00e+00	0	25	0	4290772992	42	6185
2026-01-05 03:44:34.67	349.10	21.42	-32.0	-32.5	27.4	0.00e+00	0	25	0	4298113024	42	5865
2026-01-05 03:44:35.68	348.99	21.29	-32.4	-32.9	27.3	0.00e+00	0	25	0	4305453056	42	6142
2026-01-05 03:44:36.69	348.89	21.17	-32.6	-33.0	27.0	0.00e+00	0	25	0	4311744512	42	6240
2026-01-05 03:44:37.70	348.79	21.04	-32.4	-32.9	27.2	0.00e+00	0	25	0	4319084544	42	6133
2026-01-05 03:44:38.72	348.69	20.91	-32.1	-32.6	27.4	0.00e+00	0	25	0	4327473152	42	5936
2026-01-05 03:44:39.72	348.59	20.79	-32.3	-32.8	27.3	0.00e+00	0	25	0	4333764608	42	6059
2026-01-05 03:44:40.74	348.49	20.66	-32.3	-32.8	27.2	0.00e+00	0	25	0	4341104640	42	6084
2026-01-05 03:44:41.75	348.40	20.54	-32.4	-32.9	27.2	0.00e+00	0	25	0	4348444672	42	6132
2026-01-05 03:44:42.76	348.30	20.41	-32.7	-33.2	27.0	0.00e+00	0	25	0	4355784704	42	6319
2026-01-05 03:44:43.77	348.20	20.29	-32.7	-33.2	27.1	0.00e+00	0	25	0	4363124736	42	6344
2026-01-05 03:44:44.78	348.11	20.16	-32.7	-33.2	26.9	0.00e+00	0	25	0	4370464768	42	6365
2026-01-05 03:44:45.79	348.01	20.04	-32.7	-33.2	26.9	0.00e+00	0	25	0	4377804800	42	6372
2026-01-05 03:44:46.80	347.92	19.92	-32.8	-33.2	26.9	0.00e+00	0	25	0	4385144832	42	6386
2026-01-05 03:44:47.81	347.83	19.80	-32.9	-33.4	26.8	0.00e+00	0	25	0	4392484864	42	6534
2026-01-05 03:44:48.83	347.74	19.68	-32.8	-33.3	26.8	0.00e+00	0	25	0	4399824896	42	6426
2026-01-05 03:44:49.84	347.64	19.56	-32.9	-33.4	26.8	0.00e+00	0	25	0	4407164928	42	6508
2026-01-05 03:44:50.85	347.55	19.44	-32.9	-33.4	26.8	0.00e+00	0	25	0	4414504960	42	6483
2026-01-05 03:44:51.86	347.46	19.32	-32.8	-33.3	26.9	0.00e+00	0	25	0	4421844992	42	6426
2026-01-05 03:44:52.87	347.38	19.20	-32.9	-33.4	26.8	0.00e+00	0	25	0	4429185024	42	6477
2026-01-05 03:44:53.88	347.29	19.08	-33.1	-33.6	26.6	0.00e+00	0	25	0	4436525056	44	5919
2026-01-05 03:44:54.89	347.20	18.96	-32.9	-33.4	26.7	0.00e+00	0	25	0	4443865088	44	5821
2026-01-05 03:44:55.90	347.11	18.84	-33.1	-33.6	26.2	0.00e+00	0	25	0	4451205120	44	5910
2026-01-05 03:44:56.91	347.03	18.73	-32.8	-33.3	26.7	0.00e+00	0	25	0	4458545152	44	5757
2026-01-05 03:44:57.93	346.94	18.61	-33.0	-33.5	26.7	0.00e+00	0	25	0	4465885184	44	5863
2026-01-05 03:44:58.94	346.86	18.49	-32.7	-33.2	26.8	0.00e+00	0	25	0	4473225216	44	5661
2026-01-05 03:44:59.95	346.77	18.38	-32.7	-33.2	27.0	0.00e+00	0	25	0	4479516672	44	5654
2026-01-05 03:45:00.96	346.69	18.26	-32.8	-33.3	26.9	0.00e+00	0	25	0	4487905280	44	5707
2026-01-05 03:45:01.97	346.61	18.15	-32.7	-33.2	26.9	0.00e+00	0	25	0	4495245312	44	5663
2026-01-05 03:45:02.98	346.52	18.03	-32.8	-33.3	26.9	0.00e+00	0	25	0	4501536768	44	5705
2026-01-05 03:45:03.99	346.44	17.92	-32.7	-33.2	26.9	0.00e+00	0	25	0	4508876800	44	5652
2026-01-05 03:45:05.00	346.36	17.80	-32.8	-33.2	26.8	0.00e+00	0	25	0	4516216832	44	5694
2026-01-05 03:45:06.01	346.28	17.69	-32.8	-33.3	26.9	0.00e+00	0	25	0	4523556864	44	5715
2026-01-05 03:45:07.03	346.20	17.58	-33.0	-33.5	26.7	0.00e+00	0	25	0	4530896896	44	5874
2026-01-05 03:45:08.04	346.12	17.47	-32.8	-33.3	26.9	0.00e+00	0	25	0	4538236928	44	5702
2026-01-05 03:45:09.05	346.04	17.35	-32.8	-33.3	26.9	0.00e+00	0	25	0	4545576960	44	5714
2026-01-05 03:45:10.06	345.97	17.24	-32.9	-33.4	26.9	0.00e+00	0	25	0	4552916992	44	5805
2026-01-05 03:45:11.07	345.89	17.13	-32.8	-33.3	26.7	0.00e+00	0	25	0	4560257024	44	5717
2026-01-05 03:45:12.08	345.81	17.02	-33.2	-33.7	26.6	0.00e+00	0	25	0	4567597056	44	5984
2026-01-05 03:45:13.09	345.74	16.91	-33.1	-33.6	26.6	0.00e+00	0	25	0	4574937088	44	5933
