passes_logs/2026/01/05/R4.6S_Anadyr_2ch/R4.6S_Anadyr_2ch__20260105_172237_NOAA_21_JPSS-2_rec.log

#Pass ID: 20260105_172237_NOAA 21 (JPSS-2)
#Satellite: NOAA 21 (JPSS-2)
#Configuration: NOAA-21
#almurnet v.1.7.20251203
#Start time: 2026-01-05 17:28:16

#Version: 2.2.20231116
#Station: R4.6S_Anadyr_2ch
#Location: 177.4865 lon 64.73178 lat
#TLE: 1 54234U 22150A   25350.97269056  .00000057  00000+0  47676-4 0  9992
#TLE: 2 54234  98.7466 287.2282 0002043  29.8355 330.2937 14.19525482160692

#Time	Az	El	Level	Level2	SNR	BER	BlckErr	Temp	State	Recorded	gain1	gain2
2026-01-05 17:28:16.45	347.88	20.53	-51.0	-62.7	3.5	8.44e-01	0	31	0	0	60	66814
2026-01-05 17:28:17.46	347.64	20.58	-51.0	-63.9	3.5	1.52e+00	0	31	104	0	60	74528
2026-01-05 17:28:18.47	347.39	20.62	-51.0	-64.0	3.5	1.52e+00	0	31	104	0	60	74705
2026-01-05 17:28:19.48	347.15	20.66	-51.1	-64.0	3.5	1.52e+00	0	31	104	0	60	74893
2026-01-05 17:28:20.49	346.91	20.70	-51.1	-64.0	3.5	1.52e+00	0	31	104	0	60	75013
2026-01-05 17:28:21.50	346.66	20.74	-51.0	-64.0	3.5	1.52e+00	0	31	104	0	60	74896
2026-01-05 17:28:22.51	346.42	20.79	-51.2	-64.1	3.5	1.52e+00	0	31	104	0	60	76179
2026-01-05 17:28:23.52	346.17	20.83	-51.0	-64.0	3.5	1.52e+00	0	31	104	0	60	75435
2026-01-05 17:28:24.53	345.92	20.87	-50.9	-64.1	3.5	1.52e+00	0	31	104	0	60	75512
2026-01-05 17:28:25.54	345.68	20.91	-50.4	-64.1	3.5	1.51e+00	0	31	104	0	60	75914
2026-01-05 17:28:26.55	345.43	20.95	-51.0	-64.2	3.5	1.51e+00	0	31	104	0	60	76964
2026-01-05 17:28:27.56	345.18	20.98	-51.2	-64.2	3.5	1.52e+00	0	31	104	0	60	76503
2026-01-05 17:28:28.58	344.93	21.02	-51.2	-64.1	3.5	1.52e+00	0	31	104	0	60	76268
2026-01-05 17:28:29.59	344.68	21.06	-51.1	-64.1	3.5	1.52e+00	0	31	104	0	60	76072
2026-01-05 17:28:30.60	344.43	21.10	-51.0	-64.0	3.5	1.52e+00	0	31	104	0	60	75211
2026-01-05 17:28:31.61	344.18	21.14	-51.0	-64.0	3.5	1.52e+00	0	31	104	0	60	74765
2026-01-05 17:28:32.62	343.93	21.17	-50.9	-63.9	3.5	1.52e+00	0	31	104	0	60	74401
2026-01-05 17:28:33.63	343.67	21.21	-50.9	-63.9	3.5	1.52e+00	0	31	104	0	60	74570
2026-01-05 17:28:34.64	343.42	21.24	-50.9	-63.9	3.5	1.52e+00	0	31	104	0	60	74203
2026-01-05 17:28:35.66	343.16	21.28	-50.9	-63.9	3.5	1.52e+00	0	31	104	0	60	74266
2026-01-05 17:28:36.67	342.91	21.31	-50.9	-63.9	3.5	1.52e+00	0	31	104	0	60	74194
2026-01-05 17:28:37.68	342.66	21.34	-50.9	-63.9	3.5	1.51e+00	0	31	104	0	60	74107
2026-01-05 17:28:38.69	342.40	21.38	-50.9	-63.9	3.5	1.52e+00	0	31	104	0	60	74148
2026-01-05 17:28:39.70	342.15	21.41	-50.9	-63.8	3.5	1.51e+00	0	31	104	0	60	73303
2026-01-05 17:28:40.71	341.89	21.44	-50.9	-63.9	3.5	1.52e+00	0	31	104	0	60	74392
2026-01-05 17:28:41.72	341.63	21.47	-50.9	-63.8	3.5	1.52e+00	0	31	104	0	60	73283
2026-01-05 17:28:42.73	341.38	21.50	-50.9	-63.8	3.5	1.52e+00	0	31	104	0	60	73242
2026-01-05 17:28:43.74	341.12	21.53	-50.9	-63.9	3.5	1.52e+00	0	31	104	0	60	74365
2026-01-05 17:28:44.75	340.86	21.56	-50.9	-63.9	3.5	1.51e+00	0	31	104	0	60	74147
2026-01-05 17:28:45.77	340.60	21.59	-50.9	-63.9	3.5	1.52e+00	0	31	104	0	60	73796
2026-01-05 17:28:46.78	340.34	21.62	-50.9	-63.8	3.5	1.52e+00	0	31	104	0	60	73750
2026-01-05 17:28:47.79	340.08	21.65	-50.9	-63.9	3.5	1.52e+00	0	31	104	0	60	74359
2026-01-05 17:28:48.80	339.82	21.67	-50.9	-63.8	3.5	1.52e+00	0	31	104	0	60	73554
2026-01-05 17:28:49.81	339.56	21.70	-50.9	-63.9	3.5	1.51e+00	0	31	104	0	60	73769
2026-01-05 17:28:50.82	339.30	21.73	-50.8	-63.8	3.5	1.52e+00	0	31	104	0	60	73174
2026-01-05 17:28:51.83	339.04	21.75	-50.8	-63.7	3.5	1.51e+00	0	31	104	0	60	72251
2026-01-05 17:28:52.84	338.78	21.78	-50.9	-63.9	3.5	1.51e+00	0	31	104	0	60	73813
2026-01-05 17:28:53.85	338.51	21.80	-50.8	-63.7	3.5	1.52e+00	0	31	104	0	60	72746
2026-01-05 17:28:54.87	338.25	21.82	-50.8	-63.7	3.5	1.52e+00	0	31	104	0	60	72747
2026-01-05 17:28:55.88	337.98	21.85	-50.9	-63.8	3.5	1.52e+00	0	31	104	0	60	73465
2026-01-05 17:28:56.89	337.72	21.87	-50.8	-63.5	3.5	1.52e+00	0	31	104	0	60	71209
2026-01-05 17:28:57.90	337.46	21.89	-50.9	-63.8	3.5	1.52e+00	0	31	104	0	60	73000
2026-01-05 17:28:58.91	337.19	21.91	-50.9	-63.8	3.5	1.52e+00	0	31	104	0	60	73608
2026-01-05 17:28:59.92	336.93	21.93	-50.8	-63.9	3.5	1.52e+00	0	31	104	0	60	74067
2026-01-05 17:29:00.92	336.67	21.95	-50.8	-63.8	3.5	1.52e+00	0	31	104	0	60	73572
2026-01-05 17:29:01.93	336.40	21.97	-50.8	-63.7	3.5	1.52e+00	0	31	104	0	60	72390
2026-01-05 17:29:02.94	336.14	21.99	-50.8	-63.6	3.5	1.52e+00	0	31	104	0	60	71464
2026-01-05 17:29:03.95	335.87	22.00	-50.8	-63.8	3.5	1.51e+00	0	31	104	0	60	73474
2026-01-05 17:29:04.96	335.60	22.02	-50.8	-63.6	3.5	1.52e+00	0	31	104	0	60	72074
2026-01-05 17:29:05.97	335.34	22.04	-50.8	-63.5	3.5	1.52e+00	0	31	104	0	60	70942
2026-01-05 17:29:06.98	335.07	22.05	-50.8	-63.7	3.5	1.52e+00	0	31	104	0	60	72504
2026-01-05 17:29:07.99	334.80	22.07	-50.8	-63.7	3.5	1.52e+00	0	31	104	0	60	72806
2026-01-05 17:29:09.00	334.54	22.08	-50.8	-63.5	3.5	1.51e+00	0	31	104	0	60	71070
2026-01-05 17:29:10.02	334.27	22.10	-50.8	-63.0	3.5	1.52e+00	0	31	104	0	60	66822
2026-01-05 17:29:11.03	334.00	22.11	-50.8	-63.5	3.5	1.52e+00	0	31	104	0	60	70765
2026-01-05 17:29:12.04	333.73	22.12	-50.8	-63.7	3.5	1.52e+00	0	31	104	0	60	72091
2026-01-05 17:29:13.05	333.46	22.13	-50.8	-62.7	3.5	1.52e+00	0	31	104	0	60	64957
2026-01-05 17:29:14.06	333.19	22.14	-50.4	-59.5	4.5	1.49e+00	123	31	104	0	60	44798
2026-01-05 17:29:15.07	332.93	22.16	-50.1	-57.7	7.2	1.28e+00	123	31	104	0	60	36393
2026-01-05 17:29:16.08	332.66	22.16	-43.5	-45.1	18.8	0.00e+00	123	31	0	0	60	8469
2026-01-05 17:29:17.09	332.39	22.17	-39.0	-40.1	22.8	0.00e+00	122	31	102	1048576	58	5347
2026-01-05 17:29:18.10	332.12	22.18	-38.9	-39.9	22.9	0.00e+00	123	31	102	1048576	56	5873
2026-01-05 17:29:19.12	331.85	22.19	-37.4	-38.3	24.1	0.00e+00	122	31	102	1048576	54	5520
2026-01-05 17:29:20.13	331.58	22.20	-38.5	-39.5	23.5	0.00e+00	123	31	102	1048576	56	5615
2026-01-05 17:29:21.14	331.31	22.20	-50.6	-60.7	4.0	1.21e+00	0	31	104	1048576	60	51202
2026-01-05 17:29:22.15	331.04	22.21	-45.1	-46.9	17.0	1.44e-05	122	31	0	1048576	60	10516
2026-01-05 17:29:23.16	330.77	22.21	-50.7	-62.0	3.5	1.17e+00	0	31	104	1048576	60	59580
2026-01-05 17:29:24.17	330.50	22.22	-44.4	-46.1	17.1	0.00e+00	122	31	0	1048576	60	9563
2026-01-05 17:29:25.18	330.23	22.22	-43.3	-44.8	18.5	0.00e+00	122	31	0	1048576	60	8214
2026-01-05 17:29:26.20	329.96	22.22	-42.7	-44.0	19.3	0.00e+00	123	31	0	1048576	60	7508
2026-01-05 17:29:27.21	329.69	22.23	-40.0	-41.1	21.9	0.00e+00	122	31	0	1048576	60	5369
2026-01-05 17:29:28.22	329.42	22.23	-38.2	-39.1	23.6	0.00e+00	122	31	0	1048576	56	5397
2026-01-05 17:29:29.23	329.15	22.23	-36.9	-37.8	24.5	0.00e+00	120	31	0	1048576	52	5824
2026-01-05 17:29:30.24	328.88	22.23	-36.3	-37.1	24.9	0.00e+00	123	31	0	1048576	52	5393
2026-01-05 17:29:31.25	328.61	22.23	-36.3	-37.2	24.8	0.00e+00	123	31	0	1048576	52	5455
2026-01-05 17:29:32.26	328.34	22.23	-36.1	-37.0	25.0	0.00e+00	122	31	0	1048576	50	5930
2026-01-05 17:29:33.27	328.07	22.23	-36.0	-36.9	25.0	0.00e+00	123	31	0	1048576	50	5867
2026-01-05 17:29:34.28	327.80	22.22	-36.1	-37.0	25.0	0.00e+00	123	31	0	1048576	50	5935
2026-01-05 17:29:35.29	327.53	22.22	-36.1	-37.0	25.0	0.00e+00	122	31	101	1048576	50	5947
2026-01-05 17:29:36.31	327.26	22.22	-36.1	-37.0	24.9	0.00e+00	122	31	101	1048576	50	5973
2026-01-05 17:29:37.32	326.99	22.21	-36.2	-37.1	24.8	0.00e+00	123	31	101	1048576	50	6044
2026-01-05 17:29:38.33	326.72	22.21	-36.5	-37.4	24.7	0.00e+00	123	31	101	1048576	50	6249
2026-01-05 17:29:39.34	326.45	22.20	-36.5	-37.4	24.6	0.00e+00	123	31	101	1048576	50	6270
2026-01-05 17:29:40.35	326.18	22.19	-36.4	-37.3	24.8	0.00e+00	123	31	101	1048576	50	6176
2026-01-05 17:29:41.36	325.91	22.19	-36.6	-37.4	24.6	0.00e+00	120	31	101	1048576	50	6277
2026-01-05 17:29:42.37	325.64	22.18	-36.4	-37.3	24.8	0.00e+00	120	31	101	1048576	50	6136
2026-01-05 17:29:43.38	325.37	22.17	-36.2	-37.1	24.8	0.00e+00	122	31	101	1048576	50	6059
2026-01-05 17:29:44.39	325.10	22.16	-36.3	-37.2	24.7	0.00e+00	123	31	101	1048576	50	6123
2026-01-05 17:29:45.40	324.83	22.15	-36.3	-37.2	24.7	0.00e+00	123	31	101	1048576	50	6100
2026-01-05 17:29:46.41	324.56	22.14	-36.5	-37.4	24.6	0.00e+00	122	31	101	1048576	50	6231
2026-01-05 17:29:47.42	324.30	22.13	-36.7	-37.6	24.6	0.00e+00	123	31	101	1048576	50	6354
2026-01-05 17:29:48.43	324.03	22.12	-36.7	-37.6	24.6	0.00e+00	120	31	101	1048576	50	6400
2026-01-05 17:29:49.45	323.76	22.10	-36.7	-37.6	24.6	0.00e+00	123	31	101	1048576	50	6417
2026-01-05 17:29:50.46	323.49	22.09	-36.8	-37.7	24.4	0.00e+00	123	31	101	1048576	50	6442
2026-01-05 17:29:51.47	323.22	22.08	-36.6	-37.5	24.6	0.00e+00	123	31	101	1048576	50	6322
2026-01-05 17:29:52.48	322.95	22.06	-36.3	-37.2	24.9	0.00e+00	123	31	101	1048576	50	6121
2026-01-05 17:29:53.49	322.69	22.05	-36.4	-37.3	24.8	0.00e+00	123	31	101	1048576	50	6183
2026-01-05 17:29:54.50	322.42	22.03	-36.5	-37.4	24.7	0.00e+00	122	31	101	1048576	50	6245
2026-01-05 17:29:55.51	322.15	22.01	-36.4	-37.3	24.8	0.00e+00	123	31	101	1048576	50	6156
2026-01-05 17:29:56.53	321.88	22.00	-36.1	-37.0	25.0	0.00e+00	120	31	101	1048576	50	5945
2026-01-05 17:29:57.54	321.62	21.98	-36.2	-37.1	25.0	0.00e+00	123	31	101	1048576	50	6039
2026-01-05 17:29:58.55	321.35	21.96	-36.2	-37.0	24.8	0.00e+00	120	31	101	1048576	50	5983
2026-01-05 17:29:59.56	321.09	21.94	-36.2	-37.1	24.9	0.00e+00	123	31	101	1048576	50	6018
2026-01-05 17:30:00.57	320.82	21.92	-36.0	-36.9	25.0	0.00e+00	123	31	101	1048576	50	5908
2026-01-05 17:30:01.58	320.56	21.90	-36.0	-36.8	25.1	0.00e+00	120	31	101	1048576	50	5845
2026-01-05 17:30:02.59	320.29	21.88	-36.2	-37.1	24.8	0.00e+00	123	31	101	1048576	50	5997
2026-01-05 17:30:03.61	320.03	21.86	-36.3	-37.2	24.8	0.00e+00	123	31	101	1048576	50	6097
2026-01-05 17:30:04.62	319.76	21.84	-36.6	-37.4	24.6	0.00e+00	120	31	101	1048576	50	6276
2026-01-05 17:30:05.63	319.50	21.81	-36.6	-37.5	24.6	0.00e+00	123	31	101	1048576	50	6309
2026-01-05 17:30:06.64	319.24	21.79	-36.6	-37.5	24.7	0.00e+00	120	31	101	1048576	50	6281
2026-01-05 17:30:07.65	318.98	21.76	-36.5	-37.4	24.7	0.00e+00	122	31	101	1048576	50	6258
2026-01-05 17:30:08.66	318.72	21.74	-36.6	-37.5	24.6	0.00e+00	123	31	101	1048576	50	6322
2026-01-05 17:30:09.67	318.45	21.71	-36.3	-37.1	24.8	0.00e+00	122	31	101	1048576	50	6055
2026-01-05 17:30:10.69	318.19	21.69	-36.2	-37.0	24.9	0.00e+00	123	31	101	1048576	50	5985
2026-01-05 17:30:11.70	317.93	21.66	-36.3	-37.2	24.8	0.00e+00	123	31	101	1048576	50	6108
2026-01-05 17:30:12.71	317.67	21.63	-36.3	-37.2	24.8	0.00e+00	120	31	101	1048576	50	6090
2026-01-05 17:30:13.72	317.41	21.61	-36.1	-37.0	25.0	0.00e+00	122	31	101	1048576	50	5946
2026-01-05 17:30:14.73	317.15	21.58	-36.0	-36.9	25.0	0.00e+00	123	31	101	1048576	50	5899
2026-01-05 17:30:15.74	316.89	21.55	-36.1	-37.0	25.0	0.00e+00	123	31	101	1048576	50	5939
2026-01-05 17:30:16.75	316.63	21.52	-36.1	-36.9	24.9	0.00e+00	123	31	101	1048576	50	5924
2026-01-05 17:30:17.76	316.38	21.49	-36.2	-37.1	24.7	0.00e+00	123	31	101	1048576	50	6029
2026-01-05 17:30:18.77	316.12	21.46	-36.2	-37.1	24.7	0.00e+00	123	31	101	1048576	50	6057
2026-01-05 17:30:19.78	315.86	21.43	-36.2	-37.1	24.7	0.00e+00	123	31	101	1048576	50	6035
2026-01-05 17:30:20.80	315.60	21.39	-36.4	-37.3	24.7	0.00e+00	120	31	101	1048576	50	6139
2026-01-05 17:30:21.81	315.35	21.36	-36.5	-37.4	24.7	0.00e+00	122	31	101	1048576	50	6226
2026-01-05 17:30:22.82	315.09	21.33	-36.3	-37.1	24.8	0.00e+00	123	31	101	1048576	50	6061
2026-01-05 17:30:23.83	314.84	21.29	-36.4	-37.3	24.7	0.00e+00	123	31	101	1048576	50	6168
2026-01-05 17:30:24.84	314.58	21.26	-36.4	-37.3	24.7	0.00e+00	123	31	101	1048576	50	6163
2026-01-05 17:30:25.85	314.33	21.23	-36.6	-37.5	24.7	0.00e+00	123	31	101	1048576	50	6295
2026-01-05 17:30:26.86	314.08	21.19	-36.6	-37.5	24.7	0.00e+00	123	31	101	1048576	50	6279
2026-01-05 17:30:27.87	313.83	21.15	-36.5	-37.3	24.8	0.00e+00	122	31	101	1048576	50	6198
2026-01-05 17:30:28.88	313.58	21.12	-36.6	-37.5	24.6	0.00e+00	120	31	101	1048576	50	6288
2026-01-05 17:30:29.89	313.32	21.08	-36.5	-37.4	24.6	0.00e+00	123	31	101	1048576	50	6236
2026-01-05 17:30:30.91	313.07	21.04	-36.6	-37.5	24.4	0.00e+00	123	31	101	1048576	50	6340
2026-01-05 17:30:31.92	312.82	21.01	-36.7	-37.6	24.6	0.00e+00	123	31	101	1048576	50	6419
2026-01-05 17:30:32.93	312.57	20.97	-36.5	-37.4	24.8	0.00e+00	122	31	101	1048576	50	6226
2026-01-05 17:30:33.94	312.32	20.93	-36.3	-37.2	24.8	0.00e+00	120	31	101	1048576	50	6110
2026-01-05 17:30:34.95	312.08	20.89	-36.4	-37.3	24.8	0.00e+00	123	31	101	1048576	50	6168
2026-01-05 17:30:35.96	311.83	20.85	-36.4	-37.3	24.8	0.00e+00	120	31	101	1048576	50	6160
2026-01-05 17:30:36.97	311.58	20.81	-36.5	-37.4	24.6	0.00e+00	120	31	101	1048576	50	6234
2026-01-05 17:30:37.98	311.34	20.77	-36.4	-37.3	24.8	0.00e+00	122	31	101	1048576	50	6150
2026-01-05 17:30:39.00	311.09	20.73	-36.4	-37.3	24.8	0.00e+00	122	31	101	1048576	50	6142
2026-01-05 17:30:40.01	310.84	20.68	-36.5	-37.4	24.8	0.00e+00	123	31	101	1048576	50	6229
2026-01-05 17:30:41.02	310.60	20.64	-36.4	-37.2	24.8	0.00e+00	123	31	101	1048576	50	6131
2026-01-05 17:30:42.03	310.36	20.60	-36.4	-37.3	24.7	0.00e+00	120	31	101	1048576	50	6189
2026-01-05 17:30:43.04	310.11	20.55	-36.5	-37.4	24.8	0.00e+00	123	31	101	1048576	50	6229
2026-01-05 17:30:44.05	309.87	20.51	-36.5	-37.5	24.7	0.00e+00	123	31	101	1048576	50	6280
2026-01-05 17:30:45.06	309.63	20.47	-36.8	-37.7	24.5	0.00e+00	123	31	101	1048576	50	6437
2026-01-05 17:30:46.07	309.39	20.42	-36.9	-37.7	24.5	0.00e+00	122	31	101	1048576	50	6492
2026-01-05 17:30:47.09	309.15	20.38	-36.9	-37.8	24.4	0.00e+00	123	31	101	1048576	50	6519
2026-01-05 17:30:48.10	308.91	20.33	-36.9	-37.8	24.4	0.00e+00	122	31	101	1048576	50	6539
2026-01-05 17:30:49.11	308.67	20.28	-36.7	-37.7	24.5	0.00e+00	123	31	101	1048576	50	6434
2026-01-05 17:30:50.12	308.43	20.24	-36.6	-37.5	24.6	0.00e+00	123	31	101	1048576	50	6318
2026-01-05 17:30:51.13	308.20	20.19	-36.6	-37.5	24.7	0.00e+00	123	31	101	1048576	50	6281
2026-01-05 17:30:52.14	307.96	20.14	-36.6	-37.4	24.7	0.00e+00	123	31	101	1048576	50	6271
2026-01-05 17:30:53.15	307.73	20.09	-36.2	-37.1	24.9	0.00e+00	120	31	101	1048576	50	6046
2026-01-05 17:30:54.16	307.49	20.05	-36.3	-37.2	24.9	0.00e+00	123	31	101	1048576	50	6072
2026-01-05 17:30:55.17	307.26	20.00	-36.1	-37.0	24.9	0.00e+00	123	31	101	1048576	50	5938
2026-01-05 17:30:56.18	307.02	19.95	-36.1	-37.0	24.9	0.00e+00	123	31	101	1048576	50	5954
2026-01-05 17:30:57.20	306.79	19.90	-36.2	-37.1	24.9	0.00e+00	123	31	101	1048576	50	6017
2026-01-05 17:30:58.21	306.56	19.85	-36.3	-37.2	24.8	0.00e+00	123	31	101	1048576	50	6073
2026-01-05 17:30:59.22	306.33	19.80	-36.4	-37.3	24.7	0.00e+00	123	31	101	1048576	50	6170
2026-01-05 17:31:00.23	306.10	19.75	-36.5	-37.4	24.7	0.00e+00	123	31	101	1048576	50	6217
2026-01-05 17:31:01.24	305.87	19.70	-36.5	-37.4	24.6	0.00e+00	120	31	101	1048576	50	6267
2026-01-05 17:31:02.25	305.64	19.65	-36.7	-37.6	24.6	0.00e+00	123	31	101	1048576	50	6381
2026-01-05 17:31:03.26	305.41	19.59	-36.8	-37.7	24.5	0.00e+00	123	31	101	1048576	50	6455
2026-01-05 17:31:04.27	305.18	19.54	-36.9	-37.8	24.4	0.00e+00	120	31	101	1048576	50	6539
2026-01-05 17:31:05.28	304.96	19.49	-36.9	-37.8	24.4	0.00e+00	123	31	101	1048576	50	6511
2026-01-05 17:31:06.29	304.73	19.44	-36.8	-37.7	24.5	0.00e+00	120	31	101	1048576	50	6454
2026-01-05 17:31:07.31	304.50	19.38	-36.9	-37.8	24.4	0.00e+00	123	31	101	1048576	50	6567
2026-01-05 17:31:08.32	304.28	19.33	-36.8	-37.7	24.5	0.00e+00	123	31	101	1048576	50	6476
2026-01-05 17:31:09.33	304.06	19.27	-37.0	-37.9	24.4	0.00e+00	122	31	101	1048576	50	6582
2026-01-05 17:31:10.34	303.84	19.22	-36.8	-37.7	24.5	0.00e+00	123	31	101	1048576	50	6435
2026-01-05 17:31:11.35	303.61	19.17	-36.8	-37.7	24.5	0.00e+00	123	31	101	1048576	50	6449
2026-01-05 17:31:12.36	303.39	19.11	-36.6	-37.5	24.6	0.00e+00	122	31	101	1048576	50	6287
2026-01-05 17:31:13.37	303.17	19.06	-36.5	-37.4	24.7	0.00e+00	122	31	101	1048576	50	6248
2026-01-05 17:31:14.38	302.95	19.00	-36.6	-37.5	24.6	0.00e+00	120	31	101	1048576	50	6304
2026-01-05 17:31:15.40	302.73	18.94	-36.7	-37.6	24.6	0.00e+00	122	31	101	1048576	50	6380
2026-01-05 17:31:16.41	302.52	18.89	-36.7	-37.6	24.6	0.00e+00	123	31	101	1048576	50	6396
2026-01-05 17:31:17.42	302.30	18.83	-36.9	-37.8	24.5	0.00e+00	123	31	101	1048576	50	6532
2026-01-05 17:31:18.43	302.08	18.77	-37.0	-37.9	24.3	0.00e+00	122	31	101	1048576	50	6584
2026-01-05 17:31:19.44	301.87	18.72	-37.0	-37.9	24.3	0.00e+00	123	31	101	1048576	50	6627
2026-01-05 17:31:20.45	301.65	18.66	-37.1	-38.0	24.3	0.00e+00	123	31	101	1048576	52	5976
2026-01-05 17:31:21.46	301.44	18.60	-37.2	-38.1	24.2	0.00e+00	122	31	101	1048576	52	6054
2026-01-05 17:31:22.47	301.23	18.54	-37.3	-38.2	24.1	0.00e+00	122	31	101	1048576	52	6074
2026-01-05 17:31:23.48	301.02	18.49	-37.0	-37.9	24.3	0.00e+00	122	31	101	1048576	52	5888
2026-01-05 17:31:24.50	300.80	18.43	-37.0	-37.9	24.2	0.00e+00	123	31	101	1048576	52	5899
2026-01-05 17:31:25.51	300.59	18.37	-36.9	-37.8	24.4	0.00e+00	120	31	101	1048576	52	5827
2026-01-05 17:31:26.52	300.38	18.31	-36.8	-37.7	24.5	0.00e+00	122	31	101	1048576	52	5739
2026-01-05 17:31:27.53	300.18	18.25	-36.8	-37.6	24.5	0.00e+00	123	31	101	1048576	52	5724
2026-01-05 17:31:28.54	299.97	18.19	-36.7	-37.6	24.5	0.00e+00	123	31	101	1048576	52	5680
2026-01-05 17:31:29.55	299.76	18.13	-36.7	-37.6	24.5	0.00e+00	123	31	101	1048576	52	5723
2026-01-05 17:31:30.56	299.55	18.07	-36.9	-37.8	24.4	0.00e+00	123	31	101	1048576	52	5820
2026-01-05 17:31:31.57	299.35	18.01	-36.7	-37.6	24.6	0.00e+00	123	31	101	1048576	52	5705
2026-01-05 17:31:32.59	299.14	17.95	-36.7	-37.6	24.5	0.00e+00	122	31	101	1048576	52	5673
2026-01-05 17:31:33.60	298.94	17.89	-36.6	-37.5	24.7	0.00e+00	120	31	101	1048576	52	5597
2026-01-05 17:31:34.61	298.74	17.83	-36.6	-37.5	24.6	0.00e+00	123	31	101	1048576	52	5639
2026-01-05 17:31:35.62	298.54	17.77	-36.6	-37.5	24.7	0.00e+00	123	31	101	1048576	52	5597
2026-01-05 17:31:36.63	298.33	17.71	-36.7	-37.6	24.5	0.00e+00	123	31	101	1048576	52	5704
2026-01-05 17:31:37.64	298.13	17.64	-36.9	-37.8	24.4	0.00e+00	122	31	101	1048576	52	5809
2026-01-05 17:31:38.65	297.93	17.58	-37.1	-38.0	24.2	0.00e+00	122	31	101	1048576	52	5964
2026-01-05 17:31:39.66	297.74	17.52	-37.2	-38.1	24.1	0.00e+00	123	31	101	1048576	52	6024
2026-01-05 17:31:40.67	297.54	17.46	-37.3	-38.2	24.0	0.00e+00	123	31	101	1048576	52	6105
2026-01-05 17:31:41.68	297.34	17.40	-37.1	-38.1	24.2	0.00e+00	123	31	101	1048576	52	6013
2026-01-05 17:31:42.70	297.14	17.33	-37.2	-38.1	24.1	0.00e+00	123	31	101	1048576	52	6048
2026-01-05 17:31:43.71	296.95	17.27	-37.0	-37.9	24.2	0.00e+00	120	31	101	1048576	52	5882
2026-01-05 17:31:44.71	296.75	17.21	-36.9	-37.8	24.2	0.00e+00	122	31	101	1048576	52	5845
2026-01-05 17:31:45.72	296.56	17.15	-37.0	-37.9	24.3	0.00e+00	122	31	101	1048576	52	5893
2026-01-05 17:31:46.73	296.37	17.08	-36.9	-37.9	24.3	0.00e+00	123	31	101	1048576	52	5865
2026-01-05 17:31:47.75	296.17	17.02	-37.1	-38.1	24.1	0.00e+00	122	31	101	1048576	52	6012
2026-01-05 17:31:48.76	295.98	16.95	-37.0	-37.9	24.4	0.00e+00	120	31	101	1048576	52	5867
2026-01-05 17:31:49.77	295.79	16.89	-37.1	-38.1	24.2	0.00e+00	123	31	101	1048576	52	5995
2026-01-05 17:31:50.78	295.60	16.83	-37.0	-37.9	24.3	0.00e+00	123	31	101	1048576	52	5890
2026-01-05 17:31:51.79	295.41	16.76	-37.0	-37.9	24.2	0.00e+00	122	31	101	1048576	52	5913
2026-01-05 17:31:52.80	295.23	16.70	-37.0	-37.9	24.3	0.00e+00	122	31	101	1048576	52	5909
2026-01-05 17:31:53.81	295.04	16.63	-36.9	-37.9	24.3	0.00e+00	120	31	101	1048576	52	5870
2026-01-05 17:31:54.82	294.85	16.57	-37.1	-38.0	24.1	0.00e+00	123	31	101	1048576	52	5984
2026-01-05 17:31:55.84	294.66	16.50	-37.1	-38.0	24.2	0.00e+00	123	31	101	1048576	52	5981
2026-01-05 17:31:56.85	294.48	16.44	-37.0	-37.9	24.3	0.00e+00	120	31	101	1048576	52	5877
2026-01-05 17:31:57.86	294.30	16.37	-37.1	-38.0	24.2	0.00e+00	123	31	101	1048576	52	5939
2026-01-05 17:31:58.87	294.11	16.31	-37.0	-37.9	24.3	0.00e+00	123	31	101	1048576	52	5911
2026-01-05 17:31:59.88	293.93	16.24	-37.0	-37.9	24.3	0.00e+00	123	31	101	1048576	52	5905
2026-01-05 17:32:00.89	293.75	16.18	-37.1	-38.0	24.2	0.00e+00	122	31	101	1048576	52	5950
2026-01-05 17:32:01.90	293.57	16.11	-37.2	-38.1	24.1	0.00e+00	122	31	101	1048576	52	6063
2026-01-05 17:32:02.91	293.39	16.05	-37.2	-38.1	24.1	0.00e+00	120	31	101	1048576	52	6051
2026-01-05 17:32:03.92	293.21	15.98	-37.3	-38.2	24.1	0.00e+00	123	31	101	1048576	52	6105
2026-01-05 17:32:04.93	293.03	15.92	-37.2	-38.2	24.1	0.00e+00	122	31	101	1048576	52	6081
2026-01-05 17:32:05.95	292.85	15.85	-37.3	-38.2	24.0	0.00e+00	122	31	101	1048576	52	6125
2026-01-05 17:32:06.96	292.67	15.78	-37.4	-38.4	24.0	0.00e+00	123	31	101	1048576	52	6230
2026-01-05 17:32:07.97	292.50	15.72	-37.3	-38.2	24.1	0.00e+00	123	31	101	1048576	52	6102
2026-01-05 17:32:08.98	292.32	15.65	-37.2	-38.2	24.1	0.00e+00	122	31	101	1048576	52	6072
2026-01-05 17:32:09.99	292.15	15.59	-37.2	-38.1	24.1	0.00e+00	123	31	101	1048576	52	6061
2026-01-05 17:32:11.00	291.98	15.52	-37.3	-38.2	24.0	0.00e+00	123	31	101	1048576	52	6126
2026-01-05 17:32:12.01	291.80	15.45	-37.2	-38.2	24.1	0.00e+00	123	31	101	1048576	52	6067
2026-01-05 17:32:13.02	291.63	15.39	-37.3	-38.2	24.0	0.00e+00	123	31	101	1048576	52	6080
2026-01-05 17:32:14.04	291.46	15.32	-37.4	-38.3	24.0	0.00e+00	122	31	101	1048576	52	6194
2026-01-05 17:32:15.04	291.29	15.25	-37.4	-38.3	23.9	0.00e+00	122	31	101	1048576	52	6200
2026-01-05 17:32:16.06	291.12	15.19	-37.6	-38.5	23.7	0.00e+00	120	31	101	1048576	52	6308
2026-01-05 17:32:17.07	290.95	15.12	-37.4	-38.4	23.9	0.00e+00	122	31	101	1048576	52	6215
2026-01-05 17:32:18.08	290.78	15.05	-37.4	-38.3	23.9	0.00e+00	123	31	101	1048576	52	6189
2026-01-05 17:32:19.09	290.61	14.99	-37.3	-38.3	24.0	0.00e+00	123	31	101	1048576	52	6147
2026-01-05 17:32:20.10	290.45	14.92	-37.3	-38.2	23.9	0.00e+00	123	31	101	1048576	52	6131
2026-01-05 17:32:21.11	290.28	14.85	-37.1	-38.0	24.1	0.00e+00	123	31	101	1048576	52	5968
2026-01-05 17:32:22.12	290.11	14.78	-37.1	-38.0	24.2	0.00e+00	122	31	101	1048576	52	5938
2026-01-05 17:32:23.14	289.95	14.72	-37.0	-37.9	24.3	0.00e+00	123	31	101	1048576	52	5915
2026-01-05 17:32:24.15	289.78	14.65	-37.2	-38.1	24.1	0.00e+00	123	31	101	1048576	52	6029
2026-01-05 17:32:25.16	289.62	14.58	-37.1	-38.0	24.1	0.00e+00	123	31	101	1048576	52	5962
2026-01-05 17:32:26.17	289.46	14.52	-37.3	-38.2	24.0	0.00e+00	122	31	101	1048576	52	6091
2026-01-05 17:32:27.18	289.30	14.45	-37.3	-38.2	23.9	0.00e+00	123	31	101	1048576	52	6124
2026-01-05 17:32:28.19	289.14	14.38	-37.5	-38.4	23.8	0.00e+00	123	31	101	1048576	52	6229
2026-01-05 17:32:29.20	288.98	14.31	-37.6	-38.6	23.7	0.00e+00	122	31	101	1048576	52	6365
2026-01-05 17:32:30.21	288.82	14.25	-37.5	-38.5	23.8	0.00e+00	123	31	101	1048576	52	6281
2026-01-05 17:32:31.22	288.66	14.18	-37.6	-38.5	23.7	0.00e+00	120	31	101	1048576	52	6337
2026-01-05 17:32:32.23	288.50	14.11	-37.7	-38.6	23.7	0.00e+00	123	31	101	1048576	52	6388
2026-01-05 17:32:33.25	288.34	14.04	-37.5	-38.4	23.8	0.00e+00	122	31	101	1048576	52	6254
2026-01-05 17:32:34.26	288.19	13.97	-37.4	-38.4	23.8	0.00e+00	123	31	101	1048576	52	6215
2026-01-05 17:32:35.27	288.03	13.91	-37.4	-38.4	23.8	0.00e+00	122	31	101	1048576	52	6232
2026-01-05 17:32:36.28	287.88	13.84	-37.5	-38.5	23.8	0.00e+00	123	31	101	1048576	52	6278
2026-01-05 17:32:37.29	287.72	13.77	-37.4	-38.3	23.8	0.00e+00	123	31	101	1048576	52	6171
2026-01-05 17:32:38.30	287.57	13.70	-37.2	-38.2	24.0	0.00e+00	123	31	101	1048576	52	6068
2026-01-05 17:32:39.31	287.42	13.64	-37.1	-38.0	24.0	0.00e+00	123	31	101	1048576	52	5964
2026-01-05 17:32:40.32	287.26	13.57	-37.1	-38.1	24.0	0.00e+00	120	31	101	1048576	52	6001
2026-01-05 17:32:41.33	287.11	13.50	-37.0	-37.9	24.1	0.00e+00	123	31	101	1048576	52	5906
2026-01-05 17:32:42.35	286.96	13.43	-37.2	-38.1	24.1	0.00e+00	123	31	101	1048576	52	6021
2026-01-05 17:32:43.36	286.81	13.36	-37.0	-37.9	24.2	0.00e+00	123	31	101	1048576	52	5906
2026-01-05 17:32:44.37	286.66	13.30	-37.1	-38.0	24.2	0.00e+00	122	31	101	1048576	52	5964
2026-01-05 17:32:45.38	286.51	13.23	-37.1	-38.0	24.1	0.00e+00	120	31	101	1048576	52	5955
2026-01-05 17:32:46.39	286.36	13.16	-37.3	-38.2	24.0	0.00e+00	123	31	101	1048576	52	6082
2026-01-05 17:32:47.40	286.22	13.09	-37.4	-38.3	23.9	0.00e+00	122	31	101	1048576	52	6189
2026-01-05 17:32:48.41	286.07	13.03	-37.5	-38.5	23.8	0.00e+00	120	31	101	1048576	52	6284
2026-01-05 17:32:49.42	285.93	12.96	-37.6	-38.5	23.7	0.00e+00	123	31	101	1048576	52	6341
2026-01-05 17:32:50.43	285.78	12.89	-37.7	-38.6	23.6	0.00e+00	123	31	101	1048576	52	6422
2026-01-05 17:32:51.44	285.64	12.82	-37.8	-38.7	23.5	0.00e+00	122	31	101	1048576	52	6495
2026-01-05 17:32:52.46	285.49	12.75	-37.8	-38.7	23.6	0.00e+00	122	31	101	1048576	52	6456
2026-01-05 17:32:53.47	285.35	12.69	-37.8	-38.8	23.5	0.00e+00	122	31	101	1048576	52	6514
2026-01-05 17:32:54.48	285.20	12.62	-37.9	-38.8	23.5	0.00e+00	122	31	101	1048576	52	6554
2026-01-05 17:32:55.49	285.06	12.55	-38.0	-38.9	23.4	0.00e+00	122	31	101	1048576	52	6647
2026-01-05 17:32:56.50	284.92	12.48	-38.0	-39.0	23.3	0.00e+00	123	31	101	1048576	52	6659
2026-01-05 17:32:57.51	284.78	12.42	-38.1	-39.0	23.3	0.00e+00	122	31	101	1048576	52	6705
2026-01-05 17:32:58.52	284.64	12.35	-38.1	-39.1	23.2	0.00e+00	122	31	101	1048576	54	6036
2026-01-05 17:32:59.53	284.50	12.28	-38.2	-39.1	23.1	0.00e+00	123	31	101	1048576	54	6064
2026-01-05 17:33:00.54	284.36	12.21	-38.0	-39.0	23.3	0.00e+00	122	31	101	1048576	54	5956
2026-01-05 17:33:01.56	284.22	12.14	-38.0	-38.9	23.3	0.00e+00	123	31	101	1048576	54	5918
2026-01-05 17:33:02.57	284.09	12.08	-38.0	-39.0	23.3	0.00e+00	123	31	101	1048576	54	5958
2026-01-05 17:33:03.58	283.95	12.01	-37.8	-38.7	23.5	0.00e+00	122	31	101	1048576	54	5779
2026-01-05 17:33:04.59	283.81	11.94	-37.9	-38.8	23.3	0.00e+00	115	31	101	1048576	54	5845
2026-01-05 17:33:05.60	283.68	11.87	-38.0	-38.9	23.3	0.00e+00	122	31	101	1048576	54	5910
2026-01-05 17:33:06.61	283.54	11.81	-37.8	-38.7	23.5	0.00e+00	123	31	101	1048576	54	5775
2026-01-05 17:33:07.62	283.41	11.74	-38.0	-38.9	23.3	0.00e+00	120	31	101	1048576	54	5926
2026-01-05 17:33:08.63	283.28	11.67	-38.1	-39.1	23.2	0.00e+00	123	31	101	1048576	54	6015
2026-01-05 17:33:09.64	283.14	11.60	-38.4	-39.4	22.9	0.00e+00	123	31	101	1048576	54	6232
2026-01-05 17:33:10.66	283.01	11.54	-38.6	-39.6	22.8	0.00e+00	123	31	101	1048576	54	6358
2026-01-05 17:33:11.67	282.88	11.47	-38.7	-39.7	22.6	0.00e+00	123	31	101	1048576	54	6463
2026-01-05 17:33:12.68	282.75	11.40	-38.6	-39.6	22.7	0.00e+00	120	31	101	1048576	54	6406
2026-01-05 17:33:13.69	282.62	11.34	-38.8	-39.8	22.5	0.00e+00	123	31	101	1048576	54	6533
2026-01-05 17:33:14.70	282.49	11.27	-38.6	-39.7	22.5	0.00e+00	123	31	101	1048576	54	6426
2026-01-05 17:33:15.71	282.36	11.20	-38.4	-39.4	22.7	0.00e+00	120	31	101	1048576	54	6263
2026-01-05 17:33:16.72	282.23	11.13	-38.3	-39.3	22.8	0.00e+00	123	31	101	1048576	54	6201
2026-01-05 17:33:17.73	282.10	11.07	-38.5	-39.5	22.7	0.00e+00	120	31	101	1048576	54	6278
2026-01-05 17:33:18.74	281.98	11.00	-38.2	-39.2	22.9	0.00e+00	123	31	101	1048576	54	6112
2026-01-05 17:33:19.75	281.85	10.93	-38.3	-39.3	23.0	0.00e+00	123	31	101	1048576	54	6166
2026-01-05 17:33:20.76	281.72	10.87	-38.4	-39.4	22.9	0.00e+00	120	31	101	1048576	54	6217
2026-01-05 17:33:21.78	281.60	10.80	-38.4	-39.4	22.9	0.00e+00	123	31	101	1048576	54	6256
2026-01-05 17:33:22.79	281.47	10.73	-38.5	-39.5	22.9	0.00e+00	122	31	101	1048576	54	6295
2026-01-05 17:33:23.80	281.35	10.66	-38.6	-39.6	22.8	0.00e+00	120	31	101	1048576	54	6363
2026-01-05 17:33:24.81	281.22	10.60	-38.6	-39.6	22.7	0.00e+00	123	31	101	1048576	54	6423
2026-01-05 17:33:25.82	281.10	10.53	-38.7	-39.7	22.6	0.00e+00	123	31	101	1048576	54	6465
2026-01-05 17:33:26.83	280.98	10.46	-38.7	-39.7	22.6	0.00e+00	122	31	101	1048576	54	6491
2026-01-05 17:33:27.84	280.85	10.40	-38.9	-39.9	22.5	0.00e+00	123	31	101	1048576	54	6594
2026-01-05 17:33:28.85	280.73	10.33	-38.9	-39.9	22.5	0.00e+00	120	31	101	1048576	54	6602
2026-01-05 17:33:29.86	280.61	10.26	-38.9	-39.9	22.4	0.00e+00	122	31	101	1048576	54	6643
2026-01-05 17:33:30.87	280.49	10.20	-38.9	-40.0	22.3	0.00e+00	122	31	101	1048576	54	6662
2026-01-05 17:33:31.88	280.37	10.13	-38.9	-40.0	22.3	0.00e+00	120	31	101	1048576	54	6670
2026-01-05 17:33:32.89	280.25	10.07	-39.0	-40.1	22.2	0.00e+00	123	31	101	1048576	54	6741
2026-01-05 17:33:33.91	280.13	10.00	-38.7	-39.8	22.4	0.00e+00	120	31	101	1048576	54	6507
2026-01-05 17:33:34.92	280.01	9.93	-39.0	-40.0	22.3	0.00e+00	122	31	101	1048576	54	6699
2026-01-05 17:33:35.93	279.90	9.87	-38.8	-39.8	22.4	0.00e+00	123	31	101	1048576	54	6535
2026-01-05 17:33:36.94	279.78	9.80	-38.7	-39.7	22.6	0.00e+00	123	31	101	1048576	54	6455
2026-01-05 17:33:37.95	279.66	9.73	-38.8	-39.8	22.5	0.00e+00	123	31	101	1048576	54	6509
2026-01-05 17:33:38.96	279.55	9.67	-38.8	-39.9	22.5	0.00e+00	123	31	101	1048576	54	6587
2026-01-05 17:33:39.97	279.43	9.60	-38.5	-39.5	22.7	0.00e+00	120	31	101	1048576	54	6336
2026-01-05 17:33:40.98	279.32	9.54	-38.6	-39.6	22.7	0.00e+00	123	31	101	1048576	54	6380
2026-01-05 17:33:42.00	279.20	9.47	-38.8	-39.8	22.5	0.00e+00	123	31	101	1048576	54	6516
2026-01-05 17:33:43.01	279.09	9.40	-38.9	-39.9	22.4	0.00e+00	120	31	101	1048576	54	6588
2026-01-05 17:33:44.02	278.97	9.34	-39.1	-40.1	22.2	0.00e+00	123	31	101	1048576	54	6790
2026-01-05 17:33:45.03	278.86	9.27	-39.0	-40.0	22.3	0.00e+00	123	31	101	1048576	54	6711
2026-01-05 17:33:46.04	278.75	9.21	-39.2	-40.2	22.2	0.00e+00	122	31	101	1048576	54	6853
2026-01-05 17:33:47.05	278.64	9.14	-39.1	-40.1	22.2	0.00e+00	123	31	101	1048576	56	6061
2026-01-05 17:33:48.06	278.53	9.08	-39.2	-40.2	22.2	0.00e+00	122	31	101	1048576	56	6120
2026-01-05 17:33:49.07	278.41	9.01	-39.2	-40.2	22.1	0.00e+00	123	31	101	1048576	56	6088
2026-01-05 17:33:50.08	278.30	8.95	-39.1	-40.2	22.2	0.00e+00	122	31	101	1048576	56	6080
2026-01-05 17:33:51.09	278.19	8.88	-38.9	-39.9	22.3	0.00e+00	123	31	101	1048576	56	5911
2026-01-05 17:33:52.10	278.09	8.82	-38.8	-39.8	22.4	0.00e+00	123	31	101	1048576	56	5854
2026-01-05 17:33:53.11	277.98	8.75	-38.9	-39.9	22.3	0.00e+00	123	31	101	1048576	56	5896
2026-01-05 17:33:54.12	277.87	8.69	-38.8	-39.8	22.5	0.00e+00	123	31	101	1048576	56	5816
2026-01-05 17:33:55.14	277.76	8.62	-38.8	-39.8	22.5	0.00e+00	122	31	101	1048576	56	5839
2026-01-05 17:33:56.15	277.65	8.56	-38.9	-39.9	22.4	0.00e+00	122	31	101	1048576	56	5890
2026-01-05 17:33:57.16	277.55	8.49	-38.8	-39.8	22.5	0.00e+00	122	31	101	1048576	56	5807
2026-01-05 17:33:58.17	277.44	8.43	-38.9	-39.9	22.4	0.00e+00	122	31	101	1048576	56	5889
2026-01-05 17:33:59.18	277.33	8.36	-38.9	-40.0	22.3	0.00e+00	123	31	101	1048576	56	5937
2026-01-05 17:34:00.19	277.23	8.30	-39.1	-40.1	22.2	0.00e+00	123	31	101	1048576	56	6035
2026-01-05 17:34:01.20	277.12	8.23	-39.0	-40.0	22.3	0.00e+00	121	31	101	1048576	56	5947
2026-01-05 17:34:02.21	277.02	8.17	-39.2	-40.3	22.0	0.00e+00	120	31	101	1048576	56	6149
2026-01-05 17:34:03.22	276.91	8.10	-39.3	-40.3	22.0	0.00e+00	122	31	101	1048576	56	6174
2026-01-05 17:34:04.24	276.81	8.04	-39.5	-40.5	21.9	0.00e+00	123	31	101	1048576	56	6335
2026-01-05 17:34:05.25	276.71	7.97	-39.5	-40.5	21.8	0.00e+00	123	31	101	1048576	56	6344
2026-01-05 17:34:06.26	276.60	7.91	-39.5	-40.6	21.8	0.00e+00	123	31	101	1048576	56	6360
2026-01-05 17:34:07.27	276.50	7.85	-39.5	-40.6	21.8	0.00e+00	123	31	101	1048576	56	6374
2026-01-05 17:34:08.28	276.40	7.78	-39.5	-40.6	21.8	0.00e+00	122	31	101	1048576	56	6359
2026-01-05 17:34:09.29	276.30	7.72	-39.6	-40.7	21.7	0.00e+00	120	31	101	1048576	56	6433
2026-01-05 17:34:10.31	276.20	7.65	-39.5	-40.6	21.7	0.00e+00	122	31	101	1048576	56	6384
2026-01-05 17:34:11.32	276.10	7.59	-39.1	-40.2	22.2	0.00e+00	123	31	101	1048576	56	6079
2026-01-05 17:34:12.33	276.00	7.53	-39.2	-40.2	22.1	0.00e+00	123	31	101	1048576	56	6092
2026-01-05 17:34:13.34	275.90	7.46	-39.0	-40.0	22.2	0.00e+00	122	31	101	1048576	56	5993
2026-01-05 17:34:14.35	275.80	7.40	-39.1	-40.1	22.1	0.00e+00	121	31	101	1048576	56	6057
2026-01-05 17:34:15.36	275.70	7.34	-39.0	-40.1	22.2	0.00e+00	123	31	101	1048576	56	6001
2026-01-05 17:34:16.37	275.60	7.27	-38.7	-39.7	22.4	0.00e+00	123	31	101	1048576	56	5760
2026-01-05 17:34:17.38	275.51	7.21	-38.8	-39.8	22.4	0.00e+00	120	31	101	1048576	56	5830
2026-01-05 17:34:18.39	275.41	7.15	-38.8	-39.8	22.4	0.00e+00	123	31	101	1048576	56	5856
2026-01-05 17:34:19.40	275.31	7.08	-38.8	-39.8	22.4	0.00e+00	121	31	101	1048576	56	5799
2026-01-05 17:34:20.41	275.22	7.02	-38.8	-39.8	22.3	0.00e+00	123	31	101	1048576	56	5843
2026-01-05 17:34:21.43	275.12	6.96	-39.0	-40.0	22.1	0.00e+00	122	31	101	1048576	56	5988
2026-01-05 17:34:22.44	275.02	6.89	-38.9	-39.8	22.3	0.00e+00	123	31	101	1048576	56	5857
2026-01-05 17:34:23.45	274.93	6.83	-39.1	-40.1	22.1	0.00e+00	120	31	101	1048576	56	6051
2026-01-05 17:34:24.46	274.83	6.77	-39.3	-40.4	21.8	0.00e+00	122	31	101	1048576	56	6231
2026-01-05 17:34:25.47	274.74	6.70	-39.5	-40.5	21.7	0.00e+00	122	31	101	1048576	56	6337
2026-01-05 17:34:26.48	274.65	6.64	-39.7	-40.8	21.5	0.00e+00	122	31	101	1048576	56	6511
2026-01-05 17:34:27.49	274.55	6.58	-39.8	-40.9	21.3	0.00e+00	122	31	101	1048576	56	6610
2026-01-05 17:34:28.50	274.46	6.52	-39.9	-41.1	21.2	0.00e+00	122	31	101	1048576	56	6745
2026-01-05 17:34:29.51	274.37	6.45	-40.0	-41.2	21.1	0.00e+00	122	31	101	1048576	58	6094
2026-01-05 17:34:30.53	274.27	6.39	-40.2	-41.4	20.9	0.00e+00	122	31	101	1048576	58	6206
2026-01-05 17:34:31.54	274.18	6.33	-40.3	-41.5	20.9	0.00e+00	123	31	101	1048576	58	6288
2026-01-05 17:34:32.55	274.09	6.27	-40.2	-41.4	20.9	0.00e+00	122	31	101	1048576	58	6236
2026-01-05 17:34:33.56	274.00	6.21	-40.2	-41.4	20.9	0.00e+00	123	31	101	1048576	58	6208
2026-01-05 17:34:34.57	273.91	6.14	-40.1	-41.3	21.0	0.00e+00	123	31	101	1048576	58	6161
2026-01-05 17:34:35.58	273.82	6.08	-39.9	-41.1	21.2	0.00e+00	122	31	101	1048576	58	5996
2026-01-05 17:34:36.59	273.73	6.02	-39.9	-41.0	21.2	0.00e+00	122	31	101	1048576	58	5951
2026-01-05 17:34:37.60	273.64	5.96	-39.7	-40.8	21.3	0.00e+00	122	31	101	1048576	58	5857
2026-01-05 17:34:38.61	273.55	5.90	-39.7	-40.8	21.4	0.00e+00	123	32	101	1048576	58	5805
2026-01-05 17:34:39.62	273.46	5.83	-39.4	-40.5	21.5	0.00e+00	122	31	101	1048576	58	5642
2026-01-05 17:34:40.63	273.37	5.77	-39.3	-40.3	21.8	0.00e+00	122	31	101	1048576	58	5530
2026-01-05 17:34:41.64	273.29	5.71	-39.0	-40.1	22.0	0.00e+00	122	31	101	1048576	56	6006
2026-01-05 17:34:42.65	273.20	5.65	-39.1	-40.1	21.9	0.00e+00	123	31	101	1048576	56	6051
2026-01-05 17:34:43.67	273.11	5.59	-39.1	-40.1	22.0	0.00e+00	122	31	101	1048576	56	6028
2026-01-05 17:34:44.68	273.02	5.53	-39.0	-40.0	22.0	0.00e+00	120	31	101	1048576	56	5967
2026-01-05 17:34:45.69	272.94	5.47	-39.0	-40.0	22.1	0.00e+00	122	31	101	1048576	56	5985
2026-01-05 17:34:46.70	272.85	5.40	-38.9	-39.9	22.0	0.00e+00	123	31	101	1048576	56	5921
2026-01-05 17:34:47.71	272.77	5.34	-39.0	-40.1	21.9	0.00e+00	122	31	101	1048576	56	6012
2026-01-05 17:34:48.72	272.68	5.28	-39.3	-40.3	21.7	0.00e+00	122	31	101	1048576	56	6202
2026-01-05 17:34:49.73	272.60	5.22	-39.3	-40.3	21.7	0.00e+00	123	31	101	1048576	56	6198
2026-01-05 17:34:50.74	272.51	5.16	-39.5	-40.5	21.5	0.00e+00	122	31	101	1048576	56	6325
2026-01-05 17:34:51.75	272.43	5.10	-39.5	-40.6	21.4	0.00e+00	123	32	101	1048576	56	6405
2026-01-05 17:34:52.76	272.34	5.04	-39.6	-40.7	21.3	0.00e+00	120	31	101	1048576	56	6445
2026-01-05 17:34:53.77	272.26	4.98	-39.8	-40.9	21.2	0.00e+00	123	31	101	1048576	56	6603
2026-01-05 17:34:54.79	272.18	4.92	-39.8	-40.9	21.1	0.00e+00	123	32	101	1048576	56	6639
2026-01-05 17:34:55.80	272.09	4.86	-39.9	-41.0	21.1	0.00e+00	123	32	101	1048576	56	6713
2026-01-05 17:34:56.81	272.01	4.80	-40.0	-41.1	21.0	0.00e+00	123	31	101	1048576	56	6799
2026-01-05 17:34:57.82	271.93	4.74	-40.0	-41.2	20.9	0.00e+00	122	31	101	1048576	56	6818
2026-01-05 17:34:58.83	271.85	4.68	-40.2	-41.4	20.7	0.00e+00	122	31	101	1048576	58	6245
2026-01-05 17:34:59.84	271.77	4.62	-40.3	-41.4	20.7	0.00e+00	120	31	101	1048576	58	6264
2026-01-05 17:35:00.85	271.69	4.56	-40.3	-41.5	20.5	0.00e+00	122	31	101	1048576	58	6331
2026-01-05 17:35:01.87	271.61	4.50	-40.4	-41.6	20.5	0.00e+00	122	31	101	1048576	58	6357
2026-01-05 17:35:02.88	271.52	4.44	-40.5	-41.7	20.4	0.00e+00	120	32	101	1048576	58	6461
2026-01-05 17:35:03.89	271.45	4.38	-40.5	-41.7	20.3	0.00e+00	122	31	101	1048576	58	6461
2026-01-05 17:35:04.90	271.37	4.32	-40.4	-41.6	20.4	0.00e+00	122	31	101	1048576	58	6410
2026-01-05 17:35:05.91	271.29	4.26	-40.5	-41.7	20.3	0.00e+00	123	31	101	1048576	58	6457
2026-01-05 17:35:06.92	271.21	4.20	-40.4	-41.6	20.3	0.00e+00	123	31	101	1048576	58	6357
2026-01-05 17:35:07.94	271.13	4.14	-40.5	-41.7	20.2	0.00e+00	122	31	101	1048576	58	6484
2026-01-05 17:35:08.95	271.05	4.08	-40.4	-41.6	20.4	0.00e+00	123	31	101	1048576	58	6396
2026-01-05 17:35:09.96	270.97	4.02	-40.3	-41.5	20.4	0.00e+00	123	31	101	1048576	58	6280
2026-01-05 17:35:10.97	270.89	3.96	-40.4	-41.6	20.3	0.00e+00	123	31	101	1048576	58	6382
2026-01-05 17:35:11.98	270.82	3.90	-40.3	-41.5	20.4	0.00e+00	123	31	101	1048576	58	6282
2026-01-05 17:35:12.99	270.74	3.84	-40.5	-41.7	20.2	0.00e+00	123	31	101	1048576	58	6448
2026-01-05 17:35:14.00	270.66	3.79	-40.3	-41.5	20.3	0.00e+00	123	31	101	1048576	58	6315
2026-01-05 17:35:15.02	270.59	3.73	-40.0	-41.2	20.6	0.00e+00	122	32	101	1048576	58	6086
2026-01-05 17:35:16.03	270.51	3.67	-40.5	-41.7	20.2	0.00e+00	120	31	101	1048576	58	6440
2026-01-05 17:35:17.04	270.43	3.61	-40.5	-41.7	20.2	0.00e+00	123	31	101	1048576	58	6464
2026-01-05 17:35:18.05	270.36	3.55	-40.6	-41.9	20.0	0.00e+00	122	31	101	1048576	58	6578
2026-01-05 17:35:19.06	270.28	3.49	-40.5	-41.7	20.2	0.00e+00	123	32	101	1048576	58	6440
2026-01-05 17:35:20.07	270.21	3.43	-40.6	-41.8	20.1	0.00e+00	122	31	101	1048576	58	6519
2026-01-05 17:35:21.08	270.14	3.38	-40.5	-41.8	20.0	0.00e+00	121	31	101	1048576	58	6517
2026-01-05 17:35:22.10	270.06	3.32	-40.7	-42.0	19.9	0.00e+00	123	31	101	1048576	58	6668
2026-01-05 17:35:23.11	269.99	3.26	-40.4	-41.7	20.1	0.00e+00	122	31	101	1048576	58	6427
2026-01-05 17:35:24.12	269.91	3.20	-40.5	-41.7	20.0	0.00e+00	123	31	101	1048576	58	6464
2026-01-05 17:35:25.13	269.84	3.14	-41.0	-42.3	19.5	0.00e+00	123	31	101	1048576	58	6886
2026-01-05 17:35:26.14	269.77	3.08	-41.0	-42.3	19.3	0.00e+00	120	31	101	1048576	58	6895
2026-01-05 17:35:27.15	269.69	3.03	-50.4	-63.2	3.5	1.52e+00	0	31	104	1048576	60	68694
2026-01-05 17:35:28.16	269.62	2.97	-50.8	-63.6	3.5	1.52e+00	0	31	104	1048576	60	71957
2026-01-05 17:35:29.17	269.55	2.91	-51.0	-63.9	3.5	1.52e+00	0	31	104	1048576	60	73961
2026-01-05 17:35:30.18	269.48	2.85	-51.1	-63.9	3.5	1.52e+00	0	31	104	1048576	60	74331
2026-01-05 17:35:31.19	269.41	2.80	-51.1	-64.1	3.5	1.52e+00	0	31	104	1048576	60	75574
2026-01-05 17:35:32.20	269.34	2.74	-51.1	-64.0	3.5	1.52e+00	0	31	104	1048576	60	75006
2026-01-05 17:35:33.22	269.26	2.68	-51.1	-64.1	3.5	1.52e+00	0	31	104	1048576	60	75593
2026-01-05 17:35:34.23	269.19	2.62	-51.2	-64.1	3.5	1.51e+00	0	31	104	1048576	60	75642
2026-01-05 17:35:35.24	269.12	2.57	-51.1	-64.1	3.5	1.52e+00	0	31	104	1048576	60	75634
2026-01-05 17:35:36.25	269.05	2.51	-51.0	-64.1	3.5	1.52e+00	0	31	104	1048576	60	75550
2026-01-05 17:35:37.26	268.98	2.45	-50.8	-64.0	3.5	1.52e+00	0	31	104	1048576	60	75202
2026-01-05 17:35:38.27	268.91	2.39	-51.1	-64.0	3.5	1.52e+00	0	31	104	1048576	60	74734
2026-01-05 17:35:39.28	268.85	2.34	-51.1	-63.9	3.5	1.52e+00	0	31	104	1048576	60	74388
2026-01-05 17:35:40.29	268.78	2.28	-51.0	-63.9	3.5	1.52e+00	0	31	104	1048576	60	74301
2026-01-05 17:35:41.31	268.71	2.22	-51.0	-63.9	3.5	1.51e+00	0	32	104	1048576	60	74207
2026-01-05 17:35:42.32	268.64	2.17	-51.0	-63.9	3.5	1.52e+00	0	32	104	1048576	60	74248
2026-01-05 17:35:43.33	268.57	2.11	-51.0	-63.9	3.5	1.52e+00	0	32	104	1048576	60	74570
2026-01-05 17:35:44.34	268.50	2.05	-51.1	-64.0	3.5	1.52e+00	0	32	104	1048576	60	74689
2026-01-05 17:35:45.35	268.44	2.00	-51.0	-63.9	3.5	1.52e+00	0	31	104	1048576	60	74383
2026-01-05 17:35:46.36	268.37	1.94	-51.0	-63.9	3.5	1.52e+00	0	31	104	1048576	60	74582
2026-01-05 17:35:47.37	268.30	1.88	-51.0	-63.9	3.5	1.52e+00	0	32	104	1048576	60	74513
2026-01-05 17:35:48.38	268.23	1.83	-51.0	-63.9	3.5	1.52e+00	0	31	104	1048576	60	74109
2026-01-05 17:35:49.40	268.17	1.77	-51.0	-63.9	3.5	1.52e+00	0	32	104	1048576	60	74604
2026-01-05 17:35:50.41	268.10	1.71	-51.0	-63.9	3.5	1.52e+00	0	31	104	1048576	60	74164
2026-01-05 17:35:51.42	268.04	1.66	-51.0	-63.9	3.5	1.52e+00	0	31	104	1048576	60	74130
2026-01-05 17:35:52.43	267.97	1.60	-51.0	-63.9	3.5	1.52e+00	0	32	104	1048576	60	74205
2026-01-05 17:35:53.44	267.90	1.55	-51.0	-64.0	3.5	1.52e+00	0	31	104	1048576	60	74664
2026-01-05 17:35:54.45	267.84	1.49	-51.0	-63.9	3.5	1.52e+00	0	31	104	1048576	60	74350
2026-01-05 17:35:55.46	267.77	1.44	-51.0	-63.9	3.5	1.51e+00	0	32	104	1048576	60	74269
2026-01-05 17:35:56.47	267.71	1.38	-51.0	-63.9	3.5	1.52e+00	0	32	104	1048576	60	74548
2026-01-05 17:35:57.48	267.65	1.32	-51.0	-63.9	3.5	1.52e+00	0	32	104	1048576	60	74171
2026-01-05 17:35:58.50	267.58	1.27	-51.0	-63.9	3.5	1.52e+00	0	32	104	1048576	60	74404
2026-01-05 17:35:59.51	267.52	1.21	-51.0	-63.9	3.5	1.52e+00	0	31	104	1048576	60	73925
2026-01-05 17:36:00.52	267.45	1.16	-51.0	-63.9	3.5	1.52e+00	0	32	104	1048576	60	74175
2026-01-05 17:36:01.53	267.39	1.10	-51.0	-63.9	3.5	1.52e+00	0	31	104	1048576	60	74142
2026-01-05 17:36:02.54	267.33	1.05	-51.0	-63.9	3.5	1.51e+00	0	31	104	1048576	60	74376
2026-01-05 17:36:03.55	267.26	0.99	-51.0	-63.9	3.5	1.52e+00	0	31	104	1048576	60	74274
2026-01-05 17:36:04.56	267.20	0.94	-51.0	-63.9	3.5	1.52e+00	0	31	104	1048576	60	74313
2026-01-05 17:36:05.57	267.14	0.88	-51.0	-63.8	3.5	1.52e+00	0	31	104	1048576	60	73730
2026-01-05 17:36:06.59	267.08	0.83	-51.0	-63.9	3.5	1.52e+00	0	31	104	1048576	60	74386
2026-01-05 17:36:07.60	267.01	0.77	-51.0	-63.9	3.5	1.52e+00	0	31	104	1048576	60	74312
2026-01-05 17:36:08.61	266.95	0.72	-51.0	-63.9	3.5	1.52e+00	0	31	104	1048576	60	74364
2026-01-05 17:36:09.62	266.89	0.66	-51.0	-63.9	3.5	1.52e+00	0	32	104	1048576	60	74321
2026-01-05 17:36:10.63	266.83	0.61	-51.0	-63.9	3.5	1.52e+00	0	31	104	1048576	60	73791
2026-01-05 17:36:11.64	266.77	0.55	-51.0	-63.9	3.5	1.52e+00	0	32	104	1048576	60	74283
2026-01-05 17:36:12.66	266.71	0.50	-51.0	-63.9	3.5	1.52e+00	0	32	104	1048576	60	74601
2026-01-05 17:36:13.67	266.65	0.44	-51.0	-63.9	3.5	1.52e+00	0	32	104	1048576	60	74387
2026-01-05 17:36:14.68	266.59	0.39	-51.0	-63.9	3.5	1.52e+00	0	32	104	1048576	60	74143
2026-01-05 17:36:15.69	266.53	0.33	-51.0	-63.9	3.5	1.51e+00	0	32	104	1048576	60	74364
2026-01-05 17:36:16.70	266.47	0.28	-51.0	-63.9	3.5	1.52e+00	0	32	104	1048576	60	74104
2026-01-05 17:36:17.71	266.41	0.22	-51.0	-63.9	3.5	1.52e+00	0	32	104	1048576	60	74191
2026-01-05 17:36:18.72	266.35	0.17	-51.0	-63.9	3.5	1.52e+00	0	32	104	1048576	60	74332
2026-01-05 17:36:19.74	266.29	0.12	-51.0	-63.9	3.5	1.52e+00	0	32	104	1048576	60	74435
2026-01-05 17:36:20.75	266.23	0.06	-51.0	-63.9	3.5	1.52e+00	0	32	104	1048576	60	74230
2026-01-05 17:36:21.76	266.17	0.01	-51.0	-63.9	3.5	1.52e+00	0	32	104	1048576	60	73979
2026-01-05 17:36:22.77	266.11	-0.05	-51.0	-63.9	3.5	1.52e+00	0	32	104	1048576	60	73929

#Closed at: 2026-01-05 17:36:23
#Recorded file [1 MB]: D:/lorett/data/35034_260105_202816.dat