passes_logs/2026/01/05/R4.6S_Anadyr_2ch/R4.6S_Anadyr_2ch__20260105_235731_NOAA_21_JPSS-2_rec.log

#Pass ID: 20260105_235731_NOAA 21 (JPSS-2)
#Satellite: NOAA 21 (JPSS-2)
#Configuration: NOAA-21
#almurnet v.1.7.20251203
#Start time: 2026-01-05 23:57:34

#Version: 2.2.20231116
#Station: R4.6S_Anadyr_2ch
#Location: 177.4865 lon 64.73178 lat
#TLE: 1 54234U 22150A   25350.97269056  .00000057  00000+0  47676-4 0  9992
#TLE: 2 54234  98.7466 287.2282 0002043  29.8355 330.2937 14.19525482160692

#Time	Az	El	Level	Level2	SNR	BER	BlckErr	Temp	State	Recorded	gain1	gain2
2026-01-05 23:57:34.89	149.89	0.20	-51.3	-62.8	3.3	1.54e+00	0	30	0	0	60	65547
2026-01-05 23:57:35.90	149.89	0.26	-51.3	-64.3	3.5	1.51e+00	0	30	104	0	60	77887
2026-01-05 23:57:36.91	149.88	0.33	-51.4	-64.5	3.5	1.52e+00	0	30	104	0	60	79040
2026-01-05 23:57:37.92	149.88	0.39	-51.4	-64.5	3.5	1.52e+00	0	30	104	0	60	79066
2026-01-05 23:57:38.93	149.87	0.45	-51.4	-64.4	3.5	1.52e+00	0	30	104	0	60	78810
2026-01-05 23:57:39.94	149.87	0.51	-51.4	-64.4	3.5	1.52e+00	0	31	104	0	60	78418
2026-01-05 23:57:40.95	149.87	0.57	-51.2	-64.3	3.5	1.52e+00	0	31	104	0	60	77724
2026-01-05 23:57:41.96	149.86	0.63	-51.2	-64.2	3.5	1.51e+00	0	31	104	0	60	76533
2026-01-05 23:57:42.97	149.86	0.70	-51.0	-64.1	3.5	1.52e+00	0	31	104	0	60	75708
2026-01-05 23:57:43.99	149.85	0.76	-50.8	-63.8	3.5	1.52e+00	0	31	104	0	60	73483
2026-01-05 23:57:45.00	149.85	0.82	-50.7	-63.7	3.5	1.52e+00	0	31	104	0	60	72147
2026-01-05 23:57:46.01	149.85	0.88	-50.5	-63.4	3.5	1.52e+00	0	31	104	0	60	70325
2026-01-05 23:57:47.02	149.84	0.95	-50.1	-63.1	3.5	1.52e+00	0	31	104	0	60	67476
2026-01-05 23:57:48.03	149.84	1.01	-49.8	-62.7	3.5	1.52e+00	0	31	104	0	60	64957
2026-01-05 23:57:49.04	149.83	1.07	-49.7	-62.7	3.5	1.52e+00	0	31	104	0	60	64829
2026-01-05 23:57:50.05	149.83	1.13	-49.8	-62.7	3.5	1.52e+00	0	31	104	0	60	64673
2026-01-05 23:57:51.06	149.82	1.20	-49.7	-62.7	3.5	1.52e+00	0	31	104	0	60	64716
2026-01-05 23:57:52.07	149.82	1.26	-49.7	-62.8	3.5	1.52e+00	0	31	104	0	60	65050
2026-01-05 23:57:53.08	149.82	1.32	-49.7	-62.7	3.5	1.52e+00	0	31	104	0	60	64462
2026-01-05 23:57:54.10	149.81	1.39	-49.8	-62.7	3.5	1.52e+00	0	31	104	0	60	64888
2026-01-05 23:57:55.11	149.81	1.45	-49.8	-62.7	3.5	1.52e+00	0	31	104	0	60	64674
2026-01-05 23:57:56.12	149.80	1.52	-49.7	-62.7	3.5	1.51e+00	0	31	104	0	60	64678
2026-01-05 23:57:57.13	149.80	1.58	-49.7	-62.8	3.5	1.52e+00	0	31	104	0	60	65064
2026-01-05 23:57:58.14	149.79	1.64	-49.7	-62.8	3.5	1.52e+00	0	31	104	0	60	65187
2026-01-05 23:57:59.15	149.79	1.71	-49.7	-62.8	3.5	1.52e+00	0	31	104	0	60	65082
2026-01-05 23:58:00.16	149.78	1.77	-49.7	-62.8	3.5	1.51e+00	0	31	104	0	60	65256
2026-01-05 23:58:01.17	149.78	1.84	-49.7	-62.7	3.5	1.52e+00	0	31	104	0	60	64802
2026-01-05 23:58:02.18	149.77	1.90	-49.7	-62.6	3.5	1.52e+00	0	31	104	0	60	64201
2026-01-05 23:58:03.20	149.77	1.97	-49.7	-62.6	3.5	1.52e+00	0	31	104	0	60	63622
2026-01-05 23:58:04.21	149.77	2.03	-49.7	-62.6	3.5	1.52e+00	0	31	104	0	60	63515
2026-01-05 23:58:05.22	149.76	2.10	-49.7	-62.5	3.5	1.52e+00	0	31	104	0	60	62889
2026-01-05 23:58:06.23	149.76	2.16	-49.7	-62.4	3.5	1.52e+00	0	31	104	0	60	62324
2026-01-05 23:58:07.24	149.75	2.23	-49.7	-62.3	3.5	1.51e+00	0	31	104	0	60	61578
2026-01-05 23:58:08.25	149.75	2.29	-49.7	-62.4	3.5	1.52e+00	0	31	104	0	60	62174
2026-01-05 23:58:09.26	149.74	2.36	-49.7	-62.3	3.5	1.51e+00	0	31	104	0	60	61892
2026-01-05 23:58:10.27	149.74	2.42	-49.7	-62.1	3.5	1.52e+00	0	31	104	0	60	60592
2026-01-05 23:58:11.28	149.73	2.49	-49.7	-62.2	3.5	1.52e+00	0	31	104	0	60	61068
2026-01-05 23:58:12.29	149.73	2.56	-49.7	-61.9	3.5	1.52e+00	0	31	104	0	60	58868
2026-01-05 23:58:13.31	149.72	2.62	-49.7	-62.0	3.5	1.52e+00	0	31	104	0	60	59767
2026-01-05 23:58:14.32	149.72	2.69	-49.7	-61.9	3.5	1.52e+00	0	31	104	0	60	59068
2026-01-05 23:58:15.33	149.71	2.76	-49.6	-61.9	3.5	1.52e+00	0	31	104	0	60	58818
2026-01-05 23:58:16.34	149.71	2.82	-49.6	-62.0	3.5	1.52e+00	0	31	104	0	60	59347
2026-01-05 23:58:17.35	149.70	2.89	-49.6	-62.0	3.5	1.51e+00	0	31	104	0	60	59751
2026-01-05 23:58:18.36	149.69	2.96	-49.7	-62.3	3.5	1.52e+00	0	31	104	0	60	62055
2026-01-05 23:58:19.37	149.69	3.02	-49.7	-62.2	3.5	1.52e+00	0	31	104	0	60	61077
2026-01-05 23:58:20.38	149.68	3.09	-49.6	-61.3	3.5	1.52e+00	0	31	104	0	60	55230
2026-01-05 23:58:21.40	149.68	3.16	-49.4	-59.6	4.1	1.50e+00	0	31	104	0	60	44971
2026-01-05 23:58:22.41	149.67	3.23	-49.1	-57.4	5.3	6.64e-01	123	31	104	0	60	35009
2026-01-05 23:58:23.42	149.67	3.29	-48.5	-54.0	7.1	1.61e-01	123	31	0	0	60	23789
2026-01-05 23:58:24.43	149.66	3.36	-47.9	-52.4	9.1	4.51e-02	123	31	102	1048576	60	19756
2026-01-05 23:58:25.44	149.66	3.43	-47.3	-51.1	10.6	7.00e-03	122	31	102	1048576	60	16965
2026-01-05 23:58:26.45	149.65	3.50	-46.5	-49.7	12.2	5.23e-04	123	31	102	1048576	60	14416
2026-01-05 23:58:27.46	149.65	3.57	-46.0	-48.7	13.3	5.26e-05	123	31	102	1048576	60	12914
2026-01-05 23:58:28.47	149.64	3.64	-45.7	-48.3	13.6	5.30e-06	123	31	102	1048576	60	12290
2026-01-05 23:58:29.48	149.63	3.71	-45.1	-47.4	14.5	1.50e-06	122	31	102	1048576	60	11130
2026-01-05 23:58:30.49	149.63	3.77	-48.9	-55.4	3.7	3.81e-05	122	31	102	1048576	60	27813
2026-01-05 23:58:31.51	149.62	3.84	-49.8	-62.4	3.5	1.49e+00	0	31	104	1048576	60	62649
2026-01-05 23:58:32.52	149.62	3.91	-45.8	-49.0	5.0	1.47e+00	0	31	104	1048576	60	13371
2026-01-05 23:58:33.53	149.61	3.98	-47.7	-52.8	12.7	1.46e+00	120	31	104	1048576	60	20594
2026-01-05 23:58:34.54	149.60	4.05	-46.6	-50.0	6.6	1.29e-05	122	31	0	1048576	60	14960
2026-01-05 23:58:35.55	149.60	4.12	-48.8	-56.0	4.7	1.50e+00	0	31	104	1048576	60	29977
2026-01-05 23:58:36.56	149.59	4.19	-44.1	-46.1	16.1	0.00e+00	123	31	0	1048576	60	9563
2026-01-05 23:58:37.57	149.59	4.26	-42.6	-44.1	18.1	0.00e+00	122	31	0	1048576	60	7627
2026-01-05 23:58:38.58	149.58	4.33	-41.6	-43.0	19.1	0.00e+00	123	31	0	1048576	60	6702
2026-01-05 23:58:39.59	149.57	4.40	-40.5	-41.8	20.4	0.00e+00	120	31	0	1048576	60	5798
2026-01-05 23:58:40.60	149.57	4.48	-40.7	-41.9	20.2	0.00e+00	123	31	0	1048576	60	5903
2026-01-05 23:58:41.61	149.56	4.55	-40.5	-41.8	20.4	0.00e+00	123	31	0	1048576	60	5796
2026-01-05 23:58:42.62	149.56	4.62	-40.3	-41.4	20.5	0.00e+00	123	31	0	1048576	58	6259
2026-01-05 23:58:43.63	149.55	4.69	-40.6	-41.8	20.2	0.00e+00	120	31	0	1048576	58	6532
2026-01-05 23:58:44.64	149.54	4.76	-40.6	-41.8	20.4	0.00e+00	122	31	0	1048576	58	6570
2026-01-05 23:58:45.65	149.54	4.83	-40.2	-41.4	20.6	0.00e+00	120	31	0	1048576	58	6251
2026-01-05 23:58:46.67	149.53	4.91	-40.6	-41.8	20.3	0.00e+00	123	31	0	1048576	58	6573
2026-01-05 23:58:47.68	149.52	4.98	-40.1	-41.3	20.9	0.00e+00	123	31	101	1048576	58	6170
2026-01-05 23:58:48.69	149.52	5.05	-40.2	-41.3	20.8	0.00e+00	122	31	101	1048576	58	6190
2026-01-05 23:58:49.70	149.51	5.12	-39.9	-41.1	21.1	0.00e+00	120	31	101	1048576	58	6015
2026-01-05 23:58:50.71	149.50	5.20	-39.8	-40.9	21.2	0.00e+00	123	31	101	1048576	58	5909
2026-01-05 23:58:51.72	149.50	5.27	-39.7	-40.8	21.3	0.00e+00	118	31	101	1048576	58	5858
2026-01-05 23:58:52.73	149.49	5.34	-39.8	-41.0	21.2	0.00e+00	123	31	101	1048576	58	5938
2026-01-05 23:58:53.74	149.48	5.42	-39.9	-41.0	21.2	0.00e+00	123	31	101	1048576	58	5946
2026-01-05 23:58:54.75	149.48	5.49	-39.9	-41.0	21.1	0.00e+00	123	31	101	1048576	58	5984
2026-01-05 23:58:55.77	149.47	5.56	-39.6	-40.7	21.4	0.00e+00	122	31	101	1048576	58	5771
2026-01-05 23:58:56.78	149.46	5.64	-39.7	-40.8	21.4	0.00e+00	123	31	101	1048576	58	5829
2026-01-05 23:58:57.79	149.46	5.71	-39.7	-40.8	21.3	0.00e+00	123	31	101	1048576	58	5850
2026-01-05 23:58:58.80	149.45	5.79	-39.8	-40.9	21.2	0.00e+00	122	31	101	1048576	58	5892
2026-01-05 23:58:59.81	149.44	5.86	-39.9	-41.0	21.2	0.00e+00	122	31	101	1048576	58	5958
2026-01-05 23:59:00.82	149.43	5.94	-39.5	-40.6	21.6	0.00e+00	123	31	101	1048576	58	5669
2026-01-05 23:59:01.83	149.43	6.01	-39.6	-40.7	21.5	0.00e+00	123	31	101	1048576	58	5757
2026-01-05 23:59:02.84	149.42	6.09	-39.6	-40.7	21.5	0.00e+00	122	31	101	1048576	58	5760
2026-01-05 23:59:03.85	149.41	6.16	-39.5	-40.6	21.7	0.00e+00	120	31	101	1048576	58	5688
2026-01-05 23:59:04.86	149.41	6.24	-39.6	-40.6	21.6	0.00e+00	123	31	101	1048576	58	5725
2026-01-05 23:59:05.87	149.40	6.31	-39.6	-40.7	21.6	0.00e+00	123	31	101	1048576	58	5740
2026-01-05 23:59:06.88	149.39	6.39	-39.5	-40.5	21.7	0.00e+00	123	31	101	1048576	58	5655
2026-01-05 23:59:07.89	149.38	6.47	-39.4	-40.5	21.7	0.00e+00	122	31	101	1048576	58	5642
2026-01-05 23:59:08.90	149.38	6.54	-39.4	-40.5	21.8	0.00e+00	123	31	101	1048576	58	5600
2026-01-05 23:59:09.92	149.37	6.62	-39.3	-40.4	21.8	0.00e+00	120	31	101	1048576	58	5533
2026-01-05 23:59:10.93	149.36	6.70	-39.3	-40.3	21.9	0.00e+00	122	31	101	1048576	58	5526
2026-01-05 23:59:11.94	149.35	6.77	-39.4	-40.5	21.7	0.00e+00	122	31	101	1048576	58	5619
2026-01-05 23:59:12.95	149.34	6.85	-39.3	-40.3	21.9	0.00e+00	120	31	101	1048576	58	5512
2026-01-05 23:59:13.96	149.34	6.93	-39.2	-40.3	22.0	0.00e+00	122	31	101	1048576	58	5470
2026-01-05 23:59:14.97	149.33	7.01	-39.3	-40.3	21.9	0.00e+00	123	31	101	1048576	58	5520
2026-01-05 23:59:15.98	149.32	7.09	-39.4	-40.4	21.9	0.00e+00	120	31	101	1048576	58	5577
2026-01-05 23:59:16.99	149.31	7.17	-39.1	-40.1	22.1	0.00e+00	125	31	101	1048576	56	6059
2026-01-05 23:59:18.00	149.30	7.24	-39.1	-40.2	22.1	0.00e+00	122	31	101	1048576	56	6073
2026-01-05 23:59:19.01	149.30	7.32	-39.1	-40.1	22.1	0.00e+00	123	31	101	1048576	56	6037
2026-01-05 23:59:20.02	149.29	7.40	-39.1	-40.1	22.1	0.00e+00	123	31	101	1048576	56	6063
2026-01-05 23:59:21.03	149.28	7.48	-39.2	-40.2	22.1	0.00e+00	122	31	101	1048576	56	6099
2026-01-05 23:59:22.05	149.27	7.56	-39.1	-40.1	22.2	0.00e+00	123	31	101	1048576	56	6037
2026-01-05 23:59:23.06	149.26	7.64	-39.3	-40.4	22.1	0.00e+00	123	31	101	1048576	56	6224
2026-01-05 23:59:24.07	149.25	7.72	-39.2	-40.2	22.1	0.00e+00	123	31	101	1048576	56	6126
2026-01-05 23:59:25.08	149.25	7.80	-39.0	-40.1	22.2	0.00e+00	123	31	101	1048576	56	6001
2026-01-05 23:59:26.09	149.24	7.88	-39.2	-40.3	22.0	0.00e+00	121	31	101	1048576	56	6154
2026-01-05 23:59:27.10	149.23	7.96	-39.1	-40.2	22.2	0.00e+00	123	31	101	1048576	56	6069
2026-01-05 23:59:28.11	149.22	8.05	-39.2	-40.3	22.1	0.00e+00	122	31	101	1048576	56	6154
2026-01-05 23:59:29.12	149.21	8.13	-38.9	-39.9	22.4	0.00e+00	122	32	101	1048576	56	5881
2026-01-05 23:59:30.13	149.20	8.21	-39.0	-40.1	22.3	0.00e+00	123	32	101	1048576	56	6011
2026-01-05 23:59:31.15	149.19	8.29	-39.0	-40.0	22.4	0.00e+00	118	31	101	1048576	56	5992
2026-01-05 23:59:32.16	149.18	8.37	-38.9	-40.0	22.3	0.00e+00	120	31	101	1048576	56	5944
2026-01-05 23:59:33.17	149.18	8.46	-38.8	-39.8	22.5	0.00e+00	123	32	101	1048576	56	5814
2026-01-05 23:59:34.18	149.17	8.54	-38.7	-39.7	22.6	0.00e+00	122	31	101	1048576	56	5784
2026-01-05 23:59:35.19	149.16	8.62	-38.8	-39.8	22.6	0.00e+00	122	31	101	1048576	56	5820
2026-01-05 23:59:36.20	149.15	8.71	-39.0	-40.0	22.4	0.00e+00	122	31	101	1048576	56	5948
2026-01-05 23:59:37.21	149.14	8.79	-38.7	-39.8	22.5	0.00e+00	123	32	101	1048576	56	5793
2026-01-05 23:59:38.22	149.13	8.87	-38.6	-39.6	22.7	0.00e+00	123	31	101	1048576	56	5687
2026-01-05 23:59:39.23	149.12	8.96	-38.6	-39.6	22.7	0.00e+00	122	31	101	1048576	56	5684
2026-01-05 23:59:40.24	149.11	9.04	-38.6	-39.6	22.7	0.00e+00	122	32	101	1048576	56	5669
2026-01-05 23:59:41.26	149.10	9.13	-38.7	-39.7	22.6	0.00e+00	120	32	101	1048576	56	5737
2026-01-05 23:59:42.27	149.09	9.21	-38.5	-39.5	22.8	0.00e+00	123	32	101	1048576	56	5600
2026-01-05 23:59:43.28	149.08	9.30	-38.5	-39.5	22.8	0.00e+00	123	31	101	1048576	56	5651
2026-01-05 23:59:44.29	149.07	9.38	-38.4	-39.4	22.9	0.00e+00	123	32	101	1048576	56	5562
2026-01-05 23:59:45.30	149.06	9.47	-38.4	-39.4	22.8	0.00e+00	122	32	101	1048576	56	5580
2026-01-05 23:59:46.31	149.05	9.56	-38.3	-39.3	23.0	0.00e+00	120	32	101	1048576	56	5517
2026-01-05 23:59:47.32	149.04	9.64	-38.3	-39.3	23.0	0.00e+00	123	31	101	1048576	56	5494
2026-01-05 23:59:48.33	149.03	9.73	-38.3	-39.3	23.0	0.00e+00	122	32	101	1048576	56	5489
2026-01-05 23:59:49.34	149.02	9.82	-38.2	-39.2	23.1	0.00e+00	123	31	101	1048576	56	5427
2026-01-05 23:59:50.35	149.01	9.91	-38.1	-39.1	23.1	0.00e+00	123	32	101	1048576	54	6042
2026-01-05 23:59:51.37	149.00	9.99	-38.2	-39.2	23.1	0.00e+00	122	31	101	1048576	54	6088
2026-01-05 23:59:52.38	148.99	10.08	-38.1	-39.0	23.2	0.00e+00	122	32	101	1048576	54	5978
2026-01-05 23:59:53.39	148.98	10.17	-38.0	-39.0	23.2	0.00e+00	123	32	101	1048576	54	5930
2026-01-05 23:59:54.40	148.97	10.26	-38.0	-39.0	23.2	0.00e+00	122	32	101	1048576	54	5967
2026-01-05 23:59:55.41	148.96	10.35	-38.2	-39.1	23.1	0.00e+00	123	32	101	1048576	54	6058
2026-01-05 23:59:56.42	148.95	10.44	-37.9	-38.9	23.2	0.00e+00	120	31	101	1048576	54	5897
2026-01-05 23:59:57.43	148.94	10.53	-38.1	-39.1	23.1	0.00e+00	122	32	101	1048576	54	6032
2026-01-05 23:59:58.44	148.92	10.62	-37.9	-38.9	23.3	0.00e+00	120	31	101	1048576	54	5887
2026-01-05 23:59:59.45	148.91	10.71	-38.0	-39.0	23.2	0.00e+00	122	31	101	1048576	54	5954
2026-01-06 00:00:00.46	148.90	10.80	-38.1	-39.1	23.2	0.00e+00	123	31	101	1048576	54	6039
2026-01-06 00:00:01.48	148.89	10.89	-37.8	-38.8	23.4	0.00e+00	123	32	101	1048576	54	5794
2026-01-06 00:00:02.49	148.88	10.98	-37.9	-38.9	23.4	0.00e+00	122	32	101	1048576	54	5881
2026-01-06 00:00:03.50	148.87	11.07	-37.9	-38.9	23.3	0.00e+00	122	31	101	1048576	54	5865
2026-01-06 00:00:04.51	148.86	11.17	-37.8	-38.8	23.4	0.00e+00	123	32	101	1048576	54	5835
2026-01-06 00:00:05.52	148.84	11.26	-38.1	-39.0	23.2	0.00e+00	123	32	101	1048576	54	5975
2026-01-06 00:00:06.53	148.83	11.35	-37.9	-38.8	23.5	0.00e+00	122	32	101	1048576	54	5842
2026-01-06 00:00:07.54	148.82	11.44	-37.6	-38.6	23.6	0.00e+00	123	32	101	1048576	54	5664
2026-01-06 00:00:08.55	148.81	11.54	-37.6	-38.6	23.6	0.00e+00	120	32	101	1048576	54	5670
2026-01-06 00:00:09.56	148.80	11.63	-37.7	-38.6	23.6	0.00e+00	123	32	101	1048576	54	5699
2026-01-06 00:00:10.57	148.78	11.73	-37.5	-38.5	23.7	0.00e+00	122	32	101	1048576	54	5605
2026-01-06 00:00:11.58	148.77	11.82	-37.5	-38.5	23.7	0.00e+00	122	32	101	1048576	54	5599
2026-01-06 00:00:12.60	148.76	11.92	-37.6	-38.5	23.7	0.00e+00	120	32	101	1048576	54	5624
2026-01-06 00:00:13.61	148.75	12.01	-37.5	-38.5	23.7	0.00e+00	123	32	101	1048576	54	5620
2026-01-06 00:00:14.62	148.74	12.11	-37.5	-38.4	23.7	0.00e+00	123	32	101	1048576	54	5585
2026-01-06 00:00:15.63	148.72	12.20	-37.4	-38.4	23.8	0.00e+00	123	32	101	1048576	54	5546
2026-01-06 00:00:16.64	148.71	12.30	-37.4	-38.4	23.8	0.00e+00	120	32	101	1048576	54	5531
2026-01-06 00:00:17.65	148.70	12.40	-37.4	-38.4	23.8	0.00e+00	123	32	101	1048576	54	5543
2026-01-06 00:00:18.66	148.68	12.49	-37.4	-38.3	23.8	0.00e+00	123	32	101	1048576	54	5520
2026-01-06 00:00:19.67	148.67	12.59	-37.3	-38.3	23.9	0.00e+00	123	32	101	1048576	54	5476
2026-01-06 00:00:20.68	148.66	12.69	-37.3	-38.3	23.9	0.00e+00	122	32	101	1048576	54	5484
2026-01-06 00:00:21.70	148.64	12.79	-37.5	-38.4	23.8	0.00e+00	123	32	101	1048576	54	5567
2026-01-06 00:00:22.71	148.63	12.89	-37.4	-38.3	23.9	0.00e+00	123	32	101	1048576	54	5494
2026-01-06 00:00:23.72	148.62	12.99	-37.3	-38.3	23.9	0.00e+00	122	32	101	1048576	54	5486
2026-01-06 00:00:24.73	148.60	13.09	-37.2	-38.1	24.0	0.00e+00	120	32	101	1048576	54	5388
2026-01-06 00:00:25.74	148.59	13.19	-37.3	-38.2	23.9	0.00e+00	122	32	101	1048576	54	5443
2026-01-06 00:00:26.75	148.58	13.29	-37.3	-38.2	24.0	0.00e+00	123	32	101	1048576	54	5433
2026-01-06 00:00:27.76	148.56	13.39	-37.3	-38.3	23.9	0.00e+00	122	32	101	1048576	54	5481
2026-01-06 00:00:28.77	148.55	13.49	-37.2	-38.1	24.1	0.00e+00	123	32	101	1048576	54	5385
2026-01-06 00:00:29.78	148.53	13.59	-37.2	-38.1	24.1	0.00e+00	123	32	101	1048576	54	5385
2026-01-06 00:00:30.79	148.52	13.69	-37.1	-38.1	24.1	0.00e+00	123	32	101	1048576	52	5999
2026-01-06 00:00:31.80	148.51	13.79	-37.2	-38.2	24.1	0.00e+00	123	32	101	1048576	52	6074
2026-01-06 00:00:32.81	148.49	13.90	-37.4	-38.3	23.9	0.00e+00	123	31	101	1048576	52	6171
2026-01-06 00:00:33.82	148.48	14.00	-37.2	-38.1	24.1	0.00e+00	123	32	101	1048576	52	6023
2026-01-06 00:00:34.84	148.46	14.11	-37.2	-38.1	24.0	0.00e+00	123	32	101	1048576	52	6040
2026-01-06 00:00:35.85	148.45	14.21	-37.2	-38.1	24.1	0.00e+00	122	32	101	1048576	52	6046
2026-01-06 00:00:36.86	148.43	14.31	-37.2	-38.1	24.0	0.00e+00	123	32	101	1048576	52	6037
2026-01-06 00:00:37.87	148.42	14.42	-37.3	-38.2	24.0	0.00e+00	123	32	101	1048576	52	6084
2026-01-06 00:00:38.88	148.40	14.52	-37.2	-38.1	24.1	0.00e+00	123	32	101	1048576	52	6046
2026-01-06 00:00:39.89	148.39	14.63	-37.2	-38.1	24.1	0.00e+00	123	32	101	1048576	52	6062
2026-01-06 00:00:40.90	148.37	14.74	-37.3	-38.2	24.0	0.00e+00	123	32	101	1048576	52	6104
2026-01-06 00:00:41.91	148.35	14.84	-37.2	-38.2	24.1	0.00e+00	123	32	101	1048576	52	6069
2026-01-06 00:00:42.92	148.34	14.95	-37.4	-38.3	24.0	0.00e+00	123	32	101	1048576	52	6156
2026-01-06 00:00:43.93	148.32	15.06	-37.3	-38.2	23.9	0.00e+00	122	32	101	1048576	52	6108
2026-01-06 00:00:44.95	148.31	15.17	-37.3	-38.2	24.0	0.00e+00	123	32	101	1048576	52	6090
2026-01-06 00:00:45.96	148.29	15.28	-37.4	-38.3	24.0	0.00e+00	122	32	101	1048576	52	6165
2026-01-06 00:00:46.97	148.27	15.39	-37.4	-38.3	23.9	0.00e+00	123	32	101	1048576	52	6195
2026-01-06 00:00:47.98	148.26	15.50	-37.4	-38.3	24.0	0.00e+00	123	32	101	1048576	52	6180
2026-01-06 00:00:48.99	148.24	15.61	-37.3	-38.2	24.0	0.00e+00	122	32	101	1048576	52	6113
2026-01-06 00:00:50.00	148.22	15.72	-37.3	-38.3	24.0	0.00e+00	123	32	101	1048576	52	6142
2026-01-06 00:00:51.01	148.21	15.83	-37.4	-38.3	24.0	0.00e+00	123	32	101	1048576	52	6176
2026-01-06 00:00:52.02	148.19	15.94	-37.4	-38.3	23.9	0.00e+00	123	32	101	1048576	52	6186
2026-01-06 00:00:53.03	148.17	16.05	-37.5	-38.5	23.8	0.00e+00	122	32	101	1048576	52	6285
2026-01-06 00:00:54.05	148.15	16.17	-37.5	-38.4	23.9	0.00e+00	120	32	101	1048576	52	6262
2026-01-06 00:00:55.06	148.14	16.28	-37.5	-38.4	23.9	0.00e+00	120	32	101	1048576	52	6272
2026-01-06 00:00:56.07	148.12	16.40	-37.5	-38.4	23.9	0.00e+00	123	32	101	1048576	52	6265
2026-01-06 00:00:57.08	148.10	16.51	-37.4	-38.3	23.9	0.00e+00	122	32	101	1048576	52	6193
2026-01-06 00:00:58.09	148.08	16.62	-37.5	-38.4	23.9	0.00e+00	122	32	101	1048576	52	6245
2026-01-06 00:00:59.10	148.06	16.74	-37.5	-38.5	23.8	0.00e+00	122	32	101	1048576	52	6287
2026-01-06 00:01:00.11	148.05	16.86	-37.5	-38.4	23.9	0.00e+00	123	32	101	1048576	52	6241
2026-01-06 00:01:01.12	148.03	16.97	-37.6	-38.6	23.8	0.00e+00	123	32	101	1048576	52	6352
2026-01-06 00:01:02.13	148.01	17.09	-37.5	-38.5	23.9	0.00e+00	123	32	101	1048576	52	6285
2026-01-06 00:01:03.14	147.99	17.21	-37.6	-38.5	23.8	0.00e+00	123	32	101	1048576	52	6337
2026-01-06 00:01:04.16	147.97	17.33	-37.5	-38.5	23.8	0.00e+00	120	32	101	1048576	52	6307
2026-01-06 00:01:05.17	147.95	17.45	-37.6	-38.6	23.7	0.00e+00	123	32	101	1048576	52	6354
2026-01-06 00:01:06.18	147.93	17.57	-37.6	-38.5	23.8	0.00e+00	122	32	101	1048576	52	6333
2026-01-06 00:01:07.19	147.91	17.69	-37.7	-38.6	23.6	0.00e+00	123	32	101	1048576	52	6423
2026-01-06 00:01:08.20	147.89	17.81	-37.7	-38.7	23.6	0.00e+00	123	32	101	1048576	52	6455
2026-01-06 00:01:09.21	147.87	17.93	-37.7	-38.7	23.6	0.00e+00	123	32	101	1048576	52	6438
2026-01-06 00:01:10.22	147.85	18.05	-37.5	-38.5	23.7	0.00e+00	122	32	101	1048576	52	6306
2026-01-06 00:01:11.23	147.83	18.17	-37.6	-38.6	23.7	0.00e+00	123	32	101	1048576	52	6371
2026-01-06 00:01:12.25	147.81	18.30	-37.6	-38.6	23.7	0.00e+00	123	32	101	1048576	52	6370
2026-01-06 00:01:13.26	147.79	18.42	-37.5	-38.5	23.7	0.00e+00	123	32	101	1048576	52	6295
2026-01-06 00:01:14.27	147.77	18.54	-37.6	-38.6	23.7	0.00e+00	123	32	101	1048576	52	6363
2026-01-06 00:01:15.28	147.75	18.67	-37.6	-38.6	23.7	0.00e+00	123	31	101	1048576	52	6359
2026-01-06 00:01:16.29	147.73	18.79	-37.6	-38.6	23.6	0.00e+00	123	32	101	1048576	52	6389
2026-01-06 00:01:17.30	147.71	18.92	-37.5	-38.5	23.8	0.00e+00	123	32	101	1048576	52	6300
2026-01-06 00:01:18.31	147.68	19.05	-37.6	-38.5	23.8	0.00e+00	123	32	101	1048576	52	6348
2026-01-06 00:01:19.32	147.66	19.17	-37.6	-38.5	23.8	0.00e+00	122	32	101	1048576	52	6339
2026-01-06 00:01:20.33	147.64	19.30	-37.5	-38.4	23.9	0.00e+00	122	32	101	1048576	52	6264
2026-01-06 00:01:21.34	147.62	19.43	-37.4	-38.3	23.9	0.00e+00	122	32	101	1048576	52	6204
2026-01-06 00:01:22.36	147.59	19.56	-37.3	-38.3	24.0	0.00e+00	120	32	101	1048576	52	6163
2026-01-06 00:01:23.36	147.57	19.69	-37.4	-38.3	23.9	0.00e+00	123	32	101	1048576	52	6189
2026-01-06 00:01:24.38	147.55	19.82	-37.4	-38.3	24.0	0.00e+00	122	32	101	1048576	52	6176
2026-01-06 00:01:25.39	147.52	19.95	-37.4	-38.3	24.0	0.00e+00	123	32	101	1048576	52	6170
2026-01-06 00:01:26.40	147.50	20.09	-37.4	-38.3	24.0	0.00e+00	120	32	101	1048576	52	6199
2026-01-06 00:01:27.41	147.48	20.22	-37.2	-38.1	24.2	0.00e+00	122	32	101	1048576	52	6013
2026-01-06 00:01:28.42	147.45	20.35	-37.0	-38.0	24.4	0.00e+00	120	32	101	1048576	52	5930
2026-01-06 00:01:29.43	147.43	20.49	-36.8	-37.7	24.5	0.00e+00	123	32	101	1048576	52	5782
2026-01-06 00:01:30.44	147.40	20.62	-37.0	-37.9	24.4	0.00e+00	123	32	101	1048576	52	5885
2026-01-06 00:01:31.45	147.38	20.76	-36.9	-37.9	24.4	0.00e+00	122	32	101	1048576	52	5866
2026-01-06 00:01:32.47	147.35	20.90	-36.7	-37.6	24.6	0.00e+00	123	32	101	1048576	52	5675
2026-01-06 00:01:33.48	147.33	21.03	-36.8	-37.7	24.6	0.00e+00	123	32	101	1048576	52	5745
2026-01-06 00:01:34.49	147.30	21.17	-36.6	-37.5	24.7	0.00e+00	120	32	101	1048576	52	5617
2026-01-06 00:01:35.50	147.28	21.31	-36.5	-37.4	24.8	0.00e+00	123	32	101	1048576	52	5533
2026-01-06 00:01:36.51	147.25	21.45	-36.5	-37.4	24.8	0.00e+00	122	32	101	1048576	52	5538
2026-01-06 00:01:37.52	147.23	21.59	-36.3	-37.2	24.9	0.00e+00	122	32	101	1048576	52	5448
2026-01-06 00:01:38.53	147.20	21.73	-36.4	-37.3	24.8	0.00e+00	123	32	101	1048576	52	5501
2026-01-06 00:01:39.54	147.17	21.87	-36.4	-37.3	24.8	0.00e+00	123	32	101	1048576	52	5495
2026-01-06 00:01:40.55	147.15	22.01	-36.1	-37.0	25.1	0.00e+00	121	32	101	1048576	50	5935
2026-01-06 00:01:41.56	147.12	22.16	-36.1	-37.0	25.0	0.00e+00	123	32	101	1048576	50	5981
2026-01-06 00:01:42.57	147.09	22.30	-36.0	-36.9	25.1	0.00e+00	123	32	101	1048576	50	5891
2026-01-06 00:01:43.59	147.06	22.45	-35.9	-36.8	25.2	0.00e+00	120	32	101	1048576	50	5795
2026-01-06 00:01:44.60	147.03	22.59	-35.9	-36.8	25.3	0.00e+00	122	32	101	1048576	50	5817
2026-01-06 00:01:45.61	147.01	22.74	-35.8	-36.7	25.3	0.00e+00	123	32	101	1048576	50	5749
2026-01-06 00:01:46.62	146.98	22.89	-35.9	-36.7	25.2	0.00e+00	122	32	101	1048576	50	5788
2026-01-06 00:01:47.63	146.95	23.04	-35.7	-36.6	25.3	0.00e+00	123	32	101	1048576	50	5668
2026-01-06 00:01:48.64	146.92	23.18	-35.7	-36.6	25.3	0.00e+00	123	32	101	1048576	50	5689
2026-01-06 00:01:49.65	146.89	23.33	-35.7	-36.6	25.3	0.00e+00	120	32	101	1048576	50	5662
2026-01-06 00:01:50.66	146.86	23.49	-35.7	-36.5	25.4	0.00e+00	123	32	101	1048576	50	5642
2026-01-06 00:01:51.67	146.83	23.64	-35.8	-36.7	25.3	0.00e+00	123	32	101	1048576	50	5756
2026-01-06 00:01:52.68	146.80	23.79	-35.7	-36.6	25.4	0.00e+00	123	32	101	1048576	50	5689
2026-01-06 00:01:53.70	146.77	23.94	-35.7	-36.5	25.3	0.00e+00	123	32	101	1048576	50	5656
2026-01-06 00:01:54.71	146.73	24.10	-35.7	-36.6	25.3	0.00e+00	123	32	101	1048576	50	5690
2026-01-06 00:01:55.72	146.70	24.25	-35.9	-36.7	25.3	0.00e+00	122	32	101	1048576	50	5775
2026-01-06 00:01:56.73	146.67	24.41	-35.9	-36.8	25.1	0.00e+00	123	32	101	1048576	50	5823
2026-01-06 00:01:57.74	146.64	24.57	-36.0	-36.8	25.2	0.00e+00	122	32	101	1048576	50	5854
2026-01-06 00:01:58.75	146.61	24.73	-36.0	-36.9	25.1	0.00e+00	123	32	101	1048576	50	5868
2026-01-06 00:01:59.76	146.57	24.88	-36.1	-37.0	25.1	0.00e+00	123	32	101	1048576	50	5941
2026-01-06 00:02:00.77	146.54	25.04	-36.2	-37.1	25.0	0.00e+00	121	32	101	1048576	50	6020
2026-01-06 00:02:01.79	146.50	25.21	-36.3	-37.2	24.9	0.00e+00	123	32	101	1048576	50	6077
2026-01-06 00:02:02.80	146.47	25.37	-36.4	-37.3	24.9	0.00e+00	122	32	101	1048576	50	6169
2026-01-06 00:02:03.81	146.44	25.53	-36.6	-37.5	24.8	0.00e+00	123	32	101	1048576	50	6299
2026-01-06 00:02:04.82	146.40	25.70	-36.6	-37.5	24.8	0.00e+00	121	32	101	1048576	50	6322
2026-01-06 00:02:05.83	146.37	25.86	-36.8	-37.7	24.6	0.00e+00	122	32	101	1048576	50	6483
2026-01-06 00:02:06.84	146.33	26.03	-36.9	-37.8	24.5	0.00e+00	120	32	101	1048576	50	6511
2026-01-06 00:02:07.85	146.29	26.19	-37.0	-37.9	24.5	0.00e+00	123	32	101	1048576	50	6582
2026-01-06 00:02:08.86	146.26	26.36	-37.0	-38.0	24.4	0.00e+00	123	32	101	1048576	50	6666
2026-01-06 00:02:09.87	146.22	26.53	-37.2	-38.2	24.3	0.00e+00	123	32	101	1048576	52	6065
2026-01-06 00:02:10.88	146.18	26.70	-37.3	-38.2	24.2	0.00e+00	123	32	101	1048576	52	6084
2026-01-06 00:02:11.89	146.14	26.87	-37.3	-38.3	24.1	0.00e+00	120	32	101	1048576	52	6137
2026-01-06 00:02:12.90	146.11	27.04	-37.4	-38.3	24.1	0.00e+00	122	32	101	1048576	52	6184
2026-01-06 00:02:13.92	146.07	27.22	-37.5	-38.4	24.0	0.00e+00	123	32	101	1048576	52	6231
2026-01-06 00:02:14.93	146.03	27.39	-37.4	-38.4	24.0	0.00e+00	123	32	101	1048576	52	6215
2026-01-06 00:02:15.94	145.99	27.57	-37.6	-38.6	23.9	0.00e+00	123	32	101	1048576	52	6373
2026-01-06 00:02:16.95	145.95	27.74	-37.6	-38.6	23.9	0.00e+00	123	32	101	1048576	52	6354
2026-01-06 00:02:17.96	145.91	27.92	-37.7	-38.6	23.8	0.00e+00	123	32	101	1048576	52	6394
2026-01-06 00:02:18.97	145.86	28.10	-37.9	-38.8	23.7	0.00e+00	123	32	101	1048576	52	6560
2026-01-06 00:02:19.98	145.82	28.28	-37.7	-38.6	23.8	0.00e+00	123	32	101	1048576	52	6389
2026-01-06 00:02:20.99	145.78	28.46	-37.8	-38.8	23.8	0.00e+00	122	32	101	1048576	52	6505
2026-01-06 00:02:22.00	145.74	28.64	-37.9	-38.9	23.7	0.00e+00	122	32	101	1048576	52	6585
2026-01-06 00:02:23.01	145.69	28.83	-37.9	-38.8	23.8	0.00e+00	122	32	101	1048576	52	6543
2026-01-06 00:02:24.02	145.65	29.01	-37.6	-38.6	24.0	0.00e+00	123	32	101	1048576	52	6357
2026-01-06 00:02:25.03	145.61	29.20	-37.5	-38.4	24.1	0.00e+00	123	32	101	1048576	52	6258
2026-01-06 00:02:26.04	145.56	29.38	-37.4	-38.4	24.1	0.00e+00	122	32	101	1048576	52	6214
2026-01-06 00:02:27.06	145.51	29.57	-37.3	-38.3	24.2	0.00e+00	122	32	101	1048576	52	6138
2026-01-06 00:02:28.07	145.47	29.76	-37.2	-38.1	24.4	0.00e+00	122	32	101	1048576	52	6002
2026-01-06 00:02:29.08	145.42	29.95	-37.0	-37.9	24.4	0.00e+00	122	32	101	1048576	52	5899
2026-01-06 00:02:30.09	145.37	30.15	-37.0	-37.9	24.5	0.00e+00	123	32	101	1048576	52	5905
2026-01-06 00:02:31.10	145.33	30.34	-36.7	-37.6	24.7	0.00e+00	122	32	101	1048576	52	5719
2026-01-06 00:02:32.11	145.28	30.53	-36.6	-37.5	24.8	0.00e+00	123	32	101	1048576	52	5651
2026-01-06 00:02:33.12	145.23	30.73	-36.5	-37.4	24.8	0.00e+00	122	32	101	1048576	52	5583
2026-01-06 00:02:34.13	145.18	30.93	-36.6	-37.5	24.8	0.00e+00	122	32	101	1048576	52	5612
2026-01-06 00:02:35.14	145.13	31.12	-36.4	-37.3	24.9	0.00e+00	123	32	101	1048576	52	5491
2026-01-06 00:02:36.15	145.08	31.32	-36.3	-37.2	25.0	0.00e+00	122	32	101	1048576	52	5419
2026-01-06 00:02:37.16	145.03	31.53	-36.3	-37.2	25.0	0.00e+00	122	32	101	1048576	52	5452
2026-01-06 00:02:38.17	144.97	31.73	-36.4	-37.3	25.0	0.00e+00	122	32	101	1048576	52	5503
2026-01-06 00:02:39.18	144.92	31.93	-36.4	-37.3	24.9	0.00e+00	123	32	101	1048576	52	5511
2026-01-06 00:02:40.19	144.87	32.14	-36.6	-37.4	24.8	0.00e+00	122	32	101	1048576	52	5586
2026-01-06 00:02:41.20	144.81	32.34	-36.6	-37.4	24.8	0.00e+00	123	32	101	1048576	52	5590
2026-01-06 00:02:42.21	144.76	32.55	-36.7	-37.5	24.9	0.00e+00	122	32	101	1048576	52	5644
2026-01-06 00:02:43.23	144.70	32.76	-36.8	-37.7	24.6	0.00e+00	123	32	101	1048576	52	5753
2026-01-06 00:02:44.24	144.64	32.97	-36.8	-37.7	24.7	0.00e+00	123	32	101	1048576	52	5758
2026-01-06 00:02:45.25	144.59	33.19	-37.0	-37.8	24.6	0.00e+00	123	32	101	1048576	52	5854
2026-01-06 00:02:46.26	144.53	33.40	-37.1	-38.0	24.5	0.00e+00	122	32	101	1048576	52	5962
2026-01-06 00:02:47.27	144.47	33.61	-37.1	-38.0	24.4	0.00e+00	122	32	101	1048576	52	5951
2026-01-06 00:02:48.28	144.41	33.83	-37.3	-38.2	24.3	0.00e+00	123	32	101	1048576	52	6088
2026-01-06 00:02:49.29	144.35	34.05	-37.6	-38.5	24.0	0.00e+00	122	32	101	1048576	52	6324
2026-01-06 00:02:50.31	144.28	34.27	-37.6	-38.6	24.1	0.00e+00	123	32	101	1048576	52	6352
2026-01-06 00:02:51.32	144.22	34.49	-37.9	-38.9	23.8	0.00e+00	123	32	101	1048576	52	6579
2026-01-06 00:02:52.33	144.16	34.71	-38.0	-38.9	23.6	0.00e+00	123	32	101	1048576	52	6636
2026-01-06 00:02:53.34	144.09	34.94	-38.2	-39.1	23.4	0.00e+00	123	32	101	1048576	54	6037
2026-01-06 00:02:54.35	144.03	35.16	-38.3	-39.2	23.4	0.00e+00	122	32	101	1048576	54	6121
2026-01-06 00:02:55.36	143.96	35.39	-38.4	-39.4	23.3	0.00e+00	123	32	101	1048576	54	6207
2026-01-06 00:02:56.37	143.89	35.62	-38.5	-39.5	23.2	0.00e+00	120	32	101	1048576	54	6314
2026-01-06 00:02:57.38	143.83	35.85	-38.6	-39.5	23.3	0.00e+00	122	32	101	1048576	54	6319
2026-01-06 00:02:58.39	143.76	36.08	-38.5	-39.5	23.3	0.00e+00	123	32	101	1048576	54	6284
2026-01-06 00:02:59.40	143.69	36.32	-38.5	-39.5	23.2	0.00e+00	123	32	101	1048576	54	6304
2026-01-06 00:03:00.41	143.61	36.55	-38.6	-39.6	23.2	0.00e+00	123	32	101	1048576	54	6356
2026-01-06 00:03:01.42	143.54	36.79	-38.6	-39.5	23.2	0.00e+00	122	32	101	1048576	54	6347
2026-01-06 00:03:02.43	143.47	37.03	-38.6	-39.6	23.2	0.00e+00	123	32	101	1048576	54	6383
2026-01-06 00:03:03.45	143.39	37.27	-38.7	-39.7	23.2	0.00e+00	123	32	101	1048576	54	6442
2026-01-06 00:03:04.46	143.32	37.51	-38.7	-39.7	23.1	0.00e+00	120	32	101	1048576	54	6475
2026-01-06 00:03:05.47	143.24	37.76	-38.8	-39.8	23.1	0.00e+00	123	32	101	1048576	54	6511
2026-01-06 00:03:06.48	143.16	38.00	-38.7	-39.7	23.2	0.00e+00	123	32	101	1048576	54	6463
2026-01-06 00:03:07.49	143.08	38.25	-38.7	-39.7	23.1	0.00e+00	123	32	101	1048576	54	6430
2026-01-06 00:03:08.50	143.00	38.50	-38.5	-39.4	23.3	0.00e+00	122	32	101	1048576	54	6263
2026-01-06 00:03:09.51	142.92	38.75	-38.6	-39.5	23.3	0.00e+00	123	32	101	1048576	54	6323
2026-01-06 00:03:10.52	142.83	39.00	-38.3	-39.3	23.5	0.00e+00	123	32	101	1048576	54	6142
2026-01-06 00:03:11.53	142.75	39.26	-38.5	-39.4	23.4	0.00e+00	122	32	101	1048576	54	6259
2026-01-06 00:03:12.54	142.66	39.51	-38.4	-39.3	23.4	0.00e+00	122	32	101	1048576	54	6167
2026-01-06 00:03:13.56	142.57	39.77	-38.5	-39.4	23.4	0.00e+00	122	32	101	1048576	54	6242
2026-01-06 00:03:14.57	142.48	40.03	-38.3	-39.3	23.4	0.00e+00	122	32	101	1048576	54	6145
2026-01-06 00:03:15.58	142.39	40.29	-38.2	-39.2	23.6	0.00e+00	122	32	101	1048576	54	6071
2026-01-06 00:03:16.59	142.30	40.56	-38.3	-39.2	23.6	0.00e+00	123	32	101	1048576	54	6115
2026-01-06 00:03:17.60	142.21	40.82	-38.5	-39.5	23.2	0.00e+00	123	32	101	1048576	54	6301
2026-01-06 00:03:18.61	142.11	41.09	-38.4	-39.4	23.4	0.00e+00	122	32	101	1048576	54	6227
2026-01-06 00:03:19.62	142.01	41.36	-38.7	-39.7	23.2	0.00e+00	123	32	101	1048576	54	6429
2026-01-06 00:03:20.63	141.91	41.63	-38.9	-39.9	22.9	0.00e+00	123	32	101	1048576	54	6609
2026-01-06 00:03:21.64	141.81	41.90	-39.0	-40.0	22.9	0.00e+00	123	32	101	1048576	54	6679
2026-01-06 00:03:22.65	141.71	42.18	-39.2	-40.1	22.8	0.00e+00	122	32	101	1048576	54	6788
2026-01-06 00:03:23.67	141.61	42.46	-39.4	-40.5	22.6	0.00e+00	123	32	101	1048576	56	6287
2026-01-06 00:03:24.68	141.50	42.74	-39.7	-40.7	22.3	0.00e+00	123	32	101	1048576	56	6485
2026-01-06 00:03:25.69	141.39	43.02	-39.8	-40.9	22.0	0.00e+00	123	32	101	1048576	56	6622
2026-01-06 00:03:26.70	141.28	43.30	-40.0	-41.1	21.9	0.00e+00	122	32	101	1048576	56	6735
2026-01-06 00:03:27.71	141.17	43.59	-39.9	-41.0	22.0	0.00e+00	122	32	101	1048576	56	6691
2026-01-06 00:03:28.72	141.06	43.87	-39.9	-41.0	22.1	0.00e+00	123	32	101	1048576	56	6673
2026-01-06 00:03:29.73	140.94	44.16	-39.9	-41.0	22.1	0.00e+00	120	32	101	1048576	56	6668
2026-01-06 00:03:30.74	140.82	44.45	-40.0	-41.1	21.9	0.00e+00	122	32	101	1048576	56	6731
2026-01-06 00:03:31.76	140.70	44.75	-40.0	-41.1	22.0	0.00e+00	120	32	101	1048576	58	6006
2026-01-06 00:03:32.77	140.58	45.04	-40.2	-41.3	21.9	0.00e+00	123	32	101	1048576	58	6152
2026-01-06 00:03:33.78	140.45	45.34	-40.1	-41.2	21.9	0.00e+00	122	32	101	1048576	58	6098
2026-01-06 00:03:34.79	140.32	45.64	-39.9	-41.0	22.3	0.00e+00	122	32	101	1048576	58	5929
2026-01-06 00:03:35.80	140.19	45.94	-39.7	-40.8	22.4	0.00e+00	123	32	101	1048576	58	5822
2026-01-06 00:03:36.81	140.06	46.24	-39.3	-40.3	22.6	0.00e+00	120	32	101	1048576	58	5526
2026-01-06 00:03:37.82	139.92	46.55	-39.0	-39.9	23.0	0.00e+00	123	32	101	1048576	56	5922
2026-01-06 00:03:38.83	139.79	46.85	-39.0	-40.0	22.9	0.00e+00	120	32	101	1048576	56	5983
2026-01-06 00:03:39.84	139.65	47.16	-38.7	-39.7	23.2	0.00e+00	123	32	101	1048576	56	5745
2026-01-06 00:03:40.85	139.50	47.47	-38.9	-39.9	23.1	0.00e+00	120	32	101	1048576	56	5880
2026-01-06 00:03:41.86	139.35	47.79	-39.2	-40.2	22.7	0.00e+00	123	32	101	1048576	56	6090
2026-01-06 00:03:42.88	139.20	48.11	-39.1	-40.1	22.9	0.00e+00	123	32	101	1048576	56	6017
2026-01-06 00:03:43.89	139.05	48.42	-39.0	-40.0	22.9	0.00e+00	122	32	101	1048576	56	5963
2026-01-06 00:03:44.90	138.89	48.74	-38.9	-39.9	23.0	0.00e+00	120	32	101	1048576	56	5916
2026-01-06 00:03:45.91	138.73	49.07	-38.7	-39.7	23.1	0.00e+00	122	32	101	1048576	56	5769
2026-01-06 00:03:46.92	138.57	49.39	-38.9	-39.9	23.0	0.00e+00	122	32	101	1048576	56	5863
2026-01-06 00:03:47.93	138.40	49.72	-38.6	-39.5	23.4	0.00e+00	120	32	101	1048576	56	5658
2026-01-06 00:03:48.94	138.23	50.04	-38.5	-39.4	23.5	0.00e+00	122	32	101	1048576	56	5578
2026-01-06 00:03:49.95	138.06	50.37	-38.5	-39.4	23.4	0.00e+00	120	32	101	1048576	56	5578
2026-01-06 00:03:50.96	137.88	50.71	-38.6	-39.5	23.3	0.00e+00	122	32	101	1048576	56	5650
2026-01-06 00:03:51.97	137.70	51.04	-38.8	-39.8	23.0	0.00e+00	122	32	101	1048576	56	5813
2026-01-06 00:03:52.98	137.51	51.38	-38.8	-39.7	23.1	0.00e+00	122	32	101	1048576	56	5791
2026-01-06 00:03:53.99	137.32	51.71	-38.4	-39.4	23.5	0.00e+00	123	32	101	1048576	56	5554
2026-01-06 00:03:55.01	137.12	52.06	-38.4	-39.4	23.4	0.00e+00	122	32	101	1048576	56	5561
2026-01-06 00:03:56.02	136.92	52.40	-38.2	-39.2	23.4	0.00e+00	122	32	101	1048576	56	5456
2026-01-06 00:03:57.03	136.72	52.74	-37.9	-38.9	23.7	0.00e+00	123	32	101	1048576	54	5875
2026-01-06 00:03:58.04	136.51	53.09	-37.7	-38.6	24.0	0.00e+00	123	32	101	1048576	54	5703
2026-01-06 00:03:59.05	136.29	53.44	-37.6	-38.5	24.0	0.00e+00	122	32	101	1048576	54	5648
2026-01-06 00:04:00.06	136.07	53.79	-37.3	-38.2	24.2	0.00e+00	122	32	101	1048576	54	5446
2026-01-06 00:04:01.07	135.85	54.14	-37.4	-38.3	24.1	0.00e+00	123	32	101	1048576	54	5477
2026-01-06 00:04:02.08	135.62	54.50	-37.4	-38.3	24.2	0.00e+00	123	32	101	1048576	54	5510
2026-01-06 00:04:03.09	135.38	54.85	-37.2	-38.1	24.3	0.00e+00	123	32	101	1048576	54	5378
2026-01-06 00:04:04.10	135.14	55.21	-37.3	-38.2	24.3	0.00e+00	122	32	101	1048576	54	5440
2026-01-06 00:04:05.12	134.88	55.58	-37.1	-38.0	24.4	0.00e+00	122	32	101	1048576	52	5957
2026-01-06 00:04:06.13	134.63	55.94	-36.6	-37.5	24.9	0.00e+00	122	32	101	1048576	52	5611
2026-01-06 00:04:07.14	134.36	56.30	-36.4	-37.3	25.0	0.00e+00	122	32	101	1048576	52	5494
2026-01-06 00:04:08.15	134.09	56.67	-36.0	-36.8	25.3	0.00e+00	123	32	101	1048576	50	5838
2026-01-06 00:04:09.16	133.82	57.03	-36.0	-36.9	25.1	0.00e+00	122	32	101	1048576	50	5863
2026-01-06 00:04:10.17	133.53	57.40	-36.2	-37.1	24.8	0.00e+00	123	32	101	1048576	50	6026
2026-01-06 00:04:11.18	133.24	57.77	-36.4	-37.3	24.7	0.00e+00	123	32	101	1048576	50	6201
2026-01-06 00:04:12.19	132.94	58.15	-36.4	-37.3	24.8	0.00e+00	121	32	101	1048576	50	6172
2026-01-06 00:04:13.20	132.63	58.52	-36.3	-37.1	25.0	0.00e+00	122	32	101	1048576	50	6040
2026-01-06 00:04:14.22	132.30	58.90	-36.2	-37.1	25.0	0.00e+00	123	32	101	1048576	50	6020
2026-01-06 00:04:15.22	131.98	59.27	-36.1	-37.0	25.2	0.00e+00	122	32	101	1048576	50	5952
2026-01-06 00:04:16.24	131.64	59.65	-36.0	-36.9	25.2	0.00e+00	123	32	101	1048576	50	5892
2026-01-06 00:04:17.25	131.29	60.03	-35.9	-36.7	25.3	0.00e+00	123	32	101	1048576	50	5789
2026-01-06 00:04:18.26	130.93	60.41	-36.1	-37.0	25.1	0.00e+00	123	32	101	1048576	50	5971
2026-01-06 00:04:19.27	130.56	60.80	-36.2	-37.1	25.0	0.00e+00	122	32	101	1048576	50	6045
2026-01-06 00:04:20.28	130.18	61.18	-36.0	-36.9	25.0	0.00e+00	122	32	101	1048576	50	5912
2026-01-06 00:04:21.29	129.79	61.56	-36.0	-36.9	25.2	0.00e+00	123	32	101	1048576	50	5904
2026-01-06 00:04:22.30	129.38	61.95	-36.1	-37.0	25.1	0.00e+00	120	32	101	1048576	50	5927
2026-01-06 00:04:23.31	128.96	62.34	-35.9	-36.8	25.3	0.00e+00	123	32	101	1048576	50	5802
2026-01-06 00:04:24.32	128.53	62.72	-35.5	-36.3	25.5	0.00e+00	123	32	101	1048576	50	5521
2026-01-06 00:04:25.33	128.08	63.11	-35.2	-36.0	25.7	0.00e+00	121	32	101	1048576	48	5967
2026-01-06 00:04:26.34	127.62	63.50	-35.3	-36.2	25.6	0.00e+00	123	32	101	1048576	48	6089
2026-01-06 00:04:27.36	127.14	63.89	-35.2	-36.1	25.7	0.00e+00	123	32	101	1048576	48	5998
2026-01-06 00:04:28.37	126.64	64.28	-35.3	-36.1	25.7	0.00e+00	122	32	101	1048576	48	6042
2026-01-06 00:04:29.38	126.13	64.67	-35.3	-36.2	25.5	0.00e+00	120	32	101	1048576	48	6104
2026-01-06 00:04:30.39	125.60	65.06	-35.5	-36.3	25.6	0.00e+00	123	32	101	1048576	48	6183
2026-01-06 00:04:31.40	125.06	65.45	-35.4	-36.3	25.6	0.00e+00	122	32	101	1048576	48	6160
2026-01-06 00:04:32.41	124.49	65.84	-35.6	-36.5	25.3	0.00e+00	123	32	101	1048576	48	6323
2026-01-06 00:04:33.42	123.90	66.23	-35.6	-36.5	25.5	0.00e+00	122	32	101	1048576	48	6290
2026-01-06 00:04:34.43	123.29	66.62	-35.7	-36.5	25.3	0.00e+00	122	32	101	1048576	48	6347
2026-01-06 00:04:35.45	122.65	67.01	-35.8	-36.7	25.2	0.00e+00	123	32	101	1048576	48	6428
2026-01-06 00:04:36.46	121.99	67.40	-35.4	-36.3	25.3	0.00e+00	123	32	101	1048576	48	6137
2026-01-06 00:04:37.47	121.31	67.78	-35.2	-36.1	25.5	0.00e+00	123	32	101	1048576	48	6008
2026-01-06 00:04:38.48	120.60	68.17	-34.9	-35.8	25.6	0.00e+00	123	32	101	1048576	48	5812
2026-01-06 00:04:39.49	119.87	68.55	-34.7	-35.5	25.9	0.00e+00	120	32	101	1048576	48	5634
2026-01-06 00:04:40.50	119.10	68.93	-34.6	-35.5	26.1	0.00e+00	123	32	101	1048576	48	5605
2026-01-06 00:04:41.51	118.31	69.31	-34.7	-35.5	26.0	0.00e+00	120	32	101	1048576	48	5625
2026-01-06 00:04:42.52	117.48	69.69	-34.8	-35.6	25.9	0.00e+00	123	32	101	1048576	48	5715
2026-01-06 00:04:43.53	116.62	70.06	-34.5	-35.3	26.1	0.00e+00	121	32	101	1048576	48	5528
2026-01-06 00:04:44.54	115.73	70.43	-34.7	-35.5	26.0	0.00e+00	122	32	101	1048576	48	5625
2026-01-06 00:04:45.56	114.78	70.80	-35.1	-36.0	25.8	0.00e+00	123	32	101	1048576	48	5930
2026-01-06 00:04:46.57	113.81	71.17	-35.2	-36.1	25.6	0.00e+00	123	32	101	1048576	48	6035
2026-01-06 00:04:47.58	112.80	71.53	-35.5	-36.3	25.5	0.00e+00	120	32	101	1048576	48	6202
2026-01-06 00:04:48.59	111.74	71.88	-35.6	-36.4	25.6	0.00e+00	123	32	101	1048576	48	6270
2026-01-06 00:04:49.60	110.64	72.23	-35.2	-36.1	25.6	0.00e+00	121	32	101	1048576	48	6020
2026-01-06 00:04:50.61	109.50	72.58	-35.2	-36.0	25.7	0.00e+00	122	32	101	1048576	48	5994
2026-01-06 00:04:51.62	108.30	72.92	-35.3	-36.1	25.7	0.00e+00	120	32	101	1048576	48	6056
2026-01-06 00:04:52.63	107.06	73.25	-35.4	-36.2	25.6	0.00e+00	123	32	101	1048576	48	6109
2026-01-06 00:04:53.64	105.76	73.57	-35.1	-35.9	25.8	0.00e+00	123	32	101	1048576	48	5866
2026-01-06 00:04:54.65	104.41	73.89	-35.3	-36.1	25.7	0.00e+00	123	32	101	1048576	48	6033
2026-01-06 00:04:55.67	102.99	74.21	-35.4	-36.2	25.7	0.00e+00	123	32	101	1048576	48	6105
2026-01-06 00:04:56.68	101.52	74.51	-35.6	-36.5	25.5	0.00e+00	122	32	101	1048576	48	6314
2026-01-06 00:04:57.69	99.99	74.80	-35.2	-36.1	25.7	0.00e+00	122	32	101	1048576	48	6011
2026-01-06 00:04:58.70	98.40	75.08	-35.2	-36.1	25.7	0.00e+00	120	32	101	1048576	48	6012
2026-01-06 00:04:59.71	96.75	75.35	-35.6	-36.5	25.5	0.00e+00	123	32	101	1048576	48	6291
2026-01-06 00:05:00.72	95.04	75.61	-35.8	-36.7	25.3	0.00e+00	120	32	101	1048576	48	6476
2026-01-06 00:05:01.73	93.26	75.86	-35.3	-36.1	25.5	0.00e+00	123	32	101	1048576	48	6039
2026-01-06 00:05:02.74	91.42	76.09	-35.2	-36.1	25.4	0.00e+00	121	32	101	1048576	48	5997
2026-01-06 00:05:03.75	89.52	76.31	-35.6	-36.4	25.3	0.00e+00	122	32	101	1048576	48	6272
2026-01-06 00:05:04.76	87.56	76.51	-35.7	-36.6	25.2	0.00e+00	123	32	101	1048576	48	6407
2026-01-06 00:05:05.78	85.51	76.70	-35.6	-36.5	25.4	0.00e+00	121	32	101	1048576	48	6292
2026-01-06 00:05:06.78	83.45	76.87	-35.1	-35.9	25.6	0.00e+00	123	32	101	1048576	48	5926
2026-01-06 00:05:07.80	81.29	77.03	-35.3	-36.1	25.6	0.00e+00	120	32	101	1048576	48	6039
2026-01-06 00:05:08.81	79.11	77.16	-35.3	-36.2	25.6	0.00e+00	123	32	101	1048576	48	6076
2026-01-06 00:05:09.82	76.87	77.28	-35.6	-36.5	25.3	0.00e+00	123	32	101	1048576	48	6319
2026-01-06 00:05:10.83	74.60	77.38	-35.8	-36.7	25.1	0.00e+00	123	32	101	1048576	48	6433
2026-01-06 00:05:11.84	72.30	77.46	-35.7	-36.6	24.6	0.00e+00	123	32	101	1048576	48	6413
2026-01-06 00:05:12.85	69.97	77.52	-36.0	-36.9	24.8	0.00e+00	123	32	101	1048576	48	6616
2026-01-06 00:05:13.86	67.62	77.56	-36.2	-37.1	24.9	0.00e+00	122	32	101	1048576	50	6021
2026-01-06 00:05:14.87	65.26	77.58	-36.2	-37.1	25.1	0.00e+00	123	32	101	1048576	50	6019
2026-01-06 00:05:15.88	62.89	77.58	-35.9	-36.8	25.1	0.00e+00	123	32	101	1048576	50	5802
2026-01-06 00:05:16.89	60.53	77.56	-35.6	-36.5	25.4	0.00e+00	123	32	101	1048576	50	5612
2026-01-06 00:05:17.90	58.19	77.51	-35.5	-36.4	25.5	0.00e+00	123	32	101	1048576	50	5545
2026-01-06 00:05:18.91	55.86	77.45	-35.4	-36.2	25.7	0.00e+00	120	32	101	1048576	50	5443
2026-01-06 00:05:19.93	53.54	77.36	-35.4	-36.3	25.5	0.00e+00	122	32	101	1048576	50	5489
2026-01-06 00:05:20.94	51.28	77.26	-35.7	-36.6	25.3	0.00e+00	123	32	101	1048576	50	5716
2026-01-06 00:05:21.95	49.05	77.14	-35.6	-36.5	25.4	0.00e+00	123	32	101	1048576	50	5620
2026-01-06 00:05:22.96	46.88	77.00	-35.4	-36.3	25.5	0.00e+00	122	32	101	1048576	50	5494
2026-01-06 00:05:23.97	44.75	76.84	-35.5	-36.4	25.6	0.00e+00	120	32	101	1048576	50	5538
2026-01-06 00:05:24.98	42.68	76.67	-35.7	-36.5	25.4	0.00e+00	123	32	101	1048576	50	5637
2026-01-06 00:05:25.99	40.67	76.47	-36.0	-36.9	25.3	0.00e+00	122	32	101	1048576	50	5888
2026-01-06 00:05:27.00	38.72	76.27	-36.2	-37.1	24.9	0.00e+00	123	32	101	1048576	50	6032
2026-01-06 00:05:28.01	36.83	76.05	-35.9	-36.9	25.1	0.00e+00	120	32	101	1048576	50	5861
2026-01-06 00:05:29.02	35.00	75.81	-35.8	-36.7	25.2	0.00e+00	122	32	101	1048576	50	5744
2026-01-06 00:05:30.03	33.24	75.56	-35.1	-36.0	25.7	0.00e+00	122	32	101	1048576	48	5947
2026-01-06 00:05:31.05	31.52	75.30	-35.1	-36.0	25.6	0.00e+00	123	32	101	1048576	48	5963
2026-01-06 00:05:32.06	29.88	75.03	-35.2	-36.0	25.6	0.00e+00	122	32	101	1048576	48	5964
2026-01-06 00:05:33.07	28.31	74.74	-35.1	-35.9	25.7	0.00e+00	123	32	101	1048576	48	5920
2026-01-06 00:05:34.08	26.79	74.45	-35.1	-36.0	25.5	0.00e+00	120	32	101	1048576	48	5937
2026-01-06 00:05:35.09	25.34	74.15	-35.1	-36.0	25.2	0.00e+00	122	32	101	1048576	48	5944
2026-01-06 00:05:36.10	23.94	73.84	-34.9	-35.8	25.5	0.00e+00	122	32	101	1048576	48	5802
2026-01-06 00:05:37.11	22.60	73.52	-35.0	-35.8	25.7	0.00e+00	123	32	101	1048576	48	5855
2026-01-06 00:05:38.12	21.32	73.19	-35.7	-36.6	25.2	0.00e+00	123	32	101	1048576	48	6405
2026-01-06 00:05:39.13	20.08	72.86	-36.2	-37.1	24.9	0.00e+00	123	32	101	1048576	50	6026
2026-01-06 00:05:40.14	18.90	72.52	-36.0	-36.9	24.6	0.00e+00	122	32	101	1048576	50	5880
2026-01-06 00:05:41.16	17.75	72.17	-35.6	-36.5	25.0	0.00e+00	122	32	101	1048576	50	5604
2026-01-06 00:05:42.17	16.66	71.82	-35.3	-36.1	25.5	0.00e+00	123	32	101	1048576	50	5373
2026-01-06 00:05:43.18	15.61	71.46	-35.8	-36.7	25.3	0.00e+00	122	32	101	1048576	50	5733
2026-01-06 00:05:44.19	14.61	71.10	-35.7	-36.5	25.4	0.00e+00	120	32	101	1048576	50	5658
2026-01-06 00:05:45.20	13.65	70.74	-35.7	-36.6	25.4	0.00e+00	122	32	101	1048576	50	5660
2026-01-06 00:05:46.21	12.72	70.37	-35.5	-36.4	25.0	0.00e+00	123	32	101	1048576	50	5575
2026-01-06 00:05:47.22	11.83	70.00	-35.0	-35.8	25.5	0.00e+00	123	32	101	1048576	48	5853
2026-01-06 00:05:48.23	10.98	69.63	-34.5	-35.3	26.0	0.00e+00	122	32	101	1048576	48	5530
2026-01-06 00:05:49.24	10.16	69.25	-34.1	-34.9	26.4	0.00e+00	123	32	101	1048576	48	5255
2026-01-06 00:05:50.26	9.36	68.87	-34.4	-35.3	26.0	0.00e+00	120	32	101	1048576	46	6147
2026-01-06 00:05:51.27	8.61	68.49	-35.9	-36.8	25.1	0.00e+00	122	32	101	1048576	48	6505
2026-01-06 00:05:52.28	7.88	68.10	-36.9	-37.9	23.8	0.00e+00	123	32	101	1048576	50	6585
2026-01-06 00:05:53.29	7.17	67.72	-36.4	-37.4	24.0	0.00e+00	122	32	101	1048576	50	6217
2026-01-06 00:05:54.30	6.50	67.34	-36.1	-37.0	24.1	0.00e+00	122	32	101	1048576	50	5948
2026-01-06 00:05:55.31	5.85	66.95	-35.5	-36.4	25.0	0.00e+00	120	32	101	1048576	50	5571
2026-01-06 00:05:56.32	5.22	66.56	-35.3	-36.1	25.7	0.00e+00	123	32	101	1048576	50	5404
2026-01-06 00:05:57.33	4.61	66.17	-36.2	-37.1	24.6	0.00e+00	122	32	101	1048576	50	6028
2026-01-06 00:05:58.34	4.03	65.79	-37.4	-38.5	23.5	0.00e+00	123	32	101	1048576	52	6282
2026-01-06 00:05:59.36	3.46	65.39	-37.6	-38.6	23.7	0.00e+00	123	32	101	1048576	52	6417
2026-01-06 00:06:00.37	2.92	65.00	-36.7	-37.6	24.6	0.00e+00	122	32	101	1048576	52	5678
2026-01-06 00:06:01.38	2.39	64.62	-35.9	-36.8	25.1	0.00e+00	123	32	101	1048576	52	5182
2026-01-06 00:06:02.39	1.89	64.23	-36.1	-37.0	25.2	0.00e+00	123	32	101	1048576	50	5958
2026-01-06 00:06:03.40	1.39	63.84	-35.7	-36.6	25.4	0.00e+00	122	32	101	1048576	50	5698
2026-01-06 00:06:04.41	0.92	63.45	-36.6	-37.5	24.3	0.00e+00	122	32	101	1048576	50	6294
2026-01-06 00:06:05.42	0.46	63.06	-37.2	-38.1	23.6	0.00e+00	122	32	101	1048576	52	6056
2026-01-06 00:06:06.43	0.02	62.68	-37.8	-38.8	22.9	0.00e+00	122	32	101	1048576	52	6501
2026-01-06 00:06:07.45	359.58	62.29	-38.3	-39.3	23.2	0.00e+00	123	32	101	1048576	54	6188
2026-01-06 00:06:08.46	359.17	61.90	-36.7	-37.6	24.6	0.00e+00	122	32	101	1048576	52	5698
2026-01-06 00:06:09.47	358.77	61.52	-35.5	-36.3	25.1	0.00e+00	123	32	101	1048576	50	5527
2026-01-06 00:06:10.48	358.38	61.14	-35.6	-36.5	25.2	0.00e+00	123	32	101	1048576	50	5615
2026-01-06 00:06:11.49	358.00	60.75	-35.8	-36.7	25.2	0.00e+00	120	32	101	1048576	50	5730
2026-01-06 00:06:12.50	357.63	60.37	-36.5	-37.4	24.6	0.00e+00	123	32	101	1048576	50	6251
2026-01-06 00:06:13.51	357.27	59.99	-37.4	-38.4	23.3	0.00e+00	120	32	101	1048576	52	6245
2026-01-06 00:06:14.52	356.93	59.61	-38.4	-39.5	22.5	0.00e+00	122	32	101	1048576	54	6319
2026-01-06 00:06:15.53	356.59	59.24	-38.7	-39.8	22.5	0.00e+00	120	32	101	1048576	54	6520
2026-01-06 00:06:16.54	356.26	58.86	-38.5	-39.5	23.0	0.00e+00	122	32	101	1048576	54	6337
2026-01-06 00:06:17.55	355.95	58.49	-37.8	-38.8	23.8	0.00e+00	123	32	101	1048576	54	5829
2026-01-06 00:06:18.56	355.64	58.12	-36.3	-37.2	24.3	0.00e+00	122	32	101	1048576	52	5438
2026-01-06 00:06:19.57	355.34	57.75	-35.5	-36.3	25.5	0.00e+00	122	32	101	1048576	50	5514
2026-01-06 00:06:20.59	355.05	57.37	-36.2	-37.1	24.8	0.00e+00	123	32	101	1048576	50	6000
2026-01-06 00:06:21.60	354.76	57.00	-37.7	-38.7	23.5	0.00e+00	123	32	101	1048576	52	6441
2026-01-06 00:06:22.61	354.49	56.64	-38.8	-39.9	22.7	0.00e+00	120	32	101	1048576	54	6598
2026-01-06 00:06:23.62	354.22	56.28	-38.9	-39.9	22.8	0.00e+00	123	32	101	1048576	54	6621
2026-01-06 00:06:24.63	353.96	55.91	-38.3	-39.3	23.3	0.00e+00	120	32	101	1048576	54	6140
2026-01-06 00:06:25.64	353.70	55.55	-37.7	-38.6	23.9	0.00e+00	122	32	101	1048576	54	5711
2026-01-06 00:06:26.65	353.45	55.19	-37.4	-38.4	24.1	0.00e+00	122	32	101	1048576	54	5533
2026-01-06 00:06:27.66	353.21	54.84	-37.2	-38.1	24.4	0.00e+00	122	32	101	1048576	54	5369
2026-01-06 00:06:28.67	352.97	54.48	-36.6	-37.5	24.8	0.00e+00	123	32	101	1048576	52	5605
2026-01-06 00:06:29.68	352.74	54.13	-36.7	-37.6	24.7	0.00e+00	123	32	101	1048576	52	5694
2026-01-06 00:06:30.70	352.52	53.78	-37.4	-38.3	24.2	0.00e+00	120	32	101	1048576	52	6137
2026-01-06 00:06:31.71	352.30	53.43	-38.3	-39.2	23.1	0.00e+00	123	32	101	1048576	54	6128
2026-01-06 00:06:32.72	352.09	53.08	-39.4	-40.5	22.1	0.00e+00	120	32	101	1048576	56	6297
2026-01-06 00:06:33.73	351.88	52.73	-39.8	-40.9	22.0	0.00e+00	122	32	101	1048576	56	6584
2026-01-06 00:06:34.74	351.67	52.39	-39.4	-40.4	22.2	0.00e+00	120	32	101	1048576	56	6257
2026-01-06 00:06:35.75	351.47	52.05	-39.2	-40.2	22.3	0.00e+00	123	32	101	1048576	56	6122
2026-01-06 00:06:36.76	351.28	51.71	-38.7	-39.7	22.8	0.00e+00	122	32	101	1048576	56	5765
2026-01-06 00:06:37.77	351.09	51.37	-37.9	-38.9	23.7	0.00e+00	123	32	101	1048576	54	5874
2026-01-06 00:06:38.78	350.91	51.04	-37.8	-38.8	23.8	0.00e+00	123	32	101	1048576	54	5798
2026-01-06 00:06:39.80	350.72	50.70	-38.2	-39.2	23.5	0.00e+00	123	32	101	1048576	54	6119
2026-01-06 00:06:40.81	350.54	50.37	-38.5	-39.5	23.3	0.00e+00	123	32	101	1048576	54	6323
2026-01-06 00:06:41.82	350.37	50.04	-38.7	-39.7	23.0	0.00e+00	122	32	101	1048576	54	6478
2026-01-06 00:06:42.83	350.20	49.72	-39.0	-40.0	22.9	0.00e+00	121	32	101	1048576	54	6666
2026-01-06 00:06:43.84	350.04	49.39	-39.0	-40.0	22.8	0.00e+00	123	32	101	1048576	54	6669
2026-01-06 00:06:44.85	349.87	49.07	-39.1	-40.1	22.6	0.00e+00	120	32	101	1048576	56	6053
2026-01-06 00:06:45.86	349.71	48.75	-39.5	-40.5	22.4	0.00e+00	123	32	101	1048576	56	6310
2026-01-06 00:06:46.87	349.56	48.43	-39.5	-40.5	22.4	0.00e+00	123	32	101	1048576	56	6335
2026-01-06 00:06:47.88	349.41	48.12	-39.4	-40.5	22.3	0.00e+00	123	32	101	1048576	56	6298
2026-01-06 00:06:48.90	349.26	47.80	-39.5	-40.5	22.3	0.00e+00	120	32	101	1048576	56	6301
2026-01-06 00:06:49.91	349.11	47.49	-38.5	-39.5	23.0	0.00e+00	122	32	101	1048576	56	5601
2026-01-06 00:06:50.92	348.97	47.18	-38.5	-39.5	23.3	0.00e+00	123	32	101	1048576	56	5605
2026-01-06 00:06:51.93	348.83	46.87	-38.5	-39.4	23.3	0.00e+00	123	32	101	1048576	56	5578
2026-01-06 00:06:52.94	348.69	46.56	-38.8	-39.8	23.0	0.00e+00	123	32	101	1048576	56	5811
2026-01-06 00:06:53.95	348.55	46.26	-38.7	-39.6	23.0	0.00e+00	123	32	101	1048576	56	5724
2026-01-06 00:06:54.96	348.42	45.96	-38.6	-39.6	23.0	0.00e+00	123	32	101	1048576	56	5690
2026-01-06 00:06:55.97	348.29	45.66	-38.7	-39.7	23.1	0.00e+00	123	32	101	1048576	56	5751
2026-01-06 00:06:56.98	348.17	45.36	-39.0	-40.0	22.9	0.00e+00	122	32	101	1048576	56	5931
2026-01-06 00:06:57.99	348.04	45.07	-39.6	-40.6	22.4	0.00e+00	123	32	101	1048576	56	6387
2026-01-06 00:06:59.00	347.92	44.77	-40.3	-41.4	21.7	0.00e+00	123	32	101	1048576	58	6223
2026-01-06 00:07:00.02	347.80	44.48	-41.0	-42.2	21.0	0.00e+00	120	32	101	1048576	58	6831
2026-01-06 00:07:01.02	347.68	44.19	-41.4	-42.7	20.6	0.00e+00	123	32	101	1048576	60	6460
2026-01-06 00:07:02.03	347.57	43.91	-41.8	-43.1	20.2	0.00e+00	121	32	101	1048576	60	6744
2026-01-06 00:07:03.04	347.45	43.62	-41.9	-43.2	20.3	0.00e+00	123	32	101	1048576	60	6824
2026-01-06 00:07:04.06	347.34	43.33	-41.1	-42.3	20.9	0.00e+00	121	32	101	1048576	60	6178
2026-01-06 00:07:05.07	347.23	43.05	-40.9	-42.0	21.2	0.00e+00	122	32	101	1048576	60	5993
2026-01-06 00:07:06.08	347.12	42.77	-39.8	-40.8	22.1	0.00e+00	120	32	101	1048576	58	5853
2026-01-06 00:07:07.09	347.02	42.50	-39.4	-40.4	22.5	0.00e+00	123	32	101	1048576	58	5570
2026-01-06 00:07:08.10	346.91	42.22	-39.2	-40.2	22.7	0.00e+00	121	32	101	1048576	58	5456
2026-01-06 00:07:09.11	346.81	41.95	-38.7	-39.6	23.3	0.00e+00	123	32	101	1048576	56	5708
2026-01-06 00:07:10.12	346.71	41.67	-38.9	-39.8	23.3	0.00e+00	123	32	101	1048576	56	5829
2026-01-06 00:07:11.13	346.61	41.40	-38.2	-39.1	23.6	0.00e+00	123	32	101	1048576	56	5398
2026-01-06 00:07:12.14	346.52	41.14	-38.8	-39.8	23.2	0.00e+00	120	32	101	1048576	56	5796
2026-01-06 00:07:13.15	346.42	40.87	-39.4	-40.4	22.6	0.00e+00	122	32	101	1048576	56	6252
2026-01-06 00:07:14.16	346.33	40.61	-39.7	-40.8	22.3	0.00e+00	120	32	101	1048576	56	6502
2026-01-06 00:07:15.17	346.24	40.34	-39.8	-40.9	22.1	0.00e+00	122	32	101	1048576	56	6585
2026-01-06 00:07:16.19	346.15	40.08	-39.7	-40.8	22.3	0.00e+00	122	32	101	1048576	56	6507
2026-01-06 00:07:17.20	346.06	39.82	-39.7	-40.7	22.2	0.00e+00	123	32	101	1048576	56	6498
2026-01-06 00:07:18.21	345.97	39.57	-39.5	-40.6	22.3	0.00e+00	122	32	101	1048576	56	6354
2026-01-06 00:07:19.22	345.88	39.31	-39.5	-40.6	22.4	0.00e+00	123	32	101	1048576	56	6359
2026-01-06 00:07:20.23	345.80	39.06	-39.3	-40.3	22.7	0.00e+00	123	32	101	1048576	56	6154
2026-01-06 00:07:21.24	345.72	38.81	-39.3	-40.3	22.7	0.00e+00	123	32	101	1048576	56	6177
2026-01-06 00:07:22.25	345.64	38.56	-39.2	-40.3	22.6	0.00e+00	122	32	101	1048576	56	6136
2026-01-06 00:07:23.26	345.55	38.31	-39.0	-39.9	22.9	0.00e+00	123	32	101	1048576	56	5926
2026-01-06 00:07:24.27	345.48	38.06	-39.0	-40.0	22.9	0.00e+00	120	32	101	1048576	56	5946
2026-01-06 00:07:25.28	345.40	37.82	-39.0	-40.1	22.9	0.00e+00	123	32	101	1048576	56	5999
2026-01-06 00:07:26.30	345.32	37.57	-39.0	-40.0	22.9	0.00e+00	120	32	101	1048576	56	5961
2026-01-06 00:07:27.31	345.24	37.33	-38.8	-39.8	23.1	0.00e+00	123	32	101	1048576	56	5819
2026-01-06 00:07:28.32	345.17	37.09	-38.7	-39.6	23.2	0.00e+00	122	32	101	1048576	56	5718
2026-01-06 00:07:29.33	345.10	36.86	-38.2	-39.2	23.6	0.00e+00	122	32	101	1048576	56	5412
2026-01-06 00:07:30.34	345.02	36.62	-38.1	-39.0	23.7	0.00e+00	120	32	101	1048576	54	5962
2026-01-06 00:07:31.35	344.95	36.39	-38.0	-39.0	23.7	0.00e+00	122	32	101	1048576	54	5958
2026-01-06 00:07:32.36	344.88	36.15	-38.0	-38.9	23.7	0.00e+00	122	32	101	1048576	54	5881
2026-01-06 00:07:33.37	344.81	35.92	-37.8	-38.7	23.9	0.00e+00	122	32	101	1048576	54	5756
2026-01-06 00:07:34.38	344.75	35.69	-37.9	-38.8	23.8	0.00e+00	123	32	101	1048576	54	5834
2026-01-06 00:07:35.39	344.68	35.46	-37.9	-38.9	23.7	0.00e+00	120	32	101	1048576	54	5862
2026-01-06 00:07:36.40	344.61	35.24	-38.0	-39.0	23.7	0.00e+00	123	32	101	1048576	54	5928
2026-01-06 00:07:37.41	344.55	35.01	-38.0	-39.0	23.7	0.00e+00	122	32	101	1048576	54	5962
2026-01-06 00:07:38.42	344.48	34.79	-37.8	-38.8	23.8	0.00e+00	122	32	101	1048576	54	5806
2026-01-06 00:07:39.43	344.42	34.57	-37.9	-38.9	23.7	0.00e+00	123	32	101	1048576	54	5859
2026-01-06 00:07:40.45	344.36	34.35	-37.9	-38.9	23.7	0.00e+00	122	32	101	1048576	54	5877
2026-01-06 00:07:41.46	344.30	34.13	-37.7	-38.6	23.9	0.00e+00	123	32	101	1048576	54	5687
2026-01-06 00:07:42.47	344.24	33.91	-37.5	-38.4	24.0	0.00e+00	120	32	101	1048576	54	5584
2026-01-06 00:07:43.48	344.18	33.69	-37.6	-38.5	24.0	0.00e+00	122	32	101	1048576	54	5629
2026-01-06 00:07:44.49	344.12	33.48	-37.5	-38.4	24.0	0.00e+00	123	32	101	1048576	54	5571
2026-01-06 00:07:45.50	344.06	33.27	-37.5	-38.4	24.0	0.00e+00	122	32	101	1048576	54	5589
2026-01-06 00:07:46.51	344.00	33.06	-37.4	-38.4	24.1	0.00e+00	123	32	101	1048576	54	5548
2026-01-06 00:07:47.52	343.95	32.85	-37.5	-38.4	24.1	0.00e+00	122	32	101	1048576	54	5547
2026-01-06 00:07:48.53	343.89	32.64	-37.5	-38.4	24.2	0.00e+00	122	32	101	1048576	54	5552
2026-01-06 00:07:49.54	343.84	32.43	-37.3	-38.2	24.3	0.00e+00	122	32	101	1048576	54	5424
2026-01-06 00:07:50.56	343.78	32.22	-37.1	-38.0	24.4	0.00e+00	122	32	101	1048576	52	5964
2026-01-06 00:07:51.57	343.73	32.02	-37.0	-37.9	24.5	0.00e+00	123	32	101	1048576	52	5884
2026-01-06 00:07:52.58	343.68	31.82	-37.0	-37.9	24.6	0.00e+00	120	32	101	1048576	52	5860
2026-01-06 00:07:53.59	343.62	31.62	-36.9	-37.8	24.5	0.00e+00	122	32	101	1048576	52	5830
2026-01-06 00:07:54.60	343.57	31.42	-36.9	-37.8	24.5	0.00e+00	120	32	101	1048576	52	5837
2026-01-06 00:07:55.61	343.52	31.22	-37.0	-37.9	24.5	0.00e+00	122	32	101	1048576	52	5907
2026-01-06 00:07:56.62	343.47	31.02	-36.9	-37.8	24.5	0.00e+00	122	32	101	1048576	52	5842
2026-01-06 00:07:57.63	343.42	30.82	-36.8	-37.7	24.6	0.00e+00	122	32	101	1048576	52	5742
2026-01-06 00:07:58.64	343.37	30.63	-36.9	-37.8	24.5	0.00e+00	123	32	101	1048576	52	5857
2026-01-06 00:07:59.66	343.33	30.43	-36.8	-37.7	24.6	0.00e+00	123	32	101	1048576	52	5781
2026-01-06 00:08:00.67	343.28	30.24	-36.8	-37.7	24.6	0.00e+00	123	32	101	1048576	52	5788
2026-01-06 00:08:01.68	343.23	30.05	-36.7	-37.6	24.7	0.00e+00	122	32	101	1048576	52	5687
2026-01-06 00:08:02.69	343.19	29.86	-36.9	-37.8	24.5	0.00e+00	123	32	101	1048576	52	5820
2026-01-06 00:08:03.70	343.14	29.67	-37.0	-37.9	24.5	0.00e+00	123	32	101	1048576	52	5900
2026-01-06 00:08:04.71	343.09	29.48	-36.9	-37.8	24.5	0.00e+00	123	32	101	1048576	52	5809
2026-01-06 00:08:05.72	343.05	29.30	-37.1	-38.0	24.4	0.00e+00	123	32	101	1048576	52	5945
2026-01-06 00:08:06.73	343.01	29.11	-37.1	-38.0	24.4	0.00e+00	123	32	101	1048576	52	5940
2026-01-06 00:08:07.74	342.96	28.93	-37.2	-38.1	24.3	0.00e+00	122	32	101	1048576	52	6044
2026-01-06 00:08:08.75	342.92	28.75	-37.1	-38.0	24.4	0.00e+00	123	32	101	1048576	52	5973
2026-01-06 00:08:09.76	342.88	28.56	-37.1	-38.0	24.3	0.00e+00	123	32	101	1048576	52	5974
2026-01-06 00:08:10.77	342.84	28.38	-37.1	-38.0	24.4	0.00e+00	120	32	101	1048576	52	5987
2026-01-06 00:08:11.78	342.79	28.21	-37.0	-37.9	24.4	0.00e+00	123	32	101	1048576	52	5897
2026-01-06 00:08:12.80	342.75	28.03	-37.1	-38.0	24.4	0.00e+00	120	32	101	1048576	52	5951
2026-01-06 00:08:13.81	342.71	27.85	-37.0	-37.9	24.5	0.00e+00	120	32	101	1048576	52	5882
2026-01-06 00:08:14.81	342.67	27.67	-36.7	-37.6	24.7	0.00e+00	123	32	101	1048576	52	5685
2026-01-06 00:08:15.83	342.63	27.50	-36.5	-37.4	24.8	0.00e+00	123	32	101	1048576	52	5570
2026-01-06 00:08:16.84	342.60	27.32	-36.5	-37.3	24.8	0.00e+00	122	32	101	1048576	52	5529
2026-01-06 00:08:17.85	342.56	27.15	-36.4	-37.3	24.9	0.00e+00	122	32	101	1048576	52	5478
2026-01-06 00:08:18.86	342.52	26.98	-36.4	-37.3	24.9	0.00e+00	122	32	101	1048576	52	5498
2026-01-06 00:08:19.87	342.48	26.81	-36.3	-37.2	24.9	0.00e+00	122	32	101	1048576	52	5442
2026-01-06 00:08:20.88	342.44	26.64	-36.4	-37.2	24.9	0.00e+00	122	32	101	1048576	52	5466
2026-01-06 00:08:21.89	342.41	26.47	-36.1	-36.9	25.0	0.00e+00	122	32	101	1048576	50	5921
2026-01-06 00:08:22.90	342.37	26.31	-36.2	-37.1	25.0	0.00e+00	122	32	101	1048576	50	6000
2026-01-06 00:08:23.91	342.34	26.14	-36.2	-37.1	24.9	0.00e+00	123	32	101	1048576	50	6015
2026-01-06 00:08:24.92	342.30	25.97	-36.2	-37.1	24.9	0.00e+00	123	32	101	1048576	50	6031
2026-01-06 00:08:25.94	342.27	25.81	-36.1	-37.0	25.0	0.00e+00	122	32	101	1048576	50	5970
2026-01-06 00:08:26.95	342.23	25.65	-36.1	-37.0	24.8	0.00e+00	123	32	101	1048576	50	5981
2026-01-06 00:08:27.96	342.20	25.48	-36.2	-37.1	24.9	0.00e+00	123	32	101	1048576	50	6020
2026-01-06 00:08:28.97	342.16	25.32	-36.3	-37.2	24.8	0.00e+00	123	32	101	1048576	50	6118
2026-01-06 00:08:29.98	342.13	25.16	-36.3	-37.3	24.7	0.00e+00	123	32	101	1048576	50	6137
2026-01-06 00:08:30.99	342.10	25.00	-36.3	-37.2	24.8	0.00e+00	123	32	101	1048576	50	6077
2026-01-06 00:08:32.00	342.06	24.84	-36.3	-37.2	24.8	0.00e+00	122	32	101	1048576	50	6066
2026-01-06 00:08:33.01	342.03	24.69	-36.2	-37.1	24.8	0.00e+00	122	32	101	1048576	50	6034
2026-01-06 00:08:34.02	342.00	24.53	-36.3	-37.2	24.8	0.00e+00	122	32	101	1048576	50	6075
2026-01-06 00:08:35.03	341.97	24.37	-36.4	-37.3	24.6	0.00e+00	123	32	101	1048576	50	6171
2026-01-06 00:08:36.04	341.94	24.22	-36.3	-37.2	24.8	0.00e+00	120	32	101	1048576	50	6104
2026-01-06 00:08:37.06	341.91	24.07	-36.4	-37.3	24.7	0.00e+00	123	32	101	1048576	50	6146
2026-01-06 00:08:38.07	341.88	23.91	-36.3	-37.2	24.8	0.00e+00	122	32	101	1048576	50	6111
2026-01-06 00:08:39.08	341.84	23.76	-36.4	-37.3	24.8	0.00e+00	123	32	101	1048576	50	6168
2026-01-06 00:08:40.09	341.81	23.61	-36.4	-37.3	24.7	0.00e+00	123	32	101	1048576	50	6189
2026-01-06 00:08:41.10	341.79	23.46	-36.3	-37.1	24.9	0.00e+00	122	32	101	1048576	50	6056
2026-01-06 00:08:42.11	341.76	23.31	-36.3	-37.2	24.8	0.00e+00	123	32	101	1048576	50	6078
2026-01-06 00:08:43.12	341.73	23.16	-36.2	-37.0	25.0	0.00e+00	123	32	101	1048576	50	5985
2026-01-06 00:08:44.13	341.70	23.01	-36.3	-37.1	24.9	0.00e+00	123	32	101	1048576	50	6061
2026-01-06 00:08:45.14	341.67	22.87	-36.2	-37.1	24.9	0.00e+00	120	32	101	1048576	50	6028
2026-01-06 00:08:46.15	341.64	22.72	-36.2	-37.1	25.0	0.00e+00	123	32	101	1048576	50	6048
2026-01-06 00:08:47.16	341.61	22.58	-36.0	-36.8	25.1	0.00e+00	123	32	101	1048576	50	5853
2026-01-06 00:08:48.17	341.59	22.43	-35.9	-36.8	25.2	0.00e+00	122	32	101	1048576	50	5830
2026-01-06 00:08:49.18	341.56	22.29	-35.9	-36.7	25.2	0.00e+00	123	32	101	1048576	50	5790
2026-01-06 00:08:50.20	341.53	22.14	-36.0	-36.9	25.1	0.00e+00	122	32	101	1048576	50	5875
2026-01-06 00:08:51.21	341.51	22.00	-35.9	-36.8	25.2	0.00e+00	123	32	101	1048576	50	5801
2026-01-06 00:08:52.22	341.48	21.86	-35.9	-36.8	25.1	0.00e+00	122	32	101	1048576	50	5826
2026-01-06 00:08:53.23	341.45	21.72	-36.1	-36.9	24.9	0.00e+00	123	32	101	1048576	50	5921
2026-01-06 00:08:54.24	341.43	21.58	-35.9	-36.8	25.2	0.00e+00	123	32	101	1048576	50	5824
2026-01-06 00:08:55.25	341.40	21.44	-36.0	-36.9	25.1	0.00e+00	123	32	101	1048576	50	5878
2026-01-06 00:08:56.26	341.38	21.30	-36.0	-36.8	25.0	0.00e+00	123	32	101	1048576	50	5856
2026-01-06 00:08:57.27	341.35	21.17	-36.1	-37.0	25.0	0.00e+00	123	32	101	1048576	50	5966
