passes_logs/2026/01/05/R4.6S_Anadyr_2ch/R4.6S_Anadyr_2ch__20260105_022801_SUOMI_NPP_rec.log

#Pass ID: 20260105_022801_SUOMI NPP
#Satellite: SUOMI NPP
#Configuration: NPP
#almurnet v.1.7.20251203
#Start time: 2026-01-05 02:30:06

#Version: 2.2.20231116
#Station: R4.6S_Anadyr_2ch
#Location: 177.4865 lon 64.73178 lat
#TLE: 1 37849U 11061A   25350.92281687  .00000071  00000+0  54882-4 0  9996
#TLE: 2 37849  98.7777 288.2268 0002366 112.8570 247.2856 14.19515404732588

#Time	Az	El	Level	Level2	SNR	BER	BlckErr	Temp	State	Recorded	gain1	gain2
2026-01-05 02:30:06.17	223.72	6.83	-47.2	-64.7	3.4	3.02e+01	0	26	0	0	60	88980
2026-01-05 02:30:07.18	223.82	6.89	-51.0	-66.4	3.6	1.51e+00	0	27	104	0	60	101648
2026-01-05 02:30:08.19	223.93	6.95	-51.3	-66.7	3.6	1.51e+00	0	27	104	0	60	105089
2026-01-05 02:30:09.20	224.04	7.01	-51.8	-67.2	3.6	1.51e+00	0	27	104	0	60	111902
2026-01-05 02:30:10.21	224.15	7.07	-51.7	-67.1	3.6	1.51e+00	0	26	104	0	60	110438
2026-01-05 02:30:11.22	224.26	7.13	-51.6	-67.0	3.6	1.51e+00	0	27	104	0	60	108705
2026-01-05 02:30:12.23	224.37	7.19	-52.0	-67.3	3.6	1.51e+00	0	27	104	0	60	113246
2026-01-05 02:30:13.25	224.48	7.25	-51.9	-67.4	3.6	1.51e+00	0	27	104	0	60	114280
2026-01-05 02:30:14.26	224.59	7.31	-51.3	-67.0	3.6	1.51e+00	0	27	104	0	60	109789
2026-01-05 02:30:15.27	224.70	7.37	-52.0	-67.5	3.6	1.51e+00	0	27	104	0	60	115866
2026-01-05 02:30:16.28	224.81	7.43	-51.9	-67.3	3.6	1.51e+00	0	27	104	0	60	112818
2026-01-05 02:30:17.29	224.92	7.49	-51.7	-67.1	3.6	1.51e+00	0	27	104	0	60	110256
2026-01-05 02:30:18.30	225.03	7.55	-51.8	-67.1	3.6	1.51e+00	0	27	104	0	60	110949
2026-01-05 02:30:19.31	225.14	7.60	-52.0	-67.4	3.6	1.51e+00	0	27	104	0	60	114401
2026-01-05 02:30:20.32	225.26	7.66	-51.7	-67.1	3.6	1.51e+00	0	27	104	0	60	109889
2026-01-05 02:30:21.33	225.37	7.72	-51.6	-67.0	3.6	1.51e+00	0	27	104	0	60	108853
2026-01-05 02:30:22.34	225.48	7.78	-51.7	-67.1	3.6	1.51e+00	0	26	104	0	60	110215
2026-01-05 02:30:23.35	225.60	7.84	-52.7	-68.0	3.6	1.51e+00	0	26	104	0	60	122453
2026-01-05 02:30:24.36	225.71	7.90	-52.3	-67.7	3.6	1.51e+00	0	27	104	0	60	118140
2026-01-05 02:30:25.37	225.82	7.96	-51.5	-66.9	3.6	1.51e+00	0	26	104	0	60	107411
2026-01-05 02:30:26.38	225.94	8.02	-51.8	-67.2	3.6	1.51e+00	0	27	104	0	60	111215
2026-01-05 02:30:27.39	226.06	8.08	-51.6	-67.0	3.6	1.51e+00	0	27	104	0	60	109097
2026-01-05 02:30:28.40	226.17	8.14	-51.4	-66.8	3.6	1.51e+00	0	27	104	0	60	106605
2026-01-05 02:30:29.41	226.29	8.20	-51.5	-66.9	3.6	1.51e+00	0	27	104	0	60	107363
2026-01-05 02:30:30.42	226.41	8.26	-52.2	-67.6	3.6	1.51e+00	0	27	104	0	60	116514
2026-01-05 02:30:31.43	226.52	8.32	-52.7	-68.1	3.6	1.51e+00	0	27	104	0	60	123777
2026-01-05 02:30:32.45	226.64	8.38	-51.6	-66.9	3.6	1.51e+00	0	27	104	0	60	108133
2026-01-05 02:30:33.46	226.76	8.44	-52.0	-67.3	3.6	1.51e+00	0	27	104	0	60	112841
2026-01-05 02:30:34.47	226.88	8.50	-52.3	-67.6	3.6	1.51e+00	0	27	104	0	60	116716
2026-01-05 02:30:35.48	227.00	8.56	-52.1	-67.4	3.6	1.51e+00	0	27	104	0	60	114743
2026-01-05 02:30:36.49	227.12	8.62	-51.7	-67.0	3.6	1.51e+00	0	27	104	0	60	109105
2026-01-05 02:30:37.50	227.24	8.68	-51.5	-66.9	3.6	1.51e+00	0	27	104	0	60	108141
2026-01-05 02:30:38.51	227.36	8.74	-52.6	-68.0	3.6	1.51e+00	0	27	104	0	60	122065
2026-01-05 02:30:39.52	227.48	8.80	-51.7	-67.0	3.6	1.51e+00	0	27	104	0	60	109630
2026-01-05 02:30:40.53	227.60	8.86	-51.9	-67.2	3.6	1.51e+00	0	27	104	0	60	111758
2026-01-05 02:30:41.54	227.73	8.92	-52.3	-67.7	3.6	1.51e+00	0	27	104	0	60	118376
2026-01-05 02:30:42.55	227.85	8.98	-51.7	-67.1	3.6	1.51e+00	0	27	104	0	60	110203
2026-01-05 02:30:43.56	227.97	9.04	-51.8	-67.1	3.6	1.51e+00	0	27	104	0	60	110301
2026-01-05 02:30:44.58	228.10	9.11	-51.9	-67.3	3.6	1.51e+00	0	27	104	0	60	112785
2026-01-05 02:30:45.59	228.22	9.17	-51.5	-66.9	3.6	1.51e+00	0	27	104	0	60	107356
2026-01-05 02:30:46.60	228.35	9.23	-52.0	-67.3	3.6	1.51e+00	0	27	104	0	60	113375
2026-01-05 02:30:47.61	228.47	9.29	-51.5	-66.9	3.6	1.51e+00	0	27	104	0	60	107724
2026-01-05 02:30:48.62	228.60	9.35	-51.3	-66.7	3.6	1.51e+00	0	26	104	0	60	105487
2026-01-05 02:30:49.63	228.72	9.41	-51.4	-66.7	3.6	1.51e+00	0	27	104	0	60	105872
2026-01-05 02:30:50.64	228.85	9.47	-51.5	-66.8	3.6	1.51e+00	0	27	104	0	60	107126
2026-01-05 02:30:51.65	228.98	9.53	-51.7	-67.1	3.6	1.51e+00	0	27	104	0	60	109919
2026-01-05 02:30:52.66	229.11	9.59	-51.5	-66.8	3.5	1.51e+00	0	27	104	0	60	107183
2026-01-05 02:30:53.67	229.23	9.65	-51.5	-66.8	3.6	1.51e+00	0	27	104	0	60	106815
2026-01-05 02:30:54.68	229.36	9.71	-51.4	-66.8	3.6	1.51e+00	0	27	104	0	60	106745
2026-01-05 02:30:55.69	229.49	9.77	-51.8	-67.1	3.6	1.51e+00	0	27	104	0	60	110116
2026-01-05 02:30:56.71	229.62	9.83	-51.5	-66.8	3.6	1.51e+00	0	27	104	0	60	107225
2026-01-05 02:30:57.72	229.75	9.90	-51.6	-66.9	3.6	1.51e+00	0	27	104	0	60	108239
2026-01-05 02:30:58.73	229.88	9.96	-51.5	-66.9	3.6	1.51e+00	0	27	104	0	60	108087
2026-01-05 02:30:59.74	230.02	10.02	-51.6	-66.9	3.6	1.51e+00	0	27	104	0	60	108485
2026-01-05 02:31:00.75	230.15	10.08	-51.5	-67.0	3.6	1.51e+00	0	27	104	0	60	109505
2026-01-05 02:31:01.76	230.28	10.14	-51.4	-66.9	3.6	1.51e+00	0	27	104	0	60	108019
2026-01-05 02:31:02.77	230.41	10.20	-51.6	-67.1	3.6	1.51e+00	0	26	104	0	60	110447
2026-01-05 02:31:03.78	230.55	10.26	-51.8	-67.2	3.6	1.51e+00	0	27	104	0	60	111394
2026-01-05 02:31:04.79	230.68	10.32	-51.4	-66.9	3.6	1.51e+00	0	27	104	0	60	108355
2026-01-05 02:31:05.80	230.82	10.38	-51.0	-66.7	3.6	1.51e+00	0	27	104	0	60	105564
2026-01-05 02:31:06.81	230.95	10.44	-51.1	-66.7	3.6	1.51e+00	0	27	104	0	60	105256
2026-01-05 02:31:07.82	231.09	10.50	-51.0	-66.7	3.6	1.51e+00	0	27	104	0	60	105140
2026-01-05 02:31:08.83	231.22	10.57	-51.2	-66.6	3.6	1.51e+00	0	26	104	0	60	104324
2026-01-05 02:31:09.84	231.36	10.63	-51.2	-66.6	3.6	1.51e+00	0	27	104	0	60	104013
2026-01-05 02:31:10.86	231.50	10.69	-51.2	-66.6	3.6	1.51e+00	0	27	104	0	60	104341
2026-01-05 02:31:11.87	231.64	10.75	-51.2	-66.5	3.6	1.51e+00	0	27	104	0	60	103493
2026-01-05 02:31:12.88	231.77	10.81	-51.1	-66.5	3.6	1.51e+00	0	27	104	0	60	102501
2026-01-05 02:31:13.88	231.91	10.87	-50.9	-66.3	3.6	1.51e+00	0	27	104	0	60	100985
2026-01-05 02:31:14.89	232.05	10.93	-50.9	-66.2	3.6	1.51e+00	0	27	104	0	60	99468
2026-01-05 02:31:15.91	232.19	10.99	-50.8	-66.1	3.6	1.51e+00	0	27	104	0	60	98898
2026-01-05 02:31:16.92	232.33	11.05	-50.8	-66.1	3.6	1.51e+00	0	27	104	0	60	98730
2026-01-05 02:31:17.93	232.48	11.12	-50.8	-66.1	3.6	1.51e+00	0	27	104	0	60	98525
2026-01-05 02:31:18.94	232.62	11.18	-50.8	-66.1	3.6	1.51e+00	0	27	104	0	60	98301
2026-01-05 02:31:19.95	232.76	11.24	-50.8	-66.2	3.6	1.51e+00	0	27	104	0	60	99162
2026-01-05 02:31:20.96	232.90	11.30	-50.8	-66.1	3.6	1.51e+00	0	27	104	0	60	98455
2026-01-05 02:31:21.97	233.05	11.36	-50.8	-66.1	3.6	1.51e+00	0	27	104	0	60	98414
2026-01-05 02:31:22.98	233.19	11.42	-50.8	-65.9	3.6	1.51e+00	0	27	104	0	60	96057
2026-01-05 02:31:23.99	233.34	11.48	-50.7	-66.0	3.6	1.51e+00	0	26	104	0	60	97498
2026-01-05 02:31:25.00	233.48	11.54	-50.8	-66.1	3.6	1.51e+00	0	27	104	0	60	98404
2026-01-05 02:31:26.01	233.63	11.60	-50.8	-66.2	3.6	1.51e+00	0	27	104	0	60	99532
2026-01-05 02:31:27.02	233.77	11.66	-50.8	-66.2	3.6	1.51e+00	0	27	104	0	60	99403
2026-01-05 02:31:28.03	233.92	11.72	-50.9	-66.2	3.6	1.51e+00	0	27	104	0	60	99398
2026-01-05 02:31:29.05	234.07	11.79	-51.0	-66.4	3.6	1.51e+00	0	27	104	0	60	101345
2026-01-05 02:31:30.06	234.22	11.85	-51.1	-66.4	3.6	1.51e+00	0	27	104	0	60	101717
2026-01-05 02:31:31.07	234.37	11.91	-51.2	-66.5	3.6	1.51e+00	0	27	104	0	60	102850
2026-01-05 02:31:32.08	234.52	11.97	-51.1	-66.5	3.6	1.51e+00	0	27	104	0	60	103104
2026-01-05 02:31:33.09	234.67	12.03	-51.1	-66.4	3.6	1.51e+00	0	27	104	0	60	102383
2026-01-05 02:31:34.10	234.82	12.09	-50.9	-66.2	3.6	1.51e+00	0	27	104	0	60	99002
2026-01-05 02:31:35.11	234.97	12.15	-50.9	-66.1	3.6	1.51e+00	0	27	104	0	60	98575
2026-01-05 02:31:36.12	235.12	12.21	-51.0	-66.2	3.6	1.51e+00	0	27	104	0	60	99775
2026-01-05 02:31:37.13	235.27	12.27	-50.9	-66.2	3.6	1.51e+00	0	27	104	0	60	99616
2026-01-05 02:31:38.14	235.43	12.33	-50.9	-66.2	3.6	1.51e+00	0	27	104	0	60	99999
2026-01-05 02:31:39.16	235.58	12.39	-51.0	-66.3	3.6	1.51e+00	0	27	104	0	60	101042
2026-01-05 02:31:40.17	235.74	12.46	-51.0	-66.3	3.6	1.51e+00	0	27	104	0	60	101053
2026-01-05 02:31:41.18	235.89	12.52	-51.0	-66.3	3.6	1.51e+00	0	27	104	0	60	101056
2026-01-05 02:31:42.19	236.05	12.58	-50.9	-66.2	3.6	1.51e+00	0	27	104	0	60	99391
2026-01-05 02:31:43.20	236.20	12.64	-50.9	-66.1	3.6	1.51e+00	0	27	104	0	60	98626
2026-01-05 02:31:44.21	236.36	12.70	-50.9	-66.0	3.6	1.51e+00	0	27	104	0	60	97766
2026-01-05 02:31:45.22	236.52	12.76	-50.9	-66.0	3.6	1.51e+00	0	27	104	0	60	97186
2026-01-05 02:31:46.23	236.67	12.82	-50.8	-65.3	3.5	1.51e+00	0	27	104	0	60	89816
2026-01-05 02:31:47.25	236.83	12.88	-50.8	-65.3	3.6	1.51e+00	0	27	104	0	60	89480
2026-01-05 02:31:48.26	236.99	12.94	-50.7	-65.8	3.6	1.51e+00	0	26	104	0	60	95019
2026-01-05 02:31:49.27	237.15	13.00	-50.7	-63.5	3.7	1.51e+00	0	26	104	0	60	72862
2026-01-05 02:31:50.28	237.31	13.06	-50.5	-61.0	4.4	8.38e-01	91	27	0	0	60	55022
2026-01-05 02:31:51.29	237.48	13.12	-50.5	-60.6	4.0	1.22e+00	38	26	0	1048576	60	52082
2026-01-05 02:31:52.30	237.64	13.18	-48.3	-52.1	12.8	1.16e-02	91	27	0	3145728	60	19552
2026-01-05 02:31:53.31	237.80	13.24	-45.9	-48.0	17.3	7.00e-07	0	27	0	4194304	60	12316
2026-01-05 02:31:54.32	237.96	13.30	-44.2	-45.8	19.2	0.00e+00	87	26	0	6291456	60	9459
2026-01-05 02:31:55.33	238.13	13.36	-42.1	-43.2	21.6	0.00e+00	0	26	0	8388608	60	7054
2026-01-05 02:31:56.34	238.29	13.42	-43.6	-45.0	19.8	0.00e+00	90	27	0	10485760	60	8638
2026-01-05 02:31:57.35	238.46	13.48	-45.0	-46.7	19.3	1.22e-05	76	26	0	12582912	60	10538
2026-01-05 02:31:58.36	238.62	13.54	-47.7	-50.8	13.9	0.00e+00	92	26	0	13631488	60	16983
2026-01-05 02:31:59.38	238.79	13.60	-49.8	-56.5	12.7	1.48e+00	92	26	104	14680064	60	32669
2026-01-05 02:32:00.39	238.96	13.66	-45.5	-47.5	18.7	0.00e+00	0	26	0	14680064	60	11550
2026-01-05 02:32:01.40	239.12	13.72	-44.4	-46.0	19.8	0.00e+00	92	26	0	16777216	60	9721
2026-01-05 02:32:02.41	239.29	13.78	-44.6	-46.2	19.0	0.00e+00	0	26	0	18874368	60	10001
2026-01-05 02:32:03.42	239.46	13.84	-44.2	-45.8	20.0	0.00e+00	92	26	0	20971520	60	9461
2026-01-05 02:32:04.43	239.63	13.90	-43.7	-45.1	19.8	0.00e+00	45	26	0	23068672	60	8751
2026-01-05 02:32:05.44	239.80	13.96	-43.9	-45.3	19.9	0.00e+00	92	26	0	24117248	60	9026
2026-01-05 02:32:06.46	239.97	14.02	-44.0	-45.5	19.7	0.00e+00	92	26	0	26214400	60	9183
2026-01-05 02:32:07.47	240.15	14.07	-43.6	-45.0	20.2	0.00e+00	0	26	0	28311552	60	8663
2026-01-05 02:32:08.48	240.32	14.13	-42.8	-44.0	21.1	0.00e+00	92	26	0	30408704	60	7721
2026-01-05 02:32:09.49	240.49	14.19	-42.6	-43.8	21.0	0.00e+00	0	26	0	32505856	60	7553
2026-01-05 02:32:10.50	240.66	14.25	-42.2	-43.4	21.3	0.00e+00	91	26	0	33554432	60	7186
2026-01-05 02:32:11.51	240.84	14.31	-42.1	-43.2	21.1	0.00e+00	10	26	0	35651584	60	7076
2026-01-05 02:32:12.52	241.01	14.37	-42.8	-44.0	20.9	0.00e+00	92	27	0	37748736	60	7733
2026-01-05 02:32:13.53	241.19	14.43	-42.1	-43.2	21.5	0.00e+00	90	26	0	39845888	60	7034
2026-01-05 02:32:14.54	241.37	14.48	-42.2	-43.3	21.4	0.00e+00	0	26	0	41943040	60	7159
2026-01-05 02:32:15.55	241.54	14.54	-42.2	-43.3	21.2	0.00e+00	91	26	0	42991616	60	7125
2026-01-05 02:32:16.57	241.72	14.60	-42.4	-43.6	21.7	0.00e+00	0	27	0	45088768	60	7405
2026-01-05 02:32:17.58	241.90	14.66	-42.1	-43.2	21.4	0.00e+00	92	26	0	47185920	60	7081
2026-01-05 02:32:18.59	242.08	14.72	-41.2	-42.3	22.4	0.00e+00	17	26	0	49283072	60	6335
2026-01-05 02:32:19.60	242.26	14.77	-41.0	-42.0	22.7	0.00e+00	91	27	0	51380224	60	6168
2026-01-05 02:32:20.61	242.44	14.83	-40.8	-41.8	22.8	0.00e+00	92	26	0	52428800	60	5999
2026-01-05 02:32:21.62	242.62	14.89	-40.6	-41.5	23.0	0.00e+00	0	26	0	54525952	60	5822
2026-01-05 02:32:22.63	242.80	14.95	-40.4	-41.3	23.1	0.00e+00	92	26	0	56623104	60	5693
2026-01-05 02:32:23.65	242.98	15.00	-40.3	-41.3	23.2	0.00e+00	0	26	0	58720256	60	5645
2026-01-05 02:32:24.66	243.17	15.06	-40.4	-41.4	23.2	0.00e+00	92	26	0	60817408	60	5701
2026-01-05 02:32:25.67	243.35	15.12	-40.5	-41.4	23.1	0.00e+00	0	26	0	62914560	60	5747
2026-01-05 02:32:26.68	243.54	15.17	-40.5	-41.4	23.2	0.00e+00	92	26	0	63963136	60	5752
2026-01-05 02:32:27.69	243.72	15.23	-40.4	-41.3	23.2	0.00e+00	92	26	0	66060288	60	5673
2026-01-05 02:32:28.70	243.91	15.29	-40.4	-41.3	23.0	0.00e+00	0	26	0	68157440	60	5664
2026-01-05 02:32:29.71	244.09	15.34	-40.3	-41.2	23.2	0.00e+00	92	26	0	70254592	60	5612
2026-01-05 02:32:30.72	244.28	15.40	-40.3	-41.3	23.3	0.00e+00	0	26	0	72351744	60	5635
2026-01-05 02:32:31.73	244.47	15.46	-40.4	-41.4	23.2	0.00e+00	92	26	0	73400320	60	5697
2026-01-05 02:32:32.75	244.66	15.51	-40.5	-41.4	23.2	0.00e+00	0	26	0	75497472	60	5748
2026-01-05 02:32:33.76	244.85	15.57	-40.4	-41.3	23.2	0.00e+00	92	26	0	77594624	60	5655
2026-01-05 02:32:34.77	245.04	15.62	-40.3	-41.2	23.3	0.00e+00	92	26	0	79691776	60	5614
2026-01-05 02:32:35.78	245.23	15.68	-40.4	-41.4	23.2	0.00e+00	48	26	0	81788928	60	5699
2026-01-05 02:32:36.79	245.42	15.73	-40.5	-41.5	22.9	0.00e+00	92	26	0	82837504	60	5800
2026-01-05 02:32:37.80	245.61	15.79	-40.4	-41.4	23.1	0.00e+00	0	26	0	84934656	60	5736
2026-01-05 02:32:38.81	245.80	15.84	-40.3	-41.2	23.2	0.00e+00	87	26	0	87031808	60	5617
2026-01-05 02:32:39.82	246.00	15.90	-40.4	-41.3	23.1	0.00e+00	0	26	0	89128960	60	5684
2026-01-05 02:32:40.83	246.19	15.95	-40.1	-41.0	23.4	0.00e+00	92	26	0	91226112	58	6152
2026-01-05 02:32:41.85	246.39	16.01	-40.2	-41.1	23.2	0.00e+00	92	26	0	92274688	58	6215
2026-01-05 02:32:42.86	246.58	16.06	-40.3	-41.2	23.3	0.00e+00	0	26	0	94371840	58	6317
2026-01-05 02:32:43.87	246.78	16.11	-40.3	-41.2	23.2	0.00e+00	92	26	0	96468992	58	6279
2026-01-05 02:32:44.88	246.97	16.17	-40.6	-41.6	22.9	0.00e+00	0	26	0	98566144	58	6541
2026-01-05 02:32:45.89	247.17	16.22	-40.9	-41.9	22.7	0.00e+00	92	26	0	100663296	58	6774
2026-01-05 02:32:46.90	247.37	16.28	-40.8	-41.8	22.7	0.00e+00	0	26	0	102760448	58	6760
2026-01-05 02:32:47.91	247.57	16.33	-40.9	-41.9	22.6	0.00e+00	92	26	0	103809024	58	6790
2026-01-05 02:32:48.92	247.77	16.38	-41.0	-42.0	22.6	0.00e+00	67	26	0	105906176	58	6917
2026-01-05 02:32:49.93	247.97	16.43	-40.8	-41.8	22.7	0.00e+00	92	26	0	108003328	58	6750
2026-01-05 02:32:50.94	248.17	16.49	-41.0	-42.0	22.7	0.00e+00	92	26	0	110100480	58	6871
2026-01-05 02:32:51.95	248.37	16.54	-40.8	-41.8	22.7	0.00e+00	0	26	0	112197632	58	6735
2026-01-05 02:32:52.96	248.57	16.59	-41.1	-42.1	22.6	0.00e+00	58	26	0	113246208	58	6941
2026-01-05 02:32:53.98	248.78	16.64	-40.7	-41.7	22.8	0.00e+00	0	26	0	115343360	58	6664
2026-01-05 02:32:54.99	248.98	16.69	-41.1	-42.1	22.5	0.00e+00	92	26	0	117440512	58	6990
2026-01-05 02:32:56.00	249.18	16.74	-41.5	-42.6	22.1	0.00e+00	47	26	0	119537664	60	6589
2026-01-05 02:32:57.01	249.39	16.80	-41.8	-42.9	22.1	0.00e+00	75	26	0	121634816	60	6795
2026-01-05 02:32:58.02	249.59	16.85	-41.5	-42.6	22.2	0.00e+00	92	26	0	122683392	60	6567
2026-01-05 02:32:59.03	249.80	16.90	-41.7	-42.8	21.6	0.00e+00	0	26	0	124780544	60	6757
2026-01-05 02:33:00.04	250.01	16.95	-41.5	-42.6	22.2	0.00e+00	91	26	0	126877696	60	6583
2026-01-05 02:33:01.06	250.22	17.00	-41.6	-42.7	22.1	0.00e+00	0	26	0	128974848	60	6660
2026-01-05 02:33:02.07	250.42	17.05	-41.6	-42.6	22.1	0.00e+00	56	26	0	131072000	60	6591
2026-01-05 02:33:03.08	250.63	17.10	-41.5	-42.6	22.1	0.00e+00	15	26	0	132120576	60	6560
2026-01-05 02:33:04.09	250.84	17.15	-41.7	-42.8	22.0	0.00e+00	92	26	0	134217728	60	6725
2026-01-05 02:33:05.10	251.05	17.20	-41.7	-42.8	21.9	0.00e+00	91	26	0	136314880	60	6749
2026-01-05 02:33:06.11	251.26	17.24	-41.7	-42.8	22.1	0.00e+00	0	26	0	138412032	60	6734
2026-01-05 02:33:07.12	251.47	17.29	-41.9	-43.0	21.7	0.00e+00	17	26	0	140509184	60	6905
2026-01-05 02:33:08.13	251.69	17.34	-42.0	-43.1	21.8	0.00e+00	0	26	0	141557760	60	7004
2026-01-05 02:33:09.14	251.90	17.39	-42.1	-43.2	21.8	0.00e+00	92	26	0	143654912	60	7012
2026-01-05 02:33:10.16	252.11	17.44	-42.2	-43.4	21.6	0.00e+00	42	26	0	145752064	60	7179
2026-01-05 02:33:11.17	252.33	17.48	-42.1	-43.3	21.5	0.00e+00	92	26	0	147849216	60	7097
2026-01-05 02:33:12.18	252.54	17.53	-42.5	-43.7	21.5	0.00e+00	92	26	0	149946368	60	7463
2026-01-05 02:33:13.19	252.76	17.58	-42.4	-43.5	21.3	0.00e+00	0	26	0	152043520	60	7336
2026-01-05 02:33:14.20	252.97	17.62	-42.6	-43.8	21.3	0.00e+00	92	26	0	153092096	60	7558
2026-01-05 02:33:15.21	253.19	17.67	-42.3	-43.4	21.6	0.00e+00	0	26	0	155189248	60	7225
2026-01-05 02:33:16.22	253.41	17.72	-42.3	-43.5	21.5	0.00e+00	92	26	0	157286400	60	7279
2026-01-05 02:33:17.24	253.63	17.76	-42.3	-43.4	21.5	0.00e+00	0	26	0	159383552	60	7246
2026-01-05 02:33:18.25	253.85	17.81	-42.6	-43.8	21.3	0.00e+00	92	26	0	161480704	60	7539
2026-01-05 02:33:19.26	254.07	17.85	-42.7	-43.9	21.1	0.00e+00	92	26	0	162529280	60	7641
2026-01-05 02:33:20.27	254.29	17.90	-43.2	-44.5	20.9	0.00e+00	0	26	0	164626432	60	8153
2026-01-05 02:33:21.28	254.51	17.94	-42.7	-43.9	21.2	0.00e+00	80	26	0	166723584	60	7674
2026-01-05 02:33:22.29	254.73	17.98	-42.3	-43.4	21.6	0.00e+00	0	26	0	168820736	60	7253
2026-01-05 02:33:23.30	254.95	18.03	-42.0	-43.1	21.9	0.00e+00	92	26	0	170917888	60	6943
2026-01-05 02:33:24.31	255.17	18.07	-41.9	-43.0	21.9	0.00e+00	0	26	0	171966464	60	6889
2026-01-05 02:33:25.32	255.39	18.11	-41.5	-42.5	22.2	0.00e+00	92	26	0	174063616	60	6511
2026-01-05 02:33:26.33	255.62	18.16	-41.6	-42.7	22.2	0.00e+00	92	26	0	176160768	60	6616
2026-01-05 02:33:27.35	255.84	18.20	-42.0	-43.1	21.8	0.00e+00	0	26	0	178257920	60	6961
2026-01-05 02:33:28.36	256.07	18.24	-41.9	-43.0	21.9	0.00e+00	92	26	0	180355072	60	6864
2026-01-05 02:33:29.37	256.29	18.28	-41.9	-43.0	21.8	0.00e+00	0	26	0	181403648	60	6919
2026-01-05 02:33:30.38	256.52	18.32	-41.8	-42.9	22.0	0.00e+00	92	26	0	183500800	60	6810
2026-01-05 02:33:31.39	256.75	18.36	-41.4	-42.5	22.3	0.00e+00	0	26	0	185597952	60	6466
2026-01-05 02:33:32.40	256.97	18.40	-41.4	-42.4	22.5	0.00e+00	92	26	0	187695104	60	6398
2026-01-05 02:33:33.41	257.20	18.44	-41.4	-42.4	22.4	0.00e+00	47	26	0	189792256	60	6405
2026-01-05 02:33:34.42	257.43	18.48	-41.5	-42.5	22.3	0.00e+00	92	26	0	190840832	60	6539
2026-01-05 02:33:35.43	257.66	18.52	-41.6	-42.7	21.9	0.00e+00	92	26	0	192937984	60	6657
2026-01-05 02:33:36.45	257.89	18.56	-42.6	-43.8	21.2	0.00e+00	0	26	0	195035136	60	7558
2026-01-05 02:33:37.46	258.12	18.60	-42.0	-43.1	21.9	0.00e+00	87	26	0	197132288	60	6981
2026-01-05 02:33:38.47	258.35	18.64	-42.1	-43.2	21.5	0.00e+00	0	26	0	199229440	60	7069
2026-01-05 02:33:39.48	258.58	18.68	-41.6	-42.6	22.2	0.00e+00	92	26	0	200278016	60	6555
2026-01-05 02:33:40.49	258.81	18.71	-41.0	-41.9	22.8	0.00e+00	41	26	0	202375168	60	6073
2026-01-05 02:33:41.50	259.04	18.75	-40.3	-41.2	23.3	0.00e+00	42	26	0	204472320	60	5609
2026-01-05 02:33:42.51	259.28	18.79	-40.2	-41.1	23.3	0.00e+00	91	26	0	206569472	58	6228
2026-01-05 02:33:43.52	259.51	18.82	-40.4	-41.4	23.2	0.00e+00	0	26	0	208666624	58	6418
2026-01-05 02:33:44.53	259.74	18.86	-40.6	-41.5	23.0	0.00e+00	92	26	0	210763776	58	6518
2026-01-05 02:33:45.54	259.98	18.89	-40.9	-41.9	22.8	0.00e+00	0	26	0	211812352	58	6780
2026-01-05 02:33:46.55	260.21	18.93	-41.0	-42.0	23.0	0.00e+00	90	26	0	213909504	60	6129
2026-01-05 02:33:47.57	260.45	18.96	-40.7	-41.6	23.0	0.00e+00	0	26	0	216006656	60	5885
2026-01-05 02:33:48.58	260.69	19.00	-40.5	-41.4	23.4	0.00e+00	92	26	0	218103808	60	5718
2026-01-05 02:33:49.59	260.92	19.03	-40.5	-41.4	23.4	0.00e+00	92	26	0	220200960	60	5757
2026-01-05 02:33:50.60	261.16	19.06	-40.1	-41.0	23.6	0.00e+00	0	26	0	221249536	58	6124
2026-01-05 02:33:51.61	261.40	19.09	-40.1	-41.0	23.5	0.00e+00	71	26	0	223346688	58	6148
2026-01-05 02:33:52.62	261.64	19.13	-40.3	-41.3	23.4	0.00e+00	0	26	0	225443840	58	6330
2026-01-05 02:33:53.63	261.87	19.16	-40.2	-41.1	23.6	0.00e+00	71	26	0	227540992	58	6180
2026-01-05 02:33:54.65	262.11	19.19	-40.0	-40.9	23.5	0.00e+00	0	26	0	229638144	58	6093
2026-01-05 02:33:55.65	262.35	19.22	-39.7	-40.5	23.9	0.00e+00	92	26	0	230686720	58	5814
2026-01-05 02:33:56.67	262.59	19.25	-39.9	-40.7	23.6	0.00e+00	92	26	0	232783872	58	5955
2026-01-05 02:33:57.68	262.83	19.28	-39.6	-40.5	23.9	0.00e+00	0	26	0	234881024	58	5764
2026-01-05 02:33:58.69	263.07	19.31	-39.7	-40.6	23.7	0.00e+00	42	26	0	236978176	58	5873
2026-01-05 02:33:59.70	263.32	19.34	-40.0	-41.0	23.5	0.00e+00	0	26	0	239075328	58	6108
2026-01-05 02:34:00.71	263.56	19.37	-40.1	-41.1	23.4	0.00e+00	90	26	0	240123904	58	6180
2026-01-05 02:34:01.72	263.80	19.40	-40.0	-40.9	23.2	0.00e+00	0	26	0	242221056	58	6079
2026-01-05 02:34:02.73	264.04	19.42	-40.0	-40.9	23.5	0.00e+00	92	26	0	244318208	58	6081
2026-01-05 02:34:03.74	264.28	19.45	-39.8	-40.7	23.6	0.00e+00	92	26	0	246415360	58	5949
2026-01-05 02:34:04.75	264.53	19.48	-40.0	-40.9	23.6	0.00e+00	0	26	0	248512512	58	6050
2026-01-05 02:34:05.77	264.77	19.50	-40.1	-41.0	23.5	0.00e+00	76	26	0	250609664	58	6157
2026-01-05 02:34:06.78	265.02	19.53	-40.8	-41.7	23.0	0.00e+00	0	26	0	251658240	58	6683
2026-01-05 02:34:07.79	265.26	19.56	-40.7	-41.7	23.0	0.00e+00	92	26	0	253755392	58	6660
2026-01-05 02:34:08.80	265.51	19.58	-40.5	-41.4	23.2	0.00e+00	0	26	0	255852544	58	6424
2026-01-05 02:34:09.81	265.75	19.60	-40.7	-41.6	23.1	0.00e+00	92	26	0	257949696	58	6607
2026-01-05 02:34:10.82	266.00	19.63	-40.2	-41.1	23.5	0.00e+00	41	26	0	260046848	58	6192
2026-01-05 02:34:11.83	266.24	19.65	-40.0	-40.9	23.6	0.00e+00	0	26	0	261095424	58	6046
2026-01-05 02:34:12.84	266.49	19.67	-40.1	-41.0	23.5	0.00e+00	90	26	0	263192576	58	6139
2026-01-05 02:34:13.85	266.74	19.70	-40.3	-41.3	23.2	0.00e+00	0	26	0	265289728	58	6342
2026-01-05 02:34:14.87	266.98	19.72	-40.3	-41.3	23.2	0.00e+00	90	26	0	267386880	58	6323
2026-01-05 02:34:15.88	267.23	19.74	-40.2	-41.2	23.4	0.00e+00	0	26	0	269484032	58	6246
2026-01-05 02:34:16.89	267.48	19.76	-40.0	-40.9	23.5	0.00e+00	92	26	0	270532608	58	6060
2026-01-05 02:34:17.90	267.73	19.78	-39.8	-40.7	23.6	0.00e+00	46	26	0	272629760	58	5946
2026-01-05 02:34:18.91	267.98	19.80	-40.0	-40.9	23.6	0.00e+00	18	26	0	274726912	58	6066
2026-01-05 02:34:19.92	268.22	19.82	-40.0	-40.9	23.6	0.00e+00	92	26	0	276824064	58	6073
2026-01-05 02:34:20.93	268.47	19.84	-40.3	-41.3	23.3	0.00e+00	0	26	0	278921216	58	6326
2026-01-05 02:34:21.94	268.72	19.86	-41.1	-42.1	22.6	0.00e+00	92	26	0	279969792	58	6968
2026-01-05 02:34:22.95	268.97	19.87	-41.0	-41.9	22.8	0.00e+00	0	26	0	282066944	60	6101
2026-01-05 02:34:23.96	269.22	19.89	-40.8	-41.8	22.9	0.00e+00	92	26	0	284164096	60	5966
2026-01-05 02:34:24.97	269.47	19.91	-41.0	-41.9	22.8	0.00e+00	0	26	0	286261248	60	6102
2026-01-05 02:34:25.99	269.72	19.92	-40.9	-41.9	22.8	0.00e+00	92	26	0	288358400	60	6084
2026-01-05 02:34:27.00	269.97	19.94	-41.0	-42.0	22.7	0.00e+00	92	26	0	289406976	60	6114
2026-01-05 02:34:28.01	270.23	19.95	-41.4	-42.4	22.4	0.00e+00	0	26	0	291504128	60	6454
2026-01-05 02:34:29.02	270.48	19.97	-41.7	-42.8	22.2	0.00e+00	92	26	0	293601280	60	6712
2026-01-05 02:34:30.03	270.73	19.98	-41.6	-42.6	22.3	0.00e+00	0	26	0	295698432	60	6614
2026-01-05 02:34:31.04	270.98	20.00	-41.4	-42.4	22.5	0.00e+00	78	26	0	297795584	60	6447
2026-01-05 02:34:32.05	271.23	20.01	-41.0	-42.0	22.9	0.00e+00	7	26	0	299892736	60	6139
2026-01-05 02:34:33.06	271.48	20.02	-40.7	-41.6	23.1	0.00e+00	46	26	0	300941312	60	5857
2026-01-05 02:34:34.07	271.73	20.03	-40.7	-41.6	23.2	0.00e+00	92	26	0	303038464	60	5864
2026-01-05 02:34:35.09	271.99	20.05	-40.7	-41.6	23.1	0.00e+00	0	26	0	305135616	60	5858
2026-01-05 02:34:36.10	272.24	20.06	-40.7	-41.6	23.3	0.00e+00	90	26	0	307232768	60	5863
2026-01-05 02:34:37.11	272.49	20.07	-40.7	-41.6	23.3	0.00e+00	0	26	0	309329920	60	5871
2026-01-05 02:34:38.12	272.75	20.08	-40.7	-41.7	23.2	0.00e+00	90	26	0	310378496	60	5907
2026-01-05 02:34:39.13	273.00	20.08	-40.4	-41.3	23.4	0.00e+00	0	26	0	312475648	60	5639
2026-01-05 02:34:40.14	273.25	20.09	-40.5	-41.4	23.4	0.00e+00	92	26	0	314572800	60	5756
2026-01-05 02:34:41.15	273.50	20.10	-40.6	-41.6	23.3	0.00e+00	92	26	0	316669952	60	5830
2026-01-05 02:34:42.16	273.76	20.11	-40.3	-41.2	23.3	0.00e+00	0	26	0	318767104	60	5624
2026-01-05 02:34:43.17	274.01	20.12	-40.6	-41.6	23.1	0.00e+00	69	26	0	319815680	60	5836
2026-01-05 02:34:44.18	274.26	20.12	-41.0	-42.0	22.7	0.00e+00	33	26	0	321912832	60	6139
2026-01-05 02:34:45.20	274.52	20.13	-41.4	-42.4	22.5	0.00e+00	92	26	0	324009984	60	6439
2026-01-05 02:34:46.21	274.77	20.13	-41.9	-43.0	22.1	0.00e+00	0	26	0	326107136	60	6888
2026-01-05 02:34:47.22	275.03	20.14	-41.7	-42.8	22.2	0.00e+00	92	26	0	328204288	60	6729
2026-01-05 02:34:48.23	275.28	20.14	-41.6	-42.6	22.3	0.00e+00	90	26	0	329252864	60	6574
2026-01-05 02:34:49.24	275.53	20.15	-41.4	-42.5	22.4	0.00e+00	0	26	0	331350016	60	6473
2026-01-05 02:34:50.25	275.79	20.15	-41.6	-42.6	22.4	0.00e+00	87	26	0	333447168	60	6608
2026-01-05 02:34:51.26	276.04	20.15	-41.9	-42.9	22.3	0.00e+00	0	26	0	335544320	60	6823
2026-01-05 02:34:52.27	276.30	20.15	-41.6	-42.6	22.3	0.00e+00	90	26	0	337641472	60	6591
2026-01-05 02:34:53.28	276.55	20.15	-41.5	-42.5	22.4	0.00e+00	0	26	0	338690048	60	6494
2026-01-05 02:34:54.29	276.80	20.15	-41.4	-42.4	22.5	0.00e+00	91	26	0	340787200	60	6413
2026-01-05 02:34:55.31	277.06	20.15	-41.3	-42.3	22.5	0.00e+00	91	26	0	342884352	60	6324
2026-01-05 02:34:56.32	277.31	20.15	-41.6	-42.6	22.5	0.00e+00	0	26	0	344981504	60	6560
2026-01-05 02:34:57.33	277.57	20.15	-41.6	-42.6	22.2	0.00e+00	92	26	0	347078656	60	6607
2026-01-05 02:34:58.34	277.82	20.15	-41.3	-42.3	22.5	0.00e+00	0	26	0	349175808	60	6329
2026-01-05 02:34:59.35	278.07	20.15	-41.6	-42.6	22.3	0.00e+00	92	26	0	350224384	60	6571
2026-01-05 02:35:00.36	278.33	20.15	-41.5	-42.5	22.4	0.00e+00	0	26	0	352321536	60	6519
2026-01-05 02:35:01.37	278.58	20.14	-41.8	-42.9	22.1	0.00e+00	92	26	0	354418688	60	6802
2026-01-05 02:35:02.38	278.84	20.14	-41.5	-42.5	22.3	0.00e+00	2	26	0	356515840	60	6522
2026-01-05 02:35:03.39	279.09	20.14	-41.6	-42.6	22.4	0.00e+00	0	26	0	358612992	60	6612
2026-01-05 02:35:04.40	279.34	20.13	-41.6	-42.6	22.2	0.00e+00	90	26	0	359661568	60	6604
2026-01-05 02:35:05.42	279.60	20.13	-41.9	-43.0	22.0	0.00e+00	0	26	0	361758720	60	6876
2026-01-05 02:35:06.43	279.85	20.12	-41.8	-42.9	22.0	0.00e+00	92	26	0	363855872	60	6845
2026-01-05 02:35:07.44	280.11	20.11	-41.7	-42.8	22.1	0.00e+00	0	26	0	365953024	60	6726
2026-01-05 02:35:08.45	280.36	20.11	-41.7	-42.7	22.1	0.00e+00	90	26	0	368050176	60	6689
2026-01-05 02:35:09.46	280.61	20.10	-41.6	-42.7	22.2	0.00e+00	41	26	0	369098752	60	6643
2026-01-05 02:35:10.47	280.86	20.09	-41.4	-42.4	22.4	0.00e+00	0	26	0	371195904	60	6410
2026-01-05 02:35:11.48	281.12	20.08	-41.5	-42.6	22.1	0.00e+00	92	26	0	373293056	60	6561
2026-01-05 02:35:12.50	281.37	20.07	-41.5	-42.5	22.3	0.00e+00	0	26	0	375390208	60	6533
2026-01-05 02:35:13.51	281.62	20.06	-41.8	-42.8	22.3	0.00e+00	92	26	0	377487360	60	6743
2026-01-05 02:35:14.52	281.88	20.05	-41.8	-42.8	22.2	0.00e+00	0	26	0	378535936	60	6756
2026-01-05 02:35:15.53	282.13	20.04	-41.6	-42.6	22.2	0.00e+00	92	26	0	380633088	60	6615
2026-01-05 02:35:16.54	282.38	20.03	-41.3	-42.3	22.5	0.00e+00	0	26	0	382730240	60	6352
2026-01-05 02:35:17.55	282.63	20.02	-41.2	-42.2	22.6	0.00e+00	0	26	0	384827392	60	6308
2026-01-05 02:35:18.56	282.88	20.01	-41.0	-42.0	22.8	0.00e+00	92	26	0	386924544	60	6130
2026-01-05 02:35:19.57	283.13	19.99	-40.9	-41.9	22.9	0.00e+00	0	26	0	387973120	60	6041
2026-01-05 02:35:20.58	283.39	19.98	-40.7	-41.7	22.9	0.00e+00	71	26	0	390070272	60	5915
2026-01-05 02:35:21.59	283.64	19.97	-40.7	-41.7	23.1	0.00e+00	0	26	0	392167424	60	5911
2026-01-05 02:35:22.61	283.89	19.95	-40.7	-41.6	23.0	0.00e+00	91	26	0	394264576	60	5875
2026-01-05 02:35:23.62	284.14	19.94	-40.8	-41.7	23.0	0.00e+00	0	26	0	396361728	60	5950
2026-01-05 02:35:24.63	284.39	19.92	-40.8	-41.8	22.9	0.00e+00	0	26	0	397410304	60	6009
2026-01-05 02:35:25.64	284.64	19.91	-41.1	-42.1	22.6	0.00e+00	92	26	0	399507456	60	6240
2026-01-05 02:35:26.65	284.89	19.89	-41.1	-42.1	22.6	0.00e+00	0	26	0	401604608	60	6232
2026-01-05 02:35:27.66	285.14	19.87	-41.3	-42.3	22.6	0.00e+00	44	26	0	403701760	60	6366
2026-01-05 02:35:28.67	285.39	19.85	-41.5	-42.5	22.4	0.00e+00	0	26	0	405798912	60	6515
2026-01-05 02:35:29.68	285.64	19.84	-41.1	-42.1	22.6	0.00e+00	92	26	0	407896064	60	6242
2026-01-05 02:35:30.69	285.88	19.82	-41.4	-42.4	22.4	0.00e+00	33	26	0	408944640	60	6447
2026-01-05 02:35:31.71	286.13	19.80	-41.0	-42.0	22.7	0.00e+00	59	26	0	411041792	60	6144
2026-01-05 02:35:32.72	286.38	19.78	-41.0	-42.0	22.8	0.00e+00	79	26	0	413138944	60	6108
2026-01-05 02:35:33.73	286.63	19.76	-40.9	-41.9	22.9	0.00e+00	0	26	0	415236096	60	6041
2026-01-05 02:35:34.74	286.88	19.74	-40.9	-41.8	23.0	0.00e+00	45	26	0	417333248	60	5999
2026-01-05 02:35:35.75	287.12	19.72	-41.1	-42.1	22.7	0.00e+00	0	26	0	418381824	60	6182
2026-01-05 02:35:36.76	287.37	19.69	-41.1	-42.0	22.8	0.00e+00	92	26	0	420478976	60	6161
2026-01-05 02:35:37.77	287.62	19.67	-41.0	-42.0	22.8	0.00e+00	0	26	0	422576128	60	6126
2026-01-05 02:35:38.78	287.86	19.65	-41.0	-41.9	22.7	0.00e+00	41	26	0	424673280	60	6092
2026-01-05 02:35:39.79	288.11	19.63	-41.0	-41.9	22.9	0.00e+00	62	26	0	426770432	60	6094
2026-01-05 02:35:40.80	288.35	19.60	-40.8	-41.7	23.0	0.00e+00	0	26	0	427819008	60	5964
2026-01-05 02:35:41.82	288.60	19.58	-40.8	-41.7	22.9	0.00e+00	68	26	0	429916160	60	5964
2026-01-05 02:35:42.83	288.84	19.55	-40.7	-41.7	23.1	0.00e+00	0	26	0	432013312	60	5917
2026-01-05 02:35:43.84	289.09	19.53	-40.9	-41.9	22.9	0.00e+00	88	26	0	434110464	60	6049
2026-01-05 02:35:44.85	289.33	19.50	-41.0	-42.0	22.8	0.00e+00	0	26	0	436207616	60	6128
2026-01-05 02:35:45.86	289.57	19.48	-41.1	-42.1	22.8	0.00e+00	92	26	0	437256192	60	6211
2026-01-05 02:35:46.87	289.82	19.45	-41.0	-42.0	22.9	0.00e+00	46	26	0	439353344	60	6143
2026-01-05 02:35:47.88	290.06	19.42	-40.8	-41.7	22.9	0.00e+00	0	26	0	441450496	60	5954
2026-01-05 02:35:48.89	290.30	19.39	-40.9	-41.8	23.1	0.00e+00	83	26	0	443547648	60	6023
2026-01-05 02:35:49.90	290.54	19.37	-40.8	-41.7	23.0	0.00e+00	0	26	0	445644800	60	5954
2026-01-05 02:35:50.92	290.78	19.34	-41.1	-42.1	22.7	0.00e+00	80	26	0	447741952	60	6204
2026-01-05 02:35:51.93	291.03	19.31	-41.3	-42.3	22.5	0.00e+00	0	26	0	448790528	60	6373
2026-01-05 02:35:52.94	291.27	19.28	-41.9	-43.0	21.8	0.00e+00	71	26	0	450887680	60	6879
2026-01-05 02:35:53.95	291.50	19.25	-42.0	-43.1	22.0	0.00e+00	34	26	0	452984832	60	6964
2026-01-05 02:35:54.96	291.74	19.22	-42.1	-43.2	21.8	0.00e+00	0	26	0	455081984	60	7074
2026-01-05 02:35:55.97	291.98	19.19	-42.0	-43.1	22.0	0.00e+00	74	26	0	457179136	60	6960
2026-01-05 02:35:56.98	292.22	19.16	-41.7	-42.8	22.1	0.00e+00	0	26	0	458227712	60	6725
2026-01-05 02:35:57.99	292.46	19.12	-41.2	-42.2	22.6	0.00e+00	90	26	0	460324864	60	6265
2026-01-05 02:35:59.00	292.69	19.09	-40.7	-41.7	23.1	0.00e+00	0	26	0	462422016	60	5911
2026-01-05 02:36:00.01	292.93	19.06	-40.6	-41.6	23.1	0.00e+00	88	26	0	464519168	60	5839
2026-01-05 02:36:01.03	293.17	19.03	-40.5	-41.4	23.2	0.00e+00	3	26	0	466616320	60	5739
2026-01-05 02:36:02.04	293.41	18.99	-41.0	-41.9	22.8	0.00e+00	0	26	0	467664896	60	6086
2026-01-05 02:36:03.05	293.64	18.96	-41.3	-42.3	22.7	0.00e+00	84	26	0	469762048	60	6328
2026-01-05 02:36:04.06	293.88	18.92	-41.2	-42.3	22.6	0.00e+00	0	26	0	471859200	60	6320
2026-01-05 02:36:05.07	294.11	18.89	-41.2	-42.2	22.6	0.00e+00	91	26	0	473956352	60	6312
2026-01-05 02:36:06.08	294.34	18.86	-41.2	-42.2	22.8	0.00e+00	0	26	0	476053504	60	6280
2026-01-05 02:36:07.09	294.58	18.82	-40.8	-41.7	23.0	0.00e+00	55	26	0	477102080	60	5945
2026-01-05 02:36:08.10	294.81	18.78	-40.8	-41.8	23.1	0.00e+00	5	26	0	479199232	60	5976
2026-01-05 02:36:09.12	295.04	18.75	-41.1	-42.1	22.7	0.00e+00	0	26	0	481296384	60	6215
2026-01-05 02:36:10.13	295.27	18.71	-41.2	-42.2	22.7	0.00e+00	92	26	0	483393536	60	6260
2026-01-05 02:36:11.14	295.50	18.67	-41.3	-42.4	22.7	0.00e+00	0	26	0	485490688	60	6415
2026-01-05 02:36:12.15	295.73	18.64	-41.1	-42.1	22.6	0.00e+00	90	26	0	487587840	60	6218
2026-01-05 02:36:13.16	295.96	18.60	-41.3	-42.3	22.3	0.00e+00	0	26	0	488636416	60	6383
2026-01-05 02:36:14.17	296.19	18.56	-41.4	-42.4	22.5	0.00e+00	92	26	0	490733568	60	6458
2026-01-05 02:36:15.18	296.42	18.52	-40.5	-41.5	23.3	0.00e+00	0	26	0	492830720	60	5775
2026-01-05 02:36:16.19	296.65	18.48	-40.1	-41.0	23.6	0.00e+00	0	26	0	494927872	58	6126
2026-01-05 02:36:17.20	296.88	18.44	-39.9	-40.8	23.7	0.00e+00	92	26	0	497025024	58	5971
2026-01-05 02:36:18.21	297.10	18.40	-39.6	-40.5	23.9	0.00e+00	0	26	0	498073600	58	5781
2026-01-05 02:36:19.23	297.33	18.36	-39.7	-40.5	23.8	0.00e+00	92	26	0	500170752	58	5824
2026-01-05 02:36:20.24	297.56	18.32	-39.8	-40.7	23.7	0.00e+00	0	26	0	502267904	58	5932
2026-01-05 02:36:21.25	297.78	18.28	-40.0	-40.9	23.6	0.00e+00	91	26	0	504365056	58	6077
2026-01-05 02:36:22.26	298.01	18.24	-40.1	-41.0	23.5	0.00e+00	0	26	0	506462208	58	6123
2026-01-05 02:36:23.27	298.23	18.20	-40.3	-41.2	23.4	0.00e+00	38	26	0	507510784	58	6281
2026-01-05 02:36:24.28	298.45	18.16	-40.1	-41.0	23.5	0.00e+00	90	26	0	509607936	58	6134
2026-01-05 02:36:25.29	298.68	18.11	-40.1	-41.0	23.4	0.00e+00	0	26	0	511705088	58	6131
2026-01-05 02:36:26.30	298.90	18.07	-40.0	-40.9	23.6	0.00e+00	46	26	0	513802240	58	6064
2026-01-05 02:36:27.32	299.12	18.03	-40.0	-41.0	23.4	0.00e+00	0	26	0	515899392	58	6112
2026-01-05 02:36:28.33	299.34	17.98	-40.2	-41.1	23.4	0.00e+00	92	26	0	516947968	58	6213
2026-01-05 02:36:29.34	299.56	17.94	-40.4	-41.4	23.2	0.00e+00	0	26	0	519045120	58	6392
2026-01-05 02:36:30.35	299.78	17.90	-40.6	-41.5	22.7	0.00e+00	0	26	0	521142272	58	6517
2026-01-05 02:36:31.36	300.00	17.85	-40.6	-41.5	23.0	0.00e+00	90	26	0	523239424	58	6524
2026-01-05 02:36:32.37	300.22	17.81	-40.4	-41.4	23.2	0.00e+00	0	26	0	525336576	58	6419
2026-01-05 02:36:33.38	300.44	17.76	-40.4	-41.3	23.3	0.00e+00	45	26	0	526385152	58	6351
2026-01-05 02:36:34.40	300.66	17.72	-40.3	-41.3	23.1	0.00e+00	0	26	0	528482304	58	6323
2026-01-05 02:36:35.41	300.87	17.67	-40.3	-41.2	23.2	0.00e+00	92	26	0	530579456	58	6287
2026-01-05 02:36:36.42	301.09	17.63	-40.5	-41.4	23.1	0.00e+00	0	26	0	532676608	58	6435
2026-01-05 02:36:37.43	301.30	17.58	-40.6	-41.6	23.0	0.00e+00	90	26	0	534773760	58	6579
2026-01-05 02:36:38.44	301.52	17.53	-40.7	-41.7	23.1	0.00e+00	91	26	0	536870912	58	6632
2026-01-05 02:36:39.45	301.73	17.49	-40.5	-41.5	23.1	0.00e+00	0	26	0	537919488	58	6468
2026-01-05 02:36:40.46	301.95	17.44	-40.5	-41.4	23.1	0.00e+00	28	26	0	540016640	58	6444
2026-01-05 02:36:41.47	302.16	17.39	-40.7	-41.7	23.1	0.00e+00	0	26	0	542113792	58	6632
2026-01-05 02:36:42.48	302.37	17.35	-40.9	-41.9	23.0	0.00e+00	92	26	0	544210944	58	6770
2026-01-05 02:36:43.50	302.58	17.30	-41.2	-42.3	22.5	0.00e+00	0	26	0	546308096	58	7090
2026-01-05 02:36:44.51	302.79	17.25	-41.3	-42.3	22.2	0.00e+00	66	26	0	547356672	60	6383
2026-01-05 02:36:45.52	303.00	17.20	-41.7	-42.8	21.9	0.00e+00	39	26	0	549453824	60	6729
2026-01-05 02:36:46.53	303.21	17.15	-41.8	-42.8	22.0	0.00e+00	0	26	0	551550976	60	6757
2026-01-05 02:36:47.54	303.42	17.10	-42.3	-43.4	21.7	0.00e+00	41	26	0	553648128	60	7237
2026-01-05 02:36:48.55	303.63	17.05	-41.8	-42.8	22.2	0.00e+00	0	26	0	555745280	60	6732
2026-01-05 02:36:49.56	303.84	17.00	-41.7	-42.8	22.2	0.00e+00	92	26	0	556793856	60	6704
2026-01-05 02:36:50.57	304.04	16.95	-41.6	-42.6	22.4	0.00e+00	0	26	0	558891008	60	6573
2026-01-05 02:36:51.58	304.25	16.90	-41.6	-42.6	22.4	0.00e+00	92	26	0	560988160	60	6565
2026-01-05 02:36:52.59	304.45	16.85	-41.7	-42.7	22.3	0.00e+00	40	26	0	563085312	60	6650
2026-01-05 02:36:53.61	304.66	16.80	-41.7	-42.8	22.6	0.00e+00	0	26	0	565182464	60	6697
2026-01-05 02:36:54.62	304.86	16.75	-41.3	-42.2	22.7	0.00e+00	75	26	0	566231040	60	6307
2026-01-05 02:36:55.63	305.07	16.70	-40.9	-41.9	23.0	0.00e+00	0	26	0	568328192	60	6038
2026-01-05 02:36:56.64	305.27	16.65	-41.1	-42.1	22.8	0.00e+00	92	26	0	570425344	60	6193
2026-01-05 02:36:57.65	305.47	16.60	-40.8	-41.7	23.2	0.00e+00	0	26	0	572522496	60	5943
2026-01-05 02:36:58.66	305.67	16.55	-40.9	-41.9	23.0	0.00e+00	84	26	0	574619648	60	6051
2026-01-05 02:36:59.67	305.87	16.50	-41.0	-42.0	22.8	0.00e+00	0	26	0	575668224	60	6123
2026-01-05 02:37:00.68	306.07	16.44	-41.2	-42.2	22.8	0.00e+00	0	26	0	577765376	60	6248
2026-01-05 02:37:01.69	306.27	16.39	-41.2	-42.2	22.6	0.00e+00	92	26	0	579862528	60	6308
2026-01-05 02:37:02.71	306.47	16.34	-41.8	-42.8	22.3	0.00e+00	0	26	0	581959680	60	6765
2026-01-05 02:37:03.72	306.67	16.29	-42.5	-43.6	21.8	0.00e+00	45	26	0	584056832	60	7392
2026-01-05 02:37:04.73	306.87	16.23	-42.5	-43.7	21.5	0.00e+00	0	26	0	585105408	60	7454
2026-01-05 02:37:05.74	307.06	16.18	-43.0	-44.2	21.2	0.00e+00	92	26	0	587202560	60	7900
2026-01-05 02:37:06.75	307.26	16.13	-42.7	-43.9	21.4	0.00e+00	0	26	0	589299712	60	7634
2026-01-05 02:37:07.76	307.45	16.07	-42.5	-43.7	21.4	0.00e+00	0	26	0	591396864	60	7464
2026-01-05 02:37:08.77	307.65	16.02	-42.8	-44.0	21.5	0.00e+00	92	26	0	593494016	60	7772
2026-01-05 02:37:09.78	307.84	15.97	-42.1	-43.2	21.9	0.00e+00	0	26	0	595591168	60	7036
2026-01-05 02:37:10.79	308.04	15.91	-42.1	-43.2	21.6	0.00e+00	92	26	0	596639744	60	7067
2026-01-05 02:37:11.80	308.23	15.86	-42.2	-43.3	22.2	0.00e+00	0	26	0	598736896	60	7090
2026-01-05 02:37:12.82	308.42	15.80	-41.8	-42.9	22.4	0.00e+00	79	26	0	600834048	60	6774
2026-01-05 02:37:13.83	308.61	15.75	-41.5	-42.5	22.4	0.00e+00	0	26	0	602931200	60	6499
2026-01-05 02:37:14.84	308.80	15.69	-42.0	-43.1	22.6	0.00e+00	0	26	0	605028352	60	6952
2026-01-05 02:37:15.85	308.99	15.64	-41.4	-42.4	22.8	0.00e+00	92	26	0	606076928	60	6419
2026-01-05 02:37:16.86	309.18	15.58	-41.1	-42.1	22.8	0.00e+00	0	26	0	608174080	60	6195
2026-01-05 02:37:17.87	309.37	15.53	-41.1	-42.1	22.6	0.00e+00	46	26	0	610271232	60	6194
2026-01-05 02:37:18.88	309.56	15.47	-41.2	-42.2	22.6	0.00e+00	0	26	0	612368384	60	6295
2026-01-05 02:37:19.89	309.74	15.42	-41.6	-42.6	22.4	0.00e+00	91	26	0	614465536	60	6611
2026-01-05 02:37:20.90	309.93	15.36	-42.1	-43.2	22.0	0.00e+00	0	26	0	615514112	60	7080
2026-01-05 02:37:21.92	310.12	15.31	-42.2	-43.3	21.7	0.00e+00	3	26	0	617611264	60	7142
2026-01-05 02:37:22.93	310.30	15.25	-43.0	-44.2	21.1	0.00e+00	44	26	0	619708416	60	7942
2026-01-05 02:37:23.94	310.49	15.19	-42.9	-44.2	21.3	0.00e+00	0	26	0	621805568	60	7866
2026-01-05 02:37:24.95	310.67	15.14	-42.5	-43.7	21.6	0.00e+00	12	26	0	623902720	60	7426
2026-01-05 02:37:25.96	310.85	15.08	-42.7	-43.9	21.6	0.00e+00	0	26	0	624951296	60	7639
2026-01-05 02:37:26.97	311.03	15.02	-41.9	-43.0	22.0	0.00e+00	62	26	0	627048448	60	6919
2026-01-05 02:37:27.98	311.22	14.97	-41.8	-42.9	22.2	0.00e+00	0	26	0	629145600	60	6787
2026-01-05 02:37:28.99	311.40	14.91	-41.7	-42.8	22.4	0.00e+00	70	26	0	631242752	60	6702
2026-01-05 02:37:30.00	311.58	14.85	-42.0	-43.1	22.1	0.00e+00	92	26	0	633339904	60	6963
2026-01-05 02:37:31.02	311.76	14.80	-42.1	-43.2	22.0	0.00e+00	0	26	0	635437056	60	7040
2026-01-05 02:37:32.03	311.94	14.74	-41.5	-42.6	22.1	0.00e+00	88	26	0	636485632	60	6567
2026-01-05 02:37:33.04	312.12	14.68	-41.6	-42.7	22.1	0.00e+00	0	26	0	638582784	60	6620
2026-01-05 02:37:34.05	312.29	14.62	-41.5	-42.6	22.1	0.00e+00	17	26	0	640679936	60	6585
2026-01-05 02:37:35.06	312.47	14.57	-41.3	-42.4	22.1	0.00e+00	0	26	0	642777088	60	6392
2026-01-05 02:37:36.07	312.65	14.51	-41.1	-42.2	22.5	0.00e+00	92	26	0	644874240	60	6263
2026-01-05 02:37:37.08	312.82	14.45	-40.8	-41.8	22.7	0.00e+00	0	26	0	645922816	60	6030
2026-01-05 02:37:38.09	313.00	14.39	-40.9	-41.9	22.7	0.00e+00	0	26	0	648019968	60	6041
2026-01-05 02:37:39.10	313.17	14.34	-40.7	-41.7	22.9	0.00e+00	43	26	0	650117120	60	5938
2026-01-05 02:37:40.11	313.34	14.28	-41.2	-42.2	22.4	0.00e+00	0	26	0	652214272	60	6312
2026-01-05 02:37:41.13	313.52	14.22	-41.3	-42.4	22.3	0.00e+00	12	26	0	654311424	60	6396
2026-01-05 02:37:42.14	313.69	14.16	-41.3	-42.4	22.3	0.00e+00	0	26	0	655360000	60	6434
2026-01-05 02:37:43.15	313.86	14.10	-41.7	-42.8	22.1	0.00e+00	92	26	0	657457152	60	6707
2026-01-05 02:37:44.16	314.03	14.04	-41.5	-42.6	22.2	0.00e+00	40	26	0	659554304	60	6591
2026-01-05 02:37:45.17	314.20	13.98	-41.4	-42.5	22.3	0.00e+00	0	26	0	661651456	60	6510
2026-01-05 02:37:46.18	314.37	13.93	-41.4	-42.5	22.3	0.00e+00	92	26	0	663748608	60	6516
2026-01-05 02:37:47.19	314.54	13.87	-41.1	-42.1	22.4	0.00e+00	0	26	0	664797184	60	6232
2026-01-05 02:37:48.21	314.71	13.81	-41.1	-42.1	22.6	0.00e+00	90	26	0	666894336	60	6202
2026-01-05 02:37:49.22	314.88	13.75	-40.9	-41.9	22.7	0.00e+00	33	26	0	668991488	60	6051
2026-01-05 02:37:50.23	315.05	13.69	-41.1	-42.1	22.5	0.00e+00	92	26	0	671088640	60	6230
2026-01-05 02:37:51.24	315.21	13.63	-41.0	-42.0	22.6	0.00e+00	45	26	0	673185792	60	6159
2026-01-05 02:37:52.25	315.38	13.57	-41.3	-42.3	22.5	0.00e+00	0	26	0	675282944	60	6353
2026-01-05 02:37:53.26	315.54	13.51	-41.2	-42.2	22.2	0.00e+00	92	26	0	676331520	60	6308
2026-01-05 02:37:54.27	315.71	13.45	-41.3	-42.4	22.2	0.00e+00	0	26	0	678428672	60	6404
2026-01-05 02:37:55.28	315.87	13.39	-41.5	-42.5	22.3	0.00e+00	87	26	0	680525824	60	6524
2026-01-05 02:37:56.29	316.03	13.33	-41.3	-42.4	22.5	0.00e+00	0	26	0	682622976	60	6398
2026-01-05 02:37:57.30	316.20	13.28	-41.7	-42.7	22.2	0.00e+00	91	26	0	684720128	60	6684
2026-01-05 02:37:58.31	316.36	13.22	-42.3	-43.4	22.2	0.00e+00	0	26	0	685768704	60	7215
2026-01-05 02:37:59.33	316.52	13.16	-41.9	-43.0	22.0	0.00e+00	0	26	0	687865856	60	6874
2026-01-05 02:38:00.34	316.68	13.10	-42.6	-43.8	22.0	0.00e+00	62	26	0	689963008	60	7551
2026-01-05 02:38:01.35	316.84	13.04	-42.5	-43.6	21.6	0.00e+00	0	26	0	692060160	60	7393
2026-01-05 02:38:02.36	317.00	12.98	-42.0	-43.1	22.1	0.00e+00	91	26	0	694157312	60	6970
2026-01-05 02:38:03.37	317.16	12.92	-42.2	-43.3	22.1	0.00e+00	0	26	0	695205888	60	7152
2026-01-05 02:38:04.38	317.32	12.86	-42.5	-43.7	21.8	0.00e+00	0	26	0	697303040	60	7432
2026-01-05 02:38:05.39	317.47	12.80	-42.3	-43.4	22.3	0.00e+00	0	26	0	699400192	60	7210
2026-01-05 02:38:06.40	317.63	12.74	-41.8	-42.9	22.2	0.00e+00	0	26	0	701497344	60	6815
2026-01-05 02:38:07.41	317.79	12.68	-41.2	-42.2	22.8	0.00e+00	44	26	0	703594496	60	6283
2026-01-05 02:38:08.43	317.94	12.62	-41.5	-42.5	22.8	0.00e+00	0	26	0	704643072	60	6477
2026-01-05 02:38:09.44	318.10	12.56	-40.9	-41.9	23.0	0.00e+00	92	26	0	706740224	60	6050
2026-01-05 02:38:10.45	318.25	12.50	-40.9	-41.8	23.3	0.00e+00	0	26	0	708837376	60	6032
2026-01-05 02:38:11.46	318.41	12.44	-40.6	-41.6	23.2	0.00e+00	33	26	0	710934528	60	5837
2026-01-05 02:38:12.47	318.56	12.38	-40.7	-41.6	23.1	0.00e+00	0	26	0	713031680	60	5873
2026-01-05 02:38:13.48	318.71	12.32	-41.0	-42.0	22.8	0.00e+00	33	26	0	714080256	60	6115
2026-01-05 02:38:14.49	318.86	12.26	-41.0	-42.0	22.5	0.00e+00	36	26	0	716177408	60	6115
2026-01-05 02:38:15.50	319.02	12.20	-41.1	-42.1	22.8	0.00e+00	0	26	0	718274560	60	6221
2026-01-05 02:38:16.51	319.17	12.14	-40.8	-41.8	22.7	0.00e+00	92	26	0	720371712	60	5992
2026-01-05 02:38:17.52	319.32	12.08	-41.1	-42.1	22.6	0.00e+00	0	26	0	722468864	60	6219
2026-01-05 02:38:18.53	319.47	12.02	-40.9	-41.9	22.6	0.00e+00	0	26	0	723517440	60	6091
2026-01-05 02:38:19.54	319.62	11.95	-41.2	-42.3	22.6	0.00e+00	0	26	0	725614592	60	6340
2026-01-05 02:38:20.56	319.76	11.89	-41.1	-42.1	22.6	0.00e+00	0	26	0	727711744	60	6236
2026-01-05 02:38:21.57	319.91	11.83	-40.8	-41.8	22.8	0.00e+00	11	26	0	729808896	60	5984
2026-01-05 02:38:22.58	320.06	11.77	-40.8	-41.8	22.9	0.00e+00	0	26	0	731906048	60	5985
2026-01-05 02:38:23.59	320.21	11.71	-40.7	-41.7	22.9	0.00e+00	91	26	0	734003200	60	5931
2026-01-05 02:38:24.60	320.35	11.65	-41.3	-42.3	22.6	0.00e+00	0	26	0	735051776	60	6358
2026-01-05 02:38:25.61	320.50	11.59	-41.2	-42.3	22.6	0.00e+00	49	26	0	737148928	60	6326
2026-01-05 02:38:26.62	320.64	11.53	-41.1	-42.1	22.6	0.00e+00	0	26	0	739246080	60	6218
2026-01-05 02:38:27.63	320.79	11.47	-41.6	-42.7	22.2	0.00e+00	0	26	0	741343232	60	6644
2026-01-05 02:38:28.64	320.93	11.41	-41.8	-42.9	22.3	0.00e+00	0	26	0	743440384	60	6772
2026-01-05 02:38:29.66	321.08	11.35	-41.8	-42.9	22.2	0.00e+00	0	26	0	744488960	60	6783
2026-01-05 02:38:30.67	321.22	11.29	-41.6	-42.7	22.3	0.00e+00	92	26	0	746586112	60	6628
2026-01-05 02:38:31.68	321.36	11.23	-41.6	-42.7	22.2	0.00e+00	0	26	0	748683264	60	6645
2026-01-05 02:38:32.69	321.50	11.17	-42.2	-43.2	22.4	0.00e+00	11	26	0	750780416	60	7071
2026-01-05 02:38:33.70	321.64	11.11	-41.0	-42.0	22.6	0.00e+00	0	26	0	752877568	60	6132
2026-01-05 02:38:34.71	321.78	11.05	-40.7	-41.7	23.0	0.00e+00	0	26	0	753926144	60	5943
2026-01-05 02:38:35.72	321.92	10.99	-40.9	-41.9	22.9	0.00e+00	0	26	0	756023296	60	6043
2026-01-05 02:38:36.73	322.06	10.93	-41.1	-42.1	22.8	0.00e+00	0	26	0	758120448	60	6174
2026-01-05 02:38:37.75	322.20	10.87	-40.8	-41.8	22.6	0.00e+00	92	26	0	760217600	60	5995
2026-01-05 02:38:38.76	322.34	10.80	-41.1	-42.2	22.5	0.00e+00	0	26	0	762314752	60	6251
2026-01-05 02:38:39.77	322.48	10.74	-41.4	-42.5	22.3	0.00e+00	92	26	0	763363328	60	6492
2026-01-05 02:38:40.78	322.61	10.68	-41.4	-42.5	22.1	0.00e+00	0	26	0	765460480	60	6515
2026-01-05 02:38:41.79	322.75	10.62	-41.7	-42.8	21.8	0.00e+00	0	26	0	767557632	60	6759
2026-01-05 02:38:42.80	322.89	10.56	-42.4	-43.5	21.4	0.00e+00	0	26	0	769654784	60	7323
2026-01-05 02:38:43.81	323.02	10.50	-42.2	-43.4	21.5	0.00e+00	0	26	0	771751936	60	7173
2026-01-05 02:38:44.82	323.16	10.44	-42.2	-43.4	21.4	0.00e+00	65	26	0	772800512	60	7244
2026-01-05 02:38:45.83	323.29	10.38	-42.4	-43.6	21.3	0.00e+00	0	26	0	774897664	60	7354
2026-01-05 02:38:46.85	323.43	10.32	-42.4	-43.5	21.5	0.00e+00	90	26	0	776994816	60	7323
2026-01-05 02:38:47.86	323.56	10.26	-42.2	-43.4	21.4	0.00e+00	0	26	0	779091968	60	7229
2026-01-05 02:38:48.87	323.69	10.20	-42.2	-43.4	21.5	0.00e+00	0	26	0	781189120	60	7177
2026-01-05 02:38:49.88	323.82	10.14	-42.2	-43.4	21.6	0.00e+00	0	26	0	783286272	60	7187
2026-01-05 02:38:50.89	323.95	10.08	-42.1	-43.3	21.6	0.00e+00	0	26	0	784334848	60	7134
2026-01-05 02:38:51.90	324.09	10.02	-42.1	-43.3	21.5	0.00e+00	71	26	0	786432000	60	7140
2026-01-05 02:38:52.91	324.22	9.96	-41.9	-43.0	21.6	0.00e+00	6	26	0	788529152	60	6923
2026-01-05 02:38:53.92	324.35	9.90	-41.9	-43.0	21.6	0.00e+00	92	26	0	790626304	60	6900
2026-01-05 02:38:54.93	324.48	9.84	-41.9	-43.1	21.5	0.00e+00	0	26	0	792723456	60	6932
2026-01-05 02:38:55.95	324.61	9.78	-41.9	-43.1	21.5	0.00e+00	0	26	0	793772032	60	6969
2026-01-05 02:38:56.96	324.74	9.72	-42.1	-43.3	21.4	0.00e+00	0	26	0	795869184	60	7127
2026-01-05 02:38:57.97	324.86	9.66	-41.7	-42.9	21.4	0.00e+00	0	26	0	797966336	60	6798
2026-01-05 02:38:58.98	324.99	9.60	-41.8	-42.9	21.7	0.00e+00	42	26	0	800063488	60	6842
2026-01-05 02:38:59.99	325.12	9.54	-41.8	-42.9	21.5	0.00e+00	0	26	0	802160640	60	6827
2026-01-05 02:39:01.00	325.24	9.48	-41.5	-42.6	21.8	0.00e+00	92	26	0	803209216	60	6589
2026-01-05 02:39:02.01	325.37	9.42	-41.4	-42.5	21.9	0.00e+00	0	26	0	805306368	60	6511
2026-01-05 02:39:03.02	325.50	9.36	-41.5	-42.6	21.8	0.00e+00	0	26	0	807403520	60	6564
2026-01-05 02:39:04.03	325.62	9.30	-41.6	-42.7	21.6	0.00e+00	0	26	0	809500672	60	6636
2026-01-05 02:39:05.04	325.75	9.24	-41.6	-42.8	21.3	0.00e+00	0	26	0	811597824	60	6724
2026-01-05 02:39:06.06	325.87	9.18	-41.9	-43.1	21.4	0.00e+00	12	26	0	812646400	60	6948
2026-01-05 02:39:07.07	325.99	9.12	-41.9	-43.1	21.2	0.00e+00	0	26	0	814743552	60	6949
2026-01-05 02:39:08.08	326.12	9.06	-41.9	-43.1	21.5	0.00e+00	59	26	0	816840704	60	6940
2026-01-05 02:39:09.09	326.24	9.00	-41.9	-43.1	21.3	0.00e+00	0	26	0	818937856	60	7006
2026-01-05 02:39:10.10	326.36	8.94	-42.0	-43.2	21.3	0.00e+00	0	26	0	821035008	60	7059
2026-01-05 02:39:11.11	326.48	8.88	-41.9	-43.1	21.4	0.00e+00	0	26	0	823132160	60	6955
2026-01-05 02:39:12.12	326.60	8.82	-41.7	-42.9	21.5	0.00e+00	0	26	0	824180736	60	6773
2026-01-05 02:39:13.13	326.72	8.76	-41.5	-42.7	21.6	0.00e+00	9	26	0	826277888	60	6641
2026-01-05 02:39:14.15	326.85	8.70	-41.4	-42.6	21.8	0.00e+00	33	26	0	828375040	60	6540
2026-01-05 02:39:15.16	326.97	8.64	-41.4	-42.5	21.8	0.00e+00	92	26	0	830472192	60	6529
2026-01-05 02:39:16.17	327.09	8.58	-41.5	-42.6	21.9	0.00e+00	33	26	0	832569344	60	6556
2026-01-05 02:39:17.18	327.20	8.52	-41.5	-42.5	22.0	0.00e+00	92	26	0	833617920	60	6537
2026-01-05 02:39:18.19	327.32	8.46	-41.6	-42.6	22.0	0.00e+00	0	26	0	835715072	60	6615
2026-01-05 02:39:19.20	327.44	8.40	-41.7	-42.8	22.0	0.00e+00	0	26	0	837812224	60	6754
2026-01-05 02:39:20.21	327.56	8.34	-41.6	-42.7	21.9	0.00e+00	0	26	0	839909376	60	6662
2026-01-05 02:39:21.22	327.67	8.28	-41.6	-42.8	21.6	0.00e+00	0	26	0	842006528	60	6706
2026-01-05 02:39:22.24	327.79	8.22	-41.9	-43.0	21.5	0.00e+00	39	26	0	843055104	60	6898
2026-01-05 02:39:23.25	327.91	8.16	-41.9	-43.1	21.3	0.00e+00	0	26	0	845152256	60	6977
2026-01-05 02:39:24.26	328.02	8.10	-42.2	-43.4	21.2	0.00e+00	92	26	0	847249408	60	7194
2026-01-05 02:39:25.27	328.14	8.04	-42.3	-43.6	21.0	0.00e+00	0	26	0	849346560	60	7360
2026-01-05 02:39:26.28	328.25	7.98	-42.5	-43.8	20.8	0.00e+00	0	26	0	851443712	60	7561
2026-01-05 02:39:27.29	328.37	7.92	-42.4	-43.7	20.9	0.00e+00	0	26	0	852492288	60	7431
2026-01-05 02:39:28.30	328.48	7.87	-42.2	-43.5	21.0	0.00e+00	0	26	0	854589440	60	7276
2026-01-05 02:39:29.31	328.59	7.81	-42.2	-43.4	21.1	0.00e+00	43	26	0	856686592	60	7242
2026-01-05 02:39:30.32	328.71	7.75	-42.1	-43.3	21.2	0.00e+00	0	26	0	858783744	60	7163
2026-01-05 02:39:31.33	328.82	7.69	-42.0	-43.2	21.4	0.00e+00	60	26	0	860880896	60	7022
2026-01-05 02:39:32.35	328.93	7.63	-42.4	-43.6	21.6	0.00e+00	0	26	0	861929472	60	7374
2026-01-05 02:39:33.36	329.04	7.57	-42.1	-43.2	21.7	0.00e+00	0	26	0	864026624	60	7058
2026-01-05 02:39:34.37	329.16	7.51	-41.7	-42.7	21.9	0.00e+00	0	26	0	866123776	60	6690
2026-01-05 02:39:35.38	329.27	7.45	-41.8	-42.9	21.8	0.00e+00	0	26	0	868220928	60	6841
2026-01-05 02:39:36.39	329.38	7.39	-41.9	-43.1	21.5	0.00e+00	39	26	0	870318080	60	6943
2026-01-05 02:39:37.40	329.49	7.34	-41.9	-43.1	21.5	0.00e+00	0	26	0	872415232	60	6979
2026-01-05 02:39:38.41	329.60	7.28	-42.1	-43.3	21.1	0.00e+00	92	26	0	873463808	60	7132
2026-01-05 02:39:39.42	329.71	7.22	-42.3	-43.5	21.2	0.00e+00	0	26	0	875560960	60	7285
2026-01-05 02:39:40.43	329.81	7.16	-42.2	-43.5	20.9	0.00e+00	0	26	0	877658112	60	7264
2026-01-05 02:39:41.44	329.92	7.10	-42.5	-43.7	20.8	0.00e+00	0	26	0	879755264	60	7501
2026-01-05 02:39:42.46	330.03	7.04	-42.9	-44.3	20.4	0.00e+00	0	26	0	881852416	60	7995
2026-01-05 02:39:43.47	330.14	6.98	-42.8	-44.1	20.3	0.00e+00	32	26	0	882900992	60	7845
2026-01-05 02:39:44.48	330.25	6.93	-42.8	-44.1	20.5	0.00e+00	0	26	0	884998144	60	7850
2026-01-05 02:39:45.49	330.35	6.87	-43.3	-44.7	20.3	0.00e+00	92	26	0	887095296	60	8354
2026-01-05 02:39:46.50	330.46	6.81	-43.1	-44.5	20.2	0.00e+00	0	26	0	889192448	60	8184
2026-01-05 02:39:47.51	330.56	6.75	-43.1	-44.5	20.2	0.00e+00	0	26	0	891289600	60	8184
2026-01-05 02:39:48.52	330.67	6.69	-43.0	-44.3	20.2	0.00e+00	0	26	0	892338176	60	8029
2026-01-05 02:39:49.53	330.77	6.64	-43.3	-44.7	20.1	0.00e+00	0	26	0	894435328	60	8329
2026-01-05 02:39:50.54	330.88	6.58	-43.3	-44.7	20.1	0.00e+00	39	26	0	896532480	60	8329
2026-01-05 02:39:51.56	330.98	6.52	-43.3	-44.7	19.8	0.00e+00	0	26	0	898629632	60	8420
2026-01-05 02:39:52.57	331.09	6.46	-43.6	-45.1	19.6	0.00e+00	73	26	0	900726784	60	8799
2026-01-05 02:39:53.58	331.19	6.40	-43.6	-45.1	19.5	0.00e+00	0	26	0	901775360	60	8769
2026-01-05 02:39:54.59	331.29	6.34	-43.8	-45.4	19.1	0.00e+00	0	26	0	903872512	60	9131
2026-01-05 02:39:55.60	331.40	6.29	-44.0	-45.6	18.8	0.00e+00	0	26	0	905969664	60	9321
2026-01-05 02:39:56.61	331.50	6.23	-43.9	-45.6	18.9	0.00e+00	0	26	0	908066816	60	9255
2026-01-05 02:39:57.62	331.60	6.17	-44.1	-45.8	18.7	0.00e+00	33	26	0	910163968	60	9496
2026-01-05 02:39:58.63	331.70	6.11	-44.3	-46.1	18.4	0.00e+00	0	26	0	911212544	60	9873
2026-01-05 02:39:59.64	331.80	6.06	-44.1	-45.7	18.9	0.00e+00	75	26	0	913309696	60	9410
2026-01-05 02:40:00.65	331.90	6.00	-43.9	-45.6	18.8	0.00e+00	0	26	0	915406848	60	9262
2026-01-05 02:40:01.66	332.00	5.94	-43.9	-45.5	19.0	0.00e+00	18	26	0	917504000	60	9203
2026-01-05 02:40:02.68	332.11	5.88	-43.6	-45.2	19.1	0.00e+00	0	26	0	919601152	60	8917
2026-01-05 02:40:03.69	332.20	5.83	-43.3	-44.9	19.3	0.00e+00	0	26	0	921698304	60	8583
2026-01-05 02:40:04.70	332.30	5.77	-43.5	-45.1	19.2	0.00e+00	0	26	0	922746880	60	8762
2026-01-05 02:40:05.71	332.40	5.71	-43.4	-45.0	18.9	0.00e+00	0	26	0	924844032	60	8713
2026-01-05 02:40:06.72	332.50	5.66	-43.6	-45.3	18.7	0.00e+00	34	26	0	926941184	60	8977
2026-01-05 02:40:07.73	332.60	5.60	-43.8	-45.6	18.4	0.00e+00	0	26	0	929038336	60	9277
2026-01-05 02:40:08.74	332.70	5.54	-43.8	-45.6	18.2	0.00e+00	92	26	0	931135488	60	9336
2026-01-05 02:40:09.75	332.79	5.48	-44.1	-46.1	17.5	0.00e+00	0	26	0	932184064	60	9851
2026-01-05 02:40:10.76	332.89	5.43	-44.2	-46.4	17.0	0.00e+00	0	26	0	934281216	60	10140
2026-01-05 02:40:11.77	332.99	5.37	-44.6	-47.1	16.1	0.00e+00	0	26	0	936378368	60	10990
2026-01-05 02:40:12.78	333.08	5.31	-44.9	-47.7	14.9	0.00e+00	0	26	0	938475520	60	11877
2026-01-05 02:40:13.79	333.18	5.26	-44.9	-48.1	14.1	0.00e+00	92	26	0	940572672	60	12336
2026-01-05 02:40:14.81	333.28	5.20	-45.3	-49.0	13.0	2.51e-05	0	26	0	941621248	60	13740
2026-01-05 02:40:15.82	333.37	5.14	-45.6	-50.0	11.6	3.78e-04	92	26	0	943718400	60	15483
2026-01-05 02:40:16.83	333.47	5.09	-45.8	-50.8	10.4	3.73e-03	0	26	0	945815552	60	16907
2026-01-05 02:40:17.84	333.56	5.03	-45.9	-51.6	9.3	1.56e-02	0	26	0	947912704	60	18636
2026-01-05 02:40:18.85	333.66	4.97	-46.1	-52.5	8.1	2.58e-02	0	26	0	950009856	60	20498
2026-01-05 02:40:19.86	333.75	4.92	-46.2	-53.5	6.7	1.21e-01	0	26	0	951058432	60	23176
2026-01-05 02:40:20.87	333.84	4.86	-46.2	-53.9	6.2	1.73e-01	40	26	0	953155584	60	24189
2026-01-05 02:40:21.88	333.94	4.81	-46.2	-54.6	5.4	3.39e-01	0	26	0	955252736	60	26095
2026-01-05 02:40:22.90	334.03	4.75	-46.2	-55.2	4.6	6.05e-01	64	26	0	957349888	60	28167
2026-01-05 02:40:23.91	334.12	4.69	-46.1	-55.7	4.3	7.96e-01	0	26	0	959447040	60	29615
2026-01-05 02:40:24.92	334.21	4.64	-46.1	-56.5	3.9	1.04e+00	0	26	0	960495616	60	32553
2026-01-05 02:40:25.93	334.31	4.58	-46.1	-58.4	3.9	1.48e+00	0	26	104	960495616	60	40350
2026-01-05 02:40:26.94	334.40	4.52	-46.2	-58.7	3.6	1.46e+00	0	26	104	960495616	60	42069
2026-01-05 02:40:27.95	334.49	4.47	-46.1	-59.2	3.6	1.49e+00	0	26	104	960495616	60	44412
2026-01-05 02:40:28.96	334.58	4.41	-46.1	-59.4	3.6	1.50e+00	0	26	104	960495616	60	45498
2026-01-05 02:40:29.97	334.67	4.36	-46.2	-60.1	3.6	1.51e+00	0	26	104	960495616	60	49426
2026-01-05 02:40:30.98	334.76	4.30	-46.4	-60.4	3.6	1.51e+00	0	26	104	960495616	60	50827
2026-01-05 02:40:32.00	334.85	4.25	-46.2	-60.6	3.6	1.51e+00	0	26	104	960495616	60	52023
2026-01-05 02:40:33.01	334.94	4.19	-46.2	-60.8	3.6	1.51e+00	0	26	104	960495616	60	53598
2026-01-05 02:40:34.02	335.03	4.13	-46.3	-60.8	3.6	1.51e+00	0	26	104	960495616	60	53173
2026-01-05 02:40:35.03	335.12	4.08	-46.2	-61.4	3.6	1.51e+00	0	26	104	960495616	60	57529
2026-01-05 02:40:36.04	335.21	4.02	-46.4	-61.6	3.6	1.51e+00	0	26	104	960495616	60	58905
2026-01-05 02:40:37.05	335.30	3.97	-46.3	-61.5	3.6	1.51e+00	0	26	104	960495616	60	58122
2026-01-05 02:40:38.06	335.38	3.91	-46.3	-61.4	3.6	1.51e+00	0	26	104	960495616	60	57360
2026-01-05 02:40:39.07	335.47	3.86	-46.3	-61.6	3.6	1.51e+00	0	26	104	960495616	60	58395
2026-01-05 02:40:40.08	335.56	3.80	-46.2	-61.3	3.6	1.51e+00	0	26	104	960495616	60	56918
2026-01-05 02:40:41.10	335.65	3.75	-46.2	-61.4	3.6	1.51e+00	0	26	104	960495616	60	57197
2026-01-05 02:40:42.11	335.73	3.69	-46.3	-61.5	3.6	1.51e+00	0	26	104	960495616	60	57960
2026-01-05 02:40:43.12	335.82	3.64	-46.3	-61.6	3.6	1.51e+00	0	26	104	960495616	60	58349
2026-01-05 02:40:44.13	335.91	3.58	-46.1	-61.4	3.6	1.51e+00	0	26	104	960495616	60	57512
2026-01-05 02:40:45.14	335.99	3.53	-46.2	-61.5	3.6	1.51e+00	0	26	104	960495616	60	58094
2026-01-05 02:40:46.15	336.08	3.47	-46.1	-61.4	3.6	1.51e+00	0	26	104	960495616	60	57159
2026-01-05 02:40:47.16	336.16	3.42	-46.1	-61.4	3.6	1.51e+00	0	26	104	960495616	60	57315
2026-01-05 02:40:48.17	336.25	3.36	-46.5	-61.8	3.6	1.51e+00	0	26	104	960495616	60	59833
2026-01-05 02:40:49.18	336.33	3.31	-46.6	-61.9	3.6	1.51e+00	0	26	104	960495616	60	60872
2026-01-05 02:40:50.19	336.42	3.25	-46.4	-61.7	3.6	1.51e+00	0	26	104	960495616	60	58969
2026-01-05 02:40:51.21	336.50	3.20	-46.1	-61.4	3.6	1.51e+00	0	26	104	960495616	60	57133
2026-01-05 02:40:52.22	336.58	3.14	-46.2	-61.5	3.6	1.51e+00	0	26	104	960495616	60	57828
2026-01-05 02:40:53.23	336.67	3.09	-46.2	-61.6	3.6	1.51e+00	0	26	104	960495616	60	58359
2026-01-05 02:40:54.24	336.75	3.04	-47.1	-62.5	3.6	1.51e+00	0	26	104	960495616	60	64733
2026-01-05 02:40:55.25	336.83	2.98	-50.7	-66.1	3.6	1.51e+00	0	26	104	960495616	60	97981
2026-01-05 02:40:56.26	336.92	2.93	-50.9	-66.3	3.6	1.51e+00	0	26	104	960495616	60	100515
2026-01-05 02:40:57.27	337.00	2.87	-51.1	-66.4	3.6	1.51e+00	0	26	104	960495616	60	101893
2026-01-05 02:40:58.28	337.08	2.82	-51.2	-66.5	3.6	1.51e+00	0	26	104	960495616	60	103424
2026-01-05 02:40:59.29	337.16	2.76	-51.2	-66.6	3.6	1.51e+00	0	26	104	960495616	60	104483
2026-01-05 02:41:00.30	337.24	2.71	-51.3	-66.7	3.6	1.51e+00	0	26	104	960495616	60	105488
2026-01-05 02:41:01.32	337.33	2.66	-51.6	-66.9	3.6	1.51e+00	0	26	104	960495616	60	108194
2026-01-05 02:41:02.33	337.41	2.60	-51.5	-66.9	3.6	1.51e+00	0	26	104	960495616	60	107588
2026-01-05 02:41:03.34	337.49	2.55	-52.0	-67.5	3.6	1.51e+00	0	26	104	960495616	60	115712
2026-01-05 02:41:04.35	337.57	2.50	-51.1	-66.9	3.6	1.51e+00	0	26	104	960495616	60	107559
2026-01-05 02:41:05.36	337.65	2.44	-51.4	-66.8	3.6	1.51e+00	0	26	104	960495616	60	107145
2026-01-05 02:41:06.37	337.73	2.39	-51.3	-66.8	3.6	1.51e+00	0	26	104	960495616	60	106429
2026-01-05 02:41:07.38	337.81	2.33	-51.3	-66.7	3.6	1.51e+00	0	26	104	960495616	60	105581
2026-01-05 02:41:08.39	337.89	2.28	-51.8	-67.2	3.6	1.51e+00	0	26	104	960495616	60	111109
2026-01-05 02:41:09.41	337.97	2.23	-51.4	-66.8	3.6	1.51e+00	0	26	104	960495616	60	106083
2026-01-05 02:41:10.42	338.04	2.17	-51.6	-67.0	3.6	1.51e+00	0	26	104	960495616	60	108749
2026-01-05 02:41:11.43	338.12	2.12	-51.5	-66.8	3.6	1.51e+00	0	26	104	960495616	60	106370
2026-01-05 02:41:12.44	338.20	2.07	-51.8	-67.2	3.6	1.51e+00	0	26	104	960495616	60	111802
2026-01-05 02:41:13.45	338.28	2.01	-51.5	-66.9	3.6	1.51e+00	0	26	104	960495616	60	107472
2026-01-05 02:41:14.46	338.36	1.96	-51.7	-67.1	3.6	1.51e+00	0	26	104	960495616	60	110531
2026-01-05 02:41:15.47	338.43	1.91	-51.4	-66.8	3.6	1.51e+00	0	26	104	960495616	60	107137
2026-01-05 02:41:16.48	338.51	1.86	-51.5	-66.8	3.6	1.51e+00	0	26	104	960495616	60	107060
2026-01-05 02:41:17.49	338.59	1.80	-51.4	-66.8	3.6	1.51e+00	0	26	104	960495616	60	107137
2026-01-05 02:41:18.51	338.67	1.75	-51.6	-66.9	3.6	1.51e+00	0	26	104	960495616	60	108093
2026-01-05 02:41:19.52	338.74	1.70	-52.0	-67.3	3.6	1.51e+00	0	26	104	960495616	60	113109
2026-01-05 02:41:20.53	338.82	1.64	-51.5	-66.9	3.6	1.51e+00	0	26	104	960495616	60	107479
2026-01-05 02:41:21.54	338.89	1.59	-51.2	-66.6	3.6	1.51e+00	0	26	104	960495616	60	104576
2026-01-05 02:41:22.55	338.97	1.54	-51.3	-66.7	3.6	1.51e+00	0	26	104	960495616	60	105521
2026-01-05 02:41:23.56	339.05	1.49	-51.5	-66.8	3.6	1.51e+00	0	26	104	960495616	60	106814
2026-01-05 02:41:24.57	339.12	1.43	-51.7	-67.1	3.6	1.51e+00	0	26	104	960495616	60	110309
2026-01-05 02:41:25.58	339.20	1.38	-51.6	-66.9	3.6	1.51e+00	0	26	104	960495616	60	108223
2026-01-05 02:41:26.59	339.27	1.33	-51.6	-66.9	3.6	1.51e+00	0	26	104	960495616	60	108256
2026-01-05 02:41:27.60	339.34	1.28	-51.7	-67.1	3.5	1.51e+00	0	26	104	960495616	60	109839
2026-01-05 02:41:28.62	339.42	1.22	-51.7	-67.0	3.6	1.51e+00	0	26	104	960495616	60	109596
2026-01-05 02:41:29.63	339.49	1.17	-51.5	-66.9	3.6	1.51e+00	0	26	104	960495616	60	108264
2026-01-05 02:41:30.64	339.57	1.12	-51.5	-66.9	3.6	1.51e+00	0	26	104	960495616	60	108245
2026-01-05 02:41:31.65	339.64	1.07	-51.8	-67.1	3.6	1.51e+00	0	26	104	960495616	60	110908
2026-01-05 02:41:32.66	339.71	1.01	-52.2	-67.6	3.6	1.51e+00	0	26	104	960495616	60	116338
2026-01-05 02:41:33.67	339.79	0.96	-52.5	-67.9	3.6	1.51e+00	0	26	104	960495616	60	120517
2026-01-05 02:41:34.68	339.86	0.91	-51.5	-66.9	3.6	1.51e+00	0	26	104	960495616	60	107498
2026-01-05 02:41:35.69	339.93	0.86	-51.6	-66.9	3.6	1.51e+00	0	26	104	960495616	60	108482
2026-01-05 02:41:36.70	340.00	0.81	-52.3	-67.7	3.6	1.51e+00	0	26	104	960495616	60	117851
2026-01-05 02:41:37.71	340.08	0.76	-51.6	-67.0	3.6	1.51e+00	0	26	104	960495616	60	108880
2026-01-05 02:41:38.72	340.15	0.70	-51.5	-66.9	3.6	1.51e+00	0	26	104	960495616	60	107609
2026-01-05 02:41:39.73	340.22	0.65	-52.1	-67.4	3.6	1.51e+00	0	26	104	960495616	60	114494
2026-01-05 02:41:40.75	340.29	0.60	-51.5	-66.9	3.6	1.51e+00	0	26	104	960495616	60	107955
