passes_logs/2026/01/05/R4.6S_Anadyr_2ch/R4.6S_Anadyr_2ch__20260105_001617_NOAA_21_JPSS-2_rec.log

#Pass ID: 20260105_001617_NOAA 21 (JPSS-2)
#Satellite: NOAA 21 (JPSS-2)
#Configuration: NOAA-21
#almurnet v.1.7.20251203
#Start time: 2026-01-05 00:16:18

#Version: 2.2.20231116
#Station: R4.6S_Anadyr_2ch
#Location: 177.4865 lon 64.73178 lat
#TLE: 1 54234U 22150A   25350.97269056  .00000057  00000+0  47676-4 0  9992
#TLE: 2 54234  98.7466 287.2282 0002043  29.8355 330.2937 14.19525482160692

#Time	Az	El	Level	Level2	SNR	BER	BlckErr	Temp	State	Recorded	gain1	gain2
2026-01-05 00:16:18.02	157.66	0.04	-51.7	-66.8	3.4	1.51e+00	0	26	0	0	60	107087
2026-01-05 00:16:19.03	157.67	0.10	-52.1	-65.2	3.5	1.52e+00	0	27	104	0	60	85899
2026-01-05 00:16:20.04	157.67	0.16	-52.7	-65.8	3.5	1.52e+00	0	27	104	0	60	91995
2026-01-05 00:16:21.05	157.68	0.23	-51.9	-65.0	3.5	1.52e+00	0	27	104	0	60	84591
2026-01-05 00:16:22.06	157.68	0.29	-51.9	-65.0	3.5	1.52e+00	0	27	104	0	60	83870
2026-01-05 00:16:23.07	157.69	0.35	-51.8	-64.9	3.5	1.52e+00	0	27	104	0	60	82759
2026-01-05 00:16:24.08	157.69	0.41	-51.6	-64.6	3.5	1.52e+00	0	27	104	0	60	80303
2026-01-05 00:16:25.09	157.70	0.47	-51.8	-64.9	3.5	1.52e+00	0	27	104	0	60	82878
2026-01-05 00:16:26.11	157.70	0.53	-52.0	-65.1	3.5	1.52e+00	0	27	104	0	60	84914
2026-01-05 00:16:27.12	157.71	0.59	-51.4	-64.7	3.5	1.52e+00	0	28	104	0	60	80993
2026-01-05 00:16:28.13	157.71	0.66	-51.5	-64.5	3.5	1.52e+00	0	28	104	0	60	79336
2026-01-05 00:16:29.14	157.72	0.72	-51.6	-64.7	3.5	1.52e+00	0	28	104	0	60	80944
2026-01-05 00:16:30.15	157.72	0.78	-51.1	-64.1	3.5	1.52e+00	0	28	104	0	60	75966
2026-01-05 00:16:31.16	157.73	0.84	-49.7	-62.7	3.5	1.52e+00	0	28	104	0	60	64840
2026-01-05 00:16:32.17	157.73	0.91	-50.4	-63.4	3.5	1.52e+00	0	28	104	0	60	69893
2026-01-05 00:16:33.18	157.74	0.97	-49.9	-62.9	3.5	1.52e+00	0	28	104	0	60	65972
2026-01-05 00:16:34.19	157.75	1.03	-49.9	-62.9	3.5	1.52e+00	0	28	104	0	60	66400
2026-01-05 00:16:35.21	157.75	1.09	-49.8	-62.8	3.5	1.52e+00	0	28	104	0	60	65292
2026-01-05 00:16:36.22	157.76	1.16	-49.8	-62.8	3.5	1.52e+00	0	28	104	0	60	65593
2026-01-05 00:16:37.23	157.76	1.22	-50.1	-63.1	3.5	1.52e+00	0	28	104	0	60	67547
2026-01-05 00:16:38.24	157.77	1.28	-49.8	-62.8	3.5	1.52e+00	0	28	104	0	60	64997
2026-01-05 00:16:39.25	157.77	1.35	-50.2	-63.1	3.5	1.52e+00	0	28	104	0	60	67620
2026-01-05 00:16:40.26	157.78	1.41	-50.4	-63.3	3.5	1.52e+00	0	28	104	0	60	69389
2026-01-05 00:16:41.27	157.78	1.47	-49.9	-62.9	3.5	1.52e+00	0	28	104	0	60	66356
2026-01-05 00:16:42.28	157.79	1.54	-49.9	-62.8	3.5	1.52e+00	0	28	104	0	60	65227
2026-01-05 00:16:43.29	157.79	1.60	-49.9	-62.8	3.5	1.52e+00	0	28	104	0	60	65325
2026-01-05 00:16:44.30	157.80	1.67	-49.8	-62.7	3.5	1.52e+00	0	28	104	0	60	64344
2026-01-05 00:16:45.32	157.80	1.73	-49.8	-62.6	3.5	1.51e+00	0	28	104	0	60	64146
2026-01-05 00:16:46.32	157.81	1.79	-49.7	-62.5	3.5	1.52e+00	0	28	104	0	60	63355
2026-01-05 00:16:47.33	157.82	1.86	-49.7	-62.6	3.5	1.51e+00	0	28	104	0	60	63676
2026-01-05 00:16:48.35	157.82	1.92	-49.7	-62.5	3.5	1.52e+00	0	28	104	0	60	63124
2026-01-05 00:16:49.36	157.83	1.99	-49.7	-62.4	3.5	1.51e+00	0	28	104	0	60	62535
2026-01-05 00:16:50.37	157.83	2.05	-49.7	-62.4	3.5	1.52e+00	0	28	104	0	60	62092
2026-01-05 00:16:51.38	157.84	2.12	-49.9	-62.6	3.5	1.52e+00	0	28	104	0	60	63675
2026-01-05 00:16:52.39	157.84	2.18	-49.9	-62.5	3.5	1.51e+00	0	28	104	0	60	63097
2026-01-05 00:16:53.40	157.85	2.25	-49.9	-62.4	3.5	1.52e+00	0	28	104	0	60	62730
2026-01-05 00:16:54.41	157.85	2.32	-49.9	-62.3	3.5	1.52e+00	0	28	104	0	60	61894
2026-01-05 00:16:55.42	157.86	2.38	-49.8	-61.9	3.5	1.52e+00	0	28	104	0	60	58768
2026-01-05 00:16:56.43	157.87	2.45	-49.8	-61.5	3.5	1.52e+00	0	28	104	0	60	56422
2026-01-05 00:16:57.44	157.87	2.51	-49.8	-61.7	3.5	1.52e+00	0	28	104	0	60	57343
2026-01-05 00:16:58.45	157.88	2.58	-49.9	-62.0	3.5	1.52e+00	0	28	104	0	60	59771
2026-01-05 00:16:59.46	157.88	2.65	-49.9	-62.1	3.5	1.52e+00	0	28	104	0	60	60341
2026-01-05 00:17:00.47	157.89	2.71	-49.6	-62.0	3.5	1.51e+00	0	28	104	0	60	59818
2026-01-05 00:17:01.49	157.89	2.78	-49.8	-61.5	3.5	1.52e+00	0	28	104	0	60	56459
2026-01-05 00:17:02.50	157.90	2.85	-49.5	-59.4	3.6	1.51e+00	0	28	104	0	60	44338
2026-01-05 00:17:03.51	157.91	2.91	-49.3	-57.7	3.8	7.26e-01	0	28	104	0	60	36517
2026-01-05 00:17:04.52	157.91	2.98	-48.4	-53.9	6.6	1.57e-01	122	28	0	0	60	23440
2026-01-05 00:17:05.53	157.92	3.05	-47.9	-52.2	9.4	3.79e-02	123	28	0	3145728	60	19349
2026-01-05 00:17:06.54	157.92	3.11	-47.1	-50.6	11.3	2.07e-03	123	28	0	6291456	60	16079
2026-01-05 00:17:07.55	157.93	3.18	-45.3	-47.7	14.4	6.10e-06	122	28	0	9437184	60	11454
2026-01-05 00:17:08.56	157.93	3.25	-45.0	-47.3	14.6	2.20e-06	122	28	0	12582912	60	10912
2026-01-05 00:17:09.57	157.94	3.32	-43.6	-45.4	16.6	0.00e+00	122	28	0	15728640	60	8772
2026-01-05 00:17:10.58	157.95	3.39	-43.7	-45.5	16.7	0.00e+00	123	28	0	18874368	60	8961
2026-01-05 00:17:11.60	157.95	3.46	-43.2	-44.9	17.3	0.00e+00	123	28	0	22020096	60	8276
2026-01-05 00:17:12.61	157.96	3.52	-42.7	-44.2	18.3	0.00e+00	123	28	0	25165824	60	7717
2026-01-05 00:17:13.62	157.96	3.59	-43.1	-44.8	17.5	0.00e+00	122	28	0	28311552	60	8241
2026-01-05 00:17:14.63	157.97	3.66	-43.6	-45.3	16.6	0.00e+00	123	28	0	31457280	60	8760
2026-01-05 00:17:15.64	157.97	3.73	-49.8	-62.1	3.5	5.19e-04	22	28	104	34603008	60	60433
2026-01-05 00:17:16.65	157.98	3.80	-42.4	-44.2	5.2	1.47e+00	0	28	104	34603008	60	7696
2026-01-05 00:17:17.66	157.99	3.87	-45.1	-47.5	11.5	0.00e+00	123	28	0	34603008	60	11226
2026-01-05 00:17:18.67	157.99	3.94	-42.5	-44.3	17.0	4.50e-06	123	28	104	35651584	60	7789
2026-01-05 00:17:19.69	158.00	4.01	-48.0	-52.7	6.3	9.15e-05	123	28	0	37748736	60	20427
2026-01-05 00:17:20.70	158.00	4.08	-44.0	-46.2	16.9	3.97e-03	123	28	104	37748736	60	9634
2026-01-05 00:17:21.71	158.01	4.15	-42.7	-44.2	18.0	0.00e+00	123	28	0	39845888	60	7704
2026-01-05 00:17:22.72	158.02	4.22	-42.8	-44.3	17.9	0.00e+00	123	28	0	42991616	60	7799
2026-01-05 00:17:23.73	158.02	4.29	-42.3	-43.7	18.3	0.00e+00	120	28	0	46137344	60	7280
2026-01-05 00:17:24.74	158.03	4.36	-42.5	-44.0	18.4	0.00e+00	123	28	0	49283072	60	7471
2026-01-05 00:17:25.75	158.03	4.43	-41.7	-43.1	19.3	0.00e+00	123	28	0	52428800	60	6752
2026-01-05 00:17:26.76	158.04	4.50	-42.3	-43.7	19.1	0.00e+00	123	28	0	55574528	60	7288
2026-01-05 00:17:27.77	158.05	4.57	-42.6	-44.1	18.8	0.00e+00	122	28	0	58720256	60	7573
2026-01-05 00:17:28.79	158.05	4.64	-43.0	-44.6	18.0	0.00e+00	127	28	0	61865984	60	8011
2026-01-05 00:17:29.80	158.06	4.72	-42.5	-43.9	18.6	0.00e+00	120	28	0	65011712	60	7442
2026-01-05 00:17:30.81	158.06	4.79	-42.7	-44.3	18.3	0.00e+00	123	28	0	68157440	60	7772
2026-01-05 00:17:31.82	158.07	4.86	-42.8	-44.3	18.3	0.00e+00	120	28	0	71303168	60	7776
2026-01-05 00:17:32.83	158.08	4.93	-42.5	-44.0	18.5	0.00e+00	122	28	0	74448896	60	7481
2026-01-05 00:17:33.84	158.08	5.00	-41.8	-43.1	19.5	0.00e+00	123	29	0	77594624	60	6793
2026-01-05 00:17:34.85	158.09	5.08	-42.5	-44.0	18.7	0.00e+00	123	28	0	80740352	60	7489
2026-01-05 00:17:35.86	158.09	5.15	-41.8	-43.2	19.5	0.00e+00	122	28	0	83886080	60	6807
2026-01-05 00:17:36.87	158.10	5.22	-41.5	-42.8	19.8	0.00e+00	122	28	0	87031808	60	6500
2026-01-05 00:17:37.88	158.11	5.30	-41.4	-42.7	19.7	0.00e+00	120	28	0	90177536	60	6467
2026-01-05 00:17:38.89	158.11	5.37	-41.0	-42.3	20.1	0.00e+00	123	29	0	93323264	60	6163
2026-01-05 00:17:39.91	158.12	5.44	-42.0	-43.4	19.0	0.00e+00	122	28	0	96468992	60	7004
2026-01-05 00:17:40.92	158.12	5.52	-41.3	-42.6	19.8	0.00e+00	123	28	0	99614720	60	6372
2026-01-05 00:17:41.93	158.13	5.59	-41.0	-42.2	20.0	0.00e+00	123	28	0	102760448	60	6106
2026-01-05 00:17:42.94	158.14	5.66	-41.1	-42.4	20.1	0.00e+00	123	28	0	105906176	60	6245
2026-01-05 00:17:43.95	158.14	5.74	-41.4	-42.7	19.9	0.00e+00	123	28	0	109051904	60	6462
2026-01-05 00:17:44.96	158.15	5.81	-41.5	-42.8	19.7	0.00e+00	122	29	0	112197632	60	6516
2026-01-05 00:17:45.97	158.16	5.89	-41.1	-42.4	20.2	0.00e+00	123	28	0	115343360	60	6217
2026-01-05 00:17:46.99	158.16	5.96	-40.9	-42.1	20.6	0.00e+00	123	28	0	118489088	60	6015
2026-01-05 00:17:48.00	158.17	6.04	-41.2	-42.5	20.4	0.00e+00	123	28	0	121634816	60	6287
2026-01-05 00:17:49.01	158.17	6.11	-40.5	-41.6	20.8	0.00e+00	123	28	0	124780544	60	5708
2026-01-05 00:17:50.02	158.18	6.19	-40.8	-42.0	20.7	0.00e+00	122	28	0	127926272	60	5958
2026-01-05 00:17:51.03	158.19	6.27	-40.6	-41.8	20.8	0.00e+00	123	28	0	131072000	60	5831
2026-01-05 00:17:52.04	158.19	6.34	-40.6	-41.8	20.7	0.00e+00	122	28	0	135266304	60	5831
2026-01-05 00:17:53.05	158.20	6.42	-40.3	-41.5	20.9	0.00e+00	122	28	0	138412032	60	5617
2026-01-05 00:17:54.06	158.21	6.50	-40.6	-41.7	20.6	0.00e+00	122	28	0	141557760	60	5787
2026-01-05 00:17:55.07	158.21	6.57	-40.5	-41.7	21.0	0.00e+00	122	28	0	144703488	60	5763
2026-01-05 00:17:56.08	158.22	6.65	-40.7	-41.8	21.0	0.00e+00	122	28	0	146800640	60	5832
2026-01-05 00:17:57.09	158.23	6.73	-40.6	-41.8	20.9	0.00e+00	120	28	0	150994944	60	5807
2026-01-05 00:17:58.11	158.23	6.80	-40.3	-41.4	21.2	0.00e+00	123	29	0	154140672	60	5566
2026-01-05 00:17:59.12	158.24	6.88	-40.0	-41.1	21.4	0.00e+00	123	29	0	157286400	60	5386
2026-01-05 00:18:00.13	158.25	6.96	-39.8	-40.9	21.5	0.00e+00	123	29	0	160432128	58	5887
2026-01-05 00:18:01.14	158.25	7.04	-39.8	-40.9	21.5	0.00e+00	122	28	0	163577856	58	5885
2026-01-05 00:18:02.15	158.26	7.12	-40.0	-41.1	21.3	0.00e+00	122	29	0	166723584	58	6030
2026-01-05 00:18:03.16	158.26	7.20	-39.7	-40.8	21.6	0.00e+00	123	28	0	169869312	58	5829
2026-01-05 00:18:04.17	158.27	7.27	-39.8	-40.9	21.6	0.00e+00	123	29	0	173015040	58	5877
2026-01-05 00:18:05.18	158.28	7.35	-39.9	-41.0	21.6	0.00e+00	123	29	0	176160768	58	5931
2026-01-05 00:18:06.19	158.28	7.43	-40.3	-41.4	21.4	0.00e+00	123	29	0	179306496	58	6227
2026-01-05 00:18:07.21	158.29	7.51	-39.8	-41.0	21.4	0.00e+00	120	28	0	182452224	58	5930
2026-01-05 00:18:08.22	158.30	7.59	-39.9	-41.0	21.6	0.00e+00	123	29	0	185597952	58	5928
2026-01-05 00:18:09.23	158.30	7.67	-39.8	-40.9	21.6	0.00e+00	120	29	0	188743680	58	5902
2026-01-05 00:18:10.24	158.31	7.75	-39.8	-40.9	21.7	0.00e+00	122	29	0	191889408	58	5881
2026-01-05 00:18:11.25	158.32	7.83	-39.9	-41.0	21.6	0.00e+00	122	28	0	195035136	58	5984
2026-01-05 00:18:12.26	158.32	7.92	-40.6	-41.8	21.3	0.00e+00	123	28	0	198180864	58	6510
2026-01-05 00:18:13.27	158.33	8.00	-40.2	-41.2	21.5	0.00e+00	123	29	0	201326592	58	6123
2026-01-05 00:18:14.28	158.34	8.08	-40.4	-41.5	21.5	0.00e+00	122	29	0	204472320	58	6296
2026-01-05 00:18:15.29	158.34	8.16	-40.4	-41.6	21.2	0.00e+00	122	29	0	207618048	58	6367
2026-01-05 00:18:16.30	158.35	8.24	-40.1	-41.2	21.5	0.00e+00	123	29	0	210763776	58	6116
2026-01-05 00:18:17.32	158.36	8.32	-39.8	-40.9	21.5	0.00e+00	123	29	0	213909504	58	5911
2026-01-05 00:18:18.33	158.37	8.41	-40.2	-41.4	21.4	0.00e+00	123	28	0	217055232	58	6206
2026-01-05 00:18:19.34	158.37	8.49	-39.8	-40.9	21.3	0.00e+00	121	28	0	220200960	58	5916
2026-01-05 00:18:20.35	158.38	8.57	-40.1	-41.2	21.4	0.00e+00	123	29	0	223346688	58	6094
2026-01-05 00:18:21.36	158.39	8.66	-39.9	-41.0	21.4	0.00e+00	120	29	0	226492416	58	5981
2026-01-05 00:18:22.37	158.39	8.74	-40.1	-41.2	21.5	0.00e+00	122	29	0	229638144	58	6085
2026-01-05 00:18:23.38	158.40	8.82	-39.8	-40.9	21.5	0.00e+00	120	29	0	232783872	58	5882
2026-01-05 00:18:24.39	158.41	8.91	-40.1	-41.2	21.6	0.00e+00	123	29	0	235929600	58	6067
2026-01-05 00:18:25.40	158.41	8.99	-40.0	-41.1	21.8	0.00e+00	123	29	0	239075328	58	5999
2026-01-05 00:18:26.41	158.42	9.08	-39.9	-41.0	21.8	0.00e+00	122	29	0	242221056	58	5958
2026-01-05 00:18:27.42	158.43	9.16	-39.4	-40.5	22.2	0.00e+00	122	29	0	245366784	58	5610
2026-01-05 00:18:28.44	158.43	9.25	-39.4	-40.4	22.3	0.00e+00	122	29	0	248512512	58	5591
2026-01-05 00:18:29.45	158.44	9.33	-39.4	-40.5	22.2	0.00e+00	120	29	0	251658240	58	5622
2026-01-05 00:18:30.46	158.45	9.42	-39.5	-40.6	22.1	0.00e+00	123	29	0	254803968	58	5680
2026-01-05 00:18:31.47	158.46	9.51	-39.1	-40.1	22.5	0.00e+00	123	29	0	257949696	56	6056
2026-01-05 00:18:32.48	158.46	9.59	-38.7	-39.8	22.6	0.00e+00	123	29	0	261095424	56	5798
2026-01-05 00:18:33.49	158.47	9.68	-38.7	-39.8	22.6	0.00e+00	122	29	0	264241152	56	5793
2026-01-05 00:18:34.50	158.48	9.77	-38.7	-39.7	22.6	0.00e+00	123	29	0	267386880	56	5765
2026-01-05 00:18:35.51	158.48	9.85	-38.7	-39.7	22.7	0.00e+00	120	29	0	270532608	56	5744
2026-01-05 00:18:36.52	158.49	9.94	-38.8	-39.8	22.7	0.00e+00	123	29	0	273678336	56	5847
2026-01-05 00:18:37.53	158.50	10.03	-38.6	-39.6	22.7	0.00e+00	120	29	0	276824064	56	5720
2026-01-05 00:18:38.55	158.51	10.12	-38.6	-39.6	22.7	0.00e+00	123	29	0	279969792	56	5709
2026-01-05 00:18:39.56	158.51	10.21	-38.7	-39.7	22.8	0.00e+00	120	29	0	283115520	56	5744
2026-01-05 00:18:40.57	158.52	10.30	-38.7	-39.7	22.7	0.00e+00	123	29	0	286261248	56	5770
2026-01-05 00:18:41.58	158.53	10.39	-38.4	-39.4	22.9	0.00e+00	122	29	0	289406976	56	5572
2026-01-05 00:18:42.59	158.54	10.48	-38.4	-39.4	23.0	0.00e+00	122	29	0	292552704	56	5578
2026-01-05 00:18:43.60	158.54	10.57	-38.3	-39.3	22.9	0.00e+00	122	29	0	295698432	56	5510
2026-01-05 00:18:44.61	158.55	10.66	-38.2	-39.2	23.0	0.00e+00	122	29	0	298844160	56	5443
2026-01-05 00:18:45.62	158.56	10.75	-38.4	-39.4	22.9	0.00e+00	120	29	0	301989888	56	5538
2026-01-05 00:18:46.63	158.57	10.84	-38.2	-39.2	23.1	0.00e+00	122	29	0	305135616	56	5446
2026-01-05 00:18:47.65	158.57	10.93	-38.2	-39.2	23.2	0.00e+00	123	29	0	308281344	54	6086
2026-01-05 00:18:48.66	158.58	11.02	-38.3	-39.3	23.0	0.00e+00	123	29	0	311427072	54	6135
2026-01-05 00:18:49.67	158.59	11.11	-38.4	-39.4	23.1	0.00e+00	120	29	0	314572800	54	6218
2026-01-05 00:18:50.68	158.60	11.21	-38.2	-39.1	23.2	0.00e+00	123	29	0	317718528	54	6061
2026-01-05 00:18:51.69	158.60	11.30	-38.1	-39.1	23.3	0.00e+00	122	29	0	320864256	54	5999
2026-01-05 00:18:52.70	158.61	11.39	-38.2	-39.1	23.1	0.00e+00	123	29	0	324009984	54	6058
2026-01-05 00:18:53.71	158.62	11.49	-37.8	-38.7	23.4	0.00e+00	122	29	0	327155712	54	5780
2026-01-05 00:18:54.72	158.63	11.58	-37.8	-38.8	23.3	0.00e+00	123	29	0	330301440	54	5813
2026-01-05 00:18:55.73	158.63	11.67	-37.8	-38.7	23.4	0.00e+00	120	29	0	333447168	54	5777
2026-01-05 00:18:56.75	158.64	11.77	-37.8	-38.8	23.4	0.00e+00	123	29	0	336592896	54	5814
2026-01-05 00:18:57.76	158.65	11.86	-37.9	-38.8	23.4	0.00e+00	122	29	0	339738624	54	5855
2026-01-05 00:18:58.77	158.66	11.96	-37.8	-38.7	23.5	0.00e+00	122	29	0	342884352	54	5762
2026-01-05 00:18:59.78	158.67	12.05	-37.9	-38.8	23.4	0.00e+00	123	29	0	346030080	54	5840
2026-01-05 00:19:00.79	158.67	12.15	-37.8	-38.8	23.4	0.00e+00	122	29	0	349175808	54	5792
2026-01-05 00:19:01.80	158.68	12.25	-37.6	-38.6	23.5	0.00e+00	122	29	0	352321536	54	5679
2026-01-05 00:19:02.81	158.69	12.34	-37.7	-38.7	23.5	0.00e+00	123	29	0	355467264	54	5732
2026-01-05 00:19:03.82	158.70	12.44	-37.7	-38.7	23.5	0.00e+00	123	29	0	358612992	54	5734
2026-01-05 00:19:04.84	158.71	12.54	-37.6	-38.5	23.7	0.00e+00	122	29	0	362807296	54	5645
2026-01-05 00:19:05.85	158.71	12.64	-37.7	-38.7	23.5	0.00e+00	123	29	0	365953024	54	5730
2026-01-05 00:19:06.86	158.72	12.74	-37.6	-38.5	23.7	0.00e+00	123	29	0	368050176	54	5637
2026-01-05 00:19:07.87	158.73	12.83	-37.8	-38.8	23.7	0.00e+00	122	29	0	371195904	54	5802
2026-01-05 00:19:08.88	158.74	12.93	-37.6	-38.5	23.7	0.00e+00	123	29	0	374341632	54	5649
2026-01-05 00:19:09.89	158.75	13.03	-38.0	-39.0	23.4	0.00e+00	123	29	0	378535936	54	5934
2026-01-05 00:19:10.90	158.75	13.13	-37.8	-38.8	23.7	0.00e+00	120	29	0	381681664	54	5803
2026-01-05 00:19:11.91	158.76	13.23	-37.6	-38.5	23.7	0.00e+00	123	29	0	384827392	54	5646
2026-01-05 00:19:12.92	158.77	13.33	-37.9	-38.8	23.5	0.00e+00	123	29	0	387973120	54	5844
2026-01-05 00:19:13.93	158.78	13.43	-38.2	-39.1	23.5	0.00e+00	123	29	0	391118848	54	6040
2026-01-05 00:19:14.95	158.79	13.54	-37.9	-38.8	23.6	0.00e+00	120	29	0	394264576	54	5817
2026-01-05 00:19:15.96	158.80	13.64	-37.9	-38.9	23.8	0.00e+00	123	29	0	397410304	54	5886
2026-01-05 00:19:16.97	158.80	13.74	-37.5	-38.4	23.8	0.00e+00	123	29	0	400556032	54	5591
2026-01-05 00:19:17.98	158.81	13.84	-37.7	-38.6	24.0	0.00e+00	123	29	0	403701760	54	5717
2026-01-05 00:19:18.99	158.82	13.95	-37.9	-38.8	24.0	0.00e+00	120	29	0	406847488	54	5796
2026-01-05 00:19:20.00	158.83	14.05	-37.8	-38.7	23.7	0.00e+00	122	29	0	409993216	54	5786
2026-01-05 00:19:21.01	158.84	14.16	-37.9	-38.8	23.9	0.00e+00	123	29	0	413138944	54	5845
2026-01-05 00:19:22.02	158.85	14.26	-37.4	-38.3	23.9	0.00e+00	123	29	0	416284672	54	5516
2026-01-05 00:19:23.03	158.85	14.37	-37.7	-38.6	23.7	0.00e+00	123	29	0	419430400	54	5699
2026-01-05 00:19:24.04	158.86	14.47	-37.6	-38.6	23.8	0.00e+00	123	29	0	422576128	54	5676
2026-01-05 00:19:25.06	158.87	14.58	-37.4	-38.3	24.0	0.00e+00	121	29	0	425721856	54	5500
2026-01-05 00:19:26.07	158.88	14.68	-37.4	-38.3	24.0	0.00e+00	123	29	0	428867584	54	5484
2026-01-05 00:19:27.08	158.89	14.79	-37.2	-38.2	24.0	0.00e+00	123	29	0	432013312	54	5409
2026-01-05 00:19:28.09	158.90	14.90	-37.4	-38.3	24.0	0.00e+00	123	29	0	435159040	54	5489
2026-01-05 00:19:29.10	158.91	15.01	-37.4	-38.3	24.1	0.00e+00	120	29	0	438304768	54	5498
2026-01-05 00:19:30.11	158.92	15.12	-37.6	-38.5	24.0	0.00e+00	123	29	0	441450496	54	5633
2026-01-05 00:19:31.12	158.92	15.22	-37.8	-38.7	24.1	0.00e+00	123	29	0	444596224	54	5767
2026-01-05 00:19:32.13	158.93	15.33	-37.4	-38.3	24.2	0.00e+00	122	29	0	447741952	54	5526
2026-01-05 00:19:33.15	158.94	15.44	-37.5	-38.4	24.1	0.00e+00	120	29	0	450887680	54	5534
2026-01-05 00:19:34.16	158.95	15.56	-37.7	-38.6	24.0	0.00e+00	123	29	0	454033408	54	5702
2026-01-05 00:19:35.17	158.96	15.67	-37.7	-38.6	24.0	0.00e+00	123	29	0	457179136	54	5721
2026-01-05 00:19:36.18	158.97	15.78	-38.0	-39.0	23.9	0.00e+00	123	29	0	460324864	54	5933
2026-01-05 00:19:37.19	158.98	15.89	-37.5	-38.5	24.1	0.00e+00	120	29	0	463470592	54	5598
2026-01-05 00:19:38.20	158.99	16.00	-37.6	-38.5	24.0	0.00e+00	123	29	0	466616320	54	5635
2026-01-05 00:19:39.21	159.00	16.11	-37.5	-38.4	23.9	0.00e+00	122	29	0	469762048	54	5558
2026-01-05 00:19:40.22	159.01	16.23	-37.5	-38.4	24.0	0.00e+00	123	29	0	472907776	54	5586
2026-01-05 00:19:41.23	159.02	16.34	-37.7	-38.6	23.9	0.00e+00	123	29	0	476053504	54	5720
2026-01-05 00:19:42.24	159.03	16.46	-37.6	-38.5	24.0	0.00e+00	122	29	0	479199232	54	5628
2026-01-05 00:19:43.26	159.04	16.57	-37.8	-38.7	23.8	0.00e+00	122	29	0	482344960	54	5757
2026-01-05 00:19:44.27	159.04	16.69	-37.7	-38.6	23.9	0.00e+00	122	29	0	485490688	54	5701
2026-01-05 00:19:45.28	159.05	16.80	-37.7	-38.6	23.8	0.00e+00	120	29	0	488636416	54	5692
2026-01-05 00:19:46.29	159.06	16.92	-37.5	-38.5	23.8	0.00e+00	123	29	0	491782144	54	5607
2026-01-05 00:19:47.30	159.07	17.04	-37.8	-38.7	23.7	0.00e+00	123	29	0	494927872	54	5765
2026-01-05 00:19:48.31	159.08	17.16	-38.0	-39.0	23.6	0.00e+00	123	29	0	498073600	54	5949
2026-01-05 00:19:49.32	159.09	17.27	-38.2	-39.1	23.7	0.00e+00	120	29	0	501219328	54	6045
2026-01-05 00:19:50.33	159.10	17.39	-38.0	-38.9	23.8	0.00e+00	123	29	0	504365056	54	5891
2026-01-05 00:19:51.34	159.11	17.51	-38.3	-39.2	23.6	0.00e+00	120	29	0	507510784	54	6118
2026-01-05 00:19:52.36	159.12	17.63	-38.2	-39.1	23.6	0.00e+00	122	29	0	510656512	54	6048
2026-01-05 00:19:53.37	159.13	17.76	-38.4	-39.3	23.4	0.00e+00	120	29	0	513802240	54	6183
2026-01-05 00:19:54.38	159.14	17.88	-38.0	-39.0	23.6	0.00e+00	123	29	0	516947968	54	5935
2026-01-05 00:19:55.39	159.15	18.00	-38.3	-39.3	23.6	0.00e+00	123	29	0	520093696	54	6136
2026-01-05 00:19:56.40	159.16	18.12	-37.7	-38.6	23.8	0.00e+00	123	29	0	523239424	54	5723
2026-01-05 00:19:57.41	159.17	18.24	-37.9	-38.8	23.8	0.00e+00	120	29	0	526385152	54	5853
2026-01-05 00:19:58.42	159.18	18.37	-37.8	-38.7	23.7	0.00e+00	122	29	0	529530880	54	5762
2026-01-05 00:19:59.43	159.19	18.49	-37.7	-38.7	23.7	0.00e+00	120	29	0	532676608	54	5730
2026-01-05 00:20:00.44	159.20	18.62	-37.7	-38.7	23.7	0.00e+00	123	29	0	535822336	54	5741
2026-01-05 00:20:01.45	159.21	18.74	-37.9	-38.9	23.8	0.00e+00	123	29	0	538968064	54	5860
2026-01-05 00:20:02.46	159.22	18.87	-37.7	-38.7	23.7	0.00e+00	123	29	0	542113792	54	5751
2026-01-05 00:20:03.48	159.23	19.00	-37.7	-38.6	23.8	0.00e+00	120	29	0	545259520	54	5717
2026-01-05 00:20:04.49	159.25	19.13	-37.8	-38.7	23.8	0.00e+00	122	29	0	548405248	54	5766
2026-01-05 00:20:05.50	159.26	19.25	-37.7	-38.7	23.8	0.00e+00	122	29	0	551550976	54	5750
2026-01-05 00:20:06.51	159.27	19.38	-37.5	-38.4	23.9	0.00e+00	122	29	0	554696704	54	5584
2026-01-05 00:20:07.52	159.28	19.51	-37.6	-38.5	23.9	0.00e+00	120	29	0	557842432	54	5631
2026-01-05 00:20:08.53	159.29	19.64	-37.6	-38.5	23.9	0.00e+00	123	29	0	560988160	54	5650
2026-01-05 00:20:09.54	159.30	19.77	-37.9	-38.8	23.7	0.00e+00	123	29	0	564133888	54	5856
2026-01-05 00:20:10.56	159.31	19.91	-37.6	-38.5	24.0	0.00e+00	122	29	0	567279616	54	5609
2026-01-05 00:20:11.57	159.32	20.04	-37.9	-38.8	24.0	0.00e+00	121	29	0	570425344	54	5827
2026-01-05 00:20:12.58	159.33	20.17	-37.6	-38.5	24.1	0.00e+00	122	29	0	573571072	54	5656
2026-01-05 00:20:13.59	159.34	20.31	-37.4	-38.3	24.3	0.00e+00	123	29	0	576716800	54	5514
2026-01-05 00:20:14.60	159.35	20.44	-37.2	-38.1	24.3	0.00e+00	123	29	0	579862528	54	5377
2026-01-05 00:20:15.61	159.37	20.58	-37.2	-38.1	24.4	0.00e+00	122	29	0	583008256	52	6005
2026-01-05 00:20:16.62	159.38	20.71	-37.0	-37.9	24.4	0.00e+00	123	29	0	586153984	52	5889
2026-01-05 00:20:17.63	159.39	20.85	-37.0	-37.9	24.4	0.00e+00	120	29	0	589299712	52	5921
2026-01-05 00:20:18.65	159.40	20.99	-36.9	-37.8	24.5	0.00e+00	123	29	0	592445440	52	5826
2026-01-05 00:20:19.66	159.41	21.12	-37.0	-37.9	24.5	0.00e+00	122	29	0	595591168	52	5908
2026-01-05 00:20:20.67	159.42	21.26	-37.0	-37.9	24.5	0.00e+00	118	29	0	598736896	52	5897
2026-01-05 00:20:21.68	159.43	21.40	-37.1	-38.0	24.6	0.00e+00	123	29	0	601882624	52	5955
2026-01-05 00:20:22.69	159.45	21.54	-36.6	-37.5	24.7	0.00e+00	123	29	0	606076928	52	5601
2026-01-05 00:20:23.70	159.46	21.69	-36.9	-37.8	24.6	0.00e+00	123	29	0	609222656	52	5795
2026-01-05 00:20:24.71	159.47	21.83	-36.7	-37.6	24.9	0.00e+00	122	29	0	612368384	52	5705
2026-01-05 00:20:25.72	159.48	21.97	-37.1	-38.0	24.8	0.00e+00	122	29	0	614465536	52	5955
2026-01-05 00:20:26.73	159.49	22.11	-36.2	-37.1	25.0	0.00e+00	123	29	0	617611264	52	5388
2026-01-05 00:20:27.75	159.51	22.26	-36.4	-37.3	25.0	0.00e+00	123	29	0	621805568	52	5473
2026-01-05 00:20:28.76	159.52	22.41	-36.6	-37.5	24.8	0.00e+00	123	29	0	624951296	52	5600
2026-01-05 00:20:29.77	159.53	22.55	-36.7	-37.6	24.7	0.00e+00	123	29	0	628097024	52	5702
2026-01-05 00:20:30.78	159.54	22.70	-36.6	-37.5	24.7	0.00e+00	123	29	0	631242752	52	5617
2026-01-05 00:20:31.79	159.55	22.85	-36.4	-37.3	24.9	0.00e+00	123	29	0	634388480	52	5492
2026-01-05 00:20:32.80	159.57	23.00	-37.0	-37.9	24.6	0.00e+00	127	29	0	637534208	52	5875
2026-01-05 00:20:33.81	159.58	23.14	-37.5	-38.4	24.1	0.00e+00	123	29	0	640679936	52	6249
2026-01-05 00:20:34.82	159.59	23.30	-37.0	-37.9	24.6	0.00e+00	122	29	0	643825664	52	5893
2026-01-05 00:20:35.83	159.61	23.45	-36.6	-37.5	24.8	0.00e+00	123	29	0	646971392	52	5615
2026-01-05 00:20:36.85	159.62	23.60	-36.4	-37.2	24.9	0.00e+00	120	29	0	650117120	52	5466
2026-01-05 00:20:37.86	159.63	23.75	-36.2	-37.1	25.0	0.00e+00	123	29	0	653262848	50	6020
2026-01-05 00:20:38.87	159.64	23.91	-36.1	-37.0	25.2	0.00e+00	122	29	0	656408576	50	5960
2026-01-05 00:20:39.88	159.66	24.06	-36.0	-36.9	25.3	0.00e+00	123	29	0	659554304	50	5867
2026-01-05 00:20:40.89	159.67	24.22	-36.2	-37.1	25.3	0.00e+00	123	29	0	662700032	50	6005
2026-01-05 00:20:41.90	159.68	24.37	-36.0	-36.9	25.4	0.00e+00	123	29	0	665845760	50	5863
2026-01-05 00:20:42.91	159.70	24.53	-35.9	-36.8	25.1	0.00e+00	122	29	0	668991488	50	5822
2026-01-05 00:20:43.92	159.71	24.69	-35.9	-36.8	25.2	0.00e+00	122	29	0	672137216	50	5813
2026-01-05 00:20:44.94	159.73	24.85	-36.1	-36.9	25.1	0.00e+00	122	29	0	675282944	50	5919
2026-01-05 00:20:45.95	159.74	25.01	-36.3	-37.1	25.1	0.00e+00	122	29	0	678428672	50	6054
2026-01-05 00:20:46.96	159.75	25.17	-36.1	-37.0	25.2	0.00e+00	120	29	0	681574400	50	5959
2026-01-05 00:20:47.97	159.77	25.34	-36.8	-37.6	24.8	0.00e+00	123	29	0	684720128	50	6413
2026-01-05 00:20:48.98	159.78	25.50	-36.5	-37.4	24.9	0.00e+00	122	29	0	687865856	50	6239
2026-01-05 00:20:49.99	159.80	25.67	-36.6	-37.5	24.7	0.00e+00	123	29	0	691011584	50	6311
2026-01-05 00:20:51.01	159.81	25.83	-36.6	-37.5	24.7	0.00e+00	120	29	0	694157312	50	6290
2026-01-05 00:20:52.01	159.82	26.00	-37.5	-38.4	24.7	0.00e+00	123	29	0	697303040	52	6208
2026-01-05 00:20:53.02	159.84	26.17	-37.6	-38.5	24.5	0.00e+00	120	29	0	700448768	52	6286
2026-01-05 00:20:54.03	159.85	26.33	-37.5	-38.4	24.6	0.00e+00	123	29	0	703594496	52	6212
2026-01-05 00:20:55.05	159.87	26.51	-37.0	-37.9	24.6	0.00e+00	121	29	0	706740224	52	5869
2026-01-05 00:20:56.06	159.88	26.68	-37.1	-37.9	24.6	0.00e+00	122	29	0	709885952	52	5926
2026-01-05 00:20:57.07	159.90	26.85	-37.8	-38.7	24.2	0.00e+00	123	29	0	713031680	52	6432
2026-01-05 00:20:58.08	159.91	27.02	-37.6	-38.5	24.3	0.00e+00	123	29	0	716177408	52	6322
2026-01-05 00:20:59.09	159.93	27.20	-37.9	-38.9	24.3	0.00e+00	122	29	0	719323136	52	6578
2026-01-05 00:21:00.10	159.94	27.37	-37.5	-38.5	24.2	0.00e+00	122	29	0	722468864	52	6290
2026-01-05 00:21:01.11	159.96	27.55	-37.6	-38.5	24.2	0.00e+00	120	29	0	725614592	52	6315
2026-01-05 00:21:02.12	159.97	27.73	-37.6	-38.6	24.1	0.00e+00	122	29	0	728760320	52	6353
2026-01-05 00:21:03.14	159.99	27.91	-38.0	-38.9	24.0	0.00e+00	120	29	0	731906048	52	6646
2026-01-05 00:21:04.15	160.01	28.09	-37.6	-38.5	24.1	0.00e+00	123	29	0	735051776	54	5607
2026-01-05 00:21:05.16	160.02	28.27	-37.8	-38.7	24.0	0.00e+00	123	29	0	738197504	54	5768
2026-01-05 00:21:06.17	160.04	28.45	-37.7	-38.6	24.1	0.00e+00	122	29	0	741343232	54	5715
2026-01-05 00:21:07.18	160.06	28.63	-37.7	-38.7	23.9	0.00e+00	123	29	0	744488960	54	5735
2026-01-05 00:21:08.19	160.07	28.82	-38.0	-39.0	23.8	0.00e+00	123	29	0	747634688	54	5941
2026-01-05 00:21:09.20	160.09	29.00	-37.8	-38.8	24.1	0.00e+00	120	29	0	750780416	54	5810
2026-01-05 00:21:10.21	160.11	29.19	-37.9	-38.8	24.1	0.00e+00	122	29	0	753926144	54	5849
2026-01-05 00:21:11.22	160.12	29.38	-37.7	-38.6	24.1	0.00e+00	122	29	0	757071872	54	5714
2026-01-05 00:21:12.24	160.14	29.57	-37.7	-38.6	24.2	0.00e+00	123	29	0	760217600	54	5687
2026-01-05 00:21:13.25	160.16	29.76	-37.8	-38.7	24.3	0.00e+00	123	29	0	763363328	54	5748
2026-01-05 00:21:14.26	160.17	29.95	-37.4	-38.4	24.3	0.00e+00	122	29	0	766509056	54	5537
2026-01-05 00:21:15.27	160.19	30.15	-37.6	-38.5	24.3	0.00e+00	123	29	0	769654784	54	5619
2026-01-05 00:21:16.28	160.21	30.34	-37.4	-38.3	24.3	0.00e+00	123	29	0	772800512	54	5522
2026-01-05 00:21:17.29	160.23	30.54	-37.2	-38.1	24.3	0.00e+00	122	29	0	775946240	52	6019
2026-01-05 00:21:18.30	160.25	30.74	-37.1	-38.0	24.7	0.00e+00	122	29	0	779091968	52	5959
2026-01-05 00:21:19.31	160.26	30.93	-37.2	-38.0	24.8	0.00e+00	123	29	0	782237696	52	5978
2026-01-05 00:21:20.32	160.28	31.14	-37.5	-38.3	24.9	0.00e+00	123	29	0	785383424	52	6185
2026-01-05 00:21:21.34	160.30	31.34	-37.1	-37.9	24.9	0.00e+00	122	29	0	788529152	52	5922
2026-01-05 00:21:22.35	160.32	31.54	-36.9	-37.8	25.0	0.00e+00	123	29	0	791674880	52	5813
2026-01-05 00:21:23.36	160.34	31.75	-36.9	-37.8	24.8	0.00e+00	123	29	0	794820608	52	5803
2026-01-05 00:21:24.37	160.36	31.95	-37.1	-38.0	24.7	0.00e+00	123	29	0	797966336	52	5956
2026-01-05 00:21:25.38	160.38	32.16	-36.7	-37.6	24.8	0.00e+00	122	29	0	801112064	52	5676
2026-01-05 00:21:26.39	160.40	32.37	-36.9	-37.8	24.7	0.00e+00	122	29	0	804257792	52	5812
2026-01-05 00:21:27.40	160.42	32.58	-37.1	-38.0	24.7	0.00e+00	123	29	0	807403520	52	5980
2026-01-05 00:21:28.41	160.44	32.79	-37.2	-38.1	24.5	0.00e+00	122	29	0	810549248	52	6025
2026-01-05 00:21:29.42	160.46	33.00	-37.6	-38.5	24.3	0.00e+00	123	29	0	813694976	52	6341
2026-01-05 00:21:30.44	160.48	33.22	-37.4	-38.3	24.5	0.00e+00	121	29	0	816840704	52	6178
2026-01-05 00:21:31.45	160.50	33.44	-37.8	-38.7	24.2	0.00e+00	122	29	0	819986432	52	6475
2026-01-05 00:21:32.46	160.52	33.65	-37.9	-38.8	24.2	0.00e+00	123	29	0	823132160	52	6546
2026-01-05 00:21:33.47	160.54	33.87	-38.0	-38.9	23.9	0.00e+00	123	29	0	826277888	52	6599
2026-01-05 00:21:34.48	160.56	34.09	-38.3	-39.2	23.7	0.00e+00	123	29	0	829423616	52	6873
2026-01-05 00:21:35.49	160.58	34.32	-38.5	-39.4	23.6	0.00e+00	122	29	0	833617920	54	6273
2026-01-05 00:21:36.50	160.61	34.54	-38.4	-39.4	23.6	0.00e+00	122	29	0	836763648	54	6221
2026-01-05 00:21:37.51	160.63	34.77	-38.6	-39.5	23.6	0.00e+00	122	29	0	838860800	54	6315
2026-01-05 00:21:38.52	160.65	34.99	-38.6	-39.5	23.4	0.00e+00	123	29	0	842006528	54	6332
2026-01-05 00:21:39.53	160.67	35.22	-38.8	-39.8	23.3	0.00e+00	122	29	0	845152256	54	6540
2026-01-05 00:21:40.55	160.70	35.46	-39.0	-40.0	23.5	0.00e+00	122	29	0	849346560	54	6651
2026-01-05 00:21:41.56	160.72	35.69	-39.4	-40.4	23.0	0.00e+00	123	29	0	852492288	56	6214
2026-01-05 00:21:42.57	160.74	35.92	-39.3	-40.3	23.1	0.00e+00	123	29	0	855638016	56	6188
2026-01-05 00:21:43.58	160.77	36.16	-40.0	-41.1	23.0	0.00e+00	123	29	0	858783744	58	5995
2026-01-05 00:21:44.59	160.79	36.39	-40.0	-41.0	22.7	0.00e+00	122	29	0	861929472	58	5957
2026-01-05 00:21:45.60	160.82	36.63	-40.0	-41.1	22.6	0.00e+00	122	29	0	865075200	58	5999
2026-01-05 00:21:46.61	160.84	36.87	-40.2	-41.2	22.5	0.00e+00	123	29	0	868220928	58	6102
2026-01-05 00:21:47.62	160.87	37.12	-40.1	-41.1	22.4	0.00e+00	123	29	0	871366656	58	6058
2026-01-05 00:21:48.64	160.89	37.36	-40.3	-41.3	22.5	0.00e+00	123	29	0	874512384	58	6186
2026-01-05 00:21:49.65	160.92	37.61	-40.9	-41.9	22.5	0.00e+00	123	29	0	877658112	58	6631
2026-01-05 00:21:50.66	160.94	37.86	-40.0	-41.0	22.6	0.00e+00	123	29	0	880803840	58	5992
2026-01-05 00:21:51.67	160.97	38.11	-39.5	-40.5	22.8	0.00e+00	123	29	0	883949568	58	5605
2026-01-05 00:21:52.68	161.00	38.36	-39.3	-40.3	22.8	0.00e+00	123	29	0	887095296	58	5490
2026-01-05 00:21:53.69	161.02	38.61	-39.3	-40.3	22.9	0.00e+00	123	29	0	890241024	56	6182
2026-01-05 00:21:54.70	161.05	38.87	-39.3	-40.3	23.2	0.00e+00	120	29	0	893386752	56	6158
2026-01-05 00:21:55.71	161.08	39.13	-39.4	-40.4	23.1	0.00e+00	122	29	0	896532480	56	6234
2026-01-05 00:21:56.72	161.11	39.39	-39.1	-40.1	23.2	0.00e+00	120	29	0	899678208	56	6029
2026-01-05 00:21:57.73	161.14	39.65	-39.3	-40.3	23.2	0.00e+00	123	29	0	902823936	56	6159
2026-01-05 00:21:58.75	161.17	39.91	-38.6	-39.6	23.4	0.00e+00	123	29	0	905969664	56	5702
2026-01-05 00:21:59.76	161.20	40.18	-38.7	-39.6	23.5	0.00e+00	123	29	0	909115392	56	5711
2026-01-05 00:22:00.77	161.23	40.45	-38.6	-39.5	23.7	0.00e+00	120	29	0	912261120	56	5639
2026-01-05 00:22:01.78	161.26	40.72	-38.3	-39.2	23.8	0.00e+00	123	29	0	915406848	56	5437
2026-01-05 00:22:02.79	161.29	40.99	-38.2	-39.1	23.8	0.00e+00	120	29	0	918552576	56	5364
2026-01-05 00:22:03.80	161.32	41.26	-38.5	-39.5	23.6	0.00e+00	123	29	0	921698304	56	5617
2026-01-05 00:22:04.81	161.35	41.54	-39.0	-39.9	23.4	0.00e+00	120	29	0	924844032	56	5901
2026-01-05 00:22:05.82	161.38	41.81	-39.3	-40.2	23.0	0.00e+00	123	29	0	927989760	56	6128
2026-01-05 00:22:06.84	161.41	42.10	-40.0	-41.0	22.7	0.00e+00	124	29	0	931135488	56	6657
2026-01-05 00:22:07.85	161.45	42.38	-40.0	-41.1	22.2	0.00e+00	122	29	0	934281216	58	6018
2026-01-05 00:22:08.86	161.48	42.66	-40.1	-41.2	22.0	0.00e+00	120	29	0	937426944	58	6082
2026-01-05 00:22:09.87	161.52	42.95	-40.6	-41.7	21.6	0.00e+00	122	29	0	940572672	58	6494
2026-01-05 00:22:10.88	161.55	43.24	-40.4	-41.6	21.7	0.00e+00	123	29	0	943718400	58	6352
2026-01-05 00:22:11.89	161.59	43.53	-40.7	-41.8	21.8	0.00e+00	123	29	0	946864128	58	6515
2026-01-05 00:22:12.90	161.62	43.82	-40.2	-41.3	21.9	0.00e+00	123	29	0	950009856	58	6142
2026-01-05 00:22:13.91	161.66	44.11	-40.2	-41.3	22.1	0.00e+00	122	29	0	953155584	58	6160
2026-01-05 00:22:14.92	161.70	44.41	-40.1	-41.2	22.3	0.00e+00	123	29	0	956301312	58	6075
2026-01-05 00:22:15.93	161.73	44.71	-40.0	-41.1	22.1	0.00e+00	122	29	0	959447040	58	6006
2026-01-05 00:22:16.95	161.77	45.02	-39.8	-40.8	22.4	0.00e+00	122	29	0	962592768	58	5819
2026-01-05 00:22:17.96	161.81	45.32	-40.5	-41.6	22.3	0.00e+00	122	29	0	965738496	58	6353
2026-01-05 00:22:18.97	161.85	45.63	-40.3	-41.3	22.1	0.00e+00	123	29	0	968884224	58	6190
2026-01-05 00:22:19.98	161.89	45.93	-40.1	-41.1	22.0	0.00e+00	123	29	0	972029952	58	6046
2026-01-05 00:22:20.99	161.93	46.25	-40.1	-41.1	22.1	0.00e+00	123	29	0	975175680	58	6037
2026-01-05 00:22:22.00	161.97	46.56	-40.2	-41.3	22.0	0.00e+00	123	29	0	978321408	58	6136
2026-01-05 00:22:23.01	162.02	46.87	-40.1	-41.2	22.0	0.00e+00	123	29	0	981467136	58	6079
2026-01-05 00:22:24.02	162.06	47.19	-39.8	-40.8	22.3	0.00e+00	120	29	0	984612864	58	5813
2026-01-05 00:22:25.03	162.11	47.51	-39.3	-40.3	22.7	0.00e+00	123	29	0	987758592	58	5514
2026-01-05 00:22:26.05	162.15	47.84	-39.4	-40.4	23.0	0.00e+00	122	29	0	990904320	56	6242
2026-01-05 00:22:27.06	162.20	48.16	-39.3	-40.3	23.2	0.00e+00	123	29	0	994050048	56	6138
2026-01-05 00:22:28.07	162.24	48.49	-38.9	-39.9	23.4	0.00e+00	120	29	0	997195776	56	5878
2026-01-05 00:22:29.08	162.29	48.82	-38.9	-39.8	23.3	0.00e+00	122	29	0	1000341504	56	5836
2026-01-05 00:22:30.09	162.34	49.16	-39.3	-40.2	23.3	0.00e+00	123	29	0	1003487232	56	6124
2026-01-05 00:22:31.10	162.39	49.49	-39.3	-40.3	23.3	0.00e+00	123	29	0	1006632960	56	6135
2026-01-05 00:22:32.11	162.44	49.83	-38.9	-39.8	23.4	0.00e+00	123	29	0	1009778688	56	5840
2026-01-05 00:22:33.12	162.49	50.17	-38.6	-39.6	23.5	0.00e+00	123	29	0	1012924416	56	5670
2026-01-05 00:22:34.13	162.55	50.51	-38.5	-39.4	23.6	0.00e+00	123	29	0	1016070144	56	5585
2026-01-05 00:22:35.15	162.60	50.86	-38.7	-39.6	23.8	0.00e+00	120	29	0	1019215872	56	5709
2026-01-05 00:22:36.16	162.66	51.21	-38.5	-39.4	24.0	0.00e+00	122	29	0	1022361600	56	5574
2026-01-05 00:22:37.17	162.71	51.56	-38.4	-39.3	23.9	0.00e+00	123	29	0	1025507328	56	5524
2026-01-05 00:22:38.18	162.77	51.91	-38.2	-39.1	23.9	0.00e+00	123	29	0	1028653056	54	6037
2026-01-05 00:22:39.19	162.83	52.27	-38.2	-39.1	24.0	0.00e+00	122	29	0	1031798784	54	6038
2026-01-05 00:22:40.20	162.89	52.62	-37.9	-38.8	24.0	0.00e+00	123	29	0	1034944512	54	5814
2026-01-05 00:22:41.21	162.95	52.98	-38.3	-39.2	24.0	0.00e+00	123	29	0	1038090240	54	6129
2026-01-05 00:22:42.22	163.02	53.35	-38.1	-39.0	23.8	0.00e+00	123	29	0	1041235968	54	5956
2026-01-05 00:22:43.23	163.08	53.71	-38.6	-39.5	23.7	0.00e+00	120	29	0	1044381696	54	6319
2026-01-05 00:22:44.25	163.15	54.09	-38.5	-39.5	23.7	0.00e+00	123	29	0	1047527424	54	6301
2026-01-05 00:22:45.26	163.22	54.46	-38.3	-39.2	23.7	0.00e+00	123	29	0	1050673152	54	6128
2026-01-05 00:22:46.27	163.29	54.83	-38.0	-38.9	23.9	0.00e+00	122	29	0	1053818880	54	5895
2026-01-05 00:22:47.28	163.36	55.21	-37.8	-38.7	24.1	0.00e+00	122	29	0	1056964608	54	5766
2026-01-05 00:22:48.29	163.43	55.58	-37.3	-38.3	24.1	0.00e+00	122	29	0	1060110336	54	5481
2026-01-05 00:22:49.30	163.51	55.97	-37.4	-38.4	24.1	0.00e+00	122	29	0	1063256064	54	5542
2026-01-05 00:22:50.31	163.58	56.35	-38.2	-39.2	23.6	0.00e+00	120	29	0	1066401792	54	6077
2026-01-05 00:22:51.32	163.66	56.74	-37.8	-38.7	24.0	0.00e+00	123	29	0	1069547520	54	5758
2026-01-05 00:22:52.33	163.75	57.13	-37.3	-38.2	24.4	0.00e+00	120	29	0	1072693248	54	5438
2026-01-05 00:22:53.34	163.83	57.52	-36.8	-37.7	24.8	0.00e+00	123	29	0	1076887552	52	5749
2026-01-05 00:22:54.36	163.92	57.92	-37.0	-37.9	24.6	0.00e+00	121	29	0	1080033280	52	5907
2026-01-05 00:22:55.37	164.01	58.31	-37.2	-38.1	24.6	0.00e+00	123	29	0	1082130432	52	6037
2026-01-05 00:22:56.38	164.10	58.71	-37.2	-38.1	24.7	0.00e+00	120	29	0	1085276160	52	6001
2026-01-05 00:22:57.39	164.19	59.12	-37.2	-38.1	24.7	0.00e+00	123	29	0	1089470464	52	6061
2026-01-05 00:22:58.40	164.29	59.52	-36.8	-37.7	24.7	0.00e+00	122	29	0	1092616192	52	5751
2026-01-05 00:22:59.41	164.39	59.93	-36.7	-37.6	25.1	0.00e+00	123	29	0	1095761920	52	5718
2026-01-05 00:23:00.41	164.49	60.34	-36.5	-37.4	25.2	0.00e+00	122	29	0	1098907648	52	5534
2026-01-05 00:23:01.42	164.59	60.75	-36.5	-37.3	25.1	0.00e+00	123	29	0	1102053376	52	5521
2026-01-05 00:23:02.44	164.71	61.17	-36.4	-37.3	25.0	0.00e+00	123	29	0	1105199104	52	5476
2026-01-05 00:23:03.45	164.82	61.59	-36.6	-37.5	25.2	0.00e+00	120	29	0	1108344832	52	5641
2026-01-05 00:23:04.46	164.93	62.01	-36.7	-37.5	25.2	0.00e+00	123	29	0	1111490560	52	5638
2026-01-05 00:23:05.47	165.06	62.43	-36.4	-37.2	25.3	0.00e+00	123	29	0	1114636288	52	5452
2026-01-05 00:23:06.48	165.18	62.86	-36.1	-37.0	25.4	0.00e+00	123	29	0	1117782016	50	5931
2026-01-05 00:23:07.49	165.31	63.28	-35.7	-36.6	25.5	0.00e+00	123	29	0	1120927744	50	5680
2026-01-05 00:23:08.50	165.44	63.71	-35.9	-36.7	25.5	0.00e+00	123	29	0	1124073472	50	5767
2026-01-05 00:23:09.51	165.58	64.15	-35.9	-36.7	25.4	0.00e+00	121	29	0	1127219200	50	5783
2026-01-05 00:23:10.52	165.73	64.58	-36.1	-36.9	25.0	0.00e+00	122	29	0	1130364928	50	5916
2026-01-05 00:23:11.54	165.88	65.02	-35.9	-36.9	25.0	0.00e+00	120	29	0	1133510656	50	5860
2026-01-05 00:23:12.55	166.03	65.46	-35.5	-36.4	25.2	0.00e+00	123	29	0	1136656384	50	5553
2026-01-05 00:23:13.56	166.19	65.91	-36.2	-37.1	25.1	0.00e+00	123	29	0	1139802112	50	6043
2026-01-05 00:23:14.57	166.36	66.35	-36.3	-37.2	25.1	0.00e+00	123	29	0	1142947840	50	6116
2026-01-05 00:23:15.58	166.54	66.80	-35.9	-36.8	25.6	0.00e+00	120	29	0	1146093568	50	5832
2026-01-05 00:23:16.59	166.72	67.25	-36.0	-36.8	25.4	0.00e+00	120	29	0	1149239296	50	5832
2026-01-05 00:23:17.60	166.91	67.70	-35.9	-36.8	25.5	0.00e+00	127	29	0	1152385024	50	5820
2026-01-05 00:23:18.61	167.11	68.15	-35.9	-36.8	25.6	0.00e+00	123	29	0	1155530752	50	5808
2026-01-05 00:23:19.62	167.32	68.61	-36.7	-37.7	25.6	0.00e+00	123	29	0	1158676480	50	6436
2026-01-05 00:23:20.64	167.53	69.07	-36.0	-36.8	25.4	0.00e+00	121	29	0	1161822208	50	5838
2026-01-05 00:23:21.65	167.76	69.53	-36.8	-37.7	25.1	0.00e+00	123	29	0	1164967936	50	6476
2026-01-05 00:23:22.66	168.00	69.99	-36.5	-37.4	25.2	0.00e+00	123	29	0	1168113664	50	6217
2026-01-05 00:23:23.67	168.25	70.45	-36.5	-37.3	25.3	0.00e+00	123	29	0	1171259392	50	6192
2026-01-05 00:23:24.68	168.52	70.92	-36.4	-37.3	25.6	0.00e+00	123	29	0	1174405120	50	6182
2026-01-05 00:23:25.69	168.79	71.39	-36.2	-37.0	25.6	0.00e+00	122	29	0	1177550848	50	5958
2026-01-05 00:23:26.70	169.08	71.86	-35.5	-36.3	25.6	0.00e+00	120	29	0	1180696576	50	5518
2026-01-05 00:23:27.71	169.39	72.33	-35.8	-36.6	25.3	0.00e+00	123	29	0	1183842304	50	5713
2026-01-05 00:23:28.72	169.72	72.80	-36.0	-36.8	25.6	0.00e+00	123	29	0	1186988032	50	5856
2026-01-05 00:23:29.73	170.06	73.27	-35.3	-36.1	25.9	0.00e+00	122	29	0	1190133760	50	5363
2026-01-05 00:23:30.75	170.43	73.75	-35.6	-36.4	26.0	0.00e+00	121	29	0	1193279488	50	5559
2026-01-05 00:23:31.76	170.82	74.23	-35.6	-36.4	26.0	0.00e+00	123	29	0	1196425216	50	5550
2026-01-05 00:23:32.77	171.24	74.70	-35.2	-36.0	25.7	0.00e+00	123	29	0	1199570944	50	5324
2026-01-05 00:23:33.78	171.68	75.18	-35.6	-36.5	25.5	0.00e+00	122	29	0	1202716672	48	6324
2026-01-05 00:23:34.79	172.15	75.66	-36.7	-37.6	25.5	0.00e+00	123	29	0	1205862400	52	5681
2026-01-05 00:23:35.80	172.66	76.14	-35.6	-36.5	25.7	0.00e+00	122	29	0	1209008128	50	5600
2026-01-05 00:23:36.81	173.20	76.62	-36.1	-36.9	25.3	0.00e+00	122	29	0	1212153856	50	5899
2026-01-05 00:23:37.82	173.78	77.10	-36.1	-37.0	24.7	0.00e+00	122	29	0	1215299584	50	5970
2026-01-05 00:23:38.84	174.42	77.58	-36.2	-37.2	24.6	0.00e+00	123	29	0	1218445312	50	6066
2026-01-05 00:23:39.85	175.10	78.06	-36.9	-37.8	24.7	0.00e+00	123	29	0	1221591040	50	6546
2026-01-05 00:23:40.86	175.84	78.54	-36.5	-37.4	25.0	0.00e+00	123	29	0	1224736768	50	6247
2026-01-05 00:23:41.87	176.65	79.02	-36.7	-37.6	24.5	0.00e+00	123	29	0	1227882496	52	5704
2026-01-05 00:23:42.88	177.53	79.50	-36.4	-37.3	24.5	0.00e+00	123	29	0	1231028224	52	5516
2026-01-05 00:23:43.89	178.50	79.98	-36.8	-37.8	24.3	0.00e+00	122	29	0	1234173952	52	5805
2026-01-05 00:23:44.90	179.56	80.45	-36.8	-37.7	24.7	0.00e+00	122	29	0	1237319680	52	5752
2026-01-05 00:23:45.91	180.74	80.92	-37.1	-38.1	24.4	0.00e+00	120	29	0	1240465408	52	6002
2026-01-05 00:23:46.92	182.05	81.39	-37.4	-38.3	24.4	0.00e+00	122	29	0	1243611136	52	6167
2026-01-05 00:23:47.94	183.52	81.86	-38.4	-39.3	24.0	0.00e+00	120	29	0	1246756864	52	6941
2026-01-05 00:23:48.95	185.16	82.32	-37.3	-38.2	24.7	0.00e+00	122	29	0	1249902592	54	5436
2026-01-05 00:23:49.96	187.00	82.78	-36.7	-37.6	24.6	0.00e+00	121	29	0	1253048320	52	5675
2026-01-05 00:23:50.97	189.10	83.22	-37.2	-38.2	24.6	0.00e+00	123	29	0	1256194048	52	6081
2026-01-05 00:23:51.98	191.48	83.66	-37.5	-38.4	24.8	0.00e+00	120	29	0	1259339776	52	6243
2026-01-05 00:23:52.99	194.22	84.08	-37.0	-37.9	25.0	0.00e+00	123	29	0	1262485504	52	5866
2026-01-05 00:23:54.00	197.37	84.49	-36.9	-37.8	24.7	0.00e+00	122	29	0	1265631232	52	5792
2026-01-05 00:23:55.01	201.02	84.88	-37.8	-38.8	24.6	0.00e+00	123	29	0	1268776960	52	6517
2026-01-05 00:23:56.02	205.26	85.25	-37.3	-38.3	24.8	0.00e+00	123	29	0	1271922688	52	6139
2026-01-05 00:23:57.01	210.07	85.58	-37.2	-38.1	24.8	0.00e+00	122	29	0	1275068416	54	5399
2026-01-05 00:23:58.02	215.74	85.88	-37.5	-38.4	24.2	0.00e+00	123	29	0	1278214144	52	6271
2026-01-05 00:23:59.03	222.23	86.14	-38.0	-38.9	24.6	0.00e+00	123	29	0	1281359872	52	6621
2026-01-05 00:24:00.04	229.53	86.34	-37.4	-38.3	24.4	0.00e+00	120	29	0	1284505600	52	6200
2026-01-05 00:24:01.05	237.53	86.47	-37.1	-38.0	24.6	0.00e+00	123	29	0	1287651328	52	5954
2026-01-05 00:24:02.06	245.99	86.53	-36.1	-37.0	25.1	0.00e+00	120	29	0	1290797056	50	5942
2026-01-05 00:24:03.07	254.55	86.52	-37.2	-38.1	24.5	0.00e+00	123	29	0	1293942784	50	6783
2026-01-05 00:24:04.08	262.86	86.43	-37.0	-37.9	25.0	0.00e+00	121	29	0	1297088512	52	5907
2026-01-05 00:24:05.09	270.59	86.27	-36.8	-37.7	25.2	0.00e+00	122	29	0	1300234240	52	5765
2026-01-05 00:24:06.10	277.57	86.04	-38.3	-39.2	24.9	1.50e-06	123	29	0	1303379968	52	6842
2026-01-05 00:24:07.12	283.78	85.76	-36.8	-37.7	25.3	0.00e+00	122	29	0	1306525696	52	5728
2026-01-05 00:24:08.13	289.11	85.45	-36.5	-37.4	25.1	0.00e+00	122	29	0	1309671424	52	5575
2026-01-05 00:24:09.14	293.72	85.09	-36.4	-37.3	25.2	0.00e+00	123	29	0	1312817152	52	5484
2026-01-05 00:24:10.15	297.69	84.72	-37.1	-37.9	25.1	0.00e+00	123	29	0	1315962880	52	5906
2026-01-05 00:24:11.16	301.11	84.32	-36.5	-37.4	25.2	0.00e+00	123	29	0	1320157184	52	5568
2026-01-05 00:24:12.17	304.07	83.90	-35.8	-36.6	25.1	0.00e+00	123	29	0	1323302912	50	5713
2026-01-05 00:24:13.18	306.64	83.47	-36.2	-37.1	24.8	0.00e+00	120	29	0	1326448640	50	6052
2026-01-05 00:24:14.19	308.89	83.03	-36.6	-37.5	24.7	0.00e+00	122	29	0	1328545792	50	6286
2026-01-05 00:24:15.20	310.87	82.58	-36.7	-37.7	24.4	0.00e+00	120	29	0	1331691520	52	5729
2026-01-05 00:24:16.22	312.64	82.12	-36.9	-37.8	24.6	0.00e+00	123	29	0	1335885824	52	5825
2026-01-05 00:24:17.23	314.19	81.66	-36.7	-37.6	24.8	0.00e+00	122	29	0	1339031552	52	5720
2026-01-05 00:24:18.24	315.58	81.19	-36.5	-37.3	25.1	0.00e+00	122	29	0	1342177280	52	5525
2026-01-05 00:24:19.25	316.83	80.72	-37.2	-38.1	25.4	0.00e+00	123	29	0	1345323008	52	6034
2026-01-05 00:24:20.26	317.96	80.25	-36.5	-37.3	25.6	0.00e+00	123	29	0	1348468736	50	6168
2026-01-05 00:24:21.27	318.98	79.77	-35.9	-36.7	25.8	0.00e+00	123	29	0	1351614464	50	5756
2026-01-05 00:24:22.28	319.90	79.30	-37.0	-37.9	25.2	0.00e+00	123	29	0	1354760192	50	6580
2026-01-05 00:24:23.29	320.75	78.82	-36.5	-37.4	25.3	0.00e+00	120	29	0	1357905920	50	6211
2026-01-05 00:24:24.30	321.53	78.34	-35.9	-36.8	25.5	0.00e+00	123	29	0	1361051648	50	5807
2026-01-05 00:24:25.31	322.24	77.86	-36.2	-37.0	25.5	0.00e+00	123	29	0	1364197376	50	5982
2026-01-05 00:24:26.33	322.91	77.38	-36.1	-37.0	25.3	0.00e+00	122	29	0	1367343104	50	5958
2026-01-05 00:24:27.34	323.52	76.90	-36.5	-37.3	25.4	0.00e+00	121	29	0	1370488832	50	6189
2026-01-05 00:24:28.35	324.08	76.42	-37.1	-38.0	24.9	0.00e+00	123	29	0	1373634560	50	6671
2026-01-05 00:24:29.36	324.61	75.94	-36.9	-37.8	25.0	0.00e+00	123	29	0	1376780288	50	6502
2026-01-05 00:24:30.37	325.10	75.46	-36.5	-37.4	25.0	0.00e+00	122	29	0	1379926016	50	6226
2026-01-05 00:24:31.38	325.56	74.98	-36.1	-37.0	25.5	0.00e+00	123	29	0	1383071744	50	5962
2026-01-05 00:24:32.39	325.99	74.51	-36.4	-37.2	25.3	0.00e+00	122	29	0	1386217472	50	6092
2026-01-05 00:24:33.41	326.39	74.03	-36.9	-37.8	25.0	0.00e+00	122	29	0	1389363200	50	6511
2026-01-05 00:24:34.42	326.77	73.55	-37.9	-38.8	24.5	0.00e+00	123	29	0	1392508928	54	5822
2026-01-05 00:24:35.43	327.13	73.08	-37.3	-38.2	25.2	0.00e+00	123	29	0	1395654656	54	5432
2026-01-05 00:24:36.44	327.46	72.61	-36.5	-37.3	25.2	0.00e+00	123	29	0	1398800384	52	5526
2026-01-05 00:24:37.45	327.78	72.14	-35.7	-36.6	25.2	0.00e+00	123	29	0	1401946112	50	5665
2026-01-05 00:24:38.46	328.08	71.67	-35.2	-36.0	25.8	0.00e+00	121	29	0	1405091840	50	5309
2026-01-05 00:24:39.47	328.37	71.20	-36.5	-37.3	25.8	0.00e+00	122	29	0	1408237568	50	6179
2026-01-05 00:24:40.48	328.64	70.74	-36.3	-37.2	25.3	0.00e+00	123	29	0	1411383296	50	6085
2026-01-05 00:24:41.49	328.90	70.27	-38.0	-38.9	24.8	0.00e+00	122	29	0	1414529024	52	6627
2026-01-05 00:24:42.51	329.15	69.81	-38.1	-39.0	24.3	0.00e+00	123	29	0	1417674752	54	5968
2026-01-05 00:24:43.52	329.38	69.35	-38.5	-39.5	24.6	0.00e+00	123	29	0	1420820480	54	6295
2026-01-05 00:24:44.53	329.60	68.89	-36.7	-37.5	25.2	0.00e+00	121	29	0	1423966208	52	5641
2026-01-05 00:24:45.54	329.82	68.43	-36.5	-37.4	25.7	0.00e+00	122	29	0	1427111936	50	6210
2026-01-05 00:24:46.55	330.02	67.98	-35.7	-36.6	25.7	0.00e+00	122	29	0	1430257664	50	5664
2026-01-05 00:24:47.56	330.21	67.53	-36.0	-36.9	25.4	0.00e+00	123	29	0	1433403392	50	5873
2026-01-05 00:24:48.57	330.40	67.08	-37.9	-38.9	24.5	0.00e+00	123	29	0	1436549120	54	5870
2026-01-05 00:24:49.58	330.58	66.63	-37.1	-38.1	24.3	0.00e+00	123	29	0	1439694848	52	6029
2026-01-05 00:24:50.59	330.75	66.19	-36.4	-37.3	25.0	0.00e+00	120	29	0	1442840576	52	5470
2026-01-05 00:24:51.61	330.92	65.74	-35.7	-36.5	25.4	0.00e+00	123	29	0	1445986304	50	5641
2026-01-05 00:24:52.62	331.08	65.30	-35.9	-36.8	25.7	0.00e+00	120	29	0	1449132032	50	5823
2026-01-05 00:24:53.63	331.23	64.86	-34.7	-35.5	26.2	0.00e+00	122	29	0	1452277760	48	5616
2026-01-05 00:24:54.64	331.38	64.43	-34.8	-35.6	26.3	0.00e+00	122	29	0	1455423488	48	5700
2026-01-05 00:24:55.65	331.52	63.99	-35.0	-35.8	26.0	0.00e+00	122	29	0	1458569216	48	5816
2026-01-05 00:24:56.66	331.66	63.56	-36.2	-37.1	25.1	0.00e+00	122	29	0	1461714944	48	6729
2026-01-05 00:24:57.67	331.79	63.13	-37.7	-38.6	24.5	0.00e+00	123	29	0	1464860672	52	6406
2026-01-05 00:24:58.68	331.92	62.71	-37.6	-38.6	24.2	0.00e+00	120	29	0	1468006400	52	6374
2026-01-05 00:24:59.69	332.04	62.28	-37.2	-38.1	24.5	0.00e+00	122	29	0	1471152128	52	6040
2026-01-05 00:25:00.70	332.16	61.86	-36.3	-37.2	25.3	0.00e+00	122	29	0	1474297856	52	5440
2026-01-05 00:25:01.71	332.27	61.45	-36.4	-37.3	25.8	0.00e+00	122	29	0	1477443584	50	6151
2026-01-05 00:25:02.72	332.38	61.03	-35.8	-36.6	25.8	0.00e+00	120	29	0	1480589312	50	5663
2026-01-05 00:25:03.74	332.49	60.61	-36.2	-37.1	25.1	0.00e+00	123	29	0	1483735040	50	5995
2026-01-05 00:25:04.74	332.60	60.21	-37.1	-37.9	24.7	0.00e+00	123	29	0	1486880768	50	6648
2026-01-05 00:25:05.76	332.70	59.79	-37.2	-38.1	24.8	0.00e+00	123	29	0	1490026496	52	6026
2026-01-05 00:25:06.77	332.80	59.39	-37.1	-38.0	25.1	0.00e+00	122	29	0	1493172224	52	5943
2026-01-05 00:25:07.78	332.89	58.99	-37.4	-38.3	24.6	0.00e+00	123	29	0	1496317952	52	6177
2026-01-05 00:25:08.79	332.99	58.59	-37.2	-38.1	24.4	0.00e+00	122	29	0	1499463680	52	6040
2026-01-05 00:25:09.80	333.08	58.19	-37.0	-37.8	25.0	0.00e+00	123	29	0	1502609408	52	5847
2026-01-05 00:25:10.81	333.16	57.79	-36.6	-37.4	25.1	0.00e+00	122	29	0	1505755136	52	5568
2026-01-05 00:25:11.82	333.25	57.40	-36.4	-37.3	25.0	0.00e+00	122	29	0	1508900864	50	6168
2026-01-05 00:25:12.83	333.33	57.01	-37.4	-38.3	24.5	0.00e+00	122	29	0	1512046592	52	6195
2026-01-05 00:25:13.84	333.41	56.62	-37.9	-38.9	23.6	0.00e+00	122	29	0	1515192320	54	5888
2026-01-05 00:25:14.86	333.49	56.24	-38.6	-39.7	23.0	0.00e+00	122	29	0	1518338048	54	6426
2026-01-05 00:25:15.87	333.57	55.85	-38.6	-39.6	23.2	0.00e+00	123	29	0	1521483776	54	6364
2026-01-05 00:25:16.88	333.64	55.48	-39.1	-40.1	23.1	0.00e+00	123	29	0	1524629504	54	6767
2026-01-05 00:25:17.89	333.72	55.10	-38.9	-39.9	23.0	0.00e+00	120	29	0	1527775232	54	6600
2026-01-05 00:25:18.90	333.79	54.72	-38.7	-39.6	23.4	0.00e+00	122	29	0	1530920960	54	6411
2026-01-05 00:25:19.91	333.86	54.35	-38.4	-39.4	23.5	0.00e+00	122	29	0	1534066688	54	6214
2026-01-05 00:25:20.92	333.92	53.98	-38.5	-39.5	23.2	0.00e+00	122	29	0	1537212416	54	6287
2026-01-05 00:25:21.93	333.99	53.62	-37.8	-38.8	23.9	0.00e+00	123	29	0	1540358144	54	5796
2026-01-05 00:25:22.94	334.05	53.26	-37.2	-38.1	24.4	0.00e+00	120	29	0	1543503872	52	6031
2026-01-05 00:25:23.96	334.12	52.89	-37.7	-38.6	24.2	0.00e+00	121	29	0	1547698176	52	6366
2026-01-05 00:25:24.97	334.18	52.53	-38.6	-39.5	23.8	0.00e+00	123	29	0	1549795328	54	6344
2026-01-05 00:25:25.98	334.24	52.18	-38.7	-39.6	23.5	0.00e+00	123	29	0	1552941056	54	6405
2026-01-05 00:25:26.99	334.30	51.82	-38.9	-39.9	23.1	0.00e+00	123	29	0	1556086784	54	6627
2026-01-05 00:25:28.00	334.36	51.47	-39.1	-40.1	22.7	0.00e+00	123	29	0	1559232512	56	6063
2026-01-05 00:25:29.01	334.41	51.13	-39.1	-40.2	22.5	0.00e+00	123	29	0	1563426816	56	6068
2026-01-05 00:25:30.02	334.47	50.78	-39.3	-40.4	22.2	0.00e+00	122	29	0	1566572544	56	6223
2026-01-05 00:25:31.03	334.52	50.44	-39.8	-40.8	22.3	0.00e+00	123	29	0	1569718272	56	6563
2026-01-05 00:25:32.04	334.57	50.10	-39.9	-40.9	22.4	0.00e+00	120	29	0	1571815424	56	6636
2026-01-05 00:25:33.06	334.63	49.76	-40.0	-41.1	22.4	0.00e+00	123	29	0	1576009728	56	6748
2026-01-05 00:25:34.07	334.68	49.42	-40.0	-41.1	22.1	0.00e+00	122	29	0	1579155456	56	6756
2026-01-05 00:25:35.08	334.73	49.09	-39.4	-40.4	22.9	0.00e+00	123	29	0	1582301184	58	5562
2026-01-05 00:25:36.09	334.78	48.76	-39.1	-40.1	23.0	0.00e+00	122	29	0	1585446912	58	5397
2026-01-05 00:25:37.10	334.82	48.43	-39.7	-40.7	22.5	0.00e+00	123	29	0	1588592640	56	6437
2026-01-05 00:25:38.11	334.87	48.10	-40.0	-41.0	22.6	0.00e+00	123	29	0	1591738368	56	6718
2026-01-05 00:25:39.12	334.92	47.78	-40.6	-41.7	21.7	0.00e+00	122	29	0	1594884096	58	6487
2026-01-05 00:25:40.13	334.96	47.46	-41.4	-42.7	21.0	0.00e+00	121	29	0	1598029824	60	6456
2026-01-05 00:25:41.14	335.01	47.14	-41.4	-42.6	21.2	0.00e+00	123	29	0	1601175552	60	6413
2026-01-05 00:25:42.15	335.05	46.83	-41.5	-42.7	21.0	0.00e+00	120	29	0	1604321280	60	6460
2026-01-05 00:25:43.17	335.09	46.51	-41.7	-42.9	21.3	0.00e+00	123	29	0	1607467008	60	6612
2026-01-05 00:25:44.18	335.13	46.20	-40.9	-42.0	21.8	0.00e+00	123	29	0	1610612736	60	5976
2026-01-05 00:25:45.19	335.18	45.89	-40.2	-41.2	22.0	0.00e+00	122	29	0	1613758464	58	6114
2026-01-05 00:25:46.20	335.22	45.58	-40.0	-41.1	21.9	0.00e+00	120	29	0	1616904192	58	6036
2026-01-05 00:25:47.21	335.26	45.28	-40.5	-41.6	21.8	0.00e+00	122	29	0	1620049920	58	6387
2026-01-05 00:25:48.22	335.29	44.98	-41.4	-42.6	21.3	0.00e+00	122	29	0	1623195648	58	7155
2026-01-05 00:25:49.23	335.33	44.68	-42.6	-43.9	20.7	0.00e+00	122	29	0	1626341376	60	7388
2026-01-05 00:25:50.24	335.37	44.38	-42.7	-44.0	20.3	0.00e+00	123	29	0	1629487104	60	7491
2026-01-05 00:25:51.25	335.41	44.08	-42.0	-43.3	20.3	0.00e+00	122	29	0	1632632832	60	6894
2026-01-05 00:25:52.27	335.44	43.79	-41.8	-43.0	20.7	0.00e+00	123	29	0	1635778560	60	6684
2026-01-05 00:25:53.28	335.48	43.50	-40.7	-41.9	21.4	0.00e+00	123	29	0	1638924288	60	5875
2026-01-05 00:25:54.29	335.52	43.21	-40.3	-41.3	22.3	0.00e+00	122	29	0	1642070016	60	5516
2026-01-05 00:25:55.30	335.55	42.92	-39.5	-40.5	22.7	0.00e+00	123	29	0	1645215744	58	5643
2026-01-05 00:25:56.31	335.59	42.64	-39.1	-40.0	23.2	0.00e+00	123	29	0	1648361472	56	5981
2026-01-05 00:25:57.32	335.62	42.36	-40.1	-41.1	22.3	0.00e+00	122	29	0	1651507200	58	6039
2026-01-05 00:25:58.33	335.65	42.08	-39.8	-40.8	22.4	0.00e+00	122	29	0	1654652928	58	5826
2026-01-05 00:25:59.34	335.69	41.80	-40.1	-41.2	22.0	0.00e+00	123	29	0	1657798656	58	6072
2026-01-05 00:26:00.36	335.72	41.52	-39.8	-40.9	22.0	0.00e+00	123	29	0	1660944384	58	5879
2026-01-05 00:26:01.37	335.75	41.25	-40.5	-41.6	21.8	0.00e+00	122	29	0	1664090112	58	6375
2026-01-05 00:26:02.38	335.78	40.97	-40.9	-42.0	21.6	0.00e+00	123	29	0	1667235840	58	6711
2026-01-05 00:26:03.39	335.81	40.70	-40.3	-41.3	21.9	0.00e+00	123	29	0	1670381568	58	6198
2026-01-05 00:26:04.40	335.84	40.44	-40.3	-41.4	21.9	0.00e+00	123	29	0	1673527296	58	6252
2026-01-05 00:26:05.41	335.87	40.17	-39.7	-40.7	22.3	0.00e+00	123	29	0	1676673024	58	5777
2026-01-05 00:26:06.42	335.90	39.91	-40.0	-41.0	22.1	0.00e+00	122	29	0	1679818752	58	5961
2026-01-05 00:26:07.43	335.93	39.65	-39.9	-40.9	22.1	0.00e+00	122	29	0	1682964480	58	5901
2026-01-05 00:26:08.44	335.96	39.39	-39.8	-40.9	22.1	0.00e+00	123	29	0	1686110208	58	5872
2026-01-05 00:26:09.45	335.99	39.13	-39.4	-40.5	22.5	0.00e+00	123	29	0	1689255936	58	5596
2026-01-05 00:26:10.47	336.02	38.87	-39.4	-40.4	22.6	0.00e+00	122	29	0	1692401664	58	5588
2026-01-05 00:26:11.48	336.04	38.62	-39.4	-40.4	22.5	0.00e+00	120	29	0	1695547392	58	5558
2026-01-05 00:26:12.49	336.07	38.36	-38.9	-39.9	23.0	0.00e+00	122	29	0	1698693120	56	5890
2026-01-05 00:26:13.50	336.10	38.11	-38.8	-39.8	23.0	0.00e+00	122	29	0	1701838848	56	5831
2026-01-05 00:26:14.51	336.12	37.87	-38.4	-39.4	23.3	0.00e+00	122	29	0	1704984576	56	5547
2026-01-05 00:26:15.52	336.15	37.62	-38.3	-39.2	23.5	0.00e+00	122	29	0	1708130304	56	5430
2026-01-05 00:26:16.53	336.18	37.38	-37.8	-38.8	23.4	0.00e+00	123	29	0	1711276032	54	5814
2026-01-05 00:26:17.54	336.20	37.13	-37.6	-38.6	23.6	0.00e+00	120	29	0	1714421760	54	5674
2026-01-05 00:26:18.55	336.23	36.89	-37.7	-38.6	23.5	0.00e+00	122	29	0	1717567488	54	5722
2026-01-05 00:26:19.56	336.25	36.65	-37.5	-38.5	23.7	0.00e+00	123	29	0	1720713216	54	5603
2026-01-05 00:26:20.58	336.28	36.41	-37.8	-38.7	23.6	0.00e+00	123	29	0	1723858944	54	5768
2026-01-05 00:26:21.59	336.30	36.18	-38.0	-38.9	23.7	0.00e+00	123	29	0	1727004672	54	5887
2026-01-05 00:26:22.60	336.33	35.94	-38.0	-38.9	23.7	0.00e+00	122	29	0	1730150400	54	5916
2026-01-05 00:26:23.61	336.35	35.71	-38.3	-39.3	23.6	0.00e+00	120	29	0	1733296128	54	6149
2026-01-05 00:26:24.62	336.37	35.48	-38.3	-39.2	23.5	0.00e+00	122	29	0	1736441856	54	6121
2026-01-05 00:26:25.63	336.40	35.25	-38.4	-39.4	23.4	0.00e+00	120	29	0	1739587584	54	6251
2026-01-05 00:26:26.64	336.42	35.02	-38.5	-39.5	23.4	0.00e+00	123	29	0	1742733312	54	6286
2026-01-05 00:26:27.65	336.44	34.80	-38.6	-39.5	23.3	0.00e+00	123	29	0	1745879040	54	6346
2026-01-05 00:26:28.66	336.46	34.57	-38.6	-39.6	23.2	0.00e+00	122	29	0	1749024768	54	6392
2026-01-05 00:26:29.68	336.49	34.35	-38.6	-39.6	23.3	0.00e+00	120	29	0	1752170496	54	6367
2026-01-05 00:26:30.69	336.51	34.13	-38.5	-39.5	23.3	0.00e+00	122	29	0	1755316224	54	6299
2026-01-05 00:26:31.70	336.53	33.91	-38.7	-39.7	23.4	0.00e+00	120	29	0	1758461952	54	6460
2026-01-05 00:26:32.71	336.55	33.69	-38.6	-39.5	23.4	0.00e+00	122	29	0	1761607680	54	6341
2026-01-05 00:26:33.72	336.57	33.47	-38.0	-38.9	23.8	0.00e+00	121	29	0	1764753408	54	5894
2026-01-05 00:26:34.73	336.59	33.26	-37.7	-38.6	24.0	0.00e+00	123	29	0	1767899136	54	5687
2026-01-05 00:26:35.74	336.61	33.04	-37.5	-38.5	24.1	0.00e+00	120	29	0	1771044864	54	5598
2026-01-05 00:26:36.75	336.63	32.83	-37.6	-38.5	24.3	0.00e+00	123	29	0	1774190592	54	5616
2026-01-05 00:26:37.76	336.66	32.62	-37.4	-38.3	24.3	0.00e+00	120	29	0	1777336320	54	5501
2026-01-05 00:26:38.78	336.68	32.41	-37.5	-38.5	24.3	0.00e+00	122	29	0	1780482048	54	5600
2026-01-05 00:26:39.79	336.70	32.20	-37.4	-38.3	24.3	0.00e+00	123	29	0	1783627776	54	5527
2026-01-05 00:26:40.80	336.72	32.00	-37.6	-38.5	24.4	0.00e+00	123	29	0	1786773504	54	5650
2026-01-05 00:26:41.81	336.73	31.79	-37.5	-38.4	24.3	0.00e+00	123	29	0	1790967808	54	5552
2026-01-05 00:26:42.82	336.75	31.59	-37.8	-38.8	24.1	0.00e+00	122	29	0	1793064960	54	5796
2026-01-05 00:26:43.83	336.77	31.39	-37.6	-38.5	24.0	0.00e+00	120	29	0	1796210688	54	5643
2026-01-05 00:26:44.84	336.79	31.19	-37.2	-38.1	24.3	0.00e+00	122	29	0	1799356416	54	5368
2026-01-05 00:26:45.85	336.81	30.99	-37.7	-38.6	24.2	0.00e+00	123	29	0	1802502144	54	5673
2026-01-05 00:26:46.86	336.83	30.79	-37.6	-38.5	24.0	0.00e+00	122	29	0	1806696448	54	5633
2026-01-05 00:26:47.87	336.85	30.60	-37.6	-38.6	24.0	0.00e+00	123	29	0	1809842176	54	5683
2026-01-05 00:26:48.89	336.87	30.40	-37.8	-38.8	23.8	0.00e+00	123	29	0	1812987904	54	5824
2026-01-05 00:26:49.90	336.88	30.21	-37.8	-38.7	23.9	0.00e+00	121	29	0	1816133632	54	5787
2026-01-05 00:26:50.91	336.90	30.01	-37.7	-38.6	23.9	0.00e+00	122	29	0	1819279360	54	5698
2026-01-05 00:26:51.92	336.92	29.82	-38.0	-39.0	23.6	0.00e+00	123	29	0	1822425088	54	5961
2026-01-05 00:26:52.93	336.94	29.63	-37.8	-38.8	23.8	0.00e+00	123	29	0	1825570816	54	5815
2026-01-05 00:26:53.94	336.96	29.44	-37.8	-38.8	23.7	0.00e+00	120	29	0	1828716544	54	5808
2026-01-05 00:26:54.95	336.97	29.26	-37.6	-38.6	23.7	0.00e+00	122	29	0	1831862272	54	5688
2026-01-05 00:26:55.96	336.99	29.07	-37.7	-38.7	23.6	0.00e+00	123	29	0	1835008000	54	5756
2026-01-05 00:26:56.98	337.01	28.88	-37.7	-38.6	23.7	0.00e+00	123	29	0	1838153728	54	5718
2026-01-05 00:26:57.99	337.02	28.70	-37.8	-38.8	23.4	0.00e+00	122	29	0	1841299456	54	5850
2026-01-05 00:26:59.00	337.04	28.52	-37.7	-38.7	23.3	0.00e+00	122	29	0	1844445184	54	5781
2026-01-05 00:27:00.01	337.06	28.34	-37.8	-38.8	23.2	0.00e+00	122	29	0	1847590912	54	5840
2026-01-05 00:27:01.02	337.07	28.16	-37.9	-38.9	23.2	0.00e+00	123	29	0	1850736640	54	5903
2026-01-05 00:27:02.03	337.09	27.98	-37.8	-38.8	23.3	0.00e+00	123	29	0	1853882368	54	5840
2026-01-05 00:27:03.04	337.11	27.80	-37.7	-38.7	23.4	0.00e+00	122	29	0	1857028096	54	5750
2026-01-05 00:27:04.05	337.12	27.62	-37.6	-38.6	23.5	0.00e+00	123	29	0	1860173824	54	5708
2026-01-05 00:27:05.06	337.14	27.45	-37.4	-38.4	23.6	0.00e+00	123	29	0	1863319552	54	5564
2026-01-05 00:27:06.08	337.15	27.27	-37.4	-38.4	23.8	0.00e+00	123	29	0	1866465280	54	5533
2026-01-05 00:27:07.09	337.17	27.10	-37.2	-38.1	23.8	0.00e+00	123	29	0	1869611008	52	6043
2026-01-05 00:27:08.10	337.18	26.93	-37.2	-38.1	24.0	0.00e+00	122	29	0	1872756736	52	6044
2026-01-05 00:27:09.11	337.20	26.76	-37.2	-38.2	23.9	0.00e+00	120	29	0	1875902464	52	6092
2026-01-05 00:27:10.12	337.22	26.59	-37.0	-37.9	24.2	0.00e+00	123	29	0	1879048192	52	5903
2026-01-05 00:27:11.13	337.23	26.42	-36.9	-37.8	24.2	0.00e+00	120	29	0	1882193920	52	5855
2026-01-05 00:27:12.14	337.25	26.25	-37.0	-37.9	24.2	0.00e+00	123	29	0	1885339648	52	5903
2026-01-05 00:27:13.15	337.26	26.08	-36.6	-37.5	24.5	0.00e+00	122	29	0	1888485376	52	5636
2026-01-05 00:27:14.17	337.28	25.91	-36.6	-37.5	24.6	0.00e+00	123	29	0	1891631104	52	5651
2026-01-05 00:27:15.18	337.29	25.75	-36.6	-37.5	24.6	0.00e+00	121	29	0	1894776832	52	5638
2026-01-05 00:27:16.19	337.31	25.59	-36.3	-37.2	24.7	0.00e+00	123	29	0	1897922560	52	5463
2026-01-05 00:27:17.20	337.32	25.42	-36.4	-37.3	24.7	0.00e+00	122	29	0	1901068288	52	5513
2026-01-05 00:27:18.21	337.33	25.26	-36.5	-37.4	24.5	0.00e+00	122	29	0	1904214016	52	5557
2026-01-05 00:27:19.22	337.35	25.10	-36.8	-37.8	24.5	0.00e+00	120	29	0	1907359744	52	5801
2026-01-05 00:27:20.23	337.36	24.94	-36.4	-37.3	24.7	0.00e+00	122	29	0	1910505472	52	5488
2026-01-05 00:27:21.24	337.38	24.78	-36.4	-37.4	24.7	0.00e+00	122	29	0	1913651200	52	5534
2026-01-05 00:27:22.25	337.39	24.62	-36.7	-37.6	24.6	0.00e+00	123	29	0	1916796928	52	5707
2026-01-05 00:27:23.26	337.40	24.47	-36.5	-37.4	24.7	0.00e+00	120	29	0	1919942656	52	5564
2026-01-05 00:27:24.28	337.42	24.31	-36.5	-37.4	24.7	0.00e+00	123	29	0	1923088384	52	5566
2026-01-05 00:27:25.29	337.43	24.16	-36.7	-37.6	24.7	0.00e+00	121	29	0	1926234112	52	5675
2026-01-05 00:27:26.30	337.45	24.00	-36.5	-37.4	24.8	0.00e+00	123	29	0	1929379840	52	5535
2026-01-05 00:27:27.31	337.46	23.85	-36.5	-37.3	24.9	0.00e+00	120	29	0	1932525568	52	5530
2026-01-05 00:27:28.32	337.47	23.70	-36.5	-37.3	24.8	0.00e+00	123	29	0	1935671296	52	5518
2026-01-05 00:27:29.33	337.49	23.54	-36.4	-37.3	24.9	0.00e+00	123	29	0	1938817024	52	5504
2026-01-05 00:27:30.34	337.50	23.39	-36.5	-37.4	24.9	0.00e+00	123	29	0	1941962752	52	5542
2026-01-05 00:27:31.35	337.51	23.24	-36.5	-37.4	24.9	0.00e+00	120	29	0	1945108480	52	5556
2026-01-05 00:27:32.36	337.53	23.10	-36.5	-37.3	24.8	0.00e+00	122	29	0	1948254208	52	5519
2026-01-05 00:27:33.37	337.54	22.95	-36.6	-37.5	24.9	0.00e+00	120	29	0	1951399936	52	5605
2026-01-05 00:27:34.38	337.55	22.80	-36.4	-37.3	25.0	0.00e+00	122	29	0	1954545664	52	5485
2026-01-05 00:27:35.39	337.56	22.65	-36.5	-37.4	24.9	0.00e+00	123	29	0	1957691392	52	5574
