passes_logs/2026/01/05/R4.6S_Anadyr_2ch/R4.6S_Anadyr_2ch__20260105_021607_AQUA_rec.log

#Pass ID: 20260105_021607_AQUA
#Satellite: AQUA
#Configuration: AQUA
#almurnet v.1.7.20251203
#Start time: 2026-01-05 02:16:10

#Version: 2.2.20231116
#Station: R4.6S_Anadyr_2ch
#Location: 177.4865 lon 64.73178 lat
#TLE: 1 27424U 02022A   25351.00450321  .00000925  00000+0  19503-3 0  9992
#TLE: 2 27424  98.4041 311.9529 0001248 113.7180 322.1616 14.61819266256652

#Time	Az	El	Level	Level2	SNR	BER	BlckErr	Temp	State	Recorded	gain1	gain2
2026-01-05 02:16:10.29	165.35	0.15	-51.8	-63.6	3.5	8.45e-01	0	24	0	0	60	74136
2026-01-05 02:16:11.30	165.36	0.21	-52.2	-70.1	3.5	3.02e+01	0	25	104	0	60	165384
2026-01-05 02:16:12.31	165.38	0.27	-53.5	-71.3	3.4	3.02e+01	0	25	104	0	60	190329
2026-01-05 02:16:13.32	165.39	0.33	-51.8	-69.6	3.5	3.02e+01	0	25	104	0	60	155912
2026-01-05 02:16:14.34	165.41	0.40	-52.2	-70.0	3.5	3.02e+01	0	25	104	0	60	163715
2026-01-05 02:16:15.35	165.42	0.46	-52.8	-70.6	3.5	3.02e+01	0	25	104	0	60	175046
2026-01-05 02:16:16.36	165.43	0.52	-52.0	-69.8	3.5	3.02e+01	0	25	104	0	60	160214
2026-01-05 02:16:17.37	165.45	0.59	-54.0	-71.7	3.5	3.02e+01	0	25	104	0	60	200540
2026-01-05 02:16:18.38	165.46	0.65	-52.2	-70.0	3.5	3.02e+01	0	25	104	0	60	163463
2026-01-05 02:16:19.39	165.48	0.72	-52.8	-70.6	3.5	3.02e+01	0	25	104	0	60	176315
2026-01-05 02:16:20.40	165.50	0.78	-51.9	-69.7	3.5	3.02e+01	0	25	104	0	60	158864
2026-01-05 02:16:21.41	165.51	0.84	-52.5	-70.3	3.5	3.02e+01	0	25	104	0	60	169848
2026-01-05 02:16:22.42	165.53	0.91	-52.5	-70.3	3.5	3.02e+01	0	25	104	0	60	169738
2026-01-05 02:16:23.43	165.54	0.97	-52.9	-70.7	3.5	3.02e+01	0	25	104	0	60	178100
2026-01-05 02:16:24.44	165.56	1.04	-52.5	-70.3	3.5	3.02e+01	0	25	104	0	60	170336
2026-01-05 02:16:25.45	165.57	1.10	-51.9	-69.8	3.5	3.02e+01	0	25	104	0	60	160497
2026-01-05 02:16:26.46	165.59	1.17	-51.4	-69.3	3.5	3.02e+01	0	25	104	0	60	151104
2026-01-05 02:16:27.48	165.60	1.23	-51.6	-69.3	3.5	3.02e+01	0	26	104	0	60	152094
2026-01-05 02:16:28.49	165.62	1.30	-52.3	-70.1	3.5	3.02e+01	0	26	104	0	60	166456
2026-01-05 02:16:29.50	165.63	1.36	-51.9	-69.7	3.5	3.02e+01	0	26	104	0	60	159265
2026-01-05 02:16:30.51	165.65	1.43	-51.9	-69.8	3.5	3.02e+01	0	26	104	0	60	159996
2026-01-05 02:16:31.52	165.67	1.49	-52.0	-69.7	3.5	3.02e+01	0	26	104	0	60	159339
2026-01-05 02:16:32.53	165.68	1.56	-52.0	-69.8	3.5	3.02e+01	0	26	104	0	60	160405
2026-01-05 02:16:33.54	165.70	1.62	-52.3	-70.1	3.5	3.02e+01	0	26	104	0	60	166400
2026-01-05 02:16:34.55	165.71	1.69	-52.3	-70.1	3.5	3.02e+01	0	26	104	0	60	165160
2026-01-05 02:16:35.56	165.73	1.76	-52.1	-69.8	3.5	3.02e+01	0	26	104	0	60	160477
2026-01-05 02:16:36.57	165.75	1.82	-52.5	-70.3	3.5	3.02e+01	0	26	104	0	60	170245
2026-01-05 02:16:37.59	165.76	1.89	-52.4	-70.1	3.5	3.02e+01	0	26	104	0	60	165920
2026-01-05 02:16:38.60	165.78	1.96	-52.6	-70.4	3.5	3.02e+01	0	26	104	0	60	172250
2026-01-05 02:16:39.61	165.79	2.02	-52.3	-70.1	3.5	3.02e+01	0	26	104	0	60	166681
2026-01-05 02:16:40.62	165.81	2.09	-53.4	-71.1	3.5	3.02e+01	0	26	104	0	60	187188
2026-01-05 02:16:41.63	165.83	2.16	-52.9	-70.7	3.5	3.02e+01	0	26	104	0	60	177203
2026-01-05 02:16:42.64	165.84	2.23	-52.7	-70.6	3.5	3.02e+01	0	26	104	0	60	175267
2026-01-05 02:16:43.65	165.86	2.29	-53.5	-71.3	3.5	3.02e+01	0	26	104	0	60	191585
2026-01-05 02:16:44.66	165.88	2.36	-51.8	-69.5	3.5	3.02e+01	0	26	104	0	60	155272
2026-01-05 02:16:45.67	165.89	2.43	-52.9	-70.7	3.5	3.02e+01	0	26	104	0	60	177668
2026-01-05 02:16:46.68	165.91	2.50	-52.3	-70.1	3.5	3.02e+01	0	26	104	0	60	165701
2026-01-05 02:16:47.69	165.93	2.57	-51.6	-69.4	3.5	3.02e+01	0	26	104	0	60	153256
2026-01-05 02:16:48.70	165.94	2.63	-51.7	-69.5	3.5	3.02e+01	0	26	104	0	60	155041
2026-01-05 02:16:49.71	165.96	2.70	-52.2	-70.0	3.5	3.02e+01	0	26	104	0	60	163520
2026-01-05 02:16:50.72	165.98	2.77	-53.1	-70.9	3.5	3.02e+01	0	26	104	0	60	181582
2026-01-05 02:16:51.73	165.99	2.84	-52.1	-69.9	3.5	3.02e+01	0	26	104	0	60	162272
2026-01-05 02:16:52.75	166.01	2.91	-52.5	-70.2	3.5	3.02e+01	0	26	104	0	60	168843
2026-01-05 02:16:53.76	166.03	2.98	-52.5	-70.3	3.5	3.02e+01	0	26	104	0	60	169241
2026-01-05 02:16:54.77	166.05	3.05	-53.0	-70.7	3.5	3.02e+01	0	26	104	0	60	178454
2026-01-05 02:16:55.78	166.06	3.12	-53.3	-71.1	3.5	3.02e+01	0	26	104	0	60	186647
2026-01-05 02:16:56.79	166.08	3.19	-53.2	-71.0	3.5	3.02e+01	0	26	104	0	60	184524
2026-01-05 02:16:57.80	166.10	3.26	-52.5	-70.4	3.5	3.02e+01	0	26	104	0	60	171778
2026-01-05 02:16:58.81	166.12	3.33	-52.4	-70.2	3.5	3.02e+01	0	26	104	0	60	168510
2026-01-05 02:16:59.82	166.13	3.40	-51.9	-69.7	3.6	3.02e+01	0	26	104	0	60	159339
2026-01-05 02:17:00.84	166.15	3.47	-51.8	-69.6	3.5	3.02e+01	0	26	104	0	60	157422
2026-01-05 02:17:01.85	166.17	3.54	-51.8	-69.5	3.5	3.02e+01	0	26	104	0	60	155118
2026-01-05 02:17:02.86	166.19	3.61	-51.8	-69.7	3.5	3.02e+01	0	26	104	0	60	157862
2026-01-05 02:17:03.87	166.21	3.69	-51.7	-69.4	3.5	3.02e+01	0	26	104	0	60	153361
2026-01-05 02:17:04.88	166.22	3.76	-51.6	-69.5	3.5	3.02e+01	0	26	104	0	60	154472
2026-01-05 02:17:05.89	166.24	3.83	-51.6	-69.4	3.5	3.02e+01	0	26	104	0	60	152463
2026-01-05 02:17:06.90	166.26	3.90	-51.6	-69.5	3.5	3.02e+01	0	26	104	0	60	154802
2026-01-05 02:17:07.91	166.28	3.97	-51.4	-69.3	3.5	3.02e+01	0	26	104	0	60	151447
2026-01-05 02:17:08.92	166.30	4.05	-51.7	-69.5	3.5	3.02e+01	0	26	104	0	60	154155
2026-01-05 02:17:09.93	166.32	4.12	-51.3	-69.0	3.5	3.02e+01	0	26	104	0	60	146988
2026-01-05 02:17:10.95	166.33	4.19	-49.7	-67.6	3.5	3.02e+01	0	26	104	0	60	124936
2026-01-05 02:17:11.96	166.35	4.27	-51.0	-68.8	3.5	3.02e+01	0	26	104	0	60	142950
2026-01-05 02:17:12.97	166.37	4.34	-50.8	-68.5	3.5	3.02e+01	0	26	104	0	60	138838
2026-01-05 02:17:13.98	166.39	4.41	-50.4	-68.0	3.5	3.02e+01	0	26	104	0	60	130420
2026-01-05 02:17:14.99	166.41	4.49	-50.4	-68.2	3.5	3.02e+01	0	26	104	0	60	133002
2026-01-05 02:17:16.00	166.43	4.56	-50.3	-68.0	3.5	3.02e+01	0	26	104	0	60	131051
2026-01-05 02:17:17.01	166.45	4.64	-50.3	-68.0	3.5	3.02e+01	0	26	104	0	60	130813
2026-01-05 02:17:18.02	166.47	4.71	-50.2	-67.8	3.5	3.02e+01	0	26	104	0	60	127643
2026-01-05 02:17:19.03	166.49	4.78	-50.2	-67.8	3.5	3.02e+01	0	26	104	0	60	126841
2026-01-05 02:17:20.04	166.51	4.86	-50.4	-67.8	3.5	3.02e+01	0	26	104	0	60	126927
2026-01-05 02:17:21.05	166.53	4.93	-50.4	-67.5	3.5	3.02e+01	0	26	104	0	60	122477
2026-01-05 02:17:22.07	166.54	5.01	-50.7	-67.4	3.5	3.02e+01	0	26	104	0	60	122018
2026-01-05 02:17:23.08	166.56	5.09	-50.6	-67.4	3.5	3.02e+01	0	26	104	0	60	121133
2026-01-05 02:17:24.09	166.58	5.16	-50.7	-67.5	3.5	3.02e+01	0	26	104	0	60	123273
2026-01-05 02:17:25.10	166.60	5.24	-50.6	-67.6	3.5	3.02e+01	0	26	104	0	60	124036
2026-01-05 02:17:26.11	166.62	5.32	-50.2	-67.2	3.5	3.02e+01	0	26	104	0	60	119267
2026-01-05 02:17:27.12	166.64	5.39	-50.1	-67.2	3.5	3.02e+01	0	26	104	0	60	119103
2026-01-05 02:17:28.13	166.66	5.47	-50.3	-67.7	3.5	3.02e+01	0	26	104	0	60	125974
2026-01-05 02:17:29.14	166.68	5.55	-50.2	-67.7	3.5	3.02e+01	0	26	104	0	60	126679
2026-01-05 02:17:30.15	166.70	5.62	-50.1	-67.8	3.5	3.02e+01	0	26	104	0	60	127773
2026-01-05 02:17:31.16	166.73	5.70	-50.1	-67.8	3.5	3.02e+01	0	26	104	0	60	126795
2026-01-05 02:17:32.17	166.75	5.78	-50.2	-67.7	3.5	3.02e+01	0	26	104	0	60	125693
2026-01-05 02:17:33.18	166.77	5.86	-50.2	-67.7	3.5	3.02e+01	0	26	104	0	60	125653
2026-01-05 02:17:34.20	166.79	5.94	-50.2	-67.3	3.5	3.02e+01	0	26	104	0	60	120607
2026-01-05 02:17:35.21	166.81	6.02	-50.2	-67.0	3.5	3.02e+01	0	26	104	0	60	116413
2026-01-05 02:17:36.22	166.83	6.09	-50.2	-66.1	3.7	3.02e+01	0	26	104	0	60	105315
2026-01-05 02:17:37.23	166.85	6.17	-50.1	-65.7	3.8	3.02e+01	0	26	104	0	60	99602
2026-01-05 02:17:38.24	166.87	6.25	-50.1	-64.4	3.6	3.02e+01	0	26	104	0	60	86114
2026-01-05 02:17:39.25	166.89	6.33	-50.0	-64.4	4.3	3.02e+01	0	26	104	0	60	86267
2026-01-05 02:17:40.26	166.91	6.41	-50.1	-63.9	4.6	3.02e+01	0	26	104	0	60	81063
2026-01-05 02:17:41.27	166.94	6.49	-50.1	-64.2	4.3	3.02e+01	0	26	104	0	60	84374
2026-01-05 02:17:42.28	166.96	6.57	-50.3	-65.7	3.8	3.02e+01	0	26	104	0	60	100029
2026-01-05 02:17:43.30	166.98	6.66	-50.1	-64.8	3.6	3.02e+01	0	26	104	0	60	90245
2026-01-05 02:17:44.31	167.00	6.74	-50.0	-62.1	5.6	3.02e+01	0	26	0	0	60	65853
2026-01-05 02:17:45.32	167.02	6.82	-49.3	-57.0	9.8	3.02e+01	90	26	0	1572864	60	36907
2026-01-05 02:17:46.33	167.04	6.90	-48.1	-53.0	14.1	3.02e+01	92	26	0	3670016	60	23309
2026-01-05 02:17:47.34	167.07	6.98	-47.1	-50.9	16.7	3.02e+01	90	26	0	5242880	60	18266
2026-01-05 02:17:48.35	167.09	7.06	-45.1	-47.8	19.6	3.02e+01	92	26	0	7340032	60	12704
2026-01-05 02:17:49.36	167.11	7.15	-43.8	-46.0	21.4	3.02e+01	92	26	0	9437184	60	10320
2026-01-05 02:17:50.37	167.13	7.23	-41.8	-43.5	23.8	3.02e+01	88	26	0	11010048	60	7782
2026-01-05 02:17:51.38	167.16	7.31	-42.0	-43.7	23.9	3.02e+01	92	26	0	13107200	60	7925
2026-01-05 02:17:52.39	167.18	7.40	-41.2	-42.8	24.5	3.02e+01	91	26	0	14680064	60	7170
2026-01-05 02:17:53.40	167.20	7.48	-40.8	-42.3	25.1	3.02e+01	92	26	0	16777216	60	6763
2026-01-05 02:17:54.41	167.22	7.56	-41.5	-43.1	24.5	3.02e+01	89	26	0	18874368	60	7453
2026-01-05 02:17:55.42	167.25	7.65	-42.3	-44.0	23.4	3.02e+01	91	26	0	20447232	60	8261
2026-01-05 02:17:56.44	167.27	7.73	-44.0	-46.0	21.8	3.02e+01	92	26	0	22544384	60	10382
2026-01-05 02:17:57.45	167.29	7.82	-46.8	-49.9	18.1	3.02e+01	91	26	0	24117248	60	16224
2026-01-05 02:17:58.46	167.32	7.90	-41.7	-43.2	24.5	3.02e+01	90	26	0	26214400	60	7504
2026-01-05 02:17:59.47	167.34	7.99	-50.2	-59.2	12.8	3.02e+01	91	26	104	27262976	60	47379
2026-01-05 02:18:00.48	167.36	8.08	-41.9	-43.6	24.6	3.02e+01	92	26	0	27787264	60	7833
2026-01-05 02:18:01.49	167.39	8.16	-47.9	-51.8	17.8	3.02e+01	92	26	0	29884416	60	20126
2026-01-05 02:18:02.50	167.41	8.25	-43.0	-44.9	22.8	3.02e+01	91	26	0	31457280	60	9107
2026-01-05 02:18:03.51	167.44	8.34	-43.7	-45.8	21.7	3.02e+01	92	26	0	33554432	60	10097
2026-01-05 02:18:04.52	167.46	8.42	-42.5	-44.3	23.4	3.02e+01	92	26	0	35651584	60	8475
2026-01-05 02:18:05.53	167.49	8.51	-42.2	-43.9	23.7	3.02e+01	92	26	0	37224448	60	8094
2026-01-05 02:18:06.55	167.51	8.60	-42.5	-44.3	23.9	3.02e+01	90	26	0	39321600	60	8497
2026-01-05 02:18:07.56	167.53	8.69	-42.5	-44.3	23.9	3.02e+01	92	26	0	40894464	60	8503
2026-01-05 02:18:08.57	167.56	8.78	-42.0	-43.7	24.2	3.02e+01	92	26	0	42991616	60	7935
2026-01-05 02:18:09.58	167.58	8.87	-41.2	-42.8	24.9	3.02e+01	85	26	0	45088768	60	7164
2026-01-05 02:18:10.59	167.61	8.96	-40.7	-42.2	25.3	3.02e+01	89	26	0	46661632	60	6718
2026-01-05 02:18:11.60	167.63	9.05	-41.1	-42.7	24.9	3.02e+01	92	26	0	48758784	60	7082
2026-01-05 02:18:12.61	167.66	9.14	-40.9	-42.4	25.7	3.02e+01	92	26	0	50331648	60	6862
2026-01-05 02:18:13.62	167.69	9.23	-40.4	-41.8	25.9	3.02e+01	91	26	0	52428800	60	6423
2026-01-05 02:18:14.64	167.71	9.32	-40.5	-42.0	26.0	3.02e+01	92	26	0	54525952	60	6531
2026-01-05 02:18:15.64	167.74	9.41	-40.3	-41.8	25.7	3.02e+01	92	26	0	56098816	60	6384
2026-01-05 02:18:16.66	167.76	9.50	-40.8	-42.4	25.5	3.02e+01	92	26	0	58195968	60	6824
2026-01-05 02:18:17.67	167.79	9.59	-40.2	-41.7	25.8	3.02e+01	92	26	0	60293120	60	6307
2026-01-05 02:18:18.68	167.82	9.68	-40.1	-41.5	25.9	3.02e+01	92	26	0	61865984	60	6190
2026-01-05 02:18:19.69	167.84	9.78	-39.9	-41.3	26.5	3.02e+01	92	26	0	63963136	60	6004
2026-01-05 02:18:20.70	167.87	9.87	-40.0	-41.4	26.0	3.02e+01	92	26	0	65536000	60	6117
2026-01-05 02:18:21.71	167.90	9.96	-40.0	-41.5	25.9	3.02e+01	92	26	0	67633152	60	6157
2026-01-05 02:18:22.72	167.92	10.06	-40.4	-41.8	25.9	3.02e+01	90	26	0	69730304	60	6413
2026-01-05 02:18:23.73	167.95	10.15	-40.2	-41.7	26.1	3.02e+01	92	26	0	71303168	60	6310
2026-01-05 02:18:24.75	167.98	10.25	-39.4	-40.8	26.5	3.02e+01	90	26	0	73400320	60	5708
2026-01-05 02:18:25.76	168.00	10.34	-39.4	-40.8	26.8	3.02e+01	92	26	0	74973184	60	5699
2026-01-05 02:18:26.77	168.03	10.44	-39.8	-41.2	26.6	3.02e+01	90	26	0	77070336	60	5984
2026-01-05 02:18:27.78	168.06	10.53	-39.2	-40.5	26.9	3.02e+01	92	26	0	79167488	58	6171
2026-01-05 02:18:28.79	168.09	10.63	-39.0	-40.3	27.2	3.02e+01	84	26	0	80740352	58	6016
2026-01-05 02:18:29.80	168.12	10.73	-38.8	-40.1	27.4	3.02e+01	92	26	0	82837504	58	5880
2026-01-05 02:18:30.81	168.14	10.82	-38.5	-39.8	27.7	3.02e+01	92	26	0	84934656	58	5707
2026-01-05 02:18:31.82	168.17	10.92	-38.9	-40.2	27.3	3.02e+01	92	26	0	86507520	58	5988
2026-01-05 02:18:32.83	168.20	11.02	-38.6	-39.9	27.5	3.02e+01	92	26	0	88604672	58	5789
2026-01-05 02:18:33.85	168.23	11.12	-38.3	-39.6	27.9	3.02e+01	92	26	0	90177536	56	6253
2026-01-05 02:18:34.86	168.26	11.22	-38.5	-39.8	27.7	3.02e+01	92	26	0	92274688	56	6397
2026-01-05 02:18:35.87	168.29	11.32	-38.4	-39.7	27.8	3.02e+01	92	26	0	94371840	56	6284
2026-01-05 02:18:36.88	168.32	11.42	-38.4	-39.7	27.8	3.02e+01	91	26	0	95944704	56	6335
2026-01-05 02:18:37.89	168.35	11.52	-38.4	-39.7	27.7	3.02e+01	91	26	0	98041856	56	6306
2026-01-05 02:18:38.90	168.38	11.62	-38.2	-39.5	27.5	3.02e+01	91	26	0	99614720	56	6177
2026-01-05 02:18:39.91	168.41	11.72	-38.5	-39.8	27.8	3.02e+01	92	26	0	101711872	56	6401
2026-01-05 02:18:40.92	168.44	11.82	-38.3	-39.5	28.1	3.02e+01	91	26	0	103809024	56	6193
2026-01-05 02:18:41.93	168.47	11.92	-38.5	-39.8	27.8	3.02e+01	91	26	0	105381888	56	6355
2026-01-05 02:18:42.95	168.50	12.03	-38.4	-39.6	28.0	3.02e+01	90	26	0	107479040	56	6272
2026-01-05 02:18:43.96	168.53	12.13	-38.4	-39.7	28.0	3.02e+01	90	26	0	109051904	56	6322
2026-01-05 02:18:44.97	168.56	12.23	-38.7	-40.0	27.9	3.02e+01	89	27	0	111149056	56	6499
2026-01-05 02:18:45.98	168.59	12.34	-38.2	-39.5	28.2	3.02e+01	92	26	0	113246208	56	6142
2026-01-05 02:18:46.99	168.62	12.44	-38.3	-39.6	28.3	3.02e+01	91	27	0	114819072	56	6210
2026-01-05 02:18:48.00	168.65	12.55	-38.2	-39.5	28.2	3.02e+01	88	26	0	116916224	56	6139
2026-01-05 02:18:49.01	168.69	12.65	-38.4	-39.6	28.2	3.02e+01	92	26	0	119013376	56	6262
2026-01-05 02:18:50.02	168.72	12.76	-38.6	-39.9	28.0	3.02e+01	92	27	0	120586240	56	6478
2026-01-05 02:18:51.03	168.75	12.86	-38.6	-39.9	28.2	3.02e+01	91	26	0	122683392	56	6475
2026-01-05 02:18:52.04	168.78	12.97	-38.3	-39.6	28.1	3.02e+01	91	26	0	124256256	56	6228
2026-01-05 02:18:53.05	168.82	13.08	-38.3	-39.6	28.1	3.02e+01	92	26	0	126353408	56	6244
2026-01-05 02:18:54.07	168.85	13.19	-38.7	-39.9	28.2	3.02e+01	88	26	0	128450560	56	6494
2026-01-05 02:18:55.08	168.88	13.30	-38.6	-39.9	27.9	3.02e+01	92	26	0	130023424	56	6471
2026-01-05 02:18:56.09	168.92	13.41	-38.8	-40.1	28.1	3.02e+01	90	27	0	132120576	56	6621
2026-01-05 02:18:57.10	168.95	13.51	-39.0	-40.2	28.1	3.02e+01	92	26	0	133693440	58	5971
2026-01-05 02:18:58.11	168.98	13.62	-38.9	-40.2	28.2	3.02e+01	90	26	0	135790592	58	5941
2026-01-05 02:18:59.12	169.02	13.74	-38.7	-40.0	28.2	3.02e+01	92	26	0	137887744	58	5824
2026-01-05 02:19:00.13	169.05	13.85	-39.5	-40.7	28.2	3.02e+01	90	26	0	139460608	58	6324
2026-01-05 02:19:01.14	169.09	13.96	-39.0	-40.3	27.7	3.02e+01	92	26	0	141557760	58	6038
2026-01-05 02:19:02.15	169.12	14.07	-38.9	-40.2	28.0	3.02e+01	92	27	0	143654912	58	5940
2026-01-05 02:19:03.17	169.16	14.19	-39.0	-40.2	27.9	3.02e+01	92	27	0	145227776	58	5979
2026-01-05 02:19:04.18	169.19	14.30	-38.9	-40.2	27.9	3.02e+01	92	27	0	147324928	58	5935
2026-01-05 02:19:05.19	169.23	14.41	-39.8	-41.1	27.6	3.02e+01	92	27	0	148897792	58	6605
2026-01-05 02:19:06.20	169.26	14.53	-39.0	-40.3	28.1	3.02e+01	92	26	0	150994944	58	6039
2026-01-05 02:19:07.21	169.30	14.64	-38.8	-40.1	28.1	3.02e+01	92	27	0	153092096	58	5880
2026-01-05 02:19:08.22	169.34	14.76	-38.8	-40.1	28.2	3.02e+01	92	26	0	154664960	58	5870
2026-01-05 02:19:09.23	169.37	14.88	-38.2	-39.4	28.5	3.02e+01	92	27	0	156762112	56	6132
2026-01-05 02:19:10.24	169.41	14.99	-38.9	-40.2	28.3	3.02e+01	92	27	0	158334976	56	6661
2026-01-05 02:19:11.25	169.45	15.11	-38.1	-39.3	28.5	3.02e+01	92	27	0	160432128	56	6026
2026-01-05 02:19:12.26	169.49	15.23	-37.9	-39.2	28.6	3.02e+01	92	27	0	162529280	56	5959
2026-01-05 02:19:13.27	169.52	15.35	-38.0	-39.2	28.5	3.02e+01	92	27	0	164102144	56	5977
2026-01-05 02:19:14.29	169.56	15.47	-37.9	-39.2	28.5	3.02e+01	90	27	0	166199296	56	5954
2026-01-05 02:19:15.30	169.60	15.59	-37.7	-38.9	28.7	3.02e+01	92	27	0	168296448	56	5767
2026-01-05 02:19:16.31	169.64	15.71	-37.7	-38.9	28.8	3.02e+01	92	27	0	169869312	56	5787
2026-01-05 02:19:17.32	169.68	15.83	-37.7	-39.0	28.8	3.02e+01	92	27	0	171966464	56	5810
2026-01-05 02:19:18.33	169.72	15.95	-37.5	-38.8	28.8	3.02e+01	90	27	0	173539328	56	5676
2026-01-05 02:19:19.34	169.76	16.08	-37.5	-38.7	28.8	3.02e+01	92	27	0	175636480	56	5656
2026-01-05 02:19:20.35	169.80	16.20	-37.8	-39.1	28.5	3.02e+01	92	27	0	177733632	56	5890
2026-01-05 02:19:21.36	169.84	16.32	-37.6	-38.8	28.8	3.02e+01	92	27	0	179306496	56	5718
2026-01-05 02:19:22.37	169.88	16.45	-37.6	-38.9	29.0	3.02e+01	90	27	0	181403648	56	5738
2026-01-05 02:19:23.38	169.92	16.57	-37.7	-38.9	28.9	3.02e+01	89	27	0	183500800	56	5780
2026-01-05 02:19:24.40	169.96	16.70	-37.5	-38.7	29.0	3.02e+01	90	27	0	185073664	56	5615
2026-01-05 02:19:25.41	170.00	16.83	-37.5	-38.8	28.9	3.02e+01	91	27	0	187170816	54	6352
2026-01-05 02:19:26.42	170.04	16.96	-37.9	-39.1	28.8	3.02e+01	88	27	0	188743680	54	6646
2026-01-05 02:19:27.43	170.09	17.09	-37.7	-38.9	29.0	3.02e+01	92	27	0	190840832	54	6480
2026-01-05 02:19:28.44	170.13	17.22	-37.6	-38.8	29.1	3.02e+01	92	27	0	192937984	54	6367
2026-01-05 02:19:29.45	170.17	17.35	-37.5	-38.7	29.1	3.02e+01	92	27	0	194510848	54	6296
2026-01-05 02:19:30.46	170.22	17.48	-37.2	-38.4	29.3	3.02e+01	89	27	0	196608000	54	6098
2026-01-05 02:19:31.47	170.26	17.61	-37.1	-38.3	29.3	3.02e+01	91	27	0	198180864	54	6051
2026-01-05 02:19:32.49	170.30	17.74	-37.2	-38.4	29.2	3.02e+01	89	27	0	200278016	54	6105
2026-01-05 02:19:33.49	170.35	17.87	-37.1	-38.3	29.2	3.02e+01	92	27	0	202375168	54	6054
2026-01-05 02:19:34.51	170.39	18.01	-37.1	-38.3	29.2	3.02e+01	90	27	0	203948032	54	6060
2026-01-05 02:19:35.52	170.44	18.14	-37.1	-38.3	29.2	3.02e+01	92	26	0	206045184	54	6045
2026-01-05 02:19:36.53	170.48	18.28	-37.1	-38.4	29.2	3.02e+01	90	27	0	208142336	54	6068
2026-01-05 02:19:37.54	170.53	18.41	-37.3	-38.5	29.2	3.02e+01	92	27	0	209715200	54	6150
2026-01-05 02:19:38.55	170.58	18.55	-37.5	-38.7	29.2	3.02e+01	90	27	0	211812352	54	6284
2026-01-05 02:19:39.56	170.62	18.69	-37.4	-38.6	29.1	3.02e+01	92	27	0	213385216	54	6269
2026-01-05 02:19:40.57	170.67	18.83	-37.3	-38.5	29.2	3.02e+01	90	27	0	215482368	54	6183
2026-01-05 02:19:41.58	170.72	18.97	-37.3	-38.5	29.2	3.02e+01	92	27	0	217579520	54	6152
2026-01-05 02:19:42.60	170.77	19.11	-37.2	-38.4	29.2	3.02e+01	91	27	0	219152384	54	6100
2026-01-05 02:19:43.61	170.82	19.25	-37.2	-38.4	29.2	3.02e+01	92	27	0	221249536	54	6074
2026-01-05 02:19:44.62	170.87	19.39	-37.2	-38.4	29.3	3.02e+01	89	27	0	223346688	54	6071
2026-01-05 02:19:45.63	170.91	19.54	-37.2	-38.4	29.3	3.02e+01	87	27	0	224919552	54	6078
2026-01-05 02:19:46.64	170.96	19.68	-37.0	-38.2	29.3	3.02e+01	92	27	0	227016704	54	5977
2026-01-05 02:19:47.65	171.02	19.83	-37.0	-38.2	29.3	3.02e+01	92	27	0	228589568	54	5979
2026-01-05 02:19:48.66	171.07	19.97	-37.2	-38.5	29.1	3.02e+01	92	26	0	230686720	54	6135
2026-01-05 02:19:49.67	171.12	20.12	-36.9	-38.1	29.3	3.02e+01	92	27	0	232783872	54	5915
2026-01-05 02:19:50.68	171.17	20.27	-37.0	-38.2	29.5	3.02e+01	92	27	0	234356736	54	5965
2026-01-05 02:19:51.70	171.22	20.42	-36.8	-37.9	29.6	3.02e+01	92	27	0	236453888	54	5791
2026-01-05 02:19:52.71	171.28	20.56	-36.8	-37.9	29.5	3.02e+01	92	27	0	238026752	54	5790
2026-01-05 02:19:53.72	171.33	20.72	-36.7	-37.9	29.7	3.02e+01	92	27	0	240123904	54	5735
2026-01-05 02:19:54.73	171.38	20.87	-36.8	-38.0	29.6	3.02e+01	92	27	0	242221056	54	5793
2026-01-05 02:19:55.74	171.44	21.02	-36.7	-37.9	29.6	3.02e+01	92	27	0	243793920	54	5726
2026-01-05 02:19:56.75	171.49	21.17	-36.7	-37.9	29.6	3.02e+01	92	27	0	245891072	54	5746
2026-01-05 02:19:57.76	171.55	21.33	-36.7	-37.9	29.6	3.02e+01	92	26	0	247988224	54	5782
2026-01-05 02:19:58.77	171.60	21.48	-36.8	-38.0	29.6	3.02e+01	92	27	0	249561088	54	5808
2026-01-05 02:19:59.78	171.66	21.64	-36.8	-38.0	29.6	3.02e+01	92	27	0	251658240	54	5796
2026-01-05 02:20:00.79	171.72	21.80	-36.8	-38.0	29.5	3.02e+01	91	27	0	253231104	54	5845
2026-01-05 02:20:01.81	171.78	21.96	-36.9	-38.1	29.4	3.02e+01	92	27	0	255328256	54	5906
2026-01-05 02:20:02.82	171.83	22.12	-37.0	-38.2	29.4	3.02e+01	91	27	0	257425408	54	5933
2026-01-05 02:20:03.83	171.89	22.28	-36.9	-38.1	29.6	3.02e+01	92	27	0	258998272	54	5859
2026-01-05 02:20:04.84	171.95	22.44	-36.9	-38.1	29.5	3.02e+01	92	27	0	261095424	54	5886
2026-01-05 02:20:05.85	172.01	22.60	-37.0	-38.2	29.5	3.02e+01	91	27	0	262668288	54	5945
2026-01-05 02:20:06.86	172.07	22.77	-36.9	-38.1	29.5	3.02e+01	91	27	0	264765440	54	5914
2026-01-05 02:20:07.87	172.13	22.93	-37.2	-38.4	29.3	3.02e+01	92	27	0	266862592	54	6073
2026-01-05 02:20:08.89	172.20	23.10	-36.8	-38.0	29.6	3.02e+01	91	27	0	268435456	54	5844
2026-01-05 02:20:09.90	172.26	23.27	-37.0	-38.2	29.5	3.02e+01	92	27	0	270532608	54	5936
2026-01-05 02:20:10.91	172.32	23.43	-36.8	-38.0	29.7	3.02e+01	91	27	0	272629760	54	5792
2026-01-05 02:20:11.92	172.39	23.60	-36.8	-38.0	29.6	3.02e+01	91	27	0	274202624	54	5829
2026-01-05 02:20:12.93	172.45	23.77	-36.7	-37.9	29.7	3.02e+01	92	27	0	276299776	54	5765
2026-01-05 02:20:13.94	172.52	23.95	-37.0	-38.2	29.5	3.02e+01	91	27	0	277872640	54	5948
2026-01-05 02:20:14.95	172.58	24.12	-36.9	-38.1	29.6	3.02e+01	90	27	0	279969792	54	5862
2026-01-05 02:20:15.96	172.65	24.29	-36.8	-38.0	29.6	3.02e+01	90	27	0	282066944	54	5809
2026-01-05 02:20:16.97	172.72	24.47	-36.9	-38.1	29.6	3.02e+01	91	27	0	283639808	54	5864
2026-01-05 02:20:17.99	172.79	24.65	-37.3	-38.5	29.4	3.02e+01	89	27	0	285736960	54	6175
2026-01-05 02:20:19.00	172.85	24.83	-37.1	-38.3	29.6	3.02e+01	91	27	0	287309824	54	6023
2026-01-05 02:20:20.01	172.92	25.01	-37.3	-38.5	29.4	3.02e+01	91	27	0	289406976	54	6139
2026-01-05 02:20:21.02	173.00	25.19	-37.0	-38.1	29.6	3.02e+01	92	27	0	291504128	54	5925
2026-01-05 02:20:22.03	173.07	25.37	-36.9	-38.1	29.7	3.02e+01	91	27	0	293076992	54	5871
2026-01-05 02:20:23.04	173.14	25.55	-36.9	-38.1	29.6	3.02e+01	92	27	0	295174144	54	5921
2026-01-05 02:20:24.05	173.21	25.74	-37.0	-38.2	29.7	3.02e+01	90	27	0	296747008	54	5950
2026-01-05 02:20:25.06	173.29	25.92	-36.9	-38.0	29.7	3.02e+01	91	27	0	298844160	54	5858
2026-01-05 02:20:26.07	173.36	26.11	-36.9	-38.1	29.7	3.02e+01	89	27	0	300941312	54	5876
2026-01-05 02:20:27.09	173.44	26.30	-36.8	-38.0	29.7	3.02e+01	92	27	0	302514176	54	5806
2026-01-05 02:20:28.10	173.51	26.49	-36.9	-38.0	29.8	3.02e+01	92	27	0	304611328	54	5834
2026-01-05 02:20:29.11	173.59	26.68	-37.0	-38.1	29.7	3.02e+01	91	27	0	306708480	54	5925
2026-01-05 02:20:30.12	173.67	26.88	-36.9	-38.1	29.6	3.02e+01	90	27	0	308281344	54	5886
2026-01-05 02:20:31.13	173.75	27.07	-36.9	-38.1	29.6	3.02e+01	92	27	0	310378496	54	5883
2026-01-05 02:20:32.14	173.83	27.27	-36.8	-37.9	29.6	3.02e+01	90	27	0	311951360	54	5787
2026-01-05 02:20:33.15	173.91	27.46	-36.8	-38.0	29.7	3.02e+01	92	27	0	314048512	54	5806
2026-01-05 02:20:34.16	173.99	27.66	-36.9	-38.1	29.6	3.02e+01	92	27	0	316145664	54	5920
2026-01-05 02:20:35.17	174.08	27.86	-37.0	-38.2	29.3	3.02e+01	92	27	0	317718528	54	5965
2026-01-05 02:20:36.18	174.16	28.07	-36.9	-38.1	29.6	3.02e+01	90	27	0	319815680	54	5905
2026-01-05 02:20:37.20	174.25	28.27	-36.9	-38.1	29.6	3.02e+01	92	27	0	321388544	54	5891
2026-01-05 02:20:38.21	174.33	28.48	-37.0	-38.2	29.5	3.02e+01	92	27	0	323485696	54	5960
2026-01-05 02:20:39.22	174.42	28.68	-36.9	-38.1	29.8	3.02e+01	92	27	0	325582848	54	5861
2026-01-05 02:20:40.23	174.51	28.89	-37.0	-38.2	29.7	3.02e+01	90	27	0	327155712	54	5937
2026-01-05 02:20:41.24	174.60	29.10	-36.8	-38.0	29.7	3.02e+01	92	27	0	329252864	54	5820
2026-01-05 02:20:42.25	174.69	29.31	-36.9	-38.1	29.5	3.02e+01	92	27	0	331350016	54	5888
2026-01-05 02:20:43.26	174.78	29.53	-37.0	-38.1	29.5	3.02e+01	92	27	0	332922880	54	5922
2026-01-05 02:20:44.27	174.88	29.74	-37.0	-38.2	29.6	3.02e+01	90	27	0	335020032	54	5941
2026-01-05 02:20:45.28	174.97	29.96	-36.9	-38.1	29.7	3.02e+01	92	27	0	336592896	54	5872
2026-01-05 02:20:46.30	175.07	30.18	-37.1	-38.3	29.5	3.02e+01	92	27	0	338690048	54	6017
2026-01-05 02:20:47.31	175.17	30.40	-37.2	-38.4	29.4	3.02e+01	92	27	0	340787200	54	6090
2026-01-05 02:20:48.32	175.26	30.62	-37.0	-38.1	29.6	3.02e+01	90	27	0	342360064	54	5921
2026-01-05 02:20:49.33	175.36	30.84	-37.0	-38.2	29.5	3.02e+01	92	27	0	344457216	54	5946
2026-01-05 02:20:50.34	175.47	31.07	-37.1	-38.3	29.6	3.02e+01	90	27	0	346030080	54	5995
2026-01-05 02:20:51.35	175.57	31.29	-37.2	-38.4	29.4	3.02e+01	92	27	0	348127232	54	6116
2026-01-05 02:20:52.36	175.67	31.52	-37.3	-38.5	29.5	3.02e+01	90	27	0	350224384	54	6141
2026-01-05 02:20:53.37	175.78	31.75	-37.4	-38.6	29.2	3.02e+01	92	27	0	351797248	54	6214
2026-01-05 02:20:54.38	175.88	31.98	-37.2	-38.4	29.5	3.02e+01	92	27	0	353894400	54	6091
2026-01-05 02:20:55.39	175.99	32.22	-37.0	-38.2	29.5	3.02e+01	92	27	0	355991552	54	5987
2026-01-05 02:20:56.41	176.10	32.46	-37.2	-38.4	29.5	3.02e+01	90	27	0	357564416	54	6104
2026-01-05 02:20:57.42	176.22	32.70	-37.2	-38.4	29.5	3.02e+01	91	27	0	359661568	54	6079
2026-01-05 02:20:58.43	176.33	32.93	-37.3	-38.5	29.4	3.02e+01	90	27	0	361234432	54	6193
2026-01-05 02:20:59.44	176.45	33.18	-37.3	-38.5	29.3	3.02e+01	92	27	0	363331584	54	6188
2026-01-05 02:21:00.45	176.56	33.42	-37.1	-38.3	29.4	3.02e+01	91	27	0	365428736	54	6033
2026-01-05 02:21:01.46	176.68	33.67	-37.1	-38.3	29.5	3.02e+01	92	27	0	367001600	54	6012
2026-01-05 02:21:02.47	176.80	33.91	-37.1	-38.2	29.5	3.02e+01	90	27	0	369098752	54	5990
2026-01-05 02:21:03.48	176.92	34.16	-37.1	-38.3	29.5	3.02e+01	91	27	0	371195904	54	6031
2026-01-05 02:21:04.49	177.05	34.41	-37.0	-38.2	29.5	3.02e+01	89	27	0	372768768	54	5974
2026-01-05 02:21:05.50	177.17	34.67	-37.1	-38.3	29.4	3.02e+01	91	27	0	374865920	54	6041
2026-01-05 02:21:06.52	177.30	34.93	-37.1	-38.3	29.5	3.02e+01	92	27	0	376438784	54	6057
2026-01-05 02:21:07.53	177.43	35.18	-37.2	-38.4	29.4	3.02e+01	92	27	0	378535936	54	6075
2026-01-05 02:21:08.54	177.57	35.44	-37.2	-38.4	29.5	3.02e+01	90	27	0	380633088	54	6098
2026-01-05 02:21:09.55	177.70	35.71	-37.2	-38.5	29.4	3.02e+01	92	27	0	382205952	54	6139
2026-01-05 02:21:10.56	177.84	35.97	-37.3	-38.5	29.3	3.02e+01	91	27	0	384303104	54	6150
2026-01-05 02:21:11.57	177.98	36.24	-37.2	-38.4	29.4	3.02e+01	91	27	0	385875968	54	6116
2026-01-05 02:21:12.58	178.12	36.51	-37.1	-38.3	29.4	3.02e+01	92	27	0	387973120	54	6061
2026-01-05 02:21:13.60	178.26	36.78	-37.2	-38.4	29.5	3.02e+01	92	26	0	390070272	54	6096
2026-01-05 02:21:14.61	178.41	37.05	-37.7	-47.8	3.4	3.02e+01	0	27	104	391118848	54	18027
2026-01-05 02:21:15.62	178.55	37.33	-37.8	-47.9	3.6	3.02e+01	0	27	104	391118848	54	18161
2026-01-05 02:21:16.63	178.71	37.60	-37.8	-47.9	3.6	3.02e+01	0	27	104	391118848	54	18164
2026-01-05 02:21:17.64	178.86	37.88	-37.7	-47.9	3.6	3.02e+01	0	27	104	391118848	54	18128
2026-01-05 02:21:18.65	179.01	38.17	-39.7	-49.9	3.6	3.02e+01	0	27	104	391118848	56	20443
2026-01-05 02:21:19.66	179.17	38.45	-40.0	-50.2	3.4	3.02e+01	0	27	104	391118848	56	21141
2026-01-05 02:21:20.67	179.33	38.74	-51.3	-68.0	3.5	3.02e+01	0	27	104	391118848	60	130251
2026-01-05 02:21:21.68	179.50	39.02	-40.0	-50.2	3.6	3.02e+01	0	27	104	391118848	60	16708
2026-01-05 02:21:22.69	179.67	39.32	-41.8	-52.1	3.5	3.02e+01	0	27	104	391118848	60	20937
2026-01-05 02:21:23.70	179.84	39.61	-40.7	-50.9	3.6	3.02e+01	0	27	104	391118848	60	18248
2026-01-05 02:21:24.71	180.01	39.90	-42.2	-52.6	3.4	3.02e+01	0	27	104	391118848	60	22103
2026-01-05 02:21:25.72	180.19	40.20	-40.5	-50.8	3.4	3.02e+01	0	27	104	391118848	60	18094
2026-01-05 02:21:26.74	180.37	40.51	-39.5	-49.7	4.1	3.02e+01	0	27	104	391118848	60	15890
2026-01-05 02:21:27.75	180.55	40.81	-42.3	-52.7	4.1	3.02e+01	0	27	104	391118848	60	22372
2026-01-05 02:21:28.76	180.74	41.11	-45.7	-56.6	3.9	3.02e+01	0	27	104	391118848	60	35074
2026-01-05 02:21:29.77	180.93	41.42	-44.5	-55.1	3.4	3.02e+01	0	27	104	391118848	60	29464
2026-01-05 02:21:30.78	181.12	41.73	-49.5	-62.7	3.4	3.02e+01	0	27	104	391118848	60	70699
2026-01-05 02:21:31.79	181.32	42.04	-44.1	-54.9	4.1	3.02e+01	0	27	104	391118848	60	28820
2026-01-05 02:21:32.80	181.52	42.36	-42.3	-52.8	3.6	3.02e+01	0	27	104	391118848	60	22650
2026-01-05 02:21:33.81	181.73	42.68	-43.4	-54.1	3.5	3.02e+01	0	27	104	391118848	60	26206
2026-01-05 02:21:34.83	181.94	43.00	-42.6	-53.1	3.5	3.02e+01	0	27	104	391118848	60	23516
2026-01-05 02:21:35.84	182.15	43.32	-41.2	-51.6	3.5	3.02e+01	0	27	104	391118848	60	19685
2026-01-05 02:21:36.85	182.37	43.65	-51.5	-68.2	3.5	3.02e+01	0	27	104	391118848	60	133457
2026-01-05 02:21:37.86	182.59	43.97	-40.1	-50.5	3.5	3.02e+01	0	27	104	391118848	56	21882
2026-01-05 02:21:38.87	182.82	44.30	-46.0	-57.1	3.5	3.02e+01	0	27	104	391118848	60	37322
2026-01-05 02:21:39.88	183.05	44.63	-45.5	-56.5	3.5	3.02e+01	0	27	104	391118848	60	34585
2026-01-05 02:21:40.89	183.29	44.97	-41.2	-51.6	3.5	3.02e+01	0	27	104	391118848	60	19709
2026-01-05 02:21:41.90	183.53	45.31	-40.5	-50.9	3.5	3.02e+01	0	27	104	391118848	60	18196
2026-01-05 02:21:42.91	183.78	45.65	-40.0	-50.3	3.5	3.02e+01	0	27	104	391118848	60	17090
2026-01-05 02:21:43.92	184.03	45.99	-38.8	-49.1	3.6	3.02e+01	0	27	104	391118848	58	16591
2026-01-05 02:21:44.93	184.29	46.33	-38.1	-48.3	3.5	3.02e+01	0	27	104	391118848	56	17018
2026-01-05 02:21:45.94	184.55	46.68	-43.8	-54.6	3.5	3.02e+01	0	27	104	391118848	60	27793
2026-01-05 02:21:46.96	184.82	47.03	-51.2	-67.9	3.5	3.02e+01	0	27	104	391118848	60	129476
2026-01-05 02:21:47.97	185.10	47.38	-45.1	-56.0	3.5	3.02e+01	0	27	104	391118848	60	32832
2026-01-05 02:21:48.98	185.38	47.74	-51.4	-68.8	3.5	3.02e+01	0	27	104	391118848	60	142488
2026-01-05 02:21:49.99	185.67	48.09	-41.8	-52.3	3.5	3.02e+01	0	27	104	391118848	60	21360
2026-01-05 02:21:51.00	185.96	48.45	-40.0	-50.3	3.5	3.02e+01	0	27	104	391118848	60	16964
2026-01-05 02:21:52.01	186.26	48.81	-40.2	-50.5	3.5	3.02e+01	0	27	104	391118848	60	17466
2026-01-05 02:21:53.02	186.57	49.17	-41.2	-51.7	3.5	3.02e+01	0	27	104	391118848	60	19865
2026-01-05 02:21:54.03	186.89	49.54	-48.0	-59.8	3.5	3.02e+01	0	27	104	391118848	60	50759
2026-01-05 02:21:55.04	187.21	49.91	-52.1	-69.7	3.5	3.02e+01	0	27	104	391118848	60	157872
2026-01-05 02:21:56.05	187.54	50.28	-46.3	-57.5	3.5	3.02e+01	0	27	104	391118848	60	38871
2026-01-05 02:21:57.07	187.89	50.65	-46.4	-57.6	3.5	3.02e+01	0	27	104	391118848	60	39589
2026-01-05 02:21:58.08	188.24	51.02	-50.5	-65.1	3.5	3.02e+01	0	27	104	391118848	60	93246
2026-01-05 02:21:59.09	188.60	51.40	-43.3	-53.9	3.5	3.02e+01	0	27	104	391118848	60	25835
2026-01-05 02:22:00.10	188.96	51.78	-43.3	-54.0	3.5	3.02e+01	0	27	104	391118848	60	25926
2026-01-05 02:22:01.11	189.34	52.16	-43.5	-54.1	3.5	3.02e+01	0	27	104	391118848	60	26311
2026-01-05 02:22:02.12	189.72	52.54	-45.1	-56.1	3.5	3.02e+01	0	27	104	391118848	60	33140
2026-01-05 02:22:03.13	190.12	52.92	-51.2	-68.1	3.5	3.02e+01	0	27	104	391118848	60	132565
2026-01-05 02:22:04.14	190.53	53.31	-51.1	-67.4	3.5	3.02e+01	0	27	104	391118848	60	121614
2026-01-05 02:22:05.16	190.95	53.70	-46.0	-57.1	3.5	3.02e+01	0	27	104	391118848	60	37161
2026-01-05 02:22:06.17	191.38	54.08	-51.4	-68.9	3.6	3.02e+01	0	27	104	391118848	60	144278
2026-01-05 02:22:07.18	191.82	54.47	-48.8	-61.6	3.5	3.02e+01	0	27	104	391118848	60	62147
2026-01-05 02:22:08.19	192.27	54.86	-43.0	-53.6	3.5	3.02e+01	0	27	104	391118848	60	24969
2026-01-05 02:22:09.20	192.73	55.26	-42.9	-53.3	3.5	3.02e+01	0	27	104	391118848	60	24106
2026-01-05 02:22:10.21	193.21	55.65	-41.8	-52.2	3.5	3.02e+01	0	27	104	391118848	60	21141
2026-01-05 02:22:11.22	193.70	56.04	-42.6	-53.1	3.5	3.02e+01	0	27	104	391118848	60	23427
2026-01-05 02:22:12.23	194.21	56.44	-44.7	-55.7	3.5	3.02e+01	0	27	104	391118848	60	31740
2026-01-05 02:22:13.24	194.73	56.83	-45.5	-56.5	3.5	3.02e+01	0	27	104	391118848	60	34711
2026-01-05 02:22:14.25	195.27	57.23	-50.3	-64.6	3.5	3.02e+01	0	27	104	391118848	60	87666
2026-01-05 02:22:15.26	195.82	57.63	-51.2	-67.8	3.6	3.02e+01	0	27	104	391118848	60	127115
2026-01-05 02:22:16.27	196.39	58.02	-47.3	-59.2	3.5	3.02e+01	0	27	104	391118848	60	47126
2026-01-05 02:22:17.29	196.98	58.43	-41.5	-52.0	3.5	3.02e+01	0	27	104	391118848	60	20733
2026-01-05 02:22:18.30	197.58	58.82	-41.2	-51.6	3.5	3.02e+01	0	27	104	391118848	60	19806
2026-01-05 02:22:19.31	198.20	59.22	-40.8	-51.2	3.5	3.02e+01	0	27	104	391118848	60	18931
2026-01-05 02:22:20.32	198.84	59.62	-39.4	-49.7	3.6	3.02e+01	0	27	104	391118848	60	15773
2026-01-05 02:22:21.33	199.50	60.01	-42.0	-52.5	3.5	3.02e+01	0	27	104	391118848	60	21952
2026-01-05 02:22:22.34	200.18	60.41	-42.9	-53.5	3.5	3.02e+01	0	27	104	391118848	60	24547
2026-01-05 02:22:23.35	200.88	60.80	-50.5	-65.9	3.5	3.02e+01	0	27	104	391118848	60	102257
2026-01-05 02:22:24.36	201.61	61.19	-39.9	-50.3	3.5	3.02e+01	0	27	104	391118848	60	16984
2026-01-05 02:22:25.37	202.35	61.58	-48.0	-60.2	3.6	3.02e+01	0	27	104	391118848	60	52881
2026-01-05 02:22:26.38	203.13	61.97	-39.5	-49.7	3.5	3.02e+01	0	27	104	391118848	58	17825
2026-01-05 02:22:27.39	203.92	62.36	-39.6	-49.9	3.5	3.02e+01	0	27	104	391118848	58	18151
2026-01-05 02:22:28.40	204.74	62.74	-39.3	-49.6	3.5	3.02e+01	0	27	104	391118848	58	17498
2026-01-05 02:22:29.41	205.59	63.13	-39.3	-49.6	3.5	3.02e+01	0	27	104	391118848	58	17505
2026-01-05 02:22:30.42	206.47	63.50	-40.3	-50.5	3.5	3.02e+01	0	27	104	391118848	60	17475
2026-01-05 02:22:31.43	207.37	63.88	-42.1	-52.6	3.6	3.02e+01	0	27	104	391118848	60	22135
2026-01-05 02:22:32.44	208.30	64.25	-45.0	-55.9	3.5	3.02e+01	0	27	104	391118848	60	32511
2026-01-05 02:22:33.45	209.26	64.61	-44.4	-55.2	3.6	3.02e+01	0	27	104	391118848	60	29840
2026-01-05 02:22:34.46	210.26	64.98	-46.6	-57.9	3.5	3.02e+01	0	27	104	391118848	60	40857
2026-01-05 02:22:35.47	211.29	65.33	-40.7	-51.1	3.5	3.02e+01	0	27	104	391118848	60	18535
2026-01-05 02:22:36.48	212.35	65.68	-40.8	-51.2	3.5	3.02e+01	0	27	104	391118848	60	18758
2026-01-05 02:22:37.49	213.44	66.03	-40.8	-51.0	3.5	3.02e+01	0	27	104	391118848	60	18490
2026-01-05 02:22:38.50	214.57	66.37	-39.5	-49.8	3.5	3.02e+01	0	27	104	391118848	60	16071
2026-01-05 02:22:39.51	215.73	66.70	-44.4	-55.0	3.5	3.02e+01	0	27	104	391118848	60	29354
2026-01-05 02:22:40.52	216.93	67.02	-37.9	-48.0	3.5	3.02e+01	0	27	104	391118848	56	16508
2026-01-05 02:22:41.53	218.17	67.33	-50.8	-65.8	3.5	3.02e+01	0	27	104	391118848	60	101430
2026-01-05 02:22:42.55	219.46	67.64	-40.2	-50.5	3.5	3.02e+01	0	27	104	391118848	60	17398
2026-01-05 02:22:43.56	220.77	67.94	-41.9	-52.3	3.5	3.02e+01	0	27	104	391118848	60	21390
2026-01-05 02:22:44.57	222.12	68.23	-38.9	-49.2	3.5	3.02e+01	0	27	104	391118848	58	16867
2026-01-05 02:22:45.58	223.51	68.51	-39.5	-49.7	3.5	3.02e+01	0	27	104	391118848	58	17742
2026-01-05 02:22:46.59	224.94	68.77	-39.3	-49.5	3.5	3.02e+01	0	27	104	391118848	58	17337
2026-01-05 02:22:47.60	226.41	69.02	-37.9	-48.2	3.5	3.02e+01	0	27	104	391118848	56	16730
2026-01-05 02:22:48.61	227.91	69.27	-36.9	-46.9	3.5	3.02e+01	0	27	104	391118848	54	16306
2026-01-05 02:22:49.62	229.46	69.49	-37.6	-47.9	3.5	3.02e+01	0	27	104	391118848	54	18185
2026-01-05 02:22:50.63	231.03	69.71	-45.8	-56.8	3.5	3.02e+01	0	27	104	391118848	60	36112
2026-01-05 02:22:51.64	232.65	69.91	-37.1	-47.2	3.5	3.02e+01	0	27	104	391118848	54	16841
2026-01-05 02:22:52.66	234.31	70.10	-42.0	-52.6	3.5	3.02e+01	0	27	104	391118848	60	22147
2026-01-05 02:22:53.67	235.99	70.27	-38.6	-48.8	3.5	3.02e+01	0	27	104	391118848	56	17909
2026-01-05 02:22:54.68	237.70	70.43	-38.4	-48.6	3.5	3.02e+01	0	27	104	391118848	56	17600
2026-01-05 02:22:55.69	239.43	70.56	-38.4	-48.5	3.5	3.02e+01	0	27	104	391118848	56	17421
2026-01-05 02:22:56.70	241.19	70.69	-48.2	-60.2	3.5	3.02e+01	0	27	104	391118848	60	53207
2026-01-05 02:22:57.71	242.98	70.79	-51.5	-67.6	3.5	3.02e+01	0	27	104	391118848	60	124223
2026-01-05 02:22:58.72	244.78	70.88	-40.2	-50.4	3.5	3.02e+01	0	27	104	391118848	56	21538
2026-01-05 02:22:59.74	246.62	70.95	-51.5	-69.2	3.5	3.02e+01	0	27	104	391118848	60	149553
2026-01-05 02:23:00.75	248.45	71.00	-41.3	-51.6	3.5	3.02e+01	0	27	104	391118848	60	19769
2026-01-05 02:23:01.76	250.29	71.04	-43.5	-54.2	3.5	3.02e+01	0	27	104	391118848	60	26557
2026-01-05 02:23:02.77	252.13	71.05	-42.2	-52.7	3.5	3.02e+01	0	27	104	391118848	60	22301
2026-01-05 02:23:03.78	253.98	71.05	-42.8	-53.4	3.5	3.02e+01	0	27	104	391118848	60	24282
2026-01-05 02:23:04.79	255.82	71.03	-42.2	-52.8	3.5	3.02e+01	0	27	104	391118848	60	22628
2026-01-05 02:23:05.80	257.66	70.99	-46.0	-57.1	3.5	3.02e+01	0	27	104	391118848	60	37369
2026-01-05 02:23:06.81	259.48	70.93	-49.2	-62.6	3.5	3.02e+01	0	27	104	391118848	60	70341
2026-01-05 02:23:07.82	261.30	70.86	-47.2	-58.9	3.4	3.02e+01	0	27	104	391118848	60	45906
2026-01-05 02:23:08.83	263.09	70.76	-51.1	-68.2	3.5	3.02e+01	0	27	104	391118848	60	133086
2026-01-05 02:23:09.84	264.87	70.65	-41.5	-51.8	3.5	3.02e+01	0	27	104	391118848	60	20170
2026-01-05 02:23:10.86	266.64	70.52	-41.1	-51.6	3.5	3.02e+01	0	27	104	391118848	60	19656
2026-01-05 02:23:11.87	268.36	70.38	-41.3	-51.8	3.5	3.02e+01	0	27	104	391118848	60	20236
2026-01-05 02:23:12.88	270.06	70.22	-41.1	-51.4	3.5	3.02e+01	0	27	104	391118848	60	19354
2026-01-05 02:23:13.89	271.73	70.04	-41.6	-52.2	3.5	3.02e+01	0	27	104	391118848	60	21245
2026-01-05 02:23:14.90	273.37	69.85	-43.9	-54.7	3.5	3.02e+01	0	27	104	391118848	60	28049
2026-01-05 02:23:15.91	274.97	69.65	-43.2	-53.8	3.5	3.02e+01	0	27	104	391118848	60	25536
2026-01-05 02:23:16.92	276.53	69.43	-52.0	-69.8	3.5	3.02e+01	0	27	104	391118848	60	160930
2026-01-05 02:23:17.93	278.06	69.19	-51.7	-67.0	3.5	3.02e+01	0	27	104	391118848	60	115812
2026-01-05 02:23:18.94	279.55	68.95	-50.1	-63.0	3.4	3.02e+01	0	27	104	391118848	60	72967
2026-01-05 02:23:19.95	281.01	68.69	-47.3	-58.8	3.5	3.02e+01	0	27	104	391118848	60	45147
2026-01-05 02:23:20.96	282.42	68.42	-46.1	-57.1	3.5	3.02e+01	0	27	104	391118848	60	37309
2026-01-05 02:23:21.97	283.80	68.14	-45.0	-56.0	3.5	3.02e+01	0	27	104	391118848	60	32844
2026-01-05 02:23:22.98	285.14	67.85	-45.9	-57.1	3.5	3.02e+01	0	27	104	391118848	60	37353
2026-01-05 02:23:24.00	286.45	67.55	-48.7	-61.4	3.5	3.02e+01	0	27	104	391118848	60	61219
2026-01-05 02:23:25.01	287.71	67.24	-50.9	-66.9	3.5	3.02e+01	0	27	104	391118848	60	115121
2026-01-05 02:23:26.02	288.94	66.93	-50.7	-66.4	3.5	3.02e+01	0	27	104	391118848	60	108357
2026-01-05 02:23:27.03	290.13	66.60	-51.8	-69.4	3.6	3.02e+01	0	27	104	391118848	60	153292
2026-01-05 02:23:28.04	291.28	66.27	-47.6	-59.4	3.5	3.02e+01	0	27	104	391118848	60	48398
2026-01-05 02:23:29.05	292.39	65.93	-45.5	-56.5	3.5	3.02e+01	0	27	104	391118848	60	34553
2026-01-05 02:23:30.06	293.48	65.58	-46.8	-58.2	3.5	3.02e+01	0	27	104	391118848	60	42213
2026-01-05 02:23:31.07	294.52	65.23	-46.4	-57.9	3.5	3.02e+01	0	27	104	391118848	60	40566
2026-01-05 02:23:32.08	295.54	64.87	-46.1	-57.1	3.5	3.02e+01	0	27	104	391118848	60	36986
2026-01-05 02:23:33.09	296.52	64.51	-46.8	-58.1	3.5	3.02e+01	0	27	104	391118848	60	41732
2026-01-05 02:23:34.10	297.48	64.14	-46.9	-58.5	3.5	3.02e+01	0	27	104	391118848	60	43506
2026-01-05 02:23:35.11	298.40	63.77	-51.7	-69.6	3.5	3.02e+01	0	27	104	391118848	60	156186
2026-01-05 02:23:36.12	299.29	63.40	-51.7	-68.5	3.5	3.02e+01	0	27	104	391118848	60	138926
2026-01-05 02:23:37.13	300.16	63.02	-50.9	-66.5	3.5	3.02e+01	0	27	104	391118848	60	109771
2026-01-05 02:23:38.14	301.00	62.64	-43.5	-53.8	3.5	3.02e+01	0	27	104	391118848	60	25460
2026-01-05 02:23:39.16	301.82	62.25	-45.3	-56.5	3.5	3.02e+01	0	27	104	391118848	60	34794
2026-01-05 02:23:40.17	302.60	61.87	-43.8	-54.4	3.5	3.02e+01	0	27	104	391118848	60	27383
2026-01-05 02:23:41.18	303.37	61.48	-44.2	-55.0	3.5	3.02e+01	0	27	104	391118848	60	29178
2026-01-05 02:23:42.19	304.11	61.09	-49.9	-63.4	3.5	3.02e+01	0	27	104	391118848	60	76815
2026-01-05 02:23:43.20	304.82	60.70	-50.5	-64.3	3.5	3.02e+01	0	27	104	391118848	60	85543
2026-01-05 02:23:44.21	305.52	60.30	-51.3	-68.3	3.5	3.02e+01	0	27	104	391118848	60	134893
2026-01-05 02:23:45.22	306.19	59.91	-51.4	-69.4	3.5	3.02e+01	0	27	104	391118848	60	152956
2026-01-05 02:23:46.23	306.84	59.51	-49.2	-61.9	3.5	3.02e+01	0	27	104	391118848	60	64684
2026-01-05 02:23:47.25	307.48	59.11	-47.2	-58.7	3.5	3.02e+01	0	27	104	391118848	60	44863
2026-01-05 02:23:48.26	308.10	58.72	-45.6	-56.3	3.5	3.02e+01	0	27	104	391118848	60	34055
2026-01-05 02:23:49.27	308.69	58.32	-46.1	-57.5	3.5	3.02e+01	0	27	104	391118848	60	38976
2026-01-05 02:23:50.28	309.27	57.93	-45.3	-56.3	3.6	3.02e+01	0	26	104	391118848	60	34070
2026-01-05 02:23:51.29	309.83	57.53	-44.9	-55.4	3.6	3.02e+01	0	27	104	391118848	60	30432
2026-01-05 02:23:52.30	310.38	57.13	-45.1	-56.2	3.5	3.02e+01	0	26	104	391118848	60	33347
2026-01-05 02:23:53.31	310.91	56.74	-52.3	-70.0	3.5	3.02e+01	0	27	104	391118848	60	164657
2026-01-05 02:23:54.32	311.43	56.35	-51.2	-66.9	3.6	3.02e+01	0	27	104	391118848	60	115195
2026-01-05 02:23:55.33	311.93	55.95	-50.7	-64.6	3.5	3.02e+01	0	27	104	391118848	60	88394
2026-01-05 02:23:56.35	312.42	55.56	-49.6	-61.6	3.5	3.02e+01	0	27	104	391118848	60	62437
2026-01-05 02:23:57.36	312.89	55.16	-48.2	-60.0	3.5	3.02e+01	0	27	104	391118848	60	51863
2026-01-05 02:23:58.35	313.34	54.78	-46.2	-57.5	3.5	3.02e+01	0	27	104	391118848	60	38933
2026-01-05 02:23:59.36	313.79	54.39	-47.8	-59.6	3.5	3.02e+01	0	27	104	391118848	60	49793
2026-01-05 02:24:00.36	314.22	54.01	-51.9	-68.8	3.5	3.02e+01	0	27	104	391118848	60	143101
2026-01-05 02:24:01.37	314.65	53.62	-45.5	-56.6	3.6	3.02e+01	0	27	104	391118848	60	34982
2026-01-05 02:24:02.37	315.06	53.24	-51.7	-67.5	3.5	3.02e+01	0	27	104	391118848	60	123056
2026-01-05 02:24:03.39	315.47	52.86	-51.1	-66.9	3.6	3.02e+01	0	27	104	391118848	60	115248
2026-01-05 02:24:04.40	315.86	52.47	-49.3	-61.6	3.5	3.02e+01	0	27	104	391118848	60	62725
2026-01-05 02:24:05.41	316.24	52.09	-45.9	-57.0	3.5	3.02e+01	0	27	104	391118848	60	36619
2026-01-05 02:24:06.42	316.62	51.72	-43.8	-54.5	3.5	3.02e+01	0	27	104	391118848	60	27454
2026-01-05 02:24:07.43	316.98	51.34	-42.8	-53.2	3.5	3.02e+01	0	27	104	391118848	60	23667
2026-01-05 02:24:08.44	317.33	50.97	-44.8	-55.5	3.6	3.02e+01	0	27	104	391118848	60	30812
2026-01-05 02:24:09.45	317.68	50.60	-43.4	-54.3	3.5	3.02e+01	0	27	104	391118848	60	26957
2026-01-05 02:24:10.46	318.02	50.23	-42.7	-53.0	3.5	3.02e+01	0	27	104	391118848	60	23314
2026-01-05 02:24:11.47	318.35	49.86	-52.4	-70.0	3.5	3.02e+01	0	27	104	391118848	60	164794
2026-01-05 02:24:12.48	318.67	49.49	-47.1	-58.2	3.6	3.02e+01	0	27	104	391118848	60	42075
2026-01-05 02:24:13.49	318.98	49.13	-44.3	-55.2	3.5	3.02e+01	0	27	104	391118848	60	29855
2026-01-05 02:24:14.51	319.29	48.76	-43.4	-53.7	3.6	3.02e+01	0	27	104	391118848	60	25176
2026-01-05 02:24:15.52	319.59	48.41	-43.5	-53.8	3.5	3.02e+01	0	27	104	391118848	60	25440
2026-01-05 02:24:16.53	319.89	48.05	-42.0	-52.3	3.5	3.02e+01	0	27	104	391118848	60	21284
2026-01-05 02:24:17.54	320.17	47.70	-47.6	-59.3	3.5	3.02e+01	0	27	104	391118848	60	47921
2026-01-05 02:24:18.55	320.45	47.34	-48.4	-60.3	3.5	3.02e+01	0	27	104	391118848	60	53972
2026-01-05 02:24:19.56	320.73	46.99	-42.2	-52.5	3.5	3.02e+01	0	27	104	391118848	60	21984
2026-01-05 02:24:20.57	320.99	46.65	-51.3	-68.7	3.5	3.02e+01	0	27	104	391118848	60	140677
2026-01-05 02:24:21.58	321.26	46.30	-43.4	-54.2	3.5	3.02e+01	0	27	104	391118848	60	26507
2026-01-05 02:24:22.59	321.51	45.96	-43.3	-54.0	3.5	3.02e+01	0	27	104	391118848	60	26112
2026-01-05 02:24:23.60	321.76	45.62	-42.3	-52.4	3.5	3.02e+01	0	27	104	391118848	60	21608
2026-01-05 02:24:24.61	322.01	45.28	-42.1	-52.8	3.5	3.02e+01	0	27	104	391118848	60	22638
2026-01-05 02:24:25.63	322.25	44.94	-42.4	-52.9	3.5	3.02e+01	0	27	104	391118848	60	23015
2026-01-05 02:24:26.64	322.49	44.61	-40.7	-51.0	3.5	3.02e+01	0	27	104	391118848	60	18526
2026-01-05 02:24:27.65	322.72	44.28	-40.7	-51.0	3.5	3.02e+01	0	27	104	391118848	60	18420
2026-01-05 02:24:28.66	322.94	43.95	-43.8	-54.4	3.5	3.02e+01	0	27	104	391118848	60	27185
2026-01-05 02:24:29.67	323.16	43.63	-51.4	-68.1	3.5	3.02e+01	0	27	104	391118848	60	131236
2026-01-05 02:24:30.68	323.38	43.31	-42.0	-52.4	3.5	3.02e+01	0	27	104	391118848	60	21561
2026-01-05 02:24:31.69	323.59	42.99	-42.0	-52.5	3.5	3.02e+01	0	27	104	391118848	60	21810
2026-01-05 02:24:32.70	323.80	42.67	-39.4	-49.5	3.5	3.02e+01	0	27	104	391118848	58	17309
2026-01-05 02:24:33.71	324.01	42.35	-40.3	-50.6	3.5	3.02e+01	0	27	104	391118848	60	17541
2026-01-05 02:24:34.72	324.21	42.04	-40.0	-50.6	3.5	3.02e+01	0	27	104	391118848	60	17507
2026-01-05 02:24:35.73	324.40	41.73	-48.9	-61.1	3.5	3.02e+01	0	27	104	391118848	60	59024
2026-01-05 02:24:36.74	324.60	41.42	-49.5	-62.7	3.5	3.02e+01	0	27	104	391118848	60	70490
2026-01-05 02:24:37.76	324.79	41.11	-49.1	-62.0	3.5	3.02e+01	0	27	104	391118848	60	65629
2026-01-05 02:24:38.77	324.97	40.81	-51.8	-69.3	3.5	3.02e+01	0	27	104	391118848	60	152153
2026-01-05 02:24:39.78	325.15	40.51	-40.2	-50.8	3.5	3.02e+01	0	27	104	391118848	60	17978
2026-01-05 02:24:40.79	325.33	40.21	-38.8	-49.0	3.5	3.02e+01	0	27	104	391118848	58	16410
2026-01-05 02:24:41.80	325.51	39.91	-38.3	-48.6	3.5	3.02e+01	0	27	104	391118848	56	17546
2026-01-05 02:24:42.81	325.68	39.62	-37.7	-47.8	3.5	3.02e+01	0	27	104	391118848	56	16131
2026-01-05 02:24:43.82	325.85	39.33	-38.0	-48.2	3.5	3.02e+01	0	27	104	391118848	56	16786
2026-01-05 02:24:44.83	326.02	39.04	-45.6	-56.7	3.5	3.02e+01	0	27	104	391118848	60	35698
2026-01-05 02:24:45.84	326.18	38.75	-38.8	-49.1	3.6	3.02e+01	0	27	104	391118848	56	18649
2026-01-05 02:24:46.86	326.34	38.46	-51.2	-68.6	3.5	3.02e+01	0	27	104	391118848	60	139952
2026-01-05 02:24:47.87	326.50	38.18	-50.7	-66.1	3.5	3.02e+01	0	27	104	391118848	60	104709
2026-01-05 02:24:48.88	326.66	37.90	-43.8	-54.6	3.5	3.02e+01	0	27	104	391118848	60	27844
2026-01-05 02:24:49.89	326.81	37.62	-40.9	-51.5	3.6	3.02e+01	0	27	104	391118848	60	19567
2026-01-05 02:24:50.90	326.96	37.35	-41.1	-51.7	3.5	3.02e+01	0	27	104	391118848	60	19989
2026-01-05 02:24:51.91	327.11	37.07	-41.2	-51.6	3.5	3.02e+01	0	26	104	391118848	60	19704
2026-01-05 02:24:52.92	327.25	36.80	-39.4	-49.9	3.5	3.02e+01	0	27	104	391118848	60	16138
2026-01-05 02:24:53.93	327.40	36.53	-48.4	-61.1	3.5	3.02e+01	0	27	104	391118848	60	58727
2026-01-05 02:24:54.94	327.54	36.27	-48.4	-61.0	3.5	3.02e+01	0	27	104	391118848	60	58368
2026-01-05 02:24:55.95	327.67	36.00	-49.9	-64.8	3.5	3.02e+01	0	27	104	391118848	60	90418
2026-01-05 02:24:56.96	327.81	35.74	-50.7	-68.3	3.5	3.02e+01	0	27	104	391118848	60	135407
2026-01-05 02:24:57.97	327.94	35.48	-39.9	-50.3	3.5	3.02e+01	0	27	104	391118848	58	19145
2026-01-05 02:24:58.98	328.08	35.22	-39.9	-50.5	3.5	3.02e+01	0	27	104	391118848	60	17409
2026-01-05 02:24:59.99	328.21	34.96	-39.7	-50.1	3.5	3.02e+01	0	27	104	391118848	60	16512
2026-01-05 02:25:01.01	328.33	34.71	-38.8	-49.0	3.5	3.02e+01	0	27	104	391118848	58	16509
2026-01-05 02:25:02.02	328.46	34.45	-38.2	-48.4	3.6	3.02e+01	0	27	104	391118848	56	17251
2026-01-05 02:25:03.03	328.58	34.20	-45.0	-55.9	3.5	3.02e+01	0	26	104	391118848	60	32467
2026-01-05 02:25:04.04	328.71	33.96	-42.1	-52.7	3.5	3.02e+01	0	27	104	391118848	60	22327
2026-01-05 02:25:05.05	328.83	33.71	-51.4	-68.5	3.5	3.02e+01	0	27	104	391118848	60	138360
2026-01-05 02:25:06.06	328.95	33.47	-50.3	-66.1	3.5	3.02e+01	0	27	104	391118848	60	105309
2026-01-05 02:25:07.07	329.06	33.22	-47.1	-58.7	3.5	3.02e+01	0	27	104	391118848	60	44893
2026-01-05 02:25:08.08	329.18	32.98	-39.7	-49.8	3.5	3.02e+01	0	27	104	391118848	60	16116
2026-01-05 02:25:09.09	329.29	32.74	-40.0	-50.3	3.5	3.02e+01	0	27	104	391118848	60	16946
2026-01-05 02:25:10.10	329.40	32.51	-39.5	-49.8	3.5	3.02e+01	0	27	104	391118848	60	16019
2026-01-05 02:25:11.11	329.51	32.27	-38.9	-48.9	3.5	3.02e+01	0	27	104	391118848	58	16276
2026-01-05 02:25:12.13	329.62	32.04	-44.4	-54.9	3.5	3.02e+01	0	26	104	391118848	60	28784
2026-01-05 02:25:13.14	329.73	31.81	-45.9	-56.9	3.5	3.02e+01	0	27	104	391118848	60	36322
2026-01-05 02:25:14.15	329.83	31.58	-51.4	-66.6	3.5	3.02e+01	0	27	104	391118848	60	111061
2026-01-05 02:25:15.16	329.94	31.35	-51.5	-69.3	3.5	3.02e+01	0	27	104	391118848	60	150695
2026-01-05 02:25:16.17	330.04	31.12	-43.4	-54.0	3.5	3.02e+01	0	27	104	391118848	60	26162
2026-01-05 02:25:17.18	330.14	30.90	-41.0	-51.3	3.5	3.02e+01	0	26	104	391118848	60	19117
2026-01-05 02:25:18.19	330.24	30.68	-40.8	-51.3	3.5	3.02e+01	0	26	104	391118848	60	19069
2026-01-05 02:25:19.20	330.34	30.46	-40.3	-50.6	3.5	3.02e+01	0	27	104	391118848	60	17507
2026-01-05 02:25:20.21	330.44	30.24	-40.5	-50.7	3.6	3.02e+01	0	27	104	391118848	60	17890
2026-01-05 02:25:21.22	330.53	30.02	-39.8	-49.9	3.5	3.02e+01	0	26	104	391118848	60	16251
2026-01-05 02:25:22.23	330.63	29.81	-41.5	-51.9	3.5	3.02e+01	0	27	104	391118848	60	20493
2026-01-05 02:25:23.24	330.72	29.59	-51.9	-69.3	3.5	3.02e+01	0	27	104	391118848	60	150953
2026-01-05 02:25:24.25	330.81	29.38	-50.1	-63.8	3.5	3.02e+01	0	26	104	391118848	60	80685
2026-01-05 02:25:25.26	330.90	29.17	-45.4	-56.6	3.5	3.02e+01	0	27	104	391118848	60	34929
2026-01-05 02:25:26.28	331.00	28.96	-41.5	-52.0	3.5	3.02e+01	0	27	104	391118848	60	20738
2026-01-05 02:25:27.29	331.08	28.75	-41.4	-51.8	3.5	3.02e+01	0	27	104	391118848	60	20234
2026-01-05 02:25:28.30	331.17	28.55	-42.3	-53.0	3.5	3.02e+01	0	27	104	391118848	60	23274
2026-01-05 02:25:29.31	331.26	28.34	-41.3	-51.8	3.5	3.02e+01	0	26	104	391118848	60	20290
2026-01-05 02:25:30.32	331.34	28.14	-44.0	-54.7	3.5	3.02e+01	0	26	104	391118848	60	28222
2026-01-05 02:25:31.33	331.43	27.94	-42.6	-53.0	3.6	3.02e+01	0	26	104	391118848	60	23117
2026-01-05 02:25:32.34	331.51	27.74	-50.6	-65.7	3.5	3.02e+01	0	27	104	391118848	60	99663
2026-01-05 02:25:33.35	331.59	27.54	-50.5	-65.5	3.6	3.02e+01	0	27	104	391118848	60	97399
2026-01-05 02:25:34.36	331.68	27.35	-42.7	-53.2	3.5	3.02e+01	0	27	104	391118848	60	23733
2026-01-05 02:25:35.37	331.76	27.15	-40.1	-50.3	3.5	3.02e+01	0	27	104	391118848	60	16999
2026-01-05 02:25:36.38	331.84	26.96	-39.2	-49.4	3.5	3.02e+01	0	27	104	391118848	58	17110
2026-01-05 02:25:37.40	331.91	26.77	-38.7	-48.9	3.5	3.02e+01	0	27	104	391118848	58	16267
2026-01-05 02:25:38.41	331.99	26.57	-39.0	-49.1	3.5	3.02e+01	0	26	104	391118848	58	16653
2026-01-05 02:25:39.42	332.07	26.39	-39.5	-49.7	3.5	3.02e+01	0	26	104	391118848	60	15886
2026-01-05 02:25:40.43	332.14	26.20	-40.5	-51.0	3.5	3.02e+01	0	27	104	391118848	60	18420
2026-01-05 02:25:41.44	332.22	26.01	-52.4	-69.7	3.5	3.02e+01	0	27	104	391118848	60	158280
2026-01-05 02:25:42.45	332.29	25.83	-47.3	-59.0	3.6	3.02e+01	0	27	104	391118848	60	46431
2026-01-05 02:25:43.46	332.37	25.64	-48.4	-60.5	3.5	3.02e+01	0	27	104	391118848	60	54987
2026-01-05 02:25:44.47	332.44	25.46	-47.3	-58.7	3.5	3.02e+01	0	27	104	391118848	60	44681
2026-01-05 02:25:45.48	332.51	25.28	-44.4	-55.0	3.5	3.02e+01	0	27	104	391118848	60	29357
2026-01-05 02:25:46.49	332.58	25.10	-45.3	-56.1	3.6	3.02e+01	0	26	104	391118848	60	33191
2026-01-05 02:25:47.51	332.65	24.92	-48.9	-61.1	3.5	3.02e+01	0	26	104	391118848	60	58897
2026-01-05 02:25:48.52	332.72	24.74	-46.6	-57.7	3.5	3.02e+01	0	26	104	391118848	60	39747
2026-01-05 02:25:49.53	332.79	24.56	-39.4	-49.5	3.5	3.02e+01	0	27	104	391118848	60	15416
2026-01-05 02:25:50.54	332.86	24.39	-50.9	-64.9	3.5	3.02e+01	0	27	104	391118848	60	90973
2026-01-05 02:25:51.55	332.92	24.22	-41.3	-51.9	3.6	3.02e+01	0	27	104	391118848	60	20354
2026-01-05 02:25:52.56	332.99	24.04	-41.6	-52.2	3.5	3.02e+01	0	27	104	391118848	60	21255
2026-01-05 02:25:53.57	333.06	23.87	-40.0	-50.4	3.5	3.02e+01	0	27	104	391118848	58	19268
2026-01-05 02:25:54.58	333.12	23.70	-39.3	-49.5	3.5	3.02e+01	0	27	104	391118848	60	15579
2026-01-05 02:25:55.60	333.19	23.53	-38.4	-48.6	3.5	3.02e+01	0	26	104	391118848	58	15711
2026-01-05 02:25:56.61	333.25	23.36	-37.2	-47.4	3.5	3.02e+01	0	26	104	391118848	54	17252
2026-01-05 02:25:57.62	333.31	23.20	-37.5	-47.6	3.5	3.02e+01	0	27	104	391118848	54	17597
2026-01-05 02:25:58.63	333.37	23.03	-43.1	-53.7	3.6	3.02e+01	0	27	104	391118848	54	35424
2026-01-05 02:25:59.64	333.44	22.87	-50.0	-63.8	3.5	3.02e+01	0	26	104	391118848	60	80434
2026-01-05 02:26:00.65	333.50	22.70	-38.2	-48.3	3.5	3.02e+01	0	26	104	391118848	58	15072
2026-01-05 02:26:01.66	333.56	22.54	-41.3	-51.6	3.5	3.02e+01	0	27	104	391118848	60	19694
2026-01-05 02:26:02.67	333.62	22.38	-39.0	-49.2	3.5	3.02e+01	0	27	104	391118848	60	14938
2026-01-05 02:26:03.68	333.68	22.22	-39.3	-49.5	3.5	3.02e+01	0	26	104	391118848	58	17373
2026-01-05 02:26:04.69	333.73	22.06	-38.3	-48.5	3.5	3.02e+01	0	27	104	391118848	56	17341
2026-01-05 02:26:05.70	333.79	21.91	-38.0	-48.1	3.5	3.02e+01	0	27	104	391118848	56	16645
2026-01-05 02:26:06.71	333.85	21.75	-40.2	-50.4	3.5	3.02e+01	0	26	104	391118848	56	21647
2026-01-05 02:26:07.73	333.91	21.59	-42.4	-52.7	3.5	3.02e+01	0	27	104	391118848	58	25083
2026-01-05 02:26:08.74	333.96	21.44	-51.0	-66.9	3.5	3.02e+01	0	27	104	391118848	60	114299
2026-01-05 02:26:09.75	334.02	21.28	-39.7	-49.9	3.5	3.02e+01	0	27	104	391118848	60	16237
2026-01-05 02:26:10.76	334.07	21.13	-40.7	-51.0	3.5	3.02e+01	0	27	104	391118848	60	18456
2026-01-05 02:26:11.77	334.13	20.98	-40.1	-50.5	3.6	3.02e+01	0	27	104	391118848	60	17342
2026-01-05 02:26:12.78	334.18	20.83	-40.4	-50.8	3.5	3.02e+01	0	27	104	391118848	60	17953
2026-01-05 02:26:13.79	334.24	20.68	-40.5	-51.0	3.5	3.02e+01	0	27	104	391118848	60	18408
2026-01-05 02:26:14.80	334.29	20.53	-40.0	-50.4	3.5	3.02e+01	0	27	104	391118848	60	17244
2026-01-05 02:26:15.81	334.34	20.38	-40.9	-51.5	3.5	3.02e+01	0	27	104	391118848	60	19465
2026-01-05 02:26:16.82	334.40	20.23	-50.9	-66.0	3.5	3.02e+01	0	27	104	391118848	60	103900
2026-01-05 02:26:17.83	334.45	20.09	-50.5	-64.5	3.5	3.02e+01	0	27	104	391118848	60	87475
2026-01-05 02:26:18.84	334.50	19.94	-41.8	-52.2	3.5	3.02e+01	0	27	104	391118848	56	26740
2026-01-05 02:26:19.85	334.55	19.80	-40.1	-50.3	3.5	3.02e+01	0	27	104	391118848	60	17006
2026-01-05 02:26:20.87	334.60	19.65	-39.8	-50.0	3.5	3.02e+01	0	27	104	391118848	60	16378
2026-01-05 02:26:21.88	334.65	19.51	-39.8	-49.9	3.5	3.02e+01	0	27	104	391118848	60	16239
2026-01-05 02:26:22.89	334.70	19.37	-40.3	-50.5	3.5	3.02e+01	0	27	104	391118848	58	19582
2026-01-05 02:26:23.90	334.75	19.23	-42.2	-52.7	3.5	3.02e+01	0	27	104	391118848	60	22294
2026-01-05 02:26:24.91	334.80	19.09	-44.7	-55.5	3.5	3.02e+01	0	26	104	391118848	60	31015
2026-01-05 02:26:25.92	334.84	18.95	-49.4	-62.7	3.5	3.02e+01	0	26	104	391118848	60	70654
2026-01-05 02:26:26.93	334.89	18.81	-51.4	-68.8	3.5	3.02e+01	0	27	104	391118848	60	142618
2026-01-05 02:26:27.94	334.94	18.68	-40.2	-50.6	3.7	3.02e+01	0	27	104	391118848	56	22176
2026-01-05 02:26:28.95	334.99	18.54	-38.9	-49.2	3.5	3.02e+01	0	27	104	391118848	60	15033
2026-01-05 02:26:29.96	335.03	18.40	-38.8	-49.2	3.5	3.02e+01	0	26	104	391118848	58	16797
2026-01-05 02:26:30.97	335.08	18.27	-38.6	-49.0	3.5	3.02e+01	0	27	104	391118848	58	16507
2026-01-05 02:26:31.98	335.13	18.13	-38.2	-48.6	3.5	3.02e+01	0	27	104	391118848	56	17597
2026-01-05 02:26:32.99	335.17	18.00	-37.4	-47.7	3.5	3.02e+01	0	26	104	391118848	56	15868
2026-01-05 02:26:34.00	335.22	17.87	-42.9	-53.5	3.5	3.02e+01	0	27	104	391118848	60	24545
2026-01-05 02:26:35.01	335.26	17.74	-51.5	-68.7	3.5	3.02e+01	0	26	104	391118848	60	141675
2026-01-05 02:26:36.02	335.30	17.61	-50.4	-64.9	3.5	3.02e+01	0	27	104	391118848	60	90846
2026-01-05 02:26:37.03	335.35	17.47	-46.0	-57.1	3.5	3.02e+01	0	26	104	391118848	60	37332
2026-01-05 02:26:38.04	335.39	17.35	-44.6	-55.4	3.5	3.02e+01	0	27	104	391118848	60	30477
2026-01-05 02:26:39.06	335.43	17.22	-45.3	-56.2	3.5	3.02e+01	0	27	104	391118848	60	33633
2026-01-05 02:26:40.07	335.48	17.09	-46.6	-57.7	3.5	3.02e+01	0	26	104	391118848	60	39724
2026-01-05 02:26:41.08	335.52	16.96	-46.4	-57.8	3.5	3.02e+01	0	27	104	391118848	60	40114
2026-01-05 02:26:42.09	335.56	16.83	-50.1	-63.8	3.5	3.02e+01	0	27	104	391118848	60	80541
2026-01-05 02:26:43.10	335.60	16.71	-42.4	-53.0	3.5	3.02e+01	0	27	104	391118848	60	23138
2026-01-05 02:26:44.11	335.65	16.58	-50.2	-64.3	3.5	3.02e+01	0	27	104	391118848	60	85629
2026-01-05 02:26:45.12	335.69	16.46	-51.9	-69.3	3.5	3.02e+01	0	27	104	391118848	60	151964
2026-01-05 02:26:46.13	335.73	16.33	-43.6	-54.1	3.5	3.02e+01	0	27	104	391118848	60	26331
2026-01-05 02:26:47.14	335.77	16.21	-40.8	-50.9	3.5	3.02e+01	0	27	104	391118848	60	18260
2026-01-05 02:26:48.16	335.81	16.09	-40.0	-50.1	3.5	3.02e+01	0	27	104	391118848	60	16559
2026-01-05 02:26:49.17	335.85	15.97	-39.2	-49.4	3.5	3.02e+01	0	26	104	391118848	60	15266
2026-01-05 02:26:50.18	335.89	15.84	-38.6	-48.7	3.6	3.02e+01	0	26	104	391118848	58	15803
2026-01-05 02:26:51.19	335.93	15.72	-37.7	-47.7	3.5	3.02e+01	0	27	104	391118848	56	15895
2026-01-05 02:26:52.20	335.97	15.60	-40.1	-50.3	3.5	3.02e+01	0	27	104	391118848	60	16989
2026-01-05 02:26:53.21	336.00	15.49	-51.2	-68.7	3.5	3.02e+01	0	26	104	391118848	60	140618
2026-01-05 02:26:54.22	336.04	15.37	-46.5	-57.9	3.6	3.02e+01	0	27	104	391118848	60	40548
2026-01-05 02:26:55.23	336.08	15.25	-44.0	-54.6	3.6	3.02e+01	0	27	104	391118848	60	27822
2026-01-05 02:26:56.24	336.12	15.13	-38.7	-48.9	3.5	3.02e+01	0	27	104	391118848	58	16209
2026-01-05 02:26:57.25	336.16	15.01	-38.2	-48.4	3.5	3.02e+01	0	27	104	391118848	56	17148
2026-01-05 02:26:58.26	336.19	14.90	-38.2	-48.5	3.5	3.02e+01	0	27	104	391118848	56	17318
2026-01-05 02:26:59.27	336.23	14.78	-38.6	-48.8	3.5	3.02e+01	0	27	104	391118848	56	18029
2026-01-05 02:27:00.28	336.27	14.67	-42.1	-52.6	3.5	3.02e+01	0	27	104	391118848	60	22088
2026-01-05 02:27:01.29	336.30	14.55	-40.1	-50.4	3.6	3.02e+01	0	26	104	391118848	60	17133
2026-01-05 02:27:02.30	336.34	14.44	-49.1	-62.1	3.5	3.02e+01	0	27	104	391118848	60	66360
2026-01-05 02:27:03.32	336.38	14.33	-50.9	-67.1	3.5	3.02e+01	0	27	104	391118848	60	116927
2026-01-05 02:27:04.33	336.41	14.21	-43.4	-54.1	3.5	3.02e+01	0	27	104	391118848	60	26318
2026-01-05 02:27:05.34	336.45	14.10	-40.1	-50.5	3.5	3.02e+01	0	27	104	391118848	60	17380
2026-01-05 02:27:06.35	336.48	13.99	-39.5	-49.8	3.5	3.02e+01	0	27	104	391118848	60	16084
2026-01-05 02:27:07.36	336.52	13.88	-40.1	-50.4	3.5	3.02e+01	0	26	104	391118848	58	19323
2026-01-05 02:27:08.37	336.55	13.77	-39.3	-49.6	3.5	3.02e+01	0	26	104	391118848	58	17657
2026-01-05 02:27:09.38	336.59	13.66	-39.2	-49.4	3.5	3.02e+01	0	27	104	391118848	58	17249
2026-01-05 02:27:10.39	336.62	13.55	-37.6	-48.0	3.4	3.02e+01	0	27	104	391118848	58	14605
2026-01-05 02:27:11.40	336.65	13.44	-51.1	-67.5	3.5	3.02e+01	0	27	104	391118848	60	123272
2026-01-05 02:27:12.41	336.69	13.33	-43.1	-53.6	3.5	3.02e+01	0	27	104	391118848	60	24988
2026-01-05 02:27:13.42	336.72	13.23	-43.8	-54.6	3.5	3.02e+01	0	27	104	391118848	60	27760
2026-01-05 02:27:14.43	336.75	13.12	-39.8	-50.1	3.5	3.02e+01	0	27	104	391118848	60	16567
2026-01-05 02:27:15.44	336.79	13.01	-39.9	-50.2	3.5	3.02e+01	0	27	104	391118848	60	16793
2026-01-05 02:27:16.45	336.82	12.91	-39.8	-50.0	3.5	3.02e+01	0	27	104	391118848	60	16498
2026-01-05 02:27:17.47	336.85	12.80	-39.7	-50.0	3.5	3.02e+01	0	27	104	391118848	60	16364
2026-01-05 02:27:18.48	336.89	12.69	-40.9	-51.1	3.5	3.02e+01	0	27	104	391118848	60	18737
2026-01-05 02:27:19.49	336.92	12.59	-39.6	-49.8	3.5	3.02e+01	0	27	104	391118848	60	16089
2026-01-05 02:27:20.50	336.95	12.49	-50.0	-63.9	3.5	3.02e+01	0	27	104	391118848	60	81093
2026-01-05 02:27:21.51	336.98	12.38	-42.1	-52.5	3.5	3.02e+01	0	27	104	391118848	60	21850
2026-01-05 02:27:22.52	337.01	12.28	-41.9	-52.2	3.5	3.02e+01	0	27	104	391118848	60	21232
2026-01-05 02:27:23.53	337.04	12.18	-41.7	-52.1	3.5	3.02e+01	0	27	104	391118848	60	20846
2026-01-05 02:27:24.54	337.08	12.07	-41.2	-51.5	3.5	3.02e+01	0	27	104	391118848	60	19437
2026-01-05 02:27:25.55	337.11	11.97	-38.4	-48.7	3.5	3.02e+01	0	27	104	391118848	56	17702
2026-01-05 02:27:26.56	337.14	11.87	-37.3	-47.5	3.6	3.02e+01	0	27	104	391118848	56	15519
2026-01-05 02:27:27.57	337.17	11.77	-37.7	-47.9	3.5	3.02e+01	0	27	104	391118848	54	18217
2026-01-05 02:27:28.59	337.20	11.67	-38.5	-48.8	3.5	3.02e+01	0	27	104	391118848	54	20136
2026-01-05 02:27:29.60	337.23	11.57	-48.3	-61.0	3.6	3.02e+01	0	27	104	391118848	60	58315
2026-01-05 02:27:30.61	337.26	11.47	-38.3	-48.5	3.5	3.02e+01	0	27	104	391118848	60	13873
2026-01-05 02:27:31.62	337.29	11.37	-41.9	-52.4	3.5	3.02e+01	0	27	104	391118848	60	21717
2026-01-05 02:27:32.63	337.32	11.27	-40.1	-50.6	3.5	3.02e+01	0	27	104	391118848	60	17494
2026-01-05 02:27:33.64	337.35	11.17	-40.1	-50.5	3.5	3.02e+01	0	27	104	391118848	60	17328
2026-01-05 02:27:34.65	337.38	11.08	-40.1	-50.5	3.5	3.02e+01	0	27	104	391118848	60	17384
2026-01-05 02:27:35.66	337.41	10.98	-40.2	-50.6	3.5	3.02e+01	0	27	104	391118848	58	19721
2026-01-05 02:27:36.67	337.44	10.88	-42.9	-53.5	3.5	3.02e+01	0	27	104	391118848	60	24551
