passes_logs/2026/01/05/R4.6S_Anadyr_2ch/R4.6S_Anadyr_2ch__20260105_221821_NOAA_21_JPSS-2_rec.log

#Pass ID: 20260105_221821_NOAA 21 (JPSS-2)
#Satellite: NOAA 21 (JPSS-2)
#Configuration: NOAA-21
#almurnet v.1.7.20251203
#Start time: 2026-01-05 22:18:27

#Version: 2.2.20231116
#Station: R4.6S_Anadyr_2ch
#Location: 177.4865 lon 64.73178 lat
#TLE: 1 54234U 22150A   25350.97269056  .00000057  00000+0  47676-4 0  9992
#TLE: 2 54234  98.7466 287.2282 0002043  29.8355 330.2937 14.19525482160692

#Time	Az	El	Level	Level2	SNR	BER	BlckErr	Temp	State	Recorded	gain1	gain2
2026-01-05 22:18:27.20	109.92	0.33	-27.7	-28.1	17.0	5.40e-06	0	29	0	0	34	19012
2026-01-05 22:18:28.20	109.87	0.39	-51.2	-64.2	3.5	1.52e+00	0	30	104	0	60	76616
2026-01-05 22:18:29.22	109.83	0.45	-51.2	-64.2	3.5	1.51e+00	0	30	104	0	60	76786
2026-01-05 22:18:30.23	109.78	0.50	-51.2	-64.2	3.5	1.52e+00	0	30	104	0	60	76690
2026-01-05 22:18:31.24	109.73	0.56	-51.2	-64.2	3.5	1.52e+00	0	30	104	0	60	76668
2026-01-05 22:18:32.25	109.69	0.62	-51.2	-64.2	3.5	1.51e+00	0	30	104	0	60	76782
2026-01-05 22:18:33.26	109.64	0.68	-51.1	-64.1	3.5	1.52e+00	0	30	104	0	60	76210
2026-01-05 22:18:34.27	109.59	0.74	-51.1	-64.1	3.5	1.52e+00	0	30	104	0	60	76171
2026-01-05 22:18:35.28	109.54	0.79	-51.0	-64.0	3.5	1.52e+00	0	31	104	0	60	75429
2026-01-05 22:18:36.29	109.50	0.85	-50.8	-63.9	3.5	1.52e+00	0	31	104	0	60	74342
2026-01-05 22:18:37.30	109.45	0.91	-50.8	-63.8	3.5	1.52e+00	0	31	104	0	60	73250
2026-01-05 22:18:38.31	109.40	0.97	-50.4	-63.5	3.5	1.52e+00	0	31	104	0	60	70447
2026-01-05 22:18:39.32	109.35	1.03	-49.4	-62.6	3.5	1.52e+00	0	31	104	0	60	63566
2026-01-05 22:18:40.33	109.30	1.09	-48.5	-62.1	3.5	1.52e+00	0	31	104	0	60	60075
2026-01-05 22:18:41.34	109.25	1.14	-48.5	-62.1	3.5	1.51e+00	0	31	104	0	60	59963
2026-01-05 22:18:42.36	109.20	1.20	-48.5	-62.0	3.5	1.52e+00	0	31	104	0	60	59836
2026-01-05 22:18:43.37	109.15	1.26	-48.5	-62.0	3.5	1.52e+00	0	31	104	0	60	59439
2026-01-05 22:18:44.38	109.10	1.32	-48.5	-62.0	3.5	1.52e+00	0	31	104	0	60	59881
2026-01-05 22:18:45.39	109.05	1.38	-48.5	-62.0	3.5	1.52e+00	0	31	104	0	60	59554
2026-01-05 22:18:46.40	109.00	1.44	-48.4	-62.0	3.5	1.52e+00	0	31	104	0	60	59694
2026-01-05 22:18:47.41	108.95	1.50	-48.5	-62.0	3.5	1.52e+00	0	31	104	0	60	59312
2026-01-05 22:18:48.42	108.90	1.56	-48.5	-62.0	3.5	1.52e+00	0	31	104	0	60	59596
2026-01-05 22:18:49.43	108.85	1.62	-48.5	-62.0	3.5	1.52e+00	0	31	104	0	60	59605
2026-01-05 22:18:50.44	108.80	1.68	-48.5	-62.0	3.5	1.52e+00	0	31	104	0	60	59517
2026-01-05 22:18:51.45	108.75	1.74	-48.5	-61.9	3.5	1.52e+00	0	31	104	0	60	59214
2026-01-05 22:18:52.46	108.70	1.79	-48.5	-61.9	3.5	1.52e+00	0	31	104	0	60	59223
2026-01-05 22:18:53.48	108.65	1.86	-48.5	-62.0	3.5	1.52e+00	0	31	104	0	60	59379
2026-01-05 22:18:54.49	108.60	1.92	-48.5	-62.0	3.5	1.52e+00	0	31	104	0	60	59366
2026-01-05 22:18:55.50	108.54	1.98	-48.5	-62.0	3.5	1.51e+00	0	31	104	0	60	59625
2026-01-05 22:18:56.51	108.49	2.04	-48.5	-62.0	3.5	1.52e+00	0	31	104	0	60	59875
2026-01-05 22:18:57.52	108.44	2.10	-48.5	-62.1	3.5	1.52e+00	0	31	104	0	60	60021
2026-01-05 22:18:58.53	108.39	2.16	-48.5	-62.0	3.5	1.52e+00	0	31	104	0	60	59431
2026-01-05 22:18:59.54	108.33	2.22	-48.5	-62.0	3.5	1.52e+00	0	31	104	0	60	59329
2026-01-05 22:19:00.55	108.28	2.28	-48.5	-62.0	3.5	1.51e+00	0	31	104	0	60	59394
2026-01-05 22:19:01.56	108.23	2.34	-48.5	-61.9	3.5	1.52e+00	0	31	104	0	60	58818
2026-01-05 22:19:02.58	108.17	2.40	-48.4	-61.9	3.5	1.52e+00	0	31	104	0	60	58798
2026-01-05 22:19:03.59	108.12	2.46	-48.4	-61.8	3.5	1.52e+00	0	31	104	0	60	58552
2026-01-05 22:19:04.59	108.07	2.52	-48.4	-61.8	3.5	1.52e+00	0	31	104	0	60	58162
2026-01-05 22:19:05.61	108.01	2.58	-48.4	-61.7	3.5	1.52e+00	0	31	104	0	60	57533
2026-01-05 22:19:06.62	107.96	2.64	-48.4	-61.6	3.5	1.52e+00	0	31	104	0	60	57065
2026-01-05 22:19:07.63	107.90	2.70	-48.4	-61.6	3.5	1.52e+00	0	31	104	0	60	56949
2026-01-05 22:19:08.64	107.85	2.76	-48.4	-61.6	3.5	1.52e+00	0	31	104	0	60	57178
2026-01-05 22:19:09.65	107.79	2.83	-48.4	-61.4	3.5	1.52e+00	0	31	104	0	60	55912
2026-01-05 22:19:10.66	107.74	2.89	-48.4	-61.2	3.5	1.52e+00	0	31	104	0	60	54503
2026-01-05 22:19:11.67	107.68	2.95	-48.3	-60.7	3.5	1.51e+00	0	31	104	0	60	51224
2026-01-05 22:19:12.68	107.62	3.01	-48.3	-60.2	3.6	1.51e+00	0	31	104	0	60	48458
2026-01-05 22:19:13.69	107.57	3.07	-48.3	-59.7	3.8	1.51e+00	0	31	104	0	60	45495
2026-01-05 22:19:14.70	107.51	3.14	-48.2	-59.8	3.8	1.50e+00	0	31	104	0	60	46105
2026-01-05 22:19:15.71	107.46	3.20	-48.3	-60.3	3.5	1.51e+00	0	31	104	0	60	48738
2026-01-05 22:19:16.72	107.40	3.26	-48.3	-60.1	3.6	1.51e+00	0	31	104	0	60	47691
2026-01-05 22:19:17.73	107.34	3.32	-48.1	-58.2	3.7	1.44e+00	0	31	104	0	60	38283
2026-01-05 22:19:18.75	107.28	3.38	-47.6	-54.2	6.4	3.14e-01	0	31	0	0	60	24280
2026-01-05 22:19:19.76	107.23	3.45	-47.0	-52.2	8.7	7.20e-03	0	31	102	1048576	60	19311
2026-01-05 22:19:20.77	107.17	3.51	-45.8	-49.4	11.8	4.15e-03	0	31	102	1048576	60	14039
2026-01-05 22:19:21.78	107.11	3.57	-48.8	-59.6	3.9	1.08e+00	0	31	104	1048576	60	45237
2026-01-05 22:19:22.79	107.05	3.64	-49.2	-60.8	3.6	1.51e+00	0	31	104	1048576	60	51750
2026-01-05 22:19:23.80	106.99	3.70	-44.1	-46.6	14.2	7.26e-04	0	31	0	1048576	60	10126
2026-01-05 22:19:24.81	106.93	3.76	-41.7	-43.4	18.1	0.00e+00	0	31	0	1048576	60	7029
2026-01-05 22:19:25.82	106.87	3.83	-48.0	-60.8	3.5	8.60e-01	0	31	104	1048576	60	51633
2026-01-05 22:19:26.83	106.81	3.89	-42.9	-45.4	5.2	1.44e+00	0	31	104	1048576	60	8793
2026-01-05 22:19:27.84	106.75	3.95	-41.9	-43.7	17.7	0.00e+00	0	31	0	1048576	60	7246
2026-01-05 22:19:28.85	106.69	4.02	-41.9	-43.7	17.9	0.00e+00	0	31	0	1048576	60	7248
2026-01-05 22:19:29.86	106.63	4.08	-41.5	-43.1	18.5	0.00e+00	0	31	0	1048576	60	6730
2026-01-05 22:19:30.87	106.57	4.14	-41.1	-42.5	19.2	0.00e+00	0	31	0	1048576	60	6345
2026-01-05 22:19:31.89	106.51	4.21	-40.8	-42.1	19.5	0.00e+00	0	31	0	1048576	60	6047
2026-01-05 22:19:32.90	106.45	4.27	-41.0	-42.4	19.4	0.00e+00	0	31	0	1048576	60	6245
2026-01-05 22:19:33.91	106.39	4.34	-40.4	-41.7	20.2	0.00e+00	0	31	0	1048576	60	5732
2026-01-05 22:19:34.92	106.33	4.40	-40.2	-41.4	20.5	0.00e+00	0	31	0	1048576	60	5556
2026-01-05 22:19:35.93	106.27	4.47	-40.4	-41.6	20.3	0.00e+00	0	31	0	1048576	60	5709
2026-01-05 22:19:36.94	106.20	4.53	-40.5	-41.7	20.3	0.00e+00	0	31	0	1048576	60	5788
2026-01-05 22:19:37.95	106.14	4.59	-40.1	-41.2	20.6	0.00e+00	0	31	0	1048576	58	6125
2026-01-05 22:19:38.96	106.08	4.66	-40.1	-41.2	20.6	0.00e+00	0	31	101	1048576	58	6129
2026-01-05 22:19:39.97	106.01	4.72	-39.9	-41.1	20.8	0.00e+00	0	31	101	1048576	58	6033
2026-01-05 22:19:40.98	105.95	4.79	-39.9	-41.0	20.8	0.00e+00	0	31	101	1048576	58	5987
2026-01-05 22:19:41.99	105.89	4.85	-40.0	-41.2	20.7	0.00e+00	0	31	101	1048576	58	6107
2026-01-05 22:19:43.00	105.82	4.92	-39.3	-40.4	21.4	0.00e+00	0	31	101	1048576	58	5553
2026-01-05 22:19:44.01	105.76	4.99	-39.5	-40.6	21.2	0.00e+00	0	31	101	1048576	58	5719
2026-01-05 22:19:45.02	105.69	5.05	-39.6	-40.7	21.1	0.00e+00	0	31	101	1048576	58	5788
2026-01-05 22:19:46.04	105.63	5.12	-39.6	-40.8	21.1	0.00e+00	0	31	101	1048576	58	5808
2026-01-05 22:19:47.05	105.56	5.18	-39.7	-40.9	21.0	0.00e+00	0	31	101	1048576	58	5867
2026-01-05 22:19:48.06	105.50	5.25	-39.5	-40.6	21.3	0.00e+00	0	31	101	1048576	58	5681
2026-01-05 22:19:49.07	105.43	5.31	-39.6	-40.8	21.1	0.00e+00	0	31	101	1048576	58	5819
2026-01-05 22:19:50.08	105.36	5.38	-39.5	-40.7	21.2	0.00e+00	0	31	101	1048576	58	5729
2026-01-05 22:19:51.09	105.30	5.45	-39.5	-40.6	21.3	0.00e+00	0	31	101	1048576	58	5694
2026-01-05 22:19:52.10	105.23	5.51	-39.6	-40.7	21.2	0.00e+00	0	31	101	1048576	58	5769
2026-01-05 22:19:53.11	105.16	5.58	-39.7	-40.8	21.1	0.00e+00	0	31	101	1048576	58	5837
2026-01-05 22:19:54.12	105.10	5.65	-39.7	-40.8	21.3	0.00e+00	0	31	101	1048576	58	5844
2026-01-05 22:19:55.13	105.03	5.71	-39.4	-40.5	21.3	0.00e+00	0	31	101	1048576	58	5645
2026-01-05 22:19:56.15	104.96	5.78	-39.4	-40.5	21.3	0.00e+00	0	31	101	1048576	58	5597
2026-01-05 22:19:57.16	104.89	5.85	-39.6	-40.8	21.2	0.00e+00	0	31	101	1048576	58	5805
2026-01-05 22:19:58.17	104.82	5.92	-39.3	-40.4	21.5	0.00e+00	0	31	101	1048576	58	5557
2026-01-05 22:19:59.18	104.75	5.98	-39.4	-40.5	21.5	0.00e+00	0	31	101	1048576	58	5621
2026-01-05 22:20:00.19	104.68	6.05	-39.4	-40.5	21.5	0.00e+00	0	31	101	1048576	58	5604
2026-01-05 22:20:01.20	104.61	6.12	-39.4	-40.5	21.5	0.00e+00	0	31	101	1048576	58	5644
2026-01-05 22:20:02.21	104.54	6.19	-39.5	-40.6	21.4	0.00e+00	0	31	101	1048576	58	5722
2026-01-05 22:20:03.22	104.47	6.25	-39.6	-40.8	21.3	0.00e+00	0	31	101	1048576	58	5808
2026-01-05 22:20:04.23	104.40	6.32	-39.4	-40.5	21.6	0.00e+00	0	31	101	1048576	58	5612
2026-01-05 22:20:05.24	104.33	6.39	-39.0	-40.1	21.9	0.00e+00	0	31	101	1048576	56	6024
2026-01-05 22:20:06.25	104.26	6.46	-39.2	-40.3	21.8	0.00e+00	0	31	101	1048576	56	6168
2026-01-05 22:20:07.26	104.19	6.53	-39.2	-40.3	21.9	0.00e+00	0	31	101	1048576	56	6153
2026-01-05 22:20:08.28	104.11	6.60	-39.2	-40.2	22.0	0.00e+00	0	31	101	1048576	56	6123
2026-01-05 22:20:09.29	104.04	6.67	-39.2	-40.2	21.9	0.00e+00	0	31	101	1048576	56	6114
2026-01-05 22:20:10.30	103.97	6.73	-39.1	-40.1	21.9	0.00e+00	0	31	101	1048576	56	6052
2026-01-05 22:20:11.31	103.90	6.80	-39.1	-40.2	21.9	0.00e+00	0	31	101	1048576	56	6090
2026-01-05 22:20:12.32	103.82	6.87	-39.0	-40.1	22.0	0.00e+00	0	31	101	1048576	56	6011
2026-01-05 22:20:13.33	103.75	6.94	-38.9	-39.9	22.2	0.00e+00	0	31	101	1048576	56	5901
2026-01-05 22:20:14.34	103.67	7.01	-39.0	-40.1	22.1	0.00e+00	0	31	101	1048576	56	5995
2026-01-05 22:20:15.35	103.60	7.08	-38.8	-39.8	22.2	0.00e+00	0	31	101	1048576	56	5827
2026-01-05 22:20:16.36	103.52	7.15	-38.9	-39.9	22.1	0.00e+00	0	31	101	1048576	56	5918
2026-01-05 22:20:17.37	103.45	7.22	-38.8	-39.8	22.3	0.00e+00	0	31	101	1048576	56	5815
2026-01-05 22:20:18.39	103.37	7.29	-38.8	-39.8	22.3	0.00e+00	0	31	101	1048576	56	5841
2026-01-05 22:20:19.40	103.29	7.36	-38.7	-39.7	22.3	0.00e+00	0	31	101	1048576	56	5744
2026-01-05 22:20:20.41	103.22	7.43	-38.8	-39.8	22.2	0.00e+00	0	31	101	1048576	56	5837
2026-01-05 22:20:21.42	103.14	7.50	-38.9	-40.0	22.1	0.00e+00	0	31	101	1048576	56	5932
2026-01-05 22:20:22.43	103.06	7.57	-38.8	-39.8	22.2	0.00e+00	0	31	101	1048576	56	5847
2026-01-05 22:20:23.44	102.99	7.64	-38.9	-40.0	22.0	0.00e+00	0	31	101	1048576	56	5953
2026-01-05 22:20:24.45	102.91	7.72	-38.8	-39.9	22.2	0.00e+00	0	32	101	1048576	56	5871
2026-01-05 22:20:25.46	102.83	7.79	-38.6	-39.6	22.4	0.00e+00	0	31	101	1048576	56	5692
2026-01-05 22:20:26.47	102.75	7.86	-38.6	-39.7	22.3	0.00e+00	0	32	101	1048576	56	5738
2026-01-05 22:20:27.48	102.67	7.93	-38.5	-39.6	22.4	0.00e+00	0	31	101	1048576	56	5677
2026-01-05 22:20:28.50	102.59	8.00	-38.7	-39.7	22.3	0.00e+00	0	31	101	1048576	56	5777
2026-01-05 22:20:29.51	102.51	8.07	-38.6	-39.7	22.3	0.00e+00	0	31	101	1048576	56	5750
2026-01-05 22:20:30.52	102.43	8.14	-38.6	-39.6	22.5	0.00e+00	0	31	101	1048576	56	5706
2026-01-05 22:20:31.53	102.35	8.22	-38.5	-39.6	22.5	0.00e+00	0	31	101	1048576	56	5675
2026-01-05 22:20:32.54	102.27	8.29	-38.6	-39.6	22.6	0.00e+00	0	31	101	1048576	56	5689
2026-01-05 22:20:33.55	102.18	8.36	-38.6	-39.6	22.5	0.00e+00	0	32	101	1048576	56	5702
2026-01-05 22:20:34.56	102.10	8.43	-38.4	-39.4	22.7	0.00e+00	0	31	101	1048576	56	5590
2026-01-05 22:20:35.58	102.02	8.51	-38.5	-39.5	22.6	0.00e+00	0	31	101	1048576	56	5647
2026-01-05 22:20:36.59	101.94	8.58	-38.5	-39.6	22.6	0.00e+00	0	31	101	1048576	56	5660
2026-01-05 22:20:37.60	101.85	8.65	-38.6	-39.6	22.5	0.00e+00	0	31	101	1048576	56	5700
2026-01-05 22:20:38.61	101.77	8.72	-38.6	-39.6	22.5	0.00e+00	0	31	101	1048576	56	5689
2026-01-05 22:20:39.62	101.68	8.80	-38.6	-39.7	22.5	0.00e+00	0	31	101	1048576	56	5727
2026-01-05 22:20:40.63	101.60	8.87	-38.4	-39.4	22.8	0.00e+00	0	31	101	1048576	56	5540
2026-01-05 22:20:41.64	101.51	8.94	-38.1	-39.1	23.0	0.00e+00	0	31	101	1048576	54	6007
2026-01-05 22:20:42.65	101.43	9.02	-38.1	-39.1	22.9	0.00e+00	0	31	101	1048576	54	6000
2026-01-05 22:20:43.66	101.34	9.09	-38.2	-39.2	22.9	0.00e+00	0	31	101	1048576	54	6080
2026-01-05 22:20:44.67	101.25	9.17	-38.1	-39.1	22.9	0.00e+00	0	32	101	1048576	54	6047
2026-01-05 22:20:45.69	101.17	9.24	-38.0	-39.0	23.0	0.00e+00	0	31	101	1048576	54	5951
2026-01-05 22:20:46.70	101.08	9.31	-38.1	-39.1	23.0	0.00e+00	0	32	101	1048576	54	6015
2026-01-05 22:20:47.71	100.99	9.39	-38.1	-39.1	22.9	0.00e+00	0	32	101	1048576	54	6030
2026-01-05 22:20:48.72	100.90	9.46	-38.0	-39.0	23.0	0.00e+00	0	32	101	1048576	54	5968
2026-01-05 22:20:49.73	100.81	9.54	-38.2	-39.1	22.8	0.00e+00	0	32	101	1048576	54	6060
2026-01-05 22:20:50.74	100.72	9.61	-38.0	-39.0	23.0	0.00e+00	0	32	101	1048576	54	5958
2026-01-05 22:20:51.75	100.63	9.69	-38.0	-39.0	23.0	0.00e+00	0	32	101	1048576	54	5963
2026-01-05 22:20:52.76	100.54	9.76	-38.1	-39.1	23.0	0.00e+00	0	32	101	1048576	54	6006
2026-01-05 22:20:53.77	100.45	9.84	-37.9	-38.9	23.0	0.00e+00	0	31	101	1048576	54	5881
2026-01-05 22:20:54.79	100.36	9.91	-38.0	-38.9	23.1	0.00e+00	0	32	101	1048576	54	5916
2026-01-05 22:20:55.80	100.27	9.99	-37.9	-38.8	23.2	0.00e+00	0	32	101	1048576	54	5849
2026-01-05 22:20:56.81	100.18	10.07	-37.9	-38.9	23.1	0.00e+00	0	32	101	1048576	54	5887
2026-01-05 22:20:57.82	100.08	10.14	-37.8	-38.8	23.2	0.00e+00	0	32	101	1048576	54	5838
2026-01-05 22:20:58.83	99.99	10.22	-37.9	-38.8	23.1	0.00e+00	0	31	101	1048576	54	5854
2026-01-05 22:20:59.84	99.90	10.29	-37.8	-38.7	23.3	0.00e+00	0	32	101	1048576	54	5784
2026-01-05 22:21:00.85	99.80	10.37	-37.8	-38.7	23.3	0.00e+00	0	32	101	1048576	54	5790
2026-01-05 22:21:01.86	99.71	10.45	-37.8	-38.8	23.2	0.00e+00	0	32	101	1048576	54	5793
2026-01-05 22:21:02.87	99.61	10.52	-37.7	-38.7	23.2	0.00e+00	0	32	101	1048576	54	5768
2026-01-05 22:21:03.88	99.51	10.60	-37.7	-38.6	23.3	0.00e+00	0	32	101	1048576	54	5717
2026-01-05 22:21:04.89	99.42	10.68	-37.9	-38.9	23.1	0.00e+00	0	32	101	1048576	54	5910
2026-01-05 22:21:05.90	99.32	10.76	-37.9	-38.8	23.2	0.00e+00	0	32	101	1048576	54	5843
2026-01-05 22:21:06.91	99.22	10.83	-37.9	-38.9	23.2	0.00e+00	0	32	101	1048576	54	5878
2026-01-05 22:21:07.92	99.13	10.91	-37.7	-38.7	23.4	0.00e+00	0	31	101	1048576	54	5736
2026-01-05 22:21:08.93	99.03	10.99	-37.6	-38.6	23.4	0.00e+00	0	31	101	1048576	54	5673
2026-01-05 22:21:09.94	98.93	11.07	-37.5	-38.5	23.5	0.00e+00	0	31	101	1048576	54	5629
2026-01-05 22:21:10.95	98.83	11.14	-37.6	-38.6	23.4	0.00e+00	0	32	101	1048576	54	5694
2026-01-05 22:21:11.96	98.73	11.22	-37.4	-38.4	23.6	0.00e+00	0	31	101	1048576	54	5555
2026-01-05 22:21:12.98	98.63	11.30	-37.4	-38.3	23.6	0.00e+00	0	32	101	1048576	54	5500
2026-01-05 22:21:13.99	98.53	11.38	-37.4	-38.3	23.6	0.00e+00	0	31	101	1048576	54	5502
2026-01-05 22:21:15.00	98.42	11.46	-37.4	-38.3	23.6	0.00e+00	0	31	101	1048576	54	5522
2026-01-05 22:21:16.01	98.32	11.54	-37.3	-38.2	23.7	0.00e+00	0	32	101	1048576	54	5443
2026-01-05 22:21:17.02	98.22	11.62	-37.3	-38.3	23.7	0.00e+00	0	32	101	1048576	54	5496
2026-01-05 22:21:18.03	98.11	11.70	-37.4	-38.4	23.6	0.00e+00	0	32	101	1048576	54	5567
2026-01-05 22:21:19.04	98.01	11.77	-37.2	-38.1	23.8	0.00e+00	0	32	101	1048576	54	5400
2026-01-05 22:21:20.05	97.91	11.85	-37.2	-38.1	23.8	0.00e+00	0	31	101	1048576	52	6045
2026-01-05 22:21:21.06	97.80	11.93	-37.3	-38.2	23.8	0.00e+00	0	32	101	1048576	52	6105
2026-01-05 22:21:22.07	97.69	12.01	-37.2	-38.1	23.8	0.00e+00	0	32	101	1048576	52	6064
2026-01-05 22:21:23.09	97.59	12.09	-37.4	-38.3	23.6	0.00e+00	0	32	101	1048576	52	6181
2026-01-05 22:21:24.10	97.48	12.17	-37.1	-38.0	23.9	0.00e+00	0	32	101	1048576	52	5989
2026-01-05 22:21:25.11	97.37	12.25	-37.2	-38.1	23.8	0.00e+00	0	32	101	1048576	52	6048
2026-01-05 22:21:26.12	97.26	12.34	-37.3	-38.3	23.8	0.00e+00	0	32	101	1048576	52	6154
2026-01-05 22:21:27.13	97.16	12.42	-37.1	-38.0	24.0	0.00e+00	0	32	101	1048576	52	5978
2026-01-05 22:21:28.14	97.05	12.50	-37.0	-37.9	24.1	0.00e+00	0	32	101	1048576	52	5894
2026-01-05 22:21:29.15	96.94	12.58	-37.1	-38.0	24.0	0.00e+00	0	32	101	1048576	52	5983
2026-01-05 22:21:30.16	96.83	12.66	-36.8	-37.7	24.2	0.00e+00	0	32	101	1048576	52	5768
2026-01-05 22:21:31.17	96.71	12.74	-36.9	-37.8	24.0	0.00e+00	0	32	101	1048576	52	5852
2026-01-05 22:21:32.19	96.60	12.82	-36.8	-37.7	24.2	0.00e+00	0	32	101	1048576	52	5773
2026-01-05 22:21:33.20	96.49	12.90	-36.9	-37.8	24.1	0.00e+00	0	32	101	1048576	52	5819
2026-01-05 22:21:34.21	96.37	12.99	-37.0	-37.9	23.9	0.00e+00	0	32	101	1048576	52	5878
2026-01-05 22:21:35.22	96.26	13.07	-36.9	-37.8	24.1	0.00e+00	0	32	101	1048576	52	5827
2026-01-05 22:21:36.23	96.15	13.15	-36.8	-37.7	24.2	0.00e+00	0	32	101	1048576	52	5757
2026-01-05 22:21:37.24	96.03	13.23	-36.9	-37.8	24.0	0.00e+00	0	32	101	1048576	52	5856
2026-01-05 22:21:38.25	95.92	13.31	-36.9	-37.8	24.2	0.00e+00	0	32	101	1048576	52	5799
2026-01-05 22:21:39.26	95.80	13.40	-36.8	-37.7	24.2	0.00e+00	0	32	101	1048576	52	5776
2026-01-05 22:21:40.27	95.68	13.48	-36.9	-37.8	24.1	0.00e+00	0	32	101	1048576	52	5817
2026-01-05 22:21:41.28	95.56	13.56	-36.9	-37.8	24.2	0.00e+00	0	32	101	1048576	52	5811
2026-01-05 22:21:42.30	95.44	13.65	-36.8	-37.7	24.3	0.00e+00	0	32	101	1048576	52	5751
2026-01-05 22:21:43.31	95.33	13.73	-36.8	-37.7	24.3	0.00e+00	0	32	101	1048576	52	5752
2026-01-05 22:21:44.32	95.21	13.81	-36.7	-37.6	24.4	0.00e+00	0	32	101	1048576	52	5687
2026-01-05 22:21:45.33	95.08	13.90	-36.7	-37.6	24.3	0.00e+00	0	32	101	1048576	52	5707
2026-01-05 22:21:46.34	94.96	13.98	-36.6	-37.5	24.5	0.00e+00	0	32	101	1048576	52	5634
2026-01-05 22:21:47.35	94.84	14.06	-36.8	-37.7	24.3	0.00e+00	0	32	101	1048576	52	5738
2026-01-05 22:21:48.36	94.72	14.15	-36.8	-37.7	24.3	0.00e+00	0	32	101	1048576	52	5766
2026-01-05 22:21:49.37	94.60	14.23	-36.8	-37.7	24.2	0.00e+00	0	32	101	1048576	52	5739
2026-01-05 22:21:50.38	94.47	14.32	-36.9	-37.8	24.2	0.00e+00	0	32	101	1048576	52	5844
2026-01-05 22:21:51.40	94.34	14.40	-37.2	-38.1	23.9	0.00e+00	0	32	101	1048576	52	6059
2026-01-05 22:21:52.41	94.22	14.49	-36.9	-37.8	24.1	0.00e+00	0	32	101	1048576	52	5811
2026-01-05 22:21:53.42	94.09	14.57	-37.1	-38.1	23.9	0.00e+00	0	32	101	1048576	52	6001
2026-01-05 22:21:54.43	93.97	14.66	-36.9	-37.8	24.1	0.00e+00	0	32	101	1048576	52	5856
2026-01-05 22:21:55.44	93.84	14.74	-37.0	-38.0	24.1	0.00e+00	0	32	101	1048576	52	5935
2026-01-05 22:21:56.45	93.71	14.83	-36.9	-37.8	24.2	0.00e+00	0	32	101	1048576	52	5843
2026-01-05 22:21:57.46	93.58	14.91	-37.0	-37.9	24.1	0.00e+00	0	32	101	1048576	52	5921
2026-01-05 22:21:58.47	93.45	15.00	-37.1	-38.0	24.1	0.00e+00	0	32	101	1048576	52	5972
2026-01-05 22:21:59.48	93.32	15.08	-36.9	-37.8	24.2	0.00e+00	0	32	101	1048576	52	5857
2026-01-05 22:22:00.49	93.19	15.17	-36.9	-37.8	24.2	0.00e+00	0	32	101	1048576	52	5830
2026-01-05 22:22:01.50	93.06	15.25	-37.0	-37.9	24.1	0.00e+00	0	31	101	1048576	52	5908
2026-01-05 22:22:02.51	92.92	15.34	-37.0	-37.9	24.1	0.00e+00	0	32	101	1048576	52	5883
2026-01-05 22:22:03.53	92.79	15.43	-36.8	-37.7	24.3	0.00e+00	0	32	101	1048576	52	5784
2026-01-05 22:22:04.54	92.65	15.51	-36.9	-37.8	24.2	0.00e+00	0	32	101	1048576	52	5817
2026-01-05 22:22:05.55	92.52	15.60	-37.0	-37.9	24.1	0.00e+00	0	32	101	1048576	52	5919
2026-01-05 22:22:06.56	92.38	15.69	-36.9	-37.8	24.2	0.00e+00	0	32	101	1048576	52	5822
2026-01-05 22:22:07.57	92.24	15.77	-36.9	-37.9	24.1	0.00e+00	0	32	101	1048576	52	5872
2026-01-05 22:22:08.58	92.11	15.86	-36.9	-37.8	24.2	0.00e+00	0	32	101	1048576	52	5839
2026-01-05 22:22:09.59	91.97	15.95	-37.1	-38.0	24.0	0.00e+00	0	32	101	1048576	52	5989
2026-01-05 22:22:10.60	91.83	16.04	-37.2	-38.1	23.9	0.00e+00	0	32	101	1048576	52	6056
2026-01-05 22:22:11.62	91.69	16.12	-37.0	-38.0	24.1	0.00e+00	0	32	101	1048576	52	5930
2026-01-05 22:22:12.63	91.54	16.21	-37.1	-38.0	24.0	0.00e+00	0	32	101	1048576	52	5944
2026-01-05 22:22:13.64	91.40	16.30	-37.0	-37.9	24.1	0.00e+00	0	32	101	1048576	52	5925
2026-01-05 22:22:14.65	91.26	16.39	-37.1	-38.0	24.0	0.00e+00	0	32	101	1048576	52	5985
2026-01-05 22:22:15.66	91.12	16.47	-37.2	-38.2	24.0	0.00e+00	0	32	101	1048576	52	6065
2026-01-05 22:22:16.67	90.97	16.56	-37.1	-38.0	24.1	0.00e+00	0	32	101	1048576	52	5991
2026-01-05 22:22:17.68	90.83	16.65	-37.1	-38.0	24.0	0.00e+00	0	32	101	1048576	52	5982
2026-01-05 22:22:18.69	90.68	16.74	-36.8	-37.8	24.3	0.00e+00	0	32	101	1048576	52	5795
2026-01-05 22:22:19.70	90.53	16.83	-36.8	-37.7	24.2	0.00e+00	0	32	101	1048576	52	5753
2026-01-05 22:22:20.71	90.38	16.92	-36.9	-37.8	24.1	0.00e+00	0	32	101	1048576	52	5842
2026-01-05 22:22:21.73	90.23	17.01	-36.9	-37.8	24.1	0.00e+00	0	32	101	1048576	52	5817
2026-01-05 22:22:22.74	90.08	17.09	-36.9	-37.8	24.1	0.00e+00	0	32	101	1048576	52	5811
2026-01-05 22:22:23.75	89.93	17.18	-37.0	-37.9	24.1	0.00e+00	0	32	101	1048576	52	5915
2026-01-05 22:22:24.76	89.78	17.27	-37.0	-37.9	24.1	0.00e+00	0	32	101	1048576	52	5891
2026-01-05 22:22:25.77	89.63	17.36	-37.0	-37.9	24.1	0.00e+00	0	32	101	1048576	52	5921
2026-01-05 22:22:26.78	89.48	17.45	-36.9	-37.8	24.2	0.00e+00	0	32	101	1048576	52	5803
2026-01-05 22:22:27.79	89.32	17.54	-37.0	-37.9	24.2	0.00e+00	0	32	101	1048576	52	5888
2026-01-05 22:22:28.80	89.17	17.63	-36.9	-37.8	24.2	0.00e+00	0	32	101	1048576	52	5829
2026-01-05 22:22:29.81	89.01	17.72	-37.1	-38.0	24.1	0.00e+00	0	32	101	1048576	52	5960
2026-01-05 22:22:30.82	88.85	17.81	-37.1	-38.0	24.0	0.00e+00	0	32	101	1048576	52	5989
2026-01-05 22:22:31.84	88.69	17.90	-36.9	-37.8	24.3	0.00e+00	0	32	101	1048576	52	5811
2026-01-05 22:22:32.85	88.53	17.99	-36.8	-37.7	24.4	0.00e+00	0	32	101	1048576	52	5762
2026-01-05 22:22:33.86	88.37	18.08	-36.8	-37.7	24.4	0.00e+00	0	32	101	1048576	52	5785
2026-01-05 22:22:34.87	88.21	18.17	-36.8	-37.6	24.4	0.00e+00	0	32	101	1048576	52	5725
2026-01-05 22:22:35.88	88.05	18.26	-36.8	-37.7	24.3	0.00e+00	0	32	101	1048576	52	5765
2026-01-05 22:22:36.89	87.89	18.35	-36.8	-37.7	24.3	0.00e+00	0	32	101	1048576	52	5790
2026-01-05 22:22:37.90	87.72	18.44	-37.0	-37.9	24.2	0.00e+00	0	32	101	1048576	52	5878
2026-01-05 22:22:38.91	87.56	18.53	-37.1	-38.0	24.1	0.00e+00	0	32	101	1048576	52	5943
2026-01-05 22:22:39.92	87.39	18.62	-37.0	-38.0	24.1	0.00e+00	0	32	101	1048576	52	5933
2026-01-05 22:22:40.93	87.22	18.71	-37.0	-37.9	24.2	0.00e+00	0	32	101	1048576	52	5894
2026-01-05 22:22:41.94	87.06	18.80	-36.9	-37.8	24.3	0.00e+00	0	32	101	1048576	52	5817
2026-01-05 22:22:42.95	86.89	18.89	-36.8	-37.7	24.3	0.00e+00	0	32	101	1048576	52	5776
2026-01-05 22:22:43.96	86.72	18.98	-36.8	-37.6	24.4	0.00e+00	0	32	101	1048576	52	5721
2026-01-05 22:22:44.98	86.54	19.08	-36.7	-37.6	24.4	0.00e+00	0	32	101	1048576	52	5697
2026-01-05 22:22:45.99	86.37	19.17	-36.8	-37.7	24.4	0.00e+00	0	32	101	1048576	52	5728
2026-01-05 22:22:47.00	86.20	19.26	-36.5	-37.4	24.5	0.00e+00	0	32	101	1048576	52	5581
2026-01-05 22:22:48.01	86.03	19.35	-36.6	-37.5	24.5	0.00e+00	0	32	101	1048576	52	5642
2026-01-05 22:22:49.02	85.85	19.44	-36.7	-37.6	24.3	0.00e+00	0	32	101	1048576	52	5692
2026-01-05 22:22:50.03	85.67	19.53	-36.6	-37.5	24.5	0.00e+00	0	32	101	1048576	52	5595
2026-01-05 22:22:51.04	85.50	19.62	-36.6	-37.5	24.5	0.00e+00	0	32	101	1048576	52	5635
2026-01-05 22:22:52.05	85.32	19.71	-36.7	-37.6	24.5	0.00e+00	0	32	101	1048576	52	5684
2026-01-05 22:22:53.06	85.14	19.80	-36.5	-37.4	24.5	0.00e+00	0	32	101	1048576	52	5593
2026-01-05 22:22:54.08	84.96	19.90	-36.5	-37.4	24.6	0.00e+00	0	32	101	1048576	52	5570
2026-01-05 22:22:55.09	84.77	19.99	-36.5	-37.4	24.5	0.00e+00	0	32	101	1048576	52	5543
2026-01-05 22:22:56.10	84.59	20.08	-36.5	-37.4	24.6	0.00e+00	0	32	101	1048576	52	5583
2026-01-05 22:22:57.11	84.41	20.17	-36.4	-37.3	24.7	0.00e+00	0	32	101	1048576	52	5474
2026-01-05 22:22:58.12	84.22	20.26	-36.4	-37.3	24.6	0.00e+00	0	32	101	1048576	52	5518
2026-01-05 22:22:59.13	84.04	20.35	-36.5	-37.4	24.4	0.00e+00	0	32	101	1048576	52	5570
2026-01-05 22:23:00.14	83.85	20.44	-36.5	-37.5	24.5	0.00e+00	0	32	101	1048576	52	5595
2026-01-05 22:23:01.15	83.66	20.54	-36.6	-37.5	24.5	0.00e+00	0	32	101	1048576	52	5608
2026-01-05 22:23:02.16	83.47	20.63	-36.4	-37.3	24.7	0.00e+00	0	32	101	1048576	52	5524
2026-01-05 22:23:03.18	83.28	20.72	-36.4	-37.3	24.7	0.00e+00	0	32	101	1048576	52	5474
2026-01-05 22:23:04.19	83.09	20.81	-36.4	-37.3	24.7	0.00e+00	0	32	101	1048576	52	5485
2026-01-05 22:23:05.20	82.89	20.90	-36.3	-37.2	24.8	0.00e+00	0	32	101	1048576	52	5436
2026-01-05 22:23:06.21	82.70	20.99	-36.2	-37.1	24.8	0.00e+00	0	32	101	1048576	52	5366
2026-01-05 22:23:07.22	82.50	21.09	-36.2	-37.1	24.7	0.00e+00	0	32	101	1048576	52	5392
2026-01-05 22:23:08.23	82.31	21.18	-36.3	-37.2	24.6	0.00e+00	0	32	101	1048576	52	5418
2026-01-05 22:23:09.24	82.11	21.27	-36.2	-37.0	24.8	0.00e+00	0	32	101	1048576	52	5339
2026-01-05 22:23:10.25	81.91	21.36	-36.1	-37.0	24.9	0.00e+00	0	32	101	1048576	50	5953
2026-01-05 22:23:11.26	81.71	21.45	-36.3	-37.2	24.8	0.00e+00	0	32	101	1048576	50	6109
2026-01-05 22:23:12.28	81.51	21.54	-35.9	-36.8	25.0	0.00e+00	0	32	101	1048576	50	5835
2026-01-05 22:23:13.29	81.30	21.63	-36.1	-36.9	25.0	0.00e+00	0	32	101	1048576	50	5919
2026-01-05 22:23:14.30	81.10	21.72	-36.0	-36.9	25.0	0.00e+00	0	32	101	1048576	50	5879
2026-01-05 22:23:15.31	80.90	21.82	-36.0	-36.9	25.0	0.00e+00	0	32	101	1048576	50	5894
2026-01-05 22:23:16.32	80.69	21.91	-36.0	-36.9	24.9	0.00e+00	0	32	101	1048576	50	5918
2026-01-05 22:23:17.33	80.48	22.00	-36.2	-37.1	24.8	0.00e+00	0	32	101	1048576	50	6002
2026-01-05 22:23:18.34	80.27	22.09	-36.1	-37.0	25.0	0.00e+00	0	32	101	1048576	50	5928
2026-01-05 22:23:19.35	80.06	22.18	-36.1	-36.9	24.9	0.00e+00	0	32	101	1048576	50	5926
2026-01-05 22:23:20.37	79.85	22.27	-36.0	-36.8	25.0	0.00e+00	0	32	101	1048576	50	5853
2026-01-05 22:23:21.37	79.64	22.36	-35.9	-36.8	25.1	0.00e+00	0	32	101	1048576	50	5795
2026-01-05 22:23:22.39	79.43	22.45	-35.9	-36.7	25.1	0.00e+00	0	32	101	1048576	50	5779
2026-01-05 22:23:23.40	79.21	22.54	-35.9	-36.8	25.0	0.00e+00	0	32	101	1048576	50	5833
2026-01-05 22:23:24.41	79.00	22.63	-35.7	-36.6	25.2	0.00e+00	0	32	101	1048576	50	5696
2026-01-05 22:23:25.42	78.78	22.72	-35.8	-36.7	25.0	0.00e+00	0	32	101	1048576	50	5759
2026-01-05 22:23:26.43	78.56	22.81	-35.9	-36.8	24.9	0.00e+00	0	32	101	1048576	50	5834
2026-01-05 22:23:27.44	78.34	22.90	-35.9	-36.8	25.0	0.00e+00	0	32	101	1048576	50	5843
2026-01-05 22:23:28.45	78.12	22.99	-36.1	-37.0	24.9	0.00e+00	0	32	101	1048576	50	5956
2026-01-05 22:23:29.46	77.90	23.08	-35.7	-36.6	25.1	0.00e+00	0	32	101	1048576	50	5715
2026-01-05 22:23:30.47	77.67	23.17	-35.7	-36.6	25.3	0.00e+00	0	32	101	1048576	50	5663
2026-01-05 22:23:31.49	77.45	23.26	-35.6	-36.5	25.3	0.00e+00	0	32	101	1048576	50	5627
2026-01-05 22:23:32.50	77.22	23.35	-35.8	-36.6	25.1	0.00e+00	0	32	101	1048576	50	5710
2026-01-05 22:23:33.51	76.99	23.44	-35.9	-36.7	25.0	0.00e+00	0	32	101	1048576	50	5790
2026-01-05 22:23:34.52	76.76	23.53	-35.7	-36.6	25.2	0.00e+00	0	32	101	1048576	50	5661
2026-01-05 22:23:35.53	76.53	23.61	-35.8	-36.7	25.1	0.00e+00	0	32	101	1048576	50	5761
2026-01-05 22:23:36.54	76.30	23.70	-35.8	-36.7	25.0	0.00e+00	0	32	101	1048576	50	5741
2026-01-05 22:23:37.55	76.07	23.79	-35.9	-36.8	24.9	0.00e+00	0	32	101	1048576	50	5801
2026-01-05 22:23:38.56	75.83	23.88	-36.0	-36.9	24.9	0.00e+00	0	32	101	1048576	50	5867
2026-01-05 22:23:39.57	75.60	23.97	-36.0	-36.9	24.9	0.00e+00	0	32	101	1048576	50	5915
2026-01-05 22:23:40.58	75.36	24.05	-36.0	-36.8	25.0	0.00e+00	0	32	101	1048576	50	5855
2026-01-05 22:23:41.60	75.12	24.14	-36.1	-37.0	24.9	0.00e+00	0	32	101	1048576	50	5964
2026-01-05 22:23:42.61	74.88	24.23	-36.0	-36.9	24.9	0.00e+00	0	32	101	1048576	50	5892
2026-01-05 22:23:43.62	74.64	24.31	-36.1	-37.0	24.7	0.00e+00	0	32	101	1048576	50	5968
2026-01-05 22:23:44.63	74.40	24.40	-36.2	-37.1	24.7	0.00e+00	0	32	101	1048576	50	6042
2026-01-05 22:23:45.64	74.16	24.49	-36.4	-37.3	24.7	0.00e+00	0	32	101	1048576	50	6177
2026-01-05 22:23:46.65	73.91	24.57	-36.4	-37.3	24.8	0.00e+00	0	32	101	1048576	50	6147
2026-01-05 22:23:47.66	73.67	24.66	-36.4	-37.2	24.7	0.00e+00	0	32	101	1048576	50	6129
2026-01-05 22:23:48.67	73.42	24.74	-36.5	-37.4	24.6	0.00e+00	0	32	101	1048576	50	6235
2026-01-05 22:23:49.68	73.17	24.83	-36.5	-37.4	24.7	0.00e+00	0	32	101	1048576	50	6211
2026-01-05 22:23:50.69	72.92	24.91	-36.4	-37.3	24.6	0.00e+00	0	32	101	1048576	50	6157
2026-01-05 22:23:51.70	72.67	25.00	-36.4	-37.3	24.6	0.00e+00	0	32	101	1048576	50	6198
2026-01-05 22:23:52.71	72.41	25.08	-36.5	-37.4	24.6	0.00e+00	0	32	101	1048576	50	6268
2026-01-05 22:23:53.72	72.16	25.16	-36.5	-37.4	24.6	0.00e+00	0	32	101	1048576	50	6251
2026-01-05 22:23:54.73	71.91	25.25	-36.5	-37.4	24.6	0.00e+00	0	32	101	1048576	50	6264
2026-01-05 22:23:55.74	71.65	25.33	-36.4	-37.3	24.7	0.00e+00	0	32	101	1048576	50	6190
2026-01-05 22:23:56.75	71.39	25.41	-36.3	-37.2	24.9	0.00e+00	0	32	101	1048576	50	6069
2026-01-05 22:23:57.76	71.13	25.49	-36.2	-37.1	24.8	0.00e+00	0	32	101	1048576	50	6002
2026-01-05 22:23:58.78	70.87	25.57	-36.3	-37.1	24.7	0.00e+00	0	32	101	1048576	50	6059
2026-01-05 22:23:59.79	70.61	25.66	-36.4	-37.3	24.6	0.00e+00	0	32	101	1048576	50	6185
2026-01-05 22:24:00.80	70.34	25.74	-36.4	-37.3	24.6	0.00e+00	0	32	101	1048576	50	6199
2026-01-05 22:24:01.81	70.08	25.82	-36.5	-37.4	24.6	0.00e+00	0	32	101	1048576	50	6228
2026-01-05 22:24:02.82	69.81	25.90	-36.4	-37.3	24.6	0.00e+00	0	32	101	1048576	50	6173
2026-01-05 22:24:03.83	69.54	25.98	-36.4	-37.3	24.7	0.00e+00	0	32	101	1048576	50	6153
2026-01-05 22:24:05.14	69.19	26.08	-36.2	-37.1	24.7	0.00e+00	0	32	101	1048576	50	6042
2026-01-05 22:24:05.86	69.00	26.13	-36.3	-37.1	24.7	0.00e+00	0	32	101	1048576	50	6059
2026-01-05 22:24:07.16	68.65	26.23	-36.5	-37.4	24.6	0.00e+00	0	32	101	1048576	50	6221
2026-01-05 22:24:07.88	68.46	26.29	-36.5	-37.4	24.6	0.00e+00	0	32	101	1048576	50	6215
2026-01-05 22:24:09.18	68.10	26.39	-36.6	-37.5	24.5	0.00e+00	0	32	101	1048576	50	6302
2026-01-05 22:24:09.91	67.90	26.44	-36.6	-37.5	24.5	0.00e+00	0	32	101	1048576	50	6302
2026-01-05 22:24:11.20	67.55	26.54	-36.7	-37.6	24.4	0.00e+00	0	32	101	1048576	50	6421
2026-01-05 22:24:11.93	67.35	26.59	-36.7	-37.6	24.6	0.00e+00	0	32	101	1048576	50	6366
2026-01-05 22:24:13.23	66.99	26.69	-36.6	-37.5	24.5	0.00e+00	0	32	101	1048576	50	6313
2026-01-05 22:24:13.95	66.79	26.74	-36.5	-37.4	24.6	0.00e+00	0	32	101	1048576	50	6259
2026-01-05 22:24:15.25	66.42	26.84	-36.6	-37.5	24.6	0.00e+00	0	32	101	1048576	50	6295
2026-01-05 22:24:15.97	66.22	26.89	-36.5	-37.4	24.7	0.00e+00	0	32	101	1048576	50	6237
2026-01-05 22:24:17.27	65.85	26.98	-36.6	-37.5	24.5	0.00e+00	0	32	101	1048576	50	6315
2026-01-05 22:24:17.99	65.65	27.03	-36.5	-37.4	24.6	0.00e+00	0	32	101	1048576	50	6259
2026-01-05 22:24:19.29	65.28	27.13	-36.5	-37.4	24.7	0.00e+00	0	32	101	1048576	50	6224
2026-01-05 22:24:20.01	65.07	27.18	-36.3	-37.2	24.8	0.00e+00	0	32	101	1048576	50	6103
2026-01-05 22:24:21.31	64.70	27.27	-36.3	-37.2	24.8	0.00e+00	0	32	101	1048576	50	6076
2026-01-05 22:24:22.04	64.49	27.32	-36.2	-37.1	24.9	0.00e+00	0	32	101	1048576	50	6005
2026-01-05 22:24:23.34	64.11	27.40	-36.2	-37.1	24.8	0.00e+00	0	32	101	1048576	50	6043
2026-01-05 22:24:24.06	63.90	27.45	-36.3	-37.2	24.7	0.00e+00	0	32	101	1048576	50	6110
2026-01-05 22:24:25.36	63.52	27.54	-36.4	-37.2	24.8	0.00e+00	0	32	101	1048576	50	6134
2026-01-05 22:24:26.08	63.31	27.59	-36.3	-37.2	24.8	0.00e+00	0	32	101	1048576	50	6105
2026-01-05 22:24:27.38	62.93	27.67	-36.3	-37.2	24.8	0.00e+00	0	32	101	1048576	50	6087
2026-01-05 22:24:28.11	62.71	27.72	-36.1	-37.0	25.0	0.00e+00	0	32	101	1048576	50	5930
2026-01-05 22:24:29.40	62.33	27.80	-36.0	-36.9	25.0	0.00e+00	0	32	101	1048576	50	5862
2026-01-05 22:24:30.12	62.11	27.85	-36.1	-36.9	24.9	0.00e+00	0	32	101	1048576	50	5903
2026-01-05 22:24:31.42	61.72	27.93	-36.3	-37.2	24.9	0.00e+00	0	32	101	1048576	50	6082
2026-01-05 22:24:32.14	61.51	27.97	-36.4	-37.2	24.8	0.00e+00	0	32	101	1048576	50	6128
2026-01-05 22:24:33.44	61.11	28.05	-36.2	-37.1	24.9	0.00e+00	0	32	101	1048576	50	6025
2026-01-05 22:24:34.16	60.90	28.10	-36.4	-37.2	24.8	0.00e+00	0	32	101	1048576	50	6116
2026-01-05 22:24:35.47	60.50	28.17	-36.2	-37.1	24.9	0.00e+00	0	32	101	1048576	50	6034
2026-01-05 22:24:36.19	60.28	28.22	-36.3	-37.2	24.8	0.00e+00	0	32	101	1048576	50	6096
2026-01-05 22:24:37.49	59.88	28.29	-36.3	-37.2	24.8	0.00e+00	0	32	101	1048576	50	6104
2026-01-05 22:24:38.21	59.66	28.33	-36.4	-37.2	24.9	0.00e+00	0	32	101	1048576	50	6130
2026-01-05 22:24:39.51	59.26	28.40	-36.4	-37.3	24.7	0.00e+00	0	32	101	1048576	50	6141
2026-01-05 22:24:40.23	59.03	28.44	-36.3	-37.2	24.9	0.00e+00	0	32	101	1048576	50	6085
2026-01-05 22:24:41.53	58.63	28.52	-36.3	-37.2	24.9	0.00e+00	0	32	101	1048576	50	6089
2026-01-05 22:24:42.25	58.40	28.55	-36.4	-37.3	24.8	0.00e+00	0	32	101	1048576	50	6166
2026-01-05 22:24:43.55	58.00	28.62	-36.2	-37.1	24.9	0.00e+00	0	32	101	1048576	50	6030
2026-01-05 22:24:44.28	57.77	28.66	-36.4	-37.3	24.7	0.00e+00	0	32	101	1048576	50	6195
2026-01-05 22:24:45.57	57.36	28.73	-36.4	-37.3	24.7	0.00e+00	0	32	101	1048576	50	6193
2026-01-05 22:24:46.30	57.13	28.76	-36.6	-37.5	24.7	0.00e+00	0	32	101	1048576	50	6282
2026-01-05 22:24:47.60	56.72	28.83	-36.6	-37.5	24.6	0.00e+00	0	32	101	1048576	50	6305
2026-01-05 22:24:48.32	56.49	28.86	-36.6	-37.5	24.6	0.00e+00	0	32	101	1048576	50	6303
2026-01-05 22:24:49.62	56.07	28.92	-36.6	-37.5	24.6	0.00e+00	0	32	101	1048576	50	6278
2026-01-05 22:24:50.34	55.84	28.96	-36.6	-37.5	24.6	0.00e+00	0	32	101	1048576	50	6322
2026-01-05 22:24:51.64	55.43	29.02	-36.6	-37.5	24.5	0.00e+00	0	32	101	1048576	50	6345
2026-01-05 22:24:52.36	55.20	29.05	-36.6	-37.5	24.6	0.00e+00	0	32	101	1048576	50	6325
2026-01-05 22:24:53.66	54.78	29.10	-36.6	-37.5	24.7	0.00e+00	0	32	101	1048576	50	6304
2026-01-05 22:24:54.38	54.54	29.14	-36.4	-37.3	24.8	0.00e+00	0	32	101	1048576	50	6178
2026-01-05 22:24:55.68	54.12	29.19	-36.6	-37.5	24.6	0.00e+00	0	32	101	1048576	50	6332
2026-01-05 22:24:56.41	53.88	29.22	-36.5	-37.4	24.7	0.00e+00	0	32	101	1048576	50	6267
2026-01-05 22:24:57.71	53.46	29.27	-36.6	-37.5	24.7	0.00e+00	0	32	101	1048576	50	6305
2026-01-05 22:24:58.43	53.22	29.30	-36.5	-37.4	24.7	0.00e+00	0	32	101	1048576	50	6253
2026-01-05 22:24:59.73	52.80	29.35	-36.7	-37.7	24.5	0.00e+00	0	32	101	1048576	50	6426
2026-01-05 22:25:00.45	52.56	29.37	-36.8	-37.7	24.5	0.00e+00	0	32	101	1048576	50	6470
2026-01-05 22:25:01.75	52.13	29.42	-36.7	-37.5	24.7	0.00e+00	0	32	101	1048576	50	6347
2026-01-05 22:25:02.47	51.90	29.45	-36.7	-37.6	24.5	0.00e+00	0	32	101	1048576	50	6387
2026-01-05 22:25:03.77	51.47	29.49	-36.8	-37.8	24.3	0.00e+00	0	32	101	1048576	50	6502
2026-01-05 22:25:04.49	51.23	29.51	-36.8	-37.7	24.3	0.00e+00	0	32	101	1048576	50	6497
2026-01-05 22:25:05.79	50.80	29.55	-36.8	-37.8	24.4	0.00e+00	0	32	101	1048576	50	6506
2026-01-05 22:25:06.52	50.55	29.58	-36.7	-37.6	24.3	0.00e+00	0	32	101	1048576	50	6413
2026-01-05 22:25:07.82	50.12	29.61	-36.8	-37.7	24.4	0.00e+00	0	32	101	1048576	50	6467
2026-01-05 22:25:08.54	49.88	29.63	-36.9	-37.8	24.4	0.00e+00	0	32	101	1048576	50	6507
2026-01-05 22:25:09.84	49.44	29.67	-36.4	-37.3	24.8	0.00e+00	0	32	101	1048576	50	6148
2026-01-05 22:25:10.56	49.20	29.69	-36.5	-37.4	24.7	0.00e+00	0	32	101	1048576	50	6236
2026-01-05 22:25:11.86	48.77	29.72	-36.5	-37.4	24.6	0.00e+00	0	32	101	1048576	50	6276
2026-01-05 22:25:12.58	48.53	29.74	-36.6	-37.5	24.6	0.00e+00	0	32	101	1048576	50	6314
2026-01-05 22:25:13.88	48.09	29.77	-36.6	-37.5	24.6	0.00e+00	0	32	101	1048576	50	6331
2026-01-05 22:25:14.60	47.85	29.78	-36.8	-37.7	24.5	0.00e+00	0	32	101	1048576	50	6464
2026-01-05 22:25:15.90	47.41	29.81	-36.7	-37.6	24.5	0.00e+00	0	32	101	1048576	50	6371
2026-01-05 22:25:16.62	47.16	29.82	-36.5	-37.4	24.6	0.00e+00	0	32	101	1048576	50	6271
2026-01-05 22:25:17.92	46.72	29.85	-36.3	-37.2	24.8	0.00e+00	0	32	101	1048576	50	6088
2026-01-05 22:25:18.64	46.48	29.86	-36.2	-37.1	24.9	0.00e+00	0	32	101	1048576	50	6036
2026-01-05 22:25:19.94	46.04	29.88	-36.2	-37.0	24.9	0.00e+00	0	32	101	1048576	50	5993
2026-01-05 22:25:20.66	45.79	29.89	-36.0	-36.9	25.0	0.00e+00	0	32	101	1048576	50	5889
2026-01-05 22:25:21.96	45.35	29.91	-36.0	-36.9	25.0	0.00e+00	0	32	101	1048576	50	5884
2026-01-05 22:25:22.69	45.11	29.92	-36.1	-37.0	25.0	0.00e+00	0	32	101	1048576	50	5948
2026-01-05 22:25:23.99	44.66	29.94	-36.1	-36.9	25.0	0.00e+00	0	32	101	1048576	50	5922
2026-01-05 22:25:24.71	44.42	29.94	-36.1	-37.0	24.9	0.00e+00	0	32	101	1048576	50	5968
2026-01-05 22:25:26.01	43.98	29.95	-36.1	-36.9	24.8	0.00e+00	0	32	101	1048576	50	5915
2026-01-05 22:25:26.73	43.73	29.96	-36.1	-37.0	24.7	0.00e+00	0	32	101	1048576	50	5986
2026-01-05 22:25:28.03	43.29	29.97	-36.2	-37.1	24.7	0.00e+00	0	32	101	1048576	50	6050
2026-01-05 22:25:28.75	43.04	29.97	-36.4	-37.3	24.6	0.00e+00	0	32	101	1048576	50	6163
2026-01-05 22:25:30.05	42.60	29.98	-36.3	-37.2	24.7	0.00e+00	0	32	101	1048576	50	6101
2026-01-05 22:25:30.77	42.35	29.98	-36.3	-37.2	24.8	0.00e+00	0	32	101	1048576	50	6080
2026-01-05 22:25:32.07	41.91	29.99	-36.1	-36.9	24.9	0.00e+00	0	32	101	1048576	50	5917
2026-01-05 22:25:32.79	41.66	29.99	-36.1	-36.9	24.9	0.00e+00	0	32	101	1048576	50	5919
2026-01-05 22:25:34.10	41.21	29.99	-36.3	-37.1	24.9	0.00e+00	0	32	101	1048576	50	6060
2026-01-05 22:25:34.82	40.97	29.99	-36.3	-37.1	24.8	0.00e+00	0	32	101	1048576	50	6044
2026-01-05 22:25:36.12	40.53	29.98	-36.4	-37.2	24.8	0.00e+00	0	32	101	1048576	50	6133
2026-01-05 22:25:36.84	40.28	29.98	-36.4	-37.2	24.7	0.00e+00	0	32	101	1048576	50	6123
2026-01-05 22:25:38.14	39.84	29.98	-36.5	-37.4	24.7	0.00e+00	0	32	101	1048576	50	6226
2026-01-05 22:25:38.86	39.59	29.97	-36.5	-37.4	24.6	0.00e+00	0	32	101	1048576	50	6212
2026-01-05 22:25:40.16	39.15	29.96	-36.7	-37.6	24.4	0.00e+00	0	32	101	1048576	50	6403
2026-01-05 22:25:40.88	38.90	29.96	-36.8	-37.8	24.3	0.00e+00	0	32	101	1048576	50	6504
2026-01-05 22:25:42.18	38.46	29.94	-37.0	-37.9	24.3	0.00e+00	0	32	101	1048576	50	6632
2026-01-05 22:25:42.91	38.21	29.94	-37.1	-38.0	24.2	0.00e+00	0	32	101	1048576	50	6700
2026-01-05 22:25:44.21	37.77	29.92	-37.1	-38.0	24.2	0.00e+00	0	32	101	1048576	50	6701
2026-01-05 22:25:44.93	37.52	29.91	-37.1	-38.0	24.3	0.00e+00	0	32	101	1048576	52	5970
2026-01-05 22:25:46.23	37.08	29.90	-36.8	-37.7	24.5	0.00e+00	0	32	101	1048576	52	5738
2026-01-05 22:25:46.95	36.84	29.88	-36.7	-37.6	24.6	0.00e+00	0	32	101	1048576	52	5695
2026-01-05 22:25:48.25	36.40	29.86	-36.7	-37.6	24.5	0.00e+00	0	32	101	1048576	52	5717
2026-01-05 22:25:48.97	36.15	29.85	-36.6	-37.5	24.6	0.00e+00	0	32	101	1048576	52	5634
2026-01-05 22:25:50.27	35.72	29.83	-36.6	-37.5	24.6	0.00e+00	0	32	101	1048576	52	5633
2026-01-05 22:25:50.99	35.47	29.81	-36.6	-37.5	24.6	0.00e+00	0	32	101	1048576	52	5609
2026-01-05 22:25:52.30	35.03	29.79	-36.8	-37.7	24.5	0.00e+00	0	32	101	1048576	52	5747
2026-01-05 22:25:53.02	34.79	29.77	-36.7	-37.6	24.6	0.00e+00	0	32	101	1048576	52	5719
2026-01-05 22:25:54.32	34.35	29.74	-36.5	-37.4	24.7	0.00e+00	0	32	101	1048576	52	5558
2026-01-05 22:25:55.04	34.11	29.73	-36.6	-37.5	24.6	0.00e+00	0	32	101	1048576	52	5633
2026-01-05 22:25:56.34	33.67	29.69	-36.8	-37.7	24.4	0.00e+00	0	32	101	1048576	52	5765
2026-01-05 22:25:57.06	33.43	29.67	-36.7	-37.6	24.5	0.00e+00	0	32	101	1048576	52	5691
2026-01-05 22:25:58.36	33.00	29.64	-36.8	-37.7	24.3	0.00e+00	0	32	101	1048576	52	5781
2026-01-05 22:25:59.08	32.76	29.62	-36.7	-37.7	24.3	0.00e+00	0	32	101	1048576	52	5726
2026-01-05 22:26:00.38	32.32	29.58	-36.7	-37.6	24.5	0.00e+00	0	32	101	1048576	52	5679
2026-01-05 22:26:01.10	32.08	29.56	-36.8	-37.7	24.5	0.00e+00	0	32	101	1048576	52	5764
2026-01-05 22:26:02.41	31.65	29.52	-36.6	-37.6	24.4	0.00e+00	0	32	101	1048576	52	5667
2026-01-05 22:26:03.13	31.41	29.50	-36.8	-37.7	24.3	0.00e+00	0	32	101	1048576	52	5774
2026-01-05 22:26:04.43	30.98	29.45	-36.9	-37.8	24.4	0.00e+00	0	32	101	1048576	52	5804
2026-01-05 22:26:05.15	30.74	29.43	-36.8	-37.7	24.4	0.00e+00	0	32	101	1048576	52	5786
2026-01-05 22:26:06.45	30.32	29.38	-36.7	-37.5	24.6	0.00e+00	0	32	101	1048576	52	5653
2026-01-05 22:26:07.17	30.08	29.35	-36.6	-37.5	24.6	0.00e+00	0	32	101	1048576	52	5618
2026-01-05 22:26:08.47	29.66	29.31	-36.6	-37.5	24.7	0.00e+00	0	32	101	1048576	52	5615
2026-01-05 22:26:09.19	29.42	29.28	-36.6	-37.5	24.6	0.00e+00	0	32	101	1048576	52	5601
2026-01-05 22:26:10.50	28.99	29.23	-36.5	-37.4	24.7	0.00e+00	0	32	101	1048576	52	5567
2026-01-05 22:26:11.22	28.76	29.20	-36.7	-37.6	24.6	0.00e+00	0	32	101	1048576	52	5666
2026-01-05 22:26:12.52	28.34	29.14	-36.8	-37.7	24.4	0.00e+00	0	32	101	1048576	52	5780
2026-01-05 22:26:13.24	28.10	29.11	-37.0	-37.9	24.4	0.00e+00	0	32	101	1048576	52	5887
2026-01-05 22:26:14.54	27.69	29.06	-37.1	-38.0	24.3	0.00e+00	0	32	101	1048576	52	5984
2026-01-05 22:26:15.26	27.45	29.02	-37.1	-38.0	24.2	0.00e+00	0	32	101	1048576	52	5987
2026-01-05 22:26:16.56	27.04	28.97	-36.9	-37.8	24.4	0.00e+00	0	32	101	1048576	52	5816
2026-01-05 22:26:17.28	26.81	28.93	-36.7	-37.6	24.5	0.00e+00	0	32	101	1048576	52	5706
2026-01-05 22:26:18.58	26.39	28.87	-36.9	-37.8	24.4	0.00e+00	0	32	101	1048576	52	5822
2026-01-05 22:26:19.30	26.16	28.84	-36.8	-37.7	24.5	0.00e+00	0	32	101	1048576	52	5755
2026-01-05 22:26:20.61	25.75	28.77	-36.8	-37.8	24.5	0.00e+00	0	32	101	1048576	52	5793
2026-01-05 22:26:21.33	25.52	28.74	-36.7	-37.6	24.6	0.00e+00	0	32	101	1048576	52	5724
2026-01-05 22:26:22.63	25.11	28.67	-36.8	-37.7	24.5	0.00e+00	0	32	101	1048576	52	5768
2026-01-05 22:26:23.35	24.89	28.63	-36.9	-37.8	24.5	0.00e+00	0	32	101	1048576	52	5835
2026-01-05 22:26:24.65	24.48	28.57	-36.7	-37.6	24.5	0.00e+00	0	32	101	1048576	52	5722
2026-01-05 22:26:25.37	24.26	28.53	-36.7	-37.6	24.4	0.00e+00	0	32	101	1048576	52	5703
2026-01-05 22:26:26.67	23.85	28.46	-36.7	-37.6	24.4	0.00e+00	0	32	101	1048576	52	5679
2026-01-05 22:26:27.39	23.63	28.42	-36.4	-37.3	24.6	0.00e+00	0	32	101	1048576	52	5522
2026-01-05 22:26:28.69	23.23	28.34	-36.4	-37.3	24.7	0.00e+00	0	32	101	1048576	52	5526
2026-01-05 22:26:29.42	23.00	28.30	-36.4	-37.3	24.8	0.00e+00	0	32	101	1048576	52	5512
2026-01-05 22:26:30.72	22.61	28.23	-36.4	-37.2	24.8	0.00e+00	0	32	101	1048576	52	5462
2026-01-05 22:26:31.44	22.39	28.19	-36.4	-37.3	24.8	0.00e+00	0	32	101	1048576	52	5510
2026-01-05 22:26:32.74	21.99	28.11	-36.6	-37.5	24.6	0.00e+00	0	32	101	1048576	52	5613
2026-01-05 22:26:33.46	21.77	28.07	-36.5	-37.4	24.8	0.00e+00	0	32	101	1048576	52	5532
2026-01-05 22:26:34.76	21.38	27.99	-36.4	-37.3	24.7	0.00e+00	0	32	101	1048576	52	5506
2026-01-05 22:26:35.48	21.17	27.94	-36.6	-37.5	24.5	0.00e+00	0	32	101	1048576	52	5645
2026-01-05 22:26:36.78	20.78	27.86	-36.5	-37.4	24.7	0.00e+00	0	32	101	1048576	52	5567
2026-01-05 22:26:37.50	20.56	27.82	-36.3	-37.1	25.0	0.00e+00	0	32	101	1048576	52	5394
2026-01-05 22:26:38.80	20.18	27.73	-36.3	-37.2	24.9	0.00e+00	0	32	101	1048576	52	5439
2026-01-05 22:26:39.53	19.96	27.69	-36.0	-36.9	25.1	0.00e+00	0	32	101	1048576	50	5894
2026-01-05 22:26:40.83	19.58	27.60	-36.4	-37.2	24.9	0.00e+00	0	32	101	1048576	50	6129
2026-01-05 22:26:41.55	19.37	27.56	-36.4	-37.3	24.8	0.00e+00	0	32	101	1048576	50	6198
2026-01-05 22:26:42.85	18.99	27.47	-36.8	-37.7	24.5	0.00e+00	0	32	101	1048576	50	6453
2026-01-05 22:26:43.57	18.78	27.42	-36.9	-37.8	24.5	0.00e+00	0	32	101	1048576	50	6530
2026-01-05 22:26:44.87	18.40	27.33	-37.0	-37.9	24.2	0.00e+00	0	32	101	1048576	50	6637
2026-01-05 22:26:45.59	18.19	27.28	-37.0	-38.0	24.2	0.00e+00	0	32	101	1048576	50	6656
2026-01-05 22:26:46.89	17.82	27.19	-36.8	-37.7	24.3	0.00e+00	0	32	101	1048576	50	6488
2026-01-05 22:26:47.62	17.61	27.14	-36.6	-37.5	24.4	0.00e+00	0	32	101	1048576	50	6343
2026-01-05 22:26:48.92	17.24	27.05	-36.4	-37.3	24.8	0.00e+00	0	32	101	1048576	50	6149
2026-01-05 22:26:49.64	17.04	27.00	-36.5	-37.4	24.7	0.00e+00	0	32	101	1048576	50	6243
2026-01-05 22:26:50.94	16.67	26.91	-36.3	-37.2	24.8	0.00e+00	0	32	101	1048576	50	6111
2026-01-05 22:26:51.66	16.47	26.86	-36.3	-37.2	24.8	0.00e+00	0	32	101	1048576	50	6121
2026-01-05 22:26:52.96	16.11	26.76	-35.9	-36.8	25.1	0.00e+00	0	32	101	1048576	50	5835
2026-01-05 22:26:53.68	15.91	26.71	-35.9	-36.7	25.1	0.00e+00	0	32	101	1048576	50	5788
2026-01-05 22:26:54.98	15.55	26.61	-35.6	-36.5	25.2	0.00e+00	0	32	101	1048576	50	5605
2026-01-05 22:26:55.71	15.35	26.56	-35.6	-36.5	25.1	0.00e+00	0	32	101	1048576	50	5610
2026-01-05 22:26:57.00	14.99	26.46	-35.6	-36.5	25.2	0.00e+00	0	32	101	1048576	50	5603
2026-01-05 22:26:57.73	14.80	26.41	-35.6	-36.5	25.2	0.00e+00	0	32	101	1048576	50	5614
2026-01-05 22:26:59.03	14.44	26.31	-36.1	-36.9	24.9	0.00e+00	0	32	101	1048576	50	5923
2026-01-05 22:26:59.75	14.25	26.26	-36.3	-37.2	24.8	0.00e+00	0	32	101	1048576	50	6086
2026-01-05 22:27:01.05	13.90	26.16	-36.6	-37.5	24.5	0.00e+00	0	32	101	1048576	50	6291
2026-01-05 22:27:01.77	13.71	26.10	-36.6	-37.5	24.4	0.00e+00	0	32	101	1048576	50	6297
2026-01-05 22:27:03.07	13.36	26.00	-36.5	-37.4	24.4	0.00e+00	0	32	101	1048576	50	6241
2026-01-05 22:27:03.79	13.17	25.94	-36.1	-37.0	24.7	0.00e+00	0	32	101	1048576	50	5935
2026-01-05 22:27:05.09	12.83	25.84	-35.9	-36.8	24.8	0.00e+00	0	32	101	1048576	50	5839
2026-01-05 22:27:05.81	12.64	25.78	-35.6	-36.5	25.0	0.00e+00	0	32	101	1048576	50	5633
2026-01-05 22:27:07.11	12.30	25.68	-35.5	-36.4	25.2	0.00e+00	0	32	101	1048576	50	5568
2026-01-05 22:27:07.83	12.11	25.62	-35.6	-36.5	25.3	0.00e+00	0	32	101	1048576	50	5610
2026-01-05 22:27:09.13	11.78	25.52	-35.9	-36.8	25.1	0.00e+00	0	32	101	1048576	50	5829
2026-01-05 22:27:09.86	11.59	25.46	-36.1	-37.0	25.0	0.00e+00	0	32	101	1048576	50	5983
2026-01-05 22:27:11.15	11.26	25.36	-36.3	-37.2	24.8	0.00e+00	0	32	101	1048576	50	6068
2026-01-05 22:27:11.88	11.08	25.30	-36.3	-37.2	24.9	0.00e+00	0	32	101	1048576	50	6081
2026-01-05 22:27:13.18	10.75	25.19	-36.3	-37.2	24.8	0.00e+00	0	32	101	1048576	50	6079
2026-01-05 22:27:13.90	10.57	25.13	-36.2	-37.1	24.9	0.00e+00	0	32	101	1048576	50	6016
2026-01-05 22:27:15.20	10.24	25.02	-36.1	-37.0	25.0	0.00e+00	0	32	101	1048576	50	5943
2026-01-05 22:27:15.92	10.06	24.96	-36.2	-37.1	24.9	0.00e+00	0	32	101	1048576	50	5996
2026-01-05 22:27:17.22	9.74	24.86	-36.2	-37.1	24.9	0.00e+00	0	32	101	1048576	50	6017
2026-01-05 22:27:17.94	9.57	24.80	-36.3	-37.1	24.8	0.00e+00	0	32	101	1048576	50	6063
2026-01-05 22:27:19.24	9.25	24.69	-36.4	-37.3	24.8	0.00e+00	0	32	101	1048576	50	6138
2026-01-05 22:27:19.96	9.07	24.63	-36.5	-37.4	24.7	0.00e+00	0	32	101	1048576	50	6234
2026-01-05 22:27:21.26	8.76	24.52	-36.5	-37.4	24.7	0.00e+00	0	32	101	1048576	50	6227
2026-01-05 22:27:21.98	8.58	24.46	-36.6	-37.5	24.6	0.00e+00	0	32	101	1048576	50	6321
2026-01-05 22:27:23.28	8.27	24.34	-36.4	-37.3	24.8	0.00e+00	0	32	101	1048576	50	6138
2026-01-05 22:27:24.01	8.10	24.28	-36.2	-37.1	25.0	0.00e+00	0	32	101	1048576	50	6003
2026-01-05 22:27:25.31	7.79	24.17	-36.1	-37.0	25.1	0.00e+00	0	32	101	1048576	50	5944
2026-01-05 22:27:26.03	7.62	24.11	-35.9	-36.8	25.2	0.00e+00	0	32	101	1048576	50	5797
2026-01-05 22:27:27.33	7.32	24.00	-36.0	-36.9	25.0	0.00e+00	0	32	101	1048576	50	5882
2026-01-05 22:27:28.05	7.15	23.94	-36.1	-37.0	24.9	0.00e+00	0	32	101	1048576	50	5970
2026-01-05 22:27:29.35	6.85	23.82	-36.4	-37.3	24.8	0.00e+00	0	32	101	1048576	50	6141
2026-01-05 22:27:30.07	6.68	23.76	-36.5	-37.3	24.7	0.00e+00	0	32	101	1048576	50	6204
2026-01-05 22:27:31.37	6.39	23.65	-36.6	-37.5	24.5	0.00e+00	0	32	101	1048576	50	6295
2026-01-05 22:27:32.09	6.22	23.59	-36.5	-37.4	24.5	0.00e+00	0	32	101	1048576	50	6248
2026-01-05 22:27:33.39	5.93	23.47	-36.5	-37.5	24.5	0.00e+00	0	32	101	1048576	50	6280
2026-01-05 22:27:34.12	5.77	23.41	-36.4	-37.3	24.6	0.00e+00	0	32	101	1048576	50	6154
2026-01-05 22:27:35.42	5.47	23.29	-36.3	-37.2	24.7	0.00e+00	0	32	101	1048576	50	6117
2026-01-05 22:27:36.14	5.31	23.23	-36.2	-37.1	24.8	0.00e+00	0	32	101	1048576	50	6021
2026-01-05 22:27:37.44	5.03	23.12	-36.2	-37.1	24.8	0.00e+00	0	32	101	1048576	50	6013
2026-01-05 22:27:38.16	4.87	23.05	-36.2	-37.1	24.8	0.00e+00	0	32	101	1048576	50	6023
2026-01-05 22:27:39.46	4.59	22.94	-36.3	-37.1	24.8	0.00e+00	0	32	101	1048576	50	6045
2026-01-05 22:27:40.18	4.43	22.87	-36.4	-37.2	24.8	0.00e+00	0	32	101	1048576	50	6117
2026-01-05 22:27:41.48	4.15	22.76	-36.3	-37.2	24.9	0.00e+00	0	32	101	1048576	50	6085
2026-01-05 22:27:42.20	3.99	22.70	-36.1	-36.9	25.0	0.00e+00	0	32	101	1048576	50	5917
2026-01-05 22:27:43.50	3.72	22.58	-36.0	-36.9	25.1	0.00e+00	0	32	101	1048576	50	5899
2026-01-05 22:27:44.23	3.56	22.51	-35.9	-36.8	25.1	0.00e+00	0	32	101	1048576	50	5805
2026-01-05 22:27:45.53	3.29	22.40	-36.0	-36.9	25.1	0.00e+00	0	32	101	1048576	50	5872
2026-01-05 22:27:46.25	3.14	22.33	-36.1	-36.9	25.0	0.00e+00	0	32	101	1048576	50	5915
2026-01-05 22:27:47.55	2.86	22.22	-36.1	-37.0	25.0	0.00e+00	0	32	101	1048576	50	5972
2026-01-05 22:27:48.27	2.72	22.15	-36.2	-37.1	24.9	0.00e+00	0	32	101	1048576	50	6031
2026-01-05 22:27:49.57	2.45	22.04	-36.2	-37.1	24.9	0.00e+00	0	32	101	1048576	50	6026
2026-01-05 22:27:50.29	2.30	21.97	-36.4	-37.2	24.7	0.00e+00	0	32	101	1048576	50	6123
2026-01-05 22:27:51.59	2.04	21.86	-36.3	-37.1	24.9	0.00e+00	0	32	101	1048576	50	6061
2026-01-05 22:27:52.31	1.89	21.79	-36.3	-37.2	24.8	0.00e+00	0	32	101	1048576	50	6108
2026-01-05 22:27:53.61	1.63	21.68	-36.2	-37.1	24.7	0.00e+00	0	32	101	1048576	50	6058
2026-01-05 22:27:54.34	1.48	21.61	-36.1	-37.0	24.9	0.00e+00	0	32	101	1048576	50	5982
2026-01-05 22:27:55.64	1.22	21.49	-36.6	-37.5	24.8	0.00e+00	0	32	101	1048576	50	6294
2026-01-05 22:27:56.36	1.08	21.43	-36.6	-37.5	24.6	0.00e+00	0	32	101	1048576	50	6301
2026-01-05 22:27:57.66	0.83	21.31	-36.3	-37.2	24.8	0.00e+00	0	32	101	1048576	50	6117
2026-01-05 22:27:58.38	0.69	21.25	-36.4	-37.2	24.8	0.00e+00	0	32	101	1048576	50	6120
2026-01-05 22:27:59.68	0.43	21.13	-36.5	-37.4	24.7	0.00e+00	0	32	101	1048576	50	6214
2026-01-05 22:28:00.40	0.29	21.06	-36.4	-37.3	24.8	0.00e+00	0	32	101	1048576	50	6161
2026-01-05 22:28:01.70	0.04	20.95	-36.5	-37.4	24.6	0.00e+00	0	32	101	1048576	50	6237
2026-01-05 22:28:02.42	359.91	20.88	-36.6	-37.5	24.5	0.00e+00	0	32	101	1048576	50	6290
2026-01-05 22:28:03.72	359.66	20.77	-36.5	-37.5	24.6	0.00e+00	0	32	101	1048576	50	6278
2026-01-05 22:28:04.45	359.52	20.70	-36.6	-37.5	24.5	0.00e+00	0	32	101	1048576	50	6329
2026-01-05 22:28:05.75	359.28	20.58	-36.7	-37.5	24.5	0.00e+00	0	32	101	1048576	50	6342
2026-01-05 22:28:06.47	359.15	20.52	-36.7	-37.5	24.6	0.00e+00	0	32	101	1048576	50	6348
2026-01-05 22:28:07.77	358.91	20.40	-36.6	-37.6	24.5	0.00e+00	0	32	101	1048576	50	6352
2026-01-05 22:28:08.49	358.77	20.34	-36.6	-37.5	24.6	0.00e+00	0	32	101	1048576	50	6330
2026-01-05 22:28:09.79	358.54	20.22	-36.5	-37.4	24.6	0.00e+00	0	32	101	1048576	50	6254
2026-01-05 22:28:10.51	358.40	20.15	-36.5	-37.4	24.5	0.00e+00	0	32	101	1048576	50	6274
2026-01-05 22:28:11.81	358.17	20.04	-36.6	-37.5	24.5	0.00e+00	0	32	101	1048576	50	6286
2026-01-05 22:28:12.53	358.04	19.97	-36.2	-37.1	24.7	0.00e+00	0	32	101	1048576	50	6020
2026-01-05 22:28:13.83	357.81	19.85	-36.1	-36.9	24.9	0.00e+00	0	32	101	1048576	50	5920
2026-01-05 22:28:14.55	357.68	19.79	-36.0	-36.8	25.0	0.00e+00	0	32	101	1048576	50	5847
2026-01-05 22:28:15.85	357.45	19.67	-36.0	-36.9	24.9	0.00e+00	0	32	101	1048576	50	5876
2026-01-05 22:28:16.57	357.33	19.61	-35.9	-36.8	25.1	0.00e+00	0	32	101	1048576	50	5796
2026-01-05 22:28:17.87	357.10	19.49	-35.7	-36.5	25.2	0.00e+00	0	32	101	1048576	50	5641
2026-01-05 22:28:18.59	356.97	19.43	-36.0	-36.8	25.0	0.00e+00	0	32	101	1048576	50	5826
2026-01-05 22:28:19.89	356.75	19.31	-36.1	-36.9	25.0	0.00e+00	0	32	101	1048576	50	5919
2026-01-05 22:28:20.62	356.63	19.24	-36.3	-37.2	24.7	0.00e+00	0	32	101	1048576	50	6085
2026-01-05 22:28:21.91	356.41	19.13	-36.6	-37.5	24.4	0.00e+00	0	32	101	1048576	50	6301
2026-01-05 22:28:22.64	356.28	19.06	-36.6	-37.5	24.5	0.00e+00	0	32	101	1048576	50	6320
2026-01-05 22:28:23.93	356.07	18.95	-36.7	-37.6	24.3	0.00e+00	0	32	101	1048576	50	6397
2026-01-05 22:28:24.66	355.95	18.88	-36.8	-37.7	24.3	0.00e+00	0	32	101	1048576	50	6439
2026-01-05 22:28:25.95	355.73	18.77	-36.7	-37.6	24.3	0.00e+00	0	32	101	1048576	50	6420
2026-01-05 22:28:26.68	355.61	18.70	-36.7	-37.6	24.3	0.00e+00	0	32	101	1048576	50	6396
2026-01-05 22:28:27.98	355.40	18.59	-36.5	-37.4	24.4	0.00e+00	0	32	101	1048576	50	6266
2026-01-05 22:28:28.70	355.28	18.52	-36.6	-37.5	24.4	0.00e+00	0	32	101	1048576	50	6287
2026-01-05 22:28:30.00	355.07	18.41	-36.5	-37.4	24.4	0.00e+00	0	32	101	1048576	50	6274
2026-01-05 22:28:30.72	354.95	18.34	-36.7	-37.6	24.3	0.00e+00	0	32	101	1048576	50	6390
2026-01-05 22:28:32.02	354.75	18.23	-36.7	-37.6	24.4	0.00e+00	0	32	101	1048576	50	6408
2026-01-05 22:28:32.74	354.63	18.16	-36.9	-37.8	24.3	0.00e+00	0	32	101	1048576	50	6545
2026-01-05 22:28:34.05	354.42	18.05	-36.8	-37.7	24.4	0.00e+00	0	32	101	1048576	50	6496
2026-01-05 22:28:34.77	354.31	17.98	-36.9	-37.9	24.3	0.00e+00	0	32	101	1048576	50	6584
2026-01-05 22:28:36.07	354.11	17.87	-37.0	-38.0	24.2	0.00e+00	0	32	101	1048576	50	6650
2026-01-05 22:28:36.79	354.00	17.80	-37.1	-38.0	24.1	0.00e+00	0	32	101	1048576	50	6685
2026-01-05 22:28:38.09	353.80	17.69	-37.1	-38.1	24.1	0.00e+00	0	32	101	1048576	52	6004
2026-01-05 22:28:38.81	353.69	17.62	-37.0	-38.0	24.1	0.00e+00	0	32	101	1048576	52	5950
2026-01-05 22:28:40.11	353.49	17.51	-37.1	-38.0	24.0	0.00e+00	0	32	101	1048576	52	5972
2026-01-05 22:28:40.83	353.38	17.45	-36.9	-37.8	24.2	0.00e+00	0	32	101	1048576	52	5848
2026-01-05 22:28:42.13	353.18	17.33	-37.1	-38.0	24.1	0.00e+00	0	32	101	1048576	52	5981
2026-01-05 22:28:42.85	353.07	17.27	-36.8	-37.7	24.4	0.00e+00	0	32	101	1048576	52	5765
2026-01-05 22:28:44.15	352.88	17.16	-36.7	-37.6	24.4	0.00e+00	0	32	101	1048576	52	5680
2026-01-05 22:28:44.87	352.77	17.09	-36.6	-37.5	24.4	0.00e+00	0	32	101	1048576	52	5648
2026-01-05 22:28:46.17	352.58	16.98	-36.6	-37.6	24.5	0.00e+00	0	32	101	1048576	52	5661
2026-01-05 22:28:46.89	352.48	16.92	-36.6	-37.5	24.5	0.00e+00	0	32	101	1048576	52	5618
2026-01-05 22:28:48.19	352.29	16.80	-36.9	-37.8	24.3	0.00e+00	0	32	101	1048576	52	5808
2026-01-05 22:28:48.92	352.18	16.74	-36.9	-37.8	24.3	0.00e+00	0	32	101	1048576	52	5858
2026-01-05 22:28:50.22	352.00	16.63	-37.2	-38.1	24.1	0.00e+00	0	32	101	1048576	52	6045
2026-01-05 22:28:50.94	351.89	16.56	-37.3	-38.2	24.0	0.00e+00	0	32	101	1048576	52	6108
2026-01-05 22:28:52.24	351.71	16.45	-37.4	-38.4	23.8	0.00e+00	0	32	101	1048576	52	6233
2026-01-05 22:28:52.96	351.61	16.39	-37.4	-38.3	23.8	0.00e+00	0	32	101	1048576	52	6180
2026-01-05 22:28:54.26	351.43	16.28	-37.4	-38.3	23.8	0.00e+00	0	32	101	1048576	52	6174
2026-01-05 22:28:54.98	351.33	16.21	-37.4	-38.3	23.8	0.00e+00	0	32	101	1048576	52	6181
2026-01-05 22:28:56.28	351.15	16.10	-37.1	-38.0	24.0	0.00e+00	0	32	101	1048576	52	5994
2026-01-05 22:28:57.00	351.05	16.04	-37.0	-37.9	24.1	0.00e+00	0	32	101	1048576	52	5915
2026-01-05 22:28:58.30	350.87	15.93	-36.8	-37.7	24.2	0.00e+00	0	32	101	1048576	52	5773
2026-01-05 22:28:59.02	350.77	15.87	-36.8	-37.8	24.2	0.00e+00	0	32	101	1048576	52	5799
2026-01-05 22:29:00.32	350.59	15.75	-36.8	-37.7	24.3	0.00e+00	0	32	101	1048576	52	5735
2026-01-05 22:29:01.04	350.50	15.69	-36.8	-37.7	24.3	0.00e+00	0	32	101	1048576	52	5748
2026-01-05 22:29:02.35	350.32	15.58	-36.6	-37.6	24.5	0.00e+00	0	32	101	1048576	52	5663
2026-01-05 22:29:03.07	350.23	15.52	-36.8	-37.7	24.4	0.00e+00	0	32	101	1048576	52	5735
2026-01-05 22:29:04.37	350.05	15.41	-36.9	-37.9	24.2	0.00e+00	0	32	101	1048576	52	5859
2026-01-05 22:29:05.09	349.96	15.35	-37.0	-37.9	24.2	0.00e+00	0	32	101	1048576	52	5905
2026-01-05 22:29:06.39	349.79	15.24	-37.3	-38.2	24.0	0.00e+00	0	32	101	1048576	52	6085
2026-01-05 22:29:07.11	349.70	15.18	-37.3	-38.3	23.9	0.00e+00	0	32	101	1048576	52	6137
2026-01-05 22:29:08.41	349.53	15.07	-37.4	-38.4	23.8	0.00e+00	0	32	101	1048576	52	6207
2026-01-05 22:29:09.13	349.44	15.01	-37.5	-38.5	23.7	0.00e+00	0	32	101	1048576	52	6286
2026-01-05 22:29:10.43	349.27	14.90	-37.4	-38.4	23.8	0.00e+00	0	32	101	1048576	52	6213
2026-01-05 22:29:11.15	349.18	14.83	-37.4	-38.3	23.8	0.00e+00	0	32	101	1048576	52	6185
2026-01-05 22:29:12.46	349.01	14.72	-37.2	-38.2	23.9	0.00e+00	0	32	101	1048576	52	6075
2026-01-05 22:29:13.18	348.92	14.66	-37.2	-38.2	23.9	0.00e+00	0	32	101	1048576	52	6084
2026-01-05 22:29:14.48	348.76	14.56	-37.0	-37.9	24.0	0.00e+00	0	32	101	1048576	52	5907
2026-01-05 22:29:15.20	348.67	14.50	-36.9	-37.8	24.1	0.00e+00	0	32	101	1048576	52	5831
2026-01-05 22:29:16.50	348.51	14.39	-37.0	-37.9	24.1	0.00e+00	0	32	101	1048576	52	5894
2026-01-05 22:29:17.22	348.43	14.33	-36.9	-37.8	24.1	0.00e+00	0	32	101	1048576	52	5847
2026-01-05 22:29:18.52	348.27	14.22	-36.8	-37.8	24.2	0.00e+00	0	32	101	1048576	52	5804
2026-01-05 22:29:19.24	348.18	14.16	-36.7	-37.6	24.3	0.00e+00	0	32	101	1048576	52	5715
2026-01-05 22:29:20.54	348.02	14.05	-36.7	-37.6	24.3	0.00e+00	0	32	101	1048576	52	5712
2026-01-05 22:29:21.27	347.94	13.99	-37.0	-37.9	24.1	0.00e+00	0	32	101	1048576	52	5879
2026-01-05 22:29:22.57	347.78	13.88	-37.0	-38.0	24.0	0.00e+00	0	32	101	1048576	52	5928
2026-01-05 22:29:23.29	347.70	13.83	-37.2	-38.1	23.9	0.00e+00	0	32	101	1048576	52	6040
2026-01-05 22:29:24.59	347.54	13.72	-37.2	-38.1	24.0	0.00e+00	0	32	101	1048576	52	6033
2026-01-05 22:29:25.31	347.46	13.66	-37.3	-38.2	23.9	0.00e+00	0	32	101	1048576	52	6119
2026-01-05 22:29:26.61	347.31	13.55	-37.5	-38.5	23.8	0.00e+00	0	32	101	1048576	52	6287
2026-01-05 22:29:27.33	347.23	13.49	-37.6	-38.5	23.6	0.00e+00	0	32	101	1048576	52	6332
2026-01-05 22:29:28.63	347.08	13.39	-37.8	-38.8	23.4	0.00e+00	0	32	101	1048576	52	6504
2026-01-05 22:29:29.35	346.99	13.33	-37.9	-38.9	23.4	0.00e+00	0	32	101	1048576	52	6587
2026-01-05 22:29:30.65	346.85	13.22	-38.0	-39.0	23.2	0.00e+00	0	32	101	1048576	52	6660
2026-01-05 22:29:31.38	346.76	13.17	-37.9	-38.9	23.3	0.00e+00	0	32	101	1048576	52	6616
2026-01-05 22:29:32.68	346.62	13.06	-37.9	-38.9	23.2	0.00e+00	0	32	101	1048576	52	6582
2026-01-05 22:29:33.40	346.54	13.00	-37.8	-38.8	23.2	0.00e+00	0	32	101	1048576	52	6553
2026-01-05 22:29:34.70	346.39	12.90	-37.9	-38.8	23.2	0.00e+00	0	32	101	1048576	52	6572
2026-01-05 22:29:35.42	346.31	12.84	-37.9	-38.9	23.2	0.00e+00	0	32	101	1048576	52	6586
2026-01-05 22:29:36.72	346.17	12.74	-37.5	-38.5	23.5	0.00e+00	0	32	101	1048576	52	6289
2026-01-05 22:29:37.44	346.09	12.68	-37.5	-38.4	23.6	0.00e+00	0	32	101	1048576	52	6273
2026-01-05 22:29:38.74	345.95	12.57	-37.5	-38.4	23.6	0.00e+00	0	32	101	1048576	52	6243
2026-01-05 22:29:39.46	345.87	12.52	-37.4	-38.3	23.7	0.00e+00	0	32	101	1048576	52	6199
2026-01-05 22:29:40.76	345.73	12.41	-37.5	-38.4	23.7	0.00e+00	0	32	101	1048576	52	6253
2026-01-05 22:29:41.49	345.66	12.35	-37.5	-38.4	23.6	0.00e+00	0	32	101	1048576	52	6263
2026-01-05 22:29:42.79	345.52	12.25	-37.6	-38.5	23.5	0.00e+00	0	32	101	1048576	52	6324
2026-01-05 22:29:43.51	345.44	12.19	-37.7	-38.6	23.5	0.00e+00	0	32	101	1048576	52	6405
2026-01-05 22:29:44.81	345.31	12.09	-37.7	-38.7	23.4	0.00e+00	0	32	101	1048576	52	6465
2026-01-05 22:29:45.53	345.23	12.04	-38.0	-38.9	23.3	0.00e+00	0	32	101	1048576	52	6649
2026-01-05 22:29:46.83	345.10	11.93	-38.0	-38.9	23.2	0.00e+00	0	32	101	1048576	52	6648
2026-01-05 22:29:47.55	345.02	11.88	-38.1	-39.1	23.0	0.00e+00	0	32	101	1048576	54	6056
2026-01-05 22:29:48.85	344.89	11.77	-38.2	-39.2	23.0	0.00e+00	0	32	101	1048576	54	6095
2026-01-05 22:29:49.58	344.81	11.72	-38.3	-39.3	23.0	0.00e+00	0	32	101	1048576	54	6145
2026-01-05 22:29:50.88	344.68	11.62	-38.4	-39.5	22.8	0.00e+00	0	32	101	1048576	54	6286
2026-01-05 22:29:51.60	344.61	11.56	-38.5	-39.5	22.8	0.00e+00	0	32	101	1048576	54	6296
2026-01-05 22:29:52.90	344.48	11.46	-38.6	-39.7	22.6	0.00e+00	0	32	101	1048576	54	6433
2026-01-05 22:29:53.62	344.41	11.40	-38.6	-39.6	22.6	0.00e+00	0	32	101	1048576	54	6388
2026-01-05 22:29:54.92	344.28	11.30	-38.7	-39.8	22.5	0.00e+00	0	32	101	1048576	54	6503
2026-01-05 22:29:55.64	344.21	11.25	-38.8	-39.8	22.5	0.00e+00	0	32	101	1048576	54	6540
2026-01-05 22:29:56.94	344.08	11.15	-38.5	-39.6	22.6	0.00e+00	0	32	101	1048576	54	6356
2026-01-05 22:29:57.67	344.01	11.09	-38.6	-39.6	22.6	0.00e+00	0	32	101	1048576	54	6389
2026-01-05 22:29:58.96	343.88	10.99	-38.5	-39.5	22.6	0.00e+00	0	32	101	1048576	54	6334
2026-01-05 22:29:59.69	343.81	10.94	-38.4	-39.4	22.8	0.00e+00	0	32	101	1048576	54	6229
2026-01-05 22:30:00.99	343.69	10.84	-38.4	-39.4	22.7	0.00e+00	0	32	101	1048576	54	6221
2026-01-05 22:30:01.71	343.62	10.78	-38.3	-39.3	22.8	0.00e+00	0	32	101	1048576	54	6150
2026-01-05 22:30:03.01	343.50	10.68	-38.3	-39.3	22.8	0.00e+00	0	32	101	1048576	54	6191
2026-01-05 22:30:03.73	343.43	10.63	-38.2	-39.3	22.9	0.00e+00	0	32	101	1048576	54	6135
2026-01-05 22:30:05.03	343.31	10.53	-38.3	-39.3	22.8	0.00e+00	0	32	101	1048576	54	6188
2026-01-05 22:30:05.75	343.24	10.48	-38.3	-39.3	22.8	0.00e+00	0	32	101	1048576	54	6168
2026-01-05 22:30:07.05	343.12	10.38	-38.4	-39.4	22.7	0.00e+00	0	32	101	1048576	54	6259
2026-01-05 22:30:07.77	343.05	10.32	-38.5	-39.5	22.7	0.00e+00	0	32	101	1048576	54	6299
2026-01-05 22:30:09.07	342.93	10.23	-38.4	-39.4	22.7	0.00e+00	0	32	101	1048576	54	6213
