passes_logs/2026/01/05/R4.6S_Anadyr_2ch/R4.6S_Anadyr_2ch__20260105_051347_FENGYUN_3E_rec.log

#Pass ID: 20260105_051347_FENGYUN 3E
#Satellite: FENGYUN 3E
#Configuration: FENGYUN 3E
#almurnet v.1.7.20251203
#Start time: 2026-01-05 05:13:50

#Version: 2.2.20231116
#Station: R4.6S_Anadyr_2ch
#Location: 177.4865 lon 64.73178 lat
#TLE: 1 49008U 21062A   25350.97288215  .00000176  00000+0  10353-3 0  9997
#TLE: 2 49008  98.7477 351.4440 0000638 234.3856 125.7261 14.19881381230726

#Time	Az	El	Level	Level2	SNR	BER	BlckErr	Temp	State	Recorded	gain1	gain2
2026-01-05 05:13:50.36	174.77	0.15	-51.6	-69.6	3.5	3.04e+01	0	21	0	0	60	156775
2026-01-05 05:13:51.36	174.79	0.21	-51.6	-63.0	3.6	8.45e-01	0	22	104	0	60	70003
2026-01-05 05:13:52.37	174.82	0.27	-51.9	-63.4	3.6	8.44e-01	0	22	104	0	60	73267
2026-01-05 05:13:53.38	174.84	0.33	-52.0	-63.7	3.6	8.45e-01	0	22	104	0	60	75919
2026-01-05 05:13:54.39	174.87	0.39	-51.6	-63.2	3.6	8.43e-01	0	22	104	0	60	71634
2026-01-05 05:13:55.41	174.90	0.45	-51.2	-63.1	3.6	8.44e-01	0	22	104	0	60	70689
2026-01-05 05:13:56.42	174.92	0.51	-51.9	-63.6	3.6	8.45e-01	0	22	104	0	60	74624
2026-01-05 05:13:57.43	174.95	0.58	-51.2	-62.9	3.6	8.45e-01	0	22	104	0	60	69128
2026-01-05 05:13:58.44	174.98	0.64	-51.0	-63.0	3.6	8.45e-01	0	22	104	0	60	70038
2026-01-05 05:13:59.45	175.00	0.70	-50.7	-62.8	3.6	8.45e-01	0	22	104	0	60	68215
2026-01-05 05:14:00.46	175.03	0.76	-50.8	-62.9	3.6	8.46e-01	0	22	104	0	60	69017
2026-01-05 05:14:01.47	175.05	0.82	-50.6	-62.8	3.6	8.46e-01	0	23	104	0	60	68193
2026-01-05 05:14:02.48	175.08	0.88	-50.5	-62.7	3.6	8.45e-01	0	22	104	0	60	67083
2026-01-05 05:14:03.49	175.11	0.94	-49.9	-62.5	3.6	8.45e-01	0	22	104	0	60	65980
2026-01-05 05:14:04.51	175.14	1.00	-49.8	-62.4	3.6	8.45e-01	0	22	104	0	60	64737
2026-01-05 05:14:05.52	175.16	1.06	-49.9	-62.2	3.6	8.45e-01	0	23	104	0	60	63580
2026-01-05 05:14:06.53	175.19	1.13	-49.8	-62.0	3.6	8.45e-01	0	22	104	0	60	61841
2026-01-05 05:14:07.54	175.22	1.19	-49.8	-61.8	3.6	8.46e-01	0	23	104	0	60	60857
2026-01-05 05:14:08.55	175.24	1.25	-49.8	-61.6	3.6	8.45e-01	0	23	104	0	60	59158
2026-01-05 05:14:09.56	175.27	1.31	-49.1	-61.0	3.6	8.44e-01	0	23	104	0	60	55220
2026-01-05 05:14:10.57	175.30	1.37	-49.1	-60.8	3.6	8.44e-01	0	23	104	0	60	54207
2026-01-05 05:14:11.58	175.33	1.44	-49.1	-60.9	3.6	8.45e-01	0	23	104	0	60	54856
2026-01-05 05:14:12.59	175.35	1.50	-49.4	-61.1	3.6	8.45e-01	0	23	104	0	60	56052
2026-01-05 05:14:13.60	175.38	1.56	-49.4	-61.2	3.6	8.45e-01	0	23	104	0	60	56900
2026-01-05 05:14:14.62	175.41	1.62	-50.1	-61.9	3.6	8.46e-01	0	23	104	0	60	61332
2026-01-05 05:14:15.63	175.44	1.69	-49.9	-61.7	3.6	8.46e-01	0	23	104	0	60	59896
2026-01-05 05:14:16.64	175.46	1.75	-50.3	-62.1	3.6	8.45e-01	0	23	104	0	60	62955
2026-01-05 05:14:17.65	175.49	1.81	-50.0	-61.9	3.6	8.45e-01	0	23	104	0	60	61359
2026-01-05 05:14:18.66	175.52	1.88	-49.3	-61.2	3.6	8.45e-01	0	23	104	0	60	56681
2026-01-05 05:14:19.67	175.55	1.94	-49.4	-61.2	3.6	8.45e-01	0	23	104	0	60	56340
2026-01-05 05:14:20.68	175.58	2.00	-49.2	-61.0	3.6	8.46e-01	0	23	104	0	60	55565
2026-01-05 05:14:21.69	175.61	2.07	-49.1	-61.0	3.6	8.46e-01	0	23	104	0	60	55249
2026-01-05 05:14:22.70	175.64	2.13	-49.1	-60.9	3.6	8.46e-01	0	23	104	0	60	54748
2026-01-05 05:14:23.71	175.66	2.20	-49.0	-60.8	3.6	8.45e-01	0	23	104	0	60	54081
2026-01-05 05:14:24.72	175.69	2.26	-49.0	-60.7	3.6	8.45e-01	0	23	104	0	60	53684
2026-01-05 05:14:25.73	175.72	2.32	-49.0	-60.6	3.6	8.45e-01	0	23	104	0	60	52801
2026-01-05 05:14:26.74	175.75	2.39	-49.0	-60.5	3.6	8.45e-01	0	23	104	0	60	52426
2026-01-05 05:14:27.75	175.78	2.45	-49.0	-60.4	3.6	8.45e-01	0	23	104	0	60	51819
2026-01-05 05:14:28.76	175.81	2.52	-49.0	-60.5	3.6	8.45e-01	0	23	104	0	60	52446
2026-01-05 05:14:29.77	175.84	2.58	-49.0	-60.8	3.6	8.46e-01	0	23	104	0	60	53894
2026-01-05 05:14:30.79	175.87	2.65	-49.0	-60.7	3.6	8.45e-01	0	23	104	0	60	53653
2026-01-05 05:14:31.80	175.90	2.71	-49.2	-60.8	3.6	8.44e-01	0	23	104	0	60	54013
2026-01-05 05:14:32.81	175.93	2.78	-49.4	-60.2	3.6	8.47e-01	0	23	104	0	60	50258
2026-01-05 05:14:33.82	175.96	2.84	-49.2	-59.0	3.6	8.44e-01	0	23	104	0	60	44113
2026-01-05 05:14:34.83	175.99	2.91	-49.1	-58.3	3.7	8.42e-01	0	23	104	0	60	40722
2026-01-05 05:14:35.84	176.02	2.97	-49.0	-58.7	3.8	8.43e-01	0	23	104	0	60	42515
2026-01-05 05:14:36.85	176.05	3.04	-49.1	-58.9	3.8	8.43e-01	0	23	104	0	60	43359
2026-01-05 05:14:37.86	176.08	3.11	-49.0	-59.8	3.6	8.45e-01	0	23	104	0	60	48352
2026-01-05 05:14:38.87	176.11	3.17	-49.2	-60.8	3.6	8.45e-01	0	23	104	0	60	53888
2026-01-05 05:14:39.89	176.14	3.24	-48.6	-56.6	4.2	8.34e-01	0	23	104	0	60	33487
2026-01-05 05:14:40.90	176.17	3.31	-47.8	-52.3	6.3	2.58e-01	0	23	0	2097152	60	20407
2026-01-05 05:14:41.91	176.20	3.37	-46.3	-49.1	10.9	4.97e-03	0	23	0	9437184	60	14085
2026-01-05 05:14:42.92	176.23	3.44	-43.6	-45.2	15.2	0.00e+00	0	23	0	16777216	60	8937
2026-01-05 05:14:43.93	176.27	3.51	-42.7	-44.0	16.6	0.00e+00	0	23	0	24117248	60	7837
2026-01-05 05:14:44.94	176.30	3.57	-41.3	-42.4	18.1	0.00e+00	0	23	0	31457280	60	6475
2026-01-05 05:14:45.95	176.33	3.64	-39.2	-40.1	20.3	0.00e+00	0	23	0	38797312	58	5568
2026-01-05 05:14:46.96	176.36	3.71	-38.3	-39.0	21.0	0.00e+00	0	23	0	46137344	56	5527
2026-01-05 05:14:47.97	176.39	3.77	-37.6	-38.3	21.8	0.00e+00	0	23	0	53477376	54	5724
2026-01-05 05:14:48.98	176.42	3.84	-37.2	-37.8	22.2	0.00e+00	0	23	0	60817408	52	6097
2026-01-05 05:14:49.99	176.45	3.91	-37.1	-37.7	22.3	0.00e+00	0	23	0	68157440	52	6023
2026-01-05 05:14:51.00	176.49	3.98	-39.9	-40.7	18.4	0.00e+00	0	23	0	75497472	56	6769
2026-01-05 05:14:52.01	176.52	4.05	-45.0	-46.9	12.8	5.14e-05	0	23	0	82837504	60	10950
2026-01-05 05:14:53.02	176.55	4.11	-47.2	-51.0	7.0	0.00e+00	0	23	0	90177536	60	17532
2026-01-05 05:14:54.03	176.58	4.18	-48.6	-54.0	6.1	1.60e-01	0	23	0	97517568	60	24590
2026-01-05 05:14:55.05	176.62	4.25	-42.4	-43.5	16.6	0.00e+00	0	23	0	104857600	60	7411
2026-01-05 05:14:56.06	176.65	4.32	-39.2	-40.0	20.8	0.00e+00	0	23	0	112197632	58	5516
2026-01-05 05:14:57.07	176.68	4.39	-39.8	-40.6	20.5	0.00e+00	0	23	0	118489088	56	6619
2026-01-05 05:14:58.08	176.72	4.46	-39.6	-40.4	19.7	0.00e+00	0	23	0	126877696	56	6530
2026-01-05 05:14:59.09	176.75	4.53	-39.7	-40.6	20.4	0.00e+00	0	23	0	134217728	56	6623
2026-01-05 05:15:00.10	176.78	4.60	-39.5	-40.4	20.1	0.00e+00	0	23	0	140509184	56	6494
2026-01-05 05:15:01.11	176.82	4.67	-38.8	-39.5	21.0	0.00e+00	0	23	0	147849216	56	5881
2026-01-05 05:15:02.12	176.85	4.74	-38.2	-39.0	21.2	0.00e+00	0	23	0	155189248	56	5523
2026-01-05 05:15:03.13	176.88	4.81	-38.7	-39.5	20.5	0.00e+00	0	23	0	162529280	54	6606
2026-01-05 05:15:04.14	176.92	4.88	-38.8	-39.6	20.5	0.00e+00	0	23	0	169869312	54	6625
2026-01-05 05:15:05.15	176.95	4.95	-38.2	-38.9	21.0	0.00e+00	0	23	0	177209344	54	6139
2026-01-05 05:15:06.17	176.99	5.02	-38.3	-39.0	20.8	0.00e+00	0	23	0	184549376	54	6240
2026-01-05 05:15:07.18	177.02	5.09	-38.0	-38.7	21.3	0.00e+00	0	23	0	191889408	54	6023
2026-01-05 05:15:08.19	177.05	5.16	-38.0	-38.8	21.3	0.00e+00	0	23	0	199229440	54	6045
2026-01-05 05:15:09.20	177.09	5.23	-37.1	-37.7	22.3	0.00e+00	0	23	0	206569472	54	5373
2026-01-05 05:15:10.21	177.12	5.30	-37.1	-37.8	22.0	0.00e+00	0	23	0	213909504	52	6093
2026-01-05 05:15:11.22	177.16	5.38	-37.9	-38.6	21.8	0.00e+00	0	23	0	221249536	52	6631
2026-01-05 05:15:12.23	177.19	5.45	-38.0	-38.6	21.4	0.00e+00	0	23	0	228589568	54	5962
2026-01-05 05:15:13.24	177.23	5.52	-37.8	-38.5	21.5	0.00e+00	0	23	0	235929600	54	5883
2026-01-05 05:15:14.25	177.26	5.59	-37.9	-38.6	21.4	0.00e+00	0	23	0	243269632	54	5937
2026-01-05 05:15:15.27	177.30	5.66	-37.9	-38.6	21.6	0.00e+00	0	23	0	250609664	54	5910
2026-01-05 05:15:16.28	177.34	5.74	-38.0	-38.7	21.5	0.00e+00	0	23	0	257949696	54	6019
2026-01-05 05:15:17.29	177.37	5.81	-38.3	-39.0	21.3	0.00e+00	0	23	0	265289728	54	6218
2026-01-05 05:15:18.30	177.41	5.88	-38.7	-39.4	21.4	0.00e+00	0	23	0	272629760	54	6538
2026-01-05 05:15:19.31	177.44	5.95	-38.4	-39.1	21.3	0.00e+00	0	23	0	279969792	54	6297
2026-01-05 05:15:20.32	177.48	6.03	-36.9	-37.6	22.5	0.00e+00	0	23	0	287309824	52	5937
2026-01-05 05:15:21.33	177.52	6.10	-37.1	-37.8	22.7	0.00e+00	0	23	0	294649856	52	6041
2026-01-05 05:15:22.34	177.55	6.18	-37.0	-37.6	22.7	0.00e+00	0	23	0	301989888	52	5931
2026-01-05 05:15:23.35	177.59	6.25	-37.0	-37.7	22.8	0.00e+00	0	23	0	308281344	52	5984
2026-01-05 05:15:24.36	177.63	6.32	-37.3	-37.9	22.7	0.00e+00	0	23	0	315621376	52	6118
2026-01-05 05:15:25.38	177.67	6.40	-37.4	-38.0	22.9	0.00e+00	0	23	0	324009984	52	6217
2026-01-05 05:15:26.39	177.70	6.47	-37.1	-37.7	23.4	0.00e+00	0	23	0	330301440	52	5984
2026-01-05 05:15:27.40	177.74	6.55	-36.9	-37.5	23.4	0.00e+00	0	23	0	337641472	52	5892
2026-01-05 05:15:28.41	177.78	6.62	-36.4	-37.0	23.8	0.00e+00	0	23	0	344981504	52	5518
2026-01-05 05:15:29.42	177.82	6.70	-36.2	-36.8	23.7	0.00e+00	0	23	0	352321536	52	5432
2026-01-05 05:15:30.43	177.86	6.77	-36.3	-36.9	23.5	0.00e+00	0	23	0	359661568	50	6136
2026-01-05 05:15:31.44	177.89	6.85	-36.0	-36.6	23.9	0.00e+00	0	23	0	367001600	50	5919
2026-01-05 05:15:32.45	177.93	6.92	-36.0	-36.6	24.1	0.00e+00	0	23	0	374341632	50	5909
2026-01-05 05:15:33.46	177.97	7.00	-36.1	-36.7	23.8	0.00e+00	0	23	0	381681664	50	6004
2026-01-05 05:15:34.47	178.01	7.08	-35.9	-36.5	24.1	0.00e+00	0	23	0	389021696	50	5843
2026-01-05 05:15:35.49	178.05	7.15	-36.1	-36.7	23.8	0.00e+00	0	23	0	396361728	50	6016
2026-01-05 05:15:36.49	178.09	7.23	-35.8	-36.3	23.9	0.00e+00	0	23	0	403701760	50	5758
2026-01-05 05:15:37.51	178.13	7.31	-35.8	-36.4	24.0	0.00e+00	0	23	0	411041792	50	5802
2026-01-05 05:15:38.52	178.17	7.38	-35.9	-36.5	24.1	0.00e+00	0	23	0	418381824	50	5846
2026-01-05 05:15:39.53	178.21	7.46	-35.7	-36.3	24.2	0.00e+00	0	23	0	425721856	50	5700
2026-01-05 05:15:40.54	178.25	7.54	-35.9	-36.5	24.2	0.00e+00	0	23	0	433061888	50	5847
2026-01-05 05:15:41.55	178.29	7.62	-35.7	-36.3	24.2	0.00e+00	0	23	0	440401920	50	5706
2026-01-05 05:15:42.56	178.33	7.69	-35.4	-36.0	24.3	0.00e+00	0	23	0	447741952	50	5518
2026-01-05 05:15:43.57	178.37	7.77	-35.6	-36.2	24.1	0.00e+00	0	23	0	455081984	50	5656
2026-01-05 05:15:44.58	178.41	7.85	-35.7	-36.2	24.0	0.00e+00	0	23	0	462422016	50	5691
2026-01-05 05:15:45.60	178.45	7.93	-35.6	-36.2	24.1	0.00e+00	0	23	0	469762048	50	5649
2026-01-05 05:15:46.61	178.49	8.01	-35.3	-35.9	24.4	0.00e+00	0	23	0	477102080	50	5462
2026-01-05 05:15:47.62	178.53	8.09	-35.5	-36.1	24.3	0.00e+00	0	23	0	483393536	50	5572
2026-01-05 05:15:48.63	178.57	8.17	-35.5	-36.0	24.4	0.00e+00	0	23	0	491782144	50	5547
2026-01-05 05:15:49.64	178.62	8.25	-35.8	-36.4	23.9	0.00e+00	0	23	0	499122176	50	5796
2026-01-05 05:15:50.65	178.66	8.33	-36.1	-36.6	24.0	0.00e+00	0	23	0	505413632	50	5958
2026-01-05 05:15:51.66	178.70	8.41	-35.3	-35.9	24.5	0.00e+00	0	23	0	512753664	50	5443
2026-01-05 05:15:52.67	178.74	8.49	-35.4	-36.0	24.7	0.00e+00	0	23	0	521142272	50	5514
2026-01-05 05:15:53.68	178.79	8.57	-35.3	-35.8	24.9	0.00e+00	0	23	0	527433728	50	5423
2026-01-05 05:15:54.70	178.83	8.65	-35.5	-36.0	24.8	0.00e+00	0	23	0	534773760	50	5562
2026-01-05 05:15:55.71	178.87	8.73	-35.6	-36.1	24.8	0.00e+00	0	23	0	542113792	50	5604
2026-01-05 05:15:56.72	178.92	8.81	-35.8	-36.3	24.7	0.00e+00	0	23	0	549453824	50	5752
2026-01-05 05:15:57.73	178.96	8.89	-35.3	-35.8	24.8	0.00e+00	0	23	0	556793856	50	5420
2026-01-05 05:15:58.74	179.00	8.97	-35.7	-36.2	24.5	0.00e+00	0	23	0	564133888	50	5693
2026-01-05 05:15:59.75	179.05	9.06	-35.3	-35.8	24.8	0.00e+00	0	23	0	571473920	50	5382
2026-01-05 05:16:00.76	179.09	9.14	-35.2	-35.8	24.8	0.00e+00	0	23	0	578813952	48	6038
2026-01-05 05:16:01.77	179.14	9.22	-35.1	-35.7	25.1	0.00e+00	0	23	0	586153984	48	5981
2026-01-05 05:16:02.78	179.18	9.30	-34.8	-35.3	25.0	0.00e+00	0	23	0	593494016	48	5732
2026-01-05 05:16:03.79	179.23	9.39	-34.5	-35.0	25.2	0.00e+00	0	23	0	600834048	48	5561
2026-01-05 05:16:04.80	179.27	9.47	-34.5	-35.0	25.1	0.00e+00	0	23	0	608174080	48	5532
2026-01-05 05:16:05.82	179.32	9.55	-34.5	-35.0	25.1	0.00e+00	0	23	0	615514112	48	5560
2026-01-05 05:16:06.83	179.36	9.64	-34.8	-35.3	25.1	0.00e+00	0	23	0	622854144	48	5728
2026-01-05 05:16:07.84	179.41	9.72	-34.7	-35.2	25.2	0.00e+00	0	23	0	630194176	48	5636
2026-01-05 05:16:08.85	179.45	9.81	-34.8	-35.3	25.0	0.00e+00	0	23	0	637534208	48	5729
2026-01-05 05:16:09.86	179.50	9.89	-34.5	-35.0	25.3	0.00e+00	0	23	0	644874240	48	5552
2026-01-05 05:16:10.87	179.55	9.98	-34.4	-34.9	25.4	0.00e+00	0	23	0	652214272	48	5471
2026-01-05 05:16:11.88	179.59	10.06	-34.5	-35.0	25.3	0.00e+00	0	23	0	659554304	48	5512
2026-01-05 05:16:12.89	179.64	10.15	-34.4	-35.0	25.2	0.00e+00	0	23	0	666894336	48	5510
2026-01-05 05:16:13.90	179.69	10.23	-34.2	-34.7	25.6	0.00e+00	0	23	0	673185792	48	5372
2026-01-05 05:16:14.91	179.74	10.32	-34.7	-35.2	25.2	0.00e+00	0	23	0	680525824	46	6384
2026-01-05 05:16:15.93	179.78	10.41	-34.6	-35.1	25.3	0.00e+00	0	23	0	688914432	46	6265
2026-01-05 05:16:16.94	179.83	10.49	-34.4	-35.0	25.3	0.00e+00	0	23	0	695205888	46	6182
2026-01-05 05:16:17.95	179.88	10.58	-34.3	-34.9	25.5	0.00e+00	0	23	0	702545920	46	6111
2026-01-05 05:16:18.96	179.93	10.67	-34.6	-35.1	25.5	0.00e+00	0	23	0	709885952	46	6256
2026-01-05 05:16:19.97	179.98	10.76	-34.6	-35.1	25.4	0.00e+00	0	23	0	717225984	46	6284
2026-01-05 05:16:20.98	180.03	10.84	-34.6	-35.2	25.3	0.00e+00	0	24	0	724566016	46	6339
2026-01-05 05:16:21.99	180.08	10.93	-34.8	-35.3	25.3	0.00e+00	0	23	0	731906048	46	6424
2026-01-05 05:16:23.00	180.13	11.02	-35.1	-35.6	25.3	0.00e+00	0	23	0	739246080	48	5915
2026-01-05 05:16:24.01	180.18	11.11	-35.0	-35.5	25.2	0.00e+00	0	23	0	746586112	48	5873
2026-01-05 05:16:25.03	180.23	11.20	-34.3	-34.8	25.5	0.00e+00	0	23	0	753926144	48	5437
2026-01-05 05:16:26.04	180.28	11.29	-34.6	-35.2	25.3	0.00e+00	0	24	0	761266176	48	5642
2026-01-05 05:16:27.05	180.33	11.38	-34.6	-35.1	25.3	0.00e+00	0	24	0	768606208	48	5615
2026-01-05 05:16:28.06	180.38	11.47	-34.5	-35.0	25.4	0.00e+00	0	23	0	775946240	48	5530
2026-01-05 05:16:29.07	180.43	11.56	-34.5	-35.0	25.5	0.00e+00	0	23	0	783286272	48	5546
2026-01-05 05:16:30.08	180.49	11.65	-34.3	-34.8	25.4	0.00e+00	0	23	0	790626304	48	5433
2026-01-05 05:16:31.09	180.54	11.74	-34.2	-34.8	25.5	0.00e+00	0	23	0	797966336	48	5395
2026-01-05 05:16:32.10	180.59	11.83	-34.4	-35.0	25.4	0.00e+00	0	23	0	805306368	48	5512
2026-01-05 05:16:33.11	180.64	11.92	-34.4	-34.9	25.4	0.00e+00	0	23	0	812646400	48	5495
2026-01-05 05:16:34.12	180.70	12.01	-34.1	-34.7	25.5	0.00e+00	0	23	0	819986432	48	5329
2026-01-05 05:16:35.14	180.75	12.11	-34.3	-34.8	25.3	0.00e+00	0	23	0	827326464	48	5412
2026-01-05 05:16:36.15	180.80	12.20	-34.3	-34.9	25.5	0.00e+00	0	23	0	834666496	48	5458
2026-01-05 05:16:37.16	180.86	12.29	-34.4	-35.0	25.4	0.00e+00	0	23	0	842006528	48	5528
2026-01-05 05:16:38.17	180.91	12.39	-34.4	-35.0	25.3	0.00e+00	0	23	0	848297984	48	5533
2026-01-05 05:16:39.18	180.97	12.48	-34.5	-35.1	25.3	0.00e+00	0	23	0	856686592	48	5579
2026-01-05 05:16:40.19	181.02	12.57	-34.6	-35.1	25.3	0.00e+00	0	23	0	864026624	48	5601
2026-01-05 05:16:41.20	181.08	12.67	-34.4	-35.0	25.3	0.00e+00	0	23	0	870318080	48	5513
2026-01-05 05:16:42.21	181.13	12.76	-34.4	-34.9	25.4	0.00e+00	0	23	0	877658112	48	5479
2026-01-05 05:16:43.22	181.19	12.86	-34.2	-34.7	25.5	0.00e+00	0	23	0	886046720	48	5345
2026-01-05 05:16:44.24	181.24	12.95	-34.1	-34.7	25.6	0.00e+00	0	23	0	892338176	48	5344
2026-01-05 05:16:45.25	181.30	13.05	-33.8	-34.3	25.8	0.00e+00	0	23	0	899678208	46	5745
2026-01-05 05:16:46.26	181.36	13.15	-33.9	-34.4	25.7	0.00e+00	0	23	0	907018240	46	5797
2026-01-05 05:16:47.27	181.42	13.24	-34.2	-34.8	25.5	0.00e+00	0	24	0	914358272	46	6057
2026-01-05 05:16:48.28	181.47	13.34	-34.0	-34.6	25.7	0.00e+00	0	23	0	921698304	46	5923
2026-01-05 05:16:49.29	181.53	13.44	-34.2	-34.7	25.8	0.00e+00	0	24	0	929038336	46	6007
2026-01-05 05:16:50.30	181.59	13.53	-34.0	-34.5	25.6	0.00e+00	0	24	0	936378368	46	5886
2026-01-05 05:16:51.31	181.65	13.63	-34.0	-34.6	25.8	0.00e+00	0	23	0	943718400	46	5900
2026-01-05 05:16:52.32	181.71	13.73	-33.6	-34.2	26.0	0.00e+00	0	23	0	951058432	46	5639
2026-01-05 05:16:53.34	181.77	13.83	-33.8	-34.3	26.0	0.00e+00	0	23	0	958398464	46	5755
2026-01-05 05:16:54.35	181.83	13.93	-33.6	-34.2	26.0	0.00e+00	0	23	0	965738496	46	5632
2026-01-05 05:16:55.36	181.89	14.03	-33.6	-34.1	26.1	0.00e+00	0	23	0	973078528	46	5628
2026-01-05 05:16:56.37	181.95	14.13	-33.5	-34.0	26.1	0.00e+00	0	23	0	980418560	46	5543
2026-01-05 05:16:57.38	182.01	14.23	-33.5	-34.0	26.2	0.00e+00	0	23	0	987758592	46	5551
2026-01-05 05:16:58.39	182.07	14.33	-33.4	-33.9	26.2	0.00e+00	0	24	0	995098624	46	5460
2026-01-05 05:16:59.40	182.13	14.43	-33.6	-34.1	26.0	0.00e+00	0	23	0	1002438656	46	5610
2026-01-05 05:17:00.41	182.19	14.53	-33.6	-34.1	26.1	0.00e+00	0	23	0	1009778688	46	5603
2026-01-05 05:17:01.42	182.26	14.63	-33.7	-34.2	26.1	0.00e+00	0	23	0	1017118720	46	5671
2026-01-05 05:17:02.43	182.32	14.73	-33.3	-33.8	26.3	0.00e+00	0	24	0	1024458752	46	5426
2026-01-05 05:17:03.44	182.38	14.84	-33.4	-33.9	26.4	0.00e+00	0	23	0	1031798784	46	5477
2026-01-05 05:17:04.46	182.45	14.94	-33.3	-33.8	26.4	0.00e+00	0	23	0	1038090240	46	5439
2026-01-05 05:17:05.47	182.51	15.04	-33.4	-33.9	26.4	0.00e+00	0	23	0	1045430272	46	5481
2026-01-05 05:17:06.48	182.58	15.15	-33.5	-34.0	26.3	0.00e+00	0	23	0	1053818880	46	5510
2026-01-05 05:17:07.49	182.64	15.25	-33.6	-34.1	26.2	0.00e+00	0	23	0	1060110336	46	5585
2026-01-05 05:17:08.50	182.71	15.35	-33.3	-33.8	26.4	0.00e+00	0	24	0	1067450368	46	5392
2026-01-05 05:17:09.51	182.77	15.46	-33.3	-33.8	26.4	0.00e+00	0	23	0	1074790400	46	5428
2026-01-05 05:17:10.52	182.84	15.56	-33.3	-33.8	26.4	0.00e+00	0	23	0	1082130432	46	5425
2026-01-05 05:17:11.53	182.91	15.67	-33.0	-33.5	26.7	0.00e+00	0	23	0	1089470464	46	5203
2026-01-05 05:17:12.54	182.97	15.78	-33.4	-33.9	26.3	0.00e+00	0	23	0	1096810496	44	6169
2026-01-05 05:17:13.55	183.04	15.88	-33.2	-33.7	26.5	0.00e+00	0	23	0	1104150528	44	6016
2026-01-05 05:17:14.56	183.11	15.99	-33.1	-33.6	26.6	0.00e+00	0	23	0	1111490560	44	5920
2026-01-05 05:17:15.58	183.18	16.10	-33.1	-33.6	26.6	0.00e+00	0	23	0	1118830592	44	5913
2026-01-05 05:17:16.59	183.25	16.21	-33.3	-33.8	26.7	0.00e+00	0	24	0	1126170624	44	6044
2026-01-05 05:17:17.60	183.32	16.32	-33.0	-33.5	26.7	0.00e+00	0	24	0	1133510656	44	5880
2026-01-05 05:17:18.61	183.39	16.42	-34.2	-34.7	26.5	0.00e+00	0	23	0	1140850688	46	6003
2026-01-05 05:17:19.62	183.46	16.53	-33.6	-34.1	26.8	0.00e+00	0	24	0	1148190720	46	5613
2026-01-05 05:17:20.63	183.53	16.64	-33.7	-34.2	26.7	0.00e+00	0	24	0	1155530752	46	5688
2026-01-05 05:17:21.64	183.60	16.75	-33.8	-34.3	26.4	0.00e+00	0	24	0	1162870784	46	5726
2026-01-05 05:17:22.65	183.67	16.86	-33.8	-34.3	26.7	0.00e+00	0	24	0	1170210816	46	5735
2026-01-05 05:17:23.67	183.75	16.98	-33.6	-34.2	26.6	0.00e+00	0	24	0	1177550848	46	5632
2026-01-05 05:17:24.68	183.82	17.09	-34.1	-34.7	26.0	0.00e+00	0	24	0	1184890880	46	5965
2026-01-05 05:17:25.69	183.89	17.20	-34.0	-34.5	26.7	0.00e+00	0	24	0	1192230912	46	5837
2026-01-05 05:17:26.70	183.97	17.31	-33.7	-34.3	26.7	0.00e+00	0	24	0	1199570944	46	5700
2026-01-05 05:17:27.71	184.04	17.43	-33.5	-34.0	26.6	0.00e+00	0	23	0	1206910976	46	5520
2026-01-05 05:17:28.72	184.12	17.54	-33.4	-33.9	26.6	0.00e+00	0	24	0	1214251008	46	5463
2026-01-05 05:17:29.73	184.19	17.65	-33.8	-34.3	26.5	0.00e+00	0	24	0	1221591040	46	5718
2026-01-05 05:17:30.74	184.27	17.77	-33.6	-34.2	26.5	0.00e+00	0	23	0	1228931072	46	5633
2026-01-05 05:17:31.75	184.35	17.88	-33.7	-34.2	26.4	0.00e+00	0	24	0	1235222528	46	5642
2026-01-05 05:17:32.76	184.42	18.00	-33.4	-33.9	26.7	0.00e+00	0	24	0	1242562560	46	5460
2026-01-05 05:17:33.78	184.50	18.11	-33.7	-34.2	26.2	0.00e+00	0	24	0	1250951168	46	5658
2026-01-05 05:17:34.79	184.58	18.23	-34.0	-34.5	25.9	0.00e+00	0	24	0	1257242624	46	5868
2026-01-05 05:17:35.80	184.66	18.35	-34.0	-34.5	26.1	0.00e+00	0	24	0	1264582656	46	5880
2026-01-05 05:17:36.81	184.74	18.47	-33.8	-34.4	26.1	0.00e+00	0	24	0	1271922688	46	5769
2026-01-05 05:17:37.82	184.82	18.58	-33.8	-34.3	26.0	0.00e+00	0	23	0	1279262720	46	5713
2026-01-05 05:17:38.83	184.90	18.70	-33.6	-34.1	26.3	0.00e+00	0	24	0	1286602752	46	5615
2026-01-05 05:17:39.84	184.98	18.82	-33.7	-34.2	26.0	0.00e+00	0	23	0	1293942784	46	5676
2026-01-05 05:17:40.85	185.06	18.94	-33.7	-34.2	26.4	0.00e+00	0	24	0	1301282816	46	5681
2026-01-05 05:17:41.86	185.15	19.06	-33.7	-34.3	26.4	0.00e+00	0	24	0	1308622848	46	5701
2026-01-05 05:17:42.88	185.23	19.18	-33.8	-34.3	26.5	0.00e+00	0	24	0	1315962880	46	5752
2026-01-05 05:17:43.89	185.31	19.30	-33.3	-33.8	26.8	0.00e+00	0	23	0	1323302912	46	5429
2026-01-05 05:17:44.90	185.40	19.42	-33.2	-33.7	26.7	0.00e+00	0	23	0	1330642944	44	6029
2026-01-05 05:17:45.91	185.48	19.55	-33.5	-34.0	26.5	0.00e+00	0	24	0	1337982976	44	6240
2026-01-05 05:17:46.92	185.57	19.67	-33.4	-33.9	26.7	0.00e+00	0	24	0	1345323008	44	6122
2026-01-05 05:17:47.93	185.65	19.79	-33.5	-34.0	26.6	0.00e+00	0	24	0	1352663040	44	6216
2026-01-05 05:17:48.94	185.74	19.92	-33.4	-33.9	26.7	0.00e+00	0	24	0	1360003072	46	5448
2026-01-05 05:17:49.95	185.83	20.04	-33.7	-34.2	26.5	0.00e+00	0	24	0	1367343104	46	5660
2026-01-05 05:17:50.96	185.92	20.17	-34.1	-34.6	26.3	0.00e+00	0	24	0	1374683136	44	6623
2026-01-05 05:17:51.97	186.01	20.29	-33.3	-33.8	27.0	0.00e+00	0	24	0	1382023168	46	5399
2026-01-05 05:17:52.98	186.10	20.42	-32.6	-33.2	27.4	0.00e+00	0	24	0	1389363200	44	5631
2026-01-05 05:17:54.00	186.19	20.54	-32.4	-32.8	27.2	0.00e+00	0	24	0	1396703232	44	5430
2026-01-05 05:17:55.01	186.28	20.67	-32.5	-33.0	27.3	0.00e+00	0	24	0	1402994688	44	5520
2026-01-05 05:17:56.02	186.37	20.80	-32.6	-33.1	27.3	0.00e+00	0	24	0	1410334720	44	5578
2026-01-05 05:17:57.03	186.46	20.93	-32.4	-32.9	27.4	0.00e+00	0	24	0	1418723328	44	5482
2026-01-05 05:17:58.04	186.56	21.06	-32.5	-33.0	27.2	0.00e+00	0	24	0	1425014784	44	5520
2026-01-05 05:17:59.05	186.65	21.19	-32.5	-33.0	27.3	0.00e+00	0	24	0	1432354816	44	5536
2026-01-05 05:18:00.06	186.75	21.32	-32.2	-32.7	27.5	0.00e+00	0	24	0	1439694848	44	5339
2026-01-05 05:18:01.07	186.84	21.45	-32.1	-32.6	27.5	0.00e+00	0	24	0	1447034880	44	5288
2026-01-05 05:18:02.08	186.94	21.58	-32.1	-32.6	27.5	0.00e+00	0	24	0	1454374912	42	5914
2026-01-05 05:18:03.10	187.04	21.71	-32.0	-32.5	27.6	0.00e+00	0	23	0	1461714944	42	5882
2026-01-05 05:18:04.11	187.14	21.84	-32.0	-32.5	27.6	0.00e+00	0	23	0	1469054976	42	5833
2026-01-05 05:18:05.12	187.24	21.98	-31.9	-32.4	27.6	0.00e+00	0	24	0	1476395008	42	5816
2026-01-05 05:18:06.13	187.34	22.11	-31.9	-32.4	27.6	0.00e+00	0	24	0	1483735040	42	5797
2026-01-05 05:18:07.14	187.44	22.25	-32.0	-32.5	27.5	0.00e+00	0	24	0	1491075072	42	5871
2026-01-05 05:18:08.15	187.54	22.38	-32.0	-32.4	27.6	0.00e+00	0	24	0	1498415104	42	5828
2026-01-05 05:18:09.16	187.64	22.52	-32.1	-32.6	27.4	0.00e+00	0	24	0	1505755136	42	5943
2026-01-05 05:18:10.17	187.74	22.65	-31.8	-32.3	27.6	0.00e+00	0	24	0	1513095168	42	5749
2026-01-05 05:18:11.18	187.85	22.79	-31.9	-32.4	27.6	0.00e+00	0	23	0	1520435200	42	5812
2026-01-05 05:18:12.19	187.95	22.93	-31.9	-32.4	27.7	0.00e+00	0	24	0	1527775232	42	5807
2026-01-05 05:18:13.20	188.06	23.07	-32.0	-32.5	27.6	0.00e+00	0	24	0	1535115264	42	5837
2026-01-05 05:18:14.22	188.17	23.21	-32.2	-32.6	27.7	0.00e+00	0	24	0	1542455296	42	5964
2026-01-05 05:18:15.23	188.27	23.35	-32.1	-32.6	27.6	0.00e+00	0	24	0	1549795328	42	5960
2026-01-05 05:18:16.24	188.38	23.49	-32.1	-32.6	27.6	0.00e+00	0	24	0	1557135360	42	5899
2026-01-05 05:18:17.25	188.49	23.63	-32.0	-32.5	27.6	0.00e+00	0	24	0	1564475392	42	5859
2026-01-05 05:18:18.26	188.60	23.77	-32.0	-32.5	27.6	0.00e+00	0	24	0	1571815424	42	5853
2026-01-05 05:18:19.27	188.71	23.91	-32.2	-32.7	27.5	0.00e+00	0	24	0	1579155456	42	5987
2026-01-05 05:18:20.28	188.83	24.05	-32.0	-32.5	27.6	0.00e+00	0	23	0	1586495488	42	5858
2026-01-05 05:18:21.29	188.94	24.20	-32.0	-32.5	27.6	0.00e+00	0	24	0	1593835520	42	5892
2026-01-05 05:18:22.30	189.05	24.34	-32.1	-32.6	27.6	0.00e+00	0	24	0	1600126976	42	5908
2026-01-05 05:18:23.32	189.17	24.49	-31.9	-32.4	27.6	0.00e+00	0	24	0	1607467008	42	5808
2026-01-05 05:18:24.33	189.29	24.63	-32.0	-32.5	27.7	0.00e+00	0	24	0	1615855616	42	5852
2026-01-05 05:18:25.34	189.40	24.78	-32.3	-32.8	27.4	0.00e+00	0	24	0	1622147072	42	6053
2026-01-05 05:18:26.35	189.52	24.93	-32.3	-32.8	27.6	0.00e+00	0	24	0	1629487104	42	6039
2026-01-05 05:18:27.36	189.64	25.07	-32.2	-32.7	27.6	0.00e+00	0	24	0	1636827136	42	5981
2026-01-05 05:18:28.37	189.76	25.22	-32.0	-32.5	27.6	0.00e+00	0	24	0	1644167168	42	5853
2026-01-05 05:18:29.38	189.88	25.37	-32.2	-32.7	27.7	0.00e+00	0	24	0	1651507200	42	6010
2026-01-05 05:18:30.39	190.01	25.52	-32.0	-32.5	27.8	0.00e+00	0	24	0	1658847232	42	5829
2026-01-05 05:18:31.40	190.13	25.67	-32.2	-32.7	27.6	0.00e+00	0	24	0	1666187264	42	6010
2026-01-05 05:18:32.41	190.26	25.82	-32.3	-32.8	27.5	0.00e+00	0	24	0	1673527296	42	6059
2026-01-05 05:18:33.42	190.38	25.97	-32.1	-32.6	27.6	0.00e+00	0	24	0	1680867328	42	5938
2026-01-05 05:18:34.44	190.51	26.13	-32.1	-32.6	27.8	0.00e+00	0	23	0	1688207360	42	5909
2026-01-05 05:18:35.45	190.64	26.28	-31.9	-32.4	28.1	0.00e+00	0	24	0	1695547392	42	5774
2026-01-05 05:18:36.46	190.77	26.44	-32.1	-32.7	27.6	0.00e+00	0	24	0	1702887424	42	5974
2026-01-05 05:18:37.47	190.90	26.59	-32.1	-32.6	27.6	0.00e+00	0	24	0	1710227456	42	5910
2026-01-05 05:18:38.48	191.03	26.75	-31.8	-32.3	27.8	0.00e+00	0	24	0	1717567488	42	5734
2026-01-05 05:18:39.49	191.17	26.90	-32.0	-32.4	27.8	0.00e+00	0	24	0	1724907520	42	5827
2026-01-05 05:18:40.50	191.30	27.06	-31.7	-32.2	28.1	0.00e+00	0	24	0	1732247552	42	5671
2026-01-05 05:18:41.51	191.44	27.22	-31.5	-32.0	28.0	0.00e+00	0	24	0	1739587584	42	5513
2026-01-05 05:18:42.52	191.58	27.38	-31.5	-32.0	28.2	0.00e+00	0	24	0	1746927616	42	5525
2026-01-05 05:18:43.53	191.71	27.54	-31.5	-32.0	28.2	0.00e+00	0	24	0	1754267648	42	5540
2026-01-05 05:18:44.54	191.86	27.70	-31.5	-32.0	28.1	0.00e+00	0	24	0	1761607680	42	5519
2026-01-05 05:18:45.55	192.00	27.86	-32.1	-32.6	27.7	0.00e+00	0	24	0	1767899136	42	5899
2026-01-05 05:18:46.57	192.14	28.02	-31.8	-32.3	27.8	0.00e+00	0	24	0	1775239168	42	5725
2026-01-05 05:18:47.58	192.29	28.18	-31.5	-31.9	28.1	0.00e+00	0	24	0	1783627776	42	5489
2026-01-05 05:18:48.59	192.43	28.34	-31.4	-31.9	28.1	0.00e+00	0	24	0	1789919232	42	5459
2026-01-05 05:18:49.60	192.58	28.51	-31.3	-31.8	28.2	0.00e+00	0	24	0	1797259264	42	5418
2026-01-05 05:18:50.61	192.73	28.67	-31.8	-32.3	28.1	0.00e+00	0	24	0	1804599296	42	5741
2026-01-05 05:18:51.62	192.88	28.84	-31.2	-31.7	28.0	0.00e+00	0	24	0	1811939328	42	5352
2026-01-05 05:18:52.63	193.03	29.00	-31.6	-32.1	28.2	0.00e+00	0	23	0	1819279360	42	5573
2026-01-05 05:18:53.64	193.18	29.17	-31.4	-31.9	28.3	0.00e+00	0	24	0	1826619392	42	5468
2026-01-05 05:18:54.65	193.34	29.34	-31.2	-31.7	28.3	0.00e+00	0	24	0	1833959424	42	5351
2026-01-05 05:18:55.67	193.50	29.51	-31.1	-31.6	28.4	0.00e+00	0	24	0	1841299456	42	5287
2026-01-05 05:18:56.68	193.65	29.68	-31.4	-31.9	28.4	0.00e+00	0	24	0	1848639488	40	6121
2026-01-05 05:18:57.69	193.81	29.85	-31.0	-31.5	28.5	0.00e+00	0	23	0	1855979520	40	5840
2026-01-05 05:18:58.70	193.97	30.02	-31.0	-31.5	28.5	0.00e+00	0	24	0	1863319552	40	5845
2026-01-05 05:18:59.71	194.14	30.19	-30.9	-31.4	28.5	0.00e+00	0	24	0	1870659584	40	5803
2026-01-05 05:19:00.72	194.30	30.36	-31.0	-31.4	28.7	0.00e+00	0	24	0	1877999616	40	5823
2026-01-05 05:19:01.73	194.47	30.54	-30.8	-31.3	28.5	0.00e+00	0	24	0	1885339648	40	5709
2026-01-05 05:19:02.74	194.64	30.71	-30.9	-31.3	28.5	0.00e+00	0	24	0	1892679680	40	5748
2026-01-05 05:19:03.75	194.81	30.89	-31.1	-31.6	28.4	0.00e+00	0	24	0	1900019712	40	5899
2026-01-05 05:19:04.76	194.98	31.06	-31.0	-31.5	28.4	0.00e+00	0	24	0	1907359744	40	5839
2026-01-05 05:19:05.77	195.15	31.24	-31.1	-31.5	28.4	0.00e+00	0	24	0	1914699776	40	5895
2026-01-05 05:19:06.78	195.33	31.42	-31.1	-31.6	28.4	0.00e+00	0	24	0	1922039808	40	5898
2026-01-05 05:19:07.80	195.51	31.59	-31.2	-31.7	28.3	0.00e+00	0	24	0	1929379840	40	5979
2026-01-05 05:19:08.81	195.69	31.77	-31.2	-31.7	28.3	0.00e+00	0	24	0	1936719872	40	5979
2026-01-05 05:19:09.82	195.87	31.95	-31.6	-32.1	27.9	0.00e+00	0	24	0	1943011328	40	6263
2026-01-05 05:19:10.83	196.05	32.13	-31.4	-31.9	28.1	0.00e+00	0	24	0	1951399936	40	6147
2026-01-05 05:19:11.84	196.24	32.31	-31.6	-32.1	28.0	0.00e+00	0	24	0	1958739968	40	6293
2026-01-05 05:19:12.85	196.42	32.50	-31.7	-32.2	28.0	0.00e+00	0	24	0	1965031424	40	6319
2026-01-05 05:19:13.86	196.61	32.68	-31.5	-32.0	28.0	0.00e+00	0	24	0	1972371456	40	6222
2026-01-05 05:19:14.87	196.80	32.86	-31.2	-31.6	28.3	0.00e+00	0	24	0	1980760064	40	5959
2026-01-05 05:19:15.88	197.00	33.05	-31.0	-31.5	28.3	0.00e+00	0	24	0	1987051520	40	5845
2026-01-05 05:19:16.89	197.19	33.23	-31.1	-31.5	28.4	0.00e+00	0	24	0	1994391552	40	5879
2026-01-05 05:19:17.90	197.39	33.42	-30.8	-31.3	28.3	0.00e+00	0	24	0	2001731584	40	5722
2026-01-05 05:19:18.92	197.59	33.61	-31.3	-31.8	28.2	0.00e+00	0	24	0	2009071616	40	6035
2026-01-05 05:19:19.93	197.79	33.79	-31.1	-31.5	28.2	0.00e+00	0	24	0	2016411648	40	5884
2026-01-05 05:19:20.94	198.00	33.98	-31.1	-31.5	28.2	0.00e+00	0	24	0	2023751680	40	5883
2026-01-05 05:19:21.95	198.21	34.17	-31.4	-31.9	28.1	0.00e+00	0	24	0	2031091712	40	6149
2026-01-05 05:19:22.96	198.42	34.36	-31.0	-31.5	27.8	0.00e+00	0	24	0	2038431744	40	5866
2026-01-05 05:19:23.97	198.63	34.55	-31.5	-32.0	28.0	0.00e+00	0	24	0	2045771776	40	6203
2026-01-05 05:19:24.98	198.84	34.74	-31.4	-31.9	28.0	0.00e+00	0	24	0	2053111808	40	6159
2026-01-05 05:19:25.99	199.06	34.93	-31.6	-32.1	27.8	0.00e+00	0	24	0	2060451840	40	6305
2026-01-05 05:19:27.00	199.28	35.12	-31.7	-32.2	27.8	0.00e+00	0	24	0	2067791872	40	6353
2026-01-05 05:19:28.01	199.50	35.32	-31.3	-31.7	28.2	0.00e+00	0	24	0	2075131904	40	6015
2026-01-05 05:19:29.03	199.72	35.51	-31.1	-31.6	28.1	0.00e+00	0	24	0	2082471936	40	5928
2026-01-05 05:19:30.04	199.95	35.71	-31.3	-31.7	28.2	0.00e+00	0	24	0	2089811968	40	6016
2026-01-05 05:19:31.05	200.18	35.90	-31.4	-31.8	28.1	0.00e+00	0	24	0	2097152000	40	6090
2026-01-05 05:19:32.06	200.41	36.10	-31.0	-31.5	28.3	0.00e+00	0	24	0	2104492032	40	5848
2026-01-05 05:19:33.07	200.65	36.30	-31.1	-31.6	28.2	0.00e+00	0	24	0	2110783488	40	5903
2026-01-05 05:19:34.08	200.89	36.49	-31.2	-31.6	28.3	0.00e+00	0	24	0	2119172096	40	5960
2026-01-05 05:19:35.09	201.13	36.69	-31.0	-31.5	28.3	0.00e+00	0	24	0	2126512128	40	5861
2026-01-05 05:19:36.10	201.37	36.89	-31.0	-31.5	28.3	0.00e+00	0	24	0	2132803584	40	5838
2026-01-05 05:19:37.11	201.62	37.09	-31.0	-31.5	28.2	0.00e+00	0	24	0	2140143616	40	5868
2026-01-05 05:19:38.12	201.87	37.29	-31.1	-31.6	28.3	0.00e+00	0	24	0	2148532224	40	5919
2026-01-05 05:19:39.13	202.12	37.49	-31.0	-31.5	28.4	0.00e+00	0	24	0	2154823680	40	5849
2026-01-05 05:19:40.14	202.37	37.69	-31.1	-31.5	28.3	0.00e+00	0	24	0	2162163712	40	5895
2026-01-05 05:19:41.15	202.63	37.89	-31.1	-31.5	28.3	0.00e+00	0	24	0	2169503744	40	5889
2026-01-05 05:19:42.16	202.89	38.09	-31.3	-31.8	28.2	0.00e+00	0	24	0	2176843776	40	6058
2026-01-05 05:19:43.18	203.16	38.30	-31.5	-32.0	28.2	0.00e+00	0	24	0	2184183808	40	6200
2026-01-05 05:19:44.19	203.43	38.50	-31.5	-31.9	28.2	0.00e+00	0	24	0	2191523840	40	6159
2026-01-05 05:19:45.20	203.70	38.71	-31.6	-32.1	28.0	0.00e+00	0	24	0	2198863872	40	6275
2026-01-05 05:19:46.21	203.98	38.91	-32.2	-32.7	27.7	0.00e+00	0	24	0	2206203904	40	6742
2026-01-05 05:19:47.22	204.26	39.12	-32.1	-32.6	27.6	0.00e+00	0	24	0	2213543936	42	5913
2026-01-05 05:19:48.23	204.54	39.32	-31.8	-32.3	28.0	0.00e+00	0	24	0	2220883968	42	5709
2026-01-05 05:19:49.24	204.82	39.53	-31.6	-32.1	27.5	0.00e+00	0	24	0	2228224000	42	5574
2026-01-05 05:19:50.25	205.11	39.73	-31.8	-32.3	27.8	0.00e+00	0	24	0	2235564032	42	5752
2026-01-05 05:19:51.26	205.40	39.94	-32.0	-32.4	27.6	0.00e+00	0	24	0	2242904064	42	5815
2026-01-05 05:19:52.28	205.70	40.15	-32.1	-32.6	27.7	0.00e+00	0	24	0	2250244096	42	5911
2026-01-05 05:19:53.29	206.00	40.36	-31.9	-32.4	27.9	0.00e+00	0	24	0	2257584128	42	5795
2026-01-05 05:19:54.30	206.31	40.56	-32.0	-32.4	27.8	0.00e+00	0	24	0	2264924160	42	5818
2026-01-05 05:19:55.31	206.61	40.77	-32.0	-32.5	27.9	0.00e+00	0	24	0	2272264192	42	5834
2026-01-05 05:19:56.32	206.93	40.98	-31.8	-32.3	28.0	0.00e+00	0	24	0	2279604224	42	5716
2026-01-05 05:19:57.33	207.24	41.19	-31.7	-32.2	27.9	0.00e+00	0	24	0	2286944256	42	5631
2026-01-05 05:19:58.34	207.56	41.40	-31.6	-32.1	28.0	0.00e+00	0	24	0	2294284288	42	5596
2026-01-05 05:19:59.35	207.89	41.61	-31.7	-32.2	28.0	0.00e+00	0	24	0	2301624320	42	5655
2026-01-05 05:20:00.37	208.22	41.82	-32.0	-32.4	27.9	0.00e+00	0	24	0	2307915776	42	5810
2026-01-05 05:20:01.38	208.55	42.03	-32.0	-32.5	27.7	0.00e+00	0	24	0	2316304384	42	5880
2026-01-05 05:20:02.39	208.88	42.24	-32.2	-32.7	27.6	0.00e+00	0	24	0	2323644416	42	6007
2026-01-05 05:20:03.40	209.23	42.45	-32.1	-32.6	27.8	0.00e+00	0	24	0	2329935872	42	5924
2026-01-05 05:20:04.41	209.57	42.66	-32.1	-32.6	27.8	0.00e+00	0	24	0	2337275904	42	5959
2026-01-05 05:20:05.42	209.92	42.86	-32.1	-32.6	27.9	0.00e+00	0	24	0	2345664512	42	5927
2026-01-05 05:20:06.43	210.27	43.07	-31.8	-32.3	27.9	0.00e+00	0	24	0	2351955968	42	5712
2026-01-05 05:20:07.44	210.63	43.28	-32.0	-32.4	27.9	0.00e+00	0	24	0	2359296000	42	5815
2026-01-05 05:20:08.45	211.00	43.49	-32.0	-32.5	27.6	0.00e+00	0	23	0	2366636032	42	5840
2026-01-05 05:20:09.46	211.36	43.70	-31.7	-32.2	27.9	0.00e+00	0	24	0	2373976064	42	5692
2026-01-05 05:20:10.47	211.74	43.91	-31.9	-32.4	27.8	0.00e+00	0	24	0	2381316096	42	5792
2026-01-05 05:20:11.48	212.11	44.12	-31.8	-32.3	28.0	0.00e+00	0	24	0	2388656128	42	5715
2026-01-05 05:20:12.50	212.50	44.33	-31.7	-32.2	28.0	0.00e+00	0	24	0	2395996160	42	5631
2026-01-05 05:20:13.51	212.89	44.54	-31.5	-32.0	28.0	0.00e+00	0	24	0	2403336192	42	5536
2026-01-05 05:20:14.52	213.28	44.75	-31.5	-31.9	28.0	0.00e+00	0	24	0	2410676224	42	5484
2026-01-05 05:20:15.53	213.68	44.96	-31.7	-32.2	28.1	0.00e+00	0	24	0	2418016256	42	5641
2026-01-05 05:20:16.54	214.08	45.16	-31.5	-32.0	27.9	0.00e+00	0	24	0	2425356288	42	5543
2026-01-05 05:20:17.55	214.49	45.37	-31.8	-32.3	27.9	0.00e+00	0	24	0	2432696320	42	5701
2026-01-05 05:20:18.56	214.90	45.58	-31.7	-32.2	27.9	0.00e+00	0	24	0	2440036352	42	5672
2026-01-05 05:20:19.57	215.32	45.78	-31.7	-32.2	27.9	0.00e+00	0	24	0	2447376384	42	5681
2026-01-05 05:20:20.58	215.75	45.99	-31.7	-32.1	27.8	0.00e+00	0	24	0	2454716416	42	5615
2026-01-05 05:20:21.60	216.18	46.19	-31.8	-32.3	27.8	0.00e+00	0	24	0	2462056448	42	5723
2026-01-05 05:20:22.61	216.62	46.40	-31.9	-32.4	27.7	0.00e+00	0	24	0	2469396480	42	5788
2026-01-05 05:20:23.62	217.06	46.60	-32.3	-32.7	27.5	0.00e+00	0	24	0	2475687936	42	6024
2026-01-05 05:20:24.63	217.50	46.80	-32.2	-32.7	27.4	0.00e+00	0	24	0	2484076544	42	5971
2026-01-05 05:20:25.64	217.96	47.00	-32.2	-32.7	27.6	0.00e+00	0	24	0	2491416576	42	5984
2026-01-05 05:20:26.65	218.41	47.21	-32.1	-32.6	27.6	0.00e+00	0	24	0	2497708032	42	5930
2026-01-05 05:20:27.66	218.88	47.40	-32.2	-32.7	27.4	0.00e+00	0	24	0	2505048064	42	5998
2026-01-05 05:20:28.67	219.35	47.60	-32.2	-32.6	27.5	0.00e+00	0	24	0	2512388096	42	5961
2026-01-05 05:20:29.68	219.82	47.80	-32.1	-32.6	27.4	0.00e+00	0	24	0	2519728128	42	5916
2026-01-05 05:20:30.69	220.30	48.00	-32.0	-32.5	27.7	0.00e+00	0	24	0	2527068160	42	5844
2026-01-05 05:20:31.70	220.79	48.19	-32.0	-32.5	27.6	0.00e+00	0	24	0	2534408192	42	5829
2026-01-05 05:20:32.71	221.29	48.38	-32.0	-32.5	27.7	0.00e+00	0	24	0	2541748224	42	5875
2026-01-05 05:20:33.72	221.79	48.57	-32.1	-32.5	27.6	0.00e+00	0	24	0	2549088256	42	5884
2026-01-05 05:20:34.74	222.30	48.77	-32.0	-32.5	27.6	0.00e+00	0	23	0	2556428288	42	5870
2026-01-05 05:20:35.75	222.81	48.96	-32.5	-32.9	27.2	0.00e+00	0	24	0	2563768320	42	6173
2026-01-05 05:20:36.76	223.33	49.14	-32.7	-33.2	27.0	0.00e+00	0	24	0	2571108352	42	6385
2026-01-05 05:20:37.77	223.85	49.33	-32.7	-33.2	27.1	0.00e+00	0	24	0	2578448384	42	6347
2026-01-05 05:20:38.78	224.38	49.51	-32.4	-32.8	27.3	0.00e+00	0	24	0	2585788416	42	6084
2026-01-05 05:20:39.79	224.92	49.69	-32.5	-32.9	27.2	0.00e+00	0	24	0	2593128448	42	6160
2026-01-05 05:20:40.80	225.46	49.87	-32.6	-33.1	27.1	0.00e+00	0	24	0	2600468480	42	6250
2026-01-05 05:20:41.81	226.01	50.05	-32.9	-33.4	26.8	0.00e+00	0	24	0	2607808512	44	5770
2026-01-05 05:20:42.82	226.57	50.23	-32.9	-33.4	26.7	0.00e+00	0	24	0	2615148544	44	5797
2026-01-05 05:20:43.83	227.13	50.40	-33.0	-33.4	26.8	0.00e+00	0	24	0	2622488576	44	5823
2026-01-05 05:20:44.85	227.71	50.57	-32.7	-33.1	27.2	0.00e+00	0	24	0	2629828608	44	5625
2026-01-05 05:20:45.86	228.28	50.74	-32.5	-33.0	27.4	0.00e+00	0	24	0	2637168640	44	5521
2026-01-05 05:20:46.87	228.87	50.91	-32.3	-32.8	27.3	0.00e+00	0	24	0	2644508672	44	5394
2026-01-05 05:20:47.88	229.45	51.07	-32.7	-33.2	27.1	0.00e+00	0	24	0	2651848704	44	5647
2026-01-05 05:20:48.89	230.05	51.23	-33.1	-33.6	26.9	0.00e+00	0	24	0	2659188736	44	5912
2026-01-05 05:20:49.90	230.65	51.39	-32.9	-33.4	27.0	0.00e+00	0	24	0	2666528768	44	5805
2026-01-05 05:20:50.91	231.26	51.55	-33.1	-33.5	26.9	0.00e+00	0	24	0	2672820224	44	5880
2026-01-05 05:20:51.92	231.87	51.70	-33.1	-33.6	26.8	0.00e+00	0	24	0	2681208832	44	5924
2026-01-05 05:20:52.93	232.49	51.85	-32.9	-33.4	27.0	0.00e+00	0	23	0	2688548864	44	5815
2026-01-05 05:20:53.94	233.12	52.00	-32.9	-33.4	27.1	0.00e+00	0	23	0	2694840320	44	5818
2026-01-05 05:20:54.95	233.75	52.14	-32.8	-33.3	27.1	0.00e+00	0	23	0	2702180352	44	5745
2026-01-05 05:20:55.96	234.39	52.28	-33.0	-33.5	26.9	0.00e+00	0	23	0	2709520384	44	5863
2026-01-05 05:20:56.98	235.04	52.42	-33.0	-33.5	26.7	0.00e+00	0	24	0	2716860416	44	5844
2026-01-05 05:20:57.99	235.69	52.55	-33.4	-33.9	26.5	0.00e+00	0	24	0	2724200448	44	6122
2026-01-05 05:20:59.00	236.34	52.69	-33.5	-34.0	26.5	0.00e+00	0	24	0	2731540480	44	6208
2026-01-05 05:21:00.01	237.00	52.81	-33.0	-33.5	26.9	0.00e+00	0	24	0	2738880512	44	5839
2026-01-05 05:21:01.02	237.67	52.94	-32.8	-33.3	27.0	0.00e+00	0	24	0	2746220544	44	5757
2026-01-05 05:21:02.03	238.34	53.06	-32.5	-32.9	27.2	0.00e+00	0	24	0	2753560576	44	5501
2026-01-05 05:21:03.04	239.02	53.17	-32.9	-33.4	27.3	0.00e+00	0	23	0	2760900608	44	5764
2026-01-05 05:21:04.05	239.71	53.29	-33.0	-33.5	27.1	0.00e+00	0	24	0	2768240640	44	5863
2026-01-05 05:21:05.06	240.39	53.40	-33.4	-33.9	26.8	0.00e+00	0	24	0	2775580672	44	6107
2026-01-05 05:21:06.08	241.09	53.50	-33.5	-34.0	26.5	0.00e+00	0	24	0	2782920704	44	6206
2026-01-05 05:21:07.09	241.79	53.60	-33.7	-34.2	26.4	0.00e+00	0	24	0	2790260736	44	6366
2026-01-05 05:21:08.10	242.50	53.70	-33.8	-34.4	26.4	0.00e+00	0	24	0	2797600768	46	5773
2026-01-05 05:21:09.11	243.20	53.79	-34.0	-34.5	26.4	0.00e+00	0	24	0	2804940800	48	5210
2026-01-05 05:21:10.12	243.92	53.88	-34.0	-34.5	26.4	0.00e+00	0	24	0	2812280832	46	5862
2026-01-05 05:21:11.13	244.63	53.96	-33.5	-33.9	26.6	0.00e+00	0	24	0	2819620864	46	5499
2026-01-05 05:21:12.14	245.35	54.04	-33.1	-33.6	27.0	0.00e+00	0	24	0	2826960896	46	5315
2026-01-05 05:21:13.15	246.08	54.12	-33.5	-34.0	26.8	0.00e+00	0	24	0	2834300928	46	5519
2026-01-05 05:21:14.16	246.81	54.19	-33.9	-34.4	26.3	0.00e+00	0	24	0	2840592384	46	5802
2026-01-05 05:21:15.17	247.54	54.26	-33.9	-34.4	26.6	0.00e+00	0	24	0	2848980992	46	5772
2026-01-05 05:21:16.19	248.28	54.32	-33.5	-34.0	26.8	0.00e+00	0	24	0	2856321024	46	5516
2026-01-05 05:21:17.20	249.02	54.38	-32.8	-33.2	27.1	0.00e+00	0	24	0	2862612480	44	5682
2026-01-05 05:21:18.21	249.76	54.43	-33.4	-34.0	26.4	0.00e+00	0	23	0	2869952512	44	6174
2026-01-05 05:21:19.22	250.50	54.48	-33.2	-33.7	26.9	0.00e+00	0	24	0	2877292544	44	5975
2026-01-05 05:21:20.23	251.25	54.52	-33.3	-33.9	26.8	0.00e+00	0	24	0	2884632576	44	6114
2026-01-05 05:21:21.24	251.99	54.56	-33.4	-33.9	26.6	0.00e+00	0	24	0	2891972608	44	6115
2026-01-05 05:21:22.25	252.74	54.59	-33.3	-33.7	26.8	0.00e+00	0	24	0	2899312640	44	6017
2026-01-05 05:21:23.26	253.49	54.62	-33.6	-34.1	26.5	0.00e+00	0	24	0	2906652672	44	6247
2026-01-05 05:21:24.27	254.25	54.65	-33.6	-34.1	26.8	0.00e+00	0	24	0	2913992704	44	6277
2026-01-05 05:21:25.28	255.00	54.66	-33.4	-33.9	26.7	0.00e+00	0	23	0	2921332736	44	6140
2026-01-05 05:21:26.30	255.76	54.68	-34.0	-34.4	26.4	0.00e+00	0	24	0	2928672768	46	5828
2026-01-05 05:21:27.31	256.52	54.69	-33.8	-34.2	26.5	0.00e+00	0	24	0	2936012800	46	5681
2026-01-05 05:21:28.32	257.27	54.69	-33.7	-34.2	26.4	0.00e+00	0	24	0	2943352832	46	5644
2026-01-05 05:21:29.33	258.03	54.69	-33.7	-34.2	26.4	0.00e+00	0	24	0	2950692864	46	5649
2026-01-05 05:21:30.34	258.78	54.69	-33.2	-33.7	26.7	0.00e+00	0	24	0	2958032896	46	5326
2026-01-05 05:21:31.35	259.54	54.68	-33.1	-33.5	26.8	0.00e+00	0	23	0	2965372928	44	5894
2026-01-05 05:21:32.36	260.29	54.66	-33.6	-34.1	26.4	0.00e+00	0	24	0	2972712960	44	6314
2026-01-05 05:21:33.37	261.05	54.64	-33.5	-33.9	26.6	0.00e+00	0	24	0	2980052992	44	6163
2026-01-05 05:21:34.38	261.80	54.62	-33.8	-34.4	26.2	0.00e+00	0	24	0	2987393024	44	6466
2026-01-05 05:21:35.39	262.55	54.59	-33.5	-34.0	26.3	0.00e+00	0	24	0	2994733056	44	6196
2026-01-05 05:21:36.40	263.30	54.55	-33.2	-33.7	26.6	0.00e+00	0	24	0	3002073088	44	5965
2026-01-05 05:21:37.41	264.04	54.51	-33.3	-33.7	26.6	0.00e+00	0	24	0	3009413120	44	6027
2026-01-05 05:21:38.43	264.80	54.47	-33.4	-33.9	26.5	0.00e+00	0	24	0	3016753152	44	6172
2026-01-05 05:21:39.44	265.54	54.42	-33.0	-33.5	26.8	0.00e+00	0	24	0	3024093184	44	5875
2026-01-05 05:21:40.45	266.28	54.37	-32.8	-33.3	26.9	0.00e+00	0	24	0	3031433216	44	5740
2026-01-05 05:21:41.46	267.01	54.31	-33.1	-33.6	26.6	0.00e+00	0	24	0	3037724672	44	5921
2026-01-05 05:21:42.47	267.75	54.25	-33.1	-33.6	26.6	0.00e+00	0	24	0	3045064704	44	5915
2026-01-05 05:21:43.48	268.48	54.18	-33.1	-33.6	26.6	0.00e+00	0	24	0	3053453312	44	5920
2026-01-05 05:21:44.49	269.21	54.11	-33.0	-33.4	26.7	0.00e+00	0	24	0	3059744768	44	5814
2026-01-05 05:21:45.50	269.93	54.03	-32.8	-33.3	26.6	0.00e+00	0	23	0	3067084800	44	5748
2026-01-05 05:21:46.51	270.65	53.95	-32.8	-33.3	26.7	0.00e+00	0	24	0	3074424832	44	5704
2026-01-05 05:21:47.52	271.36	53.87	-32.8	-33.2	27.1	0.00e+00	0	24	0	3081764864	44	5691
2026-01-05 05:21:48.54	272.08	53.78	-32.9	-33.4	26.9	0.00e+00	0	24	0	3089104896	44	5806
2026-01-05 05:21:49.55	272.79	53.69	-33.9	-34.4	26.7	0.00e+00	0	23	0	3096444928	44	6493
2026-01-05 05:21:50.56	273.49	53.59	-33.7	-34.2	26.5	0.00e+00	0	24	0	3103784960	44	6357
2026-01-05 05:21:51.57	274.19	53.49	-33.2	-33.7	26.7	0.00e+00	0	24	0	3111124992	46	5335
2026-01-05 05:21:52.58	274.88	53.38	-33.0	-33.5	26.8	0.00e+00	0	24	0	3118465024	46	5212
2026-01-05 05:21:53.59	275.57	53.27	-33.3	-33.7	26.8	0.00e+00	0	23	0	3125805056	44	6016
2026-01-05 05:21:54.60	276.25	53.16	-33.7	-34.2	26.4	0.00e+00	0	24	0	3133145088	44	6352
2026-01-05 05:21:55.61	276.93	53.04	-33.7	-34.2	26.5	0.00e+00	0	23	0	3140485120	44	6319
2026-01-05 05:21:56.62	277.60	52.92	-33.3	-33.8	26.8	0.00e+00	0	23	0	3147825152	44	6074
2026-01-05 05:21:57.63	278.26	52.80	-33.2	-33.6	26.8	0.00e+00	0	23	0	3155165184	44	5958
2026-01-05 05:21:58.64	278.92	52.67	-33.1	-33.6	26.8	0.00e+00	0	24	0	3162505216	44	5939
2026-01-05 05:21:59.65	279.58	52.54	-33.3	-33.7	26.9	0.00e+00	0	23	0	3169845248	44	6032
2026-01-05 05:22:00.67	280.23	52.41	-33.1	-33.6	27.0	0.00e+00	0	24	0	3177185280	44	5954
2026-01-05 05:22:01.68	280.87	52.27	-33.1	-33.5	26.9	0.00e+00	0	24	0	3184525312	44	5896
2026-01-05 05:22:02.69	281.51	52.13	-33.2	-33.7	26.8	0.00e+00	0	23	0	3191865344	44	6010
2026-01-05 05:22:03.70	282.14	51.98	-33.5	-34.0	26.8	0.00e+00	0	24	0	3199205376	44	6227
2026-01-05 05:22:04.71	282.77	51.84	-33.4	-33.9	26.8	0.00e+00	0	24	0	3205496832	46	5471
2026-01-05 05:22:05.72	283.38	51.69	-34.1	-34.6	26.8	0.00e+00	0	24	0	3213885440	46	5923
2026-01-05 05:22:06.73	284.00	51.53	-33.9	-34.4	26.6	0.00e+00	0	24	0	3221225472	46	5773
2026-01-05 05:22:07.74	284.60	51.38	-33.7	-34.2	26.1	0.00e+00	0	24	0	3227516928	46	5660
2026-01-05 05:22:08.75	285.20	51.22	-34.3	-34.8	26.6	0.00e+00	0	24	0	3234856960	46	6091
2026-01-05 05:22:09.76	285.79	51.06	-34.0	-34.5	26.7	0.00e+00	0	24	0	3242196992	46	5869
2026-01-05 05:22:10.78	286.39	50.89	-33.5	-34.0	27.0	0.00e+00	0	24	0	3249537024	46	5539
2026-01-05 05:22:11.79	286.97	50.73	-33.4	-33.9	26.8	0.00e+00	0	24	0	3256877056	46	5483
2026-01-05 05:22:12.80	287.54	50.56	-33.6	-34.1	26.8	0.00e+00	0	24	0	3264217088	46	5567
2026-01-05 05:22:13.81	288.11	50.39	-33.1	-33.6	27.1	0.00e+00	0	24	0	3271557120	44	5955
2026-01-05 05:22:14.82	288.67	50.21	-33.0	-33.5	27.1	0.00e+00	0	24	0	3278897152	44	5851
2026-01-05 05:22:15.83	289.22	50.04	-33.0	-33.4	27.1	0.00e+00	0	24	0	3286237184	44	5826
2026-01-05 05:22:16.84	289.77	49.86	-33.0	-33.5	26.8	0.00e+00	0	24	0	3293577216	44	5855
2026-01-05 05:22:17.85	290.31	49.68	-33.2	-33.7	26.8	0.00e+00	0	24	0	3300917248	44	5980
2026-01-05 05:22:18.86	290.85	49.50	-33.0	-33.5	27.0	0.00e+00	0	24	0	3308257280	44	5846
2026-01-05 05:22:19.87	291.38	49.32	-33.3	-33.9	26.7	0.00e+00	0	24	0	3315597312	44	6110
2026-01-05 05:22:20.89	291.91	49.13	-33.5	-34.0	27.2	0.00e+00	0	24	0	3322937344	44	6193
2026-01-05 05:22:21.90	292.42	48.94	-33.7	-34.2	27.2	0.00e+00	0	24	0	3330277376	44	6368
2026-01-05 05:22:22.91	292.93	48.76	-33.4	-33.9	27.1	0.00e+00	0	24	0	3337617408	44	6110
2026-01-05 05:22:23.92	293.44	48.57	-33.5	-34.0	26.9	0.00e+00	0	24	0	3344957440	44	6184
2026-01-05 05:22:24.93	293.94	48.37	-33.6	-34.2	26.8	0.00e+00	0	24	0	3352297472	44	6332
2026-01-05 05:22:25.94	294.43	48.18	-34.0	-34.5	26.8	0.00e+00	0	24	0	3359637504	44	6614
2026-01-05 05:22:26.95	294.91	47.99	-34.0	-34.6	26.5	0.00e+00	0	24	0	3366977536	46	5899
2026-01-05 05:22:27.96	295.39	47.79	-33.6	-34.1	26.9	0.00e+00	0	24	0	3374317568	46	5618
2026-01-05 05:22:28.97	295.87	47.60	-33.6	-34.1	26.9	0.00e+00	0	24	0	3381657600	46	5622
2026-01-05 05:22:29.98	296.34	47.40	-33.5	-34.0	26.7	0.00e+00	0	24	0	3388997632	46	5565
2026-01-05 05:22:31.00	296.80	47.20	-33.2	-33.7	26.9	0.00e+00	0	24	0	3396337664	46	5368
2026-01-05 05:22:32.01	297.26	47.00	-33.5	-34.0	26.9	0.00e+00	0	24	0	3402629120	44	6217
2026-01-05 05:22:33.02	297.71	46.80	-33.5	-34.0	26.8	0.00e+00	0	23	0	3409969152	44	6198
2026-01-05 05:22:34.03	298.16	46.60	-33.4	-33.9	27.2	0.00e+00	0	24	0	3418357760	44	6133
2026-01-05 05:22:35.04	298.59	46.39	-33.8	-34.3	27.1	0.00e+00	0	24	0	3424649216	44	6448
2026-01-05 05:22:36.05	299.03	46.19	-33.2	-33.7	27.3	0.00e+00	0	24	0	3431989248	46	5337
2026-01-05 05:22:37.06	299.46	45.99	-33.7	-34.2	27.6	0.00e+00	0	24	0	3439329280	44	6369
2026-01-05 05:22:38.07	299.88	45.78	-33.2	-33.7	27.7	0.00e+00	0	24	0	3446669312	44	6017
2026-01-05 05:22:39.08	300.30	45.58	-33.8	-34.3	27.8	0.00e+00	0	24	0	3454009344	46	5723
2026-01-05 05:22:40.10	300.71	45.37	-33.3	-33.7	27.8	0.00e+00	0	24	0	3461349376	46	5365
2026-01-05 05:22:41.11	301.12	45.16	-34.0	-34.4	27.5	0.00e+00	0	24	0	3468689408	44	6505
2026-01-05 05:22:42.12	301.52	44.96	-33.1	-33.6	27.6	0.00e+00	0	24	0	3476029440	44	5904
2026-01-05 05:22:43.13	301.92	44.75	-33.4	-33.8	27.6	0.00e+00	0	24	0	3483369472	44	6103
2026-01-05 05:22:44.14	302.31	44.54	-33.3	-33.7	27.7	0.00e+00	0	24	0	3490709504	44	6033
2026-01-05 05:22:45.15	302.70	44.34	-32.8	-33.2	27.7	0.00e+00	0	24	0	3498049536	44	5685
2026-01-05 05:22:46.16	303.08	44.13	-32.2	-32.6	28.0	0.00e+00	0	24	0	3505389568	44	5295
2026-01-05 05:22:47.17	303.45	43.92	-32.7	-33.2	28.0	0.00e+00	0	24	0	3512729600	44	5640
2026-01-05 05:22:48.18	303.82	43.71	-32.5	-33.0	27.8	0.00e+00	0	24	0	3520069632	42	6179
2026-01-05 05:22:49.19	304.19	43.50	-32.2	-32.7	27.9	0.00e+00	0	24	0	3527409664	42	5975
2026-01-05 05:22:50.21	304.56	43.29	-33.0	-33.5	27.7	0.00e+00	0	24	0	3534749696	42	6571
2026-01-05 05:22:51.22	304.91	43.08	-33.5	-34.0	27.1	0.00e+00	0	24	0	3542089728	44	6236
2026-01-05 05:22:52.23	305.27	42.87	-33.0	-33.5	27.8	0.00e+00	0	24	0	3549429760	44	5845
2026-01-05 05:22:53.24	305.62	42.67	-33.0	-33.4	26.5	0.00e+00	0	24	0	3556769792	44	5795
2026-01-05 05:22:54.25	305.96	42.46	-33.2	-33.7	27.1	0.00e+00	0	24	0	3564109824	44	5987
2026-01-05 05:22:55.26	306.30	42.25	-32.9	-33.4	27.4	0.00e+00	0	24	0	3570401280	44	5806
2026-01-05 05:22:56.27	306.64	42.04	-34.3	-34.8	27.5	0.00e+00	0	24	0	3578789888	44	6794
2026-01-05 05:22:57.28	306.97	41.83	-34.1	-34.5	27.4	0.00e+00	0	24	0	3586129920	46	5891
2026-01-05 05:22:58.30	307.30	41.62	-33.0	-33.5	27.0	0.00e+00	0	24	0	3592421376	44	5876
2026-01-05 05:22:59.31	307.62	41.41	-33.0	-33.4	27.4	0.00e+00	0	24	0	3599761408	46	5194
2026-01-05 05:23:00.32	307.94	41.20	-32.7	-33.2	27.9	0.00e+00	0	24	0	3607101440	44	5655
2026-01-05 05:23:01.33	308.25	41.00	-33.1	-33.6	28.2	0.00e+00	0	24	0	3614441472	44	5928
2026-01-05 05:23:02.34	308.56	40.79	-31.7	-32.1	28.2	0.00e+00	0	24	0	3621781504	42	5625
2026-01-05 05:23:03.35	308.87	40.58	-31.9	-32.4	27.9	0.00e+00	0	24	0	3629121536	42	5764
2026-01-05 05:23:04.36	309.17	40.38	-32.0	-32.5	27.6	0.00e+00	0	24	0	3636461568	42	5858
2026-01-05 05:23:05.37	309.47	40.17	-32.1	-32.6	27.8	0.00e+00	0	24	0	3643801600	42	5916
2026-01-05 05:23:06.38	309.77	39.96	-32.8	-33.3	27.6	0.00e+00	0	24	0	3651141632	42	6396
2026-01-05 05:23:07.39	310.06	39.76	-32.8	-33.3	27.4	0.00e+00	0	24	0	3658481664	44	5704
2026-01-05 05:23:08.40	310.35	39.55	-32.7	-33.2	27.6	0.00e+00	0	24	0	3665821696	44	5645
2026-01-05 05:23:09.41	310.63	39.35	-32.7	-33.2	27.6	0.00e+00	0	24	0	3673161728	44	5660
2026-01-05 05:23:10.43	310.92	39.14	-32.8	-33.3	27.5	0.00e+00	0	24	0	3680501760	44	5702
2026-01-05 05:23:11.44	311.19	38.94	-32.8	-33.3	27.7	0.00e+00	0	23	0	3687841792	44	5699
2026-01-05 05:23:12.45	311.47	38.73	-32.7	-33.2	27.8	0.00e+00	0	24	0	3695181824	42	6348
2026-01-05 05:23:13.46	311.74	38.53	-32.0	-32.5	27.8	0.00e+00	0	24	0	3702521856	42	5834
2026-01-05 05:23:14.47	312.01	38.33	-32.2	-32.6	27.7	0.00e+00	0	24	0	3709861888	42	5952
2026-01-05 05:23:15.48	312.27	38.13	-31.8	-32.3	28.1	0.00e+00	0	24	0	3717201920	42	5712
2026-01-05 05:23:16.49	312.53	37.93	-32.1	-32.6	28.1	0.00e+00	0	24	0	3724541952	42	5951
2026-01-05 05:23:17.50	312.79	37.73	-32.2	-32.7	27.7	0.00e+00	0	24	0	3731881984	42	5968
2026-01-05 05:23:18.51	313.04	37.53	-32.7	-33.2	27.5	0.00e+00	0	24	0	3739222016	42	6332
2026-01-05 05:23:19.52	313.30	37.33	-32.4	-32.9	27.5	0.00e+00	0	23	0	3746562048	42	6158
2026-01-05 05:23:20.53	313.54	37.13	-32.0	-32.5	27.8	0.00e+00	0	24	0	3753902080	42	5847
2026-01-05 05:23:21.54	313.79	36.93	-31.4	-31.9	28.2	0.00e+00	0	23	0	3761242112	42	5443
2026-01-05 05:23:22.56	314.04	36.73	-31.5	-32.0	27.9	0.00e+00	0	24	0	3767533568	42	5508
2026-01-05 05:23:23.57	314.28	36.53	-31.8	-32.3	28.0	0.00e+00	0	23	0	3774873600	42	5721
2026-01-05 05:23:24.58	314.51	36.34	-31.8	-32.3	27.9	0.00e+00	0	24	0	3783262208	42	5761
2026-01-05 05:23:25.59	314.75	36.14	-32.0	-32.5	27.9	0.00e+00	0	24	0	3789553664	42	5873
2026-01-05 05:23:26.60	314.98	35.95	-32.0	-32.5	27.7	0.00e+00	0	24	0	3796893696	42	5877
2026-01-05 05:23:27.61	315.21	35.75	-31.9	-32.4	27.9	0.00e+00	0	24	0	3804233728	42	5804
2026-01-05 05:23:28.62	315.43	35.56	-31.7	-32.1	28.0	0.00e+00	0	24	0	3811573760	42	5623
2026-01-05 05:23:29.63	315.66	35.36	-31.7	-32.2	28.0	0.00e+00	0	24	0	3818913792	42	5660
2026-01-05 05:23:30.64	315.88	35.17	-32.2	-32.7	28.0	0.00e+00	0	24	0	3826253824	42	5965
2026-01-05 05:23:31.65	316.10	34.98	-31.4	-31.8	28.3	0.00e+00	0	24	0	3833593856	42	5430
2026-01-05 05:23:32.67	316.32	34.79	-32.1	-32.6	28.2	0.00e+00	0	24	0	3840933888	42	5898
2026-01-05 05:23:33.68	316.53	34.60	-31.7	-32.2	28.1	0.00e+00	0	23	0	3848273920	42	5682
2026-01-05 05:23:34.69	316.74	34.41	-32.7	-33.2	28.1	0.00e+00	0	23	0	3855613952	44	5693
2026-01-05 05:23:35.70	316.95	34.22	-32.8	-33.4	26.6	0.00e+00	0	23	0	3862953984	44	5772
2026-01-05 05:23:36.71	317.16	34.03	-32.4	-32.9	27.7	0.00e+00	0	23	0	3870294016	44	5475
2026-01-05 05:23:37.72	317.36	33.85	-32.7	-33.2	27.7	0.00e+00	0	23	0	3877634048	44	5665
2026-01-05 05:23:38.73	317.56	33.66	-32.7	-33.2	28.1	0.00e+00	0	24	0	3884974080	42	6334
2026-01-05 05:23:39.74	317.76	33.47	-33.5	-34.0	27.7	0.00e+00	0	23	0	3892314112	44	6220
2026-01-05 05:23:40.75	317.96	33.29	-33.0	-33.5	27.5	0.00e+00	0	24	0	3899654144	44	5848
2026-01-05 05:23:41.76	318.16	33.10	-32.8	-33.3	27.4	0.00e+00	0	24	0	3906994176	44	5740
2026-01-05 05:23:42.77	318.35	32.92	-32.1	-32.6	27.7	0.00e+00	0	24	0	3914334208	44	5258
2026-01-05 05:23:43.78	318.54	32.74	-31.9	-32.4	27.7	0.00e+00	0	24	0	3921674240	42	5797
2026-01-05 05:23:44.79	318.73	32.56	-32.1	-32.6	28.0	0.00e+00	0	24	0	3929014272	42	5916
2026-01-05 05:23:45.81	318.92	32.37	-32.3	-32.7	27.8	0.00e+00	0	24	0	3935305728	42	6005
2026-01-05 05:23:46.82	319.10	32.19	-32.0	-32.5	28.0	0.00e+00	0	24	0	3942645760	42	5860
2026-01-05 05:23:47.83	319.28	32.01	-31.3	-31.8	28.2	0.00e+00	0	24	0	3951034368	42	5391
2026-01-05 05:23:48.84	319.47	31.84	-31.4	-31.8	27.9	0.00e+00	0	24	0	3957325824	42	5423
2026-01-05 05:23:49.85	319.64	31.66	-31.4	-31.9	28.2	0.00e+00	0	24	0	3964665856	42	5441
2026-01-05 05:23:50.86	319.82	31.48	-31.4	-31.9	27.9	0.00e+00	0	24	0	3972005888	42	5473
2026-01-05 05:23:51.87	320.00	31.31	-32.1	-32.6	28.2	0.00e+00	0	24	0	3979345920	42	5899
2026-01-05 05:23:52.88	320.17	31.13	-32.0	-32.5	27.9	0.00e+00	0	24	0	3986685952	42	5860
2026-01-05 05:23:53.89	320.34	30.96	-34.1	-34.5	26.6	0.00e+00	0	24	0	3994025984	44	6560
2026-01-05 05:23:54.90	320.51	30.78	-32.9	-33.4	27.7	0.00e+00	0	24	0	4001366016	44	5825
2026-01-05 05:23:55.91	320.68	30.61	-32.6	-33.1	27.8	0.00e+00	0	24	0	4008706048	44	5579
2026-01-05 05:23:56.93	320.85	30.43	-32.6	-33.1	26.7	0.00e+00	0	24	0	4016046080	44	5592
2026-01-05 05:23:57.93	321.01	30.26	-32.3	-32.8	27.8	0.00e+00	0	24	0	4023386112	44	5420
2026-01-05 05:23:58.88	321.16	30.10	-33.2	-33.7	27.5	0.00e+00	0	24	0	4030726144	44	5971
2026-01-05 05:23:59.89	321.33	29.93	-33.3	-33.8	27.5	0.00e+00	0	24	0	4038066176	46	5414
2026-01-05 05:24:00.90	321.49	29.76	-32.9	-33.3	27.2	0.00e+00	0	24	0	4045406208	44	5747
2026-01-05 05:24:01.91	321.64	29.60	-32.9	-33.3	27.6	0.00e+00	0	24	0	4052746240	44	5757
2026-01-05 05:24:02.92	321.80	29.43	-32.7	-33.2	27.5	0.00e+00	0	24	0	4060086272	44	5677
2026-01-05 05:24:03.93	321.95	29.26	-32.4	-32.9	27.5	0.00e+00	0	24	0	4067426304	44	5478
2026-01-05 05:24:04.94	322.11	29.09	-32.8	-33.3	27.5	0.00e+00	0	24	0	4074766336	44	5724
2026-01-05 05:24:05.95	322.26	28.93	-32.4	-32.9	27.6	0.00e+00	0	24	0	4082106368	44	5477
2026-01-05 05:24:06.97	322.41	28.76	-32.7	-33.1	27.8	0.00e+00	0	23	0	4089446400	42	6313
2026-01-05 05:24:07.98	322.56	28.60	-32.3	-32.8	27.8	0.00e+00	0	23	0	4096786432	42	6048
2026-01-05 05:24:08.99	322.71	28.44	-32.3	-32.8	27.6	0.00e+00	0	23	0	4104126464	42	6078
2026-01-05 05:24:10.00	322.85	28.27	-33.0	-33.5	27.7	0.00e+00	0	23	0	4110417920	42	6549
2026-01-05 05:24:11.01	323.00	28.11	-32.7	-33.2	27.6	0.00e+00	0	24	0	4118806528	44	5636
2026-01-05 05:24:12.02	323.14	27.95	-32.2	-32.7	27.5	0.00e+00	0	24	0	4126146560	44	5345
2026-01-05 05:24:13.03	323.28	27.79	-32.6	-33.1	27.9	0.00e+00	0	24	0	4132438016	44	5568
2026-01-05 05:24:14.04	323.42	27.63	-32.6	-33.1	27.9	0.00e+00	0	23	0	4139778048	44	5601
2026-01-05 05:24:15.05	323.56	27.47	-33.1	-33.6	27.8	0.00e+00	0	23	0	4147118080	44	5945
2026-01-05 05:24:16.06	323.70	27.32	-32.8	-33.3	27.9	0.00e+00	0	24	0	4154458112	44	5706
2026-01-05 05:24:17.07	323.84	27.16	-32.4	-32.8	27.8	0.00e+00	0	24	0	4161798144	44	5435
2026-01-05 05:24:18.08	323.97	27.00	-32.4	-32.8	28.0	0.00e+00	0	24	0	4169138176	44	5438
2026-01-05 05:24:19.09	324.11	26.85	-32.2	-32.7	27.9	0.00e+00	0	24	0	4176478208	44	5353
2026-01-05 05:24:20.11	324.24	26.69	-32.5	-33.0	28.0	0.00e+00	0	24	0	4183818240	42	6174
2026-01-05 05:24:21.12	324.37	26.54	-32.3	-32.8	27.8	0.00e+00	0	24	0	4191158272	44	5387
2026-01-05 05:24:22.13	324.50	26.38	-32.6	-33.1	27.7	0.00e+00	0	23	0	4198498304	44	5588
2026-01-05 05:24:23.14	324.63	26.23	-32.7	-33.2	27.6	0.00e+00	0	23	0	4205838336	44	5677
2026-01-05 05:24:24.15	324.76	26.08	-33.4	-33.9	27.5	0.00e+00	0	24	0	4213178368	44	6154
2026-01-05 05:24:25.16	324.88	25.93	-33.0	-33.5	27.0	0.00e+00	0	24	0	4220518400	44	5878
2026-01-05 05:24:26.17	325.01	25.78	-33.3	-33.8	27.4	0.00e+00	0	24	0	4227858432	44	6090
2026-01-05 05:24:27.18	325.13	25.63	-33.1	-33.6	27.4	0.00e+00	0	24	0	4235198464	44	5948
2026-01-05 05:24:28.19	325.26	25.48	-32.5	-33.0	27.6	0.00e+00	0	24	0	4242538496	44	5504
2026-01-05 05:24:29.20	325.38	25.33	-32.7	-33.2	27.6	0.00e+00	0	24	0	4249878528	44	5681
2026-01-05 05:24:30.22	325.50	25.18	-32.3	-32.8	27.6	0.00e+00	0	24	0	4257218560	44	5379
2026-01-05 05:24:31.23	325.62	25.03	-32.6	-33.1	27.6	0.00e+00	0	24	0	4264558592	44	5612
2026-01-05 05:24:32.24	325.74	24.89	-32.4	-32.9	27.3	0.00e+00	0	24	0	4271898624	44	5468
2026-01-05 05:24:33.25	325.86	24.74	-32.6	-33.1	27.3	0.00e+00	0	24	0	4278190080	44	5611
2026-01-05 05:24:34.26	325.97	24.60	-32.4	-32.9	26.9	0.00e+00	0	24	0	4286578688	44	5453
2026-01-05 05:24:35.27	326.09	24.45	-32.4	-32.9	27.3	0.00e+00	0	24	0	4293918720	44	5455
2026-01-05 05:24:36.28	326.20	24.31	-32.8	-33.3	26.9	0.00e+00	0	24	0	4300210176	44	5702
2026-01-05 05:24:37.30	326.32	24.16	-32.3	-32.8	27.3	0.00e+00	0	24	0	4307550208	44	5423
2026-01-05 05:24:38.31	326.43	24.02	-32.4	-32.9	27.3	0.00e+00	0	24	0	4315938816	44	5464
2026-01-05 05:24:39.32	326.54	23.88	-32.1	-32.6	27.4	0.00e+00	0	24	0	4322230272	42	5935
2026-01-05 05:24:40.33	326.65	23.74	-32.4	-32.9	27.3	0.00e+00	0	24	0	4329570304	42	6128
2026-01-05 05:24:41.34	326.76	23.60	-32.4	-32.8	27.4	0.00e+00	0	24	0	4336910336	42	6100
2026-01-05 05:24:42.35	326.87	23.46	-32.5	-33.0	27.0	0.00e+00	0	24	0	4344250368	42	6218
2026-01-05 05:24:43.36	326.98	23.32	-31.9	-32.4	27.6	0.00e+00	0	24	0	4351590400	42	5783
2026-01-05 05:24:44.37	327.09	23.18	-31.9	-32.4	27.5	0.00e+00	0	24	0	4358930432	42	5811
2026-01-05 05:24:45.39	327.19	23.04	-32.7	-33.1	27.7	0.00e+00	0	24	0	4366270464	42	6304
2026-01-05 05:24:46.40	327.30	22.91	-32.4	-32.9	27.6	0.00e+00	0	24	0	4373610496	42	6147
2026-01-05 05:24:47.41	327.40	22.77	-32.1	-32.6	27.6	0.00e+00	0	24	0	4380950528	42	5904
2026-01-05 05:24:48.42	327.51	22.63	-32.3	-32.8	27.6	0.00e+00	0	24	0	4388290560	42	6050
2026-01-05 05:24:49.43	327.61	22.50	-32.1	-32.6	27.4	0.00e+00	0	24	0	4395630592	42	5940
2026-01-05 05:24:50.44	327.71	22.36	-32.3	-32.8	27.6	0.00e+00	0	24	0	4402970624	42	6083
2026-01-05 05:24:51.45	327.81	22.23	-32.5	-33.0	27.0	0.00e+00	0	24	0	4410310656	44	5532
2026-01-05 05:24:52.46	327.91	22.10	-32.5	-32.9	27.1	0.00e+00	0	24	0	4417650688	44	5502
2026-01-05 05:24:53.47	328.01	21.97	-32.6	-33.0	26.9	0.00e+00	0	24	0	4424990720	44	5562
2026-01-05 05:24:54.48	328.11	21.83	-32.5	-33.0	27.2	0.00e+00	0	24	0	4432330752	44	5523
2026-01-05 05:24:55.50	328.21	21.70	-32.7	-33.2	27.0	0.00e+00	0	24	0	4439670784	44	5659
2026-01-05 05:24:56.51	328.31	21.57	-32.4	-32.9	27.2	0.00e+00	0	24	0	4447010816	44	5444
2026-01-05 05:24:57.52	328.40	21.44	-32.5	-33.0	27.2	0.00e+00	0	24	0	4454350848	44	5519
2026-01-05 05:24:58.53	328.50	21.31	-32.5	-33.0	27.3	0.00e+00	0	23	0	4461690880	44	5503
2026-01-05 05:24:59.54	328.59	21.18	-32.5	-33.0	27.2	0.00e+00	0	23	0	4469030912	44	5544
2026-01-05 05:25:00.54	328.68	21.05	-32.7	-33.2	27.1	0.00e+00	0	23	0	4475322368	44	5647
2026-01-05 05:25:01.55	328.78	20.93	-32.4	-32.9	27.2	0.00e+00	0	24	0	4482662400	44	5442
2026-01-05 05:25:02.56	328.87	20.80	-32.5	-33.0	27.1	0.00e+00	0	23	0	4491051008	44	5531
2026-01-05 05:25:03.57	328.96	20.67	-32.5	-32.9	27.2	0.00e+00	0	23	0	4497342464	44	5499
2026-01-05 05:25:04.58	329.05	20.55	-32.7	-33.2	27.0	0.00e+00	0	23	0	4504682496	44	5674
2026-01-05 05:25:05.60	329.14	20.42	-32.7	-33.2	27.0	0.00e+00	0	24	0	4512022528	44	5653
2026-01-05 05:25:06.61	329.23	20.29	-32.6	-33.1	26.9	0.00e+00	0	24	0	4519362560	44	5624
2026-01-05 05:25:07.61	329.32	20.17	-32.6	-33.1	27.0	0.00e+00	0	24	0	4526702592	44	5609
2026-01-05 05:25:08.62	329.41	20.05	-32.6	-33.1	26.9	0.00e+00	0	24	0	4534042624	44	5582
2026-01-05 05:25:09.63	329.50	19.92	-32.7	-33.2	27.0	0.00e+00	0	24	0	4541382656	44	5644
2026-01-05 05:25:10.65	329.58	19.80	-32.7	-33.1	26.8	0.00e+00	0	24	0	4548722688	44	5630
2026-01-05 05:25:11.66	329.67	19.68	-32.7	-33.1	27.1	0.00e+00	0	24	0	4556062720	44	5627
2026-01-05 05:25:12.67	329.76	19.56	-32.7	-33.2	26.8	0.00e+00	0	24	0	4563402752	44	5677
2026-01-05 05:25:13.68	329.84	19.44	-32.7	-33.2	27.1	0.00e+00	0	24	0	4570742784	44	5657
2026-01-05 05:25:14.69	329.93	19.31	-32.6	-33.1	27.0	0.00e+00	0	24	0	4578082816	44	5587
2026-01-05 05:25:15.70	330.01	19.19	-32.7	-33.2	26.9	0.00e+00	0	24	0	4585422848	44	5641
2026-01-05 05:25:16.71	330.09	19.07	-32.6	-33.1	27.2	0.00e+00	0	24	0	4592762880	44	5586
2026-01-05 05:25:17.72	330.17	18.96	-32.5	-32.9	27.0	0.00e+00	0	24	0	4600102912	44	5489
2026-01-05 05:25:18.73	330.26	18.84	-32.6	-33.1	27.1	0.00e+00	0	24	0	4607442944	44	5590
2026-01-05 05:25:19.74	330.34	18.72	-32.8	-33.3	26.9	0.00e+00	0	24	0	4614782976	44	5741
