passes_logs/2026/01/05/R4.6S_Anadyr_2ch/R4.6S_Anadyr_2ch__20260105_145234_NOAA_20_JPSS-1_rec.log

#Pass ID: 20260105_145234_NOAA 20 (JPSS-1)
#Satellite: NOAA 20 (JPSS-1)
#Configuration: NOAA 20
#almurnet v.1.7.20251203
#Start time: 2026-01-05 14:52:35

#Version: 2.2.20231116
#Station: R4.6S_Anadyr_2ch
#Location: 177.4865 lon 64.73178 lat
#TLE: 1 43013U 17073A   25350.93759711  .00000080  00000+0  58734-4 0  9994
#TLE: 2 43013  98.7603 287.1885 0002156  81.1496 278.9924 14.19526878418610

#Time	Az	El	Level	Level2	SNR	BER	BlckErr	Temp	State	Recorded	gain1	gain2
2026-01-05 14:52:35.03	20.84	0.04	-51.1	-66.2	3.5	1.51e+00	0	26	0	0	60	99093
2026-01-05 14:52:36.04	20.84	0.10	-51.1	-66.4	3.6	1.51e+00	0	27	104	0	60	102427
2026-01-05 14:52:37.05	20.84	0.16	-51.1	-66.5	3.6	1.51e+00	0	27	104	0	60	102671
2026-01-05 14:52:38.06	20.84	0.22	-51.1	-66.5	3.6	1.51e+00	0	27	104	0	60	102522
2026-01-05 14:52:39.07	20.84	0.28	-51.0	-66.4	3.6	1.51e+00	0	27	104	0	60	102280
2026-01-05 14:52:40.09	20.84	0.34	-51.1	-66.5	3.6	1.51e+00	0	27	104	0	60	102651
2026-01-05 14:52:41.10	20.84	0.40	-51.0	-66.5	3.6	1.51e+00	0	27	104	0	60	102917
2026-01-05 14:52:42.11	20.84	0.46	-51.1	-66.5	3.6	1.51e+00	0	27	104	0	60	102856
2026-01-05 14:52:43.12	20.84	0.52	-51.1	-66.5	3.6	1.51e+00	0	27	104	0	60	103094
2026-01-05 14:52:44.13	20.84	0.59	-51.1	-66.5	3.6	1.51e+00	0	27	104	0	60	102703
2026-01-05 14:52:45.14	20.84	0.65	-51.0	-66.4	3.6	1.51e+00	0	27	104	0	60	101435
2026-01-05 14:52:46.15	20.84	0.71	-51.0	-66.4	3.6	1.51e+00	0	27	104	0	60	101640
2026-01-05 14:52:47.16	20.84	0.77	-50.9	-66.3	3.6	1.51e+00	0	27	104	0	60	100204
2026-01-05 14:52:48.18	20.84	0.83	-50.8	-66.1	3.6	1.51e+00	0	27	104	0	60	98975
2026-01-05 14:52:49.19	20.84	0.89	-50.6	-65.9	3.6	1.51e+00	0	27	104	0	60	96485
2026-01-05 14:52:50.20	20.84	0.96	-50.4	-65.8	3.6	1.51e+00	0	27	104	0	60	95054
2026-01-05 14:52:51.21	20.84	1.02	-50.3	-65.6	3.6	1.51e+00	0	27	104	0	60	93160
2026-01-05 14:52:52.22	20.84	1.08	-49.9	-65.4	3.6	1.51e+00	0	27	104	0	60	90334
2026-01-05 14:52:53.23	20.84	1.14	-49.8	-65.1	3.6	1.51e+00	0	27	104	0	60	87863
2026-01-05 14:52:54.24	20.84	1.21	-49.7	-65.1	3.6	1.51e+00	0	27	104	0	60	88116
2026-01-05 14:52:55.25	20.84	1.27	-49.7	-65.1	3.6	1.51e+00	0	27	104	0	60	87344
2026-01-05 14:52:56.26	20.84	1.33	-49.7	-65.0	3.6	1.51e+00	0	27	104	0	60	86370
2026-01-05 14:52:57.28	20.84	1.40	-49.7	-64.9	3.6	1.51e+00	0	27	104	0	60	86149
2026-01-05 14:52:58.29	20.84	1.46	-49.7	-64.9	3.6	1.51e+00	0	27	104	0	60	85241
2026-01-05 14:52:59.30	20.84	1.52	-49.7	-64.9	3.6	1.51e+00	0	28	104	0	60	85504
2026-01-05 14:53:00.31	20.83	1.59	-49.7	-64.8	3.6	1.51e+00	0	28	104	0	60	84837
2026-01-05 14:53:01.32	20.83	1.65	-49.7	-65.0	3.6	1.51e+00	0	27	104	0	60	86604
2026-01-05 14:53:02.33	20.83	1.71	-49.7	-65.0	3.6	1.51e+00	0	27	104	0	60	86340
2026-01-05 14:53:03.34	20.83	1.78	-49.7	-65.0	3.6	1.51e+00	0	28	104	0	60	87166
2026-01-05 14:53:04.35	20.83	1.84	-49.7	-65.1	3.6	1.51e+00	0	28	104	0	60	87383
2026-01-05 14:53:05.36	20.83	1.90	-49.7	-65.1	3.5	1.51e+00	0	28	104	0	60	87550
2026-01-05 14:53:06.38	20.83	1.97	-49.7	-65.1	3.6	1.51e+00	0	28	104	0	60	87354
2026-01-05 14:53:07.39	20.83	2.03	-49.7	-65.1	3.6	1.51e+00	0	28	104	0	60	87495
2026-01-05 14:53:08.40	20.83	2.10	-49.7	-65.0	3.6	1.51e+00	0	28	104	0	60	87017
2026-01-05 14:53:09.41	20.83	2.16	-49.7	-65.0	3.6	1.51e+00	0	28	104	0	60	86618
2026-01-05 14:53:10.42	20.83	2.23	-49.7	-64.9	3.6	1.51e+00	0	28	104	0	60	85457
2026-01-05 14:53:11.43	20.83	2.29	-49.7	-64.7	3.6	1.51e+00	0	28	104	0	60	83944
2026-01-05 14:53:12.44	20.83	2.36	-49.7	-64.4	3.6	1.51e+00	0	28	104	0	60	80579
2026-01-05 14:53:13.45	20.83	2.42	-49.7	-64.0	3.6	1.51e+00	0	28	104	0	60	77370
2026-01-05 14:53:14.46	20.83	2.49	-49.7	-63.7	3.6	1.51e+00	0	28	104	0	60	74860
2026-01-05 14:53:15.48	20.83	2.56	-49.7	-63.8	3.6	1.51e+00	0	28	104	0	60	75740
2026-01-05 14:53:16.49	20.83	2.62	-49.7	-63.5	3.6	1.51e+00	0	28	104	0	60	72590
2026-01-05 14:53:17.50	20.83	2.69	-49.7	-63.7	3.6	1.51e+00	0	28	104	0	60	74763
2026-01-05 14:53:18.51	20.83	2.75	-49.7	-63.8	3.6	1.51e+00	0	28	104	0	60	75848
2026-01-05 14:53:19.52	20.83	2.82	-49.7	-63.6	3.6	1.51e+00	0	28	104	0	60	73395
2026-01-05 14:53:20.53	20.82	2.89	-49.6	-62.5	3.8	1.49e+00	0	28	104	0	60	65044
2026-01-05 14:53:21.54	20.82	2.95	-49.5	-59.4	4.4	1.37e+00	4	28	0	0	60	45636
2026-01-05 14:53:22.55	20.82	3.02	-49.2	-56.9	6.0	4.51e-01	84	28	102	1048576	60	34270
2026-01-05 14:53:23.56	20.82	3.09	-48.9	-55.6	7.6	1.34e-01	3	28	102	1048576	60	29522
2026-01-05 14:53:24.57	20.82	3.15	-48.5	-54.2	9.3	5.43e-02	92	28	102	1048576	60	25116
2026-01-05 14:53:25.59	20.82	3.22	-48.3	-53.5	10.1	1.27e-02	85	28	102	1048576	60	23036
2026-01-05 14:53:26.60	20.82	3.29	-48.1	-53.1	10.6	7.58e-03	90	28	102	1048576	60	22031
2026-01-05 14:53:27.61	20.82	3.36	-47.7	-51.9	11.9	7.09e-04	7	28	102	1048576	60	19268
2026-01-05 14:53:28.62	20.82	3.42	-47.3	-51.1	12.7	1.13e-04	6	28	102	1048576	60	17505
2026-01-05 14:53:29.63	20.82	3.49	-47.6	-51.8	12.1	2.69e-04	0	28	102	1048576	60	18971
2026-01-05 14:53:30.64	20.82	3.56	-47.7	-52.1	11.8	3.68e-04	0	28	102	1048576	60	19719
2026-01-05 14:53:31.65	20.81	3.63	-47.9	-52.5	11.3	7.90e-04	92	28	102	1048576	60	20511
2026-01-05 14:53:32.66	20.81	3.70	-48.3	-53.6	10.0	5.97e-03	0	28	102	1048576	60	23256
2026-01-05 14:53:33.67	20.81	3.76	-48.5	-54.4	9.0	1.72e-02	91	28	102	1048576	60	25478
2026-01-05 14:53:34.68	20.81	3.83	-45.3	-47.6	17.2	2.44e-02	0	28	102	1048576	60	11634
2026-01-05 14:53:35.70	20.81	3.90	-47.2	-50.9	12.5	7.00e-07	81	28	102	1048576	60	17109
2026-01-05 14:53:36.71	20.81	3.97	-49.7	-65.0	3.6	3.59e-02	0	28	104	1048576	60	86816
2026-01-05 14:53:37.72	20.81	4.04	-45.6	-48.1	6.0	1.51e+00	0	28	104	1048576	60	12368
2026-01-05 14:53:38.73	20.81	4.11	-49.8	-62.8	3.6	1.64e-02	0	28	104	1048576	60	67109
2026-01-05 14:53:39.74	20.81	4.18	-45.0	-47.2	6.0	1.48e+00	0	28	104	1048576	60	11150
2026-01-05 14:53:40.75	20.80	4.25	-44.6	-46.5	17.8	0.00e+00	92	28	0	1048576	60	10273
2026-01-05 14:53:41.76	20.80	4.32	-44.7	-46.6	17.7	0.00e+00	81	28	0	1048576	60	10455
2026-01-05 14:53:42.77	20.80	4.39	-44.4	-46.3	18.1	0.00e+00	92	28	0	1048576	60	10028
2026-01-05 14:53:43.79	20.80	4.46	-44.3	-46.1	18.2	0.00e+00	0	28	0	1048576	60	9858
2026-01-05 14:53:44.80	20.80	4.53	-44.2	-46.0	18.3	0.00e+00	0	28	0	1048576	60	9737
2026-01-05 14:53:45.81	20.80	4.60	-44.3	-46.1	18.2	0.00e+00	0	28	0	1048576	60	9846
2026-01-05 14:53:46.82	20.80	4.67	-44.3	-46.1	18.2	0.00e+00	2	28	0	1048576	60	9881
2026-01-05 14:53:47.83	20.80	4.74	-44.3	-46.2	18.2	0.00e+00	92	28	0	1048576	60	9914
2026-01-05 14:53:48.84	20.79	4.82	-44.4	-46.2	18.1	0.00e+00	0	28	0	1048576	60	9928
2026-01-05 14:53:49.85	20.79	4.89	-44.2	-45.9	18.5	0.00e+00	90	28	0	1048576	60	9668
2026-01-05 14:53:50.86	20.79	4.96	-44.3	-46.1	18.2	0.00e+00	0	28	0	1048576	60	9863
2026-01-05 14:53:51.87	20.79	5.03	-44.4	-46.3	18.1	0.00e+00	2	28	0	1048576	60	10034
2026-01-05 14:53:52.89	20.79	5.10	-44.2	-46.0	18.3	0.00e+00	0	28	0	1048576	60	9731
2026-01-05 14:53:53.90	20.79	5.18	-44.1	-45.9	18.7	0.00e+00	0	28	0	1048576	60	9580
2026-01-05 14:53:54.91	20.78	5.25	-44.1	-45.8	18.7	0.00e+00	90	28	0	1048576	60	9471
2026-01-05 14:53:55.92	20.78	5.32	-44.2	-46.0	18.4	0.00e+00	0	28	0	1048576	60	9704
2026-01-05 14:53:56.93	20.78	5.39	-44.1	-45.8	18.6	0.00e+00	92	28	0	1048576	60	9540
2026-01-05 14:53:57.94	20.78	5.47	-44.5	-46.4	18.2	0.00e+00	0	28	0	1048576	60	10153
2026-01-05 14:53:58.95	20.78	5.54	-44.5	-46.3	18.2	0.00e+00	82	28	101	1048576	60	10047
2026-01-05 14:53:59.96	20.78	5.61	-44.3	-46.1	18.4	0.00e+00	0	28	101	1048576	60	9860
2026-01-05 14:54:00.97	20.77	5.69	-44.5	-46.3	18.3	0.00e+00	81	28	101	1048576	60	10036
2026-01-05 14:54:01.98	20.77	5.76	-44.1	-45.7	18.9	0.00e+00	60	28	101	1048576	60	9439
2026-01-05 14:54:02.99	20.77	5.83	-44.0	-45.7	18.9	0.00e+00	0	28	101	1048576	60	9350
2026-01-05 14:54:04.00	20.77	5.91	-43.9	-45.6	18.9	0.00e+00	92	28	101	1048576	60	9281
2026-01-05 14:54:05.01	20.77	5.98	-43.9	-45.5	19.1	0.00e+00	0	28	101	1048576	60	9175
2026-01-05 14:54:06.02	20.76	6.06	-43.8	-45.4	19.1	0.00e+00	73	28	101	1048576	60	9076
2026-01-05 14:54:07.04	20.76	6.13	-44.0	-45.7	18.9	0.00e+00	2	28	101	1048576	60	9418
2026-01-05 14:54:08.05	20.76	6.21	-44.0	-45.7	19.0	0.00e+00	0	28	101	1048576	60	9387
2026-01-05 14:54:09.06	20.76	6.28	-43.9	-45.5	19.1	0.00e+00	2	28	101	1048576	60	9171
2026-01-05 14:54:10.07	20.76	6.36	-43.9	-45.5	19.1	0.00e+00	2	28	101	1048576	60	9176
2026-01-05 14:54:11.08	20.75	6.44	-43.9	-45.4	19.2	0.00e+00	90	28	101	1048576	60	9120
2026-01-05 14:54:12.09	20.75	6.51	-43.8	-45.4	19.3	0.00e+00	0	28	101	1048576	60	9041
2026-01-05 14:54:13.10	20.75	6.59	-43.8	-45.3	19.3	0.00e+00	90	28	101	1048576	60	9016
2026-01-05 14:54:14.11	20.75	6.66	-43.6	-45.2	19.4	0.00e+00	0	28	101	1048576	60	8844
2026-01-05 14:54:15.12	20.74	6.74	-43.8	-45.3	19.4	0.00e+00	0	28	101	1048576	60	8989
2026-01-05 14:54:16.14	20.74	6.82	-43.7	-45.3	19.4	0.00e+00	81	28	101	1048576	60	8947
2026-01-05 14:54:17.15	20.74	6.90	-43.8	-45.3	19.4	0.00e+00	0	28	101	1048576	60	9021
2026-01-05 14:54:18.16	20.74	6.97	-43.8	-45.4	19.3	0.00e+00	92	28	101	1048576	60	9039
2026-01-05 14:54:19.17	20.73	7.05	-43.6	-45.2	19.5	0.00e+00	0	28	101	1048576	60	8826
2026-01-05 14:54:20.18	20.73	7.13	-43.6	-45.1	19.6	0.00e+00	92	28	101	1048576	60	8771
2026-01-05 14:54:21.19	20.73	7.21	-43.6	-45.0	19.6	0.00e+00	0	28	101	1048576	60	8718
2026-01-05 14:54:22.20	20.73	7.28	-43.5	-44.9	19.7	0.00e+00	0	28	101	1048576	60	8618
2026-01-05 14:54:23.21	20.72	7.36	-43.6	-45.1	19.6	0.00e+00	2	28	101	1048576	60	8730
2026-01-05 14:54:24.22	20.72	7.44	-43.5	-45.0	19.7	0.00e+00	0	28	101	1048576	60	8662
2026-01-05 14:54:25.23	20.72	7.52	-43.6	-45.1	19.6	0.00e+00	75	28	101	1048576	60	8741
2026-01-05 14:54:26.24	20.72	7.60	-43.4	-44.9	19.9	0.00e+00	0	28	101	1048576	60	8575
2026-01-05 14:54:27.25	20.71	7.68	-43.5	-45.0	19.8	0.00e+00	92	28	101	1048576	60	8623
2026-01-05 14:54:28.27	20.71	7.76	-43.4	-44.9	19.9	0.00e+00	0	28	101	1048576	60	8552
2026-01-05 14:54:29.28	20.71	7.84	-43.3	-44.7	19.9	0.00e+00	0	28	101	1048576	60	8406
2026-01-05 14:54:30.29	20.71	7.92	-43.4	-44.8	19.9	0.00e+00	2	28	101	1048576	60	8483
2026-01-05 14:54:31.30	20.70	8.00	-43.4	-44.8	20.0	0.00e+00	82	28	101	1048576	60	8466
2026-01-05 14:54:32.31	20.70	8.08	-43.5	-45.0	19.9	0.00e+00	0	28	101	1048576	60	8670
2026-01-05 14:54:33.32	20.70	8.16	-43.5	-44.9	19.8	0.00e+00	0	28	101	1048576	60	8617
2026-01-05 14:54:34.33	20.69	8.24	-43.4	-44.8	19.9	0.00e+00	92	28	101	1048576	60	8519
2026-01-05 14:54:35.34	20.69	8.33	-43.2	-44.6	20.2	0.00e+00	0	28	101	1048576	60	8317
2026-01-05 14:54:36.35	20.69	8.41	-43.2	-44.6	20.1	0.00e+00	90	28	101	1048576	60	8314
2026-01-05 14:54:37.36	20.68	8.49	-43.2	-44.5	20.3	0.00e+00	81	28	101	1048576	60	8223
2026-01-05 14:54:38.38	20.68	8.57	-43.1	-44.5	20.3	0.00e+00	81	28	101	1048576	60	8177
2026-01-05 14:54:39.39	20.68	8.66	-43.1	-44.5	20.3	0.00e+00	81	28	101	1048576	60	8186
2026-01-05 14:54:40.40	20.67	8.74	-43.1	-44.5	20.3	0.00e+00	6	28	101	1048576	60	8194
2026-01-05 14:54:41.41	20.67	8.82	-43.2	-44.5	20.2	0.00e+00	92	28	101	1048576	60	8213
2026-01-05 14:54:42.42	20.67	8.91	-43.1	-44.5	20.4	0.00e+00	5	28	101	1048576	60	8186
2026-01-05 14:54:43.43	20.66	8.99	-42.9	-44.2	20.7	0.00e+00	80	28	101	1048576	60	7935
2026-01-05 14:54:44.44	20.66	9.07	-43.0	-44.4	20.5	0.00e+00	0	28	101	1048576	60	8067
2026-01-05 14:54:45.45	20.66	9.16	-43.0	-44.4	20.4	0.00e+00	6	28	101	1048576	60	8064
2026-01-05 14:54:46.46	20.65	9.24	-43.2	-44.6	20.2	0.00e+00	0	28	101	1048576	60	8297
2026-01-05 14:54:47.48	20.65	9.33	-43.1	-44.4	20.4	0.00e+00	5	28	101	1048576	60	8087
2026-01-05 14:54:48.49	20.65	9.41	-43.1	-44.4	20.4	0.00e+00	0	28	101	1048576	60	8097
2026-01-05 14:54:49.50	20.64	9.50	-43.0	-44.4	20.6	0.00e+00	0	28	101	1048576	60	8054
2026-01-05 14:54:50.51	20.64	9.58	-42.9	-44.3	20.6	0.00e+00	91	28	101	1048576	60	7964
2026-01-05 14:54:51.52	20.64	9.67	-42.8	-44.1	20.7	0.00e+00	86	28	101	1048576	60	7848
2026-01-05 14:54:52.53	20.63	9.76	-42.9	-44.2	20.8	0.00e+00	0	28	101	1048576	60	7899
2026-01-05 14:54:53.54	20.63	9.84	-42.8	-44.0	20.8	0.00e+00	2	28	101	1048576	60	7772
2026-01-05 14:54:54.55	20.62	9.93	-42.9	-44.2	20.8	0.00e+00	83	28	101	1048576	60	7884
2026-01-05 14:54:55.56	20.62	10.02	-42.8	-44.1	20.7	0.00e+00	0	28	101	1048576	60	7823
2026-01-05 14:54:56.57	20.62	10.11	-42.8	-44.1	20.9	0.00e+00	84	28	101	1048576	60	7793
2026-01-05 14:54:57.59	20.61	10.19	-42.7	-44.0	20.9	0.00e+00	91	28	101	1048576	60	7728
2026-01-05 14:54:58.60	20.61	10.28	-42.8	-44.0	20.8	0.00e+00	6	28	101	1048576	60	7767
2026-01-05 14:54:59.61	20.60	10.37	-42.7	-43.9	21.0	0.00e+00	6	28	101	1048576	60	7648
2026-01-05 14:55:00.62	20.60	10.46	-42.6	-43.9	21.1	0.00e+00	0	28	101	1048576	60	7599
2026-01-05 14:55:01.63	20.59	10.55	-42.7	-43.9	21.0	0.00e+00	2	28	101	1048576	60	7680
2026-01-05 14:55:02.64	20.59	10.64	-42.7	-43.9	21.0	0.00e+00	7	28	101	1048576	60	7645
2026-01-05 14:55:03.65	20.59	10.73	-42.5	-43.8	21.1	0.00e+00	0	28	101	1048576	60	7516
2026-01-05 14:55:04.66	20.58	10.82	-42.6	-43.8	21.1	0.00e+00	92	28	101	1048576	60	7575
2026-01-05 14:55:05.68	20.58	10.91	-42.6	-43.8	21.1	0.00e+00	0	28	101	1048576	60	7594
2026-01-05 14:55:06.69	20.57	11.00	-42.4	-43.7	21.2	0.00e+00	92	28	101	1048576	60	7436
2026-01-05 14:55:07.70	20.57	11.09	-42.5	-43.7	21.2	0.00e+00	0	28	101	1048576	60	7468
2026-01-05 14:55:08.71	20.56	11.18	-42.3	-43.5	21.4	0.00e+00	82	28	101	1048576	60	7323
2026-01-05 14:55:09.72	20.56	11.28	-42.4	-43.6	21.5	0.00e+00	80	28	101	1048576	60	7358
2026-01-05 14:55:10.73	20.55	11.37	-42.3	-43.5	21.4	0.00e+00	0	28	101	1048576	60	7292
2026-01-05 14:55:11.74	20.55	11.46	-42.3	-43.5	21.4	0.00e+00	90	28	101	1048576	60	7305
2026-01-05 14:55:12.75	20.54	11.55	-42.2	-43.4	21.5	0.00e+00	81	28	101	1048576	60	7237
2026-01-05 14:55:13.76	20.54	11.65	-42.3	-43.5	21.4	0.00e+00	92	28	101	1048576	60	7281
2026-01-05 14:55:14.77	20.53	11.74	-42.3	-43.4	21.5	0.00e+00	81	28	101	1048576	60	7234
2026-01-05 14:55:15.79	20.53	11.83	-42.4	-43.6	21.4	0.00e+00	0	28	101	1048576	60	7342
2026-01-05 14:55:16.80	20.52	11.93	-42.2	-43.3	21.6	0.00e+00	2	28	101	1048576	60	7145
2026-01-05 14:55:17.81	20.52	12.02	-42.2	-43.4	21.6	0.00e+00	0	28	101	1048576	60	7198
2026-01-05 14:55:18.82	20.51	12.12	-42.2	-43.3	21.6	0.00e+00	77	28	101	1048576	60	7170
2026-01-05 14:55:19.83	20.51	12.21	-42.2	-43.3	21.6	0.00e+00	0	28	101	1048576	60	7161
2026-01-05 14:55:20.84	20.50	12.31	-42.1	-43.3	21.6	0.00e+00	92	28	101	1048576	60	7131
2026-01-05 14:55:21.85	20.50	12.41	-42.2	-43.4	21.6	0.00e+00	0	28	101	1048576	60	7198
2026-01-05 14:55:22.86	20.49	12.50	-42.1	-43.3	21.6	0.00e+00	8	28	101	1048576	60	7122
2026-01-05 14:55:23.88	20.49	12.60	-42.0	-43.2	21.8	0.00e+00	2	28	101	1048576	60	7011
2026-01-05 14:55:24.89	20.48	12.70	-42.0	-43.1	21.7	0.00e+00	2	28	101	1048576	60	6977
2026-01-05 14:55:25.90	20.47	12.80	-42.0	-43.2	21.8	0.00e+00	0	28	101	1048576	60	7018
2026-01-05 14:55:26.91	20.47	12.89	-42.0	-43.2	21.8	0.00e+00	81	28	101	1048576	60	7023
2026-01-05 14:55:27.92	20.46	12.99	-42.0	-43.2	21.8	0.00e+00	91	28	101	1048576	60	7032
2026-01-05 14:55:28.93	20.46	13.09	-42.0	-43.1	21.9	0.00e+00	81	28	101	1048576	60	6961
2026-01-05 14:55:29.94	20.45	13.19	-41.9	-43.1	21.9	0.00e+00	0	28	101	1048576	60	6944
2026-01-05 14:55:30.95	20.44	13.29	-41.9	-43.0	22.0	0.00e+00	0	28	101	1048576	60	6863
2026-01-05 14:55:31.96	20.44	13.39	-41.8	-42.9	22.1	0.00e+00	82	28	101	1048576	60	6773
2026-01-05 14:55:32.97	20.43	13.49	-41.8	-42.9	22.0	0.00e+00	82	28	101	1048576	60	6845
2026-01-05 14:55:33.99	20.43	13.59	-41.7	-42.7	22.2	0.00e+00	0	28	101	1048576	60	6682
2026-01-05 14:55:35.00	20.42	13.69	-41.6	-42.7	22.3	0.00e+00	92	28	101	1048576	60	6667
2026-01-05 14:55:36.01	20.41	13.80	-41.7	-42.7	22.2	0.00e+00	0	28	101	1048576	60	6691
2026-01-05 14:55:37.02	20.41	13.90	-41.7	-42.8	22.0	0.00e+00	92	28	101	1048576	60	6749
2026-01-05 14:55:38.03	20.40	14.00	-41.7	-42.8	22.1	0.00e+00	2	28	101	1048576	60	6727
2026-01-05 14:55:39.04	20.39	14.10	-41.7	-42.8	22.2	0.00e+00	0	28	101	1048576	60	6707
2026-01-05 14:55:40.05	20.39	14.21	-41.6	-42.7	22.3	0.00e+00	0	28	101	1048576	60	6661
2026-01-05 14:55:41.06	20.38	14.31	-41.6	-42.7	22.2	0.00e+00	0	28	101	1048576	60	6653
2026-01-05 14:55:42.07	20.37	14.42	-41.5	-42.6	22.4	0.00e+00	0	28	101	1048576	60	6550
2026-01-05 14:55:43.09	20.37	14.52	-41.4	-42.5	22.4	0.00e+00	0	28	101	1048576	60	6493
2026-01-05 14:55:44.10	20.36	14.63	-41.5	-42.5	22.4	0.00e+00	90	28	101	1048576	60	6507
2026-01-05 14:55:45.11	20.35	14.73	-41.6	-42.7	22.4	0.00e+00	0	28	101	1048576	60	6631
2026-01-05 14:55:46.12	20.35	14.84	-41.5	-42.5	22.4	0.00e+00	1	28	101	1048576	60	6524
2026-01-05 14:55:47.13	20.34	14.95	-41.4	-42.5	22.5	0.00e+00	0	28	101	1048576	60	6494
2026-01-05 14:55:48.14	20.33	15.05	-41.4	-42.5	22.5	0.00e+00	80	28	101	1048576	60	6465
2026-01-05 14:55:49.15	20.32	15.16	-41.4	-42.4	22.5	0.00e+00	72	28	101	1048576	60	6441
2026-01-05 14:55:50.16	20.32	15.27	-41.5	-42.5	22.5	0.00e+00	81	28	101	1048576	60	6536
2026-01-05 14:55:51.18	20.31	15.38	-41.2	-42.3	22.6	0.00e+00	92	28	101	1048576	60	6330
2026-01-05 14:55:52.19	20.30	15.49	-41.2	-42.3	22.7	0.00e+00	0	28	101	1048576	60	6320
2026-01-05 14:55:53.20	20.29	15.60	-41.2	-42.3	22.7	0.00e+00	92	28	101	1048576	60	6327
2026-01-05 14:55:54.21	20.28	15.71	-41.3	-42.3	22.7	0.00e+00	0	28	101	1048576	60	6349
2026-01-05 14:55:55.22	20.28	15.82	-41.2	-42.2	22.8	0.00e+00	1	28	101	1048576	60	6275
2026-01-05 14:55:56.23	20.27	15.93	-41.3	-42.4	22.7	0.00e+00	0	28	101	1048576	60	6392
2026-01-05 14:55:57.24	20.26	16.04	-41.1	-42.1	22.8	0.00e+00	0	28	101	1048576	60	6236
2026-01-05 14:55:58.25	20.25	16.15	-41.1	-42.1	22.9	0.00e+00	92	28	101	1048576	60	6184
2026-01-05 14:55:59.26	20.24	16.27	-41.1	-42.1	22.8	0.00e+00	0	28	101	1048576	60	6226
2026-01-05 14:56:00.27	20.24	16.38	-41.2	-42.2	22.8	0.00e+00	92	28	101	1048576	60	6266
2026-01-05 14:56:01.28	20.23	16.49	-41.1	-42.1	22.8	0.00e+00	2	28	101	1048576	60	6228
2026-01-05 14:56:02.29	20.22	16.61	-41.0	-42.0	23.0	0.00e+00	0	28	101	1048576	60	6120
2026-01-05 14:56:03.31	20.21	16.72	-40.9	-41.9	23.1	0.00e+00	0	28	101	1048576	60	6064
2026-01-05 14:56:04.32	20.20	16.84	-40.9	-41.9	23.0	0.00e+00	0	28	101	1048576	60	6086
2026-01-05 14:56:05.33	20.19	16.95	-40.9	-41.9	23.1	0.00e+00	59	28	101	1048576	60	6035
2026-01-05 14:56:06.34	20.18	17.07	-40.9	-41.8	23.1	0.00e+00	81	28	101	1048576	60	6029
2026-01-05 14:56:07.35	20.17	17.19	-40.7	-41.7	23.3	0.00e+00	92	28	101	1048576	60	5904
2026-01-05 14:56:08.36	20.16	17.31	-40.7	-41.7	23.3	0.00e+00	81	28	101	1048576	60	5900
2026-01-05 14:56:09.37	20.16	17.42	-40.7	-41.7	23.3	0.00e+00	0	28	101	1048576	60	5924
2026-01-05 14:56:10.38	20.15	17.54	-40.7	-41.6	23.3	0.00e+00	0	28	101	1048576	60	5896
2026-01-05 14:56:11.39	20.14	17.66	-40.7	-41.6	23.4	0.00e+00	4	28	101	1048576	60	5881
2026-01-05 14:56:12.40	20.13	17.78	-40.7	-41.7	23.2	0.00e+00	82	28	101	1048576	60	5912
2026-01-05 14:56:13.41	20.12	17.90	-40.6	-41.5	23.4	0.00e+00	5	28	101	1048576	60	5811
2026-01-05 14:56:14.42	20.11	18.02	-40.6	-41.5	23.4	0.00e+00	92	28	101	1048576	60	5797
2026-01-05 14:56:15.44	20.10	18.15	-40.7	-41.6	23.3	0.00e+00	0	28	101	1048576	60	5871
2026-01-05 14:56:16.44	20.09	18.27	-40.4	-41.4	23.5	0.00e+00	91	28	101	1048576	60	5702
2026-01-05 14:56:17.46	20.08	18.39	-40.6	-41.5	23.5	0.00e+00	0	28	101	1048576	60	5812
2026-01-05 14:56:18.47	20.07	18.51	-40.6	-41.5	23.4	0.00e+00	6	28	101	1048576	60	5821
2026-01-05 14:56:19.48	20.06	18.64	-40.5	-41.4	23.6	0.00e+00	0	28	101	1048576	60	5726
2026-01-05 14:56:20.49	20.05	18.76	-40.6	-41.5	23.4	0.00e+00	0	28	101	1048576	60	5827
2026-01-05 14:56:21.50	20.03	18.89	-40.5	-41.4	23.6	0.00e+00	92	28	101	1048576	60	5723
2026-01-05 14:56:22.51	20.02	19.01	-40.5	-41.5	23.5	0.00e+00	86	28	101	1048576	60	5768
2026-01-05 14:56:23.53	20.01	19.14	-40.4	-41.4	23.6	0.00e+00	90	28	101	1048576	60	5699
2026-01-05 14:56:24.54	20.00	19.27	-40.4	-41.3	23.6	0.00e+00	1	28	101	1048576	60	5672
2026-01-05 14:56:25.55	19.99	19.40	-40.4	-41.3	23.7	0.00e+00	0	28	101	1048576	60	5665
2026-01-05 14:56:26.56	19.98	19.53	-40.4	-41.3	23.7	0.00e+00	0	28	101	1048576	60	5667
2026-01-05 14:56:27.57	19.97	19.66	-40.4	-41.3	23.7	0.00e+00	0	28	101	1048576	60	5664
2026-01-05 14:56:28.58	19.96	19.79	-40.4	-41.4	23.6	0.00e+00	92	28	101	1048576	60	5710
2026-01-05 14:56:29.59	19.94	19.92	-40.4	-41.3	23.7	0.00e+00	0	28	101	1048576	60	5669
2026-01-05 14:56:30.60	19.93	20.05	-40.5	-41.4	23.5	0.00e+00	92	28	101	1048576	60	5751
2026-01-05 14:56:31.61	19.92	20.18	-40.4	-41.4	23.7	0.00e+00	6	28	101	1048576	60	5714
2026-01-05 14:56:32.62	19.91	20.31	-40.3	-41.2	23.7	0.00e+00	20	28	101	1048576	60	5614
2026-01-05 14:56:33.63	19.90	20.45	-40.4	-41.4	23.6	0.00e+00	0	28	101	1048576	60	5708
2026-01-05 14:56:34.64	19.88	20.58	-40.3	-41.2	23.7	0.00e+00	2	28	101	1048576	60	5583
2026-01-05 14:56:35.65	19.87	20.71	-40.3	-41.2	23.7	0.00e+00	2	28	101	1048576	60	5598
2026-01-05 14:56:36.67	19.86	20.85	-40.3	-41.2	23.8	0.00e+00	2	28	101	1048576	60	5625
2026-01-05 14:56:37.67	19.85	20.99	-40.2	-41.1	23.7	0.00e+00	92	28	101	1048576	60	5559
2026-01-05 14:56:38.69	19.83	21.12	-40.3	-41.2	23.7	0.00e+00	0	28	101	1048576	60	5596
2026-01-05 14:56:39.70	19.82	21.26	-40.3	-41.2	23.9	0.00e+00	13	28	101	1048576	60	5572
2026-01-05 14:56:40.71	19.81	21.40	-40.0	-40.9	24.0	0.00e+00	3	28	101	1048576	58	6077
2026-01-05 14:56:41.72	19.79	21.54	-40.2	-41.2	23.8	0.00e+00	79	28	101	1048576	58	6252
2026-01-05 14:56:42.73	19.78	21.68	-40.1	-41.0	23.9	0.00e+00	0	28	101	1048576	58	6118
2026-01-05 14:56:43.74	19.77	21.82	-40.1	-41.0	23.9	0.00e+00	0	28	101	1048576	58	6110
2026-01-05 14:56:44.75	19.75	21.96	-40.0	-40.9	23.8	0.00e+00	92	28	101	1048576	58	6082
2026-01-05 14:56:45.76	19.74	22.11	-40.2	-41.2	23.8	0.00e+00	0	28	101	1048576	58	6248
2026-01-05 14:56:46.77	19.72	22.25	-40.2	-41.1	23.8	0.00e+00	92	28	101	1048576	58	6199
2026-01-05 14:56:47.79	19.71	22.39	-40.0	-40.9	24.1	0.00e+00	80	28	101	1048576	58	6041
2026-01-05 14:56:48.80	19.69	22.54	-40.0	-40.9	24.0	0.00e+00	0	28	101	1048576	58	6060
2026-01-05 14:56:49.81	19.68	22.68	-40.1	-41.1	23.8	0.00e+00	2	28	101	1048576	58	6176
2026-01-05 14:56:50.82	19.66	22.83	-40.1	-40.9	24.0	0.00e+00	0	28	101	1048576	58	6101
2026-01-05 14:56:51.83	19.65	22.98	-39.9	-40.8	24.0	0.00e+00	92	28	101	1048576	58	6024
2026-01-05 14:56:52.84	19.63	23.13	-39.8	-40.7	24.1	0.00e+00	2	28	101	1048576	58	5947
2026-01-05 14:56:53.85	19.62	23.28	-40.0	-40.9	24.0	0.00e+00	92	28	101	1048576	58	6053
2026-01-05 14:56:54.86	19.60	23.43	-39.9	-40.8	24.0	0.00e+00	4	28	101	1048576	58	6004
2026-01-05 14:56:55.87	19.59	23.58	-39.9	-40.8	24.1	0.00e+00	1	28	101	1048576	58	6024
2026-01-05 14:56:56.88	19.57	23.73	-39.9	-40.7	24.1	0.00e+00	0	28	101	1048576	58	5952
2026-01-05 14:56:57.90	19.55	23.88	-39.8	-40.7	24.1	0.00e+00	79	28	101	1048576	58	5929
2026-01-05 14:56:58.91	19.54	24.04	-39.9	-40.8	24.1	0.00e+00	90	28	101	1048576	58	5971
2026-01-05 14:56:59.92	19.52	24.19	-39.9	-40.8	24.1	0.00e+00	79	28	101	1048576	58	5982
2026-01-05 14:57:00.93	19.50	24.35	-39.7	-40.6	24.3	0.00e+00	90	28	101	1048576	58	5856
2026-01-05 14:57:01.94	19.49	24.50	-39.8	-40.7	24.1	0.00e+00	0	28	101	1048576	58	5945
2026-01-05 14:57:02.95	19.47	24.66	-39.9	-40.7	24.2	0.00e+00	80	28	101	1048576	58	5960
2026-01-05 14:57:03.96	19.45	24.82	-40.0	-40.8	24.1	0.00e+00	77	28	101	1048576	58	6027
2026-01-05 14:57:04.97	19.43	24.98	-39.9	-40.8	24.1	0.00e+00	0	28	101	1048576	58	5996
2026-01-05 14:57:05.99	19.42	25.14	-39.9	-40.7	24.1	0.00e+00	0	28	101	1048576	58	5960
2026-01-05 14:57:07.00	19.40	25.30	-39.9	-40.8	24.1	0.00e+00	0	28	101	1048576	58	6005
2026-01-05 14:57:08.01	19.38	25.46	-40.0	-40.9	23.9	0.00e+00	92	28	101	1048576	58	6064
2026-01-05 14:57:09.02	19.36	25.62	-40.0	-40.9	24.1	0.00e+00	2	28	101	1048576	58	6034
2026-01-05 14:57:10.03	19.34	25.79	-40.1	-41.0	23.9	0.00e+00	92	28	101	1048576	58	6142
2026-01-05 14:57:11.04	19.32	25.95	-40.1	-41.0	23.9	0.00e+00	4	28	101	1048576	58	6126
2026-01-05 14:57:12.05	19.30	26.12	-40.2	-41.1	23.7	0.00e+00	0	28	101	1048576	58	6239
2026-01-05 14:57:13.06	19.28	26.29	-40.3	-41.3	23.7	0.00e+00	0	28	101	1048576	58	6321
2026-01-05 14:57:14.07	19.26	26.45	-40.4	-41.3	23.7	0.00e+00	0	28	101	1048576	58	6353
2026-01-05 14:57:15.09	19.24	26.62	-40.7	-41.6	23.5	0.00e+00	91	28	101	1048576	58	6575
2026-01-05 14:57:16.10	19.22	26.80	-40.6	-41.6	23.5	0.00e+00	4	28	101	1048576	58	6548
2026-01-05 14:57:17.11	19.20	26.97	-40.6	-41.5	23.5	0.00e+00	92	28	101	1048576	58	6500
2026-01-05 14:57:18.12	19.18	27.14	-40.7	-41.7	23.4	0.00e+00	5	28	101	1048576	58	6619
2026-01-05 14:57:19.13	19.16	27.31	-40.8	-41.7	23.4	0.00e+00	4	28	101	1048576	58	6670
2026-01-05 14:57:20.14	19.14	27.49	-40.9	-41.9	23.3	0.00e+00	0	28	101	1048576	58	6791
2026-01-05 14:57:21.15	19.12	27.66	-41.0	-42.0	23.1	0.00e+00	0	28	101	1048576	58	6889
2026-01-05 14:57:22.17	19.09	27.84	-41.3	-42.3	22.9	0.00e+00	92	28	101	1048576	60	6325
2026-01-05 14:57:23.18	19.07	28.02	-41.5	-42.5	22.6	0.00e+00	0	28	101	1048576	60	6532
2026-01-05 14:57:24.19	19.05	28.20	-41.6	-42.7	22.4	0.00e+00	92	28	101	1048576	60	6620
2026-01-05 14:57:25.20	19.03	28.38	-41.7	-42.8	22.5	0.00e+00	2	28	101	1048576	60	6702
2026-01-05 14:57:26.21	19.00	28.56	-42.1	-43.1	22.2	0.00e+00	16	28	101	1048576	60	7007
2026-01-05 14:57:27.22	18.98	28.74	-42.1	-43.2	22.1	0.00e+00	0	29	101	1048576	60	7013
2026-01-05 14:57:28.23	18.96	28.93	-42.2	-43.3	21.9	0.00e+00	0	28	101	1048576	60	7115
2026-01-05 14:57:29.24	18.93	29.11	-42.5	-43.6	21.6	0.00e+00	91	28	101	1048576	60	7408
2026-01-05 14:57:30.25	18.91	29.30	-42.6	-43.8	21.3	0.00e+00	0	28	101	1048576	60	7538
2026-01-05 14:57:31.26	18.88	29.49	-42.9	-44.1	21.1	0.00e+00	92	28	101	1048576	60	7862
2026-01-05 14:57:32.28	18.86	29.68	-43.0	-44.3	21.0	0.00e+00	0	28	101	1048576	60	7963
2026-01-05 14:57:33.29	18.83	29.87	-43.3	-44.6	20.8	0.00e+00	5	28	101	1048576	60	8239
2026-01-05 14:57:34.30	18.80	30.06	-43.5	-44.8	20.6	0.00e+00	78	28	101	1048576	60	8500
2026-01-05 14:57:35.31	18.78	30.25	-43.7	-45.0	20.4	0.00e+00	2	28	101	1048576	60	8676
2026-01-05 14:57:36.32	18.75	30.44	-43.7	-45.1	20.3	0.00e+00	0	28	101	1048576	60	8741
2026-01-05 14:57:37.33	18.72	30.64	-44.0	-45.4	20.0	0.00e+00	81	28	101	1048576	60	9083
2026-01-05 14:57:38.34	18.70	30.84	-44.1	-45.5	19.9	0.00e+00	92	28	101	1048576	60	9220
2026-01-05 14:57:39.35	18.67	31.03	-44.0	-45.4	20.1	0.00e+00	0	28	101	1048576	60	9102
2026-01-05 14:57:40.36	18.64	31.23	-44.0	-45.5	19.9	0.00e+00	91	28	101	1048576	60	9163
2026-01-05 14:57:41.38	18.61	31.43	-44.1	-45.5	19.9	0.00e+00	0	28	101	1048576	60	9235
2026-01-05 14:57:42.39	18.58	31.64	-44.1	-45.6	19.9	0.00e+00	0	28	101	1048576	60	9271
2026-01-05 14:57:43.40	18.55	31.84	-44.2	-45.6	19.9	0.00e+00	0	28	101	1048576	60	9326
2026-01-05 14:57:44.41	18.52	32.04	-44.1	-45.6	20.0	0.00e+00	5	28	101	1048576	60	9257
2026-01-05 14:57:45.42	18.49	32.25	-43.7	-45.0	20.4	0.00e+00	92	28	101	1048576	60	8713
2026-01-05 14:57:46.43	18.46	32.46	-43.5	-44.8	20.6	0.00e+00	0	28	101	1048576	60	8481
2026-01-05 14:57:47.44	18.43	32.67	-43.4	-44.7	20.8	0.00e+00	92	28	101	1048576	60	8364
2026-01-05 14:57:48.45	18.40	32.88	-42.8	-44.1	21.2	0.00e+00	5	28	101	1048576	60	7777
2026-01-05 14:57:49.46	18.37	33.09	-42.8	-44.0	21.4	0.00e+00	4	28	101	1048576	60	7685
2026-01-05 14:57:50.47	18.34	33.30	-42.4	-43.6	21.7	0.00e+00	8	28	101	1048576	60	7346
2026-01-05 14:57:51.49	18.30	33.52	-42.2	-43.3	22.0	0.00e+00	3	28	101	1048576	60	7133
2026-01-05 14:57:52.50	18.27	33.74	-41.9	-43.0	22.4	0.00e+00	92	28	101	1048576	60	6883
2026-01-05 14:57:53.51	18.24	33.95	-41.5	-42.5	22.6	0.00e+00	1	28	101	1048576	60	6526
2026-01-05 14:57:54.52	18.20	34.17	-41.3	-42.3	22.9	0.00e+00	92	28	101	1048576	60	6325
2026-01-05 14:57:55.53	18.17	34.39	-40.9	-41.8	23.4	0.00e+00	86	28	101	1048576	60	6012
2026-01-05 14:57:56.54	18.13	34.62	-40.8	-41.7	23.4	0.00e+00	20	28	101	1048576	60	5954
2026-01-05 14:57:57.55	18.09	34.84	-40.6	-41.5	23.7	0.00e+00	80	28	101	1048576	60	5807
2026-01-05 14:57:58.56	18.06	35.07	-40.3	-41.2	23.9	0.00e+00	82	28	101	1048576	60	5582
2026-01-05 14:57:59.57	18.02	35.29	-40.3	-41.2	23.9	0.00e+00	0	28	101	1048576	60	5583
2026-01-05 14:58:00.58	17.98	35.52	-39.9	-40.8	24.2	0.00e+00	81	28	101	1048576	58	5969
2026-01-05 14:58:01.60	17.94	35.76	-39.8	-40.6	24.3	0.00e+00	92	28	101	1048576	58	5872
2026-01-05 14:58:02.61	17.90	35.99	-39.6	-40.4	24.6	0.00e+00	6	28	101	1048576	58	5731
2026-01-05 14:58:03.62	17.87	36.22	-39.4	-40.2	24.8	0.00e+00	91	28	101	1048576	58	5601
2026-01-05 14:58:04.63	17.82	36.46	-39.2	-40.0	24.9	0.00e+00	6	28	101	1048576	58	5462
2026-01-05 14:58:05.64	17.78	36.70	-39.2	-40.0	24.8	0.00e+00	0	28	101	1048576	56	6139
2026-01-05 14:58:06.65	17.74	36.93	-39.0	-39.8	25.1	0.00e+00	0	28	101	1048576	56	5998
2026-01-05 14:58:07.66	17.70	37.18	-39.0	-39.8	25.0	0.00e+00	7	28	101	1048576	56	5968
2026-01-05 14:58:08.67	17.66	37.42	-38.9	-39.6	25.2	0.00e+00	92	28	101	1048576	56	5891
2026-01-05 14:58:09.68	17.61	37.66	-39.0	-39.8	24.9	0.00e+00	0	28	101	1048576	56	6003
2026-01-05 14:58:10.70	17.57	37.91	-38.8	-39.6	25.2	0.00e+00	92	28	101	1048576	56	5883
2026-01-05 14:58:11.71	17.52	38.16	-39.0	-39.8	25.0	0.00e+00	0	28	101	1048576	56	6003
2026-01-05 14:58:12.72	17.48	38.41	-39.1	-39.9	24.9	0.00e+00	0	28	101	1048576	56	6072
2026-01-05 14:58:13.73	17.43	38.66	-39.3	-40.1	24.9	0.00e+00	2	28	101	1048576	56	6241
2026-01-05 14:58:14.74	17.38	38.91	-39.3	-40.1	24.8	0.00e+00	0	28	101	1048576	56	6208
2026-01-05 14:58:15.75	17.34	39.17	-39.5	-40.3	24.6	0.00e+00	90	28	101	1048576	56	6368
2026-01-05 14:58:16.76	17.29	39.43	-39.4	-40.3	24.7	0.00e+00	75	28	101	1048576	56	6329
2026-01-05 14:58:17.77	17.24	39.69	-39.6	-40.5	24.4	0.00e+00	92	28	101	1048576	56	6487
2026-01-05 14:58:18.79	17.19	39.95	-39.8	-40.6	24.4	0.00e+00	75	28	101	1048576	56	6602
2026-01-05 14:58:19.80	17.13	40.21	-40.0	-40.9	24.2	0.00e+00	2	28	101	1048576	56	6831
2026-01-05 14:58:20.81	17.08	40.48	-40.0	-40.9	24.2	0.00e+00	0	28	101	1048576	56	6784
2026-01-05 14:58:21.82	17.03	40.74	-40.0	-40.9	24.1	0.00e+00	2	28	101	1048576	58	6085
2026-01-05 14:58:22.83	16.97	41.01	-40.1	-41.0	24.1	0.00e+00	0	28	101	1048576	58	6141
2026-01-05 14:58:23.84	16.92	41.28	-40.1	-41.1	23.9	0.00e+00	0	28	101	1048576	58	6174
2026-01-05 14:58:24.85	16.86	41.56	-40.1	-41.0	24.0	0.00e+00	92	28	101	1048576	58	6157
2026-01-05 14:58:25.86	16.80	41.83	-40.2	-41.1	23.9	0.00e+00	0	28	101	1048576	58	6230
2026-01-05 14:58:26.87	16.74	42.11	-40.2	-41.1	24.0	0.00e+00	43	28	101	1048576	58	6214
2026-01-05 14:58:27.88	16.69	42.39	-40.1	-41.0	24.1	0.00e+00	0	28	101	1048576	58	6123
2026-01-05 14:58:28.90	16.62	42.67	-40.4	-41.3	23.8	0.00e+00	4	28	101	1048576	58	6324
2026-01-05 14:58:29.91	16.56	42.96	-40.2	-41.1	23.9	0.00e+00	0	28	101	1048576	58	6192
2026-01-05 14:58:30.92	16.50	43.24	-40.3	-41.2	23.9	0.00e+00	5	28	101	1048576	58	6254
2026-01-05 14:58:31.93	16.43	43.53	-40.6	-41.5	23.5	0.00e+00	92	28	101	1048576	58	6492
2026-01-05 14:58:32.94	16.37	43.82	-40.8	-41.8	23.3	0.00e+00	76	28	101	1048576	58	6722
2026-01-05 14:58:33.95	16.30	44.11	-40.8	-41.8	23.3	0.00e+00	92	28	101	1048576	58	6705
2026-01-05 14:58:34.96	16.23	44.40	-40.8	-41.8	23.4	0.00e+00	0	28	101	1048576	58	6711
2026-01-05 14:58:35.97	16.16	44.70	-41.0	-41.9	23.0	0.00e+00	82	28	101	1048576	58	6833
2026-01-05 14:58:36.99	16.09	45.00	-41.5	-42.6	21.8	0.00e+00	0	28	101	1048576	60	6564
2026-01-05 14:58:38.00	16.02	45.30	-42.3	-43.4	22.0	0.00e+00	0	28	101	1048576	60	7233
2026-01-05 14:58:39.01	15.95	45.60	-42.6	-43.7	21.6	0.00e+00	92	28	101	1048576	60	7496
2026-01-05 14:58:40.02	15.87	45.91	-42.9	-44.1	21.3	0.00e+00	0	28	101	1048576	60	7805
2026-01-05 14:58:41.03	15.79	46.22	-43.1	-44.3	21.0	0.00e+00	92	28	101	1048576	60	8043
2026-01-05 14:58:42.04	15.72	46.53	-43.5	-44.8	20.5	0.00e+00	0	28	101	1048576	60	8497
2026-01-05 14:58:43.05	15.64	46.84	-43.9	-45.3	20.3	0.00e+00	0	28	101	1048576	60	8952
2026-01-05 14:58:44.06	15.55	47.15	-44.1	-45.6	19.7	0.00e+00	2	28	101	1048576	60	9261
2026-01-05 14:58:45.07	15.47	47.47	-43.5	-44.8	20.5	0.00e+00	4	28	101	1048576	60	8458
2026-01-05 14:58:46.08	15.39	47.79	-43.3	-44.5	20.9	0.00e+00	0	28	101	1048576	60	8198
2026-01-05 14:58:47.10	15.30	48.11	-43.4	-44.7	20.7	0.00e+00	6	28	101	1048576	60	8330
2026-01-05 14:58:48.11	15.21	48.43	-42.9	-44.1	21.2	0.00e+00	92	28	101	1048576	60	7812
2026-01-05 14:58:49.12	15.12	48.76	-42.7	-43.9	21.6	0.00e+00	6	28	101	1048576	60	7629
2026-01-05 14:58:50.13	15.02	49.09	-42.5	-43.6	21.7	0.00e+00	42	28	101	1048576	60	7379
2026-01-05 14:58:51.14	14.93	49.42	-42.4	-43.5	21.9	0.00e+00	0	28	101	1048576	60	7295
2026-01-05 14:58:52.15	14.83	49.75	-41.9	-43.0	22.2	0.00e+00	0	28	101	1048576	60	6899
2026-01-05 14:58:53.16	14.73	50.09	-41.3	-42.3	22.9	0.00e+00	0	28	101	1048576	60	6388
2026-01-05 14:58:54.17	14.63	50.42	-40.8	-41.7	23.4	0.00e+00	0	29	101	1048576	60	5946
2026-01-05 14:58:55.18	14.53	50.76	-40.4	-41.4	23.8	0.00e+00	92	29	101	1048576	60	5709
2026-01-05 14:58:56.20	14.42	51.11	-39.5	-40.4	24.6	0.00e+00	0	29	101	1048576	58	5712
2026-01-05 14:58:57.21	14.31	51.45	-39.2	-40.0	24.9	0.00e+00	92	28	101	1048576	58	5461
2026-01-05 14:58:58.22	14.20	51.80	-39.0	-39.9	25.1	0.00e+00	2	29	101	1048576	56	6043
2026-01-05 14:58:59.23	14.08	52.15	-38.8	-39.6	25.2	0.00e+00	0	28	101	1048576	56	5851
2026-01-05 14:59:00.24	13.96	52.50	-38.5	-39.3	25.4	0.00e+00	2	28	101	1048576	56	5663
2026-01-05 14:59:01.25	13.84	52.85	-38.6	-39.4	25.3	0.00e+00	5	28	101	1048576	56	5751
2026-01-05 14:59:02.26	13.72	53.21	-38.7	-39.5	25.3	0.00e+00	92	28	101	1048576	56	5765
2026-01-05 14:59:03.27	13.59	53.57	-38.8	-39.6	25.1	0.00e+00	4	29	101	1048576	56	5832
2026-01-05 14:59:04.28	13.46	53.93	-38.9	-39.7	25.1	0.00e+00	92	28	101	1048576	56	5963
2026-01-05 14:59:05.29	13.33	54.30	-39.2	-40.0	24.7	0.00e+00	77	28	101	1048576	56	6132
2026-01-05 14:59:06.30	13.19	54.66	-39.2	-40.0	24.9	0.00e+00	0	28	101	1048576	56	6116
2026-01-05 14:59:07.31	13.05	55.03	-39.4	-40.2	24.7	0.00e+00	0	28	101	1048576	56	6273
2026-01-05 14:59:08.33	12.91	55.41	-39.6	-40.5	24.5	0.00e+00	0	28	101	1048576	56	6496
2026-01-05 14:59:09.34	12.76	55.78	-40.1	-40.9	24.0	0.00e+00	15	28	101	1048576	56	6840
2026-01-05 14:59:10.35	12.60	56.16	-40.9	-41.9	23.2	0.00e+00	81	28	101	1048576	58	6803
2026-01-05 14:59:11.36	12.45	56.53	-41.5	-42.6	22.5	0.00e+00	92	28	101	1048576	60	6560
2026-01-05 14:59:12.37	12.29	56.91	-42.5	-43.7	21.6	0.00e+00	0	28	101	1048576	60	7443
2026-01-05 14:59:13.38	12.12	57.30	-43.1	-44.4	20.9	0.00e+00	92	28	101	1048576	60	8059
2026-01-05 14:59:14.39	11.95	57.68	-43.8	-45.2	20.2	0.00e+00	5	28	101	1048576	60	8823
2026-01-05 14:59:15.40	11.77	58.07	-43.8	-45.2	20.1	0.00e+00	5	28	101	1048576	60	8897
2026-01-05 14:59:16.41	11.59	58.46	-44.3	-45.8	19.7	0.00e+00	76	28	101	1048576	60	9557
2026-01-05 14:59:17.42	11.40	58.85	-44.2	-45.7	19.8	0.00e+00	0	29	101	1048576	60	9437
2026-01-05 14:59:18.44	11.21	59.25	-43.8	-45.2	20.2	0.00e+00	92	28	101	1048576	60	8844
2026-01-05 14:59:19.44	11.01	59.64	-42.7	-44.0	21.4	0.00e+00	5	28	101	1048576	60	7695
2026-01-05 14:59:20.46	10.81	60.05	-41.9	-43.0	22.3	0.00e+00	92	28	101	1048576	60	6863
2026-01-05 14:59:21.47	10.59	60.45	-41.4	-42.4	22.8	0.00e+00	0	28	101	1048576	60	6436
2026-01-05 14:59:22.48	10.38	60.85	-40.9	-41.8	23.2	0.00e+00	7	28	101	1048576	60	6024
2026-01-05 14:59:23.49	10.15	61.26	-40.7	-41.6	23.4	0.00e+00	0	28	101	1048576	60	5884
2026-01-05 14:59:24.50	9.92	61.67	-40.1	-41.0	24.0	0.00e+00	4	29	101	1048576	58	6155
2026-01-05 14:59:25.51	9.68	62.08	-39.5	-40.4	24.5	0.00e+00	91	28	101	1048576	58	5718
2026-01-05 14:59:26.53	9.42	62.49	-39.6	-40.5	24.0	0.00e+00	82	28	101	1048576	58	5774
2026-01-05 14:59:27.53	9.17	62.90	-39.1	-39.9	24.9	0.00e+00	92	28	101	1048576	58	5432
2026-01-05 14:59:28.55	8.90	63.32	-39.3	-40.2	24.7	0.00e+00	0	28	101	1048576	56	6260
2026-01-05 14:59:29.56	8.62	63.74	-39.2	-40.0	24.8	0.00e+00	0	28	101	1048576	56	6171
2026-01-05 14:59:30.57	8.33	64.16	-39.5	-40.3	24.5	0.00e+00	0	28	101	1048576	56	6367
2026-01-05 14:59:31.58	8.03	64.58	-39.5	-40.3	24.6	0.00e+00	81	28	101	1048576	56	6357
2026-01-05 14:59:32.59	7.72	65.00	-40.0	-40.9	24.0	0.00e+00	92	28	101	1048576	56	6819
2026-01-05 14:59:33.60	7.40	65.43	-40.3	-41.2	23.8	0.00e+00	6	28	101	1048576	58	6268
2026-01-05 14:59:34.61	7.06	65.85	-40.6	-41.5	23.5	0.00e+00	92	28	101	1048576	58	6516
2026-01-05 14:59:35.62	6.71	66.28	-40.8	-41.8	23.2	0.00e+00	0	28	101	1048576	58	6740
2026-01-05 14:59:36.64	6.35	66.72	-41.0	-42.0	23.0	0.00e+00	7	28	101	1048576	58	6903
2026-01-05 14:59:37.65	5.97	67.15	-40.8	-41.7	23.3	0.00e+00	7	28	101	1048576	58	6692
2026-01-05 14:59:38.66	5.58	67.58	-40.7	-41.6	23.3	0.00e+00	7	28	101	1048576	58	6577
2026-01-05 14:59:39.67	5.16	68.01	-40.7	-41.6	23.4	0.00e+00	0	29	101	1048576	58	6593
2026-01-05 14:59:40.68	4.73	68.45	-40.6	-41.5	23.5	0.00e+00	2	28	101	1048576	58	6524
2026-01-05 14:59:41.69	4.28	68.88	-40.0	-40.9	24.1	0.00e+00	92	28	101	1048576	58	6072
2026-01-05 14:59:42.70	3.82	69.32	-39.8	-40.7	24.2	0.00e+00	80	28	101	1048576	58	5927
2026-01-05 14:59:43.71	3.32	69.75	-40.2	-41.1	22.9	0.00e+00	37	28	101	1048576	58	6199
2026-01-05 14:59:44.72	2.81	70.19	-40.2	-41.1	23.7	0.00e+00	8	28	101	1048576	58	6240
2026-01-05 14:59:45.73	2.27	70.63	-40.2	-41.1	24.0	0.00e+00	6	28	101	1048576	58	6202
2026-01-05 14:59:46.75	1.70	71.07	-40.5	-41.4	23.5	0.00e+00	81	28	101	1048576	58	6456
2026-01-05 14:59:47.76	1.10	71.51	-40.7	-41.7	23.5	0.00e+00	0	28	101	1048576	58	6659
2026-01-05 14:59:48.77	0.47	71.95	-40.4	-41.3	23.7	0.00e+00	92	28	101	1048576	58	6331
2026-01-05 14:59:49.78	359.81	72.38	-40.1	-41.0	24.0	0.00e+00	73	28	101	1048576	58	6109
2026-01-05 14:59:50.79	359.12	72.82	-40.3	-41.2	23.8	0.00e+00	92	28	101	1048576	58	6254
2026-01-05 14:59:51.80	358.38	73.25	-40.9	-41.9	23.1	0.00e+00	0	28	101	1048576	58	6806
2026-01-05 14:59:52.81	357.61	73.69	-41.8	-42.9	22.4	0.00e+00	0	28	101	1048576	60	6798
2026-01-05 14:59:53.82	356.79	74.12	-42.2	-43.3	22.0	0.00e+00	0	28	101	1048576	60	7119
2026-01-05 14:59:54.84	355.91	74.56	-41.9	-43.0	22.0	0.00e+00	0	29	101	1048576	60	6899
2026-01-05 14:59:55.85	354.99	74.99	-41.4	-42.5	22.6	0.00e+00	90	29	101	1048576	60	6485
2026-01-05 14:59:56.86	354.01	75.41	-41.2	-42.2	23.1	0.00e+00	7	29	101	1048576	60	6303
2026-01-05 14:59:57.87	352.97	75.84	-41.2	-42.2	22.9	0.00e+00	92	28	101	1048576	60	6306
2026-01-05 14:59:58.88	351.87	76.26	-41.5	-42.6	22.6	0.00e+00	7	28	101	1048576	60	6567
2026-01-05 14:59:59.89	350.69	76.67	-42.3	-43.4	21.7	0.00e+00	74	29	101	1048576	60	7252
2026-01-05 15:00:00.90	349.44	77.08	-42.5	-43.7	21.6	0.00e+00	79	28	101	1048576	60	7433
2026-01-05 15:00:01.91	348.10	77.49	-42.3	-43.5	21.8	0.00e+00	6	28	101	1048576	60	7277
2026-01-05 15:00:02.93	346.65	77.89	-41.3	-42.3	22.9	0.00e+00	92	28	101	1048576	60	6329
2026-01-05 15:00:03.94	345.12	78.29	-40.7	-41.7	23.5	0.00e+00	8	28	101	1048576	60	5907
2026-01-05 15:00:04.95	343.48	78.67	-39.8	-40.7	24.2	0.00e+00	92	29	101	1048576	58	5922
2026-01-05 15:00:05.96	341.72	79.05	-39.3	-40.2	24.7	0.00e+00	79	29	101	1048576	58	5571
2026-01-05 15:00:06.97	339.84	79.41	-39.3	-40.1	24.7	0.00e+00	91	28	101	1048576	58	5541
2026-01-05 15:00:07.98	337.82	79.77	-39.3	-40.1	24.8	0.00e+00	79	28	101	1048576	58	5555
2026-01-05 15:00:08.99	335.66	80.11	-38.9	-39.6	24.9	0.00e+00	0	28	101	1048576	56	5895
2026-01-05 15:00:10.00	333.34	80.44	-39.5	-40.3	24.5	0.00e+00	82	28	101	1048576	56	6372
2026-01-05 15:00:11.01	330.86	80.75	-40.1	-41.0	24.0	0.00e+00	0	28	101	1048576	56	6857
2026-01-05 15:00:12.02	328.21	81.04	-40.1	-41.0	23.7	0.00e+00	91	28	101	1048576	58	6156
2026-01-05 15:00:13.04	325.36	81.32	-40.8	-41.7	23.3	0.00e+00	0	28	101	1048576	58	6682
2026-01-05 15:00:14.05	322.35	81.57	-41.6	-42.7	22.5	0.00e+00	64	28	101	1048576	60	6640
2026-01-05 15:00:15.06	319.16	81.80	-42.3	-43.4	21.8	0.00e+00	2	28	101	1048576	60	7206
2026-01-05 15:00:16.07	315.81	82.00	-43.2	-44.5	20.8	0.00e+00	0	28	101	1048576	60	8201
2026-01-05 15:00:17.08	312.29	82.17	-43.7	-45.1	20.4	0.00e+00	0	28	101	1048576	60	8736
2026-01-05 15:00:18.09	308.62	82.31	-43.6	-45.0	20.3	0.00e+00	0	28	101	1048576	60	8689
2026-01-05 15:00:19.10	304.83	82.42	-43.5	-44.8	20.6	0.00e+00	90	28	101	1048576	60	8516
2026-01-05 15:00:20.11	300.94	82.50	-43.2	-44.4	20.9	0.00e+00	7	28	101	1048576	60	8121
2026-01-05 15:00:21.12	297.00	82.54	-43.5	-44.9	20.6	0.00e+00	91	28	101	1048576	60	8523
2026-01-05 15:00:22.13	293.03	82.54	-43.8	-45.2	20.0	0.00e+00	9	28	101	1048576	60	8840
2026-01-05 15:00:23.14	289.07	82.51	-43.5	-44.9	20.5	0.00e+00	0	28	101	1048576	60	8544
2026-01-05 15:00:24.16	285.12	82.45	-43.4	-44.7	20.9	0.00e+00	0	28	101	1048576	60	8349
2026-01-05 15:00:25.17	281.30	82.35	-42.9	-44.1	21.2	0.00e+00	0	28	101	1048576	60	7837
2026-01-05 15:00:26.18	277.59	82.22	-42.5	-43.7	21.6	0.00e+00	92	28	101	1048576	60	7467
2026-01-05 15:00:27.19	274.02	82.05	-41.9	-43.1	22.1	0.00e+00	0	28	101	1048576	60	6928
2026-01-05 15:00:28.20	270.61	81.86	-42.3	-43.5	21.8	0.00e+00	92	28	101	1048576	60	7266
2026-01-05 15:00:29.21	267.37	81.64	-42.1	-43.3	21.9	0.00e+00	0	28	101	1048576	60	7130
2026-01-05 15:00:30.22	264.31	81.40	-41.4	-42.4	22.9	0.00e+00	10	28	101	1048576	60	6414
2026-01-05 15:00:31.23	261.42	81.13	-40.7	-41.7	23.4	0.00e+00	0	28	101	1048576	60	5926
2026-01-05 15:00:32.25	258.69	80.84	-40.4	-41.3	23.6	0.00e+00	0	28	101	1048576	60	5646
2026-01-05 15:00:33.26	256.15	80.53	-39.7	-40.6	24.2	0.00e+00	0	28	101	1048576	58	5861
2026-01-05 15:00:34.27	253.79	80.21	-39.7	-40.5	24.3	0.00e+00	0	28	101	1048576	58	5798
2026-01-05 15:00:35.28	251.58	79.87	-40.0	-40.8	24.1	0.00e+00	90	28	101	1048576	58	6030
2026-01-05 15:00:36.29	249.51	79.52	-40.2	-41.1	23.9	0.00e+00	79	28	101	1048576	58	6228
2026-01-05 15:00:37.30	247.59	79.16	-40.7	-41.6	23.3	0.00e+00	41	28	101	1048576	58	6569
2026-01-05 15:00:38.31	245.79	78.79	-41.6	-42.6	22.4	0.00e+00	80	28	101	1048576	60	6608
2026-01-05 15:00:39.32	244.12	78.40	-42.8	-44.1	21.1	0.00e+00	0	28	101	1048576	60	7823
2026-01-05 15:00:40.33	242.55	78.01	-43.2	-44.5	20.7	0.00e+00	4	28	101	1048576	60	8178
2026-01-05 15:00:41.34	241.09	77.62	-42.9	-44.2	21.2	0.00e+00	80	28	101	1048576	60	7885
2026-01-05 15:00:42.35	239.72	77.21	-42.1	-43.2	22.0	0.00e+00	91	28	101	1048576	60	7080
2026-01-05 15:00:43.37	238.43	76.80	-41.5	-42.5	22.7	0.00e+00	0	28	101	1048576	60	6508
2026-01-05 15:00:44.38	237.23	76.38	-40.4	-41.3	23.8	0.00e+00	92	28	101	1048576	60	5660
2026-01-05 15:00:45.39	236.10	75.96	-40.7	-41.6	23.5	0.00e+00	0	28	101	1048576	60	5886
2026-01-05 15:00:46.40	235.04	75.54	-41.8	-42.9	22.3	0.00e+00	6	28	101	1048576	60	6785
2026-01-05 15:00:47.41	234.05	75.11	-41.8	-42.9	22.3	0.00e+00	6	28	101	1048576	60	6836
2026-01-05 15:00:48.42	233.11	74.69	-41.3	-42.3	22.8	0.00e+00	0	28	101	1048576	60	6363
2026-01-05 15:00:49.44	232.22	74.25	-40.9	-41.9	23.2	0.00e+00	90	28	101	1048576	60	6058
2026-01-05 15:00:50.45	231.38	73.82	-39.9	-40.7	24.3	0.00e+00	3	28	101	1048576	58	5964
2026-01-05 15:00:51.46	230.59	73.38	-39.9	-40.8	24.2	0.00e+00	33	28	101	1048576	58	6008
2026-01-05 15:00:52.47	229.84	72.95	-39.5	-40.3	24.6	0.00e+00	5	28	101	1048576	58	5672
2026-01-05 15:00:53.48	229.14	72.51	-38.5	-39.3	25.4	0.00e+00	7	28	101	1048576	56	5674
2026-01-05 15:00:54.49	228.47	72.07	-38.4	-39.2	25.6	0.00e+00	5	28	101	1048576	56	5611
2026-01-05 15:00:55.50	227.83	71.63	-38.1	-38.9	25.8	0.00e+00	79	28	101	1048576	54	6065
2026-01-05 15:00:56.51	227.22	71.20	-38.4	-39.2	25.4	0.00e+00	23	28	101	1048576	54	6247
2026-01-05 15:00:57.53	226.64	70.75	-38.8	-39.6	25.1	0.00e+00	5	28	101	1048576	54	6541
2026-01-05 15:00:58.54	226.09	70.31	-39.1	-39.9	24.9	0.00e+00	92	28	101	1048576	54	6795
2026-01-05 15:00:59.55	225.57	69.88	-40.4	-41.3	23.4	0.00e+00	0	28	101	1048576	58	6379
2026-01-05 15:01:00.56	225.07	69.44	-41.6	-42.7	22.5	0.00e+00	92	28	101	1048576	60	6648
2026-01-05 15:01:01.57	224.59	69.00	-42.2	-43.3	22.0	0.00e+00	79	28	101	1048576	60	7095
2026-01-05 15:01:02.58	224.14	68.57	-42.2	-43.3	22.0	0.00e+00	79	28	101	1048576	60	7161
2026-01-05 15:01:03.59	223.70	68.13	-42.3	-43.4	21.8	0.00e+00	86	28	101	1048576	60	7249
2026-01-05 15:01:04.60	223.29	67.70	-43.0	-44.2	20.9	0.00e+00	6	28	101	1048576	60	7925
2026-01-05 15:01:05.61	222.89	67.26	-43.7	-45.1	20.0	0.00e+00	90	28	101	1048576	60	8806
2026-01-05 15:01:06.62	222.50	66.83	-44.0	-45.5	19.8	0.00e+00	0	28	101	1048576	60	9139
2026-01-05 15:01:07.63	222.13	66.40	-43.8	-45.3	20.2	0.00e+00	92	28	101	1048576	60	8927
2026-01-05 15:01:08.65	221.78	65.97	-43.0	-44.3	21.1	0.00e+00	1	28	101	1048576	60	7982
2026-01-05 15:01:09.66	221.44	65.54	-42.4	-43.5	21.8	0.00e+00	6	28	101	1048576	60	7332
2026-01-05 15:01:10.67	221.11	65.11	-42.0	-43.1	22.1	0.00e+00	0	28	101	1048576	60	7006
2026-01-05 15:01:11.68	220.80	64.69	-40.3	-41.2	24.0	0.00e+00	2	28	101	1048576	60	5569
2026-01-05 15:01:12.69	220.49	64.27	-38.9	-39.7	25.1	0.00e+00	92	28	101	1048576	56	5913
2026-01-05 15:01:13.70	220.20	63.85	-38.4	-39.1	25.6	0.00e+00	2	28	101	1048576	56	5547
2026-01-05 15:01:14.71	219.92	63.43	-38.9	-39.7	25.2	0.00e+00	92	29	101	1048576	56	5926
2026-01-05 15:01:15.72	219.65	63.01	-38.6	-39.4	25.4	0.00e+00	76	28	101	1048576	56	5699
2026-01-05 15:01:16.73	219.39	62.59	-38.9	-39.7	25.1	0.00e+00	8	28	101	1048576	56	5956
2026-01-05 15:01:17.74	219.14	62.18	-39.2	-40.0	24.9	0.00e+00	73	28	101	1048576	56	6160
2026-01-05 15:01:18.76	218.89	61.77	-39.3	-40.2	24.7	0.00e+00	0	28	101	1048576	56	6250
2026-01-05 15:01:19.77	218.65	61.36	-39.2	-40.1	24.8	0.00e+00	92	28	101	1048576	56	6183
2026-01-05 15:01:20.78	218.43	60.95	-39.6	-40.5	24.4	0.00e+00	73	29	101	1048576	56	6501
2026-01-05 15:01:21.79	218.20	60.54	-40.6	-41.6	23.4	0.00e+00	90	28	101	1048576	58	6573
2026-01-05 15:01:22.80	217.99	60.14	-41.9	-43.0	22.4	0.00e+00	2	28	101	1048576	60	6867
2026-01-05 15:01:23.81	217.78	59.74	-42.5	-43.7	21.4	0.00e+00	0	28	101	1048576	60	7492
2026-01-05 15:01:24.82	217.58	59.34	-42.9	-44.2	21.2	0.00e+00	0	28	101	1048576	60	7906
2026-01-05 15:01:25.84	217.39	58.94	-42.7	-43.9	21.4	0.00e+00	0	28	101	1048576	60	7661
2026-01-05 15:01:26.85	217.20	58.55	-42.1	-43.3	21.9	0.00e+00	0	28	101	1048576	60	7106
2026-01-05 15:01:27.86	217.01	58.16	-42.2	-43.3	21.9	0.00e+00	7	28	101	1048576	60	7148
2026-01-05 15:01:28.87	216.84	57.77	-42.2	-43.3	21.9	0.00e+00	90	28	101	1048576	60	7140
2026-01-05 15:01:29.88	216.66	57.38	-42.2	-43.3	22.0	0.00e+00	2	28	101	1048576	60	7099
2026-01-05 15:01:30.89	216.49	57.00	-41.7	-42.8	22.4	0.00e+00	92	28	101	1048576	60	6712
2026-01-05 15:01:31.91	216.33	56.61	-41.5	-42.5	22.8	0.00e+00	6	28	101	1048576	60	6526
2026-01-05 15:01:32.92	216.17	56.23	-41.1	-42.0	23.2	0.00e+00	76	28	101	1048576	60	6168
2026-01-05 15:01:33.93	216.02	55.85	-40.9	-41.8	23.5	0.00e+00	0	28	101	1048576	60	6002
2026-01-05 15:01:34.94	215.87	55.48	-39.3	-40.1	24.9	0.00e+00	0	28	101	1048576	58	5538
2026-01-05 15:01:35.95	215.72	55.10	-38.4	-39.1	25.6	0.00e+00	92	28	101	1048576	56	5549
2026-01-05 15:01:36.96	215.58	54.73	-37.9	-38.7	25.8	0.00e+00	81	28	101	1048576	54	5915
2026-01-05 15:01:37.97	215.44	54.37	-38.1	-38.9	25.7	0.00e+00	92	28	101	1048576	54	6074
2026-01-05 15:01:38.99	215.31	54.00	-38.5	-39.3	25.3	0.00e+00	3	28	101	1048576	54	6377
2026-01-05 15:01:40.00	215.17	53.63	-38.7	-39.5	25.2	0.00e+00	0	28	101	1048576	54	6522
2026-01-05 15:01:41.01	215.05	53.27	-39.0	-39.8	25.0	0.00e+00	0	28	101	1048576	54	6745
2026-01-05 15:01:42.02	214.92	52.91	-39.1	-39.9	24.9	0.00e+00	0	28	101	1048576	54	6803
2026-01-05 15:01:43.03	214.80	52.56	-39.1	-39.9	24.9	0.00e+00	80	28	101	1048576	56	6100
2026-01-05 15:01:44.04	214.68	52.21	-39.3	-40.1	24.8	0.00e+00	0	28	101	1048576	56	6217
2026-01-05 15:01:45.05	214.56	51.85	-39.3	-40.1	24.7	0.00e+00	92	28	101	1048576	56	6198
2026-01-05 15:01:46.06	214.45	51.51	-39.8	-40.7	24.2	0.00e+00	2	28	101	1048576	56	6658
2026-01-05 15:01:47.08	214.34	51.16	-41.0	-41.9	23.1	0.00e+00	0	28	101	1048576	58	6848
2026-01-05 15:01:48.09	214.23	50.81	-41.8	-42.9	22.3	0.00e+00	2	28	101	1048576	60	6824
2026-01-05 15:01:49.10	214.13	50.47	-42.5	-43.6	21.7	0.00e+00	73	28	101	1048576	60	7406
2026-01-05 15:01:50.11	214.02	50.13	-42.7	-43.9	21.4	0.00e+00	18	28	101	1048576	60	7613
2026-01-05 15:01:51.12	213.92	49.80	-43.1	-44.3	21.0	0.00e+00	75	28	101	1048576	60	8044
2026-01-05 15:01:52.13	213.83	49.46	-43.5	-44.8	20.7	0.00e+00	92	28	101	1048576	60	8506
2026-01-05 15:01:53.15	213.73	49.13	-43.5	-44.9	20.5	0.00e+00	82	28	101	1048576	60	8535
2026-01-05 15:01:54.16	213.63	48.80	-43.5	-44.8	20.5	0.00e+00	42	28	101	1048576	60	8489
2026-01-05 15:01:55.17	213.54	48.47	-44.0	-45.5	19.8	0.00e+00	0	28	101	1048576	60	9159
2026-01-05 15:01:56.18	213.45	48.15	-44.5	-46.0	19.1	0.00e+00	0	28	101	1048576	60	9762
2026-01-05 15:01:57.19	213.37	47.82	-44.7	-46.3	19.2	0.00e+00	88	28	101	1048576	60	10123
2026-01-05 15:01:58.20	213.28	47.50	-44.2	-45.7	19.8	0.00e+00	0	29	101	1048576	60	9372
2026-01-05 15:01:59.22	213.19	47.18	-43.6	-45.0	20.5	0.00e+00	92	28	101	1048576	60	8622
2026-01-05 15:02:00.23	213.11	46.87	-43.5	-44.8	20.7	0.00e+00	0	28	101	1048576	60	8506
2026-01-05 15:02:01.24	213.03	46.55	-43.1	-44.3	21.1	0.00e+00	92	28	101	1048576	60	8045
2026-01-05 15:02:02.25	212.95	46.24	-42.6	-43.8	21.4	0.00e+00	0	28	101	1048576	60	7521
2026-01-05 15:02:03.26	212.87	45.93	-42.8	-43.9	21.6	0.00e+00	0	28	101	1048576	60	7681
2026-01-05 15:02:04.27	212.80	45.63	-42.5	-43.6	21.8	0.00e+00	0	28	101	1048576	60	7377
2026-01-05 15:02:05.28	212.72	45.32	-42.4	-43.5	21.9	0.00e+00	5	28	101	1048576	60	7286
2026-01-05 15:02:06.29	212.65	45.02	-43.1	-44.3	20.9	0.00e+00	92	28	101	1048576	60	8029
2026-01-05 15:02:07.30	212.58	44.72	-43.2	-44.5	20.9	0.00e+00	0	28	101	1048576	60	8181
2026-01-05 15:02:08.31	212.51	44.42	-43.8	-45.2	20.2	0.00e+00	91	28	101	1048576	60	8864
2026-01-05 15:02:09.33	212.44	44.13	-43.8	-45.2	20.2	0.00e+00	82	28	101	1048576	60	8877
2026-01-05 15:02:10.34	212.37	43.83	-43.5	-44.9	20.6	0.00e+00	0	28	101	1048576	60	8545
2026-01-05 15:02:11.35	212.31	43.54	-42.8	-44.0	21.4	0.00e+00	0	28	101	1048576	60	7712
2026-01-05 15:02:12.36	212.24	43.25	-42.7	-43.9	21.4	0.00e+00	0	28	101	1048576	60	7662
2026-01-05 15:02:13.37	212.18	42.97	-42.4	-43.5	22.0	0.00e+00	92	28	101	1048576	60	7308
2026-01-05 15:02:14.38	212.11	42.68	-42.3	-43.4	21.9	0.00e+00	0	28	101	1048576	60	7189
2026-01-05 15:02:15.39	212.05	42.40	-42.3	-43.4	22.0	0.00e+00	92	28	101	1048576	60	7246
2026-01-05 15:02:16.40	211.99	42.12	-42.2	-43.3	22.0	0.00e+00	0	28	101	1048576	60	7150
2026-01-05 15:02:17.41	211.93	41.84	-42.4	-43.5	21.8	0.00e+00	4	28	101	1048576	60	7315
2026-01-05 15:02:18.42	211.88	41.57	-42.7	-43.8	21.5	0.00e+00	6	28	101	1048576	60	7578
2026-01-05 15:02:19.44	211.82	41.29	-42.9	-44.1	21.3	0.00e+00	6	28	101	1048576	60	7834
2026-01-05 15:02:20.45	211.76	41.02	-43.5	-44.8	20.6	0.00e+00	0	28	101	1048576	60	8451
2026-01-05 15:02:21.46	211.71	40.75	-43.7	-45.1	20.6	0.00e+00	5	28	101	1048576	60	8734
2026-01-05 15:02:22.47	211.65	40.48	-43.4	-44.7	20.6	0.00e+00	92	28	101	1048576	60	8418
2026-01-05 15:02:23.48	211.60	40.21	-43.5	-44.9	20.5	0.00e+00	8	28	101	1048576	60	8543
2026-01-05 15:02:24.49	211.55	39.95	-43.5	-44.9	20.6	0.00e+00	81	29	101	1048576	60	8532
2026-01-05 15:02:25.50	211.50	39.69	-43.3	-44.5	20.9	0.00e+00	1	28	101	1048576	60	8220
2026-01-05 15:02:26.51	211.45	39.42	-43.0	-44.3	21.2	0.00e+00	4	28	101	1048576	60	7963
2026-01-05 15:02:27.52	211.40	39.17	-42.8	-44.0	21.4	0.00e+00	0	28	101	1048576	60	7712
2026-01-05 15:02:28.53	211.35	38.91	-42.8	-44.0	21.4	0.00e+00	82	28	101	1048576	60	7697
2026-01-05 15:02:29.55	211.30	38.65	-42.4	-43.6	21.7	0.00e+00	90	28	101	1048576	60	7350
2026-01-05 15:02:30.56	211.25	38.40	-42.3	-43.4	21.9	0.00e+00	83	28	101	1048576	60	7226
2026-01-05 15:02:31.57	211.21	38.15	-42.3	-43.5	21.7	0.00e+00	92	28	101	1048576	60	7272
2026-01-05 15:02:32.58	211.16	37.90	-42.5	-43.7	21.7	0.00e+00	0	28	101	1048576	60	7437
2026-01-05 15:02:33.59	211.12	37.65	-42.6	-43.8	21.5	0.00e+00	7	28	101	1048576	60	7511
2026-01-05 15:02:34.60	211.07	37.41	-42.6	-43.7	21.6	0.00e+00	0	28	101	1048576	60	7496
2026-01-05 15:02:35.61	211.03	37.16	-42.3	-43.5	21.9	0.00e+00	0	28	101	1048576	60	7264
2026-01-05 15:02:36.63	210.98	36.92	-42.2	-43.3	21.9	0.00e+00	90	28	101	1048576	60	7111
2026-01-05 15:02:37.64	210.94	36.68	-42.2	-43.3	22.1	0.00e+00	0	28	101	1048576	60	7117
2026-01-05 15:02:38.65	210.90	36.44	-42.0	-43.1	22.1	0.00e+00	92	28	101	1048576	60	6994
2026-01-05 15:02:39.66	210.86	36.20	-41.9	-43.0	22.4	0.00e+00	0	28	101	1048576	60	6869
2026-01-05 15:02:40.67	210.82	35.97	-42.0	-43.1	22.2	0.00e+00	23	29	101	1048576	60	6938
2026-01-05 15:02:41.68	210.78	35.73	-41.9	-43.0	22.3	0.00e+00	6	28	101	1048576	60	6895
2026-01-05 15:02:42.69	210.74	35.50	-41.6	-42.6	22.6	0.00e+00	81	28	101	1048576	60	6596
2026-01-05 15:02:43.70	210.70	35.27	-41.6	-42.7	22.6	0.00e+00	38	28	101	1048576	60	6634
2026-01-05 15:02:44.71	210.67	35.04	-41.7	-42.7	22.6	0.00e+00	3	28	101	1048576	60	6654
2026-01-05 15:02:45.72	210.63	34.82	-41.7	-42.8	22.4	0.00e+00	92	28	101	1048576	60	6708
2026-01-05 15:02:46.74	210.59	34.59	-41.6	-42.6	22.4	0.00e+00	78	28	101	1048576	60	6589
2026-01-05 15:02:47.75	210.56	34.37	-41.4	-42.4	22.8	0.00e+00	68	28	101	1048576	60	6456
2026-01-05 15:02:48.76	210.52	34.14	-41.5	-42.5	22.7	0.00e+00	0	28	101	1048576	60	6505
2026-01-05 15:02:49.77	210.48	33.92	-41.4	-42.4	22.9	0.00e+00	78	28	101	1048576	60	6404
2026-01-05 15:02:50.78	210.45	33.71	-41.6	-42.6	22.7	0.00e+00	81	28	101	1048576	60	6584
2026-01-05 15:02:51.79	210.42	33.49	-41.9	-43.0	22.2	0.00e+00	0	28	101	1048576	60	6895
2026-01-05 15:02:52.80	210.38	33.27	-42.2	-43.3	22.0	0.00e+00	92	28	101	1048576	60	7133
2026-01-05 15:02:53.81	210.35	33.06	-42.5	-43.7	21.5	0.00e+00	0	28	101	1048576	60	7478
2026-01-05 15:02:54.82	210.32	32.84	-42.8	-44.0	21.3	0.00e+00	91	28	101	1048576	60	7769
2026-01-05 15:02:55.84	210.28	32.63	-43.0	-44.3	21.1	0.00e+00	0	28	101	1048576	60	7983
2026-01-05 15:02:56.85	210.25	32.42	-43.2	-44.5	20.9	0.00e+00	4	28	101	1048576	60	8197
2026-01-05 15:02:57.86	210.22	32.21	-43.3	-44.6	20.8	0.00e+00	0	28	101	1048576	60	8324
2026-01-05 15:02:58.87	210.19	32.01	-43.2	-44.4	20.9	0.00e+00	0	28	101	1048576	60	8126
2026-01-05 15:02:59.88	210.16	31.80	-43.0	-44.2	21.2	0.00e+00	92	28	101	1048576	60	7910
2026-01-05 15:03:00.89	210.13	31.60	-42.9	-44.2	21.3	0.00e+00	80	28	101	1048576	60	7865
2026-01-05 15:03:01.90	210.10	31.39	-42.8	-44.0	21.3	0.00e+00	92	28	101	1048576	60	7705
2026-01-05 15:03:02.91	210.07	31.19	-42.5	-43.7	21.7	0.00e+00	3	28	101	1048576	60	7440
2026-01-05 15:03:03.92	210.04	30.99	-42.4	-43.5	21.8	0.00e+00	78	28	101	1048576	60	7324
2026-01-05 15:03:04.93	210.02	30.79	-42.3	-43.4	22.0	0.00e+00	1	28	101	1048576	60	7190
2026-01-05 15:03:05.95	209.99	30.59	-42.2	-43.3	22.0	0.00e+00	0	29	101	1048576	60	7131
2026-01-05 15:03:06.96	209.96	30.40	-42.1	-43.2	22.2	0.00e+00	89	28	101	1048576	60	7020
2026-01-05 15:03:07.97	209.93	30.20	-42.0	-43.1	22.2	0.00e+00	0	28	101	1048576	60	6974
2026-01-05 15:03:08.98	209.91	30.01	-42.0	-43.1	22.3	0.00e+00	92	28	101	1048576	60	6954
2026-01-05 15:03:09.99	209.88	29.82	-41.9	-43.0	22.3	0.00e+00	0	28	101	1048576	60	6890
2026-01-05 15:03:11.00	209.85	29.63	-41.9	-43.0	22.3	0.00e+00	92	28	101	1048576	60	6897
2026-01-05 15:03:12.01	209.83	29.44	-42.0	-43.0	22.2	0.00e+00	0	28	101	1048576	60	6918
2026-01-05 15:03:13.02	209.80	29.25	-42.2	-43.3	22.0	0.00e+00	0	28	101	1048576	60	7127
2026-01-05 15:03:14.04	209.78	29.06	-42.3	-43.4	21.9	0.00e+00	5	28	101	1048576	60	7234
2026-01-05 15:03:15.05	209.75	28.87	-42.4	-43.6	21.6	0.00e+00	0	28	101	1048576	60	7342
2026-01-05 15:03:16.06	209.73	28.69	-42.4	-43.6	21.6	0.00e+00	92	28	101	1048576	60	7391
2026-01-05 15:03:17.07	209.70	28.51	-42.6	-43.8	21.5	0.00e+00	2	28	101	1048576	60	7561
2026-01-05 15:03:18.08	209.68	28.32	-42.6	-43.8	21.5	0.00e+00	92	28	101	1048576	60	7570
2026-01-05 15:03:19.09	209.66	28.14	-42.6	-43.8	21.5	0.00e+00	1	28	101	1048576	60	7587
2026-01-05 15:03:20.10	209.63	27.96	-42.4	-43.6	21.8	0.00e+00	78	28	101	1048576	60	7366
2026-01-05 15:03:21.11	209.61	27.79	-42.5	-43.6	21.7	0.00e+00	0	28	101	1048576	60	7390
2026-01-05 15:03:22.12	209.59	27.61	-42.2	-43.3	21.9	0.00e+00	0	28	101	1048576	60	7165
2026-01-05 15:03:23.14	209.57	27.43	-42.3	-43.4	21.9	0.00e+00	92	28	101	1048576	60	7197
2026-01-05 15:03:24.15	209.54	27.25	-42.1	-43.2	22.2	0.00e+00	79	28	101	1048576	60	7047
2026-01-05 15:03:25.16	209.52	27.08	-42.1	-43.2	22.1	0.00e+00	92	28	101	1048576	60	7048
2026-01-05 15:03:26.17	209.50	26.91	-41.9	-42.9	22.3	0.00e+00	78	28	101	1048576	60	6845
2026-01-05 15:03:27.18	209.48	26.74	-41.8	-42.8	22.4	0.00e+00	90	28	101	1048576	60	6762
2026-01-05 15:03:28.19	209.46	26.56	-41.7	-42.7	22.4	0.00e+00	0	28	101	1048576	60	6681
2026-01-05 15:03:29.20	209.44	26.39	-41.6	-42.7	22.5	0.00e+00	0	28	101	1048576	60	6635
2026-01-05 15:03:30.21	209.42	26.23	-41.6	-42.6	22.6	0.00e+00	90	28	101	1048576	60	6602
2026-01-05 15:03:31.22	209.40	26.06	-41.5	-42.5	22.8	0.00e+00	0	28	101	1048576	60	6502
2026-01-05 15:03:32.24	209.38	25.89	-41.4	-42.4	22.8	0.00e+00	90	28	101	1048576	60	6436
2026-01-05 15:03:33.25	209.36	25.72	-41.2	-42.2	23.0	0.00e+00	1	28	101	1048576	60	6271
2026-01-05 15:03:34.26	209.34	25.56	-41.2	-42.2	22.9	0.00e+00	0	28	101	1048576	60	6282
2026-01-05 15:03:35.27	209.32	25.40	-41.0	-42.0	23.2	0.00e+00	0	28	101	1048576	60	6115
2026-01-05 15:03:36.28	209.30	25.23	-41.0	-41.9	23.2	0.00e+00	0	28	101	1048576	60	6100
2026-01-05 15:03:37.29	209.28	25.07	-41.0	-41.9	23.1	0.00e+00	87	28	101	1048576	60	6095
2026-01-05 15:03:38.30	209.26	24.91	-41.1	-42.1	22.9	0.00e+00	0	28	101	1048576	60	6234
2026-01-05 15:03:39.31	209.24	24.75	-41.0	-42.0	23.1	0.00e+00	92	28	101	1048576	60	6117
2026-01-05 15:03:40.32	209.23	24.59	-41.1	-42.1	23.0	0.00e+00	0	28	101	1048576	60	6227
2026-01-05 15:03:41.33	209.21	24.43	-41.1	-42.1	23.0	0.00e+00	92	28	101	1048576	60	6217
2026-01-05 15:03:42.35	209.19	24.28	-41.1	-42.1	23.1	0.00e+00	82	28	101	1048576	60	6181
2026-01-05 15:03:43.36	209.17	24.12	-41.1	-42.1	23.0	0.00e+00	0	28	101	1048576	60	6234
2026-01-05 15:03:44.37	209.16	23.97	-41.1	-42.1	23.0	0.00e+00	80	28	101	1048576	60	6190
2026-01-05 15:03:45.38	209.14	23.81	-41.2	-42.2	22.8	0.00e+00	83	28	101	1048576	60	6262
2026-01-05 15:03:46.39	209.12	23.66	-41.2	-42.2	23.0	0.00e+00	91	28	101	1048576	60	6293
2026-01-05 15:03:47.40	209.11	23.51	-41.2	-42.2	22.7	0.00e+00	6	28	101	1048576	60	6296
2026-01-05 15:03:48.41	209.09	23.35	-41.3	-42.3	22.9	0.00e+00	90	28	101	1048576	60	6331
2026-01-05 15:03:49.42	209.07	23.20	-41.1	-42.1	22.9	0.00e+00	5	29	101	1048576	60	6220
2026-01-05 15:03:50.43	209.06	23.05	-41.2	-42.2	22.9	0.00e+00	0	28	101	1048576	60	6297
2026-01-05 15:03:51.44	209.04	22.91	-41.2	-42.2	23.0	0.00e+00	0	29	101	1048576	60	6247
2026-01-05 15:03:52.45	209.03	22.76	-41.2	-42.2	22.9	0.00e+00	5	28	101	1048576	60	6291
2026-01-05 15:03:53.46	209.01	22.61	-41.2	-42.2	22.9	0.00e+00	92	29	101	1048576	60	6285
2026-01-05 15:03:54.48	208.99	22.46	-41.1	-42.1	23.1	0.00e+00	6	28	101	1048576	60	6198
2026-01-05 15:03:55.49	208.98	22.32	-41.1	-42.0	23.1	0.00e+00	92	28	101	1048576	60	6173
2026-01-05 15:03:56.50	208.96	22.17	-40.9	-41.9	23.2	0.00e+00	85	28	101	1048576	60	6054
2026-01-05 15:03:57.51	208.95	22.03	-41.0	-42.0	23.1	0.00e+00	85	28	101	1048576	60	6107
2026-01-05 15:03:58.52	208.93	21.89	-41.1	-42.1	23.0	0.00e+00	0	28	101	1048576	60	6236
2026-01-05 15:03:59.53	208.92	21.74	-41.1	-42.1	23.0	0.00e+00	1	28	101	1048576	60	6184
2026-01-05 15:04:00.54	208.91	21.60	-41.2	-42.2	22.9	0.00e+00	92	28	101	1048576	60	6262
2026-01-05 15:04:01.55	208.89	21.46	-41.1	-42.1	23.0	0.00e+00	6	28	101	1048576	60	6230
2026-01-05 15:04:02.56	208.88	21.32	-41.1	-42.1	23.0	0.00e+00	92	28	101	1048576	60	6208
2026-01-05 15:04:03.57	208.86	21.18	-41.3	-42.3	22.8	0.00e+00	86	28	101	1048576	60	6369
2026-01-05 15:04:04.59	208.85	21.04	-41.3	-42.4	22.8	0.00e+00	90	28	101	1048576	60	6398
2026-01-05 15:04:05.60	208.84	20.91	-41.5	-42.6	22.6	0.00e+00	7	28	101	1048576	60	6563
2026-01-05 15:04:06.61	208.82	20.77	-41.5	-42.6	22.6	0.00e+00	0	28	101	1048576	60	6551
2026-01-05 15:04:07.62	208.81	20.63	-41.7	-42.7	22.5	0.00e+00	0	28	101	1048576	60	6677
2026-01-05 15:04:08.63	208.80	20.50	-41.7	-42.7	22.5	0.00e+00	7	29	101	1048576	60	6676
2026-01-05 15:04:09.64	208.78	20.36	-41.7	-42.7	22.4	0.00e+00	92	28	101	1048576	60	6685
2026-01-05 15:04:10.65	208.77	20.23	-41.7	-42.8	22.3	0.00e+00	0	28	101	1048576	60	6718
2026-01-05 15:04:11.66	208.76	20.10	-41.8	-42.9	22.3	0.00e+00	92	28	101	1048576	60	6784
2026-01-05 15:04:12.68	208.75	19.96	-41.7	-42.8	22.4	0.00e+00	0	28	101	1048576	60	6699
