passes_logs/2026/01/05/R4.6S_Anadyr_2ch/R4.6S_Anadyr_2ch__20260105_010654_NOAA_20_JPSS-1_rec.log

#Pass ID: 20260105_010654_NOAA 20 (JPSS-1)
#Satellite: NOAA 20 (JPSS-1)
#Configuration: NOAA 20
#almurnet v.1.7.20251203
#Start time: 2026-01-05 01:06:56

#Version: 2.2.20231116
#Station: R4.6S_Anadyr_2ch
#Location: 177.4865 lon 64.73178 lat
#TLE: 1 43013U 17073A   25350.93759711  .00000080  00000+0  58734-4 0  9994
#TLE: 2 43013  98.7603 287.1885 0002156  81.1496 278.9924 14.19526878418610

#Time	Az	El	Level	Level2	SNR	BER	BlckErr	Temp	State	Recorded	gain1	gain2
2026-01-05 01:06:56.62	179.03	0.12	-51.6	-66.7	3.5	1.51e+00	0	26	0	0	60	104952
2026-01-05 01:06:57.63	179.06	0.18	-51.8	-67.1	3.6	1.51e+00	0	27	104	0	60	110875
2026-01-05 01:06:58.64	179.09	0.24	-51.5	-66.9	3.6	1.51e+00	0	27	104	0	60	108499
2026-01-05 01:06:59.65	179.12	0.30	-51.6	-67.0	3.6	1.51e+00	0	27	104	0	60	109152
2026-01-05 01:07:00.67	179.15	0.36	-51.5	-66.8	3.6	1.51e+00	0	27	104	0	60	107141
2026-01-05 01:07:01.68	179.18	0.42	-51.3	-66.7	3.6	1.51e+00	0	27	104	0	60	105662
2026-01-05 01:07:02.69	179.21	0.48	-51.2	-66.7	3.6	1.51e+00	0	27	104	0	60	105193
2026-01-05 01:07:03.70	179.24	0.54	-51.2	-66.6	3.6	1.51e+00	0	27	104	0	60	104323
2026-01-05 01:07:04.71	179.27	0.60	-51.2	-66.5	3.6	1.51e+00	0	27	104	0	60	103640
2026-01-05 01:07:05.72	179.31	0.66	-51.1	-66.5	3.6	1.51e+00	0	27	104	0	60	103104
2026-01-05 01:07:06.73	179.34	0.72	-50.9	-66.4	3.6	1.51e+00	0	27	104	0	60	102001
2026-01-05 01:07:07.74	179.37	0.78	-50.9	-66.3	3.6	1.51e+00	0	27	104	0	60	100189
2026-01-05 01:07:08.75	179.40	0.84	-50.8	-66.2	3.6	1.51e+00	0	27	104	0	60	99242
2026-01-05 01:07:09.76	179.43	0.90	-50.6	-66.0	3.6	1.51e+00	0	27	104	0	60	96841
2026-01-05 01:07:10.77	179.47	0.96	-50.3	-65.7	3.6	1.51e+00	0	27	104	0	60	94138
2026-01-05 01:07:11.79	179.50	1.03	-49.7	-65.0	3.6	1.51e+00	0	27	104	0	60	86852
2026-01-05 01:07:12.80	179.53	1.09	-49.7	-65.0	3.6	1.51e+00	0	27	104	0	60	86678
2026-01-05 01:07:13.81	179.56	1.15	-49.7	-65.0	3.6	1.51e+00	0	27	104	0	60	87080
2026-01-05 01:07:14.82	179.60	1.21	-49.7	-65.0	3.6	1.51e+00	0	27	104	0	60	86658
2026-01-05 01:07:15.83	179.63	1.27	-49.7	-65.0	3.6	1.51e+00	0	27	104	0	60	86701
2026-01-05 01:07:16.84	179.66	1.33	-49.7	-65.0	3.6	1.51e+00	0	27	104	0	60	86972
2026-01-05 01:07:17.85	179.69	1.39	-49.6	-65.0	3.6	1.51e+00	0	27	104	0	60	86629
2026-01-05 01:07:18.86	179.73	1.46	-49.7	-65.0	3.6	1.51e+00	0	27	104	0	60	86880
2026-01-05 01:07:19.87	179.76	1.52	-49.7	-65.1	3.6	1.51e+00	0	27	104	0	60	87405
2026-01-05 01:07:20.88	179.79	1.58	-49.7	-65.0	3.6	1.51e+00	0	27	104	0	60	86610
2026-01-05 01:07:21.89	179.83	1.64	-49.7	-65.0	3.6	1.51e+00	0	27	104	0	60	86845
2026-01-05 01:07:22.90	179.86	1.70	-49.7	-65.0	3.6	1.51e+00	0	27	104	0	60	86849
2026-01-05 01:07:23.91	179.90	1.77	-49.7	-65.0	3.6	1.51e+00	0	27	104	0	60	86737
2026-01-05 01:07:24.92	179.93	1.83	-49.7	-64.9	3.6	1.51e+00	0	27	104	0	60	86008
2026-01-05 01:07:25.93	179.96	1.89	-49.7	-64.9	3.6	1.51e+00	0	27	104	0	60	85936
2026-01-05 01:07:26.95	180.00	1.95	-49.7	-64.9	3.6	1.51e+00	0	28	104	0	60	85764
2026-01-05 01:07:27.96	180.03	2.02	-49.7	-65.0	3.6	1.51e+00	0	27	104	0	60	86459
2026-01-05 01:07:28.97	180.07	2.08	-49.7	-65.0	3.6	1.51e+00	0	27	104	0	60	86725
2026-01-05 01:07:29.98	180.10	2.14	-49.7	-65.0	3.6	1.51e+00	0	27	104	0	60	86453
2026-01-05 01:07:30.99	180.14	2.21	-49.7	-65.0	3.6	1.51e+00	0	27	104	0	60	86230
2026-01-05 01:07:32.00	180.17	2.27	-49.7	-65.0	3.6	1.51e+00	0	27	104	0	60	86689
2026-01-05 01:07:33.01	180.21	2.33	-49.7	-65.0	3.6	1.51e+00	0	27	104	0	60	86575
2026-01-05 01:07:34.02	180.24	2.40	-49.7	-65.0	3.6	1.51e+00	0	27	104	0	60	87180
2026-01-05 01:07:35.04	180.28	2.46	-49.7	-65.0	3.6	1.51e+00	0	28	104	0	60	86614
2026-01-05 01:07:36.05	180.31	2.53	-49.7	-64.8	3.6	1.51e+00	0	28	104	0	60	84547
2026-01-05 01:07:37.06	180.35	2.59	-49.6	-64.3	3.6	1.51e+00	0	28	104	0	60	79780
2026-01-05 01:07:38.07	180.38	2.66	-49.7	-63.8	3.6	1.51e+00	0	28	104	0	60	75358
2026-01-05 01:07:39.08	180.42	2.72	-49.7	-63.8	3.6	1.51e+00	0	28	104	0	60	75190
2026-01-05 01:07:40.09	180.45	2.78	-49.7	-63.6	3.6	1.51e+00	0	28	104	0	60	73544
2026-01-05 01:07:41.10	180.49	2.85	-49.7	-63.9	3.6	1.51e+00	0	28	104	0	60	76198
2026-01-05 01:07:42.11	180.53	2.91	-49.7	-64.4	3.6	1.51e+00	0	28	104	0	60	81339
2026-01-05 01:07:43.12	180.56	2.98	-49.7	-64.5	3.6	1.51e+00	0	28	104	0	60	82276
2026-01-05 01:07:44.13	180.60	3.04	-49.6	-62.6	3.7	1.50e+00	0	28	104	0	60	65592
2026-01-05 01:07:45.15	180.64	3.11	-48.8	-55.8	6.5	1.03e+00	0	28	104	0	60	30068
2026-01-05 01:07:46.16	180.67	3.18	-48.1	-52.8	11.0	8.65e-02	0	28	0	1048576	60	21232
2026-01-05 01:07:47.17	180.71	3.24	-47.6	-51.7	12.5	1.79e-04	0	28	0	3145728	60	18686
2026-01-05 01:07:48.18	180.75	3.31	-46.0	-48.6	15.6	4.50e-06	0	28	0	4194304	60	13138
2026-01-05 01:07:49.19	180.78	3.37	-45.5	-47.9	16.7	0.00e+00	0	28	0	6291456	60	12118
2026-01-05 01:07:50.20	180.82	3.44	-45.0	-47.1	16.9	0.00e+00	0	28	0	8388608	60	11093
2026-01-05 01:07:51.21	180.86	3.50	-44.9	-47.0	16.7	0.00e+00	0	28	0	10485760	60	10960
2026-01-05 01:07:52.22	180.90	3.57	-44.3	-46.1	18.0	0.00e+00	0	28	0	12582912	60	9873
2026-01-05 01:07:53.23	180.94	3.64	-44.7	-46.7	17.5	0.00e+00	0	28	0	13631488	60	10600
2026-01-05 01:07:54.24	180.97	3.70	-46.0	-48.7	15.5	0.00e+00	0	28	0	15728640	60	13313
2026-01-05 01:07:55.26	181.01	3.77	-49.4	-59.3	5.3	8.08e-01	25	28	104	16777216	60	44920
2026-01-05 01:07:56.27	181.05	3.84	-46.1	-48.6	15.4	0.00e+00	0	28	0	16777216	60	13146
2026-01-05 01:07:57.28	181.09	3.91	-49.2	-55.4	12.7	9.50e-01	0	28	0	18874368	60	28705
2026-01-05 01:07:58.29	181.13	3.97	-47.3	-51.1	13.3	7.62e-05	0	28	0	19922944	60	17413
2026-01-05 01:07:59.30	181.17	4.04	-44.9	-46.9	17.2	0.00e+00	0	28	0	22020096	60	10846
2026-01-05 01:08:00.31	181.21	4.11	-45.1	-47.2	17.3	0.00e+00	0	28	0	24117248	60	11216
2026-01-05 01:08:01.32	181.24	4.18	-44.6	-46.5	17.8	0.00e+00	0	28	0	26214400	60	10249
2026-01-05 01:08:02.33	181.28	4.24	-44.8	-46.8	17.6	0.00e+00	0	28	0	28311552	60	10615
2026-01-05 01:08:03.34	181.32	4.31	-44.3	-46.1	18.4	0.00e+00	0	28	0	30408704	60	9855
2026-01-05 01:08:04.36	181.36	4.38	-44.7	-46.6	17.5	0.00e+00	0	28	0	31457280	60	10381
2026-01-05 01:08:05.37	181.40	4.45	-44.5	-46.3	17.6	7.00e-07	0	28	0	33554432	60	10113
2026-01-05 01:08:06.38	181.44	4.52	-44.4	-46.2	17.9	0.00e+00	0	28	0	35651584	60	9901
2026-01-05 01:08:07.39	181.48	4.59	-44.9	-46.8	17.6	0.00e+00	0	28	0	37748736	60	10707
2026-01-05 01:08:08.40	181.52	4.66	-44.5	-46.4	18.1	0.00e+00	0	28	0	39845888	60	10143
2026-01-05 01:08:09.41	181.56	4.72	-44.5	-46.3	18.5	0.00e+00	0	28	0	40894464	60	10076
2026-01-05 01:08:10.42	181.61	4.79	-44.6	-46.4	18.2	0.00e+00	0	28	0	42991616	60	10147
2026-01-05 01:08:11.43	181.65	4.86	-44.4	-46.1	18.2	0.00e+00	0	28	0	45088768	60	9844
2026-01-05 01:08:12.44	181.69	4.93	-44.8	-46.7	17.8	0.00e+00	0	28	0	47185920	60	10554
2026-01-05 01:08:13.45	181.73	5.00	-44.5	-46.3	18.1	0.00e+00	0	28	0	49283072	60	10088
2026-01-05 01:08:14.47	181.77	5.07	-44.5	-46.2	18.4	0.00e+00	0	28	0	50331648	60	9989
2026-01-05 01:08:15.48	181.81	5.14	-44.5	-46.4	18.2	0.00e+00	0	28	0	52428800	60	10142
2026-01-05 01:08:16.49	181.85	5.21	-43.8	-45.3	19.4	0.00e+00	0	28	0	54525952	60	9013
2026-01-05 01:08:17.50	181.90	5.28	-43.9	-45.5	18.9	0.00e+00	0	28	0	56623104	60	9151
2026-01-05 01:08:18.51	181.94	5.35	-44.4	-46.2	18.5	0.00e+00	0	28	0	58720256	60	9919
2026-01-05 01:08:19.52	181.98	5.42	-44.2	-45.9	19.3	0.00e+00	0	28	0	59768832	60	9572
2026-01-05 01:08:20.53	182.02	5.50	-44.5	-46.3	18.4	0.00e+00	0	28	0	61865984	60	10043
2026-01-05 01:08:21.54	182.07	5.57	-44.1	-45.8	19.0	0.00e+00	0	28	0	63963136	60	9482
2026-01-05 01:08:22.56	182.11	5.64	-44.5	-46.2	18.8	0.00e+00	0	28	0	66060288	60	9922
2026-01-05 01:08:23.57	182.15	5.71	-44.7	-46.3	18.6	1.50e-06	0	28	0	68157440	60	10114
2026-01-05 01:08:24.58	182.20	5.78	-45.0	-46.8	18.8	0.00e+00	0	28	0	69206016	60	10647
2026-01-05 01:08:25.59	182.24	5.85	-45.4	-47.2	18.4	0.00e+00	0	28	0	71303168	60	11221
2026-01-05 01:08:26.60	182.28	5.93	-44.6	-46.3	18.7	0.00e+00	0	28	0	73400320	60	10113
2026-01-05 01:08:27.61	182.33	6.00	-44.6	-46.3	18.6	0.00e+00	0	28	0	75497472	60	10110
2026-01-05 01:08:28.62	182.37	6.07	-44.8	-46.7	17.8	0.00e+00	0	28	0	77594624	60	10527
2026-01-05 01:08:29.63	182.42	6.14	-43.9	-45.5	19.2	0.00e+00	0	28	0	78643200	60	9192
2026-01-05 01:08:30.64	182.46	6.22	-43.9	-45.5	19.4	0.00e+00	0	28	0	80740352	60	9167
2026-01-05 01:08:31.66	182.50	6.29	-43.5	-44.9	20.1	0.00e+00	0	28	0	82837504	60	8556
2026-01-05 01:08:32.67	182.55	6.36	-43.3	-44.7	19.9	0.00e+00	0	28	0	84934656	60	8414
2026-01-05 01:08:33.68	182.59	6.44	-43.4	-44.8	20.0	0.00e+00	0	28	0	87031808	60	8430
2026-01-05 01:08:34.69	182.64	6.51	-43.0	-44.3	20.5	0.00e+00	0	28	0	89128960	60	8022
2026-01-05 01:08:35.70	182.69	6.58	-43.0	-44.3	20.6	0.00e+00	0	28	0	90177536	60	7996
2026-01-05 01:08:36.71	182.73	6.66	-43.0	-44.3	20.7	0.00e+00	0	28	0	92274688	60	7988
2026-01-05 01:08:37.72	182.78	6.73	-43.0	-44.3	20.6	0.00e+00	0	28	0	94371840	60	8031
2026-01-05 01:08:38.73	182.82	6.81	-42.8	-44.1	20.8	0.00e+00	0	28	0	96468992	60	7776
2026-01-05 01:08:39.74	182.87	6.88	-43.0	-44.3	20.7	0.00e+00	0	28	0	98566144	60	8030
2026-01-05 01:08:40.75	182.92	6.96	-43.0	-44.4	20.6	0.00e+00	0	28	0	99614720	60	8060
2026-01-05 01:08:41.77	182.96	7.03	-42.9	-44.1	20.9	0.00e+00	0	28	0	101711872	60	7854
2026-01-05 01:08:42.78	183.01	7.11	-42.7	-43.9	21.0	0.00e+00	0	28	0	103809024	60	7677
2026-01-05 01:08:43.79	183.06	7.18	-42.6	-43.9	21.0	0.00e+00	0	28	0	105906176	60	7598
2026-01-05 01:08:44.80	183.11	7.26	-42.6	-43.9	20.8	0.00e+00	0	28	0	108003328	60	7624
2026-01-05 01:08:45.81	183.15	7.33	-43.0	-44.4	20.5	0.00e+00	0	28	0	109051904	60	8058
2026-01-05 01:08:46.82	183.20	7.41	-42.9	-44.1	20.9	0.00e+00	0	28	0	111149056	60	7859
2026-01-05 01:08:47.83	183.25	7.49	-42.7	-44.0	20.9	0.00e+00	0	28	0	113246208	60	7695
2026-01-05 01:08:48.85	183.30	7.56	-42.6	-43.9	20.9	0.00e+00	0	28	0	115343360	60	7644
2026-01-05 01:08:49.85	183.35	7.64	-42.6	-43.8	21.1	0.00e+00	0	28	0	117440512	60	7560
2026-01-05 01:08:50.87	183.40	7.72	-42.5	-43.8	21.1	0.00e+00	0	28	0	118489088	60	7526
2026-01-05 01:08:51.88	183.45	7.79	-42.3	-43.5	21.4	0.00e+00	0	28	0	120586240	60	7283
2026-01-05 01:08:52.89	183.50	7.87	-42.5	-43.8	21.1	0.00e+00	0	28	0	122683392	60	7533
2026-01-05 01:08:53.90	183.55	7.95	-42.6	-43.8	21.1	0.00e+00	0	28	0	124780544	60	7546
2026-01-05 01:08:54.91	183.60	8.03	-42.4	-43.6	21.2	0.00e+00	0	28	0	126877696	60	7376
2026-01-05 01:08:55.92	183.65	8.11	-42.4	-43.7	21.2	0.00e+00	0	28	0	127926272	60	7427
2026-01-05 01:08:56.93	183.70	8.18	-42.4	-43.6	21.2	0.00e+00	0	28	0	130023424	60	7383
2026-01-05 01:08:57.94	183.75	8.26	-42.2	-43.4	21.4	0.00e+00	0	28	0	132120576	60	7227
2026-01-05 01:08:58.96	183.80	8.34	-42.3	-43.5	21.3	0.00e+00	0	28	0	134217728	60	7283
2026-01-05 01:08:59.97	183.85	8.42	-42.3	-43.5	21.3	0.00e+00	0	28	0	136314880	60	7273
2026-01-05 01:09:00.98	183.90	8.50	-42.3	-43.6	21.3	0.00e+00	0	28	0	138412032	60	7339
2026-01-05 01:09:01.99	183.95	8.58	-42.1	-43.2	21.5	0.00e+00	0	28	0	139460608	60	7063
2026-01-05 01:09:03.00	184.00	8.66	-42.1	-43.3	21.5	0.00e+00	0	28	0	141557760	60	7146
2026-01-05 01:09:04.01	184.06	8.74	-42.0	-43.2	21.6	0.00e+00	0	28	0	143654912	60	7023
2026-01-05 01:09:05.02	184.11	8.82	-42.0	-43.1	21.7	0.00e+00	0	28	0	145752064	60	6976
2026-01-05 01:09:06.03	184.16	8.90	-42.1	-43.2	21.6	0.00e+00	0	28	0	147849216	60	7087
2026-01-05 01:09:07.04	184.22	8.98	-41.9	-43.0	21.8	0.00e+00	0	28	0	148897792	60	6925
2026-01-05 01:09:08.05	184.27	9.06	-42.0	-43.1	21.7	0.00e+00	0	28	0	150994944	60	6999
2026-01-05 01:09:09.07	184.32	9.14	-42.2	-43.4	21.4	0.00e+00	0	28	0	153092096	60	7243
2026-01-05 01:09:10.08	184.38	9.22	-41.9	-43.0	21.8	0.00e+00	0	28	0	155189248	60	6908
2026-01-05 01:09:11.09	184.43	9.31	-41.7	-42.8	22.0	0.00e+00	0	28	0	157286400	60	6746
2026-01-05 01:09:12.10	184.49	9.39	-41.8	-42.9	21.9	0.00e+00	0	28	0	158334976	60	6821
2026-01-05 01:09:13.11	184.54	9.47	-41.7	-42.8	22.1	0.00e+00	0	28	0	160432128	60	6739
2026-01-05 01:09:14.12	184.60	9.55	-41.7	-42.8	22.0	0.00e+00	0	28	0	162529280	60	6713
2026-01-05 01:09:15.13	184.65	9.63	-41.8	-42.9	22.0	0.00e+00	0	28	0	164626432	60	6811
2026-01-05 01:09:16.14	184.71	9.72	-41.8	-43.0	21.8	0.00e+00	0	28	0	166723584	60	6864
2026-01-05 01:09:17.16	184.76	9.80	-41.5	-42.6	22.2	0.00e+00	0	28	0	167772160	60	6588
2026-01-05 01:09:18.17	184.82	9.88	-41.5	-42.6	22.2	0.00e+00	0	28	0	169869312	60	6553
2026-01-05 01:09:19.18	184.88	9.97	-41.6	-42.7	22.2	0.00e+00	0	28	0	171966464	60	6631
2026-01-05 01:09:20.19	184.93	10.05	-41.5	-42.5	22.3	0.00e+00	0	28	0	174063616	60	6528
2026-01-05 01:09:21.20	184.99	10.14	-41.5	-42.5	22.3	0.00e+00	0	28	0	176160768	60	6524
2026-01-05 01:09:22.21	185.05	10.22	-41.5	-42.5	22.3	0.00e+00	0	28	0	178257920	60	6533
2026-01-05 01:09:23.22	185.11	10.30	-41.5	-42.6	22.3	0.00e+00	0	28	0	179306496	60	6561
2026-01-05 01:09:24.24	185.16	10.39	-41.5	-42.5	22.4	0.00e+00	0	28	0	181403648	60	6507
2026-01-05 01:09:25.25	185.22	10.48	-41.5	-42.6	22.2	0.00e+00	0	28	0	183500800	60	6559
2026-01-05 01:09:26.26	185.28	10.56	-41.3	-42.4	22.5	0.00e+00	0	28	0	185597952	60	6399
2026-01-05 01:09:27.27	185.34	10.65	-41.5	-42.5	22.4	0.00e+00	0	28	0	187695104	60	6522
2026-01-05 01:09:28.28	185.40	10.73	-41.4	-42.5	22.4	0.00e+00	0	28	0	188743680	60	6483
2026-01-05 01:09:29.29	185.46	10.82	-41.4	-42.5	22.5	0.00e+00	0	28	0	190840832	60	6499
2026-01-05 01:09:30.30	185.52	10.91	-41.4	-42.5	22.4	0.00e+00	0	28	0	192937984	60	6500
2026-01-05 01:09:31.31	185.58	10.99	-41.5	-42.5	22.3	0.00e+00	0	28	0	195035136	60	6520
2026-01-05 01:09:32.32	185.64	11.08	-41.5	-42.5	22.4	0.00e+00	0	28	0	197132288	60	6525
2026-01-05 01:09:33.33	185.70	11.17	-41.7	-42.8	22.2	0.00e+00	0	28	0	198180864	60	6695
2026-01-05 01:09:34.35	185.76	11.26	-41.4	-42.5	22.4	0.00e+00	0	28	0	200278016	60	6481
2026-01-05 01:09:35.36	185.82	11.34	-41.4	-42.4	22.4	0.00e+00	0	28	0	202375168	60	6458
2026-01-05 01:09:36.37	185.89	11.43	-41.3	-42.4	22.5	0.00e+00	0	28	0	204472320	60	6407
2026-01-05 01:09:37.38	185.95	11.52	-41.4	-42.4	22.4	0.00e+00	0	28	0	206569472	60	6461
2026-01-05 01:09:38.39	186.01	11.61	-41.3	-42.3	22.6	0.00e+00	0	28	0	207618048	60	6366
2026-01-05 01:09:39.40	186.08	11.70	-41.4	-42.5	22.3	0.00e+00	0	28	0	209715200	60	6467
2026-01-05 01:09:40.41	186.14	11.79	-41.4	-42.4	22.5	0.00e+00	0	28	0	211812352	60	6456
2026-01-05 01:09:41.42	186.20	11.88	-41.1	-42.1	22.7	0.00e+00	0	28	0	213909504	60	6242
2026-01-05 01:09:42.43	186.27	11.97	-41.4	-42.4	22.6	0.00e+00	0	28	0	216006656	60	6447
2026-01-05 01:09:43.44	186.33	12.06	-41.1	-42.1	22.7	0.00e+00	0	28	0	218103808	60	6217
2026-01-05 01:09:44.46	186.40	12.15	-41.0	-42.0	22.8	0.00e+00	0	28	0	219152384	60	6127
2026-01-05 01:09:45.47	186.46	12.24	-40.8	-41.8	23.1	0.00e+00	0	28	0	221249536	60	6018
2026-01-05 01:09:46.48	186.53	12.33	-41.0	-42.0	22.9	0.00e+00	0	28	0	223346688	60	6121
2026-01-05 01:09:47.49	186.59	12.42	-40.9	-41.9	22.9	0.00e+00	0	28	0	225443840	60	6083
2026-01-05 01:09:48.50	186.66	12.52	-40.8	-41.8	23.1	0.00e+00	0	28	0	227540992	60	5970
2026-01-05 01:09:49.51	186.73	12.61	-40.8	-41.8	23.0	0.00e+00	0	28	0	228589568	60	5972
2026-01-05 01:09:50.52	186.80	12.70	-40.7	-41.6	23.2	0.00e+00	0	28	0	230686720	60	5889
2026-01-05 01:09:51.53	186.86	12.79	-40.9	-41.9	23.0	0.00e+00	0	28	0	232783872	60	6046
2026-01-05 01:09:52.54	186.93	12.89	-40.8	-41.8	23.1	0.00e+00	0	28	0	234881024	60	6002
2026-01-05 01:09:53.56	187.00	12.98	-40.9	-41.8	23.1	0.00e+00	0	28	0	236978176	60	6030
2026-01-05 01:09:54.57	187.07	13.07	-40.9	-41.9	23.1	0.00e+00	0	28	0	238026752	60	6040
2026-01-05 01:09:55.58	187.14	13.17	-40.9	-41.9	23.0	0.00e+00	0	28	0	240123904	60	6054
2026-01-05 01:09:56.59	187.21	13.26	-40.8	-41.8	23.1	0.00e+00	0	28	0	242221056	60	6016
2026-01-05 01:09:57.60	187.28	13.36	-40.7	-41.6	23.2	0.00e+00	0	28	0	244318208	60	5882
2026-01-05 01:09:58.61	187.35	13.45	-40.8	-41.8	23.1	0.00e+00	0	28	0	246415360	60	5982
2026-01-05 01:09:59.62	187.42	13.55	-40.6	-41.6	23.3	0.00e+00	0	28	0	247463936	60	5864
2026-01-05 01:10:00.63	187.49	13.64	-40.6	-41.5	23.3	0.00e+00	0	28	0	249561088	60	5812
2026-01-05 01:10:01.64	187.56	13.74	-40.7	-41.6	23.3	0.00e+00	0	28	0	251658240	60	5893
2026-01-05 01:10:02.66	187.64	13.84	-40.7	-41.7	23.2	0.00e+00	0	28	0	253755392	60	5940
2026-01-05 01:10:03.67	187.71	13.93	-40.7	-41.7	23.2	0.00e+00	0	28	0	255852544	60	5911
2026-01-05 01:10:04.68	187.78	14.03	-40.6	-41.6	23.3	0.00e+00	0	28	0	256901120	60	5867
2026-01-05 01:10:05.69	187.86	14.13	-40.3	-41.2	23.6	0.00e+00	0	28	0	258998272	60	5604
2026-01-05 01:10:06.70	187.93	14.23	-40.4	-41.3	23.6	0.00e+00	0	28	0	261095424	60	5694
2026-01-05 01:10:07.71	188.01	14.33	-40.0	-40.9	23.8	0.00e+00	0	28	0	263192576	58	6074
2026-01-05 01:10:08.72	188.08	14.42	-40.0	-40.9	23.8	0.00e+00	0	28	0	265289728	58	6095
2026-01-05 01:10:09.73	188.16	14.52	-39.9	-40.8	23.9	0.00e+00	0	28	0	266338304	58	6024
2026-01-05 01:10:10.75	188.23	14.62	-39.9	-40.8	23.9	0.00e+00	0	28	0	268435456	58	6009
2026-01-05 01:10:11.76	188.31	14.72	-40.0	-40.9	23.8	0.00e+00	0	28	0	270532608	58	6085
2026-01-05 01:10:12.77	188.39	14.82	-40.0	-40.8	23.9	0.00e+00	0	28	0	272629760	58	6032
2026-01-05 01:10:13.78	188.46	14.92	-40.0	-40.9	23.9	0.00e+00	0	28	0	274726912	58	6089
2026-01-05 01:10:14.79	188.54	15.02	-39.9	-40.8	24.0	0.00e+00	0	28	0	276824064	58	6009
2026-01-05 01:10:15.80	188.62	15.13	-39.7	-40.6	24.2	0.00e+00	0	28	0	277872640	58	5868
2026-01-05 01:10:16.81	188.70	15.23	-39.8	-40.7	24.0	0.00e+00	0	28	0	279969792	58	5905
2026-01-05 01:10:17.82	188.78	15.33	-39.6	-40.5	24.3	0.00e+00	0	28	0	282066944	58	5805
2026-01-05 01:10:18.83	188.86	15.43	-39.8	-40.6	24.1	0.00e+00	0	28	0	284164096	58	5879
2026-01-05 01:10:19.85	188.94	15.54	-39.9	-40.8	24.0	0.00e+00	0	28	0	286261248	58	5972
2026-01-05 01:10:20.86	189.02	15.64	-39.8	-40.6	24.1	0.00e+00	0	28	0	287309824	58	5890
2026-01-05 01:10:21.87	189.10	15.74	-39.7	-40.6	24.1	0.00e+00	0	28	0	289406976	58	5873
2026-01-05 01:10:22.88	189.19	15.85	-39.8	-40.6	24.1	0.00e+00	0	28	0	291504128	58	5883
2026-01-05 01:10:23.89	189.27	15.95	-39.7	-40.6	24.1	0.00e+00	0	28	0	293601280	58	5849
2026-01-05 01:10:24.90	189.35	16.05	-39.6	-40.5	24.3	0.00e+00	0	28	0	295698432	58	5771
2026-01-05 01:10:25.91	189.44	16.16	-39.8	-40.7	24.1	0.00e+00	0	28	0	296747008	58	5917
2026-01-05 01:10:26.92	189.52	16.26	-39.5	-40.3	24.3	0.00e+00	0	28	0	298844160	58	5694
2026-01-05 01:10:27.93	189.61	16.37	-39.6	-40.5	24.2	0.00e+00	0	28	0	300941312	58	5807
2026-01-05 01:10:28.95	189.69	16.48	-39.6	-40.5	24.2	0.00e+00	0	28	0	303038464	58	5794
2026-01-05 01:10:29.96	189.78	16.58	-39.5	-40.3	24.4	0.00e+00	0	28	0	305135616	58	5674
2026-01-05 01:10:30.97	189.87	16.69	-39.5	-40.3	24.4	0.00e+00	0	28	0	306184192	58	5677
2026-01-05 01:10:31.98	189.95	16.80	-39.5	-40.4	24.4	0.00e+00	0	28	0	308281344	58	5726
2026-01-05 01:10:32.99	190.04	16.91	-39.6	-40.5	24.3	0.00e+00	0	28	0	310378496	58	5770
2026-01-05 01:10:34.00	190.13	17.02	-39.9	-40.7	24.0	0.00e+00	0	28	0	312475648	58	5963
2026-01-05 01:10:35.01	190.22	17.12	-39.6	-40.5	24.3	0.00e+00	0	28	0	314572800	58	5798
2026-01-05 01:10:36.02	190.31	17.23	-39.4	-40.3	24.4	0.00e+00	0	28	0	315621376	58	5641
2026-01-05 01:10:37.03	190.40	17.34	-39.5	-40.3	24.3	0.00e+00	0	28	0	317718528	58	5690
2026-01-05 01:10:38.04	190.49	17.45	-39.4	-40.3	24.4	0.00e+00	0	28	0	319815680	58	5650
2026-01-05 01:10:39.06	190.58	17.56	-39.6	-40.4	24.3	0.00e+00	0	28	0	321912832	58	5752
2026-01-05 01:10:40.07	190.68	17.68	-39.6	-40.4	24.3	0.00e+00	0	28	0	324009984	58	5758
2026-01-05 01:10:41.08	190.77	17.79	-39.5	-40.4	24.3	0.00e+00	0	28	0	326107136	58	5733
2026-01-05 01:10:42.09	190.86	17.90	-39.7	-40.6	24.1	0.00e+00	0	28	0	327155712	58	5851
2026-01-05 01:10:43.10	190.96	18.01	-39.5	-40.4	24.4	0.00e+00	0	28	0	329252864	58	5701
2026-01-05 01:10:44.11	191.05	18.12	-39.5	-40.4	24.4	0.00e+00	0	28	0	331350016	58	5733
2026-01-05 01:10:45.12	191.15	18.24	-39.5	-40.3	24.4	0.00e+00	0	28	0	333447168	58	5688
2026-01-05 01:10:46.13	191.24	18.35	-39.5	-40.3	24.5	0.00e+00	0	28	0	335544320	58	5664
2026-01-05 01:10:47.15	191.34	18.46	-39.6	-40.4	24.4	0.00e+00	0	28	0	336592896	58	5737
2026-01-05 01:10:48.16	191.44	18.58	-39.5	-40.4	24.5	0.00e+00	0	28	0	338690048	58	5718
2026-01-05 01:10:49.17	191.54	18.69	-39.4	-40.3	24.4	0.00e+00	0	28	0	340787200	58	5636
2026-01-05 01:10:50.18	191.64	18.81	-39.6	-40.4	24.4	0.00e+00	0	28	0	342884352	58	5744
2026-01-05 01:10:51.19	191.74	18.93	-39.6	-40.4	24.4	0.00e+00	0	28	0	344981504	58	5736
2026-01-05 01:10:52.20	191.84	19.04	-39.4	-40.3	24.4	0.00e+00	0	28	0	346030080	58	5640
2026-01-05 01:10:53.21	191.94	19.16	-39.5	-40.3	24.4	0.00e+00	0	28	0	348127232	58	5668
2026-01-05 01:10:54.22	192.04	19.28	-39.5	-40.3	24.4	0.00e+00	0	28	0	350224384	58	5686
2026-01-05 01:10:55.23	192.14	19.39	-39.5	-40.3	24.5	0.00e+00	0	28	0	352321536	58	5680
2026-01-05 01:10:56.25	192.25	19.51	-39.5	-40.3	24.5	0.00e+00	0	28	0	354418688	58	5690
2026-01-05 01:10:57.26	192.35	19.63	-39.4	-40.2	24.5	0.00e+00	0	28	0	355467264	58	5619
2026-01-05 01:10:58.27	192.46	19.75	-39.4	-40.2	24.5	0.00e+00	0	28	0	357564416	58	5613
2026-01-05 01:10:59.28	192.56	19.87	-39.5	-40.4	24.4	0.00e+00	0	28	0	359661568	58	5732
2026-01-05 01:11:00.29	192.67	19.99	-39.5	-40.4	24.4	0.00e+00	0	28	0	361758720	58	5728
2026-01-05 01:11:01.30	192.78	20.11	-39.7	-40.5	24.3	0.00e+00	0	28	0	363855872	58	5809
2026-01-05 01:11:02.31	192.89	20.23	-39.6	-40.4	24.4	0.00e+00	0	28	0	364904448	58	5746
2026-01-05 01:11:03.32	193.00	20.35	-39.4	-40.2	24.6	0.00e+00	0	28	0	367001600	58	5592
2026-01-05 01:11:04.33	193.11	20.47	-39.5	-40.3	24.5	0.00e+00	0	28	0	369098752	58	5660
2026-01-05 01:11:05.34	193.22	20.60	-39.5	-40.3	24.5	0.00e+00	0	28	0	371195904	58	5677
2026-01-05 01:11:06.36	193.33	20.72	-39.4	-40.2	24.6	0.00e+00	0	28	0	373293056	58	5598
2026-01-05 01:11:07.37	193.44	20.84	-39.5	-40.3	24.5	0.00e+00	0	28	0	375390208	58	5672
2026-01-05 01:11:08.38	193.56	20.97	-39.4	-40.3	24.5	0.00e+00	0	28	0	376438784	58	5635
2026-01-05 01:11:09.39	193.67	21.09	-39.5	-40.3	24.5	0.00e+00	0	28	0	378535936	58	5690
2026-01-05 01:11:10.40	193.79	21.22	-39.5	-40.3	24.5	0.00e+00	0	28	0	380633088	58	5695
2026-01-05 01:11:11.41	193.90	21.34	-39.4	-40.3	24.5	0.00e+00	0	28	0	382730240	58	5654
2026-01-05 01:11:12.42	194.02	21.47	-39.5	-40.4	24.4	0.00e+00	0	28	0	384827392	58	5721
2026-01-05 01:11:13.43	194.14	21.60	-39.5	-40.4	24.4	0.00e+00	0	28	0	385875968	58	5697
2026-01-05 01:11:14.44	194.26	21.72	-39.8	-40.6	24.3	0.00e+00	0	28	0	387973120	58	5884
2026-01-05 01:11:15.46	194.38	21.85	-39.4	-40.3	24.5	0.00e+00	0	28	0	390070272	58	5662
2026-01-05 01:11:16.47	194.50	21.98	-39.5	-40.4	24.4	0.00e+00	0	28	0	392167424	58	5697
2026-01-05 01:11:17.48	194.62	22.11	-39.6	-40.4	24.4	0.00e+00	0	28	0	394264576	58	5752
2026-01-05 01:11:18.49	194.74	22.24	-39.5	-40.3	24.5	0.00e+00	0	28	0	395313152	58	5684
2026-01-05 01:11:19.50	194.87	22.37	-39.5	-40.4	24.5	0.00e+00	0	28	0	397410304	58	5704
2026-01-05 01:11:20.51	194.99	22.50	-39.4	-40.3	24.5	0.00e+00	0	28	0	399507456	58	5659
2026-01-05 01:11:21.52	195.12	22.63	-39.6	-40.4	24.4	0.00e+00	0	28	0	401604608	58	5755
2026-01-05 01:11:22.53	195.24	22.76	-39.5	-40.4	24.5	0.00e+00	0	28	0	403701760	58	5711
2026-01-05 01:11:23.54	195.37	22.89	-39.7	-40.6	24.3	0.00e+00	0	28	0	404750336	58	5865
2026-01-05 01:11:24.55	195.50	23.02	-39.7	-40.7	24.2	0.00e+00	0	28	0	406847488	58	5911
2026-01-05 01:11:25.57	195.63	23.16	-39.8	-40.7	24.2	0.00e+00	0	28	0	408944640	58	5943
2026-01-05 01:11:26.58	195.76	23.29	-39.8	-40.8	24.2	0.00e+00	0	28	0	411041792	58	5977
2026-01-05 01:11:27.59	195.90	23.43	-39.7	-40.6	24.3	0.00e+00	0	28	0	413138944	58	5894
2026-01-05 01:11:28.60	196.03	23.56	-39.6	-40.5	24.3	0.00e+00	0	28	0	415236096	58	5790
2026-01-05 01:11:29.61	196.16	23.69	-39.8	-40.7	24.2	0.00e+00	0	28	0	416284672	58	5916
2026-01-05 01:11:30.62	196.30	23.83	-39.6	-40.5	24.4	0.00e+00	0	28	0	418381824	58	5782
2026-01-05 01:11:31.63	196.44	23.97	-39.7	-40.6	24.4	0.00e+00	0	28	0	420478976	58	5876
2026-01-05 01:11:32.64	196.57	24.10	-39.6	-40.4	24.5	0.00e+00	0	28	0	422576128	58	5738
2026-01-05 01:11:33.65	196.71	24.24	-39.6	-40.4	24.5	0.00e+00	0	28	0	424673280	58	5740
2026-01-05 01:11:34.67	196.85	24.38	-39.6	-40.5	24.4	0.00e+00	0	28	0	425721856	58	5777
2026-01-05 01:11:35.68	196.99	24.52	-39.7	-40.5	24.3	0.00e+00	0	28	0	427819008	58	5825
2026-01-05 01:11:36.69	197.14	24.66	-39.7	-40.6	24.3	0.00e+00	0	28	0	429916160	58	5831
2026-01-05 01:11:37.70	197.28	24.80	-39.8	-40.7	24.2	0.00e+00	0	28	0	432013312	58	5919
2026-01-05 01:11:38.71	197.43	24.94	-40.1	-41.0	24.0	0.00e+00	0	28	0	434110464	58	6123
2026-01-05 01:11:39.72	197.57	25.08	-40.1	-41.0	23.8	0.00e+00	0	28	0	435159040	58	6171
2026-01-05 01:11:40.73	197.72	25.22	-40.1	-41.0	24.1	0.00e+00	0	28	0	437256192	58	6149
2026-01-05 01:11:41.74	197.87	25.36	-40.1	-41.0	24.0	0.00e+00	0	28	0	439353344	58	6126
2026-01-05 01:11:42.75	198.02	25.50	-40.2	-41.1	23.9	0.00e+00	0	28	0	441450496	58	6231
2026-01-05 01:11:43.77	198.17	25.65	-40.2	-41.1	24.0	0.00e+00	0	28	0	443547648	58	6198
2026-01-05 01:11:44.78	198.32	25.79	-40.2	-41.1	24.0	0.00e+00	0	28	0	444596224	58	6191
2026-01-05 01:11:45.79	198.48	25.93	-40.3	-41.2	23.9	0.00e+00	0	28	0	446693376	58	6256
2026-01-05 01:11:46.80	198.63	26.08	-40.5	-41.5	23.6	0.00e+00	0	28	0	448790528	58	6470
2026-01-05 01:11:47.81	198.79	26.22	-40.3	-41.1	23.9	0.00e+00	0	28	0	450887680	58	6244
2026-01-05 01:11:48.82	198.95	26.37	-40.3	-41.2	24.0	0.00e+00	0	28	0	452984832	58	6282
2026-01-05 01:11:49.83	199.11	26.51	-40.2	-41.1	23.8	0.00e+00	0	28	0	454033408	58	6235
2026-01-05 01:11:50.84	199.27	26.66	-40.3	-41.3	23.8	0.00e+00	0	28	0	456130560	58	6318
2026-01-05 01:11:51.85	199.43	26.81	-40.6	-41.5	23.6	0.00e+00	0	28	0	458227712	58	6490
2026-01-05 01:11:52.86	199.60	26.96	-40.6	-41.5	23.6	0.00e+00	0	28	0	460324864	58	6531
2026-01-05 01:11:53.88	199.76	27.11	-40.8	-41.7	23.4	0.00e+00	0	28	0	462422016	58	6685
2026-01-05 01:11:54.88	199.93	27.25	-40.7	-41.7	23.5	0.00e+00	0	28	0	463470592	58	6643
2026-01-05 01:11:55.90	200.10	27.41	-40.8	-41.8	23.5	0.00e+00	0	28	0	465567744	58	6693
2026-01-05 01:11:56.91	200.27	27.56	-40.7	-41.7	23.5	0.00e+00	0	28	0	467664896	58	6631
2026-01-05 01:11:57.92	200.44	27.71	-40.7	-41.6	23.5	0.00e+00	0	28	0	469762048	58	6609
2026-01-05 01:11:58.93	200.62	27.86	-40.7	-41.6	23.5	0.00e+00	0	28	0	471859200	58	6614
2026-01-05 01:11:59.94	200.79	28.01	-40.8	-41.7	23.5	0.00e+00	0	28	0	473956352	58	6646
2026-01-05 01:12:00.95	200.97	28.16	-40.7	-41.7	23.5	0.00e+00	0	28	0	475004928	58	6637
2026-01-05 01:12:01.96	201.14	28.31	-41.0	-42.0	23.3	0.00e+00	0	28	0	477102080	58	6857
2026-01-05 01:12:02.97	201.32	28.47	-41.0	-42.0	23.3	0.00e+00	0	28	0	479199232	58	6849
2026-01-05 01:12:03.98	201.51	28.62	-41.2	-42.2	23.1	0.00e+00	0	28	0	481296384	60	6270
2026-01-05 01:12:04.99	201.69	28.78	-41.6	-42.6	22.8	0.00e+00	0	28	0	483393536	60	6560
2026-01-05 01:12:06.01	201.88	28.93	-41.7	-42.7	22.6	0.00e+00	0	28	0	484442112	60	6672
2026-01-05 01:12:07.02	202.06	29.09	-41.8	-42.9	22.5	0.00e+00	0	28	0	486539264	60	6772
2026-01-05 01:12:08.03	202.25	29.24	-42.2	-43.2	22.1	0.00e+00	0	28	0	488636416	60	7081
2026-01-05 01:12:09.04	202.44	29.40	-42.5	-43.6	21.8	0.00e+00	0	28	0	490733568	60	7364
2026-01-05 01:12:10.05	202.63	29.56	-42.6	-43.7	21.7	0.00e+00	0	28	0	492830720	60	7508
2026-01-05 01:12:11.06	202.83	29.72	-43.0	-44.2	21.2	0.00e+00	0	28	0	493879296	60	7922
2026-01-05 01:12:12.07	203.02	29.87	-42.8	-44.0	21.4	0.00e+00	0	28	0	495976448	60	7747
2026-01-05 01:12:13.08	203.22	30.03	-43.0	-44.2	21.2	0.00e+00	0	28	0	498073600	60	7897
2026-01-05 01:12:14.09	203.42	30.19	-43.3	-44.6	20.9	0.00e+00	0	28	0	500170752	60	8284
2026-01-05 01:12:15.11	203.62	30.35	-43.5	-44.8	20.7	0.00e+00	0	28	0	502267904	60	8448
2026-01-05 01:12:16.12	203.83	30.51	-43.6	-44.9	20.6	0.00e+00	0	28	0	503316480	60	8613
2026-01-05 01:12:17.13	204.03	30.68	-43.5	-44.8	20.7	0.00e+00	0	28	0	505413632	60	8487
2026-01-05 01:12:18.14	204.24	30.84	-43.5	-44.9	20.6	0.00e+00	0	28	0	507510784	60	8552
2026-01-05 01:12:19.15	204.45	31.00	-43.9	-45.3	20.1	0.00e+00	0	28	0	509607936	60	9010
2026-01-05 01:12:20.16	204.66	31.16	-43.5	-44.8	20.6	0.00e+00	0	28	0	511705088	60	8492
2026-01-05 01:12:21.17	204.88	31.32	-43.4	-44.7	20.8	0.00e+00	0	28	0	512753664	60	8402
2026-01-05 01:12:22.18	205.09	31.49	-43.5	-44.8	20.6	0.00e+00	0	28	0	514850816	60	8513
2026-01-05 01:12:23.19	205.31	31.65	-43.4	-44.7	20.7	0.00e+00	0	28	0	516947968	60	8399
2026-01-05 01:12:24.20	205.53	31.82	-43.6	-44.9	20.4	0.00e+00	0	28	0	519045120	60	8594
2026-01-05 01:12:25.22	205.75	31.98	-43.5	-44.9	20.9	0.00e+00	0	28	0	521142272	60	8533
2026-01-05 01:12:26.23	205.98	32.15	-43.0	-44.2	21.0	0.00e+00	0	28	0	523239424	60	7923
2026-01-05 01:12:27.24	206.21	32.31	-43.0	-44.2	21.3	0.00e+00	0	28	0	524288000	60	7878
2026-01-05 01:12:28.25	206.43	32.48	-42.9	-44.1	21.2	0.00e+00	0	28	0	526385152	60	7825
2026-01-05 01:12:29.26	206.67	32.65	-43.1	-44.3	21.1	0.00e+00	0	28	0	528482304	60	8007
2026-01-05 01:12:30.27	206.90	32.81	-42.9	-44.1	21.4	0.00e+00	0	28	0	530579456	60	7813
2026-01-05 01:12:31.28	207.14	32.98	-42.7	-43.9	21.6	0.00e+00	0	28	0	532676608	60	7615
2026-01-05 01:12:32.29	207.37	33.15	-42.4	-43.5	21.7	0.00e+00	0	28	0	533725184	60	7300
2026-01-05 01:12:33.30	207.62	33.32	-42.5	-43.7	21.7	0.00e+00	0	28	0	535822336	60	7431
2026-01-05 01:12:34.32	207.86	33.49	-41.6	-42.6	22.7	0.00e+00	0	28	0	537919488	60	6595
2026-01-05 01:12:35.33	208.11	33.65	-41.2	-42.2	22.9	0.00e+00	0	28	0	540016640	60	6308
2026-01-05 01:12:36.34	208.35	33.82	-40.8	-41.8	23.4	0.00e+00	0	28	0	542113792	60	5974
2026-01-05 01:12:37.35	208.61	33.99	-40.7	-41.6	23.5	0.00e+00	0	28	0	543162368	60	5884
2026-01-05 01:12:38.36	208.86	34.16	-40.6	-41.5	23.7	0.00e+00	0	28	0	545259520	60	5788
2026-01-05 01:12:39.37	209.12	34.33	-40.5	-41.4	23.7	0.00e+00	0	28	0	547356672	60	5725
2026-01-05 01:12:40.38	209.37	34.50	-40.3	-41.2	24.1	0.00e+00	0	28	0	549453824	60	5569
2026-01-05 01:12:41.39	209.64	34.67	-40.0	-40.9	24.2	0.00e+00	0	28	0	551550976	58	6050
2026-01-05 01:12:42.41	209.90	34.85	-39.9	-40.8	24.4	0.00e+00	0	28	0	552599552	58	5984
2026-01-05 01:12:43.42	210.17	35.02	-39.9	-40.8	24.3	0.00e+00	0	28	0	554696704	58	5985
2026-01-05 01:12:44.43	210.44	35.19	-40.3	-41.2	23.9	0.00e+00	0	28	0	556793856	58	6262
2026-01-05 01:12:45.44	210.71	35.36	-40.3	-41.2	23.9	0.00e+00	0	28	0	558891008	58	6249
2026-01-05 01:12:46.45	210.99	35.53	-40.5	-41.4	23.5	0.00e+00	0	28	0	560988160	58	6430
2026-01-05 01:12:47.46	211.26	35.71	-41.1	-42.1	23.3	0.00e+00	0	28	0	563085312	58	6980
2026-01-05 01:12:48.47	211.55	35.88	-40.7	-41.7	23.3	0.00e+00	0	28	0	564133888	58	6641
2026-01-05 01:12:49.48	211.83	36.05	-41.6	-42.6	22.6	0.00e+00	0	28	0	566231040	60	6596
2026-01-05 01:12:50.49	212.12	36.22	-42.1	-43.2	22.2	0.00e+00	0	28	0	568328192	60	7014
2026-01-05 01:12:51.51	212.41	36.40	-41.8	-42.9	22.3	0.00e+00	0	28	0	570425344	60	6783
2026-01-05 01:12:52.52	212.70	36.57	-41.8	-42.9	22.5	0.00e+00	0	28	0	572522496	60	6820
2026-01-05 01:12:53.53	213.00	36.74	-40.6	-41.6	23.6	0.00e+00	0	28	0	573571072	60	5838
2026-01-05 01:12:54.54	213.30	36.92	-39.6	-40.5	24.5	0.00e+00	0	28	0	575668224	58	5800
2026-01-05 01:12:55.55	213.60	37.09	-39.5	-40.3	24.6	0.00e+00	0	28	0	577765376	58	5692
2026-01-05 01:12:56.56	213.90	37.26	-39.4	-40.2	24.7	0.00e+00	0	28	0	579862528	58	5615
2026-01-05 01:12:57.57	214.21	37.44	-39.4	-40.2	24.6	0.00e+00	0	28	0	581959680	58	5598
2026-01-05 01:12:58.58	214.52	37.61	-39.5	-40.4	24.6	0.00e+00	0	28	0	583008256	58	5704
2026-01-05 01:12:59.59	214.84	37.78	-39.6	-40.4	24.5	0.00e+00	0	28	0	585105408	58	5754
2026-01-05 01:13:00.61	215.16	37.96	-39.8	-40.7	24.3	0.00e+00	0	28	0	587202560	58	5943
2026-01-05 01:13:01.62	215.48	38.13	-40.1	-40.9	24.1	0.00e+00	0	28	0	589299712	58	6089
2026-01-05 01:13:02.63	215.81	38.30	-40.2	-41.1	24.0	0.00e+00	0	28	0	591396864	58	6182
2026-01-05 01:13:03.64	216.14	38.48	-40.2	-41.0	24.0	0.00e+00	0	28	0	592445440	58	6160
2026-01-05 01:13:04.65	216.47	38.65	-40.1	-41.0	24.1	0.00e+00	0	28	0	594542592	58	6115
2026-01-05 01:13:05.66	216.80	38.82	-40.2	-41.1	24.3	0.00e+00	0	28	0	596639744	58	6182
2026-01-05 01:13:06.67	217.14	38.99	-40.5	-41.4	23.6	0.00e+00	0	28	0	598736896	58	6402
2026-01-05 01:13:07.68	217.49	39.17	-39.7	-40.6	24.5	0.00e+00	0	28	0	600834048	58	5850
2026-01-05 01:13:08.70	217.84	39.34	-39.8	-40.6	24.5	0.00e+00	0	28	0	602931200	58	5875
2026-01-05 01:13:09.71	218.19	39.51	-39.9	-40.8	24.3	0.00e+00	0	28	0	603979776	58	5990
2026-01-05 01:13:10.72	218.54	39.68	-40.3	-41.2	24.1	0.00e+00	0	28	0	606076928	58	6272
2026-01-05 01:13:11.73	218.90	39.85	-40.2	-41.0	24.1	0.00e+00	0	28	0	608174080	58	6172
2026-01-05 01:13:12.74	219.26	40.02	-40.3	-41.2	23.9	0.00e+00	0	28	0	610271232	58	6249
2026-01-05 01:13:13.75	219.62	40.19	-40.4	-41.4	23.7	0.00e+00	0	28	0	612368384	58	6396
2026-01-05 01:13:14.76	219.99	40.36	-40.6	-41.5	23.6	0.00e+00	0	28	0	613416960	58	6507
2026-01-05 01:13:15.77	220.36	40.53	-40.8	-41.7	23.5	0.00e+00	0	28	0	615514112	58	6661
2026-01-05 01:13:16.78	220.74	40.70	-40.8	-41.7	23.5	0.00e+00	0	28	0	617611264	58	6682
2026-01-05 01:13:17.80	221.12	40.87	-40.6	-41.5	23.7	0.00e+00	0	28	0	619708416	58	6519
2026-01-05 01:13:18.81	221.51	41.03	-40.8	-41.7	23.6	0.00e+00	0	28	0	621805568	58	6638
2026-01-05 01:13:19.82	221.89	41.20	-40.9	-41.8	23.3	0.00e+00	0	28	0	622854144	58	6762
2026-01-05 01:13:20.83	222.28	41.37	-41.3	-42.3	23.1	0.00e+00	0	28	0	624951296	60	6320
2026-01-05 01:13:21.84	222.68	41.53	-41.6	-42.7	22.8	0.00e+00	0	28	0	627048448	60	6625
2026-01-05 01:13:22.85	223.08	41.69	-41.7	-42.7	22.8	0.00e+00	0	28	0	629145600	60	6628
2026-01-05 01:13:23.86	223.48	41.86	-41.7	-42.7	22.8	0.00e+00	0	28	0	631242752	60	6660
2026-01-05 01:13:24.87	223.89	42.02	-41.4	-42.4	22.9	0.00e+00	0	28	0	632291328	60	6392
2026-01-05 01:13:25.88	224.30	42.18	-41.6	-42.6	22.7	0.00e+00	0	28	0	634388480	60	6559
2026-01-05 01:13:26.90	224.72	42.34	-41.9	-42.9	22.5	0.00e+00	0	28	0	636485632	60	6809
2026-01-05 01:13:27.91	225.14	42.50	-42.1	-43.1	22.2	0.00e+00	0	28	0	638582784	60	7007
2026-01-05 01:13:28.92	225.57	42.66	-42.0	-43.0	22.2	0.00e+00	0	28	0	640679936	60	6900
2026-01-05 01:13:29.93	225.99	42.82	-41.7	-42.8	22.7	0.00e+00	0	28	0	641728512	60	6700
2026-01-05 01:13:30.94	226.43	42.98	-41.2	-42.2	23.1	0.00e+00	0	28	0	643825664	60	6276
2026-01-05 01:13:31.95	226.86	43.13	-41.1	-42.0	23.3	0.00e+00	0	28	0	645922816	60	6159
2026-01-05 01:13:32.96	227.30	43.29	-41.0	-41.9	23.3	0.00e+00	0	28	0	648019968	60	6081
2026-01-05 01:13:33.97	227.75	43.44	-41.2	-42.2	23.1	0.00e+00	0	28	0	650117120	60	6271
2026-01-05 01:13:34.98	228.20	43.59	-41.7	-42.8	22.5	0.00e+00	0	28	0	651165696	60	6713
2026-01-05 01:13:35.99	228.65	43.74	-42.3	-43.4	21.7	0.00e+00	0	28	0	653262848	60	7182
2026-01-05 01:13:37.00	229.11	43.89	-42.6	-43.7	21.7	0.00e+00	0	28	0	655360000	60	7496
2026-01-05 01:13:38.01	229.57	44.04	-42.2	-43.3	22.1	0.00e+00	0	28	0	657457152	60	7119
2026-01-05 01:13:39.03	230.04	44.18	-41.6	-42.6	22.8	0.00e+00	0	28	0	659554304	60	6608
2026-01-05 01:13:40.03	230.50	44.33	-40.7	-41.6	23.7	0.00e+00	0	28	0	660602880	60	5864
2026-01-05 01:13:41.05	230.98	44.47	-40.6	-41.5	23.7	0.00e+00	0	28	0	662700032	60	5765
2026-01-05 01:13:42.06	231.46	44.61	-40.9	-41.8	23.4	0.00e+00	0	28	0	664797184	60	6014
2026-01-05 01:13:43.07	231.94	44.75	-41.6	-42.6	22.8	0.00e+00	0	28	0	666894336	60	6580
2026-01-05 01:13:44.08	232.43	44.89	-42.3	-43.3	22.2	0.00e+00	0	28	0	668991488	60	7170
2026-01-05 01:13:45.09	232.92	45.03	-42.3	-43.4	22.0	0.00e+00	0	28	0	671088640	60	7252
2026-01-05 01:13:46.10	233.42	45.16	-41.6	-42.6	22.8	0.00e+00	0	28	0	672137216	60	6559
2026-01-05 01:13:47.11	233.92	45.29	-40.9	-41.8	23.5	0.00e+00	0	28	0	674234368	60	6032
2026-01-05 01:13:48.12	234.42	45.42	-40.5	-41.4	23.8	0.00e+00	0	28	0	676331520	60	5734
2026-01-05 01:13:49.13	234.93	45.55	-40.3	-41.2	23.9	0.00e+00	0	28	0	678428672	60	5568
2026-01-05 01:13:50.15	235.44	45.68	-40.6	-41.5	23.6	0.00e+00	0	28	0	680525824	60	5806
2026-01-05 01:13:51.16	235.96	45.80	-41.3	-42.3	23.0	0.00e+00	0	28	0	681574400	60	6341
2026-01-05 01:13:52.17	236.48	45.92	-42.4	-43.5	22.0	0.00e+00	0	28	0	683671552	60	7284
2026-01-05 01:13:53.18	237.00	46.04	-42.7	-43.8	21.6	0.00e+00	0	28	0	685768704	60	7571
2026-01-05 01:13:54.19	237.53	46.16	-42.8	-44.0	21.7	0.00e+00	0	28	0	687865856	60	7692
2026-01-05 01:13:55.20	238.06	46.28	-42.1	-43.2	22.2	0.00e+00	0	28	0	689963008	60	7058
2026-01-05 01:13:56.21	238.59	46.39	-42.7	-43.8	21.8	0.00e+00	0	28	0	691011584	60	7569
2026-01-05 01:13:57.22	239.13	46.50	-42.6	-43.7	21.5	0.00e+00	0	28	0	693108736	60	7479
2026-01-05 01:13:58.23	239.68	46.61	-42.9	-44.1	21.5	0.00e+00	0	28	0	695205888	60	7819
2026-01-05 01:13:59.25	240.23	46.72	-42.8	-44.0	21.5	0.00e+00	0	28	0	697303040	60	7716
2026-01-05 01:14:00.26	240.78	46.82	-42.8	-44.0	21.5	0.00e+00	0	28	0	699400192	60	7738
2026-01-05 01:14:01.27	241.33	46.92	-42.7	-43.9	21.6	0.00e+00	0	28	0	700448768	60	7629
2026-01-05 01:14:02.28	241.89	47.02	-42.3	-43.4	21.9	0.00e+00	0	28	0	702545920	60	7251
2026-01-05 01:14:03.29	242.45	47.11	-42.3	-43.4	22.0	0.00e+00	0	28	0	704643072	60	7204
2026-01-05 01:14:04.30	243.01	47.20	-42.6	-43.7	21.6	0.00e+00	0	28	0	706740224	60	7508
2026-01-05 01:14:05.31	243.58	47.29	-42.8	-44.0	21.5	0.00e+00	0	28	0	708837376	60	7730
2026-01-05 01:14:06.32	244.15	47.38	-42.5	-43.7	21.9	0.00e+00	0	28	0	710934528	60	7424
2026-01-05 01:14:07.33	244.72	47.46	-42.3	-43.4	22.1	0.00e+00	0	28	0	711983104	60	7244
2026-01-05 01:14:08.35	245.30	47.55	-42.1	-43.1	22.1	0.00e+00	0	28	0	714080256	60	6999
2026-01-05 01:14:09.36	245.88	47.62	-41.8	-42.8	22.6	0.00e+00	0	28	0	716177408	60	6733
2026-01-05 01:14:10.37	246.46	47.70	-41.7	-42.7	22.6	0.00e+00	0	28	0	718274560	60	6649
2026-01-05 01:14:11.38	247.05	47.77	-42.0	-43.0	22.3	0.00e+00	0	28	0	720371712	60	6916
2026-01-05 01:14:12.39	247.63	47.84	-42.6	-43.7	21.7	0.00e+00	0	28	0	721420288	60	7483
2026-01-05 01:14:13.40	248.22	47.91	-43.3	-44.6	21.0	0.00e+00	0	28	0	723517440	60	8273
2026-01-05 01:14:14.41	248.81	47.97	-42.6	-43.8	21.7	0.00e+00	0	28	0	725614592	60	7523
2026-01-05 01:14:15.42	249.41	48.03	-42.2	-43.3	22.0	0.00e+00	0	28	0	727711744	60	7153
2026-01-05 01:14:16.43	250.00	48.09	-41.6	-42.6	22.8	0.00e+00	0	28	0	729808896	60	6556
2026-01-05 01:14:17.44	250.60	48.14	-41.8	-42.8	22.6	0.00e+00	0	28	0	730857472	60	6723
2026-01-05 01:14:18.46	251.21	48.19	-41.9	-42.9	22.5	0.00e+00	0	28	0	732954624	60	6847
2026-01-05 01:14:19.47	251.81	48.24	-42.6	-43.7	21.7	0.00e+00	0	28	0	735051776	60	7486
2026-01-05 01:14:20.48	252.42	48.28	-42.4	-43.5	22.0	0.00e+00	0	28	0	737148928	60	7306
2026-01-05 01:14:21.49	253.02	48.32	-42.0	-43.0	22.5	0.00e+00	0	28	0	739246080	60	6892
2026-01-05 01:14:22.50	253.63	48.35	-42.0	-43.0	22.5	0.00e+00	0	28	0	740294656	60	6901
2026-01-05 01:14:23.51	254.24	48.39	-42.3	-43.3	22.3	0.00e+00	0	28	0	742391808	60	7170
2026-01-05 01:14:24.52	254.85	48.42	-42.3	-43.5	22.0	0.00e+00	0	28	0	744488960	60	7265
2026-01-05 01:14:25.53	255.46	48.44	-42.5	-43.7	21.9	0.00e+00	0	28	0	746586112	60	7450
2026-01-05 01:14:26.55	256.08	48.47	-41.8	-42.8	22.5	0.00e+00	0	28	0	748683264	60	6718
2026-01-05 01:14:27.56	256.69	48.49	-41.4	-42.4	23.0	0.00e+00	0	28	0	750780416	60	6401
2026-01-05 01:14:28.57	257.30	48.50	-41.5	-42.5	22.9	0.00e+00	0	28	0	751828992	60	6491
2026-01-05 01:14:29.58	257.91	48.51	-41.5	-42.4	23.0	0.00e+00	0	28	0	753926144	60	6463
2026-01-05 01:14:30.59	258.53	48.52	-41.6	-42.7	22.6	0.00e+00	0	28	0	756023296	60	6623
2026-01-05 01:14:31.60	259.14	48.53	-41.6	-42.6	22.9	0.00e+00	0	28	0	758120448	60	6555
2026-01-05 01:14:32.61	259.76	48.53	-41.3	-42.3	23.1	0.00e+00	0	28	0	760217600	60	6323
2026-01-05 01:14:33.62	260.37	48.53	-41.2	-42.2	23.1	0.00e+00	0	28	0	761266176	60	6250
2026-01-05 01:14:34.63	260.99	48.53	-41.3	-42.3	22.4	0.00e+00	0	28	0	763363328	60	6369
2026-01-05 01:14:35.65	261.61	48.52	-41.3	-42.2	23.1	0.00e+00	0	28	0	765460480	60	6315
2026-01-05 01:14:36.66	262.22	48.50	-41.3	-42.2	23.0	0.00e+00	0	28	0	767557632	60	6313
2026-01-05 01:14:37.67	262.83	48.49	-41.4	-42.4	22.9	0.00e+00	0	28	0	769654784	60	6410
2026-01-05 01:14:38.68	263.45	48.47	-41.4	-42.4	22.9	0.00e+00	0	28	0	770703360	60	6420
2026-01-05 01:14:39.69	264.06	48.45	-41.6	-42.6	22.8	0.00e+00	0	28	0	772800512	60	6563
2026-01-05 01:14:40.70	264.67	48.42	-42.0	-43.0	22.4	0.00e+00	0	28	0	774897664	60	6927
2026-01-05 01:14:41.71	265.28	48.39	-42.4	-43.6	22.0	0.00e+00	0	28	0	776994816	60	7341
2026-01-05 01:14:42.72	265.89	48.36	-42.5	-43.6	21.9	0.00e+00	0	28	0	779091968	60	7363
2026-01-05 01:14:43.73	266.49	48.33	-42.1	-43.2	22.3	0.00e+00	0	28	0	780140544	60	7049
2026-01-05 01:14:44.74	267.10	48.29	-41.9	-43.0	22.5	0.00e+00	0	28	0	782237696	60	6866
2026-01-05 01:14:45.76	267.71	48.24	-42.0	-43.1	22.6	0.00e+00	0	28	0	784334848	60	6935
2026-01-05 01:14:46.77	268.31	48.20	-42.1	-43.2	22.3	0.00e+00	0	28	0	786432000	60	7022
2026-01-05 01:14:47.78	268.91	48.15	-42.5	-43.6	21.9	0.00e+00	0	28	0	788529152	60	7402
2026-01-05 01:14:48.79	269.51	48.10	-42.7	-43.9	21.4	0.00e+00	0	28	0	790626304	60	7610
2026-01-05 01:14:49.80	270.11	48.04	-42.4	-43.5	22.1	0.00e+00	0	28	0	791674880	60	7275
2026-01-05 01:14:50.81	270.70	47.98	-42.0	-43.1	22.4	0.00e+00	0	28	0	793772032	60	6975
2026-01-05 01:14:51.82	271.29	47.92	-41.7	-42.7	22.6	0.00e+00	0	28	0	795869184	60	6685
2026-01-05 01:14:52.83	271.88	47.85	-42.5	-43.6	22.1	0.00e+00	0	28	0	797966336	60	7355
2026-01-05 01:14:53.84	272.47	47.79	-42.7	-43.8	21.8	0.00e+00	0	28	0	800063488	60	7536
2026-01-05 01:14:54.85	273.05	47.71	-41.8	-42.8	22.6	0.00e+00	0	28	0	801112064	60	6749
2026-01-05 01:14:55.87	273.64	47.64	-41.7	-42.7	22.7	0.00e+00	0	28	0	803209216	60	6666
2026-01-05 01:14:56.88	274.22	47.56	-42.0	-43.1	22.3	0.00e+00	0	28	0	805306368	60	6963
2026-01-05 01:14:57.89	274.79	47.48	-43.1	-44.3	21.3	0.00e+00	0	28	0	807403520	60	7993
2026-01-05 01:14:58.90	275.37	47.40	-43.7	-45.0	20.5	0.00e+00	0	28	0	809500672	60	8693
2026-01-05 01:14:59.91	275.94	47.31	-43.7	-45.1	20.6	0.00e+00	0	28	0	810549248	60	8726
2026-01-05 01:15:00.92	276.50	47.22	-42.9	-44.1	21.6	0.00e+00	0	28	0	812646400	60	7787
2026-01-05 01:15:01.93	277.07	47.13	-42.5	-43.6	21.9	0.00e+00	0	28	0	814743552	60	7415
2026-01-05 01:15:02.95	277.63	47.04	-43.2	-44.4	21.2	0.00e+00	0	28	0	816840704	60	8057
2026-01-05 01:15:03.96	278.19	46.94	-43.9	-45.3	20.3	0.00e+00	0	28	0	818937856	60	8966
2026-01-05 01:15:04.97	278.74	46.84	-44.4	-45.9	19.8	0.00e+00	0	28	0	819986432	60	9572
2026-01-05 01:15:05.98	279.29	46.74	-44.5	-46.0	20.1	0.00e+00	0	28	0	822083584	60	9689
2026-01-05 01:15:06.99	279.84	46.63	-44.4	-45.8	20.4	0.00e+00	0	28	0	824180736	60	9464
2026-01-05 01:15:08.00	280.38	46.53	-44.2	-45.4	20.6	0.00e+00	0	28	0	826277888	60	9129
2026-01-05 01:15:09.01	280.92	46.42	-44.3	-45.7	20.3	0.00e+00	0	28	0	828375040	60	9379
2026-01-05 01:15:10.02	281.45	46.30	-44.5	-45.8	20.4	0.00e+00	0	28	0	829423616	60	9515
2026-01-05 01:15:11.03	281.98	46.19	-44.8	-46.2	20.2	0.00e+00	0	28	0	831520768	60	9947
2026-01-05 01:15:12.04	282.51	46.07	-43.9	-45.1	21.0	0.00e+00	0	28	0	833617920	60	8817
2026-01-05 01:15:13.05	283.03	45.95	-43.7	-45.0	21.1	0.00e+00	0	28	0	835715072	60	8624
2026-01-05 01:15:14.07	283.56	45.83	-43.4	-44.7	21.2	0.00e+00	0	28	0	837812224	60	8343
2026-01-05 01:15:15.08	284.07	45.71	-44.3	-45.7	20.2	0.00e+00	0	28	0	838860800	60	9389
2026-01-05 01:15:16.09	284.58	45.58	-44.4	-45.8	20.2	0.00e+00	0	28	0	840957952	60	9495
2026-01-05 01:15:17.10	285.09	45.45	-43.4	-44.6	21.6	0.00e+00	0	28	0	843055104	60	8238
2026-01-05 01:15:18.11	285.59	45.33	-42.5	-43.5	22.7	0.00e+00	0	28	0	845152256	60	7316
2026-01-05 01:15:19.12	286.09	45.19	-41.7	-42.7	23.3	0.00e+00	0	28	0	847249408	60	6631
2026-01-05 01:15:20.13	286.59	45.06	-42.1	-43.2	22.7	0.00e+00	0	28	0	848297984	60	7019
2026-01-05 01:15:21.15	287.08	44.92	-42.2	-43.2	22.5	0.00e+00	0	28	0	850395136	60	7064
2026-01-05 01:15:22.16	287.57	44.79	-42.0	-43.0	23.0	0.00e+00	0	28	0	852492288	60	6886
2026-01-05 01:15:23.17	288.05	44.65	-41.3	-42.3	23.4	0.00e+00	0	28	0	854589440	60	6327
2026-01-05 01:15:24.18	288.53	44.51	-41.1	-42.0	23.5	0.00e+00	0	28	0	856686592	60	6153
2026-01-05 01:15:25.19	289.00	44.37	-41.5	-42.5	23.4	0.00e+00	0	28	0	858783744	60	6492
2026-01-05 01:15:26.20	289.47	44.22	-40.9	-41.8	23.5	0.00e+00	0	28	0	859832320	60	6029
2026-01-05 01:15:27.21	289.94	44.08	-41.2	-42.2	23.2	0.00e+00	0	28	0	861929472	60	6252
2026-01-05 01:15:28.22	290.40	43.93	-40.8	-41.7	23.7	0.00e+00	0	28	0	864026624	60	5943
2026-01-05 01:15:29.23	290.86	43.78	-40.2	-41.0	24.3	0.00e+00	0	28	0	866123776	58	6147
2026-01-05 01:15:30.24	291.31	43.63	-40.4	-41.3	24.2	0.00e+00	0	28	0	868220928	58	6378
2026-01-05 01:15:31.25	291.76	43.48	-40.5	-41.3	24.1	0.00e+00	0	28	0	869269504	58	6390
2026-01-05 01:15:32.27	292.21	43.33	-39.9	-40.8	24.6	0.00e+00	0	28	0	871366656	58	5966
2026-01-05 01:15:33.28	292.65	43.18	-39.5	-40.3	24.9	0.00e+00	0	28	0	873463808	58	5687
2026-01-05 01:15:34.29	293.08	43.02	-39.6	-40.4	24.8	0.00e+00	0	28	0	875560960	58	5747
2026-01-05 01:15:35.30	293.51	42.87	-39.9	-40.8	24.7	0.00e+00	0	28	0	877658112	58	5974
2026-01-05 01:15:36.31	293.94	42.71	-40.3	-41.2	24.2	0.00e+00	0	28	0	878706688	58	6246
2026-01-05 01:15:37.32	294.37	42.55	-39.5	-40.3	24.9	0.00e+00	0	28	0	880803840	58	5647
2026-01-05 01:15:38.33	294.79	42.39	-39.1	-39.9	25.1	0.00e+00	0	28	0	882900992	58	5390
2026-01-05 01:15:39.35	295.21	42.23	-39.2	-40.0	25.1	0.00e+00	0	28	0	884998144	56	6106
2026-01-05 01:15:40.36	295.62	42.07	-40.0	-40.8	24.5	0.00e+00	0	28	0	887095296	56	6738
2026-01-05 01:15:41.37	296.02	41.91	-40.4	-41.3	24.1	0.00e+00	0	28	0	888143872	58	6368
2026-01-05 01:15:42.38	296.43	41.75	-40.6	-41.5	23.7	0.00e+00	0	28	0	890241024	58	6539
2026-01-05 01:15:43.39	296.83	41.58	-40.9	-41.8	23.6	0.00e+00	0	28	0	892338176	58	6766
2026-01-05 01:15:44.40	297.22	41.42	-39.9	-40.7	24.3	0.00e+00	0	28	0	894435328	58	5914
2026-01-05 01:15:45.41	297.61	41.26	-39.7	-40.5	24.6	0.00e+00	0	28	0	896532480	58	5828
2026-01-05 01:15:46.42	298.00	41.09	-40.1	-41.0	24.1	0.00e+00	0	28	0	898629632	58	6144
2026-01-05 01:15:47.43	298.38	40.92	-41.0	-42.0	23.3	0.00e+00	0	28	0	899678208	58	6870
2026-01-05 01:15:48.44	298.76	40.76	-41.7	-42.8	22.8	0.00e+00	0	28	0	901775360	60	6696
2026-01-05 01:15:49.46	299.14	40.59	-40.9	-41.8	23.7	0.00e+00	0	28	0	903872512	60	6011
2026-01-05 01:15:50.47	299.51	40.42	-40.0	-40.9	24.3	0.00e+00	0	28	0	905969664	60	5397
2026-01-05 01:15:51.48	299.88	40.25	-39.7	-40.6	24.7	0.00e+00	0	28	0	908066816	58	5831
2026-01-05 01:15:52.49	300.25	40.08	-40.3	-41.1	24.1	0.00e+00	0	28	0	909115392	58	6237
2026-01-05 01:15:53.50	300.61	39.91	-41.0	-42.0	23.5	0.00e+00	0	28	0	911212544	60	6126
2026-01-05 01:15:54.51	300.97	39.74	-41.9	-43.0	22.9	0.00e+00	0	28	0	913309696	60	6852
2026-01-05 01:15:55.52	301.32	39.57	-41.7	-42.7	22.9	0.00e+00	0	28	0	915406848	60	6673
2026-01-05 01:15:56.53	301.67	39.40	-41.6	-42.6	23.6	0.00e+00	0	28	0	917504000	60	6551
2026-01-05 01:15:57.54	302.01	39.23	-41.2	-42.1	24.2	0.00e+00	0	28	0	918552576	60	6218
2026-01-05 01:15:58.55	302.36	39.06	-40.6	-41.5	24.3	0.00e+00	0	28	0	920649728	60	5762
2026-01-05 01:15:59.57	302.70	38.89	-41.4	-42.3	23.5	0.00e+00	0	28	0	922746880	60	6387
2026-01-05 01:16:00.58	303.03	38.72	-42.3	-43.3	22.5	0.00e+00	0	28	0	924844032	60	7158
2026-01-05 01:16:01.59	303.37	38.55	-42.2	-43.2	22.6	0.00e+00	0	28	0	926941184	60	7073
2026-01-05 01:16:02.60	303.69	38.38	-41.5	-42.4	23.5	0.00e+00	0	28	0	927989760	60	6462
2026-01-05 01:16:03.61	304.02	38.20	-41.0	-41.8	24.4	0.00e+00	0	28	0	930086912	60	5997
2026-01-05 01:16:04.62	304.34	38.03	-40.5	-41.3	24.0	0.00e+00	0	28	0	932184064	60	5689
2026-01-05 01:16:05.63	304.66	37.86	-40.9	-41.8	23.7	0.00e+00	0	28	0	934281216	60	6011
2026-01-05 01:16:06.64	304.97	37.69	-42.8	-44.0	21.9	0.00e+00	0	28	0	936378368	60	7719
2026-01-05 01:16:07.66	305.29	37.51	-43.7	-45.1	20.9	0.00e+00	0	28	0	938475520	60	8744
2026-01-05 01:16:08.67	305.60	37.34	-43.4	-44.6	21.7	0.00e+00	0	28	0	939524096	60	8326
2026-01-05 01:16:09.68	305.90	37.17	-42.7	-43.8	22.5	0.00e+00	0	28	0	941621248	60	7529
2026-01-05 01:16:10.69	306.21	37.00	-41.1	-42.0	23.8	0.00e+00	0	28	0	943718400	60	6144
2026-01-05 01:16:11.70	306.50	36.82	-41.2	-42.1	23.8	0.00e+00	0	28	0	945815552	60	6197
2026-01-05 01:16:12.71	306.80	36.65	-43.0	-44.0	22.2	0.00e+00	0	28	0	947912704	60	7712
2026-01-05 01:16:13.72	307.09	36.48	-44.0	-45.2	21.8	0.00e+00	0	28	0	948961280	60	8864
2026-01-05 01:16:14.73	307.38	36.31	-44.9	-46.4	20.4	0.00e+00	0	28	0	951058432	60	10147
2026-01-05 01:16:15.74	307.67	36.14	-45.3	-46.8	19.6	0.00e+00	0	28	0	953155584	60	10648
2026-01-05 01:16:16.75	307.95	35.96	-43.4	-44.6	21.4	0.00e+00	0	28	0	955252736	60	8324
2026-01-05 01:16:17.77	308.24	35.79	-42.4	-43.4	23.0	0.00e+00	0	28	0	957349888	60	7176
2026-01-05 01:16:18.78	308.52	35.62	-42.3	-43.2	23.1	0.00e+00	0	28	0	958398464	60	7071
2026-01-05 01:16:19.79	308.79	35.45	-41.4	-42.2	24.0	0.00e+00	0	28	0	960495616	60	6306
2026-01-05 01:16:20.80	309.06	35.28	-42.4	-43.4	22.7	0.00e+00	0	28	0	962592768	60	7208
2026-01-05 01:16:21.81	309.33	35.11	-43.2	-44.4	21.8	0.00e+00	0	28	0	964689920	60	8067
2026-01-05 01:16:22.82	309.60	34.94	-44.6	-46.0	19.7	0.00e+00	0	28	0	966787072	60	9715
2026-01-05 01:16:23.83	309.86	34.77	-44.5	-45.8	20.5	0.00e+00	0	28	0	967835648	60	9513
2026-01-05 01:16:24.84	310.13	34.60	-43.0	-44.1	21.8	0.00e+00	0	28	0	969932800	60	7848
2026-01-05 01:16:25.85	310.38	34.43	-42.6	-43.6	23.1	0.00e+00	0	28	0	972029952	60	7395
2026-01-05 01:16:26.87	310.64	34.26	-41.5	-42.5	23.1	0.00e+00	0	28	0	974127104	60	6467
2026-01-05 01:16:27.88	310.90	34.09	-41.9	-42.9	23.2	0.00e+00	0	28	0	976224256	60	6803
2026-01-05 01:16:28.89	311.15	33.92	-42.8	-43.8	22.5	0.00e+00	0	28	0	978321408	60	7563
2026-01-05 01:16:29.90	311.40	33.75	-43.9	-45.1	21.4	0.00e+00	0	28	0	979369984	60	8800
2026-01-05 01:16:30.91	311.64	33.58	-44.8	-46.3	19.9	0.00e+00	0	28	0	981467136	60	10016
2026-01-05 01:16:31.92	311.88	33.41	-45.4	-47.0	19.2	0.00e+00	0	28	0	983564288	60	10926
2026-01-05 01:16:32.93	312.13	33.25	-44.9	-46.4	19.5	0.00e+00	0	28	0	985661440	60	10220
2026-01-05 01:16:33.94	312.36	33.08	-43.7	-45.0	20.8	0.00e+00	0	28	0	987758592	60	8698
2026-01-05 01:16:34.95	312.60	32.91	-42.5	-43.6	22.4	0.00e+00	0	28	0	988807168	60	7392
2026-01-05 01:16:35.97	312.84	32.75	-41.6	-42.5	22.7	0.00e+00	0	28	0	990904320	60	6517
2026-01-05 01:16:36.98	313.07	32.58	-42.2	-43.0	23.3	0.00e+00	0	28	0	993001472	60	6922
2026-01-05 01:16:37.99	313.30	32.42	-42.5	-43.5	22.8	0.00e+00	0	28	0	995098624	60	7320
2026-01-05 01:16:39.00	313.52	32.25	-42.8	-43.8	22.1	0.00e+00	0	28	0	997195776	60	7591
2026-01-05 01:16:40.01	313.75	32.09	-44.2	-45.6	20.6	0.00e+00	0	28	0	998244352	60	9251
2026-01-05 01:16:41.02	313.97	31.92	-45.1	-46.8	18.9	0.00e+00	0	28	0	1000341504	60	10687
2026-01-05 01:16:42.03	314.19	31.76	-45.6	-47.5	18.3	0.00e+00	0	28	0	1002438656	60	11546
2026-01-05 01:16:43.04	314.41	31.60	-45.0	-46.7	19.3	0.00e+00	0	28	0	1004535808	60	10550
2026-01-05 01:16:44.05	314.63	31.43	-43.8	-45.1	21.0	0.00e+00	0	28	0	1006632960	60	8768
2026-01-05 01:16:45.06	314.84	31.27	-42.1	-43.2	22.6	0.00e+00	0	28	0	1007681536	60	7025
2026-01-05 01:16:46.08	315.05	31.11	-41.6	-42.6	23.2	0.00e+00	0	28	0	1009778688	60	6563
2026-01-05 01:16:47.08	315.26	30.95	-41.4	-42.4	23.3	0.00e+00	0	28	0	1011875840	60	6404
2026-01-05 01:16:48.10	315.47	30.79	-41.0	-41.9	23.7	0.00e+00	0	28	0	1013972992	60	6099
2026-01-05 01:16:49.11	315.68	30.63	-40.9	-41.8	23.5	0.00e+00	0	28	0	1016070144	60	6025
2026-01-05 01:16:50.12	315.88	30.47	-41.9	-42.9	22.8	0.00e+00	0	28	0	1017118720	60	6815
2026-01-05 01:16:51.13	316.08	30.31	-43.0	-44.1	22.0	0.00e+00	0	28	0	1019215872	60	7837
2026-01-05 01:16:52.14	316.28	30.15	-43.1	-44.3	21.6	0.00e+00	0	28	0	1021313024	60	7994
2026-01-05 01:16:53.15	316.48	29.99	-43.6	-44.9	21.3	0.00e+00	0	28	0	1023410176	60	8544
2026-01-05 01:16:54.16	316.67	29.83	-43.1	-44.3	21.6	0.00e+00	0	28	0	1025507328	60	7973
2026-01-05 01:16:55.17	316.87	29.68	-43.0	-44.2	22.0	0.00e+00	0	28	0	1026555904	60	7871
2026-01-05 01:16:56.18	317.06	29.52	-42.8	-43.9	22.3	0.00e+00	0	28	0	1028653056	60	7656
2026-01-05 01:16:57.20	317.25	29.36	-41.9	-42.9	23.0	0.00e+00	0	28	0	1030750208	60	6821
2026-01-05 01:16:58.21	317.44	29.21	-41.7	-42.7	23.0	0.00e+00	0	28	0	1032847360	60	6674
2026-01-05 01:16:59.22	317.63	29.05	-41.7	-42.6	23.1	0.00e+00	0	28	0	1034944512	60	6615
2026-01-05 01:17:00.23	317.81	28.90	-42.5	-43.5	22.6	0.00e+00	0	28	0	1035993088	60	7301
2026-01-05 01:17:01.24	318.00	28.74	-42.4	-43.5	22.4	0.00e+00	0	28	0	1038090240	60	7266
2026-01-05 01:17:02.25	318.18	28.59	-42.9	-44.0	21.8	0.00e+00	0	28	0	1040187392	60	7764
2026-01-05 01:17:03.26	318.36	28.44	-42.5	-43.6	22.2	0.00e+00	0	28	0	1042284544	60	7392
2026-01-05 01:17:04.27	318.54	28.29	-42.3	-43.4	22.2	0.00e+00	0	28	0	1044381696	60	7187
2026-01-05 01:17:05.28	318.71	28.14	-42.3	-43.3	22.8	0.00e+00	0	28	0	1046478848	60	7099
2026-01-05 01:17:06.29	318.89	27.98	-41.3	-42.3	23.3	0.00e+00	0	28	0	1047527424	60	6348
2026-01-05 01:17:07.30	319.06	27.83	-40.8	-41.7	23.8	0.00e+00	0	28	0	1049624576	60	5909
2026-01-05 01:17:08.31	319.24	27.68	-40.4	-41.2	24.3	0.00e+00	0	28	0	1051721728	60	5586
2026-01-05 01:17:09.32	319.41	27.53	-39.9	-40.7	24.4	0.00e+00	0	28	0	1053818880	58	5923
2026-01-05 01:17:10.33	319.57	27.39	-39.9	-40.8	24.7	0.00e+00	0	28	0	1055916032	58	5980
2026-01-05 01:17:11.35	319.74	27.24	-40.2	-41.0	24.5	0.00e+00	0	28	0	1056964608	58	6130
2026-01-05 01:17:12.36	319.91	27.09	-40.2	-41.1	24.4	0.00e+00	0	28	0	1059061760	58	6196
2026-01-05 01:17:13.37	320.07	26.94	-40.6	-41.5	24.0	0.00e+00	0	28	0	1061158912	58	6513
2026-01-05 01:17:14.38	320.24	26.79	-41.1	-42.0	23.6	0.00e+00	0	28	0	1063256064	60	6146
2026-01-05 01:17:15.39	320.40	26.65	-41.4	-42.4	23.3	0.00e+00	0	28	0	1065353216	60	6424
2026-01-05 01:17:16.40	320.56	26.50	-41.4	-42.3	23.1	0.00e+00	0	28	0	1066401792	60	6377
2026-01-05 01:17:17.41	320.72	26.36	-41.3	-42.2	23.3	0.00e+00	0	28	0	1068498944	60	6291
2026-01-05 01:17:18.42	320.87	26.21	-41.1	-42.0	23.3	0.00e+00	0	28	0	1070596096	60	6148
2026-01-05 01:17:19.43	321.03	26.07	-41.2	-42.2	23.4	0.00e+00	0	28	0	1072693248	60	6264
2026-01-05 01:17:20.44	321.18	25.93	-40.9	-41.8	23.6	0.00e+00	0	28	0	1074790400	60	5981
2026-01-05 01:17:21.46	321.34	25.78	-40.7	-41.6	23.6	0.00e+00	0	28	0	1075838976	60	5876
2026-01-05 01:17:22.47	321.49	25.64	-40.7	-41.6	23.6	0.00e+00	0	28	0	1077936128	60	5884
2026-01-05 01:17:23.48	321.64	25.50	-40.5	-41.4	23.7	0.00e+00	0	28	0	1080033280	60	5755
2026-01-05 01:17:24.49	321.79	25.36	-40.5	-41.4	23.9	0.00e+00	0	28	0	1082130432	60	5751
2026-01-05 01:17:25.50	321.94	25.22	-40.6	-41.5	23.9	0.00e+00	0	28	0	1084227584	60	5818
2026-01-05 01:17:26.51	322.08	25.08	-40.6	-41.5	23.8	0.00e+00	0	28	0	1086324736	60	5765
2026-01-05 01:17:27.52	322.23	24.94	-40.5	-41.4	23.9	0.00e+00	0	28	0	1087373312	60	5722
2026-01-05 01:17:28.53	322.37	24.80	-40.5	-41.4	23.8	0.00e+00	0	28	0	1089470464	60	5704
2026-01-05 01:17:29.55	322.52	24.66	-40.7	-41.6	23.7	0.00e+00	0	28	0	1091567616	60	5848
2026-01-05 01:17:30.55	322.66	24.52	-40.8	-41.8	23.6	0.00e+00	0	28	0	1093664768	60	5969
2026-01-05 01:17:31.57	322.80	24.38	-40.9	-41.9	23.4	0.00e+00	0	28	0	1095761920	60	6066
2026-01-05 01:17:32.58	322.94	24.25	-41.2	-42.2	23.2	0.00e+00	0	28	0	1096810496	60	6251
2026-01-05 01:17:33.59	323.08	24.11	-41.5	-42.6	22.7	0.00e+00	0	28	0	1098907648	60	6543
2026-01-05 01:17:34.60	323.21	23.98	-42.0	-43.0	22.5	0.00e+00	0	28	0	1101004800	60	6918
2026-01-05 01:17:35.61	323.35	23.84	-42.1	-43.2	22.3	0.00e+00	0	28	0	1103101952	60	7031
2026-01-05 01:17:36.62	323.49	23.71	-42.3	-43.4	22.1	0.00e+00	0	28	0	1105199104	60	7232
2026-01-05 01:17:37.63	323.62	23.57	-42.2	-43.3	22.4	0.00e+00	0	28	0	1106247680	60	7101
2026-01-05 01:17:38.64	323.75	23.44	-41.9	-42.9	22.5	0.00e+00	0	28	0	1108344832	60	6818
2026-01-05 01:17:39.66	323.88	23.31	-41.4	-42.4	23.0	0.00e+00	0	28	0	1110441984	60	6405
2026-01-05 01:17:40.67	324.01	23.17	-41.3	-42.3	23.1	0.00e+00	0	28	0	1112539136	60	6339
2026-01-05 01:17:41.68	324.14	23.04	-41.0	-41.9	23.4	0.00e+00	0	28	0	1114636288	60	6096
2026-01-05 01:17:42.69	324.27	22.91	-41.2	-42.2	23.4	0.00e+00	0	28	0	1115684864	60	6254
2026-01-05 01:17:43.70	324.40	22.78	-41.2	-42.1	23.4	0.00e+00	0	28	0	1117782016	60	6219
2026-01-05 01:17:44.71	324.53	22.65	-41.2	-42.2	23.3	0.00e+00	0	28	0	1119879168	60	6257
2026-01-05 01:17:45.72	324.65	22.52	-41.1	-42.1	23.3	0.00e+00	0	28	0	1121976320	60	6187
2026-01-05 01:17:46.73	324.78	22.39	-41.3	-42.3	23.2	0.00e+00	0	28	0	1124073472	60	6336
2026-01-05 01:17:47.74	324.90	22.26	-41.4	-42.4	23.0	0.00e+00	0	28	0	1126170624	60	6400
2026-01-05 01:17:48.76	325.02	22.13	-41.5	-42.5	23.0	0.00e+00	0	28	0	1127219200	60	6487
2026-01-05 01:17:49.77	325.14	22.01	-41.5	-42.4	23.0	0.00e+00	0	28	0	1129316352	60	6452
2026-01-05 01:17:50.78	325.26	21.88	-41.5	-42.5	23.0	0.00e+00	0	28	0	1131413504	60	6479
2026-01-05 01:17:51.79	325.38	21.75	-41.5	-42.5	23.1	0.00e+00	0	28	0	1133510656	60	6481
2026-01-05 01:17:52.80	325.50	21.63	-41.7	-42.7	23.0	0.00e+00	0	28	0	1135607808	60	6660
2026-01-05 01:17:53.81	325.62	21.50	-41.2	-42.2	23.4	0.00e+00	0	28	0	1136656384	60	6272
2026-01-05 01:17:54.82	325.74	21.38	-41.4	-42.4	23.3	0.00e+00	0	28	0	1138753536	60	6428
2026-01-05 01:17:55.83	325.85	21.25	-41.3	-42.2	23.2	0.00e+00	0	28	0	1140850688	60	6286
2026-01-05 01:17:56.84	325.97	21.13	-41.3	-42.2	23.4	0.00e+00	0	28	0	1142947840	60	6311
2026-01-05 01:17:57.85	326.08	21.00	-40.8	-41.7	23.4	0.00e+00	0	28	0	1145044992	60	5934
2026-01-05 01:17:58.87	326.19	20.88	-41.0	-42.0	23.4	0.00e+00	0	28	0	1146093568	60	6114
2026-01-05 01:17:59.88	326.31	20.76	-40.9	-41.9	23.2	0.00e+00	0	28	0	1148190720	60	6038
2026-01-05 01:18:00.89	326.42	20.64	-41.2	-42.1	23.3	0.00e+00	0	28	0	1150287872	60	6236
2026-01-05 01:18:01.90	326.53	20.51	-41.2	-42.1	23.2	0.00e+00	0	28	0	1152385024	60	6229
2026-01-05 01:18:02.91	326.64	20.39	-41.2	-42.2	22.8	0.00e+00	0	28	0	1154482176	60	6296
2026-01-05 01:18:03.92	326.75	20.27	-41.7	-42.7	23.1	0.00e+00	0	28	0	1155530752	60	6620
2026-01-05 01:18:04.93	326.85	20.15	-41.5	-42.5	23.2	0.00e+00	0	28	0	1157627904	60	6492
2026-01-05 01:18:05.94	326.96	20.03	-41.3	-42.3	23.1	0.00e+00	0	28	0	1159725056	60	6319
2026-01-05 01:18:06.96	327.07	19.91	-41.2	-42.1	23.1	0.00e+00	0	28	0	1161822208	60	6232
2026-01-05 01:18:07.97	327.17	19.79	-41.2	-42.2	23.1	0.00e+00	0	28	0	1163919360	60	6287
2026-01-05 01:18:08.98	327.28	19.68	-41.6	-42.6	22.8	0.00e+00	0	28	0	1164967936	60	6588
2026-01-05 01:18:09.99	327.38	19.56	-41.6	-42.6	22.9	0.00e+00	0	28	0	1167065088	60	6580
2026-01-05 01:18:11.00	327.49	19.44	-41.3	-42.3	23.0	0.00e+00	0	28	0	1169162240	60	6361
2026-01-05 01:18:12.01	327.59	19.32	-42.0	-43.0	22.8	0.00e+00	0	28	0	1171259392	60	6922
2026-01-05 01:18:13.02	327.69	19.21	-41.9	-43.0	22.6	0.00e+00	0	28	0	1173356544	60	6865
2026-01-05 01:18:14.03	327.79	19.09	-41.7	-42.7	22.6	0.00e+00	0	28	0	1174405120	60	6665
2026-01-05 01:18:15.04	327.89	18.98	-41.7	-42.7	22.5	0.00e+00	0	28	0	1176502272	60	6645
2026-01-05 01:18:16.05	327.99	18.86	-41.7	-42.8	22.5	0.00e+00	0	28	0	1178599424	60	6694
2026-01-05 01:18:17.07	328.09	18.75	-41.8	-42.8	22.5	0.00e+00	0	28	0	1180696576	60	6769
2026-01-05 01:18:18.08	328.19	18.63	-41.7	-42.8	22.5	0.00e+00	0	28	0	1182793728	60	6723
2026-01-05 01:18:19.09	328.29	18.52	-41.7	-42.7	22.7	0.00e+00	0	28	0	1184890880	60	6648
2026-01-05 01:18:20.10	328.39	18.41	-41.6	-42.7	22.6	0.00e+00	0	28	0	1185939456	60	6616
2026-01-05 01:18:21.11	328.48	18.29	-42.0	-43.1	22.5	0.00e+00	0	28	0	1188036608	60	6957
2026-01-05 01:18:22.12	328.58	18.18	-42.0	-43.0	22.3	0.00e+00	0	28	0	1190133760	60	6898
2026-01-05 01:18:23.13	328.67	18.07	-41.6	-42.6	22.7	7.00e-07	0	28	0	1192230912	60	6607
2026-01-05 01:18:24.14	328.77	17.96	-41.9	-42.9	22.4	0.00e+00	0	28	0	1194328064	60	6845
2026-01-05 01:18:25.15	328.86	17.85	-42.0	-43.1	22.7	0.00e+00	0	28	0	1195376640	60	6934
2026-01-05 01:18:26.17	328.95	17.74	-42.1	-43.2	22.4	0.00e+00	0	28	0	1197473792	60	7039
2026-01-05 01:18:27.18	329.05	17.63	-41.7	-42.7	22.7	0.00e+00	0	28	0	1199570944	60	6631
2026-01-05 01:18:28.19	329.14	17.52	-42.0	-43.0	22.8	0.00e+00	0	28	0	1201668096	60	6917
2026-01-05 01:18:29.20	329.23	17.41	-41.5	-42.5	22.8	0.00e+00	0	28	0	1203765248	60	6522
2026-01-05 01:18:30.21	329.32	17.30	-41.9	-42.9	22.6	0.00e+00	0	28	0	1204813824	60	6839
2026-01-05 01:18:31.22	329.41	17.19	-41.8	-42.8	22.7	0.00e+00	0	28	0	1206910976	60	6741
