passes_logs/2026/01/05/R4.6S_Anadyr_2ch/R4.6S_Anadyr_2ch__20260105_153820_AQUA_rec.log

#Pass ID: 20260105_153820_AQUA
#Satellite: AQUA
#Configuration: AQUA
#almurnet v.1.7.20251203
#Start time: 2026-01-05 15:38:22

#Version: 2.2.20231116
#Station: R4.6S_Anadyr_2ch
#Location: 177.4865 lon 64.73178 lat
#TLE: 1 27424U 02022A   25351.00450321  .00000925  00000+0  19503-3 0  9992
#TLE: 2 27424  98.4041 311.9529 0001248 113.7180 322.1616 14.61819266256652

#Time	Az	El	Level	Level2	SNR	BER	BlckErr	Temp	State	Recorded	gain1	gain2
2026-01-05 15:38:22.88	19.58	0.13	-51.1	-66.1	3.6	1.51e+00	0	26	0	0	60	98844
2026-01-05 15:38:23.89	19.61	0.19	-51.4	-69.3	3.5	3.02e+01	0	28	104	0	60	152126
2026-01-05 15:38:24.90	19.64	0.25	-51.5	-69.4	3.5	3.02e+01	0	28	104	0	60	153583
2026-01-05 15:38:25.92	19.67	0.32	-51.5	-69.4	3.5	3.02e+01	0	28	104	0	60	152777
2026-01-05 15:38:26.93	19.70	0.38	-51.4	-69.2	3.5	3.02e+01	0	28	104	0	60	150542
2026-01-05 15:38:27.94	19.73	0.44	-51.4	-69.3	3.5	3.02e+01	0	28	104	0	60	151409
2026-01-05 15:38:28.95	19.76	0.50	-51.4	-69.3	3.5	3.02e+01	0	28	104	0	60	151433
2026-01-05 15:38:29.96	19.79	0.56	-51.4	-69.3	3.5	3.02e+01	0	28	104	0	60	151918
2026-01-05 15:38:30.97	19.83	0.62	-51.4	-69.3	3.5	3.02e+01	0	28	104	0	60	151776
2026-01-05 15:38:31.98	19.86	0.69	-51.4	-69.3	3.5	3.02e+01	0	28	104	0	60	150954
2026-01-05 15:38:32.99	19.89	0.75	-51.5	-69.4	3.5	3.02e+01	0	28	104	0	60	153421
2026-01-05 15:38:34.00	19.92	0.81	-51.6	-69.4	3.5	3.02e+01	0	28	104	0	60	153285
2026-01-05 15:38:35.02	19.95	0.87	-51.6	-69.4	3.5	3.02e+01	0	28	104	0	60	153913
2026-01-05 15:38:36.03	19.99	0.94	-51.4	-69.3	3.5	3.02e+01	0	28	104	0	60	151055
2026-01-05 15:38:37.04	20.02	1.00	-51.4	-69.3	3.5	3.02e+01	0	28	104	0	60	151081
2026-01-05 15:38:38.05	20.05	1.06	-51.3	-69.2	3.5	3.02e+01	0	28	104	0	60	149658
2026-01-05 15:38:39.06	20.08	1.12	-51.4	-69.2	3.5	3.02e+01	0	28	104	0	60	150038
2026-01-05 15:38:40.07	20.11	1.19	-51.4	-69.2	3.5	3.02e+01	0	28	104	0	60	150464
2026-01-05 15:38:41.08	20.15	1.25	-51.7	-69.6	3.5	3.02e+01	0	28	104	0	60	157026
2026-01-05 15:38:42.09	20.18	1.31	-51.6	-69.4	3.5	3.02e+01	0	28	104	0	60	153958
2026-01-05 15:38:43.11	20.21	1.38	-51.5	-69.4	3.5	3.02e+01	0	28	104	0	60	153149
2026-01-05 15:38:44.12	20.25	1.44	-51.5	-69.4	3.5	3.02e+01	0	28	104	0	60	154090
2026-01-05 15:38:45.13	20.28	1.51	-51.6	-69.5	3.5	3.02e+01	0	28	104	0	60	155120
2026-01-05 15:38:46.14	20.31	1.57	-51.5	-69.3	3.5	3.02e+01	0	28	104	0	60	152149
2026-01-05 15:38:47.15	20.35	1.63	-51.6	-69.5	3.5	3.02e+01	0	28	104	0	60	154138
2026-01-05 15:38:48.16	20.38	1.70	-51.4	-69.3	3.5	3.02e+01	0	28	104	0	60	151491
2026-01-05 15:38:49.17	20.41	1.76	-51.5	-69.3	3.5	3.02e+01	0	28	104	0	60	151857
2026-01-05 15:38:50.18	20.45	1.83	-51.8	-69.7	3.5	3.02e+01	0	28	104	0	60	158637
2026-01-05 15:38:51.19	20.48	1.89	-51.4	-69.3	3.5	3.02e+01	0	28	104	0	60	152025
2026-01-05 15:38:52.21	20.52	1.96	-51.5	-69.3	3.5	3.02e+01	0	28	104	0	60	152268
2026-01-05 15:38:53.22	20.55	2.02	-51.4	-69.3	3.5	3.02e+01	0	28	104	0	60	151090
2026-01-05 15:38:54.23	20.58	2.09	-51.5	-69.4	3.5	3.02e+01	0	28	104	0	60	152554
2026-01-05 15:38:55.24	20.62	2.15	-51.4	-69.3	3.5	3.02e+01	0	28	104	0	60	151653
2026-01-05 15:38:56.25	20.65	2.22	-51.4	-69.3	3.5	3.02e+01	0	28	104	0	60	152045
2026-01-05 15:38:57.26	20.69	2.28	-51.6	-69.4	3.5	3.02e+01	0	28	104	0	60	153455
2026-01-05 15:38:58.27	20.72	2.35	-51.5	-69.3	3.5	3.02e+01	0	28	104	0	60	152149
2026-01-05 15:38:59.28	20.76	2.41	-51.3	-69.2	3.5	3.02e+01	0	28	104	0	60	149713
2026-01-05 15:39:00.29	20.79	2.48	-51.4	-69.3	3.5	3.02e+01	0	28	104	0	60	151301
2026-01-05 15:39:01.30	20.83	2.55	-51.5	-69.4	3.5	3.02e+01	0	29	104	0	60	152493
2026-01-05 15:39:02.31	20.87	2.61	-51.6	-69.4	3.5	3.02e+01	0	29	104	0	60	153452
2026-01-05 15:39:03.32	20.90	2.68	-51.6	-69.5	3.5	3.02e+01	0	28	104	0	60	154651
2026-01-05 15:39:04.34	20.94	2.75	-51.4	-69.3	3.5	3.02e+01	0	29	104	0	60	151656
2026-01-05 15:39:05.35	20.97	2.81	-51.5	-69.4	3.5	3.02e+01	0	29	104	0	60	153142
2026-01-05 15:39:06.36	21.01	2.88	-51.7	-69.6	3.5	3.02e+01	0	28	104	0	60	157062
2026-01-05 15:39:07.37	21.05	2.95	-51.6	-69.4	3.5	3.02e+01	0	29	104	0	60	154068
2026-01-05 15:39:08.38	21.08	3.02	-51.6	-69.4	3.5	3.02e+01	0	29	104	0	60	153027
2026-01-05 15:39:09.39	21.12	3.08	-51.6	-69.5	3.5	3.02e+01	0	28	104	0	60	154128
2026-01-05 15:39:10.40	21.16	3.15	-51.5	-69.4	3.5	3.02e+01	0	29	104	0	60	152572
2026-01-05 15:39:11.42	21.19	3.22	-51.5	-69.4	3.5	3.02e+01	0	29	104	0	60	152583
2026-01-05 15:39:12.43	21.23	3.29	-51.6	-69.5	3.5	3.02e+01	0	29	104	0	60	154928
2026-01-05 15:39:13.44	21.27	3.36	-51.7	-69.5	3.5	3.02e+01	0	29	104	0	60	155860
2026-01-05 15:39:14.45	21.31	3.43	-51.6	-69.5	3.5	3.02e+01	0	28	104	0	60	154452
2026-01-05 15:39:15.46	21.34	3.49	-51.4	-69.3	3.5	3.02e+01	0	28	104	0	60	151378
2026-01-05 15:39:16.47	21.38	3.56	-51.5	-69.3	3.5	3.02e+01	0	29	104	0	60	151895
2026-01-05 15:39:17.48	21.42	3.63	-51.4	-69.3	3.5	3.02e+01	0	29	104	0	60	151202
2026-01-05 15:39:18.49	21.46	3.70	-51.5	-69.3	3.5	3.02e+01	0	29	104	0	60	151700
2026-01-05 15:39:19.50	21.50	3.77	-51.2	-69.2	3.5	3.02e+01	0	29	104	0	60	150399
2026-01-05 15:39:20.52	21.54	3.84	-51.3	-69.2	3.5	3.02e+01	0	29	104	0	60	149857
2026-01-05 15:39:21.53	21.57	3.91	-51.2	-69.2	3.5	3.02e+01	0	29	104	0	60	149208
2026-01-05 15:39:22.54	21.61	3.98	-51.3	-69.1	3.5	3.02e+01	0	29	104	0	60	148076
2026-01-05 15:39:23.55	21.65	4.05	-51.1	-69.0	3.5	3.02e+01	0	29	104	0	60	146732
2026-01-05 15:39:24.56	21.69	4.12	-50.9	-68.9	3.5	3.02e+01	0	29	104	0	60	144110
2026-01-05 15:39:25.57	21.73	4.19	-50.9	-68.7	3.5	3.02e+01	0	29	104	0	60	141209
2026-01-05 15:39:26.58	21.77	4.26	-50.7	-68.6	3.5	3.02e+01	0	29	104	0	60	139397
2026-01-05 15:39:27.59	21.81	4.34	-50.4	-68.3	3.5	3.02e+01	0	29	104	0	60	134782
2026-01-05 15:39:28.61	21.85	4.41	-50.1	-68.0	3.5	3.02e+01	0	29	104	0	60	129890
2026-01-05 15:39:29.62	21.89	4.48	-50.1	-67.9	3.5	3.02e+01	0	29	104	0	60	128697
2026-01-05 15:39:30.63	21.93	4.55	-50.1	-67.9	3.5	3.02e+01	0	29	104	0	60	129414
2026-01-05 15:39:31.64	21.97	4.62	-50.1	-68.0	3.5	3.02e+01	0	29	104	0	60	129768
2026-01-05 15:39:32.65	22.01	4.69	-50.0	-67.8	3.5	3.02e+01	0	29	104	0	60	128147
2026-01-05 15:39:33.66	22.05	4.77	-50.0	-67.9	3.5	3.02e+01	0	29	104	0	60	128800
2026-01-05 15:39:34.67	22.10	4.84	-50.0	-67.9	3.5	3.02e+01	0	29	104	0	60	128469
2026-01-05 15:39:35.68	22.14	4.91	-50.0	-67.9	3.5	3.02e+01	0	29	104	0	60	128316
2026-01-05 15:39:36.70	22.18	4.99	-50.0	-67.8	3.5	3.02e+01	0	29	104	0	60	127567
2026-01-05 15:39:37.71	22.22	5.06	-50.0	-67.7	3.5	3.02e+01	0	29	104	0	60	125598
2026-01-05 15:39:38.72	22.26	5.13	-50.0	-67.7	3.5	3.02e+01	0	29	104	0	60	125903
2026-01-05 15:39:39.73	22.31	5.21	-50.0	-67.7	3.5	3.02e+01	0	29	104	0	60	125783
2026-01-05 15:39:40.74	22.35	5.28	-50.0	-67.7	3.5	3.02e+01	0	29	104	0	60	125908
2026-01-05 15:39:41.75	22.39	5.35	-49.9	-67.8	3.5	3.02e+01	0	29	104	0	60	127306
2026-01-05 15:39:42.76	22.43	5.43	-50.0	-67.8	3.5	3.02e+01	0	29	104	0	60	127727
2026-01-05 15:39:43.77	22.48	5.50	-48.9	-67.7	3.5	3.02e+01	0	29	104	0	60	125455
2026-01-05 15:39:44.78	22.52	5.58	-45.4	-67.6	3.5	3.02e+01	0	29	104	0	60	124516
2026-01-05 15:39:45.79	22.56	5.65	-42.2	-67.8	3.5	3.02e+01	0	29	104	0	60	126970
2026-01-05 15:39:46.80	22.61	5.73	-40.4	-67.8	3.5	3.02e+01	0	29	104	0	60	126828
2026-01-05 15:39:47.82	22.65	5.80	-40.4	-67.4	3.5	3.02e+01	0	29	104	0	60	121203
2026-01-05 15:39:48.83	22.70	5.88	-41.3	-66.4	3.6	3.02e+01	0	29	104	0	60	107884
2026-01-05 15:39:49.84	22.74	5.95	-44.0	-64.6	4.0	3.02e+01	0	29	104	0	60	87773
2026-01-05 15:39:50.85	22.78	6.03	-48.2	-63.5	3.7	3.02e+01	0	29	104	0	60	77423
2026-01-05 15:39:51.86	22.83	6.11	-49.7	-63.0	4.9	3.02e+01	0	29	104	0	60	73183
2026-01-05 15:39:52.87	22.87	6.18	-49.7	-63.1	3.8	3.02e+01	0	29	104	0	60	73859
2026-01-05 15:39:53.88	22.92	6.26	-49.8	-63.8	4.4	3.02e+01	0	29	104	0	60	80093
2026-01-05 15:39:54.89	22.97	6.34	-49.8	-62.4	5.4	3.02e+01	4	29	104	0	60	68165
2026-01-05 15:39:55.90	23.01	6.41	-49.4	-58.0	9.1	3.02e+01	46	29	0	0	60	41175
2026-01-05 15:39:56.91	23.06	6.49	-48.4	-53.9	13.5	3.02e+01	60	29	102	524288	60	25623
2026-01-05 15:39:57.92	23.10	6.57	-47.1	-51.1	16.6	3.02e+01	58	29	102	524288	60	18637
2026-01-05 15:39:58.94	23.15	6.65	-45.8	-48.8	18.6	3.02e+01	59	29	102	524288	60	14221
2026-01-05 15:39:59.95	23.20	6.73	-43.8	-46.0	21.6	3.02e+01	58	29	102	524288	60	10311
2026-01-05 15:40:00.96	23.24	6.80	-42.9	-44.9	22.6	3.02e+01	61	29	102	524288	60	9080
2026-01-05 15:40:01.97	23.29	6.88	-41.7	-43.4	23.9	3.02e+01	60	29	102	524288	60	7655
2026-01-05 15:40:02.98	23.34	6.96	-41.7	-43.4	24.0	3.02e+01	61	29	102	524288	60	7720
2026-01-05 15:40:03.99	23.39	7.04	-41.3	-42.9	24.3	3.02e+01	47	29	102	524288	60	7273
2026-01-05 15:40:05.00	23.43	7.12	-41.7	-43.4	23.9	3.02e+01	59	29	102	524288	60	7685
2026-01-05 15:40:06.01	23.48	7.20	-42.1	-43.9	23.4	3.02e+01	60	29	102	524288	60	8127
2026-01-05 15:40:07.02	23.53	7.28	-43.5	-54.3	3.6	3.02e+01	0	29	104	524288	60	26903
2026-01-05 15:40:08.04	23.58	7.36	-44.6	-55.8	3.6	3.02e+01	0	29	104	524288	60	31917
2026-01-05 15:40:09.05	23.63	7.44	-46.3	-58.1	3.4	3.02e+01	0	29	104	524288	60	41906
2026-01-05 15:40:10.06	23.68	7.52	-47.6	-60.3	3.6	3.02e+01	0	29	104	524288	60	53773
2026-01-05 15:40:11.07	23.73	7.60	-43.4	-54.2	3.6	3.02e+01	0	29	104	524288	60	26526
2026-01-05 15:40:12.08	23.78	7.69	-49.7	-66.4	3.5	3.02e+01	0	29	104	524288	60	108301
2026-01-05 15:40:13.09	23.83	7.77	-50.2	-68.0	3.5	3.02e+01	0	29	104	524288	60	130566
2026-01-05 15:40:14.10	23.88	7.85	-46.3	-58.2	3.4	3.02e+01	0	29	104	524288	60	42076
2026-01-05 15:40:15.11	23.93	7.93	-50.0	-67.1	3.5	3.02e+01	0	29	104	524288	60	116904
2026-01-05 15:40:16.12	23.98	8.01	-47.4	-59.8	3.6	3.02e+01	0	29	104	524288	60	50486
2026-01-05 15:40:17.13	24.03	8.10	-46.8	-58.9	3.5	3.02e+01	0	29	104	524288	60	45567
2026-01-05 15:40:18.14	24.08	8.18	-46.4	-58.1	3.6	3.02e+01	0	29	104	524288	60	41842
2026-01-05 15:40:19.15	24.14	8.26	-44.6	-55.7	3.6	3.02e+01	0	29	104	524288	60	31647
2026-01-05 15:40:20.17	24.19	8.35	-46.0	-57.9	3.4	3.02e+01	0	29	104	524288	60	40833
2026-01-05 15:40:21.18	24.24	8.43	-41.0	-51.4	3.6	3.02e+01	0	29	104	524288	60	19370
2026-01-05 15:40:22.19	24.29	8.52	-50.1	-67.5	3.5	3.02e+01	0	29	104	524288	60	123287
2026-01-05 15:40:23.20	24.35	8.60	-43.4	-54.2	3.9	3.02e+01	0	29	104	524288	60	26624
2026-01-05 15:40:24.21	24.40	8.69	-49.8	-65.7	3.5	3.02e+01	0	29	104	524288	60	99495
2026-01-05 15:40:25.22	24.45	8.77	-41.3	-51.8	3.4	3.02e+01	0	29	104	524288	60	20091
2026-01-05 15:40:26.23	24.51	8.86	-41.4	-51.9	4.0	3.02e+01	0	29	104	524288	60	20362
2026-01-05 15:40:27.24	24.56	8.94	-41.0	-51.4	4.1	3.02e+01	0	29	104	524288	60	19218
2026-01-05 15:40:28.25	24.62	9.03	-41.3	-51.8	3.6	3.02e+01	0	29	104	524288	60	20238
2026-01-05 15:40:29.27	24.67	9.12	-45.5	-56.9	3.5	3.02e+01	0	29	104	524288	60	36474
2026-01-05 15:40:30.28	24.73	9.20	-41.1	-51.7	3.5	3.02e+01	0	29	104	524288	60	19889
2026-01-05 15:40:31.29	24.78	9.29	-50.1	-67.5	3.5	3.02e+01	0	29	104	524288	60	122974
2026-01-05 15:40:32.30	24.84	9.38	-41.3	-51.9	3.5	3.02e+01	0	29	104	524288	60	20321
2026-01-05 15:40:33.31	24.89	9.46	-49.0	-63.1	3.5	3.02e+01	0	29	104	524288	60	74540
2026-01-05 15:40:34.32	24.95	9.55	-41.4	-51.9	3.5	3.02e+01	0	29	104	524288	60	20369
2026-01-05 15:40:35.33	25.01	9.64	-41.2	-51.6	3.5	3.02e+01	0	29	104	524288	60	19686
2026-01-05 15:40:36.34	25.07	9.73	-40.8	-51.3	3.5	3.02e+01	0	29	104	524288	60	19087
2026-01-05 15:40:37.35	25.12	9.82	-40.1	-50.5	3.5	3.02e+01	0	29	104	524288	60	17489
2026-01-05 15:40:38.36	25.18	9.91	-42.7	-53.5	3.5	3.02e+01	0	29	104	524288	60	24478
2026-01-05 15:40:39.38	25.24	10.00	-41.7	-52.2	3.5	3.02e+01	0	29	104	524288	60	21237
2026-01-05 15:40:40.39	25.30	10.09	-50.3	-67.9	3.5	3.02e+01	0	29	104	524288	60	128440
2026-01-05 15:40:41.40	25.36	10.18	-42.1	-52.7	3.5	3.02e+01	0	29	104	524288	60	22353
2026-01-05 15:40:42.41	25.42	10.27	-48.7	-62.2	3.5	3.02e+01	0	29	104	524288	60	67038
2026-01-05 15:40:43.42	25.48	10.36	-44.3	-55.3	3.5	3.02e+01	0	29	104	524288	60	30087
2026-01-05 15:40:44.43	25.54	10.45	-44.1	-55.0	3.5	3.02e+01	0	29	104	524288	60	29348
2026-01-05 15:40:45.45	25.60	10.54	-44.3	-55.2	3.5	3.02e+01	0	29	104	524288	60	29790
2026-01-05 15:40:46.46	25.66	10.64	-47.0	-58.9	3.5	3.02e+01	0	29	104	524288	60	45837
2026-01-05 15:40:47.47	25.72	10.73	-45.6	-56.9	3.5	3.02e+01	0	29	104	524288	60	36406
2026-01-05 15:40:48.48	25.78	10.82	-45.3	-56.5	3.5	3.02e+01	0	29	104	524288	60	34579
2026-01-05 15:40:49.49	25.84	10.92	-50.0	-66.2	3.5	3.02e+01	0	29	104	524288	60	106592
2026-01-05 15:40:50.50	25.91	11.01	-40.7	-51.1	3.5	3.02e+01	0	29	104	524288	60	18700
2026-01-05 15:40:51.51	25.97	11.10	-46.1	-57.7	3.5	3.02e+01	0	29	104	524288	60	40056
2026-01-05 15:40:52.52	26.03	11.20	-40.6	-51.0	3.5	3.02e+01	0	29	104	524288	60	18444
2026-01-05 15:40:53.53	26.10	11.29	-40.3	-50.7	3.5	3.02e+01	0	29	104	524288	60	17722
2026-01-05 15:40:54.54	26.16	11.39	-40.7	-51.1	3.5	3.02e+01	0	29	104	524288	60	18718
2026-01-05 15:40:55.56	26.23	11.48	-41.2	-51.6	3.5	3.02e+01	0	29	104	524288	60	19808
2026-01-05 15:40:56.57	26.29	11.58	-41.4	-51.9	3.5	3.02e+01	0	29	104	524288	60	20385
2026-01-05 15:40:57.58	26.36	11.68	-46.6	-58.4	3.4	3.02e+01	0	29	104	524288	60	42990
2026-01-05 15:40:58.59	26.42	11.77	-49.4	-63.7	3.5	3.02e+01	0	29	104	524288	60	79851
2026-01-05 15:40:59.60	26.49	11.87	-43.9	-54.7	3.5	3.02e+01	0	29	104	524288	60	28363
2026-01-05 15:41:00.61	26.55	11.97	-43.0	-53.7	3.5	3.02e+01	0	29	104	524288	60	25105
2026-01-05 15:41:01.62	26.62	12.06	-40.6	-51.1	3.5	3.02e+01	0	29	104	524288	60	18574
2026-01-05 15:41:02.63	26.69	12.16	-40.4	-50.8	3.5	3.02e+01	0	29	104	524288	60	18075
2026-01-05 15:41:03.64	26.76	12.26	-40.5	-50.8	3.5	3.02e+01	0	29	104	524288	60	18084
2026-01-05 15:41:04.66	26.83	12.36	-39.9	-50.2	3.5	3.02e+01	0	29	104	524288	60	16824
2026-01-05 15:41:05.66	26.89	12.46	-39.4	-49.7	3.5	3.02e+01	0	29	104	524288	58	17736
2026-01-05 15:41:06.67	26.96	12.56	-50.3	-67.2	3.5	3.02e+01	0	29	104	524288	60	118539
2026-01-05 15:41:07.69	27.03	12.66	-48.1	-61.1	3.5	3.02e+01	0	29	104	524288	60	58737
2026-01-05 15:41:08.70	27.10	12.76	-48.1	-60.9	3.5	3.02e+01	0	29	104	524288	60	57628
2026-01-05 15:41:09.71	27.18	12.86	-44.8	-55.9	3.5	3.02e+01	0	29	104	524288	60	32511
2026-01-05 15:41:10.72	27.25	12.97	-43.6	-54.3	3.5	3.02e+01	0	29	104	524288	60	27054
2026-01-05 15:41:11.73	27.32	13.07	-43.3	-54.1	3.5	3.02e+01	0	29	104	524288	60	26232
2026-01-05 15:41:12.74	27.39	13.17	-43.5	-54.3	3.5	3.02e+01	0	29	104	524288	60	26824
2026-01-05 15:41:13.75	27.46	13.27	-44.0	-54.9	3.5	3.02e+01	0	29	104	524288	60	28781
2026-01-05 15:41:14.76	27.54	13.38	-41.4	-51.8	3.5	3.02e+01	0	29	104	524288	60	20309
2026-01-05 15:41:15.77	27.61	13.48	-50.4	-67.3	3.5	3.02e+01	0	29	104	524288	60	120402
2026-01-05 15:41:16.78	27.69	13.58	-46.2	-57.9	3.5	3.02e+01	0	29	104	524288	60	40896
2026-01-05 15:41:17.79	27.76	13.69	-49.2	-62.7	3.5	3.02e+01	0	29	104	524288	60	71182
2026-01-05 15:41:18.80	27.84	13.80	-44.4	-55.3	3.5	3.02e+01	0	29	104	524288	60	30269
2026-01-05 15:41:19.81	27.91	13.90	-43.6	-54.4	3.5	3.02e+01	0	29	104	524288	60	27158
2026-01-05 15:41:20.82	27.99	14.01	-43.6	-54.4	3.5	3.02e+01	0	29	104	524288	60	27169
2026-01-05 15:41:21.83	28.07	14.11	-43.3	-54.0	3.5	3.02e+01	0	29	104	524288	60	26093
2026-01-05 15:41:22.84	28.14	14.22	-49.9	-65.9	3.5	3.02e+01	0	29	104	524288	60	102776
2026-01-05 15:41:23.85	28.22	14.33	-40.9	-51.4	3.5	3.02e+01	0	29	104	524288	60	19281
2026-01-05 15:41:24.86	28.30	14.44	-50.5	-67.0	3.5	3.02e+01	0	29	104	524288	60	116691
2026-01-05 15:41:25.88	28.38	14.55	-43.1	-54.0	3.5	3.02e+01	0	29	104	524288	60	25955
2026-01-05 15:41:26.89	28.46	14.66	-49.5	-63.8	3.5	3.02e+01	0	29	104	524288	60	80684
2026-01-05 15:41:27.90	28.54	14.77	-40.0	-50.4	3.5	3.02e+01	0	29	104	524288	60	17170
2026-01-05 15:41:28.91	28.62	14.88	-39.6	-50.0	3.5	3.02e+01	0	29	104	524288	60	16377
2026-01-05 15:41:29.92	28.70	14.99	-39.0	-49.3	3.5	3.02e+01	0	29	104	524288	58	16971
2026-01-05 15:41:30.93	28.79	15.10	-38.8	-49.0	3.5	3.02e+01	0	29	104	524288	58	16511
2026-01-05 15:41:31.94	28.87	15.21	-41.9	-52.5	3.5	3.02e+01	0	29	104	524288	60	21788
2026-01-05 15:41:32.95	28.95	15.32	-40.4	-50.8	3.5	3.02e+01	0	29	104	524288	60	18090
2026-01-05 15:41:33.96	29.04	15.43	-50.5	-66.9	3.5	3.02e+01	0	29	104	524288	60	114984
2026-01-05 15:41:34.97	29.12	15.55	-42.5	-53.1	3.5	3.02e+01	0	29	104	524288	60	23585
2026-01-05 15:41:35.99	29.21	15.66	-49.6	-66.4	3.5	3.02e+01	0	29	104	524288	60	108248
2026-01-05 15:41:37.00	29.30	15.78	-42.5	-53.3	3.5	3.02e+01	0	29	104	524288	60	23923
2026-01-05 15:41:38.01	29.38	15.89	-42.4	-53.2	3.5	3.02e+01	0	29	104	524288	60	23741
2026-01-05 15:41:39.02	29.47	16.01	-43.0	-53.8	3.5	3.02e+01	0	29	104	524288	60	25531
2026-01-05 15:41:40.03	29.56	16.12	-43.1	-54.0	3.5	3.02e+01	0	29	104	524288	60	26036
2026-01-05 15:41:41.04	29.65	16.24	-38.6	-48.8	3.5	3.02e+01	0	29	104	524288	58	16119
2026-01-05 15:41:42.05	29.74	16.36	-40.4	-50.8	3.5	3.02e+01	0	29	104	524288	60	18023
2026-01-05 15:41:43.06	29.83	16.47	-50.3	-67.0	3.5	3.02e+01	0	29	104	524288	60	116389
2026-01-05 15:41:44.08	29.92	16.59	-42.4	-53.1	3.5	3.02e+01	0	29	104	524288	60	23326
2026-01-05 15:41:45.09	30.01	16.71	-50.1	-66.6	3.5	3.02e+01	0	29	104	524288	60	111521
2026-01-05 15:41:46.09	30.10	16.83	-39.6	-49.9	3.5	3.02e+01	0	29	104	524288	60	16230
2026-01-05 15:41:47.10	30.20	16.95	-39.3	-49.6	3.5	3.02e+01	0	29	104	524288	58	17655
2026-01-05 15:41:48.11	30.29	17.07	-38.8	-49.1	3.5	3.02e+01	0	29	104	524288	58	16662
2026-01-05 15:41:49.13	30.39	17.19	-38.7	-49.0	3.5	3.02e+01	0	29	104	524288	58	16482
2026-01-05 15:41:50.14	30.48	17.32	-41.7	-52.3	3.5	3.02e+01	0	29	104	524288	60	21299
2026-01-05 15:41:51.15	30.58	17.44	-39.3	-49.7	3.5	3.02e+01	0	29	104	524288	58	17776
2026-01-05 15:41:52.16	30.68	17.56	-50.5	-66.8	3.5	3.02e+01	0	29	104	524288	60	114163
2026-01-05 15:41:53.17	30.77	17.68	-42.0	-52.6	3.5	3.02e+01	0	29	104	524288	60	22125
2026-01-05 15:41:54.18	30.87	17.81	-50.3	-66.4	3.5	3.02e+01	0	29	104	524288	60	107882
2026-01-05 15:41:55.19	30.97	17.93	-39.4	-49.7	3.5	3.02e+01	0	29	104	524288	60	15862
2026-01-05 15:41:56.21	31.07	18.06	-38.6	-48.8	3.5	3.02e+01	0	29	104	524288	58	16030
2026-01-05 15:41:57.22	31.18	18.19	-38.4	-48.5	3.5	3.02e+01	0	29	104	524288	58	15580
2026-01-05 15:41:58.23	31.28	18.31	-38.6	-48.8	3.5	3.02e+01	0	29	104	524288	58	16135
2026-01-05 15:41:59.24	31.38	18.44	-43.5	-54.5	3.5	3.02e+01	0	29	104	524288	60	27540
2026-01-05 15:42:00.25	31.49	18.57	-39.3	-49.6	3.5	3.02e+01	0	29	104	524288	58	17668
2026-01-05 15:42:01.26	31.59	18.70	-50.1	-67.0	3.5	3.02e+01	0	29	104	524288	60	116563
2026-01-05 15:42:02.27	31.70	18.83	-40.0	-50.3	3.5	3.02e+01	0	29	104	524288	60	17078
2026-01-05 15:42:03.28	31.80	18.96	-50.0	-65.2	3.5	3.02e+01	0	29	104	524288	60	94235
2026-01-05 15:42:04.29	31.91	19.09	-41.5	-52.0	3.5	3.02e+01	0	29	104	524288	60	20641
2026-01-05 15:42:05.30	32.02	19.22	-41.7	-52.1	3.5	3.02e+01	0	29	104	524288	60	20987
2026-01-05 15:42:06.32	32.13	19.35	-41.9	-52.4	3.5	3.02e+01	0	29	104	524288	60	21717
2026-01-05 15:42:07.33	32.24	19.48	-41.5	-51.9	3.5	3.02e+01	0	29	104	524288	60	20540
2026-01-05 15:42:08.34	32.35	19.62	-43.0	-53.6	3.5	3.02e+01	0	29	104	524288	60	24914
2026-01-05 15:42:09.35	32.46	19.75	-39.9	-50.2	3.5	3.02e+01	0	29	104	524288	58	18764
2026-01-05 15:42:10.36	32.58	19.89	-50.7	-68.0	3.5	3.02e+01	0	29	104	524288	60	130879
2026-01-05 15:42:11.37	32.69	20.02	-40.4	-50.9	3.5	3.02e+01	0	29	104	524288	60	18149
2026-01-05 15:42:12.38	32.81	20.16	-48.7	-62.0	3.5	3.02e+01	0	29	104	524288	60	65503
2026-01-05 15:42:13.39	32.92	20.29	-42.0	-52.6	3.5	3.02e+01	0	29	104	524288	60	22073
2026-01-05 15:42:14.41	33.04	20.43	-42.0	-52.6	3.5	3.02e+01	0	29	104	524288	60	22233
2026-01-05 15:42:15.42	33.16	20.57	-40.9	-51.3	3.5	3.02e+01	0	29	104	524288	60	19036
2026-01-05 15:42:16.43	33.28	20.71	-39.4	-49.7	3.5	3.02e+01	0	29	104	524288	60	15779
2026-01-05 15:42:17.44	33.40	20.85	-38.0	-48.2	3.5	3.02e+01	0	29	104	524288	58	15025
2026-01-05 15:42:18.45	33.52	20.99	-44.5	-55.4	3.5	3.02e+01	0	29	104	524288	60	30410
2026-01-05 15:42:19.46	33.65	21.13	-48.8	-61.9	3.5	3.02e+01	0	29	104	524288	60	64421
2026-01-05 15:42:20.47	33.77	21.27	-38.0	-48.3	3.6	3.02e+01	0	29	104	524288	58	15068
2026-01-05 15:42:21.48	33.90	21.42	-46.6	-58.5	3.5	3.02e+01	0	29	104	524288	60	43825
2026-01-05 15:42:22.49	34.02	21.56	-38.5	-48.8	3.5	3.02e+01	0	29	104	524288	58	16061
2026-01-05 15:42:23.50	34.15	21.70	-38.4	-48.7	3.5	3.02e+01	0	29	104	524288	56	17886
2026-01-05 15:42:24.51	34.28	21.85	-37.7	-47.9	3.5	3.02e+01	0	29	104	524288	56	16261
2026-01-05 15:42:25.52	34.41	21.99	-39.8	-50.1	3.5	3.02e+01	0	29	104	524288	56	20807
2026-01-05 15:42:26.53	34.54	22.14	-41.1	-51.5	3.5	3.02e+01	0	29	104	524288	60	19491
2026-01-05 15:42:27.54	34.67	22.29	-45.5	-57.0	3.5	3.02e+01	0	29	104	524288	60	36733
2026-01-05 15:42:28.56	34.81	22.44	-47.0	-59.4	3.5	3.02e+01	0	29	104	524288	60	48271
2026-01-05 15:42:29.57	34.95	22.59	-39.9	-50.2	3.5	3.02e+01	0	29	104	524288	56	21150
2026-01-05 15:42:30.58	35.08	22.74	-43.0	-53.8	3.5	3.02e+01	0	29	104	524288	60	25359
2026-01-05 15:42:31.59	35.22	22.89	-38.5	-48.7	3.5	3.02e+01	0	29	104	524288	58	15884
2026-01-05 15:42:32.60	35.36	23.04	-38.4	-48.6	3.5	3.02e+01	0	29	104	524288	58	15715
2026-01-05 15:42:33.61	35.50	23.19	-38.6	-48.9	3.5	3.02e+01	0	29	104	524288	58	16228
2026-01-05 15:42:34.62	35.64	23.34	-42.6	-53.2	3.5	3.02e+01	0	29	104	524288	60	23801
2026-01-05 15:42:35.63	35.79	23.50	-42.0	-52.6	3.5	3.02e+01	0	29	104	524288	60	22234
2026-01-05 15:42:36.64	35.93	23.65	-47.7	-59.8	3.5	3.02e+01	0	29	104	524288	60	50937
2026-01-05 15:42:37.65	36.08	23.81	-46.1	-57.7	3.5	3.02e+01	0	29	104	524288	60	39769
2026-01-05 15:42:38.67	36.23	23.96	-45.4	-56.4	3.5	3.02e+01	0	29	104	524288	60	34409
2026-01-05 15:42:39.68	36.38	24.12	-44.5	-55.3	3.5	3.02e+01	0	29	104	524288	60	30367
2026-01-05 15:42:40.69	36.53	24.28	-42.2	-52.8	3.5	3.02e+01	0	29	104	524288	60	22549
2026-01-05 15:42:41.70	36.68	24.44	-42.5	-53.1	3.5	3.02e+01	0	29	104	524288	60	23395
2026-01-05 15:42:42.71	36.83	24.60	-42.6	-53.1	3.5	3.02e+01	0	29	104	524288	60	23561
2026-01-05 15:42:43.72	36.99	24.76	-38.2	-48.4	3.5	3.02e+01	0	29	104	524288	58	15336
2026-01-05 15:42:44.73	37.15	24.92	-38.6	-48.9	3.6	3.02e+01	0	29	104	524288	56	18144
2026-01-05 15:42:45.75	37.31	25.08	-50.9	-68.1	3.5	3.02e+01	0	29	104	524288	60	131174
2026-01-05 15:42:46.76	37.47	25.25	-42.1	-52.7	3.5	3.02e+01	0	29	104	524288	60	22481
2026-01-05 15:42:47.77	37.63	25.41	-45.6	-57.0	3.5	3.02e+01	0	29	104	524288	60	36679
2026-01-05 15:42:48.78	37.79	25.58	-40.0	-50.3	3.6	3.02e+01	0	29	104	524288	60	16942
2026-01-05 15:42:49.79	37.96	25.74	-38.2	-48.4	3.5	3.02e+01	0	29	104	524288	56	17102
2026-01-05 15:42:50.80	38.13	25.91	-37.9	-48.1	3.5	3.02e+01	0	29	104	524288	56	16531
2026-01-05 15:42:51.81	38.30	26.08	-37.7	-47.9	3.5	3.02e+01	0	29	104	524288	56	16188
2026-01-05 15:42:52.82	38.47	26.24	-43.7	-54.5	3.5	3.02e+01	0	29	104	524288	60	27497
2026-01-05 15:42:53.84	38.64	26.42	-38.6	-48.8	3.5	3.02e+01	0	29	104	524288	54	20306
2026-01-05 15:42:54.84	38.82	26.58	-50.6	-66.5	3.5	3.02e+01	0	29	104	524288	60	109700
2026-01-05 15:42:55.86	39.00	26.76	-42.0	-52.6	3.5	3.02e+01	0	29	104	524288	60	22044
2026-01-05 15:42:56.86	39.17	26.93	-49.5	-63.3	3.5	3.02e+01	0	29	104	524288	60	76291
2026-01-05 15:42:57.88	39.35	27.10	-38.8	-49.0	3.5	3.02e+01	0	29	104	524288	60	14686
2026-01-05 15:42:58.89	39.54	27.28	-37.9	-48.1	3.5	3.02e+01	0	29	104	524288	56	16697
2026-01-05 15:42:59.90	39.72	27.45	-37.7	-48.0	3.5	3.02e+01	0	29	104	524288	56	16335
2026-01-05 15:43:00.91	39.91	27.63	-37.8	-48.1	3.5	3.02e+01	0	29	104	524288	56	16593
2026-01-05 15:43:01.92	40.10	27.80	-39.9	-50.3	3.5	3.02e+01	0	29	104	524288	58	19093
2026-01-05 15:43:02.93	40.29	27.98	-39.8	-50.1	3.6	3.02e+01	0	29	104	524288	58	18654
2026-01-05 15:43:03.94	40.48	28.16	-50.1	-66.4	3.5	3.02e+01	0	29	104	524288	60	109070
2026-01-05 15:43:04.96	40.68	28.34	-44.8	-55.9	3.5	3.02e+01	0	29	104	524288	60	32406
2026-01-05 15:43:05.97	40.88	28.52	-50.3	-66.3	3.5	3.02e+01	0	29	104	524288	60	107375
2026-01-05 15:43:06.98	41.08	28.70	-42.2	-52.6	3.5	3.02e+01	0	29	104	524288	60	22221
2026-01-05 15:43:07.99	41.28	28.88	-41.7	-52.0	3.5	3.02e+01	0	29	104	524288	60	20735
2026-01-05 15:43:09.00	41.48	29.07	-40.9	-51.2	3.5	3.02e+01	0	29	104	524288	60	18883
2026-01-05 15:43:10.01	41.69	29.25	-40.4	-50.7	3.5	3.02e+01	0	29	104	524288	60	17863
2026-01-05 15:43:11.02	41.90	29.43	-38.1	-48.3	3.6	3.02e+01	0	29	104	524288	56	16974
2026-01-05 15:43:12.03	42.11	29.62	-39.6	-49.9	3.5	3.02e+01	0	29	104	524288	58	18239
2026-01-05 15:43:13.05	42.33	29.81	-50.6	-66.7	3.5	3.02e+01	0	29	104	524288	60	112085
2026-01-05 15:43:14.06	42.55	30.00	-42.2	-52.9	3.5	3.02e+01	0	29	104	524288	60	22843
2026-01-05 15:43:15.07	42.77	30.18	-50.2	-65.7	3.5	3.02e+01	0	29	104	524288	60	100322
2026-01-05 15:43:16.08	42.99	30.37	-38.5	-48.7	3.5	3.02e+01	0	29	104	524288	58	15857
2026-01-05 15:43:17.09	43.21	30.56	-37.9	-48.1	3.5	3.02e+01	0	29	104	524288	56	16545
2026-01-05 15:43:18.10	43.44	30.75	-37.9	-48.1	3.5	3.02e+01	0	29	104	524288	56	16666
2026-01-05 15:43:19.11	43.67	30.95	-37.8	-47.9	3.5	3.02e+01	0	29	104	524288	56	16201
2026-01-05 15:43:20.13	43.91	31.14	-44.9	-55.9	3.5	3.02e+01	0	29	104	524288	60	32414
2026-01-05 15:43:21.14	44.14	31.33	-39.5	-49.8	3.5	3.02e+01	0	29	104	524288	60	16009
2026-01-05 15:43:22.15	44.38	31.53	-50.7	-66.6	3.5	3.02e+01	0	29	104	524288	60	111358
2026-01-05 15:43:23.16	44.62	31.72	-41.8	-52.4	3.5	3.02e+01	0	29	104	524288	60	21617
2026-01-05 15:43:24.17	44.87	31.92	-50.3	-65.3	3.5	3.02e+01	0	29	104	524288	60	95588
2026-01-05 15:43:25.18	45.11	32.12	-38.7	-49.0	3.5	3.02e+01	0	29	104	524288	58	16350
2026-01-05 15:43:26.19	45.36	32.32	-38.8	-49.0	3.6	3.02e+01	0	29	104	524288	58	16443
2026-01-05 15:43:27.20	45.62	32.51	-38.8	-49.1	3.5	3.02e+01	0	29	104	524288	58	16524
2026-01-05 15:43:28.21	45.88	32.71	-38.9	-49.2	3.5	3.02e+01	0	29	104	524288	58	16733
2026-01-05 15:43:29.22	46.14	32.91	-45.9	-57.5	3.5	3.02e+01	0	29	104	524288	60	38930
2026-01-05 15:43:30.24	46.40	33.12	-39.3	-49.6	3.5	3.02e+01	0	29	104	524288	60	15685
2026-01-05 15:43:31.25	46.67	33.32	-50.4	-66.7	3.5	3.02e+01	0	29	104	524288	60	112781
2026-01-05 15:43:32.26	46.94	33.52	-41.8	-52.4	3.6	3.02e+01	0	29	104	524288	60	21579
2026-01-05 15:43:33.27	47.21	33.73	-50.1	-65.6	3.5	3.02e+01	0	30	104	524288	60	98395
2026-01-05 15:43:34.28	47.49	33.93	-41.5	-51.9	3.6	3.02e+01	0	29	104	524288	60	20463
2026-01-05 15:43:35.29	47.77	34.14	-41.4	-51.8	3.5	3.02e+01	0	30	104	524288	60	20272
2026-01-05 15:43:36.30	48.05	34.34	-41.0	-51.5	3.5	3.02e+01	0	29	104	524288	60	19444
2026-01-05 15:43:37.32	48.34	34.55	-39.3	-49.6	3.6	3.02e+01	0	29	104	524288	60	15712
2026-01-05 15:43:38.33	48.64	34.76	-38.4	-48.6	3.6	3.02e+01	0	29	104	524288	56	17631
2026-01-05 15:43:39.34	48.93	34.96	-38.9	-49.2	3.5	3.02e+01	0	29	104	524288	58	16789
2026-01-05 15:43:40.35	49.23	35.17	-50.4	-68.2	3.5	3.02e+01	0	29	104	524288	60	133965
2026-01-05 15:43:41.36	49.53	35.38	-38.0	-48.3	3.5	3.02e+01	0	29	104	524288	58	15065
2026-01-05 15:43:42.37	49.84	35.59	-49.4	-63.0	3.6	3.02e+01	0	29	104	524288	60	73362
2026-01-05 15:43:43.38	50.15	35.80	-38.3	-48.5	3.5	3.02e+01	0	29	104	524288	58	15522
2026-01-05 15:43:44.39	50.47	36.01	-38.4	-48.6	3.5	3.02e+01	0	30	104	524288	56	17690
2026-01-05 15:43:45.40	50.79	36.22	-38.2	-48.4	3.5	3.02e+01	0	29	104	524288	56	17259
2026-01-05 15:43:46.41	51.11	36.44	-37.9	-48.1	3.5	3.02e+01	0	29	104	524288	56	16557
2026-01-05 15:43:47.43	51.44	36.65	-39.4	-49.6	3.5	3.02e+01	0	29	104	524288	60	15699
2026-01-05 15:43:48.44	51.77	36.86	-40.8	-51.2	3.5	3.02e+01	0	29	104	524288	58	21215
2026-01-05 15:43:49.45	52.11	37.08	-50.2	-66.6	3.6	3.02e+01	0	29	104	524288	60	111541
2026-01-05 15:43:50.46	52.45	37.29	-37.8	-48.0	3.5	3.02e+01	0	29	104	524288	56	16430
2026-01-05 15:43:51.47	52.80	37.50	-46.0	-57.3	3.5	3.02e+01	0	29	104	524288	60	38051
2026-01-05 15:43:52.48	53.15	37.72	-38.2	-48.5	3.5	3.02e+01	0	29	104	524288	56	17444
2026-01-05 15:43:53.49	53.50	37.93	-38.4	-48.6	3.5	3.02e+01	0	29	104	524288	56	17661
2026-01-05 15:43:54.50	53.86	38.15	-38.5	-48.7	3.5	3.02e+01	0	29	104	524288	56	17883
2026-01-05 15:43:55.51	54.23	38.36	-42.1	-52.6	3.5	3.02e+01	0	29	104	524288	60	22192
2026-01-05 15:43:56.52	54.59	38.58	-43.2	-54.1	3.5	3.02e+01	0	29	104	524288	60	26193
2026-01-05 15:43:57.54	54.97	38.80	-41.9	-52.5	3.5	3.02e+01	0	29	104	524288	58	24489
2026-01-05 15:43:58.55	55.35	39.01	-50.5	-67.1	3.5	3.02e+01	0	29	104	524288	60	118034
2026-01-05 15:43:59.56	55.74	39.23	-41.3	-51.7	3.5	3.02e+01	0	29	104	524288	58	22362
2026-01-05 15:44:00.57	56.13	39.44	-45.7	-57.1	3.5	3.02e+01	0	29	104	524288	60	37095
2026-01-05 15:44:01.58	56.52	39.66	-41.7	-52.2	3.5	3.02e+01	0	29	104	524288	60	21036
2026-01-05 15:44:02.59	56.92	39.87	-40.4	-50.8	3.5	3.02e+01	0	29	104	524288	60	17941
2026-01-05 15:44:03.60	57.33	40.09	-39.0	-49.3	3.5	3.02e+01	0	29	104	524288	58	16913
2026-01-05 15:44:04.61	57.74	40.30	-38.3	-48.4	3.5	3.02e+01	0	29	104	524288	56	17204
2026-01-05 15:44:05.62	58.15	40.52	-37.9	-48.2	3.5	3.02e+01	0	29	104	524288	56	16806
2026-01-05 15:44:06.63	58.58	40.73	-48.1	-60.7	3.5	3.02e+01	0	30	104	524288	60	56270
2026-01-05 15:44:07.65	59.01	40.95	-44.4	-55.5	3.6	3.02e+01	0	29	104	524288	60	30980
2026-01-05 15:44:08.66	59.44	41.16	-46.2	-57.5	3.5	3.02e+01	0	29	104	524288	60	39132
2026-01-05 15:44:09.67	59.88	41.38	-41.7	-52.2	3.5	3.02e+01	0	29	104	524288	60	21208
2026-01-05 15:44:10.68	60.33	41.59	-38.3	-48.6	3.5	3.02e+01	0	29	104	524288	56	17536
2026-01-05 15:44:11.69	60.78	41.80	-38.4	-48.7	3.5	3.02e+01	0	29	104	524288	56	17754
2026-01-05 15:44:12.70	61.24	42.01	-38.0	-48.3	3.5	3.02e+01	0	29	104	524288	56	16909
2026-01-05 15:44:13.71	61.70	42.22	-41.8	-52.3	3.5	3.02e+01	0	29	104	524288	60	21508
2026-01-05 15:44:14.72	62.17	42.43	-40.4	-50.8	3.5	3.02e+01	0	29	104	524288	60	18017
2026-01-05 15:44:15.73	62.64	42.64	-51.1	-68.4	3.5	3.02e+01	0	29	104	524288	60	136066
2026-01-05 15:44:16.74	63.13	42.85	-42.6	-53.3	3.5	3.02e+01	0	29	104	524288	60	24005
2026-01-05 15:44:17.76	63.62	43.06	-47.2	-59.8	3.5	3.02e+01	0	29	104	524288	60	50487
2026-01-05 15:44:18.77	64.12	43.27	-39.9	-50.3	3.5	3.02e+01	0	29	104	524288	60	16977
2026-01-05 15:44:19.78	64.62	43.47	-38.6	-48.9	3.5	3.02e+01	0	29	104	524288	58	16239
2026-01-05 15:44:20.79	65.12	43.68	-38.6	-48.9	3.5	3.02e+01	0	29	104	524288	58	16159
2026-01-05 15:44:21.80	65.64	43.88	-38.4	-48.6	3.5	3.02e+01	0	29	104	524288	56	17545
2026-01-05 15:44:22.81	66.16	44.08	-44.6	-55.7	3.5	3.02e+01	0	29	104	524288	60	31760
2026-01-05 15:44:23.82	66.69	44.28	-41.3	-51.9	3.5	3.02e+01	0	29	104	524288	60	20393
2026-01-05 15:44:24.83	67.22	44.48	-51.0	-68.4	3.5	3.02e+01	0	29	104	524288	60	136082
2026-01-05 15:44:25.84	67.76	44.67	-45.0	-56.2	3.5	3.02e+01	0	29	104	524288	60	33540
2026-01-05 15:44:26.85	68.31	44.87	-49.8	-65.4	3.5	3.02e+01	0	29	104	524288	60	96176
2026-01-05 15:44:27.87	68.87	45.06	-42.4	-53.0	3.5	3.02e+01	0	29	104	524288	60	23179
2026-01-05 15:44:28.88	69.43	45.25	-42.3	-53.0	3.5	3.02e+01	0	29	104	524288	60	23095
2026-01-05 15:44:29.89	70.00	45.44	-42.4	-53.2	3.5	3.02e+01	0	29	104	524288	60	23841
2026-01-05 15:44:30.90	70.57	45.63	-42.3	-53.4	3.5	3.02e+01	0	29	104	524288	60	24149
2026-01-05 15:44:31.91	71.16	45.81	-49.6	-63.6	3.5	3.02e+01	0	29	104	524288	60	78496
2026-01-05 15:44:32.92	71.74	46.00	-41.4	-51.8	3.5	3.02e+01	0	29	104	524288	60	20169
2026-01-05 15:44:33.93	72.34	46.18	-48.9	-67.1	3.5	3.02e+01	0	29	104	524288	60	117544
2026-01-05 15:44:34.94	72.94	46.35	-46.0	-57.5	3.5	3.02e+01	0	29	104	524288	60	38790
2026-01-05 15:44:35.95	73.55	46.53	-50.4	-66.6	3.5	3.02e+01	0	30	104	524288	60	110537
2026-01-05 15:44:36.96	74.17	46.70	-42.8	-53.4	3.5	3.02e+01	0	29	104	524288	60	24221
2026-01-05 15:44:37.97	74.79	46.87	-42.7	-53.3	3.5	3.02e+01	0	29	104	524288	60	24099
2026-01-05 15:44:38.99	75.43	47.04	-41.5	-52.2	3.5	3.02e+01	0	30	104	524288	60	21177
2026-01-05 15:44:40.00	76.06	47.20	-41.8	-52.3	3.5	3.02e+01	0	29	104	524288	60	21306
2026-01-05 15:44:41.01	76.71	47.36	-45.7	-56.9	3.5	3.02e+01	0	29	104	524288	60	36407
2026-01-05 15:44:42.02	77.35	47.52	-40.6	-51.1	3.5	3.02e+01	0	29	104	524288	60	18576
2026-01-05 15:44:43.03	78.01	47.67	-50.4	-67.3	3.5	3.02e+01	0	29	104	524288	60	119882
2026-01-05 15:44:44.04	78.67	47.82	-45.0	-56.0	3.5	3.02e+01	0	29	104	524288	60	32840
2026-01-05 15:44:45.05	79.34	47.97	-50.5	-66.1	3.5	3.02e+01	0	29	104	524288	60	104409
2026-01-05 15:44:46.06	80.02	48.11	-39.3	-49.5	3.5	3.02e+01	0	29	104	524288	60	15536
2026-01-05 15:44:47.07	80.70	48.25	-39.4	-49.7	3.5	3.02e+01	0	30	104	524288	58	17835
2026-01-05 15:44:48.09	81.39	48.39	-39.2	-49.6	3.5	3.02e+01	0	29	104	524288	58	17597
2026-01-05 15:44:49.10	82.09	48.52	-39.2	-49.4	3.5	3.02e+01	0	29	104	524288	58	17120
2026-01-05 15:44:50.11	82.79	48.65	-47.7	-59.8	3.5	3.02e+01	0	29	104	524288	60	50537
2026-01-05 15:44:51.12	83.49	48.77	-40.4	-50.7	3.6	3.02e+01	0	29	104	524288	60	17849
2026-01-05 15:44:52.13	84.20	48.89	-51.0	-67.3	3.5	3.02e+01	0	29	104	524288	60	120342
2026-01-05 15:44:53.14	84.92	49.00	-46.7	-58.2	3.5	3.02e+01	0	29	104	524288	60	42259
2026-01-05 15:44:54.15	85.64	49.11	-50.6	-66.1	3.5	3.02e+01	0	29	104	524288	60	104684
2026-01-05 15:44:55.17	86.38	49.22	-42.1	-52.6	3.5	3.02e+01	0	29	104	524288	60	22099
2026-01-05 15:44:56.18	87.11	49.32	-40.7	-51.1	3.5	3.02e+01	0	29	104	524288	60	18603
2026-01-05 15:44:57.19	87.85	49.42	-39.2	-49.4	3.5	3.02e+01	0	29	104	524288	60	15352
2026-01-05 15:44:58.20	88.59	49.51	-38.6	-48.9	3.5	3.02e+01	0	29	104	524288	58	16154
2026-01-05 15:44:59.21	89.33	49.60	-41.1	-51.6	3.5	3.02e+01	0	30	104	524288	60	19656
2026-01-05 15:45:00.22	90.08	49.68	-38.3	-48.4	3.5	3.02e+01	0	29	104	524288	58	15399
2026-01-05 15:45:01.23	90.84	49.76	-50.8	-66.6	3.5	3.02e+01	0	30	104	524288	60	110762
2026-01-05 15:45:02.24	91.59	49.83	-43.1	-53.7	3.5	3.02e+01	0	29	104	524288	60	25242
2026-01-05 15:45:03.26	92.36	49.89	-50.3	-64.9	3.5	3.02e+01	0	29	104	524288	60	91417
2026-01-05 15:45:04.27	93.13	49.96	-41.0	-51.2	3.5	3.02e+01	0	29	104	524288	60	18878
2026-01-05 15:45:05.28	93.89	50.01	-41.1	-51.5	3.5	3.02e+01	0	29	104	524288	60	19530
2026-01-05 15:45:06.29	94.67	50.06	-40.8	-51.2	3.5	3.02e+01	0	29	104	524288	60	18896
2026-01-05 15:45:07.30	95.44	50.11	-39.8	-50.0	3.5	3.02e+01	0	29	104	524288	60	16421
2026-01-05 15:45:08.31	96.21	50.15	-40.7	-51.2	3.5	3.02e+01	0	29	104	524288	60	18760
2026-01-05 15:45:09.32	96.99	50.19	-38.2	-48.3	3.5	3.02e+01	0	29	104	524288	56	17060
2026-01-05 15:45:10.33	97.77	50.22	-51.1	-68.0	3.5	3.02e+01	0	30	104	524288	60	129980
2026-01-05 15:45:11.34	98.55	50.24	-38.1	-48.4	3.5	3.02e+01	0	29	104	524288	60	13578
2026-01-05 15:45:12.36	99.34	50.26	-48.7	-61.3	3.6	3.02e+01	0	29	104	524288	60	60604
2026-01-05 15:45:13.37	100.12	50.27	-37.3	-47.5	3.5	3.02e+01	0	30	104	524288	56	15486
2026-01-05 15:45:14.38	100.90	50.28	-36.8	-46.9	3.6	3.02e+01	0	29	104	524288	54	16199
2026-01-05 15:45:15.39	101.68	50.28	-36.9	-47.1	3.5	3.02e+01	0	29	104	524288	54	16663
2026-01-05 15:45:16.40	102.47	50.28	-37.1	-47.2	3.5	3.02e+01	0	29	104	524288	54	16846
2026-01-05 15:45:17.41	103.25	50.27	-40.2	-50.4	3.5	3.02e+01	0	30	104	524288	60	17245
2026-01-05 15:45:18.42	104.03	50.26	-38.0	-48.3	3.3	3.02e+01	0	29	104	524288	56	16972
2026-01-05 15:45:19.43	104.81	50.24	-51.1	-68.1	3.5	3.02e+01	0	29	104	524288	60	131863
2026-01-05 15:45:20.44	105.59	50.21	-38.1	-48.3	3.5	3.02e+01	0	29	104	524288	60	13456
2026-01-05 15:45:21.46	106.38	50.18	-47.9	-60.0	3.6	3.02e+01	0	29	104	524288	60	52130
2026-01-05 15:45:22.47	107.16	50.14	-41.5	-52.0	3.5	3.02e+01	0	29	104	524288	60	20578
2026-01-05 15:45:23.48	107.93	50.10	-41.0	-51.5	3.5	3.02e+01	0	29	104	524288	60	19475
2026-01-05 15:45:24.49	108.70	50.05	-40.5	-50.8	3.5	3.02e+01	0	29	104	524288	60	18081
2026-01-05 15:45:25.50	109.47	50.00	-42.3	-52.9	3.5	3.02e+01	0	29	104	524288	60	22892
2026-01-05 15:45:26.51	110.24	49.94	-43.3	-53.9	3.5	3.02e+01	0	29	104	524288	60	25859
2026-01-05 15:45:27.52	111.01	49.88	-41.0	-51.3	3.5	3.02e+01	0	29	104	524288	56	23965
2026-01-05 15:45:28.53	111.77	49.81	-48.8	-61.7	3.6	3.02e+01	0	29	104	524288	60	63366
2026-01-05 15:45:29.55	112.53	49.74	-37.9	-48.0	3.5	3.02e+01	0	29	104	524288	56	16485
2026-01-05 15:45:30.56	113.29	49.66	-43.8	-54.6	3.6	3.02e+01	0	30	104	524288	60	27728
2026-01-05 15:45:31.57	114.04	49.58	-39.8	-50.0	3.5	3.02e+01	0	30	104	524288	60	16455
2026-01-05 15:45:32.58	114.78	49.49	-40.3	-50.6	3.5	3.02e+01	0	30	104	524288	60	17650
2026-01-05 15:45:33.59	115.52	49.40	-38.7	-48.9	3.5	3.02e+01	0	29	104	524288	58	16317
2026-01-05 15:45:34.60	116.26	49.30	-37.9	-48.2	3.5	3.02e+01	0	29	104	524288	54	18876
2026-01-05 15:45:35.61	116.99	49.20	-40.0	-50.2	3.5	3.02e+01	0	29	104	524288	58	18931
2026-01-05 15:45:36.62	117.72	49.09	-46.1	-57.3	3.4	3.02e+01	0	29	104	524288	60	38136
2026-01-05 15:45:37.64	118.45	48.98	-43.1	-53.9	3.6	3.02e+01	0	29	104	524288	60	25667
2026-01-05 15:45:38.64	119.16	48.86	-42.8	-53.3	3.5	3.02e+01	0	29	104	524288	56	30337
2026-01-05 15:45:39.66	119.88	48.74	-40.2	-50.6	3.5	3.02e+01	0	29	104	524288	60	17570
2026-01-05 15:45:40.67	120.58	48.62	-37.4	-47.7	3.5	3.02e+01	0	29	104	524288	56	15799
2026-01-05 15:45:41.68	121.28	48.49	-37.4	-47.7	3.5	3.02e+01	0	29	104	524288	54	17712
2026-01-05 15:45:42.69	121.97	48.36	-37.2	-47.3	3.5	3.02e+01	0	29	104	524288	54	16937
2026-01-05 15:45:43.70	122.66	48.22	-48.5	-61.0	3.5	3.02e+01	0	29	104	524288	60	58078
2026-01-05 15:45:44.71	123.34	48.08	-43.6	-54.3	3.5	3.02e+01	0	30	104	524288	60	27013
2026-01-05 15:45:45.72	124.02	47.94	-47.4	-59.2	3.5	3.02e+01	0	29	104	524288	60	47257
2026-01-05 15:45:46.73	124.69	47.79	-46.0	-57.2	3.5	3.02e+01	0	29	104	524288	60	37604
2026-01-05 15:45:47.75	125.36	47.64	-45.7	-56.8	3.5	3.02e+01	0	29	104	524288	60	35951
2026-01-05 15:45:48.76	126.01	47.48	-43.7	-54.4	3.5	3.02e+01	0	29	104	524288	60	27241
2026-01-05 15:45:49.77	126.66	47.33	-43.0	-53.8	3.5	3.02e+01	0	29	104	524288	60	25292
2026-01-05 15:45:50.78	127.30	47.16	-42.0	-52.2	3.5	3.02e+01	0	29	104	524288	60	21203
2026-01-05 15:45:51.79	127.94	47.00	-42.5	-53.2	3.5	3.02e+01	0	29	104	524288	60	23808
2026-01-05 15:45:52.80	128.57	46.83	-49.2	-62.6	3.5	3.02e+01	0	30	104	524288	60	69687
2026-01-05 15:45:53.81	129.19	46.66	-50.6	-66.4	3.5	3.02e+01	0	29	104	524288	60	108167
2026-01-05 15:45:54.82	129.81	46.49	-43.0	-53.5	3.5	3.02e+01	0	29	104	524288	60	24498
2026-01-05 15:45:55.83	130.42	46.31	-42.3	-52.9	3.5	3.02e+01	0	30	104	524288	60	22826
2026-01-05 15:45:56.85	131.03	46.13	-51.2	-68.4	3.5	3.02e+01	0	29	104	524288	60	136570
2026-01-05 15:45:57.86	131.62	45.95	-38.8	-48.9	3.5	3.02e+01	0	30	104	524288	58	16287
2026-01-05 15:45:58.87	132.21	45.77	-38.4	-48.6	3.5	3.02e+01	0	30	104	524288	58	15765
2026-01-05 15:45:59.88	132.79	45.58	-38.3	-48.6	3.5	3.02e+01	0	30	104	524288	56	17661
2026-01-05 15:46:00.89	133.37	45.40	-37.7	-47.9	3.5	3.02e+01	0	30	104	524288	56	16280
2026-01-05 15:46:01.90	133.93	45.21	-51.1	-67.8	3.5	3.02e+01	0	30	104	524288	60	127120
2026-01-05 15:46:02.91	134.49	45.01	-42.8	-53.4	3.5	3.02e+01	0	30	104	524288	60	24354
2026-01-05 15:46:03.92	135.05	44.82	-51.2	-68.3	3.6	3.02e+01	0	29	104	524288	60	135299
2026-01-05 15:46:04.93	135.60	44.62	-46.5	-58.1	3.5	3.02e+01	0	30	104	524288	60	41563
2026-01-05 15:46:05.94	136.14	44.43	-50.8	-66.9	3.5	3.02e+01	0	29	104	524288	60	114921
2026-01-05 15:46:06.96	136.68	44.23	-39.2	-49.5	3.5	3.02e+01	0	30	104	524288	58	17304
2026-01-05 15:46:07.97	137.20	44.02	-38.9	-49.1	3.5	3.02e+01	0	30	104	524288	58	16550
2026-01-05 15:46:08.98	137.72	43.82	-38.2	-48.5	3.5	3.02e+01	0	30	104	524288	56	17459
2026-01-05 15:46:09.99	138.24	43.62	-37.9	-48.0	3.5	3.02e+01	0	30	104	524288	56	16463
2026-01-05 15:46:11.00	138.75	43.41	-48.9	-61.8	3.5	3.02e+01	0	30	104	524288	60	63513
2026-01-05 15:46:12.01	139.25	43.21	-41.9	-52.3	3.5	3.02e+01	0	30	104	524288	60	21433
2026-01-05 15:46:13.02	139.74	43.00	-51.0	-67.6	3.5	3.02e+01	0	30	104	524288	60	124354
2026-01-05 15:46:14.03	140.23	42.79	-46.8	-58.3	3.5	3.02e+01	0	30	104	524288	60	42748
2026-01-05 15:46:15.04	140.71	42.58	-50.9	-67.1	3.5	3.02e+01	0	30	104	524288	60	117586
2026-01-05 15:46:16.06	141.19	42.37	-42.1	-52.5	3.5	3.02e+01	0	29	104	524288	60	21894
2026-01-05 15:46:17.07	141.66	42.16	-40.4	-50.7	3.5	3.02e+01	0	30	104	524288	60	17789
2026-01-05 15:46:18.08	142.12	41.95	-39.6	-50.0	3.5	3.02e+01	0	30	104	524288	60	16395
2026-01-05 15:46:19.09	142.58	41.73	-39.8	-50.1	3.5	3.02e+01	0	29	104	524288	60	16612
2026-01-05 15:46:20.10	143.03	41.52	-39.1	-49.5	3.5	3.02e+01	0	29	104	524288	58	17424
2026-01-05 15:46:21.11	143.48	41.31	-47.5	-59.4	3.5	3.02e+01	0	29	104	524288	60	48236
2026-01-05 15:46:22.12	143.92	41.09	-51.0	-67.9	3.5	3.02e+01	0	29	104	524288	60	128402
2026-01-05 15:46:23.13	144.35	40.88	-43.9	-54.8	3.5	3.02e+01	0	29	104	524288	60	28644
2026-01-05 15:46:24.14	144.78	40.66	-51.0	-67.4	3.5	3.02e+01	0	29	104	524288	60	121344
2026-01-05 15:46:25.15	145.20	40.45	-42.2	-52.9	3.5	3.02e+01	0	29	104	524288	60	22828
2026-01-05 15:46:26.16	145.62	40.23	-41.9	-52.4	3.5	3.02e+01	0	29	104	524288	60	21673
2026-01-05 15:46:27.17	146.03	40.02	-40.6	-51.0	3.5	3.02e+01	0	29	104	524288	60	18400
2026-01-05 15:46:28.19	146.44	39.80	-39.5	-49.6	3.6	3.02e+01	0	29	104	524288	60	15708
2026-01-05 15:46:29.20	146.84	39.58	-51.3	-68.7	3.5	3.02e+01	0	30	104	524288	60	140938
2026-01-05 15:46:30.21	147.23	39.36	-39.6	-49.9	3.5	3.02e+01	0	30	104	524288	60	16313
2026-01-05 15:46:31.22	147.62	39.15	-51.2	-67.8	3.5	3.02e+01	0	30	104	524288	60	127983
2026-01-05 15:46:32.23	148.00	38.93	-44.0	-54.6	3.5	3.02e+01	0	30	104	524288	60	27908
2026-01-05 15:46:33.24	148.38	38.71	-50.9	-67.1	3.5	3.02e+01	0	30	104	524288	60	117342
2026-01-05 15:46:34.25	148.76	38.50	-39.8	-50.3	3.5	3.02e+01	0	29	104	524288	60	16927
2026-01-05 15:46:35.26	149.13	38.28	-39.1	-49.3	3.5	3.02e+01	0	30	104	524288	58	17017
2026-01-05 15:46:36.28	149.49	38.06	-38.9	-49.4	3.5	3.02e+01	0	30	104	524288	58	17192
2026-01-05 15:46:37.29	149.85	37.85	-38.6	-48.5	3.5	3.02e+01	0	29	104	524288	58	15574
2026-01-05 15:46:38.30	150.21	37.63	-47.5	-59.5	3.4	3.02e+01	0	30	104	524288	60	49029
2026-01-05 15:46:39.31	150.56	37.42	-38.7	-48.9	3.5	3.02e+01	0	29	104	524288	60	14468
2026-01-05 15:46:40.32	150.90	37.20	-51.3	-68.7	3.5	3.02e+01	0	29	104	524288	60	141614
2026-01-05 15:46:41.33	151.24	36.99	-43.0	-45.0	23.5	3.02e+01	53	30	104	524288	60	9219
2026-01-05 15:46:42.34	151.58	36.77	-51.0	-61.9	4.6	3.02e+01	0	30	104	524288	60	64343
2026-01-05 15:46:43.35	151.91	36.56	-41.5	-43.0	25.6	3.02e+01	58	30	0	524288	60	7339
2026-01-05 15:46:44.36	152.24	36.35	-40.6	-42.0	26.4	3.02e+01	60	30	0	524288	60	6557
2026-01-05 15:46:45.37	152.56	36.13	-39.5	-40.8	27.6	3.02e+01	57	30	0	524288	60	5713
2026-01-05 15:46:46.38	152.88	35.92	-39.7	-41.1	27.3	3.02e+01	49	29	0	524288	60	5876
2026-01-05 15:46:47.40	153.20	35.71	-39.8	-41.1	27.3	3.02e+01	60	30	0	524288	60	5871
2026-01-05 15:46:48.41	153.51	35.50	-39.3	-40.5	27.6	3.02e+01	58	29	0	524288	58	6204
2026-01-05 15:46:49.42	153.82	35.29	-39.4	-40.7	27.9	3.02e+01	58	30	0	524288	58	6329
2026-01-05 15:46:50.43	154.12	35.08	-38.7	-40.0	28.1	3.02e+01	59	29	0	524288	58	5824
2026-01-05 15:46:51.44	154.42	34.87	-38.8	-40.0	28.1	3.02e+01	57	29	0	524288	58	5844
2026-01-05 15:46:52.45	154.71	34.66	-38.5	-39.7	28.4	3.02e+01	60	29	101	524288	58	5631
2026-01-05 15:46:53.46	155.01	34.45	-38.7	-40.0	28.3	3.02e+01	60	29	101	524288	56	6502
2026-01-05 15:46:54.47	155.29	34.24	-38.1	-39.4	28.8	3.02e+01	52	29	101	524288	56	6070
2026-01-05 15:46:55.48	155.58	34.04	-38.2	-39.4	28.8	3.02e+01	60	30	101	524288	56	6107
2026-01-05 15:46:56.50	155.86	33.83	-37.9	-39.1	29.1	3.02e+01	64	29	101	524288	56	5867
2026-01-05 15:46:57.51	156.14	33.62	-38.0	-39.2	29.1	3.02e+01	61	29	101	524288	56	5975
2026-01-05 15:46:58.52	156.41	33.42	-37.7	-38.9	29.3	3.02e+01	57	29	101	524288	56	5727
2026-01-05 15:46:59.53	156.68	33.22	-37.4	-38.6	29.5	3.02e+01	48	29	101	524288	56	5567
2026-01-05 15:47:00.54	156.95	33.01	-37.8	-39.0	29.1	3.02e+01	59	30	101	524288	56	5849
2026-01-05 15:47:01.55	157.21	32.81	-37.8	-39.0	29.2	3.02e+01	53	29	101	524288	56	5819
2026-01-05 15:47:02.56	157.47	32.61	-37.3	-38.5	29.5	3.02e+01	45	29	101	524288	54	6179
2026-01-05 15:47:03.57	157.73	32.41	-37.5	-38.7	29.3	3.02e+01	60	29	101	524288	54	6347
2026-01-05 15:47:04.58	157.98	32.21	-37.5	-38.7	29.2	3.02e+01	58	29	101	524288	54	6350
2026-01-05 15:47:05.59	158.23	32.01	-37.5	-38.7	29.3	3.02e+01	62	29	101	524288	54	6299
2026-01-05 15:47:06.61	158.48	31.81	-37.7	-39.0	29.2	3.02e+01	58	29	101	524288	54	6505
2026-01-05 15:47:07.62	158.72	31.62	-38.0	-39.3	28.9	3.02e+01	51	29	101	524288	54	6765
2026-01-05 15:47:08.63	158.97	31.42	-37.8	-39.0	29.0	3.02e+01	59	29	101	524288	54	6549
2026-01-05 15:47:09.64	159.20	31.22	-37.6	-38.8	29.3	3.02e+01	58	30	101	524288	54	6388
2026-01-05 15:47:10.65	159.44	31.03	-37.6	-38.8	29.2	3.02e+01	44	29	101	524288	54	6372
2026-01-05 15:47:11.66	159.67	30.84	-37.8	-39.1	29.0	3.02e+01	58	29	101	524288	54	6587
2026-01-05 15:47:12.67	159.90	30.64	-37.7	-38.9	29.1	3.02e+01	58	30	101	524288	54	6482
2026-01-05 15:47:13.68	160.13	30.45	-37.7	-38.9	29.1	3.02e+01	56	29	101	524288	54	6474
2026-01-05 15:47:14.69	160.35	30.26	-38.0	-39.2	28.8	3.02e+01	60	30	101	524288	54	6696
2026-01-05 15:47:15.71	160.58	30.07	-37.9	-39.1	28.9	3.02e+01	47	30	101	524288	54	6592
2026-01-05 15:47:16.72	160.80	29.88	-37.9	-39.2	29.0	3.02e+01	57	29	101	524288	54	6651
2026-01-05 15:47:17.73	161.01	29.69	-37.9	-39.1	29.0	3.02e+01	56	29	101	524288	54	6599
2026-01-05 15:47:18.74	161.23	29.50	-37.9	-39.1	29.0	3.02e+01	44	29	101	524288	54	6597
2026-01-05 15:47:19.75	161.44	29.32	-37.8	-39.0	29.2	3.02e+01	61	29	101	524288	54	6523
2026-01-05 15:47:20.76	161.65	29.13	-37.8	-39.0	29.2	3.02e+01	52	29	101	524288	54	6535
2026-01-05 15:47:21.77	161.85	28.95	-37.9	-39.1	29.0	3.02e+01	61	30	101	524288	54	6617
2026-01-05 15:47:22.78	162.06	28.76	-37.9	-39.1	28.9	3.02e+01	58	29	101	524288	54	6637
2026-01-05 15:47:23.79	162.26	28.58	-38.1	-39.3	28.9	3.02e+01	56	29	101	524288	54	6772
2026-01-05 15:47:24.81	162.46	28.40	-37.9	-39.1	29.0	3.02e+01	59	29	101	524288	54	6591
2026-01-05 15:47:25.82	162.66	28.22	-37.8	-39.1	29.1	3.02e+01	56	29	101	524288	54	6574
2026-01-05 15:47:26.83	162.86	28.04	-37.6	-38.8	29.2	3.02e+01	59	29	101	524288	54	6423
2026-01-05 15:47:27.84	163.05	27.86	-37.6	-38.8	29.3	3.02e+01	62	29	101	524288	54	6403
2026-01-05 15:47:28.85	163.24	27.68	-37.5	-38.7	29.3	3.02e+01	48	30	101	524288	54	6314
2026-01-05 15:47:29.86	163.43	27.50	-37.3	-38.4	29.6	3.02e+01	61	29	101	524288	54	6123
2026-01-05 15:47:30.87	163.61	27.33	-37.3	-38.4	29.6	3.02e+01	59	29	101	524288	54	6129
2026-01-05 15:47:31.88	163.80	27.15	-37.5	-38.7	29.3	3.02e+01	45	30	101	524288	54	6343
2026-01-05 15:47:32.89	163.98	26.98	-37.5	-38.7	29.4	3.02e+01	58	30	101	524288	54	6304
2026-01-05 15:47:33.91	164.16	26.80	-37.6	-38.8	29.1	3.02e+01	59	29	101	524288	54	6413
2026-01-05 15:47:34.92	164.34	26.63	-37.3	-38.5	29.5	3.02e+01	60	29	101	524288	54	6172
2026-01-05 15:47:35.93	164.52	26.46	-37.2	-38.3	29.6	3.02e+01	62	29	101	524288	54	6051
2026-01-05 15:47:36.94	164.69	26.29	-37.1	-38.2	29.6	3.02e+01	53	29	101	524288	54	5979
2026-01-05 15:47:37.95	164.87	26.12	-37.1	-38.2	29.8	3.02e+01	60	29	101	524288	54	5991
2026-01-05 15:47:38.96	165.04	25.95	-36.7	-37.9	30.1	3.02e+01	60	29	101	524288	54	5757
2026-01-05 15:47:39.97	165.21	25.78	-36.9	-38.0	29.9	3.02e+01	48	29	101	524288	54	5849
2026-01-05 15:47:40.98	165.37	25.61	-36.8	-37.9	30.0	3.02e+01	59	29	101	524288	54	5782
2026-01-05 15:47:41.99	165.54	25.45	-36.7	-37.9	29.9	3.02e+01	59	29	101	524288	54	5777
2026-01-05 15:47:43.01	165.70	25.28	-36.8	-38.0	29.8	3.02e+01	57	29	101	524288	54	5828
2026-01-05 15:47:44.02	165.86	25.11	-36.4	-37.6	30.0	3.02e+01	59	29	101	524288	54	5555
2026-01-05 15:47:45.03	166.03	24.95	-36.5	-37.7	30.1	3.02e+01	49	29	101	524288	54	5627
2026-01-05 15:47:46.04	166.18	24.79	-36.4	-37.6	30.2	3.02e+01	63	29	101	524288	54	5553
2026-01-05 15:47:47.05	166.34	24.63	-36.3	-37.4	30.2	3.02e+01	60	29	101	524288	52	6104
2026-01-05 15:47:48.06	166.50	24.47	-36.3	-37.5	30.2	3.02e+01	45	29	101	524288	52	6151
2026-01-05 15:47:49.07	166.65	24.30	-36.3	-37.4	30.2	3.02e+01	59	29	101	524288	52	6125
2026-01-05 15:47:50.08	166.80	24.15	-36.1	-37.2	30.4	3.02e+01	58	29	101	524288	52	5970
2026-01-05 15:47:51.09	166.95	23.99	-36.0	-37.1	30.5	3.02e+01	59	29	101	524288	52	5906
2026-01-05 15:47:52.11	167.10	23.83	-35.9	-37.0	30.5	3.02e+01	59	29	101	524288	52	5831
2026-01-05 15:47:53.12	167.25	23.67	-35.7	-36.8	30.7	3.02e+01	55	29	101	524288	52	5702
2026-01-05 15:47:54.13	167.40	23.52	-35.7	-36.8	30.5	3.02e+01	59	29	101	524288	52	5716
2026-01-05 15:47:55.14	167.54	23.36	-35.5	-36.7	30.9	3.02e+01	58	29	101	524288	52	5601
2026-01-05 15:47:56.15	167.68	23.21	-35.7	-36.8	30.8	3.02e+01	53	29	101	524288	52	5693
2026-01-05 15:47:57.16	167.83	23.05	-35.8	-37.0	30.6	3.02e+01	57	29	101	524288	52	5821
2026-01-05 15:47:58.17	167.97	22.90	-35.9	-37.0	30.6	3.02e+01	47	29	101	524288	52	5830
2026-01-05 15:47:59.18	168.11	22.75	-35.9	-37.1	30.6	3.02e+01	59	29	101	524288	52	5860
2026-01-05 15:48:00.19	168.24	22.60	-35.9	-37.0	30.6	3.02e+01	57	29	101	524288	52	5854
2026-01-05 15:48:01.20	168.38	22.45	-35.8	-37.0	30.7	3.02e+01	44	29	101	524288	52	5812
2026-01-05 15:48:02.21	168.51	22.30	-35.9	-37.1	30.5	3.02e+01	59	30	101	524288	52	5875
2026-01-05 15:48:03.23	168.65	22.15	-35.7	-36.9	30.5	3.02e+01	57	29	101	524288	52	5751
2026-01-05 15:48:04.24	168.78	22.00	-35.8	-36.9	30.6	3.02e+01	60	29	101	524288	52	5758
2026-01-05 15:48:05.25	168.91	21.85	-35.8	-37.0	30.6	3.02e+01	60	29	101	524288	52	5796
2026-01-05 15:48:06.26	169.04	21.71	-35.9	-37.0	30.6	3.02e+01	58	29	101	524288	52	5844
2026-01-05 15:48:07.27	169.17	21.56	-35.8	-37.0	30.5	3.02e+01	58	29	101	524288	52	5810
2026-01-05 15:48:08.28	169.30	21.42	-35.8	-36.9	30.6	3.02e+01	60	29	101	524288	52	5791
2026-01-05 15:48:09.29	169.42	21.27	-35.8	-36.9	30.7	3.02e+01	53	29	101	524288	52	5762
2026-01-05 15:48:10.31	169.55	21.13	-35.8	-37.0	30.6	3.02e+01	59	29	101	524288	52	5794
2026-01-05 15:48:11.32	169.67	20.98	-35.9	-37.0	30.6	3.02e+01	59	30	101	524288	52	5851
2026-01-05 15:48:12.33	169.80	20.84	-35.8	-37.0	30.6	3.02e+01	59	29	101	524288	52	5821
2026-01-05 15:48:13.34	169.92	20.70	-36.0	-37.2	30.5	3.02e+01	59	29	101	524288	52	5947
2026-01-05 15:48:14.35	170.04	20.56	-36.1	-37.3	30.3	3.02e+01	51	29	101	524288	52	6008
2026-01-05 15:48:15.36	170.16	20.42	-35.9	-37.1	30.5	3.02e+01	54	29	101	524288	52	5874
2026-01-05 15:48:16.37	170.28	20.28	-36.1	-37.3	30.4	3.02e+01	58	29	101	524288	52	6012
2026-01-05 15:48:17.38	170.39	20.15	-36.0	-37.2	30.5	3.02e+01	43	29	101	524288	52	5958
2026-01-05 15:48:18.39	170.51	20.01	-36.1	-37.3	30.4	3.02e+01	50	29	101	524288	52	6018
2026-01-05 15:48:19.40	170.63	19.87	-36.2	-37.4	30.3	3.02e+01	50	29	101	524288	52	6077
2026-01-05 15:48:20.42	170.74	19.74	-36.3	-37.5	30.2	3.02e+01	62	29	101	524288	52	6164
2026-01-05 15:48:21.43	170.85	19.60	-36.2	-37.3	30.3	3.02e+01	57	29	101	524288	52	6064
2026-01-05 15:48:22.44	170.97	19.47	-36.2	-37.4	30.3	3.02e+01	50	29	101	524288	52	6084
2026-01-05 15:48:23.45	171.08	19.33	-36.3	-37.5	30.3	3.02e+01	59	29	101	524288	52	6171
2026-01-05 15:48:24.46	171.19	19.20	-36.4	-37.6	30.3	3.02e+01	59	29	101	524288	52	6213
2026-01-05 15:48:25.47	171.30	19.07	-36.5	-37.7	29.9	3.02e+01	59	29	101	524288	52	6303
2026-01-05 15:48:26.48	171.40	18.93	-36.6	-37.7	30.0	3.02e+01	60	29	101	524288	52	6348
2026-01-05 15:48:27.49	171.51	18.80	-36.7	-37.9	30.0	3.02e+01	48	29	101	524288	52	6472
2026-01-05 15:48:28.51	171.62	18.67	-36.5	-37.7	30.1	3.02e+01	57	29	101	524288	52	6299
2026-01-05 15:48:29.52	171.72	18.54	-36.7	-37.8	30.0	3.02e+01	60	29	101	524288	52	6418
2026-01-05 15:48:30.53	171.83	18.41	-36.6	-37.8	29.9	3.02e+01	45	29	101	524288	52	6361
2026-01-05 15:48:31.54	171.93	18.29	-36.6	-37.8	29.9	3.02e+01	60	29	101	524288	52	6364
2026-01-05 15:48:32.55	172.03	18.16	-36.6	-37.7	29.9	3.02e+01	60	29	101	524288	52	6344
2026-01-05 15:48:33.56	172.14	18.03	-36.6	-37.8	29.9	3.02e+01	59	29	101	524288	52	6396
2026-01-05 15:48:34.57	172.24	17.90	-36.6	-37.8	30.0	3.02e+01	51	29	101	524288	52	6351
2026-01-05 15:48:35.58	172.34	17.78	-36.5	-37.7	30.0	3.02e+01	49	29	101	524288	52	6320
2026-01-05 15:48:36.60	172.44	17.65	-36.6	-37.8	30.0	3.02e+01	59	29	101	524288	52	6376
2026-01-05 15:48:37.61	172.53	17.53	-36.8	-37.9	29.9	3.02e+01	57	29	101	524288	52	6492
2026-01-05 15:48:38.62	172.63	17.40	-36.9	-38.1	29.7	3.02e+01	45	29	101	524288	52	6607
2026-01-05 15:48:39.63	172.73	17.28	-37.0	-38.1	29.6	3.02e+01	59	29	101	524288	52	6645
2026-01-05 15:48:40.64	172.82	17.16	-36.9	-38.1	29.7	3.02e+01	57	29	101	524288	52	6574
2026-01-05 15:48:41.65	172.92	17.04	-36.9	-38.1	29.7	3.02e+01	60	29	101	524288	52	6595
2026-01-05 15:48:42.66	173.01	16.91	-36.9	-38.1	29.7	3.02e+01	60	29	101	524288	52	6578
2026-01-05 15:48:43.67	173.11	16.79	-36.9	-38.1	29.8	3.02e+01	47	29	101	524288	52	6639
2026-01-05 15:48:44.68	173.20	16.67	-37.0	-38.2	29.5	3.02e+01	57	29	101	524288	52	6711
2026-01-05 15:48:45.70	173.29	16.55	-37.1	-38.3	29.6	3.02e+01	60	29	101	524288	52	6727
2026-01-05 15:48:46.71	173.38	16.43	-36.9	-38.1	29.7	3.02e+01	45	29	101	524288	52	6608
2026-01-05 15:48:47.72	173.48	16.31	-36.8	-38.0	29.8	3.02e+01	58	29	101	524288	52	6500
2026-01-05 15:48:48.73	173.57	16.20	-37.0	-38.1	29.6	3.02e+01	60	29	101	524288	52	6644
2026-01-05 15:48:49.74	173.65	16.08	-36.7	-37.9	29.9	3.02e+01	57	29	101	524288	52	6439
2026-01-05 15:48:50.75	173.74	15.96	-36.8	-37.9	29.9	3.02e+01	61	29	101	524288	52	6492
2026-01-05 15:48:51.76	173.83	15.85	-36.7	-37.9	29.8	3.02e+01	53	29	101	524288	52	6451
2026-01-05 15:48:52.77	173.92	15.73	-36.8	-38.0	29.9	3.02e+01	61	29	101	524288	52	6553
2026-01-05 15:48:53.78	174.00	15.61	-36.9	-38.1	29.8	3.02e+01	54	29	101	524288	52	6579
2026-01-05 15:48:54.80	174.09	15.50	-36.8	-38.0	29.8	3.02e+01	59	29	101	524288	52	6544
2026-01-05 15:48:55.81	174.18	15.38	-36.9	-38.1	29.7	3.02e+01	59	29	101	524288	52	6595
2026-01-05 15:48:56.82	174.26	15.27	-36.8	-38.0	29.8	3.02e+01	44	29	101	524288	52	6541
2026-01-05 15:48:57.83	174.34	15.16	-37.0	-38.2	29.7	3.02e+01	58	29	101	524288	52	6650
2026-01-05 15:48:58.84	174.43	15.05	-36.9	-38.1	29.7	3.02e+01	60	29	101	524288	52	6584
2026-01-05 15:48:59.85	174.51	14.93	-36.8	-37.9	29.8	3.02e+01	45	29	101	524288	52	6497
2026-01-05 15:49:00.86	174.59	14.82	-36.9	-38.1	29.7	3.02e+01	59	29	101	524288	52	6576
2026-01-05 15:49:01.87	174.67	14.71	-36.6	-37.8	29.9	3.02e+01	61	29	101	524288	52	6397
2026-01-05 15:49:02.88	174.75	14.60	-36.8	-38.0	29.8	3.02e+01	61	29	101	524288	52	6513
2026-01-05 15:49:03.89	174.83	14.49	-36.6	-37.8	29.9	3.02e+01	58	29	101	524288	52	6395
2026-01-05 15:49:04.90	174.91	14.38	-36.8	-38.0	29.8	3.02e+01	53	29	101	524288	52	6519
2026-01-05 15:49:05.91	174.99	14.27	-36.8	-38.0	29.8	3.02e+01	59	29	101	524288	52	6520
2026-01-05 15:49:06.92	175.07	14.16	-36.8	-38.0	29.7	3.02e+01	59	29	101	524288	52	6537
2026-01-05 15:49:07.94	175.15	14.06	-36.9	-38.1	29.7	3.02e+01	45	29	101	524288	52	6590
2026-01-05 15:49:08.95	175.23	13.95	-36.6	-37.8	29.9	3.02e+01	58	29	101	524288	52	6382
2026-01-05 15:49:09.96	175.30	13.84	-36.7	-37.8	29.8	3.02e+01	60	29	101	524288	52	6416
2026-01-05 15:49:10.97	175.38	13.73	-36.6	-37.8	29.9	3.02e+01	57	29	101	524288	52	6357
2026-01-05 15:49:11.98	175.45	13.63	-36.6	-37.7	29.9	3.02e+01	60	29	101	524288	52	6346
2026-01-05 15:49:12.99	175.53	13.52	-36.7	-37.9	29.9	3.02e+01	43	29	101	524288	52	6472
2026-01-05 15:49:14.00	175.60	13.42	-36.5	-37.6	30.0	3.02e+01	57	29	101	524288	52	6259
2026-01-05 15:49:15.01	175.68	13.31	-36.5	-37.7	30.0	3.02e+01	60	29	101	524288	52	6303
2026-01-05 15:49:16.02	175.75	13.21	-36.4	-37.6	30.1	3.02e+01	46	29	101	524288	52	6214
2026-01-05 15:49:17.03	175.82	13.10	-36.5	-37.6	30.0	3.02e+01	58	29	101	524288	52	6276
2026-01-05 15:49:18.05	175.90	13.00	-36.5	-37.7	30.0	3.02e+01	62	29	101	524288	52	6318
2026-01-05 15:49:19.06	175.97	12.90	-36.5	-37.6	30.1	3.02e+01	58	29	101	524288	52	6260
2026-01-05 15:49:20.07	176.04	12.80	-36.5	-37.7	30.0	3.02e+01	59	29	101	524288	52	6309
2026-01-05 15:49:21.08	176.11	12.69	-36.6	-37.8	30.0	3.02e+01	54	29	101	524288	52	6360
2026-01-05 15:49:22.09	176.18	12.59	-36.6	-37.8	29.9	3.02e+01	60	29	101	524288	52	6370
2026-01-05 15:49:23.10	176.25	12.49	-36.5	-37.7	30.0	3.02e+01	60	29	101	524288	52	6327
2026-01-05 15:49:24.11	176.32	12.39	-36.6	-37.7	29.9	3.02e+01	59	29	101	524288	52	6348
2026-01-05 15:49:25.12	176.39	12.29	-36.7	-37.9	29.9	3.02e+01	59	29	101	524288	52	6448
2026-01-05 15:49:26.13	176.46	12.19	-36.6	-37.8	30.0	3.02e+01	46	29	101	524288	52	6355
2026-01-05 15:49:27.15	176.52	12.09	-36.7	-37.9	29.9	3.02e+01	58	29	101	524288	52	6482
2026-01-05 15:49:28.16	176.59	11.99	-36.7	-37.9	29.8	3.02e+01	60	29	101	524288	52	6433
2026-01-05 15:49:29.17	176.66	11.89	-36.8	-38.0	29.7	3.02e+01	45	29	101	524288	52	6519
2026-01-05 15:49:30.18	176.72	11.79	-36.7	-37.9	29.7	3.02e+01	59	29	101	524288	52	6493
2026-01-05 15:49:31.19	176.79	11.70	-36.9	-38.1	29.6	3.02e+01	60	29	101	524288	52	6623
2026-01-05 15:49:32.20	176.86	11.60	-36.8	-38.0	29.7	3.02e+01	58	29	101	524288	52	6515
2026-01-05 15:49:33.21	176.92	11.50	-37.0	-38.2	29.5	3.02e+01	56	29	101	524288	52	6680
2026-01-05 15:49:34.22	176.99	11.41	-37.0	-38.2	29.4	3.02e+01	59	29	101	524288	52	6708
2026-01-05 15:49:35.23	177.05	11.31	-36.6	-37.8	29.8	3.02e+01	59	29	101	524288	52	6412
2026-01-05 15:49:36.25	177.11	11.21	-36.7	-37.9	29.7	3.02e+01	58	29	101	524288	52	6484
2026-01-05 15:49:37.26	177.18	11.12	-36.6	-37.8	29.8	3.02e+01	53	29	101	524288	52	6399
2026-01-05 15:49:38.27	177.24	11.02	-36.8	-38.0	29.6	3.02e+01	58	29	101	524288	52	6547
2026-01-05 15:49:39.28	177.30	10.93	-36.5	-37.7	29.9	3.02e+01	63	29	101	524288	52	6289
2026-01-05 15:49:40.29	177.37	10.83	-36.7	-37.9	29.8	3.02e+01	60	29	101	524288	52	6454
2026-01-05 15:49:41.30	177.43	10.74	-36.5	-37.7	29.9	3.02e+01	61	29	101	524288	52	6285
2026-01-05 15:49:42.31	177.49	10.65	-36.5	-37.7	29.8	3.02e+01	48	29	101	524288	52	6279
2026-01-05 15:49:43.32	177.55	10.55	-36.5	-37.7	29.9	3.02e+01	63	29	101	524288	52	6304
2026-01-05 15:49:44.33	177.61	10.46	-36.6	-37.8	29.8	3.02e+01	60	29	101	524288	52	6377
2026-01-05 15:49:45.35	177.67	10.37	-36.6	-37.7	29.9	3.02e+01	45	29	101	524288	52	6337
2026-01-05 15:49:46.36	177.73	10.28	-36.5	-37.7	29.9	3.02e+01	58	29	101	524288	52	6323
2026-01-05 15:49:47.37	177.79	10.18	-36.6	-37.7	29.8	3.02e+01	61	29	101	524288	52	6346
2026-01-05 15:49:48.38	177.85	10.09	-36.7	-37.8	29.7	3.02e+01	61	29	101	524288	52	6423
2026-01-05 15:49:49.39	177.91	10.00	-36.6	-37.8	29.7	3.02e+01	58	29	101	524288	52	6401
2026-01-05 15:49:50.40	177.97	9.91	-36.7	-37.9	29.7	3.02e+01	50	29	101	524288	52	6431
2026-01-05 15:49:51.41	178.03	9.82	-36.7	-37.9	29.6	3.02e+01	58	29	101	524288	52	6473
2026-01-05 15:49:52.42	178.08	9.73	-36.7	-37.9	29.7	3.02e+01	59	29	101	524288	52	6451
2026-01-05 15:49:53.44	178.14	9.64	-36.6	-37.8	29.8	3.02e+01	46	29	101	524288	52	6383
2026-01-05 15:49:54.45	178.20	9.55	-36.7	-37.9	29.6	3.02e+01	58	29	101	524288	52	6453
2026-01-05 15:49:55.46	178.25	9.46	-36.7	-37.9	29.7	3.02e+01	44	29	101	524288	52	6478
2026-01-05 15:49:56.47	178.31	9.37	-36.7	-37.9	29.7	3.02e+01	60	29	101	524288	52	6450
2026-01-05 15:49:57.48	178.37	9.29	-36.8	-38.0	29.5	3.02e+01	59	29	101	524288	52	6557
2026-01-05 15:49:58.49	178.42	9.20	-36.7	-37.9	29.7	3.02e+01	47	29	101	524288	52	6451
2026-01-05 15:49:59.50	178.48	9.11	-36.8	-38.0	29.6	3.02e+01	59	29	101	524288	52	6531
2026-01-05 15:50:00.52	178.53	9.02	-36.9	-38.1	29.4	3.02e+01	62	29	101	524288	52	6631
2026-01-05 15:50:01.53	178.59	8.93	-36.7	-37.9	29.6	3.02e+01	57	29	101	524288	52	6462
2026-01-05 15:50:02.54	178.64	8.85	-36.9	-38.1	29.4	3.02e+01	60	30	101	524288	52	6638
2026-01-05 15:50:03.55	178.69	8.76	-36.7	-37.9	29.6	3.02e+01	58	30	101	524288	52	6455
2026-01-05 15:50:04.56	178.75	8.68	-36.8	-38.0	29.5	3.02e+01	59	29	101	524288	52	6544
2026-01-05 15:50:05.57	178.80	8.59	-36.7	-37.9	29.6	3.02e+01	59	29	101	524288	52	6463
2026-01-05 15:50:06.58	178.85	8.50	-36.8	-38.0	29.6	3.02e+01	48	29	101	524288	52	6538
2026-01-05 15:50:07.59	178.91	8.42	-36.8	-38.0	29.6	3.02e+01	59	29	101	524288	52	6518
2026-01-05 15:50:08.60	178.96	8.33	-36.8	-38.0	29.6	3.02e+01	59	29	101	524288	52	6527
2026-01-05 15:50:09.61	179.01	8.25	-36.8	-37.9	29.6	3.02e+01	57	29	101	524288	52	6493
