passes_logs/2026/01/05/R4.6S_Anadyr_2ch/R4.6S_Anadyr_2ch__20260105_212609_TY-42_rec.log

#Pass ID: 20260105_212609_TY-42
#Satellite: TY-42
#Configuration: TY-42_900M
#almurnet v.1.7.20251203
#Start time: 2026-01-05 21:26:41

#Version: 2.2.20231116
#Station: R4.6S_Anadyr_2ch
#Location: 177.4865 lon 64.73178 lat
#TLE: 1 64048U 25103A   25351.20653935  .00008008  00000-0  38191-3 0 09993
#TLE: 2 64048 097.4116 062.1676 0001744 093.8066 035.1511 15.19160500 32445

#Time	Az	El	Level	Level2	SNR	BER	BlckErr	Temp	State	Recorded	gain1	gain2
2026-01-05 21:26:41.26	28.13	1.62	-51.0	-66.1	3.5	1.51e+00	0	29	0	0	60	98595
2026-01-05 21:26:42.27	28.25	1.67	-51.2	-53.7	6.1	0.00e+00	0	31	104	0	60	80954
2026-01-05 21:26:43.28	28.37	1.72	-51.2	-53.7	6.1	0.00e+00	0	31	104	0	60	81034
2026-01-05 21:26:44.29	28.49	1.77	-51.2	-53.7	6.1	0.00e+00	0	31	104	0	60	80851
2026-01-05 21:26:45.30	28.62	1.82	-51.2	-53.7	6.1	0.00e+00	0	31	104	0	60	81361
2026-01-05 21:26:46.31	28.74	1.87	-51.2	-53.7	6.1	0.00e+00	0	31	104	0	60	80579
2026-01-05 21:26:47.32	28.86	1.93	-51.1	-53.7	6.1	0.00e+00	0	31	104	0	60	80876
2026-01-05 21:26:48.33	28.99	1.98	-51.2	-53.7	6.1	0.00e+00	0	31	104	0	60	80601
2026-01-05 21:26:49.35	29.11	2.03	-51.1	-53.7	6.1	0.00e+00	0	31	104	0	60	80593
2026-01-05 21:26:50.36	29.24	2.08	-51.1	-53.7	6.1	0.00e+00	0	31	104	0	60	80690
2026-01-05 21:26:51.37	29.36	2.13	-51.1	-53.6	6.1	0.00e+00	0	31	104	0	60	79986
2026-01-05 21:26:52.38	29.49	2.18	-51.1	-53.6	6.1	0.00e+00	0	31	104	0	60	80351
2026-01-05 21:26:53.39	29.61	2.24	-51.1	-53.6	6.1	0.00e+00	0	31	104	0	60	79917
2026-01-05 21:26:54.40	29.74	2.29	-51.2	-53.7	6.1	0.00e+00	0	31	104	0	60	80833
2026-01-05 21:26:55.41	29.87	2.34	-51.2	-53.7	6.1	0.00e+00	0	31	104	0	60	80528
2026-01-05 21:26:56.42	29.99	2.39	-51.2	-53.6	6.1	0.00e+00	0	31	104	0	60	80380
2026-01-05 21:26:57.44	30.12	2.44	-51.2	-53.6	6.1	0.00e+00	0	31	104	0	60	80173
2026-01-05 21:26:58.45	30.25	2.50	-51.2	-53.7	6.1	0.00e+00	0	31	104	0	60	80730
2026-01-05 21:26:59.46	30.38	2.55	-51.2	-53.7	6.1	0.00e+00	0	31	104	0	60	80922
2026-01-05 21:27:00.47	30.51	2.60	-51.2	-53.7	6.1	0.00e+00	0	31	104	0	60	80898
2026-01-05 21:27:01.48	30.64	2.65	-51.2	-53.7	6.1	0.00e+00	0	31	104	0	60	80781
2026-01-05 21:27:02.49	30.77	2.70	-51.2	-53.7	6.1	0.00e+00	0	31	104	0	60	80555
2026-01-05 21:27:03.50	30.91	2.76	-51.2	-53.6	6.1	0.00e+00	0	31	104	0	60	80405
2026-01-05 21:27:04.51	31.04	2.81	-51.2	-53.7	6.1	0.00e+00	0	31	104	0	60	80704
2026-01-05 21:27:05.52	31.17	2.86	-51.2	-53.7	6.1	0.00e+00	0	31	104	0	60	81025
2026-01-05 21:27:06.54	31.31	2.91	-51.2	-53.7	6.1	0.00e+00	0	31	104	0	60	81021
2026-01-05 21:27:07.55	31.44	2.97	-51.1	-53.6	6.1	0.00e+00	0	31	104	0	60	80317
2026-01-05 21:27:08.56	31.57	3.02	-51.1	-53.6	6.1	0.00e+00	0	31	104	0	60	80166
2026-01-05 21:27:09.57	31.71	3.07	-51.2	-53.7	6.1	0.00e+00	0	31	104	0	60	80977
2026-01-05 21:27:10.58	31.85	3.12	-51.2	-53.7	6.1	0.00e+00	0	31	104	0	60	80917
2026-01-05 21:27:11.59	31.98	3.18	-51.2	-53.7	6.1	0.00e+00	0	31	104	0	60	80979
2026-01-05 21:27:12.60	32.12	3.23	-51.2	-53.7	6.1	0.00e+00	0	31	104	0	60	80706
2026-01-05 21:27:13.61	32.26	3.28	-51.2	-53.7	6.1	0.00e+00	0	31	104	0	60	80548
2026-01-05 21:27:14.62	32.40	3.33	-51.2	-53.7	6.1	0.00e+00	0	32	104	0	60	80943
2026-01-05 21:27:15.64	32.54	3.38	-51.2	-53.7	6.1	0.00e+00	0	31	104	0	60	80839
2026-01-05 21:27:16.65	32.68	3.44	-51.2	-53.6	6.1	0.00e+00	0	32	104	0	60	80356
2026-01-05 21:27:17.66	32.82	3.49	-51.1	-53.6	6.1	0.00e+00	0	31	104	0	60	80329
2026-01-05 21:27:18.67	32.96	3.54	-51.1	-53.7	6.1	0.00e+00	0	31	104	0	60	80585
2026-01-05 21:27:19.68	33.10	3.59	-51.1	-53.6	6.1	0.00e+00	0	31	104	0	60	80371
2026-01-05 21:27:20.69	33.24	3.65	-51.2	-53.7	6.1	0.00e+00	0	32	104	0	60	80799
2026-01-05 21:27:21.70	33.38	3.70	-51.2	-53.7	6.1	0.00e+00	0	31	104	0	60	80993
2026-01-05 21:27:22.71	33.52	3.75	-51.2	-53.7	6.1	0.00e+00	0	32	104	0	60	80562
2026-01-05 21:27:23.72	33.67	3.80	-51.2	-53.7	6.1	0.00e+00	0	32	104	0	60	80748
2026-01-05 21:27:24.74	33.81	3.86	-51.2	-53.7	6.1	0.00e+00	0	32	104	0	60	80697
2026-01-05 21:27:25.75	33.96	3.91	-51.2	-53.7	6.1	0.00e+00	0	32	104	0	60	80531
2026-01-05 21:27:26.76	34.11	3.96	-51.2	-53.7	6.1	0.00e+00	0	32	104	0	60	81125
2026-01-05 21:27:27.77	34.25	4.01	-51.2	-53.7	6.1	0.00e+00	0	32	104	0	60	81016
2026-01-05 21:27:28.78	34.40	4.07	-51.2	-53.7	6.1	0.00e+00	0	32	104	0	60	81129
2026-01-05 21:27:29.79	34.55	4.12	-51.1	-53.6	6.1	0.00e+00	0	32	104	0	60	80100
2026-01-05 21:27:30.80	34.69	4.17	-51.2	-53.7	6.1	0.00e+00	0	32	104	0	60	81182
2026-01-05 21:27:31.81	34.84	4.22	-51.2	-53.7	6.1	0.00e+00	0	32	104	0	60	80773
2026-01-05 21:27:32.82	34.99	4.28	-51.2	-53.7	6.1	0.00e+00	0	32	104	0	60	80795
2026-01-05 21:27:33.84	35.15	4.33	-51.1	-53.6	6.1	0.00e+00	0	32	104	0	60	80364
2026-01-05 21:27:34.85	35.30	4.38	-51.1	-53.7	6.1	0.00e+00	0	32	104	0	60	80476
2026-01-05 21:27:35.86	35.45	4.44	-51.1	-53.6	6.1	0.00e+00	0	32	104	0	60	80439
2026-01-05 21:27:36.87	35.60	4.49	-51.2	-53.6	6.1	0.00e+00	0	32	104	0	60	80250
2026-01-05 21:27:37.88	35.75	4.54	-51.2	-53.7	6.1	0.00e+00	0	32	104	0	60	80861
2026-01-05 21:27:38.89	35.91	4.59	-51.2	-53.6	6.1	0.00e+00	0	32	104	0	60	80185
2026-01-05 21:27:39.90	36.06	4.65	-51.2	-53.7	6.1	0.00e+00	0	32	104	0	60	80957
2026-01-05 21:27:40.91	36.22	4.70	-51.2	-53.7	6.1	0.00e+00	0	32	104	0	60	80765
2026-01-05 21:27:41.92	36.37	4.75	-51.2	-53.7	6.1	0.00e+00	0	32	104	0	60	80981
2026-01-05 21:27:42.94	36.53	4.80	-51.2	-53.6	6.1	0.00e+00	0	32	104	0	60	80352
2026-01-05 21:27:43.95	36.69	4.86	-51.2	-53.7	6.1	0.00e+00	0	32	104	0	60	81273
2026-01-05 21:27:44.96	36.84	4.91	-51.3	-53.7	6.1	0.00e+00	0	32	104	0	60	81178
2026-01-05 21:27:45.97	37.00	4.96	-51.2	-53.7	6.1	0.00e+00	0	32	104	0	60	80906
2026-01-05 21:27:46.98	37.16	5.01	-51.2	-53.7	6.1	0.00e+00	0	32	104	0	60	80718
2026-01-05 21:27:47.99	37.32	5.07	-51.2	-53.6	6.1	0.00e+00	0	32	104	0	60	80423
2026-01-05 21:27:49.00	37.48	5.12	-51.2	-53.6	6.1	0.00e+00	0	32	104	0	60	80355
2026-01-05 21:27:50.01	37.64	5.17	-51.1	-53.6	6.1	0.00e+00	0	32	104	0	60	80305
2026-01-05 21:27:51.03	37.81	5.22	-51.1	-53.6	6.0	0.00e+00	0	32	104	0	60	79958
2026-01-05 21:27:52.04	37.97	5.28	-51.1	-53.6	6.1	0.00e+00	0	32	104	0	60	80444
2026-01-05 21:27:53.05	38.13	5.33	-51.1	-53.6	6.1	0.00e+00	0	32	104	0	60	80426
2026-01-05 21:27:54.06	38.30	5.38	-51.2	-53.7	6.1	0.00e+00	0	32	104	0	60	80881
2026-01-05 21:27:55.07	38.46	5.43	-51.2	-53.6	6.1	0.00e+00	0	32	104	0	60	80213
2026-01-05 21:27:56.08	38.63	5.48	-51.2	-53.6	6.1	0.00e+00	0	32	104	0	60	80283
2026-01-05 21:27:57.09	38.79	5.54	-51.2	-53.7	6.1	0.00e+00	0	32	104	0	60	80622
2026-01-05 21:27:58.10	38.96	5.59	-51.2	-53.7	6.1	0.00e+00	0	32	104	0	60	80564
2026-01-05 21:27:59.11	39.13	5.64	-51.2	-53.7	6.1	0.00e+00	0	32	104	0	60	80655
2026-01-05 21:28:00.12	39.30	5.69	-51.2	-53.7	6.1	0.00e+00	0	32	104	0	60	81116
2026-01-05 21:28:01.13	39.47	5.74	-51.2	-53.6	6.1	0.00e+00	0	32	104	0	60	80354
2026-01-05 21:28:02.14	39.64	5.80	-51.2	-53.6	6.1	0.00e+00	0	32	104	0	60	80354
2026-01-05 21:28:03.15	39.81	5.85	-51.2	-53.7	6.1	0.00e+00	0	32	104	0	60	80937
2026-01-05 21:28:04.17	39.98	5.90	-51.2	-53.7	6.1	0.00e+00	0	32	104	0	60	80855
2026-01-05 21:28:05.18	40.15	5.95	-51.2	-53.7	6.1	0.00e+00	0	32	104	0	60	80800
2026-01-05 21:28:06.19	40.32	6.00	-51.2	-53.6	6.1	0.00e+00	0	32	104	0	60	80363
2026-01-05 21:28:07.20	40.50	6.06	-51.2	-53.7	6.1	0.00e+00	0	32	104	0	60	80893
2026-01-05 21:28:08.21	40.67	6.11	-51.2	-53.6	6.1	0.00e+00	0	32	104	0	60	80408
2026-01-05 21:28:09.22	40.85	6.16	-51.2	-53.6	6.1	0.00e+00	0	32	104	0	60	80405
2026-01-05 21:28:10.23	41.02	6.21	-51.2	-53.6	6.1	0.00e+00	0	33	104	0	60	80361
2026-01-05 21:28:11.24	41.20	6.26	-51.2	-53.7	6.1	0.00e+00	0	32	104	0	60	80779
2026-01-05 21:28:12.25	41.38	6.31	-51.2	-53.7	6.1	0.00e+00	0	32	104	0	60	81206
2026-01-05 21:28:13.26	41.56	6.37	-51.2	-53.7	6.1	0.00e+00	0	32	104	0	60	80870
2026-01-05 21:28:14.27	41.73	6.42	-51.2	-53.7	6.1	0.00e+00	0	33	104	0	60	80641
2026-01-05 21:28:15.29	41.92	6.47	-51.2	-53.6	6.1	0.00e+00	0	33	104	0	60	80282
2026-01-05 21:28:16.30	42.10	6.52	-51.2	-53.7	6.1	0.00e+00	0	33	104	0	60	80773
2026-01-05 21:28:17.31	42.28	6.57	-51.1	-53.7	6.1	0.00e+00	0	33	104	0	60	80619
2026-01-05 21:28:18.32	42.46	6.62	-51.2	-53.6	6.1	0.00e+00	0	33	104	0	60	79936
2026-01-05 21:28:19.33	42.64	6.67	-51.2	-53.6	6.1	0.00e+00	0	32	104	0	60	80391
2026-01-05 21:28:20.34	42.83	6.72	-51.1	-53.7	6.1	0.00e+00	0	33	104	0	60	80553
2026-01-05 21:28:21.35	43.01	6.77	-51.1	-53.6	6.1	0.00e+00	0	33	104	0	60	80311
2026-01-05 21:28:22.36	43.20	6.83	-51.2	-53.7	6.1	0.00e+00	0	33	104	0	60	80476
2026-01-05 21:28:23.38	43.38	6.88	-51.2	-53.7	6.1	0.00e+00	0	33	104	0	60	81029
2026-01-05 21:28:24.39	43.57	6.93	-51.2	-53.7	6.1	0.00e+00	0	33	104	0	60	80567
2026-01-05 21:28:25.40	43.76	6.98	-51.2	-53.6	6.1	0.00e+00	0	33	104	0	60	80451
2026-01-05 21:28:26.41	43.95	7.03	-51.1	-53.7	6.1	0.00e+00	0	33	104	0	60	80578
2026-01-05 21:28:27.42	44.14	7.08	-51.2	-53.7	6.1	0.00e+00	0	33	104	0	60	80722
2026-01-05 21:28:28.43	44.32	7.13	-51.2	-53.7	6.1	0.00e+00	0	33	104	0	60	80618
2026-01-05 21:28:29.45	44.52	7.18	-51.2	-53.7	6.1	0.00e+00	0	33	104	0	60	80722
2026-01-05 21:28:30.46	44.71	7.23	-51.2	-53.7	6.1	0.00e+00	0	33	104	0	60	80901
2026-01-05 21:28:31.47	44.90	7.28	-51.2	-53.7	6.1	0.00e+00	0	33	104	0	60	81348
2026-01-05 21:28:32.48	45.09	7.33	-51.2	-53.7	6.1	0.00e+00	0	33	104	0	60	80679
2026-01-05 21:28:33.49	45.29	7.38	-51.2	-53.7	6.0	0.00e+00	0	33	104	0	60	80886
2026-01-05 21:28:34.50	45.48	7.43	-51.2	-53.7	6.1	0.00e+00	0	33	104	0	60	80516
2026-01-05 21:28:35.51	45.68	7.48	-51.2	-53.7	6.1	0.00e+00	0	33	104	0	60	80783
2026-01-05 21:28:36.52	45.88	7.53	-51.2	-53.7	6.1	0.00e+00	0	33	104	0	60	80613
2026-01-05 21:28:37.54	46.07	7.58	-51.2	-53.7	6.1	0.00e+00	0	33	104	0	60	80872
2026-01-05 21:28:38.55	46.27	7.63	-51.3	-53.7	6.1	0.00e+00	0	33	104	0	60	81245
2026-01-05 21:28:39.56	46.47	7.67	-51.2	-53.7	6.1	0.00e+00	0	33	104	0	60	80569
2026-01-05 21:28:40.57	46.67	7.72	-51.2	-53.7	6.1	0.00e+00	0	33	104	0	60	80772
2026-01-05 21:28:41.58	46.87	7.77	-51.2	-53.7	6.1	0.00e+00	0	33	104	0	60	80640
2026-01-05 21:28:42.59	47.07	7.82	-51.2	-53.7	6.1	0.00e+00	0	33	104	0	60	80879
2026-01-05 21:28:43.60	47.27	7.87	-51.2	-53.7	6.1	0.00e+00	0	33	104	0	60	81174
2026-01-05 21:28:44.61	47.48	7.92	-51.2	-53.7	6.1	0.00e+00	0	33	104	0	60	80807
2026-01-05 21:28:45.62	47.68	7.97	-51.3	-53.8	6.1	0.00e+00	0	33	104	0	60	81425
2026-01-05 21:28:46.64	47.89	8.01	-51.2	-53.7	6.1	0.00e+00	0	33	104	0	60	80849
2026-01-05 21:28:47.65	48.09	8.06	-51.2	-53.7	6.1	0.00e+00	0	33	104	0	60	80756
2026-01-05 21:28:48.66	48.30	8.11	-51.2	-53.7	6.1	0.00e+00	0	33	104	0	60	80675
2026-01-05 21:28:49.67	48.51	8.16	-51.1	-53.6	6.1	0.00e+00	0	33	104	0	60	80287
2026-01-05 21:28:50.68	48.71	8.20	-51.2	-53.7	6.1	0.00e+00	0	33	104	0	60	81098
2026-01-05 21:28:51.69	48.92	8.25	-51.2	-53.6	6.1	0.00e+00	0	33	104	0	60	80378
2026-01-05 21:28:52.70	49.13	8.30	-51.2	-53.7	6.1	0.00e+00	0	33	104	0	60	80902
2026-01-05 21:28:53.71	49.34	8.35	-51.2	-53.7	6.1	0.00e+00	0	33	104	0	60	80539
2026-01-05 21:28:54.72	49.55	8.39	-51.2	-53.7	6.1	0.00e+00	0	33	104	0	60	80520
2026-01-05 21:28:55.73	49.76	8.44	-51.1	-53.7	6.1	0.00e+00	0	33	104	0	60	80483
2026-01-05 21:28:56.74	49.98	8.49	-51.2	-53.8	6.1	0.00e+00	0	33	104	0	60	81435
2026-01-05 21:28:57.76	50.19	8.53	-51.3	-53.7	6.1	0.00e+00	0	33	104	0	60	80952
2026-01-05 21:28:58.77	50.41	8.58	-50.9	-53.4	6.1	0.00e+00	0	33	104	0	60	78282
2026-01-05 21:28:59.78	50.62	8.62	-51.2	-53.7	6.1	0.00e+00	0	33	104	0	60	80701
2026-01-05 21:29:00.79	50.84	8.67	-51.3	-53.8	6.1	0.00e+00	0	33	104	0	60	81427
2026-01-05 21:29:01.80	51.05	8.72	-51.3	-53.8	6.1	0.00e+00	0	33	104	0	60	81754
2026-01-05 21:29:02.81	51.27	8.76	-50.9	-53.5	6.1	0.00e+00	0	33	104	0	60	78731
2026-01-05 21:29:03.82	51.49	8.81	-51.0	-53.4	6.1	0.00e+00	0	33	104	0	60	78555
2026-01-05 21:29:04.83	51.71	8.85	-51.1	-53.6	6.1	0.00e+00	0	33	104	0	60	80137
2026-01-05 21:29:05.85	51.93	8.90	-51.1	-53.6	6.1	0.00e+00	0	33	104	0	60	80109
2026-01-05 21:29:06.86	52.15	8.94	-51.0	-53.6	6.1	0.00e+00	0	33	104	0	60	79648
2026-01-05 21:29:07.87	52.37	8.98	-51.0	-53.5	6.1	0.00e+00	0	33	104	0	60	78752
2026-01-05 21:29:08.88	52.60	9.03	-50.7	-53.2	6.1	0.00e+00	0	33	104	0	60	76716
2026-01-05 21:29:09.89	52.82	9.07	-50.2	-52.8	6.1	0.00e+00	0	33	104	0	60	73374
2026-01-05 21:29:10.90	53.04	9.12	-50.2	-52.7	6.1	0.00e+00	0	33	104	0	60	72460
2026-01-05 21:29:11.91	53.27	9.16	-49.5	-52.1	6.1	0.00e+00	0	33	104	0	60	67263
2026-01-05 21:29:12.92	53.50	9.20	-49.3	-51.9	6.1	0.00e+00	0	33	104	0	60	65476
2026-01-05 21:29:13.94	53.72	9.25	-49.3	-51.8	6.1	0.00e+00	0	33	104	0	60	65284
2026-01-05 21:29:14.95	53.95	9.29	-49.3	-51.9	6.1	0.00e+00	0	33	104	0	60	65460
2026-01-05 21:29:15.96	54.18	9.33	-49.3	-51.8	6.1	0.00e+00	0	33	104	0	60	65259
2026-01-05 21:29:16.97	54.41	9.37	-49.3	-51.8	6.1	0.00e+00	0	33	104	0	60	65171
2026-01-05 21:29:17.98	54.64	9.41	-49.3	-51.8	6.1	0.00e+00	0	33	104	0	60	65102
2026-01-05 21:29:18.99	54.87	9.46	-49.3	-51.8	6.1	0.00e+00	0	33	104	0	60	65282
2026-01-05 21:29:20.00	55.10	9.50	-49.3	-51.9	6.1	0.00e+00	0	33	104	0	60	65501
2026-01-05 21:29:21.01	55.33	9.54	-49.3	-51.9	6.1	0.00e+00	0	33	104	0	60	65554
2026-01-05 21:29:22.02	55.56	9.58	-49.3	-51.8	6.1	0.00e+00	0	33	104	0	60	65288
2026-01-05 21:29:23.04	55.80	9.62	-49.3	-51.8	6.1	0.00e+00	0	33	104	0	60	65308
2026-01-05 21:29:24.05	56.04	9.66	-49.3	-51.9	6.1	0.00e+00	0	33	104	0	60	65434
2026-01-05 21:29:25.06	56.27	9.70	-49.3	-51.8	6.1	0.00e+00	0	33	104	0	60	65373
2026-01-05 21:29:26.07	56.51	9.74	-49.3	-51.8	6.1	0.00e+00	0	33	104	0	60	65351
2026-01-05 21:29:27.08	56.74	9.78	-49.3	-51.8	6.1	0.00e+00	0	33	104	0	60	65326
2026-01-05 21:29:28.09	56.98	9.82	-49.3	-51.8	6.1	0.00e+00	0	33	104	0	60	65277
2026-01-05 21:29:29.10	57.22	9.86	-49.3	-51.8	6.1	0.00e+00	0	33	104	0	60	65085
2026-01-05 21:29:30.11	57.46	9.90	-49.3	-51.8	6.1	0.00e+00	0	33	104	0	60	65343
2026-01-05 21:29:31.12	57.70	9.93	-49.3	-51.8	6.1	0.00e+00	0	33	104	0	60	65388
2026-01-05 21:29:32.13	57.94	9.97	-49.3	-51.8	6.1	0.00e+00	0	33	104	0	60	65181
2026-01-05 21:29:33.15	58.18	10.01	-49.3	-51.8	6.1	0.00e+00	0	33	104	0	60	65146
2026-01-05 21:29:34.16	58.42	10.05	-49.3	-51.8	6.1	0.00e+00	0	33	104	0	60	65286
2026-01-05 21:29:35.17	58.67	10.08	-49.3	-51.8	6.1	0.00e+00	0	33	104	0	60	64881
2026-01-05 21:29:36.18	58.91	10.12	-49.3	-51.8	6.1	0.00e+00	0	33	104	0	60	65390
2026-01-05 21:29:37.19	59.15	10.16	-49.3	-51.8	6.1	0.00e+00	0	33	104	0	60	65007
2026-01-05 21:29:38.20	59.40	10.19	-49.3	-51.8	6.1	0.00e+00	0	33	104	0	60	65123
2026-01-05 21:29:39.21	59.65	10.23	-49.3	-51.8	6.1	0.00e+00	0	33	104	0	60	65030
2026-01-05 21:29:40.22	59.89	10.26	-49.3	-51.8	6.1	0.00e+00	0	33	104	0	60	65039
2026-01-05 21:29:41.24	60.14	10.30	-49.3	-51.8	6.1	0.00e+00	0	33	104	0	60	65188
2026-01-05 21:29:42.25	60.39	10.33	-49.2	-51.8	6.1	0.00e+00	0	33	104	0	60	64934
2026-01-05 21:29:43.26	60.64	10.37	-49.3	-51.8	6.1	0.00e+00	0	33	104	0	60	65270
2026-01-05 21:29:44.27	60.89	10.40	-49.3	-51.8	6.1	0.00e+00	0	33	104	0	60	65285
2026-01-05 21:29:45.28	61.14	10.44	-49.3	-51.8	6.1	0.00e+00	0	33	104	0	60	65019
2026-01-05 21:29:46.29	61.39	10.47	-49.3	-51.8	6.1	0.00e+00	0	33	104	0	60	65123
2026-01-05 21:29:47.30	61.64	10.50	-49.3	-51.9	6.1	0.00e+00	0	33	104	0	60	65418
2026-01-05 21:29:48.31	61.89	10.53	-49.3	-51.8	6.1	0.00e+00	0	33	104	0	60	65370
2026-01-05 21:29:49.32	62.14	10.57	-49.3	-51.8	6.1	0.00e+00	0	33	104	0	60	65396
2026-01-05 21:29:50.34	62.40	10.60	-49.3	-51.9	6.1	0.00e+00	0	33	104	0	60	65473
2026-01-05 21:29:51.35	62.65	10.63	-49.3	-51.8	6.1	0.00e+00	0	33	104	0	60	65353
2026-01-05 21:29:52.36	62.91	10.66	-49.3	-51.8	6.1	0.00e+00	0	33	104	0	60	65150
2026-01-05 21:29:53.37	63.16	10.69	-49.3	-51.8	6.1	0.00e+00	0	33	104	0	60	65205
2026-01-05 21:29:54.38	63.42	10.72	-49.4	-51.9	6.1	0.00e+00	0	34	104	0	60	65831
2026-01-05 21:29:55.39	63.68	10.75	-49.4	-51.9	6.1	0.00e+00	0	33	104	0	60	66080
2026-01-05 21:29:56.40	63.93	10.78	-49.1	-51.7	6.1	0.00e+00	0	33	104	0	60	63931
2026-01-05 21:29:57.41	64.19	10.81	-49.5	-52.0	6.1	0.00e+00	0	33	104	0	60	66807
2026-01-05 21:29:58.42	64.45	10.84	-49.7	-52.3	6.1	0.00e+00	0	33	104	0	60	68521
2026-01-05 21:29:59.43	64.71	10.87	-49.8	-52.3	6.1	0.00e+00	0	33	104	0	60	68485
2026-01-05 21:30:00.45	64.97	10.89	-49.6	-52.1	6.1	0.00e+00	0	33	104	0	60	67285
2026-01-05 21:30:01.46	65.23	10.92	-49.8	-52.3	6.1	0.00e+00	0	33	104	0	60	68588
2026-01-05 21:30:02.47	65.49	10.95	-49.9	-52.4	6.1	0.00e+00	0	33	104	0	60	69808
2026-01-05 21:30:03.48	65.75	10.98	-49.5	-52.0	6.1	0.00e+00	0	33	104	0	60	66574
2026-01-05 21:30:04.49	66.02	11.00	-49.7	-52.2	6.1	0.00e+00	0	33	104	0	60	67928
2026-01-05 21:30:05.50	66.28	11.03	-49.4	-51.9	6.1	0.00e+00	0	33	104	0	60	65995
2026-01-05 21:30:06.51	66.54	11.05	-49.9	-52.5	6.1	0.00e+00	0	33	104	0	60	70114
2026-01-05 21:30:07.52	66.81	11.08	-49.8	-52.3	6.1	0.00e+00	0	33	104	0	60	68721
2026-01-05 21:30:08.54	67.07	11.10	-49.7	-52.2	6.1	0.00e+00	0	33	104	0	60	68148
2026-01-05 21:30:09.55	67.34	11.13	-49.6	-52.2	6.1	0.00e+00	0	33	104	0	60	67745
2026-01-05 21:30:10.56	67.60	11.15	-49.7	-52.2	6.1	0.00e+00	0	33	104	0	60	68000
2026-01-05 21:30:11.57	67.87	11.17	-49.4	-52.0	6.1	0.00e+00	0	33	104	0	60	66551
2026-01-05 21:30:12.58	68.13	11.19	-49.8	-52.2	6.1	0.00e+00	0	33	104	0	60	68479
2026-01-05 21:30:13.59	68.40	11.22	-49.9	-52.4	6.1	0.00e+00	0	33	104	0	60	69835
2026-01-05 21:30:14.60	68.67	11.24	-49.7	-52.3	6.1	0.00e+00	0	33	104	0	60	68803
2026-01-05 21:30:15.61	68.94	11.26	-49.9	-52.4	6.1	0.00e+00	0	33	104	0	60	69846
2026-01-05 21:30:16.62	69.20	11.28	-49.6	-52.1	6.1	0.00e+00	0	33	104	0	60	67563
2026-01-05 21:30:17.64	69.47	11.30	-49.9	-52.4	6.1	0.00e+00	0	33	104	0	60	69564
2026-01-05 21:30:18.65	69.74	11.32	-49.8	-52.4	6.1	0.00e+00	0	33	104	0	60	69715
2026-01-05 21:30:19.66	70.01	11.34	-49.9	-52.4	6.1	0.00e+00	0	33	104	0	60	69951
2026-01-05 21:30:20.67	70.28	11.36	-49.9	-52.4	6.1	0.00e+00	0	33	104	0	60	69620
2026-01-05 21:30:21.68	70.55	11.38	-50.1	-52.6	6.1	0.00e+00	0	34	104	0	60	71167
2026-01-05 21:30:22.69	70.82	11.40	-50.0	-52.5	6.1	0.00e+00	0	33	104	0	60	70365
2026-01-05 21:30:23.71	71.10	11.41	-49.9	-52.5	6.1	0.00e+00	0	34	104	0	60	70141
2026-01-05 21:30:24.72	71.37	11.43	-50.0	-52.4	6.1	0.00e+00	0	33	104	0	60	70005
2026-01-05 21:30:25.73	71.64	11.45	-50.2	-52.7	6.1	0.00e+00	0	34	104	0	60	72169
2026-01-05 21:30:26.74	71.91	11.46	-50.0	-52.5	6.1	0.00e+00	0	34	104	0	60	70779
2026-01-05 21:30:27.75	72.19	11.48	-50.0	-52.5	6.1	0.00e+00	0	34	104	0	60	70461
2026-01-05 21:30:28.76	72.46	11.49	-50.0	-52.5	6.1	0.00e+00	0	33	104	0	60	70257
2026-01-05 21:30:29.77	72.73	11.51	-50.0	-52.6	6.1	0.00e+00	0	33	104	0	60	71014
2026-01-05 21:30:30.79	73.01	11.52	-50.0	-52.5	6.1	0.00e+00	0	34	104	0	60	70150
2026-01-05 21:30:31.80	73.28	11.53	-50.1	-52.5	6.1	0.00e+00	0	33	104	0	60	70847
2026-01-05 21:30:32.81	73.56	11.55	-50.0	-52.5	6.1	0.00e+00	0	34	104	0	60	70474
2026-01-05 21:30:33.82	73.83	11.56	-50.2	-52.7	6.1	0.00e+00	0	33	104	0	60	72000
2026-01-05 21:30:34.83	74.11	11.57	-50.2	-52.6	6.1	0.00e+00	0	34	104	0	60	71574
2026-01-05 21:30:35.84	74.38	11.58	-50.0	-52.5	6.1	0.00e+00	0	34	104	0	60	70763
2026-01-05 21:30:36.85	74.66	11.59	-50.0	-52.5	6.1	0.00e+00	0	34	104	0	60	70708
2026-01-05 21:30:37.86	74.93	11.60	-50.1	-52.7	6.1	0.00e+00	0	34	104	0	60	71805
2026-01-05 21:30:38.87	75.21	11.61	-50.0	-52.6	6.1	0.00e+00	0	34	104	0	60	70895
2026-01-05 21:30:39.89	75.49	11.62	-50.2	-52.7	6.1	0.00e+00	0	34	104	0	60	71822
2026-01-05 21:30:40.90	75.76	11.63	-50.0	-52.5	6.1	0.00e+00	0	34	104	0	60	70650
2026-01-05 21:30:41.91	76.04	11.64	-50.3	-52.8	6.1	0.00e+00	0	34	104	0	60	72725
2026-01-05 21:30:42.92	76.31	11.65	-50.3	-52.8	6.1	0.00e+00	0	34	104	0	60	72788
2026-01-05 21:30:43.93	76.59	11.66	-49.9	-52.5	6.1	0.00e+00	0	34	104	0	60	70418
2026-01-05 21:30:44.94	76.87	11.66	-50.0	-52.5	6.1	0.00e+00	0	34	104	0	60	70860
2026-01-05 21:30:45.95	77.15	11.67	-50.3	-52.8	6.1	0.00e+00	0	34	104	0	60	73250
2026-01-05 21:30:46.96	77.42	11.67	-50.3	-52.8	6.1	0.00e+00	0	34	104	0	60	72974
2026-01-05 21:30:47.97	77.70	11.68	-50.2	-52.7	6.1	0.00e+00	0	34	104	0	60	72325
2026-01-05 21:30:48.99	77.98	11.68	-50.0	-52.5	6.1	0.00e+00	0	34	104	0	60	70505
2026-01-05 21:30:50.00	78.26	11.69	-50.0	-52.6	6.1	0.00e+00	0	34	104	0	60	71298
2026-01-05 21:30:51.01	78.53	11.69	-50.2	-52.7	6.1	0.00e+00	0	34	104	0	60	72321
2026-01-05 21:30:52.02	78.81	11.69	-50.3	-52.8	6.1	0.00e+00	0	34	104	0	60	72733
2026-01-05 21:30:53.03	79.09	11.70	-50.1	-52.6	6.1	0.00e+00	0	34	104	0	60	71552
2026-01-05 21:30:54.04	79.37	11.70	-50.2	-52.8	6.1	0.00e+00	0	34	104	0	60	72629
2026-01-05 21:30:55.05	79.65	11.70	-50.2	-52.7	6.1	0.00e+00	0	34	104	0	60	72490
2026-01-05 21:30:56.06	79.92	11.70	-50.1	-52.7	6.1	0.00e+00	0	34	104	0	60	71784
2026-01-05 21:30:57.08	80.20	11.70	-50.2	-52.7	6.1	0.00e+00	0	34	104	0	60	72193
2026-01-05 21:30:58.09	80.48	11.70	-49.8	-52.4	6.1	0.00e+00	0	34	104	0	60	69578
2026-01-05 21:30:59.10	80.76	11.70	-50.2	-52.7	6.1	0.00e+00	0	34	104	0	60	72513
2026-01-05 21:31:00.11	81.04	11.70	-50.2	-52.7	6.1	0.00e+00	0	34	104	0	60	72389
2026-01-05 21:31:01.11	81.31	11.70	-50.3	-52.8	6.0	0.00e+00	0	34	104	0	60	72934
2026-01-05 21:31:02.12	81.59	11.70	-48.6	-51.4	6.1	0.00e+00	0	34	104	0	60	62199
2026-01-05 21:31:03.13	81.87	11.69	-48.0	-50.8	6.2	0.00e+00	0	34	104	0	60	58095
2026-01-05 21:31:04.14	82.15	11.69	-48.0	-50.8	6.2	0.00e+00	0	34	104	0	60	57725
2026-01-05 21:31:05.15	82.43	11.69	-48.4	-51.2	6.1	0.00e+00	0	34	104	0	60	60665
2026-01-05 21:31:06.16	82.70	11.68	-48.8	-51.5	6.1	0.00e+00	0	34	104	0	60	62787
2026-01-05 21:31:07.18	82.98	11.68	-49.8	-52.5	6.1	0.00e+00	0	34	104	0	60	70079
2026-01-05 21:31:08.18	83.26	11.67	-50.0	-52.5	6.1	0.00e+00	0	34	104	0	60	70786
2026-01-05 21:31:09.19	83.54	11.67	-49.5	-52.2	6.1	0.00e+00	0	34	104	0	60	67745
2026-01-05 21:31:10.20	83.81	11.66	-49.5	-52.1	6.1	0.00e+00	0	34	104	0	60	67136
2026-01-05 21:31:11.22	84.09	11.65	-49.0	-51.7	6.1	0.00e+00	0	34	104	0	60	63931
2026-01-05 21:31:12.23	84.37	11.64	-49.5	-52.2	6.1	0.00e+00	0	34	104	0	60	68031
2026-01-05 21:31:13.24	84.65	11.64	-49.7	-52.3	6.1	0.00e+00	0	34	104	0	60	69010
2026-01-05 21:31:14.25	84.92	11.63	-49.8	-52.4	6.1	0.00e+00	0	34	104	0	60	69399
2026-01-05 21:31:15.26	85.20	11.62	-49.5	-52.2	6.1	0.00e+00	0	34	104	0	60	68007
2026-01-05 21:31:16.27	85.47	11.61	-49.5	-52.1	6.1	0.00e+00	0	34	104	0	60	67376
2026-01-05 21:31:17.28	85.75	11.60	-49.9	-52.5	6.1	0.00e+00	0	34	104	0	60	70551
2026-01-05 21:31:18.30	86.03	11.59	-50.4	-52.9	6.1	0.00e+00	0	34	104	0	60	73491
2026-01-05 21:31:19.31	86.30	11.58	-49.5	-52.1	6.1	0.00e+00	0	34	104	0	60	67314
2026-01-05 21:31:20.32	86.58	11.57	-49.6	-52.2	6.1	0.00e+00	0	34	104	0	60	68099
2026-01-05 21:31:21.33	86.85	11.55	-49.6	-52.2	6.1	0.00e+00	0	34	104	0	60	68463
2026-01-05 21:31:22.34	87.13	11.54	-49.9	-52.5	6.1	0.00e+00	0	34	104	0	60	70174
2026-01-05 21:31:23.35	87.40	11.53	-50.0	-52.6	6.1	0.00e+00	0	34	104	0	60	71479
2026-01-05 21:31:24.36	87.68	11.51	-50.2	-52.7	6.1	0.00e+00	0	34	104	0	60	72503
2026-01-05 21:31:25.37	87.95	11.50	-50.4	-52.9	6.1	0.00e+00	0	34	104	0	60	73760
2026-01-05 21:31:26.38	88.23	11.49	-50.5	-53.0	6.1	0.00e+00	0	34	104	0	60	74491
2026-01-05 21:31:27.39	88.50	11.47	-50.4	-52.9	6.1	0.00e+00	0	34	104	0	60	73957
2026-01-05 21:31:28.40	88.77	11.45	-50.3	-52.8	6.1	0.00e+00	0	34	104	0	60	73226
2026-01-05 21:31:29.41	89.04	11.44	-50.2	-52.8	6.1	0.00e+00	0	34	104	0	60	72937
2026-01-05 21:31:30.42	89.32	11.42	-49.9	-52.5	6.1	0.00e+00	0	34	104	0	60	70308
2026-01-05 21:31:31.44	89.59	11.40	-50.5	-53.1	6.1	0.00e+00	0	34	104	0	60	75260
2026-01-05 21:31:32.45	89.86	11.39	-50.2	-52.8	6.1	0.00e+00	0	34	104	0	60	72548
2026-01-05 21:31:33.46	90.13	11.37	-50.0	-52.6	6.1	0.00e+00	0	34	104	0	60	71076
2026-01-05 21:31:34.47	90.40	11.35	-50.5	-53.0	6.1	0.00e+00	0	34	104	0	60	74634
2026-01-05 21:31:35.48	90.67	11.33	-50.3	-52.8	6.1	0.00e+00	0	34	104	0	60	72887
2026-01-05 21:31:36.49	90.94	11.31	-50.3	-52.9	6.1	0.00e+00	0	34	104	0	60	73635
2026-01-05 21:31:37.50	91.21	11.29	-49.8	-52.4	6.1	0.00e+00	0	34	104	0	60	69461
2026-01-05 21:31:38.51	91.48	11.27	-49.8	-52.4	6.1	0.00e+00	0	34	104	0	60	69576
2026-01-05 21:31:39.53	91.75	11.25	-49.1	-51.8	6.1	0.00e+00	0	34	104	0	60	65241
2026-01-05 21:31:40.54	92.02	11.23	-50.4	-52.9	6.1	0.00e+00	0	34	104	0	60	73941
2026-01-05 21:31:41.55	92.29	11.21	-50.2	-52.8	6.1	0.00e+00	0	34	104	0	60	72765
2026-01-05 21:31:42.56	92.56	11.18	-49.8	-52.4	6.1	0.00e+00	0	34	104	0	60	70044
2026-01-05 21:31:43.57	92.82	11.16	-50.2	-52.7	6.1	0.00e+00	0	34	104	0	60	72137
2026-01-05 21:31:44.58	93.09	11.14	-50.4	-52.9	6.1	0.00e+00	0	34	104	0	60	73832
2026-01-05 21:31:45.60	93.36	11.11	-50.5	-53.0	6.1	0.00e+00	0	34	104	0	60	74363
2026-01-05 21:31:46.61	93.62	11.09	-50.3	-52.8	6.1	0.00e+00	0	34	104	0	60	73185
2026-01-05 21:31:47.62	93.89	11.06	-49.7	-52.3	6.1	0.00e+00	0	34	104	0	60	69020
2026-01-05 21:31:48.63	94.15	11.04	-48.4	-51.2	6.2	0.00e+00	0	34	104	0	60	60486
2026-01-05 21:31:49.64	94.42	11.01	-50.3	-52.8	6.1	0.00e+00	0	34	104	0	60	73247
2026-01-05 21:31:50.65	94.68	10.99	-47.9	-50.7	6.2	0.00e+00	0	34	104	0	60	57242
2026-01-05 21:31:51.66	94.94	10.96	-50.3	-53.0	6.1	0.00e+00	0	34	104	0	60	74243
2026-01-05 21:31:52.67	95.20	10.93	-50.6	-53.1	6.1	0.00e+00	0	34	104	0	60	75544
2026-01-05 21:31:53.68	95.46	10.91	-49.5	-52.2	6.1	0.00e+00	0	34	104	0	60	67705
2026-01-05 21:31:54.70	95.73	10.88	-47.9	-50.7	6.3	0.00e+00	0	34	104	0	60	57449
2026-01-05 21:31:55.71	95.99	10.85	-45.8	-48.7	6.7	0.00e+00	0	34	104	0	60	45510
2026-01-05 21:31:56.72	96.25	10.82	-46.8	-49.6	6.4	0.00e+00	0	34	104	0	60	50361
2026-01-05 21:31:57.73	96.51	10.79	-48.6	-51.3	6.2	0.00e+00	0	34	104	0	60	61293
2026-01-05 21:31:58.74	96.76	10.76	-49.1	-51.8	6.1	0.00e+00	0	34	104	0	60	65214
2026-01-05 21:31:59.75	97.02	10.73	-47.0	-49.8	6.4	0.00e+00	0	34	104	0	60	51673
2026-01-05 21:32:00.76	97.28	10.70	-47.2	-50.0	6.3	0.00e+00	0	34	104	0	60	53055
2026-01-05 21:32:01.77	97.54	10.67	-48.1	-50.9	6.2	0.00e+00	0	34	104	0	60	58741
2026-01-05 21:32:02.78	97.79	10.64	-50.1	-52.7	6.1	0.00e+00	0	34	104	0	60	71753
2026-01-05 21:32:03.80	98.05	10.61	-50.4	-53.0	6.1	0.00e+00	0	34	104	0	60	74622
2026-01-05 21:32:04.81	98.30	10.58	-49.1	-51.8	6.1	0.00e+00	0	34	104	0	60	65163
2026-01-05 21:32:05.82	98.56	10.55	-49.8	-52.5	6.1	0.00e+00	0	34	104	0	60	70195
2026-01-05 21:32:06.83	98.81	10.51	-49.8	-52.5	6.1	0.00e+00	0	34	104	0	60	70320
2026-01-05 21:32:07.84	99.06	10.48	-25.6	-25.9	11.9	0.00e+00	0	34	104	0	32	16429
2026-01-05 21:32:08.85	99.32	10.45	-47.9	-49.3	7.0	1.67e-02	0	34	104	0	60	48910
2026-01-05 21:32:09.86	99.57	10.42	-25.9	-26.2	14.1	0.00e+00	0	34	104	0	34	15213
2026-01-05 21:32:10.87	99.82	10.38	-25.6	-26.1	17.1	5.48e-03	0	34	0	0	32	16824
2026-01-05 21:32:11.88	100.07	10.35	-25.6	-26.0	17.0	5.48e-03	0	34	102	8388608	32	16778
2026-01-05 21:32:12.90	100.32	10.31	-25.8	-26.2	17.2	0.00e+00	0	34	102	8388608	32	17168
2026-01-05 21:32:13.91	100.57	10.28	-26.0	-26.4	17.1	0.00e+00	0	34	102	8388608	32	17463
2026-01-05 21:32:14.92	100.82	10.24	-26.1	-26.5	16.7	0.00e+00	0	34	102	8388608	32	17756
2026-01-05 21:32:15.93	101.06	10.21	-26.0	-26.5	16.6	3.81e-05	0	34	102	8388608	32	17643
2026-01-05 21:32:16.94	101.31	10.17	-26.1	-26.5	16.8	3.81e-05	0	34	102	8388608	32	17730
2026-01-05 21:32:17.95	101.56	10.13	-26.1	-26.5	17.0	3.81e-05	0	34	102	8388608	32	17653
2026-01-05 21:32:18.96	101.80	10.10	-26.3	-26.7	17.0	3.26e-05	0	34	102	8388608	32	18139
2026-01-05 21:32:19.97	102.05	10.06	-26.4	-26.8	17.0	3.26e-05	0	34	102	8388608	32	18334
2026-01-05 21:32:20.98	102.29	10.02	-26.5	-27.0	17.0	3.26e-05	0	34	102	8388608	32	18678
2026-01-05 21:32:21.99	102.53	9.98	-26.4	-26.8	16.9	5.40e-06	0	34	102	8388608	32	18387
2026-01-05 21:32:23.01	102.78	9.95	-26.5	-27.0	16.9	5.40e-06	0	34	102	8388608	32	18721
2026-01-05 21:32:24.02	103.02	9.91	-26.8	-27.3	16.8	3.26e-05	0	34	102	8388608	32	19380
2026-01-05 21:32:25.03	103.26	9.87	-26.6	-27.0	16.9	3.26e-05	0	34	102	8388608	32	18779
2026-01-05 21:32:26.04	103.50	9.83	-26.7	-27.2	17.0	3.26e-05	0	34	102	8388608	32	19162
2026-01-05 21:32:27.05	103.74	9.79	-26.7	-27.1	16.8	1.63e-05	0	34	102	8388608	32	19052
2026-01-05 21:32:28.06	103.97	9.75	-26.8	-27.2	16.7	1.63e-05	0	34	102	8388608	32	19267
2026-01-05 21:32:29.07	104.21	9.71	-26.8	-27.3	16.6	5.40e-06	0	34	102	8388608	32	19323
2026-01-05 21:32:30.09	104.45	9.67	-26.7	-27.2	16.7	5.40e-06	0	34	102	8388608	32	19209
2026-01-05 21:32:31.10	104.69	9.63	-26.9	-27.4	16.7	3.26e-05	0	34	102	8388608	32	19569
2026-01-05 21:32:32.11	104.92	9.59	-26.8	-27.2	16.7	3.26e-05	0	34	102	8388608	32	19273
2026-01-05 21:32:33.12	105.16	9.55	-26.8	-27.3	16.8	1.63e-05	0	34	102	8388608	32	19389
2026-01-05 21:32:34.13	105.39	9.51	-27.0	-27.5	16.2	1.63e-05	0	34	102	8388608	32	19772
2026-01-05 21:32:35.14	105.62	9.47	-26.8	-27.2	15.7	7.08e-05	0	34	102	8388608	32	19283
2026-01-05 21:32:36.15	105.85	9.43	-27.0	-27.4	15.6	7.08e-05	0	34	102	8388608	32	19616
2026-01-05 21:32:37.16	106.09	9.38	-26.8	-27.3	15.1	4.63e-04	0	34	102	8388608	32	19312
2026-01-05 21:32:38.17	106.32	9.34	-26.9	-27.3	15.3	4.63e-04	0	34	102	8388608	32	19337
2026-01-05 21:32:39.18	106.55	9.30	-26.9	-27.3	15.5	4.63e-04	0	34	102	8388608	32	19416
2026-01-05 21:32:40.20	106.78	9.26	-26.8	-27.2	15.6	4.52e-04	0	34	102	8388608	32	19259
2026-01-05 21:32:41.21	107.00	9.21	-26.8	-27.2	15.9	4.52e-04	0	34	102	8388608	32	19195
2026-01-05 21:32:42.22	107.23	9.17	-26.9	-27.3	16.6	4.52e-04	0	34	102	8388608	32	19467
2026-01-05 21:32:43.23	107.46	9.13	-26.9	-27.3	16.7	2.45e-04	0	34	102	8388608	32	19514
2026-01-05 21:32:44.24	107.68	9.08	-26.9	-27.4	16.8	2.45e-04	0	34	102	8388608	32	19566
2026-01-05 21:32:45.25	107.91	9.04	-26.9	-27.3	16.8	5.40e-06	0	34	102	8388608	32	19500
2026-01-05 21:32:46.26	108.13	8.99	-26.9	-27.3	16.8	5.40e-06	0	34	102	8388608	32	19508
2026-01-05 21:32:47.27	108.36	8.95	-27.0	-27.4	16.7	2.17e-05	0	34	102	8388608	32	19740
2026-01-05 21:32:48.28	108.58	8.90	-26.9	-27.4	16.6	2.17e-05	0	34	102	8388608	32	19567
2026-01-05 21:32:49.30	108.80	8.86	-26.8	-27.3	16.8	3.26e-05	0	34	102	8388608	32	19371
2026-01-05 21:32:50.31	109.02	8.81	-26.9	-27.3	16.8	3.26e-05	0	34	102	8388608	32	19466
2026-01-05 21:32:51.32	109.24	8.77	-27.0	-27.4	16.8	5.40e-06	0	34	102	8388608	32	19709
2026-01-05 21:32:52.33	109.46	8.72	-26.9	-27.4	16.7	5.40e-06	0	34	102	8388608	34	17482
2026-01-05 21:32:53.34	109.68	8.68	-26.9	-27.3	16.6	5.40e-06	0	34	102	8388608	34	17300
2026-01-05 21:32:54.35	109.90	8.63	-26.9	-27.4	15.7	5.99e-05	0	34	102	8388608	34	17409
2026-01-05 21:32:55.36	110.11	8.59	-26.8	-27.3	15.7	5.99e-05	0	35	102	8388608	34	17211
2026-01-05 21:32:56.37	110.33	8.54	-26.8	-27.2	15.8	5.99e-05	0	34	102	8388608	34	17110
2026-01-05 21:32:57.38	110.54	8.49	-26.8	-27.2	15.9	2.18e-04	0	34	102	8388608	34	17118
2026-01-05 21:32:58.40	110.76	8.45	-26.8	-27.2	16.1	2.18e-04	0	35	102	8388608	34	17199
2026-01-05 21:32:59.41	110.97	8.40	-26.8	-27.2	16.1	2.18e-04	0	34	102	8388608	34	17091
2026-01-05 21:33:00.42	111.19	8.35	-26.9	-27.3	15.9	1.36e-04	0	35	102	8388608	34	17340
2026-01-05 21:33:01.43	111.40	8.30	-26.8	-27.2	15.7	1.36e-04	0	34	102	8388608	34	17074
2026-01-05 21:33:02.44	111.61	8.26	-26.7	-27.2	15.8	1.36e-04	0	35	102	8388608	34	17010
2026-01-05 21:33:03.45	111.82	8.21	-26.7	-27.1	15.3	1.36e-04	0	35	102	8388608	34	16863
2026-01-05 21:33:04.46	112.03	8.16	-26.9	-27.3	15.8	2.94e-04	0	34	102	8388608	34	17278
2026-01-05 21:33:05.47	112.24	8.11	-26.7	-27.1	16.5	2.94e-04	0	35	102	8388608	34	16968
2026-01-05 21:33:06.49	112.45	8.07	-26.7	-27.2	16.6	2.94e-04	0	35	102	8388608	34	17025
2026-01-05 21:33:07.50	112.65	8.02	-26.7	-27.2	16.7	7.62e-05	0	35	102	8388608	34	17078
2026-01-05 21:33:08.51	112.86	7.97	-26.7	-27.1	16.7	7.62e-05	0	35	102	8388608	34	17001
2026-01-05 21:33:09.52	113.06	7.92	-26.8	-27.2	16.6	1.08e-05	0	35	102	8388608	34	17161
2026-01-05 21:33:10.53	113.27	7.87	-26.8	-27.2	16.7	1.08e-05	0	35	102	8388608	34	17146
2026-01-05 21:33:11.54	113.47	7.82	-26.8	-27.3	16.7	2.72e-05	0	35	102	8388608	34	17292
2026-01-05 21:33:12.55	113.68	7.77	-27.0	-27.4	16.5	2.72e-05	0	35	102	8388608	34	17537
2026-01-05 21:33:13.56	113.88	7.73	-26.8	-27.3	16.6	2.72e-05	0	35	102	8388608	34	17269
2026-01-05 21:33:14.57	114.08	7.68	-26.9	-27.3	16.7	2.72e-05	0	35	102	8388608	34	17349
2026-01-05 21:33:15.58	114.28	7.63	-26.8	-27.3	16.7	2.72e-05	0	35	102	8388608	34	17210
2026-01-05 21:33:16.59	114.48	7.58	-26.9	-27.3	16.7	2.72e-05	0	35	102	8388608	34	17388
2026-01-05 21:33:17.61	114.68	7.53	-26.8	-27.3	16.8	5.40e-06	0	35	102	8388608	34	17238
2026-01-05 21:33:18.62	114.88	7.48	-26.8	-27.3	16.8	5.40e-06	0	35	102	8388608	34	17257
2026-01-05 21:33:19.63	115.07	7.43	-26.7	-27.2	16.6	2.17e-05	0	34	102	8388608	34	17052
2026-01-05 21:33:20.64	115.27	7.38	-26.8	-27.2	16.2	2.17e-05	0	35	102	8388608	34	17136
2026-01-05 21:33:21.65	115.46	7.33	-26.8	-27.2	16.1	1.31e-04	0	35	102	8388608	34	17100
2026-01-05 21:33:22.66	115.66	7.28	-26.8	-27.2	15.8	1.31e-04	0	35	102	8388608	34	17141
2026-01-05 21:33:23.67	115.85	7.23	-26.8	-27.2	16.3	1.96e-04	0	35	102	8388608	34	17183
2026-01-05 21:33:24.68	116.05	7.18	-26.8	-27.2	16.7	1.96e-04	0	35	102	8388608	34	17174
2026-01-05 21:33:25.70	116.24	7.13	-26.8	-27.2	16.5	1.96e-04	0	35	102	8388608	34	17171
2026-01-05 21:33:26.71	116.43	7.08	-26.9	-27.3	16.2	2.72e-05	0	35	102	8388608	34	17317
2026-01-05 21:33:27.72	116.62	7.03	-26.9	-27.3	16.1	2.72e-05	0	34	102	8388608	34	17385
2026-01-05 21:33:28.73	116.81	6.97	-27.0	-27.4	16.3	1.85e-04	0	35	102	8388608	34	17458
2026-01-05 21:33:29.74	117.00	6.92	-26.9	-27.3	16.2	1.85e-04	0	35	102	8388608	34	17274
2026-01-05 21:33:30.75	117.19	6.87	-26.9	-27.3	16.1	1.80e-04	0	35	102	8388608	34	17246
2026-01-05 21:33:31.76	117.38	6.82	-26.9	-27.3	16.3	1.80e-04	0	35	102	8388608	34	17342
2026-01-05 21:33:32.77	117.56	6.77	-27.0	-27.5	16.0	1.80e-04	0	35	102	8388608	34	17625
2026-01-05 21:33:33.78	117.75	6.72	-26.8	-27.2	16.2	2.07e-04	0	35	102	8388608	34	17037
2026-01-05 21:33:34.80	117.93	6.67	-26.8	-27.2	16.4	2.07e-04	0	34	102	8388608	34	17134
2026-01-05 21:33:35.81	118.12	6.62	-26.8	-27.2	16.6	1.36e-04	0	35	102	8388608	34	17091
2026-01-05 21:33:36.82	118.30	6.56	-27.0	-27.4	16.6	1.36e-04	0	35	102	8388608	34	17474
2026-01-05 21:33:37.83	118.48	6.51	-26.9	-27.4	16.6	1.36e-04	0	35	102	8388608	34	17438
2026-01-05 21:33:38.84	118.67	6.46	-26.8	-27.2	16.5	1.08e-05	0	35	102	8388608	34	17127
2026-01-05 21:33:39.85	118.85	6.41	-26.9	-27.4	16.5	1.08e-05	0	35	102	8388608	34	17411
2026-01-05 21:33:40.86	119.03	6.36	-27.0	-27.4	16.6	1.08e-05	0	35	102	8388608	34	17589
2026-01-05 21:33:41.87	119.21	6.31	-27.0	-27.4	16.5	2.72e-05	0	35	102	8388608	34	17465
2026-01-05 21:33:42.88	119.39	6.25	-26.8	-27.3	16.6	2.72e-05	0	35	102	8388608	34	17238
2026-01-05 21:33:43.89	119.56	6.20	-26.8	-27.2	16.5	2.72e-05	0	35	102	8388608	34	17175
2026-01-05 21:33:44.91	119.74	6.15	-26.9	-27.3	16.3	2.17e-05	0	35	102	8388608	34	17254
2026-01-05 21:33:45.92	119.92	6.10	-26.9	-27.4	16.5	2.17e-05	0	35	102	8388608	34	17413
2026-01-05 21:33:46.93	120.09	6.05	-26.9	-27.3	16.6	3.26e-05	0	35	102	8388608	34	17392
2026-01-05 21:33:47.94	120.27	5.99	-27.0	-27.4	16.6	3.26e-05	0	35	102	8388608	34	17545
2026-01-05 21:33:48.95	120.44	5.94	-26.9	-27.3	16.6	1.08e-05	0	35	102	8388608	34	17289
2026-01-05 21:33:49.96	120.62	5.89	-26.9	-27.4	16.5	1.08e-05	0	35	102	8388608	34	17410
2026-01-05 21:33:50.97	120.79	5.84	-26.9	-27.3	16.6	5.44e-05	0	35	102	8388608	34	17272
2026-01-05 21:33:51.98	120.96	5.78	-27.0	-27.4	16.5	5.44e-05	0	35	102	8388608	34	17503
2026-01-05 21:33:52.99	121.13	5.73	-26.8	-27.3	16.4	5.44e-05	0	35	102	8388608	34	17260
2026-01-05 21:33:54.01	121.30	5.68	-26.8	-27.3	16.6	2.17e-05	0	35	102	8388608	34	17256
2026-01-05 21:33:55.02	121.47	5.63	-26.8	-27.2	16.5	2.17e-05	0	35	102	8388608	34	17151
2026-01-05 21:33:56.03	121.64	5.57	-26.8	-27.2	16.5	3.26e-05	0	35	102	8388608	34	17156
2026-01-05 21:33:57.04	121.81	5.52	-26.8	-27.2	16.6	3.26e-05	0	35	102	8388608	34	17152
2026-01-05 21:33:58.05	121.98	5.47	-26.8	-27.2	16.5	1.08e-05	0	35	102	8388608	34	17162
2026-01-05 21:33:59.06	122.14	5.42	-26.8	-27.3	16.5	1.08e-05	0	35	102	8388608	34	17239
2026-01-05 21:34:00.07	122.31	5.36	-26.9	-27.3	16.5	1.08e-05	0	35	102	8388608	34	17357
2026-01-05 21:34:01.08	122.48	5.31	-26.8	-27.2	16.5	1.08e-05	0	35	102	8388608	34	17129
2026-01-05 21:34:02.09	122.64	5.26	-26.8	-27.3	16.6	5.40e-06	0	35	102	8388608	34	17227
2026-01-05 21:34:03.10	122.80	5.21	-26.9	-27.3	16.5	5.40e-06	0	35	102	8388608	34	17246
2026-01-05 21:34:04.12	122.97	5.15	-27.0	-27.4	16.5	5.40e-06	0	35	102	8388608	34	17545
2026-01-05 21:34:05.13	123.13	5.10	-27.0	-27.4	16.5	1.63e-05	0	35	102	8388608	34	17500
2026-01-05 21:34:06.14	123.29	5.05	-26.9	-27.3	16.4	1.63e-05	0	35	102	8388608	34	17385
2026-01-05 21:34:07.15	123.45	4.99	-27.1	-27.6	16.3	1.63e-05	0	35	102	8388608	34	17834
2026-01-05 21:34:08.16	123.61	4.94	-27.0	-27.5	16.4	2.72e-05	0	35	102	8388608	34	17660
2026-01-05 21:34:09.17	123.77	4.89	-27.1	-27.6	16.5	2.72e-05	0	35	102	8388608	34	17811
2026-01-05 21:34:10.18	123.93	4.83	-27.1	-27.6	16.4	2.72e-05	0	35	102	8388608	34	17816
2026-01-05 21:34:11.20	124.09	4.78	-26.9	-27.3	16.5	2.72e-05	0	35	102	8388608	34	17348
2026-01-05 21:34:12.21	124.25	4.73	-26.9	-27.3	16.5	2.72e-05	0	35	102	8388608	34	17366
2026-01-05 21:34:13.22	124.40	4.68	-27.0	-27.4	16.5	3.81e-05	0	35	102	8388608	34	17511
2026-01-05 21:34:14.23	124.56	4.62	-27.1	-27.5	16.5	3.81e-05	0	35	102	8388608	34	17674
2026-01-05 21:34:15.24	124.72	4.57	-27.1	-27.5	16.5	5.40e-06	0	35	102	8388608	34	17738
2026-01-05 21:34:16.25	124.87	4.52	-26.9	-27.3	16.5	5.40e-06	0	35	102	8388608	34	17311
2026-01-05 21:34:17.26	125.02	4.46	-26.9	-27.3	16.5	5.40e-06	0	35	102	8388608	34	17341
2026-01-05 21:34:18.27	125.18	4.41	-27.1	-27.5	16.5	5.40e-06	0	35	102	8388608	34	17673
2026-01-05 21:34:19.29	125.33	4.36	-27.0	-27.4	16.5	1.08e-05	0	35	102	8388608	34	17447
2026-01-05 21:34:20.29	125.48	4.30	-27.0	-27.4	16.4	1.08e-05	0	35	102	8388608	34	17418
2026-01-05 21:34:21.31	125.63	4.25	-27.0	-27.4	16.4	1.08e-05	0	35	102	8388608	34	17586
2026-01-05 21:34:22.32	125.79	4.20	-26.9	-27.3	16.5	1.63e-05	0	35	102	8388608	34	17305
2026-01-05 21:34:23.33	125.94	4.15	-26.9	-27.3	16.5	1.63e-05	0	35	102	8388608	34	17378
2026-01-05 21:34:24.34	126.08	4.09	-26.9	-27.3	16.5	1.63e-05	0	35	102	8388608	34	17258
2026-01-05 21:34:25.35	126.23	4.04	-26.8	-27.2	16.5	2.72e-05	0	35	102	8388608	34	17151
2026-01-05 21:34:26.36	126.38	3.99	-26.9	-27.3	16.4	2.72e-05	0	35	102	8388608	34	17359
2026-01-05 21:34:27.37	126.53	3.93	-27.0	-27.3	16.5	5.40e-06	0	35	102	8388608	34	17393
2026-01-05 21:34:28.38	126.67	3.88	-26.9	-27.2	16.5	5.40e-06	0	35	102	8388608	34	17189
2026-01-05 21:34:29.39	126.82	3.83	-26.8	-27.2	16.5	5.40e-06	0	35	102	8388608	34	17111
2026-01-05 21:34:30.40	126.97	3.77	-26.9	-27.3	16.5	5.40e-06	0	35	102	8388608	34	17367
2026-01-05 21:34:31.41	127.11	3.72	-26.9	-27.3	16.6	5.40e-06	0	35	102	8388608	34	17320
2026-01-05 21:34:32.42	127.25	3.67	-27.0	-27.4	16.5	1.08e-05	0	35	102	8388608	34	17563
2026-01-05 21:34:33.44	127.40	3.61	-26.9	-27.2	16.3	1.08e-05	0	35	102	8388608	34	17177
2026-01-05 21:34:34.45	127.54	3.56	-27.0	-27.3	16.4	3.26e-05	0	35	102	8388608	34	17398
2026-01-05 21:34:35.46	127.68	3.51	-27.0	-27.4	16.6	3.26e-05	0	35	102	8388608	34	17430
2026-01-05 21:34:36.47	127.83	3.46	-27.0	-27.4	16.6	5.44e-05	0	35	102	8388608	34	17434
2026-01-05 21:34:37.48	127.97	3.40	-27.1	-27.5	16.5	5.44e-05	0	35	102	8388608	34	17689
2026-01-05 21:34:38.49	128.11	3.35	-27.1	-27.5	16.5	1.63e-05	0	35	102	8388608	34	17659
2026-01-05 21:34:39.50	128.25	3.30	-26.9	-27.3	16.6	1.63e-05	0	35	102	8388608	34	17313
2026-01-05 21:34:40.51	128.39	3.24	-26.9	-27.3	16.6	3.81e-05	0	35	102	8388608	34	17303
2026-01-05 21:34:41.52	128.52	3.19	-27.1	-27.5	16.5	3.81e-05	0	35	102	8388608	34	17786
2026-01-05 21:34:42.53	128.66	3.14	-27.2	-27.6	16.4	2.17e-05	0	35	102	8388608	34	17912
2026-01-05 21:34:43.55	128.80	3.09	-26.9	-27.3	16.4	2.17e-05	0	35	102	8388608	34	17345
2026-01-05 21:34:44.56	128.94	3.03	-26.8	-27.2	16.6	5.44e-05	0	35	102	8388608	34	17016
2026-01-05 21:34:45.57	129.07	2.98	-27.0	-27.4	16.6	5.44e-05	0	35	102	8388608	34	17434
2026-01-05 21:34:46.58	129.21	2.93	-26.9	-27.3	16.6	5.44e-05	0	35	102	8388608	34	17371
2026-01-05 21:34:47.59	129.34	2.87	-26.9	-27.2	16.6	5.40e-06	0	35	102	8388608	34	17178
2026-01-05 21:34:48.60	129.48	2.82	-26.8	-27.2	16.6	5.40e-06	0	35	102	8388608	34	17150
2026-01-05 21:34:49.61	129.61	2.77	-26.9	-27.3	16.5	1.08e-05	0	35	102	8388608	34	17340
2026-01-05 21:34:50.62	129.74	2.72	-26.9	-27.3	16.6	1.08e-05	0	35	102	8388608	34	17328
2026-01-05 21:34:51.64	129.88	2.66	-26.9	-27.3	16.5	1.63e-05	0	35	102	8388608	34	17341
2026-01-05 21:34:52.65	130.01	2.61	-26.8	-27.2	16.4	1.63e-05	0	35	102	8388608	34	17157
2026-01-05 21:34:53.65	130.14	2.56	-26.9	-27.3	16.4	2.17e-05	0	35	102	8388608	34	17280
2026-01-05 21:34:54.67	130.27	2.51	-27.0	-27.4	16.4	2.17e-05	0	35	102	8388608	34	17512
2026-01-05 21:34:55.68	130.40	2.45	-27.1	-27.4	16.5	2.17e-05	0	35	102	8388608	34	17568
2026-01-05 21:34:56.69	130.53	2.40	-26.9	-27.2	16.7	2.72e-05	0	35	102	8388608	34	17175
2026-01-05 21:34:57.70	130.66	2.35	-27.0	-27.4	16.7	2.72e-05	0	35	102	8388608	34	17492
2026-01-05 21:34:58.71	130.79	2.30	-27.0	-27.4	16.7	4.90e-05	0	35	102	8388608	34	17552
2026-01-05 21:34:59.72	130.92	2.24	-27.0	-27.4	16.8	4.90e-05	0	35	102	8388608	34	17456
2026-01-05 21:35:00.74	131.04	2.19	-27.1	-27.4	16.7	0.00e+00	0	35	102	8388608	34	17600
2026-01-05 21:35:01.75	131.17	2.14	-27.0	-27.4	16.7	0.00e+00	0	35	102	8388608	34	17496
2026-01-05 21:35:02.76	131.30	2.09	-27.1	-27.5	16.7	1.63e-05	0	35	102	8388608	34	17720
2026-01-05 21:35:03.77	131.42	2.03	-27.1	-27.5	16.7	1.63e-05	0	35	102	8388608	34	17756
2026-01-05 21:35:04.78	131.55	1.98	-27.2	-27.6	16.7	1.63e-05	0	35	102	8388608	34	17877
2026-01-05 21:35:05.79	131.67	1.93	-27.3	-27.7	16.7	2.17e-05	0	35	102	8388608	34	18029
2026-01-05 21:35:06.80	131.80	1.88	-27.3	-27.7	16.7	2.17e-05	0	35	102	8388608	34	18075
2026-01-05 21:35:07.81	131.92	1.83	-27.1	-27.5	16.8	5.40e-06	0	35	102	8388608	34	17667
2026-01-05 21:35:08.82	132.04	1.77	-27.3	-27.7	16.8	5.40e-06	0	35	102	8388608	34	18035
2026-01-05 21:35:09.84	132.17	1.72	-27.4	-27.8	16.8	5.40e-06	0	35	102	8388608	34	18230
2026-01-05 21:35:10.85	132.29	1.67	-27.6	-28.0	16.8	1.63e-05	0	35	102	8388608	34	18648
2026-01-05 21:35:11.86	132.41	1.62	-27.6	-28.0	16.8	1.63e-05	0	35	102	8388608	34	18661
2026-01-05 21:35:12.87	132.53	1.57	-27.2	-27.6	16.8	1.63e-05	0	35	102	8388608	34	17828
2026-01-05 21:35:13.88	132.65	1.51	-27.3	-27.7	16.8	5.40e-06	0	35	102	8388608	34	18074
2026-01-05 21:35:14.89	132.77	1.46	-27.3	-27.7	16.8	5.40e-06	0	35	102	8388608	34	18142
2026-01-05 21:35:15.90	132.89	1.41	-27.1	-27.5	16.9	1.08e-05	0	35	102	8388608	34	17693
2026-01-05 21:35:16.91	133.01	1.36	-27.2	-27.5	16.8	1.08e-05	0	35	102	8388608	34	17777
2026-01-05 21:35:17.92	133.13	1.31	-27.2	-27.5	16.8	1.08e-05	0	35	102	8388608	34	17798
2026-01-05 21:35:18.94	133.25	1.25	-27.2	-27.6	16.8	1.08e-05	0	35	102	8388608	34	17891
2026-01-05 21:35:19.94	133.36	1.20	-27.3	-27.6	16.8	1.08e-05	0	35	102	8388608	34	17985
2026-01-05 21:35:20.96	133.48	1.15	-27.3	-27.6	16.9	1.08e-05	0	35	102	8388608	34	17987
2026-01-05 21:35:21.97	133.60	1.10	-27.4	-27.7	16.8	1.08e-05	0	35	102	8388608	34	18154
2026-01-05 21:35:22.98	133.71	1.05	-27.3	-27.7	16.8	5.40e-06	0	35	102	8388608	34	18158
2026-01-05 21:35:23.99	133.83	1.00	-27.4	-27.7	16.9	5.40e-06	0	35	102	8388608	34	18214
2026-01-05 21:35:25.00	133.94	0.94	-27.4	-27.7	16.8	1.08e-05	0	35	102	8388608	34	18191
2026-01-05 21:35:26.01	134.06	0.89	-27.4	-27.8	16.8	1.08e-05	0	35	102	8388608	34	18247
2026-01-05 21:35:27.02	134.17	0.84	-27.4	-27.8	16.8	1.08e-05	0	35	102	8388608	34	18362
2026-01-05 21:35:28.04	134.29	0.79	-27.4	-27.8	16.8	1.63e-05	0	35	102	8388608	34	18368
2026-01-05 21:35:29.05	134.40	0.74	-27.4	-27.8	16.8	1.63e-05	0	35	102	8388608	34	18372
2026-01-05 21:35:30.06	134.51	0.69	-27.4	-27.8	16.9	2.17e-05	0	35	102	8388608	34	18350
2026-01-05 21:35:31.07	134.62	0.64	-27.4	-27.8	16.9	2.17e-05	0	35	102	8388608	34	18361
2026-01-05 21:35:32.08	134.73	0.58	-27.6	-28.0	16.8	1.08e-05	0	35	102	8388608	34	18765
2026-01-05 21:35:33.09	134.85	0.53	-27.5	-27.8	16.9	1.08e-05	0	35	102	8388608	34	18429
2026-01-05 21:35:34.10	134.96	0.48	-27.5	-27.9	17.0	1.08e-05	0	35	102	8388608	34	18468
2026-01-05 21:35:35.12	135.07	0.43	-27.4	-27.8	17.0	1.08e-05	0	35	102	8388608	34	18249
2026-01-05 21:35:36.13	135.18	0.38	-27.5	-27.8	17.0	1.08e-05	0	35	102	8388608	34	18394
2026-01-05 21:35:37.14	135.29	0.33	-27.6	-28.0	16.9	1.08e-05	0	35	102	8388608	34	18820
2026-01-05 21:35:38.15	135.39	0.28	-27.6	-27.9	16.9	1.08e-05	0	35	102	8388608	34	18636
2026-01-05 21:35:39.16	135.50	0.23	-27.5	-27.9	16.9	3.81e-05	0	35	102	8388608	34	18612
2026-01-05 21:35:40.17	135.61	0.18	-27.6	-28.0	16.9	3.81e-05	0	35	102	8388608	34	18683
2026-01-05 21:35:41.18	135.72	0.12	-27.6	-28.0	16.9	3.81e-05	0	35	102	8388608	34	18695
2026-01-05 21:35:42.19	135.82	0.07	-27.7	-28.1	16.9	0.00e+00	0	35	102	8388608	34	18893
2026-01-05 21:35:43.20	135.93	0.02	-27.8	-28.2	16.9	0.00e+00	0	35	102	8388608	34	19153
2026-01-05 21:35:44.21	136.04	-0.03	-27.8	-28.2	16.9	3.26e-05	0	35	102	8388608	34	19143
2026-01-05 21:35:45.23	136.14	-0.08	-27.7	-28.1	17.0	3.26e-05	0	35	102	8388608	34	19062

#Closed at: 2026-01-05 21:35:45
#Recorded file [8 MB]: D:/lorett/data/35034_260106_002641.dat