passes_logs/2026/01/05/R4.6S_Anadyr_2ch/R4.6S_Anadyr_2ch__20260105_175201_SUOMI_NPP_rec.log

#Pass ID: 20260105_175201_SUOMI NPP
#Satellite: SUOMI NPP
#Configuration: NPP
#almurnet v.1.7.20251203
#Start time: 2026-01-05 17:52:03

#Version: 2.2.20231116
#Station: R4.6S_Anadyr_2ch
#Location: 177.4865 lon 64.73178 lat
#TLE: 1 37849U 11061A   25350.92281687  .00000071  00000+0  54882-4 0  9996
#TLE: 2 37849  98.7777 288.2268 0002366 112.8570 247.2856 14.19515404732588

#Time	Az	El	Level	Level2	SNR	BER	BlckErr	Temp	State	Recorded	gain1	gain2
2026-01-05 17:52:03.44	34.62	0.11	-51.0	-63.6	3.4	1.52e+00	0	28	0	0	60	71792
2026-01-05 17:52:04.45	34.56	0.16	-51.1	-66.4	3.6	1.51e+00	0	29	104	0	60	101698
2026-01-05 17:52:05.46	34.49	0.21	-51.2	-66.4	3.6	1.51e+00	0	29	104	0	60	101885
2026-01-05 17:52:06.47	34.43	0.26	-51.2	-66.5	3.5	1.51e+00	0	29	104	0	60	102669
2026-01-05 17:52:07.49	34.36	0.32	-51.2	-66.4	3.6	1.51e+00	0	30	104	0	60	101827
2026-01-05 17:52:08.50	34.30	0.37	-51.2	-66.4	3.6	1.51e+00	0	30	104	0	60	101747
2026-01-05 17:52:09.51	34.23	0.42	-51.1	-66.4	3.6	1.51e+00	0	30	104	0	60	101326
2026-01-05 17:52:10.52	34.16	0.48	-51.0	-66.3	3.6	1.51e+00	0	30	104	0	60	100665
2026-01-05 17:52:11.53	34.10	0.53	-51.0	-66.2	3.6	1.51e+00	0	30	104	0	60	99661
2026-01-05 17:52:12.54	34.03	0.58	-50.9	-66.2	3.6	1.51e+00	0	30	104	0	60	99453
2026-01-05 17:52:13.55	33.97	0.63	-50.8	-66.0	3.6	1.51e+00	0	30	104	0	60	97593
2026-01-05 17:52:14.56	33.90	0.69	-50.7	-65.9	3.6	1.51e+00	0	30	104	0	60	96236
2026-01-05 17:52:15.57	33.83	0.74	-50.4	-65.7	3.6	1.51e+00	0	30	104	0	60	93806
2026-01-05 17:52:16.58	33.76	0.79	-50.1	-65.4	3.6	1.51e+00	0	30	104	0	60	90371
2026-01-05 17:52:17.59	33.70	0.85	-49.6	-64.9	3.6	1.51e+00	0	30	104	0	60	85274
2026-01-05 17:52:18.60	33.63	0.90	-49.6	-64.9	3.6	1.51e+00	0	30	104	0	60	85437
2026-01-05 17:52:19.61	33.56	0.95	-49.6	-64.8	3.6	1.51e+00	0	30	104	0	60	85152
2026-01-05 17:52:20.62	33.49	1.01	-49.6	-64.8	3.6	1.51e+00	0	30	104	0	60	85091
2026-01-05 17:52:21.64	33.42	1.06	-49.6	-64.9	3.6	1.51e+00	0	30	104	0	60	85375
2026-01-05 17:52:22.65	33.35	1.11	-49.6	-64.8	3.5	1.51e+00	0	30	104	0	60	85187
2026-01-05 17:52:23.66	33.28	1.17	-49.6	-64.8	3.6	1.51e+00	0	30	104	0	60	84588
2026-01-05 17:52:24.67	33.21	1.22	-49.6	-64.8	3.6	1.51e+00	0	30	104	0	60	84573
2026-01-05 17:52:25.68	33.14	1.27	-49.6	-64.8	3.6	1.51e+00	0	30	104	0	60	85025
2026-01-05 17:52:26.69	33.07	1.33	-49.6	-64.8	3.6	1.51e+00	0	30	104	0	60	84791
2026-01-05 17:52:27.70	33.00	1.38	-49.6	-64.8	3.6	1.51e+00	0	30	104	0	60	84460
2026-01-05 17:52:28.71	32.93	1.44	-49.6	-64.7	3.6	1.51e+00	0	30	104	0	60	84189
2026-01-05 17:52:29.72	32.86	1.49	-49.6	-64.8	3.6	1.51e+00	0	30	104	0	60	84718
2026-01-05 17:52:30.73	32.79	1.54	-49.6	-64.8	3.6	1.51e+00	0	30	104	0	60	84711
2026-01-05 17:52:31.75	32.72	1.60	-49.6	-64.8	3.6	1.51e+00	0	30	104	0	60	84961
2026-01-05 17:52:32.76	32.65	1.65	-49.6	-64.8	3.6	1.51e+00	0	30	104	0	60	85137
2026-01-05 17:52:33.77	32.57	1.71	-49.6	-64.9	3.6	1.51e+00	0	30	104	0	60	85667
2026-01-05 17:52:34.78	32.50	1.76	-49.6	-64.8	3.6	1.51e+00	0	30	104	0	60	84955
2026-01-05 17:52:35.79	32.43	1.81	-49.6	-64.8	3.6	1.51e+00	0	30	104	0	60	84921
2026-01-05 17:52:36.80	32.36	1.87	-49.6	-64.7	3.6	1.51e+00	0	30	104	0	60	84241
2026-01-05 17:52:37.81	32.28	1.92	-49.6	-64.7	3.6	1.51e+00	0	30	104	0	60	83719
2026-01-05 17:52:38.82	32.21	1.98	-49.6	-64.6	3.6	1.51e+00	0	30	104	0	60	83253
2026-01-05 17:52:39.83	32.13	2.03	-49.6	-64.4	3.6	1.51e+00	0	30	104	0	60	81385
2026-01-05 17:52:40.84	32.06	2.09	-49.6	-64.6	3.6	1.51e+00	0	30	104	0	60	82880
2026-01-05 17:52:41.86	31.99	2.14	-49.6	-64.7	3.6	1.51e+00	0	30	104	0	60	83879
2026-01-05 17:52:42.87	31.91	2.20	-49.6	-64.8	3.6	1.51e+00	0	30	104	0	60	84589
2026-01-05 17:52:43.88	31.84	2.25	-49.6	-64.9	3.6	1.51e+00	0	30	104	0	60	85789
2026-01-05 17:52:44.89	31.76	2.31	-49.6	-64.7	3.6	1.51e+00	0	30	104	0	60	84104
2026-01-05 17:52:45.90	31.69	2.36	-49.6	-64.7	3.6	1.51e+00	0	30	104	0	60	83512
2026-01-05 17:52:46.91	31.61	2.42	-49.6	-64.8	3.6	1.51e+00	0	30	104	0	60	84773
2026-01-05 17:52:47.92	31.53	2.47	-49.6	-64.8	3.6	1.51e+00	0	30	104	0	60	85197
2026-01-05 17:52:48.93	31.46	2.53	-49.6	-64.7	3.6	1.51e+00	0	30	104	0	60	84193
2026-01-05 17:52:49.94	31.38	2.58	-49.6	-64.3	3.6	1.51e+00	0	30	104	0	60	80016
2026-01-05 17:52:50.95	31.30	2.64	-49.6	-63.7	3.6	1.51e+00	0	30	104	0	60	74812
2026-01-05 17:52:51.97	31.23	2.69	-49.6	-63.7	3.6	1.51e+00	0	30	104	0	60	74381
2026-01-05 17:52:52.98	31.15	2.75	-49.6	-64.2	3.6	1.51e+00	0	30	104	0	60	79193
2026-01-05 17:52:53.99	31.07	2.80	-49.6	-64.5	3.6	1.51e+00	0	30	104	0	60	82129
2026-01-05 17:52:55.00	30.99	2.86	-49.6	-63.4	3.6	1.51e+00	0	30	104	0	60	71866
2026-01-05 17:52:56.01	30.91	2.91	-49.4	-60.3	4.5	1.50e+00	0	30	104	0	60	50422
2026-01-05 17:52:57.02	30.83	2.97	-49.1	-57.0	5.9	6.51e-01	0	30	0	0	60	34685
2026-01-05 17:52:58.03	30.75	3.02	-48.8	-55.4	7.3	1.64e-01	77	30	102	1048576	60	28830
2026-01-05 17:52:59.04	30.68	3.08	-49.7	-64.3	3.6	1.43e+00	0	30	104	1048576	60	80351
2026-01-05 17:53:00.06	30.59	3.14	-49.7	-64.6	3.6	1.51e+00	0	31	104	1048576	60	82349
2026-01-05 17:53:01.07	30.51	3.19	-49.1	-58.2	6.3	2.08e-01	0	30	104	1048576	60	39707
2026-01-05 17:53:02.08	30.43	3.25	-44.5	-46.4	17.6	0.00e+00	0	30	0	1048576	60	10213
2026-01-05 17:53:03.09	30.35	3.30	-49.5	-64.5	3.6	8.30e-01	0	30	104	1048576	60	81515
2026-01-05 17:53:04.10	30.27	3.36	-44.0	-45.9	17.3	5.04e-01	0	30	104	1048576	60	9563
2026-01-05 17:53:05.11	30.19	3.42	-44.2	-46.1	18.0	0.00e+00	91	30	0	1048576	60	9787
2026-01-05 17:53:06.12	30.11	3.47	-44.9	-47.0	17.2	0.00e+00	0	30	0	1048576	60	10932
2026-01-05 17:53:07.13	30.03	3.53	-44.2	-46.0	18.0	0.00e+00	26	30	0	1048576	60	9762
2026-01-05 17:53:08.14	29.94	3.58	-44.1	-46.0	18.0	0.00e+00	0	30	0	1048576	60	9688
2026-01-05 17:53:09.15	29.86	3.64	-44.5	-46.5	17.5	0.00e+00	0	30	0	1048576	60	10273
2026-01-05 17:53:10.16	29.78	3.70	-44.3	-46.2	17.9	0.00e+00	0	30	0	1048576	60	9961
2026-01-05 17:53:11.17	29.70	3.75	-44.1	-45.9	18.1	0.00e+00	0	30	0	1048576	60	9653
2026-01-05 17:53:12.18	29.61	3.81	-44.4	-46.3	17.8	0.00e+00	92	30	0	1048576	60	10073
2026-01-05 17:53:13.19	29.53	3.87	-44.3	-46.1	18.0	0.00e+00	0	30	0	1048576	60	9859
2026-01-05 17:53:14.20	29.44	3.92	-44.3	-46.1	17.9	0.00e+00	90	30	0	1048576	60	9857
2026-01-05 17:53:15.22	29.36	3.98	-44.3	-46.2	17.9	0.00e+00	0	30	0	1048576	60	9924
2026-01-05 17:53:16.23	29.27	4.04	-43.9	-45.6	18.5	0.00e+00	0	30	0	1048576	60	9287
2026-01-05 17:53:17.24	29.19	4.09	-44.0	-45.8	18.5	0.00e+00	0	30	0	1048576	60	9458
2026-01-05 17:53:18.25	29.10	4.15	-44.0	-45.8	18.4	0.00e+00	0	30	0	1048576	60	9494
2026-01-05 17:53:19.26	29.02	4.21	-44.0	-45.7	18.5	0.00e+00	88	31	0	1048576	60	9362
2026-01-05 17:53:20.27	28.93	4.26	-43.7	-45.3	18.8	0.00e+00	0	30	0	1048576	60	8959
2026-01-05 17:53:21.28	28.84	4.32	-43.9	-45.5	18.5	0.00e+00	88	30	0	1048576	60	9227
2026-01-05 17:53:22.29	28.76	4.38	-44.2	-45.9	18.3	0.00e+00	0	30	0	1048576	60	9660
2026-01-05 17:53:23.30	28.67	4.43	-43.9	-45.6	18.6	0.00e+00	0	30	101	1048576	60	9313
2026-01-05 17:53:24.32	28.58	4.49	-43.9	-45.6	18.7	0.00e+00	0	30	101	1048576	60	9281
2026-01-05 17:53:25.33	28.49	4.55	-43.6	-45.2	19.1	0.00e+00	0	30	101	1048576	60	8848
2026-01-05 17:53:26.34	28.40	4.61	-43.7	-45.3	18.9	0.00e+00	88	31	101	1048576	60	8966
2026-01-05 17:53:27.35	28.31	4.66	-43.5	-45.1	19.1	0.00e+00	0	30	101	1048576	60	8782
2026-01-05 17:53:28.36	28.22	4.72	-43.5	-45.1	19.0	0.00e+00	89	30	101	1048576	60	8772
2026-01-05 17:53:29.37	28.13	4.78	-43.8	-45.4	19.0	0.00e+00	0	31	101	1048576	60	9066
2026-01-05 17:53:30.38	28.04	4.83	-43.7	-45.3	19.0	0.00e+00	0	31	101	1048576	60	8965
2026-01-05 17:53:31.39	27.95	4.89	-43.4	-44.9	19.3	0.00e+00	0	31	101	1048576	60	8616
2026-01-05 17:53:32.40	27.86	4.95	-43.3	-44.7	19.4	0.00e+00	0	31	101	1048576	60	8400
2026-01-05 17:53:33.42	27.77	5.01	-43.1	-44.5	19.7	0.00e+00	0	30	101	1048576	60	8230
2026-01-05 17:53:34.43	27.68	5.07	-43.1	-44.6	19.7	0.00e+00	0	30	101	1048576	60	8244
2026-01-05 17:53:35.44	27.59	5.12	-43.5	-45.1	19.2	0.00e+00	82	31	101	1048576	60	8749
2026-01-05 17:53:36.45	27.50	5.18	-43.2	-44.7	19.6	0.00e+00	0	30	101	1048576	60	8334
2026-01-05 17:53:37.46	27.40	5.24	-43.1	-44.5	19.8	0.00e+00	0	31	101	1048576	60	8187
2026-01-05 17:53:38.47	27.31	5.30	-43.2	-44.7	19.6	0.00e+00	0	31	101	1048576	60	8350
2026-01-05 17:53:39.48	27.22	5.35	-43.0	-44.4	19.9	0.00e+00	0	31	101	1048576	60	8079
2026-01-05 17:53:40.49	27.12	5.41	-42.9	-44.2	20.0	0.00e+00	0	30	101	1048576	60	7950
2026-01-05 17:53:41.50	27.03	5.47	-42.8	-44.1	20.0	0.00e+00	0	30	101	1048576	60	7826
2026-01-05 17:53:42.52	26.93	5.53	-42.7	-44.0	20.2	0.00e+00	87	31	101	1048576	60	7694
2026-01-05 17:53:43.53	26.84	5.59	-42.8	-44.1	19.9	0.00e+00	0	31	101	1048576	60	7856
2026-01-05 17:53:44.54	26.74	5.64	-42.9	-44.3	19.9	0.00e+00	22	31	101	1048576	60	8015
2026-01-05 17:53:45.55	26.65	5.70	-42.9	-44.3	20.0	0.00e+00	0	31	101	1048576	60	7969
2026-01-05 17:53:46.56	26.55	5.76	-42.8	-44.1	20.3	0.00e+00	0	31	101	1048576	60	7789
2026-01-05 17:53:47.57	26.45	5.82	-42.7	-44.0	20.3	0.00e+00	0	31	101	1048576	60	7752
2026-01-05 17:53:48.58	26.36	5.88	-43.0	-44.4	20.0	0.00e+00	0	31	101	1048576	60	8054
2026-01-05 17:53:49.59	26.26	5.94	-42.8	-44.2	20.1	0.00e+00	80	31	101	1048576	60	7898
2026-01-05 17:53:50.61	26.16	6.00	-43.3	-44.7	19.6	0.00e+00	0	31	101	1048576	60	8397
2026-01-05 17:53:51.62	26.06	6.05	-43.3	-44.7	19.6	0.00e+00	44	31	101	1048576	60	8419
2026-01-05 17:53:52.63	25.96	6.11	-43.4	-44.9	19.6	0.00e+00	0	30	101	1048576	60	8532
2026-01-05 17:53:53.64	25.86	6.17	-43.3	-44.7	19.7	0.00e+00	0	31	101	1048576	60	8416
2026-01-05 17:53:54.65	25.76	6.23	-43.4	-44.8	19.6	0.00e+00	0	31	101	1048576	60	8497
2026-01-05 17:53:55.66	25.67	6.29	-43.3	-44.8	19.7	0.00e+00	0	31	101	1048576	60	8438
2026-01-05 17:53:56.67	25.56	6.35	-43.4	-44.8	19.4	0.00e+00	85	31	101	1048576	60	8513
2026-01-05 17:53:57.68	25.46	6.41	-43.4	-44.9	19.4	0.00e+00	0	31	101	1048576	60	8596
2026-01-05 17:53:58.69	25.36	6.47	-43.6	-45.1	19.3	0.00e+00	88	31	101	1048576	60	8781
2026-01-05 17:53:59.70	25.26	6.52	-43.9	-45.5	19.0	0.00e+00	0	31	101	1048576	60	9213
2026-01-05 17:54:00.72	25.16	6.58	-43.7	-45.2	19.3	0.00e+00	0	31	101	1048576	60	8892
2026-01-05 17:54:01.73	25.06	6.64	-43.6	-45.2	19.3	0.00e+00	0	31	101	1048576	60	8840
2026-01-05 17:54:02.74	24.95	6.70	-43.6	-45.1	19.3	0.00e+00	0	31	101	1048576	60	8802
2026-01-05 17:54:03.75	24.85	6.76	-43.4	-44.9	19.5	0.00e+00	85	31	101	1048576	60	8602
2026-01-05 17:54:04.76	24.75	6.82	-43.5	-44.9	19.7	0.00e+00	0	31	101	1048576	60	8587
2026-01-05 17:54:05.77	24.64	6.88	-43.6	-45.1	19.4	0.00e+00	89	31	101	1048576	60	8726
2026-01-05 17:54:06.78	24.54	6.94	-43.3	-44.7	19.9	0.00e+00	0	31	101	1048576	60	8344
2026-01-05 17:54:07.79	24.43	7.00	-43.2	-44.6	20.0	0.00e+00	0	31	101	1048576	60	8283
2026-01-05 17:54:08.80	24.33	7.06	-43.0	-44.3	20.1	0.00e+00	0	31	101	1048576	60	7987
2026-01-05 17:54:09.81	24.22	7.12	-43.1	-44.5	20.0	0.00e+00	0	31	101	1048576	60	8183
2026-01-05 17:54:10.83	24.11	7.18	-43.1	-44.4	20.0	0.00e+00	89	31	101	1048576	60	8119
2026-01-05 17:54:11.84	24.01	7.24	-43.1	-44.5	19.9	0.00e+00	0	31	101	1048576	60	8201
2026-01-05 17:54:12.85	23.90	7.30	-43.1	-44.4	19.8	0.00e+00	90	31	101	1048576	60	8131
2026-01-05 17:54:13.86	23.79	7.35	-43.3	-44.7	19.7	0.00e+00	0	31	101	1048576	60	8392
2026-01-05 17:54:14.87	23.68	7.41	-43.2	-44.5	19.7	0.00e+00	0	31	101	1048576	60	8227
2026-01-05 17:54:15.88	23.58	7.47	-43.2	-44.5	20.0	0.00e+00	0	31	101	1048576	60	8223
2026-01-05 17:54:16.89	23.47	7.53	-43.1	-44.5	19.8	0.00e+00	0	31	101	1048576	60	8179
2026-01-05 17:54:17.90	23.36	7.59	-43.0	-44.3	20.1	0.00e+00	81	31	101	1048576	60	8008
2026-01-05 17:54:18.91	23.25	7.65	-42.8	-44.0	20.4	0.00e+00	0	31	101	1048576	60	7770
2026-01-05 17:54:19.93	23.14	7.71	-42.9	-44.2	20.3	0.00e+00	64	31	101	1048576	60	7893
2026-01-05 17:54:20.94	23.02	7.77	-43.2	-44.6	19.8	0.00e+00	0	31	101	1048576	60	8319
2026-01-05 17:54:21.95	22.91	7.83	-43.2	-44.6	19.9	0.00e+00	0	31	101	1048576	60	8319
2026-01-05 17:54:22.96	22.80	7.89	-43.2	-44.7	19.7	0.00e+00	0	31	101	1048576	60	8334
2026-01-05 17:54:23.97	22.69	7.95	-43.4	-44.9	19.8	0.00e+00	0	31	101	1048576	60	8540
2026-01-05 17:54:24.98	22.58	8.01	-43.3	-44.8	19.8	0.00e+00	65	31	101	1048576	60	8425
2026-01-05 17:54:25.99	22.46	8.07	-43.3	-44.7	19.9	0.00e+00	0	31	101	1048576	60	8377
2026-01-05 17:54:27.00	22.35	8.13	-43.5	-44.9	19.7	0.00e+00	64	31	101	1048576	60	8612
2026-01-05 17:54:28.01	22.23	8.19	-43.4	-44.9	19.7	0.00e+00	0	31	101	1048576	60	8540
2026-01-05 17:54:29.02	22.12	8.25	-43.4	-44.9	19.8	0.00e+00	0	31	101	1048576	60	8597
2026-01-05 17:54:30.04	22.00	8.31	-43.3	-44.7	19.9	0.00e+00	0	31	101	1048576	60	8373
2026-01-05 17:54:31.05	21.89	8.37	-43.3	-44.7	19.8	0.00e+00	0	31	101	1048576	60	8395
2026-01-05 17:54:32.06	21.77	8.43	-43.2	-44.6	19.9	0.00e+00	50	31	101	1048576	60	8325
2026-01-05 17:54:33.07	21.65	8.49	-43.3	-44.7	19.8	0.00e+00	0	31	101	1048576	60	8422
2026-01-05 17:54:34.08	21.54	8.55	-43.1	-44.5	20.0	0.00e+00	54	31	101	1048576	60	8226
2026-01-05 17:54:35.09	21.42	8.62	-43.2	-44.6	20.0	0.00e+00	0	31	101	1048576	60	8261
2026-01-05 17:54:36.10	21.30	8.68	-43.2	-44.6	20.0	0.00e+00	47	31	101	1048576	60	8285
2026-01-05 17:54:37.11	21.18	8.74	-43.1	-44.6	20.1	0.00e+00	0	31	101	1048576	60	8246
2026-01-05 17:54:38.13	21.06	8.80	-43.1	-44.4	20.1	0.00e+00	0	31	101	1048576	60	8137
2026-01-05 17:54:39.14	20.94	8.86	-42.8	-44.1	20.5	0.00e+00	0	31	101	1048576	60	7824
2026-01-05 17:54:40.15	20.82	8.92	-42.6	-43.9	20.6	0.00e+00	0	31	101	1048576	60	7671
2026-01-05 17:54:41.16	20.70	8.98	-42.5	-43.8	20.7	0.00e+00	84	31	101	1048576	60	7558
2026-01-05 17:54:42.17	20.58	9.04	-42.7	-44.0	20.4	0.00e+00	0	31	101	1048576	60	7729
2026-01-05 17:54:43.18	20.46	9.10	-42.7	-44.0	20.5	0.00e+00	88	31	101	1048576	60	7760
2026-01-05 17:54:44.19	20.34	9.16	-42.4	-43.7	20.8	0.00e+00	0	31	101	1048576	60	7452
2026-01-05 17:54:45.21	20.21	9.22	-42.6	-43.9	20.7	0.00e+00	0	31	101	1048576	60	7596
2026-01-05 17:54:46.22	20.09	9.28	-42.6	-43.8	20.7	0.00e+00	0	31	101	1048576	60	7583
2026-01-05 17:54:47.23	19.96	9.34	-42.4	-43.6	20.9	0.00e+00	0	31	101	1048576	60	7366
2026-01-05 17:54:48.24	19.84	9.40	-42.3	-43.6	21.0	0.00e+00	0	31	101	1048576	60	7347
2026-01-05 17:54:49.25	19.71	9.46	-42.3	-43.5	21.1	0.00e+00	0	31	101	1048576	60	7314
2026-01-05 17:54:50.26	19.59	9.52	-42.3	-43.5	21.0	0.00e+00	76	31	101	1048576	60	7305
2026-01-05 17:54:51.27	19.46	9.58	-42.3	-43.5	21.1	0.00e+00	0	31	101	1048576	60	7310
2026-01-05 17:54:52.28	19.34	9.64	-42.3	-43.6	20.9	0.00e+00	0	31	101	1048576	60	7352
2026-01-05 17:54:53.29	19.21	9.71	-42.3	-43.5	20.9	0.00e+00	0	31	101	1048576	60	7315
2026-01-05 17:54:54.30	19.08	9.77	-42.4	-43.7	21.0	0.00e+00	0	31	101	1048576	60	7430
2026-01-05 17:54:55.31	18.95	9.83	-42.5	-43.8	20.8	0.00e+00	90	31	101	1048576	60	7526
2026-01-05 17:54:56.32	18.82	9.89	-42.8	-44.1	20.5	0.00e+00	0	31	101	1048576	60	7823
2026-01-05 17:54:57.33	18.70	9.95	-42.8	-44.2	20.5	0.00e+00	70	31	101	1048576	60	7876
2026-01-05 17:54:58.35	18.56	10.01	-43.0	-44.4	20.3	0.00e+00	0	31	101	1048576	60	8054
2026-01-05 17:54:59.36	18.43	10.07	-42.7	-44.1	20.5	0.00e+00	0	31	101	1048576	60	7793
2026-01-05 17:55:00.37	18.30	10.13	-42.8	-44.1	20.5	0.00e+00	0	31	101	1048576	60	7835
2026-01-05 17:55:01.38	18.17	10.19	-42.8	-44.1	20.7	0.00e+00	0	31	101	1048576	60	7808
2026-01-05 17:55:02.39	18.04	10.25	-42.7	-44.0	20.7	0.00e+00	15	31	101	1048576	60	7702
2026-01-05 17:55:03.40	17.91	10.31	-42.6	-44.0	20.7	0.00e+00	0	31	101	1048576	60	7693
2026-01-05 17:55:04.41	17.77	10.37	-42.5	-43.7	20.9	0.00e+00	84	31	101	1048576	60	7488
2026-01-05 17:55:05.43	17.64	10.43	-42.4	-43.7	20.9	0.00e+00	0	31	101	1048576	60	7426
2026-01-05 17:55:06.44	17.50	10.50	-42.7	-44.0	20.8	0.00e+00	0	31	101	1048576	60	7698
2026-01-05 17:55:07.45	17.37	10.56	-42.5	-43.7	20.8	0.00e+00	0	31	101	1048576	60	7463
2026-01-05 17:55:08.46	17.23	10.62	-42.3	-43.5	20.6	0.00e+00	0	31	101	1048576	60	7279
2026-01-05 17:55:09.47	17.10	10.68	-42.2	-43.4	21.2	0.00e+00	73	31	101	1048576	60	7213
2026-01-05 17:55:10.48	16.96	10.74	-42.0	-43.2	21.3	0.00e+00	0	31	101	1048576	60	7015
2026-01-05 17:55:11.49	16.82	10.80	-41.9	-43.0	21.5	0.00e+00	73	31	101	1048576	60	6878
2026-01-05 17:55:12.50	16.68	10.86	-42.0	-43.2	21.3	0.00e+00	0	31	101	1048576	60	7034
2026-01-05 17:55:13.51	16.55	10.92	-42.0	-43.1	21.3	0.00e+00	0	31	101	1048576	60	7007
2026-01-05 17:55:14.52	16.41	10.98	-41.9	-43.0	21.4	0.00e+00	0	31	101	1048576	60	6905
2026-01-05 17:55:15.54	16.27	11.04	-42.1	-43.3	21.2	0.00e+00	0	31	101	1048576	60	7095
2026-01-05 17:55:16.55	16.13	11.10	-42.0	-43.2	21.4	0.00e+00	65	31	101	1048576	60	7070
2026-01-05 17:55:17.56	15.99	11.16	-42.1	-43.3	21.4	0.00e+00	0	31	101	1048576	60	7109
2026-01-05 17:55:18.57	15.84	11.22	-42.2	-43.4	21.2	0.00e+00	89	31	101	1048576	60	7222
2026-01-05 17:55:19.58	15.70	11.28	-42.2	-43.4	21.1	0.00e+00	0	31	101	1048576	60	7206
2026-01-05 17:55:20.59	15.56	11.34	-42.2	-43.4	21.2	0.00e+00	0	31	101	1048576	60	7175
2026-01-05 17:55:21.60	15.42	11.40	-41.9	-43.1	21.4	0.00e+00	0	31	101	1048576	60	6963
2026-01-05 17:55:22.61	15.27	11.46	-42.0	-43.2	21.4	0.00e+00	0	31	101	1048576	60	7069
2026-01-05 17:55:23.62	15.13	11.53	-42.3	-43.6	21.1	0.00e+00	73	31	101	1048576	60	7348
2026-01-05 17:55:24.64	14.98	11.59	-42.3	-43.5	21.2	0.00e+00	0	31	101	1048576	60	7278
2026-01-05 17:55:25.65	14.84	11.65	-42.2	-43.5	21.2	0.00e+00	19	31	101	1048576	60	7260
2026-01-05 17:55:26.66	14.69	11.71	-42.3	-43.5	21.2	0.00e+00	0	31	101	1048576	60	7265
2026-01-05 17:55:27.67	14.54	11.77	-42.4	-43.6	21.1	0.00e+00	15	31	101	1048576	60	7389
2026-01-05 17:55:28.68	14.40	11.83	-42.2	-43.4	21.4	0.00e+00	0	31	101	1048576	60	7191
2026-01-05 17:55:29.69	14.25	11.89	-42.2	-43.4	21.1	0.00e+00	0	31	101	1048576	60	7204
2026-01-05 17:55:30.70	14.10	11.95	-42.0	-43.1	21.4	0.00e+00	0	31	101	1048576	60	6995
2026-01-05 17:55:31.71	13.95	12.01	-41.9	-43.1	21.6	0.00e+00	0	31	101	1048576	60	6937
2026-01-05 17:55:32.72	13.80	12.07	-41.8	-43.0	21.5	0.00e+00	88	31	101	1048576	60	6861
2026-01-05 17:55:33.74	13.65	12.13	-42.0	-43.2	21.5	0.00e+00	0	31	101	1048576	60	7008
2026-01-05 17:55:34.75	13.50	12.19	-42.3	-43.4	21.3	0.00e+00	90	31	101	1048576	60	7244
2026-01-05 17:55:35.76	13.34	12.25	-42.6	-43.9	21.0	0.00e+00	0	31	101	1048576	60	7605
2026-01-05 17:55:36.77	13.19	12.31	-42.6	-43.9	20.9	0.00e+00	0	31	101	1048576	60	7631
2026-01-05 17:55:37.78	13.04	12.37	-42.5	-43.8	20.9	0.00e+00	0	31	101	1048576	60	7532
2026-01-05 17:55:38.79	12.88	12.43	-42.4	-43.6	21.1	0.00e+00	0	31	101	1048576	60	7365
2026-01-05 17:55:39.80	12.73	12.49	-42.1	-43.3	21.3	0.00e+00	0	31	101	1048576	60	7123
2026-01-05 17:55:40.81	12.58	12.55	-42.3	-43.6	21.0	0.00e+00	0	31	101	1048576	60	7341
2026-01-05 17:55:41.83	12.42	12.61	-42.4	-43.6	21.0	0.00e+00	65	31	101	1048576	60	7409
2026-01-05 17:55:42.84	12.26	12.67	-42.4	-43.6	21.2	0.00e+00	0	31	101	1048576	60	7350
2026-01-05 17:55:43.85	12.10	12.73	-42.7	-44.0	20.8	0.00e+00	0	31	101	1048576	60	7709
2026-01-05 17:55:44.86	11.95	12.79	-42.7	-44.0	20.8	0.00e+00	0	31	101	1048576	60	7742
2026-01-05 17:55:45.87	11.79	12.84	-42.7	-44.0	20.8	0.00e+00	0	31	101	1048576	60	7714
2026-01-05 17:55:46.88	11.63	12.90	-42.6	-43.8	20.8	0.00e+00	72	31	101	1048576	60	7573
2026-01-05 17:55:47.89	11.47	12.96	-42.3	-43.5	21.1	0.00e+00	0	31	101	1048576	60	7303
2026-01-05 17:55:48.91	11.31	13.02	-42.2	-43.4	21.2	0.00e+00	31	31	101	1048576	60	7224
2026-01-05 17:55:49.92	11.15	13.08	-42.1	-43.2	21.4	0.00e+00	0	31	101	1048576	60	7070
2026-01-05 17:55:50.93	10.99	13.14	-42.2	-43.4	21.3	0.00e+00	0	31	101	1048576	60	7235
2026-01-05 17:55:51.94	10.82	13.20	-42.1	-43.3	21.4	0.00e+00	0	31	101	1048576	60	7145
2026-01-05 17:55:52.95	10.66	13.26	-42.2	-43.4	21.4	0.00e+00	0	31	101	1048576	60	7183
2026-01-05 17:55:53.96	10.50	13.32	-42.2	-43.4	21.3	0.00e+00	92	31	101	1048576	60	7181
2026-01-05 17:55:54.97	10.33	13.37	-42.3	-43.4	21.2	0.00e+00	0	31	101	1048576	60	7248
2026-01-05 17:55:55.99	10.17	13.43	-42.5	-43.7	21.0	0.00e+00	91	31	101	1048576	60	7455
2026-01-05 17:55:57.00	10.00	13.49	-42.0	-43.1	21.5	0.00e+00	0	31	101	1048576	60	6963
2026-01-05 17:55:58.01	9.84	13.55	-42.1	-43.2	21.5	0.00e+00	0	31	101	1048576	60	7057
2026-01-05 17:55:59.02	9.67	13.61	-42.1	-43.3	21.5	0.00e+00	0	31	101	1048576	60	7106
2026-01-05 17:56:00.03	9.50	13.67	-42.1	-43.3	21.4	0.00e+00	0	31	101	1048576	60	7124
2026-01-05 17:56:01.04	9.33	13.72	-42.3	-43.5	21.2	0.00e+00	59	31	101	1048576	60	7310
2026-01-05 17:56:02.05	9.16	13.78	-42.6	-43.9	20.7	0.00e+00	0	31	101	1048576	60	7663
2026-01-05 17:56:03.07	8.99	13.84	-42.9	-44.3	20.6	0.00e+00	91	31	101	1048576	60	7968
2026-01-05 17:56:04.08	8.82	13.90	-42.7	-44.0	20.8	0.00e+00	0	31	101	1048576	60	7763
2026-01-05 17:56:05.09	8.65	13.96	-42.6	-43.9	20.8	0.00e+00	0	31	101	1048576	60	7653
2026-01-05 17:56:06.10	8.48	14.01	-42.5	-43.8	20.7	0.00e+00	0	31	101	1048576	60	7563
2026-01-05 17:56:07.11	8.31	14.07	-42.3	-43.5	21.0	0.00e+00	0	31	101	1048576	60	7324
2026-01-05 17:56:08.12	8.14	14.13	-42.0	-43.1	21.5	0.00e+00	0	31	101	1048576	60	7005
2026-01-05 17:56:09.13	7.96	14.18	-41.8	-42.9	21.7	0.00e+00	0	31	101	1048576	60	6836
2026-01-05 17:56:10.14	7.79	14.24	-41.6	-42.8	21.7	0.00e+00	88	31	101	1048576	60	6701
2026-01-05 17:56:11.15	7.61	14.30	-41.7	-42.8	21.9	0.00e+00	0	31	101	1048576	60	6741
2026-01-05 17:56:12.16	7.44	14.35	-41.6	-42.8	21.9	0.00e+00	0	31	101	1048576	60	6704
2026-01-05 17:56:13.17	7.26	14.41	-41.4	-42.5	22.1	0.00e+00	0	31	101	1048576	60	6475
2026-01-05 17:56:14.19	7.08	14.47	-41.1	-42.2	22.4	0.00e+00	0	31	101	1048576	60	6247
2026-01-05 17:56:15.20	6.90	14.52	-41.0	-42.1	22.6	0.00e+00	0	31	101	1048576	60	6176
2026-01-05 17:56:16.21	6.73	14.58	-40.9	-41.9	22.6	0.00e+00	0	31	101	1048576	60	6068
2026-01-05 17:56:17.22	6.55	14.63	-40.6	-41.6	22.8	0.00e+00	57	31	101	1048576	60	5850
2026-01-05 17:56:18.23	6.37	14.69	-40.7	-41.8	22.6	0.00e+00	0	31	101	1048576	60	5977
2026-01-05 17:56:19.24	6.19	14.75	-40.9	-41.9	22.6	0.00e+00	92	31	101	1048576	60	6053
2026-01-05 17:56:20.25	6.01	14.80	-40.9	-41.9	22.6	0.00e+00	0	31	101	1048576	60	6056
2026-01-05 17:56:21.26	5.82	14.86	-40.7	-41.7	22.7	0.00e+00	0	31	101	1048576	60	5955
2026-01-05 17:56:22.27	5.64	14.91	-40.7	-41.7	22.7	0.00e+00	0	31	101	1048576	60	5928
2026-01-05 17:56:23.28	5.46	14.97	-40.7	-41.7	22.8	0.00e+00	0	31	101	1048576	60	5903
2026-01-05 17:56:24.29	5.27	15.02	-40.3	-41.3	23.0	0.00e+00	87	31	101	1048576	60	5666
2026-01-05 17:56:25.30	5.09	15.08	-40.3	-41.3	23.0	0.00e+00	0	31	101	1048576	60	5667
2026-01-05 17:56:26.31	4.90	15.13	-40.4	-41.3	23.0	0.00e+00	92	31	101	1048576	60	5686
2026-01-05 17:56:27.33	4.72	15.18	-40.4	-41.4	23.0	0.00e+00	0	31	101	1048576	60	5718
2026-01-05 17:56:28.34	4.53	15.24	-40.6	-41.6	22.9	0.00e+00	0	31	101	1048576	60	5834
2026-01-05 17:56:29.35	4.34	15.29	-40.5	-41.5	22.8	0.00e+00	0	31	101	1048576	60	5794
2026-01-05 17:56:30.36	4.16	15.35	-40.5	-41.5	22.9	0.00e+00	0	31	101	1048576	60	5791
2026-01-05 17:56:31.37	3.97	15.40	-40.7	-41.7	22.7	0.00e+00	0	31	101	1048576	60	5962
2026-01-05 17:56:32.38	3.78	15.45	-40.6	-41.6	22.8	0.00e+00	0	31	101	1048576	60	5871
2026-01-05 17:56:33.39	3.59	15.50	-40.9	-41.9	22.6	0.00e+00	92	31	101	1048576	60	6068
2026-01-05 17:56:34.40	3.40	15.56	-41.0	-42.1	22.4	0.00e+00	0	31	101	1048576	60	6186
2026-01-05 17:56:35.41	3.21	15.61	-41.3	-42.4	22.3	0.00e+00	0	31	101	1048576	60	6437
2026-01-05 17:56:36.42	3.01	15.66	-41.3	-42.4	22.1	0.00e+00	0	31	101	1048576	60	6443
2026-01-05 17:56:37.44	2.82	15.71	-41.5	-42.7	22.1	0.00e+00	0	31	101	1048576	60	6640
2026-01-05 17:56:38.45	2.63	15.77	-41.3	-42.4	22.2	0.00e+00	73	31	101	1048576	60	6454
2026-01-05 17:56:39.46	2.43	15.82	-41.0	-42.1	22.3	0.00e+00	0	31	101	1048576	60	6182
2026-01-05 17:56:40.47	2.24	15.87	-40.9	-42.0	22.8	0.00e+00	50	31	101	1048576	60	6128
2026-01-05 17:56:41.48	2.04	15.92	-40.1	-41.1	23.4	0.00e+00	0	31	101	1048576	60	5520
2026-01-05 17:56:42.49	1.84	15.97	-39.8	-40.7	23.6	0.00e+00	0	31	101	1048576	58	5939
2026-01-05 17:56:43.50	1.65	16.02	-39.8	-40.7	23.5	0.00e+00	0	31	101	1048576	58	5931
2026-01-05 17:56:44.51	1.45	16.07	-39.9	-40.8	23.5	0.00e+00	0	31	101	1048576	58	5999
2026-01-05 17:56:45.53	1.25	16.12	-39.6	-40.5	23.6	0.00e+00	88	31	101	1048576	58	5791
2026-01-05 17:56:46.54	1.05	16.17	-39.5	-40.4	23.8	0.00e+00	0	31	101	1048576	58	5727
2026-01-05 17:56:47.55	0.85	16.22	-39.3	-40.2	23.9	0.00e+00	89	31	101	1048576	58	5578
2026-01-05 17:56:48.56	0.65	16.27	-39.5	-40.3	23.7	0.00e+00	0	31	101	1048576	58	5695
2026-01-05 17:56:49.57	0.45	16.32	-39.7	-40.6	23.6	0.00e+00	16	31	101	1048576	58	5837
2026-01-05 17:56:50.58	0.25	16.37	-39.8	-40.8	23.0	0.00e+00	0	31	101	1048576	58	5982
2026-01-05 17:56:51.59	0.05	16.42	-40.1	-41.0	23.1	0.00e+00	0	31	101	1048576	58	6168
2026-01-05 17:56:52.60	359.84	16.47	-40.1	-41.1	23.2	0.00e+00	0	31	101	1048576	58	6198
2026-01-05 17:56:53.61	359.64	16.52	-40.1	-41.1	23.3	0.00e+00	33	31	101	1048576	58	6203
2026-01-05 17:56:54.62	359.44	16.56	-40.1	-41.0	23.3	0.00e+00	88	31	101	1048576	58	6144
2026-01-05 17:56:55.64	359.23	16.61	-39.9	-40.9	23.4	0.00e+00	0	31	101	1048576	58	6056
2026-01-05 17:56:56.65	359.02	16.66	-39.7	-40.6	23.5	0.00e+00	92	31	101	1048576	58	5867
2026-01-05 17:56:57.66	358.82	16.71	-39.7	-40.6	23.6	0.00e+00	0	31	101	1048576	58	5887
2026-01-05 17:56:58.67	358.61	16.75	-40.0	-40.9	23.3	0.00e+00	0	31	101	1048576	58	6084
2026-01-05 17:56:59.68	358.40	16.80	-40.1	-41.1	23.3	0.00e+00	0	31	101	1048576	58	6202
2026-01-05 17:57:00.69	358.20	16.85	-40.0	-41.0	23.3	0.00e+00	0	31	101	1048576	58	6104
2026-01-05 17:57:01.70	357.99	16.89	-39.8	-40.7	23.5	0.00e+00	92	31	101	1048576	58	5963
2026-01-05 17:57:02.71	357.78	16.94	-39.9	-40.9	23.4	0.00e+00	0	31	101	1048576	58	6053
2026-01-05 17:57:03.72	357.57	16.98	-39.7	-40.6	23.5	0.00e+00	71	31	101	1048576	58	5842
2026-01-05 17:57:04.73	357.36	17.03	-39.4	-40.3	23.9	0.00e+00	31	31	101	1048576	58	5665
2026-01-05 17:57:05.74	357.15	17.07	-39.3	-40.2	23.9	0.00e+00	0	31	101	1048576	56	6259
2026-01-05 17:57:06.76	356.93	17.12	-39.0	-39.9	24.2	0.00e+00	0	31	101	1048576	56	6047
2026-01-05 17:57:07.77	356.72	17.16	-39.1	-39.9	24.1	0.00e+00	0	31	101	1048576	56	6071
2026-01-05 17:57:08.78	356.51	17.20	-39.1	-39.9	24.2	0.00e+00	92	31	101	1048576	56	6084
2026-01-05 17:57:09.79	356.29	17.25	-39.1	-40.0	24.1	0.00e+00	0	31	101	1048576	56	6133
2026-01-05 17:57:10.80	356.08	17.29	-39.2	-40.1	24.0	0.00e+00	92	31	101	1048576	56	6201
2026-01-05 17:57:11.81	355.86	17.33	-39.3	-40.1	24.0	0.00e+00	0	31	101	1048576	56	6218
2026-01-05 17:57:12.82	355.65	17.38	-39.3	-40.1	24.0	0.00e+00	0	31	101	1048576	56	6242
2026-01-05 17:57:13.83	355.43	17.42	-39.2	-40.1	24.0	0.00e+00	0	31	101	1048576	56	6194
2026-01-05 17:57:14.84	355.21	17.46	-39.4	-40.3	23.9	0.00e+00	0	31	101	1048576	56	6349
2026-01-05 17:57:15.85	355.00	17.50	-39.8	-40.7	23.5	0.00e+00	92	31	101	1048576	56	6658
2026-01-05 17:57:16.86	354.78	17.54	-40.1	-41.1	23.3	0.00e+00	0	31	101	1048576	56	6932
2026-01-05 17:57:17.88	354.56	17.58	-40.2	-41.2	23.0	0.00e+00	92	31	101	1048576	58	6252
2026-01-05 17:57:18.89	354.34	17.62	-40.2	-41.2	23.3	0.00e+00	0	31	101	1048576	58	6260
2026-01-05 17:57:19.90	354.12	17.66	-40.2	-41.1	23.3	0.00e+00	0	31	101	1048576	58	6241
2026-01-05 17:57:20.91	353.90	17.70	-40.0	-41.0	23.4	0.00e+00	0	31	101	1048576	58	6134
2026-01-05 17:57:21.92	353.68	17.74	-39.9	-40.9	23.3	0.00e+00	0	31	101	1048576	58	6064
2026-01-05 17:57:22.93	353.46	17.78	-39.8	-40.8	23.5	0.00e+00	1	31	101	1048576	58	5971
2026-01-05 17:57:23.94	353.23	17.82	-39.9	-40.9	23.4	0.00e+00	0	31	101	1048576	58	6067
2026-01-05 17:57:24.95	353.01	17.85	-39.8	-40.8	23.5	0.00e+00	89	31	101	1048576	58	5986
2026-01-05 17:57:25.96	352.79	17.89	-39.6	-40.5	23.7	0.00e+00	0	31	101	1048576	58	5825
2026-01-05 17:57:26.97	352.56	17.93	-39.6	-40.6	23.7	0.00e+00	0	31	101	1048576	58	5837
2026-01-05 17:57:27.99	352.34	17.97	-39.4	-40.3	23.3	0.00e+00	0	31	101	1048576	58	5648
2026-01-05 17:57:29.00	352.11	18.00	-39.0	-39.8	24.0	0.00e+00	0	31	101	1048576	56	6027
2026-01-05 17:57:30.01	351.89	18.04	-39.0	-39.9	24.3	0.00e+00	0	31	101	1048576	56	6051
2026-01-05 17:57:31.02	351.66	18.07	-38.8	-39.7	24.3	0.00e+00	0	31	101	1048576	56	5910
2026-01-05 17:57:32.03	351.43	18.11	-39.1	-39.9	24.2	0.00e+00	62	31	101	1048576	56	6080
2026-01-05 17:57:33.04	351.21	18.14	-39.0	-39.9	24.3	0.00e+00	0	31	101	1048576	56	6044
2026-01-05 17:57:34.05	350.98	18.18	-39.2	-40.1	24.1	0.00e+00	66	31	101	1048576	56	6200
2026-01-05 17:57:35.06	350.75	18.21	-39.0	-39.9	24.2	0.00e+00	0	31	101	1048576	56	6052
2026-01-05 17:57:36.08	350.52	18.25	-38.9	-39.7	24.5	0.00e+00	0	31	101	1048576	56	5930
2026-01-05 17:57:37.09	350.29	18.28	-38.7	-39.5	24.5	0.00e+00	1	31	101	1048576	56	5787
2026-01-05 17:57:38.10	350.06	18.31	-38.7	-39.5	24.5	0.00e+00	0	31	101	1048576	56	5775
2026-01-05 17:57:39.11	349.83	18.34	-38.8	-39.6	24.3	0.00e+00	92	31	101	1048576	56	5874
2026-01-05 17:57:40.12	349.60	18.37	-39.1	-40.0	23.9	0.00e+00	0	31	101	1048576	56	6122
2026-01-05 17:57:41.13	349.37	18.41	-39.6	-40.4	23.9	0.00e+00	68	31	101	1048576	56	6452
2026-01-05 17:57:42.14	349.14	18.44	-39.5	-40.4	23.9	0.00e+00	0	31	101	1048576	56	6409
2026-01-05 17:57:43.15	348.91	18.47	-39.7	-40.6	23.8	0.00e+00	0	31	101	1048576	56	6554
2026-01-05 17:57:44.17	348.67	18.50	-39.7	-40.6	23.6	0.00e+00	5	31	101	1048576	56	6577
2026-01-05 17:57:45.18	348.44	18.53	-39.6	-40.5	23.8	0.00e+00	0	31	101	1048576	56	6468
2026-01-05 17:57:46.19	348.20	18.55	-39.7	-40.5	23.6	0.00e+00	92	31	101	1048576	56	6528
2026-01-05 17:57:47.20	347.97	18.58	-39.8	-40.7	23.6	0.00e+00	0	31	101	1048576	56	6640
2026-01-05 17:57:48.21	347.74	18.61	-40.0	-40.9	23.5	0.00e+00	92	31	101	1048576	56	6808
2026-01-05 17:57:49.22	347.50	18.64	-40.2	-41.1	23.3	0.00e+00	0	31	101	1048576	58	6232
2026-01-05 17:57:50.23	347.27	18.67	-40.4	-41.3	23.0	0.00e+00	0	31	101	1048576	58	6363
2026-01-05 17:57:51.24	347.03	18.69	-40.4	-41.4	22.7	0.00e+00	0	31	101	1048576	58	6428
2026-01-05 17:57:52.25	346.79	18.72	-40.6	-41.6	22.9	0.00e+00	0	31	101	1048576	58	6557
2026-01-05 17:57:53.26	346.56	18.74	-40.4	-41.4	23.0	0.00e+00	44	31	101	1048576	58	6428
2026-01-05 17:57:54.28	346.32	18.77	-40.5	-41.4	23.0	0.00e+00	0	31	101	1048576	58	6451
2026-01-05 17:57:55.29	346.08	18.79	-40.5	-41.5	22.9	0.00e+00	92	31	101	1048576	58	6472
2026-01-05 17:57:56.30	345.84	18.82	-40.5	-41.4	23.0	0.00e+00	0	31	101	1048576	58	6460
2026-01-05 17:57:57.31	345.61	18.84	-40.6	-41.6	22.9	0.00e+00	0	31	101	1048576	58	6553
2026-01-05 17:57:58.32	345.37	18.87	-40.4	-41.4	23.1	0.00e+00	0	31	101	1048576	58	6415
2026-01-05 17:57:59.33	345.13	18.89	-40.3	-41.2	23.2	0.00e+00	0	31	101	1048576	58	6299
2026-01-05 17:58:00.34	344.89	18.91	-40.1	-41.0	23.2	0.00e+00	91	31	101	1048576	58	6125
2026-01-05 17:58:01.35	344.65	18.93	-39.7	-40.6	23.7	0.00e+00	0	31	101	1048576	58	5868
2026-01-05 17:58:02.36	344.41	18.95	-39.5	-40.4	23.9	0.00e+00	92	31	101	1048576	58	5727
2026-01-05 17:58:03.38	344.17	18.97	-39.7	-40.6	23.6	0.00e+00	0	31	101	1048576	58	5879
2026-01-05 17:58:04.39	343.93	18.99	-40.0	-41.0	23.5	0.00e+00	0	31	101	1048576	58	6119
2026-01-05 17:58:05.40	343.69	19.01	-40.3	-41.2	23.2	0.00e+00	0	31	101	1048576	58	6293
2026-01-05 17:58:06.41	343.45	19.03	-40.4	-41.4	23.1	0.00e+00	0	31	101	1048576	58	6424
2026-01-05 17:58:07.42	343.20	19.05	-40.6	-41.6	22.8	0.00e+00	0	31	101	1048576	58	6594
2026-01-05 17:58:08.43	342.96	19.07	-40.4	-41.4	23.1	0.00e+00	0	31	101	1048576	58	6415
2026-01-05 17:58:09.44	342.72	19.09	-40.5	-41.5	23.0	0.00e+00	88	31	101	1048576	58	6491
2026-01-05 17:58:10.45	342.48	19.10	-40.7	-41.7	22.9	0.00e+00	0	31	101	1048576	58	6636
2026-01-05 17:58:11.46	342.24	19.12	-40.7	-41.7	23.0	0.00e+00	0	31	101	1048576	58	6622
2026-01-05 17:58:12.48	341.99	19.14	-40.9	-41.9	22.5	0.00e+00	0	31	101	1048576	58	6815
2026-01-05 17:58:13.49	341.75	19.15	-41.3	-42.4	22.2	0.00e+00	0	31	101	1048576	60	6427
2026-01-05 17:58:14.50	341.50	19.17	-41.8	-43.0	21.7	0.00e+00	65	31	101	1048576	60	6909
2026-01-05 17:58:15.51	341.26	19.18	-42.4	-43.7	21.3	0.00e+00	0	31	101	1048576	60	7478
2026-01-05 17:58:16.52	341.02	19.20	-42.5	-43.8	21.0	0.00e+00	89	31	101	1048576	60	7530
2026-01-05 17:58:17.53	340.77	19.21	-42.4	-43.7	21.1	0.00e+00	0	31	101	1048576	60	7436
2026-01-05 17:58:18.54	340.53	19.22	-41.8	-43.0	21.7	0.00e+00	0	31	101	1048576	60	6867
2026-01-05 17:58:19.55	340.28	19.23	-41.5	-42.6	22.1	0.00e+00	0	31	101	1048576	60	6540
2026-01-05 17:58:20.56	340.04	19.25	-40.8	-41.9	22.7	0.00e+00	0	31	101	1048576	60	6060
2026-01-05 17:58:21.57	339.79	19.26	-40.5	-41.5	23.1	0.00e+00	33	31	101	1048576	60	5775
2026-01-05 17:58:22.58	339.55	19.27	-40.5	-41.5	23.0	0.00e+00	0	31	101	1048576	60	5775
2026-01-05 17:58:23.60	339.30	19.28	-40.7	-41.7	22.8	0.00e+00	89	31	101	1048576	60	5927
2026-01-05 17:58:24.61	339.06	19.29	-40.8	-41.8	22.7	0.00e+00	0	31	101	1048576	60	6033
2026-01-05 17:58:25.62	338.81	19.30	-41.0	-42.1	22.5	0.00e+00	0	31	101	1048576	60	6175
2026-01-05 17:58:26.63	338.57	19.30	-41.2	-42.2	22.4	0.00e+00	0	31	101	1048576	60	6310
2026-01-05 17:58:27.64	338.32	19.31	-41.0	-42.0	22.6	0.00e+00	0	31	101	1048576	60	6134
2026-01-05 17:58:28.65	338.07	19.32	-40.9	-41.9	22.6	0.00e+00	0	31	101	1048576	60	6084
2026-01-05 17:58:29.66	337.83	19.33	-40.7	-41.7	23.0	0.00e+00	0	31	101	1048576	60	5898
2026-01-05 17:58:30.67	337.58	19.33	-40.3	-41.3	23.2	0.00e+00	87	31	101	1048576	60	5638
2026-01-05 17:58:31.69	337.33	19.34	-39.9	-40.8	23.5	0.00e+00	0	31	101	1048576	58	5977
2026-01-05 17:58:32.70	337.09	19.34	-39.9	-40.8	23.4	0.00e+00	90	31	101	1048576	58	6013
2026-01-05 17:58:33.71	336.84	19.35	-39.9	-40.8	23.3	0.00e+00	0	31	101	1048576	58	6019
2026-01-05 17:58:34.72	336.59	19.35	-40.0	-40.9	23.3	0.00e+00	0	31	101	1048576	58	6099
2026-01-05 17:58:35.73	336.35	19.36	-40.3	-41.3	23.0	0.00e+00	0	31	101	1048576	58	6336
2026-01-05 17:58:36.74	336.10	19.36	-40.5	-41.5	23.0	0.00e+00	0	31	101	1048576	58	6480
2026-01-05 17:58:37.75	335.85	19.36	-40.6	-41.6	22.8	0.00e+00	92	31	101	1048576	58	6581
2026-01-05 17:58:38.76	335.61	19.36	-40.6	-41.6	22.9	0.00e+00	0	31	101	1048576	58	6560
2026-01-05 17:58:39.77	335.36	19.36	-40.7	-41.7	22.9	0.00e+00	92	31	101	1048576	58	6681
2026-01-05 17:58:40.78	335.11	19.37	-40.6	-41.6	22.9	0.00e+00	0	31	101	1048576	58	6543
2026-01-05 17:58:41.79	334.87	19.37	-40.3	-41.2	23.2	0.00e+00	0	31	101	1048576	58	6279
2026-01-05 17:58:42.80	334.62	19.36	-40.3	-41.2	23.2	0.00e+00	0	31	101	1048576	58	6288
2026-01-05 17:58:43.81	334.37	19.36	-40.1	-41.1	23.4	0.00e+00	0	31	101	1048576	58	6184
2026-01-05 17:58:44.83	334.13	19.36	-40.1	-41.1	23.3	0.00e+00	92	31	101	1048576	58	6176
2026-01-05 17:58:45.84	333.88	19.36	-40.2	-41.1	23.2	0.00e+00	0	31	101	1048576	58	6234
2026-01-05 17:58:46.85	333.63	19.36	-40.3	-41.3	23.1	0.00e+00	91	31	101	1048576	58	6344
2026-01-05 17:58:47.86	333.39	19.35	-40.5	-41.5	22.9	0.00e+00	0	31	101	1048576	58	6504
2026-01-05 17:58:48.87	333.14	19.35	-40.6	-41.5	22.9	0.00e+00	0	31	101	1048576	58	6536
2026-01-05 17:58:49.88	332.89	19.35	-40.7	-41.7	22.8	0.00e+00	0	31	101	1048576	58	6616
2026-01-05 17:58:50.89	332.65	19.34	-40.7	-41.7	22.7	0.00e+00	0	31	101	1048576	58	6685
2026-01-05 17:58:51.90	332.40	19.34	-41.1	-42.1	22.5	0.00e+00	3	31	101	1048576	58	6982
2026-01-05 17:58:52.91	332.15	19.33	-41.4	-42.5	22.2	0.00e+00	0	31	101	1048576	60	6495
2026-01-05 17:58:53.92	331.91	19.32	-41.4	-42.5	22.1	0.00e+00	92	31	101	1048576	60	6538
2026-01-05 17:58:54.94	331.66	19.32	-41.6	-42.8	21.4	0.00e+00	0	31	101	1048576	60	6697
2026-01-05 17:58:55.95	331.41	19.31	-41.7	-42.8	21.8	0.00e+00	0	31	101	1048576	60	6739
2026-01-05 17:58:56.96	331.17	19.30	-41.7	-42.9	21.8	0.00e+00	0	31	101	1048576	60	6776
2026-01-05 17:58:57.97	330.92	19.29	-41.6	-42.7	22.1	0.00e+00	0	31	101	1048576	60	6680
2026-01-05 17:58:58.98	330.68	19.28	-41.0	-42.0	22.7	0.00e+00	0	31	101	1048576	60	6153
2026-01-05 17:58:59.99	330.43	19.27	-40.6	-41.6	22.9	0.00e+00	0	31	101	1048576	60	5831
2026-01-05 17:59:01.00	330.19	19.26	-40.5	-41.5	22.9	0.00e+00	92	31	101	1048576	60	5769
2026-01-05 17:59:02.01	329.94	19.25	-39.9	-40.8	23.6	0.00e+00	0	31	101	1048576	58	6016
2026-01-05 17:59:03.02	329.70	19.24	-39.4	-40.3	23.9	0.00e+00	0	31	101	1048576	58	5639
2026-01-05 17:59:04.04	329.45	19.23	-39.4	-40.3	23.9	0.00e+00	0	31	101	1048576	58	5632
2026-01-05 17:59:05.05	329.20	19.22	-39.5	-40.4	23.7	0.00e+00	0	31	101	1048576	58	5709
2026-01-05 17:59:06.06	328.96	19.20	-39.4	-40.3	23.9	0.00e+00	49	31	101	1048576	58	5657
2026-01-05 17:59:07.07	328.72	19.19	-39.3	-40.2	24.0	0.00e+00	0	31	101	1048576	58	5611
2026-01-05 17:59:08.08	328.47	19.18	-39.3	-40.1	23.9	0.00e+00	62	31	101	1048576	58	5554
2026-01-05 17:59:09.09	328.23	19.16	-38.9	-39.8	24.2	0.00e+00	0	31	101	1048576	56	5972
2026-01-05 17:59:10.10	327.99	19.15	-39.0	-39.9	24.2	0.00e+00	61	31	101	1048576	56	6053
2026-01-05 17:59:11.11	327.74	19.13	-39.0	-39.8	24.3	0.00e+00	0	31	101	1048576	56	6015
2026-01-05 17:59:12.13	327.50	19.11	-39.2	-40.1	24.1	0.00e+00	31	31	101	1048576	56	6189
2026-01-05 17:59:13.14	327.25	19.10	-39.3	-40.1	24.0	0.00e+00	33	31	101	1048576	56	6217
2026-01-05 17:59:14.15	327.01	19.08	-39.5	-40.4	23.7	0.00e+00	0	31	101	1048576	56	6413
2026-01-05 17:59:15.16	326.77	19.06	-39.3	-40.2	23.9	0.00e+00	92	31	101	1048576	56	6302
2026-01-05 17:59:16.17	326.53	19.04	-39.4	-40.3	23.7	0.00e+00	0	31	101	1048576	56	6336
2026-01-05 17:59:17.18	326.29	19.03	-39.1	-40.0	24.1	0.00e+00	92	31	101	1048576	56	6138
2026-01-05 17:59:18.19	326.05	19.01	-39.1	-39.9	24.2	0.00e+00	27	31	101	1048576	56	6068
2026-01-05 17:59:19.20	325.81	18.99	-38.9	-39.7	24.3	0.00e+00	0	31	101	1048576	56	5937
2026-01-05 17:59:20.21	325.57	18.97	-38.6	-39.4	24.5	0.00e+00	5	31	101	1048576	56	5711
2026-01-05 17:59:21.22	325.33	18.94	-38.7	-39.5	24.4	0.00e+00	0	31	101	1048576	56	5787
2026-01-05 17:59:22.23	325.09	18.92	-38.6	-39.4	24.6	0.00e+00	92	31	101	1048576	56	5701
2026-01-05 17:59:23.24	324.85	18.90	-38.9	-39.7	24.3	0.00e+00	0	31	101	1048576	56	5939
2026-01-05 17:59:24.25	324.61	18.88	-39.1	-40.0	24.1	0.00e+00	84	31	101	1048576	56	6123
2026-01-05 17:59:25.26	324.37	18.86	-39.6	-40.4	23.8	0.00e+00	0	31	101	1048576	56	6460
2026-01-05 17:59:26.28	324.13	18.83	-40.0	-40.9	23.5	0.00e+00	0	31	101	1048576	56	6822
2026-01-05 17:59:27.29	323.89	18.81	-39.4	-40.2	23.7	0.00e+00	0	31	101	1048576	56	6306
2026-01-05 17:59:28.30	323.65	18.78	-39.5	-40.3	23.9	0.00e+00	0	31	101	1048576	56	6376
2026-01-05 17:59:29.31	323.41	18.76	-39.4	-40.2	23.9	0.00e+00	91	31	101	1048576	56	6311
2026-01-05 17:59:30.32	323.18	18.73	-39.6	-40.5	23.7	0.00e+00	0	31	101	1048576	56	6520
2026-01-05 17:59:31.33	322.94	18.71	-39.7	-40.6	23.7	0.00e+00	92	31	101	1048576	56	6550
2026-01-05 17:59:32.34	322.70	18.68	-39.7	-40.6	23.7	0.00e+00	0	31	101	1048576	56	6580
2026-01-05 17:59:33.35	322.47	18.66	-39.5	-40.4	23.9	0.00e+00	0	31	101	1048576	56	6396
2026-01-05 17:59:34.36	322.23	18.63	-39.6	-40.5	23.8	0.00e+00	0	31	101	1048576	56	6511
2026-01-05 17:59:35.38	322.00	18.60	-39.6	-40.5	23.7	0.00e+00	0	31	101	1048576	56	6532
2026-01-05 17:59:36.39	321.76	18.57	-39.6	-40.5	23.6	0.00e+00	0	31	101	1048576	56	6516
2026-01-05 17:59:37.40	321.53	18.54	-40.0	-41.0	23.4	0.00e+00	0	31	101	1048576	56	6855
2026-01-05 17:59:38.41	321.29	18.51	-40.3	-41.3	23.2	0.00e+00	36	31	101	1048576	58	6369
2026-01-05 17:59:39.42	321.06	18.48	-40.3	-41.3	23.0	0.00e+00	0	31	101	1048576	58	6364
2026-01-05 17:59:40.43	320.83	18.45	-40.7	-41.7	22.7	0.00e+00	0	31	101	1048576	58	6675
2026-01-05 17:59:41.44	320.60	18.42	-41.0	-42.0	22.6	0.00e+00	0	31	101	1048576	58	6884
2026-01-05 17:59:42.45	320.37	18.39	-41.1	-42.1	22.5	0.00e+00	0	31	101	1048576	58	6998
2026-01-05 17:59:43.46	320.13	18.36	-41.2	-42.3	22.6	0.00e+00	0	31	101	1048576	60	6354
2026-01-05 17:59:44.47	319.90	18.33	-41.3	-42.3	22.4	0.00e+00	0	31	101	1048576	60	6372
2026-01-05 17:59:45.49	319.67	18.30	-41.1	-42.1	22.5	0.00e+00	81	31	101	1048576	60	6231
2026-01-05 17:59:46.50	319.44	18.26	-41.0	-42.0	22.6	0.00e+00	0	31	101	1048576	60	6164
2026-01-05 17:59:47.51	319.21	18.23	-41.1	-42.1	22.6	0.00e+00	0	31	101	1048576	60	6195
2026-01-05 17:59:48.52	318.98	18.20	-41.1	-42.2	22.5	0.00e+00	0	31	101	1048576	60	6267
2026-01-05 17:59:49.53	318.76	18.16	-41.1	-42.1	22.4	0.00e+00	0	31	101	1048576	60	6227
2026-01-05 17:59:50.54	318.53	18.13	-41.2	-42.3	22.5	0.00e+00	65	31	101	1048576	60	6319
2026-01-05 17:59:51.55	318.30	18.09	-41.2	-42.2	22.4	0.00e+00	0	31	101	1048576	60	6310
2026-01-05 17:59:52.56	318.07	18.06	-41.2	-42.2	22.4	0.00e+00	85	31	101	1048576	60	6292
2026-01-05 17:59:53.57	317.85	18.02	-41.3	-42.4	22.3	0.00e+00	0	31	101	1048576	60	6404
2026-01-05 17:59:54.58	317.62	17.99	-41.6	-42.7	22.2	0.00e+00	0	31	101	1048576	60	6646
2026-01-05 17:59:55.60	317.40	17.95	-41.9	-43.0	21.9	0.00e+00	0	31	101	1048576	60	6903
2026-01-05 17:59:56.61	317.17	17.91	-41.8	-42.9	21.9	0.00e+00	0	31	101	1048576	60	6791
2026-01-05 17:59:57.62	316.95	17.88	-42.0	-43.1	21.7	0.00e+00	4	31	101	1048576	60	6977
2026-01-05 17:59:58.63	316.72	17.84	-41.9	-43.0	21.8	0.00e+00	0	31	101	1048576	60	6893
2026-01-05 17:59:59.64	316.50	17.80	-41.9	-43.0	21.8	0.00e+00	7	31	101	1048576	60	6912
2026-01-05 18:00:00.65	316.28	17.76	-41.6	-42.7	22.1	0.00e+00	0	31	101	1048576	60	6643
2026-01-05 18:00:01.66	316.06	17.72	-41.2	-42.2	22.5	0.00e+00	89	31	101	1048576	60	6271
2026-01-05 18:00:02.67	315.84	17.69	-41.3	-42.4	22.4	0.00e+00	0	31	101	1048576	60	6396
2026-01-05 18:00:03.68	315.62	17.65	-41.2	-42.2	22.5	0.00e+00	0	31	101	1048576	60	6289
2026-01-05 18:00:04.69	315.40	17.61	-41.0	-42.0	22.7	0.00e+00	0	31	101	1048576	60	6114
2026-01-05 18:00:05.71	315.17	17.56	-41.2	-42.2	22.5	0.00e+00	0	31	101	1048576	60	6286
2026-01-05 18:00:06.72	314.96	17.52	-40.8	-41.7	22.9	0.00e+00	0	31	101	1048576	60	5944
2026-01-05 18:00:07.73	314.74	17.48	-40.9	-41.9	22.7	0.00e+00	0	31	101	1048576	60	6070
2026-01-05 18:00:08.74	314.52	17.44	-40.7	-41.7	22.9	0.00e+00	56	31	101	1048576	60	5913
2026-01-05 18:00:09.75	314.30	17.40	-40.6	-41.6	23.0	0.00e+00	0	31	101	1048576	60	5830
2026-01-05 18:00:10.76	314.09	17.36	-40.4	-41.3	23.2	0.00e+00	0	31	101	1048576	60	5663
2026-01-05 18:00:11.77	313.87	17.32	-40.3	-41.2	23.2	0.00e+00	2	31	101	1048576	60	5625
2026-01-05 18:00:12.78	313.66	17.27	-40.3	-41.2	23.1	0.00e+00	0	31	101	1048576	60	5629
2026-01-05 18:00:13.79	313.44	17.23	-39.9	-40.8	23.5	0.00e+00	65	31	101	1048576	58	6002
2026-01-05 18:00:14.81	313.23	17.19	-40.0	-40.8	23.4	0.00e+00	0	31	101	1048576	58	6027
2026-01-05 18:00:15.82	313.01	17.14	-39.6	-40.5	23.6	0.00e+00	49	31	101	1048576	58	5792
2026-01-05 18:00:16.83	312.80	17.10	-39.6	-40.4	23.5	0.00e+00	0	31	101	1048576	58	5754
2026-01-05 18:00:17.84	312.59	17.05	-39.8	-40.6	23.8	0.00e+00	0	31	101	1048576	58	5875
2026-01-05 18:00:18.85	312.38	17.01	-39.9	-40.8	23.6	0.00e+00	0	31	101	1048576	58	5982
2026-01-05 18:00:19.86	312.17	16.96	-39.7	-40.6	23.6	0.00e+00	0	31	101	1048576	58	5837
2026-01-05 18:00:20.87	311.96	16.92	-39.8	-40.7	23.5	0.00e+00	4	31	101	1048576	58	5946
2026-01-05 18:00:21.89	311.74	16.87	-39.5	-40.4	23.8	0.00e+00	0	31	101	1048576	58	5731
2026-01-05 18:00:22.90	311.54	16.83	-39.8	-40.7	23.6	0.00e+00	92	31	101	1048576	58	5917
2026-01-05 18:00:23.91	311.33	16.78	-40.0	-40.9	23.4	0.00e+00	0	31	101	1048576	58	6091
2026-01-05 18:00:24.92	311.12	16.73	-40.5	-41.5	23.0	0.00e+00	0	31	101	1048576	58	6475
2026-01-05 18:00:25.93	310.91	16.69	-41.0	-42.0	22.5	0.00e+00	0	31	101	1048576	58	6871
2026-01-05 18:00:26.94	310.71	16.64	-41.5	-42.6	21.9	0.00e+00	0	31	101	1048576	60	6568
2026-01-05 18:00:27.95	310.50	16.59	-42.0	-43.1	21.7	0.00e+00	4	31	101	1048576	60	6953
2026-01-05 18:00:28.96	310.30	16.54	-41.5	-42.5	22.2	0.00e+00	0	31	101	1048576	60	6511
2026-01-05 18:00:29.97	310.09	16.50	-41.8	-42.9	21.7	0.00e+00	91	31	101	1048576	60	6808
2026-01-05 18:00:30.99	309.89	16.45	-41.6	-42.7	22.0	0.00e+00	0	31	101	1048576	60	6663
2026-01-05 18:00:32.00	309.68	16.40	-41.5	-42.6	22.2	0.00e+00	23	31	101	1048576	60	6550
2026-01-05 18:00:33.01	309.48	16.35	-41.4	-42.5	22.3	0.00e+00	0	31	101	1048576	60	6492
2026-01-05 18:00:34.02	309.28	16.30	-41.3	-42.4	22.2	0.00e+00	0	31	101	1048576	60	6398
2026-01-05 18:00:35.03	309.08	16.25	-41.5	-42.6	22.1	0.00e+00	0	31	101	1048576	60	6559
2026-01-05 18:00:36.04	308.88	16.20	-41.5	-42.6	22.1	0.00e+00	0	31	101	1048576	60	6549
2026-01-05 18:00:37.05	308.68	16.15	-41.8	-42.9	21.8	0.00e+00	62	31	101	1048576	60	6833
2026-01-05 18:00:38.06	308.48	16.10	-41.9	-43.0	21.8	0.00e+00	0	31	101	1048576	60	6921
2026-01-05 18:00:39.07	308.28	16.05	-42.0	-43.1	21.7	0.00e+00	8	31	101	1048576	60	6986
2026-01-05 18:00:40.08	308.08	16.00	-41.9	-43.0	21.8	0.00e+00	0	31	101	1048576	60	6859
2026-01-05 18:00:41.10	307.89	15.95	-42.0	-43.1	21.8	0.00e+00	0	31	101	1048576	60	6928
2026-01-05 18:00:42.11	307.69	15.90	-41.8	-42.9	22.1	0.00e+00	2	31	101	1048576	60	6779
2026-01-05 18:00:43.12	307.49	15.85	-41.1	-42.1	22.4	0.00e+00	4	31	101	1048576	60	6230
2026-01-05 18:00:44.13	307.30	15.80	-41.0	-42.0	22.7	0.00e+00	63	31	101	1048576	60	6117
2026-01-05 18:00:45.14	307.11	15.74	-40.7	-41.6	23.0	0.00e+00	0	31	101	1048576	60	5880
2026-01-05 18:00:46.15	306.91	15.69	-40.5	-41.4	23.1	0.00e+00	91	31	101	1048576	60	5723
2026-01-05 18:00:47.16	306.72	15.64	-40.6	-41.5	23.0	0.00e+00	0	31	101	1048576	60	5816
2026-01-05 18:00:48.18	306.53	15.59	-40.5	-41.5	23.1	0.00e+00	0	31	101	1048576	60	5779
2026-01-05 18:00:49.19	306.33	15.53	-40.5	-41.4	23.1	0.00e+00	31	31	101	1048576	60	5754
2026-01-05 18:00:50.20	306.14	15.48	-40.9	-41.8	22.8	0.00e+00	0	31	101	1048576	60	6010
2026-01-05 18:00:51.21	305.95	15.43	-40.8	-41.8	22.8	0.00e+00	92	31	101	1048576	60	5968
2026-01-05 18:00:52.22	305.76	15.37	-41.0	-42.0	22.7	0.00e+00	0	31	101	1048576	60	6128
2026-01-05 18:00:53.23	305.57	15.32	-41.1	-42.2	22.5	0.00e+00	90	31	101	1048576	60	6247
2026-01-05 18:00:54.24	305.39	15.27	-41.5	-42.5	22.1	0.00e+00	0	31	101	1048576	60	6528
2026-01-05 18:00:55.25	305.20	15.21	-41.5	-42.6	22.1	0.00e+00	0	31	101	1048576	60	6565
2026-01-05 18:00:56.26	305.01	15.16	-41.3	-42.3	22.4	0.00e+00	0	31	101	1048576	60	6358
2026-01-05 18:00:57.28	304.83	15.10	-41.1	-42.1	22.5	0.00e+00	0	31	101	1048576	60	6197
2026-01-05 18:00:58.29	304.64	15.05	-40.9	-41.9	22.8	0.00e+00	4	31	101	1048576	60	6038
2026-01-05 18:00:59.30	304.46	15.00	-40.5	-41.4	23.0	0.00e+00	0	31	101	1048576	60	5737
2026-01-05 18:01:00.31	304.27	14.94	-40.5	-41.4	23.1	0.00e+00	69	31	101	1048576	60	5721
2026-01-05 18:01:01.32	304.09	14.89	-40.7	-41.7	22.9	0.00e+00	0	31	101	1048576	60	5911
2026-01-05 18:01:02.33	303.91	14.83	-40.6	-41.6	22.8	0.00e+00	0	31	101	1048576	60	5842
2026-01-05 18:01:03.34	303.72	14.78	-40.7	-41.6	22.9	0.00e+00	0	31	101	1048576	60	5884
2026-01-05 18:01:04.35	303.54	14.72	-41.2	-42.1	22.6	1.50e-06	0	31	101	1048576	60	6244
2026-01-05 18:01:05.36	303.36	14.66	-41.5	-42.6	22.2	0.00e+00	0	31	101	1048576	60	6541
2026-01-05 18:01:06.38	303.18	14.61	-41.9	-43.0	21.8	0.00e+00	0	31	101	1048576	60	6865
2026-01-05 18:01:07.39	303.00	14.55	-42.4	-43.6	21.3	0.00e+00	68	31	101	1048576	60	7342
2026-01-05 18:01:08.40	302.82	14.50	-42.7	-43.9	21.0	0.00e+00	0	31	101	1048576	60	7647
2026-01-05 18:01:09.41	302.65	14.44	-43.0	-44.3	20.6	0.00e+00	0	31	101	1048576	60	7960
2026-01-05 18:01:10.42	302.47	14.38	-43.2	-44.5	20.4	0.00e+00	0	31	101	1048576	60	8166
2026-01-05 18:01:11.43	302.29	14.33	-43.0	-44.3	20.6	0.00e+00	0	31	101	1048576	60	7995
2026-01-05 18:01:12.44	302.12	14.27	-43.2	-44.5	20.4	0.00e+00	0	31	101	1048576	60	8215
2026-01-05 18:01:13.45	301.94	14.21	-42.9	-44.2	20.8	0.00e+00	0	31	101	1048576	60	7899
2026-01-05 18:01:14.46	301.77	14.16	-42.8	-44.1	20.8	0.00e+00	42	31	101	1048576	60	7784
2026-01-05 18:01:15.47	301.59	14.10	-42.4	-43.6	21.2	0.00e+00	0	31	101	1048576	60	7401
2026-01-05 18:01:16.49	301.42	14.04	-42.4	-43.5	21.2	0.00e+00	0	31	101	1048576	60	7334
2026-01-05 18:01:17.50	301.25	13.98	-42.3	-43.4	21.3	0.00e+00	0	31	101	1048576	60	7235
2026-01-05 18:01:18.51	301.07	13.93	-42.3	-43.5	21.4	0.00e+00	0	31	101	1048576	60	7267
2026-01-05 18:01:19.52	300.90	13.87	-42.1	-43.2	21.5	0.00e+00	0	31	101	1048576	60	7048
2026-01-05 18:01:20.53	300.73	13.81	-42.0	-43.1	21.6	0.00e+00	0	31	101	1048576	60	6977
2026-01-05 18:01:21.54	300.56	13.75	-42.1	-43.2	21.5	0.00e+00	70	31	101	1048576	60	7087
2026-01-05 18:01:22.55	300.40	13.70	-41.8	-42.9	21.9	0.00e+00	0	31	101	1048576	60	6839
2026-01-05 18:01:23.56	300.23	13.64	-41.6	-42.6	22.0	0.00e+00	1	31	101	1048576	60	6596
2026-01-05 18:01:24.57	300.06	13.58	-41.6	-42.7	21.9	0.00e+00	0	31	101	1048576	60	6656
2026-01-05 18:01:25.59	299.89	13.52	-41.8	-42.9	21.9	0.00e+00	0	31	101	1048576	60	6830
2026-01-05 18:01:26.60	299.72	13.46	-42.0	-43.2	21.6	0.00e+00	0	31	101	1048576	60	7038
2026-01-05 18:01:27.61	299.56	13.40	-42.5	-43.7	21.2	0.00e+00	0	31	101	1048576	60	7439
2026-01-05 18:01:28.62	299.39	13.35	-42.6	-43.8	21.1	0.00e+00	90	31	101	1048576	60	7553
2026-01-05 18:01:29.63	299.23	13.29	-42.4	-43.6	21.2	0.00e+00	0	31	101	1048576	60	7408
2026-01-05 18:01:30.64	299.07	13.23	-42.5	-43.7	21.1	0.00e+00	90	31	101	1048576	60	7433
2026-01-05 18:01:31.65	298.90	13.17	-42.0	-43.1	21.4	0.00e+00	0	31	101	1048576	60	7005
2026-01-05 18:01:32.66	298.74	13.11	-42.0	-43.1	21.7	0.00e+00	0	31	101	1048576	60	6946
2026-01-05 18:01:33.67	298.58	13.05	-41.7	-42.8	21.8	0.00e+00	0	31	101	1048576	60	6745
2026-01-05 18:01:34.68	298.42	12.99	-41.6	-42.7	22.0	0.00e+00	0	31	101	1048576	60	6617
2026-01-05 18:01:35.70	298.26	12.93	-41.1	-42.1	22.4	0.00e+00	92	31	101	1048576	60	6235
2026-01-05 18:01:36.71	298.10	12.87	-41.3	-42.3	22.3	0.00e+00	0	31	101	1048576	60	6367
2026-01-05 18:01:37.72	297.94	12.81	-41.4	-42.4	22.3	0.00e+00	89	31	101	1048576	60	6429
2026-01-05 18:01:38.73	297.78	12.76	-41.3	-42.4	22.3	0.00e+00	0	31	101	1048576	60	6397
2026-01-05 18:01:39.74	297.62	12.70	-41.5	-42.6	22.0	0.00e+00	0	31	101	1048576	60	6566
2026-01-05 18:01:40.75	297.46	12.64	-41.6	-42.7	21.8	0.00e+00	0	31	101	1048576	60	6655
2026-01-05 18:01:41.77	297.31	12.58	-41.7	-42.7	21.9	0.00e+00	0	31	101	1048576	60	6681
2026-01-05 18:01:42.78	297.15	12.52	-41.8	-42.9	21.8	0.00e+00	90	31	101	1048576	60	6838
2026-01-05 18:01:43.79	297.00	12.46	-41.7	-42.8	21.9	0.00e+00	0	31	101	1048576	60	6712
2026-01-05 18:01:44.80	296.84	12.40	-41.9	-43.0	21.6	0.00e+00	72	31	101	1048576	60	6890
2026-01-05 18:01:45.81	296.69	12.34	-41.7	-42.8	21.6	0.00e+00	0	31	101	1048576	60	6735
2026-01-05 18:01:46.82	296.53	12.28	-41.8	-42.9	21.7	0.00e+00	0	31	101	1048576	60	6830
2026-01-05 18:01:47.83	296.38	12.22	-41.8	-42.9	21.7	0.00e+00	0	31	101	1048576	60	6848
2026-01-05 18:01:48.85	296.23	12.16	-41.9	-43.0	21.7	0.00e+00	0	31	101	1048576	60	6910
2026-01-05 18:01:49.86	296.08	12.10	-41.7	-42.8	21.8	0.00e+00	65	31	101	1048576	60	6749
2026-01-05 18:01:50.87	295.93	12.04	-41.9	-43.0	21.6	0.00e+00	0	31	101	1048576	60	6886
2026-01-05 18:01:51.88	295.78	11.98	-41.7	-42.8	21.9	0.00e+00	92	31	101	1048576	60	6759
2026-01-05 18:01:52.89	295.63	11.92	-41.5	-42.6	22.0	0.00e+00	0	31	101	1048576	60	6582
2026-01-05 18:01:53.90	295.48	11.86	-41.3	-42.4	22.2	0.00e+00	0	31	101	1048576	60	6407
2026-01-05 18:01:54.91	295.33	11.80	-40.9	-41.9	22.6	0.00e+00	0	31	101	1048576	60	6100
2026-01-05 18:01:55.93	295.18	11.74	-40.8	-41.8	22.7	0.00e+00	0	31	101	1048576	60	6000
2026-01-05 18:01:56.94	295.03	11.67	-40.7	-41.6	22.8	0.00e+00	0	31	101	1048576	60	5882
2026-01-05 18:01:57.95	294.89	11.61	-40.4	-41.4	23.1	0.00e+00	0	31	101	1048576	60	5724
2026-01-05 18:01:58.96	294.74	11.55	-40.2	-41.1	23.3	0.00e+00	46	31	101	1048576	60	5517
2026-01-05 18:01:59.97	294.60	11.49	-39.9	-40.8	23.4	0.00e+00	0	31	101	1048576	58	6003
2026-01-05 18:02:00.98	294.45	11.43	-39.6	-40.5	23.6	0.00e+00	0	31	101	1048576	58	5815
2026-01-05 18:02:01.99	294.31	11.37	-39.6	-40.4	23.6	0.00e+00	0	31	101	1048576	58	5752
2026-01-05 18:02:03.00	294.16	11.31	-39.5	-40.4	23.7	0.00e+00	0	31	101	1048576	58	5723
2026-01-05 18:02:04.01	294.02	11.25	-39.6	-40.4	23.6	0.00e+00	0	31	101	1048576	58	5755
2026-01-05 18:02:05.02	293.88	11.19	-39.7	-40.6	23.5	0.00e+00	0	31	101	1048576	58	5882
2026-01-05 18:02:06.03	293.74	11.13	-39.8	-40.7	23.4	0.00e+00	57	31	101	1048576	58	5938
2026-01-05 18:02:07.04	293.60	11.07	-40.0	-41.0	23.2	0.00e+00	0	31	101	1048576	58	6112
2026-01-05 18:02:08.05	293.46	11.01	-40.2	-41.1	23.0	0.00e+00	0	31	101	1048576	58	6215
2026-01-05 18:02:09.06	293.32	10.95	-40.4	-41.4	22.9	0.00e+00	0	31	101	1048576	58	6416
2026-01-05 18:02:10.08	293.18	10.89	-40.7	-41.7	22.6	0.00e+00	0	31	101	1048576	58	6643
2026-01-05 18:02:11.09	293.04	10.83	-40.6	-41.6	22.8	0.00e+00	0	31	101	1048576	58	6574
2026-01-05 18:02:12.10	292.90	10.77	-40.5	-41.5	22.8	0.00e+00	0	31	101	1048576	58	6499
2026-01-05 18:02:13.11	292.76	10.71	-40.3	-41.2	23.0	0.00e+00	90	31	101	1048576	58	6295
2026-01-05 18:02:14.12	292.62	10.64	-40.3	-41.2	23.0	0.00e+00	32	31	101	1048576	58	6312
2026-01-05 18:02:15.13	292.49	10.58	-40.2	-41.1	23.2	0.00e+00	53	31	101	1048576	58	6220
2026-01-05 18:02:16.14	292.35	10.52	-40.0	-40.9	23.3	0.00e+00	0	31	101	1048576	58	6068
2026-01-05 18:02:17.15	292.22	10.46	-40.0	-40.9	23.3	0.00e+00	28	31	101	1048576	58	6048
2026-01-05 18:02:18.17	292.08	10.40	-39.8	-40.7	23.3	0.00e+00	0	31	101	1048576	58	5928
2026-01-05 18:02:19.18	291.95	10.34	-39.8	-40.7	23.4	0.00e+00	0	31	101	1048576	58	5922
2026-01-05 18:02:20.19	291.81	10.28	-39.8	-40.7	23.4	0.00e+00	83	31	101	1048576	58	5956
2026-01-05 18:02:21.20	291.68	10.22	-40.1	-41.0	23.2	0.00e+00	0	31	101	1048576	58	6125
2026-01-05 18:02:22.21	291.55	10.16	-39.9	-40.8	23.3	0.00e+00	91	31	101	1048576	58	6015
2026-01-05 18:02:23.22	291.42	10.10	-39.8	-40.7	23.4	0.00e+00	0	31	101	1048576	58	5929
2026-01-05 18:02:24.23	291.29	10.04	-40.1	-41.0	23.1	0.00e+00	0	31	101	1048576	58	6160
2026-01-05 18:02:25.24	291.16	9.98	-40.2	-41.1	23.0	0.00e+00	0	31	101	1048576	58	6207
2026-01-05 18:02:26.25	291.03	9.91	-40.2	-41.1	23.0	0.00e+00	0	31	101	1048576	58	6216
2026-01-05 18:02:27.26	290.90	9.85	-40.5	-41.5	22.7	0.00e+00	7	31	101	1048576	58	6523
2026-01-05 18:02:28.27	290.77	9.79	-40.7	-41.7	22.5	0.00e+00	0	31	101	1048576	58	6674
2026-01-05 18:02:29.29	290.64	9.73	-40.6	-41.6	22.7	0.00e+00	90	31	101	1048576	58	6562
2026-01-05 18:02:30.30	290.51	9.67	-41.0	-42.0	22.0	0.00e+00	0	31	101	1048576	58	6866
2026-01-05 18:02:31.31	290.38	9.61	-41.1	-42.1	22.1	0.00e+00	0	31	101	1048576	58	6988
2026-01-05 18:02:32.32	290.26	9.55	-41.1	-42.1	22.1	0.00e+00	0	31	101	1048576	58	7003
2026-01-05 18:02:33.33	290.13	9.49	-41.3	-42.4	22.0	0.00e+00	0	31	101	1048576	60	6423
2026-01-05 18:02:34.34	290.00	9.43	-41.3	-42.3	22.1	0.00e+00	0	31	101	1048576	60	6379
2026-01-05 18:02:35.35	289.88	9.37	-41.4	-42.5	21.7	0.00e+00	0	31	101	1048576	60	6499
2026-01-05 18:02:36.36	289.75	9.31	-41.4	-42.5	21.9	0.00e+00	92	31	101	1048576	60	6504
2026-01-05 18:02:37.38	289.63	9.25	-41.4	-42.6	21.6	0.00e+00	0	31	101	1048576	60	6543
2026-01-05 18:02:38.39	289.50	9.19	-41.4	-42.5	22.0	0.00e+00	0	31	101	1048576	60	6484
2026-01-05 18:02:39.40	289.38	9.12	-41.2	-42.3	22.1	0.00e+00	0	31	101	1048576	60	6342
2026-01-05 18:02:40.41	289.26	9.06	-41.1	-42.1	22.2	0.00e+00	0	31	101	1048576	60	6219
2026-01-05 18:02:41.42	289.14	9.00	-41.2	-42.2	22.1	0.00e+00	0	31	101	1048576	60	6310
2026-01-05 18:02:42.43	289.02	8.94	-41.2	-42.2	22.1	0.00e+00	0	31	101	1048576	60	6306
2026-01-05 18:02:43.44	288.89	8.88	-41.0	-42.0	22.4	0.00e+00	91	31	101	1048576	60	6121
2026-01-05 18:02:44.45	288.77	8.82	-40.7	-41.7	22.6	0.00e+00	0	31	101	1048576	60	5918
2026-01-05 18:02:45.46	288.65	8.76	-40.4	-41.4	22.8	0.00e+00	0	31	101	1048576	60	5702
2026-01-05 18:02:46.47	288.53	8.70	-40.4	-41.4	22.9	0.00e+00	0	31	101	1048576	60	5698
2026-01-05 18:02:47.49	288.41	8.64	-40.5	-41.4	22.9	0.00e+00	0	31	101	1048576	60	5752
2026-01-05 18:02:48.50	288.30	8.58	-40.6	-41.6	22.6	0.00e+00	0	31	101	1048576	60	5875
2026-01-05 18:02:49.51	288.18	8.52	-40.9	-42.0	22.3	0.00e+00	0	31	101	1048576	60	6118
2026-01-05 18:02:50.52	288.06	8.46	-41.0	-42.0	22.2	0.00e+00	84	31	101	1048576	60	6135
2026-01-05 18:02:51.53	287.94	8.40	-41.4	-42.5	21.9	0.00e+00	0	31	101	1048576	60	6521
2026-01-05 18:02:52.54	287.83	8.34	-41.7	-42.8	21.6	0.00e+00	0	31	101	1048576	60	6734
2026-01-05 18:02:53.55	287.71	8.28	-41.8	-43.0	21.4	0.00e+00	0	31	101	1048576	60	6851
2026-01-05 18:02:54.56	287.60	8.22	-41.8	-43.0	21.5	0.00e+00	0	31	101	1048576	60	6871
2026-01-05 18:02:55.57	287.48	8.16	-41.8	-42.9	21.5	0.00e+00	17	31	101	1048576	60	6801
2026-01-05 18:02:56.59	287.36	8.10	-41.6	-42.7	21.7	0.00e+00	0	31	101	1048576	60	6633
2026-01-05 18:02:57.60	287.25	8.04	-41.6	-42.7	21.7	0.00e+00	81	31	101	1048576	60	6691
2026-01-05 18:02:58.61	287.14	7.98	-41.6	-42.7	21.6	0.00e+00	0	31	101	1048576	60	6671
2026-01-05 18:02:59.62	287.02	7.92	-41.3	-42.4	21.9	0.00e+00	92	31	101	1048576	60	6418
2026-01-05 18:03:00.63	286.91	7.86	-41.2	-42.3	22.0	0.00e+00	0	31	101	1048576	60	6365
2026-01-05 18:03:01.64	286.80	7.80	-41.3	-42.4	22.0	0.00e+00	0	31	101	1048576	60	6411
2026-01-05 18:03:02.65	286.69	7.74	-41.1	-42.2	22.2	0.00e+00	0	31	101	1048576	60	6256
2026-01-05 18:03:03.66	286.58	7.68	-41.2	-42.3	22.1	0.00e+00	0	31	101	1048576	60	6323
2026-01-05 18:03:04.67	286.47	7.62	-41.2	-42.3	22.1	0.00e+00	82	31	101	1048576	60	6331
2026-01-05 18:03:05.68	286.36	7.56	-41.2	-42.3	21.9	0.00e+00	0	31	101	1048576	60	6365
2026-01-05 18:03:06.70	286.24	7.50	-41.1	-42.2	22.1	0.00e+00	78	31	101	1048576	60	6272
2026-01-05 18:03:07.71	286.14	7.44	-41.4	-42.5	21.8	0.00e+00	0	31	101	1048576	60	6520
2026-01-05 18:03:08.72	286.03	7.38	-41.6	-42.7	21.6	0.00e+00	0	31	101	1048576	60	6657
2026-01-05 18:03:09.73	285.92	7.32	-41.7	-42.8	21.6	0.00e+00	0	31	101	1048576	60	6718
2026-01-05 18:03:10.74	285.81	7.26	-41.9	-43.0	21.4	0.00e+00	0	31	101	1048576	60	6901
2026-01-05 18:03:11.75	285.70	7.20	-41.7	-42.9	21.5	0.00e+00	4	31	101	1048576	60	6786
2026-01-05 18:03:12.76	285.60	7.14	-42.0	-43.2	21.3	0.00e+00	0	31	101	1048576	60	7050
2026-01-05 18:03:13.77	285.49	7.08	-42.0	-43.2	21.2	0.00e+00	83	31	101	1048576	60	7041
2026-01-05 18:03:14.79	285.38	7.02	-42.0	-43.2	21.2	0.00e+00	0	31	101	1048576	60	7016
2026-01-05 18:03:15.80	285.28	6.96	-41.9	-43.1	21.3	0.00e+00	0	31	101	1048576	60	6972
2026-01-05 18:03:16.81	285.17	6.90	-42.1	-43.3	21.0	0.00e+00	0	31	101	1048576	60	7148
2026-01-05 18:03:17.82	285.07	6.84	-42.4	-43.7	20.8	0.00e+00	0	31	101	1048576	60	7423
2026-01-05 18:03:18.83	284.96	6.78	-42.5	-43.7	20.7	0.00e+00	2	31	101	1048576	60	7483
2026-01-05 18:03:19.84	284.86	6.72	-42.6	-43.9	20.6	0.00e+00	0	31	101	1048576	60	7664
2026-01-05 18:03:20.85	284.75	6.67	-42.5	-43.8	20.6	0.00e+00	88	31	101	1048576	60	7532
2026-01-05 18:03:21.86	284.65	6.61	-42.4	-43.7	20.7	0.00e+00	0	31	101	1048576	60	7463
2026-01-05 18:03:22.88	284.55	6.55	-42.3	-43.5	20.9	0.00e+00	0	31	101	1048576	60	7293
2026-01-05 18:03:23.89	284.45	6.49	-42.3	-43.5	20.9	0.00e+00	0	31	101	1048576	60	7279
2026-01-05 18:03:24.90	284.34	6.43	-42.1	-43.3	21.0	0.00e+00	0	31	101	1048576	60	7166
2026-01-05 18:03:25.91	284.24	6.37	-42.1	-43.3	21.0	0.00e+00	89	31	101	1048576	60	7122
2026-01-05 18:03:26.92	284.14	6.31	-42.2	-43.4	21.0	0.00e+00	0	31	101	1048576	60	7191
2026-01-05 18:03:27.93	284.04	6.25	-42.1	-43.3	21.1	0.00e+00	89	31	101	1048576	60	7119
2026-01-05 18:03:28.94	283.94	6.19	-42.4	-43.6	20.6	0.00e+00	0	31	101	1048576	60	7412
2026-01-05 18:03:29.95	283.84	6.13	-42.5	-43.8	20.5	0.00e+00	4	31	101	1048576	60	7571
2026-01-05 18:03:30.96	283.74	6.08	-42.2	-43.5	20.8	0.00e+00	0	31	101	1048576	60	7266
2026-01-05 18:03:31.97	283.64	6.02	-42.6	-43.9	20.4	0.00e+00	0	31	101	1048576	60	7664
2026-01-05 18:03:32.99	283.54	5.96	-42.8	-44.2	20.2	0.00e+00	73	31	101	1048576	60	7904
2026-01-05 18:03:34.00	283.45	5.90	-43.3	-44.8	19.6	0.00e+00	0	31	101	1048576	60	8446
2026-01-05 18:03:35.01	283.35	5.84	-43.3	-44.7	19.7	0.00e+00	75	31	101	1048576	60	8389
2026-01-05 18:03:36.02	283.25	5.78	-43.5	-45.0	19.4	0.00e+00	0	31	101	1048576	60	8640
2026-01-05 18:03:37.03	283.15	5.72	-43.6	-45.2	19.3	0.00e+00	15	31	101	1048576	60	8853
2026-01-05 18:03:38.04	283.06	5.67	-43.7	-45.3	19.2	0.00e+00	0	31	101	1048576	60	8961
2026-01-05 18:03:39.05	282.96	5.61	-43.9	-45.5	18.9	0.00e+00	0	31	101	1048576	60	9150
2026-01-05 18:03:40.06	282.87	5.55	-43.8	-45.4	19.0	0.00e+00	55	31	101	1048576	60	9093
2026-01-05 18:03:41.07	282.77	5.49	-43.8	-45.3	19.0	0.00e+00	0	31	101	1048576	60	9018
2026-01-05 18:03:42.09	282.67	5.43	-43.5	-45.1	19.3	0.00e+00	90	31	101	1048576	60	8725
2026-01-05 18:03:43.10	282.58	5.37	-43.4	-44.9	19.5	0.00e+00	0	31	101	1048576	60	8536
