passes_logs/2026/01/05/R4.6S_Anadyr_2ch/R4.6S_Anadyr_2ch__20260105_122144_NOAA_21_JPSS-2_rec.log

#Pass ID: 20260105_122144_NOAA 21 (JPSS-2)
#Satellite: NOAA 21 (JPSS-2)
#Configuration: NOAA-21
#almurnet v.1.7.20251203
#Start time: 2026-01-05 12:21:46

#Version: 2.2.20231116
#Station: R4.6S_Anadyr_2ch
#Location: 177.4865 lon 64.73178 lat
#TLE: 1 54234U 22150A   25350.97269056  .00000057  00000+0  47676-4 0  9992
#TLE: 2 54234  98.7466 287.2282 0002043  29.8355 330.2937 14.19525482160692

#Time	Az	El	Level	Level2	SNR	BER	BlckErr	Temp	State	Recorded	gain1	gain2
2026-01-05 12:21:46.07	19.04	0.07	-52.1	-67.2	3.5	1.51e+00	0	19	0	0	60	111721
2026-01-05 12:21:47.08	19.12	0.12	-51.8	-64.9	3.5	1.52e+00	0	20	104	0	60	82861
2026-01-05 12:21:48.09	19.19	0.17	-51.4	-64.5	3.5	1.52e+00	0	20	104	0	60	79154
2026-01-05 12:21:49.10	19.27	0.21	-51.2	-64.3	3.5	1.52e+00	0	21	104	0	60	77686
2026-01-05 12:21:50.12	19.34	0.26	-51.1	-64.1	3.5	1.52e+00	0	20	104	0	60	76310
2026-01-05 12:21:51.13	19.42	0.31	-51.1	-64.2	3.5	1.52e+00	0	21	104	0	60	76417
2026-01-05 12:21:52.14	19.49	0.36	-51.1	-64.0	3.5	1.51e+00	0	21	104	0	60	75387
2026-01-05 12:21:53.15	19.57	0.41	-51.0	-64.1	3.5	1.52e+00	0	21	104	0	60	75597
2026-01-05 12:21:54.16	19.65	0.46	-50.9	-64.0	3.5	1.52e+00	0	21	104	0	60	74993
2026-01-05 12:21:55.17	19.72	0.51	-50.8	-63.9	3.5	1.52e+00	0	21	104	0	60	73859
2026-01-05 12:21:56.18	19.80	0.56	-50.7	-63.8	3.5	1.52e+00	0	21	104	0	60	73032
2026-01-05 12:21:57.19	19.88	0.61	-50.6	-63.6	3.5	1.52e+00	0	21	104	0	60	71595
2026-01-05 12:21:58.20	19.95	0.66	-50.5	-63.5	3.5	1.51e+00	0	21	104	0	60	70475
2026-01-05 12:21:59.21	20.03	0.71	-50.3	-63.3	3.5	1.52e+00	0	21	104	0	60	68874
2026-01-05 12:22:00.23	20.11	0.76	-49.9	-63.0	3.5	1.52e+00	0	21	104	0	60	66583
2026-01-05 12:22:01.24	20.19	0.81	-49.5	-62.5	3.5	1.52e+00	0	21	104	0	60	63017
2026-01-05 12:22:02.25	20.27	0.86	-49.5	-62.5	3.5	1.52e+00	0	21	104	0	60	63063
2026-01-05 12:22:03.26	20.34	0.91	-49.5	-62.5	3.5	1.52e+00	0	21	104	0	60	62832
2026-01-05 12:22:04.27	20.42	0.96	-49.5	-62.4	3.6	1.52e+00	0	21	104	0	60	62649
2026-01-05 12:22:05.28	20.50	1.01	-49.5	-62.4	3.5	1.52e+00	0	21	104	0	60	62729
2026-01-05 12:22:06.29	20.58	1.06	-49.5	-62.5	3.5	1.52e+00	0	21	104	0	60	62883
2026-01-05 12:22:07.30	20.66	1.11	-49.5	-62.4	3.5	1.52e+00	0	21	104	0	60	62337
2026-01-05 12:22:08.32	20.74	1.16	-49.5	-62.5	3.5	1.52e+00	0	21	104	0	60	62895
2026-01-05 12:22:09.33	20.82	1.21	-49.5	-62.4	3.5	1.52e+00	0	21	104	0	60	62667
2026-01-05 12:22:10.34	20.90	1.26	-49.5	-62.4	3.5	1.52e+00	0	21	104	0	60	62694
2026-01-05 12:22:11.35	20.98	1.31	-49.5	-62.4	3.5	1.52e+00	0	21	104	0	60	62740
2026-01-05 12:22:12.36	21.06	1.36	-49.5	-62.4	3.5	1.52e+00	0	21	104	0	60	62547
2026-01-05 12:22:13.37	21.14	1.41	-49.5	-62.4	3.5	1.52e+00	0	21	104	0	60	62678
2026-01-05 12:22:14.38	21.22	1.46	-49.5	-62.4	3.5	1.51e+00	0	21	104	0	60	62727
2026-01-05 12:22:15.39	21.30	1.51	-49.5	-62.5	3.5	1.52e+00	0	21	104	0	60	62982
2026-01-05 12:22:16.40	21.39	1.56	-49.5	-62.5	3.5	1.52e+00	0	21	104	0	60	63076
2026-01-05 12:22:17.42	21.47	1.61	-49.5	-62.4	3.5	1.52e+00	0	21	104	0	60	62719
2026-01-05 12:22:18.43	21.55	1.67	-49.5	-62.4	3.5	1.52e+00	0	21	104	0	60	62496
2026-01-05 12:22:19.44	21.63	1.72	-49.5	-62.3	3.5	1.52e+00	0	21	104	0	60	61984
2026-01-05 12:22:20.45	21.72	1.77	-49.5	-62.3	3.5	1.52e+00	0	21	104	0	60	61834
2026-01-05 12:22:21.46	21.80	1.82	-49.5	-62.3	3.5	1.52e+00	0	21	104	0	60	62042
2026-01-05 12:22:22.47	21.88	1.87	-49.5	-62.4	3.5	1.52e+00	0	21	104	0	60	62570
2026-01-05 12:22:23.48	21.97	1.92	-49.5	-62.4	3.5	1.52e+00	0	21	104	0	60	62639
2026-01-05 12:22:24.49	22.05	1.97	-49.5	-62.4	3.5	1.52e+00	0	21	104	0	60	62302
2026-01-05 12:22:25.50	22.13	2.02	-49.4	-62.3	3.5	1.52e+00	0	22	104	0	60	61718
2026-01-05 12:22:26.51	22.22	2.07	-49.4	-62.4	3.5	1.52e+00	0	21	104	0	60	62264
2026-01-05 12:22:27.53	22.30	2.12	-49.4	-62.2	3.5	1.52e+00	0	21	104	0	60	61184
2026-01-05 12:22:28.54	22.39	2.17	-49.4	-62.2	3.5	1.52e+00	0	21	104	0	60	61251
2026-01-05 12:22:29.55	22.47	2.23	-49.4	-61.5	3.5	1.51e+00	0	22	104	0	60	56070
2026-01-05 12:22:30.56	22.56	2.28	-49.4	-61.4	3.5	1.52e+00	0	21	104	0	60	55550
2026-01-05 12:22:31.57	22.64	2.33	-49.4	-61.8	3.5	1.52e+00	0	22	104	0	60	58075
2026-01-05 12:22:32.58	22.73	2.38	-49.4	-61.6	3.5	1.52e+00	0	21	104	0	60	56907
2026-01-05 12:22:33.59	22.82	2.43	-49.0	-57.8	5.0	1.12e+00	120	21	104	0	60	36645
2026-01-05 12:22:34.60	22.90	2.48	-47.6	-52.1	9.4	1.41e-02	122	22	0	0	60	19083
2026-01-05 12:22:35.61	22.99	2.53	-46.0	-48.9	12.8	7.52e-04	122	22	102	1048576	60	13127
2026-01-05 12:22:36.63	23.08	2.58	-44.1	-46.2	15.6	1.50e-06	122	21	102	1048576	60	9659
2026-01-05 12:22:37.64	23.16	2.64	-42.8	-44.5	17.3	0.00e+00	123	21	102	1048576	60	7951
2026-01-05 12:22:38.65	23.25	2.69	-42.1	-43.6	18.4	0.00e+00	123	21	102	1048576	60	7198
2026-01-05 12:22:39.66	23.34	2.74	-41.0	-42.3	19.3	0.00e+00	120	21	102	1048576	60	6192
2026-01-05 12:22:40.67	23.43	2.79	-42.2	-43.7	17.9	0.00e+00	123	22	102	1048576	60	7255
2026-01-05 12:22:41.68	23.52	2.84	-42.9	-44.7	16.8	0.00e+00	123	21	102	1048576	60	8096
2026-01-05 12:22:42.69	23.61	2.89	-44.6	-46.8	14.9	0.00e+00	121	22	102	1048576	60	10304
2026-01-05 12:22:43.70	23.69	2.95	-45.4	-47.9	14.6	2.74e-05	123	21	102	1048576	60	11750
2026-01-05 12:22:44.71	23.78	3.00	-43.1	-44.8	16.1	0.00e+00	123	22	102	1048576	60	8217
2026-01-05 12:22:45.72	23.87	3.05	-49.1	-59.8	3.5	2.76e-01	0	22	104	1048576	60	46026
2026-01-05 12:22:46.73	23.96	3.10	-45.0	-47.7	5.0	1.25e+00	0	22	104	1048576	60	11451
2026-01-05 12:22:47.74	24.05	3.15	-44.5	-46.6	15.7	3.00e-06	120	21	0	1048576	60	10143
2026-01-05 12:22:48.75	24.14	3.20	-49.6	-61.7	3.5	6.50e-01	0	22	104	1048576	60	57875
2026-01-05 12:22:49.77	24.24	3.26	-45.3	-48.1	5.0	1.49e+00	0	22	104	1048576	60	12084
2026-01-05 12:22:50.77	24.33	3.31	-45.1	-47.5	14.5	2.20e-06	122	21	0	1048576	60	11200
2026-01-05 12:22:51.79	24.42	3.36	-44.8	-47.1	14.8	0.00e+00	120	22	0	1048576	60	10677
2026-01-05 12:22:52.80	24.51	3.41	-44.7	-46.8	14.4	0.00e+00	122	22	0	1048576	60	10385
2026-01-05 12:22:53.81	24.60	3.47	-44.6	-46.7	15.8	1.50e-06	122	21	0	1048576	60	10249
2026-01-05 12:22:54.82	24.70	3.52	-44.3	-46.3	15.7	0.00e+00	122	21	0	1048576	60	9799
2026-01-05 12:22:55.83	24.79	3.57	-44.5	-46.6	15.4	0.00e+00	123	22	0	1048576	60	10136
2026-01-05 12:22:56.84	24.88	3.62	-43.7	-45.5	16.6	0.00e+00	123	22	0	1048576	60	8921
2026-01-05 12:22:57.85	24.97	3.67	-44.0	-45.9	16.2	0.00e+00	120	22	0	1048576	60	9321
2026-01-05 12:22:58.87	25.07	3.73	-43.9	-45.8	16.6	0.00e+00	122	22	0	1048576	60	9183
2026-01-05 12:22:59.88	25.16	3.78	-44.1	-46.1	15.8	0.00e+00	120	22	0	1048576	60	9517
2026-01-05 12:23:00.89	25.26	3.83	-43.5	-45.3	17.0	0.00e+00	122	22	0	1048576	60	8688
2026-01-05 12:23:01.90	25.35	3.88	-44.5	-46.5	15.7	0.00e+00	122	22	101	1048576	60	9995
2026-01-05 12:23:02.91	25.45	3.94	-44.1	-46.0	16.1	0.00e+00	122	22	101	1048576	60	9455
2026-01-05 12:23:03.92	25.54	3.99	-43.3	-44.9	17.1	0.00e+00	122	22	101	1048576	60	8359
2026-01-05 12:23:04.93	25.64	4.04	-43.5	-45.3	16.9	0.00e+00	122	22	101	1048576	60	8683
2026-01-05 12:23:05.95	25.73	4.09	-43.6	-45.4	17.4	0.00e+00	122	22	101	1048576	60	8788
2026-01-05 12:23:06.96	25.83	4.15	-43.1	-44.7	17.3	0.00e+00	122	22	101	1048576	60	8132
2026-01-05 12:23:07.97	25.93	4.20	-42.5	-44.1	18.1	0.00e+00	120	22	101	1048576	60	7565
2026-01-05 12:23:08.98	26.02	4.25	-42.3	-43.8	18.2	0.00e+00	123	22	101	1048576	60	7358
2026-01-05 12:23:09.99	26.12	4.31	-41.8	-43.2	19.0	0.00e+00	123	22	101	1048576	60	6830
2026-01-05 12:23:11.00	26.22	4.36	-41.8	-43.2	18.7	0.00e+00	120	22	101	1048576	60	6853
2026-01-05 12:23:12.01	26.32	4.41	-42.2	-43.6	18.4	0.00e+00	122	22	101	1048576	60	7205
2026-01-05 12:23:13.03	26.42	4.46	-42.1	-43.6	18.2	0.00e+00	123	22	101	1048576	60	7154
2026-01-05 12:23:14.04	26.51	4.52	-42.3	-43.7	18.5	0.00e+00	120	22	101	1048576	60	7271
2026-01-05 12:23:15.05	26.61	4.57	-41.8	-43.2	18.9	0.00e+00	122	22	101	1048576	60	6865
2026-01-05 12:23:16.06	26.71	4.62	-41.5	-42.9	19.0	0.00e+00	122	22	101	1048576	60	6616
2026-01-05 12:23:17.07	26.81	4.68	-41.4	-42.7	19.5	0.00e+00	120	22	101	1048576	60	6457
2026-01-05 12:23:18.08	26.91	4.73	-41.1	-42.4	19.8	0.00e+00	123	22	101	1048576	60	6221
2026-01-05 12:23:19.09	27.01	4.78	-41.5	-42.8	19.4	0.00e+00	123	22	101	1048576	60	6565
2026-01-05 12:23:20.10	27.11	4.84	-40.7	-42.0	20.2	0.00e+00	120	22	101	1048576	60	5941
2026-01-05 12:23:21.12	27.22	4.89	-40.8	-42.0	20.2	0.00e+00	123	22	101	1048576	60	5991
2026-01-05 12:23:22.13	27.32	4.94	-40.9	-42.2	20.0	0.00e+00	122	22	101	1048576	60	6106
2026-01-05 12:23:23.14	27.42	5.00	-40.7	-41.9	20.2	0.00e+00	123	22	101	1048576	60	5909
2026-01-05 12:23:24.15	27.52	5.05	-40.5	-41.7	20.3	0.00e+00	123	22	101	1048576	58	6439
2026-01-05 12:23:25.16	27.62	5.10	-40.7	-41.9	20.3	0.00e+00	122	22	101	1048576	58	6635
2026-01-05 12:23:26.17	27.73	5.15	-40.3	-41.5	20.5	0.00e+00	123	22	101	1048576	58	6280
2026-01-05 12:23:27.18	27.83	5.21	-40.3	-41.5	20.5	0.00e+00	122	22	101	1048576	58	6319
2026-01-05 12:23:28.19	27.93	5.26	-40.5	-41.7	20.5	0.00e+00	122	22	101	1048576	58	6428
2026-01-05 12:23:29.20	28.04	5.32	-40.7	-41.9	20.0	0.00e+00	123	22	101	1048576	58	6627
2026-01-05 12:23:30.21	28.14	5.37	-40.6	-41.8	20.4	0.00e+00	122	22	101	1048576	58	6524
2026-01-05 12:23:31.23	28.25	5.42	-40.6	-41.8	20.3	0.00e+00	122	22	101	1048576	58	6558
2026-01-05 12:23:32.24	28.35	5.48	-40.6	-41.8	20.4	0.00e+00	120	22	101	1048576	58	6528
2026-01-05 12:23:33.25	28.46	5.53	-40.2	-41.4	20.4	0.00e+00	122	22	101	1048576	58	6237
2026-01-05 12:23:34.26	28.56	5.58	-40.8	-42.1	20.1	0.00e+00	123	22	101	1048576	58	6750
2026-01-05 12:23:35.27	28.67	5.64	-40.5	-41.7	20.5	0.00e+00	120	22	101	1048576	58	6432
2026-01-05 12:23:36.28	28.77	5.69	-40.7	-41.9	20.4	0.00e+00	122	22	101	1048576	58	6629
2026-01-05 12:23:37.29	28.88	5.74	-40.7	-41.9	20.4	0.00e+00	123	22	101	1048576	58	6588
2026-01-05 12:23:38.30	28.99	5.80	-40.4	-41.6	20.5	0.00e+00	120	22	101	1048576	58	6369
2026-01-05 12:23:39.31	29.10	5.85	-40.4	-41.6	20.6	0.00e+00	123	22	101	1048576	58	6368
2026-01-05 12:23:40.32	29.20	5.91	-40.4	-41.6	20.6	0.00e+00	123	22	101	1048576	58	6398
2026-01-05 12:23:41.34	29.31	5.96	-39.7	-40.8	21.1	0.00e+00	120	22	101	1048576	58	5827
2026-01-05 12:23:42.35	29.42	6.01	-39.8	-40.9	21.1	0.00e+00	123	22	101	1048576	58	5904
2026-01-05 12:23:43.36	29.53	6.07	-39.9	-41.0	21.2	0.00e+00	123	22	101	1048576	58	5994
2026-01-05 12:23:44.37	29.64	6.12	-39.8	-40.9	21.1	0.00e+00	123	22	101	1048576	58	5872
2026-01-05 12:23:45.38	29.75	6.18	-39.6	-40.7	21.4	0.00e+00	123	22	101	1048576	58	5786
2026-01-05 12:23:46.39	29.86	6.23	-40.0	-41.1	21.0	0.00e+00	123	22	101	1048576	58	6052
2026-01-05 12:23:47.40	29.97	6.28	-39.6	-40.7	21.4	0.00e+00	122	22	101	1048576	58	5777
2026-01-05 12:23:48.41	30.08	6.34	-39.6	-40.7	21.4	0.00e+00	122	22	101	1048576	58	5755
2026-01-05 12:23:49.42	30.19	6.39	-39.5	-40.6	21.4	0.00e+00	123	22	101	1048576	58	5724
2026-01-05 12:23:50.43	30.30	6.44	-39.7	-40.9	21.3	0.00e+00	123	22	101	1048576	58	5871
2026-01-05 12:23:51.45	30.42	6.50	-39.7	-40.8	21.3	0.00e+00	122	22	101	1048576	58	5800
2026-01-05 12:23:52.46	30.53	6.55	-39.6	-40.7	21.4	0.00e+00	120	22	101	1048576	58	5762
2026-01-05 12:23:53.47	30.64	6.61	-39.6	-40.7	21.3	0.00e+00	123	22	101	1048576	58	5756
2026-01-05 12:23:54.48	30.76	6.66	-39.7	-40.8	21.3	0.00e+00	123	22	101	1048576	58	5839
2026-01-05 12:23:55.49	30.87	6.72	-39.8	-40.9	21.2	0.00e+00	122	22	101	1048576	58	5890
2026-01-05 12:23:56.50	30.98	6.77	-39.6	-40.7	21.4	0.00e+00	123	22	101	1048576	58	5746
2026-01-05 12:23:57.51	31.10	6.82	-39.5	-40.6	21.5	0.00e+00	120	22	101	1048576	58	5664
2026-01-05 12:23:58.52	31.21	6.88	-39.5	-40.5	21.4	0.00e+00	123	22	101	1048576	58	5656
2026-01-05 12:23:59.54	31.33	6.93	-39.2	-40.3	21.8	0.00e+00	123	22	101	1048576	56	6141
2026-01-05 12:24:00.55	31.45	6.99	-39.4	-40.5	21.5	0.00e+00	120	22	101	1048576	56	6288
2026-01-05 12:24:01.82	31.59	7.06	-39.5	-40.6	21.6	0.00e+00	123	22	101	1048576	56	6360
2026-01-05 12:24:02.54	31.68	7.09	-39.4	-40.5	21.6	0.00e+00	122	22	101	1048576	56	6305
2026-01-05 12:24:03.84	31.83	7.16	-39.5	-40.6	21.6	0.00e+00	122	22	101	1048576	56	6375
2026-01-05 12:24:04.57	31.91	7.20	-39.4	-40.5	21.6	0.00e+00	123	22	101	1048576	56	6325
2026-01-05 12:24:05.87	32.06	7.27	-39.3	-40.4	21.8	0.00e+00	123	22	101	1048576	56	6225
2026-01-05 12:24:06.59	32.15	7.31	-39.4	-40.5	21.6	0.00e+00	122	22	101	1048576	56	6340
2026-01-05 12:24:07.89	32.30	7.38	-39.7	-40.8	21.6	0.00e+00	123	22	101	1048576	56	6517
2026-01-05 12:24:08.61	32.39	7.42	-39.5	-40.6	21.6	0.00e+00	120	22	101	1048576	56	6378
2026-01-05 12:24:09.91	32.54	7.49	-39.4	-40.4	21.7	0.00e+00	122	22	101	1048576	56	6269
2026-01-05 12:24:10.63	32.62	7.53	-39.3	-40.4	21.8	0.00e+00	123	22	101	1048576	56	6206
2026-01-05 12:24:11.93	32.78	7.60	-39.1	-40.1	22.0	0.00e+00	122	22	101	1048576	56	6051
2026-01-05 12:24:12.65	32.87	7.64	-39.1	-40.1	22.0	0.00e+00	123	22	101	1048576	56	6056
2026-01-05 12:24:13.95	33.02	7.71	-38.8	-39.9	22.3	0.00e+00	123	22	101	1048576	56	5864
2026-01-05 12:24:14.68	33.11	7.75	-38.9	-39.9	22.2	0.00e+00	122	22	101	1048576	56	5918
2026-01-05 12:24:15.98	33.27	7.82	-39.0	-40.0	22.1	0.00e+00	122	22	101	1048576	56	5978
2026-01-05 12:24:16.70	33.35	7.86	-38.7	-39.8	22.3	0.00e+00	122	22	101	1048576	56	5796
2026-01-05 12:24:18.00	33.51	7.93	-38.9	-40.0	22.2	0.00e+00	122	22	101	1048576	56	5928
2026-01-05 12:24:18.72	33.60	7.97	-38.8	-39.8	22.3	0.00e+00	120	22	101	1048576	56	5834
2026-01-05 12:24:20.02	33.76	8.04	-38.8	-39.8	22.3	0.00e+00	122	22	101	1048576	56	5822
2026-01-05 12:24:20.74	33.85	8.07	-39.1	-40.1	22.1	0.00e+00	122	22	101	1048576	56	6031
2026-01-05 12:24:22.04	34.01	8.14	-39.1	-40.2	22.1	0.00e+00	122	22	101	1048576	56	6073
2026-01-05 12:24:22.76	34.10	8.18	-38.7	-39.7	22.4	0.00e+00	123	22	101	1048576	56	5780
2026-01-05 12:24:24.06	34.26	8.25	-38.7	-39.7	22.4	0.00e+00	122	22	101	1048576	56	5786
2026-01-05 12:24:24.79	34.35	8.29	-38.8	-39.8	22.3	0.00e+00	120	22	101	1048576	56	5826
2026-01-05 12:24:26.09	34.52	8.36	-38.6	-39.6	22.5	0.00e+00	123	22	101	1048576	56	5719
2026-01-05 12:24:26.81	34.61	8.40	-38.6	-39.6	22.5	0.00e+00	120	22	101	1048576	56	5705
2026-01-05 12:24:28.11	34.77	8.47	-38.8	-39.9	22.4	0.00e+00	121	22	101	1048576	56	5862
2026-01-05 12:24:28.83	34.86	8.51	-38.7	-39.8	22.3	0.00e+00	123	22	101	1048576	56	5796
2026-01-05 12:24:30.13	35.03	8.58	-38.8	-39.8	22.5	0.00e+00	122	22	101	1048576	56	5845
2026-01-05 12:24:30.85	35.12	8.62	-38.7	-39.8	22.4	0.00e+00	122	22	101	1048576	56	5801
2026-01-05 12:24:32.15	35.29	8.69	-38.9	-39.9	22.3	0.00e+00	123	22	101	1048576	56	5880
2026-01-05 12:24:32.87	35.38	8.73	-38.7	-39.7	22.5	0.00e+00	123	22	101	1048576	56	5753
2026-01-05 12:24:34.17	35.55	8.80	-38.4	-39.4	22.7	0.00e+00	123	22	101	1048576	56	5572
2026-01-05 12:24:34.90	35.64	8.84	-38.3	-39.3	22.7	0.00e+00	123	22	101	1048576	56	5520
2026-01-05 12:24:36.20	35.81	8.91	-38.4	-39.4	22.7	0.00e+00	122	22	101	1048576	56	5532
2026-01-05 12:24:36.92	35.90	8.95	-38.5	-39.5	22.6	0.00e+00	123	22	101	1048576	56	5632
2026-01-05 12:24:38.22	36.07	9.02	-38.4	-39.4	22.7	0.00e+00	120	22	101	1048576	56	5531
2026-01-05 12:24:38.94	36.17	9.06	-38.4	-39.5	22.7	0.00e+00	123	22	101	1048576	56	5596
2026-01-05 12:24:40.24	36.34	9.13	-38.5	-39.5	22.7	0.00e+00	122	22	101	1048576	56	5620
2026-01-05 12:24:40.96	36.44	9.17	-38.7	-39.7	22.5	0.00e+00	120	22	101	1048576	56	5743
2026-01-05 12:24:42.26	36.61	9.24	-38.6	-39.6	22.5	0.00e+00	123	22	101	1048576	56	5701
2026-01-05 12:24:42.99	36.71	9.27	-38.7	-39.8	22.5	0.00e+00	123	22	101	1048576	56	5810
2026-01-05 12:24:44.29	36.88	9.34	-38.5	-39.5	22.6	0.00e+00	120	22	101	1048576	56	5649
2026-01-05 12:24:45.01	36.98	9.38	-38.6	-39.6	22.6	0.00e+00	123	22	101	1048576	56	5701
2026-01-05 12:24:46.31	37.15	9.45	-38.6	-39.6	22.6	0.00e+00	120	22	101	1048576	56	5690
2026-01-05 12:24:47.03	37.25	9.49	-38.4	-39.4	22.7	0.00e+00	123	22	101	1048576	56	5584
2026-01-05 12:24:48.33	37.43	9.56	-38.4	-39.4	22.7	0.00e+00	123	22	101	1048576	56	5553
2026-01-05 12:24:49.05	37.52	9.60	-38.5	-39.6	22.7	0.00e+00	122	22	101	1048576	56	5662
2026-01-05 12:24:50.35	37.70	9.67	-38.3	-39.3	22.9	0.00e+00	123	22	101	1048576	56	5498
2026-01-05 12:24:51.07	37.80	9.71	-38.4	-39.4	22.8	0.00e+00	121	22	101	1048576	56	5591
2026-01-05 12:24:52.37	37.98	9.78	-38.3	-39.3	22.9	0.00e+00	122	22	101	1048576	56	5488
2026-01-05 12:24:53.10	38.08	9.82	-38.5	-39.5	22.7	0.00e+00	122	22	101	1048576	56	5659
2026-01-05 12:24:54.40	38.26	9.89	-38.0	-39.0	23.1	0.00e+00	120	22	101	1048576	54	5946
2026-01-05 12:24:55.12	38.36	9.93	-38.0	-39.0	23.1	0.00e+00	122	22	101	1048576	54	5936
2026-01-05 12:24:56.42	38.54	10.00	-38.0	-39.0	23.0	0.00e+00	123	22	101	1048576	54	5943
2026-01-05 12:24:57.14	38.64	10.03	-38.0	-38.9	23.1	0.00e+00	123	22	101	1048576	54	5910
2026-01-05 12:24:58.44	38.83	10.10	-38.0	-38.9	23.1	0.00e+00	123	22	101	1048576	54	5916
2026-01-05 12:24:59.16	38.93	10.14	-38.0	-38.9	23.1	0.00e+00	122	22	101	1048576	54	5907
2026-01-05 12:25:00.46	39.11	10.21	-37.8	-38.8	23.2	0.00e+00	123	22	101	1048576	54	5819
2026-01-05 12:25:01.18	39.21	10.25	-37.9	-38.9	23.2	0.00e+00	123	22	101	1048576	54	5886
2026-01-05 12:25:02.48	39.40	10.32	-37.8	-38.8	23.2	0.00e+00	120	22	101	1048576	54	5797
2026-01-05 12:25:03.20	39.50	10.36	-37.9	-38.9	23.2	0.00e+00	123	22	101	1048576	54	5871
2026-01-05 12:25:04.50	39.69	10.43	-38.0	-38.9	23.0	0.00e+00	123	22	101	1048576	54	5919
2026-01-05 12:25:05.23	39.79	10.47	-37.7	-38.7	23.2	0.00e+00	122	22	101	1048576	54	5752
2026-01-05 12:25:06.53	39.98	10.53	-37.7	-38.7	23.3	0.00e+00	122	22	101	1048576	54	5765
2026-01-05 12:25:07.25	40.09	10.57	-37.7	-38.7	23.3	0.00e+00	123	22	101	1048576	54	5768
2026-01-05 12:25:08.55	40.28	10.64	-37.9	-38.8	23.2	0.00e+00	122	22	101	1048576	54	5849
2026-01-05 12:25:09.27	40.38	10.68	-37.8	-38.8	23.3	0.00e+00	123	22	101	1048576	54	5798
2026-01-05 12:25:10.57	40.57	10.75	-37.7	-38.7	23.3	0.00e+00	120	22	101	1048576	54	5771
2026-01-05 12:25:11.29	40.68	10.79	-37.8	-38.8	23.2	0.00e+00	123	22	101	1048576	54	5808
2026-01-05 12:25:12.59	40.87	10.86	-37.9	-38.8	23.2	0.00e+00	121	22	101	1048576	54	5850
2026-01-05 12:25:13.32	40.98	10.89	-37.7	-38.7	23.3	0.00e+00	123	22	101	1048576	54	5752
2026-01-05 12:25:14.62	41.17	10.96	-37.7	-38.6	23.4	0.00e+00	122	22	101	1048576	54	5709
2026-01-05 12:25:15.34	41.28	11.00	-37.7	-38.7	23.3	0.00e+00	120	22	101	1048576	54	5754
2026-01-05 12:25:16.64	41.48	11.07	-37.9	-38.9	23.2	0.00e+00	123	22	101	1048576	54	5886
2026-01-05 12:25:17.36	41.58	11.11	-37.8	-38.8	23.2	0.00e+00	123	22	101	1048576	54	5794
2026-01-05 12:25:18.66	41.78	11.18	-37.9	-38.9	23.3	0.00e+00	123	22	101	1048576	54	5874
2026-01-05 12:25:19.38	41.89	11.21	-37.7	-38.7	23.3	0.00e+00	122	22	101	1048576	54	5763
2026-01-05 12:25:20.69	42.09	11.28	-37.8	-38.8	23.3	0.00e+00	120	22	101	1048576	54	5799
2026-01-05 12:25:21.41	42.20	11.32	-37.7	-38.6	23.4	0.00e+00	120	22	101	1048576	54	5698
2026-01-05 12:25:22.71	42.40	11.39	-37.7	-38.7	23.4	0.00e+00	122	22	101	1048576	54	5740
2026-01-05 12:25:23.43	42.51	11.43	-37.8	-38.8	23.3	0.00e+00	123	22	101	1048576	54	5819
2026-01-05 12:25:24.73	42.71	11.49	-37.5	-38.4	23.6	0.00e+00	123	22	101	1048576	54	5586
2026-01-05 12:25:25.45	42.82	11.53	-37.5	-38.4	23.5	0.00e+00	122	22	101	1048576	54	5560
2026-01-05 12:25:26.75	43.02	11.60	-37.6	-38.6	23.5	0.00e+00	123	22	101	1048576	54	5662
2026-01-05 12:25:27.47	43.13	11.64	-37.5	-38.4	23.6	0.00e+00	122	22	101	1048576	54	5560
2026-01-05 12:25:28.77	43.34	11.70	-37.6	-38.6	23.4	0.00e+00	123	22	101	1048576	54	5672
2026-01-05 12:25:29.50	43.45	11.74	-37.4	-38.4	23.5	0.00e+00	122	22	101	1048576	54	5555
2026-01-05 12:25:30.80	43.66	11.81	-37.5	-38.5	23.5	0.00e+00	123	22	101	1048576	54	5612
2026-01-05 12:25:31.52	43.77	11.84	-37.4	-38.3	23.7	0.00e+00	122	22	101	1048576	54	5485
2026-01-05 12:25:32.82	43.98	11.91	-37.5	-38.4	23.6	0.00e+00	122	22	101	1048576	54	5568
2026-01-05 12:25:33.54	44.09	11.95	-37.5	-38.4	23.5	0.00e+00	120	22	101	1048576	54	5574
2026-01-05 12:25:34.84	44.30	12.02	-37.4	-38.3	23.7	0.00e+00	123	22	101	1048576	54	5506
2026-01-05 12:25:35.56	44.41	12.05	-37.4	-38.3	23.6	0.00e+00	123	22	101	1048576	54	5499
2026-01-05 12:25:36.86	44.62	12.12	-37.5	-38.5	23.6	0.00e+00	120	22	101	1048576	54	5597
2026-01-05 12:25:37.58	44.74	12.16	-37.4	-38.4	23.7	0.00e+00	123	22	101	1048576	54	5534
2026-01-05 12:25:38.88	44.95	12.22	-37.5	-38.4	23.6	0.00e+00	123	22	101	1048576	54	5582
2026-01-05 12:25:39.61	45.07	12.26	-37.6	-38.5	23.6	0.00e+00	123	22	101	1048576	54	5658
2026-01-05 12:25:40.91	45.28	12.32	-37.6	-38.6	23.5	0.00e+00	123	22	101	1048576	54	5676
2026-01-05 12:25:41.63	45.40	12.36	-37.6	-38.6	23.6	0.00e+00	122	22	101	1048576	54	5664
2026-01-05 12:25:42.93	45.61	12.43	-37.5	-38.4	23.6	0.00e+00	120	22	101	1048576	54	5559
2026-01-05 12:25:43.65	45.73	12.46	-37.4	-38.4	23.7	0.00e+00	123	22	101	1048576	54	5538
2026-01-05 12:25:44.95	45.94	12.53	-37.4	-38.4	23.7	0.00e+00	123	22	101	1048576	54	5544
2026-01-05 12:25:45.67	46.06	12.56	-37.4	-38.4	23.7	0.00e+00	122	22	101	1048576	54	5538
2026-01-05 12:25:46.97	46.28	12.63	-37.4	-38.3	23.7	0.00e+00	122	22	101	1048576	54	5525
2026-01-05 12:25:47.70	46.40	12.67	-37.5	-38.4	23.6	0.00e+00	123	22	101	1048576	54	5585
2026-01-05 12:25:48.99	46.62	12.73	-37.5	-38.4	23.6	0.00e+00	123	22	101	1048576	54	5560
2026-01-05 12:25:49.72	46.74	12.77	-37.7	-38.6	23.5	0.00e+00	120	22	101	1048576	54	5715
2026-01-05 12:25:51.02	46.96	12.83	-38.0	-38.9	23.1	0.00e+00	122	22	101	1048576	54	5924
2026-01-05 12:25:51.74	47.08	12.87	-38.3	-39.2	22.9	0.00e+00	123	22	101	1048576	54	6126
2026-01-05 12:25:53.04	47.30	12.93	-37.9	-38.9	23.1	0.00e+00	122	22	101	1048576	54	5895
2026-01-05 12:25:53.76	47.42	12.97	-37.9	-38.9	23.2	0.00e+00	123	22	101	1048576	54	5893
2026-01-05 12:25:55.06	47.64	13.03	-37.9	-38.8	23.2	0.00e+00	122	22	101	1048576	54	5852
2026-01-05 12:25:55.78	47.77	13.07	-38.0	-39.0	23.1	0.00e+00	123	22	101	1048576	54	5937
2026-01-05 12:25:57.09	47.99	13.13	-37.8	-38.8	23.2	0.00e+00	122	22	101	1048576	54	5819
2026-01-05 12:25:57.81	48.12	13.17	-38.1	-39.1	23.1	0.00e+00	123	22	101	1048576	54	6025
2026-01-05 12:25:59.11	48.34	13.23	-38.1	-39.1	23.1	0.00e+00	120	22	101	1048576	54	5996
2026-01-05 12:25:59.83	48.47	13.26	-37.9	-38.8	23.3	0.00e+00	122	22	101	1048576	54	5849
2026-01-05 12:26:01.13	48.69	13.33	-37.8	-38.8	23.4	0.00e+00	123	22	101	1048576	54	5807
2026-01-05 12:26:01.85	48.82	13.36	-37.8	-38.8	23.4	0.00e+00	123	22	101	1048576	54	5795
2026-01-05 12:26:03.15	49.04	13.42	-37.6	-38.6	23.5	0.00e+00	122	22	101	1048576	54	5688
2026-01-05 12:26:03.87	49.17	13.46	-37.6	-38.6	23.5	0.00e+00	123	22	101	1048576	54	5681
2026-01-05 12:26:05.17	49.40	13.52	-37.6	-38.5	23.6	0.00e+00	123	22	101	1048576	54	5651
2026-01-05 12:26:05.90	49.53	13.55	-37.5	-38.5	23.6	0.00e+00	120	22	101	1048576	54	5622
2026-01-05 12:26:07.19	49.76	13.62	-37.5	-38.5	23.6	0.00e+00	123	22	101	1048576	54	5607
2026-01-05 12:26:07.92	49.89	13.65	-37.6	-38.5	23.6	0.00e+00	122	22	101	1048576	54	5649
2026-01-05 12:26:09.22	50.12	13.71	-37.5	-38.4	23.6	0.00e+00	123	22	101	1048576	54	5574
2026-01-05 12:26:09.94	50.25	13.74	-37.6	-38.6	23.5	0.00e+00	123	22	101	1048576	54	5666
2026-01-05 12:26:11.24	50.48	13.81	-37.7	-38.7	23.4	0.00e+00	123	22	101	1048576	54	5755
2026-01-05 12:26:11.96	50.61	13.84	-37.7	-38.7	23.3	0.00e+00	120	22	101	1048576	54	5742
2026-01-05 12:26:13.26	50.85	13.90	-37.8	-38.8	23.4	0.00e+00	122	22	101	1048576	54	5835
2026-01-05 12:26:13.98	50.98	13.93	-37.9	-38.8	23.4	0.00e+00	122	22	101	1048576	54	5841
2026-01-05 12:26:15.28	51.21	13.99	-37.7	-38.7	23.5	0.00e+00	121	22	101	1048576	54	5730
2026-01-05 12:26:16.01	51.35	14.03	-37.7	-38.7	23.5	0.00e+00	122	22	101	1048576	54	5741
2026-01-05 12:26:17.31	51.58	14.09	-37.6	-38.5	23.6	0.00e+00	122	22	101	1048576	54	5657
2026-01-05 12:26:18.03	51.72	14.12	-37.6	-38.5	23.6	0.00e+00	123	22	101	1048576	54	5657
2026-01-05 12:26:19.33	51.96	14.18	-37.4	-38.3	23.7	0.00e+00	123	22	101	1048576	54	5530
2026-01-05 12:26:20.05	52.09	14.21	-37.4	-38.4	23.7	0.00e+00	123	22	101	1048576	54	5549
2026-01-05 12:26:21.35	52.33	14.27	-37.5	-38.5	23.6	0.00e+00	122	22	101	1048576	54	5610
2026-01-05 12:26:22.07	52.46	14.30	-37.6	-38.5	23.6	0.00e+00	120	22	101	1048576	54	5651
2026-01-05 12:26:23.37	52.71	14.36	-37.7	-38.7	23.5	0.00e+00	122	22	101	1048576	54	5750
2026-01-05 12:26:24.09	52.84	14.39	-37.5	-38.5	23.5	0.00e+00	122	22	101	1048576	54	5627
2026-01-05 12:26:25.39	53.08	14.45	-37.7	-38.7	23.4	0.00e+00	123	22	101	1048576	54	5740
2026-01-05 12:26:26.12	53.22	14.48	-37.6	-38.6	23.4	0.00e+00	123	22	101	1048576	54	5704
2026-01-05 12:26:27.42	53.47	14.54	-37.6	-38.6	23.4	0.00e+00	122	22	101	1048576	54	5688
2026-01-05 12:26:28.14	53.60	14.57	-37.6	-38.6	23.5	0.00e+00	122	22	101	1048576	54	5699
2026-01-05 12:26:29.44	53.85	14.62	-37.8	-38.7	23.4	0.00e+00	122	22	101	1048576	54	5779
2026-01-05 12:26:30.16	53.99	14.66	-37.5	-38.5	23.7	0.00e+00	123	22	101	1048576	54	5613
2026-01-05 12:26:31.46	54.23	14.71	-37.4	-38.4	23.7	0.00e+00	123	22	101	1048576	54	5541
2026-01-05 12:26:32.18	54.37	14.74	-37.5	-38.4	23.7	0.00e+00	123	22	101	1048576	54	5587
2026-01-05 12:26:33.48	54.62	14.80	-37.5	-38.4	23.7	0.00e+00	122	22	101	1048576	54	5571
2026-01-05 12:26:34.20	54.76	14.83	-37.3	-38.2	23.8	0.00e+00	123	22	101	1048576	54	5456
2026-01-05 12:26:35.50	55.01	14.88	-37.3	-38.2	23.8	0.00e+00	120	22	101	1048576	54	5451
2026-01-05 12:26:36.22	55.15	14.91	-37.3	-38.3	23.8	0.00e+00	122	22	101	1048576	54	5483
2026-01-05 12:26:37.52	55.40	14.97	-37.5	-38.4	23.6	0.00e+00	120	22	101	1048576	54	5549
2026-01-05 12:26:38.25	55.54	15.00	-37.5	-38.4	23.6	0.00e+00	123	22	101	1048576	54	5563
2026-01-05 12:26:39.55	55.80	15.05	-37.3	-38.3	23.7	0.00e+00	122	22	101	1048576	54	5489
2026-01-05 12:26:40.27	55.94	15.08	-37.3	-38.3	23.8	0.00e+00	122	22	101	1048576	54	5469
2026-01-05 12:26:41.57	56.19	15.13	-37.3	-38.3	23.8	0.00e+00	123	22	101	1048576	54	5472
2026-01-05 12:26:42.29	56.33	15.16	-37.3	-38.3	23.8	0.00e+00	122	22	101	1048576	54	5472
2026-01-05 12:26:43.59	56.59	15.21	-37.3	-38.2	23.8	0.00e+00	120	22	101	1048576	54	5458
2026-01-05 12:26:44.31	56.73	15.24	-37.5	-38.4	23.8	0.00e+00	122	22	101	1048576	54	5576
2026-01-05 12:26:45.62	56.99	15.29	-37.9	-38.9	23.6	0.00e+00	120	22	101	1048576	54	5901
2026-01-05 12:26:46.34	57.13	15.32	-37.9	-38.9	23.7	0.00e+00	122	22	101	1048576	54	5890
2026-01-05 12:26:47.64	57.39	15.37	-37.5	-38.4	23.7	0.00e+00	123	22	101	1048576	54	5587
2026-01-05 12:26:48.36	57.54	15.40	-37.5	-38.4	23.7	0.00e+00	120	22	101	1048576	54	5586
2026-01-05 12:26:49.66	57.80	15.45	-37.7	-38.7	23.4	0.00e+00	122	22	101	1048576	54	5744
2026-01-05 12:26:50.38	57.94	15.48	-37.7	-38.6	23.4	0.00e+00	121	22	101	1048576	54	5721
2026-01-05 12:26:51.68	58.20	15.53	-37.8	-38.8	23.4	0.00e+00	123	22	101	1048576	54	5798
2026-01-05 12:26:52.40	58.35	15.55	-38.1	-39.1	23.3	0.00e+00	122	22	101	1048576	54	6007
2026-01-05 12:26:53.70	58.61	15.60	-37.9	-38.8	23.4	0.00e+00	120	22	101	1048576	54	5845
2026-01-05 12:26:54.42	58.75	15.63	-38.2	-39.1	23.1	0.00e+00	122	22	101	1048576	54	6059
2026-01-05 12:26:55.72	59.02	15.68	-37.7	-38.6	23.6	0.00e+00	123	22	101	1048576	54	5705
2026-01-05 12:26:56.45	59.17	15.70	-37.8	-38.7	23.4	0.00e+00	123	22	101	1048576	54	5780
2026-01-05 12:26:57.75	59.43	15.75	-37.2	-38.1	24.0	0.00e+00	122	22	101	1048576	54	5401
2026-01-05 12:26:58.47	59.58	15.78	-37.0	-37.9	24.1	0.00e+00	123	22	101	1048576	52	5876
2026-01-05 12:26:59.77	59.85	15.82	-37.0	-37.9	24.0	0.00e+00	123	22	101	1048576	52	5881
2026-01-05 12:27:00.49	59.99	15.85	-36.9	-37.8	24.1	0.00e+00	123	22	101	1048576	52	5850
2026-01-05 12:27:01.79	60.26	15.89	-36.9	-37.8	24.2	0.00e+00	122	22	101	1048576	52	5830
2026-01-05 12:27:02.51	60.41	15.92	-36.9	-37.8	24.2	0.00e+00	123	22	101	1048576	52	5819
2026-01-05 12:27:03.81	60.68	15.96	-36.8	-37.7	24.1	0.00e+00	122	22	101	1048576	52	5768
2026-01-05 12:27:04.54	60.83	15.99	-36.9	-37.8	24.1	0.00e+00	122	22	101	1048576	52	5806
2026-01-05 12:27:05.84	61.10	16.03	-36.8	-37.7	24.3	0.00e+00	120	22	101	1048576	52	5762
2026-01-05 12:27:06.56	61.25	16.06	-36.9	-37.8	24.2	0.00e+00	120	22	101	1048576	52	5831
2026-01-05 12:27:07.86	61.52	16.10	-36.7	-37.6	24.4	0.00e+00	123	22	101	1048576	52	5723
2026-01-05 12:27:08.58	61.67	16.12	-36.8	-37.7	24.3	0.00e+00	122	22	101	1048576	52	5742
2026-01-05 12:27:09.88	61.95	16.17	-36.9	-37.8	24.2	0.00e+00	122	22	101	1048576	52	5822
2026-01-05 12:27:10.60	62.10	16.19	-36.8	-37.7	24.2	0.00e+00	120	22	101	1048576	52	5773
2026-01-05 12:27:11.90	62.37	16.23	-37.0	-37.9	24.1	0.00e+00	123	22	101	1048576	52	5881
2026-01-05 12:27:12.62	62.52	16.25	-37.1	-38.0	23.9	0.00e+00	122	22	101	1048576	52	5964
2026-01-05 12:27:13.92	62.80	16.30	-37.1	-38.0	24.0	0.00e+00	122	22	101	1048576	52	5987
2026-01-05 12:27:14.65	62.95	16.32	-37.2	-38.1	24.0	0.00e+00	123	22	101	1048576	52	6017
2026-01-05 12:27:15.95	63.23	16.36	-36.9	-37.9	24.1	0.00e+00	123	22	101	1048576	52	5863
2026-01-05 12:27:16.67	63.38	16.38	-36.7	-37.6	24.3	0.00e+00	123	22	101	1048576	52	5674
2026-01-05 12:27:17.97	63.66	16.42	-36.8	-37.7	24.2	0.00e+00	120	22	101	1048576	52	5762
2026-01-05 12:27:18.69	63.81	16.44	-36.7	-37.6	24.2	0.00e+00	122	22	101	1048576	52	5682
2026-01-05 12:27:19.99	64.09	16.48	-36.7	-37.6	24.3	0.00e+00	123	22	101	1048576	52	5720
2026-01-05 12:27:20.71	64.25	16.50	-36.8	-37.8	24.1	0.00e+00	120	22	101	1048576	52	5809
2026-01-05 12:27:22.02	64.53	16.54	-36.8	-37.7	24.2	0.00e+00	123	22	101	1048576	52	5771
2026-01-05 12:27:22.74	64.68	16.56	-36.7	-37.6	24.3	0.00e+00	120	22	101	1048576	52	5711
2026-01-05 12:27:24.04	64.96	16.59	-36.8	-37.8	24.3	0.00e+00	122	22	101	1048576	52	5802
2026-01-05 12:27:24.76	65.12	16.61	-36.9	-37.8	24.2	0.00e+00	123	22	101	1048576	52	5822
2026-01-05 12:27:26.06	65.40	16.65	-36.9	-37.8	24.2	0.00e+00	123	22	101	1048576	52	5806
2026-01-05 12:27:26.78	65.56	16.67	-36.7	-37.6	24.3	0.00e+00	123	22	101	1048576	52	5711
2026-01-05 12:27:28.08	65.84	16.70	-36.7	-37.6	24.3	0.00e+00	121	22	101	1048576	52	5677
2026-01-05 12:27:28.81	66.00	16.72	-36.7	-37.6	24.3	0.00e+00	120	22	101	1048576	52	5691
2026-01-05 12:27:30.11	66.28	16.75	-36.8	-37.7	24.2	0.00e+00	123	22	101	1048576	52	5740
2026-01-05 12:27:30.83	66.44	16.77	-36.8	-37.7	24.2	0.00e+00	123	22	101	1048576	52	5750
2026-01-05 12:27:32.13	66.72	16.80	-36.9	-37.8	24.2	0.00e+00	122	22	101	1048576	52	5827
2026-01-05 12:27:32.85	66.88	16.82	-37.0	-37.9	24.1	0.00e+00	123	22	101	1048576	52	5911
2026-01-05 12:27:34.15	67.17	16.85	-37.0	-37.9	24.1	0.00e+00	122	22	101	1048576	52	5881
2026-01-05 12:27:34.87	67.33	16.87	-36.8	-37.7	24.3	0.00e+00	123	22	101	1048576	52	5782
2026-01-05 12:27:36.17	67.61	16.90	-36.7	-37.6	24.4	0.00e+00	123	22	101	1048576	52	5680
2026-01-05 12:27:36.89	67.77	16.92	-36.8	-37.7	24.4	0.00e+00	122	22	101	1048576	52	5736
2026-01-05 12:27:38.19	68.06	16.95	-36.7	-37.6	24.3	0.00e+00	123	22	101	1048576	52	5678
2026-01-05 12:27:38.92	68.22	16.96	-36.6	-37.5	24.4	0.00e+00	122	22	101	1048576	52	5638
2026-01-05 12:27:40.22	68.51	16.99	-36.8	-37.7	24.2	0.00e+00	123	22	101	1048576	52	5785
2026-01-05 12:27:40.94	68.67	17.01	-36.9	-37.8	24.2	0.00e+00	122	22	101	1048576	52	5800
2026-01-05 12:27:42.24	68.96	17.04	-37.0	-37.9	24.1	0.00e+00	123	22	101	1048576	52	5920
2026-01-05 12:27:42.96	69.12	17.05	-36.9	-37.9	24.1	0.00e+00	123	22	101	1048576	52	5868
2026-01-05 12:27:44.26	69.41	17.08	-36.9	-37.9	24.2	0.00e+00	122	22	101	1048576	52	5870
2026-01-05 12:27:44.99	69.57	17.09	-37.0	-37.9	24.1	0.00e+00	123	22	101	1048576	52	5903
2026-01-05 12:27:46.29	69.86	17.12	-36.9	-37.8	24.2	0.00e+00	122	22	101	1048576	52	5827
2026-01-05 12:27:47.01	70.02	17.13	-36.9	-37.8	24.1	0.00e+00	123	22	101	1048576	52	5830
2026-01-05 12:27:48.31	70.31	17.15	-36.8	-37.7	24.3	0.00e+00	120	22	101	1048576	52	5738
2026-01-05 12:27:49.03	70.47	17.17	-37.1	-38.0	24.1	0.00e+00	122	22	101	1048576	52	5951
2026-01-05 12:27:50.33	70.76	17.19	-37.1	-38.1	24.0	0.00e+00	120	22	101	1048576	52	6024
2026-01-05 12:27:51.05	70.93	17.20	-37.0	-37.9	24.0	0.00e+00	122	22	101	1048576	52	5916
2026-01-05 12:27:52.35	71.22	17.23	-36.9	-37.8	24.2	0.00e+00	123	22	101	1048576	52	5833
2026-01-05 12:27:53.07	71.38	17.24	-36.9	-37.8	24.2	0.00e+00	123	22	101	1048576	52	5835
2026-01-05 12:27:54.37	71.67	17.26	-36.9	-37.8	24.2	0.00e+00	122	22	101	1048576	52	5800
2026-01-05 12:27:55.10	71.84	17.27	-36.9	-37.8	24.3	0.00e+00	122	22	101	1048576	52	5813
2026-01-05 12:27:56.40	72.13	17.29	-36.8	-37.7	24.4	0.00e+00	123	22	101	1048576	52	5756
2026-01-05 12:27:57.12	72.29	17.30	-36.9	-37.8	24.3	0.00e+00	123	22	101	1048576	52	5849
2026-01-05 12:27:58.42	72.59	17.32	-37.0	-37.9	24.2	0.00e+00	123	22	101	1048576	52	5860
2026-01-05 12:27:59.14	72.75	17.33	-37.1	-38.0	24.1	0.00e+00	122	22	101	1048576	52	5959
2026-01-05 12:28:00.44	73.05	17.35	-37.3	-38.3	24.0	0.00e+00	122	22	101	1048576	52	6140
2026-01-05 12:28:01.16	73.21	17.36	-37.1	-38.0	24.0	0.00e+00	122	22	101	1048576	52	5959
2026-01-05 12:28:02.46	73.51	17.37	-37.0	-37.9	24.1	0.00e+00	122	22	101	1048576	52	5925
2026-01-05 12:28:03.18	73.67	17.38	-36.9	-37.8	24.3	0.00e+00	123	22	101	1048576	52	5813
2026-01-05 12:28:04.48	73.97	17.40	-36.8	-37.7	24.3	0.00e+00	123	22	101	1048576	52	5761
2026-01-05 12:28:05.21	74.13	17.41	-36.8	-37.7	24.3	0.00e+00	123	22	101	1048576	52	5786
2026-01-05 12:28:06.51	74.43	17.42	-36.7	-37.6	24.3	0.00e+00	122	22	101	1048576	52	5712
2026-01-05 12:28:07.23	74.59	17.43	-36.7	-37.7	24.3	0.00e+00	123	22	101	1048576	52	5729
2026-01-05 12:28:08.53	74.89	17.44	-36.9	-37.8	24.2	0.00e+00	123	22	101	1048576	52	5854
2026-01-05 12:28:09.25	75.05	17.45	-36.9	-37.8	24.2	0.00e+00	123	22	101	1048576	52	5836
2026-01-05 12:28:10.55	75.35	17.46	-36.8	-37.7	24.3	0.00e+00	123	22	101	1048576	52	5771
2026-01-05 12:28:11.27	75.52	17.47	-37.2	-38.2	24.0	0.00e+00	123	22	101	1048576	52	6071
2026-01-05 12:28:12.57	75.81	17.48	-37.0	-37.9	24.2	0.00e+00	122	22	101	1048576	52	5921
2026-01-05 12:28:13.30	75.98	17.48	-36.9	-37.8	24.3	0.00e+00	123	22	101	1048576	52	5827
2026-01-05 12:28:14.60	76.28	17.49	-37.2	-38.1	24.1	0.00e+00	123	22	101	1048576	52	6029
2026-01-05 12:28:15.32	76.44	17.50	-37.0	-37.9	24.1	0.00e+00	123	22	101	1048576	52	5898
2026-01-05 12:28:16.62	76.74	17.51	-37.0	-38.0	24.1	0.00e+00	122	22	101	1048576	52	5935
2026-01-05 12:28:17.34	76.91	17.51	-36.9	-37.8	24.2	0.00e+00	122	22	101	1048576	52	5799
2026-01-05 12:28:18.64	77.20	17.52	-36.6	-37.5	24.4	0.00e+00	123	22	101	1048576	52	5653
2026-01-05 12:28:19.36	77.37	17.52	-36.8	-37.7	24.4	0.00e+00	123	22	101	1048576	52	5764
2026-01-05 12:28:20.66	77.67	17.53	-36.7	-37.7	24.3	0.00e+00	122	22	101	1048576	52	5731
2026-01-05 12:28:21.38	77.83	17.53	-36.7	-37.6	24.4	0.00e+00	122	22	101	1048576	52	5683
2026-01-05 12:28:22.68	78.13	17.54	-36.7	-37.6	24.3	0.00e+00	122	22	101	1048576	52	5725
2026-01-05 12:28:23.41	78.30	17.54	-36.9	-37.8	24.2	0.00e+00	123	22	101	1048576	52	5851
2026-01-05 12:28:24.71	78.60	17.55	-36.9	-37.8	24.2	0.00e+00	123	22	101	1048576	52	5857
2026-01-05 12:28:25.43	78.77	17.55	-37.2	-38.1	24.0	0.00e+00	122	22	101	1048576	52	6034
2026-01-05 12:28:26.73	79.06	17.55	-36.8	-37.7	24.2	0.00e+00	123	22	101	1048576	52	5785
2026-01-05 12:28:27.45	79.23	17.55	-36.8	-37.7	24.3	0.00e+00	123	22	101	1048576	52	5764
2026-01-05 12:28:28.75	79.53	17.55	-36.8	-37.8	24.2	0.00e+00	122	22	101	1048576	52	5804
2026-01-05 12:28:29.47	79.70	17.55	-36.9	-37.9	24.2	0.00e+00	123	22	101	1048576	52	5864
2026-01-05 12:28:30.77	79.99	17.56	-36.9	-37.8	24.2	0.00e+00	123	22	101	1048576	52	5805
2026-01-05 12:28:31.49	80.16	17.56	-36.9	-37.8	24.1	0.00e+00	122	22	101	1048576	52	5858
2026-01-05 12:28:32.80	80.46	17.55	-37.0	-37.9	24.2	0.00e+00	120	22	101	1048576	52	5894
2026-01-05 12:28:33.52	80.63	17.55	-37.1	-38.0	24.1	0.00e+00	123	22	101	1048576	52	5938
2026-01-05 12:28:34.82	80.93	17.55	-37.1	-38.1	24.0	0.00e+00	123	22	101	1048576	52	5996
2026-01-05 12:28:35.54	81.09	17.55	-36.8	-37.7	24.3	0.00e+00	120	22	101	1048576	52	5772
2026-01-05 12:28:36.84	81.39	17.55	-36.9	-37.9	24.1	0.00e+00	123	22	101	1048576	52	5865
2026-01-05 12:28:37.56	81.56	17.55	-36.9	-37.9	24.2	0.00e+00	122	22	101	1048576	52	5862
2026-01-05 12:28:38.86	81.86	17.54	-37.0	-38.0	24.1	0.00e+00	122	22	101	1048576	52	5928
2026-01-05 12:28:39.58	82.02	17.54	-37.0	-37.9	24.1	0.00e+00	122	22	101	1048576	52	5881
2026-01-05 12:28:40.88	82.32	17.53	-37.1	-38.0	24.3	0.00e+00	121	22	101	1048576	52	5987
2026-01-05 12:28:41.61	82.49	17.53	-37.0	-37.9	24.2	0.00e+00	122	22	101	1048576	52	5883
2026-01-05 12:28:42.91	82.79	17.52	-37.0	-37.9	24.1	0.00e+00	123	22	101	1048576	52	5918
2026-01-05 12:28:43.63	82.95	17.52	-36.8	-37.7	24.3	0.00e+00	123	22	101	1048576	52	5736
2026-01-05 12:28:44.93	83.25	17.51	-36.9	-37.8	24.2	0.00e+00	123	22	101	1048576	52	5832
2026-01-05 12:28:45.65	83.42	17.51	-36.8	-37.7	24.3	0.00e+00	123	22	101	1048576	52	5774
2026-01-05 12:28:46.95	83.71	17.50	-37.0	-38.0	24.1	0.00e+00	122	22	101	1048576	52	5944
2026-01-05 12:28:47.67	83.88	17.50	-37.3	-38.3	24.0	0.00e+00	123	22	101	1048576	52	6146
2026-01-05 12:28:48.97	84.18	17.49	-37.2	-38.1	24.0	0.00e+00	123	22	101	1048576	52	6020
2026-01-05 12:28:49.70	84.34	17.48	-36.9	-37.8	24.2	0.00e+00	123	22	101	1048576	52	5828
2026-01-05 12:28:51.00	84.64	17.47	-36.8	-37.7	24.3	0.00e+00	123	22	101	1048576	52	5785
2026-01-05 12:28:51.72	84.81	17.46	-37.0	-37.9	24.3	0.00e+00	123	22	101	1048576	52	5868
2026-01-05 12:28:53.02	85.10	17.45	-36.9	-37.8	24.2	0.00e+00	122	22	101	1048576	52	5810
2026-01-05 12:28:53.74	85.27	17.44	-36.9	-37.8	24.2	0.00e+00	123	22	101	1048576	52	5823
2026-01-05 12:28:55.04	85.57	17.43	-37.1	-38.0	24.1	0.00e+00	123	22	101	1048576	52	5984
2026-01-05 12:28:55.76	85.73	17.42	-37.5	-38.5	23.8	0.00e+00	120	22	101	1048576	52	6294
2026-01-05 12:28:57.06	86.03	17.41	-37.3	-38.2	23.9	0.00e+00	123	22	101	1048576	52	6113
2026-01-05 12:28:57.79	86.19	17.40	-37.1	-38.1	24.0	0.00e+00	122	22	101	1048576	52	6006
2026-01-05 12:28:59.09	86.49	17.38	-37.0	-38.0	24.0	0.00e+00	122	22	101	1048576	52	5938
2026-01-05 12:28:59.81	86.65	17.37	-37.0	-38.0	24.0	0.00e+00	123	22	101	1048576	52	5939
2026-01-05 12:29:01.11	86.95	17.36	-37.0	-37.9	24.1	0.00e+00	123	23	101	1048576	52	5888
2026-01-05 12:29:01.83	87.11	17.35	-36.8	-37.7	24.2	0.00e+00	122	22	101	1048576	52	5762
2026-01-05 12:29:03.13	87.41	17.33	-36.9	-37.8	24.1	0.00e+00	120	22	101	1048576	52	5814
2026-01-05 12:29:03.85	87.57	17.32	-36.9	-37.8	24.1	0.00e+00	123	22	101	1048576	52	5824
2026-01-05 12:29:05.15	87.87	17.30	-36.8	-37.7	24.2	0.00e+00	122	22	101	1048576	52	5762
2026-01-05 12:29:05.87	88.03	17.29	-36.8	-37.8	24.3	0.00e+00	123	22	101	1048576	52	5793
2026-01-05 12:29:07.17	88.32	17.27	-36.7	-37.6	24.3	0.00e+00	120	23	101	1048576	52	5675
2026-01-05 12:29:07.90	88.49	17.26	-36.7	-37.6	24.2	0.00e+00	123	22	101	1048576	52	5713
2026-01-05 12:29:09.20	88.78	17.24	-36.7	-37.6	24.3	0.00e+00	123	22	101	1048576	52	5722
2026-01-05 12:29:09.92	88.95	17.23	-36.7	-37.7	24.2	0.00e+00	122	22	101	1048576	52	5727
2026-01-05 12:29:11.22	89.24	17.20	-37.2	-38.1	23.9	0.00e+00	122	22	101	1048576	52	6017
2026-01-05 12:29:11.94	89.40	17.19	-37.2	-38.2	23.9	0.00e+00	123	22	101	1048576	52	6065
2026-01-05 12:29:13.24	89.69	17.17	-37.2	-38.1	23.9	0.00e+00	123	22	101	1048576	52	6037
2026-01-05 12:29:13.96	89.85	17.16	-37.0	-38.0	24.1	0.00e+00	122	22	101	1048576	52	5934
2026-01-05 12:29:15.26	90.15	17.13	-36.6	-37.5	24.4	0.00e+00	123	22	101	1048576	52	5620
2026-01-05 12:29:15.99	90.31	17.12	-36.6	-37.5	24.4	0.00e+00	120	22	101	1048576	52	5648
2026-01-05 12:29:17.29	90.60	17.09	-36.7	-37.6	24.3	0.00e+00	123	22	101	1048576	52	5707
2026-01-05 12:29:18.01	90.76	17.08	-36.7	-37.6	24.4	0.00e+00	120	22	101	1048576	52	5679
2026-01-05 12:29:19.31	91.05	17.05	-36.8	-37.7	24.2	0.00e+00	123	22	101	1048576	52	5790
2026-01-05 12:29:20.03	91.21	17.04	-36.7	-37.7	24.2	0.00e+00	123	22	101	1048576	52	5726
2026-01-05 12:29:21.33	91.50	17.01	-36.8	-37.8	24.2	0.00e+00	123	22	101	1048576	52	5796
2026-01-05 12:29:22.05	91.66	16.99	-36.9	-37.8	24.1	0.00e+00	122	22	101	1048576	52	5809
2026-01-05 12:29:23.35	91.95	16.96	-37.0	-37.9	24.1	0.00e+00	122	22	101	1048576	52	5923
2026-01-05 12:29:24.07	92.11	16.95	-36.7	-37.6	24.4	0.00e+00	123	22	101	1048576	52	5721
2026-01-05 12:29:25.37	92.40	16.92	-36.8	-37.7	24.2	0.00e+00	123	22	101	1048576	52	5783
2026-01-05 12:29:26.10	92.56	16.90	-36.7	-37.6	24.3	0.00e+00	123	22	101	1048576	52	5687
2026-01-05 12:29:27.40	92.85	16.87	-36.9	-37.8	24.2	0.00e+00	122	22	101	1048576	52	5857
2026-01-05 12:29:28.12	93.00	16.85	-37.0	-37.9	24.2	0.00e+00	123	22	101	1048576	52	5902
2026-01-05 12:29:29.42	93.29	16.82	-36.8	-37.7	24.2	0.00e+00	123	22	101	1048576	52	5748
2026-01-05 12:29:30.14	93.45	16.80	-36.6	-37.5	24.4	0.00e+00	120	22	101	1048576	52	5653
2026-01-05 12:29:31.44	93.73	16.77	-36.7	-37.6	24.3	0.00e+00	122	22	101	1048576	52	5710
2026-01-05 12:29:32.16	93.89	16.75	-36.7	-37.6	24.4	0.00e+00	123	22	101	1048576	52	5706
2026-01-05 12:29:33.46	94.17	16.72	-36.8	-37.7	24.2	0.00e+00	120	22	101	1048576	52	5789
2026-01-05 12:29:34.19	94.33	16.70	-37.0	-38.0	24.1	0.00e+00	122	22	101	1048576	52	5931
2026-01-05 12:29:35.49	94.62	16.67	-37.0	-37.9	24.2	0.00e+00	120	22	101	1048576	52	5896
2026-01-05 12:29:36.21	94.77	16.65	-36.8	-37.7	24.2	0.00e+00	122	22	101	1048576	52	5765
2026-01-05 12:29:37.51	95.06	16.61	-36.8	-37.7	24.3	0.00e+00	121	22	101	1048576	52	5759
2026-01-05 12:29:38.23	95.21	16.59	-36.8	-37.7	24.2	0.00e+00	123	22	101	1048576	52	5781
2026-01-05 12:29:39.53	95.49	16.56	-36.6	-37.5	24.4	0.00e+00	123	22	101	1048576	52	5655
2026-01-05 12:29:40.25	95.65	16.54	-36.6	-37.5	24.4	0.00e+00	122	22	101	1048576	52	5622
2026-01-05 12:29:41.55	95.93	16.50	-36.7	-37.6	24.2	0.00e+00	122	22	101	1048576	52	5680
2026-01-05 12:29:42.27	96.08	16.48	-36.9	-37.8	24.3	0.00e+00	123	22	101	1048576	52	5821
2026-01-05 12:29:43.57	96.36	16.44	-37.0	-38.0	24.2	0.00e+00	122	23	101	1048576	52	5933
2026-01-05 12:29:44.30	96.52	16.42	-37.2	-38.1	24.0	0.00e+00	120	22	101	1048576	52	6059
2026-01-05 12:29:45.60	96.80	16.38	-37.3	-38.2	24.2	0.00e+00	123	22	101	1048576	52	6092
2026-01-05 12:29:46.32	96.95	16.36	-37.2	-38.1	23.9	0.00e+00	123	22	101	1048576	52	6020
2026-01-05 12:29:47.62	97.23	16.32	-37.3	-38.2	23.9	0.00e+00	123	22	101	1048576	52	6088
2026-01-05 12:29:48.34	97.38	16.29	-36.9	-37.8	24.2	0.00e+00	120	22	101	1048576	52	5830
2026-01-05 12:29:49.64	97.66	16.25	-36.9	-37.8	24.1	0.00e+00	123	22	101	1048576	52	5856
2026-01-05 12:29:50.36	97.81	16.23	-36.8	-37.7	24.3	0.00e+00	123	22	101	1048576	52	5728
2026-01-05 12:29:51.66	98.08	16.19	-36.6	-37.5	24.5	0.00e+00	123	22	101	1048576	52	5633
2026-01-05 12:29:52.38	98.24	16.16	-36.7	-37.6	24.4	0.00e+00	123	22	101	1048576	52	5687
2026-01-05 12:29:53.68	98.51	16.12	-36.4	-37.3	24.5	0.00e+00	120	22	101	1048576	52	5514
2026-01-05 12:29:54.41	98.66	16.10	-36.4	-37.3	24.5	0.00e+00	122	22	101	1048576	52	5490
2026-01-05 12:29:55.71	98.93	16.05	-36.6	-37.5	24.4	0.00e+00	122	22	101	1048576	52	5623
2026-01-05 12:29:56.43	99.08	16.03	-36.6	-37.5	24.4	0.00e+00	122	22	101	1048576	52	5598
2026-01-05 12:29:57.73	99.36	15.99	-36.8	-37.7	24.3	0.00e+00	123	23	101	1048576	52	5764
2026-01-05 12:29:58.45	99.51	15.96	-36.7	-37.6	24.3	0.00e+00	122	22	101	1048576	52	5718
2026-01-05 12:29:59.75	99.78	15.92	-36.7	-37.6	24.2	0.00e+00	120	23	101	1048576	52	5711
2026-01-05 12:30:00.47	99.92	15.89	-36.8	-37.7	24.3	0.00e+00	122	22	101	1048576	52	5736
2026-01-05 12:30:01.77	100.19	15.85	-36.7	-37.6	24.4	0.00e+00	120	22	101	1048576	52	5705
2026-01-05 12:30:02.50	100.34	15.82	-36.9	-37.8	24.2	0.00e+00	123	22	101	1048576	52	5827
2026-01-05 12:30:03.80	100.61	15.77	-36.7	-37.6	24.4	0.00e+00	122	22	101	1048576	52	5708
2026-01-05 12:30:04.52	100.76	15.75	-36.6	-37.5	24.4	0.00e+00	122	22	101	1048576	52	5640
2026-01-05 12:30:05.82	101.03	15.70	-36.5	-37.4	24.5	0.00e+00	123	22	101	1048576	52	5539
2026-01-05 12:30:06.54	101.17	15.67	-36.5	-37.5	24.4	0.00e+00	122	23	101	1048576	52	5596
2026-01-05 12:30:07.84	101.44	15.62	-36.7	-37.6	24.4	0.00e+00	122	22	101	1048576	52	5698
2026-01-05 12:30:08.56	101.58	15.60	-36.7	-37.6	24.3	0.00e+00	123	22	101	1048576	52	5691
2026-01-05 12:30:09.86	101.85	15.55	-37.0	-37.9	24.1	0.00e+00	122	22	101	1048576	52	5870
2026-01-05 12:30:10.58	101.99	15.52	-36.8	-37.8	24.2	0.00e+00	122	22	101	1048576	52	5792
2026-01-05 12:30:11.89	102.26	15.47	-37.1	-38.0	24.0	0.00e+00	122	22	101	1048576	52	5988
2026-01-05 12:30:12.61	102.40	15.44	-37.1	-38.0	24.0	0.00e+00	123	22	101	1048576	52	5990
2026-01-05 12:30:13.91	102.66	15.39	-37.2	-38.1	23.9	0.00e+00	122	22	101	1048576	52	6055
2026-01-05 12:30:14.63	102.81	15.37	-37.2	-38.2	23.8	0.00e+00	123	22	101	1048576	52	6068
2026-01-05 12:30:15.93	103.07	15.31	-37.1	-38.1	23.9	0.00e+00	123	22	101	1048576	52	5997
2026-01-05 12:30:16.65	103.21	15.29	-37.3	-38.2	23.8	0.00e+00	121	22	101	1048576	52	6108
2026-01-05 12:30:17.95	103.47	15.23	-37.0	-37.9	24.1	0.00e+00	123	22	101	1048576	52	5905
2026-01-05 12:30:18.67	103.61	15.21	-36.9	-37.9	24.1	0.00e+00	123	22	101	1048576	52	5863
2026-01-05 12:30:19.97	103.87	15.15	-36.8	-37.7	24.3	0.00e+00	121	22	101	1048576	52	5745
2026-01-05 12:30:20.70	104.01	15.12	-36.9	-37.8	24.2	0.00e+00	123	22	101	1048576	52	5815
2026-01-05 12:30:22.00	104.27	15.07	-36.9	-37.8	24.1	0.00e+00	123	22	101	1048576	52	5856
2026-01-05 12:30:22.72	104.41	15.04	-37.0	-37.9	24.1	0.00e+00	122	22	101	1048576	52	5908
2026-01-05 12:30:24.02	104.66	14.99	-37.1	-38.1	24.0	0.00e+00	122	22	101	1048576	52	6013
2026-01-05 12:30:24.74	104.80	14.96	-37.2	-38.1	23.8	0.00e+00	123	22	101	1048576	52	6048
2026-01-05 12:30:26.04	105.06	14.90	-37.4	-38.4	23.8	0.00e+00	123	22	101	1048576	52	6209
2026-01-05 12:30:26.76	105.20	14.87	-37.5	-38.5	23.7	0.00e+00	122	22	101	1048576	52	6289
2026-01-05 12:30:28.06	105.45	14.82	-37.5	-38.4	23.7	0.00e+00	122	22	101	1048576	52	6245
2026-01-05 12:30:28.79	105.59	14.79	-37.4	-38.4	23.7	0.00e+00	120	22	101	1048576	52	6230
2026-01-05 12:30:30.09	105.84	14.73	-37.5	-38.4	23.6	0.00e+00	123	22	101	1048576	52	6276
2026-01-05 12:30:30.81	105.98	14.70	-37.5	-38.5	23.6	0.00e+00	123	22	101	1048576	52	6301
2026-01-05 12:30:32.11	106.23	14.64	-37.7	-38.6	23.6	0.00e+00	123	22	101	1048576	52	6418
2026-01-05 12:30:32.83	106.36	14.61	-37.7	-38.6	23.6	0.00e+00	122	22	101	1048576	52	6393
2026-01-05 12:30:34.13	106.61	14.56	-37.3	-38.3	23.8	0.00e+00	120	22	101	1048576	52	6135
2026-01-05 12:30:34.85	106.75	14.53	-37.2	-38.2	23.8	0.00e+00	123	22	101	1048576	52	6075
2026-01-05 12:30:36.15	106.99	14.47	-37.3	-38.2	23.7	0.00e+00	122	22	101	1048576	52	6112
2026-01-05 12:30:36.87	107.13	14.44	-37.2	-38.1	23.8	0.00e+00	122	22	101	1048576	52	6050
2026-01-05 12:30:38.17	107.37	14.38	-37.5	-38.4	23.7	0.00e+00	122	22	101	1048576	52	6227
2026-01-05 12:30:38.90	107.51	14.35	-37.2	-38.2	23.8	0.00e+00	120	22	101	1048576	52	6082
2026-01-05 12:30:40.20	107.75	14.29	-37.3	-38.3	23.8	0.00e+00	123	22	101	1048576	52	6142
2026-01-05 12:30:40.92	107.89	14.25	-37.5	-38.4	23.7	0.00e+00	123	22	101	1048576	52	6231
2026-01-05 12:30:42.22	108.13	14.20	-37.5	-38.4	23.5	0.00e+00	123	22	101	1048576	52	6231
2026-01-05 12:30:42.94	108.26	14.16	-37.6	-38.5	23.6	0.00e+00	122	23	101	1048576	52	6324
2026-01-05 12:30:44.24	108.50	14.10	-37.4	-38.4	23.6	0.00e+00	123	22	101	1048576	52	6249
2026-01-05 12:30:44.96	108.64	14.07	-37.5	-38.5	23.6	0.00e+00	123	22	101	1048576	52	6304
2026-01-05 12:30:46.26	108.87	14.01	-37.6	-38.5	23.5	0.00e+00	123	22	101	1048576	52	6338
2026-01-05 12:30:46.98	109.01	13.98	-37.4	-38.3	23.7	0.00e+00	120	22	101	1048576	52	6190
2026-01-05 12:30:48.28	109.24	13.92	-37.6	-38.5	23.6	0.00e+00	123	23	101	1048576	52	6334
2026-01-05 12:30:49.01	109.38	13.88	-37.4	-38.4	23.6	0.00e+00	122	22	101	1048576	52	6233
2026-01-05 12:30:50.31	109.61	13.82	-37.2	-38.1	23.8	0.00e+00	122	23	101	1048576	52	6042
2026-01-05 12:30:51.03	109.74	13.79	-37.3	-38.2	23.7	0.00e+00	123	23	101	1048576	52	6102
2026-01-05 12:30:52.33	109.98	13.73	-37.2	-38.2	23.8	0.00e+00	122	22	101	1048576	52	6078
2026-01-05 12:30:53.05	110.11	13.69	-37.2	-38.1	23.7	0.00e+00	123	23	101	1048576	52	6025
2026-01-05 12:30:54.35	110.34	13.63	-37.2	-38.2	23.8	0.00e+00	120	22	101	1048576	52	6075
2026-01-05 12:30:55.07	110.47	13.60	-37.3	-38.2	23.8	0.00e+00	123	22	101	1048576	52	6124
2026-01-05 12:30:56.37	110.70	13.54	-37.4	-38.3	23.6	0.00e+00	120	22	101	1048576	52	6197
2026-01-05 12:30:57.10	110.83	13.50	-37.4	-38.3	23.7	0.00e+00	123	22	101	1048576	52	6203
2026-01-05 12:30:58.40	111.06	13.44	-37.4	-38.3	23.7	0.00e+00	122	22	101	1048576	52	6199
2026-01-05 12:30:59.12	111.18	13.40	-37.5	-38.5	23.5	0.00e+00	123	22	101	1048576	52	6295
2026-01-05 12:31:00.42	111.41	13.34	-37.7	-38.6	23.4	0.00e+00	122	22	101	1048576	52	6383
2026-01-05 12:31:01.14	111.54	13.31	-37.8	-38.8	23.3	0.00e+00	123	22	101	1048576	52	6522
2026-01-05 12:31:02.44	111.77	13.24	-37.7	-38.7	23.3	0.00e+00	122	22	101	1048576	52	6447
2026-01-05 12:31:03.16	111.89	13.21	-37.5	-38.5	23.5	0.00e+00	123	22	101	1048576	52	6314
2026-01-05 12:31:04.47	112.12	13.14	-37.5	-38.5	23.6	0.00e+00	122	22	101	1048576	52	6280
2026-01-05 12:31:05.19	112.24	13.11	-37.6	-38.5	23.3	0.00e+00	123	22	101	1048576	52	6330
2026-01-05 12:31:06.49	112.47	13.04	-37.5	-38.4	23.5	0.00e+00	122	22	101	1048576	52	6247
2026-01-05 12:31:07.21	112.59	13.01	-37.5	-38.5	23.5	0.00e+00	120	22	101	1048576	52	6314
2026-01-05 12:31:08.51	112.81	12.94	-37.2	-38.2	23.8	0.00e+00	123	22	101	1048576	52	6077
2026-01-05 12:31:09.23	112.94	12.91	-37.2	-38.2	23.8	0.00e+00	123	22	101	1048576	52	6081
2026-01-05 12:31:10.53	113.16	12.84	-37.3	-38.2	23.7	0.00e+00	123	22	101	1048576	52	6110
2026-01-05 12:31:11.26	113.28	12.81	-37.4	-38.3	23.6	0.00e+00	122	22	101	1048576	52	6191
2026-01-05 12:31:12.56	113.50	12.74	-37.5	-38.4	23.5	0.00e+00	120	22	101	1048576	52	6274
2026-01-05 12:31:13.28	113.62	12.71	-37.4	-38.4	23.5	0.00e+00	123	22	101	1048576	52	6223
2026-01-05 12:31:14.58	113.84	12.64	-37.7	-38.7	23.4	0.00e+00	123	23	101	1048576	52	6433
2026-01-05 12:31:15.30	113.96	12.60	-37.6	-38.6	23.4	0.00e+00	123	22	101	1048576	52	6407
2026-01-05 12:31:16.60	114.18	12.54	-38.1	-39.1	23.1	0.00e+00	123	22	101	1048576	52	6788
2026-01-05 12:31:17.32	114.30	12.50	-38.2	-39.2	22.8	0.00e+00	123	22	101	1048576	52	6864
2026-01-05 12:31:18.62	114.51	12.44	-37.9	-38.9	23.4	0.00e+00	123	22	101	1048576	54	5882
2026-01-05 12:31:19.34	114.63	12.40	-37.8	-38.8	23.2	0.00e+00	122	22	101	1048576	54	5817
2026-01-05 12:31:20.64	114.85	12.33	-37.7	-38.7	23.4	0.00e+00	122	22	101	1048576	54	5746
2026-01-05 12:31:21.36	114.96	12.30	-37.4	-38.3	23.6	0.00e+00	120	22	101	1048576	54	5511
2026-01-05 12:31:22.66	115.18	12.23	-37.5	-38.4	23.5	0.00e+00	122	22	101	1048576	54	5593
2026-01-05 12:31:23.39	115.30	12.19	-37.4	-38.4	23.6	0.00e+00	123	22	101	1048576	54	5534
2026-01-05 12:31:24.69	115.51	12.13	-37.4	-38.4	23.6	0.00e+00	123	22	101	1048576	54	5567
2026-01-05 12:31:25.41	115.62	12.09	-37.3	-38.3	23.7	0.00e+00	123	22	101	1048576	54	5499
2026-01-05 12:31:26.71	115.83	12.02	-37.4	-38.4	23.6	0.00e+00	122	22	101	1048576	54	5532
2026-01-05 12:31:27.43	115.95	11.99	-37.3	-38.2	23.7	0.00e+00	123	22	101	1048576	54	5446
2026-01-05 12:31:28.73	116.16	11.92	-37.4	-38.4	23.5	0.00e+00	122	22	101	1048576	54	5539
2026-01-05 12:31:29.45	116.27	11.88	-37.5	-38.5	23.5	0.00e+00	123	22	101	1048576	54	5603
2026-01-05 12:31:30.75	116.48	11.81	-37.5	-38.5	23.5	0.00e+00	122	22	101	1048576	54	5630
2026-01-05 12:31:31.47	116.59	11.78	-37.8	-38.7	23.2	0.00e+00	120	22	101	1048576	54	5790
2026-01-05 12:31:32.77	116.80	11.71	-37.6	-38.5	23.5	0.00e+00	123	22	101	1048576	54	5656
2026-01-05 12:31:33.50	116.91	11.67	-37.6	-38.5	23.4	0.00e+00	123	22	101	1048576	54	5639
2026-01-05 12:31:34.80	117.12	11.60	-37.5	-38.5	23.4	0.00e+00	123	22	101	1048576	54	5626
2026-01-05 12:31:35.52	117.23	11.56	-37.6	-38.6	23.4	0.00e+00	122	22	101	1048576	54	5703
2026-01-05 12:31:36.82	117.43	11.50	-37.6	-38.6	23.3	0.00e+00	122	22	101	1048576	54	5687
2026-01-05 12:31:37.54	117.54	11.46	-37.6	-38.6	23.4	0.00e+00	122	22	101	1048576	54	5685
2026-01-05 12:31:38.84	117.74	11.39	-37.6	-38.6	23.4	0.00e+00	122	22	101	1048576	54	5693
2026-01-05 12:31:39.56	117.86	11.35	-37.4	-38.4	23.4	0.00e+00	123	22	101	1048576	54	5562
2026-01-05 12:31:40.86	118.06	11.28	-37.5	-38.4	23.5	0.00e+00	122	22	101	1048576	54	5585
2026-01-05 12:31:41.58	118.17	11.25	-37.5	-38.5	23.5	0.00e+00	123	22	101	1048576	54	5609
2026-01-05 12:31:42.88	118.36	11.18	-37.5	-38.4	23.5	0.00e+00	123	22	101	1048576	54	5572
2026-01-05 12:31:43.61	118.48	11.14	-37.5	-38.4	23.5	0.00e+00	123	22	101	1048576	54	5565
2026-01-05 12:31:44.91	118.67	11.07	-37.4	-38.4	23.5	0.00e+00	123	22	101	1048576	54	5547
2026-01-05 12:31:45.63	118.78	11.03	-37.4	-38.4	23.6	0.00e+00	122	22	101	1048576	54	5545
2026-01-05 12:31:46.93	118.98	10.96	-37.5	-38.5	23.5	0.00e+00	123	22	101	1048576	54	5617
2026-01-05 12:31:47.65	119.08	10.92	-37.4	-38.4	23.5	0.00e+00	123	23	101	1048576	54	5555
2026-01-05 12:31:48.95	119.28	10.86	-37.7	-38.6	23.3	0.00e+00	123	22	101	1048576	54	5714
2026-01-05 12:31:49.67	119.39	10.82	-37.7	-38.7	23.3	0.00e+00	122	22	101	1048576	54	5726
2026-01-05 12:31:50.97	119.58	10.75	-37.7	-38.7	23.3	0.00e+00	120	22	101	1048576	54	5730
2026-01-05 12:31:51.69	119.68	10.71	-37.7	-38.7	23.3	0.00e+00	122	22	101	1048576	54	5728
2026-01-05 12:31:52.99	119.88	10.64	-37.6	-38.6	23.4	0.00e+00	123	22	101	1048576	54	5692
2026-01-05 12:31:53.71	119.98	10.60	-37.7	-38.7	23.3	0.00e+00	122	22	101	1048576	54	5744
2026-01-05 12:31:55.01	120.17	10.53	-37.7	-38.7	23.3	0.00e+00	122	22	101	1048576	54	5753
2026-01-05 12:31:55.74	120.28	10.49	-37.6	-38.6	23.4	0.00e+00	120	22	101	1048576	54	5681
2026-01-05 12:31:57.04	120.47	10.42	-37.7	-38.7	23.3	0.00e+00	123	23	101	1048576	54	5755
2026-01-05 12:31:57.76	120.57	10.38	-37.7	-38.7	23.2	0.00e+00	122	22	101	1048576	54	5742
2026-01-05 12:31:59.05	120.76	10.31	-37.8	-38.8	23.3	0.00e+00	122	22	101	1048576	54	5806
2026-01-05 12:31:59.78	120.86	10.28	-37.8	-38.8	23.1	0.00e+00	123	22	101	1048576	54	5825
2026-01-05 12:32:01.08	121.05	10.21	-38.1	-39.1	22.9	0.00e+00	123	22	101	1048576	54	6007
2026-01-05 12:32:01.80	121.15	10.17	-38.1	-39.0	23.0	0.00e+00	123	22	101	1048576	54	5982
2026-01-05 12:32:03.10	121.34	10.10	-37.9	-38.9	23.1	0.00e+00	120	22	101	1048576	54	5887
2026-01-05 12:32:03.82	121.44	10.06	-38.0	-39.0	23.0	0.00e+00	123	22	101	1048576	54	5948
2026-01-05 12:32:05.12	121.62	9.99	-38.2	-39.2	22.9	0.00e+00	123	22	101	1048576	54	6073
2026-01-05 12:32:05.85	121.72	9.95	-38.2	-39.2	22.8	0.00e+00	123	22	101	1048576	54	6071
2026-01-05 12:32:07.14	121.90	9.88	-38.2	-39.2	22.7	0.00e+00	122	22	101	1048576	54	6096
2026-01-05 12:32:07.87	122.01	9.84	-38.4	-39.4	22.6	0.00e+00	120	22	101	1048576	54	6261
2026-01-05 12:32:09.17	122.19	9.77	-38.3	-39.3	22.8	0.00e+00	122	23	101	1048576	54	6151
2026-01-05 12:32:09.89	122.29	9.73	-38.2	-39.2	22.8	0.00e+00	123	22	101	1048576	54	6121
2026-01-05 12:32:11.19	122.47	9.66	-38.3	-39.3	22.7	0.00e+00	123	22	101	1048576	54	6159
2026-01-05 12:32:11.91	122.56	9.62	-38.6	-39.6	22.4	0.00e+00	123	22	101	1048576	54	6393
2026-01-05 12:32:13.21	122.74	9.55	-38.8	-39.8	22.4	0.00e+00	123	23	101	1048576	54	6544
2026-01-05 12:32:13.93	122.84	9.51	-38.6	-39.7	22.4	0.00e+00	120	22	101	1048576	54	6440
2026-01-05 12:32:15.23	123.02	9.44	-38.8	-39.8	22.3	0.00e+00	123	23	101	1048576	54	6554
2026-01-05 12:32:15.96	123.12	9.40	-38.5	-39.6	22.4	0.00e+00	122	22	101	1048576	54	6378
2026-01-05 12:32:17.25	123.29	9.33	-38.8	-39.8	22.2	0.00e+00	122	22	101	1048576	54	6556
2026-01-05 12:32:17.98	123.39	9.29	-38.8	-39.9	22.2	0.00e+00	123	22	101	1048576	54	6595
2026-01-05 12:32:19.28	123.56	9.22	-38.9	-39.9	22.1	0.00e+00	122	22	101	1048576	54	6621
2026-01-05 12:32:20.00	123.66	9.18	-39.0	-40.1	22.2	0.00e+00	122	22	101	1048576	54	6748
2026-01-05 12:32:21.30	123.83	9.11	-38.7	-39.8	22.3	0.00e+00	122	22	101	1048576	54	6500
2026-01-05 12:32:22.02	123.93	9.07	-38.8	-39.8	22.4	0.00e+00	123	22	101	1048576	54	6547
2026-01-05 12:32:23.32	124.10	9.00	-38.3	-39.3	22.7	0.00e+00	122	23	101	1048576	54	6164
2026-01-05 12:32:24.04	124.20	8.96	-38.4	-39.4	22.5	0.00e+00	123	22	101	1048576	54	6271
2026-01-05 12:32:25.34	124.37	8.89	-38.4	-39.5	22.5	0.00e+00	122	22	101	1048576	54	6284
2026-01-05 12:32:26.07	124.46	8.85	-38.4	-39.4	22.5	0.00e+00	122	23	101	1048576	54	6263
2026-01-05 12:32:27.37	124.63	8.78	-38.5	-39.5	22.3	0.00e+00	122	22	101	1048576	54	6338
2026-01-05 12:32:28.09	124.72	8.74	-38.7	-39.7	22.3	0.00e+00	122	22	101	1048576	54	6461
2026-01-05 12:32:29.39	124.89	8.67	-38.6	-39.6	22.5	0.00e+00	120	22	101	1048576	54	6404
2026-01-05 12:32:30.11	124.99	8.63	-38.5	-39.5	22.4	0.00e+00	122	23	101	1048576	54	6343
2026-01-05 12:32:31.41	125.15	8.56	-38.7	-39.8	22.2	0.00e+00	123	23	101	1048576	54	6505
2026-01-05 12:32:32.13	125.24	8.52	-38.8	-39.8	22.1	0.00e+00	120	23	101	1048576	54	6571
2026-01-05 12:32:33.43	125.41	8.45	-38.7	-39.7	22.2	0.00e+00	122	23	101	1048576	54	6497
2026-01-05 12:32:34.15	125.50	8.41	-38.7	-39.8	22.3	0.00e+00	123	23	101	1048576	54	6503
2026-01-05 12:32:35.45	125.67	8.34	-38.8	-39.8	22.1	0.00e+00	123	23	101	1048576	54	6569
2026-01-05 12:32:36.18	125.76	8.30	-38.7	-39.7	22.2	0.00e+00	123	23	101	1048576	54	6496
2026-01-05 12:32:37.48	125.92	8.23	-39.1	-40.2	21.9	0.00e+00	120	23	101	1048576	56	6090
2026-01-05 12:32:38.20	126.01	8.19	-38.9	-40.0	22.1	0.00e+00	122	23	101	1048576	56	5962
2026-01-05 12:32:39.50	126.17	8.12	-38.9	-39.9	22.2	0.00e+00	122	23	101	1048576	56	5907
2026-01-05 12:32:40.22	126.26	8.08	-39.0	-40.1	22.1	0.00e+00	120	23	101	1048576	56	6007
2026-01-05 12:32:41.52	126.42	8.01	-38.8	-39.8	22.2	0.00e+00	123	23	101	1048576	56	5847
2026-01-05 12:32:42.24	126.51	7.97	-39.0	-40.0	22.1	0.00e+00	123	22	101	1048576	56	5962
2026-01-05 12:32:43.54	126.67	7.90	-38.7	-39.7	22.3	0.00e+00	120	23	101	1048576	56	5746
2026-01-05 12:32:44.26	126.76	7.86	-38.8	-39.8	22.2	0.00e+00	122	23	101	1048576	56	5848
2026-01-05 12:32:45.56	126.92	7.79	-38.8	-39.9	22.2	0.00e+00	122	23	101	1048576	56	5860
2026-01-05 12:32:46.29	127.01	7.75	-38.8	-39.8	22.2	0.00e+00	122	22	101	1048576	56	5823
2026-01-05 12:32:47.59	127.17	7.68	-38.8	-39.9	22.1	0.00e+00	123	23	101	1048576	56	5862
2026-01-05 12:32:48.31	127.25	7.64	-39.1	-40.1	22.0	0.00e+00	120	23	101	1048576	56	6054
2026-01-05 12:32:49.61	127.41	7.57	-39.0	-40.0	22.0	0.00e+00	123	23	101	1048576	56	5965
2026-01-05 12:32:50.33	127.50	7.53	-39.3	-40.3	21.8	0.00e+00	123	23	101	1048576	56	6190
2026-01-05 12:32:51.63	127.65	7.46	-38.9	-40.0	22.0	0.00e+00	120	23	101	1048576	56	5943
2026-01-05 12:32:52.35	127.74	7.42	-38.9	-39.9	22.0	0.00e+00	122	22	101	1048576	56	5917
2026-01-05 12:32:53.65	127.89	7.35	-39.2	-40.3	21.7	0.00e+00	122	22	101	1048576	56	6176
2026-01-05 12:32:54.37	127.98	7.31	-39.1	-40.2	21.9	0.00e+00	120	23	101	1048576	56	6111
2026-01-05 12:32:55.67	128.13	7.24	-39.0	-40.0	21.9	0.00e+00	122	22	101	1048576	56	5964
2026-01-05 12:32:56.40	128.21	7.20	-39.1	-40.2	21.8	0.00e+00	123	23	101	1048576	56	6087
2026-01-05 12:32:57.70	128.37	7.13	-39.3	-40.4	21.6	0.00e+00	123	23	101	1048576	56	6256
2026-01-05 12:32:58.42	128.45	7.09	-39.3	-40.4	21.7	0.00e+00	122	23	101	1048576	56	6239
2026-01-05 12:32:59.72	128.60	7.02	-39.3	-40.3	21.8	0.00e+00	123	22	101	1048576	56	6200
2026-01-05 12:33:00.44	128.68	6.98	-39.3	-40.3	21.8	0.00e+00	123	23	101	1048576	56	6185
2026-01-05 12:33:01.74	128.83	6.91	-39.0	-40.1	22.0	0.00e+00	123	23	101	1048576	56	6036
2026-01-05 12:33:02.46	128.92	6.87	-39.1	-40.1	21.9	0.00e+00	120	22	101	1048576	56	6046
2026-01-05 12:33:03.76	129.07	6.80	-39.3	-40.4	21.8	0.00e+00	122	23	101	1048576	56	6227
2026-01-05 12:33:04.49	129.15	6.76	-39.0	-40.1	22.0	0.00e+00	122	23	101	1048576	56	6022
2026-01-05 12:33:05.79	129.30	6.69	-39.2	-40.3	21.7	0.00e+00	120	22	101	1048576	56	6188
2026-01-05 12:33:06.51	129.38	6.65	-39.3	-40.4	21.6	0.00e+00	122	23	101	1048576	56	6230
2026-01-05 12:33:07.81	129.52	6.58	-39.4	-40.5	21.6	0.00e+00	123	23	101	1048576	56	6280
2026-01-05 12:33:08.53	129.61	6.54	-39.4	-40.5	21.6	0.00e+00	122	23	101	1048576	56	6303
2026-01-05 12:33:09.83	129.75	6.47	-39.7	-40.9	21.3	0.00e+00	122	23	101	1048576	56	6582
2026-01-05 12:33:10.55	129.83	6.44	-39.6	-40.7	21.4	0.00e+00	122	23	101	1048576	56	6475
2026-01-05 12:33:11.85	129.98	6.37	-39.6	-40.7	21.3	0.00e+00	122	23	101	1048576	56	6470
2026-01-05 12:33:12.58	130.06	6.33	-39.5	-40.6	21.4	0.00e+00	122	23	101	1048576	56	6404
2026-01-05 12:33:13.88	130.20	6.26	-40.1	-41.3	20.9	0.00e+00	120	23	101	1048576	56	6893
