passes_logs/2026/01/05/R4.6S_Anadyr_2ch/R4.6S_Anadyr_2ch__20260105_125119_SUOMI_NPP_rec.log

#Pass ID: 20260105_125119_SUOMI NPP
#Satellite: SUOMI NPP
#Configuration: NPP
#almurnet v.1.7.20251203
#Start time: 2026-01-05 12:51:21

#Version: 2.2.20231116
#Station: R4.6S_Anadyr_2ch
#Location: 177.4865 lon 64.73178 lat
#TLE: 1 37849U 11061A   25350.92281687  .00000071  00000+0  54882-4 0  9996
#TLE: 2 37849  98.7777 288.2268 0002366 112.8570 247.2856 14.19515404732588

#Time	Az	El	Level	Level2	SNR	BER	BlckErr	Temp	State	Recorded	gain1	gain2
2026-01-05 12:51:21.70	18.90	0.10	-51.0	-63.7	3.4	1.52e+00	0	20	0	0	60	72161
2026-01-05 12:51:22.71	18.96	0.15	-51.5	-66.8	3.6	1.51e+00	0	21	104	0	60	107107
2026-01-05 12:51:23.72	19.02	0.21	-51.2	-66.6	3.6	1.51e+00	0	22	104	0	60	103670
2026-01-05 12:51:24.73	19.09	0.26	-51.2	-66.5	3.6	1.51e+00	0	21	104	0	60	103114
2026-01-05 12:51:25.74	19.15	0.31	-51.1	-66.4	3.6	1.51e+00	0	22	104	0	60	102440
2026-01-05 12:51:26.75	19.21	0.36	-51.0	-66.4	3.6	1.51e+00	0	22	104	0	60	101376
2026-01-05 12:51:27.76	19.28	0.42	-50.9	-66.4	3.6	1.51e+00	0	22	104	0	60	101363
2026-01-05 12:51:28.77	19.34	0.47	-50.9	-66.3	3.6	1.51e+00	0	22	104	0	60	100363
2026-01-05 12:51:29.78	19.41	0.52	-50.8	-66.2	3.5	1.51e+00	0	22	104	0	60	99489
2026-01-05 12:51:30.79	19.47	0.58	-50.7	-66.1	3.6	1.51e+00	0	22	104	0	60	98405
2026-01-05 12:51:31.80	19.53	0.63	-50.6	-66.0	3.6	1.51e+00	0	22	104	0	60	97032
2026-01-05 12:51:32.81	19.60	0.68	-50.5	-65.8	3.6	1.51e+00	0	22	104	0	60	95577
2026-01-05 12:51:33.83	19.67	0.74	-50.3	-65.7	3.6	1.51e+00	0	22	104	0	60	94083
2026-01-05 12:51:34.84	19.73	0.79	-50.1	-65.4	3.6	1.51e+00	0	22	104	0	60	90670
2026-01-05 12:51:35.85	19.80	0.85	-49.7	-65.0	3.6	1.51e+00	0	22	104	0	60	86256
2026-01-05 12:51:36.86	19.86	0.90	-49.5	-64.7	3.6	1.51e+00	0	22	104	0	60	83664
2026-01-05 12:51:37.87	19.93	0.95	-49.4	-64.7	3.6	1.51e+00	0	22	104	0	60	83558
2026-01-05 12:51:38.88	19.99	1.01	-49.5	-64.7	3.6	1.51e+00	0	22	104	0	60	83486
2026-01-05 12:51:39.89	20.06	1.06	-49.4	-64.7	3.6	1.51e+00	0	22	104	0	60	84052
2026-01-05 12:51:40.90	20.13	1.12	-49.4	-64.8	3.6	1.51e+00	0	22	104	0	60	84265
2026-01-05 12:51:41.91	20.19	1.17	-49.5	-64.8	3.6	1.51e+00	0	22	104	0	60	84564
2026-01-05 12:51:42.92	20.26	1.22	-49.4	-64.8	3.6	1.51e+00	0	22	104	0	60	84849
2026-01-05 12:51:43.94	20.33	1.28	-49.5	-64.8	3.6	1.51e+00	0	22	104	0	60	84493
2026-01-05 12:51:44.95	20.40	1.33	-49.5	-64.8	3.6	1.51e+00	0	22	104	0	60	84941
2026-01-05 12:51:45.96	20.46	1.39	-49.4	-64.8	3.6	1.51e+00	0	22	104	0	60	84981
2026-01-05 12:51:46.97	20.53	1.44	-49.4	-64.8	3.5	1.51e+00	0	22	104	0	60	85203
2026-01-05 12:51:47.98	20.60	1.50	-49.4	-64.8	3.6	1.51e+00	0	22	104	0	60	84687
2026-01-05 12:51:48.99	20.67	1.55	-49.4	-64.8	3.6	1.51e+00	0	22	104	0	60	84310
2026-01-05 12:51:50.00	20.74	1.61	-49.4	-64.6	3.5	1.51e+00	0	22	104	0	60	83160
2026-01-05 12:51:51.01	20.81	1.66	-49.4	-64.6	3.6	1.51e+00	0	22	104	0	60	83186
2026-01-05 12:51:52.02	20.88	1.72	-49.4	-64.7	3.6	1.51e+00	0	22	104	0	60	83660
2026-01-05 12:51:53.03	20.95	1.77	-49.4	-64.7	3.6	1.51e+00	0	22	104	0	60	83764
2026-01-05 12:51:54.05	21.02	1.83	-49.4	-64.7	3.6	1.51e+00	0	22	104	0	60	84044
2026-01-05 12:51:55.06	21.09	1.88	-49.4	-64.8	3.6	1.51e+00	0	22	104	0	60	84569
2026-01-05 12:51:56.07	21.16	1.94	-49.4	-64.7	3.6	1.51e+00	0	22	104	0	60	83543
2026-01-05 12:51:57.08	21.23	1.99	-49.4	-64.8	3.6	1.51e+00	0	22	104	0	60	84370
2026-01-05 12:51:58.09	21.30	2.05	-49.4	-64.7	3.6	1.51e+00	0	22	104	0	60	83716
2026-01-05 12:51:59.10	21.37	2.10	-49.4	-64.4	3.6	1.51e+00	0	22	104	0	60	81328
2026-01-05 12:52:00.11	21.44	2.16	-49.4	-64.0	3.6	1.51e+00	0	22	104	0	60	77285
2026-01-05 12:52:01.12	21.51	2.21	-49.4	-63.5	3.6	1.51e+00	0	22	104	0	60	73201
2026-01-05 12:52:02.13	21.58	2.27	-49.4	-63.6	3.6	1.51e+00	0	22	104	0	60	73918
2026-01-05 12:52:03.15	21.65	2.33	-49.4	-64.0	3.5	1.51e+00	0	22	104	0	60	77488
2026-01-05 12:52:04.16	21.73	2.38	-49.4	-64.1	3.6	1.51e+00	0	22	104	0	60	78218
2026-01-05 12:52:05.17	21.80	2.44	-49.1	-59.0	5.3	1.05e+00	0	22	104	0	60	43399
2026-01-05 12:52:06.18	21.87	2.49	-48.4	-54.5	8.9	1.12e-01	0	22	0	0	60	25863
2026-01-05 12:52:07.19	21.94	2.55	-47.5	-51.9	12.1	8.00e-03	0	22	102	1048576	60	19084
2026-01-05 12:52:08.20	22.02	2.60	-45.7	-48.5	15.2	2.05e-05	0	22	102	1048576	60	12944
2026-01-05 12:52:09.21	22.09	2.66	-44.2	-46.2	17.6	0.00e+00	61	22	102	1048576	60	9909
2026-01-05 12:52:10.23	22.17	2.72	-43.8	-45.6	18.1	0.00e+00	0	22	102	1048576	60	9331
2026-01-05 12:52:11.24	22.24	2.77	-42.6	-44.1	19.5	0.00e+00	62	22	102	1048576	60	7788
2026-01-05 12:52:12.25	22.31	2.83	-42.5	-44.0	19.6	0.00e+00	0	22	102	1048576	60	7736
2026-01-05 12:52:13.26	22.39	2.89	-42.5	-44.0	19.6	0.00e+00	0	22	102	1048576	60	7752
2026-01-05 12:52:14.27	22.46	2.94	-43.6	-45.3	18.3	0.00e+00	0	22	102	1048576	60	8988
2026-01-05 12:52:15.28	22.54	3.00	-45.1	-47.5	16.3	0.00e+00	0	22	102	1048576	60	11598
2026-01-05 12:52:16.29	22.61	3.06	-46.5	-49.8	13.4	7.00e-07	19	22	102	1048576	60	15100
2026-01-05 12:52:17.30	22.69	3.11	-47.9	-52.9	10.2	1.56e-04	0	22	102	1048576	60	21615
2026-01-05 12:52:18.31	22.76	3.17	-42.2	-43.6	19.9	0.00e+00	92	22	102	1048576	60	7420
2026-01-05 12:52:19.32	22.84	3.23	-49.2	-63.2	3.6	9.84e-01	0	22	104	1048576	60	70455
2026-01-05 12:52:20.34	22.92	3.29	-49.0	-57.0	6.9	1.47e+00	0	22	104	1048576	60	34488
2026-01-05 12:52:21.35	22.99	3.34	-45.8	-48.4	15.7	5.51e-03	0	22	0	1048576	60	12882
2026-01-05 12:52:22.36	23.07	3.40	-49.5	-62.7	3.6	1.24e+00	0	22	104	1048576	60	66898
2026-01-05 12:52:23.37	23.15	3.46	-46.4	-49.4	14.7	2.97e-01	57	23	0	1048576	60	14333
2026-01-05 12:52:24.38	23.23	3.51	-46.0	-48.7	14.9	0.00e+00	0	22	0	1048576	60	13303
2026-01-05 12:52:25.39	23.30	3.57	-46.2	-49.1	15.2	0.00e+00	91	22	0	1048576	60	13870
2026-01-05 12:52:26.40	23.38	3.63	-45.7	-48.3	15.4	0.00e+00	33	22	0	1048576	60	12640
2026-01-05 12:52:27.41	23.46	3.69	-46.2	-49.0	14.9	0.00e+00	9	22	0	1048576	60	13787
2026-01-05 12:52:28.42	23.54	3.74	-45.7	-48.2	16.1	0.00e+00	0	23	0	1048576	60	12549
2026-01-05 12:52:29.43	23.62	3.80	-45.3	-47.6	15.7	0.00e+00	0	22	0	1048576	60	11705
2026-01-05 12:52:30.44	23.70	3.86	-45.9	-48.5	16.0	0.00e+00	25	22	0	1048576	60	13008
2026-01-05 12:52:31.46	23.78	3.92	-45.4	-47.8	15.8	0.00e+00	0	22	0	1048576	60	11950
2026-01-05 12:52:32.47	23.86	3.98	-45.9	-48.6	15.6	0.00e+00	92	22	0	1048576	60	13050
2026-01-05 12:52:33.48	23.94	4.03	-45.8	-48.4	15.8	0.00e+00	0	22	0	1048576	60	12794
2026-01-05 12:52:34.49	24.02	4.09	-45.7	-48.2	15.5	0.00e+00	90	22	0	1048576	60	12584
2026-01-05 12:52:35.50	24.10	4.15	-45.6	-48.1	15.8	0.00e+00	0	22	0	1048576	60	12390
2026-01-05 12:52:36.51	24.18	4.21	-45.6	-48.1	15.9	0.00e+00	0	22	0	1048576	60	12401
2026-01-05 12:52:37.52	24.26	4.27	-45.7	-48.3	15.8	0.00e+00	9	22	0	1048576	60	12646
2026-01-05 12:52:38.53	24.34	4.33	-45.3	-47.6	16.6	0.00e+00	0	22	0	1048576	60	11763
2026-01-05 12:52:39.54	24.42	4.38	-45.3	-47.6	16.6	0.00e+00	60	22	0	1048576	60	11666
2026-01-05 12:52:40.56	24.51	4.44	-45.0	-47.1	16.8	0.00e+00	0	22	0	1048576	60	11066
2026-01-05 12:52:41.57	24.59	4.50	-45.5	-47.9	16.3	0.00e+00	41	22	101	1048576	60	12154
2026-01-05 12:52:42.58	24.67	4.56	-44.9	-47.0	17.2	0.00e+00	0	23	101	1048576	60	10921
2026-01-05 12:52:43.59	24.75	4.62	-44.5	-46.4	17.4	0.00e+00	0	22	101	1048576	60	10179
2026-01-05 12:52:44.60	24.84	4.68	-44.7	-46.7	17.4	0.00e+00	0	22	101	1048576	60	10522
2026-01-05 12:52:45.61	24.92	4.74	-44.5	-46.4	17.7	0.00e+00	0	23	101	1048576	60	10223
2026-01-05 12:52:46.62	25.01	4.80	-44.2	-46.1	17.4	0.00e+00	62	23	101	1048576	60	9810
2026-01-05 12:52:47.63	25.09	4.86	-44.7	-46.6	17.7	0.00e+00	0	22	101	1048576	60	10475
2026-01-05 12:52:48.64	25.18	4.92	-44.6	-46.5	17.5	0.00e+00	63	22	101	1048576	60	10333
2026-01-05 12:52:49.66	25.26	4.98	-44.5	-46.5	17.6	0.00e+00	0	23	101	1048576	60	10271
2026-01-05 12:52:50.67	25.35	5.04	-44.2	-46.0	17.9	0.00e+00	0	23	101	1048576	60	9754
2026-01-05 12:52:51.68	25.43	5.09	-45.0	-47.2	17.0	0.00e+00	0	23	101	1048576	60	11132
2026-01-05 12:52:52.69	25.52	5.15	-45.0	-47.1	17.2	0.00e+00	0	23	101	1048576	60	11090
2026-01-05 12:52:53.70	25.60	5.21	-44.6	-46.6	17.5	0.00e+00	47	23	101	1048576	60	10438
2026-01-05 12:52:54.71	25.69	5.27	-44.8	-46.9	17.5	0.00e+00	0	23	101	1048576	60	10736
2026-01-05 12:52:55.72	25.78	5.33	-44.5	-46.5	17.8	0.00e+00	52	23	101	1048576	60	10248
2026-01-05 12:52:56.73	25.87	5.39	-44.8	-46.8	17.7	0.00e+00	0	22	101	1048576	60	10637
2026-01-05 12:52:57.75	25.95	5.45	-44.1	-45.9	18.3	0.00e+00	0	22	101	1048576	60	9620
2026-01-05 12:52:58.76	26.04	5.51	-43.5	-45.1	19.1	0.00e+00	0	23	101	1048576	60	8741
2026-01-05 12:52:59.77	26.13	5.57	-44.0	-45.7	18.5	0.00e+00	0	23	101	1048576	60	9390
2026-01-05 12:53:00.78	26.22	5.64	-43.1	-44.6	19.5	0.00e+00	25	23	101	1048576	60	8325
2026-01-05 12:53:01.79	26.31	5.70	-43.3	-44.8	19.4	0.00e+00	0	22	101	1048576	60	8520
2026-01-05 12:53:02.80	26.40	5.76	-43.0	-44.4	19.9	0.00e+00	92	22	101	1048576	60	8110
2026-01-05 12:53:03.81	26.49	5.82	-42.2	-43.5	20.5	0.00e+00	0	23	101	1048576	60	7300
2026-01-05 12:53:04.82	26.58	5.88	-42.3	-43.6	20.5	0.00e+00	0	23	101	1048576	60	7393
2026-01-05 12:53:05.83	26.67	5.94	-42.3	-43.6	20.5	0.00e+00	0	23	101	1048576	60	7384
2026-01-05 12:53:06.85	26.76	6.00	-41.9	-43.1	21.0	0.00e+00	0	22	101	1048576	60	6963
2026-01-05 12:53:07.86	26.85	6.06	-41.9	-43.1	20.9	0.00e+00	15	23	101	1048576	60	6967
2026-01-05 12:53:08.87	26.94	6.12	-42.1	-43.4	20.6	0.00e+00	0	23	101	1048576	60	7223
2026-01-05 12:53:09.88	27.04	6.18	-41.9	-43.1	21.0	0.00e+00	90	22	101	1048576	60	6988
2026-01-05 12:53:10.89	27.13	6.24	-41.9	-43.2	20.9	0.00e+00	0	23	101	1048576	60	7047
2026-01-05 12:53:11.90	27.22	6.30	-42.0	-43.2	20.8	0.00e+00	0	23	101	1048576	60	7063
2026-01-05 12:53:12.91	27.31	6.37	-42.2	-43.5	20.6	0.00e+00	0	23	101	1048576	60	7276
2026-01-05 12:53:13.92	27.41	6.43	-42.3	-43.6	20.5	0.00e+00	0	23	101	1048576	60	7380
2026-01-05 12:53:14.93	27.50	6.49	-42.2	-43.4	20.6	0.00e+00	63	23	101	1048576	60	7241
2026-01-05 12:53:15.95	27.60	6.55	-42.0	-43.3	21.0	0.00e+00	0	23	101	1048576	60	7121
2026-01-05 12:53:16.96	27.69	6.61	-41.7	-43.0	21.1	0.00e+00	63	23	101	1048576	60	6853
2026-01-05 12:53:17.97	27.79	6.67	-42.0	-43.2	20.8	0.00e+00	0	23	101	1048576	60	7079
2026-01-05 12:53:18.98	27.88	6.74	-42.1	-43.3	20.8	0.00e+00	37	23	101	1048576	60	7154
2026-01-05 12:53:19.99	27.98	6.80	-42.5	-43.8	20.4	0.00e+00	0	23	101	1048576	60	7594
2026-01-05 12:53:21.00	28.07	6.86	-42.2	-43.5	20.7	0.00e+00	0	23	101	1048576	60	7300
2026-01-05 12:53:22.01	28.17	6.92	-42.1	-43.4	20.8	0.00e+00	0	23	101	1048576	60	7212
2026-01-05 12:53:23.02	28.27	6.98	-42.0	-43.2	20.7	0.00e+00	0	23	101	1048576	60	7068
2026-01-05 12:53:24.03	28.36	7.05	-42.2	-43.5	20.5	0.00e+00	54	23	101	1048576	60	7273
2026-01-05 12:53:25.04	28.46	7.11	-42.4	-43.7	20.7	0.00e+00	0	23	101	1048576	60	7492
2026-01-05 12:53:26.06	28.56	7.17	-42.4	-43.7	20.5	0.00e+00	76	23	101	1048576	60	7467
2026-01-05 12:53:27.07	28.66	7.23	-42.4	-43.7	20.5	0.00e+00	0	23	101	1048576	60	7458
2026-01-05 12:53:28.08	28.76	7.30	-42.5	-43.8	20.3	0.00e+00	0	22	101	1048576	60	7544
2026-01-05 12:53:29.09	28.86	7.36	-42.6	-43.9	20.4	0.00e+00	0	23	101	1048576	60	7678
2026-01-05 12:53:30.10	28.96	7.42	-42.5	-43.9	20.3	0.00e+00	0	23	101	1048576	60	7612
2026-01-05 12:53:31.11	29.06	7.49	-42.6	-43.9	20.3	0.00e+00	61	23	101	1048576	60	7641
2026-01-05 12:53:32.12	29.16	7.55	-42.8	-44.2	20.0	0.00e+00	0	23	101	1048576	60	7932
2026-01-05 12:53:33.13	29.26	7.61	-42.8	-44.2	20.0	0.00e+00	74	23	101	1048576	60	7916
2026-01-05 12:53:34.15	29.36	7.68	-42.8	-44.2	20.1	0.00e+00	0	23	101	1048576	60	7948
2026-01-05 12:53:35.16	29.46	7.74	-42.8	-44.2	20.2	0.00e+00	0	23	101	1048576	60	7871
2026-01-05 12:53:36.17	29.56	7.80	-42.9	-44.3	20.0	0.00e+00	0	23	101	1048576	60	8006
2026-01-05 12:53:37.18	29.67	7.87	-42.7	-44.0	20.2	0.00e+00	0	23	101	1048576	60	7767
2026-01-05 12:53:38.19	29.77	7.93	-42.7	-44.1	20.4	0.00e+00	65	23	101	1048576	60	7808
2026-01-05 12:53:39.20	29.87	7.99	-42.5	-43.8	20.4	0.00e+00	0	23	101	1048576	60	7575
2026-01-05 12:53:40.21	29.98	8.06	-42.8	-44.2	20.1	0.00e+00	90	23	101	1048576	60	7935
2026-01-05 12:53:41.22	30.08	8.12	-42.5	-43.8	20.4	0.00e+00	0	23	101	1048576	60	7568
2026-01-05 12:53:42.23	30.19	8.18	-42.4	-43.7	20.6	0.00e+00	0	23	101	1048576	60	7423
2026-01-05 12:53:43.24	30.29	8.25	-42.5	-43.8	20.6	0.00e+00	0	23	101	1048576	60	7538
2026-01-05 12:53:44.26	30.40	8.31	-42.2	-43.4	20.8	0.00e+00	0	23	101	1048576	60	7242
2026-01-05 12:53:45.27	30.50	8.38	-42.2	-43.5	20.8	0.00e+00	29	23	101	1048576	60	7295
2026-01-05 12:53:46.28	30.61	8.44	-41.9	-43.2	21.1	0.00e+00	0	23	101	1048576	60	7022
2026-01-05 12:53:47.29	30.72	8.50	-42.0	-43.2	21.0	0.00e+00	75	23	101	1048576	60	7077
2026-01-05 12:53:48.30	30.83	8.57	-41.8	-43.0	21.2	0.00e+00	0	23	101	1048576	60	6911
2026-01-05 12:53:49.31	30.93	8.63	-42.0	-43.2	21.1	0.00e+00	0	23	101	1048576	60	7057
2026-01-05 12:53:50.32	31.04	8.70	-42.1	-43.3	21.0	0.00e+00	0	23	101	1048576	60	7136
2026-01-05 12:53:51.33	31.15	8.76	-42.1	-43.4	20.9	0.00e+00	0	23	101	1048576	60	7183
2026-01-05 12:53:52.35	31.26	8.83	-41.9	-43.1	21.2	0.00e+00	52	23	101	1048576	60	6992
2026-01-05 12:53:53.36	31.37	8.89	-41.8	-43.0	21.2	0.00e+00	0	23	101	1048576	60	6903
2026-01-05 12:53:54.37	31.48	8.96	-41.8	-43.0	21.2	0.00e+00	92	23	101	1048576	60	6893
2026-01-05 12:53:55.38	31.59	9.02	-41.6	-42.8	21.4	0.00e+00	0	23	101	1048576	60	6715
2026-01-05 12:53:56.39	31.70	9.09	-41.6	-42.7	21.6	0.00e+00	33	23	101	1048576	60	6680
2026-01-05 12:53:57.40	31.81	9.15	-41.4	-42.6	21.6	0.00e+00	33	23	101	1048576	60	6559
2026-01-05 12:53:58.41	31.93	9.22	-41.4	-42.5	21.7	0.00e+00	0	23	101	1048576	60	6494
2026-01-05 12:53:59.42	32.04	9.28	-41.5	-42.6	21.7	0.00e+00	62	23	101	1048576	60	6584
2026-01-05 12:54:00.43	32.15	9.35	-41.0	-42.1	22.0	0.00e+00	33	23	101	1048576	60	6194
2026-01-05 12:54:01.44	32.27	9.41	-41.1	-42.2	21.9	0.00e+00	59	23	101	1048576	60	6301
2026-01-05 12:54:02.26	32.36	9.47	-41.1	-42.2	22.0	0.00e+00	0	23	101	1048576	60	6302
2026-01-05 12:54:03.41	32.49	9.54	-41.2	-42.3	21.9	0.00e+00	0	23	101	1048576	60	6328
2026-01-05 12:54:04.28	32.59	9.60	-41.1	-42.2	21.9	0.00e+00	0	23	101	1048576	60	6252
2026-01-05 12:54:05.44	32.72	9.67	-40.9	-42.0	22.1	0.00e+00	0	23	101	1048576	60	6136
2026-01-05 12:54:06.30	32.82	9.73	-40.8	-41.9	22.1	0.00e+00	0	23	101	1048576	60	6056
2026-01-05 12:54:07.46	32.95	9.80	-41.0	-42.1	21.7	0.00e+00	0	23	101	1048576	60	6177
2026-01-05 12:54:08.32	33.05	9.86	-41.0	-42.0	21.8	0.00e+00	92	23	101	1048576	60	6167
2026-01-05 12:54:09.48	33.19	9.93	-40.8	-41.9	22.0	0.00e+00	0	23	101	1048576	60	6049
2026-01-05 12:54:10.35	33.29	9.99	-41.0	-42.0	22.1	0.00e+00	86	23	101	1048576	60	6159
2026-01-05 12:54:11.50	33.42	10.07	-40.8	-41.9	22.2	0.00e+00	0	23	101	1048576	60	6062
2026-01-05 12:54:12.37	33.53	10.12	-40.7	-41.8	22.4	0.00e+00	0	23	101	1048576	60	5980
2026-01-05 12:54:13.53	33.66	10.20	-40.8	-41.8	22.3	0.00e+00	59	23	101	1048576	60	6011
2026-01-05 12:54:14.39	33.76	10.26	-40.8	-41.9	22.3	0.00e+00	0	23	101	1048576	60	6041
2026-01-05 12:54:15.55	33.90	10.33	-40.9	-41.9	22.1	0.00e+00	73	23	101	1048576	60	6099
2026-01-05 12:54:16.42	34.01	10.39	-40.9	-42.0	22.3	0.00e+00	0	23	101	1048576	60	6116
2026-01-05 12:54:17.57	34.15	10.47	-41.1	-42.2	22.1	0.00e+00	0	23	101	1048576	60	6271
2026-01-05 12:54:18.44	34.25	10.52	-41.1	-42.2	22.1	0.00e+00	0	23	101	1048576	60	6256
2026-01-05 12:54:19.60	34.39	10.60	-41.0	-42.0	22.1	0.00e+00	0	23	101	1048576	60	6169
2026-01-05 12:54:20.46	34.50	10.66	-41.0	-42.0	22.2	0.00e+00	0	23	101	1048576	60	6159
2026-01-05 12:54:21.62	34.64	10.73	-41.0	-42.0	22.3	0.00e+00	0	23	101	1048576	60	6165
2026-01-05 12:54:22.48	34.74	10.79	-41.2	-42.3	21.7	0.00e+00	53	23	101	1048576	60	6328
2026-01-05 12:54:23.64	34.89	10.87	-41.1	-42.2	22.1	0.00e+00	0	23	101	1048576	60	6265
2026-01-05 12:54:24.50	34.99	10.92	-41.0	-42.1	22.2	0.00e+00	81	23	101	1048576	60	6187
2026-01-05 12:54:25.66	35.14	11.00	-40.8	-41.9	22.3	0.00e+00	0	23	101	1048576	60	6073
2026-01-05 12:54:26.52	35.25	11.06	-40.8	-41.9	22.4	0.00e+00	0	23	101	1048576	60	6049
2026-01-05 12:54:27.68	35.39	11.13	-40.7	-41.7	22.4	0.00e+00	0	23	101	1048576	60	5946
2026-01-05 12:54:28.55	35.50	11.19	-40.7	-41.7	22.6	0.00e+00	0	23	101	1048576	60	5937
2026-01-05 12:54:29.70	35.65	11.27	-40.8	-41.9	22.4	0.00e+00	63	23	101	1048576	60	6040
2026-01-05 12:54:30.57	35.76	11.33	-40.8	-41.9	22.5	0.00e+00	0	23	101	1048576	60	6040
2026-01-05 12:54:31.73	35.91	11.40	-40.7	-41.7	22.4	0.00e+00	86	23	101	1048576	60	5950
2026-01-05 12:54:32.59	36.02	11.46	-40.8	-41.8	22.4	0.00e+00	0	23	101	1048576	60	6009
2026-01-05 12:54:33.75	36.17	11.54	-40.8	-41.9	22.4	0.00e+00	0	23	101	1048576	60	6054
2026-01-05 12:54:34.62	36.28	11.60	-40.9	-41.9	22.3	0.00e+00	0	23	101	1048576	60	6080
2026-01-05 12:54:35.77	36.43	11.67	-40.8	-41.8	22.4	0.00e+00	0	23	101	1048576	60	6022
2026-01-05 12:54:36.64	36.55	11.73	-40.9	-42.0	22.3	0.00e+00	61	23	101	1048576	60	6125
2026-01-05 12:54:37.79	36.70	11.81	-40.7	-41.7	22.5	0.00e+00	0	23	101	1048576	60	5900
2026-01-05 12:54:38.66	36.81	11.87	-40.8	-41.8	22.3	0.00e+00	58	23	101	1048576	60	6005
2026-01-05 12:54:39.81	36.96	11.95	-40.5	-41.6	22.6	0.00e+00	0	23	101	1048576	60	5837
2026-01-05 12:54:40.68	37.08	12.00	-40.4	-41.5	22.7	0.00e+00	0	23	101	1048576	60	5762
2026-01-05 12:54:41.84	37.24	12.08	-40.4	-41.4	22.8	0.00e+00	0	23	101	1048576	60	5759
2026-01-05 12:54:42.70	37.35	12.14	-40.2	-41.2	23.0	0.00e+00	0	23	101	1048576	60	5589
2026-01-05 12:54:43.86	37.51	12.22	-40.3	-41.2	22.9	0.00e+00	63	23	101	1048576	58	6310
2026-01-05 12:54:44.73	37.63	12.28	-40.2	-41.1	23.0	0.00e+00	0	23	101	1048576	58	6235
2026-01-05 12:54:45.88	37.78	12.35	-40.0	-40.9	23.1	0.00e+00	91	23	101	1048576	58	6096
2026-01-05 12:54:46.75	37.90	12.41	-39.9	-40.8	23.3	0.00e+00	0	23	101	1048576	58	6002
2026-01-05 12:54:47.91	38.06	12.49	-39.9	-40.8	23.1	0.00e+00	0	23	101	1048576	58	6020
2026-01-05 12:54:48.77	38.18	12.55	-40.0	-40.9	23.2	0.00e+00	0	23	101	1048576	58	6086
2026-01-05 12:54:49.93	38.34	12.63	-40.0	-40.9	23.2	0.00e+00	0	23	101	1048576	58	6076
2026-01-05 12:54:50.80	38.46	12.69	-39.9	-40.8	23.1	0.00e+00	0	23	101	1048576	58	6007
2026-01-05 12:54:51.95	38.62	12.77	-40.1	-41.1	23.0	0.00e+00	0	23	101	1048576	58	6177
2026-01-05 12:54:52.82	38.74	12.82	-40.1	-41.1	22.9	0.00e+00	92	23	101	1048576	58	6206
2026-01-05 12:54:53.98	38.91	12.90	-40.2	-41.2	22.9	0.00e+00	0	23	101	1048576	58	6285
2026-01-05 12:54:54.84	39.03	12.96	-40.3	-41.2	22.9	0.00e+00	15	23	101	1048576	58	6307
2026-01-05 12:54:56.00	39.20	13.04	-40.2	-41.2	22.9	0.00e+00	0	23	101	1048576	58	6295
2026-01-05 12:54:56.86	39.32	13.10	-40.2	-41.2	22.9	0.00e+00	0	23	101	1048576	58	6270
2026-01-05 12:54:58.02	39.49	13.18	-40.1	-41.1	23.0	0.00e+00	7	23	101	1048576	58	6186
2026-01-05 12:54:58.88	39.61	13.24	-40.1	-41.1	23.0	0.00e+00	0	23	101	1048576	58	6221
2026-01-05 12:55:00.04	39.78	13.31	-40.2	-41.1	22.9	0.00e+00	73	23	101	1048576	58	6235
2026-01-05 12:55:00.91	39.91	13.37	-40.1	-41.0	22.8	0.00e+00	0	23	101	1048576	58	6173
2026-01-05 12:55:02.06	40.07	13.45	-40.1	-41.1	22.5	0.00e+00	0	23	101	1048576	58	6190
2026-01-05 12:55:02.93	40.20	13.51	-40.1	-41.1	22.2	0.00e+00	0	23	101	1048576	58	6215
2026-01-05 12:55:04.09	40.37	13.59	-40.3	-41.3	22.7	0.00e+00	0	23	101	1048576	58	6324
2026-01-05 12:55:04.95	40.50	13.65	-40.3	-41.3	22.7	0.00e+00	0	23	101	1048576	58	6365
2026-01-05 12:55:06.11	40.67	13.73	-40.2	-41.2	22.9	0.00e+00	0	23	101	1048576	58	6291
2026-01-05 12:55:06.98	40.80	13.79	-40.4	-41.4	22.7	0.00e+00	65	23	101	1048576	58	6460
2026-01-05 12:55:08.13	40.98	13.86	-40.4	-41.4	22.8	0.00e+00	0	23	101	1048576	58	6439
2026-01-05 12:55:09.00	41.11	13.92	-40.3	-41.3	22.8	0.00e+00	91	23	101	1048576	58	6360
2026-01-05 12:55:10.16	41.28	14.00	-40.4	-41.4	22.8	0.00e+00	0	23	101	1048576	58	6429
2026-01-05 12:55:11.02	41.41	14.06	-40.4	-41.4	22.9	0.00e+00	0	23	101	1048576	58	6391
2026-01-05 12:55:12.18	41.59	14.14	-40.0	-41.0	23.1	0.00e+00	0	23	101	1048576	58	6136
2026-01-05 12:55:13.04	41.72	14.20	-39.8	-40.8	23.3	0.00e+00	0	23	101	1048576	58	5975
2026-01-05 12:55:14.20	41.90	14.28	-40.0	-40.9	23.1	0.00e+00	92	23	101	1048576	58	6078
2026-01-05 12:55:15.07	42.04	14.34	-39.7	-40.6	23.4	0.00e+00	0	23	101	1048576	58	5857
2026-01-05 12:55:16.22	42.22	14.42	-39.8	-40.8	23.3	0.00e+00	0	23	101	1048576	58	5980
2026-01-05 12:55:17.09	42.35	14.48	-39.7	-40.7	23.4	0.00e+00	0	23	101	1048576	58	5911
2026-01-05 12:55:18.24	42.54	14.55	-39.7	-40.7	23.3	0.00e+00	0	23	101	1048576	58	5900
2026-01-05 12:55:19.11	42.67	14.61	-39.8	-40.7	23.3	0.00e+00	0	23	101	1048576	58	5944
2026-01-05 12:55:20.26	42.86	14.69	-39.7	-40.7	23.3	0.00e+00	0	23	101	1048576	58	5920
2026-01-05 12:55:21.13	42.99	14.75	-39.6	-40.6	23.4	0.00e+00	57	23	101	1048576	58	5852
2026-01-05 12:55:22.29	43.18	14.83	-39.6	-40.5	23.4	0.00e+00	0	23	101	1048576	58	5827
2026-01-05 12:55:23.15	43.32	14.89	-39.8	-40.7	23.3	0.00e+00	92	23	101	1048576	58	5932
2026-01-05 12:55:24.31	43.51	14.97	-39.7	-40.6	23.4	0.00e+00	0	23	101	1048576	58	5852
2026-01-05 12:55:25.18	43.65	15.03	-39.7	-40.7	23.3	0.00e+00	0	23	101	1048576	58	5921
2026-01-05 12:55:26.33	43.83	15.11	-39.6	-40.6	23.5	0.00e+00	0	23	101	1048576	58	5835
2026-01-05 12:55:27.20	43.98	15.16	-39.6	-40.5	23.5	0.00e+00	0	23	101	1048576	58	5806
2026-01-05 12:55:28.35	44.17	15.24	-39.7	-40.6	23.4	0.00e+00	69	23	101	1048576	58	5852
2026-01-05 12:55:29.22	44.31	15.30	-39.6	-40.5	23.5	0.00e+00	0	23	101	1048576	58	5798
2026-01-05 12:55:30.37	44.50	15.38	-39.7	-40.7	23.4	0.00e+00	75	23	101	1048576	58	5923
2026-01-05 12:55:31.24	44.65	15.44	-39.5	-40.4	23.6	0.00e+00	0	23	101	1048576	58	5748
2026-01-05 12:55:32.40	44.84	15.52	-39.6	-40.5	23.5	0.00e+00	0	23	101	1048576	58	5794
2026-01-05 12:55:33.26	44.98	15.58	-39.7	-40.6	23.4	0.00e+00	0	23	101	1048576	58	5877
2026-01-05 12:55:34.42	45.18	15.66	-39.8	-40.7	23.3	0.00e+00	0	23	101	1048576	58	5964
2026-01-05 12:55:35.29	45.33	15.71	-39.8	-40.8	23.3	0.00e+00	67	23	101	1048576	58	5967
2026-01-05 12:55:36.44	45.52	15.79	-40.0	-41.0	23.1	0.00e+00	0	23	101	1048576	58	6123
2026-01-05 12:55:37.31	45.67	15.85	-40.0	-41.0	23.2	0.00e+00	92	23	101	1048576	58	6121
2026-01-05 12:55:38.46	45.87	15.93	-40.0	-41.0	23.0	0.00e+00	0	23	101	1048576	58	6146
2026-01-05 12:55:39.33	46.02	15.99	-40.1	-41.1	23.0	0.00e+00	0	23	101	1048576	58	6238
2026-01-05 12:55:40.49	46.22	16.07	-39.9	-40.9	23.2	0.00e+00	0	23	101	1048576	58	6082
2026-01-05 12:55:41.35	46.37	16.12	-39.9	-40.9	23.3	0.00e+00	0	23	101	1048576	58	6051
2026-01-05 12:55:42.51	46.58	16.20	-40.0	-41.0	23.1	0.00e+00	7	23	101	1048576	58	6115
2026-01-05 12:55:43.38	46.73	16.26	-39.8	-40.7	23.3	0.00e+00	0	23	101	1048576	58	5948
2026-01-05 12:55:44.53	46.93	16.34	-39.9	-40.9	23.2	0.00e+00	90	23	101	1048576	58	6056
2026-01-05 12:55:45.40	47.09	16.40	-39.9	-40.9	23.3	0.00e+00	0	23	101	1048576	58	6064
2026-01-05 12:55:46.55	47.29	16.47	-40.1	-41.1	23.2	0.00e+00	0	23	101	1048576	58	6185
2026-01-05 12:55:47.42	47.45	16.53	-40.0	-40.9	23.2	0.00e+00	0	23	101	1048576	58	6082
2026-01-05 12:55:48.57	47.65	16.61	-40.1	-41.1	23.1	0.00e+00	0	23	101	1048576	58	6197
2026-01-05 12:55:49.44	47.81	16.67	-40.2	-41.2	23.0	0.00e+00	0	23	101	1048576	58	6264
2026-01-05 12:55:50.60	48.02	16.74	-40.2	-41.1	23.0	0.00e+00	0	23	101	1048576	58	6244
2026-01-05 12:55:51.46	48.18	16.80	-40.1	-41.1	23.0	0.00e+00	36	23	101	1048576	58	6238
2026-01-05 12:55:52.62	48.39	16.88	-40.4	-41.4	22.9	0.00e+00	0	23	101	1048576	58	6429
2026-01-05 12:55:53.49	48.55	16.94	-39.8	-40.8	23.3	0.00e+00	83	23	101	1048576	58	5985
2026-01-05 12:55:54.64	48.76	17.01	-39.8	-40.7	23.4	0.00e+00	0	23	101	1048576	58	5953
2026-01-05 12:55:55.51	48.92	17.07	-39.9	-40.8	23.3	0.00e+00	0	23	101	1048576	58	6026
2026-01-05 12:55:56.67	49.14	17.15	-39.6	-40.6	23.5	0.00e+00	0	23	101	1048576	58	5846
2026-01-05 12:55:57.53	49.30	17.21	-39.7	-40.6	23.5	0.00e+00	0	23	101	1048576	58	5875
2026-01-05 12:55:58.69	49.52	17.28	-39.7	-40.6	23.5	0.00e+00	92	23	101	1048576	58	5880
2026-01-05 12:55:59.56	49.68	17.34	-39.8	-40.7	23.1	0.00e+00	0	23	101	1048576	58	5947
2026-01-05 12:56:00.71	49.90	17.41	-39.7	-40.6	23.3	0.00e+00	90	23	101	1048576	58	5881
2026-01-05 12:56:01.57	50.06	17.47	-39.9	-40.8	23.3	0.00e+00	0	23	101	1048576	58	6011
2026-01-05 12:56:02.73	50.29	17.55	-39.8	-40.7	23.4	0.00e+00	0	23	101	1048576	58	5942
2026-01-05 12:56:03.60	50.45	17.60	-39.5	-40.5	23.6	0.00e+00	0	23	101	1048576	58	5767
2026-01-05 12:56:04.75	50.67	17.68	-39.6	-40.6	23.5	0.00e+00	0	23	101	1048576	58	5845
2026-01-05 12:56:05.62	50.84	17.74	-39.8	-40.7	23.4	0.00e+00	65	23	101	1048576	58	5930
2026-01-05 12:56:06.78	51.07	17.81	-39.8	-40.8	23.3	0.00e+00	0	23	101	1048576	58	5987
2026-01-05 12:56:07.64	51.24	17.87	-40.0	-41.0	23.0	0.00e+00	74	23	101	1048576	58	6153
2026-01-05 12:56:08.80	51.46	17.94	-40.1	-41.1	23.1	0.00e+00	0	23	101	1048576	58	6210
2026-01-05 12:56:09.67	51.63	18.00	-40.0	-41.0	23.2	0.00e+00	0	23	101	1048576	58	6148
2026-01-05 12:56:10.82	51.86	18.07	-40.1	-41.1	23.1	0.00e+00	9	23	101	1048576	58	6213
2026-01-05 12:56:11.69	52.03	18.13	-40.0	-41.0	23.2	0.00e+00	0	23	101	1048576	58	6131
2026-01-05 12:56:12.84	52.26	18.20	-39.7	-40.7	23.4	0.00e+00	80	23	101	1048576	58	5908
2026-01-05 12:56:13.71	52.44	18.26	-39.6	-40.5	23.6	0.00e+00	0	23	101	1048576	58	5814
2026-01-05 12:56:14.86	52.67	18.33	-39.5	-40.4	23.6	0.00e+00	92	23	101	1048576	58	5710
2026-01-05 12:56:15.73	52.84	18.39	-39.7	-40.6	23.3	0.00e+00	0	23	101	1048576	58	5892
2026-01-05 12:56:16.89	53.08	18.46	-39.8	-40.8	23.4	0.00e+00	0	23	101	1048576	58	5995
2026-01-05 12:56:17.75	53.25	18.51	-40.0	-41.0	23.2	0.00e+00	0	23	101	1048576	58	6104
2026-01-05 12:56:18.91	53.49	18.59	-40.1	-41.0	23.1	0.00e+00	0	23	101	1048576	58	6164
2026-01-05 12:56:19.78	53.67	18.64	-40.5	-41.5	22.7	0.00e+00	0	23	101	1048576	58	6536
2026-01-05 12:56:20.93	53.91	18.71	-40.2	-41.2	23.1	0.00e+00	0	23	101	1048576	58	6274
2026-01-05 12:56:21.80	54.09	18.77	-40.2	-41.1	23.0	0.00e+00	74	23	101	1048576	58	6240
2026-01-05 12:56:22.96	54.33	18.84	-40.0	-41.0	23.2	0.00e+00	0	23	101	1048576	58	6139
2026-01-05 12:56:23.82	54.51	18.89	-40.0	-40.9	23.3	0.00e+00	64	23	101	1048576	58	6102
2026-01-05 12:56:24.98	54.75	18.97	-40.4	-41.3	22.9	0.00e+00	0	23	101	1048576	58	6384
2026-01-05 12:56:25.85	54.93	19.02	-40.5	-41.5	22.9	0.00e+00	0	23	101	1048576	58	6483
2026-01-05 12:56:27.00	55.17	19.09	-40.7	-41.8	22.6	0.00e+00	14	23	101	1048576	58	6710
2026-01-05 12:56:27.87	55.36	19.14	-41.6	-42.7	21.9	0.00e+00	0	23	101	1048576	60	6661
2026-01-05 12:56:29.02	55.60	19.21	-41.3	-42.4	22.1	0.00e+00	92	23	101	1048576	60	6428
2026-01-05 12:56:29.89	55.79	19.27	-41.0	-42.1	22.1	0.00e+00	0	23	101	1048576	60	6233
2026-01-05 12:56:31.05	56.04	19.34	-40.8	-41.8	22.6	0.00e+00	0	23	101	1048576	60	6004
2026-01-05 12:56:31.91	56.22	19.39	-40.6	-41.6	22.8	0.00e+00	0	23	101	1048576	60	5833
2026-01-05 12:56:33.07	56.47	19.46	-40.7	-41.6	22.8	0.00e+00	0	23	101	1048576	60	5894
2026-01-05 12:56:33.94	56.66	19.51	-40.8	-41.8	22.8	0.00e+00	0	23	101	1048576	60	5999
2026-01-05 12:56:35.09	56.91	19.58	-40.9	-42.0	22.4	0.00e+00	0	23	101	1048576	60	6117
2026-01-05 12:56:35.96	57.10	19.63	-41.1	-42.2	22.2	0.00e+00	68	23	101	1048576	60	6270
2026-01-05 12:56:37.12	57.36	19.70	-41.2	-42.3	22.3	0.00e+00	0	23	101	1048576	60	6350
2026-01-05 12:56:37.98	57.55	19.75	-41.2	-42.2	22.3	0.00e+00	92	23	101	1048576	60	6298
2026-01-05 12:56:39.14	57.80	19.81	-41.3	-42.5	22.2	0.00e+00	0	23	101	1048576	60	6465
2026-01-05 12:56:40.00	57.99	19.86	-41.3	-42.4	22.1	0.00e+00	0	23	101	1048576	60	6426
2026-01-05 12:56:41.16	58.25	19.93	-41.4	-42.5	22.0	0.00e+00	34	23	101	1048576	60	6489
2026-01-05 12:56:42.03	58.45	19.98	-41.4	-42.5	22.0	0.00e+00	0	23	101	1048576	60	6511
2026-01-05 12:56:43.18	58.70	20.05	-41.5	-42.7	21.7	0.00e+00	90	23	101	1048576	60	6636
2026-01-05 12:56:44.05	58.90	20.10	-41.9	-43.1	21.4	0.00e+00	0	23	101	1048576	60	7005
2026-01-05 12:56:45.20	59.16	20.16	-42.0	-43.2	21.4	0.00e+00	33	23	101	1048576	60	7060
2026-01-05 12:56:46.07	59.36	20.21	-41.5	-42.6	22.0	0.00e+00	0	23	101	1048576	60	6590
2026-01-05 12:56:47.23	59.62	20.27	-41.5	-42.6	22.0	0.00e+00	0	23	101	1048576	60	6580
2026-01-05 12:56:48.09	59.82	20.32	-41.1	-42.1	22.3	0.00e+00	0	23	101	1048576	60	6204
2026-01-05 12:56:49.25	60.08	20.39	-40.7	-41.7	22.7	0.00e+00	33	23	101	1048576	60	5917
2026-01-05 12:56:50.12	60.28	20.43	-40.6	-41.7	22.7	0.00e+00	56	23	101	1048576	60	5898
2026-01-05 12:56:51.27	60.55	20.50	-40.4	-41.4	23.0	0.00e+00	0	23	101	1048576	60	5715
2026-01-05 12:56:52.14	60.75	20.54	-40.5	-41.6	22.7	0.00e+00	65	23	101	1048576	60	5833
2026-01-05 12:56:53.29	61.02	20.61	-40.5	-41.6	22.7	0.00e+00	0	23	101	1048576	60	5843
2026-01-05 12:56:54.16	61.22	20.65	-40.5	-41.5	22.9	0.00e+00	0	23	101	1048576	60	5791
2026-01-05 12:56:55.32	61.49	20.71	-40.6	-41.6	22.7	0.00e+00	0	23	101	1048576	60	5867
2026-01-05 12:56:56.18	61.70	20.76	-40.8	-41.8	22.5	0.00e+00	0	23	101	1048576	60	5985
2026-01-05 12:56:57.34	61.97	20.82	-41.1	-42.2	22.3	0.00e+00	66	23	101	1048576	60	6269
2026-01-05 12:56:58.20	62.17	20.86	-41.3	-42.4	22.1	0.00e+00	33	23	101	1048576	60	6448
2026-01-05 12:56:59.36	62.45	20.92	-41.5	-42.6	22.1	0.00e+00	73	23	101	1048576	60	6550
2026-01-05 12:57:00.23	62.66	20.97	-41.5	-42.6	22.1	0.00e+00	0	23	101	1048576	60	6565
2026-01-05 12:57:01.38	62.93	21.03	-41.1	-42.2	22.3	0.00e+00	0	23	101	1048576	60	6263
2026-01-05 12:57:02.25	63.14	21.07	-40.6	-41.7	22.7	0.00e+00	0	23	101	1048576	60	5899
2026-01-05 12:57:03.40	63.42	21.13	-40.3	-41.3	23.1	0.00e+00	0	23	101	1048576	60	5634
2026-01-05 12:57:04.27	63.63	21.17	-40.1	-41.0	23.3	0.00e+00	0	23	101	1048576	60	5480
2026-01-05 12:57:05.43	63.91	21.23	-40.4	-41.3	22.9	0.00e+00	0	23	101	1048576	58	6388
2026-01-05 12:57:06.29	64.11	21.27	-40.5	-41.5	22.7	0.00e+00	92	23	101	1048576	58	6515
2026-01-05 12:57:07.45	64.40	21.33	-40.7	-41.7	22.5	0.00e+00	0	23	101	1048576	58	6653
2026-01-05 12:57:08.31	64.61	21.37	-40.7	-41.7	22.7	0.00e+00	91	23	101	1048576	58	6662
2026-01-05 12:57:09.47	64.89	21.42	-40.5	-41.6	22.7	0.00e+00	0	23	101	1048576	58	6542
2026-01-05 12:57:10.34	65.11	21.46	-40.5	-41.5	22.9	0.00e+00	0	23	101	1048576	58	6494
2026-01-05 12:57:11.49	65.39	21.52	-40.5	-41.5	22.7	0.00e+00	43	23	101	1048576	58	6537
2026-01-05 12:57:12.36	65.60	21.56	-40.8	-41.9	22.6	0.00e+00	0	23	101	1048576	58	6783
2026-01-05 12:57:13.51	65.89	21.61	-40.9	-42.0	22.5	0.00e+00	92	23	101	1048576	58	6854
2026-01-05 12:57:14.38	66.11	21.65	-41.3	-42.4	22.0	0.00e+00	0	23	101	1048576	60	6460
2026-01-05 12:57:15.54	66.39	21.70	-41.2	-42.3	22.2	0.00e+00	0	23	101	1048576	60	6368
2026-01-05 12:57:16.40	66.61	21.74	-41.1	-42.2	22.2	0.00e+00	0	23	101	1048576	60	6287
2026-01-05 12:57:17.56	66.90	21.79	-40.2	-41.2	23.0	0.00e+00	0	23	101	1048576	60	5576
2026-01-05 12:57:18.43	67.12	21.83	-40.0	-40.9	23.0	0.00e+00	0	23	101	1048576	58	6079
2026-01-05 12:57:19.58	67.41	21.88	-39.8	-40.7	23.2	0.00e+00	0	23	101	1048576	58	5907
2026-01-05 12:57:20.45	67.63	21.92	-39.9	-40.9	23.2	0.00e+00	68	23	101	1048576	58	6058
2026-01-05 12:57:21.60	67.92	21.96	-40.4	-41.4	22.8	0.00e+00	0	23	101	1048576	58	6443
2026-01-05 12:57:22.47	68.14	22.00	-40.6	-41.7	22.7	0.00e+00	92	23	101	1048576	58	6617
2026-01-05 12:57:23.62	68.44	22.05	-40.7	-41.8	22.6	0.00e+00	0	23	101	1048576	58	6708
2026-01-05 12:57:24.49	68.66	22.08	-40.6	-41.7	22.7	0.00e+00	0	23	101	1048576	58	6627
2026-01-05 12:57:25.65	68.96	22.13	-40.6	-41.6	22.7	0.00e+00	62	23	101	1048576	58	6574
2026-01-05 12:57:26.51	69.18	22.16	-40.6	-41.6	22.9	0.00e+00	0	23	101	1048576	58	6603
2026-01-05 12:57:27.67	69.48	22.21	-40.2	-41.2	23.1	0.00e+00	92	23	101	1048576	58	6285
2026-01-05 12:57:28.54	69.70	22.24	-40.3	-41.3	23.1	0.00e+00	0	23	101	1048576	58	6356
2026-01-05 12:57:29.69	70.00	22.28	-40.2	-41.1	23.0	0.00e+00	0	23	101	1048576	58	6219
2026-01-05 12:57:30.56	70.22	22.32	-39.9	-40.8	23.2	0.00e+00	0	23	101	1048576	58	6033
2026-01-05 12:57:31.71	70.52	22.36	-40.1	-41.1	23.2	0.00e+00	0	23	101	1048576	58	6192
2026-01-05 12:57:32.58	70.75	22.39	-40.3	-41.3	23.0	0.00e+00	0	23	101	1048576	58	6363
2026-01-05 12:57:33.74	71.05	22.43	-40.5	-41.5	22.9	0.00e+00	0	23	101	1048576	58	6492
2026-01-05 12:57:34.60	71.28	22.46	-40.6	-41.7	22.6	0.00e+00	20	23	101	1048576	58	6631
2026-01-05 12:57:35.76	71.58	22.50	-40.9	-41.9	22.6	0.00e+00	0	23	101	1048576	58	6823
2026-01-05 12:57:36.63	71.81	22.53	-40.5	-41.6	22.8	0.00e+00	90	23	101	1048576	58	6544
2026-01-05 12:57:37.78	72.12	22.57	-40.6	-41.6	22.8	0.00e+00	0	23	101	1048576	58	6580
2026-01-05 12:57:38.65	72.35	22.60	-40.7	-41.7	22.6	0.00e+00	0	23	101	1048576	58	6670
2026-01-05 12:57:39.80	72.65	22.63	-41.0	-42.0	22.4	0.00e+00	0	23	101	1048576	58	6904
2026-01-05 12:57:40.67	72.88	22.66	-41.1	-42.1	22.0	0.00e+00	0	23	101	1048576	58	6978
2026-01-05 12:57:41.83	73.19	22.70	-41.3	-42.4	22.1	0.00e+00	64	23	101	1048576	60	6455
2026-01-05 12:57:42.69	73.42	22.72	-41.5	-42.6	22.1	0.00e+00	0	23	101	1048576	60	6571
2026-01-05 12:57:43.85	73.73	22.76	-41.3	-42.4	22.2	0.00e+00	91	23	101	1048576	60	6401
2026-01-05 12:57:44.72	73.96	22.78	-41.0	-42.1	22.5	0.00e+00	0	23	101	1048576	60	6177
2026-01-05 12:57:45.87	74.27	22.82	-40.8	-41.8	22.6	0.00e+00	0	23	101	1048576	60	6024
2026-01-05 12:57:46.74	74.50	22.84	-41.1	-42.1	22.4	0.00e+00	0	23	101	1048576	60	6231
2026-01-05 12:57:47.89	74.81	22.87	-41.0	-42.1	22.5	0.00e+00	0	23	101	1048576	60	6196
2026-01-05 12:57:48.76	75.05	22.89	-41.0	-42.0	22.5	0.00e+00	41	23	101	1048576	60	6153
2026-01-05 12:57:49.91	75.36	22.92	-40.6	-41.6	22.8	0.00e+00	0	23	101	1048576	60	5842
2026-01-05 12:57:50.78	75.59	22.95	-40.5	-41.5	22.9	0.00e+00	92	23	101	1048576	60	5781
2026-01-05 12:57:51.94	75.90	22.98	-39.8	-40.8	23.5	0.00e+00	0	23	101	1048576	58	5983
2026-01-05 12:57:52.80	76.14	23.00	-39.7	-40.6	23.6	0.00e+00	0	23	101	1048576	58	5875
2026-01-05 12:57:53.96	76.45	23.02	-39.8	-40.8	23.4	0.00e+00	0	23	101	1048576	58	5967
2026-01-05 12:57:54.83	76.69	23.04	-40.1	-41.1	23.2	0.00e+00	0	23	101	1048576	58	6212
2026-01-05 12:57:55.98	77.00	23.07	-40.8	-41.8	22.5	0.00e+00	67	23	101	1048576	58	6764
2026-01-05 12:57:56.85	77.24	23.09	-41.0	-42.1	22.4	0.00e+00	0	23	101	1048576	58	6947
2026-01-05 12:57:58.00	77.55	23.11	-40.6	-41.6	22.7	0.00e+00	68	23	101	1048576	58	6560
2026-01-05 12:57:58.87	77.79	23.13	-40.3	-41.3	23.0	0.00e+00	0	23	101	1048576	58	6337
2026-01-05 12:58:00.03	78.11	23.15	-40.1	-41.0	23.3	0.00e+00	0	23	101	1048576	58	6155
2026-01-05 12:58:00.89	78.34	23.17	-39.6	-40.5	23.6	0.00e+00	0	23	101	1048576	58	5789
2026-01-05 12:58:02.05	78.66	23.19	-40.0	-40.9	23.3	0.00e+00	0	23	101	1048576	58	6064
2026-01-05 12:58:02.92	78.90	23.21	-40.2	-41.1	23.1	0.00e+00	0	23	101	1048576	58	6235
2026-01-05 12:58:04.07	79.22	23.23	-40.5	-41.5	22.9	0.00e+00	0	23	101	1048576	58	6486
2026-01-05 12:58:04.94	79.46	23.24	-40.4	-41.3	23.0	0.00e+00	69	23	101	1048576	58	6386
2026-01-05 12:58:06.09	79.78	23.26	-40.0	-40.9	23.2	0.00e+00	0	23	101	1048576	58	6079
2026-01-05 12:58:06.96	80.02	23.27	-40.2	-41.1	23.2	0.00e+00	69	23	101	1048576	58	6226
2026-01-05 12:58:08.11	80.33	23.29	-40.2	-41.2	23.2	0.00e+00	0	23	101	1048576	58	6254
2026-01-05 12:58:08.98	80.57	23.30	-40.4	-41.4	22.9	0.00e+00	0	23	101	1048576	58	6455
2026-01-05 12:58:10.13	80.89	23.31	-40.6	-41.6	22.8	0.00e+00	32	23	101	1048576	58	6608
2026-01-05 12:58:11.00	81.13	23.32	-40.6	-41.6	22.9	0.00e+00	0	23	101	1048576	58	6580
2026-01-05 12:58:12.15	81.45	23.34	-40.3	-41.2	23.1	0.00e+00	92	23	101	1048576	58	6286
2026-01-05 12:58:13.02	81.69	23.35	-40.0	-40.9	23.3	0.00e+00	0	23	101	1048576	58	6101
2026-01-05 12:58:14.18	82.01	23.36	-40.0	-40.9	23.2	0.00e+00	15	23	101	1048576	58	6081
2026-01-05 12:58:15.04	82.25	23.37	-40.0	-40.9	23.2	0.00e+00	0	23	101	1048576	58	6097
2026-01-05 12:58:16.20	82.58	23.38	-40.3	-41.3	23.0	0.00e+00	0	23	101	1048576	58	6363
2026-01-05 12:58:17.06	82.81	23.38	-40.3	-41.3	23.0	0.00e+00	0	23	101	1048576	58	6353
2026-01-05 12:58:18.22	83.14	23.39	-40.3	-41.3	23.0	0.00e+00	0	23	101	1048576	58	6363
2026-01-05 12:58:19.09	83.38	23.40	-40.4	-41.4	22.9	0.00e+00	23	23	101	1048576	58	6392
2026-01-05 12:58:20.24	83.70	23.41	-40.3	-41.2	23.1	0.00e+00	33	23	101	1048576	58	6310
2026-01-05 12:58:21.11	83.94	23.41	-40.3	-41.2	23.0	0.00e+00	52	23	101	1048576	58	6290
2026-01-05 12:58:22.27	84.26	23.42	-40.3	-41.2	23.1	0.00e+00	0	23	101	1048576	58	6314
2026-01-05 12:58:23.13	84.50	23.42	-40.2	-41.2	23.1	0.00e+00	0	23	101	1048576	58	6281
2026-01-05 12:58:24.29	84.83	23.42	-40.1	-41.0	23.3	0.00e+00	57	23	101	1048576	58	6132
2026-01-05 12:58:25.16	85.07	23.43	-40.0	-40.9	23.4	0.00e+00	0	23	101	1048576	58	6056
2026-01-05 12:58:26.31	85.39	23.43	-39.9	-40.8	23.4	0.00e+00	80	23	101	1048576	58	6008
2026-01-05 12:58:27.18	85.63	23.43	-40.0	-40.9	23.3	0.00e+00	0	23	101	1048576	58	6086
2026-01-05 12:58:28.33	85.95	23.43	-40.1	-41.1	23.1	0.00e+00	61	23	101	1048576	58	6192
2026-01-05 12:58:29.20	86.20	23.43	-40.1	-41.1	23.1	0.00e+00	33	23	101	1048576	58	6196
2026-01-05 12:58:30.36	86.52	23.43	-39.9	-40.9	23.4	0.00e+00	0	23	101	1048576	58	6047
2026-01-05 12:58:31.22	86.76	23.43	-40.0	-40.9	23.3	0.00e+00	0	23	101	1048576	58	6069
2026-01-05 12:58:32.38	87.08	23.42	-39.9	-40.9	23.3	0.00e+00	0	23	101	1048576	58	6055
2026-01-05 12:58:33.25	87.33	23.42	-39.8	-40.7	23.5	0.00e+00	3	23	101	1048576	58	5936
2026-01-05 12:58:34.40	87.65	23.42	-39.6	-40.5	23.6	0.00e+00	33	23	101	1048576	58	5820
2026-01-05 12:58:35.27	87.89	23.41	-39.5	-40.3	23.7	0.00e+00	90	23	101	1048576	58	5681
2026-01-05 12:58:36.43	88.21	23.41	-39.3	-40.2	23.9	0.00e+00	0	23	101	1048576	56	6279
2026-01-05 12:58:37.29	88.45	23.40	-39.0	-39.8	24.2	0.00e+00	0	23	101	1048576	56	5995
2026-01-05 12:58:38.45	88.78	23.39	-39.2	-40.0	24.1	0.00e+00	0	23	101	1048576	56	6147
2026-01-05 12:58:39.31	89.02	23.39	-39.1	-40.0	24.0	0.00e+00	0	23	101	1048576	56	6143
2026-01-05 12:58:40.47	89.34	23.38	-39.3	-40.2	23.8	0.00e+00	57	23	101	1048576	56	6291
2026-01-05 12:58:41.34	89.58	23.37	-39.5	-40.4	23.0	0.00e+00	0	23	101	1048576	56	6401
2026-01-05 12:58:42.49	89.90	23.36	-39.8	-40.7	23.4	0.00e+00	92	23	101	1048576	56	6640
2026-01-05 12:58:43.36	90.14	23.35	-39.8	-40.7	23.4	0.00e+00	0	23	101	1048576	56	6639
2026-01-05 12:58:44.51	90.46	23.34	-40.0	-41.0	23.1	0.00e+00	0	23	101	1048576	56	6862
2026-01-05 12:58:45.38	90.70	23.33	-40.1	-41.0	23.3	0.00e+00	0	23	101	1048576	56	6875
2026-01-05 12:58:46.54	91.02	23.32	-40.1	-41.1	23.0	0.00e+00	0	23	101	1048576	58	6184
2026-01-05 12:58:47.40	91.26	23.31	-40.2	-41.1	23.1	0.00e+00	0	23	101	1048576	58	6230
2026-01-05 12:58:48.56	91.58	23.29	-40.4	-41.4	23.0	0.00e+00	0	23	101	1048576	58	6438
2026-01-05 12:58:49.42	91.82	23.28	-40.1	-41.0	23.1	0.00e+00	92	23	101	1048576	58	6154
2026-01-05 12:58:50.58	92.14	23.26	-40.2	-41.1	23.1	0.00e+00	0	23	101	1048576	58	6232
2026-01-05 12:58:51.45	92.38	23.25	-40.2	-41.2	22.9	0.00e+00	68	23	101	1048576	58	6287
2026-01-05 12:58:52.60	92.70	23.23	-40.0	-41.0	23.2	0.00e+00	0	23	101	1048576	58	6119
2026-01-05 12:58:53.47	92.94	23.21	-39.7	-40.6	23.5	0.00e+00	0	23	101	1048576	58	5881
2026-01-05 12:58:54.62	93.25	23.19	-39.9	-40.8	23.3	0.00e+00	19	23	101	1048576	58	6011
2026-01-05 12:58:55.49	93.49	23.18	-40.1	-41.0	23.3	0.00e+00	0	23	101	1048576	58	6161
2026-01-05 12:58:56.65	93.81	23.16	-40.1	-41.1	23.1	0.00e+00	86	23	101	1048576	58	6198
2026-01-05 12:58:57.51	94.05	23.14	-40.0	-41.0	23.3	0.00e+00	0	23	101	1048576	58	6139
2026-01-05 12:58:58.67	94.36	23.12	-40.0	-41.0	23.3	0.00e+00	0	23	101	1048576	58	6119
2026-01-05 12:58:59.54	94.60	23.10	-39.6	-40.5	23.7	0.00e+00	0	23	101	1048576	58	5819
2026-01-05 12:59:00.69	94.92	23.07	-39.1	-40.0	23.9	0.00e+00	0	23	101	1048576	56	6151
2026-01-05 12:59:01.56	95.15	23.05	-39.0	-39.9	23.9	0.00e+00	0	23	101	1048576	56	6067
2026-01-05 12:59:02.71	95.47	23.03	-38.9	-39.7	24.2	0.00e+00	0	23	101	1048576	56	5958
2026-01-05 12:59:03.58	95.70	23.01	-38.9	-39.8	24.1	0.00e+00	63	23	101	1048576	56	6003
2026-01-05 12:59:04.74	96.02	22.98	-38.9	-39.8	24.0	0.00e+00	0	23	101	1048576	56	5967
2026-01-05 12:59:05.60	96.25	22.96	-39.0	-39.9	23.9	0.00e+00	68	23	101	1048576	56	6081
2026-01-05 12:59:06.76	96.57	22.93	-39.0	-39.8	24.0	0.00e+00	0	23	101	1048576	56	6010
2026-01-05 12:59:07.63	96.80	22.91	-38.8	-39.7	24.2	0.00e+00	0	23	101	1048576	56	5921
2026-01-05 12:59:08.78	97.11	22.88	-38.4	-39.2	24.4	0.00e+00	65	23	101	1048576	56	5593
2026-01-05 12:59:09.65	97.35	22.85	-38.2	-39.0	23.8	0.00e+00	0	23	101	1048576	56	5453
2026-01-05 12:59:10.80	97.66	22.82	-38.3	-39.1	24.5	0.00e+00	50	23	101	1048576	54	6217
2026-01-05 12:59:11.67	97.89	22.80	-38.4	-39.3	24.2	0.00e+00	0	23	101	1048576	54	6330
2026-01-05 12:59:12.83	98.20	22.76	-38.6	-39.4	24.3	0.00e+00	92	23	101	1048576	54	6427
2026-01-05 12:59:13.69	98.43	22.74	-38.7	-39.5	24.2	0.00e+00	0	23	101	1048576	54	6528
2026-01-05 12:59:14.85	98.74	22.70	-38.8	-39.7	24.1	0.00e+00	0	23	101	1048576	54	6624
2026-01-05 12:59:15.71	98.97	22.68	-39.1	-39.9	23.9	0.00e+00	0	23	101	1048576	54	6844
2026-01-05 12:59:16.87	99.28	22.64	-39.1	-40.0	24.0	0.00e+00	0	23	101	1048576	56	6129
2026-01-05 12:59:17.74	99.51	22.61	-39.3	-40.2	24.0	0.00e+00	7	23	101	1048576	56	6247
2026-01-05 12:59:18.89	99.81	22.57	-38.9	-39.8	24.2	0.00e+00	0	23	101	1048576	56	5971
2026-01-05 12:59:19.76	100.04	22.54	-38.7	-39.6	24.2	0.00e+00	92	23	101	1048576	56	5834
2026-01-05 12:59:20.91	100.35	22.51	-38.8	-39.7	24.3	0.00e+00	0	23	101	1048576	56	5919
2026-01-05 12:59:21.78	100.58	22.48	-39.1	-39.9	24.1	0.00e+00	0	23	101	1048576	56	6076
2026-01-05 12:59:22.94	100.88	22.44	-38.9	-39.8	24.0	0.00e+00	0	23	101	1048576	56	5987
2026-01-05 12:59:23.80	101.11	22.40	-38.9	-39.7	24.3	0.00e+00	0	23	101	1048576	56	5956
2026-01-05 12:59:24.96	101.41	22.36	-38.8	-39.7	24.4	0.00e+00	50	23	101	1048576	56	5915
2026-01-05 12:59:25.83	101.64	22.33	-38.3	-39.2	24.5	0.00e+00	0	23	101	1048576	56	5575
2026-01-05 12:59:26.98	101.94	22.29	-38.3	-39.1	24.6	0.00e+00	72	23	101	1048576	56	5520
2026-01-05 12:59:27.85	102.16	22.26	-37.6	-38.4	25.1	0.00e+00	0	23	101	1048576	54	5700
2026-01-05 12:59:29.01	102.46	22.21	-37.4	-38.2	25.1	0.00e+00	0	23	101	1048576	54	5589
2026-01-05 12:59:29.87	102.68	22.18	-37.5	-38.3	25.1	0.00e+00	0	23	101	1048576	54	5659
2026-01-05 12:59:31.03	102.98	22.13	-37.5	-38.3	25.1	0.00e+00	0	23	101	1048576	54	5687
2026-01-05 12:59:31.90	103.21	22.10	-37.6	-38.4	25.1	0.00e+00	0	23	101	1048576	54	5731
2026-01-05 12:59:33.05	103.50	22.05	-37.8	-38.6	24.8	0.00e+00	0	23	101	1048576	54	5875
2026-01-05 12:59:33.92	103.72	22.02	-38.3	-39.1	24.5	0.00e+00	63	23	101	1048576	54	6201
2026-01-05 12:59:35.07	104.02	21.97	-38.3	-39.1	24.4	0.00e+00	0	23	101	1048576	54	6212
2026-01-05 12:59:35.94	104.24	21.93	-38.0	-38.8	24.7	0.00e+00	91	23	101	1048576	54	6032
2026-01-05 12:59:37.10	104.53	21.88	-38.0	-38.8	24.8	0.00e+00	0	23	101	1048576	54	5994
2026-01-05 12:59:37.96	104.75	21.85	-37.9	-38.7	24.8	0.00e+00	0	23	101	1048576	54	5932
2026-01-05 12:59:39.12	105.04	21.80	-38.0	-38.8	24.7	0.00e+00	64	23	101	1048576	54	6009
2026-01-05 12:59:39.98	105.26	21.76	-38.1	-39.0	24.7	0.00e+00	0	23	101	1048576	54	6123
2026-01-05 12:59:41.14	105.55	21.71	-38.2	-39.0	24.5	0.00e+00	79	23	101	1048576	54	6172
2026-01-05 12:59:42.01	105.77	21.67	-38.3	-39.2	24.5	0.00e+00	0	23	101	1048576	54	6270
2026-01-05 12:59:43.16	106.06	21.62	-38.2	-39.1	24.7	0.00e+00	0	23	101	1048576	54	6188
2026-01-05 12:59:44.03	106.27	21.58	-38.3	-39.1	24.5	0.00e+00	0	23	101	1048576	54	6224
2026-01-05 12:59:45.18	106.56	21.52	-38.3	-39.2	24.6	0.00e+00	0	23	101	1048576	54	6273
2026-01-05 12:59:46.05	106.77	21.48	-38.4	-39.3	24.4	0.00e+00	0	23	101	1048576	54	6338
2026-01-05 12:59:47.20	107.06	21.43	-38.4	-39.3	24.4	0.00e+00	33	23	101	1048576	54	6333
2026-01-05 12:59:48.07	107.27	21.39	-38.4	-39.2	24.4	0.00e+00	32	23	101	1048576	54	6316
2026-01-05 12:59:49.23	107.56	21.33	-38.5	-39.4	24.4	0.00e+00	0	23	101	1048576	54	6403
2026-01-05 12:59:50.09	107.77	21.29	-38.7	-39.6	24.2	0.00e+00	34	23	101	1048576	54	6556
2026-01-05 12:59:51.25	108.05	21.23	-39.2	-40.2	23.8	0.00e+00	0	23	101	1048576	54	7026
2026-01-05 12:59:52.12	108.26	21.19	-38.7	-39.6	24.3	0.00e+00	0	23	101	1048576	56	5848
2026-01-05 12:59:53.27	108.54	21.13	-38.5	-39.4	24.4	0.00e+00	0	23	101	1048576	56	5730
2026-01-05 12:59:54.14	108.75	21.09	-38.3	-39.1	24.5	0.00e+00	0	23	101	1048576	56	5554
2026-01-05 12:59:55.30	109.03	21.03	-38.4	-39.3	24.5	0.00e+00	85	23	101	1048576	56	5638
2026-01-05 12:59:56.16	109.23	20.99	-38.7	-39.6	24.1	0.00e+00	0	23	101	1048576	56	5843
2026-01-05 12:59:57.32	109.51	20.93	-38.8	-39.7	24.1	0.00e+00	50	23	101	1048576	56	5939
2026-01-05 12:59:58.19	109.72	20.88	-39.1	-40.0	23.9	0.00e+00	0	23	101	1048576	56	6119
2026-01-05 12:59:59.34	109.99	20.82	-39.4	-40.3	23.6	0.00e+00	0	23	101	1048576	56	6376
2026-01-05 13:00:00.21	110.20	20.78	-39.7	-40.6	23.5	0.00e+00	0	23	101	1048576	56	6592
2026-01-05 13:00:01.36	110.47	20.71	-39.4	-40.3	23.7	0.00e+00	0	23	101	1048576	56	6384
2026-01-05 13:00:02.23	110.67	20.67	-39.9	-40.9	23.2	0.00e+00	64	23	101	1048576	56	6810
2026-01-05 13:00:03.39	110.95	20.61	-40.1	-41.1	23.0	0.00e+00	0	23	101	1048576	58	6220
2026-01-05 13:00:04.25	111.15	20.56	-40.3	-41.3	23.0	0.00e+00	87	23	101	1048576	58	6358
2026-01-05 13:00:05.41	111.42	20.50	-40.4	-41.4	22.8	0.00e+00	0	23	101	1048576	58	6447
2026-01-05 13:00:06.28	111.62	20.45	-39.9	-40.9	23.2	0.00e+00	0	23	101	1048576	58	6069
2026-01-05 13:00:07.43	111.88	20.39	-39.9	-40.9	23.4	0.00e+00	0	23	101	1048576	58	6078
2026-01-05 13:00:08.30	112.08	20.34	-39.5	-40.5	23.4	0.00e+00	0	23	101	1048576	58	5768
2026-01-05 13:00:09.45	112.35	20.27	-39.1	-40.0	23.7	0.00e+00	66	23	101	1048576	56	6136
2026-01-05 13:00:10.32	112.55	20.22	-39.1	-40.0	23.9	0.00e+00	0	23	101	1048576	56	6125
2026-01-05 13:00:11.47	112.81	20.16	-39.7	-40.6	23.4	0.00e+00	92	23	101	1048576	56	6588
2026-01-05 13:00:12.34	113.01	20.11	-39.8	-40.8	23.0	0.00e+00	0	23	101	1048576	56	6698
2026-01-05 13:00:13.50	113.27	20.04	-40.2	-41.1	23.2	0.00e+00	0	23	101	1048576	56	6987
2026-01-05 13:00:14.37	113.47	19.99	-39.9	-40.9	23.3	0.00e+00	0	23	101	1048576	58	6053
2026-01-05 13:00:15.52	113.72	19.93	-39.8	-40.7	23.4	0.00e+00	0	23	101	1048576	58	5940
2026-01-05 13:00:16.39	113.92	19.88	-39.6	-40.6	23.5	0.00e+00	0	23	101	1048576	58	5830
2026-01-05 13:00:17.54	114.17	19.81	-39.7	-40.6	23.5	0.00e+00	0	23	101	1048576	58	5888
2026-01-05 13:00:18.41	114.37	19.76	-39.7	-40.7	23.4	0.00e+00	46	23	101	1048576	58	5910
2026-01-05 13:00:19.57	114.62	19.69	-39.9	-40.9	23.1	0.00e+00	0	23	101	1048576	58	6077
2026-01-05 13:00:20.43	114.81	19.64	-40.1	-41.0	23.1	0.00e+00	91	23	101	1048576	58	6172
2026-01-05 13:00:21.59	115.07	19.57	-40.2	-41.2	22.9	0.00e+00	0	23	101	1048576	58	6311
2026-01-05 13:00:22.45	115.26	19.52	-40.4	-41.4	22.8	0.00e+00	0	23	101	1048576	58	6446
2026-01-05 13:00:23.61	115.51	19.45	-40.2	-41.2	22.9	0.00e+00	62	23	101	1048576	58	6299
2026-01-05 13:00:24.48	115.70	19.40	-40.1	-41.1	23.2	0.00e+00	0	23	101	1048576	58	6175
2026-01-05 13:00:25.63	115.95	19.33	-39.7	-40.7	23.4	0.00e+00	83	23	101	1048576	58	5908
2026-01-05 13:00:26.50	116.13	19.28	-39.8	-40.7	23.3	0.00e+00	0	23	101	1048576	58	5956
2026-01-05 13:00:27.65	116.38	19.21	-39.9	-40.8	23.3	0.00e+00	34	23	101	1048576	58	6027
2026-01-05 13:00:28.52	116.57	19.15	-39.8	-40.7	23.3	0.00e+00	0	23	101	1048576	58	5948
2026-01-05 13:00:29.68	116.81	19.08	-40.1	-41.1	23.2	0.00e+00	0	23	101	1048576	58	6176
2026-01-05 13:00:30.54	117.00	19.03	-40.2	-41.2	23.0	0.00e+00	0	23	101	1048576	58	6273
2026-01-05 13:00:31.70	117.24	18.96	-40.5	-41.5	22.8	0.00e+00	0	23	101	1048576	58	6489
2026-01-05 13:00:32.56	117.42	18.90	-39.9	-40.9	23.2	0.00e+00	58	23	101	1048576	58	6075
2026-01-05 13:00:33.72	117.66	18.83	-40.1	-41.0	23.2	0.00e+00	0	23	101	1048576	58	6163
2026-01-05 13:00:34.59	117.85	18.78	-40.0	-41.0	23.1	0.00e+00	85	23	101	1048576	58	6152
2026-01-05 13:00:35.74	118.08	18.70	-40.2	-41.1	23.1	0.00e+00	0	23	101	1048576	58	6237
2026-01-05 13:00:36.61	118.26	18.65	-40.3	-41.2	22.9	0.00e+00	0	23	101	1048576	58	6317
2026-01-05 13:00:37.76	118.50	18.58	-40.0	-41.0	23.1	0.00e+00	63	23	101	1048576	58	6148
2026-01-05 13:00:38.63	118.68	18.52	-40.3	-41.3	22.9	0.00e+00	0	23	101	1048576	58	6340
2026-01-05 13:00:39.79	118.92	18.45	-40.4	-41.4	22.8	0.00e+00	81	23	101	1048576	58	6438
2026-01-05 13:00:40.65	119.09	18.39	-40.2	-41.2	23.0	0.00e+00	0	23	101	1048576	58	6306
2026-01-05 13:00:41.81	119.33	18.32	-40.2	-41.2	22.9	0.00e+00	92	23	101	1048576	58	6306
2026-01-05 13:00:42.67	119.50	18.26	-40.2	-41.2	23.0	0.00e+00	0	23	101	1048576	58	6252
2026-01-05 13:00:43.83	119.73	18.19	-40.1	-41.1	23.1	0.00e+00	0	23	101	1048576	58	6205
2026-01-05 13:00:44.70	119.91	18.13	-40.1	-41.1	23.1	0.00e+00	0	23	101	1048576	58	6207
2026-01-05 13:00:45.85	120.14	18.06	-40.2	-41.2	23.0	0.00e+00	0	23	101	1048576	58	6287
2026-01-05 13:00:46.72	120.31	18.00	-40.0	-41.0	23.2	0.00e+00	44	23	101	1048576	58	6148
2026-01-05 13:00:47.88	120.54	17.93	-39.9	-40.9	23.2	0.00e+00	0	23	101	1048576	58	6080
2026-01-05 13:00:48.74	120.71	17.87	-40.1	-41.1	23.1	0.00e+00	92	23	101	1048576	58	6197
2026-01-05 13:00:49.90	120.94	17.80	-39.7	-40.7	23.3	0.00e+00	0	23	101	1048576	58	5917
2026-01-05 13:00:50.76	121.10	17.74	-39.8	-40.7	23.3	0.00e+00	0	23	101	1048576	58	5944
2026-01-05 13:00:51.92	121.33	17.66	-39.2	-40.1	23.9	0.00e+00	0	23	101	1048576	58	5530
2026-01-05 13:00:52.78	121.50	17.61	-39.2	-40.0	23.9	0.00e+00	0	23	101	1048576	56	6161
2026-01-05 13:00:53.94	121.72	17.53	-39.3	-40.2	23.8	0.00e+00	64	23	101	1048576	56	6288
2026-01-05 13:00:54.81	121.89	17.47	-39.3	-40.2	23.6	0.00e+00	0	23	101	1048576	56	6278
2026-01-05 13:00:55.96	122.11	17.40	-39.6	-40.5	23.5	0.00e+00	82	23	101	1048576	56	6484
2026-01-05 13:00:56.83	122.27	17.34	-39.7	-40.7	23.4	0.00e+00	0	23	101	1048576	56	6643
2026-01-05 13:00:57.99	122.49	17.26	-40.1	-41.0	23.0	0.00e+00	0	23	101	1048576	56	6923
2026-01-05 13:00:58.85	122.65	17.21	-40.2	-41.2	23.0	0.00e+00	0	23	101	1048576	56	7047
2026-01-05 13:01:00.01	122.87	17.13	-40.1	-41.1	23.0	0.00e+00	0	23	101	1048576	58	6212
2026-01-05 13:01:00.88	123.03	17.07	-40.1	-41.0	23.1	0.00e+00	65	23	101	1048576	58	6163
2026-01-05 13:01:02.03	123.25	16.99	-40.2	-41.2	23.0	0.00e+00	0	23	101	1048576	58	6273
2026-01-05 13:01:02.90	123.41	16.94	-40.5	-41.5	22.6	0.00e+00	62	23	101	1048576	58	6508
2026-01-05 13:01:04.05	123.62	16.86	-40.8	-41.9	22.5	0.00e+00	0	23	101	1048576	58	6771
2026-01-05 13:01:04.92	123.78	16.80	-41.2	-42.3	22.0	0.00e+00	92	23	101	1048576	60	6381
2026-01-05 13:01:06.08	123.99	16.72	-41.5	-42.6	21.9	0.00e+00	0	23	101	1048576	60	6600
2026-01-05 13:01:06.94	124.15	16.66	-41.3	-42.5	22.0	0.00e+00	0	23	101	1048576	60	6472
2026-01-05 13:01:08.10	124.36	16.59	-41.6	-42.8	21.8	0.00e+00	30	23	101	1048576	60	6714
2026-01-05 13:01:08.97	124.52	16.53	-40.8	-41.9	22.5	0.00e+00	0	23	101	1048576	60	6042
2026-01-05 13:01:10.12	124.72	16.45	-40.2	-41.1	23.0	0.00e+00	55	23	101	1048576	60	5561
2026-01-05 13:01:10.99	124.88	16.39	-39.9	-40.9	23.2	0.00e+00	0	23	101	1048576	58	6050
2026-01-05 13:01:12.14	125.08	16.31	-39.4	-40.3	23.6	0.00e+00	15	23	101	1048576	58	5655
2026-01-05 13:01:13.01	125.24	16.25	-39.2	-40.1	23.8	0.00e+00	0	23	101	1048576	58	5511
2026-01-05 13:01:14.16	125.44	16.18	-39.4	-40.3	23.7	0.00e+00	0	23	101	1048576	58	5654
2026-01-05 13:01:15.03	125.60	16.12	-39.5	-40.4	23.5	0.00e+00	0	23	101	1048576	58	5760
2026-01-05 13:01:16.19	125.80	16.04	-40.0	-41.0	23.1	0.00e+00	0	23	101	1048576	58	6137
2026-01-05 13:01:17.05	125.95	15.98	-40.3	-41.3	22.8	0.00e+00	16	23	101	1048576	58	6362
2026-01-05 13:01:18.21	126.15	15.90	-40.5	-41.5	22.7	0.00e+00	0	23	101	1048576	58	6494
2026-01-05 13:01:19.08	126.30	15.84	-40.4	-41.4	22.8	0.00e+00	92	23	101	1048576	58	6422
2026-01-05 13:01:20.23	126.50	15.76	-40.3	-41.3	22.9	0.00e+00	0	23	101	1048576	58	6329
2026-01-05 13:01:21.10	126.65	15.70	-39.9	-40.8	23.2	0.00e+00	0	23	101	1048576	58	6027
2026-01-05 13:01:22.26	126.84	15.62	-39.7	-40.6	23.4	0.00e+00	0	23	101	1048576	58	5863
2026-01-05 13:01:23.12	126.99	15.57	-39.5	-40.4	23.5	0.00e+00	0	23	101	1048576	58	5715
2026-01-05 13:01:24.28	127.19	15.49	-39.5	-40.4	23.5	0.00e+00	92	23	101	1048576	58	5752
2026-01-05 13:01:25.15	127.33	15.43	-39.6	-40.6	23.2	0.00e+00	0	23	101	1048576	58	5842
2026-01-05 13:01:26.30	127.52	15.35	-39.9	-40.9	23.1	0.00e+00	90	23	101	1048576	58	6035
2026-01-05 13:01:27.17	127.67	15.29	-40.1	-41.1	23.1	0.00e+00	0	23	101	1048576	58	6176
2026-01-05 13:01:28.32	127.86	15.21	-40.5	-41.5	22.9	0.00e+00	0	23	101	1048576	58	6478
2026-01-05 13:01:29.19	128.00	15.15	-40.5	-41.5	22.7	0.00e+00	0	23	101	1048576	58	6509
2026-01-05 13:01:30.35	128.20	15.07	-40.2	-41.2	22.7	0.00e+00	0	23	101	1048576	58	6272
2026-01-05 13:01:31.21	128.34	15.01	-39.9	-40.9	23.2	0.00e+00	60	23	101	1048576	58	6062
2026-01-05 13:01:32.37	128.52	14.93	-40.0	-40.9	23.2	0.00e+00	0	23	101	1048576	58	6085
2026-01-05 13:01:33.24	128.67	14.87	-39.9	-40.9	23.2	0.00e+00	92	23	101	1048576	58	6035
2026-01-05 13:01:34.39	128.85	14.79	-40.2	-41.1	23.0	0.00e+00	0	23	101	1048576	58	6232
2026-01-05 13:01:35.26	128.99	14.73	-40.2	-41.2	22.9	0.00e+00	92	23	101	1048576	58	6265
2026-01-05 13:01:36.41	129.18	14.66	-40.4	-41.5	22.8	0.00e+00	0	23	101	1048576	58	6469
2026-01-05 13:01:37.28	129.31	14.60	-40.7	-41.7	22.5	0.00e+00	0	23	101	1048576	58	6653
2026-01-05 13:01:38.43	129.50	14.52	-40.9	-41.9	22.4	0.00e+00	63	23	101	1048576	58	6831
2026-01-05 13:01:39.30	129.63	14.46	-40.8	-41.8	22.4	0.00e+00	0	23	101	1048576	58	6761
2026-01-05 13:01:40.46	129.82	14.38	-40.9	-42.0	22.2	0.00e+00	65	23	101	1048576	58	6883
2026-01-05 13:01:41.33	129.95	14.32	-40.7	-41.7	22.5	0.00e+00	0	23	101	1048576	58	6671
2026-01-05 13:01:42.48	130.13	14.24	-40.2	-41.2	22.8	0.00e+00	0	23	101	1048576	58	6306
2026-01-05 13:01:43.35	130.27	14.18	-40.3	-41.3	22.7	0.00e+00	0	23	101	1048576	58	6368
2026-01-05 13:01:44.50	130.44	14.10	-40.3	-41.2	22.8	0.00e+00	0	23	101	1048576	58	6310
2026-01-05 13:01:45.37	130.58	14.04	-40.3	-41.3	22.8	0.00e+00	0	23	101	1048576	58	6364
2026-01-05 13:01:46.52	130.75	13.96	-40.8	-41.9	22.3	0.00e+00	0	23	101	1048576	58	6793
2026-01-05 13:01:47.39	130.89	13.90	-40.9	-42.0	22.1	0.00e+00	62	23	101	1048576	58	6851
2026-01-05 13:01:48.55	131.06	13.82	-41.4	-42.6	21.8	0.00e+00	0	23	101	1048576	60	6575
2026-01-05 13:01:49.41	131.19	13.76	-41.6	-42.8	21.6	0.00e+00	92	23	101	1048576	60	6751
2026-01-05 13:01:50.57	131.37	13.68	-41.6	-42.8	21.6	0.00e+00	0	23	101	1048576	60	6758
2026-01-05 13:01:51.43	131.49	13.62	-41.5	-42.6	21.7	0.00e+00	0	23	101	1048576	60	6588
2026-01-05 13:01:52.59	131.67	13.54	-41.2	-42.4	22.0	0.00e+00	57	23	101	1048576	60	6395
2026-01-05 13:01:53.46	131.80	13.48	-41.3	-42.4	22.1	0.00e+00	0	23	101	1048576	60	6427
2026-01-05 13:01:54.61	131.97	13.41	-41.0	-42.1	22.2	0.00e+00	90	23	101	1048576	60	6175
2026-01-05 13:01:55.48	132.09	13.35	-40.9	-42.0	22.3	0.00e+00	0	23	101	1048576	60	6139
2026-01-05 13:01:56.63	132.26	13.27	-40.8	-41.9	22.4	0.00e+00	0	23	101	1048576	60	6057
2026-01-05 13:01:57.50	132.39	13.21	-40.6	-41.6	22.6	0.00e+00	0	23	101	1048576	60	5879
2026-01-05 13:01:58.66	132.56	13.13	-40.5	-41.6	22.6	0.00e+00	0	23	101	1048576	60	5847
2026-01-05 13:01:59.52	132.68	13.07	-40.6	-41.6	22.6	0.00e+00	0	23	101	1048576	60	5862
2026-01-05 13:02:00.68	132.85	12.99	-40.4	-41.4	22.8	0.00e+00	0	23	101	1048576	60	5735
2026-01-05 13:02:01.55	132.97	12.93	-40.5	-41.5	22.8	0.00e+00	56	23	101	1048576	60	5792
2026-01-05 13:02:02.70	133.13	12.85	-40.3	-41.2	22.9	0.00e+00	0	23	101	1048576	60	5621
2026-01-05 13:02:03.57	133.26	12.79	-40.2	-41.2	22.9	0.00e+00	92	23	101	1048576	60	5579
2026-01-05 13:02:04.73	133.42	12.71	-40.1	-41.1	23.0	0.00e+00	0	23	101	1048576	58	6219
2026-01-05 13:02:05.59	133.54	12.65	-39.9	-40.9	23.2	0.00e+00	0	23	101	1048576	58	6065
2026-01-05 13:02:06.75	133.70	12.58	-39.8	-40.7	23.1	0.00e+00	1	23	101	1048576	58	5949
2026-01-05 13:02:07.62	133.83	12.52	-39.7	-40.7	23.2	0.00e+00	0	23	101	1048576	58	5901
2026-01-05 13:02:08.77	133.98	12.44	-39.7	-40.6	23.2	0.00e+00	78	23	101	1048576	58	5863
2026-01-05 13:02:09.64	134.10	12.38	-39.7	-40.6	22.9	0.00e+00	0	23	101	1048576	58	5875
2026-01-05 13:02:10.79	134.26	12.30	-39.9	-40.8	23.0	0.00e+00	47	23	101	1048576	58	6025
2026-01-05 13:02:11.66	134.38	12.24	-40.0	-41.0	23.0	0.00e+00	0	23	101	1048576	58	6108
2026-01-05 13:02:12.81	134.54	12.16	-40.3	-41.3	22.7	0.00e+00	0	23	101	1048576	58	6355
2026-01-05 13:02:13.68	134.66	12.10	-40.5	-41.5	22.5	0.00e+00	0	23	101	1048576	58	6497
2026-01-05 13:02:14.84	134.81	12.03	-40.7	-41.8	22.1	0.00e+00	0	23	101	1048576	58	6698
2026-01-05 13:02:15.70	134.93	11.97	-40.6	-41.6	22.5	0.00e+00	60	23	101	1048576	58	6592
2026-01-05 13:02:16.86	135.08	11.89	-40.6	-41.6	22.3	0.00e+00	0	23	101	1048576	58	6612
2026-01-05 13:02:17.73	135.20	11.83	-40.7	-41.7	22.4	0.00e+00	92	23	101	1048576	58	6688
2026-01-05 13:02:18.88	135.35	11.75	-40.4	-41.4	22.7	0.00e+00	0	23	101	1048576	58	6416
2026-01-05 13:02:19.75	135.46	11.69	-40.4	-41.4	22.7	0.00e+00	0	23	101	1048576	58	6424
2026-01-05 13:02:20.90	135.62	11.61	-40.2	-41.2	22.8	0.00e+00	9	23	101	1048576	58	6248
2026-01-05 13:02:21.77	135.73	11.56	-40.1	-41.1	22.8	0.00e+00	0	23	101	1048576	58	6205
2026-01-05 13:02:22.93	135.88	11.48	-40.1	-41.1	22.8	0.00e+00	92	23	101	1048576	58	6231
2026-01-05 13:02:23.79	135.99	11.42	-40.4	-41.4	22.7	0.00e+00	0	23	101	1048576	58	6423
2026-01-05 13:02:24.95	136.14	11.34	-40.2	-41.3	22.8	0.00e+00	63	23	101	1048576	58	6322
2026-01-05 13:02:25.81	136.25	11.28	-40.3	-41.4	22.6	0.00e+00	0	23	101	1048576	58	6404
2026-01-05 13:02:26.97	136.40	11.21	-40.6	-41.6	22.5	0.00e+00	0	23	101	1048576	58	6611
2026-01-05 13:02:27.83	136.51	11.15	-40.6	-41.6	22.5	0.00e+00	0	23	101	1048576	58	6579
2026-01-05 13:02:28.99	136.66	11.07	-40.7	-41.8	22.3	0.00e+00	0	23	101	1048576	58	6726
2026-01-05 13:02:29.86	136.76	11.01	-40.6	-41.6	22.4	0.00e+00	0	23	101	1048576	58	6578
2026-01-05 13:02:31.01	136.91	10.94	-40.7	-41.8	22.3	0.00e+00	0	23	101	1048576	58	6707
2026-01-05 13:02:31.88	137.02	10.88	-40.6	-41.7	22.4	0.00e+00	78	23	101	1048576	58	6622
2026-01-05 13:02:33.04	137.16	10.80	-40.5	-41.5	22.6	0.00e+00	0	23	101	1048576	58	6495
2026-01-05 13:02:33.90	137.27	10.74	-40.4	-41.4	22.6	0.00e+00	90	23	101	1048576	58	6424
2026-01-05 13:02:35.06	137.41	10.66	-40.3	-41.3	22.7	0.00e+00	0	23	101	1048576	58	6368
2026-01-05 13:02:35.93	137.52	10.61	-40.2	-41.2	22.8	0.00e+00	0	23	101	1048576	58	6248
2026-01-05 13:02:37.08	137.66	10.53	-40.4	-41.4	22.5	0.00e+00	27	23	101	1048576	58	6399
2026-01-05 13:02:37.95	137.76	10.47	-40.3	-41.3	22.6	0.00e+00	0	23	101	1048576	58	6385
2026-01-05 13:02:39.10	137.90	10.40	-40.5	-41.5	22.5	0.00e+00	40	23	101	1048576	58	6489
2026-01-05 13:02:39.97	138.01	10.34	-40.6	-41.7	22.3	0.00e+00	0	23	101	1048576	58	6633
2026-01-05 13:02:41.13	138.15	10.26	-40.6	-41.6	22.5	0.00e+00	0	23	101	1048576	58	6550
2026-01-05 13:02:41.99	138.25	10.20	-40.7	-41.7	22.3	0.00e+00	0	23	101	1048576	58	6667
2026-01-05 13:02:43.15	138.39	10.13	-40.9	-42.0	22.0	0.00e+00	0	23	101	1048576	58	6900
2026-01-05 13:02:44.02	138.49	10.07	-41.4	-42.5	21.6	0.00e+00	0	23	101	1048576	60	6487
2026-01-05 13:02:45.17	138.63	9.99	-41.7	-42.9	21.2	0.00e+00	0	23	101	1048576	60	6834
2026-01-05 13:02:46.04	138.73	9.94	-41.8	-43.0	21.1	0.00e+00	62	23	101	1048576	60	6921
2026-01-05 13:02:47.19	138.86	9.86	-42.3	-43.5	20.8	0.00e+00	0	23	101	1048576	60	7324
2026-01-05 13:02:48.06	138.96	9.80	-42.9	-44.3	20.1	0.00e+00	92	23	101	1048576	60	7967
2026-01-05 13:02:49.22	139.10	9.73	-42.8	-44.2	20.3	0.00e+00	0	23	101	1048576	60	7866
2026-01-05 13:02:50.08	139.20	9.67	-42.4	-43.7	20.6	0.00e+00	0	23	101	1048576	60	7507
2026-01-05 13:02:51.24	139.33	9.60	-42.5	-43.8	20.4	0.00e+00	58	23	101	1048576	60	7591
2026-01-05 13:02:52.10	139.43	9.54	-42.5	-43.9	20.4	0.00e+00	0	23	101	1048576	60	7632
2026-01-05 13:02:53.26	139.56	9.46	-42.7	-44.1	20.0	0.00e+00	64	23	101	1048576	60	7855
2026-01-05 13:02:54.12	139.66	9.41	-42.7	-44.0	20.1	0.00e+00	0	23	101	1048576	60	7753
2026-01-05 13:02:55.28	139.79	9.33	-42.7	-44.1	20.1	0.00e+00	49	23	101	1048576	60	7783
2026-01-05 13:02:56.15	139.89	9.27	-42.7	-44.1	20.0	0.00e+00	0	23	101	1048576	60	7849
2026-01-05 13:02:57.30	140.02	9.20	-42.7	-44.2	19.6	0.00e+00	0	23	101	1048576	60	7888
2026-01-05 13:02:58.17	140.11	9.14	-43.0	-44.5	19.1	0.00e+00	0	23	101	1048576	60	8179
2026-01-05 13:02:59.32	140.24	9.07	-42.7	-44.1	19.6	0.00e+00	0	23	101	1048576	60	7843
2026-01-05 13:03:00.19	140.34	9.01	-42.9	-44.5	19.2	0.00e+00	47	23	101	1048576	60	8156
