passes_logs/2026/01/05/R4.6S_Anadyr_2ch/R4.6S_Anadyr_2ch__20260105_185921_FENGYUN_3E_rec.log

#Pass ID: 20260105_185921_FENGYUN 3E
#Satellite: FENGYUN 3E
#Configuration: FENGYUN 3E
#almurnet v.1.7.20251203
#Start time: 2026-01-05 18:59:23

#Version: 2.2.20231116
#Station: R4.6S_Anadyr_2ch
#Location: 177.4865 lon 64.73178 lat
#TLE: 1 49008U 21062A   25350.97288215  .00000176  00000+0  10353-3 0  9997
#TLE: 2 49008  98.7477 351.4440 0000638 234.3856 125.7261 14.19881381230726

#Time	Az	El	Level	Level2	SNR	BER	BlckErr	Temp	State	Recorded	gain1	gain2
2026-01-05 18:59:23.38	20.46	0.13	-51.2	-66.1	3.5	1.51e+00	0	29	0	0	60	98097
2026-01-05 18:59:24.38	20.46	0.19	-50.8	-62.2	3.6	8.45e-01	0	30	104	0	60	63357
2026-01-05 18:59:25.39	20.47	0.25	-50.7	-62.1	3.6	8.45e-01	0	30	104	0	60	62683
2026-01-05 18:59:26.40	20.47	0.31	-50.7	-62.1	3.6	8.45e-01	0	30	104	0	60	62789
2026-01-05 18:59:27.42	20.48	0.37	-50.9	-62.2	3.6	8.46e-01	0	30	104	0	60	63552
2026-01-05 18:59:28.43	20.48	0.43	-50.8	-62.2	3.6	8.46e-01	0	30	104	0	60	63276
2026-01-05 18:59:29.44	20.49	0.49	-50.8	-62.2	3.6	8.45e-01	0	30	104	0	60	63561
2026-01-05 18:59:30.45	20.49	0.56	-50.8	-62.1	3.6	8.45e-01	0	30	104	0	60	63070
2026-01-05 18:59:31.46	20.50	0.62	-50.8	-62.2	3.6	8.45e-01	0	30	104	0	60	63243
2026-01-05 18:59:32.47	20.50	0.68	-50.9	-62.2	3.6	8.45e-01	0	30	104	0	60	63580
2026-01-05 18:59:33.48	20.51	0.74	-50.6	-62.2	3.6	8.46e-01	0	30	104	0	60	63814
2026-01-05 18:59:34.49	20.51	0.80	-50.7	-62.1	3.6	8.45e-01	0	30	104	0	60	63115
2026-01-05 18:59:35.51	20.52	0.86	-50.5	-62.1	3.6	8.46e-01	0	30	104	0	60	62938
2026-01-05 18:59:36.52	20.52	0.93	-50.6	-62.0	3.6	8.46e-01	0	30	104	0	60	62435
2026-01-05 18:59:37.53	20.53	0.99	-50.6	-62.0	3.6	8.46e-01	0	30	104	0	60	62037
2026-01-05 18:59:38.54	20.53	1.05	-50.5	-61.8	3.6	8.46e-01	0	30	104	0	60	60782
2026-01-05 18:59:39.55	20.54	1.11	-50.1	-61.6	3.6	8.46e-01	0	30	104	0	60	59460
2026-01-05 18:59:40.56	20.54	1.18	-50.2	-61.5	3.6	8.45e-01	0	30	104	0	60	58725
2026-01-05 18:59:41.57	20.55	1.24	-49.9	-61.2	3.6	8.45e-01	0	30	104	0	60	56912
2026-01-05 18:59:42.58	20.55	1.30	-49.6	-60.9	3.6	8.46e-01	0	30	104	0	60	54975
2026-01-05 18:59:43.59	20.56	1.36	-49.4	-60.8	3.6	8.45e-01	0	31	104	0	60	54132
2026-01-05 18:59:44.61	20.56	1.43	-49.4	-60.7	3.6	8.46e-01	0	30	104	0	60	53488
2026-01-05 18:59:45.62	20.57	1.49	-49.4	-60.6	3.6	8.45e-01	0	31	104	0	60	53052
2026-01-05 18:59:46.63	20.57	1.55	-49.4	-60.5	3.6	8.46e-01	0	31	104	0	60	52446
2026-01-05 18:59:47.64	20.58	1.62	-49.3	-60.5	3.6	8.46e-01	0	31	104	0	60	52124
2026-01-05 18:59:48.65	20.58	1.68	-49.3	-60.0	3.6	8.46e-01	0	31	104	0	60	49500
2026-01-05 18:59:49.66	20.59	1.74	-49.3	-60.0	3.6	8.45e-01	0	30	104	0	60	49517
2026-01-05 18:59:50.67	20.59	1.81	-49.3	-60.2	3.6	8.46e-01	0	31	104	0	60	50413
2026-01-05 18:59:51.68	20.60	1.87	-49.3	-60.1	3.6	8.44e-01	0	31	104	0	60	49834
2026-01-05 18:59:52.70	20.60	1.94	-49.3	-60.2	3.6	8.47e-01	0	31	104	0	60	50524
2026-01-05 18:59:53.71	20.61	2.00	-49.3	-60.4	3.6	8.45e-01	0	31	104	0	60	51881
2026-01-05 18:59:54.72	20.61	2.07	-49.3	-60.6	3.6	8.45e-01	0	31	104	0	60	52675
2026-01-05 18:59:55.73	20.62	2.13	-49.4	-60.6	3.6	8.46e-01	0	31	104	0	60	53108
2026-01-05 18:59:56.74	20.62	2.19	-49.3	-60.6	3.6	8.45e-01	0	31	104	0	60	53083
2026-01-05 18:59:57.75	20.63	2.26	-49.4	-60.7	3.6	8.46e-01	0	31	104	0	60	53186
2026-01-05 18:59:58.76	20.63	2.32	-49.3	-60.7	3.6	8.45e-01	0	31	104	0	60	53372
2026-01-05 18:59:59.78	20.64	2.39	-49.3	-60.6	3.6	8.46e-01	0	31	104	0	60	52757
2026-01-05 19:00:00.79	20.64	2.46	-49.3	-60.3	3.6	8.45e-01	0	31	104	0	60	50937
2026-01-05 19:00:01.80	20.65	2.52	-49.3	-60.0	3.6	8.45e-01	0	31	104	0	60	49346
2026-01-05 19:00:02.81	20.65	2.59	-49.2	-59.6	3.6	8.46e-01	0	31	104	0	60	47334
2026-01-05 19:00:03.82	20.66	2.65	-49.1	-58.4	3.7	8.46e-01	0	31	104	0	60	40984
2026-01-05 19:00:04.83	20.66	2.72	-49.0	-57.5	3.7	8.41e-01	0	31	104	0	60	36834
2026-01-05 19:00:05.84	20.67	2.78	-48.9	-55.6	4.0	8.31e-01	0	31	0	0	60	29621
2026-01-05 19:00:06.85	20.67	2.85	-48.9	-55.7	3.8	8.28e-01	0	31	0	0	60	30201
2026-01-05 19:00:07.86	20.68	2.92	-48.9	-55.8	3.8	8.31e-01	0	31	0	0	60	30262
2026-01-05 19:00:08.87	20.68	2.98	-49.0	-56.2	3.7	8.36e-01	0	31	104	0	60	32028
2026-01-05 19:00:09.88	20.69	3.05	-48.9	-56.8	4.0	8.35e-01	0	31	0	0	60	34170
2026-01-05 19:00:10.89	20.69	3.12	-48.5	-53.8	4.9	8.07e-01	0	31	0	0	60	24296
2026-01-05 19:00:11.91	20.70	3.19	-47.9	-52.0	6.8	2.43e-01	0	31	0	0	60	19574
2026-01-05 19:00:12.92	20.70	3.25	-47.3	-50.7	8.4	7.85e-02	0	31	102	1048576	60	16940
2026-01-05 19:00:13.93	20.71	3.32	-45.8	-48.1	11.4	4.23e-03	0	31	102	1048576	60	12557
2026-01-05 19:00:14.94	20.71	3.39	-44.7	-46.5	13.3	3.31e-05	0	31	102	1048576	60	10367
2026-01-05 19:00:15.95	20.72	3.46	-44.0	-45.6	14.3	2.20e-06	0	31	102	1048576	60	9362
2026-01-05 19:00:16.96	20.72	3.52	-42.8	-44.1	15.9	0.00e+00	0	31	102	1048576	60	7904
2026-01-05 19:00:17.97	20.73	3.59	-42.3	-43.5	16.4	0.00e+00	0	31	102	1048576	60	7352
2026-01-05 19:00:18.98	20.73	3.66	-42.1	-43.2	16.8	0.00e+00	0	31	102	1048576	60	7131
2026-01-05 19:00:19.99	20.74	3.73	-41.4	-42.5	17.5	0.00e+00	0	31	102	1048576	60	6549
2026-01-05 19:00:21.01	20.74	3.80	-42.2	-43.4	16.4	0.00e+00	0	31	102	1048576	60	7266
2026-01-05 19:00:22.02	20.75	3.87	-42.6	-43.8	15.9	0.00e+00	0	31	102	1048576	60	7668
2026-01-05 19:00:23.03	20.75	3.93	-43.3	-44.7	15.1	0.00e+00	0	31	102	1048576	60	8468
2026-01-05 19:00:24.04	20.76	4.00	-44.4	-46.1	13.6	1.48e-05	0	31	102	1048576	60	9991
2026-01-05 19:00:25.05	20.76	4.07	-45.9	-48.2	11.3	6.98e-04	0	31	102	1048576	60	12669
2026-01-05 19:00:26.06	20.77	4.14	-39.0	-39.8	20.2	0.00e+00	0	31	102	1048576	58	5389
2026-01-05 19:00:27.07	20.77	4.21	-40.1	-40.9	18.7	0.00e+00	0	31	102	1048576	56	6922
2026-01-05 19:00:28.08	20.78	4.28	-49.3	-59.1	3.6	5.95e-01	0	31	104	1048576	60	44547
2026-01-05 19:00:29.09	20.78	4.35	-38.0	-38.7	21.2	6.75e-05	0	31	0	1048576	56	5348
2026-01-05 19:00:30.11	20.79	4.42	-48.9	-57.6	3.7	5.44e-01	0	31	104	1048576	60	37406
2026-01-05 19:00:31.12	20.79	4.49	-38.1	-38.7	21.5	3.96e-03	0	31	0	1048576	56	5355
2026-01-05 19:00:32.13	20.80	4.56	-37.3	-38.0	21.8	0.00e+00	0	31	0	1048576	54	5503
2026-01-05 19:00:33.14	20.80	4.63	-37.3	-38.0	21.9	0.00e+00	0	31	0	1048576	54	5513
2026-01-05 19:00:34.15	20.81	4.70	-36.6	-37.2	22.7	0.00e+00	0	31	0	1048576	52	5647
2026-01-05 19:00:35.16	20.81	4.78	-36.5	-37.1	22.8	0.00e+00	0	31	0	1048576	52	5626
2026-01-05 19:00:36.18	20.82	4.85	-36.6	-37.2	22.7	0.00e+00	0	31	101	1048576	52	5693
2026-01-05 19:00:37.19	20.82	4.92	-36.6	-37.2	22.6	0.00e+00	0	31	101	1048576	52	5683
2026-01-05 19:00:38.20	20.83	4.99	-36.7	-37.3	22.6	0.00e+00	0	31	101	1048576	52	5758
2026-01-05 19:00:39.21	20.83	5.06	-36.4	-37.0	22.9	0.00e+00	0	31	101	1048576	52	5512
2026-01-05 19:00:40.22	20.84	5.14	-36.5	-37.0	22.9	0.00e+00	0	31	101	1048576	52	5564
2026-01-05 19:00:41.23	20.84	5.21	-36.4	-37.0	22.9	0.00e+00	0	31	101	1048576	52	5522
2026-01-05 19:00:42.24	20.85	5.28	-36.5	-37.1	22.9	0.00e+00	0	31	101	1048576	52	5598
2026-01-05 19:00:43.26	20.85	5.35	-36.4	-37.0	23.0	0.00e+00	0	31	101	1048576	52	5552
2026-01-05 19:00:44.27	20.86	5.43	-36.1	-36.7	23.2	0.00e+00	0	31	101	1048576	52	5316
2026-01-05 19:00:45.28	20.86	5.50	-36.3	-36.9	23.0	0.00e+00	0	31	101	1048576	52	5483
2026-01-05 19:00:46.29	20.87	5.57	-36.5	-37.1	22.9	0.00e+00	0	31	101	1048576	52	5611
2026-01-05 19:00:47.30	20.87	5.65	-36.5	-37.1	22.8	0.00e+00	0	31	101	1048576	52	5589
2026-01-05 19:00:48.31	20.88	5.72	-36.5	-37.2	22.8	0.00e+00	0	31	101	1048576	52	5631
2026-01-05 19:00:49.32	20.88	5.79	-36.2	-36.7	23.3	0.00e+00	0	31	101	1048576	52	5366
2026-01-05 19:00:50.34	20.89	5.87	-36.2	-36.8	23.1	0.00e+00	0	31	101	1048576	50	6071
2026-01-05 19:00:51.35	20.89	5.94	-36.2	-36.8	23.2	0.00e+00	0	31	101	1048576	50	6063
2026-01-05 19:00:52.36	20.90	6.02	-36.1	-36.7	23.2	0.00e+00	0	31	101	1048576	50	6020
2026-01-05 19:00:53.37	20.90	6.09	-36.1	-36.7	23.2	0.00e+00	0	31	101	1048576	50	6013
2026-01-05 19:00:54.38	20.91	6.17	-36.2	-36.8	23.2	0.00e+00	0	31	101	1048576	50	6090
2026-01-05 19:00:55.39	20.91	6.24	-36.2	-36.8	23.2	0.00e+00	0	31	101	1048576	50	6040
2026-01-05 19:00:56.40	20.92	6.32	-36.3	-36.9	23.2	0.00e+00	0	31	101	1048576	50	6112
2026-01-05 19:00:57.42	20.92	6.39	-36.3	-36.9	23.3	0.00e+00	0	31	101	1048576	50	6109
2026-01-05 19:00:58.43	20.93	6.47	-36.3	-36.9	23.2	0.00e+00	0	31	101	1048576	50	6104
2026-01-05 19:00:59.44	20.93	6.55	-36.5	-37.1	23.0	0.00e+00	0	31	101	1048576	50	6259
2026-01-05 19:01:00.45	20.94	6.62	-36.1	-36.6	23.4	0.00e+00	0	31	101	1048576	50	5959
2026-01-05 19:01:01.46	20.94	6.70	-36.0	-36.5	23.5	0.00e+00	0	31	101	1048576	50	5886
2026-01-05 19:01:02.47	20.95	6.77	-36.0	-36.6	23.3	0.00e+00	0	31	101	1048576	50	5939
2026-01-05 19:01:03.48	20.95	6.85	-35.9	-36.5	23.7	0.00e+00	0	31	101	1048576	50	5832
2026-01-05 19:01:04.49	20.96	6.93	-35.7	-36.2	23.9	0.00e+00	0	31	101	1048576	50	5686
2026-01-05 19:01:05.50	20.96	7.01	-35.9	-36.5	23.7	0.00e+00	0	31	101	1048576	50	5833
2026-01-05 19:01:06.51	20.97	7.08	-36.0	-36.6	23.5	0.00e+00	0	31	101	1048576	50	5917
2026-01-05 19:01:07.52	20.98	7.16	-35.7	-36.3	23.8	0.00e+00	0	31	101	1048576	50	5714
2026-01-05 19:01:08.53	20.98	7.24	-35.8	-36.4	23.7	0.00e+00	0	31	101	1048576	50	5799
2026-01-05 19:01:09.55	20.99	7.32	-35.6	-36.2	23.9	0.00e+00	0	31	101	1048576	50	5644
2026-01-05 19:01:10.56	20.99	7.40	-35.9	-36.4	23.8	0.00e+00	0	31	101	1048576	50	5820
2026-01-05 19:01:11.57	21.00	7.48	-35.6	-36.2	24.0	0.00e+00	0	31	101	1048576	50	5633
2026-01-05 19:01:12.58	21.00	7.56	-35.7	-36.2	23.9	0.00e+00	0	31	101	1048576	50	5680
2026-01-05 19:01:13.59	21.01	7.63	-35.6	-36.2	23.9	0.00e+00	0	31	101	1048576	50	5653
2026-01-05 19:01:14.60	21.01	7.71	-35.7	-36.2	23.8	0.00e+00	0	31	101	1048576	50	5690
2026-01-05 19:01:15.61	21.02	7.79	-35.7	-36.3	23.9	0.00e+00	0	31	101	1048576	50	5712
2026-01-05 19:01:16.63	21.02	7.88	-35.6	-36.1	24.0	0.00e+00	0	31	101	1048576	50	5630
2026-01-05 19:01:17.64	21.03	7.96	-35.5	-36.1	23.9	0.00e+00	0	31	101	1048576	50	5585
2026-01-05 19:01:18.65	21.03	8.04	-35.6	-36.1	24.1	0.00e+00	0	31	101	1048576	50	5619
2026-01-05 19:01:19.66	21.04	8.12	-35.5	-36.0	24.2	0.00e+00	0	31	101	1048576	50	5550
2026-01-05 19:01:20.67	21.04	8.20	-35.5	-36.1	24.0	0.00e+00	0	31	101	1048576	50	5592
2026-01-05 19:01:21.68	21.05	8.28	-35.4	-35.9	24.3	0.00e+00	0	31	101	1048576	50	5476
2026-01-05 19:01:22.69	21.05	8.36	-35.4	-36.0	24.1	0.00e+00	0	31	101	1048576	50	5532
2026-01-05 19:01:23.70	21.06	8.44	-35.8	-36.4	23.8	0.00e+00	0	31	101	1048576	50	5766
2026-01-05 19:01:24.71	21.06	8.53	-35.8	-36.3	23.9	0.00e+00	0	31	101	1048576	50	5743
2026-01-05 19:01:25.73	21.07	8.61	-35.3	-35.8	24.3	0.00e+00	0	31	101	1048576	50	5432
2026-01-05 19:01:26.74	21.07	8.69	-35.4	-35.9	24.3	0.00e+00	0	31	101	1048576	50	5495
2026-01-05 19:01:27.75	21.08	8.77	-35.4	-36.0	24.2	0.00e+00	0	31	101	1048576	50	5525
2026-01-05 19:01:28.76	21.08	8.86	-35.4	-35.9	24.2	0.00e+00	0	31	101	1048576	50	5498
2026-01-05 19:01:29.77	21.09	8.94	-35.1	-35.6	24.5	0.00e+00	0	31	101	1048576	48	5917
2026-01-05 19:01:30.78	21.09	9.02	-35.2	-35.7	24.6	0.00e+00	0	31	101	1048576	48	5996
2026-01-05 19:01:31.79	21.10	9.11	-35.1	-35.7	24.5	0.00e+00	0	31	101	1048576	48	5977
2026-01-05 19:01:32.80	21.10	9.19	-35.1	-35.6	24.6	0.00e+00	0	31	101	1048576	48	5918
2026-01-05 19:01:33.82	21.11	9.28	-35.0	-35.6	24.6	0.00e+00	0	31	101	1048576	48	5906
2026-01-05 19:01:34.83	21.12	9.36	-34.9	-35.5	24.7	0.00e+00	0	31	101	1048576	48	5846
2026-01-05 19:01:35.84	21.12	9.45	-35.0	-35.5	24.6	0.00e+00	0	31	101	1048576	48	5857
2026-01-05 19:01:36.85	21.13	9.53	-35.1	-35.6	24.6	0.00e+00	0	31	101	1048576	48	5936
2026-01-05 19:01:37.86	21.13	9.62	-35.1	-35.6	24.6	0.00e+00	0	31	101	1048576	48	5916
2026-01-05 19:01:38.87	21.14	9.71	-34.9	-35.4	24.8	0.00e+00	0	31	101	1048576	48	5826
2026-01-05 19:01:39.88	21.14	9.79	-34.8	-35.3	24.9	0.00e+00	0	31	101	1048576	48	5719
2026-01-05 19:01:40.89	21.15	9.88	-35.0	-35.6	24.7	0.00e+00	0	31	101	1048576	48	5900
2026-01-05 19:01:41.90	21.15	9.97	-34.8	-35.3	24.8	0.00e+00	0	31	101	1048576	48	5740
2026-01-05 19:01:42.92	21.16	10.06	-34.7	-35.3	24.9	0.00e+00	0	31	101	1048576	48	5698
2026-01-05 19:01:43.93	21.16	10.14	-34.8	-35.3	25.0	0.00e+00	0	31	101	1048576	48	5736
2026-01-05 19:01:44.94	21.17	10.23	-34.8	-35.4	24.8	0.00e+00	0	31	101	1048576	48	5769
2026-01-05 19:01:45.95	21.17	10.32	-34.8	-35.3	24.9	0.00e+00	0	31	101	1048576	48	5738
2026-01-05 19:01:46.96	21.18	10.41	-34.5	-35.0	25.2	0.00e+00	0	31	101	1048576	48	5509
2026-01-05 19:01:47.97	21.18	10.50	-34.6	-35.2	25.0	0.00e+00	0	31	101	1048576	48	5638
2026-01-05 19:01:48.98	21.19	10.59	-34.5	-35.1	25.1	0.00e+00	0	31	101	1048576	48	5571
2026-01-05 19:01:49.99	21.19	10.68	-34.4	-34.9	25.2	0.00e+00	0	31	101	1048576	48	5469
2026-01-05 19:01:51.00	21.20	10.77	-34.4	-34.9	25.3	0.00e+00	0	31	101	1048576	48	5491
2026-01-05 19:01:52.02	21.21	10.86	-34.5	-35.0	25.2	0.00e+00	0	31	101	1048576	48	5537
2026-01-05 19:01:53.03	21.21	10.95	-34.5	-35.0	25.2	0.00e+00	0	31	101	1048576	48	5535
2026-01-05 19:01:54.04	21.22	11.04	-34.6	-35.1	25.0	0.00e+00	0	31	101	1048576	48	5597
2026-01-05 19:01:55.05	21.22	11.13	-34.3	-34.8	25.4	0.00e+00	0	31	101	1048576	48	5390
2026-01-05 19:01:56.06	21.23	11.22	-34.4	-34.9	25.3	0.00e+00	0	31	101	1048576	48	5479
2026-01-05 19:01:57.07	21.23	11.31	-34.3	-34.9	25.3	0.00e+00	0	31	101	1048576	48	5444
2026-01-05 19:01:58.08	21.24	11.41	-34.4	-34.9	25.3	0.00e+00	0	31	101	1048576	48	5498
2026-01-05 19:01:59.09	21.24	11.50	-34.4	-34.9	25.3	0.00e+00	0	31	101	1048576	48	5485
2026-01-05 19:02:00.10	21.25	11.59	-34.4	-34.9	25.3	0.00e+00	0	31	101	1048576	48	5483
2026-01-05 19:02:01.12	21.25	11.69	-34.4	-34.9	25.3	0.00e+00	0	31	101	1048576	48	5470
2026-01-05 19:02:02.13	21.26	11.78	-34.2	-34.7	25.5	0.00e+00	0	31	101	1048576	48	5364
2026-01-05 19:02:03.14	21.26	11.87	-34.4	-34.9	25.4	0.00e+00	0	31	101	1048576	48	5491
2026-01-05 19:02:04.15	21.27	11.97	-34.6	-35.1	25.3	0.00e+00	0	31	101	1048576	48	5584
2026-01-05 19:02:05.16	21.28	12.06	-34.3	-34.8	25.5	0.00e+00	0	31	101	1048576	48	5427
2026-01-05 19:02:06.17	21.28	12.16	-34.5	-35.0	25.2	0.00e+00	0	31	101	1048576	48	5541
2026-01-05 19:02:07.18	21.29	12.25	-34.6	-35.1	25.2	0.00e+00	0	31	101	1048576	48	5599
2026-01-05 19:02:08.19	21.29	12.35	-34.3	-34.8	25.5	0.00e+00	0	31	101	1048576	48	5386
2026-01-05 19:02:09.21	21.30	12.45	-34.0	-34.5	25.7	0.00e+00	0	31	101	1048576	46	5839
2026-01-05 19:02:10.22	21.30	12.54	-34.1	-34.6	25.7	0.00e+00	0	31	101	1048576	46	5907
2026-01-05 19:02:11.23	21.31	12.64	-34.0	-34.5	25.6	0.00e+00	0	31	101	1048576	46	5896
2026-01-05 19:02:12.24	21.31	12.74	-34.2	-34.7	25.5	0.00e+00	0	32	101	1048576	46	6033
2026-01-05 19:02:13.25	21.32	12.84	-34.1	-34.5	25.7	0.00e+00	0	31	101	1048576	46	5894
2026-01-05 19:02:14.26	21.32	12.93	-34.0	-34.5	25.7	0.00e+00	0	31	101	1048576	46	5880
2026-01-05 19:02:15.27	21.33	13.03	-33.8	-34.3	25.9	0.00e+00	0	31	101	1048576	46	5747
2026-01-05 19:02:16.28	21.34	13.13	-33.9	-34.4	25.9	0.00e+00	0	31	101	1048576	46	5783
2026-01-05 19:02:17.29	21.34	13.23	-33.9	-34.4	25.8	0.00e+00	0	31	101	1048576	46	5825
2026-01-05 19:02:18.31	21.35	13.33	-33.7	-34.2	25.9	0.00e+00	0	31	101	1048576	46	5638
2026-01-05 19:02:19.32	21.35	13.43	-33.9	-34.3	25.9	0.00e+00	0	31	101	1048576	46	5761
2026-01-05 19:02:20.33	21.36	13.53	-33.7	-34.2	25.9	0.00e+00	0	31	101	1048576	46	5692
2026-01-05 19:02:21.34	21.36	13.63	-33.9	-34.4	25.9	0.00e+00	0	31	101	1048576	46	5798
2026-01-05 19:02:22.35	21.37	13.74	-33.6	-34.1	26.1	0.00e+00	0	31	101	1048576	46	5584
2026-01-05 19:02:23.36	21.37	13.84	-33.6	-34.1	26.1	0.00e+00	0	31	101	1048576	46	5601
2026-01-05 19:02:24.37	21.38	13.94	-33.9	-34.4	25.8	0.00e+00	0	32	101	1048576	46	5795
2026-01-05 19:02:25.38	21.39	14.04	-33.5	-34.0	26.1	0.00e+00	0	31	101	1048576	46	5528
2026-01-05 19:02:26.40	21.39	14.15	-33.7	-34.2	26.0	0.00e+00	0	31	101	1048576	46	5660
2026-01-05 19:02:27.41	21.40	14.25	-33.3	-33.8	26.4	0.00e+00	0	31	101	1048576	46	5409
2026-01-05 19:02:28.42	21.40	14.36	-33.5	-34.0	26.2	0.00e+00	0	31	101	1048576	46	5536
2026-01-05 19:02:29.43	21.41	14.46	-33.4	-33.9	26.2	0.00e+00	0	31	101	1048576	46	5474
2026-01-05 19:02:30.44	21.41	14.57	-33.4	-33.9	26.3	0.00e+00	0	31	101	1048576	46	5454
2026-01-05 19:02:31.45	21.42	14.67	-33.4	-33.9	26.4	0.00e+00	0	31	101	1048576	46	5444
2026-01-05 19:02:32.46	21.42	14.78	-33.4	-33.9	26.4	0.00e+00	0	31	101	1048576	46	5465
2026-01-05 19:02:33.47	21.43	14.88	-33.3	-33.8	26.4	0.00e+00	0	31	101	1048576	46	5424
2026-01-05 19:02:34.48	21.44	14.99	-33.4	-33.9	26.3	0.00e+00	0	31	101	1048576	46	5485
2026-01-05 19:02:35.50	21.44	15.10	-33.2	-33.7	26.5	0.00e+00	0	31	101	1048576	46	5334
2026-01-05 19:02:36.51	21.45	15.21	-33.2	-33.7	26.4	0.00e+00	0	31	101	1048576	46	5363
2026-01-05 19:02:37.52	21.45	15.32	-33.2	-33.7	26.4	0.00e+00	0	32	101	1048576	44	6009
2026-01-05 19:02:38.53	21.46	15.42	-33.4	-33.9	26.4	0.00e+00	0	31	101	1048576	44	6138
2026-01-05 19:02:39.54	21.46	15.53	-33.1	-33.6	26.5	0.00e+00	0	31	101	1048576	44	5939
2026-01-05 19:02:40.55	21.47	15.64	-33.2	-33.7	26.5	0.00e+00	0	31	101	1048576	44	5983
2026-01-05 19:02:41.56	21.48	15.75	-33.2	-33.7	26.4	0.00e+00	0	31	101	1048576	44	5973
2026-01-05 19:02:42.58	21.48	15.87	-33.2	-33.7	26.5	0.00e+00	0	32	101	1048576	44	5996
2026-01-05 19:02:43.59	21.49	15.98	-33.2	-33.7	26.4	0.00e+00	0	31	101	1048576	44	5983
2026-01-05 19:02:44.60	21.49	16.09	-33.3	-33.8	26.4	0.00e+00	0	31	101	1048576	44	6045
2026-01-05 19:02:45.61	21.50	16.20	-33.1	-33.6	26.5	0.00e+00	0	31	101	1048576	44	5957
2026-01-05 19:02:46.62	21.50	16.31	-33.2	-33.6	26.4	0.00e+00	0	31	101	1048576	44	5955
2026-01-05 19:02:47.63	21.51	16.43	-33.3	-33.8	26.5	0.00e+00	0	31	101	1048576	44	6085
2026-01-05 19:02:48.65	21.52	16.54	-33.3	-33.8	26.5	0.00e+00	0	31	101	1048576	44	6071
2026-01-05 19:02:49.66	21.52	16.66	-33.1	-33.5	26.6	0.00e+00	0	31	101	1048576	44	5892
2026-01-05 19:02:50.67	21.53	16.77	-33.3	-33.8	26.4	0.00e+00	0	31	101	1048576	44	6045
2026-01-05 19:02:51.68	21.53	16.89	-33.5	-34.0	26.3	0.00e+00	0	31	101	1048576	44	6210
2026-01-05 19:02:52.69	21.54	17.01	-33.2	-33.7	26.4	0.00e+00	0	31	101	1048576	44	5965
2026-01-05 19:02:53.70	21.55	17.12	-33.1	-33.6	26.7	0.00e+00	0	31	101	1048576	44	5904
2026-01-05 19:02:54.71	21.55	17.24	-33.2	-33.7	26.5	0.00e+00	0	31	101	1048576	44	6006
2026-01-05 19:02:55.72	21.56	17.36	-33.1	-33.6	26.6	0.00e+00	0	31	101	1048576	44	5922
2026-01-05 19:02:56.73	21.56	17.48	-33.2	-33.7	26.5	0.00e+00	0	31	101	1048576	44	6010
2026-01-05 19:02:57.75	21.57	17.60	-33.1	-33.5	26.7	0.00e+00	0	31	101	1048576	44	5891
2026-01-05 19:02:58.76	21.58	17.72	-33.1	-33.6	26.6	0.00e+00	0	31	101	1048576	44	5950
2026-01-05 19:02:59.77	21.58	17.84	-32.9	-33.4	26.8	0.00e+00	0	32	101	1048576	44	5772
2026-01-05 19:03:00.78	21.59	17.96	-33.1	-33.6	26.6	0.00e+00	0	31	101	1048576	44	5908
2026-01-05 19:03:01.79	21.59	18.08	-33.0	-33.5	26.7	0.00e+00	0	31	101	1048576	44	5888
2026-01-05 19:03:02.80	21.60	18.20	-33.1	-33.6	26.6	0.00e+00	0	31	101	1048576	44	5944
2026-01-05 19:03:03.81	21.61	18.32	-32.9	-33.3	26.7	0.00e+00	0	31	101	1048576	44	5761
2026-01-05 19:03:04.82	21.61	18.45	-32.8	-33.3	26.9	0.00e+00	0	31	101	1048576	44	5733
2026-01-05 19:03:05.83	21.62	18.57	-32.8	-33.3	26.8	0.00e+00	0	31	101	1048576	44	5720
2026-01-05 19:03:06.84	21.62	18.69	-32.8	-33.3	26.9	0.00e+00	0	31	101	1048576	44	5752
2026-01-05 19:03:07.86	21.63	18.82	-32.8	-33.3	26.9	0.00e+00	0	31	101	1048576	44	5703
2026-01-05 19:03:08.87	21.64	18.95	-32.7	-33.2	27.0	0.00e+00	0	31	101	1048576	44	5676
2026-01-05 19:03:09.88	21.64	19.07	-32.7	-33.2	26.9	0.00e+00	0	31	101	1048576	44	5666
2026-01-05 19:03:10.89	21.65	19.20	-32.8	-33.3	26.8	0.00e+00	0	31	101	1048576	44	5743
2026-01-05 19:03:11.90	21.65	19.33	-32.8	-33.3	26.9	0.00e+00	0	31	101	1048576	44	5717
2026-01-05 19:03:12.91	21.66	19.46	-32.6	-33.1	27.0	0.00e+00	0	31	101	1048576	44	5595
2026-01-05 19:03:13.92	21.67	19.58	-32.4	-32.8	27.2	0.00e+00	0	31	101	1048576	44	5435
2026-01-05 19:03:14.93	21.67	19.71	-32.4	-32.9	27.2	0.00e+00	0	31	101	1048576	44	5479
2026-01-05 19:03:15.94	21.68	19.84	-32.5	-33.0	27.1	0.00e+00	0	31	101	1048576	44	5535
2026-01-05 19:03:16.96	21.68	19.98	-32.5	-33.0	27.1	0.00e+00	0	32	101	1048576	44	5538
2026-01-05 19:03:17.97	21.69	20.11	-32.6	-33.0	27.1	0.00e+00	0	31	101	1048576	44	5555
2026-01-05 19:03:18.98	21.70	20.24	-32.5	-33.0	27.2	0.00e+00	0	31	101	1048576	44	5547
2026-01-05 19:03:19.99	21.70	20.37	-32.7	-33.2	26.9	0.00e+00	0	31	101	1048576	44	5654
2026-01-05 19:03:21.00	21.71	20.51	-32.5	-33.0	27.1	0.00e+00	0	31	101	1048576	44	5537
2026-01-05 19:03:22.01	21.72	20.64	-32.6	-33.1	27.0	0.00e+00	0	32	101	1048576	44	5582
2026-01-05 19:03:23.02	21.72	20.78	-32.5	-33.0	27.3	0.00e+00	0	31	101	1048576	44	5538
2026-01-05 19:03:24.04	21.73	20.92	-32.3	-32.8	27.2	0.00e+00	0	32	101	1048576	44	5426
2026-01-05 19:03:25.05	21.73	21.05	-32.2	-32.6	27.3	0.00e+00	0	31	101	1048576	44	5315
2026-01-05 19:03:26.06	21.74	21.19	-32.1	-32.6	27.5	0.00e+00	0	31	101	1048576	44	5262
2026-01-05 19:03:27.07	21.75	21.33	-32.3	-32.7	27.3	0.00e+00	0	32	101	1048576	44	5373
2026-01-05 19:03:28.08	21.75	21.47	-32.1	-32.5	27.4	0.00e+00	0	31	101	1048576	44	5243
2026-01-05 19:03:29.09	21.76	21.61	-32.1	-32.6	27.4	0.00e+00	0	31	101	1048576	44	5272
2026-01-05 19:03:30.10	21.77	21.75	-32.0	-32.5	27.5	0.00e+00	0	32	101	1048576	42	5871
2026-01-05 19:03:31.12	21.77	21.89	-31.9	-32.4	27.6	0.00e+00	0	32	101	1048576	42	5795
2026-01-05 19:03:32.13	21.78	22.03	-32.0	-32.5	27.5	0.00e+00	0	32	101	1048576	42	5850
2026-01-05 19:03:33.14	21.79	22.18	-32.0	-32.5	27.6	0.00e+00	0	32	101	1048576	42	5856
2026-01-05 19:03:34.15	21.79	22.32	-31.9	-32.3	27.7	0.00e+00	0	32	101	1048576	42	5757
2026-01-05 19:03:35.16	21.80	22.46	-32.1	-32.5	27.5	0.00e+00	0	32	101	1048576	42	5884
2026-01-05 19:03:36.17	21.81	22.61	-32.0	-32.5	27.6	0.00e+00	0	32	101	1048576	42	5838
2026-01-05 19:03:37.18	21.81	22.76	-32.0	-32.5	27.6	0.00e+00	0	32	101	1048576	42	5843
2026-01-05 19:03:38.20	21.82	22.90	-31.9	-32.4	27.6	0.00e+00	0	31	101	1048576	42	5786
2026-01-05 19:03:39.21	21.83	23.05	-32.3	-32.7	27.5	0.00e+00	0	32	101	1048576	42	6033
2026-01-05 19:03:40.22	21.83	23.20	-32.1	-32.6	27.5	0.00e+00	0	32	101	1048576	42	5912
2026-01-05 19:03:41.23	21.84	23.35	-32.2	-32.7	27.4	0.00e+00	0	32	101	1048576	42	6014
2026-01-05 19:03:42.24	21.85	23.50	-32.1	-32.6	27.5	0.00e+00	0	32	101	1048576	42	5916
2026-01-05 19:03:43.25	21.85	23.65	-31.9	-32.4	27.7	0.00e+00	0	31	101	1048576	42	5775
2026-01-05 19:03:44.26	21.86	23.81	-31.9	-32.4	27.6	0.00e+00	0	32	101	1048576	42	5777
2026-01-05 19:03:45.28	21.87	23.96	-31.9	-32.3	27.8	0.00e+00	0	31	101	1048576	42	5750
2026-01-05 19:03:46.29	21.87	24.12	-31.9	-32.4	27.5	0.00e+00	0	31	101	1048576	42	5807
2026-01-05 19:03:47.30	21.88	24.27	-32.0	-32.5	27.7	0.00e+00	0	32	101	1048576	42	5865
2026-01-05 19:03:48.31	21.89	24.43	-32.0	-32.4	27.7	0.00e+00	0	32	101	1048576	42	5816
2026-01-05 19:03:49.32	21.89	24.58	-32.0	-32.5	27.7	0.00e+00	0	32	101	1048576	42	5831
2026-01-05 19:03:50.33	21.90	24.74	-31.9	-32.4	27.7	0.00e+00	0	32	101	1048576	42	5794
2026-01-05 19:03:51.34	21.91	24.90	-31.8	-32.3	27.7	0.00e+00	0	31	101	1048576	42	5719
2026-01-05 19:03:52.35	21.91	25.06	-31.8	-32.3	27.8	0.00e+00	0	31	101	1048576	42	5741
2026-01-05 19:03:53.37	21.92	25.22	-31.8	-32.3	27.8	0.00e+00	0	32	101	1048576	42	5711
2026-01-05 19:03:54.38	21.93	25.38	-31.8	-32.3	27.9	0.00e+00	0	31	101	1048576	42	5700
2026-01-05 19:03:55.39	21.94	25.55	-31.8	-32.3	27.8	0.00e+00	0	32	101	1048576	42	5725
2026-01-05 19:03:56.40	21.94	25.71	-31.9	-32.3	27.7	0.00e+00	0	32	101	1048576	42	5740
2026-01-05 19:03:57.41	21.95	25.88	-32.0	-32.5	27.6	0.00e+00	0	32	101	1048576	42	5838
2026-01-05 19:03:58.42	21.96	26.04	-31.9	-32.4	27.8	0.00e+00	0	32	101	1048576	42	5776
2026-01-05 19:03:59.43	21.96	26.21	-31.8	-32.3	27.8	0.00e+00	0	32	101	1048576	42	5722
2026-01-05 19:04:00.44	21.97	26.38	-31.8	-32.3	27.7	0.00e+00	0	31	101	1048576	42	5711
2026-01-05 19:04:01.45	21.98	26.55	-31.8	-32.3	27.8	0.00e+00	0	32	101	1048576	42	5740
2026-01-05 19:04:02.46	21.99	26.72	-31.8	-32.3	27.7	0.00e+00	0	31	101	1048576	42	5735
2026-01-05 19:04:03.47	21.99	26.89	-31.9	-32.4	27.7	0.00e+00	0	32	101	1048576	42	5776
2026-01-05 19:04:04.48	22.00	27.06	-31.7	-32.2	27.8	0.00e+00	0	31	101	1048576	42	5659
2026-01-05 19:04:05.50	22.01	27.23	-31.6	-32.1	28.0	0.00e+00	0	31	101	1048576	42	5570
2026-01-05 19:04:06.51	22.02	27.41	-31.5	-31.9	28.0	0.00e+00	0	31	101	1048576	42	5487
2026-01-05 19:04:07.52	22.02	27.59	-31.5	-31.9	28.0	0.00e+00	0	32	101	1048576	42	5485
2026-01-05 19:04:08.53	22.03	27.76	-31.4	-31.9	28.1	0.00e+00	0	32	101	1048576	42	5459
2026-01-05 19:04:09.54	22.04	27.94	-31.4	-31.9	28.0	0.00e+00	0	31	101	1048576	42	5452
2026-01-05 19:04:10.55	22.05	28.12	-31.3	-31.7	28.2	0.00e+00	0	32	101	1048576	42	5365
2026-01-05 19:04:11.56	22.05	28.30	-31.4	-31.9	28.1	0.00e+00	0	32	101	1048576	42	5455
2026-01-05 19:04:12.57	22.06	28.48	-31.5	-32.0	28.0	0.00e+00	0	32	101	1048576	42	5537
2026-01-05 19:04:13.58	22.07	28.66	-31.4	-31.8	28.0	0.00e+00	0	32	101	1048576	42	5431
2026-01-05 19:04:14.59	22.08	28.85	-31.5	-32.0	28.0	0.00e+00	0	32	101	1048576	42	5517
2026-01-05 19:04:15.60	22.08	29.03	-31.7	-32.1	27.9	0.00e+00	0	32	101	1048576	42	5619
2026-01-05 19:04:16.61	22.09	29.22	-31.2	-31.7	28.2	0.00e+00	0	32	101	1048576	42	5330
2026-01-05 19:04:17.63	22.10	29.41	-31.5	-31.9	28.0	0.00e+00	0	32	101	1048576	42	5499
2026-01-05 19:04:18.64	22.11	29.60	-31.5	-32.0	28.0	0.00e+00	0	32	101	1048576	42	5504
2026-01-05 19:04:19.65	22.12	29.79	-31.4	-31.9	28.1	0.00e+00	0	32	101	1048576	42	5445
2026-01-05 19:04:20.66	22.12	29.98	-31.5	-32.0	28.1	0.00e+00	0	32	101	1048576	42	5513
2026-01-05 19:04:21.67	22.13	30.17	-31.6	-32.1	28.0	0.00e+00	0	32	101	1048576	42	5603
2026-01-05 19:04:22.68	22.14	30.36	-31.2	-31.7	28.3	0.00e+00	0	32	101	1048576	42	5351
2026-01-05 19:04:23.69	22.15	30.56	-31.5	-31.9	28.0	0.00e+00	0	32	101	1048576	42	5486
2026-01-05 19:04:24.70	22.16	30.76	-31.4	-31.9	28.2	0.00e+00	0	32	101	1048576	42	5451
2026-01-05 19:04:25.71	22.16	30.95	-31.3	-31.7	28.2	0.00e+00	0	32	101	1048576	42	5373
2026-01-05 19:04:26.72	22.17	31.15	-31.3	-31.7	28.2	0.00e+00	0	32	101	1048576	42	5369
2026-01-05 19:04:27.74	22.18	31.36	-31.3	-31.8	28.2	0.00e+00	0	31	101	1048576	42	5415
2026-01-05 19:04:28.75	22.19	31.56	-31.3	-31.8	28.2	0.00e+00	0	31	101	1048576	42	5397
2026-01-05 19:04:29.76	22.20	31.76	-31.2	-31.7	28.3	0.00e+00	0	31	101	1048576	42	5359
2026-01-05 19:04:30.77	22.21	31.97	-31.3	-31.7	28.2	0.00e+00	0	31	101	1048576	42	5365
2026-01-05 19:04:31.78	22.21	32.17	-31.2	-31.6	28.3	0.00e+00	0	31	101	1048576	42	5312
2026-01-05 19:04:32.79	22.22	32.38	-31.1	-31.6	28.3	0.00e+00	0	31	101	1048576	42	5283
2026-01-05 19:04:33.81	22.23	32.59	-31.2	-31.6	28.2	0.00e+00	0	31	101	1048576	42	5296
2026-01-05 19:04:34.82	22.24	32.80	-31.3	-31.7	28.3	0.00e+00	0	31	101	1048576	42	5362
2026-01-05 19:04:35.83	22.25	33.02	-31.1	-31.6	28.3	0.00e+00	0	32	101	1048576	42	5291
2026-01-05 19:04:36.84	22.26	33.23	-31.2	-31.7	28.3	0.00e+00	0	31	101	1048576	42	5334
2026-01-05 19:04:37.85	22.27	33.44	-31.2	-31.7	28.3	0.00e+00	0	31	101	1048576	40	5971
2026-01-05 19:04:38.86	22.28	33.66	-31.1	-31.6	28.3	0.00e+00	0	31	101	1048576	40	5931
2026-01-05 19:04:39.87	22.28	33.88	-31.4	-31.9	28.1	0.00e+00	0	31	101	1048576	40	6121
2026-01-05 19:04:40.88	22.29	34.10	-31.3	-31.7	28.2	0.00e+00	0	31	101	1048576	40	6008
2026-01-05 19:04:41.90	22.30	34.32	-31.0	-31.5	28.2	0.00e+00	0	32	101	1048576	40	5871
2026-01-05 19:04:42.91	22.31	34.55	-31.0	-31.5	28.4	0.00e+00	0	32	101	1048576	40	5865
2026-01-05 19:04:43.92	22.32	34.77	-31.2	-31.6	28.3	0.00e+00	0	32	101	1048576	40	5959
2026-01-05 19:04:44.93	22.33	35.00	-31.1	-31.5	28.3	0.00e+00	0	32	101	1048576	40	5894
2026-01-05 19:04:45.94	22.34	35.23	-31.3	-31.7	28.2	0.00e+00	0	32	101	1048576	40	6015
2026-01-05 19:04:46.95	22.35	35.46	-31.3	-31.8	28.2	0.00e+00	0	31	101	1048576	40	6083
2026-01-05 19:04:47.96	22.36	35.69	-31.3	-31.8	28.2	0.00e+00	0	32	101	1048576	40	6034
2026-01-05 19:04:48.97	22.37	35.92	-31.2	-31.7	28.2	0.00e+00	0	32	101	1048576	40	5990
2026-01-05 19:04:49.98	22.38	36.15	-31.4	-31.9	28.1	0.00e+00	0	31	101	1048576	40	6120
2026-01-05 19:04:50.99	22.39	36.39	-31.3	-31.8	28.2	0.00e+00	0	32	101	1048576	40	6059
2026-01-05 19:04:52.01	22.40	36.63	-31.5	-32.0	28.1	0.00e+00	0	31	101	1048576	40	6178
2026-01-05 19:04:53.02	22.41	36.87	-31.3	-31.7	28.3	0.00e+00	0	31	101	1048576	40	6020
2026-01-05 19:04:54.03	22.42	37.11	-31.1	-31.6	28.3	0.00e+00	0	31	101	1048576	40	5927
2026-01-05 19:04:55.04	22.43	37.36	-31.2	-31.7	28.2	0.00e+00	0	31	101	1048576	40	6005
2026-01-05 19:04:56.05	22.44	37.60	-31.0	-31.4	28.4	0.00e+00	0	32	101	1048576	40	5812
2026-01-05 19:04:57.06	22.45	37.85	-30.9	-31.4	28.5	0.00e+00	0	32	101	1048576	40	5794
2026-01-05 19:04:58.07	22.46	38.10	-30.9	-31.4	28.5	0.00e+00	0	32	101	1048576	40	5795
2026-01-05 19:04:59.08	22.47	38.35	-31.1	-31.6	28.3	0.00e+00	0	32	101	1048576	40	5922
2026-01-05 19:05:00.09	22.48	38.60	-31.2	-31.7	28.3	0.00e+00	0	32	101	1048576	40	5993
2026-01-05 19:05:01.10	22.49	38.86	-31.3	-31.7	28.2	0.00e+00	0	32	101	1048576	40	6027
2026-01-05 19:05:02.12	22.50	39.12	-31.0	-31.5	28.4	0.00e+00	0	32	101	1048576	40	5866
2026-01-05 19:05:03.13	22.51	39.37	-31.3	-31.7	28.3	0.00e+00	0	32	101	1048576	40	6025
2026-01-05 19:05:04.14	22.53	39.63	-31.3	-31.8	28.2	0.00e+00	0	31	101	1048576	40	6057
2026-01-05 19:05:05.15	22.54	39.90	-31.4	-31.9	28.1	0.00e+00	0	32	101	1048576	40	6132
2026-01-05 19:05:06.16	22.55	40.16	-31.5	-32.0	28.0	0.00e+00	0	31	101	1048576	40	6231
2026-01-05 19:05:07.17	22.56	40.43	-31.6	-32.1	28.0	0.00e+00	0	32	101	1048576	40	6296
2026-01-05 19:05:08.18	22.57	40.70	-31.8	-32.3	27.7	0.00e+00	0	32	101	1048576	40	6440
2026-01-05 19:05:09.19	22.58	40.97	-31.9	-32.4	27.8	0.00e+00	0	31	101	1048576	40	6508
2026-01-05 19:05:10.20	22.60	41.24	-31.9	-32.4	27.8	0.00e+00	0	31	101	1048576	40	6496
2026-01-05 19:05:11.22	22.61	41.52	-31.8	-32.3	27.9	0.00e+00	0	32	101	1048576	40	6423
2026-01-05 19:05:12.23	22.62	41.79	-31.8	-32.2	27.8	0.00e+00	0	32	101	1048576	40	6383
2026-01-05 19:05:13.24	22.63	42.07	-31.7	-32.2	27.8	0.00e+00	0	32	101	1048576	40	6355
2026-01-05 19:05:14.25	22.64	42.35	-31.6	-32.1	28.1	0.00e+00	0	32	101	1048576	40	6251
2026-01-05 19:05:15.26	22.66	42.64	-31.5	-31.9	28.2	0.00e+00	0	32	101	1048576	40	6167
2026-01-05 19:05:16.27	22.67	42.92	-31.6	-32.1	28.1	0.00e+00	0	32	101	1048576	40	6259
2026-01-05 19:05:17.28	22.68	43.21	-31.4	-31.9	28.1	0.00e+00	0	32	101	1048576	40	6120
2026-01-05 19:05:18.29	22.70	43.50	-31.5	-31.9	28.0	0.00e+00	0	32	101	1048576	40	6155
2026-01-05 19:05:19.31	22.71	43.79	-31.3	-31.7	28.3	0.00e+00	0	32	101	1048576	40	6028
2026-01-05 19:05:20.32	22.72	44.09	-31.5	-31.9	28.1	0.00e+00	0	32	101	1048576	40	6167
2026-01-05 19:05:21.33	22.74	44.38	-31.4	-31.9	28.1	0.00e+00	0	32	101	1048576	40	6132
2026-01-05 19:05:22.34	22.75	44.68	-31.5	-32.0	28.1	0.00e+00	0	32	101	1048576	40	6203
2026-01-05 19:05:23.35	22.76	44.98	-31.7	-32.1	28.0	0.00e+00	0	32	101	1048576	40	6307
2026-01-05 19:05:24.36	22.78	45.29	-31.4	-31.9	28.2	0.00e+00	0	31	101	1048576	40	6135
2026-01-05 19:05:25.37	22.79	45.59	-31.5	-32.0	28.1	0.00e+00	0	32	101	1048576	40	6200
2026-01-05 19:05:26.38	22.81	45.90	-31.4	-31.8	28.2	0.00e+00	0	31	101	1048576	40	6074
2026-01-05 19:05:27.39	22.82	46.21	-31.6	-32.1	28.0	0.00e+00	0	31	101	1048576	40	6284
2026-01-05 19:05:28.41	22.84	46.53	-31.7	-32.2	27.9	0.00e+00	0	31	101	1048576	40	6358
2026-01-05 19:05:29.41	22.85	46.84	-31.9	-32.3	27.9	0.00e+00	0	31	101	1048576	40	6446
2026-01-05 19:05:30.43	22.87	47.16	-31.9	-32.4	27.7	0.00e+00	0	32	101	1048576	40	6475
2026-01-05 19:05:31.43	22.88	47.47	-31.9	-32.4	27.7	0.00e+00	0	31	101	1048576	42	5795
2026-01-05 19:05:32.45	22.90	47.80	-32.0	-32.4	27.8	0.00e+00	0	31	101	1048576	42	5815
2026-01-05 19:05:33.46	22.91	48.13	-32.1	-32.5	27.7	0.00e+00	0	32	101	1048576	42	5879
2026-01-05 19:05:34.47	22.93	48.45	-32.2	-32.6	27.6	0.00e+00	0	31	101	1048576	42	5963
2026-01-05 19:05:35.48	22.95	48.78	-32.1	-32.6	27.5	0.00e+00	0	31	101	1048576	42	5932
2026-01-05 19:05:36.49	22.96	49.11	-32.2	-32.7	27.6	0.00e+00	0	32	101	1048576	42	5980
2026-01-05 19:05:37.50	22.98	49.45	-32.2	-32.7	27.5	0.00e+00	0	31	101	1048576	42	6009
2026-01-05 19:05:38.51	23.00	49.79	-32.3	-32.8	27.5	0.00e+00	0	32	101	1048576	42	6067
2026-01-05 19:05:39.52	23.02	50.13	-32.4	-32.8	27.5	0.00e+00	0	31	101	1048576	42	6092
2026-01-05 19:05:40.53	23.03	50.47	-32.5	-32.9	27.4	0.00e+00	0	32	101	1048576	42	6173
2026-01-05 19:05:41.54	23.05	50.81	-32.6	-33.1	27.2	0.00e+00	0	32	101	1048576	42	6290
2026-01-05 19:05:42.55	23.07	51.16	-32.8	-33.2	27.0	0.00e+00	0	32	101	1048576	42	6381
2026-01-05 19:05:43.57	23.09	51.51	-33.1	-33.6	26.8	0.00e+00	0	32	101	1048576	44	5920
2026-01-05 19:05:44.58	23.11	51.87	-33.3	-33.8	26.6	0.00e+00	0	31	101	1048576	44	6103
2026-01-05 19:05:45.59	23.13	52.22	-33.4	-33.9	26.5	0.00e+00	0	31	101	1048576	44	6138
2026-01-05 19:05:46.60	23.15	52.58	-33.1	-33.6	26.8	0.00e+00	0	31	101	1048576	44	5930
2026-01-05 19:05:47.61	23.17	52.94	-32.9	-33.4	27.0	0.00e+00	0	32	101	1048576	44	5768
2026-01-05 19:05:48.62	23.19	53.30	-33.0	-33.5	26.9	0.00e+00	0	32	101	1048576	44	5874
2026-01-05 19:05:49.63	23.21	53.67	-32.8	-33.3	27.0	0.00e+00	0	32	101	1048576	44	5717
2026-01-05 19:05:50.64	23.24	54.04	-32.6	-33.0	27.3	0.00e+00	0	32	101	1048576	44	5552
2026-01-05 19:05:51.65	23.26	54.41	-32.7	-33.2	27.1	0.00e+00	0	32	101	1048576	44	5677
2026-01-05 19:05:52.67	23.28	54.79	-32.5	-33.0	26.9	0.00e+00	0	32	101	1048576	44	5537
2026-01-05 19:05:53.68	23.30	55.16	-32.8	-33.2	27.0	0.00e+00	0	32	101	1048576	44	5684
2026-01-05 19:05:54.69	23.33	55.54	-32.7	-33.2	27.1	0.00e+00	0	31	101	1048576	44	5671
2026-01-05 19:05:55.70	23.35	55.92	-33.0	-33.5	26.9	0.00e+00	0	32	101	1048576	44	5836
2026-01-05 19:05:56.71	23.38	56.31	-32.8	-33.3	26.9	0.00e+00	0	32	101	1048576	44	5738
2026-01-05 19:05:57.72	23.40	56.70	-32.6	-33.1	27.1	0.00e+00	0	32	101	1048576	44	5572
2026-01-05 19:05:58.73	23.43	57.09	-32.4	-32.9	27.2	0.00e+00	0	31	101	1048576	44	5463
2026-01-05 19:05:59.75	23.46	57.48	-32.7	-33.2	27.0	0.00e+00	0	32	101	1048576	44	5671
2026-01-05 19:06:00.76	23.48	57.88	-32.9	-33.4	26.7	0.00e+00	0	31	101	1048576	44	5801
2026-01-05 19:06:01.76	23.51	58.27	-33.1	-33.6	26.8	0.00e+00	0	32	101	1048576	44	5918
2026-01-05 19:06:02.78	23.54	58.68	-33.1	-33.6	26.7	0.00e+00	0	31	101	1048576	44	5933
2026-01-05 19:06:03.79	23.57	59.08	-33.6	-34.1	26.5	0.00e+00	0	31	101	1048576	44	6303
2026-01-05 19:06:04.80	23.60	59.49	-33.5	-34.0	26.5	0.00e+00	0	31	101	1048576	44	6191
2026-01-05 19:06:05.81	23.63	59.90	-33.3	-33.8	26.6	0.00e+00	0	31	101	1048576	44	6069
2026-01-05 19:06:06.82	23.67	60.31	-33.1	-33.6	26.8	0.00e+00	0	31	101	1048576	44	5934
2026-01-05 19:06:07.83	23.70	60.72	-33.1	-33.6	26.9	0.00e+00	0	31	101	1048576	44	5911
2026-01-05 19:06:08.85	23.73	61.14	-32.9	-33.4	27.0	0.00e+00	0	31	101	1048576	44	5800
2026-01-05 19:06:09.86	23.77	61.56	-32.6	-33.1	27.1	0.00e+00	0	31	101	1048576	44	5576
2026-01-05 19:06:10.87	23.81	61.98	-32.6	-33.1	27.1	0.00e+00	0	32	101	1048576	44	5602
2026-01-05 19:06:11.88	23.84	62.41	-32.9	-33.3	27.1	0.00e+00	0	31	101	1048576	44	5756
2026-01-05 19:06:12.89	23.88	62.84	-32.7	-33.1	27.2	0.00e+00	0	32	101	1048576	44	5624
2026-01-05 19:06:13.90	23.92	63.27	-33.0	-33.5	27.0	0.00e+00	0	32	101	1048576	44	5839
2026-01-05 19:06:14.91	23.96	63.70	-32.5	-33.0	27.3	0.00e+00	0	32	101	1048576	44	5505
2026-01-05 19:06:15.92	24.01	64.14	-32.3	-32.8	27.2	0.00e+00	0	32	101	1048576	44	5417
2026-01-05 19:06:16.93	24.05	64.57	-32.3	-32.8	27.4	0.00e+00	0	32	101	1048576	44	5398
2026-01-05 19:06:17.94	24.10	65.02	-32.4	-32.8	27.2	0.00e+00	0	32	101	1048576	44	5437
2026-01-05 19:06:18.96	24.15	65.46	-32.6	-33.0	27.7	0.00e+00	0	32	101	1048576	42	6200
2026-01-05 19:06:19.97	24.19	65.91	-32.4	-32.9	27.3	0.00e+00	0	32	101	1048576	42	6149
2026-01-05 19:06:20.98	24.25	66.36	-32.1	-32.6	27.6	0.00e+00	0	32	101	1048576	42	5916
2026-01-05 19:06:21.99	24.30	66.81	-31.6	-32.1	28.0	0.00e+00	0	32	101	1048576	42	5607
2026-01-05 19:06:23.00	24.35	67.26	-31.1	-31.5	28.3	0.00e+00	0	31	101	1048576	42	5240
2026-01-05 19:06:24.01	24.41	67.72	-31.2	-31.6	28.5	0.00e+00	0	32	101	1048576	40	5931
2026-01-05 19:06:25.02	24.47	68.18	-31.2	-31.6	28.2	0.00e+00	0	32	101	1048576	40	5959
2026-01-05 19:06:26.03	24.54	68.64	-31.3	-31.8	28.2	0.00e+00	0	32	101	1048576	40	6047
2026-01-05 19:06:27.05	24.60	69.10	-31.2	-31.6	28.3	0.00e+00	0	32	101	1048576	40	5946
2026-01-05 19:06:28.06	24.67	69.57	-31.3	-31.8	28.3	0.00e+00	0	31	101	1048576	40	6039
2026-01-05 19:06:29.07	24.74	70.04	-31.0	-31.4	28.4	0.00e+00	0	31	101	1048576	40	5807
2026-01-05 19:06:30.08	24.82	70.51	-32.2	-32.7	27.5	0.00e+00	0	32	101	1048576	42	6020
2026-01-05 19:06:31.09	24.90	70.98	-31.9	-32.4	27.8	0.00e+00	0	31	101	1048576	42	5764
2026-01-05 19:06:32.10	24.98	71.45	-31.6	-32.1	27.9	0.00e+00	0	31	101	1048576	42	5568
2026-01-05 19:06:33.11	25.07	71.93	-31.4	-31.9	28.0	0.00e+00	0	31	101	1048576	42	5474
2026-01-05 19:06:34.12	25.16	72.41	-31.5	-31.9	28.1	0.00e+00	0	32	101	1048576	42	5488
2026-01-05 19:06:35.13	25.26	72.89	-31.5	-32.0	27.9	0.00e+00	0	32	101	1048576	42	5520
2026-01-05 19:06:36.14	25.36	73.37	-31.6	-32.0	28.2	0.00e+00	0	32	101	1048576	42	5550
2026-01-05 19:06:37.16	25.47	73.86	-31.4	-31.9	28.2	0.00e+00	0	32	101	1048576	42	5471
2026-01-05 19:06:38.17	25.59	74.35	-31.6	-32.1	27.9	0.00e+00	0	32	101	1048576	42	5579
2026-01-05 19:06:39.18	25.72	74.84	-31.6	-32.1	27.6	0.00e+00	0	32	101	1048576	42	5606
2026-01-05 19:06:40.19	25.85	75.33	-32.0	-32.5	27.8	0.00e+00	0	32	101	1048576	42	5840
2026-01-05 19:06:41.20	25.99	75.82	-32.0	-32.5	27.6	0.00e+00	0	32	101	1048576	42	5847
2026-01-05 19:06:42.21	26.14	76.31	-31.8	-32.3	27.9	0.00e+00	0	31	101	1048576	42	5700
2026-01-05 19:06:43.22	26.31	76.81	-31.3	-31.7	28.2	0.00e+00	0	31	101	1048576	42	5355
2026-01-05 19:06:44.23	26.48	77.30	-31.0	-31.4	28.4	0.00e+00	0	32	101	1048576	42	5181
2026-01-05 19:06:45.24	26.68	77.80	-31.0	-31.5	28.4	0.00e+00	0	32	101	1048576	40	5831
2026-01-05 19:06:46.25	26.88	78.30	-30.8	-31.2	28.6	0.00e+00	0	31	101	1048576	40	5692
2026-01-05 19:06:47.26	27.11	78.80	-30.6	-31.1	28.7	0.00e+00	0	31	101	1048576	40	5587
2026-01-05 19:06:48.27	27.36	79.30	-30.7	-31.1	28.7	0.00e+00	0	31	101	1048576	40	5615
2026-01-05 19:06:49.28	27.63	79.81	-30.7	-31.2	28.6	0.00e+00	0	31	101	1048576	40	5646
2026-01-05 19:06:50.30	27.94	80.32	-30.7	-31.1	28.6	0.00e+00	0	31	101	1048576	40	5622
2026-01-05 19:06:51.31	28.27	80.82	-30.0	-30.5	29.0	0.00e+00	0	31	101	1048576	40	5211
2026-01-05 19:06:52.32	28.64	81.33	-30.2	-30.7	28.9	0.00e+00	0	31	101	1048576	38	5968
2026-01-05 19:06:53.33	29.06	81.84	-29.9	-30.3	29.1	0.00e+00	0	31	101	1048576	38	5744
2026-01-05 19:06:54.34	29.54	82.34	-29.8	-30.2	29.3	0.00e+00	0	31	101	1048576	38	5684
2026-01-05 19:06:55.35	30.08	82.85	-30.0	-30.4	29.1	0.00e+00	0	31	101	1048576	38	5799
2026-01-05 19:06:56.36	30.71	83.36	-30.0	-30.4	29.1	0.00e+00	0	32	101	1048576	38	5825
2026-01-05 19:06:57.37	31.44	83.87	-30.1	-30.5	29.1	0.00e+00	0	32	101	1048576	38	5895
2026-01-05 19:06:58.38	32.31	84.38	-30.0	-30.4	29.1	0.00e+00	0	32	101	1048576	38	5822
2026-01-05 19:06:59.39	33.35	84.89	-29.8	-30.3	29.1	0.00e+00	0	32	101	1048576	38	5724
2026-01-05 19:07:00.41	34.63	85.40	-29.8	-30.2	29.1	0.00e+00	0	32	101	1048576	38	5675
2026-01-05 19:07:01.42	36.21	85.90	-29.8	-30.3	29.2	0.00e+00	0	32	101	1048576	38	5723
2026-01-05 19:07:02.43	38.23	86.40	-29.9	-30.4	29.2	0.00e+00	0	32	101	1048576	38	5788
2026-01-05 19:07:03.44	40.90	86.90	-30.1	-30.6	29.0	0.00e+00	0	31	101	1048576	38	5900
2026-01-05 19:07:04.45	44.57	87.38	-30.1	-30.5	29.1	0.00e+00	0	31	101	1048576	38	5884
2026-01-05 19:07:05.46	49.89	87.85	-30.1	-30.6	29.0	0.00e+00	0	32	101	1048576	38	5935
2026-01-05 19:07:06.47	58.06	88.30	-30.2	-30.6	28.9	0.00e+00	0	32	101	1048576	38	5947
2026-01-05 19:07:07.48	71.45	88.68	-30.7	-31.1	28.6	0.00e+00	0	32	101	1048576	38	6292
2026-01-05 19:07:08.50	93.63	88.94	-30.5	-31.0	28.8	0.00e+00	0	32	101	1048576	38	6208
2026-01-05 19:07:09.51	122.62	88.98	-30.9	-31.3	28.4	0.00e+00	0	31	101	1048576	38	6460
2026-01-05 19:07:10.52	147.31	88.77	-31.0	-31.5	28.4	0.00e+00	0	31	101	1048576	40	5850
2026-01-05 19:07:11.53	162.89	88.42	-32.0	-32.4	28.3	0.00e+00	0	31	101	1048576	40	6500
2026-01-05 19:07:12.54	172.31	87.99	-32.5	-32.9	28.3	0.00e+00	0	32	101	1048576	40	6923
2026-01-05 19:07:13.55	178.30	87.52	-31.3	-31.7	27.7	0.00e+00	0	32	101	1048576	44	4782
2026-01-05 19:07:14.56	182.38	87.04	-31.9	-32.4	27.1	0.00e+00	0	32	101	1048576	44	5188
2026-01-05 19:07:15.57	185.30	86.55	-31.8	-32.3	27.4	0.00e+00	0	32	101	1048576	44	5101
2026-01-05 19:07:16.59	187.51	86.04	-31.7	-32.2	27.5	0.00e+00	0	32	101	1048576	42	5644
2026-01-05 19:07:17.60	189.20	85.54	-32.0	-32.4	27.5	0.00e+00	0	32	101	1048576	42	5815
2026-01-05 19:07:18.61	190.55	85.03	-31.8	-32.3	27.7	0.00e+00	0	31	101	1048576	42	5751
2026-01-05 19:07:19.62	191.64	84.53	-31.3	-31.7	28.2	0.00e+00	0	32	101	1048576	40	6029
2026-01-05 19:07:20.63	192.55	84.02	-30.6	-31.1	28.3	0.00e+00	0	32	101	1048576	40	5600
2026-01-05 19:07:21.64	193.32	83.51	-30.6	-31.1	28.7	0.00e+00	0	32	101	1048576	40	5576
2026-01-05 19:07:22.65	193.98	83.00	-30.7	-31.2	28.4	0.00e+00	0	32	101	1048576	40	5669
2026-01-05 19:07:23.67	194.55	82.49	-30.8	-31.3	28.5	0.00e+00	0	32	101	1048576	40	5712
2026-01-05 19:07:24.68	195.05	81.98	-30.6	-31.0	28.7	0.00e+00	0	32	101	1048576	40	5539
2026-01-05 19:07:25.69	195.48	81.47	-30.2	-30.6	28.9	0.00e+00	0	31	101	1048576	40	5298
2026-01-05 19:07:26.70	195.87	80.96	-29.8	-30.3	29.2	0.00e+00	0	32	101	1048576	38	5697
2026-01-05 19:07:27.71	196.21	80.46	-29.6	-30.1	29.3	0.00e+00	0	32	101	1048576	38	5590
2026-01-05 19:07:28.72	196.52	79.95	-29.7	-30.1	29.3	0.00e+00	0	31	101	1048576	38	5630
2026-01-05 19:07:29.73	196.80	79.45	-30.0	-30.4	29.1	0.00e+00	0	31	101	1048576	38	5795
2026-01-05 19:07:30.75	197.06	78.94	-29.9	-30.3	29.0	0.00e+00	0	32	101	1048576	38	5749
2026-01-05 19:07:31.76	197.29	78.44	-29.9	-30.4	29.2	0.00e+00	0	31	101	1048576	38	5763
2026-01-05 19:07:32.77	197.51	77.94	-29.7	-30.2	29.3	0.00e+00	0	32	101	1048576	38	5641
2026-01-05 19:07:33.78	197.70	77.44	-29.4	-29.9	29.3	0.00e+00	0	32	101	1048576	38	5440
2026-01-05 19:07:34.79	197.88	76.94	-29.8	-30.2	29.3	0.00e+00	0	32	101	1048576	38	5674
2026-01-05 19:07:35.80	198.05	76.44	-30.0	-30.4	29.0	0.00e+00	0	31	101	1048576	38	5814
2026-01-05 19:07:36.81	198.21	75.95	-29.9	-30.3	29.2	0.00e+00	0	32	101	1048576	38	5746
2026-01-05 19:07:37.83	198.35	75.45	-29.8	-30.3	29.3	0.00e+00	0	32	101	1048576	38	5706
2026-01-05 19:07:38.84	198.49	74.96	-30.0	-30.5	29.1	0.00e+00	0	32	101	1048576	38	5833
2026-01-05 19:07:39.85	198.61	74.47	-30.3	-30.7	28.9	0.00e+00	0	32	101	1048576	38	5999
2026-01-05 19:07:40.86	198.73	73.98	-30.8	-31.2	28.2	0.00e+00	0	32	101	1048576	38	6383
2026-01-05 19:07:41.87	198.84	73.50	-30.9	-31.4	28.5	0.00e+00	0	32	101	1048576	38	6488
2026-01-05 19:07:42.88	198.95	73.01	-31.4	-31.9	28.0	0.00e+00	0	32	101	1048576	40	6113
2026-01-05 19:07:43.89	199.05	72.53	-31.6	-32.1	27.7	0.00e+00	0	32	101	1048576	40	6269
2026-01-05 19:07:44.90	199.14	72.05	-31.6	-32.1	27.9	0.00e+00	0	31	101	1048576	40	6275
2026-01-05 19:07:45.92	199.23	71.57	-31.3	-31.8	28.2	0.00e+00	0	32	101	1048576	40	6065
2026-01-05 19:07:46.93	199.32	71.09	-31.7	-32.1	27.9	0.00e+00	0	32	101	1048576	40	6308
2026-01-05 19:07:47.94	199.40	70.62	-31.8	-32.3	27.8	0.00e+00	0	32	101	1048576	40	6399
2026-01-05 19:07:48.95	199.47	70.15	-31.9	-32.4	27.7	0.00e+00	0	31	101	1048576	40	6493
2026-01-05 19:07:49.96	199.55	69.68	-31.6	-32.1	28.0	0.00e+00	0	32	101	1048576	40	6295
2026-01-05 19:07:50.97	199.62	69.21	-31.6	-32.1	27.9	0.00e+00	0	31	101	1048576	40	6249
2026-01-05 19:07:51.98	199.68	68.75	-31.6	-32.1	28.0	0.00e+00	0	32	101	1048576	40	6267
2026-01-05 19:07:52.99	199.75	68.28	-31.5	-32.0	27.9	0.00e+00	0	32	101	1048576	40	6212
2026-01-05 19:07:54.00	199.81	67.82	-31.5	-32.0	28.0	0.00e+00	0	32	101	1048576	40	6176
2026-01-05 19:07:55.01	199.87	67.37	-31.5	-31.9	28.0	0.00e+00	0	32	101	1048576	40	6160
2026-01-05 19:07:56.03	199.92	66.91	-31.5	-31.9	28.0	0.00e+00	0	32	101	1048576	40	6160
2026-01-05 19:07:57.04	199.98	66.45	-31.2	-31.7	28.2	0.00e+00	0	32	101	1048576	40	6005
2026-01-05 19:07:58.05	200.03	66.00	-31.0	-31.4	28.4	0.00e+00	0	32	101	1048576	40	5811
2026-01-05 19:07:59.06	200.08	65.56	-30.8	-31.2	28.6	0.00e+00	0	32	101	1048576	40	5689
2026-01-05 19:08:00.07	200.13	65.11	-30.9	-31.3	28.5	0.00e+00	0	32	101	1048576	40	5742
2026-01-05 19:08:01.08	200.17	64.67	-31.1	-31.5	28.3	0.00e+00	0	32	101	1048576	40	5868
2026-01-05 19:08:02.09	200.22	64.23	-31.1	-31.6	28.4	0.00e+00	0	32	101	1048576	40	5922
2026-01-05 19:08:03.10	200.26	63.79	-31.1	-31.6	28.3	0.00e+00	0	32	101	1048576	40	5929
2026-01-05 19:08:04.12	200.30	63.35	-31.3	-31.8	28.0	0.00e+00	0	32	101	1048576	40	6052
2026-01-05 19:08:05.13	200.34	62.92	-31.3	-31.8	28.0	0.00e+00	0	32	101	1048576	40	6038
2026-01-05 19:08:06.14	200.38	62.49	-31.4	-31.9	27.9	0.00e+00	0	32	101	1048576	40	6134
2026-01-05 19:08:07.15	200.42	62.06	-31.7	-32.2	27.8	0.00e+00	0	32	101	1048576	40	6348
2026-01-05 19:08:08.16	200.46	61.64	-31.9	-32.4	27.8	0.00e+00	0	32	101	1048576	40	6470
2026-01-05 19:08:09.17	200.49	61.22	-32.0	-32.5	27.6	0.00e+00	0	32	101	1048576	40	6553
2026-01-05 19:08:10.18	200.53	60.80	-32.2	-32.6	27.5	0.00e+00	0	32	101	1048576	42	5947
2026-01-05 19:08:11.20	200.56	60.38	-32.1	-32.6	27.6	0.00e+00	0	32	101	1048576	42	5918
2026-01-05 19:08:12.21	200.59	59.97	-32.0	-32.4	27.7	0.00e+00	0	32	101	1048576	42	5824
2026-01-05 19:08:13.22	200.62	59.56	-32.1	-32.6	27.4	0.00e+00	0	32	101	1048576	42	5922
2026-01-05 19:08:14.23	200.65	59.15	-31.9	-32.4	26.7	0.00e+00	0	32	101	1048576	42	5807
2026-01-05 19:08:15.24	200.68	58.74	-32.5	-33.0	27.2	0.00e+00	0	32	101	1048576	42	6186
2026-01-05 19:08:16.25	200.71	58.34	-33.0	-33.4	26.8	0.00e+00	0	32	101	1048576	42	6535
2026-01-05 19:08:17.26	200.74	57.94	-33.1	-33.6	26.7	0.00e+00	0	32	101	1048576	44	5960
2026-01-05 19:08:18.28	200.77	57.54	-33.1	-33.5	26.8	0.00e+00	0	32	101	1048576	44	5896
2026-01-05 19:08:19.29	200.80	57.14	-33.0	-33.4	26.8	0.00e+00	0	32	101	1048576	44	5825
2026-01-05 19:08:20.30	200.82	56.75	-32.9	-33.4	26.9	0.00e+00	0	32	101	1048576	44	5793
2026-01-05 19:08:21.31	200.85	56.36	-33.3	-33.8	25.9	0.00e+00	0	32	101	1048576	44	6042
2026-01-05 19:08:22.32	200.87	55.98	-33.6	-34.1	26.3	0.00e+00	0	32	101	1048576	44	6297
2026-01-05 19:08:23.33	200.90	55.59	-33.8	-34.3	26.2	0.00e+00	0	32	101	1048576	44	6425
2026-01-05 19:08:24.34	200.92	55.21	-33.8	-34.3	26.2	0.00e+00	0	31	101	1048576	44	6412
2026-01-05 19:08:25.36	200.95	54.83	-33.1	-33.6	26.6	0.00e+00	0	32	101	1048576	44	5940
2026-01-05 19:08:26.37	200.97	54.45	-33.1	-33.6	26.9	0.00e+00	0	32	101	1048576	44	5906
2026-01-05 19:08:27.38	200.99	54.08	-32.7	-33.2	27.0	0.00e+00	0	32	101	1048576	44	5637
2026-01-05 19:08:28.39	201.01	53.71	-32.9	-33.4	27.0	0.00e+00	0	32	101	1048576	44	5814
2026-01-05 19:08:29.40	201.03	53.34	-32.6	-33.1	27.3	0.00e+00	0	32	101	1048576	44	5571
2026-01-05 19:08:30.41	201.06	52.98	-32.5	-33.0	27.3	0.00e+00	0	32	101	1048576	44	5544
2026-01-05 19:08:31.42	201.08	52.62	-32.8	-33.3	26.9	0.00e+00	0	31	101	1048576	44	5711
2026-01-05 19:08:32.44	201.10	52.25	-32.4	-32.9	27.4	0.00e+00	0	32	101	1048576	44	5489
2026-01-05 19:08:33.45	201.12	51.90	-32.5	-33.0	27.2	0.00e+00	0	32	101	1048576	44	5506
2026-01-05 19:08:34.46	201.14	51.54	-32.7	-33.1	27.2	0.00e+00	0	32	101	1048576	44	5611
2026-01-05 19:08:35.47	201.15	51.19	-32.8	-33.2	27.1	0.00e+00	0	32	101	1048576	44	5673
2026-01-05 19:08:36.48	201.17	50.84	-32.7	-33.2	27.1	0.00e+00	0	32	101	1048576	44	5671
2026-01-05 19:08:37.49	201.19	50.49	-32.7	-33.2	27.0	0.00e+00	0	32	101	1048576	44	5673
2026-01-05 19:08:38.50	201.21	50.15	-32.5	-33.0	26.7	0.00e+00	0	32	101	1048576	44	5544
2026-01-05 19:08:39.51	201.23	49.81	-32.6	-33.1	27.2	0.00e+00	0	32	101	1048576	44	5614
2026-01-05 19:08:40.52	201.24	49.47	-32.5	-33.0	27.0	0.00e+00	0	32	101	1048576	44	5527
2026-01-05 19:08:41.53	201.26	49.13	-32.6	-33.1	27.2	0.00e+00	0	32	101	1048576	44	5577
2026-01-05 19:08:42.54	201.28	48.80	-32.6	-33.1	26.8	0.00e+00	0	32	101	1048576	44	5605
2026-01-05 19:08:43.55	201.29	48.47	-32.7	-33.2	27.2	0.00e+00	0	32	101	1048576	44	5678
2026-01-05 19:08:44.56	201.31	48.14	-32.8	-33.3	26.9	0.00e+00	0	32	101	1048576	44	5742
2026-01-05 19:08:45.57	201.33	47.81	-33.2	-33.6	24.3	0.00e+00	0	32	101	1048576	44	5955
2026-01-05 19:08:46.58	201.34	47.49	-32.9	-33.3	27.1	0.00e+00	0	31	101	1048576	44	5759
2026-01-05 19:08:47.59	201.36	47.17	-32.9	-33.4	26.5	0.00e+00	0	32	101	1048576	44	5799
2026-01-05 19:08:48.61	201.37	46.84	-32.7	-33.2	27.0	0.00e+00	0	32	101	1048576	44	5660
2026-01-05 19:08:49.62	201.39	46.53	-32.6	-33.1	27.3	0.00e+00	0	32	101	1048576	44	5576
2026-01-05 19:08:50.63	201.40	46.21	-32.4	-32.9	27.1	0.00e+00	0	32	101	1048576	44	5448
2026-01-05 19:08:51.64	201.42	45.90	-32.1	-32.6	27.5	0.00e+00	0	32	101	1048576	44	5261
2026-01-05 19:08:52.65	201.43	45.59	-31.7	-32.1	27.9	0.00e+00	0	32	101	1048576	42	5623
2026-01-05 19:08:53.66	201.45	45.29	-31.8	-32.2	27.9	0.00e+00	0	32	101	1048576	42	5679
2026-01-05 19:08:54.67	201.46	44.98	-31.8	-32.3	27.7	0.00e+00	0	32	101	1048576	42	5699
2026-01-05 19:08:55.69	201.47	44.67	-31.7	-32.1	27.9	0.00e+00	0	32	101	1048576	42	5625
2026-01-05 19:08:56.70	201.49	44.37	-31.9	-32.3	27.9	0.00e+00	0	32	101	1048576	42	5743
2026-01-05 19:08:57.71	201.50	44.08	-31.8	-32.3	27.8	0.00e+00	0	32	101	1048576	42	5737
2026-01-05 19:08:58.72	201.51	43.78	-32.0	-32.5	27.6	0.00e+00	0	32	101	1048576	42	5845
2026-01-05 19:08:59.73	201.53	43.49	-32.0	-32.5	27.4	0.00e+00	0	32	101	1048576	42	5877
2026-01-05 19:09:00.74	201.54	43.20	-31.9	-32.4	27.6	0.00e+00	0	32	101	1048576	42	5795
2026-01-05 19:09:01.75	201.55	42.91	-31.8	-32.3	27.7	0.00e+00	0	32	101	1048576	42	5741
2026-01-05 19:09:02.76	201.57	42.62	-31.8	-32.3	27.8	0.00e+00	0	32	101	1048576	42	5696
2026-01-05 19:09:03.77	201.58	42.34	-31.6	-32.1	27.8	0.00e+00	0	32	101	1048576	42	5598
2026-01-05 19:09:04.78	201.59	42.05	-31.5	-31.9	27.8	0.00e+00	0	31	101	1048576	42	5490
2026-01-05 19:09:05.79	201.60	41.77	-31.6	-32.1	27.1	0.00e+00	0	32	101	1048576	42	5591
2026-01-05 19:09:06.81	201.61	41.49	-31.5	-31.9	27.6	0.00e+00	0	32	101	1048576	42	5496
2026-01-05 19:09:07.82	201.63	41.22	-31.5	-32.0	27.9	0.00e+00	0	32	101	1048576	42	5546
2026-01-05 19:09:08.83	201.64	40.94	-31.5	-31.9	27.6	0.00e+00	0	32	101	1048576	42	5485
2026-01-05 19:09:09.84	201.65	40.67	-31.6	-32.0	27.7	0.00e+00	0	32	101	1048576	42	5564
2026-01-05 19:09:10.85	201.66	40.40	-31.5	-31.9	28.1	0.00e+00	0	32	101	1048576	42	5489
2026-01-05 19:09:11.86	201.67	40.13	-31.3	-31.8	27.5	0.00e+00	0	32	101	1048576	42	5403
2026-01-05 19:09:12.87	201.68	39.87	-31.3	-31.7	28.2	0.00e+00	0	32	101	1048576	42	5369
2026-01-05 19:09:13.88	201.69	39.60	-31.2	-31.7	28.0	0.00e+00	0	32	101	1048576	42	5354
2026-01-05 19:09:14.89	201.70	39.34	-31.4	-31.8	28.1	0.00e+00	0	32	101	1048576	42	5432
2026-01-05 19:09:15.90	201.72	39.08	-31.2	-31.7	28.2	0.00e+00	0	32	101	1048576	42	5324
2026-01-05 19:09:16.92	201.73	38.82	-31.4	-31.9	26.7	0.00e+00	0	32	101	1048576	42	5444
2026-01-05 19:09:17.93	201.74	38.57	-31.2	-31.7	28.2	0.00e+00	0	32	101	1048576	42	5359
2026-01-05 19:09:18.94	201.75	38.31	-31.4	-31.9	28.2	0.00e+00	0	32	101	1048576	42	5476
2026-01-05 19:09:19.95	201.76	38.06	-31.4	-31.9	28.3	0.00e+00	0	32	101	1048576	42	5471
2026-01-05 19:09:20.96	201.77	37.81	-31.3	-31.8	28.2	0.00e+00	0	32	101	1048576	42	5413
2026-01-05 19:09:21.97	201.78	37.56	-31.5	-32.0	28.1	0.00e+00	0	32	101	1048576	42	5522
2026-01-05 19:09:22.98	201.79	37.31	-31.5	-32.0	28.1	0.00e+00	0	32	101	1048576	42	5528
2026-01-05 19:09:24.00	201.80	37.07	-31.7	-32.2	27.8	0.00e+00	0	32	101	1048576	42	5650
2026-01-05 19:09:25.01	201.81	36.82	-31.6	-32.0	28.0	0.00e+00	0	32	101	1048576	42	5566
2026-01-05 19:09:26.02	201.82	36.58	-31.6	-32.1	28.0	0.00e+00	0	32	101	1048576	42	5581
2026-01-05 19:09:27.03	201.83	36.34	-31.6	-32.0	27.7	0.00e+00	0	32	101	1048576	42	5564
2026-01-05 19:09:28.04	201.84	36.11	-31.5	-32.0	27.8	0.00e+00	0	32	101	1048576	42	5538
2026-01-05 19:09:29.05	201.85	35.87	-31.5	-32.0	28.0	0.00e+00	0	32	101	1048576	42	5519
2026-01-05 19:09:30.06	201.86	35.64	-31.6	-32.1	28.0	0.00e+00	0	32	101	1048576	42	5567
2026-01-05 19:09:31.07	201.86	35.40	-31.3	-31.8	28.2	0.00e+00	0	32	101	1048576	42	5406
2026-01-05 19:09:32.08	201.87	35.17	-31.4	-31.9	28.2	0.00e+00	0	32	101	1048576	42	5479
2026-01-05 19:09:33.09	201.88	34.94	-31.2	-31.7	28.3	0.00e+00	0	31	101	1048576	42	5316
2026-01-05 19:09:34.11	201.89	34.71	-31.2	-31.7	28.3	0.00e+00	0	32	101	1048576	42	5340
2026-01-05 19:09:35.12	201.90	34.49	-31.0	-31.5	28.3	0.00e+00	0	31	101	1048576	42	5226
2026-01-05 19:09:36.13	201.91	34.26	-31.0	-31.4	28.5	0.00e+00	0	31	101	1048576	40	5814
2026-01-05 19:09:37.14	201.92	34.04	-31.1	-31.5	27.5	0.00e+00	0	32	101	1048576	40	5875
2026-01-05 19:09:38.15	201.93	33.82	-30.8	-31.3	28.6	0.00e+00	0	32	101	1048576	40	5736
2026-01-05 19:09:39.16	201.94	33.60	-30.9	-31.3	28.5	0.00e+00	0	32	101	1048576	40	5750
2026-01-05 19:09:40.17	201.94	33.38	-31.0	-31.4	28.5	0.00e+00	0	32	101	1048576	40	5809
2026-01-05 19:09:41.18	201.95	33.17	-31.0	-31.4	28.4	0.00e+00	0	32	101	1048576	40	5815
2026-01-05 19:09:42.19	201.96	32.95	-31.1	-31.5	28.5	0.00e+00	0	32	101	1048576	40	5866
2026-01-05 19:09:43.20	201.97	32.74	-31.0	-31.5	28.4	0.00e+00	0	31	101	1048576	40	5859
2026-01-05 19:09:44.22	201.98	32.52	-31.2	-31.6	28.2	0.00e+00	0	32	101	1048576	40	5940
2026-01-05 19:09:45.23	201.99	32.31	-31.0	-31.5	28.4	0.00e+00	0	32	101	1048576	40	5852
2026-01-05 19:09:46.24	202.00	32.11	-31.0	-31.4	28.3	0.00e+00	0	32	101	1048576	40	5803
2026-01-05 19:09:47.25	202.00	31.90	-31.0	-31.5	28.4	0.00e+00	0	32	101	1048576	40	5844
2026-01-05 19:09:48.26	202.01	31.69	-31.0	-31.4	28.5	0.00e+00	0	32	101	1048576	40	5819
2026-01-05 19:09:49.27	202.02	31.49	-31.0	-31.5	28.2	0.00e+00	0	32	101	1048576	40	5841
2026-01-05 19:09:50.28	202.03	31.28	-31.0	-31.5	28.5	0.00e+00	0	32	101	1048576	40	5835
2026-01-05 19:09:51.29	202.04	31.08	-31.0	-31.4	28.3	0.00e+00	0	32	101	1048576	40	5815
2026-01-05 19:09:52.30	202.04	30.88	-30.9	-31.3	28.5	0.00e+00	0	32	101	1048576	40	5743
2026-01-05 19:09:53.31	202.05	30.68	-30.8	-31.3	28.6	0.00e+00	0	32	101	1048576	40	5715
2026-01-05 19:09:54.32	202.06	30.49	-30.7	-31.2	28.5	0.00e+00	0	32	101	1048576	40	5674
2026-01-05 19:09:55.33	202.07	30.29	-30.8	-31.3	28.6	0.00e+00	0	32	101	1048576	40	5711
2026-01-05 19:09:56.34	202.07	30.10	-30.7	-31.1	28.7	0.00e+00	0	31	101	1048576	40	5627
2026-01-05 19:09:57.36	202.08	29.90	-30.7	-31.2	28.6	0.00e+00	0	32	101	1048576	40	5635
2026-01-05 19:09:58.37	202.09	29.71	-30.6	-31.1	28.7	0.00e+00	0	32	101	1048576	40	5576
2026-01-05 19:09:59.38	202.10	29.52	-30.7	-31.2	28.4	0.00e+00	0	32	101	1048576	40	5663
2026-01-05 19:10:00.39	202.11	29.33	-30.8	-31.3	28.6	0.00e+00	0	32	101	1048576	40	5712
2026-01-05 19:10:01.40	202.11	29.14	-30.8	-31.3	28.6	0.00e+00	0	32	101	1048576	40	5700
2026-01-05 19:10:02.41	202.12	28.95	-30.8	-31.2	28.6	0.00e+00	0	32	101	1048576	40	5685
2026-01-05 19:10:03.42	202.13	28.77	-30.9	-31.4	28.5	0.00e+00	0	32	101	1048576	40	5777
2026-01-05 19:10:04.43	202.13	28.58	-31.0	-31.5	28.3	0.00e+00	0	32	101	1048576	40	5834
2026-01-05 19:10:05.44	202.14	28.40	-31.1	-31.5	28.4	0.00e+00	0	32	101	1048576	40	5891
2026-01-05 19:10:06.46	202.15	28.21	-31.3	-31.7	28.3	0.00e+00	0	32	101	1048576	40	6013
2026-01-05 19:10:07.46	202.16	28.03	-31.5	-31.9	28.1	0.00e+00	0	31	101	1048576	40	6142
2026-01-05 19:10:08.48	202.16	27.85	-31.6	-32.1	27.3	0.00e+00	0	31	101	1048576	40	6276
2026-01-05 19:10:09.49	202.17	27.67	-31.3	-31.8	28.2	0.00e+00	0	31	101	1048576	40	6057
2026-01-05 19:10:10.50	202.18	27.50	-31.5	-31.9	28.0	0.00e+00	0	32	101	1048576	40	6159
2026-01-05 19:10:11.51	202.18	27.32	-31.4	-31.9	28.1	0.00e+00	0	32	101	1048576	40	6141
2026-01-05 19:10:12.52	202.19	27.14	-31.5	-32.0	27.9	0.00e+00	0	32	101	1048576	40	6225
2026-01-05 19:10:13.53	202.20	26.97	-31.5	-32.0	27.9	0.00e+00	0	32	101	1048576	40	6178
2026-01-05 19:10:14.54	202.21	26.80	-31.6	-32.1	28.0	0.00e+00	0	32	101	1048576	40	6267
2026-01-05 19:10:15.56	202.21	26.62	-31.6	-32.1	27.8	0.00e+00	0	32	101	1048576	40	6256
2026-01-05 19:10:16.57	202.22	26.45	-31.7	-32.1	27.9	0.00e+00	0	32	101	1048576	40	6311
2026-01-05 19:10:17.58	202.23	26.28	-31.6	-32.1	28.0	0.00e+00	0	32	101	1048576	40	6251
2026-01-05 19:10:18.59	202.23	26.11	-31.7	-32.2	28.0	0.00e+00	0	32	101	1048576	40	6321
2026-01-05 19:10:19.60	202.24	25.95	-31.7	-32.1	27.9	0.00e+00	0	32	101	1048576	40	6317
2026-01-05 19:10:20.61	202.25	25.78	-31.8	-32.3	27.8	0.00e+00	0	32	101	1048576	40	6433
2026-01-05 19:10:21.62	202.25	25.61	-31.7	-32.1	28.0	0.00e+00	0	32	101	1048576	40	6300
2026-01-05 19:10:22.63	202.26	25.45	-31.8	-32.2	27.9	0.00e+00	0	32	101	1048576	40	6383
2026-01-05 19:10:23.64	202.27	25.29	-31.7	-32.2	27.8	0.00e+00	0	32	101	1048576	40	6331
2026-01-05 19:10:24.65	202.27	25.12	-31.8	-32.3	27.8	0.00e+00	0	32	101	1048576	40	6392
2026-01-05 19:10:25.66	202.28	24.96	-31.8	-32.2	27.8	0.00e+00	0	32	101	1048576	40	6370
2026-01-05 19:10:26.67	202.29	24.80	-31.9	-32.4	27.8	0.00e+00	0	32	101	1048576	40	6467
2026-01-05 19:10:27.68	202.29	24.64	-31.8	-32.3	27.8	0.00e+00	0	32	101	1048576	40	6403
2026-01-05 19:10:28.69	202.30	24.48	-31.9	-32.4	27.7	0.00e+00	0	32	101	1048576	40	6502
2026-01-05 19:10:29.70	202.31	24.32	-31.9	-32.4	27.8	0.00e+00	0	32	101	1048576	40	6495
2026-01-05 19:10:30.72	202.31	24.17	-32.0	-32.4	27.6	0.00e+00	0	32	101	1048576	40	6535
2026-01-05 19:10:31.73	202.32	24.01	-31.9	-32.4	27.7	0.00e+00	0	32	101	1048576	40	6484
2026-01-05 19:10:32.74	202.32	23.86	-32.2	-32.7	27.7	0.00e+00	0	32	101	1048576	42	5968
2026-01-05 19:10:33.75	202.33	23.70	-31.9	-32.4	27.8	0.00e+00	0	32	101	1048576	42	5795
2026-01-05 19:10:34.76	202.34	23.55	-32.0	-32.5	27.7	0.00e+00	0	32	101	1048576	42	5842
2026-01-05 19:10:35.77	202.34	23.40	-31.9	-32.3	27.8	0.00e+00	0	32	101	1048576	42	5757
2026-01-05 19:10:36.78	202.35	23.25	-32.0	-32.4	27.7	0.00e+00	0	32	101	1048576	42	5823
2026-01-05 19:10:37.79	202.36	23.09	-31.9	-32.3	27.8	0.00e+00	0	32	101	1048576	42	5750
2026-01-05 19:10:38.81	202.36	22.94	-32.0	-32.4	27.6	0.00e+00	0	32	101	1048576	42	5825
2026-01-05 19:10:39.82	202.37	22.80	-31.9	-32.4	27.7	0.00e+00	0	32	101	1048576	42	5794
2026-01-05 19:10:40.83	202.37	22.65	-32.0	-32.4	27.7	0.00e+00	0	32	101	1048576	42	5811
2026-01-05 19:10:41.84	202.38	22.50	-31.9	-32.4	27.8	0.00e+00	0	32	101	1048576	42	5769
2026-01-05 19:10:42.85	202.39	22.35	-31.9	-32.4	27.7	0.00e+00	0	31	101	1048576	42	5778
2026-01-05 19:10:43.86	202.39	22.21	-31.9	-32.4	27.5	0.00e+00	0	32	101	1048576	42	5792
2026-01-05 19:10:44.87	202.40	22.06	-31.9	-32.3	27.8	0.00e+00	0	31	101	1048576	42	5748
2026-01-05 19:10:45.88	202.40	21.92	-31.8	-32.3	27.8	0.00e+00	0	31	101	1048576	42	5716
2026-01-05 19:10:46.90	202.41	21.78	-31.9	-32.3	27.8	0.00e+00	0	32	101	1048576	42	5750
2026-01-05 19:10:47.91	202.42	21.63	-31.9	-32.4	27.8	0.00e+00	0	31	101	1048576	42	5780
2026-01-05 19:10:48.92	202.42	21.49	-31.9	-32.3	27.8	0.00e+00	0	31	101	1048576	42	5754
2026-01-05 19:10:49.93	202.43	21.35	-31.8	-32.3	27.8	0.00e+00	0	31	101	1048576	42	5739
2026-01-05 19:10:50.94	202.43	21.21	-31.9	-32.4	27.8	0.00e+00	0	31	101	1048576	42	5787
2026-01-05 19:10:51.95	202.44	21.07	-32.0	-32.5	27.7	0.00e+00	0	31	101	1048576	42	5852
2026-01-05 19:10:52.96	202.45	20.94	-32.1	-32.6	27.5	0.00e+00	0	31	101	1048576	42	5933
2026-01-05 19:10:53.97	202.45	20.80	-32.1	-32.6	27.5	0.00e+00	0	32	101	1048576	42	5902
2026-01-05 19:10:54.99	202.46	20.66	-32.2	-32.7	27.5	0.00e+00	0	32	101	1048576	42	6008
2026-01-05 19:10:56.00	202.46	20.53	-32.0	-32.5	27.7	0.00e+00	0	31	101	1048576	42	5833
2026-01-05 19:10:57.01	202.47	20.39	-32.0	-32.5	27.7	0.00e+00	0	32	101	1048576	42	5872
2026-01-05 19:10:58.02	202.48	20.26	-32.0	-32.5	27.6	0.00e+00	0	31	101	1048576	42	5872
2026-01-05 19:10:59.03	202.48	20.12	-32.1	-32.6	27.4	0.00e+00	0	32	101	1048576	42	5906
2026-01-05 19:11:00.04	202.49	19.99	-32.0	-32.5	27.6	0.00e+00	0	31	101	1048576	42	5847
2026-01-05 19:11:01.06	202.49	19.86	-32.1	-32.5	27.5	0.00e+00	0	32	101	1048576	42	5872
2026-01-05 19:11:02.07	202.50	19.72	-32.1	-32.5	27.6	0.00e+00	0	32	101	1048576	42	5887
2026-01-05 19:11:03.08	202.50	19.59	-32.1	-32.5	27.5	0.00e+00	0	31	101	1048576	42	5890
2026-01-05 19:11:04.09	202.51	19.46	-32.1	-32.6	27.6	0.00e+00	0	32	101	1048576	42	5939
