passes_logs/2026/01/05/R4.6S_Anadyr_2ch/R4.6S_Anadyr_2ch__20260105_143147_SUOMI_NPP_rec.log

#Pass ID: 20260105_143147_SUOMI NPP
#Satellite: SUOMI NPP
#Configuration: NPP
#almurnet v.1.7.20251203
#Start time: 2026-01-05 14:31:48

#Version: 2.2.20231116
#Station: R4.6S_Anadyr_2ch
#Location: 177.4865 lon 64.73178 lat
#TLE: 1 37849U 11061A   25350.92281687  .00000071  00000+0  54882-4 0  9996
#TLE: 2 37849  98.7777 288.2268 0002366 112.8570 247.2856 14.19515404732588

#Time	Az	El	Level	Level2	SNR	BER	BlckErr	Temp	State	Recorded	gain1	gain2
2026-01-05 14:31:48.40	20.05	0.08	-51.0	-63.5	3.4	1.52e+00	0	24	0	0	60	71187
2026-01-05 14:31:49.41	20.06	0.14	-51.0	-66.3	3.6	1.51e+00	0	26	104	0	60	101108
2026-01-05 14:31:50.42	20.07	0.20	-51.0	-66.3	3.6	1.51e+00	0	26	104	0	60	100878
2026-01-05 14:31:51.43	20.09	0.26	-51.0	-66.3	3.6	1.51e+00	0	26	104	0	60	101143
2026-01-05 14:31:52.44	20.10	0.32	-51.0	-66.3	3.6	1.51e+00	0	26	104	0	60	101018
2026-01-05 14:31:53.45	20.11	0.38	-51.0	-66.3	3.6	1.51e+00	0	26	104	0	60	101146
2026-01-05 14:31:54.46	20.12	0.44	-51.0	-66.3	3.6	1.51e+00	0	26	104	0	60	101244
2026-01-05 14:31:55.48	20.14	0.50	-51.0	-66.3	3.6	1.51e+00	0	26	104	0	60	101126
2026-01-05 14:31:56.49	20.15	0.57	-51.0	-66.3	3.6	1.51e+00	0	26	104	0	60	100691
2026-01-05 14:31:57.50	20.16	0.63	-50.9	-66.2	3.6	1.51e+00	0	26	104	0	60	99519
2026-01-05 14:31:58.51	20.18	0.69	-50.8	-66.1	3.6	1.51e+00	0	26	104	0	60	98493
2026-01-05 14:31:59.52	20.19	0.75	-50.6	-65.9	3.6	1.51e+00	0	26	104	0	60	96664
2026-01-05 14:32:00.53	20.20	0.81	-50.4	-65.8	3.6	1.51e+00	0	26	104	0	60	94619
2026-01-05 14:32:01.54	20.21	0.87	-50.3	-65.6	3.6	1.51e+00	0	26	104	0	60	92899
2026-01-05 14:32:02.55	20.23	0.93	-50.1	-65.3	3.6	1.51e+00	0	26	104	0	60	89860
2026-01-05 14:32:03.56	20.24	1.00	-49.7	-64.9	3.6	1.51e+00	0	26	104	0	60	86052
2026-01-05 14:32:04.57	20.25	1.06	-49.7	-64.9	3.6	1.51e+00	0	26	104	0	60	85857
2026-01-05 14:32:05.58	20.27	1.12	-49.7	-64.9	3.6	1.51e+00	0	26	104	0	60	85598
2026-01-05 14:32:06.60	20.28	1.18	-49.7	-64.9	3.6	1.51e+00	0	26	104	0	60	85879
2026-01-05 14:32:07.61	20.29	1.25	-49.7	-64.9	3.6	1.51e+00	0	26	104	0	60	86050
2026-01-05 14:32:08.62	20.30	1.31	-49.7	-64.8	3.6	1.51e+00	0	26	104	0	60	84939
2026-01-05 14:32:09.63	20.32	1.37	-49.7	-64.8	3.6	1.51e+00	0	26	104	0	60	85209
2026-01-05 14:32:10.64	20.33	1.43	-49.7	-64.8	3.6	1.51e+00	0	26	104	0	60	84769
2026-01-05 14:32:11.65	20.34	1.50	-49.7	-64.8	3.5	1.51e+00	0	26	104	0	60	84880
2026-01-05 14:32:12.66	20.36	1.56	-49.7	-64.8	3.6	1.51e+00	0	26	104	0	60	84567
2026-01-05 14:32:13.67	20.37	1.62	-49.6	-64.9	3.6	1.51e+00	0	26	104	0	60	85499
2026-01-05 14:32:14.69	20.38	1.69	-49.6	-64.9	3.6	1.51e+00	0	26	104	0	60	85504
2026-01-05 14:32:15.70	20.40	1.75	-49.6	-64.9	3.6	1.51e+00	0	26	104	0	60	85727
2026-01-05 14:32:16.71	20.41	1.81	-49.7	-64.9	3.6	1.51e+00	0	26	104	0	60	85870
2026-01-05 14:32:17.72	20.42	1.88	-49.7	-65.0	3.6	1.51e+00	0	26	104	0	60	86386
2026-01-05 14:32:18.73	20.44	1.94	-49.7	-64.9	3.6	1.51e+00	0	26	104	0	60	85591
2026-01-05 14:32:19.74	20.45	2.01	-49.7	-64.9	3.6	1.51e+00	0	26	104	0	60	86033
2026-01-05 14:32:20.75	20.46	2.07	-49.6	-64.9	3.6	1.51e+00	0	26	104	0	60	85619
2026-01-05 14:32:21.76	20.48	2.13	-49.6	-64.6	3.6	1.51e+00	0	26	104	0	60	82814
2026-01-05 14:32:22.78	20.49	2.20	-49.6	-64.2	3.6	1.51e+00	0	26	104	0	60	79445
2026-01-05 14:32:23.79	20.51	2.26	-49.6	-63.7	3.6	1.51e+00	0	26	104	0	60	75032
2026-01-05 14:32:24.80	20.52	2.33	-49.6	-63.1	3.6	1.51e+00	0	27	104	0	60	69380
2026-01-05 14:32:25.81	20.53	2.39	-49.6	-63.2	3.6	1.50e+00	0	27	104	0	60	70098
2026-01-05 14:32:26.82	20.55	2.46	-49.6	-62.9	3.6	1.50e+00	0	27	104	0	60	67697
2026-01-05 14:32:27.83	20.56	2.52	-49.6	-62.9	3.6	1.51e+00	0	26	104	0	60	67790
2026-01-05 14:32:28.84	20.57	2.59	-49.5	-62.6	3.6	1.50e+00	0	26	104	0	60	66067
2026-01-05 14:32:29.85	20.59	2.65	-49.5	-62.2	3.8	1.50e+00	0	27	104	0	60	63017
2026-01-05 14:32:30.86	20.60	2.72	-49.4	-59.7	4.0	1.32e+00	79	26	0	0	60	47224
2026-01-05 14:32:31.87	20.62	2.79	-49.2	-57.1	5.8	5.88e-01	78	26	102	1048576	60	35009
2026-01-05 14:32:32.88	20.63	2.85	-48.9	-55.9	7.2	2.21e-01	0	27	102	1048576	60	30521
2026-01-05 14:32:33.90	20.64	2.92	-48.2	-53.5	9.9	1.17e-02	90	27	102	1048576	60	23104
2026-01-05 14:32:34.91	20.66	2.99	-47.7	-52.1	11.7	2.92e-03	0	26	102	1048576	60	19580
2026-01-05 14:32:35.92	20.67	3.05	-47.2	-50.9	12.8	9.91e-05	0	27	102	1048576	60	17195
2026-01-05 14:32:36.93	20.69	3.12	-46.7	-50.1	13.8	9.90e-06	0	27	102	1048576	60	15520
2026-01-05 14:32:37.94	20.70	3.19	-46.1	-48.9	15.1	0.00e+00	0	26	102	1048576	60	13558
2026-01-05 14:32:38.95	20.71	3.25	-45.7	-48.3	15.6	0.00e+00	92	27	102	1048576	60	12614
2026-01-05 14:32:39.96	20.73	3.32	-45.9	-48.6	15.3	0.00e+00	0	27	102	1048576	60	13134
2026-01-05 14:32:40.97	20.74	3.39	-45.8	-48.5	15.4	0.00e+00	92	26	102	1048576	60	12997
2026-01-05 14:32:41.99	20.76	3.45	-46.3	-49.3	14.5	0.00e+00	0	27	102	1048576	60	14250
2026-01-05 14:32:43.00	20.77	3.52	-46.6	-49.8	14.1	1.50e-06	0	27	102	1048576	60	14998
2026-01-05 14:32:44.01	20.79	3.59	-47.1	-50.9	12.7	1.44e-05	0	27	102	1048576	60	17092
2026-01-05 14:32:45.02	20.80	3.66	-47.8	-52.4	11.2	4.34e-04	0	27	102	1048576	60	20315
2026-01-05 14:32:46.03	20.82	3.73	-48.5	-54.4	8.7	7.14e-03	0	27	102	1048576	60	25711
2026-01-05 14:32:47.04	20.83	3.79	-45.0	-47.2	16.9	0.00e+00	0	27	102	1048576	60	11130
2026-01-05 14:32:48.05	20.84	3.86	-46.2	-49.0	15.2	0.00e+00	75	27	102	1048576	60	13736
2026-01-05 14:32:49.07	20.86	3.93	-49.6	-64.4	3.6	5.58e-01	0	27	104	1048576	60	81310
2026-01-05 14:32:50.08	20.87	4.00	-45.3	-47.7	15.7	7.75e-01	0	27	104	1048576	60	11830
2026-01-05 14:32:51.09	20.89	4.07	-49.8	-64.8	3.6	5.50e-01	0	27	104	1048576	60	84859
2026-01-05 14:32:52.10	20.90	4.14	-45.2	-47.5	16.0	1.48e+00	2	27	104	1048576	60	11566
2026-01-05 14:32:53.11	20.92	4.21	-44.6	-46.6	17.5	0.00e+00	83	27	0	1048576	60	10471
2026-01-05 14:32:54.12	20.93	4.28	-43.9	-45.6	18.5	0.00e+00	0	27	0	1048576	60	9342
2026-01-05 14:32:55.13	20.95	4.35	-43.5	-45.2	18.8	0.00e+00	92	27	0	1048576	60	8830
2026-01-05 14:32:56.14	20.96	4.42	-43.6	-45.3	18.8	0.00e+00	0	27	0	1048576	60	8998
2026-01-05 14:32:57.15	20.98	4.49	-43.6	-45.2	18.8	0.00e+00	0	27	0	1048576	60	8913
2026-01-05 14:32:58.16	20.99	4.56	-43.8	-45.6	18.6	0.00e+00	18	27	0	1048576	60	9242
2026-01-05 14:32:59.17	21.01	4.63	-43.8	-45.4	18.7	0.00e+00	0	27	0	1048576	60	9126
2026-01-05 14:33:00.18	21.02	4.70	-43.5	-45.2	18.9	0.00e+00	55	27	0	1048576	60	8834
2026-01-05 14:33:01.20	21.04	4.77	-43.5	-45.1	19.1	0.00e+00	0	27	0	1048576	60	8750
2026-01-05 14:33:02.21	21.05	4.84	-43.3	-44.8	19.5	0.00e+00	89	27	0	1048576	60	8513
2026-01-05 14:33:03.22	21.07	4.91	-43.5	-45.1	19.1	0.00e+00	0	27	0	1048576	60	8807
2026-01-05 14:33:04.23	21.09	4.98	-43.3	-44.8	19.3	0.00e+00	0	27	0	1048576	60	8516
2026-01-05 14:33:05.24	21.10	5.06	-43.1	-44.6	19.5	0.00e+00	0	27	0	1048576	60	8325
2026-01-05 14:33:06.25	21.12	5.13	-43.0	-44.5	19.5	0.00e+00	0	27	0	1048576	60	8196
2026-01-05 14:33:07.26	21.13	5.20	-43.0	-44.5	19.6	0.00e+00	46	27	0	1048576	60	8161
2026-01-05 14:33:08.28	21.15	5.27	-43.1	-44.7	19.4	0.00e+00	0	27	0	1048576	60	8341
2026-01-05 14:33:09.29	21.16	5.34	-43.1	-44.6	19.6	0.00e+00	80	27	0	1048576	60	8317
2026-01-05 14:33:10.30	21.18	5.42	-43.2	-44.7	19.6	0.00e+00	0	27	0	1048576	60	8373
2026-01-05 14:33:11.31	21.20	5.49	-43.1	-44.6	19.6	0.00e+00	24	27	101	1048576	60	8311
2026-01-05 14:33:12.32	21.21	5.56	-43.0	-44.5	19.7	0.00e+00	0	27	101	1048576	60	8180
2026-01-05 14:33:13.33	21.23	5.64	-42.9	-44.4	19.8	0.00e+00	0	27	101	1048576	60	8060
2026-01-05 14:33:14.34	21.24	5.71	-42.8	-44.3	19.8	0.00e+00	44	27	101	1048576	60	7962
2026-01-05 14:33:15.35	21.26	5.78	-42.8	-44.2	19.9	0.00e+00	0	27	101	1048576	60	7907
2026-01-05 14:33:16.36	21.28	5.86	-42.7	-44.0	20.2	0.00e+00	92	27	101	1048576	60	7772
2026-01-05 14:33:17.37	21.29	5.93	-42.5	-43.9	20.2	0.00e+00	0	27	101	1048576	60	7636
2026-01-05 14:33:18.39	21.31	6.00	-42.5	-43.9	20.3	0.00e+00	16	27	101	1048576	60	7615
2026-01-05 14:33:19.40	21.32	6.08	-42.6	-43.9	20.3	0.00e+00	0	27	101	1048576	60	7676
2026-01-05 14:33:20.41	21.34	6.15	-42.6	-44.0	20.2	0.00e+00	0	27	101	1048576	60	7749
2026-01-05 14:33:21.42	21.36	6.23	-42.6	-44.0	20.2	0.00e+00	13	27	101	1048576	60	7748
2026-01-05 14:33:22.43	21.37	6.30	-42.5	-43.9	20.3	0.00e+00	0	27	101	1048576	60	7622
2026-01-05 14:33:23.44	21.39	6.38	-42.6	-44.0	20.3	0.00e+00	9	27	101	1048576	60	7686
2026-01-05 14:33:24.45	21.41	6.45	-42.3	-43.6	20.6	0.00e+00	0	27	101	1048576	60	7390
2026-01-05 14:33:25.46	21.42	6.53	-42.4	-43.7	20.5	0.00e+00	72	27	101	1048576	60	7469
2026-01-05 14:33:26.47	21.44	6.61	-42.5	-43.9	20.3	0.00e+00	0	27	101	1048576	60	7597
2026-01-05 14:33:27.48	21.46	6.68	-42.3	-43.6	20.5	0.00e+00	0	27	101	1048576	60	7382
2026-01-05 14:33:28.50	21.47	6.76	-42.2	-43.4	20.8	0.00e+00	15	27	101	1048576	60	7234
2026-01-05 14:33:29.51	21.49	6.84	-42.3	-43.6	20.8	0.00e+00	0	27	101	1048576	60	7365
2026-01-05 14:33:30.52	21.51	6.91	-42.1	-43.4	20.7	0.00e+00	92	27	101	1048576	60	7218
2026-01-05 14:33:31.53	21.52	6.99	-42.0	-43.3	20.9	0.00e+00	0	27	101	1048576	60	7096
2026-01-05 14:33:32.54	21.54	7.07	-41.9	-43.2	21.0	0.00e+00	92	27	101	1048576	60	7038
2026-01-05 14:33:33.55	21.56	7.14	-42.2	-43.5	20.8	0.00e+00	0	27	101	1048576	60	7278
2026-01-05 14:33:34.56	21.58	7.22	-42.2	-43.5	20.8	0.00e+00	0	27	101	1048576	60	7283
2026-01-05 14:33:35.58	21.59	7.30	-42.0	-43.2	21.1	0.00e+00	0	27	101	1048576	60	7083
2026-01-05 14:33:36.59	21.61	7.38	-42.0	-43.2	21.0	0.00e+00	0	27	101	1048576	60	7067
2026-01-05 14:33:37.60	21.63	7.46	-41.9	-43.1	21.1	0.00e+00	19	27	101	1048576	60	6978
2026-01-05 14:33:38.61	21.65	7.54	-42.1	-43.3	21.0	0.00e+00	0	27	101	1048576	60	7145
2026-01-05 14:33:39.62	21.66	7.61	-41.8	-43.0	21.2	0.00e+00	31	27	101	1048576	60	6900
2026-01-05 14:33:40.63	21.68	7.69	-41.8	-43.0	21.2	0.00e+00	0	27	101	1048576	60	6895
2026-01-05 14:33:41.64	21.70	7.77	-41.8	-43.1	21.3	0.00e+00	0	27	101	1048576	60	6941
2026-01-05 14:33:42.66	21.72	7.85	-41.9	-43.1	21.2	0.00e+00	0	27	101	1048576	60	6984
2026-01-05 14:33:43.67	21.73	7.93	-41.6	-42.8	21.4	0.00e+00	0	27	101	1048576	60	6738
2026-01-05 14:33:44.68	21.75	8.01	-41.7	-42.9	21.3	0.00e+00	71	27	101	1048576	60	6842
2026-01-05 14:33:45.69	21.77	8.09	-41.8	-43.0	21.2	0.00e+00	0	27	101	1048576	60	6873
2026-01-05 14:33:46.70	21.79	8.17	-41.9	-43.2	21.2	0.00e+00	90	27	101	1048576	60	7012
2026-01-05 14:33:47.71	21.81	8.26	-41.6	-42.8	21.4	0.00e+00	0	27	101	1048576	60	6730
2026-01-05 14:33:48.72	21.82	8.34	-41.6	-42.8	21.6	0.00e+00	0	27	101	1048576	60	6715
2026-01-05 14:33:49.73	21.84	8.42	-41.6	-42.8	21.4	0.00e+00	0	27	101	1048576	60	6698
2026-01-05 14:33:50.74	21.86	8.50	-41.4	-42.6	21.7	0.00e+00	0	27	101	1048576	60	6551
2026-01-05 14:33:51.76	21.88	8.58	-41.5	-42.7	21.6	0.00e+00	21	27	101	1048576	60	6620
2026-01-05 14:33:52.77	21.90	8.66	-41.5	-42.7	21.6	0.00e+00	0	27	101	1048576	60	6646
2026-01-05 14:33:53.78	21.92	8.75	-41.7	-42.8	21.4	0.00e+00	66	27	101	1048576	60	6754
2026-01-05 14:33:54.79	21.94	8.83	-41.5	-42.7	21.6	0.00e+00	0	27	101	1048576	60	6622
2026-01-05 14:33:55.80	21.95	8.91	-41.4	-42.5	21.8	0.00e+00	44	27	101	1048576	60	6504
2026-01-05 14:33:56.81	21.97	9.00	-41.3	-42.4	21.9	0.00e+00	0	27	101	1048576	60	6444
2026-01-05 14:33:57.82	21.99	9.08	-41.2	-42.3	22.0	0.00e+00	0	27	101	1048576	60	6361
2026-01-05 14:33:58.83	22.01	9.16	-41.2	-42.3	21.9	0.00e+00	20	27	101	1048576	60	6349
2026-01-05 14:33:59.85	22.03	9.25	-41.3	-42.4	21.8	0.00e+00	0	27	101	1048576	60	6410
2026-01-05 14:34:00.86	22.05	9.33	-41.2	-42.2	21.9	0.00e+00	17	27	101	1048576	60	6314
2026-01-05 14:34:01.87	22.07	9.42	-41.1	-42.2	22.0	0.00e+00	0	27	101	1048576	60	6275
2026-01-05 14:34:02.88	22.09	9.50	-41.1	-42.2	22.0	0.00e+00	68	27	101	1048576	60	6299
2026-01-05 14:34:03.89	22.11	9.59	-41.2	-42.3	22.0	0.00e+00	0	27	101	1048576	60	6321
2026-01-05 14:34:04.90	22.13	9.67	-41.2	-42.3	22.0	0.00e+00	0	27	101	1048576	60	6330
2026-01-05 14:34:05.91	22.15	9.76	-41.1	-42.2	22.0	0.00e+00	21	27	101	1048576	60	6271
2026-01-05 14:34:06.92	22.17	9.85	-40.9	-42.0	22.2	0.00e+00	0	27	101	1048576	60	6148
2026-01-05 14:34:07.93	22.19	9.93	-41.0	-42.1	22.1	0.00e+00	92	27	101	1048576	60	6213
2026-01-05 14:34:08.94	22.21	10.02	-41.0	-42.1	22.1	0.00e+00	0	27	101	1048576	60	6186
2026-01-05 14:34:09.96	22.23	10.11	-40.8	-41.9	22.3	0.00e+00	92	27	101	1048576	60	6047
2026-01-05 14:34:10.97	22.25	10.20	-41.0	-42.1	22.3	0.00e+00	0	27	101	1048576	60	6196
2026-01-05 14:34:11.98	22.27	10.28	-41.0	-42.1	22.1	0.00e+00	0	27	101	1048576	60	6180
2026-01-05 14:34:12.99	22.29	10.37	-40.8	-41.9	22.3	0.00e+00	0	27	101	1048576	60	6053
2026-01-05 14:34:14.00	22.31	10.46	-40.7	-41.7	22.5	0.00e+00	0	27	101	1048576	60	5963
2026-01-05 14:34:15.01	22.33	10.55	-40.7	-41.7	22.5	0.00e+00	0	27	101	1048576	60	5921
2026-01-05 14:34:16.02	22.35	10.64	-40.7	-41.7	22.5	0.00e+00	0	27	101	1048576	60	5910
2026-01-05 14:34:17.03	22.37	10.73	-40.7	-41.7	22.5	0.00e+00	26	27	101	1048576	60	5927
2026-01-05 14:34:18.04	22.39	10.82	-40.5	-41.6	22.6	0.00e+00	0	27	101	1048576	60	5834
2026-01-05 14:34:19.05	22.41	10.91	-40.4	-41.4	22.7	0.00e+00	0	27	101	1048576	60	5723
2026-01-05 14:34:20.07	22.43	11.00	-40.4	-41.4	22.7	0.00e+00	17	27	101	1048576	60	5748
2026-01-05 14:34:21.08	22.45	11.09	-40.3	-41.3	22.8	0.00e+00	0	27	101	1048576	60	5659
2026-01-05 14:34:22.09	22.47	11.18	-40.3	-41.3	22.8	0.00e+00	26	27	101	1048576	60	5657
2026-01-05 14:34:23.10	22.50	11.27	-40.3	-41.2	22.8	0.00e+00	18	27	101	1048576	60	5627
2026-01-05 14:34:24.11	22.52	11.36	-40.2	-41.2	22.9	0.00e+00	80	27	101	1048576	60	5579
2026-01-05 14:34:25.12	22.54	11.45	-40.2	-41.2	23.0	0.00e+00	0	27	101	1048576	60	5578
2026-01-05 14:34:26.13	22.56	11.55	-40.3	-41.3	22.9	0.00e+00	25	27	101	1048576	60	5664
2026-01-05 14:34:27.15	22.58	11.64	-39.9	-40.9	23.2	0.00e+00	0	27	101	1048576	58	6060
2026-01-05 14:34:28.16	22.60	11.73	-40.1	-41.1	23.0	0.00e+00	0	27	101	1048576	58	6219
2026-01-05 14:34:29.17	22.63	11.83	-40.0	-40.9	23.0	0.00e+00	31	27	101	1048576	58	6099
2026-01-05 14:34:30.18	22.65	11.92	-40.1	-41.1	23.0	0.00e+00	0	27	101	1048576	58	6187
2026-01-05 14:34:31.19	22.67	12.01	-40.2	-41.2	22.9	0.00e+00	90	27	101	1048576	58	6299
2026-01-05 14:34:32.20	22.69	12.11	-39.9	-40.9	23.2	0.00e+00	0	27	101	1048576	58	6051
2026-01-05 14:34:33.21	22.72	12.20	-39.9	-40.9	23.1	0.00e+00	0	27	101	1048576	58	6035
2026-01-05 14:34:34.23	22.74	12.30	-39.8	-40.7	23.3	0.00e+00	0	27	101	1048576	58	5946
2026-01-05 14:34:35.24	22.76	12.39	-39.9	-40.8	23.2	0.00e+00	0	27	101	1048576	58	6010
2026-01-05 14:34:36.25	22.78	12.49	-39.9	-40.8	23.2	0.00e+00	21	27	101	1048576	58	6015
2026-01-05 14:34:37.26	22.81	12.59	-39.9	-40.9	23.2	0.00e+00	0	27	101	1048576	58	6050
2026-01-05 14:34:38.27	22.83	12.68	-39.8	-40.8	23.2	0.00e+00	59	27	101	1048576	58	5980
2026-01-05 14:34:39.28	22.85	12.78	-40.0	-40.9	23.1	0.00e+00	0	27	101	1048576	58	6077
2026-01-05 14:34:40.29	22.88	12.88	-39.8	-40.7	23.3	0.00e+00	0	27	101	1048576	58	5948
2026-01-05 14:34:41.30	22.90	12.98	-40.1	-41.1	22.9	0.00e+00	0	27	101	1048576	58	6187
2026-01-05 14:34:42.31	22.92	13.07	-40.0	-40.9	23.1	0.00e+00	0	27	101	1048576	58	6103
2026-01-05 14:34:43.32	22.95	13.17	-40.1	-41.1	23.1	0.00e+00	22	27	101	1048576	58	6181
2026-01-05 14:34:44.34	22.97	13.27	-40.1	-41.1	23.0	0.00e+00	0	27	101	1048576	58	6218
2026-01-05 14:34:45.35	22.99	13.37	-39.9	-40.8	23.3	0.00e+00	92	27	101	1048576	58	5992
2026-01-05 14:34:46.36	23.02	13.47	-40.0	-40.9	23.1	0.00e+00	0	27	101	1048576	58	6098
2026-01-05 14:34:47.37	23.04	13.57	-39.8	-40.7	23.2	0.00e+00	0	27	101	1048576	58	5955
2026-01-05 14:34:48.38	23.07	13.67	-39.9	-40.8	23.3	0.00e+00	0	27	101	1048576	58	6028
2026-01-05 14:34:49.39	23.09	13.77	-39.7	-40.6	23.3	0.00e+00	0	27	101	1048576	58	5896
2026-01-05 14:34:50.40	23.11	13.88	-39.8	-40.8	23.3	0.00e+00	0	27	101	1048576	58	5991
2026-01-05 14:34:51.41	23.14	13.98	-39.8	-40.8	23.5	0.00e+00	0	27	101	1048576	58	5984
2026-01-05 14:34:52.42	23.16	14.08	-39.9	-40.8	23.2	0.00e+00	92	27	101	1048576	58	6003
2026-01-05 14:34:53.43	23.19	14.18	-39.6	-40.6	23.4	0.00e+00	0	27	101	1048576	58	5836
2026-01-05 14:34:54.45	23.21	14.29	-39.8	-40.7	23.3	0.00e+00	89	27	101	1048576	58	5947
2026-01-05 14:34:55.46	23.24	14.39	-39.8	-40.8	23.2	0.00e+00	0	27	101	1048576	58	5994
2026-01-05 14:34:56.47	23.27	14.49	-39.8	-40.7	23.2	0.00e+00	0	27	101	1048576	58	5919
2026-01-05 14:34:57.48	23.29	14.60	-39.7	-40.7	23.4	0.00e+00	18	27	101	1048576	58	5908
2026-01-05 14:34:58.49	23.32	14.70	-39.7	-40.6	23.4	0.00e+00	0	27	101	1048576	58	5875
2026-01-05 14:34:59.50	23.34	14.81	-39.7	-40.7	23.4	0.00e+00	16	27	101	1048576	58	5897
2026-01-05 14:35:00.51	23.37	14.92	-39.8	-40.7	23.1	0.00e+00	0	27	101	1048576	58	5954
2026-01-05 14:35:01.52	23.39	15.02	-40.2	-41.1	22.7	0.00e+00	92	27	101	1048576	58	6228
2026-01-05 14:35:02.53	23.42	15.13	-40.0	-41.0	22.8	0.00e+00	0	27	101	1048576	58	6110
2026-01-05 14:35:03.55	23.45	15.24	-40.1	-41.1	22.6	0.00e+00	0	27	101	1048576	58	6197
2026-01-05 14:35:04.56	23.47	15.35	-40.0	-40.9	22.9	0.00e+00	0	27	101	1048576	58	6102
2026-01-05 14:35:05.57	23.50	15.45	-40.3	-41.3	22.7	0.00e+00	0	27	101	1048576	58	6350
2026-01-05 14:35:06.58	23.53	15.56	-40.0	-40.9	23.2	0.00e+00	16	27	101	1048576	58	6101
2026-01-05 14:35:07.59	23.55	15.67	-40.2	-41.2	22.9	0.00e+00	0	27	101	1048576	58	6261
2026-01-05 14:35:08.60	23.58	15.78	-40.1	-41.1	23.1	0.00e+00	90	27	101	1048576	58	6210
2026-01-05 14:35:09.61	23.61	15.89	-40.2	-41.2	23.1	0.00e+00	0	27	101	1048576	58	6266
2026-01-05 14:35:10.62	23.64	16.00	-40.1	-41.1	23.2	0.00e+00	0	27	101	1048576	58	6174
2026-01-05 14:35:11.63	23.67	16.11	-40.3	-41.2	23.1	0.00e+00	0	27	101	1048576	58	6300
2026-01-05 14:35:12.64	23.69	16.23	-40.3	-41.3	23.0	0.00e+00	0	27	101	1048576	58	6369
2026-01-05 14:35:13.65	23.72	16.34	-40.3	-41.3	23.0	0.00e+00	53	27	101	1048576	58	6366
2026-01-05 14:35:14.66	23.75	16.45	-40.6	-41.6	22.8	0.00e+00	0	27	101	1048576	58	6559
2026-01-05 14:35:15.68	23.78	16.56	-40.5	-41.5	22.7	0.00e+00	92	27	101	1048576	58	6525
2026-01-05 14:35:16.69	23.81	16.68	-40.6	-41.6	22.7	0.00e+00	0	27	101	1048576	58	6608
2026-01-05 14:35:17.70	23.84	16.79	-40.9	-41.9	22.6	0.00e+00	0	27	101	1048576	58	6845
2026-01-05 14:35:18.71	23.86	16.91	-40.5	-41.5	22.8	0.00e+00	0	27	101	1048576	58	6511
2026-01-05 14:35:19.72	23.89	17.02	-40.5	-41.5	22.8	0.00e+00	0	27	101	1048576	58	6529
2026-01-05 14:35:20.73	23.92	17.14	-40.7	-41.8	22.7	0.00e+00	60	27	101	1048576	58	6697
2026-01-05 14:35:21.74	23.95	17.26	-40.8	-41.8	22.6	0.00e+00	0	27	101	1048576	58	6734
2026-01-05 14:35:22.75	23.98	17.37	-40.8	-41.8	22.6	0.00e+00	89	27	101	1048576	58	6753
2026-01-05 14:35:23.76	24.01	17.49	-40.7	-41.7	22.6	0.00e+00	0	27	101	1048576	58	6672
2026-01-05 14:35:24.78	24.04	17.61	-40.8	-41.8	22.5	0.00e+00	26	27	101	1048576	58	6760
2026-01-05 14:35:25.79	24.07	17.73	-41.2	-42.3	22.2	0.00e+00	0	27	101	1048576	60	6327
2026-01-05 14:35:26.80	24.10	17.85	-41.4	-42.4	22.2	0.00e+00	0	27	101	1048576	60	6460
2026-01-05 14:35:27.81	24.14	17.97	-41.2	-42.3	22.2	0.00e+00	24	27	101	1048576	60	6353
2026-01-05 14:35:28.82	24.17	18.09	-41.4	-42.5	22.1	0.00e+00	0	27	101	1048576	60	6470
2026-01-05 14:35:29.83	24.20	18.21	-41.4	-42.4	22.2	0.00e+00	57	27	101	1048576	60	6456
2026-01-05 14:35:30.84	24.23	18.33	-41.5	-42.6	21.8	0.00e+00	0	27	101	1048576	60	6594
2026-01-05 14:35:31.85	24.26	18.45	-41.3	-42.4	22.1	0.00e+00	72	27	101	1048576	60	6420
2026-01-05 14:35:32.86	24.29	18.58	-41.6	-42.7	21.8	0.00e+00	0	27	101	1048576	60	6653
2026-01-05 14:35:33.87	24.32	18.70	-41.7	-42.8	21.9	0.00e+00	0	27	101	1048576	60	6715
2026-01-05 14:35:34.88	24.36	18.82	-42.1	-43.3	21.4	0.00e+00	0	27	101	1048576	60	7149
2026-01-05 14:35:35.89	24.39	18.95	-41.7	-42.9	21.9	0.00e+00	0	27	101	1048576	60	6780
2026-01-05 14:35:36.90	24.42	19.07	-41.7	-42.9	21.8	0.00e+00	92	27	101	1048576	60	6801
2026-01-05 14:35:37.92	24.46	19.20	-41.6	-42.7	21.9	0.00e+00	0	27	101	1048576	60	6659
2026-01-05 14:35:38.93	24.49	19.33	-41.9	-43.0	21.7	0.00e+00	91	27	101	1048576	60	6925
2026-01-05 14:35:39.94	24.52	19.45	-41.8	-43.0	21.7	0.00e+00	0	27	101	1048576	60	6872
2026-01-05 14:35:40.95	24.56	19.58	-41.9	-43.1	21.7	0.00e+00	0	27	101	1048576	60	6959
2026-01-05 14:35:41.96	24.59	19.71	-41.6	-42.7	22.0	0.00e+00	0	27	101	1048576	60	6647
2026-01-05 14:35:42.97	24.62	19.84	-41.5	-42.7	21.9	0.00e+00	0	27	101	1048576	60	6628
2026-01-05 14:35:43.99	24.66	19.97	-41.7	-42.9	21.8	0.00e+00	91	27	101	1048576	60	6791
2026-01-05 14:35:45.00	24.69	20.10	-41.6	-42.7	22.1	0.00e+00	0	27	101	1048576	60	6634
2026-01-05 14:35:46.01	24.73	20.23	-41.6	-42.7	21.9	0.00e+00	43	27	101	1048576	60	6653
2026-01-05 14:35:47.02	24.76	20.36	-41.3	-42.4	22.3	0.00e+00	0	27	101	1048576	60	6402
2026-01-05 14:35:48.03	24.80	20.50	-41.5	-42.6	22.1	0.00e+00	0	27	101	1048576	60	6574
2026-01-05 14:35:49.04	24.84	20.63	-41.3	-42.4	22.2	0.00e+00	0	27	101	1048576	60	6432
2026-01-05 14:35:50.05	24.87	20.76	-41.1	-42.2	22.3	0.00e+00	0	27	101	1048576	60	6286
2026-01-05 14:35:51.06	24.91	20.90	-41.4	-42.4	22.4	0.00e+00	81	27	101	1048576	60	6460
2026-01-05 14:35:52.08	24.95	21.04	-41.5	-42.6	22.2	0.00e+00	0	27	101	1048576	60	6583
2026-01-05 14:35:53.09	24.98	21.17	-41.4	-42.5	22.2	0.00e+00	90	27	101	1048576	60	6475
2026-01-05 14:35:54.10	25.02	21.31	-41.6	-42.7	21.7	0.00e+00	22	27	101	1048576	60	6673
2026-01-05 14:35:55.11	25.06	21.45	-41.5	-42.6	22.1	0.00e+00	0	27	101	1048576	60	6567
2026-01-05 14:35:56.12	25.10	21.59	-41.4	-42.4	22.2	0.00e+00	0	27	101	1048576	60	6464
2026-01-05 14:35:57.13	25.13	21.72	-41.4	-42.4	22.2	0.00e+00	21	27	101	1048576	60	6456
2026-01-05 14:35:58.14	25.17	21.86	-41.3	-42.4	22.5	0.00e+00	21	27	101	1048576	60	6420
2026-01-05 14:35:59.15	25.21	22.00	-41.2	-42.3	22.3	0.00e+00	0	27	101	1048576	60	6344
2026-01-05 14:36:00.16	25.25	22.15	-41.1	-42.1	22.4	0.00e+00	90	27	101	1048576	60	6237
2026-01-05 14:36:01.18	25.29	22.29	-41.3	-42.4	22.3	0.00e+00	0	27	101	1048576	60	6403
2026-01-05 14:36:02.19	25.33	22.43	-41.5	-42.6	22.2	0.00e+00	0	27	101	1048576	60	6563
2026-01-05 14:36:03.20	25.37	22.58	-41.1	-42.2	22.4	0.00e+00	12	27	101	1048576	60	6268
2026-01-05 14:36:04.21	25.41	22.72	-41.5	-42.6	22.0	0.00e+00	0	27	101	1048576	60	6575
2026-01-05 14:36:05.22	25.45	22.87	-41.3	-42.4	22.1	0.00e+00	61	27	101	1048576	60	6448
2026-01-05 14:36:06.23	25.49	23.01	-41.3	-42.4	22.3	0.00e+00	0	27	101	1048576	60	6429
2026-01-05 14:36:07.24	25.53	23.16	-41.2	-42.3	22.3	0.00e+00	91	27	101	1048576	60	6362
2026-01-05 14:36:08.25	25.58	23.31	-41.2	-42.2	22.4	0.00e+00	0	27	101	1048576	60	6313
2026-01-05 14:36:09.26	25.62	23.46	-41.3	-42.4	22.3	0.00e+00	45	27	101	1048576	60	6402
2026-01-05 14:36:10.28	25.66	23.61	-41.3	-42.4	22.3	0.00e+00	0	27	101	1048576	60	6448
2026-01-05 14:36:11.29	25.70	23.76	-41.3	-42.4	22.0	0.00e+00	0	27	101	1048576	60	6462
2026-01-05 14:36:12.30	25.75	23.91	-41.2	-42.3	22.3	0.00e+00	0	27	101	1048576	60	6336
2026-01-05 14:36:13.31	25.79	24.06	-41.0	-42.1	22.5	0.00e+00	0	27	101	1048576	60	6192
2026-01-05 14:36:14.32	25.83	24.21	-41.0	-42.1	22.5	0.00e+00	90	27	101	1048576	60	6202
2026-01-05 14:36:15.33	25.88	24.37	-41.1	-42.1	22.5	0.00e+00	0	27	101	1048576	60	6241
2026-01-05 14:36:16.34	25.92	24.52	-40.9	-42.0	22.6	0.00e+00	81	27	101	1048576	60	6104
2026-01-05 14:36:17.35	25.97	24.68	-40.7	-41.8	22.7	0.00e+00	0	27	101	1048576	60	5967
2026-01-05 14:36:18.36	26.01	24.84	-40.7	-41.7	22.9	0.00e+00	0	27	101	1048576	60	5907
2026-01-05 14:36:19.38	26.06	25.00	-40.8	-41.9	22.7	0.00e+00	0	27	101	1048576	60	6035
2026-01-05 14:36:20.39	26.11	25.15	-40.8	-41.8	22.9	0.00e+00	0	27	101	1048576	60	6009
2026-01-05 14:36:21.40	26.15	25.31	-40.8	-41.8	22.7	0.00e+00	38	27	101	1048576	60	6031
2026-01-05 14:36:22.41	26.20	25.47	-40.8	-41.8	22.7	0.00e+00	0	27	101	1048576	60	6023
2026-01-05 14:36:23.42	26.25	25.64	-40.6	-41.6	22.9	0.00e+00	7	27	101	1048576	60	5838
2026-01-05 14:36:24.43	26.30	25.80	-40.7	-41.7	22.8	0.00e+00	0	27	101	1048576	60	5907
2026-01-05 14:36:25.44	26.35	25.96	-40.7	-41.7	22.8	0.00e+00	0	27	101	1048576	60	5918
2026-01-05 14:36:26.45	26.39	26.13	-40.7	-41.6	22.9	0.00e+00	0	27	101	1048576	60	5892
2026-01-05 14:36:27.46	26.44	26.29	-40.8	-41.8	22.9	0.00e+00	0	27	101	1048576	60	6012
2026-01-05 14:36:28.47	26.49	26.46	-40.7	-41.7	22.9	0.00e+00	37	27	101	1048576	60	5903
2026-01-05 14:36:29.49	26.55	26.63	-40.7	-41.7	22.9	0.00e+00	0	27	101	1048576	60	5934
2026-01-05 14:36:30.50	26.60	26.79	-40.5	-41.4	23.1	0.00e+00	92	27	101	1048576	60	5720
2026-01-05 14:36:31.51	26.65	26.96	-40.7	-41.6	22.9	0.00e+00	0	27	101	1048576	60	5886
2026-01-05 14:36:32.52	26.70	27.13	-40.7	-41.7	23.0	0.00e+00	0	27	101	1048576	60	5942
2026-01-05 14:36:33.53	26.75	27.31	-40.9	-41.9	22.7	0.00e+00	0	27	101	1048576	60	6073
2026-01-05 14:36:34.54	26.81	27.48	-41.2	-42.3	22.4	0.00e+00	0	27	101	1048576	60	6330
2026-01-05 14:36:35.55	26.86	27.65	-40.9	-41.8	22.8	0.00e+00	22	27	101	1048576	60	6031
2026-01-05 14:36:36.56	26.91	27.83	-40.9	-41.8	22.7	0.00e+00	0	27	101	1048576	60	6019
2026-01-05 14:36:37.57	26.97	28.00	-41.5	-42.5	22.3	0.00e+00	90	27	101	1048576	60	6508
2026-01-05 14:36:38.58	27.02	28.18	-40.7	-41.6	22.9	0.00e+00	0	27	101	1048576	60	5883
2026-01-05 14:36:39.60	27.08	28.36	-40.5	-41.5	22.9	0.00e+00	0	27	101	1048576	60	5791
2026-01-05 14:36:40.61	27.14	28.54	-40.5	-41.4	23.3	0.00e+00	0	27	101	1048576	60	5718
2026-01-05 14:36:41.62	27.19	28.72	-40.2	-41.1	23.3	0.00e+00	24	27	101	1048576	60	5565
2026-01-05 14:36:42.63	27.25	28.90	-40.0	-40.9	23.5	0.00e+00	87	27	101	1048576	58	6048
2026-01-05 14:36:43.64	27.31	29.08	-40.4	-41.3	23.2	0.00e+00	0	27	101	1048576	58	6353
2026-01-05 14:36:44.65	27.37	29.27	-40.3	-41.2	23.1	0.00e+00	90	27	101	1048576	58	6267
2026-01-05 14:36:45.66	27.43	29.45	-40.0	-40.9	23.4	0.00e+00	0	27	101	1048576	58	6088
2026-01-05 14:36:46.68	27.49	29.64	-40.3	-41.2	23.2	0.00e+00	0	27	101	1048576	58	6284
2026-01-05 14:36:47.69	27.55	29.83	-40.4	-41.3	23.0	0.00e+00	0	27	101	1048576	58	6388
2026-01-05 14:36:48.70	27.61	30.02	-40.5	-41.5	22.8	0.00e+00	0	27	101	1048576	58	6479
2026-01-05 14:36:49.71	27.67	30.21	-40.9	-41.9	22.6	0.00e+00	41	27	101	1048576	58	6774
2026-01-05 14:36:50.72	27.73	30.40	-40.6	-41.6	23.0	0.00e+00	0	27	101	1048576	58	6545
2026-01-05 14:36:51.73	27.80	30.59	-40.9	-41.9	22.6	0.00e+00	83	27	101	1048576	58	6785
2026-01-05 14:36:52.74	27.86	30.78	-40.9	-41.9	22.8	0.00e+00	0	27	101	1048576	58	6840
2026-01-05 14:36:53.75	27.93	30.98	-40.7	-41.7	22.7	0.00e+00	0	27	101	1048576	58	6648
2026-01-05 14:36:54.76	27.99	31.17	-41.5	-42.5	22.3	0.00e+00	0	27	101	1048576	60	6537
2026-01-05 14:36:55.78	28.06	31.37	-41.3	-42.3	22.3	0.00e+00	0	27	101	1048576	60	6363
2026-01-05 14:36:56.79	28.13	31.57	-41.7	-42.8	22.0	0.00e+00	29	27	101	1048576	60	6728
2026-01-05 14:36:57.80	28.19	31.77	-42.0	-43.1	21.7	0.00e+00	0	27	101	1048576	60	6964
2026-01-05 14:36:58.81	28.26	31.97	-42.3	-43.5	21.4	0.00e+00	78	27	101	1048576	60	7259
2026-01-05 14:36:59.82	28.33	32.18	-42.4	-43.6	20.9	0.00e+00	0	27	101	1048576	60	7411
2026-01-05 14:37:00.83	28.40	32.38	-42.6	-43.9	21.1	0.00e+00	45	27	101	1048576	60	7597
2026-01-05 14:37:01.84	28.47	32.59	-43.2	-44.6	20.2	0.00e+00	0	27	101	1048576	60	8295
2026-01-05 14:37:02.85	28.55	32.79	-42.8	-44.1	20.8	0.00e+00	0	27	101	1048576	60	7835
2026-01-05 14:37:03.86	28.62	33.00	-42.6	-43.9	21.0	0.00e+00	0	27	101	1048576	60	7679
2026-01-05 14:37:04.87	28.69	33.21	-42.7	-44.1	20.9	0.00e+00	0	27	101	1048576	60	7778
2026-01-05 14:37:05.89	28.77	33.42	-42.8	-44.1	20.6	0.00e+00	92	27	101	1048576	60	7844
2026-01-05 14:37:06.90	28.84	33.64	-43.0	-44.4	20.5	0.00e+00	0	27	101	1048576	60	8067
2026-01-05 14:37:07.91	28.92	33.85	-42.7	-44.0	20.8	0.00e+00	92	27	101	1048576	60	7723
2026-01-05 14:37:08.92	29.00	34.07	-42.5	-43.8	21.2	0.00e+00	0	27	101	1048576	60	7544
2026-01-05 14:37:09.93	29.08	34.28	-42.1	-43.3	21.8	0.00e+00	0	27	101	1048576	60	7107
2026-01-05 14:37:10.94	29.16	34.50	-41.6	-42.7	22.1	0.00e+00	0	27	101	1048576	60	6643
2026-01-05 14:37:11.95	29.24	34.72	-41.3	-42.4	22.3	0.00e+00	0	27	101	1048576	60	6396
2026-01-05 14:37:12.96	29.32	34.94	-41.0	-42.0	22.5	0.00e+00	27	27	101	1048576	60	6154
2026-01-05 14:37:13.98	29.40	35.17	-41.1	-42.1	22.6	0.00e+00	0	27	101	1048576	60	6213
2026-01-05 14:37:14.98	29.48	35.39	-40.5	-41.5	23.1	0.00e+00	92	27	101	1048576	60	5784
2026-01-05 14:37:16.00	29.57	35.62	-40.6	-41.5	23.2	0.00e+00	0	27	101	1048576	60	5812
2026-01-05 14:37:17.01	29.66	35.85	-40.7	-41.7	22.8	0.00e+00	0	27	101	1048576	60	5932
2026-01-05 14:37:18.02	29.74	36.07	-40.5	-41.4	22.9	0.00e+00	0	27	101	1048576	58	6452
2026-01-05 14:37:19.03	29.83	36.31	-40.5	-41.4	22.9	0.00e+00	0	27	101	1048576	58	6459
2026-01-05 14:37:20.04	29.92	36.54	-40.8	-41.8	23.0	0.00e+00	0	27	101	1048576	58	6711
2026-01-05 14:37:21.05	30.01	36.77	-40.6	-41.6	22.8	0.00e+00	0	27	101	1048576	58	6544
2026-01-05 14:37:22.06	30.10	37.01	-40.9	-41.9	22.7	0.00e+00	45	27	101	1048576	58	6847
2026-01-05 14:37:23.07	30.20	37.24	-41.4	-42.4	22.2	0.00e+00	0	27	101	1048576	60	6457
2026-01-05 14:37:24.08	30.29	37.48	-41.6	-42.7	21.9	0.00e+00	0	27	101	1048576	60	6689
2026-01-05 14:37:25.10	30.39	37.73	-42.2	-43.4	21.5	0.00e+00	0	27	101	1048576	60	7201
2026-01-05 14:37:26.11	30.49	37.97	-42.7	-44.0	20.9	0.00e+00	0	27	101	1048576	60	7733
2026-01-05 14:37:27.12	30.58	38.21	-42.5	-43.8	21.3	0.00e+00	90	27	101	1048576	60	7579
2026-01-05 14:37:28.13	30.68	38.46	-43.2	-44.6	20.4	0.00e+00	30	27	101	1048576	60	8310
2026-01-05 14:37:29.14	30.79	38.70	-42.7	-44.1	20.9	0.00e+00	90	27	101	1048576	60	7793
2026-01-05 14:37:30.15	30.89	38.95	-42.6	-43.9	21.2	0.00e+00	0	27	101	1048576	60	7642
2026-01-05 14:37:31.16	30.99	39.20	-43.0	-44.4	20.7	0.00e+00	29	27	101	1048576	60	8069
2026-01-05 14:37:32.17	31.10	39.45	-43.2	-44.7	20.3	0.00e+00	0	27	101	1048576	60	8351
2026-01-05 14:37:33.19	31.21	39.71	-43.1	-44.5	20.0	0.00e+00	0	27	101	1048576	60	8215
2026-01-05 14:37:34.20	31.32	39.97	-43.2	-44.7	20.3	0.00e+00	76	27	101	1048576	60	8342
2026-01-05 14:37:35.21	31.43	40.22	-43.4	-44.9	20.0	0.00e+00	0	27	101	1048576	60	8568
2026-01-05 14:37:36.22	31.54	40.48	-43.3	-44.7	20.2	0.00e+00	74	27	101	1048576	60	8409
2026-01-05 14:37:37.23	31.66	40.75	-43.6	-45.1	20.0	0.00e+00	0	27	101	1048576	60	8811
2026-01-05 14:37:38.24	31.77	41.01	-43.2	-44.6	20.4	0.00e+00	0	27	101	1048576	60	8288
2026-01-05 14:37:39.25	31.89	41.27	-42.9	-44.2	20.9	0.00e+00	0	27	101	1048576	60	7888
2026-01-05 14:37:40.26	32.01	41.54	-42.6	-43.8	21.1	0.00e+00	0	27	101	1048576	60	7593
2026-01-05 14:37:41.27	32.13	41.81	-41.5	-42.6	22.1	0.00e+00	31	27	101	1048576	60	6577
2026-01-05 14:37:42.28	32.26	42.08	-41.4	-42.5	22.4	0.00e+00	0	27	101	1048576	60	6485
2026-01-05 14:37:43.30	32.38	42.35	-41.1	-42.1	22.5	0.00e+00	92	27	101	1048576	60	6196
2026-01-05 14:37:44.31	32.51	42.63	-41.0	-42.0	22.7	0.00e+00	0	27	101	1048576	60	6118
2026-01-05 14:37:45.32	32.64	42.90	-40.9	-41.8	22.7	0.00e+00	17	27	101	1048576	60	6032
2026-01-05 14:37:46.33	32.77	43.18	-40.9	-41.9	22.7	0.00e+00	0	27	101	1048576	60	6094
2026-01-05 14:37:47.34	32.91	43.46	-41.1	-42.2	22.3	0.00e+00	0	27	101	1048576	60	6249
2026-01-05 14:37:48.35	33.05	43.74	-41.4	-42.5	22.3	0.00e+00	30	27	101	1048576	60	6483
2026-01-05 14:37:49.36	33.18	44.02	-41.3	-42.4	22.4	0.00e+00	0	27	101	1048576	60	6404
2026-01-05 14:37:50.38	33.33	44.31	-41.5	-42.6	22.1	0.00e+00	74	27	101	1048576	60	6557
2026-01-05 14:37:51.39	33.47	44.60	-41.7	-42.9	21.9	0.00e+00	0	27	101	1048576	60	6785
2026-01-05 14:37:52.40	33.62	44.89	-41.8	-42.9	21.9	0.00e+00	48	27	101	1048576	60	6809
2026-01-05 14:37:53.41	33.77	45.18	-41.7	-42.8	22.0	0.00e+00	0	27	101	1048576	60	6761
2026-01-05 14:37:54.42	33.92	45.47	-42.4	-43.7	21.4	0.00e+00	0	28	101	1048576	60	7441
2026-01-05 14:37:55.43	34.08	45.77	-42.3	-43.5	21.3	0.00e+00	24	27	101	1048576	60	7323
2026-01-05 14:37:56.44	34.23	46.07	-42.7	-44.0	20.5	0.00e+00	0	27	101	1048576	60	7760
2026-01-05 14:37:57.45	34.39	46.36	-42.9	-44.2	20.7	0.00e+00	92	27	101	1048576	60	7951
2026-01-05 14:37:58.46	34.56	46.67	-43.3	-44.7	20.3	0.00e+00	0	27	101	1048576	60	8363
2026-01-05 14:37:59.47	34.72	46.97	-43.4	-44.9	20.1	0.00e+00	85	27	101	1048576	60	8573
2026-01-05 14:38:00.48	34.89	47.27	-43.7	-45.2	20.2	0.00e+00	0	27	101	1048576	60	8907
2026-01-05 14:38:01.49	35.07	47.58	-43.4	-44.9	20.2	0.00e+00	0	27	101	1048576	60	8571
2026-01-05 14:38:02.51	35.25	47.89	-43.4	-44.8	20.3	0.00e+00	0	27	101	1048576	60	8494
2026-01-05 14:38:03.52	35.43	48.20	-42.7	-43.9	21.0	0.00e+00	0	27	101	1048576	60	7683
2026-01-05 14:38:04.53	35.61	48.51	-41.7	-42.9	21.9	0.00e+00	28	27	101	1048576	60	6782
2026-01-05 14:38:05.54	35.80	48.83	-41.0	-42.0	22.7	0.00e+00	0	27	101	1048576	60	6153
2026-01-05 14:38:06.55	35.99	49.15	-40.6	-41.7	22.8	0.00e+00	54	27	101	1048576	60	5942
2026-01-05 14:38:07.56	36.18	49.46	-40.4	-41.5	23.0	0.00e+00	0	28	101	1048576	60	5764
2026-01-05 14:38:08.57	36.38	49.78	-39.9	-40.9	23.4	0.00e+00	0	27	101	1048576	58	6089
2026-01-05 14:38:09.59	36.59	50.11	-39.8	-40.8	23.4	0.00e+00	0	27	101	1048576	58	5978
2026-01-05 14:38:10.60	36.80	50.43	-39.3	-40.2	24.0	0.00e+00	0	28	101	1048576	58	5614
2026-01-05 14:38:11.61	37.01	50.76	-39.4	-40.3	23.9	0.00e+00	61	27	101	1048576	56	6383
2026-01-05 14:38:12.62	37.23	51.09	-39.1	-40.0	24.1	0.00e+00	0	27	101	1048576	56	6151
2026-01-05 14:38:13.63	37.45	51.42	-39.2	-40.1	24.2	0.00e+00	52	27	101	1048576	56	6180
2026-01-05 14:38:14.64	37.67	51.75	-38.3	-39.1	24.6	0.00e+00	0	27	101	1048576	56	5546
2026-01-05 14:38:15.65	37.90	52.08	-38.4	-39.2	24.7	0.00e+00	0	27	101	1048576	56	5583
2026-01-05 14:38:16.66	38.14	52.42	-38.3	-39.1	24.9	0.00e+00	0	27	101	1048576	56	5563
2026-01-05 14:38:17.67	38.38	52.76	-38.2	-38.9	24.8	0.00e+00	0	27	101	1048576	54	6095
2026-01-05 14:38:18.69	38.63	53.10	-38.1	-38.8	24.9	0.00e+00	44	27	101	1048576	54	6018
2026-01-05 14:38:19.70	38.89	53.44	-38.4	-39.2	24.6	0.00e+00	0	27	101	1048576	54	6292
2026-01-05 14:38:20.71	39.15	53.78	-38.5	-39.4	24.5	0.00e+00	90	27	101	1048576	54	6432
2026-01-05 14:38:21.72	39.41	54.13	-37.9	-38.7	25.0	0.00e+00	0	27	101	1048576	54	5940
2026-01-05 14:38:22.73	39.68	54.47	-37.1	-37.9	25.0	0.00e+00	0	27	101	1048576	52	6039
2026-01-05 14:38:23.74	39.96	54.82	-36.9	-37.7	25.6	0.00e+00	0	27	101	1048576	52	5920
2026-01-05 14:38:24.75	40.25	55.17	-36.6	-37.3	25.8	0.00e+00	0	27	101	1048576	52	5663
2026-01-05 14:38:25.76	40.54	55.52	-36.6	-37.4	25.8	0.00e+00	45	28	101	1048576	52	5702
2026-01-05 14:38:26.78	40.84	55.88	-37.1	-37.9	25.5	0.00e+00	0	27	101	1048576	52	6048
2026-01-05 14:38:27.79	41.15	56.23	-36.8	-37.6	25.7	0.00e+00	92	27	101	1048576	52	5844
2026-01-05 14:38:28.80	41.46	56.59	-37.2	-38.0	25.5	0.00e+00	0	27	101	1048576	52	6110
2026-01-05 14:38:29.81	41.78	56.94	-36.8	-37.6	25.6	0.00e+00	0	27	101	1048576	52	5843
2026-01-05 14:38:30.82	42.12	57.30	-36.8	-37.5	25.7	0.00e+00	0	27	101	1048576	52	5811
2026-01-05 14:38:31.83	42.46	57.66	-36.7	-37.5	25.7	0.00e+00	0	27	101	1048576	52	5765
2026-01-05 14:38:32.84	42.81	58.02	-37.3	-38.1	25.4	0.00e+00	32	28	101	1048576	52	6193
2026-01-05 14:38:33.85	43.16	58.39	-37.9	-38.7	24.8	0.00e+00	0	27	101	1048576	52	6663
2026-01-05 14:38:34.86	43.53	58.75	-38.4	-39.2	24.5	0.00e+00	92	27	101	1048576	54	6304
2026-01-05 14:38:35.87	43.91	59.12	-37.3	-38.1	25.3	0.00e+00	0	27	101	1048576	54	5519
2026-01-05 14:38:36.89	44.30	59.48	-37.0	-37.7	25.3	0.00e+00	0	27	101	1048576	52	5942
2026-01-05 14:38:37.90	44.70	59.85	-37.0	-37.7	25.6	0.00e+00	0	27	101	1048576	52	5956
2026-01-05 14:38:38.91	45.12	60.22	-37.1	-37.8	25.5	0.00e+00	0	27	101	1048576	52	6018
2026-01-05 14:38:39.92	45.54	60.59	-37.3	-38.0	25.5	0.00e+00	22	27	101	1048576	52	6159
2026-01-05 14:38:40.93	45.98	60.96	-37.3	-38.1	25.4	0.00e+00	0	28	101	1048576	52	6213
2026-01-05 14:38:41.94	46.42	61.33	-37.1	-37.9	25.5	0.00e+00	92	27	101	1048576	52	6043
2026-01-05 14:38:42.95	46.89	61.70	-37.4	-38.1	25.3	0.00e+00	0	27	101	1048576	52	6242
2026-01-05 14:38:43.96	47.36	62.07	-37.4	-38.2	25.2	0.00e+00	90	27	101	1048576	52	6286
2026-01-05 14:38:44.97	47.85	62.44	-38.0	-38.8	24.9	0.00e+00	0	27	101	1048576	52	6736
2026-01-05 14:38:45.99	48.37	62.82	-38.2	-39.1	24.5	0.00e+00	1	28	101	1048576	54	6214
2026-01-05 14:38:47.00	48.89	63.19	-37.8	-38.7	25.0	0.00e+00	0	28	101	1048576	54	5919
2026-01-05 14:38:48.01	49.43	63.56	-36.9	-37.7	25.7	0.00e+00	0	27	101	1048576	52	5920
2026-01-05 14:38:49.02	49.98	63.93	-36.2	-36.9	26.2	0.00e+00	0	27	101	1048576	52	5404
2026-01-05 14:38:50.03	50.56	64.30	-36.4	-37.1	25.8	0.00e+00	0	27	101	1048576	50	6225
2026-01-05 14:38:51.04	51.15	64.67	-37.5	-38.3	25.2	0.00e+00	92	27	101	1048576	52	6370
2026-01-05 14:38:52.05	51.76	65.04	-38.1	-38.9	24.8	0.00e+00	0	27	101	1048576	54	6087
2026-01-05 14:38:53.07	52.40	65.41	-38.6	-39.4	24.5	0.00e+00	0	27	101	1048576	54	6447
2026-01-05 14:38:54.08	53.05	65.78	-38.6	-39.4	24.6	0.00e+00	0	27	101	1048576	54	6451
2026-01-05 14:38:55.09	53.73	66.15	-38.2	-39.0	24.7	0.00e+00	11	27	101	1048576	54	6132
2026-01-05 14:38:56.10	54.43	66.51	-38.1	-38.9	25.0	0.00e+00	73	27	101	1048576	54	6072
2026-01-05 14:38:57.11	55.15	66.88	-38.3	-39.1	24.6	0.00e+00	0	27	101	1048576	54	6237
2026-01-05 14:38:58.12	55.90	67.24	-40.4	-41.5	23.0	0.00e+00	66	27	101	1048576	58	6475
2026-01-05 14:38:59.13	56.67	67.60	-41.4	-42.5	22.1	0.00e+00	27	27	101	1048576	60	6531
2026-01-05 14:39:00.15	57.48	67.96	-41.1	-42.2	22.4	0.00e+00	0	27	101	1048576	60	6253
2026-01-05 14:39:01.16	58.31	68.32	-40.7	-41.7	22.9	0.00e+00	0	27	101	1048576	60	5905
2026-01-05 14:39:02.17	59.17	68.67	-40.4	-41.3	23.1	0.00e+00	7	27	101	1048576	58	6353
2026-01-05 14:39:03.18	60.06	69.02	-40.9	-41.9	22.6	0.00e+00	65	27	101	1048576	60	6097
2026-01-05 14:39:04.19	60.99	69.36	-40.5	-41.5	23.1	0.00e+00	0	27	101	1048576	60	5771
2026-01-05 14:39:05.20	61.94	69.70	-39.9	-40.8	23.4	0.00e+00	92	27	101	1048576	58	5981
2026-01-05 14:39:06.21	62.94	70.04	-40.7	-41.6	22.8	0.00e+00	0	27	101	1048576	58	6615
2026-01-05 14:39:07.22	63.96	70.37	-42.3	-43.6	21.3	0.00e+00	0	27	101	1048576	60	7346
2026-01-05 14:39:08.23	65.03	70.70	-43.1	-44.5	20.9	0.00e+00	0	28	101	1048576	60	8154
2026-01-05 14:39:09.24	66.13	71.03	-42.8	-44.1	20.2	0.00e+00	0	28	101	1048576	60	7816
2026-01-05 14:39:10.25	67.28	71.34	-42.2	-43.4	21.5	0.00e+00	29	28	101	1048576	60	7213
2026-01-05 14:39:11.27	68.48	71.66	-40.9	-41.9	22.7	0.00e+00	0	27	101	1048576	60	6099
2026-01-05 14:39:12.28	69.71	71.96	-40.0	-40.9	23.3	0.00e+00	81	27	101	1048576	58	6084
2026-01-05 14:39:13.29	70.98	72.25	-39.9	-40.8	23.5	0.00e+00	0	27	101	1048576	58	5991
2026-01-05 14:39:14.30	72.30	72.54	-39.7	-40.6	23.7	0.00e+00	64	28	101	1048576	58	5858
2026-01-05 14:39:15.31	73.66	72.82	-40.0	-41.0	23.4	0.00e+00	0	27	101	1048576	58	6118
2026-01-05 14:39:16.32	75.07	73.10	-40.4	-41.4	22.8	0.00e+00	0	28	101	1048576	58	6396
2026-01-05 14:39:17.33	76.53	73.36	-40.0	-40.9	23.5	0.00e+00	44	28	101	1048576	58	6099
2026-01-05 14:39:18.34	78.03	73.61	-39.7	-40.5	23.8	0.00e+00	0	27	101	1048576	58	5823
2026-01-05 14:39:19.35	79.59	73.85	-39.8	-40.6	23.6	0.00e+00	26	28	101	1048576	58	5891
2026-01-05 14:39:20.36	81.19	74.08	-40.5	-41.4	23.1	0.00e+00	0	27	101	1048576	58	6430
2026-01-05 14:39:21.38	82.85	74.30	-41.1	-42.1	22.0	0.00e+00	92	27	101	1048576	58	6987
2026-01-05 14:39:22.39	84.55	74.51	-41.0	-42.0	22.5	0.00e+00	0	27	101	1048576	60	6163
2026-01-05 14:39:23.40	86.30	74.70	-40.5	-41.5	23.1	0.00e+00	0	27	101	1048576	60	5771
2026-01-05 14:39:24.41	88.08	74.88	-39.5	-40.4	23.8	0.00e+00	24	27	101	1048576	58	5723
2026-01-05 14:39:25.42	89.91	75.05	-40.1	-41.0	23.5	0.00e+00	0	27	101	1048576	58	6138
2026-01-05 14:39:26.43	91.78	75.20	-40.7	-41.7	22.7	0.00e+00	28	28	101	1048576	58	6691
2026-01-05 14:39:27.44	93.69	75.33	-41.9	-43.1	21.3	0.00e+00	0	28	101	1048576	60	6961
2026-01-05 14:39:28.45	95.64	75.45	-43.1	-44.6	20.3	0.00e+00	91	27	101	1048576	60	8267
2026-01-05 14:39:29.46	97.61	75.55	-42.4	-43.8	21.0	0.00e+00	0	27	101	1048576	60	7521
2026-01-05 14:39:30.47	99.61	75.64	-42.4	-43.7	21.0	0.00e+00	0	28	101	1048576	60	7489
2026-01-05 14:39:31.49	101.66	75.71	-41.4	-42.5	22.4	0.00e+00	25	28	101	1048576	60	6493
2026-01-05 14:39:32.50	103.70	75.76	-40.1	-41.1	23.4	0.00e+00	0	28	101	1048576	60	5516
2026-01-05 14:39:33.51	105.75	75.80	-39.5	-40.4	23.7	0.00e+00	73	28	101	1048576	58	5724
2026-01-05 14:39:34.52	107.82	75.81	-39.2	-40.1	24.0	0.00e+00	0	27	101	1048576	58	5516
2026-01-05 14:39:35.53	109.88	75.81	-39.3	-40.1	23.8	0.00e+00	72	28	101	1048576	56	6224
2026-01-05 14:39:36.54	111.94	75.79	-40.5	-41.4	22.6	0.00e+00	0	28	101	1048576	58	6441
2026-01-05 14:39:37.55	114.00	75.76	-41.5	-42.6	22.4	0.00e+00	0	28	101	1048576	60	6554
2026-01-05 14:39:38.56	116.04	75.70	-40.8	-41.8	22.9	0.00e+00	0	28	101	1048576	60	5965
2026-01-05 14:39:39.57	118.06	75.63	-41.6	-42.6	22.0	0.00e+00	0	27	101	1048576	60	6605
2026-01-05 14:39:40.59	120.08	75.54	-43.0	-44.3	20.6	0.00e+00	23	27	101	1048576	60	8013
2026-01-05 14:39:41.60	122.05	75.44	-42.6	-43.8	21.1	0.00e+00	0	28	101	1048576	60	7590
2026-01-05 14:39:42.61	123.99	75.32	-41.3	-42.3	22.4	0.00e+00	56	27	101	1048576	60	6375
2026-01-05 14:39:43.62	125.90	75.18	-41.1	-42.2	22.5	0.00e+00	0	27	101	1048576	60	6285
2026-01-05 14:39:44.63	127.77	75.03	-41.5	-42.5	22.1	0.00e+00	0	27	101	1048576	60	6526
2026-01-05 14:39:45.64	129.59	74.86	-41.0	-41.9	22.9	0.00e+00	0	28	101	1048576	60	6099
2026-01-05 14:39:46.66	131.40	74.68	-41.4	-42.4	22.2	0.00e+00	0	27	101	1048576	60	6451
2026-01-05 14:39:47.67	133.13	74.48	-43.1	-44.4	20.7	0.00e+00	79	28	101	1048576	60	8046
2026-01-05 14:39:48.68	134.83	74.28	-42.8	-44.1	21.2	0.00e+00	0	27	101	1048576	60	7816
2026-01-05 14:39:49.69	136.47	74.06	-42.1	-43.3	21.7	0.00e+00	73	28	101	1048576	60	7097
2026-01-05 14:39:50.70	138.07	73.83	-42.0	-43.2	21.6	0.00e+00	0	28	101	1048576	60	7027
2026-01-05 14:39:51.71	139.62	73.58	-41.3	-42.3	22.5	0.00e+00	1	28	101	1048576	60	6374
2026-01-05 14:39:52.72	141.12	73.33	-40.8	-41.8	22.7	0.00e+00	0	28	101	1048576	60	6012
2026-01-05 14:39:53.74	142.59	73.06	-41.7	-42.7	22.0	0.00e+00	0	28	101	1048576	60	6665
2026-01-05 14:39:54.75	143.99	72.79	-40.6	-41.5	23.2	0.00e+00	28	27	101	1048576	60	5808
2026-01-05 14:39:55.76	145.35	72.51	-40.5	-41.4	23.0	0.00e+00	0	27	101	1048576	58	6421
2026-01-05 14:39:56.77	146.67	72.22	-41.5	-42.6	22.1	0.00e+00	71	27	101	1048576	60	6573
2026-01-05 14:39:57.78	147.94	71.92	-43.1	-44.4	20.9	0.00e+00	0	27	101	1048576	60	8108
2026-01-05 14:39:58.79	149.16	71.62	-44.1	-45.7	19.7	0.00e+00	47	27	101	1048576	60	9445
2026-01-05 14:39:59.80	150.34	71.31	-43.0	-44.4	21.0	0.00e+00	0	27	101	1048576	60	8079
2026-01-05 14:40:00.81	151.48	70.99	-40.8	-41.7	22.8	0.00e+00	0	27	101	1048576	60	5938
2026-01-05 14:40:01.82	152.58	70.66	-41.7	-42.8	22.0	0.00e+00	29	28	101	1048576	60	6715
2026-01-05 14:40:02.83	153.65	70.33	-42.9	-44.2	20.5	0.00e+00	0	27	101	1048576	60	7948
2026-01-05 14:40:03.85	154.68	70.00	-41.0	-42.0	22.8	0.00e+00	92	27	101	1048576	60	6170
2026-01-05 14:40:04.86	155.67	69.66	-40.3	-41.2	22.9	0.00e+00	0	27	101	1048576	60	5597
2026-01-05 14:40:05.87	156.62	69.32	-41.6	-42.6	22.1	0.00e+00	66	28	101	1048576	60	6585
2026-01-05 14:40:06.88	157.54	68.97	-41.2	-42.2	22.5	0.00e+00	0	28	101	1048576	60	6315
2026-01-05 14:40:07.89	158.43	68.62	-40.6	-41.6	23.1	0.00e+00	0	27	101	1048576	60	5857
2026-01-05 14:40:08.90	159.29	68.27	-40.6	-41.6	23.1	0.00e+00	0	28	101	1048576	60	5886
2026-01-05 14:40:09.91	160.12	67.91	-39.8	-40.7	23.7	0.00e+00	0	27	101	1048576	58	5929
2026-01-05 14:40:10.92	160.92	67.55	-39.5	-40.4	23.9	0.00e+00	91	27	101	1048576	58	5755
2026-01-05 14:40:11.94	161.70	67.19	-40.1	-41.0	23.4	0.00e+00	0	27	101	1048576	58	6139
2026-01-05 14:40:12.95	162.44	66.83	-40.8	-41.9	22.6	0.00e+00	92	28	101	1048576	58	6782
2026-01-05 14:40:13.96	163.16	66.46	-39.1	-40.0	24.2	0.00e+00	0	27	101	1048576	58	5487
2026-01-05 14:40:14.97	163.86	66.09	-38.3	-39.0	24.9	0.00e+00	0	28	101	1048576	56	5499
2026-01-05 14:40:15.98	164.53	65.73	-38.4	-39.2	24.5	0.00e+00	0	28	101	1048576	54	6307
2026-01-05 14:40:16.99	165.19	65.36	-37.8	-38.6	24.9	0.00e+00	0	27	101	1048576	54	5869
2026-01-05 14:40:18.00	165.82	64.99	-36.4	-37.1	25.9	0.00e+00	83	27	101	1048576	52	5557
2026-01-05 14:40:19.01	166.43	64.62	-36.0	-36.7	26.1	0.00e+00	0	27	101	1048576	50	5945
2026-01-05 14:40:20.02	167.02	64.25	-36.5	-37.2	25.9	0.00e+00	88	27	101	1048576	50	6278
2026-01-05 14:40:21.04	167.59	63.87	-36.5	-37.2	25.9	0.00e+00	0	27	101	1048576	50	6270
2026-01-05 14:40:22.05	168.15	63.50	-37.3	-38.1	25.3	0.00e+00	0	27	101	1048576	50	6959
2026-01-05 14:40:23.06	168.68	63.13	-38.1	-38.9	24.5	0.00e+00	0	27	101	1048576	52	6827
2026-01-05 14:40:24.07	169.20	62.75	-38.5	-39.4	24.4	0.00e+00	0	27	101	1048576	54	6417
2026-01-05 14:40:25.08	169.71	62.38	-38.7	-39.6	24.2	0.00e+00	81	27	101	1048576	54	6599
2026-01-05 14:40:26.09	170.20	62.01	-38.6	-39.5	24.3	0.00e+00	25	28	101	1048576	54	6511
2026-01-05 14:40:27.10	170.67	61.64	-38.5	-39.3	24.5	0.00e+00	83	28	101	1048576	54	6351
2026-01-05 14:40:28.11	171.14	61.27	-38.4	-39.2	24.7	0.00e+00	0	27	101	1048576	54	6289
2026-01-05 14:40:29.12	171.58	60.89	-38.4	-39.2	24.6	0.00e+00	8	28	101	1048576	54	6261
2026-01-05 14:40:30.14	172.02	60.52	-38.7	-39.5	24.4	0.00e+00	0	27	101	1048576	54	6533
2026-01-05 14:40:31.15	172.44	60.15	-38.9	-39.7	24.2	0.00e+00	0	27	101	1048576	54	6648
2026-01-05 14:40:32.16	172.85	59.78	-39.6	-40.5	23.8	0.00e+00	31	28	101	1048576	56	6526
2026-01-05 14:40:33.17	173.25	59.42	-39.7	-40.6	23.8	0.00e+00	0	27	101	1048576	56	6584
2026-01-05 14:40:34.18	173.64	59.05	-38.9	-39.7	24.5	0.00e+00	92	27	101	1048576	56	5926
2026-01-05 14:40:35.19	174.02	58.68	-37.5	-38.3	25.3	0.00e+00	0	27	101	1048576	54	5651
2026-01-05 14:40:36.20	174.39	58.32	-37.4	-38.1	25.4	0.00e+00	4	27	101	1048576	52	6225
2026-01-05 14:40:37.21	174.74	57.96	-38.0	-38.8	24.9	0.00e+00	0	27	101	1048576	52	6742
2026-01-05 14:40:38.23	175.10	57.59	-38.0	-38.8	25.1	0.00e+00	0	27	101	1048576	54	6020
2026-01-05 14:40:39.23	175.43	57.23	-37.2	-38.0	25.5	0.00e+00	28	27	101	1048576	54	5453
2026-01-05 14:40:40.25	175.77	56.87	-36.9	-37.7	25.7	0.00e+00	0	27	101	1048576	52	5897
2026-01-05 14:40:41.26	176.09	56.51	-37.3	-38.1	25.3	0.00e+00	92	27	101	1048576	52	6204
2026-01-05 14:40:42.27	176.40	56.15	-37.6	-38.4	25.1	0.00e+00	0	27	101	1048576	52	6463
2026-01-05 14:40:43.28	176.71	55.80	-37.8	-38.6	25.0	0.00e+00	0	28	101	1048576	52	6562
2026-01-05 14:40:44.29	177.01	55.45	-37.6	-38.4	25.0	0.00e+00	0	28	101	1048576	52	6448
2026-01-05 14:40:45.30	177.30	55.09	-37.2	-38.0	25.2	0.00e+00	0	28	101	1048576	52	6127
2026-01-05 14:40:46.31	177.58	54.74	-38.0	-38.8	24.9	0.00e+00	27	27	101	1048576	52	6742
2026-01-05 14:40:47.32	177.86	54.40	-38.3	-39.2	24.8	0.00e+00	0	28	101	1048576	54	6251
2026-01-05 14:40:48.34	178.13	54.05	-38.4	-39.3	24.7	0.00e+00	80	27	101	1048576	54	6344
2026-01-05 14:40:49.35	178.40	53.70	-38.1	-38.9	24.9	0.00e+00	0	27	101	1048576	54	6085
2026-01-05 14:40:50.36	178.66	53.36	-38.2	-39.1	24.7	0.00e+00	81	27	101	1048576	54	6181
2026-01-05 14:40:51.37	178.91	53.02	-38.8	-39.7	24.4	0.00e+00	0	27	101	1048576	54	6632
2026-01-05 14:40:52.38	179.16	52.68	-40.5	-41.6	22.6	0.00e+00	0	28	101	1048576	58	6589
2026-01-05 14:40:53.39	179.40	52.34	-42.0	-43.3	21.6	0.00e+00	14	27	101	1048576	60	7151
2026-01-05 14:40:54.40	179.63	52.00	-40.6	-41.7	22.9	0.00e+00	0	28	101	1048576	60	5959
2026-01-05 14:40:55.41	179.86	51.67	-39.8	-40.8	23.5	0.00e+00	92	28	101	1048576	58	6012
2026-01-05 14:40:56.42	180.09	51.33	-39.0	-39.9	24.2	0.00e+00	0	28	101	1048576	56	6051
2026-01-05 14:40:57.44	180.31	51.00	-39.0	-39.8	24.2	0.00e+00	35	27	101	1048576	56	5995
2026-01-05 14:40:58.45	180.53	50.67	-39.7	-40.5	23.5	0.00e+00	0	28	101	1048576	56	6539
2026-01-05 14:40:59.46	180.74	50.34	-41.5	-42.7	21.7	0.00e+00	0	27	101	1048576	60	6642
2026-01-05 14:41:00.47	180.95	50.02	-43.4	-45.0	19.9	0.00e+00	22	27	101	1048576	60	8685
2026-01-05 14:41:01.48	181.15	49.70	-44.6	-46.7	18.5	0.00e+00	0	28	101	1048576	60	10509
2026-01-05 14:41:02.49	181.35	49.38	-45.7	-48.0	17.4	0.00e+00	92	28	101	1048576	60	12318
2026-01-05 14:41:03.50	181.54	49.06	-44.0	-45.6	19.9	0.00e+00	0	28	101	1048576	60	9246
2026-01-05 14:41:04.51	181.73	48.74	-42.6	-43.8	21.2	0.00e+00	92	28	101	1048576	60	7571
2026-01-05 14:41:05.52	181.92	48.42	-41.7	-42.8	22.2	0.00e+00	0	27	101	1048576	60	6740
2026-01-05 14:41:06.54	182.11	48.11	-41.1	-42.2	22.6	0.00e+00	0	28	101	1048576	60	6270
2026-01-05 14:41:07.55	182.29	47.80	-40.3	-41.3	23.4	0.00e+00	0	27	101	1048576	60	5635
2026-01-05 14:41:08.56	182.46	47.49	-41.3	-42.3	22.3	0.00e+00	0	28	101	1048576	60	6380
2026-01-05 14:41:09.57	182.63	47.18	-42.4	-43.7	21.4	0.00e+00	91	28	101	1048576	60	7437
2026-01-05 14:41:10.58	182.80	46.87	-43.1	-44.6	20.6	0.00e+00	0	28	101	1048576	60	8262
2026-01-05 14:41:11.59	182.97	46.57	-43.5	-45.0	20.1	0.00e+00	91	27	101	1048576	60	8680
2026-01-05 14:41:12.60	183.13	46.27	-43.2	-44.5	20.6	0.00e+00	10	27	101	1048576	60	8220
2026-01-05 14:41:13.62	183.30	45.97	-42.3	-43.5	21.6	0.00e+00	0	27	101	1048576	60	7325
2026-01-05 14:41:14.63	183.45	45.67	-41.9	-43.0	21.9	0.00e+00	0	27	101	1048576	60	6877
2026-01-05 14:41:15.64	183.61	45.37	-39.9	-40.8	23.7	0.00e+00	0	27	101	1048576	60	5318
2026-01-05 14:41:16.65	183.76	45.08	-38.8	-39.6	24.5	0.00e+00	73	27	101	1048576	56	5861
2026-01-05 14:41:17.66	183.91	44.79	-38.7	-39.5	24.6	0.00e+00	0	27	101	1048576	56	5765
2026-01-05 14:41:18.67	184.05	44.50	-38.9	-39.8	24.4	0.00e+00	92	27	101	1048576	56	5972
2026-01-05 14:41:19.68	184.20	44.21	-39.1	-39.9	24.0	0.00e+00	0	28	101	1048576	56	6053
2026-01-05 14:41:20.70	184.34	43.92	-40.2	-41.1	23.2	0.00e+00	0	28	101	1048576	56	6955
2026-01-05 14:41:21.71	184.48	43.64	-42.2	-43.4	21.0	0.00e+00	0	28	101	1048576	60	7202
2026-01-05 14:41:22.72	184.62	43.36	-43.0	-44.3	20.7	0.00e+00	0	27	101	1048576	60	7999
2026-01-05 14:41:23.73	184.75	43.08	-43.2	-44.7	20.4	0.00e+00	25	28	101	1048576	60	8379
2026-01-05 14:41:24.74	184.88	42.80	-42.7	-44.0	21.2	0.00e+00	0	27	101	1048576	60	7753
2026-01-05 14:41:25.75	185.01	42.52	-40.3	-41.3	23.4	0.00e+00	83	28	101	1048576	60	5676
2026-01-05 14:41:26.77	185.14	42.24	-39.2	-40.1	24.2	0.00e+00	0	27	101	1048576	56	6188
2026-01-05 14:41:27.78	185.27	41.97	-38.0	-38.7	25.1	0.00e+00	0	27	101	1048576	54	5956
2026-01-05 14:41:28.79	185.39	41.70	-37.7	-38.4	25.2	0.00e+00	0	28	101	1048576	54	5758
2026-01-05 14:41:29.80	185.51	41.43	-37.5	-38.3	25.3	0.00e+00	0	28	101	1048576	54	5647
2026-01-05 14:41:30.81	185.63	41.16	-38.2	-39.0	24.7	0.00e+00	7	28	101	1048576	54	6142
2026-01-05 14:41:31.82	185.75	40.90	-38.2	-39.0	24.8	0.00e+00	0	28	101	1048576	54	6133
2026-01-05 14:41:32.83	185.86	40.64	-38.7	-39.6	24.4	0.00e+00	89	28	101	1048576	54	6560
2026-01-05 14:41:33.85	185.98	40.37	-39.9	-40.9	23.4	0.00e+00	0	28	101	1048576	56	6784
2026-01-05 14:41:34.86	186.09	40.11	-40.7	-41.7	22.8	0.00e+00	0	28	101	1048576	58	6692
2026-01-05 14:41:35.87	186.20	39.85	-41.4	-42.5	22.2	0.00e+00	0	28	101	1048576	60	6527
2026-01-05 14:41:36.88	186.31	39.60	-41.8	-43.0	21.9	0.00e+00	0	28	101	1048576	60	6884
2026-01-05 14:41:37.89	186.42	39.34	-41.7	-42.9	21.9	0.00e+00	27	28	101	1048576	60	6815
2026-01-05 14:41:38.90	186.52	39.09	-41.2	-42.3	22.5	0.00e+00	0	27	101	1048576	60	6335
2026-01-05 14:41:39.91	186.63	38.84	-41.1	-42.1	22.6	0.00e+00	80	28	101	1048576	60	6196
2026-01-05 14:41:40.92	186.73	38.59	-40.0	-40.9	23.5	0.00e+00	0	28	101	1048576	58	6073
2026-01-05 14:41:41.93	186.83	38.34	-39.6	-40.5	23.9	0.00e+00	23	28	101	1048576	58	5762
2026-01-05 14:41:42.94	186.93	38.10	-39.2	-40.0	24.1	0.00e+00	0	28	101	1048576	56	6173
2026-01-05 14:41:43.96	187.03	37.85	-39.1	-40.0	24.2	0.00e+00	0	27	101	1048576	56	6123
2026-01-05 14:41:44.97	187.13	37.61	-40.0	-40.9	23.6	0.00e+00	0	28	101	1048576	56	6824
2026-01-05 14:41:45.98	187.22	37.37	-41.2	-42.3	22.0	0.00e+00	0	27	101	1048576	58	7168
2026-01-05 14:41:46.99	187.32	37.13	-42.9	-44.3	20.5	0.00e+00	29	27	101	1048576	60	8021
2026-01-05 14:41:48.00	187.41	36.89	-43.8	-45.4	19.4	0.00e+00	0	27	101	1048576	60	9090
2026-01-05 14:41:49.01	187.50	36.65	-45.0	-47.1	18.1	0.00e+00	74	27	101	1048576	60	11070
2026-01-05 14:41:50.02	187.59	36.42	-44.6	-46.5	18.7	0.00e+00	0	28	101	1048576	60	10327
2026-01-05 14:41:51.03	187.68	36.19	-43.7	-45.3	19.8	0.00e+00	0	28	101	1048576	60	9016
2026-01-05 14:41:52.04	187.77	35.96	-42.5	-43.9	21.3	0.00e+00	0	28	101	1048576	60	7623
2026-01-05 14:41:53.06	187.86	35.72	-40.7	-41.8	23.0	0.00e+00	0	28	101	1048576	60	5977
2026-01-05 14:41:54.07	187.94	35.50	-39.9	-40.8	23.7	0.00e+00	85	28	101	1048576	58	6015
2026-01-05 14:41:55.08	188.03	35.27	-38.9	-39.8	24.4	0.00e+00	0	27	101	1048576	56	5992
2026-01-05 14:41:56.09	188.11	35.04	-38.8	-39.7	24.4	0.00e+00	78	28	101	1048576	56	5902
2026-01-05 14:41:57.10	188.19	34.82	-39.0	-39.9	24.3	0.00e+00	23	28	101	1048576	56	6048
2026-01-05 14:41:58.11	188.27	34.60	-39.9	-40.8	23.6	0.00e+00	0	28	101	1048576	56	6740
2026-01-05 14:41:59.12	188.35	34.38	-40.8	-41.8	22.6	0.00e+00	0	28	101	1048576	58	6731
2026-01-05 14:42:00.13	188.43	34.16	-41.7	-42.8	21.9	0.00e+00	23	28	101	1048576	60	6733
2026-01-05 14:42:01.15	188.51	33.94	-43.0	-44.4	20.7	0.00e+00	21	27	101	1048576	60	8050
2026-01-05 14:42:02.16	188.59	33.73	-43.7	-45.1	20.0	0.00e+00	0	27	101	1048576	60	8809
2026-01-05 14:42:03.17	188.66	33.51	-43.7	-45.2	19.9	0.00e+00	92	27	101	1048576	60	8893
2026-01-05 14:42:04.18	188.74	33.30	-43.8	-45.3	19.8	0.00e+00	0	28	101	1048576	60	8963
2026-01-05 14:42:05.19	188.81	33.09	-43.8	-45.3	19.8	0.00e+00	0	28	101	1048576	60	9012
2026-01-05 14:42:06.20	188.89	32.88	-43.2	-44.7	20.5	0.00e+00	0	28	101	1048576	60	8342
2026-01-05 14:42:07.21	188.96	32.67	-42.7	-44.0	21.3	0.00e+00	11	28	101	1048576	60	7685
2026-01-05 14:42:08.22	189.03	32.46	-42.5	-43.7	21.2	0.00e+00	26	28	101	1048576	60	7504
2026-01-05 14:42:09.23	189.10	32.25	-41.6	-42.8	22.1	0.00e+00	0	27	101	1048576	60	6701
2026-01-05 14:42:10.24	189.17	32.05	-41.7	-42.8	22.0	0.00e+00	92	27	101	1048576	60	6728
2026-01-05 14:42:11.26	189.24	31.85	-41.2	-42.2	22.5	0.00e+00	0	28	101	1048576	60	6298
2026-01-05 14:42:12.27	189.31	31.64	-40.7	-41.7	23.0	0.00e+00	0	28	101	1048576	60	5941
2026-01-05 14:42:13.28	189.38	31.44	-41.0	-42.0	22.7	0.00e+00	0	28	101	1048576	60	6127
2026-01-05 14:42:14.29	189.44	31.24	-40.6	-41.6	23.0	0.00e+00	0	28	101	1048576	60	5859
2026-01-05 14:42:15.30	189.51	31.05	-40.3	-41.3	23.3	0.00e+00	25	28	101	1048576	60	5659
2026-01-05 14:42:16.31	189.57	30.85	-40.2	-41.1	23.4	0.00e+00	0	27	101	1048576	60	5546
2026-01-05 14:42:17.32	189.64	30.65	-40.3	-41.2	23.2	0.00e+00	92	27	101	1048576	58	6264
2026-01-05 14:42:18.33	189.70	30.46	-39.8	-40.7	23.6	0.00e+00	0	28	101	1048576	58	5943
2026-01-05 14:42:19.34	189.77	30.27	-39.4	-40.3	24.0	0.00e+00	92	27	101	1048576	58	5655
2026-01-05 14:42:20.35	189.83	30.08	-39.4	-40.3	23.8	0.00e+00	0	28	101	1048576	58	5661
2026-01-05 14:42:21.36	189.89	29.89	-39.4	-40.3	24.1	0.00e+00	0	28	101	1048576	56	6328
2026-01-05 14:42:22.38	189.95	29.69	-39.5	-40.3	23.9	0.00e+00	5	28	101	1048576	56	6383
2026-01-05 14:42:23.39	190.01	29.51	-39.9	-40.7	23.6	0.00e+00	0	28	101	1048576	56	6671
2026-01-05 14:42:24.40	190.07	29.32	-40.1	-41.0	23.3	0.00e+00	92	27	101	1048576	58	6132
2026-01-05 14:42:25.41	190.13	29.13	-41.0	-41.9	22.6	0.00e+00	0	28	101	1048576	58	6847
2026-01-05 14:42:26.42	190.19	28.95	-41.2	-42.2	22.5	0.00e+00	92	28	101	1048576	60	6311
2026-01-05 14:42:27.43	190.25	28.77	-41.7	-42.8	21.9	0.00e+00	0	27	101	1048576	60	6718
2026-01-05 14:42:28.44	190.30	28.59	-42.3	-43.5	21.4	0.00e+00	0	28	101	1048576	60	7309
2026-01-05 14:42:29.45	190.36	28.41	-42.5	-43.8	21.2	0.00e+00	11	28	101	1048576	60	7522
2026-01-05 14:42:30.46	190.41	28.23	-42.2	-43.3	21.6	0.00e+00	0	28	101	1048576	60	7144
2026-01-05 14:42:31.47	190.47	28.05	-42.4	-43.6	21.2	0.00e+00	92	28	101	1048576	60	7360
2026-01-05 14:42:32.48	190.53	27.87	-42.4	-43.6	21.3	0.00e+00	0	28	101	1048576	60	7412
2026-01-05 14:42:33.49	190.58	27.69	-42.1	-43.2	21.7	0.00e+00	90	28	101	1048576	60	7056
2026-01-05 14:42:34.50	190.63	27.52	-42.0	-43.1	21.9	0.00e+00	0	28	101	1048576	60	6994
2026-01-05 14:42:35.52	190.69	27.34	-41.5	-42.6	22.2	0.00e+00	0	28	101	1048576	60	6550
2026-01-05 14:42:36.53	190.74	27.17	-41.3	-42.4	22.4	0.00e+00	0	28	101	1048576	60	6403
2026-01-05 14:42:37.54	190.79	27.00	-40.9	-41.9	22.8	0.00e+00	0	28	101	1048576	60	6056
2026-01-05 14:42:38.55	190.84	26.83	-40.8	-41.8	22.9	0.00e+00	92	28	101	1048576	60	6020
2026-01-05 14:42:39.56	190.89	26.66	-40.9	-41.9	22.7	0.00e+00	0	28	101	1048576	60	6040
2026-01-05 14:42:40.57	190.94	26.49	-41.0	-42.1	22.6	0.00e+00	91	28	101	1048576	60	6176
2026-01-05 14:42:41.58	190.99	26.32	-39.8	-40.7	23.7	0.00e+00	0	28	101	1048576	58	5928
2026-01-05 14:42:42.60	191.04	26.15	-39.3	-40.2	24.1	0.00e+00	0	28	101	1048576	58	5576
2026-01-05 14:42:43.61	191.09	25.99	-39.1	-40.0	24.0	0.00e+00	0	28	101	1048576	58	5452
2026-01-05 14:42:44.62	191.14	25.82	-39.0	-39.9	24.3	0.00e+00	0	28	101	1048576	56	6036
2026-01-05 14:42:45.63	191.19	25.66	-39.0	-39.9	24.2	0.00e+00	92	28	101	1048576	56	6064
2026-01-05 14:42:46.64	191.24	25.50	-39.1	-40.0	24.2	0.00e+00	0	28	101	1048576	56	6119
2026-01-05 14:42:47.65	191.29	25.33	-38.9	-39.8	24.3	0.00e+00	88	28	101	1048576	56	5976
2026-01-05 14:42:48.66	191.33	25.17	-38.8	-39.6	24.5	0.00e+00	0	28	101	1048576	56	5867
2026-01-05 14:42:49.67	191.38	25.01	-38.9	-39.8	24.4	0.00e+00	0	28	101	1048576	56	5986
2026-01-05 14:42:50.68	191.42	24.85	-38.6	-39.5	24.6	0.00e+00	0	28	101	1048576	56	5767
2026-01-05 14:42:51.70	191.47	24.70	-38.5	-39.3	24.7	0.00e+00	0	28	101	1048576	56	5695
2026-01-05 14:42:52.71	191.52	24.54	-38.3	-39.1	24.7	0.00e+00	52	28	101	1048576	54	6241
2026-01-05 14:42:53.72	191.56	24.38	-38.1	-38.9	24.8	0.00e+00	14	28	101	1048576	54	6087
2026-01-05 14:42:54.73	191.60	24.23	-37.9	-38.7	25.0	0.00e+00	92	28	101	1048576	54	5926
2026-01-05 14:42:55.74	191.65	24.07	-37.8	-38.6	25.1	0.00e+00	0	28	101	1048576	54	5851
2026-01-05 14:42:56.75	191.69	23.92	-37.9	-38.7	25.0	0.00e+00	0	28	101	1048576	54	5939
2026-01-05 14:42:57.76	191.73	23.77	-37.8	-38.6	25.1	0.00e+00	0	28	101	1048576	54	5879
2026-01-05 14:42:58.78	191.78	23.61	-37.7	-38.5	25.2	0.00e+00	0	28	101	1048576	54	5779
2026-01-05 14:42:59.79	191.82	23.46	-37.9	-38.6	25.0	0.00e+00	52	28	101	1048576	54	5895
2026-01-05 14:43:00.80	191.86	23.31	-38.0	-38.8	24.9	0.00e+00	0	28	101	1048576	54	6000
2026-01-05 14:43:01.81	191.90	23.16	-38.4	-39.2	24.7	0.00e+00	92	28	101	1048576	54	6285
2026-01-05 14:43:02.82	191.95	23.02	-38.4	-39.3	24.6	0.00e+00	0	28	101	1048576	54	6336
2026-01-05 14:43:03.83	191.99	22.87	-38.6	-39.5	24.4	0.00e+00	0	28	101	1048576	54	6480
2026-01-05 14:43:04.84	192.03	22.72	-39.3	-40.1	24.0	0.00e+00	0	27	101	1048576	56	6227
2026-01-05 14:43:05.85	192.07	22.58	-39.3	-40.2	24.0	0.00e+00	0	27	101	1048576	56	6255
2026-01-05 14:43:06.86	192.11	22.43	-39.3	-40.2	24.0	0.00e+00	50	28	101	1048576	56	6247
2026-01-05 14:43:07.87	192.15	22.29	-39.5	-40.4	23.9	0.00e+00	0	28	101	1048576	56	6447
2026-01-05 14:43:08.89	192.19	22.14	-39.5	-40.4	23.8	0.00e+00	90	27	101	1048576	56	6425
2026-01-05 14:43:09.90	192.22	22.00	-39.4	-40.2	24.0	0.00e+00	0	28	101	1048576	56	6299
2026-01-05 14:43:10.91	192.26	21.86	-39.2	-40.0	24.0	0.00e+00	87	28	101	1048576	56	6156
2026-01-05 14:43:11.92	192.30	21.72	-39.0	-39.8	24.3	0.00e+00	0	28	101	1048576	56	6003
2026-01-05 14:43:12.93	192.34	21.58	-39.1	-39.9	24.2	0.00e+00	0	28	101	1048576	56	6073
2026-01-05 14:43:13.94	192.38	21.44	-38.6	-39.4	24.6	0.00e+00	17	28	101	1048576	56	5716
2026-01-05 14:43:14.95	192.41	21.30	-38.6	-39.4	24.5	0.00e+00	0	28	101	1048576	56	5712
2026-01-05 14:43:15.96	192.45	21.16	-38.5	-39.3	24.5	0.00e+00	92	28	101	1048576	56	5673
2026-01-05 14:43:16.97	192.49	21.02	-38.6	-39.4	24.6	0.00e+00	0	28	101	1048576	56	5755
2026-01-05 14:43:17.98	192.52	20.89	-38.6	-39.5	24.4	0.00e+00	62	28	101	1048576	56	5780
2026-01-05 14:43:19.00	192.56	20.75	-38.6	-39.4	24.5	0.00e+00	0	28	101	1048576	56	5724
2026-01-05 14:43:20.01	192.60	20.62	-38.7	-39.5	24.4	0.00e+00	0	27	101	1048576	56	5811
2026-01-05 14:43:21.02	192.63	20.48	-38.9	-39.8	24.3	0.00e+00	0	28	101	1048576	56	5976
2026-01-05 14:43:22.03	192.67	20.35	-39.0	-39.8	24.3	0.00e+00	0	28	101	1048576	56	6026
2026-01-05 14:43:23.04	192.70	20.22	-39.0	-39.9	24.2	0.00e+00	0	28	101	1048576	56	6045
2026-01-05 14:43:24.05	192.74	20.08	-39.0	-39.9	24.1	0.00e+00	0	28	101	1048576	56	6060
2026-01-05 14:43:25.06	192.77	19.95	-39.2	-40.1	23.8	0.00e+00	82	28	101	1048576	56	6230
2026-01-05 14:43:26.07	192.81	19.82	-39.3	-40.2	24.0	0.00e+00	0	28	101	1048576	56	6252
