passes_logs/2026/01/05/R4.6S_Anadyr_2ch/R4.6S_Anadyr_2ch__20260105_230755_NOAA_20_JPSS-1_rec.log

#Pass ID: 20260105_230755_NOAA 20 (JPSS-1)
#Satellite: NOAA 20 (JPSS-1)
#Configuration: NOAA 20
#almurnet v.1.7.20251203
#Start time: 2026-01-05 23:07:57

#Version: 2.2.20231116
#Station: R4.6S_Anadyr_2ch
#Location: 177.4865 lon 64.73178 lat
#TLE: 1 43013U 17073A   25350.93759711  .00000080  00000+0  58734-4 0  9994
#TLE: 2 43013  98.7603 287.1885 0002156  81.1496 278.9924 14.19526878418610

#Time	Az	El	Level	Level2	SNR	BER	BlckErr	Temp	State	Recorded	gain1	gain2
2026-01-05 23:07:57.39	129.67	0.12	-51.2	-66.3	3.5	1.51e+00	0	29	0	0	60	101015
2026-01-05 23:07:58.40	129.65	0.18	-51.3	-66.6	3.6	1.51e+00	0	30	104	0	60	104491
2026-01-05 23:07:59.40	129.62	0.23	-51.3	-66.6	3.6	1.51e+00	0	30	104	0	60	104396
2026-01-05 23:08:00.42	129.60	0.30	-51.3	-66.7	3.6	1.51e+00	0	30	104	0	60	105204
2026-01-05 23:08:01.43	129.57	0.36	-51.4	-66.7	3.6	1.51e+00	0	30	104	0	60	105516
2026-01-05 23:08:02.44	129.54	0.42	-51.3	-66.7	3.6	1.51e+00	0	30	104	0	60	105340
2026-01-05 23:08:03.45	129.51	0.48	-51.3	-66.7	3.6	1.51e+00	0	30	104	0	60	105746
2026-01-05 23:08:04.46	129.49	0.54	-51.3	-66.7	3.6	1.51e+00	0	30	104	0	60	105184
2026-01-05 23:08:05.47	129.46	0.60	-51.2	-66.6	3.6	1.51e+00	0	30	104	0	60	104536
2026-01-05 23:08:06.48	129.43	0.66	-51.1	-66.5	3.6	1.51e+00	0	30	104	0	60	103371
2026-01-05 23:08:07.49	129.41	0.72	-51.0	-66.5	3.6	1.51e+00	0	30	104	0	60	103458
2026-01-05 23:08:08.50	129.38	0.78	-50.8	-66.3	3.6	1.51e+00	0	30	104	0	60	100680
2026-01-05 23:08:09.52	129.35	0.84	-50.9	-66.2	3.6	1.51e+00	0	30	104	0	60	100012
2026-01-05 23:08:10.52	129.32	0.90	-50.7	-66.0	3.6	1.51e+00	0	30	104	0	60	97663
2026-01-05 23:08:11.54	129.29	0.96	-50.4	-65.7	3.6	1.51e+00	0	30	104	0	60	94199
2026-01-05 23:08:12.55	129.27	1.02	-49.9	-65.2	3.6	1.51e+00	0	30	104	0	60	89166
2026-01-05 23:08:13.56	129.24	1.09	-49.9	-65.2	3.6	1.51e+00	0	30	104	0	60	88608
2026-01-05 23:08:14.57	129.21	1.15	-49.9	-65.2	3.6	1.51e+00	0	31	104	0	60	88364
2026-01-05 23:08:15.58	129.18	1.21	-49.9	-65.2	3.6	1.51e+00	0	31	104	0	60	88913
2026-01-05 23:08:16.59	129.15	1.27	-49.9	-65.2	3.6	1.51e+00	0	31	104	0	60	88991
2026-01-05 23:08:17.60	129.12	1.33	-49.9	-65.2	3.6	1.51e+00	0	31	104	0	60	88290
2026-01-05 23:08:18.61	129.09	1.39	-49.9	-65.2	3.6	1.51e+00	0	31	104	0	60	88438
2026-01-05 23:08:19.62	129.07	1.46	-49.9	-65.2	3.6	1.51e+00	0	31	104	0	60	88523
2026-01-05 23:08:20.63	129.04	1.52	-49.9	-65.1	3.6	1.51e+00	0	31	104	0	60	88083
2026-01-05 23:08:21.64	129.01	1.58	-49.9	-65.1	3.6	1.51e+00	0	31	104	0	60	88086
2026-01-05 23:08:22.65	128.98	1.64	-49.9	-65.2	3.6	1.51e+00	0	31	104	0	60	88542
2026-01-05 23:08:23.67	128.95	1.71	-49.9	-65.2	3.6	1.51e+00	0	31	104	0	60	88534
2026-01-05 23:08:24.68	128.92	1.77	-49.9	-65.2	3.6	1.51e+00	0	31	104	0	60	88815
2026-01-05 23:08:25.69	128.89	1.83	-49.9	-65.3	3.6	1.51e+00	0	31	104	0	60	89354
2026-01-05 23:08:26.70	128.86	1.90	-49.9	-65.2	3.6	1.51e+00	0	31	104	0	60	88489
2026-01-05 23:08:27.71	128.83	1.96	-49.9	-65.1	3.6	1.51e+00	0	31	104	0	60	87477
2026-01-05 23:08:28.72	128.80	2.02	-49.9	-65.0	3.6	1.51e+00	0	31	104	0	60	86735
2026-01-05 23:08:29.73	128.77	2.09	-49.9	-64.9	3.6	1.51e+00	0	31	104	0	60	86011
2026-01-05 23:08:30.74	128.74	2.15	-49.9	-64.8	3.6	1.51e+00	0	31	104	0	60	85223
2026-01-05 23:08:31.75	128.71	2.21	-49.9	-64.9	3.6	1.51e+00	0	31	104	0	60	85884
2026-01-05 23:08:32.77	128.68	2.28	-49.9	-65.1	3.6	1.51e+00	0	31	104	0	60	87557
2026-01-05 23:08:33.77	128.65	2.34	-49.8	-65.1	3.6	1.51e+00	0	31	104	0	60	87717
2026-01-05 23:08:34.79	128.61	2.41	-49.9	-65.1	3.6	1.51e+00	0	31	104	0	60	88046
2026-01-05 23:08:35.80	128.58	2.47	-49.9	-65.2	3.6	1.51e+00	0	31	104	0	60	88306
2026-01-05 23:08:36.81	128.55	2.53	-49.8	-65.2	3.6	1.51e+00	0	31	104	0	60	88799
2026-01-05 23:08:37.82	128.52	2.60	-49.9	-65.2	3.6	1.51e+00	0	31	104	0	60	88340
2026-01-05 23:08:38.83	128.49	2.66	-49.9	-65.1	3.6	1.51e+00	0	31	104	0	60	87815
2026-01-05 23:08:39.84	128.46	2.73	-49.8	-65.0	3.6	1.51e+00	0	31	104	0	60	86894
2026-01-05 23:08:40.85	128.42	2.79	-49.8	-64.9	3.6	1.51e+00	0	31	104	0	60	85832
2026-01-05 23:08:41.86	128.39	2.86	-49.8	-64.6	3.5	1.51e+00	0	31	104	0	60	82478
2026-01-05 23:08:42.87	128.36	2.92	-49.8	-64.5	3.6	1.51e+00	0	31	104	0	60	81419
2026-01-05 23:08:43.88	128.33	2.99	-49.8	-64.3	3.6	1.51e+00	0	31	104	0	60	80399
2026-01-05 23:08:44.90	128.29	3.06	-49.8	-64.5	3.5	1.51e+00	0	31	104	0	60	82230
2026-01-05 23:08:45.91	128.26	3.12	-49.8	-65.0	3.6	1.51e+00	0	31	104	0	60	87109
2026-01-05 23:08:46.92	128.23	3.19	-49.8	-64.8	3.6	1.51e+00	0	31	104	0	60	84850
2026-01-05 23:08:47.93	128.19	3.25	-49.7	-62.7	3.6	1.51e+00	0	31	104	0	60	66587
2026-01-05 23:08:48.94	128.16	3.32	-49.5	-59.0	4.8	1.03e+00	92	31	0	0	60	43635
2026-01-05 23:08:49.95	128.13	3.39	-49.1	-56.1	7.1	2.93e-01	90	31	102	1048576	60	31025
2026-01-05 23:08:50.96	128.09	3.45	-48.6	-54.4	9.2	5.97e-02	92	31	102	1048576	60	25574
2026-01-05 23:08:51.97	128.06	3.52	-48.0	-52.5	11.5	3.14e-03	90	31	102	1048576	60	20667
2026-01-05 23:08:52.98	128.03	3.58	-47.4	-51.2	13.0	1.61e-04	62	31	102	1048576	60	17720
2026-01-05 23:08:54.00	127.99	3.65	-47.2	-50.8	13.3	1.22e-05	89	31	102	1048576	60	16817
2026-01-05 23:08:55.01	127.96	3.72	-50.1	-65.5	3.6	1.51e+00	0	31	104	1048576	60	91837
2026-01-05 23:08:56.02	127.92	3.79	-49.9	-65.3	3.6	1.51e+00	0	31	104	1048576	60	89792
2026-01-05 23:08:57.03	127.89	3.85	-49.0	-57.0	5.9	7.55e-01	92	31	104	1048576	60	34450
2026-01-05 23:08:58.04	127.85	3.92	-42.6	-43.9	20.5	1.69e-02	91	31	0	1048576	60	7661
2026-01-05 23:08:59.05	127.82	3.99	-49.6	-64.0	3.6	9.80e-01	0	31	104	1048576	60	77454
2026-01-05 23:09:00.06	127.78	4.06	-43.2	-44.7	18.5	1.23e+00	0	31	104	1048576	60	8352
2026-01-05 23:09:01.07	127.75	4.12	-42.9	-44.4	19.9	0.00e+00	90	31	0	1048576	60	8064
2026-01-05 23:09:02.08	127.71	4.19	-42.8	-44.2	20.1	0.00e+00	0	31	0	1048576	60	7931
2026-01-05 23:09:03.09	127.68	4.26	-42.5	-43.9	20.4	0.00e+00	92	31	0	1048576	60	7610
2026-01-05 23:09:04.10	127.64	4.33	-42.9	-44.3	19.9	0.00e+00	0	31	0	1048576	60	8043
2026-01-05 23:09:05.12	127.61	4.40	-42.9	-44.3	20.1	0.00e+00	92	31	0	1048576	60	7984
2026-01-05 23:09:06.13	127.57	4.47	-42.8	-44.1	20.3	0.00e+00	92	31	0	1048576	60	7862
2026-01-05 23:09:07.14	127.53	4.54	-42.7	-44.1	20.4	0.00e+00	92	31	0	1048576	60	7814
2026-01-05 23:09:08.15	127.50	4.61	-42.9	-44.3	19.9	0.00e+00	92	31	0	1048576	60	8011
2026-01-05 23:09:09.16	127.46	4.68	-43.1	-44.5	19.9	0.00e+00	21	31	0	1048576	60	8208
2026-01-05 23:09:10.17	127.42	4.74	-42.9	-44.3	20.1	0.00e+00	92	31	0	1048576	60	7991
2026-01-05 23:09:11.18	127.38	4.81	-42.8	-44.2	20.3	0.00e+00	0	31	0	1048576	60	7887
2026-01-05 23:09:12.19	127.35	4.88	-42.7	-44.1	20.3	0.00e+00	92	31	0	1048576	60	7843
2026-01-05 23:09:13.20	127.31	4.95	-42.9	-44.3	20.2	0.00e+00	92	31	0	1048576	60	7996
2026-01-05 23:09:14.22	127.27	5.03	-42.4	-43.7	20.7	0.00e+00	92	31	0	1048576	60	7480
2026-01-05 23:09:15.23	127.23	5.10	-42.5	-43.8	20.7	0.00e+00	90	31	0	1048576	60	7526
2026-01-05 23:09:16.24	127.20	5.17	-42.4	-43.6	20.9	0.00e+00	69	31	0	1048576	60	7408
2026-01-05 23:09:17.25	127.16	5.24	-42.6	-43.9	20.5	0.00e+00	90	31	0	1048576	60	7654
2026-01-05 23:09:18.26	127.12	5.31	-42.5	-43.8	20.8	0.00e+00	0	31	0	1048576	60	7538
2026-01-05 23:09:19.27	127.08	5.38	-42.4	-43.6	20.9	0.00e+00	92	31	101	1048576	60	7407
2026-01-05 23:09:20.28	127.04	5.45	-42.2	-43.5	21.0	0.00e+00	90	31	101	1048576	60	7268
2026-01-05 23:09:21.29	127.00	5.52	-42.3	-43.5	21.0	0.00e+00	92	31	101	1048576	60	7326
2026-01-05 23:09:22.30	126.96	5.59	-42.4	-43.7	20.8	0.00e+00	92	31	101	1048576	60	7451
2026-01-05 23:09:23.31	126.92	5.66	-42.6	-43.9	20.6	0.00e+00	0	31	101	1048576	60	7633
2026-01-05 23:09:24.32	126.88	5.74	-42.6	-43.9	20.7	0.00e+00	91	31	101	1048576	60	7623
2026-01-05 23:09:25.33	126.84	5.81	-42.6	-43.9	20.6	0.00e+00	2	31	101	1048576	60	7617
2026-01-05 23:09:26.34	126.80	5.88	-42.7	-44.1	20.5	0.00e+00	92	31	101	1048576	60	7775
2026-01-05 23:09:27.35	126.76	5.95	-42.8	-44.2	20.4	0.00e+00	73	31	101	1048576	60	7889
2026-01-05 23:09:28.37	126.72	6.03	-42.7	-44.0	20.7	0.00e+00	92	31	101	1048576	60	7734
2026-01-05 23:09:29.38	126.68	6.10	-42.4	-43.7	20.9	0.00e+00	92	31	101	1048576	60	7501
2026-01-05 23:09:30.39	126.64	6.17	-42.5	-43.8	20.8	0.00e+00	2	31	101	1048576	60	7556
2026-01-05 23:09:31.40	126.60	6.25	-42.5	-43.8	20.8	0.00e+00	92	31	101	1048576	60	7519
2026-01-05 23:09:32.41	126.56	6.32	-42.4	-43.7	21.0	0.00e+00	5	31	101	1048576	60	7443
2026-01-05 23:09:33.42	126.51	6.39	-42.3	-43.5	21.0	0.00e+00	92	31	101	1048576	60	7329
2026-01-05 23:09:34.43	126.47	6.47	-42.4	-43.6	20.9	0.00e+00	70	31	101	1048576	60	7394
2026-01-05 23:09:35.44	126.43	6.54	-42.3	-43.5	21.1	0.00e+00	92	31	101	1048576	60	7336
2026-01-05 23:09:36.45	126.39	6.61	-42.2	-43.5	21.2	0.00e+00	92	31	101	1048576	60	7262
2026-01-05 23:09:37.46	126.35	6.69	-42.4	-43.6	21.0	0.00e+00	92	31	101	1048576	60	7409
2026-01-05 23:09:38.48	126.30	6.76	-42.3	-43.5	21.2	0.00e+00	91	31	101	1048576	60	7295
2026-01-05 23:09:39.49	126.26	6.84	-42.4	-43.6	21.0	0.00e+00	0	31	101	1048576	60	7406
2026-01-05 23:09:40.50	126.22	6.91	-42.3	-43.6	21.1	0.00e+00	92	31	101	1048576	60	7391
2026-01-05 23:09:41.51	126.17	6.99	-42.4	-43.7	21.0	0.00e+00	8	31	101	1048576	60	7426
2026-01-05 23:09:42.52	126.13	7.07	-42.4	-43.6	21.0	0.00e+00	92	31	101	1048576	60	7416
2026-01-05 23:09:43.53	126.08	7.14	-42.5	-43.7	20.9	0.00e+00	92	31	101	1048576	60	7500
2026-01-05 23:09:44.54	126.04	7.22	-42.4	-43.7	21.0	0.00e+00	92	31	101	1048576	60	7446
2026-01-05 23:09:45.56	125.99	7.29	-42.3	-43.5	21.1	0.00e+00	92	31	101	1048576	60	7318
2026-01-05 23:09:46.57	125.95	7.37	-42.3	-43.5	21.2	0.00e+00	19	31	101	1048576	60	7320
2026-01-05 23:09:47.58	125.90	7.45	-42.2	-43.4	21.3	0.00e+00	92	31	101	1048576	60	7217
2026-01-05 23:09:48.59	125.86	7.52	-41.9	-43.1	21.6	0.00e+00	72	31	101	1048576	60	6944
2026-01-05 23:09:49.60	125.81	7.60	-42.0	-43.2	21.5	0.00e+00	92	31	101	1048576	60	7025
2026-01-05 23:09:50.61	125.77	7.68	-42.0	-43.1	21.6	0.00e+00	92	31	101	1048576	60	7006
2026-01-05 23:09:51.62	125.72	7.75	-42.0	-43.1	21.6	0.00e+00	91	31	101	1048576	60	6976
2026-01-05 23:09:52.63	125.68	7.83	-42.2	-43.3	21.4	0.00e+00	92	31	101	1048576	60	7165
2026-01-05 23:09:53.65	125.63	7.91	-42.1	-43.2	21.5	0.00e+00	84	31	101	1048576	60	7088
2026-01-05 23:09:54.66	125.58	7.99	-42.1	-43.3	21.4	0.00e+00	91	31	101	1048576	60	7119
2026-01-05 23:09:55.67	125.53	8.07	-42.1	-43.3	21.4	0.00e+00	7	31	101	1048576	60	7166
2026-01-05 23:09:56.68	125.49	8.14	-42.0	-43.2	21.5	0.00e+00	92	31	101	1048576	60	7063
2026-01-05 23:09:57.69	125.44	8.22	-42.1	-43.3	21.5	0.00e+00	11	31	101	1048576	60	7141
2026-01-05 23:09:58.70	125.39	8.30	-42.1	-43.3	21.4	0.00e+00	92	31	101	1048576	60	7158
2026-01-05 23:09:59.71	125.34	8.38	-41.9	-43.0	21.7	0.00e+00	90	31	101	1048576	60	6902
2026-01-05 23:10:00.72	125.29	8.46	-41.9	-43.0	21.8	0.00e+00	91	31	101	1048576	60	6895
2026-01-05 23:10:01.73	125.24	8.54	-41.8	-42.9	21.8	0.00e+00	92	31	101	1048576	60	6825
2026-01-05 23:10:02.75	125.20	8.62	-41.7	-42.8	21.9	0.00e+00	23	31	101	1048576	60	6749
2026-01-05 23:10:03.75	125.15	8.70	-41.7	-42.8	22.0	0.00e+00	92	31	101	1048576	60	6718
2026-01-05 23:10:04.77	125.10	8.78	-41.7	-42.8	21.9	0.00e+00	0	31	101	1048576	60	6732
2026-01-05 23:10:05.78	125.05	8.86	-41.8	-42.9	21.9	0.00e+00	92	31	101	1048576	60	6793
2026-01-05 23:10:06.79	125.00	8.94	-41.7	-42.8	22.0	0.00e+00	92	31	101	1048576	60	6717
2026-01-05 23:10:07.80	124.95	9.02	-41.8	-42.9	21.8	0.00e+00	92	31	101	1048576	60	6810
2026-01-05 23:10:08.81	124.89	9.10	-41.7	-42.8	22.0	0.00e+00	89	31	101	1048576	60	6709
2026-01-05 23:10:09.82	124.84	9.19	-41.7	-42.8	22.0	0.00e+00	0	31	101	1048576	60	6755
2026-01-05 23:10:10.83	124.79	9.27	-41.7	-42.8	22.0	0.00e+00	92	31	101	1048576	60	6719
2026-01-05 23:10:11.84	124.74	9.35	-41.5	-42.6	22.2	0.00e+00	55	31	101	1048576	60	6574
2026-01-05 23:10:12.85	124.69	9.43	-41.4	-42.5	22.3	0.00e+00	90	31	101	1048576	60	6500
2026-01-05 23:10:13.86	124.64	9.51	-41.4	-42.5	22.3	0.00e+00	92	31	101	1048576	60	6482
2026-01-05 23:10:14.88	124.58	9.60	-41.3	-42.4	22.4	0.00e+00	90	31	101	1048576	60	6426
2026-01-05 23:10:15.89	124.53	9.68	-41.4	-42.4	22.4	0.00e+00	92	31	101	1048576	60	6434
2026-01-05 23:10:16.90	124.48	9.76	-41.2	-42.2	22.5	0.00e+00	89	31	101	1048576	60	6312
2026-01-05 23:10:17.91	124.42	9.85	-41.3	-42.3	22.5	0.00e+00	92	31	101	1048576	60	6345
2026-01-05 23:10:18.92	124.37	9.93	-41.3	-42.3	22.5	0.00e+00	8	31	101	1048576	60	6384
2026-01-05 23:10:19.93	124.31	10.02	-41.3	-42.3	22.4	0.00e+00	92	31	101	1048576	60	6361
2026-01-05 23:10:20.94	124.26	10.10	-41.3	-42.4	22.4	0.00e+00	10	31	101	1048576	60	6398
2026-01-05 23:10:21.95	124.20	10.18	-41.4	-42.4	22.5	0.00e+00	92	31	101	1048576	60	6437
2026-01-05 23:10:22.96	124.15	10.27	-41.3	-42.3	22.5	0.00e+00	90	31	101	1048576	60	6372
2026-01-05 23:10:23.97	124.09	10.35	-41.1	-42.2	22.6	0.00e+00	91	31	101	1048576	60	6258
2026-01-05 23:10:24.99	124.04	10.44	-41.2	-42.2	22.7	0.00e+00	91	31	101	1048576	60	6277
2026-01-05 23:10:26.00	123.98	10.53	-41.0	-42.0	22.8	0.00e+00	66	31	101	1048576	60	6120
2026-01-05 23:10:27.01	123.92	10.61	-41.1	-42.1	22.7	0.00e+00	91	31	101	1048576	60	6223
2026-01-05 23:10:28.02	123.87	10.70	-41.1	-42.1	22.7	0.00e+00	11	31	101	1048576	60	6185
2026-01-05 23:10:29.03	123.81	10.78	-40.9	-41.9	22.9	0.00e+00	90	31	101	1048576	60	6050
2026-01-05 23:10:30.04	123.75	10.87	-41.0	-42.0	22.7	0.00e+00	92	31	101	1048576	60	6139
2026-01-05 23:10:31.05	123.69	10.96	-40.8	-41.8	23.0	0.00e+00	91	31	101	1048576	60	5988
2026-01-05 23:10:32.06	123.63	11.04	-40.9	-41.9	22.9	0.00e+00	92	31	101	1048576	60	6093
2026-01-05 23:10:33.08	123.57	11.13	-40.8	-41.8	23.1	0.00e+00	9	31	101	1048576	60	5990
2026-01-05 23:10:34.09	123.52	11.22	-41.0	-42.0	22.8	0.00e+00	92	31	101	1048576	60	6135
2026-01-05 23:10:35.10	123.46	11.31	-41.0	-42.0	23.0	0.00e+00	0	31	101	1048576	60	6106
2026-01-05 23:10:36.11	123.40	11.40	-40.8	-41.8	23.0	0.00e+00	91	31	101	1048576	60	5979
2026-01-05 23:10:37.12	123.34	11.49	-40.9	-41.9	22.9	0.00e+00	92	31	101	1048576	60	6079
2026-01-05 23:10:38.13	123.27	11.57	-40.6	-41.6	23.3	0.00e+00	92	31	101	1048576	60	5869
2026-01-05 23:10:39.14	123.21	11.66	-40.6	-41.6	23.2	0.00e+00	92	31	101	1048576	60	5841
2026-01-05 23:10:40.15	123.15	11.75	-40.5	-41.4	23.4	0.00e+00	76	31	101	1048576	60	5755
2026-01-05 23:10:41.16	123.09	11.84	-40.6	-41.5	23.2	0.00e+00	92	31	101	1048576	60	5794
2026-01-05 23:10:42.17	123.03	11.93	-40.6	-41.6	23.3	0.00e+00	0	31	101	1048576	60	5851
2026-01-05 23:10:43.19	122.96	12.02	-40.7	-41.7	23.2	0.00e+00	92	31	101	1048576	60	5900
2026-01-05 23:10:44.20	122.90	12.12	-40.6	-41.5	23.3	0.00e+00	40	31	101	1048576	60	5815
2026-01-05 23:10:45.21	122.84	12.21	-40.7	-41.7	23.1	0.00e+00	91	31	101	1048576	60	5930
2026-01-05 23:10:46.22	122.77	12.30	-40.6	-41.6	23.3	0.00e+00	91	31	101	1048576	60	5843
2026-01-05 23:10:47.23	122.71	12.39	-40.6	-41.6	23.2	0.00e+00	91	31	101	1048576	60	5866
2026-01-05 23:10:48.24	122.64	12.48	-40.6	-41.6	23.3	0.00e+00	92	31	101	1048576	60	5860
2026-01-05 23:10:49.25	122.58	12.57	-40.6	-41.5	23.3	0.00e+00	54	31	101	1048576	60	5808
2026-01-05 23:10:50.26	122.51	12.67	-40.7	-41.6	23.2	0.00e+00	90	31	101	1048576	60	5877
2026-01-05 23:10:51.27	122.45	12.76	-40.5	-41.5	23.3	0.00e+00	0	31	101	1048576	60	5769
2026-01-05 23:10:52.29	122.38	12.85	-40.4	-41.4	23.4	0.00e+00	92	31	101	1048576	60	5720
2026-01-05 23:10:53.30	122.31	12.95	-40.4	-41.4	23.5	0.00e+00	91	31	101	1048576	60	5703
2026-01-05 23:10:54.31	122.25	13.04	-40.6	-41.6	23.4	0.00e+00	90	31	101	1048576	60	5850
2026-01-05 23:10:55.32	122.18	13.13	-40.5	-41.4	23.4	0.00e+00	91	31	101	1048576	60	5761
2026-01-05 23:10:56.33	122.11	13.23	-40.6	-41.6	23.3	0.00e+00	0	31	101	1048576	60	5836
2026-01-05 23:10:57.34	122.04	13.32	-40.6	-41.6	23.3	0.00e+00	92	31	101	1048576	60	5871
2026-01-05 23:10:58.35	121.97	13.42	-40.6	-41.6	23.2	0.00e+00	0	31	101	1048576	60	5852
2026-01-05 23:10:59.36	121.90	13.51	-40.7	-41.7	23.3	0.00e+00	92	31	101	1048576	60	5928
2026-01-05 23:11:00.37	121.83	13.61	-40.8	-41.8	23.2	0.00e+00	90	31	101	1048576	60	5966
2026-01-05 23:11:01.38	121.76	13.71	-40.5	-41.5	23.4	0.00e+00	92	31	101	1048576	60	5787
2026-01-05 23:11:02.40	121.69	13.80	-40.6	-41.5	23.4	0.00e+00	90	31	101	1048576	60	5816
2026-01-05 23:11:03.41	121.62	13.90	-40.5	-41.5	23.5	0.00e+00	92	31	101	1048576	60	5781
2026-01-05 23:11:04.42	121.55	14.00	-40.5	-41.4	23.4	0.00e+00	92	31	101	1048576	60	5758
2026-01-05 23:11:05.43	121.47	14.09	-40.5	-41.4	23.4	0.00e+00	65	31	101	1048576	60	5755
2026-01-05 23:11:06.44	121.40	14.19	-40.5	-41.5	23.4	0.00e+00	92	31	101	1048576	60	5798
2026-01-05 23:11:07.45	121.33	14.29	-40.5	-41.4	23.4	0.00e+00	92	31	101	1048576	60	5735
2026-01-05 23:11:08.46	121.25	14.39	-40.5	-41.5	23.4	0.00e+00	92	31	101	1048576	60	5786
2026-01-05 23:11:09.47	121.18	14.49	-40.5	-41.4	23.4	0.00e+00	92	31	101	1048576	60	5728
2026-01-05 23:11:10.48	121.10	14.59	-40.5	-41.4	23.5	0.00e+00	92	31	101	1048576	60	5743
2026-01-05 23:11:11.49	121.03	14.69	-40.6	-41.5	23.4	0.00e+00	92	31	101	1048576	60	5796
2026-01-05 23:11:12.50	120.95	14.79	-40.5	-41.4	23.5	0.00e+00	0	31	101	1048576	60	5724
2026-01-05 23:11:13.52	120.87	14.89	-40.5	-41.5	23.4	0.00e+00	90	31	101	1048576	60	5781
2026-01-05 23:11:14.53	120.80	14.99	-40.5	-41.4	23.4	0.00e+00	2	31	101	1048576	60	5741
2026-01-05 23:11:15.54	120.72	15.09	-40.5	-41.5	23.4	0.00e+00	90	31	101	1048576	60	5767
2026-01-05 23:11:16.55	120.64	15.19	-40.5	-41.4	23.5	0.00e+00	92	31	101	1048576	60	5741
2026-01-05 23:11:17.56	120.56	15.29	-40.6	-41.5	23.4	0.00e+00	90	31	101	1048576	60	5802
2026-01-05 23:11:18.57	120.48	15.39	-40.5	-41.5	23.5	0.00e+00	92	31	101	1048576	60	5765
2026-01-05 23:11:19.58	120.40	15.50	-40.7	-41.6	23.3	0.00e+00	90	31	101	1048576	60	5884
2026-01-05 23:11:20.59	120.32	15.60	-40.6	-41.5	23.4	0.00e+00	92	31	101	1048576	60	5818
2026-01-05 23:11:21.60	120.24	15.70	-40.7	-41.6	23.3	0.00e+00	5	31	101	1048576	60	5877
2026-01-05 23:11:22.61	120.16	15.81	-40.5	-41.5	23.5	0.00e+00	92	31	101	1048576	60	5766
2026-01-05 23:11:23.63	120.07	15.91	-40.4	-41.3	23.5	0.00e+00	91	31	101	1048576	60	5671
2026-01-05 23:11:24.64	119.99	16.02	-40.6	-41.6	23.3	0.00e+00	90	31	101	1048576	60	5837
2026-01-05 23:11:25.65	119.91	16.12	-40.3	-41.2	23.6	0.00e+00	92	31	101	1048576	60	5624
2026-01-05 23:11:26.66	119.82	16.22	-40.4	-41.3	23.6	0.00e+00	92	31	101	1048576	60	5673
2026-01-05 23:11:27.67	119.74	16.33	-40.4	-41.3	23.6	0.00e+00	92	31	101	1048576	60	5655
2026-01-05 23:11:28.68	119.65	16.44	-40.5	-41.4	23.6	0.00e+00	10	31	101	1048576	60	5733
2026-01-05 23:11:29.69	119.57	16.54	-40.5	-41.4	23.5	0.00e+00	91	31	101	1048576	60	5755
2026-01-05 23:11:30.70	119.48	16.65	-40.5	-41.5	23.5	0.00e+00	90	31	101	1048576	60	5787
2026-01-05 23:11:31.71	119.39	16.76	-40.6	-41.6	23.4	0.00e+00	92	31	101	1048576	60	5848
2026-01-05 23:11:32.72	119.31	16.86	-40.6	-41.6	23.4	0.00e+00	90	31	101	1048576	60	5864
2026-01-05 23:11:33.73	119.22	16.97	-40.7	-41.6	23.3	0.00e+00	91	31	101	1048576	60	5887
2026-01-05 23:11:34.75	119.13	17.08	-40.6	-41.5	23.4	0.00e+00	90	31	101	1048576	60	5814
2026-01-05 23:11:35.76	119.04	17.19	-40.7	-41.6	23.4	0.00e+00	62	31	101	1048576	60	5867
2026-01-05 23:11:36.77	118.95	17.30	-40.7	-41.7	23.3	0.00e+00	90	31	101	1048576	60	5919
2026-01-05 23:11:37.78	118.86	17.41	-40.8	-41.8	23.2	0.00e+00	89	31	101	1048576	60	5989
2026-01-05 23:11:38.79	118.76	17.52	-40.8	-41.8	23.2	0.00e+00	90	31	101	1048576	60	5983
2026-01-05 23:11:39.80	118.67	17.63	-40.9	-41.9	23.1	0.00e+00	92	31	101	1048576	60	6052
2026-01-05 23:11:40.81	118.58	17.74	-40.9	-41.9	23.1	0.00e+00	92	31	101	1048576	60	6049
2026-01-05 23:11:41.82	118.48	17.85	-41.0	-42.0	23.0	0.00e+00	92	31	101	1048576	60	6165
2026-01-05 23:11:42.83	118.39	17.96	-41.0	-42.0	22.8	0.00e+00	39	31	101	1048576	60	6125
2026-01-05 23:11:43.84	118.29	18.07	-40.9	-41.9	23.1	0.00e+00	92	31	101	1048576	60	6086
2026-01-05 23:11:44.86	118.20	18.19	-41.1	-42.1	22.9	0.00e+00	2	31	101	1048576	60	6223
2026-01-05 23:11:45.87	118.10	18.30	-40.9	-41.9	23.2	0.00e+00	92	31	101	1048576	60	6044
2026-01-05 23:11:46.88	118.00	18.41	-41.0	-42.0	23.1	0.00e+00	92	31	101	1048576	60	6130
2026-01-05 23:11:47.89	117.90	18.53	-40.9	-41.9	23.2	0.00e+00	92	31	101	1048576	60	6055
2026-01-05 23:11:48.90	117.80	18.64	-40.9	-41.9	23.2	0.00e+00	90	31	101	1048576	60	6034
2026-01-05 23:11:49.91	117.70	18.76	-41.0	-42.0	23.0	0.00e+00	0	31	101	1048576	60	6112
2026-01-05 23:11:50.92	117.60	18.87	-41.0	-41.9	23.1	0.00e+00	92	31	101	1048576	60	6103
2026-01-05 23:11:51.93	117.50	18.99	-41.0	-42.0	23.0	0.00e+00	0	31	101	1048576	60	6145
2026-01-05 23:11:52.94	117.40	19.10	-41.0	-41.9	23.2	0.00e+00	92	31	101	1048576	60	6101
2026-01-05 23:11:53.95	117.30	19.22	-40.8	-41.7	23.3	0.00e+00	92	31	101	1048576	60	5951
2026-01-05 23:11:54.97	117.19	19.34	-40.9	-41.9	23.2	0.00e+00	92	31	101	1048576	60	6062
2026-01-05 23:11:55.98	117.09	19.45	-40.9	-41.9	23.2	0.00e+00	92	31	101	1048576	60	6037
2026-01-05 23:11:56.99	116.98	19.57	-41.0	-42.0	23.0	0.00e+00	91	31	101	1048576	60	6156
2026-01-05 23:11:58.00	116.87	19.69	-40.9	-41.9	23.2	0.00e+00	92	31	101	1048576	60	6042
2026-01-05 23:11:59.01	116.77	19.81	-40.9	-41.9	23.2	0.00e+00	52	31	101	1048576	60	6051
2026-01-05 23:12:00.02	116.66	19.93	-41.0	-42.0	23.0	0.00e+00	92	31	101	1048576	60	6151
2026-01-05 23:12:01.03	116.55	20.05	-40.9	-41.9	23.2	0.00e+00	90	31	101	1048576	60	6055
2026-01-05 23:12:02.04	116.44	20.17	-41.0	-42.0	23.1	0.00e+00	92	31	101	1048576	60	6104
2026-01-05 23:12:03.05	116.33	20.29	-41.0	-42.0	23.1	0.00e+00	92	31	101	1048576	60	6106
2026-01-05 23:12:04.07	116.22	20.41	-40.9	-41.9	23.2	0.00e+00	0	31	101	1048576	60	6086
2026-01-05 23:12:05.08	116.10	20.53	-41.0	-42.0	23.1	0.00e+00	91	31	101	1048576	60	6131
2026-01-05 23:12:06.09	115.99	20.65	-41.0	-42.0	23.1	0.00e+00	7	31	101	1048576	60	6127
2026-01-05 23:12:07.10	115.88	20.78	-41.0	-42.0	23.1	0.00e+00	92	31	101	1048576	60	6122
2026-01-05 23:12:08.11	115.76	20.90	-41.1	-42.1	23.0	0.00e+00	75	31	101	1048576	60	6202
2026-01-05 23:12:09.12	115.64	21.02	-41.1	-42.1	22.9	0.00e+00	91	31	101	1048576	60	6209
2026-01-05 23:12:10.13	115.53	21.15	-41.1	-42.1	23.0	0.00e+00	92	31	101	1048576	60	6189
2026-01-05 23:12:11.14	115.41	21.27	-41.2	-42.2	22.9	0.00e+00	49	31	101	1048576	60	6298
2026-01-05 23:12:12.15	115.29	21.40	-40.9	-41.9	23.2	0.00e+00	91	31	101	1048576	60	6079
2026-01-05 23:12:13.16	115.17	21.52	-41.0	-41.9	22.9	0.00e+00	62	31	101	1048576	60	6100
2026-01-05 23:12:14.17	115.05	21.65	-40.9	-41.9	23.2	0.00e+00	92	31	101	1048576	60	6069
2026-01-05 23:12:15.18	114.93	21.77	-41.1	-42.1	23.0	0.00e+00	0	31	101	1048576	60	6207
2026-01-05 23:12:16.20	114.80	21.90	-41.0	-41.9	23.1	0.00e+00	91	31	101	1048576	60	6094
2026-01-05 23:12:17.20	114.68	22.03	-41.1	-42.1	23.1	0.00e+00	91	31	101	1048576	60	6210
2026-01-05 23:12:18.22	114.55	22.16	-40.9	-41.9	23.3	0.00e+00	20	31	101	1048576	60	6053
2026-01-05 23:12:19.23	114.43	22.28	-41.1	-42.0	23.1	0.00e+00	92	31	101	1048576	60	6171
2026-01-05 23:12:20.24	114.30	22.41	-40.9	-41.9	23.2	0.00e+00	7	31	101	1048576	60	6054
2026-01-05 23:12:21.25	114.17	22.54	-40.9	-41.8	23.3	0.00e+00	92	31	101	1048576	60	6027
2026-01-05 23:12:22.26	114.04	22.67	-40.9	-41.8	23.4	0.00e+00	0	31	101	1048576	60	5998
2026-01-05 23:12:23.27	113.91	22.80	-40.9	-41.9	23.2	0.00e+00	92	31	101	1048576	60	6066
2026-01-05 23:12:24.28	113.78	22.93	-40.9	-41.9	23.2	0.00e+00	90	31	101	1048576	60	6068
2026-01-05 23:12:25.29	113.65	23.06	-41.0	-41.9	23.2	0.00e+00	92	31	101	1048576	60	6085
2026-01-05 23:12:26.31	113.51	23.20	-41.0	-42.0	23.1	0.00e+00	92	31	101	1048576	60	6140
2026-01-05 23:12:27.32	113.37	23.33	-41.0	-42.0	23.2	0.00e+00	0	31	101	1048576	60	6134
2026-01-05 23:12:28.33	113.24	23.46	-41.1	-42.1	23.0	0.00e+00	90	31	101	1048576	60	6231
2026-01-05 23:12:29.34	113.10	23.59	-41.0	-41.9	23.2	0.00e+00	31	31	101	1048576	60	6098
2026-01-05 23:12:30.35	112.96	23.73	-40.9	-41.9	23.2	0.00e+00	92	31	101	1048576	60	6046
2026-01-05 23:12:31.36	112.82	23.86	-40.9	-41.8	23.2	0.00e+00	48	31	101	1048576	60	6032
2026-01-05 23:12:32.37	112.68	24.00	-41.0	-42.0	23.1	0.00e+00	92	31	101	1048576	60	6148
2026-01-05 23:12:33.38	112.54	24.13	-41.0	-41.9	23.2	0.00e+00	92	31	101	1048576	60	6084
2026-01-05 23:12:34.39	112.39	24.27	-40.8	-41.8	23.4	0.00e+00	30	31	101	1048576	60	5988
2026-01-05 23:12:35.40	112.25	24.40	-40.9	-41.8	23.3	0.00e+00	92	31	101	1048576	60	6015
2026-01-05 23:12:36.41	112.10	24.54	-41.0	-41.9	22.9	0.00e+00	6	31	101	1048576	60	6099
2026-01-05 23:12:37.43	111.95	24.68	-41.0	-42.0	23.1	0.00e+00	92	31	101	1048576	60	6143
2026-01-05 23:12:38.44	111.80	24.82	-41.2	-42.2	23.0	0.00e+00	6	31	101	1048576	60	6298
2026-01-05 23:12:39.45	111.65	24.95	-41.2	-42.2	23.0	0.00e+00	92	31	101	1048576	60	6269
2026-01-05 23:12:40.46	111.50	25.09	-41.0	-42.0	23.1	0.00e+00	92	31	101	1048576	60	6134
2026-01-05 23:12:41.47	111.35	25.23	-41.1	-42.1	23.1	0.00e+00	92	31	101	1048576	60	6211
2026-01-05 23:12:42.48	111.20	25.37	-41.0	-41.9	23.2	0.00e+00	92	31	101	1048576	60	6103
2026-01-05 23:12:43.49	111.04	25.51	-41.0	-42.0	23.2	0.00e+00	11	31	101	1048576	60	6111
2026-01-05 23:12:44.50	110.88	25.65	-41.1	-42.1	23.0	0.00e+00	92	31	101	1048576	60	6195
2026-01-05 23:12:45.52	110.72	25.79	-41.0	-41.9	23.3	0.00e+00	0	31	101	1048576	60	6099
2026-01-05 23:12:46.53	110.56	25.94	-41.0	-42.0	23.2	0.00e+00	92	31	101	1048576	60	6111
2026-01-05 23:12:47.54	110.40	26.08	-41.0	-41.9	23.2	0.00e+00	90	31	101	1048576	60	6100
2026-01-05 23:12:48.55	110.24	26.22	-41.0	-41.9	23.3	0.00e+00	91	31	101	1048576	60	6091
2026-01-05 23:12:49.56	110.07	26.36	-40.9	-41.9	23.2	0.00e+00	92	31	101	1048576	60	6054
2026-01-05 23:12:50.57	109.91	26.51	-41.0	-41.9	23.3	0.00e+00	24	31	101	1048576	60	6098
2026-01-05 23:12:51.58	109.74	26.65	-40.7	-41.7	23.5	0.00e+00	91	31	101	1048576	60	5907
2026-01-05 23:12:52.59	109.57	26.80	-40.8	-41.8	23.4	0.00e+00	26	31	101	1048576	60	6000
2026-01-05 23:12:53.60	109.40	26.94	-40.8	-41.8	23.3	0.00e+00	91	31	101	1048576	60	5984
2026-01-05 23:12:54.61	109.23	27.09	-40.9	-41.9	23.2	0.00e+00	92	31	101	1048576	60	6063
2026-01-05 23:12:55.63	109.05	27.24	-41.1	-42.1	23.1	0.00e+00	90	31	101	1048576	60	6213
2026-01-05 23:12:56.64	108.88	27.38	-41.0	-42.0	23.2	0.00e+00	92	31	101	1048576	60	6125
2026-01-05 23:12:57.65	108.70	27.53	-41.1	-42.0	23.2	0.00e+00	12	31	101	1048576	60	6150
2026-01-05 23:12:58.66	108.52	27.68	-40.9	-41.9	23.3	0.00e+00	91	31	101	1048576	60	6035
2026-01-05 23:12:59.67	108.34	27.82	-40.8	-41.7	23.4	0.00e+00	5	31	101	1048576	60	5940
2026-01-05 23:13:00.68	108.16	27.97	-40.9	-41.8	23.3	0.00e+00	92	31	101	1048576	60	6028
2026-01-05 23:13:01.69	107.97	28.12	-41.0	-42.0	23.2	0.00e+00	2	31	101	1048576	60	6126
2026-01-05 23:13:02.70	107.79	28.27	-41.2	-42.1	23.1	0.00e+00	91	31	101	1048576	60	6235
2026-01-05 23:13:03.71	107.60	28.42	-41.2	-42.2	23.0	0.00e+00	92	31	101	1048576	60	6297
2026-01-05 23:13:04.73	107.41	28.57	-41.2	-42.2	23.1	0.00e+00	92	31	101	1048576	60	6291
2026-01-05 23:13:05.74	107.22	28.72	-41.3	-42.3	22.9	0.00e+00	90	31	101	1048576	60	6321
2026-01-05 23:13:06.75	107.03	28.88	-41.4	-42.4	22.8	0.00e+00	0	31	101	1048576	60	6401
2026-01-05 23:13:07.76	106.83	29.03	-41.5	-42.6	22.8	0.00e+00	92	31	101	1048576	60	6547
2026-01-05 23:13:08.77	106.64	29.18	-41.7	-42.8	22.4	0.00e+00	0	31	101	1048576	60	6695
2026-01-05 23:13:09.78	106.44	29.33	-42.2	-43.4	21.9	0.00e+00	90	31	101	1048576	60	7190
2026-01-05 23:13:10.79	106.24	29.49	-42.4	-43.6	21.8	0.00e+00	92	31	101	1048576	60	7339
2026-01-05 23:13:11.80	106.03	29.64	-42.6	-43.8	21.6	0.00e+00	92	31	101	1048576	60	7570
2026-01-05 23:13:12.81	105.83	29.79	-42.8	-44.0	21.3	0.00e+00	92	31	101	1048576	60	7721
2026-01-05 23:13:13.82	105.62	29.95	-42.9	-44.1	21.3	0.00e+00	52	31	101	1048576	60	7816
2026-01-05 23:13:14.83	105.42	30.10	-42.9	-44.1	21.2	0.00e+00	92	31	101	1048576	60	7808
2026-01-05 23:13:15.85	105.20	30.26	-43.2	-44.4	21.1	0.00e+00	61	31	101	1048576	60	8109
2026-01-05 23:13:16.86	104.99	30.41	-43.4	-44.7	20.7	0.00e+00	92	31	101	1048576	60	8377
2026-01-05 23:13:17.87	104.78	30.57	-43.3	-44.6	20.8	0.00e+00	92	31	101	1048576	60	8296
2026-01-05 23:13:18.88	104.56	30.73	-43.6	-44.9	20.6	0.00e+00	92	31	101	1048576	60	8549
2026-01-05 23:13:19.89	104.34	30.88	-43.7	-45.0	20.4	0.00e+00	92	31	101	1048576	60	8679
2026-01-05 23:13:20.90	104.12	31.04	-43.7	-45.1	20.4	0.00e+00	71	31	101	1048576	60	8763
2026-01-05 23:13:21.91	103.90	31.20	-43.9	-45.3	20.2	0.00e+00	92	31	101	1048576	60	9006
2026-01-05 23:13:22.92	103.67	31.36	-43.6	-44.9	20.4	0.00e+00	0	31	101	1048576	60	8594
2026-01-05 23:13:23.93	103.45	31.51	-43.7	-45.1	20.4	0.00e+00	92	31	101	1048576	60	8725
2026-01-05 23:13:24.94	103.22	31.67	-43.8	-45.2	20.3	0.00e+00	14	31	101	1048576	60	8890
2026-01-05 23:13:25.95	102.98	31.83	-44.1	-45.5	20.0	0.00e+00	90	31	101	1048576	60	9140
2026-01-05 23:13:26.97	102.75	31.99	-44.1	-45.5	20.1	0.00e+00	92	31	101	1048576	60	9191
2026-01-05 23:13:27.98	102.51	32.15	-43.7	-45.0	20.5	0.00e+00	92	31	101	1048576	60	8717
2026-01-05 23:13:28.99	102.27	32.31	-43.5	-44.8	20.7	0.00e+00	91	31	101	1048576	60	8498
2026-01-05 23:13:30.00	102.03	32.47	-43.5	-44.8	20.7	0.00e+00	28	31	101	1048576	60	8458
2026-01-05 23:13:31.01	101.79	32.63	-43.5	-44.8	20.6	0.00e+00	92	31	101	1048576	60	8505
2026-01-05 23:13:32.02	101.54	32.79	-43.5	-44.9	20.6	0.00e+00	34	31	101	1048576	60	8541
2026-01-05 23:13:33.03	101.29	32.95	-43.5	-44.9	20.6	0.00e+00	92	31	101	1048576	60	8529
2026-01-05 23:13:34.04	101.04	33.11	-43.4	-44.7	20.7	0.00e+00	92	31	101	1048576	60	8420
2026-01-05 23:13:35.05	100.79	33.27	-43.6	-44.9	20.5	0.00e+00	92	31	101	1048576	60	8598
2026-01-05 23:13:36.07	100.53	33.44	-43.6	-44.9	20.5	0.00e+00	90	31	101	1048576	60	8592
2026-01-05 23:13:37.08	100.27	33.60	-43.8	-45.2	20.4	0.00e+00	2	31	101	1048576	60	8838
2026-01-05 23:13:38.09	100.01	33.76	-43.7	-45.1	20.4	0.00e+00	92	31	101	1048576	60	8759
2026-01-05 23:13:39.10	99.74	33.92	-43.7	-45.0	20.5	0.00e+00	0	31	101	1048576	60	8658
2026-01-05 23:13:40.11	99.48	34.08	-43.5	-44.8	20.7	0.00e+00	90	31	101	1048576	60	8513
2026-01-05 23:13:41.12	99.21	34.25	-43.4	-44.6	20.9	0.00e+00	91	31	101	1048576	60	8313
2026-01-05 23:13:42.13	98.94	34.41	-43.3	-44.6	20.8	0.00e+00	92	31	101	1048576	60	8299
2026-01-05 23:13:43.14	98.66	34.57	-43.2	-44.4	21.0	0.00e+00	91	31	101	1048576	60	8132
2026-01-05 23:13:44.15	98.38	34.73	-43.0	-44.2	21.2	0.00e+00	36	31	101	1048576	60	7913
2026-01-05 23:13:45.16	98.10	34.90	-42.8	-44.0	21.4	0.00e+00	91	31	101	1048576	60	7736
2026-01-05 23:13:46.18	97.82	35.06	-42.8	-44.0	21.4	0.00e+00	0	31	101	1048576	60	7744
2026-01-05 23:13:47.19	97.53	35.22	-42.4	-43.6	21.8	0.00e+00	91	31	101	1048576	60	7350
2026-01-05 23:13:48.20	97.24	35.38	-42.4	-43.5	21.9	0.00e+00	90	31	101	1048576	60	7329
2026-01-05 23:13:49.21	96.95	35.55	-42.3	-43.4	22.1	0.00e+00	92	31	101	1048576	60	7198
2026-01-05 23:13:50.22	96.66	35.71	-42.1	-43.2	22.2	0.00e+00	91	31	101	1048576	60	7030
2026-01-05 23:13:51.23	96.36	35.87	-42.1	-43.2	22.3	0.00e+00	92	31	101	1048576	60	7040
2026-01-05 23:13:52.24	96.06	36.03	-42.0	-43.1	22.3	0.00e+00	92	31	101	1048576	60	6951
2026-01-05 23:13:53.25	95.75	36.20	-42.1	-43.2	22.2	0.00e+00	8	31	101	1048576	60	7015
2026-01-05 23:13:54.26	95.45	36.36	-42.0	-43.1	22.3	0.00e+00	90	31	101	1048576	60	6931
2026-01-05 23:13:55.28	95.13	36.52	-42.1	-43.2	22.2	0.00e+00	27	31	101	1048576	60	7068
2026-01-05 23:13:56.29	94.82	36.68	-42.1	-43.2	22.1	0.00e+00	90	31	101	1048576	60	7042
2026-01-05 23:13:57.30	94.50	36.85	-42.1	-43.2	22.2	0.00e+00	92	31	101	1048576	60	7013
2026-01-05 23:13:58.31	94.18	37.01	-42.3	-43.4	22.0	0.00e+00	90	31	101	1048576	60	7207
2026-01-05 23:13:59.32	93.86	37.17	-42.2	-43.3	22.1	0.00e+00	92	32	101	1048576	60	7139
2026-01-05 23:14:00.33	93.54	37.33	-41.9	-43.0	22.4	0.00e+00	0	31	101	1048576	60	6886
2026-01-05 23:14:01.34	93.21	37.49	-41.9	-42.9	22.4	0.00e+00	92	31	101	1048576	60	6843
2026-01-05 23:14:02.35	92.87	37.65	-42.0	-43.1	22.3	0.00e+00	0	31	101	1048576	60	6976
2026-01-05 23:14:03.36	92.54	37.81	-42.0	-43.1	22.2	0.00e+00	92	31	101	1048576	60	6968
2026-01-05 23:14:04.38	92.20	37.97	-42.2	-43.4	22.0	0.00e+00	92	31	101	1048576	60	7177
2026-01-05 23:14:05.39	91.85	38.13	-42.4	-43.6	21.8	0.00e+00	92	31	101	1048576	60	7339
2026-01-05 23:14:06.40	91.51	38.29	-42.4	-43.6	21.8	0.00e+00	92	31	101	1048576	60	7364
2026-01-05 23:14:07.41	91.16	38.45	-42.5	-43.6	21.8	0.00e+00	5	31	101	1048576	60	7387
2026-01-05 23:14:08.42	90.81	38.61	-42.3	-43.5	21.9	0.00e+00	92	31	101	1048576	60	7275
2026-01-05 23:14:09.43	90.45	38.76	-42.6	-43.7	21.8	0.00e+00	7	31	101	1048576	60	7452
2026-01-05 23:14:10.44	90.09	38.92	-42.7	-43.8	21.5	0.00e+00	92	31	101	1048576	60	7583
2026-01-05 23:14:11.45	89.73	39.08	-43.0	-44.3	21.2	0.00e+00	90	31	101	1048576	60	7984
2026-01-05 23:14:12.46	89.36	39.23	-43.1	-44.4	21.1	0.00e+00	92	31	101	1048576	60	8087
2026-01-05 23:14:13.47	88.99	39.39	-42.9	-44.1	21.3	0.00e+00	92	31	101	1048576	60	7829
2026-01-05 23:14:14.49	88.61	39.54	-43.0	-44.3	21.0	0.00e+00	5	31	101	1048576	60	8001
2026-01-05 23:14:15.50	88.24	39.70	-42.9	-44.2	21.3	0.00e+00	91	31	101	1048576	60	7901
2026-01-05 23:14:16.51	87.86	39.85	-42.9	-44.1	21.4	0.00e+00	30	31	101	1048576	60	7803
2026-01-05 23:14:17.52	87.47	40.00	-42.6	-43.8	21.6	0.00e+00	90	31	101	1048576	60	7562
2026-01-05 23:14:18.53	87.08	40.15	-42.3	-43.4	22.1	0.00e+00	0	31	101	1048576	60	7173
2026-01-05 23:14:19.54	86.69	40.30	-41.9	-42.9	22.5	0.00e+00	92	31	101	1048576	60	6815
2026-01-05 23:14:20.55	86.30	40.45	-41.7	-42.8	22.6	0.00e+00	92	31	101	1048576	60	6700
2026-01-05 23:14:21.56	85.90	40.60	-41.8	-42.9	22.6	0.00e+00	52	31	101	1048576	60	6811
2026-01-05 23:14:22.57	85.50	40.75	-41.8	-42.8	22.6	0.00e+00	92	31	101	1048576	60	6748
2026-01-05 23:14:23.59	85.08	40.89	-41.7	-42.7	22.5	0.00e+00	27	31	101	1048576	60	6656
2026-01-05 23:14:24.60	84.67	41.04	-41.0	-41.9	23.4	0.00e+00	92	31	101	1048576	60	6097
2026-01-05 23:14:25.61	84.26	41.18	-40.6	-41.5	23.6	0.00e+00	0	31	101	1048576	60	5825
2026-01-05 23:14:26.62	83.84	41.33	-40.5	-41.4	23.9	0.00e+00	92	31	101	1048576	60	5730
2026-01-05 23:14:27.63	83.42	41.47	-40.4	-41.3	23.9	0.00e+00	92	31	101	1048576	60	5659
2026-01-05 23:14:28.64	83.00	41.61	-40.4	-41.4	23.8	0.00e+00	92	31	101	1048576	60	5698
2026-01-05 23:14:29.65	82.57	41.75	-40.0	-40.9	24.2	0.00e+00	91	31	101	1048576	58	6064
2026-01-05 23:14:30.66	82.14	41.89	-39.8	-40.6	24.2	0.00e+00	0	31	101	1048576	58	5868
2026-01-05 23:14:31.67	81.70	42.02	-39.7	-40.6	24.4	0.00e+00	91	32	101	1048576	58	5835
2026-01-05 23:14:32.68	81.26	42.16	-39.9	-40.7	24.4	0.00e+00	0	31	101	1048576	58	5936
2026-01-05 23:14:33.69	80.82	42.29	-40.0	-40.9	24.2	0.00e+00	91	31	101	1048576	58	6040
2026-01-05 23:14:34.70	80.37	42.42	-39.9	-40.8	24.3	0.00e+00	90	31	101	1048576	58	6007
2026-01-05 23:14:35.71	79.92	42.55	-40.0	-40.9	24.3	0.00e+00	79	32	101	1048576	58	6051
2026-01-05 23:14:36.73	79.46	42.68	-39.7	-40.5	24.5	0.00e+00	90	31	101	1048576	58	5785
2026-01-05 23:14:37.74	79.00	42.81	-39.7	-40.6	24.4	0.00e+00	30	31	101	1048576	58	5832
2026-01-05 23:14:38.75	78.54	42.94	-39.9	-40.8	24.3	0.00e+00	92	31	101	1048576	58	6008
2026-01-05 23:14:39.76	78.08	43.06	-40.0	-40.9	24.2	0.00e+00	58	31	101	1048576	58	6055
2026-01-05 23:14:40.77	77.61	43.19	-40.3	-41.2	24.0	0.00e+00	92	31	101	1048576	58	6247
2026-01-05 23:14:41.78	77.14	43.31	-40.6	-41.5	23.6	0.00e+00	35	31	101	1048576	58	6523
2026-01-05 23:14:42.79	76.66	43.42	-41.0	-41.9	23.4	0.00e+00	92	31	101	1048576	58	6803
2026-01-05 23:14:43.80	76.18	43.54	-41.1	-42.1	23.1	0.00e+00	92	31	101	1048576	58	6940
2026-01-05 23:14:44.81	75.70	43.66	-41.4	-42.4	23.0	0.00e+00	0	31	101	1048576	60	6405
2026-01-05 23:14:45.82	75.21	43.77	-41.4	-42.4	22.9	0.00e+00	92	31	101	1048576	60	6429
2026-01-05 23:14:46.84	74.72	43.88	-41.3	-42.3	23.1	0.00e+00	0	31	101	1048576	60	6346
2026-01-05 23:14:47.85	74.22	43.99	-41.3	-42.3	23.0	0.00e+00	90	31	101	1048576	60	6375
2026-01-05 23:14:48.86	73.73	44.10	-41.1	-42.1	23.2	0.00e+00	0	31	101	1048576	60	6204
2026-01-05 23:14:49.87	73.23	44.20	-41.3	-42.3	23.0	0.00e+00	91	31	101	1048576	60	6321
2026-01-05 23:14:50.88	72.72	44.31	-41.0	-42.0	23.2	0.00e+00	92	31	101	1048576	60	6143
2026-01-05 23:14:51.89	72.22	44.41	-41.1	-42.1	23.2	0.00e+00	0	31	101	1048576	60	6199
2026-01-05 23:14:52.90	71.71	44.50	-41.0	-41.9	23.3	0.00e+00	91	31	101	1048576	60	6096
2026-01-05 23:14:53.91	71.19	44.60	-41.0	-42.0	23.3	0.00e+00	0	32	101	1048576	60	6126
2026-01-05 23:14:54.93	70.67	44.69	-41.3	-42.3	23.0	0.00e+00	92	31	101	1048576	60	6333
2026-01-05 23:14:55.94	70.15	44.78	-41.3	-42.2	23.2	0.00e+00	0	31	101	1048576	60	6300
2026-01-05 23:14:56.95	69.63	44.87	-41.3	-42.3	23.0	0.00e+00	92	31	101	1048576	60	6321
2026-01-05 23:14:57.96	69.11	44.96	-41.1	-42.1	23.1	0.00e+00	92	31	101	1048576	60	6208
2026-01-05 23:14:58.97	68.58	45.04	-41.4	-42.4	23.0	0.00e+00	0	31	101	1048576	60	6447
2026-01-05 23:14:59.98	68.05	45.12	-41.3	-42.3	22.9	0.00e+00	92	31	101	1048576	60	6370
2026-01-05 23:15:00.99	67.52	45.20	-41.8	-42.9	22.5	0.00e+00	46	31	101	1048576	60	6800
2026-01-05 23:15:02.00	66.98	45.28	-41.8	-42.9	22.4	0.00e+00	92	31	101	1048576	60	6807
2026-01-05 23:15:03.02	66.44	45.35	-41.8	-42.9	22.5	0.00e+00	2	31	101	1048576	60	6781
2026-01-05 23:15:04.03	65.90	45.42	-42.0	-43.0	22.4	0.00e+00	92	31	101	1048576	60	6899
2026-01-05 23:15:05.04	65.35	45.49	-41.8	-42.8	22.5	0.00e+00	89	31	101	1048576	60	6757
2026-01-05 23:15:06.05	64.81	45.56	-42.1	-43.2	22.2	0.00e+00	92	31	101	1048576	60	7064
2026-01-05 23:15:07.06	64.26	45.62	-42.2	-43.3	22.0	0.00e+00	90	31	101	1048576	60	7169
2026-01-05 23:15:08.07	63.71	45.68	-42.0	-43.0	22.4	0.00e+00	0	31	101	1048576	60	6901
2026-01-05 23:15:09.08	63.16	45.73	-41.4	-42.4	22.9	0.00e+00	92	31	101	1048576	60	6414
2026-01-05 23:15:10.09	62.61	45.79	-41.7	-42.8	22.5	0.00e+00	0	31	101	1048576	60	6712
2026-01-05 23:15:11.10	62.05	45.84	-42.2	-43.3	22.1	0.00e+00	92	31	101	1048576	60	7130
2026-01-05 23:15:12.12	61.49	45.89	-42.5	-43.7	21.7	0.00e+00	71	31	101	1048576	60	7452
2026-01-05 23:15:13.13	60.93	45.93	-42.7	-43.8	21.5	0.00e+00	36	31	101	1048576	60	7595
2026-01-05 23:15:14.14	60.37	45.97	-43.1	-44.4	21.1	0.00e+00	90	31	101	1048576	60	8060
2026-01-05 23:15:15.15	59.81	46.01	-42.8	-44.0	21.5	0.00e+00	0	31	101	1048576	60	7756
2026-01-05 23:15:16.16	59.25	46.05	-42.4	-43.5	22.0	0.00e+00	92	31	101	1048576	60	7279
2026-01-05 23:15:17.17	58.68	46.08	-42.1	-43.1	22.3	0.00e+00	46	31	101	1048576	60	6989
2026-01-05 23:15:18.18	58.12	46.11	-42.3	-43.4	22.1	0.00e+00	92	31	101	1048576	60	7236
2026-01-05 23:15:19.20	57.55	46.14	-42.6	-43.8	21.8	0.00e+00	31	31	101	1048576	60	7520
2026-01-05 23:15:20.20	56.98	46.16	-42.4	-43.6	22.0	0.00e+00	0	31	101	1048576	60	7354
2026-01-05 23:15:21.22	56.41	46.18	-42.4	-43.5	21.9	0.00e+00	90	31	101	1048576	60	7316
2026-01-05 23:15:22.23	55.84	46.20	-42.6	-43.7	21.8	0.00e+00	0	31	101	1048576	60	7496
2026-01-05 23:15:23.24	55.27	46.21	-42.5	-43.6	21.8	0.00e+00	90	31	101	1048576	60	7411
2026-01-05 23:15:24.25	54.70	46.22	-42.2	-43.3	22.1	0.00e+00	2	31	101	1048576	60	7145
2026-01-05 23:15:25.26	54.13	46.23	-42.2	-43.3	22.2	0.00e+00	92	31	101	1048576	60	7109
2026-01-05 23:15:26.27	53.56	46.24	-42.1	-43.2	22.2	0.00e+00	0	31	101	1048576	60	7045
2026-01-05 23:15:27.28	52.99	46.24	-42.2	-43.3	22.2	0.00e+00	92	31	101	1048576	60	7093
2026-01-05 23:15:28.29	52.42	46.24	-42.2	-43.3	22.2	0.00e+00	90	31	101	1048576	60	7116
2026-01-05 23:15:29.30	51.85	46.23	-42.2	-43.2	21.7	0.00e+00	0	31	101	1048576	60	7087
2026-01-05 23:15:30.31	51.28	46.22	-42.5	-43.6	21.8	0.00e+00	90	31	101	1048576	60	7411
2026-01-05 23:15:31.32	50.71	46.21	-42.7	-43.9	21.6	0.00e+00	0	31	101	1048576	60	7603
2026-01-05 23:15:32.33	50.14	46.20	-42.7	-43.9	21.7	0.00e+00	92	31	101	1048576	60	7616
2026-01-05 23:15:33.35	49.57	46.18	-42.5	-43.6	21.9	0.00e+00	35	31	101	1048576	60	7391
2026-01-05 23:15:34.36	49.00	46.16	-42.4	-43.6	21.9	0.00e+00	92	31	101	1048576	60	7357
2026-01-05 23:15:35.37	48.43	46.14	-42.5	-43.6	21.8	0.00e+00	88	31	101	1048576	60	7396
2026-01-05 23:15:36.38	47.87	46.11	-42.7	-43.8	21.6	0.00e+00	47	31	101	1048576	60	7593
2026-01-05 23:15:37.39	47.30	46.08	-42.5	-43.6	21.8	0.00e+00	90	31	101	1048576	60	7412
2026-01-05 23:15:38.40	46.74	46.05	-42.7	-43.8	21.5	0.00e+00	0	31	101	1048576	60	7578
2026-01-05 23:15:39.41	46.18	46.02	-43.3	-44.6	20.9	0.00e+00	90	31	101	1048576	60	8234
2026-01-05 23:15:40.42	45.62	45.98	-43.8	-45.2	20.3	0.00e+00	7	31	101	1048576	60	8822
2026-01-05 23:15:41.43	45.06	45.94	-43.7	-45.0	20.6	0.00e+00	90	31	101	1048576	60	8649
2026-01-05 23:15:42.44	44.50	45.89	-43.3	-44.5	21.0	0.00e+00	76	31	101	1048576	60	8208
2026-01-05 23:15:43.46	43.93	45.84	-42.9	-44.1	21.4	0.00e+00	0	31	101	1048576	60	7809
2026-01-05 23:15:44.47	43.38	45.79	-43.1	-44.3	21.2	0.00e+00	92	31	101	1048576	60	7985
2026-01-05 23:15:45.48	42.83	45.74	-43.3	-44.6	21.0	0.00e+00	0	31	101	1048576	60	8295
2026-01-05 23:15:46.49	42.28	45.68	-43.4	-44.7	20.9	0.00e+00	92	31	101	1048576	60	8331
2026-01-05 23:15:47.50	41.73	45.63	-43.6	-44.9	20.7	0.00e+00	6	31	101	1048576	60	8533
2026-01-05 23:15:48.51	41.18	45.56	-43.5	-44.8	20.8	0.00e+00	94	31	101	1048576	60	8455
2026-01-05 23:15:49.52	40.63	45.50	-43.4	-44.6	20.8	0.00e+00	0	31	101	1048576	60	8327
2026-01-05 23:15:50.53	40.09	45.43	-42.8	-44.0	21.4	0.00e+00	46	31	101	1048576	60	7736
2026-01-05 23:15:51.54	39.55	45.36	-42.9	-44.0	21.4	0.00e+00	92	31	101	1048576	60	7764
2026-01-05 23:15:52.56	39.01	45.29	-42.8	-44.0	21.6	0.00e+00	33	31	101	1048576	60	7689
2026-01-05 23:15:53.57	38.47	45.21	-43.0	-44.2	21.4	0.00e+00	92	31	101	1048576	60	7933
2026-01-05 23:15:54.58	37.94	45.13	-42.6	-43.8	21.6	0.00e+00	53	31	101	1048576	60	7517
2026-01-05 23:15:55.59	37.41	45.05	-42.2	-43.3	22.2	0.00e+00	92	31	101	1048576	60	7092
2026-01-05 23:15:56.60	36.88	44.97	-42.6	-43.7	21.8	0.00e+00	33	31	101	1048576	60	7467
2026-01-05 23:15:57.61	36.36	44.89	-42.0	-43.1	22.4	0.00e+00	92	31	101	1048576	60	6973
2026-01-05 23:15:58.62	35.84	44.80	-41.7	-42.8	22.6	0.00e+00	92	31	101	1048576	60	6700
2026-01-05 23:15:59.63	35.32	44.71	-41.7	-42.7	22.7	0.00e+00	53	31	101	1048576	60	6684
2026-01-05 23:16:00.64	34.80	44.61	-41.7	-42.8	22.7	0.00e+00	91	31	101	1048576	60	6695
2026-01-05 23:16:01.65	34.29	44.52	-41.6	-42.6	22.9	0.00e+00	0	31	101	1048576	60	6585
2026-01-05 23:16:02.66	33.78	44.42	-41.1	-42.0	23.4	0.00e+00	92	31	101	1048576	60	6142
2026-01-05 23:16:03.68	33.27	44.32	-40.7	-41.6	23.7	0.00e+00	0	31	101	1048576	60	5882
2026-01-05 23:16:04.69	32.77	44.22	-40.6	-41.5	23.8	0.00e+00	91	31	101	1048576	60	5762
2026-01-05 23:16:05.70	32.27	44.11	-40.5	-41.4	23.8	0.00e+00	0	31	101	1048576	60	5714
2026-01-05 23:16:06.71	31.77	44.01	-40.4	-41.3	23.8	0.00e+00	0	31	101	1048576	60	5682
2026-01-05 23:16:07.72	31.28	43.90	-40.6	-41.5	23.7	0.00e+00	92	31	101	1048576	60	5817
2026-01-05 23:16:08.73	30.79	43.79	-40.5	-41.4	23.8	0.00e+00	0	31	101	1048576	60	5760
2026-01-05 23:16:09.74	30.30	43.68	-40.3	-41.2	24.0	0.00e+00	90	31	101	1048576	60	5608
2026-01-05 23:16:10.75	29.82	43.56	-40.0	-40.9	24.2	0.00e+00	35	31	101	1048576	58	6035
2026-01-05 23:16:11.76	29.34	43.45	-39.8	-40.7	24.4	0.00e+00	87	31	101	1048576	58	5900
2026-01-05 23:16:12.77	28.87	43.33	-39.4	-40.3	24.7	0.00e+00	0	31	101	1048576	58	5635
2026-01-05 23:16:13.78	28.39	43.21	-39.1	-39.9	25.0	0.00e+00	46	31	101	1048576	58	5408
2026-01-05 23:16:14.79	27.93	43.08	-38.8	-39.5	25.4	0.00e+00	92	31	101	1048576	56	5814
2026-01-05 23:16:15.80	27.46	42.96	-38.8	-39.6	25.0	0.00e+00	0	31	101	1048576	56	5876
2026-01-05 23:16:16.82	27.00	42.83	-39.0	-39.8	25.2	0.00e+00	90	31	101	1048576	56	5984
2026-01-05 23:16:17.83	26.54	42.71	-39.0	-39.8	25.0	0.00e+00	0	31	101	1048576	56	5999
2026-01-05 23:16:18.84	26.08	42.58	-38.9	-39.7	25.3	0.00e+00	90	31	101	1048576	56	5946
2026-01-05 23:16:19.85	25.63	42.45	-38.8	-39.6	25.3	0.00e+00	50	31	101	1048576	56	5880
2026-01-05 23:16:20.86	25.19	42.32	-38.9	-39.7	25.2	0.00e+00	85	31	101	1048576	56	5954
2026-01-05 23:16:21.87	24.74	42.18	-38.8	-39.5	25.3	0.00e+00	92	31	101	1048576	56	5823
2026-01-05 23:16:22.88	24.30	42.05	-38.7	-39.5	25.4	0.00e+00	0	31	101	1048576	56	5785
2026-01-05 23:16:23.89	23.87	41.91	-38.7	-39.5	25.4	0.00e+00	92	31	101	1048576	56	5776
2026-01-05 23:16:24.90	23.44	41.78	-38.8	-39.6	25.3	0.00e+00	0	31	101	1048576	56	5849
2026-01-05 23:16:25.91	23.01	41.64	-38.9	-39.7	25.3	0.00e+00	92	31	101	1048576	56	5915
2026-01-05 23:16:26.93	22.58	41.50	-38.8	-39.6	25.4	0.00e+00	0	31	101	1048576	56	5875
2026-01-05 23:16:27.94	22.16	41.35	-39.0	-39.8	25.3	0.00e+00	62	31	101	1048576	56	5997
2026-01-05 23:16:28.95	21.74	41.21	-38.7	-39.5	25.4	0.00e+00	1	31	101	1048576	56	5784
2026-01-05 23:16:29.96	21.33	41.07	-38.7	-39.5	25.3	0.00e+00	34	31	101	1048576	56	5806
2026-01-05 23:16:30.97	20.92	40.92	-38.5	-39.3	25.5	0.00e+00	92	31	101	1048576	56	5655
2026-01-05 23:16:31.98	20.52	40.78	-38.7	-39.4	25.5	0.00e+00	34	31	101	1048576	56	5729
2026-01-05 23:16:32.99	20.11	40.63	-38.8	-39.6	25.3	0.00e+00	92	31	101	1048576	56	5859
2026-01-05 23:16:34.00	19.71	40.48	-39.2	-40.0	25.1	0.00e+00	0	31	101	1048576	56	6120
2026-01-05 23:16:35.01	19.32	40.34	-39.3	-40.1	24.9	0.00e+00	83	31	101	1048576	56	6198
2026-01-05 23:16:36.03	18.92	40.18	-39.3	-40.1	25.0	0.00e+00	78	31	101	1048576	56	6214
2026-01-05 23:16:37.04	18.54	40.03	-39.2	-40.0	24.9	0.00e+00	53	31	101	1048576	56	6132
2026-01-05 23:16:38.05	18.15	39.88	-39.4	-40.2	24.9	0.00e+00	92	31	101	1048576	56	6257
2026-01-05 23:16:39.06	17.77	39.73	-39.4	-40.2	24.7	0.00e+00	0	31	101	1048576	56	6287
2026-01-05 23:16:40.07	17.40	39.58	-39.5	-40.3	24.8	0.00e+00	90	31	101	1048576	56	6344
2026-01-05 23:16:41.08	17.02	39.42	-39.6	-40.4	24.6	0.00e+00	0	31	101	1048576	56	6448
2026-01-05 23:16:42.09	16.65	39.27	-39.7	-40.6	24.5	0.00e+00	90	31	101	1048576	56	6553
2026-01-05 23:16:43.10	16.29	39.12	-39.7	-40.6	24.5	0.00e+00	0	31	101	1048576	56	6567
2026-01-05 23:16:44.11	15.93	38.96	-39.8	-40.6	24.4	0.00e+00	0	31	101	1048576	56	6607
2026-01-05 23:16:45.13	15.56	38.80	-39.9	-40.7	24.4	0.00e+00	92	31	101	1048576	56	6687
2026-01-05 23:16:46.14	15.21	38.65	-39.9	-40.7	24.4	0.00e+00	0	31	101	1048576	56	6686
2026-01-05 23:16:47.15	14.86	38.49	-39.9	-40.8	24.4	0.00e+00	92	31	101	1048576	56	6707
2026-01-05 23:16:48.16	14.51	38.33	-39.8	-40.6	24.5	0.00e+00	45	31	101	1048576	56	6613
2026-01-05 23:16:49.17	14.16	38.17	-39.9	-40.7	24.4	0.00e+00	92	31	101	1048576	56	6656
2026-01-05 23:16:50.18	13.82	38.01	-40.0	-40.8	24.3	0.00e+00	0	31	101	1048576	56	6735
2026-01-05 23:16:51.19	13.48	37.86	-40.2	-41.0	24.1	0.00e+00	2	31	101	1048576	56	6909
2026-01-05 23:16:52.21	13.14	37.69	-40.2	-41.1	24.0	0.00e+00	92	31	101	1048576	58	6212
2026-01-05 23:16:53.22	12.81	37.53	-40.3	-41.2	24.0	0.00e+00	0	32	101	1048576	58	6294
2026-01-05 23:16:54.23	12.48	37.37	-40.5	-41.4	23.7	0.00e+00	92	31	101	1048576	58	6437
2026-01-05 23:16:55.24	12.16	37.21	-40.7	-41.7	23.6	0.00e+00	48	31	101	1048576	58	6617
2026-01-05 23:16:56.25	11.83	37.05	-40.9	-41.8	23.3	0.00e+00	92	31	101	1048576	58	6758
2026-01-05 23:16:57.26	11.52	36.89	-41.0	-41.9	23.3	0.00e+00	0	31	101	1048576	60	6102
2026-01-05 23:16:58.27	11.20	36.73	-41.1	-42.1	23.2	0.00e+00	0	31	101	1048576	60	6204
2026-01-05 23:16:59.28	10.89	36.57	-41.3	-42.3	23.0	0.00e+00	0	31	101	1048576	60	6375
2026-01-05 23:17:00.29	10.58	36.41	-41.8	-42.8	22.6	0.00e+00	0	31	101	1048576	60	6755
2026-01-05 23:17:01.30	10.27	36.25	-41.8	-42.8	22.6	0.00e+00	92	31	101	1048576	60	6735
2026-01-05 23:17:02.31	9.97	36.09	-41.8	-42.8	22.6	0.00e+00	0	31	101	1048576	60	6718
2026-01-05 23:17:03.32	9.67	35.92	-41.9	-43.0	22.4	0.00e+00	34	31	101	1048576	60	6865
2026-01-05 23:17:04.33	9.37	35.76	-42.1	-43.2	22.1	0.00e+00	33	31	101	1048576	60	7073
2026-01-05 23:17:05.35	9.07	35.60	-42.4	-43.5	21.9	0.00e+00	33	31	101	1048576	60	7280
2026-01-05 23:17:06.35	8.78	35.44	-42.6	-43.7	21.7	0.00e+00	0	31	101	1048576	60	7459
2026-01-05 23:17:07.37	8.49	35.28	-42.5	-43.6	21.8	0.00e+00	0	31	101	1048576	60	7385
2026-01-05 23:17:08.38	8.21	35.11	-42.8	-44.0	21.6	0.00e+00	92	31	101	1048576	60	7701
2026-01-05 23:17:09.39	7.92	34.95	-43.0	-44.2	21.3	0.00e+00	48	31	101	1048576	60	7881
2026-01-05 23:17:10.40	7.64	34.79	-43.1	-44.4	21.1	0.00e+00	92	31	101	1048576	60	8058
2026-01-05 23:17:11.41	7.37	34.63	-43.6	-44.9	20.6	0.00e+00	48	31	101	1048576	60	8579
2026-01-05 23:17:12.42	7.09	34.47	-43.9	-45.3	20.2	0.00e+00	6	31	101	1048576	60	8933
2026-01-05 23:17:13.43	6.82	34.30	-44.1	-45.6	20.0	0.00e+00	6	31	101	1048576	60	9312
2026-01-05 23:17:14.44	6.55	34.14	-44.3	-45.9	19.7	0.00e+00	5	31	101	1048576	60	9578
2026-01-05 23:17:15.45	6.29	33.98	-44.3	-45.8	19.7	0.00e+00	92	32	101	1048576	60	9555
2026-01-05 23:17:16.46	6.02	33.82	-44.3	-45.8	19.8	0.00e+00	0	31	101	1048576	60	9483
2026-01-05 23:17:17.47	5.76	33.66	-44.3	-45.8	19.9	0.00e+00	92	31	101	1048576	60	9510
2026-01-05 23:17:18.49	5.50	33.50	-44.0	-45.5	20.1	0.00e+00	7	31	101	1048576	60	9159
2026-01-05 23:17:19.50	5.25	33.34	-44.1	-45.5	20.1	0.00e+00	54	31	101	1048576	60	9196
2026-01-05 23:17:20.51	4.99	33.18	-43.9	-45.3	20.1	0.00e+00	0	31	101	1048576	60	9019
2026-01-05 23:17:21.52	4.74	33.02	-43.8	-45.2	20.3	0.00e+00	6	31	101	1048576	60	8900
2026-01-05 23:17:22.53	4.49	32.86	-43.9	-45.4	20.1	0.00e+00	49	31	101	1048576	60	9048
2026-01-05 23:17:23.54	4.25	32.70	-43.9	-45.3	20.3	0.00e+00	32	31	101	1048576	60	8985
2026-01-05 23:17:24.55	4.00	32.54	-43.7	-45.0	20.5	0.00e+00	92	31	101	1048576	60	8677
2026-01-05 23:17:25.56	3.76	32.38	-43.8	-45.1	20.3	0.00e+00	31	31	101	1048576	60	8818
2026-01-05 23:17:26.57	3.52	32.22	-43.4	-44.8	20.5	0.00e+00	84	31	101	1048576	60	8425
2026-01-05 23:17:27.58	3.29	32.06	-43.4	-44.8	20.7	0.00e+00	31	31	101	1048576	60	8436
2026-01-05 23:17:28.60	3.05	31.90	-43.1	-44.4	21.1	0.00e+00	52	31	101	1048576	60	8086
2026-01-05 23:17:29.60	2.82	31.74	-43.0	-44.2	21.3	0.00e+00	17	31	101	1048576	60	7937
2026-01-05 23:17:30.62	2.59	31.58	-42.9	-44.1	21.3	0.00e+00	7	31	101	1048576	60	7788
2026-01-05 23:17:31.63	2.37	31.43	-42.5	-43.7	21.7	0.00e+00	92	31	101	1048576	60	7438
2026-01-05 23:17:32.64	2.14	31.27	-42.2	-43.3	22.1	0.00e+00	55	31	101	1048576	60	7137
2026-01-05 23:17:33.65	1.92	31.11	-42.3	-43.3	22.1	0.00e+00	92	31	101	1048576	60	7159
2026-01-05 23:17:34.66	1.70	30.95	-42.4	-43.5	21.9	0.00e+00	0	31	101	1048576	60	7302
2026-01-05 23:17:35.67	1.48	30.80	-42.6	-43.7	21.6	0.00e+00	0	31	101	1048576	60	7506
2026-01-05 23:17:36.68	1.26	30.64	-42.6	-43.8	21.7	0.00e+00	0	31	101	1048576	60	7515
2026-01-05 23:17:37.69	1.05	30.49	-42.8	-43.9	21.5	0.00e+00	6	31	101	1048576	60	7661
2026-01-05 23:17:38.70	0.84	30.33	-42.7	-43.9	21.6	0.00e+00	91	31	101	1048576	60	7632
2026-01-05 23:17:39.72	0.63	30.18	-42.7	-43.8	21.6	0.00e+00	0	31	101	1048576	60	7581
2026-01-05 23:17:40.73	0.42	30.02	-42.5	-43.7	21.7	0.00e+00	92	31	101	1048576	60	7453
2026-01-05 23:17:41.74	0.21	29.87	-42.5	-43.7	21.8	0.00e+00	0	31	101	1048576	60	7426
2026-01-05 23:17:42.75	0.01	29.72	-42.3	-43.4	22.0	0.00e+00	50	31	101	1048576	60	7201
2026-01-05 23:17:43.76	359.81	29.56	-42.4	-43.6	21.8	0.00e+00	49	31	101	1048576	60	7346
2026-01-05 23:17:44.77	359.61	29.41	-42.3	-43.4	22.0	0.00e+00	49	31	101	1048576	60	7185
2026-01-05 23:17:45.78	359.41	29.26	-42.5	-43.7	21.7	0.00e+00	88	31	101	1048576	60	7461
2026-01-05 23:17:46.79	359.21	29.11	-42.6	-43.8	21.7	0.00e+00	32	31	101	1048576	60	7539
2026-01-05 23:17:47.80	359.02	28.95	-42.5	-43.7	21.6	0.00e+00	91	31	101	1048576	60	7463
2026-01-05 23:17:48.81	358.83	28.80	-42.4	-43.6	21.8	0.00e+00	48	31	101	1048576	60	7359
2026-01-05 23:17:49.82	358.64	28.65	-42.4	-43.6	21.8	0.00e+00	42	31	101	1048576	60	7366
2026-01-05 23:17:50.83	358.45	28.50	-42.2	-43.3	22.1	0.00e+00	0	31	101	1048576	60	7119
2026-01-05 23:17:51.85	358.26	28.35	-42.0	-43.1	22.2	0.00e+00	50	31	101	1048576	60	6932
2026-01-05 23:17:52.86	358.07	28.20	-42.0	-43.1	22.3	0.00e+00	2	31	101	1048576	60	6957
2026-01-05 23:17:53.87	357.89	28.06	-42.0	-43.1	22.3	0.00e+00	0	31	101	1048576	60	6957
2026-01-05 23:17:54.88	357.71	27.91	-42.0	-43.1	22.1	0.00e+00	92	31	101	1048576	60	7003
2026-01-05 23:17:55.89	357.53	27.76	-42.3	-43.5	21.8	0.00e+00	0	31	101	1048576	60	7259
2026-01-05 23:17:56.90	357.35	27.61	-42.5	-43.7	21.7	0.00e+00	77	31	101	1048576	60	7476
2026-01-05 23:17:57.91	357.17	27.47	-42.6	-43.8	21.6	0.00e+00	0	31	101	1048576	60	7572
2026-01-05 23:17:58.92	357.00	27.32	-42.5	-43.6	21.7	0.00e+00	0	31	101	1048576	60	7416
2026-01-05 23:17:59.93	356.82	27.17	-42.3	-43.4	22.0	0.00e+00	0	31	101	1048576	60	7195
2026-01-05 23:18:00.94	356.65	27.03	-42.1	-43.2	22.1	0.00e+00	0	31	101	1048576	60	7064
2026-01-05 23:18:01.96	356.48	26.88	-41.9	-43.0	22.3	0.00e+00	92	31	101	1048576	60	6900
2026-01-05 23:18:02.97	356.31	26.74	-41.9	-43.0	22.3	0.00e+00	4	31	101	1048576	60	6889
2026-01-05 23:18:03.98	356.15	26.60	-41.9	-43.0	22.4	0.00e+00	92	31	101	1048576	60	6856
2026-01-05 23:18:04.99	355.98	26.45	-41.9	-42.9	22.4	0.00e+00	50	32	101	1048576	60	6833
2026-01-05 23:18:06.00	355.82	26.31	-41.9	-43.0	22.4	0.00e+00	50	31	101	1048576	60	6861
2026-01-05 23:18:07.01	355.65	26.17	-41.8	-42.9	22.4	0.00e+00	51	31	101	1048576	60	6842
2026-01-05 23:18:08.02	355.49	26.03	-41.8	-42.9	22.4	0.00e+00	2	31	101	1048576	60	6821
2026-01-05 23:18:09.03	355.33	25.88	-41.8	-42.9	22.4	0.00e+00	91	31	101	1048576	60	6813
2026-01-05 23:18:10.04	355.17	25.74	-41.6	-42.7	22.5	0.00e+00	50	31	101	1048576	60	6670
2026-01-05 23:18:11.05	355.02	25.60	-41.7	-42.7	22.5	0.00e+00	92	31	101	1048576	60	6684
2026-01-05 23:18:12.07	354.86	25.46	-41.7	-42.8	22.5	0.00e+00	0	32	101	1048576	60	6743
2026-01-05 23:18:13.08	354.71	25.32	-41.9	-43.0	22.3	0.00e+00	49	31	101	1048576	60	6871
2026-01-05 23:18:14.09	354.55	25.18	-41.9	-43.0	22.3	0.00e+00	0	31	101	1048576	60	6876
2026-01-05 23:18:15.10	354.40	25.05	-42.0	-43.2	22.2	0.00e+00	0	31	101	1048576	60	7027
2026-01-05 23:18:16.11	354.25	24.91	-42.0	-43.1	22.1	0.00e+00	55	31	101	1048576	60	6994
2026-01-05 23:18:17.12	354.10	24.77	-41.7	-42.8	22.4	0.00e+00	32	31	101	1048576	60	6750
2026-01-05 23:18:18.13	353.96	24.63	-41.7	-42.8	22.5	0.00e+00	90	31	101	1048576	60	6696
2026-01-05 23:18:19.14	353.81	24.50	-41.7	-42.8	22.4	0.00e+00	2	31	101	1048576	60	6716
2026-01-05 23:18:20.15	353.67	24.36	-41.5	-42.5	22.8	0.00e+00	73	31	101	1048576	60	6491
2026-01-05 23:18:21.17	353.52	24.23	-41.3	-42.3	22.9	0.00e+00	32	31	101	1048576	60	6384
2026-01-05 23:18:22.18	353.38	24.09	-41.3	-42.3	22.9	0.00e+00	33	31	101	1048576	60	6384
2026-01-05 23:18:23.19	353.24	23.96	-41.4	-42.4	22.8	0.00e+00	23	31	101	1048576	60	6425
2026-01-05 23:18:24.20	353.10	23.82	-41.2	-42.2	23.0	0.00e+00	32	31	101	1048576	60	6251
2026-01-05 23:18:25.21	352.96	23.69	-41.3	-42.3	22.8	0.00e+00	90	31	101	1048576	60	6347
2026-01-05 23:18:26.22	352.82	23.56	-41.0	-41.9	23.2	0.00e+00	0	31	101	1048576	60	6100
2026-01-05 23:18:27.23	352.69	23.43	-41.1	-42.1	23.0	0.00e+00	78	31	101	1048576	60	6220
2026-01-05 23:18:28.24	352.55	23.29	-41.2	-42.2	23.0	0.00e+00	50	31	101	1048576	60	6272
2026-01-05 23:18:29.25	352.42	23.16	-41.1	-42.1	23.1	0.00e+00	49	31	101	1048576	60	6210
2026-01-05 23:18:30.26	352.29	23.03	-41.2	-42.2	23.0	0.00e+00	0	31	101	1048576	60	6269
2026-01-05 23:18:31.28	352.16	22.90	-41.2	-42.2	23.0	0.00e+00	0	31	101	1048576	60	6315
2026-01-05 23:18:32.29	352.02	22.77	-41.2	-42.2	22.9	0.00e+00	90	31	101	1048576	60	6254
2026-01-05 23:18:33.30	351.90	22.64	-41.2	-42.2	23.0	0.00e+00	0	31	101	1048576	60	6307
2026-01-05 23:18:34.31	351.77	22.51	-41.2	-42.2	23.0	0.00e+00	92	31	101	1048576	60	6268
2026-01-05 23:18:35.32	351.64	22.38	-41.1	-42.1	23.0	0.00e+00	0	31	101	1048576	60	6207
2026-01-05 23:18:36.33	351.51	22.26	-41.2	-42.2	22.9	0.00e+00	29	31	101	1048576	60	6311
2026-01-05 23:18:37.34	351.39	22.13	-41.2	-42.1	23.0	0.00e+00	0	31	101	1048576	60	6237
2026-01-05 23:18:38.35	351.27	22.00	-41.1	-42.1	23.0	0.00e+00	0	31	101	1048576	60	6218
2026-01-05 23:18:39.36	351.14	21.88	-41.2	-42.2	23.0	0.00e+00	90	31	101	1048576	60	6286
2026-01-05 23:18:40.37	351.02	21.75	-41.3	-42.3	22.9	0.00e+00	52	31	101	1048576	60	6351
2026-01-05 23:18:41.38	350.90	21.63	-41.4	-42.4	22.8	0.00e+00	92	31	101	1048576	60	6400
2026-01-05 23:18:42.39	350.78	21.50	-41.2	-42.1	22.9	0.00e+00	0	31	101	1048576	60	6242
2026-01-05 23:18:43.40	350.66	21.38	-41.2	-42.2	23.0	0.00e+00	0	31	101	1048576	60	6264
2026-01-05 23:18:44.42	350.54	21.25	-41.4	-42.4	22.8	0.00e+00	51	31	101	1048576	60	6404
2026-01-05 23:18:45.43	350.43	21.13	-41.3	-42.3	23.0	0.00e+00	51	31	101	1048576	60	6377
2026-01-05 23:18:46.44	350.31	21.00	-41.3	-42.3	23.0	0.00e+00	67	31	101	1048576	60	6373
2026-01-05 23:18:47.45	350.20	20.88	-41.3	-42.3	23.0	0.00e+00	6	31	101	1048576	60	6352
2026-01-05 23:18:48.46	350.08	20.76	-41.4	-42.4	22.9	0.00e+00	92	31	101	1048576	60	6403
2026-01-05 23:18:49.47	349.97	20.64	-41.3	-42.3	23.0	0.00e+00	0	31	101	1048576	60	6349
2026-01-05 23:18:50.48	349.86	20.52	-41.3	-42.3	22.9	0.00e+00	0	31	101	1048576	60	6367
2026-01-05 23:18:51.49	349.75	20.40	-41.4	-42.4	22.9	0.00e+00	0	31	101	1048576	60	6407
2026-01-05 23:18:52.51	349.64	20.28	-41.3	-42.3	22.9	0.00e+00	29	31	101	1048576	60	6349
2026-01-05 23:18:53.52	349.53	20.16	-41.4	-42.4	22.8	0.00e+00	0	31	101	1048576	60	6412
2026-01-05 23:18:54.53	349.42	20.04	-41.3	-42.4	22.8	0.00e+00	0	31	101	1048576	60	6400
2026-01-05 23:18:55.54	349.31	19.92	-41.3	-42.3	22.9	0.00e+00	92	31	101	1048576	60	6387
2026-01-05 23:18:56.55	349.20	19.80	-41.5	-42.5	22.7	0.00e+00	0	31	101	1048576	60	6495
2026-01-05 23:18:57.56	349.10	19.68	-41.6	-42.6	22.6	0.00e+00	92	32	101	1048576	60	6583
2026-01-05 23:18:58.57	348.99	19.56	-41.5	-42.6	22.7	0.00e+00	58	31	101	1048576	60	6559
2026-01-05 23:18:59.58	348.89	19.45	-41.3	-42.3	22.9	0.00e+00	29	31	101	1048576	60	6373
2026-01-05 23:19:00.59	348.78	19.33	-41.4	-42.4	22.8	0.00e+00	29	31	101	1048576	60	6424
2026-01-05 23:19:01.60	348.68	19.22	-41.2	-42.2	22.9	0.00e+00	57	31	101	1048576	60	6317
2026-01-05 23:19:02.62	348.58	19.10	-41.4	-42.4	22.7	0.00e+00	92	31	101	1048576	60	6449
2026-01-05 23:19:03.63	348.48	18.98	-41.6	-42.6	22.6	0.00e+00	7	31	101	1048576	60	6574
2026-01-05 23:19:04.64	348.38	18.87	-41.3	-42.4	22.8	0.00e+00	90	31	101	1048576	60	6399
2026-01-05 23:19:05.65	348.28	18.75	-41.3	-42.3	22.8	0.00e+00	0	31	101	1048576	60	6367
2026-01-05 23:19:06.66	348.18	18.64	-41.4	-42.4	22.7	0.00e+00	0	31	101	1048576	60	6457
2026-01-05 23:19:07.67	348.08	18.53	-41.4	-42.4	22.8	0.00e+00	0	31	101	1048576	60	6421
2026-01-05 23:19:08.68	347.98	18.41	-41.4	-42.5	22.7	0.00e+00	7	31	101	1048576	60	6504
2026-01-05 23:19:09.69	347.89	18.30	-41.8	-42.9	22.4	0.00e+00	0	31	101	1048576	60	6784
2026-01-05 23:19:10.70	347.79	18.19	-41.6	-42.7	22.5	0.00e+00	23	31	101	1048576	60	6645
2026-01-05 23:19:11.71	347.70	18.08	-41.7	-42.8	22.3	0.00e+00	92	31	101	1048576	60	6752
2026-01-05 23:19:12.73	347.60	17.97	-41.8	-42.8	22.3	0.00e+00	24	31	101	1048576	60	6769
2026-01-05 23:19:13.74	347.51	17.85	-41.7	-42.8	22.4	0.00e+00	29	31	101	1048576	60	6722
2026-01-05 23:19:14.75	347.42	17.74	-41.9	-43.1	22.1	0.00e+00	29	31	101	1048576	60	6930
2026-01-05 23:19:15.76	347.32	17.63	-41.9	-43.0	22.1	0.00e+00	29	31	101	1048576	60	6893
2026-01-05 23:19:16.77	347.23	17.52	-42.0	-43.1	22.1	0.00e+00	0	31	101	1048576	60	6991
2026-01-05 23:19:17.78	347.14	17.42	-42.0	-43.2	22.0	0.00e+00	30	31	101	1048576	60	7020
2026-01-05 23:19:18.79	347.05	17.31	-42.0	-43.1	22.0	0.00e+00	92	31	101	1048576	60	6980
2026-01-05 23:19:19.80	346.96	17.20	-42.2	-43.3	21.9	0.00e+00	53	31	101	1048576	60	7123
2026-01-05 23:19:20.81	346.87	17.09	-41.9	-43.0	22.2	0.00e+00	92	31	101	1048576	60	6902
2026-01-05 23:19:21.82	346.79	16.98	-42.0	-43.1	22.0	0.00e+00	2	31	101	1048576	60	6963
2026-01-05 23:19:22.83	346.70	16.88	-41.9	-43.0	22.3	0.00e+00	2	31	101	1048576	60	6858
2026-01-05 23:19:23.84	346.61	16.77	-41.8	-42.9	22.2	0.00e+00	54	31	101	1048576	60	6811
2026-01-05 23:19:24.85	346.52	16.66	-41.8	-42.9	22.2	0.00e+00	52	31	101	1048576	60	6837
2026-01-05 23:19:25.86	346.44	16.56	-42.0	-43.1	22.0	0.00e+00	92	31	101	1048576	60	6987
2026-01-05 23:19:26.87	346.35	16.45	-41.7	-42.8	22.4	0.00e+00	0	31	101	1048576	60	6721
2026-01-05 23:19:27.89	346.27	16.34	-41.7	-42.8	22.3	0.00e+00	92	31	101	1048576	60	6767
2026-01-05 23:19:28.90	346.19	16.24	-41.7	-42.7	22.5	0.00e+00	0	31	101	1048576	60	6689
2026-01-05 23:19:29.91	346.10	16.13	-41.6	-42.6	22.5	0.00e+00	29	31	101	1048576	60	6599
2026-01-05 23:19:30.92	346.02	16.03	-41.5	-42.6	22.5	0.00e+00	0	31	101	1048576	60	6574
