passes_logs/2026/01/05/R4.6S_Anadyr_2ch/R4.6S_Anadyr_2ch__20260105_193102_SUOMI_NPP_rec.log

#Pass ID: 20260105_193102_SUOMI NPP
#Satellite: SUOMI NPP
#Configuration: NPP
#almurnet v.1.7.20251203
#Start time: 2026-01-05 19:31:02

#Version: 2.2.20231116
#Station: R4.6S_Anadyr_2ch
#Location: 177.4865 lon 64.73178 lat
#TLE: 1 37849U 11061A   25350.92281687  .00000071  00000+0  54882-4 0  9996
#TLE: 2 37849  98.7777 288.2268 0002366 112.8570 247.2856 14.19515404732588

#Time	Az	El	Level	Level2	SNR	BER	BlckErr	Temp	State	Recorded	gain1	gain2
2026-01-05 19:31:02.75	53.43	0.03	-50.8	-61.6	3.5	8.45e-01	0	29	0	0	60	59534
2026-01-05 19:31:03.76	53.36	0.08	-51.2	-66.4	3.6	1.51e+00	0	30	104	0	60	102159
2026-01-05 19:31:04.77	53.28	0.13	-51.2	-66.4	3.6	1.51e+00	0	30	104	0	60	102419
2026-01-05 19:31:05.78	53.20	0.18	-51.2	-66.5	3.6	1.51e+00	0	30	104	0	60	102651
2026-01-05 19:31:06.79	53.13	0.23	-51.2	-66.5	3.6	1.51e+00	0	30	104	0	60	103036
2026-01-05 19:31:07.81	53.05	0.28	-51.3	-66.5	3.6	1.51e+00	0	30	104	0	60	103433
2026-01-05 19:31:08.81	52.97	0.32	-51.3	-66.5	3.6	1.51e+00	0	30	104	0	60	103548
2026-01-05 19:31:09.82	52.90	0.37	-51.3	-66.6	3.6	1.51e+00	0	30	104	0	60	103916
2026-01-05 19:31:10.84	52.82	0.42	-51.3	-66.6	3.6	1.51e+00	0	30	104	0	60	103820
2026-01-05 19:31:11.85	52.74	0.47	-51.3	-66.6	3.6	1.51e+00	0	30	104	0	60	103789
2026-01-05 19:31:12.86	52.66	0.52	-51.3	-66.5	3.6	1.51e+00	0	30	104	0	60	103507
2026-01-05 19:31:13.87	52.58	0.57	-51.2	-66.5	3.6	1.51e+00	0	30	104	0	60	103307
2026-01-05 19:31:14.88	52.50	0.62	-51.2	-66.5	3.6	1.51e+00	0	30	104	0	60	103062
2026-01-05 19:31:15.89	52.42	0.67	-51.1	-66.4	3.6	1.51e+00	0	30	104	0	60	102067
2026-01-05 19:31:16.90	52.34	0.72	-51.0	-66.3	3.6	1.51e+00	0	30	104	0	60	101063
2026-01-05 19:31:17.91	52.26	0.77	-50.9	-66.2	3.6	1.51e+00	0	30	104	0	60	99000
2026-01-05 19:31:18.92	52.18	0.82	-50.7	-66.0	3.6	1.51e+00	0	30	104	0	60	96995
2026-01-05 19:31:19.93	52.10	0.87	-50.3	-65.6	3.6	1.51e+00	0	30	104	0	60	93100
2026-01-05 19:31:20.95	52.02	0.92	-49.7	-65.0	3.6	1.51e+00	0	30	104	0	60	86530
2026-01-05 19:31:21.96	51.94	0.97	-49.7	-64.9	3.6	1.51e+00	0	30	104	0	60	86084
2026-01-05 19:31:22.97	51.86	1.01	-49.7	-65.0	3.6	1.51e+00	0	31	104	0	60	86364
2026-01-05 19:31:23.98	51.78	1.06	-49.7	-64.9	3.6	1.51e+00	0	31	104	0	60	85964
2026-01-05 19:31:24.99	51.70	1.11	-49.7	-64.9	3.6	1.51e+00	0	31	104	0	60	86106
2026-01-05 19:31:26.00	51.61	1.16	-49.7	-65.0	3.6	1.51e+00	0	31	104	0	60	86500
2026-01-05 19:31:27.01	51.53	1.21	-49.7	-65.0	3.6	1.51e+00	0	31	104	0	60	86212
2026-01-05 19:31:28.02	51.45	1.26	-49.7	-65.0	3.6	1.51e+00	0	30	104	0	60	86516
2026-01-05 19:31:29.03	51.37	1.31	-49.7	-64.9	3.6	1.51e+00	0	31	104	0	60	85808
2026-01-05 19:31:30.04	51.28	1.36	-49.7	-64.9	3.6	1.51e+00	0	31	104	0	60	86159
2026-01-05 19:31:31.05	51.20	1.41	-49.7	-64.9	3.6	1.51e+00	0	31	104	0	60	85958
2026-01-05 19:31:32.06	51.12	1.46	-49.7	-65.0	3.6	1.51e+00	0	31	104	0	60	86299
2026-01-05 19:31:33.07	51.03	1.51	-49.7	-64.9	3.6	1.51e+00	0	31	104	0	60	86006
2026-01-05 19:31:34.08	50.95	1.56	-49.7	-65.0	3.6	1.51e+00	0	31	104	0	60	86566
2026-01-05 19:31:35.10	50.86	1.61	-49.7	-65.0	3.6	1.51e+00	0	30	104	0	60	86369
2026-01-05 19:31:36.11	50.78	1.66	-49.7	-64.9	3.6	1.51e+00	0	31	104	0	60	85398
2026-01-05 19:31:37.12	50.69	1.71	-49.7	-64.9	3.6	1.51e+00	0	31	104	0	60	85889
2026-01-05 19:31:38.13	50.61	1.76	-49.7	-64.9	3.6	1.51e+00	0	31	104	0	60	86109
2026-01-05 19:31:39.14	50.52	1.81	-49.7	-64.9	3.6	1.51e+00	0	31	104	0	60	86200
2026-01-05 19:31:40.15	50.43	1.86	-49.7	-65.0	3.6	1.51e+00	0	31	104	0	60	86271
2026-01-05 19:31:41.16	50.35	1.91	-49.7	-64.9	3.6	1.51e+00	0	31	104	0	60	86137
2026-01-05 19:31:42.17	50.26	1.96	-49.7	-64.9	3.6	1.51e+00	0	31	104	0	60	85937
2026-01-05 19:31:43.18	50.17	2.01	-49.7	-64.9	3.6	1.51e+00	0	31	104	0	60	85231
2026-01-05 19:31:44.19	50.09	2.06	-49.7	-64.7	3.6	1.51e+00	0	31	104	0	60	83906
2026-01-05 19:31:45.20	50.00	2.11	-49.7	-64.7	3.6	1.51e+00	0	31	104	0	60	83630
2026-01-05 19:31:46.21	49.91	2.16	-49.7	-64.7	3.6	1.51e+00	0	31	104	0	60	83758
2026-01-05 19:31:47.22	49.82	2.21	-49.7	-64.6	3.6	1.51e+00	0	31	104	0	60	82941
2026-01-05 19:31:48.24	49.73	2.26	-49.7	-64.7	3.6	1.51e+00	0	31	104	0	60	83396
2026-01-05 19:31:49.25	49.64	2.31	-49.7	-64.9	3.6	1.51e+00	0	31	104	0	60	85883
2026-01-05 19:31:50.26	49.55	2.36	-49.7	-64.9	3.6	1.51e+00	0	31	104	0	60	86186
2026-01-05 19:31:51.27	49.46	2.41	-49.7	-64.8	3.6	1.51e+00	0	31	104	0	60	85119
2026-01-05 19:31:52.28	49.37	2.46	-49.7	-64.8	3.6	1.51e+00	0	31	104	0	60	84582
2026-01-05 19:31:53.29	49.28	2.51	-49.7	-64.8	3.6	1.51e+00	0	31	104	0	60	84788
2026-01-05 19:31:54.30	49.19	2.56	-49.7	-64.9	3.6	1.51e+00	0	31	104	0	60	85726
2026-01-05 19:31:55.31	49.10	2.61	-49.7	-64.8	3.6	1.51e+00	0	31	104	0	60	84439
2026-01-05 19:31:56.32	49.01	2.66	-49.6	-64.2	3.6	1.51e+00	0	31	104	0	60	78704
2026-01-05 19:31:57.33	48.92	2.71	-49.6	-63.7	3.6	1.51e+00	0	31	104	0	60	75066
2026-01-05 19:31:58.34	48.83	2.76	-49.6	-64.0	3.6	1.51e+00	0	31	104	0	60	77201
2026-01-05 19:31:59.35	48.74	2.81	-49.7	-64.6	3.6	1.51e+00	0	31	104	0	60	83001
2026-01-05 19:32:00.36	48.64	2.87	-49.6	-64.1	3.6	1.51e+00	0	31	104	0	60	78525
2026-01-05 19:32:01.38	48.55	2.92	-49.5	-61.0	4.2	1.50e+00	34	31	104	0	60	55012
2026-01-05 19:32:02.38	48.46	2.97	-49.2	-57.4	5.7	8.92e-01	0	31	0	0	60	36299
2026-01-05 19:32:03.39	48.36	3.02	-48.7	-54.8	8.8	1.28e-01	0	31	102	1048576	60	26732
2026-01-05 19:32:04.41	48.27	3.07	-49.9	-64.3	3.5	1.51e+00	0	31	104	1048576	60	80095
2026-01-05 19:32:05.42	48.17	3.12	-46.8	-50.1	13.0	8.84e-01	0	31	104	1048576	60	15599
2026-01-05 19:32:06.43	48.08	3.17	-49.6	-64.6	3.6	1.51e+00	0	31	104	1048576	60	83110
2026-01-05 19:32:07.44	47.98	3.22	-48.9	-56.0	5.2	1.51e+00	0	31	104	1048576	60	30933
2026-01-05 19:32:08.45	47.89	3.27	-46.8	-50.1	13.9	2.08e-01	0	31	0	1048576	60	15626
2026-01-05 19:32:09.46	47.79	3.32	-46.5	-49.5	14.5	0.00e+00	0	31	0	1048576	60	14637
2026-01-05 19:32:10.47	47.70	3.37	-46.3	-49.1	14.9	0.00e+00	0	31	0	1048576	60	13969
2026-01-05 19:32:11.48	47.60	3.42	-45.3	-47.5	16.7	0.00e+00	0	31	0	1048576	60	11620
2026-01-05 19:32:12.49	47.51	3.47	-44.9	-47.1	17.1	0.00e+00	0	31	0	1048576	60	10987
2026-01-05 19:32:13.50	47.41	3.52	-44.8	-46.9	17.3	0.00e+00	0	31	0	1048576	60	10765
2026-01-05 19:32:14.51	47.31	3.57	-44.8	-46.8	17.2	0.00e+00	0	31	0	1048576	60	10693
2026-01-05 19:32:15.53	47.21	3.63	-44.7	-46.7	17.4	0.00e+00	0	31	0	1048576	60	10559
2026-01-05 19:32:16.54	47.11	3.68	-44.7	-46.7	17.5	0.00e+00	0	31	0	1048576	60	10486
2026-01-05 19:32:17.55	47.02	3.73	-44.9	-46.9	17.3	0.00e+00	0	31	0	1048576	60	10848
2026-01-05 19:32:18.56	46.92	3.78	-44.7	-46.7	17.5	0.00e+00	0	31	0	1048576	60	10485
2026-01-05 19:32:19.57	46.82	3.83	-44.8	-46.9	17.2	0.00e+00	0	31	0	1048576	60	10792
2026-01-05 19:32:20.58	46.72	3.88	-44.8	-46.8	17.3	0.00e+00	0	31	0	1048576	60	10727
2026-01-05 19:32:21.59	46.62	3.93	-44.5	-46.5	17.9	0.00e+00	0	31	0	1048576	60	10273
2026-01-05 19:32:22.60	46.52	3.98	-44.6	-46.6	17.7	0.00e+00	0	31	0	1048576	60	10389
2026-01-05 19:32:23.61	46.42	4.03	-44.7	-46.7	17.6	0.00e+00	0	31	0	1048576	60	10554
2026-01-05 19:32:24.62	46.32	4.08	-44.8	-46.8	17.5	0.00e+00	0	31	0	1048576	60	10666
2026-01-05 19:32:25.63	46.22	4.13	-44.6	-46.6	17.7	0.00e+00	0	31	0	1048576	60	10379
2026-01-05 19:32:26.65	46.11	4.18	-44.6	-46.5	17.8	0.00e+00	0	31	101	1048576	60	10349
2026-01-05 19:32:27.66	46.01	4.24	-44.5	-46.5	17.9	0.00e+00	0	31	101	1048576	60	10269
2026-01-05 19:32:28.67	45.91	4.29	-44.6	-46.6	17.7	0.00e+00	0	31	101	1048576	60	10374
2026-01-05 19:32:29.68	45.81	4.34	-44.8	-46.8	17.5	0.00e+00	0	31	101	1048576	60	10703
2026-01-05 19:32:30.69	45.70	4.39	-44.8	-46.8	17.7	0.00e+00	0	31	101	1048576	60	10618
2026-01-05 19:32:31.70	45.60	4.44	-44.4	-46.2	18.1	0.00e+00	0	31	101	1048576	60	10003
2026-01-05 19:32:32.71	45.50	4.49	-44.9	-46.9	17.6	0.00e+00	0	31	101	1048576	60	10789
2026-01-05 19:32:33.72	45.39	4.54	-44.7	-46.6	17.7	0.00e+00	0	31	101	1048576	60	10455
2026-01-05 19:32:34.73	45.29	4.59	-44.4	-46.3	18.1	0.00e+00	0	31	101	1048576	60	10082
2026-01-05 19:32:35.74	45.18	4.64	-44.2	-46.0	18.3	0.00e+00	0	31	101	1048576	60	9754
2026-01-05 19:32:36.75	45.08	4.69	-44.3	-46.1	18.3	0.00e+00	0	31	101	1048576	60	9855
2026-01-05 19:32:37.77	44.97	4.75	-44.3	-46.1	18.3	0.00e+00	0	31	101	1048576	60	9812
2026-01-05 19:32:38.78	44.87	4.80	-44.4	-46.2	18.2	0.00e+00	0	31	101	1048576	60	9951
2026-01-05 19:32:39.79	44.76	4.85	-44.3	-46.2	18.2	0.00e+00	0	31	101	1048576	60	9903
2026-01-05 19:32:40.80	44.65	4.90	-44.5	-46.4	17.9	0.00e+00	0	31	101	1048576	60	10172
2026-01-05 19:32:41.81	44.55	4.95	-44.4	-46.2	18.2	0.00e+00	0	31	101	1048576	60	9942
2026-01-05 19:32:42.82	44.44	5.00	-44.4	-46.3	18.1	0.00e+00	0	31	101	1048576	60	10074
2026-01-05 19:32:43.83	44.33	5.05	-44.3	-46.1	18.1	0.00e+00	0	31	101	1048576	60	9894
2026-01-05 19:32:44.84	44.22	5.10	-44.4	-46.2	18.2	0.00e+00	0	31	101	1048576	60	9995
2026-01-05 19:32:45.85	44.11	5.15	-44.4	-46.3	18.1	0.00e+00	0	31	101	1048576	60	10050
2026-01-05 19:32:46.86	44.00	5.20	-44.6	-46.5	18.0	0.00e+00	0	31	101	1048576	60	10269
2026-01-05 19:32:47.87	43.90	5.26	-44.5	-46.4	18.0	0.00e+00	0	31	101	1048576	60	10196
2026-01-05 19:32:48.88	43.79	5.31	-44.4	-46.3	18.2	0.00e+00	0	31	101	1048576	60	10021
2026-01-05 19:32:49.90	43.67	5.36	-44.4	-46.2	18.2	0.00e+00	0	31	101	1048576	60	9930
2026-01-05 19:32:50.91	43.56	5.41	-44.5	-46.3	18.1	0.00e+00	0	31	101	1048576	60	10109
2026-01-05 19:32:51.92	43.45	5.46	-44.2	-46.0	18.4	0.00e+00	0	31	101	1048576	60	9739
2026-01-05 19:32:52.93	43.34	5.51	-44.2	-46.0	18.3	0.00e+00	0	31	101	1048576	60	9706
2026-01-05 19:32:53.94	43.23	5.56	-44.1	-45.9	18.6	0.00e+00	0	31	101	1048576	60	9580
2026-01-05 19:32:54.95	43.12	5.61	-43.5	-45.0	19.4	0.00e+00	0	31	101	1048576	60	8709
2026-01-05 19:32:55.96	43.00	5.66	-43.5	-45.1	19.2	0.00e+00	0	31	101	1048576	60	8775
2026-01-05 19:32:56.97	42.89	5.71	-43.3	-44.7	19.7	0.00e+00	0	31	101	1048576	60	8421
2026-01-05 19:32:57.98	42.78	5.77	-43.1	-44.5	19.7	0.00e+00	0	31	101	1048576	60	8228
2026-01-05 19:32:59.00	42.66	5.82	-43.2	-44.6	19.8	0.00e+00	0	31	101	1048576	60	8282
2026-01-05 19:33:00.01	42.55	5.87	-43.2	-44.7	19.7	0.00e+00	0	31	101	1048576	60	8380
2026-01-05 19:33:01.02	42.43	5.92	-43.3	-44.8	19.7	0.00e+00	0	31	101	1048576	60	8448
2026-01-05 19:33:02.03	42.32	5.97	-43.3	-44.7	19.7	0.00e+00	0	31	101	1048576	60	8391
2026-01-05 19:33:03.04	42.20	6.02	-43.2	-44.7	19.7	0.00e+00	0	31	101	1048576	60	8356
2026-01-05 19:33:04.05	42.09	6.07	-43.0	-44.4	20.0	0.00e+00	0	31	101	1048576	60	8136
2026-01-05 19:33:05.06	41.97	6.12	-43.0	-44.5	19.9	0.00e+00	0	31	101	1048576	60	8139
2026-01-05 19:33:06.07	41.85	6.17	-43.0	-44.4	20.1	0.00e+00	0	31	101	1048576	60	8057
2026-01-05 19:33:07.09	41.73	6.22	-42.9	-44.3	20.1	0.00e+00	0	31	101	1048576	60	8007
2026-01-05 19:33:08.10	41.62	6.28	-43.0	-44.4	20.0	0.00e+00	0	31	101	1048576	60	8059
2026-01-05 19:33:09.11	41.50	6.33	-43.1	-44.5	19.8	0.00e+00	0	31	101	1048576	60	8226
2026-01-05 19:33:10.12	41.38	6.38	-43.0	-44.5	19.6	0.00e+00	0	31	101	1048576	60	8144
2026-01-05 19:33:11.13	41.26	6.43	-43.0	-44.5	19.7	0.00e+00	0	31	101	1048576	60	8144
2026-01-05 19:33:12.14	41.14	6.48	-43.1	-44.5	20.0	0.00e+00	0	31	101	1048576	60	8213
2026-01-05 19:33:13.15	41.02	6.53	-43.1	-44.5	20.0	0.00e+00	0	31	101	1048576	60	8180
2026-01-05 19:33:14.16	40.90	6.58	-42.9	-44.3	20.3	0.00e+00	0	31	101	1048576	60	7967
2026-01-05 19:33:15.18	40.78	6.63	-42.9	-44.3	20.2	0.00e+00	0	31	101	1048576	60	7996
2026-01-05 19:33:16.18	40.66	6.68	-43.1	-44.5	19.9	0.00e+00	0	31	101	1048576	60	8226
2026-01-05 19:33:17.20	40.54	6.73	-43.1	-44.5	19.9	0.00e+00	0	31	101	1048576	60	8162
2026-01-05 19:33:18.21	40.42	6.78	-43.3	-44.7	19.8	0.00e+00	0	31	101	1048576	60	8419
2026-01-05 19:33:19.22	40.29	6.83	-43.4	-44.9	19.6	0.00e+00	0	31	101	1048576	60	8549
2026-01-05 19:33:20.23	40.17	6.88	-43.2	-44.6	19.9	0.00e+00	0	31	101	1048576	60	8269
2026-01-05 19:33:21.24	40.05	6.94	-43.3	-44.8	19.8	0.00e+00	0	31	101	1048576	60	8432
2026-01-05 19:33:22.25	39.92	6.99	-43.1	-44.5	20.0	0.00e+00	0	31	101	1048576	60	8164
2026-01-05 19:33:23.26	39.80	7.04	-43.2	-44.7	19.9	0.00e+00	0	31	101	1048576	60	8349
2026-01-05 19:33:24.27	39.68	7.09	-43.3	-44.8	19.7	0.00e+00	0	31	101	1048576	60	8440
2026-01-05 19:33:25.29	39.55	7.14	-43.3	-44.8	19.7	0.00e+00	0	31	101	1048576	60	8454
2026-01-05 19:33:26.30	39.42	7.19	-43.5	-44.9	19.6	0.00e+00	0	31	101	1048576	60	8609
2026-01-05 19:33:27.31	39.30	7.24	-43.6	-45.1	19.5	0.00e+00	0	31	101	1048576	60	8746
2026-01-05 19:33:28.32	39.17	7.29	-43.7	-45.2	19.4	0.00e+00	0	31	101	1048576	60	8891
2026-01-05 19:33:29.33	39.04	7.34	-43.7	-45.2	19.4	0.00e+00	0	31	101	1048576	60	8909
2026-01-05 19:33:30.34	38.92	7.39	-43.7	-45.2	19.4	0.00e+00	0	31	101	1048576	60	8898
2026-01-05 19:33:31.35	38.79	7.44	-43.4	-44.8	19.7	0.00e+00	0	31	101	1048576	60	8522
2026-01-05 19:33:32.36	38.66	7.49	-43.3	-44.7	19.8	0.00e+00	0	31	101	1048576	60	8411
2026-01-05 19:33:33.37	38.53	7.54	-43.3	-44.7	19.9	0.00e+00	0	31	101	1048576	60	8375
2026-01-05 19:33:34.39	38.40	7.59	-43.2	-44.6	20.0	0.00e+00	0	31	101	1048576	60	8249
2026-01-05 19:33:35.40	38.27	7.64	-43.2	-44.6	20.0	0.00e+00	0	31	101	1048576	60	8261
2026-01-05 19:33:36.41	38.14	7.69	-43.1	-44.5	20.1	0.00e+00	0	31	101	1048576	60	8188
2026-01-05 19:33:37.42	38.01	7.74	-43.1	-44.5	20.1	0.00e+00	0	31	101	1048576	60	8188
2026-01-05 19:33:38.43	37.88	7.79	-43.1	-44.5	20.2	0.00e+00	0	31	101	1048576	60	8168
2026-01-05 19:33:39.44	37.75	7.84	-42.9	-44.3	20.3	0.00e+00	0	31	101	1048576	60	7994
2026-01-05 19:33:40.45	37.62	7.89	-42.9	-44.3	20.3	0.00e+00	0	31	101	1048576	60	7961
2026-01-05 19:33:41.46	37.49	7.94	-42.8	-44.2	20.4	0.00e+00	0	31	101	1048576	60	7895
2026-01-05 19:33:42.47	37.35	7.99	-42.7	-44.0	20.5	0.00e+00	0	31	101	1048576	60	7771
2026-01-05 19:33:43.49	37.22	8.04	-42.6	-43.9	20.7	0.00e+00	0	31	101	1048576	60	7616
2026-01-05 19:33:44.50	37.09	8.09	-42.8	-44.1	20.5	0.00e+00	0	31	101	1048576	60	7807
2026-01-05 19:33:45.51	36.95	8.14	-42.8	-44.1	20.5	0.00e+00	0	31	101	1048576	60	7800
2026-01-05 19:33:46.52	36.82	8.19	-42.9	-44.3	20.3	0.00e+00	0	31	101	1048576	60	7990
2026-01-05 19:33:47.53	36.68	8.24	-42.9	-44.3	20.2	0.00e+00	0	31	101	1048576	60	8011
2026-01-05 19:33:48.54	36.55	8.29	-43.1	-44.5	20.0	0.00e+00	0	31	101	1048576	60	8220
2026-01-05 19:33:49.55	36.41	8.34	-43.2	-44.6	19.9	0.00e+00	0	31	101	1048576	60	8287
2026-01-05 19:33:50.56	36.27	8.39	-43.5	-45.0	19.6	0.00e+00	0	31	101	1048576	60	8672
2026-01-05 19:33:51.57	36.14	8.44	-43.4	-44.9	19.5	0.00e+00	0	31	101	1048576	60	8550
2026-01-05 19:33:52.58	36.00	8.49	-43.5	-45.1	19.6	0.00e+00	0	31	101	1048576	60	8757
2026-01-05 19:33:53.59	35.86	8.54	-43.5	-45.0	19.7	0.00e+00	0	31	101	1048576	60	8669
2026-01-05 19:33:54.60	35.72	8.58	-43.3	-44.8	20.1	0.00e+00	0	31	101	1048576	60	8476
2026-01-05 19:33:55.61	35.58	8.63	-43.3	-44.7	19.9	0.00e+00	0	31	101	1048576	60	8376
2026-01-05 19:33:56.62	35.44	8.68	-43.1	-44.6	20.1	0.00e+00	0	31	101	1048576	60	8268
2026-01-05 19:33:57.64	35.30	8.73	-43.1	-44.6	19.9	0.00e+00	0	31	101	1048576	60	8235
2026-01-05 19:33:58.65	35.16	8.78	-43.1	-44.5	20.1	0.00e+00	0	31	101	1048576	60	8223
2026-01-05 19:33:59.66	35.02	8.83	-43.2	-44.6	20.1	0.00e+00	0	31	101	1048576	60	8296
2026-01-05 19:34:00.67	34.88	8.88	-43.3	-44.7	20.0	0.00e+00	0	31	101	1048576	60	8381
2026-01-05 19:34:01.68	34.74	8.93	-43.2	-44.6	20.0	0.00e+00	0	31	101	1048576	60	8303
2026-01-05 19:34:02.69	34.60	8.98	-43.0	-44.4	20.2	0.00e+00	0	31	101	1048576	60	8128
2026-01-05 19:34:03.70	34.45	9.02	-42.9	-44.3	20.3	0.00e+00	0	31	101	1048576	60	7996
2026-01-05 19:34:04.71	34.31	9.07	-42.8	-44.1	20.5	0.00e+00	0	31	101	1048576	60	7805
2026-01-05 19:34:05.72	34.17	9.12	-42.6	-43.9	20.7	0.00e+00	0	31	101	1048576	60	7604
2026-01-05 19:34:06.74	34.02	9.17	-42.5	-43.8	20.7	0.00e+00	0	31	101	1048576	60	7574
2026-01-05 19:34:07.75	33.88	9.22	-42.4	-43.7	20.8	0.00e+00	0	31	101	1048576	60	7465
2026-01-05 19:34:08.76	33.73	9.27	-42.4	-43.7	20.8	0.00e+00	0	31	101	1048576	60	7481
2026-01-05 19:34:09.77	33.59	9.31	-42.1	-43.3	21.2	0.00e+00	0	31	101	1048576	60	7149
2026-01-05 19:34:10.78	33.44	9.36	-42.1	-43.3	21.2	0.00e+00	0	31	101	1048576	60	7102
2026-01-05 19:34:11.79	33.29	9.41	-41.9	-43.1	21.4	0.00e+00	0	31	101	1048576	60	6980
2026-01-05 19:34:12.80	33.15	9.46	-42.0	-43.2	21.3	0.00e+00	0	31	101	1048576	60	7024
2026-01-05 19:34:13.82	33.00	9.51	-41.9	-43.1	21.4	0.00e+00	0	31	101	1048576	60	6969
2026-01-05 19:34:14.83	32.85	9.55	-41.9	-43.0	21.5	0.00e+00	0	31	101	1048576	60	6925
2026-01-05 19:34:15.84	32.70	9.60	-41.7	-42.9	21.6	0.00e+00	0	31	101	1048576	60	6795
2026-01-05 19:34:16.85	32.55	9.65	-41.6	-42.8	21.5	0.00e+00	0	31	101	1048576	60	6704
2026-01-05 19:34:17.86	32.40	9.70	-41.6	-42.7	21.5	0.00e+00	0	31	101	1048576	60	6671
2026-01-05 19:34:18.87	32.25	9.74	-41.5	-42.6	21.8	0.00e+00	0	31	101	1048576	60	6606
2026-01-05 19:34:19.89	32.10	9.79	-41.2	-42.2	22.2	0.00e+00	0	31	101	1048576	60	6291
2026-01-05 19:34:20.90	31.95	9.84	-41.2	-42.3	22.0	0.00e+00	0	31	101	1048576	60	6338
2026-01-05 19:34:21.91	31.80	9.88	-41.0	-42.1	22.3	0.00e+00	0	31	101	1048576	60	6180
2026-01-05 19:34:22.92	31.65	9.93	-41.2	-42.3	22.1	0.00e+00	0	31	101	1048576	60	6356
2026-01-05 19:34:23.93	31.49	9.98	-41.2	-42.2	22.2	0.00e+00	0	31	101	1048576	60	6297
2026-01-05 19:34:24.94	31.34	10.02	-41.1	-42.2	22.2	0.00e+00	0	31	101	1048576	60	6286
2026-01-05 19:34:25.95	31.19	10.07	-41.3	-42.3	22.0	0.00e+00	0	31	101	1048576	60	6380
2026-01-05 19:34:26.96	31.03	10.12	-41.7	-42.8	21.7	0.00e+00	0	31	101	1048576	60	6754
2026-01-05 19:34:27.97	30.88	10.16	-41.5	-42.6	21.8	0.00e+00	0	31	101	1048576	60	6607
2026-01-05 19:34:28.99	30.72	10.21	-41.7	-42.9	21.6	0.00e+00	0	31	101	1048576	60	6818
2026-01-05 19:34:30.00	30.57	10.26	-41.7	-42.8	21.7	0.00e+00	0	31	101	1048576	60	6759
2026-01-05 19:34:31.01	30.41	10.30	-41.8	-43.0	21.6	0.00e+00	0	31	101	1048576	60	6902
2026-01-05 19:34:32.02	30.25	10.35	-41.9	-43.1	21.4	0.00e+00	0	31	101	1048576	60	6994
2026-01-05 19:34:33.03	30.10	10.39	-41.7	-42.9	21.6	0.00e+00	0	31	101	1048576	60	6836
2026-01-05 19:34:34.04	29.94	10.44	-41.7	-42.9	21.6	0.00e+00	0	31	101	1048576	60	6828
2026-01-05 19:34:35.05	29.78	10.48	-41.5	-42.6	21.9	0.00e+00	0	31	101	1048576	60	6595
2026-01-05 19:34:36.06	29.62	10.53	-41.2	-42.3	22.0	0.00e+00	0	31	101	1048576	60	6359
2026-01-05 19:34:37.07	29.46	10.57	-41.1	-42.2	22.2	0.00e+00	0	31	101	1048576	60	6283
2026-01-05 19:34:38.09	29.30	10.62	-40.9	-41.9	22.4	0.00e+00	0	31	101	1048576	60	6099
2026-01-05 19:34:39.10	29.14	10.66	-40.8	-41.9	22.5	0.00e+00	0	31	101	1048576	60	6043
2026-01-05 19:34:40.11	28.98	10.71	-40.6	-41.6	22.7	0.00e+00	0	31	101	1048576	60	5880
2026-01-05 19:34:41.12	28.82	10.75	-40.6	-41.6	22.7	0.00e+00	0	31	101	1048576	60	5871
2026-01-05 19:34:42.13	28.66	10.80	-40.6	-41.6	22.7	0.00e+00	0	31	101	1048576	60	5834
2026-01-05 19:34:43.14	28.50	10.84	-40.5	-41.5	22.8	0.00e+00	0	31	101	1048576	60	5813
2026-01-05 19:34:44.15	28.33	10.89	-40.5	-41.5	22.8	0.00e+00	0	31	101	1048576	60	5784
2026-01-05 19:34:45.16	28.17	10.93	-40.4	-41.4	22.9	0.00e+00	0	31	101	1048576	60	5726
2026-01-05 19:34:46.17	28.01	10.97	-40.4	-41.4	22.8	0.00e+00	0	31	101	1048576	60	5731
2026-01-05 19:34:47.19	27.84	11.02	-40.6	-41.6	22.8	0.00e+00	0	31	101	1048576	60	5862
2026-01-05 19:34:48.20	27.68	11.06	-40.5	-41.5	22.7	0.00e+00	0	31	101	1048576	60	5825
2026-01-05 19:34:49.21	27.51	11.11	-40.7	-41.7	22.6	0.00e+00	0	31	101	1048576	60	5915
2026-01-05 19:34:50.22	27.35	11.15	-40.8	-41.9	22.5	0.00e+00	0	31	101	1048576	60	6038
2026-01-05 19:34:51.23	27.18	11.19	-40.6	-41.6	22.8	0.00e+00	0	31	101	1048576	60	5861
2026-01-05 19:34:52.24	27.01	11.23	-40.4	-41.4	22.9	0.00e+00	0	31	101	1048576	60	5711
2026-01-05 19:34:53.25	26.85	11.28	-40.2	-41.1	22.9	0.00e+00	0	31	101	1048576	58	6224
2026-01-05 19:34:54.26	26.68	11.32	-40.1	-41.0	23.2	0.00e+00	0	31	101	1048576	58	6132
2026-01-05 19:34:55.27	26.51	11.36	-40.1	-41.1	23.1	0.00e+00	0	31	101	1048576	58	6202
2026-01-05 19:34:56.29	26.34	11.40	-40.1	-41.1	23.1	0.00e+00	0	31	101	1048576	58	6187
2026-01-05 19:34:57.30	26.17	11.45	-40.1	-41.0	23.2	0.00e+00	0	31	101	1048576	58	6157
2026-01-05 19:34:58.31	26.00	11.49	-40.1	-41.0	23.2	0.00e+00	0	31	101	1048576	58	6147
2026-01-05 19:34:59.32	25.83	11.53	-40.0	-41.0	23.3	0.00e+00	0	31	101	1048576	58	6112
2026-01-05 19:35:00.33	25.66	11.57	-40.0	-40.9	23.2	0.00e+00	0	31	101	1048576	58	6088
2026-01-05 19:35:01.34	25.49	11.61	-40.1	-41.1	23.0	0.00e+00	0	31	101	1048576	58	6181
2026-01-05 19:35:02.35	25.32	11.65	-40.5	-41.6	22.7	0.00e+00	0	31	101	1048576	58	6549
2026-01-05 19:35:03.36	25.15	11.70	-40.8	-41.8	22.6	0.00e+00	0	31	101	1048576	58	6752
2026-01-05 19:35:04.37	24.98	11.74	-40.8	-41.9	22.5	0.00e+00	0	31	101	1048576	58	6783
2026-01-05 19:35:05.39	24.80	11.78	-41.0	-42.0	22.4	0.00e+00	0	31	101	1048576	58	6920
2026-01-05 19:35:06.40	24.63	11.82	-40.9	-42.0	22.3	0.00e+00	0	31	101	1048576	58	6906
2026-01-05 19:35:07.41	24.45	11.86	-41.0	-42.1	22.2	0.00e+00	0	31	101	1048576	58	6963
2026-01-05 19:35:08.42	24.28	11.90	-40.9	-42.0	22.2	0.00e+00	0	31	101	1048576	58	6849
2026-01-05 19:35:09.43	24.11	11.94	-41.0	-42.1	22.2	0.00e+00	0	31	101	1048576	60	6214
2026-01-05 19:35:10.44	23.93	11.98	-41.0	-42.1	22.3	0.00e+00	0	31	101	1048576	60	6181
2026-01-05 19:35:11.45	23.75	12.02	-41.0	-42.0	22.4	0.00e+00	0	31	101	1048576	60	6157
2026-01-05 19:35:12.46	23.58	12.06	-41.0	-42.1	22.5	0.00e+00	0	31	101	1048576	60	6199
2026-01-05 19:35:13.47	23.40	12.10	-41.1	-42.1	22.5	0.00e+00	0	31	101	1048576	60	6199
2026-01-05 19:35:14.49	23.22	12.13	-40.8	-41.8	22.5	0.00e+00	0	31	101	1048576	60	5982
2026-01-05 19:35:15.50	23.04	12.17	-40.8	-41.8	22.7	0.00e+00	0	31	101	1048576	60	5984
2026-01-05 19:35:16.51	22.87	12.21	-40.9	-41.9	22.5	0.00e+00	0	31	101	1048576	60	6056
2026-01-05 19:35:17.52	22.69	12.25	-41.2	-42.2	22.3	0.00e+00	0	31	101	1048576	60	6310
2026-01-05 19:35:18.53	22.51	12.29	-41.3	-42.4	22.1	0.00e+00	0	31	101	1048576	60	6452
2026-01-05 19:35:19.54	22.33	12.33	-41.4	-42.6	22.1	0.00e+00	0	31	101	1048576	60	6548
2026-01-05 19:35:20.55	22.15	12.36	-41.2	-42.3	22.3	0.00e+00	0	31	101	1048576	60	6361
2026-01-05 19:35:21.56	21.97	12.40	-40.9	-41.9	22.5	0.00e+00	0	31	101	1048576	60	6103
2026-01-05 19:35:22.57	21.79	12.44	-40.5	-41.5	22.8	0.00e+00	0	31	101	1048576	60	5807
2026-01-05 19:35:23.59	21.60	12.48	-40.5	-41.5	22.8	0.00e+00	0	31	101	1048576	60	5780
2026-01-05 19:35:24.60	21.42	12.51	-40.4	-41.3	22.9	0.00e+00	0	31	101	1048576	60	5677
2026-01-05 19:35:25.61	21.24	12.55	-40.4	-41.3	23.0	0.00e+00	0	31	101	1048576	60	5693
2026-01-05 19:35:26.62	21.06	12.58	-40.5	-41.4	22.8	0.00e+00	0	31	101	1048576	60	5750
2026-01-05 19:35:27.63	20.87	12.62	-40.4	-41.3	23.0	0.00e+00	0	31	101	1048576	60	5676
2026-01-05 19:35:28.64	20.69	12.66	-40.3	-41.3	23.0	0.00e+00	0	31	101	1048576	60	5647
2026-01-05 19:35:29.65	20.51	12.69	-40.5	-41.5	22.9	0.00e+00	0	31	101	1048576	60	5811
2026-01-05 19:35:30.66	20.32	12.73	-40.6	-41.6	22.7	0.00e+00	0	31	101	1048576	60	5832
2026-01-05 19:35:31.68	20.13	12.76	-40.8	-41.8	22.6	0.00e+00	0	31	101	1048576	60	6007
2026-01-05 19:35:32.69	19.95	12.80	-40.8	-41.9	22.6	0.00e+00	0	31	101	1048576	60	6050
2026-01-05 19:35:33.70	19.76	12.83	-41.0	-42.0	22.4	0.00e+00	0	31	101	1048576	60	6172
2026-01-05 19:35:34.71	19.58	12.87	-40.6	-41.6	22.8	0.00e+00	0	31	101	1048576	60	5834
2026-01-05 19:35:35.72	19.39	12.90	-40.6	-41.6	22.7	0.00e+00	0	31	101	1048576	60	5895
2026-01-05 19:35:36.73	19.20	12.93	-40.4	-41.4	23.0	0.00e+00	0	31	101	1048576	60	5700
2026-01-05 19:35:37.74	19.01	12.97	-40.4	-41.4	22.8	0.00e+00	0	31	101	1048576	60	5725
2026-01-05 19:35:38.75	18.83	13.00	-40.7	-41.7	22.6	0.00e+00	0	31	101	1048576	60	5931
2026-01-05 19:35:39.76	18.64	13.03	-40.7	-41.8	22.7	0.00e+00	0	31	101	1048576	60	5982
2026-01-05 19:35:40.77	18.45	13.07	-41.0	-42.1	22.4	0.00e+00	0	31	101	1048576	60	6194
2026-01-05 19:35:41.79	18.26	13.10	-41.3	-42.5	22.2	0.00e+00	0	31	101	1048576	60	6468
2026-01-05 19:35:42.80	18.07	13.13	-41.3	-42.4	22.1	0.00e+00	0	31	101	1048576	60	6458
2026-01-05 19:35:43.81	17.88	13.16	-41.6	-42.7	21.9	0.00e+00	0	31	101	1048576	60	6687
2026-01-05 19:35:44.82	17.69	13.19	-41.6	-42.8	21.8	0.00e+00	0	31	101	1048576	60	6752
2026-01-05 19:35:45.83	17.50	13.23	-41.6	-42.8	21.8	0.00e+00	0	31	101	1048576	60	6753
2026-01-05 19:35:46.84	17.30	13.26	-41.2	-42.3	22.3	0.00e+00	0	31	101	1048576	60	6372
2026-01-05 19:35:47.85	17.11	13.29	-41.1	-42.2	22.4	0.00e+00	0	31	101	1048576	60	6272
2026-01-05 19:35:48.86	16.92	13.32	-40.8	-41.9	22.5	0.00e+00	0	31	101	1048576	60	6046
2026-01-05 19:35:49.87	16.73	13.35	-40.4	-41.4	23.0	0.00e+00	0	31	101	1048576	60	5733
2026-01-05 19:35:50.88	16.53	13.38	-40.1	-41.1	23.1	0.00e+00	0	31	101	1048576	60	5506
2026-01-05 19:35:51.90	16.34	13.41	-40.1	-41.0	22.5	0.00e+00	0	31	101	1048576	58	6165
2026-01-05 19:35:52.91	16.15	13.44	-40.1	-41.0	23.2	0.00e+00	0	31	101	1048576	58	6140
2026-01-05 19:35:53.92	15.95	13.47	-39.5	-40.4	23.6	0.00e+00	0	31	101	1048576	58	5726
2026-01-05 19:35:54.93	15.76	13.50	-39.6	-40.5	23.6	0.00e+00	0	31	101	1048576	58	5791
2026-01-05 19:35:55.94	15.56	13.52	-39.7	-40.6	23.5	0.00e+00	0	31	101	1048576	58	5870
2026-01-05 19:35:56.95	15.37	13.55	-39.8	-40.7	23.5	0.00e+00	0	31	101	1048576	58	5947
2026-01-05 19:35:57.96	15.17	13.58	-39.8	-40.7	23.5	0.00e+00	0	31	101	1048576	58	5935
2026-01-05 19:35:58.97	14.97	13.61	-39.6	-40.5	23.6	0.00e+00	0	31	101	1048576	58	5795
2026-01-05 19:35:59.99	14.78	13.64	-39.8	-40.7	23.5	0.00e+00	0	31	101	1048576	58	5934
2026-01-05 19:36:01.00	14.58	13.66	-39.8	-40.7	23.5	0.00e+00	0	31	101	1048576	58	5928
2026-01-05 19:36:02.01	14.38	13.69	-40.0	-40.9	23.3	0.00e+00	0	31	101	1048576	58	6065
2026-01-05 19:36:03.02	14.18	13.72	-39.8	-40.7	23.5	0.00e+00	0	31	101	1048576	58	5948
2026-01-05 19:36:04.03	13.99	13.74	-39.9	-40.8	23.4	0.00e+00	0	31	101	1048576	58	6005
2026-01-05 19:36:05.04	13.79	13.77	-39.7	-40.6	23.3	0.00e+00	0	31	101	1048576	58	5858
2026-01-05 19:36:06.05	13.59	13.79	-39.8	-40.7	23.4	0.00e+00	0	31	101	1048576	58	5918
2026-01-05 19:36:07.06	13.39	13.82	-40.2	-41.1	23.2	0.00e+00	0	31	101	1048576	58	6228
2026-01-05 19:36:08.07	13.19	13.84	-40.5	-41.4	22.9	0.00e+00	0	31	101	1048576	58	6462
2026-01-05 19:36:09.08	12.99	13.87	-40.7	-41.7	22.5	0.00e+00	0	31	101	1048576	58	6681
2026-01-05 19:36:10.10	12.79	13.89	-41.0	-42.0	22.4	0.00e+00	0	31	101	1048576	58	6922
2026-01-05 19:36:11.11	12.59	13.91	-41.1	-42.2	22.3	0.00e+00	0	31	101	1048576	60	6268
2026-01-05 19:36:12.12	12.39	13.94	-41.1	-42.1	22.4	0.00e+00	0	31	101	1048576	60	6238
2026-01-05 19:36:13.13	12.19	13.96	-41.1	-42.1	22.4	0.00e+00	0	31	101	1048576	60	6218
2026-01-05 19:36:14.14	11.99	13.98	-40.9	-42.0	22.5	0.00e+00	0	31	101	1048576	60	6132
2026-01-05 19:36:15.15	11.78	14.01	-40.9	-42.0	22.5	0.00e+00	0	31	101	1048576	60	6107
2026-01-05 19:36:16.16	11.58	14.03	-41.1	-42.2	22.4	0.00e+00	0	31	101	1048576	60	6255
2026-01-05 19:36:17.17	11.38	14.05	-41.1	-42.2	22.3	0.00e+00	0	31	101	1048576	60	6258
2026-01-05 19:36:18.18	11.18	14.07	-41.3	-42.4	21.9	0.00e+00	0	31	101	1048576	60	6403
2026-01-05 19:36:19.19	10.97	14.09	-41.4	-42.5	22.1	0.00e+00	0	31	101	1048576	60	6478
2026-01-05 19:36:20.21	10.77	14.11	-41.3	-42.4	22.2	0.00e+00	0	31	101	1048576	60	6395
2026-01-05 19:36:21.22	10.57	14.14	-41.1	-42.2	22.3	0.00e+00	0	31	101	1048576	60	6295
2026-01-05 19:36:22.23	10.36	14.16	-40.9	-42.0	22.5	0.00e+00	0	31	101	1048576	60	6120
2026-01-05 19:36:23.24	10.16	14.18	-40.9	-41.9	22.5	0.00e+00	0	31	101	1048576	60	6067
2026-01-05 19:36:24.25	9.95	14.19	-40.9	-41.9	22.6	0.00e+00	0	31	101	1048576	60	6068
2026-01-05 19:36:25.26	9.75	14.21	-40.8	-41.8	22.6	0.00e+00	0	31	101	1048576	60	6001
2026-01-05 19:36:26.27	9.55	14.23	-40.8	-41.8	22.7	0.00e+00	0	31	101	1048576	60	5991
2026-01-05 19:36:27.28	9.34	14.25	-40.6	-41.6	22.8	0.00e+00	0	31	101	1048576	60	5880
2026-01-05 19:36:28.29	9.13	14.27	-40.4	-41.4	23.0	0.00e+00	0	31	101	1048576	60	5712
2026-01-05 19:36:29.30	8.93	14.29	-40.3	-41.2	23.1	0.00e+00	0	31	101	1048576	60	5600
2026-01-05 19:36:30.31	8.72	14.30	-40.2	-41.1	23.1	0.00e+00	0	31	101	1048576	60	5531
2026-01-05 19:36:31.32	8.52	14.32	-40.2	-41.1	23.2	0.00e+00	0	31	101	1048576	58	6204
2026-01-05 19:36:32.34	8.31	14.34	-40.0	-40.9	23.3	0.00e+00	0	31	101	1048576	58	6092
2026-01-05 19:36:33.35	8.10	14.35	-40.0	-40.9	23.3	0.00e+00	0	31	101	1048576	58	6053
2026-01-05 19:36:34.36	7.90	14.37	-40.1	-41.0	23.2	0.00e+00	0	31	101	1048576	58	6167
2026-01-05 19:36:35.37	7.69	14.39	-40.4	-41.4	23.0	0.00e+00	0	31	101	1048576	58	6434
2026-01-05 19:36:36.38	7.48	14.40	-40.6	-41.5	22.8	0.00e+00	0	31	101	1048576	58	6537
2026-01-05 19:36:37.39	7.27	14.42	-40.5	-41.5	22.9	0.00e+00	0	31	101	1048576	58	6524
2026-01-05 19:36:38.40	7.07	14.43	-40.5	-41.5	22.9	0.00e+00	0	31	101	1048576	58	6477
2026-01-05 19:36:39.41	6.86	14.44	-40.5	-41.5	23.0	0.00e+00	0	31	101	1048576	58	6483
2026-01-05 19:36:40.43	6.65	14.46	-40.6	-41.6	22.8	0.00e+00	0	31	101	1048576	58	6566
2026-01-05 19:36:41.44	6.44	14.47	-40.5	-41.5	22.8	0.00e+00	0	31	101	1048576	58	6517
2026-01-05 19:36:42.45	6.23	14.48	-40.6	-41.6	22.6	0.00e+00	0	31	101	1048576	58	6583
2026-01-05 19:36:43.46	6.02	14.50	-40.4	-41.4	22.9	0.00e+00	0	31	101	1048576	58	6433
2026-01-05 19:36:44.47	5.82	14.51	-40.4	-41.3	23.0	0.00e+00	0	31	101	1048576	58	6385
2026-01-05 19:36:45.48	5.61	14.52	-40.4	-41.4	22.9	0.00e+00	0	31	101	1048576	58	6396
2026-01-05 19:36:46.49	5.40	14.53	-40.3	-41.3	23.1	0.00e+00	0	31	101	1048576	58	6331
2026-01-05 19:36:47.50	5.19	14.54	-40.4	-41.4	22.9	0.00e+00	0	31	101	1048576	58	6399
2026-01-05 19:36:48.51	4.98	14.55	-40.5	-41.5	22.9	0.00e+00	0	31	101	1048576	58	6501
2026-01-05 19:36:49.52	4.77	14.56	-40.5	-41.5	22.8	0.00e+00	0	31	101	1048576	58	6510
2026-01-05 19:36:50.54	4.56	14.57	-40.5	-41.5	22.8	0.00e+00	0	31	101	1048576	58	6518
2026-01-05 19:36:51.55	4.35	14.58	-40.7	-41.7	22.7	0.00e+00	0	31	101	1048576	58	6648
2026-01-05 19:36:52.56	4.14	14.59	-40.8	-41.9	22.6	0.00e+00	0	31	101	1048576	58	6779
2026-01-05 19:36:53.57	3.93	14.60	-40.7	-41.7	22.7	0.00e+00	0	31	101	1048576	58	6670
2026-01-05 19:36:54.58	3.72	14.61	-40.6	-41.6	22.7	0.00e+00	0	31	101	1048576	58	6569
2026-01-05 19:36:55.59	3.51	14.62	-40.4	-41.3	22.8	0.00e+00	0	31	101	1048576	58	6386
2026-01-05 19:36:56.60	3.30	14.63	-40.2	-41.2	23.1	0.00e+00	0	31	101	1048576	58	6262
2026-01-05 19:36:57.61	3.09	14.63	-40.1	-41.1	23.1	0.00e+00	0	31	101	1048576	58	6206
2026-01-05 19:36:58.62	2.88	14.64	-40.2	-41.1	23.1	0.00e+00	0	31	101	1048576	58	6231
2026-01-05 19:36:59.63	2.67	14.65	-40.3	-41.2	23.1	0.00e+00	0	31	101	1048576	58	6305
2026-01-05 19:37:00.65	2.45	14.65	-40.4	-41.4	23.0	0.00e+00	0	31	101	1048576	58	6417
2026-01-05 19:37:01.66	2.24	14.66	-40.5	-41.5	22.9	0.00e+00	0	31	101	1048576	58	6479
2026-01-05 19:37:02.67	2.03	14.66	-40.5	-41.4	22.9	0.00e+00	0	31	101	1048576	58	6460
2026-01-05 19:37:03.68	1.82	14.67	-40.5	-41.4	22.9	0.00e+00	0	31	101	1048576	58	6453
2026-01-05 19:37:04.69	1.61	14.67	-40.4	-41.4	23.0	0.00e+00	0	31	101	1048576	58	6427
2026-01-05 19:37:05.70	1.40	14.68	-40.4	-41.4	23.1	0.00e+00	0	31	101	1048576	58	6436
2026-01-05 19:37:06.71	1.19	14.68	-40.4	-41.4	23.0	0.00e+00	0	31	101	1048576	58	6421
2026-01-05 19:37:07.72	0.98	14.68	-40.6	-41.5	22.8	0.00e+00	0	31	101	1048576	58	6539
2026-01-05 19:37:08.74	0.76	14.69	-40.8	-41.8	22.7	0.00e+00	0	31	101	1048576	58	6707
2026-01-05 19:37:09.75	0.55	14.69	-41.0	-42.1	22.4	0.00e+00	0	31	101	1048576	58	6952
2026-01-05 19:37:10.76	0.34	14.69	-41.0	-42.1	22.4	0.00e+00	0	31	101	1048576	58	6931
2026-01-05 19:37:11.77	0.13	14.69	-41.0	-42.1	22.4	0.00e+00	0	31	101	1048576	58	6964
2026-01-05 19:37:12.78	359.92	14.69	-41.0	-42.0	22.5	0.00e+00	0	31	101	1048576	58	6892
2026-01-05 19:37:13.79	359.71	14.70	-40.9	-42.0	22.6	0.00e+00	0	31	101	1048576	58	6864
2026-01-05 19:37:14.80	359.49	14.70	-40.6	-41.6	22.9	0.00e+00	0	31	101	1048576	58	6576
2026-01-05 19:37:15.81	359.28	14.70	-40.5	-41.5	22.9	0.00e+00	0	31	101	1048576	58	6518
2026-01-05 19:37:16.82	359.07	14.70	-40.1	-41.1	23.2	0.00e+00	0	31	101	1048576	58	6190
2026-01-05 19:37:17.84	358.86	14.70	-40.0	-40.9	23.2	0.00e+00	0	31	101	1048576	58	6094
2026-01-05 19:37:18.85	358.65	14.69	-40.1	-41.1	23.2	0.00e+00	0	31	101	1048576	58	6176
2026-01-05 19:37:19.86	358.43	14.69	-40.2	-41.1	23.2	0.00e+00	0	31	101	1048576	58	6214
2026-01-05 19:37:20.87	358.22	14.69	-40.4	-41.4	22.9	0.00e+00	0	31	101	1048576	58	6396
2026-01-05 19:37:21.88	358.01	14.69	-40.5	-41.5	22.8	0.00e+00	0	31	101	1048576	58	6511
2026-01-05 19:37:22.89	357.80	14.69	-40.9	-41.9	22.5	0.00e+00	0	31	101	1048576	58	6812
2026-01-05 19:37:23.90	357.59	14.68	-40.9	-42.0	22.5	0.00e+00	0	31	101	1048576	58	6850
2026-01-05 19:37:24.91	357.38	14.68	-40.9	-42.0	22.4	0.00e+00	0	31	101	1048576	58	6885
2026-01-05 19:37:25.92	357.17	14.68	-41.0	-42.0	22.5	0.00e+00	0	31	101	1048576	58	6918
2026-01-05 19:37:26.93	356.96	14.67	-40.8	-41.8	22.6	0.00e+00	0	31	101	1048576	58	6744
2026-01-05 19:37:27.95	356.74	14.67	-40.8	-41.8	22.6	0.00e+00	0	31	101	1048576	58	6744
2026-01-05 19:37:28.96	356.53	14.66	-40.8	-41.9	22.5	0.00e+00	0	31	101	1048576	58	6785
2026-01-05 19:37:29.97	356.32	14.66	-40.9	-41.9	22.4	0.00e+00	0	31	101	1048576	58	6836
2026-01-05 19:37:30.98	356.11	14.65	-41.0	-42.0	21.8	0.00e+00	0	31	101	1048576	58	6911
2026-01-05 19:37:31.99	355.90	14.65	-41.3	-42.3	22.1	0.00e+00	0	31	101	1048576	60	6378
2026-01-05 19:37:33.00	355.69	14.64	-41.4	-42.5	22.2	0.00e+00	0	31	101	1048576	60	6514
2026-01-05 19:37:34.01	355.48	14.63	-41.4	-42.6	21.8	0.00e+00	0	31	101	1048576	60	6545
2026-01-05 19:37:35.02	355.27	14.63	-41.5	-42.6	22.0	0.00e+00	0	31	101	1048576	60	6578
2026-01-05 19:37:36.03	355.06	14.62	-41.3	-42.4	22.1	0.00e+00	0	31	101	1048576	60	6438
2026-01-05 19:37:37.05	354.84	14.61	-41.0	-42.1	22.4	0.00e+00	0	31	101	1048576	60	6203
2026-01-05 19:37:38.06	354.63	14.60	-41.0	-42.0	22.6	0.00e+00	0	31	101	1048576	60	6142
2026-01-05 19:37:39.07	354.42	14.59	-40.5	-41.5	23.0	0.00e+00	0	31	101	1048576	60	5820
2026-01-05 19:37:40.08	354.21	14.58	-40.4	-41.4	23.0	0.00e+00	0	31	101	1048576	60	5721
2026-01-05 19:37:41.09	354.00	14.58	-40.4	-41.4	23.1	0.00e+00	0	31	101	1048576	60	5719
2026-01-05 19:37:42.10	353.79	14.57	-40.3	-41.3	23.1	0.00e+00	0	31	101	1048576	60	5632
2026-01-05 19:37:43.11	353.59	14.56	-40.4	-41.4	22.9	0.00e+00	0	31	101	1048576	60	5711
2026-01-05 19:37:44.12	353.38	14.54	-40.3	-41.3	23.1	0.00e+00	0	31	101	1048576	60	5636
2026-01-05 19:37:45.14	353.16	14.53	-40.6	-41.6	22.9	0.00e+00	0	31	101	1048576	60	5844
2026-01-05 19:37:46.15	352.96	14.52	-40.7	-41.7	22.9	0.00e+00	0	31	101	1048576	60	5913
2026-01-05 19:37:47.16	352.75	14.51	-40.7	-41.7	22.7	0.00e+00	0	31	101	1048576	60	5962
2026-01-05 19:37:48.17	352.54	14.50	-40.8	-41.8	22.7	0.00e+00	0	31	101	1048576	60	5982
2026-01-05 19:37:49.18	352.33	14.49	-40.9	-41.9	22.6	0.00e+00	0	31	101	1048576	60	6093
2026-01-05 19:37:50.19	352.12	14.47	-40.7	-41.7	22.8	0.00e+00	0	31	101	1048576	60	5899
2026-01-05 19:37:51.20	351.91	14.46	-40.5	-41.5	23.0	0.00e+00	0	31	101	1048576	60	5784
2026-01-05 19:37:52.21	351.70	14.45	-40.4	-41.4	23.1	0.00e+00	0	31	101	1048576	60	5696
2026-01-05 19:37:53.22	351.50	14.43	-39.8	-40.7	23.5	0.00e+00	0	31	101	1048576	58	5940
2026-01-05 19:37:54.24	351.29	14.42	-39.5	-40.4	23.6	0.00e+00	0	31	101	1048576	58	5743
2026-01-05 19:37:55.25	351.08	14.40	-39.7	-40.6	23.4	0.00e+00	0	31	101	1048576	58	5848
2026-01-05 19:37:56.26	350.87	14.39	-39.9	-40.8	23.5	0.00e+00	0	31	101	1048576	58	5979
2026-01-05 19:37:57.27	350.67	14.37	-39.9	-40.8	23.4	0.00e+00	0	31	101	1048576	58	5992
2026-01-05 19:37:58.28	350.46	14.36	-40.0	-41.0	23.1	0.00e+00	0	31	101	1048576	58	6116
2026-01-05 19:37:59.29	350.25	14.34	-40.0	-41.0	23.2	0.00e+00	0	31	101	1048576	58	6136
2026-01-05 19:38:00.30	350.05	14.32	-40.0	-41.0	23.1	0.00e+00	0	31	101	1048576	58	6129
2026-01-05 19:38:01.31	349.84	14.31	-40.2	-41.1	23.1	0.00e+00	0	31	101	1048576	58	6232
2026-01-05 19:38:02.32	349.63	14.29	-40.1	-41.1	23.1	0.00e+00	0	31	101	1048576	58	6204
2026-01-05 19:38:03.33	349.43	14.27	-40.5	-41.5	22.8	0.00e+00	0	31	101	1048576	58	6502
2026-01-05 19:38:04.35	349.22	14.25	-40.5	-41.5	22.8	0.00e+00	0	31	101	1048576	58	6503
2026-01-05 19:38:05.36	349.02	14.24	-40.6	-41.6	22.7	0.00e+00	0	31	101	1048576	58	6567
2026-01-05 19:38:06.37	348.81	14.22	-40.7	-41.7	22.7	0.00e+00	0	31	101	1048576	58	6661
2026-01-05 19:38:07.38	348.61	14.20	-40.7	-41.7	22.7	0.00e+00	0	31	101	1048576	58	6643
2026-01-05 19:38:08.39	348.40	14.18	-40.8	-41.8	22.5	0.00e+00	0	31	101	1048576	58	6713
2026-01-05 19:38:09.40	348.20	14.16	-40.6	-41.7	22.7	0.00e+00	0	31	101	1048576	58	6616
2026-01-05 19:38:10.41	348.00	14.14	-40.8	-41.9	22.5	0.00e+00	0	31	101	1048576	58	6796
2026-01-05 19:38:11.42	347.79	14.12	-41.0	-42.1	22.5	0.00e+00	0	31	101	1048576	58	6963
2026-01-05 19:38:12.44	347.59	14.10	-40.8	-41.9	22.5	0.00e+00	0	31	101	1048576	58	6780
2026-01-05 19:38:13.45	347.38	14.08	-40.6	-41.6	22.8	0.00e+00	0	31	101	1048576	58	6562
2026-01-05 19:38:14.46	347.18	14.06	-40.6	-41.6	22.8	0.00e+00	0	31	101	1048576	58	6599
2026-01-05 19:38:15.47	346.98	14.03	-40.5	-41.5	22.9	0.00e+00	0	31	101	1048576	58	6470
2026-01-05 19:38:16.48	346.78	14.01	-40.0	-40.9	23.3	0.00e+00	0	31	101	1048576	58	6089
2026-01-05 19:38:17.49	346.58	13.99	-40.1	-41.1	23.2	0.00e+00	0	31	101	1048576	58	6174
2026-01-05 19:38:18.50	346.37	13.97	-40.0	-41.0	23.3	0.00e+00	0	31	101	1048576	58	6110
2026-01-05 19:38:19.51	346.17	13.94	-40.2	-41.2	23.0	0.00e+00	0	31	101	1048576	58	6288
2026-01-05 19:38:20.52	345.97	13.92	-40.5	-41.4	22.7	0.00e+00	0	31	101	1048576	58	6458
2026-01-05 19:38:21.54	345.77	13.90	-40.5	-41.6	22.7	0.00e+00	0	31	101	1048576	58	6547
2026-01-05 19:38:22.55	345.57	13.87	-40.5	-41.5	22.8	0.00e+00	0	31	101	1048576	58	6520
2026-01-05 19:38:23.56	345.37	13.85	-40.5	-41.5	22.7	0.00e+00	0	31	101	1048576	58	6526
2026-01-05 19:38:24.57	345.17	13.82	-40.3	-41.2	22.9	0.00e+00	0	31	101	1048576	58	6295
2026-01-05 19:38:25.58	344.97	13.80	-40.1	-41.0	23.2	0.00e+00	0	31	101	1048576	58	6142
2026-01-05 19:38:26.59	344.77	13.77	-40.1	-41.1	23.2	0.00e+00	0	31	101	1048576	58	6174
2026-01-05 19:38:27.60	344.58	13.75	-40.2	-41.2	23.1	0.00e+00	0	31	101	1048576	58	6261
2026-01-05 19:38:28.61	344.38	13.72	-40.4	-41.4	22.8	0.00e+00	0	31	101	1048576	58	6433
2026-01-05 19:38:29.62	344.18	13.69	-40.6	-41.6	22.7	0.00e+00	0	31	101	1048576	58	6565
2026-01-05 19:38:30.63	343.98	13.67	-40.8	-41.9	22.5	0.00e+00	0	31	101	1048576	58	6804
2026-01-05 19:38:31.64	343.79	13.64	-40.6	-41.7	22.7	0.00e+00	0	31	101	1048576	58	6617
2026-01-05 19:38:32.66	343.59	13.61	-40.7	-41.7	22.6	0.00e+00	0	31	101	1048576	58	6670
2026-01-05 19:38:33.67	343.39	13.59	-40.7	-41.7	22.5	0.00e+00	0	31	101	1048576	58	6686
2026-01-05 19:38:34.68	343.20	13.56	-40.8	-41.9	22.5	0.00e+00	0	31	101	1048576	58	6795
2026-01-05 19:38:35.69	343.00	13.53	-40.6	-41.6	22.7	0.00e+00	0	31	101	1048576	58	6605
2026-01-05 19:38:36.70	342.80	13.50	-40.6	-41.6	22.6	0.00e+00	0	31	101	1048576	58	6579
2026-01-05 19:38:37.71	342.61	13.47	-40.7	-41.8	22.6	0.00e+00	0	31	101	1048576	58	6694
2026-01-05 19:38:38.72	342.42	13.44	-40.6	-41.6	22.8	0.00e+00	0	31	101	1048576	58	6586
2026-01-05 19:38:39.73	342.22	13.41	-40.7	-41.7	22.5	0.00e+00	0	31	101	1048576	58	6647
2026-01-05 19:38:40.75	342.03	13.38	-40.9	-41.9	22.5	0.00e+00	0	31	101	1048576	58	6821
2026-01-05 19:38:41.76	341.83	13.35	-40.8	-41.9	22.6	0.00e+00	0	31	101	1048576	58	6806
2026-01-05 19:38:42.77	341.64	13.32	-40.8	-41.8	22.5	0.00e+00	0	31	101	1048576	58	6755
2026-01-05 19:38:43.78	341.45	13.29	-40.8	-41.8	22.5	0.00e+00	0	31	101	1048576	58	6746
2026-01-05 19:38:44.79	341.26	13.26	-40.6	-41.6	22.8	0.00e+00	0	31	101	1048576	58	6586
2026-01-05 19:38:45.80	341.06	13.23	-40.6	-41.6	22.7	0.00e+00	0	31	101	1048576	58	6590
2026-01-05 19:38:46.81	340.87	13.20	-40.6	-41.6	22.7	0.00e+00	0	31	101	1048576	58	6610
2026-01-05 19:38:47.83	340.68	13.17	-40.6	-41.6	22.7	0.00e+00	0	31	101	1048576	58	6565
2026-01-05 19:38:48.84	340.49	13.14	-40.6	-41.6	22.7	0.00e+00	0	31	101	1048576	58	6578
2026-01-05 19:38:49.85	340.30	13.10	-40.6	-41.6	22.7	0.00e+00	0	31	101	1048576	58	6609
2026-01-05 19:38:50.86	340.11	13.07	-40.8	-41.8	22.6	0.00e+00	0	31	101	1048576	58	6716
2026-01-05 19:38:51.87	339.92	13.04	-40.8	-41.8	22.6	0.00e+00	0	31	101	1048576	58	6768
2026-01-05 19:38:52.88	339.73	13.01	-40.7	-41.7	22.6	0.00e+00	0	31	101	1048576	58	6658
2026-01-05 19:38:53.90	339.54	12.97	-40.8	-41.8	22.6	0.00e+00	0	31	101	1048576	58	6760
2026-01-05 19:38:54.91	339.36	12.94	-40.7	-41.7	22.6	0.00e+00	0	31	101	1048576	58	6685
2026-01-05 19:38:55.92	339.17	12.91	-40.3	-41.2	23.0	0.00e+00	0	31	101	1048576	58	6295
2026-01-05 19:38:56.93	338.98	12.87	-40.1	-41.0	23.2	0.00e+00	0	31	101	1048576	58	6136
2026-01-05 19:38:57.94	338.80	12.84	-40.1	-41.0	23.2	0.00e+00	0	31	101	1048576	58	6144
2026-01-05 19:38:58.95	338.61	12.80	-39.8	-40.7	23.3	0.00e+00	0	31	101	1048576	58	5957
2026-01-05 19:38:59.96	338.42	12.77	-39.8	-40.8	23.3	0.00e+00	0	31	101	1048576	58	5971
2026-01-05 19:39:00.97	338.24	12.73	-40.0	-40.9	22.9	0.00e+00	0	31	101	1048576	58	6077
2026-01-05 19:39:01.98	338.05	12.70	-40.1	-41.0	23.0	0.00e+00	0	31	101	1048576	58	6144
2026-01-05 19:39:02.99	337.87	12.66	-40.3	-41.2	23.0	0.00e+00	0	31	101	1048576	58	6305
2026-01-05 19:39:04.01	337.68	12.63	-40.3	-41.2	23.0	0.00e+00	0	31	101	1048576	58	6291
2026-01-05 19:39:05.02	337.50	12.59	-40.2	-41.1	22.8	0.00e+00	0	31	101	1048576	58	6237
2026-01-05 19:39:06.03	337.32	12.55	-40.3	-41.3	22.9	0.00e+00	0	31	101	1048576	58	6372
2026-01-05 19:39:07.04	337.14	12.52	-40.4	-41.4	22.8	0.00e+00	0	31	101	1048576	58	6437
2026-01-05 19:39:08.05	336.95	12.48	-40.5	-41.5	22.8	0.00e+00	0	31	101	1048576	58	6527
2026-01-05 19:39:09.06	336.77	12.45	-40.8	-41.8	22.3	0.00e+00	0	31	101	1048576	58	6757
2026-01-05 19:39:10.07	336.59	12.41	-40.7	-41.8	22.6	0.00e+00	0	31	101	1048576	58	6718
2026-01-05 19:39:11.09	336.41	12.37	-40.7	-41.7	22.5	0.00e+00	0	31	101	1048576	58	6692
2026-01-05 19:39:12.10	336.23	12.33	-40.8	-41.9	22.5	0.00e+00	0	31	101	1048576	58	6772
2026-01-05 19:39:13.11	336.05	12.30	-41.1	-42.1	22.2	0.00e+00	0	31	101	1048576	58	6987
2026-01-05 19:39:14.12	335.87	12.26	-41.1	-42.2	22.2	0.00e+00	0	31	101	1048576	60	6283
2026-01-05 19:39:15.13	335.69	12.22	-41.0	-42.1	22.3	0.00e+00	0	31	101	1048576	60	6186
2026-01-05 19:39:16.14	335.51	12.18	-41.2	-42.2	22.1	0.00e+00	0	31	101	1048576	60	6311
2026-01-05 19:39:17.15	335.34	12.14	-40.9	-41.9	22.3	0.00e+00	0	31	101	1048576	60	6097
2026-01-05 19:39:18.17	335.16	12.10	-41.0	-42.1	22.3	0.00e+00	0	31	101	1048576	60	6196
2026-01-05 19:39:19.17	334.98	12.06	-41.0	-42.1	22.2	0.00e+00	0	31	101	1048576	60	6188
2026-01-05 19:39:20.19	334.80	12.02	-41.2	-42.3	22.4	0.00e+00	0	31	101	1048576	60	6353
2026-01-05 19:39:21.20	334.63	11.99	-41.1	-42.1	22.1	0.00e+00	0	31	101	1048576	60	6232
2026-01-05 19:39:22.21	334.45	11.95	-41.3	-42.4	22.0	0.00e+00	0	31	101	1048576	60	6432
2026-01-05 19:39:23.22	334.28	11.91	-41.2	-42.3	22.1	0.00e+00	0	31	101	1048576	60	6326
2026-01-05 19:39:24.23	334.10	11.87	-41.4	-42.5	22.0	0.00e+00	0	31	101	1048576	60	6500
2026-01-05 19:39:25.24	333.93	11.83	-41.4	-42.5	22.0	0.00e+00	0	31	101	1048576	60	6487
2026-01-05 19:39:26.25	333.76	11.79	-41.4	-42.5	22.0	0.00e+00	0	31	101	1048576	60	6507
2026-01-05 19:39:27.26	333.58	11.74	-41.2	-42.3	22.2	0.00e+00	0	31	101	1048576	60	6351
2026-01-05 19:39:28.28	333.41	11.70	-41.5	-42.5	21.9	0.00e+00	0	31	101	1048576	60	6526
2026-01-05 19:39:29.29	333.24	11.66	-41.6	-42.7	21.8	0.00e+00	0	31	101	1048576	60	6678
2026-01-05 19:39:30.30	333.07	11.62	-41.3	-42.3	22.4	0.00e+00	0	31	101	1048576	60	6364
2026-01-05 19:39:31.31	332.90	11.58	-41.6	-42.7	21.7	0.00e+00	0	31	101	1048576	60	6664
2026-01-05 19:39:32.32	332.72	11.54	-41.7	-42.8	21.6	0.00e+00	0	31	101	1048576	60	6756
2026-01-05 19:39:33.33	332.55	11.50	-41.7	-42.8	21.8	0.00e+00	0	31	101	1048576	60	6756
2026-01-05 19:39:34.34	332.39	11.46	-42.0	-43.1	21.6	0.00e+00	0	32	101	1048576	60	6948
2026-01-05 19:39:35.35	332.22	11.41	-41.9	-42.9	21.7	0.00e+00	0	31	101	1048576	60	6842
2026-01-05 19:39:36.37	332.05	11.37	-41.8	-42.9	21.7	0.00e+00	0	31	101	1048576	60	6778
2026-01-05 19:39:37.37	331.88	11.33	-41.4	-42.4	22.1	0.00e+00	0	31	101	1048576	60	6430
2026-01-05 19:39:38.39	331.71	11.29	-41.4	-42.5	22.1	0.00e+00	0	31	101	1048576	60	6467
2026-01-05 19:39:39.40	331.54	11.24	-41.0	-42.0	22.4	0.00e+00	0	31	101	1048576	60	6135
2026-01-05 19:39:40.41	331.38	11.20	-41.0	-42.0	22.5	0.00e+00	0	31	101	1048576	60	6104
2026-01-05 19:39:41.42	331.21	11.16	-41.1	-42.1	22.3	0.00e+00	0	31	101	1048576	60	6212
2026-01-05 19:39:42.43	331.05	11.11	-41.3	-42.4	22.1	0.00e+00	0	31	101	1048576	60	6408
2026-01-05 19:39:43.44	330.88	11.07	-41.7	-42.8	21.7	0.00e+00	0	31	101	1048576	60	6732
2026-01-05 19:39:44.45	330.72	11.03	-42.0	-43.2	21.4	0.00e+00	0	31	101	1048576	60	7016
2026-01-05 19:39:45.46	330.55	10.98	-42.6	-43.9	20.9	0.00e+00	0	31	101	1048576	60	7627
2026-01-05 19:39:46.47	330.39	10.94	-42.7	-44.0	20.7	0.00e+00	0	32	101	1048576	60	7689
2026-01-05 19:39:47.49	330.22	10.90	-43.2	-44.5	20.2	0.00e+00	0	31	101	1048576	60	8205
2026-01-05 19:39:48.50	330.06	10.85	-43.2	-44.6	20.2	0.00e+00	0	32	101	1048576	60	8236
2026-01-05 19:39:49.51	329.90	10.81	-43.0	-44.3	20.4	0.00e+00	0	32	101	1048576	60	8032
2026-01-05 19:39:50.52	329.74	10.76	-42.9	-44.2	20.5	0.00e+00	0	31	101	1048576	60	7880
2026-01-05 19:39:51.53	329.58	10.72	-42.6	-43.8	21.0	0.00e+00	0	32	101	1048576	60	7556
2026-01-05 19:39:52.54	329.42	10.67	-42.3	-43.6	21.1	0.00e+00	0	31	101	1048576	60	7338
2026-01-05 19:39:53.55	329.26	10.63	-42.0	-43.1	21.4	0.00e+00	0	31	101	1048576	60	6990
2026-01-05 19:39:54.56	329.10	10.58	-42.2	-43.4	21.2	0.00e+00	0	32	101	1048576	60	7230
2026-01-05 19:39:55.57	328.94	10.54	-42.1	-43.3	21.3	0.00e+00	0	31	101	1048576	60	7093
2026-01-05 19:39:56.59	328.78	10.49	-42.2	-43.4	21.3	0.00e+00	0	32	101	1048576	60	7187
2026-01-05 19:39:57.60	328.62	10.45	-42.6	-43.8	20.8	0.00e+00	0	31	101	1048576	60	7594
2026-01-05 19:39:58.61	328.46	10.40	-42.9	-44.2	20.4	0.00e+00	0	32	101	1048576	60	7908
2026-01-05 19:39:59.62	328.30	10.36	-43.6	-45.1	19.8	0.00e+00	0	31	101	1048576	60	8798
2026-01-05 19:40:00.63	328.15	10.31	-44.1	-45.7	19.0	0.00e+00	0	31	101	1048576	60	9423
2026-01-05 19:40:01.64	327.99	10.27	-44.4	-46.1	18.7	0.00e+00	0	32	101	1048576	60	9893
2026-01-05 19:40:02.65	327.84	10.22	-44.5	-46.2	18.5	0.00e+00	0	31	101	1048576	60	9918
2026-01-05 19:40:03.66	327.68	10.17	-44.9	-46.7	18.0	0.00e+00	0	31	101	1048576	60	10595
2026-01-05 19:40:04.67	327.53	10.13	-44.7	-46.4	18.4	0.00e+00	0	32	101	1048576	60	10238
2026-01-05 19:40:05.69	327.37	10.08	-44.4	-46.1	18.7	0.00e+00	0	31	101	1048576	60	9796
2026-01-05 19:40:06.70	327.22	10.03	-44.1	-45.6	19.2	0.00e+00	0	31	101	1048576	60	9325
2026-01-05 19:40:07.71	327.06	9.99	-44.1	-45.7	19.2	0.00e+00	0	31	101	1048576	60	9382
2026-01-05 19:40:08.72	326.91	9.94	-43.7	-45.2	19.5	0.00e+00	0	31	101	1048576	60	8906
2026-01-05 19:40:09.73	326.76	9.89	-43.8	-45.3	19.5	0.00e+00	0	31	101	1048576	60	8936
2026-01-05 19:40:10.74	326.61	9.85	-43.8	-45.3	19.5	0.00e+00	0	32	101	1048576	60	8934
2026-01-05 19:40:11.75	326.46	9.80	-43.7	-45.1	19.5	0.00e+00	0	31	101	1048576	60	8773
2026-01-05 19:40:12.76	326.31	9.75	-43.4	-44.8	19.9	0.00e+00	0	31	101	1048576	60	8514
2026-01-05 19:40:13.77	326.16	9.71	-43.5	-44.9	19.9	0.00e+00	0	31	101	1048576	60	8554
2026-01-05 19:40:14.79	326.01	9.66	-43.4	-44.8	20.0	0.00e+00	0	31	101	1048576	60	8437
2026-01-05 19:40:15.80	325.86	9.61	-43.3	-44.7	20.2	0.00e+00	0	32	101	1048576	60	8358
2026-01-05 19:40:16.81	325.71	9.56	-43.1	-44.4	20.3	0.00e+00	0	31	101	1048576	60	8131
2026-01-05 19:40:17.82	325.56	9.52	-43.2	-44.5	20.2	0.00e+00	0	31	101	1048576	60	8203
2026-01-05 19:40:18.83	325.41	9.47	-42.8	-44.1	20.5	0.00e+00	0	31	101	1048576	60	7826
2026-01-05 19:40:19.84	325.26	9.42	-42.8	-44.1	20.6	0.00e+00	0	32	101	1048576	60	7829
2026-01-05 19:40:20.85	325.12	9.37	-42.8	-44.1	20.6	0.00e+00	0	32	101	1048576	60	7822
2026-01-05 19:40:21.86	324.97	9.33	-42.9	-44.2	20.4	0.00e+00	0	31	101	1048576	60	7941
2026-01-05 19:40:22.87	324.83	9.28	-43.0	-44.3	20.4	0.00e+00	0	31	101	1048576	60	7995
2026-01-05 19:40:23.88	324.68	9.23	-42.8	-44.1	20.3	0.00e+00	0	31	101	1048576	60	7837
2026-01-05 19:40:24.90	324.53	9.18	-42.8	-44.0	20.6	0.00e+00	0	31	101	1048576	60	7765
2026-01-05 19:40:25.91	324.39	9.13	-42.6	-43.8	20.7	0.00e+00	0	31	101	1048576	60	7562
2026-01-05 19:40:26.92	324.25	9.08	-42.5	-43.7	21.0	0.00e+00	0	31	101	1048576	60	7503
2026-01-05 19:40:27.93	324.10	9.04	-42.3	-43.4	21.1	0.00e+00	0	32	101	1048576	60	7250
2026-01-05 19:40:28.94	323.96	8.99	-42.3	-43.5	21.0	0.00e+00	0	31	101	1048576	60	7293
2026-01-05 19:40:29.95	323.82	8.94	-42.3	-43.5	21.1	0.00e+00	0	31	101	1048576	60	7290
2026-01-05 19:40:30.96	323.68	8.89	-42.0	-43.2	21.3	0.00e+00	0	31	101	1048576	60	7049
2026-01-05 19:40:31.97	323.54	8.84	-42.0	-43.2	21.3	0.00e+00	0	31	101	1048576	60	7041
2026-01-05 19:40:32.98	323.39	8.79	-42.0	-43.2	21.4	0.00e+00	0	31	101	1048576	60	7057
2026-01-05 19:40:33.99	323.25	8.74	-41.9	-43.0	21.5	0.00e+00	0	31	101	1048576	60	6881
2026-01-05 19:40:35.01	323.11	8.69	-42.1	-43.3	21.3	0.00e+00	0	32	101	1048576	60	7098
2026-01-05 19:40:36.02	322.97	8.65	-42.0	-43.2	21.3	0.00e+00	0	32	101	1048576	60	7010
2026-01-05 19:40:37.03	322.83	8.60	-42.1	-43.3	21.3	0.00e+00	0	31	101	1048576	60	7123
2026-01-05 19:40:38.04	322.70	8.55	-42.1	-43.3	21.2	0.00e+00	0	31	101	1048576	60	7149
2026-01-05 19:40:39.05	322.56	8.50	-42.2	-43.4	21.2	0.00e+00	0	32	101	1048576	60	7206
2026-01-05 19:40:40.06	322.42	8.45	-42.2	-43.4	21.1	0.00e+00	0	31	101	1048576	60	7201
2026-01-05 19:40:41.07	322.28	8.40	-42.4	-43.6	20.8	0.00e+00	0	32	101	1048576	60	7415
2026-01-05 19:40:42.09	322.15	8.35	-42.5	-43.8	20.8	0.00e+00	0	31	101	1048576	60	7544
2026-01-05 19:40:43.10	322.01	8.30	-42.5	-43.7	20.8	0.00e+00	0	31	101	1048576	60	7502
2026-01-05 19:40:44.11	321.87	8.25	-42.5	-43.8	20.8	0.00e+00	0	31	101	1048576	60	7538
2026-01-05 19:40:45.12	321.74	8.20	-42.6	-43.8	20.7	0.00e+00	0	32	101	1048576	60	7594
2026-01-05 19:40:46.13	321.60	8.15	-42.5	-43.7	20.7	0.00e+00	0	31	101	1048576	60	7489
2026-01-05 19:40:47.14	321.47	8.10	-42.6	-43.8	20.6	0.00e+00	0	31	101	1048576	60	7585
2026-01-05 19:40:48.15	321.34	8.05	-42.5	-43.8	20.8	0.00e+00	0	31	101	1048576	60	7520
2026-01-05 19:40:49.16	321.20	8.00	-42.5	-43.7	20.8	0.00e+00	0	32	101	1048576	60	7499
2026-01-05 19:40:50.17	321.07	7.95	-42.2	-43.4	21.0	0.00e+00	0	31	101	1048576	60	7213
2026-01-05 19:40:51.19	320.94	7.90	-42.5	-43.8	20.8	0.00e+00	0	31	101	1048576	60	7538
2026-01-05 19:40:52.20	320.81	7.85	-42.4	-43.6	20.8	0.00e+00	0	31	101	1048576	60	7372
2026-01-05 19:40:53.21	320.67	7.80	-42.5	-43.8	20.7	0.00e+00	0	31	101	1048576	60	7556
2026-01-05 19:40:54.22	320.54	7.75	-42.5	-43.8	20.8	0.00e+00	0	31	101	1048576	60	7516
2026-01-05 19:40:55.23	320.41	7.70	-42.3	-43.5	21.0	0.00e+00	0	31	101	1048576	60	7315
2026-01-05 19:40:56.24	320.28	7.65	-42.4	-43.6	20.9	0.00e+00	0	31	101	1048576	60	7408
2026-01-05 19:40:57.25	320.15	7.60	-42.2	-43.4	21.1	0.00e+00	0	31	101	1048576	60	7227
2026-01-05 19:40:58.26	320.02	7.55	-42.1	-43.3	21.3	0.00e+00	0	31	101	1048576	60	7111
2026-01-05 19:40:59.28	319.89	7.50	-41.8	-43.0	21.4	0.00e+00	0	32	101	1048576	60	6857
2026-01-05 19:41:00.29	319.77	7.45	-41.4	-42.5	21.9	0.00e+00	0	31	101	1048576	60	6469
2026-01-05 19:41:01.30	319.64	7.40	-41.3	-42.4	22.0	0.00e+00	0	31	101	1048576	60	6404
2026-01-05 19:41:02.31	319.51	7.35	-41.2	-42.2	22.0	0.00e+00	0	31	101	1048576	60	6316
2026-01-05 19:41:03.32	319.38	7.30	-41.2	-42.2	22.0	0.00e+00	0	31	101	1048576	60	6305
2026-01-05 19:41:04.33	319.26	7.25	-41.4	-42.5	21.9	0.00e+00	0	32	101	1048576	60	6483
2026-01-05 19:41:05.34	319.13	7.20	-41.4	-42.5	21.8	0.00e+00	0	31	101	1048576	60	6517
2026-01-05 19:41:06.36	319.00	7.15	-41.3	-42.4	21.9	0.00e+00	0	31	101	1048576	60	6444
2026-01-05 19:41:07.37	318.88	7.10	-41.3	-42.4	21.9	0.00e+00	0	31	101	1048576	60	6437
2026-01-05 19:41:08.38	318.76	7.05	-41.3	-42.4	21.9	0.00e+00	0	31	101	1048576	60	6447
2026-01-05 19:41:09.39	318.63	7.00	-41.5	-42.7	21.8	0.00e+00	0	31	101	1048576	60	6623
2026-01-05 19:41:10.40	318.51	6.95	-41.4	-42.5	21.7	0.00e+00	0	31	101	1048576	60	6525
2026-01-05 19:41:11.41	318.38	6.90	-41.6	-42.7	21.6	0.00e+00	0	31	101	1048576	60	6635
2026-01-05 19:41:12.42	318.26	6.85	-41.5	-42.7	21.6	0.00e+00	0	31	101	1048576	60	6627
2026-01-05 19:41:13.44	318.14	6.79	-41.5	-42.6	21.7	0.00e+00	0	31	101	1048576	60	6546
2026-01-05 19:41:14.45	318.02	6.74	-41.3	-42.3	21.9	0.00e+00	0	31	101	1048576	60	6388
2026-01-05 19:41:15.46	317.89	6.69	-41.2	-42.3	21.9	0.00e+00	0	31	101	1048576	60	6356
2026-01-05 19:41:16.47	317.77	6.64	-41.1	-42.1	22.0	0.00e+00	0	31	101	1048576	60	6243
2026-01-05 19:41:17.48	317.65	6.59	-41.0	-42.1	22.0	0.00e+00	0	31	101	1048576	60	6209
2026-01-05 19:41:18.49	317.53	6.54	-41.2	-42.3	21.9	0.00e+00	0	31	101	1048576	60	6327
2026-01-05 19:41:19.50	317.41	6.49	-41.2	-42.2	22.0	0.00e+00	0	31	101	1048576	60	6307
2026-01-05 19:41:20.51	317.29	6.44	-41.4	-42.5	21.8	0.00e+00	0	32	101	1048576	60	6498
2026-01-05 19:41:21.52	317.17	6.39	-41.5	-42.6	21.6	0.00e+00	0	31	101	1048576	60	6564
2026-01-05 19:41:22.54	317.05	6.34	-41.5	-42.7	21.6	0.00e+00	0	31	101	1048576	60	6630
2026-01-05 19:41:23.55	316.94	6.29	-41.7	-42.8	21.6	0.00e+00	0	31	101	1048576	60	6749
2026-01-05 19:41:24.56	316.82	6.24	-41.6	-42.7	21.5	0.00e+00	0	31	101	1048576	60	6678
2026-01-05 19:41:25.57	316.70	6.19	-42.0	-43.2	21.1	0.00e+00	0	31	101	1048576	60	7069
2026-01-05 19:41:26.58	316.58	6.13	-41.9	-43.1	21.2	0.00e+00	0	31	101	1048576	60	6955
2026-01-05 19:41:27.59	316.47	6.08	-42.0	-43.2	21.2	0.00e+00	0	31	101	1048576	60	7048
2026-01-05 19:41:28.60	316.35	6.03	-42.0	-43.2	21.1	0.00e+00	0	31	101	1048576	60	7026
2026-01-05 19:41:29.61	316.24	5.98	-42.1	-43.3	21.1	0.00e+00	0	31	101	1048576	60	7117
2026-01-05 19:41:30.62	316.12	5.93	-42.1	-43.3	21.0	0.00e+00	0	31	101	1048576	60	7167
2026-01-05 19:41:31.63	316.01	5.88	-42.1	-43.4	21.0	0.00e+00	0	31	101	1048576	60	7196
2026-01-05 19:41:32.65	315.89	5.83	-42.1	-43.3	21.0	0.00e+00	0	31	101	1048576	60	7128
2026-01-05 19:41:33.66	315.78	5.78	-42.1	-43.4	20.9	0.00e+00	0	31	101	1048576	60	7184
2026-01-05 19:41:34.67	315.66	5.73	-42.1	-43.3	20.9	0.00e+00	0	31	101	1048576	60	7152
2026-01-05 19:41:35.68	315.55	5.68	-42.1	-43.4	20.9	0.00e+00	0	31	101	1048576	60	7199
2026-01-05 19:41:36.69	315.44	5.63	-42.2	-43.4	20.7	0.00e+00	0	31	101	1048576	60	7238
2026-01-05 19:41:37.70	315.33	5.57	-42.1	-43.4	20.5	0.00e+00	0	31	101	1048576	60	7203
2026-01-05 19:41:38.71	315.21	5.52	-42.1	-43.3	20.8	0.00e+00	0	31	101	1048576	60	7122
2026-01-05 19:41:39.72	315.10	5.47	-42.2	-43.4	20.8	0.00e+00	0	31	101	1048576	60	7241
2026-01-05 19:41:40.74	314.99	5.42	-42.3	-43.6	20.8	0.00e+00	0	31	101	1048576	60	7365
2026-01-05 19:41:41.75	314.88	5.37	-42.3	-43.5	20.8	0.00e+00	0	31	101	1048576	60	7313
2026-01-05 19:41:42.75	314.77	5.32	-42.2	-43.5	20.8	0.00e+00	0	31	101	1048576	60	7306
2026-01-05 19:41:43.77	314.66	5.27	-42.1	-43.4	20.8	0.00e+00	0	31	101	1048576	60	7196
2026-01-05 19:41:44.78	314.55	5.22	-42.2	-43.4	20.5	0.00e+00	0	32	101	1048576	60	7220
2026-01-05 19:41:45.79	314.44	5.17	-41.9	-43.1	20.5	0.00e+00	0	31	101	1048576	60	6981
2026-01-05 19:41:46.80	314.33	5.11	-41.9	-43.1	20.9	0.00e+00	0	31	101	1048576	60	6961
2026-01-05 19:41:47.81	314.22	5.06	-41.6	-42.8	21.4	0.00e+00	0	31	101	1048576	60	6712
2026-01-05 19:41:48.82	314.12	5.01	-41.8	-42.9	21.1	0.00e+00	0	31	101	1048576	60	6845
2026-01-05 19:41:49.83	314.01	4.96	-41.9	-43.1	21.1	0.00e+00	0	31	101	1048576	60	6951
2026-01-05 19:41:50.84	313.90	4.91	-41.9	-43.1	21.0	0.00e+00	0	32	101	1048576	60	6949
2026-01-05 19:41:51.86	313.79	4.86	-42.2	-43.5	20.6	0.00e+00	0	32	101	1048576	60	7293
2026-01-05 19:41:52.87	313.69	4.81	-42.0	-43.3	20.7	0.00e+00	0	32	101	1048576	60	7099
2026-01-05 19:41:53.88	313.58	4.76	-41.7	-42.8	21.2	0.00e+00	0	31	101	1048576	60	6767
2026-01-05 19:41:54.89	313.47	4.71	-41.8	-43.0	21.1	7.00e-07	0	31	101	1048576	60	6874
2026-01-05 19:41:55.90	313.37	4.66	-42.3	-43.6	20.6	7.00e-07	0	31	101	1048576	60	7344
2026-01-05 19:41:56.91	313.26	4.60	-42.1	-43.4	20.8	0.00e+00	0	31	101	1048576	60	7200
2026-01-05 19:41:57.92	313.16	4.55	-42.4	-43.7	20.5	0.00e+00	0	31	101	1048576	60	7457
2026-01-05 19:41:58.94	313.05	4.50	-42.5	-43.8	20.3	0.00e+00	0	31	101	1048576	60	7557
2026-01-05 19:41:59.95	312.95	4.45	-42.6	-44.0	20.3	0.00e+00	0	31	101	1048576	60	7701
2026-01-05 19:42:00.96	312.85	4.40	-43.0	-44.4	19.9	0.00e+00	0	31	101	1048576	60	8071
2026-01-05 19:42:01.97	312.74	4.35	-43.0	-44.5	19.8	0.00e+00	0	31	101	1048576	60	8150
2026-01-05 19:42:02.98	312.64	4.30	-43.1	-44.6	19.6	0.00e+00	0	31	101	1048576	60	8268
2026-01-05 19:42:03.99	312.54	4.25	-43.1	-44.6	19.5	0.00e+00	0	31	101	1048576	60	8300
2026-01-05 19:42:05.00	312.44	4.20	-43.3	-44.8	19.6	0.00e+00	0	31	101	1048576	60	8462
2026-01-05 19:42:06.01	312.34	4.15	-42.9	-44.4	19.7	0.00e+00	0	31	101	1048576	60	8058
2026-01-05 19:42:07.03	312.23	4.10	-42.2	-43.5	20.6	0.00e+00	0	31	101	1048576	60	7310
2026-01-05 19:42:08.04	312.13	4.04	-42.3	-43.6	20.5	0.00e+00	0	31	101	1048576	60	7339
2026-01-05 19:42:09.05	312.03	3.99	-41.9	-43.2	20.9	0.00e+00	0	31	101	1048576	60	7011
2026-01-05 19:42:10.06	311.93	3.94	-42.0	-43.2	20.8	0.00e+00	0	32	101	1048576	60	7085
2026-01-05 19:42:11.07	311.83	3.89	-41.9	-43.2	20.8	0.00e+00	0	31	101	1048576	60	7031
2026-01-05 19:42:12.08	311.73	3.84	-41.8	-43.0	21.0	0.00e+00	0	31	101	1048576	60	6909
2026-01-05 19:42:13.09	311.63	3.79	-42.0	-43.3	20.7	0.00e+00	0	31	101	1048576	60	7122
2026-01-05 19:42:14.10	311.54	3.74	-41.7	-42.9	21.0	0.00e+00	0	31	101	1048576	60	6812
2026-01-05 19:42:15.12	311.44	3.69	-41.7	-42.9	21.1	0.00e+00	0	31	101	1048576	60	6783
2026-01-05 19:42:16.13	311.34	3.64	-41.8	-43.0	21.0	0.00e+00	0	31	101	1048576	60	6876
2026-01-05 19:42:17.14	311.24	3.59	-41.8	-43.0	21.0	0.00e+00	0	31	101	1048576	60	6871
2026-01-05 19:42:18.15	311.14	3.54	-41.6	-42.8	21.0	0.00e+00	0	31	101	1048576	60	6708
2026-01-05 19:42:19.16	311.05	3.49	-42.1	-43.4	20.4	0.00e+00	0	32	101	1048576	60	7193
2026-01-05 19:42:20.17	310.95	3.43	-42.0	-43.3	20.6	0.00e+00	0	31	101	1048576	60	7100
2026-01-05 19:42:21.18	310.85	3.38	-42.3	-43.6	20.4	0.00e+00	0	31	101	1048576	60	7360
2026-01-05 19:42:22.20	310.76	3.33	-42.5	-43.8	20.1	0.00e+00	0	31	101	1048576	60	7572
2026-01-05 19:42:23.21	310.66	3.28	-42.7	-44.2	19.8	0.00e+00	0	32	101	1048576	60	7864
2026-01-05 19:42:24.22	310.57	3.23	-42.8	-44.2	19.6	0.00e+00	0	32	101	1048576	60	7947
2026-01-05 19:42:25.23	310.47	3.18	-43.1	-44.6	19.4	0.00e+00	0	31	101	1048576	60	8307
2026-01-05 19:42:26.24	310.38	3.13	-43.2	-44.7	19.4	0.00e+00	0	32	101	1048576	60	8393
2026-01-05 19:42:27.25	310.28	3.08	-43.5	-45.2	19.0	0.00e+00	0	31	101	1048576	60	8839
2026-01-05 19:42:28.26	310.19	3.03	-50.5	-65.8	3.6	1.51e+00	0	32	104	1048576	60	95131
2026-01-05 19:42:29.27	310.10	2.98	-50.9	-66.2	3.6	1.51e+00	0	32	104	1048576	60	99909
2026-01-05 19:42:30.28	310.00	2.93	-51.1	-66.4	3.6	1.51e+00	0	32	104	1048576	60	101841
2026-01-05 19:42:31.29	309.91	2.88	-51.2	-66.5	3.6	1.51e+00	0	32	104	1048576	60	103087
2026-01-05 19:42:32.30	309.82	2.83	-51.3	-66.6	3.6	1.51e+00	0	32	104	1048576	60	103840
2026-01-05 19:42:33.31	309.72	2.78	-51.3	-66.6	3.6	1.51e+00	0	32	104	1048576	60	104467
2026-01-05 19:42:34.32	309.63	2.73	-51.3	-66.7	3.6	1.51e+00	0	32	104	1048576	60	105265
2026-01-05 19:42:35.34	309.54	2.68	-51.3	-66.7	3.6	1.51e+00	0	32	104	1048576	60	104857
2026-01-05 19:42:36.35	309.45	2.63	-51.3	-66.6	3.6	1.51e+00	0	32	104	1048576	60	104599
2026-01-05 19:42:37.36	309.36	2.58	-51.3	-66.6	3.6	1.51e+00	0	32	104	1048576	60	104302
2026-01-05 19:42:38.37	309.27	2.53	-51.2	-66.5	3.6	1.51e+00	0	32	104	1048576	60	103576
2026-01-05 19:42:39.38	309.18	2.48	-51.2	-66.5	3.6	1.51e+00	0	32	104	1048576	60	102782
2026-01-05 19:42:40.39	309.09	2.43	-51.2	-66.5	3.6	1.51e+00	0	32	104	1048576	60	102794
2026-01-05 19:42:41.40	309.00	2.37	-51.1	-66.5	3.6	1.51e+00	0	32	104	1048576	60	102979
2026-01-05 19:42:42.41	308.91	2.32	-51.1	-66.5	3.6	1.51e+00	0	32	104	1048576	60	102490
2026-01-05 19:42:43.42	308.82	2.27	-51.1	-66.4	3.6	1.51e+00	0	32	104	1048576	60	102243
2026-01-05 19:42:44.43	308.73	2.22	-51.2	-66.5	3.6	1.51e+00	0	32	104	1048576	60	102978
2026-01-05 19:42:45.44	308.64	2.17	-51.2	-66.5	3.6	1.51e+00	0	32	104	1048576	60	103139
2026-01-05 19:42:46.46	308.55	2.12	-51.2	-66.5	3.6	1.51e+00	0	32	104	1048576	60	102928
