passes_logs/2026/01/05/R4.6S_Anadyr_2ch/R4.6S_Anadyr_2ch__20260105_035506_AQUA_rec.log

#Pass ID: 20260105_035506_AQUA
#Satellite: AQUA
#Configuration: AQUA
#almurnet v.1.7.20251203
#Start time: 2026-01-05 03:55:08

#Version: 2.2.20231116
#Station: R4.6S_Anadyr_2ch
#Location: 177.4865 lon 64.73178 lat
#TLE: 1 27424U 02022A   25351.00450321  .00000925  00000+0  19503-3 0  9992
#TLE: 2 27424  98.4041 311.9529 0001248 113.7180 322.1616 14.61819266256652

#Time	Az	El	Level	Level2	SNR	BER	BlckErr	Temp	State	Recorded	gain1	gain2
2026-01-05 03:55:08.98	210.86	0.14	-51.1	-62.1	3.4	8.44e-01	0	22	0	0	60	62507
2026-01-05 03:55:09.99	210.94	0.19	-51.8	-69.5	3.5	3.04e+01	0	23	104	0	60	155338
2026-01-05 03:55:11.00	211.01	0.24	-52.3	-70.1	3.5	3.04e+01	0	23	104	0	60	165406
2026-01-05 03:55:12.01	211.09	0.30	-52.8	-70.6	3.5	3.04e+01	0	23	104	0	60	175276
2026-01-05 03:55:13.02	211.16	0.35	-51.7	-69.5	3.5	3.04e+01	0	23	104	0	60	155773
2026-01-05 03:55:14.03	211.24	0.41	-52.4	-70.2	3.5	3.04e+01	0	23	104	0	60	167418
2026-01-05 03:55:15.04	211.31	0.46	-51.6	-69.4	3.5	3.04e+01	0	23	104	0	60	153162
2026-01-05 03:55:16.05	211.39	0.51	-51.7	-69.5	3.5	3.04e+01	0	23	104	0	60	154807
2026-01-05 03:55:17.06	211.47	0.57	-51.7	-69.6	3.5	3.04e+01	0	23	104	0	60	156155
2026-01-05 03:55:18.07	211.54	0.62	-51.8	-69.5	3.5	3.04e+01	0	23	104	0	60	155713
2026-01-05 03:55:19.09	211.62	0.68	-51.8	-69.6	3.5	3.04e+01	0	23	104	0	60	156962
2026-01-05 03:55:20.10	211.70	0.73	-52.6	-70.4	3.5	3.04e+01	0	23	104	0	60	172326
2026-01-05 03:55:21.11	211.78	0.79	-52.4	-70.3	3.5	3.04e+01	0	24	104	0	60	169608
2026-01-05 03:55:22.12	211.86	0.84	-52.4	-70.2	3.5	3.04e+01	0	24	104	0	60	167969
2026-01-05 03:55:23.13	211.93	0.90	-51.8	-69.6	3.5	3.04e+01	0	23	104	0	60	156117
2026-01-05 03:55:24.14	212.01	0.95	-51.8	-69.6	3.5	3.04e+01	0	24	104	0	60	156262
2026-01-05 03:55:25.15	212.09	1.01	-51.7	-69.6	3.5	3.04e+01	0	24	104	0	60	155897
2026-01-05 03:55:26.16	212.17	1.06	-52.6	-70.3	3.5	3.04e+01	0	24	104	0	60	170574
2026-01-05 03:55:27.17	212.25	1.12	-52.3	-70.2	3.5	3.04e+01	0	23	104	0	60	167281
2026-01-05 03:55:28.18	212.33	1.17	-51.9	-69.7	3.5	3.04e+01	0	23	104	0	60	159507
2026-01-05 03:55:29.20	212.41	1.23	-52.0	-69.8	3.5	3.04e+01	0	24	104	0	60	159621
2026-01-05 03:55:30.21	212.49	1.28	-53.3	-71.0	3.5	3.04e+01	0	24	104	0	60	184979
2026-01-05 03:55:31.22	212.57	1.34	-52.3	-70.2	3.5	3.04e+01	0	24	104	0	60	167180
2026-01-05 03:55:32.23	212.66	1.39	-52.6	-70.5	3.5	3.04e+01	0	24	104	0	60	173300
2026-01-05 03:55:33.24	212.74	1.45	-52.6	-70.3	3.5	3.04e+01	0	24	104	0	60	170239
2026-01-05 03:55:34.25	212.82	1.51	-52.8	-70.6	3.5	3.04e+01	0	24	104	0	60	175913
2026-01-05 03:55:35.26	212.90	1.56	-52.0	-69.8	3.5	3.04e+01	0	24	104	0	60	159921
2026-01-05 03:55:36.27	212.98	1.62	-52.6	-70.4	3.5	3.04e+01	0	24	104	0	60	171690
2026-01-05 03:55:37.28	213.07	1.67	-52.0	-69.8	3.5	3.04e+01	0	24	104	0	60	159794
2026-01-05 03:55:38.29	213.15	1.73	-52.1	-69.9	3.5	3.04e+01	0	24	104	0	60	161693
2026-01-05 03:55:39.31	213.23	1.78	-52.3	-70.1	3.5	3.04e+01	0	24	104	0	60	166184
2026-01-05 03:55:40.32	213.32	1.84	-51.6	-69.4	3.5	3.04e+01	0	24	104	0	60	152595
2026-01-05 03:55:41.33	213.40	1.90	-52.5	-70.3	3.5	3.04e+01	0	24	104	0	60	170109
2026-01-05 03:55:42.34	213.49	1.95	-52.3	-70.1	3.5	3.04e+01	0	24	104	0	60	165166
2026-01-05 03:55:43.35	213.57	2.01	-52.8	-70.5	3.5	3.04e+01	0	24	104	0	60	174702
2026-01-05 03:55:44.36	213.66	2.07	-52.5	-70.3	3.5	3.04e+01	0	24	104	0	60	169685
2026-01-05 03:55:45.37	213.74	2.12	-52.6	-70.3	3.5	3.04e+01	0	24	104	0	60	170663
2026-01-05 03:55:46.38	213.83	2.18	-52.0	-69.8	3.5	3.04e+01	0	24	104	0	60	159802
2026-01-05 03:55:47.39	213.91	2.24	-52.4	-70.3	3.5	3.04e+01	0	24	104	0	60	169126
2026-01-05 03:55:48.40	214.00	2.29	-53.6	-71.4	3.5	3.04e+01	0	24	104	0	60	192180
2026-01-05 03:55:49.41	214.09	2.35	-53.0	-70.8	3.5	3.04e+01	0	24	104	0	60	179693
2026-01-05 03:55:50.42	214.18	2.41	-53.2	-71.0	3.5	3.04e+01	0	24	104	0	60	184856
2026-01-05 03:55:51.43	214.26	2.46	-53.5	-71.3	3.5	3.04e+01	0	24	104	0	60	189827
2026-01-05 03:55:52.44	214.35	2.52	-52.6	-70.4	3.5	3.04e+01	0	24	104	0	60	171374
2026-01-05 03:55:53.45	214.44	2.58	-52.3	-70.1	3.5	3.04e+01	0	24	104	0	60	165668
2026-01-05 03:55:54.47	214.53	2.63	-53.2	-71.0	3.5	3.04e+01	0	24	104	0	60	184356
2026-01-05 03:55:55.48	214.62	2.69	-53.2	-71.0	3.5	3.04e+01	0	24	104	0	60	184558
2026-01-05 03:55:56.49	214.71	2.75	-52.9	-70.6	3.5	3.04e+01	0	24	104	0	60	175355
2026-01-05 03:55:57.50	214.80	2.81	-52.9	-70.7	3.5	3.04e+01	0	24	104	0	60	177299
2026-01-05 03:55:58.51	214.89	2.86	-52.4	-70.2	3.5	3.04e+01	0	24	104	0	60	168385
2026-01-05 03:55:59.52	214.98	2.92	-51.7	-69.5	3.5	3.04e+01	0	24	104	0	60	155353
2026-01-05 03:56:00.53	215.07	2.98	-52.1	-70.1	3.5	3.04e+01	0	24	104	0	60	166130
2026-01-05 03:56:01.54	215.16	3.04	-52.7	-70.4	3.5	3.04e+01	0	24	104	0	60	172648
2026-01-05 03:56:02.55	215.25	3.09	-51.8	-70.0	3.5	3.04e+01	0	24	104	0	60	164346
2026-01-05 03:56:03.56	215.34	3.15	-51.8	-69.7	3.5	3.04e+01	0	24	104	0	60	157941
2026-01-05 03:56:04.57	215.44	3.21	-51.8	-69.8	3.5	3.04e+01	0	24	104	0	60	161166
2026-01-05 03:56:05.59	215.53	3.27	-51.8	-69.8	3.5	3.04e+01	0	24	104	0	60	160872
2026-01-05 03:56:06.60	215.62	3.33	-51.8	-69.7	3.5	3.04e+01	0	24	104	0	60	158781
2026-01-05 03:56:07.61	215.72	3.39	-51.5	-69.3	3.5	3.04e+01	0	24	104	0	60	151648
2026-01-05 03:56:08.62	215.81	3.44	-51.3	-69.1	3.5	3.04e+01	0	24	104	0	60	148757
2026-01-05 03:56:09.63	215.91	3.50	-51.4	-69.2	3.5	3.04e+01	0	24	104	0	60	149263
2026-01-05 03:56:10.64	216.00	3.56	-51.3	-69.2	3.5	3.04e+01	0	24	104	0	60	149140
2026-01-05 03:56:11.65	216.10	3.62	-51.2	-69.0	3.5	3.04e+01	0	24	104	0	60	147073
2026-01-05 03:56:12.66	216.19	3.68	-51.2	-69.1	3.5	3.04e+01	0	24	104	0	60	147557
2026-01-05 03:56:13.67	216.29	3.74	-50.9	-68.9	3.5	3.04e+01	0	24	104	0	60	144195
2026-01-05 03:56:14.68	216.38	3.80	-50.4	-68.7	3.5	3.04e+01	0	24	104	0	60	141779
2026-01-05 03:56:15.70	216.48	3.85	-50.1	-68.3	3.5	3.04e+01	0	24	104	0	60	135756
2026-01-05 03:56:16.71	216.58	3.91	-50.0	-67.9	3.5	3.04e+01	0	24	104	0	60	128592
2026-01-05 03:56:17.72	216.68	3.97	-50.0	-67.8	3.5	3.04e+01	0	24	104	0	60	127186
2026-01-05 03:56:18.73	216.77	4.03	-50.0	-67.7	3.5	3.04e+01	0	24	104	0	60	126172
2026-01-05 03:56:19.74	216.87	4.09	-49.9	-67.6	3.5	3.04e+01	0	24	104	0	60	125132
2026-01-05 03:56:20.75	216.97	4.15	-50.0	-67.7	3.5	3.04e+01	0	24	104	0	60	126230
2026-01-05 03:56:21.76	217.07	4.21	-50.1	-67.8	3.5	3.04e+01	0	24	104	0	60	126932
2026-01-05 03:56:22.77	217.17	4.27	-50.1	-68.0	3.5	3.04e+01	0	24	104	0	60	130504
2026-01-05 03:56:23.78	217.27	4.33	-50.1	-68.0	3.5	3.04e+01	0	24	104	0	60	130568
2026-01-05 03:56:24.80	217.37	4.39	-50.5	-68.3	3.4	3.04e+01	0	24	104	0	60	134493
2026-01-05 03:56:25.81	217.47	4.45	-50.3	-68.1	3.5	3.04e+01	0	24	104	0	60	131393
2026-01-05 03:56:26.82	217.57	4.51	-50.1	-67.8	3.6	3.04e+01	0	24	104	0	60	128002
2026-01-05 03:56:27.83	217.68	4.57	-50.2	-67.9	3.5	3.04e+01	0	24	104	0	60	129148
2026-01-05 03:56:28.84	217.78	4.63	-50.3	-68.0	3.5	3.04e+01	0	24	104	0	60	129963
2026-01-05 03:56:29.85	217.88	4.69	-50.3	-67.9	3.5	3.04e+01	0	24	104	0	60	128611
2026-01-05 03:56:30.86	217.98	4.75	-50.4	-68.2	3.5	3.04e+01	0	24	104	0	60	134209
2026-01-05 03:56:31.87	218.09	4.81	-50.5	-68.3	3.5	3.04e+01	0	24	104	0	60	135631
2026-01-05 03:56:32.88	218.19	4.87	-50.4	-68.2	3.5	3.04e+01	0	24	104	0	60	134096
2026-01-05 03:56:33.89	218.30	4.93	-50.3	-68.1	3.5	3.04e+01	0	24	104	0	60	131538
2026-01-05 03:56:34.90	218.40	4.99	-50.2	-68.0	3.5	3.04e+01	0	24	104	0	60	130240
2026-01-05 03:56:35.92	218.51	5.05	-50.2	-67.9	3.5	3.04e+01	0	24	104	0	60	128745
2026-01-05 03:56:36.93	218.61	5.11	-50.2	-68.0	3.5	3.04e+01	0	24	104	0	60	130188
2026-01-05 03:56:37.94	218.72	5.17	-50.1	-67.8	3.5	3.04e+01	0	24	104	0	60	127301
2026-01-05 03:56:38.95	218.83	5.23	-50.0	-67.8	3.5	3.04e+01	0	24	104	0	60	127105
2026-01-05 03:56:39.96	218.93	5.29	-50.1	-67.7	3.5	3.04e+01	0	24	104	0	60	125800
2026-01-05 03:56:40.97	219.04	5.35	-50.0	-67.7	3.5	3.04e+01	0	24	104	0	60	126440
2026-01-05 03:56:41.98	219.15	5.41	-50.1	-67.8	3.5	3.04e+01	0	24	104	0	60	127544
2026-01-05 03:56:42.99	219.26	5.47	-50.0	-67.6	3.5	3.04e+01	0	24	104	0	60	124541
2026-01-05 03:56:44.00	219.37	5.54	-50.0	-67.0	3.5	3.04e+01	0	24	104	0	60	116660
2026-01-05 03:56:45.01	219.48	5.60	-50.0	-67.1	3.5	3.04e+01	0	24	104	0	60	118112
2026-01-05 03:56:46.03	219.59	5.66	-50.0	-67.4	3.5	3.04e+01	0	24	104	0	60	121217
2026-01-05 03:56:47.04	219.70	5.72	-49.9	-67.1	3.5	3.04e+01	0	24	104	0	60	117395
2026-01-05 03:56:48.05	219.81	5.78	-49.8	-64.4	4.1	3.04e+01	0	24	104	0	60	86072
2026-01-05 03:56:49.06	219.92	5.84	-49.8	-63.8	4.4	3.04e+01	0	24	104	0	60	79945
2026-01-05 03:56:50.07	220.03	5.90	-49.8	-64.3	4.4	3.04e+01	0	24	104	0	60	85183
2026-01-05 03:56:51.08	220.15	5.97	-49.9	-64.9	3.7	3.04e+01	0	24	104	0	60	91077
2026-01-05 03:56:52.09	220.26	6.03	-50.0	-64.6	4.0	3.04e+01	0	24	104	0	60	88256
2026-01-05 03:56:53.10	220.37	6.09	-48.9	-56.0	11.9	3.04e+01	90	24	0	0	60	32594
2026-01-05 03:56:54.11	220.49	6.15	-47.4	-51.4	15.9	3.04e+01	90	24	0	2097152	60	19390
2026-01-05 03:56:55.12	220.60	6.21	-46.7	-50.2	17.0	3.04e+01	92	24	0	3670016	60	16836
2026-01-05 03:56:56.13	220.72	6.27	-46.4	-49.5	19.0	3.04e+01	90	24	0	5767168	60	15566
2026-01-05 03:56:57.15	220.83	6.34	-45.2	-47.7	19.7	3.04e+01	91	24	0	7340032	60	12660
2026-01-05 03:56:58.16	220.95	6.40	-50.2	-63.0	3.8	3.04e+01	35	24	104	9437184	60	73402
2026-01-05 03:56:59.17	221.07	6.46	-48.9	-55.6	11.8	3.04e+01	91	24	104	9437184	60	31139
2026-01-05 03:57:00.18	221.18	6.52	-48.5	-53.9	12.0	3.04e+01	92	24	0	11010048	60	25812
2026-01-05 03:57:01.19	221.30	6.59	-50.0	-63.3	3.7	3.04e+01	0	24	104	12582912	60	76256
2026-01-05 03:57:02.20	221.42	6.65	-41.7	-43.3	24.4	3.04e+01	90	24	0	12582912	60	7611
2026-01-05 03:57:03.21	221.54	6.71	-41.9	-43.6	24.0	3.04e+01	92	24	0	14680064	60	7871
2026-01-05 03:57:04.22	221.66	6.77	-41.9	-43.5	24.2	3.04e+01	92	24	0	16252928	60	7783
2026-01-05 03:57:05.23	221.78	6.84	-41.5	-43.1	24.3	3.04e+01	92	24	0	18350080	60	7452
2026-01-05 03:57:06.24	221.90	6.90	-41.2	-42.8	24.1	3.04e+01	92	24	0	20447232	60	7194
2026-01-05 03:57:07.25	222.02	6.96	-41.6	-43.1	24.9	3.04e+01	92	24	0	22020096	60	7457
2026-01-05 03:57:08.26	222.14	7.02	-42.3	-44.0	24.1	3.04e+01	91	24	0	24117248	60	8252
2026-01-05 03:57:09.28	222.26	7.09	-42.2	-43.8	24.2	3.04e+01	87	24	0	26214400	60	8059
2026-01-05 03:57:10.29	222.39	7.15	-41.1	-42.7	25.1	3.04e+01	90	24	0	27787264	60	7053
2026-01-05 03:57:11.30	222.51	7.21	-41.7	-43.3	24.7	3.04e+01	91	24	0	29884416	60	7600
2026-01-05 03:57:12.31	222.63	7.28	-41.5	-43.1	24.5	3.04e+01	92	24	0	31457280	60	7400
2026-01-05 03:57:13.32	222.76	7.34	-41.6	-43.3	24.5	3.04e+01	91	24	0	33554432	60	7581
2026-01-05 03:57:14.33	222.88	7.40	-41.8	-43.5	24.1	3.04e+01	92	24	0	35651584	60	7743
2026-01-05 03:57:15.34	223.01	7.47	-40.9	-42.5	25.1	3.04e+01	91	24	0	37224448	60	6922
2026-01-05 03:57:16.36	223.14	7.53	-41.0	-42.6	25.2	3.04e+01	92	24	0	39321600	60	6986
2026-01-05 03:57:17.37	223.26	7.59	-40.7	-42.2	25.4	3.04e+01	91	24	0	40894464	60	6660
2026-01-05 03:57:18.38	223.39	7.66	-40.6	-42.1	25.4	3.04e+01	92	24	0	42991616	60	6624
2026-01-05 03:57:19.39	223.52	7.72	-40.6	-42.1	25.9	3.04e+01	92	24	0	45088768	60	6592
2026-01-05 03:57:20.40	223.65	7.78	-40.2	-41.7	25.9	3.04e+01	92	24	0	46661632	60	6350
2026-01-05 03:57:21.41	223.77	7.85	-40.3	-41.9	25.7	3.04e+01	91	24	0	48758784	60	6466
2026-01-05 03:57:22.42	223.90	7.91	-40.7	-42.3	25.3	3.04e+01	92	24	0	50855936	60	6736
2026-01-05 03:57:23.43	224.03	7.98	-40.7	-42.4	25.5	3.04e+01	92	24	0	52428800	60	6807
2026-01-05 03:57:24.44	224.16	8.04	-40.6	-42.1	25.4	3.04e+01	92	24	0	54525952	60	6636
2026-01-05 03:57:25.45	224.30	8.10	-40.8	-42.3	25.8	3.04e+01	92	24	0	56098816	60	6752
2026-01-05 03:57:26.47	224.43	8.17	-40.5	-41.9	26.0	3.04e+01	92	24	0	58195968	60	6470
2026-01-05 03:57:27.48	224.56	8.23	-40.6	-42.1	25.8	3.04e+01	92	24	0	60293120	60	6587
2026-01-05 03:57:28.49	224.69	8.30	-40.5	-41.9	25.9	3.04e+01	92	24	0	61865984	60	6476
2026-01-05 03:57:29.50	224.83	8.36	-40.6	-42.0	25.9	3.04e+01	92	24	0	63963136	60	6544
2026-01-05 03:57:30.51	224.96	8.43	-40.2	-41.6	26.3	3.04e+01	92	24	0	66060288	60	6230
2026-01-05 03:57:31.52	225.10	8.49	-40.2	-41.6	26.0	3.04e+01	92	24	0	67633152	60	6251
2026-01-05 03:57:32.53	225.23	8.55	-40.6	-42.1	25.5	3.04e+01	92	24	0	69730304	60	6639
2026-01-05 03:57:33.55	225.37	8.62	-40.6	-42.1	25.7	3.04e+01	92	24	0	71303168	60	6575
2026-01-05 03:57:34.56	225.51	8.68	-40.2	-41.7	26.2	3.04e+01	92	24	0	73400320	60	6283
2026-01-05 03:57:35.57	225.65	8.75	-40.1	-41.5	26.1	3.04e+01	92	24	0	75497472	60	6200
2026-01-05 03:57:36.58	225.78	8.81	-40.0	-41.4	26.2	3.04e+01	92	24	0	77070336	60	6119
2026-01-05 03:57:37.59	225.92	8.88	-40.2	-41.7	26.0	3.04e+01	92	24	0	79167488	60	6312
2026-01-05 03:57:38.60	226.06	8.94	-40.3	-41.8	26.0	3.04e+01	92	24	0	80740352	60	6407
2026-01-05 03:57:39.61	226.20	9.01	-40.4	-42.0	25.5	3.04e+01	89	24	0	82837504	60	6510
2026-01-05 03:57:40.62	226.34	9.07	-40.1	-41.6	26.3	3.04e+01	92	24	0	84934656	60	6236
2026-01-05 03:57:41.63	226.48	9.14	-40.0	-41.6	26.1	3.04e+01	93	24	0	86507520	60	6208
2026-01-05 03:57:42.64	226.63	9.20	-40.5	-42.1	25.8	3.04e+01	92	24	0	88604672	60	6614
2026-01-05 03:57:43.66	226.77	9.27	-40.1	-41.7	26.2	3.04e+01	91	24	0	90701824	60	6320
2026-01-05 03:57:44.67	226.91	9.33	-40.2	-41.8	26.2	3.04e+01	92	24	0	92274688	60	6353
2026-01-05 03:57:45.68	227.06	9.40	-40.4	-42.0	26.3	3.04e+01	90	24	0	94371840	60	6522
2026-01-05 03:57:46.69	227.20	9.46	-40.3	-41.8	26.2	3.04e+01	92	24	0	95944704	60	6412
2026-01-05 03:57:47.70	227.35	9.53	-40.3	-41.8	26.3	3.04e+01	87	24	0	98041856	60	6358
2026-01-05 03:57:48.71	227.49	9.59	-40.3	-41.7	26.1	3.04e+01	92	24	0	100139008	60	6336
2026-01-05 03:57:49.72	227.64	9.66	-40.4	-41.9	25.9	3.04e+01	92	24	0	101711872	60	6474
2026-01-05 03:57:50.73	227.79	9.72	-40.5	-41.9	26.3	3.04e+01	92	24	0	103809024	60	6476
2026-01-05 03:57:51.74	227.94	9.79	-40.2	-41.7	26.2	3.04e+01	92	24	0	105906176	60	6342
2026-01-05 03:57:52.76	228.09	9.85	-40.5	-42.2	26.2	3.04e+01	91	24	0	107479040	60	6651
2026-01-05 03:57:53.77	228.24	9.92	-40.2	-41.8	25.6	3.04e+01	92	24	0	109576192	60	6396
2026-01-05 03:57:54.78	228.39	9.98	-40.4	-42.2	26.3	3.04e+01	92	24	0	111149056	60	6650
2026-01-05 03:57:55.79	228.54	10.05	-40.3	-42.0	26.2	3.04e+01	90	24	0	113246208	60	6536
2026-01-05 03:57:56.80	228.69	10.11	-40.3	-42.0	26.1	3.04e+01	92	24	0	115343360	60	6506
2026-01-05 03:57:57.81	228.84	10.18	-40.5	-42.3	25.9	3.04e+01	91	24	0	116916224	60	6727
2026-01-05 03:57:58.82	228.99	10.24	-40.3	-42.2	25.8	3.04e+01	92	24	0	119013376	60	6665
2026-01-05 03:57:59.83	229.15	10.31	-40.1	-42.1	25.8	3.04e+01	92	24	0	120586240	60	6582
2026-01-05 03:58:00.84	229.30	10.38	-40.4	-42.4	25.8	3.04e+01	92	24	0	122683392	60	6824
2026-01-05 03:58:01.85	229.46	10.44	-39.9	-41.8	26.0	3.04e+01	92	24	0	124780544	60	6392
2026-01-05 03:58:02.86	229.61	10.51	-40.2	-42.1	26.1	3.04e+01	92	24	0	126353408	60	6584
2026-01-05 03:58:03.88	229.77	10.57	-39.9	-41.8	26.3	3.04e+01	92	24	0	128450560	60	6352
2026-01-05 03:58:04.89	229.93	10.64	-40.2	-42.0	26.2	3.04e+01	92	24	0	130023424	60	6515
2026-01-05 03:58:05.90	230.09	10.70	-40.2	-42.0	26.1	3.04e+01	90	24	0	132120576	60	6510
2026-01-05 03:58:06.91	230.25	10.77	-40.6	-42.3	26.0	3.04e+01	88	24	0	134217728	60	6785
2026-01-05 03:58:07.92	230.41	10.83	-40.7	-42.4	25.9	3.04e+01	92	24	0	135790592	60	6876
2026-01-05 03:58:08.93	230.57	10.90	-40.6	-42.3	26.0	3.04e+01	92	24	0	137887744	60	6750
2026-01-05 03:58:09.94	230.73	10.97	-41.0	-42.7	25.9	3.04e+01	92	24	0	139460608	60	7111
2026-01-05 03:58:10.95	230.89	11.03	-40.6	-42.3	25.9	3.04e+01	92	24	0	141557760	60	6772
2026-01-05 03:58:11.96	231.05	11.10	-40.6	-42.3	25.9	3.04e+01	90	24	0	143654912	60	6785
2026-01-05 03:58:12.97	231.22	11.16	-40.7	-42.4	26.1	3.04e+01	92	24	0	145227776	60	6871
2026-01-05 03:58:13.99	231.38	11.23	-40.4	-42.2	26.1	3.04e+01	90	24	0	147324928	60	6661
2026-01-05 03:58:14.99	231.54	11.29	-40.5	-42.3	25.9	3.04e+01	92	24	0	149422080	60	6801
2026-01-05 03:58:16.01	231.71	11.36	-40.9	-42.6	25.9	3.04e+01	92	24	0	150994944	60	6976
2026-01-05 03:58:17.02	231.88	11.42	-41.0	-42.7	25.6	3.04e+01	90	24	0	153092096	60	7064
2026-01-05 03:58:18.03	232.05	11.49	-40.8	-42.6	25.6	3.04e+01	92	24	0	154664960	60	6964
2026-01-05 03:58:19.04	232.21	11.56	-40.7	-42.5	25.9	3.04e+01	92	24	0	156762112	60	6897
2026-01-05 03:58:20.05	232.38	11.62	-40.4	-42.2	25.9	3.04e+01	92	24	0	158859264	60	6650
2026-01-05 03:58:21.06	232.55	11.69	-40.3	-42.1	25.9	3.04e+01	90	24	0	160432128	60	6599
2026-01-05 03:58:22.07	232.72	11.75	-40.3	-42.1	25.7	3.04e+01	92	24	0	162529280	60	6606
2026-01-05 03:58:23.08	232.89	11.82	-40.5	-42.3	25.9	3.04e+01	90	24	0	164102144	60	6775
2026-01-05 03:58:24.09	233.07	11.88	-40.9	-42.7	25.3	3.04e+01	92	24	0	166199296	60	7070
2026-01-05 03:58:25.11	233.24	11.95	-40.8	-42.6	25.7	3.04e+01	91	24	0	168296448	60	6989
2026-01-05 03:58:26.12	233.41	12.01	-40.9	-42.6	25.7	3.04e+01	91	24	0	169869312	60	7011
2026-01-05 03:58:27.13	233.59	12.08	-40.8	-42.4	25.9	3.04e+01	92	24	0	171966464	60	6867
2026-01-05 03:58:28.14	233.76	12.15	-40.9	-42.5	25.8	3.04e+01	91	24	0	174063616	60	6914
2026-01-05 03:58:29.15	233.94	12.21	-41.1	-42.6	25.6	3.04e+01	92	24	0	175636480	60	7008
2026-01-05 03:58:30.16	234.12	12.28	-41.5	-42.9	25.7	3.04e+01	92	24	0	177733632	60	7272
2026-01-05 03:58:31.17	234.29	12.34	-41.2	-42.7	25.7	3.04e+01	89	24	0	179306496	60	7088
2026-01-05 03:58:32.18	234.47	12.41	-41.0	-42.5	25.6	3.04e+01	91	24	0	181403648	60	6958
2026-01-05 03:58:33.19	234.65	12.47	-41.1	-42.7	25.8	3.04e+01	92	24	0	183500800	60	7067
2026-01-05 03:58:34.21	234.83	12.54	-40.7	-42.5	25.8	3.04e+01	92	24	0	185073664	60	6886
2026-01-05 03:58:35.22	235.01	12.60	-40.6	-42.4	25.8	3.04e+01	92	24	0	187170816	60	6807
2026-01-05 03:58:36.23	235.20	12.67	-40.8	-42.4	25.7	3.04e+01	90	24	0	188743680	60	6868
2026-01-05 03:58:37.24	235.38	12.73	-40.7	-42.3	25.8	3.04e+01	92	24	0	190840832	60	6745
2026-01-05 03:58:38.25	235.56	12.80	-41.0	-42.6	25.3	3.04e+01	92	24	0	192937984	60	6997
2026-01-05 03:58:39.26	235.75	12.86	-41.1	-42.6	25.6	3.04e+01	91	24	0	194510848	60	7026
2026-01-05 03:58:40.27	235.93	12.93	-41.2	-42.7	25.5	3.04e+01	92	24	0	196608000	60	7091
2026-01-05 03:58:41.28	236.12	12.99	-41.3	-42.9	25.1	3.04e+01	92	24	0	198705152	60	7259
2026-01-05 03:58:42.29	236.30	13.05	-41.1	-42.7	25.5	3.04e+01	91	24	0	200278016	60	7085
2026-01-05 03:58:43.30	236.49	13.12	-41.3	-42.9	25.3	3.04e+01	92	24	0	202375168	60	7236
2026-01-05 03:58:44.31	236.68	13.18	-41.5	-43.1	25.0	3.04e+01	90	24	0	203948032	60	7394
2026-01-05 03:58:45.33	236.87	13.25	-41.5	-43.0	25.1	3.04e+01	92	24	0	206045184	60	7325
2026-01-05 03:58:46.34	237.06	13.31	-42.0	-43.5	24.9	3.04e+01	90	24	0	208142336	60	7741
2026-01-05 03:58:47.35	237.25	13.38	-41.9	-43.4	24.9	3.04e+01	92	24	0	209715200	60	7707
2026-01-05 03:58:48.36	237.45	13.44	-41.8	-43.4	24.9	3.04e+01	92	24	0	211812352	60	7646
2026-01-05 03:58:49.37	237.64	13.50	-41.6	-43.2	25.0	3.04e+01	92	24	0	213909504	60	7538
2026-01-05 03:58:50.38	237.83	13.57	-41.6	-43.3	25.2	3.04e+01	92	24	0	215482368	60	7549
2026-01-05 03:58:51.39	238.03	13.63	-41.4	-43.0	25.1	3.04e+01	92	24	0	217579520	60	7370
2026-01-05 03:58:52.40	238.22	13.70	-41.2	-42.7	25.4	3.04e+01	92	24	0	219152384	60	7109
2026-01-05 03:58:53.42	238.42	13.76	-41.1	-42.6	25.4	3.04e+01	92	24	0	221249536	60	6966
2026-01-05 03:58:54.43	238.62	13.82	-41.1	-42.7	25.4	3.04e+01	92	24	0	223346688	60	7074
2026-01-05 03:58:55.44	238.82	13.89	-40.6	-42.2	25.8	3.04e+01	92	24	0	224919552	60	6668
2026-01-05 03:58:56.45	239.01	13.95	-40.7	-42.2	25.9	3.04e+01	90	24	0	227016704	60	6700
2026-01-05 03:58:57.46	239.21	14.01	-41.0	-42.4	25.8	3.04e+01	92	24	0	228589568	60	6871
2026-01-05 03:58:58.47	239.42	14.08	-40.7	-42.3	25.8	3.04e+01	92	24	0	230686720	60	6737
2026-01-05 03:58:59.48	239.62	14.14	-40.8	-42.4	25.8	3.04e+01	92	24	0	232783872	60	6842
2026-01-05 03:59:00.49	239.82	14.20	-41.3	-42.8	25.4	3.04e+01	92	24	0	234356736	60	7195
2026-01-05 03:59:01.50	240.02	14.26	-41.7	-43.2	24.9	3.04e+01	92	24	0	236453888	60	7490
2026-01-05 03:59:02.51	240.23	14.33	-41.5	-43.0	25.5	3.04e+01	90	24	0	238551040	60	7333
2026-01-05 03:59:03.52	240.43	14.39	-41.4	-43.0	25.7	3.04e+01	92	24	0	240123904	60	7294
2026-01-05 03:59:04.53	240.64	14.45	-41.6	-43.2	24.8	3.04e+01	87	24	0	242221056	60	7475
2026-01-05 03:59:05.54	240.85	14.51	-41.2	-42.7	25.9	3.04e+01	92	24	0	243793920	60	7054
2026-01-05 03:59:06.56	241.06	14.58	-41.7	-43.2	25.5	3.04e+01	90	24	0	245891072	60	7545
2026-01-05 03:59:07.57	241.26	14.64	-41.6	-43.2	25.4	3.04e+01	92	24	0	247988224	60	7483
2026-01-05 03:59:08.58	241.47	14.70	-41.4	-42.9	25.4	3.04e+01	90	24	0	249561088	60	7286
2026-01-05 03:59:09.59	241.68	14.76	-41.3	-42.7	25.7	3.04e+01	92	24	0	251658240	60	7097
2026-01-05 03:59:10.60	241.90	14.82	-40.7	-42.1	26.0	3.04e+01	92	24	0	253755392	60	6614
2026-01-05 03:59:11.61	242.11	14.88	-40.7	-42.1	25.9	3.04e+01	92	24	0	255328256	60	6646
2026-01-05 03:59:12.62	242.32	14.94	-40.4	-41.9	26.1	3.04e+01	90	24	0	257425408	60	6439
2026-01-05 03:59:13.63	242.54	15.00	-40.4	-41.9	26.1	3.04e+01	91	24	0	258998272	60	6460
2026-01-05 03:59:14.64	242.75	15.06	-40.4	-41.8	26.0	3.04e+01	92	24	0	261095424	60	6383
2026-01-05 03:59:15.66	242.97	15.12	-40.3	-41.7	26.3	3.04e+01	92	24	0	263192576	60	6343
2026-01-05 03:59:16.67	243.19	15.18	-40.3	-41.7	26.3	3.04e+01	92	24	0	264765440	60	6302
2026-01-05 03:59:17.68	243.40	15.24	-40.6	-42.0	26.3	3.04e+01	91	24	0	266862592	60	6547
2026-01-05 03:59:18.69	243.62	15.30	-40.8	-42.2	26.5	3.04e+01	92	24	0	268435456	60	6651
2026-01-05 03:59:19.70	243.84	15.36	-40.7	-42.1	26.5	3.04e+01	92	24	0	270532608	60	6584
2026-01-05 03:59:20.71	244.06	15.42	-40.9	-42.3	26.4	3.04e+01	88	24	0	272629760	60	6748
2026-01-05 03:59:21.72	244.28	15.48	-40.7	-42.1	26.5	3.04e+01	92	24	0	274202624	60	6614
2026-01-05 03:59:22.73	244.51	15.54	-40.3	-41.7	26.7	3.04e+01	92	24	0	276299776	60	6318
2026-01-05 03:59:23.74	244.73	15.60	-40.5	-41.9	26.6	3.04e+01	92	24	0	278396928	60	6458
2026-01-05 03:59:24.75	244.95	15.66	-40.3	-41.6	26.5	3.04e+01	91	24	0	279969792	60	6272
2026-01-05 03:59:25.77	245.18	15.71	-40.1	-41.5	26.7	3.04e+01	91	24	0	282066944	60	6195
2026-01-05 03:59:26.78	245.41	15.77	-40.3	-41.7	26.7	3.04e+01	92	24	0	283639808	60	6337
2026-01-05 03:59:27.79	245.63	15.83	-39.8	-41.2	27.0	3.04e+01	92	24	0	285736960	60	5946
2026-01-05 03:59:28.80	245.86	15.89	-39.8	-41.2	27.0	3.04e+01	92	24	0	287834112	60	5929
2026-01-05 03:59:29.81	246.09	15.94	-39.8	-41.2	27.0	3.04e+01	90	24	0	289406976	60	5937
2026-01-05 03:59:30.82	246.32	16.00	-39.5	-40.8	27.2	3.04e+01	92	24	0	291504128	60	5716
2026-01-05 03:59:31.83	246.55	16.06	-39.6	-40.9	27.1	3.04e+01	90	24	0	293076992	60	5762
2026-01-05 03:59:32.84	246.78	16.11	-39.7	-41.1	27.0	3.04e+01	92	24	0	295174144	60	5874
2026-01-05 03:59:33.85	247.01	16.17	-39.7	-41.0	27.0	3.04e+01	90	24	0	297271296	60	5846
2026-01-05 03:59:34.87	247.25	16.22	-39.4	-40.7	27.3	3.04e+01	91	24	0	298844160	60	5625
2026-01-05 03:59:35.88	247.48	16.28	-39.0	-40.4	27.6	3.04e+01	90	24	0	300941312	58	6065
2026-01-05 03:59:36.89	247.72	16.33	-38.9	-40.2	27.7	3.04e+01	91	24	0	302514176	58	5972
2026-01-05 03:59:37.90	247.95	16.39	-38.9	-40.2	27.7	3.04e+01	90	24	0	304611328	58	5941
2026-01-05 03:59:38.91	248.19	16.44	-39.0	-40.3	27.7	3.04e+01	92	24	0	306708480	58	5999
2026-01-05 03:59:39.92	248.43	16.50	-39.0	-40.3	27.8	3.04e+01	90	24	0	308281344	58	6046
2026-01-05 03:59:40.93	248.67	16.55	-38.8	-40.1	27.7	3.04e+01	92	24	0	310378496	58	5880
2026-01-05 03:59:41.94	248.91	16.60	-39.0	-40.3	27.7	3.04e+01	90	24	0	311951360	58	6022
2026-01-05 03:59:42.95	249.15	16.66	-38.7	-40.0	27.9	3.04e+01	92	24	0	314048512	58	5801
2026-01-05 03:59:43.96	249.39	16.71	-38.4	-39.7	28.1	3.04e+01	90	24	0	316145664	58	5599
2026-01-05 03:59:44.97	249.63	16.76	-38.5	-39.8	27.9	3.04e+01	92	24	0	317718528	58	5690
2026-01-05 03:59:45.98	249.87	16.82	-38.6	-39.9	28.0	3.04e+01	90	24	0	319815680	58	5755
2026-01-05 03:59:46.99	250.12	16.87	-38.7	-40.0	27.9	3.04e+01	92	24	0	321912832	56	6521
2026-01-05 03:59:48.01	250.36	16.92	-38.3	-39.6	28.3	3.04e+01	92	24	0	323485696	56	6233
2026-01-05 03:59:49.02	250.61	16.97	-38.3	-39.6	28.2	3.04e+01	92	24	0	325582848	56	6242
2026-01-05 03:59:50.03	250.86	17.02	-38.3	-39.5	28.4	3.04e+01	92	24	0	327155712	56	6194
2026-01-05 03:59:51.04	251.10	17.07	-38.1	-39.4	28.4	3.04e+01	91	24	0	329252864	56	6067
2026-01-05 03:59:52.05	251.35	17.12	-38.1	-39.3	28.5	3.04e+01	92	24	0	331350016	56	6046
2026-01-05 03:59:53.06	251.60	17.17	-38.0	-39.2	28.6	3.04e+01	92	24	0	332922880	56	5987
2026-01-05 03:59:54.07	251.85	17.22	-37.8	-39.0	28.7	3.04e+01	92	24	0	335020032	56	5839
2026-01-05 03:59:55.08	252.10	17.27	-37.6	-38.9	28.8	3.04e+01	92	24	0	336592896	56	5734
2026-01-05 03:59:56.09	252.35	17.32	-37.7	-38.9	28.9	3.04e+01	90	24	0	338690048	56	5768
2026-01-05 03:59:57.10	252.60	17.36	-37.9	-39.2	28.8	3.04e+01	92	24	0	340787200	56	5932
2026-01-05 03:59:58.11	252.86	17.41	-38.0	-39.2	28.7	3.04e+01	90	24	0	342360064	56	5958
2026-01-05 03:59:59.12	253.11	17.46	-37.8	-39.0	28.9	3.04e+01	87	24	0	344457216	56	5824
2026-01-05 04:00:00.13	253.36	17.50	-37.7	-38.9	28.9	3.04e+01	92	24	0	346554368	56	5742
2026-01-05 04:00:01.14	253.62	17.55	-37.5	-38.7	29.0	3.04e+01	92	24	0	348127232	56	5651
2026-01-05 04:00:02.15	253.88	17.60	-37.6	-38.8	29.0	3.04e+01	90	24	0	350224384	56	5690
2026-01-05 04:00:03.16	254.13	17.64	-37.6	-38.9	29.0	3.04e+01	92	24	0	351797248	56	5729
2026-01-05 04:00:04.18	254.39	17.69	-37.5	-38.7	29.1	3.04e+01	92	24	0	353894400	56	5652
2026-01-05 04:00:05.19	254.65	17.73	-37.7	-38.9	29.0	3.04e+01	91	24	0	355991552	56	5776
2026-01-05 04:00:06.20	254.91	17.78	-37.5	-38.7	29.2	3.04e+01	92	24	0	357564416	56	5655
2026-01-05 04:00:07.21	255.17	17.82	-37.4	-38.6	29.1	3.04e+01	92	24	0	359661568	54	6266
2026-01-05 04:00:08.22	255.43	17.86	-37.4	-38.6	29.1	3.04e+01	92	24	0	361758720	54	6250
2026-01-05 04:00:09.23	255.69	17.90	-37.4	-38.6	29.1	3.04e+01	92	24	0	363331584	54	6275
2026-01-05 04:00:10.24	255.96	17.95	-37.5	-38.7	29.0	3.04e+01	91	24	0	365428736	54	6328
2026-01-05 04:00:11.26	256.22	17.99	-37.4	-38.6	29.3	3.04e+01	92	24	0	367001600	54	6241
2026-01-05 04:00:12.27	256.49	18.03	-37.4	-38.6	29.2	3.04e+01	91	24	0	369098752	54	6250
2026-01-05 04:00:13.28	256.75	18.07	-37.5	-38.7	29.1	3.04e+01	92	24	0	371195904	54	6299
2026-01-05 04:00:14.29	257.02	18.11	-37.6	-38.8	29.2	3.04e+01	92	24	0	372768768	54	6365
2026-01-05 04:00:15.30	257.28	18.15	-37.3	-38.5	29.3	3.04e+01	91	24	0	374865920	54	6152
2026-01-05 04:00:16.31	257.55	18.19	-37.5	-38.7	29.1	3.04e+01	91	24	0	376438784	54	6331
2026-01-05 04:00:17.32	257.82	18.23	-37.5	-38.7	29.1	3.04e+01	91	24	0	378535936	54	6334
2026-01-05 04:00:18.33	258.08	18.27	-37.6	-38.8	28.9	3.04e+01	91	24	0	380633088	54	6406
2026-01-05 04:00:19.35	258.36	18.30	-37.3	-38.5	29.3	3.04e+01	90	24	0	382205952	54	6163
2026-01-05 04:00:20.35	258.62	18.34	-38.0	-39.2	28.7	3.04e+01	92	24	0	384303104	54	6702
2026-01-05 04:00:21.36	258.89	18.38	-37.8	-39.0	29.0	3.04e+01	92	24	0	386400256	54	6563
2026-01-05 04:00:22.38	259.17	18.41	-38.0	-39.2	29.0	3.04e+01	92	24	0	387973120	56	5972
2026-01-05 04:00:23.39	259.44	18.45	-37.8	-39.1	29.1	3.04e+01	91	24	0	390070272	56	5859
2026-01-05 04:00:24.40	259.71	18.48	-38.2	-39.4	28.2	3.04e+01	92	24	0	391643136	56	6129
2026-01-05 04:00:25.41	259.98	18.52	-38.7	-40.0	28.8	3.04e+01	92	24	0	393740288	56	6516
2026-01-05 04:00:26.42	260.26	18.55	-38.8	-40.0	28.4	3.04e+01	92	24	0	395837440	56	6545
2026-01-05 04:00:27.43	260.53	18.59	-37.6	-38.8	29.2	3.04e+01	90	24	0	397410304	56	5705
2026-01-05 04:00:28.44	260.81	18.62	-37.8	-39.0	29.0	3.04e+01	92	24	0	399507456	56	5813
2026-01-05 04:00:29.45	261.08	18.65	-37.5	-38.7	29.2	3.04e+01	90	24	0	401604608	56	5656
2026-01-05 04:00:30.46	261.36	18.68	-37.5	-38.7	29.2	3.04e+01	92	24	0	403177472	56	5659
2026-01-05 04:00:31.47	261.63	18.71	-37.5	-38.7	29.2	3.04e+01	92	24	0	405274624	56	5649
2026-01-05 04:00:32.49	261.91	18.74	-37.4	-38.5	29.3	3.04e+01	92	24	0	406847488	56	5526
2026-01-05 04:00:33.49	262.19	18.77	-37.4	-38.6	29.3	3.04e+01	90	24	0	408944640	54	6264
2026-01-05 04:00:34.51	262.47	18.80	-37.5	-38.7	29.1	3.04e+01	92	24	0	411041792	54	6312
2026-01-05 04:00:35.52	262.75	18.83	-37.7	-39.0	28.8	3.04e+01	90	24	0	412614656	54	6503
2026-01-05 04:00:36.53	263.03	18.86	-37.6	-38.9	29.2	3.04e+01	92	24	0	414711808	54	6431
2026-01-05 04:00:37.54	263.31	18.89	-37.7	-38.9	29.1	3.04e+01	90	24	0	416284672	54	6440
2026-01-05 04:00:38.55	263.59	18.91	-38.3	-39.5	28.7	3.04e+01	92	24	0	418381824	56	6171
2026-01-05 04:00:39.56	263.87	18.94	-37.7	-38.9	29.1	3.04e+01	90	24	0	420478976	56	5770
2026-01-05 04:00:40.57	264.15	18.96	-37.5	-38.7	29.3	3.04e+01	92	24	0	422051840	56	5649
2026-01-05 04:00:41.58	264.43	18.99	-37.2	-38.4	29.4	3.04e+01	90	24	0	424148992	54	6132
2026-01-05 04:00:42.59	264.71	19.01	-37.4	-38.6	29.3	3.04e+01	91	24	0	426246144	54	6269
2026-01-05 04:00:43.60	265.00	19.04	-37.8	-39.0	29.0	3.04e+01	92	24	0	427819008	54	6526
2026-01-05 04:00:44.62	265.28	19.06	-37.5	-38.7	29.3	3.04e+01	91	24	0	429916160	54	6326
2026-01-05 04:00:45.63	265.56	19.08	-37.7	-38.9	29.1	3.04e+01	92	24	0	431489024	54	6444
2026-01-05 04:00:46.64	265.85	19.10	-37.8	-38.9	29.3	3.04e+01	91	24	0	433586176	56	5787
2026-01-05 04:00:47.65	266.13	19.13	-37.9	-39.1	29.4	3.04e+01	91	24	0	435683328	56	5899
2026-01-05 04:00:48.66	266.42	19.15	-37.7	-38.9	29.4	3.04e+01	91	24	0	437256192	56	5743
2026-01-05 04:00:49.67	266.70	19.17	-37.7	-38.9	29.4	3.04e+01	92	24	0	439353344	56	5735
2026-01-05 04:00:50.68	266.99	19.18	-37.8	-39.0	29.3	3.04e+01	90	24	0	440926208	56	5841
2026-01-05 04:00:51.69	267.27	19.20	-37.7	-38.9	29.2	3.04e+01	92	24	0	443023360	56	5761
2026-01-05 04:00:52.70	267.56	19.22	-37.6	-38.8	29.3	3.04e+01	92	24	0	445120512	56	5660
2026-01-05 04:00:53.71	267.85	19.24	-37.5	-38.7	29.4	3.04e+01	92	24	0	446693376	56	5653
2026-01-05 04:00:54.72	268.13	19.25	-37.6	-38.8	29.3	3.04e+01	92	24	0	448790528	56	5666
2026-01-05 04:00:55.74	268.42	19.27	-37.8	-39.0	29.2	3.04e+01	92	24	0	450363392	56	5802
2026-01-05 04:00:56.75	268.71	19.29	-37.7	-38.9	29.3	3.04e+01	86	24	0	452460544	56	5750
2026-01-05 04:00:57.76	269.00	19.30	-38.5	-39.7	28.5	3.04e+01	91	24	0	454557696	56	6312
2026-01-05 04:00:58.77	269.29	19.31	-38.2	-39.5	28.7	3.04e+01	91	24	0	456130560	56	6142
2026-01-05 04:00:59.78	269.57	19.33	-38.7	-39.9	28.3	3.04e+01	90	24	0	458227712	56	6483
2026-01-05 04:01:00.79	269.86	19.34	-38.3	-39.5	28.8	3.04e+01	92	24	0	459800576	56	6171
2026-01-05 04:01:01.80	270.15	19.35	-38.4	-39.7	28.7	3.04e+01	92	24	0	461897728	56	6301
2026-01-05 04:01:02.81	270.44	19.36	-38.7	-40.0	28.6	3.04e+01	92	24	0	463994880	56	6517
2026-01-05 04:01:03.82	270.73	19.37	-38.1	-39.3	28.9	3.04e+01	90	24	0	465567744	56	6062
2026-01-05 04:01:04.84	271.02	19.38	-37.8	-39.0	29.3	3.04e+01	91	24	0	467664896	56	5834
2026-01-05 04:01:05.85	271.31	19.39	-37.6	-38.8	29.3	3.04e+01	92	24	0	469762048	56	5694
2026-01-05 04:01:06.86	271.60	19.40	-37.8	-39.0	28.9	3.04e+01	92	24	0	471334912	56	5839
2026-01-05 04:01:07.87	271.89	19.41	-37.7	-38.9	29.2	3.04e+01	91	24	0	473432064	56	5746
2026-01-05 04:01:08.88	272.18	19.41	-37.7	-38.9	28.9	3.04e+01	92	24	0	475004928	56	5778
2026-01-05 04:01:09.89	272.47	19.42	-38.0	-39.2	28.9	3.04e+01	90	24	0	477102080	56	5959
2026-01-05 04:01:10.90	272.76	19.43	-37.9	-39.1	29.0	3.04e+01	91	24	0	479199232	56	5923
2026-01-05 04:01:11.91	273.05	19.43	-37.7	-39.0	29.1	3.04e+01	92	24	0	480772096	56	5802
2026-01-05 04:01:12.92	273.34	19.44	-38.1	-39.3	29.0	3.04e+01	91	24	0	482869248	56	6022
2026-01-05 04:01:13.93	273.63	19.44	-37.7	-38.9	29.3	3.04e+01	91	24	0	484442112	56	5727
2026-01-05 04:01:14.95	273.92	19.44	-37.7	-38.9	29.3	3.04e+01	90	24	0	486539264	56	5740
2026-01-05 04:01:15.96	274.21	19.44	-37.5	-38.7	29.3	3.04e+01	85	24	0	488636416	56	5637
2026-01-05 04:01:16.97	274.51	19.45	-37.4	-38.6	29.3	3.04e+01	92	24	0	490209280	56	5591
2026-01-05 04:01:17.98	274.80	19.45	-37.5	-38.7	29.4	3.04e+01	92	24	0	492306432	56	5609
2026-01-05 04:01:18.99	275.09	19.45	-37.4	-38.6	29.4	3.04e+01	92	24	0	494403584	56	5573
2026-01-05 04:01:20.00	275.38	19.45	-37.6	-38.8	29.2	3.04e+01	92	24	0	495976448	56	5669
2026-01-05 04:01:21.01	275.67	19.44	-37.7	-38.9	29.1	3.04e+01	92	24	0	498073600	56	5772
2026-01-05 04:01:22.02	275.96	19.44	-37.5	-38.7	29.3	3.04e+01	92	24	0	499646464	56	5631
2026-01-05 04:01:23.03	276.25	19.44	-37.4	-38.5	29.3	3.04e+01	92	24	0	501743616	54	6202
2026-01-05 04:01:24.04	276.54	19.44	-38.0	-39.2	28.7	3.04e+01	92	24	0	503840768	54	6702
2026-01-05 04:01:25.06	276.83	19.43	-38.2	-39.5	28.6	3.04e+01	92	24	0	505413632	56	6146
2026-01-05 04:01:26.07	277.12	19.43	-39.4	-40.7	27.6	3.04e+01	92	24	0	507510784	56	7094
2026-01-05 04:01:27.08	277.41	19.42	-37.9	-39.1	29.1	3.04e+01	92	24	0	509607936	56	5875
2026-01-05 04:01:28.09	277.70	19.41	-38.6	-39.8	28.7	3.04e+01	92	24	0	511180800	56	6389
2026-01-05 04:01:29.10	277.99	19.41	-38.8	-40.0	28.9	3.04e+01	92	24	0	513277952	56	6523
2026-01-05 04:01:30.11	278.28	19.40	-38.4	-39.6	28.7	3.04e+01	90	24	0	514850816	56	6247
2026-01-05 04:01:31.12	278.57	19.39	-38.2	-39.5	29.2	3.04e+01	89	24	0	516947968	56	6140
2026-01-05 04:01:32.13	278.86	19.38	-37.8	-39.0	29.2	3.04e+01	92	24	0	519045120	56	5844
2026-01-05 04:01:33.14	279.15	19.37	-37.7	-38.9	29.3	3.04e+01	90	24	0	520617984	56	5737
2026-01-05 04:01:34.15	279.44	19.36	-37.7	-38.9	29.2	3.04e+01	90	24	0	522715136	56	5731
2026-01-05 04:01:35.17	279.73	19.35	-37.6	-38.8	29.3	3.04e+01	85	24	0	524288000	56	5709
2026-01-05 04:01:36.18	280.02	19.34	-37.6	-38.8	29.2	3.04e+01	91	24	0	526385152	56	5691
2026-01-05 04:01:37.19	280.31	19.33	-38.0	-39.2	28.9	3.04e+01	92	24	0	528482304	56	5989
2026-01-05 04:01:38.20	280.59	19.31	-37.9	-39.2	29.1	3.04e+01	92	24	0	530055168	56	5930
2026-01-05 04:01:39.21	280.88	19.30	-37.8	-39.0	29.3	3.04e+01	92	24	0	532152320	56	5804
2026-01-05 04:01:40.22	281.17	19.29	-38.1	-39.4	28.8	3.04e+01	92	24	0	534249472	56	6081
2026-01-05 04:01:41.23	281.45	19.27	-38.3	-39.6	28.8	3.04e+01	92	24	0	535822336	56	6209
2026-01-05 04:01:42.24	281.74	19.26	-39.2	-40.5	28.5	3.04e+01	92	24	0	537919488	56	6905
2026-01-05 04:01:43.26	282.03	19.24	-39.3	-40.5	27.7	3.04e+01	92	24	0	539492352	56	6959
2026-01-05 04:01:44.27	282.32	19.22	-38.8	-40.0	28.7	3.04e+01	92	24	0	541589504	56	6548
2026-01-05 04:01:45.28	282.60	19.20	-38.3	-39.5	28.7	3.04e+01	92	24	0	543686656	56	6196
2026-01-05 04:01:46.29	282.89	19.19	-38.2	-39.5	28.7	3.04e+01	92	24	0	545259520	56	6166
2026-01-05 04:01:47.30	283.17	19.17	-38.5	-39.7	29.2	3.04e+01	92	24	0	547356672	56	6331
2026-01-05 04:01:48.31	283.46	19.15	-37.9	-39.1	29.0	3.04e+01	91	24	0	549453824	56	5867
2026-01-05 04:01:49.32	283.74	19.13	-38.9	-40.2	28.7	3.04e+01	92	24	0	551026688	56	6703
2026-01-05 04:01:50.33	284.03	19.11	-38.8	-40.1	28.7	3.04e+01	91	24	0	553123840	56	6588
2026-01-05 04:01:51.34	284.31	19.08	-38.0	-39.2	29.3	3.04e+01	85	24	0	554696704	56	5959
2026-01-05 04:01:52.35	284.59	19.06	-38.0	-39.2	29.1	3.04e+01	92	24	0	556793856	56	5993
2026-01-05 04:01:53.37	284.88	19.04	-38.1	-39.3	29.1	3.04e+01	91	24	0	558891008	56	6018
2026-01-05 04:01:54.38	285.16	19.01	-38.1	-39.3	29.2	3.04e+01	92	24	0	560463872	56	6043
2026-01-05 04:01:55.39	285.44	18.99	-37.9	-39.1	29.2	3.04e+01	90	24	0	562561024	56	5882
2026-01-05 04:01:56.40	285.72	18.97	-37.6	-38.8	29.2	3.04e+01	92	24	0	564133888	56	5693
2026-01-05 04:01:57.41	286.00	18.94	-37.8	-39.0	29.5	3.04e+01	90	24	0	566231040	56	5816
2026-01-05 04:01:58.42	286.28	18.91	-37.8	-39.0	29.2	3.04e+01	92	24	0	568328192	56	5800
2026-01-05 04:01:59.43	286.56	18.89	-37.8	-39.0	29.3	3.04e+01	90	24	0	569901056	56	5825
2026-01-05 04:02:00.44	286.84	18.86	-38.0	-39.3	29.1	3.04e+01	92	24	0	571998208	56	6005
2026-01-05 04:02:01.46	287.12	18.83	-37.5	-38.7	29.4	3.04e+01	90	24	0	574095360	56	5646
2026-01-05 04:02:02.47	287.40	18.80	-37.4	-38.6	29.5	3.04e+01	92	24	0	575668224	56	5534
2026-01-05 04:02:03.48	287.68	18.77	-37.4	-38.5	29.4	3.04e+01	92	24	0	577765376	56	5529
2026-01-05 04:02:04.49	287.96	18.74	-37.6	-38.8	29.3	3.04e+01	92	24	0	579338240	54	6392
2026-01-05 04:02:05.50	288.23	18.71	-37.6	-38.8	29.1	3.04e+01	92	24	0	581435392	54	6422
2026-01-05 04:02:06.51	288.51	18.68	-37.5	-38.7	29.1	3.04e+01	92	24	0	583532544	54	6295
2026-01-05 04:02:07.52	288.78	18.65	-37.6	-38.8	29.1	3.04e+01	92	24	0	585105408	54	6375
2026-01-05 04:02:08.53	289.06	18.62	-37.7	-39.0	29.0	3.04e+01	92	24	0	587202560	54	6500
2026-01-05 04:02:09.54	289.33	18.59	-37.1	-38.3	29.5	3.04e+01	92	24	0	588775424	54	6038
2026-01-05 04:02:10.56	289.61	18.55	-37.3	-38.5	29.4	3.04e+01	89	24	0	590872576	54	6154
2026-01-05 04:02:11.57	289.88	18.52	-37.4	-38.6	29.3	3.04e+01	90	24	0	592969728	54	6267
2026-01-05 04:02:12.58	290.15	18.49	-37.2	-38.4	29.4	3.04e+01	92	24	0	594542592	54	6073
2026-01-05 04:02:13.59	290.42	18.45	-37.5	-38.7	29.2	3.04e+01	92	24	0	596639744	54	6310
2026-01-05 04:02:14.60	290.69	18.42	-37.5	-38.7	29.2	3.04e+01	92	24	0	598736896	54	6343
2026-01-05 04:02:15.61	290.96	18.38	-37.4	-38.6	29.4	3.04e+01	92	24	0	600309760	54	6262
2026-01-05 04:02:16.62	291.23	18.34	-37.3	-38.5	29.5	3.04e+01	91	24	0	602406912	54	6137
2026-01-05 04:02:17.63	291.50	18.31	-37.4	-38.6	29.4	3.04e+01	91	24	0	603979776	54	6236
2026-01-05 04:02:18.64	291.77	18.27	-37.4	-38.6	29.3	3.04e+01	92	24	0	606076928	54	6231
2026-01-05 04:02:19.66	292.04	18.23	-37.4	-38.6	29.3	3.04e+01	91	24	0	608174080	54	6217
2026-01-05 04:02:20.67	292.31	18.19	-37.6	-38.8	29.3	3.04e+01	92	24	0	609746944	54	6351
2026-01-05 04:02:21.68	292.57	18.15	-37.5	-38.7	29.4	3.04e+01	92	24	0	611844096	54	6306
2026-01-05 04:02:22.69	292.84	18.12	-37.4	-38.6	29.3	3.04e+01	92	24	0	613416960	54	6264
2026-01-05 04:02:23.70	293.10	18.08	-37.8	-39.1	29.2	3.04e+01	91	24	0	615514112	54	6575
2026-01-05 04:02:24.71	293.37	18.03	-37.7	-38.9	29.0	3.04e+01	91	24	0	617611264	54	6463
2026-01-05 04:02:25.72	293.63	17.99	-37.6	-38.9	29.2	3.04e+01	92	24	0	619184128	54	6428
2026-01-05 04:02:26.73	293.89	17.95	-37.4	-38.6	29.3	3.04e+01	92	24	0	621281280	54	6253
2026-01-05 04:02:27.74	294.15	17.91	-37.4	-38.6	29.3	3.04e+01	91	24	0	623378432	54	6270
2026-01-05 04:02:28.76	294.42	17.87	-37.4	-38.5	29.3	3.04e+01	88	24	0	624951296	54	6199
2026-01-05 04:02:29.77	294.68	17.82	-37.9	-39.1	29.4	3.04e+01	87	24	0	627048448	54	6642
2026-01-05 04:02:30.78	294.94	17.78	-37.6	-38.8	29.3	3.04e+01	91	24	0	628621312	54	6379
2026-01-05 04:02:31.79	295.19	17.74	-37.7	-38.9	29.4	3.04e+01	91	24	0	630718464	54	6438
2026-01-05 04:02:32.80	295.45	17.69	-37.7	-38.9	29.3	3.04e+01	91	24	0	632815616	54	6483
2026-01-05 04:02:33.81	295.71	17.65	-37.5	-38.7	29.3	3.04e+01	90	24	0	634388480	54	6285
2026-01-05 04:02:34.82	295.97	17.60	-37.4	-38.6	29.5	3.04e+01	92	24	0	636485632	54	6250
2026-01-05 04:02:35.83	296.22	17.56	-37.5	-38.7	29.4	3.04e+01	92	24	0	638058496	54	6330
2026-01-05 04:02:36.84	296.48	17.51	-37.6	-38.8	29.3	3.04e+01	92	24	0	640155648	54	6369
2026-01-05 04:02:37.85	296.73	17.47	-37.8	-39.0	29.3	3.04e+01	92	24	0	642252800	54	6519
2026-01-05 04:02:38.86	296.98	17.42	-37.7	-38.9	29.4	3.04e+01	90	24	0	643825664	54	6493
2026-01-05 04:02:39.88	297.24	17.37	-38.0	-39.2	28.9	3.04e+01	92	24	0	645922816	54	6673
2026-01-05 04:02:40.89	297.49	17.32	-37.6	-38.8	29.1	3.04e+01	92	24	0	647495680	54	6392
2026-01-05 04:02:41.90	297.74	17.28	-37.4	-38.6	29.3	3.04e+01	92	24	0	649592832	54	6233
2026-01-05 04:02:42.91	297.99	17.23	-37.2	-38.4	29.6	3.04e+01	92	24	0	651689984	54	6107
2026-01-05 04:02:43.92	298.24	17.18	-37.5	-38.7	29.5	3.04e+01	92	24	0	653262848	54	6306
2026-01-05 04:02:44.93	298.48	17.13	-37.5	-38.7	29.2	3.04e+01	92	24	0	655360000	54	6283
2026-01-05 04:02:45.94	298.73	17.08	-37.3	-38.5	29.4	3.04e+01	92	24	0	657457152	54	6182
2026-01-05 04:02:46.96	298.98	17.03	-37.3	-38.5	29.3	3.04e+01	90	24	0	659030016	54	6182
2026-01-05 04:02:47.97	299.22	16.98	-37.3	-38.5	29.6	3.04e+01	92	24	0	661127168	54	6160
2026-01-05 04:02:48.98	299.47	16.93	-37.5	-38.7	29.4	3.04e+01	75	24	0	662700032	54	6295
2026-01-05 04:02:49.99	299.71	16.88	-37.5	-38.7	29.4	3.04e+01	57	24	0	664797184	54	6283
2026-01-05 04:02:51.00	299.96	16.83	-37.5	-38.6	29.6	3.04e+01	58	24	0	666894336	54	6275
2026-01-05 04:02:52.01	300.20	16.78	-37.3	-38.5	29.5	3.04e+01	54	24	0	668467200	54	6150
2026-01-05 04:02:53.02	300.44	16.72	-37.5	-38.7	29.6	3.04e+01	62	24	0	670564352	54	6289
2026-01-05 04:02:54.03	300.68	16.67	-37.7	-38.9	29.5	3.04e+01	60	24	0	672137216	54	6432
2026-01-05 04:02:55.04	300.92	16.62	-37.9	-39.2	29.1	3.04e+01	51	24	0	674234368	54	6661
2026-01-05 04:02:56.05	301.16	16.57	-37.3	-38.5	29.7	3.04e+01	59	24	0	676331520	54	6171
2026-01-05 04:02:57.06	301.39	16.51	-37.4	-38.6	29.6	3.04e+01	60	24	0	677904384	54	6217
2026-01-05 04:02:58.08	301.63	16.46	-37.6	-38.8	29.5	3.04e+01	61	24	0	680001536	54	6420
2026-01-05 04:02:59.09	301.87	16.40	-37.4	-38.6	29.5	3.04e+01	60	24	0	682098688	54	6269
2026-01-05 04:03:00.10	302.10	16.35	-37.5	-38.7	29.5	3.04e+01	52	24	0	683671552	54	6279
2026-01-05 04:03:01.11	302.34	16.29	-37.4	-38.6	29.7	3.04e+01	61	24	0	685768704	54	6228
2026-01-05 04:03:02.12	302.57	16.24	-37.2	-38.4	29.7	3.04e+01	60	24	0	687341568	54	6097
2026-01-05 04:03:03.13	302.80	16.18	-37.4	-38.5	29.5	3.04e+01	57	24	0	689438720	54	6201
2026-01-05 04:03:04.14	303.03	16.13	-37.3	-38.5	29.5	3.04e+01	59	24	0	691535872	54	6158
2026-01-05 04:03:05.15	303.26	16.07	-37.5	-38.7	29.4	3.04e+01	55	24	0	693108736	54	6333
2026-01-05 04:03:06.16	303.49	16.02	-37.2	-38.4	29.7	3.04e+01	59	24	0	695205888	54	6117
2026-01-05 04:03:07.17	303.72	15.96	-37.0	-38.2	29.7	3.04e+01	58	24	0	696778752	54	5944
2026-01-05 04:03:08.19	303.95	15.90	-36.9	-38.1	29.7	3.04e+01	38	24	0	698875904	54	5901
2026-01-05 04:03:09.20	304.18	15.85	-37.2	-38.4	29.5	3.04e+01	60	24	0	700973056	54	6098
2026-01-05 04:03:10.21	304.40	15.79	-37.1	-38.3	29.6	3.04e+01	59	24	0	702545920	54	6048
2026-01-05 04:03:11.22	304.63	15.73	-37.2	-38.4	29.6	3.04e+01	60	24	0	704643072	54	6130
2026-01-05 04:03:12.23	304.85	15.68	-37.0	-38.2	29.7	3.04e+01	59	24	0	706740224	54	5931
2026-01-05 04:03:13.24	305.08	15.62	-37.1	-38.3	29.7	3.04e+01	58	24	0	708313088	54	6007
2026-01-05 04:03:14.25	305.30	15.56	-37.2	-38.4	29.5	3.04e+01	62	24	0	710410240	54	6094
2026-01-05 04:03:15.26	305.52	15.50	-37.3	-38.5	29.5	3.04e+01	61	24	0	711983104	54	6157
2026-01-05 04:03:16.27	305.74	15.44	-37.1	-38.2	29.6	3.04e+01	46	24	0	714080256	54	5994
2026-01-05 04:03:17.28	305.96	15.38	-37.4	-38.6	29.6	3.04e+01	60	24	0	716177408	54	6269
2026-01-05 04:03:18.29	306.18	15.33	-37.3	-38.5	29.8	3.04e+01	61	24	0	717750272	54	6161
2026-01-05 04:03:19.31	306.40	15.27	-37.4	-38.6	29.7	3.04e+01	56	24	0	719847424	54	6243
2026-01-05 04:03:20.32	306.62	15.21	-37.3	-38.5	29.7	3.04e+01	60	24	0	721944576	54	6187
2026-01-05 04:03:21.33	306.83	15.15	-38.0	-39.2	29.6	3.04e+01	47	24	0	723517440	54	6699
2026-01-05 04:03:22.34	307.05	15.09	-37.6	-38.8	29.5	3.04e+01	58	24	0	725614592	54	6377
2026-01-05 04:03:23.35	307.26	15.03	-38.0	-39.2	29.4	3.04e+01	59	24	0	727187456	54	6658
2026-01-05 04:03:24.36	307.47	14.97	-38.5	-39.7	29.1	3.04e+01	44	24	0	729284608	56	6306
2026-01-05 04:03:25.37	307.69	14.91	-38.2	-39.5	29.1	3.04e+01	58	24	0	731381760	56	6144
2026-01-05 04:03:26.38	307.90	14.85	-37.5	-38.7	29.3	3.04e+01	60	24	0	732954624	56	5658
2026-01-05 04:03:27.39	308.11	14.79	-38.7	-40.0	29.0	3.04e+01	61	24	0	735051776	56	6524
2026-01-05 04:03:28.41	308.32	14.72	-37.7	-38.9	29.4	3.04e+01	60	24	0	736624640	56	5779
2026-01-05 04:03:29.42	308.53	14.66	-37.7	-38.9	29.3	3.04e+01	50	24	0	738721792	56	5777
2026-01-05 04:03:30.43	308.74	14.60	-37.6	-38.8	29.5	3.04e+01	59	24	0	740818944	56	5673
2026-01-05 04:03:31.44	308.94	14.54	-38.4	-39.6	28.9	3.04e+01	61	24	0	742391808	56	6276
2026-01-05 04:03:32.45	309.15	14.48	-37.6	-38.8	29.3	3.04e+01	58	24	0	744488960	56	5684
2026-01-05 04:03:33.46	309.35	14.42	-38.5	-39.7	29.0	3.04e+01	60	24	0	746586112	56	6343
2026-01-05 04:03:34.47	309.56	14.36	-37.8	-39.0	29.4	3.04e+01	46	24	0	748158976	56	5811
2026-01-05 04:03:35.48	309.76	14.29	-38.2	-39.4	29.0	3.04e+01	61	24	0	750256128	56	6068
2026-01-05 04:03:36.49	309.96	14.23	-37.8	-39.0	29.5	3.04e+01	57	24	0	751828992	56	5847
2026-01-05 04:03:37.51	310.17	14.17	-37.9	-39.2	29.4	3.04e+01	49	24	0	753926144	56	5929
2026-01-05 04:03:38.52	310.37	14.11	-37.7	-38.9	29.4	3.04e+01	58	24	0	756023296	56	5736
2026-01-05 04:03:39.53	310.57	14.05	-37.9	-39.1	29.5	3.04e+01	58	24	0	757596160	56	5877
2026-01-05 04:03:40.54	310.77	13.98	-37.7	-38.9	29.3	3.04e+01	58	24	0	759693312	56	5773
2026-01-05 04:03:41.55	310.97	13.92	-37.7	-38.9	29.5	3.04e+01	57	24	0	761790464	56	5734
2026-01-05 04:03:42.56	311.16	13.86	-37.7	-39.0	29.3	3.04e+01	60	24	0	763363328	56	5803
2026-01-05 04:03:43.57	311.36	13.79	-38.7	-39.9	29.1	3.04e+01	59	24	0	765460480	56	6477
2026-01-05 04:03:44.58	311.56	13.73	-37.8	-39.1	29.1	3.04e+01	57	24	0	767033344	56	5881
2026-01-05 04:03:45.59	311.75	13.67	-37.2	-38.4	29.5	3.04e+01	46	24	0	769130496	54	6081
2026-01-05 04:03:46.61	311.95	13.60	-36.9	-38.1	29.7	3.04e+01	55	24	0	771227648	54	5902
2026-01-05 04:03:47.62	312.14	13.54	-37.1	-38.3	29.5	3.04e+01	62	24	0	772800512	54	6036
2026-01-05 04:03:48.63	312.33	13.48	-37.2	-38.4	29.5	3.04e+01	61	24	0	774897664	54	6113
2026-01-05 04:03:49.64	312.52	13.41	-37.4	-38.6	29.3	3.04e+01	59	24	0	776470528	54	6257
2026-01-05 04:03:50.65	312.71	13.35	-37.4	-38.6	29.6	3.04e+01	48	24	0	778567680	54	6255
2026-01-05 04:03:51.66	312.90	13.29	-37.4	-38.6	29.4	3.04e+01	61	24	0	780664832	54	6245
2026-01-05 04:03:52.67	313.09	13.22	-37.5	-38.7	29.1	3.04e+01	58	24	0	782237696	54	6316
2026-01-05 04:03:53.68	313.28	13.16	-37.4	-38.6	29.5	3.04e+01	45	24	0	784334848	54	6274
2026-01-05 04:03:54.69	313.46	13.10	-37.9	-39.1	29.4	3.04e+01	60	24	0	786432000	56	5914
2026-01-05 04:03:55.71	313.65	13.03	-38.0	-39.3	29.1	3.04e+01	52	24	0	788004864	56	6012
2026-01-05 04:03:56.72	313.84	12.97	-37.9	-39.2	29.4	3.04e+01	59	24	0	790102016	56	5930
2026-01-05 04:03:57.73	314.02	12.90	-38.3	-39.6	29.3	3.04e+01	60	24	0	791674880	56	6214
2026-01-05 04:03:58.74	314.21	12.84	-38.1	-39.3	29.3	3.04e+01	59	24	0	793772032	56	6029
2026-01-05 04:03:59.75	314.39	12.77	-38.1	-39.4	29.0	3.04e+01	59	24	0	795869184	56	6082
2026-01-05 04:04:00.76	314.57	12.71	-37.6	-38.8	29.1	3.04e+01	62	24	0	797442048	56	5716
2026-01-05 04:04:01.77	314.75	12.65	-37.8	-39.0	29.4	3.04e+01	57	24	0	799539200	56	5836
2026-01-05 04:04:02.78	314.93	12.58	-37.7	-39.0	29.1	3.04e+01	60	24	0	801112064	56	5817
2026-01-05 04:04:03.79	315.11	12.52	-37.6	-38.8	29.3	3.04e+01	50	24	0	803209216	54	6404
2026-01-05 04:04:04.81	315.29	12.45	-37.6	-38.9	29.1	3.04e+01	60	24	0	805306368	54	6452
2026-01-05 04:04:05.82	315.47	12.39	-37.9	-39.2	29.1	3.04e+01	57	24	0	806879232	54	6688
2026-01-05 04:04:06.83	315.65	12.32	-37.7	-38.9	29.2	3.04e+01	49	24	0	808976384	54	6479
2026-01-05 04:04:07.84	315.82	12.26	-37.6	-38.8	29.1	3.04e+01	62	24	0	810549248	54	6388
2026-01-05 04:04:08.85	316.00	12.19	-37.6	-38.8	29.1	3.04e+01	57	24	0	812646400	54	6418
2026-01-05 04:04:09.86	316.17	12.13	-37.7	-38.9	29.2	3.04e+01	61	24	0	814743552	54	6444
2026-01-05 04:04:10.87	316.35	12.06	-37.3	-38.5	29.5	3.04e+01	58	24	0	816316416	54	6189
2026-01-05 04:04:11.88	316.52	12.00	-37.6	-38.8	29.5	3.04e+01	59	24	0	818413568	54	6414
2026-01-05 04:04:12.89	316.69	11.93	-37.4	-38.6	29.5	3.04e+01	59	24	0	820510720	54	6239
2026-01-05 04:04:13.91	316.86	11.87	-37.4	-38.6	29.4	3.04e+01	58	24	0	822083584	54	6248
2026-01-05 04:04:14.92	317.03	11.80	-37.2	-38.4	29.6	3.04e+01	48	24	0	824180736	54	6083
2026-01-05 04:04:15.93	317.20	11.74	-37.4	-38.6	29.4	3.04e+01	58	24	0	825753600	54	6268
2026-01-05 04:04:16.94	317.37	11.67	-37.4	-38.6	29.4	3.04e+01	56	24	0	827850752	54	6257
2026-01-05 04:04:17.95	317.54	11.61	-37.4	-38.6	29.5	3.04e+01	60	24	0	829947904	54	6209
2026-01-05 04:04:18.96	317.71	11.54	-37.5	-38.7	29.5	3.04e+01	59	24	0	831520768	54	6282
2026-01-05 04:04:19.97	317.88	11.48	-37.7	-38.9	29.4	3.04e+01	52	24	0	833617920	54	6434
2026-01-05 04:04:20.98	318.04	11.41	-37.1	-38.3	29.6	3.04e+01	60	24	0	835190784	54	6021
2026-01-05 04:04:21.99	318.21	11.35	-37.7	-38.9	29.4	3.04e+01	59	24	0	837287936	54	6429
2026-01-05 04:04:23.00	318.37	11.28	-37.3	-38.5	29.4	3.04e+01	46	24	0	839385088	54	6153
2026-01-05 04:04:24.01	318.53	11.22	-37.8	-39.1	29.4	3.04e+01	58	24	0	840957952	54	6579
2026-01-05 04:04:25.03	318.70	11.15	-37.5	-38.7	29.2	3.04e+01	61	24	0	843055104	54	6347
2026-01-05 04:04:26.04	318.86	11.09	-37.5	-38.8	29.3	3.04e+01	60	24	0	844627968	54	6353
2026-01-05 04:04:27.05	319.02	11.02	-37.5	-38.7	29.1	3.04e+01	63	24	0	846725120	54	6329
2026-01-05 04:04:28.06	319.18	10.96	-37.8	-39.1	29.1	3.04e+01	51	24	0	848822272	54	6604
2026-01-05 04:04:29.07	319.34	10.89	-38.3	-39.6	28.8	3.04e+01	63	24	0	850395136	56	6207
2026-01-05 04:04:30.08	319.50	10.83	-38.6	-39.9	29.0	3.04e+01	59	24	0	852492288	56	6424
2026-01-05 04:04:31.09	319.66	10.76	-37.8	-39.1	29.2	3.04e+01	57	24	0	854589440	56	5865
2026-01-05 04:04:32.11	319.82	10.70	-38.4	-39.7	28.9	3.04e+01	61	24	0	856162304	58	5597
2026-01-05 04:04:33.12	319.98	10.63	-38.7	-39.9	28.8	3.04e+01	46	24	0	858259456	56	6470
2026-01-05 04:04:34.13	320.13	10.57	-38.2	-39.5	29.0	3.04e+01	64	24	0	859832320	56	6140
2026-01-05 04:04:35.14	320.29	10.50	-37.9	-39.1	28.8	3.04e+01	62	24	0	861929472	56	5912
2026-01-05 04:04:36.15	320.44	10.44	-38.0	-39.2	29.0	3.04e+01	45	24	0	864026624	56	5946
2026-01-05 04:04:37.16	320.60	10.37	-37.9	-39.1	29.0	3.04e+01	60	24	0	865599488	56	5922
2026-01-05 04:04:38.17	320.75	10.31	-38.1	-39.4	29.0	3.04e+01	58	24	0	867696640	56	6086
2026-01-05 04:04:39.18	320.90	10.24	-38.1	-39.4	29.3	3.04e+01	59	24	0	869793792	56	6076
2026-01-05 04:04:40.19	321.05	10.18	-38.1	-39.4	28.7	3.04e+01	59	24	0	871366656	56	6088
2026-01-05 04:04:41.20	321.20	10.12	-38.3	-39.5	28.6	3.04e+01	58	24	0	873463808	56	6189
2026-01-05 04:04:42.21	321.36	10.05	-38.5	-39.7	28.6	3.04e+01	59	24	0	875036672	56	6322
2026-01-05 04:04:43.22	321.51	9.99	-38.3	-39.5	29.0	3.04e+01	58	24	0	877133824	56	6200
2026-01-05 04:04:44.23	321.65	9.92	-38.5	-39.8	29.0	3.04e+01	37	24	0	879230976	56	6373
2026-01-05 04:04:45.25	321.80	9.86	-37.8	-39.0	29.4	3.04e+01	58	24	0	880803840	56	5795
2026-01-05 04:04:46.26	321.95	9.79	-39.4	-40.7	29.2	3.04e+01	59	24	0	882900992	58	6312
2026-01-05 04:04:47.27	322.10	9.73	-39.2	-40.5	29.2	3.04e+01	61	24	0	884473856	56	6916
2026-01-05 04:04:48.28	322.25	9.66	-38.1	-39.3	29.1	3.04e+01	60	24	0	886571008	56	6012
2026-01-05 04:04:49.29	322.39	9.60	-38.6	-39.9	29.2	3.04e+01	47	24	0	888668160	56	6437
2026-01-05 04:04:50.30	322.54	9.53	-38.6	-39.8	28.4	3.04e+01	60	24	0	890241024	56	6423
2026-01-05 04:04:51.31	322.68	9.47	-38.7	-39.9	28.5	3.04e+01	61	24	0	892338176	56	6468
2026-01-05 04:04:52.32	322.82	9.40	-38.0	-39.2	28.8	3.04e+01	44	24	0	894435328	56	5975
2026-01-05 04:04:53.33	322.97	9.34	-38.0	-39.2	29.0	3.04e+01	58	24	0	896008192	56	5968
2026-01-05 04:04:54.34	323.11	9.28	-38.4	-39.6	29.1	3.04e+01	55	24	0	898105344	56	6251
2026-01-05 04:04:55.36	323.25	9.21	-38.3	-39.6	28.9	3.04e+01	57	24	0	899678208	56	6212
2026-01-05 04:04:56.37	323.39	9.15	-38.5	-39.7	28.8	3.04e+01	60	24	0	901775360	56	6321
2026-01-05 04:04:57.38	323.53	9.08	-38.2	-39.4	28.7	3.04e+01	52	24	0	903872512	56	6108
2026-01-05 04:04:58.39	323.67	9.02	-38.1	-39.3	28.8	3.04e+01	57	24	0	905445376	56	6022
2026-01-05 04:04:59.40	323.81	8.95	-37.8	-39.1	29.0	3.04e+01	62	24	0	907542528	56	5863
2026-01-05 04:05:00.41	323.95	8.89	-38.2	-39.4	29.1	3.04e+01	54	24	0	909639680	56	6132
2026-01-05 04:05:01.42	324.09	8.83	-38.0	-39.2	29.0	3.04e+01	61	24	0	911212544	56	5977
2026-01-05 04:05:02.43	324.23	8.76	-38.4	-39.6	28.9	3.04e+01	55	24	0	913309696	56	6241
2026-01-05 04:05:03.44	324.36	8.70	-38.3	-39.5	28.7	3.04e+01	57	24	0	914882560	56	6192
2026-01-05 04:05:04.46	324.50	8.63	-38.4	-39.6	28.7	3.04e+01	56	24	0	916979712	56	6273
2026-01-05 04:05:05.47	324.63	8.57	-38.3	-39.5	28.8	3.04e+01	51	24	0	919076864	56	6202
2026-01-05 04:05:06.48	324.77	8.51	-38.5	-39.8	28.7	3.04e+01	60	24	0	920649728	56	6355
2026-01-05 04:05:07.49	324.90	8.44	-38.2	-39.5	28.5	3.04e+01	58	24	0	922746880	56	6151
2026-01-05 04:05:08.50	325.04	8.38	-38.3	-39.6	28.7	3.04e+01	60	24	0	924319744	56	6217
2026-01-05 04:05:09.51	325.17	8.32	-38.2	-39.5	28.7	3.04e+01	61	24	0	926416896	56	6151
2026-01-05 04:05:10.52	325.30	8.25	-38.0	-39.2	28.6	3.04e+01	60	24	0	928514048	56	5973
2026-01-05 04:05:11.53	325.43	8.19	-38.3	-39.5	28.9	3.04e+01	60	24	0	930086912	56	6168
2026-01-05 04:05:12.54	325.56	8.13	-38.4	-39.7	28.5	3.04e+01	57	24	0	932184064	56	6289
2026-01-05 04:05:13.55	325.70	8.06	-38.9	-40.1	28.7	3.04e+01	52	24	0	934281216	56	6635
2026-01-05 04:05:14.57	325.83	8.00	-38.5	-39.8	28.6	3.04e+01	59	24	0	935854080	56	6362
2026-01-05 04:05:15.58	325.96	7.93	-38.9	-40.1	28.2	3.04e+01	60	24	0	937951232	56	6648
2026-01-05 04:05:16.59	326.08	7.87	-38.9	-40.2	28.3	3.04e+01	58	24	0	939524096	58	5955
2026-01-05 04:05:17.60	326.21	7.81	-40.1	-41.3	28.2	3.04e+01	58	24	0	941621248	60	6064
2026-01-05 04:05:18.61	326.34	7.75	-39.3	-40.6	27.8	3.04e+01	51	24	0	943718400	58	6221
2026-01-05 04:05:19.62	326.47	7.68	-39.5	-40.8	28.0	3.04e+01	55	24	0	945291264	58	6352
2026-01-05 04:05:20.63	326.59	7.62	-39.9	-41.2	28.1	3.04e+01	59	24	0	947388416	58	6655
2026-01-05 04:05:21.64	326.72	7.56	-39.2	-40.4	28.6	3.04e+01	56	24	0	948961280	58	6109
2026-01-05 04:05:22.65	326.84	7.49	-38.6	-39.9	28.1	3.04e+01	62	24	0	951058432	58	5729
2026-01-05 04:05:23.66	326.97	7.43	-39.1	-40.3	28.2	3.04e+01	57	24	0	953155584	58	6038
2026-01-05 04:05:24.67	327.09	7.37	-39.7	-41.0	28.3	3.04e+01	60	24	0	954728448	58	6551
2026-01-05 04:05:25.69	327.22	7.31	-40.7	-42.0	28.4	3.04e+01	60	24	0	956825600	60	6555
2026-01-05 04:05:26.70	327.34	7.24	-39.5	-40.8	28.2	3.04e+01	52	24	0	958922752	58	6374
2026-01-05 04:05:27.71	327.46	7.18	-39.2	-40.4	28.4	3.04e+01	60	24	0	960495616	58	6131
2026-01-05 04:05:28.72	327.59	7.12	-39.7	-41.0	27.9	3.04e+01	56	24	0	962592768	60	5820
2026-01-05 04:05:29.73	327.71	7.06	-39.5	-40.8	27.9	3.04e+01	56	24	0	964165632	58	6377
2026-01-05 04:05:30.74	327.83	6.99	-39.3	-40.6	27.3	3.04e+01	61	24	0	966262784	60	5558
2026-01-05 04:05:31.75	327.95	6.93	-39.6	-40.9	27.9	3.04e+01	45	24	0	968359936	60	5766
2026-01-05 04:05:32.76	328.07	6.87	-39.9	-41.2	27.9	3.04e+01	58	24	0	969932800	60	5986
2026-01-05 04:05:33.77	328.19	6.81	-39.0	-40.3	27.9	3.04e+01	57	24	0	972029952	58	6059
2026-01-05 04:05:34.78	328.31	6.75	-39.7	-41.1	27.8	3.04e+01	49	24	0	973602816	58	6574
2026-01-05 04:05:35.80	328.43	6.68	-39.6	-41.0	26.9	3.04e+01	59	24	0	975699968	58	6513
2026-01-05 04:05:36.81	328.54	6.62	-40.2	-41.5	27.8	3.04e+01	60	24	0	977797120	60	6164
2026-01-05 04:05:37.82	328.66	6.56	-40.0	-41.3	27.1	3.04e+01	59	24	0	979369984	58	6795
2026-01-05 04:05:38.83	328.78	6.50	-39.6	-40.9	27.9	3.04e+01	50	24	0	981467136	60	5736
2026-01-05 04:05:39.84	328.89	6.44	-39.4	-40.7	27.8	3.04e+01	46	24	0	983040000	58	6303
2026-01-05 04:05:40.85	329.01	6.38	-38.6	-39.8	28.3	3.04e+01	58	24	0	985137152	58	5710
2026-01-05 04:05:41.86	329.12	6.31	-38.5	-39.7	28.5	3.04e+01	58	24	0	987234304	58	5643
2026-01-05 04:05:42.87	329.24	6.25	-38.4	-39.7	28.4	3.04e+01	45	24	0	988807168	58	5596
2026-01-05 04:05:43.88	329.35	6.19	-38.3	-39.6	28.3	3.04e+01	59	24	0	990904320	56	6212
2026-01-05 04:05:44.90	329.47	6.13	-38.5	-39.8	28.3	3.04e+01	60	24	0	993001472	56	6363
2026-01-05 04:05:45.91	329.58	6.07	-38.5	-39.7	28.3	3.04e+01	57	24	0	994574336	56	6323
2026-01-05 04:05:46.92	329.69	6.01	-38.7	-40.0	28.3	3.04e+01	60	24	0	996671488	56	6510
2026-01-05 04:05:47.93	329.80	5.95	-38.3	-39.6	28.3	3.04e+01	52	24	0	998244352	56	6247
2026-01-05 04:05:48.94	329.92	5.89	-38.4	-39.7	28.2	3.04e+01	60	24	0	1000341504	56	6315
2026-01-05 04:05:49.95	330.03	5.82	-38.1	-39.4	28.3	3.04e+01	61	24	0	1002438656	56	6086
2026-01-05 04:05:50.96	330.14	5.76	-37.9	-39.2	28.4	3.04e+01	44	24	0	1004011520	56	5937
2026-01-05 04:05:51.97	330.25	5.70	-37.9	-39.2	28.4	3.04e+01	59	24	0	1006108672	56	5939
2026-01-05 04:05:52.98	330.36	5.64	-38.0	-39.2	28.4	3.04e+01	59	24	0	1007681536	56	5991
2026-01-05 04:05:53.99	330.47	5.58	-38.1	-39.4	28.3	3.04e+01	60	24	0	1009778688	56	6085
2026-01-05 04:05:55.01	330.58	5.52	-38.2	-39.5	28.3	3.04e+01	59	24	0	1011875840	56	6163
2026-01-05 04:05:56.02	330.68	5.46	-38.4	-39.6	28.1	3.04e+01	55	24	0	1013448704	56	6273
2026-01-05 04:05:57.03	330.79	5.40	-38.5	-39.8	28.2	3.04e+01	56	24	0	1015545856	56	6382
2026-01-05 04:05:58.04	330.90	5.34	-38.5	-39.7	28.2	3.04e+01	59	24	0	1017118720	56	6345
2026-01-05 04:05:59.05	331.01	5.28	-38.8	-40.1	28.1	3.04e+01	59	24	0	1019215872	56	6606
2026-01-05 04:06:00.06	331.11	5.22	-39.4	-40.7	27.8	3.04e+01	58	24	0	1021313024	58	6293
2026-01-05 04:06:01.07	331.22	5.16	-39.8	-41.1	27.3	3.04e+01	46	24	0	1022885888	58	6613
2026-01-05 04:06:02.08	331.32	5.10	-39.0	-40.3	27.9	3.04e+01	60	24	0	1024983040	58	6022
2026-01-05 04:06:03.09	331.43	5.04	-38.9	-40.2	27.8	3.04e+01	61	24	0	1027080192	58	5960
2026-01-05 04:06:04.11	331.54	4.98	-38.9	-40.2	27.8	3.04e+01	50	24	0	1028653056	58	5948
2026-01-05 04:06:05.12	331.64	4.92	-39.2	-40.5	27.6	3.04e+01	57	24	0	1030750208	58	6143
2026-01-05 04:06:06.13	331.74	4.86	-39.2	-40.5	27.7	3.04e+01	58	24	0	1032323072	58	6179
2026-01-05 04:06:07.14	331.85	4.80	-39.5	-40.8	27.9	3.04e+01	59	24	0	1034420224	58	6407
2026-01-05 04:06:08.15	331.95	4.74	-39.8	-41.0	27.7	3.04e+01	58	24	0	1036517376	58	6532
2026-01-05 04:06:09.16	332.05	4.68	-39.1	-40.4	27.7	3.04e+01	54	24	0	1038090240	58	6074
2026-01-05 04:06:10.17	332.15	4.62	-39.1	-40.4	27.8	3.04e+01	57	24	0	1040187392	58	6088
2026-01-05 04:06:11.18	332.26	4.56	-38.7	-40.0	27.9	3.04e+01	60	24	0	1042284544	58	5831
2026-01-05 04:06:12.19	332.36	4.50	-38.4	-39.7	27.9	3.04e+01	51	24	0	1043857408	58	5642
2026-01-05 04:06:13.21	332.46	4.45	-38.9	-49.1	3.6	3.04e+01	0	24	104	1044381696	58	16655
2026-01-05 04:06:14.22	332.56	4.39	-39.6	-49.9	3.4	3.04e+01	0	24	104	1044381696	58	18227
2026-01-05 04:06:15.23	332.66	4.33	-40.0	-50.4	3.4	3.04e+01	0	24	104	1044381696	58	19341
2026-01-05 04:06:16.24	332.76	4.27	-40.4	-50.9	3.4	3.04e+01	0	24	104	1044381696	58	20442
2026-01-05 04:06:17.25	332.86	4.21	-45.0	-56.1	3.5	3.04e+01	0	24	104	1044381696	60	33249
2026-01-05 04:06:18.26	332.96	4.15	-50.2	-66.3	3.5	3.04e+01	0	24	104	1044381696	60	107777
2026-01-05 04:06:19.27	333.05	4.09	-50.4	-67.1	3.4	3.04e+01	0	24	104	1044381696	60	117413
2026-01-05 04:06:20.28	333.15	4.03	-46.5	-58.0	3.6	3.04e+01	0	24	104	1044381696	60	41304
2026-01-05 04:06:21.29	333.25	3.98	-43.8	-54.8	3.4	3.04e+01	0	24	104	1044381696	60	28400
2026-01-05 04:06:22.31	333.35	3.92	-43.9	-54.6	4.0	3.04e+01	0	24	104	1044381696	60	27822
2026-01-05 04:06:23.32	333.44	3.86	-41.7	-52.2	4.1	3.04e+01	0	24	104	1044381696	60	21058
2026-01-05 04:06:24.33	333.54	3.80	-42.5	-53.1	4.0	3.04e+01	0	24	104	1044381696	60	23430
2026-01-05 04:06:25.34	333.64	3.74	-43.9	-54.7	4.0	3.04e+01	0	24	104	1044381696	60	28353
2026-01-05 04:06:26.35	333.73	3.68	-44.7	-55.8	3.4	3.04e+01	0	24	104	1044381696	60	31948
2026-01-05 04:06:27.36	333.83	3.63	-49.7	-62.8	3.9	3.04e+01	0	24	104	1044381696	60	71306
2026-01-05 04:06:28.37	333.92	3.57	-51.1	-67.7	3.5	3.04e+01	0	24	104	1044381696	60	125910
2026-01-05 04:06:29.38	334.01	3.51	-45.8	-56.7	3.5	3.04e+01	0	24	104	1044381696	60	35525
2026-01-05 04:06:30.39	334.11	3.45	-41.1	-51.5	3.6	3.04e+01	0	24	104	1044381696	60	19573
2026-01-05 04:06:31.41	334.20	3.39	-41.0	-51.4	3.6	3.04e+01	0	24	104	1044381696	60	19301
2026-01-05 04:06:32.42	334.30	3.34	-40.7	-51.1	3.5	3.04e+01	0	24	104	1044381696	60	18656
2026-01-05 04:06:33.43	334.39	3.28	-40.6	-50.9	3.5	3.04e+01	0	24	104	1044381696	60	18112
2026-01-05 04:06:34.44	334.48	3.22	-42.7	-53.3	3.6	3.04e+01	0	24	104	1044381696	60	24073
2026-01-05 04:06:35.45	334.57	3.17	-41.9	-52.3	3.5	3.04e+01	0	24	104	1044381696	60	21370
2026-01-05 04:06:36.46	334.66	3.11	-51.5	-67.6	3.5	3.04e+01	0	24	104	1044381696	60	124758
2026-01-05 04:06:37.47	334.76	3.05	-45.1	-56.1	3.5	3.04e+01	0	24	104	1044381696	60	33308
2026-01-05 04:06:38.48	334.85	2.99	-45.9	-57.0	3.5	3.04e+01	0	24	104	1044381696	60	36662
2026-01-05 04:06:39.49	334.94	2.94	-40.7	-51.0	3.5	3.04e+01	0	24	104	1044381696	60	18506
2026-01-05 04:06:40.51	335.03	2.88	-40.6	-51.0	3.5	3.04e+01	0	24	104	1044381696	60	18357
2026-01-05 04:06:41.51	335.12	2.82	-40.0	-50.4	3.5	3.04e+01	0	24	104	1044381696	60	17104
