passes_logs/2026/01/05/R4.6S_Anadyr_2ch/R4.6S_Anadyr_2ch__20260105_014638_FENGYUN_3D_rec.log

#Pass ID: 20260105_014638_FENGYUN 3D
#Satellite: FENGYUN 3D
#Configuration: FENGYUN 3D
#almurnet v.1.7.20251203
#Start time: 2026-01-05 01:46:40

#Version: 2.2.20231116
#Station: R4.6S_Anadyr_2ch
#Location: 177.4865 lon 64.73178 lat
#TLE: 1 43010U 17072A   25350.96693137  .00000321  00000+0  17364-3 0  9993
#TLE: 2 43010  98.9888 317.3403 0001146 169.6565 190.4634 14.19686173419132

#Time	Az	El	Level	Level2	SNR	BER	BlckErr	Temp	State	Recorded	gain1	gain2
2026-01-05 01:46:40.24	144.72	0.09	-51.8	-66.9	3.5	1.51e+00	0	25	0	0	60	108149
2026-01-05 01:46:41.25	144.71	0.15	-52.1	-64.4	3.6	8.46e-01	0	26	104	0	60	81191
2026-01-05 01:46:42.26	144.70	0.21	-52.4	-64.7	3.6	8.46e-01	0	26	104	0	60	83797
2026-01-05 01:46:43.27	144.69	0.27	-53.1	-65.5	3.6	8.44e-01	0	26	104	0	60	91897
2026-01-05 01:46:44.28	144.68	0.33	-52.8	-65.1	3.6	8.45e-01	0	26	104	0	60	87724
2026-01-05 01:46:45.30	144.67	0.39	-53.9	-66.2	3.6	8.45e-01	0	26	104	0	60	99627
2026-01-05 01:46:46.31	144.66	0.45	-51.8	-64.1	3.6	8.46e-01	0	26	104	0	60	77864
2026-01-05 01:46:47.32	144.65	0.51	-52.6	-64.9	3.6	8.45e-01	0	26	104	0	60	85872
2026-01-05 01:46:48.33	144.65	0.58	-51.6	-63.9	3.6	8.46e-01	0	26	104	0	60	76276
2026-01-05 01:46:49.34	144.64	0.64	-52.5	-64.8	3.6	8.45e-01	0	26	104	0	60	84580
2026-01-05 01:46:50.35	144.63	0.70	-51.5	-63.8	3.6	8.46e-01	0	26	104	0	60	75712
2026-01-05 01:46:51.36	144.62	0.76	-51.3	-63.7	3.6	8.45e-01	0	26	104	0	60	74547
2026-01-05 01:46:52.37	144.61	0.82	-51.3	-63.7	3.5	8.46e-01	0	26	104	0	60	74692
2026-01-05 01:46:53.38	144.60	0.89	-51.3	-63.6	3.6	8.45e-01	0	26	104	0	60	74038
2026-01-05 01:46:54.39	144.59	0.95	-51.2	-63.6	3.6	8.45e-01	0	26	104	0	60	73399
2026-01-05 01:46:55.40	144.58	1.01	-51.2	-63.6	3.6	8.45e-01	0	26	104	0	60	73596
2026-01-05 01:46:56.41	144.57	1.07	-51.1	-63.4	3.6	8.46e-01	0	26	104	0	60	72219
2026-01-05 01:46:57.42	144.56	1.14	-51.0	-63.3	3.6	8.45e-01	0	26	104	0	60	71530
2026-01-05 01:46:58.43	144.55	1.20	-50.9	-63.2	3.6	8.44e-01	0	26	104	0	60	70779
2026-01-05 01:46:59.44	144.54	1.26	-50.7	-63.1	3.6	8.45e-01	0	26	104	0	60	69349
2026-01-05 01:47:00.45	144.53	1.33	-50.4	-62.8	3.6	8.46e-01	0	26	104	0	60	67309
2026-01-05 01:47:01.46	144.52	1.39	-50.0	-62.3	3.6	8.46e-01	0	26	104	0	60	63527
2026-01-05 01:47:02.47	144.51	1.45	-49.5	-61.9	3.6	8.46e-01	0	26	104	0	60	60627
2026-01-05 01:47:03.48	144.50	1.52	-49.4	-61.7	3.5	8.45e-01	0	26	104	0	60	59389
2026-01-05 01:47:04.49	144.49	1.58	-49.5	-61.8	3.6	8.44e-01	0	26	104	0	60	59841
2026-01-05 01:47:05.51	144.48	1.64	-49.3	-61.5	3.6	8.46e-01	0	26	104	0	60	58106
2026-01-05 01:47:06.52	144.47	1.71	-49.3	-61.5	3.6	8.45e-01	0	26	104	0	60	57911
2026-01-05 01:47:07.53	144.46	1.77	-49.3	-61.6	3.6	8.46e-01	0	26	104	0	60	58521
2026-01-05 01:47:08.54	144.44	1.84	-49.4	-61.6	3.6	8.46e-01	0	26	104	0	60	58711
2026-01-05 01:47:09.55	144.43	1.90	-49.3	-61.5	3.6	8.45e-01	0	26	104	0	60	58270
2026-01-05 01:47:10.56	144.42	1.97	-49.3	-61.6	3.6	8.44e-01	0	26	104	0	60	58704
2026-01-05 01:47:11.57	144.41	2.03	-49.2	-61.6	3.6	8.45e-01	0	26	104	0	60	58377
2026-01-05 01:47:12.58	144.40	2.09	-49.3	-61.7	3.6	8.47e-01	0	26	104	0	60	59009
2026-01-05 01:47:13.60	144.39	2.16	-49.2	-61.6	3.6	8.45e-01	0	26	104	0	60	58738
2026-01-05 01:47:14.61	144.38	2.23	-49.3	-61.6	3.6	8.45e-01	0	26	104	0	60	58519
2026-01-05 01:47:15.62	144.37	2.29	-49.3	-61.6	3.6	8.46e-01	0	26	104	0	60	58941
2026-01-05 01:47:16.63	144.36	2.36	-49.3	-61.5	3.6	8.46e-01	0	27	104	0	60	57817
2026-01-05 01:47:17.64	144.35	2.42	-49.3	-61.5	3.6	8.46e-01	0	27	104	0	60	58229
2026-01-05 01:47:18.65	144.34	2.49	-49.3	-61.6	3.6	8.46e-01	0	26	104	0	60	58785
2026-01-05 01:47:19.66	144.32	2.55	-49.3	-61.6	3.6	8.45e-01	0	27	104	0	60	58892
2026-01-05 01:47:20.67	144.31	2.62	-49.3	-61.6	3.6	8.46e-01	0	27	104	0	60	58521
2026-01-05 01:47:21.68	144.30	2.69	-49.3	-61.6	3.6	8.45e-01	0	26	104	0	60	58885
2026-01-05 01:47:22.69	144.29	2.75	-49.4	-61.7	3.6	8.45e-01	0	27	104	0	60	59301
2026-01-05 01:47:23.70	144.28	2.82	-49.3	-61.5	3.6	8.45e-01	0	27	104	0	60	58200
2026-01-05 01:47:24.71	144.27	2.89	-49.2	-61.6	3.6	8.46e-01	0	26	104	0	60	58337
2026-01-05 01:47:25.72	144.26	2.95	-49.2	-61.5	3.6	8.46e-01	0	27	104	0	60	58262
2026-01-05 01:47:26.73	144.24	3.02	-49.2	-61.6	3.6	8.45e-01	0	27	104	0	60	58306
2026-01-05 01:47:27.74	144.23	3.09	-49.2	-61.6	3.6	8.46e-01	0	27	104	0	60	58417
2026-01-05 01:47:28.76	144.22	3.15	-49.4	-61.8	3.6	8.46e-01	0	26	104	0	60	59686
2026-01-05 01:47:29.77	144.21	3.22	-49.3	-61.6	3.6	8.46e-01	0	26	104	0	60	58696
2026-01-05 01:47:30.78	144.20	3.29	-49.3	-61.4	3.6	8.45e-01	0	27	104	0	60	57606
2026-01-05 01:47:31.79	144.19	3.36	-49.2	-60.8	3.6	8.45e-01	0	26	104	0	60	53769
2026-01-05 01:47:32.80	144.17	3.43	-49.1	-59.7	3.6	8.45e-01	0	27	104	0	60	46855
2026-01-05 01:47:33.81	144.16	3.49	-48.9	-58.3	4.1	8.39e-01	0	27	104	0	60	40180
2026-01-05 01:47:34.82	144.15	3.56	-48.3	-53.8	5.3	7.58e-01	0	27	0	0	60	23954
2026-01-05 01:47:35.83	144.14	3.63	-48.0	-52.8	6.6	1.56e-01	0	27	0	5242880	60	21302
2026-01-05 01:47:36.84	144.12	3.70	-47.5	-51.5	8.7	7.63e-02	0	27	0	11534336	60	18375
2026-01-05 01:47:37.85	144.11	3.77	-46.5	-49.6	10.5	1.05e-02	0	27	0	16777216	60	14736
2026-01-05 01:47:38.87	144.10	3.84	-46.7	-49.8	11.6	4.69e-03	0	27	0	23068672	60	15108
2026-01-05 01:47:39.88	144.09	3.91	-45.6	-48.1	12.8	1.72e-04	0	27	0	28311552	60	12382
2026-01-05 01:47:40.89	144.07	3.98	-45.0	-47.2	13.4	3.66e-05	0	27	0	33554432	60	11202
2026-01-05 01:47:41.90	144.06	4.05	-43.9	-45.8	14.5	1.71e-05	0	27	0	39845888	60	9465
2026-01-05 01:47:42.91	144.05	4.12	-44.5	-46.5	14.3	1.14e-05	0	27	0	45088768	60	10333
2026-01-05 01:47:43.92	144.04	4.19	-43.9	-45.7	15.4	0.00e+00	0	27	0	51380224	60	9374
2026-01-05 01:47:44.93	144.02	4.26	-43.0	-44.5	16.5	0.00e+00	0	27	0	56623104	60	8159
2026-01-05 01:47:45.94	144.01	4.33	-48.8	-54.3	6.1	1.72e-02	0	27	0	61865984	60	25363
2026-01-05 01:47:46.95	144.00	4.40	-48.0	-52.2	7.9	1.48e-01	0	27	0	68157440	60	19906
2026-01-05 01:47:47.96	143.98	4.47	-48.6	-55.8	3.9	8.37e-02	0	27	0	73400320	60	30229
2026-01-05 01:47:48.98	143.97	4.54	-41.3	-42.5	18.3	0.00e+00	0	27	0	77594624	60	6511
2026-01-05 01:47:49.99	143.96	4.61	-48.8	-58.0	3.7	7.95e-01	0	27	104	80740352	60	38566
2026-01-05 01:47:51.00	143.94	4.68	-41.1	-42.2	18.9	8.38e-04	0	27	0	81788928	60	6307
2026-01-05 01:47:52.01	143.93	4.75	-40.4	-41.4	19.4	0.00e+00	0	27	0	87031808	60	5738
2026-01-05 01:47:53.02	143.92	4.82	-40.8	-42.0	19.0	0.00e+00	0	27	0	93323264	60	6109
2026-01-05 01:47:54.03	143.90	4.90	-40.8	-41.8	19.4	0.00e+00	0	27	0	98566144	60	6019
2026-01-05 01:47:55.04	143.89	4.97	-40.4	-41.4	19.5	0.00e+00	0	27	0	103809024	60	5741
2026-01-05 01:47:56.05	143.87	5.04	-40.4	-41.5	19.8	0.00e+00	0	27	0	110100480	60	5781
2026-01-05 01:47:57.06	143.86	5.11	-40.7	-41.7	19.7	0.00e+00	0	27	0	115343360	60	5935
2026-01-05 01:47:58.07	143.85	5.18	-40.3	-41.4	19.7	0.00e+00	0	27	0	121634816	60	5705
2026-01-05 01:47:59.09	143.83	5.26	-39.8	-40.7	20.4	0.00e+00	0	27	0	126877696	58	5939
2026-01-05 01:48:00.10	143.82	5.33	-40.0	-41.0	20.1	0.00e+00	0	27	0	133169152	58	6165
2026-01-05 01:48:01.11	143.80	5.40	-39.7	-40.7	20.4	0.00e+00	0	27	0	138412032	58	5940
2026-01-05 01:48:02.12	143.79	5.48	-39.7	-40.7	20.4	0.00e+00	0	27	0	144703488	58	5945
2026-01-05 01:48:03.13	143.78	5.55	-39.8	-40.7	20.4	0.00e+00	0	27	0	149946368	58	5963
2026-01-05 01:48:04.14	143.76	5.62	-39.6	-40.6	20.5	0.00e+00	0	27	0	155189248	58	5845
2026-01-05 01:48:05.15	143.75	5.70	-39.6	-40.6	20.5	0.00e+00	0	27	0	161480704	58	5873
2026-01-05 01:48:06.16	143.73	5.77	-39.7	-40.6	20.6	0.00e+00	0	27	0	166723584	58	5890
2026-01-05 01:48:07.17	143.72	5.85	-39.7	-40.7	20.4	0.00e+00	0	27	0	173015040	58	5910
2026-01-05 01:48:08.18	143.70	5.92	-39.4	-40.3	20.7	0.00e+00	0	27	0	178257920	58	5675
2026-01-05 01:48:09.20	143.69	6.00	-39.7	-40.6	20.5	0.00e+00	0	27	0	183500800	58	5884
2026-01-05 01:48:10.21	143.67	6.07	-39.6	-40.5	20.6	0.00e+00	0	27	0	189792256	58	5824
2026-01-05 01:48:11.22	143.66	6.15	-39.4	-40.4	20.7	0.00e+00	0	27	0	195035136	58	5699
2026-01-05 01:48:12.23	143.64	6.22	-39.1	-40.0	20.9	0.00e+00	0	27	0	201326592	58	5475
2026-01-05 01:48:13.24	143.63	6.30	-39.4	-40.3	20.8	0.00e+00	0	27	0	206569472	56	6354
2026-01-05 01:48:14.25	143.61	6.37	-39.2	-40.2	20.9	0.00e+00	0	27	0	211812352	56	6261
2026-01-05 01:48:15.26	143.59	6.45	-39.2	-40.1	21.0	0.00e+00	0	27	0	218103808	56	6230
2026-01-05 01:48:16.27	143.58	6.53	-39.4	-40.3	20.5	0.00e+00	0	27	0	223346688	56	6388
2026-01-05 01:48:17.28	143.56	6.60	-39.2	-40.2	21.0	0.00e+00	0	27	0	229638144	56	6261
2026-01-05 01:48:18.29	143.55	6.68	-39.0	-39.9	21.2	0.00e+00	0	27	0	234881024	56	6046
2026-01-05 01:48:19.31	143.53	6.76	-39.0	-39.9	21.2	0.00e+00	0	27	0	241172480	56	6070
2026-01-05 01:48:20.32	143.52	6.83	-39.1	-40.0	21.2	0.00e+00	0	27	0	246415360	56	6151
2026-01-05 01:48:21.33	143.50	6.91	-39.1	-39.9	21.4	0.00e+00	0	27	0	252706816	56	6102
2026-01-05 01:48:22.34	143.48	6.99	-38.9	-39.8	21.4	0.00e+00	0	27	0	257949696	56	5991
2026-01-05 01:48:23.35	143.47	7.07	-39.0	-39.9	21.3	0.00e+00	0	27	0	263192576	56	6035
2026-01-05 01:48:24.36	143.45	7.15	-38.8	-39.7	21.4	0.00e+00	0	27	0	269484032	56	5939
2026-01-05 01:48:25.37	143.43	7.22	-38.9	-39.8	21.3	0.00e+00	0	27	0	274726912	56	5994
2026-01-05 01:48:26.38	143.42	7.30	-38.6	-39.5	21.7	0.00e+00	0	27	0	281018368	56	5780
2026-01-05 01:48:27.39	143.40	7.38	-38.9	-39.8	21.7	0.00e+00	0	27	0	286261248	56	6013
2026-01-05 01:48:28.41	143.38	7.46	-38.6	-39.4	21.8	0.00e+00	0	27	0	292552704	56	5761
2026-01-05 01:48:29.42	143.37	7.54	-38.8	-39.6	21.7	0.00e+00	0	27	0	297795584	56	5891
2026-01-05 01:48:30.43	143.35	7.62	-38.7	-39.5	21.5	0.00e+00	0	27	0	303038464	56	5796
2026-01-05 01:48:31.44	143.33	7.70	-38.9	-39.8	21.9	0.00e+00	0	27	0	309329920	56	5988
2026-01-05 01:48:32.45	143.31	7.78	-38.4	-39.2	22.1	0.00e+00	0	27	0	314572800	56	5626
2026-01-05 01:48:33.46	143.30	7.86	-38.7	-39.5	21.9	0.00e+00	0	27	0	320864256	56	5793
2026-01-05 01:48:34.47	143.28	7.94	-38.5	-39.3	22.3	0.00e+00	0	27	0	326107136	56	5668
2026-01-05 01:48:35.48	143.26	8.02	-38.5	-39.3	22.1	0.00e+00	0	27	0	331350016	56	5646
2026-01-05 01:48:36.49	143.24	8.10	-38.7	-39.5	22.3	0.00e+00	0	27	0	337641472	56	5797
2026-01-05 01:48:37.51	143.23	8.19	-38.4	-39.2	22.2	0.00e+00	0	27	0	342884352	56	5617
2026-01-05 01:48:38.52	143.21	8.27	-38.5	-39.3	22.1	0.00e+00	0	27	0	349175808	56	5682
2026-01-05 01:48:39.53	143.19	8.35	-38.4	-39.2	22.2	0.00e+00	0	27	0	354418688	56	5584
2026-01-05 01:48:40.54	143.17	8.43	-38.0	-38.8	22.5	0.00e+00	0	27	0	360710144	54	5979
2026-01-05 01:48:41.55	143.15	8.51	-38.0	-38.8	22.4	0.00e+00	0	27	0	365953024	54	6004
2026-01-05 01:48:42.56	143.13	8.60	-38.2	-38.9	22.7	0.00e+00	0	27	0	372244480	54	6080
2026-01-05 01:48:43.57	143.12	8.68	-38.0	-38.8	22.7	0.00e+00	0	27	0	377487360	54	6016
2026-01-05 01:48:44.58	143.10	8.76	-38.0	-38.8	22.6	0.00e+00	0	27	0	382730240	54	6006
2026-01-05 01:48:45.59	143.08	8.85	-37.9	-38.6	22.7	0.00e+00	0	27	0	389021696	54	5895
2026-01-05 01:48:46.60	143.06	8.93	-37.8	-38.6	22.8	0.00e+00	0	27	0	394264576	54	5860
2026-01-05 01:48:47.61	143.04	9.01	-37.9	-38.7	22.7	0.00e+00	0	27	0	400556032	54	5931
2026-01-05 01:48:48.63	143.02	9.10	-38.0	-38.8	22.7	0.00e+00	0	27	0	405798912	54	6008
2026-01-05 01:48:49.64	143.00	9.18	-38.2	-39.0	22.7	0.00e+00	0	27	0	411041792	54	6111
2026-01-05 01:48:50.65	142.98	9.27	-37.9	-38.7	22.7	0.00e+00	0	27	0	417333248	54	5946
2026-01-05 01:48:51.66	142.96	9.35	-37.7	-38.5	22.9	0.00e+00	0	27	0	422576128	54	5774
2026-01-05 01:48:52.67	142.94	9.44	-37.6	-38.4	23.1	0.00e+00	0	27	0	428867584	54	5711
2026-01-05 01:48:53.68	142.92	9.52	-37.6	-38.4	23.1	0.00e+00	0	27	0	434110464	54	5725
2026-01-05 01:48:54.69	142.90	9.61	-37.7	-38.4	23.0	0.00e+00	0	27	0	439353344	54	5758
2026-01-05 01:48:55.70	142.88	9.70	-37.7	-38.4	23.1	0.00e+00	0	27	0	445644800	54	5757
2026-01-05 01:48:56.71	142.86	9.78	-37.4	-38.2	23.2	0.00e+00	0	27	0	450887680	54	5587
2026-01-05 01:48:57.73	142.84	9.87	-37.6	-38.4	23.0	0.00e+00	0	27	0	457179136	54	5721
2026-01-05 01:48:58.74	142.82	9.96	-37.4	-38.2	23.2	0.00e+00	0	27	0	462422016	54	5607
2026-01-05 01:48:59.75	142.80	10.05	-37.4	-38.1	23.2	0.00e+00	0	27	0	468713472	54	5558
2026-01-05 01:49:00.76	142.78	10.13	-37.3	-38.1	23.2	0.00e+00	0	27	0	473956352	54	5517
2026-01-05 01:49:01.77	142.76	10.22	-37.3	-38.0	23.1	0.00e+00	0	27	0	480247808	54	5502
2026-01-05 01:49:02.78	142.74	10.31	-37.2	-38.0	23.2	0.00e+00	0	27	0	485490688	54	5485
2026-01-05 01:49:03.79	142.72	10.40	-37.3	-38.0	23.1	0.00e+00	0	27	0	490733568	54	5497
2026-01-05 01:49:04.80	142.69	10.49	-37.4	-38.1	23.1	0.00e+00	0	27	0	497025024	54	5559
2026-01-05 01:49:05.81	142.67	10.58	-37.3	-38.1	23.1	0.00e+00	0	27	0	502267904	54	5542
2026-01-05 01:49:06.83	142.65	10.67	-37.3	-38.1	23.2	0.00e+00	0	27	0	508559360	54	5521
2026-01-05 01:49:07.84	142.63	10.76	-37.4	-38.2	23.1	0.00e+00	0	27	0	513802240	54	5576
2026-01-05 01:49:08.85	142.61	10.85	-37.4	-38.2	23.0	0.00e+00	0	27	0	519045120	54	5574
2026-01-05 01:49:09.86	142.58	10.94	-37.4	-38.1	23.1	0.00e+00	0	27	0	525336576	54	5541
2026-01-05 01:49:10.86	142.56	11.03	-37.6	-38.4	22.7	0.00e+00	0	27	0	530579456	54	5700
2026-01-05 01:49:11.88	142.54	11.12	-37.3	-38.1	23.1	0.00e+00	0	27	0	536870912	54	5525
2026-01-05 01:49:12.89	142.52	11.21	-37.5	-38.3	23.0	0.00e+00	0	27	0	542113792	54	5643
2026-01-05 01:49:13.90	142.49	11.31	-37.6	-38.4	22.6	0.00e+00	0	27	0	547356672	54	5725
2026-01-05 01:49:14.91	142.47	11.40	-37.5	-38.3	22.7	0.00e+00	0	27	0	553648128	54	5642
2026-01-05 01:49:15.92	142.45	11.49	-37.7	-38.5	22.4	0.00e+00	0	27	0	558891008	54	5766
2026-01-05 01:49:16.93	142.42	11.58	-37.4	-38.2	22.6	0.00e+00	0	27	0	565182464	54	5588
2026-01-05 01:49:17.94	142.40	11.68	-37.3	-38.0	22.9	0.00e+00	0	27	0	570425344	54	5500
2026-01-05 01:49:18.95	142.38	11.77	-37.3	-38.1	22.6	0.00e+00	0	27	0	576716800	54	5535
2026-01-05 01:49:19.96	142.35	11.87	-37.3	-38.0	22.9	0.00e+00	0	27	0	581959680	54	5497
2026-01-05 01:49:20.97	142.33	11.96	-37.3	-38.1	22.2	0.00e+00	0	27	0	588251136	54	5519
2026-01-05 01:49:21.98	142.30	12.06	-37.5	-38.3	22.9	0.00e+00	0	27	0	593494016	54	5677
2026-01-05 01:49:22.99	142.28	12.15	-37.2	-38.0	22.9	0.00e+00	0	27	0	598736896	54	5458
2026-01-05 01:49:24.00	142.26	12.25	-37.5	-38.2	23.0	0.00e+00	0	27	0	605028352	54	5589
2026-01-05 01:49:25.01	142.23	12.34	-37.3	-38.0	23.1	0.00e+00	0	27	0	610271232	54	5480
2026-01-05 01:49:26.03	142.21	12.44	-37.5	-38.2	23.1	0.00e+00	0	27	0	616562688	54	5624
2026-01-05 01:49:27.04	142.18	12.54	-37.3	-38.0	23.1	0.00e+00	0	27	0	621805568	52	6153
2026-01-05 01:49:28.05	142.16	12.63	-37.4	-38.1	23.2	0.00e+00	0	27	0	627048448	52	6224
2026-01-05 01:49:29.06	142.13	12.73	-37.5	-38.2	22.4	0.00e+00	0	27	0	633339904	52	6287
2026-01-05 01:49:30.07	142.10	12.83	-37.6	-38.3	23.0	0.00e+00	0	27	0	638582784	52	6379
2026-01-05 01:49:31.08	142.08	12.93	-37.2	-37.9	23.5	0.00e+00	0	27	0	644874240	52	6058
2026-01-05 01:49:32.09	142.05	13.03	-37.1	-37.9	23.5	0.00e+00	0	27	0	650117120	52	6055
2026-01-05 01:49:33.10	142.03	13.13	-37.0	-37.8	23.6	0.00e+00	0	27	0	655360000	52	5983
2026-01-05 01:49:34.11	142.00	13.22	-37.0	-37.7	23.8	0.00e+00	0	27	0	661651456	52	5955
2026-01-05 01:49:35.12	141.97	13.32	-36.9	-37.6	23.8	0.00e+00	0	27	0	666894336	52	5867
2026-01-05 01:49:36.14	141.95	13.43	-36.9	-37.6	24.1	0.00e+00	0	27	0	673185792	52	5864
2026-01-05 01:49:37.15	141.92	13.53	-37.0	-37.8	23.9	0.00e+00	0	27	0	678428672	52	5972
2026-01-05 01:49:38.16	141.89	13.63	-36.9	-37.7	24.2	0.00e+00	0	27	0	684720128	52	5900
2026-01-05 01:49:39.17	141.86	13.73	-36.6	-37.3	24.2	0.00e+00	0	27	0	689963008	52	5657
2026-01-05 01:49:40.18	141.84	13.83	-36.6	-37.2	24.1	0.00e+00	0	27	0	696254464	52	5628
2026-01-05 01:49:41.19	141.81	13.93	-36.5	-37.2	24.4	0.00e+00	0	27	0	701497344	52	5626
2026-01-05 01:49:42.20	141.78	14.04	-36.2	-36.9	24.6	0.00e+00	0	27	0	706740224	52	5401
2026-01-05 01:49:43.21	141.75	14.14	-36.5	-37.2	24.5	0.00e+00	0	27	0	713031680	52	5585
2026-01-05 01:49:44.22	141.72	14.24	-36.2	-36.9	24.7	0.00e+00	0	27	0	718274560	52	5424
2026-01-05 01:49:45.23	141.69	14.35	-36.1	-36.8	24.8	0.00e+00	0	27	0	724566016	52	5354
2026-01-05 01:49:46.25	141.66	14.45	-36.6	-37.3	24.9	0.00e+00	0	27	0	729808896	50	6352
2026-01-05 01:49:47.26	141.64	14.56	-36.4	-37.1	25.0	0.00e+00	0	27	0	736100352	50	6241
2026-01-05 01:49:48.27	141.61	14.66	-36.5	-37.2	24.9	0.00e+00	0	27	0	741343232	50	6288
2026-01-05 01:49:49.28	141.58	14.77	-36.3	-37.0	24.9	0.00e+00	0	27	0	746586112	50	6109
2026-01-05 01:49:50.29	141.55	14.88	-36.5	-37.1	25.0	0.00e+00	0	27	0	752877568	50	6234
2026-01-05 01:49:51.30	141.52	14.98	-36.4	-37.1	25.0	0.00e+00	0	27	0	758120448	50	6184
2026-01-05 01:49:52.31	141.49	15.09	-35.7	-36.4	25.4	0.00e+00	0	27	0	764411904	50	5728
2026-01-05 01:49:53.32	141.45	15.20	-35.7	-36.4	25.6	0.00e+00	0	27	0	769654784	50	5703
2026-01-05 01:49:54.33	141.42	15.31	-35.4	-36.0	25.6	0.00e+00	0	27	0	774897664	50	5493
2026-01-05 01:49:55.35	141.39	15.41	-35.3	-35.9	25.8	0.00e+00	0	27	0	781189120	50	5420
2026-01-05 01:49:56.36	141.36	15.52	-35.1	-35.8	25.9	0.00e+00	0	27	0	786432000	48	5967
2026-01-05 01:49:57.37	141.33	15.63	-35.1	-35.8	25.8	0.00e+00	0	27	0	792723456	48	6007
2026-01-05 01:49:58.38	141.30	15.74	-34.9	-35.5	25.9	0.00e+00	0	27	0	797966336	48	5820
2026-01-05 01:49:59.39	141.27	15.85	-34.9	-35.6	26.0	0.00e+00	0	27	0	804257792	48	5856
2026-01-05 01:50:00.40	141.23	15.97	-34.9	-35.6	26.1	0.00e+00	0	27	0	809500672	48	5831
2026-01-05 01:50:01.41	141.20	16.08	-34.9	-35.5	26.2	0.00e+00	0	27	0	815792128	48	5784
2026-01-05 01:50:02.42	141.17	16.19	-34.7	-35.3	26.2	0.00e+00	0	27	0	821035008	48	5671
2026-01-05 01:50:03.43	141.13	16.30	-34.8	-35.4	26.3	0.00e+00	0	27	0	826277888	48	5734
2026-01-05 01:50:04.45	141.10	16.42	-34.7	-35.3	26.2	0.00e+00	0	27	0	832569344	48	5686
2026-01-05 01:50:05.46	141.07	16.53	-34.6	-35.3	26.3	0.00e+00	0	27	0	837812224	48	5652
2026-01-05 01:50:06.47	141.03	16.64	-34.5	-35.2	26.4	0.00e+00	0	27	0	844103680	48	5592
2026-01-05 01:50:07.48	141.00	16.76	-34.4	-35.1	26.4	0.00e+00	0	27	0	849346560	48	5508
2026-01-05 01:50:08.49	140.96	16.87	-34.5	-35.1	26.3	0.00e+00	0	27	0	854589440	48	5534
2026-01-05 01:50:09.50	140.93	16.99	-34.6	-35.2	26.3	0.00e+00	0	27	0	860880896	48	5617
2026-01-05 01:50:10.51	140.89	17.11	-34.5	-35.2	26.4	0.00e+00	0	27	0	866123776	48	5578
2026-01-05 01:50:11.52	140.86	17.22	-34.8	-35.4	26.2	0.00e+00	0	27	0	872415232	48	5752
2026-01-05 01:50:12.53	140.82	17.34	-34.4	-35.0	26.5	0.00e+00	0	27	0	877658112	48	5481
2026-01-05 01:50:13.55	140.78	17.46	-34.5	-35.2	26.4	0.00e+00	0	27	0	882900992	48	5600
2026-01-05 01:50:14.56	140.75	17.58	-34.4	-35.1	26.4	0.00e+00	0	27	0	889192448	48	5515
2026-01-05 01:50:15.57	140.71	17.70	-34.7	-35.4	26.1	0.00e+00	0	27	0	894435328	48	5740
2026-01-05 01:50:16.58	140.67	17.82	-34.3	-34.9	26.5	0.00e+00	0	27	0	900726784	48	5437
2026-01-05 01:50:17.59	140.64	17.94	-34.3	-34.9	26.6	0.00e+00	0	27	0	905969664	48	5411
2026-01-05 01:50:18.60	140.60	18.06	-34.4	-35.1	26.5	0.00e+00	0	27	0	912261120	48	5519
2026-01-05 01:50:19.61	140.56	18.18	-34.4	-35.0	26.7	0.00e+00	0	27	0	917504000	48	5471
2026-01-05 01:50:20.62	140.52	18.30	-34.3	-34.9	26.8	0.00e+00	0	27	0	923795456	48	5384
2026-01-05 01:50:21.63	140.48	18.42	-34.2	-34.9	26.8	0.00e+00	0	27	0	929038336	48	5392
2026-01-05 01:50:22.64	140.44	18.55	-34.4	-35.0	26.8	0.00e+00	0	27	0	934281216	46	6173
2026-01-05 01:50:23.65	140.41	18.67	-34.1	-34.8	26.9	0.00e+00	0	27	0	940572672	46	5979
2026-01-05 01:50:24.66	140.37	18.79	-34.1	-34.7	27.0	0.00e+00	0	27	0	945815552	46	5952
2026-01-05 01:50:25.68	140.32	18.92	-34.2	-34.8	26.8	0.00e+00	0	27	0	952107008	46	5987
2026-01-05 01:50:26.69	140.28	19.05	-34.3	-34.9	26.9	0.00e+00	0	27	0	957349888	46	6052
2026-01-05 01:50:27.70	140.24	19.17	-34.1	-34.8	26.9	0.00e+00	0	27	0	962592768	46	5970
2026-01-05 01:50:28.71	140.20	19.30	-34.1	-34.8	26.9	0.00e+00	0	27	0	968884224	46	5996
2026-01-05 01:50:29.72	140.16	19.43	-34.4	-35.0	27.0	0.00e+00	0	27	0	974127104	46	6137
2026-01-05 01:50:30.73	140.12	19.55	-34.2	-34.9	26.9	0.00e+00	0	27	0	980418560	46	6043
2026-01-05 01:50:31.74	140.08	19.68	-34.4	-35.0	26.5	0.00e+00	0	27	0	985661440	46	6143
2026-01-05 01:50:32.75	140.03	19.81	-34.5	-35.1	26.6	0.00e+00	0	27	0	990904320	46	6220
2026-01-05 01:50:33.76	139.99	19.94	-34.7	-35.4	26.7	0.00e+00	0	27	0	997195776	46	6447
2026-01-05 01:50:34.77	139.95	20.07	-34.5	-35.2	26.6	0.00e+00	0	27	0	1002438656	46	6267
2026-01-05 01:50:35.79	139.90	20.21	-34.4	-35.0	26.6	0.00e+00	0	27	0	1008730112	46	6126
2026-01-05 01:50:36.80	139.86	20.34	-34.3	-35.0	26.7	0.00e+00	0	27	0	1013972992	46	6120
2026-01-05 01:50:37.81	139.81	20.47	-34.4	-35.0	26.6	0.00e+00	0	27	0	1020264448	46	6162
2026-01-05 01:50:38.82	139.77	20.60	-34.4	-35.0	26.6	0.00e+00	0	27	0	1025507328	46	6172
2026-01-05 01:50:39.83	139.72	20.74	-34.3	-35.0	26.8	0.00e+00	0	27	0	1031798784	46	6124
2026-01-05 01:50:40.84	139.68	20.87	-34.5	-35.1	26.6	0.00e+00	0	27	0	1037041664	46	6245
2026-01-05 01:50:41.85	139.63	21.01	-35.0	-35.6	26.4	0.00e+00	0	27	0	1042284544	46	6590
2026-01-05 01:50:42.86	139.58	21.14	-34.9	-35.5	26.4	0.00e+00	0	27	0	1048576000	48	5820
2026-01-05 01:50:43.87	139.54	21.28	-35.6	-36.3	25.9	0.00e+00	0	27	0	1053818880	48	6332
2026-01-05 01:50:44.89	139.49	21.42	-35.0	-35.7	26.2	0.00e+00	0	27	0	1060110336	48	5925
2026-01-05 01:50:45.90	139.44	21.56	-34.7	-35.4	26.5	0.00e+00	0	27	0	1065353216	48	5706
2026-01-05 01:50:46.91	139.39	21.70	-34.5	-35.2	26.7	0.00e+00	0	27	0	1071644672	48	5573
2026-01-05 01:50:47.92	139.34	21.84	-33.8	-34.5	27.2	0.00e+00	0	27	0	1076887552	46	5788
2026-01-05 01:50:48.93	139.29	21.98	-34.1	-34.8	27.1	0.00e+00	0	27	0	1082130432	46	5975
2026-01-05 01:50:49.94	139.24	22.12	-33.6	-34.2	27.4	0.00e+00	0	27	0	1088421888	46	5605
2026-01-05 01:50:50.95	139.19	22.26	-33.4	-34.0	27.5	0.00e+00	0	27	0	1093664768	46	5444
2026-01-05 01:50:51.96	139.14	22.40	-33.4	-34.0	27.5	0.00e+00	0	27	0	1099956224	46	5479
2026-01-05 01:50:52.97	139.09	22.55	-33.4	-34.0	27.5	0.00e+00	0	27	0	1105199104	46	5500
2026-01-05 01:50:53.98	139.04	22.69	-33.8	-34.5	27.4	0.00e+00	0	27	0	1110441984	46	5762
2026-01-05 01:50:54.99	138.98	22.84	-33.5	-34.1	27.5	0.00e+00	0	27	0	1116733440	46	5524
2026-01-05 01:50:56.01	138.93	22.99	-33.4	-34.1	27.4	0.00e+00	0	27	0	1121976320	46	5534
2026-01-05 01:50:57.02	138.88	23.13	-33.5	-34.1	27.3	0.00e+00	0	27	0	1128267776	46	5526
2026-01-05 01:50:58.03	138.82	23.28	-33.3	-33.9	27.7	0.00e+00	0	27	0	1133510656	46	5394
2026-01-05 01:50:59.04	138.77	23.43	-33.3	-33.9	27.7	0.00e+00	0	27	0	1139802112	46	5438
2026-01-05 01:51:00.05	138.71	23.58	-33.5	-34.1	27.4	0.00e+00	0	27	0	1145044992	46	5558
2026-01-05 01:51:01.06	138.66	23.73	-33.2	-33.8	27.8	0.00e+00	0	27	0	1151336448	46	5360
2026-01-05 01:51:02.07	138.60	23.88	-33.4	-34.0	27.6	0.00e+00	0	27	0	1156579328	44	6172
2026-01-05 01:51:03.09	138.54	24.03	-33.0	-33.7	27.7	0.00e+00	0	27	0	1161822208	44	5936
2026-01-05 01:51:04.09	138.49	24.18	-33.2	-33.8	27.7	0.00e+00	0	27	0	1168113664	44	5988
2026-01-05 01:51:05.11	138.43	24.34	-33.2	-33.8	27.7	0.00e+00	0	27	0	1173356544	44	5988
2026-01-05 01:51:06.12	138.37	24.49	-33.0	-33.7	27.8	0.00e+00	0	27	0	1179648000	44	5919
2026-01-05 01:51:07.13	138.31	24.65	-33.0	-33.7	27.8	0.00e+00	0	27	0	1184890880	44	5900
2026-01-05 01:51:08.14	138.25	24.80	-33.1	-33.8	27.8	0.00e+00	0	27	0	1190133760	44	5973
2026-01-05 01:51:09.15	138.19	24.96	-33.2	-33.8	27.8	0.00e+00	0	27	0	1196425216	44	6000
2026-01-05 01:51:10.16	138.13	25.12	-33.1	-33.7	27.7	0.00e+00	0	27	0	1201668096	44	5964
2026-01-05 01:51:11.17	138.07	25.28	-33.0	-33.6	27.7	0.00e+00	0	27	0	1207959552	44	5894
2026-01-05 01:51:12.18	138.00	25.44	-32.9	-33.5	27.8	0.00e+00	0	27	0	1213202432	44	5823
2026-01-05 01:51:13.20	137.94	25.60	-32.8	-33.4	27.9	0.00e+00	0	27	0	1218445312	44	5730
2026-01-05 01:51:14.21	137.87	25.76	-32.8	-33.4	27.9	0.00e+00	0	27	0	1224736768	44	5760
2026-01-05 01:51:15.22	137.81	25.93	-32.9	-33.5	27.8	0.00e+00	0	27	0	1229979648	44	5805
2026-01-05 01:51:16.23	137.74	26.09	-32.9	-33.5	27.9	0.00e+00	0	27	0	1236271104	44	5781
2026-01-05 01:51:17.24	137.68	26.25	-32.8	-33.5	27.8	0.00e+00	0	27	0	1241513984	44	5783
2026-01-05 01:51:18.25	137.61	26.42	-32.7	-33.4	27.9	0.00e+00	0	27	0	1247805440	44	5698
2026-01-05 01:51:19.26	137.54	26.59	-32.6	-33.2	28.0	0.00e+00	0	27	0	1253048320	44	5616
2026-01-05 01:51:20.27	137.48	26.75	-32.9	-33.6	27.8	0.00e+00	0	27	0	1259339776	44	5844
2026-01-05 01:51:21.28	137.41	26.92	-32.8	-33.4	28.0	0.00e+00	0	27	0	1264582656	44	5745
2026-01-05 01:51:22.29	137.34	27.09	-32.7	-33.3	28.1	0.00e+00	0	27	0	1269825536	44	5662
2026-01-05 01:51:23.30	137.27	27.26	-32.8	-33.4	28.0	0.00e+00	0	27	0	1276116992	44	5722
2026-01-05 01:51:24.32	137.19	27.43	-32.8	-33.4	27.9	0.00e+00	0	27	0	1281359872	44	5729
2026-01-05 01:51:25.33	137.12	27.61	-33.3	-33.9	27.8	0.00e+00	0	27	0	1287651328	44	6065
2026-01-05 01:51:26.34	137.05	27.78	-33.5	-34.1	27.8	0.00e+00	0	27	0	1292894208	44	6186
2026-01-05 01:51:27.35	136.98	27.96	-33.3	-33.9	27.9	0.00e+00	0	27	0	1298137088	44	6087
2026-01-05 01:51:28.36	136.90	28.13	-33.1	-33.7	27.6	0.00e+00	0	27	0	1304428544	44	5950
2026-01-05 01:51:29.37	136.83	28.31	-33.1	-33.7	27.9	0.00e+00	0	27	0	1309671424	44	5944
2026-01-05 01:51:30.38	136.75	28.49	-33.4	-34.0	27.9	0.00e+00	0	27	0	1315962880	44	6117
2026-01-05 01:51:31.40	136.67	28.67	-33.3	-33.9	28.1	0.00e+00	0	27	0	1321205760	44	6086
2026-01-05 01:51:32.41	136.59	28.85	-32.9	-33.5	28.2	0.00e+00	0	27	0	1327497216	44	5823
2026-01-05 01:51:33.42	136.51	29.03	-32.7	-33.3	28.2	0.00e+00	0	27	0	1332740096	44	5652
2026-01-05 01:51:34.43	136.43	29.21	-32.3	-32.9	28.3	0.00e+00	0	27	0	1337982976	44	5430
2026-01-05 01:51:35.44	136.35	29.39	-32.3	-32.9	28.3	0.00e+00	0	27	0	1344274432	44	5384
2026-01-05 01:51:36.45	136.27	29.58	-32.5	-33.1	28.1	0.00e+00	0	27	0	1349517312	44	5527
2026-01-05 01:51:37.46	136.19	29.76	-32.5	-33.1	28.1	0.00e+00	0	27	0	1355808768	44	5543
2026-01-05 01:51:38.47	136.10	29.95	-32.4	-33.0	28.2	0.00e+00	0	27	0	1361051648	44	5458
2026-01-05 01:51:39.48	136.02	30.14	-32.7	-33.4	28.1	0.00e+00	0	27	0	1367343104	44	5701
2026-01-05 01:51:40.49	135.93	30.33	-32.8	-33.5	28.1	0.00e+00	0	27	0	1372585984	44	5768
2026-01-05 01:51:41.51	135.84	30.52	-32.7	-33.3	28.3	0.00e+00	0	27	0	1378877440	44	5657
2026-01-05 01:51:42.52	135.76	30.71	-32.3	-32.9	28.3	0.00e+00	0	27	0	1384120320	44	5421
2026-01-05 01:51:43.53	135.67	30.90	-32.3	-32.9	28.3	0.00e+00	0	27	0	1389363200	44	5417
2026-01-05 01:51:44.54	135.58	31.10	-32.4	-33.0	28.1	0.00e+00	0	27	0	1395654656	44	5477
2026-01-05 01:51:45.55	135.49	31.29	-32.5	-33.1	28.3	0.00e+00	0	27	0	1400897536	44	5541
2026-01-05 01:51:46.56	135.39	31.49	-32.2	-32.8	28.5	0.00e+00	0	27	0	1407188992	44	5324
2026-01-05 01:51:47.57	135.30	31.69	-32.3	-32.8	28.6	0.00e+00	0	27	0	1412431872	42	6028
2026-01-05 01:51:48.58	135.20	31.88	-32.2	-32.8	28.5	0.00e+00	0	27	0	1417674752	42	6015
2026-01-05 01:51:49.59	135.11	32.08	-32.3	-32.9	28.6	0.00e+00	0	27	0	1423966208	42	6067
2026-01-05 01:51:50.61	135.01	32.29	-32.2	-32.8	28.5	0.00e+00	0	27	0	1429209088	42	5994
2026-01-05 01:51:51.62	134.91	32.49	-32.1	-32.8	28.5	0.00e+00	0	27	0	1435500544	42	5976
2026-01-05 01:51:52.63	134.81	32.69	-32.0	-32.6	28.6	0.00e+00	0	27	0	1440743424	42	5852
2026-01-05 01:51:53.64	134.71	32.90	-32.2	-32.9	28.5	0.00e+00	0	27	0	1445986304	42	6039
2026-01-05 01:51:54.65	134.61	33.10	-32.5	-33.1	28.4	0.00e+00	0	27	0	1452277760	42	6197
2026-01-05 01:51:55.66	134.50	33.31	-32.5	-33.1	28.3	0.00e+00	0	27	0	1457520640	42	6218
2026-01-05 01:51:56.67	134.40	33.52	-32.7	-33.3	28.5	0.00e+00	0	27	0	1463812096	42	6337
2026-01-05 01:51:57.68	134.29	33.73	-32.7	-33.3	28.4	0.00e+00	0	27	0	1469054976	42	6360
2026-01-05 01:51:58.69	134.18	33.94	-32.6	-33.2	28.2	0.00e+00	0	27	0	1475346432	42	6264
2026-01-05 01:51:59.70	134.07	34.16	-32.4	-33.0	28.2	0.00e+00	0	27	0	1480589312	42	6151
2026-01-05 01:52:00.71	133.96	34.37	-33.0	-33.6	27.9	0.00e+00	0	27	0	1486880768	42	6592
2026-01-05 01:52:01.73	133.85	34.59	-32.7	-33.3	28.2	0.00e+00	0	27	0	1492123648	42	6382
2026-01-05 01:52:02.74	133.73	34.81	-32.2	-32.8	28.4	0.00e+00	0	27	0	1497366528	42	6027
2026-01-05 01:52:03.75	133.62	35.02	-32.1	-32.7	28.6	0.00e+00	0	27	0	1503657984	42	5912
2026-01-05 01:52:04.76	133.50	35.24	-32.1	-32.7	28.7	0.00e+00	0	27	0	1508900864	42	5897
2026-01-05 01:52:05.77	133.38	35.46	-32.1	-32.7	28.6	0.00e+00	0	27	0	1515192320	42	5930
2026-01-05 01:52:06.78	133.26	35.69	-32.0	-32.6	28.6	0.00e+00	0	27	0	1520435200	42	5885
2026-01-05 01:52:07.79	133.14	35.91	-31.9	-32.5	28.5	0.00e+00	0	27	0	1525678080	42	5808
2026-01-05 01:52:08.80	133.02	36.14	-31.9	-32.5	28.6	0.00e+00	0	27	0	1531969536	42	5814
2026-01-05 01:52:09.81	132.89	36.36	-32.1	-32.8	28.6	0.00e+00	0	27	0	1537212416	42	5970
2026-01-05 01:52:10.83	132.76	36.59	-32.2	-32.8	28.5	0.00e+00	0	27	0	1543503872	42	6007
2026-01-05 01:52:11.83	132.63	36.82	-32.3	-32.9	28.4	0.00e+00	0	27	0	1548746752	42	6077
2026-01-05 01:52:12.85	132.50	37.05	-32.4	-33.1	28.3	0.00e+00	0	27	0	1553989632	42	6183
2026-01-05 01:52:13.86	132.37	37.29	-32.3	-32.9	28.5	0.00e+00	0	27	0	1560281088	42	6097
2026-01-05 01:52:14.87	132.23	37.52	-32.2	-32.8	28.5	0.00e+00	0	27	0	1565523968	42	5998
2026-01-05 01:52:15.88	132.09	37.76	-32.6	-33.2	28.4	0.00e+00	0	27	0	1571815424	42	6268
2026-01-05 01:52:16.89	131.95	37.99	-32.3	-32.9	28.5	0.00e+00	0	27	0	1577058304	42	6101
2026-01-05 01:52:17.90	131.81	38.23	-32.2	-32.8	28.6	0.00e+00	0	27	0	1583349760	42	6008
2026-01-05 01:52:18.91	131.67	38.47	-32.3	-32.9	28.5	0.00e+00	0	27	0	1588592640	42	6086
2026-01-05 01:52:19.92	131.52	38.71	-32.0	-32.6	28.7	0.00e+00	0	27	0	1594884096	42	5850
2026-01-05 01:52:20.93	131.38	38.96	-32.1	-32.7	28.6	0.00e+00	0	27	0	1600126976	42	5960
2026-01-05 01:52:21.95	131.22	39.20	-32.0	-32.6	28.6	0.00e+00	0	27	0	1605369856	42	5869
2026-01-05 01:52:22.96	131.07	39.45	-32.1	-32.7	28.5	0.00e+00	0	27	0	1611661312	42	5953
2026-01-05 01:52:23.97	130.92	39.70	-32.2	-32.8	28.4	0.00e+00	0	27	0	1616904192	42	6030
2026-01-05 01:52:24.98	130.76	39.94	-32.3	-32.9	28.4	0.00e+00	0	27	0	1623195648	42	6085
2026-01-05 01:52:25.99	130.60	40.20	-32.3	-32.9	28.3	0.00e+00	0	27	0	1628438528	42	6097
2026-01-05 01:52:27.00	130.44	40.45	-32.7	-33.3	28.1	0.00e+00	0	27	0	1633681408	42	6348
2026-01-05 01:52:28.01	130.27	40.70	-32.5	-33.2	28.3	0.00e+00	0	27	0	1639972864	42	6259
2026-01-05 01:52:29.02	130.10	40.96	-32.3	-33.0	28.4	0.00e+00	0	27	0	1645215744	42	6111
2026-01-05 01:52:30.03	129.93	41.21	-32.5	-33.1	28.2	0.00e+00	0	27	0	1651507200	42	6229
2026-01-05 01:52:31.04	129.76	41.47	-32.5	-33.1	28.3	0.00e+00	0	27	0	1656750080	42	6224
2026-01-05 01:52:32.06	129.58	41.73	-32.8	-33.4	27.9	0.00e+00	0	27	0	1663041536	42	6430
2026-01-05 01:52:33.07	129.40	41.99	-32.8	-33.4	27.9	0.00e+00	0	27	0	1668284416	42	6432
2026-01-05 01:52:34.08	129.22	42.26	-33.0	-33.7	27.9	0.00e+00	0	27	0	1673527296	42	6616
2026-01-05 01:52:35.09	129.04	42.52	-33.0	-33.6	27.9	0.00e+00	0	27	0	1679818752	44	5876
2026-01-05 01:52:36.10	128.85	42.79	-32.6	-33.2	28.0	0.00e+00	0	27	0	1685061632	44	5619
2026-01-05 01:52:37.11	128.66	43.05	-32.6	-33.2	28.2	0.00e+00	0	27	0	1691353088	44	5581
2026-01-05 01:52:38.12	128.46	43.32	-32.4	-32.9	28.3	0.00e+00	0	27	0	1696595968	44	5436
2026-01-05 01:52:39.13	128.26	43.59	-32.7	-33.3	28.1	0.00e+00	0	27	0	1702887424	44	5656
2026-01-05 01:52:40.14	128.06	43.86	-32.8	-33.4	28.0	0.00e+00	0	27	0	1708130304	44	5720
2026-01-05 01:52:41.15	127.86	44.14	-32.9	-33.5	27.9	0.00e+00	0	27	0	1713373184	44	5763
2026-01-05 01:52:42.17	127.65	44.41	-32.7	-33.3	28.0	0.00e+00	0	27	0	1719664640	44	5691
2026-01-05 01:52:43.18	127.44	44.69	-32.6	-33.2	28.2	0.00e+00	0	27	0	1724907520	44	5601
2026-01-05 01:52:44.18	127.22	44.97	-32.4	-33.0	28.4	0.00e+00	0	27	0	1731198976	44	5492
2026-01-05 01:52:45.20	127.00	45.25	-32.6	-33.2	28.3	0.00e+00	0	27	0	1736441856	44	5597
2026-01-05 01:52:46.21	126.78	45.53	-32.6	-33.2	28.1	0.00e+00	0	27	0	1742733312	44	5620
2026-01-05 01:52:47.22	126.55	45.81	-33.4	-34.0	27.6	0.00e+00	0	27	0	1747976192	44	6148
2026-01-05 01:52:48.23	126.32	46.09	-33.0	-33.6	28.0	0.00e+00	0	27	0	1753219072	44	5858
2026-01-05 01:52:49.24	126.08	46.38	-32.9	-33.5	28.0	0.00e+00	0	27	0	1759510528	44	5819
2026-01-05 01:52:50.25	125.84	46.67	-33.0	-33.6	28.0	0.00e+00	0	27	0	1764753408	44	5876
2026-01-05 01:52:51.26	125.59	46.95	-32.7	-33.3	28.1	0.00e+00	0	27	0	1771044864	44	5648
2026-01-05 01:52:52.27	125.34	47.24	-33.1	-33.7	27.9	0.00e+00	0	27	0	1776287744	44	5928
2026-01-05 01:52:53.28	125.09	47.53	-32.6	-33.2	28.3	0.00e+00	0	27	0	1781530624	44	5608
2026-01-05 01:52:54.29	124.83	47.83	-32.8	-33.4	28.2	0.00e+00	0	27	0	1787822080	44	5757
2026-01-05 01:52:55.31	124.56	48.12	-32.8	-33.4	28.1	0.00e+00	0	27	0	1793064960	44	5713
2026-01-05 01:52:56.32	124.29	48.42	-32.6	-33.2	28.3	0.00e+00	0	27	0	1799356416	44	5586
2026-01-05 01:52:57.33	124.02	48.71	-32.6	-33.3	28.2	0.00e+00	0	27	0	1804599296	44	5632
2026-01-05 01:52:58.34	123.74	49.01	-32.6	-33.2	28.2	0.00e+00	0	27	0	1810890752	44	5622
2026-01-05 01:52:59.35	123.45	49.31	-32.7	-33.3	28.1	0.00e+00	0	27	0	1816133632	44	5691
2026-01-05 01:53:00.36	123.16	49.61	-32.8	-33.4	28.0	0.00e+00	0	27	0	1822425088	44	5760
2026-01-05 01:53:01.37	122.86	49.91	-33.0	-33.6	27.9	0.00e+00	0	27	0	1827667968	44	5889
2026-01-05 01:53:02.39	122.56	50.21	-33.0	-33.7	27.7	0.00e+00	0	27	0	1832910848	44	5928
2026-01-05 01:53:03.40	122.25	50.52	-33.0	-33.6	27.7	0.00e+00	0	27	0	1839202304	44	5851
2026-01-05 01:53:04.41	121.93	50.82	-33.4	-34.0	27.5	0.00e+00	0	27	0	1844445184	44	6155
2026-01-05 01:53:05.42	121.61	51.13	-33.5	-34.2	27.5	0.00e+00	0	27	0	1850736640	44	6265
2026-01-05 01:53:06.43	121.28	51.43	-33.4	-34.0	27.6	0.00e+00	0	27	0	1855979520	44	6151
2026-01-05 01:53:07.44	120.94	51.74	-33.4	-34.0	27.7	0.00e+00	0	27	0	1861222400	44	6122
2026-01-05 01:53:08.45	120.60	52.05	-34.2	-34.9	27.5	0.00e+00	0	27	0	1867513856	44	6795
2026-01-05 01:53:09.46	120.25	52.36	-33.9	-34.6	27.1	0.00e+00	0	27	0	1872756736	46	5830
2026-01-05 01:53:10.47	119.89	52.66	-33.9	-34.5	27.1	0.00e+00	0	27	0	1879048192	46	5787
2026-01-05 01:53:11.49	119.52	52.98	-33.7	-34.3	27.3	0.00e+00	0	27	0	1884291072	46	5669
2026-01-05 01:53:12.50	119.15	53.29	-33.1	-33.8	27.7	0.00e+00	0	27	0	1889533952	46	5321
2026-01-05 01:53:13.51	118.77	53.60	-33.2	-33.8	27.7	0.00e+00	0	27	0	1895825408	44	5979
2026-01-05 01:53:14.52	118.38	53.91	-33.3	-33.9	27.6	0.00e+00	0	27	0	1901068288	44	6079
2026-01-05 01:53:15.53	117.98	54.23	-33.7	-34.3	27.3	0.00e+00	0	27	0	1907359744	44	6366
2026-01-05 01:53:16.54	117.57	54.54	-33.6	-34.2	27.5	0.00e+00	0	27	0	1912602624	46	5616
2026-01-05 01:53:17.55	117.15	54.85	-33.2	-33.8	27.9	0.00e+00	0	27	0	1918894080	46	5351
2026-01-05 01:53:18.56	116.73	55.17	-33.6	-34.2	27.3	0.00e+00	0	27	0	1924136960	46	5571
2026-01-05 01:53:19.57	116.29	55.48	-33.4	-34.0	27.6	0.00e+00	0	27	0	1930428416	46	5469
2026-01-05 01:53:20.59	115.84	55.80	-33.4	-34.0	27.4	0.00e+00	0	27	0	1935671296	46	5500
2026-01-05 01:53:21.60	115.39	56.11	-33.8	-34.5	27.2	0.00e+00	0	27	0	1940914176	46	5802
2026-01-05 01:53:22.61	114.92	56.43	-33.6	-34.2	27.3	0.00e+00	0	27	0	1947205632	46	5626
2026-01-05 01:53:23.62	114.44	56.74	-34.1	-34.7	27.1	0.00e+00	0	27	0	1952448512	46	5964
2026-01-05 01:53:24.63	113.95	57.06	-34.1	-34.7	27.0	0.00e+00	0	27	0	1958739968	46	5923
2026-01-05 01:53:25.64	113.46	57.37	-33.5	-34.1	27.5	0.00e+00	0	27	0	1963982848	46	5559
2026-01-05 01:53:26.65	112.94	57.68	-33.6	-34.2	27.2	0.00e+00	0	27	0	1969225728	46	5573
2026-01-05 01:53:27.66	112.42	58.00	-33.8	-34.5	26.9	0.00e+00	0	27	0	1975517184	46	5769
2026-01-05 01:53:28.67	111.89	58.31	-34.1	-34.7	26.8	0.00e+00	0	27	0	1980760064	46	5950
2026-01-05 01:53:29.68	111.34	58.62	-33.4	-34.0	27.7	0.00e+00	0	27	0	1987051520	46	5490
2026-01-05 01:53:30.70	110.77	58.93	-33.0	-33.7	27.9	0.00e+00	0	27	0	1992294400	44	5909
2026-01-05 01:53:31.71	110.19	59.24	-33.0	-33.7	27.8	0.00e+00	0	27	0	1998585856	44	5907
2026-01-05 01:53:32.72	109.61	59.55	-33.1	-33.8	27.7	0.00e+00	0	27	0	2003828736	44	5988
2026-01-05 01:53:33.73	109.00	59.86	-33.1	-33.8	27.8	0.00e+00	0	27	0	2009071616	44	5975
2026-01-05 01:53:34.74	108.39	60.16	-33.5	-34.1	27.5	0.00e+00	0	27	0	2015363072	44	6184
2026-01-05 01:53:35.75	107.75	60.47	-33.0	-33.6	27.9	0.00e+00	0	27	0	2020605952	44	5863
2026-01-05 01:53:36.76	107.11	60.77	-33.3	-33.9	27.7	0.00e+00	0	27	0	2026897408	44	6084
2026-01-05 01:53:37.77	106.44	61.07	-34.0	-34.6	27.3	0.00e+00	0	27	0	2032140288	44	6604
2026-01-05 01:53:38.79	105.76	61.37	-33.6	-34.3	27.5	0.00e+00	0	27	0	2038431744	46	5647
2026-01-05 01:53:39.80	105.06	61.67	-33.6	-34.3	27.3	0.00e+00	0	27	0	2043674624	46	5638
2026-01-05 01:53:40.81	104.35	61.96	-33.0	-33.6	27.9	0.00e+00	0	27	0	2049966080	44	5877
2026-01-05 01:53:41.82	103.62	62.25	-33.0	-33.6	28.1	0.00e+00	0	27	0	2055208960	44	5885
2026-01-05 01:53:42.83	102.87	62.54	-33.4	-34.0	27.9	0.00e+00	0	27	0	2060451840	44	6142
2026-01-05 01:53:43.84	102.10	62.82	-32.9	-33.6	28.1	0.00e+00	0	27	0	2066743296	44	5840
2026-01-05 01:53:44.85	101.32	63.10	-32.6	-33.2	28.3	0.00e+00	0	27	0	2071986176	44	5589
2026-01-05 01:53:45.86	100.52	63.38	-32.3	-32.9	28.3	0.00e+00	0	27	0	2078277632	44	5439
2026-01-05 01:53:46.87	99.69	63.66	-32.3	-32.9	28.3	0.00e+00	0	27	0	2083520512	44	5405
2026-01-05 01:53:47.88	98.85	63.93	-32.5	-33.1	28.3	0.00e+00	0	27	0	2088763392	44	5515
2026-01-05 01:53:48.90	97.98	64.20	-32.4	-33.1	28.3	0.00e+00	0	27	0	2095054848	44	5505
2026-01-05 01:53:49.91	97.10	64.46	-31.9	-32.5	28.7	0.00e+00	0	27	0	2100297728	44	5172
2026-01-05 01:53:50.92	96.20	64.71	-31.7	-32.3	28.8	0.00e+00	0	27	0	2106589184	42	5646
2026-01-05 01:53:51.93	95.28	64.97	-31.9	-32.5	28.8	0.00e+00	0	27	0	2111832064	42	5797
2026-01-05 01:53:52.94	94.33	65.21	-31.7	-32.3	28.8	0.00e+00	0	27	0	2117074944	42	5680
2026-01-05 01:53:53.95	93.37	65.45	-31.7	-32.3	28.8	0.00e+00	0	27	0	2123366400	42	5648
2026-01-05 01:53:54.96	92.39	65.69	-31.6	-32.2	28.8	0.00e+00	0	27	0	2128609280	42	5589
2026-01-05 01:53:55.97	91.38	65.92	-31.6	-32.2	28.7	0.00e+00	0	27	0	2134900736	42	5589
2026-01-05 01:53:56.98	90.35	66.14	-31.7	-32.3	29.0	0.00e+00	0	27	0	2140143616	42	5636
2026-01-05 01:53:58.06	89.23	66.37	-31.7	-32.3	28.9	0.00e+00	0	27	0	2146435072	42	5646
2026-01-05 01:53:58.93	88.31	66.56	-31.3	-31.9	29.0	0.00e+00	0	27	0	2150629376	42	5417
2026-01-05 01:54:00.09	87.06	66.79	-31.9	-32.5	28.5	0.00e+00	0	27	0	2157969408	42	5765
2026-01-05 01:54:00.95	86.11	66.96	-31.9	-32.6	28.7	0.00e+00	0	27	0	2162163712	42	5836
2026-01-05 01:54:02.11	84.81	67.17	-31.1	-31.7	29.1	0.00e+00	0	27	0	2168455168	42	5299
2026-01-05 01:54:02.97	83.83	67.32	-30.6	-31.2	29.4	0.00e+00	0	27	0	2173698048	40	5597
2026-01-05 01:54:04.13	82.49	67.52	-30.6	-31.1	29.4	0.00e+00	0	27	0	2179989504	40	5555
2026-01-05 01:54:05.00	81.46	67.66	-30.8	-31.4	29.3	0.00e+00	0	27	0	2185232384	40	5710
2026-01-05 01:54:06.15	80.08	67.84	-30.9	-31.5	29.3	0.00e+00	0	27	0	2191523840	40	5775
2026-01-05 01:54:07.02	79.03	67.96	-30.8	-31.4	29.3	0.00e+00	0	27	0	2196766720	40	5728
2026-01-05 01:54:08.17	77.61	68.12	-31.0	-31.5	29.4	0.00e+00	0	27	0	2203058176	40	5823
2026-01-05 01:54:09.04	76.53	68.23	-31.3	-31.9	29.2	0.00e+00	0	27	0	2208301056	40	6065
2026-01-05 01:54:10.20	75.06	68.36	-31.4	-32.1	29.1	0.00e+00	0	27	0	2214592512	40	6181
2026-01-05 01:54:11.06	73.96	68.45	-31.1	-31.7	29.3	0.00e+00	0	27	0	2218786816	40	5901
2026-01-05 01:54:12.22	72.46	68.56	-31.3	-31.8	29.1	0.00e+00	0	27	0	2225078272	40	6021
2026-01-05 01:54:13.08	71.34	68.64	-31.6	-32.3	28.9	0.00e+00	0	27	0	2230321152	40	6334
2026-01-05 01:54:14.24	69.82	68.73	-31.4	-32.0	29.1	0.00e+00	0	27	0	2236612608	40	6163
2026-01-05 01:54:15.11	68.67	68.78	-31.7	-32.3	29.0	0.00e+00	0	27	0	2241855488	40	6344
2026-01-05 01:54:16.26	67.14	68.84	-31.3	-31.8	29.0	0.00e+00	0	27	0	2248146944	40	6021
2026-01-05 01:54:17.13	65.97	68.88	-30.9	-31.5	29.3	0.00e+00	0	27	0	2253389824	40	5797
2026-01-05 01:54:18.28	64.43	68.92	-30.8	-31.4	29.4	0.00e+00	0	27	0	2259681280	40	5747
2026-01-05 01:54:19.15	63.26	68.94	-31.0	-31.6	29.3	0.00e+00	0	27	0	2264924160	40	5876
2026-01-05 01:54:20.30	61.71	68.95	-31.1	-31.7	29.2	0.00e+00	0	27	0	2271215616	40	5941
2026-01-05 01:54:21.17	60.53	68.95	-31.2	-31.8	29.2	0.00e+00	0	27	0	2275409920	40	5966
2026-01-05 01:54:22.32	58.98	68.94	-31.0	-31.6	29.3	0.00e+00	0	27	0	2282749952	40	5849
2026-01-05 01:54:23.19	57.81	68.92	-31.3	-31.8	29.0	0.00e+00	0	27	0	2286944256	40	6014
2026-01-05 01:54:24.35	56.25	68.88	-31.4	-32.0	29.1	0.00e+00	0	27	0	2294284288	40	6136
2026-01-05 01:54:25.21	55.10	68.84	-31.4	-31.9	29.0	0.00e+00	0	27	0	2298478592	40	6087
2026-01-05 01:54:26.37	53.56	68.78	-31.3	-31.9	29.0	0.00e+00	0	27	0	2304770048	40	6103
2026-01-05 01:54:27.23	52.42	68.72	-30.9	-31.5	29.3	0.00e+00	0	27	0	2310012928	40	5811
2026-01-05 01:54:28.39	50.90	68.63	-31.9	-32.5	28.8	0.00e+00	0	27	0	2316304384	40	6528
2026-01-05 01:54:29.26	49.77	68.56	-31.5	-32.1	29.1	0.00e+00	0	27	0	2321547264	40	6212
2026-01-05 01:54:30.41	48.29	68.45	-31.4	-31.9	28.8	0.00e+00	0	27	0	2327838720	40	6100
2026-01-05 01:54:31.28	47.18	68.35	-31.9	-32.4	28.4	0.00e+00	0	27	0	2333081600	40	6443
2026-01-05 01:54:32.43	45.73	68.22	-31.3	-32.0	28.7	0.00e+00	0	27	0	2339373056	40	6114
2026-01-05 01:54:33.30	44.64	68.11	-31.2	-31.8	28.9	0.00e+00	0	27	0	2344615936	40	5967
2026-01-05 01:54:34.46	43.22	67.95	-31.5	-32.1	29.0	0.00e+00	0	27	0	2350907392	40	6209
2026-01-05 01:54:35.32	42.17	67.83	-31.5	-32.1	29.0	0.00e+00	0	27	0	2355101696	40	6193
2026-01-05 01:54:36.48	40.79	67.65	-30.8	-31.4	29.3	0.00e+00	0	27	0	2362441728	40	5700
2026-01-05 01:54:37.35	39.76	67.51	-31.0	-31.6	29.2	0.00e+00	0	27	0	2366636032	40	5871
2026-01-05 01:54:38.50	38.43	67.31	-31.5	-32.1	29.2	0.00e+00	0	27	0	2373976064	42	5541
2026-01-05 01:54:39.37	37.44	67.16	-31.3	-32.0	29.1	0.00e+00	0	27	0	2378170368	40	6132
2026-01-05 01:54:40.53	36.15	66.94	-31.2	-31.8	29.1	0.00e+00	0	27	0	2384461824	40	5981
2026-01-05 01:54:41.39	35.20	66.77	-31.2	-31.8	29.1	0.00e+00	0	27	0	2389704704	40	5988
2026-01-05 01:54:42.55	33.95	66.54	-31.3	-31.9	29.0	0.00e+00	0	27	0	2395996160	40	6063
2026-01-05 01:54:43.42	33.03	66.36	-31.3	-31.9	29.0	0.00e+00	0	27	0	2401239040	40	6061
2026-01-05 01:54:44.57	31.84	66.11	-31.0	-31.7	29.2	0.00e+00	0	27	0	2407530496	40	5909
2026-01-05 01:54:45.44	30.96	65.92	-31.2	-31.8	29.1	0.00e+00	0	27	0	2412773376	40	5997
2026-01-05 01:54:46.59	29.82	65.66	-31.7	-32.4	28.9	0.00e+00	0	27	0	2419064832	40	6393
2026-01-05 01:54:47.46	28.97	65.45	-31.3	-31.9	29.2	0.00e+00	0	27	0	2424307712	40	6076
2026-01-05 01:54:48.62	27.87	65.18	-32.4	-33.0	28.4	0.00e+00	0	27	0	2430599168	42	6150
2026-01-05 01:54:49.48	27.07	64.97	-31.6	-32.2	28.8	0.00e+00	0	27	0	2435842048	42	5618
2026-01-05 01:54:50.64	26.01	64.68	-32.1	-32.7	28.4	0.00e+00	0	27	0	2442133504	42	5904
2026-01-05 01:54:51.50	25.25	64.46	-32.0	-32.7	28.5	0.00e+00	0	27	0	2446327808	42	5920
2026-01-05 01:54:52.66	24.24	64.16	-31.8	-32.5	28.7	0.00e+00	0	27	0	2452619264	42	5764
2026-01-05 01:54:53.52	23.51	63.93	-32.0	-32.6	28.8	0.00e+00	0	27	0	2457862144	42	5865
2026-01-05 01:54:54.68	22.54	63.62	-31.5	-32.2	28.9	0.00e+00	0	27	0	2464153600	42	5581
2026-01-05 01:54:55.55	21.84	63.38	-31.5	-32.1	28.9	0.00e+00	0	27	0	2469396480	42	5541
2026-01-05 01:54:56.70	20.93	63.07	-31.5	-32.2	28.8	0.00e+00	0	27	0	2475687936	42	5599
2026-01-05 01:54:57.57	20.25	62.83	-31.9	-32.4	28.8	0.00e+00	0	27	0	2480930816	42	5723
2026-01-05 01:54:58.73	19.38	62.50	-31.7	-32.2	28.8	0.00e+00	0	27	0	2487222272	42	5592
2026-01-05 01:54:59.59	18.74	62.26	-31.6	-32.1	28.8	0.00e+00	0	27	0	2492465152	42	5520
2026-01-05 01:55:00.75	17.91	61.92	-31.9	-32.4	28.6	0.00e+00	0	27	0	2498756608	42	5741
2026-01-05 01:55:01.61	17.30	61.67	-32.0	-32.7	28.6	0.00e+00	0	27	0	2502950912	42	5928
2026-01-05 01:55:02.77	16.50	61.33	-32.0	-32.5	28.6	0.00e+00	0	27	0	2510290944	42	5802
2026-01-05 01:55:03.64	15.92	61.08	-31.9	-32.6	28.6	0.00e+00	0	27	0	2514485248	42	5860
2026-01-05 01:55:04.79	15.17	60.74	-31.9	-32.6	28.6	0.00e+00	0	27	0	2521825280	42	5833
2026-01-05 01:55:05.66	14.61	60.48	-32.1	-32.8	28.5	0.00e+00	0	27	0	2526019584	42	5981
2026-01-05 01:55:06.81	13.89	60.13	-32.5	-33.2	28.3	0.00e+00	0	27	0	2532311040	42	6262
2026-01-05 01:55:07.68	13.36	59.87	-32.3	-33.0	28.1	0.00e+00	0	27	0	2537553920	42	6136
2026-01-05 01:55:08.84	12.67	59.52	-31.9	-32.4	28.6	0.00e+00	0	27	0	2543845376	42	5737
2026-01-05 01:55:09.70	12.17	59.25	-32.9	-33.5	28.1	0.00e+00	0	27	0	2549088256	42	6471
2026-01-05 01:55:10.86	11.51	58.90	-32.8	-33.5	28.0	0.00e+00	0	27	0	2555379712	44	5800
2026-01-05 01:55:11.73	11.03	58.63	-32.7	-33.4	28.0	0.00e+00	0	27	0	2560622592	44	5700
2026-01-05 01:55:12.88	10.41	58.28	-32.6	-33.1	28.1	0.00e+00	0	27	0	2566914048	44	5549
2026-01-05 01:55:13.75	9.95	58.01	-32.3	-32.9	28.3	0.00e+00	0	27	0	2572156928	42	6097
2026-01-05 01:55:14.90	9.36	57.65	-32.5	-33.1	28.3	0.00e+00	0	27	0	2578448384	42	6175
2026-01-05 01:55:15.77	8.92	57.39	-32.6	-33.2	28.2	0.00e+00	0	27	0	2582642688	42	6251
2026-01-05 01:55:16.92	8.35	57.03	-32.1	-32.7	28.4	0.00e+00	0	27	0	2589982720	42	5930
2026-01-05 01:55:17.79	7.93	56.76	-32.2	-32.7	28.4	0.00e+00	0	27	0	2594177024	42	5928
2026-01-05 01:55:18.95	7.39	56.40	-32.5	-33.1	28.1	0.00e+00	0	27	0	2600468480	42	6180
2026-01-05 01:55:19.81	6.99	56.13	-32.6	-33.3	28.1	0.00e+00	0	27	0	2605711360	42	6371
2026-01-05 01:55:20.97	6.47	55.77	-32.9	-33.5	28.1	0.00e+00	0	27	0	2612002816	42	6536
2026-01-05 01:55:21.83	6.09	55.50	-33.0	-33.6	28.0	0.00e+00	0	27	0	2617245696	42	6567
2026-01-05 01:55:22.99	5.59	55.14	-33.0	-33.7	27.9	0.00e+00	0	27	0	2623537152	42	6666
2026-01-05 01:55:23.86	5.22	54.87	-32.8	-33.5	28.0	0.00e+00	0	27	0	2628780032	42	6516
2026-01-05 01:55:25.01	4.75	54.52	-33.1	-33.8	27.9	0.00e+00	0	27	0	2635071488	42	6747
2026-01-05 01:55:25.88	4.40	54.25	-33.1	-33.7	27.7	0.00e+00	0	27	0	2640314368	44	5898
2026-01-05 01:55:27.03	3.95	53.89	-33.2	-33.9	27.6	0.00e+00	0	27	0	2646605824	44	6075
2026-01-05 01:55:27.90	3.61	53.63	-33.0	-33.6	27.7	0.00e+00	0	27	0	2651848704	44	5869
2026-01-05 01:55:29.06	3.18	53.27	-32.9	-33.5	27.8	0.00e+00	0	27	0	2658140160	44	5786
2026-01-05 01:55:29.92	2.86	53.00	-32.9	-33.6	28.0	0.00e+00	0	27	0	2662334464	44	5845
2026-01-05 01:55:31.08	2.44	52.65	-32.5	-33.1	28.1	0.00e+00	0	27	0	2669674496	44	5523
2026-01-05 01:55:31.94	2.14	52.39	-32.4	-33.1	28.2	0.00e+00	0	27	0	2673868800	44	5529
2026-01-05 01:55:33.10	1.74	52.03	-32.7	-33.2	28.1	0.00e+00	0	27	0	2680160256	44	5589
2026-01-05 01:55:33.97	1.44	51.77	-32.8	-33.5	27.9	0.00e+00	0	27	0	2685403136	44	5769
2026-01-05 01:55:35.12	1.06	51.42	-32.8	-33.5	28.0	0.00e+00	0	27	0	2691694592	44	5809
2026-01-05 01:55:35.99	0.78	51.16	-33.0	-33.6	27.8	0.00e+00	0	27	0	2696937472	44	5884
2026-01-05 01:55:37.14	0.41	50.81	-33.3	-33.9	27.6	0.00e+00	0	27	0	2703228928	44	6046
2026-01-05 01:55:38.01	0.14	50.55	-33.5	-34.1	27.4	0.00e+00	0	27	0	2708471808	44	6206
2026-01-05 01:55:39.17	359.79	50.20	-33.1	-33.6	27.6	0.00e+00	0	27	0	2714763264	44	5891
2026-01-05 01:55:40.03	359.53	49.95	-32.9	-33.4	27.5	0.00e+00	0	27	0	2720006144	44	5715
2026-01-05 01:55:41.19	359.19	49.60	-33.3	-33.8	27.8	0.00e+00	0	27	0	2726297600	44	6011
2026-01-05 01:55:42.06	358.94	49.34	-33.4	-33.9	27.4	0.00e+00	0	27	0	2730491904	44	6091
2026-01-05 01:55:43.21	358.61	49.01	-33.0	-33.7	27.5	0.00e+00	0	27	0	2737831936	44	5919
2026-01-05 01:55:44.08	358.37	48.75	-32.6	-33.1	28.1	0.00e+00	0	27	0	2742026240	44	5550
2026-01-05 01:55:45.23	358.06	48.41	-32.3	-32.8	28.1	0.00e+00	0	27	0	2749366272	44	5371
2026-01-05 01:55:46.10	357.83	48.16	-32.3	-32.9	28.2	0.00e+00	0	27	0	2753560576	44	5390
2026-01-05 01:55:47.26	357.53	47.83	-32.3	-32.8	28.2	0.00e+00	0	27	0	2759852032	44	5367
2026-01-05 01:55:48.12	357.31	47.58	-32.2	-32.9	28.3	0.00e+00	0	27	0	2765094912	44	5400
2026-01-05 01:55:49.28	357.01	47.25	-32.2	-32.7	28.5	0.00e+00	0	27	0	2771386368	42	5940
2026-01-05 01:55:50.15	356.80	47.00	-32.3	-32.8	28.2	0.00e+00	0	27	0	2776629248	42	6012
2026-01-05 01:55:51.30	356.52	46.67	-32.4	-33.0	28.1	0.00e+00	0	27	0	2782920704	42	6104
2026-01-05 01:55:52.17	356.31	46.42	-32.3	-32.8	28.4	0.00e+00	0	27	0	2788163584	42	6026
2026-01-05 01:55:53.32	356.05	46.10	-32.4	-32.9	28.2	0.00e+00	0	27	0	2794455040	42	6092
2026-01-05 01:55:54.19	355.85	45.86	-32.2	-32.9	28.4	0.00e+00	0	27	0	2799697920	42	6050
2026-01-05 01:55:55.35	355.59	45.53	-32.3	-32.9	28.4	0.00e+00	0	27	0	2805989376	42	6041
2026-01-05 01:55:56.21	355.40	45.30	-32.7	-33.2	28.0	0.00e+00	0	27	0	2810183680	42	6287
2026-01-05 01:55:57.37	355.14	44.98	-33.7	-34.3	27.2	0.00e+00	0	27	0	2816475136	46	5647
2026-01-05 01:55:58.23	354.96	44.74	-32.8	-33.5	27.9	0.00e+00	0	27	0	2821718016	44	5813
2026-01-05 01:55:59.39	354.72	44.42	-33.6	-34.2	27.4	0.00e+00	0	27	0	2828009472	44	6297
2026-01-05 01:56:00.26	354.54	44.19	-32.3	-33.0	28.2	0.00e+00	0	27	0	2833252352	44	5453
2026-01-05 01:56:01.41	354.31	43.88	-32.1	-32.8	28.4	0.00e+00	0	27	0	2839543808	42	5988
2026-01-05 01:56:02.28	354.13	43.65	-32.1	-32.8	28.4	0.00e+00	0	27	0	2844786688	42	6003
2026-01-05 01:56:03.43	353.91	43.34	-32.5	-33.0	28.2	0.00e+00	0	27	0	2851078144	44	5500
2026-01-05 01:56:04.30	353.74	43.11	-33.0	-33.6	27.9	0.00e+00	0	27	0	2856321024	44	5847
2026-01-05 01:56:05.46	353.52	42.80	-33.2	-33.9	27.6	0.00e+00	0	27	0	2862612480	44	6100
2026-01-05 01:56:06.32	353.36	42.58	-33.1	-33.6	27.5	0.00e+00	0	27	0	2866806784	44	5864
2026-01-05 01:56:07.48	353.15	42.27	-33.1	-33.7	28.1	0.00e+00	0	27	0	2874146816	44	5958
2026-01-05 01:56:08.34	353.00	42.05	-32.5	-33.2	27.9	0.00e+00	0	27	0	2878341120	44	5592
2026-01-05 01:56:09.50	352.79	41.75	-32.5	-33.2	28.0	0.00e+00	0	27	0	2885681152	44	5568
2026-01-05 01:56:10.37	352.64	41.53	-32.1	-32.8	28.4	0.00e+00	0	27	0	2889875456	42	5966
2026-01-05 01:56:11.52	352.44	41.24	-32.5	-33.0	28.1	0.00e+00	0	27	0	2896166912	44	5492
2026-01-05 01:56:12.39	352.30	41.02	-33.0	-33.5	27.9	0.00e+00	0	27	0	2901409792	44	5796
2026-01-05 01:56:13.55	352.11	40.72	-32.1	-32.6	28.4	0.00e+00	0	27	0	2907701248	42	5863
2026-01-05 01:56:14.41	351.97	40.51	-32.0	-32.7	28.5	0.00e+00	0	27	0	2912944128	42	5946
2026-01-05 01:56:15.57	351.78	40.22	-31.8	-32.4	28.7	0.00e+00	0	27	0	2919235584	42	5702
2026-01-05 01:56:16.43	351.64	40.01	-31.7	-32.4	28.7	0.00e+00	0	27	0	2924478464	42	5701
2026-01-05 01:56:17.59	351.46	39.72	-31.6	-32.1	28.8	0.00e+00	0	27	0	2930769920	42	5545
2026-01-05 01:56:18.45	351.33	39.51	-31.4	-32.0	28.9	0.00e+00	0	27	0	2936012800	42	5486
2026-01-05 01:56:19.61	351.16	39.23	-31.6	-32.1	28.8	0.00e+00	0	27	0	2942304256	42	5548
2026-01-05 01:56:20.48	351.03	39.02	-31.5	-32.0	28.9	0.00e+00	0	27	0	2946498560	42	5462
2026-01-05 01:56:21.63	350.86	38.75	-31.4	-31.9	29.0	0.00e+00	0	27	0	2953838592	42	5400
2026-01-05 01:56:22.49	350.74	38.54	-31.2	-31.9	29.0	0.00e+00	0	27	0	2958032896	42	5418
2026-01-05 01:56:23.65	350.57	38.27	-31.3	-31.9	29.0	0.00e+00	0	27	0	2965372928	42	5434
2026-01-05 01:56:24.52	350.45	38.06	-31.4	-32.0	29.0	0.00e+00	0	27	0	2969567232	42	5489
2026-01-05 01:56:25.67	350.29	37.79	-31.7	-32.4	28.7	0.00e+00	0	27	0	2975858688	42	5706
2026-01-05 01:56:26.54	350.18	37.59	-31.7	-32.3	28.7	0.00e+00	0	27	0	2981101568	42	5695
2026-01-05 01:56:27.69	350.02	37.33	-32.0	-32.5	28.9	0.00e+00	0	27	0	2987393024	42	5809
2026-01-05 01:56:28.56	349.91	37.13	-31.8	-32.4	28.8	0.00e+00	0	27	0	2992635904	42	5701
2026-01-05 01:56:29.72	349.76	36.86	-31.3	-32.0	28.9	0.00e+00	0	27	0	2998927360	42	5479
2026-01-05 01:56:30.58	349.65	36.67	-31.3	-31.8	29.0	0.00e+00	0	27	0	3004170240	42	5377
2026-01-05 01:56:31.74	349.50	36.41	-31.4	-31.9	29.0	0.00e+00	0	27	0	3010461696	42	5434
2026-01-05 01:56:32.61	349.39	36.21	-31.5	-32.0	28.9	0.00e+00	0	27	0	3015704576	42	5475
2026-01-05 01:56:33.76	349.25	35.96	-31.9	-32.6	28.4	0.00e+00	0	27	0	3021996032	42	5841
2026-01-05 01:56:34.63	349.15	35.76	-32.2	-32.9	28.4	0.00e+00	0	27	0	3026190336	42	6056
2026-01-05 01:56:35.78	349.01	35.51	-31.5	-32.2	28.8	0.00e+00	0	27	0	3033530368	42	5606
2026-01-05 01:56:36.65	348.91	35.32	-31.8	-32.3	28.7	0.00e+00	0	27	0	3037724672	42	5673
2026-01-05 01:56:37.80	348.78	35.07	-31.4	-31.9	28.9	0.00e+00	0	27	0	3044016128	42	5420
2026-01-05 01:56:38.67	348.68	34.88	-31.5	-32.0	28.8	0.00e+00	0	27	0	3049259008	42	5482
2026-01-05 01:56:39.83	348.55	34.64	-31.6	-32.2	28.7	0.00e+00	0	27	0	3055550464	42	5575
2026-01-05 01:56:40.69	348.45	34.45	-31.5	-32.1	28.8	0.00e+00	0	27	0	3060793344	42	5511
2026-01-05 01:56:41.85	348.32	34.21	-31.6	-32.1	28.8	0.00e+00	0	27	0	3067084800	42	5534
2026-01-05 01:56:42.72	348.23	34.03	-31.6	-32.3	28.7	0.00e+00	0	27	0	3072327680	42	5660
2026-01-05 01:56:43.87	348.11	33.79	-31.7	-32.3	28.6	0.00e+00	0	27	0	3078619136	42	5648
2026-01-05 01:56:44.74	348.02	33.60	-31.9	-32.5	28.6	0.00e+00	0	27	0	3083862016	42	5781
2026-01-05 01:56:45.89	347.90	33.37	-31.9	-32.4	28.5	0.00e+00	0	27	0	3090153472	42	5731
2026-01-05 01:56:46.76	347.81	33.19	-32.1	-32.6	28.2	0.00e+00	0	27	0	3094347776	42	5856
2026-01-05 01:56:47.92	347.69	32.95	-32.0	-32.7	28.6	0.00e+00	0	27	0	3101687808	42	5917
2026-01-05 01:56:48.78	347.60	32.78	-32.0	-32.7	28.6	0.00e+00	0	27	0	3105882112	42	5908
2026-01-05 01:56:49.94	347.49	32.55	-32.0	-32.6	28.6	0.00e+00	0	27	0	3113222144	42	5884
2026-01-05 01:56:50.81	347.41	32.37	-31.9	-32.6	28.6	0.00e+00	0	27	0	3117416448	42	5852
2026-01-05 01:56:51.96	347.30	32.14	-31.8	-32.3	28.7	0.00e+00	0	27	0	3123707904	42	5679
2026-01-05 01:56:52.83	347.21	31.97	-31.8	-32.4	28.6	0.00e+00	0	27	0	3128950784	42	5703
2026-01-05 01:56:53.98	347.11	31.75	-31.9	-32.4	28.6	0.00e+00	0	27	0	3135242240	42	5719
2026-01-05 01:56:54.85	347.02	31.58	-31.8	-32.4	28.7	0.00e+00	0	27	0	3140485120	42	5712
2026-01-05 01:56:56.00	346.92	31.35	-31.9	-32.5	28.6	0.00e+00	0	27	0	3146776576	42	5763
2026-01-05 01:56:56.87	346.84	31.19	-31.9	-32.4	28.5	0.00e+00	0	27	0	3152019456	42	5751
2026-01-05 01:56:58.03	346.74	30.97	-31.9	-32.4	28.6	0.00e+00	0	27	0	3158310912	42	5758
2026-01-05 01:56:58.89	346.66	30.80	-32.1	-32.6	28.6	0.00e+00	0	27	0	3163553792	42	5843
2026-01-05 01:57:00.05	346.56	30.58	-32.1	-32.7	28.5	0.00e+00	0	27	0	3169845248	42	5907
2026-01-05 01:57:00.92	346.49	30.42	-32.0	-32.5	28.5	0.00e+00	0	27	0	3174039552	42	5824
2026-01-05 01:57:02.07	346.39	30.20	-32.0	-32.5	28.5	0.00e+00	0	27	0	3181379584	42	5812
2026-01-05 01:57:02.94	346.32	30.04	-32.2	-32.8	28.4	0.00e+00	0	27	0	3185573888	42	5990
2026-01-05 01:57:04.09	346.22	29.83	-32.1	-32.7	28.6	0.00e+00	0	27	0	3192913920	42	5904
2026-01-05 01:57:04.96	346.15	29.67	-32.1	-32.6	28.4	0.00e+00	0	27	0	3197108224	42	5856
2026-01-05 01:57:06.12	346.06	29.46	-32.0	-32.6	28.5	0.00e+00	0	27	0	3203399680	42	5830
2026-01-05 01:57:06.98	345.99	29.31	-32.1	-32.7	28.4	0.00e+00	0	27	0	3208642560	42	5906
2026-01-05 01:57:08.14	345.90	29.10	-32.1	-32.6	28.3	0.00e+00	0	27	0	3214934016	42	5876
2026-01-05 01:57:09.01	345.83	28.94	-32.0	-32.5	28.5	0.00e+00	0	27	0	3220176896	42	5771
2026-01-05 01:57:10.16	345.74	28.74	-32.1	-32.6	28.4	0.00e+00	0	27	0	3226468352	42	5872
2026-01-05 01:57:11.03	345.68	28.58	-32.2	-32.8	28.5	0.00e+00	0	27	0	3231711232	42	5975
2026-01-05 01:57:12.18	345.59	28.38	-32.2	-32.7	28.5	0.00e+00	0	27	0	3238002688	42	5931
2026-01-05 01:57:13.05	345.52	28.23	-32.2	-32.7	28.3	0.00e+00	0	27	0	3243245568	42	5944
2026-01-05 01:57:14.20	345.44	28.03	-32.2	-32.7	28.4	0.00e+00	0	27	0	3249537024	42	5961
2026-01-05 01:57:15.07	345.38	27.88	-32.3	-33.0	28.1	0.00e+00	0	27	0	3253731328	42	6160
2026-01-05 01:57:16.23	345.29	27.68	-32.3	-32.9	28.2	0.00e+00	0	27	0	3260022784	42	6103
2026-01-05 01:57:17.09	345.23	27.54	-32.4	-33.0	28.2	0.00e+00	0	27	0	3265265664	42	6172
2026-01-05 01:57:18.25	345.15	27.34	-32.6	-33.3	28.0	0.00e+00	0	27	0	3271557120	42	6346
2026-01-05 01:57:19.11	345.09	27.19	-32.4	-33.1	27.9	0.00e+00	0	27	0	3276800000	42	6186
2026-01-05 01:57:20.27	345.01	27.00	-32.7	-33.4	27.9	0.00e+00	0	27	0	3283091456	42	6428
2026-01-05 01:57:21.13	344.95	26.86	-32.5	-33.1	28.2	0.00e+00	0	27	0	3288334336	42	6239
2026-01-05 01:57:22.29	344.88	26.67	-32.4	-32.9	28.4	0.00e+00	0	27	0	3294625792	42	6066
2026-01-05 01:57:23.16	344.82	26.52	-32.3	-32.8	28.4	0.00e+00	0	27	0	3299868672	42	6002
2026-01-05 01:57:24.31	344.74	26.33	-32.1	-32.6	28.5	0.00e+00	0	27	0	3306160128	42	5883
2026-01-05 01:57:25.18	344.69	26.19	-32.1	-32.6	28.5	0.00e+00	0	27	0	3311403008	42	5840
2026-01-05 01:57:26.33	344.61	26.01	-32.0	-32.5	28.4	0.00e+00	0	27	0	3317694464	42	5822
2026-01-05 01:57:27.20	344.56	25.87	-32.3	-32.8	28.3	0.00e+00	0	27	0	3321888768	42	6000
2026-01-05 01:57:28.36	344.48	25.68	-32.5	-33.0	28.2	0.00e+00	0	27	0	3329228800	42	6150
2026-01-05 01:57:29.22	344.43	25.55	-32.4	-32.9	28.3	0.00e+00	0	27	0	3333423104	42	6099
2026-01-05 01:57:30.38	344.36	25.36	-32.7	-33.2	28.2	0.00e+00	0	27	0	3340763136	42	6291
2026-01-05 01:57:31.24	344.31	25.23	-33.3	-33.8	28.0	0.00e+00	0	27	0	3344957440	42	6732
2026-01-05 01:57:32.40	344.24	25.05	-32.9	-33.4	27.8	0.00e+00	0	27	0	3351248896	44	5750
2026-01-05 01:57:33.27	344.19	24.91	-32.6	-33.1	28.0	0.00e+00	0	27	0	3356491776	44	5550
2026-01-05 01:57:34.42	344.12	24.73	-32.4	-33.0	28.1	0.00e+00	0	27	0	3362783232	44	5452
2026-01-05 01:57:35.29	344.07	24.60	-32.7	-33.2	27.9	0.00e+00	0	27	0	3368026112	44	5623
2026-01-05 01:57:36.45	344.00	24.42	-32.3	-32.9	28.1	0.00e+00	0	27	0	3374317568	44	5402
2026-01-05 01:57:37.31	343.95	24.29	-32.4	-32.9	28.1	0.00e+00	0	27	0	3379560448	44	5436
2026-01-05 01:57:38.47	343.89	24.12	-32.5	-33.1	28.1	0.00e+00	0	27	0	3385851904	44	5503
2026-01-05 01:57:39.33	343.84	23.99	-32.4	-33.0	28.0	0.00e+00	0	27	0	3391094784	44	5448
2026-01-05 01:57:40.49	343.77	23.82	-32.5	-33.0	28.1	0.00e+00	0	27	0	3397386240	44	5470
2026-01-05 01:57:41.36	343.73	23.69	-32.5	-33.1	28.1	0.00e+00	0	27	0	3401580544	44	5506
2026-01-05 01:57:42.51	343.66	23.52	-32.6	-33.2	28.0	0.00e+00	0	27	0	3408920576	44	5593
2026-01-05 01:57:43.38	343.62	23.39	-32.8	-33.3	27.9	0.00e+00	0	27	0	3413114880	44	5670
2026-01-05 01:57:44.53	343.55	23.22	-32.5	-33.1	28.0	0.00e+00	0	27	0	3420454912	44	5526
2026-01-05 01:57:45.40	343.51	23.10	-32.6	-33.1	28.0	0.00e+00	0	27	0	3424649216	44	5551
2026-01-05 01:57:46.56	343.45	22.93	-32.5	-33.1	28.0	0.00e+00	0	27	0	3430940672	44	5515
2026-01-05 01:57:47.42	343.40	22.81	-32.6	-33.1	27.9	0.00e+00	0	27	0	3436183552	44	5551
2026-01-05 01:57:48.58	343.35	22.64	-32.8	-33.3	28.0	0.00e+00	0	27	0	3442475008	44	5687
2026-01-05 01:57:49.44	343.30	22.52	-32.7	-33.3	27.9	0.00e+00	0	27	0	3447717888	44	5631
2026-01-05 01:57:50.60	343.24	22.36	-32.6	-33.3	28.0	0.00e+00	0	27	0	3454009344	44	5684
2026-01-05 01:57:51.47	343.20	22.23	-32.7	-33.4	27.8	0.00e+00	0	27	0	3459252224	44	5752
2026-01-05 01:57:52.62	343.14	22.07	-32.7	-33.4	27.9	0.00e+00	0	27	0	3465543680	44	5724
2026-01-05 01:57:53.49	343.10	21.95	-32.9	-33.6	27.6	0.00e+00	0	27	0	3470786560	44	5844
2026-01-05 01:57:54.64	343.05	21.79	-32.8	-33.5	27.8	0.00e+00	0	27	0	3477078016	44	5767
2026-01-05 01:57:55.51	343.00	21.67	-33.0	-33.7	27.7	0.00e+00	0	27	0	3481272320	44	5917
2026-01-05 01:57:56.67	342.95	21.52	-33.3	-34.0	27.5	0.00e+00	0	27	0	3487563776	44	6123
2026-01-05 01:57:57.53	342.91	21.40	-33.0	-33.7	27.7	0.00e+00	0	27	0	3492806656	44	5917
2026-01-05 01:57:58.69	342.86	21.24	-33.0	-33.7	27.7	0.00e+00	0	27	0	3499098112	44	5901
2026-01-05 01:57:59.55	342.82	21.13	-33.2	-33.9	27.6	0.00e+00	0	27	0	3504340992	44	6088
2026-01-05 01:58:00.71	342.76	20.97	-33.1	-33.8	27.6	0.00e+00	0	27	0	3510632448	44	6006
2026-01-05 01:58:01.58	342.72	20.85	-33.3	-34.0	27.5	0.00e+00	0	27	0	3515875328	44	6112
2026-01-05 01:58:02.73	342.67	20.70	-33.6	-34.3	27.3	0.00e+00	0	27	0	3522166784	44	6325
2026-01-05 01:58:03.60	342.64	20.59	-33.6	-34.3	27.3	0.00e+00	0	27	0	3527409664	44	6387
2026-01-05 01:58:04.75	342.58	20.44	-34.1	-34.8	26.8	0.00e+00	0	27	0	3533701120	44	6729
2026-01-05 01:58:05.62	342.55	20.32	-34.6	-35.2	26.7	0.00e+00	0	27	0	3537895424	46	6246
2026-01-05 01:58:06.78	342.50	20.17	-33.8	-34.4	27.2	0.00e+00	0	27	0	3545235456	46	5718
2026-01-05 01:58:07.64	342.46	20.06	-33.9	-34.5	27.2	0.00e+00	0	27	0	3549429760	46	5765
2026-01-05 01:58:08.80	342.41	19.91	-33.9	-34.4	27.0	0.00e+00	0	27	0	3556769792	46	5755
2026-01-05 01:58:09.67	342.38	19.80	-33.4	-34.1	27.2	0.00e+00	0	27	0	3560964096	46	5559
2026-01-05 01:58:10.82	342.33	19.66	-33.8	-34.5	27.0	0.00e+00	0	27	0	3567255552	46	5779
2026-01-05 01:58:11.69	342.29	19.55	-33.9	-34.6	26.9	0.00e+00	0	27	0	3572498432	46	5834
2026-01-05 01:58:12.84	342.25	19.40	-33.6	-34.3	27.1	0.00e+00	0	27	0	3578789888	46	5633
