passes_logs/2026/01/05/R4.6S_Anadyr_2ch/R4.6S_Anadyr_2ch__20260105_195118_NOAA_20_JPSS-1_rec.log

#Pass ID: 20260105_195118_NOAA 20 (JPSS-1)
#Satellite: NOAA 20 (JPSS-1)
#Configuration: NOAA 20
#almurnet v.1.7.20251203
#Start time: 2026-01-05 19:51:20

#Version: 2.2.20231116
#Station: R4.6S_Anadyr_2ch
#Location: 177.4865 lon 64.73178 lat
#TLE: 1 43013U 17073A   25350.93759711  .00000080  00000+0  58734-4 0  9994
#TLE: 2 43013  98.7603 287.1885 0002156  81.1496 278.9924 14.19526878418610

#Time	Az	El	Level	Level2	SNR	BER	BlckErr	Temp	State	Recorded	gain1	gain2
2026-01-05 19:51:20.24	59.76	0.08	-51.1	-66.1	3.5	1.51e+00	0	29	0	0	60	98872
2026-01-05 19:51:21.25	59.68	0.13	-51.2	-66.5	3.6	1.51e+00	0	30	104	0	60	103324
2026-01-05 19:51:22.26	59.61	0.18	-51.2	-66.5	3.5	1.51e+00	0	30	104	0	60	103401
2026-01-05 19:51:23.27	59.53	0.22	-51.2	-66.5	3.6	1.51e+00	0	30	104	0	60	103187
2026-01-05 19:51:24.28	59.45	0.27	-51.3	-66.6	3.6	1.51e+00	0	30	104	0	60	104032
2026-01-05 19:51:25.29	59.38	0.32	-51.3	-66.6	3.6	1.51e+00	0	30	104	0	60	104022
2026-01-05 19:51:26.31	59.30	0.37	-51.3	-66.7	3.6	1.51e+00	0	30	104	0	60	104947
2026-01-05 19:51:27.32	59.22	0.42	-51.3	-66.6	3.6	1.51e+00	0	30	104	0	60	104748
2026-01-05 19:51:28.33	59.14	0.47	-51.3	-66.6	3.6	1.51e+00	0	30	104	0	60	104653
2026-01-05 19:51:29.34	59.07	0.52	-51.2	-66.5	3.6	1.51e+00	0	30	104	0	60	103402
2026-01-05 19:51:30.35	58.99	0.57	-51.2	-66.6	3.6	1.51e+00	0	30	104	0	60	104336
2026-01-05 19:51:31.36	58.91	0.62	-51.2	-66.5	3.6	1.51e+00	0	30	104	0	60	103489
2026-01-05 19:51:32.37	58.83	0.67	-51.1	-66.5	3.6	1.51e+00	0	30	104	0	60	103573
2026-01-05 19:51:33.38	58.75	0.72	-51.1	-66.4	3.6	1.51e+00	0	30	104	0	60	102311
2026-01-05 19:51:34.39	58.67	0.77	-51.0	-66.3	3.6	1.51e+00	0	30	104	0	60	100498
2026-01-05 19:51:35.40	58.59	0.82	-50.8	-66.2	3.6	1.51e+00	0	30	104	0	60	99173
2026-01-05 19:51:36.41	58.51	0.87	-50.6	-65.9	3.6	1.51e+00	0	30	104	0	60	96602
2026-01-05 19:51:37.43	58.43	0.92	-50.0	-65.3	3.6	1.51e+00	0	30	104	0	60	89879
2026-01-05 19:51:38.44	58.35	0.97	-49.7	-65.0	3.6	1.51e+00	0	31	104	0	60	86903
2026-01-05 19:51:39.45	58.27	1.02	-49.7	-65.0	3.6	1.51e+00	0	31	104	0	60	86397
2026-01-05 19:51:40.46	58.19	1.07	-49.7	-65.0	3.6	1.51e+00	0	31	104	0	60	86521
2026-01-05 19:51:41.47	58.11	1.12	-49.7	-65.1	3.6	1.51e+00	0	31	104	0	60	87306
2026-01-05 19:51:42.48	58.03	1.17	-49.7	-65.0	3.6	1.51e+00	0	31	104	0	60	86365
2026-01-05 19:51:43.49	57.94	1.22	-49.7	-64.9	3.6	1.51e+00	0	31	104	0	60	86060
2026-01-05 19:51:44.50	57.86	1.26	-49.7	-65.0	3.6	1.51e+00	0	31	104	0	60	86288
2026-01-05 19:51:45.51	57.78	1.31	-49.7	-64.9	3.6	1.51e+00	0	31	104	0	60	85940
2026-01-05 19:51:46.52	57.70	1.36	-49.7	-65.0	3.6	1.51e+00	0	31	104	0	60	86579
2026-01-05 19:51:47.54	57.61	1.42	-49.7	-65.0	3.6	1.51e+00	0	31	104	0	60	86849
2026-01-05 19:51:48.55	57.53	1.46	-49.7	-65.0	3.6	1.51e+00	0	31	104	0	60	86238
2026-01-05 19:51:49.56	57.45	1.51	-49.7	-65.0	3.6	1.51e+00	0	31	104	0	60	86322
2026-01-05 19:51:50.57	57.36	1.56	-49.7	-64.9	3.6	1.51e+00	0	31	104	0	60	86118
2026-01-05 19:51:51.58	57.28	1.61	-49.7	-65.0	3.6	1.51e+00	0	31	104	0	60	86480
2026-01-05 19:51:52.59	57.19	1.67	-49.7	-65.0	3.6	1.51e+00	0	31	104	0	60	86545
2026-01-05 19:51:53.60	57.11	1.72	-49.7	-64.9	3.6	1.51e+00	0	31	104	0	60	86140
2026-01-05 19:51:54.62	57.02	1.77	-49.7	-65.0	3.6	1.51e+00	0	31	104	0	60	86612
2026-01-05 19:51:55.63	56.94	1.82	-49.7	-65.0	3.6	1.51e+00	0	31	104	0	60	86279
2026-01-05 19:51:56.64	56.85	1.87	-49.7	-65.0	3.6	1.51e+00	0	31	104	0	60	86244
2026-01-05 19:51:57.65	56.76	1.92	-49.7	-65.0	3.6	1.51e+00	0	31	104	0	60	86265
2026-01-05 19:51:58.65	56.68	1.97	-49.7	-64.9	3.6	1.51e+00	0	31	104	0	60	85888
2026-01-05 19:51:59.67	56.59	2.02	-49.7	-64.9	3.6	1.51e+00	0	31	104	0	60	85320
2026-01-05 19:52:00.68	56.50	2.07	-49.7	-64.9	3.6	1.51e+00	0	31	104	0	60	85317
2026-01-05 19:52:01.69	56.42	2.12	-49.7	-64.7	3.6	1.51e+00	0	31	104	0	60	83597
2026-01-05 19:52:02.70	56.33	2.17	-49.7	-64.7	3.6	1.51e+00	0	31	104	0	60	83940
2026-01-05 19:52:03.71	56.24	2.22	-49.7	-64.8	3.6	1.51e+00	0	31	104	0	60	84712
2026-01-05 19:52:04.72	56.15	2.27	-49.7	-64.8	3.6	1.51e+00	0	31	104	0	60	85101
2026-01-05 19:52:05.73	56.06	2.32	-49.7	-65.0	3.6	1.51e+00	0	31	104	0	60	86434
2026-01-05 19:52:06.75	55.98	2.37	-49.7	-65.0	3.6	1.51e+00	0	31	104	0	60	86403
2026-01-05 19:52:07.76	55.89	2.42	-49.6	-64.8	3.6	1.51e+00	0	31	104	0	60	85042
2026-01-05 19:52:08.77	55.80	2.47	-49.6	-64.8	3.6	1.51e+00	0	31	104	0	60	84937
2026-01-05 19:52:09.78	55.71	2.52	-49.6	-64.9	3.6	1.51e+00	0	31	104	0	60	85626
2026-01-05 19:52:10.79	55.62	2.57	-49.6	-64.9	3.6	1.51e+00	0	31	104	0	60	85822
2026-01-05 19:52:11.80	55.53	2.62	-49.6	-64.7	3.6	1.51e+00	0	31	104	0	60	83706
2026-01-05 19:52:12.82	55.43	2.67	-49.6	-64.1	3.6	1.51e+00	0	31	104	0	60	78253
2026-01-05 19:52:13.83	55.34	2.72	-49.6	-64.0	3.5	1.51e+00	0	31	104	0	60	77456
2026-01-05 19:52:14.84	55.25	2.77	-49.6	-64.3	3.6	1.51e+00	0	31	104	0	60	80095
2026-01-05 19:52:15.85	55.16	2.83	-49.6	-64.8	3.6	1.51e+00	0	31	104	0	60	84338
2026-01-05 19:52:16.86	55.07	2.88	-49.5	-62.6	3.8	1.51e+00	0	31	104	0	60	65879
2026-01-05 19:52:17.87	54.98	2.93	-49.3	-58.8	4.9	8.49e-01	0	31	0	0	60	42544
2026-01-05 19:52:18.88	54.88	2.98	-48.9	-55.7	7.3	1.91e-01	0	31	102	1048576	60	29691
2026-01-05 19:52:19.89	54.79	3.03	-49.3	-58.5	4.5	2.31e-01	0	31	102	1048576	60	41083
2026-01-05 19:52:20.91	54.70	3.08	-47.9	-52.3	11.5	2.79e-01	0	31	102	1048576	60	20184
2026-01-05 19:52:21.92	54.60	3.13	-49.5	-64.4	3.6	7.63e-01	0	31	104	1048576	60	80766
2026-01-05 19:52:22.93	54.51	3.18	-49.8	-65.0	3.6	1.51e+00	0	31	104	1048576	60	87120
2026-01-05 19:52:23.94	54.41	3.23	-46.1	-49.0	14.8	1.28e+00	0	31	104	1048576	60	13702
2026-01-05 19:52:24.95	54.32	3.28	-46.2	-49.0	15.0	0.00e+00	0	31	0	1048576	60	13739
2026-01-05 19:52:25.96	54.22	3.33	-46.3	-49.1	15.0	0.00e+00	0	31	0	1048576	60	13976
2026-01-05 19:52:26.97	54.13	3.38	-46.1	-48.8	15.2	7.00e-07	0	31	0	1048576	60	13462
2026-01-05 19:52:27.99	54.03	3.44	-46.3	-49.1	15.4	0.00e+00	0	31	0	1048576	60	13957
2026-01-05 19:52:29.00	53.94	3.49	-46.1	-48.8	15.3	7.00e-07	0	31	0	1048576	60	13496
2026-01-05 19:52:30.01	53.84	3.54	-45.8	-48.2	15.9	0.00e+00	0	31	0	1048576	60	12601
2026-01-05 19:52:31.02	53.74	3.59	-45.9	-48.5	15.8	0.00e+00	0	31	0	1048576	60	12978
2026-01-05 19:52:32.03	53.65	3.64	-44.8	-46.9	17.5	0.00e+00	0	31	0	1048576	60	10730
2026-01-05 19:52:33.04	53.55	3.69	-44.6	-46.6	17.7	0.00e+00	0	31	0	1048576	60	10383
2026-01-05 19:52:34.05	53.45	3.74	-44.9	-46.9	17.4	0.00e+00	0	31	0	1048576	60	10839
2026-01-05 19:52:35.06	53.35	3.79	-45.0	-47.1	17.2	0.00e+00	0	31	0	1048576	60	11000
2026-01-05 19:52:36.07	53.25	3.84	-44.8	-46.9	17.4	0.00e+00	0	31	0	1048576	60	10742
2026-01-05 19:52:37.09	53.15	3.90	-44.9	-46.9	17.4	0.00e+00	0	31	0	1048576	60	10805
2026-01-05 19:52:38.10	53.05	3.95	-44.9	-46.9	17.4	0.00e+00	0	31	0	1048576	60	10796
2026-01-05 19:52:39.11	52.95	4.00	-44.8	-46.8	17.6	0.00e+00	0	31	0	1048576	60	10693
2026-01-05 19:52:40.12	52.85	4.05	-44.8	-46.8	17.5	0.00e+00	0	31	0	1048576	60	10621
2026-01-05 19:52:41.13	52.75	4.10	-44.6	-46.5	17.9	0.00e+00	0	31	0	1048576	60	10311
2026-01-05 19:52:42.14	52.65	4.15	-44.7	-46.6	17.8	0.00e+00	0	31	0	1048576	60	10387
2026-01-05 19:52:43.15	52.55	4.20	-44.6	-46.6	17.8	0.00e+00	0	31	101	1048576	60	10370
2026-01-05 19:52:44.16	52.45	4.25	-44.5	-46.3	18.0	0.00e+00	0	31	101	1048576	60	10123
2026-01-05 19:52:45.17	52.35	4.30	-44.2	-46.0	18.4	0.00e+00	0	31	101	1048576	60	9719
2026-01-05 19:52:46.19	52.25	4.36	-44.7	-46.6	17.8	0.00e+00	0	31	101	1048576	60	10392
2026-01-05 19:52:47.20	52.14	4.41	-44.3	-46.0	18.4	0.00e+00	0	31	101	1048576	60	9764
2026-01-05 19:52:48.21	52.04	4.46	-44.4	-46.3	18.1	0.00e+00	0	31	101	1048576	60	10026
2026-01-05 19:52:49.22	51.94	4.51	-44.4	-46.1	18.3	0.00e+00	0	31	101	1048576	60	9882
2026-01-05 19:52:50.23	51.83	4.56	-44.4	-46.1	18.3	0.00e+00	0	31	101	1048576	60	9880
2026-01-05 19:52:51.24	51.73	4.61	-44.2	-45.9	18.5	0.00e+00	0	31	101	1048576	60	9619
2026-01-05 19:52:52.25	51.63	4.66	-44.1	-45.7	18.7	0.00e+00	0	31	101	1048576	60	9448
2026-01-05 19:52:53.26	51.52	4.71	-44.0	-45.6	18.9	0.00e+00	0	31	101	1048576	60	9301
2026-01-05 19:52:54.27	51.42	4.77	-44.1	-45.8	18.7	0.00e+00	0	31	101	1048576	60	9507
2026-01-05 19:52:55.28	51.31	4.82	-44.0	-45.7	18.8	0.00e+00	0	31	101	1048576	60	9359
2026-01-05 19:52:56.30	51.20	4.87	-44.0	-45.7	18.7	0.00e+00	0	31	101	1048576	60	9401
2026-01-05 19:52:57.31	51.10	4.92	-44.1	-45.8	18.7	0.00e+00	0	31	101	1048576	60	9520
2026-01-05 19:52:58.32	50.99	4.97	-44.1	-45.7	18.8	0.00e+00	0	31	101	1048576	60	9440
2026-01-05 19:52:59.33	50.88	5.02	-44.1	-45.7	18.8	0.00e+00	0	31	101	1048576	60	9426
2026-01-05 19:53:00.34	50.78	5.07	-44.2	-45.9	18.7	0.00e+00	0	31	101	1048576	60	9643
2026-01-05 19:53:01.35	50.67	5.13	-43.9	-45.5	18.9	0.00e+00	0	31	101	1048576	60	9181
2026-01-05 19:53:02.36	50.56	5.18	-43.9	-45.5	19.0	0.00e+00	0	31	101	1048576	60	9192
2026-01-05 19:53:03.37	50.45	5.23	-43.8	-45.4	19.1	0.00e+00	0	31	101	1048576	60	9116
2026-01-05 19:53:04.38	50.34	5.28	-43.9	-45.5	19.0	0.00e+00	0	31	101	1048576	60	9133
2026-01-05 19:53:05.39	50.23	5.33	-43.7	-45.3	19.3	0.00e+00	0	31	101	1048576	60	8953
2026-01-05 19:53:06.41	50.12	5.38	-43.6	-45.2	19.2	0.00e+00	0	31	101	1048576	60	8857
2026-01-05 19:53:07.42	50.01	5.43	-43.7	-45.3	19.3	0.00e+00	0	31	101	1048576	60	8958
2026-01-05 19:53:08.43	49.90	5.49	-43.8	-45.4	19.2	0.00e+00	0	31	101	1048576	60	9043
2026-01-05 19:53:09.44	49.79	5.54	-43.6	-45.1	19.4	0.00e+00	0	31	101	1048576	60	8790
2026-01-05 19:53:10.45	49.68	5.59	-43.5	-45.0	19.5	0.00e+00	0	31	101	1048576	60	8716
2026-01-05 19:53:11.46	49.57	5.64	-43.4	-44.9	19.7	0.00e+00	0	31	101	1048576	60	8554
2026-01-05 19:53:12.47	49.45	5.69	-43.4	-44.9	19.6	0.00e+00	0	31	101	1048576	60	8584
2026-01-05 19:53:13.49	49.34	5.74	-43.3	-44.8	19.7	0.00e+00	0	31	101	1048576	60	8459
2026-01-05 19:53:14.50	49.23	5.79	-43.3	-44.8	19.8	0.00e+00	0	31	101	1048576	60	8477
2026-01-05 19:53:15.51	49.11	5.85	-43.5	-45.0	19.6	0.00e+00	0	31	101	1048576	60	8625
2026-01-05 19:53:16.52	49.00	5.90	-43.6	-45.1	19.5	0.00e+00	0	31	101	1048576	60	8764
2026-01-05 19:53:17.53	48.89	5.95	-43.5	-45.0	19.6	0.00e+00	0	31	101	1048576	60	8670
2026-01-05 19:53:18.54	48.77	6.00	-43.5	-45.0	19.6	0.00e+00	0	31	101	1048576	60	8662
2026-01-05 19:53:19.55	48.66	6.05	-43.7	-45.2	19.4	0.00e+00	0	31	101	1048576	60	8893
2026-01-05 19:53:20.56	48.54	6.10	-43.4	-44.8	19.8	0.00e+00	0	31	101	1048576	60	8485
2026-01-05 19:53:21.57	48.42	6.15	-43.6	-45.1	19.6	0.00e+00	0	31	101	1048576	60	8731
2026-01-05 19:53:22.59	48.31	6.20	-43.6	-45.1	19.5	0.00e+00	0	31	101	1048576	60	8733
2026-01-05 19:53:23.60	48.19	6.26	-43.5	-45.0	19.7	0.00e+00	0	31	101	1048576	60	8650
2026-01-05 19:53:24.61	48.07	6.31	-43.5	-45.0	19.6	0.00e+00	0	31	101	1048576	60	8683
2026-01-05 19:53:25.62	47.96	6.36	-43.6	-45.1	19.6	0.00e+00	0	31	101	1048576	60	8755
2026-01-05 19:53:26.63	47.84	6.41	-43.6	-45.1	19.4	0.00e+00	0	31	101	1048576	60	8814
2026-01-05 19:53:27.64	47.72	6.46	-43.8	-45.4	19.3	0.00e+00	0	31	101	1048576	60	9034
2026-01-05 19:53:28.65	47.60	6.51	-43.8	-45.3	19.4	0.00e+00	0	31	101	1048576	60	8975
2026-01-05 19:53:29.66	47.48	6.56	-43.9	-45.5	19.2	0.00e+00	0	31	101	1048576	60	9230
2026-01-05 19:53:30.67	47.36	6.61	-43.7	-45.2	19.6	0.00e+00	0	31	101	1048576	60	8835
2026-01-05 19:53:31.68	47.24	6.67	-43.5	-45.0	19.7	0.00e+00	0	31	101	1048576	60	8659
2026-01-05 19:53:32.70	47.12	6.72	-43.7	-45.2	19.5	0.00e+00	0	31	101	1048576	60	8857
2026-01-05 19:53:33.71	47.00	6.77	-43.3	-44.8	19.9	0.00e+00	0	31	101	1048576	60	8425
2026-01-05 19:53:34.72	46.88	6.82	-43.4	-44.9	19.8	0.00e+00	0	31	101	1048576	60	8556
2026-01-05 19:53:35.73	46.75	6.87	-43.5	-44.9	19.8	0.00e+00	0	31	101	1048576	60	8593
2026-01-05 19:53:36.74	46.63	6.92	-43.4	-44.8	19.9	0.00e+00	0	31	101	1048576	60	8456
2026-01-05 19:53:37.75	46.51	6.97	-43.4	-44.8	19.9	0.00e+00	0	31	101	1048576	60	8493
2026-01-05 19:53:38.76	46.39	7.02	-43.3	-44.7	20.0	0.00e+00	0	31	101	1048576	60	8367
2026-01-05 19:53:39.78	46.26	7.07	-43.3	-44.7	20.0	0.00e+00	0	31	101	1048576	60	8340
2026-01-05 19:53:40.79	46.14	7.13	-43.4	-44.9	19.9	0.00e+00	0	31	101	1048576	60	8529
2026-01-05 19:53:41.80	46.01	7.18	-43.4	-44.9	19.8	0.00e+00	0	31	101	1048576	60	8527
2026-01-05 19:53:42.81	45.89	7.23	-43.3	-44.7	20.1	0.00e+00	0	31	101	1048576	60	8370
2026-01-05 19:53:43.82	45.76	7.28	-43.2	-44.6	20.1	0.00e+00	0	31	101	1048576	60	8290
2026-01-05 19:53:44.83	45.64	7.33	-43.3	-44.6	20.1	0.00e+00	0	31	101	1048576	60	8325
2026-01-05 19:53:45.84	45.51	7.38	-43.3	-44.8	20.0	0.00e+00	0	31	101	1048576	60	8426
2026-01-05 19:53:46.85	45.38	7.43	-43.4	-44.9	19.9	0.00e+00	0	31	101	1048576	60	8569
2026-01-05 19:53:47.86	45.26	7.48	-43.3	-44.8	20.0	0.00e+00	0	31	101	1048576	60	8442
2026-01-05 19:53:48.87	45.13	7.53	-43.2	-44.6	20.2	0.00e+00	0	31	101	1048576	60	8311
2026-01-05 19:53:49.88	45.00	7.58	-43.4	-44.8	20.1	0.00e+00	0	31	101	1048576	60	8460
2026-01-05 19:53:50.89	44.87	7.63	-43.2	-44.5	20.1	0.00e+00	0	31	101	1048576	60	8228
2026-01-05 19:53:51.91	44.74	7.68	-43.3	-44.7	20.1	0.00e+00	0	31	101	1048576	60	8339
2026-01-05 19:53:52.92	44.61	7.73	-43.1	-44.4	20.3	0.00e+00	0	31	101	1048576	60	8109
2026-01-05 19:53:53.93	44.48	7.79	-43.0	-44.3	20.4	0.00e+00	0	31	101	1048576	60	8022
2026-01-05 19:53:54.94	44.35	7.84	-43.0	-44.3	20.5	0.00e+00	0	31	101	1048576	60	8040
2026-01-05 19:53:55.95	44.22	7.89	-42.8	-44.1	20.6	0.00e+00	0	31	101	1048576	60	7850
2026-01-05 19:53:56.96	44.09	7.94	-42.8	-44.1	20.6	0.00e+00	0	31	101	1048576	60	7819
2026-01-05 19:53:57.97	43.96	7.99	-42.9	-44.2	20.5	0.00e+00	0	31	101	1048576	60	7949
2026-01-05 19:53:58.99	43.82	8.04	-42.9	-44.3	20.5	0.00e+00	0	31	101	1048576	60	7960
2026-01-05 19:54:00.00	43.69	8.09	-42.9	-44.3	20.5	0.00e+00	0	31	101	1048576	60	7967
2026-01-05 19:54:01.01	43.56	8.14	-42.9	-44.2	20.6	0.00e+00	0	31	101	1048576	60	7886
2026-01-05 19:54:02.02	43.42	8.19	-42.9	-44.2	20.6	0.00e+00	0	31	101	1048576	60	7940
2026-01-05 19:54:03.03	43.29	8.24	-43.0	-44.3	20.5	0.00e+00	0	31	101	1048576	60	7978
2026-01-05 19:54:04.04	43.15	8.29	-42.6	-43.9	20.9	0.00e+00	0	31	101	1048576	60	7609
2026-01-05 19:54:05.05	43.02	8.34	-42.6	-43.9	20.9	0.00e+00	0	31	101	1048576	60	7640
2026-01-05 19:54:06.06	42.88	8.39	-42.7	-43.9	20.9	0.00e+00	0	31	101	1048576	60	7663
2026-01-05 19:54:07.07	42.75	8.44	-42.8	-44.1	20.7	0.00e+00	0	31	101	1048576	60	7797
2026-01-05 19:54:08.08	42.61	8.49	-42.8	-44.1	20.6	0.00e+00	0	31	101	1048576	60	7815
2026-01-05 19:54:09.09	42.47	8.54	-42.7	-43.9	20.9	0.00e+00	0	31	101	1048576	60	7668
2026-01-05 19:54:10.11	42.33	8.59	-42.7	-44.0	20.8	0.00e+00	0	31	101	1048576	60	7688
2026-01-05 19:54:11.12	42.20	8.64	-42.7	-43.9	20.9	0.00e+00	0	31	101	1048576	60	7661
2026-01-05 19:54:12.13	42.06	8.69	-42.7	-43.9	20.9	0.00e+00	0	31	101	1048576	60	7648
2026-01-05 19:54:13.14	41.92	8.74	-42.8	-44.1	20.7	0.00e+00	0	31	101	1048576	60	7814
2026-01-05 19:54:14.15	41.78	8.79	-42.6	-43.8	21.0	0.00e+00	0	31	101	1048576	60	7554
2026-01-05 19:54:15.16	41.64	8.84	-42.6	-43.9	20.8	0.00e+00	0	31	101	1048576	60	7630
2026-01-05 19:54:16.17	41.50	8.88	-42.7	-44.0	20.9	0.00e+00	0	31	101	1048576	60	7702
2026-01-05 19:54:17.18	41.36	8.93	-42.7	-43.9	20.8	0.00e+00	0	31	101	1048576	60	7667
2026-01-05 19:54:18.19	41.22	8.98	-42.7	-44.0	20.9	0.00e+00	0	31	101	1048576	60	7704
2026-01-05 19:54:19.20	41.07	9.03	-42.8	-44.1	20.6	0.00e+00	0	31	101	1048576	60	7786
2026-01-05 19:54:20.22	40.93	9.08	-42.8	-44.1	20.7	0.00e+00	0	31	101	1048576	60	7777
2026-01-05 19:54:21.23	40.79	9.13	-42.8	-44.1	20.7	0.00e+00	0	31	101	1048576	60	7842
2026-01-05 19:54:22.24	40.64	9.18	-42.8	-44.1	20.8	0.00e+00	0	31	101	1048576	60	7806
2026-01-05 19:54:23.25	40.50	9.23	-42.7	-44.0	20.8	0.00e+00	0	31	101	1048576	60	7729
2026-01-05 19:54:24.26	40.36	9.28	-42.8	-44.1	20.7	0.00e+00	0	31	101	1048576	60	7831
2026-01-05 19:54:25.27	40.21	9.33	-42.7	-43.9	20.9	0.00e+00	0	31	101	1048576	60	7672
2026-01-05 19:54:26.28	40.07	9.37	-42.7	-43.9	20.9	0.00e+00	0	31	101	1048576	60	7654
2026-01-05 19:54:27.29	39.92	9.42	-42.6	-43.9	21.0	0.00e+00	0	31	101	1048576	60	7611
2026-01-05 19:54:28.30	39.77	9.47	-42.6	-43.8	21.0	0.00e+00	0	31	101	1048576	60	7565
2026-01-05 19:54:29.31	39.63	9.52	-42.6	-43.9	21.0	0.00e+00	0	31	101	1048576	60	7596
2026-01-05 19:54:30.33	39.48	9.57	-42.3	-43.5	21.4	0.00e+00	0	31	101	1048576	60	7319
2026-01-05 19:54:31.34	39.33	9.62	-42.4	-43.6	21.3	0.00e+00	0	31	101	1048576	60	7366
2026-01-05 19:54:32.35	39.18	9.66	-42.3	-43.5	21.4	0.00e+00	0	31	101	1048576	60	7256
2026-01-05 19:54:33.36	39.03	9.71	-42.1	-43.2	21.5	0.00e+00	0	31	101	1048576	60	7070
2026-01-05 19:54:34.37	38.88	9.76	-42.1	-43.3	21.6	0.00e+00	0	31	101	1048576	60	7093
2026-01-05 19:54:35.38	38.73	9.81	-42.0	-43.2	21.7	0.00e+00	0	31	101	1048576	60	7018
2026-01-05 19:54:36.39	38.58	9.86	-41.9	-43.1	21.7	0.00e+00	0	31	101	1048576	60	6946
2026-01-05 19:54:37.40	38.43	9.90	-41.9	-43.0	21.7	0.00e+00	0	31	101	1048576	60	6918
2026-01-05 19:54:38.41	38.28	9.95	-41.9	-43.0	21.6	0.00e+00	0	31	101	1048576	60	6876
2026-01-05 19:54:39.42	38.13	10.00	-41.9	-43.0	21.7	0.00e+00	0	31	101	1048576	60	6914
2026-01-05 19:54:40.44	37.98	10.05	-41.8	-42.9	21.9	0.00e+00	0	31	101	1048576	60	6810
2026-01-05 19:54:41.45	37.82	10.09	-41.6	-42.7	22.1	0.00e+00	0	31	101	1048576	60	6681
2026-01-05 19:54:42.46	37.67	10.14	-41.4	-42.5	22.3	0.00e+00	0	31	101	1048576	60	6478
2026-01-05 19:54:43.47	37.52	10.19	-41.4	-42.5	22.4	0.00e+00	0	31	101	1048576	60	6467
2026-01-05 19:54:44.48	37.36	10.23	-41.3	-42.4	22.5	0.00e+00	0	31	101	1048576	60	6417
2026-01-05 19:54:45.49	37.21	10.28	-41.2	-42.3	22.5	0.00e+00	0	31	101	1048576	60	6329
2026-01-05 19:54:46.50	37.05	10.33	-41.3	-42.3	22.5	0.00e+00	0	31	101	1048576	60	6356
2026-01-05 19:54:47.51	36.90	10.37	-41.2	-42.2	22.6	0.00e+00	0	31	101	1048576	60	6271
2026-01-05 19:54:48.52	36.74	10.42	-41.1	-42.1	22.6	0.00e+00	0	31	101	1048576	60	6238
2026-01-05 19:54:49.53	36.58	10.47	-41.2	-42.2	22.6	0.00e+00	0	31	101	1048576	60	6275
2026-01-05 19:54:50.55	36.42	10.51	-41.0	-42.0	22.7	0.00e+00	0	31	101	1048576	60	6164
2026-01-05 19:54:51.56	36.27	10.56	-41.0	-42.0	22.8	0.00e+00	0	31	101	1048576	60	6132
2026-01-05 19:54:52.57	36.11	10.60	-41.0	-42.1	22.7	0.00e+00	0	31	101	1048576	60	6185
2026-01-05 19:54:53.58	35.95	10.65	-41.1	-42.1	22.6	0.00e+00	0	31	101	1048576	60	6245
2026-01-05 19:54:54.59	35.79	10.69	-41.1	-42.2	22.6	0.00e+00	0	31	101	1048576	60	6258
2026-01-05 19:54:55.60	35.63	10.74	-41.1	-42.1	22.6	0.00e+00	0	31	101	1048576	60	6189
2026-01-05 19:54:56.61	35.47	10.79	-40.9	-41.9	22.7	0.00e+00	0	31	101	1048576	60	6085
2026-01-05 19:54:57.62	35.31	10.83	-41.0	-42.0	22.8	0.00e+00	0	31	101	1048576	60	6145
2026-01-05 19:54:58.64	35.15	10.88	-40.8	-41.8	23.0	0.00e+00	0	31	101	1048576	60	5992
2026-01-05 19:54:59.65	34.98	10.92	-40.8	-41.8	23.0	0.00e+00	0	31	101	1048576	60	5967
2026-01-05 19:55:00.66	34.82	10.97	-40.8	-41.8	22.9	0.00e+00	0	31	101	1048576	60	6030
2026-01-05 19:55:01.67	34.66	11.01	-40.8	-41.8	23.0	0.00e+00	0	31	101	1048576	60	5981
2026-01-05 19:55:02.68	34.50	11.05	-40.8	-41.8	23.0	0.00e+00	0	31	101	1048576	60	5981
2026-01-05 19:55:03.69	34.33	11.10	-40.7	-41.6	23.1	0.00e+00	0	31	101	1048576	60	5896
2026-01-05 19:55:04.70	34.17	11.14	-40.7	-41.7	23.1	0.00e+00	0	31	101	1048576	60	5913
2026-01-05 19:55:05.71	34.00	11.19	-40.6	-41.6	23.1	0.00e+00	0	31	101	1048576	60	5868
2026-01-05 19:55:06.73	33.84	11.23	-40.7	-41.7	23.1	0.00e+00	0	31	101	1048576	60	5920
2026-01-05 19:55:07.74	33.67	11.28	-40.8	-41.8	23.0	0.00e+00	0	31	101	1048576	60	6009
2026-01-05 19:55:08.75	33.50	11.32	-40.6	-41.5	23.2	0.00e+00	0	31	101	1048576	60	5820
2026-01-05 19:55:09.76	33.34	11.36	-40.6	-41.6	23.1	0.00e+00	0	31	101	1048576	60	5856
2026-01-05 19:55:10.77	33.17	11.41	-40.7	-41.7	23.1	0.00e+00	0	31	101	1048576	60	5921
2026-01-05 19:55:11.78	33.00	11.45	-40.5	-41.5	23.2	0.00e+00	0	31	101	1048576	60	5796
2026-01-05 19:55:12.79	32.83	11.49	-40.6	-41.5	23.0	0.00e+00	0	31	101	1048576	60	5798
2026-01-05 19:55:13.80	32.66	11.53	-40.3	-41.2	23.5	0.00e+00	0	31	101	1048576	60	5589
2026-01-05 19:55:14.81	32.49	11.58	-40.3	-41.2	23.4	0.00e+00	0	31	101	1048576	60	5627
2026-01-05 19:55:15.83	32.32	11.62	-40.4	-41.4	23.4	0.00e+00	0	31	101	1048576	60	5716
2026-01-05 19:55:16.84	32.15	11.66	-40.3	-41.3	23.4	0.00e+00	0	31	101	1048576	60	5634
2026-01-05 19:55:17.85	31.98	11.70	-40.3	-41.2	23.5	0.00e+00	0	31	101	1048576	60	5615
2026-01-05 19:55:18.86	31.81	11.75	-40.4	-41.4	23.3	0.00e+00	0	31	101	1048576	60	5696
2026-01-05 19:55:19.87	31.64	11.79	-40.3	-41.2	23.5	0.00e+00	0	31	101	1048576	60	5616
2026-01-05 19:55:20.88	31.47	11.83	-40.3	-41.2	23.5	0.00e+00	0	31	101	1048576	60	5606
2026-01-05 19:55:21.89	31.29	11.87	-40.4	-41.4	23.4	0.00e+00	0	32	101	1048576	60	5696
2026-01-05 19:55:22.90	31.12	11.91	-40.4	-41.4	23.4	0.00e+00	0	31	101	1048576	60	5702
2026-01-05 19:55:23.91	30.95	11.95	-40.5	-41.4	23.4	0.00e+00	0	31	101	1048576	60	5756
2026-01-05 19:55:24.93	30.77	11.99	-40.5	-41.5	23.3	0.00e+00	0	31	101	1048576	60	5783
2026-01-05 19:55:25.94	30.59	12.03	-40.5	-41.5	23.3	0.00e+00	0	31	101	1048576	60	5789
2026-01-05 19:55:26.95	30.42	12.07	-40.6	-41.5	23.3	0.00e+00	0	31	101	1048576	60	5823
2026-01-05 19:55:27.96	30.24	12.11	-40.6	-41.6	23.2	0.00e+00	0	31	101	1048576	60	5846
2026-01-05 19:55:28.97	30.07	12.15	-40.6	-41.6	23.0	0.00e+00	0	31	101	1048576	60	5865
2026-01-05 19:55:29.98	29.89	12.19	-40.7	-41.6	23.1	0.00e+00	0	31	101	1048576	60	5875
2026-01-05 19:55:30.99	29.71	12.23	-40.6	-41.6	23.2	0.00e+00	0	31	101	1048576	60	5851
2026-01-05 19:55:32.00	29.54	12.27	-40.6	-41.6	23.2	0.00e+00	0	31	101	1048576	60	5865
2026-01-05 19:55:33.01	29.36	12.31	-40.7	-41.7	23.1	0.00e+00	0	31	101	1048576	60	5923
2026-01-05 19:55:34.02	29.18	12.35	-40.9	-41.9	22.9	0.00e+00	0	31	101	1048576	60	6101
2026-01-05 19:55:35.04	29.00	12.39	-40.9	-41.9	22.9	0.00e+00	0	31	101	1048576	60	6080
2026-01-05 19:55:36.05	28.82	12.43	-41.0	-42.0	22.9	0.00e+00	0	31	101	1048576	60	6121
2026-01-05 19:55:37.06	28.64	12.47	-40.8	-41.8	23.0	0.00e+00	0	31	101	1048576	60	6023
2026-01-05 19:55:38.07	28.46	12.50	-40.9	-41.8	23.0	0.00e+00	0	31	101	1048576	60	6028
2026-01-05 19:55:39.08	28.28	12.54	-40.8	-41.8	23.1	0.00e+00	0	31	101	1048576	60	5965
2026-01-05 19:55:40.09	28.09	12.58	-40.7	-41.7	23.2	0.00e+00	0	31	101	1048576	60	5930
2026-01-05 19:55:41.10	27.91	12.62	-40.8	-41.8	23.0	0.00e+00	0	32	101	1048576	60	5975
2026-01-05 19:55:42.11	27.73	12.65	-40.6	-41.5	23.3	0.00e+00	0	31	101	1048576	60	5796
2026-01-05 19:55:43.12	27.55	12.69	-40.6	-41.5	23.1	0.00e+00	0	31	101	1048576	60	5827
2026-01-05 19:55:44.14	27.36	12.73	-40.7	-41.6	23.2	0.00e+00	0	31	101	1048576	60	5874
2026-01-05 19:55:45.15	27.18	12.77	-40.5	-41.5	23.3	0.00e+00	0	31	101	1048576	60	5776
2026-01-05 19:55:46.16	26.99	12.80	-40.6	-41.6	23.2	0.00e+00	0	31	101	1048576	60	5835
2026-01-05 19:55:47.17	26.81	12.84	-40.6	-41.5	23.3	0.00e+00	0	32	101	1048576	60	5819
2026-01-05 19:55:48.18	26.62	12.87	-40.7	-41.7	23.1	0.00e+00	0	31	101	1048576	60	5918
2026-01-05 19:55:49.19	26.44	12.91	-40.7	-41.7	23.0	0.00e+00	0	31	101	1048576	60	5931
2026-01-05 19:55:50.20	26.25	12.94	-40.7	-41.7	23.2	0.00e+00	0	31	101	1048576	60	5929
2026-01-05 19:55:51.21	26.07	12.98	-40.5	-41.4	23.4	0.00e+00	0	31	101	1048576	60	5759
2026-01-05 19:55:52.22	25.88	13.01	-40.5	-41.4	23.3	0.00e+00	0	31	101	1048576	60	5743
2026-01-05 19:55:53.24	25.69	13.05	-40.4	-41.3	23.5	0.00e+00	0	31	101	1048576	60	5687
2026-01-05 19:55:54.25	25.50	13.08	-40.5	-41.4	23.5	0.00e+00	0	31	101	1048576	60	5737
2026-01-05 19:55:55.26	25.31	13.12	-40.4	-41.3	23.5	0.00e+00	0	31	101	1048576	60	5684
2026-01-05 19:55:56.27	25.12	13.15	-40.5	-41.4	23.3	0.00e+00	0	31	101	1048576	60	5741
2026-01-05 19:55:57.28	24.93	13.18	-40.5	-41.5	23.1	0.00e+00	0	31	101	1048576	60	5782
2026-01-05 19:55:58.29	24.74	13.22	-40.6	-41.5	23.3	0.00e+00	0	31	101	1048576	60	5824
2026-01-05 19:55:59.30	24.55	13.25	-40.4	-41.3	23.4	0.00e+00	0	31	101	1048576	60	5685
2026-01-05 19:56:00.31	24.36	13.28	-40.4	-41.3	23.4	0.00e+00	0	31	101	1048576	60	5677
2026-01-05 19:56:01.32	24.17	13.31	-40.5	-41.4	23.4	0.00e+00	0	31	101	1048576	60	5728
2026-01-05 19:56:02.34	23.98	13.35	-40.6	-41.5	23.3	0.00e+00	0	31	101	1048576	60	5818
2026-01-05 19:56:03.35	23.79	13.38	-40.6	-41.5	23.3	0.00e+00	0	32	101	1048576	60	5799
2026-01-05 19:56:04.36	23.60	13.41	-40.4	-41.3	23.5	0.00e+00	0	31	101	1048576	60	5690
2026-01-05 19:56:05.37	23.40	13.44	-40.4	-41.4	23.4	0.00e+00	0	31	101	1048576	60	5699
2026-01-05 19:56:06.38	23.21	13.47	-40.2	-41.2	23.6	0.00e+00	0	31	101	1048576	60	5581
2026-01-05 19:56:07.39	23.02	13.50	-40.2	-41.2	23.6	0.00e+00	0	31	101	1048576	60	5573
2026-01-05 19:56:08.40	22.82	13.53	-40.2	-41.2	23.6	0.00e+00	0	31	101	1048576	60	5579
2026-01-05 19:56:09.41	22.63	13.56	-40.3	-41.2	23.6	0.00e+00	0	31	101	1048576	60	5617
2026-01-05 19:56:10.43	22.43	13.59	-40.4	-41.3	23.6	0.00e+00	0	31	101	1048576	60	5667
2026-01-05 19:56:11.44	22.24	13.62	-40.4	-41.3	23.5	0.00e+00	0	31	101	1048576	60	5673
2026-01-05 19:56:12.45	22.04	13.65	-40.5	-41.4	23.4	0.00e+00	0	31	101	1048576	60	5747
2026-01-05 19:56:13.46	21.85	13.68	-40.4	-41.4	23.4	0.00e+00	0	31	101	1048576	60	5720
2026-01-05 19:56:14.47	21.65	13.71	-40.3	-41.2	23.6	0.00e+00	0	31	101	1048576	60	5593
2026-01-05 19:56:15.48	21.45	13.74	-40.1	-41.0	23.7	0.00e+00	0	31	101	1048576	58	6133
2026-01-05 19:56:16.49	21.26	13.77	-40.3	-41.2	23.6	0.00e+00	0	31	101	1048576	58	6268
2026-01-05 19:56:17.50	21.06	13.79	-40.2	-41.2	23.6	0.00e+00	0	31	101	1048576	58	6257
2026-01-05 19:56:18.51	20.86	13.82	-40.3	-41.2	23.5	0.00e+00	0	31	101	1048576	58	6313
2026-01-05 19:56:19.52	20.66	13.85	-40.3	-41.2	23.5	0.00e+00	0	31	101	1048576	58	6299
2026-01-05 19:56:20.54	20.46	13.88	-40.1	-41.1	23.7	0.00e+00	0	31	101	1048576	58	6175
2026-01-05 19:56:21.55	20.26	13.90	-40.2	-41.2	23.5	0.00e+00	0	31	101	1048576	58	6253
2026-01-05 19:56:22.56	20.06	13.93	-40.2	-41.1	23.6	0.00e+00	0	31	101	1048576	58	6216
2026-01-05 19:56:23.57	19.87	13.95	-40.4	-41.4	23.3	0.00e+00	0	31	101	1048576	58	6398
2026-01-05 19:56:24.58	19.67	13.98	-40.6	-41.5	23.2	0.00e+00	0	31	101	1048576	58	6522
2026-01-05 19:56:25.59	19.46	14.01	-40.6	-41.5	23.2	0.00e+00	0	31	101	1048576	58	6535
2026-01-05 19:56:26.60	19.26	14.03	-40.7	-41.6	23.2	0.00e+00	0	31	101	1048576	58	6590
2026-01-05 19:56:27.61	19.06	14.05	-40.5	-41.5	23.3	0.00e+00	0	31	101	1048576	58	6466
2026-01-05 19:56:28.62	18.86	14.08	-40.6	-41.5	23.3	0.00e+00	0	31	101	1048576	58	6534
2026-01-05 19:56:29.63	18.66	14.10	-40.5	-41.4	23.4	0.00e+00	0	31	101	1048576	58	6424
2026-01-05 19:56:30.65	18.46	14.13	-40.6	-41.6	23.2	0.00e+00	0	31	101	1048576	58	6569
2026-01-05 19:56:31.66	18.25	14.15	-40.8	-41.8	23.1	0.00e+00	0	31	101	1048576	58	6720
2026-01-05 19:56:32.67	18.05	14.17	-40.8	-41.8	23.1	0.00e+00	0	31	101	1048576	58	6717
2026-01-05 19:56:33.68	17.85	14.20	-40.9	-41.9	23.0	0.00e+00	0	31	101	1048576	58	6789
2026-01-05 19:56:34.69	17.65	14.22	-40.8	-41.8	23.1	0.00e+00	0	31	101	1048576	58	6743
2026-01-05 19:56:35.70	17.44	14.24	-40.9	-41.9	23.1	0.00e+00	0	31	101	1048576	58	6788
2026-01-05 19:56:36.71	17.24	14.26	-40.9	-41.9	22.9	0.00e+00	0	31	101	1048576	58	6771
2026-01-05 19:56:37.72	17.03	14.28	-41.0	-41.9	22.9	0.00e+00	0	31	101	1048576	58	6845
2026-01-05 19:56:38.73	16.83	14.30	-41.1	-42.1	22.8	0.00e+00	0	31	101	1048576	60	6241
2026-01-05 19:56:39.75	16.62	14.32	-41.3	-42.3	22.6	0.00e+00	0	31	101	1048576	60	6372
2026-01-05 19:56:40.76	16.42	14.34	-41.3	-42.3	22.6	0.00e+00	0	31	101	1048576	60	6356
2026-01-05 19:56:41.77	16.21	14.36	-41.3	-42.4	22.6	0.00e+00	0	31	101	1048576	60	6412
2026-01-05 19:56:42.78	16.01	14.38	-41.3	-42.3	22.6	0.00e+00	0	31	101	1048576	60	6339
2026-01-05 19:56:43.79	15.80	14.40	-41.1	-42.1	22.8	0.00e+00	0	31	101	1048576	60	6189
2026-01-05 19:56:44.80	15.60	14.42	-41.1	-42.1	22.8	0.00e+00	0	31	101	1048576	60	6211
2026-01-05 19:56:45.81	15.39	14.44	-41.1	-42.1	22.9	0.00e+00	0	31	101	1048576	60	6245
2026-01-05 19:56:46.82	15.18	14.46	-41.1	-42.1	22.9	0.00e+00	0	31	101	1048576	60	6190
2026-01-05 19:56:47.83	14.98	14.47	-40.9	-41.8	23.1	0.00e+00	0	31	101	1048576	60	6016
2026-01-05 19:56:48.85	14.77	14.49	-40.9	-41.9	23.1	0.00e+00	0	31	101	1048576	60	6066
2026-01-05 19:56:49.86	14.56	14.51	-40.8	-41.8	23.1	0.00e+00	0	31	101	1048576	60	6014
2026-01-05 19:56:50.87	14.35	14.53	-40.6	-41.6	23.3	0.00e+00	0	31	101	1048576	60	5835
2026-01-05 19:56:51.88	14.15	14.54	-40.5	-41.4	23.4	0.00e+00	0	31	101	1048576	60	5747
2026-01-05 19:56:52.89	13.94	14.56	-40.4	-41.3	23.5	0.00e+00	0	31	101	1048576	60	5683
2026-01-05 19:56:53.90	13.73	14.57	-40.4	-41.4	23.5	0.00e+00	0	31	101	1048576	60	5705
2026-01-05 19:56:54.91	13.52	14.59	-40.5	-41.5	23.5	0.00e+00	0	31	101	1048576	60	5765
2026-01-05 19:56:55.92	13.31	14.60	-40.6	-41.6	23.3	0.00e+00	0	31	101	1048576	60	5849
2026-01-05 19:56:56.93	13.10	14.62	-40.7	-41.7	23.3	0.00e+00	0	31	101	1048576	60	5904
2026-01-05 19:56:57.95	12.89	14.63	-40.7	-41.6	23.3	0.00e+00	0	31	101	1048576	60	5865
2026-01-05 19:56:58.96	12.68	14.64	-40.7	-41.6	23.2	0.00e+00	0	31	101	1048576	60	5868
2026-01-05 19:56:59.97	12.47	14.66	-40.4	-41.4	23.4	0.00e+00	0	31	101	1048576	60	5708
2026-01-05 19:57:00.98	12.26	14.67	-40.6	-41.5	23.3	0.00e+00	0	31	101	1048576	60	5820
2026-01-05 19:57:01.99	12.05	14.68	-40.7	-41.7	23.1	0.00e+00	0	31	101	1048576	60	5898
2026-01-05 19:57:03.00	11.84	14.70	-40.8	-41.8	23.1	0.00e+00	0	31	101	1048576	60	5998
2026-01-05 19:57:04.01	11.63	14.71	-40.9	-41.9	23.0	0.00e+00	0	31	101	1048576	60	6093
2026-01-05 19:57:05.02	11.42	14.72	-41.0	-42.0	23.0	0.00e+00	0	31	101	1048576	60	6173
2026-01-05 19:57:06.03	11.21	14.73	-41.1	-42.1	22.9	0.00e+00	0	31	101	1048576	60	6178
2026-01-05 19:57:07.05	11.00	14.74	-40.7	-41.7	23.3	0.00e+00	0	31	101	1048576	60	5901
2026-01-05 19:57:08.06	10.79	14.75	-40.7	-41.7	23.2	0.00e+00	0	31	101	1048576	60	5933
2026-01-05 19:57:09.07	10.58	14.76	-40.6	-41.5	23.4	0.00e+00	0	31	101	1048576	60	5800
2026-01-05 19:57:10.08	10.37	14.77	-40.6	-41.5	23.4	0.00e+00	0	31	101	1048576	60	5824
2026-01-05 19:57:11.09	10.16	14.78	-40.6	-41.6	23.3	0.00e+00	0	31	101	1048576	60	5860
2026-01-05 19:57:12.10	9.95	14.79	-40.8	-41.8	23.2	0.00e+00	0	32	101	1048576	60	5987
2026-01-05 19:57:13.11	9.74	14.80	-40.9	-41.9	23.1	0.00e+00	0	31	101	1048576	60	6052
2026-01-05 19:57:14.12	9.52	14.80	-40.7	-41.7	23.2	0.00e+00	0	31	101	1048576	60	5916
2026-01-05 19:57:15.14	9.31	14.81	-40.8	-41.7	23.2	0.00e+00	0	31	101	1048576	60	5952
2026-01-05 19:57:16.15	9.10	14.82	-40.7	-41.6	23.2	0.00e+00	0	31	101	1048576	60	5896
2026-01-05 19:57:17.16	8.89	14.82	-40.7	-41.6	23.3	0.00e+00	0	31	101	1048576	60	5880
2026-01-05 19:57:18.17	8.67	14.83	-40.6	-41.6	23.3	0.00e+00	0	31	101	1048576	60	5834
2026-01-05 19:57:19.18	8.46	14.84	-40.6	-41.5	23.4	0.00e+00	0	31	101	1048576	60	5798
2026-01-05 19:57:20.19	8.25	14.84	-40.6	-41.5	23.4	0.00e+00	0	31	101	1048576	60	5826
2026-01-05 19:57:21.20	8.04	14.85	-40.6	-41.6	23.3	0.00e+00	0	31	101	1048576	60	5843
2026-01-05 19:57:22.21	7.83	14.85	-40.6	-41.6	23.3	0.00e+00	0	31	101	1048576	60	5846
2026-01-05 19:57:23.22	7.61	14.86	-40.8	-41.7	23.2	0.00e+00	0	31	101	1048576	60	5964
2026-01-05 19:57:24.23	7.40	14.86	-40.6	-41.6	23.2	0.00e+00	0	31	101	1048576	60	5863
2026-01-05 19:57:25.25	7.19	14.86	-40.8	-41.8	23.2	0.00e+00	0	31	101	1048576	60	5973
2026-01-05 19:57:26.26	6.98	14.87	-40.6	-41.6	23.2	0.00e+00	0	31	101	1048576	60	5837
2026-01-05 19:57:27.27	6.76	14.87	-40.5	-41.4	23.5	0.00e+00	0	31	101	1048576	60	5735
2026-01-05 19:57:28.28	6.55	14.87	-40.5	-41.4	23.4	0.00e+00	0	31	101	1048576	60	5754
2026-01-05 19:57:29.29	6.34	14.87	-40.6	-41.5	23.3	0.00e+00	0	31	101	1048576	60	5814
2026-01-05 19:57:30.30	6.13	14.88	-40.7	-41.7	23.3	0.00e+00	0	31	101	1048576	60	5924
2026-01-05 19:57:31.31	5.91	14.88	-40.8	-41.8	23.2	0.00e+00	0	31	101	1048576	60	5999
2026-01-05 19:57:32.32	5.70	14.88	-40.9	-41.9	23.1	0.00e+00	0	31	101	1048576	60	6034
2026-01-05 19:57:33.33	5.49	14.88	-40.9	-41.8	23.1	0.00e+00	0	31	101	1048576	60	6016
2026-01-05 19:57:34.35	5.27	14.88	-40.6	-41.6	23.4	0.00e+00	0	31	101	1048576	60	5848
2026-01-05 19:57:35.36	5.06	14.88	-40.5	-41.4	23.5	0.00e+00	0	31	101	1048576	60	5736
2026-01-05 19:57:36.37	4.85	14.88	-40.4	-41.3	23.5	0.00e+00	0	31	101	1048576	60	5689
2026-01-05 19:57:37.38	4.63	14.88	-40.3	-41.3	23.5	0.00e+00	0	31	101	1048576	60	5632
2026-01-05 19:57:38.39	4.42	14.87	-40.3	-41.3	23.6	0.00e+00	0	31	101	1048576	60	5643
2026-01-05 19:57:39.40	4.21	14.87	-40.4	-41.4	23.5	0.00e+00	0	31	101	1048576	60	5710
2026-01-05 19:57:40.41	4.00	14.87	-40.5	-41.4	23.4	0.00e+00	0	31	101	1048576	60	5732
2026-01-05 19:57:41.42	3.78	14.87	-40.6	-41.5	23.2	0.00e+00	0	31	101	1048576	60	5827
2026-01-05 19:57:42.44	3.57	14.86	-40.6	-41.5	23.4	0.00e+00	0	31	101	1048576	60	5803
2026-01-05 19:57:43.45	3.36	14.86	-40.6	-41.5	23.4	0.00e+00	0	31	101	1048576	60	5808
2026-01-05 19:57:44.46	3.15	14.86	-40.7	-41.7	23.3	0.00e+00	0	31	101	1048576	60	5908
2026-01-05 19:57:45.47	2.93	14.85	-40.6	-41.6	23.2	0.00e+00	0	31	101	1048576	60	5863
2026-01-05 19:57:46.48	2.72	14.85	-40.8	-41.7	23.2	0.00e+00	0	31	101	1048576	60	5941
2026-01-05 19:57:47.49	2.51	14.84	-40.8	-41.7	23.2	0.00e+00	0	31	101	1048576	60	5962
2026-01-05 19:57:48.50	2.30	14.84	-40.9	-41.9	23.1	0.00e+00	0	31	101	1048576	60	6038
2026-01-05 19:57:49.51	2.09	14.83	-41.0	-42.0	23.0	0.00e+00	0	31	101	1048576	60	6120
2026-01-05 19:57:50.52	1.87	14.82	-41.2	-42.3	22.8	0.00e+00	0	31	101	1048576	60	6319
2026-01-05 19:57:51.54	1.66	14.82	-41.2	-42.2	22.8	0.00e+00	0	31	101	1048576	60	6285
2026-01-05 19:57:52.55	1.45	14.81	-41.3	-42.3	22.7	0.00e+00	0	31	101	1048576	60	6387
2026-01-05 19:57:53.56	1.24	14.80	-41.1	-42.1	23.0	0.00e+00	0	31	101	1048576	60	6188
2026-01-05 19:57:54.57	1.03	14.79	-41.1	-42.1	22.9	0.00e+00	0	31	101	1048576	60	6175
2026-01-05 19:57:55.58	0.81	14.79	-41.1	-42.1	22.9	0.00e+00	0	31	101	1048576	60	6198
2026-01-05 19:57:56.59	0.60	14.78	-40.8	-41.8	23.2	0.00e+00	0	31	101	1048576	60	6003
2026-01-05 19:57:57.60	0.39	14.77	-41.0	-42.0	23.1	0.00e+00	0	31	101	1048576	60	6108
2026-01-05 19:57:58.61	0.18	14.76	-41.1	-42.1	23.0	0.00e+00	0	31	101	1048576	60	6200
2026-01-05 19:57:59.62	359.97	14.75	-41.2	-42.2	22.9	0.00e+00	0	32	101	1048576	60	6279
2026-01-05 19:58:00.63	359.76	14.74	-41.1	-42.1	22.8	0.00e+00	0	31	101	1048576	60	6193
2026-01-05 19:58:01.65	359.55	14.73	-41.4	-42.4	22.6	0.00e+00	0	31	101	1048576	60	6445
2026-01-05 19:58:02.66	359.34	14.72	-41.4	-42.5	22.4	0.00e+00	0	31	101	1048576	60	6482
2026-01-05 19:58:03.67	359.13	14.71	-41.4	-42.5	22.6	0.00e+00	0	31	101	1048576	60	6493
2026-01-05 19:58:04.68	358.92	14.69	-41.5	-42.6	22.4	0.00e+00	0	31	101	1048576	60	6582
2026-01-05 19:58:05.69	358.71	14.68	-41.5	-42.5	22.6	0.00e+00	0	31	101	1048576	60	6525
2026-01-05 19:58:06.70	358.50	14.67	-41.3	-42.3	22.7	0.00e+00	0	32	101	1048576	60	6363
2026-01-05 19:58:07.71	358.29	14.66	-40.9	-41.9	23.1	0.00e+00	0	31	101	1048576	60	6088
2026-01-05 19:58:08.72	358.08	14.64	-40.8	-41.8	23.2	0.00e+00	0	32	101	1048576	60	5984
2026-01-05 19:58:09.74	357.87	14.63	-40.8	-41.8	23.3	0.00e+00	0	31	101	1048576	60	5975
2026-01-05 19:58:10.74	357.66	14.61	-40.8	-41.7	23.2	0.00e+00	0	31	101	1048576	60	5959
2026-01-05 19:58:11.76	357.45	14.60	-41.0	-42.0	23.1	0.00e+00	0	31	101	1048576	60	6152
2026-01-05 19:58:12.77	357.24	14.59	-40.9	-41.8	23.1	0.00e+00	0	31	101	1048576	60	6018
2026-01-05 19:58:13.78	357.03	14.57	-40.7	-41.7	23.1	0.00e+00	0	32	101	1048576	60	5932
2026-01-05 19:58:14.79	356.82	14.55	-40.8	-41.8	23.1	0.00e+00	0	32	101	1048576	60	5991
2026-01-05 19:58:15.80	356.62	14.54	-40.9	-41.8	23.1	0.00e+00	0	32	101	1048576	60	6029
2026-01-05 19:58:16.81	356.41	14.52	-40.9	-41.9	23.1	0.00e+00	0	32	101	1048576	60	6064
2026-01-05 19:58:17.82	356.20	14.51	-40.8	-41.7	23.2	0.00e+00	0	32	101	1048576	60	5959
2026-01-05 19:58:18.83	355.99	14.49	-40.6	-41.6	23.4	0.00e+00	0	31	101	1048576	60	5863
2026-01-05 19:58:19.85	355.79	14.47	-40.5	-41.4	23.5	0.00e+00	0	31	101	1048576	60	5756
2026-01-05 19:58:20.86	355.58	14.45	-40.4	-41.4	23.5	0.00e+00	0	32	101	1048576	60	5717
2026-01-05 19:58:21.87	355.37	14.44	-40.5	-41.4	23.4	0.00e+00	0	32	101	1048576	60	5739
2026-01-05 19:58:22.88	355.17	14.42	-40.5	-41.5	23.4	0.00e+00	0	32	101	1048576	60	5765
2026-01-05 19:58:23.89	354.96	14.40	-40.4	-41.3	23.5	0.00e+00	0	31	101	1048576	60	5680
2026-01-05 19:58:24.90	354.76	14.38	-40.5	-41.4	23.4	0.00e+00	0	31	101	1048576	60	5726
2026-01-05 19:58:25.91	354.55	14.36	-40.5	-41.5	23.4	0.00e+00	0	31	101	1048576	60	5776
2026-01-05 19:58:26.92	354.35	14.34	-40.6	-41.5	23.1	0.00e+00	0	31	101	1048576	60	5828
2026-01-05 19:58:27.93	354.14	14.32	-40.5	-41.5	23.4	0.00e+00	0	31	101	1048576	60	5788
2026-01-05 19:58:28.95	353.93	14.30	-40.5	-41.5	23.4	0.00e+00	0	31	101	1048576	60	5792
2026-01-05 19:58:29.96	353.73	14.28	-40.5	-41.5	23.4	0.00e+00	0	32	101	1048576	60	5776
2026-01-05 19:58:30.97	353.53	14.26	-40.6	-41.5	23.4	0.00e+00	0	32	101	1048576	60	5804
2026-01-05 19:58:31.98	353.32	14.24	-40.6	-41.6	23.3	0.00e+00	0	32	101	1048576	60	5867
2026-01-05 19:58:32.99	353.12	14.21	-40.6	-41.5	23.3	0.00e+00	0	32	101	1048576	60	5817
2026-01-05 19:58:34.00	352.92	14.19	-40.7	-41.6	23.3	0.00e+00	0	31	101	1048576	60	5890
2026-01-05 19:58:35.01	352.71	14.17	-40.7	-41.7	23.2	0.00e+00	0	31	101	1048576	60	5912
2026-01-05 19:58:36.02	352.51	14.15	-40.8	-41.8	23.2	0.00e+00	0	32	101	1048576	60	5997
2026-01-05 19:58:37.04	352.31	14.12	-40.9	-41.9	23.1	0.00e+00	0	31	101	1048576	60	6049
2026-01-05 19:58:38.05	352.11	14.10	-40.8	-41.8	23.2	0.00e+00	0	31	101	1048576	60	5977
2026-01-05 19:58:39.06	351.90	14.07	-41.0	-41.9	23.2	0.00e+00	0	31	101	1048576	60	6088
2026-01-05 19:58:40.07	351.70	14.05	-41.0	-41.9	23.0	0.00e+00	0	32	101	1048576	60	6101
2026-01-05 19:58:41.08	351.50	14.03	-41.0	-41.9	23.1	0.00e+00	0	32	101	1048576	60	6096
2026-01-05 19:58:42.09	351.30	14.00	-40.9	-41.8	23.1	0.00e+00	0	32	101	1048576	60	6028
2026-01-05 19:58:43.10	351.10	13.98	-40.9	-41.9	23.0	0.00e+00	0	32	101	1048576	60	6054
2026-01-05 19:58:44.11	350.90	13.95	-40.8	-41.8	23.2	0.00e+00	0	31	101	1048576	60	6006
2026-01-05 19:58:45.13	350.70	13.92	-40.8	-41.8	23.1	0.00e+00	0	32	101	1048576	60	6003
2026-01-05 19:58:46.14	350.50	13.90	-41.0	-42.0	23.0	0.00e+00	0	31	101	1048576	60	6111
2026-01-05 19:58:47.15	350.30	13.87	-40.9	-41.9	23.0	0.00e+00	0	31	101	1048576	60	6059
2026-01-05 19:58:48.16	350.10	13.84	-41.1	-42.1	22.9	0.00e+00	0	32	101	1048576	60	6213
2026-01-05 19:58:49.17	349.91	13.82	-40.9	-41.9	23.0	0.00e+00	0	31	101	1048576	60	6041
2026-01-05 19:58:50.18	349.71	13.79	-40.9	-41.9	23.0	0.00e+00	0	32	101	1048576	60	6080
2026-01-05 19:58:51.19	349.51	13.76	-40.9	-41.9	23.0	0.00e+00	0	32	101	1048576	60	6063
2026-01-05 19:58:52.20	349.32	13.73	-41.0	-42.0	22.9	0.00e+00	0	32	101	1048576	60	6133
2026-01-05 19:58:53.21	349.12	13.71	-41.0	-42.0	22.9	0.00e+00	0	32	101	1048576	60	6145
2026-01-05 19:58:54.22	348.92	13.68	-41.2	-42.2	22.9	0.00e+00	0	31	101	1048576	60	6284
2026-01-05 19:58:55.23	348.73	13.65	-41.0	-42.0	22.9	0.00e+00	0	32	101	1048576	60	6113
2026-01-05 19:58:56.25	348.53	13.62	-41.1	-42.1	22.9	0.00e+00	0	32	101	1048576	60	6200
2026-01-05 19:58:57.26	348.34	13.59	-41.1	-42.2	22.8	0.00e+00	0	32	101	1048576	60	6258
2026-01-05 19:58:58.27	348.14	13.56	-41.1	-42.1	22.8	0.00e+00	0	32	101	1048576	60	6214
2026-01-05 19:58:59.28	347.95	13.53	-40.9	-41.9	23.1	0.00e+00	0	31	101	1048576	60	6038
2026-01-05 19:59:00.29	347.75	13.50	-40.7	-41.7	23.1	0.00e+00	0	31	101	1048576	60	5942
2026-01-05 19:59:01.30	347.56	13.47	-40.6	-41.6	23.3	0.00e+00	0	32	101	1048576	60	5845
2026-01-05 19:59:02.31	347.37	13.44	-40.6	-41.6	23.3	0.00e+00	0	32	101	1048576	60	5852
2026-01-05 19:59:03.32	347.17	13.41	-40.6	-41.5	23.3	0.00e+00	0	32	101	1048576	60	5819
2026-01-05 19:59:04.33	346.98	13.37	-40.4	-41.4	23.4	0.00e+00	0	31	101	1048576	60	5715
2026-01-05 19:59:05.34	346.79	13.34	-40.5	-41.5	23.2	0.00e+00	0	31	101	1048576	60	5791
2026-01-05 19:59:06.35	346.60	13.31	-40.5	-41.5	23.2	0.00e+00	0	31	101	1048576	60	5786
2026-01-05 19:59:07.36	346.41	13.28	-40.5	-41.4	23.3	0.00e+00	0	31	101	1048576	60	5761
2026-01-05 19:59:08.37	346.22	13.24	-40.6	-41.6	23.2	0.00e+00	0	31	101	1048576	60	5841
2026-01-05 19:59:09.38	346.03	13.21	-40.5	-41.5	23.3	0.00e+00	0	31	101	1048576	60	5775
2026-01-05 19:59:10.40	345.84	13.18	-40.5	-41.4	23.4	0.00e+00	0	31	101	1048576	60	5759
2026-01-05 19:59:11.41	345.65	13.14	-40.7	-41.7	23.2	0.00e+00	0	31	101	1048576	60	5907
2026-01-05 19:59:12.42	345.46	13.11	-40.5	-41.4	23.3	0.00e+00	0	31	101	1048576	60	5753
2026-01-05 19:59:13.43	345.27	13.08	-40.4	-41.3	23.5	0.00e+00	0	31	101	1048576	60	5687
2026-01-05 19:59:14.44	345.08	13.04	-40.5	-41.5	23.4	0.00e+00	0	31	101	1048576	60	5772
2026-01-05 19:59:15.45	344.90	13.01	-40.6	-41.5	23.3	0.00e+00	0	32	101	1048576	60	5820
2026-01-05 19:59:16.46	344.71	12.97	-40.6	-41.6	23.3	0.00e+00	0	31	101	1048576	60	5872
2026-01-05 19:59:17.47	344.52	12.94	-40.7	-41.7	23.1	0.00e+00	0	31	101	1048576	60	5937
2026-01-05 19:59:18.49	344.34	12.90	-40.7	-41.7	23.2	0.00e+00	0	31	101	1048576	60	5947
2026-01-05 19:59:19.50	344.15	12.87	-40.7	-41.7	23.0	0.00e+00	0	31	101	1048576	60	5950
2026-01-05 19:59:20.51	343.97	12.83	-40.6	-41.5	23.0	0.00e+00	0	31	101	1048576	60	5801
2026-01-05 19:59:21.52	343.78	12.80	-40.7	-41.7	23.1	0.00e+00	0	32	101	1048576	60	5938
2026-01-05 19:59:22.53	343.60	12.76	-40.6	-41.6	23.2	0.00e+00	0	31	101	1048576	60	5867
2026-01-05 19:59:23.54	343.41	12.72	-40.5	-41.4	23.4	0.00e+00	0	32	101	1048576	60	5738
2026-01-05 19:59:24.55	343.23	12.69	-40.5	-41.4	23.3	0.00e+00	0	31	101	1048576	60	5759
2026-01-05 19:59:25.56	343.05	12.65	-40.6	-41.5	23.2	0.00e+00	0	31	101	1048576	60	5816
2026-01-05 19:59:26.57	342.87	12.61	-40.5	-41.4	23.4	0.00e+00	0	31	101	1048576	60	5742
2026-01-05 19:59:27.59	342.68	12.57	-40.5	-41.4	23.4	0.00e+00	0	31	101	1048576	60	5754
2026-01-05 19:59:28.60	342.50	12.54	-40.5	-41.4	23.4	0.00e+00	0	32	101	1048576	60	5719
2026-01-05 19:59:29.61	342.32	12.50	-40.6	-41.5	23.3	0.00e+00	0	31	101	1048576	60	5798
2026-01-05 19:59:30.62	342.14	12.46	-40.6	-41.5	23.3	0.00e+00	0	32	101	1048576	60	5803
2026-01-05 19:59:31.63	341.96	12.42	-40.6	-41.6	23.3	0.00e+00	0	32	101	1048576	60	5832
2026-01-05 19:59:32.64	341.78	12.38	-40.7	-41.6	23.2	0.00e+00	0	31	101	1048576	60	5878
2026-01-05 19:59:33.65	341.60	12.35	-40.7	-41.6	23.3	0.00e+00	0	31	101	1048576	60	5886
2026-01-05 19:59:34.66	341.42	12.31	-40.5	-41.5	23.3	0.00e+00	0	32	101	1048576	60	5797
2026-01-05 19:59:35.68	341.24	12.27	-40.7	-41.6	23.2	0.00e+00	0	32	101	1048576	60	5884
2026-01-05 19:59:36.69	341.07	12.23	-40.6	-41.6	23.1	0.00e+00	0	32	101	1048576	60	5853
2026-01-05 19:59:37.70	340.89	12.19	-40.7	-41.7	23.2	0.00e+00	0	32	101	1048576	60	5913
2026-01-05 19:59:38.71	340.71	12.15	-40.8	-41.7	23.1	0.00e+00	0	32	101	1048576	60	5963
2026-01-05 19:59:39.72	340.54	12.11	-40.8	-41.8	23.0	0.00e+00	0	32	101	1048576	60	6011
2026-01-05 19:59:40.73	340.36	12.07	-41.0	-42.0	22.8	0.00e+00	0	32	101	1048576	60	6159
2026-01-05 19:59:41.74	340.19	12.03	-41.1	-42.1	22.7	0.00e+00	0	32	101	1048576	60	6217
2026-01-05 19:59:42.75	340.01	11.99	-41.2	-42.2	22.6	0.00e+00	0	32	101	1048576	60	6284
2026-01-05 19:59:43.76	339.84	11.95	-41.3	-42.3	22.6	0.00e+00	0	31	101	1048576	60	6379
2026-01-05 19:59:44.77	339.66	11.91	-41.4	-42.4	22.4	0.00e+00	0	32	101	1048576	60	6440
2026-01-05 19:59:45.79	339.49	11.86	-41.4	-42.5	22.3	0.00e+00	0	31	101	1048576	60	6498
2026-01-05 19:59:46.80	339.32	11.82	-41.5	-42.5	22.3	0.00e+00	0	31	101	1048576	60	6518
2026-01-05 19:59:47.81	339.14	11.78	-41.4	-42.5	22.4	0.00e+00	0	31	101	1048576	60	6481
2026-01-05 19:59:48.82	338.97	11.74	-41.6	-42.6	22.3	0.00e+00	0	31	101	1048576	60	6593
2026-01-05 19:59:49.83	338.80	11.70	-41.6	-42.7	22.2	0.00e+00	0	32	101	1048576	60	6671
2026-01-05 19:59:50.84	338.63	11.66	-41.7	-42.8	22.1	0.00e+00	0	32	101	1048576	60	6720
2026-01-05 19:59:51.85	338.46	11.61	-41.7	-42.7	22.1	0.00e+00	0	32	101	1048576	60	6685
2026-01-05 19:59:52.86	338.29	11.57	-41.7	-42.7	22.1	0.00e+00	0	32	101	1048576	60	6683
2026-01-05 19:59:53.87	338.12	11.53	-41.7	-42.8	22.0	0.00e+00	0	32	101	1048576	60	6756
2026-01-05 19:59:54.88	337.95	11.49	-41.8	-42.9	22.0	0.00e+00	0	31	101	1048576	60	6821
2026-01-05 19:59:55.90	337.78	11.44	-41.9	-43.0	21.9	0.00e+00	0	31	101	1048576	60	6889
2026-01-05 19:59:56.91	337.62	11.40	-42.0	-43.1	21.7	0.00e+00	0	32	101	1048576	60	6991
2026-01-05 19:59:57.92	337.45	11.36	-42.1	-43.2	21.7	0.00e+00	0	31	101	1048576	60	7055
2026-01-05 19:59:58.93	337.28	11.31	-42.2	-43.4	21.5	0.00e+00	0	31	101	1048576	60	7183
2026-01-05 19:59:59.94	337.12	11.27	-42.4	-43.5	21.4	0.00e+00	0	31	101	1048576	60	7332
2026-01-05 20:00:00.95	336.95	11.23	-42.4	-43.7	21.3	0.00e+00	0	31	101	1048576	60	7423
2026-01-05 20:00:01.96	336.79	11.18	-42.5	-43.8	21.1	0.00e+00	0	32	101	1048576	60	7524
2026-01-05 20:00:02.97	336.62	11.14	-42.5	-43.7	21.1	0.00e+00	0	31	101	1048576	60	7503
2026-01-05 20:00:03.99	336.46	11.09	-42.6	-43.8	21.1	0.00e+00	0	32	101	1048576	60	7538
2026-01-05 20:00:05.00	336.29	11.05	-42.7	-44.0	20.9	0.00e+00	0	31	101	1048576	60	7701
2026-01-05 20:00:06.01	336.13	11.01	-42.7	-43.9	21.0	0.00e+00	0	32	101	1048576	60	7657
2026-01-05 20:00:07.02	335.97	10.96	-42.7	-43.9	20.8	0.00e+00	0	32	101	1048576	60	7670
2026-01-05 20:00:08.03	335.80	10.92	-42.7	-44.0	20.9	0.00e+00	0	31	101	1048576	60	7689
2026-01-05 20:00:09.04	335.64	10.87	-42.6	-43.8	21.1	0.00e+00	0	32	101	1048576	60	7552
2026-01-05 20:00:10.05	335.48	10.83	-42.7	-44.0	21.0	0.00e+00	0	31	101	1048576	60	7687
2026-01-05 20:00:11.06	335.32	10.78	-42.8	-44.1	20.7	0.00e+00	0	31	101	1048576	60	7822
2026-01-05 20:00:12.07	335.16	10.74	-42.9	-44.2	20.6	0.00e+00	0	32	101	1048576	60	7881
2026-01-05 20:00:13.09	335.00	10.69	-43.1	-44.5	20.6	0.00e+00	0	32	101	1048576	60	8144
2026-01-05 20:00:14.10	334.84	10.64	-43.2	-44.6	20.3	0.00e+00	0	32	101	1048576	60	8262
2026-01-05 20:00:15.11	334.68	10.60	-43.3	-44.7	20.2	0.00e+00	0	31	101	1048576	60	8337
2026-01-05 20:00:16.12	334.52	10.55	-43.6	-45.0	19.9	0.00e+00	0	32	101	1048576	60	8678
2026-01-05 20:00:17.13	334.37	10.51	-43.7	-45.1	19.9	0.00e+00	0	32	101	1048576	60	8806
2026-01-05 20:00:18.14	334.21	10.46	-43.7	-45.2	19.8	0.00e+00	0	31	101	1048576	60	8845
2026-01-05 20:00:19.15	334.05	10.41	-43.6	-45.1	19.8	0.00e+00	0	31	101	1048576	60	8734
2026-01-05 20:00:20.16	333.90	10.37	-43.5	-44.9	20.0	0.00e+00	0	31	101	1048576	60	8555
2026-01-05 20:00:21.17	333.74	10.32	-43.5	-44.9	20.0	0.00e+00	0	31	101	1048576	60	8607
2026-01-05 20:00:22.19	333.58	10.27	-43.5	-44.9	20.0	0.00e+00	0	31	101	1048576	60	8576
2026-01-05 20:00:23.20	333.43	10.23	-43.4	-44.8	20.1	0.00e+00	0	31	101	1048576	60	8471
2026-01-05 20:00:24.21	333.28	10.18	-43.5	-45.0	19.9	0.00e+00	0	31	101	1048576	60	8632
2026-01-05 20:00:25.22	333.12	10.13	-43.7	-45.1	19.8	0.00e+00	0	31	101	1048576	60	8803
2026-01-05 20:00:26.23	332.97	10.09	-43.8	-45.3	19.6	0.00e+00	0	31	101	1048576	60	8972
2026-01-05 20:00:27.24	332.82	10.04	-43.6	-45.1	19.8	0.00e+00	0	31	101	1048576	60	8751
2026-01-05 20:00:28.25	332.67	9.99	-43.7	-45.2	19.8	0.00e+00	0	31	101	1048576	60	8864
2026-01-05 20:00:29.26	332.51	9.95	-43.8	-45.2	19.7	0.00e+00	0	31	101	1048576	60	8908
2026-01-05 20:00:30.27	332.36	9.90	-43.8	-45.3	19.6	0.00e+00	0	31	101	1048576	60	8969
2026-01-05 20:00:31.29	332.21	9.85	-43.7	-45.1	19.8	0.00e+00	0	31	101	1048576	60	8793
2026-01-05 20:00:32.30	332.06	9.80	-43.7	-45.2	19.7	0.00e+00	0	31	101	1048576	60	8839
2026-01-05 20:00:33.31	331.91	9.76	-43.6	-45.0	19.9	0.00e+00	0	31	101	1048576	60	8689
2026-01-05 20:00:34.32	331.76	9.71	-43.7	-45.1	19.8	0.00e+00	0	31	101	1048576	60	8773
2026-01-05 20:00:35.33	331.61	9.66	-43.6	-45.1	19.9	0.00e+00	0	31	101	1048576	60	8740
2026-01-05 20:00:36.34	331.47	9.61	-43.5	-44.9	20.1	0.00e+00	0	31	101	1048576	60	8562
2026-01-05 20:00:37.35	331.32	9.56	-43.5	-44.9	20.0	0.00e+00	0	31	101	1048576	60	8604
2026-01-05 20:00:38.36	331.17	9.52	-43.5	-44.9	20.0	0.00e+00	0	32	101	1048576	60	8577
2026-01-05 20:00:39.38	331.02	9.47	-43.7	-45.1	19.8	0.00e+00	0	32	101	1048576	60	8781
2026-01-05 20:00:40.39	330.88	9.42	-43.6	-45.1	19.8	0.00e+00	0	31	101	1048576	60	8744
2026-01-05 20:00:41.40	330.73	9.37	-43.7	-45.2	19.7	0.00e+00	0	31	101	1048576	60	8867
2026-01-05 20:00:42.41	330.59	9.32	-43.8	-45.3	19.6	0.00e+00	0	32	101	1048576	60	8970
2026-01-05 20:00:43.42	330.44	9.27	-43.9	-45.4	19.5	0.00e+00	0	31	101	1048576	60	9066
2026-01-05 20:00:44.43	330.30	9.22	-43.6	-45.1	19.8	0.00e+00	0	31	101	1048576	60	8741
2026-01-05 20:00:45.44	330.15	9.18	-43.7	-45.2	19.7	0.00e+00	0	31	101	1048576	60	8845
2026-01-05 20:00:46.45	330.01	9.13	-43.5	-44.9	20.0	0.00e+00	0	31	101	1048576	60	8566
2026-01-05 20:00:47.46	329.87	9.08	-43.4	-44.8	20.1	0.00e+00	0	31	101	1048576	60	8452
2026-01-05 20:00:48.48	329.73	9.03	-43.2	-44.6	20.2	0.00e+00	0	32	101	1048576	60	8289
2026-01-05 20:00:49.49	329.58	8.98	-43.2	-44.6	20.3	0.00e+00	0	31	101	1048576	60	8274
2026-01-05 20:00:50.50	329.44	8.93	-43.1	-44.4	20.5	0.00e+00	0	31	101	1048576	60	8075
2026-01-05 20:00:51.51	329.30	8.88	-43.0	-44.3	20.5	0.00e+00	0	31	101	1048576	60	8045
2026-01-05 20:00:52.52	329.16	8.83	-43.1	-44.5	20.4	0.00e+00	0	31	101	1048576	60	8146
2026-01-05 20:00:53.53	329.02	8.78	-43.2	-44.5	20.4	0.00e+00	0	31	101	1048576	60	8233
2026-01-05 20:00:54.54	328.88	8.73	-43.2	-44.5	20.4	0.00e+00	0	31	101	1048576	60	8196
2026-01-05 20:00:55.55	328.74	8.68	-43.1	-44.5	20.5	0.00e+00	0	32	101	1048576	60	8146
2026-01-05 20:00:56.57	328.60	8.63	-43.0	-44.3	20.5	0.00e+00	0	32	101	1048576	60	8009
2026-01-05 20:00:57.58	328.47	8.58	-43.1	-44.4	20.3	0.00e+00	0	31	101	1048576	60	8131
2026-01-05 20:00:58.59	328.33	8.53	-43.0	-44.3	20.5	0.00e+00	0	32	101	1048576	60	8000
2026-01-05 20:00:59.60	328.19	8.48	-43.1	-44.4	20.5	0.00e+00	0	32	101	1048576	60	8117
2026-01-05 20:01:00.61	328.06	8.43	-42.9	-44.3	20.6	0.00e+00	0	31	101	1048576	60	7958
2026-01-05 20:01:01.62	327.92	8.38	-42.8	-44.1	20.7	0.00e+00	0	31	101	1048576	60	7820
2026-01-05 20:01:02.63	327.79	8.33	-42.9	-44.2	20.6	0.00e+00	0	32	101	1048576	60	7878
2026-01-05 20:01:03.64	327.65	8.28	-42.9	-44.2	20.6	0.00e+00	0	32	101	1048576	60	7905
2026-01-05 20:01:04.65	327.52	8.23	-42.8	-44.1	20.8	0.00e+00	0	31	101	1048576	60	7799
2026-01-05 20:01:05.66	327.38	8.18	-42.6	-43.9	20.9	0.00e+00	0	32	101	1048576	60	7633
2026-01-05 20:01:06.67	327.25	8.13	-42.7	-44.0	20.9	0.00e+00	0	32	101	1048576	60	7744
2026-01-05 20:01:07.69	327.11	8.08	-42.5	-43.8	21.0	0.00e+00	0	31	101	1048576	60	7545
2026-01-05 20:01:08.70	326.98	8.03	-42.7	-44.0	20.9	0.00e+00	0	32	101	1048576	60	7687
2026-01-05 20:01:09.71	326.85	7.98	-42.2	-43.4	21.5	0.00e+00	0	31	101	1048576	60	7174
2026-01-05 20:01:10.72	326.72	7.93	-42.3	-43.5	21.2	0.00e+00	0	31	101	1048576	60	7275
2026-01-05 20:01:11.73	326.59	7.88	-42.1	-43.2	21.4	0.00e+00	0	32	101	1048576	60	7076
2026-01-05 20:01:12.74	326.46	7.83	-42.0	-43.2	21.5	0.00e+00	0	31	101	1048576	60	7043
2026-01-05 20:01:13.75	326.33	7.78	-42.0	-43.2	21.6	0.00e+00	0	31	101	1048576	60	7025
2026-01-05 20:01:14.76	326.20	7.73	-42.0	-43.2	21.4	0.00e+00	0	32	101	1048576	60	7060
2026-01-05 20:01:15.77	326.07	7.68	-41.8	-43.0	21.7	0.00e+00	0	31	101	1048576	60	6865
2026-01-05 20:01:16.79	325.94	7.63	-42.0	-43.1	21.5	0.00e+00	0	32	101	1048576	60	6965
2026-01-05 20:01:17.80	325.81	7.58	-41.9	-43.0	21.7	0.00e+00	0	31	101	1048576	60	6897
2026-01-05 20:01:18.81	325.68	7.53	-41.8	-43.0	21.7	0.00e+00	0	31	101	1048576	60	6870
2026-01-05 20:01:19.82	325.55	7.48	-41.9	-43.0	21.6	0.00e+00	0	31	101	1048576	60	6925
2026-01-05 20:01:20.83	325.43	7.43	-41.8	-42.9	21.8	0.00e+00	0	31	101	1048576	60	6835
2026-01-05 20:01:21.84	325.30	7.38	-41.7	-42.8	21.8	7.00e-07	0	31	101	1048576	60	6727
2026-01-05 20:01:22.85	325.17	7.33	-41.8	-42.9	21.7	0.00e+00	0	31	101	1048576	60	6807
2026-01-05 20:01:23.86	325.05	7.28	-41.7	-42.8	21.8	0.00e+00	0	31	101	1048576	60	6762
2026-01-05 20:01:24.87	324.92	7.22	-41.8	-43.0	21.8	0.00e+00	0	31	101	1048576	60	6865
2026-01-05 20:01:25.89	324.80	7.17	-41.6	-42.7	21.9	0.00e+00	0	31	101	1048576	60	6658
2026-01-05 20:01:26.90	324.67	7.12	-41.5	-42.6	22.1	0.00e+00	0	31	101	1048576	60	6554
2026-01-05 20:01:27.91	324.55	7.07	-41.5	-42.5	22.0	0.00e+00	0	32	101	1048576	60	6539
2026-01-05 20:01:28.92	324.42	7.02	-41.3	-42.3	22.3	0.00e+00	0	31	101	1048576	60	6378
2026-01-05 20:01:29.93	324.30	6.97	-41.3	-42.4	21.9	0.00e+00	0	31	101	1048576	60	6417
2026-01-05 20:01:30.94	324.18	6.92	-41.3	-42.3	22.1	0.00e+00	0	31	101	1048576	60	6370
2026-01-05 20:01:31.95	324.06	6.87	-41.3	-42.4	22.1	0.00e+00	0	31	101	1048576	60	6442
2026-01-05 20:01:32.96	323.94	6.82	-41.4	-42.5	22.1	0.00e+00	0	31	101	1048576	60	6527
2026-01-05 20:01:33.97	323.81	6.77	-41.4	-42.5	22.0	0.00e+00	0	31	101	1048576	60	6499
2026-01-05 20:01:34.98	323.69	6.72	-41.4	-42.5	22.0	0.00e+00	0	31	101	1048576	60	6502
2026-01-05 20:01:36.00	323.57	6.66	-41.4	-42.5	22.0	0.00e+00	0	31	101	1048576	60	6506
2026-01-05 20:01:37.01	323.45	6.61	-41.4	-42.5	21.6	0.00e+00	0	31	101	1048576	60	6505
2026-01-05 20:01:38.02	323.33	6.56	-41.5	-42.6	21.9	0.00e+00	0	31	101	1048576	60	6587
2026-01-05 20:01:39.03	323.21	6.51	-41.5	-42.6	21.9	0.00e+00	0	31	101	1048576	60	6591
2026-01-05 20:01:40.04	323.09	6.46	-41.6	-42.7	21.9	0.00e+00	0	31	101	1048576	60	6647
2026-01-05 20:01:41.05	322.98	6.41	-41.4	-42.5	22.0	0.00e+00	0	31	101	1048576	60	6529
2026-01-05 20:01:42.06	322.86	6.36	-41.6	-42.8	21.8	0.00e+00	0	31	101	1048576	60	6696
2026-01-05 20:01:43.07	322.74	6.31	-41.6	-42.7	21.7	0.00e+00	0	31	101	1048576	60	6675
2026-01-05 20:01:44.09	322.62	6.25	-41.5	-42.7	21.9	0.00e+00	0	31	101	1048576	60	6628
2026-01-05 20:01:45.10	322.51	6.20	-41.5	-42.6	22.0	0.00e+00	0	31	101	1048576	60	6581
2026-01-05 20:01:46.11	322.39	6.15	-41.5	-42.6	22.0	0.00e+00	0	31	101	1048576	60	6542
2026-01-05 20:01:47.12	322.28	6.10	-41.5	-42.6	21.9	0.00e+00	0	31	101	1048576	60	6603
2026-01-05 20:01:48.13	322.16	6.05	-41.6	-42.7	21.8	0.00e+00	0	31	101	1048576	60	6678
2026-01-05 20:01:49.14	322.05	6.00	-41.5	-42.6	21.9	0.00e+00	0	31	101	1048576	60	6613
2026-01-05 20:01:50.15	321.93	5.95	-41.5	-42.6	21.9	0.00e+00	0	31	101	1048576	60	6579
2026-01-05 20:01:51.16	321.82	5.90	-41.6	-42.7	21.8	0.00e+00	0	31	101	1048576	60	6640
2026-01-05 20:01:52.17	321.70	5.84	-41.6	-42.7	21.7	0.00e+00	0	31	101	1048576	60	6686
2026-01-05 20:01:53.18	321.59	5.79	-41.7	-42.8	21.7	0.00e+00	0	31	101	1048576	60	6744
2026-01-05 20:01:54.19	321.48	5.74	-41.9	-43.0	21.5	0.00e+00	0	31	101	1048576	60	6923
2026-01-05 20:01:55.21	321.36	5.69	-41.8	-43.0	21.5	0.00e+00	0	31	101	1048576	60	6888
2026-01-05 20:01:56.22	321.25	5.64	-42.0	-43.2	21.3	0.00e+00	0	31	101	1048576	60	7027
2026-01-05 20:01:57.23	321.14	5.59	-41.9	-43.1	21.4	0.00e+00	0	31	101	1048576	60	6989
2026-01-05 20:01:58.24	321.03	5.54	-41.9	-43.1	21.3	0.00e+00	0	31	101	1048576	60	6996
2026-01-05 20:01:59.25	320.92	5.48	-42.0	-43.2	21.3	0.00e+00	0	31	101	1048576	60	7011
2026-01-05 20:02:00.26	320.81	5.43	-42.1	-43.3	21.2	0.00e+00	0	31	101	1048576	60	7138
2026-01-05 20:02:01.27	320.70	5.38	-42.2	-43.5	21.1	0.00e+00	0	31	101	1048576	60	7288
2026-01-05 20:02:02.28	320.59	5.33	-42.1	-43.4	21.0	0.00e+00	0	31	101	1048576	60	7185
2026-01-05 20:02:03.29	320.48	5.28	-41.9	-43.1	21.4	0.00e+00	0	31	101	1048576	60	6990
2026-01-05 20:02:04.30	320.37	5.23	-42.0	-43.3	21.1	0.00e+00	0	31	101	1048576	60	7090
2026-01-05 20:02:05.31	320.26	5.18	-42.0	-43.2	21.2	0.00e+00	0	31	101	1048576	60	7080
2026-01-05 20:02:06.32	320.15	5.13	-42.2	-43.4	21.1	0.00e+00	0	31	101	1048576	60	7238
2026-01-05 20:02:07.34	320.05	5.07	-42.1	-43.3	21.1	0.00e+00	0	31	101	1048576	60	7151
2026-01-05 20:02:08.35	319.94	5.02	-41.9	-43.1	21.3	0.00e+00	0	31	101	1048576	60	6986
2026-01-05 20:02:09.36	319.83	4.97	-42.1	-43.3	21.0	0.00e+00	0	31	101	1048576	60	7165
2026-01-05 20:02:10.37	319.73	4.92	-42.3	-43.5	20.9	0.00e+00	0	31	101	1048576	60	7320
2026-01-05 20:02:11.38	319.62	4.87	-42.1	-43.3	21.1	0.00e+00	0	31	101	1048576	60	7167
2026-01-05 20:02:12.39	319.51	4.82	-42.1	-43.4	21.0	0.00e+00	0	31	101	1048576	60	7200
2026-01-05 20:02:13.41	319.41	4.77	-42.3	-43.5	20.9	0.00e+00	0	31	101	1048576	60	7318
2026-01-05 20:02:14.42	319.30	4.72	-42.3	-43.6	20.8	0.00e+00	0	31	101	1048576	60	7365
2026-01-05 20:02:15.43	319.20	4.66	-42.4	-43.7	20.6	0.00e+00	0	31	101	1048576	60	7479
2026-01-05 20:02:16.44	319.09	4.61	-42.2	-43.5	20.9	0.00e+00	0	31	101	1048576	60	7279
2026-01-05 20:02:17.45	318.99	4.56	-42.4	-43.7	20.7	0.00e+00	0	31	101	1048576	60	7446
2026-01-05 20:02:18.46	318.89	4.51	-42.5	-43.8	20.6	0.00e+00	0	31	101	1048576	60	7558
2026-01-05 20:02:19.47	318.78	4.46	-42.7	-44.0	20.4	0.00e+00	0	31	101	1048576	60	7729
2026-01-05 20:02:20.48	318.68	4.41	-42.7	-44.1	20.3	0.00e+00	0	31	101	1048576	60	7793
2026-01-05 20:02:21.49	318.58	4.36	-42.7	-44.0	20.3	0.00e+00	0	31	101	1048576	60	7760
2026-01-05 20:02:22.50	318.48	4.31	-42.5	-43.8	20.4	0.00e+00	0	31	101	1048576	60	7591
2026-01-05 20:02:23.51	318.37	4.25	-42.6	-44.0	20.5	0.00e+00	0	31	101	1048576	60	7709
2026-01-05 20:02:24.52	318.27	4.20	-43.1	-44.5	19.9	0.00e+00	0	31	101	1048576	60	8191
2026-01-05 20:02:25.53	318.17	4.15	-42.7	-44.1	20.2	0.00e+00	0	31	101	1048576	60	7812
2026-01-05 20:02:26.54	318.07	4.10	-42.8	-44.2	20.2	0.00e+00	0	31	101	1048576	60	7906
2026-01-05 20:02:27.56	317.97	4.05	-42.8	-44.1	20.2	0.00e+00	0	31	101	1048576	60	7853
2026-01-05 20:02:28.57	317.87	4.00	-43.0	-44.4	19.9	0.00e+00	0	31	101	1048576	60	8090
2026-01-05 20:02:29.58	317.77	3.95	-42.9	-44.4	19.9	0.00e+00	0	31	101	1048576	60	8062
2026-01-05 20:02:30.59	317.67	3.90	-42.9	-44.4	19.9	0.00e+00	0	31	101	1048576	60	8046
2026-01-05 20:02:31.60	317.57	3.85	-43.1	-44.6	19.7	0.00e+00	0	31	101	1048576	60	8296
2026-01-05 20:02:32.61	317.48	3.79	-43.2	-44.7	19.6	0.00e+00	0	31	101	1048576	60	8413
2026-01-05 20:02:33.62	317.38	3.74	-43.0	-44.4	19.8	0.00e+00	0	31	101	1048576	60	8135
2026-01-05 20:02:34.64	317.28	3.69	-43.0	-44.5	19.7	0.00e+00	0	31	101	1048576	60	8185
2026-01-05 20:02:35.65	317.18	3.64	-43.1	-44.6	19.5	0.00e+00	0	31	101	1048576	60	8245
2026-01-05 20:02:36.66	317.09	3.59	-43.2	-44.7	19.5	0.00e+00	0	31	101	1048576	60	8360
2026-01-05 20:02:37.67	316.99	3.54	-43.4	-44.9	19.4	0.00e+00	0	31	101	1048576	60	8580
2026-01-05 20:02:38.68	316.89	3.49	-43.2	-44.7	19.5	0.00e+00	0	31	101	1048576	60	8362
2026-01-05 20:02:39.69	316.80	3.44	-43.2	-44.7	19.5	0.00e+00	0	31	101	1048576	60	8408
2026-01-05 20:02:40.70	316.70	3.39	-43.7	-45.3	18.9	0.00e+00	0	31	101	1048576	60	8963
2026-01-05 20:02:41.71	316.61	3.34	-43.6	-45.2	19.0	0.00e+00	0	31	101	1048576	60	8879
2026-01-05 20:02:42.72	316.51	3.28	-43.8	-45.5	18.7	0.00e+00	0	31	101	1048576	60	9229
2026-01-05 20:02:43.73	316.42	3.23	-43.7	-45.4	18.8	0.00e+00	0	31	101	1048576	60	9091
2026-01-05 20:02:44.74	316.32	3.18	-43.5	-45.2	19.0	0.00e+00	0	31	101	1048576	60	8836
2026-01-05 20:02:45.75	316.23	3.13	-43.6	-45.2	18.9	0.00e+00	0	31	101	1048576	60	8898
2026-01-05 20:02:46.76	316.14	3.08	-43.5	-45.2	18.9	0.00e+00	0	31	101	1048576	60	8831
2026-01-05 20:02:47.77	316.04	3.03	-50.1	-65.3	3.6	9.68e-01	0	31	104	1048576	60	89950
2026-01-05 20:02:48.78	315.95	2.98	-50.6	-65.9	3.6	1.51e+00	0	31	104	1048576	60	96406
2026-01-05 20:02:49.79	315.86	2.93	-50.9	-66.2	3.6	1.51e+00	0	31	104	1048576	60	99753
2026-01-05 20:02:50.80	315.77	2.88	-51.1	-66.4	3.6	1.51e+00	0	31	104	1048576	60	101298
2026-01-05 20:02:51.82	315.67	2.83	-51.2	-66.5	3.6	1.51e+00	0	31	104	1048576	60	102912
2026-01-05 20:02:52.83	315.58	2.78	-51.2	-66.6	3.6	1.51e+00	0	31	104	1048576	60	103853
2026-01-05 20:02:53.84	315.49	2.73	-51.3	-66.6	3.6	1.51e+00	0	31	104	1048576	60	103916
2026-01-05 20:02:54.85	315.40	2.68	-51.3	-66.6	3.6	1.51e+00	0	31	104	1048576	60	103999
2026-01-05 20:02:55.86	315.31	2.63	-51.3	-66.6	3.6	1.51e+00	0	32	104	1048576	60	104250
2026-01-05 20:02:56.87	315.22	2.58	-51.3	-66.6	3.6	1.51e+00	0	31	104	1048576	60	104191
2026-01-05 20:02:57.88	315.13	2.52	-51.3	-66.6	3.6	1.51e+00	0	31	104	1048576	60	104168
2026-01-05 20:02:58.90	315.04	2.47	-51.1	-66.5	3.6	1.51e+00	0	32	104	1048576	60	102960
2026-01-05 20:02:59.91	314.95	2.42	-51.1	-66.5	3.6	1.51e+00	0	32	104	1048576	60	102815
2026-01-05 20:03:00.92	314.86	2.37	-51.1	-66.5	3.6	1.51e+00	0	32	104	1048576	60	102876
2026-01-05 20:03:01.93	314.77	2.32	-51.1	-66.4	3.6	1.51e+00	0	32	104	1048576	60	102167
2026-01-05 20:03:02.94	314.68	2.27	-51.0	-66.4	3.6	1.51e+00	0	31	104	1048576	60	101806
2026-01-05 20:03:03.95	314.59	2.22	-51.1	-66.5	3.6	1.51e+00	0	32	104	1048576	60	102627
